passes_logs/2026/01/28/R3.2S_Murmansk/R3.2S_Murmansk__20260128_052713_SUOMI_NPP_rec.log

#Pass ID: 20260128_052713_SUOMI NPP
#Satellite: SUOMI NPP
#Configuration: NPP
#almurnet v.1.7.20251203
#Start time: 2026-01-28 05:27:12

#Version: 2.2.20231116
#Station: R3.2S_Murmansk
#Location: 33.079688 lon 68.888172 lat
#TLE: 1 37849U 11061A   26027.29799992  .00000188  00000+0  11027-3 0  9993
#TLE: 2 37849  98.7822 329.2414 0002113  42.5791 317.5548 14.19530708738457

#Time	Az	El	Level	Level2	SNR	BER	BlckErr	Temp	State	Recorded	gain1	gain2
2026-01-28 05:27:12.97	65.43	1.99	-54.0	-69.0	3.8	1.49e+00	0	41	0	0	79	20432
2026-01-28 05:27:13.96	65.36	2.04	-54.0	-69.1	3.8	1.49e+00	0	41	104	0	78	21804
2026-01-28 05:27:14.97	65.30	2.10	-54.0	-69.0	3.8	1.49e+00	0	41	104	0	78	21627
2026-01-28 05:27:15.98	65.23	2.16	-54.0	-69.0	3.8	1.49e+00	0	41	104	0	78	21627
2026-01-28 05:27:16.99	65.17	2.22	-54.1	-69.1	3.8	1.49e+00	0	41	104	0	78	21952
2026-01-28 05:27:18.00	65.10	2.27	-54.2	-69.2	3.8	1.49e+00	0	41	104	0	78	22039
2026-01-28 05:27:19.01	65.04	2.33	-54.2	-69.2	3.8	1.49e+00	0	41	104	0	78	22117
2026-01-28 05:27:20.02	64.97	2.39	-54.2	-69.2	3.8	1.49e+00	0	41	104	0	78	22088
2026-01-28 05:27:21.03	64.91	2.45	-54.2	-69.2	3.8	1.49e+00	0	41	104	0	78	22043
2026-01-28 05:27:22.03	64.84	2.50	-54.2	-69.2	3.8	1.49e+00	0	41	104	0	78	22092
2026-01-28 05:27:23.04	64.77	2.56	-54.2	-69.1	3.8	1.49e+00	0	41	104	0	78	21981
2026-01-28 05:27:24.05	64.71	2.62	-54.1	-69.1	3.8	1.49e+00	0	41	104	0	78	21861
2026-01-28 05:27:25.06	64.64	2.68	-54.1	-69.0	3.8	1.49e+00	0	41	104	0	78	21726
2026-01-28 05:27:26.06	64.57	2.74	-54.0	-69.0	3.8	1.49e+00	0	41	104	0	78	21575
2026-01-28 05:27:27.07	64.51	2.79	-53.9	-68.9	3.8	1.49e+00	0	41	104	0	78	21353
2026-01-28 05:27:28.08	64.44	2.85	-53.9	-68.8	3.8	1.49e+00	0	41	104	0	78	21232
2026-01-28 05:27:29.09	64.37	2.91	-53.8	-68.8	3.8	1.49e+00	0	41	104	0	78	21136
2026-01-28 05:27:30.09	64.30	2.97	-53.8	-68.8	3.8	1.49e+00	0	41	104	0	78	21048
2026-01-28 05:27:31.10	64.23	3.03	-53.7	-68.6	3.8	1.49e+00	0	41	104	0	78	20749
2026-01-28 05:27:32.11	64.16	3.09	-53.6	-68.6	3.8	1.49e+00	0	41	104	0	78	20570
2026-01-28 05:27:33.12	64.09	3.15	-53.5	-68.5	3.8	1.49e+00	0	41	104	0	78	20312
2026-01-28 05:27:34.13	64.02	3.20	-53.4	-68.3	3.8	1.49e+00	0	42	104	0	78	19995
2026-01-28 05:27:35.13	63.95	3.26	-53.2	-68.2	3.8	1.49e+00	0	41	104	0	78	19661
2026-01-28 05:27:36.14	63.88	3.32	-53.0	-68.0	3.8	1.49e+00	0	42	104	0	78	19234
2026-01-28 05:27:37.15	63.81	3.38	-52.8	-67.8	3.8	1.49e+00	0	42	104	0	77	19871
2026-01-28 05:27:38.16	63.74	3.44	-52.4	-67.3	3.8	1.49e+00	0	42	104	0	76	20029
2026-01-28 05:27:39.17	63.67	3.50	-52.0	-66.9	3.8	1.49e+00	0	42	104	0	76	18979
2026-01-28 05:27:40.18	63.60	3.56	-52.0	-66.9	3.8	1.49e+00	0	42	104	0	76	19007
2026-01-28 05:27:41.18	63.53	3.62	-52.0	-66.9	3.8	1.49e+00	0	42	104	0	76	19082
2026-01-28 05:27:42.19	63.46	3.68	-52.0	-66.9	3.8	1.49e+00	0	42	104	0	76	19040
2026-01-28 05:27:43.20	63.38	3.74	-52.0	-66.9	3.8	1.49e+00	0	42	104	0	75	20156
2026-01-28 05:27:44.21	63.31	3.80	-52.0	-66.8	3.8	1.49e+00	0	42	104	0	75	20042
2026-01-28 05:27:45.22	63.24	3.86	-51.9	-66.8	3.8	1.49e+00	0	42	104	0	75	19952
2026-01-28 05:27:46.22	63.17	3.92	-51.9	-66.8	3.8	1.49e+00	0	42	104	0	75	20000
2026-01-28 05:27:47.23	63.09	3.98	-51.9	-66.9	3.8	1.49e+00	0	42	104	0	75	20103
2026-01-28 05:27:48.24	63.02	4.04	-51.9	-66.8	3.8	1.49e+00	0	42	104	0	75	19941
2026-01-28 05:27:49.25	62.94	4.10	-51.9	-66.5	3.8	1.49e+00	0	42	104	0	75	19184
2026-01-28 05:27:50.26	62.87	4.16	-51.9	-65.8	3.8	1.49e+00	0	42	104	0	75	17824
2026-01-28 05:27:51.27	62.79	4.22	-51.8	-64.6	3.8	1.49e+00	0	42	104	0	75	15462
2026-01-28 05:27:52.28	62.72	4.28	-51.8	-63.5	4.1	1.47e+00	0	42	104	0	75	13702
2026-01-28 05:27:53.28	62.64	4.34	-51.7	-62.6	4.4	1.39e+00	127	42	0	0	75	12265
2026-01-28 05:27:54.29	62.57	4.40	-51.6	-62.0	4.7	9.41e-01	0	42	0	2097152	75	11480
2026-01-28 05:27:55.30	62.49	4.46	-51.6	-61.7	4.8	8.41e-01	0	42	0	3145728	75	11048
2026-01-28 05:27:56.30	62.42	4.52	-51.6	-62.0	4.7	7.78e-01	0	42	0	5242880	75	11437
2026-01-28 05:27:57.31	62.34	4.58	-51.7	-62.6	4.4	1.03e+00	92	42	0	7340032	75	12353
2026-01-28 05:27:58.32	62.26	4.64	-51.7	-63.3	4.2	1.33e+00	0	42	0	8388608	75	13352
2026-01-28 05:27:59.33	62.18	4.70	-51.8	-64.0	4.1	1.47e+00	0	42	104	8388608	75	14401
2026-01-28 05:28:00.33	62.11	4.76	-51.8	-64.1	4.0	1.48e+00	0	42	104	8388608	75	14616
2026-01-28 05:28:01.34	62.03	4.82	-51.7	-63.2	4.2	1.40e+00	0	42	0	8388608	75	13228
2026-01-28 05:28:02.35	61.95	4.88	-51.6	-61.6	4.9	9.02e-01	0	42	0	9437184	75	10937
2026-01-28 05:28:03.36	61.87	4.95	-51.4	-60.4	5.6	5.57e-01	0	42	0	11534336	74	10128
2026-01-28 05:28:04.37	61.79	5.01	-51.1	-58.7	6.9	2.19e-01	0	42	0	13631488	74	8274
2026-01-28 05:28:05.37	61.71	5.07	-51.2	-58.7	7.1	1.23e-01	0	42	0	15728640	74	8314
2026-01-28 05:28:06.38	61.63	5.13	-50.6	-56.2	9.1	3.99e-01	0	42	0	16777216	73	6615
2026-01-28 05:28:07.39	61.55	5.19	-49.8	-54.2	12.1	5.30e-06	0	42	0	18874368	70	6207
2026-01-28 05:28:08.40	61.47	5.25	-51.9	-65.8	3.9	1.49e+00	0	42	104	19922944	74	18760
2026-01-28 05:28:09.41	61.39	5.32	-50.0	-54.5	11.0	1.60e-01	0	42	0	19922944	72	5726
2026-01-28 05:28:10.41	61.31	5.38	-48.5	-51.6	14.2	2.20e-06	0	42	0	22020096	68	5166
2026-01-28 05:28:11.42	61.23	5.44	-48.4	-51.3	14.5	0.00e+00	0	42	0	24117248	68	5038
2026-01-28 05:28:12.43	61.15	5.50	-48.0	-50.7	15.1	0.00e+00	0	42	0	26214400	68	4679
2026-01-28 05:28:13.44	61.06	5.56	-47.8	-50.4	15.4	0.00e+00	0	42	0	28311552	67	4793
2026-01-28 05:28:14.45	60.98	5.63	-47.6	-50.1	15.8	0.00e+00	0	42	0	29360128	67	4600
2026-01-28 05:28:15.45	60.90	5.69	-47.7	-50.2	15.6	0.00e+00	0	42	0	31457280	67	4690
2026-01-28 05:28:16.46	60.81	5.75	-47.8	-50.4	15.5	0.00e+00	0	42	0	33554432	67	4809
2026-01-28 05:28:17.47	60.73	5.81	-47.4	-49.7	16.2	0.00e+00	0	42	0	35651584	66	4687
2026-01-28 05:28:18.48	60.65	5.88	-47.3	-49.7	16.2	0.00e+00	0	42	0	37748736	66	4656
2026-01-28 05:28:19.49	60.56	5.94	-47.4	-49.8	16.1	0.00e+00	0	42	0	39845888	66	4744
2026-01-28 05:28:20.50	60.48	6.00	-47.4	-49.8	16.2	0.00e+00	0	42	0	40894464	66	4721
2026-01-28 05:28:21.51	60.39	6.07	-47.7	-50.2	15.8	0.00e+00	0	42	0	42991616	66	4962
2026-01-28 05:28:22.52	60.30	6.13	-47.8	-50.4	15.5	0.00e+00	0	42	0	45088768	66	5081
2026-01-28 05:28:23.53	60.22	6.19	-47.7	-50.2	15.7	0.00e+00	0	42	0	47185920	66	4960
2026-01-28 05:28:24.53	60.13	6.25	-47.9	-50.6	15.4	0.00e+00	0	42	0	48234496	66	5185
2026-01-28 05:28:25.54	60.04	6.32	-47.8	-50.4	15.6	0.00e+00	0	42	0	50331648	66	5050
2026-01-28 05:28:26.55	59.96	6.38	-47.6	-50.1	15.8	0.00e+00	0	42	0	52428800	66	4904
2026-01-28 05:28:27.56	59.87	6.44	-47.8	-50.4	15.6	0.00e+00	0	43	0	54525952	66	5053
2026-01-28 05:28:28.57	59.78	6.51	-47.6	-50.1	15.9	0.00e+00	0	42	0	56623104	66	4873
2026-01-28 05:28:29.57	59.69	6.57	-47.8	-50.3	15.7	0.00e+00	0	42	0	58720256	66	5031
2026-01-28 05:28:30.58	59.60	6.64	-47.8	-50.4	15.6	0.00e+00	0	42	0	59768832	66	5047
2026-01-28 05:28:31.59	59.51	6.70	-47.8	-50.3	15.7	0.00e+00	0	42	0	61865984	66	5004
2026-01-28 05:28:32.60	59.42	6.76	-48.0	-50.7	15.4	0.00e+00	0	42	0	63963136	66	5223
2026-01-28 05:28:33.61	59.33	6.83	-48.2	-50.9	15.2	0.00e+00	0	42	0	66060288	66	5371
2026-01-28 05:28:34.61	59.24	6.89	-48.1	-50.9	15.2	0.00e+00	0	42	0	68157440	67	5074
2026-01-28 05:28:35.62	59.15	6.96	-48.4	-51.2	14.8	7.00e-07	0	42	0	69206016	67	5271
2026-01-28 05:28:36.63	59.06	7.02	-48.0	-50.8	15.3	0.00e+00	0	42	0	71303168	67	4986
2026-01-28 05:28:37.63	58.97	7.08	-48.0	-50.7	15.3	0.00e+00	0	43	0	73400320	67	4939
2026-01-28 05:28:38.65	58.88	7.15	-47.9	-50.5	15.5	0.00e+00	0	42	0	75497472	67	4823
2026-01-28 05:28:39.65	58.79	7.21	-47.7	-50.2	15.9	0.00e+00	0	42	0	76546048	67	4687
2026-01-28 05:28:40.66	58.69	7.28	-47.7	-50.2	16.0	0.00e+00	0	43	0	78643200	67	4653
2026-01-28 05:28:41.67	58.60	7.34	-47.4	-49.8	16.3	0.00e+00	0	42	0	80740352	66	4726
2026-01-28 05:28:42.68	58.50	7.41	-47.4	-49.7	16.4	0.00e+00	0	42	0	82837504	66	4673
2026-01-28 05:28:43.69	58.41	7.47	-47.6	-50.0	16.1	0.00e+00	0	42	0	84934656	66	4826
2026-01-28 05:28:44.69	58.32	7.54	-47.4	-49.8	16.3	0.00e+00	0	43	0	87031808	66	4716
2026-01-28 05:28:45.70	58.22	7.60	-47.6	-50.0	16.1	0.00e+00	0	42	0	88080384	66	4855
2026-01-28 05:28:46.71	58.12	7.67	-47.6	-50.0	16.2	0.00e+00	0	42	0	90177536	66	4829
2026-01-28 05:28:47.72	58.03	7.73	-47.6	-50.0	16.1	0.00e+00	0	43	0	92274688	66	4848
2026-01-28 05:28:48.72	57.93	7.80	-47.4	-49.7	16.4	0.00e+00	0	43	0	94371840	66	4654
2026-01-28 05:28:49.73	57.84	7.86	-47.2	-49.5	16.6	0.00e+00	0	42	0	96468992	66	4547
2026-01-28 05:28:50.74	57.74	7.93	-47.3	-49.5	16.5	0.00e+00	0	42	0	97517568	66	4589
2026-01-28 05:28:51.75	57.64	7.99	-47.3	-49.5	16.6	0.00e+00	0	43	0	99614720	66	4586
2026-01-28 05:28:52.75	57.54	8.06	-46.9	-49.0	17.1	0.00e+00	0	43	0	101711872	65	4573
2026-01-28 05:28:53.76	57.44	8.13	-47.0	-49.1	16.9	0.00e+00	0	42	0	103809024	65	4643
2026-01-28 05:28:54.77	57.34	8.19	-47.0	-49.1	17.0	0.00e+00	0	43	0	105906176	65	4600
2026-01-28 05:28:55.78	57.24	8.26	-47.0	-49.0	17.0	0.00e+00	0	43	0	106954752	65	4588
2026-01-28 05:28:56.79	57.14	8.32	-46.9	-49.0	16.9	0.00e+00	0	42	0	109051904	65	4568
2026-01-28 05:28:57.79	57.04	8.39	-46.9	-48.9	17.0	0.00e+00	0	42	0	111149056	65	4503
2026-01-28 05:28:58.80	56.94	8.46	-46.9	-48.9	17.0	0.00e+00	0	43	0	113246208	65	4528
2026-01-28 05:28:59.81	56.84	8.52	-47.0	-49.0	17.0	0.00e+00	0	43	0	115343360	65	4588
2026-01-28 05:29:00.82	56.74	8.59	-46.8	-48.8	17.2	0.00e+00	0	42	0	116391936	65	4477
2026-01-28 05:29:01.83	56.64	8.66	-46.8	-48.8	17.2	0.00e+00	0	43	0	118489088	65	4482
2026-01-28 05:29:02.83	56.53	8.72	-46.8	-48.8	17.3	0.00e+00	0	43	0	120586240	65	4454
2026-01-28 05:29:03.84	56.43	8.79	-46.9	-49.0	17.2	0.00e+00	0	43	0	122683392	65	4557
2026-01-28 05:29:04.85	56.32	8.86	-46.9	-48.9	17.3	0.00e+00	0	43	0	124780544	65	4537
2026-01-28 05:29:05.86	56.22	8.92	-46.8	-48.8	17.5	0.00e+00	0	43	0	125829120	65	4450
2026-01-28 05:29:06.86	56.12	8.99	-46.8	-48.8	17.3	0.00e+00	0	43	0	127926272	65	4488
2026-01-28 05:29:07.87	56.01	9.06	-46.9	-48.9	17.3	0.00e+00	0	43	0	130023424	65	4526
2026-01-28 05:29:08.88	55.90	9.12	-47.0	-49.0	17.2	0.00e+00	0	43	0	132120576	65	4589
2026-01-28 05:29:09.89	55.80	9.19	-47.1	-49.1	17.1	0.00e+00	0	43	0	134217728	65	4651
2026-01-28 05:29:10.90	55.69	9.26	-47.0	-49.1	17.1	0.00e+00	0	43	0	135266304	65	4626
2026-01-28 05:29:11.91	55.58	9.33	-47.0	-49.1	17.2	0.00e+00	0	43	0	137363456	65	4616
2026-01-28 05:29:12.91	55.47	9.39	-47.3	-49.4	16.9	0.00e+00	0	43	0	139460608	65	4808
2026-01-28 05:29:13.92	55.37	9.46	-47.4	-49.5	16.8	0.00e+00	0	43	0	141557760	65	4858
2026-01-28 05:29:14.93	55.26	9.53	-47.6	-49.8	16.5	0.00e+00	0	43	0	143654912	65	5033
2026-01-28 05:29:15.94	55.15	9.60	-47.6	-49.9	16.5	0.00e+00	0	43	0	144703488	65	5057
2026-01-28 05:29:16.95	55.04	9.66	-47.3	-49.5	16.8	0.00e+00	0	43	0	146800640	65	4859
2026-01-28 05:29:17.96	54.93	9.73	-47.3	-49.5	16.8	0.00e+00	0	43	0	148897792	65	4845
2026-01-28 05:29:18.97	54.81	9.80	-47.5	-49.7	16.7	0.00e+00	0	43	0	150994944	65	4963
2026-01-28 05:29:19.97	54.70	9.87	-47.6	-49.9	16.5	0.00e+00	0	43	0	153092096	65	5052
2026-01-28 05:29:20.98	54.59	9.94	-47.7	-50.0	16.4	0.00e+00	0	43	0	155189248	66	4837
2026-01-28 05:29:21.99	54.48	10.00	-47.6	-49.9	16.5	0.00e+00	0	43	0	156237824	66	4786
2026-01-28 05:29:22.99	54.37	10.07	-47.7	-50.0	16.3	0.00e+00	0	43	0	158334976	66	4827
2026-01-28 05:29:24.00	54.25	10.14	-47.5	-49.7	16.6	0.00e+00	0	43	0	160432128	66	4697
2026-01-28 05:29:25.01	54.14	10.21	-47.3	-49.4	16.9	0.00e+00	0	43	0	162529280	66	4536
2026-01-28 05:29:26.02	54.02	10.28	-47.3	-49.5	16.9	0.00e+00	0	43	0	163577856	66	4562
2026-01-28 05:29:27.02	53.91	10.34	-47.3	-49.4	17.0	0.00e+00	0	43	0	165675008	66	4517
2026-01-28 05:29:28.03	53.79	10.41	-47.3	-49.4	17.0	0.00e+00	0	43	0	167772160	66	4529
2026-01-28 05:29:29.04	53.67	10.48	-47.3	-49.4	17.0	0.00e+00	0	43	0	169869312	66	4521
2026-01-28 05:29:30.04	53.56	10.55	-47.1	-49.1	17.2	0.00e+00	0	43	0	171966464	66	4380
2026-01-28 05:29:31.05	53.44	10.62	-47.4	-49.6	16.7	0.00e+00	0	43	0	173015040	66	4630
2026-01-28 05:29:32.06	53.32	10.69	-47.1	-49.1	17.2	0.00e+00	0	43	0	175112192	66	4345
2026-01-28 05:29:33.07	53.20	10.76	-47.1	-49.1	17.2	0.00e+00	0	43	0	177209344	66	4390
2026-01-28 05:29:34.08	53.08	10.83	-47.2	-49.3	17.1	0.00e+00	0	43	0	179306496	66	4455
2026-01-28 05:29:35.09	52.96	10.90	-47.0	-49.0	17.3	0.00e+00	0	43	0	181403648	66	4312
2026-01-28 05:29:36.10	52.84	10.97	-46.8	-48.8	17.6	0.00e+00	0	43	0	183500800	65	4445
2026-01-28 05:29:37.11	52.72	11.03	-46.9	-48.9	17.5	0.00e+00	0	43	0	184549376	65	4498
2026-01-28 05:29:38.11	52.60	11.10	-46.8	-48.7	17.6	0.00e+00	0	43	0	186646528	65	4432
2026-01-28 05:29:39.12	52.48	11.17	-46.8	-48.8	17.6	0.00e+00	0	43	0	188743680	65	4448
2026-01-28 05:29:40.13	52.35	11.24	-46.8	-48.7	17.7	0.00e+00	0	43	0	190840832	65	4421
2026-01-28 05:29:41.14	52.23	11.31	-46.8	-48.7	17.7	0.00e+00	0	43	0	191889408	65	4411
2026-01-28 05:29:42.14	52.10	11.38	-46.6	-48.5	17.9	0.00e+00	0	43	0	193986560	65	4322
2026-01-28 05:29:43.15	51.98	11.45	-46.6	-48.5	17.9	0.00e+00	0	43	0	196083712	65	4311
2026-01-28 05:29:44.17	51.85	11.52	-46.6	-48.4	17.9	0.00e+00	0	43	0	198180864	65	4284
2026-01-28 05:29:45.17	51.73	11.59	-46.6	-48.4	18.0	0.00e+00	0	43	0	200278016	65	4262
2026-01-28 05:29:46.18	51.60	11.66	-46.5	-48.4	18.0	0.00e+00	0	43	0	202375168	64	4499
2026-01-28 05:29:47.19	51.47	11.73	-46.4	-48.1	18.2	0.00e+00	0	43	0	203423744	64	4374
2026-01-28 05:29:48.19	51.35	11.80	-46.4	-48.1	18.3	0.00e+00	0	43	0	205520896	64	4380
2026-01-28 05:29:49.20	51.22	11.87	-46.4	-48.2	18.2	0.00e+00	0	43	0	207618048	64	4409
2026-01-28 05:29:50.21	51.09	11.94	-46.4	-48.2	18.2	0.00e+00	0	43	0	209715200	64	4410
2026-01-28 05:29:51.22	50.96	12.01	-46.4	-48.1	18.3	0.00e+00	0	43	0	211812352	64	4387
2026-01-28 05:29:52.23	50.83	12.08	-46.5	-48.3	18.2	0.00e+00	0	43	0	212860928	64	4473
2026-01-28 05:29:53.23	50.70	12.15	-46.4	-48.1	18.3	0.00e+00	0	43	0	214958080	64	4388
2026-01-28 05:29:54.24	50.57	12.22	-46.3	-48.0	18.4	0.00e+00	0	43	0	217055232	64	4327
2026-01-28 05:29:55.26	50.43	12.29	-46.4	-48.1	18.3	0.00e+00	0	43	0	219152384	64	4376
2026-01-28 05:29:56.26	50.30	12.36	-46.2	-48.0	18.5	0.00e+00	0	43	0	220200960	64	4300
2026-01-28 05:29:57.27	50.17	12.43	-46.0	-47.7	18.7	0.00e+00	0	43	0	222298112	64	4162
2026-01-28 05:29:58.28	50.03	12.50	-46.1	-47.8	18.7	0.00e+00	0	43	0	224395264	63	4464
2026-01-28 05:29:59.29	49.90	12.57	-46.1	-47.8	18.7	0.00e+00	0	43	0	226492416	63	4475
2026-01-28 05:30:00.30	49.76	12.64	-46.3	-48.0	18.5	0.00e+00	0	43	0	228589568	63	4585
2026-01-28 05:30:01.31	49.62	12.72	-46.4	-48.2	18.3	0.00e+00	0	43	0	230686720	63	4681
2026-01-28 05:30:02.32	49.49	12.79	-46.4	-48.1	18.4	0.00e+00	0	43	0	231735296	63	4644
2026-01-28 05:30:03.33	49.35	12.86	-46.3	-48.0	18.6	0.00e+00	0	43	0	233832448	63	4565
2026-01-28 05:30:04.33	49.21	12.93	-46.3	-48.1	18.5	0.00e+00	0	43	0	235929600	63	4601
2026-01-28 05:30:05.34	49.07	13.00	-46.4	-48.1	18.4	0.00e+00	0	43	0	238026752	63	4639
2026-01-28 05:30:06.35	48.93	13.07	-46.3	-48.0	18.5	0.00e+00	0	43	0	240123904	63	4588
2026-01-28 05:30:07.36	48.79	13.14	-46.5	-48.4	18.2	0.00e+00	0	43	0	241172480	63	4771
2026-01-28 05:30:08.37	48.65	13.21	-46.6	-48.5	18.1	0.00e+00	0	43	0	243269632	63	4821
2026-01-28 05:30:09.37	48.51	13.28	-46.4	-48.2	18.2	0.00e+00	0	43	0	245366784	63	4705
2026-01-28 05:30:10.38	48.37	13.35	-46.5	-48.3	18.2	0.00e+00	0	43	0	247463936	63	4739
2026-01-28 05:30:11.39	48.22	13.42	-46.4	-48.2	18.4	0.00e+00	0	43	0	249561088	63	4657
2026-01-28 05:30:12.40	48.08	13.49	-46.5	-48.3	18.3	0.00e+00	0	43	0	250609664	63	4738
2026-01-28 05:30:13.41	47.93	13.57	-46.5	-48.3	18.2	0.00e+00	0	43	0	252706816	63	4717
2026-01-28 05:30:14.42	47.79	13.64	-46.5	-48.4	18.2	0.00e+00	0	43	0	254803968	63	4781
2026-01-28 05:30:15.42	47.64	13.71	-46.5	-48.3	18.2	0.00e+00	0	43	0	256901120	63	4747
2026-01-28 05:30:16.43	47.50	13.78	-46.5	-48.3	18.2	0.00e+00	0	43	0	258998272	63	4735
2026-01-28 05:30:17.44	47.35	13.85	-46.4	-48.2	18.3	0.00e+00	0	43	0	260046848	63	4693
2026-01-28 05:30:18.45	47.20	13.92	-46.4	-48.2	18.3	0.00e+00	0	43	0	262144000	63	4697
2026-01-28 05:30:19.45	47.05	13.99	-46.5	-48.3	18.2	0.00e+00	0	43	0	264241152	63	4758
2026-01-28 05:30:20.46	46.90	14.06	-46.5	-48.3	18.2	0.00e+00	0	43	0	266338304	63	4743
2026-01-28 05:30:21.47	46.75	14.13	-46.7	-48.6	18.0	0.00e+00	0	43	0	268435456	63	4918
2026-01-28 05:30:22.48	46.60	14.21	-46.6	-48.6	17.9	0.00e+00	0	43	0	269484032	64	4605
2026-01-28 05:30:23.49	46.45	14.28	-46.7	-48.7	17.8	0.00e+00	0	43	0	271581184	64	4659
2026-01-28 05:30:24.49	46.30	14.35	-46.4	-48.2	18.2	0.00e+00	0	43	0	273678336	64	4415
2026-01-28 05:30:25.50	46.14	14.42	-46.4	-48.2	18.3	0.00e+00	0	43	0	275775488	64	4434
2026-01-28 05:30:26.51	45.99	14.49	-46.2	-47.9	18.5	0.00e+00	0	43	0	277872640	64	4282
2026-01-28 05:30:27.52	45.83	14.56	-46.3	-48.0	18.4	0.00e+00	0	43	0	278921216	64	4332
2026-01-28 05:30:28.53	45.68	14.63	-46.3	-48.1	18.3	0.00e+00	0	43	0	281018368	64	4375
2026-01-28 05:30:29.53	45.52	14.70	-46.5	-48.3	18.3	0.00e+00	0	43	0	283115520	64	4490
2026-01-28 05:30:30.54	45.37	14.77	-46.4	-48.2	18.3	0.00e+00	0	43	0	285212672	64	4441
2026-01-28 05:30:31.55	45.21	14.85	-46.5	-48.4	18.2	0.00e+00	0	43	0	287309824	64	4496
2026-01-28 05:30:32.56	45.05	14.92	-46.5	-48.4	18.1	0.00e+00	0	43	0	288358400	64	4514
2026-01-28 05:30:33.57	44.89	14.99	-46.7	-48.6	17.9	0.00e+00	0	43	0	290455552	64	4622
2026-01-28 05:30:34.57	44.73	15.06	-46.8	-48.8	17.6	0.00e+00	0	43	0	292552704	64	4750
2026-01-28 05:30:35.58	44.57	15.13	-46.9	-49.0	17.5	0.00e+00	0	43	0	294649856	64	4822
2026-01-28 05:30:36.59	44.41	15.20	-46.9	-48.9	17.6	0.00e+00	0	43	0	296747008	64	4812
2026-01-28 05:30:37.60	44.24	15.27	-47.1	-49.2	17.3	0.00e+00	0	43	0	297795584	65	4705
2026-01-28 05:30:38.61	44.08	15.34	-47.1	-49.2	17.4	0.00e+00	0	43	0	299892736	65	4701
2026-01-28 05:30:39.62	43.92	15.41	-47.1	-49.2	17.3	0.00e+00	0	43	0	301989888	65	4690
2026-01-28 05:30:40.63	43.75	15.49	-46.7	-48.6	17.8	0.00e+00	0	43	0	304087040	65	4391
2026-01-28 05:30:41.64	43.58	15.56	-46.6	-48.4	18.1	0.00e+00	0	43	0	306184192	65	4291
2026-01-28 05:30:42.64	43.42	15.63	-46.6	-48.5	18.0	0.00e+00	0	43	0	307232768	65	4319
2026-01-28 05:30:43.65	43.25	15.70	-46.8	-48.7	17.8	0.00e+00	0	43	0	309329920	65	4433
2026-01-28 05:30:44.66	43.08	15.77	-46.7	-48.6	17.9	0.00e+00	0	43	0	311427072	65	4357
2026-01-28 05:30:45.67	42.91	15.84	-46.7	-48.7	17.9	0.00e+00	0	43	0	313524224	65	4393
2026-01-28 05:30:46.67	42.75	15.91	-46.6	-48.4	18.0	0.00e+00	0	43	0	315621376	65	4290
2026-01-28 05:30:47.68	42.57	15.98	-46.4	-48.2	18.3	0.00e+00	0	43	0	317718528	64	4421
2026-01-28 05:30:48.69	42.40	16.05	-46.3	-48.0	18.5	0.00e+00	0	43	0	318767104	64	4317
2026-01-28 05:30:49.70	42.23	16.12	-46.5	-48.3	18.2	0.00e+00	0	43	0	320864256	64	4488
2026-01-28 05:30:50.71	42.06	16.19	-46.7	-48.5	18.1	0.00e+00	0	43	0	322961408	64	4579
2026-01-28 05:30:51.72	41.88	16.26	-46.6	-48.5	18.0	0.00e+00	0	43	0	325058560	64	4568
2026-01-28 05:30:52.72	41.71	16.33	-46.6	-48.4	18.1	0.00e+00	0	43	0	326107136	64	4515
2026-01-28 05:30:53.74	41.53	16.40	-46.5	-48.3	18.2	0.00e+00	0	43	0	328204288	64	4466
2026-01-28 05:30:54.74	41.36	16.47	-46.5	-48.3	18.2	0.00e+00	0	43	0	330301440	64	4464
2026-01-28 05:30:55.75	41.18	16.54	-46.3	-48.0	18.5	0.00e+00	0	43	0	332398592	64	4320
2026-01-28 05:30:56.76	41.00	16.61	-46.2	-47.9	18.6	0.00e+00	0	43	0	334495744	64	4269
2026-01-28 05:30:57.77	40.82	16.68	-46.4	-48.2	18.3	0.00e+00	0	43	0	335544320	64	4412
2026-01-28 05:30:58.78	40.64	16.75	-46.4	-48.1	18.3	0.00e+00	0	43	0	337641472	64	4364
2026-01-28 05:30:59.79	40.46	16.82	-46.5	-48.3	18.2	0.00e+00	0	43	0	339738624	64	4447
2026-01-28 05:31:00.79	40.28	16.89	-46.7	-48.5	18.1	0.00e+00	0	43	0	341835776	64	4573
2026-01-28 05:31:01.80	40.10	16.96	-46.9	-48.8	17.8	0.00e+00	0	43	0	343932928	64	4725
2026-01-28 05:31:02.81	39.92	17.03	-46.9	-48.9	17.7	0.00e+00	0	43	0	346030080	64	4790
2026-01-28 05:31:03.82	39.73	17.10	-46.9	-48.8	17.8	0.00e+00	0	43	0	347078656	64	4733
2026-01-28 05:31:04.83	39.55	17.17	-47.0	-49.1	17.6	0.00e+00	0	43	0	349175808	64	4873
2026-01-28 05:31:05.83	39.36	17.24	-46.8	-48.7	17.9	0.00e+00	0	43	0	351272960	64	4681
2026-01-28 05:31:06.84	39.18	17.31	-46.7	-48.6	17.8	0.00e+00	0	43	0	353370112	64	4645
2026-01-28 05:31:07.85	38.99	17.38	-46.5	-48.3	18.2	0.00e+00	0	43	0	354418688	64	4488
2026-01-28 05:31:08.86	38.80	17.44	-46.2	-47.9	18.7	0.00e+00	0	43	0	356515840	64	4254
2026-01-28 05:31:09.87	38.61	17.51	-46.3	-48.1	18.5	0.00e+00	0	43	0	358612992	64	4345
2026-01-28 05:31:10.88	38.42	17.58	-46.0	-47.6	19.0	0.00e+00	0	43	0	360710144	63	4383
2026-01-28 05:31:11.88	38.23	17.65	-46.1	-47.7	19.0	0.00e+00	0	43	0	362807296	63	4416
2026-01-28 05:31:12.89	38.04	17.72	-46.3	-48.0	18.7	0.00e+00	0	43	0	364904448	63	4558
2026-01-28 05:31:13.90	37.85	17.79	-46.0	-47.6	19.0	0.00e+00	0	43	0	365953024	63	4365
2026-01-28 05:31:14.91	37.65	17.85	-46.0	-47.7	19.0	0.00e+00	0	43	0	368050176	63	4408
2026-01-28 05:31:15.92	37.46	17.92	-46.0	-47.6	18.9	0.00e+00	0	43	0	370147328	63	4387
2026-01-28 05:31:16.93	37.26	17.99	-46.1	-47.8	18.9	0.00e+00	0	43	0	372244480	63	4444
2026-01-28 05:31:17.93	37.07	18.06	-46.0	-47.7	18.9	0.00e+00	0	43	0	374341632	63	4414
2026-01-28 05:31:18.94	36.87	18.12	-46.1	-47.8	18.9	0.00e+00	0	43	0	375390208	63	4444
2026-01-28 05:31:19.95	36.67	18.19	-45.7	-47.3	19.2	0.00e+00	0	43	0	377487360	63	4240
2026-01-28 05:31:20.95	36.47	18.26	-45.6	-47.2	19.4	0.00e+00	0	43	0	379584512	63	4160
2026-01-28 05:31:21.96	36.27	18.32	-45.7	-47.3	19.3	0.00e+00	0	43	0	381681664	63	4214
2026-01-28 05:31:22.97	36.07	18.39	-45.5	-47.0	19.5	0.00e+00	0	43	0	383778816	62	4333
2026-01-28 05:31:23.98	35.87	18.46	-45.4	-47.0	19.6	0.00e+00	0	43	0	384827392	62	4299
2026-01-28 05:31:24.99	35.67	18.52	-45.5	-47.0	19.5	0.00e+00	0	43	0	386924544	62	4336
2026-01-28 05:31:25.99	35.47	18.59	-45.4	-46.9	19.7	0.00e+00	0	43	0	389021696	62	4264
2026-01-28 05:31:27.00	35.26	18.65	-45.3	-46.7	19.8	0.00e+00	0	43	0	391118848	62	4193
2026-01-28 05:31:28.01	35.06	18.72	-45.4	-46.9	19.6	0.00e+00	0	43	0	393216000	62	4286
2026-01-28 05:31:29.02	34.85	18.79	-45.3	-46.7	19.9	0.00e+00	0	43	0	394264576	62	4187
2026-01-28 05:31:30.03	34.64	18.85	-45.3	-46.7	19.8	0.00e+00	0	43	0	396361728	62	4185
2026-01-28 05:31:31.04	34.44	18.92	-45.4	-46.9	19.7	0.00e+00	0	43	0	398458880	62	4257
2026-01-28 05:31:32.05	34.23	18.98	-45.3	-46.8	19.8	0.00e+00	0	43	0	400556032	62	4213
2026-01-28 05:31:33.05	34.02	19.04	-45.2	-46.7	19.9	0.00e+00	0	43	0	402653184	62	4172
2026-01-28 05:31:34.06	33.81	19.11	-45.1	-46.5	20.0	0.00e+00	0	43	0	403701760	62	4083
2026-01-28 05:31:35.07	33.60	19.17	-45.1	-46.5	20.0	0.00e+00	0	43	0	405798912	61	4311
2026-01-28 05:31:36.08	33.38	19.24	-45.0	-46.5	20.2	0.00e+00	0	43	0	407896064	61	4296
2026-01-28 05:31:37.09	33.17	19.30	-44.8	-46.1	20.4	0.00e+00	0	43	0	409993216	61	4130
2026-01-28 05:31:38.09	32.96	19.36	-44.7	-46.0	20.5	0.00e+00	0	43	0	412090368	61	4072
2026-01-28 05:31:39.10	32.74	19.43	-44.7	-46.0	20.4	0.00e+00	0	43	0	413138944	61	4085
2026-01-28 05:31:40.11	32.53	19.49	-44.7	-46.0	20.4	0.00e+00	0	43	0	415236096	61	4082
2026-01-28 05:31:41.12	32.31	19.55	-44.6	-46.0	20.5	0.00e+00	0	43	0	417333248	61	4062
2026-01-28 05:31:42.13	32.09	19.61	-44.8	-46.1	20.4	0.00e+00	0	43	0	419430400	61	4135
2026-01-28 05:31:43.13	31.87	19.67	-44.9	-46.3	20.2	0.00e+00	0	43	0	421527552	61	4195
2026-01-28 05:31:44.14	31.66	19.74	-44.9	-46.3	20.1	0.00e+00	0	43	0	422576128	61	4198
2026-01-28 05:31:45.15	31.43	19.80	-44.9	-46.2	20.2	0.00e+00	0	43	0	424673280	61	4186
2026-01-28 05:31:46.16	31.21	19.86	-44.9	-46.3	20.2	0.00e+00	0	43	0	426770432	61	4238
2026-01-28 05:31:47.17	30.99	19.92	-45.0	-46.5	20.1	0.00e+00	0	43	0	428867584	61	4293
2026-01-28 05:31:48.17	30.77	19.98	-44.9	-46.4	20.2	0.00e+00	0	43	0	430964736	61	4262
2026-01-28 05:31:49.18	30.55	20.04	-44.8	-46.2	20.3	0.00e+00	0	43	0	433061888	61	4189
2026-01-28 05:31:50.19	30.32	20.10	-44.7	-46.1	20.4	0.00e+00	0	43	0	434110464	61	4101
2026-01-28 05:31:51.20	30.09	20.16	-44.5	-45.8	20.7	0.00e+00	0	43	0	436207616	60	4223
2026-01-28 05:31:52.21	29.87	20.22	-44.4	-45.7	20.7	0.00e+00	0	43	0	438304768	60	4192
2026-01-28 05:31:53.22	29.64	20.28	-44.4	-45.7	20.8	0.00e+00	0	43	0	440401920	60	4166
2026-01-28 05:31:54.23	29.41	20.33	-44.6	-45.9	20.6	0.00e+00	0	43	0	441450496	60	4258
2026-01-28 05:31:55.24	29.18	20.39	-44.7	-46.1	20.5	0.00e+00	0	43	0	443547648	60	4341
2026-01-28 05:31:56.25	28.95	20.45	-44.6	-45.9	20.7	0.00e+00	0	43	0	445644800	60	4255
2026-01-28 05:31:57.25	28.72	20.51	-44.4	-45.7	20.8	0.00e+00	0	43	0	447741952	60	4170
2026-01-28 05:31:58.26	28.49	20.56	-44.3	-45.6	20.9	0.00e+00	0	43	0	449839104	60	4107
2026-01-28 05:31:59.26	28.26	20.62	-44.3	-45.6	20.9	0.00e+00	0	43	0	450887680	60	4121
2026-01-28 05:32:00.27	28.03	20.68	-44.3	-45.5	21.0	0.00e+00	0	43	0	452984832	60	4090
2026-01-28 05:32:01.28	27.79	20.73	-44.3	-45.5	21.0	0.00e+00	0	43	0	455081984	60	4076
2026-01-28 05:32:02.29	27.56	20.79	-44.3	-45.6	20.9	0.00e+00	0	43	0	457179136	60	4116
2026-01-28 05:32:03.29	27.32	20.84	-44.1	-45.3	21.2	0.00e+00	0	43	0	459276288	60	3982
2026-01-28 05:32:04.30	27.08	20.90	-44.1	-45.4	21.2	0.00e+00	0	43	0	461373440	60	4010
2026-01-28 05:32:05.31	26.85	20.95	-44.4	-45.6	21.3	0.00e+00	0	43	0	462422016	59	4362
2026-01-28 05:32:06.31	26.61	21.01	-44.3	-45.5	21.3	0.00e+00	0	43	0	464519168	59	4336
2026-01-28 05:32:07.32	26.37	21.06	-44.4	-45.7	21.1	0.00e+00	0	43	0	466616320	59	4399
2026-01-28 05:32:08.33	26.13	21.11	-44.5	-45.8	21.1	0.00e+00	0	43	0	468713472	59	4447
2026-01-28 05:32:09.33	25.89	21.16	-44.4	-45.6	21.2	0.00e+00	0	43	0	469762048	59	4386
2026-01-28 05:32:10.34	25.65	21.22	-44.3	-45.6	21.3	0.00e+00	0	43	0	471859200	59	4341
2026-01-28 05:32:11.34	25.41	21.27	-44.5	-45.7	21.2	0.00e+00	0	43	0	473956352	59	4411
2026-01-28 05:32:12.35	25.16	21.32	-44.5	-45.8	21.2	0.00e+00	0	43	0	476053504	59	4448
2026-01-28 05:32:13.35	24.92	21.37	-44.4	-45.6	20.9	0.00e+00	0	43	0	478150656	60	4143
2026-01-28 05:32:14.36	24.68	21.42	-44.5	-45.7	20.9	0.00e+00	0	43	0	479199232	60	4183
2026-01-28 05:32:15.37	24.43	21.47	-44.4	-45.7	20.9	0.00e+00	0	43	0	481296384	60	4152
2026-01-28 05:32:16.37	24.19	21.52	-44.1	-45.3	21.2	0.00e+00	0	43	0	483393536	60	4001
2026-01-28 05:32:17.38	23.94	21.57	-44.2	-45.4	21.2	0.00e+00	0	43	0	485490688	60	4025
2026-01-28 05:32:18.39	23.69	21.62	-44.4	-45.6	20.8	0.00e+00	0	43	0	487587840	60	4127
2026-01-28 05:32:19.39	23.44	21.66	-44.3	-45.6	21.0	0.00e+00	0	43	0	489684992	60	4104
2026-01-28 05:32:20.40	23.19	21.71	-44.2	-45.5	21.1	0.00e+00	0	43	0	490733568	60	4056
2026-01-28 05:32:21.40	22.94	21.76	-44.3	-45.5	21.1	0.00e+00	0	43	0	492830720	60	4068
2026-01-28 05:32:22.41	22.69	21.80	-44.3	-45.5	21.1	0.00e+00	0	43	0	494927872	60	4062
2026-01-28 05:32:23.41	22.44	21.85	-44.5	-45.8	20.9	0.00e+00	0	43	0	497025024	60	4214
2026-01-28 05:32:24.42	22.19	21.90	-44.6	-45.9	20.8	0.00e+00	0	43	0	498073600	60	4243
2026-01-28 05:32:25.43	21.93	21.94	-44.6	-45.9	20.8	0.00e+00	0	43	0	500170752	60	4252
2026-01-28 05:32:26.43	21.68	21.98	-44.3	-45.5	21.0	0.00e+00	0	43	0	502267904	60	4094
2026-01-28 05:32:27.44	21.43	22.03	-44.1	-45.3	21.2	0.00e+00	0	43	0	504365056	60	3981
2026-01-28 05:32:28.45	21.17	22.07	-44.3	-45.6	21.3	0.00e+00	0	43	0	506462208	59	4344
2026-01-28 05:32:29.45	20.92	22.11	-44.5	-45.7	21.2	0.00e+00	0	43	0	507510784	59	4413
2026-01-28 05:32:30.46	20.66	22.16	-44.5	-45.8	21.1	0.00e+00	0	43	0	509607936	59	4464
2026-01-28 05:32:31.47	20.40	22.20	-44.5	-45.7	21.3	0.00e+00	0	43	0	511705088	59	4401
2026-01-28 05:32:32.48	20.14	22.24	-44.4	-45.6	21.3	0.00e+00	0	43	0	513802240	59	4370
2026-01-28 05:32:33.49	19.88	22.28	-44.3	-45.5	21.4	0.00e+00	0	43	0	515899392	59	4313
2026-01-28 05:32:34.49	19.62	22.32	-44.4	-45.7	21.3	0.00e+00	0	43	0	517996544	59	4393
2026-01-28 05:32:35.50	19.36	22.36	-44.3	-45.5	21.4	0.00e+00	0	43	0	519045120	59	4305
2026-01-28 05:32:36.51	19.10	22.40	-44.3	-45.5	21.4	0.00e+00	0	43	0	521142272	59	4311
2026-01-28 05:32:37.51	18.84	22.44	-44.5	-45.8	21.2	0.00e+00	0	43	0	523239424	59	4447
2026-01-28 05:32:38.51	18.58	22.47	-44.6	-45.8	21.1	0.00e+00	0	43	0	525336576	59	4469
2026-01-28 05:32:39.52	18.32	22.51	-44.4	-45.6	21.0	0.00e+00	0	43	0	526385152	60	4125
2026-01-28 05:32:40.53	18.05	22.55	-44.7	-45.9	20.7	0.00e+00	0	43	0	528482304	60	4288
2026-01-28 05:32:41.54	17.79	22.58	-44.7	-46.0	20.7	0.00e+00	0	43	0	530579456	60	4301
2026-01-28 05:32:42.55	17.52	22.62	-45.1	-46.4	20.3	0.00e+00	0	43	0	532676608	60	4538
2026-01-28 05:32:43.56	17.26	22.65	-45.4	-46.9	19.9	0.00e+00	0	43	0	534773760	61	4495
2026-01-28 05:32:44.56	16.99	22.69	-45.8	-47.3	19.5	0.00e+00	0	43	0	535822336	62	4486
2026-01-28 05:32:45.57	16.73	22.72	-46.0	-47.6	19.2	0.00e+00	0	43	0	537919488	62	4621
2026-01-28 05:32:46.58	16.46	22.75	-46.1	-47.6	19.2	0.00e+00	0	43	0	540016640	62	4636
2026-01-28 05:32:47.59	16.19	22.79	-45.9	-47.5	19.4	0.00e+00	0	43	0	542113792	62	4559
2026-01-28 05:32:48.59	15.92	22.82	-45.8	-47.2	19.5	0.00e+00	0	43	0	544210944	62	4438
2026-01-28 05:32:49.60	15.65	22.85	-46.1	-47.7	19.2	0.00e+00	0	43	0	546308096	62	4667
2026-01-28 05:32:50.61	15.38	22.88	-45.8	-47.3	19.5	0.00e+00	0	43	0	547356672	62	4475
2026-01-28 05:32:51.62	15.11	22.91	-45.5	-46.9	19.9	0.00e+00	0	43	0	549453824	62	4274
2026-01-28 05:32:52.63	14.84	22.94	-45.4	-46.8	20.0	0.00e+00	0	43	0	551550976	62	4214
2026-01-28 05:32:53.64	14.57	22.97	-45.4	-46.8	20.0	0.00e+00	0	43	0	553648128	62	4200
2026-01-28 05:32:54.65	14.30	22.99	-45.4	-46.8	20.0	0.00e+00	0	43	0	554696704	62	4227
2026-01-28 05:32:55.66	14.03	23.02	-45.5	-46.9	19.9	0.00e+00	0	43	0	556793856	62	4266
2026-01-28 05:32:56.67	13.75	23.05	-45.5	-46.9	19.9	0.00e+00	0	43	0	558891008	62	4268
2026-01-28 05:32:57.67	13.48	23.07	-45.3	-46.7	20.1	0.00e+00	0	43	0	560988160	62	4172
2026-01-28 05:32:58.68	13.21	23.10	-45.2	-46.6	20.2	0.00e+00	0	43	0	563085312	62	4101
2026-01-28 05:32:59.69	12.93	23.12	-45.3	-46.7	20.0	0.00e+00	0	43	0	565182464	62	4184
2026-01-28 05:33:00.69	12.66	23.15	-45.5	-46.9	19.9	0.00e+00	0	43	0	566231040	62	4267
2026-01-28 05:33:01.70	12.39	23.17	-45.8	-47.3	19.5	0.00e+00	0	43	0	568328192	62	4488
2026-01-28 05:33:02.71	12.11	23.19	-45.8	-47.4	19.4	0.00e+00	0	43	0	570425344	62	4512
2026-01-28 05:33:03.72	11.83	23.21	-46.0	-47.5	19.3	0.00e+00	0	43	0	572522496	62	4584
2026-01-28 05:33:04.73	11.56	23.23	-45.7	-47.1	19.6	0.00e+00	0	43	0	574619648	62	4390
2026-01-28 05:33:05.73	11.28	23.25	-45.9	-47.4	19.4	0.00e+00	0	43	0	575668224	62	4502
2026-01-28 05:33:06.74	11.01	23.27	-45.9	-47.4	19.4	0.00e+00	0	43	0	577765376	62	4512
2026-01-28 05:33:07.75	10.73	23.29	-46.1	-47.7	19.1	0.00e+00	0	43	0	579862528	62	4664
2026-01-28 05:33:08.76	10.45	23.31	-46.2	-47.8	19.0	0.00e+00	0	43	0	581959680	63	4471
2026-01-28 05:33:09.76	10.18	23.33	-46.5	-48.1	18.7	0.00e+00	0	43	0	583008256	63	4645
2026-01-28 05:33:10.77	9.90	23.34	-46.5	-48.2	18.6	0.00e+00	0	43	0	585105408	63	4674
2026-01-28 05:33:11.77	9.62	23.36	-46.3	-48.0	18.8	0.00e+00	0	43	0	587202560	63	4555
2026-01-28 05:33:12.78	9.34	23.38	-46.3	-47.9	18.9	0.00e+00	0	43	0	589299712	63	4537
2026-01-28 05:33:13.79	9.06	23.39	-46.1	-47.8	19.0	0.00e+00	0	43	0	591396864	63	4442
2026-01-28 05:33:14.80	8.78	23.40	-46.1	-47.7	19.1	0.00e+00	0	43	0	593494016	63	4413
2026-01-28 05:33:15.81	8.51	23.42	-46.0	-47.6	19.2	0.00e+00	0	43	0	594542592	63	4386
2026-01-28 05:33:16.82	8.23	23.43	-46.1	-47.7	19.1	0.00e+00	0	43	0	596639744	63	4434
2026-01-28 05:33:17.83	7.95	23.44	-46.2	-47.9	18.9	0.00e+00	0	43	0	598736896	63	4502
2026-01-28 05:33:18.84	7.66	23.45	-46.5	-48.2	18.7	0.00e+00	0	43	0	600834048	63	4681
2026-01-28 05:33:19.85	7.38	23.46	-46.7	-48.5	18.4	0.00e+00	0	43	0	602931200	63	4828
2026-01-28 05:33:20.85	7.11	23.47	-46.6	-48.5	18.3	0.00e+00	0	43	0	603979776	64	4553
2026-01-28 05:33:21.86	6.83	23.48	-46.9	-48.8	18.0	0.00e+00	0	43	0	606076928	64	4717
2026-01-28 05:33:22.87	6.54	23.49	-46.9	-48.8	17.9	0.00e+00	0	43	0	608174080	64	4738
2026-01-28 05:33:23.87	6.27	23.49	-46.9	-48.8	18.1	0.00e+00	0	43	0	610271232	64	4721
2026-01-28 05:33:24.88	5.99	23.50	-46.5	-48.2	18.5	0.00e+00	0	43	0	612368384	64	4416
2026-01-28 05:33:25.89	5.70	23.51	-46.1	-47.7	19.0	0.00e+00	0	43	0	613416960	64	4181
2026-01-28 05:33:26.89	5.42	23.51	-45.9	-47.5	19.3	0.00e+00	0	43	0	615514112	63	4312
2026-01-28 05:33:27.90	5.14	23.51	-45.8	-47.3	19.4	0.00e+00	0	43	0	617611264	63	4233
2026-01-28 05:33:28.91	4.86	23.52	-45.5	-46.9	19.7	0.00e+00	0	43	0	619708416	62	4289
2026-01-28 05:33:29.91	4.58	23.52	-45.5	-47.0	19.7	0.00e+00	0	43	0	621805568	62	4311
2026-01-28 05:33:30.92	4.30	23.52	-45.6	-47.1	19.7	0.00e+00	0	43	0	622854144	62	4343
2026-01-28 05:33:31.93	4.02	23.52	-45.7	-47.2	19.5	0.00e+00	0	43	0	624951296	62	4437
2026-01-28 05:33:32.93	3.74	23.52	-45.7	-47.3	19.5	0.00e+00	0	43	0	627048448	62	4442
2026-01-28 05:33:33.94	3.46	23.52	-45.8	-47.4	19.4	0.00e+00	0	43	0	629145600	62	4537
2026-01-28 05:33:34.95	3.18	23.52	-45.7	-47.3	19.5	0.00e+00	0	43	0	631242752	62	4455
2026-01-28 05:33:35.95	2.90	23.52	-45.8	-47.3	19.4	0.00e+00	0	43	0	632291328	62	4491
2026-01-28 05:33:36.96	2.62	23.52	-45.5	-47.0	19.7	0.00e+00	0	43	0	634388480	62	4324
2026-01-28 05:33:37.97	2.34	23.52	-45.7	-47.2	19.6	0.00e+00	0	43	0	636485632	62	4398
2026-01-28 05:33:38.98	2.05	23.51	-45.5	-47.0	19.7	0.00e+00	0	43	0	638582784	62	4323
2026-01-28 05:33:39.99	1.77	23.51	-45.6	-47.1	19.7	0.00e+00	0	43	0	640679936	62	4345
2026-01-28 05:33:41.00	1.49	23.50	-45.4	-46.9	19.9	0.00e+00	0	43	0	641728512	62	4246
2026-01-28 05:33:42.01	1.21	23.49	-45.3	-46.7	20.0	0.00e+00	0	43	0	643825664	62	4168
2026-01-28 05:33:43.01	0.93	23.49	-45.3	-46.7	20.1	0.00e+00	0	43	0	645922816	62	4162
2026-01-28 05:33:44.02	0.65	23.48	-45.2	-46.6	20.1	0.00e+00	0	43	0	648019968	62	4105
2026-01-28 05:33:45.03	0.37	23.47	-45.3	-46.7	20.0	0.00e+00	0	43	0	650117120	62	4178
2026-01-28 05:33:46.04	0.09	23.46	-45.3	-46.7	20.0	0.00e+00	0	43	0	651165696	62	4181
2026-01-28 05:33:47.05	359.81	23.45	-45.3	-46.7	20.0	0.00e+00	0	43	0	653262848	62	4183
2026-01-28 05:33:48.05	359.53	23.44	-45.0	-46.3	20.4	0.00e+00	0	43	0	655360000	62	3980
2026-01-28 05:33:49.06	359.25	23.43	-44.8	-46.1	20.5	0.00e+00	0	43	0	657457152	61	4135
2026-01-28 05:33:50.06	358.97	23.42	-44.8	-46.1	20.6	0.00e+00	0	43	0	659554304	61	4137
2026-01-28 05:33:51.07	358.69	23.40	-45.1	-46.5	20.3	0.00e+00	0	43	0	660602880	61	4298
2026-01-28 05:33:52.08	358.41	23.39	-45.2	-46.6	20.2	0.00e+00	0	43	0	662700032	61	4353
2026-01-28 05:33:53.08	358.14	23.38	-45.1	-46.5	20.2	0.00e+00	0	43	0	664797184	61	4307
2026-01-28 05:33:54.09	357.86	23.36	-44.8	-46.1	20.6	0.00e+00	0	43	0	666894336	61	4139
2026-01-28 05:33:55.09	357.58	23.35	-44.8	-46.1	20.7	0.00e+00	0	43	0	668991488	61	4108
2026-01-28 05:33:56.10	357.30	23.33	-44.6	-45.8	20.9	0.00e+00	0	43	0	670040064	61	3988
2026-01-28 05:33:57.11	357.03	23.31	-44.6	-45.8	20.9	0.00e+00	0	43	0	672137216	60	4222
2026-01-28 05:33:58.12	356.75	23.29	-44.6	-45.9	20.8	0.00e+00	0	43	0	674234368	60	4259
2026-01-28 05:33:59.12	356.47	23.28	-44.7	-46.0	20.8	0.00e+00	0	43	0	676331520	60	4308
2026-01-28 05:34:00.13	356.20	23.26	-44.7	-46.0	20.8	0.00e+00	0	43	0	678428672	60	4314
2026-01-28 05:34:01.14	355.92	23.24	-44.4	-45.7	21.0	0.00e+00	0	43	0	679477248	60	4153
2026-01-28 05:34:02.15	355.64	23.22	-44.2	-45.3	21.3	0.00e+00	0	43	0	681574400	60	4000
2026-01-28 05:34:03.15	355.37	23.19	-44.2	-45.4	21.5	0.00e+00	0	43	0	683671552	59	4261
2026-01-28 05:34:04.16	355.10	23.17	-44.3	-45.5	21.5	0.00e+00	0	43	0	685768704	59	4301
2026-01-28 05:34:05.17	354.82	23.15	-44.4	-45.6	21.4	0.00e+00	0	43	0	687865856	59	4370
2026-01-28 05:34:06.18	354.55	23.13	-44.3	-45.5	21.5	0.00e+00	0	43	0	688914432	59	4315
2026-01-28 05:34:07.19	354.27	23.10	-44.4	-45.6	21.4	0.00e+00	0	43	0	691011584	59	4341
2026-01-28 05:34:08.19	354.00	23.08	-44.4	-45.6	21.1	0.00e+00	0	43	0	693108736	59	4371
2026-01-28 05:34:09.20	353.73	23.05	-44.4	-45.6	21.3	0.00e+00	0	43	0	695205888	59	4378
2026-01-28 05:34:10.21	353.45	23.02	-44.6	-45.8	21.2	0.00e+00	0	43	0	697303040	59	4486
2026-01-28 05:34:11.22	353.18	23.00	-44.4	-45.6	21.0	0.00e+00	0	43	0	698351616	60	4134
2026-01-28 05:34:12.23	352.91	22.97	-44.5	-45.7	21.0	0.00e+00	0	43	0	700448768	60	4155
2026-01-28 05:34:13.23	352.64	22.94	-44.5	-45.8	21.0	0.00e+00	0	43	0	702545920	60	4195
2026-01-28 05:34:14.24	352.37	22.91	-44.3	-45.5	21.1	0.00e+00	0	43	0	704643072	60	4084
2026-01-28 05:34:15.24	352.10	22.88	-44.7	-45.9	20.8	0.00e+00	0	43	0	706740224	60	4276
2026-01-28 05:34:16.25	351.83	22.85	-44.6	-45.8	20.9	0.00e+00	0	43	0	707788800	60	4220
2026-01-28 05:34:17.26	351.56	22.82	-44.3	-45.4	21.2	0.00e+00	0	43	0	709885952	60	4045
2026-01-28 05:34:18.27	351.29	22.79	-44.2	-45.4	21.3	0.00e+00	0	43	0	711983104	60	4017
2026-01-28 05:34:19.28	351.02	22.76	-44.1	-45.2	21.4	0.00e+00	0	43	0	714080256	60	3955
2026-01-28 05:34:20.28	350.76	22.73	-44.5	-45.7	21.3	0.00e+00	0	43	0	716177408	59	4394
2026-01-28 05:34:21.29	350.49	22.69	-44.7	-45.9	21.1	0.00e+00	0	43	0	717225984	59	4527
2026-01-28 05:34:22.30	350.23	22.66	-44.8	-46.0	20.7	0.00e+00	0	43	0	719323136	60	4333
2026-01-28 05:34:23.31	349.96	22.62	-44.7	-46.0	20.7	0.00e+00	0	43	0	721420288	60	4305
2026-01-28 05:34:24.31	349.70	22.59	-44.8	-46.0	20.7	0.00e+00	0	43	0	723517440	60	4312
2026-01-28 05:34:25.32	349.43	22.55	-44.6	-45.9	20.8	0.00e+00	0	43	0	725614592	60	4256
2026-01-28 05:34:26.33	349.17	22.52	-44.4	-45.6	21.0	0.00e+00	0	43	0	726663168	60	4122
2026-01-28 05:34:27.33	348.91	22.48	-44.3	-45.5	21.2	0.00e+00	0	43	0	728760320	60	4084
2026-01-28 05:34:28.34	348.64	22.44	-44.5	-45.7	21.0	0.00e+00	0	43	0	730857472	60	4160
2026-01-28 05:34:29.35	348.38	22.40	-44.6	-45.8	20.8	0.00e+00	0	43	0	732954624	60	4228
2026-01-28 05:34:30.36	348.12	22.36	-44.6	-45.8	20.9	0.00e+00	0	43	0	735051776	60	4235
2026-01-28 05:34:31.37	347.86	22.32	-44.6	-45.9	20.8	0.00e+00	0	43	0	736100352	60	4263
2026-01-28 05:34:32.37	347.60	22.28	-45.1	-46.4	20.3	0.00e+00	0	43	0	738197504	60	4524
2026-01-28 05:34:33.38	347.34	22.24	-45.1	-46.4	20.3	0.00e+00	0	43	0	740294656	60	4544
2026-01-28 05:34:34.39	347.08	22.20	-45.4	-46.8	20.0	0.00e+00	0	43	0	742391808	61	4466
2026-01-28 05:34:35.39	346.83	22.16	-45.4	-46.9	19.9	0.00e+00	0	43	0	744488960	61	4506
2026-01-28 05:34:36.40	346.57	22.12	-45.9	-47.5	19.4	0.00e+00	0	43	0	745537536	62	4552
2026-01-28 05:34:37.41	346.31	22.08	-46.1	-47.6	19.1	0.00e+00	0	43	0	747634688	62	4646
2026-01-28 05:34:38.42	346.06	22.03	-46.3	-48.0	18.8	0.00e+00	0	43	0	749731840	63	4580
2026-01-28 05:34:39.43	345.80	21.99	-46.3	-48.0	18.8	0.00e+00	0	43	0	751828992	63	4583
2026-01-28 05:34:40.43	345.55	21.95	-46.2	-47.8	19.0	0.00e+00	0	43	0	753926144	63	4459
2026-01-28 05:34:41.44	345.29	21.90	-46.1	-47.7	19.1	0.00e+00	0	43	0	754974720	63	4438
2026-01-28 05:34:42.44	345.04	21.86	-45.9	-47.4	19.4	0.00e+00	0	43	0	757071872	63	4263
2026-01-28 05:34:43.45	344.79	21.81	-45.7	-47.2	19.6	0.00e+00	0	43	0	759169024	63	4174
2026-01-28 05:34:44.46	344.54	21.76	-45.4	-46.9	19.9	0.00e+00	0	43	0	761266176	62	4252
2026-01-28 05:34:45.47	344.29	21.72	-45.5	-46.9	19.8	0.00e+00	0	43	0	763363328	62	4278
2026-01-28 05:34:46.48	344.04	21.67	-45.6	-47.1	19.6	0.00e+00	0	43	0	765460480	62	4379
2026-01-28 05:34:47.48	343.79	21.62	-45.7	-47.2	19.6	0.00e+00	0	43	0	766509056	62	4421
2026-01-28 05:34:48.49	343.54	21.57	-45.8	-47.3	19.4	0.00e+00	0	43	0	768606208	62	4459
2026-01-28 05:34:49.50	343.30	21.52	-46.1	-47.6	19.1	0.00e+00	0	43	0	770703360	62	4650
2026-01-28 05:34:50.51	343.05	21.47	-45.8	-47.3	19.4	0.00e+00	0	43	0	772800512	62	4477
2026-01-28 05:34:51.51	342.80	21.42	-45.8	-47.3	19.4	0.00e+00	0	43	0	773849088	62	4443
2026-01-28 05:34:52.52	342.56	21.37	-45.4	-46.9	19.8	0.00e+00	0	43	0	775946240	62	4256
2026-01-28 05:34:53.53	342.31	21.32	-45.5	-46.9	19.8	0.00e+00	0	43	0	778043392	62	4279
2026-01-28 05:34:54.53	342.07	21.27	-45.5	-47.0	19.7	0.00e+00	0	43	0	780140544	62	4306
2026-01-28 05:34:55.54	341.83	21.22	-45.5	-46.9	19.8	0.00e+00	0	43	0	782237696	62	4268
2026-01-28 05:34:56.55	341.59	21.17	-45.4	-46.8	19.9	0.00e+00	0	43	0	783286272	62	4229
2026-01-28 05:34:57.55	341.35	21.12	-45.2	-46.6	20.1	0.00e+00	0	43	0	785383424	62	4122
2026-01-28 05:34:58.56	341.11	21.06	-45.1	-46.4	20.2	0.00e+00	0	43	0	787480576	62	4050
2026-01-28 05:34:59.57	340.87	21.01	-45.3	-46.7	20.0	0.00e+00	0	43	0	789577728	62	4151
2026-01-28 05:35:00.57	340.63	20.96	-45.4	-46.9	19.9	0.00e+00	0	43	0	791674880	62	4252
2026-01-28 05:35:01.58	340.39	20.90	-45.6	-47.1	19.7	0.00e+00	0	43	0	793772032	62	4349
2026-01-28 05:35:02.59	340.16	20.85	-45.9	-47.5	19.2	0.00e+00	0	43	0	794820608	62	4573
2026-01-28 05:35:03.60	339.92	20.79	-46.1	-47.8	19.0	0.00e+00	0	43	0	796917760	62	4721
2026-01-28 05:35:04.60	339.69	20.74	-46.3	-48.0	18.8	0.00e+00	0	43	0	799014912	63	4558
2026-01-28 05:35:05.61	339.45	20.68	-46.4	-48.2	18.6	0.00e+00	0	43	0	801112064	63	4660
2026-01-28 05:35:06.62	339.22	20.63	-46.3	-48.0	18.7	0.00e+00	0	43	0	802160640	63	4592
2026-01-28 05:35:07.62	338.99	20.57	-46.2	-47.8	19.0	0.00e+00	0	43	0	804257792	63	4475
2026-01-28 05:35:08.63	338.76	20.51	-46.2	-47.8	18.9	0.00e+00	0	43	0	806354944	63	4493
2026-01-28 05:35:09.64	338.53	20.46	-46.7	-48.5	18.3	0.00e+00	0	43	0	808452096	63	4834
2026-01-28 05:35:10.64	338.30	20.40	-46.7	-48.6	18.2	0.00e+00	0	43	0	810549248	64	4604
2026-01-28 05:35:11.65	338.07	20.34	-47.0	-49.1	17.7	0.00e+00	0	43	0	811597824	64	4878
2026-01-28 05:35:12.66	337.84	20.28	-47.3	-49.4	17.3	0.00e+00	0	43	0	813694976	65	4809
2026-01-28 05:35:13.67	337.61	20.22	-47.8	-50.2	16.6	0.00e+00	0	43	0	815792128	66	4939
2026-01-28 05:35:14.67	337.39	20.16	-47.7	-50.1	16.7	0.00e+00	0	43	0	817889280	66	4890
2026-01-28 05:35:15.68	337.16	20.11	-47.4	-49.6	17.1	0.00e+00	0	43	0	819986432	66	4626
2026-01-28 05:35:16.69	336.94	20.05	-46.9	-48.8	17.9	0.00e+00	0	43	0	822083584	65	4470
2026-01-28 05:35:17.70	336.71	19.99	-46.4	-48.1	18.5	0.00e+00	0	43	0	823132160	64	4382
2026-01-28 05:35:18.70	336.49	19.93	-46.0	-47.6	19.1	0.00e+00	0	43	0	825229312	63	4366
2026-01-28 05:35:19.70	336.27	19.87	-45.8	-47.3	19.4	0.00e+00	0	43	0	827326464	63	4239
2026-01-28 05:35:20.71	336.05	19.80	-45.5	-47.1	19.6	0.00e+00	0	43	0	829423616	63	4099
2026-01-28 05:35:21.72	335.83	19.74	-45.3	-46.8	19.9	0.00e+00	0	43	0	830472192	62	4201
2026-01-28 05:35:22.73	335.61	19.68	-45.2	-46.7	19.9	0.00e+00	0	43	0	832569344	62	4146
2026-01-28 05:35:23.73	335.39	19.62	-45.0	-46.5	20.2	7.00e-07	0	43	0	834666496	62	4055
2026-01-28 05:35:24.74	335.18	19.56	-45.1	-46.5	20.1	0.00e+00	0	43	0	836763648	62	4066
2026-01-28 05:35:25.74	334.96	19.50	-44.8	-46.2	20.4	0.00e+00	0	43	0	838860800	61	4165
2026-01-28 05:35:26.75	334.75	19.43	-44.9	-46.2	20.3	0.00e+00	0	43	0	839909376	61	4180
2026-01-28 05:35:27.76	334.53	19.37	-45.0	-46.3	20.2	0.00e+00	0	43	0	842006528	61	4231
2026-01-28 05:35:28.76	334.32	19.31	-44.8	-46.1	20.4	0.00e+00	0	43	0	844103680	61	4145
2026-01-28 05:35:29.77	334.10	19.25	-44.8	-46.1	20.4	0.00e+00	0	43	0	846200832	61	4145
2026-01-28 05:35:30.77	333.89	19.18	-44.6	-45.9	20.5	0.00e+00	0	43	0	848297984	61	4037
2026-01-28 05:35:31.78	333.68	19.12	-44.6	-45.8	20.7	0.00e+00	0	43	0	850395136	61	3996
2026-01-28 05:35:32.79	333.47	19.05	-44.3	-45.6	20.9	0.00e+00	0	43	0	851443712	60	4109
2026-01-28 05:35:33.80	333.26	18.99	-44.5	-45.7	20.7	0.00e+00	0	43	0	853540864	60	4193
2026-01-28 05:35:34.81	333.05	18.92	-44.4	-45.7	20.8	0.00e+00	0	43	0	855638016	60	4146
2026-01-28 05:35:35.82	332.85	18.86	-44.7	-46.0	20.5	0.00e+00	0	43	0	857735168	60	4311
2026-01-28 05:35:36.82	332.64	18.80	-44.9	-46.3	20.2	0.00e+00	0	43	0	858783744	60	4477
2026-01-28 05:35:37.82	332.44	18.73	-45.5	-47.0	19.6	0.00e+00	0	43	0	860880896	61	4598
2026-01-28 05:35:38.83	332.23	18.67	-45.8	-47.4	19.2	0.00e+00	0	43	0	862978048	62	4541
2026-01-28 05:35:39.83	332.03	18.60	-46.1	-47.8	18.9	0.00e+00	0	43	0	865075200	62	4721
2026-01-28 05:35:40.84	331.82	18.53	-46.2	-48.0	18.7	0.00e+00	0	43	0	867172352	63	4556
2026-01-28 05:35:41.85	331.62	18.47	-46.5	-48.3	18.5	0.00e+00	0	43	0	868220928	63	4732
2026-01-28 05:35:42.86	331.42	18.40	-46.4	-48.2	18.5	0.00e+00	0	43	0	870318080	63	4655
2026-01-28 05:35:43.86	331.22	18.34	-46.3	-48.1	18.6	0.00e+00	0	43	0	872415232	63	4606
2026-01-28 05:35:44.87	331.02	18.27	-45.9	-47.5	19.1	0.00e+00	0	43	0	874512384	63	4334
2026-01-28 05:35:45.87	330.82	18.20	-45.8	-47.3	19.3	0.00e+00	0	43	0	876609536	63	4240
2026-01-28 05:35:46.87	330.63	18.14	-45.7	-47.3	19.4	0.00e+00	0	43	0	878706688	63	4205
2026-01-28 05:35:47.88	330.43	18.07	-45.3	-46.8	19.8	0.00e+00	0	43	0	879755264	62	4227
2026-01-28 05:35:48.89	330.23	18.00	-45.3	-46.8	19.8	0.00e+00	0	43	0	881852416	62	4195
2026-01-28 05:35:49.90	330.04	17.93	-45.0	-46.4	20.1	0.00e+00	0	43	0	883949568	62	4041
2026-01-28 05:35:50.90	329.85	17.87	-45.0	-46.4	20.1	0.00e+00	0	43	0	886046720	61	4279
2026-01-28 05:35:51.91	329.65	17.80	-44.8	-46.1	20.3	0.00e+00	0	43	0	887095296	61	4143
2026-01-28 05:35:52.92	329.46	17.73	-44.7	-46.0	20.5	7.00e-07	0	43	0	889192448	61	4068
2026-01-28 05:35:53.92	329.27	17.66	-44.6	-45.9	20.6	0.00e+00	0	43	0	891289600	61	4026
2026-01-28 05:35:54.93	329.08	17.60	-44.7	-46.0	20.5	0.00e+00	0	43	0	893386752	60	4326
2026-01-28 05:35:55.93	328.89	17.53	-44.7	-46.1	20.4	0.00e+00	0	43	0	895483904	60	4362
2026-01-28 05:35:56.94	328.70	17.46	-45.0	-46.4	20.2	0.00e+00	0	43	0	896532480	60	4509
2026-01-28 05:35:57.95	328.51	17.39	-45.5	-47.0	19.6	0.00e+00	0	43	0	898629632	61	4579
2026-01-28 05:35:58.95	328.33	17.32	-45.7	-47.3	19.3	0.00e+00	0	43	0	900726784	61	4725
2026-01-28 05:35:59.96	328.14	17.25	-45.8	-47.4	19.2	0.00e+00	0	43	0	902823936	62	4509
2026-01-28 05:36:00.97	327.95	17.18	-45.8	-47.3	19.2	0.00e+00	0	43	0	904921088	62	4490
2026-01-28 05:36:01.97	327.77	17.12	-45.6	-47.1	19.5	0.00e+00	0	43	0	907018240	62	4377
2026-01-28 05:36:02.98	327.59	17.05	-45.5	-47.0	19.6	0.00e+00	0	43	0	908066816	62	4319
2026-01-28 05:36:03.99	327.40	16.98	-45.5	-47.0	19.6	0.00e+00	0	43	0	910163968	62	4298
2026-01-28 05:36:05.00	327.22	16.91	-45.7	-47.3	19.4	0.00e+00	0	43	0	912261120	62	4442
2026-01-28 05:36:06.00	327.04	16.84	-45.7	-47.3	19.3	0.00e+00	0	43	0	914358272	62	4461
2026-01-28 05:36:07.01	326.86	16.77	-45.9	-47.5	19.1	0.00e+00	0	43	0	915406848	62	4580
2026-01-28 05:36:08.01	326.68	16.70	-45.9	-47.6	19.0	0.00e+00	0	43	0	917504000	62	4605
2026-01-28 05:36:09.02	326.50	16.63	-45.8	-47.3	19.3	2.20e-06	0	43	0	919601152	62	4493
2026-01-28 05:36:10.03	326.32	16.56	-45.8	-47.4	19.2	0.00e+00	0	43	0	921698304	62	4533
2026-01-28 05:36:11.03	326.15	16.49	-45.7	-47.3	19.3	5.30e-06	0	43	0	923795456	62	4477
2026-01-28 05:36:12.03	325.97	16.42	-45.6	-47.2	19.4	0.00e+00	0	43	0	924844032	62	4401
2026-01-28 05:36:13.04	325.80	16.35	-45.8	-47.3	19.3	0.00e+00	0	43	0	926941184	62	4489
2026-01-28 05:36:14.05	325.62	16.28	-45.8	-47.4	19.3	1.50e-06	0	43	0	929038336	62	4501
2026-01-28 05:36:15.06	325.45	16.21	-45.5	-47.0	19.6	0.00e+00	0	43	0	931135488	62	4316
2026-01-28 05:36:16.07	325.27	16.14	-45.5	-47.0	19.6	0.00e+00	0	43	0	933232640	62	4303
2026-01-28 05:36:17.07	325.10	16.07	-45.2	-46.6	19.9	0.00e+00	0	43	0	935329792	62	4132
2026-01-28 05:36:18.07	324.93	16.00	-45.1	-46.5	20.0	0.00e+00	0	43	0	936378368	62	4095
2026-01-28 05:36:19.08	324.76	15.93	-44.9	-46.2	20.3	0.00e+00	0	43	0	938475520	61	4168
2026-01-28 05:36:20.09	324.59	15.86	-44.9	-46.3	20.3	0.00e+00	0	43	0	940572672	61	4201
2026-01-28 05:36:21.10	324.42	15.79	-45.0	-46.3	20.2	0.00e+00	0	43	0	942669824	61	4227
2026-01-28 05:36:22.11	324.25	15.72	-45.1	-46.5	20.0	0.00e+00	0	43	0	943718400	61	4311
2026-01-28 05:36:23.11	324.09	15.65	-45.0	-46.3	20.1	0.00e+00	0	43	0	945815552	61	4228
2026-01-28 05:36:24.12	323.92	15.58	-45.0	-46.4	20.1	0.00e+00	0	43	0	947912704	61	4254
2026-01-28 05:36:25.13	323.76	15.50	-44.8	-46.1	20.4	0.00e+00	0	43	0	950009856	61	4120
2026-01-28 05:36:26.14	323.59	15.43	-44.4	-45.6	20.8	0.00e+00	0	43	0	952107008	60	4122
2026-01-28 05:36:27.15	323.43	15.36	-44.5	-45.7	21.1	0.00e+00	0	43	0	953155584	59	4416
2026-01-28 05:36:28.15	323.26	15.29	-44.5	-45.7	21.0	0.00e+00	0	43	0	955252736	59	4421
2026-01-28 05:36:29.16	323.10	15.22	-44.2	-45.4	21.3	0.00e+00	0	43	0	957349888	59	4256
2026-01-28 05:36:30.16	322.94	15.15	-44.3	-45.5	21.2	0.00e+00	0	43	0	959447040	59	4331
2026-01-28 05:36:31.17	322.78	15.08	-44.4	-45.7	21.1	0.00e+00	0	43	0	961544192	59	4396
2026-01-28 05:36:32.18	322.62	15.01	-44.5	-45.7	21.0	0.00e+00	0	43	0	963641344	59	4435
2026-01-28 05:36:33.18	322.46	14.94	-44.3	-45.5	20.9	0.00e+00	0	43	0	964689920	60	4070
2026-01-28 05:36:34.19	322.30	14.87	-44.6	-45.9	20.5	0.00e+00	0	43	0	966787072	60	4266
2026-01-28 05:36:35.19	322.15	14.80	-44.7	-46.0	20.5	0.00e+00	0	43	0	968884224	60	4296
2026-01-28 05:36:36.20	321.99	14.72	-44.8	-46.1	20.4	0.00e+00	0	43	0	970981376	60	4372
2026-01-28 05:36:37.21	321.83	14.65	-44.9	-46.3	20.2	0.00e+00	0	43	0	972029952	60	4458
2026-01-28 05:36:38.22	321.68	14.58	-44.9	-46.3	20.2	0.00e+00	0	43	0	974127104	60	4470
2026-01-28 05:36:39.23	321.52	14.51	-44.9	-46.2	20.2	0.00e+00	0	43	0	976224256	60	4439
2026-01-28 05:36:40.24	321.37	14.44	-44.9	-46.3	20.2	0.00e+00	0	43	0	978321408	60	4453
2026-01-28 05:36:41.25	321.21	14.37	-44.6	-45.9	20.5	0.00e+00	0	43	0	980418560	60	4276
2026-01-28 05:36:42.25	321.06	14.30	-44.5	-45.7	20.7	0.00e+00	0	43	0	981467136	60	4183
2026-01-28 05:36:43.26	320.91	14.23	-44.3	-45.6	20.7	0.00e+00	0	43	0	983564288	60	4106
2026-01-28 05:36:44.27	320.76	14.16	-44.1	-45.3	21.1	0.00e+00	0	43	0	985661440	60	3976
2026-01-28 05:36:45.28	320.61	14.08	-44.2	-45.4	20.9	0.00e+00	0	43	0	987758592	60	4046
2026-01-28 05:36:46.29	320.46	14.01	-44.3	-45.6	20.8	0.00e+00	0	43	0	989855744	60	4109
2026-01-28 05:36:47.30	320.31	13.94	-44.5	-45.8	20.6	0.00e+00	0	43	0	991952896	60	4213
2026-01-28 05:36:48.31	320.16	13.87	-44.9	-46.2	20.3	0.00e+00	0	43	0	993001472	60	4409
2026-01-28 05:36:49.31	320.01	13.80	-45.1	-46.5	20.0	0.00e+00	0	43	0	995098624	60	4579
2026-01-28 05:36:50.31	319.87	13.73	-45.3	-46.8	19.8	0.00e+00	0	43	0	997195776	61	4446
2026-01-28 05:36:51.32	319.72	13.66	-45.5	-47.0	19.5	0.00e+00	0	43	0	999292928	61	4559
2026-01-28 05:36:52.33	319.58	13.59	-45.6	-47.1	19.4	0.00e+00	0	43	0	1000341504	61	4649
2026-01-28 05:36:53.34	319.43	13.52	-45.6	-47.1	19.4	0.00e+00	0	43	0	1002438656	61	4626
2026-01-28 05:36:54.34	319.29	13.45	-45.5	-47.0	19.5	0.00e+00	0	43	0	1004535808	61	4579
2026-01-28 05:36:55.35	319.14	13.38	-45.6	-47.2	19.4	0.00e+00	0	43	0	1006632960	61	4662
2026-01-28 05:36:56.36	319.00	13.30	-45.5	-47.0	19.5	0.00e+00	0	43	0	1008730112	61	4560
2026-01-28 05:36:57.36	318.86	13.23	-45.2	-46.7	19.8	0.00e+00	0	43	0	1009778688	61	4406
2026-01-28 05:36:58.36	318.72	13.16	-45.3	-46.7	19.7	0.00e+00	0	43	0	1011875840	61	4420
2026-01-28 05:36:59.37	318.58	13.09	-45.4	-46.9	19.5	0.00e+00	0	43	0	1013972992	61	4537
2026-01-28 05:37:00.37	318.44	13.02	-45.3	-46.8	19.7	0.00e+00	0	43	0	1016070144	61	4456
2026-01-28 05:37:01.38	318.30	12.95	-45.1	-46.5	20.0	0.00e+00	0	43	0	1018167296	61	4297
2026-01-28 05:37:02.39	318.16	12.88	-44.8	-46.2	20.2	0.00e+00	0	43	0	1020264448	61	4159
2026-01-28 05:37:03.40	318.03	12.81	-44.6	-45.9	20.4	0.00e+00	0	43	0	1021313024	61	4024
2026-01-28 05:37:04.40	317.89	12.74	-44.5	-45.7	20.6	0.00e+00	0	43	0	1023410176	60	4182
2026-01-28 05:37:05.41	317.75	12.67	-44.7	-46.0	20.3	0.00e+00	0	43	0	1025507328	60	4320
2026-01-28 05:37:06.41	317.62	12.60	-44.8	-46.1	20.3	0.00e+00	0	43	0	1027604480	60	4355
2026-01-28 05:37:07.42	317.48	12.53	-44.9	-46.2	20.2	0.00e+00	0	43	0	1028653056	60	4431
2026-01-28 05:37:08.42	317.35	12.46	-45.3	-46.8	19.7	0.00e+00	0	43	0	1030750208	61	4454
2026-01-28 05:37:09.43	317.22	12.39	-45.6	-47.1	19.3	0.00e+00	0	43	0	1032847360	61	4625
2026-01-28 05:37:10.44	317.08	12.32	-46.0	-47.6	18.9	0.00e+00	0	43	0	1034944512	62	4625
2026-01-28 05:37:11.44	316.95	12.25	-46.1	-47.8	18.7	0.00e+00	0	43	0	1037041664	62	4729
2026-01-28 05:37:12.45	316.82	12.18	-46.4	-48.2	18.4	0.00e+00	0	43	0	1038090240	63	4653
2026-01-28 05:37:13.46	316.69	12.11	-46.2	-48.0	18.6	0.00e+00	0	43	0	1040187392	63	4546
2026-01-28 05:37:14.46	316.56	12.04	-46.3	-48.0	18.5	0.00e+00	0	43	0	1042284544	63	4581
2026-01-28 05:37:15.47	316.43	11.97	-46.2	-47.9	18.6	0.00e+00	0	43	0	1044381696	63	4507
2026-01-28 05:37:16.48	316.30	11.90	-46.0	-47.6	18.9	0.00e+00	0	43	0	1046478848	63	4374
2026-01-28 05:37:17.49	316.17	11.83	-45.7	-47.2	19.2	0.00e+00	0	43	0	1048576000	63	4193
2026-01-28 05:37:18.49	316.04	11.76	-45.7	-47.2	19.3	0.00e+00	0	43	0	1049624576	63	4157
2026-01-28 05:37:19.50	315.92	11.69	-45.6	-47.1	19.3	0.00e+00	0	43	0	1051721728	63	4133
2026-01-28 05:37:20.51	315.79	11.62	-45.5	-47.0	19.4	0.00e+00	0	43	0	1053818880	62	4336
2026-01-28 05:37:21.51	315.66	11.55	-45.7	-47.2	19.2	0.00e+00	0	43	0	1055916032	62	4416
2026-01-28 05:37:22.52	315.54	11.48	-45.6	-47.1	19.3	0.00e+00	0	43	0	1056964608	62	4379
2026-01-28 05:37:23.52	315.41	11.41	-45.4	-46.9	19.5	0.00e+00	0	43	0	1059061760	62	4279
2026-01-28 05:37:24.53	315.29	11.34	-45.6	-47.1	19.4	0.00e+00	0	43	0	1061158912	62	4357
2026-01-28 05:37:25.54	315.17	11.27	-45.6	-47.0	19.3	0.00e+00	0	43	0	1063256064	62	4340
2026-01-28 05:37:26.55	315.04	11.20	-45.6	-47.1	19.4	0.00e+00	0	43	0	1065353216	62	4372
2026-01-28 05:37:27.56	314.92	11.13	-45.6	-47.1	19.3	0.00e+00	0	43	0	1066401792	62	4371
2026-01-28 05:37:28.57	314.80	11.06	-45.5	-46.9	19.4	0.00e+00	0	43	0	1068498944	62	4286
2026-01-28 05:37:29.57	314.68	10.99	-45.5	-47.0	19.4	0.00e+00	0	43	0	1070596096	62	4319
2026-01-28 05:37:30.58	314.56	10.92	-45.5	-47.0	19.4	0.00e+00	0	43	0	1072693248	62	4297
2026-01-28 05:37:31.59	314.44	10.86	-45.6	-47.1	19.3	0.00e+00	0	43	0	1074790400	62	4383
2026-01-28 05:37:32.59	314.32	10.79	-45.7	-47.3	19.1	0.00e+00	0	43	0	1076887552	62	4444
2026-01-28 05:37:33.60	314.20	10.72	-45.9	-47.5	18.9	0.00e+00	0	43	0	1077936128	62	4597
2026-01-28 05:37:34.61	314.08	10.65	-46.0	-47.7	18.7	0.00e+00	0	43	0	1080033280	62	4653
2026-01-28 05:37:35.62	313.96	10.58	-46.0	-47.6	18.7	0.00e+00	0	43	0	1082130432	62	4635
2026-01-28 05:37:36.63	313.84	10.51	-46.1	-47.7	18.6	0.00e+00	0	43	0	1084227584	63	4431
2026-01-28 05:37:37.64	313.73	10.44	-46.2	-47.9	18.5	0.00e+00	0	43	0	1085276160	63	4511
2026-01-28 05:37:38.65	313.61	10.37	-46.2	-47.9	18.5	0.00e+00	0	43	0	1087373312	63	4519
2026-01-28 05:37:39.65	313.50	10.31	-46.1	-47.8	18.6	0.00e+00	0	43	0	1089470464	63	4458
2026-01-28 05:37:40.66	313.38	10.24	-46.1	-47.7	18.7	0.00e+00	0	43	0	1091567616	63	4426
2026-01-28 05:37:41.66	313.27	10.17	-45.9	-47.6	18.8	0.00e+00	0	43	0	1093664768	63	4346
2026-01-28 05:37:42.66	313.15	10.10	-46.2	-47.9	18.5	0.00e+00	0	43	0	1094713344	63	4534
2026-01-28 05:37:43.67	313.04	10.03	-46.3	-48.0	18.4	0.00e+00	0	43	0	1096810496	63	4582
2026-01-28 05:37:44.68	312.93	9.97	-46.3	-48.1	18.3	0.00e+00	0	43	0	1098907648	63	4623
2026-01-28 05:37:45.68	312.82	9.90	-46.4	-48.2	18.2	0.00e+00	0	43	0	1101004800	63	4693
2026-01-28 05:37:46.68	312.70	9.83	-46.6	-48.5	17.9	0.00e+00	0	43	0	1103101952	63	4843
2026-01-28 05:37:47.69	312.59	9.76	-46.6	-48.5	17.8	0.00e+00	0	43	0	1105199104	64	4582
2026-01-28 05:37:48.69	312.48	9.70	-46.7	-48.6	17.7	0.00e+00	0	43	0	1106247680	64	4608
2026-01-28 05:37:49.70	312.37	9.63	-46.9	-48.9	17.5	0.00e+00	0	43	0	1108344832	64	4787
2026-01-28 05:37:50.70	312.26	9.56	-47.0	-49.0	17.4	0.00e+00	0	43	0	1110441984	64	4828
2026-01-28 05:37:51.71	312.15	9.49	-47.0	-49.0	17.3	0.00e+00	0	43	0	1112539136	64	4826
2026-01-28 05:37:52.72	312.05	9.42	-46.9	-48.9	17.4	0.00e+00	0	43	0	1113587712	64	4789
2026-01-28 05:37:53.73	311.94	9.36	-46.7	-48.6	17.8	0.00e+00	0	43	0	1115684864	64	4620
2026-01-28 05:37:54.73	311.83	9.29	-46.6	-48.5	17.8	0.00e+00	0	43	0	1117782016	64	4576
2026-01-28 05:37:55.74	311.72	9.22	-46.3	-48.1	18.2	0.00e+00	0	43	0	1119879168	64	4347
2026-01-28 05:37:56.74	311.62	9.16	-46.4	-48.2	18.1	0.00e+00	0	43	0	1121976320	64	4394
2026-01-28 05:37:57.75	311.51	9.09	-46.1	-47.7	18.5	0.00e+00	0	43	0	1123024896	64	4190
2026-01-28 05:37:58.76	311.41	9.02	-46.1	-47.8	18.5	0.00e+00	0	43	0	1125122048	63	4449
2026-01-28 05:37:59.77	311.30	8.96	-46.2	-47.8	18.5	0.00e+00	0	43	0	1127219200	63	4488
2026-01-28 05:38:00.77	311.20	8.89	-46.0	-47.7	18.6	0.00e+00	0	43	0	1129316352	63	4414
2026-01-28 05:38:01.78	311.09	8.82	-46.2	-47.9	18.4	0.00e+00	0	43	0	1131413504	63	4507
2026-01-28 05:38:02.79	310.99	8.76	-46.1	-47.8	18.4	0.00e+00	0	43	0	1133510656	63	4480
2026-01-28 05:38:03.79	310.89	8.69	-46.3	-48.1	18.3	0.00e+00	0	43	0	1134559232	63	4602
2026-01-28 05:38:04.80	310.78	8.62	-46.4	-48.2	18.2	0.00e+00	0	43	0	1136656384	63	4656
2026-01-28 05:38:05.81	310.68	8.56	-46.5	-48.3	18.0	0.00e+00	0	43	0	1138753536	63	4756
2026-01-28 05:38:06.81	310.58	8.49	-46.7	-48.5	17.9	0.00e+00	0	43	0	1140850688	63	4848
2026-01-28 05:38:07.82	310.48	8.42	-46.6	-48.5	17.8	0.00e+00	0	43	0	1141899264	64	4556
2026-01-28 05:38:08.83	310.38	8.36	-46.8	-48.7	17.5	0.00e+00	0	43	0	1143996416	64	4690
2026-01-28 05:38:09.84	310.28	8.29	-46.6	-48.5	17.7	0.00e+00	0	43	0	1146093568	64	4553
2026-01-28 05:38:10.85	310.18	8.23	-46.7	-48.6	17.7	0.00e+00	0	43	0	1148190720	64	4635
2026-01-28 05:38:11.85	310.08	8.16	-46.6	-48.5	17.7	0.00e+00	0	43	0	1150287872	64	4579
2026-01-28 05:38:12.86	309.98	8.09	-46.5	-48.4	17.8	0.00e+00	0	43	0	1151336448	64	4506
2026-01-28 05:38:13.87	309.88	8.03	-46.6	-48.5	17.6	0.00e+00	0	43	0	1153433600	64	4576
2026-01-28 05:38:14.88	309.78	7.96	-46.4	-48.3	17.9	0.00e+00	0	43	0	1155530752	64	4448
2026-01-28 05:38:15.88	309.69	7.90	-46.4	-48.2	18.0	0.00e+00	0	43	0	1157627904	64	4410
2026-01-28 05:38:16.89	309.59	7.83	-46.2	-47.9	18.3	0.00e+00	0	43	0	1159725056	64	4269
2026-01-28 05:38:17.90	309.49	7.77	-46.4	-48.2	18.0	0.00e+00	0	43	0	1161822208	64	4420
2026-01-28 05:38:18.90	309.40	7.70	-46.3	-48.1	18.1	0.00e+00	0	43	0	1162870784	64	4356
2026-01-28 05:38:19.90	309.30	7.64	-46.4	-48.2	17.9	0.00e+00	0	43	0	1164967936	64	4427
2026-01-28 05:38:20.91	309.21	7.57	-46.4	-48.2	18.0	0.00e+00	0	43	0	1167065088	64	4392
2026-01-28 05:38:21.91	309.11	7.51	-46.4	-48.2	17.9	0.00e+00	0	43	0	1169162240	64	4441
2026-01-28 05:38:22.92	309.02	7.44	-46.4	-48.2	17.9	0.00e+00	0	43	0	1170210816	64	4424
2026-01-28 05:38:23.93	308.92	7.38	-46.5	-48.3	17.8	0.00e+00	0	43	0	1172307968	64	4482
2026-01-28 05:38:24.94	308.83	7.31	-46.7	-48.7	17.5	0.00e+00	0	43	0	1174405120	64	4658
2026-01-28 05:38:25.95	308.74	7.25	-46.7	-48.6	17.5	0.00e+00	0	43	0	1176502272	64	4628
2026-01-28 05:38:26.96	308.64	7.18	-46.8	-48.8	17.4	0.00e+00	0	43	0	1178599424	64	4723
2026-01-28 05:38:27.96	308.55	7.12	-47.1	-49.2	17.0	0.00e+00	0	43	0	1179648000	64	4938
2026-01-28 05:38:28.97	308.46	7.06	-47.0	-49.1	17.0	0.00e+00	0	43	0	1181745152	64	4905
2026-01-28 05:38:29.97	308.37	6.99	-47.3	-49.5	16.7	0.00e+00	0	43	0	1183842304	65	4817
2026-01-28 05:38:30.98	308.28	6.93	-47.3	-49.6	16.6	0.00e+00	0	43	0	1185939456	65	4878
2026-01-28 05:38:31.98	308.19	6.86	-47.5	-49.8	16.3	0.00e+00	0	43	0	1188036608	65	5022
2026-01-28 05:38:32.99	308.10	6.80	-47.5	-49.9	16.3	0.00e+00	0	43	0	1190133760	65	5053
2026-01-28 05:38:34.00	308.01	6.74	-47.7	-50.0	16.1	0.00e+00	0	43	0	1191182336	65	5154
2026-01-28 05:38:35.00	307.92	6.67	-47.8	-50.2	15.9	0.00e+00	0	43	0	1193279488	66	4983
2026-01-28 05:38:36.01	307.83	6.61	-47.9	-50.4	15.7	0.00e+00	0	43	0	1195376640	66	5084
2026-01-28 05:38:37.02	307.74	6.54	-47.9	-50.4	15.7	0.00e+00	0	43	0	1197473792	66	5080
2026-01-28 05:38:38.03	307.65	6.48	-48.0	-50.6	15.5	0.00e+00	0	43	0	1198522368	66	5189
2026-01-28 05:38:39.04	307.57	6.42	-48.1	-50.7	15.4	0.00e+00	0	43	0	1200619520	66	5222
2026-01-28 05:38:40.05	307.48	6.35	-48.1	-50.7	15.4	0.00e+00	0	43	0	1202716672	66	5240
2026-01-28 05:38:41.05	307.39	6.29	-48.3	-51.0	15.1	0.00e+00	0	43	0	1204813824	67	5131
2026-01-28 05:38:42.06	307.30	6.23	-48.1	-50.7	15.3	0.00e+00	0	43	0	1206910976	67	4978
2026-01-28 05:38:43.06	307.22	6.17	-48.1	-50.7	15.4	0.00e+00	0	43	0	1207959552	67	4942
2026-01-28 05:38:44.07	307.13	6.10	-47.9	-50.3	15.7	0.00e+00	0	43	0	1210056704	67	4755
2026-01-28 05:38:45.07	307.05	6.04	-47.9	-50.4	15.7	0.00e+00	0	43	0	1212153856	67	4763
2026-01-28 05:38:46.08	306.96	5.98	-47.8	-50.3	15.8	0.00e+00	0	43	0	1214251008	67	4734
2026-01-28 05:38:47.08	306.88	5.91	-47.7	-50.2	15.9	0.00e+00	0	43	0	1216348160	67	4657
2026-01-28 05:38:48.10	306.79	5.85	-47.7	-50.1	15.9	0.00e+00	0	43	0	1218445312	67	4644
2026-01-28 05:38:49.10	306.71	5.79	-47.8	-50.2	15.8	0.00e+00	0	43	0	1219493888	67	4687
2026-01-28 05:38:50.11	306.63	5.73	-47.8	-50.2	15.8	0.00e+00	0	43	0	1221591040	67	4689
