passes_logs/2026/01/28/R3.2S_Murmansk/R3.2S_Murmansk__20260128_233023_KANOPUS-V_5_rec.log

#Pass ID: 20260128_233023_KANOPUS-V 5
#Satellite: KANOPUS-V 5
#Configuration: KANOPUS-V_8320
#almurnet v.1.7.20251203
#Start time: 2026-01-28 23:30:25

#Version: 2.2.20231116
#Station: R3.2S_Murmansk
#Location: 33.079688 lon 68.888172 lat
#TLE: 1 43876U 18111A   26027.97835917  .00004614  00000+0  19590-3 0  9997
#TLE: 2 43876  97.3677 296.2578 0001834  88.9595 271.1852 15.23564197393440

#Time	Az	El	Level	Level2	SNR	BER	BlckErr	Temp	State	Recorded	gain1	gain2
2026-01-28 23:30:25.11	21.93	2.12	-54.4	-63.2	3.8	7.46e-01	0	41	0	0	80	9895
2026-01-28 23:30:26.10	21.88	2.19	-54.4	-63.2	3.8	7.46e-01	0	40	104	0	80	9932
2026-01-28 23:30:27.11	21.83	2.25	-54.3	-63.1	3.8	7.44e-01	0	40	104	0	80	9816
2026-01-28 23:30:28.12	21.78	2.32	-54.4	-63.2	3.8	7.43e-01	0	40	104	0	80	9878
2026-01-28 23:30:29.12	21.73	2.39	-54.3	-63.2	3.8	7.46e-01	0	40	104	0	80	9844
2026-01-28 23:30:30.13	21.68	2.46	-54.3	-63.1	3.8	7.46e-01	0	41	104	0	80	9813
2026-01-28 23:30:31.14	21.62	2.53	-54.6	-63.4	3.8	7.46e-01	0	41	104	0	80	10121
2026-01-28 23:30:32.15	21.57	2.60	-54.7	-63.5	3.8	7.45e-01	0	41	104	0	80	10248
2026-01-28 23:30:33.16	21.52	2.67	-54.7	-63.5	3.8	7.45e-01	0	40	104	0	80	10273
2026-01-28 23:30:34.16	21.46	2.74	-54.7	-63.5	3.8	7.45e-01	0	41	104	0	80	10285
2026-01-28 23:30:35.17	21.41	2.81	-54.7	-63.6	3.8	7.46e-01	0	41	104	0	80	10300
2026-01-28 23:30:36.18	21.35	2.88	-54.7	-63.6	3.8	7.44e-01	0	41	104	0	80	10310
2026-01-28 23:30:37.19	21.30	2.95	-54.7	-63.6	3.8	7.45e-01	0	41	104	0	80	10295
2026-01-28 23:30:38.20	21.24	3.02	-54.7	-63.5	3.8	7.46e-01	0	41	104	0	80	10234
2026-01-28 23:30:39.21	21.19	3.09	-54.7	-63.5	3.8	7.45e-01	0	41	104	0	80	10214
2026-01-28 23:30:40.22	21.13	3.16	-54.7	-63.5	3.8	7.45e-01	0	41	104	0	80	10274
2026-01-28 23:30:41.23	21.08	3.23	-54.8	-63.6	3.8	7.46e-01	0	41	104	0	80	10335
2026-01-28 23:30:42.23	21.02	3.30	-54.8	-63.6	3.8	7.46e-01	0	41	104	0	80	10302
2026-01-28 23:30:43.24	20.96	3.38	-54.7	-63.5	3.8	7.46e-01	0	41	104	0	80	10273
2026-01-28 23:30:44.25	20.90	3.45	-54.6	-63.5	3.8	7.45e-01	0	41	104	0	80	10214
2026-01-28 23:30:45.26	20.85	3.52	-54.6	-63.4	3.8	7.46e-01	0	41	104	0	80	10112
2026-01-28 23:30:46.26	20.79	3.59	-54.5	-63.3	3.8	7.44e-01	0	41	104	0	80	9988
2026-01-28 23:30:47.27	20.73	3.66	-54.4	-63.2	3.8	7.44e-01	0	41	104	0	80	9876
2026-01-28 23:30:48.28	20.67	3.74	-54.2	-63.1	3.8	7.44e-01	0	41	104	0	80	9735
2026-01-28 23:30:49.29	20.61	3.81	-54.1	-62.9	3.8	7.46e-01	0	41	104	0	80	9588
2026-01-28 23:30:50.29	20.55	3.88	-54.0	-62.8	3.8	7.44e-01	0	41	104	0	79	9990
2026-01-28 23:30:51.30	20.49	3.96	-53.7	-62.6	3.8	7.45e-01	0	41	104	0	79	9727
2026-01-28 23:30:52.31	20.43	4.03	-53.4	-62.2	3.8	7.45e-01	0	41	104	0	78	9876
2026-01-28 23:30:53.32	20.37	4.10	-52.9	-61.7	3.8	7.45e-01	0	41	104	0	77	9919
2026-01-28 23:30:54.33	20.31	4.18	-52.8	-61.7	3.8	7.44e-01	0	41	104	0	77	9882
2026-01-28 23:30:55.34	20.25	4.25	-52.8	-61.7	3.8	7.47e-01	0	41	104	0	77	9860
2026-01-28 23:30:56.35	20.18	4.33	-52.8	-61.6	3.8	7.46e-01	0	41	104	0	77	9812
2026-01-28 23:30:57.35	20.12	4.40	-52.8	-61.6	3.8	7.46e-01	0	41	104	0	77	9816
2026-01-28 23:30:58.36	20.06	4.48	-52.8	-61.6	3.8	7.44e-01	0	41	104	0	77	9803
2026-01-28 23:30:59.37	19.99	4.55	-52.8	-61.6	3.8	7.43e-01	0	41	104	0	77	9765
2026-01-28 23:31:00.38	19.93	4.63	-52.8	-61.6	3.8	7.46e-01	0	41	104	0	77	9771
2026-01-28 23:31:01.39	19.86	4.71	-52.8	-61.6	3.8	7.46e-01	0	41	104	0	77	9784
2026-01-28 23:31:02.39	19.80	4.78	-52.8	-61.6	3.8	7.46e-01	0	41	104	0	77	9775
2026-01-28 23:31:03.40	19.73	4.86	-52.8	-61.6	3.8	7.47e-01	0	41	104	0	77	9781
2026-01-28 23:31:04.41	19.67	4.94	-52.8	-61.6	3.8	7.45e-01	0	41	104	0	77	9754
2026-01-28 23:31:05.41	19.60	5.01	-52.8	-61.6	3.8	7.45e-01	0	41	104	0	77	9752
2026-01-28 23:31:06.42	19.53	5.09	-52.8	-61.6	3.8	7.45e-01	0	42	104	0	77	9826
2026-01-28 23:31:07.43	19.47	5.17	-52.9	-61.7	3.8	7.45e-01	0	41	104	0	77	9893
2026-01-28 23:31:08.43	19.40	5.25	-52.8	-61.6	3.8	7.44e-01	0	42	104	0	77	9802
2026-01-28 23:31:09.44	19.33	5.32	-52.8	-61.6	3.8	7.46e-01	0	41	104	0	77	9803
2026-01-28 23:31:10.45	19.26	5.40	-52.8	-61.7	3.8	7.44e-01	0	42	104	0	77	9851
2026-01-28 23:31:11.46	19.19	5.48	-52.8	-61.6	3.8	7.45e-01	0	41	104	0	77	9763
2026-01-28 23:31:12.47	19.12	5.56	-52.8	-61.7	3.8	7.46e-01	0	42	104	0	77	9842
2026-01-28 23:31:13.47	19.05	5.64	-52.8	-61.6	3.8	7.45e-01	0	42	104	0	77	9800
2026-01-28 23:31:14.48	18.98	5.72	-52.8	-61.7	3.8	7.45e-01	0	42	104	0	77	9840
2026-01-28 23:31:15.49	18.91	5.80	-52.8	-61.6	3.8	7.45e-01	0	42	104	0	77	9780
2026-01-28 23:31:16.50	18.84	5.88	-52.8	-61.6	3.8	7.45e-01	0	42	104	0	77	9823
2026-01-28 23:31:17.50	18.76	5.96	-52.8	-61.6	3.8	7.43e-01	0	42	104	0	77	9810
2026-01-28 23:31:18.51	18.69	6.04	-52.8	-61.7	3.8	7.46e-01	0	42	104	0	77	9841
2026-01-28 23:31:19.52	18.62	6.12	-52.8	-61.6	3.8	7.46e-01	0	42	104	0	77	9803
2026-01-28 23:31:20.53	18.54	6.20	-52.8	-61.7	3.8	7.43e-01	0	42	104	0	77	9860
2026-01-28 23:31:21.53	18.47	6.28	-52.9	-61.7	3.8	7.46e-01	0	42	104	0	77	9889
2026-01-28 23:31:22.54	18.39	6.37	-52.9	-61.7	3.8	7.45e-01	0	42	104	0	77	9877
2026-01-28 23:31:23.55	18.32	6.45	-52.9	-61.7	3.8	7.46e-01	0	42	104	0	77	9900
2026-01-28 23:31:24.56	18.24	6.53	-52.9	-61.7	3.8	7.45e-01	0	42	104	0	77	9891
2026-01-28 23:31:25.57	18.16	6.61	-52.9	-61.7	3.8	7.44e-01	0	42	104	0	77	9915
2026-01-28 23:31:26.58	18.09	6.70	-52.9	-61.8	3.8	7.45e-01	0	42	104	0	77	9965
2026-01-28 23:31:27.59	18.01	6.78	-52.9	-61.7	3.8	7.45e-01	0	42	104	0	77	9903
2026-01-28 23:31:28.60	17.93	6.87	-52.9	-61.7	3.8	7.44e-01	0	42	104	0	77	9939
2026-01-28 23:31:29.61	17.85	6.95	-52.9	-61.8	3.8	7.46e-01	0	42	104	0	77	9954
2026-01-28 23:31:30.62	17.77	7.04	-52.9	-61.8	3.8	7.45e-01	0	42	104	0	77	9957
2026-01-28 23:31:31.62	17.69	7.12	-53.0	-61.8	3.8	7.46e-01	0	42	104	0	77	9987
2026-01-28 23:31:32.63	17.61	7.20	-52.9	-61.8	3.8	7.45e-01	0	42	104	0	77	9957
2026-01-28 23:31:33.64	17.52	7.29	-53.0	-61.8	3.8	7.45e-01	0	42	104	0	77	9997
2026-01-28 23:31:34.65	17.44	7.38	-52.9	-61.8	3.8	7.46e-01	0	42	104	0	77	9972
2026-01-28 23:31:35.66	17.36	7.46	-53.0	-61.8	3.8	7.45e-01	0	42	104	0	77	10033
2026-01-28 23:31:36.67	17.27	7.55	-52.9	-61.8	3.8	7.44e-01	0	42	104	0	77	9951
2026-01-28 23:31:37.68	17.19	7.64	-53.0	-61.8	3.8	7.44e-01	0	42	104	0	77	10044
2026-01-28 23:31:38.69	17.10	7.72	-53.0	-61.8	3.8	7.44e-01	0	42	104	0	77	9983
2026-01-28 23:31:39.69	17.02	7.81	-53.0	-61.8	3.8	7.46e-01	0	42	104	0	77	10056
2026-01-28 23:31:40.70	16.93	7.90	-53.0	-61.8	3.8	7.43e-01	0	42	104	0	77	10015
2026-01-28 23:31:41.71	16.84	7.99	-53.1	-61.8	3.8	7.46e-01	0	42	104	0	77	10053
2026-01-28 23:31:42.72	16.76	8.08	-53.0	-61.8	3.8	7.45e-01	0	42	104	0	77	10028
2026-01-28 23:31:43.73	16.67	8.17	-53.0	-61.9	3.8	7.47e-01	0	42	104	0	77	10086
2026-01-28 23:31:44.74	16.58	8.26	-53.0	-61.8	3.8	7.45e-01	0	42	104	0	77	10043
2026-01-28 23:31:45.74	16.49	8.34	-53.1	-61.9	3.8	7.45e-01	0	42	104	0	77	10131
2026-01-28 23:31:46.75	16.40	8.43	-53.0	-61.8	3.8	7.45e-01	0	42	104	0	77	10021
2026-01-28 23:31:47.76	16.31	8.53	-53.1	-61.9	3.8	7.46e-01	0	42	104	0	77	10116
2026-01-28 23:31:48.77	16.21	8.62	-53.0	-61.8	3.8	7.46e-01	0	42	104	0	77	10042
2026-01-28 23:31:49.78	16.12	8.71	-53.1	-61.9	3.8	7.46e-01	0	42	104	0	77	10166
2026-01-28 23:31:50.79	16.03	8.80	-53.0	-61.9	3.8	7.46e-01	0	42	104	0	77	10061
2026-01-28 23:31:51.79	15.93	8.89	-53.1	-61.9	3.8	7.46e-01	0	42	104	0	77	10145
2026-01-28 23:31:52.80	15.84	8.98	-53.1	-61.9	3.8	7.46e-01	0	42	104	0	77	10080
2026-01-28 23:31:53.81	15.74	9.08	-53.1	-61.9	3.8	7.45e-01	0	42	104	0	77	10170
2026-01-28 23:31:54.82	15.64	9.17	-53.1	-61.9	3.8	7.45e-01	0	42	104	0	77	10111
2026-01-28 23:31:55.83	15.55	9.26	-53.1	-62.0	3.8	7.45e-01	0	42	104	0	77	10218
2026-01-28 23:31:56.84	15.45	9.36	-53.1	-61.9	3.8	7.45e-01	0	42	104	0	77	10074
2026-01-28 23:31:57.84	15.35	9.45	-53.2	-62.0	3.8	7.46e-01	0	42	104	0	77	10248
2026-01-28 23:31:58.85	15.25	9.55	-53.1	-61.9	3.8	7.44e-01	0	42	104	0	77	10082
2026-01-28 23:31:59.86	15.15	9.64	-53.1	-62.0	3.8	7.44e-01	0	42	104	0	77	10197
2026-01-28 23:32:00.87	15.05	9.74	-53.1	-61.9	3.8	7.46e-01	0	42	104	0	77	10143
2026-01-28 23:32:01.88	14.94	9.84	-53.2	-62.0	3.8	7.43e-01	0	42	104	0	77	10208
2026-01-28 23:32:02.88	14.84	9.93	-53.1	-61.9	3.8	7.45e-01	0	42	104	0	77	10151
2026-01-28 23:32:03.88	14.74	10.03	-53.2	-62.0	3.8	7.46e-01	0	42	104	0	77	10248
2026-01-28 23:32:04.89	14.63	10.13	-53.1	-62.0	3.8	7.45e-01	0	42	104	0	77	10201
2026-01-28 23:32:05.90	14.52	10.22	-53.2	-62.1	3.8	7.45e-01	0	42	104	0	77	10304
2026-01-28 23:32:06.91	14.42	10.32	-53.2	-62.0	3.8	7.48e-01	0	42	104	0	77	10192
2026-01-28 23:32:07.92	14.31	10.42	-53.2	-62.1	3.8	7.45e-01	0	42	104	0	77	10306
2026-01-28 23:32:08.93	14.20	10.52	-53.2	-62.0	3.8	7.45e-01	0	42	104	0	77	10180
2026-01-28 23:32:09.94	14.09	10.62	-53.3	-62.1	3.8	7.44e-01	0	42	104	0	77	10338
2026-01-28 23:32:10.95	13.98	10.72	-53.2	-62.0	3.8	7.43e-01	0	42	104	0	77	10277
2026-01-28 23:32:11.95	13.87	10.82	-53.2	-62.1	3.8	7.46e-01	0	42	104	0	77	10321
2026-01-28 23:32:12.96	13.75	10.92	-53.2	-62.0	3.8	7.47e-01	0	42	104	0	77	10251
2026-01-28 23:32:13.97	13.64	11.02	-53.3	-62.1	3.8	7.44e-01	0	42	104	0	77	10365
2026-01-28 23:32:14.97	13.52	11.12	-53.2	-62.0	3.8	7.47e-01	0	42	104	0	77	10238
2026-01-28 23:32:15.98	13.41	11.23	-53.3	-62.1	3.8	7.45e-01	0	42	104	0	77	10344
2026-01-28 23:32:16.99	13.29	11.33	-53.2	-62.0	3.8	7.46e-01	0	42	104	0	77	10234
2026-01-28 23:32:17.99	13.17	11.43	-53.3	-62.1	3.8	7.45e-01	0	42	104	0	77	10363
2026-01-28 23:32:19.00	13.06	11.54	-53.2	-62.0	3.8	7.44e-01	0	43	104	0	77	10277
2026-01-28 23:32:20.01	12.93	11.64	-53.3	-62.1	3.8	7.44e-01	0	42	104	0	77	10350
2026-01-28 23:32:21.02	12.81	11.75	-53.2	-62.0	3.8	7.47e-01	0	42	104	0	77	10261
2026-01-28 23:32:22.02	12.69	11.85	-53.3	-62.1	3.8	7.46e-01	0	42	104	0	77	10367
2026-01-28 23:32:23.03	12.57	11.96	-53.2	-62.1	3.8	7.45e-01	0	42	104	0	77	10331
2026-01-28 23:32:24.04	12.44	12.06	-53.3	-62.1	3.8	7.45e-01	0	42	104	0	77	10359
2026-01-28 23:32:25.05	12.32	12.17	-53.2	-62.1	3.8	7.46e-01	0	42	104	0	77	10304
2026-01-28 23:32:26.06	12.19	12.28	-53.3	-62.2	3.8	7.46e-01	0	42	104	0	77	10448
2026-01-28 23:32:27.07	12.06	12.38	-53.3	-62.1	3.8	7.44e-01	0	42	104	0	77	10299
2026-01-28 23:32:28.08	11.93	12.49	-53.3	-62.1	3.8	7.46e-01	0	42	104	0	77	10390
2026-01-28 23:32:29.09	11.80	12.60	-53.3	-62.1	3.8	7.46e-01	0	42	104	0	77	10336
2026-01-28 23:32:30.10	11.67	12.71	-53.4	-62.2	3.8	7.44e-01	0	43	104	0	77	10433
2026-01-28 23:32:31.11	11.54	12.82	-53.3	-62.1	3.8	7.47e-01	0	42	104	0	77	10332
2026-01-28 23:32:32.11	11.40	12.93	-53.4	-62.2	3.8	7.46e-01	0	42	104	0	77	10432
2026-01-28 23:32:33.12	11.27	13.04	-53.3	-62.1	3.8	7.44e-01	0	42	104	0	77	10392
2026-01-28 23:32:34.13	11.13	13.15	-53.4	-62.2	3.8	7.46e-01	0	42	104	0	77	10446
2026-01-28 23:32:35.14	10.99	13.27	-53.3	-62.1	3.8	7.46e-01	0	42	104	0	77	10397
2026-01-28 23:32:36.15	10.86	13.38	-53.4	-62.2	3.8	7.45e-01	0	42	104	0	77	10437
2026-01-28 23:32:37.16	10.71	13.49	-53.3	-62.2	3.8	7.45e-01	0	42	104	0	77	10432
2026-01-28 23:32:38.17	10.57	13.61	-53.4	-62.2	3.8	7.47e-01	0	42	104	0	77	10523
2026-01-28 23:32:39.17	10.43	13.72	-53.3	-62.2	3.8	7.48e-01	0	42	104	0	77	10420
2026-01-28 23:32:40.18	10.29	13.83	-53.4	-62.2	3.8	7.48e-01	0	42	104	0	77	10484
2026-01-28 23:32:41.19	10.14	13.95	-53.3	-62.1	3.8	7.43e-01	0	42	104	0	77	10410
2026-01-28 23:32:42.20	9.99	14.07	-53.4	-62.2	3.8	7.45e-01	0	42	104	0	77	10523
2026-01-28 23:32:43.21	9.84	14.18	-53.4	-62.2	3.8	7.46e-01	0	42	104	0	77	10434
2026-01-28 23:32:44.21	9.69	14.30	-53.4	-62.2	3.8	7.45e-01	0	42	104	0	77	10497
2026-01-28 23:32:45.22	9.54	14.42	-53.4	-62.2	3.8	7.45e-01	0	42	104	0	77	10470
2026-01-28 23:32:46.23	9.39	14.53	-53.5	-62.3	3.8	7.46e-01	0	43	104	0	77	10546
2026-01-28 23:32:47.24	9.23	14.65	-53.4	-62.2	3.8	7.46e-01	0	42	104	0	77	10532
2026-01-28 23:32:48.25	9.08	14.77	-53.4	-62.3	3.8	7.47e-01	0	42	104	0	77	10534
2026-01-28 23:32:49.26	8.92	14.89	-53.4	-62.2	3.8	7.45e-01	0	42	104	0	77	10522
2026-01-28 23:32:50.26	8.76	15.01	-53.5	-62.3	3.8	7.45e-01	0	43	104	0	77	10589
2026-01-28 23:32:51.27	8.60	15.13	-53.4	-62.2	3.8	7.46e-01	0	43	104	0	77	10533
2026-01-28 23:32:52.28	8.44	15.26	-53.5	-62.3	3.8	7.46e-01	0	42	104	0	77	10584
2026-01-28 23:32:53.29	8.27	15.38	-53.4	-62.2	3.8	7.46e-01	0	42	104	0	77	10486
2026-01-28 23:32:54.30	8.11	15.50	-53.5	-62.3	3.8	7.47e-01	0	42	104	0	77	10570
2026-01-28 23:32:55.31	7.94	15.62	-53.4	-62.3	3.8	7.46e-01	0	42	104	0	77	10579
2026-01-28 23:32:56.31	7.77	15.75	-53.5	-62.3	3.8	7.45e-01	0	42	104	0	77	10581
2026-01-28 23:32:57.32	7.60	15.87	-53.4	-62.3	3.8	7.45e-01	0	43	104	0	77	10559
2026-01-28 23:32:58.33	7.43	16.00	-53.5	-62.3	3.8	7.44e-01	0	42	104	0	77	10578
2026-01-28 23:32:59.33	7.26	16.12	-53.5	-62.3	3.8	7.46e-01	0	42	104	0	77	10616
2026-01-28 23:33:00.34	7.08	16.25	-53.5	-62.3	3.8	7.45e-01	0	43	104	0	77	10617
2026-01-28 23:33:01.35	6.90	16.38	-53.5	-62.3	3.8	7.46e-01	0	42	104	0	77	10603
2026-01-28 23:33:02.36	6.72	16.50	-53.5	-62.3	3.8	7.45e-01	0	43	104	0	77	10639
2026-01-28 23:33:03.37	6.54	16.63	-53.5	-62.3	3.8	7.45e-01	0	42	104	0	77	10624
2026-01-28 23:33:04.38	6.36	16.76	-53.5	-62.3	3.8	7.46e-01	0	42	104	0	77	10654
2026-01-28 23:33:05.38	6.17	16.89	-53.5	-62.3	3.8	7.46e-01	0	43	104	0	77	10628
2026-01-28 23:33:06.39	5.99	17.02	-53.6	-62.4	3.8	7.45e-01	0	42	104	0	77	10701
2026-01-28 23:33:07.40	5.80	17.15	-53.5	-62.4	3.8	7.45e-01	0	42	104	0	77	10656
2026-01-28 23:33:08.41	5.61	17.28	-53.5	-62.4	3.8	7.43e-01	0	42	104	0	77	10662
2026-01-28 23:33:09.42	5.41	17.41	-53.5	-62.4	3.8	7.46e-01	0	42	104	0	77	10663
2026-01-28 23:33:10.43	5.22	17.55	-53.6	-62.4	3.8	7.44e-01	0	42	104	0	77	10701
2026-01-28 23:33:11.44	5.02	17.68	-53.5	-62.4	3.8	7.44e-01	0	43	104	0	77	10718
2026-01-28 23:33:12.44	4.82	17.81	-53.6	-62.4	3.8	7.45e-01	0	42	104	0	77	10709
2026-01-28 23:33:13.45	4.62	17.95	-53.5	-62.3	3.8	7.45e-01	0	42	104	0	77	10639
2026-01-28 23:33:14.46	4.42	18.08	-53.6	-62.4	3.8	7.46e-01	0	42	104	0	77	10755
2026-01-28 23:33:15.47	4.21	18.22	-53.6	-62.4	3.8	7.46e-01	0	42	104	0	77	10728
2026-01-28 23:33:16.47	4.01	18.35	-53.6	-62.4	3.8	7.45e-01	0	42	104	0	77	10760
2026-01-28 23:33:17.48	3.80	18.49	-53.6	-62.4	3.8	7.47e-01	0	43	104	0	77	10724
2026-01-28 23:33:18.49	3.58	18.63	-53.6	-62.5	3.8	7.47e-01	0	42	104	0	77	10780
2026-01-28 23:33:19.50	3.37	18.77	-53.6	-62.4	3.8	7.46e-01	0	43	104	0	77	10750
2026-01-28 23:33:20.51	3.15	18.91	-53.6	-62.4	3.8	7.45e-01	0	42	104	0	77	10753
2026-01-28 23:33:21.52	2.93	19.05	-53.6	-62.4	3.8	7.47e-01	0	42	104	0	77	10759
2026-01-28 23:33:22.53	2.71	19.19	-53.6	-62.5	3.8	7.45e-01	0	43	104	0	77	10793
2026-01-28 23:33:23.53	2.49	19.33	-53.6	-62.5	3.8	7.47e-01	0	42	104	0	77	10795
2026-01-28 23:33:24.54	2.26	19.47	-53.6	-62.5	3.8	7.45e-01	0	43	104	0	77	10813
2026-01-28 23:33:25.55	2.03	19.61	-53.7	-62.5	3.8	7.46e-01	0	42	104	0	77	10807
2026-01-28 23:33:26.55	1.80	19.75	-53.7	-62.5	3.8	7.45e-01	0	43	104	0	77	10823
2026-01-28 23:33:27.56	1.57	19.89	-53.7	-62.5	3.8	7.44e-01	0	43	104	0	77	10826
2026-01-28 23:33:28.57	1.33	20.04	-53.7	-62.5	3.8	7.45e-01	0	42	104	0	77	10811
2026-01-28 23:33:29.58	1.09	20.18	-53.7	-62.5	3.8	7.43e-01	0	43	104	0	77	10795
2026-01-28 23:33:30.58	0.86	20.32	-53.7	-62.5	3.8	7.46e-01	0	42	104	0	78	10249
2026-01-28 23:33:31.59	0.61	20.47	-53.7	-62.5	3.8	7.44e-01	0	42	104	0	78	10230
2026-01-28 23:33:32.60	0.36	20.62	-53.7	-62.5	3.8	7.45e-01	0	42	104	0	78	10255
2026-01-28 23:33:33.61	0.11	20.76	-53.8	-62.6	3.8	7.46e-01	0	43	104	0	78	10296
2026-01-28 23:33:34.61	359.86	20.91	-53.7	-62.6	3.8	7.45e-01	0	42	104	0	78	10344
2026-01-28 23:33:35.62	359.61	21.06	-53.7	-62.6	3.8	7.45e-01	0	43	104	0	78	10327
2026-01-28 23:33:36.63	359.35	21.20	-53.7	-62.6	3.8	7.45e-01	0	42	104	0	78	10304
2026-01-28 23:33:37.64	359.09	21.35	-53.8	-62.6	3.8	7.46e-01	0	43	104	0	78	10352
2026-01-28 23:33:38.65	358.82	21.50	-53.8	-62.6	3.8	7.47e-01	0	43	104	0	78	10343
2026-01-28 23:33:39.65	358.56	21.65	-53.8	-62.6	3.8	7.47e-01	0	42	104	0	78	10327
2026-01-28 23:33:40.66	358.29	21.80	-53.7	-62.6	3.8	7.45e-01	0	43	104	0	78	10324
2026-01-28 23:33:41.67	358.02	21.95	-53.8	-62.6	3.8	7.45e-01	0	43	104	0	78	10378
2026-01-28 23:33:42.67	357.74	22.10	-53.8	-62.6	3.8	7.44e-01	0	43	104	0	78	10383
2026-01-28 23:33:43.68	357.46	22.25	-53.8	-62.6	3.8	7.45e-01	0	43	104	0	78	10358
2026-01-28 23:33:44.69	357.18	22.41	-53.8	-62.6	3.8	7.44e-01	0	43	104	0	78	10322
2026-01-28 23:33:45.70	356.90	22.56	-53.8	-62.7	3.8	7.46e-01	0	43	104	0	78	10440
2026-01-28 23:33:46.71	356.61	22.71	-53.8	-62.6	3.8	7.47e-01	0	43	104	0	78	10402
2026-01-28 23:33:47.71	356.32	22.86	-53.8	-62.6	3.8	7.46e-01	0	43	104	0	78	10386
2026-01-28 23:33:48.72	356.02	23.02	-53.8	-62.6	3.8	7.45e-01	0	43	104	0	78	10383
2026-01-28 23:33:49.73	355.72	23.17	-53.9	-62.7	3.8	7.45e-01	0	43	104	0	78	10472
2026-01-28 23:33:50.74	355.42	23.33	-53.8	-62.6	3.8	7.46e-01	0	43	104	0	78	10393
2026-01-28 23:33:51.75	355.12	23.48	-53.9	-62.7	3.8	7.46e-01	0	43	104	0	78	10472
2026-01-28 23:33:52.76	354.81	23.64	-53.8	-62.7	3.8	7.44e-01	0	43	104	0	78	10431
2026-01-28 23:33:53.77	354.50	23.79	-53.9	-62.7	3.8	7.46e-01	0	43	104	0	78	10489
2026-01-28 23:33:54.78	354.18	23.95	-53.9	-62.7	3.8	7.45e-01	0	43	104	0	78	10486
2026-01-28 23:33:55.79	353.86	24.11	-53.9	-62.7	3.8	7.46e-01	0	43	104	0	78	10484
2026-01-28 23:33:56.79	353.54	24.26	-53.9	-62.7	3.8	7.46e-01	0	43	104	0	78	10454
2026-01-28 23:33:57.80	353.21	24.42	-53.9	-62.8	3.8	7.45e-01	0	43	104	0	78	10537
2026-01-28 23:33:58.81	352.88	24.58	-53.9	-62.8	3.8	7.44e-01	0	43	104	0	78	10534
2026-01-28 23:33:59.81	352.55	24.73	-53.9	-62.7	3.8	7.44e-01	0	43	104	0	78	10513
2026-01-28 23:34:00.82	352.21	24.89	-53.9	-62.7	3.8	7.45e-01	0	43	104	0	78	10514
2026-01-28 23:34:01.83	351.87	25.05	-54.0	-62.8	3.8	7.48e-01	0	42	104	0	78	10542
2026-01-28 23:34:02.83	351.53	25.20	-53.9	-62.8	3.8	7.46e-01	0	43	104	0	78	10559
2026-01-28 23:34:03.84	351.18	25.36	-54.0	-62.8	3.8	7.46e-01	0	43	104	0	78	10601
2026-01-28 23:34:04.85	350.83	25.52	-53.9	-62.7	3.8	7.45e-01	0	43	104	0	78	10511
2026-01-28 23:34:05.86	350.47	25.68	-54.0	-62.8	3.8	7.45e-01	0	42	104	0	78	10584
2026-01-28 23:34:06.87	350.11	25.84	-54.0	-62.8	3.8	7.44e-01	0	43	104	0	78	10655
2026-01-28 23:34:07.87	349.75	25.99	-54.0	-62.9	3.8	7.46e-01	0	43	104	0	78	10689
2026-01-28 23:34:08.88	349.38	26.15	-54.0	-62.8	3.8	7.48e-01	0	43	104	0	78	10623
2026-01-28 23:34:09.89	349.00	26.31	-54.1	-62.9	3.8	7.44e-01	0	43	104	0	78	10690
2026-01-28 23:34:10.90	348.63	26.47	-54.0	-62.9	3.8	7.46e-01	0	43	104	0	78	10669
2026-01-28 23:34:11.91	348.24	26.62	-54.1	-62.9	3.8	7.46e-01	0	43	104	0	78	10684
2026-01-28 23:34:12.91	347.86	26.78	-54.0	-62.8	3.8	7.45e-01	0	43	104	0	78	10620
2026-01-28 23:34:13.92	347.47	26.94	-54.1	-62.9	3.8	7.45e-01	0	43	104	0	78	10708
2026-01-28 23:34:14.93	347.08	27.09	-54.0	-62.8	3.8	7.46e-01	0	43	104	0	78	10633
2026-01-28 23:34:15.93	346.68	27.25	-54.1	-62.9	3.8	7.45e-01	0	43	104	0	78	10717
2026-01-28 23:34:16.94	346.28	27.40	-54.0	-62.9	3.8	7.47e-01	0	42	104	0	78	10671
2026-01-28 23:34:17.95	345.87	27.56	-54.1	-62.9	3.8	7.44e-01	0	42	104	0	78	10694
2026-01-28 23:34:18.95	345.46	27.71	-54.1	-62.9	3.8	7.47e-01	0	43	104	0	78	10704
2026-01-28 23:34:19.96	345.04	27.87	-54.1	-62.9	3.8	7.46e-01	0	43	104	0	78	10719
2026-01-28 23:34:20.97	344.62	28.02	-54.0	-62.9	3.8	7.46e-01	0	43	104	0	78	10669
2026-01-28 23:34:21.98	344.20	28.18	-54.1	-62.9	3.8	7.45e-01	0	43	104	0	78	10778
2026-01-28 23:34:22.99	343.77	28.33	-54.1	-62.9	3.8	7.44e-01	0	43	104	0	78	10708
2026-01-28 23:34:24.00	343.33	28.48	-54.1	-62.9	3.8	7.45e-01	0	43	104	0	78	10772
2026-01-28 23:34:25.01	342.89	28.64	-54.1	-62.9	3.8	7.46e-01	0	43	104	0	78	10693
2026-01-28 23:34:26.02	342.45	28.79	-54.1	-62.9	3.8	7.45e-01	0	43	104	0	78	10733
2026-01-28 23:34:27.02	342.01	28.94	-54.1	-62.9	3.8	7.44e-01	0	43	104	0	78	10727
2026-01-28 23:34:28.03	341.55	29.09	-54.1	-63.0	3.8	7.45e-01	0	43	104	0	78	10792
2026-01-28 23:34:29.04	341.09	29.23	-54.1	-62.9	3.8	7.47e-01	0	43	104	0	78	10700
2026-01-28 23:34:30.04	340.64	29.38	-54.2	-63.0	3.8	7.45e-01	0	43	104	0	78	10809
2026-01-28 23:34:31.05	340.17	29.53	-54.1	-62.9	3.8	7.47e-01	0	43	104	0	78	10778
2026-01-28 23:34:32.05	339.70	29.67	-54.2	-63.0	3.8	7.46e-01	0	43	104	0	78	10856
2026-01-28 23:34:33.06	339.23	29.81	-54.1	-63.0	3.8	7.45e-01	0	43	104	0	78	10806
2026-01-28 23:34:34.07	338.75	29.96	-54.2	-63.0	3.8	7.46e-01	0	43	104	0	79	10287
2026-01-28 23:34:35.08	338.26	30.10	-54.2	-63.0	3.8	7.45e-01	0	43	104	0	79	10228
2026-01-28 23:34:36.09	337.77	30.24	-54.2	-63.1	3.8	7.45e-01	0	43	104	0	79	10304
2026-01-28 23:34:37.09	337.28	30.38	-54.2	-63.0	3.8	7.45e-01	0	43	104	0	79	10292
2026-01-28 23:34:38.09	336.79	30.51	-54.3	-63.1	3.8	7.44e-01	0	43	104	0	79	10369
2026-01-28 23:34:39.10	336.28	30.65	-54.3	-63.1	3.8	7.45e-01	0	43	104	0	79	10328
2026-01-28 23:34:40.11	335.77	30.78	-54.3	-63.1	3.8	7.45e-01	0	43	104	0	79	10344
2026-01-28 23:34:41.12	335.26	30.92	-54.2	-63.0	3.8	7.45e-01	0	43	104	0	79	10287
2026-01-28 23:34:42.13	334.74	31.05	-54.3	-63.1	3.8	7.45e-01	0	43	104	0	79	10381
2026-01-28 23:34:43.13	334.22	31.18	-54.3	-63.1	3.8	7.44e-01	0	43	104	0	79	10382
2026-01-28 23:34:44.14	333.70	31.30	-54.3	-63.2	3.8	7.47e-01	0	43	104	0	79	10413
2026-01-28 23:34:45.15	333.17	31.43	-54.3	-63.1	3.8	7.47e-01	0	43	104	0	79	10321
2026-01-28 23:34:46.16	332.63	31.55	-54.3	-63.2	3.8	7.44e-01	0	43	104	0	79	10428
2026-01-28 23:34:47.17	332.09	31.67	-54.3	-63.1	3.8	7.46e-01	0	43	104	0	79	10386
2026-01-28 23:34:48.17	331.55	31.79	-54.3	-63.2	3.8	7.44e-01	0	43	104	0	79	10418
2026-01-28 23:34:49.18	331.00	31.91	-54.3	-63.1	3.8	7.46e-01	0	43	104	0	79	10331
2026-01-28 23:34:50.19	330.45	32.02	-54.3	-63.2	3.8	7.45e-01	0	43	104	0	79	10433
2026-01-28 23:34:51.19	329.89	32.14	-54.3	-63.1	3.8	7.46e-01	0	43	104	0	79	10370
2026-01-28 23:34:52.20	329.33	32.25	-54.4	-63.2	3.8	7.46e-01	0	43	104	0	79	10421
2026-01-28 23:34:53.21	328.77	32.35	-54.3	-63.1	3.8	7.46e-01	0	43	104	0	79	10375
2026-01-28 23:34:54.22	328.20	32.46	-54.3	-63.2	3.8	7.45e-01	0	43	104	0	79	10456
2026-01-28 23:34:55.23	327.62	32.56	-54.3	-63.1	3.8	7.44e-01	0	43	104	0	79	10410
2026-01-28 23:34:56.24	327.05	32.66	-54.4	-63.2	3.8	7.46e-01	0	43	104	0	79	10463
2026-01-28 23:34:57.25	326.46	32.76	-54.3	-63.2	3.8	7.46e-01	0	43	104	0	79	10418
2026-01-28 23:34:58.25	325.89	32.85	-54.4	-63.2	3.8	7.46e-01	0	43	104	0	79	10447
2026-01-28 23:34:59.26	325.30	32.94	-54.3	-63.2	3.8	7.45e-01	0	43	104	0	79	10432
2026-01-28 23:35:00.26	324.71	33.03	-54.4	-63.2	3.8	7.43e-01	0	43	104	0	79	10464
2026-01-28 23:35:01.27	324.11	33.12	-54.3	-63.1	3.8	7.45e-01	0	43	104	0	79	10381
2026-01-28 23:35:02.28	323.52	33.20	-54.4	-63.2	3.8	7.46e-01	0	43	104	0	79	10521
2026-01-28 23:35:03.29	322.91	33.28	-54.4	-63.2	3.8	7.45e-01	0	43	104	0	79	10447
2026-01-28 23:35:04.30	322.31	33.36	-54.4	-63.2	3.8	7.45e-01	0	43	104	0	79	10491
2026-01-28 23:35:05.31	321.70	33.43	-54.4	-63.2	3.8	7.46e-01	0	43	104	0	79	10462
2026-01-28 23:35:06.31	321.09	33.50	-54.4	-63.2	3.8	7.46e-01	0	43	104	0	79	10500
2026-01-28 23:35:07.33	320.47	33.57	-54.4	-63.2	3.8	7.45e-01	0	43	104	0	79	10500
2026-01-28 23:35:08.33	319.86	33.63	-54.4	-63.2	3.8	7.47e-01	0	43	104	0	79	10483
2026-01-28 23:35:09.34	319.24	33.69	-54.4	-63.2	3.8	7.46e-01	0	43	104	0	79	10456
2026-01-28 23:35:10.35	318.62	33.74	-54.4	-63.3	3.8	7.46e-01	0	43	104	0	79	10564
2026-01-28 23:35:11.36	318.00	33.80	-54.4	-63.2	3.8	7.44e-01	0	43	104	0	79	10520
2026-01-28 23:35:12.37	317.37	33.85	-54.4	-63.2	3.8	7.46e-01	0	43	104	0	79	10513
2026-01-28 23:35:13.38	316.74	33.89	-54.4	-63.2	3.8	7.45e-01	0	43	104	0	79	10465
2026-01-28 23:35:14.39	316.11	33.93	-54.4	-63.3	3.8	7.44e-01	0	43	104	0	79	10545
2026-01-28 23:35:15.40	315.48	33.97	-54.5	-63.3	3.8	7.47e-01	0	42	104	0	79	10537
2026-01-28 23:35:16.41	314.85	34.01	-54.4	-63.3	3.8	7.45e-01	0	43	104	0	79	10574
2026-01-28 23:35:17.42	314.21	34.04	-54.4	-63.3	3.8	7.44e-01	0	43	104	0	79	10588
2026-01-28 23:35:18.43	313.58	34.07	-54.5	-63.3	3.8	7.45e-01	0	43	104	0	79	10618
2026-01-28 23:35:19.44	312.94	34.09	-54.5	-63.3	3.8	7.46e-01	0	43	104	0	79	10602
2026-01-28 23:35:20.45	312.30	34.11	-54.5	-63.3	3.8	7.44e-01	0	43	104	0	79	10603
2026-01-28 23:35:21.45	311.67	34.13	-54.4	-63.3	3.8	7.46e-01	0	43	104	0	79	10568
2026-01-28 23:35:22.46	311.03	34.14	-54.5	-63.3	3.8	7.45e-01	0	43	104	0	79	10640
2026-01-28 23:35:23.47	310.39	34.15	-54.5	-63.3	3.8	7.46e-01	0	43	104	0	79	10637
2026-01-28 23:35:24.48	309.75	34.15	-54.5	-63.3	3.8	7.45e-01	0	43	104	0	79	10594
2026-01-28 23:35:25.49	309.11	34.15	-54.5	-63.3	3.8	7.45e-01	0	43	104	0	79	10611
2026-01-28 23:35:26.49	308.48	34.15	-54.5	-63.4	3.8	7.44e-01	0	43	104	0	79	10662
2026-01-28 23:35:27.50	307.84	34.14	-54.5	-63.3	3.8	7.45e-01	0	43	104	0	79	10641
2026-01-28 23:35:28.51	307.20	34.13	-54.5	-63.3	3.8	7.44e-01	0	43	104	0	79	10636
2026-01-28 23:35:29.52	306.56	34.12	-54.5	-63.3	3.8	7.45e-01	0	43	104	0	79	10635
2026-01-28 23:35:30.53	305.92	34.10	-54.5	-63.4	3.8	7.46e-01	0	43	104	0	79	10668
2026-01-28 23:35:31.54	305.29	34.08	-54.6	-63.4	3.8	7.45e-01	0	42	104	0	79	10710
2026-01-28 23:35:32.55	304.65	34.05	-54.5	-63.4	3.8	7.43e-01	0	43	104	0	79	10656
2026-01-28 23:35:33.56	304.01	34.02	-54.6	-63.4	3.8	7.44e-01	0	43	104	0	79	10685
2026-01-28 23:35:34.56	303.39	33.99	-54.5	-63.3	3.8	7.44e-01	0	43	104	0	79	10647
2026-01-28 23:35:35.57	302.75	33.95	-54.6	-63.4	3.8	7.45e-01	0	43	104	0	79	10724
2026-01-28 23:35:36.58	302.12	33.91	-54.6	-63.4	3.8	7.44e-01	0	43	104	0	79	10685
2026-01-28 23:35:37.59	301.49	33.87	-54.6	-63.4	3.8	7.45e-01	0	43	104	0	79	10700
2026-01-28 23:35:38.60	300.87	33.82	-54.6	-63.4	3.8	7.44e-01	0	43	104	0	79	10703
2026-01-28 23:35:39.60	300.25	33.77	-54.6	-63.4	3.8	7.45e-01	0	43	104	0	79	10709
2026-01-28 23:35:40.61	299.62	33.71	-54.6	-63.4	3.8	7.45e-01	0	43	104	0	79	10665
2026-01-28 23:35:41.62	299.00	33.65	-54.6	-63.4	3.8	7.46e-01	0	43	104	0	79	10754
2026-01-28 23:35:42.63	298.38	33.59	-54.6	-63.4	3.8	7.46e-01	0	43	104	0	79	10730
2026-01-28 23:35:43.64	297.77	33.53	-54.6	-63.4	3.8	7.43e-01	0	43	104	0	79	10754
2026-01-28 23:35:44.65	297.15	33.46	-54.6	-63.4	3.8	7.44e-01	0	43	104	0	79	10726
2026-01-28 23:35:45.66	296.54	33.39	-54.6	-63.4	3.8	7.44e-01	0	43	104	0	79	10762
2026-01-28 23:35:46.66	295.94	33.31	-54.6	-63.4	3.8	7.46e-01	0	43	104	0	79	10727
2026-01-28 23:35:47.67	295.34	33.23	-54.6	-63.4	3.8	7.45e-01	0	43	104	0	79	10759
2026-01-28 23:35:48.68	294.74	33.15	-54.6	-63.4	3.8	7.44e-01	0	43	104	0	79	10730
2026-01-28 23:35:49.69	294.14	33.07	-54.6	-63.4	3.8	7.44e-01	0	43	104	0	79	10741
2026-01-28 23:35:50.70	293.54	32.98	-54.6	-63.4	3.8	7.44e-01	0	43	104	0	79	10775
2026-01-28 23:35:51.71	292.95	32.89	-54.6	-63.4	3.8	7.45e-01	0	43	104	0	79	10724
2026-01-28 23:35:52.72	292.37	32.80	-54.6	-63.4	3.8	7.45e-01	0	43	104	0	79	10696
2026-01-28 23:35:53.73	291.78	32.70	-54.6	-63.4	3.8	7.45e-01	0	43	104	0	79	10740
2026-01-28 23:35:54.73	291.21	32.60	-54.6	-63.4	3.8	7.45e-01	0	43	104	0	79	10708
2026-01-28 23:35:55.74	290.63	32.50	-54.6	-63.4	3.8	7.44e-01	0	43	104	0	79	10721
2026-01-28 23:35:56.75	290.06	32.40	-54.6	-63.4	3.8	7.46e-01	0	43	104	0	79	10724
2026-01-28 23:35:57.75	289.50	32.29	-54.6	-63.4	3.8	7.44e-01	0	43	104	0	79	10707
2026-01-28 23:35:58.76	288.93	32.18	-54.6	-63.4	3.8	7.45e-01	0	43	104	0	79	10702
2026-01-28 23:35:59.77	288.37	32.07	-54.6	-63.4	3.8	7.45e-01	0	43	104	0	79	10714
2026-01-28 23:36:00.78	287.81	31.96	-54.6	-63.4	3.8	7.45e-01	0	43	104	0	79	10690
2026-01-28 23:36:01.79	287.26	31.84	-54.6	-63.4	3.8	7.45e-01	0	43	104	0	79	10672
2026-01-28 23:36:02.79	286.72	31.72	-54.5	-63.4	3.8	7.45e-01	0	43	104	0	79	10678
2026-01-28 23:36:03.80	286.18	31.60	-54.6	-63.4	3.8	7.44e-01	0	43	104	0	79	10681
2026-01-28 23:36:04.81	285.64	31.48	-54.5	-63.3	3.8	7.45e-01	0	43	104	0	79	10650
2026-01-28 23:36:05.82	285.10	31.35	-54.5	-63.3	3.8	7.44e-01	0	43	104	0	79	10645
2026-01-28 23:36:06.82	284.58	31.23	-54.5	-63.4	3.8	7.44e-01	0	42	104	0	79	10661
2026-01-28 23:36:07.83	284.05	31.10	-54.5	-63.4	3.8	7.42e-01	0	43	104	0	79	10684
2026-01-28 23:36:08.84	283.53	30.97	-54.5	-63.4	3.8	7.44e-01	0	43	104	0	79	10673
2026-01-28 23:36:09.85	283.02	30.83	-54.5	-63.3	3.8	7.47e-01	0	43	104	0	79	10655
2026-01-28 23:36:10.85	282.51	30.70	-54.5	-63.3	3.8	7.45e-01	0	43	104	0	79	10594
2026-01-28 23:36:11.86	282.00	30.57	-54.5	-63.3	3.8	7.47e-01	0	43	104	0	79	10621
2026-01-28 23:36:12.87	281.50	30.43	-54.5	-63.3	3.8	7.45e-01	0	43	104	0	79	10583
2026-01-28 23:36:13.88	281.00	30.29	-54.5	-63.3	3.8	7.48e-01	0	43	104	0	79	10571
2026-01-28 23:36:14.89	280.51	30.15	-54.4	-63.3	3.8	7.44e-01	0	43	104	0	79	10551
2026-01-28 23:36:15.90	280.02	30.01	-54.4	-63.2	3.8	7.45e-01	0	43	104	0	79	10532
2026-01-28 23:36:16.90	279.54	29.87	-54.4	-63.3	3.8	7.45e-01	0	43	104	0	79	10554
2026-01-28 23:36:17.91	279.06	29.72	-54.4	-63.2	3.8	7.46e-01	0	43	104	0	79	10506
2026-01-28 23:36:18.92	278.59	29.58	-54.4	-63.3	3.8	7.45e-01	0	43	104	0	79	10540
2026-01-28 23:36:19.93	278.12	29.43	-54.4	-63.2	3.8	7.43e-01	0	43	104	0	79	10495
2026-01-28 23:36:20.94	277.65	29.28	-54.4	-63.2	3.8	7.44e-01	0	43	104	0	79	10501
2026-01-28 23:36:21.95	277.19	29.13	-54.4	-63.2	3.8	7.46e-01	0	43	104	0	79	10497
2026-01-28 23:36:22.95	276.74	28.99	-54.4	-63.2	3.8	7.45e-01	0	43	104	0	79	10442
2026-01-28 23:36:23.96	276.29	28.83	-54.4	-63.2	3.8	7.45e-01	0	43	104	0	79	10448
2026-01-28 23:36:24.97	275.84	28.68	-54.4	-63.2	3.8	7.44e-01	0	43	104	0	79	10434
2026-01-28 23:36:25.97	275.40	28.53	-54.3	-63.2	3.8	7.44e-01	0	43	104	0	79	10431
2026-01-28 23:36:26.98	274.96	28.38	-54.3	-63.2	3.8	7.45e-01	0	43	104	0	79	10441
2026-01-28 23:36:27.99	274.53	28.23	-54.3	-63.1	3.8	7.45e-01	0	43	104	0	79	10401
2026-01-28 23:36:28.99	274.11	28.07	-54.3	-63.1	3.8	7.46e-01	0	43	104	0	79	10410
2026-01-28 23:36:30.00	273.68	27.92	-54.2	-63.1	3.8	7.46e-01	0	43	104	0	79	10305
2026-01-28 23:36:31.01	273.26	27.76	-54.3	-63.1	3.8	7.46e-01	0	43	104	0	79	10324
2026-01-28 23:36:32.02	272.85	27.61	-54.2	-63.0	3.8	7.45e-01	0	43	104	0	79	10290
2026-01-28 23:36:33.03	272.44	27.45	-54.1	-62.9	3.8	7.46e-01	0	43	104	0	79	10126
2026-01-28 23:36:34.04	272.03	27.29	-54.2	-63.0	3.8	7.46e-01	0	43	104	0	79	10277
2026-01-28 23:36:35.05	271.63	27.14	-54.3	-63.1	3.8	7.47e-01	0	43	104	0	79	10303
2026-01-28 23:36:36.05	271.23	26.98	-54.2	-63.1	3.8	7.44e-01	0	43	104	0	79	10319
2026-01-28 23:36:37.06	270.84	26.82	-54.2	-63.1	3.8	7.46e-01	0	43	104	0	79	10322
2026-01-28 23:36:38.07	270.45	26.67	-54.2	-63.0	3.8	7.46e-01	0	43	104	0	79	10285
2026-01-28 23:36:39.07	270.07	26.51	-54.2	-63.1	3.8	7.45e-01	0	43	104	0	79	10331
2026-01-28 23:36:40.08	269.69	26.35	-54.2	-63.1	3.8	7.44e-01	0	43	104	0	79	10302
2026-01-28 23:36:41.09	269.31	26.19	-54.2	-63.0	3.8	7.45e-01	0	43	104	0	79	10273
2026-01-28 23:36:42.10	268.94	26.03	-54.2	-63.0	3.8	7.45e-01	0	43	104	0	79	10243
2026-01-28 23:36:43.10	268.58	25.88	-54.2	-63.0	3.8	7.44e-01	0	43	104	0	79	10228
2026-01-28 23:36:44.11	268.21	25.72	-54.2	-63.0	3.8	7.44e-01	0	43	104	0	79	10267
2026-01-28 23:36:45.12	267.85	25.56	-54.2	-63.0	3.8	7.45e-01	0	43	104	0	79	10213
2026-01-28 23:36:46.13	267.50	25.40	-54.2	-63.0	3.8	7.46e-01	0	43	104	0	79	10237
2026-01-28 23:36:47.14	267.14	25.24	-54.1	-63.0	3.8	7.45e-01	0	43	104	0	79	10211
2026-01-28 23:36:48.15	266.80	25.08	-54.1	-63.0	3.8	7.45e-01	0	43	104	0	79	10229
2026-01-28 23:36:49.16	266.45	24.93	-54.1	-63.0	3.8	7.46e-01	0	43	104	0	79	10189
2026-01-28 23:36:50.17	266.11	24.77	-54.1	-62.9	3.8	7.45e-01	0	43	104	0	79	10154
2026-01-28 23:36:51.18	265.78	24.61	-54.1	-62.9	3.8	7.45e-01	0	43	104	0	79	10154
2026-01-28 23:36:52.18	265.45	24.45	-54.1	-62.9	3.8	7.45e-01	0	43	104	0	79	10169
2026-01-28 23:36:53.19	265.12	24.30	-54.1	-62.9	3.8	7.45e-01	0	43	104	0	79	10126
2026-01-28 23:36:54.19	264.79	24.14	-54.1	-62.9	3.8	7.47e-01	0	43	104	0	79	10099
2026-01-28 23:36:55.20	264.47	23.98	-54.1	-62.9	3.8	7.45e-01	0	43	104	0	79	10123
2026-01-28 23:36:56.21	264.15	23.83	-54.1	-62.9	3.8	7.45e-01	0	43	104	0	79	10126
2026-01-28 23:36:57.22	263.84	23.67	-54.0	-62.9	3.8	7.47e-01	0	43	104	0	79	10089
2026-01-28 23:36:58.23	263.53	23.51	-54.0	-62.9	3.8	7.45e-01	0	43	104	0	79	10112
2026-01-28 23:36:59.24	263.22	23.36	-54.1	-62.9	3.8	7.47e-01	0	43	104	0	79	10085
2026-01-28 23:37:00.25	262.92	23.20	-54.0	-62.9	3.8	7.44e-01	0	43	104	0	79	10061
2026-01-28 23:37:01.25	262.62	23.05	-54.0	-62.9	3.8	7.46e-01	0	43	104	0	79	10060
2026-01-28 23:37:02.26	262.32	22.89	-54.0	-62.8	3.8	7.45e-01	0	43	104	0	79	10028
2026-01-28 23:37:03.27	262.03	22.74	-54.0	-62.8	3.8	7.45e-01	0	43	104	0	79	10023
2026-01-28 23:37:04.28	261.73	22.58	-54.0	-62.8	3.8	7.44e-01	0	43	104	0	79	10035
2026-01-28 23:37:05.29	261.45	22.43	-54.0	-62.8	3.8	7.46e-01	0	43	104	0	79	10028
2026-01-28 23:37:06.29	261.17	22.28	-54.0	-62.8	3.8	7.46e-01	0	43	104	0	79	9995
2026-01-28 23:37:07.30	260.88	22.13	-54.0	-62.8	3.8	7.45e-01	0	43	104	0	79	10007
2026-01-28 23:37:08.31	260.61	21.97	-54.0	-62.8	3.8	7.46e-01	0	43	104	0	79	10026
2026-01-28 23:37:09.31	260.33	21.82	-54.0	-62.8	3.8	7.45e-01	0	43	104	0	79	9947
2026-01-28 23:37:10.32	260.06	21.67	-53.9	-62.8	3.8	7.45e-01	0	43	104	0	79	9962
2026-01-28 23:37:11.33	259.79	21.52	-53.9	-62.8	3.8	7.46e-01	0	43	104	0	79	9952
2026-01-28 23:37:12.33	259.53	21.37	-53.9	-62.7	3.8	7.45e-01	0	43	104	0	79	9936
2026-01-28 23:37:13.34	259.27	21.22	-53.9	-62.7	3.8	7.44e-01	0	43	104	0	79	9913
2026-01-28 23:37:14.34	259.01	21.08	-53.9	-62.7	3.8	7.44e-01	0	43	104	0	79	9937
2026-01-28 23:37:15.35	258.75	20.93	-53.9	-62.7	3.8	7.46e-01	0	43	104	0	79	9944
2026-01-28 23:37:16.36	258.50	20.78	-53.9	-62.7	3.8	7.46e-01	0	43	104	0	79	9916
2026-01-28 23:37:17.37	258.24	20.63	-53.9	-62.7	3.8	7.47e-01	0	43	104	0	79	9890
2026-01-28 23:37:18.38	257.99	20.49	-53.9	-62.7	3.8	7.44e-01	0	43	104	0	79	9873
2026-01-28 23:37:19.39	257.75	20.34	-53.9	-62.7	3.8	7.45e-01	0	43	104	0	79	9918
2026-01-28 23:37:20.40	257.50	20.19	-53.9	-62.7	3.8	7.46e-01	0	43	104	0	79	9854
2026-01-28 23:37:21.41	257.26	20.05	-53.8	-62.7	3.8	7.45e-01	0	43	104	0	79	9865
2026-01-28 23:37:22.42	257.02	19.90	-53.8	-62.7	3.8	7.45e-01	0	43	104	0	79	9834
2026-01-28 23:37:23.43	256.79	19.76	-53.8	-62.7	3.8	7.44e-01	0	43	104	0	79	9843
2026-01-28 23:37:24.44	256.56	19.62	-53.8	-62.6	3.8	7.47e-01	0	43	104	0	79	9820
2026-01-28 23:37:25.44	256.33	19.48	-53.8	-62.7	3.8	7.46e-01	0	43	104	0	79	9833
2026-01-28 23:37:26.45	256.10	19.33	-53.8	-62.6	3.8	7.46e-01	0	43	104	0	79	9786
2026-01-28 23:37:27.45	255.88	19.19	-53.8	-62.6	3.8	7.47e-01	0	43	104	0	79	9784
2026-01-28 23:37:28.46	255.65	19.05	-53.8	-62.6	3.8	7.46e-01	0	43	104	0	79	9788
2026-01-28 23:37:29.47	255.43	18.91	-53.8	-62.6	3.8	7.46e-01	0	43	104	0	79	9742
2026-01-28 23:37:30.48	255.21	18.77	-53.7	-62.6	3.8	7.43e-01	0	43	104	0	79	9757
2026-01-28 23:37:31.49	255.00	18.63	-53.7	-62.6	3.8	7.46e-01	0	43	104	0	79	9733
2026-01-28 23:37:32.49	254.78	18.50	-53.7	-62.6	3.8	7.44e-01	0	43	104	0	79	9758
2026-01-28 23:37:33.50	254.57	18.36	-53.7	-62.6	3.8	7.45e-01	0	43	104	0	79	9740
2026-01-28 23:37:34.50	254.36	18.22	-53.7	-62.5	3.8	7.43e-01	0	43	104	0	79	9697
2026-01-28 23:37:35.51	254.16	18.09	-53.7	-62.5	3.8	7.45e-01	0	43	104	0	79	9716
2026-01-28 23:37:36.52	253.95	17.95	-53.7	-62.5	3.8	7.45e-01	0	43	104	0	79	9678
2026-01-28 23:37:37.53	253.75	17.81	-53.7	-62.5	3.8	7.44e-01	0	43	104	0	79	9660
2026-01-28 23:37:38.54	253.55	17.68	-53.7	-62.5	3.8	7.46e-01	0	43	104	0	79	9671
2026-01-28 23:37:39.55	253.35	17.55	-53.7	-62.5	3.8	7.46e-01	0	43	104	0	79	9681
2026-01-28 23:37:40.55	253.15	17.41	-53.7	-62.5	3.8	7.45e-01	0	43	104	0	79	9652
2026-01-28 23:37:41.56	252.96	17.28	-53.7	-62.5	3.8	7.45e-01	0	43	104	0	79	9635
2026-01-28 23:37:42.57	252.77	17.15	-53.6	-62.4	3.8	7.45e-01	0	43	104	0	79	9590
2026-01-28 23:37:43.58	252.58	17.02	-53.7	-62.5	3.8	7.45e-01	0	43	104	0	79	9617
2026-01-28 23:37:44.59	252.39	16.89	-53.6	-62.5	3.8	7.46e-01	0	43	104	0	79	9627
2026-01-28 23:37:45.60	252.20	16.76	-53.6	-62.4	3.8	7.45e-01	0	43	104	0	79	9606
2026-01-28 23:37:46.61	252.02	16.63	-53.6	-62.5	3.8	7.43e-01	0	43	104	0	79	9628
2026-01-28 23:37:47.62	251.83	16.50	-53.6	-62.4	3.8	7.44e-01	0	43	104	0	79	9605
2026-01-28 23:37:48.62	251.65	16.37	-53.6	-62.5	3.8	7.44e-01	0	43	104	0	79	9628
2026-01-28 23:37:49.63	251.47	16.24	-53.6	-62.4	3.8	7.44e-01	0	43	104	0	79	9596
2026-01-28 23:37:50.64	251.30	16.11	-53.6	-62.4	3.8	7.45e-01	0	43	104	0	79	9580
2026-01-28 23:37:51.65	251.12	15.99	-53.6	-62.4	3.8	7.46e-01	0	43	104	0	79	9586
2026-01-28 23:37:52.66	250.95	15.86	-53.6	-62.4	3.8	7.46e-01	0	43	104	0	79	9547
2026-01-28 23:37:53.66	250.78	15.74	-53.6	-62.4	3.8	7.47e-01	0	43	104	0	79	9594
2026-01-28 23:37:54.67	250.60	15.61	-53.6	-62.5	3.8	7.45e-01	0	43	104	0	79	9608
2026-01-28 23:37:55.68	250.44	15.49	-53.6	-62.4	3.8	7.45e-01	0	43	104	0	79	9548
2026-01-28 23:37:56.69	250.27	15.37	-53.6	-62.4	3.8	7.43e-01	0	43	104	0	79	9563
2026-01-28 23:37:57.70	250.10	15.24	-53.6	-62.4	3.8	7.45e-01	0	43	104	0	79	9550
2026-01-28 23:37:58.71	249.94	15.12	-53.6	-62.4	3.8	7.45e-01	0	43	104	0	79	9568
2026-01-28 23:37:59.72	249.78	15.00	-53.6	-62.4	3.8	7.46e-01	0	43	104	0	79	9524
2026-01-28 23:38:00.73	249.62	14.88	-53.6	-62.4	3.8	7.45e-01	0	43	104	0	79	9547
2026-01-28 23:38:01.73	249.46	14.76	-53.6	-62.4	3.8	7.46e-01	0	43	104	0	79	9525
2026-01-28 23:38:02.74	249.30	14.64	-53.6	-62.4	3.8	7.46e-01	0	43	104	0	79	9565
2026-01-28 23:38:03.74	249.15	14.52	-53.6	-62.4	3.8	7.43e-01	0	43	104	0	79	9548
2026-01-28 23:38:04.75	248.99	14.40	-53.6	-62.4	3.8	7.46e-01	0	43	104	0	79	9528
2026-01-28 23:38:05.77	248.84	14.28	-53.6	-62.4	3.8	7.44e-01	0	43	104	0	79	9499
2026-01-28 23:38:06.77	248.69	14.16	-53.6	-62.4	3.8	7.46e-01	0	43	104	0	79	9512
2026-01-28 23:38:07.78	248.54	14.05	-53.6	-62.4	3.8	7.46e-01	0	43	104	0	79	9544
2026-01-28 23:38:08.79	248.39	13.93	-53.5	-62.4	3.8	7.45e-01	0	43	104	0	79	9539
2026-01-28 23:38:09.80	248.24	13.81	-53.5	-62.3	3.8	7.47e-01	0	43	104	0	79	9485
2026-01-28 23:38:10.81	248.10	13.70	-53.5	-62.4	3.8	7.45e-01	0	43	104	0	79	9511
2026-01-28 23:38:11.82	247.95	13.58	-53.5	-62.3	3.8	7.46e-01	0	43	104	0	79	9467
2026-01-28 23:38:12.83	247.81	13.47	-53.5	-62.3	3.8	7.46e-01	0	43	104	0	79	9476
2026-01-28 23:38:13.83	247.67	13.36	-53.5	-62.4	3.8	7.46e-01	0	43	104	0	79	9506
2026-01-28 23:38:14.84	247.53	13.24	-53.5	-62.3	3.8	7.45e-01	0	43	104	0	79	9491
2026-01-28 23:38:15.85	247.39	13.13	-53.5	-62.3	3.8	7.46e-01	0	43	104	0	78	9986
2026-01-28 23:38:16.86	247.25	13.02	-53.5	-62.3	3.8	7.44e-01	0	43	104	0	78	9984
2026-01-28 23:38:17.87	247.11	12.91	-53.5	-62.3	3.8	7.44e-01	0	43	104	0	78	10013
2026-01-28 23:38:18.87	246.98	12.80	-53.4	-62.3	3.8	7.44e-01	0	43	104	0	78	9948
2026-01-28 23:38:19.88	246.85	12.69	-53.4	-62.3	3.8	7.44e-01	0	43	104	0	78	9952
2026-01-28 23:38:20.89	246.71	12.58	-53.4	-62.3	3.8	7.44e-01	0	43	104	0	78	9979
2026-01-28 23:38:21.89	246.58	12.47	-53.4	-62.3	3.8	7.46e-01	0	43	104	0	78	9946
2026-01-28 23:38:22.90	246.45	12.36	-53.4	-62.2	3.8	7.47e-01	0	43	104	0	78	9899
2026-01-28 23:38:23.90	246.32	12.25	-53.4	-62.2	3.8	7.46e-01	0	43	104	0	78	9850
2026-01-28 23:38:24.91	246.20	12.14	-53.4	-62.2	3.8	7.45e-01	0	43	104	0	78	9915
2026-01-28 23:38:25.92	246.07	12.04	-53.4	-62.2	3.8	7.45e-01	0	43	104	0	78	9887
2026-01-28 23:38:26.93	245.94	11.93	-53.4	-62.2	3.8	7.46e-01	0	43	104	0	78	9886
2026-01-28 23:38:27.93	245.82	11.82	-53.3	-62.2	3.8	7.45e-01	0	43	104	0	78	9870
2026-01-28 23:38:28.94	245.70	11.72	-53.4	-62.2	3.8	7.45e-01	0	43	104	0	78	9883
2026-01-28 23:38:29.95	245.57	11.61	-53.4	-62.2	3.8	7.44e-01	0	43	104	0	78	9930
2026-01-28 23:38:30.96	245.45	11.51	-53.3	-62.1	3.8	7.46e-01	0	43	104	0	78	9804
2026-01-28 23:38:31.96	245.33	11.40	-53.3	-62.1	3.8	7.46e-01	0	43	104	0	78	9799
2026-01-28 23:38:32.97	245.21	11.30	-53.3	-62.2	3.8	7.46e-01	0	43	104	0	78	9841
2026-01-28 23:38:33.98	245.10	11.20	-53.3	-62.2	3.8	7.44e-01	0	43	104	0	78	9855
2026-01-28 23:38:34.99	244.98	11.09	-53.3	-62.1	3.8	7.45e-01	0	43	104	0	78	9768
2026-01-28 23:38:36.00	244.86	10.99	-53.3	-62.1	3.8	7.45e-01	0	43	104	0	78	9779
2026-01-28 23:38:37.01	244.75	10.89	-53.3	-62.1	3.8	7.44e-01	0	43	104	0	78	9793
2026-01-28 23:38:38.01	244.63	10.79	-53.3	-62.1	3.8	7.46e-01	0	43	104	0	78	9794
2026-01-28 23:38:39.02	244.52	10.69	-53.2	-62.1	3.8	7.46e-01	0	43	104	0	78	9768
2026-01-28 23:38:40.03	244.41	10.58	-53.2	-62.1	3.8	7.46e-01	0	43	104	0	78	9725
2026-01-28 23:38:41.04	244.30	10.48	-53.3	-62.1	3.8	7.46e-01	0	43	104	0	78	9771
2026-01-28 23:38:42.04	244.19	10.39	-53.3	-62.1	3.8	7.46e-01	0	43	104	0	78	9740
2026-01-28 23:38:43.05	244.08	10.29	-53.2	-62.0	3.8	7.44e-01	0	43	104	0	78	9669
2026-01-28 23:38:44.05	243.97	10.19	-53.2	-62.0	3.8	7.44e-01	0	43	104	0	78	9688
2026-01-28 23:38:45.06	243.86	10.09	-53.2	-62.1	3.8	7.45e-01	0	43	104	0	78	9720
2026-01-28 23:38:46.07	243.76	9.99	-53.2	-62.1	3.8	7.44e-01	0	43	104	0	78	9735
2026-01-28 23:38:47.08	243.65	9.89	-53.2	-62.0	3.8	7.45e-01	0	43	104	0	78	9657
2026-01-28 23:38:48.09	243.55	9.80	-53.1	-62.0	3.8	7.45e-01	0	43	104	0	78	9637
2026-01-28 23:38:49.09	243.44	9.70	-53.2	-62.0	3.8	7.44e-01	0	43	104	0	78	9661
2026-01-28 23:38:50.10	243.34	9.60	-53.2	-62.0	3.8	7.46e-01	0	43	104	0	78	9703
2026-01-28 23:38:51.10	243.24	9.51	-53.1	-61.9	3.8	7.45e-01	0	43	104	0	78	9597
2026-01-28 23:38:52.11	243.14	9.41	-53.1	-61.9	3.8	7.46e-01	0	43	104	0	78	9593
2026-01-28 23:38:53.12	243.04	9.32	-53.3	-62.1	3.8	7.46e-01	0	43	104	0	78	9768
2026-01-28 23:38:54.13	242.94	9.22	-53.3	-62.1	3.8	7.45e-01	0	43	104	0	78	9782
2026-01-28 23:38:55.13	242.84	9.13	-53.2	-62.0	3.8	7.46e-01	0	43	104	0	78	9626
2026-01-28 23:38:56.14	242.74	9.04	-53.1	-62.0	3.8	7.46e-01	0	43	104	0	78	9642
2026-01-28 23:38:57.15	242.65	8.94	-53.2	-62.0	3.8	7.45e-01	0	43	104	0	78	9682
2026-01-28 23:38:58.16	242.55	8.85	-53.2	-62.0	3.8	7.45e-01	0	43	104	0	78	9649
2026-01-28 23:38:59.17	242.45	8.76	-53.1	-61.9	3.8	7.45e-01	0	43	104	0	78	9591
2026-01-28 23:39:00.18	242.36	8.67	-53.1	-61.9	3.8	7.45e-01	0	43	104	0	78	9596
2026-01-28 23:39:01.18	242.27	8.57	-53.1	-62.0	3.8	7.47e-01	0	43	104	0	78	9630
2026-01-28 23:39:02.19	242.17	8.48	-53.1	-62.0	3.8	7.46e-01	0	43	104	0	78	9640
2026-01-28 23:39:03.20	242.08	8.39	-53.0	-61.9	3.8	7.44e-01	0	43	104	0	78	9504
2026-01-28 23:39:04.21	241.99	8.30	-53.1	-61.9	3.8	7.44e-01	0	43	104	0	78	9512
2026-01-28 23:39:05.21	241.90	8.21	-53.1	-61.9	3.8	7.44e-01	0	43	104	0	78	9561
2026-01-28 23:39:06.22	241.81	8.12	-53.1	-61.9	3.8	7.45e-01	0	43	104	0	78	9548
2026-01-28 23:39:07.23	241.72	8.03	-53.0	-61.8	3.8	7.45e-01	0	43	104	0	78	9472
2026-01-28 23:39:08.23	241.63	7.94	-53.0	-61.8	3.8	7.43e-01	0	43	104	0	78	9489
2026-01-28 23:39:09.24	241.54	7.85	-53.1	-61.9	3.8	7.44e-01	0	43	104	0	78	9535
2026-01-28 23:39:10.25	241.45	7.77	-53.0	-61.8	3.8	7.45e-01	0	43	104	0	78	9476
2026-01-28 23:39:11.26	241.37	7.68	-52.9	-61.8	3.8	7.44e-01	0	43	104	0	77	9953
2026-01-28 23:39:12.26	241.28	7.59	-52.9	-61.8	3.8	7.45e-01	0	43	104	0	77	9956
2026-01-28 23:39:13.27	241.20	7.50	-53.0	-61.8	3.8	7.45e-01	0	43	104	0	77	9976
2026-01-28 23:39:14.28	241.11	7.42	-53.0	-61.8	3.8	7.46e-01	0	43	104	0	77	9973
2026-01-28 23:39:15.29	241.03	7.33	-52.9	-61.7	3.8	7.44e-01	0	43	104	0	77	9905
2026-01-28 23:39:16.30	240.94	7.24	-52.9	-61.8	3.8	7.46e-01	0	43	104	0	77	9955
2026-01-28 23:39:17.31	240.86	7.16	-53.0	-61.8	3.8	7.46e-01	0	43	104	0	77	10047
2026-01-28 23:39:18.31	240.78	7.07	-53.0	-61.8	3.8	7.45e-01	0	43	104	0	77	9974
2026-01-28 23:39:19.32	240.70	6.99	-52.9	-61.7	3.8	7.45e-01	0	43	104	0	77	9861
2026-01-28 23:39:20.33	240.62	6.90	-52.9	-61.7	3.8	7.45e-01	0	43	104	0	77	9927
2026-01-28 23:39:21.33	240.54	6.82	-52.9	-61.8	3.8	7.47e-01	0	43	104	0	77	9954
2026-01-28 23:39:22.34	240.46	6.73	-52.9	-61.7	3.8	7.45e-01	0	43	104	0	77	9887
2026-01-28 23:39:23.34	240.38	6.65	-52.8	-61.6	3.8	7.45e-01	0	43	104	0	77	9790
2026-01-28 23:39:24.35	240.30	6.57	-52.8	-61.7	3.8	7.45e-01	0	43	104	0	77	9842
2026-01-28 23:39:25.36	240.22	6.48	-52.9	-61.7	3.8	7.46e-01	0	43	104	0	77	9888
2026-01-28 23:39:26.37	240.14	6.40	-52.8	-61.6	3.8	7.44e-01	0	43	104	0	77	9816
2026-01-28 23:39:27.37	240.07	6.32	-52.7	-61.6	3.8	7.46e-01	0	43	104	0	77	9735
2026-01-28 23:39:28.38	239.99	6.24	-52.8	-61.6	3.8	7.45e-01	0	43	104	0	77	9756
2026-01-28 23:39:29.39	239.92	6.15	-52.8	-61.6	3.8	7.45e-01	0	43	104	0	77	9820
2026-01-28 23:39:30.40	239.84	6.07	-52.8	-61.6	3.8	7.46e-01	0	43	104	0	77	9775
2026-01-28 23:39:31.40	239.77	5.99	-52.7	-61.5	3.8	7.46e-01	0	43	104	0	77	9641
2026-01-28 23:39:32.41	239.69	5.91	-52.7	-61.5	3.8	7.45e-01	0	43	104	0	77	9704
2026-01-28 23:39:33.42	239.62	5.83	-52.7	-61.6	3.8	7.45e-01	0	43	104	0	77	9760
2026-01-28 23:39:34.42	239.55	5.75	-52.7	-61.5	3.8	7.45e-01	0	43	104	0	77	9665
2026-01-28 23:39:35.43	239.47	5.67	-52.6	-61.4	3.8	7.45e-01	0	43	104	0	77	9530
2026-01-28 23:39:36.44	239.40	5.59	-52.7	-61.5	3.8	7.46e-01	0	43	104	0	77	9682
2026-01-28 23:39:37.45	239.33	5.51	-52.7	-61.5	3.8	7.46e-01	0	43	104	0	77	9696
2026-01-28 23:39:38.45	239.26	5.43	-52.6	-61.5	3.8	7.46e-01	0	43	104	0	77	9607
2026-01-28 23:39:39.46	239.19	5.35	-52.5	-61.4	3.8	7.45e-01	0	43	104	0	77	9498
2026-01-28 23:39:40.47	239.12	5.27	-52.6	-61.4	3.8	7.44e-01	0	43	104	0	77	9560
2026-01-28 23:39:41.48	239.05	5.19	-52.6	-61.4	3.8	7.44e-01	0	43	104	0	77	9598
2026-01-28 23:39:42.48	238.98	5.12	-52.5	-61.4	3.8	7.45e-01	0	43	104	0	77	9540
2026-01-28 23:39:43.49	238.91	5.04	-52.5	-61.4	3.8	7.44e-01	0	43	104	0	76	10073
2026-01-28 23:39:44.50	238.85	4.96	-52.9	-61.7	3.8	7.46e-01	0	43	104	0	76	10507
2026-01-28 23:39:45.51	238.78	4.88	-53.3	-62.1	3.8	7.47e-01	0	43	104	0	77	10359
2026-01-28 23:39:46.52	238.71	4.80	-53.5	-62.3	3.8	7.45e-01	0	43	104	0	77	10598
2026-01-28 23:39:47.52	238.65	4.73	-53.6	-62.5	3.8	7.45e-01	0	43	104	0	77	10802
2026-01-28 23:39:48.53	238.58	4.65	-53.8	-62.6	3.8	7.45e-01	0	43	104	0	78	10351
2026-01-28 23:39:49.54	238.51	4.57	-53.8	-62.6	3.8	7.47e-01	0	43	104	0	78	10405
2026-01-28 23:39:50.55	238.45	4.50	-53.8	-62.7	3.8	7.47e-01	0	43	104	0	78	10450
2026-01-28 23:39:51.55	238.39	4.42	-53.9	-62.7	3.8	7.46e-01	0	43	104	0	78	10484
2026-01-28 23:39:52.56	238.32	4.35	-53.9	-62.7	3.8	7.46e-01	0	43	104	0	78	10464
2026-01-28 23:39:53.57	238.26	4.27	-53.9	-62.7	3.8	7.46e-01	0	43	104	0	78	10461
2026-01-28 23:39:54.58	238.19	4.20	-53.9	-62.7	3.8	7.45e-01	0	43	104	0	78	10466
2026-01-28 23:39:55.58	238.13	4.12	-53.9	-62.7	3.8	7.44e-01	0	43	104	0	78	10480
2026-01-28 23:39:56.59	238.07	4.05	-53.8	-62.6	3.8	7.45e-01	0	43	104	0	78	10362
2026-01-28 23:39:57.60	238.01	3.97	-53.7	-62.5	3.8	7.44e-01	0	43	104	0	78	10226
2026-01-28 23:39:58.60	237.95	3.90	-53.6	-62.4	3.8	7.46e-01	0	43	104	0	78	10136
2026-01-28 23:39:59.62	237.88	3.83	-53.7	-62.5	3.8	7.46e-01	0	43	104	0	78	10232
2026-01-28 23:40:00.63	237.82	3.75	-53.7	-62.5	3.8	7.44e-01	0	42	104	0	78	10292
2026-01-28 23:40:01.63	237.76	3.68	-53.8	-62.6	3.8	7.45e-01	0	43	104	0	78	10407
2026-01-28 23:40:02.64	237.70	3.61	-53.8	-62.7	3.8	7.45e-01	0	43	104	0	78	10446
2026-01-28 23:40:03.65	237.64	3.53	-53.9	-62.7	3.8	7.44e-01	0	43	104	0	78	10466
2026-01-28 23:40:04.66	237.58	3.46	-53.9	-62.8	3.8	7.45e-01	0	43	104	0	78	10539
2026-01-28 23:40:05.67	237.53	3.39	-53.9	-62.8	3.8	7.45e-01	0	43	104	0	78	10578
2026-01-28 23:40:06.67	237.47	3.32	-53.9	-62.7	3.8	7.46e-01	0	43	104	0	78	10531
2026-01-28 23:40:07.68	237.41	3.24	-53.9	-62.7	3.8	7.46e-01	0	43	104	0	78	10482
2026-01-28 23:40:08.69	237.35	3.17	-53.9	-62.7	3.8	7.44e-01	0	43	104	0	78	10485
2026-01-28 23:40:09.70	237.30	3.10	-53.9	-62.7	3.8	7.46e-01	0	43	104	0	78	10498
2026-01-28 23:40:10.71	237.24	3.03	-53.9	-62.7	3.8	7.46e-01	0	43	104	0	78	10468
2026-01-28 23:40:11.72	237.18	2.96	-53.9	-62.7	3.8	7.45e-01	0	43	104	0	78	10448
2026-01-28 23:40:12.72	237.13	2.89	-53.8	-62.7	3.8	7.44e-01	0	43	104	0	78	10437
2026-01-28 23:40:13.73	237.07	2.82	-53.8	-62.7	3.8	7.45e-01	0	43	104	0	78	10423
2026-01-28 23:40:14.74	237.02	2.75	-53.8	-62.7	3.8	7.47e-01	0	43	104	0	78	10428
2026-01-28 23:40:15.74	236.96	2.68	-53.8	-62.7	3.8	7.46e-01	0	43	104	0	78	10432
2026-01-28 23:40:16.75	236.91	2.61	-53.8	-62.6	3.8	7.45e-01	0	43	104	0	78	10397
2026-01-28 23:40:17.76	236.85	2.54	-53.8	-62.6	3.8	7.45e-01	0	43	104	0	78	10401
2026-01-28 23:40:18.77	236.80	2.47	-53.8	-62.6	3.8	7.45e-01	0	43	104	0	78	10353
2026-01-28 23:40:19.78	236.74	2.40	-53.8	-62.6	3.8	7.45e-01	0	43	104	0	78	10354
2026-01-28 23:40:20.78	236.69	2.33	-53.8	-62.6	3.8	7.45e-01	0	43	104	0	78	10393
2026-01-28 23:40:21.79	236.64	2.26	-53.8	-62.6	3.8	7.47e-01	0	43	104	0	78	10352
2026-01-28 23:40:22.80	236.59	2.19	-53.8	-62.6	3.8	7.46e-01	0	43	104	0	78	10328
2026-01-28 23:40:23.81	236.53	2.12	-53.8	-62.6	3.8	7.46e-01	0	43	104	0	78	10340
2026-01-28 23:40:24.81	236.48	2.05	-53.8	-62.6	3.8	7.43e-01	0	43	104	0	78	10340
2026-01-28 23:40:25.82	236.43	1.99	-53.8	-62.6	3.8	7.47e-01	0	43	104	0	78	10364

#Closed at: 2026-01-28 23:40:26
#Recorded file [0 MB]: D:/lorett/data/31041_260129_023024.dat