passes_logs/2026/01/28/R3.2S_Murmansk/R3.2S_Murmansk__20260128_104610_NOAA_20_JPSS-1_rec.log

#Pass ID: 20260128_104610_NOAA 20 (JPSS-1)
#Satellite: NOAA 20 (JPSS-1)
#Configuration: NOAA 20
#almurnet v.1.7.20251203
#Start time: 2026-01-28 10:46:12

#Version: 2.2.20231116
#Station: R3.2S_Murmansk
#Location: 33.079688 lon 68.888172 lat
#TLE: 1 43013U 17073A   26027.80586608  .00000156  00000+0  94940-4 0  9998
#TLE: 2 43013  98.7647 328.6108 0000947  21.3465 338.7750 14.19541216424550

#Time	Az	El	Level	Level2	SNR	BER	BlckErr	Temp	State	Recorded	gain1	gain2
2026-01-28 10:46:12.43	182.28	2.11	-52.3	-67.2	3.8	1.49e+00	0	41	0	0	76	19810
2026-01-28 10:46:13.43	182.32	2.17	-52.3	-67.3	3.8	1.49e+00	0	41	104	0	75	21019
2026-01-28 10:46:14.44	182.36	2.23	-52.3	-67.2	3.8	1.49e+00	0	41	104	0	75	20959
2026-01-28 10:46:15.45	182.40	2.30	-52.3	-67.2	3.8	1.49e+00	0	41	104	0	75	20791
2026-01-28 10:46:16.46	182.44	2.36	-52.3	-67.2	3.8	1.49e+00	0	41	104	0	75	20822
2026-01-28 10:46:17.47	182.47	2.42	-52.3	-67.2	3.8	1.49e+00	0	41	104	0	75	20817
2026-01-28 10:46:18.47	182.51	2.49	-52.2	-67.2	3.8	1.49e+00	0	41	104	0	75	20819
2026-01-28 10:46:19.48	182.55	2.55	-52.2	-67.2	3.8	1.49e+00	0	41	104	0	75	20872
2026-01-28 10:46:20.49	182.59	2.61	-52.3	-67.2	3.8	1.49e+00	0	41	104	0	75	20900
2026-01-28 10:46:21.50	182.63	2.68	-52.2	-67.2	3.8	1.49e+00	0	41	104	0	75	20829
2026-01-28 10:46:22.51	182.67	2.74	-52.2	-67.2	3.8	1.49e+00	0	41	104	0	75	20797
2026-01-28 10:46:23.52	182.71	2.80	-52.2	-67.1	3.8	1.49e+00	0	41	104	0	75	20610
2026-01-28 10:46:24.53	182.75	2.87	-52.2	-67.0	3.8	1.49e+00	0	41	104	0	75	20498
2026-01-28 10:46:25.53	182.79	2.93	-52.2	-66.9	3.8	1.49e+00	0	41	104	0	75	20288
2026-01-28 10:46:26.54	182.83	3.00	-52.2	-66.9	3.8	1.49e+00	0	41	104	0	75	20173
2026-01-28 10:46:27.55	182.87	3.06	-52.2	-66.9	3.8	1.49e+00	0	41	104	0	75	20131
2026-01-28 10:46:28.55	182.91	3.13	-52.2	-66.9	3.8	1.49e+00	0	41	104	0	75	20258
2026-01-28 10:46:29.56	182.95	3.19	-52.2	-67.0	3.8	1.49e+00	0	41	104	0	75	20499
2026-01-28 10:46:30.57	182.99	3.26	-52.2	-67.1	3.8	1.49e+00	0	41	104	0	75	20723
2026-01-28 10:46:31.57	183.04	3.32	-52.2	-67.2	3.8	1.49e+00	0	41	104	0	75	20865
2026-01-28 10:46:32.58	183.08	3.39	-52.2	-67.2	3.8	1.49e+00	0	41	104	0	75	20805
2026-01-28 10:46:33.59	183.12	3.45	-52.2	-67.0	3.8	1.49e+00	0	41	104	0	75	20447
2026-01-28 10:46:34.60	183.16	3.52	-52.2	-66.8	3.8	1.49e+00	0	41	104	0	75	19995
2026-01-28 10:46:35.61	183.20	3.58	-52.2	-66.5	3.8	1.49e+00	0	41	104	0	75	19246
2026-01-28 10:46:36.61	183.24	3.65	-52.2	-66.3	3.8	1.49e+00	0	41	104	0	75	18917
2026-01-28 10:46:37.62	183.29	3.71	-52.2	-66.3	3.8	1.49e+00	0	41	104	0	75	18743
2026-01-28 10:46:38.62	183.33	3.78	-52.2	-66.4	3.8	1.49e+00	0	42	104	0	75	19102
2026-01-28 10:46:39.63	183.37	3.84	-52.2	-66.7	3.8	1.49e+00	0	42	104	0	75	19783
2026-01-28 10:46:40.64	183.41	3.91	-52.2	-66.9	3.8	1.49e+00	0	41	104	0	75	20231
2026-01-28 10:46:41.64	183.46	3.98	-52.2	-66.6	3.8	1.49e+00	0	42	104	0	75	19522
2026-01-28 10:46:42.65	183.50	4.04	-52.1	-65.5	3.8	1.49e+00	0	42	104	0	75	17205
2026-01-28 10:46:43.67	183.54	4.11	-52.0	-63.7	4.2	1.46e+00	0	42	104	0	75	14033
2026-01-28 10:46:44.67	183.59	4.18	-51.8	-61.2	5.2	8.69e-01	0	41	0	1048576	75	10505
2026-01-28 10:46:45.68	183.63	4.25	-51.5	-59.5	6.4	3.41e-01	0	42	0	3145728	75	8614
2026-01-28 10:46:46.69	183.67	4.31	-51.1	-57.7	8.1	1.69e-01	0	42	0	4194304	74	7429
2026-01-28 10:46:47.70	183.72	4.38	-50.8	-56.5	9.4	2.82e-02	0	42	0	6291456	73	6819
2026-01-28 10:46:48.71	183.76	4.45	-50.4	-55.2	10.7	6.70e-03	0	42	0	8388608	72	6227
2026-01-28 10:46:49.72	183.81	4.52	-50.3	-54.9	11.0	1.51e-03	0	42	0	10485760	72	6034
2026-01-28 10:46:50.72	183.85	4.58	-49.9	-53.9	12.3	3.07e-04	0	42	0	11534336	71	5667
2026-01-28 10:46:51.73	183.89	4.65	-49.7	-53.6	12.5	1.41e-04	0	42	0	13631488	71	5482
2026-01-28 10:46:52.74	183.94	4.72	-49.5	-53.1	13.0	5.87e-05	0	42	0	15728640	71	5183
2026-01-28 10:46:53.74	183.98	4.79	-49.6	-53.4	12.8	4.65e-05	0	42	0	17825792	71	5351
2026-01-28 10:46:54.75	184.03	4.86	-49.7	-53.5	12.6	7.62e-05	0	42	0	19922944	71	5430
2026-01-28 10:46:55.75	184.07	4.92	-49.9	-54.0	12.2	1.37e-04	0	42	0	22020096	71	5728
2026-01-28 10:46:56.76	184.12	4.99	-50.2	-54.7	11.3	6.02e-04	0	42	0	23068672	71	6268
2026-01-28 10:46:57.77	184.17	5.06	-49.3	-52.5	13.8	2.78e-04	0	42	0	25165824	70	5153
2026-01-28 10:46:58.78	184.21	5.13	-51.9	-61.9	5.2	1.09e-04	0	42	0	27262976	74	12058
2026-01-28 10:46:59.79	184.26	5.20	-48.6	-51.4	14.6	1.45e+00	0	42	104	27262976	69	4761
2026-01-28 10:47:00.79	184.30	5.27	-49.1	-52.1	14.4	0.00e+00	0	42	0	28311552	68	5480
2026-01-28 10:47:01.80	184.35	5.34	-50.4	-55.0	11.5	7.00e-07	0	42	0	30408704	71	6489
2026-01-28 10:47:02.81	184.40	5.41	-48.5	-51.1	15.0	6.25e-02	0	42	0	32505856	69	4651
2026-01-28 10:47:03.81	184.45	5.48	-48.2	-50.7	15.6	0.00e+00	0	42	0	34603008	68	4673
2026-01-28 10:47:04.81	184.49	5.55	-48.3	-50.9	15.4	0.00e+00	0	42	0	36700160	68	4774
2026-01-28 10:47:05.82	184.54	5.62	-48.1	-50.5	15.9	0.00e+00	0	42	0	37748736	68	4554
2026-01-28 10:47:06.82	184.59	5.69	-48.2	-50.6	15.7	0.00e+00	0	42	0	39845888	68	4643
2026-01-28 10:47:07.83	184.64	5.76	-48.0	-50.5	15.9	7.00e-07	0	42	0	41943040	68	4552
2026-01-28 10:47:08.84	184.68	5.83	-48.2	-50.6	15.7	0.00e+00	0	42	0	44040192	68	4644
2026-01-28 10:47:09.85	184.73	5.90	-48.1	-50.5	15.9	0.00e+00	0	42	0	46137344	68	4546
2026-01-28 10:47:10.86	184.78	5.97	-48.0	-50.3	16.1	0.00e+00	0	42	0	47185920	68	4483
2026-01-28 10:47:11.87	184.83	6.05	-48.1	-50.5	15.9	0.00e+00	0	42	0	49283072	68	4559
2026-01-28 10:47:12.87	184.88	6.12	-47.8	-50.1	16.2	0.00e+00	0	42	0	51380224	67	4640
2026-01-28 10:47:13.88	184.93	6.19	-47.8	-50.1	16.3	0.00e+00	0	42	0	53477376	67	4622
2026-01-28 10:47:14.89	184.98	6.26	-47.8	-50.1	16.3	0.00e+00	0	42	0	55574528	67	4608
2026-01-28 10:47:15.89	185.03	6.33	-47.9	-50.1	16.3	0.00e+00	0	42	0	56623104	67	4650
2026-01-28 10:47:16.90	185.08	6.41	-47.9	-50.2	16.2	0.00e+00	0	42	0	58720256	67	4675
2026-01-28 10:47:17.91	185.13	6.48	-47.9	-50.2	16.2	0.00e+00	0	42	0	60817408	67	4653
2026-01-28 10:47:18.91	185.18	6.55	-47.8	-50.1	16.3	0.00e+00	0	42	0	62914560	67	4616
2026-01-28 10:47:19.92	185.23	6.62	-47.7	-49.9	16.5	0.00e+00	0	42	0	65011712	67	4543
2026-01-28 10:47:20.93	185.28	6.70	-47.7	-50.0	16.4	0.00e+00	0	42	0	66060288	67	4557
2026-01-28 10:47:21.93	185.33	6.77	-47.7	-49.9	16.6	0.00e+00	0	42	0	68157440	67	4498
2026-01-28 10:47:22.94	185.38	6.84	-47.7	-49.9	16.5	0.00e+00	0	42	0	70254592	67	4541
2026-01-28 10:47:23.95	185.43	6.92	-47.6	-49.8	16.7	0.00e+00	0	42	0	72351744	67	4454
2026-01-28 10:47:24.95	185.48	6.99	-47.8	-50.0	16.5	0.00e+00	0	42	0	74448896	67	4579
2026-01-28 10:47:25.96	185.54	7.06	-47.8	-50.0	16.5	0.00e+00	0	42	0	75497472	67	4593
2026-01-28 10:47:26.96	185.59	7.14	-47.6	-49.7	16.8	0.00e+00	0	42	0	77594624	67	4418
2026-01-28 10:47:27.97	185.64	7.21	-47.7	-49.9	16.6	0.00e+00	0	42	0	79691776	67	4528
2026-01-28 10:47:28.98	185.69	7.29	-47.7	-49.9	16.6	0.00e+00	0	42	0	81788928	67	4507
2026-01-28 10:47:29.99	185.75	7.36	-47.8	-50.1	16.4	0.00e+00	0	42	0	83886080	67	4600
2026-01-28 10:47:30.99	185.80	7.44	-47.8	-50.0	16.5	0.00e+00	0	42	0	84934656	67	4564
2026-01-28 10:47:32.00	185.85	7.51	-47.8	-50.0	16.5	0.00e+00	0	42	0	87031808	67	4585
2026-01-28 10:47:33.01	185.91	7.59	-47.6	-49.7	16.8	0.00e+00	0	42	0	89128960	67	4410
2026-01-28 10:47:34.01	185.96	7.66	-47.6	-49.8	16.8	0.00e+00	0	42	0	91226112	67	4445
2026-01-28 10:47:35.02	186.01	7.74	-47.7	-49.8	16.7	0.00e+00	0	42	0	93323264	67	4468
2026-01-28 10:47:36.03	186.07	7.82	-47.6	-49.7	16.8	0.00e+00	0	42	0	94371840	67	4415
2026-01-28 10:47:37.04	186.12	7.89	-47.5	-49.6	16.9	0.00e+00	0	42	0	96468992	67	4373
2026-01-28 10:47:38.05	186.18	7.97	-47.5	-49.6	17.0	0.00e+00	0	42	0	98566144	67	4349
2026-01-28 10:47:39.05	186.23	8.04	-47.5	-49.5	17.0	0.00e+00	0	42	0	100663296	67	4334
2026-01-28 10:47:40.06	186.29	8.12	-47.7	-49.8	16.8	0.00e+00	0	42	0	102760448	67	4469
2026-01-28 10:47:41.07	186.35	8.20	-47.7	-49.9	16.7	0.00e+00	0	42	0	103809024	67	4509
2026-01-28 10:47:42.07	186.40	8.28	-47.5	-49.6	17.0	0.00e+00	0	42	0	105906176	67	4358
2026-01-28 10:47:43.08	186.46	8.35	-47.4	-49.4	17.2	0.00e+00	0	42	0	108003328	66	4521
2026-01-28 10:47:44.08	186.51	8.43	-47.4	-49.4	17.2	0.00e+00	0	42	0	110100480	66	4500
2026-01-28 10:47:45.09	186.57	8.51	-47.4	-49.4	17.2	0.00e+00	0	42	0	112197632	66	4510
2026-01-28 10:47:46.09	186.63	8.59	-47.3	-49.2	17.3	0.00e+00	0	42	0	113246208	66	4429
2026-01-28 10:47:47.09	186.69	8.66	-47.3	-49.2	17.4	0.00e+00	0	42	0	115343360	66	4424
2026-01-28 10:47:48.10	186.74	8.74	-47.3	-49.3	17.3	0.00e+00	0	42	0	117440512	66	4443
2026-01-28 10:47:49.11	186.80	8.82	-47.3	-49.3	17.3	0.00e+00	0	42	0	119537664	66	4477
2026-01-28 10:47:50.12	186.86	8.90	-47.2	-49.2	17.4	0.00e+00	0	42	0	121634816	66	4400
2026-01-28 10:47:51.13	186.92	8.98	-47.3	-49.3	17.3	0.00e+00	0	42	0	122683392	66	4465
2026-01-28 10:47:52.14	186.98	9.06	-47.3	-49.3	17.4	0.00e+00	0	42	0	124780544	66	4445
2026-01-28 10:47:53.15	187.04	9.14	-47.0	-48.9	17.7	0.00e+00	0	42	0	126877696	66	4266
2026-01-28 10:47:54.15	187.10	9.22	-47.1	-48.9	17.7	0.00e+00	0	42	0	128974848	66	4278
2026-01-28 10:47:55.16	187.16	9.30	-46.9	-48.7	17.9	0.00e+00	0	42	0	131072000	65	4441
2026-01-28 10:47:56.17	187.22	9.38	-46.9	-48.7	17.9	0.00e+00	0	42	0	132120576	65	4438
2026-01-28 10:47:57.18	187.28	9.46	-47.0	-48.8	17.8	0.00e+00	0	42	0	134217728	65	4485
2026-01-28 10:47:58.18	187.34	9.54	-46.9	-48.7	18.0	0.00e+00	0	42	0	136314880	65	4412
2026-01-28 10:47:59.19	187.40	9.62	-46.9	-48.7	17.9	0.00e+00	0	43	0	138412032	65	4439
2026-01-28 10:48:00.20	187.46	9.71	-46.8	-48.6	18.1	0.00e+00	0	42	0	140509184	65	4344
2026-01-28 10:48:01.20	187.52	9.79	-46.7	-48.5	18.2	0.00e+00	0	42	0	141557760	65	4298
2026-01-28 10:48:02.21	187.59	9.87	-46.8	-48.5	18.3	0.00e+00	0	43	0	143654912	65	4307
2026-01-28 10:48:03.22	187.65	9.95	-46.8	-48.5	18.2	0.00e+00	0	42	0	145752064	65	4315
2026-01-28 10:48:04.23	187.71	10.03	-46.7	-48.5	18.3	0.00e+00	0	43	0	147849216	65	4293
2026-01-28 10:48:05.24	187.78	10.12	-46.8	-48.5	18.2	0.00e+00	0	42	0	149946368	65	4313
2026-01-28 10:48:06.24	187.84	10.20	-46.7	-48.5	18.3	0.00e+00	0	42	0	150994944	65	4296
2026-01-28 10:48:07.24	187.90	10.28	-46.6	-48.3	18.4	0.00e+00	0	42	0	153092096	65	4228
2026-01-28 10:48:08.25	187.97	10.36	-46.6	-48.3	18.5	0.00e+00	0	42	0	155189248	65	4216
2026-01-28 10:48:09.26	188.03	10.45	-46.6	-48.3	18.5	0.00e+00	0	42	0	157286400	65	4211
2026-01-28 10:48:10.27	188.10	10.53	-46.5	-48.2	18.6	0.00e+00	0	42	0	159383552	65	4150
2026-01-28 10:48:11.27	188.16	10.62	-46.6	-48.2	18.5	0.00e+00	0	42	0	160432128	65	4183
2026-01-28 10:48:12.28	188.23	10.70	-46.5	-48.2	18.6	0.00e+00	0	42	0	162529280	65	4153
2026-01-28 10:48:13.29	188.29	10.79	-46.4	-48.0	18.8	0.00e+00	0	42	0	164626432	64	4315
2026-01-28 10:48:14.29	188.36	10.87	-46.4	-48.1	18.6	0.00e+00	0	42	0	166723584	64	4355
2026-01-28 10:48:15.30	188.43	10.96	-46.3	-47.9	18.8	0.00e+00	0	42	0	168820736	64	4250
2026-01-28 10:48:16.30	188.49	11.04	-46.3	-47.9	18.8	0.00e+00	0	43	0	169869312	64	4273
2026-01-28 10:48:17.31	188.56	11.13	-46.3	-47.9	18.8	0.00e+00	0	42	0	171966464	64	4249
2026-01-28 10:48:18.32	188.63	11.21	-46.3	-47.9	18.8	0.00e+00	0	43	0	174063616	64	4285
2026-01-28 10:48:19.33	188.70	11.30	-46.1	-47.6	19.1	0.00e+00	0	43	0	176160768	64	4124
2026-01-28 10:48:20.34	188.76	11.39	-46.2	-47.7	19.0	0.00e+00	0	42	0	178257920	64	4172
2026-01-28 10:48:21.35	188.83	11.47	-46.1	-47.6	19.2	0.00e+00	0	42	0	179306496	64	4123
2026-01-28 10:48:22.35	188.90	11.56	-46.1	-47.6	19.1	0.00e+00	0	42	0	181403648	64	4143
2026-01-28 10:48:23.36	188.97	11.65	-46.0	-47.5	19.2	0.00e+00	0	43	0	183500800	64	4094
2026-01-28 10:48:24.37	189.04	11.73	-46.0	-47.5	19.4	0.00e+00	0	43	0	185597952	63	4297
2026-01-28 10:48:25.38	189.11	11.82	-46.1	-47.5	19.4	0.00e+00	0	43	0	187695104	63	4337
2026-01-28 10:48:26.39	189.18	11.91	-46.1	-47.6	19.3	0.00e+00	0	43	0	188743680	63	4368
2026-01-28 10:48:27.39	189.25	12.00	-46.1	-47.6	19.3	0.00e+00	0	42	0	190840832	63	4361
2026-01-28 10:48:28.40	189.33	12.09	-46.0	-47.5	19.4	0.00e+00	0	43	0	192937984	63	4332
2026-01-28 10:48:29.41	189.40	12.18	-46.0	-47.4	19.5	0.00e+00	0	42	0	195035136	63	4282
2026-01-28 10:48:30.41	189.47	12.27	-46.0	-47.5	19.4	0.00e+00	0	42	0	197132288	63	4315
2026-01-28 10:48:31.42	189.54	12.36	-45.9	-47.4	19.5	0.00e+00	0	43	0	198180864	63	4258
2026-01-28 10:48:32.42	189.62	12.44	-46.0	-47.5	19.4	0.00e+00	0	43	0	200278016	63	4331
2026-01-28 10:48:33.43	189.69	12.54	-46.0	-47.5	19.4	0.00e+00	0	42	0	202375168	63	4312
2026-01-28 10:48:34.44	189.77	12.63	-46.0	-47.5	19.4	0.00e+00	0	42	0	204472320	63	4329
2026-01-28 10:48:35.44	189.84	12.72	-46.1	-47.6	19.3	0.00e+00	0	42	0	206569472	63	4359
2026-01-28 10:48:36.45	189.91	12.81	-46.0	-47.4	19.5	0.00e+00	0	43	0	207618048	63	4278
2026-01-28 10:48:37.45	189.99	12.90	-46.0	-47.5	19.5	0.00e+00	0	43	0	209715200	63	4306
2026-01-28 10:48:38.46	190.07	12.99	-46.0	-47.5	19.4	0.00e+00	0	42	0	211812352	63	4308
2026-01-28 10:48:39.47	190.14	13.08	-46.0	-47.5	19.5	0.00e+00	0	43	0	213909504	63	4294
2026-01-28 10:48:40.48	190.22	13.17	-46.0	-47.5	19.5	0.00e+00	0	43	0	216006656	63	4313
2026-01-28 10:48:41.49	190.30	13.27	-46.1	-47.5	19.4	0.00e+00	0	43	0	217055232	63	4328
2026-01-28 10:48:42.50	190.37	13.36	-46.0	-47.5	19.5	0.00e+00	0	42	0	219152384	63	4300
2026-01-28 10:48:43.50	190.45	13.45	-46.0	-47.4	19.5	0.00e+00	0	43	0	221249536	63	4286
2026-01-28 10:48:44.51	190.53	13.55	-45.9	-47.3	19.6	0.00e+00	0	43	0	223346688	63	4240
2026-01-28 10:48:45.52	190.61	13.64	-45.8	-47.3	19.7	0.00e+00	0	43	0	225443840	63	4195
2026-01-28 10:48:46.52	190.69	13.73	-45.8	-47.2	19.8	0.00e+00	0	43	0	226492416	63	4161
2026-01-28 10:48:47.53	190.77	13.83	-45.8	-47.3	19.7	0.00e+00	0	43	0	228589568	63	4198
2026-01-28 10:48:48.54	190.85	13.92	-45.7	-47.1	19.9	0.00e+00	0	42	0	230686720	63	4127
2026-01-28 10:48:49.54	190.93	14.02	-45.7	-47.1	19.9	0.00e+00	0	43	0	232783872	63	4115
2026-01-28 10:48:50.54	191.01	14.11	-45.7	-47.1	19.9	0.00e+00	0	43	0	234881024	63	4108
2026-01-28 10:48:51.55	191.09	14.21	-45.6	-47.0	20.0	0.00e+00	0	43	0	235929600	63	4074
2026-01-28 10:48:52.56	191.18	14.31	-45.7	-47.1	19.9	0.00e+00	0	43	0	238026752	63	4113
2026-01-28 10:48:53.56	191.26	14.40	-45.7	-47.1	19.9	0.00e+00	0	43	0	240123904	63	4118
2026-01-28 10:48:54.57	191.34	14.50	-45.6	-47.0	20.0	0.00e+00	0	43	0	242221056	63	4074
2026-01-28 10:48:55.58	191.43	14.60	-45.7	-47.1	19.8	0.00e+00	0	43	0	244318208	63	4136
2026-01-28 10:48:56.59	191.51	14.69	-45.6	-47.0	20.0	0.00e+00	0	43	0	245366784	63	4082
2026-01-28 10:48:57.59	191.60	14.79	-45.6	-46.9	20.1	0.00e+00	0	43	0	247463936	63	4038
2026-01-28 10:48:58.60	191.68	14.89	-45.5	-46.8	20.1	0.00e+00	0	42	0	249561088	62	4242
2026-01-28 10:48:59.61	191.77	14.99	-45.6	-46.9	20.1	0.00e+00	0	43	0	251658240	62	4275
2026-01-28 10:49:00.61	191.86	15.09	-45.5	-46.8	20.2	0.00e+00	0	43	0	253755392	62	4227
2026-01-28 10:49:01.62	191.94	15.18	-45.5	-46.8	20.2	0.00e+00	0	43	0	254803968	62	4239
2026-01-28 10:49:02.63	192.03	15.28	-45.4	-46.7	20.3	0.00e+00	0	43	0	256901120	62	4188
2026-01-28 10:49:03.64	192.12	15.38	-45.4	-46.8	20.2	0.00e+00	0	43	0	258998272	62	4196
2026-01-28 10:49:04.64	192.21	15.48	-45.5	-46.8	20.2	0.00e+00	0	43	0	261095424	62	4215
2026-01-28 10:49:05.65	192.30	15.58	-45.4	-46.8	20.3	0.00e+00	0	43	0	263192576	62	4203
2026-01-28 10:49:06.66	192.39	15.69	-45.4	-46.7	20.3	0.00e+00	0	43	0	264241152	62	4190
2026-01-28 10:49:07.66	192.48	15.79	-45.3	-46.7	20.4	0.00e+00	0	43	0	266338304	62	4150
2026-01-28 10:49:08.67	192.57	15.89	-45.4	-46.8	20.3	0.00e+00	0	43	0	268435456	62	4203
2026-01-28 10:49:09.68	192.66	15.99	-45.4	-46.7	20.3	0.00e+00	0	43	0	270532608	62	4180
2026-01-28 10:49:10.69	192.76	16.09	-45.4	-46.8	20.2	0.00e+00	0	43	0	272629760	62	4205
2026-01-28 10:49:11.69	192.85	16.19	-45.4	-46.7	20.3	0.00e+00	0	43	0	273678336	62	4175
2026-01-28 10:49:12.70	192.94	16.30	-45.4	-46.7	20.3	0.00e+00	0	43	0	275775488	62	4174
2026-01-28 10:49:13.71	193.04	16.40	-45.4	-46.8	20.3	0.00e+00	0	43	0	277872640	62	4200
2026-01-28 10:49:14.71	193.13	16.50	-45.5	-46.9	20.2	0.00e+00	0	43	0	279969792	62	4247
2026-01-28 10:49:15.71	193.23	16.61	-45.4	-46.7	20.3	0.00e+00	0	43	0	282066944	62	4178
2026-01-28 10:49:16.72	193.32	16.71	-45.5	-46.9	20.2	0.00e+00	0	43	0	283115520	62	4248
2026-01-28 10:49:17.73	193.42	16.82	-45.5	-46.8	20.3	0.00e+00	0	43	0	285212672	62	4213
2026-01-28 10:49:18.74	193.52	16.92	-45.4	-46.7	20.3	0.00e+00	0	43	0	287309824	62	4188
2026-01-28 10:49:19.74	193.62	17.03	-45.5	-46.8	20.3	0.00e+00	0	43	0	289406976	62	4215
2026-01-28 10:49:20.75	193.71	17.13	-45.6	-46.9	20.1	0.00e+00	0	43	0	291504128	62	4285
2026-01-28 10:49:21.75	193.81	17.24	-45.6	-46.9	20.2	0.00e+00	0	43	0	292552704	62	4277
2026-01-28 10:49:22.76	193.91	17.35	-45.7	-47.0	20.1	0.00e+00	0	43	0	294649856	62	4324
2026-01-28 10:49:23.77	194.01	17.45	-45.7	-47.0	20.1	0.00e+00	0	43	0	296747008	62	4331
2026-01-28 10:49:24.78	194.12	17.56	-45.6	-47.0	20.1	0.00e+00	0	43	0	298844160	62	4302
2026-01-28 10:49:25.79	194.22	17.67	-45.6	-47.0	20.1	0.00e+00	0	43	0	300941312	62	4317
2026-01-28 10:49:26.80	194.32	17.78	-45.8	-47.1	19.9	0.00e+00	0	43	0	301989888	62	4381
2026-01-28 10:49:27.81	194.43	17.89	-45.7	-47.1	20.0	0.00e+00	0	43	0	304087040	62	4369
2026-01-28 10:49:28.81	194.53	18.00	-45.7	-47.1	20.1	0.00e+00	0	43	0	306184192	62	4349
2026-01-28 10:49:29.82	194.64	18.11	-45.8	-47.2	19.9	0.00e+00	0	43	0	308281344	62	4415
2026-01-28 10:49:30.82	194.74	18.22	-45.9	-47.3	19.9	0.00e+00	0	43	0	310378496	62	4449
2026-01-28 10:49:31.83	194.85	18.33	-46.0	-47.4	19.7	0.00e+00	0	43	0	311427072	62	4525
2026-01-28 10:49:32.83	194.95	18.44	-45.8	-47.2	19.9	0.00e+00	0	43	0	313524224	62	4429
2026-01-28 10:49:33.84	195.06	18.55	-45.8	-47.2	19.9	0.00e+00	0	43	0	315621376	62	4422
2026-01-28 10:49:34.85	195.17	18.66	-45.9	-47.3	19.8	0.00e+00	0	43	0	317718528	62	4462
2026-01-28 10:49:35.86	195.28	18.77	-45.9	-47.3	19.8	0.00e+00	0	43	0	319815680	62	4469
2026-01-28 10:49:36.87	195.39	18.88	-46.0	-47.5	19.7	0.00e+00	0	43	0	320864256	62	4556
2026-01-28 10:49:37.87	195.50	19.00	-45.9	-47.3	19.8	0.00e+00	0	43	0	322961408	62	4486
2026-01-28 10:49:38.88	195.61	19.11	-46.0	-47.4	19.7	0.00e+00	0	43	0	325058560	62	4516
2026-01-28 10:49:39.89	195.73	19.22	-46.0	-47.4	19.7	0.00e+00	0	43	0	327155712	62	4544
2026-01-28 10:49:40.90	195.84	19.34	-46.0	-47.4	19.8	0.00e+00	0	43	0	329252864	62	4520
2026-01-28 10:49:41.90	195.95	19.45	-46.0	-47.4	19.7	0.00e+00	0	43	0	330301440	62	4542
2026-01-28 10:49:42.92	196.07	19.57	-46.0	-47.4	19.7	0.00e+00	0	43	0	332398592	62	4523
2026-01-28 10:49:43.92	196.19	19.68	-46.1	-47.5	19.7	0.00e+00	0	43	0	334495744	62	4586
2026-01-28 10:49:44.93	196.30	19.80	-46.0	-47.4	19.7	0.00e+00	0	43	0	336592896	62	4525
2026-01-28 10:49:45.94	196.42	19.91	-46.0	-47.4	19.8	0.00e+00	0	43	0	338690048	62	4520
2026-01-28 10:49:46.95	196.54	20.03	-46.1	-47.6	19.6	0.00e+00	0	43	0	340787200	62	4605
2026-01-28 10:49:47.96	196.66	20.15	-46.0	-47.5	19.7	0.00e+00	0	43	0	341835776	62	4554
2026-01-28 10:49:48.97	196.78	20.27	-46.1	-47.6	19.6	0.00e+00	0	43	0	343932928	62	4606
2026-01-28 10:49:49.97	196.90	20.38	-46.1	-47.5	19.6	0.00e+00	0	43	0	346030080	62	4594
2026-01-28 10:49:50.98	197.02	20.50	-46.1	-47.5	19.7	0.00e+00	0	43	0	348127232	62	4590
2026-01-28 10:49:51.99	197.15	20.62	-46.1	-47.5	19.7	0.00e+00	0	43	0	350224384	62	4560
2026-01-28 10:49:52.99	197.27	20.74	-46.1	-47.5	19.7	0.00e+00	0	43	0	351272960	62	4570
2026-01-28 10:49:54.00	197.40	20.86	-46.1	-47.5	19.7	0.00e+00	0	43	0	353370112	62	4576
2026-01-28 10:49:55.01	197.52	20.98	-46.1	-47.6	19.6	0.00e+00	0	43	0	355467264	62	4612
2026-01-28 10:49:56.02	197.65	21.10	-46.1	-47.5	19.6	0.00e+00	0	43	0	357564416	62	4595
2026-01-28 10:49:57.03	197.78	21.22	-45.9	-47.3	19.9	0.00e+00	0	43	0	358612992	62	4493
2026-01-28 10:49:58.03	197.91	21.34	-46.0	-47.4	19.9	0.00e+00	0	43	0	360710144	62	4500
2026-01-28 10:49:59.04	198.04	21.46	-45.8	-47.2	20.1	0.00e+00	0	43	0	362807296	62	4396
2026-01-28 10:50:00.05	198.17	21.59	-45.9	-47.3	20.0	0.00e+00	0	43	0	364904448	62	4442
2026-01-28 10:50:01.05	198.30	21.71	-45.8	-47.2	20.0	0.00e+00	0	43	0	367001600	62	4427
2026-01-28 10:50:02.06	198.43	21.83	-45.9	-47.2	20.0	0.00e+00	0	43	0	369098752	62	4434
2026-01-28 10:50:03.07	198.56	21.95	-45.8	-47.2	20.0	0.00e+00	0	43	0	370147328	62	4412
2026-01-28 10:50:04.07	198.70	22.08	-45.9	-47.2	20.0	0.00e+00	0	43	0	372244480	62	4434
2026-01-28 10:50:05.08	198.83	22.20	-45.8	-47.2	20.0	0.00e+00	0	43	0	374341632	62	4410
2026-01-28 10:50:06.09	198.97	22.33	-45.8	-47.2	20.1	0.00e+00	0	43	0	376438784	62	4406
2026-01-28 10:50:07.10	199.11	22.45	-45.9	-47.4	19.9	0.00e+00	0	43	0	378535936	62	4494
2026-01-28 10:50:08.11	199.25	22.58	-45.8	-47.2	20.0	0.00e+00	0	43	0	379584512	62	4404
2026-01-28 10:50:09.12	199.39	22.71	-45.9	-47.3	20.0	0.00e+00	0	43	0	381681664	62	4460
2026-01-28 10:50:10.12	199.53	22.83	-45.9	-47.3	20.0	0.00e+00	0	43	0	383778816	62	4465
2026-01-28 10:50:11.13	199.67	22.96	-46.0	-47.3	19.9	0.00e+00	0	43	0	385875968	62	4493
2026-01-28 10:50:12.14	199.82	23.09	-46.0	-47.4	19.8	0.00e+00	0	43	0	387973120	62	4533
2026-01-28 10:50:13.15	199.96	23.21	-46.1	-47.5	19.8	0.00e+00	0	43	0	389021696	62	4549
2026-01-28 10:50:14.15	200.11	23.34	-46.1	-47.5	19.8	0.00e+00	0	43	0	391118848	62	4589
2026-01-28 10:50:15.16	200.25	23.47	-46.1	-47.5	19.9	0.00e+00	0	43	0	393216000	62	4566
2026-01-28 10:50:16.17	200.40	23.60	-45.9	-47.3	19.9	0.00e+00	0	43	0	395313152	63	4230
2026-01-28 10:50:17.18	200.55	23.73	-45.8	-47.2	20.0	0.00e+00	0	43	0	397410304	63	4150
2026-01-28 10:50:18.19	200.70	23.86	-45.9	-47.3	20.0	0.00e+00	0	43	0	398458880	63	4194
2026-01-28 10:50:19.19	200.85	23.99	-45.8	-47.2	20.1	0.00e+00	0	43	0	400556032	63	4156
2026-01-28 10:50:20.20	201.01	24.12	-45.8	-47.1	20.1	0.00e+00	0	43	0	402653184	63	4142
2026-01-28 10:50:21.21	201.16	24.26	-45.8	-47.2	20.0	0.00e+00	0	43	0	404750336	63	4172
2026-01-28 10:50:22.21	201.31	24.39	-45.8	-47.1	20.1	0.00e+00	0	43	0	406847488	63	4140
2026-01-28 10:50:23.22	201.47	24.52	-45.8	-47.2	20.1	0.00e+00	0	43	0	407896064	63	4151
2026-01-28 10:50:24.23	201.63	24.65	-45.6	-47.0	20.3	0.00e+00	0	43	0	409993216	63	4065
2026-01-28 10:50:25.24	201.79	24.79	-45.7	-47.0	20.2	0.00e+00	0	43	0	412090368	63	4092
2026-01-28 10:50:26.24	201.95	24.92	-45.8	-47.1	20.2	0.00e+00	0	43	0	414187520	63	4136
2026-01-28 10:50:27.25	202.11	25.05	-45.8	-47.1	20.1	0.00e+00	0	43	0	416284672	63	4128
2026-01-28 10:50:28.26	202.28	25.19	-45.9	-47.3	20.0	0.00e+00	0	43	0	417333248	63	4199
2026-01-28 10:50:29.26	202.44	25.32	-45.9	-47.2	20.0	0.00e+00	0	43	0	419430400	63	4178
2026-01-28 10:50:30.27	202.61	25.46	-45.9	-47.2	20.1	0.00e+00	0	43	0	421527552	63	4175
2026-01-28 10:50:31.27	202.77	25.60	-45.9	-47.3	20.0	0.00e+00	0	43	0	423624704	63	4220
2026-01-28 10:50:32.28	202.94	25.73	-45.9	-47.3	20.0	0.00e+00	0	43	0	425721856	63	4227
2026-01-28 10:50:33.29	203.11	25.87	-46.0	-47.3	19.9	0.00e+00	0	43	0	426770432	63	4241
2026-01-28 10:50:34.29	203.28	26.01	-45.9	-47.3	20.0	0.00e+00	0	43	0	428867584	63	4209
2026-01-28 10:50:35.30	203.46	26.14	-45.9	-47.3	20.0	0.00e+00	0	43	0	430964736	63	4200
2026-01-28 10:50:36.31	203.63	26.28	-45.9	-47.3	20.1	0.00e+00	0	43	0	433061888	63	4196
2026-01-28 10:50:37.31	203.81	26.42	-46.0	-47.4	20.0	0.00e+00	0	43	0	435159040	63	4243
2026-01-28 10:50:38.32	203.98	26.56	-46.1	-47.5	19.8	0.00e+00	0	43	0	436207616	63	4335
2026-01-28 10:50:39.33	204.16	26.70	-46.1	-47.5	19.8	0.00e+00	0	43	0	438304768	63	4336
2026-01-28 10:50:40.34	204.34	26.84	-46.3	-47.8	19.6	0.00e+00	0	43	0	440401920	63	4460
2026-01-28 10:50:41.35	204.53	26.98	-46.4	-47.9	19.5	0.00e+00	0	43	0	442499072	63	4512
2026-01-28 10:50:42.35	204.71	27.12	-46.5	-47.9	19.4	0.00e+00	0	43	0	444596224	63	4542
2026-01-28 10:50:43.36	204.89	27.26	-46.7	-48.2	19.1	0.00e+00	0	43	0	445644800	63	4680
2026-01-28 10:50:44.37	205.08	27.41	-46.7	-48.3	19.0	0.00e+00	0	43	0	447741952	64	4460
2026-01-28 10:50:45.37	205.27	27.55	-46.8	-48.4	18.9	0.00e+00	0	43	0	449839104	64	4499
2026-01-28 10:50:46.38	205.46	27.69	-46.9	-48.5	18.8	0.00e+00	0	43	0	451936256	64	4572
2026-01-28 10:50:47.39	205.65	27.83	-46.9	-48.5	18.7	0.00e+00	0	43	0	454033408	64	4597
2026-01-28 10:50:48.40	205.85	27.98	-46.9	-48.6	18.7	0.00e+00	0	43	0	455081984	64	4601
2026-01-28 10:50:49.41	206.04	28.12	-46.9	-48.5	18.8	0.00e+00	0	43	0	457179136	64	4550
2026-01-28 10:50:50.41	206.24	28.26	-46.9	-48.5	18.8	0.00e+00	0	43	0	459276288	64	4581
2026-01-28 10:50:51.42	206.44	28.41	-47.0	-48.6	18.7	0.00e+00	0	43	0	461373440	64	4649
2026-01-28 10:50:52.43	206.64	28.56	-47.0	-48.7	18.6	0.00e+00	0	43	0	463470592	64	4664
2026-01-28 10:50:53.44	206.84	28.70	-47.0	-48.7	18.6	0.00e+00	0	43	0	464519168	64	4661
2026-01-28 10:50:54.45	207.05	28.85	-47.2	-48.9	18.5	0.00e+00	0	43	0	466616320	64	4760
2026-01-28 10:50:55.45	207.25	28.99	-47.3	-49.0	18.3	0.00e+00	0	43	0	468713472	65	4572
2026-01-28 10:50:56.46	207.46	29.14	-47.4	-49.1	18.2	0.00e+00	0	43	0	470810624	65	4634
2026-01-28 10:50:57.47	207.67	29.29	-47.6	-49.5	17.9	0.00e+00	0	43	0	472907776	65	4816
2026-01-28 10:50:58.48	207.88	29.43	-47.8	-49.7	17.7	0.00e+00	0	43	0	473956352	66	4686
2026-01-28 10:50:59.49	208.09	29.58	-47.8	-49.7	17.7	0.00e+00	0	43	0	476053504	66	4661
2026-01-28 10:51:00.49	208.31	29.73	-47.9	-49.8	17.6	0.00e+00	0	43	0	478150656	66	4735
2026-01-28 10:51:01.50	208.52	29.88	-47.8	-49.7	17.7	0.00e+00	0	43	0	480247808	66	4659
2026-01-28 10:51:02.51	208.74	30.03	-47.8	-49.6	17.7	0.00e+00	0	43	0	482344960	66	4630
2026-01-28 10:51:03.52	208.97	30.18	-47.6	-49.4	17.9	0.00e+00	0	43	0	483393536	66	4535
2026-01-28 10:51:04.53	209.19	30.33	-47.4	-49.2	18.2	0.00e+00	0	43	0	485490688	66	4409
2026-01-28 10:51:05.53	209.41	30.47	-47.4	-49.1	18.3	0.00e+00	0	43	0	487587840	66	4367
2026-01-28 10:51:06.53	209.64	30.62	-47.4	-49.2	18.2	0.00e+00	0	43	0	489684992	66	4397
2026-01-28 10:51:07.54	209.87	30.77	-47.2	-48.9	18.5	0.00e+00	0	43	0	491782144	66	4253
2026-01-28 10:51:08.55	210.10	30.92	-47.1	-48.8	18.6	0.00e+00	0	43	0	492830720	66	4206
2026-01-28 10:51:09.56	210.33	31.08	-47.1	-48.8	18.6	0.00e+00	0	43	0	494927872	66	4195
2026-01-28 10:51:10.57	210.57	31.23	-47.1	-48.8	18.6	0.00e+00	0	43	0	497025024	66	4206
2026-01-28 10:51:11.57	210.81	31.38	-47.1	-48.8	18.6	0.00e+00	0	43	0	499122176	66	4223
2026-01-28 10:51:12.58	211.05	31.53	-47.3	-49.0	18.4	0.00e+00	0	43	0	501219328	66	4297
2026-01-28 10:51:13.59	211.29	31.68	-47.0	-48.7	18.7	0.00e+00	0	43	0	502267904	66	4154
2026-01-28 10:51:14.60	211.54	31.83	-47.1	-48.7	18.7	0.00e+00	0	43	0	504365056	65	4425
2026-01-28 10:51:15.61	211.78	31.99	-46.8	-48.4	18.9	0.00e+00	0	43	0	506462208	65	4278
2026-01-28 10:51:16.61	212.03	32.14	-46.8	-48.3	19.0	0.00e+00	0	43	0	508559360	65	4234
2026-01-28 10:51:17.62	212.28	32.29	-46.8	-48.4	19.0	0.00e+00	0	43	0	510656512	65	4255
2026-01-28 10:51:18.63	212.54	32.44	-46.8	-48.4	19.0	0.00e+00	0	43	0	511705088	65	4268
2026-01-28 10:51:19.63	212.79	32.60	-46.8	-48.4	19.0	0.00e+00	0	43	0	513802240	65	4248
2026-01-28 10:51:20.64	213.05	32.75	-46.8	-48.4	18.9	0.00e+00	0	43	0	515899392	65	4282
2026-01-28 10:51:21.65	213.31	32.90	-46.9	-48.5	18.9	0.00e+00	0	43	0	517996544	65	4293
2026-01-28 10:51:22.66	213.57	33.06	-46.9	-48.6	18.8	0.00e+00	0	43	0	520093696	65	4344
2026-01-28 10:51:23.67	213.84	33.21	-47.1	-48.8	18.6	0.00e+00	0	43	0	521142272	65	4443
2026-01-28 10:51:24.67	214.11	33.36	-46.9	-48.5	18.9	0.00e+00	0	43	0	523239424	65	4312
2026-01-28 10:51:25.68	214.38	33.52	-46.9	-48.6	18.8	0.00e+00	0	43	0	525336576	65	4342
2026-01-28 10:51:26.68	214.65	33.67	-46.8	-48.3	19.0	0.00e+00	0	43	0	527433728	65	4234
2026-01-28 10:51:27.69	214.92	33.82	-46.7	-48.3	19.1	0.00e+00	0	43	0	529530880	65	4203
2026-01-28 10:51:28.70	215.20	33.98	-46.9	-48.4	19.0	0.00e+00	0	43	0	530579456	65	4291
2026-01-28 10:51:29.71	215.48	34.13	-46.9	-48.5	18.9	0.00e+00	0	43	0	532676608	65	4327
2026-01-28 10:51:30.71	215.77	34.28	-46.9	-48.5	18.9	0.00e+00	0	43	0	534773760	65	4306
2026-01-28 10:51:31.72	216.05	34.44	-46.9	-48.5	18.8	0.00e+00	0	43	0	536870912	65	4323
2026-01-28 10:51:32.73	216.34	34.59	-47.0	-48.6	18.8	0.00e+00	0	43	0	538968064	65	4343
2026-01-28 10:51:33.74	216.63	34.75	-47.1	-48.7	18.6	0.00e+00	0	43	0	541065216	65	4430
2026-01-28 10:51:34.75	216.93	34.90	-47.1	-48.8	18.6	0.00e+00	0	43	0	542113792	65	4473
2026-01-28 10:51:35.76	217.23	35.06	-47.1	-48.8	18.6	0.00e+00	0	43	0	544210944	65	4469
2026-01-28 10:51:36.77	217.53	35.21	-47.1	-48.7	18.6	0.00e+00	0	43	0	546308096	65	4428
2026-01-28 10:51:37.77	217.83	35.36	-46.8	-48.3	19.1	0.00e+00	0	43	0	548405248	65	4237
2026-01-28 10:51:38.78	218.13	35.52	-46.5	-48.0	19.3	0.00e+00	0	43	0	549453824	65	4085
2026-01-28 10:51:39.79	218.44	35.67	-46.3	-47.7	19.7	0.00e+00	0	43	0	551550976	64	4188
2026-01-28 10:51:40.79	218.75	35.82	-46.1	-47.5	19.9	0.00e+00	0	43	0	553648128	64	4063
2026-01-28 10:51:41.80	219.06	35.97	-45.9	-47.3	19.9	0.00e+00	0	43	0	555745280	63	4205
2026-01-28 10:51:42.81	219.38	36.13	-45.7	-47.0	20.5	0.00e+00	0	43	0	557842432	63	4072
2026-01-28 10:51:43.81	219.70	36.28	-45.9	-47.2	20.3	0.00e+00	0	43	0	558891008	63	4162
2026-01-28 10:51:44.82	220.02	36.43	-45.9	-47.2	20.3	0.00e+00	0	43	0	560988160	63	4176
2026-01-28 10:51:45.83	220.35	36.58	-46.1	-47.5	20.0	0.00e+00	0	43	0	563085312	63	4305
2026-01-28 10:51:46.83	220.67	36.73	-46.2	-47.6	19.9	0.00e+00	0	43	0	565182464	63	4389
2026-01-28 10:51:47.84	221.00	36.88	-46.2	-47.6	19.8	0.00e+00	0	43	0	567279616	63	4389
2026-01-28 10:51:48.85	221.34	37.04	-46.4	-47.9	19.6	0.00e+00	0	43	0	569376768	63	4520
2026-01-28 10:51:49.86	221.68	37.19	-46.3	-47.7	19.8	0.00e+00	0	43	0	570425344	63	4415
2026-01-28 10:51:50.87	222.02	37.34	-46.2	-47.6	20.0	0.00e+00	0	43	0	572522496	63	4341
2026-01-28 10:51:51.87	222.36	37.48	-46.0	-47.3	20.1	0.00e+00	0	43	0	574619648	63	4237
2026-01-28 10:51:52.88	222.71	37.63	-45.8	-47.2	20.3	0.00e+00	0	43	0	576716800	63	4156
2026-01-28 10:51:53.89	223.06	37.78	-46.2	-47.6	19.9	0.00e+00	0	43	0	577765376	63	4368
2026-01-28 10:51:54.90	223.41	37.93	-46.4	-47.9	19.7	0.00e+00	0	43	0	579862528	63	4503
2026-01-28 10:51:55.90	223.76	38.08	-46.6	-48.1	19.4	0.00e+00	0	43	0	581959680	63	4622
2026-01-28 10:51:56.91	224.12	38.23	-47.0	-48.6	18.9	0.00e+00	0	43	0	584056832	64	4628
2026-01-28 10:51:57.92	224.49	38.37	-47.2	-48.9	18.6	0.00e+00	0	43	0	586153984	64	4782
2026-01-28 10:51:58.93	224.85	38.52	-47.3	-49.0	18.4	0.00e+00	0	43	0	587202560	65	4549
2026-01-28 10:51:59.93	225.22	38.66	-47.3	-49.1	18.4	0.00e+00	0	43	0	589299712	65	4603
2026-01-28 10:52:00.94	225.59	38.81	-47.3	-48.9	18.5	0.00e+00	0	43	0	591396864	65	4538
2026-01-28 10:52:01.95	225.97	38.95	-47.3	-48.9	18.6	0.00e+00	0	43	0	593494016	65	4524
2026-01-28 10:52:02.96	226.35	39.09	-47.4	-49.1	18.4	0.00e+00	0	43	0	595591168	65	4630
2026-01-28 10:52:03.96	226.73	39.23	-47.5	-49.3	18.2	0.00e+00	0	43	0	597688320	65	4713
2026-01-28 10:52:04.97	227.11	39.38	-47.8	-49.6	17.9	0.00e+00	0	43	0	598736896	66	4619
2026-01-28 10:52:05.98	227.50	39.52	-47.9	-49.8	17.7	0.00e+00	0	43	0	600834048	66	4722
2026-01-28 10:52:06.99	227.90	39.66	-48.0	-49.8	17.7	0.00e+00	0	43	0	602931200	66	4755
2026-01-28 10:52:08.00	228.29	39.79	-47.9	-49.8	17.8	0.00e+00	0	43	0	605028352	66	4720
2026-01-28 10:52:09.00	228.69	39.93	-47.6	-49.3	18.2	0.00e+00	0	43	0	606076928	66	4477
2026-01-28 10:52:10.01	229.09	40.07	-47.3	-49.0	18.5	0.00e+00	0	43	0	608174080	66	4297
2026-01-28 10:52:11.01	229.49	40.20	-47.2	-48.8	18.6	0.00e+00	0	43	0	610271232	66	4236
2026-01-28 10:52:12.02	229.90	40.34	-46.9	-48.5	19.0	0.00e+00	0	43	0	612368384	65	4307
2026-01-28 10:52:13.03	230.31	40.47	-47.0	-48.6	18.9	0.00e+00	0	43	0	614465536	65	4367
2026-01-28 10:52:14.04	230.73	40.60	-47.2	-48.9	18.6	0.00e+00	0	43	0	616562688	65	4517
2026-01-28 10:52:15.04	231.15	40.73	-47.3	-49.0	18.5	0.00e+00	0	43	0	617611264	65	4576
2026-01-28 10:52:16.05	231.57	40.86	-47.6	-49.4	18.2	0.00e+00	0	43	0	619708416	65	4778
2026-01-28 10:52:17.06	231.99	40.99	-47.5	-49.2	18.3	0.00e+00	0	43	0	621805568	65	4700
2026-01-28 10:52:18.07	232.42	41.12	-47.2	-48.9	18.7	0.00e+00	0	43	0	623902720	65	4494
2026-01-28 10:52:19.08	232.86	41.24	-47.0	-48.6	18.8	0.00e+00	0	43	0	625999872	65	4381
2026-01-28 10:52:20.09	233.29	41.37	-46.9	-48.5	19.0	0.00e+00	0	43	0	627048448	65	4314
2026-01-28 10:52:21.10	233.73	41.49	-47.2	-48.8	18.7	0.00e+00	0	43	0	629145600	65	4456
2026-01-28 10:52:22.10	234.17	41.61	-47.6	-49.4	18.1	0.00e+00	0	43	0	631242752	65	4793
2026-01-28 10:52:23.11	234.62	41.73	-48.1	-50.1	17.4	0.00e+00	0	43	0	633339904	66	4890
2026-01-28 10:52:24.12	235.06	41.85	-48.6	-50.8	16.9	0.00e+00	0	43	0	634388480	67	4995
2026-01-28 10:52:25.13	235.52	41.97	-48.6	-50.7	16.9	0.00e+00	0	43	0	636485632	67	4934
2026-01-28 10:52:26.13	235.97	42.08	-48.3	-50.3	17.3	0.00e+00	0	43	0	638582784	67	4745
2026-01-28 10:52:27.14	236.43	42.20	-48.3	-50.2	17.4	0.00e+00	0	43	0	640679936	67	4702
2026-01-28 10:52:28.15	236.89	42.31	-48.0	-49.9	17.7	0.00e+00	0	43	0	642777088	67	4516
2026-01-28 10:52:29.16	237.35	42.42	-48.3	-50.3	17.4	0.00e+00	0	43	0	644874240	67	4710
2026-01-28 10:52:30.17	237.82	42.53	-48.7	-50.8	16.8	0.00e+00	0	43	0	645922816	67	5014
2026-01-28 10:52:31.17	238.29	42.64	-49.0	-51.3	16.3	0.00e+00	0	43	0	648019968	68	5037
2026-01-28 10:52:32.18	238.76	42.74	-49.2	-51.6	16.0	0.00e+00	0	43	0	650117120	69	4913
2026-01-28 10:52:33.19	239.24	42.85	-48.9	-51.1	16.5	0.00e+00	0	43	0	652214272	69	4651
2026-01-28 10:52:34.19	239.72	42.95	-48.6	-50.7	17.0	0.00e+00	0	43	0	654311424	69	4418
2026-01-28 10:52:35.20	240.20	43.05	-48.4	-50.3	17.3	0.00e+00	0	43	0	655360000	68	4492
2026-01-28 10:52:36.21	240.69	43.14	-48.1	-50.0	17.7	0.00e+00	0	43	0	657457152	68	4311
2026-01-28 10:52:37.21	241.17	43.24	-48.2	-50.1	17.6	0.00e+00	0	43	0	659554304	68	4379
2026-01-28 10:52:38.22	241.66	43.33	-48.5	-50.5	17.2	0.00e+00	0	43	0	661651456	68	4559
2026-01-28 10:52:39.23	242.16	43.42	-48.3	-50.2	17.4	0.00e+00	0	43	0	662700032	68	4416
2026-01-28 10:52:40.24	242.65	43.51	-48.4	-50.4	17.2	0.00e+00	0	43	0	664797184	68	4526
2026-01-28 10:52:41.25	243.15	43.60	-48.3	-50.2	17.4	0.00e+00	0	43	0	666894336	68	4438
2026-01-28 10:52:42.25	243.65	43.68	-48.0	-49.8	17.9	0.00e+00	0	43	0	668991488	68	4216
2026-01-28 10:52:43.26	244.16	43.77	-47.7	-49.5	18.1	0.00e+00	0	43	0	671088640	67	4302
2026-01-28 10:52:44.27	244.67	43.85	-47.6	-49.3	18.3	0.00e+00	0	43	0	673185792	67	4231
2026-01-28 10:52:45.28	245.18	43.93	-47.9	-49.8	17.8	0.00e+00	0	43	0	674234368	67	4464
2026-01-28 10:52:46.28	245.69	44.00	-47.9	-49.7	17.9	0.00e+00	0	43	0	676331520	67	4419
2026-01-28 10:52:47.29	246.20	44.07	-47.3	-48.9	18.7	0.00e+00	0	43	0	678428672	66	4270
2026-01-28 10:52:48.30	246.72	44.15	-47.1	-48.6	18.9	0.00e+00	0	43	0	680525824	66	4144
2026-01-28 10:52:49.31	247.24	44.21	-47.0	-48.6	18.9	0.00e+00	0	43	0	682622976	66	4120
2026-01-28 10:52:50.31	247.76	44.28	-47.0	-48.5	19.0	0.00e+00	0	43	0	683671552	65	4340
2026-01-28 10:52:51.32	248.28	44.34	-47.0	-48.6	19.0	0.00e+00	0	43	0	685768704	65	4346
2026-01-28 10:52:52.33	248.81	44.40	-47.2	-48.8	18.7	0.00e+00	0	43	0	687865856	65	4493
2026-01-28 10:52:53.34	249.33	44.46	-47.8	-49.6	18.1	0.00e+00	0	43	0	689963008	66	4649
2026-01-28 10:52:54.35	249.86	44.52	-47.9	-49.8	17.8	0.00e+00	0	43	0	692060160	66	4721
2026-01-28 10:52:55.35	250.39	44.57	-47.9	-49.7	17.9	0.00e+00	0	43	0	693108736	66	4669
2026-01-28 10:52:56.36	250.92	44.62	-47.9	-49.8	17.9	0.00e+00	0	43	0	695205888	66	4719
2026-01-28 10:52:57.37	251.46	44.67	-48.1	-50.0	17.6	0.00e+00	0	43	0	697303040	66	4864
2026-01-28 10:52:58.37	251.99	44.72	-47.9	-49.7	17.8	0.00e+00	0	43	0	699400192	66	4704
2026-01-28 10:52:59.38	252.53	44.76	-47.7	-49.5	18.1	0.00e+00	0	43	0	701497344	66	4556
2026-01-28 10:53:00.39	253.07	44.80	-47.6	-49.4	18.2	0.00e+00	0	43	0	702545920	66	4500
2026-01-28 10:53:01.40	253.61	44.84	-48.1	-50.0	17.7	0.00e+00	0	43	0	704643072	66	4828
2026-01-28 10:53:02.41	254.15	44.87	-48.3	-50.2	17.4	0.00e+00	0	43	0	706740224	67	4704
2026-01-28 10:53:03.42	254.69	44.91	-47.8	-49.6	18.0	0.00e+00	0	43	0	708837376	67	4388
2026-01-28 10:53:04.42	255.23	44.93	-47.6	-49.4	18.3	0.00e+00	0	43	0	710934528	67	4254
2026-01-28 10:53:05.43	255.78	44.96	-47.3	-49.0	18.6	0.00e+00	0	43	0	711983104	66	4302
2026-01-28 10:53:06.44	256.32	44.98	-47.2	-48.8	18.8	0.00e+00	0	43	0	714080256	66	4208
2026-01-28 10:53:07.44	256.87	45.01	-47.1	-48.7	18.9	0.00e+00	0	43	0	716177408	66	4181
2026-01-28 10:53:08.45	257.41	45.02	-46.8	-48.3	19.3	0.00e+00	0	43	0	718274560	65	4199
2026-01-28 10:53:09.46	257.96	45.04	-47.1	-48.7	18.9	0.00e+00	0	43	0	720371712	65	4415
2026-01-28 10:53:10.47	258.51	45.05	-47.1	-48.8	18.8	0.00e+00	0	43	0	721420288	65	4447
2026-01-28 10:53:11.47	259.05	45.06	-47.0	-48.5	19.0	0.00e+00	0	43	0	723517440	65	4334
2026-01-28 10:53:12.48	259.60	45.07	-47.1	-48.7	19.0	0.00e+00	0	43	0	725614592	65	4395
2026-01-28 10:53:13.49	260.15	45.07	-46.8	-48.4	19.3	0.00e+00	0	43	0	727711744	65	4256
2026-01-28 10:53:14.50	260.70	45.07	-46.8	-48.4	19.2	0.00e+00	0	43	0	729808896	65	4246
2026-01-28 10:53:15.51	261.25	45.07	-46.8	-48.3	19.2	0.00e+00	0	43	0	730857472	65	4222
2026-01-28 10:53:16.52	261.80	45.07	-46.4	-47.9	19.6	0.00e+00	0	43	0	732954624	64	4258
2026-01-28 10:53:17.53	262.35	45.06	-46.4	-47.8	19.8	0.00e+00	0	43	0	735051776	64	4198
2026-01-28 10:53:18.53	262.89	45.05	-46.2	-47.6	20.0	0.00e+00	0	43	0	737148928	64	4106
2026-01-28 10:53:19.54	263.44	45.04	-46.1	-47.5	20.1	0.00e+00	0	43	0	739246080	64	4055
2026-01-28 10:53:20.55	263.99	45.02	-46.3	-47.7	19.9	0.00e+00	0	43	0	741343232	64	4184
2026-01-28 10:53:21.56	264.53	45.00	-46.8	-48.3	19.3	0.00e+00	0	43	0	742391808	64	4455
2026-01-28 10:53:22.57	265.08	44.98	-46.9	-48.5	19.2	0.00e+00	0	43	0	744488960	64	4549
2026-01-28 10:53:23.57	265.62	44.96	-46.6	-48.1	19.5	0.00e+00	0	43	0	746586112	64	4345
2026-01-28 10:53:24.58	266.17	44.93	-46.4	-47.8	19.8	0.00e+00	0	43	0	748683264	64	4230
2026-01-28 10:53:25.59	266.71	44.90	-46.1	-47.4	20.1	0.00e+00	0	43	0	749731840	64	4049
2026-01-28 10:53:26.59	267.25	44.87	-46.5	-48.0	19.6	0.00e+00	0	43	0	751828992	64	4300
2026-01-28 10:53:27.60	267.79	44.83	-47.0	-48.5	19.1	0.00e+00	0	43	0	753926144	64	4577
2026-01-28 10:53:28.61	268.33	44.80	-46.8	-48.3	19.3	0.00e+00	0	43	0	756023296	64	4458
2026-01-28 10:53:29.61	268.86	44.76	-46.7	-48.2	19.4	0.00e+00	0	43	0	758120448	64	4394
2026-01-28 10:53:30.62	269.40	44.71	-46.6	-48.1	19.5	0.00e+00	0	43	0	759169024	64	4369
2026-01-28 10:53:31.63	269.94	44.67	-46.8	-48.3	19.4	0.00e+00	0	43	0	761266176	64	4442
2026-01-28 10:53:32.64	270.47	44.62	-46.9	-48.5	18.9	0.00e+00	0	43	0	763363328	64	4555
2026-01-28 10:53:33.65	271.00	44.57	-46.7	-48.2	19.4	0.00e+00	0	43	0	765460480	64	4424
2026-01-28 10:53:34.65	271.53	44.51	-46.6	-48.0	19.5	0.00e+00	0	43	0	767557632	64	4320
2026-01-28 10:53:35.66	272.06	44.46	-46.9	-48.4	19.3	0.00e+00	0	43	0	769654784	64	4504
2026-01-28 10:53:36.67	272.59	44.40	-47.3	-48.9	18.8	0.00e+00	0	43	0	770703360	65	4522
2026-01-28 10:53:37.68	273.11	44.34	-47.9	-49.8	17.9	0.00e+00	0	43	0	772800512	66	4707
2026-01-28 10:53:38.69	273.64	44.27	-48.2	-50.2	17.5	0.00e+00	0	43	0	774897664	66	4956
2026-01-28 10:53:39.70	274.16	44.20	-47.9	-49.9	17.8	0.00e+00	0	43	0	776994816	67	4508
2026-01-28 10:53:40.71	274.68	44.14	-47.5	-49.3	18.3	0.00e+00	0	43	0	778043392	66	4469
2026-01-28 10:53:41.72	275.19	44.06	-47.6	-49.3	18.4	0.00e+00	0	43	0	780140544	66	4483
2026-01-28 10:53:42.72	275.70	43.99	-48.0	-49.9	17.7	0.00e+00	0	43	0	782237696	66	4804
2026-01-28 10:53:43.73	276.21	43.92	-48.3	-50.3	17.4	0.00e+00	0	43	0	784334848	67	4712
2026-01-28 10:53:44.74	276.72	43.84	-47.9	-49.7	18.0	0.00e+00	0	43	0	786432000	67	4402
2026-01-28 10:53:45.75	277.23	43.76	-47.2	-48.8	18.8	0.00e+00	0	43	0	788529152	66	4210
2026-01-28 10:53:46.76	277.73	43.67	-46.7	-48.1	19.4	0.00e+00	0	43	0	789577728	65	4131
2026-01-28 10:53:47.76	278.23	43.59	-46.4	-47.8	19.8	0.00e+00	0	43	0	791674880	64	4209
2026-01-28 10:53:48.77	278.73	43.50	-47.1	-48.6	19.1	0.00e+00	0	43	0	793772032	64	4638
2026-01-28 10:53:49.78	279.23	43.41	-47.5	-49.2	18.4	0.00e+00	0	43	0	795869184	65	4679
2026-01-28 10:53:50.79	279.72	43.32	-47.5	-49.2	18.4	0.00e+00	0	43	0	797966336	65	4688
2026-01-28 10:53:51.79	280.21	43.23	-47.0	-48.5	19.1	0.00e+00	0	43	0	799014912	65	4320
2026-01-28 10:53:52.80	280.70	43.13	-46.8	-48.2	19.4	0.00e+00	0	43	0	801112064	65	4189
2026-01-28 10:53:53.81	281.18	43.03	-46.8	-48.3	19.3	0.00e+00	0	43	0	803209216	65	4233
2026-01-28 10:53:54.82	281.66	42.93	-47.1	-48.7	18.9	0.00e+00	0	43	0	805306368	65	4428
2026-01-28 10:53:55.83	282.14	42.83	-47.4	-49.0	18.6	0.00e+00	0	43	0	806354944	65	4592
2026-01-28 10:53:56.84	282.62	42.73	-46.8	-48.3	19.3	0.00e+00	0	43	0	808452096	65	4209
2026-01-28 10:53:57.85	283.09	42.62	-46.0	-47.3	20.2	0.00e+00	0	43	0	810549248	64	4002
2026-01-28 10:53:58.85	283.56	42.52	-45.7	-46.9	20.8	0.00e+00	0	43	0	812646400	63	4048
2026-01-28 10:53:59.86	284.02	42.41	-46.1	-47.4	20.3	0.00e+00	0	43	0	814743552	63	4257
2026-01-28 10:54:00.86	284.48	42.30	-46.5	-47.9	19.9	0.00e+00	0	43	0	816840704	63	4498
2026-01-28 10:54:01.87	284.94	42.19	-46.3	-47.7	20.0	0.00e+00	0	43	0	817889280	63	4415
2026-01-28 10:54:02.88	285.40	42.07	-45.6	-46.8	20.9	0.00e+00	0	43	0	819986432	63	3969
2026-01-28 10:54:03.89	285.85	41.96	-45.2	-46.3	21.3	0.00e+00	0	43	0	822083584	62	3997
2026-01-28 10:54:04.90	286.31	41.84	-45.0	-46.1	21.5	0.00e+00	0	43	0	824180736	62	3908
2026-01-28 10:54:05.91	286.75	41.72	-45.5	-46.7	20.9	0.00e+00	0	43	0	826277888	61	4440
2026-01-28 10:54:06.91	287.19	41.60	-46.5	-47.9	19.9	0.00e+00	0	43	0	827326464	63	4533
2026-01-28 10:54:07.92	287.63	41.48	-46.0	-47.3	20.4	0.00e+00	0	43	0	829423616	63	4211
2026-01-28 10:54:08.93	288.07	41.36	-44.9	-46.0	21.6	0.00e+00	0	43	0	831520768	61	4093
2026-01-28 10:54:09.94	288.51	41.23	-44.5	-45.6	22.0	0.00e+00	0	43	0	833617920	60	4110
2026-01-28 10:54:10.95	288.94	41.11	-44.8	-45.9	21.7	0.00e+00	0	43	0	835715072	60	4281
2026-01-28 10:54:11.95	289.36	40.98	-45.5	-46.7	21.0	0.00e+00	0	43	0	836763648	61	4419
2026-01-28 10:54:12.96	289.79	40.85	-45.6	-46.8	20.9	0.00e+00	0	43	0	838860800	62	4227
2026-01-28 10:54:13.97	290.21	40.72	-45.2	-46.4	21.3	0.00e+00	0	43	0	840957952	62	4029
2026-01-28 10:54:14.98	290.63	40.59	-45.2	-46.4	21.4	0.00e+00	0	43	0	843055104	62	4010
2026-01-28 10:54:15.98	291.04	40.46	-44.8	-45.9	21.8	0.00e+00	0	43	0	845152256	61	4013
2026-01-28 10:54:16.99	291.45	40.33	-44.6	-45.7	22.0	0.00e+00	0	43	0	846200832	61	3949
2026-01-28 10:54:18.00	291.86	40.19	-45.0	-46.2	21.5	0.00e+00	0	43	0	848297984	61	4162
2026-01-28 10:54:19.01	292.26	40.06	-45.2	-46.4	21.3	0.00e+00	0	43	0	850395136	61	4256
2026-01-28 10:54:20.02	292.66	39.92	-45.1	-46.3	21.4	0.00e+00	0	43	0	852492288	61	4221
2026-01-28 10:54:21.02	293.05	39.79	-44.9	-46.1	21.6	0.00e+00	0	43	0	854589440	61	4101
2026-01-28 10:54:22.03	293.45	39.65	-44.9	-46.0	21.7	0.00e+00	0	43	0	855638016	61	4058
2026-01-28 10:54:23.04	293.84	39.51	-45.3	-46.4	21.2	0.00e+00	0	43	0	857735168	61	4287
2026-01-28 10:54:24.05	294.23	39.37	-45.8	-47.1	20.6	0.00e+00	0	43	0	859832320	62	4360
2026-01-28 10:54:25.06	294.61	39.23	-46.1	-47.4	20.4	0.00e+00	0	43	0	861929472	62	4512
2026-01-28 10:54:26.07	294.99	39.09	-45.8	-47.0	20.6	0.00e+00	0	43	0	864026624	62	4331
2026-01-28 10:54:27.07	295.37	38.95	-45.4	-46.6	21.0	0.00e+00	0	43	0	865075200	62	4128
2026-01-28 10:54:28.08	295.74	38.80	-45.4	-46.6	21.1	0.00e+00	0	43	0	867172352	62	4118
2026-01-28 10:54:29.09	296.12	38.66	-45.7	-47.0	20.8	0.00e+00	0	43	0	869269504	62	4302
2026-01-28 10:54:30.09	296.48	38.51	-45.6	-46.9	20.8	0.00e+00	0	43	0	871366656	62	4256
2026-01-28 10:54:31.10	296.85	38.37	-45.7	-46.9	20.9	0.00e+00	0	43	0	873463808	62	4281
2026-01-28 10:54:32.11	297.21	38.22	-45.8	-47.0	20.7	0.00e+00	0	43	0	874512384	62	4331
2026-01-28 10:54:33.12	297.57	38.08	-45.8	-47.1	20.7	0.00e+00	0	43	0	876609536	62	4345
2026-01-28 10:54:34.12	297.92	37.93	-45.9	-47.2	20.6	0.00e+00	0	43	0	878706688	62	4402
2026-01-28 10:54:35.13	298.27	37.78	-46.0	-47.3	20.5	0.00e+00	0	43	0	880803840	62	4464
2026-01-28 10:54:36.14	298.62	37.63	-46.0	-47.3	20.5	0.00e+00	0	43	0	882900992	62	4449
2026-01-28 10:54:37.14	298.96	37.49	-46.3	-47.6	20.2	0.00e+00	0	43	0	883949568	63	4388
2026-01-28 10:54:38.15	299.31	37.34	-46.5	-47.9	19.8	0.00e+00	0	43	0	886046720	63	4545
2026-01-28 10:54:39.15	299.64	37.19	-46.5	-47.9	19.7	0.00e+00	0	43	0	888143872	64	4253
2026-01-28 10:54:40.15	299.98	37.04	-46.2	-47.5	20.2	0.00e+00	0	43	0	890241024	64	4091
2026-01-28 10:54:41.16	300.31	36.89	-46.0	-47.3	20.3	0.00e+00	0	43	0	892338176	63	4228
2026-01-28 10:54:42.16	300.64	36.74	-45.4	-46.6	20.9	0.00e+00	0	43	0	893386752	62	4136
2026-01-28 10:54:43.17	300.97	36.59	-44.9	-46.0	21.5	0.00e+00	0	43	0	895483904	61	4096
2026-01-28 10:54:44.18	301.29	36.44	-44.8	-45.9	21.7	0.00e+00	0	43	0	897581056	61	4022
2026-01-28 10:54:45.19	301.61	36.29	-45.2	-46.3	20.9	0.00e+00	0	43	0	899678208	61	4237
2026-01-28 10:54:46.20	301.93	36.13	-45.9	-47.2	19.6	0.00e+00	0	43	0	901775360	62	4424
2026-01-28 10:54:47.21	302.25	35.98	-46.5	-47.9	18.5	0.00e+00	0	43	0	902823936	63	4536
2026-01-28 10:54:48.21	302.56	35.83	-46.4	-47.9	18.5	0.00e+00	0	43	0	904921088	63	4499
2026-01-28 10:54:49.22	302.87	35.68	-45.8	-47.0	20.1	0.00e+00	0	43	0	907018240	63	4087
2026-01-28 10:54:50.23	303.18	35.53	-45.5	-46.7	20.9	0.00e+00	0	43	0	909115392	63	3945
2026-01-28 10:54:51.24	303.48	35.37	-45.7	-46.9	20.3	0.00e+00	0	43	0	911212544	62	4278
2026-01-28 10:54:52.25	303.78	35.22	-46.3	-47.8	18.5	0.00e+00	0	43	0	912261120	63	4446
2026-01-28 10:54:53.25	304.08	35.07	-47.1	-48.7	18.4	0.00e+00	0	43	0	914358272	64	4671
2026-01-28 10:54:54.26	304.38	34.92	-47.3	-48.9	18.6	0.00e+00	0	43	0	916455424	65	4535
2026-01-28 10:54:55.26	304.67	34.76	-46.8	-48.4	19.1	0.00e+00	0	43	0	918552576	65	4253
2026-01-28 10:54:56.27	304.96	34.61	-46.4	-47.8	19.4	0.00e+00	0	43	0	920649728	64	4202
2026-01-28 10:54:57.28	305.25	34.46	-46.3	-47.7	19.2	0.00e+00	0	43	0	921698304	64	4172
2026-01-28 10:54:58.29	305.53	34.30	-46.2	-47.6	19.6	0.00e+00	0	43	0	923795456	64	4104
2026-01-28 10:54:59.30	305.81	34.15	-46.6	-48.1	19.5	0.00e+00	0	43	0	925892608	64	4347
2026-01-28 10:55:00.30	306.09	34.00	-47.4	-49.1	18.5	0.00e+00	0	43	0	927989760	65	4605
2026-01-28 10:55:01.31	306.37	33.84	-47.9	-49.8	17.8	0.00e+00	0	43	0	930086912	66	4730
2026-01-28 10:55:02.31	306.64	33.69	-47.4	-49.0	18.5	0.00e+00	0	43	0	931135488	66	4317
2026-01-28 10:55:03.33	306.92	33.54	-46.2	-47.6	19.8	0.00e+00	0	43	0	933232640	64	4121
2026-01-28 10:55:04.34	307.19	33.38	-45.6	-46.8	20.7	0.00e+00	0	43	0	935329792	63	3986
2026-01-28 10:55:05.34	307.45	33.23	-45.6	-46.8	20.7	0.00e+00	0	43	0	937426944	63	3996
2026-01-28 10:55:06.35	307.72	33.08	-45.7	-47.0	20.4	0.00e+00	0	43	0	939524096	62	4306
2026-01-28 10:55:07.36	307.98	32.93	-46.7	-48.2	19.2	0.00e+00	0	43	0	940572672	64	4424
2026-01-28 10:55:08.37	308.24	32.77	-48.1	-50.0	17.4	0.00e+00	0	43	0	942669824	66	4870
2026-01-28 10:55:09.38	308.50	32.62	-48.8	-51.1	16.6	0.00e+00	0	43	0	944766976	68	4885
2026-01-28 10:55:10.38	308.75	32.47	-48.3	-50.3	17.4	0.00e+00	0	43	0	946864128	68	4443
2026-01-28 10:55:11.39	309.01	32.32	-47.5	-49.2	18.3	0.00e+00	0	43	0	948961280	67	4169
2026-01-28 10:55:12.40	309.26	32.17	-47.0	-48.6	19.0	0.00e+00	0	43	0	950009856	66	4104
2026-01-28 10:55:13.40	309.50	32.01	-46.5	-47.9	19.7	0.00e+00	0	43	0	952107008	64	4243
2026-01-28 10:55:14.41	309.75	31.86	-46.3	-47.7	19.8	0.00e+00	0	43	0	954204160	64	4179
2026-01-28 10:55:15.42	309.99	31.71	-47.0	-48.6	19.0	0.00e+00	0	43	0	956301312	64	4600
2026-01-28 10:55:16.43	310.24	31.56	-48.1	-50.0	17.6	0.00e+00	0	43	0	958398464	66	4843
2026-01-28 10:55:17.44	310.48	31.41	-48.9	-51.2	16.5	0.00e+00	0	43	0	960495616	68	4959
2026-01-28 10:55:18.44	310.71	31.26	-48.7	-50.8	16.8	0.00e+00	0	43	0	961544192	68	4734
2026-01-28 10:55:19.45	310.95	31.11	-47.5	-49.2	18.3	0.00e+00	0	43	0	963641344	67	4181
2026-01-28 10:55:20.46	311.18	30.96	-46.3	-47.7	19.8	0.00e+00	0	43	0	965738496	64	4160
2026-01-28 10:55:21.47	311.41	30.81	-45.7	-46.9	20.6	0.00e+00	0	43	0	967835648	63	4032
2026-01-28 10:55:22.48	311.64	30.66	-45.4	-46.6	20.9	0.00e+00	0	43	0	968884224	62	4123
2026-01-28 10:55:23.49	311.87	30.51	-45.6	-46.8	20.7	0.00e+00	0	43	0	970981376	62	4240
2026-01-28 10:55:24.49	312.09	30.36	-46.4	-47.8	19.8	0.00e+00	0	43	0	973078528	63	4461
2026-01-28 10:55:25.50	312.31	30.21	-47.3	-49.0	18.5	0.00e+00	0	43	0	975175680	65	4593
2026-01-28 10:55:26.51	312.53	30.06	-48.1	-50.0	17.5	0.00e+00	0	43	0	977272832	66	4864
2026-01-28 10:55:27.52	312.75	29.92	-47.8	-49.7	17.8	0.00e+00	0	43	0	978321408	66	4662
2026-01-28 10:55:28.53	312.97	29.77	-47.2	-48.8	18.7	0.00e+00	0	43	0	980418560	66	4233
2026-01-28 10:55:29.53	313.18	29.62	-46.6	-48.1	19.4	0.00e+00	0	43	0	982515712	65	4125
2026-01-28 10:55:30.54	313.40	29.47	-46.2	-47.6	19.8	0.00e+00	0	43	0	984612864	64	4135
2026-01-28 10:55:31.55	313.61	29.33	-46.0	-47.4	20.1	0.00e+00	0	43	0	986710016	64	4010
2026-01-28 10:55:32.57	313.82	29.18	-45.6	-46.9	20.6	0.00e+00	0	43	0	988807168	63	4023
2026-01-28 10:55:33.57	314.03	29.04	-45.9	-47.1	20.4	0.00e+00	0	43	0	989855744	63	4145
2026-01-28 10:55:34.58	314.23	28.89	-46.7	-48.2	19.3	0.00e+00	0	43	0	991952896	64	4407
2026-01-28 10:55:35.58	314.43	28.75	-47.6	-49.3	18.2	0.00e+00	0	43	0	994050048	65	4747
2026-01-28 10:55:36.59	314.64	28.60	-48.0	-50.0	17.5	0.00e+00	0	43	0	996147200	66	4830
2026-01-28 10:55:37.59	314.83	28.46	-47.9	-49.8	17.6	0.00e+00	0	43	0	997195776	66	4718
2026-01-28 10:55:38.60	315.03	28.31	-47.3	-49.0	18.5	0.00e+00	0	43	0	999292928	66	4301
2026-01-28 10:55:39.61	315.23	28.17	-46.8	-48.4	19.0	0.00e+00	0	43	0	1001390080	65	4255
2026-01-28 10:55:40.61	315.42	28.03	-46.8	-48.3	19.2	0.00e+00	0	43	0	1003487232	65	4202
2026-01-28 10:55:41.62	315.62	27.88	-46.0	-47.3	20.0	0.00e+00	0	43	0	1005584384	64	3997
2026-01-28 10:55:42.63	315.81	27.74	-45.7	-47.0	20.4	0.00e+00	0	43	0	1006632960	63	4077
2026-01-28 10:55:43.64	316.00	27.60	-45.7	-47.0	20.5	0.00e+00	0	43	0	1008730112	63	4085
2026-01-28 10:55:44.65	316.19	27.46	-46.3	-47.7	19.8	0.00e+00	0	43	0	1010827264	63	4414
2026-01-28 10:55:45.65	316.37	27.32	-46.7	-48.2	19.3	0.00e+00	0	43	0	1012924416	63	4672
2026-01-28 10:55:46.66	316.56	27.18	-47.0	-48.6	18.8	0.00e+00	0	43	0	1015021568	64	4641
2026-01-28 10:55:47.67	316.74	27.04	-46.9	-48.5	18.9	0.00e+00	0	43	0	1017118720	64	4574
2026-01-28 10:55:48.68	316.92	26.90	-46.7	-48.3	19.1	0.00e+00	0	43	0	1018167296	64	4461
2026-01-28 10:55:49.69	317.10	26.76	-46.6	-48.1	19.3	0.00e+00	0	43	0	1020264448	64	4366
2026-01-28 10:55:50.70	317.28	26.62	-46.0	-47.4	19.9	0.00e+00	0	43	0	1022361600	64	4037
2026-01-28 10:55:51.71	317.46	26.48	-46.0	-47.4	20.1	0.00e+00	0	43	0	1024458752	63	4271
2026-01-28 10:55:52.71	317.64	26.34	-45.5	-46.8	20.6	0.00e+00	0	43	0	1025507328	63	3966
2026-01-28 10:55:53.72	317.81	26.20	-45.1	-46.3	21.0	0.00e+00	0	43	0	1027604480	62	4002
2026-01-28 10:55:54.73	317.98	26.07	-44.9	-46.1	21.2	0.00e+00	0	43	0	1029701632	61	4126
2026-01-28 10:55:55.74	318.16	25.93	-45.2	-46.4	20.9	0.00e+00	0	43	0	1031798784	61	4286
2026-01-28 10:55:56.74	318.32	25.79	-45.3	-46.5	20.8	0.00e+00	0	43	0	1033895936	61	4337
2026-01-28 10:55:57.75	318.49	25.66	-45.6	-46.9	20.5	0.00e+00	0	43	0	1035993088	61	4535
2026-01-28 10:55:58.76	318.66	25.52	-45.9	-47.3	20.2	0.00e+00	0	43	0	1037041664	62	4451
2026-01-28 10:55:59.77	318.83	25.39	-46.2	-47.6	19.8	0.00e+00	0	43	0	1039138816	62	4647
2026-01-28 10:56:00.77	318.99	25.25	-46.4	-47.9	19.6	0.00e+00	0	43	0	1041235968	63	4495
2026-01-28 10:56:01.78	319.15	25.12	-46.3	-47.8	19.6	0.00e+00	0	43	0	1043333120	63	4464
2026-01-28 10:56:02.79	319.32	24.98	-46.2	-47.6	19.8	0.00e+00	0	43	0	1045430272	63	4367
2026-01-28 10:56:03.80	319.48	24.85	-46.1	-47.5	19.9	0.00e+00	0	43	0	1046478848	63	4330
2026-01-28 10:56:04.81	319.64	24.72	-45.9	-47.2	20.2	0.00e+00	0	43	0	1048576000	63	4168
2026-01-28 10:56:05.81	319.79	24.59	-45.6	-46.9	20.5	0.00e+00	0	43	0	1050673152	63	4016
2026-01-28 10:56:06.82	319.95	24.45	-45.6	-46.8	20.5	0.00e+00	0	43	0	1052770304	63	4000
2026-01-28 10:56:07.83	320.10	24.32	-45.3	-46.6	20.8	0.00e+00	0	43	0	1053818880	62	4102
2026-01-28 10:56:08.84	320.26	24.19	-45.1	-46.3	21.0	0.00e+00	0	43	0	1055916032	62	4001
2026-01-28 10:56:09.85	320.41	24.06	-45.3	-46.5	20.8	0.00e+00	0	43	0	1058013184	62	4081
2026-01-28 10:56:10.85	320.56	23.93	-45.3	-46.5	20.8	0.00e+00	0	43	0	1060110336	62	4074
2026-01-28 10:56:11.86	320.71	23.80	-45.4	-46.7	20.7	0.00e+00	0	43	0	1062207488	62	4163
2026-01-28 10:56:12.86	320.86	23.67	-45.5	-46.8	20.5	0.00e+00	0	43	0	1064304640	62	4218
2026-01-28 10:56:13.87	321.01	23.54	-45.6	-46.9	20.4	0.00e+00	0	43	0	1065353216	62	4247
2026-01-28 10:56:14.88	321.16	23.42	-45.8	-47.1	20.2	0.00e+00	0	43	0	1067450368	62	4362
2026-01-28 10:56:15.88	321.30	23.29	-45.7	-47.0	20.3	0.00e+00	0	43	0	1069547520	62	4326
2026-01-28 10:56:16.89	321.45	23.16	-45.6	-46.9	20.4	0.00e+00	0	43	0	1071644672	62	4259
2026-01-28 10:56:17.90	321.59	23.03	-45.5	-46.8	20.5	0.00e+00	0	43	0	1073741824	62	4214
2026-01-28 10:56:18.91	321.73	22.91	-45.5	-46.8	20.5	0.00e+00	0	43	0	1074790400	62	4204
2026-01-28 10:56:19.92	321.87	22.78	-45.5	-46.8	20.5	0.00e+00	0	43	0	1076887552	62	4225
2026-01-28 10:56:20.92	322.01	22.66	-45.4	-46.6	20.6	0.00e+00	0	43	0	1078984704	62	4143
2026-01-28 10:56:21.93	322.15	22.53	-45.5	-46.8	20.6	0.00e+00	0	43	0	1081081856	62	4203
2026-01-28 10:56:22.94	322.29	22.41	-45.5	-46.8	20.5	0.00e+00	0	43	0	1083179008	62	4202
2026-01-28 10:56:23.94	322.43	22.28	-45.5	-46.7	20.5	0.00e+00	0	43	0	1084227584	62	4190
2026-01-28 10:56:24.95	322.56	22.16	-45.5	-46.8	20.5	0.00e+00	0	43	0	1086324736	62	4198
2026-01-28 10:56:25.96	322.70	22.04	-45.5	-46.8	20.4	0.00e+00	0	43	0	1088421888	62	4240
2026-01-28 10:56:26.96	322.83	21.91	-45.7	-47.0	20.2	0.00e+00	0	43	0	1090519040	62	4314
2026-01-28 10:56:27.97	322.96	21.79	-45.7	-47.0	20.2	0.00e+00	0	43	0	1092616192	62	4336
2026-01-28 10:56:28.98	323.09	21.67	-45.9	-47.3	20.0	0.00e+00	0	43	0	1093664768	62	4471
2026-01-28 10:56:29.99	323.23	21.55	-46.1	-47.5	19.8	0.00e+00	0	43	0	1095761920	62	4575
2026-01-28 10:56:30.99	323.35	21.43	-46.2	-47.7	19.6	0.00e+00	0	43	0	1097859072	63	4417
2026-01-28 10:56:31.99	323.48	21.31	-46.4	-47.9	19.4	0.00e+00	0	43	0	1099956224	63	4525
2026-01-28 10:56:33.00	323.61	21.19	-46.4	-47.9	19.4	0.00e+00	0	43	0	1102053376	63	4494
2026-01-28 10:56:34.00	323.74	21.07	-46.4	-47.9	19.3	0.00e+00	0	43	0	1103101952	63	4529
2026-01-28 10:56:35.01	323.86	20.95	-46.5	-48.0	19.2	0.00e+00	0	43	0	1105199104	63	4596
2026-01-28 10:56:36.01	323.99	20.83	-46.3	-47.8	19.4	0.00e+00	0	43	0	1107296256	63	4462
2026-01-28 10:56:37.02	324.11	20.71	-46.3	-47.7	19.5	0.00e+00	0	43	0	1109393408	63	4424
2026-01-28 10:56:38.03	324.23	20.59	-46.1	-47.6	19.7	0.00e+00	0	43	0	1110441984	63	4345
2026-01-28 10:56:39.04	324.36	20.47	-46.0	-47.4	19.8	0.00e+00	0	43	0	1112539136	63	4262
2026-01-28 10:56:40.05	324.48	20.36	-46.0	-47.4	19.8	0.00e+00	0	43	0	1114636288	63	4288
2026-01-28 10:56:41.05	324.60	20.24	-45.9	-47.3	19.9	0.00e+00	0	43	0	1116733440	63	4236
2026-01-28 10:56:42.06	324.72	20.12	-45.8	-47.2	20.0	0.00e+00	0	43	0	1118830592	63	4177
2026-01-28 10:56:43.07	324.84	20.01	-45.9	-47.3	19.9	0.00e+00	0	43	0	1120927744	63	4220
2026-01-28 10:56:44.08	324.95	19.89	-45.9	-47.3	19.9	0.00e+00	0	43	0	1121976320	63	4238
2026-01-28 10:56:45.09	325.07	19.78	-46.0	-47.5	19.7	0.00e+00	0	43	0	1124073472	63	4300
2026-01-28 10:56:46.10	325.19	19.66	-46.2	-47.7	19.6	0.00e+00	0	43	0	1126170624	63	4397
2026-01-28 10:56:47.10	325.30	19.55	-46.3	-47.8	19.4	0.00e+00	0	43	0	1128267776	63	4464
2026-01-28 10:56:48.12	325.42	19.43	-46.3	-47.9	19.2	0.00e+00	0	43	0	1130364928	63	4495
2026-01-28 10:56:49.13	325.53	19.32	-46.4	-47.9	19.3	0.00e+00	0	43	0	1131413504	63	4519
2026-01-28 10:56:50.13	325.64	19.21	-46.5	-48.0	19.2	0.00e+00	0	42	0	1133510656	63	4565
2026-01-28 10:56:51.14	325.76	19.09	-46.4	-47.9	19.3	0.00e+00	0	43	0	1135607808	63	4502
2026-01-28 10:56:52.15	325.87	18.98	-46.1	-47.6	19.6	0.00e+00	0	43	0	1137704960	63	4362
2026-01-28 10:56:53.16	325.98	18.87	-46.2	-47.6	19.5	0.00e+00	0	43	0	1139802112	63	4377
2026-01-28 10:56:54.17	326.09	18.76	-46.0	-47.5	19.7	0.00e+00	0	43	0	1140850688	63	4304
2026-01-28 10:56:55.17	326.20	18.65	-45.9	-47.3	19.8	0.00e+00	0	43	0	1142947840	63	4210
2026-01-28 10:56:56.18	326.31	18.54	-45.9	-47.4	19.8	0.00e+00	0	43	0	1145044992	63	4246
2026-01-28 10:56:57.19	326.41	18.43	-45.8	-47.1	20.0	0.00e+00	0	43	0	1147142144	63	4137
2026-01-28 10:56:58.20	326.52	18.32	-45.7	-47.1	20.1	0.00e+00	0	43	0	1149239296	63	4103
2026-01-28 10:56:59.20	326.63	18.21	-45.7	-47.1	20.1	0.00e+00	0	43	0	1150287872	63	4099
2026-01-28 10:57:00.21	326.73	18.10	-45.6	-46.9	20.1	0.00e+00	0	43	0	1152385024	63	4049
2026-01-28 10:57:01.22	326.84	17.99	-45.7	-47.0	20.1	0.00e+00	0	43	0	1154482176	63	4082
2026-01-28 10:57:02.23	326.94	17.88	-45.7	-47.1	20.0	0.00e+00	0	43	0	1156579328	63	4105
2026-01-28 10:57:03.24	327.04	17.77	-45.9	-47.3	19.8	0.00e+00	0	43	0	1158676480	63	4219
2026-01-28 10:57:04.25	327.15	17.67	-46.0	-47.4	19.7	0.00e+00	0	43	0	1160773632	63	4274
2026-01-28 10:57:05.26	327.25	17.56	-46.2	-47.6	19.5	0.00e+00	0	43	0	1161822208	63	4389
2026-01-28 10:57:06.27	327.35	17.45	-46.4	-48.0	19.1	0.00e+00	0	43	0	1163919360	63	4566
2026-01-28 10:57:07.28	327.45	17.35	-46.5	-48.1	19.0	0.00e+00	0	43	0	1166016512	63	4614
2026-01-28 10:57:08.29	327.55	17.24	-46.7	-48.3	18.8	0.00e+00	0	43	0	1168113664	63	4734
2026-01-28 10:57:09.29	327.65	17.14	-46.6	-48.2	18.7	0.00e+00	0	43	0	1169162240	64	4426
2026-01-28 10:57:10.30	327.75	17.03	-46.7	-48.4	18.6	0.00e+00	0	43	0	1171259392	64	4505
2026-01-28 10:57:11.31	327.84	16.92	-46.7	-48.4	18.6	0.00e+00	0	43	0	1173356544	64	4496
2026-01-28 10:57:12.31	327.94	16.82	-46.8	-48.4	18.5	0.00e+00	0	43	0	1175453696	64	4544
2026-01-28 10:57:13.32	328.04	16.72	-46.8	-48.5	18.5	0.00e+00	0	43	0	1177550848	64	4555
2026-01-28 10:57:14.33	328.13	16.61	-46.8	-48.5	18.5	0.00e+00	0	43	0	1178599424	64	4565
2026-01-28 10:57:15.33	328.23	16.51	-46.8	-48.5	18.5	0.00e+00	0	43	0	1180696576	64	4549
2026-01-28 10:57:16.34	328.32	16.41	-46.8	-48.5	18.5	0.00e+00	0	43	0	1182793728	64	4578
2026-01-28 10:57:17.35	328.42	16.30	-46.6	-48.2	18.8	0.00e+00	0	43	0	1184890880	64	4411
2026-01-28 10:57:18.36	328.51	16.20	-46.6	-48.2	18.7	0.00e+00	0	43	0	1186988032	64	4431
2026-01-28 10:57:19.37	328.60	16.10	-46.5	-48.1	18.8	0.00e+00	0	43	0	1189085184	64	4378
2026-01-28 10:57:20.37	328.70	16.00	-46.5	-48.1	18.8	0.00e+00	0	43	0	1190133760	64	4387
2026-01-28 10:57:21.38	328.79	15.90	-46.4	-48.0	18.9	0.00e+00	0	43	0	1192230912	64	4340
2026-01-28 10:57:22.39	328.88	15.80	-46.3	-47.8	19.1	0.00e+00	0	43	0	1194328064	64	4240
2026-01-28 10:57:23.40	328.97	15.70	-46.3	-47.8	19.1	0.00e+00	0	43	0	1196425216	64	4219
2026-01-28 10:57:24.40	329.06	15.60	-46.2	-47.7	19.2	0.00e+00	0	43	0	1197473792	64	4185
2026-01-28 10:57:25.41	329.15	15.50	-46.2	-47.7	19.2	0.00e+00	0	43	0	1199570944	64	4191
2026-01-28 10:57:26.42	329.24	15.40	-46.2	-47.7	19.2	0.00e+00	0	43	0	1201668096	64	4165
2026-01-28 10:57:27.43	329.33	15.30	-46.1	-47.6	19.3	0.00e+00	0	43	0	1203765248	64	4139
2026-01-28 10:57:28.43	329.41	15.20	-46.1	-47.6	19.3	0.00e+00	0	43	0	1205862400	64	4101
2026-01-28 10:57:29.44	329.50	15.10	-46.0	-47.5	19.3	0.00e+00	0	43	0	1207959552	64	4089
2026-01-28 10:57:30.45	329.59	15.00	-46.0	-47.5	19.3	0.00e+00	0	43	0	1209008128	64	4086
2026-01-28 10:57:31.45	329.67	14.91	-46.0	-47.5	19.4	0.00e+00	0	43	0	1211105280	64	4073
2026-01-28 10:57:32.46	329.76	14.81	-46.0	-47.5	19.4	0.00e+00	0	43	0	1213202432	64	4075
2026-01-28 10:57:33.46	329.84	14.71	-46.1	-47.6	19.3	0.00e+00	0	43	0	1215299584	64	4123
2026-01-28 10:57:34.47	329.93	14.62	-46.2	-47.7	19.1	0.00e+00	0	43	0	1217396736	64	4188
2026-01-28 10:57:35.48	330.01	14.52	-46.2	-47.7	19.1	0.00e+00	0	43	0	1218445312	64	4176
2026-01-28 10:57:36.48	330.09	14.43	-46.2	-47.8	19.0	0.00e+00	0	43	0	1220542464	64	4199
2026-01-28 10:57:37.49	330.18	14.33	-46.3	-47.8	19.0	0.00e+00	0	43	0	1222639616	64	4227
2026-01-28 10:57:38.50	330.26	14.23	-46.4	-48.0	18.9	0.00e+00	0	43	0	1224736768	64	4299
2026-01-28 10:57:39.50	330.34	14.14	-46.4	-48.0	18.8	0.00e+00	0	43	0	1225785344	64	4315
2026-01-28 10:57:40.51	330.42	14.04	-46.5	-48.1	18.8	0.00e+00	0	43	0	1227882496	64	4349
2026-01-28 10:57:41.52	330.50	13.95	-46.4	-48.0	18.8	0.00e+00	0	43	0	1229979648	64	4305
2026-01-28 10:57:42.52	330.58	13.86	-46.5	-48.1	18.7	0.00e+00	0	43	0	1232076800	64	4383
2026-01-28 10:57:43.53	330.66	13.76	-46.5	-48.2	18.6	0.00e+00	0	43	0	1234173952	64	4410
