passes_logs/2026/01/28/R3.2S_Murmansk/R3.2S_Murmansk__20260128_090921_KANOPUS-V_5_rec.log

#Pass ID: 20260128_090921_KANOPUS-V 5
#Satellite: KANOPUS-V 5
#Configuration: KANOPUS-V_8320
#almurnet v.1.7.20251203
#Start time: 2026-01-28 09:09:20

#Version: 2.2.20231116
#Station: R3.2S_Murmansk
#Location: 33.079688 lon 68.888172 lat
#TLE: 1 43876U 18111A   26027.84700365  .00004960  00000+0  21036-3 0  9993
#TLE: 2 43876  97.3676 296.1288 0001839  89.0677 271.0771 15.23563804393425

#Time	Az	El	Level	Level2	SNR	BER	BlckErr	Temp	State	Recorded	gain1	gain2
2026-01-28 09:09:20.72	199.27	1.98	-53.2	-62.1	3.8	7.47e-01	0	41	0	0	78	9726
2026-01-28 09:09:21.73	199.35	2.04	-53.2	-62.1	3.8	7.45e-01	0	41	104	0	77	10337
2026-01-28 09:09:22.73	199.42	2.11	-53.2	-62.1	3.8	7.44e-01	0	41	104	0	77	10322
2026-01-28 09:09:23.74	199.50	2.17	-53.2	-62.1	3.8	7.46e-01	0	41	104	0	77	10311
2026-01-28 09:09:24.75	199.58	2.24	-53.2	-62.0	3.8	7.46e-01	0	41	104	0	77	10280
2026-01-28 09:09:25.76	199.66	2.30	-53.2	-62.1	3.8	7.45e-01	0	41	104	0	77	10324
2026-01-28 09:09:26.77	199.74	2.37	-53.2	-62.0	3.8	7.46e-01	0	41	104	0	77	10284
2026-01-28 09:09:27.78	199.82	2.43	-53.2	-62.0	3.8	7.46e-01	0	42	104	0	77	10244
2026-01-28 09:09:28.78	199.90	2.50	-53.2	-62.0	3.8	7.45e-01	0	41	104	0	77	10279
2026-01-28 09:09:29.79	199.98	2.56	-53.2	-62.0	3.8	7.42e-01	0	41	104	0	77	10283
2026-01-28 09:09:30.80	200.06	2.63	-53.2	-62.0	3.8	7.46e-01	0	41	104	0	77	10281
2026-01-28 09:09:31.81	200.14	2.70	-53.2	-62.0	3.8	7.46e-01	0	42	104	0	77	10259
2026-01-28 09:09:32.81	200.22	2.76	-53.2	-62.0	3.8	7.44e-01	0	42	104	0	77	10281
2026-01-28 09:09:33.82	200.30	2.83	-53.2	-62.0	3.8	7.46e-01	0	41	104	0	77	10276
2026-01-28 09:09:34.83	200.39	2.90	-53.2	-62.0	3.8	7.46e-01	0	42	104	0	77	10267
2026-01-28 09:09:35.84	200.47	2.96	-53.2	-62.0	3.8	7.46e-01	0	42	104	0	77	10265
2026-01-28 09:09:36.85	200.56	3.03	-53.2	-62.0	3.8	7.45e-01	0	42	104	0	77	10216
2026-01-28 09:09:37.85	200.64	3.10	-53.2	-62.0	3.8	7.46e-01	0	42	104	0	77	10266
2026-01-28 09:09:38.86	200.72	3.17	-53.2	-62.1	3.8	7.47e-01	0	42	104	0	77	10312
2026-01-28 09:09:39.87	200.81	3.23	-53.2	-62.0	3.8	7.44e-01	0	42	104	0	77	10246
2026-01-28 09:09:40.87	200.89	3.30	-53.2	-62.0	3.8	7.45e-01	0	42	104	0	77	10235
2026-01-28 09:09:41.88	200.98	3.37	-53.2	-62.0	3.8	7.45e-01	0	42	104	0	77	10176
2026-01-28 09:09:42.89	201.07	3.44	-53.2	-61.9	3.8	7.44e-01	0	42	104	0	77	10128
2026-01-28 09:09:43.90	201.15	3.51	-53.2	-61.9	3.8	7.46e-01	0	42	104	0	77	10141
2026-01-28 09:09:44.91	201.24	3.58	-53.2	-62.0	3.8	7.45e-01	0	42	104	0	77	10198
2026-01-28 09:09:45.91	201.33	3.64	-53.2	-62.0	3.8	7.45e-01	0	42	104	0	77	10232
2026-01-28 09:09:46.92	201.42	3.71	-53.2	-62.0	3.8	7.45e-01	0	42	104	0	77	10220
2026-01-28 09:09:47.93	201.51	3.78	-53.2	-62.0	3.8	7.45e-01	0	42	104	0	77	10221
2026-01-28 09:09:48.94	201.60	3.85	-53.2	-61.9	3.8	7.45e-01	0	42	104	0	77	10170
2026-01-28 09:09:49.94	201.69	3.92	-53.2	-61.9	3.8	7.43e-01	0	42	104	0	77	10168
2026-01-28 09:09:50.95	201.78	3.99	-53.2	-62.0	3.8	7.46e-01	0	42	104	0	77	10223
2026-01-28 09:09:51.96	201.87	4.06	-53.2	-62.0	3.8	7.45e-01	0	42	104	0	77	10233
2026-01-28 09:09:52.97	201.96	4.13	-53.1	-61.7	3.8	7.43e-01	0	42	104	0	77	9854
2026-01-28 09:09:53.98	202.05	4.20	-52.9	-61.1	3.8	7.44e-01	0	42	104	0	77	9238
2026-01-28 09:09:54.99	202.15	4.27	-52.8	-60.4	3.8	7.43e-01	0	42	104	0	77	8499
2026-01-28 09:09:55.99	202.24	4.34	-52.6	-59.8	3.8	7.42e-01	0	42	104	0	77	7926
2026-01-28 09:09:57.00	202.33	4.41	-52.6	-59.9	3.8	7.43e-01	0	42	104	0	77	8002
2026-01-28 09:09:58.01	202.43	4.49	-52.7	-60.1	3.8	7.45e-01	0	42	104	0	77	8210
2026-01-28 09:09:59.02	202.52	4.56	-52.5	-59.6	3.9	7.44e-01	0	42	104	0	77	7780
2026-01-28 09:10:00.02	202.62	4.63	-51.9	-57.8	4.0	7.39e-01	0	42	104	0	75	7090
2026-01-28 09:10:01.03	202.72	4.70	-50.7	-55.3	5.9	6.68e-01	0	42	0	8388608	73	5952
2026-01-28 09:10:02.04	202.81	4.77	-49.5	-53.2	7.8	6.04e-01	0	42	0	25165824	71	5225
2026-01-28 09:10:03.05	202.91	4.84	-48.0	-51.0	9.8	5.92e-01	0	42	0	39845888	68	4842
2026-01-28 09:10:04.06	203.01	4.92	-47.4	-50.2	10.7	5.86e-01	0	42	0	54525952	66	4977
2026-01-28 09:10:05.07	203.11	4.99	-47.0	-49.8	11.1	5.83e-01	0	42	0	69206016	66	4720
2026-01-28 09:10:06.08	203.21	5.06	-46.9	-49.6	11.3	5.82e-01	0	42	0	85983232	65	4888
2026-01-28 09:10:07.09	203.31	5.14	-53.7	-62.5	3.8	7.44e-01	0	42	104	92274688	77	10893
2026-01-28 09:10:08.09	203.41	5.21	-48.9	-52.3	5.1	7.19e-01	0	42	104	92274688	69	5289
2026-01-28 09:10:09.10	203.51	5.28	-50.5	-54.7	6.3	6.66e-01	0	42	0	98566144	71	6257
2026-01-28 09:10:10.11	203.61	5.36	-52.4	-59.5	3.9	7.40e-01	0	42	0	115343360	75	8629
2026-01-28 09:10:11.12	203.71	5.43	-46.2	-48.7	12.1	5.99e-01	0	42	0	119537664	62	5261
2026-01-28 09:10:12.12	203.81	5.50	-45.5	-48.0	12.8	6.01e-01	0	42	0	134217728	62	4856
2026-01-28 09:10:13.13	203.92	5.58	-45.5	-47.9	12.9	5.99e-01	0	42	0	150994944	62	4801
2026-01-28 09:10:14.14	204.02	5.65	-45.1	-47.5	13.3	5.97e-01	0	42	0	167772160	62	4593
2026-01-28 09:10:15.15	204.13	5.73	-45.1	-47.5	13.3	5.99e-01	0	42	0	182452224	62	4583
2026-01-28 09:10:16.16	204.23	5.80	-45.2	-47.6	13.3	5.94e-01	0	43	0	197132288	62	4623
2026-01-28 09:10:17.17	204.34	5.88	-45.2	-47.7	13.2	5.99e-01	0	42	0	213909504	62	4656
2026-01-28 09:10:18.18	204.45	5.95	-45.2	-47.7	13.2	5.98e-01	0	42	0	228589568	62	4677
2026-01-28 09:10:19.19	204.55	6.03	-45.0	-47.4	13.4	5.98e-01	0	42	0	243269632	62	4535
2026-01-28 09:10:20.19	204.66	6.10	-45.3	-47.8	13.1	5.98e-01	0	42	0	260046848	62	4723
2026-01-28 09:10:21.20	204.77	6.18	-45.0	-47.5	13.4	5.97e-01	0	42	0	274726912	62	4549
2026-01-28 09:10:22.21	204.88	6.26	-45.1	-47.6	13.3	5.98e-01	0	42	0	289406976	62	4608
2026-01-28 09:10:23.21	204.99	6.33	-44.7	-47.1	13.7	5.98e-01	0	42	0	306184192	61	4623
2026-01-28 09:10:24.22	205.10	6.41	-44.7	-47.1	13.7	5.97e-01	0	43	0	320864256	61	4627
2026-01-28 09:10:25.23	205.21	6.49	-44.7	-47.1	13.7	5.99e-01	0	42	0	337641472	61	4636
2026-01-28 09:10:26.24	205.33	6.56	-44.8	-47.2	13.7	5.96e-01	0	43	0	352321536	61	4661
2026-01-28 09:10:27.24	205.44	6.64	-44.7	-47.1	13.8	5.94e-01	0	43	0	369098752	61	4610
2026-01-28 09:10:28.25	205.55	6.72	-44.6	-47.0	13.9	5.98e-01	0	43	0	383778816	61	4580
2026-01-28 09:10:29.26	205.67	6.80	-44.4	-46.8	14.1	6.00e-01	0	42	0	398458880	60	4710
2026-01-28 09:10:30.27	205.78	6.88	-44.5	-46.8	14.0	5.99e-01	0	43	0	415236096	60	4736
2026-01-28 09:10:31.27	205.90	6.95	-44.3	-46.6	14.2	5.95e-01	0	42	0	429916160	60	4623
2026-01-28 09:10:32.28	206.02	7.03	-44.3	-46.6	14.2	5.97e-01	0	42	0	444596224	60	4637
2026-01-28 09:10:33.29	206.13	7.11	-44.4	-46.7	14.1	6.01e-01	0	43	0	461373440	60	4689
2026-01-28 09:10:34.30	206.25	7.19	-44.3	-46.6	14.2	5.96e-01	0	43	0	476053504	60	4639
2026-01-28 09:10:35.31	206.37	7.27	-44.3	-46.6	14.3	5.96e-01	0	43	0	490733568	60	4617
2026-01-28 09:10:36.32	206.49	7.35	-44.2	-46.5	14.4	5.96e-01	0	43	0	507510784	60	4550
2026-01-28 09:10:37.32	206.61	7.43	-44.3	-46.5	14.3	5.91e-01	0	43	0	522190848	60	4574
2026-01-28 09:10:38.33	206.73	7.51	-44.1	-46.4	14.5	5.99e-01	0	43	0	538968064	60	4517
2026-01-28 09:10:39.34	206.86	7.59	-44.2	-46.5	14.4	5.98e-01	0	43	0	553648128	60	4558
2026-01-28 09:10:40.35	206.98	7.67	-44.1	-46.4	14.5	5.98e-01	0	43	0	570425344	60	4509
2026-01-28 09:10:41.35	207.10	7.75	-44.2	-46.5	14.3	5.96e-01	0	43	0	585105408	60	4574
2026-01-28 09:10:42.37	207.23	7.83	-44.1	-46.4	14.5	5.96e-01	0	43	0	599785472	60	4502
2026-01-28 09:10:43.37	207.35	7.91	-44.1	-46.4	14.5	5.99e-01	0	43	0	616562688	59	4783
2026-01-28 09:10:44.38	207.48	8.00	-44.3	-46.6	14.3	5.95e-01	0	43	0	631242752	59	4875
2026-01-28 09:10:45.39	207.61	8.08	-44.2	-46.4	14.5	5.98e-01	0	43	0	645922816	59	4801
2026-01-28 09:10:46.40	207.74	8.16	-44.1	-46.3	14.6	5.94e-01	0	43	0	662700032	59	4749
2026-01-28 09:10:47.41	207.87	8.24	-44.2	-46.5	14.4	5.99e-01	0	43	0	677380096	59	4849
2026-01-28 09:10:48.42	208.00	8.33	-44.1	-46.3	14.5	5.98e-01	0	43	0	692060160	59	4756
2026-01-28 09:10:49.42	208.13	8.41	-44.0	-46.3	14.6	5.95e-01	0	43	0	708837376	59	4721
2026-01-28 09:10:50.43	208.26	8.49	-44.0	-46.3	14.6	5.99e-01	0	43	0	725614592	59	4715
2026-01-28 09:10:51.44	208.39	8.58	-43.9	-46.2	14.7	5.99e-01	0	43	0	740294656	59	4661
2026-01-28 09:10:52.44	208.53	8.66	-44.0	-46.2	14.7	6.00e-01	0	43	0	754974720	59	4703
2026-01-28 09:10:53.45	208.66	8.74	-44.1	-46.3	14.6	6.00e-01	0	43	0	771751936	59	4728
2026-01-28 09:10:54.45	208.79	8.83	-44.0	-46.2	14.7	5.97e-01	0	43	0	786432000	59	4669
2026-01-28 09:10:55.46	208.93	8.91	-43.9	-46.2	14.7	6.03e-01	0	43	0	801112064	59	4654
2026-01-28 09:10:56.46	209.07	9.00	-43.9	-46.1	14.8	6.05e-01	0	43	0	817889280	59	4616
2026-01-28 09:10:57.47	209.21	9.08	-43.9	-46.1	14.8	6.01e-01	0	43	0	832569344	59	4617
2026-01-28 09:10:58.48	209.35	9.17	-43.9	-46.1	14.8	6.03e-01	0	43	0	847249408	59	4642
2026-01-28 09:10:59.49	209.49	9.25	-44.0	-46.2	14.7	6.02e-01	0	43	0	861929472	59	4674
2026-01-28 09:11:00.50	209.63	9.34	-43.9	-46.1	14.8	6.01e-01	0	43	0	878706688	59	4620
2026-01-28 09:11:01.50	209.77	9.42	-43.8	-46.0	15.0	6.03e-01	0	43	0	893386752	59	4546
2026-01-28 09:11:02.51	209.91	9.51	-43.8	-45.9	15.0	6.02e-01	0	43	0	908066816	59	4537
2026-01-28 09:11:03.51	210.06	9.60	-43.8	-45.9	15.0	6.07e-01	0	43	0	924844032	59	4508
2026-01-28 09:11:04.52	210.20	9.68	-43.8	-45.9	15.0	6.03e-01	0	43	0	939524096	59	4537
2026-01-28 09:11:05.53	210.35	9.77	-43.8	-45.9	15.0	6.04e-01	0	43	0	956301312	59	4532
2026-01-28 09:11:06.53	210.50	9.86	-43.8	-45.8	15.1	6.02e-01	0	43	0	970981376	59	4481
2026-01-28 09:11:07.54	210.65	9.95	-43.6	-45.6	15.3	6.03e-01	0	43	0	987758592	59	4372
2026-01-28 09:11:08.55	210.80	10.03	-43.6	-45.7	15.3	6.04e-01	0	43	0	1002438656	59	4393
2026-01-28 09:11:09.56	210.95	10.12	-43.7	-45.7	15.2	6.06e-01	0	43	0	1017118720	59	4425
2026-01-28 09:11:10.57	211.10	10.21	-43.7	-45.7	15.2	6.05e-01	0	43	0	1033895936	59	4428
2026-01-28 09:11:11.58	211.25	10.30	-43.6	-45.7	15.2	6.07e-01	0	43	0	1048576000	59	4404
2026-01-28 09:11:12.58	211.40	10.39	-43.6	-45.6	15.3	6.05e-01	0	43	0	1063256064	59	4387
2026-01-28 09:11:13.59	211.56	10.48	-43.6	-45.7	15.2	6.03e-01	0	43	0	1080033280	59	4413
2026-01-28 09:11:14.60	211.72	10.57	-43.6	-45.7	15.2	6.02e-01	0	43	0	1094713344	59	4439
2026-01-28 09:11:15.61	211.88	10.66	-43.6	-45.8	15.2	6.04e-01	0	43	0	1109393408	59	4442
2026-01-28 09:11:16.62	212.03	10.75	-43.5	-45.6	15.3	6.01e-01	0	43	0	1126170624	59	4389
2026-01-28 09:11:17.63	212.19	10.84	-43.5	-45.6	15.4	6.05e-01	0	43	0	1142947840	58	4602
2026-01-28 09:11:18.63	212.35	10.93	-43.5	-45.6	15.4	6.04e-01	0	43	0	1157627904	58	4606
2026-01-28 09:11:19.64	212.52	11.02	-43.4	-45.4	15.5	6.06e-01	0	43	0	1172307968	58	4541
2026-01-28 09:11:20.65	212.68	11.11	-43.3	-45.4	15.5	6.02e-01	0	43	0	1189085184	58	4502
2026-01-28 09:11:21.66	212.85	11.20	-43.4	-45.4	15.5	6.02e-01	0	43	0	1203765248	58	4516
2026-01-28 09:11:22.67	213.01	11.30	-43.2	-45.3	15.6	6.00e-01	0	43	0	1218445312	58	4451
2026-01-28 09:11:23.68	213.18	11.39	-43.2	-45.3	15.7	6.02e-01	0	43	0	1235222528	58	4447
2026-01-28 09:11:24.69	213.35	11.48	-43.1	-45.1	15.8	5.98e-01	0	43	0	1249902592	58	4384
2026-01-28 09:11:25.69	213.52	11.57	-43.2	-45.3	15.7	6.00e-01	0	43	0	1264582656	58	4444
2026-01-28 09:11:26.70	213.69	11.67	-43.2	-45.2	15.7	5.98e-01	0	43	0	1281359872	58	4434
2026-01-28 09:11:27.71	213.86	11.76	-43.2	-45.3	15.7	5.97e-01	0	43	0	1296039936	58	4469
2026-01-28 09:11:28.71	214.03	11.85	-43.2	-45.3	15.7	5.97e-01	0	43	0	1310720000	58	4474
2026-01-28 09:11:29.72	214.21	11.95	-43.2	-45.4	15.6	6.00e-01	0	43	0	1327497216	58	4502
2026-01-28 09:11:30.72	214.38	12.04	-43.1	-45.3	15.7	5.99e-01	0	43	0	1342177280	58	4452
2026-01-28 09:11:31.73	214.56	12.13	-43.2	-45.3	15.6	5.99e-01	0	43	0	1358954496	58	4471
2026-01-28 09:11:32.74	214.74	12.23	-43.2	-45.3	15.6	5.99e-01	0	43	0	1373634560	58	4469
2026-01-28 09:11:33.75	214.92	12.32	-43.1	-45.2	15.7	5.97e-01	0	43	0	1390411776	58	4417
2026-01-28 09:11:34.76	215.10	12.42	-43.1	-45.2	15.7	5.98e-01	0	43	0	1405091840	58	4437
2026-01-28 09:11:35.77	215.28	12.52	-42.9	-45.0	15.9	5.97e-01	0	43	0	1419771904	57	4584
2026-01-28 09:11:36.77	215.47	12.61	-43.0	-45.0	15.9	5.97e-01	0	43	0	1436549120	57	4590
2026-01-28 09:11:37.78	215.65	12.71	-43.0	-45.1	15.8	5.98e-01	0	43	0	1451229184	57	4615
2026-01-28 09:11:38.79	215.84	12.80	-43.0	-45.1	15.8	6.02e-01	0	43	0	1465909248	57	4620
2026-01-28 09:11:39.79	216.03	12.90	-43.0	-45.0	15.9	6.01e-01	0	43	0	1482686464	57	4598
2026-01-28 09:11:40.80	216.22	13.00	-43.0	-45.1	15.8	5.89e-01	0	43	0	1497366528	57	4649
2026-01-28 09:11:41.81	216.41	13.09	-42.9	-45.0	16.0	5.93e-01	0	43	0	1512046592	57	4552
2026-01-28 09:11:42.81	216.60	13.19	-42.7	-44.8	16.1	5.93e-01	0	43	0	1528823808	57	4472
2026-01-28 09:11:43.82	216.80	13.29	-42.9	-45.0	16.0	5.94e-01	0	43	0	1543503872	57	4548
2026-01-28 09:11:44.83	216.99	13.39	-42.9	-44.9	16.0	5.94e-01	0	43	0	1560281088	57	4540
2026-01-28 09:11:45.84	217.19	13.48	-42.9	-44.9	16.1	5.93e-01	0	43	0	1574961152	57	4538
2026-01-28 09:11:46.84	217.39	13.58	-42.8	-44.9	16.1	5.92e-01	0	43	0	1591738368	57	4503
2026-01-28 09:11:47.85	217.59	13.68	-42.9	-45.0	16.0	5.93e-01	0	43	0	1606418432	57	4561
2026-01-28 09:11:48.86	217.79	13.78	-42.8	-44.9	16.1	5.93e-01	0	43	0	1621098496	57	4521
2026-01-28 09:11:49.87	218.00	13.88	-42.9	-45.0	16.0	5.92e-01	0	43	0	1637875712	57	4558
2026-01-28 09:11:50.87	218.20	13.98	-42.9	-45.0	16.1	5.93e-01	0	43	0	1652555776	57	4546
2026-01-28 09:11:51.88	218.41	14.08	-42.8	-44.9	16.1	5.93e-01	0	43	0	1667235840	57	4502
2026-01-28 09:11:52.89	218.62	14.18	-42.8	-44.8	16.2	5.93e-01	0	43	0	1684013056	57	4461
2026-01-28 09:11:53.90	218.83	14.28	-42.7	-44.7	16.2	5.94e-01	0	43	0	1698693120	57	4435
2026-01-28 09:11:54.91	219.04	14.38	-42.8	-44.8	16.2	5.93e-01	0	43	0	1713373184	57	4454
2026-01-28 09:11:55.92	219.25	14.48	-42.7	-44.7	16.2	5.94e-01	0	43	0	1730150400	57	4431
2026-01-28 09:11:56.92	219.47	14.58	-42.7	-44.8	16.2	5.94e-01	0	43	0	1744830464	57	4453
2026-01-28 09:11:57.93	219.69	14.68	-42.8	-44.8	16.2	5.93e-01	0	43	0	1761607680	57	4480
2026-01-28 09:11:58.94	219.90	14.78	-42.8	-44.9	16.1	5.95e-01	0	43	0	1776287744	57	4503
2026-01-28 09:11:59.95	220.13	14.88	-42.9	-45.0	16.0	5.94e-01	0	43	0	1793064960	57	4561
2026-01-28 09:12:00.95	220.35	14.98	-42.8	-44.9	16.1	5.93e-01	0	43	0	1807745024	57	4535
2026-01-28 09:12:01.96	220.57	15.08	-42.9	-45.0	16.0	5.93e-01	0	43	0	1822425088	57	4566
2026-01-28 09:12:02.97	220.80	15.19	-42.8	-45.0	16.1	5.92e-01	0	43	0	1839202304	57	4555
2026-01-28 09:12:03.98	221.02	15.29	-42.8	-44.9	16.1	5.94e-01	0	43	0	1853882368	57	4511
2026-01-28 09:12:04.99	221.25	15.39	-42.8	-44.9	16.2	5.94e-01	0	43	0	1868562432	57	4495
2026-01-28 09:12:06.00	221.49	15.49	-42.9	-45.0	16.1	5.93e-01	0	43	0	1885339648	57	4563
2026-01-28 09:12:07.01	221.72	15.60	-42.8	-44.8	16.2	5.93e-01	0	43	0	1900019712	57	4473
2026-01-28 09:12:08.01	221.95	15.70	-42.8	-44.7	16.2	5.94e-01	0	43	0	1914699776	57	4440
2026-01-28 09:12:09.02	222.19	15.80	-42.6	-44.5	16.5	5.94e-01	0	43	0	1931476992	57	4332
2026-01-28 09:12:10.03	222.43	15.90	-42.5	-44.4	16.6	5.94e-01	0	43	0	1948254208	57	4265
2026-01-28 09:12:11.04	222.67	16.01	-42.4	-44.3	16.6	5.94e-01	0	43	0	1962934272	56	4459
2026-01-28 09:12:12.05	222.91	16.11	-42.4	-44.2	16.7	5.93e-01	0	43	0	1977614336	56	4419
2026-01-28 09:12:13.06	223.16	16.22	-42.4	-44.3	16.6	5.91e-01	0	43	0	1994391552	56	4456
2026-01-28 09:12:14.07	223.41	16.32	-42.5	-44.4	16.5	5.99e-01	0	43	0	2009071616	56	4528
2026-01-28 09:12:15.07	223.65	16.42	-42.5	-44.5	16.5	6.02e-01	0	43	0	2023751680	56	4549
2026-01-28 09:12:16.08	223.90	16.53	-42.6	-44.5	16.4	5.98e-01	0	44	0	2040528896	56	4579
2026-01-28 09:12:17.09	224.16	16.63	-42.7	-44.6	16.3	5.99e-01	0	43	0	2055208960	56	4628
2026-01-28 09:12:18.10	224.41	16.73	-42.7	-44.6	16.3	5.99e-01	0	43	0	2069889024	56	4620
2026-01-28 09:12:19.11	224.67	16.84	-42.7	-44.6	16.3	6.00e-01	0	43	0	2086666240	56	4643
2026-01-28 09:12:20.12	224.93	16.94	-42.7	-44.7	16.2	6.03e-01	0	43	0	2101346304	56	4664
2026-01-28 09:12:21.13	225.19	17.05	-42.7	-44.7	16.2	6.00e-01	0	43	0	2118123520	56	4687
2026-01-28 09:12:22.13	225.45	17.15	-42.6	-44.6	16.3	6.03e-01	0	43	0	2132803584	56	4628
2026-01-28 09:12:23.14	225.71	17.26	-42.7	-44.6	16.3	6.02e-01	0	43	0	2149580800	56	4613
2026-01-28 09:12:24.15	225.98	17.36	-42.6	-44.5	16.4	6.02e-01	0	43	0	2164260864	56	4555
2026-01-28 09:12:25.16	226.25	17.47	-42.6	-44.5	16.4	6.01e-01	0	43	0	2178940928	56	4576
2026-01-28 09:12:26.17	226.52	17.57	-42.7	-44.6	16.3	6.01e-01	0	43	0	2195718144	56	4627
2026-01-28 09:12:27.17	226.79	17.67	-42.7	-44.6	16.3	6.03e-01	0	43	0	2210398208	56	4645
2026-01-28 09:12:28.18	227.07	17.78	-42.9	-44.9	16.1	6.00e-01	0	44	0	2225078272	56	4790
2026-01-28 09:12:29.19	227.35	17.88	-42.9	-45.0	16.0	6.00e-01	0	43	0	2239758336	56	4825
2026-01-28 09:12:30.20	227.63	17.99	-43.0	-45.1	16.0	6.02e-01	0	43	0	2256535552	56	4888
2026-01-28 09:12:31.21	227.91	18.09	-43.0	-45.0	16.0	6.02e-01	0	43	0	2271215616	56	4850
2026-01-28 09:12:32.22	228.19	18.20	-42.9	-44.9	16.1	6.01e-01	0	43	0	2285895680	56	4796
2026-01-28 09:12:33.22	228.48	18.30	-42.8	-44.7	16.2	6.00e-01	0	43	0	2302672896	56	4702
2026-01-28 09:12:34.23	228.77	18.41	-42.9	-44.8	16.2	6.01e-01	0	43	0	2319450112	56	4707
2026-01-28 09:12:35.24	229.06	18.51	-42.8	-44.6	16.3	6.01e-01	0	43	0	2334130176	56	4646
2026-01-28 09:12:36.25	229.35	18.62	-42.8	-44.6	16.3	6.01e-01	0	44	0	2348810240	56	4642
2026-01-28 09:12:37.25	229.64	18.72	-42.9	-44.8	16.2	6.01e-01	0	43	0	2365587456	56	4738
2026-01-28 09:12:38.26	229.94	18.82	-42.9	-44.8	16.2	6.00e-01	0	44	0	2380267520	56	4728
2026-01-28 09:12:39.27	230.24	18.93	-42.8	-44.7	16.3	6.01e-01	0	43	0	2394947584	56	4698
2026-01-28 09:12:40.28	230.55	19.03	-42.9	-44.9	16.1	6.02e-01	0	44	0	2411724800	56	4803
2026-01-28 09:12:41.29	230.85	19.14	-43.1	-45.1	15.9	6.00e-01	0	43	0	2426404864	56	4907
2026-01-28 09:12:42.30	231.16	19.24	-43.1	-45.1	16.0	6.03e-01	0	44	0	2441084928	56	4877
2026-01-28 09:12:43.31	231.47	19.34	-43.1	-45.0	16.0	5.99e-01	0	43	0	2457862144	56	4840
2026-01-28 09:12:44.31	231.78	19.45	-43.2	-45.1	16.0	6.01e-01	0	44	0	2472542208	56	4871
2026-01-28 09:12:45.32	232.09	19.55	-43.2	-45.0	16.1	6.01e-01	0	43	0	2487222272	56	4857
2026-01-28 09:12:46.33	232.41	19.65	-43.2	-45.0	16.1	6.03e-01	0	43	0	2503999488	56	4861
2026-01-28 09:12:47.33	232.73	19.75	-43.3	-45.1	16.0	6.00e-01	0	43	0	2520776704	57	4631
2026-01-28 09:12:48.34	233.05	19.86	-43.3	-45.2	15.9	6.01e-01	0	44	0	2535456768	57	4655
2026-01-28 09:12:49.35	233.37	19.96	-43.3	-45.1	16.0	6.00e-01	0	44	0	2550136832	57	4643
2026-01-28 09:12:50.36	233.70	20.06	-43.2	-45.0	16.0	6.01e-01	0	44	0	2566914048	57	4597
2026-01-28 09:12:51.37	234.03	20.16	-43.2	-45.0	16.1	6.00e-01	0	43	0	2581594112	57	4580
2026-01-28 09:12:52.38	234.36	20.26	-43.1	-45.0	16.1	6.00e-01	0	43	0	2596274176	57	4554
2026-01-28 09:12:53.39	234.69	20.36	-43.2	-45.1	16.1	5.98e-01	0	43	0	2613051392	57	4599
2026-01-28 09:12:54.40	235.03	20.46	-43.2	-45.1	16.0	6.00e-01	0	43	0	2627731456	57	4639
2026-01-28 09:12:55.41	235.37	20.56	-43.2	-45.2	16.0	6.02e-01	0	44	0	2642411520	57	4652
2026-01-28 09:12:56.41	235.71	20.66	-43.4	-45.3	15.9	5.95e-01	0	44	0	2659188736	57	4721
2026-01-28 09:12:57.42	236.05	20.76	-43.4	-45.3	15.8	6.02e-01	0	43	0	2673868800	57	4710
2026-01-28 09:12:58.43	236.40	20.86	-43.3	-45.3	15.9	6.00e-01	0	43	0	2690646016	57	4709
2026-01-28 09:12:59.43	236.74	20.96	-43.3	-45.3	15.9	6.03e-01	0	43	0	2705326080	57	4709
2026-01-28 09:13:00.41	237.09	21.05	-43.4	-45.5	15.7	6.00e-01	0	43	0	2720006144	57	4827
2026-01-28 09:13:01.42	237.44	21.15	-43.4	-45.5	15.7	6.01e-01	0	43	0	2734686208	57	4850
2026-01-28 09:13:02.43	237.80	21.25	-43.4	-45.5	15.7	6.00e-01	0	44	0	2751463424	57	4861
2026-01-28 09:13:03.44	238.15	21.34	-43.4	-45.6	15.6	6.02e-01	0	43	0	2768240640	57	4873
2026-01-28 09:13:04.45	238.52	21.44	-43.4	-45.6	15.6	6.00e-01	0	44	0	2782920704	57	4912
2026-01-28 09:13:05.46	238.88	21.53	-43.4	-45.6	15.6	6.00e-01	0	43	0	2797600768	57	4920
2026-01-28 09:13:06.47	239.25	21.63	-43.4	-45.6	15.6	6.01e-01	0	43	0	2814377984	57	4919
2026-01-28 09:13:07.48	239.62	21.72	-43.4	-45.4	15.8	6.00e-01	0	43	0	2829058048	57	4812
2026-01-28 09:13:08.49	239.99	21.82	-43.4	-45.4	15.8	5.97e-01	0	43	0	2843738112	57	4813
2026-01-28 09:13:09.50	240.36	21.91	-43.2	-45.1	16.0	6.02e-01	0	43	0	2860515328	57	4627
2026-01-28 09:13:10.51	240.74	22.00	-43.2	-45.2	16.0	6.01e-01	0	44	0	2875195392	57	4652
2026-01-28 09:13:11.51	241.11	22.09	-43.3	-45.2	15.9	6.00e-01	0	43	0	2889875456	57	4695
2026-01-28 09:13:12.52	241.49	22.18	-43.3	-45.3	15.9	6.02e-01	0	43	0	2906652672	57	4717
2026-01-28 09:13:13.53	241.88	22.27	-43.3	-45.4	15.7	6.01e-01	0	44	0	2923429888	57	4808
2026-01-28 09:13:14.54	242.26	22.36	-43.4	-45.6	15.6	6.02e-01	0	43	0	2938109952	57	4917
2026-01-28 09:13:15.55	242.65	22.45	-43.5	-45.7	15.5	6.02e-01	0	43	0	2952790016	57	4927
2026-01-28 09:13:16.55	243.04	22.53	-43.4	-45.5	15.7	6.00e-01	0	43	0	2969567232	57	4863
2026-01-28 09:13:17.56	243.43	22.62	-43.3	-45.5	15.7	6.01e-01	0	43	0	2984247296	57	4839
2026-01-28 09:13:18.57	243.83	22.70	-43.3	-45.6	15.6	6.02e-01	0	43	0	2998927360	57	4882
2026-01-28 09:13:19.57	244.22	22.79	-43.2	-45.4	15.8	6.01e-01	0	43	0	3015704576	57	4795
2026-01-28 09:13:20.58	244.62	22.87	-43.2	-45.4	15.8	6.00e-01	0	44	0	3030384640	57	4761
2026-01-28 09:13:21.59	245.02	22.95	-43.2	-45.3	15.8	6.00e-01	0	44	0	3045064704	57	4744
2026-01-28 09:13:22.60	245.43	23.03	-43.1	-45.2	15.9	6.03e-01	0	43	0	3061841920	57	4691
2026-01-28 09:13:23.60	245.83	23.11	-43.3	-45.4	15.7	6.02e-01	0	43	0	3076521984	57	4801
2026-01-28 09:13:24.61	246.24	23.19	-43.2	-45.4	15.8	6.01e-01	0	43	0	3091202048	57	4773
2026-01-28 09:13:25.62	246.66	23.27	-43.2	-45.4	15.8	6.02e-01	0	43	0	3107979264	57	4809
2026-01-28 09:13:26.63	247.07	23.35	-43.2	-45.4	15.8	6.00e-01	0	44	0	3124756480	57	4814
2026-01-28 09:13:27.64	247.49	23.43	-43.3	-45.6	15.6	6.04e-01	0	43	0	3139436544	57	4892
2026-01-28 09:13:28.65	247.90	23.50	-43.3	-45.7	15.5	6.03e-01	0	44	0	3154116608	57	4939
2026-01-28 09:13:29.65	248.32	23.57	-43.3	-45.8	15.5	6.01e-01	0	43	0	3170893824	57	5018
2026-01-28 09:13:30.66	248.74	23.65	-43.4	-46.0	15.3	6.01e-01	0	44	0	3185573888	57	5141
2026-01-28 09:13:31.67	249.17	23.72	-43.3	-45.9	15.4	6.02e-01	0	43	0	3200253952	57	5053
2026-01-28 09:13:32.68	249.60	23.79	-43.4	-45.8	15.5	6.02e-01	0	43	0	3217031168	57	4996
2026-01-28 09:13:33.69	250.03	23.85	-43.3	-45.6	15.6	6.02e-01	0	43	0	3231711232	57	4921
2026-01-28 09:13:34.69	250.45	23.92	-43.2	-45.4	15.8	6.02e-01	0	43	0	3246391296	57	4805
2026-01-28 09:13:35.69	250.88	23.99	-43.2	-45.3	15.9	6.02e-01	0	43	0	3263168512	57	4736
2026-01-28 09:13:36.70	251.32	24.05	-42.8	-44.8	16.3	6.01e-01	0	43	0	3277848576	57	4491
2026-01-28 09:13:37.71	251.76	24.12	-42.8	-44.9	16.2	6.03e-01	0	44	0	3292528640	57	4511
2026-01-28 09:13:38.72	252.20	24.18	-42.8	-44.9	16.2	6.02e-01	0	43	0	3307208704	57	4536
2026-01-28 09:13:39.73	252.64	24.24	-42.7	-44.9	16.2	6.01e-01	0	43	0	3326083072	57	4507
2026-01-28 09:13:40.74	253.08	24.30	-42.8	-44.9	16.2	6.01e-01	0	43	0	3340763136	57	4523
2026-01-28 09:13:41.75	253.52	24.35	-42.7	-44.8	16.3	6.02e-01	0	43	0	3355443200	57	4486
2026-01-28 09:13:42.75	253.97	24.41	-42.7	-44.8	16.3	6.03e-01	0	43	0	3372220416	57	4489
2026-01-28 09:13:43.76	254.41	24.46	-42.7	-44.8	16.3	6.00e-01	0	43	0	3386900480	57	4474
2026-01-28 09:13:44.77	254.86	24.52	-42.7	-44.8	16.3	5.99e-01	0	44	0	3401580544	57	4446
2026-01-28 09:13:45.78	255.32	24.57	-42.8	-44.8	16.3	6.02e-01	0	43	0	3418357760	57	4492
2026-01-28 09:13:46.79	255.77	24.62	-42.7	-44.8	16.3	6.00e-01	0	43	0	3433037824	57	4486
2026-01-28 09:13:47.79	256.22	24.67	-42.6	-44.8	16.3	6.03e-01	0	43	0	3447717888	57	4466
2026-01-28 09:13:48.80	256.68	24.71	-42.6	-44.8	16.3	6.02e-01	0	43	0	3462397952	57	4458
2026-01-28 09:13:49.81	257.13	24.76	-42.4	-44.6	16.4	6.01e-01	0	43	0	3479175168	56	4646
2026-01-28 09:13:50.81	257.59	24.80	-42.3	-44.5	16.5	6.02e-01	0	43	0	3493855232	56	4573
2026-01-28 09:13:51.82	258.05	24.84	-42.3	-44.6	16.5	6.02e-01	0	43	0	3508535296	56	4602
2026-01-28 09:13:52.83	258.51	24.88	-42.4	-44.7	16.4	6.01e-01	0	43	0	3527409664	56	4662
2026-01-28 09:13:53.84	258.97	24.92	-42.4	-44.7	16.4	6.01e-01	0	43	0	3542089728	56	4657
2026-01-28 09:13:54.85	259.44	24.96	-42.4	-44.6	16.5	6.01e-01	0	44	0	3556769792	56	4603
2026-01-28 09:13:55.85	259.90	24.99	-42.3	-44.4	16.6	5.99e-01	0	44	0	3573547008	56	4522
2026-01-28 09:13:56.86	260.36	25.02	-42.4	-44.6	16.4	5.98e-01	0	43	0	3588227072	56	4621
2026-01-28 09:13:57.87	260.83	25.06	-42.5	-44.8	16.3	6.01e-01	0	43	0	3602907136	56	4747
2026-01-28 09:13:58.88	261.30	25.09	-42.4	-44.8	16.3	5.99e-01	0	44	0	3617587200	56	4716
2026-01-28 09:13:59.89	261.77	25.11	-42.2	-44.5	16.5	5.99e-01	0	43	0	3634364416	56	4579
2026-01-28 09:14:00.90	262.24	25.14	-42.1	-44.4	16.6	6.01e-01	0	43	0	3649044480	56	4533
2026-01-28 09:14:01.91	262.71	25.16	-42.2	-44.5	16.6	5.99e-01	0	44	0	3663724544	56	4559
2026-01-28 09:14:02.91	263.18	25.18	-42.4	-44.7	16.3	5.99e-01	0	43	0	3680501760	56	4678
2026-01-28 09:14:03.92	263.65	25.20	-42.4	-44.8	16.3	5.99e-01	0	43	0	3695181824	56	4722
2026-01-28 09:14:04.93	264.12	25.22	-42.6	-44.9	16.2	5.97e-01	0	43	0	3711959040	56	4813
2026-01-28 09:14:05.93	264.59	25.24	-42.6	-44.9	16.3	6.01e-01	0	43	0	3726639104	56	4787
2026-01-28 09:14:06.94	265.06	25.25	-42.6	-44.9	16.3	6.00e-01	0	43	0	3743416320	56	4764
2026-01-28 09:14:07.95	265.54	25.27	-42.5	-44.7	16.4	6.01e-01	0	43	0	3758096384	56	4703
2026-01-28 09:14:08.95	266.01	25.28	-42.5	-44.9	16.2	5.98e-01	0	43	0	3772776448	56	4805
2026-01-28 09:14:09.96	266.48	25.29	-42.6	-45.1	16.1	5.99e-01	0	43	0	3789553664	56	4913
2026-01-28 09:14:10.97	266.96	25.29	-42.6	-45.2	16.1	6.01e-01	0	44	0	3804233728	56	4946
2026-01-28 09:14:11.98	267.44	25.30	-42.7	-45.3	16.0	5.99e-01	0	43	0	3818913792	56	4994
2026-01-28 09:14:12.99	267.91	25.30	-42.8	-45.2	16.0	6.03e-01	0	44	0	3835691008	56	4978
2026-01-28 09:14:14.00	268.39	25.31	-42.6	-44.9	16.2	6.00e-01	0	43	0	3850371072	56	4793
2026-01-28 09:14:15.01	268.86	25.30	-42.6	-44.9	16.2	6.00e-01	0	44	0	3865051136	56	4798
2026-01-28 09:14:16.01	269.33	25.30	-42.5	-44.8	16.3	5.98e-01	0	44	0	3881828352	56	4733
2026-01-28 09:14:17.02	269.81	25.30	-42.4	-44.8	16.4	5.98e-01	0	43	0	3896508416	56	4716
2026-01-28 09:14:18.03	270.28	25.29	-42.4	-44.7	16.4	6.00e-01	0	43	0	3913285632	56	4690
2026-01-28 09:14:19.04	270.76	25.28	-42.5	-44.8	16.4	6.01e-01	0	43	0	3927965696	56	4713
2026-01-28 09:14:20.05	271.23	25.27	-42.4	-44.7	16.5	6.01e-01	0	44	0	3944742912	56	4661
2026-01-28 09:14:21.05	271.70	25.26	-42.4	-44.8	16.4	6.00e-01	0	43	0	3959422976	56	4725
2026-01-28 09:14:22.06	272.18	25.25	-42.4	-44.9	16.3	6.01e-01	0	43	0	3974103040	56	4777
2026-01-28 09:14:23.07	272.65	25.23	-42.6	-45.1	16.2	6.01e-01	0	44	0	3990880256	56	4886
2026-01-28 09:14:24.08	273.12	25.22	-42.7	-45.1	16.2	6.01e-01	0	43	0	4005560320	56	4897
2026-01-28 09:14:25.09	273.60	25.20	-42.7	-45.0	16.3	6.00e-01	0	43	0	4020240384	56	4829
2026-01-28 09:14:26.10	274.07	25.18	-42.6	-45.0	16.3	6.01e-01	0	43	0	4037017600	56	4829
2026-01-28 09:14:27.10	274.53	25.15	-42.6	-44.9	16.4	6.00e-01	0	44	0	4051697664	56	4772
2026-01-28 09:14:28.11	275.00	25.13	-42.6	-44.8	16.5	6.04e-01	0	43	0	4066377728	56	4733
2026-01-28 09:14:29.12	275.47	25.10	-42.5	-44.7	16.5	6.02e-01	0	43	0	4083154944	56	4705
2026-01-28 09:14:30.13	275.94	25.07	-42.6	-45.0	16.3	6.02e-01	0	43	0	4099932160	56	4824
2026-01-28 09:14:31.13	276.40	25.04	-42.6	-45.0	16.3	6.02e-01	0	43	0	4114612224	56	4825
2026-01-28 09:14:32.14	276.87	25.01	-42.6	-44.9	16.3	6.01e-01	0	43	0	4129292288	56	4788
2026-01-28 09:14:33.14	277.33	24.98	-42.8	-45.0	16.3	6.00e-01	0	44	0	4146069504	56	4853
2026-01-28 09:14:34.15	277.80	24.94	-42.8	-45.0	16.4	6.01e-01	0	43	0	4160749568	56	4840
2026-01-28 09:14:35.16	278.26	24.91	-42.7	-44.9	16.4	6.02e-01	0	43	0	4175429632	56	4776
2026-01-28 09:14:36.17	278.72	24.87	-42.5	-44.8	16.5	6.01e-01	0	43	0	4192206848	56	4715
2026-01-28 09:14:37.18	279.18	24.83	-42.4	-44.6	16.6	6.01e-01	0	43	0	4206886912	56	4642
2026-01-28 09:14:38.18	279.64	24.79	-42.5	-44.5	16.7	5.99e-01	0	43	0	4221566976	56	4593
2026-01-28 09:14:39.19	280.09	24.74	-42.3	-44.4	16.8	5.99e-01	0	44	0	4238344192	56	4499
2026-01-28 09:14:40.20	280.55	24.70	-42.3	-44.4	16.8	5.98e-01	0	44	0	4253024256	56	4509
2026-01-28 09:14:41.21	281.00	24.65	-42.4	-44.5	16.7	6.00e-01	0	44	0	4267704320	56	4551
2026-01-28 09:14:42.22	281.46	24.60	-42.5	-44.4	16.8	6.02e-01	0	43	0	4284481536	56	4545
2026-01-28 09:14:43.23	281.91	24.55	-42.4	-44.4	16.8	6.05e-01	0	43	0	4301258752	56	4522
2026-01-28 09:14:44.23	282.36	24.50	-42.4	-44.5	16.7	6.00e-01	0	44	0	4315938816	56	4582
2026-01-28 09:14:45.24	282.80	24.45	-42.5	-44.6	16.6	6.01e-01	0	43	0	4330618880	56	4649
2026-01-28 09:14:46.25	283.25	24.39	-42.5	-44.7	16.6	5.98e-01	0	43	0	4347396096	56	4678
2026-01-28 09:14:47.26	283.70	24.33	-42.6	-44.9	16.4	6.00e-01	0	44	0	4362076160	56	4784
2026-01-28 09:14:48.26	284.13	24.28	-42.7	-44.9	16.4	6.01e-01	0	43	0	4376756224	56	4769
2026-01-28 09:14:49.27	284.58	24.22	-42.9	-45.0	16.3	5.98e-01	0	43	0	4393533440	56	4864
2026-01-28 09:14:50.28	285.02	24.16	-43.1	-45.2	16.2	5.99e-01	0	43	0	4408213504	56	4974
2026-01-28 09:14:51.29	285.45	24.09	-43.1	-45.3	16.1	6.00e-01	0	44	0	4422893568	56	5039
2026-01-28 09:14:52.29	285.88	24.03	-42.9	-45.2	16.2	5.99e-01	0	43	0	4439670784	56	4949
2026-01-28 09:14:53.30	286.32	23.97	-42.9	-45.2	16.2	6.01e-01	0	44	0	4454350848	56	4947
2026-01-28 09:14:54.31	286.75	23.90	-42.9	-45.1	16.3	6.03e-01	0	44	0	4469030912	56	4905
2026-01-28 09:14:55.32	287.18	23.83	-42.9	-45.0	16.4	6.01e-01	0	43	0	4485808128	56	4864
2026-01-28 09:14:56.33	287.61	23.76	-42.9	-45.0	16.3	6.01e-01	0	43	0	4502585344	56	4859
2026-01-28 09:14:57.33	288.03	23.69	-42.9	-45.1	16.3	6.00e-01	0	43	0	4517265408	56	4894
2026-01-28 09:14:58.34	288.45	23.62	-42.9	-45.1	16.3	6.01e-01	0	44	0	4531945472	56	4879
2026-01-28 09:14:59.35	288.87	23.55	-42.8	-44.9	16.5	5.99e-01	0	44	0	4548722688	56	4778
2026-01-28 09:15:00.36	289.29	23.48	-42.7	-44.7	16.6	6.03e-01	0	44	0	4563402752	56	4697
2026-01-28 09:15:01.35	289.70	23.40	-42.6	-44.7	16.6	5.98e-01	0	43	0	4578082816	56	4674
2026-01-28 09:15:02.36	290.11	23.33	-42.7	-44.7	16.6	6.01e-01	0	43	0	4594860032	56	4699
2026-01-28 09:15:03.36	290.52	23.25	-42.9	-45.0	16.4	6.00e-01	0	43	0	4609540096	56	4819
2026-01-28 09:15:04.37	290.93	23.17	-43.1	-45.2	16.2	6.01e-01	0	43	0	4624220160	56	4947
2026-01-28 09:15:05.38	291.34	23.09	-43.1	-45.3	16.2	6.02e-01	0	43	0	4640997376	56	4996
2026-01-28 09:15:06.39	291.75	23.01	-43.2	-45.3	16.2	6.00e-01	0	43	0	4655677440	56	4994
2026-01-28 09:15:07.40	292.15	22.93	-43.1	-45.2	16.2	6.01e-01	0	43	0	4670357504	56	4968
2026-01-28 09:15:08.41	292.55	22.85	-43.1	-45.2	16.2	6.02e-01	0	43	0	4685037568	56	4972
2026-01-28 09:15:09.41	292.94	22.77	-43.3	-45.4	16.1	6.02e-01	0	43	0	4701814784	57	4760
2026-01-28 09:15:10.42	293.34	22.68	-43.1	-45.1	16.3	6.00e-01	0	44	0	4716494848	57	4646
2026-01-28 09:15:11.43	293.73	22.60	-43.2	-45.2	16.2	5.99e-01	0	43	0	4733272064	57	4703
2026-01-28 09:15:12.44	294.12	22.51	-43.1	-45.1	16.4	5.99e-01	0	44	0	4750049280	57	4602
2026-01-28 09:15:13.44	294.51	22.43	-43.1	-45.1	16.4	6.00e-01	0	43	0	4764729344	57	4609
2026-01-28 09:15:14.45	294.90	22.34	-43.3	-45.2	16.2	6.01e-01	0	43	0	4779409408	57	4696
2026-01-28 09:15:15.46	295.28	22.25	-43.2	-45.3	16.2	5.99e-01	0	43	0	4796186624	57	4706
2026-01-28 09:15:16.47	295.66	22.16	-42.9	-44.9	16.5	5.98e-01	0	44	0	4810866688	57	4543
2026-01-28 09:15:17.48	296.04	22.07	-42.8	-44.9	16.4	5.98e-01	0	43	0	4825546752	57	4522
2026-01-28 09:15:18.49	296.42	21.98	-42.9	-45.0	16.3	5.99e-01	0	44	0	4840226816	57	4583
2026-01-28 09:15:19.50	296.79	21.89	-42.9	-45.0	16.3	6.02e-01	0	43	0	4857004032	57	4580
2026-01-28 09:15:20.51	297.16	21.80	-43.0	-45.0	16.4	6.02e-01	0	43	0	4871684096	57	4568
2026-01-28 09:15:21.51	297.53	21.70	-43.0	-45.0	16.3	6.01e-01	0	43	0	4886364160	57	4578
2026-01-28 09:15:22.52	297.89	21.61	-42.9	-44.8	16.4	6.00e-01	0	43	0	4903141376	57	4460
2026-01-28 09:15:23.53	298.26	21.52	-42.7	-44.6	16.6	6.00e-01	0	44	0	4919918592	57	4374
2026-01-28 09:15:24.54	298.62	21.42	-42.8	-44.6	16.6	6.02e-01	0	44	0	4934598656	57	4364
2026-01-28 09:15:25.55	298.98	21.33	-42.9	-44.7	16.5	6.00e-01	0	43	0	4949278720	57	4425
2026-01-28 09:15:26.55	299.33	21.23	-42.9	-44.7	16.5	6.01e-01	0	43	0	4966055936	57	4411
2026-01-28 09:15:27.57	299.69	21.13	-42.5	-44.2	16.9	6.01e-01	0	43	0	4980736000	57	4188
2026-01-28 09:15:28.57	300.04	21.04	-42.3	-44.1	16.9	6.02e-01	0	44	0	4995416064	56	4386
2026-01-28 09:15:29.58	300.39	20.94	-42.5	-44.3	16.7	6.01e-01	0	44	0	5012193280	56	4490
2026-01-28 09:15:30.59	300.73	20.84	-42.6	-44.5	16.6	6.02e-01	0	44	0	5026873344	56	4595
2026-01-28 09:15:31.60	301.08	20.74	-42.6	-44.6	16.6	6.02e-01	0	43	0	5041553408	56	4642
2026-01-28 09:15:32.61	301.42	20.64	-42.6	-44.6	16.5	6.01e-01	0	43	0	5058330624	56	4639
2026-01-28 09:15:33.62	301.76	20.55	-42.7	-44.7	16.5	6.01e-01	0	43	0	5073010688	56	4676
2026-01-28 09:15:34.63	302.10	20.45	-42.6	-44.5	16.5	5.98e-01	0	44	0	5089787904	56	4595
2026-01-28 09:15:35.64	302.43	20.35	-42.6	-44.5	16.6	6.01e-01	0	44	0	5104467968	56	4594
2026-01-28 09:15:36.64	302.76	20.25	-42.5	-44.3	16.7	5.97e-01	0	43	0	5121245184	56	4482
2026-01-28 09:15:37.65	303.09	20.15	-42.5	-44.3	16.8	5.98e-01	0	44	0	5135925248	56	4443
2026-01-28 09:15:38.66	303.42	20.04	-42.5	-44.3	16.7	6.00e-01	0	43	0	5150605312	56	4461
2026-01-28 09:15:39.67	303.74	19.94	-42.5	-44.3	16.8	5.99e-01	0	43	0	5167382528	56	4456
2026-01-28 09:15:40.68	304.06	19.84	-42.5	-44.3	16.8	5.99e-01	0	44	0	5182062592	56	4442
2026-01-28 09:15:41.69	304.38	19.74	-42.3	-44.1	16.8	5.97e-01	0	44	0	5196742656	56	4364
2026-01-28 09:15:42.69	304.70	19.64	-42.3	-44.1	16.8	5.97e-01	0	44	0	5213519872	56	4388
2026-01-28 09:15:43.70	305.01	19.54	-42.2	-44.1	16.8	6.05e-01	0	43	0	5228199936	56	4363
2026-01-28 09:15:44.71	305.32	19.43	-42.2	-44.1	16.9	6.01e-01	0	43	0	5242880000	56	4342
2026-01-28 09:15:45.72	305.63	19.33	-42.1	-44.0	16.9	6.03e-01	0	44	0	5259657216	56	4318
2026-01-28 09:15:46.73	305.94	19.23	-42.3	-44.3	16.7	6.01e-01	0	43	0	5276434432	56	4443
2026-01-28 09:15:47.74	306.25	19.12	-42.4	-44.3	16.7	6.01e-01	0	43	0	5291114496	56	4477
2026-01-28 09:15:48.75	306.55	19.02	-42.2	-44.2	16.8	6.02e-01	0	43	0	5305794560	56	4433
2026-01-28 09:15:49.76	306.85	18.92	-42.2	-44.2	16.8	5.99e-01	0	44	0	5322571776	56	4419
2026-01-28 09:15:50.77	307.15	18.81	-42.2	-44.3	16.7	5.99e-01	0	43	0	5337251840	56	4455
2026-01-28 09:15:51.78	307.45	18.71	-42.2	-44.2	16.7	6.01e-01	0	44	0	5351931904	56	4424
2026-01-28 09:15:52.78	307.74	18.61	-42.2	-44.3	16.6	6.02e-01	0	43	0	5368709120	56	4490
2026-01-28 09:15:53.79	308.03	18.50	-42.3	-44.4	16.6	6.02e-01	0	43	0	5383389184	56	4529
2026-01-28 09:15:54.80	308.32	18.40	-42.4	-44.6	16.4	6.02e-01	0	44	0	5398069248	56	4617
2026-01-28 09:15:55.81	308.61	18.30	-42.3	-44.5	16.5	6.04e-01	0	44	0	5414846464	56	4551
2026-01-28 09:15:56.82	308.89	18.19	-42.3	-44.4	16.5	6.03e-01	0	44	0	5429526528	56	4541
2026-01-28 09:15:57.83	309.17	18.09	-42.2	-44.3	16.6	6.03e-01	0	43	0	5446303744	56	4467
2026-01-28 09:15:58.84	309.45	17.98	-42.3	-44.4	16.5	6.02e-01	0	44	0	5460983808	56	4521
2026-01-28 09:15:59.85	309.73	17.88	-42.3	-44.4	16.6	6.03e-01	0	44	0	5477761024	56	4498
2026-01-28 09:16:00.85	310.01	17.78	-42.3	-44.3	16.6	6.02e-01	0	44	0	5492441088	56	4453
2026-01-28 09:16:01.86	310.28	17.67	-42.1	-44.0	16.8	6.03e-01	0	44	0	5507121152	56	4324
2026-01-28 09:16:02.87	310.55	17.57	-42.2	-44.1	16.7	6.03e-01	0	44	0	5523898368	56	4349
2026-01-28 09:16:03.88	310.82	17.46	-42.2	-44.2	16.7	6.03e-01	0	44	0	5538578432	56	4393
2026-01-28 09:16:04.88	311.09	17.36	-42.2	-44.2	16.7	6.03e-01	0	44	0	5553258496	56	4395
2026-01-28 09:16:05.89	311.35	17.26	-42.3	-44.2	16.7	6.02e-01	0	44	0	5570035712	56	4419
2026-01-28 09:16:06.90	311.61	17.15	-42.3	-44.3	16.6	6.02e-01	0	43	0	5584715776	56	4445
2026-01-28 09:16:07.91	311.88	17.05	-42.2	-44.1	16.7	6.03e-01	0	44	0	5599395840	56	4384
2026-01-28 09:16:08.92	312.13	16.95	-42.1	-44.0	16.8	6.03e-01	0	44	0	5616173056	56	4333
2026-01-28 09:16:09.92	312.39	16.84	-42.2	-44.1	16.7	6.04e-01	0	44	0	5630853120	56	4344
2026-01-28 09:16:10.93	312.64	16.74	-42.1	-44.0	16.8	6.01e-01	0	44	0	5647630336	56	4336
2026-01-28 09:16:11.94	312.90	16.64	-42.1	-44.0	16.7	6.03e-01	0	44	0	5662310400	56	4333
2026-01-28 09:16:12.95	313.15	16.53	-42.1	-44.0	16.8	6.03e-01	0	43	0	5679087616	56	4332
2026-01-28 09:16:13.96	313.40	16.43	-42.0	-44.0	16.8	6.03e-01	0	43	0	5693767680	56	4318
2026-01-28 09:16:14.97	313.64	16.33	-42.0	-44.0	16.7	6.03e-01	0	43	0	5708447744	56	4331
2026-01-28 09:16:15.98	313.89	16.22	-42.1	-44.1	16.6	6.02e-01	0	43	0	5725224960	56	4362
2026-01-28 09:16:16.99	314.13	16.12	-42.2	-44.3	16.5	6.03e-01	0	44	0	5739905024	56	4468
2026-01-28 09:16:17.99	314.37	16.02	-42.2	-44.3	16.5	6.04e-01	0	43	0	5754585088	56	4444
2026-01-28 09:16:19.00	314.61	15.91	-42.2	-44.3	16.5	6.05e-01	0	44	0	5771362304	56	4468
2026-01-28 09:16:20.01	314.85	15.81	-42.3	-44.4	16.4	5.97e-01	0	43	0	5786042368	56	4536
2026-01-28 09:16:21.02	315.08	15.71	-42.3	-44.5	16.4	5.98e-01	0	44	0	5800722432	56	4547
2026-01-28 09:16:22.03	315.32	15.61	-42.3	-44.4	16.4	6.00e-01	0	43	0	5817499648	56	4518
2026-01-28 09:16:23.04	315.55	15.51	-42.3	-44.4	16.4	5.97e-01	0	43	0	5834276864	56	4497
2026-01-28 09:16:24.05	315.78	15.40	-42.2	-44.3	16.5	5.93e-01	0	44	0	5848956928	56	4487
2026-01-28 09:16:25.05	316.01	15.30	-42.3	-44.4	16.5	5.93e-01	0	44	0	5863636992	56	4512
2026-01-28 09:16:26.06	316.23	15.20	-42.3	-44.4	16.5	5.93e-01	0	44	0	5880414208	56	4510
2026-01-28 09:16:27.07	316.46	15.10	-42.2	-44.2	16.6	5.93e-01	0	43	0	5895094272	56	4418
2026-01-28 09:16:28.08	316.68	15.00	-42.1	-44.2	16.6	5.94e-01	0	44	0	5909774336	56	4402
2026-01-28 09:16:29.09	316.90	14.90	-42.2	-44.3	16.5	5.93e-01	0	43	0	5926551552	56	4456
2026-01-28 09:16:30.09	317.12	14.80	-42.2	-44.3	16.5	5.92e-01	0	44	0	5941231616	56	4467
2026-01-28 09:16:31.10	317.34	14.70	-42.1	-44.2	16.6	5.94e-01	0	44	0	5955911680	56	4399
2026-01-28 09:16:32.11	317.55	14.60	-42.3	-44.3	16.5	5.94e-01	0	44	0	5972688896	56	4485
2026-01-28 09:16:33.12	317.77	14.50	-42.3	-44.3	16.5	5.93e-01	0	43	0	5987368960	56	4490
2026-01-28 09:16:34.12	317.98	14.40	-42.3	-44.4	16.5	5.93e-01	0	44	0	6002049024	56	4499
2026-01-28 09:16:35.13	318.19	14.30	-43.5	-44.4	16.5	5.94e-01	0	44	0	6018826240	57	4253
2026-01-28 09:16:36.14	318.40	14.20	-53.9	-62.8	3.8	7.45e-01	0	43	104	6023020544	78	10585
2026-01-28 09:16:37.15	318.61	14.10	-53.9	-62.7	3.8	7.46e-01	0	43	104	6023020544	78	10514
2026-01-28 09:16:38.15	318.81	14.00	-53.9	-62.7	3.8	7.45e-01	0	43	104	6023020544	78	10434
2026-01-28 09:16:39.16	319.02	13.90	-53.9	-62.7	3.8	7.45e-01	0	44	104	6023020544	78	10490
2026-01-28 09:16:40.17	319.22	13.80	-53.9	-62.7	3.8	7.46e-01	0	44	104	6023020544	78	10457
2026-01-28 09:16:41.18	319.42	13.71	-53.9	-62.7	3.8	7.45e-01	0	44	104	6023020544	78	10484
2026-01-28 09:16:42.19	319.62	13.61	-53.9	-62.7	3.8	7.46e-01	0	44	104	6023020544	78	10493
2026-01-28 09:16:43.20	319.82	13.51	-53.8	-62.7	3.8	7.46e-01	0	44	104	6023020544	78	10426
2026-01-28 09:16:44.21	320.01	13.41	-53.9	-62.7	3.8	7.47e-01	0	44	104	6023020544	78	10485
2026-01-28 09:16:45.22	320.21	13.32	-53.8	-62.7	3.8	7.44e-01	0	43	104	6023020544	78	10473
2026-01-28 09:16:46.23	320.40	13.22	-53.8	-62.6	3.8	7.46e-01	0	43	104	6023020544	78	10364
2026-01-28 09:16:47.23	320.59	13.12	-53.8	-62.6	3.8	7.46e-01	0	43	104	6023020544	78	10385
2026-01-28 09:16:48.24	320.78	13.03	-53.8	-62.7	3.8	7.46e-01	0	43	104	6023020544	78	10446
2026-01-28 09:16:49.25	320.97	12.93	-53.8	-62.6	3.8	7.44e-01	0	43	104	6023020544	78	10382
2026-01-28 09:16:50.25	321.16	12.84	-53.8	-62.6	3.8	7.46e-01	0	44	104	6023020544	78	10322
2026-01-28 09:16:51.26	321.35	12.74	-53.8	-62.6	3.8	7.46e-01	0	43	104	6023020544	78	10352
2026-01-28 09:16:52.26	321.53	12.65	-53.8	-62.6	3.8	7.44e-01	0	44	104	6023020544	78	10373
2026-01-28 09:16:53.27	321.71	12.55	-53.7	-62.5	3.8	7.46e-01	0	44	104	6023020544	78	10274
2026-01-28 09:16:54.28	321.90	12.45	-53.7	-62.5	3.8	7.45e-01	0	44	104	6023020544	78	10266
2026-01-28 09:16:55.29	322.08	12.36	-53.7	-62.5	3.8	7.45e-01	0	43	104	6023020544	78	10254
2026-01-28 09:16:56.29	322.25	12.27	-53.7	-62.6	3.8	7.45e-01	0	43	104	6023020544	78	10300
2026-01-28 09:16:57.30	322.43	12.17	-53.7	-62.5	3.8	7.46e-01	0	44	104	6023020544	78	10280
2026-01-28 09:16:58.31	322.61	12.08	-53.7	-62.5	3.8	7.44e-01	0	43	104	6023020544	78	10212
2026-01-28 09:16:59.31	322.78	11.99	-53.7	-62.5	3.8	7.45e-01	0	43	104	6023020544	78	10228
2026-01-28 09:17:00.32	322.96	11.89	-53.7	-62.5	3.8	7.44e-01	0	44	104	6023020544	78	10257
2026-01-28 09:17:01.33	323.13	11.80	-53.7	-62.5	3.8	7.46e-01	0	44	104	6023020544	78	10216
2026-01-28 09:17:02.34	323.30	11.71	-53.6	-62.5	3.8	7.45e-01	0	43	104	6023020544	78	10178
2026-01-28 09:17:03.34	323.47	11.62	-53.6	-62.5	3.8	7.46e-01	0	43	104	6023020544	78	10240
2026-01-28 09:17:04.35	323.64	11.52	-53.7	-62.5	3.8	7.43e-01	0	44	104	6023020544	78	10259
2026-01-28 09:17:05.36	323.81	11.43	-53.6	-62.5	3.8	7.45e-01	0	43	104	6023020544	78	10206
2026-01-28 09:17:06.37	323.97	11.34	-53.6	-62.4	3.8	7.46e-01	0	44	104	6023020544	78	10144
2026-01-28 09:17:07.37	324.14	11.25	-53.6	-62.4	3.8	7.46e-01	0	43	104	6023020544	78	10172
2026-01-28 09:17:08.38	324.30	11.16	-53.6	-62.5	3.8	7.46e-01	0	44	104	6023020544	78	10208
2026-01-28 09:17:09.39	324.47	11.07	-53.6	-62.4	3.8	7.45e-01	0	44	104	6023020544	78	10125
2026-01-28 09:17:10.39	324.63	10.98	-53.6	-62.4	3.8	7.46e-01	0	43	104	6023020544	78	10103
2026-01-28 09:17:11.39	324.78	10.89	-53.6	-62.4	3.8	7.46e-01	0	44	104	6023020544	78	10098
2026-01-28 09:17:12.41	324.95	10.80	-53.6	-62.4	3.8	7.44e-01	0	44	104	6023020544	78	10164
2026-01-28 09:17:13.41	325.10	10.71	-53.5	-62.4	3.8	7.46e-01	0	44	104	6023020544	78	10087
2026-01-28 09:17:14.42	325.26	10.62	-53.5	-62.4	3.8	7.46e-01	0	43	104	6023020544	78	10083
2026-01-28 09:17:15.43	325.42	10.53	-53.6	-62.4	3.8	7.44e-01	0	43	104	6023020544	78	10067
2026-01-28 09:17:16.44	325.57	10.44	-53.6	-62.4	3.8	7.45e-01	0	44	104	6023020544	78	10121
2026-01-28 09:17:17.45	325.72	10.35	-53.5	-62.4	3.8	7.46e-01	0	44	104	6023020544	78	10086
2026-01-28 09:17:18.45	325.88	10.26	-53.5	-62.3	3.8	7.46e-01	0	43	104	6023020544	78	10048
2026-01-28 09:17:19.46	326.03	10.18	-53.5	-62.3	3.8	7.44e-01	0	43	104	6023020544	78	9995
2026-01-28 09:17:20.47	326.18	10.09	-53.5	-62.3	3.8	7.46e-01	0	43	104	6023020544	78	10021
2026-01-28 09:17:21.47	326.33	10.00	-53.5	-62.3	3.8	7.46e-01	0	43	104	6023020544	78	10041
2026-01-28 09:17:22.48	326.47	9.91	-53.4	-62.3	3.8	7.44e-01	0	43	104	6023020544	78	9991
2026-01-28 09:17:23.49	326.62	9.83	-53.5	-62.3	3.8	7.45e-01	0	43	104	6023020544	78	10004
2026-01-28 09:17:24.50	326.77	9.74	-53.5	-62.3	3.8	7.44e-01	0	43	104	6023020544	78	9981
2026-01-28 09:17:25.50	326.91	9.65	-53.4	-62.3	3.8	7.45e-01	0	43	104	6023020544	78	9959
2026-01-28 09:17:26.52	327.06	9.57	-53.4	-62.3	3.8	7.45e-01	0	44	104	6023020544	78	9951
2026-01-28 09:17:27.53	327.20	9.48	-53.4	-62.3	3.8	7.45e-01	0	44	104	6023020544	78	9984
2026-01-28 09:17:28.53	327.34	9.40	-53.4	-62.2	3.8	7.45e-01	0	44	104	6023020544	78	9920
2026-01-28 09:17:29.54	327.48	9.31	-53.4	-62.2	3.8	7.45e-01	0	44	104	6023020544	78	9925
2026-01-28 09:17:30.55	327.62	9.23	-53.4	-62.2	3.8	7.45e-01	0	44	104	6023020544	78	9868
2026-01-28 09:17:31.55	327.76	9.14	-53.4	-62.2	3.8	7.46e-01	0	43	104	6023020544	78	9909
2026-01-28 09:17:32.56	327.90	9.06	-53.4	-62.2	3.8	7.45e-01	0	43	104	6023020544	78	9904
2026-01-28 09:17:33.56	328.03	8.97	-53.3	-62.1	3.8	7.44e-01	0	43	104	6023020544	78	9818
2026-01-28 09:17:34.57	328.17	8.89	-53.3	-62.1	3.8	7.45e-01	0	44	104	6023020544	78	9810
2026-01-28 09:17:35.58	328.31	8.81	-53.4	-62.2	3.8	7.46e-01	0	44	104	6023020544	78	9864
2026-01-28 09:17:36.58	328.44	8.72	-53.3	-62.1	3.8	7.44e-01	0	43	104	6023020544	78	9830
2026-01-28 09:17:37.58	328.57	8.64	-53.3	-62.1	3.8	7.47e-01	0	44	104	6023020544	78	9810
2026-01-28 09:17:38.59	328.70	8.56	-53.3	-62.1	3.8	7.44e-01	0	43	104	6023020544	78	9776
2026-01-28 09:17:39.60	328.84	8.48	-53.3	-62.1	3.8	7.44e-01	0	43	104	6023020544	78	9811
2026-01-28 09:17:40.60	328.96	8.39	-53.3	-62.1	3.8	7.46e-01	0	43	104	6023020544	78	9788
2026-01-28 09:17:41.61	329.09	8.31	-53.3	-62.1	3.8	7.46e-01	0	44	104	6023020544	78	9768
2026-01-28 09:17:42.62	329.22	8.23	-53.2	-62.1	3.8	7.46e-01	0	44	104	6023020544	78	9738
2026-01-28 09:17:43.63	329.35	8.15	-53.3	-62.1	3.8	7.43e-01	0	43	104	6023020544	78	9808
2026-01-28 09:17:44.64	329.48	8.07	-53.2	-62.1	3.8	7.45e-01	0	43	104	6023020544	78	9748
2026-01-28 09:17:45.65	329.61	7.98	-53.2	-62.1	3.8	7.43e-01	0	43	104	6023020544	78	9730
2026-01-28 09:17:46.65	329.73	7.90	-53.2	-62.0	3.8	7.45e-01	0	44	104	6023020544	78	9692
2026-01-28 09:17:47.66	329.86	7.82	-53.3	-62.1	3.8	7.44e-01	0	43	104	6023020544	78	9755
2026-01-28 09:17:48.67	329.98	7.74	-53.2	-62.0	3.8	7.44e-01	0	43	104	6023020544	78	9707
2026-01-28 09:17:49.67	330.10	7.66	-53.2	-62.0	3.8	7.45e-01	0	43	104	6023020544	78	9706
2026-01-28 09:17:50.68	330.22	7.58	-53.2	-62.0	3.8	7.46e-01	0	43	104	6023020544	78	9684
2026-01-28 09:17:51.69	330.35	7.50	-53.2	-62.1	3.8	7.45e-01	0	43	104	6023020544	78	9737
2026-01-28 09:17:52.70	330.47	7.42	-53.2	-62.0	3.8	7.46e-01	0	44	104	6023020544	78	9655
2026-01-28 09:17:53.70	330.59	7.35	-53.2	-62.0	3.8	7.47e-01	0	44	104	6023020544	78	9713
2026-01-28 09:17:54.70	330.70	7.27	-53.1	-62.0	3.8	7.46e-01	0	43	104	6023020544	78	9624
2026-01-28 09:17:55.71	330.82	7.19	-53.2	-62.1	3.8	7.45e-01	0	44	104	6023020544	78	9729
2026-01-28 09:17:56.72	330.94	7.11	-53.1	-62.0	3.8	7.46e-01	0	44	104	6023020544	78	9633
2026-01-28 09:17:57.72	331.06	7.03	-53.1	-62.0	3.8	7.44e-01	0	43	104	6023020544	78	9658
2026-01-28 09:17:58.73	331.17	6.95	-53.1	-61.9	3.8	7.45e-01	0	43	104	6023020544	78	9542
2026-01-28 09:17:59.74	331.29	6.88	-53.2	-62.0	3.8	7.47e-01	0	44	104	6023020544	78	9678
2026-01-28 09:18:00.75	331.40	6.80	-53.1	-61.9	3.8	7.45e-01	0	43	104	6023020544	78	9548
2026-01-28 09:18:01.76	331.52	6.72	-53.1	-61.9	3.8	7.45e-01	0	43	104	6023020544	78	9556
2026-01-28 09:18:02.77	331.63	6.64	-53.0	-61.8	3.8	7.45e-01	0	43	104	6023020544	78	9459
2026-01-28 09:18:03.77	331.74	6.57	-53.1	-62.0	3.8	7.43e-01	0	43	104	6023020544	78	9636
2026-01-28 09:18:04.77	331.85	6.49	-53.0	-61.9	3.8	7.46e-01	0	43	104	6023020544	78	9553
2026-01-28 09:18:05.78	331.96	6.42	-53.1	-61.9	3.8	7.45e-01	0	44	104	6023020544	78	9561
2026-01-28 09:18:06.79	332.07	6.34	-53.0	-61.8	3.8	7.45e-01	0	43	104	6023020544	78	9410
2026-01-28 09:18:07.79	332.18	6.26	-53.1	-61.9	3.8	7.45e-01	0	44	104	6023020544	77	10147
2026-01-28 09:18:08.79	332.29	6.19	-53.0	-61.8	3.8	7.45e-01	0	43	104	6023020544	77	9963
2026-01-28 09:18:09.80	332.40	6.11	-53.0	-61.8	3.8	7.45e-01	0	44	104	6023020544	77	10047
2026-01-28 09:18:10.81	332.50	6.04	-52.9	-61.8	3.8	7.45e-01	0	44	104	6023020544	77	9957
2026-01-28 09:18:11.82	332.61	5.96	-53.0	-61.9	3.8	7.45e-01	0	43	104	6023020544	77	10069
2026-01-28 09:18:12.83	332.72	5.89	-52.9	-61.7	3.8	7.44e-01	0	43	104	6023020544	77	9894
2026-01-28 09:18:13.84	332.82	5.81	-53.0	-61.8	3.8	7.46e-01	0	43	104	6023020544	77	10015
2026-01-28 09:18:14.84	332.93	5.74	-52.8	-61.7	3.8	7.46e-01	0	44	104	6023020544	77	9860
2026-01-28 09:18:15.85	333.03	5.67	-53.0	-61.8	3.8	7.46e-01	0	43	104	6023020544	77	10026
2026-01-28 09:18:16.85	333.13	5.59	-52.8	-61.6	3.8	7.45e-01	0	44	104	6023020544	77	9772
2026-01-28 09:18:17.86	333.24	5.52	-52.9	-61.7	3.8	7.46e-01	0	44	104	6023020544	77	9935
2026-01-28 09:18:18.87	333.34	5.45	-52.8	-61.6	3.8	7.44e-01	0	44	104	6023020544	77	9726
2026-01-28 09:18:19.88	333.44	5.37	-52.9	-61.7	3.8	7.45e-01	0	43	104	6023020544	77	9941
2026-01-28 09:18:20.89	333.54	5.30	-52.6	-61.4	3.8	7.46e-01	0	44	104	6023020544	77	9595
2026-01-28 09:18:21.89	333.64	5.23	-52.8	-61.7	3.8	7.45e-01	0	44	104	6023020544	77	9848
2026-01-28 09:18:22.90	333.74	5.15	-52.6	-61.4	3.8	7.43e-01	0	44	104	6023020544	77	9531
2026-01-28 09:18:23.90	333.84	5.08	-52.8	-61.6	3.8	7.45e-01	0	44	104	6023020544	77	9796
2026-01-28 09:18:24.91	333.94	5.01	-52.1	-60.9	3.8	7.46e-01	0	44	104	6023020544	76	9556
2026-01-28 09:18:25.92	334.04	4.94	-52.8	-61.7	3.8	7.44e-01	0	44	104	6023020544	76	10447
2026-01-28 09:18:26.93	334.14	4.87	-53.3	-62.2	3.8	7.46e-01	0	43	104	6023020544	77	10417
2026-01-28 09:18:27.93	334.23	4.80	-53.6	-62.4	3.8	7.45e-01	0	43	104	6023020544	77	10753
2026-01-28 09:18:28.94	334.33	4.72	-53.8	-62.6	3.8	7.46e-01	0	44	104	6023020544	78	10403
2026-01-28 09:18:29.95	334.42	4.65	-53.9	-62.8	3.8	7.46e-01	0	44	104	6023020544	78	10585
2026-01-28 09:18:30.96	334.52	4.58	-54.0	-62.9	3.8	7.44e-01	0	44	104	6023020544	78	10688
2026-01-28 09:18:31.97	334.61	4.51	-54.2	-63.0	3.8	7.45e-01	0	44	104	6023020544	78	10831
2026-01-28 09:18:32.97	334.71	4.44	-54.2	-63.0	3.8	7.45e-01	0	44	104	6023020544	78	10846
2026-01-28 09:18:33.98	334.80	4.37	-54.2	-63.0	3.8	7.45e-01	0	44	104	6023020544	78	10858
2026-01-28 09:18:34.99	334.89	4.30	-54.2	-63.0	3.8	7.44e-01	0	43	104	6023020544	78	10803
2026-01-28 09:18:36.00	334.99	4.23	-54.1	-62.9	3.8	7.45e-01	0	43	104	6023020544	78	10749
2026-01-28 09:18:37.00	335.08	4.16	-54.0	-62.9	3.8	7.45e-01	0	44	104	6023020544	78	10689
2026-01-28 09:18:38.01	335.17	4.09	-53.9	-62.8	3.8	7.46e-01	0	44	104	6023020544	78	10539
2026-01-28 09:18:39.02	335.26	4.02	-53.9	-62.8	3.8	7.44e-01	0	43	104	6023020544	78	10580
2026-01-28 09:18:40.03	335.35	3.95	-54.0	-62.8	3.8	7.46e-01	0	43	104	6023020544	78	10624
2026-01-28 09:18:41.03	335.44	3.88	-54.0	-62.9	3.8	7.44e-01	0	44	104	6023020544	78	10695
2026-01-28 09:18:42.05	335.53	3.81	-54.1	-62.9	3.8	7.45e-01	0	43	104	6023020544	78	10742
2026-01-28 09:18:43.05	335.62	3.75	-54.1	-63.0	3.8	7.45e-01	0	44	104	6023020544	78	10791
2026-01-28 09:18:44.06	335.71	3.68	-54.2	-63.0	3.8	7.44e-01	0	43	104	6023020544	78	10814
2026-01-28 09:18:45.07	335.80	3.61	-54.2	-63.0	3.8	7.45e-01	0	43	104	6023020544	78	10821
2026-01-28 09:18:46.08	335.88	3.54	-54.2	-63.0	3.8	7.44e-01	0	43	104	6023020544	78	10844
2026-01-28 09:18:47.09	335.97	3.47	-54.1	-63.0	3.8	7.46e-01	0	43	104	6023020544	78	10810
2026-01-28 09:18:48.10	336.06	3.40	-54.1	-62.9	3.8	7.46e-01	0	44	104	6023020544	78	10756
2026-01-28 09:18:49.11	336.14	3.34	-54.0	-62.9	3.8	7.44e-01	0	44	104	6023020544	78	10711
2026-01-28 09:18:50.11	336.23	3.27	-54.0	-62.8	3.8	7.44e-01	0	43	104	6023020544	78	10652
2026-01-28 09:18:51.13	336.31	3.20	-54.0	-62.9	3.8	7.44e-01	0	43	104	6023020544	78	10692
2026-01-28 09:18:52.13	336.40	3.14	-54.0	-62.9	3.8	7.45e-01	0	43	104	6023020544	78	10684
2026-01-28 09:18:53.14	336.48	3.07	-54.0	-62.9	3.8	7.46e-01	0	43	104	6023020544	78	10656
2026-01-28 09:18:54.15	336.56	3.00	-54.0	-62.8	3.8	7.47e-01	0	44	104	6023020544	78	10631
2026-01-28 09:18:55.16	336.65	2.94	-54.0	-62.8	3.8	7.44e-01	0	43	104	6023020544	78	10647
2026-01-28 09:18:56.16	336.73	2.87	-54.0	-62.8	3.8	7.46e-01	0	43	104	6023020544	78	10651
2026-01-28 09:18:57.17	336.81	2.80	-54.0	-62.8	3.8	7.46e-01	0	43	104	6023020544	78	10607
2026-01-28 09:18:58.18	336.89	2.74	-54.0	-62.9	3.8	7.45e-01	0	43	104	6023020544	78	10659
2026-01-28 09:18:59.19	336.98	2.67	-54.0	-62.8	3.8	7.45e-01	0	43	104	6023020544	78	10648
2026-01-28 09:19:00.20	337.06	2.61	-54.0	-62.8	3.8	7.45e-01	0	44	104	6023020544	78	10607
2026-01-28 09:19:01.21	337.14	2.54	-54.0	-62.8	3.8	7.44e-01	0	44	104	6023020544	78	10639
2026-01-28 09:19:02.21	337.22	2.48	-54.0	-62.8	3.8	7.45e-01	0	44	104	6023020544	78	10605
2026-01-28 09:19:03.22	337.30	2.41	-54.0	-62.8	3.8	7.46e-01	0	43	104	6023020544	78	10626
2026-01-28 09:19:04.23	337.38	2.34	-54.0	-62.8	3.8	7.45e-01	0	43	104	6023020544	78	10630
2026-01-28 09:19:05.23	337.45	2.28	-54.0	-62.8	3.8	7.46e-01	0	43	104	6023020544	78	10597
2026-01-28 09:19:06.24	337.53	2.22	-54.0	-62.8	3.8	7.47e-01	0	43	104	6023020544	78	10615
2026-01-28 09:19:07.25	337.61	2.15	-54.0	-62.8	3.8	7.44e-01	0	43	104	6023020544	78	10615
2026-01-28 09:19:08.26	337.69	2.09	-54.0	-62.8	3.8	7.45e-01	0	44	104	6023020544	78	10601
2026-01-28 09:19:09.27	337.76	2.02	-53.9	-62.8	3.8	7.46e-01	0	44	104	6023020544	78	10560
2026-01-28 09:19:10.27	337.84	1.96	-53.9	-62.8	3.8	7.45e-01	0	44	104	6023020544	78	10593

#Closed at: 2026-01-28 09:19:10
#Recorded file [6023 MB]: D:/lorett/data/31041_260128_120920.dat