passes_logs/2026/01/28/R3.2S_Murmansk/R3.2S_Murmansk__20260128_054723_NOAA_20_JPSS-1_rec.log

#Pass ID: 20260128_054723_NOAA 20 (JPSS-1)
#Satellite: NOAA 20 (JPSS-1)
#Configuration: NOAA 20
#almurnet v.1.7.20251203
#Start time: 2026-01-28 05:47:24

#Version: 2.2.20231116
#Station: R3.2S_Murmansk
#Location: 33.079688 lon 68.888172 lat
#TLE: 1 43013U 17073A   26027.31247158  .00000160  00000+0  97001-4 0  9994
#TLE: 2 43013  98.7647 328.1226 0000969  21.9986 338.1231 14.19541059424489

#Time	Az	El	Level	Level2	SNR	BER	BlckErr	Temp	State	Recorded	gain1	gain2
2026-01-28 05:47:24.03	72.06	2.06	-54.0	-69.0	3.8	1.49e+00	0	41	0	0	79	20375
2026-01-28 05:47:25.02	72.00	2.11	-54.0	-69.0	3.8	1.49e+00	0	41	104	0	78	21600
2026-01-28 05:47:26.03	71.93	2.17	-54.0	-69.0	3.8	1.49e+00	0	41	104	0	78	21523
2026-01-28 05:47:27.04	71.87	2.23	-54.0	-68.9	3.8	1.49e+00	0	41	104	0	78	21491
2026-01-28 05:47:28.04	71.81	2.29	-54.0	-69.0	3.8	1.49e+00	0	41	104	0	78	21507
2026-01-28 05:47:29.05	71.74	2.34	-54.1	-69.1	3.8	1.49e+00	0	41	104	0	78	21928
2026-01-28 05:47:30.06	71.68	2.40	-54.2	-69.2	3.8	1.49e+00	0	41	104	0	78	22099
2026-01-28 05:47:31.06	71.61	2.46	-54.2	-69.2	3.8	1.49e+00	0	41	104	0	78	22112
2026-01-28 05:47:32.07	71.55	2.52	-54.2	-69.2	3.8	1.49e+00	0	41	104	0	78	22087
2026-01-28 05:47:33.08	71.48	2.58	-54.2	-69.2	3.8	1.49e+00	0	41	104	0	78	22065
2026-01-28 05:47:34.09	71.42	2.64	-54.2	-69.1	3.8	1.49e+00	0	41	104	0	78	21919
2026-01-28 05:47:35.10	71.35	2.69	-54.1	-69.1	3.8	1.49e+00	0	41	104	0	78	21924
2026-01-28 05:47:36.10	71.29	2.75	-54.1	-69.1	3.8	1.49e+00	0	41	104	0	78	21810
2026-01-28 05:47:37.11	71.22	2.81	-54.1	-69.0	3.8	1.49e+00	0	41	104	0	78	21708
2026-01-28 05:47:38.12	71.15	2.87	-54.0	-68.9	3.8	1.49e+00	0	41	104	0	78	21502
2026-01-28 05:47:39.13	71.09	2.93	-53.9	-68.8	3.8	1.49e+00	0	41	104	0	78	21250
2026-01-28 05:47:40.14	71.02	2.99	-53.8	-68.8	3.8	1.49e+00	0	41	104	0	78	21141
2026-01-28 05:47:41.15	70.95	3.05	-53.8	-68.8	3.8	1.49e+00	0	41	104	0	78	21084
2026-01-28 05:47:42.15	70.88	3.11	-53.8	-68.7	3.8	1.49e+00	0	41	104	0	78	20976
2026-01-28 05:47:43.16	70.82	3.16	-53.7	-68.6	3.8	1.49e+00	0	42	104	0	78	20690
2026-01-28 05:47:44.17	70.75	3.22	-53.5	-68.5	3.8	1.49e+00	0	42	104	0	78	20423
2026-01-28 05:47:45.18	70.68	3.28	-53.4	-68.3	3.8	1.49e+00	0	42	104	0	78	20007
2026-01-28 05:47:46.19	70.61	3.34	-53.2	-68.2	3.8	1.49e+00	0	41	104	0	78	19768
2026-01-28 05:47:47.19	70.54	3.40	-53.1	-68.0	3.8	1.49e+00	0	42	104	0	78	19369
2026-01-28 05:47:48.21	70.47	3.46	-52.8	-67.8	3.8	1.49e+00	0	42	104	0	77	19892
2026-01-28 05:47:49.21	70.40	3.52	-52.6	-67.5	3.8	1.49e+00	0	42	104	0	77	19275
2026-01-28 05:47:50.22	70.33	3.58	-52.1	-67.0	3.8	1.49e+00	0	41	104	0	76	19313
2026-01-28 05:47:51.23	70.26	3.64	-51.9	-66.8	3.8	1.49e+00	0	42	104	0	75	20011
2026-01-28 05:47:52.23	70.19	3.70	-51.9	-66.8	3.8	1.49e+00	0	42	104	0	75	19884
2026-01-28 05:47:53.24	70.12	3.76	-51.9	-66.8	3.8	1.49e+00	0	42	104	0	75	19963
2026-01-28 05:47:54.25	70.05	3.82	-51.9	-66.8	3.8	1.49e+00	0	42	104	0	75	19881
2026-01-28 05:47:55.25	69.98	3.88	-51.9	-66.7	3.8	1.49e+00	0	42	104	0	75	19738
2026-01-28 05:47:56.26	69.91	3.94	-51.9	-66.5	3.8	1.49e+00	0	42	104	0	75	19313
2026-01-28 05:47:57.26	69.84	4.00	-51.8	-66.0	3.8	1.49e+00	0	42	104	0	75	18100
2026-01-28 05:47:58.27	69.76	4.06	-51.8	-65.2	3.8	1.49e+00	0	42	104	0	75	16537
2026-01-28 05:47:59.28	69.69	4.12	-51.7	-64.2	4.0	1.48e+00	0	42	104	0	75	14746
2026-01-28 05:48:00.29	69.62	4.18	-51.7	-63.3	4.2	1.41e+00	0	42	0	0	75	13268
2026-01-28 05:48:01.30	69.54	4.24	-51.6	-62.6	4.4	1.39e+00	176	42	0	0	75	12257
2026-01-28 05:48:02.30	69.47	4.30	-51.6	-62.2	4.5	1.09e+00	1	42	0	2097152	75	11762
2026-01-28 05:48:03.31	69.40	4.36	-51.6	-62.2	4.5	1.18e+00	14	42	0	3145728	75	11793
2026-01-28 05:48:04.32	69.32	4.43	-51.6	-63.0	4.3	1.10e+00	47	42	0	5242880	75	12908
2026-01-28 05:48:05.33	69.25	4.49	-51.7	-63.5	4.1	1.39e+00	0	42	0	5242880	75	13642
2026-01-28 05:48:06.33	69.17	4.55	-51.7	-64.6	3.9	1.48e+00	0	42	104	5242880	75	15579
2026-01-28 05:48:07.34	69.10	4.61	-51.8	-65.5	3.8	1.49e+00	0	42	104	5242880	75	17084
2026-01-28 05:48:08.35	69.02	4.67	-51.8	-65.4	3.8	1.49e+00	0	42	104	5242880	75	17038
2026-01-28 05:48:09.35	68.95	4.73	-51.7	-64.9	3.8	1.49e+00	0	42	104	5242880	75	16021
2026-01-28 05:48:10.36	68.87	4.79	-51.7	-63.6	4.1	1.47e+00	0	42	104	5242880	75	13833
2026-01-28 05:48:11.37	68.79	4.86	-51.6	-62.2	4.5	1.35e+00	2	42	0	5242880	75	11810
2026-01-28 05:48:12.38	68.72	4.92	-51.5	-61.5	4.9	8.31e-01	0	42	0	7340032	75	10799
2026-01-28 05:48:13.39	68.64	4.98	-51.4	-61.1	5.1	6.93e-01	0	42	0	9437184	74	10970
2026-01-28 05:48:14.39	68.56	5.04	-51.4	-61.0	5.1	6.31e-01	0	42	0	11534336	74	10895
2026-01-28 05:48:15.40	68.48	5.10	-50.8	-57.3	7.9	4.86e-01	0	42	0	12582912	73	7482
2026-01-28 05:48:16.40	68.41	5.16	-49.9	-54.3	11.9	7.00e-07	0	42	0	14680064	70	6337
2026-01-28 05:48:17.41	68.33	5.23	-51.8	-66.7	3.8	1.49e+00	0	42	104	15728640	74	21016
2026-01-28 05:48:18.41	68.25	5.29	-49.4	-53.1	12.7	1.63e-01	0	42	0	15728640	71	5170
2026-01-28 05:48:19.42	68.17	5.35	-49.1	-52.6	13.3	6.56e-05	0	42	0	17825792	69	5470
2026-01-28 05:48:20.42	68.09	5.41	-48.6	-51.6	14.3	1.50e-06	0	42	0	19922944	68	5180
2026-01-28 05:48:21.43	68.01	5.48	-48.2	-50.9	15.1	1.50e-06	0	42	0	22020096	68	4785
2026-01-28 05:48:22.44	67.93	5.54	-48.3	-51.1	14.8	0.00e+00	0	42	0	24117248	68	4885
2026-01-28 05:48:23.44	67.85	5.60	-48.2	-50.9	15.2	0.00e+00	0	42	0	26214400	68	4761
2026-01-28 05:48:24.45	67.77	5.66	-48.2	-50.9	15.1	0.00e+00	0	42	0	27262976	68	4778
2026-01-28 05:48:25.46	67.69	5.73	-48.2	-50.9	15.1	0.00e+00	0	42	0	29360128	68	4810
2026-01-28 05:48:26.46	67.61	5.79	-48.0	-50.6	15.5	0.00e+00	0	42	0	31457280	68	4627
2026-01-28 05:48:27.47	67.52	5.85	-48.1	-50.8	15.2	0.00e+00	0	42	0	33554432	68	4724
2026-01-28 05:48:28.47	67.44	5.92	-48.3	-51.1	14.9	0.00e+00	0	42	0	35651584	68	4908
2026-01-28 05:48:29.48	67.36	5.98	-48.0	-50.5	15.5	0.00e+00	0	42	0	36700160	67	4855
2026-01-28 05:48:30.48	67.27	6.04	-48.0	-50.6	15.4	0.00e+00	0	42	0	38797312	67	4922
2026-01-28 05:48:31.48	67.19	6.10	-48.1	-50.7	15.2	0.00e+00	0	42	0	40894464	67	4966
2026-01-28 05:48:32.49	67.11	6.17	-48.1	-50.8	15.2	0.00e+00	0	42	0	42991616	67	5008
2026-01-28 05:48:33.49	67.02	6.23	-47.9	-50.4	15.6	0.00e+00	0	43	0	44040192	67	4783
2026-01-28 05:48:34.50	66.94	6.30	-47.9	-50.3	15.8	0.00e+00	0	42	0	46137344	67	4746
2026-01-28 05:48:35.51	66.85	6.36	-48.0	-50.5	15.6	7.00e-07	0	42	0	48234496	67	4834
2026-01-28 05:48:36.51	66.77	6.42	-47.8	-50.2	15.9	0.00e+00	0	42	0	50331648	67	4665
2026-01-28 05:48:37.52	66.68	6.49	-47.8	-50.2	15.8	0.00e+00	0	42	0	52428800	67	4697
2026-01-28 05:48:38.53	66.60	6.55	-47.8	-50.3	15.8	0.00e+00	0	42	0	53477376	67	4713
2026-01-28 05:48:39.54	66.51	6.62	-47.8	-50.1	16.0	0.00e+00	0	42	0	55574528	67	4641
2026-01-28 05:48:40.54	66.42	6.68	-47.9	-50.3	15.8	0.00e+00	0	42	0	57671680	67	4726
2026-01-28 05:48:41.55	66.33	6.74	-47.7	-50.1	16.1	0.00e+00	0	42	0	59768832	67	4612
2026-01-28 05:48:42.56	66.25	6.81	-47.7	-50.0	16.2	0.00e+00	0	42	0	61865984	67	4567
2026-01-28 05:48:43.57	66.16	6.87	-47.9	-50.3	15.8	0.00e+00	0	42	0	63963136	67	4723
2026-01-28 05:48:44.57	66.07	6.94	-47.8	-50.2	15.9	0.00e+00	0	43	0	65011712	67	4682
2026-01-28 05:48:45.58	65.98	7.00	-47.8	-50.2	16.0	0.00e+00	0	42	0	67108864	67	4668
2026-01-28 05:48:46.58	65.89	7.07	-47.9	-50.3	16.0	0.00e+00	0	43	0	69206016	67	4708
2026-01-28 05:48:47.59	65.80	7.13	-48.0	-50.4	15.8	0.00e+00	0	43	0	71303168	67	4811
2026-01-28 05:48:48.59	65.71	7.20	-48.0	-50.4	15.8	0.00e+00	0	42	0	72351744	67	4810
2026-01-28 05:48:49.60	65.62	7.26	-48.0	-50.5	15.8	0.00e+00	0	42	0	74448896	67	4842
2026-01-28 05:48:50.60	65.53	7.33	-48.0	-50.4	15.8	0.00e+00	0	43	0	76546048	67	4774
2026-01-28 05:48:51.60	65.44	7.39	-47.7	-50.0	16.2	0.00e+00	0	42	0	78643200	67	4573
2026-01-28 05:48:52.61	65.35	7.46	-47.8	-50.1	16.1	0.00e+00	0	43	0	80740352	67	4636
2026-01-28 05:48:53.61	65.25	7.52	-47.8	-50.1	16.1	0.00e+00	0	42	0	81788928	67	4621
2026-01-28 05:48:54.62	65.16	7.59	-47.8	-50.2	16.1	0.00e+00	0	42	0	83886080	67	4653
2026-01-28 05:48:55.63	65.07	7.66	-47.8	-50.1	16.1	0.00e+00	0	43	0	85983232	67	4639
2026-01-28 05:48:56.64	64.97	7.72	-47.7	-50.0	16.3	0.00e+00	0	43	0	88080384	67	4558
2026-01-28 05:48:57.64	64.88	7.79	-47.8	-50.1	16.2	0.00e+00	0	42	0	90177536	67	4629
2026-01-28 05:48:58.65	64.78	7.85	-47.8	-50.2	16.1	0.00e+00	0	43	0	92274688	67	4675
2026-01-28 05:48:59.66	64.69	7.92	-47.9	-50.2	16.1	0.00e+00	0	42	0	93323264	67	4679
2026-01-28 05:49:00.67	64.59	7.99	-47.8	-50.0	16.2	0.00e+00	0	42	0	95420416	67	4589
2026-01-28 05:49:01.68	64.50	8.05	-47.9	-50.3	16.0	0.00e+00	0	43	0	97517568	67	4719
2026-01-28 05:49:02.69	64.40	8.12	-48.0	-50.4	15.9	0.00e+00	0	43	0	99614720	67	4794
2026-01-28 05:49:03.70	64.30	8.19	-47.8	-50.1	16.2	0.00e+00	0	43	0	100663296	67	4627
2026-01-28 05:49:04.70	64.21	8.25	-47.7	-49.9	16.4	0.00e+00	0	43	0	102760448	67	4521
2026-01-28 05:49:05.71	64.11	8.32	-47.7	-49.9	16.4	0.00e+00	0	43	0	104857600	67	4521
2026-01-28 05:49:06.71	64.01	8.39	-47.6	-49.9	16.5	0.00e+00	0	43	0	106954752	67	4497
2026-01-28 05:49:07.72	63.91	8.45	-47.7	-49.9	16.5	0.00e+00	0	42	0	109051904	67	4514
2026-01-28 05:49:08.73	63.81	8.52	-47.6	-49.8	16.6	0.00e+00	0	43	0	110100480	67	4464
2026-01-28 05:49:09.74	63.71	8.59	-47.5	-49.7	16.6	0.00e+00	0	43	0	112197632	67	4419
2026-01-28 05:49:10.75	63.61	8.65	-47.5	-49.6	16.7	0.00e+00	0	43	0	114294784	67	4351
2026-01-28 05:49:11.75	63.51	8.72	-47.4	-49.5	16.8	0.00e+00	0	42	0	116391936	66	4595
2026-01-28 05:49:12.76	63.41	8.79	-47.4	-49.5	16.9	0.00e+00	0	43	0	118489088	66	4569
2026-01-28 05:49:13.76	63.31	8.86	-47.4	-49.5	16.8	0.00e+00	0	43	0	120586240	66	4559
2026-01-28 05:49:14.77	63.20	8.92	-47.3	-49.3	17.0	0.00e+00	0	43	0	121634816	66	4487
2026-01-28 05:49:15.77	63.10	8.99	-47.4	-49.4	16.9	0.00e+00	0	43	0	123731968	66	4537
2026-01-28 05:49:16.78	63.00	9.06	-47.3	-49.4	17.0	0.00e+00	0	43	0	125829120	66	4504
2026-01-28 05:49:17.79	62.90	9.13	-47.3	-49.4	17.0	0.00e+00	0	43	0	127926272	66	4512
2026-01-28 05:49:18.79	62.79	9.19	-47.2	-49.2	17.2	0.00e+00	0	43	0	128974848	66	4423
2026-01-28 05:49:19.80	62.69	9.26	-47.3	-49.3	17.1	0.00e+00	0	43	0	131072000	66	4457
2026-01-28 05:49:20.81	62.58	9.33	-47.3	-49.3	17.1	0.00e+00	0	43	0	133169152	66	4479
2026-01-28 05:49:21.81	62.48	9.40	-47.3	-49.3	17.2	0.00e+00	0	43	0	135266304	66	4463
2026-01-28 05:49:22.82	62.37	9.47	-47.3	-49.3	17.1	0.00e+00	0	43	0	137363456	66	4463
2026-01-28 05:49:23.82	62.26	9.53	-47.1	-49.1	17.3	0.00e+00	0	43	0	138412032	66	4364
2026-01-28 05:49:24.83	62.16	9.60	-47.2	-49.2	17.2	0.00e+00	0	43	0	140509184	66	4426
2026-01-28 05:49:25.83	62.05	9.67	-47.3	-49.3	17.2	0.00e+00	0	43	0	142606336	66	4444
2026-01-28 05:49:26.84	61.94	9.74	-47.2	-49.2	17.2	0.00e+00	0	43	0	144703488	66	4434
2026-01-28 05:49:27.85	61.83	9.81	-47.3	-49.3	17.1	0.00e+00	0	43	0	146800640	66	4455
2026-01-28 05:49:28.86	61.72	9.88	-47.3	-49.3	17.1	0.00e+00	0	43	0	148897792	66	4488
2026-01-28 05:49:29.87	61.61	9.95	-47.2	-49.2	17.2	0.00e+00	0	43	0	149946368	66	4441
2026-01-28 05:49:30.87	61.50	10.02	-47.3	-49.3	17.1	0.00e+00	0	43	0	152043520	66	4492
2026-01-28 05:49:31.87	61.39	10.08	-47.4	-49.5	17.0	0.00e+00	0	43	0	154140672	66	4572
2026-01-28 05:49:32.88	61.28	10.15	-47.4	-49.4	17.1	0.00e+00	0	43	0	156237824	66	4527
2026-01-28 05:49:33.89	61.17	10.22	-47.4	-49.5	17.0	0.00e+00	0	43	0	157286400	66	4580
2026-01-28 05:49:34.89	61.06	10.29	-47.5	-49.6	16.9	0.00e+00	0	43	0	159383552	66	4602
2026-01-28 05:49:35.90	60.94	10.36	-47.4	-49.5	17.0	0.00e+00	0	43	0	161480704	66	4578
2026-01-28 05:49:36.91	60.83	10.43	-47.4	-49.4	17.0	0.00e+00	0	43	0	163577856	66	4535
2026-01-28 05:49:37.91	60.72	10.50	-47.4	-49.5	17.0	0.00e+00	0	43	0	165675008	66	4550
2026-01-28 05:49:38.92	60.60	10.57	-47.4	-49.5	17.0	0.00e+00	0	43	0	166723584	66	4556
2026-01-28 05:49:39.92	60.49	10.64	-47.4	-49.5	17.1	0.00e+00	0	43	0	168820736	66	4548
2026-01-28 05:49:40.93	60.37	10.71	-47.3	-49.4	17.2	0.00e+00	0	43	0	170917888	66	4496
2026-01-28 05:49:41.94	60.25	10.78	-47.4	-49.4	17.1	0.00e+00	0	42	0	173015040	66	4506
2026-01-28 05:49:42.95	60.14	10.85	-47.4	-49.4	17.1	0.00e+00	0	43	0	175112192	66	4509
2026-01-28 05:49:43.96	60.02	10.92	-47.3	-49.3	17.2	0.00e+00	0	43	0	177209344	66	4488
2026-01-28 05:49:44.97	59.90	10.99	-47.3	-49.3	17.2	0.00e+00	0	43	0	178257920	66	4483
2026-01-28 05:49:45.97	59.78	11.06	-47.3	-49.2	17.2	0.00e+00	0	43	0	180355072	66	4429
2026-01-28 05:49:46.98	59.66	11.13	-47.2	-49.1	17.4	0.00e+00	0	43	0	182452224	66	4388
2026-01-28 05:49:47.99	59.54	11.20	-47.2	-49.2	17.4	0.00e+00	0	43	0	184549376	66	4393
2026-01-28 05:49:48.99	59.42	11.27	-47.1	-49.1	17.5	0.00e+00	0	43	0	185597952	66	4354
2026-01-28 05:49:50.00	59.30	11.34	-47.1	-49.0	17.5	0.00e+00	0	43	0	187695104	66	4312
2026-01-28 05:49:51.01	59.18	11.41	-47.1	-49.1	17.4	0.00e+00	0	43	0	189792256	66	4349
2026-01-28 05:49:52.01	59.06	11.48	-47.1	-49.0	17.5	0.00e+00	0	43	0	191889408	66	4309
2026-01-28 05:49:53.02	58.93	11.56	-47.1	-49.0	17.5	0.00e+00	0	43	0	193986560	66	4300
2026-01-28 05:49:54.02	58.81	11.63	-47.1	-49.0	17.5	0.00e+00	0	43	0	195035136	66	4302
2026-01-28 05:49:55.03	58.69	11.70	-47.0	-48.9	17.5	0.00e+00	0	43	0	197132288	66	4261
2026-01-28 05:49:56.03	58.56	11.77	-46.9	-48.8	17.3	0.00e+00	0	43	0	199229440	65	4469
2026-01-28 05:49:57.04	58.44	11.84	-46.9	-48.8	17.2	0.00e+00	0	43	0	201326592	65	4460
2026-01-28 05:49:58.04	58.31	11.91	-46.8	-48.7	17.5	0.00e+00	0	43	0	203423744	65	4401
2026-01-28 05:49:59.05	58.19	11.98	-46.8	-48.7	17.5	0.00e+00	0	43	0	205520896	65	4395
2026-01-28 05:50:00.05	58.06	12.05	-46.8	-48.5	17.7	0.00e+00	0	43	0	206569472	65	4337
2026-01-28 05:50:01.06	57.93	12.12	-46.8	-48.6	17.7	0.00e+00	0	43	0	208666624	65	4382
2026-01-28 05:50:02.07	57.80	12.19	-46.8	-48.5	17.8	0.00e+00	0	43	0	210763776	65	4337
2026-01-28 05:50:03.08	57.67	12.27	-46.8	-48.5	18.0	0.00e+00	0	43	0	212860928	65	4331
2026-01-28 05:50:04.08	57.54	12.34	-46.7	-48.5	18.0	0.00e+00	0	43	0	213909504	65	4321
2026-01-28 05:50:05.09	57.41	12.41	-46.7	-48.5	17.8	0.00e+00	0	43	0	216006656	65	4305
2026-01-28 05:50:06.10	57.28	12.48	-46.7	-48.5	17.8	0.00e+00	0	43	0	218103808	65	4317
2026-01-28 05:50:07.10	57.15	12.55	-46.8	-48.6	17.7	0.00e+00	0	43	0	220200960	65	4383
2026-01-28 05:50:08.11	57.02	12.62	-46.8	-48.6	17.8	0.00e+00	0	43	0	222298112	65	4386
2026-01-28 05:50:09.10	56.89	12.70	-46.8	-48.6	17.8	0.00e+00	0	43	0	223346688	65	4379
2026-01-28 05:50:10.11	56.75	12.77	-46.8	-48.5	17.9	0.00e+00	0	43	0	225443840	65	4328
2026-01-28 05:50:11.12	56.62	12.84	-46.8	-48.6	17.8	0.00e+00	0	43	0	227540992	65	4358
2026-01-28 05:50:12.13	56.48	12.91	-46.7	-48.4	17.9	0.00e+00	0	43	0	229638144	65	4284
2026-01-28 05:50:13.13	56.35	12.98	-46.6	-48.4	18.0	0.00e+00	0	43	0	231735296	65	4256
2026-01-28 05:50:14.14	56.21	13.06	-46.7	-48.5	18.0	0.00e+00	0	43	0	233832448	65	4322
2026-01-28 05:50:15.15	56.07	13.13	-46.7	-48.5	18.0	0.00e+00	0	43	0	234881024	65	4307
2026-01-28 05:50:16.15	55.94	13.20	-46.5	-48.2	18.0	0.00e+00	0	43	0	236978176	65	4182
2026-01-28 05:50:17.16	55.80	13.27	-46.6	-48.3	18.0	0.00e+00	0	43	0	239075328	65	4218
2026-01-28 05:50:18.17	55.66	13.34	-46.5	-48.2	18.4	0.00e+00	0	43	0	241172480	65	4166
2026-01-28 05:50:19.17	55.52	13.42	-46.5	-48.2	18.3	0.00e+00	0	43	0	242221056	65	4177
2026-01-28 05:50:20.18	55.38	13.49	-46.4	-48.0	18.4	0.00e+00	0	43	0	244318208	64	4335
2026-01-28 05:50:21.19	55.24	13.56	-46.4	-48.1	18.4	0.00e+00	0	43	0	246415360	64	4341
2026-01-28 05:50:22.19	55.10	13.63	-46.5	-48.2	18.3	0.00e+00	0	43	0	248512512	64	4407
2026-01-28 05:50:23.20	54.95	13.71	-46.3	-47.9	18.7	0.00e+00	0	43	0	250609664	64	4280
2026-01-28 05:50:24.21	54.81	13.78	-46.2	-47.8	18.6	0.00e+00	0	43	0	251658240	64	4222
2026-01-28 05:50:25.22	54.67	13.85	-46.2	-47.8	18.4	0.00e+00	0	43	0	253755392	64	4227
2026-01-28 05:50:26.22	54.52	13.92	-46.2	-47.9	18.4	0.00e+00	0	43	0	255852544	64	4251
2026-01-28 05:50:27.23	54.38	14.00	-46.0	-47.7	17.5	0.00e+00	0	43	0	257949696	64	4158
2026-01-28 05:50:28.24	54.23	14.07	-45.8	-47.7	14.0	0.00e+00	0	43	0	260046848	63	4408
2026-01-28 05:50:29.25	54.08	14.14	-45.3	-47.6	11.4	3.00e-06	0	43	0	262144000	62	4632
2026-01-28 05:50:30.25	53.93	14.22	-43.0	-47.2	5.8	1.51e-02	0	43	0	263192576	58	5557
2026-01-28 05:50:31.25	53.79	14.29	-38.3	-45.1	3.7	1.42e+00	0	43	104	264241152	48	7735
2026-01-28 05:50:32.26	53.64	14.36	-36.6	-43.9	3.8	1.49e+00	0	43	104	264241152	45	8017
2026-01-28 05:50:33.26	53.49	14.43	-38.6	-45.1	3.9	1.49e+00	0	43	104	264241152	47	8255
2026-01-28 05:50:34.27	53.34	14.51	-45.0	-48.4	7.8	2.09e-01	0	43	0	264241152	60	5675
2026-01-28 05:50:35.28	53.19	14.58	-46.3	-50.1	7.2	1.20e-01	0	43	0	266338304	62	6157
2026-01-28 05:50:36.28	53.03	14.65	-52.4	-66.0	3.8	1.49e+00	0	43	104	267386880	76	17230
2026-01-28 05:50:37.29	52.88	14.72	-50.6	-54.8	11.4	4.07e-01	0	43	0	267386880	73	5656
2026-01-28 05:50:38.30	52.73	14.80	-47.2	-49.0	17.3	0.00e+00	0	43	0	269484032	65	4593
2026-01-28 05:50:39.31	52.57	14.87	-47.1	-49.0	17.5	0.00e+00	0	43	0	271581184	65	4566
2026-01-28 05:50:40.32	52.42	14.94	-46.7	-48.4	18.0	0.00e+00	0	43	0	273678336	65	4288
2026-01-28 05:50:41.33	52.26	15.02	-46.6	-48.2	18.2	0.00e+00	0	43	0	274726912	65	4191
2026-01-28 05:50:42.33	52.10	15.09	-46.6	-48.4	18.1	0.00e+00	0	43	0	276824064	65	4246
2026-01-28 05:50:43.34	51.95	15.16	-46.7	-48.4	17.8	0.00e+00	0	43	0	278921216	65	4271
2026-01-28 05:50:44.35	51.79	15.24	-46.6	-48.3	17.9	0.00e+00	0	43	0	281018368	65	4196
2026-01-28 05:50:45.36	51.63	15.31	-46.5	-48.2	18.3	0.00e+00	0	43	0	283115520	64	4401
2026-01-28 05:50:46.37	51.47	15.38	-46.5	-48.2	18.5	0.00e+00	0	43	0	285212672	64	4416
2026-01-28 05:50:47.37	51.31	15.45	-46.7	-48.4	18.3	0.00e+00	0	43	0	286261248	64	4517
2026-01-28 05:50:48.37	51.15	15.53	-46.6	-48.3	18.2	0.00e+00	0	43	0	288358400	64	4479
2026-01-28 05:50:49.38	50.98	15.60	-46.7	-48.4	18.3	0.00e+00	0	43	0	290455552	64	4504
2026-01-28 05:50:50.39	50.82	15.67	-46.7	-48.4	18.2	0.00e+00	0	43	0	292552704	64	4544
2026-01-28 05:50:51.40	50.66	15.75	-46.8	-48.5	18.1	0.00e+00	0	43	0	294649856	64	4581
2026-01-28 05:50:52.41	50.49	15.82	-46.8	-48.5	18.2	0.00e+00	0	43	0	295698432	64	4583
2026-01-28 05:50:53.41	50.33	15.89	-46.8	-48.5	18.3	0.00e+00	0	43	0	297795584	64	4584
2026-01-28 05:50:54.42	50.16	15.96	-46.8	-48.5	18.2	0.00e+00	0	43	0	299892736	64	4595
2026-01-28 05:50:55.43	49.99	16.04	-46.7	-48.5	18.3	0.00e+00	0	43	0	301989888	64	4550
2026-01-28 05:50:56.43	49.83	16.11	-46.8	-48.5	18.1	0.00e+00	0	43	0	304087040	64	4593
2026-01-28 05:50:57.44	49.66	16.18	-46.8	-48.5	18.1	0.00e+00	0	43	0	305135616	64	4554
2026-01-28 05:50:58.44	49.49	16.25	-46.7	-48.4	18.3	0.00e+00	0	43	0	307232768	64	4522
2026-01-28 05:50:59.45	49.32	16.33	-46.9	-48.6	18.2	0.00e+00	0	43	0	309329920	64	4629
2026-01-28 05:51:00.46	49.14	16.40	-46.8	-48.5	18.2	0.00e+00	0	43	0	311427072	64	4596
2026-01-28 05:51:01.47	48.97	16.47	-46.8	-48.6	18.1	0.00e+00	0	43	0	313524224	64	4615
2026-01-28 05:51:02.47	48.80	16.54	-46.8	-48.5	18.2	0.00e+00	0	43	0	314572800	64	4578
2026-01-28 05:51:03.47	48.63	16.62	-46.8	-48.6	18.1	0.00e+00	0	43	0	316669952	64	4610
2026-01-28 05:51:04.48	48.45	16.69	-46.9	-48.6	18.0	0.00e+00	0	43	0	318767104	64	4638
2026-01-28 05:51:05.49	48.28	16.76	-46.9	-48.7	18.0	0.00e+00	0	43	0	320864256	64	4653
2026-01-28 05:51:06.50	48.10	16.83	-47.0	-48.8	17.9	0.00e+00	0	43	0	322961408	64	4721
2026-01-28 05:51:07.50	47.92	16.90	-46.9	-48.7	18.0	0.00e+00	0	43	0	324009984	64	4692
2026-01-28 05:51:08.51	47.74	16.98	-46.9	-48.7	18.1	0.00e+00	0	43	0	326107136	64	4680
2026-01-28 05:51:09.52	47.56	17.05	-46.9	-48.6	18.2	0.00e+00	0	43	0	328204288	64	4635
2026-01-28 05:51:10.52	47.39	17.12	-46.9	-48.7	18.1	0.00e+00	0	43	0	330301440	64	4674
2026-01-28 05:51:11.53	47.20	17.19	-46.9	-48.6	18.2	0.00e+00	0	43	0	331350016	64	4634
2026-01-28 05:51:12.53	47.02	17.26	-46.9	-48.7	18.1	0.00e+00	0	43	0	333447168	64	4677
2026-01-28 05:51:13.53	46.84	17.33	-46.9	-48.7	18.1	0.00e+00	0	43	0	335544320	64	4677
2026-01-28 05:51:14.54	46.66	17.41	-47.0	-48.7	18.1	0.00e+00	0	43	0	337641472	64	4686
2026-01-28 05:51:15.55	46.47	17.48	-46.8	-48.5	18.3	0.00e+00	0	43	0	339738624	64	4570
2026-01-28 05:51:16.55	46.29	17.55	-46.8	-48.4	18.3	0.00e+00	0	43	0	341835776	64	4545
2026-01-28 05:51:17.56	46.10	17.62	-46.7	-48.4	18.5	0.00e+00	0	43	0	342884352	64	4500
2026-01-28 05:51:18.57	45.92	17.69	-46.8	-48.5	18.3	0.00e+00	0	43	0	344981504	64	4566
2026-01-28 05:51:19.57	45.73	17.76	-46.7	-48.4	18.5	0.00e+00	0	43	0	347078656	64	4494
2026-01-28 05:51:20.58	45.54	17.83	-46.6	-48.3	18.5	0.00e+00	0	43	0	349175808	64	4464
2026-01-28 05:51:21.58	45.35	17.90	-46.7	-48.3	18.5	0.00e+00	0	43	0	351272960	64	4480
2026-01-28 05:51:22.59	45.16	17.97	-46.6	-48.2	18.6	0.00e+00	0	43	0	352321536	64	4420
2026-01-28 05:51:23.60	44.97	18.04	-46.6	-48.2	18.6	0.00e+00	0	43	0	354418688	64	4420
2026-01-28 05:51:24.61	44.78	18.11	-46.6	-48.2	18.6	0.00e+00	0	43	0	356515840	64	4413
2026-01-28 05:51:25.61	44.58	18.18	-46.6	-48.2	18.6	0.00e+00	0	43	0	358612992	64	4419
2026-01-28 05:51:26.62	44.39	18.25	-46.3	-47.9	18.9	0.00e+00	0	43	0	359661568	64	4270
2026-01-28 05:51:27.62	44.20	18.32	-46.2	-47.8	19.1	0.00e+00	0	43	0	361758720	64	4202
2026-01-28 05:51:28.63	44.00	18.39	-46.1	-47.7	19.1	0.00e+00	0	43	0	363855872	64	4152
2026-01-28 05:51:29.64	43.80	18.46	-46.1	-47.6	19.2	0.00e+00	0	43	0	365953024	64	4121
2026-01-28 05:51:30.65	43.60	18.53	-46.1	-47.6	19.3	0.00e+00	0	43	0	368050176	64	4111
2026-01-28 05:51:31.65	43.41	18.60	-46.0	-47.5	19.4	0.00e+00	0	43	0	370147328	63	4299
2026-01-28 05:51:32.66	43.21	18.67	-45.9	-47.3	19.6	0.00e+00	0	43	0	371195904	63	4224
2026-01-28 05:51:33.67	43.00	18.74	-45.7	-47.1	19.8	0.00e+00	0	43	0	373293056	63	4133
2026-01-28 05:51:34.68	42.80	18.81	-45.6	-46.9	20.0	0.00e+00	0	43	0	375390208	63	4046
2026-01-28 05:51:35.69	42.60	18.88	-45.4	-46.8	20.2	0.00e+00	0	43	0	377487360	62	4209
2026-01-28 05:51:36.69	42.40	18.95	-45.3	-46.7	20.2	0.00e+00	0	43	0	379584512	62	4156
2026-01-28 05:51:37.70	42.19	19.01	-45.3	-46.6	20.4	0.00e+00	0	43	0	380633088	62	4109
2026-01-28 05:51:38.71	41.99	19.08	-45.1	-46.4	20.5	0.00e+00	0	43	0	382730240	62	4021
2026-01-28 05:51:39.71	41.78	19.15	-45.0	-46.3	20.6	0.00e+00	0	43	0	384827392	62	3982
2026-01-28 05:51:40.72	41.57	19.22	-45.1	-46.4	20.5	0.00e+00	0	43	0	386924544	62	4035
2026-01-28 05:51:41.73	41.37	19.28	-45.0	-46.3	20.6	0.00e+00	0	43	0	387973120	62	3970
2026-01-28 05:51:42.73	41.16	19.35	-45.0	-46.3	20.6	0.00e+00	0	43	0	390070272	62	3983
2026-01-28 05:51:43.74	40.95	19.42	-45.0	-46.3	20.7	0.00e+00	0	43	0	392167424	61	4200
2026-01-28 05:51:44.75	40.74	19.49	-44.9	-46.2	20.7	0.00e+00	0	43	0	394264576	61	4161
2026-01-28 05:51:45.76	40.52	19.55	-44.8	-46.0	20.9	0.00e+00	0	43	0	396361728	61	4081
2026-01-28 05:51:46.77	40.31	19.62	-44.8	-46.0	20.9	0.00e+00	0	43	0	398458880	61	4098
2026-01-28 05:51:47.77	40.10	19.68	-44.8	-46.0	20.8	0.00e+00	0	43	0	399507456	61	4097
2026-01-28 05:51:48.78	39.88	19.75	-44.8	-46.0	20.9	0.00e+00	0	43	0	401604608	61	4081
2026-01-28 05:51:49.79	39.67	19.82	-44.8	-46.0	20.9	0.00e+00	0	43	0	403701760	61	4085
2026-01-28 05:51:50.79	39.45	19.88	-44.7	-45.9	21.0	0.00e+00	0	43	0	405798912	61	4030
2026-01-28 05:51:51.80	39.24	19.95	-44.7	-45.9	20.9	0.00e+00	0	43	0	407896064	61	4036
2026-01-28 05:51:52.81	39.02	20.01	-44.6	-45.9	21.1	0.00e+00	0	43	0	408944640	61	4007
2026-01-28 05:51:53.82	38.80	20.08	-44.7	-45.9	21.0	0.00e+00	0	43	0	411041792	61	4009
2026-01-28 05:51:54.83	38.58	20.14	-44.7	-45.9	21.0	0.00e+00	0	43	0	413138944	61	4030
2026-01-28 05:51:55.83	38.36	20.20	-44.6	-45.8	21.1	0.00e+00	0	43	0	415236096	61	3971
2026-01-28 05:51:56.84	38.13	20.27	-44.5	-45.7	21.3	0.00e+00	0	43	0	417333248	60	4150
2026-01-28 05:51:57.85	37.91	20.33	-44.5	-45.6	21.3	0.00e+00	0	43	0	418381824	60	4145
2026-01-28 05:51:58.85	37.69	20.39	-44.3	-45.5	21.4	0.00e+00	0	43	0	420478976	60	4072
2026-01-28 05:51:59.86	37.46	20.46	-44.4	-45.5	21.4	0.00e+00	0	43	0	422576128	60	4078
2026-01-28 05:52:00.87	37.24	20.52	-44.5	-45.6	21.3	0.00e+00	0	43	0	424673280	60	4142
2026-01-28 05:52:01.88	37.01	20.58	-44.5	-45.7	21.2	0.00e+00	0	43	0	426770432	60	4172
2026-01-28 05:52:02.88	36.78	20.64	-44.5	-45.6	21.3	0.00e+00	0	43	0	427819008	60	4136
2026-01-28 05:52:03.89	36.56	20.70	-44.5	-45.6	21.3	0.00e+00	0	43	0	429916160	60	4141
2026-01-28 05:52:04.89	36.33	20.76	-44.5	-45.7	21.2	0.00e+00	0	43	0	432013312	60	4174
2026-01-28 05:52:05.90	36.10	20.82	-44.5	-45.6	21.3	0.00e+00	0	43	0	434110464	60	4140
2026-01-28 05:52:06.91	35.87	20.89	-44.4	-45.6	21.3	0.00e+00	0	43	0	436207616	60	4122
2026-01-28 05:52:07.92	35.63	20.95	-44.5	-45.7	21.2	0.00e+00	0	43	0	437256192	60	4169
2026-01-28 05:52:08.92	35.40	21.00	-44.6	-45.8	21.2	0.00e+00	0	43	0	439353344	60	4206
2026-01-28 05:52:09.93	35.17	21.06	-44.6	-45.8	21.2	0.00e+00	0	43	0	441450496	60	4208
2026-01-28 05:52:10.94	34.93	21.12	-44.6	-45.8	21.1	0.00e+00	0	43	0	443547648	60	4239
2026-01-28 05:52:11.95	34.70	21.18	-44.7	-45.9	21.1	0.00e+00	0	43	0	445644800	60	4271
2026-01-28 05:52:12.95	34.46	21.24	-44.6	-45.8	21.1	0.00e+00	0	43	0	446693376	60	4223
2026-01-28 05:52:13.96	34.22	21.30	-44.6	-45.7	21.2	0.00e+00	0	43	0	448790528	60	4188
2026-01-28 05:52:14.97	33.98	21.36	-44.6	-45.8	21.2	0.00e+00	0	43	0	450887680	60	4212
2026-01-28 05:52:15.97	33.75	21.41	-44.6	-45.8	21.1	0.00e+00	0	43	0	452984832	60	4222
2026-01-28 05:52:16.98	33.50	21.47	-44.8	-46.0	20.9	0.00e+00	0	43	0	455081984	60	4300
2026-01-28 05:52:17.99	33.26	21.52	-44.7	-45.8	21.1	0.00e+00	0	43	0	456130560	60	4235
2026-01-28 05:52:18.99	33.02	21.58	-44.8	-46.0	21.0	0.00e+00	0	43	0	458227712	60	4299
2026-01-28 05:52:20.00	32.78	21.64	-44.6	-45.8	21.2	0.00e+00	0	43	0	460324864	60	4216
2026-01-28 05:52:21.00	32.54	21.69	-44.5	-45.7	21.2	0.00e+00	0	43	0	462422016	60	4162
2026-01-28 05:52:22.01	32.29	21.74	-44.4	-45.6	21.4	0.00e+00	0	43	0	464519168	60	4106
2026-01-28 05:52:23.02	32.05	21.80	-44.3	-45.4	21.5	0.00e+00	0	43	0	465567744	60	4051
2026-01-28 05:52:24.02	31.80	21.85	-44.2	-45.3	21.6	0.00e+00	0	43	0	467664896	60	3997
2026-01-28 05:52:25.03	31.55	21.90	-44.1	-45.3	21.6	0.00e+00	0	43	0	469762048	60	3961
2026-01-28 05:52:26.04	31.31	21.96	-44.3	-45.4	21.6	0.00e+00	0	43	0	471859200	60	4028
2026-01-28 05:52:27.05	31.06	22.01	-44.1	-45.2	21.7	0.00e+00	0	43	0	473956352	60	3956
2026-01-28 05:52:28.05	30.81	22.06	-44.2	-45.3	21.7	0.00e+00	0	43	0	475004928	60	3974
2026-01-28 05:52:29.05	30.56	22.11	-44.2	-45.3	21.6	0.00e+00	0	43	0	477102080	60	4003
2026-01-28 05:52:30.06	30.31	22.16	-44.3	-45.4	21.5	0.00e+00	0	43	0	479199232	60	4048
2026-01-28 05:52:31.07	30.05	22.21	-44.4	-45.6	21.4	0.00e+00	0	43	0	481296384	60	4101
2026-01-28 05:52:32.08	29.80	22.26	-44.3	-45.4	21.5	0.00e+00	0	43	0	483393536	60	4041
2026-01-28 05:52:33.08	29.55	22.31	-44.3	-45.5	21.5	0.00e+00	0	43	0	484442112	60	4060
2026-01-28 05:52:34.09	29.29	22.36	-44.2	-45.3	21.7	0.00e+00	0	43	0	486539264	60	3976
2026-01-28 05:52:35.09	29.04	22.41	-44.2	-45.3	21.6	0.00e+00	0	43	0	488636416	60	3993
2026-01-28 05:52:36.10	28.78	22.46	-44.0	-45.2	21.8	0.00e+00	0	43	0	490733568	60	3914
2026-01-28 05:52:37.11	28.53	22.50	-44.4	-45.6	21.7	0.00e+00	0	43	0	492830720	59	4357
2026-01-28 05:52:38.11	28.27	22.55	-44.3	-45.4	21.9	0.00e+00	0	43	0	493879296	59	4272
2026-01-28 05:52:39.12	28.01	22.60	-44.4	-45.5	21.7	0.00e+00	0	43	0	495976448	59	4337
2026-01-28 05:52:40.13	27.75	22.64	-44.5	-45.6	21.7	0.00e+00	0	43	0	498073600	59	4384
2026-01-28 05:52:41.13	27.49	22.69	-44.4	-45.6	21.7	0.00e+00	0	43	0	500170752	59	4353
2026-01-28 05:52:42.14	27.23	22.73	-44.3	-45.4	21.9	0.00e+00	0	43	0	502267904	59	4273
2026-01-28 05:52:43.15	26.97	22.78	-44.4	-45.5	21.8	0.00e+00	0	43	0	503316480	59	4307
2026-01-28 05:52:44.16	26.71	22.82	-44.5	-45.6	21.7	0.00e+00	0	43	0	505413632	59	4372
2026-01-28 05:52:45.17	26.44	22.86	-44.5	-45.7	21.6	0.00e+00	0	43	0	507510784	59	4395
2026-01-28 05:52:46.17	26.18	22.90	-44.6	-45.8	21.5	0.00e+00	0	43	0	509607936	59	4455
2026-01-28 05:52:47.18	25.92	22.94	-44.7	-45.9	21.5	0.00e+00	0	43	0	511705088	59	4514
2026-01-28 05:52:48.19	25.65	22.99	-44.4	-45.5	21.5	0.00e+00	0	43	0	512753664	60	4088
2026-01-28 05:52:49.20	25.38	23.03	-44.4	-45.6	21.4	0.00e+00	0	43	0	514850816	60	4114
2026-01-28 05:52:50.20	25.12	23.07	-44.3	-45.4	21.5	0.00e+00	0	43	0	516947968	60	4043
2026-01-28 05:52:51.20	24.85	23.10	-44.3	-45.4	21.5	0.00e+00	0	43	0	519045120	60	4047
2026-01-28 05:52:52.21	24.58	23.14	-44.3	-45.5	21.5	0.00e+00	0	43	0	521142272	60	4056
2026-01-28 05:52:53.22	24.32	23.18	-44.3	-45.4	21.6	0.00e+00	0	43	0	522190848	60	4031
2026-01-28 05:52:54.23	24.05	23.22	-44.3	-45.4	21.5	0.00e+00	0	43	0	524288000	60	4047
2026-01-28 05:52:55.23	23.78	23.25	-44.5	-45.6	21.4	0.00e+00	0	43	0	526385152	60	4126
2026-01-28 05:52:56.24	23.51	23.29	-44.6	-45.8	21.3	0.00e+00	0	43	0	528482304	60	4205
2026-01-28 05:52:57.26	23.23	23.33	-44.8	-45.9	21.1	0.00e+00	0	43	0	530579456	60	4291
2026-01-28 05:52:58.26	22.96	23.36	-44.9	-46.1	20.9	0.00e+00	0	43	0	531628032	60	4375
2026-01-28 05:52:59.26	22.69	23.39	-45.1	-46.3	20.7	0.00e+00	0	43	0	533725184	60	4482
2026-01-28 05:53:00.27	22.42	23.43	-45.3	-46.7	20.5	0.00e+00	0	43	0	535822336	61	4393
2026-01-28 05:53:01.28	22.14	23.46	-45.5	-46.8	20.3	0.00e+00	0	43	0	537919488	61	4482
2026-01-28 05:53:02.29	21.87	23.49	-45.5	-46.8	20.2	0.00e+00	0	43	0	540016640	61	4486
2026-01-28 05:53:03.29	21.60	23.52	-45.6	-47.0	20.1	0.00e+00	0	43	0	541065216	61	4546
2026-01-28 05:53:04.30	21.32	23.56	-45.4	-46.8	20.3	0.00e+00	0	43	0	543162368	61	4445
2026-01-28 05:53:05.31	21.05	23.59	-45.5	-46.8	20.3	0.00e+00	0	43	0	545259520	61	4469
2026-01-28 05:53:06.32	20.77	23.61	-45.6	-47.0	20.1	0.00e+00	0	43	0	547356672	61	4561
2026-01-28 05:53:07.33	20.49	23.64	-45.9	-47.3	19.8	0.00e+00	0	43	0	549453824	62	4446
2026-01-28 05:53:08.34	20.21	23.67	-45.8	-47.2	19.9	0.00e+00	0	43	0	550502400	62	4422
2026-01-28 05:53:09.35	19.93	23.70	-45.7	-47.1	20.0	0.00e+00	0	43	0	552599552	62	4377
2026-01-28 05:53:10.35	19.66	23.72	-45.7	-47.1	20.0	0.00e+00	0	43	0	554696704	62	4350
2026-01-28 05:53:11.36	19.38	23.75	-45.7	-47.0	20.1	0.00e+00	0	43	0	556793856	62	4336
2026-01-28 05:53:12.37	19.10	23.78	-45.8	-47.2	19.9	0.00e+00	0	43	0	558891008	62	4411
2026-01-28 05:53:13.38	18.82	23.80	-46.0	-47.4	19.7	0.00e+00	0	43	0	559939584	62	4506
2026-01-28 05:53:14.39	18.54	23.82	-46.0	-47.4	19.7	0.00e+00	0	43	0	562036736	62	4518
2026-01-28 05:53:15.40	18.26	23.85	-46.0	-47.4	19.6	0.00e+00	0	43	0	564133888	62	4529
2026-01-28 05:53:16.40	17.98	23.87	-46.1	-47.5	19.6	0.00e+00	0	43	0	566231040	62	4569
2026-01-28 05:53:17.41	17.70	23.89	-46.1	-47.6	19.5	0.00e+00	0	43	0	568328192	62	4626
2026-01-28 05:53:18.42	17.41	23.91	-46.2	-47.7	19.4	0.00e+00	0	43	0	569376768	63	4432
2026-01-28 05:53:19.42	17.13	23.93	-46.4	-47.9	19.2	0.00e+00	0	43	0	571473920	63	4530
2026-01-28 05:53:20.43	16.85	23.95	-46.4	-47.9	19.3	0.00e+00	0	43	0	573571072	63	4516
2026-01-28 05:53:21.44	16.57	23.97	-46.4	-47.9	19.2	0.00e+00	0	43	0	575668224	63	4528
2026-01-28 05:53:22.44	16.29	23.99	-46.3	-47.8	19.3	0.00e+00	0	43	0	577765376	63	4469
2026-01-28 05:53:23.45	16.00	24.00	-46.4	-47.9	19.3	0.00e+00	0	43	0	578813952	63	4539
2026-01-28 05:53:24.46	15.72	24.02	-46.3	-47.8	19.4	0.00e+00	0	43	0	580911104	63	4444
2026-01-28 05:53:25.46	15.44	24.04	-46.3	-47.8	19.4	0.00e+00	0	43	0	583008256	63	4453
2026-01-28 05:53:26.47	15.15	24.05	-46.1	-47.6	19.5	0.00e+00	0	43	0	585105408	63	4356
2026-01-28 05:53:27.48	14.87	24.07	-46.1	-47.5	19.6	0.00e+00	0	43	0	587202560	63	4340
2026-01-28 05:53:28.49	14.58	24.08	-46.0	-47.4	19.8	0.00e+00	0	43	0	588251136	63	4262
2026-01-28 05:53:29.50	14.30	24.09	-46.0	-47.4	19.7	0.00e+00	0	43	0	590348288	63	4268
2026-01-28 05:53:30.51	14.01	24.10	-46.1	-47.6	19.6	0.00e+00	0	43	0	592445440	63	4349
2026-01-28 05:53:31.52	13.72	24.11	-46.3	-47.8	19.4	0.00e+00	0	43	0	594542592	63	4463
2026-01-28 05:53:32.53	13.44	24.12	-46.2	-47.7	19.5	0.00e+00	0	43	0	596639744	63	4405
2026-01-28 05:53:33.53	13.15	24.13	-46.3	-47.7	19.4	0.00e+00	0	43	0	598736896	63	4441
2026-01-28 05:53:34.54	12.87	24.14	-46.3	-47.8	19.4	0.00e+00	0	43	0	599785472	63	4479
2026-01-28 05:53:35.54	12.58	24.15	-46.1	-47.5	19.6	0.00e+00	0	43	0	601882624	63	4319
2026-01-28 05:53:36.55	12.30	24.16	-46.1	-47.5	19.6	0.00e+00	0	43	0	603979776	63	4339
2026-01-28 05:53:37.56	12.01	24.16	-46.2	-47.6	19.5	0.00e+00	0	43	0	606076928	63	4385
2026-01-28 05:53:38.56	11.73	24.17	-46.1	-47.6	19.6	0.00e+00	0	43	0	607125504	63	4341
2026-01-28 05:53:39.57	11.44	24.17	-46.2	-47.6	19.6	0.00e+00	0	43	0	609222656	63	4387
2026-01-28 05:53:40.58	11.15	24.18	-46.0	-47.4	19.7	0.00e+00	0	43	0	611319808	63	4257
2026-01-28 05:53:41.58	10.87	24.18	-45.9	-47.3	19.8	0.00e+00	0	43	0	613416960	63	4240
2026-01-28 05:53:42.59	10.58	24.18	-45.8	-47.2	19.9	0.00e+00	0	43	0	615514112	63	4182
2026-01-28 05:53:43.60	10.29	24.19	-45.9	-47.3	19.9	0.00e+00	0	43	0	616562688	63	4206
2026-01-28 05:53:44.61	10.00	24.19	-46.1	-47.5	19.7	0.00e+00	0	43	0	618659840	63	4311
2026-01-28 05:53:45.61	9.72	24.19	-46.0	-47.4	19.7	0.00e+00	0	43	0	620756992	63	4276
2026-01-28 05:53:46.62	9.43	24.19	-45.9	-47.3	19.9	0.00e+00	0	43	0	622854144	63	4207
2026-01-28 05:53:47.63	9.14	24.18	-45.8	-47.2	20.0	0.00e+00	0	43	0	624951296	63	4175
2026-01-28 05:53:48.63	8.86	24.18	-45.5	-46.8	20.3	0.00e+00	0	43	0	625999872	62	4202
2026-01-28 05:53:49.64	8.57	24.18	-45.4	-46.7	20.4	0.00e+00	0	43	0	628097024	62	4174
2026-01-28 05:53:50.64	8.29	24.18	-45.4	-46.7	20.4	0.00e+00	0	43	0	630194176	62	4151
2026-01-28 05:53:51.65	8.00	24.17	-45.4	-46.7	20.4	0.00e+00	0	43	0	632291328	62	4176
2026-01-28 05:53:52.66	7.71	24.17	-45.4	-46.7	20.4	0.00e+00	0	43	0	634388480	62	4162
2026-01-28 05:53:53.66	7.43	24.16	-45.3	-46.6	20.5	0.00e+00	0	43	0	635437056	62	4127
2026-01-28 05:53:54.67	7.14	24.15	-45.3	-46.6	20.5	0.00e+00	0	43	0	637534208	62	4132
2026-01-28 05:53:55.67	6.86	24.14	-45.1	-46.3	20.8	0.00e+00	0	43	0	639631360	62	3984
2026-01-28 05:53:56.67	6.57	24.14	-44.9	-46.1	21.0	0.00e+00	0	43	0	641728512	61	4117
2026-01-28 05:53:57.68	6.29	24.13	-44.8	-46.0	21.1	0.00e+00	0	43	0	643825664	61	4055
2026-01-28 05:53:58.69	6.00	24.12	-44.7	-45.9	21.2	0.00e+00	0	43	0	644874240	61	4042
2026-01-28 05:53:59.70	5.72	24.11	-44.7	-45.9	21.2	0.00e+00	0	43	0	646971392	61	4036
2026-01-28 05:54:00.71	5.43	24.10	-44.7	-45.9	21.2	0.00e+00	0	43	0	649068544	61	4039
2026-01-28 05:54:01.71	5.15	24.08	-44.6	-45.7	21.3	0.00e+00	0	43	0	651165696	61	3958
2026-01-28 05:54:02.72	4.86	24.07	-44.3	-45.5	21.6	0.00e+00	0	43	0	653262848	60	4052
2026-01-28 05:54:03.73	4.58	24.06	-44.1	-45.2	21.8	0.00e+00	0	43	0	654311424	60	3956
2026-01-28 05:54:04.74	4.29	24.04	-44.1	-45.2	21.8	0.00e+00	0	43	0	656408576	60	3932
2026-01-28 05:54:05.74	4.01	24.03	-44.4	-45.5	21.9	0.00e+00	0	43	0	658505728	59	4304
2026-01-28 05:54:06.75	3.73	24.01	-44.5	-45.6	21.8	0.00e+00	0	43	0	660602880	59	4385
2026-01-28 05:54:07.76	3.44	23.99	-44.5	-45.6	21.8	0.00e+00	0	43	0	662700032	59	4355
2026-01-28 05:54:08.77	3.16	23.98	-44.4	-45.6	21.7	0.00e+00	0	43	0	663748608	59	4352
2026-01-28 05:54:09.78	2.87	23.96	-44.3	-45.4	21.9	0.00e+00	0	43	0	665845760	59	4276
2026-01-28 05:54:10.79	2.59	23.94	-44.2	-45.3	22.0	0.00e+00	0	43	0	667942912	59	4215
2026-01-28 05:54:11.80	2.31	23.92	-44.2	-45.3	22.1	0.00e+00	0	43	0	670040064	59	4202
2026-01-28 05:54:12.80	2.03	23.90	-44.1	-45.2	22.1	0.00e+00	0	43	0	672137216	59	4160
2026-01-28 05:54:13.81	1.75	23.88	-44.1	-45.2	22.1	0.00e+00	0	43	0	673185792	59	4171
2026-01-28 05:54:14.81	1.47	23.86	-44.0	-45.1	22.2	0.00e+00	0	43	0	675282944	59	4132
2026-01-28 05:54:15.82	1.19	23.83	-43.9	-45.0	22.3	0.00e+00	0	43	0	677380096	59	4072
2026-01-28 05:54:16.83	0.91	23.81	-43.9	-45.0	22.4	0.00e+00	0	43	0	679477248	59	4060
2026-01-28 05:54:17.83	0.63	23.78	-43.9	-45.0	22.4	0.00e+00	0	43	0	681574400	59	4068
2026-01-28 05:54:18.84	0.35	23.76	-44.0	-45.0	22.3	0.00e+00	0	43	0	683671552	59	4098
2026-01-28 05:54:19.85	0.07	23.73	-44.1	-45.1	22.2	0.00e+00	0	43	0	684720128	59	4142
2026-01-28 05:54:20.85	359.79	23.71	-44.2	-45.2	22.1	0.00e+00	0	43	0	686817280	59	4189
2026-01-28 05:54:21.86	359.51	23.68	-44.3	-45.4	22.0	0.00e+00	0	43	0	688914432	59	4261
2026-01-28 05:54:22.87	359.24	23.65	-44.2	-45.2	22.1	0.00e+00	0	43	0	691011584	59	4192
2026-01-28 05:54:23.88	358.96	23.62	-44.3	-45.4	22.0	0.00e+00	0	43	0	692060160	59	4262
2026-01-28 05:54:24.88	358.68	23.60	-44.3	-45.4	21.9	0.00e+00	0	43	0	694157312	59	4279
2026-01-28 05:54:25.89	358.41	23.57	-44.4	-45.6	21.8	0.00e+00	0	43	0	696254464	59	4351
2026-01-28 05:54:26.90	358.13	23.54	-44.5	-45.6	21.8	0.00e+00	0	43	0	698351616	59	4370
2026-01-28 05:54:27.90	357.86	23.50	-44.4	-45.6	21.8	0.00e+00	0	43	0	700448768	59	4351
2026-01-28 05:54:28.91	357.58	23.47	-44.5	-45.7	21.7	0.00e+00	0	43	0	701497344	59	4401
2026-01-28 05:54:29.92	357.31	23.44	-44.5	-45.6	21.7	0.00e+00	0	43	0	703594496	59	4386
2026-01-28 05:54:30.92	357.04	23.41	-44.7	-45.8	21.6	0.00e+00	0	43	0	705691648	59	4485
2026-01-28 05:54:31.93	356.77	23.37	-44.7	-45.8	21.5	0.00e+00	0	43	0	707788800	59	4488
2026-01-28 05:54:32.93	356.50	23.34	-44.5	-45.6	21.4	0.00e+00	0	43	0	709885952	60	4128
2026-01-28 05:54:33.94	356.22	23.30	-44.4	-45.6	21.5	0.00e+00	0	43	0	711983104	60	4100
2026-01-28 05:54:34.95	355.95	23.27	-44.6	-45.7	21.3	0.00e+00	0	43	0	713031680	60	4182
2026-01-28 05:54:35.96	355.68	23.23	-44.6	-45.7	21.3	0.00e+00	0	43	0	715128832	60	4192
2026-01-28 05:54:36.97	355.41	23.19	-44.7	-45.9	21.2	0.00e+00	0	43	0	717225984	60	4272
2026-01-28 05:54:37.97	355.15	23.16	-44.9	-46.1	21.0	0.00e+00	0	43	0	719323136	60	4349
2026-01-28 05:54:38.98	354.88	23.12	-44.9	-46.2	20.9	0.00e+00	0	43	0	720371712	60	4394
2026-01-28 05:54:39.99	354.61	23.08	-45.0	-46.3	20.8	0.00e+00	0	43	0	722468864	60	4448
2026-01-28 05:54:41.00	354.34	23.04	-45.0	-46.2	20.8	0.00e+00	0	43	0	724566016	60	4432
2026-01-28 05:54:42.00	354.08	23.00	-44.9	-46.2	20.9	0.00e+00	0	43	0	726663168	60	4396
2026-01-28 05:54:43.01	353.81	22.96	-44.9	-46.1	20.9	0.00e+00	0	43	0	728760320	60	4384
2026-01-28 05:54:44.02	353.55	22.92	-44.9	-46.1	21.0	0.00e+00	0	43	0	729808896	60	4359
2026-01-28 05:54:45.02	353.29	22.88	-45.0	-46.2	20.8	0.00e+00	0	43	0	731906048	60	4425
2026-01-28 05:54:46.02	353.02	22.83	-45.1	-46.4	20.7	0.00e+00	0	43	0	734003200	60	4511
2026-01-28 05:54:47.03	352.76	22.79	-45.3	-46.6	20.5	0.00e+00	0	43	0	736100352	61	4341
2026-01-28 05:54:48.04	352.50	22.75	-45.4	-46.7	20.3	0.00e+00	0	43	0	738197504	61	4437
2026-01-28 05:54:49.04	352.24	22.70	-45.6	-46.9	20.2	0.00e+00	0	43	0	740294656	61	4524
2026-01-28 05:54:50.05	351.98	22.66	-45.6	-47.0	20.1	0.00e+00	0	43	0	741343232	61	4556
2026-01-28 05:54:51.06	351.72	22.61	-45.7	-47.1	20.1	0.00e+00	0	43	0	743440384	62	4356
2026-01-28 05:54:52.07	351.46	22.57	-45.7	-47.0	20.1	0.00e+00	0	43	0	745537536	62	4337
2026-01-28 05:54:53.07	351.20	22.52	-45.6	-46.9	20.2	0.00e+00	0	43	0	747634688	62	4267
2026-01-28 05:54:54.08	350.95	22.47	-45.5	-46.9	20.2	0.00e+00	0	43	0	748683264	62	4254
2026-01-28 05:54:55.09	350.69	22.43	-45.6	-47.0	20.2	0.00e+00	0	43	0	750780416	62	4302
2026-01-28 05:54:56.09	350.43	22.38	-45.5	-46.8	20.3	0.00e+00	0	43	0	752877568	62	4203
2026-01-28 05:54:57.10	350.18	22.33	-45.6	-46.9	20.2	0.00e+00	0	43	0	754974720	62	4281
2026-01-28 05:54:58.11	349.93	22.28	-45.6	-47.0	20.1	0.00e+00	0	43	0	757071872	62	4310
2026-01-28 05:54:59.11	349.67	22.23	-45.8	-47.2	19.9	0.00e+00	0	43	0	758120448	62	4416
2026-01-28 05:55:00.12	349.42	22.18	-45.9	-47.3	19.8	0.00e+00	0	43	0	760217600	62	4465
2026-01-28 05:55:01.12	349.17	22.13	-46.0	-47.4	19.7	0.00e+00	0	43	0	762314752	62	4532
2026-01-28 05:55:02.13	348.92	22.08	-46.1	-47.5	19.6	0.00e+00	0	43	0	764411904	62	4583
2026-01-28 05:55:03.14	348.67	22.03	-46.1	-47.5	19.6	0.00e+00	0	43	0	766509056	62	4592
2026-01-28 05:55:04.15	348.42	21.98	-46.1	-47.6	19.6	0.00e+00	0	43	0	768606208	62	4606
2026-01-28 05:55:05.15	348.17	21.93	-46.1	-47.5	19.6	0.00e+00	0	43	0	769654784	62	4583
2026-01-28 05:55:06.16	347.93	21.87	-45.9	-47.3	19.8	0.00e+00	0	43	0	771751936	62	4458
2026-01-28 05:55:07.16	347.68	21.82	-45.8	-47.2	19.9	0.00e+00	0	43	0	773849088	62	4429
2026-01-28 05:55:08.17	347.43	21.77	-45.7	-47.1	20.0	0.00e+00	0	43	0	775946240	62	4366
2026-01-28 05:55:09.17	347.19	21.71	-45.7	-47.0	20.1	0.00e+00	0	43	0	776994816	62	4322
2026-01-28 05:55:10.18	346.95	21.66	-45.8	-47.2	19.9	0.00e+00	0	43	0	779091968	62	4400
2026-01-28 05:55:11.19	346.70	21.60	-46.0	-47.5	19.6	0.00e+00	0	43	0	781189120	62	4561
2026-01-28 05:55:12.20	346.46	21.55	-46.2	-47.7	19.4	0.00e+00	0	43	0	783286272	62	4669
2026-01-28 05:55:13.20	346.22	21.49	-46.1	-47.5	19.6	0.00e+00	0	43	0	785383424	62	4579
2026-01-28 05:55:14.21	345.98	21.43	-46.1	-47.5	19.6	0.00e+00	0	43	0	786432000	62	4575
2026-01-28 05:55:15.22	345.74	21.38	-46.1	-47.5	19.6	0.00e+00	0	43	0	788529152	62	4572
2026-01-28 05:55:16.23	345.50	21.32	-45.9	-47.3	19.8	0.00e+00	0	43	0	790626304	62	4444
2026-01-28 05:55:17.23	345.27	21.26	-45.8	-47.2	19.9	0.00e+00	0	43	0	792723456	62	4393
2026-01-28 05:55:18.24	345.03	21.20	-46.0	-47.4	19.7	0.00e+00	0	43	0	794820608	62	4509
2026-01-28 05:55:19.25	344.79	21.15	-45.9	-47.3	19.8	0.00e+00	0	43	0	796917760	62	4458
2026-01-28 05:55:20.26	344.56	21.09	-46.0	-47.4	19.7	0.00e+00	0	43	0	797966336	62	4512
2026-01-28 05:55:21.27	344.32	21.03	-45.8	-47.2	19.9	0.00e+00	0	43	0	800063488	62	4413
2026-01-28 05:55:22.28	344.09	20.97	-45.8	-47.3	19.8	0.00e+00	0	43	0	802160640	62	4442
2026-01-28 05:55:23.28	343.86	20.91	-45.9	-47.3	19.8	0.00e+00	0	43	0	804257792	62	4458
2026-01-28 05:55:24.29	343.63	20.85	-45.8	-47.2	19.8	0.00e+00	0	43	0	805306368	62	4428
2026-01-28 05:55:25.29	343.40	20.79	-45.8	-47.2	19.9	0.00e+00	0	43	0	807403520	62	4431
2026-01-28 05:55:26.30	343.17	20.73	-45.8	-47.1	19.9	0.00e+00	0	43	0	809500672	62	4377
2026-01-28 05:55:27.31	342.94	20.67	-45.5	-46.8	20.2	0.00e+00	0	43	0	811597824	62	4225
2026-01-28 05:55:28.31	342.71	20.60	-45.4	-46.7	20.4	0.00e+00	0	43	0	813694976	62	4154
2026-01-28 05:55:29.32	342.48	20.54	-45.4	-46.7	20.4	0.00e+00	0	43	0	814743552	62	4175
2026-01-28 05:55:30.33	342.26	20.48	-45.4	-46.7	20.4	0.00e+00	0	43	0	816840704	62	4165
2026-01-28 05:55:31.33	342.04	20.42	-45.5	-46.8	20.3	0.00e+00	0	43	0	818937856	62	4222
2026-01-28 05:55:32.34	341.81	20.36	-45.4	-46.8	20.3	0.00e+00	0	43	0	821035008	62	4198
2026-01-28 05:55:33.35	341.59	20.29	-45.4	-46.7	20.3	0.00e+00	0	43	0	823132160	62	4171
2026-01-28 05:55:34.36	341.36	20.23	-45.3	-46.6	20.4	0.00e+00	0	43	0	825229312	62	4142
2026-01-28 05:55:35.37	341.14	20.16	-45.4	-46.7	20.4	0.00e+00	0	43	0	826277888	62	4154
2026-01-28 05:55:36.37	340.92	20.10	-45.3	-46.7	20.4	0.00e+00	0	43	0	828375040	62	4148
2026-01-28 05:55:37.38	340.70	20.04	-45.3	-46.6	20.3	0.00e+00	0	43	0	830472192	62	4143
2026-01-28 05:55:38.39	340.49	19.97	-45.4	-46.7	20.3	0.00e+00	0	43	0	832569344	62	4187
2026-01-28 05:55:39.39	340.27	19.91	-45.5	-46.8	20.3	0.00e+00	0	43	0	833617920	62	4215
2026-01-28 05:55:40.40	340.05	19.84	-45.4	-46.8	20.2	0.00e+00	0	43	0	835715072	62	4212
2026-01-28 05:55:41.41	339.84	19.78	-45.5	-46.9	20.2	0.00e+00	0	43	0	837812224	62	4261
2026-01-28 05:55:42.41	339.62	19.71	-45.4	-46.8	20.2	0.00e+00	0	43	0	839909376	62	4205
2026-01-28 05:55:43.42	339.41	19.65	-45.5	-46.9	20.2	0.00e+00	0	43	0	842006528	62	4251
2026-01-28 05:55:44.43	339.20	19.58	-45.6	-46.9	20.1	0.00e+00	0	43	0	843055104	62	4271
2026-01-28 05:55:45.44	338.98	19.51	-45.4	-46.7	20.4	0.00e+00	0	43	0	845152256	62	4157
2026-01-28 05:55:46.44	338.77	19.45	-45.4	-46.7	20.3	0.00e+00	0	43	0	847249408	62	4190
2026-01-28 05:55:47.45	338.56	19.38	-45.4	-46.7	20.3	0.00e+00	0	43	0	849346560	62	4190
2026-01-28 05:55:48.46	338.35	19.31	-45.3	-46.6	20.4	0.00e+00	0	43	0	851443712	62	4126
2026-01-28 05:55:49.46	338.15	19.25	-45.4	-46.8	20.3	0.00e+00	0	43	0	853540864	62	4198
2026-01-28 05:55:50.47	337.94	19.18	-45.4	-46.8	20.2	0.00e+00	0	43	0	854589440	62	4200
2026-01-28 05:55:51.47	337.73	19.11	-45.5	-46.8	20.3	0.00e+00	0	43	0	856686592	62	4214
2026-01-28 05:55:52.47	337.53	19.04	-45.4	-46.8	20.2	0.00e+00	0	43	0	858783744	62	4214
2026-01-28 05:55:53.48	337.33	18.98	-45.4	-46.8	20.3	0.00e+00	0	43	0	860880896	62	4202
2026-01-28 05:55:54.49	337.12	18.91	-45.5	-46.9	20.1	0.00e+00	0	43	0	861929472	62	4262
2026-01-28 05:55:55.49	336.92	18.84	-45.6	-47.0	20.0	0.00e+00	0	43	0	864026624	62	4330
2026-01-28 05:55:56.50	336.72	18.77	-45.6	-47.0	20.0	0.00e+00	0	43	0	866123776	62	4321
2026-01-28 05:55:57.51	336.52	18.70	-45.7	-47.1	19.9	0.00e+00	0	43	0	868220928	62	4348
2026-01-28 05:55:58.52	336.32	18.63	-45.6	-47.0	20.0	0.00e+00	0	43	0	870318080	62	4317
2026-01-28 05:55:59.53	336.12	18.56	-45.6	-47.0	20.0	0.00e+00	0	43	0	871366656	62	4303
2026-01-28 05:56:00.53	335.92	18.49	-45.7	-47.1	19.9	0.00e+00	0	43	0	873463808	62	4344
2026-01-28 05:56:01.54	335.72	18.42	-45.5	-46.9	20.1	0.00e+00	0	43	0	875560960	62	4270
2026-01-28 05:56:02.55	335.53	18.35	-45.5	-46.9	20.1	0.00e+00	0	43	0	877658112	62	4259
2026-01-28 05:56:03.55	335.33	18.29	-45.6	-46.9	20.1	0.00e+00	0	43	0	879755264	62	4272
2026-01-28 05:56:04.56	335.14	18.21	-45.3	-46.6	20.3	0.00e+00	0	43	0	881852416	62	4139
2026-01-28 05:56:05.57	334.94	18.14	-45.5	-46.8	20.2	0.00e+00	0	43	0	882900992	62	4209
2026-01-28 05:56:06.58	334.75	18.07	-45.4	-46.8	20.2	0.00e+00	0	43	0	884998144	62	4204
2026-01-28 05:56:07.59	334.56	18.00	-45.5	-46.8	20.2	0.00e+00	0	43	0	887095296	62	4223
2026-01-28 05:56:08.59	334.37	17.93	-45.3	-46.6	20.4	0.00e+00	0	43	0	889192448	62	4121
2026-01-28 05:56:09.59	334.18	17.86	-45.3	-46.6	20.4	0.00e+00	0	43	0	890241024	62	4110
2026-01-28 05:56:10.60	333.99	17.79	-45.2	-46.6	20.4	0.00e+00	0	43	0	892338176	62	4100
2026-01-28 05:56:11.60	333.80	17.72	-45.2	-46.5	20.5	0.00e+00	0	43	0	894435328	62	4081
2026-01-28 05:56:12.61	333.62	17.65	-45.2	-46.5	20.5	0.00e+00	0	43	0	896532480	62	4060
2026-01-28 05:56:13.61	333.43	17.58	-45.2	-46.5	20.5	6.80e-06	0	43	0	898629632	62	4067
2026-01-28 05:56:14.62	333.25	17.51	-45.2	-46.5	20.5	0.00e+00	0	43	0	899678208	62	4080
2026-01-28 05:56:15.62	333.06	17.44	-45.2	-46.5	20.5	0.00e+00	0	43	0	901775360	62	4056
2026-01-28 05:56:16.63	332.88	17.37	-45.0	-46.3	20.7	0.00e+00	0	43	0	903872512	62	3970
2026-01-28 05:56:17.63	332.70	17.30	-44.9	-46.1	20.8	0.00e+00	0	43	0	905969664	61	4119
2026-01-28 05:56:18.64	332.52	17.22	-44.9	-46.1	20.7	0.00e+00	0	43	0	908066816	61	4139
2026-01-28 05:56:19.65	332.33	17.15	-44.8	-46.1	20.8	0.00e+00	0	43	0	910163968	61	4109
2026-01-28 05:56:20.65	332.16	17.08	-44.8	-46.0	20.9	0.00e+00	0	43	0	911212544	61	4096
2026-01-28 05:56:21.66	331.98	17.01	-44.7	-45.9	21.0	0.00e+00	0	43	0	913309696	61	4034
2026-01-28 05:56:22.67	331.80	16.94	-44.8	-46.0	20.9	0.00e+00	0	43	0	915406848	61	4077
2026-01-28 05:56:23.67	331.62	16.87	-44.9	-46.2	20.7	0.00e+00	0	43	0	917504000	61	4150
2026-01-28 05:56:24.67	331.45	16.79	-45.0	-46.3	20.6	0.00e+00	0	43	0	918552576	61	4220
2026-01-28 05:56:25.68	331.27	16.72	-45.0	-46.3	20.6	0.00e+00	0	43	0	920649728	61	4208
2026-01-28 05:56:26.68	331.10	16.65	-45.0	-46.2	20.7	0.00e+00	0	43	0	922746880	61	4190
2026-01-28 05:56:27.69	330.92	16.58	-44.8	-46.1	20.8	0.00e+00	0	43	0	924844032	61	4120
2026-01-28 05:56:28.69	330.75	16.51	-44.9	-46.2	20.7	1.50e-06	0	43	0	926941184	61	4156
2026-01-28 05:56:29.70	330.58	16.43	-44.8	-46.0	20.9	0.00e+00	0	43	0	927989760	61	4075
2026-01-28 05:56:30.70	330.41	16.36	-44.7	-45.9	21.0	0.00e+00	0	43	0	930086912	61	4048
2026-01-28 05:56:31.71	330.23	16.29	-44.7	-46.0	20.9	0.00e+00	0	43	0	932184064	61	4063
2026-01-28 05:56:32.71	330.07	16.22	-44.6	-45.8	21.1	0.00e+00	0	43	0	934281216	61	3994
2026-01-28 05:56:33.72	329.90	16.14	-44.5	-45.7	21.1	7.00e-07	0	43	0	936378368	61	3948
2026-01-28 05:56:34.72	329.73	16.07	-44.4	-45.6	21.2	0.00e+00	0	43	0	937426944	60	4126
2026-01-28 05:56:35.73	329.56	16.00	-44.5	-45.7	21.2	0.00e+00	0	43	0	939524096	60	4167
2026-01-28 05:56:36.73	329.40	15.93	-44.5	-45.7	21.1	0.00e+00	0	43	0	941621248	60	4191
2026-01-28 05:56:37.73	329.23	15.86	-44.6	-45.8	21.0	0.00e+00	0	43	0	943718400	60	4219
2026-01-28 05:56:38.74	329.07	15.78	-44.6	-45.9	21.0	0.00e+00	0	43	0	945815552	60	4244
2026-01-28 05:56:39.74	328.90	15.71	-44.8	-46.0	20.9	0.00e+00	0	43	0	946864128	60	4310
2026-01-28 05:56:40.75	328.74	15.64	-44.7	-46.0	20.9	0.00e+00	0	43	0	948961280	60	4299
2026-01-28 05:56:41.75	328.58	15.57	-44.7	-45.9	20.9	0.00e+00	0	43	0	951058432	60	4285
2026-01-28 05:56:42.76	328.42	15.49	-44.7	-46.0	20.9	0.00e+00	0	43	0	953155584	60	4309
2026-01-28 05:56:43.76	328.26	15.42	-44.7	-45.9	20.9	0.00e+00	0	43	0	955252736	60	4280
2026-01-28 05:56:44.77	328.10	15.35	-44.7	-45.9	20.9	0.00e+00	0	43	0	956301312	60	4282
2026-01-28 05:56:45.77	327.94	15.27	-44.7	-45.9	20.9	1.50e-06	0	43	0	958398464	60	4274
2026-01-28 05:56:46.78	327.78	15.20	-44.8	-46.0	20.8	0.00e+00	0	43	0	960495616	60	4330
2026-01-28 05:56:47.78	327.62	15.13	-44.7	-45.9	20.9	0.00e+00	0	43	0	962592768	60	4285
2026-01-28 05:56:48.79	327.46	15.06	-44.7	-46.0	20.9	0.00e+00	0	43	0	964689920	60	4296
2026-01-28 05:56:49.79	327.31	14.98	-44.7	-46.0	20.8	0.00e+00	0	43	0	965738496	60	4295
2026-01-28 05:56:50.80	327.15	14.91	-44.8	-46.0	20.8	0.00e+00	0	43	0	967835648	60	4338
2026-01-28 05:56:51.81	327.00	14.84	-44.7	-46.0	20.8	0.00e+00	0	43	0	969932800	60	4300
2026-01-28 05:56:52.82	326.84	14.76	-44.8	-46.1	20.7	0.00e+00	0	43	0	972029952	60	4344
2026-01-28 05:56:53.82	326.69	14.69	-44.8	-46.1	20.7	0.00e+00	0	43	0	974127104	60	4344
2026-01-28 05:56:54.83	326.54	14.62	-44.9	-46.1	20.7	0.00e+00	0	43	0	975175680	60	4381
2026-01-28 05:56:55.83	326.39	14.55	-45.0	-46.3	20.6	0.00e+00	0	43	0	977272832	60	4452
2026-01-28 05:56:56.83	326.24	14.48	-45.0	-46.3	20.5	0.00e+00	0	43	0	979369984	60	4442
2026-01-28 05:56:57.84	326.09	14.40	-45.1	-46.4	20.4	0.00e+00	0	43	0	981467136	60	4518
2026-01-28 05:56:58.84	325.94	14.33	-45.2	-46.5	20.2	0.00e+00	0	43	0	983564288	61	4340
2026-01-28 05:56:59.84	325.79	14.26	-45.3	-46.7	20.1	0.00e+00	0	43	0	984612864	61	4418
2026-01-28 05:57:00.85	325.64	14.18	-45.4	-46.8	20.0	0.00e+00	0	43	0	986710016	61	4449
2026-01-28 05:57:01.85	325.50	14.11	-45.3	-46.7	20.1	0.00e+00	0	43	0	988807168	61	4406
2026-01-28 05:57:02.86	325.35	14.04	-45.4	-46.8	20.0	0.00e+00	0	43	0	990904320	61	4483
2026-01-28 05:57:03.86	325.21	13.97	-45.4	-46.8	20.0	0.00e+00	0	43	0	993001472	61	4476
2026-01-28 05:57:04.87	325.06	13.90	-45.6	-47.0	19.8	0.00e+00	0	43	0	994050048	61	4598
2026-01-28 05:57:05.87	324.92	13.82	-45.5	-46.9	19.9	0.00e+00	0	43	0	996147200	61	4535
2026-01-28 05:57:06.88	324.77	13.75	-45.5	-46.9	19.9	0.00e+00	0	43	0	998244352	61	4528
2026-01-28 05:57:07.88	324.63	13.68	-45.6	-47.0	19.8	0.00e+00	0	43	0	1000341504	61	4557
2026-01-28 05:57:08.89	324.49	13.61	-45.4	-46.8	20.0	0.00e+00	0	43	0	1002438656	61	4449
2026-01-28 05:57:09.90	324.35	13.53	-45.4	-46.8	20.0	0.00e+00	0	43	0	1003487232	61	4449
2026-01-28 05:57:10.91	324.21	13.46	-45.4	-46.7	20.1	0.00e+00	0	43	0	1005584384	61	4425
2026-01-28 05:57:11.91	324.07	13.39	-45.4	-46.7	20.0	0.00e+00	0	43	0	1007681536	61	4434
2026-01-28 05:57:12.92	323.93	13.32	-45.3	-46.7	20.1	0.00e+00	0	43	0	1009778688	61	4410
2026-01-28 05:57:13.93	323.79	13.24	-45.4	-46.7	20.0	0.00e+00	0	43	0	1010827264	61	4438
2026-01-28 05:57:14.93	323.65	13.17	-45.5	-46.9	19.8	0.00e+00	0	43	0	1012924416	61	4543
2026-01-28 05:57:15.94	323.51	13.10	-45.6	-47.1	19.7	0.00e+00	0	43	0	1015021568	61	4599
2026-01-28 05:57:16.94	323.38	13.03	-45.7	-47.2	19.6	0.00e+00	0	43	0	1017118720	62	4416
2026-01-28 05:57:17.95	323.24	12.96	-45.8	-47.2	19.6	0.00e+00	0	43	0	1019215872	62	4437
2026-01-28 05:57:18.96	323.11	12.88	-45.8	-47.3	19.6	0.00e+00	0	43	0	1021313024	62	4445
2026-01-28 05:57:19.97	322.97	12.81	-45.8	-47.3	19.5	0.00e+00	0	43	0	1022361600	62	4472
2026-01-28 05:57:20.97	322.84	12.74	-45.8	-47.3	19.5	0.00e+00	0	43	0	1024458752	62	4453
2026-01-28 05:57:21.97	322.71	12.67	-45.8	-47.2	19.6	0.00e+00	0	43	0	1026555904	62	4421
2026-01-28 05:57:22.98	322.57	12.60	-45.8	-47.3	19.5	0.00e+00	0	43	0	1028653056	62	4476
2026-01-28 05:57:23.98	322.44	12.53	-45.8	-47.3	19.4	0.00e+00	0	43	0	1030750208	62	4477
2026-01-28 05:57:24.99	322.31	12.45	-45.9	-47.4	19.4	0.00e+00	0	43	0	1031798784	62	4504
2026-01-28 05:57:25.99	322.18	12.38	-45.8	-47.3	19.4	0.00e+00	0	43	0	1033895936	62	4479
2026-01-28 05:57:26.99	322.05	12.31	-45.9	-47.3	19.4	0.00e+00	0	43	0	1035993088	62	4488
2026-01-28 05:57:28.00	321.92	12.24	-45.9	-47.4	19.3	0.00e+00	0	43	0	1038090240	62	4533
2026-01-28 05:57:29.01	321.80	12.17	-45.9	-47.4	19.4	0.00e+00	0	43	0	1039138816	62	4517
2026-01-28 05:57:30.01	321.67	12.10	-45.9	-47.4	19.3	0.00e+00	0	43	0	1041235968	62	4534
2026-01-28 05:57:31.01	321.54	12.03	-45.9	-47.4	19.4	0.00e+00	0	43	0	1043333120	62	4501
2026-01-28 05:57:32.02	321.41	11.96	-46.0	-47.5	19.2	0.00e+00	0	43	0	1045430272	62	4587
2026-01-28 05:57:33.03	321.29	11.88	-46.0	-47.5	19.3	0.00e+00	0	43	0	1047527424	62	4567
2026-01-28 05:57:34.03	321.16	11.81	-45.9	-47.4	19.3	0.00e+00	0	43	0	1049624576	62	4519
2026-01-28 05:57:35.04	321.04	11.74	-45.9	-47.4	19.3	0.00e+00	0	43	0	1050673152	62	4526
2026-01-28 05:57:36.05	320.91	11.67	-46.0	-47.5	19.2	0.00e+00	0	43	0	1052770304	62	4588
2026-01-28 05:57:37.06	320.79	11.60	-46.1	-47.7	19.1	0.00e+00	0	43	0	1054867456	62	4652
2026-01-28 05:57:38.06	320.67	11.53	-46.1	-47.6	19.1	0.00e+00	0	43	0	1056964608	62	4620
2026-01-28 05:57:39.06	320.55	11.46	-46.1	-47.6	19.1	0.00e+00	0	43	0	1059061760	62	4644
2026-01-28 05:57:40.07	320.42	11.39	-46.2	-47.8	19.0	0.00e+00	0	43	0	1060110336	62	4714
2026-01-28 05:57:41.07	320.30	11.32	-46.2	-47.8	18.8	0.00e+00	0	43	0	1062207488	63	4489
2026-01-28 05:57:42.08	320.18	11.25	-46.3	-47.9	18.8	0.00e+00	0	43	0	1064304640	63	4531
2026-01-28 05:57:43.09	320.06	11.18	-46.4	-48.0	18.7	0.00e+00	0	43	0	1066401792	63	4597
2026-01-28 05:57:44.10	319.94	11.11	-46.4	-48.1	18.7	0.00e+00	0	43	0	1067450368	63	4599
2026-01-28 05:57:45.10	319.82	11.04	-46.3	-47.9	18.8	0.00e+00	0	43	0	1069547520	63	4495
2026-01-28 05:57:46.11	319.71	10.97	-46.4	-48.0	18.7	0.00e+00	0	43	0	1071644672	63	4592
2026-01-28 05:57:47.12	319.59	10.90	-46.4	-48.0	18.7	0.00e+00	0	43	0	1073741824	63	4570
2026-01-28 05:57:48.12	319.47	10.83	-46.4	-48.0	18.7	0.00e+00	0	43	0	1075838976	63	4578
2026-01-28 05:57:49.13	319.35	10.76	-46.4	-48.0	18.7	0.00e+00	0	43	0	1076887552	63	4591
2026-01-28 05:57:50.13	319.24	10.69	-46.3	-47.9	18.8	0.00e+00	0	43	0	1078984704	63	4514
2026-01-28 05:57:51.14	319.12	10.62	-46.3	-48.0	18.7	0.00e+00	0	43	0	1081081856	63	4548
2026-01-28 05:57:52.15	319.01	10.55	-46.3	-47.9	18.7	0.00e+00	0	43	0	1083179008	63	4540
2026-01-28 05:57:53.15	318.90	10.48	-46.4	-48.0	18.7	0.00e+00	0	43	0	1085276160	63	4557
2026-01-28 05:57:54.16	318.78	10.41	-46.3	-48.0	18.7	0.00e+00	0	43	0	1087373312	63	4549
2026-01-28 05:57:55.16	318.67	10.34	-46.3	-47.9	18.7	0.00e+00	0	43	0	1088421888	63	4545
2026-01-28 05:57:56.17	318.56	10.27	-46.4	-48.0	18.6	0.00e+00	0	43	0	1090519040	63	4591
2026-01-28 05:57:57.18	318.44	10.20	-46.5	-48.2	18.5	0.00e+00	0	43	0	1092616192	63	4654
2026-01-28 05:57:58.19	318.33	10.13	-46.4	-48.1	18.6	0.00e+00	0	43	0	1094713344	63	4626
2026-01-28 05:57:59.19	318.22	10.06	-46.6	-48.3	18.3	0.00e+00	0	43	0	1095761920	63	4735
2026-01-28 05:58:00.20	318.11	9.99	-46.7	-48.4	18.3	0.00e+00	0	43	0	1097859072	63	4776
2026-01-28 05:58:01.20	318.00	9.93	-46.7	-48.5	18.1	0.00e+00	0	43	0	1099956224	64	4546
2026-01-28 05:58:02.21	317.89	9.86	-46.8	-48.6	18.0	0.00e+00	0	43	0	1102053376	64	4623
2026-01-28 05:58:03.22	317.78	9.79	-46.8	-48.7	17.9	0.00e+00	0	43	0	1104150528	64	4661
2026-01-28 05:58:04.23	317.67	9.72	-46.9	-48.8	17.7	0.00e+00	0	43	0	1105199104	64	4740
2026-01-28 05:58:05.23	317.57	9.65	-46.9	-48.7	17.8	0.00e+00	0	43	0	1107296256	64	4686
2026-01-28 05:58:06.24	317.46	9.58	-46.8	-48.6	17.9	0.00e+00	0	43	0	1109393408	64	4641
2026-01-28 05:58:07.24	317.35	9.51	-46.9	-48.8	17.7	0.00e+00	0	43	0	1111490560	64	4731
2026-01-28 05:58:08.24	317.25	9.45	-46.9	-48.7	17.8	0.00e+00	0	43	0	1113587712	64	4702
2026-01-28 05:58:09.25	317.14	9.38	-46.9	-48.8	17.8	0.00e+00	0	43	0	1115684864	64	4711
2026-01-28 05:58:10.25	317.04	9.31	-47.0	-48.9	17.6	0.00e+00	0	43	0	1116733440	64	4787
2026-01-28 05:58:11.26	316.93	9.24	-47.0	-48.9	17.6	0.00e+00	0	43	0	1118830592	64	4770
2026-01-28 05:58:12.27	316.83	9.17	-47.0	-48.9	17.6	0.00e+00	0	43	0	1120927744	64	4796
2026-01-28 05:58:13.27	316.73	9.11	-47.1	-49.0	17.5	0.00e+00	0	43	0	1123024896	64	4862
2026-01-28 05:58:14.28	316.62	9.04	-47.2	-49.2	17.3	0.00e+00	0	43	0	1124073472	64	4940
2026-01-28 05:58:15.29	316.52	8.97	-47.2	-49.2	17.3	0.00e+00	0	43	0	1126170624	65	4692
2026-01-28 05:58:16.30	316.42	8.90	-47.2	-49.2	17.3	0.00e+00	0	43	0	1128267776	65	4654
2026-01-28 05:58:17.31	316.31	8.84	-47.3	-49.3	17.1	0.00e+00	0	43	0	1130364928	65	4757
2026-01-28 05:58:18.31	316.21	8.77	-47.4	-49.5	17.0	0.00e+00	0	43	0	1132462080	65	4832
2026-01-28 05:58:19.32	316.11	8.70	-47.4	-49.5	17.0	0.00e+00	0	43	0	1133510656	65	4838
2026-01-28 05:58:20.33	316.01	8.63	-47.4	-49.4	17.0	0.00e+00	0	43	0	1135607808	65	4795
2026-01-28 05:58:21.34	315.91	8.57	-47.4	-49.4	17.0	0.00e+00	0	43	0	1137704960	65	4790
2026-01-28 05:58:22.34	315.81	8.50	-47.3	-49.3	17.1	0.00e+00	0	43	0	1139802112	65	4730
2026-01-28 05:58:23.35	315.71	8.43	-47.3	-49.3	17.1	0.00e+00	0	43	0	1141899264	65	4754
2026-01-28 05:58:24.35	315.62	8.37	-47.3	-49.3	17.1	0.00e+00	0	43	0	1143996416	65	4722
2026-01-28 05:58:25.36	315.52	8.30	-47.3	-49.4	17.1	0.00e+00	0	43	0	1145044992	65	4767
2026-01-28 05:58:26.36	315.42	8.23	-47.1	-49.1	17.3	0.00e+00	0	43	0	1147142144	65	4628
2026-01-28 05:58:27.37	315.32	8.17	-47.2	-49.2	17.2	0.00e+00	0	43	0	1149239296	65	4681
2026-01-28 05:58:28.38	315.23	8.10	-47.1	-49.0	17.4	0.00e+00	0	43	0	1151336448	65	4583
2026-01-28 05:58:29.38	315.13	8.03	-47.1	-49.1	17.3	0.00e+00	0	43	0	1152385024	65	4622
2026-01-28 05:58:30.39	315.04	7.97	-47.1	-49.1	17.2	0.00e+00	0	43	0	1154482176	65	4641
2026-01-28 05:58:31.40	314.94	7.90	-47.1	-49.1	17.2	0.00e+00	0	43	0	1156579328	65	4630
2026-01-28 05:58:32.41	314.85	7.84	-47.2	-49.2	17.2	0.00e+00	0	43	0	1158676480	65	4655
2026-01-28 05:58:33.41	314.75	7.77	-47.3	-49.3	17.1	0.00e+00	0	43	0	1160773632	65	4738
2026-01-28 05:58:34.41	314.66	7.70	-47.2	-49.2	17.1	0.00e+00	0	43	0	1161822208	65	4684
2026-01-28 05:58:35.42	314.56	7.64	-47.3	-49.3	17.1	0.00e+00	0	43	0	1163919360	65	4748
2026-01-28 05:58:36.42	314.47	7.57	-47.4	-49.5	16.9	0.00e+00	0	43	0	1166016512	65	4817
2026-01-28 05:58:37.42	314.38	7.51	-47.3	-49.4	16.9	0.00e+00	0	43	0	1168113664	65	4782
2026-01-28 05:58:38.43	314.29	7.44	-47.4	-49.6	16.8	0.00e+00	0	43	0	1170210816	65	4872
2026-01-28 05:58:39.43	314.20	7.38	-47.6	-49.7	16.6	0.00e+00	0	43	0	1172307968	65	4971
2026-01-28 05:58:40.44	314.11	7.31	-47.6	-49.8	16.6	0.00e+00	0	43	0	1173356544	65	5012
2026-01-28 05:58:41.45	314.01	7.25	-47.5	-49.6	16.7	0.00e+00	0	43	0	1175453696	65	4908
2026-01-28 05:58:42.45	313.92	7.18	-47.5	-49.7	16.6	0.00e+00	0	43	0	1177550848	65	4965
2026-01-28 05:58:43.46	313.83	7.12	-47.5	-49.7	16.6	0.00e+00	0	43	0	1179648000	65	4938
2026-01-28 05:58:44.47	313.74	7.05	-47.5	-49.6	16.7	0.00e+00	0	43	0	1180696576	65	4913
2026-01-28 05:58:45.47	313.66	6.99	-47.6	-49.8	16.5	0.00e+00	0	43	0	1182793728	65	5016
2026-01-28 05:58:46.49	313.57	6.92	-47.6	-49.8	16.5	0.00e+00	0	43	0	1184890880	65	5017
2026-01-28 05:58:47.49	313.48	6.86	-47.6	-49.8	16.4	0.00e+00	0	43	0	1186988032	66	4751
2026-01-28 05:58:48.49	313.39	6.79	-47.6	-49.7	16.5	0.00e+00	0	43	0	1189085184	66	4705
2026-01-28 05:58:49.50	313.30	6.73	-47.6	-49.8	16.5	0.00e+00	0	43	0	1190133760	66	4712
2026-01-28 05:58:50.51	313.21	6.66	-47.6	-49.8	16.4	0.00e+00	0	43	0	1192230912	66	4752
2026-01-28 05:58:51.51	313.13	6.60	-47.7	-50.0	16.2	0.00e+00	0	43	0	1194328064	66	4859
2026-01-28 05:58:52.52	313.04	6.54	-47.6	-49.8	16.4	0.00e+00	0	43	0	1196425216	66	4758
2026-01-28 05:58:53.53	312.96	6.47	-47.7	-50.0	16.2	0.00e+00	0	43	0	1198522368	66	4857
2026-01-28 05:58:54.54	312.87	6.41	-47.7	-50.1	16.1	0.00e+00	0	43	0	1200619520	66	4873
2026-01-28 05:58:55.54	312.79	6.34	-47.8	-50.2	15.9	0.00e+00	0	43	0	1201668096	66	4970
2026-01-28 05:58:56.55	312.70	6.28	-47.8	-50.2	16.0	0.00e+00	0	43	0	1203765248	66	4957
2026-01-28 05:58:57.56	312.62	6.22	-48.0	-50.4	15.8	0.00e+00	0	43	0	1205862400	66	5078
2026-01-28 05:58:58.56	312.53	6.15	-48.0	-50.5	15.7	0.00e+00	0	43	0	1207959552	66	5142
2026-01-28 05:58:59.56	312.45	6.09	-48.1	-50.6	15.6	0.00e+00	0	43	0	1209008128	66	5197
2026-01-28 05:59:00.57	312.37	6.03	-48.1	-50.6	15.6	0.00e+00	0	43	0	1211105280	66	5175
