passes_logs/2026/01/28/R3.2S_Murmansk/R3.2S_Murmansk__20260128_102523_SUOMI_NPP_rec.log

#Pass ID: 20260128_102523_SUOMI NPP
#Satellite: SUOMI NPP
#Configuration: NPP
#almurnet v.1.7.20251203
#Start time: 2026-01-28 10:25:25

#Version: 2.2.20231116
#Station: R3.2S_Murmansk
#Location: 33.079688 lon 68.888172 lat
#TLE: 1 37849U 11061A   26027.86188320  .00000172  00000+0  10275-3 0  9990
#TLE: 2 37849  98.7823 329.8005 0002088  41.4184 318.7150 14.19530883738530

#Time	Az	El	Level	Level2	SNR	BER	BlckErr	Temp	State	Recorded	gain1	gain2
2026-01-28 10:25:25.10	171.73	2.12	-52.2	-67.1	3.8	1.49e+00	0	41	0	0	76	19488
2026-01-28 10:25:26.11	171.76	2.19	-52.1	-67.1	3.8	1.49e+00	0	41	104	0	74	21914
2026-01-28 10:25:27.12	171.78	2.25	-52.1	-67.1	3.8	1.49e+00	0	41	104	0	74	21901
2026-01-28 10:25:28.13	171.81	2.31	-52.1	-67.1	3.8	1.49e+00	0	41	104	0	74	21843
2026-01-28 10:25:29.13	171.84	2.38	-52.1	-67.0	3.8	1.49e+00	0	41	104	0	74	21749
2026-01-28 10:25:30.14	171.86	2.44	-52.1	-67.0	3.8	1.49e+00	0	41	104	0	74	21575
2026-01-28 10:25:31.15	171.89	2.51	-52.1	-67.0	3.8	1.49e+00	0	41	104	0	74	21590
2026-01-28 10:25:32.16	171.92	2.57	-52.1	-66.9	3.8	1.49e+00	0	41	104	0	74	21298
2026-01-28 10:25:33.17	171.94	2.64	-52.1	-66.6	3.8	1.49e+00	0	41	104	0	74	20770
2026-01-28 10:25:34.17	171.97	2.70	-52.1	-66.5	3.8	1.49e+00	0	41	104	0	74	20378
2026-01-28 10:25:35.17	172.00	2.77	-52.1	-66.7	3.8	1.49e+00	0	41	104	0	74	20875
2026-01-28 10:25:36.18	172.02	2.83	-52.1	-66.6	3.8	1.49e+00	0	41	104	0	74	20567
2026-01-28 10:25:37.19	172.05	2.90	-52.1	-66.5	3.8	1.49e+00	0	41	104	0	74	20432
2026-01-28 10:25:38.19	172.08	2.96	-52.1	-66.7	3.8	1.49e+00	0	41	104	0	74	20895
2026-01-28 10:25:39.20	172.11	3.03	-52.1	-66.9	3.8	1.49e+00	0	41	104	0	74	21336
2026-01-28 10:25:40.21	172.13	3.10	-52.1	-67.0	3.8	1.49e+00	0	41	104	0	74	21608
2026-01-28 10:25:41.22	172.16	3.16	-52.1	-67.1	3.8	1.49e+00	0	42	104	0	74	21786
2026-01-28 10:25:42.22	172.19	3.23	-52.1	-67.1	3.8	1.49e+00	0	42	104	0	74	21797
2026-01-28 10:25:43.24	172.22	3.29	-52.1	-67.0	3.8	1.49e+00	0	42	104	0	74	21534
2026-01-28 10:25:44.25	172.25	3.36	-52.1	-66.8	3.8	1.49e+00	0	42	104	0	74	21215
2026-01-28 10:25:45.25	172.27	3.43	-52.1	-66.7	3.8	1.49e+00	0	42	104	0	74	20795
2026-01-28 10:25:46.26	172.30	3.50	-52.1	-66.6	3.8	1.49e+00	0	42	104	0	74	20562
2026-01-28 10:25:47.27	172.33	3.56	-52.1	-66.6	3.8	1.49e+00	0	42	104	0	74	20671
2026-01-28 10:25:48.28	172.36	3.63	-52.1	-66.8	3.8	1.49e+00	0	42	104	0	74	21152
2026-01-28 10:25:49.29	172.39	3.70	-52.1	-67.0	3.8	1.49e+00	0	42	104	0	74	21521
2026-01-28 10:25:50.29	172.42	3.76	-52.1	-67.0	3.8	1.49e+00	0	42	104	0	74	21651
2026-01-28 10:25:51.30	172.45	3.83	-52.1	-66.4	3.8	1.49e+00	0	42	104	0	74	20154
2026-01-28 10:25:52.31	172.47	3.90	-52.0	-64.9	3.8	1.49e+00	0	42	104	0	74	16893
2026-01-28 10:25:53.32	172.50	3.97	-51.9	-62.9	4.4	1.38e+00	74	42	0	0	74	13426
2026-01-28 10:25:54.33	172.53	4.04	-51.5	-60.1	5.9	5.92e-01	0	42	0	1048576	74	9719
2026-01-28 10:25:55.33	172.56	4.11	-51.2	-58.0	7.7	2.03e-01	0	42	0	3145728	74	7658
2026-01-28 10:25:56.34	172.59	4.17	-50.7	-56.4	9.3	2.46e-02	0	42	0	5242880	73	6794
2026-01-28 10:25:57.35	172.62	4.24	-50.4	-55.3	10.5	8.65e-03	0	42	0	7340032	72	6310
2026-01-28 10:25:58.36	172.65	4.31	-49.9	-54.2	11.7	1.74e-03	0	42	0	9437184	71	5863
2026-01-28 10:25:59.37	172.68	4.38	-49.5	-53.2	12.7	2.88e-04	0	42	0	10485760	71	5272
2026-01-28 10:26:00.37	172.71	4.45	-49.1	-52.3	13.6	1.75e-05	0	42	0	12582912	70	5032
2026-01-28 10:26:01.38	172.74	4.52	-48.9	-52.0	14.0	3.80e-06	0	42	0	14680064	69	5129
2026-01-28 10:26:02.39	172.77	4.59	-48.5	-51.3	14.7	0.00e+00	0	42	0	16777216	69	4749
2026-01-28 10:26:03.40	172.80	4.66	-48.6	-51.5	14.5	7.00e-07	0	42	0	17825792	68	5126
2026-01-28 10:26:04.40	172.83	4.73	-48.4	-51.2	14.8	1.50e-06	0	42	0	19922944	68	4968
2026-01-28 10:26:05.41	172.86	4.80	-48.5	-51.4	14.6	7.00e-07	0	42	0	22020096	68	5085
2026-01-28 10:26:06.42	172.89	4.87	-48.7	-51.7	14.3	3.00e-06	0	42	0	24117248	68	5241
2026-01-28 10:26:07.43	172.92	4.94	-49.1	-52.4	13.6	1.50e-06	0	42	0	26214400	68	5702
2026-01-28 10:26:08.43	172.95	5.01	-49.3	-52.8	13.1	9.10e-06	0	42	0	28311552	69	5646
2026-01-28 10:26:09.44	172.99	5.08	-48.7	-51.6	15.3	5.87e-05	0	42	0	29360128	67	5521
2026-01-28 10:26:10.44	173.02	5.15	-52.5	-67.4	3.8	1.49e+00	0	42	104	30408704	75	21351
2026-01-28 10:26:11.45	173.05	5.22	-50.7	-56.1	9.4	9.61e-01	0	42	0	30408704	73	6533
2026-01-28 10:26:12.46	173.08	5.29	-47.4	-49.5	16.5	0.00e+00	0	42	0	32505856	66	4564
2026-01-28 10:26:13.47	173.11	5.37	-47.3	-49.5	16.6	0.00e+00	0	42	0	34603008	66	4567
2026-01-28 10:26:14.48	173.14	5.44	-50.3	-55.0	10.5	4.70e-01	0	42	0	35651584	72	6116
2026-01-28 10:26:15.48	173.17	5.51	-47.2	-49.2	16.7	0.00e+00	0	42	0	37748736	66	4441
2026-01-28 10:26:16.48	173.21	5.58	-47.1	-49.2	16.8	0.00e+00	0	42	0	39845888	66	4417
2026-01-28 10:26:17.49	173.24	5.65	-47.4	-49.6	16.3	0.00e+00	0	42	0	41943040	66	4626
2026-01-28 10:26:18.49	173.27	5.73	-47.1	-49.2	16.8	0.00e+00	0	42	0	42991616	66	4425
2026-01-28 10:26:19.50	173.30	5.80	-47.3	-49.5	16.6	0.00e+00	0	42	0	45088768	66	4567
2026-01-28 10:26:20.51	173.34	5.87	-47.2	-49.3	16.8	0.00e+00	0	42	0	47185920	66	4470
2026-01-28 10:26:21.51	173.37	5.95	-47.4	-49.6	16.4	0.00e+00	0	42	0	49283072	66	4644
2026-01-28 10:26:22.52	173.40	6.02	-47.5	-49.7	16.4	0.00e+00	0	42	0	51380224	66	4673
2026-01-28 10:26:23.53	173.43	6.09	-47.2	-49.3	16.7	0.00e+00	0	42	0	53477376	66	4468
2026-01-28 10:26:24.53	173.47	6.17	-47.3	-49.5	16.6	0.00e+00	0	42	0	54525952	66	4557
2026-01-28 10:26:25.54	173.50	6.24	-47.4	-49.5	16.6	0.00e+00	0	42	0	56623104	66	4590
2026-01-28 10:26:26.55	173.53	6.31	-47.3	-49.5	16.7	0.00e+00	0	42	0	58720256	66	4556
2026-01-28 10:26:27.56	173.57	6.39	-47.2	-49.3	16.8	0.00e+00	0	42	0	60817408	66	4465
2026-01-28 10:26:28.56	173.60	6.46	-47.3	-49.4	16.8	0.00e+00	0	42	0	62914560	66	4528
2026-01-28 10:26:29.57	173.64	6.54	-47.1	-49.1	17.0	0.00e+00	0	42	0	63963136	66	4376
2026-01-28 10:26:30.58	173.67	6.61	-47.2	-49.3	16.9	0.00e+00	0	42	0	66060288	66	4449
2026-01-28 10:26:31.59	173.70	6.69	-47.4	-49.5	16.7	0.00e+00	0	42	0	68157440	66	4560
2026-01-28 10:26:32.59	173.74	6.76	-47.2	-49.2	17.0	0.00e+00	0	42	0	70254592	66	4423
2026-01-28 10:26:33.60	173.77	6.84	-47.1	-49.1	17.1	0.00e+00	0	42	0	71303168	66	4381
2026-01-28 10:26:34.60	173.81	6.91	-47.0	-48.9	17.2	0.00e+00	0	42	0	73400320	66	4286
2026-01-28 10:26:35.61	173.84	6.99	-46.9	-48.8	17.4	0.00e+00	0	42	0	75497472	65	4463
2026-01-28 10:26:36.61	173.88	7.07	-47.1	-49.0	17.1	0.00e+00	0	42	0	77594624	65	4588
2026-01-28 10:26:37.63	173.91	7.14	-46.8	-48.7	17.5	0.00e+00	0	42	0	79691776	65	4405
2026-01-28 10:26:38.63	173.95	7.22	-46.8	-48.6	17.5	0.00e+00	0	42	0	81788928	65	4376
2026-01-28 10:26:39.65	173.98	7.30	-46.8	-48.6	17.6	0.00e+00	0	42	0	82837504	65	4368
2026-01-28 10:26:40.65	174.02	7.37	-46.5	-48.3	17.9	0.00e+00	0	42	0	84934656	64	4469
2026-01-28 10:26:41.66	174.06	7.45	-46.6	-48.4	17.8	0.00e+00	0	42	0	87031808	64	4538
2026-01-28 10:26:42.67	174.09	7.53	-46.6	-48.4	17.8	0.00e+00	0	42	0	89128960	64	4540
2026-01-28 10:26:43.68	174.13	7.61	-46.7	-48.5	17.8	0.00e+00	0	42	0	91226112	64	4565
2026-01-28 10:26:44.69	174.16	7.69	-46.7	-48.5	17.8	0.00e+00	0	42	0	92274688	64	4574
2026-01-28 10:26:45.69	174.20	7.76	-46.7	-48.5	17.8	0.00e+00	0	42	0	94371840	64	4588
2026-01-28 10:26:46.70	174.24	7.84	-46.5	-48.3	17.9	0.00e+00	0	42	0	96468992	64	4474
2026-01-28 10:26:47.71	174.28	7.92	-46.7	-48.6	17.7	0.00e+00	0	42	0	98566144	64	4602
2026-01-28 10:26:48.72	174.31	8.00	-46.4	-48.2	18.1	0.00e+00	0	42	0	100663296	64	4402
2026-01-28 10:26:49.73	174.35	8.08	-46.7	-48.5	17.8	0.00e+00	0	42	0	101711872	64	4564
2026-01-28 10:26:50.73	174.39	8.16	-46.6	-48.4	17.9	0.00e+00	0	42	0	103809024	64	4536
2026-01-28 10:26:51.75	174.43	8.24	-46.7	-48.5	17.9	0.00e+00	0	42	0	105906176	64	4560
2026-01-28 10:26:52.75	174.46	8.32	-46.7	-48.5	17.9	0.00e+00	0	43	0	108003328	64	4546
2026-01-28 10:26:53.76	174.50	8.40	-46.6	-48.4	17.9	0.00e+00	0	43	0	110100480	64	4538
2026-01-28 10:26:54.77	174.54	8.48	-46.5	-48.3	18.1	0.00e+00	0	43	0	111149056	64	4447
2026-01-28 10:26:55.78	174.58	8.56	-46.5	-48.2	18.1	0.00e+00	0	43	0	113246208	64	4440
2026-01-28 10:26:56.79	174.62	8.64	-46.2	-47.8	18.5	0.00e+00	0	42	0	115343360	64	4239
2026-01-28 10:26:57.79	174.66	8.72	-46.3	-48.0	18.4	0.00e+00	0	43	0	117440512	64	4308
2026-01-28 10:26:58.80	174.69	8.81	-46.3	-48.0	18.4	0.00e+00	0	42	0	119537664	64	4297
2026-01-28 10:26:59.81	174.73	8.89	-46.4	-48.0	18.3	0.00e+00	0	42	0	120586240	64	4340
2026-01-28 10:27:00.81	174.77	8.97	-46.4	-48.0	18.4	0.00e+00	0	42	0	122683392	64	4333
2026-01-28 10:27:01.83	174.81	9.05	-46.2	-47.8	18.5	0.00e+00	0	42	0	124780544	64	4227
2026-01-28 10:27:02.83	174.85	9.13	-46.1	-47.8	18.6	0.00e+00	0	43	0	126877696	64	4196
2026-01-28 10:27:03.84	174.89	9.22	-46.1	-47.7	18.7	0.00e+00	0	43	0	128974848	64	4156
2026-01-28 10:27:04.85	174.93	9.30	-46.2	-47.8	18.6	0.00e+00	0	42	0	130023424	64	4234
2026-01-28 10:27:05.86	174.97	9.38	-46.3	-47.9	18.5	0.00e+00	0	42	0	132120576	64	4275
2026-01-28 10:27:06.87	175.01	9.47	-46.2	-47.8	18.6	0.00e+00	0	43	0	134217728	64	4230
2026-01-28 10:27:07.87	175.06	9.55	-46.2	-47.8	18.6	0.00e+00	0	43	0	136314880	64	4204
2026-01-28 10:27:08.88	175.10	9.64	-46.2	-47.8	18.6	0.00e+00	0	43	0	138412032	64	4224
2026-01-28 10:27:09.89	175.14	9.72	-46.1	-47.8	18.6	0.00e+00	0	42	0	139460608	64	4199
2026-01-28 10:27:10.90	175.18	9.80	-46.3	-48.0	18.5	0.00e+00	0	43	0	141557760	64	4296
2026-01-28 10:27:11.91	175.22	9.89	-46.4	-48.0	18.4	0.00e+00	0	42	0	143654912	64	4329
2026-01-28 10:27:12.91	175.26	9.97	-46.2	-47.8	18.6	0.00e+00	0	43	0	145752064	64	4241
2026-01-28 10:27:13.92	175.31	10.06	-46.2	-47.8	18.7	0.00e+00	0	42	0	147849216	64	4208
2026-01-28 10:27:14.93	175.35	10.15	-46.1	-47.7	18.7	0.00e+00	0	43	0	148897792	64	4191
2026-01-28 10:27:15.94	175.39	10.23	-46.2	-47.8	18.6	0.00e+00	0	43	0	150994944	64	4235
2026-01-28 10:27:16.95	175.43	10.32	-46.0	-47.6	18.9	0.00e+00	0	42	0	153092096	64	4112
2026-01-28 10:27:17.95	175.48	10.41	-46.1	-47.7	18.8	0.00e+00	0	43	0	155189248	64	4151
2026-01-28 10:27:18.96	175.52	10.49	-46.2	-47.8	18.7	0.00e+00	0	42	0	157286400	64	4206
2026-01-28 10:27:19.97	175.56	10.58	-46.2	-47.8	18.7	0.00e+00	0	43	0	158334976	64	4201
2026-01-28 10:27:20.98	175.61	10.67	-46.1	-47.6	18.9	0.00e+00	0	42	0	160432128	64	4131
2026-01-28 10:27:21.98	175.65	10.76	-46.0	-47.6	18.9	0.00e+00	0	43	0	162529280	64	4101
2026-01-28 10:27:22.99	175.70	10.84	-46.1	-47.7	18.8	0.00e+00	0	43	0	164626432	64	4149
2026-01-28 10:27:24.00	175.74	10.93	-46.0	-47.5	18.9	0.00e+00	0	43	0	166723584	64	4095
2026-01-28 10:27:25.01	175.79	11.02	-46.2	-47.7	18.9	0.00e+00	0	43	0	168820736	63	4423
2026-01-28 10:27:26.01	175.83	11.11	-46.2	-47.7	18.9	0.00e+00	0	43	0	169869312	63	4435
2026-01-28 10:27:27.02	175.88	11.20	-46.1	-47.6	18.9	0.00e+00	0	43	0	171966464	63	4377
2026-01-28 10:27:28.03	175.92	11.29	-46.0	-47.6	19.0	0.00e+00	0	43	0	174063616	63	4366
2026-01-28 10:27:29.04	175.97	11.38	-46.0	-47.5	19.1	0.00e+00	0	43	0	176160768	63	4309
2026-01-28 10:27:30.04	176.01	11.47	-45.9	-47.4	19.1	0.00e+00	0	43	0	177209344	63	4291
2026-01-28 10:27:31.05	176.06	11.56	-46.0	-47.6	19.0	0.00e+00	0	43	0	179306496	63	4345
2026-01-28 10:27:32.06	176.11	11.65	-46.0	-47.6	19.0	0.00e+00	0	42	0	181403648	63	4348
2026-01-28 10:27:33.07	176.15	11.74	-46.0	-47.6	19.1	0.00e+00	0	43	0	183500800	63	4344
2026-01-28 10:27:34.07	176.20	11.83	-46.1	-47.6	19.0	0.00e+00	0	43	0	185597952	63	4369
2026-01-28 10:27:35.08	176.25	11.93	-46.1	-47.7	19.0	0.00e+00	0	43	0	186646528	63	4392
2026-01-28 10:27:36.09	176.30	12.02	-45.8	-47.2	19.3	0.00e+00	0	43	0	188743680	63	4190
2026-01-28 10:27:37.09	176.34	12.11	-45.9	-47.5	19.2	0.00e+00	0	43	0	190840832	63	4296
2026-01-28 10:27:38.10	176.39	12.20	-45.7	-47.2	19.4	0.00e+00	0	43	0	192937984	63	4174
2026-01-28 10:27:39.10	176.44	12.30	-45.8	-47.2	19.4	0.00e+00	0	43	0	195035136	63	4177
2026-01-28 10:27:40.10	176.49	12.39	-45.8	-47.3	19.3	0.00e+00	0	43	0	197132288	63	4207
2026-01-28 10:27:41.11	176.54	12.48	-45.8	-47.3	19.3	0.00e+00	0	43	0	198180864	63	4218
2026-01-28 10:27:42.12	176.59	12.58	-45.8	-47.3	19.4	0.00e+00	0	43	0	200278016	63	4200
2026-01-28 10:27:43.13	176.64	12.67	-45.8	-47.3	19.3	0.00e+00	0	43	0	202375168	63	4216
2026-01-28 10:27:44.13	176.69	12.77	-45.7	-47.2	19.4	0.00e+00	0	43	0	204472320	63	4181
2026-01-28 10:27:45.14	176.74	12.86	-45.8	-47.3	19.3	0.00e+00	0	43	0	205520896	63	4214
2026-01-28 10:27:46.15	176.79	12.96	-46.0	-47.5	19.2	0.00e+00	0	43	0	207618048	63	4305
2026-01-28 10:27:47.15	176.84	13.06	-45.9	-47.4	19.3	0.00e+00	0	43	0	209715200	63	4260
2026-01-28 10:27:48.16	176.89	13.15	-45.9	-47.4	19.2	0.00e+00	0	43	0	211812352	63	4288
2026-01-28 10:27:49.17	176.94	13.25	-45.9	-47.4	19.3	0.00e+00	0	43	0	213909504	63	4260
2026-01-28 10:27:50.18	176.99	13.35	-45.8	-47.2	19.5	0.00e+00	0	43	0	214958080	63	4181
2026-01-28 10:27:51.19	177.05	13.45	-45.8	-47.3	19.4	0.00e+00	0	43	0	217055232	63	4230
2026-01-28 10:27:52.19	177.10	13.54	-45.8	-47.3	19.5	0.00e+00	0	43	0	219152384	63	4194
2026-01-28 10:27:53.19	177.15	13.64	-45.7	-47.1	19.6	0.00e+00	0	42	0	221249536	63	4123
2026-01-28 10:27:54.20	177.20	13.74	-45.7	-47.1	19.6	0.00e+00	0	42	0	223346688	63	4132
2026-01-28 10:27:55.21	177.26	13.84	-45.6	-47.0	19.7	0.00e+00	0	43	0	225443840	63	4097
2026-01-28 10:27:56.21	177.31	13.94	-45.8	-47.2	19.5	0.00e+00	0	43	0	226492416	63	4165
2026-01-28 10:27:57.22	177.36	14.04	-45.5	-46.9	19.8	0.00e+00	0	43	0	228589568	63	4017
2026-01-28 10:27:58.23	177.42	14.14	-45.3	-46.6	20.0	0.00e+00	0	43	0	230686720	62	4137
2026-01-28 10:27:59.23	177.47	14.24	-45.5	-46.8	19.8	0.00e+00	0	43	0	232783872	62	4233
2026-01-28 10:28:00.23	177.53	14.34	-45.3	-46.6	20.0	0.00e+00	0	43	0	233832448	62	4123
2026-01-28 10:28:01.24	177.58	14.44	-45.4	-46.7	19.9	0.00e+00	0	43	0	235929600	62	4190
2026-01-28 10:28:02.24	177.64	14.54	-45.4	-46.8	19.9	0.00e+00	0	43	0	238026752	62	4194
2026-01-28 10:28:03.25	177.70	14.64	-45.5	-46.8	19.8	0.00e+00	0	43	0	240123904	62	4229
2026-01-28 10:28:04.25	177.75	14.75	-45.4	-46.8	19.9	0.00e+00	0	43	0	242221056	62	4204
2026-01-28 10:28:05.26	177.81	14.85	-45.3	-46.6	20.1	0.00e+00	0	43	0	243269632	62	4120
2026-01-28 10:28:06.27	177.87	14.95	-45.2	-46.5	20.2	0.00e+00	0	43	0	245366784	62	4069
2026-01-28 10:28:07.28	177.92	15.06	-45.2	-46.6	20.2	0.00e+00	0	43	0	247463936	62	4102
2026-01-28 10:28:08.28	177.98	15.16	-45.4	-46.7	20.0	0.00e+00	0	43	0	249561088	62	4177
2026-01-28 10:28:09.29	178.04	15.27	-45.4	-46.7	20.0	0.00e+00	0	43	0	251658240	62	4168
2026-01-28 10:28:10.29	178.10	15.37	-45.3	-46.6	20.1	0.00e+00	0	43	0	252706816	62	4123
2026-01-28 10:28:11.30	178.16	15.48	-45.3	-46.6	20.1	0.00e+00	0	43	0	254803968	62	4129
2026-01-28 10:28:12.31	178.22	15.58	-45.4	-46.7	20.0	0.00e+00	0	43	0	256901120	62	4176
2026-01-28 10:28:13.32	178.28	15.69	-45.4	-46.7	20.0	0.00e+00	0	43	0	258998272	62	4180
2026-01-28 10:28:14.32	178.34	15.80	-45.3	-46.6	20.1	0.00e+00	0	43	0	261095424	62	4137
2026-01-28 10:28:15.33	178.40	15.90	-45.5	-46.8	20.0	0.00e+00	0	43	0	262144000	62	4233
2026-01-28 10:28:16.34	178.46	16.01	-45.6	-47.0	19.8	0.00e+00	0	43	0	264241152	62	4294
2026-01-28 10:28:17.35	178.52	16.12	-45.4	-46.8	20.0	0.00e+00	0	43	0	266338304	62	4212
2026-01-28 10:28:18.36	178.58	16.23	-45.5	-46.9	19.8	0.00e+00	0	43	0	268435456	62	4275
2026-01-28 10:28:19.37	178.65	16.34	-45.9	-47.3	19.5	0.00e+00	0	43	0	270532608	62	4482
2026-01-28 10:28:20.37	178.71	16.45	-45.6	-47.0	19.7	0.00e+00	0	43	0	271581184	62	4327
2026-01-28 10:28:21.38	178.77	16.56	-45.6	-46.9	19.8	0.00e+00	0	43	0	273678336	62	4289
2026-01-28 10:28:22.39	178.84	16.67	-45.8	-47.2	19.6	0.00e+00	0	43	0	275775488	62	4411
2026-01-28 10:28:23.40	178.90	16.78	-45.6	-46.9	19.8	0.00e+00	0	43	0	277872640	62	4286
2026-01-28 10:28:24.41	178.97	16.89	-45.5	-46.9	19.8	0.00e+00	0	43	0	279969792	62	4274
2026-01-28 10:28:25.42	179.03	17.00	-45.7	-47.1	19.7	0.00e+00	0	43	0	282066944	62	4359
2026-01-28 10:28:26.43	179.10	17.12	-45.5	-46.9	20.0	0.00e+00	0	43	0	283115520	62	4243
2026-01-28 10:28:27.44	179.16	17.23	-45.5	-46.9	19.9	0.00e+00	0	43	0	285212672	62	4279
2026-01-28 10:28:28.45	179.23	17.34	-45.6	-47.0	19.8	0.00e+00	0	43	0	287309824	62	4328
2026-01-28 10:28:29.45	179.30	17.46	-45.6	-46.9	19.8	0.00e+00	0	43	0	289406976	62	4277
2026-01-28 10:28:30.46	179.36	17.57	-45.7	-47.2	19.6	0.00e+00	0	43	0	290455552	62	4397
2026-01-28 10:28:31.47	179.43	17.69	-45.8	-47.3	19.5	0.00e+00	0	43	0	292552704	62	4458
2026-01-28 10:28:32.48	179.50	17.80	-45.6	-47.0	19.8	0.00e+00	0	43	0	294649856	62	4326
2026-01-28 10:28:33.49	179.57	17.92	-45.8	-47.2	19.6	0.00e+00	0	43	0	296747008	62	4429
2026-01-28 10:28:34.49	179.64	18.04	-45.8	-47.3	19.6	0.00e+00	0	43	0	298844160	62	4445
2026-01-28 10:28:35.50	179.71	18.15	-45.9	-47.4	19.5	0.00e+00	0	43	0	299892736	62	4512
2026-01-28 10:28:36.50	179.78	18.27	-46.0	-47.5	19.4	0.00e+00	0	43	0	301989888	62	4554
2026-01-28 10:28:37.51	179.85	18.39	-46.0	-47.5	19.4	0.00e+00	0	43	0	304087040	62	4585
2026-01-28 10:28:38.52	179.92	18.51	-46.1	-47.6	19.3	0.00e+00	0	43	0	306184192	62	4601
2026-01-28 10:28:39.52	179.99	18.62	-45.9	-47.3	19.5	0.00e+00	0	43	0	308281344	62	4489
2026-01-28 10:28:40.53	180.07	18.74	-46.0	-47.5	19.4	0.00e+00	0	43	0	310378496	62	4559
2026-01-28 10:28:41.54	180.14	18.87	-46.1	-47.7	19.2	0.00e+00	0	43	0	311427072	62	4663
2026-01-28 10:28:42.55	180.21	18.99	-46.4	-48.0	18.9	0.00e+00	0	43	0	313524224	63	4569
2026-01-28 10:28:43.56	180.29	19.11	-46.1	-47.6	19.2	0.00e+00	0	43	0	315621376	63	4391
2026-01-28 10:28:44.56	180.36	19.23	-46.3	-47.9	19.1	0.00e+00	0	43	0	317718528	63	4506
2026-01-28 10:28:45.57	180.44	19.35	-46.4	-48.0	18.9	0.00e+00	0	43	0	318767104	63	4584
2026-01-28 10:28:46.58	180.51	19.48	-46.3	-47.9	19.0	0.00e+00	0	43	0	320864256	63	4530
2026-01-28 10:28:47.59	180.59	19.60	-46.3	-47.9	19.1	0.00e+00	0	43	0	322961408	63	4499
2026-01-28 10:28:48.60	180.67	19.72	-46.5	-48.1	18.9	0.00e+00	0	43	0	325058560	63	4617
2026-01-28 10:28:49.61	180.74	19.85	-46.4	-48.0	18.9	0.00e+00	0	43	0	327155712	63	4587
2026-01-28 10:28:50.61	180.82	19.97	-46.4	-48.0	18.9	0.00e+00	0	43	0	329252864	63	4551
2026-01-28 10:28:51.62	180.90	20.10	-46.3	-47.8	19.1	0.00e+00	0	43	0	330301440	63	4461
2026-01-28 10:28:52.63	180.98	20.23	-46.4	-47.9	19.1	0.00e+00	0	43	0	332398592	63	4529
2026-01-28 10:28:53.64	181.06	20.35	-46.3	-47.9	19.1	0.00e+00	0	43	0	334495744	63	4500
2026-01-28 10:28:54.64	181.14	20.48	-46.2	-47.7	19.2	0.00e+00	0	43	0	336592896	63	4437
2026-01-28 10:28:55.65	181.22	20.61	-46.3	-47.8	19.1	0.00e+00	0	43	0	338690048	63	4455
2026-01-28 10:28:56.66	181.31	20.74	-46.1	-47.6	19.3	0.00e+00	0	43	0	339738624	63	4374
2026-01-28 10:28:57.67	181.39	20.87	-46.2	-47.7	19.3	0.00e+00	0	43	0	341835776	63	4417
2026-01-28 10:28:58.67	181.47	21.00	-46.3	-47.8	19.2	0.00e+00	0	43	0	343932928	63	4474
2026-01-28 10:28:59.68	181.55	21.13	-46.1	-47.6	19.4	0.00e+00	0	43	0	346030080	63	4364
2026-01-28 10:29:00.69	181.64	21.26	-45.8	-47.2	19.8	0.00e+00	0	43	0	347078656	63	4149
2026-01-28 10:29:01.70	181.73	21.39	-45.4	-46.8	20.1	0.00e+00	0	43	0	349175808	62	4200
2026-01-28 10:29:02.70	181.81	21.52	-45.6	-46.9	20.0	0.00e+00	0	43	0	351272960	62	4280
2026-01-28 10:29:03.71	181.90	21.66	-45.3	-46.6	20.2	0.00e+00	0	43	0	353370112	62	4142
2026-01-28 10:29:04.72	181.99	21.79	-45.1	-46.3	20.5	0.00e+00	0	43	0	355467264	62	3984
2026-01-28 10:29:05.73	182.07	21.93	-45.1	-46.4	20.5	0.00e+00	0	43	0	357564416	62	4022
2026-01-28 10:29:06.73	182.16	22.06	-45.0	-46.2	20.6	0.00e+00	0	43	0	358612992	61	4179
2026-01-28 10:29:07.74	182.25	22.20	-44.9	-46.2	20.7	0.00e+00	0	43	0	360710144	61	4148
2026-01-28 10:29:08.75	182.34	22.33	-45.0	-46.3	20.6	0.00e+00	0	43	0	362807296	61	4217
2026-01-28 10:29:09.75	182.43	22.47	-44.7	-45.9	20.9	0.00e+00	0	43	0	364904448	61	4043
2026-01-28 10:29:10.76	182.53	22.61	-44.7	-45.9	20.8	0.00e+00	0	43	0	367001600	61	4028
2026-01-28 10:29:11.77	182.62	22.75	-44.6	-45.8	21.0	0.00e+00	0	43	0	368050176	61	3989
2026-01-28 10:29:12.77	182.71	22.88	-44.3	-45.5	21.3	0.00e+00	0	43	0	370147328	60	4055
2026-01-28 10:29:13.78	182.81	23.02	-44.3	-45.4	21.3	0.00e+00	0	43	0	372244480	60	4046
2026-01-28 10:29:14.79	182.90	23.17	-44.3	-45.4	21.4	0.00e+00	0	43	0	374341632	60	4023
2026-01-28 10:29:15.79	183.00	23.31	-44.2	-45.3	21.4	0.00e+00	0	43	0	375390208	60	4003
2026-01-28 10:29:16.80	183.09	23.45	-44.2	-45.3	21.4	0.00e+00	0	43	0	377487360	60	3991
2026-01-28 10:29:17.81	183.19	23.59	-44.2	-45.3	21.4	0.00e+00	0	43	0	379584512	60	4001
2026-01-28 10:29:18.81	183.29	23.73	-44.2	-45.4	21.4	0.00e+00	0	43	0	381681664	60	4012
2026-01-28 10:29:19.82	183.39	23.88	-44.3	-45.5	21.4	0.00e+00	0	43	0	383778816	60	4054
2026-01-28 10:29:20.83	183.49	24.02	-44.3	-45.5	21.3	0.00e+00	0	43	0	385875968	60	4067
2026-01-28 10:29:21.83	183.59	24.17	-44.2	-45.4	21.4	0.00e+00	0	43	0	386924544	60	4010
2026-01-28 10:29:22.84	183.69	24.31	-44.4	-45.6	21.3	0.00e+00	0	43	0	389021696	60	4100
2026-01-28 10:29:23.85	183.80	24.46	-44.3	-45.4	21.3	0.00e+00	0	43	0	391118848	60	4038
2026-01-28 10:29:24.86	183.90	24.61	-44.3	-45.5	21.4	0.00e+00	0	43	0	393216000	60	4058
2026-01-28 10:29:25.87	184.00	24.76	-44.2	-45.4	21.5	0.00e+00	0	43	0	395313152	60	4012
2026-01-28 10:29:26.87	184.11	24.91	-44.3	-45.5	21.4	0.00e+00	0	43	0	396361728	60	4060
2026-01-28 10:29:27.88	184.22	25.06	-44.4	-45.5	21.3	0.00e+00	0	43	0	398458880	60	4080
2026-01-28 10:29:28.89	184.32	25.21	-44.4	-45.5	21.2	0.00e+00	0	43	0	400556032	60	4097
2026-01-28 10:29:29.89	184.43	25.36	-44.5	-45.7	21.2	0.00e+00	0	43	0	402653184	60	4151
2026-01-28 10:29:30.90	184.54	25.51	-44.4	-45.5	21.3	0.00e+00	0	43	0	404750336	60	4069
2026-01-28 10:29:31.91	184.65	25.66	-44.2	-45.3	21.5	0.00e+00	0	43	0	405798912	60	3972
2026-01-28 10:29:32.92	184.77	25.82	-44.2	-45.3	21.5	0.00e+00	0	43	0	407896064	60	4001
2026-01-28 10:29:33.93	184.88	25.97	-44.1	-45.2	21.6	0.00e+00	0	43	0	409993216	60	3933
2026-01-28 10:29:34.93	184.99	26.13	-44.0	-45.0	21.7	0.00e+00	0	43	0	412090368	60	3858
2026-01-28 10:29:35.94	185.11	26.28	-44.3	-45.4	21.7	0.00e+00	0	43	0	414187520	59	4249
2026-01-28 10:29:36.94	185.22	26.44	-44.2	-45.3	21.8	0.00e+00	0	43	0	415236096	59	4224
2026-01-28 10:29:37.95	185.34	26.60	-44.1	-45.2	21.9	0.00e+00	0	43	0	417333248	59	4180
2026-01-28 10:29:38.96	185.46	26.76	-44.3	-45.4	21.7	0.00e+00	0	43	0	419430400	59	4250
2026-01-28 10:29:39.97	185.58	26.91	-44.1	-45.1	22.0	0.00e+00	0	43	0	421527552	59	4142
2026-01-28 10:29:40.98	185.70	27.08	-44.2	-45.3	21.8	0.00e+00	0	43	0	423624704	59	4207
2026-01-28 10:29:41.99	185.82	27.24	-44.2	-45.2	21.9	0.00e+00	0	43	0	424673280	59	4186
2026-01-28 10:29:43.00	185.94	27.40	-44.2	-45.2	21.9	0.00e+00	0	43	0	426770432	59	4192
2026-01-28 10:29:44.01	186.07	27.56	-44.1	-45.2	21.9	0.00e+00	0	43	0	428867584	59	4164
2026-01-28 10:29:45.01	186.19	27.72	-44.5	-45.6	21.5	0.00e+00	0	43	0	430964736	59	4388
2026-01-28 10:29:46.02	186.32	27.89	-44.1	-45.2	21.9	0.00e+00	0	43	0	433061888	59	4162
2026-01-28 10:29:47.03	186.45	28.05	-44.3	-45.4	21.8	0.00e+00	0	43	0	434110464	59	4268
2026-01-28 10:29:48.03	186.58	28.22	-44.3	-45.4	21.8	0.00e+00	0	43	0	436207616	59	4272
2026-01-28 10:29:49.04	186.71	28.39	-44.5	-45.6	21.6	0.00e+00	0	43	0	438304768	59	4348
2026-01-28 10:29:50.05	186.84	28.55	-44.7	-45.8	21.4	0.00e+00	0	43	0	440401920	59	4481
2026-01-28 10:29:51.05	186.97	28.72	-44.5	-45.6	21.3	0.00e+00	0	43	0	442499072	60	4132
2026-01-28 10:29:52.05	187.10	28.89	-44.6	-45.7	21.2	0.00e+00	0	43	0	443547648	60	4173
2026-01-28 10:29:53.06	187.24	29.06	-44.8	-46.0	21.0	0.00e+00	0	43	0	445644800	60	4332
2026-01-28 10:29:54.07	187.38	29.23	-45.0	-46.2	20.8	0.00e+00	0	43	0	447741952	60	4436
2026-01-28 10:29:55.08	187.52	29.40	-45.2	-46.4	20.6	0.00e+00	0	43	0	449839104	60	4515
2026-01-28 10:29:56.08	187.66	29.57	-45.4	-46.7	20.3	0.00e+00	0	43	0	451936256	61	4425
2026-01-28 10:29:57.09	187.80	29.75	-45.4	-46.7	20.3	0.00e+00	0	43	0	452984832	61	4429
2026-01-28 10:29:58.09	187.94	29.92	-45.3	-46.6	20.4	0.00e+00	0	43	0	455081984	61	4358
2026-01-28 10:29:59.10	188.09	30.10	-45.9	-47.3	19.8	0.00e+00	0	43	0	457179136	62	4487
2026-01-28 10:30:00.11	188.23	30.27	-46.1	-47.5	19.6	0.00e+00	0	43	0	459276288	62	4556
2026-01-28 10:30:01.12	188.38	30.45	-46.4	-47.8	19.3	0.00e+00	0	43	0	461373440	63	4485
2026-01-28 10:30:02.12	188.53	30.63	-46.4	-47.9	19.3	0.00e+00	0	43	0	462422016	63	4531
2026-01-28 10:30:03.13	188.68	30.81	-46.8	-48.4	18.7	0.00e+00	0	43	0	464519168	64	4526
2026-01-28 10:30:04.13	188.83	30.99	-47.1	-48.8	18.4	0.00e+00	0	43	0	466616320	64	4719
2026-01-28 10:30:05.14	188.99	31.17	-46.9	-48.6	18.5	0.00e+00	0	43	0	468713472	64	4606
2026-01-28 10:30:06.15	189.14	31.35	-47.4	-49.1	18.1	0.00e+00	0	43	0	470810624	65	4635
2026-01-28 10:30:07.16	189.30	31.53	-47.2	-49.0	18.2	0.00e+00	0	43	0	471859200	65	4546
2026-01-28 10:30:08.17	189.46	31.72	-47.3	-49.1	18.1	0.00e+00	0	43	0	473956352	65	4614
2026-01-28 10:30:09.18	189.62	31.90	-47.6	-49.5	17.7	0.00e+00	0	43	0	476053504	66	4562
2026-01-28 10:30:10.19	189.78	32.09	-47.7	-49.5	17.7	0.00e+00	0	43	0	478150656	66	4593
2026-01-28 10:30:11.20	189.95	32.27	-47.8	-49.7	17.6	0.00e+00	0	43	0	480247808	66	4663
2026-01-28 10:30:12.20	190.11	32.46	-47.7	-49.6	17.6	0.00e+00	0	43	0	482344960	66	4650
2026-01-28 10:30:13.21	190.28	32.65	-47.6	-49.4	17.8	0.00e+00	0	43	0	483393536	66	4533
2026-01-28 10:30:14.22	190.45	32.84	-47.3	-49.1	18.1	0.00e+00	0	43	0	485490688	66	4368
2026-01-28 10:30:15.23	190.63	33.03	-47.4	-49.2	18.0	0.00e+00	0	43	0	487587840	66	4439
2026-01-28 10:30:16.24	190.80	33.22	-47.2	-48.9	18.3	0.00e+00	0	43	0	489684992	66	4254
2026-01-28 10:30:17.25	190.98	33.41	-47.0	-48.7	18.5	0.00e+00	0	43	0	490733568	65	4399
2026-01-28 10:30:18.25	191.15	33.60	-47.0	-48.7	18.5	0.00e+00	0	43	0	492830720	65	4408
2026-01-28 10:30:19.26	191.34	33.80	-46.8	-48.4	18.8	0.00e+00	0	43	0	494927872	65	4264
2026-01-28 10:30:20.26	191.52	33.99	-46.7	-48.3	18.9	0.00e+00	0	43	0	497025024	65	4217
2026-01-28 10:30:21.27	191.70	34.19	-46.8	-48.4	18.7	0.00e+00	0	43	0	499122176	65	4271
2026-01-28 10:30:22.28	191.89	34.38	-47.1	-48.7	18.4	0.00e+00	0	43	0	500170752	65	4438
2026-01-28 10:30:23.28	192.08	34.58	-46.8	-48.4	18.8	0.00e+00	0	43	0	502267904	65	4253
2026-01-28 10:30:24.29	192.27	34.78	-47.3	-49.0	18.3	0.00e+00	0	43	0	504365056	65	4563
2026-01-28 10:30:25.30	192.46	34.98	-47.4	-49.1	18.1	0.00e+00	0	43	0	506462208	65	4634
2026-01-28 10:30:26.31	192.66	35.18	-47.0	-48.7	18.5	0.00e+00	0	43	0	508559360	65	4417
2026-01-28 10:30:27.32	192.86	35.38	-47.2	-48.9	18.4	0.00e+00	0	43	0	510656512	65	4494
2026-01-28 10:30:28.32	193.06	35.58	-46.9	-48.5	18.7	0.00e+00	0	43	0	511705088	65	4319
2026-01-28 10:30:29.33	193.26	35.78	-47.2	-48.9	18.3	0.00e+00	0	43	0	513802240	65	4511
2026-01-28 10:30:30.34	193.47	35.98	-46.8	-48.3	18.9	0.00e+00	0	43	0	515899392	65	4237
2026-01-28 10:30:31.35	193.67	36.19	-46.9	-48.5	18.8	0.00e+00	0	43	0	517996544	65	4304
2026-01-28 10:30:32.36	193.89	36.40	-46.5	-48.1	19.1	0.00e+00	0	43	0	519045120	65	4100
2026-01-28 10:30:33.37	194.10	36.60	-46.6	-48.1	19.1	0.00e+00	0	43	0	521142272	64	4355
2026-01-28 10:30:34.37	194.31	36.81	-46.5	-48.0	19.2	0.00e+00	0	43	0	523239424	64	4293
2026-01-28 10:30:35.38	194.53	37.02	-46.2	-47.5	19.6	0.00e+00	0	43	0	525336576	64	4098
2026-01-28 10:30:36.38	194.75	37.22	-46.6	-48.1	19.1	0.00e+00	0	43	0	527433728	64	4373
2026-01-28 10:30:37.39	194.98	37.43	-46.2	-47.7	19.5	0.00e+00	0	43	0	528482304	64	4154
2026-01-28 10:30:38.40	195.20	37.64	-46.9	-48.6	18.7	0.00e+00	0	43	0	530579456	64	4606
2026-01-28 10:30:39.41	195.43	37.86	-46.2	-47.7	19.5	0.00e+00	0	43	0	532676608	64	4154
2026-01-28 10:30:40.41	195.67	38.07	-46.5	-48.0	19.2	0.00e+00	0	43	0	534773760	64	4306
2026-01-28 10:30:41.42	195.90	38.28	-46.4	-47.9	19.3	0.00e+00	0	43	0	536870912	64	4260
2026-01-28 10:30:42.43	196.14	38.49	-46.7	-48.3	18.8	0.00e+00	0	43	0	538968064	64	4447
2026-01-28 10:30:43.43	196.38	38.71	-46.6	-48.1	19.1	0.00e+00	0	43	0	540016640	64	4356
2026-01-28 10:30:44.44	196.63	38.92	-46.8	-48.4	18.8	0.00e+00	0	43	0	542113792	64	4505
2026-01-28 10:30:45.45	196.88	39.14	-46.9	-48.5	18.6	0.00e+00	0	43	0	544210944	64	4595
2026-01-28 10:30:46.45	197.13	39.36	-46.7	-48.3	18.9	0.00e+00	0	43	0	546308096	64	4475
2026-01-28 10:30:47.46	197.38	39.57	-46.6	-48.1	19.1	0.00e+00	0	43	0	547356672	64	4365
2026-01-28 10:30:48.46	197.64	39.79	-46.3	-47.7	19.4	0.00e+00	0	43	0	549453824	64	4187
2026-01-28 10:30:49.47	197.90	40.01	-45.9	-47.3	20.0	0.00e+00	0	43	0	551550976	63	4195
2026-01-28 10:30:50.48	198.17	40.23	-45.8	-47.1	20.2	0.00e+00	0	43	0	553648128	63	4133
2026-01-28 10:30:51.49	198.43	40.45	-45.9	-47.3	19.9	0.00e+00	0	43	0	555745280	63	4218
2026-01-28 10:30:52.50	198.71	40.67	-45.8	-47.2	20.1	0.00e+00	0	43	0	556793856	63	4163
2026-01-28 10:30:53.50	198.98	40.89	-45.8	-47.2	20.0	0.00e+00	0	43	0	558891008	63	4154
2026-01-28 10:30:54.51	199.26	41.12	-45.6	-46.9	20.4	0.00e+00	0	43	0	560988160	63	4013
2026-01-28 10:30:55.52	199.55	41.34	-45.5	-46.8	20.5	0.00e+00	0	43	0	563085312	62	4210
2026-01-28 10:30:56.53	199.83	41.56	-45.7	-47.0	20.3	0.00e+00	0	43	0	565182464	62	4313
2026-01-28 10:30:57.54	200.13	41.79	-45.9	-47.2	20.1	0.00e+00	0	43	0	567279616	62	4428
2026-01-28 10:30:58.54	200.42	42.01	-46.0	-47.4	19.9	0.00e+00	0	43	0	568328192	63	4281
2026-01-28 10:30:59.55	200.72	42.24	-46.5	-48.0	19.4	0.00e+00	0	43	0	570425344	63	4590
2026-01-28 10:31:00.56	201.02	42.46	-46.6	-48.2	19.1	0.00e+00	0	43	0	572522496	64	4405
2026-01-28 10:31:01.57	201.33	42.69	-46.5	-48.0	19.3	0.00e+00	0	43	0	574619648	64	4307
2026-01-28 10:31:02.58	201.65	42.92	-46.5	-48.1	19.2	0.00e+00	0	43	0	575668224	64	4347
2026-01-28 10:31:03.59	201.96	43.15	-46.0	-47.4	19.8	0.00e+00	0	43	0	577765376	64	4025
2026-01-28 10:31:04.59	202.28	43.37	-46.2	-47.6	19.7	0.00e+00	0	43	0	579862528	63	4368
2026-01-28 10:31:05.60	202.61	43.60	-46.3	-47.7	19.6	0.00e+00	0	43	0	581959680	63	4414
2026-01-28 10:31:06.61	202.94	43.83	-46.6	-48.0	19.3	0.00e+00	0	43	0	584056832	63	4590
2026-01-28 10:31:07.62	203.27	44.06	-46.6	-48.1	19.2	0.00e+00	0	43	0	586153984	64	4377
2026-01-28 10:31:08.63	203.61	44.29	-46.8	-48.4	18.9	0.00e+00	0	43	0	587202560	64	4495
2026-01-28 10:31:09.63	203.96	44.52	-46.8	-48.3	19.0	0.00e+00	0	43	0	589299712	64	4480
2026-01-28 10:31:10.64	204.31	44.75	-46.8	-48.4	19.0	0.00e+00	0	43	0	591396864	64	4498
2026-01-28 10:31:11.65	204.66	44.98	-46.3	-47.7	19.6	0.00e+00	0	43	0	593494016	64	4170
2026-01-28 10:31:12.66	205.02	45.21	-46.9	-48.4	18.9	0.00e+00	0	43	0	595591168	64	4540
2026-01-28 10:31:13.67	205.39	45.44	-47.1	-48.8	18.6	0.00e+00	0	43	0	596639744	65	4459
2026-01-28 10:31:14.67	205.75	45.66	-47.8	-49.6	17.8	0.00e+00	0	43	0	598736896	66	4618
2026-01-28 10:31:15.68	206.13	45.89	-47.7	-49.5	17.9	0.00e+00	0	43	0	600834048	66	4579
2026-01-28 10:31:16.69	206.51	46.12	-47.7	-49.6	17.8	0.00e+00	0	43	0	602931200	66	4604
2026-01-28 10:31:17.70	206.90	46.36	-47.3	-48.9	18.4	0.00e+00	0	43	0	603979776	66	4268
2026-01-28 10:31:18.71	207.29	46.59	-47.1	-48.7	18.6	0.00e+00	0	43	0	606076928	66	4189
2026-01-28 10:31:19.72	207.69	46.82	-47.3	-48.9	18.5	0.00e+00	0	43	0	608174080	66	4280
2026-01-28 10:31:20.72	208.09	47.04	-48.1	-50.1	17.4	0.00e+00	0	43	0	610271232	66	4893
2026-01-28 10:31:21.73	208.50	47.27	-48.7	-50.9	16.7	0.00e+00	0	43	0	612368384	68	4770
2026-01-28 10:31:22.74	208.92	47.50	-49.5	-52.1	15.5	0.00e+00	0	43	0	614465536	69	5173
2026-01-28 10:31:23.75	209.34	47.73	-49.8	-52.5	15.1	0.00e+00	0	43	0	615514112	70	5152
2026-01-28 10:31:24.75	209.76	47.96	-50.4	-53.6	14.1	7.00e-07	0	43	0	617611264	71	5476
2026-01-28 10:31:25.76	210.20	48.18	-50.3	-53.4	14.2	0.00e+00	0	43	0	619708416	71	5371
2026-01-28 10:31:26.76	210.63	48.41	-49.9	-52.7	14.9	7.00e-07	0	43	0	621805568	71	4964
2026-01-28 10:31:27.77	211.08	48.63	-49.8	-52.6	15.1	0.00e+00	0	43	0	623902720	71	4904
2026-01-28 10:31:28.78	211.53	48.86	-49.3	-51.8	15.9	0.00e+00	0	43	0	624951296	70	4706
2026-01-28 10:31:29.79	211.99	49.09	-48.8	-51.1	16.5	0.00e+00	0	43	0	627048448	69	4605
2026-01-28 10:31:30.79	212.46	49.31	-48.7	-50.8	16.9	0.00e+00	0	43	0	629145600	68	4719
2026-01-28 10:31:31.80	212.93	49.53	-49.3	-51.8	15.8	0.00e+00	0	43	0	631242752	69	5014
2026-01-28 10:31:32.80	213.41	49.75	-49.2	-51.5	16.1	0.00e+00	0	43	0	633339904	69	4865
2026-01-28 10:31:33.81	213.89	49.97	-49.2	-51.5	16.1	0.00e+00	0	43	0	634388480	69	4868
2026-01-28 10:31:34.82	214.39	50.19	-48.1	-49.9	17.6	0.00e+00	0	43	0	636485632	68	4265
2026-01-28 10:31:35.83	214.89	50.41	-47.9	-49.7	17.7	0.00e+00	0	43	0	638582784	67	4427
2026-01-28 10:31:36.84	215.40	50.63	-47.5	-49.2	18.4	0.00e+00	0	43	0	640679936	66	4411
2026-01-28 10:31:37.84	215.91	50.84	-47.1	-48.7	18.7	0.00e+00	0	43	0	642777088	66	4150
2026-01-28 10:31:38.85	216.43	51.06	-47.3	-48.9	18.7	0.00e+00	0	43	0	643825664	66	4283
2026-01-28 10:31:39.86	216.96	51.27	-47.3	-48.9	18.6	0.00e+00	0	43	0	645922816	66	4270
2026-01-28 10:31:40.87	217.50	51.48	-47.2	-48.8	18.7	0.00e+00	0	43	0	648019968	66	4198
2026-01-28 10:31:41.88	218.05	51.69	-46.8	-48.3	19.1	0.00e+00	0	43	0	650117120	65	4203
2026-01-28 10:31:42.88	218.60	51.90	-46.3	-47.7	19.7	0.00e+00	0	43	0	652214272	64	4159
2026-01-28 10:31:43.89	219.16	52.11	-46.1	-47.5	20.0	0.00e+00	0	43	0	653262848	63	4299
2026-01-28 10:31:44.90	219.73	52.31	-46.5	-47.9	19.5	0.00e+00	0	43	0	655360000	63	4530
2026-01-28 10:31:45.91	220.31	52.51	-46.6	-48.1	19.3	0.00e+00	0	43	0	657457152	64	4359
2026-01-28 10:31:46.91	220.88	52.71	-46.6	-48.0	19.3	0.00e+00	0	43	0	659554304	64	4335
2026-01-28 10:31:47.92	221.48	52.91	-46.2	-47.6	19.9	0.00e+00	0	43	0	661651456	63	4358
2026-01-28 10:31:48.93	222.08	53.11	-45.5	-46.7	20.6	0.00e+00	0	43	0	662700032	63	3934
2026-01-28 10:31:49.94	222.69	53.30	-45.5	-46.7	20.6	0.00e+00	0	43	0	664797184	62	4176
2026-01-28 10:31:50.94	223.30	53.49	-45.0	-46.2	21.1	0.00e+00	0	43	0	666894336	62	3953
2026-01-28 10:31:51.95	223.92	53.68	-44.9	-46.0	21.3	0.00e+00	0	43	0	668991488	61	4082
2026-01-28 10:31:52.96	224.55	53.86	-44.8	-45.9	21.4	0.00e+00	0	43	0	671088640	61	4012
2026-01-28 10:31:53.96	225.19	54.04	-44.8	-45.9	21.4	0.00e+00	0	43	0	672137216	60	4268
2026-01-28 10:31:54.97	225.84	54.22	-45.3	-46.6	20.8	0.00e+00	0	43	0	674234368	61	4348
2026-01-28 10:31:55.97	226.49	54.40	-45.0	-46.2	21.1	0.00e+00	0	43	0	676331520	61	4159
2026-01-28 10:31:56.98	227.15	54.57	-44.6	-45.7	21.5	0.00e+00	0	43	0	678428672	61	3940
2026-01-28 10:31:57.99	227.82	54.74	-44.9	-46.1	21.2	0.00e+00	0	43	0	680525824	60	4356
2026-01-28 10:31:59.00	228.50	54.91	-45.3	-46.5	20.9	0.00e+00	0	43	0	681574400	61	4336
2026-01-28 10:32:00.00	229.19	55.07	-45.6	-46.9	20.5	0.00e+00	0	43	0	683671552	62	4256
2026-01-28 10:32:01.01	229.88	55.23	-44.7	-45.8	21.4	0.00e+00	0	43	0	685768704	61	3978
2026-01-28 10:32:02.02	230.59	55.39	-44.7	-45.8	21.5	0.00e+00	0	43	0	687865856	60	4208
2026-01-28 10:32:03.02	231.29	55.54	-44.9	-46.0	21.3	0.00e+00	0	43	0	689963008	60	4318
2026-01-28 10:32:04.03	232.01	55.69	-45.4	-46.6	20.8	0.00e+00	0	43	0	691011584	61	4368
2026-01-28 10:32:05.04	232.74	55.83	-44.6	-45.7	21.5	0.00e+00	0	43	0	693108736	61	3949
2026-01-28 10:32:06.05	233.47	55.97	-44.4	-45.4	22.0	0.00e+00	0	43	0	695205888	59	4281
2026-01-28 10:32:07.05	234.20	56.11	-44.5	-45.6	21.7	0.00e+00	0	43	0	697303040	60	4117
2026-01-28 10:32:08.06	234.95	56.24	-45.6	-46.9	20.4	0.00e+00	0	43	0	699400192	62	4274
2026-01-28 10:32:09.07	235.71	56.37	-45.8	-47.2	20.2	0.00e+00	0	43	0	700448768	62	4409
2026-01-28 10:32:10.07	236.46	56.49	-45.5	-46.8	20.6	0.00e+00	0	43	0	702545920	63	3971
2026-01-28 10:32:11.07	237.22	56.61	-45.1	-46.3	21.1	0.00e+00	0	43	0	704643072	62	3963
2026-01-28 10:32:12.08	238.00	56.72	-44.9	-46.1	21.3	0.00e+00	0	43	0	706740224	61	4110
2026-01-28 10:32:13.09	238.78	56.83	-45.5	-46.7	20.7	0.00e+00	0	43	0	708837376	61	4440
2026-01-28 10:32:14.10	239.57	56.93	-46.5	-48.0	19.7	0.00e+00	0	43	0	709885952	63	4548
2026-01-28 10:32:15.10	240.35	57.03	-46.0	-47.3	20.2	0.00e+00	0	43	0	711983104	63	4205
2026-01-28 10:32:16.10	241.14	57.12	-45.8	-47.0	20.5	0.00e+00	0	43	0	714080256	63	4079
2026-01-28 10:32:17.11	241.94	57.21	-46.8	-48.3	19.2	0.00e+00	0	43	0	716177408	64	4476
2026-01-28 10:32:18.12	242.75	57.30	-47.4	-49.1	18.3	0.00e+00	0	43	0	718274560	65	4607
2026-01-28 10:32:19.13	243.57	57.38	-47.0	-48.6	18.9	0.00e+00	0	43	0	719323136	65	4359
2026-01-28 10:32:20.14	244.39	57.45	-46.1	-47.4	20.0	0.00e+00	0	43	0	721420288	64	4029
2026-01-28 10:32:21.15	245.21	57.52	-46.7	-48.2	19.2	0.00e+00	0	43	0	723517440	64	4393
2026-01-28 10:32:22.16	246.03	57.58	-47.5	-49.2	18.3	0.00e+00	0	43	0	725614592	65	4695
2026-01-28 10:32:23.16	246.86	57.64	-48.0	-49.9	17.7	0.00e+00	0	43	0	727711744	66	4811
2026-01-28 10:32:24.17	247.69	57.69	-47.9	-49.8	17.8	0.00e+00	0	43	0	728760320	66	4715
2026-01-28 10:32:25.17	248.52	57.73	-48.5	-50.7	16.9	0.00e+00	0	43	0	730857472	67	4927
2026-01-28 10:32:26.18	249.35	57.77	-48.8	-51.0	16.7	0.00e+00	0	43	0	732954624	68	4841
2026-01-28 10:32:27.19	250.20	57.81	-48.2	-50.1	17.5	0.00e+00	0	43	0	735051776	68	4354
2026-01-28 10:32:28.19	251.03	57.84	-47.7	-49.4	18.2	0.00e+00	0	43	0	737148928	67	4287
2026-01-28 10:32:29.20	251.87	57.86	-48.3	-50.3	17.3	0.00e+00	0	43	0	738197504	67	4752
2026-01-28 10:32:30.20	252.71	57.88	-48.5	-50.5	17.2	0.00e+00	0	43	0	740294656	68	4591
2026-01-28 10:32:31.21	253.56	57.89	-47.7	-49.4	18.1	0.00e+00	0	43	0	742391808	67	4289
2026-01-28 10:32:32.21	254.40	57.89	-47.0	-48.5	19.0	0.00e+00	0	43	0	744488960	66	4098
2026-01-28 10:32:33.22	255.24	57.89	-47.2	-48.8	18.8	0.00e+00	0	43	0	746586112	65	4478
2026-01-28 10:32:34.23	256.09	57.89	-47.5	-49.2	18.3	0.00e+00	0	43	0	747634688	65	4685
2026-01-28 10:32:35.23	256.93	57.88	-47.7	-49.5	18.1	0.00e+00	0	43	0	749731840	65	4815
2026-01-28 10:32:36.24	257.78	57.86	-47.4	-49.0	18.6	0.00e+00	0	43	0	751828992	66	4319
2026-01-28 10:32:37.25	258.62	57.84	-46.2	-47.6	19.9	0.00e+00	0	43	0	753926144	64	4118
2026-01-28 10:32:38.25	259.45	57.81	-46.3	-47.6	19.8	0.00e+00	0	43	0	756023296	64	4144
2026-01-28 10:32:39.26	260.29	57.77	-46.0	-47.3	20.0	0.00e+00	0	43	0	757071872	64	4002
2026-01-28 10:32:40.26	261.12	57.73	-45.0	-46.1	21.3	0.00e+00	0	43	0	759169024	62	3890
2026-01-28 10:32:41.27	261.96	57.69	-44.1	-45.2	22.0	0.00e+00	0	43	0	761266176	60	3921
2026-01-28 10:32:42.28	262.79	57.64	-44.5	-45.5	22.0	0.00e+00	0	43	0	763363328	59	4328
2026-01-28 10:32:43.29	263.62	57.58	-45.1	-46.3	21.1	0.00e+00	0	43	0	765460480	61	4229
2026-01-28 10:32:44.30	264.45	57.52	-45.7	-47.0	20.5	0.00e+00	0	43	0	766509056	62	4317
2026-01-28 10:32:45.30	265.26	57.45	-45.2	-46.4	21.0	0.00e+00	0	43	0	768606208	62	4022
2026-01-28 10:32:46.31	266.08	57.38	-45.1	-46.2	21.2	0.00e+00	0	43	0	770703360	62	3951
2026-01-28 10:32:47.32	266.89	57.30	-45.3	-46.5	20.9	0.00e+00	0	43	0	772800512	62	4091
2026-01-28 10:32:48.33	267.70	57.21	-46.0	-47.3	20.2	0.00e+00	0	43	0	774897664	62	4472
2026-01-28 10:32:49.33	268.50	57.13	-46.8	-48.3	19.3	0.00e+00	0	43	0	775946240	64	4444
2026-01-28 10:32:50.34	269.29	57.03	-47.1	-48.7	19.0	0.00e+00	0	43	0	778043392	65	4400
2026-01-28 10:32:51.35	270.09	56.93	-46.0	-47.3	20.2	0.00e+00	0	43	0	780140544	63	4232
2026-01-28 10:32:52.36	270.87	56.83	-45.5	-46.7	20.8	0.00e+00	0	43	0	782237696	62	4151
2026-01-28 10:32:53.36	271.64	56.72	-46.0	-47.3	20.2	0.00e+00	0	43	0	784334848	62	4476
2026-01-28 10:32:54.37	272.42	56.61	-46.4	-47.8	19.7	0.00e+00	0	43	0	785383424	63	4476
2026-01-28 10:32:55.38	273.19	56.49	-46.3	-47.8	19.9	0.00e+00	0	43	0	787480576	63	4452
2026-01-28 10:32:56.39	273.95	56.37	-47.0	-48.6	19.0	0.00e+00	0	43	0	789577728	64	4613
2026-01-28 10:32:57.40	274.70	56.24	-47.1	-48.7	18.9	0.00e+00	0	43	0	791674880	64	4701
2026-01-28 10:32:58.41	275.45	56.11	-46.6	-48.0	19.5	0.00e+00	0	43	0	793772032	64	4315
2026-01-28 10:32:59.41	276.18	55.97	-45.8	-47.1	20.4	0.00e+00	0	43	0	795869184	63	4127
2026-01-28 10:33:00.42	276.91	55.83	-44.9	-46.1	21.3	0.00e+00	0	43	0	796917760	61	4116
2026-01-28 10:33:01.43	277.64	55.69	-44.5	-45.6	21.8	0.00e+00	0	43	0	799014912	60	4126
2026-01-28 10:33:02.44	278.36	55.54	-44.8	-45.9	21.4	0.00e+00	0	43	0	801112064	60	4285
2026-01-28 10:33:03.45	279.07	55.39	-44.8	-45.9	21.5	0.00e+00	0	43	0	803209216	60	4267
2026-01-28 10:33:04.46	279.77	55.23	-44.8	-46.0	21.5	0.00e+00	0	43	0	804257792	60	4303
2026-01-28 10:33:05.46	280.46	55.07	-44.7	-45.8	21.6	0.00e+00	0	43	0	806354944	60	4204
2026-01-28 10:33:06.47	281.15	54.91	-44.6	-45.6	21.7	0.00e+00	0	43	0	808452096	60	4138
2026-01-28 10:33:07.48	281.83	54.74	-44.1	-45.1	22.2	0.00e+00	0	43	0	810549248	60	3883
2026-01-28 10:33:08.49	282.50	54.57	-44.2	-45.3	22.1	0.00e+00	0	43	0	812646400	60	3966
2026-01-28 10:33:09.49	283.15	54.40	-44.4	-45.5	21.9	0.00e+00	0	43	0	813694976	60	4086
2026-01-28 10:33:10.50	283.81	54.22	-45.1	-46.3	21.2	0.00e+00	0	43	0	815792128	60	4444
2026-01-28 10:33:11.51	284.46	54.04	-45.5	-46.8	20.7	0.00e+00	0	43	0	817889280	61	4454
2026-01-28 10:33:12.52	285.10	53.86	-44.9	-46.0	21.4	0.00e+00	0	43	0	819986432	61	4080
2026-01-28 10:33:13.52	285.72	53.68	-44.6	-45.7	21.7	0.00e+00	0	43	0	822083584	60	4158
2026-01-28 10:33:14.53	286.34	53.49	-45.4	-46.6	20.9	0.00e+00	0	43	0	824180736	61	4342
2026-01-28 10:33:15.54	286.96	53.30	-45.3	-46.5	21.0	0.00e+00	0	43	0	825229312	61	4298
2026-01-28 10:33:16.54	287.56	53.11	-44.5	-45.6	21.7	0.00e+00	0	43	0	827326464	61	3900
2026-01-28 10:33:17.55	288.16	52.91	-44.1	-45.1	22.1	0.00e+00	0	43	0	829423616	60	3908
2026-01-28 10:33:18.56	288.75	52.72	-45.0	-46.1	21.4	0.00e+00	0	43	0	831520768	60	4377
2026-01-28 10:33:19.56	289.33	52.52	-46.9	-48.4	19.2	0.00e+00	0	43	0	832569344	64	4513
2026-01-28 10:33:20.57	289.91	52.32	-48.4	-50.5	17.2	0.00e+00	0	43	0	834666496	67	4846
2026-01-28 10:33:21.58	290.47	52.11	-48.8	-51.0	16.8	0.00e+00	0	43	0	836763648	68	4845
2026-01-28 10:33:22.59	291.03	51.91	-48.5	-50.5	17.2	0.00e+00	0	43	0	838860800	68	4565
2026-01-28 10:33:23.59	291.58	51.70	-48.3	-50.3	17.5	0.00e+00	0	43	0	840957952	68	4443
2026-01-28 10:33:24.59	292.12	51.49	-47.4	-49.0	18.5	0.00e+00	0	43	0	842006528	66	4306
2026-01-28 10:33:25.60	292.66	51.28	-47.4	-49.0	18.6	0.00e+00	0	43	0	844103680	66	4299
2026-01-28 10:33:26.60	293.18	51.07	-48.0	-49.8	17.8	0.00e+00	0	43	0	846200832	67	4466
2026-01-28 10:33:27.61	293.71	50.86	-48.2	-50.0	17.6	0.00e+00	0	43	0	848297984	68	4312
2026-01-28 10:33:28.61	294.22	50.64	-47.3	-48.9	18.7	0.00e+00	0	43	0	850395136	66	4262
2026-01-28 10:33:29.62	294.72	50.43	-47.0	-48.4	19.2	0.00e+00	0	43	0	852492288	65	4275
2026-01-28 10:33:30.63	295.23	50.21	-48.6	-50.6	17.2	0.00e+00	0	43	0	853540864	67	4892
2026-01-28 10:33:31.64	295.72	49.99	-50.7	-54.0	13.8	0.00e+00	0	43	0	855638016	72	5432
2026-01-28 10:33:32.64	296.20	49.77	-49.9	-52.6	15.3	7.00e-07	0	43	0	857735168	71	4885
2026-01-28 10:33:33.65	296.68	49.55	-47.1	-48.6	18.9	0.00e+00	0	43	0	859832320	66	4110
2026-01-28 10:33:34.65	297.15	49.33	-45.7	-46.9	20.6	0.00e+00	0	43	0	860880896	63	4027
2026-01-28 10:33:35.66	297.62	49.10	-46.1	-47.4	20.2	0.00e+00	0	43	0	862978048	63	4248
2026-01-28 10:33:36.67	298.08	48.88	-46.7	-48.1	19.5	0.00e+00	0	43	0	865075200	64	4364
2026-01-28 10:33:37.68	298.53	48.66	-47.7	-49.4	18.3	0.00e+00	0	43	0	867172352	65	4788
2026-01-28 10:33:38.69	298.98	48.43	-48.4	-50.4	17.3	0.00e+00	0	43	0	869269504	67	4791
2026-01-28 10:33:39.70	299.42	48.20	-47.9	-49.8	17.8	0.00e+00	0	43	0	870318080	67	4484
2026-01-28 10:33:40.70	299.84	47.98	-47.3	-48.9	18.6	0.00e+00	0	43	0	872415232	66	4277
2026-01-28 10:33:41.71	300.27	47.75	-46.2	-47.6	19.8	0.00e+00	0	43	0	874512384	64	4107
2026-01-28 10:33:42.71	300.69	47.53	-45.3	-46.5	20.9	0.00e+00	0	43	0	876609536	62	4063
2026-01-28 10:33:43.72	301.10	47.30	-45.4	-46.6	21.1	0.00e+00	0	43	0	878706688	62	4106
2026-01-28 10:33:44.73	301.51	47.07	-45.9	-47.2	20.3	0.00e+00	0	43	0	880803840	62	4424
2026-01-28 10:33:45.73	301.91	46.84	-45.5	-46.7	20.8	0.00e+00	0	43	0	881852416	62	4166
2026-01-28 10:33:46.74	302.31	46.61	-44.7	-45.8	21.5	0.00e+00	0	43	0	883949568	61	3989
2026-01-28 10:33:47.75	302.70	46.38	-44.2	-45.2	22.1	0.00e+00	0	43	0	886046720	60	3949
2026-01-28 10:33:48.75	303.09	46.16	-45.4	-46.5	21.0	0.00e+00	0	43	0	888143872	61	4338
2026-01-28 10:33:49.75	303.46	45.93	-46.3	-47.6	20.0	0.00e+00	0	43	0	889192448	63	4390
2026-01-28 10:33:50.76	303.84	45.70	-47.0	-48.6	19.1	0.00e+00	0	43	0	891289600	64	4601
2026-01-28 10:33:51.77	304.21	45.47	-46.6	-48.0	19.5	0.00e+00	0	43	0	893386752	64	4322
2026-01-28 10:33:52.78	304.57	45.24	-46.8	-48.3	19.4	0.00e+00	0	43	0	895483904	64	4457
2026-01-28 10:33:53.78	304.93	45.01	-46.7	-48.2	19.4	0.00e+00	0	43	0	897581056	64	4417
2026-01-28 10:33:54.79	305.28	44.79	-47.2	-48.8	18.9	0.00e+00	0	43	0	898629632	65	4460
2026-01-28 10:33:55.80	305.63	44.56	-47.8	-49.5	18.1	0.00e+00	0	43	0	900726784	66	4567
2026-01-28 10:33:56.80	305.98	44.33	-48.0	-49.8	17.8	0.00e+00	0	43	0	902823936	67	4475
2026-01-28 10:33:57.81	306.32	44.10	-47.8	-49.6	18.0	0.00e+00	0	43	0	904921088	67	4343
2026-01-28 10:33:58.82	306.65	43.87	-47.4	-49.0	18.5	0.00e+00	0	43	0	907018240	66	4321
2026-01-28 10:33:59.82	306.98	43.65	-48.5	-50.4	17.3	0.00e+00	0	43	0	909115392	67	4808
2026-01-28 10:34:00.83	307.30	43.42	-49.9	-52.5	15.6	0.00e+00	0	43	0	910163968	70	5113
2026-01-28 10:34:01.84	307.63	43.19	-50.3	-53.2	14.6	7.00e-07	0	43	0	912261120	71	5234
2026-01-28 10:34:02.85	307.94	42.97	-50.0	-52.8	15.1	1.50e-06	0	43	0	914358272	71	5018
2026-01-28 10:34:03.86	308.25	42.74	-49.0	-51.2	16.6	0.00e+00	0	43	0	916455424	69	4653
2026-01-28 10:34:04.87	308.56	42.51	-48.7	-50.7	17.0	0.00e+00	0	43	0	917504000	68	4692
2026-01-28 10:34:05.88	308.87	42.29	-50.2	-53.0	14.9	0.00e+00	0	43	0	919601152	70	5422
2026-01-28 10:34:06.88	309.16	42.06	-52.4	-58.1	9.6	1.36e-04	0	43	0	921698304	75	7320
2026-01-28 10:34:07.89	309.46	41.84	-52.9	-60.1	7.2	9.24e-02	0	43	0	923795456	76	8752
2026-01-28 10:34:08.90	309.75	41.62	-52.4	-57.9	9.6	1.58e-01	0	43	0	925892608	76	6772
2026-01-28 10:34:09.91	310.04	41.39	-50.7	-53.9	13.7	1.38e-03	0	43	0	927989760	73	5078
2026-01-28 10:34:10.91	310.32	41.17	-49.5	-51.9	15.9	0.00e+00	0	43	0	929038336	70	4775
2026-01-28 10:34:11.92	310.60	40.95	-49.1	-51.3	16.4	0.00e+00	0	43	0	931135488	70	4449
2026-01-28 10:34:12.93	310.88	40.73	-49.6	-52.1	15.5	0.00e+00	0	43	0	933232640	70	4915
2026-01-28 10:34:13.93	311.15	40.51	-50.7	-53.9	13.9	1.50e-06	0	43	0	935329792	71	5671
2026-01-28 10:34:14.94	311.42	40.29	-50.9	-54.4	13.3	2.13e-05	0	43	0	937426944	72	5674
2026-01-28 10:34:15.95	311.68	40.07	-51.2	-55.1	12.6	1.43e-04	0	43	0	938475520	73	5834
2026-01-28 10:34:16.96	311.94	39.85	-51.1	-54.9	12.7	1.46e-04	0	43	0	940572672	73	5681
2026-01-28 10:34:17.97	312.20	39.63	-49.8	-52.5	15.1	2.20e-06	0	43	0	942669824	71	4846
2026-01-28 10:34:18.97	312.46	39.42	-47.8	-49.5	18.0	0.00e+00	0	43	0	944766976	67	4312
2026-01-28 10:34:19.98	312.71	39.20	-47.1	-48.7	18.8	0.00e+00	0	43	0	945815552	65	4413
2026-01-28 10:34:20.99	312.96	38.99	-47.0	-48.6	18.8	0.00e+00	0	43	0	947912704	65	4355
2026-01-28 10:34:21.99	313.20	38.77	-47.8	-49.6	18.0	0.00e+00	0	43	0	950009856	66	4609
2026-01-28 10:34:23.00	313.44	38.56	-49.4	-51.9	15.8	0.00e+00	0	43	0	952107008	69	5064
2026-01-28 10:34:24.01	313.68	38.35	-50.3	-53.5	14.2	0.00e+00	0	43	0	954204160	71	5410
2026-01-28 10:34:25.01	313.91	38.14	-48.9	-51.3	16.2	0.00e+00	0	43	0	956301312	69	4737
2026-01-28 10:34:26.02	314.15	37.92	-47.5	-49.3	18.1	0.00e+00	0	43	0	957349888	67	4205
2026-01-28 10:34:27.03	314.38	37.71	-46.9	-48.5	18.9	0.00e+00	0	43	0	959447040	65	4320
2026-01-28 10:34:28.03	314.60	37.51	-46.3	-47.7	19.6	0.00e+00	0	43	0	961544192	64	4167
2026-01-28 10:34:29.04	314.83	37.30	-46.2	-47.6	19.8	0.00e+00	0	43	0	963641344	64	4124
2026-01-28 10:34:30.04	315.05	37.09	-47.6	-49.3	18.2	0.00e+00	0	43	0	965738496	65	4752
2026-01-28 10:34:31.05	315.27	36.88	-48.7	-50.9	16.7	0.00e+00	0	43	0	966787072	67	5077
2026-01-28 10:34:32.06	315.48	36.68	-49.7	-52.5	15.3	0.00e+00	0	43	0	968884224	69	5404
2026-01-28 10:34:33.07	315.70	36.47	-49.8	-52.7	14.9	0.00e+00	0	43	0	970981376	70	5237
2026-01-28 10:34:34.07	315.91	36.27	-49.2	-51.6	16.0	0.00e+00	0	43	0	973078528	70	4604
2026-01-28 10:34:35.08	316.11	36.06	-48.0	-49.9	17.6	0.00e+00	0	43	0	974127104	68	4271
2026-01-28 10:34:36.08	316.32	35.86	-46.9	-48.5	18.9	0.00e+00	0	43	0	976224256	65	4320
2026-01-28 10:34:37.09	316.52	35.66	-46.3	-47.7	19.6	0.00e+00	0	43	0	978321408	64	4151
2026-01-28 10:34:38.10	316.72	35.46	-45.7	-46.9	20.4	0.00e+00	0	43	0	980418560	63	4026
2026-01-28 10:34:39.11	316.92	35.26	-45.4	-46.6	20.7	0.00e+00	0	43	0	982515712	62	4142
2026-01-28 10:34:40.11	317.12	35.06	-45.6	-46.9	20.3	0.00e+00	0	43	0	984612864	62	4264
2026-01-28 10:34:41.12	317.31	34.86	-46.7	-48.2	19.4	0.00e+00	0	43	0	985661440	63	4668
2026-01-28 10:34:42.13	317.50	34.66	-47.8	-49.7	17.7	0.00e+00	0	43	0	987758592	66	4691
2026-01-28 10:34:43.14	317.69	34.47	-48.5	-50.7	16.9	0.00e+00	0	43	0	989855744	67	4942
2026-01-28 10:34:44.14	317.88	34.27	-48.9	-51.1	16.5	0.00e+00	0	43	0	991952896	68	4913
2026-01-28 10:34:45.15	318.06	34.08	-48.9	-51.1	16.4	0.00e+00	0	43	0	994050048	68	4914
2026-01-28 10:34:46.16	318.24	33.88	-48.3	-50.2	17.3	0.00e+00	0	43	0	995098624	68	4441
2026-01-28 10:34:47.17	318.42	33.69	-47.6	-49.3	18.1	0.00e+00	0	43	0	997195776	67	4231
2026-01-28 10:34:48.18	318.60	33.50	-46.7	-48.2	19.1	0.00e+00	0	43	0	999292928	65	4153
2026-01-28 10:34:49.19	318.78	33.31	-46.1	-47.5	19.7	0.00e+00	0	43	0	1001390080	64	4082
2026-01-28 10:34:50.19	318.95	33.12	-45.4	-46.6	20.6	0.00e+00	0	43	0	1002438656	62	4128
2026-01-28 10:34:51.19	319.12	32.93	-45.3	-46.4	20.8	0.00e+00	0	43	0	1004535808	62	4051
2026-01-28 10:34:52.20	319.30	32.74	-45.4	-46.6	20.6	0.00e+00	0	43	0	1006632960	62	4145
2026-01-28 10:34:53.20	319.46	32.56	-45.8	-47.1	20.2	0.00e+00	0	43	0	1008730112	62	4363
2026-01-28 10:34:54.21	319.63	32.37	-46.8	-48.4	19.0	0.00e+00	0	43	0	1010827264	64	4514
2026-01-28 10:34:55.22	319.79	32.18	-47.5	-49.3	18.1	0.00e+00	0	43	0	1012924416	65	4724
2026-01-28 10:34:56.23	319.96	32.00	-48.3	-50.3	17.2	0.00e+00	0	43	0	1013972992	67	4729
2026-01-28 10:34:57.23	320.12	31.82	-48.4	-50.5	17.0	0.00e+00	0	43	0	1016070144	67	4827
2026-01-28 10:34:58.24	320.28	31.63	-48.1	-50.0	17.4	0.00e+00	0	43	0	1018167296	67	4588
2026-01-28 10:34:59.24	320.43	31.45	-47.4	-49.2	18.2	0.00e+00	0	43	0	1020264448	66	4394
2026-01-28 10:35:00.25	320.59	31.27	-46.9	-48.5	18.9	0.00e+00	0	43	0	1022361600	65	4307
2026-01-28 10:35:01.26	320.75	31.09	-46.2	-47.6	19.6	0.00e+00	0	43	0	1023410176	64	4138
2026-01-28 10:35:02.27	320.90	30.91	-45.5	-46.7	20.5	0.00e+00	0	43	0	1025507328	63	3937
2026-01-28 10:35:03.27	321.05	30.73	-45.3	-46.5	20.6	0.00e+00	0	43	0	1027604480	62	4077
2026-01-28 10:35:04.28	321.20	30.56	-45.2	-46.4	20.8	0.00e+00	0	43	0	1029701632	62	4028
2026-01-28 10:35:05.28	321.34	30.38	-45.8	-47.1	20.2	0.00e+00	0	43	0	1030750208	62	4373
2026-01-28 10:35:06.28	321.49	30.21	-46.6	-48.1	19.2	0.00e+00	0	43	0	1032847360	63	4642
2026-01-28 10:35:07.29	321.64	30.03	-47.5	-49.2	18.2	0.00e+00	0	43	0	1034944512	65	4691
2026-01-28 10:35:08.29	321.78	29.86	-48.4	-50.4	17.0	0.00e+00	0	43	0	1037041664	67	4790
2026-01-28 10:35:09.30	321.92	29.68	-48.9	-51.2	16.3	0.00e+00	0	43	0	1039138816	68	4948
2026-01-28 10:35:10.31	322.06	29.51	-48.7	-50.8	16.6	0.00e+00	0	43	0	1041235968	68	4744
2026-01-28 10:35:11.31	322.20	29.34	-48.0	-49.9	17.4	0.00e+00	0	43	0	1042284544	68	4278
2026-01-28 10:35:12.32	322.34	29.17	-47.6	-49.4	17.9	0.00e+00	0	43	0	1044381696	66	4499
2026-01-28 10:35:13.33	322.47	29.00	-46.9	-48.5	18.8	0.00e+00	0	43	0	1046478848	65	4298
2026-01-28 10:35:14.32	322.60	28.84	-46.4	-47.9	19.3	0.00e+00	0	43	0	1048576000	64	4276
2026-01-28 10:35:15.33	322.74	28.67	-46.2	-47.6	19.5	0.00e+00	0	43	0	1050673152	64	4134
2026-01-28 10:35:16.33	322.87	28.50	-46.0	-47.4	19.8	0.00e+00	0	43	0	1051721728	63	4280
2026-01-28 10:35:17.34	323.00	28.33	-45.4	-46.7	20.5	0.00e+00	0	43	0	1053818880	62	4184
2026-01-28 10:35:18.35	323.13	28.17	-45.3	-46.6	20.6	0.00e+00	0	43	0	1055916032	62	4131
2026-01-28 10:35:19.35	323.26	28.01	-45.2	-46.5	20.7	0.00e+00	0	43	0	1058013184	62	4054
2026-01-28 10:35:20.36	323.39	27.84	-45.4	-46.6	20.6	0.00e+00	0	43	0	1059061760	62	4136
2026-01-28 10:35:21.37	323.51	27.68	-45.8	-47.1	20.1	7.00e-07	0	43	0	1061158912	62	4387
2026-01-28 10:35:22.37	323.63	27.52	-45.7	-47.1	20.1	0.00e+00	0	43	0	1063256064	62	4360
2026-01-28 10:35:23.38	323.76	27.36	-46.4	-47.9	19.3	0.00e+00	0	43	0	1065353216	63	4529
2026-01-28 10:35:24.39	323.88	27.20	-46.6	-48.1	19.2	0.00e+00	0	43	0	1067450368	63	4649
2026-01-28 10:35:25.39	324.00	27.04	-46.4	-47.9	19.3	0.00e+00	0	43	0	1068498944	64	4284
2026-01-28 10:35:26.40	324.12	26.88	-46.9	-48.6	18.7	0.00e+00	0	43	0	1070596096	64	4613
2026-01-28 10:35:27.41	324.24	26.72	-46.7	-48.2	19.0	0.00e+00	0	43	0	1072693248	64	4422
2026-01-28 10:35:28.42	324.36	26.56	-46.3	-47.8	19.4	0.00e+00	0	43	0	1074790400	64	4201
2026-01-28 10:35:29.43	324.47	26.41	-46.2	-47.7	19.5	0.00e+00	0	43	0	1076887552	64	4166
2026-01-28 10:35:30.43	324.59	26.25	-46.1	-47.5	19.6	0.00e+00	0	43	0	1078984704	64	4095
2026-01-28 10:35:31.44	324.70	26.10	-46.3	-47.8	19.5	1.50e-06	0	43	0	1080033280	63	4458
2026-01-28 10:35:32.45	324.82	25.94	-46.0	-47.4	19.8	0.00e+00	0	43	0	1082130432	63	4268
2026-01-28 10:35:33.46	324.93	25.79	-46.2	-47.6	19.6	0.00e+00	0	43	0	1084227584	63	4348
2026-01-28 10:35:34.46	325.04	25.64	-46.5	-48.0	19.2	0.00e+00	0	43	0	1086324736	63	4589
2026-01-28 10:35:35.47	325.15	25.49	-46.7	-48.2	19.0	0.00e+00	0	43	0	1087373312	63	4696
2026-01-28 10:35:36.48	325.26	25.33	-46.6	-48.1	19.0	0.00e+00	0	43	0	1089470464	64	4379
2026-01-28 10:35:37.49	325.37	25.18	-46.8	-48.3	18.8	0.00e+00	0	43	0	1091567616	64	4470
2026-01-28 10:35:38.50	325.47	25.03	-47.0	-48.5	18.6	0.00e+00	0	43	0	1093664768	64	4590
2026-01-28 10:35:39.51	325.58	24.88	-46.7	-48.1	19.0	0.00e+00	0	43	0	1095761920	64	4387
2026-01-28 10:35:40.51	325.68	24.74	-46.5	-48.0	19.1	0.00e+00	0	43	0	1097859072	64	4328
2026-01-28 10:35:41.52	325.79	24.59	-46.2	-47.5	19.6	0.00e+00	0	43	0	1098907648	64	4093
2026-01-28 10:35:42.53	325.89	24.44	-46.0	-47.3	19.8	0.00e+00	0	43	0	1101004800	63	4227
2026-01-28 10:35:43.54	326.00	24.30	-46.1	-47.5	19.6	2.20e-06	0	43	0	1103101952	63	4317
2026-01-28 10:35:44.55	326.10	24.15	-45.6	-46.9	20.2	0.00e+00	0	43	0	1105199104	63	4040
2026-01-28 10:35:45.55	326.20	24.01	-45.8	-47.2	20.0	0.00e+00	0	43	0	1107296256	63	4150
2026-01-28 10:35:46.56	326.30	23.86	-46.0	-47.3	19.8	3.00e-06	0	43	0	1108344832	63	4229
2026-01-28 10:35:47.57	326.40	23.72	-46.1	-47.5	19.7	0.00e+00	0	43	0	1110441984	63	4313
2026-01-28 10:35:48.58	326.49	23.58	-46.6	-48.2	19.0	7.00e-07	0	43	0	1112539136	63	4684
2026-01-28 10:35:49.59	326.59	23.44	-46.8	-48.5	18.7	0.00e+00	0	43	0	1114636288	64	4563
2026-01-28 10:35:50.59	326.69	23.30	-46.9	-48.6	18.5	0.00e+00	0	43	0	1115684864	64	4645
2026-01-28 10:35:51.60	326.78	23.16	-47.2	-49.0	18.1	0.00e+00	0	43	0	1117782016	65	4580
2026-01-28 10:35:52.61	326.88	23.02	-46.9	-48.7	18.4	0.00e+00	0	43	0	1119879168	65	4405
2026-01-28 10:35:53.62	326.97	22.88	-46.9	-48.7	18.4	1.50e-06	0	43	0	1121976320	65	4408
2026-01-28 10:35:54.62	327.06	22.74	-46.7	-48.4	18.7	0.00e+00	0	43	0	1124073472	65	4255
2026-01-28 10:35:55.63	327.16	22.60	-46.2	-47.7	19.3	0.00e+00	0	43	0	1126170624	64	4182
2026-01-28 10:35:56.64	327.25	22.47	-46.0	-47.5	19.5	0.00e+00	0	43	0	1127219200	64	4068
2026-01-28 10:35:57.65	327.34	22.33	-45.7	-47.0	20.0	0.00e+00	0	43	0	1129316352	63	4096
2026-01-28 10:35:58.66	327.43	22.19	-45.2	-46.5	20.4	0.00e+00	0	43	0	1131413504	62	4091
2026-01-28 10:35:59.66	327.52	22.06	-45.2	-46.4	20.2	0.00e+00	0	43	0	1133510656	62	4047
2026-01-28 10:36:00.67	327.61	21.93	-45.1	-46.4	20.5	0.00e+00	0	43	0	1135607808	61	4247
2026-01-28 10:36:01.68	327.70	21.79	-45.0	-46.3	20.6	0.00e+00	0	43	0	1136656384	61	4213
2026-01-28 10:36:02.69	327.78	21.66	-45.1	-46.4	20.5	0.00e+00	0	43	0	1138753536	61	4252
2026-01-28 10:36:03.69	327.87	21.53	-45.1	-46.4	20.6	0.00e+00	0	43	0	1140850688	61	4243
2026-01-28 10:36:04.70	327.95	21.40	-45.5	-46.8	20.2	0.00e+00	0	43	0	1142947840	61	4467
2026-01-28 10:36:05.71	328.04	21.27	-45.7	-47.1	19.8	0.00e+00	0	43	0	1145044992	62	4374
2026-01-28 10:36:06.72	328.12	21.13	-45.8	-47.2	19.8	0.00e+00	0	43	0	1146093568	62	4420
2026-01-28 10:36:07.73	328.21	21.00	-45.8	-47.2	19.8	0.00e+00	0	43	0	1148190720	62	4430
2026-01-28 10:36:08.73	328.29	20.88	-45.7	-47.1	19.9	0.00e+00	0	43	0	1150287872	62	4374
2026-01-28 10:36:09.74	328.37	20.75	-45.6	-46.9	20.1	0.00e+00	0	43	0	1152385024	62	4261
2026-01-28 10:36:10.75	328.46	20.62	-45.7	-47.0	20.0	0.00e+00	0	43	0	1154482176	62	4323
2026-01-28 10:36:11.75	328.54	20.49	-45.6	-46.9	20.0	0.00e+00	0	43	0	1155530752	62	4284
2026-01-28 10:36:12.76	328.62	20.37	-45.2	-46.5	20.4	0.00e+00	0	43	0	1157627904	62	4086
2026-01-28 10:36:13.77	328.70	20.24	-45.2	-46.5	20.4	0.00e+00	0	43	0	1159725056	62	4072
2026-01-28 10:36:14.78	328.78	20.11	-44.9	-46.1	20.7	0.00e+00	0	43	0	1161822208	61	4136
2026-01-28 10:36:15.79	328.85	19.99	-44.7	-45.9	21.0	0.00e+00	0	43	0	1163919360	61	4021
2026-01-28 10:36:16.79	328.93	19.87	-44.5	-45.7	21.1	0.00e+00	0	43	0	1164967936	61	3936
2026-01-28 10:36:17.80	329.01	19.74	-44.4	-45.6	21.2	0.00e+00	0	43	0	1167065088	60	4107
2026-01-28 10:36:18.81	329.09	19.62	-44.3	-45.4	21.4	0.00e+00	0	43	0	1169162240	60	4047
2026-01-28 10:36:19.82	329.16	19.50	-44.4	-45.6	21.2	0.00e+00	0	43	0	1171259392	60	4102
2026-01-28 10:36:20.83	329.24	19.37	-44.4	-45.5	21.2	0.00e+00	0	43	0	1173356544	60	4096
2026-01-28 10:36:21.83	329.31	19.25	-44.5	-45.7	21.1	0.00e+00	0	43	0	1174405120	60	4154
2026-01-28 10:36:22.84	329.39	19.13	-44.4	-45.6	21.1	0.00e+00	0	43	0	1176502272	60	4129
2026-01-28 10:36:23.85	329.46	19.01	-44.5	-45.7	21.0	0.00e+00	0	43	0	1178599424	60	4185
2026-01-28 10:36:24.86	329.54	18.89	-44.7	-45.9	20.9	0.00e+00	0	43	0	1180696576	60	4252
2026-01-28 10:36:25.87	329.61	18.77	-44.9	-46.1	20.7	0.00e+00	0	43	0	1182793728	60	4369
2026-01-28 10:36:26.87	329.68	18.65	-45.0	-46.3	20.6	0.00e+00	0	43	0	1183842304	60	4463
2026-01-28 10:36:27.88	329.75	18.53	-45.3	-46.7	20.2	0.00e+00	0	43	0	1185939456	61	4398
2026-01-28 10:36:28.89	329.83	18.42	-45.4	-46.7	20.2	0.00e+00	0	43	0	1188036608	61	4412
2026-01-28 10:36:29.90	329.90	18.30	-45.6	-47.0	19.9	0.00e+00	0	43	0	1190133760	61	4556
2026-01-28 10:36:30.90	329.97	18.18	-45.7	-47.1	19.8	0.00e+00	0	43	0	1192230912	62	4348
2026-01-28 10:36:31.91	330.04	18.07	-45.9	-47.3	19.5	0.00e+00	0	43	0	1193279488	62	4488
2026-01-28 10:36:32.92	330.11	17.95	-46.2	-47.7	19.3	0.00e+00	0	43	0	1195376640	63	4404
2026-01-28 10:36:33.93	330.17	17.83	-46.2	-47.7	19.2	0.00e+00	0	43	0	1197473792	63	4428
2026-01-28 10:36:34.93	330.24	17.72	-46.3	-47.9	19.0	0.00e+00	0	43	0	1199570944	63	4499
2026-01-28 10:36:35.94	330.31	17.61	-46.5	-48.1	18.8	0.00e+00	0	43	0	1201668096	63	4642
2026-01-28 10:36:36.95	330.38	17.49	-46.6	-48.2	18.7	0.00e+00	0	43	0	1202716672	63	4688
2026-01-28 10:36:37.96	330.45	17.38	-46.6	-48.2	18.7	0.00e+00	0	43	0	1204813824	63	4703
2026-01-28 10:36:38.97	330.51	17.27	-46.5	-48.0	18.9	0.00e+00	0	43	0	1206910976	63	4591
2026-01-28 10:36:39.97	330.58	17.15	-46.4	-48.0	18.9	0.00e+00	0	43	0	1209008128	63	4581
2026-01-28 10:36:40.97	330.64	17.04	-46.5	-48.2	18.7	0.00e+00	0	43	0	1211105280	63	4662
2026-01-28 10:36:41.98	330.71	16.93	-46.5	-48.2	18.7	0.00e+00	0	43	0	1212153856	63	4661
2026-01-28 10:36:42.99	330.77	16.82	-46.5	-48.1	18.8	0.00e+00	0	43	0	1214251008	63	4618
2026-01-28 10:36:43.99	330.84	16.71	-46.5	-48.2	18.7	0.00e+00	0	43	0	1216348160	63	4657
2026-01-28 10:36:45.00	330.90	16.60	-46.5	-48.1	18.8	0.00e+00	0	43	0	1218445312	63	4640
2026-01-28 10:36:46.01	330.96	16.49	-46.5	-48.2	18.7	0.00e+00	0	43	0	1220542464	63	4655
2026-01-28 10:36:47.02	331.03	16.38	-46.3	-47.9	18.9	0.00e+00	0	43	0	1221591040	63	4540
2026-01-28 10:36:48.03	331.09	16.27	-46.3	-47.9	19.0	0.00e+00	0	43	0	1223688192	63	4514
2026-01-28 10:36:49.04	331.15	16.17	-46.1	-47.7	19.2	0.00e+00	0	43	0	1225785344	63	4398
2026-01-28 10:36:50.04	331.21	16.06	-46.0	-47.5	19.4	0.00e+00	0	43	0	1227882496	63	4313
2026-01-28 10:36:51.05	331.27	15.95	-45.9	-47.3	19.5	0.00e+00	0	43	0	1229979648	63	4242
2026-01-28 10:36:52.05	331.34	15.85	-45.7	-47.2	19.6	0.00e+00	0	43	0	1231028224	63	4158
2026-01-28 10:36:53.06	331.40	15.74	-45.8	-47.2	19.6	0.00e+00	0	43	0	1233125376	63	4191
2026-01-28 10:36:54.07	331.46	15.63	-45.8	-47.3	19.5	0.00e+00	0	43	0	1235222528	63	4220
2026-01-28 10:36:55.06	331.51	15.53	-45.9	-47.3	19.5	0.00e+00	0	43	0	1237319680	63	4229
2026-01-28 10:36:56.07	331.57	15.42	-45.6	-47.0	19.7	0.00e+00	0	43	0	1239416832	63	4080
