passes_logs/2026/01/28/R3.2S_Murmansk/R3.2S_Murmansk__20260128_074644_JL1KF02B02_rec.log

#Pass ID: 20260128_074644_JL1KF02B02
#Satellite: JL1KF02B02
#Configuration: 01B_900M
#almurnet v.1.7.20251203
#Start time: 2026-01-28 07:46:44

#Version: 2.2.20231116
#Station: R3.2S_Murmansk
#Location: 33.079688 lon 68.888172 lat
#TLE: 1 61193U 24169E   26027.57757668  .00007638  00000+0  47481-3 0  9990
#TLE: 2 61193  97.5622 119.2890 0013893  94.6172 265.6644 15.09847793 74621

#Time	Az	El	Level	Level2	SNR	BER	BlckErr	Temp	State	Recorded	gain1	gain2
2026-01-28 07:46:44.84	26.34	2.03	-54.7	-56.7	6.2	0.00e+00	0	45	0	0	80	18768
2026-01-28 07:46:45.84	26.47	2.08	-54.6	-56.8	6.2	0.00e+00	0	45	104	0	80	18908
2026-01-28 07:46:46.85	26.61	2.13	-54.7	-56.8	6.2	0.00e+00	0	45	104	0	80	18960
2026-01-28 07:46:47.86	26.74	2.17	-54.7	-56.8	6.2	0.00e+00	0	45	104	0	80	18996
2026-01-28 07:46:48.87	26.87	2.22	-54.8	-56.9	6.2	0.00e+00	0	45	104	0	80	19061
2026-01-28 07:46:49.87	27.00	2.27	-54.8	-56.9	6.2	0.00e+00	0	45	104	0	80	19148
2026-01-28 07:46:50.88	27.14	2.32	-54.8	-56.9	6.2	0.00e+00	0	45	104	0	80	19147
2026-01-28 07:46:51.89	27.27	2.36	-54.8	-56.9	6.2	0.00e+00	0	45	104	0	80	19107
2026-01-28 07:46:52.90	27.40	2.41	-54.8	-56.9	6.2	0.00e+00	0	45	104	0	80	19178
2026-01-28 07:46:53.91	27.54	2.46	-54.8	-56.9	6.2	0.00e+00	0	45	104	0	80	19103
2026-01-28 07:46:54.92	27.68	2.51	-54.8	-56.9	6.2	0.00e+00	0	45	104	0	80	19095
2026-01-28 07:46:55.93	27.81	2.56	-54.8	-56.9	6.2	0.00e+00	0	45	104	0	80	19079
2026-01-28 07:46:56.93	27.95	2.60	-54.8	-56.9	6.2	0.00e+00	0	45	104	0	80	19063
2026-01-28 07:46:57.94	28.08	2.65	-54.8	-56.9	6.2	0.00e+00	0	45	104	0	80	19060
2026-01-28 07:46:58.95	28.22	2.70	-54.7	-56.8	6.2	0.00e+00	0	45	104	0	80	19022
2026-01-28 07:46:59.96	28.36	2.75	-54.7	-56.8	6.2	0.00e+00	0	45	104	0	80	18929
2026-01-28 07:47:00.97	28.50	2.80	-54.7	-56.8	6.2	0.00e+00	0	45	104	0	80	18916
2026-01-28 07:47:01.98	28.64	2.84	-54.7	-56.8	6.2	0.00e+00	0	45	104	0	80	18830
2026-01-28 07:47:02.99	28.78	2.89	-54.6	-56.7	6.2	0.00e+00	0	45	104	0	80	18772
2026-01-28 07:47:03.99	28.92	2.94	-54.6	-56.7	6.2	0.00e+00	0	45	104	0	80	18607
2026-01-28 07:47:05.00	29.06	2.99	-54.5	-56.6	6.2	0.00e+00	0	45	104	0	80	18419
2026-01-28 07:47:06.01	29.20	3.03	-54.4	-56.4	6.2	0.00e+00	0	45	104	0	80	18128
2026-01-28 07:47:07.02	29.34	3.08	-54.2	-56.2	6.2	0.00e+00	0	45	104	0	80	17733
2026-01-28 07:47:08.03	29.49	3.13	-53.9	-56.0	6.2	0.00e+00	0	45	104	0	79	18311
2026-01-28 07:47:09.03	29.63	3.18	-53.5	-55.6	6.2	0.00e+00	0	45	104	0	79	17420
2026-01-28 07:47:10.04	29.77	3.23	-53.3	-55.3	6.2	0.00e+00	0	45	104	0	78	17950
2026-01-28 07:47:11.05	29.92	3.27	-53.2	-55.3	6.2	0.00e+00	0	45	104	0	78	17921
2026-01-28 07:47:12.06	30.06	3.32	-53.2	-55.3	6.2	0.00e+00	0	45	104	0	78	17924
2026-01-28 07:47:13.07	30.21	3.37	-53.2	-55.3	6.2	0.00e+00	0	45	104	0	78	17803
2026-01-28 07:47:14.08	30.35	3.42	-53.2	-55.3	6.2	0.00e+00	0	45	104	0	78	17829
2026-01-28 07:47:15.08	30.50	3.46	-53.2	-55.3	6.2	0.00e+00	0	45	104	0	78	17806
2026-01-28 07:47:16.09	30.65	3.51	-53.2	-55.3	6.2	0.00e+00	0	45	104	0	78	17851
2026-01-28 07:47:17.10	30.79	3.56	-53.2	-55.3	6.2	0.00e+00	0	45	104	0	78	17829
2026-01-28 07:47:18.11	30.94	3.61	-53.2	-55.3	6.2	0.00e+00	0	45	104	0	78	17789
2026-01-28 07:47:19.12	31.09	3.65	-53.2	-55.2	6.2	0.00e+00	0	45	104	0	78	17750
2026-01-28 07:47:20.13	31.24	3.70	-53.2	-55.3	6.2	0.00e+00	0	45	104	0	78	17797
2026-01-28 07:47:21.13	31.39	3.75	-53.1	-55.2	6.2	0.00e+00	0	45	104	0	78	17733
2026-01-28 07:47:22.14	31.54	3.80	-53.1	-55.2	6.2	0.00e+00	0	45	104	0	78	17717
2026-01-28 07:47:23.15	31.69	3.84	-53.1	-55.2	6.2	0.00e+00	0	45	104	0	78	17763
2026-01-28 07:47:24.16	31.84	3.89	-53.1	-55.2	6.2	0.00e+00	0	45	104	0	78	17760
2026-01-28 07:47:25.17	32.00	3.94	-53.1	-55.2	6.2	0.00e+00	0	45	104	0	78	17689
2026-01-28 07:47:26.17	32.15	3.99	-53.1	-55.2	6.2	0.00e+00	0	45	104	0	78	17711
2026-01-28 07:47:27.18	32.30	4.03	-53.1	-55.2	6.2	0.00e+00	0	45	104	0	78	17717
2026-01-28 07:47:28.19	32.46	4.08	-53.1	-55.2	6.2	0.00e+00	0	45	104	0	78	17711
2026-01-28 07:47:29.19	32.61	4.13	-53.1	-55.2	6.2	0.00e+00	0	45	104	0	78	17685
2026-01-28 07:47:30.20	32.76	4.17	-53.1	-55.2	6.2	0.00e+00	0	45	104	0	78	17676
2026-01-28 07:47:31.21	32.92	4.22	-53.1	-55.2	6.2	0.00e+00	0	45	104	0	78	17665
2026-01-28 07:47:32.22	33.08	4.27	-53.1	-55.2	6.2	0.00e+00	0	45	104	0	78	17604
2026-01-28 07:47:33.23	33.23	4.32	-53.1	-55.2	6.2	0.00e+00	0	45	104	0	78	17626
2026-01-28 07:47:34.23	33.39	4.36	-53.1	-55.2	6.2	0.00e+00	0	45	104	0	78	17666
2026-01-28 07:47:35.24	33.55	4.41	-53.1	-55.2	6.2	0.00e+00	0	45	104	0	78	17574
2026-01-28 07:47:36.25	33.71	4.46	-53.1	-55.1	6.2	0.00e+00	0	45	104	0	78	17534
2026-01-28 07:47:37.26	33.87	4.50	-53.1	-55.2	6.2	0.00e+00	0	45	104	0	78	17615
2026-01-28 07:47:38.27	34.03	4.55	-53.1	-55.2	6.2	0.00e+00	0	45	104	0	78	17633
2026-01-28 07:47:39.28	34.19	4.60	-53.1	-55.2	6.2	0.00e+00	0	45	104	0	78	17584
2026-01-28 07:47:40.29	34.35	4.64	-53.1	-55.1	6.2	0.00e+00	0	45	104	0	78	17556
2026-01-28 07:47:41.29	34.51	4.69	-53.1	-55.1	6.2	0.00e+00	0	45	104	0	78	17520
2026-01-28 07:47:42.30	34.67	4.74	-53.1	-55.2	6.2	0.00e+00	0	45	104	0	78	17582
2026-01-28 07:47:43.31	34.84	4.78	-53.1	-55.1	6.2	0.00e+00	0	45	104	0	78	17555
2026-01-28 07:47:44.32	35.00	4.83	-53.1	-55.2	6.2	0.00e+00	0	45	104	0	78	17623
2026-01-28 07:47:45.33	35.17	4.88	-53.1	-55.1	6.2	0.00e+00	0	45	104	0	78	17551
2026-01-28 07:47:46.33	35.33	4.92	-53.1	-55.1	6.2	0.00e+00	0	45	104	0	78	17539
2026-01-28 07:47:47.34	35.50	4.97	-53.1	-55.1	6.2	0.00e+00	0	46	104	0	78	17511
2026-01-28 07:47:48.35	35.66	5.01	-53.0	-55.1	6.2	0.00e+00	0	45	104	0	78	17518
2026-01-28 07:47:49.36	35.83	5.06	-53.1	-55.1	6.2	0.00e+00	0	45	104	0	78	17536
2026-01-28 07:47:50.37	36.00	5.11	-53.0	-55.1	6.2	0.00e+00	0	45	104	0	78	17552
2026-01-28 07:47:51.37	36.17	5.15	-53.0	-55.1	6.2	0.00e+00	0	45	104	0	77	18449
2026-01-28 07:47:52.38	36.33	5.20	-53.2	-55.3	6.2	0.00e+00	0	46	104	0	77	18824
2026-01-28 07:47:53.39	36.50	5.24	-53.1	-55.1	6.2	0.00e+00	0	45	104	0	77	18562
2026-01-28 07:47:54.40	36.68	5.29	-53.0	-55.0	6.2	0.00e+00	0	45	104	0	77	18375
2026-01-28 07:47:55.40	36.84	5.33	-53.0	-55.1	6.2	0.00e+00	0	45	104	0	77	18396
2026-01-28 07:47:56.41	37.02	5.38	-53.1	-55.2	6.2	0.00e+00	0	45	104	0	77	18754
2026-01-28 07:47:57.42	37.19	5.43	-53.0	-55.1	6.2	0.00e+00	0	46	104	0	77	18519
2026-01-28 07:47:58.42	37.36	5.47	-53.0	-55.0	6.2	0.00e+00	0	45	104	0	77	18362
2026-01-28 07:47:59.43	37.53	5.52	-53.0	-55.0	6.2	0.00e+00	0	45	104	0	77	18351
2026-01-28 07:48:00.44	37.71	5.56	-53.1	-55.2	6.2	0.00e+00	0	45	104	0	77	18680
2026-01-28 07:48:01.44	37.88	5.61	-53.0	-55.1	6.2	0.00e+00	0	45	104	0	77	18445
2026-01-28 07:48:02.45	38.06	5.65	-52.9	-55.0	6.2	0.00e+00	0	45	104	0	77	18281
2026-01-28 07:48:03.46	38.23	5.70	-53.0	-55.1	6.2	0.00e+00	0	45	104	0	77	18390
2026-01-28 07:48:04.47	38.41	5.74	-53.1	-55.2	6.2	0.00e+00	0	45	104	0	77	18621
2026-01-28 07:48:05.48	38.59	5.79	-53.0	-55.1	6.2	0.00e+00	0	45	104	0	77	18408
2026-01-28 07:48:06.49	38.77	5.83	-52.9	-55.0	6.2	0.00e+00	0	46	104	0	77	18290
2026-01-28 07:48:07.49	38.94	5.87	-53.0	-55.1	6.2	0.00e+00	0	46	104	0	77	18401
2026-01-28 07:48:08.50	39.12	5.92	-53.1	-55.2	6.2	0.00e+00	0	45	104	0	77	18683
2026-01-28 07:48:09.51	39.30	5.96	-53.0	-55.1	6.2	0.00e+00	0	45	104	0	77	18434
2026-01-28 07:48:10.52	39.48	6.01	-52.9	-55.0	6.2	0.00e+00	0	46	104	0	77	18318
2026-01-28 07:48:11.53	39.66	6.05	-53.0	-55.0	6.2	0.00e+00	0	45	104	0	77	18378
2026-01-28 07:48:12.53	39.85	6.10	-53.1	-55.2	6.2	0.00e+00	0	45	104	0	77	18613
2026-01-28 07:48:13.54	40.03	6.14	-53.0	-55.1	6.2	0.00e+00	0	45	104	0	77	18438
2026-01-28 07:48:14.54	40.21	6.18	-52.9	-55.0	6.2	0.00e+00	0	46	104	0	77	18311
2026-01-28 07:48:15.55	40.39	6.23	-53.0	-55.1	6.2	0.00e+00	0	46	104	0	77	18435
2026-01-28 07:48:16.56	40.58	6.27	-53.1	-55.2	6.2	0.00e+00	0	45	104	0	77	18643
2026-01-28 07:48:17.57	40.76	6.31	-53.0	-55.1	6.2	0.00e+00	0	45	104	0	77	18503
2026-01-28 07:48:18.57	40.95	6.36	-52.9	-55.0	6.2	0.00e+00	0	46	104	0	77	18279
2026-01-28 07:48:19.58	41.14	6.40	-53.0	-55.1	6.2	0.00e+00	0	45	104	0	77	18405
2026-01-28 07:48:20.59	41.32	6.44	-53.1	-55.1	6.2	0.00e+00	0	45	104	0	77	18586
2026-01-28 07:48:21.60	41.51	6.49	-53.0	-55.1	6.2	0.00e+00	0	46	104	0	77	18428
2026-01-28 07:48:22.61	41.70	6.53	-52.9	-55.0	6.2	0.00e+00	0	45	104	0	77	18275
2026-01-28 07:48:23.61	41.89	6.57	-53.0	-55.1	6.2	0.00e+00	0	46	104	0	77	18430
2026-01-28 07:48:24.62	42.08	6.61	-53.1	-55.2	6.2	0.00e+00	0	46	104	0	77	18610
2026-01-28 07:48:25.63	42.27	6.66	-53.0	-55.1	6.2	0.00e+00	0	46	104	0	77	18417
2026-01-28 07:48:26.63	42.46	6.70	-52.9	-55.0	6.2	0.00e+00	0	45	104	0	77	18282
2026-01-28 07:48:27.64	42.65	6.74	-53.0	-55.1	6.2	0.00e+00	0	46	104	0	77	18452
2026-01-28 07:48:28.65	42.84	6.78	-53.0	-55.1	6.2	0.00e+00	0	45	104	0	77	18508
2026-01-28 07:48:29.66	43.04	6.82	-53.0	-55.0	6.2	0.00e+00	0	46	104	0	77	18386
2026-01-28 07:48:30.66	43.23	6.87	-52.9	-55.0	6.2	0.00e+00	0	45	104	0	77	18258
2026-01-28 07:48:31.67	43.42	6.91	-53.0	-55.1	6.2	0.00e+00	0	46	104	0	77	18559
2026-01-28 07:48:32.68	43.62	6.95	-53.0	-55.1	6.2	0.00e+00	0	45	104	0	77	18480
2026-01-28 07:48:33.68	43.81	6.99	-52.9	-55.1	6.2	0.00e+00	0	46	104	0	77	18405
2026-01-28 07:48:34.69	44.01	7.03	-52.9	-55.0	6.2	0.00e+00	0	46	104	0	77	18240
2026-01-28 07:48:35.70	44.21	7.07	-53.0	-55.1	6.2	0.00e+00	0	46	104	0	77	18549
2026-01-28 07:48:36.71	44.40	7.11	-53.0	-55.1	6.2	0.00e+00	0	45	104	0	77	18537
2026-01-28 07:48:37.71	44.60	7.15	-53.0	-55.0	6.2	0.00e+00	0	46	104	0	77	18365
2026-01-28 07:48:38.72	44.80	7.19	-52.9	-55.0	6.2	0.00e+00	0	46	104	0	77	18284
2026-01-28 07:48:39.73	45.00	7.23	-53.0	-55.1	6.2	0.00e+00	0	46	104	0	77	18554
2026-01-28 07:48:40.74	45.20	7.27	-53.0	-55.1	6.2	0.00e+00	0	46	104	0	77	18541
2026-01-28 07:48:41.75	45.40	7.31	-53.0	-55.0	6.2	0.00e+00	0	46	104	0	77	18333
2026-01-28 07:48:42.76	45.60	7.35	-52.9	-55.0	6.2	0.00e+00	0	45	104	0	77	18332
2026-01-28 07:48:43.77	45.81	7.39	-53.1	-55.1	6.2	0.00e+00	0	46	104	0	77	18591
2026-01-28 07:48:44.78	46.01	7.43	-53.0	-55.1	6.2	0.00e+00	0	46	104	0	77	18524
2026-01-28 07:48:45.79	46.21	7.47	-53.0	-55.0	6.2	0.00e+00	0	46	104	0	77	18368
2026-01-28 07:48:46.79	46.42	7.51	-52.9	-55.0	6.2	0.00e+00	0	46	104	0	77	18275
2026-01-28 07:48:47.80	46.62	7.55	-53.1	-55.1	6.2	0.00e+00	0	46	104	0	77	18565
2026-01-28 07:48:48.81	46.83	7.59	-53.0	-55.1	6.2	0.00e+00	0	46	104	0	77	18491
2026-01-28 07:48:49.82	47.03	7.63	-53.0	-55.1	6.2	0.00e+00	0	46	104	0	77	18462
2026-01-28 07:48:50.83	47.24	7.66	-52.9	-55.0	6.2	0.00e+00	0	46	104	0	77	18323
2026-01-28 07:48:51.83	47.45	7.70	-53.1	-55.1	6.2	0.00e+00	0	45	104	0	77	18579
2026-01-28 07:48:52.84	47.66	7.74	-53.0	-55.1	6.2	0.00e+00	0	45	104	0	77	18529
2026-01-28 07:48:53.85	47.87	7.78	-53.0	-55.1	6.2	0.00e+00	0	46	104	0	77	18393
2026-01-28 07:48:54.86	48.08	7.81	-52.9	-55.0	6.2	0.00e+00	0	46	104	0	77	18313
2026-01-28 07:48:55.87	48.29	7.85	-53.1	-55.2	6.2	0.00e+00	0	46	104	0	77	18648
2026-01-28 07:48:56.87	48.49	7.89	-53.0	-55.1	6.2	0.00e+00	0	46	104	0	77	18508
2026-01-28 07:48:57.88	48.71	7.92	-53.0	-55.1	6.2	0.00e+00	0	46	104	0	77	18446
2026-01-28 07:48:58.89	48.92	7.96	-52.9	-55.0	6.2	0.00e+00	0	46	104	0	77	18320
2026-01-28 07:48:59.89	49.13	8.00	-53.2	-55.2	6.2	0.00e+00	0	45	104	0	77	18792
2026-01-28 07:49:00.90	49.34	8.03	-53.1	-55.1	6.2	0.00e+00	0	46	104	0	77	18596
2026-01-28 07:49:01.91	49.56	8.07	-53.0	-55.1	6.2	0.00e+00	0	45	104	0	77	18462
2026-01-28 07:49:02.92	49.77	8.10	-53.0	-55.0	6.2	0.00e+00	0	46	104	0	77	18368
2026-01-28 07:49:03.92	49.99	8.14	-53.1	-55.2	6.2	0.00e+00	0	46	104	0	77	18784
2026-01-28 07:49:04.93	50.20	8.17	-53.1	-55.2	6.2	0.00e+00	0	46	104	0	77	18620
2026-01-28 07:49:05.94	50.42	8.21	-53.0	-55.1	6.2	0.00e+00	0	46	104	0	77	18500
2026-01-28 07:49:06.95	50.64	8.24	-53.0	-55.0	6.2	0.00e+00	0	46	104	0	77	18366
2026-01-28 07:49:07.95	50.85	8.28	-53.2	-55.2	6.2	0.00e+00	0	46	104	0	77	18808
2026-01-28 07:49:08.96	51.07	8.31	-53.1	-55.1	6.2	0.00e+00	0	46	104	0	77	18599
2026-01-28 07:49:09.96	51.29	8.35	-53.0	-55.1	6.2	0.00e+00	0	46	104	0	77	18582
2026-01-28 07:49:10.97	51.51	8.38	-53.0	-55.0	6.2	0.00e+00	0	46	104	0	77	18386
2026-01-28 07:49:11.98	51.73	8.41	-53.2	-55.3	6.2	0.00e+00	0	46	104	0	77	18865
2026-01-28 07:49:12.99	51.95	8.45	-53.1	-55.2	6.2	0.00e+00	0	45	104	0	77	18662
2026-01-28 07:49:14.00	52.17	8.48	-53.0	-55.1	6.2	0.00e+00	0	46	104	0	77	18553
2026-01-28 07:49:15.01	52.39	8.51	-53.0	-55.1	6.2	0.00e+00	0	46	104	0	77	18447
2026-01-28 07:49:16.02	52.61	8.54	-53.2	-55.3	6.2	0.00e+00	0	46	104	0	77	18938
2026-01-28 07:49:17.03	52.84	8.58	-53.1	-55.2	6.2	0.00e+00	0	46	104	0	77	18651
2026-01-28 07:49:18.04	53.06	8.61	-53.0	-55.1	6.2	0.00e+00	0	46	104	0	77	18578
2026-01-28 07:49:19.04	53.28	8.64	-53.0	-55.1	6.2	0.00e+00	0	46	104	0	77	18464
2026-01-28 07:49:20.05	53.51	8.67	-53.2	-55.3	6.2	0.00e+00	0	46	104	0	77	18869
2026-01-28 07:49:21.06	53.73	8.70	-53.1	-55.2	6.2	0.00e+00	0	46	104	0	77	18656
2026-01-28 07:49:22.07	53.96	8.73	-53.0	-55.1	6.2	0.00e+00	0	46	104	0	77	18582
2026-01-28 07:49:23.08	54.19	8.76	-53.0	-55.1	6.2	0.00e+00	0	46	104	0	77	18441
2026-01-28 07:49:24.09	54.41	8.79	-53.2	-55.3	6.2	0.00e+00	0	46	104	0	77	18941
2026-01-28 07:49:25.09	54.64	8.82	-53.1	-55.2	6.2	0.00e+00	0	46	104	0	77	18644
2026-01-28 07:49:26.10	54.87	8.85	-53.0	-55.1	6.2	0.00e+00	0	46	104	0	77	18574
2026-01-28 07:49:27.11	55.10	8.88	-53.0	-55.1	6.2	0.00e+00	0	46	104	0	77	18540
2026-01-28 07:49:28.12	55.33	8.91	-53.2	-55.3	6.2	0.00e+00	0	46	104	0	77	18948
2026-01-28 07:49:29.13	55.56	8.94	-53.1	-55.2	6.2	0.00e+00	0	45	104	0	77	18714
2026-01-28 07:49:30.13	55.79	8.96	-53.1	-55.1	6.2	0.00e+00	0	46	104	0	77	18578
2026-01-28 07:49:31.14	56.02	8.99	-53.0	-55.1	6.2	0.00e+00	0	46	104	0	77	18496
2026-01-28 07:49:32.15	56.25	9.02	-53.2	-55.3	6.2	0.00e+00	0	46	104	0	77	18885
2026-01-28 07:49:33.15	56.48	9.05	-53.1	-55.2	6.2	0.00e+00	0	46	104	0	77	18672
2026-01-28 07:49:34.16	56.71	9.07	-53.1	-55.1	6.2	0.00e+00	0	46	104	0	77	18572
2026-01-28 07:49:35.17	56.94	9.10	-53.0	-55.1	6.2	0.00e+00	0	46	104	0	77	18504
2026-01-28 07:49:36.17	57.18	9.13	-53.2	-55.3	6.2	0.00e+00	0	46	104	0	77	18903
2026-01-28 07:49:37.18	57.41	9.15	-53.1	-55.2	6.2	0.00e+00	0	46	104	0	77	18745
2026-01-28 07:49:38.19	57.64	9.18	-53.1	-55.2	6.2	0.00e+00	0	46	104	0	77	18682
2026-01-28 07:49:39.20	57.88	9.20	-53.0	-55.2	6.2	0.00e+00	0	46	104	0	77	18617
2026-01-28 07:49:40.20	58.11	9.23	-53.2	-55.3	6.2	0.00e+00	0	46	104	0	77	18953
2026-01-28 07:49:41.21	58.35	9.25	-53.1	-55.2	6.2	0.00e+00	0	46	104	0	77	18784
2026-01-28 07:49:42.22	58.58	9.28	-53.1	-55.1	6.2	0.00e+00	0	46	104	0	77	18586
2026-01-28 07:49:43.23	58.82	9.30	-53.0	-55.1	6.2	0.00e+00	0	45	104	0	77	18535
2026-01-28 07:49:44.24	59.06	9.32	-53.2	-55.3	6.2	0.00e+00	0	46	104	0	77	18953
2026-01-28 07:49:45.25	59.30	9.35	-53.1	-55.2	6.2	0.00e+00	0	46	104	0	77	18705
2026-01-28 07:49:46.25	59.53	9.37	-53.0	-55.2	6.2	0.00e+00	0	46	104	0	77	18686
2026-01-28 07:49:47.26	59.77	9.39	-53.0	-55.2	6.2	0.00e+00	0	46	104	0	77	18608
2026-01-28 07:49:48.27	60.01	9.42	-53.2	-55.3	6.2	0.00e+00	0	46	104	0	77	18956
2026-01-28 07:49:49.28	60.25	9.44	-53.1	-55.3	6.2	0.00e+00	0	46	104	0	77	18857
2026-01-28 07:49:50.29	60.49	9.46	-53.1	-55.2	6.2	0.00e+00	0	46	104	0	77	18699
2026-01-28 07:49:51.29	60.73	9.48	-53.1	-55.2	6.2	0.00e+00	0	46	104	0	77	18663
2026-01-28 07:49:52.30	60.97	9.50	-53.3	-55.4	6.2	0.00e+00	0	46	104	0	77	19058
2026-01-28 07:49:53.31	61.21	9.52	-53.2	-55.3	6.2	0.00e+00	0	46	104	0	77	18879
2026-01-28 07:49:54.32	61.45	9.54	-53.1	-55.1	6.2	0.00e+00	0	46	104	0	77	18511
2026-01-28 07:49:55.32	61.69	9.56	-53.1	-55.1	6.2	0.00e+00	0	46	104	0	77	18594
2026-01-28 07:49:56.34	61.94	9.58	-53.2	-55.3	6.2	0.00e+00	0	46	104	0	77	18970
2026-01-28 07:49:57.35	62.18	9.60	-53.1	-55.3	6.2	0.00e+00	0	46	104	0	77	18819
2026-01-28 07:49:58.36	62.42	9.62	-53.1	-55.2	6.2	0.00e+00	0	46	104	0	77	18714
2026-01-28 07:49:59.36	62.67	9.63	-53.1	-55.2	6.2	0.00e+00	0	46	104	0	77	18696
2026-01-28 07:50:00.37	62.91	9.65	-53.2	-55.3	6.2	0.00e+00	0	46	104	0	77	19029
2026-01-28 07:50:01.38	63.15	9.67	-53.2	-55.2	6.2	0.00e+00	0	46	104	0	77	18704
2026-01-28 07:50:02.39	63.40	9.69	-53.1	-55.2	6.2	0.00e+00	0	46	104	0	77	18726
2026-01-28 07:50:03.39	63.64	9.70	-53.1	-55.2	6.2	0.00e+00	0	46	104	0	77	18667
2026-01-28 07:50:04.41	63.89	9.72	-53.2	-55.4	6.2	0.00e+00	0	46	104	0	77	19061
2026-01-28 07:50:05.41	64.13	9.74	-53.2	-55.3	6.2	0.00e+00	0	46	104	0	77	18827
2026-01-28 07:50:06.42	64.38	9.75	-53.1	-55.2	6.2	0.00e+00	0	46	104	0	77	18753
2026-01-28 07:50:07.43	64.62	9.77	-53.1	-55.2	6.2	0.00e+00	0	46	104	0	77	18716
2026-01-28 07:50:08.44	64.87	9.78	-53.3	-55.4	6.2	0.00e+00	0	46	104	0	77	19060
2026-01-28 07:50:09.45	65.12	9.80	-53.2	-55.3	6.2	0.00e+00	0	46	104	0	77	18947
2026-01-28 07:50:10.45	65.36	9.81	-53.2	-55.3	6.2	0.00e+00	0	46	104	0	77	18856
2026-01-28 07:50:11.47	65.61	9.82	-53.2	-55.2	6.2	0.00e+00	0	46	104	0	77	18795
2026-01-28 07:50:12.47	65.86	9.84	-53.3	-55.3	6.2	0.00e+00	0	46	104	0	77	19029
2026-01-28 07:50:13.48	66.11	9.85	-53.2	-55.3	6.2	0.00e+00	0	46	104	0	77	18926
2026-01-28 07:50:14.49	66.35	9.86	-53.2	-55.3	6.2	0.00e+00	0	46	104	0	77	18837
2026-01-28 07:50:15.50	66.60	9.87	-53.2	-55.3	6.2	0.00e+00	0	46	104	0	77	18830
2026-01-28 07:50:16.51	66.85	9.88	-53.3	-55.4	6.2	0.00e+00	0	46	104	0	77	19152
2026-01-28 07:50:17.51	67.10	9.89	-53.3	-55.3	6.2	0.00e+00	0	45	104	0	77	18989
2026-01-28 07:50:18.52	67.35	9.91	-53.2	-55.3	6.2	0.00e+00	0	45	104	0	77	18971
2026-01-28 07:50:19.53	67.60	9.92	-53.2	-55.3	6.2	0.00e+00	0	46	104	0	77	18938
2026-01-28 07:50:20.54	67.85	9.93	-53.3	-55.4	6.2	0.00e+00	0	46	104	0	77	19130
2026-01-28 07:50:21.55	68.10	9.93	-53.1	-55.3	6.2	0.00e+00	0	46	104	0	77	18979
2026-01-28 07:50:22.56	68.35	9.94	-53.2	-55.3	6.2	0.00e+00	0	46	104	0	77	18895
2026-01-28 07:50:23.57	68.60	9.95	-53.2	-55.4	6.2	0.00e+00	0	46	104	0	77	19043
2026-01-28 07:50:24.58	68.85	9.96	-53.3	-55.4	6.2	0.00e+00	0	46	104	0	77	19104
2026-01-28 07:50:25.58	69.09	9.97	-53.2	-55.3	6.2	0.00e+00	0	46	104	0	77	19025
2026-01-28 07:50:26.59	69.34	9.98	-53.2	-55.3	6.2	0.00e+00	0	46	104	0	77	18882
2026-01-28 07:50:27.60	69.59	9.98	-53.3	-55.3	6.2	0.00e+00	0	45	104	0	77	19004
2026-01-28 07:50:28.61	69.85	9.99	-53.2	-55.4	6.2	0.00e+00	0	46	104	0	77	19062
2026-01-28 07:50:29.62	70.10	9.99	-53.2	-55.3	6.2	0.00e+00	0	46	104	0	77	18984
2026-01-28 07:50:30.62	70.35	10.00	-53.2	-55.3	6.2	0.00e+00	0	46	104	0	77	18891
2026-01-28 07:50:31.63	70.60	10.01	-53.3	-55.4	6.2	0.00e+00	0	46	104	0	77	19080
2026-01-28 07:50:32.64	70.85	10.01	-53.3	-55.4	6.2	0.00e+00	0	46	104	0	77	19177
2026-01-28 07:50:33.65	71.10	10.01	-53.2	-55.3	6.2	0.00e+00	0	46	104	0	77	19009
2026-01-28 07:50:34.65	71.35	10.02	-53.2	-55.3	6.2	0.00e+00	0	46	104	0	77	18922
2026-01-28 07:50:35.67	71.60	10.02	-53.3	-55.4	6.2	0.00e+00	0	46	104	0	77	19228
2026-01-28 07:50:36.67	71.85	10.03	-53.3	-55.4	6.2	0.00e+00	0	46	104	0	77	19099
2026-01-28 07:50:37.68	72.10	10.03	-53.3	-55.3	6.2	0.00e+00	0	46	104	0	77	18970
2026-01-28 07:50:38.69	72.36	10.03	-53.2	-55.3	6.2	0.00e+00	0	46	104	0	77	18947
2026-01-28 07:50:39.70	72.61	10.03	-53.4	-55.4	6.2	0.00e+00	0	46	104	0	77	19247
2026-01-28 07:50:40.71	72.86	10.03	-53.3	-55.4	6.2	0.00e+00	0	46	104	0	77	19252
2026-01-28 07:50:41.72	73.11	10.03	-53.3	-55.4	6.2	0.00e+00	0	46	104	0	77	19055
2026-01-28 07:50:42.73	73.36	10.03	-53.2	-55.3	6.2	0.00e+00	0	46	104	0	77	18993
2026-01-28 07:50:43.74	73.62	10.03	-53.4	-55.4	6.2	0.00e+00	0	46	104	0	77	19252
2026-01-28 07:50:44.75	73.87	10.03	-53.3	-55.4	6.2	0.00e+00	0	45	104	0	77	19193
2026-01-28 07:50:45.75	74.12	10.03	-53.3	-55.4	6.2	0.00e+00	0	46	104	0	77	19072
2026-01-28 07:50:46.76	74.37	10.03	-53.2	-55.3	6.2	0.00e+00	0	46	104	0	77	18907
2026-01-28 07:50:47.77	74.62	10.03	-53.4	-55.5	6.2	0.00e+00	0	46	104	0	77	19277
2026-01-28 07:50:48.78	74.87	10.03	-53.2	-55.4	6.2	0.00e+00	0	46	104	0	77	19077
2026-01-28 07:50:49.79	75.12	10.03	-53.3	-55.3	6.2	0.00e+00	0	46	104	0	77	18970
2026-01-28 07:50:50.79	75.37	10.02	-53.2	-55.3	6.2	0.00e+00	0	46	104	0	77	18911
2026-01-28 07:50:51.80	75.63	10.02	-53.3	-55.5	6.2	0.00e+00	0	46	104	0	77	19339
2026-01-28 07:50:52.81	75.88	10.02	-53.3	-55.4	6.2	0.00e+00	0	46	104	0	77	19085
2026-01-28 07:50:53.82	76.13	10.01	-53.2	-55.3	6.2	0.00e+00	0	46	104	0	77	19014
2026-01-28 07:50:54.83	76.38	10.01	-53.2	-55.3	6.2	0.00e+00	0	46	104	0	77	18931
2026-01-28 07:50:55.84	76.63	10.00	-53.4	-55.4	6.2	0.00e+00	0	46	104	0	77	19096
2026-01-28 07:50:56.85	76.88	10.00	-53.3	-55.4	6.2	0.00e+00	0	46	104	0	77	19118
2026-01-28 07:50:57.85	77.13	9.99	-53.3	-55.4	6.2	0.00e+00	0	46	104	0	77	19037
2026-01-28 07:50:58.86	77.38	9.98	-53.2	-55.3	6.2	0.00e+00	0	46	104	0	77	18973
2026-01-28 07:50:59.87	77.63	9.98	-53.4	-55.5	6.2	0.00e+00	0	46	104	0	77	19344
2026-01-28 07:51:00.87	77.88	9.97	-53.3	-55.4	6.2	0.00e+00	0	46	104	0	77	19168
2026-01-28 07:51:01.88	78.13	9.96	-53.2	-55.4	6.2	0.00e+00	0	46	104	0	77	19057
2026-01-28 07:51:02.89	78.38	9.96	-53.2	-55.3	6.2	0.00e+00	0	46	104	0	77	18848
2026-01-28 07:51:03.90	78.63	9.95	-53.4	-55.5	6.2	0.00e+00	0	46	104	0	77	19336
2026-01-28 07:51:04.91	78.88	9.94	-53.3	-55.4	6.2	0.00e+00	0	46	104	0	77	19133
2026-01-28 07:51:05.91	79.13	9.93	-53.3	-55.3	6.2	0.00e+00	0	46	104	0	77	19029
2026-01-28 07:51:06.92	79.38	9.92	-53.2	-55.3	6.2	0.00e+00	0	46	104	0	77	18896
2026-01-28 07:51:07.93	79.63	9.91	-53.4	-55.5	6.2	0.00e+00	0	46	104	0	77	19365
2026-01-28 07:51:08.94	79.88	9.90	-53.3	-55.4	6.2	0.00e+00	0	46	104	0	77	19121
2026-01-28 07:51:09.95	80.13	9.89	-53.2	-55.3	6.2	0.00e+00	0	46	104	0	77	18972
2026-01-28 07:51:10.95	80.38	9.88	-53.2	-55.3	6.2	0.00e+00	0	46	104	0	77	18929
2026-01-28 07:51:11.96	80.63	9.87	-53.4	-55.5	6.2	0.00e+00	0	46	104	0	77	19312
2026-01-28 07:51:12.97	80.87	9.85	-53.3	-55.4	6.2	0.00e+00	0	46	104	0	77	19101
2026-01-28 07:51:13.98	81.12	9.84	-53.2	-55.3	6.2	0.00e+00	0	46	104	0	77	18986
2026-01-28 07:51:14.99	81.37	9.83	-53.2	-55.3	6.2	0.00e+00	0	46	104	0	77	18928
2026-01-28 07:51:15.99	81.62	9.81	-53.4	-55.5	6.2	0.00e+00	0	46	104	0	77	19259
2026-01-28 07:51:17.00	81.86	9.80	-53.3	-55.4	6.2	0.00e+00	0	46	104	0	77	19087
2026-01-28 07:51:18.01	82.11	9.79	-53.3	-55.4	6.2	0.00e+00	0	46	104	0	77	19044
2026-01-28 07:51:19.02	82.36	9.77	-53.2	-55.3	6.2	0.00e+00	0	46	104	0	77	18896
2026-01-28 07:51:20.02	82.60	9.76	-53.4	-55.5	6.2	0.00e+00	0	46	104	0	77	19306
2026-01-28 07:51:21.03	82.85	9.74	-53.3	-55.3	6.2	0.00e+00	0	46	104	0	77	19019
2026-01-28 07:51:22.04	83.09	9.73	-53.2	-55.3	6.2	0.00e+00	0	45	104	0	77	19020
2026-01-28 07:51:23.04	83.34	9.71	-53.2	-55.3	6.2	0.00e+00	0	46	104	0	77	18888
2026-01-28 07:51:24.05	83.58	9.69	-53.4	-55.4	6.2	0.00e+00	0	46	104	0	77	19209
2026-01-28 07:51:25.06	83.83	9.68	-53.3	-55.4	6.2	0.00e+00	0	46	104	0	77	19037
2026-01-28 07:51:26.07	84.07	9.66	-53.2	-55.3	6.2	0.00e+00	0	46	104	0	77	18941
2026-01-28 07:51:27.08	84.32	9.64	-53.2	-55.3	6.2	0.00e+00	0	46	104	0	77	18847
2026-01-28 07:51:28.09	84.56	9.62	-53.3	-55.4	6.2	0.00e+00	0	46	104	0	77	19209
2026-01-28 07:51:29.10	84.81	9.61	-53.2	-55.3	6.2	0.00e+00	0	46	104	0	77	18986
2026-01-28 07:51:30.10	85.05	9.59	-53.2	-55.3	6.2	0.00e+00	0	46	104	0	77	18936
2026-01-28 07:51:31.11	85.29	9.57	-53.2	-55.3	6.2	0.00e+00	0	46	104	0	77	18873
2026-01-28 07:51:32.12	85.53	9.55	-53.3	-55.4	6.2	0.00e+00	0	46	104	0	77	19255
2026-01-28 07:51:33.12	85.77	9.53	-53.3	-55.4	6.2	0.00e+00	0	46	104	0	77	19111
2026-01-28 07:51:34.13	86.01	9.51	-53.2	-55.3	6.2	0.00e+00	0	46	104	0	77	18934
2026-01-28 07:51:35.14	86.26	9.49	-53.2	-55.3	6.2	0.00e+00	0	46	104	0	77	18877
2026-01-28 07:51:36.15	86.50	9.47	-53.3	-55.4	6.2	0.00e+00	0	45	104	0	77	19156
2026-01-28 07:51:37.16	86.74	9.44	-53.2	-55.3	6.2	0.00e+00	0	46	104	0	77	18955
2026-01-28 07:51:38.17	86.98	9.42	-53.2	-55.3	6.2	0.00e+00	0	46	104	0	77	18908
2026-01-28 07:51:39.17	87.22	9.40	-53.1	-55.2	6.2	0.00e+00	0	46	104	0	77	18790
2026-01-28 07:51:40.18	87.46	9.38	-53.3	-55.4	6.2	0.00e+00	0	46	104	0	77	19180
2026-01-28 07:51:41.19	87.69	9.36	-53.2	-55.3	6.2	0.00e+00	0	46	104	0	77	18945
2026-01-28 07:51:42.19	87.93	9.33	-53.2	-55.3	6.2	0.00e+00	0	46	104	0	77	18910
2026-01-28 07:51:43.20	88.17	9.31	-53.1	-55.2	6.2	0.00e+00	0	46	104	0	77	18748
2026-01-28 07:51:44.21	88.41	9.29	-53.3	-55.4	6.2	0.00e+00	0	46	104	0	77	19186
2026-01-28 07:51:45.22	88.64	9.26	-53.2	-55.3	6.2	0.00e+00	0	46	104	0	77	18927
2026-01-28 07:51:46.22	88.88	9.24	-53.2	-55.3	6.2	0.00e+00	0	46	104	0	77	18857
2026-01-28 07:51:47.23	89.11	9.21	-53.1	-55.2	6.2	0.00e+00	0	46	104	0	77	18795
2026-01-28 07:51:48.24	89.35	9.19	-53.3	-55.4	6.2	0.00e+00	0	46	104	0	77	19151
2026-01-28 07:51:49.25	89.59	9.16	-53.2	-55.3	6.2	0.00e+00	0	46	104	0	77	18952
2026-01-28 07:51:50.26	89.82	9.14	-53.2	-55.3	6.2	0.00e+00	0	46	104	0	77	18945
2026-01-28 07:51:51.27	90.05	9.11	-53.2	-55.2	6.2	0.00e+00	0	46	104	0	77	18764
2026-01-28 07:51:52.27	90.29	9.08	-53.3	-55.4	6.2	0.00e+00	0	46	104	0	77	19066
2026-01-28 07:51:53.28	90.52	9.06	-53.2	-55.3	6.2	0.00e+00	0	46	104	0	77	18990
2026-01-28 07:51:54.29	90.75	9.03	-53.2	-55.3	6.2	0.00e+00	0	46	104	0	77	18835
2026-01-28 07:51:55.29	90.98	9.00	-53.1	-55.2	6.2	0.00e+00	0	46	104	0	77	18798
2026-01-28 07:51:56.30	91.21	8.97	-53.3	-55.4	6.2	0.00e+00	0	46	104	0	77	19061
2026-01-28 07:51:57.31	91.45	8.95	-53.2	-55.3	6.2	0.00e+00	0	46	104	0	77	18984
2026-01-28 07:51:58.32	91.68	8.92	-53.2	-55.3	6.2	0.00e+00	0	46	104	0	77	18920
2026-01-28 07:51:59.33	91.91	8.89	-53.2	-55.2	6.2	0.00e+00	0	46	104	0	77	18809
2026-01-28 07:52:00.33	92.13	8.86	-53.3	-55.3	6.2	0.00e+00	0	46	104	0	77	19023
2026-01-28 07:52:01.34	92.36	8.83	-53.2	-55.3	6.2	0.00e+00	0	46	104	0	77	18978
2026-01-28 07:52:02.35	92.59	8.80	-53.2	-55.3	6.2	0.00e+00	0	46	104	0	77	18921
2026-01-28 07:52:03.36	92.82	8.77	-53.2	-55.3	6.2	0.00e+00	0	46	104	0	77	18915
2026-01-28 07:52:04.37	93.05	8.74	-53.3	-55.4	6.2	0.00e+00	0	46	104	0	77	19190
2026-01-28 07:52:05.38	93.27	8.71	-53.3	-55.4	6.2	0.00e+00	0	46	104	0	77	19048
2026-01-28 07:52:06.39	93.50	8.68	-53.2	-55.3	6.2	0.00e+00	0	46	104	0	77	18961
2026-01-28 07:52:07.40	93.73	8.65	-53.2	-55.3	6.2	0.00e+00	0	46	104	0	77	18926
2026-01-28 07:52:08.40	93.95	8.62	-53.3	-55.4	6.2	0.00e+00	0	46	104	0	77	19179
2026-01-28 07:52:09.41	94.17	8.58	-53.2	-55.4	6.2	0.00e+00	0	46	104	0	77	19041
2026-01-28 07:52:10.42	94.40	8.55	-53.2	-55.3	6.2	0.00e+00	0	46	104	0	77	18980
2026-01-28 07:52:11.43	94.62	8.52	-53.2	-55.3	6.2	0.00e+00	0	46	104	0	77	18934
2026-01-28 07:52:12.43	94.84	8.49	-53.3	-55.4	6.2	0.00e+00	0	46	104	0	77	19190
2026-01-28 07:52:13.44	95.07	8.45	-53.3	-55.4	6.2	0.00e+00	0	46	104	0	77	19087
2026-01-28 07:52:14.45	95.29	8.42	-53.2	-55.3	6.2	0.00e+00	0	46	104	0	77	18844
2026-01-28 07:52:15.46	95.51	8.39	-53.3	-55.4	6.2	0.00e+00	0	46	104	0	77	19044
2026-01-28 07:52:16.47	95.73	8.35	-53.3	-55.4	6.2	0.00e+00	0	46	104	0	77	19117
2026-01-28 07:52:17.48	95.95	8.32	-53.3	-55.3	6.2	0.00e+00	0	46	104	0	77	19007
2026-01-28 07:52:18.48	96.17	8.29	-53.2	-55.3	6.2	0.00e+00	0	46	104	0	77	18874
2026-01-28 07:52:19.49	96.39	8.25	-53.2	-55.3	6.2	0.00e+00	0	46	104	0	77	18992
2026-01-28 07:52:20.50	96.60	8.22	-53.3	-55.4	6.2	0.00e+00	0	46	104	0	77	19121
2026-01-28 07:52:21.51	96.82	8.18	-53.2	-55.3	6.2	0.00e+00	0	46	104	0	77	18991
2026-01-28 07:52:22.51	97.04	8.15	-53.2	-55.3	6.2	0.00e+00	0	46	104	0	77	18878
2026-01-28 07:52:23.52	97.25	8.11	-53.2	-55.4	6.2	0.00e+00	0	46	104	0	77	19042
2026-01-28 07:52:24.53	97.47	8.08	-53.3	-55.4	6.2	0.00e+00	0	46	104	0	77	19188
2026-01-28 07:52:25.54	97.68	8.04	-53.2	-55.3	6.2	0.00e+00	0	46	104	0	77	18951
2026-01-28 07:52:26.55	97.90	8.01	-53.2	-55.2	6.2	0.00e+00	0	46	104	0	77	18764
2026-01-28 07:52:27.55	98.11	7.97	-53.3	-55.4	6.2	0.00e+00	0	46	104	0	77	19069
2026-01-28 07:52:28.56	98.32	7.93	-53.3	-55.4	6.2	0.00e+00	0	46	104	0	77	19088
2026-01-28 07:52:29.57	98.53	7.90	-53.2	-55.3	6.2	0.00e+00	0	46	104	0	77	18970
2026-01-28 07:52:30.58	98.75	7.86	-53.2	-55.3	6.2	0.00e+00	0	46	104	0	77	18851
2026-01-28 07:52:31.59	98.96	7.82	-53.3	-55.4	6.2	0.00e+00	0	46	104	0	77	19114
2026-01-28 07:52:32.59	99.17	7.78	-53.3	-55.4	6.2	0.00e+00	0	46	104	0	77	19054
2026-01-28 07:52:33.60	99.38	7.75	-53.2	-55.3	6.2	0.00e+00	0	46	104	0	77	18973
2026-01-28 07:52:34.61	99.59	7.71	-53.2	-55.3	6.2	0.00e+00	0	46	104	0	77	18864
2026-01-28 07:52:35.62	99.79	7.67	-53.3	-55.4	6.2	0.00e+00	0	46	104	0	77	19147
2026-01-28 07:52:36.63	100.00	7.63	-53.3	-55.3	6.2	0.00e+00	0	46	104	0	77	19030
2026-01-28 07:52:37.63	100.21	7.59	-53.2	-55.3	6.2	0.00e+00	0	46	104	0	77	19004
2026-01-28 07:52:38.64	100.42	7.56	-53.2	-55.3	6.2	0.00e+00	0	46	104	0	77	18819
2026-01-28 07:52:39.65	100.62	7.52	-53.3	-55.4	6.2	0.00e+00	0	46	104	0	77	19202
2026-01-28 07:52:40.66	100.83	7.48	-53.3	-55.3	6.2	0.00e+00	0	46	104	0	77	19030
2026-01-28 07:52:41.67	101.03	7.44	-53.2	-55.3	6.2	0.00e+00	0	46	104	0	77	18956
2026-01-28 07:52:42.67	101.23	7.40	-53.2	-55.2	6.2	0.00e+00	0	46	104	0	77	18775
2026-01-28 07:52:43.68	101.44	7.36	-53.3	-55.4	6.2	0.00e+00	0	46	104	0	77	19128
2026-01-28 07:52:44.69	101.64	7.32	-53.2	-55.3	6.2	0.00e+00	0	46	104	0	77	18999
2026-01-28 07:52:45.70	101.84	7.28	-53.2	-55.4	6.2	0.00e+00	0	46	104	0	77	19058
2026-01-28 07:52:46.71	102.04	7.24	-53.1	-55.3	6.2	0.00e+00	0	46	104	0	77	18840
2026-01-28 07:52:47.72	102.24	7.20	-53.3	-55.4	6.2	0.00e+00	0	46	104	0	77	19129
2026-01-28 07:52:48.73	102.45	7.16	-53.2	-55.3	6.2	0.00e+00	0	46	104	0	77	19011
2026-01-28 07:52:49.73	102.64	7.12	-53.2	-55.3	6.2	0.00e+00	0	46	104	0	77	19002
2026-01-28 07:52:50.74	102.84	7.08	-53.1	-55.2	6.2	0.00e+00	0	46	104	0	77	18726
2026-01-28 07:52:51.75	103.04	7.04	-53.3	-55.4	6.2	0.00e+00	0	46	104	0	77	19145
2026-01-28 07:52:52.76	103.24	6.99	-53.2	-55.3	6.2	0.00e+00	0	46	104	0	77	18895
2026-01-28 07:52:53.76	103.43	6.95	-53.2	-55.3	6.2	0.00e+00	0	46	104	0	77	18932
2026-01-28 07:52:54.77	103.63	6.91	-53.1	-55.2	6.2	0.00e+00	0	46	104	0	77	18708
2026-01-28 07:52:55.78	103.82	6.87	-53.3	-55.4	6.2	0.00e+00	0	46	104	0	77	19125
2026-01-28 07:52:56.79	104.02	6.83	-53.2	-55.3	6.2	0.00e+00	0	46	104	0	77	18850
2026-01-28 07:52:57.80	104.21	6.79	-53.2	-55.3	6.2	0.00e+00	0	46	104	0	77	18982
2026-01-28 07:52:58.80	104.41	6.74	-53.1	-55.2	6.2	0.00e+00	0	46	104	0	77	18680
2026-01-28 07:52:59.81	104.60	6.70	-53.3	-55.4	6.2	0.00e+00	0	46	104	0	77	19082
2026-01-28 07:53:00.82	104.79	6.66	-53.1	-55.2	6.2	0.00e+00	0	46	104	0	77	18787
2026-01-28 07:53:01.82	104.98	6.62	-53.2	-55.3	6.2	0.00e+00	0	46	104	0	77	18954
2026-01-28 07:53:02.83	105.17	6.57	-53.1	-55.2	6.2	0.00e+00	0	46	104	0	77	18615
2026-01-28 07:53:03.84	105.36	6.53	-53.3	-55.4	6.2	0.00e+00	0	46	104	0	77	19085
2026-01-28 07:53:04.85	105.55	6.49	-53.1	-55.2	6.2	0.00e+00	0	46	104	0	77	18692
2026-01-28 07:53:05.86	105.74	6.45	-53.2	-55.3	6.2	0.00e+00	0	46	104	0	77	18900
2026-01-28 07:53:06.87	105.93	6.40	-53.0	-55.1	6.2	0.00e+00	0	46	104	0	77	18562
2026-01-28 07:53:07.88	106.12	6.36	-53.3	-55.3	6.2	0.00e+00	0	46	104	0	77	19024
2026-01-28 07:53:08.89	106.30	6.32	-53.1	-55.2	6.2	0.00e+00	0	46	104	0	77	18641
2026-01-28 07:53:09.90	106.49	6.27	-53.2	-55.3	6.2	0.00e+00	0	46	104	0	77	18920
2026-01-28 07:53:10.91	106.67	6.23	-53.1	-55.2	6.2	0.00e+00	0	46	104	0	77	18610
2026-01-28 07:53:11.92	106.86	6.18	-53.2	-55.3	6.2	0.00e+00	0	46	104	0	77	19002
2026-01-28 07:53:12.92	107.04	6.14	-53.1	-55.2	6.2	0.00e+00	0	46	104	0	77	18673
2026-01-28 07:53:13.93	107.23	6.10	-53.2	-55.3	6.2	0.00e+00	0	46	104	0	77	18958
2026-01-28 07:53:14.94	107.41	6.05	-53.0	-55.1	6.2	0.00e+00	0	46	104	0	77	18543
2026-01-28 07:53:15.95	107.59	6.01	-53.2	-55.3	6.2	0.00e+00	0	46	104	0	77	18993
2026-01-28 07:53:16.96	107.77	5.96	-53.1	-55.1	6.2	0.00e+00	0	46	104	0	77	18587
2026-01-28 07:53:17.96	107.95	5.92	-53.2	-55.3	6.2	0.00e+00	0	46	104	0	77	19001
2026-01-28 07:53:18.97	108.13	5.87	-53.1	-55.2	6.2	0.00e+00	0	46	104	0	77	18657
2026-01-28 07:53:19.98	108.31	5.83	-53.2	-55.3	6.2	0.00e+00	0	46	104	0	77	18957
2026-01-28 07:53:20.99	108.49	5.78	-53.1	-55.2	6.2	0.00e+00	0	46	104	0	77	18643
2026-01-28 07:53:21.99	108.67	5.74	-53.3	-55.4	6.2	0.00e+00	0	46	104	0	77	19154
2026-01-28 07:53:23.00	108.85	5.69	-53.1	-55.2	6.2	0.00e+00	0	46	104	0	77	18713
2026-01-28 07:53:24.01	109.02	5.65	-53.2	-55.3	6.2	0.00e+00	0	46	104	0	77	18948
2026-01-28 07:53:25.02	109.20	5.60	-53.0	-55.1	6.2	0.00e+00	0	46	104	0	77	18511
2026-01-28 07:53:26.03	109.37	5.56	-53.3	-55.3	6.2	0.00e+00	0	46	104	0	77	18994
2026-01-28 07:53:27.04	109.55	5.51	-53.1	-55.1	6.2	0.00e+00	0	46	104	0	77	18601
2026-01-28 07:53:28.05	109.72	5.47	-53.2	-55.3	6.2	0.00e+00	0	46	104	0	77	18871
2026-01-28 07:53:29.06	109.90	5.42	-53.0	-55.1	6.2	0.00e+00	0	46	104	0	77	18442
2026-01-28 07:53:30.06	110.07	5.38	-53.2	-55.3	6.2	0.00e+00	0	46	104	0	77	18838
2026-01-28 07:53:31.07	110.24	5.33	-53.0	-55.1	6.2	0.00e+00	0	46	104	0	77	18582
2026-01-28 07:53:32.08	110.41	5.28	-53.1	-55.2	6.2	0.00e+00	0	46	104	0	77	18784
2026-01-28 07:53:33.09	110.58	5.24	-53.1	-55.2	6.2	0.00e+00	0	46	104	0	77	18642
2026-01-28 07:53:34.10	110.75	5.19	-53.2	-55.3	6.2	0.00e+00	0	46	104	0	77	18894
2026-01-28 07:53:35.11	110.92	5.15	-53.0	-55.1	6.2	0.00e+00	0	46	104	0	77	18576
2026-01-28 07:53:36.11	111.09	5.10	-53.2	-55.3	6.2	0.00e+00	0	46	104	0	77	18907
2026-01-28 07:53:37.12	111.26	5.05	-53.2	-55.3	6.2	0.00e+00	0	46	104	0	77	18842
2026-01-28 07:53:38.13	111.43	5.01	-53.3	-55.4	6.2	0.00e+00	0	45	104	0	77	19085
2026-01-28 07:53:39.14	111.60	4.96	-53.5	-55.6	6.2	0.00e+00	0	46	104	0	77	19494
2026-01-28 07:53:40.15	111.76	4.91	-53.8	-55.9	6.2	0.00e+00	0	46	104	0	78	19075
2026-01-28 07:53:41.16	111.93	4.87	-53.9	-56.0	6.2	0.00e+00	0	46	104	0	78	19339
2026-01-28 07:53:42.17	112.09	4.82	-54.0	-56.1	6.2	0.00e+00	0	46	104	0	78	19514
2026-01-28 07:53:43.17	112.26	4.77	-54.1	-56.2	6.2	0.00e+00	0	46	104	0	78	19740
2026-01-28 07:53:44.18	112.42	4.73	-54.2	-56.2	6.2	0.00e+00	0	46	104	0	78	19924
2026-01-28 07:53:45.19	112.59	4.68	-54.2	-56.3	6.2	0.00e+00	0	46	104	0	78	19968
2026-01-28 07:53:46.20	112.75	4.63	-54.3	-56.4	6.2	0.00e+00	0	46	104	0	79	19088
2026-01-28 07:53:47.21	112.91	4.59	-54.3	-56.4	6.2	0.00e+00	0	46	104	0	79	19145
2026-01-28 07:53:48.21	113.07	4.54	-54.4	-56.4	6.2	0.00e+00	0	46	104	0	79	19209
2026-01-28 07:53:49.22	113.23	4.49	-54.4	-56.5	6.2	0.00e+00	0	46	104	0	79	19384
2026-01-28 07:53:50.23	113.39	4.45	-54.4	-56.6	6.2	0.00e+00	0	46	104	0	79	19513
2026-01-28 07:53:51.24	113.55	4.40	-54.5	-56.6	6.2	0.00e+00	0	46	104	0	79	19522
2026-01-28 07:53:52.25	113.71	4.35	-54.5	-56.6	6.2	0.00e+00	0	46	104	0	79	19594
2026-01-28 07:53:53.25	113.87	4.30	-54.5	-56.6	6.2	0.00e+00	0	46	104	0	79	19676
2026-01-28 07:53:54.26	114.03	4.26	-54.6	-56.7	6.2	0.00e+00	0	46	104	0	79	19724
2026-01-28 07:53:55.27	114.18	4.21	-54.6	-56.7	6.2	0.00e+00	0	46	104	0	79	19818
2026-01-28 07:53:56.28	114.34	4.16	-54.6	-56.7	6.2	0.00e+00	0	46	104	0	79	19899
2026-01-28 07:53:57.28	114.49	4.12	-54.7	-56.7	6.2	0.00e+00	0	46	104	0	79	19885
2026-01-28 07:53:58.29	114.65	4.07	-54.7	-56.7	6.2	0.00e+00	0	46	104	0	79	19923
2026-01-28 07:53:59.30	114.81	4.02	-54.7	-56.7	6.2	0.00e+00	0	46	104	0	79	19885
2026-01-28 07:54:00.31	114.96	3.97	-54.7	-56.8	6.2	0.00e+00	0	46	104	0	79	20000
2026-01-28 07:54:01.32	115.11	3.93	-54.7	-56.8	6.2	0.00e+00	0	46	104	0	79	19982
2026-01-28 07:54:02.33	115.27	3.88	-54.7	-56.8	6.2	0.00e+00	0	46	104	0	79	20004
2026-01-28 07:54:03.33	115.42	3.83	-54.7	-56.8	6.2	0.00e+00	0	46	104	0	79	20087
2026-01-28 07:54:04.34	115.57	3.78	-54.7	-56.7	6.2	0.00e+00	0	46	104	0	80	18811
2026-01-28 07:54:05.35	115.72	3.73	-54.7	-56.8	6.2	0.00e+00	0	46	104	0	80	18840
2026-01-28 07:54:06.36	115.87	3.69	-54.7	-56.7	6.2	0.00e+00	0	46	104	0	80	18795
2026-01-28 07:54:07.37	116.02	3.64	-54.7	-56.7	6.2	0.00e+00	0	46	104	0	80	18769
2026-01-28 07:54:08.37	116.17	3.59	-54.7	-56.8	6.2	0.00e+00	0	46	104	0	80	18819
2026-01-28 07:54:09.38	116.32	3.54	-54.7	-56.7	6.2	0.00e+00	0	46	104	0	80	18783
2026-01-28 07:54:10.39	116.47	3.50	-54.7	-56.8	6.2	0.00e+00	0	46	104	0	80	18915
2026-01-28 07:54:11.40	116.61	3.45	-54.7	-56.8	6.2	0.00e+00	0	46	104	0	80	18940
2026-01-28 07:54:12.41	116.76	3.40	-54.7	-56.8	6.2	0.00e+00	0	46	104	0	80	18949
2026-01-28 07:54:13.41	116.91	3.35	-54.8	-56.8	6.2	0.00e+00	0	46	104	0	80	18990
2026-01-28 07:54:14.42	117.05	3.30	-54.8	-56.8	6.2	0.00e+00	0	46	104	0	80	19002
2026-01-28 07:54:15.43	117.20	3.26	-54.8	-56.9	6.2	0.00e+00	0	46	104	0	80	19106
2026-01-28 07:54:16.44	117.34	3.21	-54.8	-56.8	6.2	0.00e+00	0	46	104	0	80	19030
2026-01-28 07:54:17.45	117.49	3.16	-54.8	-56.9	6.2	0.00e+00	0	46	104	0	80	19130
2026-01-28 07:54:18.46	117.63	3.11	-54.8	-56.9	6.2	0.00e+00	0	46	104	0	80	19047
2026-01-28 07:54:19.47	117.78	3.06	-54.8	-56.8	6.2	0.00e+00	0	46	104	0	80	19012
2026-01-28 07:54:20.47	117.92	3.02	-54.7	-56.8	6.2	0.00e+00	0	46	104	0	80	19000
2026-01-28 07:54:21.48	118.06	2.97	-54.7	-56.8	6.2	0.00e+00	0	46	104	0	80	19005
2026-01-28 07:54:22.49	118.20	2.92	-54.7	-56.8	6.2	0.00e+00	0	46	104	0	80	18897
2026-01-28 07:54:23.50	118.34	2.87	-54.7	-56.8	6.2	0.00e+00	0	46	104	0	80	18900
2026-01-28 07:54:24.50	118.48	2.82	-54.7	-56.7	6.2	0.00e+00	0	46	104	0	80	18802
2026-01-28 07:54:25.51	118.62	2.78	-54.7	-56.7	6.2	0.00e+00	0	46	104	0	80	18803
2026-01-28 07:54:26.52	118.76	2.73	-54.6	-56.7	6.2	0.00e+00	0	46	104	0	80	18743
2026-01-28 07:54:27.53	118.90	2.68	-54.6	-56.7	6.2	0.00e+00	0	46	104	0	80	18685
2026-01-28 07:54:28.53	119.04	2.63	-54.6	-56.6	6.2	0.00e+00	0	46	104	0	80	18576
2026-01-28 07:54:29.54	119.17	2.58	-54.5	-56.6	6.2	0.00e+00	0	46	104	0	80	18430
2026-01-28 07:54:30.55	119.31	2.53	-54.5	-56.5	6.2	0.00e+00	0	46	104	0	80	18348
2026-01-28 07:54:31.55	119.45	2.49	-54.4	-56.5	6.2	0.00e+00	0	46	104	0	80	18266
2026-01-28 07:54:32.56	119.58	2.44	-54.3	-56.4	6.2	0.00e+00	0	46	104	0	80	18083
2026-01-28 07:54:33.57	119.72	2.39	-54.2	-56.3	6.2	0.00e+00	0	46	104	0	80	17914
2026-01-28 07:54:34.58	119.85	2.34	-54.1	-56.2	6.2	0.00e+00	0	46	104	0	80	17755
2026-01-28 07:54:35.59	119.99	2.29	-54.0	-56.1	6.2	0.00e+00	0	46	104	0	80	17556
2026-01-28 07:54:36.60	120.12	2.25	-53.9	-56.1	6.2	0.00e+00	0	46	104	0	79	18414
2026-01-28 07:54:37.61	120.25	2.20	-53.8	-55.9	6.2	0.00e+00	0	46	104	0	79	18061
2026-01-28 07:54:38.62	120.39	2.15	-53.8	-55.8	6.2	0.00e+00	0	46	104	0	79	17945
2026-01-28 07:54:39.62	120.52	2.10	-53.7	-55.8	6.2	0.00e+00	0	46	104	0	79	17905
2026-01-28 07:54:40.63	120.65	2.05	-53.7	-55.8	6.2	0.00e+00	0	46	104	0	79	17885
2026-01-28 07:54:41.64	120.78	2.00	-53.7	-55.8	6.2	0.00e+00	0	46	104	0	79	17812

#Closed at: 2026-01-28 07:54:42
#Recorded file [0 MB]: D:/lorett/data/31041_260128_104644.dat