passes_logs/2026/01/28/R3.2S_Murmansk/R3.2S_Murmansk__20260128_211751_JL1KF02B03_rec.log

#Pass ID: 20260128_211751_JL1KF02B03
#Satellite: JL1KF02B03
#Configuration: 01B_900M
#almurnet v.1.7.20251203
#Start time: 2026-01-28 21:17:51

#Version: 2.2.20231116
#Station: R3.2S_Murmansk
#Location: 33.079688 lon 68.888172 lat
#TLE: 1 61190U 24169B   26027.81783714  .00006906  00000+0  43277-3 0  9991
#TLE: 2 61190  97.5613 118.7682 0015007 139.5313 220.7035 15.09576175 74658

#Time	Az	El	Level	Level2	SNR	BER	BlckErr	Temp	State	Recorded	gain1	gain2
2026-01-28 21:17:51.64	197.76	2.03	-54.2	-56.2	6.2	0.00e+00	0	43	0	0	79	18774
2026-01-28 21:17:52.64	197.83	2.10	-54.1	-56.3	6.2	0.00e+00	0	43	104	0	79	18919
2026-01-28 21:17:53.65	197.90	2.16	-54.1	-56.2	6.2	0.00e+00	0	43	104	0	79	18657
2026-01-28 21:17:54.65	197.97	2.23	-54.1	-56.2	6.2	0.00e+00	0	43	104	0	79	18708
2026-01-28 21:17:55.66	198.04	2.29	-54.1	-56.2	6.2	0.00e+00	0	43	104	0	79	18691
2026-01-28 21:17:56.67	198.11	2.36	-54.1	-56.2	6.2	0.00e+00	0	43	104	0	79	18666
2026-01-28 21:17:57.68	198.19	2.42	-54.1	-56.2	6.2	0.00e+00	0	43	104	0	79	18617
2026-01-28 21:17:58.68	198.26	2.49	-54.1	-56.1	6.2	0.00e+00	0	43	104	0	79	18583
2026-01-28 21:17:59.69	198.34	2.55	-54.0	-56.1	6.2	0.00e+00	0	43	104	0	79	18582
2026-01-28 21:18:00.69	198.41	2.62	-54.2	-56.3	6.2	0.00e+00	0	43	104	0	79	18879
2026-01-28 21:18:01.70	198.48	2.68	-54.3	-56.4	6.2	0.00e+00	0	43	104	0	79	19185
2026-01-28 21:18:02.70	198.56	2.75	-54.4	-56.4	6.2	0.00e+00	0	43	104	0	79	19253
2026-01-28 21:18:03.71	198.63	2.81	-54.4	-56.5	6.2	0.00e+00	0	43	104	0	79	19297
2026-01-28 21:18:04.72	198.71	2.88	-54.4	-56.5	6.2	0.00e+00	0	43	104	0	79	19339
2026-01-28 21:18:05.72	198.79	2.95	-54.4	-56.5	6.2	0.00e+00	0	43	104	0	79	19273
2026-01-28 21:18:06.73	198.86	3.01	-54.3	-56.5	6.2	0.00e+00	0	43	104	0	79	19291
2026-01-28 21:18:07.74	198.94	3.08	-54.3	-56.4	6.2	0.00e+00	0	43	104	0	79	19192
2026-01-28 21:18:08.74	199.02	3.15	-54.3	-56.4	6.2	0.00e+00	0	43	104	0	79	19195
2026-01-28 21:18:09.75	199.09	3.21	-54.3	-56.4	6.2	0.00e+00	0	43	104	0	79	19171
2026-01-28 21:18:10.76	199.17	3.28	-54.3	-56.4	6.2	0.00e+00	0	43	104	0	79	19162
2026-01-28 21:18:11.76	199.25	3.35	-54.3	-56.4	6.2	0.00e+00	0	43	104	0	79	19088
2026-01-28 21:18:12.77	199.33	3.41	-54.2	-56.3	6.2	0.00e+00	0	43	104	0	79	18907
2026-01-28 21:18:13.78	199.41	3.48	-54.2	-56.3	6.2	0.00e+00	0	44	104	0	79	18913
2026-01-28 21:18:14.79	199.49	3.55	-54.1	-56.2	6.2	0.00e+00	0	43	104	0	79	18708
2026-01-28 21:18:15.80	199.57	3.62	-54.1	-56.2	6.2	0.00e+00	0	44	104	0	79	18650
2026-01-28 21:18:16.81	199.65	3.69	-54.0	-56.1	6.2	0.00e+00	0	44	104	0	79	18410
2026-01-28 21:18:17.81	199.73	3.75	-53.9	-56.0	6.2	0.00e+00	0	43	104	0	79	18243
2026-01-28 21:18:18.81	199.81	3.82	-53.8	-55.9	6.2	0.00e+00	0	44	104	0	79	18076
2026-01-28 21:18:19.82	199.90	3.89	-53.7	-55.8	6.2	0.00e+00	0	44	104	0	79	17869
2026-01-28 21:18:20.83	199.98	3.96	-53.6	-55.7	6.2	0.00e+00	0	43	104	0	79	17608
2026-01-28 21:18:21.84	200.06	4.03	-53.4	-55.5	6.2	0.00e+00	0	44	104	0	78	18205
2026-01-28 21:18:22.85	200.15	4.10	-52.9	-55.0	6.2	0.00e+00	0	44	104	0	77	18329
2026-01-28 21:18:23.85	200.23	4.17	-52.7	-54.8	6.2	0.00e+00	0	44	104	0	77	17880
2026-01-28 21:18:24.86	200.32	4.24	-52.7	-54.8	6.2	0.00e+00	0	44	104	0	77	17916
2026-01-28 21:18:25.87	200.40	4.31	-52.7	-54.8	6.2	0.00e+00	0	44	104	0	77	17868
2026-01-28 21:18:26.87	200.49	4.38	-52.7	-54.8	6.2	0.00e+00	0	44	104	0	77	17855
2026-01-28 21:18:27.88	200.57	4.45	-52.7	-54.8	6.2	0.00e+00	0	44	104	0	77	17837
2026-01-28 21:18:28.88	200.66	4.52	-52.7	-54.8	6.2	0.00e+00	0	44	104	0	77	17833
2026-01-28 21:18:29.89	200.74	4.59	-52.7	-54.8	6.2	0.00e+00	0	44	104	0	77	17883
2026-01-28 21:18:30.90	200.83	4.66	-52.7	-54.8	6.2	0.00e+00	0	44	104	0	77	17816
2026-01-28 21:18:31.91	200.92	4.73	-52.7	-54.8	6.2	0.00e+00	0	44	104	0	77	17794
2026-01-28 21:18:32.91	201.01	4.80	-52.7	-54.8	6.2	0.00e+00	0	44	104	0	77	17788
2026-01-28 21:18:33.92	201.10	4.87	-52.6	-54.7	6.2	0.00e+00	0	44	104	0	77	17694
2026-01-28 21:18:34.92	201.19	4.94	-52.6	-54.7	6.2	0.00e+00	0	44	104	0	77	17763
2026-01-28 21:18:35.93	201.28	5.01	-52.6	-54.7	6.2	0.00e+00	0	44	104	0	77	17723
2026-01-28 21:18:36.93	201.37	5.09	-52.7	-54.8	6.2	0.00e+00	0	44	104	0	77	17803
2026-01-28 21:18:37.94	201.46	5.16	-52.7	-54.8	6.2	0.00e+00	0	44	104	0	77	17926
2026-01-28 21:18:38.95	201.55	5.23	-52.6	-54.7	6.2	0.00e+00	0	44	104	0	77	17680
2026-01-28 21:18:39.96	201.64	5.30	-52.6	-54.7	6.2	0.00e+00	0	44	104	0	77	17653
2026-01-28 21:18:40.97	201.74	5.38	-52.8	-54.9	6.2	0.00e+00	0	44	104	0	77	18051
2026-01-28 21:18:41.97	201.83	5.45	-52.7	-54.8	6.2	0.00e+00	0	44	104	0	77	17954
2026-01-28 21:18:42.98	201.92	5.52	-52.7	-54.7	6.2	0.00e+00	0	44	104	0	77	17763
2026-01-28 21:18:43.99	202.02	5.60	-52.6	-54.7	6.2	0.00e+00	0	44	104	0	77	17603
2026-01-28 21:18:44.99	202.11	5.67	-52.8	-54.9	6.2	0.00e+00	0	44	104	0	77	18031
2026-01-28 21:18:46.00	202.21	5.74	-52.7	-54.8	6.2	0.00e+00	0	44	104	0	77	17952
2026-01-28 21:18:47.01	202.30	5.82	-52.6	-54.7	6.2	0.00e+00	0	44	104	0	77	17759
2026-01-28 21:18:48.02	202.40	5.89	-52.6	-54.7	6.2	0.00e+00	0	44	104	0	77	17716
2026-01-28 21:18:49.02	202.50	5.97	-52.8	-54.9	6.2	0.00e+00	0	44	104	0	77	18077
2026-01-28 21:18:50.03	202.59	6.04	-52.8	-54.9	6.2	0.00e+00	0	44	104	0	77	17984
2026-01-28 21:18:51.03	202.69	6.11	-52.7	-54.7	6.2	0.00e+00	0	44	104	0	77	17759
2026-01-28 21:18:52.04	202.79	6.19	-52.6	-54.7	6.2	0.00e+00	0	44	104	0	77	17690
2026-01-28 21:18:53.04	202.89	6.26	-52.8	-54.9	6.2	0.00e+00	0	44	104	0	77	18067
2026-01-28 21:18:54.05	202.99	6.34	-52.8	-54.9	6.2	0.00e+00	0	44	104	0	77	17972
2026-01-28 21:18:55.06	203.09	6.42	-52.7	-54.7	6.2	0.00e+00	0	44	104	0	77	17715
2026-01-28 21:18:56.06	203.19	6.49	-52.6	-54.7	6.2	0.00e+00	0	44	104	0	77	17741
2026-01-28 21:18:57.06	203.29	6.57	-52.8	-54.9	6.2	0.00e+00	0	44	104	0	77	18087
2026-01-28 21:18:58.07	203.40	6.64	-52.8	-54.8	6.2	0.00e+00	0	44	104	0	77	17950
2026-01-28 21:18:59.08	203.50	6.72	-52.7	-54.8	6.2	0.00e+00	0	44	104	0	77	17780
2026-01-28 21:19:00.09	203.60	6.80	-52.6	-54.8	6.2	0.00e+00	0	44	104	0	77	17787
2026-01-28 21:19:01.09	203.71	6.87	-52.8	-54.9	6.2	0.00e+00	0	45	104	0	77	18102
2026-01-28 21:19:02.10	203.81	6.95	-52.8	-54.9	6.2	0.00e+00	0	45	104	0	77	18057
2026-01-28 21:19:03.10	203.92	7.03	-52.7	-54.8	6.2	0.00e+00	0	45	104	0	77	17859
2026-01-28 21:19:04.11	204.02	7.11	-52.7	-54.7	6.2	0.00e+00	0	45	104	0	77	17755
2026-01-28 21:19:05.11	204.13	7.18	-52.8	-54.9	6.2	0.00e+00	0	45	104	0	77	18103
2026-01-28 21:19:06.12	204.24	7.26	-52.8	-54.9	6.2	0.00e+00	0	45	104	0	77	18093
2026-01-28 21:19:07.12	204.35	7.34	-52.7	-54.8	6.2	0.00e+00	0	44	104	0	77	17840
2026-01-28 21:19:08.13	204.46	7.42	-52.7	-54.8	6.2	0.00e+00	0	45	104	0	77	17807
2026-01-28 21:19:09.14	204.57	7.50	-52.8	-54.9	6.2	0.00e+00	0	45	104	0	77	18162
2026-01-28 21:19:10.14	204.68	7.58	-52.8	-54.9	6.2	0.00e+00	0	45	104	0	77	18033
2026-01-28 21:19:11.15	204.79	7.66	-52.7	-54.8	6.2	0.00e+00	0	45	104	0	77	17915
2026-01-28 21:19:12.15	204.90	7.74	-52.7	-54.8	6.2	0.00e+00	0	44	104	0	77	17864
2026-01-28 21:19:13.16	205.01	7.82	-52.9	-55.0	6.2	0.00e+00	0	45	104	0	77	18210
2026-01-28 21:19:14.16	205.12	7.90	-52.8	-54.9	6.2	0.00e+00	0	45	104	0	77	18135
2026-01-28 21:19:15.17	205.24	7.98	-52.8	-54.9	6.2	0.00e+00	0	45	104	0	77	18021
2026-01-28 21:19:16.18	205.35	8.06	-52.7	-54.8	6.2	0.00e+00	0	45	104	0	77	17950
2026-01-28 21:19:17.18	205.47	8.14	-52.9	-55.0	6.2	0.00e+00	0	45	104	0	77	18184
2026-01-28 21:19:18.20	205.59	8.22	-52.8	-54.9	6.2	0.00e+00	0	45	104	0	77	18118
2026-01-28 21:19:19.20	205.70	8.30	-52.8	-54.9	6.2	0.00e+00	0	45	104	0	77	18047
2026-01-28 21:19:20.21	205.82	8.38	-52.8	-54.9	6.2	0.00e+00	0	44	104	0	77	17991
2026-01-28 21:19:21.22	205.94	8.46	-52.9	-55.0	6.2	0.00e+00	0	44	104	0	77	18242
2026-01-28 21:19:22.23	206.06	8.55	-52.9	-54.9	6.2	0.00e+00	0	45	104	0	77	18172
2026-01-28 21:19:23.23	206.18	8.63	-52.8	-54.9	6.2	0.00e+00	0	45	104	0	77	18047
2026-01-28 21:19:24.23	206.30	8.71	-52.8	-54.9	6.2	0.00e+00	0	45	104	0	77	18045
2026-01-28 21:19:25.23	206.42	8.79	-52.9	-55.0	6.2	0.00e+00	0	45	104	0	77	18275
2026-01-28 21:19:26.24	206.54	8.88	-52.9	-55.0	6.2	0.00e+00	0	45	104	0	77	18245
2026-01-28 21:19:27.24	206.67	8.96	-52.8	-54.9	6.2	0.00e+00	0	45	104	0	77	18148
2026-01-28 21:19:28.24	206.79	9.04	-52.8	-54.9	6.2	0.00e+00	0	45	104	0	77	18076
2026-01-28 21:19:29.25	206.91	9.13	-52.9	-55.0	6.2	0.00e+00	0	45	104	0	77	18335
2026-01-28 21:19:30.25	207.04	9.21	-52.9	-55.0	6.2	0.00e+00	0	45	104	0	77	18254
2026-01-28 21:19:31.26	207.17	9.30	-46.5	-49.8	6.2	0.00e+00	0	45	104	0	63	22574
2026-01-28 21:19:32.27	207.29	9.38	-46.7	-46.9	8.5	8.20e-05	0	45	104	0	65	14344
2026-01-28 21:19:33.28	207.42	9.47	-34.9	-34.6	14.7	4.00e-04	0	45	0	41943040	41	13864
2026-01-28 21:19:34.28	207.55	9.55	-35.1	-34.9	14.4	5.30e-04	0	45	0	159383552	41	14293
2026-01-28 21:19:35.29	207.68	9.64	-34.1	-33.9	14.7	3.60e-04	0	45	0	268435456	40	13499
2026-01-28 21:19:36.29	207.81	9.72	-33.5	-33.3	14.6	3.99e-04	0	45	0	385875968	39	13421
2026-01-28 21:19:37.30	207.95	9.81	-33.2	-33.0	14.4	4.02e-04	0	45	0	494927872	38	13657
2026-01-28 21:19:38.31	208.08	9.89	-32.9	-32.7	14.4	4.88e-04	0	45	0	603979776	37	13999
2026-01-28 21:19:39.32	208.21	9.98	-32.9	-32.7	14.3	5.34e-04	0	45	0	721420288	37	14009
2026-01-28 21:19:40.32	208.35	10.07	-33.0	-32.8	14.4	5.23e-04	0	45	0	830472192	37	14189
2026-01-28 21:19:41.33	208.48	10.15	-32.9	-32.7	14.4	4.46e-04	0	45	0	947912704	37	13980
2026-01-28 21:19:42.34	208.62	10.24	-32.8	-32.6	14.5	3.87e-04	0	45	0	1056964608	37	13889
2026-01-28 21:19:43.34	208.76	10.33	-32.8	-32.6	14.2	5.17e-04	0	45	0	1174405120	37	13901
2026-01-28 21:19:44.35	208.90	10.42	-32.8	-32.6	14.3	4.25e-04	0	45	0	1291845632	37	13873
2026-01-28 21:19:45.36	209.04	10.51	-32.8	-32.6	14.3	4.23e-04	0	45	0	1409286144	37	13842
2026-01-28 21:19:46.37	209.18	10.59	-32.7	-32.5	14.3	4.16e-04	0	45	0	1518338048	37	13645
2026-01-28 21:19:47.38	209.32	10.68	-32.8	-32.6	14.3	4.25e-04	0	45	0	1635778560	37	13853
2026-01-28 21:19:48.38	209.46	10.77	-32.7	-32.5	14.4	4.00e-04	0	45	0	1744830464	37	13747
2026-01-28 21:19:49.39	209.60	10.86	-32.6	-32.4	14.3	4.63e-04	0	45	0	1853882368	37	13578
2026-01-28 21:19:50.40	209.75	10.95	-32.7	-32.5	14.3	4.82e-04	0	45	0	1971322880	37	13702
2026-01-28 21:19:51.41	209.90	11.04	-32.6	-32.4	14.4	4.50e-04	0	45	0	2080374784	37	13579
2026-01-28 21:19:52.41	210.04	11.13	-32.6	-32.4	14.4	4.23e-04	0	45	0	2197815296	37	13600
2026-01-28 21:19:53.42	210.19	11.22	-32.7	-32.5	14.3	5.38e-04	0	45	0	2306867200	37	13696
2026-01-28 21:19:54.43	210.34	11.31	-32.7	-32.5	14.3	5.11e-04	0	45	0	2415919104	37	13723
2026-01-28 21:19:55.43	210.49	11.40	-32.6	-32.4	14.4	4.39e-04	0	45	0	2533359616	37	13548
2026-01-28 21:19:56.44	210.64	11.50	-32.4	-32.2	14.4	4.50e-04	0	45	0	2659188736	36	14099
2026-01-28 21:19:57.45	210.79	11.59	-32.5	-32.3	14.3	4.71e-04	0	45	0	2768240640	36	14167
2026-01-28 21:19:58.45	210.94	11.68	-32.4	-32.2	14.3	5.23e-04	0	46	0	2877292544	36	14109
2026-01-28 21:19:59.46	211.10	11.77	-32.4	-32.2	14.4	4.52e-04	0	45	0	2994733056	36	14015
2026-01-28 21:20:00.47	211.25	11.86	-32.5	-32.3	14.4	4.63e-04	0	45	0	3103784960	36	14267
2026-01-28 21:20:01.48	211.41	11.96	-32.3	-32.1	14.3	4.88e-04	0	45	0	3221225472	36	13930
2026-01-28 21:20:02.49	211.57	12.05	-32.2	-32.0	14.3	4.52e-04	0	45	0	3330277376	36	13771
2026-01-28 21:20:03.49	211.72	12.14	-32.4	-32.2	14.4	4.54e-04	0	46	0	3439329280	36	14010
2026-01-28 21:20:04.50	211.89	12.24	-32.3	-32.1	14.3	3.99e-04	0	45	0	3556769792	36	13857
2026-01-28 21:20:05.50	212.05	12.33	-32.4	-32.2	14.4	4.98e-04	0	46	0	3665821696	36	13999
2026-01-28 21:20:06.51	212.21	12.42	-32.4	-32.2	14.4	4.73e-04	0	46	0	3783262208	36	14078
2026-01-28 21:20:07.52	212.37	12.52	-32.2	-32.0	14.3	4.71e-04	0	45	0	3892314112	36	13667
2026-01-28 21:20:08.52	212.53	12.61	-32.1	-31.9	14.3	4.50e-04	0	45	0	4001366016	36	13593
2026-01-28 21:20:09.52	212.70	12.71	-32.2	-31.9	14.3	4.86e-04	0	45	0	4118806528	36	13629
2026-01-28 21:20:10.53	212.87	12.80	-32.0	-31.8	14.3	4.39e-04	0	46	0	4227858432	36	13435
2026-01-28 21:20:11.54	213.04	12.90	-32.1	-31.9	14.4	4.27e-04	0	46	0	4345298944	36	13555
2026-01-28 21:20:12.54	213.20	12.99	-32.1	-31.9	14.3	5.02e-04	0	46	0	4462739456	36	13510
2026-01-28 21:20:13.55	213.38	13.09	-32.0	-31.8	14.3	4.84e-04	0	45	0	4580179968	36	13374
2026-01-28 21:20:14.55	213.55	13.19	-29.6	-29.4	14.3	5.61e-04	0	45	0	4689231872	31	13560
2026-01-28 21:20:15.56	213.72	13.28	-29.6	-29.5	14.3	6.22e-04	0	46	0	4806672384	31	13638
2026-01-28 21:20:16.57	213.90	13.38	-29.6	-29.4	14.3	5.55e-04	0	45	0	4915724288	31	13486
2026-01-28 21:20:17.57	214.07	13.48	-29.5	-29.3	14.3	5.63e-04	0	45	0	5033164800	31	13468
2026-01-28 21:20:18.57	214.25	13.57	-29.5	-29.3	14.3	5.09e-04	0	45	0	5142216704	31	13396
2026-01-28 21:20:19.58	214.43	13.67	-29.6	-29.4	14.4	5.63e-04	0	46	0	5251268608	31	13542
2026-01-28 21:20:20.59	214.61	13.77	-29.6	-29.4	14.3	5.30e-04	0	46	0	5368709120	31	13505
2026-01-28 21:20:21.60	214.79	13.87	-29.5	-29.3	14.3	5.17e-04	0	46	0	5477761024	31	13423
2026-01-28 21:20:22.60	214.97	13.97	-29.5	-29.3	14.4	4.96e-04	0	46	0	5595201536	31	13459
2026-01-28 21:20:23.61	215.15	14.06	-29.4	-29.2	14.3	4.67e-04	0	46	0	5704253440	30	14023
2026-01-28 21:20:24.61	215.34	14.16	-29.5	-29.3	14.4	4.46e-04	0	46	0	5813305344	30	14236
2026-01-28 21:20:25.62	215.52	14.26	-29.3	-29.1	14.3	4.48e-04	0	45	0	5930745856	30	13932
2026-01-28 21:20:26.63	215.71	14.36	-29.3	-29.1	14.3	4.88e-04	0	46	0	6039797760	30	13898
2026-01-28 21:20:27.63	215.90	14.46	-29.3	-29.1	14.3	4.31e-04	0	46	0	6157238272	30	13908
2026-01-28 21:20:28.64	216.09	14.56	-29.2	-29.0	14.3	4.69e-04	0	46	0	6266290176	30	13732
2026-01-28 21:20:29.65	216.29	14.66	-29.3	-29.1	14.3	5.53e-04	0	46	0	6392119296	30	13853
2026-01-28 21:20:30.65	216.48	14.76	-29.2	-29.0	14.3	4.54e-04	0	46	0	6501171200	30	13752
2026-01-28 21:20:31.66	216.68	14.86	-29.2	-29.0	14.3	4.96e-04	0	46	0	6618611712	30	13731
2026-01-28 21:20:32.67	216.87	14.97	-29.2	-29.0	14.3	5.32e-04	0	46	0	6727663616	30	13717
2026-01-28 21:20:33.67	217.07	15.07	-29.1	-28.9	14.3	4.42e-04	0	46	0	6836715520	30	13632
2026-01-28 21:20:34.68	217.27	15.17	-29.1	-28.9	14.3	5.47e-04	0	46	0	6954156032	30	13499
2026-01-28 21:20:35.69	217.47	15.27	-29.2	-29.0	14.3	5.05e-04	0	46	0	7063207936	30	13667
2026-01-28 21:20:36.69	217.68	15.37	-29.0	-28.8	14.3	4.56e-04	0	46	0	7180648448	30	13375
2026-01-28 21:20:37.70	217.88	15.47	-29.0	-28.8	14.2	4.54e-04	0	46	0	7289700352	29	14174
2026-01-28 21:20:38.71	218.09	15.58	-29.0	-28.8	14.3	4.08e-04	0	46	0	7407140864	29	14183
2026-01-28 21:20:39.72	218.30	15.68	-29.0	-28.8	14.3	4.77e-04	0	46	0	7516192768	29	14273
2026-01-28 21:20:40.73	218.51	15.78	-29.0	-28.8	14.3	4.84e-04	0	46	0	7625244672	29	14205
2026-01-28 21:20:41.74	218.72	15.89	-28.8	-28.6	14.3	4.58e-04	0	46	0	7742685184	29	13911
2026-01-28 21:20:42.75	218.93	15.99	-28.8	-28.6	14.2	4.23e-04	0	46	0	7868514304	29	13865
2026-01-28 21:20:43.75	219.15	16.09	-28.9	-28.7	14.3	4.77e-04	0	46	0	7977566208	29	14053
2026-01-28 21:20:44.76	219.36	16.20	-28.8	-28.6	14.3	4.84e-04	0	46	0	8086618112	29	13858
2026-01-28 21:20:45.77	219.58	16.30	-28.7	-28.5	14.3	4.60e-04	0	46	0	8204058624	29	13712
2026-01-28 21:20:46.77	219.80	16.41	-28.8	-28.6	14.3	4.69e-04	0	46	0	8313110528	29	13862
2026-01-28 21:20:47.78	220.02	16.51	-28.7	-28.5	14.3	4.42e-04	0	46	0	8430551040	29	13741
2026-01-28 21:20:48.78	220.24	16.62	-28.6	-28.4	14.3	4.44e-04	0	46	0	8539602944	29	13621
2026-01-28 21:20:49.78	220.47	16.72	-28.6	-28.4	14.4	4.00e-04	0	46	0	8648654848	29	13615
2026-01-28 21:20:50.79	220.70	16.82	-28.6	-28.4	14.3	4.40e-04	0	46	0	8766095360	29	13521
2026-01-28 21:20:51.79	220.92	16.93	-28.6	-28.5	14.2	4.75e-04	0	46	0	8875147264	29	13635
2026-01-28 21:20:52.80	221.15	17.03	-28.5	-28.3	14.2	4.90e-04	0	46	0	8992587776	29	13387
2026-01-28 21:20:53.80	221.38	17.14	-28.6	-28.4	14.3	4.31e-04	0	46	0	9101639680	29	13597
2026-01-28 21:20:54.81	221.62	17.25	-28.5	-28.3	14.3	4.40e-04	0	46	0	9210691584	29	13471
2026-01-28 21:20:55.82	221.86	17.35	-28.4	-28.2	14.3	4.06e-04	0	46	0	9328132096	28	13993
2026-01-28 21:20:56.83	222.09	17.46	-28.5	-28.3	14.3	3.80e-04	0	46	0	9437184000	28	14121
2026-01-28 21:20:57.84	222.33	17.56	-28.5	-28.3	14.3	4.40e-04	0	46	0	9554624512	28	14123
2026-01-28 21:20:58.84	222.57	17.67	-28.4	-28.2	14.3	4.96e-04	0	46	0	9672065024	28	14083
2026-01-28 21:20:59.85	222.82	17.78	-28.4	-28.2	14.3	4.65e-04	0	46	0	9789505536	28	13985
2026-01-28 21:21:00.86	223.06	17.88	-28.3	-28.1	14.3	4.37e-04	0	46	0	9898557440	28	13827
2026-01-28 21:21:01.87	223.31	17.99	-28.3	-28.1	14.3	4.08e-04	0	46	0	10015997952	28	13791
2026-01-28 21:21:02.88	223.56	18.10	-28.2	-28.0	14.3	4.23e-04	0	46	0	10125049856	28	13776
2026-01-28 21:21:03.89	223.81	18.21	-28.2	-28.0	14.3	4.33e-04	0	46	0	10234101760	28	13668
2026-01-28 21:21:04.89	224.07	18.31	-28.3	-28.1	14.3	5.49e-04	0	46	0	10351542272	28	13842
2026-01-28 21:21:05.90	224.32	18.42	-28.1	-27.9	14.3	3.91e-04	0	46	0	10460594176	28	13528
2026-01-28 21:21:06.90	224.58	18.53	-28.1	-27.9	14.3	3.26e-04	0	46	0	10578034688	28	13496
2026-01-28 21:21:07.91	224.84	18.63	-28.0	-27.8	14.3	4.16e-04	0	46	0	10687086592	28	13423
2026-01-28 21:21:08.91	225.10	18.74	-28.1	-27.9	14.3	4.61e-04	0	46	0	10804527104	28	13487
2026-01-28 21:21:09.92	225.36	18.85	-28.1	-27.9	14.3	3.80e-04	0	46	0	10913579008	28	13596
2026-01-28 21:21:10.93	225.63	18.95	-28.0	-27.8	14.3	3.95e-04	0	46	0	11022630912	27	14218
2026-01-28 21:21:11.93	225.89	19.06	-28.1	-27.9	14.3	4.06e-04	0	46	0	11140071424	27	14287
2026-01-28 21:21:12.94	226.16	19.17	-28.2	-27.9	14.4	3.97e-04	0	46	0	11249123328	27	14436
2026-01-28 21:21:13.94	226.43	19.28	-28.0	-27.8	14.3	3.68e-04	0	46	0	11374952448	27	14117
2026-01-28 21:21:14.95	226.71	19.38	-28.0	-27.8	14.3	3.87e-04	0	46	0	11484004352	27	14143
2026-01-28 21:21:15.96	226.98	19.49	-28.0	-27.8	14.3	4.90e-04	0	46	0	11601444864	27	14217
2026-01-28 21:21:16.97	227.26	19.60	-28.0	-27.8	14.3	4.35e-04	0	46	0	11710496768	27	14216
2026-01-28 21:21:17.97	227.54	19.71	-27.9	-27.7	14.3	4.00e-04	0	46	0	11827937280	27	14093
2026-01-28 21:21:18.98	227.82	19.81	-27.9	-27.7	14.3	4.35e-04	0	46	0	11936989184	27	13962
2026-01-28 21:21:19.99	228.11	19.92	-27.8	-27.6	14.3	3.97e-04	0	46	0	12046041088	27	13900
2026-01-28 21:21:20.99	228.39	20.03	-27.8	-27.6	14.3	3.91e-04	0	46	0	12163481600	27	13934
2026-01-28 21:21:22.00	228.68	20.13	-27.7	-27.5	14.3	3.64e-04	0	46	0	12272533504	27	13783
2026-01-28 21:21:23.01	228.98	20.24	-27.8	-27.6	14.3	3.36e-04	0	46	0	12389974016	27	13814
2026-01-28 21:21:24.02	229.27	20.35	-27.8	-27.6	14.3	3.97e-04	0	46	0	12499025920	27	13817
2026-01-28 21:21:25.02	229.56	20.45	-27.8	-27.6	14.3	4.18e-04	0	46	0	12608077824	27	13817
2026-01-28 21:21:26.03	229.86	20.56	-27.6	-27.4	14.3	3.66e-04	0	46	0	12725518336	27	13616
2026-01-28 21:21:27.04	230.16	20.67	-27.6	-27.4	14.3	3.57e-04	0	46	0	12834570240	27	13576
2026-01-28 21:21:28.05	230.47	20.77	-27.6	-27.4	14.3	4.12e-04	0	46	0	12960399360	27	13574
2026-01-28 21:21:29.05	230.77	20.88	-27.8	-27.6	14.3	3.97e-04	0	46	0	13069451264	27	13799
2026-01-28 21:21:30.06	231.08	20.99	-27.6	-27.4	14.3	3.99e-04	0	46	0	13186891776	27	13516
2026-01-28 21:21:31.07	231.39	21.09	-27.6	-27.5	14.3	4.29e-04	0	46	0	13295943680	27	13635
2026-01-28 21:21:32.08	231.70	21.20	-27.7	-27.5	14.3	3.85e-04	0	46	0	13413384192	27	13703
2026-01-28 21:21:33.09	232.02	21.30	-27.4	-27.2	14.3	3.43e-04	0	46	0	13522436096	26	14054
2026-01-28 21:21:34.09	232.33	21.41	-27.5	-27.3	14.2	4.44e-04	0	46	0	13631488000	26	14135
2026-01-28 21:21:35.09	232.65	21.51	-27.4	-27.2	14.2	3.89e-04	0	46	0	13748928512	26	13957
2026-01-28 21:21:36.10	232.97	21.61	-27.4	-27.2	14.3	3.58e-04	0	46	0	13857980416	26	14019
2026-01-28 21:21:37.11	233.30	21.72	-27.4	-27.2	14.2	3.83e-04	0	46	0	13975420928	26	14020
2026-01-28 21:21:38.12	233.62	21.82	-27.4	-27.2	14.2	3.68e-04	0	46	0	14084472832	26	14002
2026-01-28 21:21:39.13	233.95	21.93	-27.3	-27.1	14.2	4.25e-04	0	46	0	14201913344	26	13844
2026-01-28 21:21:40.13	234.28	22.03	-27.2	-27.0	14.3	3.64e-04	0	46	0	14310965248	26	13777
2026-01-28 21:21:41.14	234.61	22.13	-27.3	-27.1	14.3	3.85e-04	0	46	0	14420017152	26	13814
2026-01-28 21:21:42.14	234.95	22.23	-27.3	-27.1	14.2	3.51e-04	0	46	0	14537457664	26	13925
2026-01-28 21:21:43.14	235.28	22.33	-27.4	-27.2	14.2	4.14e-04	0	46	0	14646509568	26	13959
2026-01-28 21:21:44.15	235.63	22.43	-27.2	-27.0	14.2	3.91e-04	0	46	0	14772338688	26	13669
2026-01-28 21:21:45.15	235.97	22.53	-27.3	-27.1	14.2	3.93e-04	0	46	0	14881390592	26	13805
2026-01-28 21:21:46.16	236.31	22.64	-27.4	-27.2	14.2	3.53e-04	0	46	0	14998831104	26	14012
2026-01-28 21:21:47.16	236.66	22.73	-27.3	-27.1	14.2	4.37e-04	0	46	0	15107883008	26	13817
2026-01-28 21:21:48.17	237.01	22.83	-27.2	-27.0	14.3	4.40e-04	0	46	0	15225323520	26	13722
2026-01-28 21:21:49.18	237.36	22.93	-27.1	-26.9	14.2	4.35e-04	0	46	0	15334375424	26	13542
2026-01-28 21:21:50.18	237.72	23.03	-27.1	-26.9	14.3	3.53e-04	0	46	0	15443427328	26	13559
2026-01-28 21:21:51.19	238.07	23.13	-27.2	-27.0	14.2	3.91e-04	0	46	0	15560867840	26	13685
2026-01-28 21:21:52.20	238.43	23.22	-27.0	-26.8	14.2	3.95e-04	0	46	0	15669919744	26	13390
2026-01-28 21:21:53.21	238.80	23.32	-27.0	-26.8	14.3	3.89e-04	0	46	0	15787360256	25	14137
2026-01-28 21:21:54.21	239.16	23.42	-26.9	-26.7	14.2	4.06e-04	0	46	0	15896412160	25	14073
2026-01-28 21:21:55.23	239.53	23.51	-27.0	-26.8	14.2	4.16e-04	0	46	0	16005464064	25	14126
2026-01-28 21:21:56.23	239.90	23.61	-26.9	-26.7	14.2	3.66e-04	0	46	0	16122904576	25	14010
2026-01-28 21:21:57.24	240.27	23.70	-26.9	-26.7	14.3	3.85e-04	0	46	0	16231956480	25	14069
2026-01-28 21:21:58.24	240.64	23.79	-26.9	-26.7	14.2	3.72e-04	0	46	0	16357785600	25	13960
2026-01-28 21:21:59.25	241.02	23.88	-26.9	-26.6	14.2	3.55e-04	0	46	0	16466837504	25	13945
2026-01-28 21:22:00.26	241.40	23.97	-26.8	-26.6	14.2	3.83e-04	0	46	0	16584278016	25	13895
2026-01-28 21:22:01.27	241.79	24.06	-26.8	-26.6	14.2	3.70e-04	0	46	0	16693329920	25	13896
2026-01-28 21:22:02.27	242.17	24.15	-26.8	-26.6	14.3	3.49e-04	0	46	0	16810770432	25	13919
2026-01-28 21:22:03.28	242.55	24.24	-26.9	-26.7	14.2	3.89e-04	0	46	0	16919822336	25	14003
2026-01-28 21:22:04.28	242.94	24.33	-26.7	-26.5	14.2	4.08e-04	0	46	0	17037262848	25	13668
2026-01-28 21:22:05.29	243.33	24.42	-26.7	-26.5	14.2	3.81e-04	0	46	0	17146314752	25	13737
2026-01-28 21:22:06.30	243.73	24.50	-26.8	-26.6	14.2	4.16e-04	0	46	0	17255366656	25	13904
2026-01-28 21:22:07.31	244.12	24.59	-26.8	-26.5	14.2	4.40e-04	0	46	0	17372807168	25	13786
2026-01-28 21:22:08.32	244.52	24.67	-26.7	-26.5	14.2	4.33e-04	0	46	0	17481859072	25	13663
2026-01-28 21:22:09.33	244.93	24.75	-26.8	-26.6	14.3	3.15e-04	0	46	0	17599299584	25	13801
2026-01-28 21:22:10.33	245.33	24.83	-26.6	-26.4	14.2	3.51e-04	0	46	0	17708351488	25	13612
2026-01-28 21:22:11.34	245.73	24.92	-26.5	-26.3	14.2	3.68e-04	0	46	0	17834180608	25	13435
2026-01-28 21:22:12.35	246.14	24.99	-26.6	-26.4	14.2	3.89e-04	0	46	0	17943232512	25	13542
2026-01-28 21:22:13.36	246.55	25.07	-26.6	-26.4	14.2	3.32e-04	0	46	0	18060673024	25	13514
2026-01-28 21:22:14.36	246.96	25.15	-26.7	-26.5	14.3	3.64e-04	0	46	0	18169724928	25	13640
2026-01-28 21:22:15.37	247.37	25.23	-26.5	-26.3	14.2	4.25e-04	0	46	0	18278776832	25	13426
2026-01-28 21:22:16.38	247.79	25.30	-26.4	-26.2	14.2	3.64e-04	0	46	0	18396217344	24	14035
2026-01-28 21:22:17.38	248.21	25.37	-26.5	-26.3	14.1	4.23e-04	0	46	0	18505269248	24	14272
2026-01-28 21:22:18.39	248.63	25.45	-26.5	-26.3	14.2	3.30e-04	0	46	0	18622709760	24	14158
2026-01-28 21:22:19.40	249.05	25.52	-26.5	-26.3	14.4	2.73e-04	0	46	0	18731761664	24	14201
2026-01-28 21:22:20.40	249.47	25.59	-26.5	-26.3	14.2	3.03e-04	0	46	0	18840813568	24	14243
2026-01-28 21:22:21.41	249.90	25.66	-26.4	-26.2	14.2	2.96e-04	0	46	0	18958254080	24	14042
2026-01-28 21:22:22.41	250.32	25.72	-26.4	-26.2	14.2	2.73e-04	0	46	0	19067305984	24	14026
2026-01-28 21:22:23.42	250.75	25.79	-26.4	-26.2	14.2	2.71e-04	0	46	0	19184746496	24	14033
2026-01-28 21:22:24.43	251.19	25.85	-26.4	-26.2	14.2	2.46e-04	0	46	0	19293798400	24	14069
2026-01-28 21:22:25.44	251.62	25.92	-26.4	-26.2	14.1	2.97e-04	0	46	0	19402850304	24	14060
2026-01-28 21:22:26.44	252.06	25.98	-26.4	-26.2	14.2	2.67e-04	0	46	0	19528679424	24	14006
2026-01-28 21:22:27.45	252.49	26.04	-26.4	-26.2	14.2	3.64e-04	0	46	0	19646119936	24	14056
2026-01-28 21:22:28.46	252.93	26.10	-26.4	-26.2	14.2	3.03e-04	0	46	0	19755171840	24	14058
2026-01-28 21:22:29.47	253.38	26.15	-26.5	-26.3	14.3	3.07e-04	0	46	0	19864223744	24	14172
2026-01-28 21:22:30.48	253.82	26.21	-26.3	-26.1	14.2	3.07e-04	0	46	0	19981664256	24	13944
2026-01-28 21:22:31.49	254.27	26.26	-26.3	-26.1	14.2	3.20e-04	0	46	0	20090716160	24	13836
2026-01-28 21:22:32.49	254.71	26.31	-26.3	-26.1	14.1	3.34e-04	0	46	0	20208156672	24	13936
2026-01-28 21:22:33.50	255.16	26.36	-26.3	-26.1	14.1	3.55e-04	0	46	0	20317208576	24	13835
2026-01-28 21:22:34.51	255.61	26.41	-26.2	-26.1	14.1	3.51e-04	0	46	0	20434649088	24	13797
2026-01-28 21:22:35.52	256.06	26.46	-26.3	-26.1	14.1	3.49e-04	0	46	0	20543700992	24	13928
2026-01-28 21:22:36.53	256.51	26.51	-26.4	-26.2	14.2	3.89e-04	0	46	0	20652752896	24	13973
2026-01-28 21:22:37.53	256.96	26.55	-26.3	-26.1	14.2	2.78e-04	0	46	0	20770193408	24	13830
2026-01-28 21:22:38.54	257.42	26.59	-26.4	-26.2	14.2	3.17e-04	0	46	0	20887633920	24	14023
2026-01-28 21:22:39.55	257.88	26.63	-26.4	-26.2	14.2	3.87e-04	0	46	0	21005074432	24	13990
2026-01-28 21:22:40.55	258.33	26.67	-26.4	-26.1	14.2	3.03e-04	0	46	0	21114126336	24	13947
2026-01-28 21:22:41.56	258.79	26.71	-26.3	-26.0	14.2	3.24e-04	0	46	0	21231566848	24	13786
2026-01-28 21:22:42.56	259.24	26.75	-26.3	-26.1	14.2	2.86e-04	0	46	0	21340618752	24	13800
2026-01-28 21:22:43.57	259.71	26.78	-26.2	-26.0	14.1	3.60e-04	0	46	0	21458059264	24	13784
2026-01-28 21:22:44.58	260.17	26.81	-26.2	-26.0	14.1	3.95e-04	0	46	0	21567111168	24	13785
2026-01-28 21:22:45.58	260.63	26.84	-26.2	-26.0	14.2	2.90e-04	0	46	0	21676163072	24	13767
2026-01-28 21:22:46.59	261.09	26.87	-26.4	-26.1	14.1	3.28e-04	0	46	0	21793603584	24	13946
2026-01-28 21:22:47.60	261.56	26.90	-26.3	-26.0	14.1	3.41e-04	0	46	0	21902655488	24	13777
2026-01-28 21:22:48.60	262.02	26.92	-26.3	-26.1	14.1	3.74e-04	0	46	0	22020096000	24	13815
2026-01-28 21:22:49.61	262.49	26.94	-26.3	-26.1	14.3	3.01e-04	0	46	0	22129147904	24	13889
2026-01-28 21:22:50.62	262.96	26.96	-26.3	-26.1	14.2	3.20e-04	0	46	0	22238199808	24	13904
2026-01-28 21:22:51.62	263.42	26.98	-26.3	-26.1	14.2	3.41e-04	0	46	0	22355640320	24	13849
2026-01-28 21:22:52.63	263.89	27.00	-26.4	-26.2	14.2	3.58e-04	0	46	0	22464692224	24	13980
2026-01-28 21:22:53.64	264.36	27.02	-26.3	-26.1	14.2	3.30e-04	0	46	0	22582132736	24	13818
2026-01-28 21:22:54.65	264.83	27.03	-26.3	-26.1	14.1	3.58e-04	0	46	0	22699573248	24	13897
2026-01-28 21:22:55.65	265.29	27.04	-26.3	-26.1	14.1	3.95e-04	0	46	0	22817013760	24	13890
2026-01-28 21:22:56.66	265.76	27.05	-26.3	-26.1	14.2	3.51e-04	0	46	0	22926065664	24	13838
2026-01-28 21:22:57.67	266.23	27.06	-26.3	-26.1	14.1	3.32e-04	0	46	0	23043506176	24	13889
2026-01-28 21:22:58.67	266.70	27.06	-26.3	-26.1	14.2	3.53e-04	0	46	0	23152558080	24	13791
2026-01-28 21:22:59.68	267.17	27.07	-26.3	-26.1	14.2	2.80e-04	0	46	0	23261609984	24	13846
2026-01-28 21:23:00.66	267.63	27.07	-26.2	-26.0	14.1	3.39e-04	0	46	0	23379050496	24	13753
2026-01-28 21:23:01.67	268.10	27.07	-26.2	-26.0	14.1	3.26e-04	0	46	0	23488102400	24	13777
2026-01-28 21:23:02.68	268.57	27.07	-26.3	-26.1	14.1	2.96e-04	0	46	0	23605542912	24	13842
2026-01-28 21:23:03.68	269.04	27.06	-26.4	-26.2	14.1	3.53e-04	0	46	0	23714594816	24	14011
2026-01-28 21:23:04.69	269.51	27.06	-26.4	-26.2	14.1	3.38e-04	0	46	0	23832035328	24	14099
2026-01-28 21:23:05.70	269.98	27.05	-26.4	-26.2	14.2	2.76e-04	0	46	0	23941087232	24	14051
2026-01-28 21:23:06.70	270.45	27.04	-26.4	-26.2	14.1	2.96e-04	0	46	0	24050139136	24	13995
2026-01-28 21:23:07.70	270.91	27.03	-26.3	-26.1	14.1	2.75e-04	0	46	0	24167579648	24	13808
2026-01-28 21:23:08.71	271.38	27.02	-26.3	-26.1	14.1	2.88e-04	0	46	0	24276631552	24	13927
2026-01-28 21:23:09.72	271.85	27.00	-26.4	-26.2	14.1	3.13e-04	0	46	0	24394072064	24	13959
2026-01-28 21:23:10.73	272.32	26.98	-26.3	-26.1	14.2	3.20e-04	0	46	0	24503123968	24	13813
2026-01-28 21:23:11.74	272.79	26.97	-26.4	-26.2	14.1	3.49e-04	0	46	0	24628953088	24	13985
2026-01-28 21:23:12.75	273.26	26.94	-26.4	-26.2	14.1	3.32e-04	0	46	0	24738004992	24	14020
2026-01-28 21:23:13.76	273.72	26.92	-26.5	-26.3	14.2	3.34e-04	0	46	0	24847056896	24	14150
2026-01-28 21:23:14.76	274.19	26.90	-26.4	-26.2	14.2	2.92e-04	0	46	0	24964497408	24	13965
2026-01-28 21:23:15.77	274.65	26.87	-26.3	-26.1	14.2	3.17e-04	0	46	0	25073549312	24	13935
2026-01-28 21:23:16.78	275.12	26.84	-26.3	-26.1	14.2	2.99e-04	0	46	0	25190989824	24	13910
2026-01-28 21:23:17.79	275.58	26.81	-26.3	-26.1	14.2	2.84e-04	0	46	0	25300041728	24	13928
2026-01-28 21:23:18.80	276.04	26.78	-26.3	-26.1	14.2	2.94e-04	0	46	0	25417482240	24	13927
2026-01-28 21:23:19.81	276.50	26.75	-26.3	-26.1	14.2	2.65e-04	0	46	0	25526534144	24	13942
2026-01-28 21:23:20.81	276.96	26.71	-26.4	-26.2	14.2	2.88e-04	0	46	0	25635586048	24	14071
2026-01-28 21:23:21.81	277.42	26.68	-26.5	-26.3	14.2	3.07e-04	0	46	0	25753026560	24	14121
2026-01-28 21:23:22.82	277.87	26.64	-26.4	-26.2	14.2	2.55e-04	0	46	0	25862078464	24	14026
2026-01-28 21:23:23.82	278.33	26.60	-26.4	-26.2	14.2	2.78e-04	0	46	0	25979518976	24	14076
2026-01-28 21:23:24.83	278.78	26.55	-26.4	-26.2	14.2	2.94e-04	0	46	0	26088570880	24	14037
2026-01-28 21:23:25.84	279.24	26.51	-26.5	-26.3	14.2	2.54e-04	0	46	0	26214400000	24	14143
2026-01-28 21:23:26.85	279.69	26.46	-26.4	-26.2	14.2	2.55e-04	0	46	0	26323451904	24	14065
2026-01-28 21:23:27.86	280.14	26.42	-26.4	-26.2	14.2	2.31e-04	0	46	0	26440892416	24	14049
2026-01-28 21:23:28.86	280.59	26.37	-26.5	-26.3	14.1	2.78e-04	0	46	0	26549944320	24	14224
2026-01-28 21:23:29.87	281.04	26.32	-26.5	-26.3	14.2	2.27e-04	0	46	0	26667384832	24	14257
2026-01-28 21:23:30.87	281.48	26.27	-26.5	-26.3	14.2	2.61e-04	0	46	0	26776436736	24	14125
2026-01-28 21:23:31.88	281.92	26.21	-26.6	-26.4	14.1	2.80e-04	0	46	0	26885488640	24	14356
2026-01-28 21:23:32.89	282.37	26.16	-26.5	-26.3	14.1	3.18e-04	0	46	0	27002929152	24	14155
2026-01-28 21:23:33.90	282.81	26.10	-26.5	-26.3	14.0	2.38e-04	0	46	0	27111981056	24	14252
2026-01-28 21:23:34.90	283.25	26.04	-26.6	-26.4	14.0	2.69e-04	0	46	0	27229421568	24	14297
2026-01-28 21:23:35.91	283.69	25.98	-26.7	-26.5	14.0	3.17e-04	0	46	0	27338473472	24	14471
2026-01-28 21:23:36.91	284.12	25.92	-26.6	-26.4	14.0	2.76e-04	0	46	0	27447525376	24	14431
2026-01-28 21:23:37.92	284.55	25.86	-26.5	-26.3	14.0	2.67e-04	0	46	0	27564965888	24	14262
2026-01-28 21:23:38.93	284.99	25.79	-26.6	-26.4	14.1	2.84e-04	0	46	0	27674017792	24	14342
2026-01-28 21:23:39.93	285.41	25.73	-26.7	-26.5	14.0	2.76e-04	0	46	0	27791458304	24	14449
2026-01-28 21:23:40.94	285.84	25.66	-26.7	-26.4	14.0	2.71e-04	0	46	0	27900510208	24	14429
2026-01-28 21:23:41.95	286.27	25.59	-26.7	-26.5	14.0	2.82e-04	0	46	0	28026339328	24	14452
2026-01-28 21:23:42.96	286.70	25.52	-26.7	-26.5	14.0	3.03e-04	0	46	0	28135391232	24	14473
2026-01-28 21:23:43.96	287.12	25.45	-26.7	-26.5	14.0	2.37e-04	0	46	0	28252831744	24	14576
2026-01-28 21:23:44.97	287.54	25.38	-26.7	-26.5	14.0	2.50e-04	0	46	0	28361883648	24	14607
2026-01-28 21:23:45.98	287.96	25.31	-26.8	-26.6	14.0	3.11e-04	0	46	0	28470935552	24	14672
2026-01-28 21:23:46.99	288.37	25.23	-26.9	-26.7	14.0	3.51e-04	0	46	0	28588376064	24	14842
2026-01-28 21:23:47.99	288.79	25.16	-26.9	-26.7	13.9	2.71e-04	0	46	0	28697427968	24	14872
2026-01-28 21:23:48.99	289.19	25.08	-26.8	-26.6	13.9	2.96e-04	0	46	0	28814868480	24	14745
2026-01-28 21:23:50.00	289.60	25.00	-26.9	-26.7	13.9	2.96e-04	0	46	0	28923920384	24	14786
2026-01-28 21:23:51.01	290.01	24.92	-27.0	-26.8	13.9	3.53e-04	0	46	0	29032972288	24	14970
2026-01-28 21:23:52.02	290.42	24.84	-26.9	-26.7	13.9	3.13e-04	0	46	0	29150412800	24	14871
2026-01-28 21:23:53.02	290.82	24.76	-27.1	-26.9	13.9	3.34e-04	0	46	0	29259464704	24	15144
2026-01-28 21:23:54.03	291.22	24.68	-27.1	-26.9	13.9	3.01e-04	0	46	0	29376905216	24	15139
2026-01-28 21:23:55.04	291.62	24.59	-26.9	-26.7	13.9	3.07e-04	0	46	0	29485957120	24	14904
2026-01-28 21:23:56.05	292.02	24.51	-27.0	-26.8	13.9	3.15e-04	0	46	0	29611786240	24	14964
2026-01-28 21:23:57.05	292.41	24.43	-27.0	-26.8	13.9	3.17e-04	0	46	0	29720838144	24	15066
2026-01-28 21:23:58.06	292.80	24.34	-27.1	-26.9	13.9	2.88e-04	0	46	0	29838278656	24	15137
2026-01-28 21:23:59.07	293.19	24.25	-27.1	-26.9	13.9	3.09e-04	0	46	0	29947330560	24	15271
2026-01-28 21:24:00.08	293.58	24.16	-27.1	-27.0	13.9	3.47e-04	0	46	0	30064771072	24	15296
2026-01-28 21:24:01.08	293.96	24.07	-27.1	-26.9	13.9	3.05e-04	0	46	0	30173822976	24	15214
2026-01-28 21:24:02.09	294.34	23.98	-27.1	-26.9	13.9	2.65e-04	0	46	0	30282874880	24	15272
2026-01-28 21:24:03.09	294.72	23.89	-27.1	-26.9	13.8	3.11e-04	0	46	0	30400315392	24	15191
2026-01-28 21:24:04.10	295.10	23.80	-27.2	-27.0	13.9	3.18e-04	0	46	0	30509367296	24	15388
2026-01-28 21:24:05.11	295.47	23.71	-27.2	-27.0	13.9	2.67e-04	0	46	0	30626807808	25	14519
2026-01-28 21:24:06.12	295.85	23.61	-27.3	-27.1	13.8	3.51e-04	0	46	0	30735859712	25	14660
2026-01-28 21:24:07.13	296.22	23.52	-27.2	-27.0	13.8	2.54e-04	0	46	0	30844911616	25	14550
2026-01-28 21:24:08.14	296.59	23.43	-27.3	-27.1	13.8	3.53e-04	0	46	0	30962352128	25	14685
2026-01-28 21:24:09.13	296.95	23.33	-27.3	-27.1	13.8	3.30e-04	0	46	0	31071404032	25	14693
2026-01-28 21:24:10.14	297.31	23.24	-27.3	-27.1	13.9	2.69e-04	0	46	0	31188844544	25	14739
2026-01-28 21:24:11.15	297.67	23.14	-27.3	-27.1	13.8	3.30e-04	0	46	0	31306285056	25	14733
2026-01-28 21:24:12.15	298.03	23.04	-27.5	-27.3	13.8	3.18e-04	0	46	0	31423725568	25	15007
2026-01-28 21:24:13.16	298.38	22.94	-27.4	-27.2	13.8	2.92e-04	0	46	0	31532777472	25	14793
2026-01-28 21:24:14.17	298.74	22.84	-27.3	-27.1	13.8	3.39e-04	0	46	0	31650217984	25	14760
2026-01-28 21:24:15.18	299.09	22.75	-27.4	-27.2	13.8	2.97e-04	0	46	0	31759269888	25	14811
2026-01-28 21:24:16.19	299.44	22.65	-27.5	-27.3	13.8	3.41e-04	0	46	0	31868321792	25	14961
2026-01-28 21:24:17.19	299.78	22.55	-27.5	-27.3	13.8	2.99e-04	0	46	0	31985762304	25	15011
2026-01-28 21:24:18.20	300.13	22.45	-27.5	-27.3	13.8	3.15e-04	0	46	0	32094814208	25	15111
2026-01-28 21:24:19.20	300.46	22.35	-27.6	-27.4	13.8	3.57e-04	0	46	0	32212254720	25	15244
2026-01-28 21:24:20.21	300.80	22.24	-27.6	-27.4	13.8	2.54e-04	0	46	0	32321306624	25	15145
2026-01-28 21:24:21.22	301.14	22.14	-27.5	-27.3	13.8	3.22e-04	0	46	0	32430358528	25	15098
2026-01-28 21:24:22.23	301.48	22.04	-27.7	-27.5	13.8	3.11e-04	0	46	0	32547799040	25	15328
2026-01-28 21:24:23.24	301.81	21.94	-27.5	-27.3	13.8	3.38e-04	0	46	0	32656850944	25	15119
2026-01-28 21:24:24.25	302.14	21.83	-27.7	-27.5	13.8	3.68e-04	0	46	0	32782680064	25	15394
2026-01-28 21:24:25.25	302.46	21.73	-27.6	-27.5	13.8	3.28e-04	0	46	0	32891731968	26	14443
2026-01-28 21:24:26.26	302.79	21.63	-27.7	-27.5	13.8	3.45e-04	0	46	0	33009172480	26	14538
2026-01-28 21:24:27.27	303.11	21.52	-27.7	-27.5	13.7	2.94e-04	0	46	0	33118224384	26	14584
2026-01-28 21:24:28.27	303.43	21.42	-27.7	-27.5	13.7	3.32e-04	0	46	0	33235664896	26	14531
2026-01-28 21:24:29.27	303.74	21.31	-27.8	-27.6	13.7	3.47e-04	0	46	0	33344716800	26	14706
2026-01-28 21:24:30.28	304.06	21.21	-27.7	-27.5	13.8	2.97e-04	0	46	0	33462157312	26	14511
2026-01-28 21:24:31.28	304.37	21.10	-27.8	-27.6	13.7	2.69e-04	0	46	0	33571209216	26	14679
2026-01-28 21:24:32.29	304.68	21.00	-27.8	-27.6	13.7	3.76e-04	0	46	0	33680261120	26	14752
2026-01-28 21:24:33.30	304.98	20.89	-27.8	-27.6	13.7	3.18e-04	0	46	0	33797701632	26	14759
2026-01-28 21:24:34.31	305.29	20.79	-27.8	-27.6	13.7	3.17e-04	0	46	0	33906753536	26	14766
2026-01-28 21:24:35.31	305.59	20.68	-27.9	-27.7	13.8	3.43e-04	0	46	0	34024194048	26	14835
2026-01-28 21:24:36.32	305.89	20.57	-27.9	-27.7	13.7	3.28e-04	0	46	0	34133245952	26	14811
2026-01-28 21:24:37.33	306.19	20.47	-28.1	-27.9	13.7	3.43e-04	0	46	0	34242297856	26	15202
2026-01-28 21:24:38.33	306.49	20.36	-28.0	-27.8	13.7	3.55e-04	0	46	0	34359738368	26	15039
2026-01-28 21:24:39.33	306.78	20.25	-28.0	-27.8	13.7	3.32e-04	0	46	0	34468790272	26	15021
2026-01-28 21:24:40.34	307.07	20.15	-28.1	-27.9	13.8	2.94e-04	0	46	0	34586230784	26	15130
2026-01-28 21:24:41.34	307.36	20.04	-28.0	-27.8	13.7	3.07e-04	0	46	0	34703671296	26	15040
2026-01-28 21:24:42.35	307.65	19.93	-28.1	-27.9	13.7	3.36e-04	0	46	0	34821111808	26	15148
2026-01-28 21:24:43.36	307.93	19.83	-28.1	-27.9	13.7	3.17e-04	0	46	0	34930163712	26	15142
2026-01-28 21:24:44.37	308.22	19.72	-28.2	-28.0	13.7	3.22e-04	0	46	0	35047604224	26	15353
2026-01-28 21:24:45.38	308.50	19.61	-28.2	-28.0	13.7	2.92e-04	0	46	0	35156656128	27	14500
2026-01-28 21:24:46.38	308.77	19.51	-28.3	-28.1	13.7	3.22e-04	0	46	0	35265708032	27	14635
2026-01-28 21:24:47.39	309.05	19.40	-28.3	-28.1	13.7	3.30e-04	0	46	0	35383148544	27	14760
2026-01-28 21:24:48.40	309.33	19.29	-28.3	-28.1	13.7	3.20e-04	0	46	0	35492200448	27	14620
2026-01-28 21:24:49.41	309.60	19.18	-28.3	-28.1	13.7	3.32e-04	0	46	0	35609640960	27	14735
2026-01-28 21:24:50.42	309.87	19.07	-28.4	-28.2	13.7	3.20e-04	0	46	0	35718692864	27	14813
2026-01-28 21:24:51.42	310.13	18.97	-28.4	-28.2	13.7	2.82e-04	0	46	0	35827744768	27	14779
2026-01-28 21:24:52.43	310.40	18.86	-28.5	-28.3	13.7	3.24e-04	0	46	0	35945185280	27	14989
2026-01-28 21:24:53.43	310.66	18.75	-28.5	-28.3	13.7	3.32e-04	0	46	0	36054237184	27	15034
2026-01-28 21:24:54.44	310.93	18.65	-28.5	-28.3	13.7	3.01e-04	0	46	0	36180066304	27	15065
2026-01-28 21:24:55.45	311.19	18.54	-28.7	-28.5	13.8	3.36e-04	0	46	0	36289118208	27	15315
2026-01-28 21:24:56.46	311.44	18.43	-28.5	-28.3	13.8	3.13e-04	0	46	0	36406558720	27	15079
2026-01-28 21:24:57.46	311.70	18.33	-28.5	-28.3	13.8	2.96e-04	0	46	0	36515610624	27	15071
2026-01-28 21:24:58.47	311.95	18.22	-28.5	-28.3	13.8	3.28e-04	0	46	0	36633051136	27	15086
2026-01-28 21:24:59.47	312.20	18.11	-28.7	-28.4	13.7	3.36e-04	0	46	0	36742103040	27	15290
2026-01-28 21:25:00.47	312.45	18.01	-28.6	-28.4	13.7	3.41e-04	0	46	0	36859543552	27	15234
2026-01-28 21:25:01.48	312.70	17.90	-28.6	-28.5	13.8	3.11e-04	0	46	0	36968595456	28	14449
2026-01-28 21:25:02.49	312.94	17.79	-28.7	-28.5	13.7	3.34e-04	0	46	0	37077647360	28	14468
2026-01-28 21:25:03.49	313.19	17.69	-28.7	-28.5	13.7	3.58e-04	0	46	0	37195087872	28	14551
2026-01-28 21:25:04.49	313.43	17.58	-28.8	-28.6	13.7	3.36e-04	0	46	0	37304139776	28	14680
2026-01-28 21:25:05.50	313.67	17.47	-28.7	-28.5	13.7	3.43e-04	0	46	0	37421580288	28	14562
2026-01-28 21:25:06.50	313.90	17.37	-28.7	-28.5	13.8	3.34e-04	0	46	0	37530632192	28	14562
2026-01-28 21:25:07.51	314.14	17.26	-28.8	-28.6	13.8	3.41e-04	0	46	0	37639684096	28	14643
2026-01-28 21:25:08.51	314.37	17.16	-28.8	-28.6	13.8	2.84e-04	0	46	0	37757124608	28	14693
2026-01-28 21:25:09.52	314.61	17.05	-28.8	-28.7	13.7	3.87e-04	0	46	0	37866176512	28	14784
2026-01-28 21:25:10.52	314.84	16.95	-28.9	-28.7	13.8	3.57e-04	0	46	0	37983617024	28	14848
2026-01-28 21:25:11.53	315.07	16.84	-28.9	-28.7	13.8	3.83e-04	0	46	0	38092668928	28	14793
2026-01-28 21:25:12.53	315.29	16.74	-28.9	-28.7	13.8	3.22e-04	0	46	0	38201720832	28	14897
2026-01-28 21:25:13.54	315.52	16.63	-28.9	-28.7	13.8	4.18e-04	0	46	0	38319161344	28	14907
2026-01-28 21:25:14.54	315.74	16.53	-28.9	-28.7	13.8	4.02e-04	0	46	0	38444990464	28	14921
2026-01-28 21:25:15.55	315.96	16.42	-29.0	-28.8	13.9	4.02e-04	0	46	0	38554042368	28	15027
2026-01-28 21:25:16.56	316.18	16.32	-29.0	-28.8	13.8	3.66e-04	0	46	0	38663094272	28	15018
2026-01-28 21:25:17.56	316.40	16.22	-29.1	-28.9	13.8	4.40e-04	0	46	0	38780534784	28	15195
2026-01-28 21:25:18.57	316.62	16.11	-29.1	-28.9	13.8	4.56e-04	0	46	0	38889586688	29	14429
2026-01-28 21:25:19.58	316.83	16.01	-29.3	-29.1	13.8	5.02e-04	0	46	0	39007027200	29	14744
2026-01-28 21:25:20.58	317.04	15.91	-29.2	-29.0	13.8	4.20e-04	0	46	0	39116079104	29	14464
2026-01-28 21:25:21.59	317.26	15.80	-29.3	-29.1	13.8	4.46e-04	0	46	0	39225131008	29	14665
2026-01-28 21:25:22.61	317.47	15.70	-29.3	-29.1	13.8	4.58e-04	0	46	0	39342571520	29	14622
2026-01-28 21:25:23.61	317.68	15.60	-29.4	-29.2	13.8	3.97e-04	0	46	0	39451623424	29	14822
2026-01-28 21:25:24.62	317.88	15.49	-29.3	-29.1	13.8	4.79e-04	0	46	0	39569063936	29	14691
2026-01-28 21:25:25.62	318.09	15.39	-29.3	-29.1	13.8	4.37e-04	0	46	0	39678115840	29	14739
2026-01-28 21:25:26.63	318.29	15.29	-29.4	-29.2	13.8	4.16e-04	0	46	0	39795556352	29	14794
2026-01-28 21:25:27.63	318.49	15.19	-29.5	-29.3	13.8	4.54e-04	0	46	0	39904608256	29	15036
2026-01-28 21:25:28.64	318.70	15.09	-29.5	-29.3	13.8	4.58e-04	0	46	0	40013660160	29	15060
2026-01-28 21:25:29.65	318.89	14.98	-29.5	-29.3	13.8	4.56e-04	0	46	0	40139489280	29	14984
2026-01-28 21:25:30.65	319.09	14.88	-29.5	-29.4	13.8	4.86e-04	0	46	0	40256929792	29	15122
2026-01-28 21:25:31.65	319.29	14.78	-29.5	-29.4	13.8	4.88e-04	0	46	0	40365981696	29	15127
2026-01-28 21:25:32.66	319.48	14.68	-29.7	-29.5	13.8	4.39e-04	0	46	0	40475033600	29	15326
2026-01-28 21:25:33.67	319.67	14.58	-29.7	-29.5	13.8	4.88e-04	0	46	0	40592474112	30	14512
2026-01-28 21:25:34.68	319.87	14.48	-29.7	-29.5	13.8	4.39e-04	0	46	0	40701526016	30	14509
2026-01-28 21:25:35.68	320.06	14.38	-29.7	-29.5	13.8	5.03e-04	0	46	0	40818966528	30	14451
2026-01-28 21:25:36.69	320.25	14.28	-29.7	-29.5	13.8	5.36e-04	0	46	0	40928018432	30	14551
2026-01-28 21:25:37.69	320.43	14.18	-29.7	-29.5	13.8	5.34e-04	0	46	0	41037070336	30	14566
2026-01-28 21:25:38.70	320.62	14.08	-29.7	-29.5	13.8	5.23e-04	0	46	0	41154510848	30	14515
2026-01-28 21:25:39.71	320.80	13.99	-29.7	-29.5	13.8	4.81e-04	0	46	0	41263562752	30	14607
2026-01-28 21:25:40.72	320.99	13.89	-29.8	-29.6	13.8	5.65e-04	0	46	0	41381003264	30	14726
2026-01-28 21:25:41.73	321.17	13.79	-29.8	-29.7	13.8	5.97e-04	0	46	0	41490055168	30	14788
2026-01-28 21:25:42.73	321.35	13.69	-29.8	-29.6	13.8	4.86e-04	0	46	0	41599107072	30	14661
2026-01-28 21:25:43.74	321.53	13.59	-29.9	-29.7	13.8	5.93e-04	0	46	0	41716547584	30	14799
2026-01-28 21:25:44.75	321.71	13.50	-29.9	-29.7	13.8	5.15e-04	0	46	0	41842376704	30	14942
2026-01-28 21:25:45.75	321.88	13.40	-30.0	-29.8	13.8	5.28e-04	0	46	0	41951428608	30	15049
2026-01-28 21:25:46.76	322.06	13.30	-30.2	-30.0	13.8	6.10e-04	0	46	0	42060480512	30	15417
2026-01-28 21:25:47.77	322.23	13.21	-30.0	-29.8	13.9	4.81e-04	0	46	0	42177921024	30	15074
2026-01-28 21:25:48.78	322.40	13.11	-30.0	-29.8	13.9	5.11e-04	0	46	0	42286972928	30	15008
2026-01-28 21:25:49.79	322.58	13.01	-30.1	-29.9	13.8	5.45e-04	0	46	0	42404413440	30	15172
2026-01-28 21:25:50.80	322.75	12.92	-30.1	-29.9	13.8	5.45e-04	0	46	0	42513465344	30	15170
2026-01-28 21:25:51.80	322.91	12.82	-30.1	-29.9	13.8	5.87e-04	0	46	0	42622517248	30	15222
2026-01-28 21:25:52.81	323.08	12.73	-30.1	-29.9	13.8	5.72e-04	0	46	0	42739957760	30	15240
2026-01-28 21:25:53.81	323.25	12.63	-30.2	-30.0	13.9	6.35e-04	0	46	0	42849009664	31	14563
2026-01-28 21:25:54.82	323.41	12.54	-30.2	-30.0	13.9	5.78e-04	0	46	0	42966450176	31	14569
2026-01-28 21:25:55.83	323.58	12.44	-30.2	-30.0	13.8	6.08e-04	0	46	0	43075502080	31	14598
2026-01-28 21:25:56.83	323.74	12.35	-30.3	-30.1	13.9	6.41e-04	0	46	0	43192942592	31	14671
2026-01-28 21:25:57.84	323.90	12.25	-52.8	-54.6	6.2	0.00e+00	0	46	104	43209719808	76	18437
2026-01-28 21:25:58.85	324.06	12.16	-53.5	-55.6	6.2	0.00e+00	0	46	104	43209719808	77	19663
2026-01-28 21:25:59.85	324.22	12.07	-53.5	-55.6	6.2	0.00e+00	0	46	104	43209719808	77	19528
2026-01-28 21:26:00.85	324.38	11.98	-53.5	-55.6	6.2	0.00e+00	0	46	104	43209719808	77	19505
2026-01-28 21:26:01.85	324.53	11.88	-53.5	-55.6	6.2	0.00e+00	0	46	104	43209719808	77	19554
2026-01-28 21:26:02.86	324.69	11.79	-53.5	-55.6	6.2	0.00e+00	0	46	104	43209719808	77	19508
2026-01-28 21:26:03.87	324.84	11.70	-53.5	-55.6	6.2	0.00e+00	0	46	104	43209719808	77	19636
2026-01-28 21:26:04.87	324.99	11.61	-53.5	-55.6	6.2	0.00e+00	0	46	104	43209719808	77	19529
2026-01-28 21:26:05.88	325.15	11.52	-53.6	-55.7	6.2	0.00e+00	0	46	104	43209719808	77	19724
2026-01-28 21:26:06.88	325.30	11.43	-53.5	-55.6	6.2	0.00e+00	0	46	104	43209719808	77	19548
2026-01-28 21:26:07.89	325.45	11.33	-53.5	-55.5	6.2	0.00e+00	0	46	104	43209719808	77	19444
2026-01-28 21:26:08.90	325.60	11.24	-53.4	-55.5	6.2	0.00e+00	0	46	104	43209719808	77	19406
2026-01-28 21:26:09.90	325.75	11.15	-53.5	-55.6	6.2	0.00e+00	0	46	104	43209719808	77	19546
2026-01-28 21:26:10.91	325.89	11.06	-53.5	-55.6	6.2	0.00e+00	0	46	104	43209719808	77	19493
2026-01-28 21:26:11.92	326.04	10.97	-53.4	-55.5	6.2	0.00e+00	0	46	104	43209719808	77	19367
2026-01-28 21:26:12.93	326.19	10.88	-53.4	-55.5	6.2	0.00e+00	0	46	104	43209719808	77	19326
2026-01-28 21:26:13.94	326.33	10.79	-53.4	-55.5	6.2	0.00e+00	0	46	104	43209719808	77	19445
2026-01-28 21:26:14.95	326.47	10.70	-53.4	-55.5	6.2	0.00e+00	0	46	104	43209719808	77	19316
2026-01-28 21:26:15.95	326.61	10.62	-53.4	-55.5	6.2	0.00e+00	0	46	104	43209719808	77	19266
2026-01-28 21:26:16.96	326.76	10.53	-53.3	-55.4	6.2	0.00e+00	0	46	104	43209719808	77	19207
2026-01-28 21:26:17.97	326.90	10.44	-53.4	-55.5	6.2	0.00e+00	0	46	104	43209719808	77	19297
2026-01-28 21:26:18.97	327.03	10.35	-53.3	-55.4	6.2	0.00e+00	0	46	104	43209719808	77	19188
2026-01-28 21:26:19.98	327.17	10.26	-53.3	-55.4	6.2	0.00e+00	0	46	104	43209719808	77	19135
2026-01-28 21:26:20.98	327.31	10.18	-53.3	-55.4	6.2	0.00e+00	0	46	104	43209719808	77	19094
2026-01-28 21:26:21.98	327.44	10.09	-53.3	-55.4	6.2	0.00e+00	0	46	104	43209719808	77	19185
2026-01-28 21:26:22.99	327.58	10.00	-53.3	-55.4	6.2	0.00e+00	0	46	104	43209719808	77	19036
2026-01-28 21:26:23.99	327.71	9.92	-53.2	-55.3	6.2	0.00e+00	0	46	104	43209719808	77	18956
2026-01-28 21:26:25.00	327.85	9.83	-53.2	-55.3	6.2	0.00e+00	0	46	104	43209719808	77	18884
2026-01-28 21:26:26.01	327.98	9.74	-53.3	-55.3	6.2	0.00e+00	0	46	104	43209719808	77	19021
2026-01-28 21:26:27.01	328.11	9.66	-53.2	-55.3	6.2	0.00e+00	0	46	104	43209719808	77	18903
2026-01-28 21:26:28.02	328.24	9.57	-53.2	-55.2	6.2	0.00e+00	0	46	104	43209719808	77	18757
2026-01-28 21:26:29.03	328.37	9.49	-53.1	-55.2	6.2	0.00e+00	0	46	104	43209719808	77	18741
2026-01-28 21:26:30.04	328.50	9.40	-53.2	-55.3	6.2	0.00e+00	0	46	104	43209719808	77	18916
2026-01-28 21:26:31.04	328.63	9.32	-53.1	-55.2	6.2	0.00e+00	0	46	104	43209719808	77	18727
2026-01-28 21:26:32.05	328.76	9.23	-53.1	-55.1	6.2	0.00e+00	0	46	104	43209719808	77	18584
2026-01-28 21:26:33.05	328.88	9.15	-53.1	-55.1	6.2	0.00e+00	0	46	104	43209719808	77	18583
2026-01-28 21:26:34.06	329.01	9.07	-53.1	-55.2	6.2	0.00e+00	0	46	104	43209719808	77	18801
2026-01-28 21:26:35.07	329.13	8.98	-53.0	-55.1	6.2	0.00e+00	0	46	104	43209719808	77	18570
2026-01-28 21:26:36.07	329.26	8.90	-53.0	-55.1	6.2	0.00e+00	0	46	104	43209719808	77	18519
2026-01-28 21:26:37.08	329.38	8.82	-53.0	-55.1	6.2	0.00e+00	0	46	104	43209719808	77	18539
2026-01-28 21:26:38.09	329.50	8.73	-53.0	-55.2	6.2	0.00e+00	0	46	104	43209719808	77	18645
2026-01-28 21:26:39.09	329.62	8.65	-53.0	-55.1	6.2	0.00e+00	0	46	104	43209719808	77	18455
2026-01-28 21:26:40.10	329.74	8.57	-52.9	-55.1	6.2	0.00e+00	0	46	104	43209719808	77	18441
2026-01-28 21:26:41.11	329.87	8.49	-52.9	-55.0	6.2	0.00e+00	0	46	104	43209719808	77	18318
2026-01-28 21:26:42.11	329.98	8.40	-53.0	-55.1	6.2	0.00e+00	0	46	104	43209719808	77	18486
2026-01-28 21:26:43.12	330.10	8.32	-52.9	-55.0	6.2	0.00e+00	0	46	104	43209719808	77	18389
2026-01-28 21:26:44.12	330.22	8.24	-52.9	-55.0	6.2	0.00e+00	0	46	104	43209719808	77	18364
2026-01-28 21:26:45.13	330.34	8.16	-52.9	-55.0	6.2	0.00e+00	0	46	104	43209719808	77	18268
2026-01-28 21:26:46.13	330.45	8.08	-53.0	-55.0	6.2	0.00e+00	0	46	104	43209719808	77	18386
2026-01-28 21:26:47.14	330.57	8.00	-52.9	-55.0	6.2	0.00e+00	0	46	104	43209719808	77	18245
2026-01-28 21:26:48.15	330.68	7.92	-52.9	-55.0	6.2	0.00e+00	0	46	104	43209719808	77	18217
2026-01-28 21:26:49.16	330.80	7.84	-52.9	-54.9	6.2	0.00e+00	0	46	104	43209719808	77	18150
2026-01-28 21:26:50.17	330.91	7.76	-52.9	-55.0	6.2	0.00e+00	0	46	104	43209719808	77	18245
2026-01-28 21:26:51.18	331.02	7.68	-52.8	-54.9	6.2	0.00e+00	0	46	104	43209719808	77	18139
2026-01-28 21:26:52.18	331.13	7.60	-52.8	-54.9	6.2	0.00e+00	0	46	104	43209719808	77	18080
2026-01-28 21:26:53.19	331.25	7.52	-52.8	-54.9	6.2	0.00e+00	0	45	104	43209719808	77	18079
2026-01-28 21:26:54.19	331.36	7.44	-52.9	-54.9	6.2	0.00e+00	0	46	104	43209719808	77	18154
2026-01-28 21:26:55.20	331.47	7.36	-52.8	-54.9	6.2	0.00e+00	0	46	104	43209719808	77	18047
2026-01-28 21:26:56.20	331.57	7.29	-52.8	-54.9	6.2	0.00e+00	0	46	104	43209719808	77	18067
2026-01-28 21:26:57.21	331.68	7.21	-52.8	-54.9	6.2	0.00e+00	0	46	104	43209719808	77	18023
2026-01-28 21:26:58.22	331.79	7.13	-52.8	-54.9	6.2	0.00e+00	0	46	104	43209719808	77	18124
2026-01-28 21:26:59.22	331.90	7.05	-52.8	-54.9	6.2	0.00e+00	0	46	104	43209719808	77	18034
2026-01-28 21:27:00.23	332.00	6.97	-52.8	-54.8	6.2	0.00e+00	0	45	104	43209719808	77	17960
2026-01-28 21:27:01.24	332.11	6.90	-52.7	-54.8	6.2	0.00e+00	0	45	104	43209719808	77	17866
2026-01-28 21:27:02.24	332.21	6.82	-52.8	-54.9	6.2	0.00e+00	0	45	104	43209719808	77	18013
2026-01-28 21:27:03.25	332.32	6.74	-52.7	-54.8	6.2	0.00e+00	0	46	104	43209719808	77	17922
2026-01-28 21:27:04.26	332.42	6.67	-52.7	-54.8	6.2	0.00e+00	0	45	104	43209719808	77	17871
2026-01-28 21:27:05.26	332.53	6.59	-52.7	-54.8	6.2	0.00e+00	0	46	104	43209719808	77	17888
2026-01-28 21:27:06.27	332.63	6.51	-52.7	-54.8	6.2	0.00e+00	0	46	104	43209719808	77	17882
2026-01-28 21:27:07.28	332.73	6.44	-52.7	-54.8	6.2	0.00e+00	0	46	104	43209719808	77	17774
2026-01-28 21:27:08.28	332.83	6.36	-52.7	-54.8	6.2	0.00e+00	0	46	104	43209719808	77	17788
2026-01-28 21:27:09.29	332.93	6.29	-52.6	-54.7	6.2	0.00e+00	0	46	104	43209719808	77	17749
2026-01-28 21:27:10.29	333.03	6.21	-52.7	-54.8	6.2	0.00e+00	0	46	104	43209719808	77	17865
2026-01-28 21:27:11.30	333.13	6.14	-52.6	-54.7	6.2	0.00e+00	0	46	104	43209719808	77	17693
2026-01-28 21:27:12.31	333.23	6.06	-52.6	-54.7	6.2	0.00e+00	0	45	104	43209719808	77	17651
2026-01-28 21:27:13.32	333.33	5.99	-52.6	-54.6	6.2	0.00e+00	0	46	104	43209719808	77	17537
2026-01-28 21:27:14.33	333.43	5.91	-52.6	-54.7	6.2	0.00e+00	0	46	104	43209719808	77	17693
2026-01-28 21:27:15.33	333.52	5.84	-52.5	-54.6	6.2	0.00e+00	0	45	104	43209719808	77	17531
2026-01-28 21:27:16.34	333.62	5.77	-52.5	-54.6	6.2	0.00e+00	0	45	104	43209719808	77	17494
2026-01-28 21:27:17.34	333.72	5.69	-52.5	-54.6	6.2	0.00e+00	0	46	104	43209719808	76	18422
2026-01-28 21:27:18.34	333.81	5.62	-52.5	-54.6	6.2	0.00e+00	0	46	104	43209719808	76	18521
2026-01-28 21:27:19.35	333.91	5.55	-52.4	-54.5	6.2	0.00e+00	0	46	104	43209719808	76	18300
2026-01-28 21:27:20.35	334.00	5.47	-52.4	-54.5	6.2	0.00e+00	0	45	104	43209719808	76	18271
2026-01-28 21:27:21.35	334.09	5.40	-52.3	-54.4	6.2	0.00e+00	0	45	104	43209719808	76	18150
2026-01-28 21:27:22.36	334.19	5.33	-52.4	-54.4	6.2	0.00e+00	0	45	104	43209719808	76	18157
2026-01-28 21:27:23.36	334.28	5.26	-52.2	-54.3	6.2	0.00e+00	0	45	104	43209719808	75	18890
2026-01-28 21:27:24.37	334.37	5.18	-52.2	-54.3	6.2	0.00e+00	0	45	104	43209719808	75	18891
2026-01-28 21:27:25.38	334.46	5.11	-52.1	-54.2	6.2	0.00e+00	0	46	104	43209719808	75	18634
2026-01-28 21:27:26.39	334.55	5.04	-52.4	-54.5	6.2	0.00e+00	0	46	104	43209719808	75	19477
2026-01-28 21:27:27.40	334.64	4.97	-53.1	-55.2	6.2	0.00e+00	0	46	104	43209719808	76	19730
2026-01-28 21:27:28.41	334.73	4.90	-53.4	-55.5	6.2	0.00e+00	0	45	104	43209719808	77	19359
2026-01-28 21:27:29.41	334.82	4.82	-53.6	-55.7	6.2	0.00e+00	0	46	104	43209719808	77	19780
2026-01-28 21:27:30.42	334.91	4.75	-53.8	-55.9	6.2	0.00e+00	0	45	104	43209719808	78	19059
2026-01-28 21:27:31.43	335.00	4.68	-53.9	-56.0	6.2	0.00e+00	0	45	104	43209719808	78	19295
2026-01-28 21:27:32.44	335.09	4.61	-53.9	-56.0	6.2	0.00e+00	0	46	104	43209719808	78	19327
2026-01-28 21:27:33.44	335.18	4.54	-53.9	-56.0	6.2	0.00e+00	0	45	104	43209719808	78	19355
2026-01-28 21:27:34.45	335.26	4.47	-53.9	-55.9	6.2	0.00e+00	0	46	104	43209719808	78	19251
2026-01-28 21:27:35.46	335.35	4.40	-53.8	-55.9	6.2	0.00e+00	0	46	104	43209719808	78	19177
2026-01-28 21:27:36.46	335.44	4.33	-53.8	-55.9	6.2	0.00e+00	0	46	104	43209719808	78	19111
2026-01-28 21:27:37.47	335.52	4.26	-53.7	-55.8	6.2	0.00e+00	0	45	104	43209719808	78	18918
2026-01-28 21:27:38.48	335.61	4.19	-53.6	-55.7	6.2	0.00e+00	0	45	104	43209719808	78	18703
2026-01-28 21:27:39.49	335.69	4.12	-53.5	-55.6	6.2	0.00e+00	0	46	104	43209719808	78	18534
2026-01-28 21:27:40.49	335.78	4.05	-53.5	-55.6	6.2	0.00e+00	0	46	104	43209719808	78	18591
2026-01-28 21:27:41.50	335.86	3.98	-53.6	-55.7	6.2	0.00e+00	0	45	104	43209719808	78	18674
2026-01-28 21:27:42.51	335.94	3.92	-53.6	-55.7	6.2	0.00e+00	0	45	104	43209719808	78	18690
2026-01-28 21:27:43.51	336.03	3.85	-53.6	-55.7	6.2	0.00e+00	0	45	104	43209719808	78	18694
2026-01-28 21:27:44.52	336.11	3.78	-53.6	-55.7	6.2	0.00e+00	0	45	104	43209719808	78	18772
2026-01-28 21:27:45.53	336.19	3.71	-53.6	-55.7	6.2	0.00e+00	0	45	104	43209719808	78	18735
2026-01-28 21:27:46.54	336.27	3.64	-53.7	-55.8	6.2	0.00e+00	0	46	104	43209719808	78	18846
2026-01-28 21:27:47.55	336.36	3.57	-53.7	-55.7	6.2	0.00e+00	0	46	104	43209719808	78	18800
2026-01-28 21:27:48.56	336.44	3.51	-53.7	-55.7	6.2	0.00e+00	0	45	104	43209719808	78	18786
2026-01-28 21:27:49.57	336.52	3.44	-53.6	-55.7	6.2	0.00e+00	0	45	104	43209719808	78	18701
2026-01-28 21:27:50.57	336.60	3.37	-53.6	-55.7	6.2	0.00e+00	0	45	104	43209719808	78	18672
2026-01-28 21:27:51.58	336.68	3.30	-53.6	-55.7	6.2	0.00e+00	0	46	104	43209719808	78	18610
2026-01-28 21:27:52.59	336.75	3.24	-53.6	-55.7	6.2	0.00e+00	0	45	104	43209719808	78	18603
2026-01-28 21:27:53.59	336.83	3.17	-53.6	-55.6	6.2	0.00e+00	0	46	104	43209719808	78	18573
2026-01-28 21:27:54.60	336.91	3.10	-53.5	-55.6	6.2	0.00e+00	0	46	104	43209719808	78	18525
2026-01-28 21:27:55.60	336.99	3.04	-53.5	-55.6	6.2	0.00e+00	0	46	104	43209719808	78	18557
2026-01-28 21:27:56.61	337.07	2.97	-53.5	-55.6	6.2	0.00e+00	0	45	104	43209719808	78	18524
2026-01-28 21:27:57.62	337.14	2.91	-53.5	-55.6	6.2	0.00e+00	0	45	104	43209719808	78	18500
2026-01-28 21:27:58.63	337.22	2.84	-53.5	-55.6	6.2	0.00e+00	0	46	104	43209719808	78	18526
2026-01-28 21:27:59.63	337.30	2.77	-53.5	-55.6	6.2	0.00e+00	0	45	104	43209719808	78	18492
2026-01-28 21:28:00.64	337.37	2.71	-53.5	-55.6	6.2	0.00e+00	0	46	104	43209719808	78	18521
2026-01-28 21:28:01.65	337.45	2.64	-53.5	-55.6	6.2	0.00e+00	0	46	104	43209719808	78	18451
2026-01-28 21:28:02.66	337.52	2.58	-53.5	-55.6	6.2	0.00e+00	0	46	104	43209719808	78	18431
2026-01-28 21:28:03.67	337.60	2.51	-53.4	-55.5	6.2	0.00e+00	0	46	104	43209719808	78	18339
2026-01-28 21:28:04.68	337.67	2.45	-53.4	-55.5	6.2	0.00e+00	0	46	104	43209719808	78	18339
2026-01-28 21:28:05.68	337.74	2.38	-53.4	-55.5	6.2	0.00e+00	0	46	104	43209719808	78	18367
2026-01-28 21:28:06.69	337.82	2.32	-53.4	-55.5	6.2	0.00e+00	0	45	104	43209719808	78	18216
2026-01-28 21:28:07.69	337.89	2.25	-53.4	-55.5	6.2	0.00e+00	0	46	104	43209719808	78	18266
2026-01-28 21:28:08.69	337.96	2.19	-53.4	-55.5	6.2	0.00e+00	0	45	104	43209719808	78	18217
2026-01-28 21:28:09.70	338.04	2.12	-53.4	-55.5	6.2	0.00e+00	0	45	104	43209719808	78	18180
2026-01-28 21:28:10.71	338.11	2.06	-53.3	-55.4	6.2	0.00e+00	0	45	104	43209719808	78	18168
2026-01-28 21:28:11.72	338.18	2.00	-53.3	-55.5	6.2	0.00e+00	0	46	104	43209719808	78	18184
2026-01-28 21:28:12.73	338.25	1.93	-53.3	-55.4	6.2	0.00e+00	0	45	104	43209719808	78	18131
2026-01-28 21:28:13.73	338.32	1.87	-53.3	-55.4	6.2	0.00e+00	0	45	104	43209719808	78	18085

#Closed at: 2026-01-28 21:28:14
#Recorded file [43209 MB]: D:/lorett/data/31041_260129_001751.dat