passes_logs/2026/01/28/R3.2S_Murmansk/R3.2S_Murmansk__20260128_040443_AQUA_rec.log

#Pass ID: 20260128_040443_AQUA
#Satellite: AQUA
#Configuration: AQUA
#almurnet v.1.7.20251203
#Start time: 2026-01-28 04:04:45

#Version: 2.2.20231116
#Station: R3.2S_Murmansk
#Location: 33.079688 lon 68.888172 lat
#TLE: 1 27424U 02022A   26027.29059822  .00001896  00000+0  38917-3 0  9993
#TLE: 2 27424  98.4102 353.9260 0001849  63.9098  72.6772 14.61866390262689

#Time	Az	El	Level	Level2	SNR	BER	BlckErr	Temp	State	Recorded	gain1	gain2
2026-01-28 04:04:45.98	30.37	2.13	-54.5	-72.4	3.8	7.46e-01	0	41	0	0	79	30148
2026-01-28 04:04:46.98	30.32	2.20	-54.5	-72.4	3.8	7.45e-01	0	41	104	0	79	30265
2026-01-28 04:04:47.99	30.27	2.26	-54.5	-72.4	3.8	7.46e-01	0	41	104	0	79	30160
2026-01-28 04:04:49.00	30.23	2.33	-54.5	-72.4	3.8	7.47e-01	0	41	104	0	79	30176
2026-01-28 04:04:50.01	30.18	2.39	-54.5	-72.4	3.8	7.48e-01	0	41	104	0	79	30138
2026-01-28 04:04:51.01	30.13	2.45	-54.6	-72.4	3.8	7.47e-01	0	42	104	0	79	30179
2026-01-28 04:04:52.02	30.08	2.52	-54.5	-72.4	3.8	7.47e-01	0	41	104	0	79	30133
2026-01-28 04:04:53.03	30.04	2.58	-54.5	-72.4	3.8	7.48e-01	0	42	104	0	79	30159
2026-01-28 04:04:54.04	29.99	2.65	-54.5	-72.4	3.8	7.43e-01	0	41	104	0	79	30182
2026-01-28 04:04:55.05	29.94	2.71	-54.5	-72.4	3.8	7.46e-01	0	42	104	0	79	30155
2026-01-28 04:04:56.05	29.89	2.78	-54.5	-72.4	3.8	7.46e-01	0	42	104	0	79	30110
2026-01-28 04:04:57.06	29.84	2.84	-54.5	-72.4	3.8	7.45e-01	0	42	104	0	79	30150
2026-01-28 04:04:58.07	29.79	2.91	-54.5	-72.4	3.8	7.43e-01	0	41	104	0	79	30109
2026-01-28 04:04:59.07	29.74	2.98	-54.5	-72.4	3.8	7.46e-01	0	42	104	0	79	30136
2026-01-28 04:05:00.08	29.69	3.04	-54.5	-72.4	3.8	7.45e-01	0	42	104	0	79	30144
2026-01-28 04:05:01.09	29.64	3.11	-54.5	-72.4	3.8	7.45e-01	0	42	104	0	79	30174
2026-01-28 04:05:02.10	29.59	3.17	-54.5	-72.4	3.8	7.44e-01	0	42	104	0	79	30150
2026-01-28 04:05:03.11	29.54	3.24	-54.5	-72.4	3.8	7.46e-01	0	42	104	0	79	30136
2026-01-28 04:05:04.11	29.49	3.31	-54.5	-72.4	3.8	7.44e-01	0	42	104	0	79	30107
2026-01-28 04:05:05.12	29.44	3.37	-54.5	-72.4	3.8	7.45e-01	0	42	104	0	79	30128
2026-01-28 04:05:06.13	29.39	3.44	-54.5	-72.4	3.8	7.45e-01	0	42	104	0	79	30124
2026-01-28 04:05:07.13	29.33	3.51	-54.5	-72.4	3.8	7.45e-01	0	42	104	0	79	30040
2026-01-28 04:05:08.14	29.28	3.57	-54.5	-72.4	3.8	7.46e-01	0	42	104	0	79	30224
2026-01-28 04:05:09.15	29.23	3.64	-54.5	-72.4	3.8	7.48e-01	0	42	104	0	79	30151
2026-01-28 04:05:10.16	29.18	3.71	-54.5	-72.4	3.8	7.44e-01	0	42	104	0	79	30111
2026-01-28 04:05:11.17	29.12	3.78	-54.5	-72.4	3.8	7.43e-01	0	42	104	0	79	30171
2026-01-28 04:05:12.18	29.07	3.84	-54.5	-72.4	3.8	7.46e-01	0	42	104	0	79	30148
2026-01-28 04:05:13.19	29.02	3.91	-54.5	-72.4	3.8	7.48e-01	0	42	104	0	79	30190
2026-01-28 04:05:14.19	28.96	3.98	-54.5	-72.4	3.8	7.48e-01	0	42	104	0	79	30171
2026-01-28 04:05:15.21	28.91	4.05	-54.5	-72.4	3.8	7.45e-01	0	42	104	0	79	30131
2026-01-28 04:05:16.22	28.85	4.12	-54.5	-72.4	3.8	7.45e-01	0	42	104	0	79	30173
2026-01-28 04:05:17.22	28.80	4.19	-54.5	-72.4	3.8	7.43e-01	0	42	104	0	79	30157
2026-01-28 04:05:18.23	28.74	4.26	-54.5	-72.4	3.8	7.43e-01	0	42	104	0	79	30065
2026-01-28 04:05:19.24	28.69	4.32	-54.5	-72.4	3.8	7.44e-01	0	42	104	0	79	30134
2026-01-28 04:05:20.24	28.63	4.39	-54.5	-72.4	3.8	7.47e-01	0	42	104	0	79	30203
2026-01-28 04:05:21.25	28.58	4.46	-54.5	-72.4	3.8	7.44e-01	0	42	104	0	79	30084
2026-01-28 04:05:22.26	28.52	4.53	-54.5	-72.4	3.8	7.45e-01	0	42	104	0	79	30131
2026-01-28 04:05:23.27	28.46	4.60	-54.5	-72.4	3.8	7.44e-01	0	42	104	0	79	30213
2026-01-28 04:05:24.28	28.41	4.67	-54.5	-72.4	3.8	7.47e-01	0	42	104	0	79	30132
2026-01-28 04:05:25.29	28.35	4.74	-54.5	-72.4	3.8	7.41e-01	0	42	104	0	79	30106
2026-01-28 04:05:26.29	28.29	4.81	-54.5	-72.4	3.8	7.43e-01	0	42	104	0	79	30138
2026-01-28 04:05:27.30	28.24	4.88	-54.5	-72.4	3.8	7.43e-01	0	42	104	0	79	30107
2026-01-28 04:05:28.31	28.18	4.95	-54.5	-72.4	3.8	7.47e-01	0	42	104	0	79	30135
2026-01-28 04:05:29.32	28.12	5.02	-54.5	-72.4	3.8	7.44e-01	0	42	104	0	79	30164
2026-01-28 04:05:30.33	28.06	5.09	-54.5	-72.4	3.8	7.46e-01	0	42	104	0	79	30135
2026-01-28 04:05:31.34	28.00	5.17	-54.5	-72.4	3.8	7.45e-01	0	42	104	0	79	30096
2026-01-28 04:05:32.35	27.94	5.24	-54.5	-72.4	3.8	7.44e-01	0	42	104	0	79	30136
2026-01-28 04:05:33.35	27.88	5.31	-54.5	-72.4	3.8	7.45e-01	0	42	104	0	79	30063
2026-01-28 04:05:34.36	27.82	5.38	-54.5	-72.4	3.8	7.45e-01	0	42	104	0	79	30136
2026-01-28 04:05:35.37	27.76	5.45	-54.5	-72.4	3.8	7.48e-01	0	42	104	0	79	30069
2026-01-28 04:05:36.38	27.70	5.52	-54.5	-72.4	3.8	7.44e-01	0	42	104	0	79	30160
2026-01-28 04:05:37.38	27.64	5.60	-54.5	-72.4	3.8	7.44e-01	0	42	104	0	79	30116
2026-01-28 04:05:38.39	27.58	5.67	-54.5	-72.4	3.8	7.44e-01	0	42	104	0	79	30121
2026-01-28 04:05:39.40	27.51	5.74	-54.5	-72.4	3.8	7.45e-01	0	42	104	0	79	30117
2026-01-28 04:05:40.41	27.45	5.81	-54.5	-72.4	3.8	7.46e-01	0	42	104	0	79	30107
2026-01-28 04:05:41.41	27.39	5.89	-54.5	-72.4	3.8	7.45e-01	0	42	104	0	79	30174
2026-01-28 04:05:42.42	27.33	5.96	-54.5	-72.4	3.8	7.44e-01	0	42	104	0	79	30127
2026-01-28 04:05:43.43	27.26	6.03	-54.5	-72.4	3.8	7.47e-01	0	42	104	0	79	30122
2026-01-28 04:05:44.44	27.20	6.11	-54.5	-72.4	3.8	7.45e-01	0	42	104	0	79	30118
2026-01-28 04:05:45.45	27.13	6.18	-54.5	-72.4	3.8	7.47e-01	0	43	104	0	79	30079
2026-01-28 04:05:46.46	27.07	6.25	-54.5	-72.4	3.8	7.48e-01	0	42	104	0	79	30077
2026-01-28 04:05:47.47	27.00	6.33	-54.5	-72.4	3.8	7.44e-01	0	42	104	0	79	30119
2026-01-28 04:05:48.48	26.94	6.40	-54.5	-72.4	3.8	7.44e-01	0	42	104	0	79	30107
2026-01-28 04:05:49.49	26.87	6.48	-54.5	-72.4	3.8	7.46e-01	0	42	104	0	79	30183
2026-01-28 04:05:50.49	26.81	6.55	-54.5	-72.4	3.8	7.43e-01	0	43	104	0	79	30109
2026-01-28 04:05:51.50	26.74	6.63	-54.5	-72.4	3.8	7.44e-01	0	42	104	0	79	30161
2026-01-28 04:05:52.51	26.67	6.70	-54.5	-72.4	3.8	7.46e-01	0	43	104	0	79	30124
2026-01-28 04:05:53.52	26.61	6.78	-54.5	-72.4	3.8	7.48e-01	0	42	104	0	79	30114
2026-01-28 04:05:54.52	26.54	6.85	-54.5	-72.4	3.8	7.46e-01	0	43	104	0	79	30102
2026-01-28 04:05:55.53	26.47	6.93	-54.5	-72.4	3.8	7.44e-01	0	43	104	0	79	30079
2026-01-28 04:05:56.54	26.40	7.01	-54.5	-72.4	3.8	7.43e-01	0	43	104	0	79	30095
2026-01-28 04:05:57.55	26.33	7.08	-54.5	-72.4	3.8	7.42e-01	0	42	104	0	79	30114
2026-01-28 04:05:58.55	26.27	7.16	-54.5	-72.4	3.8	7.45e-01	0	43	104	0	79	30080
2026-01-28 04:05:59.56	26.20	7.23	-54.5	-72.4	3.8	7.45e-01	0	42	104	0	79	30100
2026-01-28 04:06:00.57	26.12	7.31	-54.5	-72.4	3.8	7.44e-01	0	43	104	0	79	30094
2026-01-28 04:06:01.57	26.05	7.39	-54.5	-72.4	3.8	7.45e-01	0	43	104	0	79	30160
2026-01-28 04:06:02.58	25.98	7.47	-54.5	-72.4	3.8	7.45e-01	0	43	104	0	79	30084
2026-01-28 04:06:03.59	25.91	7.54	-54.5	-72.4	3.8	7.45e-01	0	43	104	0	79	30049
2026-01-28 04:06:04.59	25.84	7.62	-54.5	-72.4	3.8	7.44e-01	0	42	104	0	79	30077
2026-01-28 04:06:05.60	25.77	7.70	-54.5	-72.4	3.8	7.46e-01	0	42	104	0	79	30104
2026-01-28 04:06:06.61	25.70	7.78	-54.5	-72.4	3.8	7.45e-01	0	43	104	0	79	30129
2026-01-28 04:06:07.61	25.62	7.85	-54.5	-72.4	3.8	7.43e-01	0	43	104	0	79	30091
2026-01-28 04:06:08.62	25.55	7.93	-54.5	-72.4	3.8	7.45e-01	0	42	104	0	79	30097
2026-01-28 04:06:09.63	25.47	8.01	-54.5	-72.4	3.8	7.48e-01	0	43	104	0	79	30144
2026-01-28 04:06:10.64	25.40	8.09	-54.5	-72.4	3.8	7.45e-01	0	43	104	0	79	30135
2026-01-28 04:06:11.65	25.32	8.17	-54.5	-72.4	3.8	7.42e-01	0	43	104	0	79	30061
2026-01-28 04:06:12.65	25.25	8.25	-54.5	-72.4	3.8	7.46e-01	0	43	104	0	79	30136
2026-01-28 04:06:13.66	25.17	8.33	-54.5	-72.4	3.8	7.46e-01	0	43	104	0	79	30118
2026-01-28 04:06:14.67	25.10	8.41	-54.5	-72.4	3.8	7.44e-01	0	42	104	0	79	30119
2026-01-28 04:06:15.68	25.02	8.49	-54.5	-72.4	3.8	7.45e-01	0	42	104	0	79	30144
2026-01-28 04:06:16.69	24.94	8.57	-54.5	-72.4	3.8	7.45e-01	0	43	104	0	79	30065
2026-01-28 04:06:17.70	24.86	8.65	-54.5	-72.4	3.8	7.50e-01	0	43	104	0	79	30050
2026-01-28 04:06:18.71	24.79	8.73	-54.5	-72.4	3.8	7.44e-01	0	43	104	0	79	30096
2026-01-28 04:06:19.71	24.71	8.81	-54.5	-72.4	3.8	7.43e-01	0	43	104	0	79	30120
2026-01-28 04:06:20.72	24.63	8.90	-54.5	-72.4	3.8	7.47e-01	0	43	104	0	79	30115
2026-01-28 04:06:21.73	24.55	8.98	-54.5	-72.4	3.8	7.46e-01	0	43	104	0	79	30062
2026-01-28 04:06:22.73	24.47	9.06	-54.5	-72.4	3.8	7.45e-01	0	43	104	0	79	30093
2026-01-28 04:06:23.75	24.39	9.14	-54.5	-72.4	3.8	7.49e-01	0	43	104	0	79	30103
2026-01-28 04:06:24.75	24.30	9.22	-54.5	-72.4	3.8	7.44e-01	0	43	104	0	79	30092
2026-01-28 04:06:25.76	24.22	9.31	-54.5	-72.4	3.8	7.40e-01	0	43	104	0	79	30095
2026-01-28 04:06:26.77	24.14	9.39	-54.5	-72.4	3.8	7.47e-01	0	43	104	0	79	30122
2026-01-28 04:06:27.78	24.06	9.47	-54.5	-72.4	3.8	7.48e-01	0	43	104	0	79	30124
2026-01-28 04:06:28.79	23.97	9.56	-54.5	-72.4	3.8	7.43e-01	0	43	104	0	79	30112
2026-01-28 04:06:29.80	23.89	9.64	-54.5	-72.4	3.8	7.44e-01	0	43	104	0	79	30070
2026-01-28 04:06:30.81	23.80	9.72	-54.5	-72.3	3.8	7.46e-01	0	43	104	0	79	30026
2026-01-28 04:06:31.81	23.72	9.81	-54.5	-72.4	3.8	7.41e-01	0	43	104	0	79	30075
2026-01-28 04:06:32.82	23.63	9.89	-54.5	-72.3	3.8	7.45e-01	0	43	104	0	79	30031
2026-01-28 04:06:33.83	23.55	9.98	-54.5	-72.4	3.8	7.44e-01	0	43	104	0	79	30083
2026-01-28 04:06:34.84	23.46	10.06	-54.5	-72.3	3.8	7.48e-01	0	43	104	0	79	30028
2026-01-28 04:06:35.85	23.37	10.15	-54.5	-72.4	3.8	7.45e-01	0	43	104	0	79	30060
2026-01-28 04:06:36.86	23.28	10.23	-54.5	-72.4	3.8	7.46e-01	0	43	104	0	79	30099
2026-01-28 04:06:37.86	23.20	10.32	-54.5	-72.4	3.8	7.47e-01	0	43	104	0	79	30089
2026-01-28 04:06:38.87	23.11	10.41	-54.5	-72.4	3.8	7.48e-01	0	43	104	0	79	30123
2026-01-28 04:06:39.88	23.02	10.49	-54.5	-72.4	3.8	7.46e-01	0	43	104	0	79	30106
2026-01-28 04:06:40.88	22.93	10.58	-54.5	-72.4	3.8	7.44e-01	0	43	104	0	79	30055
2026-01-28 04:06:41.89	22.84	10.67	-54.5	-72.4	3.8	7.44e-01	0	43	104	0	79	30100
2026-01-28 04:06:42.90	22.74	10.75	-54.5	-72.4	3.8	7.44e-01	0	43	104	0	79	30076
2026-01-28 04:06:43.91	22.65	10.84	-54.5	-72.4	3.8	7.45e-01	0	43	104	0	79	30119
2026-01-28 04:06:44.91	22.56	10.93	-54.5	-72.4	3.8	7.44e-01	0	43	104	0	79	30109
2026-01-28 04:06:45.92	22.47	11.02	-54.5	-72.4	3.8	7.43e-01	0	43	104	0	79	30087
2026-01-28 04:06:46.93	22.37	11.10	-54.5	-72.4	3.8	7.45e-01	0	43	104	0	79	30121
2026-01-28 04:06:47.94	22.28	11.19	-54.5	-72.4	3.8	7.47e-01	0	43	104	0	79	30112
2026-01-28 04:06:48.94	22.18	11.28	-54.5	-72.4	3.8	7.43e-01	0	43	104	0	79	30036
2026-01-28 04:06:49.95	22.09	11.37	-54.5	-72.4	3.8	7.46e-01	0	43	104	0	79	30109
2026-01-28 04:06:50.96	21.99	11.46	-54.5	-72.4	3.8	7.47e-01	0	43	104	0	79	30056
2026-01-28 04:06:51.97	21.89	11.55	-54.5	-72.4	3.8	7.45e-01	0	43	104	0	79	30086
2026-01-28 04:06:52.97	21.79	11.64	-54.5	-72.4	3.8	7.45e-01	0	43	104	0	79	30116
2026-01-28 04:06:53.98	21.69	11.73	-54.5	-72.4	3.8	7.46e-01	0	43	104	0	79	30047
2026-01-28 04:06:54.99	21.59	11.82	-54.5	-72.4	3.8	7.46e-01	0	43	104	0	79	30114
2026-01-28 04:06:56.00	21.49	11.91	-54.5	-72.3	3.8	7.46e-01	0	43	104	0	79	30020
2026-01-28 04:06:57.01	21.39	12.00	-54.5	-72.3	3.8	7.45e-01	0	43	104	0	79	30014
2026-01-28 04:06:58.02	21.29	12.09	-54.5	-72.4	3.8	7.42e-01	0	43	104	0	79	30131
2026-01-28 04:06:59.03	21.19	12.19	-54.5	-72.4	3.8	7.44e-01	0	43	104	0	79	30072
2026-01-28 04:07:00.04	21.09	12.28	-54.5	-72.4	3.8	7.46e-01	0	43	104	0	79	30065
2026-01-28 04:07:01.05	20.98	12.37	-54.5	-72.4	3.8	7.47e-01	0	43	104	0	79	30130
2026-01-28 04:07:02.06	20.88	12.46	-54.5	-72.3	3.8	7.49e-01	0	43	104	0	79	29990
2026-01-28 04:07:03.07	20.77	12.56	-54.5	-72.4	3.8	7.44e-01	0	43	104	0	79	30051
2026-01-28 04:07:04.07	20.67	12.65	-54.5	-72.4	3.8	7.44e-01	0	43	104	0	79	30090
2026-01-28 04:07:05.08	20.56	12.74	-54.5	-72.4	3.8	7.45e-01	0	43	104	0	79	30075
2026-01-28 04:07:06.09	20.45	12.84	-54.5	-72.4	3.8	7.44e-01	0	43	104	0	79	30042
2026-01-28 04:07:07.10	20.34	12.93	-54.5	-72.4	3.8	7.45e-01	0	43	104	0	79	30114
2026-01-28 04:07:08.11	20.24	13.03	-54.5	-72.3	3.8	7.48e-01	0	43	104	0	79	30009
2026-01-28 04:07:09.11	20.13	13.12	-54.5	-72.4	3.8	7.47e-01	0	43	104	0	79	30059
2026-01-28 04:07:10.12	20.02	13.21	-54.5	-72.4	3.8	7.45e-01	0	43	104	0	79	30091
2026-01-28 04:07:11.13	19.90	13.31	-54.5	-72.4	3.8	7.46e-01	0	43	104	0	79	30088
2026-01-28 04:07:12.14	19.79	13.41	-54.5	-72.4	3.8	7.42e-01	0	43	104	0	79	30032
2026-01-28 04:07:13.15	19.68	13.50	-54.5	-72.4	3.8	7.45e-01	0	43	104	0	79	30038
2026-01-28 04:07:14.16	19.57	13.60	-54.5	-72.4	3.8	7.46e-01	0	43	104	0	79	30065
2026-01-28 04:07:15.17	19.45	13.70	-54.5	-72.4	3.8	7.44e-01	0	43	104	0	79	30075
2026-01-28 04:07:16.18	19.34	13.79	-54.5	-72.4	3.8	7.46e-01	0	43	104	0	79	30059
2026-01-28 04:07:17.19	19.22	13.89	-54.5	-72.4	3.8	7.42e-01	0	43	104	0	79	30073
2026-01-28 04:07:18.19	19.10	13.99	-54.5	-72.4	3.8	7.42e-01	0	43	104	0	79	30041
2026-01-28 04:07:19.20	18.98	14.08	-54.5	-72.3	3.8	7.46e-01	0	43	104	0	79	30031
2026-01-28 04:07:20.21	18.87	14.18	-54.5	-72.3	3.8	7.47e-01	0	43	104	0	79	30016
2026-01-28 04:07:21.22	18.75	14.28	-54.5	-72.4	3.8	7.44e-01	0	43	104	0	79	30070
2026-01-28 04:07:22.23	18.63	14.38	-54.5	-72.4	3.8	7.46e-01	0	43	104	0	79	30115
2026-01-28 04:07:23.24	18.50	14.48	-54.5	-72.4	3.8	7.47e-01	0	43	104	0	79	30073
2026-01-28 04:07:24.24	18.38	14.58	-54.5	-72.3	3.8	7.50e-01	0	43	104	0	79	30020
2026-01-28 04:07:25.25	18.26	14.68	-54.5	-72.4	3.8	7.47e-01	0	43	104	0	79	30077
2026-01-28 04:07:26.26	18.14	14.78	-54.5	-72.4	3.8	7.45e-01	0	43	104	0	79	30064
2026-01-28 04:07:27.26	18.01	14.88	-54.5	-72.3	3.8	7.43e-01	0	43	104	0	79	30026
2026-01-28 04:07:28.27	17.89	14.98	-54.5	-72.4	3.8	7.48e-01	0	43	104	0	79	30052
2026-01-28 04:07:29.28	17.76	15.08	-54.5	-72.4	3.8	7.44e-01	0	43	104	0	79	30104
2026-01-28 04:07:30.29	17.63	15.18	-54.5	-72.3	3.8	7.44e-01	0	43	104	0	79	30017
2026-01-28 04:07:31.30	17.50	15.28	-54.5	-72.4	3.8	7.45e-01	0	43	104	0	79	30059
2026-01-28 04:07:32.31	17.37	15.39	-54.5	-72.3	3.8	7.47e-01	0	43	104	0	79	30011
2026-01-28 04:07:33.32	17.24	15.49	-54.5	-72.3	3.8	7.46e-01	0	43	104	0	79	30000
2026-01-28 04:07:34.33	17.11	15.59	-54.5	-72.4	3.8	7.47e-01	0	43	104	0	79	30087
2026-01-28 04:07:35.34	16.98	15.70	-54.5	-72.3	3.8	7.45e-01	0	43	104	0	79	29994
2026-01-28 04:07:36.34	16.84	15.80	-54.5	-72.3	3.8	7.46e-01	0	43	104	0	79	30006
2026-01-28 04:07:37.35	16.71	15.90	-54.5	-72.3	3.8	7.43e-01	0	43	104	0	79	29965
2026-01-28 04:07:38.36	16.57	16.01	-54.5	-72.4	3.8	7.45e-01	0	43	104	0	79	30041
2026-01-28 04:07:39.36	16.44	16.11	-54.5	-72.4	3.8	7.45e-01	0	43	104	0	79	30054
2026-01-28 04:07:40.37	16.30	16.21	-54.5	-72.4	3.8	7.45e-01	0	43	104	0	79	30054
2026-01-28 04:07:41.38	16.16	16.32	-54.5	-72.4	3.8	7.46e-01	0	43	104	0	79	30091
2026-01-28 04:07:42.39	16.02	16.43	-54.5	-72.3	3.8	7.44e-01	0	43	104	0	79	30031
2026-01-28 04:07:43.40	15.88	16.53	-54.5	-72.3	3.8	7.46e-01	0	43	104	0	79	30009
2026-01-28 04:07:44.40	15.74	16.64	-54.5	-72.4	3.8	7.45e-01	0	43	104	0	79	30073
2026-01-28 04:07:45.41	15.59	16.74	-54.5	-72.3	3.8	7.45e-01	0	43	104	0	79	30006
2026-01-28 04:07:46.42	15.45	16.85	-54.5	-72.4	3.8	7.49e-01	0	43	104	0	79	30048
2026-01-28 04:07:47.43	15.30	16.96	-54.5	-72.4	3.8	7.46e-01	0	43	104	0	79	30059
2026-01-28 04:07:48.44	15.16	17.07	-54.5	-72.4	3.8	7.42e-01	0	43	104	0	79	30048
2026-01-28 04:07:49.44	15.01	17.17	-54.5	-72.4	3.8	7.46e-01	0	43	104	0	79	30037
2026-01-28 04:07:50.45	14.86	17.28	-54.5	-72.3	3.8	7.48e-01	0	43	104	0	79	29948
2026-01-28 04:07:51.46	14.71	17.39	-54.5	-72.4	3.8	7.47e-01	0	43	104	0	79	30043
2026-01-28 04:07:52.47	14.56	17.50	-54.5	-72.3	3.8	7.46e-01	0	43	104	0	79	30013
2026-01-28 04:07:53.48	14.41	17.61	-54.5	-72.4	3.8	7.41e-01	0	43	104	0	79	30044
2026-01-28 04:07:54.49	14.25	17.72	-54.5	-72.3	3.8	7.45e-01	0	43	104	0	79	29973
2026-01-28 04:07:55.49	14.10	17.83	-54.5	-72.4	3.8	7.47e-01	0	43	104	0	79	30034
2026-01-28 04:07:56.50	13.94	17.94	-54.5	-72.3	3.8	7.47e-01	0	43	104	0	79	30024
2026-01-28 04:07:57.51	13.79	18.05	-54.5	-72.4	3.8	7.43e-01	0	43	104	0	79	30055
2026-01-28 04:07:58.52	13.63	18.16	-54.5	-72.3	3.8	7.45e-01	0	43	104	0	79	29999
2026-01-28 04:07:59.53	13.47	18.27	-54.5	-72.4	3.8	7.45e-01	0	43	104	0	79	30038
2026-01-28 04:08:00.53	13.31	18.38	-54.5	-72.4	3.8	7.46e-01	0	43	104	0	79	30034
2026-01-28 04:08:01.54	13.14	18.49	-54.5	-72.3	3.8	7.44e-01	0	43	104	0	79	29986
2026-01-28 04:08:02.55	12.98	18.60	-54.5	-72.3	3.8	7.46e-01	0	43	104	0	79	30004
2026-01-28 04:08:03.56	12.82	18.72	-54.5	-72.3	3.8	7.47e-01	0	43	104	0	79	29970
2026-01-28 04:08:04.57	12.65	18.83	-54.5	-72.3	3.8	7.48e-01	0	43	104	0	79	30024
2026-01-28 04:08:05.57	12.48	18.94	-54.5	-72.3	3.8	7.44e-01	0	43	104	0	79	29984
2026-01-28 04:08:06.59	12.31	19.05	-54.5	-72.3	3.8	7.45e-01	0	43	104	0	79	29990
2026-01-28 04:08:07.59	12.14	19.17	-54.5	-72.3	3.8	7.46e-01	0	43	104	0	79	29969
2026-01-28 04:08:08.60	11.97	19.28	-54.5	-72.3	3.8	7.43e-01	0	43	104	0	79	29992
2026-01-28 04:08:09.60	11.80	19.39	-54.5	-72.4	3.8	7.44e-01	0	43	104	0	79	30058
2026-01-28 04:08:10.61	11.63	19.51	-54.5	-72.3	3.8	7.45e-01	0	43	104	0	79	29918
2026-01-28 04:08:11.61	11.45	19.62	-54.5	-72.3	3.8	7.50e-01	0	43	104	0	79	30017
2026-01-28 04:08:12.62	11.27	19.74	-54.5	-72.4	3.8	7.46e-01	0	43	104	0	79	30053
2026-01-28 04:08:13.63	11.09	19.85	-54.5	-72.3	3.8	7.47e-01	0	43	104	0	79	29971
2026-01-28 04:08:14.64	10.91	19.97	-54.5	-72.4	3.8	7.45e-01	0	43	104	0	79	30053
2026-01-28 04:08:15.65	10.73	20.09	-54.5	-72.3	3.8	7.43e-01	0	43	104	0	79	29909
2026-01-28 04:08:16.65	10.55	20.20	-54.5	-72.3	3.8	7.44e-01	0	43	104	0	79	29952
2026-01-28 04:08:17.66	10.37	20.32	-54.5	-72.3	3.8	7.46e-01	0	43	104	0	79	30007
2026-01-28 04:08:18.67	10.18	20.44	-54.5	-72.3	3.8	7.48e-01	0	43	104	0	79	30014
2026-01-28 04:08:19.68	9.99	20.55	-54.5	-72.3	3.8	7.46e-01	0	43	104	0	79	29991
2026-01-28 04:08:20.69	9.80	20.67	-54.5	-72.3	3.8	7.46e-01	0	43	104	0	79	29941
2026-01-28 04:08:21.70	9.61	20.79	-54.5	-72.3	3.8	7.48e-01	0	43	104	0	79	29960
2026-01-28 04:08:22.71	9.42	20.91	-54.5	-72.3	3.8	7.43e-01	0	43	104	0	79	29933
2026-01-28 04:08:23.72	9.23	21.03	-54.5	-72.3	3.8	7.44e-01	0	43	104	0	79	29955
2026-01-28 04:08:24.72	9.03	21.14	-54.5	-72.3	3.8	7.45e-01	0	43	104	0	79	29966
2026-01-28 04:08:25.73	8.83	21.26	-54.5	-72.3	3.8	7.45e-01	0	43	104	0	79	29996
2026-01-28 04:08:26.74	8.63	21.38	-54.5	-72.3	3.8	7.46e-01	0	43	104	0	79	29973
2026-01-28 04:08:27.75	8.43	21.50	-54.5	-72.3	3.8	7.43e-01	0	43	104	0	79	29954
2026-01-28 04:08:28.76	8.23	21.62	-54.5	-72.3	3.8	7.40e-01	0	43	104	0	79	29992
2026-01-28 04:08:29.77	8.03	21.74	-54.5	-72.3	3.8	7.45e-01	0	43	104	0	79	29997
2026-01-28 04:08:30.77	7.82	21.86	-54.5	-72.3	3.8	7.47e-01	0	43	104	0	79	29990
2026-01-28 04:08:31.78	7.62	21.98	-54.5	-72.3	3.8	7.46e-01	0	43	104	0	79	29970
2026-01-28 04:08:32.79	7.41	22.10	-54.5	-72.3	3.8	7.43e-01	0	43	104	0	79	29993
2026-01-28 04:08:33.80	7.20	22.22	-54.5	-72.3	3.8	7.44e-01	0	43	104	0	79	29982
2026-01-28 04:08:34.80	6.99	22.34	-54.5	-72.4	3.8	7.47e-01	0	43	104	0	79	30036
2026-01-28 04:08:35.81	6.77	22.46	-54.5	-72.3	3.8	7.43e-01	0	43	104	0	79	29961
2026-01-28 04:08:36.82	6.56	22.59	-54.5	-72.3	3.8	7.46e-01	0	43	104	0	79	29986
2026-01-28 04:08:37.83	6.34	22.71	-54.5	-72.3	3.8	7.46e-01	0	43	104	0	79	29981
2026-01-28 04:08:38.84	6.12	22.83	-54.5	-72.4	3.8	7.46e-01	0	43	104	0	79	30034
2026-01-28 04:08:39.84	5.90	22.95	-54.5	-72.3	3.8	7.46e-01	0	43	104	0	79	29991
2026-01-28 04:08:40.85	5.68	23.07	-54.5	-72.3	3.8	7.47e-01	0	43	104	0	79	29959
2026-01-28 04:08:41.86	5.45	23.20	-54.5	-72.3	3.8	7.47e-01	0	43	104	0	79	29991
2026-01-28 04:08:42.87	5.22	23.32	-54.5	-72.4	3.8	7.46e-01	0	43	104	0	79	30036
2026-01-28 04:08:43.87	5.00	23.44	-54.5	-72.4	3.8	7.45e-01	0	43	104	0	79	30042
2026-01-28 04:08:44.88	4.77	23.56	-54.5	-72.3	3.8	7.45e-01	0	43	104	0	79	29997
2026-01-28 04:08:45.89	4.53	23.69	-54.5	-72.3	3.8	7.42e-01	0	43	104	0	79	30000
2026-01-28 04:08:46.90	4.30	23.81	-54.5	-72.4	3.8	7.44e-01	0	43	104	0	79	30086
2026-01-28 04:08:47.91	4.06	23.93	-54.5	-72.3	3.8	7.45e-01	0	43	104	0	79	29966
2026-01-28 04:08:48.92	3.82	24.06	-54.5	-72.3	3.8	7.46e-01	0	43	104	0	79	30029
2026-01-28 04:08:49.93	3.58	24.18	-54.5	-72.3	3.8	7.43e-01	0	43	104	0	79	30027
2026-01-28 04:08:50.93	3.34	24.30	-54.5	-72.4	3.8	7.46e-01	0	43	104	0	79	30059
2026-01-28 04:08:51.94	3.10	24.43	-54.5	-72.3	3.8	7.40e-01	0	43	104	0	79	29986
2026-01-28 04:08:52.95	2.85	24.55	-54.5	-72.3	3.8	7.45e-01	0	43	104	0	79	29996
2026-01-28 04:08:53.95	2.60	24.67	-54.5	-72.4	3.8	7.46e-01	0	43	104	0	79	30051
2026-01-28 04:08:54.96	2.35	24.80	-54.5	-72.3	3.8	7.46e-01	0	43	104	0	79	30015
2026-01-28 04:08:55.97	2.10	24.92	-54.5	-72.3	3.8	7.45e-01	0	43	104	0	79	30014
2026-01-28 04:08:56.97	1.85	25.05	-54.5	-72.4	3.8	7.45e-01	0	43	104	0	79	30046
2026-01-28 04:08:57.98	1.59	25.17	-54.5	-72.3	3.8	7.47e-01	0	43	104	0	79	30004
2026-01-28 04:08:58.99	1.33	25.29	-54.5	-72.4	3.8	7.45e-01	0	43	104	0	79	30046
2026-01-28 04:09:00.00	1.07	25.42	-54.5	-72.3	3.8	7.47e-01	0	43	104	0	79	30017
2026-01-28 04:09:00.97	0.81	25.54	-54.5	-72.3	3.8	7.45e-01	0	43	104	0	79	30027
2026-01-28 04:09:01.98	0.55	25.66	-54.5	-72.3	3.8	7.47e-01	0	43	104	0	79	29984
2026-01-28 04:09:02.99	0.28	25.79	-54.5	-72.3	3.8	7.43e-01	0	43	104	0	79	30011
2026-01-28 04:09:04.00	0.01	25.91	-54.5	-72.4	3.8	7.43e-01	0	43	104	0	79	30037
2026-01-28 04:09:05.01	359.74	26.03	-54.5	-72.4	3.8	7.47e-01	0	43	104	0	79	30042
2026-01-28 04:09:06.01	359.47	26.16	-54.5	-72.4	3.8	7.42e-01	0	43	104	0	79	30049
2026-01-28 04:09:07.02	359.19	26.28	-54.5	-72.4	3.8	7.45e-01	0	43	104	0	79	30055
2026-01-28 04:09:08.03	358.91	26.40	-54.5	-72.3	3.8	7.46e-01	0	43	104	0	79	30028
2026-01-28 04:09:09.04	358.63	26.53	-54.5	-72.3	3.8	7.48e-01	0	43	104	0	79	29967
2026-01-28 04:09:10.04	358.35	26.65	-54.5	-72.3	3.8	7.45e-01	0	43	104	0	79	29990
2026-01-28 04:09:11.05	358.06	26.77	-54.5	-72.4	3.8	7.46e-01	0	43	104	0	79	30032
2026-01-28 04:09:12.06	357.77	26.90	-54.5	-72.3	3.8	7.46e-01	0	43	104	0	79	30020
2026-01-28 04:09:13.07	357.48	27.02	-54.5	-72.4	3.8	7.46e-01	0	43	104	0	79	30054
2026-01-28 04:09:14.08	357.19	27.14	-54.5	-72.4	3.8	7.43e-01	0	43	104	0	79	30065
2026-01-28 04:09:15.09	356.89	27.27	-54.5	-72.4	3.8	7.45e-01	0	43	104	0	79	30047
2026-01-28 04:09:16.09	356.60	27.39	-54.5	-72.4	3.8	7.43e-01	0	43	104	0	79	30038
2026-01-28 04:09:17.10	356.30	27.51	-54.5	-72.4	3.8	7.45e-01	0	43	104	0	79	30045
2026-01-28 04:09:18.11	355.99	27.63	-54.5	-72.4	3.8	7.44e-01	0	43	104	0	79	30084
2026-01-28 04:09:19.12	355.69	27.75	-54.5	-72.3	3.8	7.44e-01	0	43	104	0	79	30004
2026-01-28 04:09:20.13	355.38	27.87	-54.5	-72.4	3.8	7.45e-01	0	43	104	0	79	30120
2026-01-28 04:09:21.13	355.07	27.99	-54.5	-72.3	3.8	7.46e-01	0	43	104	0	79	30024
2026-01-28 04:09:22.14	354.76	28.11	-54.5	-72.4	3.8	7.48e-01	0	43	104	0	79	30039
2026-01-28 04:09:23.15	354.45	28.23	-54.5	-72.4	3.8	7.45e-01	0	43	104	0	79	30093
2026-01-28 04:09:24.16	354.13	28.35	-54.5	-72.4	3.8	7.45e-01	0	43	104	0	79	30067
2026-01-28 04:09:25.16	353.81	28.47	-54.5	-72.4	3.8	7.46e-01	0	43	104	0	79	30063
2026-01-28 04:09:26.17	353.49	28.59	-54.5	-72.4	3.8	7.47e-01	0	43	104	0	79	30067
2026-01-28 04:09:27.18	353.16	28.71	-54.5	-72.4	3.8	7.43e-01	0	43	104	0	79	30075
2026-01-28 04:09:28.19	352.84	28.83	-54.5	-72.4	3.8	7.40e-01	0	43	104	0	79	30067
2026-01-28 04:09:29.20	352.51	28.94	-54.5	-72.4	3.8	7.46e-01	0	43	104	0	79	30048
2026-01-28 04:09:30.20	352.18	29.06	-54.5	-72.4	3.8	7.44e-01	0	43	104	0	79	30060
2026-01-28 04:09:31.21	351.84	29.18	-54.5	-72.4	3.8	7.43e-01	0	43	104	0	79	30073
2026-01-28 04:09:32.23	351.50	29.29	-54.5	-72.4	3.8	7.45e-01	0	43	104	0	79	30087
2026-01-28 04:09:33.23	351.16	29.41	-54.5	-72.4	3.8	7.48e-01	0	43	104	0	79	30106
2026-01-28 04:09:34.24	350.82	29.52	-54.5	-72.4	3.8	7.46e-01	0	43	104	0	79	30038
2026-01-28 04:09:35.25	350.48	29.64	-54.5	-72.3	3.8	7.45e-01	0	43	104	0	79	30007
2026-01-28 04:09:36.26	350.13	29.75	-54.5	-72.4	3.8	7.45e-01	0	43	104	0	79	30064
2026-01-28 04:09:37.27	349.78	29.86	-54.5	-72.4	3.8	7.41e-01	0	43	104	0	79	30043
2026-01-28 04:09:38.28	349.43	29.98	-54.5	-72.3	3.8	7.45e-01	0	43	104	0	79	30017
2026-01-28 04:09:39.29	349.07	30.09	-54.5	-72.4	3.8	7.44e-01	0	43	104	0	79	30119
2026-01-28 04:09:40.29	348.72	30.20	-54.5	-72.3	3.8	7.45e-01	0	43	104	0	79	30016
2026-01-28 04:09:41.30	348.36	30.31	-54.5	-72.4	3.8	7.46e-01	0	43	104	0	79	30080
2026-01-28 04:09:42.31	347.99	30.41	-54.5	-72.4	3.8	7.49e-01	0	43	104	0	79	30119
2026-01-28 04:09:43.32	347.63	30.52	-54.5	-72.4	3.8	7.46e-01	0	43	104	0	79	30111
2026-01-28 04:09:44.33	347.26	30.63	-54.5	-72.4	3.8	7.48e-01	0	43	104	0	79	30089
2026-01-28 04:09:45.34	346.89	30.74	-54.5	-72.4	3.8	7.44e-01	0	43	104	0	79	30074
2026-01-28 04:09:46.35	346.52	30.84	-54.5	-72.4	3.8	7.44e-01	0	43	104	0	79	30086
2026-01-28 04:09:47.35	346.14	30.95	-54.5	-72.4	3.8	7.45e-01	0	43	104	0	79	30126
2026-01-28 04:09:48.36	345.76	31.05	-54.5	-72.4	3.8	7.45e-01	0	43	104	0	79	30122
2026-01-28 04:09:49.37	345.38	31.15	-54.5	-72.4	3.8	7.45e-01	0	43	104	0	79	30063
2026-01-28 04:09:50.38	345.00	31.25	-54.5	-72.4	3.8	7.45e-01	0	43	104	0	79	30092
2026-01-28 04:09:51.39	344.62	31.35	-54.5	-72.4	3.8	7.46e-01	0	43	104	0	79	30035
2026-01-28 04:09:52.39	344.23	31.45	-54.5	-72.4	3.8	7.44e-01	0	43	104	0	79	30101
2026-01-28 04:09:53.40	343.84	31.55	-54.5	-72.4	3.8	7.46e-01	0	43	104	0	79	30072
2026-01-28 04:09:54.41	343.45	31.65	-54.5	-72.3	3.8	7.42e-01	0	43	104	0	79	30009
2026-01-28 04:09:55.41	343.06	31.74	-54.5	-72.4	3.8	7.46e-01	0	43	104	0	79	30126
2026-01-28 04:09:56.42	342.66	31.84	-54.5	-72.4	3.8	7.44e-01	0	43	104	0	79	30045
2026-01-28 04:09:57.43	342.26	31.93	-54.5	-72.4	3.8	7.44e-01	0	43	104	0	79	30121
2026-01-28 04:09:58.44	341.85	32.02	-54.5	-72.4	3.8	7.45e-01	0	43	104	0	79	30117
2026-01-28 04:09:59.45	341.45	32.11	-54.5	-72.4	3.8	7.44e-01	0	43	104	0	79	30159
2026-01-28 04:10:00.45	341.05	32.20	-54.5	-72.4	3.8	7.46e-01	0	43	104	0	79	30129
2026-01-28 04:10:01.46	340.64	32.29	-54.5	-72.4	3.8	7.44e-01	0	43	104	0	79	30062
2026-01-28 04:10:02.47	340.22	32.38	-54.5	-72.4	3.8	7.48e-01	0	43	104	0	79	30114
2026-01-28 04:10:03.47	339.81	32.46	-54.5	-72.4	3.8	7.44e-01	0	43	104	0	79	30101
2026-01-28 04:10:04.48	339.40	32.55	-54.5	-72.4	3.8	7.43e-01	0	43	104	0	79	30074
2026-01-28 04:10:05.49	338.98	32.63	-54.5	-72.4	3.8	7.45e-01	0	43	104	0	79	30061
2026-01-28 04:10:06.50	338.56	32.71	-54.5	-72.4	3.8	7.49e-01	0	43	104	0	79	30105
2026-01-28 04:10:07.51	338.13	32.79	-54.5	-72.4	3.8	7.45e-01	0	43	104	0	79	30119
2026-01-28 04:10:08.51	337.71	32.87	-54.5	-72.4	3.8	7.49e-01	0	43	104	0	79	30063
2026-01-28 04:10:09.52	337.28	32.95	-54.5	-72.4	3.8	7.46e-01	0	43	104	0	79	30043
2026-01-28 04:10:10.53	336.85	33.02	-54.5	-72.4	3.8	7.45e-01	0	43	104	0	79	30078
2026-01-28 04:10:11.54	336.42	33.10	-54.5	-72.4	3.8	7.44e-01	0	43	104	0	79	30096
2026-01-28 04:10:12.55	335.99	33.17	-54.5	-72.4	3.8	7.47e-01	0	43	104	0	79	30125
2026-01-28 04:10:13.55	335.56	33.24	-54.5	-72.4	3.8	7.45e-01	0	43	104	0	79	30051
2026-01-28 04:10:14.56	335.12	33.31	-54.5	-72.4	3.8	7.45e-01	0	43	104	0	79	30087
2026-01-28 04:10:15.57	334.68	33.38	-54.5	-72.4	3.8	7.48e-01	0	43	104	0	79	30037
2026-01-28 04:10:16.57	334.24	33.44	-54.5	-72.4	3.8	7.43e-01	0	43	104	0	79	30046
2026-01-28 04:10:17.58	333.80	33.50	-54.5	-72.4	3.8	7.47e-01	0	43	104	0	79	30131
2026-01-28 04:10:18.59	333.36	33.57	-54.5	-72.4	3.8	7.43e-01	0	43	104	0	79	30085
2026-01-28 04:10:19.60	332.91	33.63	-54.5	-72.4	3.8	7.47e-01	0	43	104	0	79	30108
2026-01-28 04:10:20.61	332.46	33.68	-54.5	-72.4	3.8	7.43e-01	0	43	104	0	79	30060
2026-01-28 04:10:21.62	332.01	33.74	-54.5	-72.3	3.8	7.46e-01	0	43	104	0	79	30022
2026-01-28 04:10:22.62	331.56	33.80	-54.5	-72.4	3.8	7.42e-01	0	43	104	0	79	30091
2026-01-28 04:10:23.63	331.11	33.85	-54.5	-72.4	3.8	7.46e-01	0	43	104	0	79	30097
2026-01-28 04:10:24.63	330.66	33.90	-54.5	-72.3	3.8	7.45e-01	0	43	104	0	79	30029
2026-01-28 04:10:25.64	330.21	33.95	-54.5	-72.4	3.8	7.47e-01	0	43	104	0	79	30125
2026-01-28 04:10:26.65	329.75	33.99	-54.5	-72.4	3.8	7.47e-01	0	43	104	0	79	30101
2026-01-28 04:10:27.66	329.29	34.04	-54.5	-72.4	3.8	7.40e-01	0	43	104	0	79	30051
2026-01-28 04:10:28.67	328.83	34.08	-54.5	-72.4	3.8	7.42e-01	0	43	104	0	79	30076
2026-01-28 04:10:29.67	328.37	34.12	-54.5	-72.4	3.8	7.47e-01	0	43	104	0	79	30065
2026-01-28 04:10:30.68	327.91	34.16	-54.5	-72.4	3.8	7.48e-01	0	43	104	0	79	30146
2026-01-28 04:10:31.69	327.45	34.20	-54.5	-72.3	3.8	7.43e-01	0	43	104	0	79	30028
2026-01-28 04:10:32.70	326.98	34.23	-54.5	-72.4	3.8	7.45e-01	0	43	104	0	79	30053
2026-01-28 04:10:33.71	326.52	34.27	-54.5	-72.4	3.8	7.48e-01	0	43	104	0	79	30116
2026-01-28 04:10:34.72	326.05	34.30	-54.5	-72.3	3.8	7.45e-01	0	43	104	0	79	29990
2026-01-28 04:10:35.73	325.58	34.33	-54.5	-72.4	3.8	7.47e-01	0	43	104	0	79	30039
2026-01-28 04:10:36.74	325.11	34.35	-54.5	-72.4	3.8	7.48e-01	0	43	104	0	79	30049
2026-01-28 04:10:37.75	324.64	34.38	-54.5	-72.3	3.8	7.43e-01	0	43	104	0	79	30025
2026-01-28 04:10:38.75	324.18	34.40	-54.5	-72.3	3.8	7.44e-01	0	43	104	0	79	30022
2026-01-28 04:10:39.77	323.70	34.42	-54.5	-72.4	3.8	7.44e-01	0	43	104	0	79	30047
2026-01-28 04:10:40.78	323.23	34.44	-54.5	-72.4	3.8	7.48e-01	0	43	104	0	79	30077
2026-01-28 04:10:41.79	322.76	34.46	-54.5	-72.4	3.8	7.45e-01	0	43	104	0	79	30051
2026-01-28 04:10:42.79	322.29	34.47	-54.5	-72.3	3.8	7.41e-01	0	43	104	0	79	29990
2026-01-28 04:10:43.80	321.82	34.48	-54.5	-72.4	3.8	7.47e-01	0	43	104	0	79	30049
2026-01-28 04:10:44.81	321.35	34.49	-54.5	-72.3	3.8	7.43e-01	0	43	104	0	79	29998
2026-01-28 04:10:45.82	320.88	34.50	-54.5	-72.3	3.8	7.46e-01	0	43	104	0	79	30025
2026-01-28 04:10:46.83	320.40	34.50	-54.5	-72.3	3.8	7.49e-01	0	43	104	0	79	29975
2026-01-28 04:10:47.84	319.93	34.51	-54.5	-72.3	3.8	7.47e-01	0	43	104	0	79	29990
2026-01-28 04:10:48.85	319.46	34.51	-54.5	-72.3	3.8	7.50e-01	0	43	104	0	79	29962
2026-01-28 04:10:49.85	318.99	34.51	-54.5	-72.3	3.8	7.46e-01	0	43	104	0	79	29969
2026-01-28 04:10:50.86	318.51	34.50	-54.5	-72.4	3.8	7.46e-01	0	43	104	0	79	30034
2026-01-28 04:10:51.87	318.04	34.50	-54.5	-72.3	3.8	7.45e-01	0	43	104	0	79	29997
2026-01-28 04:10:52.88	317.57	34.49	-54.5	-72.3	3.8	7.45e-01	0	43	104	0	79	29990
2026-01-28 04:10:53.89	317.10	34.48	-54.5	-72.3	3.8	7.48e-01	0	43	104	0	79	30024
2026-01-28 04:10:54.90	316.62	34.47	-54.5	-72.3	3.8	7.48e-01	0	43	104	0	79	29948
2026-01-28 04:10:55.91	316.15	34.45	-54.5	-72.4	3.8	7.46e-01	0	43	104	0	79	30077
2026-01-28 04:10:56.92	315.68	34.44	-54.5	-72.4	3.8	7.44e-01	0	43	104	0	79	30037
2026-01-28 04:10:57.93	315.21	34.42	-54.5	-72.3	3.8	7.45e-01	0	43	104	0	79	30029
2026-01-28 04:10:58.93	314.74	34.40	-54.5	-72.4	3.8	7.44e-01	0	43	104	0	79	30063
2026-01-28 04:10:59.94	314.27	34.37	-54.5	-72.3	3.8	7.46e-01	0	43	104	0	79	30025
2026-01-28 04:11:00.94	313.81	34.35	-54.5	-72.4	3.8	7.43e-01	0	43	104	0	79	30035
2026-01-28 04:11:01.95	313.34	34.32	-54.5	-72.3	3.8	7.46e-01	0	43	104	0	79	30003
2026-01-28 04:11:02.96	312.87	34.29	-54.5	-72.3	3.8	7.43e-01	0	43	104	0	79	29968
2026-01-28 04:11:03.97	312.41	34.26	-54.5	-72.4	3.8	7.45e-01	0	43	104	0	79	30033
2026-01-28 04:11:04.98	311.94	34.23	-54.5	-72.4	3.8	7.46e-01	0	43	104	0	79	30032
2026-01-28 04:11:05.99	311.48	34.19	-54.5	-72.3	3.8	7.42e-01	0	43	104	0	79	30007
2026-01-28 04:11:06.99	311.02	34.16	-54.5	-72.3	3.8	7.46e-01	0	43	104	0	79	29980
2026-01-28 04:11:08.00	310.55	34.12	-54.5	-72.4	3.8	7.46e-01	0	43	104	0	79	30066
2026-01-28 04:11:09.01	310.09	34.08	-54.5	-72.4	3.8	7.46e-01	0	43	104	0	79	30093
2026-01-28 04:11:10.01	309.64	34.03	-54.5	-72.3	3.8	7.44e-01	0	43	104	0	79	29961
2026-01-28 04:11:11.02	309.18	33.99	-54.5	-72.3	3.8	7.46e-01	0	43	104	0	79	29978
2026-01-28 04:11:12.03	308.72	33.94	-54.5	-72.4	3.8	7.44e-01	0	43	104	0	79	30035
2026-01-28 04:11:13.03	308.27	33.89	-54.5	-72.3	3.8	7.48e-01	0	43	104	0	79	29918
2026-01-28 04:11:14.04	307.81	33.84	-54.5	-72.3	3.8	7.44e-01	0	43	104	0	79	29949
2026-01-28 04:11:15.05	307.36	33.79	-54.5	-72.3	3.8	7.45e-01	0	43	104	0	79	30022
2026-01-28 04:11:16.06	306.91	33.73	-54.5	-72.4	3.8	7.45e-01	0	43	104	0	79	30063
2026-01-28 04:11:17.07	306.46	33.68	-54.5	-72.3	3.8	7.44e-01	0	43	104	0	79	30016
2026-01-28 04:11:18.08	306.01	33.62	-54.5	-72.3	3.8	7.44e-01	0	43	104	0	79	29949
2026-01-28 04:11:19.09	305.56	33.56	-54.5	-72.3	3.8	7.42e-01	0	43	104	0	79	29918
2026-01-28 04:11:20.10	305.12	33.49	-54.5	-72.3	3.8	7.45e-01	0	43	104	0	79	29924
2026-01-28 04:11:21.11	304.68	33.43	-54.5	-72.4	3.8	7.45e-01	0	43	104	0	79	30033
2026-01-28 04:11:22.12	304.23	33.36	-54.5	-72.3	3.8	7.45e-01	0	43	104	0	79	29973
2026-01-28 04:11:23.13	303.79	33.30	-54.5	-72.3	3.8	7.46e-01	0	43	104	0	79	29942
2026-01-28 04:11:24.13	303.36	33.23	-54.5	-72.3	3.8	7.44e-01	0	43	104	0	79	29936
2026-01-28 04:11:25.14	302.93	33.16	-54.5	-72.4	3.8	7.46e-01	0	43	104	0	79	30039
2026-01-28 04:11:26.15	302.49	33.08	-54.5	-72.3	3.8	7.43e-01	0	43	104	0	79	29967
2026-01-28 04:11:27.15	302.06	33.01	-54.5	-72.3	3.8	7.43e-01	0	43	104	0	79	29991
2026-01-28 04:11:28.16	301.63	32.94	-54.5	-72.3	3.8	7.42e-01	0	43	104	0	79	29992
2026-01-28 04:11:29.17	301.21	32.86	-54.5	-72.3	3.8	7.44e-01	0	43	104	0	79	29914
2026-01-28 04:11:30.18	300.78	32.78	-54.5	-72.3	3.8	7.44e-01	0	43	104	0	79	29975
2026-01-28 04:11:31.19	300.36	32.70	-54.5	-72.3	3.8	7.47e-01	0	43	104	0	79	29887
2026-01-28 04:11:32.19	299.94	32.62	-54.5	-72.3	3.8	7.45e-01	0	43	104	0	79	29920
2026-01-28 04:11:33.20	299.52	32.53	-54.5	-72.3	3.8	7.45e-01	0	43	104	0	79	29891
2026-01-28 04:11:34.21	299.10	32.45	-54.5	-72.3	3.8	7.46e-01	0	43	104	0	79	29916
2026-01-28 04:11:35.21	298.69	32.36	-54.5	-72.3	3.8	7.44e-01	0	43	104	0	79	29885
2026-01-28 04:11:36.22	298.28	32.28	-54.5	-72.3	3.8	7.44e-01	0	43	104	0	79	29906
2026-01-28 04:11:37.23	297.87	32.19	-54.5	-72.3	3.8	7.44e-01	0	43	104	0	79	29914
2026-01-28 04:11:38.24	297.46	32.10	-54.5	-72.3	3.8	7.47e-01	0	43	104	0	79	29982
2026-01-28 04:11:39.24	297.06	32.01	-54.5	-72.3	3.8	7.44e-01	0	43	104	0	79	29927
2026-01-28 04:11:40.25	296.66	31.91	-54.5	-72.3	3.8	7.47e-01	0	43	104	0	79	29906
2026-01-28 04:11:41.26	296.26	31.82	-54.5	-72.3	3.8	7.46e-01	0	43	104	0	79	29890
2026-01-28 04:11:42.27	295.86	31.72	-54.5	-72.3	3.8	7.45e-01	0	43	104	0	79	29897
2026-01-28 04:11:43.28	295.47	31.63	-54.5	-72.3	3.8	7.49e-01	0	43	104	0	79	29890
2026-01-28 04:11:44.28	295.08	31.53	-54.5	-72.3	3.8	7.40e-01	0	43	104	0	79	29796
2026-01-28 04:11:45.29	294.68	31.43	-54.5	-72.3	3.8	7.44e-01	0	43	104	0	79	29875
2026-01-28 04:11:46.30	294.30	31.33	-54.5	-72.3	3.8	7.43e-01	0	43	104	0	79	29956
2026-01-28 04:11:47.31	293.91	31.23	-54.5	-72.3	3.8	7.43e-01	0	43	104	0	79	29917
2026-01-28 04:11:48.32	293.53	31.13	-54.5	-72.3	3.8	7.46e-01	0	43	104	0	79	30022
2026-01-28 04:11:49.33	293.15	31.03	-54.5	-72.3	3.8	7.44e-01	0	43	104	0	79	29999
2026-01-28 04:11:50.34	292.77	30.92	-54.5	-72.3	3.8	7.47e-01	0	43	104	0	79	29790
2026-01-28 04:11:51.35	292.39	30.82	-54.5	-72.3	3.8	7.45e-01	0	43	104	0	79	29825
2026-01-28 04:11:52.35	292.02	30.71	-54.5	-72.3	3.8	7.43e-01	0	43	104	0	79	29781
2026-01-28 04:11:53.36	291.65	30.61	-54.5	-72.3	3.8	7.47e-01	0	43	104	0	79	29770
2026-01-28 04:11:54.37	291.28	30.50	-54.5	-72.3	3.8	7.44e-01	0	43	104	0	79	29833
2026-01-28 04:11:55.38	290.92	30.39	-54.5	-72.3	3.8	7.44e-01	0	43	104	0	79	29754
2026-01-28 04:11:56.39	290.55	30.28	-54.5	-72.1	3.8	7.44e-01	0	43	104	0	79	29264
2026-01-28 04:11:57.40	290.19	30.17	-54.5	-72.2	3.8	7.45e-01	0	43	104	0	79	29529
2026-01-28 04:11:58.40	289.84	30.06	-54.5	-72.3	3.8	7.44e-01	0	43	104	0	79	29903
2026-01-28 04:11:59.41	289.48	29.95	-54.5	-72.3	3.8	7.46e-01	0	43	104	0	79	29892
2026-01-28 04:12:00.42	289.13	29.84	-54.5	-72.3	3.8	7.43e-01	0	43	104	0	79	29903
2026-01-28 04:12:01.43	288.78	29.72	-54.5	-72.3	3.8	7.45e-01	0	43	104	0	79	29950
2026-01-28 04:12:02.44	288.43	29.61	-54.5	-72.3	3.8	7.48e-01	0	43	104	0	79	29964
2026-01-28 04:12:03.45	288.09	29.50	-54.5	-72.3	3.8	7.46e-01	0	43	104	0	79	30012
2026-01-28 04:12:04.45	287.75	29.38	-54.5	-72.3	3.8	7.47e-01	0	43	104	0	79	29945
2026-01-28 04:12:05.46	287.41	29.27	-54.5	-72.3	3.8	7.45e-01	0	43	104	0	79	29960
2026-01-28 04:12:06.47	287.07	29.15	-54.5	-72.3	3.8	7.46e-01	0	43	104	0	79	29838
2026-01-28 04:12:07.48	286.73	29.03	-54.5	-72.3	3.8	7.44e-01	0	43	104	0	79	29777
2026-01-28 04:12:08.49	286.40	28.92	-54.5	-72.3	3.8	7.41e-01	0	43	104	0	79	29900
2026-01-28 04:12:09.49	286.07	28.80	-54.5	-72.3	3.8	7.46e-01	0	43	104	0	79	30004
2026-01-28 04:12:10.50	285.75	28.68	-54.5	-72.3	3.8	7.44e-01	0	43	104	0	79	29986
2026-01-28 04:12:11.51	285.42	28.56	-54.5	-72.3	3.8	7.46e-01	0	43	104	0	79	29877
2026-01-28 04:12:12.51	285.10	28.44	-54.5	-72.2	3.8	7.45e-01	0	43	104	0	79	29631
2026-01-28 04:12:13.52	284.78	28.32	-54.5	-72.3	3.8	7.44e-01	0	43	104	0	79	29688
2026-01-28 04:12:14.53	284.46	28.20	-54.5	-72.3	3.8	7.45e-01	0	43	104	0	79	29852
2026-01-28 04:12:15.54	284.15	28.08	-54.5	-72.2	3.8	7.44e-01	0	43	104	0	79	29432
2026-01-28 04:12:16.54	283.84	27.96	-54.5	-72.1	3.8	7.46e-01	0	43	104	0	79	29206
2026-01-28 04:12:17.55	283.53	27.84	-54.5	-72.3	3.8	7.42e-01	0	43	104	0	79	29848
2026-01-28 04:12:18.55	283.22	27.72	-54.5	-72.3	3.8	7.46e-01	0	43	104	0	79	29841
2026-01-28 04:12:19.56	282.92	27.60	-54.5	-72.2	3.8	7.46e-01	0	43	104	0	79	29468
2026-01-28 04:12:20.57	282.61	27.48	-54.5	-72.3	3.8	7.44e-01	0	43	104	0	79	29730
2026-01-28 04:12:21.57	282.32	27.36	-54.5	-72.3	3.8	7.45e-01	0	43	104	0	79	29791
2026-01-28 04:12:22.58	282.02	27.23	-54.5	-72.3	3.8	7.45e-01	0	43	104	0	79	29964
2026-01-28 04:12:23.59	281.72	27.11	-54.5	-72.3	3.8	7.46e-01	0	43	104	0	79	29988
2026-01-28 04:12:24.60	281.43	26.99	-54.5	-72.3	3.8	7.47e-01	0	43	104	0	79	29908
2026-01-28 04:12:25.60	281.14	26.87	-54.5	-72.3	3.8	7.45e-01	0	43	104	0	79	29779
2026-01-28 04:12:26.61	280.85	26.74	-54.5	-72.3	3.8	7.47e-01	0	43	104	0	79	29947
2026-01-28 04:12:27.62	280.56	26.62	-54.5	-72.3	3.8	7.42e-01	0	43	104	0	79	29823
2026-01-28 04:12:28.63	280.28	26.50	-54.5	-72.3	3.8	7.48e-01	0	43	104	0	79	29981
2026-01-28 04:12:29.64	280.00	26.37	-54.5	-72.3	3.8	7.43e-01	0	43	104	0	79	29907
2026-01-28 04:12:30.65	279.72	26.25	-54.5	-72.3	3.8	7.48e-01	0	43	104	0	79	29977
2026-01-28 04:12:31.65	279.44	26.12	-54.5	-72.3	3.8	7.47e-01	0	43	104	0	79	29816
2026-01-28 04:12:32.66	279.17	26.00	-54.5	-72.3	3.8	7.41e-01	0	43	104	0	79	29853
2026-01-28 04:12:33.67	278.90	25.88	-54.5	-72.3	3.8	7.47e-01	0	43	104	0	79	29879
2026-01-28 04:12:34.68	278.63	25.75	-54.5	-72.3	3.8	7.46e-01	0	43	104	0	79	30018
2026-01-28 04:12:35.69	278.36	25.63	-54.5	-72.3	3.8	7.45e-01	0	43	104	0	79	29947
2026-01-28 04:12:36.70	278.09	25.50	-54.5	-72.3	3.8	7.46e-01	0	43	104	0	79	29836
2026-01-28 04:12:37.71	277.83	25.38	-54.5	-72.3	3.8	7.42e-01	0	43	104	0	79	29725
2026-01-28 04:12:38.72	277.57	25.25	-54.5	-72.3	3.8	7.49e-01	0	43	104	0	79	29779
2026-01-28 04:12:39.73	277.31	25.13	-54.5	-72.3	3.8	7.47e-01	0	43	104	0	79	29923
2026-01-28 04:12:40.73	277.05	25.01	-54.5	-72.3	3.8	7.47e-01	0	43	104	0	79	29872
2026-01-28 04:12:41.74	276.80	24.88	-54.5	-72.3	3.8	7.46e-01	0	43	104	0	79	29862
2026-01-28 04:12:42.75	276.54	24.76	-54.5	-72.3	3.8	7.46e-01	0	43	104	0	79	29889
2026-01-28 04:12:43.76	276.29	24.63	-54.5	-72.3	3.8	7.46e-01	0	43	104	0	79	29883
2026-01-28 04:12:44.77	276.04	24.51	-54.5	-72.3	3.8	7.46e-01	0	43	104	0	79	29867
2026-01-28 04:12:45.77	275.80	24.38	-54.5	-72.3	3.8	7.47e-01	0	43	104	0	79	29840
2026-01-28 04:12:46.78	275.55	24.26	-54.5	-72.3	3.8	7.47e-01	0	43	104	0	79	29875
2026-01-28 04:12:47.79	275.31	24.14	-54.5	-72.3	3.8	7.42e-01	0	43	104	0	79	29915
2026-01-28 04:12:48.80	275.07	24.01	-54.5	-72.3	3.8	7.42e-01	0	43	104	0	79	29875
2026-01-28 04:12:49.80	274.83	23.89	-54.5	-72.3	3.8	7.45e-01	0	43	104	0	79	29934
2026-01-28 04:12:50.81	274.59	23.77	-54.5	-72.3	3.8	7.47e-01	0	43	104	0	79	29945
2026-01-28 04:12:51.82	274.36	23.64	-54.5	-72.3	3.8	7.43e-01	0	43	104	0	79	29881
2026-01-28 04:12:52.83	274.13	23.52	-54.5	-72.3	3.8	7.45e-01	0	43	104	0	79	29994
2026-01-28 04:12:53.84	273.90	23.40	-54.5	-72.3	3.8	7.45e-01	0	43	104	0	79	29901
2026-01-28 04:12:54.85	273.67	23.27	-54.5	-72.3	3.8	7.43e-01	0	43	104	0	79	29918
2026-01-28 04:12:55.86	273.44	23.15	-54.5	-72.3	3.8	7.47e-01	0	43	104	0	79	29931
2026-01-28 04:12:56.87	273.21	23.03	-54.5	-72.3	3.8	7.48e-01	0	43	104	0	79	29952
2026-01-28 04:12:57.88	272.99	22.90	-54.5	-72.3	3.8	7.47e-01	0	43	104	0	79	29968
2026-01-28 04:12:58.88	272.77	22.78	-54.5	-72.3	3.8	7.47e-01	0	43	104	0	79	29864
2026-01-28 04:12:59.89	272.55	22.66	-54.5	-72.3	3.8	7.45e-01	0	43	104	0	79	29939
2026-01-28 04:13:00.90	272.33	22.54	-54.5	-72.3	3.8	7.47e-01	0	43	104	0	79	29928
2026-01-28 04:13:01.91	272.12	22.42	-54.5	-72.3	3.8	7.44e-01	0	43	104	0	79	29910
2026-01-28 04:13:02.91	271.90	22.30	-54.5	-72.3	3.8	7.44e-01	0	43	104	0	79	29877
2026-01-28 04:13:03.92	271.69	22.17	-54.5	-72.3	3.8	7.44e-01	0	43	104	0	79	29898
2026-01-28 04:13:04.93	271.48	22.05	-54.5	-72.3	3.8	7.46e-01	0	43	104	0	79	29965
2026-01-28 04:13:05.94	271.27	21.93	-54.5	-72.3	3.8	7.43e-01	0	43	104	0	79	29910
2026-01-28 04:13:06.94	271.06	21.81	-54.5	-72.3	3.8	7.41e-01	0	43	104	0	79	29928
2026-01-28 04:13:07.95	270.86	21.69	-54.5	-72.3	3.8	7.48e-01	0	43	104	0	79	29951
2026-01-28 04:13:08.96	270.65	21.57	-54.5	-72.3	3.8	7.49e-01	0	43	104	0	79	29923
2026-01-28 04:13:09.97	270.45	21.45	-54.5	-72.3	3.8	7.44e-01	0	43	104	0	79	29869
2026-01-28 04:13:10.98	270.25	21.33	-54.5	-72.3	3.8	7.44e-01	0	43	104	0	79	29905
2026-01-28 04:13:11.99	270.05	21.21	-54.5	-72.3	3.8	7.47e-01	0	43	104	0	79	29958
2026-01-28 04:13:13.00	269.85	21.09	-54.5	-72.3	3.8	7.44e-01	0	43	104	0	79	29969
2026-01-28 04:13:14.00	269.66	20.97	-54.5	-72.3	3.8	7.45e-01	0	43	104	0	79	30006
2026-01-28 04:13:15.01	269.47	20.86	-54.5	-72.3	3.8	7.47e-01	0	43	104	0	79	29943
2026-01-28 04:13:16.02	269.27	20.74	-54.5	-72.3	3.8	7.42e-01	0	43	104	0	79	29873
2026-01-28 04:13:17.03	269.08	20.62	-54.5	-72.3	3.8	7.43e-01	0	43	104	0	79	29884
2026-01-28 04:13:18.03	268.89	20.50	-54.5	-72.3	3.8	7.46e-01	0	43	104	0	79	29984
2026-01-28 04:13:19.04	268.71	20.38	-54.5	-72.3	3.8	7.44e-01	0	43	104	0	79	29920
2026-01-28 04:13:20.05	268.52	20.27	-54.5	-72.3	3.8	7.47e-01	0	43	104	0	79	29838
2026-01-28 04:13:21.06	268.33	20.15	-54.5	-72.3	3.8	7.46e-01	0	43	104	0	79	29892
2026-01-28 04:13:22.07	268.15	20.03	-54.5	-72.3	3.8	7.45e-01	0	43	104	0	79	29895
2026-01-28 04:13:23.07	267.97	19.92	-54.5	-72.3	3.8	7.44e-01	0	43	104	0	79	29767
2026-01-28 04:13:24.08	267.79	19.80	-54.5	-72.3	3.8	7.46e-01	0	43	104	0	79	29896
2026-01-28 04:13:25.09	267.61	19.69	-54.5	-72.3	3.8	7.46e-01	0	43	104	0	79	29812
2026-01-28 04:13:26.10	267.43	19.57	-54.5	-72.3	3.8	7.44e-01	0	43	104	0	79	29842
2026-01-28 04:13:27.10	267.26	19.46	-54.5	-72.3	3.8	7.44e-01	0	43	104	0	79	29890
2026-01-28 04:13:28.11	267.08	19.34	-54.5	-72.3	3.8	7.45e-01	0	43	104	0	79	29854
2026-01-28 04:13:29.12	266.91	19.23	-54.5	-72.3	3.8	7.44e-01	0	43	104	0	79	29973
2026-01-28 04:13:30.13	266.74	19.11	-54.5	-72.3	3.8	7.45e-01	0	43	104	0	79	29918
2026-01-28 04:13:31.14	266.57	19.00	-54.5	-72.3	3.8	7.47e-01	0	43	104	0	79	29988
2026-01-28 04:13:32.15	266.40	18.88	-54.5	-72.3	3.8	7.45e-01	0	43	104	0	79	29923
2026-01-28 04:13:33.15	266.23	18.77	-54.5	-72.3	3.8	7.44e-01	0	43	104	0	79	29785
2026-01-28 04:13:34.16	266.06	18.66	-54.5	-72.3	3.8	7.44e-01	0	43	104	0	79	29799
2026-01-28 04:13:35.17	265.90	18.55	-54.5	-72.1	3.8	7.45e-01	0	43	104	0	79	29307
2026-01-28 04:13:36.18	265.74	18.43	-54.5	-72.1	3.8	7.46e-01	0	43	104	0	79	29324
2026-01-28 04:13:37.19	265.57	18.32	-54.5	-72.2	3.8	7.45e-01	0	43	104	0	79	29511
2026-01-28 04:13:38.20	265.41	18.21	-54.5	-72.1	3.8	7.44e-01	0	43	104	0	79	29280
2026-01-28 04:13:39.21	265.25	18.10	-54.5	-72.2	3.8	7.44e-01	0	43	104	0	79	29503
2026-01-28 04:13:40.21	265.09	17.99	-54.5	-72.3	3.8	7.46e-01	0	43	104	0	79	29773
2026-01-28 04:13:41.22	264.94	17.88	-54.5	-72.3	3.8	7.43e-01	0	43	104	0	79	29861
2026-01-28 04:13:42.23	264.78	17.77	-54.5	-72.3	3.8	7.46e-01	0	43	104	0	79	29858
2026-01-28 04:13:43.23	264.63	17.66	-54.5	-72.3	3.8	7.46e-01	0	43	104	0	79	29870
2026-01-28 04:13:44.24	264.47	17.55	-54.5	-72.3	3.8	7.45e-01	0	43	104	0	79	29935
2026-01-28 04:13:45.25	264.32	17.44	-54.5	-72.3	3.8	7.44e-01	0	43	104	0	79	29838
2026-01-28 04:13:46.26	264.17	17.33	-54.5	-72.3	3.8	7.47e-01	0	43	104	0	79	29891
2026-01-28 04:13:47.27	264.02	17.22	-54.5	-72.3	3.8	7.44e-01	0	43	104	0	79	29853
2026-01-28 04:13:48.27	263.87	17.11	-54.5	-72.3	3.8	7.45e-01	0	43	104	0	79	29766
2026-01-28 04:13:49.28	263.72	17.01	-54.5	-72.2	3.8	7.46e-01	0	44	104	0	79	29428
2026-01-28 04:13:50.29	263.57	16.90	-54.5	-71.6	3.8	7.45e-01	0	43	104	0	79	27458
2026-01-28 04:13:51.30	263.43	16.79	-54.5	-71.7	3.8	7.45e-01	0	43	104	0	79	27889
2026-01-28 04:13:52.31	263.28	16.68	-54.5	-71.9	3.8	7.44e-01	0	43	104	0	79	28643
2026-01-28 04:13:53.32	263.14	16.58	-54.5	-71.8	3.8	7.44e-01	0	43	104	0	79	28217
2026-01-28 04:13:54.33	263.00	16.47	-54.5	-71.9	3.8	7.42e-01	0	43	104	0	79	28578
2026-01-28 04:13:55.34	262.85	16.36	-54.5	-72.2	3.8	7.45e-01	0	43	104	0	79	29355
2026-01-28 04:13:56.35	262.71	16.26	-54.5	-72.2	3.8	7.44e-01	0	43	104	0	79	29412
2026-01-28 04:13:57.36	262.57	16.15	-54.5	-72.2	3.8	7.44e-01	0	43	104	0	79	29518
2026-01-28 04:13:58.37	262.44	16.05	-54.5	-72.2	3.8	7.49e-01	0	43	104	0	79	29426
2026-01-28 04:13:59.37	262.30	15.94	-54.5	-72.0	3.8	7.41e-01	0	43	104	0	79	28744
2026-01-28 04:14:00.38	262.16	15.84	-54.5	-71.7	3.8	7.46e-01	0	43	104	0	79	27961
2026-01-28 04:14:01.39	262.03	15.73	-54.5	-71.7	3.8	7.47e-01	0	43	104	0	79	27790
2026-01-28 04:14:02.39	261.90	15.63	-54.5	-71.6	3.8	7.43e-01	0	43	104	0	79	27441
2026-01-28 04:14:03.40	261.76	15.53	-54.5	-71.7	3.8	7.45e-01	0	43	104	0	79	27802
2026-01-28 04:14:04.41	261.63	15.43	-54.5	-72.0	3.8	7.48e-01	0	43	104	0	79	28961
2026-01-28 04:14:05.41	261.50	15.32	-54.5	-72.2	3.8	7.44e-01	0	43	104	0	79	29503
2026-01-28 04:14:06.42	261.37	15.22	-54.5	-72.2	3.8	7.44e-01	0	43	104	0	79	29547
2026-01-28 04:14:07.43	261.24	15.12	-54.5	-72.1	3.8	7.42e-01	0	43	104	0	79	29292
2026-01-28 04:14:08.44	261.11	15.02	-54.5	-72.2	3.8	7.42e-01	0	43	104	0	79	29393
2026-01-28 04:14:09.45	260.99	14.92	-54.5	-72.2	3.8	7.45e-01	0	43	104	0	79	29597
2026-01-28 04:14:10.45	260.86	14.82	-54.5	-72.3	3.8	7.44e-01	0	43	104	0	79	29840
2026-01-28 04:14:11.46	260.74	14.72	-54.5	-72.3	3.8	7.42e-01	0	43	104	0	79	29837
2026-01-28 04:14:12.47	260.61	14.61	-54.5	-72.3	3.8	7.44e-01	0	43	104	0	79	29927
2026-01-28 04:14:13.48	260.49	14.51	-54.5	-72.3	3.8	7.46e-01	0	43	104	0	79	29844
2026-01-28 04:14:14.49	260.36	14.41	-54.5	-72.2	3.8	7.48e-01	0	43	104	0	79	29659
2026-01-28 04:14:15.49	260.24	14.32	-54.5	-72.2	3.8	7.44e-01	0	43	104	0	79	29577
2026-01-28 04:14:16.50	260.12	14.22	-54.5	-72.3	3.8	7.43e-01	0	43	104	0	79	29779
2026-01-28 04:14:17.51	260.00	14.12	-54.5	-72.3	3.8	7.46e-01	0	43	104	0	79	29813
2026-01-28 04:14:18.52	259.88	14.02	-54.5	-72.3	3.8	7.47e-01	0	43	104	0	79	29879
2026-01-28 04:14:19.53	259.76	13.92	-54.5	-72.3	3.8	7.45e-01	0	43	104	0	79	29843
2026-01-28 04:14:20.53	259.65	13.82	-54.5	-72.3	3.8	7.43e-01	0	43	104	0	79	29761
2026-01-28 04:14:21.54	259.53	13.73	-54.5	-72.3	3.8	7.46e-01	0	43	104	0	79	29745
2026-01-28 04:14:22.54	259.42	13.63	-54.5	-72.3	3.8	7.46e-01	0	43	104	0	79	29722
2026-01-28 04:14:23.55	259.30	13.53	-54.5	-72.3	3.8	7.47e-01	0	43	104	0	79	29750
2026-01-28 04:14:24.56	259.19	13.44	-54.5	-72.3	3.8	7.47e-01	0	43	104	0	79	29898
2026-01-28 04:14:25.57	259.07	13.34	-54.5	-72.3	3.8	7.48e-01	0	43	104	0	79	29840
2026-01-28 04:14:26.58	258.96	13.24	-54.5	-72.3	3.8	7.44e-01	0	43	104	0	79	29817
2026-01-28 04:14:27.59	258.85	13.15	-54.5	-72.2	3.8	7.42e-01	0	44	104	0	79	29630
2026-01-28 04:14:28.59	258.74	13.05	-54.5	-72.1	3.8	7.42e-01	0	43	104	0	79	29308
2026-01-28 04:14:29.61	258.63	12.96	-54.5	-72.1	3.8	7.46e-01	0	43	104	0	79	29171
2026-01-28 04:14:30.61	258.52	12.87	-54.5	-72.1	3.8	7.46e-01	0	43	104	0	79	29153
2026-01-28 04:14:31.62	258.41	12.77	-54.5	-72.2	3.8	7.42e-01	0	43	104	0	79	29361
2026-01-28 04:14:32.63	258.30	12.68	-54.5	-72.3	3.8	7.43e-01	0	43	104	0	79	29692
2026-01-28 04:14:33.64	258.20	12.58	-54.5	-72.3	3.8	7.44e-01	0	43	104	0	79	29805
2026-01-28 04:14:34.65	258.09	12.49	-54.5	-72.3	3.8	7.46e-01	0	43	104	0	79	29857
2026-01-28 04:14:35.66	257.99	12.40	-54.5	-72.3	3.8	7.47e-01	0	43	104	0	79	29860
2026-01-28 04:14:36.67	257.88	12.30	-54.5	-72.3	3.8	7.47e-01	0	43	104	0	79	29786
2026-01-28 04:14:37.68	257.78	12.21	-54.5	-72.3	3.8	7.47e-01	0	43	104	0	79	29854
2026-01-28 04:14:38.69	257.67	12.12	-54.5	-72.3	3.8	7.44e-01	0	43	104	0	79	29938
2026-01-28 04:14:39.70	257.57	12.03	-54.5	-72.3	3.8	7.45e-01	0	43	104	0	79	29796
2026-01-28 04:14:40.70	257.47	11.94	-54.5	-72.2	3.8	7.46e-01	0	43	104	0	79	29644
2026-01-28 04:14:41.71	257.37	11.84	-54.5	-72.3	3.8	7.49e-01	0	43	104	0	79	29729
2026-01-28 04:14:42.72	257.27	11.75	-54.5	-72.2	3.8	7.45e-01	0	43	104	0	79	29462
2026-01-28 04:14:43.73	257.17	11.66	-54.5	-72.1	3.8	7.44e-01	0	43	104	0	79	29220
2026-01-28 04:14:44.73	257.07	11.57	-54.5	-72.2	3.8	7.43e-01	0	43	104	0	79	29362
2026-01-28 04:14:45.74	256.97	11.48	-54.5	-72.1	3.8	7.45e-01	0	43	104	0	79	29267
2026-01-28 04:14:46.74	256.87	11.39	-54.5	-72.1	3.8	7.42e-01	0	43	104	0	79	29338
2026-01-28 04:14:47.75	256.78	11.30	-54.5	-72.2	3.8	7.46e-01	0	43	104	0	79	29489
2026-01-28 04:14:48.77	256.68	11.21	-54.5	-72.2	3.8	7.43e-01	0	43	104	0	79	29647
2026-01-28 04:14:49.77	256.58	11.12	-54.5	-72.3	3.8	7.47e-01	0	43	104	0	79	29754
2026-01-28 04:14:50.78	256.49	11.04	-54.5	-72.3	3.8	7.48e-01	0	43	104	0	79	29760
2026-01-28 04:14:51.79	256.39	10.95	-54.5	-72.3	3.8	7.46e-01	0	43	104	0	79	29739
2026-01-28 04:14:52.80	256.30	10.86	-54.5	-72.3	3.8	7.42e-01	0	43	104	0	79	29688
2026-01-28 04:14:53.81	256.21	10.77	-54.5	-72.2	3.8	7.45e-01	0	43	104	0	79	29590
2026-01-28 04:14:54.82	256.11	10.68	-54.5	-72.2	3.8	7.48e-01	0	43	104	0	79	29625
2026-01-28 04:14:55.83	256.02	10.60	-54.5	-72.2	3.8	7.45e-01	0	43	104	0	79	29681
2026-01-28 04:14:56.84	255.93	10.51	-54.5	-72.2	3.8	7.47e-01	0	44	104	0	79	29636
2026-01-28 04:14:57.85	255.84	10.42	-54.5	-72.2	3.8	7.50e-01	0	43	104	0	79	29607
2026-01-28 04:14:58.85	255.75	10.34	-54.5	-72.3	3.8	7.40e-01	0	43	104	0	79	29764
2026-01-28 04:14:59.86	255.66	10.25	-54.5	-72.3	3.8	7.45e-01	0	43	104	0	79	29738
2026-01-28 04:15:00.87	255.57	10.16	-54.5	-72.3	3.8	7.47e-01	0	43	104	0	79	29885
2026-01-28 04:15:01.88	255.48	10.08	-54.5	-72.3	3.8	7.46e-01	0	43	104	0	79	29953
2026-01-28 04:15:02.88	255.39	9.99	-54.5	-72.3	3.8	7.46e-01	0	43	104	0	79	29950
2026-01-28 04:15:03.89	255.31	9.91	-54.5	-72.3	3.8	7.43e-01	0	43	104	0	79	29892
2026-01-28 04:15:04.90	255.22	9.82	-54.5	-72.3	3.8	7.45e-01	0	43	104	0	79	29883
2026-01-28 04:15:05.91	255.13	9.74	-54.5	-72.3	3.8	7.45e-01	0	43	104	0	79	29924
2026-01-28 04:15:06.92	255.05	9.65	-54.5	-72.3	3.8	7.41e-01	0	43	104	0	79	29822
2026-01-28 04:15:07.93	254.96	9.57	-54.5	-72.3	3.8	7.47e-01	0	43	104	0	79	29809
2026-01-28 04:15:08.94	254.88	9.49	-54.5	-72.3	3.8	7.43e-01	0	43	104	0	79	29780
2026-01-28 04:15:09.94	254.79	9.40	-54.5	-72.3	3.8	7.44e-01	0	43	104	0	79	29792
2026-01-28 04:15:10.95	254.71	9.32	-54.5	-72.2	3.8	7.44e-01	0	43	104	0	79	29621
2026-01-28 04:15:11.96	254.63	9.24	-54.5	-72.2	3.8	7.44e-01	0	43	104	0	79	29574
2026-01-28 04:15:12.97	254.54	9.15	-54.5	-72.2	3.8	7.44e-01	0	43	104	0	79	29389
2026-01-28 04:15:13.98	254.46	9.07	-54.5	-72.2	3.8	7.43e-01	0	43	104	0	79	29574
2026-01-28 04:15:14.98	254.38	8.99	-54.5	-72.2	3.8	7.45e-01	0	43	104	0	79	29367
2026-01-28 04:15:15.99	254.30	8.91	-54.5	-72.1	3.8	7.44e-01	0	43	104	0	79	29081
2026-01-28 04:15:17.00	254.22	8.82	-54.5	-72.0	3.8	7.45e-01	0	43	104	0	79	28949
2026-01-28 04:15:18.01	254.14	8.74	-54.5	-72.0	3.8	7.43e-01	0	43	104	0	79	28831
2026-01-28 04:15:19.02	254.06	8.66	-54.5	-71.9	3.8	7.45e-01	0	43	104	0	79	28670
2026-01-28 04:15:20.03	253.98	8.58	-54.5	-72.0	3.8	7.43e-01	0	43	104	0	79	28911
2026-01-28 04:15:21.03	253.90	8.50	-54.5	-72.0	3.8	7.45e-01	0	43	104	0	79	28801
2026-01-28 04:15:22.04	253.83	8.42	-54.5	-72.0	3.8	7.47e-01	0	43	104	0	79	28725
2026-01-28 04:15:23.05	253.75	8.34	-54.5	-71.9	3.8	7.47e-01	0	43	104	0	79	28644
2026-01-28 04:15:24.06	253.67	8.26	-54.5	-72.0	3.8	7.46e-01	0	43	104	0	79	28888
2026-01-28 04:15:25.07	253.60	8.18	-54.5	-72.1	3.8	7.45e-01	0	43	104	0	79	29078
2026-01-28 04:15:26.08	253.52	8.10	-54.5	-72.1	3.8	7.49e-01	0	43	104	0	79	29160
2026-01-28 04:15:27.09	253.44	8.02	-54.5	-72.1	3.8	7.42e-01	0	43	104	0	79	29039
2026-01-28 04:15:28.09	253.37	7.94	-54.5	-72.1	3.8	7.45e-01	0	43	104	0	79	29214
2026-01-28 04:15:29.10	253.29	7.86	-54.5	-72.2	3.8	7.42e-01	0	43	104	0	79	29432
2026-01-28 04:15:30.10	253.22	7.78	-54.5	-72.2	3.8	7.45e-01	0	43	104	0	79	29447
2026-01-28 04:15:31.11	253.15	7.70	-54.5	-72.2	3.8	7.46e-01	0	43	104	0	79	29667
2026-01-28 04:15:32.12	253.07	7.63	-54.5	-72.2	3.8	7.43e-01	0	43	104	0	79	29623
2026-01-28 04:15:33.12	253.00	7.55	-54.5	-72.3	3.8	7.43e-01	0	43	104	0	79	29800
2026-01-28 04:15:34.13	252.93	7.47	-54.5	-72.3	3.8	7.43e-01	0	43	104	0	79	29737
2026-01-28 04:15:35.14	252.86	7.39	-54.5	-72.3	3.8	7.48e-01	0	43	104	0	79	29738
2026-01-28 04:15:36.15	252.79	7.31	-54.5	-72.3	3.8	7.48e-01	0	43	104	0	79	29739
2026-01-28 04:15:37.16	252.71	7.24	-54.5	-72.3	3.8	7.43e-01	0	43	104	0	79	29713
2026-01-28 04:15:38.17	252.64	7.16	-54.5	-72.3	3.8	7.45e-01	0	43	104	0	79	29764
2026-01-28 04:15:39.17	252.57	7.08	-54.5	-72.3	3.8	7.47e-01	0	43	104	0	79	29763
2026-01-28 04:15:40.18	252.50	7.01	-54.5	-72.3	3.8	7.46e-01	0	43	104	0	79	29878
2026-01-28 04:15:41.19	252.43	6.93	-54.5	-72.3	3.8	7.44e-01	0	43	104	0	79	29802
2026-01-28 04:15:42.19	252.37	6.86	-54.5	-72.3	3.8	7.48e-01	0	43	104	0	79	29914
2026-01-28 04:15:43.20	252.30	6.78	-54.5	-72.3	3.8	7.48e-01	0	43	104	0	79	29933
2026-01-28 04:15:44.21	252.23	6.70	-54.5	-72.3	3.8	7.46e-01	0	43	104	0	79	29881
2026-01-28 04:15:45.22	252.16	6.63	-54.5	-72.3	3.8	7.47e-01	0	43	104	0	79	29943
2026-01-28 04:15:46.23	252.09	6.55	-54.5	-72.3	3.8	7.45e-01	0	43	104	0	79	29863
2026-01-28 04:15:47.23	252.03	6.48	-54.5	-72.3	3.8	7.44e-01	0	43	104	0	79	29945
2026-01-28 04:15:48.24	251.96	6.40	-54.5	-72.3	3.8	7.44e-01	0	43	104	0	79	29888
2026-01-28 04:15:49.25	251.90	6.33	-54.5	-72.3	3.8	7.47e-01	0	43	104	0	79	29901
2026-01-28 04:15:50.26	251.83	6.25	-54.5	-72.3	3.8	7.48e-01	0	43	104	0	79	29912
2026-01-28 04:15:51.27	251.76	6.18	-54.5	-72.3	3.8	7.47e-01	0	43	104	0	79	29839
2026-01-28 04:15:52.28	251.70	6.11	-54.5	-72.3	3.8	7.48e-01	0	43	104	0	79	29914
2026-01-28 04:15:53.28	251.63	6.03	-54.5	-72.3	3.8	7.46e-01	0	43	104	0	79	29920
2026-01-28 04:15:54.29	251.57	5.96	-54.5	-72.3	3.8	7.45e-01	0	43	104	0	79	29920
2026-01-28 04:15:55.30	251.51	5.88	-54.5	-72.3	3.8	7.44e-01	0	43	104	0	79	29969
2026-01-28 04:15:56.31	251.44	5.81	-54.5	-72.3	3.8	7.50e-01	0	43	104	0	79	29905
2026-01-28 04:15:57.32	251.38	5.74	-54.5	-72.3	3.8	7.45e-01	0	44	104	0	79	29876
2026-01-28 04:15:58.33	251.32	5.67	-54.5	-72.3	3.8	7.47e-01	0	43	104	0	79	29936
2026-01-28 04:15:59.33	251.25	5.59	-54.5	-72.3	3.8	7.44e-01	0	43	104	0	79	29963
2026-01-28 04:16:00.34	251.19	5.52	-54.5	-72.3	3.8	7.42e-01	0	43	104	0	79	29954
2026-01-28 04:16:01.35	251.13	5.45	-54.5	-72.3	3.8	7.45e-01	0	43	104	0	79	29971
2026-01-28 04:16:02.36	251.07	5.38	-54.5	-72.3	3.8	7.48e-01	0	43	104	0	79	29975
2026-01-28 04:16:03.37	251.01	5.30	-54.5	-72.3	3.8	7.47e-01	0	43	104	0	79	29866
2026-01-28 04:16:04.37	250.95	5.23	-54.5	-72.3	3.8	7.45e-01	0	43	104	0	79	29888
2026-01-28 04:16:05.38	250.89	5.16	-54.5	-72.3	3.8	7.47e-01	0	43	104	0	79	29894
2026-01-28 04:16:06.39	250.83	5.09	-54.5	-72.3	3.8	7.43e-01	0	43	104	0	79	29848
2026-01-28 04:16:07.40	250.77	5.02	-54.5	-72.3	3.8	7.45e-01	0	43	104	0	79	29910
2026-01-28 04:16:08.41	250.71	4.95	-54.5	-72.3	3.8	7.43e-01	0	43	104	0	79	29902
2026-01-28 04:16:09.42	250.65	4.88	-54.5	-72.3	3.8	7.43e-01	0	43	104	0	79	29908
2026-01-28 04:16:10.43	250.59	4.81	-54.5	-72.3	3.8	7.43e-01	0	43	104	0	79	29882
2026-01-28 04:16:11.44	250.53	4.73	-54.5	-72.3	3.8	7.47e-01	0	43	104	0	79	29924
2026-01-28 04:16:12.45	250.47	4.66	-54.5	-72.3	3.8	7.48e-01	0	43	104	0	79	29961
2026-01-28 04:16:13.46	250.42	4.59	-54.5	-72.3	3.8	7.46e-01	0	44	104	0	79	29981
2026-01-28 04:16:14.47	250.36	4.52	-54.5	-72.3	3.8	7.46e-01	0	43	104	0	79	29908
2026-01-28 04:16:15.47	250.30	4.46	-54.5	-72.3	3.8	7.46e-01	0	43	104	0	79	29908
2026-01-28 04:16:16.48	250.24	4.39	-54.5	-72.3	3.8	7.46e-01	0	43	104	0	79	29874
2026-01-28 04:16:17.49	250.19	4.32	-54.5	-72.3	3.8	7.49e-01	0	43	104	0	79	29873
2026-01-28 04:16:18.50	250.13	4.25	-54.5	-72.3	3.8	7.47e-01	0	43	104	0	79	29877
2026-01-28 04:16:19.51	250.08	4.18	-54.5	-72.3	3.8	7.46e-01	0	43	104	0	79	29895
2026-01-28 04:16:20.51	250.02	4.11	-54.5	-72.3	3.8	7.46e-01	0	43	104	0	79	29857
2026-01-28 04:16:21.52	249.97	4.04	-54.5	-72.3	3.8	7.48e-01	0	43	104	0	79	29962
2026-01-28 04:16:22.53	249.91	3.97	-54.5	-72.3	3.8	7.44e-01	0	43	104	0	79	29901
2026-01-28 04:16:23.54	249.86	3.90	-54.5	-72.3	3.8	7.47e-01	0	43	104	0	79	29870
2026-01-28 04:16:24.55	249.80	3.83	-54.5	-72.3	3.8	7.48e-01	0	43	104	0	79	29924
2026-01-28 04:16:25.56	249.75	3.77	-54.5	-72.3	3.8	7.46e-01	0	43	104	0	79	29921
2026-01-28 04:16:26.57	249.69	3.70	-54.5	-72.3	3.8	7.44e-01	0	43	104	0	79	29908
2026-01-28 04:16:27.58	249.64	3.63	-54.5	-72.3	3.8	7.42e-01	0	43	104	0	79	29910
2026-01-28 04:16:28.59	249.59	3.56	-54.5	-72.3	3.8	7.44e-01	0	43	104	0	79	29923
2026-01-28 04:16:29.60	249.53	3.50	-54.5	-72.3	3.8	7.45e-01	0	43	104	0	79	29876
2026-01-28 04:16:30.61	249.48	3.43	-54.5	-72.3	3.8	7.44e-01	0	43	104	0	79	29944
2026-01-28 04:16:31.62	249.43	3.36	-54.5	-72.3	3.8	7.46e-01	0	43	104	0	79	29908
2026-01-28 04:16:32.63	249.38	3.29	-54.5	-72.3	3.8	7.46e-01	0	43	104	0	79	29857
2026-01-28 04:16:33.64	249.32	3.23	-54.5	-72.3	3.8	7.48e-01	0	43	104	0	79	29922
2026-01-28 04:16:34.64	249.27	3.16	-54.5	-72.3	3.8	7.44e-01	0	43	104	0	79	29776
2026-01-28 04:16:35.65	249.22	3.10	-54.5	-72.3	3.8	7.46e-01	0	43	104	0	79	29832
2026-01-28 04:16:36.65	249.17	3.03	-54.5	-72.3	3.8	7.43e-01	0	43	104	0	79	29763
2026-01-28 04:16:37.66	249.12	2.96	-54.5	-72.3	3.8	7.47e-01	0	43	104	0	79	29816
2026-01-28 04:16:38.67	249.07	2.90	-54.5	-72.3	3.8	7.46e-01	0	43	104	0	79	29794
2026-01-28 04:16:39.68	249.02	2.83	-54.5	-72.3	3.8	7.47e-01	0	43	104	0	79	29819
2026-01-28 04:16:40.69	248.97	2.77	-54.5	-72.3	3.8	7.44e-01	0	43	104	0	79	29848
2026-01-28 04:16:41.70	248.92	2.70	-54.5	-72.3	3.8	7.45e-01	0	43	104	0	79	29802
2026-01-28 04:16:42.71	248.87	2.63	-54.5	-72.3	3.8	7.42e-01	0	43	104	0	79	29832
2026-01-28 04:16:43.71	248.82	2.57	-54.5	-72.3	3.8	7.46e-01	0	43	104	0	79	29787
2026-01-28 04:16:44.73	248.77	2.50	-54.5	-72.3	3.8	7.45e-01	0	43	104	0	79	29790
2026-01-28 04:16:45.73	248.72	2.44	-54.5	-72.3	3.8	7.44e-01	0	43	104	0	79	29854
2026-01-28 04:16:46.74	248.68	2.37	-54.5	-72.3	3.8	7.48e-01	0	43	104	0	79	29815
2026-01-28 04:16:47.75	248.63	2.31	-54.5	-72.3	3.8	7.48e-01	0	43	104	0	79	29877
2026-01-28 04:16:48.76	248.58	2.25	-54.5	-72.3	3.8	7.46e-01	0	43	104	0	79	29842
2026-01-28 04:16:49.77	248.53	2.18	-54.5	-72.3	3.8	7.46e-01	0	43	104	0	79	29858
2026-01-28 04:16:50.77	248.48	2.12	-54.5	-72.3	3.8	7.47e-01	0	43	104	0	79	29820
2026-01-28 04:16:51.78	248.44	2.05	-54.5	-72.3	3.8	7.43e-01	0	43	104	0	79	29778
2026-01-28 04:16:52.79	248.39	1.99	-54.5	-72.3	3.8	7.50e-01	0	43	104	0	79	29851
2026-01-28 04:16:53.79	248.34	1.93	-54.5	-72.3	3.8	7.46e-01	0	43	104	0	79	29833

#Closed at: 2026-01-28 04:16:54
#Recorded file [0 MB]: D:/lorett/data/31041_260128_070445.dat