passes_logs/2026/01/28/R3.2S_Murmansk/R3.2S_Murmansk__20260128_070558_SUOMI_NPP_rec.log

#Pass ID: 20260128_070558_SUOMI NPP
#Satellite: SUOMI NPP
#Configuration: NPP
#almurnet v.1.7.20251203
#Start time: 2026-01-28 07:05:59

#Version: 2.2.20231116
#Station: R3.2S_Murmansk
#Location: 33.079688 lon 68.888172 lat
#TLE: 1 37849U 11061A   26027.86188320  .00000172  00000+0  10275-3 0  9990
#TLE: 2 37849  98.7823 329.8005 0002088  41.4184 318.7150 14.19530883738530

#Time	Az	El	Level	Level2	SNR	BER	BlckErr	Temp	State	Recorded	gain1	gain2
2026-01-28 07:05:59.36	95.36	2.04	-53.3	-68.2	3.8	1.49e+00	0	41	0	0	78	19732
2026-01-28 07:06:00.35	95.31	2.10	-52.5	-67.6	3.8	1.49e+00	0	41	104	0	76	20542
2026-01-28 07:06:01.36	95.26	2.16	-52.5	-67.4	3.8	1.49e+00	0	41	104	0	76	20244
2026-01-28 07:06:02.37	95.21	2.23	-52.3	-67.3	3.8	1.49e+00	0	41	104	0	76	19913
2026-01-28 07:06:03.38	95.16	2.29	-52.2	-67.1	3.8	1.49e+00	0	41	104	0	76	19587
2026-01-28 07:06:04.38	95.11	2.35	-52.1	-67.0	3.8	1.49e+00	0	41	104	0	76	19242
2026-01-28 07:06:05.39	95.05	2.41	-52.1	-67.0	3.8	1.49e+00	0	41	104	0	76	19187
2026-01-28 07:06:06.40	95.00	2.47	-52.0	-66.9	3.8	1.49e+00	0	41	104	0	76	19091
2026-01-28 07:06:07.41	94.95	2.53	-52.0	-66.9	3.8	1.49e+00	0	41	104	0	76	19157
2026-01-28 07:06:08.42	94.90	2.59	-52.0	-66.9	3.8	1.49e+00	0	41	104	0	76	19167
2026-01-28 07:06:09.43	94.84	2.65	-52.0	-67.0	3.8	1.49e+00	0	41	104	0	76	19236
2026-01-28 07:06:10.43	94.79	2.71	-52.0	-67.0	3.8	1.49e+00	0	41	104	0	76	19217
2026-01-28 07:06:11.44	94.74	2.77	-52.0	-67.0	3.8	1.49e+00	0	41	104	0	76	19169
2026-01-28 07:06:12.45	94.68	2.84	-52.0	-66.9	3.8	1.49e+00	0	41	104	0	76	19157
2026-01-28 07:06:13.46	94.63	2.90	-52.0	-66.9	3.8	1.49e+00	0	41	104	0	76	18982
2026-01-28 07:06:14.47	94.57	2.96	-52.0	-66.9	3.8	1.49e+00	0	41	104	0	76	18986
2026-01-28 07:06:15.48	94.52	3.02	-52.0	-66.8	3.8	1.49e+00	0	41	104	0	76	18849
2026-01-28 07:06:16.48	94.47	3.08	-52.0	-66.8	3.8	1.49e+00	0	41	104	0	76	18827
2026-01-28 07:06:17.49	94.41	3.15	-52.0	-66.8	3.8	1.49e+00	0	41	104	0	76	18872
2026-01-28 07:06:18.50	94.36	3.21	-52.0	-66.9	3.8	1.49e+00	0	41	104	0	76	19023
2026-01-28 07:06:19.50	94.30	3.27	-52.0	-66.9	3.8	1.49e+00	0	42	104	0	76	19077
2026-01-28 07:06:20.51	94.24	3.33	-52.0	-66.9	3.8	1.49e+00	0	41	104	0	76	19093
2026-01-28 07:06:21.52	94.19	3.39	-52.0	-67.0	3.8	1.49e+00	0	41	104	0	76	19176
2026-01-28 07:06:22.53	94.13	3.46	-52.0	-66.9	3.8	1.49e+00	0	41	104	0	76	19120
2026-01-28 07:06:23.54	94.08	3.52	-52.0	-66.9	3.8	1.49e+00	0	41	104	0	76	19105
2026-01-28 07:06:24.55	94.02	3.58	-52.0	-66.9	3.8	1.49e+00	0	41	104	0	76	19063
2026-01-28 07:06:25.55	93.96	3.65	-52.0	-66.9	3.8	1.49e+00	0	42	104	0	75	20139
2026-01-28 07:06:26.56	93.91	3.71	-52.0	-66.9	3.8	1.49e+00	0	42	104	0	75	20103
2026-01-28 07:06:27.57	93.85	3.77	-52.0	-66.8	3.8	1.49e+00	0	41	104	0	75	19986
2026-01-28 07:06:28.59	93.79	3.84	-52.0	-66.7	3.8	1.49e+00	0	42	104	0	75	19635
2026-01-28 07:06:29.60	93.73	3.90	-51.9	-66.2	3.8	1.49e+00	0	42	104	0	75	18584
2026-01-28 07:06:30.60	93.67	3.96	-51.9	-65.8	3.8	1.49e+00	0	42	104	0	75	17742
2026-01-28 07:06:31.61	93.62	4.03	-51.9	-64.9	3.9	1.49e+00	0	42	104	0	75	16043
2026-01-28 07:06:32.62	93.56	4.09	-51.8	-64.2	4.0	1.49e+00	0	42	104	0	75	14861
2026-01-28 07:06:33.63	93.50	4.16	-51.8	-63.7	4.1	1.47e+00	0	41	104	0	75	14044
2026-01-28 07:06:34.63	93.44	4.22	-51.8	-63.2	4.2	1.36e+00	0	42	0	0	75	13224
2026-01-28 07:06:35.64	93.38	4.28	-51.7	-62.8	4.4	1.34e+00	129	42	0	0	75	12591
2026-01-28 07:06:36.65	93.32	4.35	-51.7	-62.7	4.4	1.32e+00	173	42	0	1048576	75	12434
2026-01-28 07:06:37.66	93.26	4.41	-51.7	-63.0	4.3	1.31e+00	0	42	0	3145728	75	12947
2026-01-28 07:06:38.67	93.20	4.48	-51.8	-63.6	4.1	1.39e+00	0	42	0	3145728	75	13836
2026-01-28 07:06:39.67	93.14	4.54	-51.8	-64.5	3.8	1.43e+00	0	42	104	3145728	75	15308
2026-01-28 07:06:40.68	93.08	4.61	-51.9	-64.8	3.9	1.48e+00	0	42	104	3145728	75	15787
2026-01-28 07:06:41.69	93.02	4.67	-51.8	-64.4	4.0	1.48e+00	0	42	104	3145728	75	15182
2026-01-28 07:06:42.69	92.95	4.74	-51.8	-63.7	4.1	1.46e+00	0	42	0	3145728	75	13924
2026-01-28 07:06:43.70	92.89	4.80	-51.6	-62.1	4.6	1.13e+00	0	42	0	3145728	75	11563
2026-01-28 07:06:44.70	92.83	4.87	-51.5	-60.7	5.3	7.28e-01	0	42	0	5242880	75	9937
2026-01-28 07:06:45.71	92.77	4.93	-51.4	-59.9	5.9	4.18e-01	0	42	0	7340032	74	9525
2026-01-28 07:06:46.72	92.71	5.00	-51.3	-59.2	6.5	2.65e-01	0	42	0	9437184	74	8788
2026-01-28 07:06:47.73	92.64	5.06	-50.1	-54.6	11.2	7.75e-02	0	42	0	10485760	72	5811
2026-01-28 07:06:48.73	92.58	5.13	-49.4	-52.9	13.1	1.85e-04	0	42	0	12582912	70	5343
2026-01-28 07:06:49.74	92.52	5.20	-52.0	-66.5	3.7	2.74e-05	26	42	0	14680064	74	20438
2026-01-28 07:06:50.75	92.45	5.26	-51.4	-58.9	7.0	1.12e+00	0	42	104	14680064	74	8499
2026-01-28 07:06:51.76	92.39	5.33	-48.1	-50.7	15.3	3.85e-02	0	42	0	15728640	68	4665
2026-01-28 07:06:52.77	92.32	5.39	-48.1	-50.7	15.3	0.00e+00	0	42	0	17825792	68	4695
2026-01-28 07:06:53.77	92.26	5.46	-47.8	-50.3	15.5	0.00e+00	0	42	0	19922944	67	4744
2026-01-28 07:06:54.78	92.19	5.53	-47.8	-50.3	15.6	0.00e+00	0	42	0	22020096	67	4736
2026-01-28 07:06:55.79	92.13	5.59	-47.8	-50.3	15.6	0.00e+00	0	42	0	23068672	67	4727
2026-01-28 07:06:56.80	92.06	5.66	-47.6	-49.9	16.0	0.00e+00	0	42	0	25165824	67	4513
2026-01-28 07:06:57.81	92.00	5.73	-47.7	-50.2	15.8	0.00e+00	0	42	0	27262976	67	4658
2026-01-28 07:06:58.81	91.93	5.79	-47.7	-50.1	15.9	0.00e+00	0	42	0	29360128	66	4871
2026-01-28 07:06:59.82	91.86	5.86	-47.5	-49.8	16.1	0.00e+00	0	42	0	30408704	66	4739
2026-01-28 07:07:00.82	91.80	5.93	-47.5	-49.7	16.3	0.00e+00	0	42	0	32505856	66	4692
2026-01-28 07:07:01.83	91.73	6.00	-47.6	-49.9	16.1	0.00e+00	0	42	0	34603008	66	4779
2026-01-28 07:07:02.84	91.66	6.06	-47.5	-49.8	16.2	0.00e+00	0	42	0	36700160	66	4737
2026-01-28 07:07:03.85	91.59	6.13	-47.5	-49.8	16.3	0.00e+00	0	42	0	38797312	66	4710
2026-01-28 07:07:04.85	91.52	6.20	-47.4	-49.6	16.3	0.00e+00	0	42	0	39845888	66	4643
2026-01-28 07:07:05.86	91.46	6.27	-47.3	-49.4	16.6	0.00e+00	0	42	0	41943040	66	4539
2026-01-28 07:07:06.87	91.39	6.34	-47.5	-49.8	16.2	0.00e+00	0	42	0	44040192	66	4722
2026-01-28 07:07:07.88	91.32	6.41	-47.3	-49.5	16.6	0.00e+00	0	42	0	46137344	66	4572
2026-01-28 07:07:08.89	91.25	6.47	-47.5	-49.7	16.4	0.00e+00	0	42	0	48234496	66	4687
2026-01-28 07:07:09.89	91.18	6.54	-47.6	-49.9	16.1	0.00e+00	0	42	0	50331648	66	4809
2026-01-28 07:07:10.90	91.11	6.61	-47.7	-50.0	16.0	0.00e+00	0	42	0	51380224	66	4841
2026-01-28 07:07:11.91	91.04	6.68	-47.6	-49.8	16.2	0.00e+00	0	42	0	53477376	66	4754
2026-01-28 07:07:12.91	90.97	6.75	-47.7	-50.0	16.1	0.00e+00	0	42	0	55574528	66	4831
2026-01-28 07:07:13.92	90.89	6.82	-47.6	-49.9	16.2	0.00e+00	0	42	0	57671680	66	4776
2026-01-28 07:07:14.93	90.82	6.89	-47.8	-50.2	15.9	0.00e+00	0	42	0	58720256	66	4963
2026-01-28 07:07:15.93	90.75	6.96	-47.6	-49.8	16.2	0.00e+00	0	42	0	60817408	66	4733
2026-01-28 07:07:16.94	90.68	7.03	-47.6	-49.9	16.2	0.00e+00	0	42	0	62914560	66	4774
2026-01-28 07:07:17.95	90.60	7.10	-47.7	-50.0	16.1	0.00e+00	0	42	0	65011712	66	4832
2026-01-28 07:07:18.96	90.53	7.17	-47.7	-50.0	16.2	0.00e+00	0	42	0	67108864	66	4837
2026-01-28 07:07:19.97	90.46	7.24	-47.6	-49.9	16.2	0.00e+00	0	42	0	69206016	66	4779
2026-01-28 07:07:20.97	90.38	7.31	-47.6	-49.9	16.3	0.00e+00	0	42	0	70254592	66	4768
2026-01-28 07:07:21.98	90.31	7.38	-47.8	-50.1	16.0	0.00e+00	0	42	0	72351744	66	4904
2026-01-28 07:07:22.99	90.23	7.45	-48.0	-50.5	15.7	0.00e+00	0	42	0	74448896	66	5103
2026-01-28 07:07:24.00	90.16	7.52	-47.7	-49.9	16.2	0.00e+00	0	42	0	76546048	66	4813
2026-01-28 07:07:25.00	90.08	7.59	-47.7	-50.1	16.1	0.00e+00	0	42	0	78643200	66	4883
2026-01-28 07:07:26.01	90.01	7.66	-47.8	-50.1	16.1	0.00e+00	0	42	0	79691776	66	4896
2026-01-28 07:07:27.02	89.93	7.73	-47.8	-50.1	16.1	0.00e+00	0	42	0	81788928	66	4903
2026-01-28 07:07:28.03	89.85	7.80	-47.6	-49.8	16.3	0.00e+00	0	42	0	83886080	66	4753
2026-01-28 07:07:29.04	89.78	7.88	-47.6	-49.9	16.3	0.00e+00	0	42	0	85983232	66	4763
2026-01-28 07:07:30.04	89.70	7.95	-47.5	-49.7	16.5	0.00e+00	0	42	0	87031808	66	4680
2026-01-28 07:07:31.05	89.62	8.02	-47.8	-50.2	16.0	0.00e+00	0	42	0	89128960	66	4957
2026-01-28 07:07:32.06	89.54	8.09	-47.4	-49.7	16.4	0.00e+00	0	42	0	91226112	66	4680
2026-01-28 07:07:33.07	89.47	8.16	-47.4	-49.7	16.4	0.00e+00	0	42	0	93323264	66	4680
2026-01-28 07:07:34.08	89.39	8.23	-47.6	-50.0	16.1	0.00e+00	0	42	0	95420416	66	4865
2026-01-28 07:07:35.08	89.31	8.31	-47.4	-49.7	16.4	0.00e+00	0	42	0	97517568	66	4665
2026-01-28 07:07:36.09	89.23	8.38	-47.5	-49.8	16.4	0.00e+00	0	42	0	98566144	66	4721
2026-01-28 07:07:37.10	89.15	8.45	-47.4	-49.7	16.4	0.00e+00	0	42	0	100663296	66	4698
2026-01-28 07:07:38.11	89.07	8.53	-47.4	-49.7	16.4	0.00e+00	0	42	0	102760448	66	4692
2026-01-28 07:07:39.12	88.98	8.60	-47.4	-49.7	16.4	0.00e+00	0	42	0	104857600	66	4693
2026-01-28 07:07:40.13	88.90	8.67	-47.2	-49.4	16.7	0.00e+00	0	42	0	106954752	66	4543
2026-01-28 07:07:41.13	88.82	8.74	-47.3	-49.5	16.6	0.00e+00	0	42	0	108003328	66	4554
2026-01-28 07:07:42.14	88.74	8.82	-46.9	-49.0	17.1	0.00e+00	0	43	0	110100480	65	4573
2026-01-28 07:07:43.15	88.66	8.89	-46.9	-48.9	17.1	0.00e+00	0	43	0	112197632	65	4541
2026-01-28 07:07:44.16	88.57	8.97	-46.9	-49.0	17.2	0.00e+00	0	42	0	114294784	65	4553
2026-01-28 07:07:45.16	88.49	9.04	-46.8	-48.8	17.3	0.00e+00	0	43	0	116391936	65	4465
2026-01-28 07:07:46.17	88.41	9.11	-46.7	-48.6	17.5	0.00e+00	0	42	0	117440512	65	4391
2026-01-28 07:07:47.18	88.32	9.19	-46.9	-49.0	17.2	0.00e+00	0	42	0	119537664	65	4550
2026-01-28 07:07:48.19	88.24	9.26	-46.9	-48.9	17.3	0.00e+00	0	42	0	121634816	65	4526
2026-01-28 07:07:49.20	88.15	9.34	-46.7	-48.7	17.5	0.00e+00	0	43	0	123731968	65	4398
2026-01-28 07:07:50.21	88.06	9.41	-46.6	-48.6	17.5	0.00e+00	0	43	0	125829120	65	4362
2026-01-28 07:07:51.21	87.98	9.49	-46.7	-48.7	17.4	0.00e+00	0	43	0	126877696	65	4438
2026-01-28 07:07:52.22	87.89	9.56	-46.7	-48.7	17.4	0.00e+00	0	42	0	128974848	65	4432
2026-01-28 07:07:53.23	87.80	9.64	-46.5	-48.4	17.7	0.00e+00	0	42	0	131072000	65	4291
2026-01-28 07:07:54.24	87.72	9.71	-46.6	-48.5	17.6	0.00e+00	0	42	0	133169152	65	4315
2026-01-28 07:07:55.24	87.63	9.79	-46.6	-48.5	17.6	0.00e+00	0	43	0	135266304	64	4590
2026-01-28 07:07:56.25	87.54	9.86	-46.5	-48.4	17.7	0.00e+00	0	42	0	136314880	64	4509
2026-01-28 07:07:57.26	87.45	9.94	-46.4	-48.3	17.9	0.00e+00	0	42	0	138412032	64	4447
2026-01-28 07:07:58.27	87.36	10.02	-46.7	-48.6	17.5	0.00e+00	0	43	0	140509184	64	4632
2026-01-28 07:07:59.28	87.27	10.09	-46.6	-48.6	17.6	0.00e+00	0	43	0	142606336	64	4611
2026-01-28 07:08:00.28	87.18	10.17	-46.8	-48.9	17.3	0.00e+00	0	42	0	144703488	64	4773
2026-01-28 07:08:01.29	87.09	10.24	-46.7	-48.6	17.6	0.00e+00	0	43	0	145752064	64	4626
2026-01-28 07:08:02.30	87.00	10.32	-46.8	-48.8	17.4	0.00e+00	0	43	0	147849216	64	4718
2026-01-28 07:08:03.30	86.90	10.40	-46.9	-49.0	17.2	0.00e+00	0	43	0	149946368	64	4828
2026-01-28 07:08:04.31	86.81	10.47	-46.7	-48.7	17.5	0.00e+00	0	43	0	152043520	64	4699
2026-01-28 07:08:05.32	86.72	10.55	-46.7	-48.6	17.6	0.00e+00	0	43	0	154140672	64	4643
2026-01-28 07:08:06.32	86.62	10.63	-46.6	-48.5	17.6	0.00e+00	0	42	0	155189248	64	4595
2026-01-28 07:08:07.33	86.53	10.71	-46.6	-48.5	17.7	0.00e+00	0	42	0	157286400	64	4575
2026-01-28 07:08:08.34	86.44	10.78	-46.5	-48.4	17.8	0.00e+00	0	43	0	159383552	64	4545
2026-01-28 07:08:09.35	86.34	10.86	-46.5	-48.4	17.8	0.00e+00	0	43	0	161480704	64	4515
2026-01-28 07:08:10.35	86.25	10.94	-46.5	-48.4	17.9	0.00e+00	0	43	0	163577856	64	4522
2026-01-28 07:08:11.36	86.15	11.02	-46.7	-48.6	17.6	0.00e+00	0	43	0	165675008	64	4644
2026-01-28 07:08:12.37	86.05	11.10	-46.6	-48.5	17.8	0.00e+00	0	43	0	166723584	64	4561
2026-01-28 07:08:13.38	85.95	11.17	-46.5	-48.3	17.9	0.00e+00	0	42	0	168820736	64	4484
2026-01-28 07:08:14.39	85.86	11.25	-46.5	-48.4	17.8	0.00e+00	0	42	0	170917888	64	4528
2026-01-28 07:08:15.39	85.76	11.33	-46.5	-48.4	17.8	0.00e+00	0	42	0	173015040	64	4503
2026-01-28 07:08:16.40	85.66	11.41	-46.4	-48.3	17.9	0.00e+00	0	42	0	174063616	64	4469
2026-01-28 07:08:17.41	85.56	11.49	-46.4	-48.2	18.0	0.00e+00	0	43	0	176160768	64	4437
2026-01-28 07:08:18.42	85.46	11.57	-46.4	-48.2	18.1	0.00e+00	0	43	0	178257920	64	4392
2026-01-28 07:08:19.43	85.36	11.65	-46.5	-48.3	17.9	0.00e+00	0	43	0	180355072	64	4478
2026-01-28 07:08:20.44	85.26	11.73	-46.4	-48.2	18.1	0.00e+00	0	43	0	182452224	64	4400
2026-01-28 07:08:21.44	85.16	11.81	-46.4	-48.3	17.9	0.00e+00	0	43	0	183500800	64	4452
2026-01-28 07:08:22.45	85.05	11.89	-46.6	-48.4	17.8	0.00e+00	0	43	0	185597952	64	4541
2026-01-28 07:08:23.46	84.95	11.97	-46.5	-48.3	18.0	0.00e+00	0	43	0	187695104	64	4469
2026-01-28 07:08:24.47	84.85	12.05	-46.5	-48.3	17.9	0.00e+00	0	43	0	189792256	64	4492
2026-01-28 07:08:25.48	84.74	12.13	-46.4	-48.3	18.0	0.00e+00	0	42	0	191889408	64	4456
2026-01-28 07:08:26.49	84.64	12.21	-46.2	-48.0	18.2	0.00e+00	0	43	0	193986560	64	4312
2026-01-28 07:08:27.50	84.53	12.29	-46.4	-48.3	18.0	0.00e+00	0	43	0	195035136	64	4460
2026-01-28 07:08:28.51	84.43	12.37	-46.4	-48.2	18.1	0.00e+00	0	43	0	197132288	64	4422
2026-01-28 07:08:29.52	84.32	12.46	-46.4	-48.2	18.0	0.00e+00	0	43	0	199229440	64	4422
2026-01-28 07:08:30.52	84.21	12.54	-46.4	-48.3	18.0	0.00e+00	0	43	0	201326592	64	4457
2026-01-28 07:08:31.52	84.11	12.62	-46.5	-48.4	17.9	0.00e+00	0	42	0	202375168	64	4516
2026-01-28 07:08:32.53	84.00	12.70	-46.4	-48.3	18.0	0.00e+00	0	42	0	204472320	64	4461
2026-01-28 07:08:33.54	83.89	12.78	-46.7	-48.7	17.6	0.00e+00	0	43	0	206569472	64	4679
2026-01-28 07:08:34.55	83.78	12.86	-46.5	-48.4	17.9	0.00e+00	0	43	0	208666624	64	4515
2026-01-28 07:08:35.56	83.67	12.95	-46.4	-48.3	18.0	0.00e+00	0	43	0	210763776	64	4458
2026-01-28 07:08:36.56	83.56	13.03	-46.6	-48.4	17.9	0.00e+00	0	42	0	212860928	64	4541
2026-01-28 07:08:37.57	83.45	13.11	-46.4	-48.3	18.0	0.00e+00	0	43	0	213909504	64	4460
2026-01-28 07:08:38.57	83.34	13.19	-46.6	-48.5	17.8	0.00e+00	0	43	0	216006656	64	4593
2026-01-28 07:08:39.58	83.22	13.28	-46.8	-48.8	17.5	0.00e+00	0	43	0	218103808	64	4731
2026-01-28 07:08:40.59	83.11	13.36	-47.0	-49.0	17.3	0.00e+00	0	43	0	220200960	64	4862
2026-01-28 07:08:41.59	83.00	13.44	-46.8	-48.8	17.5	0.00e+00	0	43	0	222298112	64	4735
2026-01-28 07:08:42.60	82.88	13.53	-46.6	-48.6	17.8	0.00e+00	0	43	0	223346688	64	4611
2026-01-28 07:08:43.61	82.77	13.61	-46.6	-48.5	17.9	0.00e+00	0	42	0	225443840	64	4547
2026-01-28 07:08:44.62	82.65	13.69	-46.6	-48.5	17.8	0.00e+00	0	42	0	227540992	64	4571
2026-01-28 07:08:45.63	82.53	13.78	-46.0	-47.7	18.6	0.00e+00	0	43	0	229638144	64	4154
2026-01-28 07:08:46.64	82.41	13.86	-46.3	-48.1	18.2	0.00e+00	0	43	0	230686720	64	4364
2026-01-28 07:08:47.65	82.30	13.95	-46.2	-48.0	18.4	0.00e+00	0	43	0	232783872	64	4318
2026-01-28 07:08:48.65	82.18	14.03	-46.4	-48.2	18.3	0.00e+00	0	43	0	234881024	63	4678
2026-01-28 07:08:49.66	82.06	14.11	-46.5	-48.3	18.2	0.00e+00	0	42	0	236978176	63	4746
2026-01-28 07:08:50.67	81.94	14.20	-46.4	-48.2	18.2	0.00e+00	0	43	0	239075328	63	4670
2026-01-28 07:08:51.68	81.82	14.28	-46.3	-48.0	18.4	0.00e+00	0	43	0	241172480	63	4579
2026-01-28 07:08:52.69	81.70	14.37	-46.2	-47.9	18.5	0.00e+00	0	43	0	242221056	63	4537
2026-01-28 07:08:53.69	81.57	14.45	-45.7	-47.2	19.2	0.00e+00	0	43	0	244318208	63	4175
2026-01-28 07:08:54.70	81.45	14.54	-45.9	-47.6	18.9	0.00e+00	0	43	0	246415360	63	4343
2026-01-28 07:08:55.71	81.33	14.63	-46.0	-47.6	18.7	0.00e+00	0	43	0	248512512	63	4383
2026-01-28 07:08:56.72	81.20	14.71	-45.9	-47.5	18.9	0.00e+00	0	42	0	250609664	63	4333
2026-01-28 07:08:57.73	81.08	14.80	-46.2	-47.9	18.5	0.00e+00	0	43	0	251658240	63	4522
2026-01-28 07:08:58.74	80.95	14.88	-46.3	-48.1	18.4	0.00e+00	0	43	0	253755392	63	4600
2026-01-28 07:08:59.75	80.82	14.97	-46.4	-48.1	18.4	0.00e+00	0	43	0	255852544	63	4644
2026-01-28 07:09:00.76	80.70	15.06	-46.3	-48.1	18.3	0.00e+00	0	43	0	257949696	63	4626
2026-01-28 07:09:01.77	80.57	15.14	-46.2	-47.9	18.6	0.00e+00	0	43	0	260046848	63	4528
2026-01-28 07:09:02.78	80.44	15.23	-46.4	-48.1	18.3	0.00e+00	0	43	0	261095424	63	4648
2026-01-28 07:09:03.79	80.31	15.32	-46.4	-48.1	18.4	0.00e+00	0	43	0	263192576	63	4632
2026-01-28 07:09:04.80	80.18	15.41	-46.7	-48.5	18.0	0.00e+00	0	43	0	265289728	63	4855
2026-01-28 07:09:05.81	80.05	15.49	-47.0	-49.0	17.5	0.00e+00	0	43	0	267386880	64	4815
2026-01-28 07:09:06.81	79.91	15.58	-47.1	-49.2	17.2	0.00e+00	0	42	0	269484032	64	4945
2026-01-28 07:09:07.82	79.78	15.67	-47.3	-49.4	17.1	0.00e+00	0	43	0	270532608	65	4788
2026-01-28 07:09:08.83	79.65	15.76	-47.4	-49.5	17.0	0.00e+00	0	43	0	272629760	65	4855
2026-01-28 07:09:09.84	79.51	15.84	-46.9	-48.8	17.7	0.00e+00	0	42	0	274726912	65	4470
2026-01-28 07:09:10.85	79.38	15.93	-47.0	-49.0	17.5	0.00e+00	0	43	0	276824064	65	4580
2026-01-28 07:09:11.85	79.24	16.02	-46.9	-48.8	17.7	0.00e+00	0	43	0	278921216	65	4455
2026-01-28 07:09:12.86	79.11	16.11	-46.7	-48.5	18.0	0.00e+00	0	43	0	279969792	64	4578
2026-01-28 07:09:13.87	78.97	16.20	-47.0	-49.0	17.5	0.00e+00	0	43	0	282066944	64	4821
2026-01-28 07:09:14.87	78.83	16.28	-46.5	-48.3	18.1	0.00e+00	0	43	0	284164096	64	4491
2026-01-28 07:09:15.88	78.69	16.37	-46.9	-48.9	17.6	0.00e+00	0	43	0	286261248	64	4771
2026-01-28 07:09:16.89	78.55	16.46	-46.8	-48.8	17.7	0.00e+00	0	43	0	288358400	64	4717
2026-01-28 07:09:17.90	78.41	16.55	-46.7	-48.5	17.9	0.00e+00	0	43	0	289406976	64	4587
2026-01-28 07:09:18.91	78.27	16.64	-46.7	-48.6	17.9	0.00e+00	0	43	0	291504128	64	4601
2026-01-28 07:09:19.91	78.12	16.73	-46.7	-48.6	17.9	0.00e+00	0	43	0	293601280	64	4632
2026-01-28 07:09:20.92	77.98	16.82	-46.4	-48.2	18.3	0.00e+00	0	43	0	295698432	64	4392
2026-01-28 07:09:21.93	77.84	16.91	-46.4	-48.2	18.3	0.00e+00	0	43	0	297795584	64	4395
2026-01-28 07:09:22.94	77.69	17.00	-46.2	-47.9	18.5	0.00e+00	0	43	0	298844160	64	4281
2026-01-28 07:09:23.95	77.54	17.09	-46.4	-48.2	18.3	0.00e+00	0	43	0	300941312	64	4417
2026-01-28 07:09:24.95	77.40	17.18	-46.3	-48.1	18.4	0.00e+00	0	43	0	303038464	64	4351
2026-01-28 07:09:25.96	77.25	17.27	-46.3	-48.1	18.4	0.00e+00	0	43	0	305135616	64	4379
2026-01-28 07:09:26.97	77.10	17.36	-46.1	-47.8	18.6	0.00e+00	0	43	0	307232768	64	4236
2026-01-28 07:09:27.98	76.95	17.45	-46.2	-47.9	18.6	0.00e+00	0	43	0	308281344	64	4267
2026-01-28 07:09:28.98	76.80	17.54	-46.0	-47.7	19.0	0.00e+00	0	43	0	310378496	63	4392
2026-01-28 07:09:29.99	76.65	17.63	-46.0	-47.6	18.9	0.00e+00	0	43	0	312475648	63	4384
2026-01-28 07:09:31.00	76.49	17.72	-45.5	-47.0	19.5	0.00e+00	0	43	0	314572800	63	4069
2026-01-28 07:09:32.01	76.34	17.81	-45.6	-47.1	19.5	0.00e+00	0	43	0	316669952	63	4099
2026-01-28 07:09:33.01	76.19	17.90	-45.6	-47.1	19.4	0.00e+00	0	43	0	317718528	63	4133
2026-01-28 07:09:34.02	76.03	17.99	-45.7	-47.2	19.4	0.00e+00	0	43	0	319815680	62	4405
2026-01-28 07:09:35.03	75.87	18.09	-45.8	-47.3	19.2	0.00e+00	0	43	0	321912832	62	4487
2026-01-28 07:09:36.03	75.72	18.18	-45.7	-47.2	19.3	0.00e+00	0	43	0	324009984	62	4430
2026-01-28 07:09:37.04	75.56	18.27	-45.8	-47.4	19.2	0.00e+00	0	43	0	326107136	62	4495
2026-01-28 07:09:38.04	75.40	18.36	-45.8	-47.4	19.2	0.00e+00	0	43	0	327155712	62	4519
2026-01-28 07:09:39.05	75.24	18.45	-45.6	-47.1	19.4	0.00e+00	0	43	0	329252864	62	4380
2026-01-28 07:09:40.06	75.08	18.54	-46.2	-47.8	18.8	0.00e+00	0	43	0	331350016	62	4729
2026-01-28 07:09:41.07	74.92	18.64	-46.3	-48.0	18.6	0.00e+00	0	43	0	333447168	63	4550
2026-01-28 07:09:42.08	74.75	18.73	-46.3	-47.9	18.6	0.00e+00	0	43	0	335544320	63	4538
2026-01-28 07:09:43.09	74.59	18.82	-46.3	-47.9	18.7	0.00e+00	0	43	0	336592896	63	4540
2026-01-28 07:09:44.09	74.42	18.91	-46.3	-48.0	18.6	0.00e+00	0	42	0	338690048	63	4547
2026-01-28 07:09:45.10	74.26	19.00	-46.5	-48.3	18.2	0.00e+00	0	43	0	340787200	64	4478
2026-01-28 07:09:46.11	74.09	19.10	-46.5	-48.2	18.2	0.00e+00	0	43	0	342884352	64	4441
2026-01-28 07:09:47.12	73.92	19.19	-46.3	-48.1	18.4	0.00e+00	0	43	0	344981504	64	4350
2026-01-28 07:09:48.12	73.75	19.28	-46.5	-48.2	18.3	0.00e+00	0	43	0	346030080	64	4436
2026-01-28 07:09:49.12	73.58	19.37	-46.4	-48.1	18.4	0.00e+00	0	43	0	348127232	64	4356
2026-01-28 07:09:50.13	73.41	19.47	-46.4	-48.2	18.3	0.00e+00	0	43	0	350224384	64	4399
2026-01-28 07:09:51.14	73.24	19.56	-46.1	-47.8	18.8	0.00e+00	0	43	0	352321536	64	4202
2026-01-28 07:09:52.14	73.07	19.65	-46.2	-47.9	18.8	0.00e+00	0	43	0	354418688	63	4507
2026-01-28 07:09:53.15	72.89	19.74	-46.0	-47.6	18.9	0.00e+00	0	43	0	355467264	63	4383
2026-01-28 07:09:54.16	72.72	19.84	-45.8	-47.3	19.3	0.00e+00	0	43	0	357564416	63	4232
2026-01-28 07:09:55.16	72.54	19.93	-45.6	-47.1	19.4	0.00e+00	0	43	0	359661568	63	4135
2026-01-28 07:09:56.17	72.36	20.02	-45.4	-46.8	19.7	0.00e+00	0	43	0	361758720	62	4211
2026-01-28 07:09:57.17	72.18	20.12	-45.5	-46.9	19.6	0.00e+00	0	43	0	363855872	62	4274
2026-01-28 07:09:58.18	72.00	20.21	-45.4	-46.9	19.7	0.00e+00	0	43	0	364904448	62	4244
2026-01-28 07:09:59.19	71.82	20.30	-45.5	-47.0	19.5	0.00e+00	0	43	0	367001600	62	4338
2026-01-28 07:10:00.19	71.64	20.39	-45.6	-47.1	19.4	0.00e+00	0	43	0	369098752	62	4373
2026-01-28 07:10:01.20	71.46	20.49	-45.6	-47.1	19.4	0.00e+00	0	43	0	371195904	62	4374
2026-01-28 07:10:02.21	71.27	20.58	-45.7	-47.2	19.3	0.00e+00	0	42	0	373293056	62	4440
2026-01-28 07:10:03.21	71.09	20.67	-45.8	-47.3	19.3	0.00e+00	0	43	0	374341632	62	4489
2026-01-28 07:10:04.22	70.90	20.77	-46.2	-47.9	18.8	0.00e+00	0	42	0	376438784	62	4766
2026-01-28 07:10:05.23	70.71	20.86	-46.2	-47.8	18.8	0.00e+00	0	42	0	378535936	63	4482
2026-01-28 07:10:06.23	70.52	20.95	-46.2	-47.9	18.7	0.00e+00	0	43	0	380633088	63	4527
2026-01-28 07:10:07.24	70.33	21.05	-46.4	-48.1	18.6	0.00e+00	0	43	0	382730240	63	4617
2026-01-28 07:10:08.25	70.14	21.14	-46.0	-47.6	19.1	0.00e+00	0	43	0	383778816	63	4368
2026-01-28 07:10:09.26	69.95	21.24	-45.9	-47.5	19.2	0.00e+00	0	43	0	385875968	63	4294
2026-01-28 07:10:10.27	69.75	21.33	-45.8	-47.3	19.3	0.00e+00	0	43	0	387973120	63	4218
2026-01-28 07:10:11.28	69.56	21.42	-45.9	-47.5	19.2	0.00e+00	0	43	0	390070272	63	4328
2026-01-28 07:10:12.29	69.36	21.52	-45.8	-47.3	19.3	0.00e+00	0	43	0	392167424	63	4223
2026-01-28 07:10:13.29	69.17	21.61	-45.9	-47.5	19.1	0.00e+00	0	43	0	393216000	63	4308
2026-01-28 07:10:14.30	68.97	21.70	-45.9	-47.5	19.1	0.00e+00	0	43	0	395313152	63	4302
2026-01-28 07:10:15.31	68.77	21.80	-46.0	-47.6	19.1	0.00e+00	0	43	0	397410304	63	4366
2026-01-28 07:10:16.31	68.57	21.89	-46.2	-47.8	18.9	0.00e+00	0	43	0	399507456	63	4476
2026-01-28 07:10:17.32	68.36	21.98	-46.3	-48.0	18.6	0.00e+00	0	42	0	401604608	63	4584
2026-01-28 07:10:18.34	68.16	22.08	-46.2	-47.9	18.8	0.00e+00	0	42	0	402653184	63	4524
2026-01-28 07:10:19.34	67.96	22.17	-46.4	-48.2	18.6	0.00e+00	0	43	0	404750336	63	4662
2026-01-28 07:10:20.34	67.75	22.26	-46.3	-47.9	18.8	0.00e+00	0	43	0	406847488	63	4536
2026-01-28 07:10:21.35	67.54	22.35	-46.2	-47.9	18.9	0.00e+00	0	43	0	408944640	63	4498
2026-01-28 07:10:22.36	67.33	22.45	-46.2	-47.9	18.8	0.00e+00	0	43	0	411041792	63	4509
2026-01-28 07:10:23.37	67.12	22.54	-46.1	-47.8	19.0	0.00e+00	0	43	0	413138944	63	4450
2026-01-28 07:10:24.38	66.91	22.63	-45.9	-47.5	19.3	0.00e+00	0	43	0	414187520	63	4296
2026-01-28 07:10:25.38	66.70	22.73	-45.7	-47.3	19.5	0.00e+00	0	43	0	416284672	63	4197
2026-01-28 07:10:26.39	66.49	22.82	-45.9	-47.5	19.3	0.00e+00	0	43	0	418381824	63	4300
2026-01-28 07:10:27.40	66.27	22.91	-46.0	-47.7	19.1	0.00e+00	0	43	0	420478976	63	4396
2026-01-28 07:10:28.41	66.05	23.00	-46.1	-47.7	18.9	0.00e+00	0	43	0	421527552	63	4430
2026-01-28 07:10:29.42	65.84	23.10	-46.0	-47.5	19.1	0.00e+00	0	43	0	423624704	63	4337
2026-01-28 07:10:30.42	65.62	23.19	-46.1	-47.7	19.0	0.00e+00	0	43	0	425721856	63	4427
2026-01-28 07:10:31.43	65.40	23.28	-46.3	-48.0	18.8	0.00e+00	0	43	0	427819008	63	4549
2026-01-28 07:10:32.44	65.18	23.37	-46.2	-47.7	19.0	0.00e+00	0	43	0	429916160	63	4432
2026-01-28 07:10:33.45	64.95	23.47	-45.8	-47.3	19.3	0.00e+00	0	43	0	430964736	63	4225
2026-01-28 07:10:34.45	64.73	23.56	-45.7	-47.2	19.5	0.00e+00	0	43	0	433061888	63	4169
2026-01-28 07:10:35.45	64.51	23.65	-45.4	-46.9	19.8	0.00e+00	0	43	0	435159040	62	4243
2026-01-28 07:10:36.46	64.28	23.74	-45.3	-46.7	20.0	0.00e+00	0	43	0	437256192	62	4182
2026-01-28 07:10:37.47	64.05	23.83	-45.3	-46.7	20.0	0.00e+00	0	43	0	439353344	62	4176
2026-01-28 07:10:38.48	63.82	23.92	-45.2	-46.5	20.1	0.00e+00	0	43	0	441450496	62	4084
2026-01-28 07:10:39.49	63.59	24.01	-44.8	-46.0	20.6	0.00e+00	0	43	0	442499072	61	4095
2026-01-28 07:10:40.49	63.36	24.10	-44.5	-45.7	20.9	0.00e+00	0	43	0	444596224	60	4160
2026-01-28 07:10:41.50	63.13	24.19	-44.5	-45.7	20.9	0.00e+00	0	43	0	446693376	60	4176
2026-01-28 07:10:42.51	62.89	24.28	-44.4	-45.6	21.0	0.00e+00	0	43	0	448790528	60	4120
2026-01-28 07:10:43.52	62.65	24.37	-44.6	-45.8	20.8	0.00e+00	0	43	0	449839104	60	4212
2026-01-28 07:10:44.52	62.42	24.46	-44.4	-45.6	20.9	0.00e+00	0	43	0	451936256	60	4126
2026-01-28 07:10:45.53	62.18	24.55	-44.6	-45.9	20.7	0.00e+00	0	42	0	454033408	60	4269
2026-01-28 07:10:46.54	61.94	24.64	-44.5	-45.8	20.8	0.00e+00	0	43	0	456130560	60	4203
2026-01-28 07:10:47.55	61.70	24.73	-44.4	-45.6	20.9	0.00e+00	0	43	0	458227712	60	4126
2026-01-28 07:10:48.56	61.45	24.82	-44.6	-45.9	20.6	0.00e+00	0	43	0	460324864	60	4283
2026-01-28 07:10:49.56	61.21	24.91	-44.7	-46.0	20.6	0.00e+00	0	43	0	461373440	60	4321
2026-01-28 07:10:50.57	60.96	25.00	-45.0	-46.3	20.3	0.00e+00	0	43	0	463470592	60	4488
2026-01-28 07:10:51.58	60.72	25.08	-45.1	-46.5	20.2	0.00e+00	0	43	0	465567744	60	4567
2026-01-28 07:10:52.59	60.47	25.17	-45.3	-46.8	19.9	0.00e+00	0	43	0	467664896	61	4474
2026-01-28 07:10:53.60	60.22	25.26	-45.4	-46.9	19.8	0.00e+00	0	43	0	469762048	61	4536
2026-01-28 07:10:54.61	59.96	25.35	-45.5	-47.0	19.8	0.00e+00	0	43	0	470810624	61	4568
2026-01-28 07:10:55.61	59.71	25.43	-45.5	-47.0	19.7	0.00e+00	0	43	0	472907776	61	4553
2026-01-28 07:10:56.62	59.46	25.52	-45.5	-47.0	19.8	0.00e+00	0	43	0	475004928	61	4550
2026-01-28 07:10:57.63	59.20	25.60	-45.3	-46.7	20.0	0.00e+00	0	43	0	477102080	61	4405
2026-01-28 07:10:58.63	58.95	25.69	-45.2	-46.6	20.1	0.00e+00	0	43	0	479199232	61	4387
2026-01-28 07:10:59.64	58.69	25.78	-45.2	-46.6	20.1	0.00e+00	0	43	0	480247808	61	4357
2026-01-28 07:11:00.61	58.44	25.86	-45.2	-46.5	20.2	0.00e+00	0	43	0	482344960	61	4327
2026-01-28 07:11:01.61	58.18	25.94	-45.2	-46.6	20.1	0.00e+00	0	43	0	484442112	61	4360
2026-01-28 07:11:02.62	57.92	26.03	-45.1	-46.5	20.2	0.00e+00	0	43	0	486539264	61	4292
2026-01-28 07:11:03.62	57.65	26.11	-45.2	-46.6	20.1	0.00e+00	0	43	0	487587840	61	4365
2026-01-28 07:11:04.63	57.39	26.19	-45.3	-46.7	20.0	0.00e+00	0	43	0	489684992	61	4409
2026-01-28 07:11:05.63	57.12	26.27	-45.2	-46.6	20.1	0.00e+00	0	43	0	491782144	61	4363
2026-01-28 07:11:06.64	56.86	26.36	-45.0	-46.4	20.3	0.00e+00	0	43	0	493879296	61	4260
2026-01-28 07:11:07.65	56.59	26.44	-44.9	-46.2	20.5	0.00e+00	0	43	0	495976448	61	4161
2026-01-28 07:11:08.66	56.31	26.52	-44.8	-46.1	20.6	0.00e+00	0	43	0	498073600	61	4117
2026-01-28 07:11:09.66	56.04	26.60	-44.5	-45.8	20.8	0.00e+00	0	43	0	499122176	61	3966
2026-01-28 07:11:10.67	55.77	26.68	-44.6	-45.8	20.7	0.00e+00	0	43	0	501219328	61	4004
2026-01-28 07:11:11.68	55.49	26.76	-44.6	-45.8	20.8	0.00e+00	0	43	0	503316480	61	3996
2026-01-28 07:11:12.69	55.22	26.84	-44.7	-45.9	20.7	0.00e+00	0	43	0	505413632	60	4267
2026-01-28 07:11:13.69	54.94	26.92	-45.3	-46.6	20.0	0.00e+00	0	43	0	507510784	61	4387
2026-01-28 07:11:14.70	54.66	27.00	-45.9	-47.5	19.3	0.00e+00	0	43	0	508559360	62	4546
2026-01-28 07:11:15.71	54.38	27.08	-46.3	-48.0	18.9	0.00e+00	0	43	0	510656512	63	4570
2026-01-28 07:11:16.71	54.10	27.15	-46.2	-47.8	19.1	0.00e+00	0	43	0	512753664	63	4460
2026-01-28 07:11:17.72	53.82	27.23	-46.0	-47.5	19.3	0.00e+00	0	43	0	514850816	63	4327
2026-01-28 07:11:18.73	53.53	27.31	-45.9	-47.5	19.3	0.00e+00	0	43	0	515899392	63	4314
2026-01-28 07:11:19.74	53.24	27.38	-45.9	-47.4	19.4	0.00e+00	0	43	0	517996544	63	4260
2026-01-28 07:11:20.74	52.96	27.46	-45.8	-47.3	19.5	0.00e+00	0	43	0	520093696	63	4201
2026-01-28 07:11:21.75	52.67	27.53	-45.7	-47.1	19.6	0.00e+00	0	43	0	522190848	63	4139
2026-01-28 07:11:22.75	52.38	27.61	-45.6	-47.1	19.8	0.00e+00	0	43	0	524288000	63	4112
2026-01-28 07:11:23.76	52.09	27.68	-45.6	-47.0	19.8	0.00e+00	0	43	0	526385152	63	4073
2026-01-28 07:11:24.77	51.79	27.75	-45.9	-47.4	19.4	0.00e+00	0	43	0	527433728	63	4256
2026-01-28 07:11:25.78	51.50	27.83	-45.7	-47.1	19.7	0.00e+00	0	43	0	529530880	63	4136
2026-01-28 07:11:26.79	51.20	27.90	-45.6	-47.0	19.8	0.00e+00	0	43	0	531628032	63	4092
2026-01-28 07:11:27.80	50.91	27.97	-45.3	-46.7	20.0	0.00e+00	0	43	0	533725184	62	4179
2026-01-28 07:11:28.81	50.61	28.04	-45.3	-46.7	20.0	0.00e+00	0	43	0	535822336	62	4168
2026-01-28 07:11:29.81	50.31	28.11	-45.3	-46.6	20.1	0.00e+00	0	43	0	536870912	62	4130
2026-01-28 07:11:30.81	50.01	28.17	-45.4	-46.8	20.0	0.00e+00	0	43	0	538968064	62	4211
2026-01-28 07:11:31.82	49.71	28.24	-45.6	-47.1	19.7	0.00e+00	0	43	0	541065216	62	4369
2026-01-28 07:11:32.82	49.41	28.31	-45.6	-47.1	19.7	0.00e+00	0	43	0	543162368	62	4359
2026-01-28 07:11:33.83	49.10	28.38	-45.9	-47.5	19.3	0.00e+00	0	43	0	544210944	62	4586
2026-01-28 07:11:34.84	48.80	28.44	-46.5	-48.2	18.7	0.00e+00	0	43	0	546308096	63	4676
2026-01-28 07:11:35.84	48.49	28.51	-46.6	-48.4	18.5	0.00e+00	0	43	0	548405248	63	4764
2026-01-28 07:11:36.85	48.18	28.57	-46.4	-48.1	18.7	0.00e+00	0	43	0	550502400	63	4645
2026-01-28 07:11:37.86	47.87	28.63	-46.3	-47.9	18.9	0.00e+00	0	43	0	552599552	63	4524
2026-01-28 07:11:38.87	47.56	28.70	-45.9	-47.4	19.4	0.00e+00	0	43	0	554696704	63	4278
2026-01-28 07:11:39.88	47.25	28.76	-46.2	-47.9	19.0	0.00e+00	0	43	0	555745280	63	4500
2026-01-28 07:11:40.89	46.93	28.82	-46.1	-47.7	19.1	0.00e+00	0	43	0	557842432	63	4419
2026-01-28 07:11:41.89	46.62	28.88	-45.6	-47.1	19.7	0.00e+00	0	43	0	559939584	63	4123
2026-01-28 07:11:42.90	46.31	28.94	-45.4	-46.8	19.9	0.00e+00	0	43	0	562036736	62	4228
2026-01-28 07:11:43.91	45.99	29.00	-45.3	-46.7	20.1	0.00e+00	0	43	0	564133888	62	4165
2026-01-28 07:11:44.92	45.67	29.06	-45.5	-47.0	19.9	0.00e+00	0	43	0	565182464	62	4292
2026-01-28 07:11:45.92	45.35	29.11	-44.9	-46.2	20.5	0.00e+00	0	43	0	567279616	61	4169
2026-01-28 07:11:46.93	45.03	29.17	-44.7	-45.9	20.8	0.00e+00	0	43	0	569376768	61	4035
2026-01-28 07:11:47.94	44.71	29.22	-44.8	-46.1	20.6	0.00e+00	0	43	0	571473920	61	4108
2026-01-28 07:11:48.95	44.39	29.28	-45.2	-46.5	20.2	0.00e+00	0	43	0	572522496	61	4318
2026-01-28 07:11:49.95	44.07	29.33	-45.5	-46.9	19.8	0.00e+00	0	43	0	574619648	61	4517
2026-01-28 07:11:50.96	43.74	29.38	-45.6	-47.0	19.7	0.00e+00	0	43	0	576716800	61	4588
2026-01-28 07:11:51.97	43.41	29.43	-45.0	-46.3	20.5	0.00e+00	0	43	0	578813952	61	4202
2026-01-28 07:11:52.98	43.09	29.48	-44.6	-45.7	20.9	0.00e+00	0	43	0	580911104	61	3958
2026-01-28 07:11:53.99	42.76	29.53	-44.5	-45.6	21.0	0.00e+00	0	43	0	583008256	60	4139
2026-01-28 07:11:54.99	42.43	29.58	-45.0	-46.2	20.5	0.00e+00	0	43	0	584056832	60	4439
2026-01-28 07:11:56.00	42.10	29.63	-45.2	-46.6	20.2	0.00e+00	0	43	0	586153984	60	4599
2026-01-28 07:11:57.01	41.77	29.67	-45.3	-46.7	20.1	0.00e+00	0	43	0	588251136	61	4395
2026-01-28 07:11:58.01	41.44	29.72	-45.2	-46.6	20.2	0.00e+00	0	43	0	590348288	61	4344
2026-01-28 07:11:59.02	41.11	29.76	-45.4	-46.8	20.0	0.00e+00	0	43	0	592445440	61	4443
2026-01-28 07:12:00.03	40.77	29.81	-45.7	-47.1	19.7	0.00e+00	0	43	0	593494016	61	4629
2026-01-28 07:12:01.04	40.44	29.85	-46.3	-48.0	18.8	0.00e+00	0	43	0	595591168	63	4558
2026-01-28 07:12:02.04	40.11	29.89	-46.6	-48.3	18.6	0.00e+00	0	43	0	597688320	63	4742
2026-01-28 07:12:03.05	39.77	29.93	-46.5	-48.3	18.5	0.00e+00	0	43	0	599785472	64	4454
2026-01-28 07:12:04.06	39.43	29.97	-46.8	-48.7	18.1	0.00e+00	0	43	0	601882624	64	4693
2026-01-28 07:12:05.07	39.09	30.01	-47.2	-49.2	17.6	0.00e+00	0	43	0	602931200	64	4975
2026-01-28 07:12:06.08	38.75	30.05	-47.4	-49.5	17.4	0.00e+00	0	43	0	605028352	65	4816
2026-01-28 07:12:07.09	38.41	30.08	-47.4	-49.4	17.4	0.00e+00	0	43	0	607125504	65	4809
2026-01-28 07:12:08.09	38.08	30.12	-47.0	-48.9	17.9	0.00e+00	0	43	0	609222656	65	4516
2026-01-28 07:12:09.09	37.74	30.15	-46.8	-48.7	18.2	0.00e+00	0	43	0	611319808	65	4402
2026-01-28 07:12:10.10	37.40	30.18	-47.0	-48.8	18.0	0.00e+00	0	43	0	612368384	65	4491
2026-01-28 07:12:11.10	37.06	30.21	-47.1	-49.1	17.8	0.00e+00	0	43	0	614465536	65	4607
2026-01-28 07:12:12.11	36.71	30.24	-47.2	-49.1	17.8	0.00e+00	0	43	0	616562688	65	4623
2026-01-28 07:12:13.12	36.37	30.27	-46.4	-48.0	18.7	0.00e+00	0	43	0	618659840	64	4334
2026-01-28 07:12:14.13	36.03	30.30	-46.0	-47.6	19.2	0.00e+00	0	43	0	620756992	64	4101
2026-01-28 07:12:15.14	35.68	30.33	-45.6	-47.1	19.7	0.00e+00	0	43	0	621805568	63	4101
2026-01-28 07:12:16.14	35.34	30.36	-45.8	-47.2	19.6	0.00e+00	0	43	0	623902720	63	4180
2026-01-28 07:12:17.15	34.99	30.38	-45.9	-47.4	19.5	0.00e+00	0	43	0	625999872	63	4248
2026-01-28 07:12:18.15	34.65	30.40	-46.2	-47.8	19.1	0.00e+00	0	43	0	628097024	63	4455
2026-01-28 07:12:19.15	34.30	30.43	-46.4	-48.1	18.8	0.00e+00	0	43	0	629145600	63	4614
2026-01-28 07:12:20.15	33.96	30.45	-46.6	-48.4	18.5	0.00e+00	0	43	0	631242752	64	4499
2026-01-28 07:12:21.16	33.61	30.47	-46.7	-48.5	18.3	0.00e+00	0	43	0	633339904	64	4571
2026-01-28 07:12:22.17	33.26	30.49	-46.6	-48.4	18.3	0.00e+00	0	43	0	635437056	64	4495
2026-01-28 07:12:23.17	32.92	30.50	-46.5	-48.2	18.5	0.00e+00	0	43	0	637534208	64	4438
2026-01-28 07:12:24.18	32.57	30.52	-46.4	-48.0	18.7	0.00e+00	0	43	0	639631360	64	4335
2026-01-28 07:12:25.19	32.22	30.54	-46.7	-48.5	18.3	0.00e+00	0	43	0	640679936	64	4598
2026-01-28 07:12:26.20	31.87	30.55	-47.1	-49.1	17.7	0.00e+00	0	43	0	642777088	64	4925
2026-01-28 07:12:27.21	31.52	30.56	-47.5	-49.6	17.2	0.00e+00	0	43	0	644874240	65	4899
2026-01-28 07:12:28.21	31.17	30.57	-47.0	-49.0	17.8	0.00e+00	0	43	0	646971392	65	4566
2026-01-28 07:12:29.22	30.82	30.59	-46.5	-48.3	18.5	0.00e+00	0	43	0	649068544	65	4194
2026-01-28 07:12:30.22	30.47	30.59	-45.9	-47.4	19.4	0.00e+00	0	43	0	650117120	63	4280
2026-01-28 07:12:31.23	30.12	30.60	-45.5	-46.9	19.8	0.00e+00	0	43	0	652214272	63	4043
2026-01-28 07:12:32.24	29.77	30.61	-45.4	-46.8	19.9	0.00e+00	0	43	0	654311424	62	4211
2026-01-28 07:12:33.24	29.42	30.62	-45.9	-47.4	19.5	0.00e+00	0	43	0	656408576	62	4494
2026-01-28 07:12:34.25	29.07	30.62	-46.3	-47.9	19.0	0.00e+00	0	43	0	657457152	63	4528
2026-01-28 07:12:35.25	28.72	30.62	-46.7	-48.4	18.4	0.00e+00	0	43	0	659554304	64	4535
2026-01-28 07:12:36.26	28.37	30.63	-47.0	-48.9	18.0	0.00e+00	0	43	0	661651456	64	4761
2026-01-28 07:12:37.26	28.02	30.63	-47.2	-49.2	17.7	0.00e+00	0	43	0	663748608	64	4956
2026-01-28 07:12:38.27	27.67	30.63	-47.3	-49.3	17.6	0.00e+00	0	43	0	665845760	65	4734
2026-01-28 07:12:39.28	27.32	30.63	-47.2	-49.1	17.7	0.00e+00	0	43	0	667942912	65	4637
2026-01-28 07:12:40.29	26.96	30.62	-46.8	-48.6	18.3	0.00e+00	0	43	0	668991488	65	4364
2026-01-28 07:12:41.29	26.62	30.62	-46.7	-48.4	18.4	0.00e+00	0	43	0	671088640	65	4274
2026-01-28 07:12:42.30	26.26	30.61	-46.3	-47.9	18.9	0.00e+00	0	43	0	673185792	64	4268
2026-01-28 07:12:43.31	25.91	30.61	-46.1	-47.7	19.1	0.00e+00	0	43	0	675282944	64	4177
2026-01-28 07:12:44.31	25.57	30.60	-46.0	-47.5	19.4	0.00e+00	0	43	0	677380096	63	4304
2026-01-28 07:12:45.32	25.21	30.59	-46.0	-47.6	19.3	0.00e+00	0	43	0	678428672	63	4347
2026-01-28 07:12:46.33	24.86	30.58	-46.2	-47.8	19.2	0.00e+00	0	43	0	680525824	63	4473
2026-01-28 07:12:47.33	24.52	30.57	-46.6	-48.3	18.6	0.00e+00	0	43	0	682622976	63	4755
2026-01-28 07:12:48.34	24.17	30.56	-46.5	-48.2	18.7	0.00e+00	0	43	0	684720128	64	4414
2026-01-28 07:12:49.35	23.82	30.54	-46.4	-48.0	18.8	0.00e+00	0	43	0	685768704	64	4332
2026-01-28 07:12:50.36	23.47	30.53	-46.0	-47.6	19.3	0.00e+00	0	43	0	687865856	64	4104
2026-01-28 07:12:51.36	23.12	30.51	-45.8	-47.2	19.6	0.00e+00	0	43	0	689963008	63	4184
2026-01-28 07:12:52.37	22.77	30.50	-45.7	-47.1	19.8	0.00e+00	0	43	0	692060160	63	4144
2026-01-28 07:12:53.38	22.42	30.48	-45.7	-47.2	19.8	0.00e+00	0	43	0	694157312	63	4167
2026-01-28 07:12:54.39	22.07	30.46	-46.2	-47.8	19.2	0.00e+00	0	43	0	696254464	63	4485
2026-01-28 07:12:55.40	21.73	30.44	-46.6	-48.3	18.7	0.00e+00	0	43	0	697303040	63	4746
2026-01-28 07:12:56.40	21.38	30.42	-46.5	-48.2	18.7	0.00e+00	0	43	0	699400192	64	4409
2026-01-28 07:12:57.40	21.04	30.39	-46.9	-48.8	18.2	0.00e+00	0	43	0	701497344	64	4709
2026-01-28 07:12:58.42	20.69	30.37	-46.2	-47.7	19.1	0.00e+00	0	43	0	703594496	64	4190
2026-01-28 07:12:59.42	20.35	30.34	-45.5	-46.9	19.9	0.00e+00	0	43	0	705691648	63	4051
2026-01-28 07:13:00.43	20.00	30.32	-45.4	-46.8	20.0	0.00e+00	0	43	0	706740224	62	4211
2026-01-28 07:13:01.43	19.66	30.29	-45.5	-47.0	19.9	0.00e+00	0	43	0	708837376	62	4308
2026-01-28 07:13:02.44	19.31	30.26	-46.2	-47.8	19.2	0.00e+00	0	43	0	710934528	63	4482
2026-01-28 07:13:03.45	18.97	30.23	-46.4	-48.2	18.7	0.00e+00	0	43	0	713031680	64	4411
2026-01-28 07:13:04.45	18.63	30.20	-46.3	-48.0	18.8	0.00e+00	0	43	0	714080256	64	4317
2026-01-28 07:13:05.46	18.29	30.17	-46.1	-47.7	19.1	0.00e+00	0	43	0	716177408	63	4396
2026-01-28 07:13:06.47	17.95	30.14	-45.8	-47.3	19.5	0.00e+00	0	43	0	718274560	63	4199
2026-01-28 07:13:07.47	17.61	30.10	-45.6	-47.0	19.8	0.00e+00	0	43	0	720371712	62	4311
2026-01-28 07:13:08.48	17.27	30.07	-45.3	-46.7	20.1	0.00e+00	0	43	0	722468864	62	4158
2026-01-28 07:13:09.49	16.93	30.03	-45.5	-47.0	19.8	0.00e+00	0	43	0	724566016	62	4316
2026-01-28 07:13:10.50	16.59	29.99	-45.7	-47.2	19.7	0.00e+00	0	43	0	725614592	62	4394
2026-01-28 07:13:11.51	16.25	29.95	-45.8	-47.3	19.5	0.00e+00	0	43	0	727711744	62	4478
2026-01-28 07:13:12.51	15.92	29.91	-45.9	-47.4	19.5	0.00e+00	0	43	0	729808896	62	4500
2026-01-28 07:13:13.52	15.58	29.87	-45.6	-47.1	19.8	0.00e+00	0	43	0	731906048	62	4355
2026-01-28 07:13:14.53	15.25	29.83	-45.7	-47.1	19.8	0.00e+00	0	43	0	734003200	62	4372
2026-01-28 07:13:15.54	14.91	29.79	-46.1	-47.6	19.3	0.00e+00	0	43	0	735051776	62	4645
2026-01-28 07:13:16.55	14.58	29.75	-46.6	-48.3	18.7	0.00e+00	0	43	0	737148928	63	4755
2026-01-28 07:13:17.55	14.25	29.70	-46.5	-48.2	18.6	0.00e+00	0	43	0	739246080	64	4441
2026-01-28 07:13:18.56	13.92	29.66	-46.5	-48.2	18.7	0.00e+00	0	43	0	741343232	64	4405
2026-01-28 07:13:19.57	13.59	29.61	-46.0	-47.5	19.3	0.00e+00	0	43	0	743440384	64	4086
2026-01-28 07:13:20.57	13.26	29.56	-45.9	-47.4	19.5	0.00e+00	0	43	0	744488960	63	4280
2026-01-28 07:13:21.58	12.94	29.51	-45.9	-47.3	19.6	0.00e+00	0	43	0	746586112	63	4231
2026-01-28 07:13:22.59	12.61	29.46	-46.0	-47.5	19.5	0.00e+00	0	43	0	748683264	63	4316
2026-01-28 07:13:23.59	12.28	29.41	-46.5	-48.2	18.7	0.00e+00	0	43	0	750780416	63	4679
2026-01-28 07:13:24.60	11.96	29.36	-46.5	-48.1	18.7	0.00e+00	0	43	0	752877568	64	4387
2026-01-28 07:13:25.61	11.63	29.31	-46.2	-47.8	19.1	0.00e+00	0	43	0	753926144	63	4465
2026-01-28 07:13:26.62	11.31	29.25	-45.9	-47.4	19.5	0.00e+00	0	43	0	756023296	63	4261
2026-01-28 07:13:27.63	10.99	29.20	-45.8	-47.2	19.7	0.00e+00	0	43	0	758120448	63	4170
2026-01-28 07:13:28.64	10.67	29.14	-45.8	-47.2	19.7	0.00e+00	0	43	0	760217600	63	4192
2026-01-28 07:13:29.64	10.35	29.09	-46.0	-47.5	19.5	0.00e+00	0	43	0	762314752	63	4317
2026-01-28 07:13:30.65	10.03	29.03	-46.0	-47.6	19.4	0.00e+00	0	43	0	763363328	63	4346
2026-01-28 07:13:31.66	9.71	28.97	-46.5	-48.2	18.7	0.00e+00	0	43	0	765460480	64	4415
2026-01-28 07:13:32.67	9.40	28.92	-46.8	-48.5	18.4	0.00e+00	0	43	0	767557632	64	4579
2026-01-28 07:13:33.67	9.09	28.86	-46.7	-48.3	18.6	0.00e+00	0	43	0	769654784	64	4490
2026-01-28 07:13:34.68	8.77	28.80	-46.4	-48.0	18.8	0.00e+00	0	43	0	771751936	64	4323
2026-01-28 07:13:35.69	8.46	28.73	-46.5	-48.1	18.8	0.00e+00	0	43	0	772800512	64	4357
2026-01-28 07:13:36.69	8.15	28.67	-46.8	-48.5	18.4	0.00e+00	0	43	0	774897664	64	4576
2026-01-28 07:13:37.70	7.84	28.61	-47.2	-49.1	17.7	0.00e+00	0	43	0	776994816	65	4625
2026-01-28 07:13:38.71	7.53	28.55	-47.6	-49.7	17.3	0.00e+00	0	43	0	779091968	65	4960
2026-01-28 07:13:39.72	7.22	28.48	-47.8	-49.9	17.0	0.00e+00	0	43	0	781189120	66	4786
2026-01-28 07:13:40.73	6.91	28.42	-47.9	-50.1	16.8	0.00e+00	0	43	0	782237696	66	4881
2026-01-28 07:13:41.74	6.61	28.35	-48.3	-50.8	16.1	0.00e+00	0	43	0	784334848	67	5002
2026-01-28 07:13:42.75	6.30	28.28	-48.3	-50.8	16.2	0.00e+00	0	43	0	786432000	67	5013
2026-01-28 07:13:43.75	6.00	28.22	-48.3	-50.6	16.4	0.00e+00	0	43	0	788529152	67	4908
2026-01-28 07:13:44.76	5.70	28.15	-48.0	-50.3	16.7	0.00e+00	0	43	0	790626304	67	4734
2026-01-28 07:13:45.76	5.41	28.08	-47.9	-50.1	16.9	0.00e+00	0	43	0	791674880	67	4599
2026-01-28 07:13:46.77	5.11	28.01	-47.8	-50.1	16.9	0.00e+00	0	43	0	793772032	67	4608
2026-01-28 07:13:47.78	4.81	27.94	-47.9	-50.2	16.7	0.00e+00	0	43	0	795869184	67	4657
2026-01-28 07:13:48.79	4.51	27.87	-47.4	-49.5	17.4	0.00e+00	0	43	0	797966336	66	4552
2026-01-28 07:13:49.79	4.22	27.80	-47.1	-49.1	17.8	0.00e+00	0	43	0	800063488	65	4611
2026-01-28 07:13:50.79	3.93	27.73	-46.4	-48.1	18.7	0.00e+00	0	43	0	801112064	64	4369
2026-01-28 07:13:51.80	3.64	27.65	-46.1	-47.7	19.1	0.00e+00	0	43	0	803209216	64	4155
2026-01-28 07:13:52.81	3.35	27.58	-45.7	-47.1	19.7	0.00e+00	0	43	0	805306368	63	4144
2026-01-28 07:13:53.81	3.06	27.51	-45.2	-46.5	20.3	0.00e+00	0	43	0	807403520	62	4071
2026-01-28 07:13:54.82	2.77	27.43	-44.9	-46.1	20.6	0.00e+00	0	43	0	809500672	61	4129
2026-01-28 07:13:55.83	2.48	27.35	-44.8	-46.0	20.7	0.00e+00	0	43	0	810549248	61	4096
2026-01-28 07:13:56.84	2.20	27.28	-45.0	-46.3	20.5	0.00e+00	0	43	0	812646400	61	4196
2026-01-28 07:13:57.85	1.91	27.20	-45.2	-46.6	20.2	0.00e+00	0	43	0	814743552	61	4361
2026-01-28 07:13:58.85	1.63	27.13	-45.1	-46.4	20.3	0.00e+00	0	43	0	816840704	61	4280
2026-01-28 07:13:59.86	1.35	27.05	-45.1	-46.4	20.3	0.00e+00	0	43	0	818937856	61	4286
2026-01-28 07:14:00.87	1.07	26.97	-45.3	-46.7	20.1	0.00e+00	0	43	0	819986432	61	4412
2026-01-28 07:14:01.88	0.79	26.89	-45.4	-46.8	19.9	0.00e+00	0	43	0	822083584	61	4467
2026-01-28 07:14:02.89	0.51	26.81	-46.3	-48.0	18.9	0.00e+00	0	43	0	824180736	63	4566
2026-01-28 07:14:03.89	0.24	26.73	-46.7	-48.5	18.5	0.00e+00	0	43	0	826277888	63	4820
2026-01-28 07:14:04.90	359.97	26.65	-46.3	-47.9	18.9	0.00e+00	0	43	0	828375040	64	4276
2026-01-28 07:14:05.91	359.69	26.57	-45.8	-47.3	19.5	0.00e+00	0	43	0	829423616	63	4203
2026-01-28 07:14:06.92	359.42	26.49	-45.9	-47.4	19.4	0.00e+00	0	43	0	831520768	63	4288
2026-01-28 07:14:07.93	359.15	26.41	-46.0	-47.6	19.3	0.00e+00	0	43	0	833617920	63	4353
2026-01-28 07:14:08.93	358.89	26.33	-46.6	-48.3	18.6	0.00e+00	0	43	0	835715072	63	4754
2026-01-28 07:14:09.94	358.62	26.24	-46.8	-48.7	18.2	0.00e+00	0	43	0	837812224	64	4654
2026-01-28 07:14:10.94	358.35	26.16	-47.6	-49.7	17.3	0.00e+00	0	43	0	838860800	65	4974
2026-01-28 07:14:11.96	358.09	26.08	-47.5	-49.6	17.3	0.00e+00	0	43	0	840957952	66	4603
2026-01-28 07:14:12.96	357.83	25.99	-47.2	-49.1	17.8	0.00e+00	0	43	0	843055104	66	4375
2026-01-28 07:14:13.97	357.56	25.91	-46.8	-48.5	18.3	0.00e+00	0	43	0	845152256	65	4336
2026-01-28 07:14:14.97	357.31	25.83	-46.7	-48.5	18.3	0.00e+00	0	43	0	847249408	65	4310
2026-01-28 07:14:15.98	357.05	25.74	-46.3	-47.9	18.9	0.00e+00	0	43	0	848297984	64	4251
2026-01-28 07:14:16.99	356.79	25.66	-45.8	-47.3	19.6	0.00e+00	0	43	0	850395136	63	4209
2026-01-28 07:14:18.00	356.53	25.57	-45.5	-47.0	19.9	0.00e+00	0	43	0	852492288	63	4058
2026-01-28 07:14:19.01	356.28	25.48	-45.5	-46.9	19.9	0.00e+00	0	43	0	854589440	62	4258
2026-01-28 07:14:20.01	356.03	25.40	-45.3	-46.6	20.2	0.00e+00	0	43	0	856686592	62	4127
2026-01-28 07:14:21.03	355.77	25.31	-45.0	-46.3	20.4	0.00e+00	0	43	0	857735168	62	3998
2026-01-28 07:14:22.03	355.52	25.22	-44.6	-45.9	20.8	0.00e+00	0	43	0	859832320	61	4014
2026-01-28 07:14:23.04	355.27	25.14	-44.5	-45.7	21.0	0.00e+00	0	43	0	861929472	61	3950
2026-01-28 07:14:24.06	355.02	25.05	-44.3	-45.5	21.1	0.00e+00	0	43	0	864026624	60	4060
2026-01-28 07:14:25.06	354.78	24.96	-44.3	-45.5	21.1	0.00e+00	0	43	0	866123776	60	4079
2026-01-28 07:14:26.07	354.54	24.87	-44.6	-45.8	20.8	0.00e+00	0	43	0	868220928	60	4227
2026-01-28 07:14:27.08	354.29	24.78	-44.4	-45.7	21.0	0.00e+00	0	43	0	869269504	60	4158
2026-01-28 07:14:28.09	354.05	24.70	-44.5	-45.7	21.0	0.00e+00	0	43	0	871366656	60	4176
2026-01-28 07:14:29.10	353.81	24.61	-44.5	-45.7	20.9	0.00e+00	0	43	0	873463808	60	4181
2026-01-28 07:14:30.10	353.57	24.52	-44.5	-45.8	20.9	0.00e+00	0	43	0	875560960	60	4207
2026-01-28 07:14:31.12	353.33	24.43	-44.4	-45.7	20.9	0.00e+00	0	43	0	876609536	60	4160
2026-01-28 07:14:32.12	353.10	24.34	-44.4	-45.7	21.0	0.00e+00	0	43	0	878706688	60	4163
2026-01-28 07:14:33.13	352.86	24.25	-44.4	-45.7	21.0	0.00e+00	0	43	0	880803840	60	4146
2026-01-28 07:14:34.14	352.63	24.16	-44.6	-45.8	20.8	0.00e+00	0	43	0	882900992	60	4237
2026-01-28 07:14:35.15	352.39	24.07	-45.0	-46.3	20.3	0.00e+00	0	43	0	884998144	60	4455
2026-01-28 07:14:36.16	352.16	23.98	-44.9	-46.2	20.5	0.00e+00	0	43	0	887095296	60	4433
2026-01-28 07:14:37.17	351.93	23.89	-45.0	-46.3	20.4	0.00e+00	0	43	0	888143872	60	4471
2026-01-28 07:14:38.17	351.71	23.80	-44.8	-46.1	20.5	0.00e+00	0	43	0	890241024	60	4384
2026-01-28 07:14:39.18	351.48	23.70	-44.8	-46.2	20.5	0.00e+00	0	43	0	892338176	60	4398
2026-01-28 07:14:40.19	351.25	23.61	-44.9	-46.2	20.4	0.00e+00	0	43	0	894435328	60	4437
2026-01-28 07:14:41.20	351.03	23.52	-44.7	-46.0	20.6	0.00e+00	0	43	0	896532480	60	4326
2026-01-28 07:14:42.21	350.80	23.43	-44.8	-46.1	20.6	0.00e+00	0	43	0	897581056	60	4345
2026-01-28 07:14:43.22	350.58	23.34	-44.7	-46.0	20.7	0.00e+00	0	43	0	899678208	60	4305
2026-01-28 07:14:44.23	350.36	23.25	-44.7	-45.9	20.7	0.00e+00	0	43	0	901775360	60	4284
2026-01-28 07:14:45.23	350.14	23.15	-44.6	-45.9	20.7	0.00e+00	0	43	0	903872512	60	4245
2026-01-28 07:14:46.24	349.93	23.06	-44.4	-45.6	21.0	0.00e+00	0	43	0	904921088	60	4132
2026-01-28 07:14:47.25	349.71	22.97	-44.3	-45.5	21.1	0.00e+00	0	43	0	907018240	60	4072
2026-01-28 07:14:48.26	349.49	22.88	-44.4	-45.6	21.4	0.00e+00	0	43	0	909115392	59	4353
2026-01-28 07:14:49.27	349.28	22.79	-44.2	-45.3	21.5	0.00e+00	0	43	0	911212544	59	4234
2026-01-28 07:14:50.28	349.07	22.69	-43.8	-44.9	21.9	0.00e+00	0	43	0	913309696	59	4042
2026-01-28 07:14:51.28	348.86	22.60	-43.5	-44.6	22.1	0.00e+00	0	43	0	915406848	58	4133
2026-01-28 07:14:52.29	348.65	22.51	-43.5	-44.6	22.2	0.00e+00	0	43	0	916455424	58	4111
2026-01-28 07:14:53.30	348.44	22.41	-43.8	-45.0	21.9	0.00e+00	0	43	0	918552576	58	4302
2026-01-28 07:14:54.31	348.23	22.32	-44.1	-45.3	21.6	0.00e+00	0	43	0	920649728	59	4221
2026-01-28 07:14:55.32	348.02	22.23	-44.5	-45.8	21.2	0.00e+00	0	43	0	922746880	59	4465
2026-01-28 07:14:56.33	347.82	22.14	-44.4	-45.7	21.0	0.00e+00	0	43	0	924844032	60	4154
2026-01-28 07:14:57.33	347.62	22.04	-44.3	-45.5	21.1	0.00e+00	0	43	0	925892608	60	4083
2026-01-28 07:14:58.34	347.41	21.95	-44.2	-45.4	21.2	0.00e+00	0	43	0	927989760	60	4042
2026-01-28 07:14:59.35	347.21	21.86	-44.3	-45.5	21.2	0.00e+00	0	43	0	930086912	59	4326
2026-01-28 07:15:00.36	347.01	21.76	-44.4	-45.6	21.3	0.00e+00	0	43	0	932184064	59	4390
2026-01-28 07:15:01.37	346.81	21.67	-44.4	-45.6	21.3	0.00e+00	0	43	0	934281216	59	4379
2026-01-28 07:15:02.37	346.61	21.58	-44.4	-45.6	21.3	0.00e+00	0	43	0	935329792	59	4376
2026-01-28 07:15:03.38	346.42	21.48	-44.5	-45.7	21.2	0.00e+00	0	43	0	937426944	59	4410
2026-01-28 07:15:04.39	346.22	21.39	-44.6	-45.8	21.1	0.00e+00	0	43	0	939524096	59	4468
2026-01-28 07:15:05.39	346.03	21.30	-44.6	-45.8	21.1	0.00e+00	0	43	0	941621248	59	4487
2026-01-28 07:15:06.40	345.84	21.20	-44.4	-45.6	21.0	0.00e+00	0	43	0	943718400	60	4135
2026-01-28 07:15:07.41	345.64	21.11	-44.8	-46.1	20.6	0.00e+00	0	43	0	944766976	60	4344
2026-01-28 07:15:08.42	345.45	21.02	-44.7	-46.0	20.6	0.00e+00	0	43	0	946864128	60	4309
2026-01-28 07:15:09.43	345.26	20.92	-44.8	-46.1	20.5	0.00e+00	0	43	0	948961280	60	4383
2026-01-28 07:15:10.43	345.08	20.83	-45.0	-46.4	20.3	0.00e+00	0	43	0	951058432	60	4505
2026-01-28 07:15:11.44	344.89	20.74	-44.8	-46.1	20.6	0.00e+00	0	43	0	953155584	60	4369
2026-01-28 07:15:12.44	344.71	20.65	-44.5	-45.7	20.9	0.00e+00	0	43	0	954204160	60	4154
2026-01-28 07:15:13.45	344.52	20.55	-44.3	-45.5	21.1	0.00e+00	0	43	0	956301312	60	4075
2026-01-28 07:15:14.46	344.34	20.46	-44.0	-45.2	21.3	0.00e+00	0	43	0	958398464	60	3932
2026-01-28 07:15:15.47	344.15	20.37	-44.1	-45.3	21.6	0.00e+00	0	43	0	960495616	59	4195
2026-01-28 07:15:16.48	343.97	20.27	-44.3	-45.4	21.4	0.00e+00	0	43	0	962592768	59	4274
2026-01-28 07:15:17.49	343.79	20.18	-44.6	-45.8	21.2	0.00e+00	0	43	0	963641344	59	4457
2026-01-28 07:15:18.50	343.61	20.09	-44.7	-45.9	21.0	0.00e+00	0	43	0	965738496	59	4528
2026-01-28 07:15:19.51	343.43	19.99	-44.5	-45.7	20.8	0.00e+00	0	43	0	967835648	60	4173
2026-01-28 07:15:20.51	343.26	19.90	-44.9	-46.2	20.4	0.00e+00	0	43	0	969932800	60	4405
2026-01-28 07:15:21.52	343.08	19.81	-45.0	-46.4	20.3	0.00e+00	0	43	0	972029952	60	4503
2026-01-28 07:15:22.53	342.91	19.72	-45.0	-46.3	20.3	0.00e+00	0	43	0	973078528	60	4484
2026-01-28 07:15:23.53	342.74	19.62	-45.1	-46.4	20.3	0.00e+00	0	43	0	975175680	61	4269
2026-01-28 07:15:24.54	342.56	19.53	-45.0	-46.3	20.4	0.00e+00	0	43	0	977272832	61	4215
2026-01-28 07:15:25.55	342.39	19.44	-44.5	-45.8	20.7	0.00e+00	0	43	0	979369984	61	3963
2026-01-28 07:15:26.56	342.22	19.35	-44.3	-45.5	21.0	0.00e+00	0	43	0	981467136	60	4078
2026-01-28 07:15:27.57	342.05	19.25	-44.2	-45.3	21.2	0.00e+00	0	43	0	983564288	60	4000
2026-01-28 07:15:28.57	341.88	19.16	-44.3	-45.4	21.4	0.00e+00	0	43	0	984612864	59	4289
2026-01-28 07:15:29.58	341.72	19.07	-44.3	-45.5	21.4	0.00e+00	0	43	0	986710016	59	4294
2026-01-28 07:15:30.59	341.55	18.98	-44.3	-45.4	21.4	0.00e+00	0	43	0	988807168	59	4271
2026-01-28 07:15:31.60	341.38	18.88	-44.3	-45.5	21.3	0.00e+00	0	43	0	990904320	59	4327
2026-01-28 07:15:32.61	341.22	18.79	-44.5	-45.7	21.2	0.00e+00	0	43	0	991952896	59	4427
2026-01-28 07:15:33.61	341.06	18.70	-44.6	-45.8	20.7	0.00e+00	0	43	0	994050048	60	4239
2026-01-28 07:15:34.62	340.89	18.61	-44.8	-46.0	20.6	0.00e+00	0	43	0	996147200	60	4331
2026-01-28 07:15:35.63	340.73	18.52	-45.1	-46.5	20.2	0.00e+00	0	43	0	998244352	60	4561
2026-01-28 07:15:36.64	340.57	18.43	-45.6	-47.0	19.7	0.00e+00	0	43	0	1000341504	61	4587
2026-01-28 07:15:37.65	340.41	18.33	-45.6	-47.0	19.6	0.00e+00	0	43	0	1001390080	62	4326
2026-01-28 07:15:38.65	340.25	18.24	-45.8	-47.3	19.4	0.00e+00	0	43	0	1003487232	62	4482
2026-01-28 07:15:39.66	340.10	18.15	-45.8	-47.3	19.4	0.00e+00	0	43	0	1005584384	62	4448
2026-01-28 07:15:40.67	339.94	18.06	-45.6	-47.1	19.5	0.00e+00	0	43	0	1007681536	62	4377
2026-01-28 07:15:41.68	339.78	17.97	-45.4	-46.8	19.9	0.00e+00	0	43	0	1009778688	62	4216
2026-01-28 07:15:42.69	339.63	17.88	-45.3	-46.7	20.0	0.00e+00	0	43	0	1011875840	62	4162
2026-01-28 07:15:43.69	339.48	17.79	-45.1	-46.5	20.1	0.00e+00	0	43	0	1012924416	62	4071
2026-01-28 07:15:44.70	339.32	17.70	-45.2	-46.6	20.1	0.00e+00	0	43	0	1015021568	62	4099
2026-01-28 07:15:45.71	339.17	17.61	-45.2	-46.5	20.1	0.00e+00	0	43	0	1017118720	62	4091
2026-01-28 07:15:46.72	339.02	17.52	-45.3	-46.7	19.9	0.00e+00	0	43	0	1019215872	62	4168
2026-01-28 07:15:47.72	338.87	17.43	-45.7	-47.2	19.5	0.00e+00	0	43	0	1020264448	62	4432
2026-01-28 07:15:48.73	338.72	17.34	-45.8	-47.3	19.4	0.00e+00	0	43	0	1022361600	62	4479
2026-01-28 07:15:49.74	338.58	17.25	-46.1	-47.7	19.0	0.00e+00	0	43	0	1024458752	62	4676
2026-01-28 07:15:50.75	338.43	17.16	-46.3	-47.9	18.8	0.00e+00	0	43	0	1026555904	63	4537
2026-01-28 07:15:51.75	338.28	17.07	-46.3	-48.0	18.7	0.00e+00	0	43	0	1028653056	63	4565
2026-01-28 07:15:52.76	338.14	16.98	-46.0	-47.5	19.2	0.00e+00	0	43	0	1030750208	63	4325
2026-01-28 07:15:53.77	337.99	16.89	-46.0	-47.6	19.1	0.00e+00	0	43	0	1031798784	63	4380
2026-01-28 07:15:54.78	337.85	16.80	-45.9	-47.4	19.3	0.00e+00	0	43	0	1033895936	63	4281
2026-01-28 07:15:55.79	337.71	16.71	-45.6	-47.1	19.5	0.00e+00	0	43	0	1035993088	62	4349
2026-01-28 07:15:56.79	337.56	16.62	-45.2	-46.6	20.0	0.00e+00	0	43	0	1038090240	62	4124
2026-01-28 07:15:57.80	337.42	16.53	-45.0	-46.3	20.2	0.00e+00	0	43	0	1040187392	61	4232
2026-01-28 07:15:58.81	337.28	16.44	-44.8	-46.1	20.4	0.00e+00	0	43	0	1041235968	61	4134
2026-01-28 07:15:59.82	337.14	16.35	-44.8	-46.1	20.4	0.00e+00	0	43	0	1043333120	61	4118
2026-01-28 07:16:00.83	337.00	16.26	-45.0	-46.3	20.2	0.00e+00	0	43	0	1045430272	61	4228
2026-01-28 07:16:01.83	336.87	16.18	-44.8	-46.1	20.3	0.00e+00	0	43	0	1047527424	61	4132
2026-01-28 07:16:02.84	336.73	16.09	-44.9	-46.3	20.2	0.00e+00	0	43	0	1048576000	61	4198
2026-01-28 07:16:03.85	336.59	16.00	-44.9	-46.2	20.3	0.00e+00	0	43	0	1050673152	61	4193
2026-01-28 07:16:04.86	336.46	15.91	-45.0	-46.3	20.3	0.00e+00	0	43	0	1052770304	61	4211
2026-01-28 07:16:05.87	336.32	15.82	-45.5	-46.9	19.7	0.00e+00	0	43	0	1054867456	61	4513
2026-01-28 07:16:06.87	336.19	15.74	-45.4	-46.8	19.7	0.00e+00	0	43	0	1056964608	61	4475
2026-01-28 07:16:07.88	336.06	15.65	-45.4	-46.9	19.7	0.00e+00	0	43	0	1059061760	61	4495
2026-01-28 07:16:08.89	335.93	15.56	-45.4	-46.8	19.8	0.00e+00	0	43	0	1060110336	61	4451
2026-01-28 07:16:09.89	335.80	15.48	-45.4	-46.7	19.8	0.00e+00	0	43	0	1062207488	61	4436
2026-01-28 07:16:10.90	335.67	15.39	-45.1	-46.5	20.0	0.00e+00	0	43	0	1064304640	61	4323
2026-01-28 07:16:11.91	335.54	15.30	-45.1	-46.4	20.0	0.00e+00	0	43	0	1066401792	61	4291
2026-01-28 07:16:12.91	335.41	15.22	-45.1	-46.4	20.0	0.00e+00	0	43	0	1068498944	61	4277
2026-01-28 07:16:13.92	335.28	15.13	-44.9	-46.3	20.3	0.00e+00	0	43	0	1069547520	61	4202
2026-01-28 07:16:14.93	335.15	15.04	-44.9	-46.3	20.2	0.00e+00	0	43	0	1071644672	61	4207
2026-01-28 07:16:15.93	335.03	14.96	-45.0	-46.4	20.0	0.00e+00	0	43	0	1073741824	61	4268
2026-01-28 07:16:16.94	334.90	14.87	-45.3	-46.8	19.8	0.00e+00	0	43	0	1075838976	61	4446
2026-01-28 07:16:17.95	334.78	14.79	-45.5	-46.9	19.6	0.00e+00	0	43	0	1076887552	61	4532
2026-01-28 07:16:18.96	334.65	14.70	-45.8	-47.3	19.2	0.00e+00	0	43	0	1078984704	62	4478
2026-01-28 07:16:19.97	334.53	14.61	-46.2	-47.8	18.7	0.00e+00	0	43	0	1081081856	63	4490
2026-01-28 07:16:20.98	334.40	14.53	-46.6	-48.4	18.2	0.00e+00	0	43	0	1083179008	63	4798
2026-01-28 07:16:21.98	334.28	14.44	-47.0	-48.9	17.7	0.00e+00	0	43	0	1085276160	64	4797
2026-01-28 07:16:22.99	334.16	14.36	-47.0	-49.0	17.6	0.00e+00	0	43	0	1087373312	64	4838
2026-01-28 07:16:24.00	334.04	14.27	-47.1	-49.0	17.5	0.00e+00	0	43	0	1088421888	64	4851
2026-01-28 07:16:25.01	333.92	14.19	-46.8	-48.6	17.9	0.00e+00	0	43	0	1090519040	64	4651
2026-01-28 07:16:26.01	333.80	14.11	-46.5	-48.2	18.3	0.00e+00	0	43	0	1092616192	64	4418
2026-01-28 07:16:27.02	333.68	14.02	-46.1	-47.7	18.8	0.00e+00	0	43	0	1094713344	64	4187
2026-01-28 07:16:28.03	333.56	13.94	-45.7	-47.2	19.2	0.00e+00	0	43	0	1096810496	63	4188
2026-01-28 07:16:29.04	333.45	13.85	-45.3	-46.7	19.7	0.00e+00	0	43	0	1097859072	62	4183
2026-01-28 07:16:30.04	333.33	13.77	-45.2	-46.6	19.9	0.00e+00	0	43	0	1099956224	62	4102
2026-01-28 07:16:31.05	333.21	13.69	-45.1	-46.5	20.0	0.00e+00	0	43	0	1102053376	62	4061
2026-01-28 07:16:32.06	333.10	13.60	-44.9	-46.2	20.1	0.00e+00	0	43	0	1104150528	61	4191
2026-01-28 07:16:33.07	332.98	13.52	-45.0	-46.4	20.0	0.00e+00	0	43	0	1106247680	61	4255
2026-01-28 07:16:34.08	332.87	13.43	-45.0	-46.4	20.0	0.00e+00	0	43	0	1107296256	61	4252
2026-01-28 07:16:35.09	332.76	13.35	-45.2	-46.6	19.8	0.00e+00	0	43	0	1109393408	61	4378
2026-01-28 07:16:36.09	332.65	13.27	-45.4	-46.9	19.5	0.00e+00	0	43	0	1111490560	61	4526
2026-01-28 07:16:37.10	332.53	13.19	-45.7	-47.3	19.2	0.00e+00	0	43	0	1113587712	62	4454
2026-01-28 07:16:38.11	332.42	13.10	-46.0	-47.6	18.8	0.00e+00	0	43	0	1115684864	62	4649
2026-01-28 07:16:39.12	332.31	13.02	-46.5	-48.3	18.3	0.00e+00	0	43	0	1116733440	63	4721
2026-01-28 07:16:40.13	332.20	12.94	-46.8	-48.7	17.8	0.00e+00	0	43	0	1118830592	64	4674
2026-01-28 07:16:41.13	332.09	12.86	-46.9	-48.8	17.7	0.00e+00	0	43	0	1120927744	64	4750
2026-01-28 07:16:42.14	331.98	12.78	-47.0	-48.9	17.6	0.00e+00	0	43	0	1123024896	64	4809
2026-01-28 07:16:43.15	331.87	12.69	-47.1	-49.1	17.3	0.00e+00	0	43	0	1125122048	64	4914
2026-01-28 07:16:44.16	331.77	12.61	-46.9	-48.9	17.6	0.00e+00	0	43	0	1126170624	65	4500
2026-01-28 07:16:45.16	331.66	12.53	-47.1	-49.1	17.4	0.00e+00	0	43	0	1128267776	65	4615
2026-01-28 07:16:46.17	331.55	12.45	-47.2	-49.2	17.2	0.00e+00	0	43	0	1130364928	65	4700
2026-01-28 07:16:47.18	331.45	12.37	-46.9	-48.8	17.6	0.00e+00	0	43	0	1132462080	65	4468
2026-01-28 07:16:48.19	331.34	12.29	-46.9	-48.9	17.5	0.00e+00	0	43	0	1134559232	65	4517
2026-01-28 07:16:49.19	331.24	12.21	-47.0	-49.0	17.5	0.00e+00	0	43	0	1135607808	65	4560
2026-01-28 07:16:50.20	331.14	12.13	-46.8	-48.7	17.7	0.00e+00	0	43	0	1137704960	65	4406
2026-01-28 07:16:51.20	331.03	12.05	-46.8	-48.7	17.8	0.00e+00	0	43	0	1139802112	65	4399
2026-01-28 07:16:52.21	330.93	11.97	-46.8	-48.6	17.8	0.00e+00	0	43	0	1141899264	65	4386
2026-01-28 07:16:53.22	330.83	11.89	-46.8	-48.8	17.7	0.00e+00	0	43	0	1143996416	65	4442
2026-01-28 07:16:54.23	330.73	11.81	-46.8	-48.6	17.8	0.00e+00	0	43	0	1145044992	65	4390
2026-01-28 07:16:55.24	330.62	11.73	-46.8	-48.6	17.8	0.00e+00	0	43	0	1147142144	65	4385
2026-01-28 07:16:56.25	330.52	11.65	-46.7	-48.6	17.9	0.00e+00	0	43	0	1149239296	65	4352
2026-01-28 07:16:57.25	330.42	11.57	-47.0	-49.0	17.4	0.00e+00	0	43	0	1151336448	65	4560
2026-01-28 07:16:58.26	330.32	11.49	-47.0	-49.0	17.4	0.00e+00	0	43	0	1153433600	65	4588
2026-01-28 07:16:59.27	330.23	11.41	-47.2	-49.2	17.1	0.00e+00	0	43	0	1154482176	65	4686
2026-01-28 07:17:00.28	330.13	11.33	-47.2	-49.2	17.2	0.00e+00	0	43	0	1156579328	65	4675
2026-01-28 07:17:01.28	330.03	11.25	-47.3	-49.3	17.1	0.00e+00	0	43	0	1158676480	65	4746
2026-01-28 07:17:02.29	329.93	11.18	-47.2	-49.2	17.2	0.00e+00	0	43	0	1160773632	65	4691
2026-01-28 07:17:03.30	329.84	11.10	-47.4	-49.5	16.9	0.00e+00	0	43	0	1162870784	65	4864
2026-01-28 07:17:04.31	329.74	11.02	-47.3	-49.4	17.0	0.00e+00	0	43	0	1163919360	65	4806
2026-01-28 07:17:05.32	329.64	10.94	-47.2	-49.2	17.2	0.00e+00	0	43	0	1166016512	65	4679
2026-01-28 07:17:06.33	329.55	10.86	-46.9	-48.9	17.5	0.00e+00	0	43	0	1168113664	65	4516
2026-01-28 07:17:07.33	329.46	10.79	-46.9	-48.8	17.5	0.00e+00	0	43	0	1170210816	65	4476
2026-01-28 07:17:08.34	329.36	10.71	-46.7	-48.6	17.8	0.00e+00	0	43	0	1172307968	65	4344
2026-01-28 07:17:09.35	329.27	10.63	-46.4	-48.2	18.1	0.00e+00	0	43	0	1173356544	64	4421
2026-01-28 07:17:10.36	329.17	10.55	-46.3	-48.1	18.2	0.00e+00	0	43	0	1175453696	64	4354
2026-01-28 07:17:11.37	329.08	10.48	-46.1	-47.8	18.5	0.00e+00	0	43	0	1177550848	64	4200
2026-01-28 07:17:12.37	328.99	10.40	-46.1	-47.7	18.6	0.00e+00	0	43	0	1179648000	63	4425
2026-01-28 07:17:13.38	328.90	10.32	-46.0	-47.7	18.7	0.00e+00	0	43	0	1181745152	63	4394
2026-01-28 07:17:14.39	328.81	10.25	-45.9	-47.5	18.8	0.00e+00	0	43	0	1182793728	63	4302
2026-01-28 07:17:15.40	328.72	10.17	-45.9	-47.5	18.9	0.00e+00	0	43	0	1184890880	63	4306
2026-01-28 07:17:16.41	328.63	10.09	-45.8	-47.4	19.0	0.00e+00	0	43	0	1186988032	63	4247
2026-01-28 07:17:17.42	328.54	10.02	-46.0	-47.6	18.7	0.00e+00	0	43	0	1189085184	63	4387
2026-01-28 07:17:18.43	328.45	9.94	-46.0	-47.6	18.7	0.00e+00	0	43	0	1191182336	63	4377
2026-01-28 07:17:19.43	328.36	9.87	-46.1	-47.7	18.6	0.00e+00	0	43	0	1192230912	63	4435
2026-01-28 07:17:20.44	328.27	9.79	-46.4	-48.1	18.2	0.00e+00	0	43	0	1194328064	63	4631
2026-01-28 07:17:21.44	328.18	9.72	-46.6	-48.5	17.9	0.00e+00	0	43	0	1196425216	63	4815
2026-01-28 07:17:22.45	328.10	9.64	-46.7	-48.5	17.7	0.00e+00	0	43	0	1198522368	64	4596
2026-01-28 07:17:23.46	328.01	9.57	-46.7	-48.7	17.6	0.00e+00	0	43	0	1200619520	64	4656
2026-01-28 07:17:24.47	327.92	9.49	-47.1	-49.2	17.1	0.00e+00	0	43	0	1202716672	64	4928
2026-01-28 07:17:25.47	327.84	9.42	-47.4	-49.5	16.8	0.00e+00	0	43	0	1203765248	65	4865
2026-01-28 07:17:26.48	327.75	9.34	-47.5	-49.7	16.5	0.00e+00	0	43	0	1205862400	65	4976
2026-01-28 07:17:27.49	327.67	9.27	-47.7	-50.0	16.3	0.00e+00	0	43	0	1207959552	65	5126
2026-01-28 07:17:28.50	327.58	9.19	-47.8	-50.2	16.0	0.00e+00	0	43	0	1210056704	66	4965
2026-01-28 07:17:29.50	327.50	9.12	-47.8	-50.3	16.0	0.00e+00	0	43	0	1211105280	66	4988
2026-01-28 07:17:30.51	327.42	9.05	-47.7	-50.1	16.1	0.00e+00	0	43	0	1213202432	66	4880
2026-01-28 07:17:31.52	327.33	8.97	-48.0	-50.6	15.7	0.00e+00	0	43	0	1215299584	66	5170
2026-01-28 07:17:32.53	327.25	8.90	-47.9	-50.4	15.8	0.00e+00	0	43	0	1217396736	66	5083
2026-01-28 07:17:33.53	327.17	8.83	-48.0	-50.5	15.7	0.00e+00	0	43	0	1219493888	66	5147
2026-01-28 07:17:34.54	327.09	8.75	-47.9	-50.4	15.9	0.00e+00	0	43	0	1220542464	66	5062
2026-01-28 07:17:35.55	327.01	8.68	-48.0	-50.6	15.7	0.00e+00	0	43	0	1222639616	66	5179
2026-01-28 07:17:36.56	326.92	8.61	-47.9	-50.4	15.8	0.00e+00	0	43	0	1224736768	66	5079
