passes_logs/2026/01/28/R3.2S_Murmansk/R3.2S_Murmansk__20260128_222826_SUOMI_NPP_rec.log

#Pass ID: 20260128_222826_SUOMI NPP
#Satellite: SUOMI NPP
#Configuration: NPP
#almurnet v.1.7.20251203
#Start time: 2026-01-28 22:28:27

#Version: 2.2.20231116
#Station: R3.2S_Murmansk
#Location: 33.079688 lon 68.888172 lat
#TLE: 1 37849U 11061A   26027.93236865  .00000148  00000+0  91411-4 0  9991
#TLE: 2 37849  98.7823 329.8704 0002085  41.3231 318.8102 14.19530777738546

#Time	Az	El	Level	Level2	SNR	BER	BlckErr	Temp	State	Recorded	gain1	gain2
2026-01-28 22:28:27.72	19.00	2.06	-51.9	-66.8	3.8	1.49e+00	0	40	0	0	75	20000
2026-01-28 22:28:28.73	19.07	2.12	-51.9	-66.8	3.8	1.49e+00	0	40	104	0	74	21156
2026-01-28 22:28:29.73	19.13	2.17	-51.8	-66.8	3.8	1.49e+00	0	40	104	0	74	21126
2026-01-28 22:28:30.75	19.21	2.23	-51.8	-66.8	3.8	1.49e+00	0	40	104	0	74	21093
2026-01-28 22:28:31.75	19.27	2.29	-51.8	-66.8	3.8	1.49e+00	0	40	104	0	74	21040
2026-01-28 22:28:32.76	19.35	2.34	-51.8	-66.7	3.8	1.49e+00	0	40	104	0	74	21017
2026-01-28 22:28:33.77	19.42	2.40	-51.8	-66.7	3.8	1.49e+00	0	40	104	0	74	20975
2026-01-28 22:28:34.78	19.49	2.45	-51.8	-66.7	3.8	1.49e+00	0	40	104	0	74	20872
2026-01-28 22:28:35.79	19.56	2.51	-51.8	-66.7	3.8	1.49e+00	0	40	104	0	74	20907
2026-01-28 22:28:36.80	19.63	2.57	-51.8	-66.7	3.8	1.49e+00	0	40	104	0	74	20872
2026-01-28 22:28:37.81	19.70	2.62	-51.8	-66.7	3.8	1.49e+00	0	40	104	0	74	20889
2026-01-28 22:28:38.81	19.77	2.68	-51.8	-66.7	3.8	1.49e+00	0	41	104	0	74	20878
2026-01-28 22:28:39.82	19.84	2.74	-51.8	-66.7	3.8	1.49e+00	0	41	104	0	74	20879
2026-01-28 22:28:40.83	19.92	2.79	-51.8	-66.6	3.8	1.49e+00	0	41	104	0	74	20741
2026-01-28 22:28:41.84	19.99	2.85	-51.8	-66.7	3.8	1.49e+00	0	41	104	0	74	20840
2026-01-28 22:28:42.85	20.06	2.91	-51.8	-66.7	3.8	1.49e+00	0	41	104	0	74	20790
2026-01-28 22:28:43.85	20.13	2.96	-51.8	-66.6	3.8	1.49e+00	0	41	104	0	74	20650
2026-01-28 22:28:44.86	20.21	3.02	-51.8	-66.5	3.8	1.49e+00	0	41	104	0	74	20533
2026-01-28 22:28:45.87	20.28	3.08	-51.8	-66.5	3.8	1.49e+00	0	41	104	0	74	20456
2026-01-28 22:28:46.87	20.36	3.13	-51.8	-66.4	3.8	1.49e+00	0	41	104	0	74	20274
2026-01-28 22:28:47.88	20.43	3.19	-51.8	-66.5	3.8	1.49e+00	0	41	104	0	74	20370
2026-01-28 22:28:48.89	20.50	3.25	-51.8	-66.5	3.8	1.49e+00	0	41	104	0	74	20418
2026-01-28 22:28:49.90	20.58	3.31	-51.8	-66.5	3.8	1.49e+00	0	41	104	0	74	20403
2026-01-28 22:28:50.90	20.65	3.36	-51.8	-66.6	3.8	1.49e+00	0	41	104	0	74	20544
2026-01-28 22:28:51.91	20.73	3.42	-51.8	-66.6	3.8	1.49e+00	0	41	104	0	74	20626
2026-01-28 22:28:52.92	20.80	3.48	-51.8	-66.6	3.8	1.49e+00	0	41	104	0	74	20692
2026-01-28 22:28:53.93	20.88	3.54	-51.8	-66.6	3.8	1.49e+00	0	41	104	0	74	20691
2026-01-28 22:28:54.94	20.96	3.60	-51.8	-66.6	3.8	1.49e+00	0	41	104	0	74	20650
2026-01-28 22:28:55.94	21.03	3.65	-51.8	-66.5	3.8	1.49e+00	0	41	104	0	74	20490
2026-01-28 22:28:56.95	21.11	3.71	-51.8	-66.3	3.8	1.49e+00	0	41	104	0	74	19891
2026-01-28 22:28:57.95	21.18	3.77	-51.8	-66.2	3.8	1.49e+00	0	41	104	0	74	19669
2026-01-28 22:28:58.96	21.26	3.83	-51.8	-66.0	3.8	1.49e+00	0	41	104	0	74	19319
2026-01-28 22:28:59.97	21.34	3.89	-51.8	-66.0	3.8	1.49e+00	0	41	104	0	74	19384
2026-01-28 22:29:00.98	21.42	3.94	-51.8	-66.3	3.8	1.49e+00	0	41	104	0	74	19962
2026-01-28 22:29:01.99	21.50	4.00	-51.8	-66.3	3.8	1.49e+00	0	41	104	0	74	20005
2026-01-28 22:29:02.99	21.57	4.06	-51.7	-65.4	3.8	1.49e+00	0	41	104	0	74	18023
2026-01-28 22:29:04.00	21.65	4.12	-51.5	-62.6	4.4	1.48e+00	66	41	104	0	74	13062
2026-01-28 22:29:05.01	21.73	4.18	-51.2	-59.6	6.0	7.11e-01	0	41	0	1048576	74	9231
2026-01-28 22:29:06.01	21.81	4.24	-50.6	-56.7	8.7	5.65e-02	0	41	0	3145728	73	7027
2026-01-28 22:29:07.02	21.89	4.30	-49.8	-54.4	11.1	7.90e-03	0	41	0	5242880	71	6010
2026-01-28 22:29:08.03	21.97	4.35	-48.8	-52.2	13.4	2.23e-04	0	41	0	7340032	69	5256
2026-01-28 22:29:09.04	22.05	4.41	-48.1	-51.0	14.6	1.50e-06	0	41	0	9437184	68	4825
2026-01-28 22:29:10.04	22.13	4.47	-47.3	-49.7	15.8	0.00e+00	0	41	0	10485760	66	4687
2026-01-28 22:29:11.05	22.21	4.53	-46.8	-49.0	16.5	0.00e+00	0	41	0	12582912	65	4564
2026-01-28 22:29:12.05	22.29	4.59	-46.6	-48.6	16.9	0.00e+00	0	41	0	14680064	65	4370
2026-01-28 22:29:13.07	22.37	4.65	-46.5	-48.5	17.0	0.00e+00	0	41	0	16777216	64	4587
2026-01-28 22:29:14.08	22.45	4.71	-46.7	-48.8	16.7	0.00e+00	0	41	0	17825792	64	4746
2026-01-28 22:29:15.08	22.54	4.77	-47.1	-49.4	16.2	0.00e+00	0	41	0	19922944	64	5084
2026-01-28 22:29:16.09	22.62	4.83	-47.8	-50.6	15.1	0.00e+00	0	41	0	22020096	66	5165
2026-01-28 22:29:17.09	22.70	4.89	-48.6	-51.8	13.8	1.50e-06	0	41	0	24117248	67	5621
2026-01-28 22:29:18.10	22.78	4.95	-49.6	-53.8	11.9	6.33e-05	0	41	0	26214400	69	6324
2026-01-28 22:29:19.11	22.87	5.01	-50.6	-56.8	8.7	1.50e-02	0	41	0	27262976	71	7966
2026-01-28 22:29:20.11	22.95	5.07	-47.1	-49.3	16.4	7.00e-07	0	41	0	29360128	66	4460
2026-01-28 22:29:21.12	23.03	5.13	-47.0	-49.2	16.5	0.00e+00	0	41	0	31457280	65	4669
2026-01-28 22:29:22.13	23.12	5.19	-51.7	-66.2	3.8	1.47e+00	0	41	104	32505856	74	19662
2026-01-28 22:29:23.14	23.20	5.25	-49.8	-54.2	11.1	2.34e-01	0	41	0	32505856	71	5911
2026-01-28 22:29:24.15	23.29	5.31	-50.0	-54.4	11.3	2.20e-06	0	41	0	34603008	70	6388
2026-01-28 22:29:25.15	23.37	5.37	-47.6	-50.1	15.6	0.00e+00	0	41	0	36700160	67	4603
2026-01-28 22:29:26.16	23.46	5.43	-47.4	-49.8	15.9	0.00e+00	0	41	0	37748736	66	4718
2026-01-28 22:29:27.17	23.54	5.49	-47.3	-49.6	16.1	0.00e+00	0	42	0	39845888	66	4641
2026-01-28 22:29:28.18	23.63	5.55	-47.0	-49.2	16.5	0.00e+00	0	41	0	41943040	66	4412
2026-01-28 22:29:29.19	23.72	5.61	-46.7	-48.7	17.0	0.00e+00	0	42	0	44040192	65	4417
2026-01-28 22:29:30.19	23.80	5.67	-46.7	-48.8	16.9	0.00e+00	0	41	0	45088768	65	4454
2026-01-28 22:29:31.20	23.89	5.73	-46.7	-48.7	17.0	0.00e+00	0	42	0	47185920	65	4410
2026-01-28 22:29:32.21	23.98	5.79	-46.6	-48.6	17.1	0.00e+00	0	41	0	49283072	65	4353
2026-01-28 22:29:33.22	24.07	5.86	-46.7	-48.7	17.0	0.00e+00	0	41	0	51380224	65	4431
2026-01-28 22:29:34.22	24.15	5.92	-46.6	-48.5	17.2	0.00e+00	0	41	0	53477376	65	4339
2026-01-28 22:29:35.23	24.24	5.98	-46.7	-48.7	17.1	0.00e+00	0	41	0	55574528	65	4408
2026-01-28 22:29:36.24	24.33	6.04	-46.7	-48.7	17.0	0.00e+00	0	41	0	56623104	65	4437
2026-01-28 22:29:37.25	24.42	6.10	-46.7	-48.7	17.0	0.00e+00	0	41	0	58720256	65	4429
2026-01-28 22:29:38.25	24.51	6.16	-46.8	-48.8	17.0	0.00e+00	0	41	0	60817408	65	4459
2026-01-28 22:29:39.26	24.60	6.22	-46.8	-48.8	16.9	0.00e+00	0	41	0	62914560	65	4486
2026-01-28 22:29:40.27	24.69	6.29	-46.8	-48.9	16.9	0.00e+00	0	42	0	65011712	65	4520
2026-01-28 22:29:41.28	24.78	6.35	-46.8	-48.8	17.0	0.00e+00	0	41	0	66060288	65	4456
2026-01-28 22:29:42.28	24.87	6.41	-46.9	-49.0	16.8	0.00e+00	0	42	0	68157440	65	4564
2026-01-28 22:29:43.29	24.96	6.47	-46.7	-48.7	17.1	0.00e+00	0	41	0	70254592	65	4410
2026-01-28 22:29:44.30	25.05	6.53	-46.7	-48.7	17.1	0.00e+00	0	42	0	72351744	65	4405
2026-01-28 22:29:45.31	25.15	6.60	-46.9	-49.0	16.8	0.00e+00	0	42	0	73400320	65	4569
2026-01-28 22:29:46.31	25.24	6.66	-46.8	-48.8	17.1	0.00e+00	0	41	0	75497472	65	4470
2026-01-28 22:29:47.32	25.33	6.72	-46.6	-48.6	17.3	0.00e+00	0	42	0	77594624	65	4363
2026-01-28 22:29:48.33	25.42	6.78	-46.6	-48.5	17.4	0.00e+00	0	41	0	79691776	65	4322
2026-01-28 22:29:49.33	25.52	6.85	-46.8	-48.8	17.1	0.00e+00	0	42	0	81788928	65	4447
2026-01-28 22:29:50.34	25.61	6.91	-46.7	-48.6	17.3	0.00e+00	0	42	0	83886080	65	4375
2026-01-28 22:29:51.35	25.71	6.97	-46.4	-48.3	17.5	0.00e+00	0	42	0	84934656	64	4464
2026-01-28 22:29:52.36	25.80	7.03	-46.3	-48.2	17.7	0.00e+00	0	42	0	87031808	64	4402
2026-01-28 22:29:53.36	25.90	7.10	-46.3	-48.2	17.7	0.00e+00	0	42	0	89128960	64	4403
2026-01-28 22:29:54.37	25.99	7.16	-46.3	-48.1	17.7	0.00e+00	0	42	0	91226112	64	4379
2026-01-28 22:29:55.37	26.09	7.22	-46.1	-47.9	18.0	0.00e+00	0	42	0	93323264	64	4278
2026-01-28 22:29:56.38	26.18	7.29	-46.1	-47.9	18.0	0.00e+00	0	42	0	94371840	64	4273
2026-01-28 22:29:57.39	26.28	7.35	-46.2	-48.0	17.9	0.00e+00	0	42	0	96468992	64	4305
2026-01-28 22:29:58.39	26.38	7.41	-46.1	-47.8	18.0	0.00e+00	0	42	0	98566144	64	4215
2026-01-28 22:29:59.40	26.47	7.48	-46.1	-47.8	18.0	0.00e+00	0	42	0	100663296	64	4240
2026-01-28 22:30:00.41	26.57	7.54	-46.2	-47.9	18.1	0.00e+00	0	42	0	101711872	63	4538
2026-01-28 22:30:01.41	26.67	7.60	-46.1	-47.8	18.1	0.00e+00	0	42	0	103809024	63	4484
2026-01-28 22:30:02.42	26.77	7.67	-46.2	-48.0	18.0	0.00e+00	0	42	0	105906176	63	4561
2026-01-28 22:30:03.43	26.87	7.73	-46.1	-47.8	18.2	0.00e+00	0	42	0	108003328	63	4464
2026-01-28 22:30:04.43	26.97	7.79	-46.3	-48.1	17.9	0.00e+00	0	42	0	110100480	63	4615
2026-01-28 22:30:05.44	27.07	7.86	-46.1	-47.8	18.1	0.00e+00	0	42	0	112197632	63	4493
2026-01-28 22:30:06.45	27.17	7.92	-46.3	-48.1	18.0	0.00e+00	0	42	0	113246208	63	4599
2026-01-28 22:30:07.45	27.27	7.99	-46.1	-47.8	18.2	0.00e+00	0	42	0	115343360	63	4471
2026-01-28 22:30:08.46	27.37	8.05	-46.3	-48.0	18.0	0.00e+00	0	42	0	117440512	63	4581
2026-01-28 22:30:09.47	27.47	8.12	-46.4	-48.2	17.9	0.00e+00	0	42	0	119537664	63	4669
2026-01-28 22:30:10.48	27.57	8.18	-46.3	-48.1	18.0	0.00e+00	0	42	0	121634816	63	4612
2026-01-28 22:30:11.49	27.68	8.25	-46.5	-48.3	17.8	0.00e+00	0	42	0	122683392	63	4717
2026-01-28 22:30:12.50	27.78	8.31	-46.5	-48.3	17.7	0.00e+00	0	42	0	124780544	63	4756
2026-01-28 22:30:13.51	27.88	8.37	-46.6	-48.4	17.7	0.00e+00	0	42	0	126877696	63	4794
2026-01-28 22:30:14.52	27.99	8.44	-46.6	-48.5	17.5	0.00e+00	0	42	0	128974848	64	4579
2026-01-28 22:30:15.53	28.09	8.50	-46.8	-48.7	17.3	0.00e+00	0	42	0	131072000	64	4682
2026-01-28 22:30:16.53	28.20	8.57	-46.7	-48.7	17.3	0.00e+00	0	42	0	132120576	64	4679
2026-01-28 22:30:17.54	28.30	8.63	-46.7	-48.7	17.3	0.00e+00	0	42	0	134217728	64	4666
2026-01-28 22:30:18.55	28.41	8.70	-47.0	-49.1	16.9	0.00e+00	0	42	0	136314880	64	4900
2026-01-28 22:30:19.56	28.51	8.77	-47.0	-49.0	17.0	0.00e+00	0	42	0	138412032	64	4839
2026-01-28 22:30:20.56	28.62	8.83	-47.0	-49.1	16.9	0.00e+00	0	42	0	140509184	64	4905
2026-01-28 22:30:21.57	28.73	8.90	-47.0	-49.0	17.0	0.00e+00	0	42	0	141557760	64	4860
2026-01-28 22:30:22.58	28.83	8.96	-46.7	-48.7	17.4	0.00e+00	0	42	0	143654912	64	4666
2026-01-28 22:30:23.59	28.94	9.03	-46.8	-48.8	17.3	0.00e+00	0	42	0	145752064	64	4711
2026-01-28 22:30:24.59	29.05	9.09	-46.8	-48.7	17.4	0.00e+00	0	42	0	147849216	64	4687
2026-01-28 22:30:25.60	29.16	9.16	-46.7	-48.6	17.5	0.00e+00	0	42	0	149946368	64	4615
2026-01-28 22:30:26.61	29.27	9.22	-46.6	-48.4	17.6	0.00e+00	0	42	0	150994944	64	4535
2026-01-28 22:30:27.61	29.38	9.29	-46.6	-48.4	17.7	0.00e+00	0	42	0	153092096	64	4522
2026-01-28 22:30:28.61	29.49	9.36	-46.5	-48.4	17.7	0.00e+00	0	42	0	155189248	64	4512
2026-01-28 22:30:29.62	29.60	9.42	-46.6	-48.5	17.6	0.00e+00	0	42	0	157286400	64	4569
2026-01-28 22:30:30.63	29.71	9.49	-46.6	-48.4	17.7	0.00e+00	0	42	0	159383552	64	4531
2026-01-28 22:30:31.64	29.82	9.56	-46.4	-48.2	17.9	0.00e+00	0	42	0	160432128	64	4402
2026-01-28 22:30:32.64	29.93	9.62	-46.5	-48.3	17.8	0.00e+00	0	42	0	162529280	64	4472
2026-01-28 22:30:33.65	30.05	9.69	-46.4	-48.2	17.8	0.00e+00	0	42	0	164626432	64	4429
2026-01-28 22:30:34.66	30.16	9.75	-46.4	-48.1	18.0	0.00e+00	0	42	0	166723584	64	4391
2026-01-28 22:30:35.67	30.27	9.82	-46.4	-48.1	18.0	0.00e+00	0	42	0	168820736	64	4385
2026-01-28 22:30:36.67	30.39	9.89	-46.4	-48.1	18.0	0.00e+00	0	42	0	169869312	64	4386
2026-01-28 22:30:37.68	30.50	9.95	-46.2	-47.9	18.2	0.00e+00	0	42	0	171966464	64	4251
2026-01-28 22:30:38.69	30.62	10.02	-46.1	-47.7	18.4	0.00e+00	0	42	0	174063616	64	4179
2026-01-28 22:30:39.70	30.73	10.09	-46.1	-47.8	18.4	0.00e+00	0	42	0	176160768	63	4466
2026-01-28 22:30:40.70	30.85	10.16	-45.9	-47.5	18.7	0.00e+00	0	42	0	178257920	63	4311
2026-01-28 22:30:41.71	30.97	10.22	-45.9	-47.5	18.7	0.00e+00	0	42	0	179306496	63	4331
2026-01-28 22:30:42.72	31.08	10.29	-45.8	-47.3	18.9	0.00e+00	0	42	0	181403648	63	4226
2026-01-28 22:30:43.73	31.20	10.36	-45.7	-47.3	18.9	0.00e+00	0	42	0	183500800	63	4196
2026-01-28 22:30:44.74	31.32	10.43	-45.6	-47.2	19.0	0.00e+00	0	42	0	185597952	63	4165
2026-01-28 22:30:45.74	31.44	10.49	-45.5	-47.0	19.1	0.00e+00	0	42	0	187695104	63	4093
2026-01-28 22:30:46.75	31.56	10.56	-45.4	-46.9	19.2	0.00e+00	0	42	0	188743680	62	4285
2026-01-28 22:30:47.75	31.68	10.63	-45.5	-47.0	19.2	0.00e+00	0	42	0	190840832	62	4299
2026-01-28 22:30:48.76	31.80	10.70	-45.6	-47.2	19.0	0.00e+00	0	42	0	192937984	62	4397
2026-01-28 22:30:49.77	31.92	10.76	-45.4	-46.8	19.3	0.00e+00	0	42	0	195035136	62	4239
2026-01-28 22:30:50.78	32.04	10.83	-45.4	-46.9	19.3	0.00e+00	0	42	0	197132288	62	4251
2026-01-28 22:30:51.78	32.16	10.90	-45.5	-46.9	19.3	0.00e+00	0	42	0	198180864	62	4286
2026-01-28 22:30:52.79	32.28	10.97	-45.3	-46.7	19.5	0.00e+00	0	42	0	200278016	62	4179
2026-01-28 22:30:53.80	32.41	11.04	-45.4	-46.8	19.3	0.00e+00	0	42	0	202375168	62	4241
2026-01-28 22:30:54.81	32.53	11.10	-45.3	-46.7	19.4	0.00e+00	0	42	0	204472320	62	4191
2026-01-28 22:30:55.82	32.65	11.17	-45.3	-46.7	19.5	0.00e+00	0	42	0	206569472	62	4163
2026-01-28 22:30:56.83	32.78	11.24	-45.4	-46.8	19.4	0.00e+00	0	42	0	207618048	62	4227
2026-01-28 22:30:57.84	32.91	11.31	-45.5	-46.9	19.3	0.00e+00	0	42	0	209715200	62	4290
2026-01-28 22:30:58.84	33.03	11.38	-45.5	-47.0	19.2	0.00e+00	0	42	0	211812352	62	4336
2026-01-28 22:30:59.85	33.16	11.45	-45.4	-46.9	19.3	0.00e+00	0	42	0	213909504	62	4268
2026-01-28 22:31:00.86	33.28	11.52	-45.5	-47.0	19.2	0.00e+00	0	42	0	216006656	62	4334
2026-01-28 22:31:01.87	33.41	11.58	-45.5	-47.0	19.2	0.00e+00	0	42	0	217055232	62	4330
2026-01-28 22:31:02.88	33.54	11.65	-45.6	-47.2	19.1	0.00e+00	0	42	0	219152384	62	4404
2026-01-28 22:31:03.88	33.67	11.72	-45.6	-47.1	19.2	0.00e+00	0	42	0	221249536	62	4377
2026-01-28 22:31:04.89	33.80	11.79	-45.7	-47.2	19.1	0.00e+00	0	42	0	223346688	62	4410
2026-01-28 22:31:05.90	33.93	11.86	-45.6	-47.2	19.1	0.00e+00	0	42	0	225443840	62	4395
2026-01-28 22:31:06.91	34.06	11.93	-45.7	-47.2	19.1	0.00e+00	0	42	0	226492416	62	4416
2026-01-28 22:31:07.91	34.19	12.00	-45.5	-47.0	19.3	0.00e+00	0	42	0	228589568	62	4330
2026-01-28 22:31:08.92	34.32	12.07	-45.5	-46.9	19.3	0.00e+00	0	42	0	230686720	62	4287
2026-01-28 22:31:09.93	34.45	12.14	-45.6	-47.1	19.2	0.00e+00	0	42	0	232783872	62	4357
2026-01-28 22:31:10.94	34.59	12.21	-45.5	-47.0	19.3	0.00e+00	0	42	0	234881024	62	4327
2026-01-28 22:31:11.94	34.72	12.27	-45.5	-47.0	19.3	0.00e+00	0	42	0	235929600	62	4300
2026-01-28 22:31:12.95	34.85	12.34	-45.6	-47.0	19.1	0.00e+00	0	42	0	238026752	62	4338
2026-01-28 22:31:13.96	34.99	12.41	-45.5	-47.0	19.3	0.00e+00	0	42	0	240123904	62	4328
2026-01-28 22:31:14.97	35.12	12.48	-45.5	-47.0	19.4	0.00e+00	0	42	0	242221056	62	4304
2026-01-28 22:31:15.97	35.26	12.55	-45.7	-47.3	19.1	0.00e+00	0	42	0	244318208	62	4448
2026-01-28 22:31:16.98	35.39	12.62	-45.6	-47.1	19.2	0.00e+00	0	42	0	245366784	62	4375
2026-01-28 22:31:17.99	35.53	12.69	-45.5	-47.0	19.3	0.00e+00	0	42	0	247463936	62	4328
2026-01-28 22:31:19.00	35.67	12.76	-45.6	-47.1	19.2	0.00e+00	0	42	0	249561088	62	4351
2026-01-28 22:31:20.01	35.81	12.83	-45.5	-46.9	19.3	0.00e+00	0	42	0	251658240	62	4288
2026-01-28 22:31:21.01	35.95	12.90	-45.3	-46.7	19.6	0.00e+00	0	42	0	253755392	62	4189
2026-01-28 22:31:22.02	36.09	12.97	-45.3	-46.7	19.6	0.00e+00	0	42	0	254803968	62	4179
2026-01-28 22:31:23.03	36.23	13.04	-45.2	-46.6	19.7	0.00e+00	0	42	0	256901120	62	4113
2026-01-28 22:31:24.03	36.37	13.11	-44.9	-46.2	20.0	0.00e+00	0	42	0	258998272	61	4179
2026-01-28 22:31:25.04	36.51	13.18	-45.0	-46.3	19.9	0.00e+00	0	42	0	261095424	61	4228
2026-01-28 22:31:26.05	36.65	13.25	-44.8	-46.1	20.1	0.00e+00	0	42	0	263192576	61	4138
2026-01-28 22:31:27.06	36.79	13.32	-44.7	-46.0	20.3	0.00e+00	0	42	0	264241152	61	4064
2026-01-28 22:31:28.06	36.94	13.39	-44.7	-46.1	20.2	0.00e+00	0	42	0	266338304	61	4100
2026-01-28 22:31:29.07	37.08	13.46	-44.5	-45.8	20.5	0.00e+00	0	42	0	268435456	60	4200
2026-01-28 22:31:30.08	37.23	13.53	-44.5	-45.8	20.4	0.00e+00	0	42	0	270532608	60	4218
2026-01-28 22:31:31.09	37.37	13.60	-44.6	-45.9	20.3	0.00e+00	0	42	0	272629760	60	4262
2026-01-28 22:31:32.10	37.52	13.67	-44.8	-46.2	20.1	0.00e+00	0	42	0	273678336	60	4397
2026-01-28 22:31:33.11	37.67	13.74	-44.6	-45.8	20.4	0.00e+00	0	42	0	275775488	60	4237
2026-01-28 22:31:34.12	37.81	13.82	-44.6	-45.9	20.3	0.00e+00	0	42	0	277872640	60	4286
2026-01-28 22:31:35.12	37.96	13.89	-44.7	-46.0	20.2	0.00e+00	0	42	0	279969792	60	4331
2026-01-28 22:31:36.14	38.11	13.96	-44.8	-46.1	20.1	0.00e+00	0	42	0	282066944	60	4363
2026-01-28 22:31:37.15	38.26	14.03	-44.8	-46.1	20.2	0.00e+00	0	42	0	284164096	60	4346
2026-01-28 22:31:38.15	38.41	14.10	-44.8	-46.1	20.2	0.00e+00	0	42	0	285212672	60	4352
2026-01-28 22:31:39.15	38.56	14.17	-44.8	-46.2	20.1	0.00e+00	0	42	0	287309824	60	4396
2026-01-28 22:31:40.16	38.71	14.24	-44.8	-46.1	20.2	0.00e+00	0	42	0	289406976	60	4354
2026-01-28 22:31:41.17	38.87	14.31	-44.9	-46.3	20.0	0.00e+00	0	42	0	291504128	60	4452
2026-01-28 22:31:42.18	39.02	14.38	-44.9	-46.3	20.0	0.00e+00	0	42	0	292552704	60	4455
2026-01-28 22:31:43.19	39.17	14.45	-45.0	-46.4	19.9	0.00e+00	0	42	0	294649856	60	4525
2026-01-28 22:31:44.20	39.33	14.52	-45.0	-46.3	20.0	0.00e+00	0	42	0	296747008	60	4489
2026-01-28 22:31:45.21	39.48	14.59	-45.1	-46.5	19.8	0.00e+00	0	42	0	298844160	60	4569
2026-01-28 22:31:46.21	39.64	14.66	-45.3	-46.7	19.6	0.00e+00	0	42	0	300941312	61	4431
2026-01-28 22:31:47.22	39.79	14.73	-45.1	-46.5	19.8	0.00e+00	0	42	0	301989888	61	4322
2026-01-28 22:31:48.23	39.95	14.80	-45.3	-46.7	19.6	0.00e+00	0	42	0	304087040	61	4438
2026-01-28 22:31:49.24	40.11	14.88	-45.4	-46.8	19.6	0.00e+00	0	42	0	306184192	61	4475
2026-01-28 22:31:50.24	40.27	14.95	-45.2	-46.6	19.7	0.00e+00	0	42	0	308281344	61	4391
2026-01-28 22:31:51.25	40.43	15.02	-45.4	-46.9	19.5	0.00e+00	0	42	0	310378496	61	4508
2026-01-28 22:31:52.26	40.59	15.09	-45.5	-47.0	19.5	0.00e+00	0	42	0	312475648	61	4574
2026-01-28 22:31:53.27	40.75	15.16	-45.3	-46.7	19.7	0.00e+00	0	42	0	313524224	61	4425
2026-01-28 22:31:54.28	40.91	15.23	-45.2	-46.6	19.8	0.00e+00	0	42	0	315621376	61	4372
2026-01-28 22:31:55.29	41.08	15.30	-45.2	-46.6	19.8	0.00e+00	0	42	0	317718528	61	4349
2026-01-28 22:31:56.30	41.24	15.37	-44.9	-46.3	20.0	0.00e+00	0	42	0	319815680	61	4195
2026-01-28 22:31:57.31	41.40	15.44	-45.2	-46.6	19.8	0.00e+00	0	42	0	320864256	61	4375
2026-01-28 22:31:58.31	41.57	15.51	-45.1	-46.5	19.9	0.00e+00	0	42	0	322961408	61	4315
2026-01-28 22:31:59.32	41.73	15.58	-45.2	-46.6	19.8	0.00e+00	0	42	0	325058560	61	4365
2026-01-28 22:32:00.33	41.90	15.65	-45.3	-46.7	19.7	0.00e+00	0	42	0	327155712	61	4426
2026-01-28 22:32:01.33	42.07	15.73	-45.2	-46.6	19.8	0.00e+00	0	42	0	329252864	61	4352
2026-01-28 22:32:02.34	42.23	15.80	-45.1	-46.5	19.8	0.00e+00	0	42	0	331350016	61	4328
2026-01-28 22:32:03.35	42.40	15.87	-45.2	-46.6	19.8	0.00e+00	0	42	0	332398592	61	4348
2026-01-28 22:32:04.35	42.57	15.94	-45.0	-46.3	20.0	0.00e+00	0	42	0	334495744	61	4223
2026-01-28 22:32:05.36	42.74	16.01	-44.9	-46.2	20.2	0.00e+00	0	42	0	336592896	61	4148
2026-01-28 22:32:06.37	42.91	16.08	-44.9	-46.2	20.2	0.00e+00	0	42	0	338690048	61	4177
2026-01-28 22:32:07.38	43.08	16.15	-44.8	-46.1	20.3	0.00e+00	0	42	0	340787200	61	4114
2026-01-28 22:32:08.39	43.26	16.22	-44.7	-46.0	20.4	0.00e+00	0	42	0	341835776	61	4053
2026-01-28 22:32:09.39	43.43	16.29	-44.5	-45.8	20.5	0.00e+00	0	42	0	343932928	61	3987
2026-01-28 22:32:10.40	43.60	16.36	-44.7	-46.0	20.4	0.00e+00	0	42	0	346030080	61	4056
2026-01-28 22:32:11.41	43.78	16.43	-44.5	-45.8	20.5	0.00e+00	0	42	0	348127232	61	3988
2026-01-28 22:32:12.41	43.95	16.50	-44.5	-45.8	20.5	0.00e+00	0	42	0	349175808	60	4199
2026-01-28 22:32:13.42	44.13	16.57	-44.5	-45.8	20.5	0.00e+00	0	42	0	351272960	60	4214
2026-01-28 22:32:14.43	44.31	16.64	-44.4	-45.6	20.7	0.00e+00	0	42	0	353370112	60	4121
2026-01-28 22:32:15.43	44.48	16.71	-44.6	-45.9	20.4	0.00e+00	0	42	0	355467264	60	4281
2026-01-28 22:32:16.44	44.66	16.78	-44.5	-45.8	20.6	0.00e+00	0	42	0	357564416	60	4201
2026-01-28 22:32:17.45	44.84	16.85	-44.7	-46.0	20.3	0.00e+00	0	42	0	359661568	60	4337
2026-01-28 22:32:18.46	45.02	16.92	-44.9	-46.2	20.2	0.00e+00	0	42	0	360710144	60	4420
2026-01-28 22:32:19.47	45.21	16.99	-44.9	-46.2	20.2	0.00e+00	0	42	0	362807296	60	4420
2026-01-28 22:32:20.47	45.39	17.06	-44.9	-46.3	20.1	0.00e+00	0	42	0	364904448	60	4464
2026-01-28 22:32:21.47	45.57	17.13	-44.8	-46.2	20.2	0.00e+00	0	42	0	367001600	60	4394
2026-01-28 22:32:22.48	45.75	17.20	-44.7	-46.0	20.4	0.00e+00	0	42	0	369098752	60	4311
2026-01-28 22:32:23.49	45.94	17.27	-44.6	-45.9	20.4	0.00e+00	0	42	0	370147328	60	4280
2026-01-28 22:32:24.50	46.12	17.34	-44.7	-46.0	20.4	0.00e+00	0	42	0	372244480	60	4319
2026-01-28 22:32:25.51	46.31	17.41	-44.5	-45.8	20.6	0.00e+00	0	42	0	374341632	60	4210
2026-01-28 22:32:26.52	46.50	17.48	-44.7	-46.0	20.4	0.00e+00	0	42	0	376438784	60	4323
2026-01-28 22:32:27.53	46.69	17.55	-45.0	-46.3	20.1	0.00e+00	0	42	0	378535936	60	4466
2026-01-28 22:32:28.53	46.87	17.62	-44.9	-46.2	20.2	0.00e+00	0	42	0	379584512	60	4423
2026-01-28 22:32:29.54	47.06	17.69	-45.0	-46.3	20.1	0.00e+00	0	42	0	381681664	60	4470
2026-01-28 22:32:30.55	47.25	17.76	-45.0	-46.4	20.1	0.00e+00	0	42	0	383778816	60	4505
2026-01-28 22:32:31.56	47.45	17.83	-44.9	-46.2	20.2	0.00e+00	0	42	0	385875968	60	4435
2026-01-28 22:32:32.57	47.64	17.89	-44.8	-46.1	20.3	0.00e+00	0	42	0	387973120	60	4376
2026-01-28 22:32:33.57	47.83	17.96	-44.8	-46.2	20.3	0.00e+00	0	42	0	389021696	60	4399
2026-01-28 22:32:34.58	48.02	18.03	-44.7	-46.0	20.4	0.00e+00	0	42	0	391118848	60	4310
2026-01-28 22:32:35.59	48.22	18.10	-44.6	-45.9	20.5	0.00e+00	0	42	0	393216000	60	4267
2026-01-28 22:32:36.59	48.41	18.17	-44.6	-45.9	20.5	0.00e+00	0	42	0	395313152	60	4260
2026-01-28 22:32:37.60	48.61	18.24	-44.7	-46.0	20.4	0.00e+00	0	42	0	397410304	60	4320
2026-01-28 22:32:38.61	48.81	18.30	-44.8	-46.1	20.3	0.00e+00	0	42	0	398458880	60	4348
2026-01-28 22:32:39.62	49.01	18.37	-44.7	-46.0	20.4	0.00e+00	0	42	0	400556032	60	4329
2026-01-28 22:32:40.63	49.21	18.44	-44.6	-45.9	20.5	0.00e+00	0	42	0	402653184	60	4277
2026-01-28 22:32:41.63	49.40	18.51	-44.7	-45.9	20.4	0.00e+00	0	42	0	404750336	60	4290
2026-01-28 22:32:42.64	49.60	18.57	-44.5	-45.7	20.7	0.00e+00	0	42	0	406847488	60	4170
2026-01-28 22:32:43.64	49.80	18.64	-44.4	-45.7	20.7	0.00e+00	0	42	0	407896064	60	4147
2026-01-28 22:32:44.65	50.01	18.71	-44.5	-45.8	20.6	0.00e+00	0	42	0	409993216	60	4205
2026-01-28 22:32:45.66	50.21	18.78	-44.7	-45.9	20.5	0.00e+00	0	42	0	412090368	60	4271
2026-01-28 22:32:46.67	50.42	18.84	-45.0	-46.4	20.1	0.00e+00	0	42	0	414187520	60	4500
2026-01-28 22:32:47.68	50.62	18.91	-45.1	-46.5	20.0	0.00e+00	0	42	0	416284672	60	4551
2026-01-28 22:32:48.68	50.83	18.98	-45.1	-46.5	20.0	0.00e+00	0	42	0	417333248	60	4579
2026-01-28 22:32:49.69	51.03	19.04	-45.3	-46.6	19.8	0.00e+00	0	42	0	419430400	61	4389
2026-01-28 22:32:50.70	51.24	19.11	-45.1	-46.4	20.1	0.00e+00	0	42	0	421527552	61	4276
2026-01-28 22:32:51.70	51.45	19.17	-45.0	-46.3	20.1	0.00e+00	0	42	0	423624704	61	4237
2026-01-28 22:32:52.71	51.66	19.24	-44.9	-46.2	20.3	0.00e+00	0	42	0	425721856	61	4152
2026-01-28 22:32:53.72	51.87	19.30	-44.8	-46.1	20.3	0.00e+00	0	42	0	426770432	61	4141
2026-01-28 22:32:54.72	52.08	19.37	-44.9	-46.2	20.2	0.00e+00	0	42	0	428867584	61	4193
2026-01-28 22:32:55.73	52.29	19.44	-45.3	-46.7	19.8	0.00e+00	0	42	0	430964736	61	4401
2026-01-28 22:32:56.74	52.50	19.50	-45.4	-46.8	19.8	0.00e+00	0	42	0	433061888	61	4454
2026-01-28 22:32:57.74	52.72	19.56	-45.6	-47.1	19.5	0.00e+00	0	42	0	435159040	61	4613
2026-01-28 22:32:58.75	52.93	19.63	-45.6	-47.1	19.5	0.00e+00	0	42	0	436207616	61	4602
2026-01-28 22:32:59.76	53.15	19.69	-45.4	-46.8	19.7	0.00e+00	0	42	0	438304768	61	4464
2026-01-28 22:33:00.77	53.37	19.76	-45.3	-46.7	19.8	0.00e+00	0	42	0	440401920	61	4396
2026-01-28 22:33:01.78	53.58	19.82	-45.1	-46.4	20.0	0.00e+00	0	42	0	442499072	61	4291
2026-01-28 22:33:02.78	53.80	19.88	-45.3	-46.7	19.8	0.00e+00	0	42	0	444596224	61	4429
2026-01-28 22:33:03.79	54.02	19.95	-45.4	-46.8	19.8	0.00e+00	0	42	0	445644800	61	4443
2026-01-28 22:33:04.80	54.24	20.01	-45.7	-47.2	19.4	0.00e+00	0	42	0	447741952	61	4653
2026-01-28 22:33:05.80	54.46	20.07	-46.1	-47.7	18.9	0.00e+00	0	42	0	449839104	62	4654
2026-01-28 22:33:06.81	54.68	20.14	-46.3	-48.0	18.7	0.00e+00	0	42	0	451936256	63	4563
2026-01-28 22:33:07.82	54.91	20.20	-46.2	-47.8	18.8	0.00e+00	0	42	0	454033408	63	4470
2026-01-28 22:33:08.83	55.13	20.26	-46.0	-47.6	19.0	0.00e+00	0	42	0	456130560	63	4345
2026-01-28 22:33:09.83	55.35	20.32	-45.9	-47.4	19.2	0.00e+00	0	42	0	457179136	63	4250
2026-01-28 22:33:10.84	55.58	20.38	-45.7	-47.1	19.4	0.00e+00	0	42	0	459276288	63	4125
2026-01-28 22:33:11.85	55.80	20.44	-45.5	-46.9	19.7	0.00e+00	0	42	0	461373440	62	4262
2026-01-28 22:33:12.86	56.03	20.51	-45.3	-46.7	19.9	0.00e+00	0	42	0	463470592	62	4146
2026-01-28 22:33:13.86	56.26	20.57	-45.3	-46.7	19.9	0.00e+00	0	42	0	464519168	62	4163
2026-01-28 22:33:14.87	56.49	20.63	-45.6	-47.0	19.5	0.00e+00	0	42	0	466616320	62	4337
2026-01-28 22:33:15.87	56.72	20.69	-45.4	-46.7	19.8	0.00e+00	0	42	0	468713472	62	4189
2026-01-28 22:33:16.88	56.95	20.74	-45.4	-46.8	19.8	0.00e+00	0	42	0	470810624	62	4195
2026-01-28 22:33:17.89	57.18	20.80	-45.3	-46.6	19.9	0.00e+00	0	42	0	472907776	62	4137
2026-01-28 22:33:18.90	57.41	20.86	-45.3	-46.7	19.9	0.00e+00	0	42	0	473956352	62	4146
2026-01-28 22:33:19.90	57.64	20.92	-45.4	-46.8	19.7	0.00e+00	0	42	0	476053504	62	4215
2026-01-28 22:33:20.91	57.88	20.98	-45.5	-46.9	19.7	0.00e+00	0	42	0	478150656	62	4273
2026-01-28 22:33:21.92	58.11	21.04	-45.8	-47.3	19.3	0.00e+00	0	42	0	480247808	62	4463
2026-01-28 22:33:22.92	58.35	21.10	-46.1	-47.6	19.0	0.00e+00	0	42	0	482344960	62	4647
2026-01-28 22:33:23.93	58.58	21.15	-46.0	-47.5	19.1	0.00e+00	0	42	0	484442112	62	4588
2026-01-28 22:33:24.93	58.82	21.21	-45.5	-46.9	19.7	0.00e+00	0	42	0	485490688	62	4274
2026-01-28 22:33:25.94	59.06	21.27	-45.1	-46.4	20.0	0.00e+00	0	42	0	487587840	62	4040
2026-01-28 22:33:26.95	59.30	21.32	-45.1	-46.5	20.1	0.00e+00	0	42	0	489684992	62	4059
2026-01-28 22:33:27.96	59.54	21.38	-44.7	-46.0	20.5	0.00e+00	0	42	0	491782144	61	4069
2026-01-28 22:33:28.97	59.78	21.43	-44.7	-45.9	20.5	0.00e+00	0	42	0	492830720	61	4045
2026-01-28 22:33:29.98	60.02	21.49	-44.7	-45.9	20.5	0.00e+00	0	42	0	494927872	61	4034
2026-01-28 22:33:30.99	60.27	21.54	-44.8	-46.0	20.4	0.00e+00	0	42	0	497025024	61	4093
2026-01-28 22:33:32.00	60.51	21.60	-44.8	-46.1	20.3	0.00e+00	0	42	0	499122176	61	4137
2026-01-28 22:33:33.00	60.75	21.65	-45.0	-46.3	20.2	0.00e+00	0	42	0	501219328	61	4218
2026-01-28 22:33:34.01	61.00	21.71	-45.2	-46.6	20.0	0.00e+00	0	42	0	502267904	61	4357
2026-01-28 22:33:35.01	61.24	21.76	-45.7	-47.2	19.4	0.00e+00	0	42	0	504365056	62	4427
2026-01-28 22:33:36.02	61.49	21.81	-46.2	-47.8	18.9	0.00e+00	0	42	0	506462208	63	4489
2026-01-28 22:33:37.03	61.74	21.86	-46.6	-48.3	18.6	0.00e+00	0	42	0	508559360	63	4711
2026-01-28 22:33:38.04	61.99	21.91	-46.3	-47.9	18.7	0.00e+00	0	42	0	510656512	63	4538
2026-01-28 22:33:39.04	62.24	21.97	-46.1	-47.7	18.9	0.00e+00	0	42	0	512753664	63	4420
2026-01-28 22:33:40.05	62.49	22.02	-45.7	-47.2	19.4	0.00e+00	0	42	0	513802240	63	4151
2026-01-28 22:33:41.05	62.73	22.07	-45.3	-46.6	20.0	0.00e+00	0	42	0	515899392	62	4143
2026-01-28 22:33:42.06	62.99	22.12	-45.2	-46.6	20.0	0.00e+00	0	42	0	517996544	61	4345
2026-01-28 22:33:43.07	63.24	22.17	-45.1	-46.4	20.1	0.00e+00	0	42	0	520093696	61	4291
2026-01-28 22:33:44.08	63.49	22.22	-45.5	-46.9	19.7	0.00e+00	0	42	0	521142272	61	4512
2026-01-28 22:33:45.09	63.75	22.26	-45.7	-47.1	19.5	0.00e+00	0	42	0	523239424	61	4636
2026-01-28 22:33:46.09	64.00	22.31	-45.8	-47.3	19.3	0.00e+00	0	42	0	525336576	62	4490
2026-01-28 22:33:47.09	64.25	22.36	-45.8	-47.3	19.3	0.00e+00	0	42	0	527433728	62	4455
2026-01-28 22:33:48.10	64.51	22.41	-45.8	-47.2	19.3	0.00e+00	0	42	0	529530880	62	4422
2026-01-28 22:33:49.11	64.77	22.45	-45.9	-47.4	19.3	0.00e+00	0	42	0	530579456	62	4515
2026-01-28 22:33:50.12	65.03	22.50	-45.6	-47.1	19.6	0.00e+00	0	42	0	532676608	62	4341
2026-01-28 22:33:51.13	65.29	22.55	-45.8	-47.2	19.4	0.00e+00	0	42	0	534773760	62	4431
2026-01-28 22:33:52.13	65.54	22.59	-45.8	-47.3	19.4	0.00e+00	0	42	0	536870912	62	4460
2026-01-28 22:33:53.14	65.81	22.63	-45.7	-47.2	19.3	0.00e+00	0	42	0	538968064	62	4426
2026-01-28 22:33:54.15	66.07	22.68	-45.5	-46.9	19.7	0.00e+00	0	42	0	541065216	62	4249
2026-01-28 22:33:55.16	66.33	22.72	-45.2	-46.6	20.0	0.00e+00	0	42	0	542113792	62	4114
2026-01-28 22:33:56.17	66.59	22.77	-45.0	-46.3	20.2	0.00e+00	0	42	0	544210944	62	4001
2026-01-28 22:33:57.17	66.85	22.81	-45.2	-46.6	20.0	0.00e+00	0	42	0	546308096	62	4116
2026-01-28 22:33:58.18	67.12	22.85	-45.6	-47.0	19.6	0.00e+00	0	42	0	548405248	62	4326
2026-01-28 22:33:59.19	67.38	22.89	-46.2	-47.8	18.9	0.00e+00	0	42	0	549453824	63	4454
2026-01-28 22:34:00.20	67.65	22.93	-46.5	-48.2	18.6	0.00e+00	0	42	0	551550976	63	4652
2026-01-28 22:34:01.20	67.91	22.97	-46.6	-48.4	18.2	0.00e+00	0	42	0	553648128	64	4500
2026-01-28 22:34:02.21	68.18	23.01	-46.4	-48.1	18.5	0.00e+00	0	42	0	555745280	64	4381
2026-01-28 22:34:03.22	68.45	23.05	-46.1	-47.7	18.9	0.00e+00	0	42	0	557842432	64	4153
2026-01-28 22:34:04.23	68.71	23.09	-45.9	-47.3	19.3	0.00e+00	0	42	0	559939584	63	4234
2026-01-28 22:34:05.23	68.98	23.13	-45.7	-47.1	19.5	0.00e+00	0	42	0	560988160	63	4141
2026-01-28 22:34:06.24	69.25	23.17	-45.7	-47.1	19.5	0.00e+00	0	42	0	563085312	63	4123
2026-01-28 22:34:07.25	69.52	23.20	-45.9	-47.4	19.3	0.00e+00	0	42	0	565182464	63	4264
2026-01-28 22:34:08.26	69.79	23.24	-45.9	-47.4	19.3	0.00e+00	0	42	0	567279616	63	4259
2026-01-28 22:34:09.27	70.06	23.27	-46.3	-47.9	18.9	0.00e+00	0	42	0	569376768	63	4509
2026-01-28 22:34:10.28	70.33	23.31	-46.2	-47.8	18.9	0.00e+00	0	42	0	570425344	63	4460
2026-01-28 22:34:11.29	70.61	23.34	-46.4	-48.1	18.7	0.00e+00	0	42	0	572522496	63	4616
2026-01-28 22:34:12.30	70.88	23.38	-46.4	-48.0	18.7	0.00e+00	0	42	0	574619648	63	4595
2026-01-28 22:34:13.31	71.15	23.41	-46.4	-48.1	18.7	0.00e+00	0	42	0	576716800	63	4616
2026-01-28 22:34:14.32	71.43	23.44	-46.6	-48.3	18.4	0.00e+00	0	42	0	577765376	64	4466
2026-01-28 22:34:15.32	71.70	23.48	-46.5	-48.2	18.4	0.00e+00	0	42	0	579862528	64	4400
2026-01-28 22:34:16.33	71.98	23.51	-46.7	-48.5	18.2	0.00e+00	0	42	0	581959680	64	4565
2026-01-28 22:34:17.34	72.25	23.54	-47.1	-48.9	17.9	0.00e+00	0	42	0	584056832	64	4796
2026-01-28 22:34:18.35	72.53	23.57	-47.2	-49.1	17.6	0.00e+00	0	42	0	586153984	65	4599
2026-01-28 22:34:19.35	72.80	23.60	-47.2	-49.1	17.6	0.00e+00	0	42	0	588251136	65	4605
2026-01-28 22:34:20.36	73.08	23.63	-47.1	-49.0	17.6	0.00e+00	0	42	0	589299712	65	4580
2026-01-28 22:34:21.37	73.36	23.65	-46.6	-48.3	18.3	0.00e+00	0	42	0	591396864	65	4196
2026-01-28 22:34:22.38	73.64	23.68	-46.2	-47.8	18.7	0.00e+00	0	42	0	593494016	64	4230
2026-01-28 22:34:23.39	73.92	23.71	-46.1	-47.6	19.1	0.00e+00	0	42	0	595591168	63	4384
2026-01-28 22:34:24.39	74.19	23.73	-45.8	-47.3	19.3	0.00e+00	0	42	0	597688320	63	4203
2026-01-28 22:34:25.40	74.47	23.76	-45.6	-47.0	19.6	0.00e+00	0	42	0	598736896	63	4073
2026-01-28 22:34:26.41	74.75	23.79	-45.3	-46.7	20.0	0.00e+00	0	42	0	600834048	62	4156
2026-01-28 22:34:27.42	75.04	23.81	-45.1	-46.4	20.2	0.00e+00	0	42	0	602931200	62	4011
2026-01-28 22:34:28.43	75.32	23.83	-44.7	-46.0	20.5	0.00e+00	0	42	0	605028352	61	4062
2026-01-28 22:34:29.43	75.60	23.86	-44.9	-46.1	20.3	0.00e+00	0	42	0	607125504	61	4140
2026-01-28 22:34:30.44	75.88	23.88	-45.1	-46.4	20.2	0.00e+00	0	42	0	608174080	61	4263
2026-01-28 22:34:31.45	76.16	23.90	-45.5	-47.0	19.7	0.00e+00	0	42	0	610271232	61	4561
2026-01-28 22:34:32.46	76.44	23.92	-46.2	-47.8	18.9	0.00e+00	0	42	0	612368384	63	4442
2026-01-28 22:34:33.47	76.73	23.94	-46.3	-47.9	18.8	0.00e+00	0	42	0	614465536	63	4513
2026-01-28 22:34:34.47	77.01	23.96	-46.1	-47.6	18.9	0.00e+00	0	42	0	616562688	63	4391
2026-01-28 22:34:35.48	77.29	23.98	-45.7	-47.1	19.6	0.00e+00	0	42	0	617611264	63	4137
2026-01-28 22:34:36.49	77.58	24.00	-45.1	-46.4	20.2	0.00e+00	0	42	0	619708416	62	4035
2026-01-28 22:34:37.50	77.86	24.01	-45.1	-46.4	20.3	0.00e+00	0	42	0	621805568	61	4245
2026-01-28 22:34:38.51	78.14	24.03	-45.2	-46.5	20.1	0.00e+00	0	42	0	623902720	61	4332
2026-01-28 22:34:39.52	78.43	24.04	-45.5	-46.9	19.7	0.00e+00	0	42	0	625999872	61	4511
2026-01-28 22:34:40.52	78.71	24.06	-45.8	-47.2	19.4	0.00e+00	0	42	0	627048448	62	4418
2026-01-28 22:34:41.53	79.00	24.07	-45.8	-47.3	19.4	0.00e+00	0	42	0	629145600	62	4446
2026-01-28 22:34:42.54	79.28	24.09	-45.6	-47.0	19.7	0.00e+00	0	42	0	631242752	62	4297
2026-01-28 22:34:43.55	79.57	24.10	-45.5	-46.9	19.7	0.00e+00	0	42	0	633339904	62	4269
2026-01-28 22:34:44.55	79.85	24.11	-45.8	-47.2	19.5	0.00e+00	0	42	0	635437056	62	4429
2026-01-28 22:34:45.56	80.14	24.12	-46.0	-47.6	19.2	0.00e+00	0	42	0	636485632	62	4600
2026-01-28 22:34:46.56	80.42	24.13	-46.0	-47.5	19.1	0.00e+00	0	42	0	638582784	62	4571
2026-01-28 22:34:47.57	80.71	24.14	-45.8	-47.3	19.4	0.00e+00	0	42	0	640679936	62	4482
2026-01-28 22:34:48.58	81.00	24.15	-45.5	-47.0	19.7	0.00e+00	0	42	0	642777088	62	4292
2026-01-28 22:34:49.59	81.29	24.16	-44.9	-46.2	20.4	0.00e+00	0	42	0	644874240	61	4158
2026-01-28 22:34:50.59	81.57	24.17	-44.8	-46.1	20.4	0.00e+00	0	42	0	645922816	61	4118
2026-01-28 22:34:51.60	81.86	24.18	-44.7	-46.0	20.5	0.00e+00	0	42	0	648019968	61	4064
2026-01-28 22:34:52.61	82.15	24.18	-44.8	-46.1	20.5	0.00e+00	0	42	0	650117120	61	4130
2026-01-28 22:34:53.62	82.43	24.19	-44.9	-46.2	20.3	0.00e+00	0	42	0	652214272	61	4191
2026-01-28 22:34:54.63	82.72	24.19	-45.1	-46.5	20.1	0.00e+00	0	42	0	654311424	61	4298
2026-01-28 22:34:55.64	83.01	24.20	-45.1	-46.5	20.1	0.00e+00	0	42	0	655360000	61	4304
2026-01-28 22:34:56.65	83.30	24.20	-45.1	-46.5	20.1	0.00e+00	0	42	0	657457152	61	4296
2026-01-28 22:34:57.65	83.58	24.20	-45.0	-46.3	20.3	0.00e+00	0	42	0	659554304	61	4198
2026-01-28 22:34:58.66	83.87	24.21	-44.9	-46.1	20.4	0.00e+00	0	42	0	661651456	61	4129
2026-01-28 22:34:59.67	84.16	24.21	-44.8	-46.0	20.5	0.00e+00	0	42	0	663748608	61	4083
2026-01-28 22:35:00.68	84.45	24.21	-44.7	-45.9	20.6	0.00e+00	0	42	0	664797184	61	4046
2026-01-28 22:35:01.69	84.74	24.21	-44.6	-45.9	20.7	0.00e+00	0	42	0	666894336	61	4015
2026-01-28 22:35:02.70	85.03	24.21	-44.7	-45.9	20.7	0.00e+00	0	42	0	668991488	60	4255
2026-01-28 22:35:03.71	85.31	24.20	-44.7	-45.9	20.6	0.00e+00	0	42	0	671088640	60	4262
2026-01-28 22:35:04.72	85.60	24.20	-44.8	-46.0	20.5	0.00e+00	0	42	0	673185792	60	4337
2026-01-28 22:35:05.73	85.89	24.20	-44.9	-46.2	20.4	0.00e+00	0	42	0	675282944	60	4393
2026-01-28 22:35:06.73	86.18	24.19	-45.0	-46.3	20.2	0.00e+00	0	42	0	676331520	60	4462
2026-01-28 22:35:07.74	86.46	24.19	-45.1	-46.5	20.1	0.00e+00	0	42	0	678428672	60	4555
2026-01-28 22:35:08.75	86.75	24.18	-45.1	-46.5	20.0	0.00e+00	0	42	0	680525824	61	4306
2026-01-28 22:35:09.76	87.04	24.18	-45.0	-46.3	20.2	0.00e+00	0	42	0	682622976	61	4236
2026-01-28 22:35:10.77	87.33	24.17	-44.6	-45.9	20.7	0.00e+00	0	42	0	683671552	61	4006
2026-01-28 22:35:11.77	87.61	24.16	-44.4	-45.6	20.8	0.00e+00	0	42	0	685768704	60	4137
2026-01-28 22:35:12.78	87.90	24.15	-44.4	-45.6	20.9	0.00e+00	0	42	0	687865856	60	4140
2026-01-28 22:35:13.79	88.19	24.14	-44.4	-45.6	20.8	0.00e+00	0	42	0	689963008	60	4128
2026-01-28 22:35:14.80	88.48	24.13	-44.6	-45.8	20.7	0.00e+00	0	42	0	692060160	60	4226
2026-01-28 22:35:15.80	88.76	24.12	-44.6	-45.9	20.6	0.00e+00	0	42	0	693108736	60	4259
2026-01-28 22:35:16.81	89.05	24.11	-44.9	-46.2	20.4	0.00e+00	0	42	0	695205888	60	4400
2026-01-28 22:35:17.82	89.33	24.10	-45.0	-46.3	20.3	0.00e+00	0	42	0	697303040	60	4470
2026-01-28 22:35:18.82	89.62	24.09	-44.9	-46.2	20.3	0.00e+00	0	42	0	699400192	60	4425
2026-01-28 22:35:19.83	89.90	24.07	-45.1	-46.4	20.1	0.00e+00	0	42	0	701497344	60	4519
2026-01-28 22:35:20.84	90.19	24.06	-45.2	-46.6	20.0	0.00e+00	0	42	0	703594496	61	4352
2026-01-28 22:35:21.85	90.47	24.04	-45.1	-46.4	20.2	0.00e+00	0	42	0	704643072	61	4278
2026-01-28 22:35:22.85	90.76	24.03	-45.1	-46.4	20.1	0.00e+00	0	42	0	706740224	61	4271
2026-01-28 22:35:23.86	91.04	24.01	-45.1	-46.5	20.1	0.00e+00	0	42	0	708837376	61	4302
2026-01-28 22:35:24.87	91.33	23.99	-45.0	-46.3	20.3	0.00e+00	0	42	0	710934528	61	4221
2026-01-28 22:35:25.87	91.61	23.98	-44.9	-46.2	20.4	0.00e+00	0	42	0	711983104	61	4183
2026-01-28 22:35:26.88	91.89	23.96	-44.5	-45.8	20.7	0.00e+00	0	42	0	714080256	61	3962
2026-01-28 22:35:27.89	92.18	23.94	-44.4	-45.6	20.9	0.00e+00	0	42	0	716177408	60	4102
2026-01-28 22:35:28.90	92.46	23.92	-44.1	-45.3	21.2	0.00e+00	0	42	0	718274560	60	3966
2026-01-28 22:35:29.90	92.74	23.90	-44.3	-45.4	21.0	0.00e+00	0	42	0	720371712	60	4047
2026-01-28 22:35:30.91	93.02	23.88	-44.5	-45.8	20.8	0.00e+00	0	42	0	721420288	60	4205
2026-01-28 22:35:31.92	93.31	23.85	-44.5	-45.8	20.7	0.00e+00	0	42	0	723517440	60	4201
2026-01-28 22:35:32.93	93.59	23.83	-44.6	-45.9	20.5	0.00e+00	0	42	0	725614592	60	4265
2026-01-28 22:35:33.94	93.87	23.81	-44.2	-45.4	21.1	0.00e+00	0	42	0	727711744	60	4010
2026-01-28 22:35:34.94	94.15	23.78	-44.3	-45.4	21.3	0.00e+00	0	42	0	729808896	59	4284
2026-01-28 22:35:35.95	94.43	23.76	-44.3	-45.5	21.3	0.00e+00	0	42	0	731906048	59	4298
2026-01-28 22:35:36.96	94.71	23.73	-44.4	-45.6	21.2	0.00e+00	0	42	0	732954624	59	4352
2026-01-28 22:35:37.97	94.99	23.71	-44.3	-45.5	21.3	0.00e+00	0	42	0	735051776	59	4318
2026-01-28 22:35:38.97	95.27	23.68	-44.6	-45.8	21.0	0.00e+00	0	42	0	737148928	59	4491
2026-01-28 22:35:39.98	95.54	23.65	-44.6	-45.9	21.0	0.00e+00	0	42	0	739246080	59	4504
2026-01-28 22:35:40.99	95.82	23.62	-44.5	-45.7	21.2	0.00e+00	0	42	0	740294656	59	4423
2026-01-28 22:35:42.00	96.10	23.60	-44.0	-45.2	21.6	0.00e+00	0	42	0	742391808	59	4153
2026-01-28 22:35:43.01	96.38	23.57	-43.9	-45.1	21.7	0.00e+00	0	42	0	744488960	59	4101
2026-01-28 22:35:44.01	96.65	23.54	-43.8	-44.9	21.9	0.00e+00	0	42	0	746586112	59	4007
2026-01-28 22:35:45.02	96.93	23.51	-43.8	-44.9	21.8	0.00e+00	0	42	0	748683264	59	4029
2026-01-28 22:35:46.03	97.20	23.47	-44.0	-45.2	21.6	0.00e+00	0	42	0	750780416	59	4147
2026-01-28 22:35:47.04	97.48	23.44	-44.2	-45.4	21.4	0.00e+00	0	42	0	751828992	59	4266
2026-01-28 22:35:48.04	97.75	23.41	-44.4	-45.7	21.2	0.00e+00	0	42	0	753926144	59	4396
2026-01-28 22:35:49.04	98.02	23.38	-44.6	-45.8	21.0	0.00e+00	0	42	0	756023296	59	4463
2026-01-28 22:35:50.05	98.30	23.34	-44.4	-45.7	20.9	0.00e+00	0	42	0	758120448	60	4156
2026-01-28 22:35:51.06	98.57	23.31	-44.3	-45.5	21.0	0.00e+00	0	42	0	760217600	60	4076
2026-01-28 22:35:52.07	98.84	23.27	-44.2	-45.4	21.1	0.00e+00	0	42	0	761266176	60	4040
2026-01-28 22:35:53.08	99.12	23.24	-44.3	-45.5	21.3	0.00e+00	0	42	0	763363328	59	4297
2026-01-28 22:35:54.08	99.38	23.20	-44.2	-45.4	21.4	0.00e+00	0	42	0	765460480	59	4258
2026-01-28 22:35:55.09	99.65	23.16	-44.1	-45.3	21.5	0.00e+00	0	42	0	767557632	59	4213
2026-01-28 22:35:56.10	99.92	23.13	-44.0	-45.2	21.6	0.00e+00	0	42	0	768606208	59	4146
2026-01-28 22:35:57.11	100.19	23.09	-43.8	-45.0	21.8	0.00e+00	0	42	0	770703360	59	4053
2026-01-28 22:35:58.11	100.46	23.05	-43.7	-44.8	21.9	0.00e+00	0	42	0	772800512	59	3990
2026-01-28 22:35:59.13	100.73	23.01	-43.8	-44.9	21.9	0.00e+00	0	42	0	774897664	59	4021
2026-01-28 22:36:00.13	101.00	22.97	-43.5	-44.6	22.1	0.00e+00	0	42	0	776994816	59	3877
2026-01-28 22:36:01.14	101.26	22.93	-43.2	-44.2	22.4	0.00e+00	0	42	0	779091968	58	3946
2026-01-28 22:36:02.14	101.53	22.89	-42.9	-43.9	22.7	0.00e+00	0	42	0	780140544	57	4025
2026-01-28 22:36:03.15	101.79	22.85	-42.7	-43.7	22.8	0.00e+00	0	42	0	782237696	57	3914
2026-01-28 22:36:04.16	102.06	22.80	-42.7	-43.7	22.8	0.00e+00	0	42	0	784334848	57	3946
2026-01-28 22:36:05.17	102.32	22.76	-43.0	-44.1	22.6	0.00e+00	0	42	0	786432000	57	4105
2026-01-28 22:36:06.17	102.58	22.72	-43.4	-44.4	22.2	0.00e+00	0	42	0	788529152	57	4273
2026-01-28 22:36:07.18	102.84	22.67	-43.6	-44.7	22.0	0.00e+00	0	42	0	789577728	57	4404
2026-01-28 22:36:08.19	103.11	22.63	-43.9	-45.1	21.8	0.00e+00	0	42	0	791674880	58	4351
2026-01-28 22:36:09.19	103.36	22.59	-43.8	-44.9	21.8	0.00e+00	0	42	0	793772032	58	4246
2026-01-28 22:36:10.20	103.62	22.54	-43.5	-44.6	22.1	0.00e+00	0	42	0	795869184	58	4124
2026-01-28 22:36:11.21	103.88	22.49	-43.0	-44.0	22.6	0.00e+00	0	42	0	796917760	58	3861
2026-01-28 22:36:12.21	104.14	22.45	-43.1	-44.1	22.5	0.00e+00	0	42	0	799014912	57	4114
2026-01-28 22:36:13.22	104.40	22.40	-43.0	-44.0	22.5	0.00e+00	0	42	0	801112064	57	4087
2026-01-28 22:36:14.23	104.66	22.35	-43.2	-44.3	22.3	0.00e+00	0	42	0	803209216	57	4206
2026-01-28 22:36:15.23	104.91	22.31	-43.7	-44.8	21.9	0.00e+00	0	42	0	805306368	57	4443
2026-01-28 22:36:16.24	105.17	22.26	-43.8	-44.9	21.8	0.00e+00	0	42	0	807403520	58	4245
2026-01-28 22:36:17.25	105.42	22.21	-44.0	-45.1	21.6	0.00e+00	0	42	0	808452096	58	4367
2026-01-28 22:36:18.26	105.68	22.16	-43.9	-45.0	21.7	0.00e+00	0	42	0	810549248	58	4328
2026-01-28 22:36:19.27	105.93	22.11	-43.8	-44.8	21.8	0.00e+00	0	42	0	812646400	58	4242
2026-01-28 22:36:20.27	106.18	22.06	-43.8	-44.9	21.9	0.00e+00	0	42	0	814743552	58	4249
2026-01-28 22:36:21.28	106.43	22.01	-43.4	-44.5	22.1	0.00e+00	0	42	0	816840704	58	4074
2026-01-28 22:36:22.29	106.68	21.96	-43.5	-44.6	22.0	0.00e+00	0	42	0	817889280	58	4130
2026-01-28 22:36:23.29	106.93	21.91	-43.6	-44.7	22.0	0.00e+00	0	42	0	819986432	58	4187
2026-01-28 22:36:24.30	107.18	21.86	-44.1	-45.2	21.6	0.00e+00	0	42	0	822083584	58	4431
2026-01-28 22:36:25.31	107.43	21.80	-44.2	-45.4	21.4	0.00e+00	0	42	0	824180736	58	4502
2026-01-28 22:36:26.32	107.68	21.75	-44.1	-45.3	21.5	0.00e+00	0	42	0	825229312	59	4210
2026-01-28 22:36:27.33	107.92	21.70	-44.0	-45.2	21.6	0.00e+00	0	42	0	827326464	59	4161
2026-01-28 22:36:28.33	108.17	21.64	-43.8	-44.9	21.8	0.00e+00	0	42	0	829423616	59	4044
2026-01-28 22:36:29.34	108.41	21.59	-43.8	-44.9	21.8	0.00e+00	0	42	0	831520768	59	4035
2026-01-28 22:36:30.34	108.66	21.53	-43.9	-45.0	21.7	0.00e+00	0	42	0	833617920	59	4092
2026-01-28 22:36:31.35	108.90	21.48	-44.1	-45.2	21.5	0.00e+00	0	42	0	835715072	59	4186
2026-01-28 22:36:32.36	109.14	21.42	-44.1	-45.2	21.5	0.00e+00	0	42	0	836763648	59	4189
2026-01-28 22:36:33.37	109.38	21.37	-44.1	-45.2	21.5	0.00e+00	0	42	0	838860800	59	4189
2026-01-28 22:36:34.37	109.62	21.31	-44.4	-45.6	21.2	0.00e+00	0	42	0	840957952	59	4366
2026-01-28 22:36:35.38	109.86	21.26	-44.6	-45.8	21.0	0.00e+00	0	42	0	843055104	59	4481
2026-01-28 22:36:36.39	110.10	21.20	-44.6	-45.8	20.7	0.00e+00	0	42	0	845152256	60	4235
2026-01-28 22:36:37.40	110.34	21.14	-44.9	-46.2	20.4	0.00e+00	0	43	0	846200832	60	4394
2026-01-28 22:36:38.40	110.58	21.09	-44.9	-46.3	20.3	0.00e+00	0	42	0	848297984	60	4444
2026-01-28 22:36:39.40	110.81	21.03	-44.9	-46.2	20.4	0.00e+00	0	42	0	850395136	60	4404
2026-01-28 22:36:40.41	111.05	20.97	-44.7	-45.9	20.6	0.00e+00	0	42	0	852492288	60	4283
2026-01-28 22:36:41.42	111.28	20.91	-44.4	-45.6	20.9	0.00e+00	0	42	0	853540864	60	4141
2026-01-28 22:36:42.43	111.52	20.85	-44.1	-45.2	21.1	0.00e+00	0	42	0	855638016	60	3948
2026-01-28 22:36:43.43	111.75	20.79	-44.2	-45.4	21.4	0.00e+00	0	42	0	857735168	59	4266
2026-01-28 22:36:44.44	111.98	20.73	-44.1	-45.3	21.4	0.00e+00	0	42	0	859832320	59	4209
2026-01-28 22:36:45.45	112.21	20.67	-44.4	-45.5	21.2	0.00e+00	0	42	0	861929472	59	4334
2026-01-28 22:36:46.45	112.44	20.61	-44.6	-45.8	21.0	0.00e+00	0	42	0	864026624	59	4451
2026-01-28 22:36:47.46	112.67	20.55	-44.7	-45.9	20.9	0.00e+00	0	42	0	865075200	59	4526
2026-01-28 22:36:48.47	112.90	20.49	-44.7	-45.9	20.6	0.00e+00	0	42	0	867172352	60	4284
2026-01-28 22:36:49.48	113.13	20.43	-44.8	-46.1	20.4	0.00e+00	0	42	0	869269504	60	4368
2026-01-28 22:36:50.48	113.35	20.37	-45.1	-46.5	20.0	0.00e+00	0	42	0	871366656	60	4566
2026-01-28 22:36:51.49	113.58	20.31	-45.1	-46.5	20.1	0.00e+00	0	42	0	873463808	61	4303
2026-01-28 22:36:52.49	113.80	20.25	-45.3	-46.6	19.9	0.00e+00	0	42	0	874512384	61	4383
2026-01-28 22:36:53.50	114.03	20.18	-45.0	-46.3	20.2	0.00e+00	0	42	0	876609536	61	4211
2026-01-28 22:36:54.51	114.25	20.12	-44.9	-46.2	20.3	0.00e+00	0	42	0	878706688	61	4147
2026-01-28 22:36:55.52	114.48	20.06	-44.6	-45.8	20.7	0.00e+00	0	42	0	880803840	61	3980
2026-01-28 22:36:56.52	114.70	20.00	-44.4	-45.6	20.9	0.00e+00	0	42	0	882900992	60	4101
2026-01-28 22:36:57.53	114.92	19.93	-44.2	-45.4	21.1	0.00e+00	0	42	0	883949568	60	4023
2026-01-28 22:36:58.54	115.14	19.87	-44.1	-45.3	21.2	0.00e+00	0	42	0	886046720	60	3979
2026-01-28 22:36:59.55	115.36	19.80	-44.4	-45.6	20.9	0.00e+00	0	42	0	888143872	60	4113
2026-01-28 22:37:00.55	115.57	19.74	-44.7	-46.0	20.5	0.00e+00	0	42	0	890241024	60	4315
2026-01-28 22:37:01.56	115.79	19.68	-44.8	-46.1	20.4	0.00e+00	0	42	0	892338176	60	4350
2026-01-28 22:37:02.57	116.01	19.61	-45.1	-46.5	20.1	0.00e+00	0	42	0	893386752	60	4555
2026-01-28 22:37:03.57	116.22	19.55	-45.3	-46.7	19.9	0.00e+00	0	42	0	895483904	61	4415
2026-01-28 22:37:04.58	116.44	19.48	-45.3	-46.7	20.0	0.00e+00	0	42	0	897581056	61	4402
2026-01-28 22:37:05.59	116.65	19.42	-45.2	-46.6	20.0	0.00e+00	0	42	0	899678208	61	4366
2026-01-28 22:37:06.60	116.86	19.35	-45.3	-46.7	19.9	0.00e+00	0	42	0	901775360	61	4413
2026-01-28 22:37:07.61	117.08	19.28	-45.1	-46.5	20.1	0.00e+00	0	42	0	902823936	61	4295
2026-01-28 22:37:08.62	117.29	19.22	-45.2	-46.6	20.0	0.00e+00	0	42	0	904921088	61	4358
2026-01-28 22:37:09.62	117.50	19.15	-45.3	-46.6	19.9	0.00e+00	0	42	0	907018240	61	4365
2026-01-28 22:37:10.63	117.70	19.09	-45.3	-46.7	19.9	0.00e+00	0	42	0	909115392	61	4393
2026-01-28 22:37:11.64	117.91	19.02	-45.5	-46.9	19.6	0.00e+00	0	42	0	911212544	61	4540
2026-01-28 22:37:12.65	118.12	18.95	-45.4	-46.8	19.7	0.00e+00	0	42	0	912261120	61	4467
2026-01-28 22:37:13.65	118.33	18.89	-45.5	-46.9	19.7	0.00e+00	0	42	0	914358272	61	4522
2026-01-28 22:37:14.66	118.53	18.82	-45.5	-47.0	19.6	0.00e+00	0	42	0	916455424	61	4559
2026-01-28 22:37:15.67	118.74	18.75	-45.2	-46.6	19.9	0.00e+00	0	42	0	918552576	61	4355
2026-01-28 22:37:16.68	118.94	18.68	-45.4	-46.8	19.7	0.00e+00	0	42	0	920649728	61	4463
2026-01-28 22:37:17.69	119.15	18.62	-45.6	-47.1	19.4	0.00e+00	0	42	0	921698304	61	4610
2026-01-28 22:37:18.69	119.35	18.55	-45.6	-47.0	19.5	0.00e+00	0	42	0	923795456	61	4591
2026-01-28 22:37:19.70	119.55	18.48	-45.4	-46.9	19.6	0.00e+00	0	42	0	925892608	61	4508
2026-01-28 22:37:20.71	119.75	18.41	-45.3	-46.7	19.7	0.00e+00	0	42	0	927989760	61	4438
2026-01-28 22:37:21.72	119.95	18.35	-45.1	-46.5	19.9	0.00e+00	0	42	0	930086912	61	4310
2026-01-28 22:37:22.72	120.15	18.28	-44.7	-46.0	20.5	0.00e+00	0	42	0	932184064	61	4061
2026-01-28 22:37:23.73	120.34	18.21	-44.7	-46.0	20.4	0.00e+00	0	42	0	933232640	61	4073
2026-01-28 22:37:24.74	120.54	18.14	-44.3	-45.5	20.9	0.00e+00	0	42	0	935329792	60	4078
2026-01-28 22:37:25.75	120.74	18.07	-44.5	-45.8	20.7	0.00e+00	0	42	0	937426944	60	4208
2026-01-28 22:37:26.75	120.93	18.00	-45.0	-46.3	20.2	0.00e+00	0	42	0	939524096	60	4449
2026-01-28 22:37:27.76	121.13	17.93	-45.1	-46.4	20.1	0.00e+00	0	42	0	940572672	60	4523
2026-01-28 22:37:28.77	121.32	17.86	-45.4	-46.9	19.7	0.00e+00	0	42	0	942669824	61	4502
2026-01-28 22:37:29.78	121.51	17.80	-45.4	-46.9	19.7	0.00e+00	0	42	0	944766976	61	4503
2026-01-28 22:37:30.79	121.70	17.73	-45.3	-46.7	19.8	0.00e+00	0	42	0	946864128	61	4422
2026-01-28 22:37:31.79	121.89	17.66	-45.2	-46.5	19.9	0.00e+00	0	42	0	948961280	61	4338
2026-01-28 22:37:32.80	122.08	17.59	-45.1	-46.4	20.1	0.00e+00	0	42	0	950009856	61	4267
2026-01-28 22:37:33.81	122.27	17.52	-45.1	-46.4	20.0	0.00e+00	0	42	0	952107008	61	4290
2026-01-28 22:37:34.82	122.46	17.45	-45.3	-46.7	19.8	0.00e+00	0	42	0	954204160	61	4402
2026-01-28 22:37:35.83	122.65	17.38	-45.6	-47.1	19.5	0.00e+00	0	42	0	956301312	61	4625
2026-01-28 22:37:36.83	122.84	17.31	-45.9	-47.4	19.1	0.00e+00	0	42	0	958398464	62	4520
2026-01-28 22:37:37.84	123.02	17.24	-46.2	-47.9	18.7	0.00e+00	0	42	0	960495616	63	4505
2026-01-28 22:37:38.85	123.21	17.17	-46.4	-48.1	18.4	0.00e+00	0	42	0	961544192	63	4612
2026-01-28 22:37:39.86	123.39	17.10	-46.2	-47.8	18.6	0.00e+00	0	42	0	963641344	63	4479
2026-01-28 22:37:40.87	123.58	17.03	-45.7	-47.2	19.2	0.00e+00	0	42	0	965738496	63	4178
2026-01-28 22:37:41.87	123.76	16.96	-45.3	-46.7	19.6	0.00e+00	0	42	0	967835648	62	4192
2026-01-28 22:37:42.88	123.94	16.89	-45.0	-46.3	20.0	0.00e+00	0	42	0	968884224	62	3985
2026-01-28 22:37:43.89	124.12	16.82	-44.8	-46.1	20.3	0.00e+00	0	42	0	970981376	61	4100
2026-01-28 22:37:44.89	124.30	16.75	-44.4	-45.7	20.6	0.00e+00	0	42	0	973078528	60	4149
2026-01-28 22:37:45.90	124.48	16.68	-44.6	-45.9	20.4	0.00e+00	0	42	0	975175680	60	4265
2026-01-28 22:37:46.91	124.66	16.60	-45.0	-46.4	20.0	0.00e+00	0	42	0	977272832	60	4510
2026-01-28 22:37:47.92	124.84	16.53	-44.9	-46.3	20.0	0.00e+00	0	42	0	978321408	60	4469
2026-01-28 22:37:48.92	125.01	16.46	-45.3	-46.7	19.7	0.00e+00	0	42	0	980418560	61	4405
2026-01-28 22:37:49.93	125.19	16.39	-45.2	-46.6	19.7	0.00e+00	0	42	0	982515712	61	4351
2026-01-28 22:37:50.94	125.36	16.32	-44.9	-46.3	20.0	0.00e+00	0	42	0	984612864	61	4195
2026-01-28 22:37:51.95	125.54	16.25	-44.9	-46.2	20.0	0.00e+00	0	42	0	986710016	61	4187
2026-01-28 22:37:52.95	125.71	16.18	-44.6	-45.9	20.3	0.00e+00	0	42	0	988807168	61	4019
2026-01-28 22:37:53.96	125.88	16.11	-44.4	-45.7	20.5	0.00e+00	0	42	0	989855744	60	4151
2026-01-28 22:37:54.97	126.06	16.04	-44.6	-45.8	20.4	0.00e+00	0	42	0	991952896	60	4236
2026-01-28 22:37:55.98	126.23	15.97	-44.7	-46.1	20.2	0.00e+00	0	42	0	994050048	60	4345
2026-01-28 22:37:56.99	126.40	15.90	-45.0	-46.3	19.9	0.00e+00	0	42	0	996147200	60	4492
2026-01-28 22:37:57.99	126.57	15.83	-45.2	-46.7	19.6	0.00e+00	0	42	0	997195776	61	4392
2026-01-28 22:37:59.00	126.74	15.75	-45.3	-46.7	19.5	0.00e+00	0	42	0	999292928	61	4435
2026-01-28 22:38:00.01	126.90	15.68	-45.4	-46.8	19.4	0.00e+00	0	42	0	1001390080	61	4485
2026-01-28 22:38:01.01	127.07	15.61	-45.3	-46.8	19.4	0.00e+00	0	42	0	1003487232	61	4473
2026-01-28 22:38:02.01	127.24	15.54	-45.1	-46.5	19.7	0.00e+00	0	42	0	1005584384	61	4304
2026-01-28 22:38:03.02	127.40	15.47	-45.1	-46.5	19.8	0.00e+00	0	42	0	1006632960	61	4294
2026-01-28 22:38:04.03	127.57	15.40	-44.7	-46.0	20.1	0.00e+00	0	42	0	1008730112	61	4092
2026-01-28 22:38:05.04	127.73	15.33	-44.7	-46.0	20.1	0.00e+00	0	42	0	1010827264	61	4094
2026-01-28 22:38:06.05	127.90	15.26	-44.9	-46.2	20.0	0.00e+00	0	42	0	1012924416	61	4188
2026-01-28 22:38:07.05	128.06	15.18	-45.0	-46.4	19.9	0.00e+00	0	42	0	1015021568	61	4255
2026-01-28 22:38:08.06	128.22	15.11	-45.1	-46.6	19.7	0.00e+00	0	42	0	1017118720	61	4345
2026-01-28 22:38:09.07	128.38	15.04	-45.2	-46.6	19.6	0.00e+00	0	42	0	1018167296	61	4364
2026-01-28 22:38:10.07	128.54	14.97	-45.1	-46.5	19.7	0.00e+00	0	42	0	1020264448	61	4298
2026-01-28 22:38:11.08	128.70	14.90	-45.0	-46.3	19.8	0.00e+00	0	42	0	1022361600	61	4237
2026-01-28 22:38:12.09	128.86	14.83	-44.9	-46.2	19.9	0.00e+00	0	42	0	1024458752	61	4190
2026-01-28 22:38:13.10	129.02	14.76	-44.7	-46.0	20.2	0.00e+00	0	42	0	1025507328	61	4057
2026-01-28 22:38:14.11	129.18	14.69	-44.6	-45.9	20.2	0.00e+00	0	42	0	1027604480	61	4038
2026-01-28 22:38:15.11	129.33	14.62	-44.7	-46.0	20.1	0.00e+00	0	42	0	1029701632	60	4321
2026-01-28 22:38:16.12	129.49	14.54	-44.7	-46.1	20.0	0.00e+00	0	42	0	1031798784	60	4351
2026-01-28 22:38:17.13	129.65	14.47	-45.2	-46.6	19.5	0.00e+00	0	42	0	1033895936	61	4361
2026-01-28 22:38:18.14	129.80	14.40	-45.5	-47.0	19.2	0.00e+00	0	42	0	1035993088	61	4594
2026-01-28 22:38:19.15	129.95	14.33	-46.0	-47.6	18.6	0.00e+00	0	42	0	1037041664	62	4624
2026-01-28 22:38:20.15	130.11	14.26	-46.3	-48.0	18.3	0.00e+00	0	42	0	1039138816	63	4570
2026-01-28 22:38:21.16	130.26	14.19	-46.3	-48.1	18.2	0.00e+00	0	42	0	1041235968	63	4614
2026-01-28 22:38:22.17	130.41	14.12	-46.4	-48.2	18.1	0.00e+00	0	42	0	1043333120	63	4660
2026-01-28 22:38:23.18	130.56	14.05	-46.4	-48.2	18.0	0.00e+00	0	42	0	1045430272	63	4679
2026-01-28 22:38:24.18	130.71	13.97	-46.1	-47.8	18.5	0.00e+00	0	42	0	1046478848	63	4458
2026-01-28 22:38:25.19	130.86	13.90	-46.0	-47.6	18.6	0.00e+00	0	42	0	1048576000	63	4368
2026-01-28 22:38:26.20	131.01	13.83	-45.9	-47.5	18.7	0.00e+00	0	42	0	1050673152	63	4306
2026-01-28 22:38:27.21	131.16	13.76	-45.7	-47.3	18.8	0.00e+00	0	42	0	1052770304	63	4234
2026-01-28 22:38:28.22	131.31	13.69	-45.4	-46.9	19.2	0.00e+00	0	42	0	1053818880	62	4291
2026-01-28 22:38:29.23	131.46	13.62	-45.3	-46.8	19.2	0.00e+00	0	42	0	1055916032	62	4230
2026-01-28 22:38:30.23	131.60	13.55	-45.1	-46.6	19.6	0.00e+00	0	42	0	1058013184	62	4105
2026-01-28 22:38:31.24	131.75	13.48	-45.0	-46.4	19.7	0.00e+00	0	42	0	1060110336	61	4249
2026-01-28 22:38:32.25	131.89	13.41	-44.7	-46.1	20.0	0.00e+00	0	42	0	1062207488	61	4104
2026-01-28 22:38:33.25	132.04	13.34	-44.7	-46.1	20.0	0.00e+00	0	42	0	1064304640	61	4109
2026-01-28 22:38:34.26	132.18	13.27	-44.6	-45.9	20.1	0.00e+00	0	42	0	1065353216	61	4034
2026-01-28 22:38:35.27	132.32	13.20	-44.4	-45.7	20.3	0.00e+00	0	42	0	1067450368	60	4166
2026-01-28 22:38:36.27	132.46	13.13	-44.3	-45.6	20.4	0.00e+00	0	42	0	1069547520	60	4121
2026-01-28 22:38:37.28	132.61	13.05	-44.4	-45.6	20.3	0.00e+00	0	42	0	1071644672	60	4143
2026-01-28 22:38:38.29	132.75	12.98	-44.4	-45.6	20.3	0.00e+00	0	42	0	1073741824	60	4142
2026-01-28 22:38:39.30	132.89	12.91	-44.3	-45.6	20.3	0.00e+00	0	42	0	1074790400	60	4129
2026-01-28 22:38:40.31	133.03	12.84	-44.4	-45.7	20.2	0.00e+00	0	42	0	1076887552	60	4189
2026-01-28 22:38:41.31	133.17	12.77	-44.7	-46.1	19.9	0.00e+00	0	42	0	1078984704	60	4367
2026-01-28 22:38:42.32	133.31	12.70	-44.8	-46.2	19.8	0.00e+00	0	42	0	1081081856	60	4419
2026-01-28 22:38:43.33	133.44	12.63	-45.2	-46.6	19.4	0.00e+00	0	42	0	1083179008	60	4632
2026-01-28 22:38:44.33	133.58	12.56	-45.3	-46.8	19.3	0.00e+00	0	42	0	1084227584	61	4454
2026-01-28 22:38:45.34	133.72	12.49	-45.4	-46.9	19.1	0.00e+00	0	42	0	1086324736	61	4540
2026-01-28 22:38:46.34	133.85	12.42	-45.6	-47.1	18.9	0.00e+00	0	42	0	1088421888	61	4638
2026-01-28 22:38:47.34	133.99	12.35	-45.5	-47.1	18.9	0.00e+00	0	42	0	1090519040	61	4601
2026-01-28 22:38:48.35	134.12	12.28	-45.6	-47.2	18.9	0.00e+00	0	42	0	1092616192	61	4669
2026-01-28 22:38:49.36	134.26	12.21	-45.4	-46.9	19.1	0.00e+00	0	42	0	1093664768	61	4519
2026-01-28 22:38:50.36	134.39	12.14	-45.3	-46.8	19.2	0.00e+00	0	42	0	1095761920	61	4456
2026-01-28 22:38:51.36	134.52	12.07	-45.2	-46.7	19.3	0.00e+00	0	42	0	1097859072	61	4412
2026-01-28 22:38:52.37	134.65	12.00	-45.1	-46.5	19.5	0.00e+00	0	42	0	1099956224	61	4321
2026-01-28 22:38:53.38	134.79	11.93	-45.0	-46.5	19.5	0.00e+00	0	42	0	1102053376	61	4296
2026-01-28 22:38:54.39	134.92	11.86	-45.0	-46.4	19.5	0.00e+00	0	42	0	1103101952	61	4261
2026-01-28 22:38:55.39	135.05	11.80	-45.0	-46.4	19.5	0.00e+00	0	42	0	1105199104	61	4273
2026-01-28 22:38:56.40	135.18	11.73	-45.1	-46.6	19.4	0.00e+00	0	42	0	1107296256	61	4382
2026-01-28 22:38:57.41	135.31	11.66	-45.1	-46.5	19.4	0.00e+00	0	42	0	1109393408	61	4337
2026-01-28 22:38:58.41	135.43	11.59	-45.2	-46.8	19.2	0.00e+00	0	42	0	1110441984	61	4447
2026-01-28 22:38:59.42	135.56	11.52	-45.3	-46.8	19.1	0.00e+00	0	42	0	1112539136	61	4481
2026-01-28 22:39:00.43	135.69	11.45	-45.2	-46.7	19.3	0.00e+00	0	42	0	1114636288	61	4411
2026-01-28 22:39:01.44	135.82	11.38	-45.4	-46.9	19.0	0.00e+00	0	42	0	1116733440	61	4539
2026-01-28 22:39:02.44	135.94	11.31	-45.2	-46.8	19.2	0.00e+00	0	42	0	1118830592	61	4442
2026-01-28 22:39:03.45	136.07	11.24	-45.2	-46.7	19.3	0.00e+00	0	42	0	1120927744	61	4409
2026-01-28 22:39:04.46	136.19	11.17	-45.2	-46.7	19.3	0.00e+00	0	42	0	1121976320	61	4399
2026-01-28 22:39:05.47	136.32	11.10	-45.2	-46.7	19.2	0.00e+00	0	42	0	1124073472	61	4413
2026-01-28 22:39:06.47	136.44	11.04	-45.3	-46.8	19.1	0.00e+00	0	42	0	1126170624	61	4465
2026-01-28 22:39:07.47	136.57	10.97	-45.0	-46.5	19.4	0.00e+00	0	42	0	1128267776	61	4314
2026-01-28 22:39:08.48	136.69	10.90	-45.1	-46.5	19.4	0.00e+00	0	42	0	1130364928	61	4314
2026-01-28 22:39:09.49	136.81	10.83	-45.3	-46.7	19.2	0.00e+00	0	42	0	1131413504	61	4441
2026-01-28 22:39:10.50	136.93	10.76	-45.3	-46.8	19.1	0.00e+00	0	42	0	1133510656	61	4453
2026-01-28 22:39:11.51	137.06	10.69	-45.5	-47.1	18.9	0.00e+00	0	42	0	1135607808	61	4602
2026-01-28 22:39:12.51	137.18	10.63	-45.7	-47.3	18.6	0.00e+00	0	42	0	1137704960	61	4716
2026-01-28 22:39:13.52	137.30	10.56	-45.7	-47.3	18.7	0.00e+00	0	42	0	1138753536	62	4450
2026-01-28 22:39:14.53	137.42	10.49	-45.9	-47.6	18.3	0.00e+00	0	42	0	1140850688	62	4644
2026-01-28 22:39:15.54	137.54	10.42	-46.1	-47.8	18.1	0.00e+00	0	42	0	1142947840	62	4721
2026-01-28 22:39:16.55	137.65	10.35	-46.2	-48.0	18.0	0.00e+00	0	42	0	1145044992	63	4557
2026-01-28 22:39:17.55	137.77	10.29	-46.3	-48.1	17.8	0.00e+00	0	42	0	1147142144	63	4651
2026-01-28 22:39:18.55	137.89	10.22	-46.4	-48.2	17.8	0.00e+00	0	42	0	1149239296	63	4689
2026-01-28 22:39:19.56	138.01	10.15	-46.6	-48.5	17.3	0.00e+00	0	42	0	1150287872	64	4578
2026-01-28 22:39:20.57	138.12	10.08	-46.7	-48.7	17.2	0.00e+00	0	42	0	1152385024	64	4666
2026-01-28 22:39:21.58	138.24	10.01	-46.7	-48.7	17.2	0.00e+00	0	42	0	1154482176	64	4689
2026-01-28 22:39:22.58	138.35	9.95	-46.9	-48.9	16.9	0.00e+00	0	42	0	1156579328	64	4811
2026-01-28 22:39:23.59	138.47	9.88	-46.6	-48.6	17.3	0.00e+00	0	42	0	1158676480	64	4602
2026-01-28 22:39:24.60	138.58	9.81	-46.5	-48.4	17.5	0.00e+00	0	42	0	1159725056	64	4521
2026-01-28 22:39:25.61	138.70	9.75	-46.3	-48.2	17.7	0.00e+00	0	42	0	1161822208	64	4401
2026-01-28 22:39:26.61	138.81	9.68	-46.1	-47.8	18.0	0.00e+00	0	42	0	1163919360	64	4235
2026-01-28 22:39:27.62	138.92	9.61	-46.1	-47.8	17.9	0.00e+00	0	42	0	1166016512	64	4240
2026-01-28 22:39:28.63	139.04	9.54	-46.1	-47.8	18.0	0.00e+00	0	43	0	1168113664	63	4490
2026-01-28 22:39:29.63	139.15	9.48	-46.0	-47.8	18.1	0.00e+00	0	42	0	1169162240	63	4459
2026-01-28 22:39:30.64	139.26	9.41	-45.8	-47.5	18.3	0.00e+00	0	42	0	1171259392	63	4319
2026-01-28 22:39:31.65	139.37	9.34	-45.6	-47.3	18.6	0.00e+00	0	42	0	1173356544	63	4208
2026-01-28 22:39:32.66	139.48	9.28	-45.7	-47.4	18.5	0.00e+00	0	42	0	1175453696	63	4252
2026-01-28 22:39:33.67	139.59	9.21	-45.6	-47.2	18.5	0.00e+00	0	42	0	1177550848	63	4188
2026-01-28 22:39:34.67	139.70	9.14	-45.6	-47.3	18.5	0.00e+00	0	42	0	1178599424	63	4215
2026-01-28 22:39:35.68	139.81	9.08	-45.6	-47.3	18.5	0.00e+00	0	42	0	1180696576	63	4215
2026-01-28 22:39:36.69	139.92	9.01	-45.5	-47.1	18.7	0.00e+00	0	42	0	1182793728	62	4387
2026-01-28 22:39:37.70	140.03	8.95	-45.4	-47.0	18.8	0.00e+00	0	42	0	1184890880	62	4340
2026-01-28 22:39:38.70	140.14	8.88	-45.3	-46.9	18.9	0.00e+00	0	42	0	1186988032	62	4279
2026-01-28 22:39:39.71	140.24	8.81	-45.3	-46.9	18.9	0.00e+00	0	42	0	1188036608	62	4245
2026-01-28 22:39:40.72	140.35	8.75	-45.4	-47.0	18.8	0.00e+00	0	42	0	1190133760	62	4315
2026-01-28 22:39:41.72	140.46	8.68	-45.4	-46.9	18.8	0.00e+00	0	42	0	1192230912	62	4291
2026-01-28 22:39:42.73	140.56	8.62	-45.4	-46.9	18.9	0.00e+00	0	42	0	1194328064	62	4283
2026-01-28 22:39:43.74	140.67	8.55	-45.5	-47.1	18.7	0.00e+00	0	42	0	1196425216	62	4347
2026-01-28 22:39:44.75	140.77	8.48	-45.6	-47.2	18.6	0.00e+00	0	42	0	1197473792	62	4416
2026-01-28 22:39:45.75	140.88	8.42	-45.7	-47.4	18.4	0.00e+00	0	42	0	1199570944	62	4533
2026-01-28 22:39:46.75	140.98	8.36	-46.0	-47.7	18.1	0.00e+00	0	42	0	1201668096	62	4683
2026-01-28 22:39:47.76	141.08	8.29	-46.0	-47.7	18.1	0.00e+00	0	42	0	1203765248	62	4693
2026-01-28 22:39:48.77	141.19	8.22	-46.4	-48.3	17.5	0.00e+00	0	42	0	1205862400	63	4738
2026-01-28 22:39:49.78	141.29	8.16	-46.4	-48.3	17.5	0.00e+00	0	42	0	1206910976	63	4752
2026-01-28 22:39:50.79	141.39	8.09	-46.5	-48.4	17.4	0.00e+00	0	42	0	1209008128	63	4774
2026-01-28 22:39:51.79	141.49	8.03	-46.7	-48.8	16.9	0.00e+00	0	42	0	1211105280	63	4999
2026-01-28 22:39:52.80	141.60	7.96	-46.7	-48.8	16.9	0.00e+00	0	42	0	1213202432	64	4708
2026-01-28 22:39:53.81	141.70	7.90	-46.7	-48.8	16.9	0.00e+00	0	42	0	1215299584	64	4724
2026-01-28 22:39:54.82	141.80	7.83	-46.7	-48.7	17.0	0.00e+00	0	42	0	1216348160	64	4678
2026-01-28 22:39:55.82	141.90	7.77	-46.5	-48.5	17.2	0.00e+00	0	42	0	1218445312	64	4566
2026-01-28 22:39:56.83	142.00	7.71	-46.6	-48.6	17.1	0.00e+00	0	42	0	1220542464	64	4603
2026-01-28 22:39:57.84	142.10	7.64	-46.3	-48.3	17.4	0.00e+00	0	42	0	1222639616	64	4447
2026-01-28 22:39:58.85	142.20	7.58	-46.2	-48.1	17.6	0.00e+00	0	42	0	1224736768	64	4365
2026-01-28 22:39:59.86	142.30	7.51	-46.2	-48.1	17.5	0.00e+00	0	42	0	1225785344	64	4347
2026-01-28 22:40:00.86	142.39	7.45	-46.1	-47.9	17.7	0.00e+00	0	42	0	1227882496	64	4282
2026-01-28 22:40:01.87	142.49	7.39	-46.1	-48.0	17.7	0.00e+00	0	42	0	1229979648	63	4556
2026-01-28 22:40:02.88	142.59	7.32	-46.1	-47.9	17.8	0.00e+00	0	42	0	1232076800	63	4523
2026-01-28 22:40:03.89	142.69	7.26	-45.9	-47.6	18.0	0.00e+00	0	42	0	1234173952	63	4387
2026-01-28 22:40:04.90	142.78	7.19	-45.9	-47.6	18.0	0.00e+00	0	42	0	1235222528	63	4373
