passes_logs/2026/01/28/R3.2S_Murmansk/R3.2S_Murmansk__20260128_022716_AQUA_rec.log

#Pass ID: 20260128_022716_AQUA
#Satellite: AQUA
#Configuration: AQUA
#almurnet v.1.7.20251203
#Start time: 2026-01-28 02:27:17

#Version: 2.2.20231116
#Station: R3.2S_Murmansk
#Location: 33.079688 lon 68.888172 lat
#TLE: 1 27424U 02022A   26027.29059822  .00001896  00000+0  38917-3 0  9993
#TLE: 2 27424  98.4102 353.9260 0001849  63.9098  72.6772 14.61866390262689

#Time	Az	El	Level	Level2	SNR	BER	BlckErr	Temp	State	Recorded	gain1	gain2
2026-01-28 02:27:17.47	23.86	2.07	-55.4	-73.2	3.8	7.47e-01	0	41	0	0	81	29610
2026-01-28 02:27:18.47	23.86	2.14	-55.4	-73.3	3.8	7.43e-01	0	41	104	0	81	29688
2026-01-28 02:27:19.48	23.86	2.20	-55.4	-73.2	3.8	7.44e-01	0	41	104	0	81	29572
2026-01-28 02:27:20.49	23.86	2.27	-55.4	-73.2	3.8	7.42e-01	0	41	104	0	81	29604
2026-01-28 02:27:21.50	23.86	2.34	-55.4	-73.2	3.8	7.43e-01	0	41	104	0	81	29562
2026-01-28 02:27:22.51	23.86	2.40	-55.4	-73.2	3.8	7.43e-01	0	41	104	0	81	29570
2026-01-28 02:27:23.52	23.86	2.47	-55.4	-73.2	3.8	7.45e-01	0	41	104	0	81	29523
2026-01-28 02:27:24.53	23.86	2.54	-55.3	-73.2	3.8	7.40e-01	0	41	104	0	81	29476
2026-01-28 02:27:25.53	23.86	2.61	-55.4	-73.2	3.8	7.46e-01	0	41	104	0	81	29497
2026-01-28 02:27:26.54	23.86	2.68	-55.3	-73.2	3.8	7.44e-01	0	41	104	0	81	29482
2026-01-28 02:27:27.54	23.86	2.75	-55.4	-73.2	3.8	7.45e-01	0	41	104	0	81	29620
2026-01-28 02:27:28.55	23.86	2.81	-55.5	-73.4	3.8	7.45e-01	0	41	104	0	81	30047
2026-01-28 02:27:29.55	23.86	2.88	-55.6	-73.4	3.8	7.44e-01	0	42	104	0	81	30188
2026-01-28 02:27:30.56	23.86	2.95	-55.6	-73.4	3.8	7.46e-01	0	42	104	0	81	30209
2026-01-28 02:27:31.56	23.86	3.02	-55.6	-73.4	3.8	7.42e-01	0	42	104	0	81	30218
2026-01-28 02:27:32.57	23.86	3.09	-55.6	-73.4	3.8	7.45e-01	0	42	104	0	81	30085
2026-01-28 02:27:33.58	23.86	3.16	-55.6	-73.4	3.8	7.42e-01	0	42	104	0	81	30135
2026-01-28 02:27:34.59	23.86	3.23	-55.6	-73.4	3.8	7.46e-01	0	42	104	0	81	30065
2026-01-28 02:27:35.60	23.86	3.30	-55.5	-73.3	3.8	7.43e-01	0	42	104	0	81	30028
2026-01-28 02:27:36.61	23.86	3.37	-55.5	-73.3	3.8	7.40e-01	0	41	104	0	81	29890
2026-01-28 02:27:37.62	23.86	3.44	-55.5	-73.3	3.8	7.44e-01	0	42	104	0	81	29816
2026-01-28 02:27:38.63	23.86	3.51	-55.5	-73.3	3.8	7.41e-01	0	42	104	0	81	29886
2026-01-28 02:27:39.63	23.86	3.58	-55.5	-73.3	3.8	7.45e-01	0	42	104	0	81	29759
2026-01-28 02:27:40.64	23.86	3.65	-55.4	-73.3	3.8	7.49e-01	0	42	104	0	81	29719
2026-01-28 02:27:41.64	23.86	3.72	-55.3	-73.2	3.8	7.44e-01	0	42	104	0	81	29428
2026-01-28 02:27:42.65	23.86	3.80	-55.3	-73.1	3.8	7.45e-01	0	42	104	0	81	29133
2026-01-28 02:27:43.66	23.86	3.87	-55.2	-73.0	3.8	7.45e-01	0	42	104	0	81	28912
2026-01-28 02:27:44.67	23.86	3.94	-55.1	-72.9	3.8	7.46e-01	0	42	104	0	81	28499
2026-01-28 02:27:45.68	23.86	4.01	-54.9	-72.8	3.8	7.46e-01	0	42	104	0	81	28085
2026-01-28 02:27:46.69	23.86	4.08	-54.8	-72.6	3.8	7.46e-01	0	42	104	0	81	27563
2026-01-28 02:27:47.70	23.86	4.16	-54.6	-72.4	3.8	7.48e-01	0	42	104	0	81	27026
2026-01-28 02:27:48.71	23.86	4.23	-54.3	-72.1	3.8	7.45e-01	0	42	104	0	80	27632
2026-01-28 02:27:49.71	23.86	4.30	-53.9	-70.5	3.8	7.45e-01	0	42	104	0	79	24202
2026-01-28 02:27:50.72	23.86	4.38	-49.5	-52.3	17.6	6.00e-01	0	42	104	0	71	4726
2026-01-28 02:27:51.73	23.86	4.45	-49.0	-51.5	18.9	5.98e-01	0	42	0	1572864	70	4558
2026-01-28 02:27:52.74	23.86	4.52	-48.7	-51.1	19.3	5.99e-01	0	42	0	3145728	69	4632
2026-01-28 02:27:53.74	23.86	4.60	-48.2	-50.4	20.1	6.01e-01	0	42	0	5242880	68	4509
2026-01-28 02:27:54.75	23.86	4.67	-48.5	-50.9	19.7	6.02e-01	0	42	0	7340032	68	4768
2026-01-28 02:27:55.76	23.86	4.74	-48.8	-51.4	19.1	6.03e-01	0	42	0	8912896	68	5045
2026-01-28 02:27:56.77	23.86	4.82	-48.9	-51.4	19.1	6.03e-01	0	42	0	11010048	68	5054
2026-01-28 02:27:57.77	23.86	4.89	-49.3	-52.1	18.4	6.03e-01	0	42	0	12582912	69	5182
2026-01-28 02:27:58.78	23.86	4.97	-49.8	-52.9	17.7	5.99e-01	0	42	0	14680064	70	5351
2026-01-28 02:27:59.79	23.86	5.04	-50.6	-54.4	16.1	6.02e-01	0	42	0	16777216	71	6000
2026-01-28 02:28:00.79	23.86	5.12	-52.0	-57.4	13.2	6.07e-01	0	42	0	18350080	74	7194
2026-01-28 02:28:01.80	23.86	5.19	-49.3	-52.0	18.5	5.99e-01	0	42	0	20447232	70	4818
2026-01-28 02:28:02.81	23.85	5.27	-53.5	-70.5	3.8	7.54e-01	0	42	0	22020096	77	27318
2026-01-28 02:28:03.82	23.85	5.35	-47.2	-49.0	20.8	6.03e-01	0	42	0	22544384	66	4324
2026-01-28 02:28:04.82	23.85	5.42	-52.4	-58.7	12.5	6.12e-01	0	42	0	24117248	75	7892
2026-01-28 02:28:05.83	23.85	5.50	-47.0	-48.7	21.7	6.03e-01	0	42	0	26214400	66	4157
2026-01-28 02:28:06.84	23.85	5.58	-46.4	-48.1	22.4	6.02e-01	0	42	0	27787264	64	4346
2026-01-28 02:28:07.85	23.85	5.65	-46.5	-48.2	22.4	6.03e-01	0	42	0	29884416	64	4410
2026-01-28 02:28:08.85	23.85	5.73	-46.5	-48.1	22.5	6.04e-01	0	42	0	31981568	64	4369
2026-01-28 02:28:09.86	23.85	5.81	-46.3	-47.9	22.7	6.03e-01	0	42	0	33554432	64	4278
2026-01-28 02:28:10.87	23.85	5.89	-46.0	-47.5	23.2	6.05e-01	0	42	0	35651584	63	4320
2026-01-28 02:28:11.87	23.85	5.96	-46.1	-47.7	23.0	6.03e-01	0	42	0	37748736	63	4400
2026-01-28 02:28:12.88	23.85	6.04	-46.1	-47.6	23.1	6.03e-01	0	42	0	39321600	63	4382
2026-01-28 02:28:13.89	23.85	6.12	-46.1	-47.6	23.1	6.02e-01	0	42	0	41418752	63	4364
2026-01-28 02:28:14.90	23.85	6.20	-46.1	-47.7	23.1	6.03e-01	0	42	0	42991616	63	4402
2026-01-28 02:28:15.91	23.84	6.28	-45.9	-47.3	23.4	6.01e-01	0	42	0	45088768	63	4241
2026-01-28 02:28:16.92	23.84	6.36	-45.8	-47.3	23.4	6.02e-01	0	42	0	47185920	63	4231
2026-01-28 02:28:17.93	23.84	6.44	-46.1	-47.6	23.2	6.03e-01	0	42	0	48758784	63	4382
2026-01-28 02:28:18.93	23.84	6.52	-45.8	-47.2	23.5	6.05e-01	0	42	0	50855936	63	4188
2026-01-28 02:28:19.94	23.84	6.60	-45.9	-47.3	23.5	6.01e-01	0	42	0	52428800	63	4235
2026-01-28 02:28:20.95	23.84	6.68	-45.9	-47.4	23.4	6.05e-01	0	42	0	54525952	63	4269
2026-01-28 02:28:21.96	23.84	6.76	-46.1	-47.6	23.2	6.01e-01	0	43	0	56098816	63	4370
2026-01-28 02:28:22.97	23.84	6.84	-45.9	-47.4	23.4	6.05e-01	0	42	0	58195968	63	4281
2026-01-28 02:28:23.98	23.84	6.93	-45.9	-47.4	23.4	6.06e-01	0	42	0	60293120	63	4266
2026-01-28 02:28:24.99	23.83	7.01	-45.8	-47.3	23.5	6.02e-01	0	42	0	62390272	63	4225
2026-01-28 02:28:26.00	23.83	7.09	-45.8	-47.3	23.6	6.00e-01	0	42	0	63963136	63	4230
2026-01-28 02:28:27.00	23.83	7.17	-45.8	-47.2	23.7	6.03e-01	0	43	0	66060288	63	4176
2026-01-28 02:28:28.01	23.83	7.25	-45.7	-47.2	23.7	6.03e-01	0	42	0	67633152	63	4159
2026-01-28 02:28:29.02	23.83	7.34	-45.7	-47.2	23.7	6.03e-01	0	42	0	69730304	63	4162
2026-01-28 02:28:30.02	23.83	7.42	-45.9	-47.4	23.5	6.04e-01	0	43	0	71303168	63	4251
2026-01-28 02:28:31.03	23.83	7.50	-45.8	-47.2	23.7	6.04e-01	0	43	0	73400320	63	4182
2026-01-28 02:28:32.04	23.82	7.59	-45.8	-47.3	23.6	6.03e-01	0	42	0	75497472	63	4219
2026-01-28 02:28:33.05	23.82	7.67	-45.7	-47.2	23.7	6.03e-01	0	42	0	77070336	63	4154
2026-01-28 02:28:34.05	23.82	7.76	-45.8	-47.2	23.7	6.04e-01	0	42	0	79167488	63	4171
2026-01-28 02:28:35.06	23.82	7.84	-45.5	-46.9	24.0	6.05e-01	0	42	0	80740352	62	4286
2026-01-28 02:28:36.07	23.82	7.93	-45.5	-46.9	24.0	6.06e-01	0	42	0	82837504	62	4280
2026-01-28 02:28:37.08	23.82	8.01	-45.6	-47.0	23.9	6.04e-01	0	42	0	84934656	62	4339
2026-01-28 02:28:38.08	23.81	8.10	-45.7	-47.1	23.8	6.06e-01	0	42	0	86507520	62	4375
2026-01-28 02:28:39.09	23.81	8.18	-45.6	-47.0	23.9	6.02e-01	0	43	0	88604672	62	4315
2026-01-28 02:28:40.09	23.81	8.27	-45.5	-46.9	24.0	6.04e-01	0	42	0	90701824	62	4280
2026-01-28 02:28:41.10	23.81	8.36	-45.3	-46.7	24.2	6.03e-01	0	42	0	92274688	62	4174
2026-01-28 02:28:42.11	23.81	8.44	-45.7	-47.2	23.8	6.04e-01	0	43	0	94371840	62	4395
2026-01-28 02:28:43.12	23.81	8.53	-45.5	-46.9	24.0	6.05e-01	0	42	0	95944704	62	4246
2026-01-28 02:28:44.12	23.80	8.62	-45.4	-46.8	24.0	6.03e-01	0	43	0	98041856	62	4230
2026-01-28 02:28:45.13	23.80	8.71	-45.4	-46.7	24.0	6.03e-01	0	42	0	99614720	62	4190
2026-01-28 02:28:46.13	23.80	8.79	-45.5	-46.9	23.8	6.02e-01	0	42	0	101711872	62	4243
2026-01-28 02:28:47.14	23.80	8.88	-45.4	-46.8	23.8	6.03e-01	0	42	0	103809024	62	4208
2026-01-28 02:28:48.15	23.80	8.97	-45.3	-46.7	23.7	6.04e-01	0	42	0	105381888	62	4147
2026-01-28 02:28:49.15	23.79	9.06	-45.3	-46.7	23.3	6.03e-01	0	43	0	107479040	62	4156
2026-01-28 02:28:50.16	23.79	9.15	-45.4	-46.7	23.2	6.02e-01	0	42	0	109051904	62	4186
2026-01-28 02:28:51.17	23.79	9.24	-45.4	-46.8	23.0	6.02e-01	0	43	0	111149056	62	4198
2026-01-28 02:28:52.18	23.79	9.33	-45.4	-46.8	22.8	6.02e-01	0	43	0	113246208	62	4221
2026-01-28 02:28:53.18	23.78	9.42	-45.4	-46.8	23.0	6.04e-01	0	43	0	114819072	62	4197
2026-01-28 02:28:54.19	23.78	9.52	-45.2	-46.6	23.1	6.04e-01	0	43	0	116916224	62	4110
2026-01-28 02:28:55.19	23.78	9.61	-45.4	-46.8	23.0	6.01e-01	0	43	0	119013376	62	4198
2026-01-28 02:28:56.20	23.78	9.70	-45.4	-46.8	23.0	6.02e-01	0	43	0	120586240	62	4212
2026-01-28 02:28:57.21	23.77	9.79	-45.2	-46.6	23.5	6.02e-01	0	43	0	122683392	62	4117
2026-01-28 02:28:58.22	23.77	9.88	-45.1	-46.4	23.4	6.01e-01	0	43	0	124256256	62	4030
2026-01-28 02:28:59.23	23.77	9.98	-45.1	-46.4	23.3	6.03e-01	0	43	0	126353408	62	4028
2026-01-28 02:29:00.23	23.77	10.07	-45.1	-46.4	23.0	6.04e-01	0	43	0	127926272	62	4049
2026-01-28 02:29:01.24	23.76	10.16	-45.1	-46.4	23.3	6.05e-01	0	43	0	130023424	62	4045
2026-01-28 02:29:02.24	23.76	10.26	-45.2	-46.5	23.4	6.04e-01	0	43	0	132120576	62	4081
2026-01-28 02:29:03.25	23.76	10.35	-45.2	-46.5	23.1	6.03e-01	0	43	0	133693440	62	4096
2026-01-28 02:29:04.26	23.75	10.45	-45.0	-46.3	23.4	6.04e-01	0	43	0	135790592	62	3997
2026-01-28 02:29:05.26	23.75	10.54	-45.1	-46.5	23.4	6.04e-01	0	43	0	137363456	62	4060
2026-01-28 02:29:06.27	23.75	10.64	-45.1	-46.4	23.5	6.02e-01	0	43	0	139460608	62	4038
2026-01-28 02:29:07.28	23.75	10.74	-45.0	-46.3	23.4	6.04e-01	0	43	0	141557760	62	3992
2026-01-28 02:29:08.29	23.74	10.83	-44.9	-46.2	23.5	6.05e-01	0	43	0	143130624	61	4184
2026-01-28 02:29:09.30	23.74	10.93	-44.9	-46.2	23.7	6.06e-01	0	43	0	145227776	61	4158
2026-01-28 02:29:10.31	23.74	11.03	-44.6	-45.9	24.1	6.04e-01	0	43	0	147324928	61	4020
2026-01-28 02:29:11.32	23.73	11.13	-44.6	-45.8	24.5	6.04e-01	0	43	0	148897792	61	3996
2026-01-28 02:29:12.32	23.73	11.23	-44.6	-45.9	24.5	6.05e-01	0	43	0	150994944	61	4025
2026-01-28 02:29:13.33	23.73	11.33	-44.6	-45.9	24.5	6.05e-01	0	43	0	152567808	61	4031
2026-01-28 02:29:14.33	23.72	11.42	-44.6	-45.9	24.5	6.05e-01	0	43	0	154664960	61	4024
2026-01-28 02:29:15.34	23.72	11.52	-44.7	-45.9	24.4	6.05e-01	0	43	0	156237824	61	4039
2026-01-28 02:29:16.35	23.72	11.63	-44.7	-46.0	24.3	6.03e-01	0	43	0	158334976	61	4063
2026-01-28 02:29:17.36	23.71	11.73	-44.5	-45.8	24.8	6.02e-01	0	43	0	160432128	61	3961
2026-01-28 02:29:18.37	23.71	11.83	-44.5	-45.7	25.0	6.00e-01	0	43	0	162004992	61	3951
2026-01-28 02:29:19.37	23.71	11.93	-44.5	-45.7	25.1	6.03e-01	0	43	0	164102144	60	4176
2026-01-28 02:29:20.38	23.70	12.03	-44.5	-45.8	25.1	6.00e-01	0	43	0	166199296	60	4199
2026-01-28 02:29:21.39	23.70	12.13	-44.4	-45.6	25.2	6.02e-01	0	43	0	167772160	60	4129
2026-01-28 02:29:22.40	23.69	12.24	-44.4	-45.7	25.2	6.05e-01	0	43	0	169869312	60	4164
2026-01-28 02:29:23.41	23.69	12.34	-44.5	-45.8	25.2	6.04e-01	0	43	0	171442176	60	4207
2026-01-28 02:29:24.41	23.69	12.45	-44.6	-45.8	25.2	6.02e-01	0	43	0	173539328	60	4221
2026-01-28 02:29:25.42	23.68	12.55	-44.5	-45.8	25.3	6.03e-01	0	43	0	175636480	60	4209
2026-01-28 02:29:26.43	23.68	12.66	-44.5	-45.8	25.3	6.04e-01	0	43	0	177209344	60	4197
2026-01-28 02:29:27.43	23.67	12.76	-44.4	-45.6	25.4	6.02e-01	0	43	0	179306496	60	4139
2026-01-28 02:29:28.44	23.67	12.87	-44.5	-45.7	25.3	6.02e-01	0	43	0	180879360	60	4164
2026-01-28 02:29:29.45	23.66	12.97	-44.4	-45.7	25.4	6.04e-01	0	43	0	182976512	60	4154
2026-01-28 02:29:30.46	23.66	13.08	-44.5	-45.7	25.2	6.03e-01	0	43	0	184549376	60	4177
2026-01-28 02:29:31.47	23.66	13.19	-44.4	-45.6	25.4	6.04e-01	0	43	0	186646528	60	4134
2026-01-28 02:29:32.48	23.65	13.30	-44.4	-45.6	25.4	6.05e-01	0	43	0	188743680	60	4144
2026-01-28 02:29:33.49	23.65	13.41	-44.4	-45.7	25.4	6.03e-01	0	43	0	190840832	60	4152
2026-01-28 02:29:34.50	23.64	13.52	-44.4	-45.6	25.5	6.02e-01	0	43	0	192413696	60	4133
2026-01-28 02:29:35.50	23.64	13.63	-44.5	-45.7	25.4	6.04e-01	0	43	0	194510848	60	4161
2026-01-28 02:29:36.51	23.63	13.74	-44.4	-45.6	25.4	6.04e-01	0	43	0	196083712	60	4132
2026-01-28 02:29:37.51	23.63	13.85	-44.4	-45.6	25.5	6.02e-01	0	43	0	198180864	60	4137
2026-01-28 02:29:38.52	23.62	13.96	-44.4	-45.6	25.5	6.03e-01	0	43	0	199753728	60	4108
2026-01-28 02:29:39.53	23.62	14.07	-44.3	-45.5	25.6	6.04e-01	0	43	0	201850880	60	4081
2026-01-28 02:29:40.53	23.61	14.18	-44.3	-45.6	25.5	6.05e-01	0	43	0	203948032	60	4100
2026-01-28 02:29:41.54	23.61	14.30	-44.4	-45.6	25.5	6.04e-01	0	43	0	205520896	60	4109
2026-01-28 02:29:42.55	23.60	14.41	-44.3	-45.5	25.6	6.04e-01	0	43	0	207618048	60	4090
2026-01-28 02:29:43.56	23.60	14.53	-44.3	-45.5	25.6	6.04e-01	0	43	0	209190912	60	4076
2026-01-28 02:29:44.57	23.59	14.64	-44.3	-45.5	25.6	6.03e-01	0	43	0	211288064	60	4071
2026-01-28 02:29:45.57	23.59	14.76	-44.3	-45.5	25.6	6.03e-01	0	43	0	212860928	60	4085
2026-01-28 02:29:46.58	23.58	14.87	-44.3	-45.5	25.6	6.06e-01	0	43	0	214958080	60	4094
2026-01-28 02:29:47.59	23.57	14.99	-44.3	-45.5	25.6	6.01e-01	0	43	0	217055232	60	4063
2026-01-28 02:29:48.60	23.57	15.11	-44.2	-45.4	25.8	6.03e-01	0	43	0	219152384	60	4022
2026-01-28 02:29:49.61	23.56	15.23	-44.2	-45.5	25.7	6.03e-01	0	43	0	220725248	60	4054
2026-01-28 02:29:50.61	23.56	15.35	-44.2	-45.4	25.7	6.04e-01	0	43	0	222822400	60	4027
2026-01-28 02:29:51.62	23.55	15.47	-44.1	-45.3	25.9	6.04e-01	0	43	0	224395264	60	3966
2026-01-28 02:29:52.63	23.54	15.59	-44.0	-45.2	25.9	6.06e-01	0	43	0	226492416	60	3946
2026-01-28 02:29:53.63	23.54	15.71	-44.0	-45.2	25.9	6.03e-01	0	43	0	228065280	59	4177
2026-01-28 02:29:54.64	23.53	15.83	-44.1	-45.2	25.9	6.03e-01	0	43	0	230162432	59	4186
2026-01-28 02:29:55.65	23.53	15.95	-44.1	-45.2	25.9	6.05e-01	0	43	0	232259584	59	4189
2026-01-28 02:29:56.66	23.52	16.07	-44.1	-45.3	25.8	6.05e-01	0	43	0	233832448	59	4212
2026-01-28 02:29:57.67	23.51	16.20	-44.1	-45.2	25.9	6.02e-01	0	43	0	235929600	59	4187
2026-01-28 02:29:58.67	23.51	16.32	-44.1	-45.3	25.9	6.02e-01	0	43	0	238026752	59	4199
2026-01-28 02:29:59.68	23.50	16.45	-43.9	-45.1	26.0	6.03e-01	0	43	0	239599616	59	4100
2026-01-28 02:30:00.69	23.49	16.57	-44.0	-45.2	26.0	6.03e-01	0	43	0	241696768	59	4148
2026-01-28 02:30:01.69	23.49	16.70	-44.1	-45.3	25.9	6.02e-01	0	43	0	243269632	59	4197
2026-01-28 02:30:02.70	23.48	16.83	-44.1	-45.2	25.9	6.04e-01	0	43	0	245366784	59	4188
2026-01-28 02:30:03.71	23.47	16.95	-44.0	-45.2	25.9	6.04e-01	0	43	0	247463936	59	4177
2026-01-28 02:30:04.72	23.46	17.08	-44.1	-45.3	25.7	6.03e-01	0	43	0	249036800	59	4216
2026-01-28 02:30:05.73	23.46	17.21	-44.1	-45.3	25.6	6.03e-01	0	43	0	251133952	59	4221
2026-01-28 02:30:06.73	23.45	17.34	-44.2	-45.4	25.6	6.02e-01	0	43	0	252706816	59	4246
2026-01-28 02:30:07.74	23.44	17.47	-44.2	-45.3	25.6	6.04e-01	0	43	0	254803968	59	4242
2026-01-28 02:30:08.74	23.43	17.60	-44.2	-45.4	25.5	6.06e-01	0	43	0	256376832	59	4245
2026-01-28 02:30:09.75	23.43	17.74	-44.2	-45.4	25.4	6.02e-01	0	43	0	258473984	59	4280
2026-01-28 02:30:10.76	23.42	17.87	-44.3	-45.5	25.3	6.03e-01	0	43	0	260571136	59	4296
2026-01-28 02:30:11.77	23.41	18.00	-44.2	-45.4	25.4	6.04e-01	0	43	0	262144000	59	4245
2026-01-28 02:30:12.78	23.40	18.14	-44.2	-45.4	25.4	6.01e-01	0	43	0	264241152	59	4261
2026-01-28 02:30:13.78	23.39	18.27	-44.2	-45.4	25.5	6.03e-01	0	43	0	266338304	59	4255
2026-01-28 02:30:14.79	23.39	18.41	-44.2	-45.3	25.5	6.03e-01	0	43	0	267911168	59	4232
2026-01-28 02:30:15.80	23.38	18.55	-44.2	-45.4	25.5	6.01e-01	0	43	0	270008320	59	4263
2026-01-28 02:30:16.81	23.37	18.69	-44.2	-45.4	25.7	6.05e-01	0	43	0	271581184	59	4277
2026-01-28 02:30:17.81	23.36	18.83	-44.3	-45.4	25.7	6.02e-01	0	43	0	273678336	59	4288
2026-01-28 02:30:18.82	23.35	18.97	-44.2	-45.3	25.7	6.05e-01	0	43	0	275775488	59	4240
2026-01-28 02:30:19.83	23.34	19.11	-44.2	-45.3	25.7	6.02e-01	0	43	0	277348352	59	4235
2026-01-28 02:30:20.84	23.33	19.25	-44.1	-45.3	25.9	6.05e-01	0	43	0	279445504	59	4221
2026-01-28 02:30:21.84	23.32	19.39	-44.2	-45.3	25.9	6.04e-01	0	43	0	281018368	59	4241
2026-01-28 02:30:22.85	23.31	19.53	-44.3	-45.5	25.8	6.01e-01	0	43	0	283115520	59	4329
2026-01-28 02:30:23.86	23.30	19.68	-44.3	-45.5	25.7	6.01e-01	0	43	0	284688384	59	4324
2026-01-28 02:30:24.86	23.29	19.82	-44.3	-45.5	25.7	6.01e-01	0	43	0	286785536	59	4337
2026-01-28 02:30:25.87	23.28	19.97	-44.5	-45.7	25.6	6.03e-01	0	43	0	288882688	59	4398
2026-01-28 02:30:26.88	23.28	20.12	-44.5	-45.7	25.5	6.02e-01	0	43	0	290455552	59	4419
2026-01-28 02:30:27.89	23.26	20.27	-44.5	-45.7	25.5	6.03e-01	0	43	0	292552704	59	4427
2026-01-28 02:30:28.89	23.25	20.41	-44.6	-45.8	25.5	6.03e-01	0	43	0	294649856	59	4451
2026-01-28 02:30:29.90	23.24	20.56	-44.6	-45.8	25.4	6.04e-01	0	43	0	296222720	59	4458
2026-01-28 02:30:30.91	23.23	20.72	-44.5	-45.7	25.4	6.04e-01	0	43	0	298319872	59	4434
2026-01-28 02:30:31.92	23.22	20.87	-44.5	-45.7	25.4	6.01e-01	0	43	0	299892736	59	4437
2026-01-28 02:30:32.92	23.21	21.02	-44.6	-45.8	25.4	6.04e-01	0	43	0	301989888	59	4452
2026-01-28 02:30:33.93	23.20	21.17	-44.7	-45.9	25.4	6.05e-01	0	43	0	304087040	59	4505
2026-01-28 02:30:34.94	23.19	21.33	-44.6	-45.8	25.4	6.05e-01	0	43	0	305659904	59	4477
2026-01-28 02:30:35.95	23.18	21.49	-44.7	-45.9	25.4	6.02e-01	0	43	0	307757056	59	4519
2026-01-28 02:30:36.96	23.17	21.64	-44.6	-45.8	25.5	6.02e-01	0	43	0	309329920	60	4238
2026-01-28 02:30:37.97	23.16	21.80	-44.6	-45.9	25.5	6.04e-01	0	43	0	311427072	60	4252
2026-01-28 02:30:38.97	23.14	21.96	-44.7	-45.9	25.4	6.04e-01	0	43	0	313524224	60	4279
2026-01-28 02:30:39.98	23.13	22.12	-44.7	-45.9	25.4	6.02e-01	0	43	0	315097088	60	4279
2026-01-28 02:30:40.99	23.12	22.28	-44.7	-45.9	25.4	6.05e-01	0	43	0	317194240	60	4272
2026-01-28 02:30:42.00	23.11	22.45	-44.7	-45.9	25.4	6.02e-01	0	43	0	319291392	60	4278
2026-01-28 02:30:43.01	23.09	22.61	-44.7	-45.9	25.4	6.04e-01	0	43	0	320864256	60	4257
2026-01-28 02:30:44.01	23.08	22.78	-44.7	-45.9	25.5	6.03e-01	0	43	0	322961408	60	4254
2026-01-28 02:30:45.02	23.07	22.94	-44.6	-45.8	25.5	6.04e-01	0	43	0	324534272	60	4217
2026-01-28 02:30:46.03	23.06	23.11	-44.6	-45.8	25.5	6.04e-01	0	43	0	326631424	60	4236
2026-01-28 02:30:47.04	23.04	23.28	-44.7	-45.9	25.4	6.03e-01	0	43	0	328204288	60	4268
2026-01-28 02:30:48.04	23.03	23.45	-44.5	-45.7	25.6	6.04e-01	0	43	0	330301440	60	4185
2026-01-28 02:30:49.05	23.02	23.62	-44.5	-45.7	25.6	6.04e-01	0	43	0	332398592	60	4192
2026-01-28 02:30:50.05	23.00	23.79	-44.6	-45.8	25.5	6.05e-01	0	43	0	333971456	60	4203
2026-01-28 02:30:51.06	22.99	23.96	-44.7	-45.9	25.5	6.03e-01	0	43	0	336068608	60	4253
2026-01-28 02:30:52.07	22.97	24.14	-44.6	-45.8	25.5	6.02e-01	0	43	0	337641472	60	4229
2026-01-28 02:30:53.08	22.96	24.31	-44.6	-45.8	25.5	6.05e-01	0	43	0	339738624	60	4239
2026-01-28 02:30:54.08	22.94	24.49	-44.7	-45.9	25.5	6.03e-01	0	43	0	341835776	60	4272
2026-01-28 02:30:55.09	22.93	24.67	-44.8	-46.0	25.5	6.01e-01	0	43	0	343408640	60	4337
2026-01-28 02:30:56.10	22.91	24.85	-44.8	-46.0	25.5	6.03e-01	0	43	0	345505792	60	4324
2026-01-28 02:30:57.11	22.90	25.03	-44.8	-46.0	25.5	6.06e-01	0	43	0	347602944	60	4310
2026-01-28 02:30:58.11	22.88	25.21	-44.9	-46.1	25.4	6.02e-01	0	43	0	349175808	60	4373
2026-01-28 02:30:59.12	22.87	25.40	-44.8	-46.0	25.6	6.07e-01	0	43	0	351272960	60	4309
2026-01-28 02:31:00.12	22.85	25.58	-44.8	-46.0	25.6	6.05e-01	0	43	0	352845824	60	4302
2026-01-28 02:31:01.13	22.83	25.77	-44.7	-45.9	25.6	6.05e-01	0	43	0	354942976	60	4283
2026-01-28 02:31:02.14	22.82	25.96	-44.6	-45.8	25.7	6.05e-01	0	43	0	356515840	60	4218
2026-01-28 02:31:03.15	22.80	26.15	-44.6	-45.8	25.7	6.05e-01	0	43	0	358612992	60	4214
2026-01-28 02:31:04.16	22.78	26.34	-44.5	-45.7	25.8	6.03e-01	0	43	0	360710144	60	4189
2026-01-28 02:31:05.16	22.77	26.53	-44.4	-45.6	25.8	6.02e-01	0	43	0	362283008	60	4121
2026-01-28 02:31:06.17	22.75	26.72	-44.5	-45.7	25.8	6.03e-01	0	43	0	364380160	60	4182
2026-01-28 02:31:07.18	22.73	26.92	-44.5	-45.7	25.8	6.03e-01	0	43	0	366477312	60	4179
2026-01-28 02:31:08.18	22.71	27.12	-44.5	-45.7	25.8	6.05e-01	0	43	0	368050176	60	4160
2026-01-28 02:31:09.19	22.69	27.31	-44.4	-45.6	25.9	6.02e-01	0	43	0	370147328	60	4121
2026-01-28 02:31:10.20	22.67	27.52	-44.3	-45.5	26.1	6.05e-01	0	43	0	371720192	60	4062
2026-01-28 02:31:11.21	22.66	27.72	-44.2	-45.3	26.2	6.02e-01	0	43	0	373817344	60	3998
2026-01-28 02:31:12.21	22.64	27.92	-44.2	-45.4	26.2	6.04e-01	0	43	0	375914496	60	4013
2026-01-28 02:31:13.22	22.62	28.12	-44.1	-45.2	26.3	6.04e-01	0	43	0	377487360	60	3943
2026-01-28 02:31:14.23	22.60	28.33	-44.0	-45.2	26.3	6.02e-01	0	43	0	379584512	60	3933
2026-01-28 02:31:15.23	22.58	28.54	-44.2	-45.3	26.2	6.03e-01	0	43	0	381157376	60	3989
2026-01-28 02:31:16.24	22.56	28.75	-44.2	-45.3	26.2	6.04e-01	0	43	0	383254528	60	3994
2026-01-28 02:31:17.25	22.53	28.96	-44.2	-45.3	26.2	6.01e-01	0	43	0	384827392	60	3997
2026-01-28 02:31:18.26	22.51	29.18	-44.3	-45.5	26.1	6.04e-01	0	43	0	386924544	60	4073
2026-01-28 02:31:19.26	22.49	29.39	-44.4	-45.5	26.0	6.02e-01	0	43	0	389021696	60	4092
2026-01-28 02:31:20.27	22.47	29.61	-44.4	-45.6	26.0	6.04e-01	0	43	0	390594560	60	4111
2026-01-28 02:31:21.28	22.45	29.83	-44.3	-45.5	26.1	6.02e-01	0	43	0	392691712	60	4084
2026-01-28 02:31:22.29	22.42	30.05	-44.4	-45.6	26.0	6.04e-01	0	43	0	394788864	60	4102
2026-01-28 02:31:23.30	22.40	30.27	-44.1	-45.2	26.3	6.03e-01	0	43	0	396361728	60	3958
2026-01-28 02:31:24.30	22.38	30.49	-43.9	-45.0	26.4	6.02e-01	0	43	0	398458880	59	4095
2026-01-28 02:31:25.31	22.35	30.72	-43.8	-45.0	26.5	6.04e-01	0	43	0	400031744	59	4060
2026-01-28 02:31:26.32	22.33	30.95	-44.0	-45.1	26.4	6.03e-01	0	43	0	402128896	59	4119
2026-01-28 02:31:27.33	22.30	31.18	-44.0	-45.1	26.3	6.05e-01	0	43	0	404226048	59	4128
2026-01-28 02:31:28.34	22.28	31.41	-44.1	-45.2	26.3	6.07e-01	0	43	0	405798912	59	4189
2026-01-28 02:31:29.35	22.25	31.64	-44.2	-45.3	26.1	6.01e-01	0	43	0	407896064	59	4223
2026-01-28 02:31:30.36	22.23	31.88	-44.3	-45.5	26.0	6.03e-01	0	43	0	409468928	59	4314
2026-01-28 02:31:31.36	22.20	32.12	-44.3	-45.5	26.0	6.03e-01	0	43	0	411566080	59	4300
2026-01-28 02:31:32.37	22.17	32.36	-44.3	-45.5	25.9	6.01e-01	0	43	0	413138944	59	4311
2026-01-28 02:31:33.38	22.14	32.60	-44.4	-45.6	25.8	6.01e-01	0	43	0	415236096	59	4358
2026-01-28 02:31:34.38	22.12	32.84	-44.4	-45.6	25.5	6.04e-01	0	43	0	417333248	59	4362
2026-01-28 02:31:35.39	22.09	33.09	-44.3	-45.5	26.0	6.03e-01	0	43	0	418906112	59	4296
2026-01-28 02:31:36.39	22.06	33.34	-44.3	-45.5	25.9	6.05e-01	0	43	0	421003264	59	4320
2026-01-28 02:31:37.40	22.03	33.59	-44.4	-45.6	25.9	6.04e-01	0	43	0	423100416	59	4375
2026-01-28 02:31:38.41	22.00	33.84	-44.5	-45.7	25.8	6.03e-01	0	43	0	424673280	59	4434
2026-01-28 02:31:39.42	21.97	34.10	-44.6	-45.8	25.8	6.04e-01	0	43	0	426770432	59	4474
2026-01-28 02:31:40.42	21.94	34.35	-44.6	-45.8	25.8	6.03e-01	0	43	0	428343296	60	4215
2026-01-28 02:31:41.43	21.90	34.61	-44.6	-45.8	25.9	6.04e-01	0	43	0	430440448	60	4236
2026-01-28 02:31:42.44	21.87	34.87	-44.7	-45.9	25.8	6.02e-01	0	43	0	432537600	60	4245
2026-01-28 02:31:43.44	21.84	35.14	-44.8	-46.0	25.7	6.03e-01	0	43	0	434110464	60	4322
2026-01-28 02:31:44.45	21.80	35.40	-45.1	-46.3	25.4	6.01e-01	0	43	0	436207616	60	4475
2026-01-28 02:31:45.46	21.77	35.67	-45.4	-46.7	25.1	6.04e-01	0	43	0	437780480	61	4398
2026-01-28 02:31:46.46	21.74	35.94	-45.5	-46.8	25.0	6.03e-01	0	43	0	439877632	61	4463
2026-01-28 02:31:47.47	21.70	36.22	-45.7	-47.0	24.8	6.03e-01	0	43	0	441450496	62	4298
2026-01-28 02:31:48.48	21.66	36.49	-45.7	-47.0	24.9	6.02e-01	0	43	0	443547648	62	4316
2026-01-28 02:31:49.49	21.63	36.77	-45.8	-47.1	24.8	6.04e-01	0	43	0	445644800	62	4383
2026-01-28 02:31:50.50	21.59	37.05	-45.8	-47.1	24.8	6.02e-01	0	43	0	447217664	62	4370
2026-01-28 02:31:51.51	21.55	37.34	-45.9	-47.2	24.7	6.03e-01	0	43	0	449314816	62	4403
2026-01-28 02:31:52.52	21.51	37.62	-46.0	-47.3	24.6	6.06e-01	0	43	0	451411968	62	4467
2026-01-28 02:31:53.52	21.47	37.91	-46.3	-47.6	24.3	6.04e-01	0	43	0	452984832	63	4379
2026-01-28 02:31:54.53	21.43	38.20	-46.5	-48.0	24.0	6.04e-01	0	43	0	455081984	63	4547
2026-01-28 02:31:55.54	21.39	38.50	-46.6	-48.0	24.0	6.01e-01	0	43	0	456654848	63	4571
2026-01-28 02:31:56.55	21.34	38.80	-46.5	-47.9	24.0	6.04e-01	0	43	0	458752000	63	4521
2026-01-28 02:31:57.56	21.30	39.10	-46.5	-47.9	24.0	6.04e-01	0	43	0	460849152	63	4500
2026-01-28 02:31:58.57	21.26	39.40	-46.2	-47.6	24.3	6.02e-01	0	43	0	462422016	63	4369
2026-01-28 02:31:59.57	21.21	39.70	-46.3	-47.7	24.2	6.05e-01	0	43	0	464519168	63	4393
2026-01-28 02:32:00.58	21.17	40.01	-46.3	-47.6	24.3	6.03e-01	0	43	0	466616320	63	4383
2026-01-28 02:32:01.59	21.12	40.32	-46.2	-47.6	24.4	6.07e-01	0	43	0	468189184	63	4363
2026-01-28 02:32:02.60	21.07	40.64	-46.0	-47.4	24.6	6.04e-01	0	43	0	470286336	63	4252
2026-01-28 02:32:03.60	21.02	40.95	-46.1	-47.4	24.6	6.04e-01	0	43	0	471859200	63	4275
2026-01-28 02:32:04.61	20.97	41.27	-46.0	-47.3	24.7	6.02e-01	0	43	0	473956352	63	4203
2026-01-28 02:32:05.62	20.92	41.60	-46.2	-47.5	24.5	6.04e-01	0	43	0	475529216	63	4319
2026-01-28 02:32:06.63	20.87	41.92	-46.2	-47.6	24.4	6.03e-01	0	43	0	477626368	63	4351
2026-01-28 02:32:07.63	20.81	42.25	-45.9	-47.3	24.7	6.02e-01	0	43	0	479723520	63	4197
2026-01-28 02:32:08.64	20.76	42.58	-45.4	-46.6	25.3	6.03e-01	0	43	0	481296384	62	4129
2026-01-28 02:32:09.65	20.70	42.92	-45.4	-46.7	25.2	6.04e-01	0	43	0	483393536	62	4156
2026-01-28 02:32:10.65	20.64	43.25	-45.2	-46.5	25.5	6.02e-01	0	43	0	484966400	62	4058
2026-01-28 02:32:11.66	20.58	43.59	-45.0	-46.3	25.7	6.02e-01	0	43	0	487063552	62	3961
2026-01-28 02:32:12.67	20.52	43.94	-45.0	-46.2	25.7	6.03e-01	0	43	0	489160704	62	3958
2026-01-28 02:32:13.67	20.46	44.28	-44.9	-46.1	25.8	6.04e-01	0	43	0	490733568	61	4128
2026-01-28 02:32:14.68	20.40	44.63	-44.9	-46.0	25.9	6.06e-01	0	43	0	492830720	61	4092
2026-01-28 02:32:15.68	20.33	44.99	-44.7	-45.9	26.0	6.03e-01	0	43	0	494927872	61	4036
2026-01-28 02:32:16.69	20.27	45.34	-44.8	-46.0	25.9	6.03e-01	0	43	0	496500736	61	4079
2026-01-28 02:32:17.70	20.20	45.71	-44.8	-46.0	25.8	6.03e-01	0	43	0	498597888	61	4095
2026-01-28 02:32:18.71	20.13	46.07	-44.6	-45.8	26.0	6.02e-01	0	43	0	500170752	61	3992
2026-01-28 02:32:19.71	20.06	46.43	-44.5	-45.7	26.2	6.00e-01	0	43	0	502267904	60	4159
2026-01-28 02:32:20.72	19.98	46.81	-44.9	-46.1	26.0	6.05e-01	0	43	0	503840768	60	4341
2026-01-28 02:32:21.73	19.91	47.18	-45.2	-46.4	25.5	6.03e-01	0	43	0	505937920	61	4282
2026-01-28 02:32:22.74	19.83	47.56	-44.6	-45.8	26.1	6.02e-01	0	43	0	508035072	61	3979
2026-01-28 02:32:23.75	19.75	47.94	-44.8	-46.0	25.9	6.03e-01	0	43	0	509607936	61	4057
2026-01-28 02:32:24.75	19.67	48.32	-44.8	-46.0	26.0	6.04e-01	0	43	0	511705088	61	4062
2026-01-28 02:32:25.76	19.59	48.71	-44.5	-45.7	26.2	6.05e-01	0	43	0	513277952	61	3919
2026-01-28 02:32:26.77	19.50	49.11	-44.5	-45.7	26.1	6.01e-01	0	43	0	515375104	60	4159
2026-01-28 02:32:27.78	19.41	49.50	-44.7	-45.8	26.0	6.03e-01	0	43	0	517472256	60	4228
2026-01-28 02:32:28.79	19.32	49.90	-45.0	-46.2	25.8	6.04e-01	0	43	0	519045120	60	4428
2026-01-28 02:32:29.80	19.23	50.30	-44.8	-46.0	25.9	6.03e-01	0	43	0	521142272	60	4296
2026-01-28 02:32:30.80	19.14	50.71	-44.0	-45.1	26.7	6.02e-01	0	43	0	523239424	60	3886
2026-01-28 02:32:31.81	19.04	51.12	-44.2	-45.3	26.4	6.02e-01	0	43	0	524812288	59	4229
2026-01-28 02:32:32.82	18.94	51.53	-44.4	-45.5	26.2	6.03e-01	0	43	0	526909440	59	4338
2026-01-28 02:32:33.83	18.83	51.95	-44.0	-45.1	26.5	6.04e-01	0	43	0	528482304	59	4144
2026-01-28 02:32:34.84	18.72	52.37	-44.1	-45.3	26.5	6.04e-01	0	43	0	530579456	59	4203
2026-01-28 02:32:35.85	18.61	52.80	-44.0	-45.1	26.6	6.05e-01	0	43	0	532152320	59	4134
2026-01-28 02:32:36.86	18.50	53.23	-43.8	-44.9	26.9	6.02e-01	0	43	0	534249472	59	4024
2026-01-28 02:32:37.86	18.38	53.66	-43.8	-44.9	26.8	6.03e-01	0	43	0	536346624	59	4038
2026-01-28 02:32:38.87	18.26	54.09	-44.1	-45.3	26.5	6.04e-01	0	43	0	537919488	59	4205
2026-01-28 02:32:39.88	18.13	54.53	-44.2	-45.3	26.5	6.03e-01	0	43	0	540016640	59	4207
2026-01-28 02:32:40.89	18.00	54.98	-44.0	-45.1	26.6	6.02e-01	0	43	0	542113792	59	4126
2026-01-28 02:32:41.89	17.87	55.42	-44.2	-45.4	26.5	6.02e-01	0	43	0	543686656	59	4244
2026-01-28 02:32:42.90	17.73	55.87	-44.6	-45.8	26.1	6.02e-01	0	43	0	545783808	59	4461
2026-01-28 02:32:43.91	17.59	56.33	-44.8	-45.9	26.0	6.02e-01	0	43	0	547356672	60	4289
2026-01-28 02:32:44.92	17.44	56.79	-44.5	-45.7	26.2	6.04e-01	0	43	0	549453824	60	4168
2026-01-28 02:32:45.92	17.29	57.25	-44.2	-45.3	26.5	6.03e-01	0	43	0	551550976	60	4001
2026-01-28 02:32:46.93	17.13	57.71	-44.8	-46.0	26.0	6.05e-01	0	43	0	553123840	60	4312
2026-01-28 02:32:47.94	16.96	58.18	-45.1	-46.4	25.7	6.02e-01	0	43	0	555220992	60	4496
2026-01-28 02:32:48.94	16.80	58.65	-45.1	-46.3	25.7	6.02e-01	0	43	0	556793856	60	4490
2026-01-28 02:32:49.95	16.62	59.13	-45.4	-46.6	25.5	6.02e-01	0	43	0	558891008	61	4370
2026-01-28 02:32:50.96	16.43	59.61	-45.3	-46.5	25.6	6.04e-01	0	43	0	560463872	61	4328
2026-01-28 02:32:51.97	16.24	60.10	-45.6	-46.9	25.2	6.03e-01	0	43	0	562561024	61	4515
2026-01-28 02:32:52.98	16.04	60.58	-45.9	-47.1	25.0	6.03e-01	0	43	0	564658176	62	4385
2026-01-28 02:32:53.98	15.84	61.07	-45.9	-47.2	24.9	6.05e-01	0	43	0	566755328	62	4410
2026-01-28 02:32:54.99	15.62	61.57	-45.9	-47.2	25.1	6.03e-01	0	43	0	568328192	62	4413
2026-01-28 02:32:56.00	15.40	62.07	-46.7	-48.0	24.2	6.04e-01	0	43	0	570425344	63	4596
2026-01-28 02:32:57.01	15.17	62.57	-46.6	-48.0	24.1	6.02e-01	0	43	0	571998208	64	4324
2026-01-28 02:32:58.01	14.92	63.07	-46.6	-48.0	24.2	6.03e-01	0	43	0	574095360	64	4309
2026-01-28 02:32:59.03	14.67	63.58	-46.7	-48.1	24.1	6.03e-01	0	43	0	575668224	64	4344
2026-01-28 02:33:00.03	14.40	64.09	-47.4	-49.0	23.4	6.03e-01	0	43	0	577765376	65	4550
2026-01-28 02:33:01.04	14.12	64.61	-47.4	-48.9	23.3	6.06e-01	0	43	0	579862528	65	4524
2026-01-28 02:33:02.05	13.83	65.13	-47.2	-48.7	23.5	6.05e-01	0	43	0	581435392	65	4395
2026-01-28 02:33:03.06	13.53	65.65	-47.8	-49.4	22.8	6.01e-01	0	43	0	583532544	66	4520
2026-01-28 02:33:04.07	13.21	66.17	-48.1	-49.8	22.5	6.02e-01	0	43	0	585105408	66	4714
2026-01-28 02:33:05.08	12.87	66.70	-48.3	-49.9	22.4	6.05e-01	0	43	0	587202560	67	4532
2026-01-28 02:33:06.08	12.52	67.23	-48.9	-50.7	21.6	6.02e-01	0	43	0	589299712	68	4693
2026-01-28 02:33:07.09	12.14	67.76	-48.8	-50.6	21.7	6.02e-01	0	43	0	590872576	68	4631
2026-01-28 02:33:08.10	11.75	68.29	-49.5	-51.5	20.8	6.05e-01	0	43	0	592969728	69	4855
2026-01-28 02:33:09.10	11.34	68.83	-49.2	-51.2	21.1	6.04e-01	0	43	0	595066880	69	4665
2026-01-28 02:33:10.11	10.90	69.37	-48.9	-50.8	21.5	6.02e-01	0	43	0	596639744	69	4459
2026-01-28 02:33:11.12	10.43	69.91	-49.5	-51.5	20.8	6.04e-01	0	43	0	598736896	69	4838
2026-01-28 02:33:12.13	9.94	70.45	-49.0	-50.8	21.4	6.05e-01	0	43	0	600309760	69	4477
2026-01-28 02:33:13.13	9.42	70.99	-49.1	-51.0	21.3	6.02e-01	0	43	0	602406912	69	4560
2026-01-28 02:33:14.14	8.86	71.54	-48.6	-50.3	22.0	6.03e-01	0	43	0	603979776	69	4213
2026-01-28 02:33:15.15	8.27	72.09	-48.3	-50.0	22.2	6.05e-01	0	43	0	606076928	68	4310
2026-01-28 02:33:16.16	7.64	72.64	-48.1	-49.7	22.5	6.04e-01	0	43	0	608174080	68	4173
2026-01-28 02:33:17.17	6.96	73.19	-48.1	-49.8	22.6	6.03e-01	0	43	0	609746944	67	4442
2026-01-28 02:33:18.17	6.24	73.73	-48.0	-49.6	22.7	6.06e-01	0	43	0	611844096	67	4370
2026-01-28 02:33:19.18	5.46	74.28	-48.2	-49.8	22.5	6.04e-01	0	43	0	613941248	67	4482
2026-01-28 02:33:20.19	4.63	74.83	-48.0	-49.6	22.7	6.03e-01	0	43	0	615514112	67	4385
2026-01-28 02:33:21.20	3.72	75.38	-48.0	-49.6	22.8	6.03e-01	0	43	0	617611264	67	4359
2026-01-28 02:33:22.21	2.74	75.93	-48.7	-50.5	21.7	6.03e-01	0	43	0	619184128	68	4556
2026-01-28 02:33:23.22	1.69	76.47	-48.3	-50.0	22.3	6.05e-01	0	43	0	621281280	68	4311
2026-01-28 02:33:24.22	0.55	77.01	-47.6	-49.2	23.2	6.04e-01	0	43	0	623378432	67	4147
2026-01-28 02:33:25.23	359.29	77.55	-47.7	-49.2	23.1	6.00e-01	0	43	0	624951296	67	4169
2026-01-28 02:33:26.24	357.92	78.08	-47.3	-48.8	23.2	6.02e-01	0	43	0	627048448	66	4227
2026-01-28 02:33:27.25	356.42	78.61	-46.8	-48.2	24.0	6.03e-01	0	43	0	628621312	65	4164
2026-01-28 02:33:28.25	354.78	79.13	-46.9	-48.4	23.8	6.06e-01	0	43	0	630718464	65	4254
2026-01-28 02:33:29.26	352.97	79.64	-46.6	-47.9	24.2	6.02e-01	0	43	0	632291328	65	4051
2026-01-28 02:33:30.27	350.96	80.14	-45.6	-46.9	25.3	6.02e-01	0	43	0	634388480	63	4010
2026-01-28 02:33:31.28	348.73	80.64	-45.8	-47.0	25.3	6.04e-01	0	43	0	636485632	63	4079
2026-01-28 02:33:32.29	346.25	81.11	-45.9	-47.2	25.0	6.02e-01	0	43	0	638582784	63	4187
2026-01-28 02:33:33.29	343.52	81.57	-45.4	-46.6	25.7	6.05e-01	0	43	0	640155648	62	4137
2026-01-28 02:33:34.30	340.45	82.01	-46.4	-47.7	24.6	6.05e-01	0	43	0	642252800	63	4433
2026-01-28 02:33:35.31	337.04	82.42	-45.8	-47.0	25.3	6.02e-01	0	43	0	643825664	63	4088
2026-01-28 02:33:36.32	333.23	82.81	-46.1	-47.4	25.0	6.03e-01	0	43	0	645922816	63	4265
2026-01-28 02:33:37.33	329.01	83.16	-46.1	-47.4	25.0	6.04e-01	0	43	0	647495680	63	4249
2026-01-28 02:33:38.33	324.40	83.47	-46.2	-47.5	24.7	6.05e-01	0	43	0	649592832	63	4308
2026-01-28 02:33:39.34	319.32	83.73	-45.9	-47.2	25.0	6.02e-01	0	43	0	651689984	63	4173
2026-01-28 02:33:40.35	313.84	83.94	-46.3	-47.7	24.6	6.05e-01	0	43	0	653262848	63	4408
2026-01-28 02:33:41.36	308.01	84.10	-45.9	-47.2	25.1	6.04e-01	0	43	0	655360000	63	4171
2026-01-28 02:33:42.37	301.93	84.19	-45.8	-47.0	25.1	6.01e-01	0	43	0	656932864	63	4097
2026-01-28 02:33:43.37	295.80	84.21	-45.7	-47.0	25.3	6.04e-01	0	43	0	659030016	63	4052
2026-01-28 02:33:44.38	289.63	84.17	-45.8	-47.0	25.3	6.02e-01	0	43	0	661127168	63	4084
2026-01-28 02:33:45.39	283.61	84.06	-45.6	-46.8	25.5	6.01e-01	0	43	0	662700032	62	4235
2026-01-28 02:33:46.40	277.88	83.88	-45.7	-47.0	25.3	6.03e-01	0	43	0	664797184	62	4302
2026-01-28 02:33:47.41	272.52	83.66	-46.0	-47.3	25.1	6.04e-01	0	43	0	666894336	62	4455
2026-01-28 02:33:48.41	267.62	83.38	-46.4	-47.7	24.7	6.02e-01	0	43	0	668467200	63	4419
2026-01-28 02:33:49.42	263.10	83.05	-46.1	-47.4	24.9	6.02e-01	0	43	0	670564352	63	4267
2026-01-28 02:33:50.43	259.01	82.69	-45.7	-47.0	25.3	6.04e-01	0	43	0	672137216	63	4053
2026-01-28 02:33:51.43	255.36	82.30	-46.4	-47.8	24.6	6.01e-01	0	43	0	674234368	63	4447
2026-01-28 02:33:52.44	252.05	81.88	-45.3	-46.5	25.7	6.02e-01	0	43	0	675807232	62	4061
2026-01-28 02:33:53.45	249.08	81.43	-45.8	-47.0	25.3	6.01e-01	0	43	0	677904384	62	4338
2026-01-28 02:33:54.46	246.42	80.96	-45.6	-46.9	25.4	6.05e-01	0	43	0	680001536	62	4261
2026-01-28 02:33:55.47	244.02	80.48	-45.3	-46.5	25.7	6.02e-01	0	43	0	681574400	62	4092
2026-01-28 02:33:56.47	241.88	79.99	-45.8	-47.0	25.3	6.03e-01	0	43	0	683671552	62	4328
2026-01-28 02:33:57.48	239.93	79.48	-46.6	-47.9	24.4	6.03e-01	0	43	0	685768704	63	4541
2026-01-28 02:33:58.48	238.19	78.97	-46.4	-47.7	24.6	6.03e-01	0	43	0	687341568	63	4435
2026-01-28 02:33:59.49	236.58	78.45	-46.5	-47.8	24.5	6.04e-01	0	43	0	689438720	63	4484
2026-01-28 02:34:00.50	235.12	77.92	-47.5	-49.0	23.3	6.03e-01	0	43	0	691011584	65	4575
2026-01-28 02:34:01.51	233.79	77.38	-47.2	-48.7	23.6	6.05e-01	0	43	0	693108736	65	4398
2026-01-28 02:34:02.52	232.57	76.84	-48.0	-49.6	22.8	6.04e-01	0	43	0	695205888	66	4612
2026-01-28 02:34:03.53	231.44	76.30	-48.2	-49.8	22.6	6.03e-01	0	43	0	696778752	67	4472
2026-01-28 02:34:04.53	230.42	75.76	-48.6	-50.4	22.1	6.01e-01	0	43	0	698875904	67	4764
2026-01-28 02:34:05.54	229.47	75.21	-48.3	-49.9	22.2	6.03e-01	0	43	0	700448768	68	4276
2026-01-28 02:34:06.55	228.58	74.66	-48.1	-49.7	22.7	6.05e-01	0	43	0	702545920	67	4426
2026-01-28 02:34:07.57	227.76	74.10	-48.5	-50.3	22.2	6.06e-01	0	43	0	704118784	67	4720
2026-01-28 02:34:08.57	227.00	73.56	-48.4	-50.2	22.1	6.02e-01	0	43	0	706215936	68	4393
2026-01-28 02:34:09.58	226.29	73.01	-48.0	-49.5	22.9	6.02e-01	0	43	0	708313088	67	4326
2026-01-28 02:34:10.59	225.63	72.46	-48.4	-50.1	22.3	6.02e-01	0	43	0	710410240	67	4651
2026-01-28 02:34:11.59	225.01	71.91	-48.6	-50.4	21.9	6.05e-01	0	43	0	711983104	68	4520
2026-01-28 02:34:12.60	224.43	71.36	-48.2	-49.8	22.6	6.06e-01	0	43	0	714080256	67	4450
2026-01-28 02:34:13.61	223.89	70.82	-48.5	-50.2	22.3	6.03e-01	0	43	0	715653120	67	4664
2026-01-28 02:34:14.62	223.37	70.27	-49.5	-51.5	20.9	6.05e-01	0	43	0	717750272	69	4862
2026-01-28 02:34:15.63	222.89	69.73	-49.7	-51.7	20.5	6.04e-01	0	43	0	719323136	70	4679
2026-01-28 02:34:16.64	222.43	69.18	-49.0	-50.8	21.6	6.07e-01	0	43	0	721420288	69	4459
2026-01-28 02:34:17.64	222.00	68.65	-50.2	-52.4	20.0	6.03e-01	0	43	0	723517440	70	5092
2026-01-28 02:34:18.65	221.59	68.11	-50.3	-52.7	19.6	6.03e-01	0	43	0	725090304	71	4946
2026-01-28 02:34:19.66	221.21	67.58	-49.1	-51.0	21.4	6.02e-01	0	43	0	727187456	70	4296
2026-01-28 02:34:20.67	220.84	67.04	-49.4	-51.3	21.0	6.04e-01	0	43	0	728760320	70	4483
2026-01-28 02:34:21.67	220.49	66.52	-49.7	-51.8	20.5	6.04e-01	0	43	0	730857472	70	4742
2026-01-28 02:34:22.68	220.16	65.99	-48.4	-50.1	22.2	6.03e-01	0	43	0	732954624	68	4359
2026-01-28 02:34:23.69	219.84	65.46	-48.2	-49.8	22.5	6.00e-01	0	43	0	734527488	68	4206
2026-01-28 02:34:24.70	219.54	64.94	-48.2	-49.8	22.5	6.03e-01	0	43	0	736624640	68	4235
2026-01-28 02:34:25.71	219.25	64.42	-48.1	-49.7	22.6	6.04e-01	0	43	0	738721792	68	4189
2026-01-28 02:34:26.70	218.98	63.92	-47.9	-49.5	22.9	6.01e-01	0	43	0	740294656	67	4316
2026-01-28 02:34:27.72	218.72	63.40	-46.8	-48.2	24.1	6.03e-01	0	43	0	742391808	65	4169
2026-01-28 02:34:28.72	218.47	62.90	-46.6	-48.0	24.3	6.03e-01	0	43	0	743964672	65	4054
2026-01-28 02:34:29.73	218.23	62.39	-47.1	-48.6	23.7	6.03e-01	0	43	0	746061824	65	4367
2026-01-28 02:34:30.73	218.00	61.89	-47.5	-49.1	23.2	6.04e-01	0	43	0	747634688	65	4614
2026-01-28 02:34:31.74	217.78	61.39	-46.7	-48.0	24.2	6.02e-01	0	43	0	749731840	65	4089
2026-01-28 02:34:32.75	217.57	60.90	-46.2	-47.6	24.6	6.03e-01	0	43	0	751828992	64	4100
2026-01-28 02:34:33.76	217.36	60.41	-46.2	-47.5	24.7	6.05e-01	0	43	0	753401856	64	4074
2026-01-28 02:34:34.76	217.17	59.92	-46.5	-47.9	24.3	6.05e-01	0	43	0	755499008	64	4243
2026-01-28 02:34:35.77	216.98	59.44	-46.2	-47.5	24.6	6.03e-01	0	43	0	757071872	64	4086
2026-01-28 02:34:36.77	216.80	58.96	-45.5	-46.8	24.8	6.05e-01	0	43	0	759169024	63	3977
2026-01-28 02:34:37.78	216.62	58.48	-45.6	-46.9	25.2	6.03e-01	0	43	0	761266176	63	4014
2026-01-28 02:34:38.79	216.45	58.01	-45.6	-46.8	25.4	6.04e-01	0	43	0	762839040	62	4212
2026-01-28 02:34:39.80	216.29	57.54	-45.3	-46.5	25.6	6.02e-01	0	43	0	764936192	62	4093
2026-01-28 02:34:40.81	216.13	57.07	-45.2	-46.4	25.6	6.03e-01	0	43	0	767033344	62	4041
2026-01-28 02:34:41.82	215.98	56.61	-45.0	-46.2	25.9	6.05e-01	0	43	0	768606208	62	3931
2026-01-28 02:34:42.83	215.83	56.15	-44.6	-45.7	26.3	6.04e-01	0	43	0	770703360	61	3943
2026-01-28 02:34:43.84	215.69	55.70	-44.5	-45.6	26.4	6.02e-01	0	43	0	772276224	60	4133
2026-01-28 02:34:44.84	215.56	55.25	-44.5	-45.6	26.5	6.03e-01	0	43	0	774373376	60	4118
2026-01-28 02:34:45.85	215.42	54.80	-44.0	-45.1	26.9	6.07e-01	0	43	0	775946240	60	3897
2026-01-28 02:34:46.86	215.29	54.36	-44.0	-45.1	26.8	5.99e-01	0	43	0	778043392	59	4103
2026-01-28 02:34:47.87	215.17	53.92	-44.2	-45.3	26.6	6.01e-01	0	43	0	780140544	59	4219
2026-01-28 02:34:48.87	215.05	53.49	-44.1	-45.2	26.6	6.05e-01	0	43	0	781713408	59	4165
2026-01-28 02:34:49.88	214.93	53.05	-43.7	-44.8	27.0	6.04e-01	0	43	0	783810560	59	3985
2026-01-28 02:34:50.89	214.82	52.62	-43.8	-44.9	26.9	6.02e-01	0	43	0	785907712	59	4037
2026-01-28 02:34:51.90	214.71	52.20	-44.0	-45.1	26.7	6.04e-01	0	43	0	787480576	59	4142
2026-01-28 02:34:52.91	214.60	51.78	-44.2	-45.3	26.5	6.03e-01	0	43	0	789577728	59	4232
2026-01-28 02:34:53.91	214.50	51.36	-44.4	-45.6	26.3	6.04e-01	0	43	0	791150592	59	4345
2026-01-28 02:34:54.91	214.40	50.95	-44.5	-45.7	26.2	6.01e-01	0	43	0	793247744	59	4410
2026-01-28 02:34:55.92	214.30	50.54	-44.7	-45.9	26.0	6.06e-01	0	43	0	795344896	59	4503
2026-01-28 02:34:56.93	214.21	50.14	-44.6	-45.8	26.1	6.03e-01	0	43	0	796917760	59	4461
2026-01-28 02:34:57.93	214.11	49.74	-44.5	-45.7	26.3	5.99e-01	0	43	0	799014912	60	4154
2026-01-28 02:34:58.94	214.02	49.34	-44.8	-45.9	26.0	6.04e-01	0	43	0	800587776	60	4285
2026-01-28 02:34:59.95	213.94	48.94	-44.9	-46.1	25.8	6.05e-01	0	43	0	802684928	60	4371
2026-01-28 02:35:00.96	213.85	48.55	-44.8	-45.9	26.0	6.04e-01	0	43	0	804257792	60	4291
2026-01-28 02:35:01.97	213.77	48.16	-44.9	-46.0	25.9	6.03e-01	0	43	0	806354944	60	4340
2026-01-28 02:35:02.97	213.69	47.78	-45.0	-46.2	25.8	6.05e-01	0	43	0	808452096	60	4414
2026-01-28 02:35:03.98	213.61	47.40	-45.0	-46.1	25.8	6.04e-01	0	43	0	810024960	60	4388
2026-01-28 02:35:04.99	213.53	47.02	-44.7	-45.9	26.0	6.04e-01	0	43	0	812122112	60	4256
2026-01-28 02:35:06.00	213.46	46.64	-44.7	-45.8	26.0	6.03e-01	0	43	0	814219264	60	4235
2026-01-28 02:35:07.01	213.38	46.27	-44.7	-45.9	26.0	6.05e-01	0	43	0	815792128	60	4247
2026-01-28 02:35:08.01	213.31	45.91	-44.8	-46.0	25.9	6.04e-01	0	43	0	817889280	60	4319
2026-01-28 02:35:09.02	213.24	45.54	-44.8	-46.0	25.9	6.08e-01	0	43	0	819462144	60	4327
2026-01-28 02:35:10.03	213.18	45.18	-44.8	-46.0	25.9	6.05e-01	0	43	0	821559296	60	4333
2026-01-28 02:35:11.04	213.11	44.82	-44.8	-46.0	25.9	6.02e-01	0	43	0	823656448	60	4308
2026-01-28 02:35:12.04	213.05	44.47	-44.8	-46.0	25.8	6.06e-01	0	43	0	825229312	60	4313
2026-01-28 02:35:13.05	212.98	44.12	-44.5	-45.6	26.2	6.04e-01	0	43	0	827326464	60	4132
2026-01-28 02:35:14.05	212.92	43.78	-44.5	-45.6	26.3	6.00e-01	0	43	0	828899328	60	4121
2026-01-28 02:35:15.06	212.86	43.43	-44.6	-45.7	26.1	6.01e-01	0	43	0	830996480	60	4168
2026-01-28 02:35:16.07	212.80	43.09	-44.9	-46.1	25.7	6.04e-01	0	43	0	833093632	60	4352
2026-01-28 02:35:17.08	212.74	42.75	-45.3	-46.5	25.4	6.03e-01	0	43	0	834666496	61	4336
2026-01-28 02:35:18.09	212.69	42.42	-45.4	-46.6	25.3	6.04e-01	0	43	0	836763648	61	4378
2026-01-28 02:35:19.10	212.63	42.08	-45.3	-46.6	25.4	6.03e-01	0	43	0	838336512	61	4362
2026-01-28 02:35:20.10	212.58	41.76	-45.3	-46.6	25.4	6.03e-01	0	43	0	840433664	61	4349
2026-01-28 02:35:21.11	212.53	41.43	-45.4	-46.6	25.4	6.03e-01	0	43	0	842530816	61	4355
2026-01-28 02:35:22.12	212.47	41.11	-45.3	-46.5	25.4	6.03e-01	0	43	0	844103680	61	4335
2026-01-28 02:35:23.13	212.42	40.79	-45.6	-46.8	25.1	6.03e-01	0	43	0	846200832	61	4468
2026-01-28 02:35:24.14	212.38	40.47	-45.8	-47.1	24.9	6.05e-01	0	43	0	847773696	62	4378
2026-01-28 02:35:25.14	212.33	40.16	-46.1	-47.4	24.6	6.03e-01	0	43	0	849870848	62	4529
2026-01-28 02:35:26.15	212.28	39.85	-46.3	-47.6	24.4	6.02e-01	0	43	0	851968000	63	4388
2026-01-28 02:35:27.16	212.23	39.54	-46.4	-47.7	24.2	6.02e-01	0	43	0	853540864	63	4437
2026-01-28 02:35:28.17	212.19	39.23	-46.2	-47.5	24.4	6.03e-01	0	43	0	855638016	63	4330
2026-01-28 02:35:29.18	212.14	38.93	-46.0	-47.3	24.7	6.05e-01	0	43	0	857735168	63	4200
2026-01-28 02:35:30.19	212.10	38.63	-45.9	-47.2	24.7	6.04e-01	0	43	0	859308032	63	4181
2026-01-28 02:35:31.20	212.06	38.33	-46.0	-47.3	24.7	6.03e-01	0	43	0	861405184	63	4201
2026-01-28 02:35:32.21	212.02	38.04	-46.2	-47.6	24.4	6.04e-01	0	43	0	862978048	63	4343
2026-01-28 02:35:33.22	211.97	37.75	-46.4	-47.8	24.2	6.02e-01	0	43	0	865075200	63	4492
2026-01-28 02:35:34.22	211.93	37.46	-46.6	-48.0	23.9	6.04e-01	0	43	0	866648064	63	4595
2026-01-28 02:35:35.23	211.90	37.17	-46.6	-48.0	24.0	6.02e-01	0	43	0	868745216	63	4591
2026-01-28 02:35:36.24	211.86	36.89	-46.5	-47.9	24.1	6.00e-01	0	43	0	870842368	63	4506
2026-01-28 02:35:37.25	211.82	36.61	-46.2	-47.5	24.3	6.04e-01	0	43	0	872415232	63	4336
2026-01-28 02:35:38.26	211.78	36.33	-46.0	-47.3	24.5	6.05e-01	0	43	0	874512384	63	4233
2026-01-28 02:35:39.26	211.75	36.05	-45.9	-47.2	24.7	6.01e-01	0	43	0	876085248	63	4154
2026-01-28 02:35:40.27	211.71	35.78	-45.7	-46.9	25.0	6.04e-01	0	43	0	878182400	63	4040
2026-01-28 02:35:41.28	211.67	35.51	-45.6	-46.9	25.0	6.01e-01	0	43	0	880279552	63	4010
2026-01-28 02:35:42.28	211.64	35.24	-45.3	-46.5	25.3	6.01e-01	0	43	0	881852416	62	4096
2026-01-28 02:35:43.29	211.61	34.97	-45.1	-46.4	25.5	6.01e-01	0	43	0	883949568	62	4014
2026-01-28 02:35:44.30	211.57	34.71	-45.1	-46.3	25.5	6.02e-01	0	43	0	886046720	62	3996
2026-01-28 02:35:45.31	211.54	34.45	-44.9	-46.1	25.7	6.03e-01	0	43	0	887619584	61	4133
2026-01-28 02:35:46.31	211.51	34.19	-44.9	-46.2	25.7	6.04e-01	0	43	0	889716736	61	4149
2026-01-28 02:35:47.32	211.48	33.93	-44.9	-46.1	25.7	6.03e-01	0	43	0	891289600	61	4121
2026-01-28 02:35:48.33	211.45	33.68	-44.7	-45.9	25.9	6.04e-01	0	43	0	893386752	61	4027
2026-01-28 02:35:49.34	211.42	33.42	-44.5	-45.6	26.1	6.03e-01	0	43	0	894959616	61	3910
2026-01-28 02:35:50.34	211.39	33.17	-44.5	-45.7	26.0	6.01e-01	0	43	0	897056768	60	4159
2026-01-28 02:35:51.35	211.36	32.93	-44.5	-45.6	26.1	6.02e-01	0	43	0	899153920	60	4138
2026-01-28 02:35:52.36	211.33	32.68	-44.3	-45.4	26.3	6.04e-01	0	43	0	900726784	60	4037
2026-01-28 02:35:53.37	211.30	32.43	-44.1	-45.2	26.4	6.05e-01	0	43	0	902823936	60	3938
2026-01-28 02:35:54.37	211.27	32.19	-44.0	-45.2	26.5	6.03e-01	0	43	0	904396800	60	3914
2026-01-28 02:35:55.38	211.25	31.95	-44.1	-45.2	26.2	6.05e-01	0	43	0	906493952	59	4174
2026-01-28 02:35:56.39	211.22	31.72	-44.0	-45.1	26.4	6.02e-01	0	43	0	908591104	59	4112
2026-01-28 02:35:57.39	211.19	31.48	-43.9	-45.0	26.5	6.02e-01	0	43	0	910163968	59	4068
2026-01-28 02:35:58.40	211.17	31.25	-43.9	-45.0	26.5	6.04e-01	0	43	0	912261120	59	4093
2026-01-28 02:35:59.41	211.14	31.02	-43.9	-45.0	26.5	6.03e-01	0	43	0	914358272	59	4085
2026-01-28 02:36:00.41	211.12	30.79	-43.9	-45.0	26.5	6.03e-01	0	43	0	915931136	59	4091
2026-01-28 02:36:01.42	211.09	30.56	-43.9	-45.1	26.5	6.02e-01	0	43	0	918028288	59	4105
2026-01-28 02:36:02.43	211.07	30.33	-44.0	-45.1	26.4	6.05e-01	0	43	0	919601152	59	4132
2026-01-28 02:36:03.44	211.04	30.11	-43.9	-45.0	26.5	6.04e-01	0	43	0	921698304	59	4098
2026-01-28 02:36:04.44	211.02	29.89	-43.8	-44.9	26.5	6.04e-01	0	43	0	923271168	59	4043
2026-01-28 02:36:05.44	211.00	29.67	-43.8	-44.9	26.6	6.02e-01	0	43	0	925368320	59	4011
2026-01-28 02:36:06.45	210.97	29.45	-43.7	-44.8	26.6	6.04e-01	0	43	0	927465472	59	4000
2026-01-28 02:36:07.46	210.95	29.23	-43.9	-45.0	26.5	6.02e-01	0	43	0	929038336	59	4081
2026-01-28 02:36:08.47	210.93	29.02	-43.9	-45.1	26.5	6.06e-01	0	43	0	931135488	59	4100
2026-01-28 02:36:09.48	210.91	28.80	-44.0	-45.2	26.3	6.05e-01	0	43	0	933232640	59	4161
2026-01-28 02:36:10.49	210.89	28.59	-44.2	-45.3	26.2	6.02e-01	0	43	0	934805504	59	4233
2026-01-28 02:36:11.50	210.87	28.38	-44.2	-45.3	26.2	6.03e-01	0	43	0	936902656	59	4241
2026-01-28 02:36:12.51	210.84	28.17	-44.3	-45.5	25.9	6.03e-01	0	43	0	938475520	59	4323
2026-01-28 02:36:13.51	210.82	27.97	-44.4	-45.6	25.9	6.02e-01	0	43	0	940572672	59	4362
2026-01-28 02:36:14.52	210.80	27.76	-44.5	-45.7	25.8	6.04e-01	0	43	0	942669824	59	4402
2026-01-28 02:36:15.53	210.79	27.56	-44.6	-45.8	25.6	6.04e-01	0	43	0	944242688	59	4473
2026-01-28 02:36:16.54	210.77	27.36	-44.7	-45.9	25.6	6.04e-01	0	43	0	946339840	59	4518
2026-01-28 02:36:17.55	210.75	27.15	-44.7	-45.9	25.7	6.03e-01	0	43	0	947912704	60	4255
2026-01-28 02:36:18.56	210.73	26.96	-44.7	-45.9	25.7	6.04e-01	0	43	0	950009856	60	4270
2026-01-28 02:36:19.57	210.71	26.76	-44.6	-45.9	25.7	6.03e-01	0	43	0	951582720	60	4253
2026-01-28 02:36:20.57	210.69	26.56	-44.6	-45.8	25.7	6.04e-01	0	43	0	953679872	60	4220
2026-01-28 02:36:21.58	210.67	26.37	-44.6	-45.8	25.8	6.06e-01	0	43	0	955777024	60	4209
2026-01-28 02:36:22.59	210.66	26.18	-44.4	-45.5	25.9	6.05e-01	0	43	0	957874176	60	4098
2026-01-28 02:36:23.60	210.64	25.99	-44.4	-45.6	26.0	6.03e-01	0	43	0	959447040	60	4102
2026-01-28 02:36:24.61	210.62	25.80	-44.3	-45.4	26.1	6.03e-01	0	43	0	961544192	60	4043
2026-01-28 02:36:25.62	210.60	25.61	-44.4	-45.5	26.0	6.02e-01	0	43	0	963117056	60	4091
2026-01-28 02:36:26.63	210.59	25.42	-44.4	-45.5	26.0	6.02e-01	0	43	0	965214208	60	4093
2026-01-28 02:36:27.64	210.57	25.23	-44.4	-45.5	26.0	6.02e-01	0	43	0	966787072	60	4085
2026-01-28 02:36:28.65	210.55	25.05	-44.4	-45.6	26.0	6.03e-01	0	43	0	968884224	60	4114
2026-01-28 02:36:29.65	210.54	24.87	-44.5	-45.7	25.8	6.01e-01	0	43	0	970981376	60	4182
2026-01-28 02:36:30.66	210.52	24.69	-44.5	-45.7	25.9	6.04e-01	0	43	0	972554240	60	4166
2026-01-28 02:36:31.67	210.51	24.51	-44.6	-45.8	25.8	6.04e-01	0	43	0	974651392	60	4206
2026-01-28 02:36:32.68	210.49	24.33	-44.7	-45.9	25.7	6.03e-01	0	43	0	976748544	60	4248
2026-01-28 02:36:33.69	210.48	24.15	-44.6	-45.8	25.7	6.03e-01	0	43	0	978321408	60	4234
2026-01-28 02:36:34.69	210.46	23.98	-44.6	-45.8	25.7	6.02e-01	0	43	0	980418560	60	4235
2026-01-28 02:36:35.70	210.45	23.80	-44.8	-46.0	25.6	6.05e-01	0	43	0	981991424	60	4319
2026-01-28 02:36:36.71	210.43	23.63	-44.8	-46.0	25.6	6.02e-01	0	43	0	984088576	60	4323
2026-01-28 02:36:37.72	210.42	23.45	-44.9	-46.1	25.5	6.05e-01	0	43	0	986185728	60	4374
2026-01-28 02:36:38.73	210.41	23.28	-44.9	-46.1	25.4	6.04e-01	0	43	0	987758592	60	4387
2026-01-28 02:36:39.73	210.39	23.11	-45.0	-46.2	25.3	6.04e-01	0	43	0	989855744	60	4426
2026-01-28 02:36:40.74	210.38	22.95	-45.0	-46.2	25.3	6.04e-01	0	43	0	991428608	60	4440
2026-01-28 02:36:41.74	210.36	22.78	-45.0	-46.3	25.3	6.02e-01	0	43	0	993525760	60	4461
2026-01-28 02:36:42.75	210.35	22.61	-45.0	-46.3	25.3	6.04e-01	0	43	0	995098624	60	4442
2026-01-28 02:36:43.75	210.34	22.45	-45.1	-46.4	25.1	6.02e-01	0	43	0	997195776	60	4499
2026-01-28 02:36:44.76	210.33	22.29	-45.1	-46.4	25.1	6.05e-01	0	43	0	999292928	60	4496
2026-01-28 02:36:45.77	210.31	22.12	-45.0	-46.3	25.2	6.05e-01	0	43	0	1000865792	60	4468
2026-01-28 02:36:46.78	210.30	21.96	-45.1	-46.4	25.2	6.02e-01	0	43	0	1002962944	60	4494
2026-01-28 02:36:47.78	210.29	21.80	-45.0	-46.2	25.2	6.03e-01	0	43	0	1005060096	60	4426
2026-01-28 02:36:48.79	210.28	21.64	-45.0	-46.2	25.2	6.05e-01	0	43	0	1006632960	60	4428
2026-01-28 02:36:49.80	210.26	21.48	-44.9	-46.2	25.3	6.02e-01	0	43	0	1008730112	60	4393
2026-01-28 02:36:50.81	210.25	21.33	-44.9	-46.1	25.3	6.03e-01	0	43	0	1010302976	60	4386
2026-01-28 02:36:51.81	210.24	21.17	-44.8	-46.1	25.4	6.03e-01	0	43	0	1012400128	60	4341
2026-01-28 02:36:52.82	210.23	21.02	-44.8	-46.0	25.4	6.03e-01	0	43	0	1014497280	60	4324
2026-01-28 02:36:53.83	210.22	20.86	-44.7	-46.0	25.5	6.01e-01	0	43	0	1016070144	60	4304
2026-01-28 02:36:54.84	210.21	20.71	-44.7	-46.0	25.5	6.04e-01	0	43	0	1018167296	60	4295
2026-01-28 02:36:55.84	210.20	20.56	-44.7	-45.9	25.6	6.04e-01	0	43	0	1019740160	60	4251
2026-01-28 02:36:56.85	210.19	20.41	-44.5	-45.7	25.6	6.03e-01	0	43	0	1021837312	60	4192
2026-01-28 02:36:57.86	210.17	20.25	-44.5	-45.7	25.7	6.02e-01	0	43	0	1023410176	60	4172
2026-01-28 02:36:58.87	210.16	20.11	-44.6	-45.8	25.6	6.05e-01	0	43	0	1025507328	60	4208
2026-01-28 02:36:59.88	210.15	19.96	-44.4	-45.5	25.9	6.02e-01	0	43	0	1027604480	60	4088
2026-01-28 02:37:00.89	210.14	19.81	-44.4	-45.6	25.8	6.03e-01	0	43	0	1029701632	60	4100
2026-01-28 02:37:01.89	210.13	19.66	-44.3	-45.5	25.9	6.04e-01	0	43	0	1031274496	60	4063
2026-01-28 02:37:02.90	210.12	19.52	-44.4	-45.6	25.8	6.03e-01	0	43	0	1033371648	60	4119
2026-01-28 02:37:03.91	210.11	19.37	-44.3	-45.5	25.9	6.01e-01	0	43	0	1034944512	60	4086
2026-01-28 02:37:04.92	210.10	19.23	-44.4	-45.6	25.8	6.01e-01	0	43	0	1037041664	60	4104
2026-01-28 02:37:05.92	210.09	19.09	-44.4	-45.6	25.8	6.02e-01	0	43	0	1038614528	60	4116
2026-01-28 02:37:06.93	210.08	18.95	-44.4	-45.6	25.8	6.04e-01	0	43	0	1040711680	60	4133
2026-01-28 02:37:07.94	210.08	18.81	-44.5	-45.7	25.7	6.04e-01	0	43	0	1042808832	60	4177
2026-01-28 02:37:08.95	210.07	18.67	-44.6	-45.8	25.6	6.03e-01	0	43	0	1044381696	60	4213
2026-01-28 02:37:09.96	210.06	18.53	-44.5	-45.8	25.6	6.03e-01	0	43	0	1046478848	60	4197
2026-01-28 02:37:10.96	210.05	18.39	-44.6	-45.9	25.5	6.00e-01	0	43	0	1048051712	60	4259
2026-01-28 02:37:11.97	210.04	18.25	-44.7	-45.9	25.5	6.02e-01	0	43	0	1050148864	60	4282
2026-01-28 02:37:12.97	210.03	18.12	-44.7	-45.9	25.5	6.01e-01	0	43	0	1052246016	60	4280
2026-01-28 02:37:13.98	210.02	17.98	-44.7	-46.0	25.4	6.03e-01	0	43	0	1053818880	60	4293
2026-01-28 02:37:14.99	210.01	17.85	-44.8	-46.0	25.4	6.02e-01	0	43	0	1055916032	60	4332
2026-01-28 02:37:16.00	210.00	17.71	-44.8	-46.0	25.4	6.02e-01	0	43	0	1058013184	60	4331
2026-01-28 02:37:17.01	210.00	17.58	-44.8	-46.0	25.4	6.05e-01	0	43	0	1059586048	60	4328
2026-01-28 02:37:18.01	209.99	17.45	-44.8	-46.1	25.3	6.01e-01	0	43	0	1061683200	60	4341
2026-01-28 02:37:19.02	209.98	17.31	-44.8	-46.1	25.3	6.04e-01	0	43	0	1063256064	60	4364
2026-01-28 02:37:20.03	209.97	17.18	-44.8	-46.1	25.3	6.04e-01	0	43	0	1065353216	60	4362
2026-01-28 02:37:21.04	209.96	17.05	-44.8	-46.1	25.3	6.04e-01	0	43	0	1066926080	60	4374
2026-01-28 02:37:22.04	209.96	16.92	-44.9	-46.2	25.2	6.02e-01	0	43	0	1069023232	60	4417
2026-01-28 02:37:23.05	209.95	16.80	-44.8	-46.1	25.2	6.01e-01	0	43	0	1071120384	60	4370
2026-01-28 02:37:24.05	209.94	16.67	-44.9	-46.2	25.2	6.05e-01	0	43	0	1072693248	60	4410
2026-01-28 02:37:25.06	209.93	16.54	-44.9	-46.2	25.1	6.04e-01	0	43	0	1074790400	60	4412
2026-01-28 02:37:26.07	209.93	16.41	-44.8	-46.1	25.2	6.02e-01	0	43	0	1076363264	60	4345
2026-01-28 02:37:27.08	209.92	16.29	-44.8	-46.1	25.2	6.03e-01	0	43	0	1078460416	60	4379
2026-01-28 02:37:28.08	209.91	16.16	-44.8	-46.1	25.2	6.03e-01	0	43	0	1080557568	60	4364
2026-01-28 02:37:29.09	209.91	16.04	-44.8	-46.1	25.2	6.01e-01	0	43	0	1082130432	60	4381
2026-01-28 02:37:30.10	209.90	15.92	-44.8	-46.1	25.2	6.04e-01	0	43	0	1084227584	60	4360
2026-01-28 02:37:31.11	209.89	15.79	-44.9	-46.1	25.1	6.06e-01	0	43	0	1086324736	60	4385
2026-01-28 02:37:32.11	209.88	15.67	-44.9	-46.1	25.0	6.04e-01	0	43	0	1087897600	60	4390
2026-01-28 02:37:33.12	209.88	15.55	-44.9	-46.2	25.1	6.04e-01	0	43	0	1089994752	60	4395
2026-01-28 02:37:34.13	209.87	15.43	-44.9	-46.2	25.0	6.03e-01	0	43	0	1091567616	60	4416
2026-01-28 02:37:35.13	209.86	15.31	-44.8	-46.1	25.0	6.04e-01	0	43	0	1093664768	60	4382
2026-01-28 02:37:36.14	209.86	15.19	-44.7	-46.0	25.2	6.03e-01	0	43	0	1095237632	60	4321
2026-01-28 02:37:37.15	209.85	15.07	-44.9	-46.1	25.0	6.03e-01	0	43	0	1097334784	60	4387
2026-01-28 02:37:38.16	209.85	14.95	-44.8	-46.1	25.0	6.03e-01	0	43	0	1099431936	60	4360
2026-01-28 02:37:39.17	209.84	14.83	-44.9	-46.2	24.9	6.03e-01	0	43	0	1101004800	60	4408
2026-01-28 02:37:40.17	209.83	14.72	-44.7	-45.9	25.2	6.02e-01	0	43	0	1103101952	60	4287
2026-01-28 02:37:41.18	209.83	14.60	-44.7	-45.9	25.1	6.05e-01	0	43	0	1105199104	60	4275
2026-01-28 02:37:42.19	209.82	14.48	-44.6	-45.9	25.2	6.04e-01	0	43	0	1106771968	60	4247
2026-01-28 02:37:43.20	209.82	14.37	-44.6	-45.9	25.1	6.04e-01	0	43	0	1108869120	60	4257
2026-01-28 02:37:44.20	209.81	14.26	-44.6	-45.9	25.2	6.02e-01	0	43	0	1110441984	60	4244
2026-01-28 02:37:45.21	209.80	14.14	-44.7	-45.9	25.1	6.04e-01	0	43	0	1112539136	60	4271
2026-01-28 02:37:46.21	209.80	14.03	-44.6	-45.8	25.2	6.03e-01	0	43	0	1114636288	60	4239
2026-01-28 02:37:47.22	209.79	13.92	-44.6	-45.8	25.3	6.04e-01	0	43	0	1116209152	60	4220
2026-01-28 02:37:48.23	209.79	13.80	-44.6	-45.8	25.3	6.03e-01	0	43	0	1118306304	60	4228
2026-01-28 02:37:49.24	209.78	13.69	-44.5	-45.7	25.3	6.04e-01	0	43	0	1119879168	60	4192
2026-01-28 02:37:50.24	209.78	13.58	-44.5	-45.7	25.4	6.02e-01	0	43	0	1121976320	60	4183
2026-01-28 02:37:51.25	209.77	13.47	-44.5	-45.7	25.4	6.03e-01	0	43	0	1123549184	60	4188
2026-01-28 02:37:52.26	209.77	13.36	-44.5	-45.8	25.3	6.01e-01	0	43	0	1125646336	60	4197
2026-01-28 02:37:53.27	209.76	13.25	-44.4	-45.7	25.4	6.03e-01	0	43	0	1127743488	60	4151
2026-01-28 02:37:54.28	209.76	13.14	-44.5	-45.7	25.4	6.03e-01	0	43	0	1129840640	60	4159
2026-01-28 02:37:55.29	209.75	13.03	-44.5	-45.7	25.4	6.03e-01	0	43	0	1131413504	60	4160
2026-01-28 02:37:56.29	209.75	12.92	-44.5	-45.8	25.3	6.03e-01	0	43	0	1133510656	60	4194
2026-01-28 02:37:57.29	209.74	12.82	-44.6	-45.9	25.2	6.04e-01	0	43	0	1135083520	60	4244
2026-01-28 02:37:58.30	209.74	12.71	-44.5	-45.8	25.3	6.01e-01	0	43	0	1137180672	60	4199
2026-01-28 02:37:59.31	209.73	12.60	-44.4	-45.6	25.4	6.05e-01	0	43	0	1138753536	60	4138
2026-01-28 02:38:00.32	209.73	12.50	-44.5	-45.7	25.3	6.03e-01	0	43	0	1140850688	60	4174
2026-01-28 02:38:01.32	209.72	12.39	-44.6	-45.8	25.2	6.04e-01	0	43	0	1142947840	60	4217
2026-01-28 02:38:02.33	209.72	12.29	-44.5	-45.7	25.3	6.00e-01	0	43	0	1144520704	60	4175
2026-01-28 02:38:03.33	209.71	12.19	-44.5	-45.7	25.3	6.02e-01	0	43	0	1146617856	60	4171
2026-01-28 02:38:04.34	209.71	12.08	-44.5	-45.8	25.3	6.04e-01	0	43	0	1148190720	60	4196
2026-01-28 02:38:05.35	209.70	11.98	-44.6	-45.8	25.2	6.01e-01	0	43	0	1150287872	60	4222
2026-01-28 02:38:06.36	209.70	11.88	-44.6	-45.9	25.2	6.05e-01	0	43	0	1151860736	60	4243
2026-01-28 02:38:07.36	209.70	11.77	-44.8	-46.1	25.0	6.05e-01	0	43	0	1153957888	60	4352
2026-01-28 02:38:08.37	209.69	11.67	-44.6	-45.9	25.1	6.05e-01	0	43	0	1156055040	60	4257
2026-01-28 02:38:09.38	209.69	11.57	-44.7	-45.9	25.1	6.03e-01	0	43	0	1158152192	60	4276
2026-01-28 02:38:10.39	209.68	11.47	-44.7	-46.0	25.0	6.05e-01	0	43	0	1159725056	60	4297
2026-01-28 02:38:11.39	209.68	11.37	-44.8	-46.0	25.0	6.02e-01	0	43	0	1161822208	60	4326
2026-01-28 02:38:12.40	209.68	11.27	-44.9	-46.2	24.9	6.02e-01	0	43	0	1163395072	60	4405
2026-01-28 02:38:13.40	209.67	11.17	-44.9	-46.2	24.9	6.02e-01	0	43	0	1165492224	60	4404
2026-01-28 02:38:14.41	209.67	11.07	-45.0	-46.3	24.7	6.04e-01	0	43	0	1167065088	60	4478
2026-01-28 02:38:15.42	209.66	10.97	-44.8	-46.1	24.9	6.07e-01	0	43	0	1169162240	60	4379
2026-01-28 02:38:16.42	209.66	10.87	-44.6	-45.9	25.1	6.04e-01	0	43	0	1171259392	60	4249
2026-01-28 02:38:17.43	209.66	10.78	-44.7	-45.9	25.0	6.05e-01	0	43	0	1172832256	60	4290
2026-01-28 02:38:18.44	209.65	10.68	-44.7	-46.0	25.0	6.05e-01	0	43	0	1174929408	60	4309
2026-01-28 02:38:19.45	209.65	10.58	-44.7	-46.0	25.0	6.05e-01	0	43	0	1176502272	60	4315
2026-01-28 02:38:20.46	209.65	10.49	-44.8	-46.1	24.9	6.03e-01	0	43	0	1178599424	60	4345
2026-01-28 02:38:21.46	209.64	10.39	-44.9	-46.2	24.8	6.03e-01	0	43	0	1180172288	60	4400
2026-01-28 02:38:22.47	209.64	10.29	-44.8	-46.1	24.8	6.02e-01	0	43	0	1182269440	60	4387
2026-01-28 02:38:23.47	209.63	10.20	-44.9	-46.2	24.7	6.06e-01	0	43	0	1184366592	60	4413
2026-01-28 02:38:24.48	209.63	10.10	-44.8	-46.1	24.8	6.05e-01	0	43	0	1186463744	60	4366
2026-01-28 02:38:25.48	209.63	10.01	-44.9	-46.2	24.7	6.06e-01	0	43	0	1188036608	60	4395
2026-01-28 02:38:26.49	209.62	9.92	-44.9	-46.2	24.7	6.01e-01	0	43	0	1190133760	60	4428
2026-01-28 02:38:27.50	209.62	9.82	-44.9	-46.3	24.7	6.03e-01	0	43	0	1191706624	60	4444
2026-01-28 02:38:28.51	209.62	9.73	-44.9	-46.2	24.7	6.04e-01	0	43	0	1193803776	60	4429
2026-01-28 02:38:29.52	209.62	9.64	-45.0	-46.3	24.6	6.04e-01	0	43	0	1195376640	60	4451
2026-01-28 02:38:30.53	209.61	9.54	-45.0	-46.3	23.0	6.04e-01	0	43	0	1197473792	60	4461
2026-01-28 02:38:31.53	209.61	9.45	-45.0	-46.3	24.6	6.05e-01	0	43	0	1199570944	60	4456
2026-01-28 02:38:32.54	209.61	9.36	-45.0	-46.3	24.5	6.04e-01	0	43	0	1201143808	60	4464
2026-01-28 02:38:33.55	209.60	9.27	-44.9	-46.2	24.5	6.04e-01	0	43	0	1203240960	60	4425
2026-01-28 02:38:34.55	209.60	9.18	-45.2	-46.5	24.3	6.03e-01	0	43	0	1204813824	60	4584
2026-01-28 02:38:35.56	209.60	9.09	-45.2	-46.5	24.3	6.02e-01	0	43	0	1206910976	61	4323
2026-01-28 02:38:36.57	209.59	9.00	-45.3	-46.6	24.2	6.03e-01	0	43	0	1208483840	61	4384
2026-01-28 02:38:37.58	209.59	8.91	-45.2	-46.6	24.2	6.01e-01	0	43	0	1210580992	61	4364
2026-01-28 02:38:38.59	209.59	8.82	-45.1	-46.4	24.4	6.02e-01	0	43	0	1212678144	61	4257
2026-01-28 02:38:39.60	209.59	8.73	-45.2	-46.5	24.3	6.04e-01	0	43	0	1214775296	61	4329
2026-01-28 02:38:40.61	209.58	8.64	-45.2	-46.6	24.2	6.04e-01	0	43	0	1216348160	61	4341
2026-01-28 02:38:41.61	209.58	8.55	-45.0	-46.4	24.4	6.03e-01	0	43	0	1218445312	61	4247
2026-01-28 02:38:42.63	209.58	8.46	-45.0	-46.3	24.4	6.01e-01	0	43	0	1220018176	61	4227
2026-01-28 02:38:43.63	209.58	8.37	-45.1	-46.4	24.4	6.02e-01	0	43	0	1222115328	61	4266
2026-01-28 02:38:44.63	209.57	8.29	-45.3	-46.7	24.1	6.05e-01	0	43	0	1223688192	61	4414
2026-01-28 02:38:45.64	209.57	8.20	-45.2	-46.5	24.2	6.04e-01	0	43	0	1225785344	61	4323
2026-01-28 02:38:46.65	209.57	8.11	-45.2	-46.5	24.2	6.01e-01	0	43	0	1227882496	61	4330
2026-01-28 02:38:47.66	209.57	8.03	-45.3	-46.7	24.1	6.04e-01	0	43	0	1229455360	61	4395
2026-01-28 02:38:48.67	209.56	7.94	-45.3	-46.7	24.1	6.04e-01	0	43	0	1231552512	61	4404
2026-01-28 02:38:49.67	209.56	7.86	-45.1	-46.4	24.3	6.02e-01	0	43	0	1233125376	61	4280
2026-01-28 02:38:50.68	209.56	7.77	-45.2	-46.5	24.2	6.03e-01	0	43	0	1235222528	61	4327
2026-01-28 02:38:51.68	209.56	7.68	-45.1	-46.5	24.3	6.02e-01	0	43	0	1237319680	61	4294
2026-01-28 02:38:52.69	209.55	7.60	-45.2	-46.6	24.1	6.03e-01	0	43	0	1238892544	61	4367
2026-01-28 02:38:53.69	209.55	7.52	-45.1	-46.4	24.3	6.03e-01	0	43	0	1240989696	61	4268
