passes_logs/2026/01/28/R3.2S_Murmansk/R3.2S_Murmansk__20260128_002749_SUOMI_NPP_rec.log

#Pass ID: 20260128_002749_SUOMI NPP
#Satellite: SUOMI NPP
#Configuration: NPP
#almurnet v.1.7.20251203
#Start time: 2026-01-28 00:27:48

#Version: 2.2.20231116
#Station: R3.2S_Murmansk
#Location: 33.079688 lon 68.888172 lat
#TLE: 1 37849U 11061A   26027.29799992  .00000188  00000+0  11027-3 0  9993
#TLE: 2 37849  98.7822 329.2414 0002113  42.5791 317.5548 14.19530708738457

#Time	Az	El	Level	Level2	SNR	BER	BlckErr	Temp	State	Recorded	gain1	gain2
2026-01-28 00:27:48.59	23.46	1.97	-53.7	-68.7	3.8	1.49e+00	0	41	0	0	78	20846
2026-01-28 00:27:49.59	23.47	2.03	-54.0	-69.0	3.8	1.49e+00	0	41	104	0	78	21595
2026-01-28 00:27:50.60	23.48	2.10	-54.0	-69.0	3.8	1.49e+00	0	41	104	0	78	21587
2026-01-28 00:27:51.61	23.50	2.16	-54.0	-68.9	3.8	1.49e+00	0	41	104	0	78	21489
2026-01-28 00:27:52.62	23.51	2.22	-54.0	-69.0	3.8	1.49e+00	0	41	104	0	78	21573
2026-01-28 00:27:53.63	23.52	2.29	-54.0	-69.0	3.8	1.49e+00	0	41	104	0	78	21537
2026-01-28 00:27:54.63	23.53	2.35	-54.0	-68.9	3.8	1.49e+00	0	41	104	0	78	21489
2026-01-28 00:27:55.64	23.54	2.42	-54.0	-68.9	3.8	1.49e+00	0	41	104	0	78	21483
2026-01-28 00:27:56.65	23.56	2.48	-54.0	-68.9	3.8	1.49e+00	0	41	104	0	78	21478
2026-01-28 00:27:57.65	23.57	2.55	-53.9	-68.9	3.8	1.49e+00	0	41	104	0	78	21348
2026-01-28 00:27:58.66	23.58	2.61	-53.9	-68.8	3.8	1.49e+00	0	41	104	0	78	21217
2026-01-28 00:27:59.67	23.59	2.68	-53.9	-68.8	3.8	1.49e+00	0	41	104	0	78	21245
2026-01-28 00:28:00.68	23.61	2.75	-53.9	-68.9	3.8	1.49e+00	0	41	104	0	78	21267
2026-01-28 00:28:01.69	23.62	2.81	-53.8	-68.8	3.8	1.49e+00	0	41	104	0	78	21139
2026-01-28 00:28:02.69	23.63	2.88	-53.8	-68.8	3.8	1.49e+00	0	41	104	0	78	21062
2026-01-28 00:28:03.70	23.64	2.94	-53.7	-68.6	3.8	1.49e+00	0	41	104	0	78	20756
2026-01-28 00:28:04.71	23.66	3.01	-53.6	-68.6	3.8	1.49e+00	0	41	104	0	78	20557
2026-01-28 00:28:05.72	23.67	3.08	-53.5	-68.5	3.8	1.49e+00	0	41	104	0	78	20377
2026-01-28 00:28:06.73	23.68	3.14	-53.4	-68.4	3.8	1.49e+00	0	41	104	0	78	20082
2026-01-28 00:28:07.74	23.69	3.21	-53.3	-68.2	3.8	1.49e+00	0	41	104	0	78	19747
2026-01-28 00:28:08.75	23.71	3.28	-53.0	-68.0	3.8	1.49e+00	0	41	104	0	78	19232
2026-01-28 00:28:09.76	23.72	3.34	-52.8	-67.7	3.8	1.49e+00	0	41	104	0	77	19725
2026-01-28 00:28:10.76	23.73	3.41	-52.3	-67.2	3.8	1.49e+00	0	41	104	0	76	19713
2026-01-28 00:28:11.77	23.75	3.48	-52.0	-66.2	3.8	1.49e+00	0	41	104	0	75	18538
2026-01-28 00:28:12.78	23.76	3.55	-51.9	-65.7	3.8	1.49e+00	0	42	104	0	75	17638
2026-01-28 00:28:13.79	23.77	3.61	-51.9	-65.0	3.8	1.49e+00	0	41	104	0	75	16196
2026-01-28 00:28:14.80	23.78	3.68	-51.8	-63.7	4.1	1.49e+00	0	42	104	0	75	13966
2026-01-28 00:28:15.80	23.80	3.75	-51.7	-62.7	4.4	1.37e+00	134	42	0	0	75	12464
2026-01-28 00:28:16.81	23.81	3.82	-51.5	-61.2	5.1	7.84e-01	0	42	0	2097152	75	10474
2026-01-28 00:28:17.82	23.82	3.89	-51.4	-60.0	5.8	4.75e-01	0	42	0	3145728	74	9662
2026-01-28 00:28:18.82	23.84	3.96	-51.1	-58.4	7.2	2.68e-01	0	42	0	5242880	74	8051
2026-01-28 00:28:19.83	23.85	4.02	-51.0	-57.8	7.8	9.54e-02	0	42	0	7340032	74	7458
2026-01-28 00:28:20.84	23.86	4.09	-50.5	-55.9	9.6	2.76e-02	0	42	0	9437184	72	6801
2026-01-28 00:28:21.85	23.88	4.16	-50.2	-55.1	10.5	5.72e-03	0	42	0	11534336	72	6149
2026-01-28 00:28:22.85	23.89	4.23	-50.0	-54.5	11.2	1.92e-03	0	42	0	12582912	71	6121
2026-01-28 00:28:23.86	23.90	4.30	-49.6	-53.6	12.2	8.11e-04	0	42	0	14680064	71	5466
2026-01-28 00:28:24.87	23.92	4.37	-49.5	-53.4	12.4	2.09e-04	0	42	0	16777216	71	5344
2026-01-28 00:28:25.88	23.93	4.44	-49.3	-52.9	12.9	9.30e-05	0	42	0	18874368	70	5363
2026-01-28 00:28:26.88	23.94	4.51	-49.2	-52.7	13.1	3.12e-05	0	42	0	20971520	70	5266
2026-01-28 00:28:27.89	23.96	4.58	-49.0	-52.3	13.5	9.10e-06	0	42	0	22020096	69	5332
2026-01-28 00:28:28.90	23.97	4.65	-48.9	-52.3	13.5	1.83e-05	0	42	0	24117248	69	5300
2026-01-28 00:28:29.91	23.98	4.72	-49.2	-52.9	12.9	3.28e-05	0	42	0	26214400	69	5689
2026-01-28 00:28:30.91	24.00	4.79	-49.5	-53.4	12.3	6.48e-05	0	42	0	28311552	69	6060
2026-01-28 00:28:31.92	24.01	4.86	-49.6	-53.7	12.0	2.72e-04	0	42	0	30408704	69	6250
2026-01-28 00:28:32.93	24.02	4.93	-50.1	-54.8	10.8	1.40e-03	0	42	0	31457280	70	6715
2026-01-28 00:28:33.94	24.04	5.01	-50.4	-55.8	9.8	6.03e-03	0	42	0	33554432	71	7085
2026-01-28 00:28:34.94	24.05	5.08	-48.5	-51.3	14.6	6.99e-04	0	42	0	35651584	68	5015
2026-01-28 00:28:35.95	24.07	5.15	-49.6	-53.8	12.1	0.00e+00	0	42	0	37748736	69	6290
2026-01-28 00:28:36.96	24.08	5.22	-51.8	-63.1	4.3	2.79e-01	112	42	0	39845888	74	13797
2026-01-28 00:28:37.97	24.09	5.29	-47.7	-50.1	15.7	5.16e-02	0	42	0	40894464	67	4651
2026-01-28 00:28:38.97	24.11	5.36	-51.8	-66.7	3.8	9.47e-04	0	42	104	42991616	74	20907
2026-01-28 00:28:39.98	24.12	5.44	-48.0	-50.5	14.9	6.18e-01	0	42	104	42991616	68	4594
2026-01-28 00:28:40.99	24.14	5.51	-47.6	-49.9	15.8	0.00e+00	0	42	0	44040192	67	4543
2026-01-28 00:28:42.00	24.15	5.58	-47.8	-50.3	15.6	0.00e+00	0	42	0	46137344	67	4706
2026-01-28 00:28:43.00	24.16	5.66	-47.8	-50.3	15.5	0.00e+00	0	42	0	48234496	67	4754
2026-01-28 00:28:44.02	24.18	5.73	-47.9	-50.5	15.4	0.00e+00	0	42	0	50331648	67	4821
2026-01-28 00:28:45.02	24.19	5.80	-47.9	-50.5	15.4	0.00e+00	0	42	0	52428800	67	4829
2026-01-28 00:28:46.02	24.21	5.88	-47.5	-49.8	16.1	0.00e+00	0	42	0	53477376	66	4750
2026-01-28 00:28:47.03	24.22	5.95	-47.5	-49.8	16.2	0.00e+00	0	42	0	55574528	66	4708
2026-01-28 00:28:48.04	24.24	6.02	-47.4	-49.6	16.3	0.00e+00	0	43	0	57671680	66	4628
2026-01-28 00:28:49.05	24.25	6.10	-47.4	-49.7	16.2	0.00e+00	0	43	0	59768832	66	4680
2026-01-28 00:28:50.05	24.26	6.17	-47.4	-49.7	16.2	0.00e+00	0	42	0	60817408	66	4693
2026-01-28 00:28:51.06	24.28	6.25	-47.4	-49.7	16.3	0.00e+00	0	42	0	62914560	66	4657
2026-01-28 00:28:52.07	24.29	6.32	-47.3	-49.5	16.5	0.00e+00	0	42	0	65011712	66	4553
2026-01-28 00:28:53.08	24.31	6.40	-47.3	-49.5	16.5	0.00e+00	0	42	0	67108864	66	4577
2026-01-28 00:28:54.08	24.32	6.47	-47.2	-49.3	16.7	0.00e+00	0	42	0	69206016	66	4473
2026-01-28 00:28:55.09	24.34	6.55	-47.2	-49.3	16.7	0.00e+00	0	42	0	70254592	66	4472
2026-01-28 00:28:56.10	24.35	6.63	-47.3	-49.5	16.5	0.00e+00	0	42	0	72351744	66	4586
2026-01-28 00:28:57.10	24.37	6.70	-47.2	-49.3	16.7	0.00e+00	0	42	0	74448896	66	4477
2026-01-28 00:28:58.11	24.38	6.78	-47.2	-49.3	16.7	0.00e+00	0	42	0	76546048	66	4472
2026-01-28 00:28:59.12	24.40	6.85	-46.8	-48.8	17.1	0.00e+00	0	42	0	78643200	65	4471
2026-01-28 00:29:00.13	24.41	6.93	-46.9	-49.0	17.0	0.00e+00	0	42	0	80740352	65	4557
2026-01-28 00:29:01.13	24.43	7.01	-46.9	-48.9	17.2	0.00e+00	0	42	0	81788928	65	4501
2026-01-28 00:29:02.14	24.44	7.08	-46.8	-48.8	17.2	0.00e+00	0	42	0	83886080	65	4472
2026-01-28 00:29:03.14	24.46	7.16	-47.0	-49.0	17.0	0.00e+00	0	42	0	85983232	65	4572
2026-01-28 00:29:04.15	24.47	7.24	-46.9	-48.8	17.2	0.00e+00	0	42	0	88080384	65	4489
2026-01-28 00:29:05.16	24.49	7.32	-46.9	-48.9	17.2	0.00e+00	0	43	0	89128960	65	4495
2026-01-28 00:29:06.17	24.50	7.40	-46.8	-48.8	17.3	0.00e+00	0	42	0	91226112	65	4447
2026-01-28 00:29:07.18	24.52	7.47	-46.7	-48.6	17.4	0.00e+00	0	42	0	93323264	65	4363
2026-01-28 00:29:08.18	24.53	7.55	-46.8	-48.7	17.3	0.00e+00	0	42	0	95420416	65	4421
2026-01-28 00:29:09.19	24.55	7.63	-46.8	-48.7	17.4	0.00e+00	0	42	0	97517568	65	4413
2026-01-28 00:29:10.20	24.57	7.71	-46.8	-48.8	17.3	0.00e+00	0	43	0	99614720	65	4468
2026-01-28 00:29:11.21	24.58	7.79	-46.9	-48.9	17.2	0.00e+00	0	42	0	100663296	65	4524
2026-01-28 00:29:12.21	24.60	7.87	-46.8	-48.7	17.3	0.00e+00	0	42	0	102760448	65	4441
2026-01-28 00:29:13.22	24.61	7.95	-46.7	-48.6	17.5	0.00e+00	0	42	0	104857600	65	4354
2026-01-28 00:29:14.23	24.63	8.03	-46.7	-48.6	17.5	0.00e+00	0	43	0	106954752	65	4354
2026-01-28 00:29:15.23	24.64	8.11	-46.6	-48.5	17.6	0.00e+00	0	43	0	109051904	65	4309
2026-01-28 00:29:16.24	24.66	8.19	-46.6	-48.4	17.7	0.00e+00	0	42	0	110100480	65	4277
2026-01-28 00:29:17.25	24.68	8.27	-46.5	-48.4	17.8	0.00e+00	0	42	0	112197632	64	4503
2026-01-28 00:29:18.25	24.69	8.35	-46.6	-48.4	17.7	0.00e+00	0	43	0	114294784	64	4537
2026-01-28 00:29:19.26	24.71	8.43	-46.5	-48.4	17.8	0.00e+00	0	43	0	116391936	64	4494
2026-01-28 00:29:20.27	24.73	8.52	-46.5	-48.3	17.8	0.00e+00	0	43	0	117440512	64	4482
2026-01-28 00:29:21.28	24.74	8.60	-46.4	-48.2	17.9	0.00e+00	0	42	0	119537664	64	4411
2026-01-28 00:29:22.29	24.76	8.68	-46.3	-48.0	18.1	0.00e+00	0	42	0	121634816	64	4337
2026-01-28 00:29:23.30	24.77	8.76	-46.2	-47.9	18.2	0.00e+00	0	42	0	123731968	64	4286
2026-01-28 00:29:24.31	24.79	8.85	-46.3	-48.0	18.1	0.00e+00	0	43	0	125829120	64	4328
2026-01-28 00:29:25.32	24.81	8.93	-46.2	-47.9	18.3	0.00e+00	0	43	0	127926272	64	4260
2026-01-28 00:29:26.32	24.82	9.01	-46.1	-47.8	18.3	0.00e+00	0	43	0	128974848	64	4236
2026-01-28 00:29:27.33	24.84	9.10	-46.1	-47.8	18.4	0.00e+00	0	43	0	131072000	64	4211
2026-01-28 00:29:28.34	24.86	9.18	-46.1	-47.8	18.4	0.00e+00	0	42	0	133169152	64	4216
2026-01-28 00:29:29.35	24.87	9.26	-46.2	-47.9	18.3	0.00e+00	0	42	0	135266304	64	4244
2026-01-28 00:29:30.36	24.89	9.35	-46.1	-47.8	18.4	0.00e+00	0	43	0	137363456	64	4208
2026-01-28 00:29:31.36	24.91	9.43	-46.2	-47.9	18.3	0.00e+00	0	42	0	138412032	64	4252
2026-01-28 00:29:32.37	24.93	9.52	-46.1	-47.8	18.4	0.00e+00	0	43	0	140509184	64	4212
2026-01-28 00:29:33.38	24.94	9.60	-46.1	-47.8	18.5	0.00e+00	0	42	0	142606336	63	4460
2026-01-28 00:29:34.39	24.96	9.69	-46.1	-47.7	18.6	0.00e+00	0	43	0	144703488	63	4430
2026-01-28 00:29:35.39	24.98	9.77	-46.0	-47.7	18.6	0.00e+00	0	42	0	145752064	63	4404
2026-01-28 00:29:36.40	25.00	9.86	-46.0	-47.6	18.6	0.00e+00	0	43	0	147849216	63	4390
2026-01-28 00:29:37.41	25.01	9.95	-46.1	-47.7	18.6	0.00e+00	0	43	0	149946368	63	4439
2026-01-28 00:29:38.41	25.03	10.03	-46.1	-47.7	18.6	0.00e+00	0	43	0	152043520	63	4435
2026-01-28 00:29:39.42	25.05	10.12	-46.1	-47.7	18.6	0.00e+00	0	43	0	154140672	63	4423
2026-01-28 00:29:40.43	25.07	10.21	-46.1	-47.7	18.7	0.00e+00	0	43	0	156237824	63	4403
2026-01-28 00:29:41.44	25.08	10.30	-45.9	-47.5	18.8	0.00e+00	0	43	0	157286400	63	4318
2026-01-28 00:29:42.44	25.10	10.38	-46.0	-47.6	18.7	0.00e+00	0	42	0	159383552	63	4357
2026-01-28 00:29:43.45	25.12	10.47	-46.1	-47.7	18.6	0.00e+00	0	43	0	161480704	63	4425
2026-01-28 00:29:44.46	25.14	10.56	-46.0	-47.6	18.7	0.00e+00	0	42	0	163577856	63	4376
2026-01-28 00:29:45.47	25.16	10.65	-45.9	-47.4	18.9	0.00e+00	0	43	0	165675008	63	4278
2026-01-28 00:29:46.48	25.17	10.74	-45.8	-47.4	18.9	0.00e+00	0	43	0	166723584	63	4267
2026-01-28 00:29:47.49	25.19	10.83	-45.8	-47.3	19.0	0.00e+00	0	43	0	168820736	63	4231
2026-01-28 00:29:48.49	25.21	10.92	-45.7	-47.2	19.1	0.00e+00	0	43	0	170917888	63	4192
2026-01-28 00:29:49.51	25.23	11.01	-45.8	-47.3	19.1	0.00e+00	0	43	0	173015040	63	4233
2026-01-28 00:29:50.51	25.25	11.10	-45.8	-47.3	19.1	0.00e+00	0	43	0	175112192	63	4205
2026-01-28 00:29:51.51	25.27	11.19	-45.6	-47.1	19.3	0.00e+00	0	43	0	176160768	63	4133
2026-01-28 00:29:52.52	25.28	11.28	-45.8	-47.3	19.1	0.00e+00	0	43	0	178257920	63	4218
2026-01-28 00:29:53.53	25.30	11.37	-45.6	-47.1	19.3	0.00e+00	0	43	0	180355072	63	4122
2026-01-28 00:29:54.53	25.32	11.47	-45.7	-47.1	19.2	0.00e+00	0	43	0	182452224	63	4142
2026-01-28 00:29:55.54	25.34	11.56	-45.5	-47.0	19.4	0.00e+00	0	43	0	184549376	63	4078
2026-01-28 00:29:56.55	25.36	11.65	-45.4	-46.9	19.5	0.00e+00	0	43	0	185597952	62	4262
2026-01-28 00:29:57.56	25.38	11.74	-45.5	-46.9	19.4	0.00e+00	0	43	0	187695104	62	4285
2026-01-28 00:29:58.56	25.40	11.84	-45.4	-46.8	19.6	0.00e+00	0	43	0	189792256	62	4204
2026-01-28 00:29:59.57	25.42	11.93	-45.3	-46.7	19.7	0.00e+00	0	43	0	191889408	62	4160
2026-01-28 00:30:00.58	25.44	12.02	-45.3	-46.8	19.6	0.00e+00	0	43	0	193986560	62	4196
2026-01-28 00:30:01.59	25.46	12.12	-45.1	-46.4	19.9	0.00e+00	0	43	0	195035136	62	4045
2026-01-28 00:30:02.59	25.48	12.21	-45.0	-46.4	19.9	0.00e+00	0	43	0	197132288	61	4261
2026-01-28 00:30:03.60	25.50	12.31	-45.0	-46.3	20.0	0.00e+00	0	43	0	199229440	61	4227
2026-01-28 00:30:04.61	25.52	12.40	-44.9	-46.2	20.1	0.00e+00	0	43	0	201326592	61	4193
2026-01-28 00:30:05.61	25.54	12.50	-44.9	-46.3	20.1	0.00e+00	0	43	0	203423744	61	4194
2026-01-28 00:30:06.61	25.56	12.60	-45.0	-46.3	20.1	0.00e+00	0	43	0	204472320	61	4215
2026-01-28 00:30:07.62	25.58	12.69	-44.9	-46.2	20.1	0.00e+00	0	43	0	206569472	61	4188
2026-01-28 00:30:08.63	25.60	12.79	-44.9	-46.2	20.2	0.00e+00	0	43	0	208666624	61	4149
2026-01-28 00:30:09.63	25.62	12.89	-44.9	-46.2	20.2	0.00e+00	0	43	0	210763776	61	4153
2026-01-28 00:30:10.64	25.64	12.98	-44.9	-46.2	20.2	0.00e+00	0	43	0	212860928	61	4156
2026-01-28 00:30:11.65	25.66	13.08	-44.9	-46.2	20.1	0.00e+00	0	43	0	213909504	61	4158
2026-01-28 00:30:12.66	25.68	13.18	-44.7	-46.0	20.4	0.00e+00	0	43	0	216006656	61	4065
2026-01-28 00:30:13.67	25.70	13.28	-44.8	-46.0	20.3	0.00e+00	0	43	0	218103808	61	4095
2026-01-28 00:30:14.68	25.72	13.38	-44.8	-46.1	20.3	0.00e+00	0	43	0	220200960	61	4108
2026-01-28 00:30:15.69	25.74	13.48	-44.7	-46.0	20.3	0.00e+00	0	43	0	222298112	61	4078
2026-01-28 00:30:16.69	25.76	13.58	-44.9	-46.1	20.2	0.00e+00	0	43	0	223346688	61	4144
2026-01-28 00:30:17.70	25.78	13.68	-44.9	-46.1	20.3	0.00e+00	0	43	0	225443840	61	4143
2026-01-28 00:30:18.71	25.80	13.78	-44.8	-46.1	20.3	0.00e+00	0	43	0	227540992	61	4120
2026-01-28 00:30:19.72	25.83	13.88	-44.8	-46.1	20.3	0.00e+00	0	43	0	229638144	61	4130
2026-01-28 00:30:20.73	25.85	13.99	-44.8	-46.1	20.3	0.00e+00	0	43	0	231735296	61	4142
2026-01-28 00:30:21.73	25.87	14.09	-44.7	-45.9	20.5	0.00e+00	0	43	0	232783872	61	4039
2026-01-28 00:30:22.74	25.89	14.19	-44.7	-46.0	20.4	0.00e+00	0	43	0	234881024	61	4080
2026-01-28 00:30:23.75	25.91	14.29	-44.7	-46.0	20.4	0.00e+00	0	43	0	236978176	61	4064
2026-01-28 00:30:24.75	25.93	14.40	-44.8	-46.1	20.3	0.00e+00	0	43	0	239075328	61	4132
2026-01-28 00:30:25.75	25.96	14.50	-44.6	-45.9	20.5	0.00e+00	0	43	0	241172480	61	4009
2026-01-28 00:30:26.76	25.98	14.60	-44.7	-46.0	20.4	0.00e+00	0	43	0	242221056	61	4083
2026-01-28 00:30:27.77	26.00	14.71	-44.7	-45.9	20.5	0.00e+00	0	43	0	244318208	61	4039
2026-01-28 00:30:28.78	26.02	14.82	-44.7	-46.0	20.4	0.00e+00	0	43	0	246415360	61	4080
2026-01-28 00:30:29.79	26.05	14.92	-44.6	-45.9	20.5	0.00e+00	0	43	0	248512512	61	4015
2026-01-28 00:30:30.79	26.07	15.03	-44.6	-45.9	20.5	0.00e+00	0	43	0	250609664	61	4025
2026-01-28 00:30:31.80	26.09	15.13	-44.6	-45.8	20.6	0.00e+00	0	43	0	251658240	61	3994
2026-01-28 00:30:32.81	26.11	15.24	-44.6	-45.8	20.6	0.00e+00	0	43	0	253755392	61	3996
2026-01-28 00:30:33.82	26.14	15.35	-44.7	-45.9	20.5	0.00e+00	0	43	0	255852544	61	4051
2026-01-28 00:30:34.83	26.16	15.46	-44.7	-46.0	20.5	0.00e+00	0	43	0	257949696	61	4056
2026-01-28 00:30:35.83	26.18	15.57	-44.7	-46.0	20.5	0.00e+00	0	43	0	260046848	61	4055
2026-01-28 00:30:36.84	26.21	15.68	-44.7	-45.9	20.6	0.00e+00	0	43	0	261095424	61	4036
2026-01-28 00:30:37.85	26.23	15.79	-44.6	-45.9	20.5	0.00e+00	0	43	0	263192576	61	4030
2026-01-28 00:30:38.85	26.26	15.89	-44.5	-45.7	20.7	0.00e+00	0	43	0	265289728	61	3952
2026-01-28 00:30:39.86	26.28	16.01	-44.8	-46.1	20.4	0.00e+00	0	43	0	267386880	61	4099
2026-01-28 00:30:40.87	26.30	16.12	-44.8	-46.1	20.4	0.00e+00	0	43	0	269484032	61	4099
2026-01-28 00:30:41.88	26.33	16.23	-44.8	-46.1	20.4	0.00e+00	0	43	0	270532608	61	4122
2026-01-28 00:30:42.88	26.35	16.34	-44.9	-46.1	20.2	0.00e+00	0	43	0	272629760	61	4141
2026-01-28 00:30:43.89	26.38	16.45	-44.9	-46.2	20.3	0.00e+00	0	43	0	274726912	61	4164
2026-01-28 00:30:44.90	26.40	16.57	-44.9	-46.2	20.4	0.00e+00	0	43	0	276824064	61	4155
2026-01-28 00:30:45.91	26.43	16.68	-44.9	-46.1	20.4	0.00e+00	0	43	0	278921216	61	4141
2026-01-28 00:30:46.91	26.45	16.79	-45.1	-46.5	20.1	0.00e+00	0	43	0	279969792	61	4310
2026-01-28 00:30:47.92	26.48	16.91	-45.2	-46.5	20.1	0.00e+00	0	43	0	282066944	61	4316
2026-01-28 00:30:48.93	26.50	17.02	-45.3	-46.7	19.9	0.00e+00	0	43	0	284164096	61	4392
2026-01-28 00:30:49.94	26.53	17.14	-45.2	-46.6	20.0	0.00e+00	0	43	0	286261248	61	4362
2026-01-28 00:30:50.94	26.55	17.26	-45.4	-46.8	19.8	0.00e+00	0	43	0	288358400	61	4453
2026-01-28 00:30:51.95	26.58	17.37	-45.3	-46.7	19.9	0.00e+00	0	43	0	289406976	61	4430
2026-01-28 00:30:52.96	26.61	17.49	-45.5	-47.0	19.6	0.00e+00	0	43	0	291504128	61	4549
2026-01-28 00:30:53.97	26.63	17.61	-45.5	-46.9	19.7	0.00e+00	0	43	0	293601280	61	4545
2026-01-28 00:30:54.98	26.66	17.73	-45.6	-47.0	19.7	0.00e+00	0	43	0	295698432	62	4320
2026-01-28 00:30:55.98	26.69	17.85	-45.7	-47.2	19.5	0.00e+00	0	43	0	297795584	62	4400
2026-01-28 00:30:56.99	26.71	17.97	-45.6	-47.1	19.6	0.00e+00	0	43	0	298844160	62	4349
2026-01-28 00:30:57.99	26.74	18.09	-45.7	-47.1	19.5	0.00e+00	0	43	0	300941312	62	4362
2026-01-28 00:30:59.00	26.77	18.21	-45.7	-47.2	19.5	0.00e+00	0	43	0	303038464	62	4409
2026-01-28 00:31:00.01	26.79	18.33	-45.8	-47.2	19.4	0.00e+00	0	43	0	305135616	62	4414
2026-01-28 00:31:01.01	26.82	18.45	-45.8	-47.2	19.5	0.00e+00	0	43	0	307232768	62	4426
2026-01-28 00:31:02.02	26.85	18.57	-45.8	-47.3	19.4	0.00e+00	0	43	0	308281344	62	4450
2026-01-28 00:31:03.03	26.88	18.70	-45.8	-47.3	19.4	0.00e+00	0	43	0	310378496	62	4451
2026-01-28 00:31:04.04	26.90	18.82	-46.0	-47.5	19.2	0.00e+00	0	43	0	312475648	62	4577
2026-01-28 00:31:05.05	26.93	18.95	-45.9	-47.4	19.3	0.00e+00	0	43	0	314572800	62	4529
2026-01-28 00:31:06.05	26.96	19.07	-46.2	-47.7	19.0	0.00e+00	0	43	0	316669952	62	4694
2026-01-28 00:31:07.06	26.99	19.20	-46.3	-47.8	19.0	0.00e+00	0	43	0	317718528	63	4477
2026-01-28 00:31:08.07	27.02	19.33	-46.4	-48.0	18.7	0.00e+00	0	43	0	319815680	63	4577
2026-01-28 00:31:09.07	27.05	19.45	-46.3	-47.9	18.8	0.00e+00	0	43	0	321912832	63	4534
2026-01-28 00:31:10.08	27.08	19.58	-46.5	-48.1	18.7	0.00e+00	0	43	0	324009984	63	4610
2026-01-28 00:31:11.09	27.11	19.71	-46.4	-48.0	18.7	0.00e+00	0	43	0	326107136	63	4591
2026-01-28 00:31:12.09	27.14	19.84	-46.5	-48.2	18.5	0.00e+00	0	43	0	327155712	64	4409
2026-01-28 00:31:13.10	27.17	19.97	-46.6	-48.3	18.4	0.00e+00	0	43	0	329252864	64	4479
2026-01-28 00:31:14.11	27.20	20.10	-46.5	-48.1	18.6	0.00e+00	0	43	0	331350016	64	4386
2026-01-28 00:31:15.12	27.23	20.23	-46.7	-48.4	18.3	0.00e+00	0	43	0	333447168	64	4540
2026-01-28 00:31:16.13	27.26	20.36	-46.6	-48.3	18.5	0.00e+00	0	43	0	335544320	64	4443
2026-01-28 00:31:17.13	27.29	20.49	-46.7	-48.3	18.4	0.00e+00	0	43	0	336592896	64	4482
2026-01-28 00:31:18.14	27.32	20.63	-46.5	-48.2	18.6	0.00e+00	0	43	0	338690048	64	4398
2026-01-28 00:31:19.14	27.35	20.76	-46.5	-48.1	18.6	0.00e+00	0	43	0	340787200	64	4372
2026-01-28 00:31:20.15	27.38	20.89	-46.4	-48.0	18.7	0.00e+00	0	43	0	342884352	64	4339
2026-01-28 00:31:21.16	27.41	21.03	-46.6	-48.2	18.6	0.00e+00	0	43	0	344981504	64	4420
2026-01-28 00:31:22.16	27.44	21.16	-46.4	-48.0	18.8	0.00e+00	0	43	0	346030080	64	4311
2026-01-28 00:31:23.17	27.48	21.30	-46.4	-48.0	18.7	0.00e+00	0	43	0	348127232	64	4334
2026-01-28 00:31:24.17	27.51	21.44	-46.4	-48.0	18.8	0.00e+00	0	43	0	350224384	64	4294
2026-01-28 00:31:25.18	27.54	21.58	-46.5	-48.2	18.6	0.00e+00	0	43	0	352321536	64	4393
2026-01-28 00:31:26.19	27.57	21.72	-46.5	-48.1	18.7	0.00e+00	0	43	0	354418688	64	4358
2026-01-28 00:31:27.20	27.61	21.86	-46.6	-48.3	18.5	0.00e+00	0	43	0	356515840	64	4458
2026-01-28 00:31:28.20	27.64	22.00	-46.5	-48.1	18.7	0.00e+00	0	43	0	357564416	64	4355
2026-01-28 00:31:29.21	27.67	22.14	-46.5	-48.2	18.6	0.00e+00	0	43	0	359661568	64	4393
2026-01-28 00:31:30.22	27.71	22.28	-46.5	-48.1	18.7	0.00e+00	0	43	0	361758720	64	4361
2026-01-28 00:31:31.23	27.74	22.42	-46.4	-48.0	18.8	0.00e+00	0	43	0	363855872	64	4299
2026-01-28 00:31:32.24	27.78	22.57	-46.4	-48.0	18.8	0.00e+00	0	43	0	364904448	64	4309
2026-01-28 00:31:33.24	27.81	22.71	-46.3	-47.8	19.0	0.00e+00	0	43	0	367001600	64	4218
2026-01-28 00:31:34.25	27.85	22.86	-46.0	-47.5	19.2	0.00e+00	0	43	0	369098752	64	4061
2026-01-28 00:31:35.26	27.88	23.00	-46.0	-47.4	19.4	0.00e+00	0	43	0	371195904	63	4291
2026-01-28 00:31:36.27	27.92	23.15	-46.1	-47.6	19.2	0.00e+00	0	43	0	373293056	63	4376
2026-01-28 00:31:37.27	27.95	23.30	-45.9	-47.3	19.5	0.00e+00	0	43	0	374341632	63	4228
2026-01-28 00:31:38.28	27.99	23.45	-46.2	-47.6	19.2	0.00e+00	0	43	0	376438784	63	4383
2026-01-28 00:31:39.29	28.03	23.60	-46.1	-47.6	19.3	0.00e+00	0	43	0	378535936	63	4341
2026-01-28 00:31:40.30	28.06	23.75	-45.9	-47.3	19.6	0.00e+00	0	43	0	380633088	63	4209
2026-01-28 00:31:41.31	28.10	23.90	-46.0	-47.5	19.4	0.00e+00	0	43	0	382730240	63	4322
2026-01-28 00:31:42.31	28.14	24.05	-46.2	-47.7	19.3	0.00e+00	0	43	0	384827392	63	4398
2026-01-28 00:31:43.32	28.18	24.20	-46.2	-47.7	19.3	0.00e+00	0	43	0	385875968	63	4410
2026-01-28 00:31:44.33	28.21	24.36	-46.1	-47.6	19.4	0.00e+00	0	43	0	387973120	63	4349
2026-01-28 00:31:45.34	28.25	24.51	-46.2	-47.6	19.2	0.00e+00	0	43	0	390070272	63	4391
2026-01-28 00:31:46.34	28.29	24.67	-46.1	-47.5	19.4	0.00e+00	0	43	0	392167424	63	4330
2026-01-28 00:31:47.35	28.33	24.83	-46.1	-47.5	19.3	0.00e+00	0	43	0	393216000	63	4339
2026-01-28 00:31:48.36	28.37	24.98	-45.8	-47.2	19.7	0.00e+00	0	43	0	395313152	63	4171
2026-01-28 00:31:49.36	28.41	25.14	-45.7	-47.1	19.9	0.00e+00	0	43	0	397410304	63	4107
2026-01-28 00:31:50.37	28.45	25.30	-45.6	-47.0	19.9	0.00e+00	0	43	0	399507456	63	4063
2026-01-28 00:31:51.38	28.49	25.46	-45.4	-46.7	20.1	0.00e+00	0	43	0	401604608	62	4180
2026-01-28 00:31:52.38	28.53	25.62	-45.6	-46.9	20.0	0.00e+00	0	43	0	402653184	62	4279
2026-01-28 00:31:53.39	28.57	25.78	-45.5	-46.8	20.1	0.00e+00	0	43	0	404750336	62	4223
2026-01-28 00:31:54.39	28.62	25.95	-45.4	-46.7	20.2	0.00e+00	0	43	0	406847488	62	4170
2026-01-28 00:31:55.40	28.66	26.11	-45.4	-46.8	20.1	0.00e+00	0	43	0	408944640	62	4198
2026-01-28 00:31:56.40	28.70	26.28	-45.6	-47.0	19.9	0.00e+00	0	43	0	411041792	62	4324
2026-01-28 00:31:57.41	28.74	26.44	-45.6	-47.0	19.9	0.00e+00	0	43	0	413138944	62	4308
2026-01-28 00:31:58.42	28.79	26.61	-45.6	-47.0	19.8	0.00e+00	0	43	0	414187520	62	4318
2026-01-28 00:31:59.42	28.83	26.78	-45.8	-47.2	19.7	0.00e+00	0	43	0	416284672	62	4418
2026-01-28 00:32:00.43	28.87	26.95	-45.5	-46.9	20.0	0.00e+00	0	43	0	418381824	62	4251
2026-01-28 00:32:01.44	28.92	27.12	-45.6	-46.9	20.0	0.00e+00	0	43	0	420478976	62	4287
2026-01-28 00:32:02.45	28.96	27.29	-45.7	-47.0	19.8	0.00e+00	0	43	0	421527552	62	4340
2026-01-28 00:32:03.45	29.01	27.46	-45.3	-46.6	20.3	0.00e+00	0	43	0	423624704	62	4135
2026-01-28 00:32:04.46	29.05	27.64	-45.7	-47.1	19.9	0.00e+00	0	43	0	425721856	62	4357
2026-01-28 00:32:05.47	29.10	27.81	-45.6	-47.0	20.0	0.00e+00	0	43	0	427819008	62	4295
2026-01-28 00:32:06.48	29.15	27.99	-45.8	-47.2	19.8	0.00e+00	0	43	0	429916160	62	4398
2026-01-28 00:32:07.48	29.20	28.16	-45.8	-47.2	19.7	0.00e+00	0	43	0	430964736	62	4432
2026-01-28 00:32:08.49	29.24	28.34	-45.8	-47.1	19.8	0.00e+00	0	43	0	433061888	62	4387
2026-01-28 00:32:09.50	29.29	28.52	-46.1	-47.6	19.4	0.00e+00	0	43	0	435159040	62	4624
2026-01-28 00:32:10.51	29.34	28.70	-46.1	-47.6	19.4	0.00e+00	0	43	0	437256192	63	4359
2026-01-28 00:32:11.51	29.39	28.88	-46.1	-47.6	19.4	0.00e+00	0	43	0	439353344	63	4353
2026-01-28 00:32:12.52	29.44	29.07	-46.1	-47.6	19.4	0.00e+00	0	43	0	441450496	63	4374
2026-01-28 00:32:13.53	29.49	29.25	-46.0	-47.5	19.5	0.00e+00	0	43	0	442499072	63	4306
2026-01-28 00:32:14.54	29.54	29.44	-46.4	-47.9	19.1	0.00e+00	0	43	0	444596224	63	4513
2026-01-28 00:32:15.54	29.59	29.62	-46.1	-47.5	19.5	0.00e+00	0	43	0	446693376	63	4314
2026-01-28 00:32:16.55	29.64	29.81	-46.3	-47.8	19.3	0.00e+00	0	43	0	448790528	63	4445
2026-01-28 00:32:17.56	29.70	30.00	-46.1	-47.5	19.5	0.00e+00	0	43	0	449839104	63	4332
2026-01-28 00:32:18.57	29.75	30.19	-46.1	-47.5	19.5	0.00e+00	0	43	0	451936256	63	4307
2026-01-28 00:32:19.57	29.80	30.38	-46.4	-47.9	19.2	0.00e+00	0	43	0	454033408	63	4518
2026-01-28 00:32:20.58	29.86	30.57	-46.4	-47.9	19.2	0.00e+00	0	43	0	456130560	63	4530
2026-01-28 00:32:21.59	29.91	30.77	-46.7	-48.3	18.7	0.00e+00	0	43	0	458227712	64	4486
2026-01-28 00:32:22.60	29.97	30.96	-46.5	-48.0	19.0	0.00e+00	0	43	0	460324864	64	4326
2026-01-28 00:32:23.61	30.02	31.16	-46.6	-48.1	18.9	0.00e+00	0	43	0	461373440	64	4360
2026-01-28 00:32:24.61	30.08	31.35	-47.1	-48.8	18.2	0.00e+00	0	43	0	463470592	65	4485
2026-01-28 00:32:25.62	30.14	31.55	-46.9	-48.5	18.5	0.00e+00	0	43	0	465567744	65	4324
2026-01-28 00:32:26.62	30.19	31.75	-47.0	-48.6	18.4	0.00e+00	0	43	0	467664896	65	4378
2026-01-28 00:32:27.63	30.25	31.95	-46.9	-48.6	18.5	0.00e+00	0	43	0	469762048	65	4346
2026-01-28 00:32:28.64	30.31	32.16	-47.0	-48.6	18.4	0.00e+00	0	43	0	470810624	65	4370
2026-01-28 00:32:29.65	30.37	32.36	-47.3	-49.0	18.1	0.00e+00	0	43	0	472907776	65	4564
2026-01-28 00:32:30.66	30.43	32.57	-46.9	-48.5	18.5	0.00e+00	0	43	0	475004928	65	4328
2026-01-28 00:32:31.67	30.50	32.78	-47.6	-49.4	17.6	0.00e+00	0	43	0	477102080	65	4790
2026-01-28 00:32:32.67	30.56	32.98	-47.4	-49.2	17.9	0.00e+00	0	43	0	479199232	65	4701
2026-01-28 00:32:33.68	30.62	33.19	-47.2	-48.9	18.0	0.00e+00	0	43	0	480247808	65	4544
2026-01-28 00:32:34.69	30.68	33.41	-47.3	-49.1	17.8	0.00e+00	0	43	0	482344960	65	4607
2026-01-28 00:32:35.70	30.75	33.62	-47.1	-48.8	18.3	0.00e+00	0	43	0	484442112	65	4448
2026-01-28 00:32:36.71	30.81	33.83	-47.2	-48.9	18.2	0.00e+00	0	43	0	486539264	65	4521
2026-01-28 00:32:37.71	30.88	34.05	-46.8	-48.4	18.6	0.00e+00	0	43	0	488636416	65	4283
2026-01-28 00:32:38.72	30.95	34.27	-47.3	-49.0	18.0	0.00e+00	0	43	0	489684992	65	4582
2026-01-28 00:32:39.73	31.01	34.48	-47.4	-49.2	18.0	0.00e+00	0	43	0	491782144	65	4661
2026-01-28 00:32:40.74	31.08	34.71	-46.9	-48.5	18.5	0.00e+00	0	43	0	493879296	65	4317
2026-01-28 00:32:41.75	31.15	34.93	-47.1	-48.9	18.3	0.00e+00	0	43	0	495976448	65	4497
2026-01-28 00:32:42.76	31.22	35.15	-47.0	-48.6	18.5	0.00e+00	0	43	0	498073600	65	4382
2026-01-28 00:32:43.77	31.30	35.38	-46.6	-48.2	18.9	0.00e+00	0	43	0	499122176	65	4154
2026-01-28 00:32:44.77	31.37	35.60	-46.7	-48.3	18.8	0.00e+00	0	43	0	501219328	65	4217
2026-01-28 00:32:45.78	31.44	35.83	-46.8	-48.4	18.7	0.00e+00	0	43	0	503316480	65	4281
2026-01-28 00:32:46.79	31.51	36.06	-46.9	-48.6	18.5	0.00e+00	0	43	0	505413632	65	4376
2026-01-28 00:32:47.79	31.59	36.29	-47.0	-48.7	18.4	0.00e+00	0	43	0	507510784	65	4427
2026-01-28 00:32:48.80	31.67	36.52	-47.4	-49.2	18.0	0.00e+00	0	43	0	508559360	65	4688
2026-01-28 00:32:49.81	31.74	36.76	-47.4	-49.2	18.0	0.00e+00	0	43	0	510656512	65	4682
2026-01-28 00:32:50.82	31.82	37.00	-47.8	-49.7	17.5	0.00e+00	0	43	0	512753664	66	4702
2026-01-28 00:32:51.82	31.90	37.23	-47.8	-49.8	17.5	0.00e+00	0	43	0	514850816	66	4707
2026-01-28 00:32:52.83	31.98	37.47	-47.6	-49.6	17.7	0.00e+00	0	43	0	516947968	66	4605
2026-01-28 00:32:53.84	32.06	37.71	-47.8	-49.8	17.5	0.00e+00	0	43	0	517996544	66	4747
2026-01-28 00:32:54.85	32.15	37.96	-47.6	-49.5	17.7	0.00e+00	0	43	0	520093696	66	4574
2026-01-28 00:32:55.86	32.23	38.20	-47.3	-49.0	18.2	0.00e+00	0	43	0	522190848	66	4330
2026-01-28 00:32:56.86	32.31	38.45	-47.4	-49.2	18.0	0.00e+00	0	43	0	524288000	66	4437
2026-01-28 00:32:57.87	32.40	38.69	-46.9	-48.5	18.7	0.00e+00	0	43	0	526385152	65	4308
2026-01-28 00:32:58.88	32.49	38.94	-46.8	-48.4	18.8	0.00e+00	0	43	0	527433728	65	4247
2026-01-28 00:32:59.89	32.58	39.20	-46.6	-48.1	19.0	0.00e+00	0	43	0	529530880	65	4120
2026-01-28 00:33:00.90	32.67	39.45	-46.4	-47.9	19.2	0.00e+00	0	43	0	531628032	64	4262
2026-01-28 00:33:01.90	32.76	39.70	-46.0	-47.4	19.8	0.00e+00	0	43	0	533725184	63	4261
2026-01-28 00:33:02.91	32.85	39.96	-46.5	-48.0	19.3	0.00e+00	0	43	0	535822336	63	4562
2026-01-28 00:33:03.92	32.95	40.22	-46.7	-48.2	19.1	0.00e+00	0	43	0	536870912	63	4662
2026-01-28 00:33:04.93	33.04	40.48	-46.8	-48.4	18.9	0.00e+00	0	43	0	538968064	64	4517
2026-01-28 00:33:05.94	33.14	40.75	-47.3	-49.0	18.3	0.00e+00	0	43	0	541065216	65	4581
2026-01-28 00:33:06.95	33.24	41.01	-47.7	-49.5	17.9	0.00e+00	0	43	0	543162368	65	4826
2026-01-28 00:33:07.96	33.34	41.28	-47.8	-49.6	17.7	0.00e+00	0	43	0	545259520	66	4648
2026-01-28 00:33:08.97	33.44	41.55	-47.7	-49.5	17.8	0.00e+00	0	43	0	546308096	66	4587
2026-01-28 00:33:09.97	33.55	41.81	-48.2	-50.3	17.0	0.00e+00	0	43	0	548405248	67	4743
2026-01-28 00:33:10.98	33.65	42.09	-48.3	-50.4	17.0	0.00e+00	0	43	0	550502400	67	4766
2026-01-28 00:33:11.99	33.76	42.36	-48.0	-50.0	17.3	0.00e+00	0	43	0	552599552	67	4563
2026-01-28 00:33:12.99	33.87	42.63	-47.9	-49.8	17.5	0.00e+00	0	43	0	554696704	67	4492
2026-01-28 00:33:14.00	33.98	42.91	-47.6	-49.5	17.7	0.00e+00	0	43	0	556793856	67	4319
2026-01-28 00:33:15.01	34.09	43.19	-47.3	-49.1	18.3	0.00e+00	0	43	0	557842432	66	4347
2026-01-28 00:33:16.02	34.21	43.47	-46.6	-48.1	19.1	0.00e+00	0	43	0	559939584	65	4138
2026-01-28 00:33:17.02	34.32	43.76	-46.6	-48.1	19.0	0.00e+00	0	43	0	562036736	65	4121
2026-01-28 00:33:18.03	34.44	44.04	-46.6	-48.1	19.2	0.00e+00	0	43	0	564133888	64	4344
2026-01-28 00:33:19.04	34.56	44.33	-46.7	-48.2	19.0	0.00e+00	0	43	0	565182464	64	4418
2026-01-28 00:33:20.04	34.68	44.62	-47.2	-48.9	18.4	0.00e+00	0	43	0	567279616	64	4789
2026-01-28 00:33:21.05	34.81	44.91	-47.1	-48.7	18.5	0.00e+00	0	43	0	569376768	65	4423
2026-01-28 00:33:22.06	34.93	45.20	-47.5	-49.2	18.2	0.00e+00	0	43	0	571473920	65	4685
2026-01-28 00:33:23.07	35.06	45.50	-47.6	-49.4	17.9	0.00e+00	0	43	0	573571072	66	4519
2026-01-28 00:33:24.08	35.20	45.80	-47.7	-49.6	17.7	0.00e+00	0	43	0	574619648	66	4618
2026-01-28 00:33:25.08	35.33	46.09	-48.0	-49.9	17.3	0.00e+00	0	43	0	576716800	66	4807
2026-01-28 00:33:26.09	35.47	46.40	-48.2	-50.2	17.2	0.00e+00	0	43	0	578813952	67	4668
2026-01-28 00:33:27.10	35.61	46.70	-47.5	-49.3	18.0	0.00e+00	0	43	0	580911104	67	4212
2026-01-28 00:33:28.11	35.75	47.01	-47.7	-49.5	17.8	0.00e+00	0	43	0	583008256	67	4319
2026-01-28 00:33:29.11	35.89	47.31	-47.8	-49.6	17.5	0.00e+00	0	43	0	585105408	67	4391
2026-01-28 00:33:30.12	36.04	47.62	-47.9	-49.8	17.5	0.00e+00	0	43	0	586153984	67	4464
2026-01-28 00:33:31.12	36.19	47.93	-47.9	-49.9	17.5	0.00e+00	0	43	0	588251136	66	4785
2026-01-28 00:33:32.13	36.34	48.25	-47.5	-49.2	18.1	0.00e+00	0	43	0	590348288	66	4433
2026-01-28 00:33:33.13	36.50	48.56	-47.7	-49.6	17.8	0.00e+00	0	43	0	592445440	66	4611
2026-01-28 00:33:34.14	36.66	48.88	-47.2	-48.9	18.5	0.00e+00	0	43	0	593494016	66	4251
2026-01-28 00:33:35.15	36.82	49.20	-46.6	-48.1	19.1	0.00e+00	0	43	0	595591168	65	4144
2026-01-28 00:33:36.16	36.99	49.53	-46.0	-47.3	19.9	0.00e+00	0	43	0	597688320	63	4236
2026-01-28 00:33:37.17	37.16	49.85	-45.6	-46.9	20.3	0.00e+00	0	43	0	599785472	62	4285
2026-01-28 00:33:38.17	37.33	50.17	-45.6	-47.0	20.2	0.00e+00	0	43	0	601882624	62	4292
2026-01-28 00:33:39.18	37.51	50.50	-44.9	-46.1	21.0	0.00e+00	0	43	0	602931200	61	4101
2026-01-28 00:33:40.19	37.69	50.84	-44.7	-45.9	21.2	0.00e+00	0	43	0	605028352	61	4011
2026-01-28 00:33:41.19	37.87	51.17	-44.3	-45.4	21.7	0.00e+00	0	43	0	607125504	60	4028
2026-01-28 00:33:42.20	38.06	51.50	-44.2	-45.3	21.8	0.00e+00	0	43	0	609222656	60	3990
2026-01-28 00:33:43.21	38.25	51.84	-44.0	-45.0	22.3	0.00e+00	0	43	0	611319808	59	4083
2026-01-28 00:33:44.22	38.45	52.18	-44.1	-45.2	22.2	0.00e+00	0	43	0	613416960	59	4158
2026-01-28 00:33:45.23	38.65	52.52	-44.5	-45.6	22.0	0.00e+00	0	43	0	614465536	59	4351
2026-01-28 00:33:46.23	38.86	52.86	-44.5	-45.6	21.9	0.00e+00	0	43	0	616562688	59	4358
2026-01-28 00:33:47.24	39.07	53.21	-44.4	-45.5	21.9	0.00e+00	0	43	0	618659840	59	4315
2026-01-28 00:33:48.25	39.28	53.55	-44.3	-45.4	22.0	0.00e+00	0	43	0	620756992	59	4250
2026-01-28 00:33:49.26	39.51	53.90	-44.5	-45.7	21.8	0.00e+00	0	43	0	621805568	59	4400
2026-01-28 00:33:50.26	39.73	54.25	-44.3	-45.4	22.0	0.00e+00	0	43	0	623902720	59	4261
2026-01-28 00:33:51.27	39.96	54.61	-43.8	-44.9	22.4	0.00e+00	0	43	0	625999872	59	4017
2026-01-28 00:33:52.28	40.20	54.96	-43.5	-44.4	22.8	0.00e+00	0	43	0	628097024	58	4044
2026-01-28 00:33:53.29	40.45	55.32	-43.1	-44.1	23.1	0.00e+00	0	43	0	630194176	58	3874
2026-01-28 00:33:54.29	40.69	55.68	-42.9	-43.8	23.2	0.00e+00	0	43	0	631242752	57	3988
2026-01-28 00:33:55.30	40.95	56.04	-42.8	-43.8	23.3	0.00e+00	0	43	0	633339904	57	3971
2026-01-28 00:33:56.31	41.21	56.40	-42.8	-43.7	23.4	0.00e+00	0	43	0	635437056	57	3956
2026-01-28 00:33:57.32	41.48	56.77	-43.2	-44.2	23.1	0.00e+00	0	43	0	637534208	57	4152
2026-01-28 00:33:58.33	41.76	57.13	-43.2	-44.1	23.0	0.00e+00	0	43	0	639631360	57	4143
2026-01-28 00:33:59.33	42.04	57.50	-43.7	-44.7	22.6	0.00e+00	0	43	0	641728512	58	4188
2026-01-28 00:34:00.34	42.34	57.87	-43.6	-44.6	22.7	0.00e+00	0	43	0	642777088	58	4109
2026-01-28 00:34:01.35	42.64	58.24	-43.8	-44.9	22.4	0.00e+00	0	43	0	644874240	58	4250
2026-01-28 00:34:02.36	42.95	58.61	-43.4	-44.4	22.8	0.00e+00	0	43	0	646971392	58	4034
2026-01-28 00:34:03.36	43.26	58.98	-43.7	-44.7	22.6	0.00e+00	0	43	0	649068544	58	4161
2026-01-28 00:34:04.37	43.59	59.36	-43.7	-44.7	22.6	0.00e+00	0	43	0	650117120	58	4163
2026-01-28 00:34:05.37	43.92	59.74	-43.9	-44.9	22.4	0.00e+00	0	43	0	652214272	58	4283
2026-01-28 00:34:06.38	44.27	60.12	-44.0	-45.0	22.3	0.00e+00	0	43	0	654311424	58	4317
2026-01-28 00:34:07.39	44.62	60.50	-43.7	-44.7	22.5	0.00e+00	0	43	0	656408576	58	4184
2026-01-28 00:34:08.39	44.99	60.87	-43.0	-43.9	23.2	0.00e+00	0	43	0	658505728	58	3814
2026-01-28 00:34:09.40	45.37	61.26	-43.2	-44.2	23.0	0.00e+00	0	43	0	660602880	57	4152
2026-01-28 00:34:10.41	45.76	61.64	-43.3	-44.2	23.0	0.00e+00	0	43	0	661651456	57	4191
2026-01-28 00:34:11.42	46.16	62.03	-42.3	-43.1	23.8	0.00e+00	0	43	0	663748608	56	3913
2026-01-28 00:34:12.42	46.57	62.41	-41.9	-42.8	24.0	0.00e+00	0	43	0	665845760	55	3967
2026-01-28 00:34:13.43	47.00	62.80	-41.8	-42.7	24.1	0.00e+00	0	43	0	667942912	55	3933
2026-01-28 00:34:14.43	47.43	63.18	-42.4	-43.3	23.7	0.00e+00	0	43	0	670040064	55	4208
2026-01-28 00:34:15.44	47.89	63.57	-43.0	-44.0	23.1	0.00e+00	0	43	0	671088640	56	4324
2026-01-28 00:34:16.45	48.36	63.96	-43.1	-44.0	23.1	0.00e+00	0	43	0	673185792	56	4316
2026-01-28 00:34:17.46	48.85	64.35	-43.1	-44.1	23.1	0.00e+00	0	43	0	675282944	56	4346
2026-01-28 00:34:18.47	49.35	64.74	-43.2	-44.2	23.0	0.00e+00	0	43	0	677380096	57	4164
2026-01-28 00:34:19.48	49.88	65.13	-43.1	-44.1	23.1	0.00e+00	0	43	0	678428672	57	4106
2026-01-28 00:34:20.49	50.42	65.53	-43.2	-44.1	23.1	0.00e+00	0	43	0	680525824	57	4133
2026-01-28 00:34:21.49	50.97	65.91	-43.2	-44.2	22.9	0.00e+00	0	43	0	682622976	57	4163
2026-01-28 00:34:22.50	51.55	66.30	-43.7	-44.7	22.6	0.00e+00	0	43	0	684720128	58	4173
2026-01-28 00:34:23.50	52.15	66.69	-44.5	-45.6	21.9	0.00e+00	0	43	0	686817280	59	4387
2026-01-28 00:34:24.51	52.77	67.08	-45.2	-46.4	20.9	0.00e+00	0	43	0	688914432	61	4282
2026-01-28 00:34:25.51	53.41	67.46	-45.0	-46.2	21.1	0.00e+00	0	43	0	689963008	61	4177
2026-01-28 00:34:26.52	54.08	67.85	-45.9	-47.2	20.2	0.00e+00	0	43	0	692060160	62	4435
2026-01-28 00:34:27.53	54.78	68.24	-46.7	-48.2	19.4	0.00e+00	0	43	0	694157312	63	4670
2026-01-28 00:34:28.54	55.50	68.63	-47.7	-49.6	18.0	0.00e+00	0	43	0	696254464	66	4600
2026-01-28 00:34:29.55	56.25	69.01	-48.8	-51.0	16.5	0.00e+00	0	43	0	698351616	68	4825
2026-01-28 00:34:30.55	57.03	69.39	-47.8	-49.5	18.0	0.00e+00	0	43	0	699400192	67	4327
2026-01-28 00:34:31.56	57.84	69.77	-47.1	-48.7	18.8	0.00e+00	0	43	0	701497344	66	4147
2026-01-28 00:34:32.57	58.69	70.15	-47.3	-49.0	18.5	0.00e+00	0	43	0	703594496	65	4556
2026-01-28 00:34:33.58	59.57	70.52	-47.9	-49.7	17.8	0.00e+00	0	43	0	705691648	66	4696
2026-01-28 00:34:34.59	60.49	70.89	-48.2	-50.2	17.4	0.00e+00	0	43	0	706740224	67	4666
2026-01-28 00:34:35.60	61.45	71.26	-48.3	-50.3	17.3	0.00e+00	0	43	0	708837376	68	4454
2026-01-28 00:34:36.61	62.45	71.63	-48.2	-50.1	17.6	0.00e+00	0	43	0	710934528	68	4371
2026-01-28 00:34:37.61	63.47	71.98	-49.2	-51.5	15.8	0.00e+00	0	43	0	713031680	69	4837
2026-01-28 00:34:38.62	64.56	72.34	-50.3	-53.4	14.5	2.20e-06	0	43	0	715128832	71	5352
2026-01-28 00:34:39.63	65.69	72.69	-49.2	-51.5	16.1	0.00e+00	0	43	0	717225984	70	4551
2026-01-28 00:34:40.64	66.87	73.04	-47.9	-49.7	17.8	0.00e+00	0	43	0	718274560	67	4406
2026-01-28 00:34:41.65	68.10	73.38	-47.5	-49.2	18.4	0.00e+00	0	43	0	720371712	66	4395
2026-01-28 00:34:42.65	69.37	73.71	-47.4	-49.0	18.4	0.00e+00	0	43	0	722468864	66	4326
2026-01-28 00:34:43.66	70.71	74.03	-45.8	-47.0	20.3	0.00e+00	0	43	0	724566016	63	4081
2026-01-28 00:34:44.67	72.10	74.35	-45.1	-46.2	21.2	0.00e+00	0	43	0	726663168	62	3951
2026-01-28 00:34:45.68	73.56	74.66	-45.1	-46.2	21.0	0.00e+00	0	43	0	727711744	62	3947
2026-01-28 00:34:46.69	75.08	74.96	-46.0	-47.4	20.1	0.00e+00	0	43	0	729808896	62	4522
2026-01-28 00:34:47.69	76.64	75.25	-46.5	-48.0	19.6	0.00e+00	0	43	0	731906048	63	4567
2026-01-28 00:34:48.70	78.28	75.53	-47.9	-49.7	17.8	0.00e+00	0	43	0	734003200	66	4683
2026-01-28 00:34:49.71	79.99	75.80	-48.5	-50.6	17.1	0.00e+00	0	43	0	736100352	67	4880
2026-01-28 00:34:50.72	81.77	76.05	-47.9	-49.7	17.8	0.00e+00	0	43	0	737148928	67	4430
2026-01-28 00:34:51.73	83.61	76.30	-48.0	-49.8	17.6	0.00e+00	0	43	0	739246080	67	4477
2026-01-28 00:34:52.73	85.50	76.52	-47.6	-49.2	18.0	0.00e+00	0	43	0	741343232	66	4426
2026-01-28 00:34:53.74	87.47	76.74	-47.2	-48.8	18.5	0.00e+00	0	43	0	743440384	65	4474
2026-01-28 00:34:54.74	89.49	76.94	-46.8	-48.4	19.0	0.00e+00	0	43	0	745537536	65	4257
2026-01-28 00:34:55.75	91.59	77.12	-47.0	-48.5	18.9	0.00e+00	0	43	0	746586112	65	4337
2026-01-28 00:34:56.76	93.75	77.29	-48.3	-50.2	17.2	0.00e+00	0	43	0	748683264	67	4682
2026-01-28 00:34:57.77	95.97	77.44	-49.7	-52.4	15.3	0.00e+00	0	43	0	750780416	70	5065
2026-01-28 00:34:58.77	98.22	77.57	-49.8	-52.5	15.6	7.00e-07	0	43	0	752877568	70	5101
2026-01-28 00:34:59.78	100.53	77.68	-49.2	-51.5	16.0	0.00e+00	0	43	0	754974720	70	4583
2026-01-28 00:35:00.79	102.88	77.77	-49.1	-51.4	16.4	0.00e+00	0	43	0	756023296	69	4786
2026-01-28 00:35:01.80	105.27	77.84	-49.5	-52.0	15.6	7.00e-07	0	43	0	758120448	69	5108
2026-01-28 00:35:02.81	107.68	77.89	-50.2	-53.2	14.6	7.00e-07	0	43	0	760217600	70	5577
2026-01-28 00:35:03.81	110.08	77.92	-50.6	-53.8	13.8	2.05e-05	0	43	0	762314752	72	5336
2026-01-28 00:35:04.81	112.49	77.93	-50.2	-53.1	14.5	1.50e-06	0	43	0	764411904	71	5176
2026-01-28 00:35:05.82	114.92	77.92	-49.9	-52.7	15.1	7.00e-07	0	43	0	765460480	71	4948
2026-01-28 00:35:06.83	117.35	77.89	-48.6	-50.6	17.1	0.00e+00	0	43	0	767557632	69	4346
2026-01-28 00:35:07.84	119.75	77.83	-47.6	-49.3	18.1	0.00e+00	0	43	0	769654784	67	4199
2026-01-28 00:35:08.85	122.13	77.76	-47.4	-49.0	18.4	0.00e+00	0	43	0	771751936	66	4316
2026-01-28 00:35:09.85	124.46	77.66	-49.3	-51.6	16.1	0.00e+00	0	43	0	773849088	69	4922
2026-01-28 00:35:10.86	126.77	77.55	-51.3	-55.6	12.0	7.00e-07	0	43	0	774897664	73	6169
2026-01-28 00:35:11.87	129.03	77.42	-50.4	-53.7	13.7	4.11e-05	0	43	0	776994816	72	5225
2026-01-28 00:35:12.88	131.24	77.26	-48.8	-50.9	16.6	0.00e+00	0	43	0	779091968	69	4500
2026-01-28 00:35:13.89	133.39	77.09	-48.7	-50.8	16.9	0.00e+00	0	43	0	781189120	68	4738
2026-01-28 00:35:14.89	135.46	76.91	-49.4	-51.8	15.6	0.00e+00	0	43	0	783286272	69	4998
2026-01-28 00:35:15.90	137.49	76.71	-49.0	-51.3	16.4	0.00e+00	0	43	0	785383424	68	4989
2026-01-28 00:35:16.91	139.46	76.49	-49.9	-52.7	15.0	0.00e+00	0	43	0	786432000	70	5268
2026-01-28 00:35:17.92	141.35	76.26	-49.7	-52.4	15.2	0.00e+00	0	43	0	788529152	71	4803
2026-01-28 00:35:18.93	143.19	76.01	-47.9	-49.8	17.8	0.00e+00	0	43	0	790626304	67	4460
2026-01-28 00:35:19.93	144.93	75.75	-47.2	-48.8	18.6	0.00e+00	0	43	0	792723456	66	4213
2026-01-28 00:35:20.94	146.63	75.48	-47.7	-49.4	17.9	0.00e+00	0	43	0	793772032	66	4535
2026-01-28 00:35:21.95	148.27	75.20	-48.2	-50.2	17.3	0.00e+00	0	43	0	795869184	67	4676
2026-01-28 00:35:22.96	149.84	74.91	-47.5	-49.2	18.2	0.00e+00	0	43	0	797966336	67	4156
2026-01-28 00:35:23.96	151.33	74.61	-47.2	-48.9	18.5	0.00e+00	0	43	0	800063488	66	4244
2026-01-28 00:35:24.97	152.78	74.30	-46.1	-47.5	19.8	0.00e+00	0	43	0	802160640	64	4062
2026-01-28 00:35:25.98	154.16	73.98	-46.7	-48.2	19.2	0.00e+00	0	43	0	803209216	63	4691
2026-01-28 00:35:26.98	155.48	73.65	-46.2	-47.6	19.6	0.00e+00	0	43	0	805306368	64	4121
2026-01-28 00:35:27.99	156.76	73.32	-45.4	-46.6	20.7	0.00e+00	0	43	0	807403520	62	4124
2026-01-28 00:35:29.00	157.98	72.98	-46.3	-47.6	19.7	0.00e+00	0	43	0	809500672	63	4383
2026-01-28 00:35:30.01	159.15	72.63	-47.5	-49.2	18.1	0.00e+00	0	43	0	811597824	65	4699
2026-01-28 00:35:31.01	160.26	72.28	-46.8	-48.3	18.9	0.00e+00	0	43	0	813694976	65	4220
2026-01-28 00:35:32.02	161.34	71.93	-47.4	-49.2	18.2	0.00e+00	0	43	0	814743552	65	4671
2026-01-28 00:35:33.02	162.36	71.57	-49.3	-52.0	15.7	0.00e+00	0	43	0	816840704	69	5103
2026-01-28 00:35:34.03	163.36	71.20	-49.8	-52.6	14.9	0.00e+00	0	43	0	818937856	70	5214
2026-01-28 00:35:35.04	164.31	70.83	-50.6	-54.1	13.6	3.00e-06	0	43	0	821035008	71	5834
2026-01-28 00:35:36.05	165.22	70.46	-50.5	-54.0	13.4	4.73e-05	0	43	0	822083584	72	5411
2026-01-28 00:35:37.06	166.10	70.08	-48.5	-50.5	17.0	0.00e+00	0	43	0	824180736	69	4332
2026-01-28 00:35:38.06	166.93	69.71	-46.6	-48.0	19.1	0.00e+00	0	43	0	826277888	65	4098
2026-01-28 00:35:39.07	167.74	69.33	-46.9	-48.4	18.9	0.00e+00	0	43	0	828375040	65	4248
2026-01-28 00:35:40.08	168.52	68.94	-47.3	-49.0	18.4	0.00e+00	0	43	0	830472192	65	4583
2026-01-28 00:35:41.08	169.26	68.56	-46.4	-47.9	19.4	0.00e+00	0	43	0	831520768	64	4255
2026-01-28 00:35:42.09	169.98	68.18	-46.4	-47.9	19.3	0.00e+00	0	43	0	833617920	64	4267
2026-01-28 00:35:43.10	170.68	67.79	-46.8	-48.4	18.9	0.00e+00	0	43	0	835715072	64	4532
2026-01-28 00:35:44.11	171.35	67.40	-45.7	-47.0	20.3	0.00e+00	0	43	0	837812224	62	4295
2026-01-28 00:35:45.12	171.99	67.01	-45.6	-46.9	20.3	0.00e+00	0	43	0	839909376	62	4243
2026-01-28 00:35:46.12	172.60	66.62	-45.8	-47.2	20.1	0.00e+00	0	43	0	842006528	62	4409
2026-01-28 00:35:47.13	173.20	66.23	-44.2	-45.3	22.0	0.00e+00	0	43	0	843055104	59	4212
2026-01-28 00:35:48.13	173.77	65.85	-42.9	-43.8	23.2	0.00e+00	0	43	0	845152256	57	3988
2026-01-28 00:35:49.14	174.33	65.45	-43.3	-44.3	22.8	0.00e+00	0	43	0	847249408	57	4221
2026-01-28 00:35:50.15	174.87	65.06	-43.2	-44.2	22.9	0.00e+00	0	43	0	849346560	58	3945
2026-01-28 00:35:51.16	175.39	64.67	-42.4	-43.3	23.6	0.00e+00	0	43	0	850395136	56	3990
2026-01-28 00:35:52.16	175.88	64.28	-42.2	-43.1	23.9	0.00e+00	0	43	0	852492288	56	3876
2026-01-28 00:35:53.17	176.37	63.89	-42.1	-43.0	23.8	0.00e+00	0	43	0	854589440	55	4063
2026-01-28 00:35:54.18	176.84	63.50	-42.6	-43.5	23.4	0.00e+00	0	43	0	856686592	55	4307
2026-01-28 00:35:55.19	177.29	63.11	-43.1	-44.1	22.9	0.00e+00	0	43	0	858783744	57	4116
2026-01-28 00:35:56.20	177.73	62.72	-44.2	-45.3	22.0	0.00e+00	0	43	0	860880896	59	4240
2026-01-28 00:35:57.21	178.16	62.33	-44.3	-45.4	22.0	0.00e+00	0	43	0	861929472	59	4244
2026-01-28 00:35:58.21	178.57	61.95	-43.7	-44.8	22.4	0.00e+00	0	43	0	864026624	59	3965
2026-01-28 00:35:59.22	178.97	61.57	-43.6	-44.6	22.5	0.00e+00	0	43	0	866123776	59	3891
2026-01-28 00:36:00.23	179.36	61.18	-44.2	-45.3	22.1	0.00e+00	0	43	0	868220928	59	4200
2026-01-28 00:36:01.23	179.73	60.80	-44.8	-46.0	21.1	0.00e+00	0	43	0	870318080	60	4300
2026-01-28 00:36:02.24	180.10	60.42	-46.1	-47.5	19.8	0.00e+00	0	43	0	871366656	63	4336
2026-01-28 00:36:03.25	180.45	60.04	-45.7	-47.1	20.2	0.00e+00	0	43	0	873463808	63	4099
2026-01-28 00:36:04.26	180.79	59.65	-45.1	-46.2	20.8	0.00e+00	0	43	0	875560960	62	3957
2026-01-28 00:36:05.27	181.13	59.28	-45.2	-46.4	20.8	0.00e+00	0	43	0	877658112	62	4010
2026-01-28 00:36:06.27	181.45	58.90	-45.7	-46.9	20.4	0.00e+00	0	43	0	878706688	62	4288
2026-01-28 00:36:07.28	181.77	58.53	-45.2	-46.4	20.7	0.00e+00	0	43	0	880803840	62	4031
2026-01-28 00:36:08.29	182.08	58.15	-46.1	-47.6	19.7	0.00e+00	0	43	0	882900992	62	4599
2026-01-28 00:36:09.30	182.38	57.78	-46.4	-48.0	19.2	0.00e+00	0	43	0	884998144	64	4292
2026-01-28 00:36:10.30	182.66	57.41	-45.7	-47.0	20.2	0.00e+00	0	43	0	887095296	63	4078
2026-01-28 00:36:11.31	182.95	57.04	-44.5	-45.6	21.4	0.00e+00	0	43	0	889192448	60	4122
2026-01-28 00:36:12.32	183.22	56.68	-44.1	-45.2	22.1	0.00e+00	0	43	0	890241024	59	4168
2026-01-28 00:36:13.33	183.49	56.31	-44.1	-45.2	22.0	0.00e+00	0	43	0	892338176	59	4165
2026-01-28 00:36:14.33	183.75	55.95	-44.1	-45.1	22.2	0.00e+00	0	43	0	894435328	59	4142
2026-01-28 00:36:15.34	184.01	55.59	-44.7	-45.8	21.6	0.00e+00	0	43	0	896532480	59	4476
2026-01-28 00:36:16.35	184.26	55.23	-45.5	-46.9	20.3	0.00e+00	0	43	0	898629632	61	4533
2026-01-28 00:36:17.35	184.50	54.87	-45.4	-46.8	20.3	0.00e+00	0	43	0	899678208	62	4221
2026-01-28 00:36:18.36	184.74	54.52	-44.5	-45.6	21.4	0.00e+00	0	43	0	901775360	60	4134
2026-01-28 00:36:19.37	184.97	54.16	-44.5	-45.7	21.4	0.00e+00	0	43	0	903872512	60	4151
2026-01-28 00:36:20.37	185.19	53.81	-45.4	-46.7	20.5	0.00e+00	0	43	0	905969664	61	4396
2026-01-28 00:36:21.38	185.41	53.46	-45.8	-47.1	20.2	0.00e+00	0	43	0	907018240	62	4379
2026-01-28 00:36:22.39	185.63	53.12	-44.9	-46.0	20.9	0.00e+00	0	43	0	909115392	61	4093
2026-01-28 00:36:23.39	185.84	52.77	-44.3	-45.3	21.9	0.00e+00	0	43	0	911212544	59	4227
2026-01-28 00:36:24.40	186.04	52.43	-44.5	-45.6	21.3	0.00e+00	0	43	0	913309696	60	4107
2026-01-28 00:36:25.41	186.24	52.09	-45.7	-47.0	20.2	0.00e+00	0	43	0	915406848	62	4317
2026-01-28 00:36:26.42	186.44	51.75	-46.8	-48.4	18.9	0.00e+00	0	43	0	917504000	64	4508
2026-01-28 00:36:27.43	186.63	51.41	-47.1	-48.8	18.5	0.00e+00	0	43	0	918552576	64	4708
2026-01-28 00:36:28.44	186.82	51.07	-47.1	-48.7	18.4	0.00e+00	0	43	0	920649728	65	4428
2026-01-28 00:36:29.44	187.00	50.74	-46.5	-48.0	19.0	0.00e+00	0	43	0	922746880	64	4310
2026-01-28 00:36:30.45	187.19	50.41	-46.3	-47.8	19.3	0.00e+00	0	43	0	924844032	64	4200
2026-01-28 00:36:31.46	187.36	50.08	-46.3	-47.7	19.4	0.00e+00	0	43	0	926941184	64	4181
2026-01-28 00:36:32.47	187.53	49.75	-46.1	-47.5	19.6	0.00e+00	0	43	0	927989760	64	4087
2026-01-28 00:36:33.47	187.70	49.43	-46.6	-48.2	19.0	0.00e+00	0	43	0	930086912	64	4401
2026-01-28 00:36:34.47	187.87	49.11	-47.2	-48.9	18.3	0.00e+00	0	43	0	932184064	65	4529
2026-01-28 00:36:35.48	188.03	48.79	-47.7	-49.6	17.7	0.00e+00	0	43	0	934281216	65	4879
2026-01-28 00:36:36.49	188.19	48.47	-47.9	-49.7	17.7	0.00e+00	0	43	0	935329792	66	4690
2026-01-28 00:36:37.50	188.34	48.15	-48.1	-50.0	17.2	0.00e+00	0	43	0	937426944	67	4578
2026-01-28 00:36:38.50	188.50	47.84	-47.0	-48.6	18.4	0.00e+00	0	43	0	939524096	66	4122
2026-01-28 00:36:39.51	188.65	47.53	-45.8	-47.1	20.1	0.00e+00	0	43	0	941621248	63	4117
2026-01-28 00:36:40.52	188.79	47.22	-46.2	-47.6	19.6	0.00e+00	0	43	0	943718400	63	4380
2026-01-28 00:36:41.53	188.94	46.91	-47.5	-49.3	18.0	0.00e+00	0	43	0	945815552	65	4741
2026-01-28 00:36:42.53	189.08	46.60	-49.8	-52.8	14.7	0.00e+00	0	43	0	946864128	70	5315
2026-01-28 00:36:43.54	189.22	46.30	-51.1	-55.5	11.6	2.13e-05	0	43	0	948961280	73	6065
2026-01-28 00:36:44.55	189.35	45.99	-50.9	-55.0	12.4	1.81e-04	0	43	0	951058432	73	5732
2026-01-28 00:36:45.56	189.49	45.69	-49.9	-52.9	14.4	7.60e-06	0	43	0	953155584	71	5077
2026-01-28 00:36:46.56	189.62	45.40	-48.5	-50.6	16.6	0.00e+00	0	43	0	955252736	69	4382
2026-01-28 00:36:47.57	189.75	45.10	-47.4	-49.1	18.1	0.00e+00	0	43	0	956301312	66	4379
2026-01-28 00:36:48.58	189.87	44.81	-46.2	-47.6	19.4	0.00e+00	0	43	0	958398464	64	4123
2026-01-28 00:36:49.59	190.00	44.52	-45.6	-46.9	20.2	0.00e+00	0	43	0	960495616	63	4046
2026-01-28 00:36:50.59	190.12	44.23	-45.3	-46.5	20.6	0.00e+00	0	43	0	962592768	62	4068
2026-01-28 00:36:51.60	190.24	43.94	-45.7	-47.0	20.1	0.00e+00	0	43	0	964689920	62	4324
2026-01-28 00:36:52.61	190.36	43.65	-45.9	-47.3	19.9	0.00e+00	0	43	0	965738496	62	4468
2026-01-28 00:36:53.61	190.47	43.37	-47.1	-48.9	18.4	0.00e+00	0	43	0	967835648	64	4760
2026-01-28 00:36:54.62	190.59	43.09	-48.2	-50.4	16.8	0.00e+00	0	43	0	969932800	67	4776
2026-01-28 00:36:55.63	190.70	42.81	-48.2	-50.3	17.0	0.00e+00	0	43	0	972029952	67	4757
2026-01-28 00:36:56.64	190.81	42.53	-47.6	-49.5	17.8	0.00e+00	0	43	0	974127104	67	4336
2026-01-28 00:36:57.65	190.92	42.25	-45.9	-47.3	19.8	0.00e+00	0	43	0	975175680	63	4216
2026-01-28 00:36:58.65	191.02	41.98	-44.8	-46.0	21.0	0.00e+00	0	43	0	977272832	61	4055
2026-01-28 00:36:59.66	191.13	41.71	-44.1	-45.1	21.7	0.00e+00	0	43	0	979369984	60	3911
2026-01-28 00:37:00.67	191.23	41.44	-44.3	-45.4	21.6	0.00e+00	0	43	0	981467136	60	4009
2026-01-28 00:37:01.68	191.33	41.17	-44.7	-45.8	21.1	0.00e+00	0	43	0	983564288	60	4226
2026-01-28 00:37:02.69	191.43	40.90	-45.1	-46.3	20.7	0.00e+00	0	43	0	984612864	60	4487
2026-01-28 00:37:03.69	191.53	40.64	-45.8	-47.2	19.9	0.00e+00	0	43	0	986710016	62	4433
2026-01-28 00:37:04.70	191.63	40.37	-45.8	-47.2	19.9	0.00e+00	0	43	0	988807168	63	4170
2026-01-28 00:37:05.71	191.73	40.11	-45.7	-47.0	20.0	0.00e+00	0	43	0	990904320	63	4077
2026-01-28 00:37:06.72	191.82	39.85	-45.5	-46.8	20.1	0.00e+00	0	43	0	993001472	63	3989
2026-01-28 00:37:07.73	191.91	39.60	-45.7	-47.1	20.0	0.00e+00	0	43	0	994050048	62	4342
2026-01-28 00:37:08.74	192.00	39.34	-45.2	-46.4	20.5	0.00e+00	0	43	0	996147200	61	4281
2026-01-28 00:37:09.74	192.09	39.09	-45.5	-46.8	20.3	0.00e+00	0	43	0	998244352	61	4450
2026-01-28 00:37:10.74	192.18	38.84	-45.8	-47.1	20.0	0.00e+00	0	43	0	1000341504	62	4368
2026-01-28 00:37:11.75	192.27	38.59	-46.5	-48.0	19.1	0.00e+00	0	43	0	1002438656	63	4558
2026-01-28 00:37:12.76	192.35	38.34	-47.4	-49.2	17.9	0.00e+00	0	43	0	1003487232	65	4680
2026-01-28 00:37:13.77	192.44	38.09	-47.7	-49.6	17.4	0.00e+00	0	43	0	1005584384	66	4632
2026-01-28 00:37:14.77	192.52	37.85	-47.3	-49.1	18.1	0.00e+00	0	43	0	1007681536	66	4367
2026-01-28 00:37:15.78	192.60	37.60	-46.9	-48.5	18.5	0.00e+00	0	43	0	1009778688	65	4321
2026-01-28 00:37:16.79	192.69	37.36	-47.4	-49.2	17.9	0.00e+00	0	43	0	1011875840	65	4678
2026-01-28 00:37:17.79	192.77	37.12	-47.2	-49.0	18.1	0.00e+00	0	43	0	1012924416	66	4292
2026-01-28 00:37:18.79	192.84	36.89	-47.7	-49.7	17.5	0.00e+00	0	43	0	1015021568	66	4672
2026-01-28 00:37:19.80	192.92	36.65	-47.7	-49.7	17.4	0.00e+00	0	43	0	1017118720	66	4668
2026-01-28 00:37:20.81	193.00	36.42	-46.9	-48.6	18.3	0.00e+00	0	43	0	1019215872	65	4384
2026-01-28 00:37:21.82	193.08	36.18	-47.5	-49.4	17.7	0.00e+00	0	43	0	1021313024	65	4776
2026-01-28 00:37:22.82	193.15	35.95	-47.4	-49.2	17.8	0.00e+00	0	43	0	1022361600	66	4422
2026-01-28 00:37:23.83	193.22	35.72	-47.3	-49.1	18.0	0.00e+00	0	43	0	1024458752	66	4359
2026-01-28 00:37:24.84	193.30	35.49	-46.7	-48.3	18.7	0.00e+00	0	43	0	1026555904	65	4203
2026-01-28 00:37:25.84	193.37	35.27	-46.0	-47.4	19.5	0.00e+00	0	43	0	1028653056	64	4005
2026-01-28 00:37:26.85	193.44	35.04	-45.0	-46.2	20.6	0.00e+00	0	43	0	1030750208	62	3918
2026-01-28 00:37:27.86	193.51	34.82	-44.7	-45.8	21.0	0.00e+00	0	43	0	1031798784	61	4002
2026-01-28 00:37:28.87	193.58	34.60	-44.9	-46.0	20.8	0.00e+00	0	43	0	1033895936	60	4332
2026-01-28 00:37:29.88	193.65	34.37	-44.9	-46.1	20.8	0.00e+00	0	43	0	1035993088	60	4375
2026-01-28 00:37:30.88	193.71	34.16	-45.8	-47.2	19.8	0.00e+00	0	43	0	1038090240	62	4397
2026-01-28 00:37:31.89	193.78	33.94	-46.6	-48.2	18.9	0.00e+00	0	43	0	1040187392	63	4668
2026-01-28 00:37:32.90	193.85	33.72	-47.7	-49.6	17.4	0.00e+00	0	43	0	1041235968	65	4903
2026-01-28 00:37:33.91	193.91	33.51	-48.7	-51.0	16.1	0.00e+00	0	43	0	1043333120	67	5143
2026-01-28 00:37:34.92	193.98	33.29	-49.1	-51.7	15.5	0.00e+00	0	43	0	1045430272	68	5243
2026-01-28 00:37:35.93	194.04	33.08	-49.5	-52.3	14.9	0.00e+00	0	43	0	1047527424	69	5314
2026-01-28 00:37:36.93	194.10	32.87	-49.0	-51.4	15.8	0.00e+00	0	43	0	1049624576	69	4787
2026-01-28 00:37:37.94	194.16	32.66	-48.7	-51.0	16.1	0.00e+00	0	43	0	1050673152	69	4597
2026-01-28 00:37:38.95	194.22	32.45	-48.4	-50.6	16.5	0.00e+00	0	43	0	1052770304	68	4613
2026-01-28 00:37:39.95	194.28	32.25	-48.5	-50.7	16.4	0.00e+00	0	43	0	1054867456	68	4689
2026-01-28 00:37:40.96	194.34	32.05	-47.9	-49.8	17.2	0.00e+00	0	43	0	1056964608	67	4479
2026-01-28 00:37:41.97	194.40	31.84	-47.3	-49.1	17.9	0.00e+00	0	43	0	1059061760	66	4370
2026-01-28 00:37:42.98	194.46	31.64	-47.2	-48.9	18.1	0.00e+00	0	43	0	1060110336	66	4273
2026-01-28 00:37:43.99	194.52	31.44	-46.8	-48.4	18.5	0.00e+00	0	43	0	1062207488	65	4260
2026-01-28 00:37:44.99	194.58	31.24	-46.5	-48.0	19.0	0.00e+00	0	43	0	1064304640	64	4298
2026-01-28 00:37:46.00	194.63	31.04	-46.0	-47.4	19.5	0.00e+00	0	43	0	1066401792	64	4014
2026-01-28 00:37:47.01	194.69	30.84	-46.1	-47.5	19.4	0.00e+00	0	43	0	1068498944	63	4340
2026-01-28 00:37:48.02	194.74	30.65	-45.8	-47.2	19.7	0.00e+00	0	43	0	1069547520	63	4155
2026-01-28 00:37:49.03	194.80	30.45	-45.3	-46.5	20.3	0.00e+00	0	43	0	1071644672	62	4088
2026-01-28 00:37:50.03	194.85	30.26	-45.5	-46.8	20.1	0.00e+00	0	43	0	1073741824	61	4451
2026-01-28 00:37:51.04	194.90	30.07	-45.2	-46.5	20.3	0.00e+00	0	43	0	1075838976	61	4305
2026-01-28 00:37:52.05	194.96	29.88	-45.2	-46.5	20.4	0.00e+00	0	43	0	1077936128	61	4324
2026-01-28 00:37:53.06	195.01	29.69	-45.3	-46.6	20.2	0.00e+00	0	43	0	1078984704	61	4376
2026-01-28 00:37:54.07	195.06	29.50	-45.5	-46.9	20.0	0.00e+00	0	43	0	1081081856	61	4507
2026-01-28 00:37:55.07	195.11	29.32	-46.0	-47.4	19.5	0.00e+00	0	43	0	1083179008	62	4544
2026-01-28 00:37:56.09	195.16	29.13	-46.0	-47.4	19.6	0.00e+00	0	43	0	1085276160	62	4509
2026-01-28 00:37:57.09	195.21	28.95	-46.7	-48.3	18.7	0.00e+00	0	43	0	1087373312	63	4733
2026-01-28 00:37:58.10	195.26	28.76	-47.3	-49.2	17.8	0.00e+00	0	43	0	1089470464	65	4659
2026-01-28 00:37:59.11	195.31	28.58	-47.8	-49.8	17.1	0.00e+00	0	43	0	1090519040	66	4747
2026-01-28 00:38:00.11	195.36	28.40	-48.0	-50.2	16.8	0.00e+00	0	43	0	1092616192	67	4655
2026-01-28 00:38:01.12	195.41	28.22	-48.4	-50.7	16.2	0.00e+00	0	43	0	1094713344	67	4972
2026-01-28 00:38:02.13	195.45	28.04	-48.8	-51.2	15.8	0.00e+00	0	43	0	1096810496	68	4951
2026-01-28 00:38:03.13	195.50	27.87	-48.3	-50.5	16.5	0.00e+00	0	43	0	1097859072	68	4567
2026-01-28 00:38:04.14	195.55	27.69	-47.9	-50.0	16.9	0.00e+00	0	43	0	1099956224	67	4572
2026-01-28 00:38:05.15	195.59	27.52	-47.5	-49.4	17.4	0.00e+00	0	43	0	1102053376	67	4267
2026-01-28 00:38:06.16	195.64	27.34	-47.0	-48.8	18.0	0.00e+00	0	43	0	1104150528	66	4201
2026-01-28 00:38:07.17	195.68	27.17	-46.4	-48.0	18.7	0.00e+00	0	43	0	1106247680	64	4332
2026-01-28 00:38:08.18	195.73	27.00	-46.1	-47.6	19.1	0.00e+00	0	43	0	1107296256	63	4386
2026-01-28 00:38:09.19	195.77	26.82	-46.0	-47.4	19.4	0.00e+00	0	43	0	1109393408	63	4272
2026-01-28 00:38:10.19	195.82	26.66	-45.7	-47.1	19.6	0.00e+00	0	43	0	1111490560	63	4145
2026-01-28 00:38:11.20	195.86	26.49	-45.5	-46.9	19.8	0.00e+00	0	43	0	1113587712	62	4253
2026-01-28 00:38:12.21	195.90	26.32	-45.4	-46.8	19.9	0.00e+00	0	43	0	1115684864	62	4216
2026-01-28 00:38:13.22	195.95	26.15	-45.1	-46.4	20.2	0.00e+00	0	43	0	1117782016	62	4045
2026-01-28 00:38:14.22	195.99	25.99	-45.0	-46.3	20.4	0.00e+00	0	43	0	1118830592	61	4205
2026-01-28 00:38:15.23	196.03	25.82	-44.8	-46.1	20.6	0.00e+00	0	43	0	1120927744	61	4109
2026-01-28 00:38:16.23	196.07	25.66	-44.9	-46.1	20.5	0.00e+00	0	43	0	1123024896	61	4142
2026-01-28 00:38:17.24	196.11	25.50	-44.8	-46.0	20.6	0.00e+00	0	43	0	1125122048	61	4095
2026-01-28 00:38:18.24	196.15	25.34	-44.7	-45.9	20.7	0.00e+00	0	43	0	1126170624	61	4031
2026-01-28 00:38:19.25	196.19	25.18	-44.7	-46.0	20.7	0.00e+00	0	43	0	1128267776	61	4061
2026-01-28 00:38:20.25	196.23	25.02	-44.8	-46.0	20.6	0.00e+00	0	43	0	1130364928	61	4082
2026-01-28 00:38:21.26	196.27	24.86	-44.7	-45.9	20.6	0.00e+00	0	43	0	1132462080	61	4032
2026-01-28 00:38:22.27	196.31	24.70	-44.5	-45.7	20.8	0.00e+00	0	43	0	1134559232	60	4191
2026-01-28 00:38:23.27	196.35	24.54	-44.6	-45.8	20.8	0.00e+00	0	43	0	1135607808	60	4229
2026-01-28 00:38:24.28	196.39	24.39	-44.4	-45.5	21.0	0.00e+00	0	43	0	1137704960	60	4092
2026-01-28 00:38:25.29	196.42	24.23	-44.0	-45.1	21.4	0.00e+00	0	43	0	1139802112	60	3898
2026-01-28 00:38:26.30	196.46	24.08	-44.3	-45.5	21.4	0.00e+00	0	43	0	1141899264	59	4308
2026-01-28 00:38:27.30	196.50	23.93	-43.9	-45.1	21.7	0.00e+00	0	43	0	1143996416	59	4102
2026-01-28 00:38:28.31	196.54	23.77	-43.8	-44.9	21.9	0.00e+00	0	43	0	1146093568	59	4017
2026-01-28 00:38:29.32	196.57	23.62	-43.7	-44.7	22.0	0.00e+00	0	43	0	1147142144	59	3957
2026-01-28 00:38:30.32	196.61	23.47	-43.7	-44.8	22.0	0.00e+00	0	43	0	1149239296	59	3959
2026-01-28 00:38:31.33	196.65	23.32	-43.9	-45.0	21.8	0.00e+00	0	43	0	1151336448	59	4054
2026-01-28 00:38:32.34	196.68	23.17	-43.8	-44.9	21.8	0.00e+00	0	43	0	1153433600	59	4030
2026-01-28 00:38:33.34	196.72	23.03	-44.0	-45.1	21.6	0.00e+00	0	43	0	1154482176	59	4140
2026-01-28 00:38:34.35	196.75	22.88	-44.2	-45.4	21.4	0.00e+00	0	43	0	1156579328	59	4262
2026-01-28 00:38:35.36	196.79	22.73	-44.5	-45.7	21.1	0.00e+00	0	43	0	1158676480	59	4437
2026-01-28 00:38:36.37	196.82	22.59	-44.4	-45.6	21.0	0.00e+00	0	43	0	1160773632	60	4108
2026-01-28 00:38:37.38	196.86	22.44	-44.4	-45.6	20.9	0.00e+00	0	43	0	1162870784	60	4117
2026-01-28 00:38:38.39	196.89	22.30	-44.7	-46.0	20.6	0.00e+00	0	43	0	1163919360	60	4308
2026-01-28 00:38:39.39	196.92	22.15	-45.0	-46.3	20.3	0.00e+00	0	43	0	1166016512	60	4465
2026-01-28 00:38:40.40	196.96	22.01	-44.8	-46.1	20.4	0.00e+00	0	43	0	1168113664	60	4374
2026-01-28 00:38:41.40	196.99	21.87	-45.2	-46.5	20.1	0.00e+00	0	43	0	1170210816	60	4589
2026-01-28 00:38:42.41	197.02	21.73	-45.1	-46.4	20.2	0.00e+00	0	43	0	1172307968	61	4278
2026-01-28 00:38:43.42	197.06	21.59	-45.2	-46.6	20.0	0.00e+00	0	43	0	1174405120	61	4350
2026-01-28 00:38:44.43	197.09	21.45	-44.9	-46.3	20.2	0.00e+00	0	43	0	1175453696	61	4195
2026-01-28 00:38:45.43	197.12	21.31	-44.8	-46.1	20.4	0.00e+00	0	43	0	1177550848	61	4110
2026-01-28 00:38:46.44	197.15	21.17	-44.7	-46.0	20.4	0.00e+00	0	43	0	1179648000	61	4072
2026-01-28 00:38:47.45	197.19	21.04	-44.6	-45.9	20.5	0.00e+00	0	43	0	1181745152	61	4014
2026-01-28 00:38:48.45	197.22	20.90	-44.5	-45.8	20.1	0.00e+00	0	43	0	1182793728	61	4004
2026-01-28 00:38:49.46	197.25	20.77	-44.4	-45.8	20.0	6.63e-05	0	43	0	1184890880	60	4205
2026-01-28 00:38:50.47	197.28	20.63	-44.4	-45.8	19.9	8.18e-04	0	43	0	1186988032	60	4217
2026-01-28 00:38:51.48	197.31	20.50	-44.5	-46.0	19.8	5.51e-04	0	43	0	1189085184	60	4303
2026-01-28 00:38:52.48	197.34	20.36	-44.7	-46.0	20.5	1.50e-06	0	43	0	1191182336	60	4326
2026-01-28 00:38:53.49	197.37	20.23	-44.8	-46.1	20.5	0.00e+00	0	43	0	1192230912	60	4342
2026-01-28 00:38:54.50	197.40	20.10	-44.9	-46.3	20.2	0.00e+00	0	43	0	1194328064	60	4448
2026-01-28 00:38:55.51	197.43	19.97	-44.9	-46.3	20.2	0.00e+00	0	43	0	1196425216	60	4464
2026-01-28 00:38:56.52	197.46	19.84	-44.9	-46.2	20.3	0.00e+00	0	43	0	1198522368	60	4438
2026-01-28 00:38:57.53	197.49	19.70	-45.0	-46.3	20.2	0.00e+00	0	43	0	1200619520	60	4475
2026-01-28 00:38:58.53	197.52	19.58	-44.9	-46.2	20.3	0.00e+00	0	43	0	1202716672	60	4423
2026-01-28 00:38:59.54	197.55	19.45	-44.9	-46.2	20.3	0.00e+00	0	43	0	1203765248	60	4437
2026-01-28 00:39:00.55	197.58	19.32	-44.8	-46.2	20.3	0.00e+00	0	43	0	1205862400	60	4399
2026-01-28 00:39:01.55	197.60	19.19	-44.9	-46.2	20.3	0.00e+00	0	43	0	1207959552	60	4412
2026-01-28 00:39:02.56	197.63	19.07	-44.7	-46.0	20.4	0.00e+00	0	43	0	1210056704	60	4315
2026-01-28 00:39:03.56	197.66	18.94	-44.5	-45.8	20.5	0.00e+00	0	43	0	1211105280	60	4229
2026-01-28 00:39:04.57	197.69	18.82	-44.6	-45.8	20.6	0.00e+00	0	43	0	1213202432	60	4239
2026-01-28 00:39:05.58	197.72	18.69	-44.6	-45.9	20.5	0.00e+00	0	43	0	1215299584	60	4277
2026-01-28 00:39:06.59	197.74	18.57	-44.7	-46.0	20.4	0.00e+00	0	43	0	1217396736	60	4310
2026-01-28 00:39:07.59	197.77	18.44	-44.5	-45.8	20.6	0.00e+00	0	43	0	1219493888	60	4215
2026-01-28 00:39:08.60	197.80	18.32	-44.6	-45.9	20.5	0.00e+00	0	43	0	1221591040	60	4259
2026-01-28 00:39:09.61	197.83	18.20	-44.5	-45.7	20.6	0.00e+00	0	43	0	1222639616	60	4189
2026-01-28 00:39:10.62	197.85	18.08	-44.5	-45.8	20.6	0.00e+00	0	43	0	1224736768	60	4218
2026-01-28 00:39:11.63	197.88	17.95	-44.5	-45.8	20.6	0.00e+00	0	43	0	1226833920	60	4221
2026-01-28 00:39:12.63	197.91	17.83	-44.6	-45.9	20.5	0.00e+00	0	43	0	1228931072	60	4269
2026-01-28 00:39:13.63	197.93	17.71	-44.7	-46.0	20.4	0.00e+00	0	43	0	1231028224	60	4296
2026-01-28 00:39:14.64	197.96	17.60	-44.6	-46.0	20.5	0.00e+00	0	43	0	1232076800	60	4292
2026-01-28 00:39:15.65	197.98	17.48	-44.6	-45.9	20.4	0.00e+00	0	43	0	1234173952	60	4289
2026-01-28 00:39:16.65	198.01	17.36	-44.9	-46.2	20.2	0.00e+00	0	43	0	1236271104	60	4418
2026-01-28 00:39:17.66	198.03	17.24	-44.7	-46.0	20.3	0.00e+00	0	43	0	1238368256	60	4334
2026-01-28 00:39:18.67	198.06	17.12	-44.8	-46.2	20.2	0.00e+00	0	43	0	1239416832	60	4403
2026-01-28 00:39:19.68	198.09	17.01	-45.0	-46.4	20.1	0.00e+00	0	43	0	1241513984	60	4512
2026-01-28 00:39:20.69	198.11	16.89	-45.0	-46.3	20.1	0.00e+00	0	43	0	1243611136	60	4480
2026-01-28 00:39:21.69	198.14	16.78	-45.0	-46.4	20.0	0.00e+00	0	43	0	1245708288	60	4512
2026-01-28 00:39:22.70	198.16	16.66	-45.1	-46.4	19.9	0.00e+00	0	43	0	1247805440	60	4531
2026-01-28 00:39:23.71	198.18	16.55	-45.0	-46.3	20.0	0.00e+00	0	43	0	1249902592	60	4491
