passes_logs/2026/01/28/R3.2S_Murmansk/R3.2S_Murmansk__20260128_120744_AQUA_rec.log

#Pass ID: 20260128_120744_AQUA
#Satellite: AQUA
#Configuration: AQUA
#almurnet v.1.7.20251203
#Start time: 2026-01-28 12:07:45

#Version: 2.2.20231116
#Station: R3.2S_Murmansk
#Location: 33.079688 lon 68.888172 lat
#TLE: 1 27424U 02022A   26027.88561574  .00001798  00000+0  36942-3 0  9997
#TLE: 2 27424  98.4102 354.5311 0001840  63.5604 322.5877 14.61868111262779

#Time	Az	El	Level	Level2	SNR	BER	BlckErr	Temp	State	Recorded	gain1	gain2
2026-01-28 12:07:45.98	173.32	2.09	-53.9	-71.6	3.8	7.46e-01	0	40	0	0	79	27663
2026-01-28 12:07:46.99	173.35	2.16	-53.8	-71.4	3.8	7.45e-01	0	40	104	0	78	28503
2026-01-28 12:07:48.00	173.38	2.22	-53.8	-71.4	3.8	7.42e-01	0	40	104	0	78	28492
2026-01-28 12:07:49.01	173.41	2.29	-53.8	-71.5	3.8	7.43e-01	0	41	104	0	78	28708
2026-01-28 12:07:50.02	173.44	2.36	-53.8	-71.6	3.8	7.43e-01	0	41	104	0	78	29144
2026-01-28 12:07:51.03	173.47	2.42	-53.8	-71.7	3.8	7.45e-01	0	41	104	0	78	29380
2026-01-28 12:07:52.04	173.51	2.49	-53.8	-71.3	3.8	7.45e-01	0	41	104	0	78	28345
2026-01-28 12:07:53.04	173.54	2.56	-53.8	-70.7	3.8	7.46e-01	0	41	104	0	78	26442
2026-01-28 12:07:54.05	173.57	2.62	-53.8	-70.4	3.8	7.43e-01	0	41	104	0	78	25346
2026-01-28 12:07:55.06	173.60	2.69	-53.8	-69.9	3.8	7.43e-01	0	41	104	0	78	23856
2026-01-28 12:07:56.07	173.63	2.76	-53.8	-69.3	3.8	7.42e-01	0	41	104	0	78	22469
2026-01-28 12:07:57.08	173.66	2.83	-53.8	-69.5	3.9	7.42e-01	0	41	104	0	78	22782
2026-01-28 12:07:58.09	173.69	2.90	-53.8	-69.6	3.9	7.42e-01	0	41	104	0	78	23159
2026-01-28 12:07:59.09	173.73	2.96	-53.8	-69.3	4.0	7.38e-01	0	41	104	0	78	22436
2026-01-28 12:08:00.10	173.76	3.03	-53.8	-70.3	3.8	7.46e-01	0	41	104	0	78	25085
2026-01-28 12:08:01.11	173.79	3.10	-53.8	-70.9	3.8	7.44e-01	0	41	104	0	78	26970
2026-01-28 12:08:02.12	173.82	3.17	-53.8	-71.4	3.8	7.47e-01	0	41	104	0	78	28370
2026-01-28 12:08:03.12	173.86	3.24	-53.8	-71.6	3.8	7.44e-01	0	41	104	0	78	29288
2026-01-28 12:08:04.13	173.89	3.31	-53.8	-71.4	3.8	7.48e-01	0	41	104	0	78	28592
2026-01-28 12:08:05.14	173.92	3.38	-53.8	-70.8	3.8	7.48e-01	0	41	104	0	78	26642
2026-01-28 12:08:06.15	173.95	3.45	-53.8	-70.1	3.8	7.44e-01	0	41	104	0	78	24417
2026-01-28 12:08:07.16	173.99	3.52	-53.7	-69.2	4.0	7.39e-01	0	41	104	0	78	22094
2026-01-28 12:08:08.17	174.02	3.59	-53.7	-69.2	4.0	7.38e-01	0	41	104	0	78	22082
2026-01-28 12:08:09.17	174.05	3.66	-53.8	-70.2	3.8	7.43e-01	0	41	104	0	78	24974
2026-01-28 12:08:10.18	174.09	3.73	-53.8	-71.2	3.8	7.44e-01	0	41	104	0	78	27796
2026-01-28 12:08:11.19	174.12	3.80	-53.8	-71.0	3.8	7.46e-01	0	41	104	0	78	27123
2026-01-28 12:08:12.20	174.16	3.87	-53.7	-67.7	4.3	7.27e-01	0	41	104	0	78	18654
2026-01-28 12:08:13.21	174.19	3.94	-53.4	-64.0	6.4	6.74e-01	182	41	0	524288	78	12129
2026-01-28 12:08:14.21	174.22	4.01	-53.1	-61.4	9.0	6.35e-01	0	41	0	2097152	78	8969
2026-01-28 12:08:15.22	174.26	4.08	-52.3	-58.0	12.6	6.11e-01	0	41	0	4194304	76	6845
2026-01-28 12:08:16.23	174.29	4.15	-51.6	-56.3	14.3	6.08e-01	0	41	0	5767168	75	5941
2026-01-28 12:08:17.23	174.33	4.22	-50.8	-54.5	16.1	6.03e-01	0	41	0	7864320	73	5409
2026-01-28 12:08:18.24	174.36	4.30	-50.2	-53.4	17.1	6.07e-01	0	41	0	9961472	72	5062
2026-01-28 12:08:19.25	174.40	4.37	-49.5	-52.2	18.5	6.04e-01	0	41	0	11534336	71	4682
2026-01-28 12:08:20.26	174.43	4.44	-48.8	-51.1	19.6	6.05e-01	0	41	0	13631488	69	4635
2026-01-28 12:08:21.27	174.47	4.51	-48.6	-50.9	19.7	6.07e-01	0	41	0	15204352	69	4532
2026-01-28 12:08:22.27	174.50	4.59	-48.4	-50.7	20.0	6.04e-01	0	41	0	17301504	68	4654
2026-01-28 12:08:23.28	174.54	4.66	-48.3	-50.4	20.2	6.05e-01	0	41	0	19398656	68	4542
2026-01-28 12:08:24.29	174.58	4.73	-48.5	-50.8	19.8	6.05e-01	0	41	0	20971520	68	4718
2026-01-28 12:08:25.30	174.61	4.81	-49.1	-51.6	19.1	6.08e-01	0	41	0	23068672	68	5169
2026-01-28 12:08:26.31	174.65	4.88	-49.5	-52.2	18.5	6.08e-01	0	41	0	24641536	69	5240
2026-01-28 12:08:27.31	174.68	4.95	-50.1	-53.2	17.5	6.04e-01	0	41	0	26738688	70	5546
2026-01-28 12:08:28.32	174.72	5.03	-50.6	-54.2	16.3	6.06e-01	0	41	0	28835840	72	5559
2026-01-28 12:08:29.33	174.76	5.10	-51.0	-54.8	16.2	6.05e-01	0	41	0	30408704	72	5980
2026-01-28 12:08:30.34	174.80	5.18	-53.1	-61.6	7.6	6.45e-01	144	41	0	31981568	77	9786
2026-01-28 12:08:31.35	174.83	5.25	-47.5	-49.3	21.3	6.05e-01	0	41	0	33554432	67	4219
2026-01-28 12:08:32.35	174.87	5.33	-46.9	-48.6	22.1	6.06e-01	0	41	0	35651584	65	4346
2026-01-28 12:08:33.36	174.91	5.40	-52.8	-59.9	9.5	6.21e-01	0	42	0	37224448	77	8044
2026-01-28 12:08:34.37	174.95	5.48	-47.7	-49.6	21.2	6.04e-01	0	41	0	39321600	67	4375
2026-01-28 12:08:35.37	174.98	5.55	-47.5	-49.4	21.4	6.06e-01	0	41	0	41418752	67	4260
2026-01-28 12:08:36.38	175.02	5.63	-47.2	-49.0	21.8	6.06e-01	0	41	0	43515904	66	4323
2026-01-28 12:08:37.39	175.06	5.70	-46.9	-48.6	22.3	6.06e-01	0	42	0	45088768	65	4344
2026-01-28 12:08:38.40	175.10	5.78	-46.9	-48.6	22.3	6.05e-01	0	41	0	47185920	65	4350
2026-01-28 12:08:39.41	175.14	5.86	-46.5	-48.1	22.8	6.05e-01	0	41	0	48758784	65	4123
2026-01-28 12:08:40.41	175.18	5.93	-46.4	-48.0	22.9	6.07e-01	0	41	0	50855936	64	4299
2026-01-28 12:08:41.42	175.22	6.01	-46.5	-48.1	22.8	6.08e-01	0	42	0	52428800	64	4347
2026-01-28 12:08:42.43	175.26	6.09	-46.6	-48.2	22.7	6.05e-01	0	42	0	54525952	64	4410
2026-01-28 12:08:43.44	175.29	6.17	-46.7	-48.3	22.5	6.05e-01	0	42	0	56623104	64	4485
2026-01-28 12:08:44.44	175.33	6.24	-46.4	-48.0	22.9	6.07e-01	0	42	0	58195968	64	4320
2026-01-28 12:08:45.45	175.37	6.32	-46.6	-48.2	22.7	6.05e-01	0	42	0	60293120	64	4416
2026-01-28 12:08:46.46	175.41	6.40	-46.3	-47.8	23.1	6.04e-01	0	42	0	61865984	64	4219
2026-01-28 12:08:47.47	175.46	6.48	-46.4	-47.9	23.0	6.07e-01	0	42	0	63963136	64	4270
2026-01-28 12:08:48.48	175.50	6.56	-46.1	-47.6	23.3	6.07e-01	0	42	0	65536000	64	4123
2026-01-28 12:08:49.48	175.54	6.64	-46.2	-47.7	23.3	6.05e-01	0	42	0	67633152	64	4171
2026-01-28 12:08:50.49	175.58	6.72	-46.0	-47.5	23.5	6.05e-01	0	42	0	69730304	64	4065
2026-01-28 12:08:51.50	175.62	6.80	-46.2	-47.7	23.4	6.05e-01	0	42	0	71827456	63	4428
2026-01-28 12:08:52.51	175.66	6.88	-46.0	-47.5	23.5	6.05e-01	0	42	0	73400320	63	4322
2026-01-28 12:08:53.51	175.70	6.96	-46.2	-47.7	23.3	6.04e-01	0	42	0	75497472	63	4426
2026-01-28 12:08:54.52	175.74	7.04	-46.1	-47.6	23.5	6.07e-01	0	42	0	77070336	63	4344
2026-01-28 12:08:55.52	175.79	7.12	-46.2	-47.7	23.0	6.05e-01	0	42	0	79167488	63	4408
2026-01-28 12:08:56.53	175.83	7.20	-46.1	-47.6	23.5	6.04e-01	0	41	0	80740352	63	4366
2026-01-28 12:08:57.54	175.87	7.28	-46.2	-47.7	23.4	6.03e-01	0	42	0	82837504	63	4423
2026-01-28 12:08:58.55	175.91	7.36	-46.0	-47.5	23.6	6.06e-01	0	42	0	84934656	63	4300
2026-01-28 12:08:59.55	175.96	7.44	-46.0	-47.4	23.7	6.07e-01	0	42	0	86507520	63	4291
2026-01-28 12:09:00.56	176.00	7.52	-46.1	-47.5	23.6	6.06e-01	0	42	0	88604672	63	4329
2026-01-28 12:09:01.57	176.05	7.61	-46.1	-47.6	23.6	6.06e-01	0	42	0	90177536	63	4359
2026-01-28 12:09:02.58	176.09	7.69	-46.2	-47.7	23.5	6.06e-01	0	42	0	92274688	63	4392
2026-01-28 12:09:03.58	176.13	7.77	-45.9	-47.3	23.8	6.05e-01	0	42	0	94371840	63	4230
2026-01-28 12:09:04.59	176.18	7.85	-46.0	-47.4	23.8	6.04e-01	0	42	0	95944704	63	4265
2026-01-28 12:09:05.60	176.22	7.94	-45.9	-47.3	23.8	6.04e-01	0	42	0	98041856	63	4235
2026-01-28 12:09:06.61	176.27	8.02	-45.9	-47.3	23.8	6.06e-01	0	42	0	100139008	63	4240
2026-01-28 12:09:07.61	176.31	8.11	-46.0	-47.5	23.7	6.09e-01	0	42	0	101711872	63	4316
2026-01-28 12:09:08.62	176.36	8.19	-46.2	-47.6	23.6	6.05e-01	0	42	0	103809024	63	4384
2026-01-28 12:09:09.63	176.40	8.28	-45.9	-47.4	23.8	6.05e-01	0	42	0	105381888	63	4256
2026-01-28 12:09:10.63	176.45	8.36	-45.8	-47.2	24.0	6.04e-01	0	42	0	107479040	63	4166
2026-01-28 12:09:11.64	176.50	8.45	-46.0	-47.5	23.8	6.06e-01	0	42	0	109051904	63	4292
2026-01-28 12:09:12.65	176.54	8.53	-45.8	-47.3	23.9	6.06e-01	0	42	0	111149056	63	4200
2026-01-28 12:09:13.66	176.59	8.62	-45.8	-47.2	24.0	6.05e-01	0	42	0	113246208	63	4183
2026-01-28 12:09:14.66	176.64	8.70	-46.0	-47.4	23.8	6.06e-01	0	42	0	114819072	63	4271
2026-01-28 12:09:15.67	176.68	8.79	-45.8	-47.2	24.0	6.07e-01	0	42	0	116916224	63	4185
2026-01-28 12:09:16.68	176.73	8.88	-45.8	-47.2	24.0	6.05e-01	0	42	0	118489088	63	4183
2026-01-28 12:09:17.69	176.78	8.96	-45.7	-47.1	24.1	6.06e-01	0	42	0	120586240	63	4125
2026-01-28 12:09:18.70	176.83	9.05	-45.8	-47.2	24.0	6.05e-01	0	42	0	122683392	63	4169
2026-01-28 12:09:19.70	176.88	9.14	-45.7	-47.0	24.2	6.06e-01	0	42	0	124256256	63	4093
2026-01-28 12:09:20.71	176.92	9.23	-45.7	-47.1	24.2	6.07e-01	0	42	0	126353408	63	4105
2026-01-28 12:09:21.72	176.97	9.32	-45.6	-46.9	24.3	6.05e-01	0	42	0	128450560	63	4048
2026-01-28 12:09:22.73	177.02	9.41	-45.7	-47.0	24.2	6.08e-01	0	42	0	130023424	63	4096
2026-01-28 12:09:23.73	177.07	9.49	-45.5	-46.9	24.3	6.07e-01	0	42	0	132120576	63	4031
2026-01-28 12:09:24.74	177.12	9.58	-45.6	-47.0	24.3	6.06e-01	0	42	0	133693440	63	4055
2026-01-28 12:09:25.75	177.17	9.67	-45.6	-47.0	24.3	6.07e-01	0	42	0	135790592	63	4072
2026-01-28 12:09:26.76	177.22	9.77	-45.5	-46.8	24.5	6.04e-01	0	42	0	137363456	63	3999
2026-01-28 12:09:27.76	177.27	9.86	-45.5	-46.9	24.4	6.05e-01	0	42	0	139460608	62	4250
2026-01-28 12:09:28.77	177.33	9.95	-45.5	-46.9	24.4	6.08e-01	0	42	0	141557760	62	4267
2026-01-28 12:09:29.78	177.38	10.04	-45.5	-46.9	24.4	6.07e-01	0	42	0	143654912	62	4248
2026-01-28 12:09:30.79	177.43	10.13	-45.4	-46.7	24.6	6.06e-01	0	42	0	145227776	62	4178
2026-01-28 12:09:31.80	177.48	10.22	-45.4	-46.7	24.6	6.07e-01	0	42	0	147324928	62	4192
2026-01-28 12:09:32.80	177.53	10.31	-45.4	-46.8	24.6	6.04e-01	0	42	0	148897792	62	4194
2026-01-28 12:09:33.81	177.59	10.41	-45.3	-46.6	24.7	6.05e-01	0	42	0	150994944	62	4131
2026-01-28 12:09:34.81	177.64	10.50	-45.5	-46.8	24.5	6.04e-01	0	42	0	152567808	62	4220
2026-01-28 12:09:35.82	177.69	10.59	-45.5	-46.9	24.5	6.04e-01	0	42	0	154664960	62	4245
2026-01-28 12:09:36.83	177.75	10.69	-45.4	-46.7	24.6	6.05e-01	0	42	0	156762112	62	4164
2026-01-28 12:09:37.83	177.80	10.78	-45.5	-46.8	24.5	6.06e-01	0	42	0	158334976	62	4235
2026-01-28 12:09:38.84	177.86	10.88	-45.4	-46.7	24.6	6.08e-01	0	42	0	160432128	62	4181
2026-01-28 12:09:39.85	177.91	10.97	-45.4	-46.7	24.6	6.06e-01	0	42	0	162004992	62	4174
2026-01-28 12:09:40.85	177.97	11.07	-45.4	-46.7	24.6	6.08e-01	0	42	0	164102144	62	4187
2026-01-28 12:09:41.86	178.02	11.16	-45.2	-46.5	24.8	6.07e-01	0	42	0	165675008	62	4097
2026-01-28 12:09:42.87	178.08	11.26	-45.3	-46.7	24.7	6.04e-01	0	42	0	167772160	62	4147
2026-01-28 12:09:43.88	178.13	11.36	-45.3	-46.6	24.7	6.03e-01	0	42	0	169869312	62	4135
2026-01-28 12:09:44.89	178.19	11.45	-45.4	-46.8	24.6	6.04e-01	0	42	0	171966464	62	4199
2026-01-28 12:09:45.89	178.25	11.55	-45.3	-46.7	24.7	6.05e-01	0	42	0	173539328	62	4153
2026-01-28 12:09:46.90	178.31	11.65	-45.3	-46.7	24.7	6.06e-01	0	42	0	175636480	62	4147
2026-01-28 12:09:47.91	178.36	11.75	-45.3	-46.6	24.7	6.05e-01	0	42	0	177209344	62	4120
2026-01-28 12:09:48.92	178.42	11.84	-45.3	-46.6	24.8	6.06e-01	0	42	0	179306496	62	4126
2026-01-28 12:09:49.93	178.48	11.94	-45.2	-46.5	24.8	6.05e-01	0	42	0	180879360	62	4056
2026-01-28 12:09:50.93	178.54	12.04	-45.3	-46.6	24.8	6.05e-01	0	42	0	182976512	62	4112
2026-01-28 12:09:51.94	178.60	12.14	-45.3	-46.7	24.7	6.06e-01	0	42	0	185073664	62	4147
2026-01-28 12:09:52.95	178.66	12.24	-45.1	-46.4	25.0	6.05e-01	0	42	0	186646528	62	4019
2026-01-28 12:09:53.95	178.72	12.34	-45.1	-46.4	25.0	6.06e-01	0	42	0	188743680	62	4027
2026-01-28 12:09:54.96	178.78	12.45	-45.2	-46.5	24.9	6.06e-01	0	42	0	190316544	62	4085
2026-01-28 12:09:55.97	178.84	12.55	-45.3	-46.6	24.8	6.04e-01	0	42	0	192413696	62	4104
2026-01-28 12:09:56.98	178.90	12.65	-45.2	-46.5	24.9	6.06e-01	0	42	0	193986560	62	4054
2026-01-28 12:09:57.99	178.97	12.75	-45.3	-46.6	24.8	6.05e-01	0	42	0	196083712	62	4107
2026-01-28 12:09:59.00	179.03	12.86	-45.2	-46.5	24.9	6.05e-01	0	42	0	198180864	62	4067
2026-01-28 12:10:00.00	179.09	12.96	-45.2	-46.5	24.9	6.04e-01	0	42	0	200278016	62	4054
2026-01-28 12:10:01.01	179.15	13.06	-45.1	-46.4	25.0	6.05e-01	0	42	0	201850880	62	4017
2026-01-28 12:10:02.02	179.22	13.17	-45.2	-46.5	24.9	6.07e-01	0	42	0	203948032	62	4071
2026-01-28 12:10:03.03	179.28	13.27	-45.0	-46.3	25.1	6.05e-01	0	42	0	205520896	62	3971
2026-01-28 12:10:04.03	179.35	13.38	-44.9	-46.2	25.2	6.06e-01	0	42	0	207618048	61	4162
2026-01-28 12:10:05.04	179.41	13.48	-45.0	-46.2	25.1	6.06e-01	0	42	0	209190912	61	4179
2026-01-28 12:10:06.05	179.48	13.59	-44.8	-46.1	25.3	6.07e-01	0	42	0	211288064	61	4124
2026-01-28 12:10:07.06	179.54	13.70	-44.9	-46.1	25.2	6.04e-01	0	42	0	213385216	61	4144
2026-01-28 12:10:08.07	179.61	13.81	-44.9	-46.1	25.2	6.05e-01	0	42	0	214958080	61	4132
2026-01-28 12:10:09.08	179.68	13.91	-44.8	-46.0	25.3	6.09e-01	0	42	0	217055232	61	4091
2026-01-28 12:10:10.09	179.75	14.02	-44.8	-46.1	25.3	6.05e-01	0	42	0	219152384	61	4120
2026-01-28 12:10:11.10	179.81	14.13	-44.9	-46.1	25.3	6.06e-01	0	42	0	220725248	61	4138
2026-01-28 12:10:12.10	179.88	14.24	-44.9	-46.2	25.2	6.07e-01	0	42	0	222822400	61	4176
2026-01-28 12:10:13.11	179.95	14.35	-44.9	-46.1	25.3	6.06e-01	0	42	0	224395264	61	4139
2026-01-28 12:10:14.12	180.02	14.46	-44.9	-46.2	25.2	6.05e-01	0	42	0	226492416	61	4166
2026-01-28 12:10:15.13	180.09	14.57	-44.8	-46.1	25.3	6.06e-01	0	42	0	228589568	61	4109
2026-01-28 12:10:16.14	180.16	14.68	-44.8	-46.1	25.3	6.05e-01	0	42	0	230162432	61	4121
2026-01-28 12:10:17.15	180.23	14.80	-44.7	-46.0	25.4	6.08e-01	0	42	0	232259584	61	4067
2026-01-28 12:10:18.16	180.31	14.91	-44.8	-46.0	25.4	6.06e-01	0	42	0	233832448	61	4074
2026-01-28 12:10:19.17	180.38	15.02	-44.8	-46.0	25.4	6.05e-01	0	42	0	235929600	61	4075
2026-01-28 12:10:20.18	180.45	15.14	-44.9	-46.1	25.3	6.06e-01	0	42	0	237502464	61	4128
2026-01-28 12:10:21.19	180.53	15.25	-44.8	-46.0	25.4	6.05e-01	0	42	0	239599616	61	4093
2026-01-28 12:10:22.19	180.60	15.37	-44.8	-46.0	25.4	6.05e-01	0	42	0	241696768	61	4085
2026-01-28 12:10:23.20	180.67	15.48	-44.9	-46.1	25.3	6.05e-01	0	42	0	243793920	61	4122
2026-01-28 12:10:24.21	180.75	15.60	-44.8	-46.0	25.5	6.08e-01	0	42	0	245366784	61	4071
2026-01-28 12:10:25.22	180.83	15.71	-44.8	-46.0	25.4	6.05e-01	0	42	0	247463936	61	4081
2026-01-28 12:10:26.22	180.90	15.83	-44.7	-45.9	25.5	6.04e-01	0	42	0	249036800	61	4028
2026-01-28 12:10:27.23	180.98	15.95	-44.7	-45.9	25.5	6.03e-01	0	42	0	251133952	61	4037
2026-01-28 12:10:28.24	181.06	16.07	-44.7	-45.9	25.5	6.06e-01	0	42	0	252706816	61	4025
2026-01-28 12:10:29.25	181.13	16.19	-44.7	-46.0	25.5	6.07e-01	0	42	0	254803968	61	4054
2026-01-28 12:10:30.26	181.21	16.31	-44.6	-45.8	25.6	6.05e-01	0	42	0	256901120	61	3993
2026-01-28 12:10:31.27	181.29	16.43	-44.6	-45.9	25.6	6.06e-01	0	42	0	258473984	61	4010
2026-01-28 12:10:32.28	181.37	16.55	-44.7	-45.9	25.6	6.05e-01	0	42	0	260571136	61	4027
2026-01-28 12:10:33.29	181.46	16.67	-44.8	-46.1	25.4	6.05e-01	0	42	0	262668288	61	4107
2026-01-28 12:10:34.29	181.54	16.79	-44.6	-45.8	25.7	6.09e-01	0	42	0	264241152	61	3990
2026-01-28 12:10:35.30	181.62	16.91	-44.6	-45.9	25.6	6.06e-01	0	42	0	266338304	61	4011
2026-01-28 12:10:36.31	181.70	17.04	-44.7	-45.9	25.6	6.05e-01	0	42	0	267911168	61	4015
2026-01-28 12:10:37.31	181.78	17.16	-44.7	-45.9	25.6	6.06e-01	0	42	0	270008320	61	4022
2026-01-28 12:10:38.32	181.87	17.28	-44.8	-46.0	25.5	6.06e-01	0	42	0	272105472	61	4061
2026-01-28 12:10:39.33	181.95	17.41	-44.6	-45.8	25.6	6.05e-01	0	42	0	273678336	61	3992
2026-01-28 12:10:40.33	182.04	17.53	-44.6	-45.8	25.6	6.06e-01	0	42	0	275775488	61	3993
2026-01-28 12:10:41.34	182.13	17.66	-44.6	-45.9	25.6	6.05e-01	0	42	0	277348352	61	4011
2026-01-28 12:10:42.35	182.21	17.79	-44.7	-45.9	25.6	6.04e-01	0	42	0	279445504	61	4023
2026-01-28 12:10:43.36	182.30	17.91	-44.5	-45.7	25.7	6.04e-01	0	42	0	281018368	61	3956
2026-01-28 12:10:44.36	182.39	18.04	-44.5	-45.7	25.8	6.03e-01	0	42	0	283115520	61	3920
2026-01-28 12:10:45.37	182.48	18.17	-44.6	-45.8	25.7	6.06e-01	0	42	0	285212672	61	3966
2026-01-28 12:10:46.37	182.57	18.30	-44.4	-45.6	25.7	6.05e-01	0	42	0	286785536	60	4139
2026-01-28 12:10:47.38	182.66	18.43	-44.5	-45.6	25.8	6.04e-01	0	42	0	288882688	60	4145
2026-01-28 12:10:48.39	182.75	18.56	-44.5	-45.7	25.8	6.08e-01	0	42	0	290979840	60	4170
2026-01-28 12:10:49.39	182.84	18.69	-44.6	-45.8	25.7	6.05e-01	0	42	0	292552704	60	4206
2026-01-28 12:10:50.40	182.94	18.83	-44.6	-45.8	25.7	6.04e-01	0	42	0	294649856	60	4201
2026-01-28 12:10:51.41	183.03	18.96	-44.7	-45.9	25.6	6.06e-01	0	42	0	296222720	60	4253
2026-01-28 12:10:52.42	183.12	19.09	-44.5	-45.7	25.8	6.04e-01	0	42	0	298319872	60	4182
2026-01-28 12:10:53.43	183.22	19.23	-44.6	-45.8	25.7	6.07e-01	0	42	0	300417024	60	4202
2026-01-28 12:10:54.44	183.32	19.36	-44.5	-45.7	25.8	6.06e-01	0	42	0	301989888	60	4158
2026-01-28 12:10:55.44	183.41	19.50	-44.4	-45.6	25.9	6.03e-01	0	42	0	304087040	60	4113
2026-01-28 12:10:56.45	183.51	19.64	-44.5	-45.7	25.8	6.04e-01	0	42	0	305659904	60	4166
2026-01-28 12:10:57.46	183.61	19.77	-44.5	-45.7	25.8	6.06e-01	0	42	0	307757056	60	4165
2026-01-28 12:10:58.47	183.71	19.91	-44.6	-45.8	25.7	6.07e-01	0	42	0	309329920	60	4211
2026-01-28 12:10:59.47	183.81	20.05	-44.6	-45.8	25.7	6.07e-01	0	42	0	311427072	60	4240
2026-01-28 12:11:00.48	183.92	20.19	-44.7	-45.9	25.7	6.06e-01	0	42	0	313524224	60	4257
2026-01-28 12:11:01.49	184.02	20.33	-44.7	-45.9	25.6	6.05e-01	0	42	0	315097088	60	4269
2026-01-28 12:11:02.49	184.12	20.47	-44.7	-45.9	25.6	6.06e-01	0	42	0	317194240	60	4290
2026-01-28 12:11:03.50	184.23	20.62	-44.7	-45.9	25.7	6.05e-01	0	42	0	319291392	60	4257
2026-01-28 12:11:04.50	184.33	20.76	-44.7	-45.9	25.6	6.05e-01	0	42	0	320864256	60	4287
2026-01-28 12:11:05.51	184.44	20.90	-44.7	-45.9	25.7	6.04e-01	0	42	0	322961408	60	4252
2026-01-28 12:11:06.52	184.55	21.05	-44.8	-46.0	25.6	6.06e-01	0	42	0	324534272	60	4305
2026-01-28 12:11:07.53	184.66	21.19	-44.6	-45.8	25.7	6.05e-01	0	42	0	326631424	60	4229
2026-01-28 12:11:08.54	184.77	21.34	-44.6	-45.8	25.8	6.04e-01	0	42	0	328728576	60	4209
2026-01-28 12:11:09.55	184.88	21.49	-44.7	-45.9	25.7	6.06e-01	0	42	0	330301440	60	4251
2026-01-28 12:11:10.55	184.99	21.63	-44.8	-46.0	25.6	6.03e-01	0	42	0	332398592	60	4300
2026-01-28 12:11:11.56	185.10	21.78	-44.8	-46.1	25.5	6.05e-01	0	42	0	333971456	60	4343
2026-01-28 12:11:12.57	185.22	21.93	-44.7	-45.9	25.7	6.10e-01	0	42	0	336068608	60	4279
2026-01-28 12:11:13.58	185.33	22.08	-44.6	-45.9	25.7	6.05e-01	0	42	0	337641472	60	4243
2026-01-28 12:11:14.58	185.45	22.23	-44.7	-45.9	25.7	6.06e-01	0	42	0	339738624	60	4275
2026-01-28 12:11:15.58	185.57	22.39	-44.8	-46.0	25.6	6.05e-01	0	43	0	341835776	60	4303
2026-01-28 12:11:16.59	185.69	22.54	-44.7	-46.0	25.6	6.05e-01	0	42	0	343408640	60	4301
2026-01-28 12:11:17.60	185.81	22.69	-44.9	-46.1	25.6	6.06e-01	0	42	0	345505792	60	4352
2026-01-28 12:11:18.61	185.93	22.85	-44.8	-46.0	25.6	6.07e-01	0	42	0	347602944	60	4310
2026-01-28 12:11:19.62	186.05	23.00	-44.9	-46.1	25.6	6.06e-01	0	42	0	349175808	60	4354
2026-01-28 12:11:20.63	186.17	23.16	-44.8	-46.1	25.6	6.05e-01	0	42	0	351272960	60	4348
2026-01-28 12:11:21.63	186.30	23.32	-44.8	-46.0	25.6	6.09e-01	0	42	0	352845824	60	4339
2026-01-28 12:11:22.64	186.42	23.48	-45.0	-46.2	25.4	6.05e-01	0	42	0	354942976	60	4418
2026-01-28 12:11:23.65	186.55	23.64	-45.0	-46.2	25.4	6.06e-01	0	42	0	357040128	60	4410
2026-01-28 12:11:24.65	186.68	23.80	-44.9	-46.2	25.5	6.05e-01	0	42	0	358612992	60	4405
2026-01-28 12:11:25.66	186.81	23.96	-44.9	-46.2	25.5	6.05e-01	0	42	0	360710144	60	4400
2026-01-28 12:11:26.67	186.94	24.12	-45.0	-46.3	25.4	6.06e-01	0	42	0	362283008	60	4452
2026-01-28 12:11:27.67	187.07	24.28	-45.0	-46.2	25.4	6.06e-01	0	42	0	364380160	60	4426
2026-01-28 12:11:28.69	187.21	24.45	-44.9	-46.1	25.5	6.06e-01	0	42	0	366477312	60	4374
2026-01-28 12:11:29.69	187.35	24.61	-45.1	-46.3	25.4	6.06e-01	0	42	0	368050176	60	4468
2026-01-28 12:11:30.70	187.48	24.78	-44.9	-46.1	25.5	6.07e-01	0	42	0	370147328	60	4383
2026-01-28 12:11:31.71	187.62	24.95	-45.1	-46.3	25.4	6.05e-01	0	42	0	371720192	60	4477
2026-01-28 12:11:32.72	187.76	25.12	-45.1	-46.3	25.3	6.04e-01	0	42	0	373817344	60	4472
2026-01-28 12:11:33.73	187.91	25.29	-45.1	-46.3	25.4	6.05e-01	0	42	0	375914496	60	4465
2026-01-28 12:11:34.73	188.05	25.45	-45.1	-46.4	25.3	6.06e-01	0	42	0	377487360	60	4511
2026-01-28 12:11:35.74	188.19	25.63	-45.2	-46.4	25.3	6.06e-01	0	42	0	379584512	61	4274
2026-01-28 12:11:36.75	188.34	25.80	-44.8	-46.0	25.6	6.03e-01	0	42	0	381157376	61	4094
2026-01-28 12:11:37.76	188.49	25.97	-44.8	-46.0	25.7	6.05e-01	0	42	0	383254528	61	4098
2026-01-28 12:11:38.76	188.64	26.14	-45.0	-46.2	25.5	6.04e-01	0	42	0	385351680	61	4181
2026-01-28 12:11:39.77	188.79	26.32	-45.0	-46.2	25.5	6.05e-01	0	42	0	386924544	61	4177
2026-01-28 12:11:40.78	188.94	26.50	-45.0	-46.2	25.5	6.04e-01	0	42	0	389021696	61	4191
2026-01-28 12:11:41.79	189.10	26.67	-44.8	-46.0	25.7	6.07e-01	0	42	0	391118848	61	4077
2026-01-28 12:11:42.80	189.25	26.85	-44.9	-46.1	25.6	6.04e-01	0	42	0	392691712	61	4104
2026-01-28 12:11:43.81	189.41	27.03	-44.9	-46.1	25.6	6.03e-01	0	42	0	394788864	61	4140
2026-01-28 12:11:44.81	189.57	27.21	-45.1	-46.3	25.4	6.06e-01	0	42	0	396361728	61	4229
2026-01-28 12:11:45.82	189.73	27.39	-45.0	-46.3	25.5	6.06e-01	0	42	0	398458880	61	4200
2026-01-28 12:11:46.83	189.90	27.58	-44.6	-45.8	25.8	6.05e-01	0	42	0	400556032	61	3980
2026-01-28 12:11:47.84	190.06	27.76	-44.4	-45.6	26.0	6.06e-01	0	42	0	402128896	60	4114
2026-01-28 12:11:48.84	190.23	27.94	-44.4	-45.6	26.1	6.06e-01	0	42	0	404226048	60	4122
2026-01-28 12:11:49.85	190.40	28.13	-44.6	-45.8	25.9	6.05e-01	0	42	0	405798912	60	4220
2026-01-28 12:11:50.85	190.57	28.32	-44.7	-45.9	25.8	6.05e-01	0	42	0	407896064	60	4250
2026-01-28 12:11:51.86	190.75	28.51	-44.7	-45.9	25.8	6.03e-01	0	42	0	409468928	60	4282
2026-01-28 12:11:52.87	190.92	28.69	-44.6	-45.7	25.9	6.06e-01	0	42	0	411566080	60	4189
2026-01-28 12:11:53.88	191.10	28.89	-44.8	-55.5	3.8	7.46e-01	0	42	104	411566080	60	12925
2026-01-28 12:11:54.89	191.28	29.08	-44.9	-55.8	3.8	7.43e-01	0	42	104	411566080	60	13296
2026-01-28 12:11:55.89	191.46	29.27	-49.0	-60.5	3.8	7.44e-01	0	42	104	411566080	68	14378
2026-01-28 12:11:56.90	191.65	29.46	-45.4	-56.1	4.0	7.42e-01	0	42	104	411566080	62	12355
2026-01-28 12:11:57.91	191.83	29.66	-53.3	-67.4	3.8	7.48e-01	0	42	104	411566080	77	18982
2026-01-28 12:11:58.91	192.02	29.85	-49.7	-61.2	3.8	7.48e-01	0	42	104	411566080	69	14850
2026-01-28 12:11:59.92	192.21	30.05	-49.6	-61.1	3.8	7.47e-01	0	42	104	411566080	69	14625
2026-01-28 12:12:00.93	192.41	30.25	-45.4	-56.2	3.8	7.41e-01	0	42	104	411566080	62	12438
2026-01-28 12:12:01.94	192.60	30.45	-45.2	-55.9	3.8	7.43e-01	0	42	104	411566080	62	12073
2026-01-28 12:12:02.94	192.80	30.65	-45.2	-56.1	3.8	7.48e-01	0	42	104	411566080	62	12297
2026-01-28 12:12:03.95	193.00	30.85	-47.2	-58.1	3.8	7.47e-01	0	42	104	411566080	64	13782
2026-01-28 12:12:04.96	193.21	31.05	-45.5	-56.3	3.8	7.48e-01	0	42	104	411566080	63	11860
2026-01-28 12:12:05.96	193.41	31.25	-53.2	-67.0	3.8	7.45e-01	0	42	104	411566080	76	19310
2026-01-28 12:12:06.96	193.62	31.46	-50.4	-62.1	4.0	7.40e-01	0	42	104	411566080	71	14624
2026-01-28 12:12:07.97	193.83	31.66	-50.2	-61.8	3.7	7.44e-01	0	42	104	411566080	70	14926
2026-01-28 12:12:08.98	194.04	31.87	-46.0	-56.6	4.3	7.28e-01	0	42	104	411566080	63	12305
2026-01-28 12:12:09.99	194.26	32.08	-45.8	-56.6	3.8	7.46e-01	0	42	104	411566080	63	12348
2026-01-28 12:12:10.99	194.48	32.29	-45.7	-56.4	4.1	7.36e-01	0	42	104	411566080	63	12012
2026-01-28 12:12:12.00	194.70	32.50	-47.4	-58.1	4.1	7.35e-01	0	42	104	411566080	65	13078
2026-01-28 12:12:13.01	194.93	32.71	-45.8	-56.6	3.8	7.49e-01	0	43	104	411566080	63	12332
2026-01-28 12:12:14.02	195.16	32.92	-53.5	-67.8	3.8	7.48e-01	0	43	104	411566080	77	19970
2026-01-28 12:12:15.02	195.39	33.14	-50.9	-63.1	3.8	7.45e-01	0	42	104	411566080	72	15437
2026-01-28 12:12:16.03	195.62	33.35	-50.7	-62.7	3.8	7.45e-01	0	42	104	411566080	71	15696
2026-01-28 12:12:17.04	195.86	33.57	-46.1	-56.8	3.8	7.43e-01	0	42	104	411566080	63	12661
2026-01-28 12:12:18.05	196.10	33.79	-45.8	-56.6	3.8	7.45e-01	0	42	104	411566080	63	12269
2026-01-28 12:12:19.06	196.35	34.00	-46.0	-57.0	3.8	7.45e-01	0	42	104	411566080	63	12816
2026-01-28 12:12:20.07	196.60	34.22	-49.8	-61.6	3.9	7.49e-01	0	42	104	411566080	70	14665
2026-01-28 12:12:21.07	196.85	34.44	-46.3	-57.1	3.9	7.46e-01	0	43	104	411566080	64	12364
2026-01-28 12:12:22.08	197.10	34.66	-53.3	-67.4	3.8	7.45e-01	0	42	104	411566080	77	19064
2026-01-28 12:12:23.09	197.36	34.89	-50.3	-62.0	3.9	7.41e-01	0	43	104	411566080	72	13672
2026-01-28 12:12:24.10	197.62	35.11	-50.6	-62.6	3.8	7.45e-01	0	42	104	411566080	71	15402
2026-01-28 12:12:25.10	197.89	35.34	-46.4	-57.4	3.8	7.45e-01	0	42	104	411566080	64	12691
2026-01-28 12:12:26.11	198.15	35.56	-46.4	-57.3	3.8	7.48e-01	0	42	104	411566080	64	12601
2026-01-28 12:12:27.12	198.43	35.79	-46.6	-57.5	3.8	7.44e-01	0	43	104	411566080	64	12933
2026-01-28 12:12:28.13	198.71	36.02	-51.0	-63.2	3.8	7.41e-01	0	43	104	411566080	74	13964
2026-01-28 12:12:29.13	198.98	36.24	-46.7	-57.7	3.8	7.49e-01	0	42	104	411566080	65	12454
2026-01-28 12:12:30.14	199.27	36.47	-53.5	-67.8	3.8	7.42e-01	0	43	104	411566080	78	18827
2026-01-28 12:12:31.15	199.56	36.71	-50.9	-63.1	3.9	7.44e-01	0	42	104	411566080	74	13782
2026-01-28 12:12:32.15	199.85	36.93	-50.5	-62.4	3.8	7.44e-01	0	42	104	411566080	71	15156
2026-01-28 12:12:33.16	200.15	37.17	-46.8	-57.8	3.9	7.43e-01	0	43	104	411566080	65	12579
2026-01-28 12:12:34.17	200.45	37.40	-46.6	-57.5	3.8	7.44e-01	0	42	104	411566080	65	12216
2026-01-28 12:12:35.18	200.75	37.64	-46.8	-57.8	3.9	7.40e-01	0	42	104	411566080	65	12664
2026-01-28 12:12:36.19	201.06	37.87	-49.8	-61.4	3.9	7.45e-01	0	43	104	411566080	71	13544
2026-01-28 12:12:37.20	201.38	38.11	-46.3	-57.2	3.8	7.48e-01	0	43	104	411566080	64	12405
2026-01-28 12:12:38.21	201.70	38.35	-53.1	-66.7	3.9	7.43e-01	0	42	104	411566080	77	17609
2026-01-28 12:12:39.21	202.02	38.58	-50.1	-61.9	3.9	7.42e-01	0	42	104	411566080	72	13425
2026-01-28 12:12:40.22	202.35	38.82	-49.9	-61.6	3.9	7.47e-01	0	42	104	411566080	71	13841
2026-01-28 12:12:41.23	202.68	39.06	-46.5	-57.5	3.8	7.46e-01	0	42	104	411566080	65	12129
2026-01-28 12:12:42.23	203.02	39.30	-46.5	-57.3	3.9	7.46e-01	0	43	104	411566080	64	12634
2026-01-28 12:12:43.24	203.36	39.54	-46.2	-57.1	3.8	7.46e-01	0	43	104	411566080	64	12301
2026-01-28 12:12:44.25	203.71	39.78	-48.3	-59.5	3.8	7.44e-01	0	42	104	411566080	68	12947
2026-01-28 12:12:45.26	204.07	40.02	-46.0	-56.8	3.9	7.46e-01	0	42	104	411566080	63	12564
2026-01-28 12:12:46.27	204.43	40.27	-53.0	-66.4	3.8	7.47e-01	0	42	104	411566080	77	16967
2026-01-28 12:12:47.27	204.79	40.51	-50.5	-62.5	3.9	7.43e-01	0	42	104	411566080	73	13666
2026-01-28 12:12:48.28	205.16	40.75	-49.0	-60.5	3.8	7.45e-01	0	42	104	411566080	69	13643
2026-01-28 12:12:49.29	205.54	40.99	-46.3	-57.1	3.8	7.44e-01	0	42	104	411566080	64	12367
2026-01-28 12:12:50.30	205.92	41.24	-45.8	-56.6	3.8	7.48e-01	0	43	104	411566080	63	12313
2026-01-28 12:12:51.31	206.31	41.48	-45.8	-56.7	3.8	7.42e-01	0	43	104	411566080	63	12383
2026-01-28 12:12:52.31	206.70	41.73	-46.8	-57.8	3.8	7.48e-01	0	42	104	411566080	65	12571
2026-01-28 12:12:53.32	207.10	41.97	-45.4	-56.2	3.9	7.46e-01	0	42	104	411566080	62	12447
2026-01-28 12:12:54.33	207.51	42.22	-51.8	-64.2	3.8	7.43e-01	0	43	104	411566080	75	14878
2026-01-28 12:12:55.34	207.92	42.46	-48.0	-59.2	3.9	7.45e-01	0	42	104	411566080	68	12406
2026-01-28 12:12:56.35	208.34	42.71	-47.7	-58.8	3.8	7.44e-01	0	42	104	411566080	67	12641
2026-01-28 12:12:57.36	208.76	42.95	-45.8	-56.7	3.8	7.46e-01	0	42	104	411566080	63	12450
2026-01-28 12:12:58.37	209.20	43.20	-45.5	-56.4	3.8	7.44e-01	0	42	104	411566080	63	11983
2026-01-28 12:12:59.37	209.63	43.44	-44.8	-55.6	3.8	7.48e-01	0	42	104	411566080	61	12294
2026-01-28 12:13:00.38	210.08	43.69	-44.8	-55.5	3.8	7.45e-01	0	43	104	411566080	61	12191
2026-01-28 12:13:01.38	210.52	43.93	-46.4	-57.3	3.8	7.46e-01	0	42	104	411566080	64	12567
2026-01-28 12:13:02.39	210.98	44.18	-51.7	-64.2	3.8	7.48e-01	0	43	104	411566080	75	14777
2026-01-28 12:13:03.40	211.45	44.42	-48.1	-59.2	3.8	7.43e-01	0	43	104	411566080	68	12494
2026-01-28 12:13:04.41	211.92	44.67	-45.1	-55.8	3.8	7.47e-01	0	42	104	411566080	62	11913
2026-01-28 12:13:05.42	212.40	44.91	-45.0	-55.6	3.8	7.43e-01	0	42	104	411566080	61	12355
2026-01-28 12:13:06.43	212.89	45.15	-45.0	-55.8	3.8	7.48e-01	0	42	104	411566080	61	12659
2026-01-28 12:13:07.43	213.38	45.39	-46.1	-56.8	3.8	7.42e-01	0	43	104	411566080	62	13372
2026-01-28 12:13:08.44	213.89	45.63	-47.1	-58.2	3.8	7.46e-01	0	43	104	411566080	66	12398
2026-01-28 12:13:09.45	214.40	45.87	-45.5	-56.3	3.8	7.45e-01	0	43	104	411566080	61	13264
2026-01-28 12:13:10.46	214.92	46.11	-51.1	-63.1	3.8	7.44e-01	0	42	104	411566080	74	13834
2026-01-28 12:13:11.47	215.44	46.35	-46.4	-57.4	3.9	7.45e-01	0	43	104	411566080	65	12011
2026-01-28 12:13:12.48	215.98	46.59	-46.0	-56.9	3.9	7.44e-01	0	42	104	411566080	64	11985
2026-01-28 12:13:13.49	216.52	46.82	-44.7	-55.3	3.8	7.45e-01	0	42	104	411566080	61	11874
2026-01-28 12:13:14.49	217.07	47.06	-44.7	-55.4	3.8	7.41e-01	0	43	104	411566080	61	12003
2026-01-28 12:13:15.50	217.63	47.29	-45.5	-56.3	3.8	7.44e-01	0	42	104	411566080	61	13355
2026-01-28 12:13:16.51	218.20	47.52	-45.2	-55.8	3.8	7.42e-01	0	43	104	411566080	62	11949
2026-01-28 12:13:17.52	218.77	47.75	-48.3	-59.3	3.8	7.45e-01	0	42	104	411566080	66	14078
2026-01-28 12:13:18.53	219.36	47.98	-52.0	-64.5	3.8	7.44e-01	0	43	104	411566080	76	14476
2026-01-28 12:13:19.53	219.95	48.20	-46.6	-57.4	3.8	7.43e-01	0	43	104	411566080	65	12077
2026-01-28 12:13:20.54	220.55	48.43	-46.0	-56.9	3.8	7.47e-01	0	43	104	411566080	63	12694
2026-01-28 12:13:21.55	221.16	48.65	-45.2	-55.9	3.8	7.43e-01	0	42	104	411566080	62	12006
2026-01-28 12:13:22.56	221.78	48.87	-44.7	-55.4	3.8	7.42e-01	0	42	104	411566080	61	12092
2026-01-28 12:13:23.57	222.41	49.08	-45.3	-56.0	3.8	7.46e-01	0	42	104	411566080	61	12864
2026-01-28 12:13:24.57	223.04	49.30	-46.6	-57.5	3.8	7.47e-01	0	43	104	411566080	63	13578
2026-01-28 12:13:25.58	223.69	49.51	-50.9	-62.9	3.8	7.45e-01	0	42	104	411566080	72	15203
2026-01-28 12:13:26.59	224.34	49.72	-53.7	-67.5	3.8	7.50e-01	0	42	104	411566080	77	19364
2026-01-28 12:13:27.60	225.01	49.92	-44.7	-55.5	3.8	7.43e-01	0	43	104	411566080	61	12106
2026-01-28 12:13:28.61	225.68	50.13	-44.9	-55.6	3.9	7.49e-01	0	42	104	411566080	61	12320
2026-01-28 12:13:29.61	226.36	50.32	-45.0	-55.8	3.8	7.41e-01	0	43	104	411566080	61	12594
2026-01-28 12:13:30.62	227.05	50.52	-44.8	-55.5	3.8	7.45e-01	0	43	104	411566080	61	12225
2026-01-28 12:13:31.63	227.75	50.71	-45.1	-55.6	3.8	7.45e-01	0	42	104	411566080	61	12354
2026-01-28 12:13:32.64	228.46	50.90	-45.8	-56.9	3.8	7.46e-01	0	42	104	411566080	62	13439
2026-01-28 12:13:33.65	229.18	51.09	-52.3	-64.7	3.8	7.46e-01	0	43	104	411566080	74	16688
2026-01-28 12:13:34.65	229.90	51.27	-52.3	-65.0	3.8	7.44e-01	0	43	104	411566080	76	15338
2026-01-28 12:13:35.66	230.64	51.45	-45.2	-55.9	3.8	7.52e-01	0	43	104	411566080	62	11959
2026-01-28 12:13:36.67	231.38	51.62	-45.4	-56.3	3.8	7.42e-01	0	43	104	411566080	62	12521
2026-01-28 12:13:37.67	232.13	51.79	-45.1	-55.8	3.8	7.47e-01	0	43	104	411566080	62	11902
2026-01-28 12:13:38.68	232.89	51.95	-45.1	-55.8	3.8	7.45e-01	0	43	104	411566080	62	11931
2026-01-28 12:13:39.69	233.66	52.11	-48.1	-59.1	3.8	7.46e-01	0	42	104	411566080	66	13867
2026-01-28 12:13:40.70	234.44	52.27	-48.2	-59.4	3.8	7.44e-01	0	42	104	411566080	67	13553
2026-01-28 12:13:41.71	235.22	52.42	-52.7	-65.3	3.9	7.45e-01	0	42	104	411566080	75	16720
2026-01-28 12:13:42.71	236.01	52.56	-54.9	-71.2	3.7	7.48e-01	0	42	104	411566080	80	24851
2026-01-28 12:13:43.72	236.81	52.70	-45.2	-55.9	3.8	7.43e-01	0	43	104	411566080	62	12069
2026-01-28 12:13:44.73	237.62	52.83	-45.3	-55.9	3.8	7.47e-01	0	43	104	411566080	62	12076
2026-01-28 12:13:45.73	238.43	52.96	-45.5	-56.4	3.8	7.44e-01	0	43	104	411566080	62	12740
2026-01-28 12:13:46.74	239.26	53.09	-45.5	-56.3	3.8	7.44e-01	0	43	104	411566080	62	12555
2026-01-28 12:13:47.74	240.08	53.20	-48.5	-59.8	3.8	7.47e-01	0	43	104	411566080	67	14132
2026-01-28 12:13:48.75	240.92	53.32	-46.7	-57.4	3.8	7.46e-01	0	42	104	411566080	64	12806
2026-01-28 12:13:49.76	241.76	53.42	-54.6	-69.8	3.7	7.49e-01	0	42	104	411566080	79	22442
2026-01-28 12:13:50.77	242.61	53.52	-52.6	-65.4	3.8	7.42e-01	0	43	104	411566080	77	15143
2026-01-28 12:13:51.77	243.46	53.62	-46.1	-56.8	3.8	7.44e-01	0	43	104	411566080	63	12553
2026-01-28 12:13:52.78	244.32	53.71	-45.8	-56.7	3.8	7.46e-01	0	43	104	411566080	63	12421
2026-01-28 12:13:53.79	245.18	53.79	-45.5	-56.3	3.8	7.46e-01	0	42	104	411566080	62	12605
2026-01-28 12:13:54.79	246.05	53.86	-45.8	-56.7	3.8	7.41e-01	0	43	104	411566080	62	13148
2026-01-28 12:13:55.80	246.92	53.93	-50.8	-62.7	3.8	7.42e-01	0	42	104	411566080	72	14781
2026-01-28 12:13:56.80	247.79	54.00	-48.8	-60.1	3.8	7.45e-01	0	42	104	411566080	69	13099
2026-01-28 12:13:57.80	248.66	54.05	-52.8	-65.7	3.8	7.48e-01	0	42	104	411566080	76	16633
2026-01-28 12:13:58.81	249.55	54.10	-55.3	-73.0	3.8	7.48e-01	0	42	104	411566080	81	28989
2026-01-28 12:13:59.82	250.44	54.14	-45.7	-56.3	3.8	7.44e-01	0	42	104	411566080	63	11888
2026-01-28 12:14:00.82	251.32	54.18	-45.9	-56.8	3.8	7.46e-01	0	43	104	411566080	63	12572
2026-01-28 12:14:01.83	252.21	54.21	-46.3	-57.2	3.8	7.44e-01	0	42	104	411566080	63	13187
2026-01-28 12:14:02.84	253.11	54.23	-45.9	-56.6	3.8	7.46e-01	0	43	104	411566080	63	12324
2026-01-28 12:14:03.85	254.01	54.25	-46.6	-57.5	3.8	7.43e-01	0	43	104	411566080	63	13600
2026-01-28 12:14:04.86	254.90	54.26	-47.3	-58.4	3.8	7.46e-01	0	43	104	411566080	65	13456
2026-01-28 12:14:05.87	255.80	54.26	-55.1	-72.0	3.7	7.44e-01	0	42	104	411566080	80	27172
2026-01-28 12:14:06.87	256.69	54.25	-52.8	-65.7	3.8	7.43e-01	0	43	104	411566080	77	15630
2026-01-28 12:14:07.87	257.57	54.24	-46.9	-57.8	3.8	7.48e-01	0	42	104	411566080	64	13353
2026-01-28 12:14:08.88	258.47	54.22	-46.2	-57.1	3.8	7.46e-01	0	42	104	411566080	64	12291
2026-01-28 12:14:09.89	259.36	54.20	-45.9	-56.7	3.8	7.49e-01	0	42	104	411566080	63	12450
2026-01-28 12:14:10.90	260.26	54.17	-45.7	-56.4	3.8	7.48e-01	0	43	104	411566080	63	12061
2026-01-28 12:14:11.91	261.15	54.13	-52.4	-65.2	3.8	7.44e-01	0	43	104	411566080	75	16661
2026-01-28 12:14:12.92	262.03	54.08	-49.0	-60.2	3.8	7.39e-01	0	43	104	411566080	70	12457
2026-01-28 12:14:13.93	262.92	54.03	-52.7	-65.6	3.8	7.44e-01	0	43	104	411566080	76	16360
2026-01-28 12:14:14.93	263.79	53.97	-55.4	-73.3	3.8	7.45e-01	0	42	104	411566080	81	29767
2026-01-28 12:14:15.94	264.67	53.91	-46.1	-56.8	3.8	7.46e-01	0	43	104	411566080	63	12602
2026-01-28 12:14:16.95	265.54	53.83	-45.9	-56.7	3.8	7.46e-01	0	43	104	411566080	63	12408
2026-01-28 12:14:17.96	266.41	53.75	-46.0	-56.7	3.8	7.44e-01	0	43	104	411566080	63	12461
2026-01-28 12:14:18.97	267.27	53.67	-45.9	-56.7	3.9	7.45e-01	0	42	104	411566080	63	12441
2026-01-28 12:14:19.98	268.13	53.58	-46.3	-57.4	3.8	7.45e-01	0	42	104	411566080	63	13484
2026-01-28 12:14:20.99	268.98	53.48	-47.7	-58.5	3.8	7.45e-01	0	43	104	411566080	65	13652
2026-01-28 12:14:22.00	269.83	53.38	-55.2	-72.3	3.8	7.45e-01	0	43	104	411566080	81	26756
2026-01-28 12:14:23.01	270.67	53.27	-53.0	-65.9	3.8	7.42e-01	0	43	104	411566080	77	15973
2026-01-28 12:14:24.02	271.50	53.15	-46.4	-57.5	3.9	7.43e-01	0	43	104	411566080	63	13589
2026-01-28 12:14:25.03	272.33	53.03	-45.7	-56.5	3.8	7.46e-01	0	42	104	411566080	63	12154
2026-01-28 12:14:26.03	273.14	52.91	-45.4	-56.0	3.8	7.48e-01	0	42	104	411566080	62	12132
2026-01-28 12:14:27.04	273.95	52.78	-45.4	-56.3	3.8	7.43e-01	0	43	104	411566080	62	12596
2026-01-28 12:14:28.05	274.76	52.64	-49.0	-60.4	3.8	7.42e-01	0	43	104	411566080	68	14238
2026-01-28 12:14:29.06	275.56	52.50	-47.7	-58.8	3.8	7.45e-01	0	43	104	411566080	65	14054
2026-01-28 12:14:30.06	276.34	52.35	-55.3	-72.7	3.8	7.41e-01	0	43	104	411566080	81	27900
2026-01-28 12:14:31.07	277.12	52.20	-52.8	-65.6	3.8	7.46e-01	0	43	104	411566080	77	15458
2026-01-28 12:14:32.07	277.89	52.04	-46.6	-57.7	3.8	7.47e-01	0	43	104	411566080	63	14029
2026-01-28 12:14:33.08	278.65	51.88	-45.7	-56.4	3.8	7.41e-01	0	43	104	411566080	63	12028
2026-01-28 12:14:34.09	279.41	51.72	-45.6	-56.2	3.9	7.46e-01	0	43	104	411566080	63	11807
2026-01-28 12:14:35.10	280.16	51.55	-45.7	-56.5	3.8	7.42e-01	0	43	104	411566080	63	12226
2026-01-28 12:14:36.11	280.90	51.37	-48.5	-59.9	3.9	7.46e-01	0	43	104	411566080	69	12720
2026-01-28 12:14:37.11	281.62	51.19	-47.9	-59.0	3.8	7.43e-01	0	43	104	411566080	66	13573
2026-01-28 12:14:38.12	282.34	51.01	-55.4	-72.9	3.8	7.41e-01	0	42	104	411566080	81	28421
2026-01-28 12:14:39.13	283.06	50.82	-52.8	-65.5	3.8	7.44e-01	0	43	104	411566080	77	15323
2026-01-28 12:14:40.14	283.76	50.63	-46.6	-57.5	3.8	7.45e-01	0	43	104	411566080	63	13627
2026-01-28 12:14:41.14	284.45	50.44	-45.9	-56.7	3.8	7.43e-01	0	43	104	411566080	63	12487
2026-01-28 12:14:42.15	285.14	50.24	-46.0	-56.9	3.8	7.43e-01	0	43	104	411566080	63	12752
2026-01-28 12:14:43.16	285.82	50.04	-46.0	-56.9	3.8	7.47e-01	0	42	104	411566080	63	12676
2026-01-28 12:14:44.17	286.48	49.84	-48.0	-59.0	3.9	7.44e-01	0	43	104	411566080	67	12949
2026-01-28 12:14:45.17	287.14	49.64	-48.0	-59.2	3.8	7.44e-01	0	43	104	411566080	66	13982
2026-01-28 12:14:46.18	287.79	49.43	-55.3	-72.4	3.8	7.42e-01	0	42	104	411566080	81	27015
2026-01-28 12:14:47.19	288.43	49.21	-52.2	-64.8	3.9	7.46e-01	0	43	104	411566080	76	14896
2026-01-28 12:14:48.20	289.06	49.00	-46.7	-57.4	3.8	7.45e-01	0	43	104	411566080	64	12706
2026-01-28 12:14:49.21	289.69	48.78	-46.1	-57.0	3.8	7.45e-01	0	43	104	411566080	63	12871
2026-01-28 12:14:50.22	290.30	48.56	-46.1	-56.9	3.8	7.42e-01	0	42	104	411566080	63	12696
2026-01-28 12:14:51.23	290.91	48.34	-46.3	-57.0	3.8	7.44e-01	0	43	104	411566080	63	12947
2026-01-28 12:14:52.23	291.50	48.12	-47.5	-58.8	3.8	7.45e-01	0	43	104	411566080	66	13335
2026-01-28 12:14:53.24	292.09	47.89	-47.4	-58.3	3.9	7.44e-01	0	43	104	411566080	66	12585
2026-01-28 12:14:54.25	292.67	47.66	-53.6	-67.1	3.8	7.42e-01	0	43	104	411566080	78	17401
2026-01-28 12:14:55.26	293.24	47.43	-53.5	-67.3	3.9	7.45e-01	0	43	104	411566080	79	16871
2026-01-28 12:14:56.27	293.81	47.20	-47.2	-58.1	3.9	7.40e-01	0	43	104	411566080	65	13055
2026-01-28 12:14:57.28	294.36	46.97	-46.4	-57.2	3.8	7.46e-01	0	43	104	411566080	64	12502
2026-01-28 12:14:58.29	294.91	46.74	-46.0	-56.8	3.9	7.42e-01	0	42	104	411566080	64	11864
2026-01-28 12:14:59.30	295.45	46.50	-46.1	-56.9	3.8	7.45e-01	0	43	104	411566080	63	12708
2026-01-28 12:15:00.29	295.97	46.27	-48.6	-59.9	3.8	7.45e-01	0	42	104	411566080	69	12746
2026-01-28 12:15:01.29	296.48	46.03	-47.2	-58.0	3.8	7.46e-01	0	43	104	411566080	65	12880
2026-01-28 12:15:02.30	297.00	45.79	-53.9	-67.6	3.8	7.47e-01	0	43	104	411566080	78	18343
2026-01-28 12:15:03.31	297.51	45.55	-50.5	-62.6	3.9	7.43e-01	0	43	104	411566080	73	13872
2026-01-28 12:15:04.32	298.01	45.31	-46.8	-57.7	3.9	7.43e-01	0	43	104	411566080	64	13123
2026-01-28 12:15:05.33	298.50	45.07	-45.8	-56.5	3.8	7.39e-01	0	43	104	411566080	63	12128
2026-01-28 12:15:06.33	298.98	44.83	-45.9	-56.8	3.8	7.42e-01	0	43	104	411566080	63	12615
2026-01-28 12:15:07.34	299.45	44.59	-45.8	-56.7	3.8	7.42e-01	0	42	104	411566080	63	12477
2026-01-28 12:15:08.35	299.92	44.34	-46.5	-57.4	3.8	7.47e-01	0	43	104	411566080	65	12050
2026-01-28 12:15:09.36	300.39	44.10	-47.5	-58.4	3.8	7.45e-01	0	43	104	411566080	66	12751
2026-01-28 12:15:10.37	300.84	43.86	-55.2	-71.9	3.9	7.42e-01	0	43	104	411566080	81	25520
2026-01-28 12:15:11.38	301.29	43.61	-51.0	-63.0	3.9	7.42e-01	0	43	104	411566080	74	13625
2026-01-28 12:15:12.39	301.73	43.37	-46.1	-56.9	3.9	7.44e-01	0	43	104	411566080	64	12045
2026-01-28 12:15:13.40	302.17	43.12	-45.9	-56.9	3.8	7.43e-01	0	42	104	411566080	63	12765
2026-01-28 12:15:14.40	302.59	42.88	-45.9	-56.7	3.8	7.47e-01	0	43	104	411566080	63	12383
2026-01-28 12:15:15.40	303.01	42.64	-46.3	-57.0	3.8	7.44e-01	0	42	104	411566080	63	12949
2026-01-28 12:15:16.41	303.43	42.39	-47.5	-58.6	3.8	7.45e-01	0	43	104	411566080	67	12350
2026-01-28 12:15:17.42	303.84	42.15	-48.7	-59.9	3.8	7.49e-01	0	43	104	411566080	67	14289
2026-01-28 12:15:18.42	304.23	41.91	-54.4	-69.1	3.8	7.44e-01	0	43	104	411566080	79	20713
2026-01-28 12:15:19.43	304.63	41.66	-47.9	-59.1	3.8	7.45e-01	0	43	104	411566080	68	12358
2026-01-28 12:15:20.44	305.02	41.42	-46.7	-57.6	3.9	7.39e-01	0	43	104	411566080	65	12249
2026-01-28 12:15:21.45	305.41	41.17	-46.0	-56.6	3.8	7.42e-01	0	43	104	411566080	63	12312
2026-01-28 12:15:22.45	305.78	40.93	-46.0	-56.8	3.9	7.44e-01	0	42	104	411566080	63	12551
2026-01-28 12:15:23.46	306.16	40.69	-46.8	-58.0	3.8	7.39e-01	0	43	104	411566080	64	13644
2026-01-28 12:15:24.47	306.53	40.45	-48.4	-59.7	3.8	7.44e-01	0	43	104	411566080	68	13172
2026-01-28 12:15:25.48	306.89	40.21	-48.6	-59.9	3.8	7.45e-01	0	43	104	411566080	67	14364
2026-01-28 12:15:26.49	307.25	39.96	-54.4	-69.3	3.8	7.47e-01	0	43	104	411566080	79	21123
2026-01-28 12:15:27.50	307.60	39.72	-46.3	-56.8	3.8	7.40e-01	0	42	104	411566080	64	11925
2026-01-28 12:15:28.50	307.94	39.49	-46.3	-56.9	3.9	7.44e-01	0	42	104	411566080	64	12034
2026-01-28 12:15:29.51	308.28	39.25	-45.9	-56.6	3.9	7.43e-01	0	43	104	411566080	63	12344
2026-01-28 12:15:30.52	308.62	39.01	-46.0	-56.8	3.8	7.47e-01	0	43	104	411566080	63	12634
2026-01-28 12:15:31.53	308.95	38.77	-47.1	-58.0	3.8	7.43e-01	0	43	104	411566080	64	13576
2026-01-28 12:15:32.53	309.27	38.53	-47.7	-58.8	3.8	7.44e-01	0	43	104	411566080	67	12581
2026-01-28 12:15:33.54	309.60	38.30	-50.9	-63.1	3.8	7.45e-01	0	42	104	411566080	72	15455
2026-01-28 12:15:34.55	309.91	38.06	-54.0	-68.3	3.9	7.46e-01	0	43	104	411566080	79	18751
2026-01-28 12:15:35.56	310.23	37.83	-46.0	-57.0	3.8	7.39e-01	0	43	104	411566080	64	12115
2026-01-28 12:15:36.56	310.53	37.59	-46.3	-57.3	3.9	7.46e-01	0	43	104	411566080	64	12664
2026-01-28 12:15:37.57	310.84	37.36	-45.8	-56.5	3.8	7.45e-01	0	43	104	411566080	63	12218
2026-01-28 12:15:38.58	311.14	37.13	-45.6	-56.2	3.8	7.43e-01	0	43	104	411566080	63	11705
2026-01-28 12:15:39.59	311.43	36.90	-47.7	-58.6	3.8	7.44e-01	0	43	104	411566080	65	13753
2026-01-28 12:15:40.60	311.72	36.66	-46.4	-56.8	3.8	7.44e-01	0	42	104	411566080	64	11863
2026-01-28 12:15:41.60	312.01	36.44	-53.1	-66.2	3.8	7.46e-01	0	43	104	411566080	76	17493
2026-01-28 12:15:42.61	312.29	36.21	-53.4	-67.0	3.8	7.46e-01	0	43	104	411566080	78	17191
2026-01-28 12:15:43.62	312.57	35.98	-45.3	-56.1	3.8	7.45e-01	0	43	104	411566080	62	12288
2026-01-28 12:15:44.62	312.84	35.76	-45.5	-56.3	3.9	7.44e-01	0	43	104	411566080	63	11831
2026-01-28 12:15:45.63	313.11	35.53	-45.2	-56.0	3.8	7.44e-01	0	43	104	411566080	62	12139
2026-01-28 12:15:46.64	313.38	35.31	-44.9	-55.8	3.9	7.45e-01	0	43	104	411566080	61	12543
2026-01-28 12:15:47.65	313.64	35.08	-45.2	-56.1	3.8	7.44e-01	0	43	104	411566080	61	12974
2026-01-28 12:15:48.65	313.90	34.86	-45.5	-56.4	3.8	7.45e-01	0	43	104	411566080	61	13562
2026-01-28 12:15:49.66	314.16	34.64	-52.8	-65.7	3.8	7.48e-01	0	43	104	411566080	75	17526
2026-01-28 12:15:50.67	314.41	34.42	-52.7	-65.5	3.9	7.45e-01	0	43	104	411566080	77	15259
2026-01-28 12:15:51.68	314.66	34.20	-44.6	-55.1	3.8	7.43e-01	0	43	104	411566080	60	12354
2026-01-28 12:15:52.68	314.91	33.98	-44.8	-55.5	3.8	7.45e-01	0	43	104	411566080	61	12147
2026-01-28 12:15:53.69	315.15	33.77	-44.7	-55.4	3.8	7.46e-01	0	42	104	411566080	61	12038
2026-01-28 12:15:54.70	315.39	33.55	-44.5	-55.1	3.9	7.46e-01	0	43	104	411566080	60	12240
2026-01-28 12:15:55.71	315.63	33.33	-45.3	-55.9	3.8	7.41e-01	0	43	104	411566080	61	12806
2026-01-28 12:15:56.72	315.86	33.12	-44.7	-55.1	3.8	7.45e-01	0	43	104	411566080	61	11683
2026-01-28 12:15:57.72	316.09	32.91	-53.8	-67.9	3.8	7.47e-01	0	43	104	411566080	78	19020
2026-01-28 12:15:58.73	316.32	32.70	-51.8	-64.3	3.8	7.44e-01	0	43	104	411566080	75	14949
2026-01-28 12:15:59.74	316.54	32.49	-45.1	-55.9	3.8	7.45e-01	0	43	104	411566080	60	13450
2026-01-28 12:16:00.75	316.76	32.28	-44.1	-54.9	3.8	7.45e-01	0	43	104	411566080	60	12036
2026-01-28 12:16:01.76	316.98	32.07	-44.1	-54.9	3.8	7.47e-01	0	43	104	411566080	60	12085
2026-01-28 12:16:02.77	317.20	31.86	-44.1	-54.9	3.8	7.45e-01	0	43	104	411566080	60	11990
2026-01-28 12:16:03.77	317.41	31.66	-46.1	-57.0	3.8	7.43e-01	0	42	104	411566080	62	13686
2026-01-28 12:16:04.78	317.62	31.45	-44.6	-55.4	3.8	7.44e-01	0	43	104	411566080	61	11962
2026-01-28 12:16:05.79	317.83	31.25	-54.0	-68.3	3.8	7.46e-01	0	43	104	411566080	78	19846
2026-01-28 12:16:06.80	318.03	31.04	-51.4	-63.6	3.8	7.46e-01	0	43	104	411566080	74	14562
2026-01-28 12:16:07.80	318.24	30.84	-46.3	-57.3	3.8	7.48e-01	0	43	104	411566080	63	13291
2026-01-28 12:16:08.81	318.44	30.64	-44.0	-54.7	3.8	7.43e-01	0	42	104	411566080	60	11718
2026-01-28 12:16:09.81	318.63	30.45	-44.0	-54.6	3.8	7.41e-01	0	42	104	411566080	60	11578
2026-01-28 12:16:10.81	318.83	30.25	-44.0	-54.6	3.9	7.47e-01	0	43	104	411566080	60	11646
2026-01-28 12:16:11.82	319.02	30.05	-48.0	-59.1	3.8	7.43e-01	0	42	104	411566080	66	13827
2026-01-28 12:16:12.83	319.21	29.86	-44.5	-55.3	3.8	7.45e-01	0	43	104	411566080	61	11942
2026-01-28 12:16:13.84	319.40	29.66	-54.1	-68.7	3.8	7.45e-01	0	43	104	411566080	78	20892
2026-01-28 12:16:14.84	319.58	29.47	-51.0	-63.2	3.8	7.43e-01	0	43	104	411566080	73	14810
2026-01-28 12:16:15.85	319.77	29.28	-46.8	-57.6	3.9	7.45e-01	0	43	104	411566080	63	13850
2026-01-28 12:16:16.86	319.95	29.09	-44.3	-55.0	3.8	7.44e-01	0	43	104	411566080	60	12102
2026-01-28 12:16:17.87	320.13	28.89	-44.3	-55.0	3.8	7.42e-01	0	43	104	411566080	60	12131
2026-01-28 12:16:18.87	320.30	28.71	-44.3	-55.0	3.8	7.45e-01	0	43	104	411566080	60	12219
2026-01-28 12:16:19.88	320.48	28.52	-48.2	-59.3	3.9	7.42e-01	0	43	104	411566080	66	14201
2026-01-28 12:16:20.89	320.65	28.33	-44.8	-55.5	3.8	7.45e-01	0	42	104	411566080	61	12224
2026-01-28 12:16:21.89	320.82	28.15	-54.1	-68.7	3.8	7.46e-01	0	43	104	411566080	78	20883
2026-01-28 12:16:22.90	320.99	27.96	-50.6	-62.5	3.8	7.44e-01	0	43	104	411566080	73	13700
2026-01-28 12:16:23.91	321.16	27.78	-48.1	-59.0	3.8	7.47e-01	0	43	104	411566080	66	13640
2026-01-28 12:16:24.91	321.32	27.60	-44.8	-55.2	3.8	7.44e-01	0	43	104	411566080	61	11810
2026-01-28 12:16:25.92	321.49	27.41	-44.8	-55.4	3.8	7.41e-01	0	42	104	411566080	61	11985
2026-01-28 12:16:26.93	321.65	27.23	-44.9	-55.6	3.8	7.43e-01	0	43	104	411566080	61	12274
2026-01-28 12:16:27.94	321.81	27.05	-47.5	-58.6	3.8	7.45e-01	0	42	104	411566080	65	13841
2026-01-28 12:16:28.95	321.97	26.88	-45.1	-55.9	3.8	7.46e-01	0	43	104	411566080	62	12070
2026-01-28 12:16:29.95	322.12	26.70	-54.2	-69.2	3.8	7.47e-01	0	43	104	411566080	79	20947
2026-01-28 12:16:30.96	322.27	26.52	-50.5	-62.3	3.8	7.43e-01	0	43	104	411566080	73	13350
2026-01-28 12:16:31.97	322.43	26.35	-48.5	-59.7	3.8	7.39e-01	0	42	104	411566080	67	13939
2026-01-28 12:16:32.97	322.58	26.17	-45.1	-55.8	3.8	7.43e-01	0	42	104	411566080	62	11863
2026-01-28 12:16:33.98	322.73	26.00	-45.1	-55.8	3.8	7.46e-01	0	43	104	411566080	62	11941
2026-01-28 12:16:34.98	322.87	25.83	-45.1	-55.9	3.8	7.43e-01	0	42	104	411566080	62	11959
2026-01-28 12:16:35.99	323.02	25.66	-46.1	-56.9	3.8	7.41e-01	0	42	104	411566080	62	13546
2026-01-28 12:16:37.00	323.16	25.49	-45.2	-55.9	3.8	7.45e-01	0	42	104	411566080	62	12034
2026-01-28 12:16:38.01	323.31	25.32	-54.3	-69.4	3.8	7.48e-01	0	43	104	411566080	79	21416
2026-01-28 12:16:39.02	323.45	25.15	-50.0	-61.2	3.8	7.46e-01	0	43	104	411566080	71	13206
2026-01-28 12:16:40.02	323.59	24.98	-49.3	-60.7	3.8	7.44e-01	0	43	104	411566080	69	13919
2026-01-28 12:16:41.03	323.73	24.82	-45.4	-56.2	3.8	7.47e-01	0	43	104	411566080	62	12449
2026-01-28 12:16:42.04	323.86	24.65	-45.3	-56.1	3.8	7.46e-01	0	42	104	411566080	62	12298
2026-01-28 12:16:43.05	324.00	24.49	-45.3	-56.1	3.8	7.43e-01	0	43	104	411566080	62	12329
2026-01-28 12:16:44.06	324.13	24.32	-47.9	-59.1	3.8	7.41e-01	0	43	104	411566080	66	13762
2026-01-28 12:16:45.06	324.26	24.16	-45.2	-56.0	3.8	7.45e-01	0	43	104	411566080	62	12210
2026-01-28 12:16:46.06	324.39	24.00	-54.3	-69.7	3.8	7.44e-01	0	43	104	411566080	79	22170
2026-01-28 12:16:47.07	324.53	23.84	-49.5	-61.2	3.8	7.44e-01	0	43	104	411566080	71	13130
2026-01-28 12:16:48.08	324.65	23.68	-49.0	-60.4	3.8	7.43e-01	0	43	104	411566080	69	13482
2026-01-28 12:16:49.09	324.78	23.52	-45.3	-56.1	3.8	7.45e-01	0	43	104	411566080	62	12267
2026-01-28 12:16:50.10	324.91	23.37	-45.1	-55.8	3.8	7.43e-01	0	43	104	411566080	62	11849
2026-01-28 12:16:51.11	325.03	23.21	-45.0	-55.7	3.8	7.41e-01	0	43	104	411566080	62	11780
2026-01-28 12:16:52.12	325.16	23.05	-48.2	-59.3	3.9	7.42e-01	0	43	104	411566080	68	12646
2026-01-28 12:16:53.13	325.28	22.90	-45.0	-55.7	3.8	7.45e-01	0	43	104	411566080	62	11793
2026-01-28 12:16:54.13	325.40	22.74	-54.3	-69.9	3.8	7.45e-01	0	43	104	411566080	79	22733
2026-01-28 12:16:55.14	325.52	22.59	-48.0	-59.2	3.8	7.43e-01	0	43	104	411566080	68	12448
2026-01-28 12:16:56.15	325.64	22.44	-48.9	-60.3	3.8	7.44e-01	0	43	104	411566080	69	13303
2026-01-28 12:16:57.16	325.76	22.29	-45.0	-55.7	3.8	7.45e-01	0	43	104	411566080	62	11813
2026-01-28 12:16:58.16	325.87	22.14	-45.0	-55.8	3.8	7.44e-01	0	43	104	411566080	62	11858
2026-01-28 12:16:59.17	325.99	21.99	-44.9	-55.7	3.8	7.44e-01	0	43	104	411566080	61	12465
2026-01-28 12:17:00.18	326.10	21.84	-49.5	-61.2	3.9	7.45e-01	0	43	104	411566080	71	13240
2026-01-28 12:17:01.18	326.21	21.69	-44.9	-55.7	3.8	7.47e-01	0	43	104	411566080	61	12429
2026-01-28 12:17:02.18	326.32	21.54	-54.2	-69.6	3.8	7.42e-01	0	43	104	411566080	79	21951
2026-01-28 12:17:03.19	326.44	21.40	-46.7	-57.8	3.8	7.45e-01	0	43	104	411566080	65	12548
2026-01-28 12:17:04.20	326.55	21.25	-48.5	-59.9	3.8	7.44e-01	0	43	104	411566080	69	12681
2026-01-28 12:17:05.20	326.65	21.11	-44.8	-55.7	3.8	7.45e-01	0	43	104	411566080	61	12380
2026-01-28 12:17:06.21	326.76	20.96	-44.9	-55.8	3.8	7.45e-01	0	43	104	411566080	61	12548
2026-01-28 12:17:07.22	326.87	20.82	-44.9	-55.7	3.8	7.44e-01	0	43	104	411566080	61	12469
2026-01-28 12:17:08.23	326.97	20.68	-46.9	-58.1	3.8	7.42e-01	0	43	104	411566080	66	12278
2026-01-28 12:17:09.24	327.08	20.54	-44.8	-55.6	3.8	7.45e-01	0	43	104	411566080	61	12247
2026-01-28 12:17:10.24	327.18	20.40	-54.1	-69.6	3.8	7.47e-01	0	42	104	411566080	79	21861
2026-01-28 12:17:11.25	327.29	20.26	-46.4	-57.0	3.8	7.43e-01	0	43	104	411566080	64	12218
2026-01-28 12:17:12.26	327.39	20.12	-48.5	-59.7	3.9	7.45e-01	0	43	104	411566080	69	12439
2026-01-28 12:17:13.27	327.49	19.98	-44.7	-55.4	3.9	7.43e-01	0	42	104	411566080	61	12016
2026-01-28 12:17:14.28	327.59	19.84	-44.8	-55.4	3.9	7.42e-01	0	43	104	411566080	61	12048
2026-01-28 12:17:15.29	327.69	19.70	-45.0	-55.6	3.8	7.44e-01	0	43	104	411566080	61	12305
2026-01-28 12:17:16.29	327.79	19.57	-46.5	-57.3	3.8	7.45e-01	0	43	104	411566080	65	11954
2026-01-28 12:17:17.30	327.88	19.43	-45.1	-55.6	3.8	7.45e-01	0	42	104	411566080	61	12345
2026-01-28 12:17:18.31	327.98	19.30	-52.9	-66.2	3.9	7.43e-01	0	43	104	411566080	77	16557
2026-01-28 12:17:19.31	328.08	19.16	-45.1	-55.8	3.8	7.43e-01	0	43	104	411566080	62	11865
2026-01-28 12:17:20.32	328.17	19.03	-47.3	-58.1	3.8	7.41e-01	0	43	104	411566080	66	12280
2026-01-28 12:17:21.33	328.27	18.90	-44.6	-55.3	3.8	7.46e-01	0	43	104	411566080	61	11835
2026-01-28 12:17:22.34	328.36	18.77	-44.5	-55.2	3.8	7.45e-01	0	43	104	411566080	61	11742
2026-01-28 12:17:23.34	328.45	18.64	-44.8	-55.5	3.8	7.42e-01	0	43	104	411566080	61	12121
2026-01-28 12:17:24.35	328.54	18.51	-46.0	-56.6	3.8	7.44e-01	0	43	104	411566080	63	12348
2026-01-28 12:17:25.36	328.63	18.38	-45.1	-55.8	3.8	7.47e-01	0	43	104	411566080	61	12587
2026-01-28 12:17:26.37	328.72	18.25	-52.8	-66.4	3.9	7.45e-01	0	43	104	411566080	77	16977
2026-01-28 12:17:27.37	328.81	18.12	-45.1	-56.0	3.9	7.43e-01	0	43	104	411566080	62	12133
2026-01-28 12:17:28.38	328.90	17.99	-46.3	-57.2	3.8	7.44e-01	0	43	104	411566080	64	12511
2026-01-28 12:17:29.39	328.99	17.86	-44.6	-55.4	3.8	7.43e-01	0	43	104	411566080	61	12041
2026-01-28 12:17:30.39	329.08	17.74	-44.6	-55.4	3.8	7.41e-01	0	43	104	411566080	61	12019
2026-01-28 12:17:31.40	329.16	17.61	-45.2	-56.1	3.8	7.47e-01	0	42	104	411566080	61	13017
2026-01-28 12:17:32.41	329.25	17.49	-45.4	-56.3	3.8	7.41e-01	0	43	104	411566080	62	12526
2026-01-28 12:17:33.42	329.33	17.36	-46.6	-57.7	3.8	7.44e-01	0	42	104	411566080	63	14019
2026-01-28 12:17:34.43	329.42	17.24	-51.0	-63.5	3.9	7.45e-01	0	42	104	411566080	74	14534
2026-01-28 12:17:35.43	329.50	17.12	-44.6	-55.5	3.8	7.42e-01	0	43	104	411566080	61	12141
2026-01-28 12:17:36.44	329.58	16.99	-47.3	-58.5	3.8	7.42e-01	0	43	104	411566080	66	12883
2026-01-28 12:17:37.45	329.67	16.87	-45.0	-55.9	3.8	7.45e-01	0	43	104	411566080	62	12087
2026-01-28 12:17:38.46	329.75	16.75	-44.7	-55.5	3.8	7.44e-01	0	43	104	411566080	61	12233
2026-01-28 12:17:39.47	329.83	16.63	-45.1	-55.9	3.8	7.45e-01	0	42	104	411566080	61	12793
2026-01-28 12:17:40.48	329.91	16.51	-44.9	-55.6	3.8	7.46e-01	0	42	104	411566080	61	12308
2026-01-28 12:17:41.48	329.99	16.39	-49.2	-60.7	3.8	7.46e-01	0	43	104	411566080	68	14727
2026-01-28 12:17:42.49	330.07	16.27	-49.5	-61.2	3.9	7.47e-01	0	43	104	411566080	71	13248
2026-01-28 12:17:43.50	330.15	16.15	-45.2	-55.9	3.8	7.46e-01	0	43	104	411566080	61	12726
2026-01-28 12:17:44.51	330.22	16.04	-46.3	-57.2	3.9	7.45e-01	0	42	104	411566080	64	12429
2026-01-28 12:17:45.51	330.30	15.92	-45.0	-55.8	3.8	7.46e-01	0	43	104	411566080	62	11855
2026-01-28 12:17:46.52	330.38	15.80	-44.6	-55.3	3.8	7.48e-01	0	43	104	411566080	61	11906
2026-01-28 12:17:47.53	330.45	15.69	-45.5	-56.3	3.8	7.46e-01	0	43	104	411566080	61	13284
2026-01-28 12:17:48.53	330.53	15.57	-44.5	-55.2	3.9	7.44e-01	0	42	104	411566080	61	11753
2026-01-28 12:17:49.54	330.60	15.46	-49.2	-60.6	3.8	7.46e-01	0	43	104	411566080	68	14569
2026-01-28 12:17:50.55	330.68	15.34	-50.9	-62.9	3.8	7.43e-01	0	43	104	411566080	73	14245
2026-01-28 12:17:51.56	330.75	15.23	-45.6	-56.2	3.8	7.42e-01	0	42	104	411566080	62	12452
2026-01-28 12:17:52.57	330.82	15.12	-46.5	-57.4	3.8	7.47e-01	0	42	104	411566080	65	12048
2026-01-28 12:17:53.58	330.90	15.00	-45.5	-56.2	3.8	7.43e-01	0	43	104	411566080	63	11780
2026-01-28 12:17:54.58	330.97	14.89	-45.3	-56.0	3.9	7.44e-01	0	43	104	411566080	62	12158
2026-01-28 12:17:55.59	331.04	14.78	-47.2	-58.2	3.9	7.45e-01	0	43	104	411566080	64	13959
2026-01-28 12:17:56.60	331.11	14.67	-44.4	-55.0	3.8	7.44e-01	0	42	104	411566080	60	12188
2026-01-28 12:17:57.61	331.18	14.56	-52.0	-64.9	3.8	7.43e-01	0	43	104	411566080	74	17052
2026-01-28 12:17:58.62	331.25	14.45	-50.1	-62.0	3.8	7.45e-01	0	43	104	411566080	72	13621
2026-01-28 12:17:59.62	331.32	14.34	-46.7	-57.4	3.8	7.46e-01	0	43	104	411566080	63	13557
2026-01-28 12:18:00.63	331.39	14.23	-46.2	-57.0	3.8	7.43e-01	0	43	104	411566080	64	12151
2026-01-28 12:18:01.64	331.46	14.12	-45.5	-56.2	3.8	7.41e-01	0	43	104	411566080	63	11807
2026-01-28 12:18:02.65	331.53	14.01	-45.5	-56.3	3.8	7.46e-01	0	43	104	411566080	62	12537
2026-01-28 12:18:03.66	331.59	13.91	-45.4	-56.1	3.8	7.44e-01	0	43	104	411566080	62	12341
2026-01-28 12:18:04.66	331.66	13.80	-44.6	-55.3	3.8	7.46e-01	0	43	104	411566080	61	11850
2026-01-28 12:18:05.67	331.73	13.69	-52.1	-65.1	3.8	7.47e-01	0	43	104	411566080	74	17466
2026-01-28 12:18:06.67	331.79	13.59	-50.1	-62.1	3.8	7.48e-01	0	43	104	411566080	72	13734
2026-01-28 12:18:07.68	331.86	13.48	-46.7	-57.5	3.8	7.41e-01	0	43	104	411566080	63	13726
2026-01-28 12:18:08.69	331.92	13.38	-46.0	-56.8	3.8	7.44e-01	0	43	104	411566080	64	11937
2026-01-28 12:18:09.69	331.99	13.27	-45.6	-56.4	3.8	7.46e-01	0	43	104	411566080	63	12003
2026-01-28 12:18:10.70	332.05	13.17	-45.3	-56.1	3.8	7.46e-01	0	43	104	411566080	62	12300
2026-01-28 12:18:11.71	332.12	13.06	-49.1	-60.5	3.8	7.46e-01	0	43	104	411566080	68	14523
2026-01-28 12:18:12.72	332.18	12.96	-44.6	-55.3	3.8	7.46e-01	0	43	104	411566080	61	11928
2026-01-28 12:18:13.73	332.24	12.86	-53.6	-68.6	3.7	7.47e-01	0	43	104	411566080	77	21947
2026-01-28 12:18:14.73	332.30	12.76	-49.9	-61.6	3.9	7.47e-01	0	43	104	411566080	71	13812
2026-01-28 12:18:15.74	332.37	12.65	-48.0	-59.1	3.8	7.46e-01	0	42	104	411566080	66	13862
2026-01-28 12:18:16.75	332.43	12.55	-46.1	-56.9	3.8	7.41e-01	0	43	104	411566080	64	12067
2026-01-28 12:18:17.75	332.49	12.45	-45.7	-56.4	3.8	7.46e-01	0	43	104	411566080	63	12073
2026-01-28 12:18:18.76	332.55	12.35	-45.7	-56.5	3.8	7.45e-01	0	43	104	411566080	63	12192
2026-01-28 12:18:19.77	332.61	12.25	-46.0	-56.8	3.8	7.40e-01	0	43	104	411566080	63	12551
2026-01-28 12:18:20.77	332.67	12.15	-44.8	-55.5	3.8	7.44e-01	0	43	104	411566080	61	12128
2026-01-28 12:18:21.78	332.73	12.05	-54.1	-70.6	3.8	7.45e-01	0	43	104	411566080	78	25946
2026-01-28 12:18:22.79	332.79	11.96	-49.7	-61.5	3.8	7.42e-01	0	43	104	411566080	71	13585
2026-01-28 12:18:23.80	332.85	11.86	-49.1	-60.6	3.8	7.44e-01	0	43	104	411566080	68	14592
2026-01-28 12:18:24.80	332.90	11.76	-46.1	-57.0	3.8	7.42e-01	0	43	104	411566080	64	12143
2026-01-28 12:18:25.81	332.96	11.66	-45.9	-56.8	3.8	7.47e-01	0	43	104	411566080	63	12571
2026-01-28 12:18:26.82	333.02	11.56	-45.9	-56.8	3.8	7.45e-01	0	42	104	411566080	63	12650
2026-01-28 12:18:27.83	333.08	11.47	-44.6	-46.5	5.3	7.03e-01	0	43	0	411566080	61	4305
2026-01-28 12:18:28.84	333.13	11.37	-44.6	-45.9	24.2	6.05e-01	0	43	0	412090368	60	4258
2026-01-28 12:18:29.84	333.19	11.28	-54.0	-65.3	6.4	6.82e-01	156	43	0	413663232	78	14194
2026-01-28 12:18:30.85	333.25	11.18	-48.0	-49.9	21.0	6.02e-01	0	43	0	415236096	68	4273
2026-01-28 12:18:31.86	333.30	11.09	-49.1	-51.3	20.1	6.02e-01	0	43	0	417333248	68	5019
2026-01-28 12:18:32.87	333.36	10.99	-45.5	-46.9	24.1	6.02e-01	0	42	0	418906112	63	4024
2026-01-28 12:18:33.87	333.41	10.90	-45.5	-46.9	24.2	6.01e-01	0	43	0	421003264	62	4257
2026-01-28 12:18:34.88	333.47	10.80	-45.3	-46.7	24.3	6.03e-01	0	42	0	423100416	62	4151
2026-01-28 12:18:35.89	333.52	10.71	-44.9	-46.1	24.7	6.04e-01	0	42	0	424673280	61	4145
2026-01-28 12:18:36.90	333.58	10.62	-44.9	-46.2	24.7	6.01e-01	0	43	0	426770432	61	4158
2026-01-28 12:18:37.91	333.63	10.52	-44.9	-46.2	24.7	6.02e-01	0	43	0	428343296	61	4147
2026-01-28 12:18:38.91	333.68	10.43	-45.0	-46.3	24.6	6.01e-01	0	43	0	430440448	61	4207
2026-01-28 12:18:39.92	333.73	10.34	-45.0	-46.4	24.5	6.01e-01	0	42	0	432537600	61	4252
2026-01-28 12:18:40.93	333.79	10.25	-44.9	-46.3	24.7	6.03e-01	0	43	0	434110464	61	4194
2026-01-28 12:18:41.94	333.84	10.16	-44.8	-46.1	24.8	6.00e-01	0	43	0	436207616	61	4108
2026-01-28 12:18:42.95	333.89	10.06	-44.7	-45.9	25.0	6.01e-01	0	42	0	437780480	61	4046
2026-01-28 12:18:43.95	333.94	9.97	-44.7	-46.0	25.0	6.03e-01	0	43	0	439877632	61	4074
2026-01-28 12:18:44.96	333.99	9.88	-44.7	-45.9	25.0	6.01e-01	0	42	0	441450496	61	4045
2026-01-28 12:18:45.96	334.05	9.79	-44.7	-46.0	25.0	6.02e-01	0	43	0	443547648	61	4076
2026-01-28 12:18:46.97	334.10	9.70	-44.8	-46.1	24.8	6.02e-01	0	43	0	445644800	61	4113
2026-01-28 12:18:47.98	334.15	9.62	-44.7	-46.0	25.0	6.01e-01	0	43	0	447217664	61	4077
2026-01-28 12:18:48.98	334.20	9.53	-44.7	-46.0	25.0	6.02e-01	0	42	0	449314816	61	4057
2026-01-28 12:18:49.99	334.25	9.44	-44.8	-46.1	24.9	6.02e-01	0	43	0	451411968	61	4102
2026-01-28 12:18:50.99	334.30	9.35	-44.8	-46.1	24.8	6.04e-01	0	43	0	452984832	61	4125
2026-01-28 12:18:51.99	334.34	9.26	-44.9	-46.3	24.7	6.02e-01	0	42	0	455081984	61	4195
2026-01-28 12:18:53.00	334.39	9.18	-44.9	-46.2	24.7	6.03e-01	0	43	0	456654848	61	4167
2026-01-28 12:18:54.01	334.44	9.09	-45.1	-46.4	24.5	6.00e-01	0	42	0	458752000	61	4283
2026-01-28 12:18:55.02	334.49	9.00	-45.0	-46.4	24.5	6.03e-01	0	42	0	460849152	61	4248
2026-01-28 12:18:56.03	334.54	8.91	-44.9	-46.2	24.6	6.02e-01	0	42	0	462422016	61	4182
2026-01-28 12:18:57.03	334.59	8.83	-45.1	-46.4	24.5	6.05e-01	0	43	0	464519168	61	4259
2026-01-28 12:18:58.04	334.63	8.74	-44.9	-46.2	24.7	6.00e-01	0	42	0	466092032	61	4181
2026-01-28 12:18:59.05	334.68	8.66	-45.1	-46.4	24.5	6.01e-01	0	43	0	468189184	61	4284
2026-01-28 12:19:00.05	334.73	8.57	-45.0	-46.3	24.6	6.02e-01	0	42	0	469762048	61	4214
2026-01-28 12:19:01.05	334.77	8.49	-45.0	-46.4	24.5	6.03e-01	0	43	0	471859200	61	4245
2026-01-28 12:19:02.06	334.82	8.40	-45.1	-46.5	24.3	6.01e-01	0	42	0	473956352	61	4293
2026-01-28 12:19:03.07	334.87	8.32	-45.0	-46.4	24.4	6.02e-01	0	43	0	475529216	61	4255
2026-01-28 12:19:04.07	334.91	8.23	-45.1	-46.5	24.3	6.00e-01	0	42	0	477626368	61	4308
2026-01-28 12:19:05.08	334.96	8.15	-45.1	-46.5	24.2	6.01e-01	0	42	0	479723520	61	4306
2026-01-28 12:19:06.09	335.00	8.07	-45.2	-46.6	24.2	6.01e-01	0	42	0	481296384	61	4352
2026-01-28 12:19:07.09	335.05	7.98	-45.1	-46.5	24.3	6.03e-01	0	43	0	483393536	61	4317
2026-01-28 12:19:08.10	335.09	7.90	-45.3	-46.7	24.1	6.02e-01	0	42	0	484966400	61	4424
2026-01-28 12:19:09.11	335.14	7.82	-45.3	-46.7	24.1	6.03e-01	0	42	0	487063552	61	4408
