passes_logs/2026/01/28/R3.2S_Murmansk/R3.2S_Murmansk__20260128_094229_FENGYUN_3D_rec.log

#Pass ID: 20260128_094229_FENGYUN 3D
#Satellite: FENGYUN 3D
#Configuration: FENGYUN 3D
#almurnet v.1.7.20251203
#Start time: 2026-01-28 09:42:29

#Version: 2.2.20231116
#Station: R3.2S_Murmansk
#Location: 33.079688 lon 68.888172 lat
#TLE: 1 43010U 17072A   26027.90082829  .00000305  00000+0  16579-3 0  9998
#TLE: 2 43010  98.9960 359.9183 0002511  88.1058 272.0405 14.19701796425082

#Time	Az	El	Level	Level2	SNR	BER	BlckErr	Temp	State	Recorded	gain1	gain2
2026-01-28 09:42:29.13	108.51	1.98	-53.9	-65.9	3.8	8.47e-01	0	41	0	0	79	14251
2026-01-28 09:42:30.15	108.47	2.04	-54.0	-66.0	3.8	8.46e-01	0	41	104	0	78	15240
2026-01-28 09:42:31.15	108.43	2.10	-54.0	-65.9	3.8	8.47e-01	0	41	104	0	78	15184
2026-01-28 09:42:32.16	108.39	2.17	-53.9	-65.9	3.8	8.47e-01	0	41	104	0	78	15135
2026-01-28 09:42:33.17	108.35	2.23	-53.9	-65.9	3.8	8.45e-01	0	41	104	0	78	15163
2026-01-28 09:42:34.18	108.31	2.29	-53.9	-65.9	3.8	8.46e-01	0	41	104	0	78	15111
2026-01-28 09:42:35.19	108.27	2.35	-53.9	-65.9	3.8	8.45e-01	0	41	104	0	78	15116
2026-01-28 09:42:36.19	108.23	2.42	-53.9	-65.9	3.8	8.46e-01	0	41	104	0	78	15132
2026-01-28 09:42:37.20	108.18	2.48	-54.1	-66.1	3.8	8.47e-01	0	41	104	0	78	15520
2026-01-28 09:42:38.21	108.14	2.54	-54.2	-66.2	3.8	8.46e-01	0	41	104	0	78	15605
2026-01-28 09:42:39.22	108.10	2.61	-54.2	-66.2	3.8	8.46e-01	0	41	104	0	78	15629
2026-01-28 09:42:40.23	108.06	2.67	-54.2	-66.2	3.8	8.46e-01	0	41	104	0	79	14770
2026-01-28 09:42:41.23	108.02	2.73	-54.2	-66.2	3.8	8.46e-01	0	41	104	0	79	14759
2026-01-28 09:42:42.24	107.98	2.79	-54.2	-66.1	3.8	8.46e-01	0	41	104	0	79	14663
2026-01-28 09:42:43.24	107.93	2.86	-54.2	-66.1	3.8	8.46e-01	0	41	104	0	79	14654
2026-01-28 09:42:44.25	107.89	2.92	-54.1	-66.0	3.8	8.46e-01	0	41	104	0	79	14527
2026-01-28 09:42:45.26	107.85	2.99	-54.1	-66.0	3.8	8.46e-01	0	41	104	0	79	14502
2026-01-28 09:42:46.27	107.81	3.05	-54.0	-65.9	3.8	8.45e-01	0	41	104	0	79	14339
2026-01-28 09:42:47.27	107.76	3.11	-54.0	-66.0	3.8	8.46e-01	0	41	104	0	79	14381
2026-01-28 09:42:48.28	107.72	3.18	-54.0	-65.9	3.8	8.46e-01	0	41	104	0	79	14331
2026-01-28 09:42:49.29	107.68	3.24	-53.9	-65.9	3.8	8.46e-01	0	42	104	0	79	14307
2026-01-28 09:42:50.30	107.63	3.31	-53.9	-65.8	3.8	8.46e-01	0	41	104	0	79	14191
2026-01-28 09:42:51.30	107.59	3.37	-53.9	-65.8	3.8	8.46e-01	0	41	104	0	79	14105
2026-01-28 09:42:52.31	107.54	3.44	-53.8	-65.8	3.8	8.46e-01	0	41	104	0	79	14047
2026-01-28 09:42:53.31	107.50	3.50	-53.8	-65.7	3.8	8.46e-01	0	42	104	0	79	13953
2026-01-28 09:42:54.32	107.46	3.57	-53.7	-65.6	3.8	8.45e-01	0	42	104	0	79	13850
2026-01-28 09:42:55.33	107.41	3.63	-53.7	-65.6	3.8	8.46e-01	0	42	104	0	79	13810
2026-01-28 09:42:56.33	107.37	3.70	-53.6	-65.6	3.8	8.47e-01	0	42	104	0	79	13744
2026-01-28 09:42:57.34	107.32	3.76	-53.5	-65.5	3.8	8.46e-01	0	42	104	0	79	13666
2026-01-28 09:42:58.34	107.28	3.83	-53.5	-65.4	3.8	8.47e-01	0	42	104	0	78	14258
2026-01-28 09:42:59.35	107.23	3.89	-53.4	-65.3	3.8	8.46e-01	0	42	104	0	78	14160
2026-01-28 09:43:00.36	107.18	3.96	-53.3	-65.2	3.8	8.46e-01	0	42	104	0	78	13942
2026-01-28 09:43:01.36	107.14	4.02	-53.2	-65.1	3.8	8.47e-01	0	42	104	0	78	13850
2026-01-28 09:43:02.37	107.09	4.09	-53.1	-65.0	3.8	8.47e-01	0	42	104	0	78	13630
2026-01-28 09:43:03.38	107.05	4.16	-52.9	-64.8	3.8	8.46e-01	0	42	104	0	77	14190
2026-01-28 09:43:04.38	107.00	4.22	-52.7	-64.6	3.8	8.46e-01	0	42	104	0	77	13856
2026-01-28 09:43:05.39	106.95	4.29	-52.5	-64.2	3.8	8.46e-01	0	42	104	0	77	13196
2026-01-28 09:43:06.39	106.91	4.36	-51.5	-59.1	4.2	8.45e-01	0	42	104	0	75	8186
2026-01-28 09:43:07.40	106.86	4.42	-51.9	-61.7	4.0	8.43e-01	0	42	104	0	75	11072
2026-01-28 09:43:08.41	106.81	4.49	-51.6	-59.9	4.3	8.37e-01	0	42	0	0	75	9060
2026-01-28 09:43:09.42	106.76	4.56	-51.1	-57.5	5.6	7.51e-01	0	42	0	0	74	7206
2026-01-28 09:43:10.43	106.71	4.62	-50.3	-55.0	7.7	1.55e-01	0	42	0	5242880	72	6081
2026-01-28 09:43:11.43	106.67	4.69	-49.5	-53.0	9.8	2.13e-02	0	42	0	10485760	71	5126
2026-01-28 09:43:12.44	106.62	4.76	-48.0	-50.5	12.4	1.15e-03	0	42	0	16777216	68	4584
2026-01-28 09:43:13.45	106.57	4.83	-46.8	-48.8	14.1	2.28e-05	0	42	0	23068672	65	4456
2026-01-28 09:43:14.46	106.52	4.89	-46.5	-48.3	14.6	1.10e-06	0	42	0	28311552	65	4232
2026-01-28 09:43:15.47	106.47	4.96	-45.7	-47.3	15.7	0.00e+00	0	42	0	33554432	63	4234
2026-01-28 09:43:16.48	106.42	5.03	-45.2	-46.7	16.3	0.00e+00	0	42	0	39845888	62	4160
2026-01-28 09:43:17.49	106.37	5.10	-44.5	-45.8	17.2	0.00e+00	0	42	0	45088768	61	3977
2026-01-28 09:43:18.49	106.32	5.17	-45.9	-47.6	15.6	0.00e+00	0	42	0	50331648	62	4624
2026-01-28 09:43:19.50	106.27	5.24	-45.4	-46.9	16.1	2.33e-03	0	42	0	56623104	62	4261
2026-01-28 09:43:20.51	106.22	5.31	-44.3	-45.5	17.4	2.20e-06	0	42	0	61865984	60	4095
2026-01-28 09:43:21.51	106.17	5.37	-44.7	-46.0	17.7	0.00e+00	0	42	0	68157440	59	4578
2026-01-28 09:43:22.52	106.12	5.44	-46.9	-48.8	14.1	4.60e-01	0	42	0	72351744	66	4226
2026-01-28 09:43:23.53	106.07	5.51	-43.6	-44.7	18.8	0.00e+00	0	42	0	78643200	59	3938
2026-01-28 09:43:24.53	106.02	5.58	-43.5	-44.7	18.8	0.00e+00	0	42	0	83886080	58	4162
2026-01-28 09:43:25.54	105.96	5.65	-43.3	-44.4	19.0	0.00e+00	0	42	0	90177536	58	4046
2026-01-28 09:43:26.55	105.91	5.72	-43.2	-44.3	19.1	0.00e+00	0	42	0	95420416	58	3999
2026-01-28 09:43:27.56	105.86	5.79	-43.4	-44.5	19.0	0.00e+00	0	42	0	101711872	58	4071
2026-01-28 09:43:28.57	105.81	5.86	-43.4	-44.6	18.9	0.00e+00	0	42	0	106954752	58	4115
2026-01-28 09:43:29.57	105.75	5.93	-43.2	-44.4	19.1	0.00e+00	0	42	0	113246208	58	4010
2026-01-28 09:43:30.58	105.70	6.00	-43.5	-44.6	18.8	0.00e+00	0	42	0	118489088	58	4135
2026-01-28 09:43:31.59	105.65	6.07	-43.1	-44.1	19.3	0.00e+00	0	42	0	123731968	58	3911
2026-01-28 09:43:32.60	105.59	6.14	-43.2	-44.3	19.1	0.00e+00	0	42	0	130023424	58	4004
2026-01-28 09:43:33.60	105.54	6.21	-43.3	-44.4	19.1	0.00e+00	0	42	0	135266304	58	4031
2026-01-28 09:43:34.61	105.49	6.29	-43.2	-44.3	19.1	0.00e+00	0	42	0	140509184	58	3998
2026-01-28 09:43:35.62	105.43	6.36	-43.1	-44.2	19.2	0.00e+00	0	42	0	146800640	58	3944
2026-01-28 09:43:36.62	105.38	6.43	-43.0	-44.1	19.3	0.00e+00	0	42	0	152043520	57	4145
2026-01-28 09:43:37.63	105.32	6.50	-42.9	-44.0	19.4	0.00e+00	0	42	0	157286400	57	4088
2026-01-28 09:43:38.63	105.27	6.57	-43.1	-44.2	19.3	0.00e+00	0	42	0	163577856	57	4155
2026-01-28 09:43:39.64	105.21	6.64	-43.1	-44.2	19.3	0.00e+00	0	42	0	169869312	57	4173
2026-01-28 09:43:40.65	105.15	6.72	-42.9	-44.0	19.4	0.00e+00	0	42	0	175112192	57	4073
2026-01-28 09:43:41.66	105.10	6.79	-43.1	-44.2	19.3	0.00e+00	0	42	0	180355072	57	4172
2026-01-28 09:43:42.66	105.04	6.86	-43.1	-44.2	19.3	0.00e+00	0	42	0	186646528	57	4159
2026-01-28 09:43:43.67	104.98	6.93	-42.9	-44.0	19.4	0.00e+00	0	42	0	191889408	57	4083
2026-01-28 09:43:44.68	104.93	7.01	-43.1	-44.2	19.3	0.00e+00	0	42	0	198180864	57	4184
2026-01-28 09:43:45.69	104.87	7.08	-43.2	-44.3	19.2	0.00e+00	0	42	0	203423744	57	4208
2026-01-28 09:43:46.70	104.81	7.15	-43.3	-44.4	19.1	0.00e+00	0	42	0	208666624	57	4259
2026-01-28 09:43:47.71	104.75	7.23	-43.0	-44.1	19.4	0.00e+00	0	42	0	214958080	57	4131
2026-01-28 09:43:48.71	104.70	7.30	-42.9	-44.0	19.5	0.00e+00	0	42	0	220200960	57	4059
2026-01-28 09:43:49.72	104.64	7.37	-43.1	-44.2	19.3	0.00e+00	0	42	0	225443840	57	4151
2026-01-28 09:43:50.73	104.58	7.45	-43.1	-44.2	19.2	0.00e+00	0	42	0	231735296	57	4178
2026-01-28 09:43:51.74	104.52	7.52	-43.0	-44.1	19.4	0.00e+00	0	42	0	238026752	57	4143
2026-01-28 09:43:52.75	104.46	7.60	-42.9	-44.0	19.5	0.00e+00	0	42	0	243269632	57	4061
2026-01-28 09:43:53.76	104.40	7.67	-42.9	-44.0	19.5	0.00e+00	0	42	0	248512512	57	4082
2026-01-28 09:43:54.77	104.34	7.75	-43.0	-44.1	19.4	0.00e+00	0	43	0	254803968	57	4104
2026-01-28 09:43:55.77	104.28	7.82	-43.1	-44.2	19.3	0.00e+00	0	43	0	260046848	57	4156
2026-01-28 09:43:56.77	104.22	7.90	-42.8	-43.8	19.7	0.00e+00	0	42	0	265289728	57	3993
2026-01-28 09:43:57.78	104.16	7.97	-42.9	-44.0	19.5	0.00e+00	0	42	0	271581184	57	4087
2026-01-28 09:43:58.79	104.09	8.05	-42.9	-44.0	19.5	0.00e+00	0	43	0	276824064	57	4076
2026-01-28 09:43:59.80	104.03	8.12	-42.8	-43.9	19.6	0.00e+00	0	43	0	283115520	57	4027
2026-01-28 09:44:00.81	103.97	8.20	-42.8	-43.9	19.6	0.00e+00	0	43	0	288358400	57	4024
2026-01-28 09:44:01.81	103.91	8.27	-42.7	-43.8	19.8	0.00e+00	0	42	0	293601280	57	3973
2026-01-28 09:44:02.82	103.84	8.35	-42.8	-43.8	19.7	0.00e+00	0	43	0	299892736	57	4002
2026-01-28 09:44:03.82	103.78	8.43	-42.6	-43.7	19.9	0.00e+00	0	42	0	305135616	57	3927
2026-01-28 09:44:04.83	103.72	8.50	-42.7	-43.8	19.8	0.00e+00	0	42	0	310378496	57	3980
2026-01-28 09:44:05.84	103.65	8.58	-42.7	-43.7	19.8	0.00e+00	0	43	0	316669952	57	3950
2026-01-28 09:44:06.85	103.59	8.66	-42.5	-43.5	20.0	0.00e+00	0	43	0	322961408	57	3849
2026-01-28 09:44:07.86	103.52	8.73	-42.6	-43.6	19.9	0.00e+00	0	43	0	328204288	57	3890
2026-01-28 09:44:08.86	103.46	8.81	-42.6	-43.7	19.9	0.00e+00	0	43	0	333447168	57	3923
2026-01-28 09:44:09.87	103.39	8.89	-42.4	-43.4	20.1	0.00e+00	0	43	0	339738624	56	4015
2026-01-28 09:44:10.87	103.33	8.97	-42.4	-43.4	20.2	0.00e+00	0	42	0	344981504	56	4017
2026-01-28 09:44:11.88	103.26	9.04	-42.4	-43.4	20.1	0.00e+00	0	43	0	350224384	56	4044
2026-01-28 09:44:12.88	103.20	9.12	-42.4	-43.4	20.2	0.00e+00	0	43	0	356515840	56	4015
2026-01-28 09:44:13.88	103.13	9.20	-42.3	-43.3	20.2	0.00e+00	0	43	0	361758720	56	4000
2026-01-28 09:44:14.89	103.06	9.28	-42.2	-43.2	20.4	0.00e+00	0	42	0	368050176	56	3919
2026-01-28 09:44:15.89	102.99	9.36	-42.2	-43.2	20.4	0.00e+00	0	42	0	373293056	56	3920
2026-01-28 09:44:16.90	102.93	9.44	-42.3	-43.3	20.3	0.00e+00	0	43	0	378535936	56	3992
2026-01-28 09:44:17.91	102.86	9.52	-42.0	-43.0	20.6	0.00e+00	0	43	0	384827392	56	3845
2026-01-28 09:44:18.92	102.79	9.60	-42.1	-43.1	20.5	0.00e+00	0	43	0	390070272	56	3885
2026-01-28 09:44:19.92	102.72	9.67	-42.2	-43.2	20.4	0.00e+00	0	43	0	395313152	56	3937
2026-01-28 09:44:20.93	102.65	9.75	-42.2	-43.2	20.4	0.00e+00	0	42	0	401604608	56	3944
2026-01-28 09:44:21.94	102.58	9.83	-42.2	-43.1	20.5	0.00e+00	0	43	0	407896064	56	3905
2026-01-28 09:44:22.95	102.51	9.92	-42.2	-43.2	20.4	0.00e+00	0	43	0	413138944	56	3937
2026-01-28 09:44:23.96	102.44	10.00	-42.1	-43.1	20.5	0.00e+00	0	43	0	418381824	56	3897
2026-01-28 09:44:24.97	102.37	10.08	-42.1	-43.0	20.5	0.00e+00	0	43	0	424673280	56	3865
2026-01-28 09:44:25.98	102.29	10.16	-42.3	-43.2	20.4	0.00e+00	0	43	0	429916160	56	3950
2026-01-28 09:44:26.98	102.22	10.24	-42.1	-43.0	20.6	0.00e+00	0	42	0	435159040	56	3866
2026-01-28 09:44:27.98	102.15	10.32	-42.1	-43.1	20.5	0.00e+00	0	43	0	441450496	56	3886
2026-01-28 09:44:28.99	102.08	10.40	-42.1	-43.1	20.5	0.00e+00	0	43	0	446693376	56	3875
2026-01-28 09:44:30.00	102.00	10.48	-42.1	-43.1	20.6	0.00e+00	0	43	0	452984832	56	3871
2026-01-28 09:44:31.00	101.93	10.57	-42.1	-43.0	20.6	0.00e+00	0	43	0	458227712	56	3866
2026-01-28 09:44:32.01	101.86	10.65	-42.2	-43.2	20.5	0.00e+00	0	42	0	463470592	56	3926
2026-01-28 09:44:33.02	101.78	10.73	-41.9	-42.8	20.7	0.00e+00	0	43	0	469762048	55	3999
2026-01-28 09:44:34.03	101.71	10.81	-41.8	-42.7	20.8	0.00e+00	0	43	0	475004928	55	3944
2026-01-28 09:44:35.03	101.63	10.90	-41.8	-42.7	20.8	0.00e+00	0	43	0	480247808	55	3957
2026-01-28 09:44:36.04	101.56	10.98	-41.8	-42.8	20.8	0.00e+00	0	43	0	486539264	55	3971
2026-01-28 09:44:37.05	101.48	11.06	-41.7	-42.7	20.9	0.00e+00	0	43	0	492830720	55	3930
2026-01-28 09:44:38.06	101.40	11.15	-41.7	-42.6	20.9	0.00e+00	0	43	0	498073600	55	3910
2026-01-28 09:44:39.07	101.32	11.23	-41.7	-42.7	20.9	0.00e+00	0	43	0	503316480	55	3917
2026-01-28 09:44:40.08	101.25	11.32	-41.7	-42.7	20.9	0.00e+00	0	43	0	509607936	55	3921
2026-01-28 09:44:41.09	101.17	11.40	-41.8	-42.7	20.8	0.00e+00	0	43	0	514850816	55	3948
2026-01-28 09:44:42.10	101.09	11.49	-41.8	-42.8	20.8	0.00e+00	0	43	0	520093696	55	3974
2026-01-28 09:44:43.10	101.01	11.57	-41.7	-42.7	20.9	0.00e+00	0	43	0	526385152	55	3914
2026-01-28 09:44:44.11	100.93	11.66	-41.8	-42.8	20.8	0.00e+00	0	43	0	531628032	55	3983
2026-01-28 09:44:45.12	100.85	11.74	-41.8	-42.8	20.9	0.00e+00	0	43	0	537919488	55	3969
2026-01-28 09:44:46.13	100.77	11.83	-41.9	-42.9	20.7	0.00e+00	0	43	0	543162368	55	4020
2026-01-28 09:44:47.14	100.69	11.91	-41.8	-42.8	20.8	0.00e+00	0	43	0	549453824	55	3963
2026-01-28 09:44:48.15	100.61	12.00	-41.8	-42.8	20.8	0.00e+00	0	43	0	554696704	55	3970
2026-01-28 09:44:49.16	100.52	12.09	-41.8	-42.7	20.9	0.00e+00	0	42	0	560988160	55	3945
2026-01-28 09:44:50.16	100.44	12.17	-41.7	-42.7	20.9	0.00e+00	0	43	0	566231040	55	3928
2026-01-28 09:44:51.17	100.36	12.26	-41.6	-42.5	21.0	0.00e+00	0	43	0	571473920	55	3859
2026-01-28 09:44:52.18	100.27	12.35	-41.5	-42.5	21.1	0.00e+00	0	43	0	577765376	55	3836
2026-01-28 09:44:53.19	100.19	12.43	-41.6	-42.6	21.0	0.00e+00	0	43	0	583008256	55	3873
2026-01-28 09:44:54.20	100.10	12.52	-41.4	-42.4	21.2	0.00e+00	0	43	0	588251136	54	4015
2026-01-28 09:44:55.21	100.02	12.61	-41.4	-42.4	21.2	0.00e+00	0	43	0	594542592	54	4016
2026-01-28 09:44:56.22	99.93	12.70	-41.4	-42.3	21.3	0.00e+00	0	43	0	599785472	54	3999
2026-01-28 09:44:57.22	99.85	12.79	-41.4	-42.4	21.2	0.00e+00	0	43	0	605028352	54	4015
2026-01-28 09:44:58.23	99.76	12.87	-41.4	-42.3	21.3	0.00e+00	0	43	0	611319808	54	3979
2026-01-28 09:44:59.24	99.67	12.96	-41.4	-42.3	21.3	0.00e+00	0	43	0	617611264	54	3976
2026-01-28 09:45:00.24	99.58	13.05	-41.3	-42.2	21.4	0.00e+00	0	43	0	622854144	54	3943
2026-01-28 09:45:01.25	99.50	13.14	-41.2	-42.1	21.5	0.00e+00	0	43	0	628097024	54	3898
2026-01-28 09:45:02.26	99.41	13.23	-41.3	-42.2	21.5	0.00e+00	0	43	0	634388480	54	3926
2026-01-28 09:45:03.27	99.32	13.32	-41.2	-42.1	21.5	0.00e+00	0	43	0	639631360	54	3892
2026-01-28 09:45:04.27	99.23	13.41	-41.3	-42.3	21.4	0.00e+00	0	43	0	645922816	54	3966
2026-01-28 09:45:05.28	99.14	13.50	-41.2	-42.1	21.5	0.00e+00	0	43	0	651165696	54	3908
2026-01-28 09:45:06.29	99.04	13.59	-41.2	-42.1	21.5	0.00e+00	0	43	0	656408576	54	3910
2026-01-28 09:45:07.30	98.95	13.68	-41.3	-42.2	21.4	0.00e+00	0	42	0	662700032	54	3944
2026-01-28 09:45:08.31	98.86	13.78	-41.3	-42.2	21.5	0.00e+00	0	43	0	667942912	54	3922
2026-01-28 09:45:09.32	98.77	13.87	-41.3	-42.2	21.4	0.00e+00	0	43	0	673185792	54	3949
2026-01-28 09:45:10.33	98.67	13.96	-41.1	-42.0	21.6	0.00e+00	0	43	0	679477248	54	3866
2026-01-28 09:45:11.34	98.58	14.05	-41.2	-42.1	21.6	0.00e+00	0	43	0	685768704	54	3870
2026-01-28 09:45:12.35	98.48	14.14	-41.1	-42.0	21.6	0.00e+00	0	43	0	691011584	54	3845
2026-01-28 09:45:13.36	98.39	14.24	-41.2	-42.1	21.6	0.00e+00	0	43	0	696254464	54	3874
2026-01-28 09:45:14.36	98.29	14.33	-41.0	-41.9	21.8	0.00e+00	0	43	0	702545920	54	3782
2026-01-28 09:45:15.37	98.19	14.42	-40.9	-41.8	21.8	0.00e+00	0	43	0	707788800	53	3975
2026-01-28 09:45:16.38	98.10	14.52	-40.8	-41.7	21.9	0.00e+00	0	43	0	713031680	53	3935
2026-01-28 09:45:17.39	98.00	14.61	-40.9	-41.7	21.9	0.00e+00	0	43	0	719323136	53	3957
2026-01-28 09:45:18.40	97.90	14.70	-40.9	-41.7	21.9	0.00e+00	0	43	0	724566016	53	3957
2026-01-28 09:45:19.41	97.80	14.80	-40.9	-41.8	21.9	0.00e+00	0	43	0	730857472	53	3962
2026-01-28 09:45:20.42	97.70	14.89	-40.8	-41.7	21.9	0.00e+00	0	43	0	736100352	53	3930
2026-01-28 09:45:21.42	97.60	14.99	-41.0	-41.8	21.8	0.00e+00	0	43	0	741343232	53	4000
2026-01-28 09:45:22.42	97.50	15.08	-40.9	-41.7	21.9	0.00e+00	0	43	0	747634688	53	3953
2026-01-28 09:45:23.43	97.40	15.18	-41.0	-41.9	21.7	0.00e+00	0	43	0	752877568	53	4036
2026-01-28 09:45:24.44	97.29	15.27	-41.0	-41.9	21.7	0.00e+00	0	43	0	759169024	53	4031
2026-01-28 09:45:25.45	97.19	15.37	-41.0	-41.8	21.8	0.00e+00	0	43	0	764411904	53	4004
2026-01-28 09:45:26.45	97.09	15.46	-40.9	-41.8	21.9	0.00e+00	0	43	0	770703360	53	3962
2026-01-28 09:45:27.46	96.98	15.56	-41.0	-41.9	21.8	0.00e+00	0	43	0	775946240	53	4024
2026-01-28 09:45:28.47	96.88	15.66	-40.9	-41.8	21.9	0.00e+00	0	43	0	781189120	53	3972
2026-01-28 09:45:29.47	96.77	15.75	-40.9	-41.8	21.8	0.00e+00	0	43	0	787480576	53	3996
2026-01-28 09:45:30.47	96.67	15.85	-40.8	-41.7	21.9	0.00e+00	0	43	0	792723456	53	3933
2026-01-28 09:45:31.48	96.56	15.95	-40.8	-41.7	22.0	0.00e+00	0	43	0	797966336	53	3940
2026-01-28 09:45:32.49	96.45	16.05	-40.7	-41.6	22.0	0.00e+00	0	43	0	804257792	53	3886
2026-01-28 09:45:33.50	96.34	16.15	-40.7	-41.6	22.1	0.00e+00	0	43	0	809500672	53	3875
2026-01-28 09:45:34.51	96.23	16.24	-40.5	-41.4	22.2	0.00e+00	0	43	0	815792128	53	3800
2026-01-28 09:45:35.52	96.12	16.34	-40.6	-41.4	22.2	0.00e+00	0	43	0	821035008	53	3822
2026-01-28 09:45:36.53	96.01	16.44	-40.6	-41.4	22.4	0.00e+00	0	43	0	826277888	53	3809
2026-01-28 09:45:37.54	95.90	16.54	-40.5	-41.3	22.6	0.00e+00	0	43	0	832569344	53	3749
2026-01-28 09:45:38.55	95.78	16.64	-40.3	-41.1	22.8	0.00e+00	0	43	0	838860800	52	3881
2026-01-28 09:45:39.55	95.67	16.74	-40.4	-41.2	22.7	0.00e+00	0	43	0	844103680	52	3923
2026-01-28 09:45:40.56	95.56	16.84	-40.3	-41.1	22.8	0.00e+00	0	43	0	849346560	52	3903
2026-01-28 09:45:41.57	95.44	16.94	-40.3	-41.1	22.8	0.00e+00	0	43	0	855638016	52	3880
2026-01-28 09:45:42.57	95.33	17.04	-40.3	-41.1	22.8	0.00e+00	0	43	0	860880896	52	3894
2026-01-28 09:45:43.58	95.21	17.14	-40.4	-41.3	22.6	0.00e+00	0	43	0	866123776	52	3963
2026-01-28 09:45:44.59	95.09	17.24	-40.4	-41.2	22.7	0.00e+00	0	43	0	872415232	52	3917
2026-01-28 09:45:45.60	94.97	17.35	-40.4	-41.2	22.7	0.00e+00	0	43	0	877658112	52	3934
2026-01-28 09:45:46.61	94.85	17.45	-40.3	-41.0	22.8	0.00e+00	0	43	0	882900992	52	3865
2026-01-28 09:45:47.62	94.73	17.55	-40.2	-41.0	22.9	0.00e+00	0	43	0	889192448	52	3854
2026-01-28 09:45:48.63	94.61	17.65	-40.2	-41.0	22.9	0.00e+00	0	43	0	894435328	52	3866
2026-01-28 09:45:49.63	94.49	17.76	-40.1	-40.9	23.0	0.00e+00	0	43	0	900726784	52	3802
2026-01-28 09:45:50.64	94.37	17.86	-40.2	-41.0	22.9	0.00e+00	0	43	0	905969664	52	3833
2026-01-28 09:45:51.65	94.24	17.96	-40.0	-40.8	23.0	0.00e+00	0	43	0	912261120	52	3769
2026-01-28 09:45:52.65	94.12	18.07	-40.0	-40.8	23.1	0.00e+00	0	43	0	917504000	52	3767
2026-01-28 09:45:53.66	94.00	18.17	-40.1	-40.9	23.0	0.00e+00	0	43	0	923795456	52	3781
2026-01-28 09:45:54.67	93.87	18.27	-40.0	-40.8	23.1	0.00e+00	0	43	0	929038336	51	3992
2026-01-28 09:45:55.68	93.74	18.38	-40.0	-40.8	23.1	0.00e+00	0	43	0	934281216	51	3983
2026-01-28 09:45:56.69	93.62	18.48	-40.0	-40.8	23.1	0.00e+00	0	43	0	940572672	51	3984
2026-01-28 09:45:57.70	93.49	18.59	-40.0	-40.7	23.3	0.00e+00	0	43	0	945815552	51	3952
2026-01-28 09:45:58.71	93.36	18.70	-39.9	-40.7	23.3	0.00e+00	0	43	0	951058432	51	3919
2026-01-28 09:45:59.71	93.23	18.80	-40.0	-40.8	23.2	0.00e+00	0	43	0	957349888	51	3965
2026-01-28 09:46:00.72	93.10	18.91	-39.8	-40.6	23.4	0.00e+00	0	43	0	962592768	51	3891
2026-01-28 09:46:01.73	92.96	19.01	-39.9	-40.7	23.3	0.00e+00	0	43	0	967835648	51	3921
2026-01-28 09:46:02.74	92.83	19.12	-39.9	-40.6	23.3	0.00e+00	0	43	0	974127104	51	3912
2026-01-28 09:46:03.75	92.69	19.23	-39.9	-40.7	23.3	0.00e+00	0	43	0	980418560	51	3929
2026-01-28 09:46:04.76	92.56	19.34	-39.9	-40.6	23.4	0.00e+00	0	43	0	985661440	51	3902
2026-01-28 09:46:05.77	92.42	19.44	-39.9	-40.6	23.3	0.00e+00	0	43	0	990904320	51	3901
2026-01-28 09:46:06.78	92.29	19.55	-39.8	-40.5	23.4	0.00e+00	0	43	0	997195776	51	3863
2026-01-28 09:46:07.79	92.15	19.66	-39.8	-40.5	23.4	0.00e+00	0	43	0	1002438656	51	3861
2026-01-28 09:46:08.80	92.01	19.77	-39.8	-40.6	23.4	0.00e+00	0	43	0	1008730112	51	3886
2026-01-28 09:46:09.81	91.87	19.88	-39.8	-40.5	23.4	0.00e+00	0	43	0	1013972992	51	3867
2026-01-28 09:46:10.82	91.73	19.99	-39.8	-40.6	23.4	0.00e+00	0	43	0	1019215872	51	3881
2026-01-28 09:46:11.83	91.58	20.10	-39.8	-40.6	23.4	0.00e+00	0	43	0	1025507328	51	3902
2026-01-28 09:46:12.83	91.44	20.21	-39.7	-40.5	23.5	0.00e+00	0	43	0	1030750208	51	3858
2026-01-28 09:46:13.84	91.30	20.32	-39.7	-40.5	23.5	0.00e+00	0	43	0	1037041664	51	3846
2026-01-28 09:46:14.85	91.15	20.43	-39.8	-40.6	23.4	0.00e+00	0	43	0	1042284544	51	3871
2026-01-28 09:46:15.86	91.00	20.54	-39.7	-40.5	23.5	0.00e+00	0	43	0	1048576000	51	3850
2026-01-28 09:46:16.86	90.86	20.65	-39.8	-40.6	23.4	0.00e+00	0	43	0	1053818880	51	3874
2026-01-28 09:46:17.87	90.71	20.76	-39.8	-40.6	23.5	0.00e+00	0	43	0	1059061760	51	3870
2026-01-28 09:46:18.87	90.56	20.87	-39.8	-40.6	23.4	0.00e+00	0	43	0	1065353216	51	3887
2026-01-28 09:46:19.88	90.41	20.98	-39.6	-40.4	23.6	0.00e+00	0	43	0	1070596096	51	3790
2026-01-28 09:46:20.89	90.26	21.09	-39.6	-40.4	23.6	0.00e+00	0	43	0	1075838976	51	3782
2026-01-28 09:46:21.90	90.10	21.20	-39.4	-40.2	23.8	0.00e+00	0	43	0	1082130432	50	3916
2026-01-28 09:46:22.91	89.95	21.32	-39.3	-40.0	23.9	0.00e+00	0	43	0	1087373312	50	3852
2026-01-28 09:46:23.92	89.79	21.43	-39.3	-40.0	23.9	0.00e+00	0	43	0	1093664768	50	3861
2026-01-28 09:46:24.93	89.64	21.54	-39.3	-40.0	24.0	0.00e+00	0	43	0	1098907648	50	3847
2026-01-28 09:46:25.93	89.48	21.66	-39.3	-40.1	23.9	0.00e+00	0	43	0	1104150528	50	3872
2026-01-28 09:46:26.94	89.32	21.77	-39.3	-40.0	24.0	0.00e+00	0	43	0	1110441984	50	3848
2026-01-28 09:46:27.95	89.16	21.88	-39.2	-39.9	24.0	0.00e+00	0	43	0	1116733440	50	3816
2026-01-28 09:46:28.96	89.00	22.00	-39.2	-39.9	24.0	0.00e+00	0	43	0	1121976320	50	3822
2026-01-28 09:46:29.96	88.84	22.11	-39.2	-39.9	24.1	0.00e+00	0	43	0	1127219200	50	3806
2026-01-28 09:46:30.96	88.68	22.23	-39.0	-39.8	24.2	0.00e+00	0	43	0	1133510656	50	3751
2026-01-28 09:46:31.97	88.51	22.34	-39.1	-39.8	24.2	0.00e+00	0	43	0	1138753536	50	3761
2026-01-28 09:46:32.97	88.35	22.45	-39.0	-39.8	24.2	0.00e+00	0	43	0	1143996416	50	3748
2026-01-28 09:46:33.98	88.18	22.57	-38.9	-39.6	24.3	0.00e+00	0	43	0	1150287872	49	3891
2026-01-28 09:46:34.99	88.01	22.69	-39.0	-39.7	24.2	0.00e+00	0	43	0	1155530752	49	3935
2026-01-28 09:46:36.00	87.84	22.80	-39.0	-39.8	24.2	0.00e+00	0	43	0	1160773632	49	3960
2026-01-28 09:46:37.01	87.67	22.92	-39.1	-39.9	24.1	0.00e+00	0	43	0	1167065088	49	4005
2026-01-28 09:46:38.01	87.50	23.03	-38.9	-39.7	24.3	0.00e+00	0	43	0	1172307968	49	3918
2026-01-28 09:46:39.02	87.32	23.15	-39.0	-39.7	24.2	0.00e+00	0	43	0	1178599424	49	3957
2026-01-28 09:46:40.03	87.15	23.27	-39.0	-39.8	24.2	0.00e+00	0	43	0	1183842304	49	3978
2026-01-28 09:46:41.03	86.97	23.38	-39.1	-39.9	24.1	0.00e+00	0	43	0	1189085184	49	4017
2026-01-28 09:46:42.04	86.79	23.50	-39.1	-39.8	24.2	0.00e+00	0	43	0	1195376640	49	3996
2026-01-28 09:46:43.05	86.61	23.62	-39.1	-39.8	24.1	0.00e+00	0	43	0	1201668096	49	4000
2026-01-28 09:46:44.06	86.43	23.74	-38.8	-39.5	24.4	0.00e+00	0	43	0	1206910976	49	3847
2026-01-28 09:46:45.07	86.25	23.86	-38.9	-39.6	24.4	0.00e+00	0	43	0	1212153856	49	3885
2026-01-28 09:46:46.08	86.07	23.97	-38.8	-39.5	24.5	0.00e+00	0	43	0	1218445312	49	3849
2026-01-28 09:46:47.09	85.88	24.09	-38.7	-39.4	24.6	0.00e+00	0	43	0	1223688192	49	3800
2026-01-28 09:46:48.10	85.69	24.21	-38.6	-39.3	24.6	0.00e+00	0	43	0	1228931072	49	3763
2026-01-28 09:46:49.11	85.51	24.33	-38.6	-39.4	24.6	0.00e+00	0	43	0	1235222528	49	3784
2026-01-28 09:46:50.12	85.32	24.45	-38.8	-39.5	24.5	0.00e+00	0	43	0	1240465408	49	3844
2026-01-28 09:46:51.12	85.13	24.57	-38.8	-39.6	24.4	0.00e+00	0	43	0	1245708288	49	3873
2026-01-28 09:46:52.13	84.94	24.69	-39.0	-39.7	24.3	0.00e+00	0	43	0	1251999744	49	3938
2026-01-28 09:46:53.14	84.74	24.81	-39.1	-39.8	24.2	0.00e+00	0	43	0	1258291200	49	3985
2026-01-28 09:46:54.15	84.55	24.93	-38.9	-39.7	24.3	0.00e+00	0	43	0	1263534080	49	3915
2026-01-28 09:46:55.15	84.35	25.05	-38.8	-39.6	24.4	0.00e+00	0	43	0	1268776960	49	3873
2026-01-28 09:46:56.15	84.16	25.17	-38.9	-39.7	24.3	0.00e+00	0	43	0	1275068416	49	3923
2026-01-28 09:46:57.16	83.96	25.29	-38.7	-39.4	24.6	0.00e+00	0	43	0	1280311296	49	3814
2026-01-28 09:46:58.17	83.75	25.41	-38.7	-39.4	24.6	0.00e+00	0	43	0	1286602752	49	3812
2026-01-28 09:46:59.18	83.55	25.53	-38.6	-39.4	24.6	0.00e+00	0	43	0	1291845632	49	3784
2026-01-28 09:47:00.18	83.35	25.65	-38.6	-39.4	24.6	0.00e+00	0	43	0	1297088512	49	3783
2026-01-28 09:47:01.19	83.14	25.77	-38.3	-39.0	24.9	0.00e+00	0	43	0	1303379968	48	3866
2026-01-28 09:47:02.20	82.93	25.89	-38.3	-39.0	24.9	0.00e+00	0	43	0	1308622848	48	3855
2026-01-28 09:47:03.21	82.73	26.01	-38.5	-39.2	24.8	0.00e+00	0	43	0	1313865728	48	3933
2026-01-28 09:47:04.22	82.51	26.13	-38.5	-39.2	24.7	0.00e+00	0	43	0	1320157184	48	3943
2026-01-28 09:47:05.23	82.30	26.26	-38.6	-39.3	24.6	0.00e+00	0	43	0	1325400064	48	3996
2026-01-28 09:47:06.23	82.09	26.38	-38.5	-39.3	24.7	0.00e+00	0	43	0	1331691520	48	3959
2026-01-28 09:47:07.24	81.87	26.50	-38.3	-39.0	24.9	0.00e+00	0	43	0	1336934400	48	3842
2026-01-28 09:47:08.25	81.66	26.62	-38.4	-39.2	24.8	0.00e+00	0	43	0	1343225856	48	3915
2026-01-28 09:47:09.25	81.44	26.74	-38.4	-39.2	24.8	0.00e+00	0	43	0	1348468736	48	3920
2026-01-28 09:47:10.26	81.22	26.86	-38.4	-39.2	24.8	0.00e+00	0	43	0	1353711616	48	3914
2026-01-28 09:47:11.27	80.99	26.99	-38.5	-39.2	24.8	0.00e+00	0	43	0	1360003072	48	3925
2026-01-28 09:47:12.28	80.77	27.11	-38.5	-39.3	24.7	0.00e+00	0	43	0	1365245952	48	3962
2026-01-28 09:47:13.29	80.54	27.23	-38.5	-39.2	24.8	0.00e+00	0	43	0	1371537408	48	3918
2026-01-28 09:47:14.30	80.32	27.35	-38.4	-39.1	24.9	0.00e+00	0	43	0	1376780288	48	3873
2026-01-28 09:47:15.31	80.09	27.48	-38.4	-39.1	24.8	0.00e+00	0	43	0	1382023168	48	3906
2026-01-28 09:47:16.32	79.85	27.60	-38.3	-39.0	24.9	0.00e+00	0	43	0	1388314624	48	3856
2026-01-28 09:47:17.32	79.62	27.72	-38.4	-39.1	24.9	0.00e+00	0	43	0	1393557504	48	3874
2026-01-28 09:47:18.33	79.39	27.84	-38.3	-39.0	25.0	0.00e+00	0	43	0	1398800384	48	3843
2026-01-28 09:47:19.34	79.15	27.96	-38.3	-39.0	25.0	0.00e+00	0	43	0	1405091840	48	3849
2026-01-28 09:47:20.35	78.91	28.09	-38.3	-39.0	24.9	0.00e+00	0	43	0	1411383296	48	3852
2026-01-28 09:47:21.35	78.67	28.21	-38.5	-39.2	24.8	0.00e+00	0	43	0	1416626176	48	3943
2026-01-28 09:47:22.36	78.43	28.33	-38.4	-39.2	24.8	0.00e+00	0	43	0	1421869056	48	3920
2026-01-28 09:47:23.37	78.19	28.45	-38.4	-39.1	24.9	0.00e+00	0	43	0	1428160512	48	3886
2026-01-28 09:47:24.38	77.94	28.57	-38.2	-38.9	25.1	0.00e+00	0	43	0	1433403392	48	3801
2026-01-28 09:47:25.39	77.69	28.70	-38.2	-38.9	25.0	0.00e+00	0	43	0	1439694848	48	3818
2026-01-28 09:47:26.39	77.45	28.82	-38.2	-38.9	25.1	0.00e+00	0	43	0	1444937728	48	3810
2026-01-28 09:47:27.40	77.19	28.94	-38.3	-39.0	25.0	0.00e+00	0	43	0	1450180608	48	3839
2026-01-28 09:47:28.41	76.94	29.06	-38.4	-39.1	24.9	0.00e+00	0	43	0	1456472064	48	3909
2026-01-28 09:47:29.41	76.69	29.18	-38.4	-39.1	24.9	0.00e+00	0	43	0	1461714944	48	3880
2026-01-28 09:47:30.42	76.43	29.30	-38.3	-39.0	25.0	0.00e+00	0	43	0	1466957824	48	3836
2026-01-28 09:47:31.43	76.17	29.43	-38.3	-39.0	25.0	0.00e+00	0	43	0	1473249280	48	3830
2026-01-28 09:47:32.44	75.91	29.55	-38.4	-39.1	24.9	0.00e+00	0	43	0	1479540736	48	3894
2026-01-28 09:47:33.44	75.65	29.67	-38.3	-39.0	25.0	0.00e+00	0	43	0	1484783616	48	3862
2026-01-28 09:47:34.45	75.38	29.79	-38.3	-39.0	25.0	0.00e+00	0	43	0	1490026496	48	3844
2026-01-28 09:47:35.46	75.11	29.91	-38.2	-38.9	25.1	0.00e+00	0	43	0	1496317952	48	3814
2026-01-28 09:47:36.47	74.84	30.03	-38.2	-38.9	25.1	0.00e+00	0	43	0	1501560832	48	3786
2026-01-28 09:47:37.47	74.57	30.15	-38.1	-38.8	25.1	0.00e+00	0	43	0	1506803712	48	3779
2026-01-28 09:47:38.48	74.30	30.27	-38.2	-38.9	25.1	0.00e+00	0	43	0	1513095168	48	3801
2026-01-28 09:47:39.48	74.03	30.39	-38.3	-39.0	25.0	0.00e+00	0	43	0	1518338048	48	3833
2026-01-28 09:47:40.49	73.75	30.51	-38.2	-38.9	25.1	0.00e+00	0	43	0	1524629504	48	3820
2026-01-28 09:47:41.50	73.47	30.63	-38.0	-38.7	25.3	0.00e+00	0	43	0	1529872384	48	3711
2026-01-28 09:47:42.51	73.19	30.75	-37.7	-38.4	25.1	0.00e+00	0	43	0	1535115264	47	3795
2026-01-28 09:47:43.52	72.90	30.87	-37.6	-38.3	25.2	0.00e+00	0	43	0	1541406720	47	3764
2026-01-28 09:47:44.53	72.62	30.99	-37.7	-38.4	25.1	0.00e+00	0	43	0	1546649600	47	3793
2026-01-28 09:47:45.53	72.33	31.10	-37.8	-38.5	25.0	0.00e+00	0	43	0	1551892480	47	3837
2026-01-28 09:47:46.54	72.04	31.22	-37.7	-38.4	25.1	0.00e+00	0	43	0	1558183936	47	3813
2026-01-28 09:47:47.55	71.75	31.34	-37.7	-38.4	25.1	0.00e+00	0	43	0	1564475392	47	3805
2026-01-28 09:47:48.55	71.46	31.45	-37.7	-38.5	25.0	0.00e+00	0	43	0	1569718272	47	3832
2026-01-28 09:47:49.56	71.16	31.57	-37.7	-38.4	25.1	0.00e+00	0	43	0	1574961152	47	3791
2026-01-28 09:47:50.57	70.86	31.69	-37.7	-38.5	25.1	0.00e+00	0	43	0	1581252608	47	3834
2026-01-28 09:47:51.57	70.56	31.80	-37.5	-38.2	25.3	0.00e+00	0	43	0	1586495488	47	3733
2026-01-28 09:47:52.58	70.26	31.92	-37.5	-38.2	25.3	0.00e+00	0	43	0	1591738368	46	3932
2026-01-28 09:47:53.59	69.95	32.03	-37.7	-38.4	25.1	0.00e+00	0	43	0	1598029824	46	4023
2026-01-28 09:47:54.59	69.65	32.15	-37.6	-38.4	25.1	0.00e+00	0	43	0	1603272704	46	4014
2026-01-28 09:47:55.60	69.34	32.26	-37.4	-38.1	25.3	0.00e+00	0	43	0	1609564160	46	3913
2026-01-28 09:47:56.60	69.03	32.37	-37.4	-38.0	25.4	0.00e+00	0	43	0	1614807040	46	3868
2026-01-28 09:47:57.61	68.71	32.49	-37.2	-37.9	25.5	0.00e+00	0	43	0	1620049920	46	3823
2026-01-28 09:47:58.62	68.40	32.60	-37.3	-38.0	25.4	0.00e+00	0	43	0	1626341376	46	3860
2026-01-28 09:47:59.63	68.08	32.71	-37.4	-38.1	25.3	0.00e+00	0	43	0	1631584256	46	3904
2026-01-28 09:48:00.63	67.76	32.82	-37.4	-38.1	25.3	0.00e+00	0	43	0	1636827136	46	3902
2026-01-28 09:48:01.64	67.44	32.93	-37.4	-38.1	25.3	0.00e+00	0	43	0	1643118592	46	3903
2026-01-28 09:48:02.65	67.11	33.04	-37.4	-38.1	25.4	0.00e+00	0	43	0	1649410048	46	3896
2026-01-28 09:48:03.66	66.78	33.15	-37.3	-38.0	25.5	0.00e+00	0	43	0	1654652928	46	3829
2026-01-28 09:48:04.66	66.46	33.26	-37.3	-38.0	25.4	0.00e+00	0	43	0	1659895808	46	3861
2026-01-28 09:48:05.67	66.13	33.37	-37.4	-38.2	25.3	0.00e+00	0	43	0	1666187264	46	3922
2026-01-28 09:48:06.67	65.79	33.47	-37.5	-38.2	25.3	0.00e+00	0	43	0	1671430144	46	3932
2026-01-28 09:48:07.68	65.46	33.58	-37.5	-38.3	25.2	0.00e+00	0	43	0	1676673024	46	3964
2026-01-28 09:48:08.69	65.12	33.68	-37.6	-38.4	25.1	0.00e+00	0	43	0	1682964480	46	4006
2026-01-28 09:48:09.70	64.78	33.79	-37.6	-38.3	25.2	0.00e+00	0	43	0	1688207360	46	3985
2026-01-28 09:48:10.71	64.44	33.89	-37.6	-38.3	25.2	0.00e+00	0	43	0	1694498816	46	3988
2026-01-28 09:48:11.71	64.09	33.99	-37.7	-38.4	25.1	0.00e+00	0	43	0	1699741696	46	4034
2026-01-28 09:48:12.72	63.75	34.10	-37.5	-38.3	25.2	0.00e+00	0	43	0	1704984576	46	3965
2026-01-28 09:48:13.73	63.40	34.20	-37.5	-38.2	25.3	0.00e+00	0	43	0	1711276032	46	3941
2026-01-28 09:48:14.74	63.04	34.30	-37.5	-38.3	25.3	0.00e+00	0	43	0	1717567488	46	3966
2026-01-28 09:48:15.75	62.69	34.40	-37.6	-38.4	25.2	0.00e+00	0	43	0	1722810368	46	4012
2026-01-28 09:48:16.75	62.34	34.50	-37.6	-38.3	25.2	0.00e+00	0	43	0	1728053248	46	3977
2026-01-28 09:48:17.75	61.98	34.59	-37.6	-38.3	25.3	0.00e+00	0	43	0	1734344704	46	3969
2026-01-28 09:48:18.76	61.62	34.69	-37.5	-38.2	25.4	0.00e+00	0	43	0	1739587584	46	3927
2026-01-28 09:48:19.77	61.26	34.79	-37.5	-38.2	25.3	0.00e+00	0	43	0	1744830464	46	3947
2026-01-28 09:48:20.78	60.90	34.88	-37.5	-38.2	25.3	0.00e+00	0	43	0	1751121920	46	3930
2026-01-28 09:48:21.78	60.53	34.97	-37.5	-38.2	25.3	0.00e+00	0	43	0	1756364800	46	3943
2026-01-28 09:48:22.79	60.16	35.07	-37.4	-38.1	25.4	0.00e+00	0	43	0	1761607680	46	3873
2026-01-28 09:48:23.79	59.80	35.16	-37.5	-38.1	25.4	0.00e+00	0	43	0	1767899136	46	3913
2026-01-28 09:48:24.80	59.42	35.25	-37.4	-38.2	25.4	0.00e+00	0	43	0	1773142016	46	3914
2026-01-28 09:48:25.81	59.05	35.34	-37.7	-38.4	25.2	0.00e+00	0	43	0	1779433472	46	4040
2026-01-28 09:48:26.82	58.67	35.43	-37.6	-38.4	25.2	0.00e+00	0	43	0	1784676352	46	4015
2026-01-28 09:48:27.82	58.30	35.51	-37.7	-38.4	25.1	0.00e+00	0	43	0	1789919232	46	4044
2026-01-28 09:48:28.83	57.91	35.60	-37.7	-38.4	25.2	0.00e+00	0	43	0	1796210688	46	4018
2026-01-28 09:48:29.83	57.53	35.68	-37.7	-38.4	25.2	0.00e+00	0	43	0	1801453568	46	4027
2026-01-28 09:48:30.83	57.15	35.76	-37.8	-38.5	25.1	0.00e+00	0	43	0	1806696448	46	4070
2026-01-28 09:48:31.84	56.77	35.85	-37.7	-38.4	25.1	0.00e+00	0	43	0	1812987904	46	4043
2026-01-28 09:48:32.85	56.38	35.93	-37.7	-38.4	25.2	0.00e+00	0	43	0	1819279360	46	4042
2026-01-28 09:48:33.85	55.99	36.01	-37.6	-38.3	25.2	0.00e+00	0	43	0	1824522240	46	4003
2026-01-28 09:48:34.86	55.60	36.08	-37.4	-38.0	25.5	0.00e+00	0	43	0	1829765120	46	3867
2026-01-28 09:48:35.86	55.21	36.16	-37.3	-37.9	25.6	0.00e+00	0	43	0	1836056576	46	3823
2026-01-28 09:48:36.87	54.81	36.23	-37.4	-38.1	25.5	0.00e+00	0	43	0	1841299456	46	3881
2026-01-28 09:48:37.87	54.41	36.31	-37.3	-38.0	25.6	0.00e+00	0	43	0	1846542336	46	3842
2026-01-28 09:48:38.88	54.01	36.38	-37.3	-38.0	25.5	0.00e+00	0	43	0	1852833792	46	3850
2026-01-28 09:48:39.89	53.61	36.45	-37.5	-38.2	25.4	0.00e+00	0	43	0	1858076672	46	3927
2026-01-28 09:48:40.91	53.20	36.52	-37.4	-38.1	25.4	0.00e+00	0	43	0	1864368128	46	3909
2026-01-28 09:48:41.91	52.80	36.59	-37.4	-38.1	25.5	0.00e+00	0	43	0	1869611008	46	3885
2026-01-28 09:48:42.92	52.40	36.66	-37.5	-38.2	25.4	0.00e+00	0	43	0	1874853888	46	3923
2026-01-28 09:48:43.92	51.99	36.72	-37.4	-38.1	25.5	0.00e+00	0	43	0	1881145344	46	3888
2026-01-28 09:48:44.93	51.58	36.78	-37.4	-38.1	25.5	0.00e+00	0	43	0	1886388224	46	3878
2026-01-28 09:48:45.93	51.17	36.85	-37.4	-38.1	25.5	0.00e+00	0	43	0	1891631104	46	3901
2026-01-28 09:48:46.95	50.75	36.91	-37.3	-38.0	25.6	0.00e+00	0	43	0	1897922560	46	3846
2026-01-28 09:48:47.96	50.34	36.97	-37.3	-38.0	25.5	0.00e+00	0	43	0	1904214016	46	3860
2026-01-28 09:48:48.96	49.93	37.02	-37.3	-38.0	25.5	0.00e+00	0	43	0	1909456896	46	3861
2026-01-28 09:48:49.96	49.51	37.08	-37.3	-38.0	25.5	0.00e+00	0	43	0	1914699776	46	3862
2026-01-28 09:48:50.97	49.09	37.13	-37.5	-38.2	25.4	0.00e+00	0	43	0	1920991232	46	3936
2026-01-28 09:48:51.97	48.68	37.18	-37.4	-38.1	25.4	0.00e+00	0	43	0	1926234112	46	3908
2026-01-28 09:48:52.98	48.26	37.23	-37.3	-38.0	25.5	0.00e+00	0	43	0	1931476992	46	3855
2026-01-28 09:48:53.99	47.83	37.28	-37.3	-38.0	25.5	0.00e+00	0	43	0	1937768448	46	3855
2026-01-28 09:48:54.99	47.41	37.33	-37.3	-38.0	25.6	0.00e+00	0	43	0	1943011328	46	3835
2026-01-28 09:48:55.99	46.99	37.37	-37.3	-37.9	25.6	0.00e+00	0	43	0	1949302784	46	3819
2026-01-28 09:48:57.00	46.56	37.42	-37.3	-38.0	25.5	0.00e+00	0	43	0	1954545664	46	3865
2026-01-28 09:48:58.01	46.13	37.46	-37.5	-38.2	25.4	0.00e+00	0	43	0	1959788544	46	3955
2026-01-28 09:48:59.02	45.71	37.50	-37.6	-38.4	25.3	0.00e+00	0	43	0	1966080000	46	4005
2026-01-28 09:49:00.03	45.27	37.54	-37.7	-38.4	25.2	0.00e+00	0	43	0	1971322880	46	4030
2026-01-28 09:49:01.04	44.84	37.58	-37.7	-38.4	25.2	0.00e+00	0	43	0	1977614336	46	4020
2026-01-28 09:49:02.05	44.41	37.61	-37.6	-38.3	25.3	0.00e+00	0	43	0	1982857216	46	3994
2026-01-28 09:49:03.05	43.98	37.64	-37.8	-38.5	25.2	0.00e+00	0	43	0	1989148672	46	4062
2026-01-28 09:49:04.06	43.55	37.67	-37.7	-38.4	25.2	0.00e+00	0	43	0	1994391552	46	4035
2026-01-28 09:49:05.06	43.12	37.70	-37.7	-38.4	25.2	0.00e+00	0	43	0	1999634432	46	4037
2026-01-28 09:49:06.07	42.68	37.73	-37.8	-38.5	25.1	0.00e+00	0	43	0	2005925888	46	4095
2026-01-28 09:49:07.07	42.25	37.76	-37.7	-38.4	25.2	0.00e+00	0	43	0	2011168768	46	4018
2026-01-28 09:49:08.08	41.81	37.78	-37.7	-38.4	25.2	0.00e+00	0	43	0	2016411648	46	4036
2026-01-28 09:49:09.09	41.38	37.80	-37.7	-38.4	25.3	0.00e+00	0	43	0	2022703104	46	4008
2026-01-28 09:49:10.09	40.94	37.82	-37.4	-38.0	25.5	0.00e+00	0	43	0	2027945984	46	3866
2026-01-28 09:49:11.10	40.50	37.84	-37.3	-38.0	25.6	0.00e+00	0	43	0	2034237440	46	3861
2026-01-28 09:49:12.10	40.07	37.86	-37.4	-38.1	25.5	0.00e+00	0	43	0	2039480320	46	3904
2026-01-28 09:49:13.11	39.63	37.87	-37.5	-38.2	25.4	0.00e+00	0	43	0	2044723200	46	3934
2026-01-28 09:49:14.12	39.19	37.88	-37.5	-38.2	25.4	0.00e+00	0	43	0	2051014656	46	3937
2026-01-28 09:49:15.13	38.75	37.89	-37.4	-38.1	25.5	0.00e+00	0	43	0	2056257536	46	3895
2026-01-28 09:49:16.13	38.31	37.90	-37.7	-38.4	25.2	0.00e+00	0	43	0	2061500416	46	4020
2026-01-28 09:49:17.14	37.87	37.91	-37.5	-38.2	25.4	0.00e+00	0	43	0	2067791872	46	3954
2026-01-28 09:49:18.15	37.43	37.91	-37.5	-38.2	25.4	0.00e+00	0	43	0	2074083328	46	3949
2026-01-28 09:49:19.16	36.99	37.91	-37.6	-38.3	25.3	0.00e+00	0	43	0	2079326208	46	3977
2026-01-28 09:49:20.16	36.56	37.92	-37.5	-38.2	25.4	0.00e+00	0	43	0	2084569088	46	3943
2026-01-28 09:49:21.17	36.12	37.91	-37.5	-38.2	25.4	0.00e+00	0	43	0	2090860544	46	3945
2026-01-28 09:49:22.18	35.67	37.91	-37.5	-38.2	25.5	0.00e+00	0	43	0	2096103424	46	3927
2026-01-28 09:49:23.19	35.23	37.91	-37.4	-38.1	25.5	0.00e+00	0	43	0	2101346304	46	3910
2026-01-28 09:49:24.20	34.79	37.90	-37.4	-38.1	25.5	0.00e+00	0	43	0	2107637760	46	3903
2026-01-28 09:49:25.21	34.35	37.89	-37.4	-38.2	25.5	0.00e+00	0	43	0	2112880640	46	3916
2026-01-28 09:49:26.21	33.92	37.88	-37.4	-38.1	25.5	0.00e+00	0	43	0	2119172096	46	3883
2026-01-28 09:49:27.22	33.48	37.87	-37.4	-38.1	25.5	0.00e+00	0	43	0	2124414976	46	3905
2026-01-28 09:49:28.23	33.04	37.85	-37.4	-38.1	25.5	0.00e+00	0	43	0	2129657856	46	3899
2026-01-28 09:49:29.24	32.60	37.84	-37.4	-38.2	25.4	0.00e+00	0	43	0	2135949312	46	3920
2026-01-28 09:49:30.25	32.16	37.82	-37.4	-38.1	25.5	0.00e+00	0	43	0	2142240768	46	3898
2026-01-28 09:49:31.25	31.73	37.80	-37.4	-38.1	25.5	0.00e+00	0	43	0	2147483648	46	3873
2026-01-28 09:49:32.26	31.29	37.78	-37.4	-38.1	25.5	0.00e+00	0	43	0	2152726528	46	3899
2026-01-28 09:49:33.27	30.85	37.75	-37.2	-37.9	25.7	0.00e+00	0	43	0	2159017984	46	3799
2026-01-28 09:49:34.27	30.42	37.73	-37.3	-38.0	25.6	0.00e+00	0	43	0	2164260864	46	3842
2026-01-28 09:49:35.28	29.99	37.70	-37.4	-38.1	25.5	0.00e+00	0	43	0	2169503744	46	3878
2026-01-28 09:49:36.29	29.55	37.67	-37.3	-38.0	25.6	0.00e+00	0	43	0	2175795200	46	3849
2026-01-28 09:49:37.30	29.12	37.64	-37.4	-38.1	25.5	0.00e+00	0	43	0	2181038080	46	3887
2026-01-28 09:49:38.31	28.69	37.60	-37.4	-38.1	25.5	0.00e+00	0	43	0	2186280960	46	3900
2026-01-28 09:49:39.31	28.26	37.57	-37.4	-38.1	25.5	0.00e+00	0	43	0	2192572416	46	3906
2026-01-28 09:49:40.32	27.83	37.53	-37.4	-38.2	25.4	0.00e+00	0	43	0	2197815296	46	3915
2026-01-28 09:49:41.33	27.40	37.49	-37.3	-38.0	25.6	0.00e+00	0	43	0	2204106752	46	3848
2026-01-28 09:49:42.34	26.97	37.45	-37.2	-37.9	25.7	0.00e+00	0	43	0	2209349632	46	3794
2026-01-28 09:49:43.35	26.54	37.41	-37.3	-38.0	25.6	0.00e+00	0	43	0	2215641088	46	3842
2026-01-28 09:49:44.36	26.12	37.37	-37.2	-37.9	25.7	0.00e+00	0	43	0	2220883968	46	3808
2026-01-28 09:49:45.37	25.69	37.32	-37.1	-37.8	25.7	0.00e+00	0	43	0	2227175424	46	3762
2026-01-28 09:49:46.37	25.27	37.27	-37.2	-37.9	25.7	0.00e+00	0	43	0	2232418304	46	3787
2026-01-28 09:49:47.38	24.85	37.22	-37.2	-37.8	25.7	0.00e+00	0	43	0	2237661184	46	3780
2026-01-28 09:49:48.39	24.43	37.17	-36.9	-37.6	25.9	0.00e+00	0	43	0	2243952640	45	3907
2026-01-28 09:49:49.39	24.01	37.12	-36.9	-37.6	25.9	0.00e+00	0	43	0	2249195520	45	3874
2026-01-28 09:49:50.40	23.59	37.07	-36.8	-37.5	26.0	0.00e+00	0	43	0	2254438400	45	3834
2026-01-28 09:49:51.41	23.17	37.01	-36.9	-37.6	25.9	0.00e+00	0	43	0	2260729856	45	3897
2026-01-28 09:49:52.42	22.76	36.95	-37.0	-37.6	25.9	0.00e+00	0	43	0	2265972736	45	3905
2026-01-28 09:49:53.43	22.34	36.89	-37.0	-37.7	25.9	0.00e+00	0	43	0	2271215616	45	3915
2026-01-28 09:49:54.44	21.93	36.83	-37.1	-37.8	25.7	0.00e+00	0	43	0	2277507072	45	3982
2026-01-28 09:49:55.45	21.52	36.77	-37.2	-37.9	25.7	0.00e+00	0	43	0	2283798528	45	4013
2026-01-28 09:49:56.46	21.11	36.71	-37.3	-38.0	25.6	0.00e+00	0	43	0	2289041408	45	4061
2026-01-28 09:49:57.47	20.70	36.64	-37.3	-38.0	25.6	0.00e+00	0	43	0	2294284288	45	4080
2026-01-28 09:49:58.47	20.30	36.57	-37.2	-37.9	25.6	0.00e+00	0	43	0	2300575744	45	4038
2026-01-28 09:49:59.48	19.90	36.51	-37.3	-38.0	25.6	0.00e+00	0	43	0	2305818624	45	4073
2026-01-28 09:50:00.50	19.49	36.43	-37.2	-37.9	25.7	0.00e+00	0	43	0	2312110080	45	4015
2026-01-28 09:50:01.51	19.09	36.36	-37.2	-37.9	25.7	0.00e+00	0	43	0	2317352960	45	4008
2026-01-28 09:50:02.51	18.69	36.29	-37.1	-37.8	25.7	0.00e+00	0	43	0	2322595840	45	3976
2026-01-28 09:50:03.52	18.29	36.22	-37.2	-37.8	25.7	0.00e+00	0	43	0	2328887296	45	4001
2026-01-28 09:50:04.53	17.90	36.14	-37.1	-37.7	25.8	0.00e+00	0	43	0	2334130176	45	3957
2026-01-28 09:50:05.53	17.51	36.06	-36.9	-37.6	25.9	0.00e+00	0	43	0	2339373056	45	3878
2026-01-28 09:50:06.54	17.12	35.99	-37.0	-37.7	25.8	0.00e+00	0	43	0	2345664512	45	3929
2026-01-28 09:50:07.55	16.73	35.91	-37.0	-37.6	25.8	0.00e+00	0	43	0	2351955968	45	3911
2026-01-28 09:50:08.56	16.34	35.83	-37.0	-37.6	25.9	0.00e+00	0	43	0	2357198848	45	3910
2026-01-28 09:50:09.57	15.95	35.74	-37.2	-37.9	25.7	0.00e+00	0	43	0	2362441728	45	4008
2026-01-28 09:50:10.57	15.57	35.66	-37.3	-38.0	25.6	0.00e+00	0	43	0	2368733184	45	4058
2026-01-28 09:50:11.58	15.19	35.58	-37.3	-38.1	25.5	0.00e+00	0	43	0	2373976064	45	4103
2026-01-28 09:50:12.59	14.81	35.49	-37.3	-38.0	25.6	0.00e+00	0	43	0	2379218944	45	4080
2026-01-28 09:50:13.60	14.43	35.40	-37.2	-37.9	25.6	0.00e+00	0	43	0	2385510400	45	4030
2026-01-28 09:50:14.61	14.05	35.31	-37.1	-37.8	25.7	0.00e+00	0	43	0	2390753280	45	3985
2026-01-28 09:50:15.62	13.68	35.22	-37.0	-37.7	25.8	0.00e+00	0	43	0	2397044736	45	3952
2026-01-28 09:50:16.62	13.31	35.13	-37.1	-37.8	25.8	0.00e+00	0	43	0	2402287616	45	3979
2026-01-28 09:50:17.63	12.94	35.04	-37.1	-37.8	25.7	0.00e+00	0	43	0	2407530496	45	3988
2026-01-28 09:50:18.64	12.57	34.95	-37.2	-37.9	25.7	0.00e+00	0	43	0	2413821952	45	4021
2026-01-28 09:50:19.65	12.21	34.86	-37.0	-37.7	25.9	0.00e+00	0	43	0	2420113408	45	3917
2026-01-28 09:50:20.66	11.84	34.76	-36.9	-37.6	25.9	0.00e+00	0	43	0	2425356288	45	3883
2026-01-28 09:50:21.66	11.49	34.67	-36.9	-37.6	25.9	0.00e+00	0	43	0	2430599168	45	3902
2026-01-28 09:50:22.67	11.13	34.57	-37.0	-37.7	25.8	0.00e+00	0	43	0	2436890624	45	3930
2026-01-28 09:50:23.68	10.77	34.47	-37.0	-37.7	25.8	0.00e+00	0	43	0	2442133504	45	3925
2026-01-28 09:50:24.69	10.42	34.37	-37.0	-37.7	25.8	0.00e+00	0	43	0	2447376384	45	3941
2026-01-28 09:50:25.69	10.07	34.27	-36.9	-37.6	25.9	0.00e+00	0	43	0	2453667840	45	3904
2026-01-28 09:50:26.70	9.72	34.17	-37.0	-37.7	25.8	0.00e+00	0	43	0	2458910720	45	3923
2026-01-28 09:50:27.71	9.37	34.07	-37.0	-37.7	25.8	0.00e+00	0	43	0	2464153600	45	3946
2026-01-28 09:50:28.71	9.02	33.97	-37.0	-37.7	25.8	0.00e+00	0	43	0	2470445056	45	3941
2026-01-28 09:50:29.72	8.68	33.87	-37.1	-37.8	25.8	0.00e+00	0	43	0	2475687936	45	3964
2026-01-28 09:50:30.73	8.34	33.76	-37.0	-37.7	25.8	0.00e+00	0	43	0	2481979392	45	3942
2026-01-28 09:50:31.73	8.00	33.66	-37.1	-37.8	25.7	0.00e+00	0	43	0	2487222272	45	3993
2026-01-28 09:50:32.74	7.66	33.55	-37.1	-37.8	25.7	0.00e+00	0	43	0	2493513728	45	3995
2026-01-28 09:50:33.75	7.33	33.45	-37.0	-37.7	25.8	0.00e+00	0	43	0	2498756608	45	3930
2026-01-28 09:50:34.76	7.00	33.34	-37.0	-37.7	25.8	0.00e+00	0	43	0	2505048064	45	3948
2026-01-28 09:50:35.77	6.67	33.23	-37.1	-37.8	25.7	0.00e+00	0	43	0	2510290944	45	3973
2026-01-28 09:50:36.77	6.34	33.12	-37.2	-37.9	25.7	0.00e+00	0	43	0	2515533824	45	4012
2026-01-28 09:50:37.78	6.01	33.01	-37.2	-37.9	25.6	0.00e+00	0	43	0	2521825280	45	4032
2026-01-28 09:50:38.79	5.69	32.90	-37.2	-37.9	25.6	0.00e+00	0	43	0	2527068160	45	4043
2026-01-28 09:50:39.80	5.37	32.79	-37.2	-37.9	25.6	0.00e+00	0	43	0	2532311040	45	4014
2026-01-28 09:50:40.81	5.05	32.68	-37.3	-38.1	25.5	0.00e+00	0	43	0	2538602496	45	4101
2026-01-28 09:50:41.81	4.73	32.57	-37.3	-38.0	25.5	0.00e+00	0	43	0	2543845376	45	4069
2026-01-28 09:50:42.82	4.42	32.46	-37.2	-37.9	25.6	0.00e+00	0	43	0	2549088256	45	4044
2026-01-28 09:50:43.83	4.10	32.35	-37.2	-37.9	25.6	0.00e+00	0	43	0	2555379712	45	4018
2026-01-28 09:50:44.83	3.80	32.23	-37.1	-37.7	25.7	0.00e+00	0	43	0	2560622592	45	3957
2026-01-28 09:50:45.84	3.49	32.12	-37.2	-37.9	25.6	0.00e+00	0	43	0	2566914048	45	4037
2026-01-28 09:50:46.85	3.18	32.01	-37.4	-38.1	25.5	0.00e+00	0	43	0	2572156928	45	4112
2026-01-28 09:50:47.86	2.88	31.89	-37.4	-38.1	25.4	0.00e+00	0	43	0	2578448384	45	4122
2026-01-28 09:50:48.87	2.57	31.78	-37.4	-38.1	25.4	0.00e+00	0	43	0	2583691264	45	4118
2026-01-28 09:50:49.87	2.28	31.66	-37.3	-38.0	25.5	0.00e+00	0	43	0	2589982720	45	4093
2026-01-28 09:50:50.88	1.98	31.55	-37.4	-38.1	25.5	0.00e+00	0	43	0	2595225600	45	4103
2026-01-28 09:50:51.89	1.68	31.43	-37.5	-38.2	25.3	0.00e+00	0	43	0	2600468480	45	4170
2026-01-28 09:50:52.90	1.39	31.31	-37.5	-38.2	25.3	0.00e+00	0	43	0	2606759936	45	4171
2026-01-28 09:50:53.91	1.10	31.19	-37.4	-38.1	25.4	0.00e+00	0	43	0	2612002816	45	4131
2026-01-28 09:50:54.90	0.81	31.08	-37.4	-38.1	25.4	0.00e+00	0	43	0	2617245696	45	4105
2026-01-28 09:50:55.90	0.53	30.96	-37.4	-38.1	25.4	0.00e+00	0	43	0	2623537152	45	4142
2026-01-28 09:50:56.91	0.25	30.84	-37.3	-38.0	25.5	0.00e+00	0	43	0	2628780032	45	4071
2026-01-28 09:50:57.92	359.96	30.72	-37.1	-37.8	25.6	0.00e+00	0	43	0	2634022912	45	4000
2026-01-28 09:50:58.93	359.68	30.61	-37.0	-37.7	25.8	0.00e+00	0	43	0	2640314368	45	3927
2026-01-28 09:50:59.94	359.40	30.49	-36.9	-37.6	25.8	0.00e+00	0	43	0	2646605824	45	3891
2026-01-28 09:51:00.95	359.13	30.37	-37.0	-37.6	25.8	0.00e+00	0	43	0	2651848704	45	3911
2026-01-28 09:51:01.96	358.85	30.25	-37.1	-37.7	25.7	0.00e+00	0	43	0	2657091584	45	3956
2026-01-28 09:51:02.97	358.58	30.13	-37.3	-38.0	25.5	0.00e+00	0	43	0	2663383040	45	4058
2026-01-28 09:51:03.97	358.31	30.01	-37.3	-38.0	25.5	0.00e+00	0	43	0	2668625920	45	4094
2026-01-28 09:51:04.97	358.04	29.89	-37.4	-38.1	25.4	0.00e+00	0	43	0	2674917376	45	4140
2026-01-28 09:51:05.98	357.78	29.77	-37.3	-38.0	25.5	0.00e+00	0	43	0	2680160256	45	4078
2026-01-28 09:51:06.98	357.52	29.65	-37.3	-38.0	25.4	0.00e+00	0	43	0	2685403136	45	4095
2026-01-28 09:51:07.99	357.25	29.53	-37.3	-38.1	25.4	0.00e+00	0	43	0	2691694592	45	4101
2026-01-28 09:51:08.99	356.99	29.41	-37.5	-38.3	25.2	0.00e+00	0	43	0	2696937472	45	4194
2026-01-28 09:51:10.00	356.74	29.28	-37.5	-38.2	25.3	0.00e+00	0	43	0	2702180352	45	4183
2026-01-28 09:51:11.01	356.48	29.16	-37.5	-38.2	25.3	0.00e+00	0	43	0	2708471808	45	4170
2026-01-28 09:51:12.02	356.22	29.04	-37.5	-38.2	25.3	0.00e+00	0	43	0	2713714688	45	4178
2026-01-28 09:51:13.03	355.97	28.92	-37.5	-38.2	25.3	0.00e+00	0	43	0	2718957568	45	4178
2026-01-28 09:51:14.04	355.72	28.80	-37.6	-38.3	25.3	0.00e+00	0	43	0	2725249024	45	4199
2026-01-28 09:51:15.04	355.47	28.68	-37.6	-38.2	25.3	0.00e+00	0	43	0	2731540480	45	4193
2026-01-28 09:51:16.05	355.23	28.56	-37.6	-38.3	25.2	0.00e+00	0	43	0	2736783360	45	4234
2026-01-28 09:51:17.06	354.98	28.43	-37.7	-38.4	25.1	0.00e+00	0	43	0	2742026240	46	4037
2026-01-28 09:51:18.07	354.74	28.31	-37.6	-38.3	25.1	0.00e+00	0	43	0	2748317696	46	4003
2026-01-28 09:51:19.08	354.50	28.19	-37.7	-38.4	25.1	0.00e+00	0	43	0	2753560576	46	4026
2026-01-28 09:51:20.09	354.26	28.07	-37.7	-38.4	25.1	0.00e+00	0	43	0	2759852032	46	4027
2026-01-28 09:51:21.09	354.02	27.95	-37.7	-38.4	25.1	0.00e+00	0	43	0	2765094912	46	4018
2026-01-28 09:51:22.10	353.79	27.82	-37.7	-38.4	25.1	0.00e+00	0	43	0	2770337792	46	4027
2026-01-28 09:51:23.11	353.55	27.70	-37.7	-38.4	25.1	0.00e+00	0	43	0	2776629248	46	4034
2026-01-28 09:51:24.12	353.32	27.58	-37.8	-38.5	25.0	0.00e+00	0	43	0	2781872128	46	4081
2026-01-28 09:51:25.13	353.09	27.46	-37.6	-38.3	25.2	0.00e+00	0	43	0	2787115008	46	3967
2026-01-28 09:51:26.13	352.86	27.34	-37.6	-38.3	25.2	0.00e+00	0	43	0	2793406464	46	3964
2026-01-28 09:51:27.14	352.64	27.21	-37.7	-38.4	25.1	0.00e+00	0	43	0	2799697920	46	4026
2026-01-28 09:51:28.15	352.41	27.09	-37.8	-38.5	25.0	0.00e+00	0	43	0	2804940800	46	4079
2026-01-28 09:51:29.15	352.19	26.97	-37.8	-38.5	25.0	0.00e+00	0	43	0	2810183680	46	4072
2026-01-28 09:51:30.16	351.97	26.85	-37.8	-38.5	25.0	0.00e+00	0	43	0	2816475136	46	4091
2026-01-28 09:51:31.17	351.75	26.73	-37.8	-38.5	25.0	0.00e+00	0	43	0	2821718016	46	4073
2026-01-28 09:51:32.18	351.53	26.61	-37.7	-38.4	25.1	0.00e+00	0	43	0	2826960896	46	4030
2026-01-28 09:51:33.19	351.31	26.48	-37.7	-38.4	25.0	0.00e+00	0	43	0	2833252352	46	4034
2026-01-28 09:51:34.19	351.10	26.36	-37.8	-38.5	25.0	0.00e+00	0	43	0	2838495232	46	4062
2026-01-28 09:51:35.20	350.89	26.24	-37.8	-38.5	25.0	0.00e+00	0	43	0	2844786688	46	4098
2026-01-28 09:51:36.21	350.68	26.12	-38.0	-38.7	24.8	0.00e+00	0	43	0	2850029568	46	4186
2026-01-28 09:51:37.22	350.47	26.00	-38.0	-38.7	24.8	0.00e+00	0	43	0	2855272448	46	4174
2026-01-28 09:51:38.22	350.26	25.88	-38.1	-38.8	24.7	0.00e+00	0	43	0	2861563904	46	4223
2026-01-28 09:51:39.23	350.05	25.76	-38.1	-38.9	24.7	0.00e+00	0	43	0	2866806784	46	4249
2026-01-28 09:51:40.24	349.85	25.64	-38.1	-38.9	24.6	0.00e+00	0	43	0	2873098240	46	4255
2026-01-28 09:51:41.25	349.64	25.52	-38.2	-38.9	24.6	0.00e+00	0	43	0	2878341120	46	4271
2026-01-28 09:51:42.25	349.44	25.40	-38.2	-39.0	24.6	0.00e+00	0	43	0	2884632576	47	4058
2026-01-28 09:51:43.26	349.24	25.28	-38.1	-38.9	24.7	0.00e+00	0	43	0	2889875456	47	4012
2026-01-28 09:51:44.27	349.04	25.16	-38.2	-38.9	24.6	0.00e+00	0	43	0	2895118336	47	4029
2026-01-28 09:51:45.28	348.85	25.04	-38.1	-38.9	24.7	0.00e+00	0	43	0	2901409792	47	4010
2026-01-28 09:51:46.28	348.65	24.92	-38.2	-39.0	24.6	0.00e+00	0	43	0	2906652672	47	4056
2026-01-28 09:51:47.29	348.46	24.80	-38.2	-38.9	24.6	0.00e+00	0	43	0	2911895552	47	4020
2026-01-28 09:51:48.30	348.27	24.68	-38.2	-38.9	24.6	0.00e+00	0	43	0	2918187008	47	4032
2026-01-28 09:51:49.30	348.08	24.56	-38.2	-38.9	24.6	0.00e+00	0	43	0	2923429888	47	4029
2026-01-28 09:51:50.31	347.89	24.44	-38.1	-38.9	24.7	0.00e+00	0	43	0	2929721344	47	4015
2026-01-28 09:51:51.32	347.70	24.32	-38.2	-38.9	24.6	0.00e+00	0	43	0	2934964224	47	4046
2026-01-28 09:51:52.33	347.51	24.20	-38.1	-38.8	24.7	0.00e+00	0	43	0	2940207104	47	4003
2026-01-28 09:51:53.33	347.33	24.09	-38.2	-38.9	24.6	0.00e+00	0	43	0	2946498560	47	4029
2026-01-28 09:51:54.34	347.14	23.97	-38.2	-38.9	24.6	0.00e+00	0	43	0	2952790016	47	4024
2026-01-28 09:51:55.35	346.96	23.85	-38.0	-38.7	24.8	0.00e+00	0	43	0	2958032896	47	3941
2026-01-28 09:51:56.35	346.78	23.73	-38.0	-38.7	24.7	0.00e+00	0	43	0	2963275776	47	3943
2026-01-28 09:51:57.36	346.60	23.62	-38.0	-38.7	24.8	0.00e+00	0	43	0	2969567232	47	3946
2026-01-28 09:51:58.36	346.42	23.50	-38.1	-38.9	24.6	0.00e+00	0	43	0	2974810112	47	4012
2026-01-28 09:51:59.37	346.25	23.38	-38.1	-38.8	24.7	0.00e+00	0	43	0	2980052992	47	3985
2026-01-28 09:52:00.38	346.07	23.27	-38.0	-38.8	24.7	0.00e+00	0	43	0	2986344448	47	3973
2026-01-28 09:52:01.39	345.89	23.15	-38.1	-38.8	24.7	0.00e+00	0	43	0	2991587328	47	3983
2026-01-28 09:52:02.40	345.72	23.03	-38.2	-38.9	24.6	0.00e+00	0	43	0	2996830208	47	4020
2026-01-28 09:52:03.41	345.55	22.92	-38.1	-38.9	24.6	0.00e+00	0	43	0	3003121664	47	4019
2026-01-28 09:52:04.41	345.38	22.80	-38.3	-39.0	24.5	0.00e+00	0	43	0	3008364544	47	4077
2026-01-28 09:52:05.42	345.21	22.68	-38.3	-39.1	24.5	0.00e+00	0	43	0	3014656000	47	4100
2026-01-28 09:52:06.43	345.04	22.57	-38.3	-39.0	24.5	0.00e+00	0	43	0	3019898880	47	4087
2026-01-28 09:52:07.44	344.88	22.45	-38.4	-39.1	24.4	0.00e+00	0	43	0	3026190336	47	4121
2026-01-28 09:52:08.44	344.71	22.34	-38.4	-39.1	24.4	0.00e+00	0	43	0	3031433216	47	4129
2026-01-28 09:52:09.44	344.55	22.23	-38.4	-39.1	24.4	0.00e+00	0	43	0	3037724672	47	4139
2026-01-28 09:52:10.45	344.39	22.11	-38.4	-39.1	24.4	0.00e+00	0	43	0	3042967552	47	4122
2026-01-28 09:52:11.46	344.22	22.00	-38.4	-39.1	24.3	0.00e+00	0	43	0	3048210432	47	4143
2026-01-28 09:52:12.46	344.06	21.88	-38.4	-39.1	24.3	0.00e+00	0	43	0	3054501888	47	4124
2026-01-28 09:52:13.47	343.91	21.77	-38.3	-39.0	24.5	0.00e+00	0	43	0	3059744768	47	4081
2026-01-28 09:52:14.48	343.75	21.66	-38.4	-39.1	24.4	0.00e+00	0	43	0	3064987648	47	4129
2026-01-28 09:52:15.48	343.59	21.55	-38.4	-39.1	24.4	0.00e+00	0	43	0	3071279104	47	4126
2026-01-28 09:52:16.49	343.44	21.43	-38.4	-39.1	24.4	0.00e+00	0	43	0	3076521984	47	4141
2026-01-28 09:52:17.49	343.28	21.32	-38.3	-39.0	24.4	0.00e+00	0	43	0	3081764864	47	4085
2026-01-28 09:52:18.50	343.13	21.21	-38.4	-39.2	24.3	0.00e+00	0	43	0	3088056320	47	4158
2026-01-28 09:52:19.51	342.98	21.10	-38.2	-39.0	24.5	0.00e+00	0	43	0	3093299200	47	4063
2026-01-28 09:52:20.52	342.82	20.98	-38.4	-39.1	24.4	0.00e+00	0	43	0	3099590656	47	4118
2026-01-28 09:52:21.53	342.67	20.87	-38.3	-39.1	24.4	0.00e+00	0	43	0	3104833536	47	4114
2026-01-28 09:52:22.53	342.53	20.76	-38.4	-39.2	24.3	0.00e+00	0	43	0	3110076416	47	4153
2026-01-28 09:52:23.54	342.38	20.65	-38.5	-39.3	24.2	0.00e+00	0	43	0	3116367872	47	4194
2026-01-28 09:52:24.55	342.23	20.54	-38.5	-39.3	24.2	0.00e+00	0	43	0	3122659328	47	4201
2026-01-28 09:52:25.56	342.08	20.43	-38.6	-39.4	24.1	0.00e+00	0	43	0	3127902208	47	4255
2026-01-28 09:52:26.57	341.94	20.32	-38.6	-39.4	24.1	0.00e+00	0	43	0	3133145088	47	4251
2026-01-28 09:52:27.57	341.80	20.21	-38.6	-39.3	24.1	0.00e+00	0	43	0	3139436544	47	4231
2026-01-28 09:52:28.58	341.65	20.10	-38.7	-39.4	24.1	0.00e+00	0	43	0	3144679424	47	4266
2026-01-28 09:52:29.59	341.51	19.99	-39.0	-39.7	24.2	0.00e+00	0	43	0	3149922304	48	4183
2026-01-28 09:52:30.59	341.37	19.89	-39.1	-39.8	24.2	0.00e+00	0	43	0	3156213760	48	4218
2026-01-28 09:52:31.60	341.23	19.78	-39.0	-39.7	24.2	0.00e+00	0	43	0	3161456640	48	4170
2026-01-28 09:52:32.61	341.09	19.67	-39.0	-39.8	24.2	0.00e+00	0	43	0	3166699520	48	4195
2026-01-28 09:52:33.61	340.96	19.56	-39.1	-39.8	24.1	0.00e+00	0	43	0	3172990976	48	4228
2026-01-28 09:52:34.62	340.82	19.45	-39.0	-39.7	24.2	0.00e+00	0	43	0	3178233856	48	4193
2026-01-28 09:52:35.63	340.69	19.35	-39.0	-39.8	24.2	0.00e+00	0	43	0	3184525312	48	4198
2026-01-28 09:52:36.63	340.55	19.24	-39.1	-39.8	24.1	0.00e+00	0	43	0	3189768192	48	4224
2026-01-28 09:52:37.64	340.42	19.13	-39.1	-39.9	24.1	0.00e+00	0	43	0	3196059648	48	4256
2026-01-28 09:52:38.65	340.29	19.03	-39.2	-39.9	24.0	0.00e+00	0	43	0	3201302528	48	4279
2026-01-28 09:52:39.65	340.15	18.92	-39.1	-39.9	24.1	0.00e+00	0	43	0	3207593984	48	4259
2026-01-28 09:52:40.66	340.02	18.82	-39.3	-40.0	24.0	0.00e+00	0	43	0	3212836864	49	4083
2026-01-28 09:52:41.67	339.89	18.71	-39.2	-40.0	24.0	0.00e+00	0	43	0	3218079744	49	4070
2026-01-28 09:52:42.68	339.76	18.60	-39.3	-40.1	23.9	0.00e+00	0	43	0	3224371200	49	4112
2026-01-28 09:52:43.69	339.64	18.50	-39.3	-40.1	23.9	0.00e+00	0	43	0	3229614080	49	4103
2026-01-28 09:52:44.70	339.51	18.39	-39.3	-40.1	23.9	0.00e+00	0	43	0	3234856960	49	4117
2026-01-28 09:52:45.71	339.38	18.29	-39.5	-40.3	23.8	0.00e+00	0	43	0	3241148416	49	4197
2026-01-28 09:52:46.71	339.26	18.19	-39.5	-40.3	23.7	0.00e+00	0	43	0	3246391296	49	4204
2026-01-28 09:52:47.72	339.13	18.08	-39.5	-40.3	23.7	0.00e+00	0	43	0	3251634176	49	4201
2026-01-28 09:52:48.73	339.01	17.98	-39.5	-40.3	23.7	0.00e+00	0	43	0	3257925632	49	4220
2026-01-28 09:52:49.74	338.89	17.88	-39.7	-40.4	23.6	0.00e+00	0	43	0	3264217088	49	4273
2026-01-28 09:52:50.75	338.76	17.77	-39.7	-40.5	23.6	0.00e+00	0	43	0	3269459968	50	4062
2026-01-28 09:52:51.76	338.64	17.67	-39.6	-40.3	23.7	0.00e+00	0	43	0	3274702848	50	3986
2026-01-28 09:52:52.77	338.52	17.57	-39.6	-40.3	23.7	0.00e+00	0	43	0	3280994304	50	3982
2026-01-28 09:52:53.77	338.40	17.47	-39.6	-40.4	23.6	0.00e+00	0	43	0	3286237184	50	4010
2026-01-28 09:52:54.78	338.29	17.36	-39.5	-40.3	23.7	0.00e+00	0	43	0	3292528640	50	3975
2026-01-28 09:52:55.79	338.17	17.26	-39.5	-40.2	23.8	0.00e+00	0	43	0	3297771520	50	3934
2026-01-28 09:52:56.79	338.05	17.16	-39.5	-40.2	23.7	0.00e+00	0	43	0	3303014400	50	3951
2026-01-28 09:52:57.80	337.94	17.06	-39.5	-40.3	23.7	0.00e+00	0	43	0	3309305856	50	3963
2026-01-28 09:52:58.81	337.82	16.96	-39.6	-40.3	23.6	0.00e+00	0	43	0	3314548736	50	3998
2026-01-28 09:52:59.82	337.71	16.86	-39.6	-40.4	23.6	0.00e+00	0	43	0	3319791616	50	4014
2026-01-28 09:53:00.83	337.59	16.76	-39.8	-40.5	23.5	0.00e+00	0	43	0	3326083072	50	4078
2026-01-28 09:53:01.83	337.48	16.66	-39.7	-40.5	23.4	0.00e+00	0	43	0	3331325952	50	4076
2026-01-28 09:53:02.84	337.37	16.56	-39.8	-40.6	23.4	0.00e+00	0	43	0	3337617408	50	4116
2026-01-28 09:53:03.85	337.26	16.46	-39.9	-40.6	23.3	1.10e-06	0	43	0	3342860288	50	4133
2026-01-28 09:53:04.85	337.15	16.36	-40.0	-40.7	23.2	0.00e+00	0	43	0	3349151744	50	4192
2026-01-28 09:53:05.85	337.04	16.27	-40.0	-40.8	23.2	0.00e+00	0	43	0	3354394624	50	4197
2026-01-28 09:53:06.86	336.93	16.17	-40.1	-40.8	23.1	0.00e+00	0	43	0	3359637504	50	4232
2026-01-28 09:53:07.87	336.82	16.07	-40.1	-40.9	23.1	0.00e+00	0	43	0	3365928960	50	4277
2026-01-28 09:53:08.87	336.71	15.97	-40.2	-41.0	23.0	0.00e+00	0	43	0	3371171840	51	4075
2026-01-28 09:53:09.88	336.61	15.88	-40.2	-41.0	23.0	0.00e+00	0	43	0	3377463296	51	4067
2026-01-28 09:53:10.89	336.50	15.78	-40.2	-41.0	22.9	0.00e+00	0	43	0	3382706176	51	4086
2026-01-28 09:53:11.90	336.39	15.68	-40.3	-41.1	22.9	0.00e+00	0	43	0	3387949056	51	4106
2026-01-28 09:53:12.91	336.29	15.58	-40.3	-41.0	23.0	0.00e+00	0	43	0	3394240512	51	4097
2026-01-28 09:53:13.92	336.18	15.49	-40.3	-41.1	22.9	0.00e+00	0	43	0	3399483392	51	4119
2026-01-28 09:53:14.92	336.08	15.39	-40.4	-41.2	22.8	1.10e-06	0	43	0	3404726272	51	4163
2026-01-28 09:53:15.92	335.98	15.30	-40.3	-41.1	23.0	0.00e+00	0	43	0	3411017728	51	4122
2026-01-28 09:53:16.93	335.88	15.20	-40.3	-41.1	22.9	0.00e+00	0	43	0	3416260608	51	4134
2026-01-28 09:53:17.94	335.78	15.11	-40.3	-41.1	22.8	0.00e+00	0	43	0	3422552064	51	4116
2026-01-28 09:53:18.95	335.67	15.01	-40.2	-41.0	22.9	0.00e+00	0	43	0	3427794944	51	4082
2026-01-28 09:53:19.96	335.57	14.92	-40.2	-41.0	22.9	0.00e+00	0	43	0	3434086400	51	4086
2026-01-28 09:53:20.97	335.47	14.82	-40.2	-41.0	23.0	0.00e+00	0	43	0	3439329280	51	4082
2026-01-28 09:53:21.97	335.38	14.73	-40.3	-41.1	22.8	0.00e+00	0	43	0	3444572160	51	4132
2026-01-28 09:53:22.98	335.28	14.64	-40.3	-41.1	22.9	0.00e+00	0	43	0	3450863616	51	4126
2026-01-28 09:53:23.99	335.18	14.54	-40.4	-41.1	22.8	0.00e+00	0	43	0	3456106496	51	4144
2026-01-28 09:53:24.99	335.08	14.45	-40.5	-41.3	22.7	1.14e-05	0	43	0	3462397952	51	4195
2026-01-28 09:53:26.00	334.99	14.36	-40.5	-41.3	22.7	0.00e+00	0	43	0	3467640832	51	4202
2026-01-28 09:53:27.01	334.89	14.26	-40.5	-41.3	22.6	0.00e+00	0	43	0	3472883712	51	4207
2026-01-28 09:53:28.02	334.80	14.17	-40.5	-41.3	22.7	0.00e+00	0	43	0	3479175168	51	4210
2026-01-28 09:53:29.03	334.70	14.08	-40.5	-41.3	22.6	0.00e+00	0	43	0	3484418048	51	4241
2026-01-28 09:53:30.04	334.61	13.99	-40.5	-41.3	22.5	0.00e+00	0	43	0	3490709504	52	3988
2026-01-28 09:53:31.04	334.52	13.90	-40.5	-41.4	22.5	0.00e+00	0	43	0	3495952384	52	4014
2026-01-28 09:53:32.05	334.42	13.80	-40.6	-41.5	22.4	0.00e+00	0	43	0	3502243840	52	4057
2026-01-28 09:53:33.06	334.33	13.71	-40.8	-41.7	22.2	0.00e+00	0	43	0	3507486720	52	4149
2026-01-28 09:53:34.07	334.24	13.62	-40.8	-41.6	22.3	0.00e+00	0	43	0	3512729600	52	4130
2026-01-28 09:53:35.07	334.15	13.53	-41.0	-41.8	22.1	0.00e+00	0	43	0	3519021056	52	4230
2026-01-28 09:53:36.08	334.06	13.44	-40.8	-41.6	22.2	0.00e+00	0	43	0	3524263936	52	4137
2026-01-28 09:53:37.08	333.97	13.35	-40.8	-41.7	22.2	0.00e+00	0	43	0	3529506816	52	4153
2026-01-28 09:53:38.09	333.88	13.26	-40.9	-41.8	22.0	0.00e+00	0	43	0	3535798272	52	4207
2026-01-28 09:53:39.10	333.79	13.17	-40.8	-41.6	22.2	0.00e+00	0	43	0	3541041152	52	4143
2026-01-28 09:53:40.11	333.70	13.08	-40.9	-41.7	22.1	0.00e+00	0	43	0	3547332608	52	4175
2026-01-28 09:53:41.12	333.62	12.99	-40.9	-41.7	22.1	0.00e+00	0	43	0	3552575488	52	4182
2026-01-28 09:53:42.12	333.53	12.91	-41.0	-41.9	21.9	0.00e+00	0	43	0	3557818368	52	4249
2026-01-28 09:53:43.13	333.44	12.82	-40.9	-41.7	22.0	0.00e+00	0	43	0	3564109824	52	4182
2026-01-28 09:53:44.14	333.36	12.73	-40.8	-41.7	22.2	0.00e+00	0	43	0	3570401280	52	4148
2026-01-28 09:53:45.14	333.27	12.64	-40.9	-41.7	22.1	0.00e+00	0	43	0	3575644160	52	4160
2026-01-28 09:53:46.15	333.19	12.55	-40.8	-41.6	22.2	0.00e+00	0	43	0	3580887040	52	4133
2026-01-28 09:53:47.16	333.10	12.47	-40.9	-41.7	22.1	0.00e+00	0	43	0	3587178496	52	4161
2026-01-28 09:53:48.17	333.02	12.38	-40.9	-41.7	22.0	0.00e+00	0	43	0	3592421376	52	4193
2026-01-28 09:53:49.18	332.94	12.29	-40.8	-41.6	22.2	0.00e+00	0	43	0	3597664256	52	4123
2026-01-28 09:53:50.18	332.85	12.21	-40.8	-41.6	22.2	0.00e+00	0	43	0	3603955712	52	4128
2026-01-28 09:53:51.19	332.77	12.12	-40.9	-41.7	22.1	0.00e+00	0	43	0	3609198592	52	4187
2026-01-28 09:53:52.19	332.69	12.03	-40.9	-41.8	22.0	0.00e+00	0	43	0	3614441472	52	4201
2026-01-28 09:53:53.20	332.61	11.95	-41.0	-41.9	21.9	0.00e+00	0	43	0	3620732928	52	4255
2026-01-28 09:53:54.20	332.53	11.86	-41.0	-41.8	22.0	0.00e+00	0	43	0	3625975808	52	4219
2026-01-28 09:53:55.21	332.45	11.78	-41.1	-42.0	21.8	0.00e+00	0	43	0	3632267264	52	4292
2026-01-28 09:53:56.22	332.37	11.69	-41.1	-41.9	21.8	0.00e+00	0	43	0	3637510144	52	4288
2026-01-28 09:53:57.23	332.29	11.61	-41.1	-41.9	21.9	0.00e+00	0	43	0	3642753024	52	4282
2026-01-28 09:53:58.23	332.21	11.52	-41.1	-42.0	21.8	0.00e+00	0	43	0	3649044480	52	4295
2026-01-28 09:53:59.24	332.13	11.44	-41.2	-42.1	21.7	0.00e+00	0	43	0	3655335936	52	4351
2026-01-28 09:54:00.25	332.05	11.35	-41.0	-41.9	21.9	0.00e+00	0	43	0	3660578816	52	4269
