passes_logs/2026/01/28/R3.2S_Murmansk/R3.2S_Murmansk__20260128_204037_TY-39_rec.log

#Pass ID: 20260128_204037_TY-39
#Satellite: TY-39
#Configuration: TY-39
#almurnet v.1.7.20251203
#Start time: 2026-01-28 20:40:38

#Version: 2.2.20231116
#Station: R3.2S_Murmansk
#Location: 33.079688 lon 68.888172 lat
#TLE: 1 51832U 22019J   26027.53500954  .00003458  00000-0  16483-3 0  9996
#TLE: 2 51832  97.3625  93.9185 0008876  12.4294 347.7158 15.19733854216436

#Time	Az	El	Level	Level2	SNR	BER	BlckErr	Temp	State	Recorded	gain1	gain2
2026-01-28 20:40:38.99	230.00	2.09	-54.2	-56.3	3.7	0.00e+00	0	45	0	0	79	18882
2026-01-28 20:40:39.99	230.12	2.14	-54.3	-56.5	3.7	0.00e+00	0	45	104	0	80	18347
2026-01-28 20:40:40.99	230.25	2.19	-54.4	-56.5	3.7	0.00e+00	0	45	104	0	80	18384
2026-01-28 20:40:42.00	230.37	2.25	-54.4	-56.6	3.7	0.00e+00	0	46	104	0	80	18449
2026-01-28 20:40:43.01	230.50	2.30	-54.4	-56.6	3.7	0.00e+00	0	46	104	0	80	18417
2026-01-28 20:40:44.02	230.62	2.36	-54.4	-56.5	3.7	0.00e+00	0	46	104	0	80	18360
2026-01-28 20:40:45.03	230.75	2.41	-54.4	-56.5	3.7	0.00e+00	0	46	104	0	80	18307
2026-01-28 20:40:46.03	230.87	2.46	-54.3	-56.5	3.7	0.00e+00	0	46	104	0	80	18243
2026-01-28 20:40:47.04	231.00	2.52	-54.3	-56.4	3.7	0.00e+00	0	46	104	0	80	18135
2026-01-28 20:40:48.04	231.13	2.57	-54.3	-56.4	3.7	0.00e+00	0	46	104	0	80	18054
2026-01-28 20:40:49.05	231.26	2.62	-54.2	-56.3	3.7	0.00e+00	0	46	104	0	80	17886
2026-01-28 20:40:50.06	231.39	2.68	-54.1	-56.3	3.7	0.00e+00	0	46	104	0	80	17784
2026-01-28 20:40:51.07	231.52	2.73	-54.1	-56.2	3.7	0.00e+00	0	46	104	0	80	17678
2026-01-28 20:40:52.07	231.65	2.78	-54.0	-56.1	3.7	0.00e+00	0	46	104	0	80	17529
2026-01-28 20:40:53.08	231.78	2.84	-54.0	-56.2	3.7	0.00e+00	0	46	104	0	79	18607
2026-01-28 20:40:54.08	231.91	2.89	-53.9	-56.1	3.7	0.00e+00	0	46	104	0	79	18427
2026-01-28 20:40:55.09	232.04	2.95	-53.9	-56.0	3.7	0.00e+00	0	46	104	0	79	18262
2026-01-28 20:40:56.10	232.18	3.00	-53.8	-55.9	3.7	0.00e+00	0	46	104	0	79	18076
2026-01-28 20:40:57.10	232.31	3.05	-53.7	-55.8	3.7	0.00e+00	0	46	104	0	79	17831
2026-01-28 20:40:58.11	232.44	3.11	-53.5	-55.7	3.7	0.00e+00	0	46	104	0	79	17630
2026-01-28 20:40:59.11	232.58	3.16	-53.3	-55.4	3.7	0.00e+00	0	46	104	0	78	18133
2026-01-28 20:41:00.12	232.71	3.22	-53.0	-55.2	3.7	0.00e+00	0	46	104	0	78	17583
2026-01-28 20:41:01.13	232.85	3.27	-52.7	-54.8	3.7	0.00e+00	0	46	104	0	77	17906
2026-01-28 20:41:02.14	232.99	3.32	-52.6	-54.8	3.7	0.00e+00	0	47	104	0	77	17793
2026-01-28 20:41:03.15	233.12	3.38	-52.6	-54.7	3.7	0.00e+00	0	47	104	0	77	17748
2026-01-28 20:41:04.16	233.26	3.43	-52.6	-54.7	3.7	0.00e+00	0	47	104	0	77	17741
2026-01-28 20:41:05.16	233.40	3.49	-52.6	-54.8	3.7	0.00e+00	0	47	104	0	77	17775
2026-01-28 20:41:06.17	233.54	3.54	-52.6	-54.7	3.7	0.00e+00	0	47	104	0	77	17719
2026-01-28 20:41:07.17	233.68	3.59	-52.6	-54.7	3.7	0.00e+00	0	47	104	0	77	17737
2026-01-28 20:41:08.18	233.82	3.65	-52.6	-54.7	3.7	0.00e+00	0	47	104	0	77	17623
2026-01-28 20:41:09.19	233.96	3.70	-52.6	-54.7	3.7	0.00e+00	0	47	104	0	77	17737
2026-01-28 20:41:10.19	234.10	3.76	-52.6	-54.7	3.7	0.00e+00	0	47	104	0	77	17657
2026-01-28 20:41:11.20	234.24	3.81	-52.6	-54.7	3.7	0.00e+00	0	47	104	0	77	17710
2026-01-28 20:41:12.21	234.38	3.87	-52.6	-54.7	3.7	0.00e+00	0	47	104	0	77	17679
2026-01-28 20:41:13.22	234.53	3.92	-52.6	-54.7	3.7	0.00e+00	0	47	104	0	77	17675
2026-01-28 20:41:14.23	234.67	3.98	-52.6	-54.7	3.7	0.00e+00	0	47	104	0	77	17647
2026-01-28 20:41:15.23	234.82	4.03	-52.5	-54.7	3.7	0.00e+00	0	47	104	0	77	17604
2026-01-28 20:41:16.24	234.96	4.08	-52.6	-54.7	3.7	0.00e+00	0	47	104	0	77	17644
2026-01-28 20:41:17.24	235.11	4.14	-52.5	-54.7	3.7	0.00e+00	0	47	104	0	77	17625
2026-01-28 20:41:18.25	235.25	4.19	-52.5	-54.7	3.7	0.00e+00	0	47	104	0	77	17649
2026-01-28 20:41:19.26	235.40	4.25	-52.5	-54.7	3.7	0.00e+00	0	47	104	0	77	17664
2026-01-28 20:41:20.27	235.55	4.30	-52.5	-54.7	3.7	0.00e+00	0	47	104	0	77	17585
2026-01-28 20:41:21.28	235.70	4.36	-52.5	-54.7	3.7	0.00e+00	0	47	104	0	77	17594
2026-01-28 20:41:22.28	235.85	4.41	-52.5	-54.7	3.7	0.00e+00	0	47	104	0	77	17625
2026-01-28 20:41:23.29	236.00	4.47	-52.5	-54.7	3.7	0.00e+00	0	47	104	0	77	17601
2026-01-28 20:41:24.30	236.15	4.52	-52.5	-54.7	3.7	0.00e+00	0	47	104	0	77	17620
2026-01-28 20:41:25.30	236.30	4.57	-52.5	-54.7	3.7	0.00e+00	0	47	104	0	77	17577
2026-01-28 20:41:26.32	236.45	4.63	-52.5	-54.7	3.7	0.00e+00	0	47	104	0	77	17627
2026-01-28 20:41:27.32	236.61	4.68	-52.5	-54.7	3.7	0.00e+00	0	47	104	0	77	17583
2026-01-28 20:41:28.33	236.76	4.74	-52.5	-54.7	3.7	0.00e+00	0	47	104	0	77	17594
2026-01-28 20:41:29.33	236.91	4.79	-52.5	-54.7	3.7	0.00e+00	0	47	104	0	77	17619
2026-01-28 20:41:30.34	237.07	4.85	-52.5	-54.7	3.7	0.00e+00	0	47	104	0	77	17594
2026-01-28 20:41:31.35	237.22	4.90	-52.5	-54.7	3.7	0.00e+00	0	47	104	0	77	17563
2026-01-28 20:41:32.36	237.38	4.96	-52.5	-54.7	3.7	0.00e+00	0	47	104	0	77	17587
2026-01-28 20:41:33.37	237.54	5.01	-52.5	-54.7	3.7	0.00e+00	0	47	104	0	77	17587
2026-01-28 20:41:34.37	237.69	5.07	-52.6	-54.7	3.7	0.00e+00	0	48	104	0	77	17599
2026-01-28 20:41:35.38	237.85	5.12	-52.7	-54.8	3.7	0.00e+00	0	48	104	0	77	17822
2026-01-28 20:41:36.38	238.01	5.18	-52.6	-54.7	3.7	0.00e+00	0	48	104	0	77	17673
2026-01-28 20:41:37.39	238.17	5.23	-52.5	-54.6	3.7	0.00e+00	0	48	104	0	77	17525
2026-01-28 20:41:38.39	238.33	5.28	-52.5	-54.6	3.7	0.00e+00	0	48	104	0	76	18593
2026-01-28 20:41:39.40	238.49	5.34	-52.6	-54.7	3.7	0.00e+00	0	48	104	0	76	18808
2026-01-28 20:41:40.40	238.65	5.39	-52.5	-54.7	3.7	0.00e+00	0	48	104	0	76	18661
2026-01-28 20:41:41.41	238.82	5.45	-52.5	-54.6	3.7	0.00e+00	0	48	104	0	76	18504
2026-01-28 20:41:42.41	238.98	5.50	-52.5	-54.6	3.7	0.00e+00	0	48	104	0	76	18561
2026-01-28 20:41:43.42	239.15	5.56	-52.6	-54.8	3.7	0.00e+00	0	48	104	0	76	18863
2026-01-28 20:41:44.42	239.31	5.61	-52.5	-54.7	3.7	0.00e+00	0	48	104	0	76	18640
2026-01-28 20:41:45.43	239.48	5.67	-52.5	-54.6	3.7	0.00e+00	0	48	104	0	76	18475
2026-01-28 20:41:46.44	239.64	5.72	-52.5	-54.6	3.7	0.00e+00	0	48	104	0	76	18583
2026-01-28 20:41:47.44	239.81	5.77	-52.6	-54.7	3.7	0.00e+00	0	48	104	0	76	18813
2026-01-28 20:41:48.44	239.98	5.83	-52.5	-54.7	3.7	0.00e+00	0	48	104	0	76	18611
2026-01-28 20:41:49.45	240.15	5.88	-52.5	-54.6	3.7	0.00e+00	0	48	104	0	76	18498
2026-01-28 20:41:50.45	240.31	5.94	-52.5	-54.6	3.7	0.00e+00	0	48	104	0	76	18579
2026-01-28 20:41:51.45	240.48	5.99	-52.6	-54.7	3.7	0.00e+00	0	48	104	0	76	18797
2026-01-28 20:41:52.46	240.65	6.04	-52.5	-54.7	3.7	0.00e+00	0	48	104	0	76	18648
2026-01-28 20:41:53.47	240.83	6.10	-52.5	-54.6	3.7	0.00e+00	0	48	104	0	76	18513
2026-01-28 20:41:54.47	241.00	6.15	-52.5	-54.6	3.7	0.00e+00	0	48	104	0	76	18601
2026-01-28 20:41:55.48	241.17	6.21	-52.6	-54.7	3.7	0.00e+00	0	48	104	0	76	18811
2026-01-28 20:41:56.48	241.35	6.26	-52.6	-54.7	3.7	0.00e+00	0	48	104	0	76	18692
2026-01-28 20:41:57.49	241.52	6.32	-52.5	-54.6	3.7	0.00e+00	0	48	104	0	76	18557
2026-01-28 20:41:58.50	241.70	6.37	-52.6	-54.7	3.7	0.00e+00	0	48	104	0	76	18640
2026-01-28 20:41:59.51	241.87	6.42	-52.6	-54.7	3.7	0.00e+00	0	48	104	0	76	18805
2026-01-28 20:42:00.51	242.05	6.48	-52.6	-54.7	3.7	0.00e+00	0	48	104	0	76	18712
2026-01-28 20:42:01.52	242.23	6.53	-52.5	-54.6	3.7	0.00e+00	0	48	104	0	76	18561
2026-01-28 20:42:02.53	242.41	6.59	-52.6	-54.7	3.7	0.00e+00	0	48	104	0	76	18742
2026-01-28 20:42:03.53	242.59	6.64	-52.6	-54.8	3.7	0.00e+00	0	48	104	0	76	18852
2026-01-28 20:42:04.54	242.77	6.69	-52.6	-54.7	3.7	0.00e+00	0	48	104	0	76	18716
2026-01-28 20:42:05.54	242.95	6.75	-47.5	-47.8	5.7	1.19e-02	3632	49	104	0	65	15992
2026-01-28 20:42:06.55	243.13	6.80	-45.8	-45.9	7.3	1.48e-01	1628	50	0	50331648	63	14429
2026-01-28 20:42:07.55	243.31	6.85	-45.8	-45.9	7.4	1.86e-01	0	49	0	125829120	63	14406
2026-01-28 20:42:08.56	243.50	6.91	-45.4	-45.6	7.7	1.00e-01	0	49	0	201326592	62	14657
2026-01-28 20:42:09.57	243.68	6.96	-44.1	-44.1	8.9	4.73e-02	0	49	0	276824064	60	13906
2026-01-28 20:42:10.58	243.87	7.01	-42.7	-42.7	10.1	2.02e-02	0	49	0	352321536	57	14046
2026-01-28 20:42:11.59	244.06	7.07	-41.3	-41.3	11.4	2.46e-03	0	49	0	436207616	54	14196
2026-01-28 20:42:12.60	244.24	7.12	-40.2	-40.1	12.2	2.22e-04	0	49	0	511705088	52	13897
2026-01-28 20:42:13.60	244.43	7.17	-40.0	-40.0	12.4	9.71e-05	0	49	0	587202560	51	14517
2026-01-28 20:42:14.61	244.62	7.23	-39.5	-39.5	12.8	2.77e-05	0	49	0	662700032	51	13677
2026-01-28 20:42:15.62	244.81	7.28	-39.1	-39.0	13.1	0.00e+00	0	49	0	738197504	50	13716
2026-01-28 20:42:16.63	245.00	7.33	-38.4	-38.4	13.4	6.90e-06	0	49	0	813694976	48	14301
2026-01-28 20:42:17.63	245.19	7.39	-38.2	-38.1	13.6	6.90e-06	0	49	0	889192448	48	13933
2026-01-28 20:42:18.64	245.38	7.44	-38.0	-37.9	13.7	0.00e+00	0	49	0	956301312	48	13608
2026-01-28 20:42:19.64	245.58	7.49	-38.1	-38.0	13.7	0.00e+00	0	49	0	1031798784	48	13706
2026-01-28 20:42:20.65	245.77	7.54	-38.1	-38.1	13.7	0.00e+00	0	49	0	1107296256	48	13799
2026-01-28 20:42:21.65	245.96	7.60	-37.1	-37.1	13.3	0.00e+00	0	49	0	1182793728	46	13854
2026-01-28 20:42:22.66	246.16	7.65	-37.3	-37.2	13.2	0.00e+00	0	49	0	1258291200	46	14069
2026-01-28 20:42:23.67	246.36	7.70	-37.1	-37.1	13.3	6.90e-06	0	49	0	1333788672	46	13824
2026-01-28 20:42:24.68	246.56	7.75	-37.0	-36.9	13.4	6.90e-06	0	49	0	1409286144	46	13613
2026-01-28 20:42:25.69	246.75	7.81	-37.2	-37.1	13.3	0.00e+00	0	50	0	1484783616	46	13885
2026-01-28 20:42:26.69	246.95	7.86	-37.3	-37.2	13.2	6.90e-06	0	50	0	1568669696	46	14054
2026-01-28 20:42:27.70	247.15	7.91	-37.4	-37.3	13.1	6.90e-06	0	50	0	1644167168	46	14269
2026-01-28 20:42:28.70	247.35	7.96	-37.4	-37.3	13.2	6.90e-06	0	50	0	1719664640	46	14174
2026-01-28 20:42:29.71	247.55	8.01	-37.2	-37.2	13.3	6.90e-06	0	50	0	1795162112	46	14023
2026-01-28 20:42:30.72	247.76	8.06	-36.9	-36.8	13.5	6.90e-06	0	50	0	1870659584	45	14260
2026-01-28 20:42:31.73	247.96	8.12	-37.0	-37.0	13.4	0.00e+00	0	50	0	1946157056	45	14477
2026-01-28 20:42:32.73	248.16	8.17	-36.8	-36.7	13.6	6.90e-06	0	50	0	2021654528	45	14043
2026-01-28 20:42:33.74	248.37	8.22	-36.8	-36.7	13.6	0.00e+00	0	50	0	2088763392	45	14037
2026-01-28 20:42:34.74	248.57	8.27	-36.8	-36.7	13.6	0.00e+00	0	50	0	2164260864	45	14099
2026-01-28 20:42:35.74	248.78	8.32	-36.9	-36.8	13.5	0.00e+00	0	50	0	2239758336	45	14182
2026-01-28 20:42:36.75	248.99	8.37	-36.8	-36.8	13.6	1.38e-05	0	50	0	2315255808	45	14128
2026-01-28 20:42:37.75	249.19	8.42	-36.8	-36.7	13.6	0.00e+00	0	50	0	2390753280	45	14111
2026-01-28 20:42:38.76	249.40	8.47	-36.6	-36.5	13.7	0.00e+00	0	50	0	2466250752	45	13712
2026-01-28 20:42:39.77	249.61	8.52	-36.6	-36.6	13.7	0.00e+00	0	50	0	2541748224	45	13830
2026-01-28 20:42:40.78	249.83	8.57	-36.8	-36.7	13.6	0.00e+00	0	50	0	2617245696	45	14018
2026-01-28 20:42:41.79	250.04	8.62	-36.7	-36.7	13.6	6.90e-06	0	50	0	2692743168	45	13968
2026-01-28 20:42:42.79	250.25	8.67	-36.6	-36.6	13.7	0.00e+00	0	50	0	2776629248	45	13834
2026-01-28 20:42:43.80	250.46	8.72	-36.7	-36.6	13.7	0.00e+00	0	50	0	2852126720	45	13871
2026-01-28 20:42:44.80	250.68	8.77	-36.7	-36.7	13.6	0.00e+00	0	50	0	2927624192	45	13963
2026-01-28 20:42:45.81	250.89	8.82	-36.6	-36.6	13.7	6.90e-06	0	50	0	3003121664	45	13806
2026-01-28 20:42:46.82	251.11	8.87	-36.5	-36.4	13.8	0.00e+00	0	50	0	3078619136	45	13567
2026-01-28 20:42:47.82	251.32	8.92	-36.4	-36.4	13.8	0.00e+00	0	50	0	3154116608	44	14324
2026-01-28 20:42:48.83	251.54	8.96	-36.5	-36.4	13.8	0.00e+00	0	50	0	3221225472	44	14372
2026-01-28 20:42:49.84	251.76	9.01	-36.5	-36.5	13.8	0.00e+00	0	50	0	3296722944	44	14493
2026-01-28 20:42:50.85	251.98	9.06	-36.5	-36.4	13.8	0.00e+00	0	50	0	3372220416	44	14399
2026-01-28 20:42:51.86	252.20	9.11	-36.5	-36.4	13.8	0.00e+00	0	50	0	3447717888	44	14418
2026-01-28 20:42:52.86	252.42	9.16	-36.5	-36.5	13.7	0.00e+00	0	50	0	3523215360	44	14470
2026-01-28 20:42:53.87	252.65	9.21	-36.4	-36.3	13.8	0.00e+00	0	50	0	3598712832	44	14260
2026-01-28 20:42:54.88	252.87	9.25	-36.5	-36.4	13.8	6.90e-06	0	50	0	3674210304	44	14346
2026-01-28 20:42:55.88	253.09	9.30	-36.4	-36.3	13.8	0.00e+00	0	50	0	3749707776	44	14167
2026-01-28 20:42:56.89	253.32	9.35	-36.5	-36.4	13.7	0.00e+00	0	50	0	3833593856	44	14429
2026-01-28 20:42:57.90	253.55	9.39	-36.4	-36.3	13.7	0.00e+00	0	50	0	3909091328	44	14242
2026-01-28 20:42:58.91	253.77	9.44	-36.4	-36.4	13.8	0.00e+00	0	50	0	3984588800	44	14316
2026-01-28 20:42:59.92	254.00	9.49	-36.3	-36.3	13.8	0.00e+00	0	50	0	4060086272	44	14130
2026-01-28 20:43:00.93	254.23	9.53	-36.3	-36.2	13.8	0.00e+00	0	50	0	4135583744	44	14089
2026-01-28 20:43:01.93	254.46	9.58	-36.5	-36.4	13.7	0.00e+00	0	50	0	4211081216	44	14389
2026-01-28 20:43:02.94	254.69	9.63	-36.3	-36.2	13.9	0.00e+00	0	50	0	4286578688	44	14031
2026-01-28 20:43:03.95	254.92	9.67	-36.2	-36.1	13.9	0.00e+00	0	50	0	4362076160	44	13899
2026-01-28 20:43:04.96	255.15	9.72	-36.2	-36.1	13.9	0.00e+00	0	50	0	4429185024	44	13902
2026-01-28 20:43:05.97	255.39	9.76	-36.2	-36.1	14.0	0.00e+00	0	50	0	4504682496	44	13887
2026-01-28 20:43:06.98	255.62	9.81	-36.2	-36.1	13.9	0.00e+00	0	50	0	4580179968	44	13950
2026-01-28 20:43:07.98	255.85	9.85	-36.2	-36.2	13.9	0.00e+00	0	50	0	4655677440	44	13980
2026-01-28 20:43:08.99	256.09	9.90	-36.3	-36.2	13.9	0.00e+00	0	50	0	4739563520	44	14014
2026-01-28 20:43:09.99	256.32	9.94	-36.3	-36.2	13.9	0.00e+00	0	50	0	4815060992	44	14056
2026-01-28 20:43:11.00	256.56	9.98	-36.3	-36.2	13.9	0.00e+00	0	50	0	4890558464	44	14102
2026-01-28 20:43:12.01	256.80	10.03	-36.2	-36.1	13.9	0.00e+00	0	50	0	4966055936	44	13884
2026-01-28 20:43:13.01	257.04	10.07	-36.2	-36.2	13.9	1.38e-05	0	50	0	5041553408	44	13973
2026-01-28 20:43:14.01	257.27	10.11	-36.2	-36.2	13.9	0.00e+00	0	51	0	5117050880	44	13995
2026-01-28 20:43:15.02	257.51	10.16	-36.1	-36.0	14.0	0.00e+00	0	50	0	5192548352	44	13775
2026-01-28 20:43:16.02	257.75	10.20	-36.1	-36.0	14.0	0.00e+00	0	51	0	5268045824	44	13759
2026-01-28 20:43:17.03	258.00	10.24	-36.3	-36.2	13.9	0.00e+00	0	51	0	5343543296	44	14053
2026-01-28 20:43:18.04	258.24	10.28	-36.1	-36.0	14.0	0.00e+00	0	51	0	5419040768	44	13733
2026-01-28 20:43:19.05	258.48	10.32	-36.0	-35.9	14.1	0.00e+00	0	51	0	5494538240	44	13555
2026-01-28 20:43:20.06	258.73	10.36	-36.0	-36.0	14.0	0.00e+00	0	51	0	5561647104	44	13633
2026-01-28 20:43:21.07	258.97	10.41	-36.2	-36.1	14.0	0.00e+00	0	51	0	5637144576	43	14658
2026-01-28 20:43:22.07	259.22	10.45	-36.2	-36.1	14.0	0.00e+00	0	50	0	5712642048	43	14707
2026-01-28 20:43:23.08	259.47	10.49	-36.1	-36.0	14.1	0.00e+00	0	51	0	5788139520	43	14542
2026-01-28 20:43:24.09	259.71	10.53	-36.1	-36.1	14.1	0.00e+00	0	51	0	5863636992	43	14611
2026-01-28 20:43:25.10	259.96	10.57	-36.2	-36.1	14.0	0.00e+00	0	51	0	5947523072	43	14721
2026-01-28 20:43:26.10	260.21	10.60	-36.2	-36.1	14.1	0.00e+00	0	51	0	6023020544	43	14657
2026-01-28 20:43:27.11	260.46	10.64	-36.0	-35.9	14.1	0.00e+00	0	51	0	6098518016	43	14380
2026-01-28 20:43:28.12	260.71	10.68	-36.1	-36.0	14.1	0.00e+00	0	51	0	6174015488	43	14567
2026-01-28 20:43:29.13	260.96	10.72	-36.1	-36.0	14.1	0.00e+00	0	51	0	6249512960	43	14491
2026-01-28 20:43:30.13	261.21	10.76	-36.0	-36.0	14.1	0.00e+00	0	51	0	6325010432	43	14453
2026-01-28 20:43:31.14	261.47	10.80	-36.0	-36.0	14.1	0.00e+00	0	50	0	6400507904	43	14454
2026-01-28 20:43:32.15	261.72	10.83	-36.0	-36.0	14.1	0.00e+00	0	51	0	6476005376	43	14453
2026-01-28 20:43:33.16	261.98	10.87	-36.1	-36.0	14.1	0.00e+00	0	51	0	6551502848	43	14548
2026-01-28 20:43:34.17	262.23	10.91	-36.1	-36.0	14.1	0.00e+00	0	51	0	6627000320	43	14482
2026-01-28 20:43:35.17	262.49	10.94	-36.0	-36.0	14.1	0.00e+00	0	51	0	6694109184	43	14470
2026-01-28 20:43:36.17	262.74	10.98	-35.9	-35.9	14.2	0.00e+00	0	51	0	6769606656	43	14291
2026-01-28 20:43:37.18	263.00	11.01	-35.9	-35.9	14.2	0.00e+00	0	51	0	6845104128	43	14296
2026-01-28 20:43:38.18	263.26	11.05	-36.0	-35.9	14.2	0.00e+00	0	50	0	6920601600	43	14411
2026-01-28 20:43:39.19	263.52	11.08	-35.9	-35.9	14.2	0.00e+00	0	51	0	6996099072	43	14307
2026-01-28 20:43:40.19	263.77	11.12	-36.1	-36.0	14.1	0.00e+00	0	51	0	7079985152	43	14487
2026-01-28 20:43:41.20	264.04	11.15	-36.1	-36.0	14.1	6.90e-06	0	51	0	7155482624	43	14593
2026-01-28 20:43:42.21	264.30	11.18	-36.0	-35.9	14.2	0.00e+00	0	51	0	7230980096	43	14346
2026-01-28 20:43:43.21	264.56	11.22	-36.0	-35.9	14.2	0.00e+00	0	51	0	7306477568	43	14402
2026-01-28 20:43:44.21	264.82	11.25	-35.9	-35.8	14.2	0.00e+00	0	51	0	7381975040	43	14205
2026-01-28 20:43:45.22	265.08	11.28	-35.9	-35.9	14.2	0.00e+00	0	51	0	7457472512	43	14277
2026-01-28 20:43:46.23	265.35	11.31	-35.9	-35.8	14.2	0.00e+00	0	51	0	7532969984	43	14214
2026-01-28 20:43:47.24	265.61	11.34	-35.9	-35.8	14.3	0.00e+00	0	51	0	7608467456	43	14225
2026-01-28 20:43:48.25	265.88	11.37	-35.9	-35.8	14.2	0.00e+00	0	51	0	7683964928	43	14198
2026-01-28 20:43:49.25	266.14	11.40	-36.0	-35.9	14.2	0.00e+00	0	51	0	7759462400	43	14358
2026-01-28 20:43:50.26	266.41	11.43	-35.9	-35.9	14.2	0.00e+00	0	51	0	7826571264	43	14313
2026-01-28 20:43:51.27	266.68	11.46	-35.9	-35.8	14.2	0.00e+00	0	51	0	7902068736	43	14274
2026-01-28 20:43:52.27	266.94	11.49	-35.8	-35.7	14.3	0.00e+00	0	51	0	7977566208	43	14054
2026-01-28 20:43:53.28	267.21	11.52	-35.8	-35.7	14.3	0.00e+00	0	51	0	8053063680	43	14054
2026-01-28 20:43:54.29	267.48	11.55	-35.9	-35.8	14.2	0.00e+00	0	51	0	8136949760	43	14229
2026-01-28 20:43:55.30	267.75	11.58	-36.0	-35.9	14.2	0.00e+00	0	51	0	8212447232	43	14400
2026-01-28 20:43:56.31	268.02	11.61	-35.8	-35.8	14.3	0.00e+00	0	51	0	8287944704	43	14137
2026-01-28 20:43:57.31	268.29	11.63	-35.8	-35.7	14.3	0.00e+00	0	51	0	8363442176	43	14089
2026-01-28 20:43:58.32	268.56	11.66	-35.7	-35.6	14.3	0.00e+00	0	51	0	8438939648	43	13881
2026-01-28 20:43:59.33	268.83	11.68	-35.7	-35.6	14.3	0.00e+00	0	51	0	8514437120	43	13907
2026-01-28 20:44:00.34	269.11	11.71	-35.8	-35.7	14.3	0.00e+00	0	51	0	8589934592	43	13987
2026-01-28 20:44:01.35	269.38	11.73	-35.8	-35.7	14.3	0.00e+00	0	51	0	8665432064	43	14021
2026-01-28 20:44:02.36	269.65	11.76	-35.8	-35.7	14.3	0.00e+00	0	51	0	8740929536	43	14075
2026-01-28 20:44:03.36	269.93	11.78	-35.7	-35.7	14.4	0.00e+00	0	51	0	8816427008	43	13972
2026-01-28 20:44:04.37	270.20	11.81	-35.8	-35.7	14.3	0.00e+00	0	51	0	8891924480	43	14087
2026-01-28 20:44:05.37	270.47	11.83	-35.7	-35.7	14.3	0.00e+00	0	51	0	8959033344	43	13953
2026-01-28 20:44:06.38	270.75	11.85	-35.7	-35.6	14.4	0.00e+00	0	51	0	9034530816	43	13826
2026-01-28 20:44:07.39	271.03	11.87	-35.7	-35.6	14.4	0.00e+00	0	51	0	9110028288	43	13831
2026-01-28 20:44:08.39	271.30	11.90	-35.7	-35.7	14.3	0.00e+00	0	51	0	9193914368	43	13984
2026-01-28 20:44:09.40	271.58	11.92	-35.8	-35.7	14.3	0.00e+00	0	51	0	9269411840	43	14041
2026-01-28 20:44:10.41	271.86	11.94	-35.6	-35.5	14.4	0.00e+00	0	51	0	9344909312	43	13775
2026-01-28 20:44:11.42	272.13	11.96	-35.7	-35.6	14.4	0.00e+00	0	51	0	9420406784	43	13842
2026-01-28 20:44:12.42	272.41	11.98	-35.7	-35.6	14.4	0.00e+00	0	51	0	9495904256	43	13843
2026-01-28 20:44:13.43	272.69	12.00	-35.7	-35.7	14.3	0.00e+00	0	51	0	9571401728	43	13965
2026-01-28 20:44:14.44	272.97	12.01	-35.6	-35.6	14.4	0.00e+00	0	51	0	9646899200	43	13807
2026-01-28 20:44:15.44	273.25	12.03	-35.7	-35.6	14.4	0.00e+00	0	51	0	9722396672	43	13891
2026-01-28 20:44:16.45	273.53	12.05	-35.8	-35.7	14.3	0.00e+00	0	51	0	9797894144	43	14097
2026-01-28 20:44:17.46	273.81	12.07	-35.7	-35.6	14.4	0.00e+00	0	51	0	9873391616	43	13949
2026-01-28 20:44:18.47	274.09	12.08	-35.6	-35.5	14.4	0.00e+00	0	51	0	9948889088	43	13776
2026-01-28 20:44:19.48	274.37	12.10	-35.7	-35.6	14.4	0.00e+00	0	51	0	10024386560	43	13910
2026-01-28 20:44:20.48	274.65	12.11	-35.7	-35.6	14.4	0.00e+00	0	51	0	10091495424	43	13837
2026-01-28 20:44:21.49	274.93	12.13	-35.7	-35.6	14.4	0.00e+00	0	51	0	10166992896	43	13850
2026-01-28 20:44:22.49	275.21	12.14	-35.6	-35.6	14.4	0.00e+00	0	51	0	10250878976	43	13802
2026-01-28 20:44:23.50	275.49	12.16	-35.6	-35.6	14.4	0.00e+00	0	51	0	10326376448	43	13807
2026-01-28 20:44:24.51	275.78	12.17	-35.6	-35.5	14.5	0.00e+00	0	51	0	10401873920	43	13778
2026-01-28 20:44:25.52	276.06	12.18	-35.7	-35.6	14.4	0.00e+00	0	51	0	10477371392	43	13860
2026-01-28 20:44:26.52	276.34	12.19	-35.6	-35.6	14.4	0.00e+00	0	51	0	10552868864	43	13819
2026-01-28 20:44:27.53	276.63	12.21	-35.7	-35.7	14.4	0.00e+00	0	51	0	10628366336	43	13956
2026-01-28 20:44:28.54	276.91	12.22	-35.7	-35.6	14.4	0.00e+00	0	51	0	10703863808	43	13912
2026-01-28 20:44:29.55	277.19	12.23	-35.7	-35.6	14.4	0.00e+00	0	51	0	10779361280	43	13941
2026-01-28 20:44:30.55	277.48	12.24	-35.6	-35.5	14.4	0.00e+00	0	51	0	10854858752	43	13760
2026-01-28 20:44:31.56	277.76	12.25	-35.7	-35.6	14.4	0.00e+00	0	51	0	10930356224	43	13934
2026-01-28 20:44:32.57	278.05	12.26	-35.7	-35.6	14.4	0.00e+00	0	51	0	11005853696	43	13832
2026-01-28 20:44:33.58	278.33	12.26	-35.7	-35.6	14.4	0.00e+00	0	51	0	11081351168	43	13947
2026-01-28 20:44:34.58	278.61	12.27	-35.7	-35.6	14.4	0.00e+00	0	51	0	11156848640	43	13891
2026-01-28 20:44:35.59	278.90	12.28	-35.6	-35.5	14.5	0.00e+00	0	51	0	11232346112	43	13774
2026-01-28 20:44:36.60	279.18	12.29	-35.6	-35.5	14.5	0.00e+00	0	51	0	11307843584	43	13724
2026-01-28 20:44:37.61	279.47	12.29	-35.7	-35.6	14.4	0.00e+00	0	51	0	11383341056	43	13912
2026-01-28 20:44:38.62	279.76	12.30	-35.6	-35.6	14.5	0.00e+00	0	51	0	11458838528	43	13810
2026-01-28 20:44:39.62	280.04	12.30	-35.6	-35.6	14.5	0.00e+00	0	51	0	11534336000	43	13792
2026-01-28 20:44:40.63	280.33	12.31	-35.8	-35.7	14.4	0.00e+00	0	51	0	11609833472	43	13987
2026-01-28 20:44:41.63	280.61	12.31	-35.7	-35.6	14.4	0.00e+00	0	51	0	11685330944	43	13899
2026-01-28 20:44:42.64	280.90	12.31	-35.7	-35.6	14.4	0.00e+00	0	51	0	11760828416	43	13935
2026-01-28 20:44:43.64	281.18	12.32	-35.8	-35.7	14.4	0.00e+00	0	51	0	11836325888	43	13977
2026-01-28 20:44:44.65	281.47	12.32	-35.7	-35.6	14.4	0.00e+00	0	51	0	11911823360	43	13854
2026-01-28 20:44:45.66	281.75	12.32	-35.7	-35.6	14.4	0.00e+00	0	51	0	11987320832	43	13934
2026-01-28 20:44:46.66	282.04	12.32	-35.7	-35.6	14.4	0.00e+00	0	51	0	12062818304	43	13916
2026-01-28 20:44:47.67	282.32	12.32	-35.7	-35.6	14.4	0.00e+00	0	51	0	12138315776	43	13905
2026-01-28 20:44:48.67	282.61	12.32	-35.7	-35.6	14.5	0.00e+00	0	51	0	12213813248	43	13941
2026-01-28 20:44:49.67	282.89	12.32	-35.8	-35.7	14.4	0.00e+00	0	51	0	12289310720	43	14075
2026-01-28 20:44:50.68	283.18	12.32	-35.7	-35.7	14.4	0.00e+00	0	51	0	12356419584	43	13969
2026-01-28 20:44:51.69	283.46	12.32	-35.7	-35.7	14.4	0.00e+00	0	51	0	12431917056	43	13975
2026-01-28 20:44:52.69	283.74	12.31	-35.7	-35.7	14.4	0.00e+00	0	51	0	12515803136	43	13981
2026-01-28 20:44:53.70	284.03	12.31	-35.8	-35.7	14.5	0.00e+00	0	51	0	12591300608	43	14014
2026-01-28 20:44:54.71	284.32	12.31	-35.8	-35.7	14.4	0.00e+00	0	51	0	12666798080	43	14064
2026-01-28 20:44:55.71	284.60	12.30	-35.9	-35.8	14.4	0.00e+00	0	51	0	12742295552	43	14140
2026-01-28 20:44:56.71	284.88	12.30	-35.9	-35.9	14.3	0.00e+00	0	51	0	12817793024	43	14292
2026-01-28 20:44:57.72	285.17	12.29	-35.8	-35.7	14.4	0.00e+00	0	51	0	12893290496	43	14078
2026-01-28 20:44:58.73	285.45	12.29	-35.8	-35.8	14.4	0.00e+00	0	51	0	12968787968	43	14122
2026-01-28 20:44:59.74	285.74	12.28	-35.8	-35.7	14.4	0.00e+00	0	51	0	13044285440	43	14077
2026-01-28 20:45:00.75	286.02	12.28	-35.9	-35.8	14.4	0.00e+00	0	51	0	13119782912	43	14180
2026-01-28 20:45:01.75	286.31	12.27	-35.9	-35.9	14.3	0.00e+00	0	51	0	13195280384	43	14310
2026-01-28 20:45:02.76	286.59	12.26	-35.9	-35.8	14.4	0.00e+00	0	51	0	13270777856	43	14186
2026-01-28 20:45:03.76	286.87	12.25	-35.9	-35.8	14.4	0.00e+00	0	51	0	13346275328	43	14231
2026-01-28 20:45:04.77	287.16	12.24	-35.8	-35.7	14.4	0.00e+00	0	51	0	13421772800	43	14091
2026-01-28 20:45:05.77	287.44	12.23	-35.9	-35.8	14.5	0.00e+00	0	51	0	13488881664	43	14155
2026-01-28 20:45:06.79	287.73	12.22	-35.9	-35.8	14.4	0.00e+00	0	51	0	13564379136	43	14151
2026-01-28 20:45:07.80	288.01	12.21	-35.9	-35.8	14.4	0.00e+00	0	51	0	13648265216	43	14185
2026-01-28 20:45:08.80	288.29	12.20	-35.9	-35.8	14.4	0.00e+00	0	51	0	13723762688	43	14248
2026-01-28 20:45:09.81	288.57	12.19	-35.9	-35.8	14.4	0.00e+00	0	51	0	13799260160	43	14160
2026-01-28 20:45:10.82	288.86	12.18	-35.9	-35.8	14.4	0.00e+00	0	51	0	13874757632	43	14165
2026-01-28 20:45:11.83	289.14	12.16	-35.9	-35.8	14.4	0.00e+00	0	51	0	13950255104	43	14267
2026-01-28 20:45:12.83	289.42	12.15	-35.9	-35.8	14.4	0.00e+00	0	51	0	14025752576	43	14168
2026-01-28 20:45:13.84	289.70	12.14	-35.9	-35.8	14.4	0.00e+00	0	51	0	14101250048	43	14274
2026-01-28 20:45:14.84	289.98	12.12	-36.0	-35.9	14.4	0.00e+00	0	51	0	14176747520	43	14367
2026-01-28 20:45:15.85	290.26	12.11	-35.9	-35.9	14.4	0.00e+00	0	51	0	14252244992	43	14296
2026-01-28 20:45:16.86	290.54	12.09	-35.9	-35.8	14.4	0.00e+00	0	51	0	14327742464	43	14230
2026-01-28 20:45:17.86	290.82	12.08	-36.0	-35.9	14.4	0.00e+00	0	51	0	14403239936	43	14330
2026-01-28 20:45:18.87	291.10	12.06	-36.0	-35.9	14.4	0.00e+00	0	51	0	14478737408	43	14366
2026-01-28 20:45:19.87	291.38	12.04	-35.9	-35.8	14.4	0.00e+00	0	51	0	14554234880	43	14237
2026-01-28 20:45:20.88	291.66	12.02	-35.9	-35.9	14.4	0.00e+00	0	51	0	14621343744	43	14276
2026-01-28 20:45:21.89	291.94	12.01	-35.9	-35.8	14.4	0.00e+00	0	51	0	14696841216	43	14197
2026-01-28 20:45:22.89	292.21	11.99	-35.9	-35.8	14.4	0.00e+00	0	51	0	14780727296	43	14261
2026-01-28 20:45:23.90	292.49	11.97	-36.0	-35.9	14.3	0.00e+00	0	51	0	14856224768	43	14416
2026-01-28 20:45:24.91	292.77	11.95	-36.0	-35.9	14.4	0.00e+00	0	51	0	14931722240	43	14340
2026-01-28 20:45:25.91	293.04	11.93	-36.0	-35.9	14.3	0.00e+00	0	51	0	15007219712	43	14424
2026-01-28 20:45:26.92	293.32	11.91	-35.9	-35.9	14.4	0.00e+00	0	51	0	15082717184	43	14323
2026-01-28 20:45:27.93	293.59	11.89	-35.9	-35.9	14.4	0.00e+00	0	51	0	15158214656	43	14298
2026-01-28 20:45:28.93	293.87	11.86	-35.9	-35.8	14.4	0.00e+00	0	51	0	15233712128	43	14228
2026-01-28 20:45:29.94	294.14	11.84	-36.0	-35.9	14.3	0.00e+00	0	51	0	15309209600	43	14332
2026-01-28 20:45:30.94	294.42	11.82	-36.1	-36.0	14.3	0.00e+00	0	51	0	15384707072	43	14489
2026-01-28 20:45:31.95	294.69	11.80	-36.1	-36.0	14.3	0.00e+00	0	51	0	15460204544	43	14581
2026-01-28 20:45:32.96	294.96	11.77	-36.0	-35.9	14.3	0.00e+00	0	51	0	15535702016	43	14432
2026-01-28 20:45:33.97	295.24	11.75	-36.0	-35.9	14.3	0.00e+00	0	51	0	15611199488	43	14343
2026-01-28 20:45:34.98	295.51	11.72	-36.1	-36.0	14.3	0.00e+00	0	51	0	15678308352	43	14587
2026-01-28 20:45:35.99	295.78	11.70	-36.1	-36.0	14.3	0.00e+00	0	51	0	15753805824	43	14500
2026-01-28 20:45:37.00	296.05	11.67	-36.0	-35.9	14.3	0.00e+00	0	51	0	15837691904	43	14380
2026-01-28 20:45:38.01	296.32	11.65	-35.9	-35.9	14.3	0.00e+00	0	51	0	15913189376	43	14281
2026-01-28 20:45:39.01	296.59	11.62	-36.0	-35.9	14.3	0.00e+00	0	51	0	15988686848	43	14347
2026-01-28 20:45:40.02	296.86	11.59	-36.0	-35.9	14.3	0.00e+00	0	51	0	16064184320	43	14428
2026-01-28 20:45:41.03	297.13	11.57	-36.0	-35.9	14.3	0.00e+00	0	51	0	16139681792	43	14402
2026-01-28 20:45:42.04	297.40	11.54	-36.0	-35.9	14.3	0.00e+00	0	51	0	16215179264	43	14349
2026-01-28 20:45:43.05	297.67	11.51	-36.1	-36.1	14.1	0.00e+00	0	51	0	16290676736	43	14647
2026-01-28 20:45:44.04	297.93	11.48	-36.0	-36.0	14.2	0.00e+00	0	51	0	16366174208	43	14454
2026-01-28 20:45:45.05	298.20	11.45	-35.9	-35.8	14.3	0.00e+00	0	51	0	16441671680	43	14270
2026-01-28 20:45:46.06	298.46	11.42	-36.1	-36.0	14.2	0.00e+00	0	51	0	16517169152	43	14511
2026-01-28 20:45:47.06	298.72	11.39	-36.1	-36.0	14.2	0.00e+00	0	51	0	16592666624	43	14516
2026-01-28 20:45:48.07	298.99	11.36	-36.1	-36.0	14.2	0.00e+00	0	51	0	16668164096	43	14490
2026-01-28 20:45:49.07	299.25	11.33	-36.0	-35.9	14.2	0.00e+00	0	51	0	16743661568	43	14367
2026-01-28 20:45:50.08	299.51	11.30	-36.1	-36.0	14.1	0.00e+00	0	51	0	16819159040	43	14485
2026-01-28 20:45:51.09	299.78	11.27	-36.0	-35.9	14.1	0.00e+00	0	51	0	16886267904	43	14389
2026-01-28 20:45:52.09	300.04	11.24	-36.0	-35.9	14.1	0.00e+00	0	51	0	16970153984	43	14413
2026-01-28 20:45:53.10	300.30	11.20	-36.2	-36.1	14.0	0.00e+00	0	51	0	17045651456	43	14652
2026-01-28 20:45:54.11	300.56	11.17	-36.0	-35.9	14.1	0.00e+00	0	51	0	17121148928	43	14363
2026-01-28 20:45:55.12	300.82	11.14	-36.0	-35.9	14.2	0.00e+00	0	51	0	17196646400	43	14387
2026-01-28 20:45:56.13	301.08	11.10	-36.1	-36.0	14.1	0.00e+00	0	51	0	17272143872	43	14567
2026-01-28 20:45:57.13	301.33	11.07	-36.0	-36.0	14.2	0.00e+00	0	51	0	17347641344	43	14469
2026-01-28 20:45:58.13	301.59	11.04	-36.2	-36.1	14.1	0.00e+00	0	51	0	17423138816	43	14645
2026-01-28 20:45:59.14	301.84	11.00	-36.1	-36.1	14.1	0.00e+00	0	51	0	17498636288	43	14625
2026-01-28 20:46:00.15	302.10	10.97	-36.1	-36.1	14.1	0.00e+00	0	51	0	17574133760	43	14637
2026-01-28 20:46:01.16	302.36	10.93	-36.1	-36.1	14.1	0.00e+00	0	51	0	17649631232	43	14625
2026-01-28 20:46:02.17	302.61	10.89	-36.1	-36.1	14.1	0.00e+00	0	51	0	17725128704	43	14650
2026-01-28 20:46:03.18	302.87	10.86	-36.2	-36.1	14.1	0.00e+00	0	51	0	17800626176	43	14701
2026-01-28 20:46:04.19	303.12	10.82	-36.3	-36.2	14.0	0.00e+00	0	51	0	17876123648	43	14913
2026-01-28 20:46:05.19	303.37	10.79	-36.2	-36.1	14.1	0.00e+00	0	51	0	17951621120	43	14667
2026-01-28 20:46:06.20	303.62	10.75	-36.3	-36.3	14.0	0.00e+00	0	51	0	18027118592	43	14955
2026-01-28 20:46:07.20	303.87	10.71	-36.2	-36.1	14.0	0.00e+00	0	51	0	18102616064	43	14757
2026-01-28 20:46:08.21	304.12	10.67	-36.2	-36.1	14.0	0.00e+00	0	51	0	18178113536	43	14720
2026-01-28 20:46:09.22	304.37	10.63	-36.2	-36.1	14.1	0.00e+00	0	51	0	18253611008	43	14694
2026-01-28 20:46:10.22	304.61	10.60	-36.2	-36.1	14.1	0.00e+00	0	51	0	18329108480	43	14685
2026-01-28 20:46:11.23	304.86	10.56	-36.3	-36.2	14.0	0.00e+00	0	51	0	18404605952	43	14921
2026-01-28 20:46:12.24	305.11	10.52	-36.3	-36.3	14.0	0.00e+00	0	51	0	18480103424	43	14966
2026-01-28 20:46:13.24	305.35	10.48	-36.4	-36.3	14.0	0.00e+00	0	51	0	18555600896	43	15055
2026-01-28 20:46:14.25	305.60	10.44	-36.3	-36.2	14.0	0.00e+00	0	51	0	18631098368	43	14905
2026-01-28 20:46:15.26	305.84	10.40	-36.3	-36.3	14.0	0.00e+00	0	51	0	18706595840	43	14975
2026-01-28 20:46:16.26	306.08	10.36	-36.4	-36.3	14.0	0.00e+00	0	51	0	18782093312	43	15068
2026-01-28 20:46:17.27	306.33	10.32	-36.3	-36.2	14.0	0.00e+00	0	51	0	18857590784	43	14869
2026-01-28 20:46:18.28	306.57	10.27	-36.2	-36.2	14.0	0.00e+00	0	51	0	18933088256	43	14788
2026-01-28 20:46:19.28	306.81	10.23	-36.2	-36.2	14.1	0.00e+00	0	51	0	19008585728	43	14782
2026-01-28 20:46:20.28	307.05	10.19	-36.3	-36.3	14.0	0.00e+00	0	51	0	19084083200	43	14962
2026-01-28 20:46:21.29	307.28	10.15	-36.4	-36.3	13.9	0.00e+00	0	51	0	19159580672	43	15041
2026-01-28 20:46:22.30	307.52	10.11	-36.3	-36.3	14.0	0.00e+00	0	51	0	19235078144	43	14966
2026-01-28 20:46:23.30	307.76	10.06	-36.3	-36.2	14.0	0.00e+00	0	51	0	19310575616	43	14917
2026-01-28 20:46:24.30	307.99	10.02	-36.4	-36.3	13.9	0.00e+00	0	51	0	19386073088	43	15006
2026-01-28 20:46:25.31	308.23	9.98	-36.4	-36.3	13.9	0.00e+00	0	51	0	19461570560	43	15098
2026-01-28 20:46:26.31	308.46	9.94	-36.3	-36.3	13.9	6.90e-06	0	51	0	19537068032	43	15000
2026-01-28 20:46:27.33	308.70	9.89	-36.5	-36.4	13.8	0.00e+00	0	51	0	19612565504	43	15192
2026-01-28 20:46:28.33	308.93	9.85	-36.4	-36.3	13.9	0.00e+00	0	51	0	19688062976	43	15037
2026-01-28 20:46:29.33	309.16	9.80	-36.5	-36.4	13.8	0.00e+00	0	51	0	19763560448	43	15237
2026-01-28 20:46:30.34	309.39	9.76	-36.3	-36.3	13.9	0.00e+00	0	51	0	19839057920	43	14985
2026-01-28 20:46:31.35	309.63	9.71	-36.5	-36.4	13.8	0.00e+00	0	51	0	19914555392	43	15222
2026-01-28 20:46:32.36	309.86	9.67	-36.5	-36.4	13.8	0.00e+00	0	51	0	19990052864	43	15211
2026-01-28 20:46:33.37	310.08	9.62	-36.4	-36.4	13.8	0.00e+00	0	51	0	20065550336	43	15137
2026-01-28 20:46:34.37	310.31	9.58	-36.4	-36.4	13.8	0.00e+00	0	51	0	20141047808	43	15162
2026-01-28 20:46:35.38	310.54	9.53	-36.6	-36.5	13.7	0.00e+00	0	51	0	20216545280	43	15376
2026-01-28 20:46:36.39	310.77	9.49	-36.4	-36.4	13.8	0.00e+00	0	51	0	20283654144	43	15121
2026-01-28 20:46:37.40	310.99	9.44	-36.5	-36.4	13.8	6.90e-06	0	51	0	20367540224	43	15252
2026-01-28 20:46:38.40	311.21	9.39	-36.5	-36.4	13.8	0.00e+00	0	51	0	20443037696	43	15243
2026-01-28 20:46:39.41	311.44	9.35	-36.5	-36.4	13.8	0.00e+00	0	51	0	20518535168	43	15234
2026-01-28 20:46:40.41	311.66	9.30	-36.5	-36.5	13.7	0.00e+00	0	51	0	20594032640	43	15330
2026-01-28 20:46:41.42	311.88	9.25	-36.5	-36.5	13.8	6.90e-06	0	51	0	20669530112	43	15311
2026-01-28 20:46:42.42	312.10	9.21	-36.5	-36.5	13.7	0.00e+00	0	51	0	20745027584	43	15324
2026-01-28 20:46:43.42	312.32	9.16	-36.5	-36.5	13.8	0.00e+00	0	51	0	20820525056	43	15330
2026-01-28 20:46:44.43	312.54	9.11	-36.6	-36.5	13.7	0.00e+00	0	51	0	20896022528	43	15428
2026-01-28 20:46:45.44	312.76	9.06	-36.7	-36.6	13.7	0.00e+00	0	52	0	20971520000	43	15552
2026-01-28 20:46:46.45	312.98	9.02	-36.6	-36.5	13.6	0.00e+00	0	51	0	21047017472	44	14572
2026-01-28 20:46:47.45	313.19	8.97	-36.6	-36.6	13.6	0.00e+00	0	51	0	21122514944	44	14639
2026-01-28 20:46:48.46	313.41	8.92	-36.6	-36.6	13.6	0.00e+00	0	52	0	21198012416	44	14623
2026-01-28 20:46:49.47	313.62	8.87	-36.5	-36.5	13.7	0.00e+00	0	51	0	21273509888	44	14486
2026-01-28 20:46:50.48	313.84	8.82	-36.6	-36.5	13.6	0.00e+00	0	51	0	21349007360	44	14535
2026-01-28 20:46:51.48	314.05	8.77	-36.5	-36.5	13.7	0.00e+00	0	51	0	21424504832	44	14484
2026-01-28 20:46:52.49	314.26	8.73	-36.4	-36.4	13.7	0.00e+00	0	52	0	21500002304	44	14325
2026-01-28 20:46:53.49	314.47	8.68	-36.6	-36.6	13.6	0.00e+00	0	51	0	21575499776	44	14627
2026-01-28 20:46:54.50	314.69	8.63	-36.7	-36.6	13.5	0.00e+00	0	51	0	21650997248	44	14761
2026-01-28 20:46:55.50	314.89	8.58	-36.6	-36.5	13.6	0.00e+00	0	51	0	21726494720	44	14510
2026-01-28 20:46:56.51	315.10	8.53	-36.7	-36.6	13.6	0.00e+00	0	51	0	21801992192	44	14687
2026-01-28 20:46:57.51	315.31	8.48	-36.7	-36.7	13.6	0.00e+00	0	52	0	21877489664	44	14795
2026-01-28 20:46:58.51	315.52	8.43	-36.7	-36.7	13.5	6.90e-06	0	51	0	21952987136	44	14820
2026-01-28 20:46:59.52	315.72	8.38	-36.7	-36.6	13.6	0.00e+00	0	51	0	22028484608	44	14676
2026-01-28 20:47:00.53	315.93	8.33	-36.7	-36.6	13.6	0.00e+00	0	51	0	22103982080	44	14705
2026-01-28 20:47:01.53	316.13	8.28	-36.7	-36.6	13.6	6.90e-06	0	51	0	22179479552	44	14714
2026-01-28 20:47:02.54	316.34	8.23	-36.7	-36.6	13.5	0.00e+00	0	52	0	22254977024	44	14772
2026-01-28 20:47:03.55	316.54	8.18	-36.9	-36.8	13.4	0.00e+00	0	51	0	22330474496	44	15036
2026-01-28 20:47:04.55	316.74	8.13	-36.7	-36.6	13.5	1.38e-05	0	52	0	22405971968	44	14740
2026-01-28 20:47:05.56	316.94	8.08	-36.7	-36.6	13.5	0.00e+00	0	51	0	22481469440	44	14737
2026-01-28 20:47:06.57	317.14	8.03	-36.8	-36.8	13.4	0.00e+00	0	51	0	22556966912	44	14963
2026-01-28 20:47:07.56	317.34	7.98	-36.9	-36.9	13.4	0.00e+00	0	51	0	22624075776	44	15142
2026-01-28 20:47:08.57	317.54	7.92	-36.8	-36.7	13.5	0.00e+00	0	52	0	22699573248	44	14892
2026-01-28 20:47:09.57	317.73	7.87	-36.8	-36.7	13.5	0.00e+00	0	51	0	22775070720	44	14935
2026-01-28 20:47:10.58	317.93	7.82	-36.9	-36.8	13.4	2.08e-05	0	51	0	22850568192	44	15030
2026-01-28 20:47:11.59	318.13	7.77	-36.9	-36.8	13.4	6.90e-06	0	51	0	22926065664	44	15100
2026-01-28 20:47:12.59	318.32	7.72	-36.9	-36.8	13.4	1.38e-05	0	51	0	23009951744	44	15030
2026-01-28 20:47:13.60	318.52	7.67	-36.9	-36.8	13.4	6.90e-06	0	51	0	23085449216	44	15082
2026-01-28 20:47:14.60	318.71	7.62	-36.9	-36.9	13.3	0.00e+00	0	52	0	23160946688	44	15163
2026-01-28 20:47:15.61	318.90	7.56	-37.0	-36.9	13.3	0.00e+00	0	51	0	23236444160	44	15237
2026-01-28 20:47:16.62	319.10	7.51	-37.1	-37.0	13.3	0.00e+00	0	51	0	23311941632	44	15403
2026-01-28 20:47:17.62	319.29	7.46	-37.0	-37.0	13.2	0.00e+00	0	52	0	23387439104	44	15375
2026-01-28 20:47:18.63	319.48	7.41	-37.1	-37.0	13.2	0.00e+00	0	51	0	23462936576	44	15384
2026-01-28 20:47:19.64	319.67	7.35	-37.1	-37.0	13.2	6.90e-06	0	51	0	23538434048	44	15434
2026-01-28 20:47:20.64	319.85	7.30	-37.0	-37.0	13.2	2.08e-05	0	52	0	23613931520	44	15361
2026-01-28 20:47:21.65	320.04	7.25	-36.9	-36.8	13.3	0.00e+00	0	52	0	23689428992	44	15098
2026-01-28 20:47:22.66	320.23	7.20	-37.0	-36.9	13.3	0.00e+00	0	51	0	23756537856	44	15280
2026-01-28 20:47:23.66	320.41	7.15	-37.1	-37.0	13.2	0.00e+00	0	51	0	23832035328	44	15394
2026-01-28 20:47:24.67	320.60	7.09	-37.0	-37.0	13.2	6.90e-06	0	52	0	23907532800	44	15311
2026-01-28 20:47:25.68	320.78	7.04	-37.2	-37.1	13.1	6.90e-06	0	52	0	23983030272	45	14776
2026-01-28 20:47:26.68	320.97	6.99	-37.3	-37.3	13.0	6.90e-06	0	52	0	24058527744	45	15011
2026-01-28 20:47:27.69	321.15	6.93	-37.2	-37.2	13.1	2.08e-05	0	52	0	24142413824	45	14837
2026-01-28 20:47:28.70	321.33	6.88	-37.1	-37.1	13.2	1.38e-05	0	52	0	24217911296	45	14655
2026-01-28 20:47:29.70	321.51	6.83	-37.1	-37.1	13.2	1.38e-05	0	52	0	24293408768	45	14681
2026-01-28 20:47:30.71	321.69	6.78	-37.1	-37.1	13.2	6.90e-06	0	51	0	24368906240	45	14664
2026-01-28 20:47:31.72	321.87	6.72	-37.2	-37.1	13.1	6.90e-06	0	51	0	24444403712	45	14755
2026-01-28 20:47:32.73	322.05	6.67	-37.3	-37.3	13.1	0.00e+00	0	52	0	24519901184	45	14960
2026-01-28 20:47:33.73	322.23	6.62	-37.2	-37.2	13.1	1.38e-05	0	52	0	24595398656	45	14798
2026-01-28 20:47:34.74	322.41	6.56	-37.3	-37.3	13.0	0.00e+00	0	52	0	24670896128	45	14982
2026-01-28 20:47:35.75	322.58	6.51	-37.3	-37.3	13.0	6.90e-06	0	52	0	24746393600	45	14968
2026-01-28 20:47:36.75	322.76	6.46	-37.3	-37.3	13.0	3.46e-05	0	51	0	24821891072	45	14953
2026-01-28 20:47:37.76	322.93	6.40	-37.3	-37.3	13.0	0.00e+00	0	52	0	24888999936	45	14985
2026-01-28 20:47:38.76	323.11	6.35	-37.3	-37.3	13.0	6.90e-06	0	52	0	24964497408	45	14989
2026-01-28 20:47:39.77	323.28	6.30	-37.5	-37.4	12.9	0.00e+00	0	51	0	25039994880	45	15235
2026-01-28 20:47:40.77	323.45	6.24	-37.4	-37.4	13.0	1.38e-05	0	52	0	25115492352	45	15149
2026-01-28 20:47:41.78	323.62	6.19	-37.5	-37.5	12.9	1.38e-05	0	52	0	25190989824	45	15377
2026-01-28 20:47:42.79	323.80	6.14	-37.5	-37.4	12.9	1.38e-05	0	52	0	25274875904	45	15240
2026-01-28 20:47:43.80	323.97	6.08	-37.6	-37.5	12.8	6.90e-06	0	52	0	25350373376	45	15462
2026-01-28 20:47:44.81	324.14	6.03	-37.6	-37.6	12.8	2.77e-05	0	52	0	25425870848	45	15491
2026-01-28 20:47:45.82	324.31	5.97	-37.6	-37.5	12.8	1.38e-05	0	52	0	25501368320	45	15416
2026-01-28 20:47:46.83	324.47	5.92	-37.5	-37.4	12.9	6.90e-06	0	52	0	25576865792	45	15290
2026-01-28 20:47:47.83	324.64	5.87	-37.7	-37.6	12.8	4.16e-05	0	52	0	25652363264	45	15628
2026-01-28 20:47:48.83	324.81	5.81	-37.6	-37.6	12.8	2.08e-05	0	51	0	25727860736	46	14691
2026-01-28 20:47:49.84	324.97	5.76	-37.7	-37.6	12.7	3.46e-05	0	52	0	25803358208	46	14752
2026-01-28 20:47:50.84	325.14	5.71	-37.8	-37.7	12.7	1.38e-05	0	51	0	25878855680	46	14916
2026-01-28 20:47:51.85	325.30	5.65	-37.8	-37.8	12.7	6.24e-05	0	52	0	25954353152	46	14977
2026-01-28 20:47:52.86	325.46	5.60	-37.8	-37.7	12.7	5.54e-05	0	52	0	26021462016	46	14930
2026-01-28 20:47:53.86	325.63	5.54	-37.8	-37.8	12.7	2.77e-05	0	52	0	26096959488	46	14987
2026-01-28 20:47:54.87	325.79	5.49	-37.9	-37.8	12.6	1.38e-05	0	52	0	26172456960	46	15099
2026-01-28 20:47:55.88	325.95	5.44	-37.8	-37.8	12.6	3.46e-05	0	52	0	26247954432	46	15066
2026-01-28 20:47:56.89	326.11	5.38	-37.9	-37.9	12.5	3.46e-05	0	52	0	26323451904	46	15217
2026-01-28 20:47:57.89	326.27	5.33	-38.0	-37.9	12.5	6.24e-05	0	52	0	26407337984	46	15253
2026-01-28 20:47:58.90	326.43	5.27	-38.2	-38.1	12.4	4.85e-05	0	52	0	26482835456	46	15596
2026-01-28 20:47:59.91	326.59	5.22	-37.9	-37.8	12.6	4.16e-05	0	52	0	26558332928	46	15068
2026-01-28 20:48:00.92	326.75	5.17	-37.9	-37.9	12.5	7.62e-05	0	52	0	26633830400	46	15225
2026-01-28 20:48:01.92	326.90	5.11	-37.9	-37.9	12.5	3.46e-05	0	51	0	26709327872	46	15161
2026-01-28 20:48:02.93	327.06	5.06	-37.9	-37.8	12.5	2.77e-05	0	52	0	26784825344	46	15080
2026-01-28 20:48:03.93	327.21	5.01	-37.9	-37.9	12.5	3.46e-05	0	52	0	26860322816	46	15225
2026-01-28 20:48:04.94	327.37	4.95	-51.9	-54.0	3.7	0.00e+00	18	52	0	26919043072	74	19370
2026-01-28 20:48:05.95	327.52	4.90	-52.8	-55.0	3.7	0.00e+00	0	51	104	26919043072	76	19263
2026-01-28 20:48:06.96	327.68	4.84	-53.0	-55.2	3.7	0.00e+00	0	51	104	26919043072	76	19788
2026-01-28 20:48:07.96	327.83	4.79	-53.2	-55.3	3.7	0.00e+00	0	51	104	26919043072	76	20047
2026-01-28 20:48:08.97	327.98	4.74	-53.3	-55.5	3.7	0.00e+00	0	51	104	26919043072	77	19262
2026-01-28 20:48:09.98	328.13	4.68	-53.4	-55.5	3.7	0.00e+00	0	51	104	26919043072	77	19319
2026-01-28 20:48:10.99	328.28	4.63	-53.4	-55.6	3.7	0.00e+00	0	51	104	26919043072	77	19503
2026-01-28 20:48:12.00	328.43	4.57	-53.4	-55.5	3.7	0.00e+00	0	51	104	26919043072	77	19413
2026-01-28 20:48:13.01	328.58	4.52	-53.3	-55.5	3.7	0.00e+00	0	51	104	26919043072	77	19298
2026-01-28 20:48:14.01	328.73	4.47	-53.2	-55.3	3.7	0.00e+00	0	51	104	26919043072	77	19004
2026-01-28 20:48:15.02	328.88	4.41	-53.1	-55.3	3.7	0.00e+00	0	51	104	26919043072	77	18830
2026-01-28 20:48:16.03	329.03	4.36	-53.2	-55.4	3.7	0.00e+00	0	51	104	26919043072	77	19055
2026-01-28 20:48:17.03	329.17	4.30	-53.3	-55.4	3.7	0.00e+00	0	51	104	26919043072	77	19190
2026-01-28 20:48:18.04	329.32	4.25	-53.3	-55.4	3.7	0.00e+00	0	50	104	26919043072	77	19255
2026-01-28 20:48:19.04	329.46	4.20	-53.4	-55.5	3.7	0.00e+00	0	51	104	26919043072	77	19435
2026-01-28 20:48:20.05	329.61	4.14	-53.4	-55.6	3.7	0.00e+00	0	51	104	26919043072	77	19528
2026-01-28 20:48:21.07	329.75	4.09	-53.5	-55.6	3.7	0.00e+00	0	51	104	26919043072	77	19579
2026-01-28 20:48:22.07	329.90	4.03	-53.5	-55.6	3.7	0.00e+00	0	51	104	26919043072	77	19670
2026-01-28 20:48:23.08	330.04	3.98	-53.5	-55.7	3.7	0.00e+00	0	50	104	26919043072	77	19730
2026-01-28 20:48:24.09	330.18	3.93	-53.6	-55.7	3.7	0.00e+00	0	50	104	26919043072	77	19787
2026-01-28 20:48:25.10	330.32	3.87	-53.6	-55.7	3.7	0.00e+00	0	50	104	26919043072	77	19752
2026-01-28 20:48:26.10	330.46	3.82	-53.5	-55.7	3.7	0.00e+00	0	50	104	26919043072	77	19763
2026-01-28 20:48:27.11	330.61	3.77	-53.5	-55.6	3.7	0.00e+00	0	50	104	26919043072	77	19592
2026-01-28 20:48:28.12	330.75	3.71	-53.5	-55.6	3.7	0.00e+00	0	50	104	26919043072	77	19560
2026-01-28 20:48:29.13	330.88	3.66	-53.4	-55.6	3.7	0.00e+00	0	50	104	26919043072	77	19544
2026-01-28 20:48:30.13	331.02	3.61	-53.4	-55.6	3.7	0.00e+00	0	50	104	26919043072	77	19503
2026-01-28 20:48:31.14	331.16	3.55	-53.4	-55.5	3.7	0.00e+00	0	50	104	26919043072	77	19470
2026-01-28 20:48:32.15	331.30	3.50	-53.4	-55.6	3.7	0.00e+00	0	50	104	26919043072	77	19482
2026-01-28 20:48:33.16	331.43	3.44	-53.4	-55.5	3.7	0.00e+00	0	50	104	26919043072	77	19413
2026-01-28 20:48:34.17	331.57	3.39	-53.4	-55.5	3.7	0.00e+00	0	50	104	26919043072	77	19442
2026-01-28 20:48:35.17	331.70	3.34	-53.4	-55.5	3.7	0.00e+00	0	50	104	26919043072	77	19360
2026-01-28 20:48:36.18	331.84	3.28	-53.4	-55.5	3.7	0.00e+00	0	50	104	26919043072	77	19452
2026-01-28 20:48:37.19	331.97	3.23	-53.4	-55.5	3.7	0.00e+00	0	50	104	26919043072	77	19409
2026-01-28 20:48:38.19	332.11	3.18	-53.4	-55.5	3.7	0.00e+00	0	50	104	26919043072	77	19353
2026-01-28 20:48:39.20	332.24	3.12	-53.4	-55.5	3.7	0.00e+00	0	50	104	26919043072	77	19265
2026-01-28 20:48:40.21	332.37	3.07	-53.3	-55.4	3.7	0.00e+00	0	50	104	26919043072	77	19255
2026-01-28 20:48:41.21	332.50	3.02	-53.3	-55.5	3.7	0.00e+00	0	50	104	26919043072	77	19300
2026-01-28 20:48:42.22	332.63	2.96	-53.3	-55.5	3.7	0.00e+00	0	50	104	26919043072	77	19281
2026-01-28 20:48:43.23	332.77	2.91	-53.3	-55.5	3.7	0.00e+00	0	50	104	26919043072	77	19291
2026-01-28 20:48:44.23	332.89	2.86	-53.3	-55.5	3.7	0.00e+00	0	50	104	26919043072	77	19304
2026-01-28 20:48:45.24	333.02	2.80	-53.3	-55.5	3.7	0.00e+00	0	50	104	26919043072	77	19258
2026-01-28 20:48:46.24	333.15	2.75	-53.3	-55.4	3.7	0.00e+00	0	50	104	26919043072	77	19185
2026-01-28 20:48:47.25	333.28	2.70	-53.3	-55.4	3.7	0.00e+00	0	50	104	26919043072	77	19228
2026-01-28 20:48:48.26	333.41	2.65	-53.3	-55.4	3.7	0.00e+00	0	50	104	26919043072	77	19182
2026-01-28 20:48:49.27	333.54	2.59	-53.3	-55.4	3.7	0.00e+00	0	50	104	26919043072	77	19237
2026-01-28 20:48:50.27	333.66	2.54	-53.3	-55.4	3.7	0.00e+00	0	50	104	26919043072	77	19167
2026-01-28 20:48:51.28	333.79	2.49	-53.3	-55.4	3.7	0.00e+00	0	50	104	26919043072	77	19143
2026-01-28 20:48:52.29	333.91	2.43	-53.3	-55.4	3.7	0.00e+00	0	50	104	26919043072	77	19108
2026-01-28 20:48:53.30	334.04	2.38	-53.3	-55.4	3.7	0.00e+00	0	50	104	26919043072	77	19153
2026-01-28 20:48:54.31	334.16	2.33	-53.3	-55.4	3.7	0.00e+00	0	50	104	26919043072	77	19197
2026-01-28 20:48:55.32	334.29	2.27	-53.3	-55.4	3.7	0.00e+00	0	50	104	26919043072	77	19186
2026-01-28 20:48:56.33	334.41	2.22	-53.3	-55.4	3.7	0.00e+00	0	50	104	26919043072	77	19133
2026-01-28 20:48:57.33	334.53	2.17	-53.3	-55.4	3.7	0.00e+00	0	50	104	26919043072	77	19196
2026-01-28 20:48:58.34	334.66	2.12	-53.3	-55.4	3.7	0.00e+00	0	50	104	26919043072	77	19165
2026-01-28 20:48:59.35	334.78	2.06	-53.3	-55.4	3.7	0.00e+00	0	50	104	26919043072	77	19192
2026-01-28 20:49:00.36	334.90	2.01	-53.3	-55.4	3.7	0.00e+00	0	50	104	26919043072	77	19140

#Closed at: 2026-01-28 20:49:01
#Recorded file [26919 MB]: D:/lorett/data/31041_260128_234038.dat