passes_logs/2026/01/28/R3.2S_Murmansk/R3.2S_Murmansk__20260128_205917_TY-42_rec.log

#Pass ID: 20260128_205917_TY-42
#Satellite: TY-42
#Configuration: TY-42_900M
#almurnet v.1.7.20251203
#Start time: 2026-01-28 20:59:19

#Version: 2.2.20231116
#Station: R3.2S_Murmansk
#Location: 33.079688 lon 68.888172 lat
#TLE: 1 64048U 25103A   26028.60844907  .00008011  00000-0  38191-3 0 09994
#TLE: 2 64048 097.4119 103.7705 0001778 092.6266 304.9547 15.19172955 38886

#Time	Az	El	Level	Level2	SNR	BER	BlckErr	Temp	State	Recorded	gain1	gain2
2026-01-28 20:59:19.78	221.05	2.14	-54.1	-56.2	6.3	0.00e+00	0	49	0	0	79	18666
2026-01-28 20:59:20.79	221.16	2.20	-54.1	-56.2	6.2	0.00e+00	0	49	104	0	79	18761
2026-01-28 20:59:21.80	221.27	2.26	-54.0	-56.2	6.2	0.00e+00	0	49	104	0	79	18743
2026-01-28 20:59:22.81	221.38	2.31	-54.0	-56.2	6.2	0.00e+00	0	49	104	0	79	18686
2026-01-28 20:59:23.81	221.49	2.37	-54.0	-56.2	6.2	0.00e+00	0	49	104	0	79	18622
2026-01-28 20:59:24.82	221.61	2.43	-54.0	-56.2	6.2	0.00e+00	0	49	104	0	79	18679
2026-01-28 20:59:25.83	221.72	2.49	-54.2	-56.3	6.2	0.00e+00	0	49	104	0	79	19022
2026-01-28 20:59:26.83	221.83	2.54	-54.4	-56.5	6.2	0.00e+00	0	49	104	0	79	19427
2026-01-28 20:59:27.84	221.95	2.60	-54.5	-56.6	6.2	0.00e+00	0	49	104	0	79	19604
2026-01-28 20:59:28.85	222.06	2.66	-54.5	-56.7	6.2	0.00e+00	0	49	104	0	79	19728
2026-01-28 20:59:29.86	222.18	2.72	-54.5	-56.7	6.2	0.00e+00	0	49	104	0	79	19740
2026-01-28 20:59:30.87	222.29	2.78	-54.5	-56.7	6.2	0.00e+00	0	50	104	0	79	19758
2026-01-28 20:59:31.87	222.41	2.83	-54.5	-56.6	6.2	0.00e+00	0	50	104	0	79	19672
2026-01-28 20:59:32.87	222.53	2.89	-54.5	-56.6	6.2	0.00e+00	0	50	104	0	79	19610
2026-01-28 20:59:33.88	222.64	2.95	-54.4	-56.6	6.2	0.00e+00	0	50	104	0	79	19488
2026-01-28 20:59:34.89	222.76	3.01	-54.4	-56.5	6.2	0.00e+00	0	50	104	0	79	19463
2026-01-28 20:59:35.89	222.88	3.07	-54.3	-56.4	6.2	0.00e+00	0	50	104	0	79	19249
2026-01-28 20:59:36.90	223.00	3.13	-54.3	-56.4	6.2	0.00e+00	0	50	104	0	79	19182
2026-01-28 20:59:37.91	223.12	3.18	-54.2	-56.4	6.2	0.00e+00	0	50	104	0	79	19088
2026-01-28 20:59:38.92	223.24	3.24	-54.2	-56.3	6.2	0.00e+00	0	50	104	0	79	19019
2026-01-28 20:59:39.93	223.36	3.30	-54.1	-56.3	6.2	0.00e+00	0	50	104	0	79	18833
2026-01-28 20:59:40.94	223.49	3.36	-54.1	-56.2	6.2	0.00e+00	0	50	104	0	79	18696
2026-01-28 20:59:41.95	223.61	3.42	-54.0	-56.1	6.2	0.00e+00	0	50	104	0	79	18553
2026-01-28 20:59:42.96	223.73	3.48	-53.9	-56.0	6.2	0.00e+00	0	50	104	0	79	18295
2026-01-28 20:59:43.97	223.86	3.54	-53.8	-56.0	6.2	0.00e+00	0	50	104	0	79	18247
2026-01-28 20:59:44.97	223.98	3.60	-53.7	-55.8	6.2	0.00e+00	0	50	104	0	79	17891
2026-01-28 20:59:45.98	224.10	3.66	-53.5	-55.6	6.2	0.00e+00	0	50	104	0	79	17548
2026-01-28 20:59:46.99	224.23	3.71	-53.2	-55.3	6.2	0.00e+00	0	50	104	0	78	17938
2026-01-28 20:59:48.00	224.36	3.77	-52.8	-54.9	6.2	0.00e+00	0	50	104	0	77	18133
2026-01-28 20:59:49.00	224.48	3.83	-52.7	-54.8	6.2	0.00e+00	0	50	104	0	77	17895
2026-01-28 20:59:50.01	224.61	3.89	-52.7	-54.8	6.2	0.00e+00	0	51	104	0	77	17885
2026-01-28 20:59:51.02	224.74	3.95	-52.7	-54.8	6.2	0.00e+00	0	51	104	0	77	17835
2026-01-28 20:59:52.02	224.86	4.01	-52.7	-54.8	6.2	0.00e+00	0	51	104	0	77	17829
2026-01-28 20:59:53.03	224.99	4.07	-52.6	-54.8	6.2	0.00e+00	0	51	104	0	77	17829
2026-01-28 20:59:54.04	225.12	4.13	-52.6	-54.8	6.2	0.00e+00	0	51	104	0	77	17820
2026-01-28 20:59:55.05	225.26	4.19	-52.6	-54.8	6.2	0.00e+00	0	51	104	0	77	17836
2026-01-28 20:59:56.06	225.39	4.25	-52.6	-54.7	6.2	0.00e+00	0	51	104	0	77	17723
2026-01-28 20:59:57.06	225.52	4.31	-52.6	-54.8	6.2	0.00e+00	0	51	104	0	77	17775
2026-01-28 20:59:58.07	225.65	4.37	-52.6	-54.8	6.2	0.00e+00	0	51	104	0	77	17802
2026-01-28 20:59:59.08	225.78	4.43	-52.6	-54.7	6.2	0.00e+00	0	51	104	0	77	17736
2026-01-28 21:00:00.09	225.92	4.49	-52.6	-54.7	6.2	0.00e+00	0	51	104	0	77	17730
2026-01-28 21:00:01.09	226.05	4.55	-52.6	-54.8	6.2	0.00e+00	0	51	104	0	77	17790
2026-01-28 21:00:02.10	226.19	4.61	-52.6	-54.7	6.2	0.00e+00	0	51	104	0	77	17739
2026-01-28 21:00:03.10	226.32	4.67	-52.6	-54.7	6.2	0.00e+00	0	51	104	0	77	17728
2026-01-28 21:00:04.11	226.46	4.73	-52.6	-54.7	6.2	0.00e+00	0	51	104	0	77	17714
2026-01-28 21:00:05.12	226.60	4.79	-52.6	-54.8	6.2	0.00e+00	0	51	104	0	77	17768
2026-01-28 21:00:06.13	226.73	4.85	-52.6	-54.8	6.2	0.00e+00	0	51	104	0	77	17807
2026-01-28 21:00:07.13	226.87	4.91	-52.6	-54.7	6.2	0.00e+00	0	51	104	0	77	17717
2026-01-28 21:00:08.14	227.01	4.97	-52.6	-54.7	6.2	0.00e+00	0	51	104	0	77	17699
2026-01-28 21:00:09.15	227.15	5.04	-52.6	-54.7	6.2	0.00e+00	0	51	104	0	77	17658
2026-01-28 21:00:10.16	227.29	5.10	-52.6	-54.7	6.2	0.00e+00	0	51	104	0	77	17763
2026-01-28 21:00:11.17	227.43	5.16	-52.5	-54.7	6.2	0.00e+00	0	51	104	0	77	17570
2026-01-28 21:00:12.18	227.58	5.22	-52.7	-54.8	6.2	0.00e+00	0	51	104	0	77	17938
2026-01-28 21:00:13.19	227.72	5.28	-52.6	-54.7	6.2	0.00e+00	0	51	104	0	77	17764
2026-01-28 21:00:14.19	227.86	5.34	-52.5	-54.7	6.2	0.00e+00	0	51	104	0	77	17610
2026-01-28 21:00:15.20	228.01	5.40	-52.5	-54.6	6.2	0.00e+00	0	51	104	0	77	17518
2026-01-28 21:00:16.21	228.15	5.46	-52.7	-54.8	6.2	0.00e+00	0	51	104	0	77	17879
2026-01-28 21:00:17.22	228.30	5.52	-52.6	-54.7	6.2	0.00e+00	0	52	104	0	77	17658
2026-01-28 21:00:18.22	228.44	5.59	-52.5	-54.7	6.2	0.00e+00	0	52	104	0	77	17596
2026-01-28 21:00:19.23	228.59	5.65	-52.5	-54.6	6.2	0.00e+00	0	51	104	0	77	17520
2026-01-28 21:00:20.23	228.74	5.71	-52.7	-54.8	6.2	0.00e+00	0	52	104	0	77	17885
2026-01-28 21:00:21.24	228.89	5.77	-52.6	-54.8	6.2	0.00e+00	0	52	104	0	77	17772
2026-01-28 21:00:22.25	229.04	5.83	-52.5	-54.7	6.2	0.00e+00	0	52	104	0	77	17600
2026-01-28 21:00:23.25	229.19	5.89	-52.5	-54.6	6.2	0.00e+00	0	52	104	0	77	17558
2026-01-28 21:00:24.26	229.34	5.95	-52.7	-54.8	6.2	0.00e+00	0	52	104	0	77	17916
2026-01-28 21:00:25.27	229.49	6.02	-52.6	-54.7	6.2	0.00e+00	0	52	104	0	77	17731
2026-01-28 21:00:26.27	229.64	6.08	-52.5	-54.7	6.2	0.00e+00	0	52	104	0	77	17635
2026-01-28 21:00:27.28	229.80	6.14	-52.5	-54.7	6.2	0.00e+00	0	52	104	0	77	17577
2026-01-28 21:00:28.28	229.95	6.20	-52.7	-54.8	6.2	0.00e+00	0	52	104	0	77	17875
2026-01-28 21:00:29.29	230.10	6.26	-52.6	-54.7	6.2	0.00e+00	0	52	104	0	77	17759
2026-01-28 21:00:30.30	230.26	6.33	-52.6	-54.7	6.2	0.00e+00	0	52	104	0	77	17605
2026-01-28 21:00:31.30	230.41	6.39	-52.6	-54.7	6.2	0.00e+00	0	52	104	0	77	17639
2026-01-28 21:00:32.31	230.57	6.45	-52.7	-54.9	6.2	0.00e+00	0	52	104	0	77	17996
2026-01-28 21:00:33.32	230.73	6.51	-52.6	-54.7	6.2	0.00e+00	0	52	104	0	77	17763
2026-01-28 21:00:34.33	230.89	6.57	-52.6	-54.7	6.2	0.00e+00	0	52	104	0	77	17647
2026-01-28 21:00:35.34	231.05	6.64	-52.6	-54.7	6.2	0.00e+00	0	52	104	0	77	17712
2026-01-28 21:00:36.34	231.21	6.70	-52.7	-54.8	6.2	0.00e+00	0	52	104	0	77	17951
2026-01-28 21:00:37.35	231.37	6.76	-52.6	-54.8	6.2	0.00e+00	0	52	104	0	77	17798
2026-01-28 21:00:38.36	231.54	6.82	-52.6	-54.7	6.2	0.00e+00	0	52	104	0	77	17725
2026-01-28 21:00:39.36	231.70	6.88	-52.6	-54.7	6.2	0.00e+00	0	52	104	0	77	17666
2026-01-28 21:00:40.37	231.86	6.95	-52.7	-54.8	6.2	0.00e+00	0	52	104	0	77	17942
2026-01-28 21:00:41.38	232.03	7.01	-52.7	-54.8	6.2	0.00e+00	0	52	104	0	77	17873
2026-01-28 21:00:42.38	232.19	7.07	-52.6	-54.7	6.2	0.00e+00	0	52	104	0	77	17755
2026-01-28 21:00:43.39	232.36	7.13	-52.6	-54.8	6.2	0.00e+00	0	52	104	0	77	17784
2026-01-28 21:00:44.40	232.53	7.20	-52.7	-54.8	6.2	0.00e+00	0	52	104	0	77	17971
2026-01-28 21:00:45.41	232.69	7.26	-52.7	-54.8	6.2	0.00e+00	0	52	104	0	77	17904
2026-01-28 21:00:46.41	232.86	7.32	-52.6	-54.8	6.2	0.00e+00	0	52	104	0	77	17831
2026-01-28 21:00:47.42	233.03	7.38	-52.7	-54.8	6.2	0.00e+00	0	52	104	0	77	17823
2026-01-28 21:00:48.43	233.20	7.45	-52.7	-54.9	6.2	0.00e+00	0	52	104	0	77	18014
2026-01-28 21:00:49.43	233.38	7.51	-52.7	-54.8	6.2	0.00e+00	0	52	104	0	77	17942
2026-01-28 21:00:50.44	233.55	7.57	-52.7	-54.8	6.2	0.00e+00	0	52	104	0	77	17843
2026-01-28 21:00:51.45	233.72	7.63	-52.7	-54.8	6.2	0.00e+00	0	52	104	0	77	17833
2026-01-28 21:00:52.45	233.90	7.70	-52.8	-54.9	6.2	0.00e+00	0	52	104	0	77	18101
2026-01-28 21:00:53.46	234.07	7.76	-52.7	-54.8	6.2	0.00e+00	0	52	104	0	77	17945
2026-01-28 21:00:54.46	234.25	7.82	-52.7	-54.8	6.2	0.00e+00	0	52	104	0	77	17876
2026-01-28 21:00:55.47	234.42	7.88	-52.7	-54.8	6.2	0.00e+00	0	52	104	0	77	17881
2026-01-28 21:00:56.48	234.60	7.95	-52.8	-54.9	6.2	0.00e+00	0	52	104	0	77	18073
2026-01-28 21:00:57.49	234.78	8.01	-52.7	-54.9	6.2	0.00e+00	0	52	104	0	77	17989
2026-01-28 21:00:58.49	234.96	8.07	-52.7	-54.8	6.2	0.00e+00	0	52	104	0	77	17898
2026-01-28 21:00:59.50	235.14	8.13	-52.7	-54.9	6.2	0.00e+00	0	53	104	0	77	17985
2026-01-28 21:01:00.51	235.32	8.20	-52.8	-54.9	6.2	0.00e+00	0	52	104	0	77	18080
2026-01-28 21:01:01.52	235.51	8.26	-52.7	-54.9	6.2	0.00e+00	0	52	104	0	77	17978
2026-01-28 21:01:02.52	235.69	8.32	-52.7	-54.8	6.2	0.00e+00	0	52	104	0	77	17913
2026-01-28 21:01:03.53	235.87	8.38	-52.7	-54.9	6.2	0.00e+00	0	52	104	0	77	17985
2026-01-28 21:01:04.53	236.06	8.45	-52.8	-54.9	6.2	0.00e+00	0	52	104	0	77	18175
2026-01-28 21:01:05.54	236.25	8.51	-52.7	-54.9	6.2	0.00e+00	0	52	104	0	77	18057
2026-01-28 21:01:06.54	236.43	8.57	-52.7	-54.9	6.2	0.00e+00	0	53	104	0	77	17993
2026-01-28 21:01:07.55	236.62	8.63	-52.8	-54.9	6.2	0.00e+00	0	53	104	0	77	18062
2026-01-28 21:01:08.56	236.81	8.70	-52.8	-54.9	6.2	0.00e+00	0	53	104	0	77	18125
2026-01-28 21:01:09.57	237.00	8.76	-52.8	-54.9	6.2	0.00e+00	0	53	104	0	77	18102
2026-01-28 21:01:10.58	237.19	8.82	-52.7	-54.9	6.2	0.00e+00	0	52	104	0	77	18050
2026-01-28 21:01:11.58	237.38	8.88	-52.8	-54.9	6.2	0.00e+00	0	52	104	0	77	18150
2026-01-28 21:01:12.59	237.58	8.95	-52.8	-54.9	6.2	0.00e+00	0	53	104	0	77	18134
2026-01-28 21:01:13.60	237.77	9.01	-52.8	-54.9	6.2	0.00e+00	0	53	104	0	77	18120
2026-01-28 21:01:14.60	237.97	9.07	-52.7	-54.9	6.2	0.00e+00	0	53	104	0	77	18041
2026-01-28 21:01:15.61	238.16	9.13	-52.8	-54.9	6.2	0.00e+00	0	53	104	0	77	18129
2026-01-28 21:01:16.61	238.36	9.19	-52.8	-55.0	6.2	0.00e+00	0	53	104	0	77	18220
2026-01-28 21:01:17.62	238.56	9.26	-52.8	-54.9	6.2	0.00e+00	0	53	104	0	77	18146
2026-01-28 21:01:18.63	238.76	9.32	-52.8	-54.9	6.2	0.00e+00	0	53	104	0	77	18046
2026-01-28 21:01:19.63	238.96	9.38	-52.8	-55.0	6.2	0.00e+00	0	52	104	0	77	18229
2026-01-28 21:01:20.64	239.16	9.44	-52.8	-54.9	6.2	0.00e+00	0	53	104	0	77	18144
2026-01-28 21:01:21.65	239.36	9.50	-52.8	-54.9	6.2	0.00e+00	0	53	104	0	77	18162
2026-01-28 21:01:22.66	239.57	9.57	-52.8	-54.9	6.2	0.00e+00	0	52	104	0	77	18117
2026-01-28 21:01:23.67	239.77	9.63	-52.8	-55.0	6.2	0.00e+00	0	53	104	0	77	18181
2026-01-28 21:01:24.67	239.98	9.69	-52.8	-55.0	6.2	0.00e+00	0	53	104	0	77	18181
2026-01-28 21:01:25.68	240.18	9.75	-52.8	-54.9	6.2	0.00e+00	0	53	104	0	77	18173
2026-01-28 21:01:26.69	240.39	9.81	-52.8	-54.9	6.2	0.00e+00	0	53	104	0	77	18159
2026-01-28 21:01:27.69	240.60	9.87	-52.9	-55.0	6.2	0.00e+00	0	53	104	0	77	18271
2026-01-28 21:01:28.70	240.81	9.93	-52.8	-55.0	6.2	0.00e+00	0	53	104	0	77	18183
2026-01-28 21:01:29.70	241.02	10.00	-52.8	-54.9	6.2	0.00e+00	0	53	104	0	77	18170
2026-01-28 21:01:30.70	241.23	10.06	-52.8	-54.9	6.2	0.00e+00	0	53	104	0	77	18168
2026-01-28 21:01:31.71	241.44	10.12	-52.9	-55.0	6.2	0.00e+00	0	53	104	0	77	18244
2026-01-28 21:01:32.71	241.65	10.18	-52.9	-55.0	6.2	0.00e+00	0	53	104	0	77	18319
2026-01-28 21:01:33.72	241.87	10.24	-52.9	-55.0	6.2	0.00e+00	0	53	104	0	77	18301
2026-01-28 21:01:34.72	242.08	10.30	-52.9	-55.0	6.2	0.00e+00	0	52	104	0	77	18267
2026-01-28 21:01:35.72	242.30	10.36	-52.9	-55.0	6.2	0.00e+00	0	53	104	0	77	18358
2026-01-28 21:01:36.73	242.52	10.42	-52.9	-55.1	6.2	0.00e+00	0	53	104	0	77	18391
2026-01-28 21:01:37.74	242.74	10.48	-52.9	-55.0	6.2	0.00e+00	0	53	104	0	77	18325
2026-01-28 21:01:38.75	242.96	10.54	-52.9	-55.0	6.2	0.00e+00	0	53	104	0	77	18297
2026-01-28 21:01:39.75	243.18	10.60	-53.0	-55.1	6.2	0.00e+00	0	53	104	0	77	18469
2026-01-28 21:01:40.76	243.40	10.66	-52.9	-55.1	6.2	0.00e+00	0	53	104	0	77	18404
2026-01-28 21:01:41.76	243.62	10.72	-52.9	-55.0	6.2	0.00e+00	0	53	104	0	77	18358
2026-01-28 21:01:42.77	243.85	10.78	-52.9	-55.0	6.2	0.00e+00	0	53	104	0	77	18315
2026-01-28 21:01:43.78	244.07	10.84	-52.9	-55.1	6.2	0.00e+00	0	53	104	0	77	18397
2026-01-28 21:01:44.78	244.30	10.90	-52.9	-55.0	6.2	0.00e+00	0	53	104	0	77	18363
2026-01-28 21:01:45.79	244.53	10.96	-52.9	-55.0	6.2	0.00e+00	0	53	104	0	77	18324
2026-01-28 21:01:46.79	244.75	11.02	-52.9	-55.0	6.2	0.00e+00	0	53	104	0	77	18318
2026-01-28 21:01:47.80	244.98	11.07	-53.0	-55.1	6.2	0.00e+00	0	53	104	0	77	18480
2026-01-28 21:01:48.81	245.21	11.13	-52.9	-55.0	6.2	0.00e+00	0	53	104	0	77	18374
2026-01-28 21:01:49.82	245.45	11.19	-52.9	-55.0	6.2	0.00e+00	0	53	104	0	77	18348
2026-01-28 21:01:50.81	245.68	11.25	-52.9	-55.0	6.2	0.00e+00	0	53	104	0	77	18360
2026-01-28 21:01:51.81	245.91	11.31	-53.0	-55.1	6.2	0.00e+00	0	53	104	0	77	18514
2026-01-28 21:01:52.81	246.14	11.36	-52.9	-55.1	6.2	0.00e+00	0	53	104	0	77	18416
2026-01-28 21:01:53.82	246.38	11.42	-52.9	-55.0	6.2	0.00e+00	0	53	104	0	77	18377
2026-01-28 21:01:54.82	246.62	11.48	-52.9	-55.0	6.2	0.00e+00	0	53	104	0	77	18378
2026-01-28 21:01:55.83	246.85	11.54	-53.0	-55.1	6.2	0.00e+00	0	53	104	0	77	18486
2026-01-28 21:01:56.84	247.09	11.59	-52.9	-55.1	6.2	0.00e+00	0	53	104	0	77	18430
2026-01-28 21:01:57.84	247.33	11.65	-52.9	-55.0	6.2	0.00e+00	0	53	104	0	77	18384
2026-01-28 21:01:58.85	247.58	11.71	-52.9	-55.0	6.2	0.00e+00	0	53	104	0	77	18329
2026-01-28 21:01:59.86	247.82	11.76	-53.0	-55.1	6.2	0.00e+00	0	53	104	0	77	18459
2026-01-28 21:02:00.86	248.06	11.82	-53.0	-55.1	6.2	0.00e+00	0	53	104	0	77	18458
2026-01-28 21:02:01.87	248.31	11.88	-52.9	-55.1	6.2	0.00e+00	0	53	104	0	77	18421
2026-01-28 21:02:02.88	248.55	11.93	-52.9	-55.1	6.2	0.00e+00	0	53	104	0	77	18407
2026-01-28 21:02:03.89	248.80	11.99	-53.0	-55.1	6.2	0.00e+00	0	53	104	0	77	18593
2026-01-28 21:02:04.89	249.05	12.04	-53.0	-55.1	6.2	0.00e+00	0	53	104	0	77	18505
2026-01-28 21:02:05.89	249.30	12.10	-52.9	-55.1	6.2	0.00e+00	0	53	104	0	77	18434
2026-01-28 21:02:06.90	249.55	12.15	-52.9	-55.1	6.2	0.00e+00	0	53	104	0	77	18427
2026-01-28 21:02:07.91	249.80	12.21	-53.0	-55.1	6.2	0.00e+00	0	53	104	0	77	18539
2026-01-28 21:02:08.91	250.05	12.26	-53.0	-55.1	6.2	0.00e+00	0	53	104	0	77	18488
2026-01-28 21:02:09.92	250.31	12.31	-53.0	-55.1	6.2	0.00e+00	0	53	104	0	77	18548
2026-01-28 21:02:10.93	250.56	12.37	-53.0	-55.1	6.2	0.00e+00	0	53	104	0	77	18522
2026-01-28 21:02:11.94	250.82	12.42	-53.0	-55.2	6.2	0.00e+00	0	53	104	0	77	18642
2026-01-28 21:02:12.94	251.07	12.47	-53.0	-55.1	6.2	0.00e+00	0	53	104	0	77	18551
2026-01-28 21:02:13.95	251.33	12.53	-53.0	-55.1	6.2	0.00e+00	0	53	104	0	77	18602
2026-01-28 21:02:14.95	251.59	12.58	-53.0	-55.1	6.2	0.00e+00	0	53	104	0	77	18555
2026-01-28 21:02:15.96	251.85	12.63	-53.1	-55.2	6.2	0.00e+00	0	53	104	0	77	18636
2026-01-28 21:02:16.97	252.11	12.68	-53.0	-55.2	6.2	0.00e+00	0	53	104	0	77	18640
2026-01-28 21:02:17.97	252.37	12.73	-53.0	-55.2	6.2	0.00e+00	0	53	104	0	77	18626
2026-01-28 21:02:18.98	252.64	12.78	-53.0	-55.1	6.2	0.00e+00	0	53	104	0	77	18581
2026-01-28 21:02:19.99	252.90	12.83	-40.3	-40.2	12.8	3.44e-02	0	55	0	67108864	51	14821
2026-01-28 21:02:21.00	253.17	12.88	-51.1	-52.4	6.5	3.44e-02	0	54	104	134217728	73	17004
2026-01-28 21:02:22.01	253.44	12.93	-32.3	-32.2	15.7	0.00e+00	0	55	0	159383552	36	13998
2026-01-28 21:02:23.01	253.70	12.98	-32.3	-32.1	15.9	0.00e+00	0	55	0	268435456	36	13942
2026-01-28 21:02:24.02	253.97	13.03	-32.3	-32.2	15.9	2.57e-02	0	55	0	385875968	36	14065
2026-01-28 21:02:25.03	254.24	13.08	-32.3	-32.2	15.9	2.57e-02	0	55	0	494927872	36	14008
2026-01-28 21:02:26.04	254.51	13.13	-32.3	-32.2	15.9	2.57e-02	0	55	0	603979776	36	14027
2026-01-28 21:02:27.05	254.79	13.18	-32.3	-32.2	15.9	1.53e-03	0	55	0	721420288	36	14078
2026-01-28 21:02:28.05	255.06	13.23	-32.2	-32.1	15.9	1.53e-03	0	55	0	830472192	36	13920
2026-01-28 21:02:29.05	255.33	13.27	-32.3	-32.2	15.9	1.46e-03	0	55	0	939524096	36	13971
2026-01-28 21:02:30.06	255.61	13.32	-32.4	-32.3	15.9	1.46e-03	0	55	0	1056964608	36	14162
2026-01-28 21:02:31.07	255.88	13.37	-32.5	-32.4	15.8	1.46e-03	0	55	0	1166016512	36	14325
2026-01-28 21:02:32.08	256.16	13.41	-32.3	-32.2	15.9	1.51e-03	0	55	0	1283457024	36	14024
2026-01-28 21:02:33.08	256.44	13.46	-32.2	-32.2	16.0	1.51e-03	0	55	0	1409286144	36	13953
2026-01-28 21:02:34.08	256.71	13.50	-32.2	-32.1	16.0	1.50e-03	0	56	0	1518338048	36	13879
2026-01-28 21:02:35.09	256.99	13.55	-32.3	-32.2	16.0	1.50e-03	0	55	0	1627389952	36	13974
2026-01-28 21:02:36.10	257.28	13.59	-32.2	-32.1	16.0	1.50e-03	0	56	0	1744830464	36	13907
2026-01-28 21:02:37.11	257.56	13.63	-32.3	-32.2	15.9	1.45e-03	0	55	0	1853882368	36	14045
2026-01-28 21:02:38.11	257.84	13.68	-32.2	-32.1	16.0	1.45e-03	0	56	0	1971322880	36	13866
2026-01-28 21:02:39.11	258.12	13.72	-32.3	-32.2	16.0	1.45e-03	0	56	0	2080374784	36	13964
2026-01-28 21:02:40.12	258.41	13.76	-32.2	-32.1	16.0	1.26e-03	0	56	0	2189426688	36	13918
2026-01-28 21:02:41.13	258.69	13.80	-32.3	-32.2	15.7	1.26e-03	0	56	0	2306867200	36	14035
2026-01-28 21:02:42.13	258.98	13.85	-32.2	-32.1	15.8	1.26e-03	0	56	0	2415919104	36	13880
2026-01-28 21:02:43.14	259.27	13.89	-32.1	-32.1	15.8	1.20e-03	0	56	0	2533359616	36	13799
2026-01-28 21:02:44.15	259.55	13.93	-32.1	-32.0	15.8	1.20e-03	0	56	0	2642411520	36	13788
2026-01-28 21:02:45.16	259.84	13.97	-32.1	-32.0	15.8	1.20e-03	0	56	0	2759852032	36	13753
2026-01-28 21:02:46.16	260.13	14.01	-32.2	-32.1	15.8	1.03e-03	0	56	0	2868903936	36	13818
2026-01-28 21:02:47.17	260.42	14.04	-32.1	-32.0	15.8	1.03e-03	0	56	0	2977955840	36	13729
2026-01-28 21:02:48.18	260.72	14.08	-32.2	-32.1	15.8	1.20e-03	0	56	0	3095396352	36	13874
2026-01-28 21:02:49.19	261.01	14.12	-32.0	-31.9	15.9	1.20e-03	0	56	0	3221225472	36	13621
2026-01-28 21:02:50.20	261.31	14.16	-32.1	-32.0	15.8	1.20e-03	0	56	0	3330277376	36	13685
2026-01-28 21:02:51.20	261.60	14.19	-32.2	-32.1	15.8	7.30e-04	0	56	0	3439329280	36	13878
2026-01-28 21:02:52.20	261.89	14.23	-32.1	-32.0	15.8	7.30e-04	0	56	0	3556769792	36	13770
2026-01-28 21:02:53.21	262.19	14.27	-32.1	-32.0	15.9	7.30e-04	0	56	0	3665821696	36	13765
2026-01-28 21:02:54.21	262.48	14.30	-32.1	-32.0	15.9	1.26e-03	0	56	0	3783262208	36	13707
2026-01-28 21:02:55.22	262.78	14.34	-32.2	-32.1	15.9	1.26e-03	0	56	0	3892314112	36	13818
2026-01-28 21:02:56.22	263.08	14.37	-32.1	-32.1	15.8	9.44e-04	0	56	0	4001366016	36	13796
2026-01-28 21:02:57.23	263.38	14.40	-32.0	-31.9	15.9	9.44e-04	0	56	0	4118806528	36	13606
2026-01-28 21:02:58.24	263.68	14.44	-32.1	-32.1	15.8	9.44e-04	0	56	0	4227858432	36	13802
2026-01-28 21:02:59.24	263.98	14.47	-32.2	-32.1	15.9	9.25e-04	0	56	0	4345298944	36	13835
2026-01-28 21:03:00.25	264.28	14.50	-32.1	-32.0	15.8	9.25e-04	0	56	0	4454350848	36	13704
2026-01-28 21:03:01.26	264.58	14.53	-32.1	-32.0	15.8	9.25e-04	0	56	0	4563402752	36	13708
2026-01-28 21:03:02.26	264.88	14.56	-32.2	-32.1	15.8	1.06e-03	0	56	0	4680843264	36	13803
2026-01-28 21:03:03.27	265.19	14.59	-32.3	-32.2	15.8	1.06e-03	0	56	0	4789895168	36	13980
2026-01-28 21:03:04.28	265.49	14.62	-32.2	-32.1	15.8	9.82e-04	0	56	0	4915724288	36	13912
2026-01-28 21:03:05.28	265.80	14.65	-32.1	-32.0	15.8	9.82e-04	0	56	0	5024776192	36	13767
2026-01-28 21:03:06.29	266.10	14.67	-32.2	-32.1	15.8	1.24e-03	0	56	0	5142216704	36	13811
2026-01-28 21:03:07.30	266.41	14.70	-32.1	-32.0	15.8	1.24e-03	0	56	0	5251268608	36	13764
2026-01-28 21:03:08.30	266.71	14.73	-32.2	-32.1	15.8	1.24e-03	0	56	0	5368709120	36	13870
2026-01-28 21:03:09.31	267.02	14.75	-32.2	-32.1	15.8	1.25e-03	0	56	0	5477761024	36	13806
2026-01-28 21:03:10.32	267.33	14.78	-32.2	-32.1	15.8	1.25e-03	0	56	0	5586812928	36	13849
2026-01-28 21:03:11.33	267.64	14.80	-32.2	-32.1	15.8	1.25e-03	0	57	0	5704253440	36	13911
2026-01-28 21:03:12.33	267.95	14.83	-32.1	-32.0	15.8	1.01e-03	0	56	0	5813305344	36	13737
2026-01-28 21:03:13.34	268.26	14.85	-32.1	-32.1	15.8	1.01e-03	0	56	0	5930745856	36	13791
2026-01-28 21:03:14.35	268.57	14.87	-32.1	-32.0	15.8	1.01e-03	0	57	0	6039797760	36	13790
2026-01-28 21:03:15.34	268.88	14.90	-32.2	-32.1	15.8	1.28e-03	0	57	0	6157238272	36	13941
2026-01-28 21:03:16.35	269.19	14.92	-32.2	-32.1	15.8	1.28e-03	0	57	0	6266290176	36	13933
2026-01-28 21:03:17.36	269.50	14.94	-32.2	-32.1	15.8	1.28e-03	0	57	0	6375342080	36	13834
2026-01-28 21:03:18.36	269.81	14.96	-32.2	-32.1	15.8	1.21e-03	0	57	0	6492782592	36	13913
2026-01-28 21:03:19.37	270.13	14.98	-32.2	-32.1	15.8	1.21e-03	0	57	0	6601834496	36	13826
2026-01-28 21:03:20.37	270.44	14.99	-32.2	-32.2	15.8	1.21e-03	0	57	0	6719275008	36	13955
2026-01-28 21:03:21.38	270.75	15.01	-32.2	-32.1	15.8	1.61e-03	0	57	0	6836715520	36	13854
2026-01-28 21:03:22.39	271.07	15.03	-32.3	-32.2	15.8	1.61e-03	0	57	0	6954156032	36	14041
2026-01-28 21:03:23.40	271.38	15.05	-32.3	-32.2	15.8	1.61e-03	0	57	0	7063207936	36	13964
2026-01-28 21:03:24.40	271.70	15.06	-32.3	-32.2	15.8	9.58e-04	0	57	0	7180648448	36	14044
2026-01-28 21:03:25.41	272.01	15.08	-32.3	-32.2	15.8	9.58e-04	0	57	0	7289700352	36	14041
2026-01-28 21:03:26.41	272.32	15.09	-32.2	-32.1	15.7	9.58e-04	0	57	0	7398752256	36	13949
2026-01-28 21:03:27.42	272.64	15.10	-32.2	-32.1	15.8	1.61e-03	0	57	0	7516192768	36	13877
2026-01-28 21:03:28.42	272.96	15.12	-32.3	-32.2	15.7	1.61e-03	0	57	0	7625244672	36	13977
2026-01-28 21:03:29.43	273.27	15.13	-32.3	-32.2	15.7	1.61e-03	0	57	0	7742685184	36	14011
2026-01-28 21:03:30.44	273.59	15.14	-32.4	-32.3	15.7	1.14e-03	0	57	0	7851737088	36	14184
2026-01-28 21:03:31.45	273.91	15.15	-32.2	-32.1	15.7	1.14e-03	0	57	0	7960788992	36	13912
2026-01-28 21:03:32.45	274.22	15.16	-32.3	-32.2	15.9	1.14e-03	0	57	0	8078229504	36	13979
2026-01-28 21:03:33.46	274.54	15.17	-32.3	-32.2	15.9	1.08e-03	0	57	0	8187281408	36	13955
2026-01-28 21:03:34.47	274.86	15.18	-32.2	-32.1	15.9	1.08e-03	0	57	0	8304721920	36	13932
2026-01-28 21:03:35.47	275.18	15.19	-32.3	-32.2	15.9	1.08e-03	0	57	0	8413773824	36	13961
2026-01-28 21:03:36.48	275.50	15.19	-32.3	-32.2	15.9	6.48e-04	0	57	0	8539602944	36	14031
2026-01-28 21:03:37.49	275.82	15.20	-32.3	-32.2	15.7	6.48e-04	0	57	0	8648654848	36	14065
2026-01-28 21:03:38.49	276.13	15.21	-32.4	-32.3	15.7	7.15e-04	0	57	0	8766095360	36	14198
2026-01-28 21:03:39.50	276.45	15.21	-32.3	-32.3	15.7	7.15e-04	0	57	0	8875147264	36	14112
2026-01-28 21:03:40.51	276.77	15.21	-32.5	-32.4	15.7	9.35e-04	0	57	0	8984199168	36	14419
2026-01-28 21:03:41.51	277.09	15.22	-32.4	-32.3	15.7	9.35e-04	0	57	0	9101639680	36	14114
2026-01-28 21:03:42.51	277.41	15.22	-32.3	-32.2	15.7	9.35e-04	0	57	0	9210691584	36	14088
2026-01-28 21:03:43.53	277.73	15.22	-32.2	-32.1	15.8	9.35e-04	0	57	0	9328132096	36	13932
2026-01-28 21:03:44.53	278.04	15.22	-32.3	-32.2	15.7	8.87e-04	0	57	0	9437184000	36	13970
2026-01-28 21:03:45.53	278.36	15.22	-32.3	-32.2	15.7	8.87e-04	0	57	0	9554624512	36	14023
2026-01-28 21:03:46.54	278.68	15.22	-32.3	-32.2	15.7	8.87e-04	0	57	0	9663676416	36	14002
2026-01-28 21:03:47.54	279.00	15.22	-32.3	-32.2	15.8	8.01e-04	0	57	0	9772728320	36	14034
2026-01-28 21:03:48.55	279.32	15.22	-32.3	-32.2	15.9	8.01e-04	0	57	0	9890168832	36	14052
2026-01-28 21:03:49.56	279.64	15.22	-32.3	-32.2	15.8	8.01e-04	0	57	0	9999220736	36	14002
2026-01-28 21:03:50.57	279.96	15.22	-32.4	-32.3	15.7	6.68e-04	0	57	0	10116661248	36	14197
2026-01-28 21:03:51.58	280.28	15.21	-32.4	-32.3	15.7	6.68e-04	0	57	0	10234101760	36	14126
2026-01-28 21:03:52.58	280.59	15.21	-32.3	-32.2	15.7	6.68e-04	0	58	0	10351542272	36	14056
2026-01-28 21:03:53.59	280.91	15.20	-32.3	-32.2	15.9	6.87e-04	0	57	0	10460594176	36	14048
2026-01-28 21:03:54.60	281.23	15.19	-32.4	-32.4	15.7	6.87e-04	0	58	0	10578034688	36	14282
2026-01-28 21:03:55.60	281.55	15.19	-32.6	-32.5	15.7	8.77e-04	0	57	0	10687086592	36	14449
2026-01-28 21:03:56.61	281.87	15.18	-32.4	-32.3	15.7	8.77e-04	0	57	0	10796138496	36	14215
2026-01-28 21:03:57.61	282.18	15.17	-32.5	-32.4	15.7	8.77e-04	0	57	0	10913579008	36	14381
2026-01-28 21:03:58.61	282.50	15.16	-32.7	-32.6	15.6	8.77e-04	0	57	0	11022630912	36	14700
2026-01-28 21:03:59.62	282.82	15.15	-32.5	-32.4	15.7	8.06e-04	0	57	0	11140071424	36	14388
2026-01-28 21:04:00.63	283.13	15.14	-32.5	-32.4	15.7	8.06e-04	0	57	0	11249123328	36	14408
2026-01-28 21:04:01.64	283.45	15.13	-32.6	-32.5	15.6	9.20e-04	0	58	0	11358175232	36	14453
2026-01-28 21:04:02.64	283.76	15.12	-32.6	-32.5	15.8	9.20e-04	0	57	0	11475615744	36	14446
2026-01-28 21:04:03.65	284.08	15.11	-32.6	-32.5	15.8	9.20e-04	0	58	0	11584667648	36	14445
2026-01-28 21:04:04.65	284.40	15.09	-32.6	-32.5	15.6	8.34e-04	0	57	0	11702108160	36	14577
2026-01-28 21:04:05.67	284.71	15.08	-32.6	-32.5	15.6	8.34e-04	0	57	0	11811160064	36	14537
2026-01-28 21:04:06.67	285.03	15.06	-32.6	-32.5	15.6	8.34e-04	0	58	0	11928600576	36	14593
2026-01-28 21:04:07.68	285.34	15.05	-32.7	-32.6	15.6	1.08e-03	0	57	0	12037652480	36	14718
2026-01-28 21:04:08.69	285.66	15.03	-32.8	-32.7	15.5	1.08e-03	0	58	0	12163481600	36	14929
2026-01-28 21:04:09.69	285.97	15.02	-32.6	-32.5	15.6	1.08e-03	0	58	0	12272533504	36	14565
2026-01-28 21:04:10.70	286.28	15.00	-32.6	-32.5	15.6	1.07e-03	0	57	0	12389974016	36	14501
2026-01-28 21:04:11.71	286.60	14.98	-32.6	-32.5	15.6	1.07e-03	0	58	0	12499025920	36	14578
2026-01-28 21:04:12.71	286.91	14.96	-32.7	-32.6	15.6	1.07e-03	0	58	0	12608077824	36	14647
2026-01-28 21:04:13.71	287.22	14.94	-32.8	-32.7	15.7	8.58e-04	0	58	0	12725518336	36	14817
2026-01-28 21:04:14.73	287.53	14.92	-32.7	-32.6	15.7	8.58e-04	0	58	0	12834570240	36	14707
2026-01-28 21:04:15.73	287.84	14.90	-32.8	-32.7	15.6	8.39e-04	0	58	0	12952010752	36	14780
2026-01-28 21:04:16.74	288.15	14.88	-32.7	-32.6	15.6	8.39e-04	0	57	0	13061062656	36	14645
2026-01-28 21:04:17.74	288.46	14.85	-32.6	-32.5	15.6	8.39e-04	0	58	0	13170114560	36	14524
2026-01-28 21:04:18.75	288.77	14.83	-32.7	-32.6	15.6	9.82e-04	0	57	0	13287555072	36	14752
2026-01-28 21:04:19.76	289.08	14.81	-32.7	-32.5	15.6	9.82e-04	0	58	0	13396606976	36	14607
2026-01-28 21:04:20.76	289.39	14.78	-32.7	-32.6	15.6	9.82e-04	0	58	0	13514047488	36	14675
2026-01-28 21:04:21.77	289.70	14.76	-32.8	-32.7	15.6	9.73e-04	0	58	0	13623099392	36	14831
2026-01-28 21:04:22.77	290.00	14.73	-32.8	-32.7	15.5	9.73e-04	0	58	0	13732151296	36	14940
2026-01-28 21:04:23.78	290.31	14.71	-32.7	-32.6	15.6	9.73e-04	0	58	0	13857980416	36	14736
2026-01-28 21:04:24.79	290.61	14.68	-32.8	-32.7	15.6	8.44e-04	0	58	0	13975420928	36	14819
2026-01-28 21:04:25.79	290.92	14.65	-32.9	-32.8	15.6	8.44e-04	0	58	0	14084472832	36	14985
2026-01-28 21:04:26.81	291.23	14.62	-32.8	-32.7	15.6	8.30e-04	0	58	0	14193524736	36	14946
2026-01-28 21:04:27.81	291.53	14.59	-32.9	-32.8	15.6	8.30e-04	0	58	0	14310965248	36	15016
2026-01-28 21:04:28.82	291.83	14.57	-32.9	-32.8	15.7	8.30e-04	0	58	0	14420017152	36	14988
2026-01-28 21:04:29.82	292.13	14.54	-32.9	-32.8	15.7	8.30e-04	0	58	0	14537457664	36	15099
2026-01-28 21:04:30.83	292.43	14.50	-33.0	-32.9	15.7	1.07e-03	0	58	0	14646509568	36	15169
2026-01-28 21:04:31.83	292.73	14.47	-32.7	-32.6	15.8	1.07e-03	0	58	0	14755561472	36	14740
2026-01-28 21:04:32.84	293.03	14.44	-32.7	-32.6	15.8	6.53e-04	0	58	0	14873001984	36	14701
2026-01-28 21:04:33.85	293.33	14.41	-32.6	-32.5	15.8	6.53e-04	0	58	0	14982053888	36	14589
2026-01-28 21:04:34.86	293.63	14.38	-32.7	-32.6	15.8	6.53e-04	0	58	0	15099494400	36	14694
2026-01-28 21:04:35.86	293.93	14.34	-32.8	-32.7	15.8	5.34e-04	0	58	0	15208546304	36	14779
2026-01-28 21:04:36.87	294.23	14.31	-32.7	-32.6	15.8	5.34e-04	0	58	0	15325986816	36	14746
2026-01-28 21:04:37.88	294.52	14.27	-32.7	-32.6	15.8	6.20e-04	0	58	0	15443427328	36	14731
2026-01-28 21:04:38.88	294.82	14.24	-32.7	-32.6	15.8	6.20e-04	0	58	0	15560867840	36	14758
2026-01-28 21:04:39.89	295.11	14.20	-32.8	-32.7	15.8	6.20e-04	0	58	0	15669919744	36	14853
2026-01-28 21:04:40.89	295.40	14.17	-32.7	-32.6	15.8	6.20e-04	0	58	0	15787360256	36	14672
2026-01-28 21:04:41.90	295.70	14.13	-32.9	-32.8	15.8	5.86e-04	0	58	0	15896412160	36	14956
2026-01-28 21:04:42.90	295.99	14.09	-32.8	-32.7	15.8	5.86e-04	0	58	0	16005464064	36	14843
2026-01-28 21:04:43.91	296.28	14.05	-32.9	-32.8	15.8	5.67e-04	0	58	0	16122904576	36	15031
2026-01-28 21:04:44.91	296.57	14.02	-32.8	-32.7	15.8	5.67e-04	0	58	0	16231956480	36	14922
2026-01-28 21:04:45.91	296.85	13.98	-32.8	-32.7	15.8	5.67e-04	0	58	0	16349396992	36	14885
2026-01-28 21:04:46.92	297.14	13.94	-32.8	-32.7	15.8	6.48e-04	0	58	0	16458448896	36	14835
2026-01-28 21:04:47.92	297.43	13.90	-32.8	-32.7	15.8	6.48e-04	0	58	0	16567500800	36	14795
2026-01-28 21:04:48.93	297.72	13.86	-32.8	-32.7	15.9	6.48e-04	0	58	0	16684941312	36	14832
2026-01-28 21:04:49.94	298.00	13.82	-32.7	-32.6	15.9	6.48e-04	0	58	0	16793993216	36	14738
2026-01-28 21:04:50.94	298.29	13.77	-32.9	-32.8	15.8	6.10e-04	0	58	0	16911433728	36	15049
2026-01-28 21:04:51.95	298.57	13.73	-32.9	-32.8	15.9	6.10e-04	0	58	0	17020485632	36	14960
2026-01-28 21:04:52.95	298.85	13.69	-32.8	-32.7	15.9	6.10e-04	0	58	0	17129537536	36	14812
2026-01-28 21:04:53.96	299.13	13.65	-32.8	-32.7	15.9	6.29e-04	0	58	0	17246978048	36	14783
2026-01-28 21:04:54.96	299.41	13.60	-32.9	-32.8	15.8	6.29e-04	0	58	0	17356029952	36	15021
2026-01-28 21:04:55.97	299.69	13.56	-32.8	-32.7	15.9	6.10e-04	0	58	0	17473470464	36	14916
2026-01-28 21:04:56.98	299.97	13.52	-32.8	-32.7	15.9	6.10e-04	0	58	0	17590910976	36	14818
2026-01-28 21:04:57.98	300.25	13.47	-32.9	-32.8	15.8	6.10e-04	0	58	0	17708351488	36	14959
2026-01-28 21:04:58.99	300.53	13.43	-32.9	-32.8	15.8	6.48e-04	0	58	0	17817403392	36	14997
2026-01-28 21:04:59.99	300.80	13.38	-32.9	-32.8	15.9	6.48e-04	0	58	0	17934843904	36	14952
2026-01-28 21:05:01.01	301.08	13.33	-32.8	-32.7	15.9	6.48e-04	0	58	0	18043895808	36	14874
2026-01-28 21:05:02.01	301.35	13.29	-32.9	-32.8	15.8	6.48e-04	0	58	0	18152947712	36	15008
2026-01-28 21:05:03.02	301.63	13.24	-32.9	-32.8	15.9	6.44e-04	0	58	0	18270388224	36	14997
2026-01-28 21:05:04.02	301.90	13.19	-33.0	-32.9	15.8	6.44e-04	0	58	0	18379440128	36	15131
2026-01-28 21:05:05.03	302.17	13.15	-32.9	-32.8	15.9	6.63e-04	0	58	0	18496880640	36	15067
2026-01-28 21:05:06.03	302.44	13.10	-32.9	-32.8	15.8	6.63e-04	0	58	0	18605932544	36	15101
2026-01-28 21:05:07.04	302.71	13.05	-33.0	-32.9	15.8	6.63e-04	0	58	0	18723373056	36	15269
2026-01-28 21:05:08.05	302.97	13.00	-33.1	-33.0	15.8	8.30e-04	0	58	0	18832424960	36	15375
2026-01-28 21:05:09.05	303.24	12.95	-33.1	-32.9	15.8	8.30e-04	0	58	0	18941476864	36	15286
2026-01-28 21:05:10.06	303.51	12.90	-33.2	-33.1	15.8	7.58e-04	0	58	0	19058917376	36	15615
2026-01-28 21:05:11.07	303.77	12.85	-33.1	-33.0	15.9	7.58e-04	0	58	0	19167969280	37	14467
2026-01-28 21:05:12.07	304.03	12.80	-33.1	-33.0	15.9	7.25e-04	0	58	0	19285409792	37	14549
2026-01-28 21:05:13.08	304.30	12.75	-33.2	-33.1	15.8	7.25e-04	0	58	0	19402850304	37	14651
2026-01-28 21:05:14.09	304.56	12.70	-33.2	-33.1	15.8	7.87e-04	0	58	0	19520290816	37	14670
2026-01-28 21:05:15.10	304.82	12.65	-33.0	-32.9	15.9	7.87e-04	0	58	0	19629342720	37	14321
2026-01-28 21:05:16.11	305.08	12.60	-33.1	-33.0	15.9	7.87e-04	0	58	0	19746783232	37	14484
2026-01-28 21:05:17.11	305.34	12.55	-33.2	-33.1	15.8	8.11e-04	0	58	0	19855835136	37	14682
2026-01-28 21:05:18.12	305.59	12.49	-33.1	-33.0	15.9	8.11e-04	0	58	0	19964887040	37	14502
2026-01-28 21:05:19.12	305.85	12.44	-33.1	-33.0	15.9	8.11e-04	0	58	0	20082327552	37	14565
2026-01-28 21:05:20.13	306.10	12.39	-33.1	-33.0	15.9	8.01e-04	0	58	0	20191379456	37	14592
2026-01-28 21:05:21.14	306.36	12.34	-33.0	-32.9	15.9	8.01e-04	0	58	0	20308819968	37	14367
2026-01-28 21:05:22.15	306.61	12.28	-33.1	-33.0	15.9	8.01e-04	0	58	0	20417871872	37	14504
2026-01-28 21:05:23.15	306.86	12.23	-33.2	-33.1	15.9	7.72e-04	0	58	0	20526923776	37	14673
2026-01-28 21:05:24.16	307.11	12.17	-33.1	-33.0	15.9	7.72e-04	0	58	0	20644364288	37	14487
2026-01-28 21:05:25.17	307.36	12.12	-33.2	-33.1	15.9	8.49e-04	0	58	0	20753416192	37	14701
2026-01-28 21:05:26.17	307.61	12.07	-33.2	-33.1	15.9	8.49e-04	0	58	0	20870856704	37	14733
2026-01-28 21:05:27.18	307.86	12.01	-33.3	-33.2	15.8	8.49e-04	0	58	0	20979908608	37	14824
2026-01-28 21:05:28.18	308.10	11.96	-33.2	-33.1	15.9	9.39e-04	0	58	0	21105737728	37	14715
2026-01-28 21:05:29.19	308.35	11.90	-33.3	-33.2	15.9	9.39e-04	0	58	0	21214789632	37	14801
2026-01-28 21:05:30.20	308.59	11.85	-33.3	-33.2	15.8	9.44e-04	0	58	0	21332230144	37	14875
2026-01-28 21:05:31.20	308.84	11.79	-33.4	-33.3	15.8	9.44e-04	0	58	0	21441282048	37	15038
2026-01-28 21:05:32.21	309.08	11.73	-33.3	-33.2	15.8	9.44e-04	0	58	0	21550333952	37	14912
2026-01-28 21:05:33.22	309.32	11.68	-33.4	-33.3	15.8	1.14e-03	0	58	0	21667774464	37	15071
2026-01-28 21:05:34.23	309.56	11.62	-33.4	-33.3	15.8	1.14e-03	0	58	0	21776826368	37	15033
2026-01-28 21:05:35.23	309.80	11.56	-33.3	-33.2	15.8	1.14e-03	0	58	0	21894266880	37	14933
2026-01-28 21:05:36.24	310.04	11.51	-33.4	-33.3	15.8	1.14e-03	0	58	0	22003318784	37	15084
2026-01-28 21:05:37.24	310.27	11.45	-33.5	-33.4	15.8	1.13e-03	0	58	0	22120759296	37	15174
2026-01-28 21:05:38.25	310.51	11.39	-33.4	-33.3	15.8	1.13e-03	0	58	0	22229811200	37	15103
2026-01-28 21:05:39.25	310.74	11.34	-33.5	-33.4	15.8	1.13e-03	0	58	0	22338863104	37	15246
2026-01-28 21:05:40.26	310.97	11.28	-33.6	-33.4	15.7	1.07e-03	0	58	0	22456303616	37	15293
2026-01-28 21:05:41.27	311.21	11.22	-33.5	-33.4	15.7	1.07e-03	0	58	0	22565355520	37	15238
2026-01-28 21:05:42.28	311.44	11.16	-33.4	-33.3	15.8	1.07e-03	0	59	0	22682796032	37	15088
2026-01-28 21:05:43.28	311.67	11.10	-33.4	-33.3	15.8	1.36e-03	0	58	0	22800236544	37	15103
2026-01-28 21:05:44.29	311.90	11.05	-33.5	-33.4	15.7	1.36e-03	0	59	0	22917677056	37	15276
2026-01-28 21:05:45.30	312.12	10.99	-33.5	-33.4	15.8	1.36e-03	0	58	0	23026728960	37	15224
2026-01-28 21:05:46.31	312.35	10.93	-33.6	-33.5	15.7	1.34e-03	0	58	0	23144169472	37	15433
2026-01-28 21:05:47.31	312.58	10.87	-33.6	-33.5	15.7	1.34e-03	0	58	0	23253221376	37	15390
2026-01-28 21:05:48.32	312.80	10.81	-33.6	-33.5	15.7	1.34e-03	0	58	0	23362273280	37	15451
2026-01-28 21:05:49.33	313.03	10.75	-33.7	-33.6	15.7	1.43e-03	0	58	0	23479713792	37	15508
2026-01-28 21:05:50.33	313.25	10.69	-33.6	-33.5	15.7	1.43e-03	0	58	0	23588765696	37	15327
2026-01-28 21:05:51.34	313.47	10.63	-33.7	-33.6	15.7	1.43e-03	0	58	0	23706206208	37	15541
2026-01-28 21:05:52.35	313.69	10.57	-33.7	-33.6	15.7	1.86e-03	0	58	0	23815258112	38	14707
2026-01-28 21:05:53.35	313.91	10.51	-33.7	-33.6	15.7	1.86e-03	0	58	0	23924310016	38	14695
2026-01-28 21:05:54.36	314.13	10.45	-33.7	-33.6	15.7	1.86e-03	0	58	0	24041750528	38	14622
2026-01-28 21:05:55.36	314.34	10.39	-33.8	-33.7	15.7	1.84e-03	0	58	0	24150802432	38	14837
2026-01-28 21:05:56.37	314.56	10.33	-33.7	-33.6	15.7	1.84e-03	0	58	0	24268242944	38	14735
2026-01-28 21:05:57.38	314.77	10.27	-33.7	-33.6	15.7	1.86e-03	0	58	0	24385683456	38	14757
2026-01-28 21:05:58.39	314.99	10.21	-33.8	-33.7	15.6	1.86e-03	0	58	0	24503123968	38	14839
2026-01-28 21:05:59.39	315.20	10.15	-33.8	-33.7	15.6	1.86e-03	0	58	0	24612175872	38	14874
2026-01-28 21:06:00.40	315.41	10.09	-33.8	-33.7	15.6	1.86e-03	0	58	0	24729616384	38	14886
2026-01-28 21:06:01.41	315.62	10.03	-33.8	-33.6	15.7	1.91e-03	0	58	0	24838668288	38	14766
2026-01-28 21:06:02.42	315.83	9.97	-33.8	-33.7	15.7	1.91e-03	0	58	0	24956108800	38	14789
2026-01-28 21:06:03.42	316.04	9.91	-33.7	-33.6	15.7	2.06e-03	0	58	0	25065160704	38	14739
2026-01-28 21:06:04.42	316.25	9.85	-33.9	-33.8	15.6	2.06e-03	0	58	0	25174212608	38	14962
2026-01-28 21:06:05.43	316.45	9.79	-33.9	-33.8	15.6	2.06e-03	0	58	0	25291653120	38	14997
2026-01-28 21:06:06.43	316.66	9.73	-33.8	-33.7	15.6	2.06e-03	0	58	0	25400705024	38	14868
2026-01-28 21:06:07.43	316.86	9.67	-33.8	-33.7	15.6	2.35e-03	0	58	0	25518145536	38	14912
2026-01-28 21:06:08.44	317.07	9.61	-33.8	-33.7	15.6	2.35e-03	0	58	0	25627197440	38	14923
2026-01-28 21:06:09.44	317.27	9.55	-33.8	-33.7	15.6	2.23e-03	0	58	0	25736249344	38	14918
2026-01-28 21:06:10.45	317.47	9.48	-33.9	-33.8	15.6	2.23e-03	0	58	0	25853689856	38	15012
2026-01-28 21:06:11.46	317.67	9.42	-33.8	-33.7	15.6	2.23e-03	0	59	0	25962741760	38	14880
2026-01-28 21:06:12.46	317.87	9.36	-33.8	-33.7	15.6	2.63e-03	0	59	0	26080182272	38	14930
2026-01-28 21:06:13.47	318.07	9.30	-33.9	-33.8	15.6	2.63e-03	0	59	0	26189234176	38	15044
2026-01-28 21:06:14.48	318.27	9.24	-34.0	-33.9	15.5	2.63e-03	0	58	0	26298286080	38	15127
2026-01-28 21:06:15.49	318.46	9.18	-33.8	-33.7	15.6	2.66e-03	0	58	0	26424115200	38	14884
2026-01-28 21:06:16.49	318.66	9.11	-33.8	-33.7	15.6	2.66e-03	0	58	0	26541555712	38	14907
2026-01-28 21:06:17.49	318.85	9.05	-33.8	-33.8	15.6	2.66e-03	0	58	0	26650607616	38	14959
2026-01-28 21:06:18.50	319.04	8.99	-33.9	-33.8	15.5	2.38e-03	0	58	0	26759659520	38	14999
2026-01-28 21:06:19.51	319.24	8.93	-34.0	-33.9	15.5	2.38e-03	0	59	0	26877100032	38	15246
2026-01-28 21:06:20.51	319.43	8.87	-33.9	-33.8	15.5	2.59e-03	0	58	0	26986151936	38	15080
2026-01-28 21:06:21.52	319.62	8.81	-33.9	-33.8	15.5	2.59e-03	0	58	0	27103592448	38	14981
2026-01-28 21:06:22.53	319.81	8.74	-33.9	-33.8	15.5	2.59e-03	0	58	0	27212644352	38	15081
2026-01-28 21:06:23.54	320.00	8.68	-33.9	-33.8	15.5	2.84e-03	0	58	0	27321696256	38	15088
2026-01-28 21:06:24.54	320.18	8.62	-34.0	-33.9	15.5	2.84e-03	0	59	0	27439136768	38	15157
2026-01-28 21:06:25.55	320.37	8.56	-33.9	-33.8	15.5	2.84e-03	0	59	0	27548188672	38	15101
2026-01-28 21:06:26.56	320.56	8.50	-33.9	-33.8	15.5	2.84e-03	0	59	0	27665629184	38	15059
2026-01-28 21:06:27.57	320.74	8.43	-33.9	-33.8	15.5	2.84e-03	0	58	0	27774681088	38	14983
2026-01-28 21:06:28.57	320.93	8.37	-34.0	-33.9	15.5	2.84e-03	0	58	0	27892121600	38	15160
2026-01-28 21:06:29.58	321.11	8.31	-34.2	-34.1	15.4	2.80e-03	0	58	0	28001173504	38	15527
2026-01-28 21:06:30.58	321.29	8.25	-34.0	-33.9	15.5	2.80e-03	0	58	0	28127002624	38	15202
2026-01-28 21:06:31.59	321.47	8.19	-34.1	-34.0	15.4	2.80e-03	0	59	0	28236054528	38	15389
2026-01-28 21:06:32.60	321.65	8.12	-34.1	-34.0	15.4	3.28e-03	0	58	0	28353495040	38	15413
2026-01-28 21:06:33.61	321.83	8.06	-34.2	-34.1	15.4	3.28e-03	0	59	0	28462546944	39	14714
2026-01-28 21:06:34.61	322.01	8.00	-34.2	-34.1	15.4	3.25e-03	0	58	0	28571598848	39	14670
2026-01-28 21:06:35.62	322.19	7.94	-34.2	-34.1	15.4	3.25e-03	0	58	0	28689039360	39	14724
2026-01-28 21:06:36.63	322.36	7.87	-34.3	-34.2	15.3	3.25e-03	0	58	0	28798091264	39	14858
2026-01-28 21:06:37.64	322.54	7.81	-34.3	-34.2	15.2	3.55e-03	0	59	0	28915531776	39	14939
2026-01-28 21:06:38.64	322.71	7.75	-34.4	-34.3	15.2	3.55e-03	0	58	0	29024583680	39	15041
2026-01-28 21:06:39.65	322.89	7.69	-34.4	-34.3	15.2	3.55e-03	0	58	0	29133635584	39	15066
2026-01-28 21:06:40.65	323.06	7.63	-34.3	-34.2	15.3	4.27e-03	0	59	0	29251076096	39	14793
2026-01-28 21:06:41.66	323.23	7.56	-34.3	-34.2	15.3	4.27e-03	0	58	0	29360128000	39	14814
2026-01-28 21:06:42.66	323.40	7.50	-34.4	-34.3	15.2	4.27e-03	0	59	0	29477568512	39	15056
2026-01-28 21:06:43.67	323.57	7.44	-34.4	-34.3	15.2	3.91e-03	0	59	0	29586620416	39	14972
2026-01-28 21:06:44.67	323.74	7.38	-34.5	-34.4	15.2	3.91e-03	0	58	0	29695672320	39	15223
2026-01-28 21:06:45.68	323.91	7.32	-34.6	-34.5	15.1	3.91e-03	0	58	0	29821501440	39	15329
2026-01-28 21:06:46.69	324.08	7.26	-34.5	-34.4	15.1	4.21e-03	0	58	0	29938941952	39	15179
2026-01-28 21:06:47.69	324.24	7.19	-34.4	-34.3	15.2	4.21e-03	0	58	0	30047993856	39	15056
2026-01-28 21:06:48.70	324.41	7.13	-34.4	-34.4	15.2	4.21e-03	0	59	0	30157045760	39	15134
2026-01-28 21:06:49.71	324.58	7.07	-34.6	-34.5	15.1	4.42e-03	0	58	0	30274486272	39	15331
2026-01-28 21:06:50.71	324.74	7.01	-34.5	-34.4	15.1	4.42e-03	0	58	0	30383538176	39	15213
2026-01-28 21:06:51.72	324.90	6.95	-34.4	-34.3	15.1	4.42e-03	0	59	0	30500978688	39	15102
2026-01-28 21:06:52.73	325.07	6.88	-34.6	-34.5	15.1	4.46e-03	0	59	0	30610030592	39	15351
2026-01-28 21:06:53.74	325.23	6.82	-34.5	-34.4	15.1	4.46e-03	0	59	0	30719082496	39	15288
2026-01-28 21:06:54.75	325.39	6.76	-34.5	-34.5	15.1	4.46e-03	0	58	0	30836523008	39	15301
2026-01-28 21:06:55.75	325.55	6.70	-34.6	-34.5	15.0	4.96e-03	0	58	0	30945574912	39	15428
2026-01-28 21:06:56.76	325.71	6.64	-34.5	-34.5	15.0	4.96e-03	0	58	0	31063015424	39	15328
2026-01-28 21:06:57.77	325.87	6.58	-34.6	-34.5	15.0	4.96e-03	0	58	0	31172067328	39	15402
2026-01-28 21:06:58.78	326.03	6.51	-34.6	-34.5	15.0	5.60e-03	0	58	0	31289507840	40	14557
2026-01-28 21:06:59.78	326.18	6.45	-34.6	-34.5	14.9	5.60e-03	0	58	0	31406948352	40	14587
2026-01-28 21:07:00.79	326.34	6.39	-34.8	-34.7	14.9	5.60e-03	0	59	0	31524388864	40	14854
2026-01-28 21:07:01.79	326.49	6.33	-34.6	-34.5	14.9	5.97e-03	0	59	0	31633440768	40	14515
2026-01-28 21:07:02.80	326.65	6.27	-34.7	-34.6	14.9	5.97e-03	0	59	0	31750881280	40	14722
2026-01-28 21:07:03.80	326.80	6.21	-34.8	-34.7	14.8	5.97e-03	0	58	0	31859933184	40	14907
2026-01-28 21:07:04.80	326.95	6.15	-34.8	-34.7	14.8	7.03e-03	0	59	0	31968985088	40	14888
2026-01-28 21:07:05.81	327.11	6.09	-35.0	-34.9	14.7	7.03e-03	0	58	0	32086425600	40	15222
2026-01-28 21:07:06.82	327.26	6.02	-34.9	-34.8	14.8	7.03e-03	0	59	0	32195477504	40	15113
2026-01-28 21:07:07.83	327.41	5.96	-35.0	-34.9	14.7	7.56e-03	0	58	0	32312918016	40	15162
2026-01-28 21:07:08.84	327.56	5.90	-35.0	-35.0	14.7	7.56e-03	0	59	0	32421969920	40	15322
2026-01-28 21:07:09.84	327.71	5.84	-34.9	-34.8	14.8	8.57e-03	0	59	0	32531021824	40	15036
2026-01-28 21:07:10.85	327.86	5.78	-35.0	-34.9	14.7	8.57e-03	0	59	0	32648462336	40	15164
2026-01-28 21:07:11.86	328.00	5.72	-35.0	-34.9	14.7	8.57e-03	0	58	0	32757514240	40	15148
2026-01-28 21:07:12.86	328.15	5.66	-35.2	-35.1	14.6	8.71e-03	0	58	0	32874954752	40	15516
2026-01-28 21:07:13.87	328.30	5.60	-34.9	-34.9	14.7	8.71e-03	0	58	0	32984006656	40	15124
2026-01-28 21:07:14.88	328.44	5.54	-35.1	-35.0	14.6	8.71e-03	0	58	0	33109835776	40	15330
2026-01-28 21:07:15.89	328.59	5.47	-35.2	-35.1	14.6	8.71e-03	0	58	0	33218887680	40	15556
2026-01-28 21:07:16.89	328.73	5.41	-35.1	-35.1	14.6	9.87e-03	0	59	0	33336328192	40	15513
2026-01-28 21:07:17.90	328.87	5.35	-35.2	-35.2	14.5	9.87e-03	0	58	0	33445380096	41	14777
2026-01-28 21:07:18.90	329.01	5.29	-35.2	-35.1	14.5	9.87e-03	0	58	0	33554432000	41	14685
2026-01-28 21:07:19.91	329.16	5.23	-35.2	-35.1	14.6	9.87e-03	0	58	0	33671872512	41	14630
2026-01-28 21:07:20.92	329.30	5.17	-35.2	-35.1	14.5	1.10e-02	0	58	0	33780924416	41	14748
2026-01-28 21:07:21.93	329.44	5.11	-35.3	-35.3	14.5	1.10e-02	0	58	0	33898364928	41	14948
2026-01-28 21:07:22.93	329.58	5.05	-35.4	-35.3	14.4	1.16e-02	0	59	0	34007416832	41	15028
2026-01-28 21:07:23.94	329.72	4.99	-50.7	-52.1	6.5	2.55e-02	87	59	104	34108080128	71	18553
2026-01-28 21:07:24.95	329.86	4.93	-52.8	-55.0	6.2	2.55e-02	0	57	104	34108080128	76	19368
2026-01-28 21:07:25.96	329.99	4.87	-53.1	-55.2	6.2	2.55e-02	0	57	104	34108080128	76	19880
2026-01-28 21:07:26.96	330.13	4.81	-53.2	-55.4	6.2	2.55e-02	0	57	104	34108080128	76	20209
2026-01-28 21:07:27.97	330.27	4.75	-53.4	-55.5	6.2	2.55e-02	0	57	104	34108080128	77	19396
2026-01-28 21:07:28.97	330.40	4.69	-53.4	-55.6	6.2	2.55e-02	0	57	104	34108080128	77	19484
2026-01-28 21:07:29.98	330.54	4.63	-53.5	-55.6	6.2	0.00e+00	0	57	104	34108080128	77	19577
2026-01-28 21:07:30.99	330.67	4.57	-53.5	-55.6	6.2	0.00e+00	0	57	104	34108080128	77	19624
2026-01-28 21:07:32.00	330.80	4.51	-53.5	-55.6	6.2	0.00e+00	0	57	104	34108080128	77	19596
2026-01-28 21:07:33.01	330.94	4.45	-53.4	-55.5	6.2	0.00e+00	0	57	104	34108080128	77	19445
2026-01-28 21:07:34.02	331.07	4.39	-53.3	-55.5	6.2	0.00e+00	0	57	104	34108080128	77	19261
2026-01-28 21:07:35.02	331.20	4.33	-53.3	-55.4	6.2	0.00e+00	0	57	104	34108080128	77	19181
2026-01-28 21:07:36.03	331.33	4.27	-53.4	-55.5	6.2	0.00e+00	0	57	104	34108080128	77	19344
2026-01-28 21:07:37.04	331.46	4.21	-53.4	-55.5	6.2	0.00e+00	0	57	104	34108080128	77	19413
2026-01-28 21:07:38.04	331.59	4.16	-53.5	-55.6	6.2	0.00e+00	0	57	104	34108080128	77	19600
2026-01-28 21:07:39.05	331.72	4.10	-53.5	-55.6	6.2	0.00e+00	0	57	104	34108080128	77	19627
2026-01-28 21:07:40.07	331.85	4.04	-53.5	-55.7	6.2	0.00e+00	0	57	104	34108080128	77	19730
2026-01-28 21:07:41.08	331.98	3.98	-53.6	-55.7	6.2	0.00e+00	0	57	104	34108080128	77	19744
2026-01-28 21:07:42.08	332.10	3.92	-53.6	-55.7	6.2	0.00e+00	0	57	104	34108080128	77	19864
2026-01-28 21:07:43.08	332.23	3.86	-53.6	-55.7	6.2	0.00e+00	0	57	104	34108080128	77	19929
2026-01-28 21:07:44.09	332.36	3.80	-53.6	-55.7	6.2	0.00e+00	0	57	104	34108080128	77	19909
2026-01-28 21:07:45.10	332.48	3.74	-53.6	-55.7	6.2	0.00e+00	0	57	104	34108080128	77	19811
2026-01-28 21:07:46.11	332.61	3.68	-53.5	-55.6	6.2	0.00e+00	0	56	104	34108080128	77	19632
2026-01-28 21:07:47.12	332.73	3.62	-53.5	-55.6	6.2	0.00e+00	0	56	104	34108080128	77	19553
2026-01-28 21:07:48.13	332.85	3.57	-53.5	-55.6	6.2	0.00e+00	0	56	104	34108080128	77	19581
2026-01-28 21:07:49.13	332.98	3.51	-53.5	-55.6	6.2	0.00e+00	0	56	104	34108080128	77	19543
2026-01-28 21:07:50.14	333.10	3.45	-53.5	-55.6	6.2	0.00e+00	0	56	104	34108080128	77	19516
2026-01-28 21:07:51.15	333.22	3.39	-53.4	-55.6	6.2	0.00e+00	0	56	104	34108080128	77	19523
2026-01-28 21:07:52.16	333.34	3.33	-53.4	-55.6	6.2	0.00e+00	0	56	104	34108080128	77	19531
2026-01-28 21:07:53.17	333.46	3.27	-53.4	-55.5	6.2	0.00e+00	0	56	104	34108080128	77	19463
2026-01-28 21:07:54.18	333.58	3.22	-53.4	-55.5	6.2	0.00e+00	0	56	104	34108080128	77	19402
2026-01-28 21:07:55.19	333.70	3.16	-53.4	-55.5	6.2	0.00e+00	0	56	104	34108080128	77	19429
2026-01-28 21:07:56.19	333.82	3.10	-53.4	-55.5	6.2	0.00e+00	0	56	104	34108080128	77	19375
2026-01-28 21:07:57.20	333.94	3.04	-53.4	-55.5	6.2	0.00e+00	0	56	104	34108080128	77	19342
2026-01-28 21:07:58.21	334.06	2.98	-53.4	-55.5	6.2	0.00e+00	0	56	104	34108080128	77	19332
2026-01-28 21:07:59.22	334.18	2.93	-53.4	-55.5	6.2	0.00e+00	0	56	104	34108080128	77	19323
2026-01-28 21:08:00.23	334.29	2.87	-53.4	-55.5	6.2	0.00e+00	0	56	104	34108080128	77	19316
2026-01-28 21:08:01.24	334.41	2.81	-53.4	-55.5	6.2	0.00e+00	0	56	104	34108080128	77	19379
2026-01-28 21:08:02.25	334.52	2.75	-53.4	-55.5	6.2	0.00e+00	0	56	104	34108080128	77	19294
2026-01-28 21:08:03.26	334.64	2.70	-53.3	-55.5	6.2	0.00e+00	0	56	104	34108080128	77	19369
2026-01-28 21:08:04.26	334.75	2.64	-53.3	-55.5	6.2	0.00e+00	0	56	104	34108080128	77	19352
2026-01-28 21:08:05.27	334.87	2.58	-53.3	-55.5	6.2	0.00e+00	0	56	104	34108080128	77	19286
2026-01-28 21:08:06.27	334.98	2.52	-53.3	-55.5	6.2	0.00e+00	0	56	104	34108080128	77	19302
2026-01-28 21:08:07.28	335.09	2.47	-53.3	-55.5	6.2	0.00e+00	0	56	104	34108080128	77	19299
2026-01-28 21:08:08.29	335.20	2.41	-53.3	-55.5	6.2	0.00e+00	0	56	104	34108080128	77	19276
2026-01-28 21:08:09.29	335.32	2.35	-53.3	-55.4	6.2	0.00e+00	0	56	104	34108080128	77	19251
2026-01-28 21:08:10.30	335.43	2.30	-53.3	-55.5	6.2	0.00e+00	0	56	104	34108080128	77	19259
2026-01-28 21:08:11.31	335.54	2.24	-53.3	-55.4	6.2	0.00e+00	0	56	104	34108080128	77	19217
2026-01-28 21:08:12.32	335.65	2.18	-53.3	-55.4	6.2	0.00e+00	0	56	104	34108080128	77	19217
2026-01-28 21:08:13.32	335.76	2.13	-53.3	-55.4	6.2	0.00e+00	0	56	104	34108080128	77	19248
2026-01-28 21:08:14.33	335.87	2.07	-53.3	-55.4	6.2	0.00e+00	0	56	104	34108080128	77	19191
2026-01-28 21:08:15.34	335.97	2.01	-53.3	-55.4	6.2	0.00e+00	0	56	104	34108080128	77	19243
2026-01-28 21:08:16.34	336.08	1.96	-53.3	-55.4	6.2	0.00e+00	0	56	104	34108080128	77	19189
2026-01-28 21:08:17.35	336.19	1.90	-53.3	-55.4	6.2	0.00e+00	0	56	104	34108080128	77	19207

#Closed at: 2026-01-28 21:08:18
#Recorded file [34108 MB]: D:/lorett/data/31041_260128_235919.dat