passes_logs/2026/01/28/R3.2S_Murmansk/R3.2S_Murmansk__20260128_030458_FENGYUN_3D_rec.log

#Pass ID: 20260128_030458_FENGYUN 3D
#Satellite: FENGYUN 3D
#Configuration: FENGYUN 3D
#almurnet v.1.7.20251203
#Start time: 2026-01-28 03:04:58

#Version: 2.2.20231116
#Station: R3.2S_Murmansk
#Location: 33.079688 lon 68.888172 lat
#TLE: 1 43010U 17072A   26027.26653803  .00000472  00000+0  24513-3 0  9995
#TLE: 2 43010  98.9961 359.2743 0002530  88.0161 272.1305 14.19701760424993

#Time	Az	El	Level	Level2	SNR	BER	BlckErr	Temp	State	Recorded	gain1	gain2
2026-01-28 03:04:58.03	26.27	1.98	-52.9	-64.8	3.8	8.46e-01	0	41	0	0	77	14122
2026-01-28 03:04:59.03	26.27	2.05	-52.0	-63.9	3.8	8.46e-01	0	41	104	0	74	15212
2026-01-28 03:05:00.04	26.27	2.11	-52.0	-63.9	3.8	8.47e-01	0	41	104	0	74	15127
2026-01-28 03:05:01.05	26.26	2.18	-52.0	-63.9	3.8	8.46e-01	0	41	104	0	74	15146
2026-01-28 03:05:02.05	26.26	2.24	-52.0	-63.9	3.8	8.46e-01	0	41	104	0	74	15053
2026-01-28 03:05:03.06	26.26	2.30	-52.0	-63.9	3.8	8.46e-01	0	41	104	0	74	15082
2026-01-28 03:05:04.07	26.25	2.37	-52.0	-63.8	3.8	8.45e-01	0	41	104	0	74	15019
2026-01-28 03:05:05.08	26.25	2.44	-52.0	-63.8	3.8	8.46e-01	0	41	104	0	74	14979
2026-01-28 03:05:06.08	26.25	2.50	-52.0	-63.8	3.8	8.46e-01	0	42	104	0	74	14981
2026-01-28 03:05:07.09	26.24	2.57	-52.0	-63.8	3.8	8.46e-01	0	41	104	0	74	14980
2026-01-28 03:05:08.10	26.24	2.63	-52.0	-63.7	3.8	8.46e-01	0	41	104	0	74	14872
2026-01-28 03:05:09.11	26.24	2.70	-52.0	-63.8	3.8	8.46e-01	0	41	104	0	74	14892
2026-01-28 03:05:10.12	26.23	2.76	-52.0	-63.8	3.8	8.46e-01	0	41	104	0	74	14958
2026-01-28 03:05:11.13	26.23	2.83	-51.9	-63.8	3.8	8.46e-01	0	41	104	0	74	14904
2026-01-28 03:05:12.14	26.23	2.90	-51.9	-63.8	3.8	8.47e-01	0	41	104	0	74	14923
2026-01-28 03:05:13.14	26.22	2.96	-52.0	-63.8	3.8	8.45e-01	0	41	104	0	74	14980
2026-01-28 03:05:14.15	26.22	3.03	-51.9	-63.7	3.8	8.47e-01	0	41	104	0	74	14864
2026-01-28 03:05:15.16	26.21	3.10	-51.9	-63.7	3.8	8.45e-01	0	42	104	0	74	14714
2026-01-28 03:05:16.17	26.21	3.16	-51.9	-63.5	3.8	8.47e-01	0	42	104	0	74	14438
2026-01-28 03:05:17.18	26.21	3.23	-51.9	-63.2	3.8	8.46e-01	0	41	104	0	74	14011
2026-01-28 03:05:18.18	26.20	3.30	-51.9	-63.0	3.8	8.46e-01	0	42	104	0	74	13726
2026-01-28 03:05:19.19	26.20	3.36	-51.8	-62.8	3.8	8.45e-01	0	42	104	0	74	13262
2026-01-28 03:05:20.20	26.20	3.43	-51.8	-62.6	3.8	8.46e-01	0	42	104	0	74	13011
2026-01-28 03:05:21.21	26.19	3.50	-51.8	-62.4	3.8	8.46e-01	0	42	104	0	74	12702
2026-01-28 03:05:22.21	26.19	3.57	-51.8	-61.9	3.8	8.45e-01	0	42	104	0	74	12026
2026-01-28 03:05:23.22	26.18	3.64	-51.7	-61.6	3.8	8.43e-01	0	42	104	0	74	11618
2026-01-28 03:05:24.23	26.18	3.70	-51.6	-61.0	4.0	8.44e-01	0	42	104	0	74	10812
2026-01-28 03:05:25.23	26.17	3.77	-51.5	-59.9	4.3	8.35e-01	0	42	0	0	74	9515
2026-01-28 03:05:26.24	26.17	3.84	-51.2	-58.4	4.9	7.93e-01	0	42	0	0	74	8026
2026-01-28 03:05:27.25	26.17	3.91	-50.8	-56.7	6.0	4.10e-01	0	42	0	2097152	73	7012
2026-01-28 03:05:28.26	26.16	3.98	-50.1	-54.6	7.9	1.53e-01	0	42	0	7340032	72	5850
2026-01-28 03:05:29.27	26.16	4.05	-49.5	-53.2	9.4	6.94e-02	0	42	0	13631488	71	5276
2026-01-28 03:05:30.27	26.15	4.12	-48.9	-52.0	10.7	6.68e-03	0	42	0	18874368	69	5130
2026-01-28 03:05:31.28	26.15	4.19	-48.2	-50.8	12.0	1.42e-03	0	42	0	24117248	68	4727
2026-01-28 03:05:32.29	26.14	4.26	-47.2	-49.4	13.4	7.09e-05	0	42	0	30408704	66	4512
2026-01-28 03:05:33.30	26.14	4.33	-46.9	-48.9	13.9	1.02e-05	0	42	0	35651584	65	4538
2026-01-28 03:05:34.31	26.14	4.40	-46.5	-48.4	14.4	1.10e-06	0	42	0	40894464	64	4502
2026-01-28 03:05:35.32	26.13	4.47	-46.5	-48.4	14.4	1.10e-06	0	42	0	47185920	64	4512
2026-01-28 03:05:36.33	26.13	4.54	-46.0	-47.8	15.0	0.00e+00	0	42	0	52428800	64	4200
2026-01-28 03:05:37.34	26.12	4.61	-46.1	-47.9	14.9	0.00e+00	0	42	0	58720256	64	4265
2026-01-28 03:05:38.35	26.12	4.68	-46.0	-47.7	15.2	0.00e+00	0	42	0	63963136	63	4405
2026-01-28 03:05:39.36	26.11	4.75	-46.1	-47.9	15.0	0.00e+00	0	42	0	70254592	63	4502
2026-01-28 03:05:40.37	26.11	4.82	-46.5	-48.3	14.5	0.00e+00	0	42	0	75497472	63	4758
2026-01-28 03:05:41.37	26.10	4.89	-46.7	-48.7	14.0	1.10e-06	0	42	0	81788928	64	4695
2026-01-28 03:05:42.38	26.10	4.96	-47.4	-49.6	13.1	1.60e-05	0	42	0	87031808	65	4898
2026-01-28 03:05:43.39	26.09	5.04	-49.0	-52.3	10.6	3.84e-04	0	42	0	92274688	68	5615
2026-01-28 03:05:44.40	26.09	5.11	-51.1	-57.7	5.3	8.45e-01	0	42	104	93323264	74	7432
2026-01-28 03:05:45.41	26.08	5.18	-46.0	-47.6	15.4	0.00e+00	0	42	0	98566144	63	4383
2026-01-28 03:05:46.42	26.08	5.25	-50.6	-56.2	4.6	8.47e-01	0	42	104	99614720	73	6590
2026-01-28 03:05:47.42	26.07	5.33	-44.4	-45.6	17.8	0.00e+00	0	42	0	100663296	59	4360
2026-01-28 03:05:48.43	26.07	5.40	-48.7	-51.6	11.1	2.02e-01	0	42	0	106954752	69	4881
2026-01-28 03:05:49.44	26.06	5.47	-43.6	-44.7	18.7	0.00e+00	0	42	0	113246208	59	3921
2026-01-28 03:05:50.45	26.06	5.54	-43.6	-44.7	18.7	0.00e+00	0	42	0	118489088	58	4161
2026-01-28 03:05:51.46	26.05	5.62	-43.5	-44.6	18.8	0.00e+00	0	42	0	123731968	58	4141
2026-01-28 03:05:52.47	26.05	5.69	-43.6	-44.8	18.7	0.00e+00	0	42	0	130023424	58	4213
2026-01-28 03:05:53.48	26.04	5.77	-43.8	-44.9	18.6	0.00e+00	0	42	0	135266304	58	4276
2026-01-28 03:05:54.48	26.03	5.84	-43.6	-44.8	18.7	0.00e+00	0	42	0	140509184	58	4198
2026-01-28 03:05:55.49	26.03	5.91	-43.4	-44.5	18.9	0.00e+00	0	42	0	146800640	58	4096
2026-01-28 03:05:56.50	26.02	5.99	-43.5	-44.6	18.9	0.00e+00	0	42	0	152043520	58	4126
2026-01-28 03:05:57.51	26.02	6.06	-43.4	-44.5	19.0	0.00e+00	0	42	0	158334976	58	4094
2026-01-28 03:05:58.52	26.01	6.14	-43.6	-44.7	18.8	0.00e+00	0	42	0	163577856	58	4191
2026-01-28 03:05:59.53	26.01	6.21	-43.6	-44.7	18.8	0.00e+00	0	42	0	168820736	58	4188
2026-01-28 03:06:00.53	26.00	6.29	-43.5	-44.6	19.0	0.00e+00	0	42	0	175112192	58	4111
2026-01-28 03:06:01.54	25.99	6.36	-43.4	-44.5	19.1	0.00e+00	0	42	0	181403648	58	4084
2026-01-28 03:06:02.55	25.99	6.44	-43.2	-44.3	19.3	0.00e+00	0	42	0	186646528	58	3981
2026-01-28 03:06:03.56	25.98	6.51	-43.3	-44.3	19.2	0.00e+00	0	42	0	191889408	58	4004
2026-01-28 03:06:04.57	25.98	6.59	-43.3	-44.3	19.2	0.00e+00	0	42	0	198180864	58	4003
2026-01-28 03:06:05.58	25.97	6.67	-43.3	-44.4	19.2	0.00e+00	0	42	0	203423744	58	4033
2026-01-28 03:06:06.58	25.96	6.74	-43.4	-44.5	19.1	0.00e+00	0	42	0	208666624	58	4052
2026-01-28 03:06:07.59	25.96	6.82	-43.1	-44.2	19.4	0.00e+00	0	43	0	214958080	58	3921
2026-01-28 03:06:08.60	25.95	6.90	-43.1	-44.2	19.4	0.00e+00	0	42	0	220200960	58	3931
2026-01-28 03:06:09.61	25.95	6.98	-42.9	-43.9	19.7	0.00e+00	0	43	0	225443840	57	4050
2026-01-28 03:06:10.62	25.94	7.05	-43.0	-44.0	19.6	0.00e+00	0	42	0	231735296	57	4095
2026-01-28 03:06:11.63	25.93	7.13	-43.0	-44.0	19.6	0.00e+00	0	42	0	236978176	57	4079
2026-01-28 03:06:12.64	25.93	7.21	-43.2	-44.3	19.3	0.00e+00	0	42	0	243269632	57	4212
2026-01-28 03:06:13.65	25.92	7.29	-43.3	-44.3	19.3	0.00e+00	0	42	0	248512512	57	4220
2026-01-28 03:06:14.66	25.91	7.37	-43.3	-44.3	19.3	0.00e+00	0	43	0	254803968	57	4221
2026-01-28 03:06:15.67	25.91	7.44	-43.1	-44.1	19.5	0.00e+00	0	42	0	260046848	57	4145
2026-01-28 03:06:16.67	25.90	7.52	-43.1	-44.1	19.6	0.00e+00	0	43	0	266338304	57	4116
2026-01-28 03:06:17.69	25.89	7.60	-42.8	-43.8	19.9	0.00e+00	0	43	0	271581184	57	3973
2026-01-28 03:06:18.69	25.89	7.68	-42.6	-43.6	20.1	0.00e+00	0	42	0	276824064	57	3874
2026-01-28 03:06:19.70	25.88	7.76	-42.7	-43.7	20.0	0.00e+00	0	43	0	283115520	57	3951
2026-01-28 03:06:20.71	25.87	7.84	-42.7	-43.7	20.0	0.00e+00	0	43	0	288358400	57	3945
2026-01-28 03:06:21.72	25.87	7.92	-42.7	-43.7	20.0	0.00e+00	0	43	0	293601280	57	3940
2026-01-28 03:06:22.73	25.86	8.00	-42.6	-43.6	20.1	0.00e+00	0	42	0	299892736	57	3886
2026-01-28 03:06:23.73	25.85	8.08	-42.6	-43.6	20.1	0.00e+00	0	42	0	306184192	57	3888
2026-01-28 03:06:24.74	25.84	8.16	-42.5	-43.5	20.3	0.00e+00	0	43	0	311427072	56	4065
2026-01-28 03:06:25.75	25.84	8.25	-42.5	-43.4	20.3	0.00e+00	0	43	0	316669952	56	4047
2026-01-28 03:06:26.76	25.83	8.33	-42.4	-43.4	20.3	0.00e+00	0	43	0	322961408	56	4019
2026-01-28 03:06:27.77	25.82	8.41	-42.4	-43.3	20.4	0.00e+00	0	43	0	328204288	56	3999
2026-01-28 03:06:28.77	25.81	8.49	-42.4	-43.3	20.4	0.00e+00	0	43	0	333447168	56	3985
2026-01-28 03:06:29.79	25.81	8.57	-42.3	-43.3	20.5	0.00e+00	0	43	0	339738624	56	3966
2026-01-28 03:06:30.80	25.80	8.66	-42.3	-43.2	20.5	0.00e+00	0	43	0	344981504	56	3945
2026-01-28 03:06:31.81	25.79	8.74	-42.3	-43.2	20.6	0.00e+00	0	43	0	351272960	56	3940
2026-01-28 03:06:32.81	25.78	8.82	-42.2	-43.1	20.7	0.00e+00	0	43	0	356515840	56	3890
2026-01-28 03:06:33.82	25.78	8.90	-42.3	-43.3	20.5	0.00e+00	0	43	0	361758720	56	3977
2026-01-28 03:06:34.83	25.77	8.99	-42.1	-43.0	20.7	0.00e+00	0	43	0	368050176	56	3866
2026-01-28 03:06:35.84	25.76	9.07	-42.2	-43.1	20.7	0.00e+00	0	43	0	374341632	56	3894
2026-01-28 03:06:36.85	25.75	9.16	-42.1	-43.0	20.8	0.00e+00	0	43	0	379584512	56	3839
2026-01-28 03:06:37.86	25.74	9.24	-42.1	-43.0	20.8	0.00e+00	0	43	0	384827392	56	3831
2026-01-28 03:06:38.87	25.74	9.33	-42.0	-43.0	20.9	0.00e+00	0	43	0	391118848	56	3828
2026-01-28 03:06:39.87	25.73	9.41	-42.0	-43.0	20.8	0.00e+00	0	43	0	396361728	56	3825
2026-01-28 03:06:40.88	25.72	9.50	-42.0	-42.9	20.9	0.00e+00	0	43	0	401604608	56	3791
2026-01-28 03:06:41.88	25.71	9.58	-41.8	-42.7	21.0	0.00e+00	0	43	0	407896064	55	3952
2026-01-28 03:06:42.89	25.70	9.67	-41.8	-42.7	21.0	0.00e+00	0	43	0	413138944	55	3943
2026-01-28 03:06:43.90	25.69	9.75	-41.7	-42.7	21.1	0.00e+00	0	43	0	418381824	55	3914
2026-01-28 03:06:44.91	25.69	9.84	-41.7	-42.6	21.2	0.00e+00	0	43	0	424673280	55	3884
2026-01-28 03:06:45.92	25.68	9.93	-41.9	-42.8	21.0	0.00e+00	0	43	0	429916160	55	3961
2026-01-28 03:06:46.93	25.67	10.01	-41.7	-42.6	21.2	0.00e+00	0	43	0	436207616	55	3895
2026-01-28 03:06:47.94	25.66	10.10	-41.7	-42.6	21.1	0.00e+00	0	43	0	441450496	55	3895
2026-01-28 03:06:48.95	25.65	10.19	-41.7	-42.6	21.1	0.00e+00	0	43	0	447741952	55	3908
2026-01-28 03:06:49.96	25.64	10.28	-41.6	-42.5	21.2	0.00e+00	0	43	0	452984832	55	3858
2026-01-28 03:06:50.97	25.63	10.37	-41.5	-42.4	21.4	0.00e+00	0	43	0	459276288	55	3810
2026-01-28 03:06:51.97	25.62	10.46	-41.5	-42.4	21.4	0.00e+00	0	43	0	464519168	55	3806
2026-01-28 03:06:52.97	25.61	10.54	-41.5	-42.4	21.4	0.00e+00	0	43	0	469762048	54	4007
2026-01-28 03:06:53.98	25.61	10.63	-41.5	-42.3	21.4	0.00e+00	0	43	0	476053504	54	4003
2026-01-28 03:06:54.99	25.60	10.72	-41.5	-42.3	21.4	0.00e+00	0	43	0	481296384	54	4001
2026-01-28 03:06:56.00	25.59	10.81	-41.5	-42.3	21.4	0.00e+00	0	43	0	486539264	54	4002
2026-01-28 03:06:57.00	25.58	10.90	-41.5	-42.4	21.4	0.00e+00	0	43	0	492830720	54	4039
2026-01-28 03:06:58.01	25.57	10.99	-41.5	-42.4	21.4	0.00e+00	0	43	0	498073600	54	4011
2026-01-28 03:06:59.02	25.56	11.08	-41.6	-42.4	21.4	0.00e+00	0	43	0	503316480	54	4050
2026-01-28 03:07:00.03	25.55	11.18	-41.5	-42.4	21.4	0.00e+00	0	43	0	509607936	54	4041
2026-01-28 03:07:01.04	25.54	11.27	-41.4	-42.3	21.5	0.00e+00	0	43	0	515899392	54	3994
2026-01-28 03:07:02.04	25.53	11.36	-41.5	-42.4	21.4	0.00e+00	0	43	0	521142272	54	4034
2026-01-28 03:07:03.05	25.52	11.45	-41.5	-42.4	21.5	0.00e+00	0	43	0	526385152	54	4010
2026-01-28 03:07:04.06	25.51	11.54	-41.4	-42.3	21.6	0.00e+00	0	43	0	532676608	54	3966
2026-01-28 03:07:05.07	25.50	11.64	-41.5	-42.3	21.5	0.00e+00	0	43	0	537919488	54	3996
2026-01-28 03:07:06.08	25.49	11.73	-41.5	-42.4	21.5	0.00e+00	0	43	0	544210944	54	4007
2026-01-28 03:07:07.09	25.48	11.83	-41.4	-42.3	21.6	0.00e+00	0	43	0	549453824	54	3963
2026-01-28 03:07:08.09	25.47	11.92	-41.4	-42.2	21.6	0.00e+00	0	43	0	554696704	54	3953
2026-01-28 03:07:09.10	25.45	12.01	-41.5	-42.4	21.5	0.00e+00	0	43	0	560988160	54	4019
2026-01-28 03:07:10.11	25.44	12.11	-41.4	-42.2	21.6	0.00e+00	0	43	0	566231040	54	3939
2026-01-28 03:07:11.12	25.43	12.20	-41.4	-42.2	21.6	0.00e+00	0	43	0	571473920	54	3951
2026-01-28 03:07:12.12	25.42	12.30	-41.4	-42.2	21.7	0.00e+00	0	43	0	577765376	54	3949
2026-01-28 03:07:13.13	25.41	12.39	-41.4	-42.3	21.6	0.00e+00	0	43	0	584056832	54	3981
2026-01-28 03:07:14.14	25.40	12.49	-41.5	-42.4	21.5	0.00e+00	0	43	0	589299712	54	4011
2026-01-28 03:07:15.15	25.39	12.59	-41.5	-42.4	21.5	0.00e+00	0	43	0	594542592	54	4034
2026-01-28 03:07:16.16	25.38	12.69	-41.4	-42.3	21.6	0.00e+00	0	43	0	600834048	54	3964
2026-01-28 03:07:17.17	25.37	12.78	-41.4	-42.2	21.7	0.00e+00	0	43	0	606076928	54	3946
2026-01-28 03:07:18.17	25.35	12.88	-41.4	-42.3	21.6	0.00e+00	0	43	0	611319808	54	3970
2026-01-28 03:07:19.18	25.34	12.98	-41.4	-42.3	21.6	0.00e+00	0	43	0	617611264	54	3970
2026-01-28 03:07:20.19	25.33	13.08	-41.4	-42.2	21.7	0.00e+00	0	43	0	622854144	54	3955
2026-01-28 03:07:21.20	25.32	13.18	-41.3	-42.1	21.8	0.00e+00	0	43	0	629145600	54	3913
2026-01-28 03:07:22.21	25.31	13.28	-41.3	-42.1	21.8	0.00e+00	0	43	0	634388480	54	3893
2026-01-28 03:07:23.22	25.30	13.38	-41.2	-42.1	21.9	0.00e+00	0	43	0	639631360	54	3875
2026-01-28 03:07:24.23	25.28	13.48	-41.2	-42.0	21.9	0.00e+00	0	43	0	645922816	54	3847
2026-01-28 03:07:25.24	25.27	13.58	-41.1	-41.9	22.0	0.00e+00	0	43	0	652214272	54	3815
2026-01-28 03:07:26.25	25.26	13.68	-41.0	-41.8	22.1	0.00e+00	0	43	0	657457152	54	3763
2026-01-28 03:07:27.26	25.25	13.78	-41.0	-41.9	22.1	0.00e+00	0	43	0	662700032	53	4009
2026-01-28 03:07:28.27	25.23	13.88	-40.9	-41.7	22.2	0.00e+00	0	43	0	668991488	53	3946
2026-01-28 03:07:29.28	25.22	13.99	-40.9	-41.7	22.2	0.00e+00	0	43	0	674234368	53	3955
2026-01-28 03:07:30.29	25.21	14.09	-40.8	-41.7	22.2	0.00e+00	0	43	0	679477248	53	3920
2026-01-28 03:07:31.30	25.19	14.19	-40.9	-41.7	22.2	0.00e+00	0	43	0	685768704	53	3950
2026-01-28 03:07:32.31	25.18	14.30	-40.9	-41.7	22.2	0.00e+00	0	43	0	691011584	53	3947
2026-01-28 03:07:33.32	25.17	14.40	-40.8	-41.6	22.3	0.00e+00	0	43	0	696254464	53	3901
2026-01-28 03:07:34.33	25.15	14.51	-40.8	-41.6	22.3	0.00e+00	0	43	0	702545920	53	3903
2026-01-28 03:07:35.33	25.14	14.61	-40.8	-41.6	22.3	0.00e+00	0	43	0	707788800	53	3886
2026-01-28 03:07:36.34	25.13	14.72	-40.7	-41.5	22.4	0.00e+00	0	43	0	714080256	53	3846
2026-01-28 03:07:37.35	25.11	14.82	-40.6	-41.5	22.5	0.00e+00	0	43	0	719323136	53	3831
2026-01-28 03:07:38.36	25.10	14.93	-40.5	-41.4	22.6	0.00e+00	0	43	0	725614592	53	3783
2026-01-28 03:07:39.37	25.09	15.04	-40.4	-41.2	22.8	0.00e+00	0	43	0	730857472	52	3924
2026-01-28 03:07:40.37	25.07	15.14	-40.4	-41.2	22.7	0.00e+00	0	43	0	737148928	52	3921
2026-01-28 03:07:41.38	25.06	15.25	-40.3	-41.1	22.8	0.00e+00	0	43	0	742391808	52	3906
2026-01-28 03:07:42.39	25.04	15.36	-40.3	-41.0	22.9	0.00e+00	0	43	0	747634688	52	3865
2026-01-28 03:07:43.40	25.03	15.47	-40.2	-41.0	22.9	0.00e+00	0	43	0	753926144	52	3862
2026-01-28 03:07:44.41	25.01	15.58	-40.2	-41.0	22.9	0.00e+00	0	43	0	759169024	52	3849
2026-01-28 03:07:45.42	25.00	15.69	-40.2	-41.0	22.9	0.00e+00	0	43	0	764411904	52	3847
2026-01-28 03:07:46.42	24.98	15.80	-40.2	-41.0	23.0	0.00e+00	0	43	0	770703360	52	3831
2026-01-28 03:07:47.43	24.97	15.91	-40.2	-41.0	23.0	0.00e+00	0	43	0	775946240	52	3832
2026-01-28 03:07:48.44	24.95	16.02	-40.2	-41.0	22.9	0.00e+00	0	43	0	782237696	52	3855
2026-01-28 03:07:49.45	24.94	16.13	-40.3	-41.1	22.9	0.00e+00	0	43	0	787480576	52	3883
2026-01-28 03:07:50.46	24.92	16.24	-40.1	-40.9	23.0	0.00e+00	0	43	0	793772032	52	3804
2026-01-28 03:07:51.47	24.91	16.36	-40.1	-40.9	23.1	0.00e+00	0	43	0	799014912	52	3788
2026-01-28 03:07:52.48	24.89	16.47	-40.2	-41.0	23.0	0.00e+00	0	43	0	804257792	52	3828
2026-01-28 03:07:53.49	24.87	16.58	-40.0	-40.8	23.2	0.00e+00	0	43	0	810549248	51	3987
2026-01-28 03:07:54.49	24.86	16.70	-40.1	-40.9	23.1	0.00e+00	0	43	0	815792128	51	4028
2026-01-28 03:07:55.50	24.84	16.81	-40.0	-40.8	23.2	0.00e+00	0	43	0	822083584	51	3987
2026-01-28 03:07:56.50	24.83	16.93	-40.0	-40.8	23.2	0.00e+00	0	43	0	827326464	51	3985
2026-01-28 03:07:57.51	24.81	17.04	-40.0	-40.8	23.3	0.00e+00	0	43	0	832569344	51	3974
2026-01-28 03:07:58.52	24.79	17.16	-39.9	-40.7	23.4	0.00e+00	0	43	0	838860800	51	3922
2026-01-28 03:07:59.53	24.78	17.28	-39.9	-40.7	23.4	0.00e+00	0	43	0	844103680	51	3914
2026-01-28 03:08:00.52	24.76	17.39	-39.8	-40.5	23.5	0.00e+00	0	43	0	849346560	51	3864
2026-01-28 03:08:01.53	24.74	17.51	-39.7	-40.5	23.6	0.00e+00	0	43	0	855638016	51	3841
2026-01-28 03:08:02.54	24.72	17.63	-39.8	-40.5	23.5	0.00e+00	0	43	0	861929472	51	3853
2026-01-28 03:08:03.55	24.71	17.75	-39.7	-40.5	23.6	0.00e+00	0	43	0	867172352	51	3842
2026-01-28 03:08:04.56	24.69	17.87	-39.6	-40.4	23.6	0.00e+00	0	43	0	872415232	51	3793
2026-01-28 03:08:05.56	24.67	17.99	-39.4	-40.2	23.8	0.00e+00	0	43	0	878706688	50	3935
2026-01-28 03:08:06.57	24.65	18.11	-39.5	-40.2	23.8	0.00e+00	0	43	0	883949568	50	3950
2026-01-28 03:08:07.58	24.63	18.23	-39.4	-40.1	23.9	0.00e+00	0	43	0	889192448	50	3908
2026-01-28 03:08:08.59	24.62	18.36	-39.4	-40.1	23.9	0.00e+00	0	43	0	895483904	50	3889
2026-01-28 03:08:09.59	24.60	18.48	-39.3	-40.1	24.0	0.00e+00	0	43	0	900726784	50	3872
2026-01-28 03:08:10.60	24.58	18.60	-39.3	-40.0	24.0	0.00e+00	0	43	0	907018240	50	3836
2026-01-28 03:08:11.61	24.56	18.73	-39.2	-40.0	24.0	0.00e+00	0	43	0	912261120	50	3832
2026-01-28 03:08:12.62	24.54	18.85	-39.2	-39.9	24.1	0.00e+00	0	43	0	917504000	50	3817
2026-01-28 03:08:13.63	24.52	18.98	-39.1	-39.8	24.2	0.00e+00	0	43	0	923795456	50	3757
2026-01-28 03:08:14.64	24.50	19.10	-39.1	-39.8	24.2	0.00e+00	0	43	0	930086912	50	3759
2026-01-28 03:08:15.64	24.48	19.23	-39.1	-39.8	24.2	0.00e+00	0	43	0	935329792	50	3754
2026-01-28 03:08:16.65	24.46	19.36	-39.1	-39.8	24.2	0.00e+00	0	43	0	940572672	50	3778
2026-01-28 03:08:17.66	24.44	19.49	-39.0	-39.7	24.3	0.00e+00	0	43	0	946864128	50	3735
2026-01-28 03:08:18.67	24.42	19.62	-39.0	-39.8	24.2	0.00e+00	0	43	0	952107008	50	3743
2026-01-28 03:08:19.67	24.40	19.74	-39.1	-39.8	24.2	0.00e+00	0	43	0	957349888	50	3776
2026-01-28 03:08:20.68	24.38	19.87	-39.1	-39.9	24.2	0.00e+00	0	43	0	963641344	50	3793
2026-01-28 03:08:21.69	24.36	20.01	-39.0	-39.8	24.3	0.00e+00	0	43	0	968884224	50	3744
2026-01-28 03:08:22.70	24.34	20.14	-39.1	-39.8	24.2	0.00e+00	0	43	0	974127104	50	3769
2026-01-28 03:08:23.71	24.31	20.27	-39.2	-39.9	24.1	0.00e+00	0	43	0	980418560	50	3798
2026-01-28 03:08:24.72	24.29	20.40	-39.2	-39.9	24.1	0.00e+00	0	43	0	985661440	50	3812
2026-01-28 03:08:25.73	24.27	20.54	-39.3	-40.0	24.1	0.00e+00	0	43	0	991952896	50	3849
2026-01-28 03:08:26.74	24.25	20.67	-39.2	-40.0	24.1	0.00e+00	0	43	0	997195776	50	3829
2026-01-28 03:08:27.75	24.23	20.81	-39.3	-40.1	24.0	0.00e+00	0	43	0	1003487232	50	3869
2026-01-28 03:08:28.76	24.20	20.94	-39.3	-40.0	24.1	0.00e+00	0	43	0	1008730112	50	3847
2026-01-28 03:08:29.77	24.18	21.08	-39.5	-40.2	23.9	0.00e+00	0	43	0	1015021568	50	3937
2026-01-28 03:08:30.77	24.16	21.21	-39.5	-40.2	23.9	0.00e+00	0	43	0	1020264448	50	3942
2026-01-28 03:08:31.78	24.13	21.35	-39.4	-40.1	24.0	0.00e+00	0	43	0	1025507328	50	3903
2026-01-28 03:08:32.79	24.11	21.49	-39.4	-40.2	23.9	0.00e+00	0	43	0	1031798784	50	3917
2026-01-28 03:08:33.79	24.09	21.63	-39.4	-40.1	24.0	0.00e+00	0	43	0	1037041664	50	3907
2026-01-28 03:08:34.80	24.06	21.77	-39.4	-40.1	24.0	0.00e+00	0	43	0	1042284544	50	3905
2026-01-28 03:08:35.81	24.04	21.91	-39.3	-40.1	24.0	0.00e+00	0	43	0	1048576000	50	3876
2026-01-28 03:08:36.82	24.01	22.05	-39.4	-40.1	24.0	0.00e+00	0	43	0	1053818880	50	3909
2026-01-28 03:08:37.83	23.99	22.20	-39.3	-40.1	24.0	0.00e+00	0	43	0	1059061760	50	3896
2026-01-28 03:08:38.84	23.96	22.34	-39.3	-40.1	24.0	0.00e+00	0	43	0	1065353216	50	3875
2026-01-28 03:08:39.85	23.94	22.48	-39.3	-40.0	24.1	0.00e+00	0	43	0	1071644672	50	3856
2026-01-28 03:08:40.85	23.91	22.63	-39.1	-39.9	24.2	0.00e+00	0	43	0	1076887552	50	3807
2026-01-28 03:08:41.86	23.89	22.77	-39.1	-39.9	24.2	0.00e+00	0	43	0	1082130432	50	3797
2026-01-28 03:08:42.87	23.86	22.92	-39.2	-40.0	24.0	0.00e+00	0	43	0	1088421888	50	3849
2026-01-28 03:08:43.87	23.83	23.07	-39.2	-40.0	24.1	0.00e+00	0	43	0	1093664768	50	3826
2026-01-28 03:08:44.88	23.81	23.22	-39.0	-39.8	24.3	0.00e+00	0	43	0	1099956224	50	3746
2026-01-28 03:08:45.89	23.78	23.36	-39.0	-39.7	24.4	0.00e+00	0	43	0	1105199104	49	3938
2026-01-28 03:08:46.90	23.75	23.52	-39.0	-39.7	24.3	0.00e+00	0	43	0	1110441984	49	3941
2026-01-28 03:08:47.91	23.72	23.67	-38.9	-39.6	24.4	0.00e+00	0	43	0	1116733440	49	3903
2026-01-28 03:08:48.92	23.70	23.82	-38.8	-39.6	24.4	0.00e+00	0	43	0	1121976320	49	3884
2026-01-28 03:08:49.93	23.67	23.97	-38.8	-39.5	24.6	0.00e+00	0	43	0	1127219200	49	3849
2026-01-28 03:08:50.93	23.64	24.12	-38.8	-39.5	24.6	0.00e+00	0	43	0	1133510656	49	3835
2026-01-28 03:08:51.94	23.61	24.28	-38.8	-39.5	24.6	0.00e+00	0	43	0	1139802112	49	3837
2026-01-28 03:08:52.95	23.58	24.43	-38.9	-39.6	24.5	0.00e+00	0	43	0	1145044992	49	3890
2026-01-28 03:08:53.96	23.55	24.59	-38.7	-39.4	24.7	0.00e+00	0	43	0	1150287872	49	3800
2026-01-28 03:08:54.96	23.52	24.75	-38.7	-39.5	24.6	0.00e+00	0	43	0	1156579328	49	3826
2026-01-28 03:08:55.97	23.49	24.90	-38.8	-39.5	24.6	0.00e+00	0	43	0	1161822208	49	3845
2026-01-28 03:08:56.98	23.46	25.06	-38.7	-39.4	24.7	0.00e+00	0	43	0	1167065088	49	3786
2026-01-28 03:08:57.99	23.43	25.22	-38.5	-39.2	24.8	0.00e+00	0	43	0	1173356544	49	3715
2026-01-28 03:08:58.99	23.40	25.38	-38.6	-39.3	24.8	0.00e+00	0	43	0	1178599424	49	3754
2026-01-28 03:09:00.00	23.36	25.55	-38.6	-39.3	24.8	0.00e+00	0	43	0	1184890880	49	3753
2026-01-28 03:09:01.01	23.33	25.71	-38.6	-39.3	24.8	0.00e+00	0	43	0	1190133760	49	3761
2026-01-28 03:09:02.02	23.30	25.87	-38.6	-39.3	24.8	0.00e+00	0	43	0	1195376640	49	3773
2026-01-28 03:09:03.03	23.27	26.04	-38.5	-39.3	24.8	0.00e+00	0	43	0	1201668096	49	3745
2026-01-28 03:09:04.03	23.23	26.20	-38.4	-39.1	24.9	0.00e+00	0	43	0	1207959552	48	3898
2026-01-28 03:09:05.04	23.20	26.37	-38.3	-39.0	25.1	0.00e+00	0	43	0	1213202432	48	3845
2026-01-28 03:09:06.05	23.17	26.54	-38.3	-39.0	25.1	0.00e+00	0	43	0	1218445312	48	3841
2026-01-28 03:09:07.06	23.13	26.71	-38.3	-39.0	25.1	0.00e+00	0	43	0	1224736768	48	3846
2026-01-28 03:09:08.07	23.10	26.88	-38.2	-38.9	25.1	0.00e+00	0	43	0	1229979648	48	3819
2026-01-28 03:09:09.08	23.06	27.05	-38.2	-38.9	25.2	0.00e+00	0	43	0	1235222528	48	3811
2026-01-28 03:09:10.09	23.02	27.22	-38.1	-38.8	25.3	0.00e+00	0	43	0	1241513984	48	3768
2026-01-28 03:09:11.10	22.99	27.40	-38.1	-38.8	25.3	0.00e+00	0	43	0	1246756864	48	3741
2026-01-28 03:09:12.11	22.95	27.57	-38.1	-38.8	25.3	0.00e+00	0	43	0	1251999744	48	3756
2026-01-28 03:09:13.12	22.91	27.75	-38.0	-38.7	25.3	0.00e+00	0	43	0	1258291200	48	3721
2026-01-28 03:09:14.13	22.88	27.92	-38.2	-38.9	25.3	0.00e+00	0	43	0	1263534080	48	3783
2026-01-28 03:09:15.14	22.84	28.10	-38.2	-38.9	25.2	0.00e+00	0	43	0	1269825536	48	3816
2026-01-28 03:09:16.15	22.80	28.28	-38.2	-38.9	25.2	0.00e+00	0	43	0	1275068416	48	3805
2026-01-28 03:09:17.15	22.76	28.46	-38.2	-38.9	25.2	0.00e+00	0	43	0	1281359872	48	3816
2026-01-28 03:09:18.16	22.72	28.64	-38.2	-38.9	25.2	0.00e+00	0	43	0	1286602752	48	3803
2026-01-28 03:09:19.17	22.68	28.82	-38.3	-39.0	25.1	0.00e+00	0	43	0	1292894208	48	3858
2026-01-28 03:09:20.18	22.64	29.01	-38.3	-39.0	25.1	0.00e+00	0	43	0	1298137088	48	3841
2026-01-28 03:09:21.19	22.60	29.19	-38.2	-38.9	25.2	0.00e+00	0	43	0	1303379968	48	3803
2026-01-28 03:09:22.20	22.56	29.38	-38.3	-39.0	25.2	0.00e+00	0	43	0	1309671424	48	3830
2026-01-28 03:09:23.21	22.52	29.57	-38.3	-39.0	25.2	0.00e+00	0	43	0	1314914304	48	3837
2026-01-28 03:09:24.21	22.47	29.75	-38.4	-39.1	25.0	0.00e+00	0	43	0	1320157184	48	3900
2026-01-28 03:09:25.22	22.43	29.94	-38.4	-39.1	25.1	0.00e+00	0	43	0	1326448640	48	3885
2026-01-28 03:09:26.23	22.39	30.13	-38.4	-39.1	25.0	0.00e+00	0	43	0	1331691520	48	3910
2026-01-28 03:09:27.24	22.34	30.33	-38.4	-39.1	25.1	0.00e+00	0	43	0	1337982976	48	3890
2026-01-28 03:09:28.24	22.30	30.52	-38.3	-39.0	25.1	0.00e+00	0	43	0	1343225856	48	3853
2026-01-28 03:09:29.25	22.25	30.71	-38.4	-39.1	25.1	0.00e+00	0	43	0	1349517312	48	3891
2026-01-28 03:09:30.26	22.21	30.91	-38.3	-39.0	25.2	0.00e+00	0	43	0	1354760192	48	3839
2026-01-28 03:09:31.27	22.16	31.11	-38.2	-38.9	25.3	0.00e+00	0	43	0	1360003072	48	3805
2026-01-28 03:09:32.28	22.11	31.30	-38.1	-38.8	25.3	0.00e+00	0	43	0	1366294528	48	3773
2026-01-28 03:09:33.29	22.07	31.50	-37.6	-38.3	25.3	0.00e+00	0	43	0	1371537408	47	3758
2026-01-28 03:09:34.29	22.02	31.70	-37.6	-38.3	25.3	0.00e+00	0	43	0	1377828864	47	3769
2026-01-28 03:09:35.31	21.97	31.91	-37.8	-38.5	25.2	0.00e+00	0	43	0	1383071744	47	3834
2026-01-28 03:09:36.31	21.92	32.11	-37.6	-38.3	25.3	0.00e+00	0	43	0	1388314624	47	3763
2026-01-28 03:09:37.32	21.87	32.32	-37.6	-38.4	25.3	0.00e+00	0	43	0	1394606080	47	3782
2026-01-28 03:09:38.33	21.82	32.52	-37.6	-38.3	25.4	0.00e+00	0	43	0	1400897536	47	3747
2026-01-28 03:09:39.34	21.76	32.73	-37.7	-38.4	25.2	0.00e+00	0	43	0	1406140416	47	3805
2026-01-28 03:09:40.35	21.71	32.94	-37.7	-38.4	25.2	0.00e+00	0	43	0	1411383296	47	3821
2026-01-28 03:09:41.36	21.66	33.15	-37.7	-38.4	25.3	0.00e+00	0	43	0	1417674752	47	3802
2026-01-28 03:09:42.37	21.60	33.37	-37.7	-38.4	25.2	0.00e+00	0	43	0	1422917632	47	3818
2026-01-28 03:09:43.37	21.55	33.58	-37.7	-38.5	25.2	0.00e+00	0	43	0	1428160512	47	3826
2026-01-28 03:09:44.38	21.49	33.80	-37.8	-38.6	25.1	0.00e+00	0	43	0	1434451968	47	3876
2026-01-28 03:09:45.39	21.44	34.01	-37.8	-38.5	25.2	0.00e+00	0	43	0	1439694848	47	3853
2026-01-28 03:09:46.41	21.38	34.23	-37.7	-38.4	25.3	0.00e+00	0	43	0	1444937728	47	3795
2026-01-28 03:09:47.41	21.32	34.45	-37.8	-38.5	25.2	0.00e+00	0	43	0	1451229184	47	3842
2026-01-28 03:09:48.42	21.26	34.67	-37.6	-38.3	25.4	0.00e+00	0	43	0	1456472064	47	3756
2026-01-28 03:09:49.43	21.20	34.90	-37.7	-38.4	25.3	0.00e+00	0	43	0	1462763520	47	3792
2026-01-28 03:09:50.44	21.14	35.12	-37.2	-37.9	25.7	0.00e+00	0	43	0	1468006400	46	3792
2026-01-28 03:09:51.44	21.08	35.35	-37.2	-37.9	25.7	0.00e+00	0	43	0	1474297856	46	3786
2026-01-28 03:09:52.45	21.02	35.57	-37.1	-37.8	25.8	0.00e+00	0	43	0	1479540736	46	3751
2026-01-28 03:09:53.47	20.95	35.81	-37.2	-37.9	25.7	0.00e+00	0	43	0	1485832192	46	3793
2026-01-28 03:09:54.47	20.89	36.04	-37.3	-38.0	25.6	0.00e+00	0	43	0	1491075072	46	3850
2026-01-28 03:09:55.48	20.82	36.27	-37.4	-38.1	25.5	0.00e+00	0	43	0	1496317952	46	3894
2026-01-28 03:09:56.49	20.76	36.50	-37.5	-38.2	25.4	0.00e+00	0	43	0	1502609408	46	3935
2026-01-28 03:09:57.50	20.69	36.74	-37.5	-38.3	25.4	0.00e+00	0	43	0	1507852288	46	3959
2026-01-28 03:09:58.51	20.62	36.98	-37.6	-38.3	25.4	0.00e+00	0	43	0	1513095168	46	3983
2026-01-28 03:09:59.52	20.55	37.22	-37.6	-38.3	25.4	0.00e+00	0	43	0	1519386624	46	3973
2026-01-28 03:10:00.52	20.48	37.46	-37.6	-38.3	25.3	0.00e+00	0	43	0	1524629504	46	4002
2026-01-28 03:10:01.53	20.41	37.70	-37.6	-38.3	25.4	0.00e+00	0	43	0	1530920960	46	3996
2026-01-28 03:10:02.54	20.34	37.94	-37.6	-38.3	25.3	0.00e+00	0	43	0	1536163840	46	4004
2026-01-28 03:10:03.55	20.26	38.19	-37.6	-38.3	25.4	0.00e+00	0	43	0	1542455296	46	3965
2026-01-28 03:10:04.56	20.19	38.44	-37.5	-38.2	25.4	0.00e+00	0	43	0	1547698176	46	3945
2026-01-28 03:10:05.57	20.11	38.69	-37.5	-38.2	25.5	0.00e+00	0	43	0	1552941056	46	3927
2026-01-28 03:10:06.58	20.03	38.94	-37.5	-38.2	25.5	0.00e+00	0	43	0	1559232512	46	3945
2026-01-28 03:10:07.59	19.95	39.19	-37.3	-38.0	25.7	0.00e+00	0	43	0	1564475392	46	3834
2026-01-28 03:10:08.60	19.87	39.45	-37.2	-37.8	25.8	0.00e+00	0	43	0	1570766848	46	3769
2026-01-28 03:10:09.61	19.79	39.71	-37.3	-38.0	25.7	0.00e+00	0	43	0	1576009728	46	3854
2026-01-28 03:10:10.61	19.71	39.96	-37.5	-38.2	25.5	0.00e+00	0	43	0	1581252608	46	3938
2026-01-28 03:10:11.62	19.62	40.22	-37.7	-38.4	25.3	0.00e+00	0	43	0	1587544064	46	4038
2026-01-28 03:10:12.63	19.54	40.49	-37.8	-38.5	25.3	0.00e+00	0	43	0	1592786944	46	4062
2026-01-28 03:10:13.63	19.45	40.75	-37.8	-38.5	25.2	0.00e+00	0	43	0	1599078400	46	4090
2026-01-28 03:10:14.64	19.36	41.02	-38.0	-38.7	25.0	0.00e+00	0	43	0	1604321280	46	4185
2026-01-28 03:10:15.65	19.27	41.28	-38.0	-38.8	25.0	0.00e+00	0	43	0	1610612736	46	4195
2026-01-28 03:10:16.65	19.18	41.55	-37.9	-38.6	25.2	0.00e+00	0	43	0	1615855616	46	4127
2026-01-28 03:10:17.66	19.09	41.82	-37.9	-38.6	25.2	0.00e+00	0	43	0	1621098496	46	4126
2026-01-28 03:10:18.67	18.99	42.10	-37.9	-38.7	25.1	0.00e+00	0	43	0	1627389952	46	4151
2026-01-28 03:10:19.67	18.90	42.37	-38.1	-38.8	25.0	0.00e+00	0	43	0	1632632832	46	4238
2026-01-28 03:10:20.68	18.80	42.65	-38.1	-38.8	25.0	0.00e+00	0	43	0	1637875712	46	4222
2026-01-28 03:10:21.69	18.70	42.93	-38.1	-38.8	25.0	0.00e+00	0	43	0	1644167168	46	4235
2026-01-28 03:10:22.70	18.59	43.21	-38.0	-38.7	25.1	0.00e+00	0	43	0	1649410048	46	4164
2026-01-28 03:10:23.71	18.49	43.50	-37.8	-38.5	25.3	0.00e+00	0	43	0	1655701504	46	4076
2026-01-28 03:10:24.71	18.38	43.78	-37.9	-38.6	25.2	0.00e+00	0	43	0	1660944384	46	4142
2026-01-28 03:10:25.72	18.28	44.07	-37.9	-38.6	25.2	0.00e+00	0	43	0	1666187264	46	4144
2026-01-28 03:10:26.73	18.16	44.36	-38.2	-38.9	24.9	0.00e+00	0	43	0	1672478720	46	4268
2026-01-28 03:10:27.74	18.05	44.65	-38.4	-39.1	24.8	0.00e+00	0	43	0	1678770176	47	4115
2026-01-28 03:10:28.75	17.94	44.95	-38.4	-39.2	24.7	0.00e+00	0	43	0	1684013056	47	4149
2026-01-28 03:10:29.75	17.82	45.24	-38.5	-39.2	24.7	0.00e+00	0	43	0	1689255936	47	4190
2026-01-28 03:10:30.76	17.70	45.54	-38.6	-39.3	24.6	0.00e+00	0	43	0	1695547392	47	4238
2026-01-28 03:10:31.77	17.58	45.84	-38.6	-39.3	24.6	0.00e+00	0	43	0	1700790272	47	4236
2026-01-28 03:10:32.78	17.46	46.14	-38.6	-39.3	24.6	0.00e+00	0	43	0	1706033152	47	4228
2026-01-28 03:10:33.79	17.33	46.44	-38.5	-39.2	24.7	0.00e+00	0	43	0	1712324608	47	4184
2026-01-28 03:10:34.80	17.20	46.75	-38.3	-39.0	24.8	0.00e+00	0	43	0	1717567488	47	4095
2026-01-28 03:10:35.80	17.07	47.06	-38.0	-38.7	25.2	0.00e+00	0	43	0	1722810368	47	3937
2026-01-28 03:10:36.81	16.94	47.37	-37.7	-38.4	25.4	0.00e+00	0	43	0	1729101824	47	3801
2026-01-28 03:10:37.82	16.80	47.68	-37.8	-38.5	25.3	0.00e+00	0	43	0	1734344704	47	3845
2026-01-28 03:10:38.83	16.66	48.00	-38.0	-38.7	25.2	0.00e+00	0	43	0	1740636160	47	3942
2026-01-28 03:10:39.84	16.52	48.31	-38.1	-38.8	25.1	0.00e+00	0	43	0	1745879040	47	3986
2026-01-28 03:10:40.85	16.37	48.63	-38.1	-38.8	25.0	0.00e+00	0	43	0	1752170496	47	3998
2026-01-28 03:10:41.85	16.22	48.95	-38.0	-38.7	25.1	0.00e+00	0	43	0	1757413376	47	3949
2026-01-28 03:10:42.86	16.07	49.28	-38.0	-38.7	25.1	0.00e+00	0	43	0	1763704832	47	3942
2026-01-28 03:10:43.87	15.92	49.60	-38.0	-38.8	25.1	0.00e+00	0	43	0	1768947712	47	3960
2026-01-28 03:10:44.88	15.76	49.93	-38.3	-39.0	24.9	0.00e+00	0	43	0	1774190592	47	4084
2026-01-28 03:10:45.89	15.59	50.26	-38.6	-39.3	24.6	0.00e+00	0	43	0	1780482048	47	4232
2026-01-28 03:10:46.90	15.43	50.59	-38.6	-39.4	24.6	0.00e+00	0	43	0	1785724928	47	4248
2026-01-28 03:10:47.90	15.26	50.92	-38.7	-39.4	24.5	0.00e+00	0	43	0	1790967808	47	4272
2026-01-28 03:10:48.91	15.08	51.26	-39.0	-39.7	24.8	0.00e+00	0	43	0	1797259264	48	4174
2026-01-28 03:10:49.92	14.91	51.60	-39.1	-39.8	24.7	0.00e+00	0	43	0	1802502144	48	4233
2026-01-28 03:10:50.93	14.72	51.94	-39.4	-40.2	24.4	0.00e+00	0	43	0	1807745024	49	4159
2026-01-28 03:10:51.94	14.54	52.28	-39.9	-40.6	24.0	0.00e+00	0	43	0	1814036480	50	4131
2026-01-28 03:10:52.95	14.35	52.63	-39.9	-40.6	24.0	0.00e+00	0	43	0	1820327936	50	4144
2026-01-28 03:10:53.96	14.15	52.98	-39.7	-40.4	24.2	0.00e+00	0	43	0	1825570816	50	4025
2026-01-28 03:10:54.97	13.95	53.32	-39.5	-40.2	24.4	0.00e+00	0	43	0	1830813696	50	3943
2026-01-28 03:10:55.98	13.74	53.68	-39.3	-40.0	24.6	0.00e+00	0	43	0	1837105152	50	3849
2026-01-28 03:10:56.99	13.53	54.03	-39.4	-40.1	24.5	0.00e+00	0	43	0	1842348032	50	3902
2026-01-28 03:10:57.99	13.32	54.38	-39.6	-40.3	24.3	0.00e+00	0	43	0	1848639488	50	3979
2026-01-28 03:10:59.00	13.10	54.74	-39.6	-40.4	24.3	0.00e+00	0	43	0	1853882368	50	4019
2026-01-28 03:11:00.01	12.87	55.10	-39.7	-40.4	24.2	0.00e+00	0	43	0	1859125248	50	4043
2026-01-28 03:11:01.02	12.64	55.46	-39.9	-40.7	24.0	0.00e+00	0	43	0	1865416704	50	4155
2026-01-28 03:11:02.03	12.40	55.82	-39.8	-40.6	24.1	0.00e+00	0	43	0	1870659584	50	4109
2026-01-28 03:11:03.04	12.15	56.19	-39.6	-40.4	24.3	0.00e+00	0	43	0	1876951040	50	4009
2026-01-28 03:11:04.05	11.90	56.55	-39.2	-39.9	24.7	0.00e+00	0	43	0	1882193920	50	3801
2026-01-28 03:11:05.05	11.64	56.92	-39.0	-39.8	24.8	0.00e+00	0	43	0	1888485376	50	3738
2026-01-28 03:11:06.06	11.38	57.29	-38.9	-39.6	25.0	0.00e+00	0	43	0	1893728256	49	3869
2026-01-28 03:11:07.07	11.10	57.66	-38.4	-39.1	25.3	0.00e+00	0	43	0	1898971136	48	3894
2026-01-28 03:11:08.08	10.82	58.04	-38.5	-39.2	25.3	0.00e+00	0	43	0	1905262592	48	3939
2026-01-28 03:11:09.09	10.53	58.41	-38.7	-39.4	25.1	0.00e+00	0	43	0	1910505472	48	4023
2026-01-28 03:11:10.09	10.23	58.79	-39.0	-39.7	24.9	0.00e+00	0	43	0	1915748352	48	4161
2026-01-28 03:11:11.10	9.93	59.17	-38.8	-39.5	25.0	0.00e+00	0	43	0	1922039808	48	4090
2026-01-28 03:11:12.11	9.61	59.55	-38.7	-39.4	25.1	0.00e+00	0	43	0	1927282688	48	4023
2026-01-28 03:11:13.12	9.28	59.93	-38.8	-39.5	25.0	0.00e+00	0	43	0	1933574144	48	4088
2026-01-28 03:11:14.12	8.95	60.31	-39.1	-39.8	24.8	0.00e+00	0	43	0	1938817024	48	4212
2026-01-28 03:11:15.13	8.61	60.70	-38.8	-39.5	25.0	0.00e+00	0	43	0	1944059904	48	4084
2026-01-28 03:11:16.14	8.25	61.08	-38.3	-39.0	25.5	0.00e+00	0	43	0	1950351360	48	3843
2026-01-28 03:11:17.15	7.88	61.47	-38.2	-38.9	25.6	0.00e+00	0	43	0	1956642816	48	3783
2026-01-28 03:11:18.15	7.50	61.86	-38.3	-39.0	25.6	0.00e+00	0	43	0	1961885696	48	3826
2026-01-28 03:11:19.16	7.11	62.25	-38.3	-38.9	25.5	0.00e+00	0	43	0	1967128576	48	3822
2026-01-28 03:11:20.17	6.71	62.64	-37.5	-38.2	25.7	0.00e+00	0	43	0	1973420032	47	3709
2026-01-28 03:11:21.17	6.29	63.03	-37.5	-38.2	25.7	0.00e+00	0	43	0	1978662912	46	3917
2026-01-28 03:11:22.18	5.86	63.42	-37.7	-38.4	25.5	0.00e+00	0	43	0	1983905792	46	4038
2026-01-28 03:11:23.19	5.41	63.82	-38.1	-38.8	25.1	0.00e+00	0	43	0	1990197248	46	4233
2026-01-28 03:11:24.20	4.95	64.21	-38.3	-39.0	25.0	0.00e+00	0	43	0	1995440128	47	4080
2026-01-28 03:11:25.21	4.47	64.61	-38.1	-38.8	25.2	0.00e+00	0	43	0	2000683008	47	3994
2026-01-28 03:11:26.21	3.98	65.00	-38.2	-39.0	25.1	0.00e+00	0	43	0	2006974464	47	4054
2026-01-28 03:11:27.22	3.46	65.39	-38.5	-39.3	24.8	0.00e+00	0	43	0	2012217344	47	4196
2026-01-28 03:11:28.23	2.93	65.79	-38.3	-39.1	24.9	0.00e+00	0	43	0	2018508800	47	4101
2026-01-28 03:11:29.24	2.37	66.19	-37.6	-38.3	25.6	0.00e+00	0	43	0	2023751680	47	3774
2026-01-28 03:11:30.25	1.80	66.58	-37.6	-38.3	25.6	0.00e+00	0	43	0	2030043136	47	3757
2026-01-28 03:11:31.26	1.21	66.98	-37.7	-38.5	25.5	0.00e+00	0	43	0	2035286016	47	3836
2026-01-28 03:11:32.27	0.59	67.37	-37.7	-38.4	25.5	0.00e+00	0	43	0	2041577472	47	3824
2026-01-28 03:11:33.28	359.94	67.77	-37.8	-38.5	25.5	0.00e+00	0	43	0	2046820352	47	3828
2026-01-28 03:11:34.29	359.28	68.16	-37.4	-38.1	25.8	0.00e+00	0	43	0	2052063232	46	3894
2026-01-28 03:11:35.29	358.59	68.55	-37.2	-37.9	25.9	0.00e+00	0	43	0	2058354688	46	3818
2026-01-28 03:11:36.30	357.86	68.94	-37.4	-38.2	25.8	0.00e+00	0	43	0	2063597568	46	3924
2026-01-28 03:11:37.31	357.11	69.33	-37.3	-38.0	25.9	0.00e+00	0	43	0	2068840448	46	3839
2026-01-28 03:11:38.32	356.33	69.72	-37.3	-38.0	25.9	0.00e+00	0	43	0	2075131904	46	3852
2026-01-28 03:11:39.33	355.51	70.10	-37.4	-38.1	25.8	0.00e+00	0	43	0	2080374784	46	3880
2026-01-28 03:11:40.33	354.67	70.48	-37.2	-37.9	26.0	0.00e+00	0	43	0	2086666240	46	3799
2026-01-28 03:11:41.34	353.78	70.86	-36.7	-37.4	26.4	0.00e+00	0	43	0	2091909120	45	3810
2026-01-28 03:11:42.35	352.86	71.24	-36.5	-37.2	26.6	0.00e+00	0	43	0	2098200576	45	3710
2026-01-28 03:11:43.36	351.89	71.61	-36.6	-37.3	26.5	0.00e+00	0	43	0	2103443456	44	3968
2026-01-28 03:11:44.37	350.88	71.98	-36.9	-37.5	26.3	0.00e+00	0	43	0	2108686336	44	4088
2026-01-28 03:11:45.37	349.84	72.34	-37.0	-37.7	26.2	0.00e+00	0	43	0	2114977792	44	4147
2026-01-28 03:11:46.38	348.74	72.71	-36.8	-37.5	26.3	0.00e+00	0	43	0	2120220672	44	4083
2026-01-28 03:11:47.39	347.59	73.06	-36.8	-37.5	26.3	0.00e+00	0	43	0	2126512128	44	4073
2026-01-28 03:11:48.40	346.39	73.41	-37.0	-37.7	26.2	0.00e+00	0	43	0	2131755008	44	4153
2026-01-28 03:11:49.41	345.14	73.75	-36.9	-37.6	26.3	0.00e+00	0	43	0	2136997888	44	4111
2026-01-28 03:11:50.41	343.84	74.09	-37.0	-37.7	26.2	0.00e+00	0	43	0	2143289344	44	4152
2026-01-28 03:11:51.42	342.47	74.42	-36.8	-37.5	26.4	0.00e+00	0	43	0	2148532224	44	4073
2026-01-28 03:11:52.43	341.04	74.74	-36.8	-37.5	26.3	0.00e+00	0	43	0	2153775104	44	4070
2026-01-28 03:11:53.44	339.55	75.05	-36.7	-37.4	26.5	0.00e+00	0	43	0	2160066560	44	4014
2026-01-28 03:11:54.44	338.00	75.35	-36.7	-37.3	26.5	0.00e+00	0	43	0	2166358016	44	4004
2026-01-28 03:11:55.45	336.38	75.64	-36.5	-37.2	26.6	0.00e+00	0	43	0	2171600896	44	3938
2026-01-28 03:11:56.46	334.68	75.93	-36.2	-36.9	26.9	0.00e+00	0	43	0	2176843776	44	3789
2026-01-28 03:11:57.47	332.92	76.20	-36.3	-37.0	26.8	0.00e+00	0	43	0	2183135232	44	3834
2026-01-28 03:11:58.47	331.10	76.45	-36.6	-37.3	26.5	0.00e+00	0	43	0	2188378112	44	3991
2026-01-28 03:11:59.48	329.20	76.69	-36.6	-37.2	26.6	0.00e+00	0	43	0	2193620992	44	3955
2026-01-28 03:12:00.49	327.22	76.92	-36.0	-36.7	27.0	0.00e+00	0	43	0	2199912448	44	3703
2026-01-28 03:12:01.50	325.17	77.14	-35.7	-36.4	27.2	0.00e+00	0	43	0	2205155328	43	3797
2026-01-28 03:12:02.51	323.06	77.33	-35.8	-36.4	27.1	0.00e+00	0	43	0	2211446784	43	3822
2026-01-28 03:12:03.52	320.87	77.51	-35.8	-36.4	27.2	0.00e+00	0	43	0	2216689664	43	3808
2026-01-28 03:12:04.53	318.63	77.68	-35.6	-36.3	27.2	0.00e+00	0	43	0	2221932544	43	3749
2026-01-28 03:12:05.54	316.33	77.82	-35.6	-36.2	27.3	0.00e+00	0	43	0	2228224000	43	3723
2026-01-28 03:12:06.55	313.97	77.94	-35.6	-36.3	27.3	0.00e+00	0	43	0	2234515456	43	3740
2026-01-28 03:12:07.55	311.59	78.05	-35.6	-36.2	27.3	0.00e+00	0	43	0	2239758336	43	3721
2026-01-28 03:12:08.56	309.15	78.13	-35.4	-36.0	27.4	0.00e+00	0	43	0	2245001216	42	3844
2026-01-28 03:12:09.56	306.71	78.19	-35.6	-36.3	27.2	0.00e+00	0	43	0	2251292672	42	3973
2026-01-28 03:12:10.57	304.21	78.23	-35.7	-36.4	27.2	0.00e+00	0	43	0	2256535552	42	4005
2026-01-28 03:12:11.58	301.71	78.25	-35.4	-36.1	27.4	0.00e+00	0	43	0	2261778432	42	3876
2026-01-28 03:12:12.58	299.23	78.24	-35.1	-35.8	27.7	0.00e+00	0	43	0	2268069888	42	3739
2026-01-28 03:12:13.59	296.72	78.22	-35.2	-35.9	27.6	0.00e+00	0	43	0	2273312768	42	3800
2026-01-28 03:12:14.60	294.24	78.17	-35.0	-35.6	27.8	0.00e+00	0	43	0	2278555648	42	3689
2026-01-28 03:12:15.61	291.78	78.10	-35.2	-35.8	27.6	0.00e+00	0	43	0	2284847104	42	3770
2026-01-28 03:12:16.62	289.35	78.01	-35.4	-36.0	27.5	0.00e+00	0	43	0	2290089984	42	3845
2026-01-28 03:12:17.63	286.96	77.90	-35.5	-36.2	27.4	0.00e+00	0	43	0	2296381440	42	3915
2026-01-28 03:12:18.64	284.63	77.77	-35.7	-36.3	27.2	0.00e+00	0	43	0	2301624320	42	4004
2026-01-28 03:12:19.65	282.34	77.62	-35.9	-36.6	27.0	0.00e+00	0	43	0	2307915776	42	4105
2026-01-28 03:12:20.66	280.12	77.45	-35.6	-36.2	27.3	0.00e+00	0	43	0	2313158656	42	3958
2026-01-28 03:12:21.67	277.96	77.26	-35.8	-36.5	27.1	0.00e+00	0	43	0	2319450112	42	4079
2026-01-28 03:12:22.68	275.87	77.06	-35.9	-36.6	27.0	0.00e+00	0	43	0	2324692992	42	4121
2026-01-28 03:12:23.68	273.86	76.84	-35.9	-36.6	27.0	0.00e+00	0	43	0	2329935872	42	4121
2026-01-28 03:12:24.69	271.91	76.61	-36.0	-36.7	26.9	0.00e+00	0	43	0	2336227328	42	4151
2026-01-28 03:12:25.69	270.05	76.36	-36.1	-36.8	26.8	0.00e+00	0	43	0	2341470208	42	4233
2026-01-28 03:12:26.71	268.22	76.10	-36.1	-36.7	26.9	0.00e+00	0	43	0	2346713088	42	4187
2026-01-28 03:12:27.71	266.50	75.83	-36.2	-36.8	26.8	0.00e+00	0	43	0	2353004544	42	4238
2026-01-28 03:12:28.72	264.83	75.54	-36.3	-36.9	26.8	0.00e+00	0	43	0	2358247424	43	4050
2026-01-28 03:12:29.73	263.22	75.24	-36.2	-36.9	26.8	0.00e+00	0	43	0	2364538880	43	4027
2026-01-28 03:12:30.74	261.69	74.94	-36.1	-36.8	26.9	0.00e+00	0	43	0	2369781760	43	3962
2026-01-28 03:12:31.75	260.22	74.62	-36.1	-36.8	26.9	0.00e+00	0	43	0	2376073216	43	3965
2026-01-28 03:12:32.76	258.81	74.30	-36.4	-37.1	26.7	0.00e+00	0	43	0	2381316096	43	4113
2026-01-28 03:12:33.77	257.46	73.96	-36.8	-37.5	26.4	0.00e+00	0	43	0	2386558976	44	4096
2026-01-28 03:12:34.78	256.17	73.62	-36.6	-37.2	26.6	0.00e+00	0	43	0	2392850432	44	3956
2026-01-28 03:12:35.79	254.94	73.28	-36.6	-37.3	26.6	0.00e+00	0	43	0	2398093312	44	3982
2026-01-28 03:12:36.80	253.76	72.93	-36.8	-37.5	26.5	0.00e+00	0	43	0	2404384768	44	4059
2026-01-28 03:12:37.81	252.63	72.57	-37.0	-37.7	26.3	0.00e+00	0	43	0	2409627648	44	4148
2026-01-28 03:12:38.81	251.55	72.21	-36.8	-37.5	26.4	0.00e+00	0	43	0	2414870528	44	4071
2026-01-28 03:12:39.82	250.52	71.84	-36.8	-37.5	26.4	0.00e+00	0	43	0	2421161984	44	4063
2026-01-28 03:12:40.83	249.52	71.47	-36.9	-37.6	26.4	0.00e+00	0	43	0	2426404864	44	4101
2026-01-28 03:12:41.84	248.57	71.09	-36.9	-37.6	26.3	0.00e+00	0	43	0	2432696320	44	4103
2026-01-28 03:12:42.85	247.66	70.71	-36.8	-37.5	26.4	0.00e+00	0	43	0	2437939200	44	4073
2026-01-28 03:12:43.85	246.79	70.34	-36.9	-37.5	26.3	0.00e+00	0	43	0	2444230656	44	4097
2026-01-28 03:12:44.86	245.96	69.95	-37.3	-38.1	26.0	0.00e+00	0	43	0	2449473536	45	4099
2026-01-28 03:12:45.87	245.15	69.56	-37.3	-38.0	25.9	0.00e+00	0	43	0	2454716416	45	4085
2026-01-28 03:12:46.88	244.38	69.18	-37.2	-37.8	26.1	0.00e+00	0	43	0	2461007872	45	3996
2026-01-28 03:12:47.89	243.64	68.79	-37.2	-37.9	25.9	0.00e+00	0	43	0	2466250752	45	4035
2026-01-28 03:12:48.90	242.92	68.39	-37.6	-38.3	25.7	0.00e+00	0	43	0	2471493632	45	4228
2026-01-28 03:12:49.91	242.24	68.00	-37.6	-38.3	25.7	0.00e+00	0	43	0	2477785088	46	3970
2026-01-28 03:12:50.92	241.58	67.61	-37.3	-38.0	26.0	0.00e+00	0	43	0	2483027968	46	3834
2026-01-28 03:12:51.92	240.95	67.21	-37.7	-38.4	25.6	0.00e+00	0	43	0	2489319424	46	4015
2026-01-28 03:12:52.93	240.34	66.82	-38.2	-39.0	25.1	0.00e+00	0	43	0	2494562304	47	4065
2026-01-28 03:12:53.94	239.75	66.42	-37.6	-38.3	25.7	0.00e+00	0	43	0	2500853760	47	3762
2026-01-28 03:12:54.95	239.19	66.03	-37.4	-38.0	26.0	0.00e+00	0	43	0	2506096640	46	3856
2026-01-28 03:12:55.96	238.64	65.63	-37.3	-38.0	25.9	0.00e+00	0	43	0	2512388096	46	3844
2026-01-28 03:12:56.96	238.12	65.24	-37.9	-38.6	25.4	0.00e+00	0	43	0	2517630976	46	4126
2026-01-28 03:12:57.97	237.61	64.84	-37.9	-38.6	25.5	0.00e+00	0	43	0	2522873856	46	4130
2026-01-28 03:12:58.98	237.12	64.44	-37.4	-38.1	25.8	0.00e+00	0	43	0	2529165312	46	3895
2026-01-28 03:12:59.99	236.65	64.05	-37.2	-37.9	26.1	0.00e+00	0	43	0	2534408192	46	3801
2026-01-28 03:13:00.99	236.19	63.66	-37.3	-38.0	26.0	0.00e+00	0	43	0	2539651072	46	3842
2026-01-28 03:13:02.00	235.75	63.26	-37.6	-38.3	25.8	0.00e+00	0	43	0	2545942528	46	3983
2026-01-28 03:13:03.00	235.33	62.87	-37.8	-38.6	25.4	0.00e+00	0	43	0	2551185408	46	4099
2026-01-28 03:13:04.01	234.91	62.48	-37.8	-38.5	25.6	0.00e+00	0	43	0	2556428288	46	4064
2026-01-28 03:13:05.02	234.51	62.09	-37.7	-38.4	25.6	0.00e+00	0	43	0	2562719744	46	4009
2026-01-28 03:13:06.03	234.13	61.70	-37.8	-38.5	25.5	0.00e+00	0	43	0	2567962624	46	4078
2026-01-28 03:13:07.04	233.75	61.31	-38.0	-38.7	25.3	0.00e+00	0	43	0	2574254080	46	4188
2026-01-28 03:13:08.05	233.38	60.92	-37.6	-38.3	25.6	0.00e+00	0	43	0	2579496960	46	4001
2026-01-28 03:13:09.06	233.03	60.53	-37.7	-38.3	25.6	0.00e+00	0	43	0	2585788416	46	4001
2026-01-28 03:13:10.07	232.69	60.15	-37.9	-38.6	25.5	0.00e+00	0	43	0	2591031296	46	4116
2026-01-28 03:13:11.08	232.36	59.76	-38.3	-39.0	25.2	0.00e+00	0	43	0	2597322752	47	4062
2026-01-28 03:13:12.09	232.03	59.38	-38.4	-39.1	25.0	0.00e+00	0	43	0	2602565632	47	4132
2026-01-28 03:13:13.09	231.72	59.00	-38.5	-39.2	24.9	0.00e+00	0	43	0	2607808512	47	4177
2026-01-28 03:13:14.10	231.42	58.62	-38.6	-39.4	24.8	0.00e+00	0	43	0	2614099968	47	4249
2026-01-28 03:13:15.11	231.13	58.24	-39.1	-39.8	24.9	0.00e+00	0	43	0	2619342848	48	4232
2026-01-28 03:13:16.12	230.84	57.87	-39.0	-39.7	25.0	0.00e+00	0	43	0	2624585728	48	4174
2026-01-28 03:13:17.13	230.56	57.49	-39.0	-39.7	25.0	0.00e+00	0	43	0	2630877184	48	4150
2026-01-28 03:13:18.13	230.29	57.12	-39.2	-39.9	24.8	0.00e+00	0	43	0	2637168640	48	4263
2026-01-28 03:13:19.14	230.03	56.75	-39.1	-39.9	24.8	0.00e+00	0	43	0	2642411520	49	4009
2026-01-28 03:13:20.15	229.77	56.38	-39.0	-39.7	24.9	0.00e+00	0	43	0	2647654400	49	3920
2026-01-28 03:13:21.17	229.52	56.01	-39.2	-39.9	24.7	0.00e+00	0	43	0	2653945856	49	4044
2026-01-28 03:13:22.18	229.27	55.65	-39.8	-40.5	24.2	0.00e+00	0	43	0	2659188736	50	4073
2026-01-28 03:13:23.19	229.04	55.28	-40.0	-40.7	24.0	0.00e+00	0	43	0	2664431616	50	4193
2026-01-28 03:13:24.19	228.81	54.93	-39.8	-40.5	24.2	0.00e+00	0	43	0	2670723072	50	4084
2026-01-28 03:13:25.20	228.58	54.57	-39.6	-40.4	24.3	0.00e+00	0	43	0	2675965952	50	4005
2026-01-28 03:13:26.21	228.36	54.21	-39.4	-40.1	24.6	0.00e+00	0	43	0	2682257408	50	3900
2026-01-28 03:13:27.22	228.15	53.85	-39.2	-39.9	24.8	0.00e+00	0	43	0	2687500288	50	3817
2026-01-28 03:13:28.23	227.94	53.50	-39.2	-39.9	24.8	0.00e+00	0	43	0	2692743168	50	3791
2026-01-28 03:13:29.24	227.73	53.15	-38.8	-39.5	25.1	0.00e+00	0	43	0	2699034624	49	3840
2026-01-28 03:13:30.24	227.54	52.80	-38.7	-39.4	25.2	0.00e+00	0	43	0	2705326080	49	3810
2026-01-28 03:13:31.25	227.34	52.46	-38.8	-39.5	25.1	0.00e+00	0	43	0	2710568960	49	3854
2026-01-28 03:13:32.26	227.15	52.11	-39.0	-39.7	24.9	0.00e+00	0	43	0	2715811840	49	3943
2026-01-28 03:13:33.27	226.97	51.77	-38.9	-39.6	24.9	0.00e+00	0	43	0	2722103296	49	3911
2026-01-28 03:13:34.27	226.79	51.43	-38.7	-39.4	25.2	0.00e+00	0	43	0	2727346176	49	3784
2026-01-28 03:13:35.28	226.61	51.09	-38.3	-39.0	25.5	0.00e+00	0	43	0	2732589056	48	3836
2026-01-28 03:13:36.28	226.44	50.76	-38.4	-39.1	25.4	0.00e+00	0	43	0	2738880512	48	3898
2026-01-28 03:13:37.29	226.27	50.43	-38.6	-39.3	25.2	0.00e+00	0	43	0	2744123392	48	3983
2026-01-28 03:13:38.30	226.11	50.09	-38.8	-39.5	25.0	0.00e+00	0	43	0	2749366272	48	4087
2026-01-28 03:13:39.31	225.95	49.76	-39.0	-39.7	24.9	0.00e+00	0	43	0	2755657728	48	4169
2026-01-28 03:13:40.31	225.79	49.44	-39.0	-39.7	24.8	0.00e+00	0	43	0	2760900608	48	4186
2026-01-28 03:13:41.32	225.63	49.11	-39.0	-39.7	24.9	0.00e+00	0	43	0	2767192064	48	4161
2026-01-28 03:13:42.33	225.48	48.79	-38.7	-39.4	25.1	0.00e+00	0	43	0	2772434944	48	4026
2026-01-28 03:13:43.34	225.33	48.47	-38.7	-39.4	25.1	0.00e+00	0	43	0	2778726400	48	4044
2026-01-28 03:13:44.35	225.19	48.15	-38.7	-39.4	25.1	0.00e+00	0	43	0	2783969280	48	4016
2026-01-28 03:13:45.35	225.05	47.83	-38.7	-39.4	25.1	0.00e+00	0	43	0	2790260736	48	4028
2026-01-28 03:13:46.36	224.91	47.52	-38.7	-39.4	25.1	0.00e+00	0	43	0	2795503616	48	4030
2026-01-28 03:13:47.37	224.77	47.20	-38.7	-39.4	25.1	0.00e+00	0	43	0	2800746496	48	4017
2026-01-28 03:13:48.38	224.64	46.89	-38.5	-39.2	25.2	0.00e+00	0	43	0	2807037952	48	3954
2026-01-28 03:13:49.39	224.51	46.59	-38.4	-39.1	25.4	0.00e+00	0	43	0	2812280832	48	3873
2026-01-28 03:13:50.39	224.38	46.28	-38.2	-38.9	25.5	0.00e+00	0	43	0	2817523712	48	3812
2026-01-28 03:13:51.40	224.26	45.98	-38.2	-38.9	25.6	0.00e+00	0	43	0	2823815168	48	3783
2026-01-28 03:13:52.41	224.13	45.67	-38.3	-39.0	25.5	0.00e+00	0	43	0	2829058048	48	3836
2026-01-28 03:13:53.41	224.01	45.38	-38.4	-39.1	25.4	0.00e+00	0	43	0	2834300928	48	3896
2026-01-28 03:13:54.42	223.90	45.08	-38.5	-39.2	25.3	0.00e+00	0	43	0	2840592384	48	3955
2026-01-28 03:13:55.43	223.78	44.78	-38.5	-39.3	25.2	0.00e+00	0	43	0	2846883840	48	3971
2026-01-28 03:13:56.44	223.66	44.49	-38.5	-39.2	25.3	0.00e+00	0	43	0	2852126720	48	3934
2026-01-28 03:13:57.45	223.55	44.20	-38.3	-39.1	25.4	0.00e+00	0	43	0	2857369600	48	3869
2026-01-28 03:13:58.46	223.44	43.91	-38.1	-38.8	25.6	0.00e+00	0	43	0	2863661056	48	3759
2026-01-28 03:13:59.47	223.34	43.62	-38.0	-38.7	25.6	0.00e+00	0	43	0	2868903936	48	3726
2026-01-28 03:14:00.48	223.23	43.33	-38.1	-38.8	25.6	0.00e+00	0	43	0	2875195392	48	3764
2026-01-28 03:14:01.49	223.13	43.05	-38.3	-39.0	25.4	0.00e+00	0	43	0	2880438272	48	3855
2026-01-28 03:14:02.49	223.02	42.77	-38.4	-39.1	25.3	0.00e+00	0	43	0	2885681152	48	3896
2026-01-28 03:14:03.50	222.92	42.49	-38.4	-39.1	25.3	0.00e+00	0	43	0	2891972608	48	3909
2026-01-28 03:14:04.51	222.83	42.21	-38.4	-39.1	25.3	0.00e+00	0	43	0	2897215488	48	3913
2026-01-28 03:14:05.52	222.73	41.93	-38.2	-38.9	25.5	0.00e+00	0	43	0	2902458368	48	3813
2026-01-28 03:14:06.53	222.63	41.66	-38.2	-38.9	25.5	0.00e+00	0	43	0	2908749824	48	3799
2026-01-28 03:14:07.54	222.54	41.39	-38.1	-38.8	25.5	0.00e+00	0	43	0	2915041280	48	3778
2026-01-28 03:14:08.54	222.45	41.12	-37.6	-38.2	25.5	0.00e+00	0	43	0	2920284160	47	3735
2026-01-28 03:14:09.55	222.36	40.85	-37.5	-38.2	25.6	0.00e+00	0	43	0	2925527040	47	3714
2026-01-28 03:14:10.56	222.27	40.58	-37.5	-38.2	25.5	0.00e+00	0	43	0	2931818496	46	3956
2026-01-28 03:14:11.57	222.18	40.32	-37.3	-38.0	25.8	0.00e+00	0	43	0	2937061376	46	3851
2026-01-28 03:14:12.58	222.10	40.06	-37.2	-37.9	25.9	0.00e+00	0	43	0	2942304256	46	3793
2026-01-28 03:14:13.59	222.01	39.80	-37.1	-37.8	25.9	0.00e+00	0	43	0	2948595712	46	3772
2026-01-28 03:14:14.59	221.93	39.54	-37.1	-37.8	25.9	0.00e+00	0	43	0	2953838592	46	3743
2026-01-28 03:14:15.61	221.85	39.28	-37.1	-37.8	25.8	0.00e+00	0	43	0	2960130048	46	3780
2026-01-28 03:14:16.61	221.77	39.03	-37.2	-37.9	25.8	0.00e+00	0	43	0	2965372928	46	3796
2026-01-28 03:14:17.62	221.69	38.77	-37.3	-38.0	25.7	0.00e+00	0	43	0	2970615808	46	3852
2026-01-28 03:14:18.63	221.61	38.52	-37.3	-38.0	25.7	0.00e+00	0	43	0	2976907264	46	3863
2026-01-28 03:14:19.64	221.54	38.27	-37.3	-38.0	25.7	0.00e+00	0	43	0	2983198720	46	3858
2026-01-28 03:14:20.65	221.46	38.02	-37.3	-38.0	25.7	0.00e+00	0	43	0	2988441600	46	3852
2026-01-28 03:14:21.66	221.39	37.78	-37.3	-38.0	25.7	0.00e+00	0	43	0	2993684480	46	3856
2026-01-28 03:14:22.67	221.31	37.53	-37.4	-38.1	25.7	0.00e+00	0	43	0	2999975936	46	3872
2026-01-28 03:14:23.68	221.24	37.29	-37.5	-38.2	25.6	0.00e+00	0	43	0	3005218816	46	3916
2026-01-28 03:14:24.69	221.17	37.05	-37.6	-38.3	25.4	0.00e+00	0	43	0	3010461696	46	3998
2026-01-28 03:14:25.69	221.10	36.81	-37.6	-38.3	25.4	0.00e+00	0	43	0	3016753152	46	3980
2026-01-28 03:14:26.70	221.04	36.57	-37.6	-38.2	25.5	0.00e+00	0	43	0	3021996032	46	3958
2026-01-28 03:14:27.71	220.97	36.34	-37.5	-38.2	25.5	0.00e+00	0	43	0	3027238912	46	3938
2026-01-28 03:14:28.72	220.90	36.10	-37.5	-38.2	25.5	0.00e+00	0	43	0	3033530368	46	3944
2026-01-28 03:14:29.72	220.84	35.87	-37.6	-38.3	25.4	0.00e+00	0	43	0	3038773248	46	3984
2026-01-28 03:14:30.73	220.77	35.64	-37.7	-38.4	25.4	0.00e+00	0	43	0	3045064704	46	4011
2026-01-28 03:14:31.74	220.71	35.41	-37.6	-38.3	25.4	0.00e+00	0	43	0	3050307584	46	3990
2026-01-28 03:14:32.75	220.65	35.18	-37.6	-38.3	25.4	0.00e+00	0	43	0	3056599040	46	4004
2026-01-28 03:14:33.76	220.58	34.96	-37.8	-38.5	25.3	0.00e+00	0	43	0	3061841920	46	4065
2026-01-28 03:14:34.77	220.52	34.73	-37.8	-38.5	25.2	0.00e+00	0	43	0	3068133376	46	4093
2026-01-28 03:14:35.79	220.46	34.51	-37.9	-38.6	25.2	0.00e+00	0	43	0	3073376256	46	4125
2026-01-28 03:14:36.79	220.40	34.29	-38.0	-38.7	25.1	0.00e+00	0	43	0	3078619136	46	4172
2026-01-28 03:14:37.80	220.35	34.07	-37.9	-38.6	25.1	0.00e+00	0	43	0	3084910592	46	4135
2026-01-28 03:14:38.80	220.29	33.85	-38.0	-38.7	25.0	0.00e+00	0	43	0	3090153472	46	4161
2026-01-28 03:14:39.81	220.23	33.63	-38.0	-38.7	25.0	0.00e+00	0	43	0	3095396352	46	4180
2026-01-28 03:14:40.82	220.18	33.42	-38.0	-38.7	25.0	0.00e+00	0	43	0	3101687808	46	4168
2026-01-28 03:14:41.83	220.12	33.20	-38.0	-38.7	25.0	0.00e+00	0	43	0	3106930688	46	4160
2026-01-28 03:14:42.84	220.07	32.99	-38.0	-38.7	25.0	0.00e+00	0	43	0	3113222144	46	4167
2026-01-28 03:14:43.85	220.01	32.78	-38.0	-38.7	25.0	0.00e+00	0	43	0	3118465024	46	4163
2026-01-28 03:14:44.85	219.96	32.57	-38.0	-38.8	25.0	0.00e+00	0	43	0	3124756480	46	4203
2026-01-28 03:14:45.86	219.91	32.36	-38.0	-38.7	25.0	0.00e+00	0	43	0	3129999360	46	4180
2026-01-28 03:14:46.87	219.86	32.16	-38.0	-38.7	25.0	0.00e+00	0	43	0	3135242240	46	4188
2026-01-28 03:14:47.88	219.81	31.95	-38.0	-38.8	25.0	0.00e+00	0	43	0	3141533696	46	4207
2026-01-28 03:14:48.89	219.76	31.75	-38.2	-38.9	24.8	0.00e+00	0	43	0	3146776576	46	4271
2026-01-28 03:14:49.89	219.71	31.55	-38.1	-38.8	24.9	0.00e+00	0	43	0	3153068032	46	4224
2026-01-28 03:14:50.90	219.66	31.34	-38.1	-38.8	24.9	0.00e+00	0	43	0	3158310912	46	4238
2026-01-28 03:14:51.91	219.61	31.14	-38.1	-38.8	24.9	0.00e+00	0	43	0	3163553792	46	4211
2026-01-28 03:14:52.93	219.56	30.94	-38.1	-38.8	24.9	0.00e+00	0	43	0	3169845248	46	4218
2026-01-28 03:14:53.93	219.52	30.75	-38.1	-38.9	24.9	0.00e+00	0	43	0	3175088128	46	4250
2026-01-28 03:14:54.94	219.47	30.55	-38.1	-38.8	24.9	0.00e+00	0	43	0	3181379584	46	4235
2026-01-28 03:14:55.95	219.43	30.36	-38.0	-38.8	24.9	0.00e+00	0	43	0	3186622464	46	4199
2026-01-28 03:14:56.95	219.38	30.16	-37.9	-38.6	25.1	0.00e+00	0	43	0	3192913920	46	4138
2026-01-28 03:14:57.96	219.34	29.97	-37.8	-38.6	25.1	0.00e+00	0	43	0	3198156800	46	4104
2026-01-28 03:14:58.97	219.29	29.78	-37.9	-38.7	25.0	0.00e+00	0	43	0	3203399680	46	4153
2026-01-28 03:14:59.98	219.25	29.59	-37.9	-38.6	25.1	0.00e+00	0	43	0	3209691136	46	4132
2026-01-28 03:15:00.99	219.21	29.40	-37.8	-38.5	25.2	0.00e+00	0	43	0	3214934016	46	4074
2026-01-28 03:15:02.00	219.17	29.22	-37.8	-38.5	25.2	0.00e+00	0	43	0	3220176896	46	4072
2026-01-28 03:15:03.00	219.12	29.03	-37.7	-38.4	25.2	0.00e+00	0	43	0	3226468352	46	4031
2026-01-28 03:15:04.01	219.08	28.85	-37.6	-38.3	25.3	0.00e+00	0	43	0	3231711232	46	3966
2026-01-28 03:15:05.02	219.04	28.66	-37.6	-38.3	25.3	0.00e+00	0	43	0	3238002688	46	3994
2026-01-28 03:15:06.03	219.00	28.48	-37.5	-38.2	25.4	0.00e+00	0	43	0	3243245568	46	3945
2026-01-28 03:15:07.04	218.96	28.30	-37.6	-38.3	25.3	0.00e+00	0	43	0	3249537024	46	3981
2026-01-28 03:15:08.05	218.92	28.12	-37.6	-38.3	25.3	0.00e+00	0	43	0	3254779904	46	3994
2026-01-28 03:15:09.05	218.89	27.94	-37.6	-38.4	25.3	0.00e+00	0	43	0	3261071360	46	4005
2026-01-28 03:15:10.06	218.85	27.76	-37.7	-38.5	25.2	0.00e+00	0	43	0	3266314240	46	4054
2026-01-28 03:15:11.07	218.81	27.59	-37.7	-38.4	25.2	0.00e+00	0	43	0	3271557120	46	4019
2026-01-28 03:15:12.09	218.77	27.41	-37.8	-38.6	25.1	0.00e+00	0	43	0	3277848576	46	4099
2026-01-28 03:15:13.10	218.73	27.23	-37.8	-38.5	25.1	0.00e+00	0	43	0	3283091456	46	4085
2026-01-28 03:15:14.10	218.70	27.06	-37.9	-38.7	25.0	0.00e+00	0	43	0	3288334336	46	4147
2026-01-28 03:15:15.11	218.66	26.89	-37.9	-38.7	24.9	0.00e+00	0	43	0	3294625792	46	4159
2026-01-28 03:15:16.12	218.63	26.72	-38.0	-38.7	24.9	0.00e+00	0	43	0	3299868672	46	4190
2026-01-28 03:15:17.12	218.59	26.55	-38.0	-38.8	24.9	0.00e+00	0	43	0	3305111552	46	4212
2026-01-28 03:15:18.13	218.56	26.38	-38.1	-38.8	24.8	0.00e+00	0	43	0	3311403008	46	4231
2026-01-28 03:15:19.14	218.52	26.21	-38.1	-38.8	24.8	0.00e+00	0	43	0	3317694464	46	4232
2026-01-28 03:15:20.15	218.49	26.05	-38.0	-38.8	24.8	0.00e+00	0	43	0	3322937344	46	4215
2026-01-28 03:15:21.16	218.46	25.88	-38.0	-38.8	24.8	0.00e+00	0	43	0	3328180224	46	4210
2026-01-28 03:15:22.17	218.42	25.71	-38.1	-38.8	24.8	0.00e+00	0	43	0	3334471680	46	4234
2026-01-28 03:15:23.17	218.39	25.55	-38.0	-38.8	24.8	0.00e+00	0	43	0	3339714560	46	4205
2026-01-28 03:15:24.18	218.36	25.39	-38.1	-38.8	24.7	0.00e+00	0	43	0	3346006016	46	4238
2026-01-28 03:15:25.19	218.33	25.23	-38.1	-38.8	24.8	0.00e+00	0	43	0	3351248896	47	3980
2026-01-28 03:15:26.20	218.29	25.07	-38.0	-38.8	24.8	0.00e+00	0	43	0	3356491776	47	3962
2026-01-28 03:15:27.21	218.26	24.91	-38.2	-38.9	24.7	0.00e+00	0	43	0	3362783232	47	4030
2026-01-28 03:15:28.21	218.23	24.75	-38.1	-38.8	24.8	0.00e+00	0	43	0	3368026112	47	3972
2026-01-28 03:15:29.22	218.20	24.59	-38.2	-38.9	24.7	0.00e+00	0	43	0	3373268992	47	4035
2026-01-28 03:15:30.23	218.17	24.43	-38.2	-38.9	24.7	0.00e+00	0	43	0	3379560448	47	4009
2026-01-28 03:15:31.24	218.14	24.28	-38.1	-38.9	24.7	0.00e+00	0	43	0	3385851904	47	4009
2026-01-28 03:15:32.25	218.11	24.12	-38.3	-39.0	24.6	0.00e+00	0	43	0	3391094784	47	4066
2026-01-28 03:15:33.25	218.08	23.97	-38.3	-39.0	24.6	0.00e+00	0	43	0	3396337664	47	4089
2026-01-28 03:15:34.26	218.05	23.81	-38.3	-39.1	24.5	0.00e+00	0	43	0	3402629120	47	4113
2026-01-28 03:15:35.27	218.02	23.66	-38.5	-39.2	24.4	0.00e+00	0	43	0	3407872000	47	4180
2026-01-28 03:15:36.28	218.00	23.51	-38.5	-39.2	24.4	0.00e+00	0	43	0	3413114880	47	4167
2026-01-28 03:15:37.29	217.97	23.36	-38.6	-39.4	24.3	0.00e+00	0	43	0	3419406336	47	4243
2026-01-28 03:15:38.29	217.94	23.21	-38.6	-39.4	24.3	0.00e+00	0	43	0	3424649216	47	4243
2026-01-28 03:15:39.30	217.91	23.06	-38.6	-39.4	24.2	0.00e+00	0	43	0	3430940672	47	4269
2026-01-28 03:15:40.31	217.89	22.91	-38.7	-39.4	24.2	0.00e+00	0	43	0	3436183552	47	4273
2026-01-28 03:15:41.32	217.86	22.76	-38.7	-39.5	24.1	0.00e+00	0	43	0	3441426432	47	4295
2026-01-28 03:15:42.33	217.83	22.62	-39.1	-39.8	24.3	0.00e+00	0	43	0	3447717888	48	4226
2026-01-28 03:15:43.33	217.81	22.47	-39.1	-39.9	24.3	0.00e+00	0	43	0	3454009344	48	4250
2026-01-28 03:15:44.34	217.78	22.33	-39.1	-39.9	24.3	0.00e+00	0	43	0	3459252224	49	4026
2026-01-28 03:15:45.35	217.75	22.18	-39.1	-39.8	24.3	0.00e+00	0	43	0	3464495104	49	3994
2026-01-28 03:15:46.36	217.73	22.04	-39.2	-39.9	24.2	0.00e+00	0	43	0	3470786560	49	4028
2026-01-28 03:15:47.37	217.70	21.90	-39.2	-40.0	24.2	0.00e+00	0	43	0	3476029440	49	4064
2026-01-28 03:15:48.38	217.68	21.75	-39.3	-40.0	24.1	0.00e+00	0	43	0	3481272320	49	4077
2026-01-28 03:15:49.38	217.65	21.61	-39.2	-40.0	24.2	0.00e+00	0	43	0	3487563776	49	4069
2026-01-28 03:15:50.39	217.63	21.47	-39.2	-39.9	24.2	0.00e+00	0	43	0	3492806656	49	4049
2026-01-28 03:15:51.40	217.60	21.33	-39.3	-40.0	24.1	0.00e+00	0	43	0	3498049536	49	4081
2026-01-28 03:15:52.41	217.58	21.19	-39.3	-40.1	24.1	0.00e+00	0	43	0	3504340992	49	4112
2026-01-28 03:15:53.41	217.56	21.06	-39.2	-40.0	24.2	0.00e+00	0	43	0	3509583872	49	4064
2026-01-28 03:15:54.42	217.53	20.92	-39.3	-40.1	24.1	0.00e+00	0	43	0	3515875328	49	4118
2026-01-28 03:15:55.43	217.51	20.78	-39.4	-40.2	24.0	0.00e+00	0	43	0	3521118208	49	4154
2026-01-28 03:15:56.44	217.49	20.65	-39.2	-39.9	24.2	0.00e+00	0	43	0	3527409664	49	4048
2026-01-28 03:15:57.45	217.46	20.51	-39.4	-40.1	24.0	0.00e+00	0	43	0	3532652544	49	4128
2026-01-28 03:15:58.45	217.44	20.38	-39.3	-40.1	24.1	0.00e+00	0	43	0	3538944000	49	4108
2026-01-28 03:15:59.46	217.42	20.25	-39.2	-40.0	24.2	0.00e+00	0	43	0	3544186880	49	4059
2026-01-28 03:16:00.47	217.40	20.11	-39.4	-40.2	23.9	0.00e+00	0	43	0	3549429760	49	4165
2026-01-28 03:16:01.48	217.38	19.98	-39.3	-40.1	24.0	0.00e+00	0	43	0	3555721216	49	4114
2026-01-28 03:16:02.49	217.35	19.85	-39.4	-40.1	24.0	0.00e+00	0	43	0	3560964096	49	4134
2026-01-28 03:16:03.49	217.33	19.72	-39.3	-40.0	24.1	0.00e+00	0	43	0	3566206976	49	4080
2026-01-28 03:16:04.50	217.31	19.59	-39.3	-40.0	24.1	0.00e+00	0	43	0	3572498432	49	4089
2026-01-28 03:16:05.51	217.29	19.46	-39.4	-40.2	23.9	0.00e+00	0	43	0	3577741312	49	4153
2026-01-28 03:16:06.52	217.27	19.33	-39.3	-40.1	24.0	0.00e+00	0	43	0	3582984192	49	4109
2026-01-28 03:16:07.53	217.25	19.20	-39.3	-40.1	24.0	0.00e+00	0	43	0	3589275648	49	4106
2026-01-28 03:16:08.54	217.23	19.07	-39.3	-40.0	24.0	0.00e+00	0	43	0	3595567104	49	4095
2026-01-28 03:16:09.55	217.21	18.95	-39.4	-40.1	24.0	0.00e+00	0	43	0	3600809984	49	4119
2026-01-28 03:16:10.56	217.19	18.82	-39.4	-40.2	23.9	0.00e+00	0	43	0	3606052864	49	4146
2026-01-28 03:16:11.57	217.17	18.70	-39.4	-40.1	24.0	0.00e+00	0	43	0	3612344320	49	4120
2026-01-28 03:16:12.58	217.15	18.57	-39.4	-40.1	23.9	0.00e+00	0	43	0	3617587200	49	4131
2026-01-28 03:16:13.59	217.13	18.45	-39.3	-40.0	24.0	0.00e+00	0	43	0	3623878656	49	4082
2026-01-28 03:16:14.60	217.11	18.32	-39.4	-40.2	23.9	0.00e+00	0	43	0	3629121536	49	4155
2026-01-28 03:16:15.60	217.09	18.20	-39.4	-40.2	23.9	0.00e+00	0	43	0	3634364416	49	4152
2026-01-28 03:16:16.61	217.07	18.08	-39.5	-40.3	23.8	0.00e+00	0	43	0	3640655872	49	4196
2026-01-28 03:16:17.62	217.05	17.96	-39.5	-40.2	23.8	0.00e+00	0	43	0	3645898752	49	4178
2026-01-28 03:16:18.63	217.04	17.83	-39.5	-40.2	23.8	0.00e+00	0	43	0	3651141632	49	4182
2026-01-28 03:16:19.64	217.02	17.71	-39.5	-40.3	23.8	0.00e+00	0	43	0	3657433088	49	4196
2026-01-28 03:16:20.64	217.00	17.59	-39.5	-40.3	23.8	0.00e+00	0	43	0	3663724544	49	4196
2026-01-28 03:16:21.65	216.98	17.48	-39.6	-40.4	23.7	0.00e+00	0	43	0	3668967424	49	4260
2026-01-28 03:16:22.66	216.96	17.36	-39.7	-40.4	23.6	0.00e+00	0	43	0	3674210304	50	4042
2026-01-28 03:16:23.66	216.95	17.24	-39.6	-40.3	23.7	0.00e+00	0	43	0	3680501760	50	4002
2026-01-28 03:16:24.67	216.93	17.12	-39.8	-40.5	23.6	0.00e+00	0	43	0	3685744640	50	4072
2026-01-28 03:16:25.68	216.91	17.00	-39.8	-40.6	23.5	0.00e+00	0	43	0	3690987520	50	4106
2026-01-28 03:16:26.69	216.89	16.89	-39.8	-40.6	23.5	0.00e+00	0	43	0	3697278976	50	4122
2026-01-28 03:16:27.69	216.88	16.77	-39.9	-40.6	23.4	0.00e+00	0	43	0	3702521856	50	4136
2026-01-28 03:16:28.70	216.86	16.66	-39.9	-40.6	23.4	0.00e+00	0	43	0	3708813312	50	4139
2026-01-28 03:16:29.71	216.84	16.54	-40.0	-40.8	23.3	0.00e+00	0	43	0	3714056192	50	4219
