passes_logs/2026/01/28/R3.2S_Murmansk/R3.2S_Murmansk__20260128_215343_JL1KF02B02_rec.log

#Pass ID: 20260128_215343_JL1KF02B02
#Satellite: JL1KF02B02
#Configuration: 01B_900M
#almurnet v.1.7.20251203
#Start time: 2026-01-28 21:53:43

#Version: 2.2.20231116
#Station: R3.2S_Murmansk
#Location: 33.079688 lon 68.888172 lat
#TLE: 1 61193U 24169E   26027.77639749  .00007697  00000+0  47839-3 0  9993
#TLE: 2 61193  97.5622 119.4851 0013901  93.9222 266.3597 15.09851074 74653

#Time	Az	El	Level	Level2	SNR	BER	BlckErr	Temp	State	Recorded	gain1	gain2
2026-01-28 21:53:43.66	214.33	2.02	-54.1	-56.2	6.2	0.00e+00	0	43	0	0	79	18648
2026-01-28 21:53:44.62	214.42	2.08	-54.1	-56.2	6.2	0.00e+00	0	43	104	0	79	18779
2026-01-28 21:53:45.60	214.52	2.13	-54.1	-56.1	6.2	0.00e+00	0	43	104	0	79	18572
2026-01-28 21:53:46.57	214.61	2.19	-54.0	-56.1	6.2	0.00e+00	0	43	104	0	79	18555
2026-01-28 21:53:47.54	214.70	2.25	-54.1	-56.2	6.2	0.00e+00	0	43	104	0	79	18638
2026-01-28 21:53:48.51	214.80	2.30	-54.1	-56.2	6.2	0.00e+00	0	43	104	0	79	18732
2026-01-28 21:53:49.48	214.90	2.36	-54.1	-56.2	6.2	0.00e+00	0	43	104	0	79	18687
2026-01-28 21:53:50.45	214.99	2.42	-54.1	-56.2	6.2	0.00e+00	0	43	104	0	79	18632
2026-01-28 21:53:51.42	215.09	2.48	-54.1	-56.1	6.2	0.00e+00	0	43	104	0	79	18591
2026-01-28 21:53:52.40	215.19	2.53	-54.1	-56.1	6.2	0.00e+00	0	43	104	0	79	18582
2026-01-28 21:53:53.37	215.29	2.59	-54.1	-56.1	6.2	0.00e+00	0	43	104	0	79	18586
2026-01-28 21:53:54.35	215.39	2.65	-54.1	-56.2	6.2	0.00e+00	0	43	104	0	79	18613
2026-01-28 21:53:55.32	215.48	2.71	-54.1	-56.1	6.2	0.00e+00	0	43	104	0	79	18588
2026-01-28 21:53:56.29	215.58	2.77	-54.1	-56.1	6.2	0.00e+00	0	43	104	0	79	18587
2026-01-28 21:53:57.26	215.68	2.83	-54.0	-56.2	6.2	0.00e+00	0	43	104	0	79	18618
2026-01-28 21:53:58.23	215.78	2.88	-54.0	-56.1	6.2	0.00e+00	0	43	104	0	79	18527
2026-01-28 21:53:59.20	215.88	2.94	-54.0	-56.1	6.2	0.00e+00	0	43	104	0	79	18517
2026-01-28 21:54:00.18	215.99	3.00	-54.0	-56.1	6.2	0.00e+00	0	43	104	0	79	18510
2026-01-28 21:54:01.14	216.09	3.06	-54.2	-56.3	6.2	0.00e+00	0	43	104	0	79	18902
2026-01-28 21:54:02.12	216.19	3.12	-54.2	-56.3	6.2	0.00e+00	0	43	104	0	79	18940
2026-01-28 21:54:03.08	216.29	3.18	-54.3	-56.3	6.2	0.00e+00	0	44	104	0	79	19009
2026-01-28 21:54:04.05	216.39	3.23	-54.3	-56.4	6.2	0.00e+00	0	43	104	0	79	19105
2026-01-28 21:54:05.02	216.50	3.29	-54.3	-56.3	6.2	0.00e+00	0	43	104	0	79	19007
2026-01-28 21:54:05.99	216.60	3.35	-54.3	-56.3	6.2	0.00e+00	0	43	104	0	79	19009
2026-01-28 21:54:06.97	216.71	3.41	-54.2	-56.3	6.2	0.00e+00	0	43	104	0	79	18951
2026-01-28 21:54:07.93	216.81	3.47	-54.2	-56.3	6.2	0.00e+00	0	43	104	0	79	18851
2026-01-28 21:54:08.91	216.92	3.53	-54.2	-56.3	6.2	0.00e+00	0	43	104	0	79	18925
2026-01-28 21:54:09.88	217.02	3.59	-54.2	-56.3	6.2	0.00e+00	0	43	104	0	79	18893
2026-01-28 21:54:10.85	217.13	3.65	-54.2	-56.3	6.2	0.00e+00	0	43	104	0	79	18926
2026-01-28 21:54:11.83	217.24	3.71	-54.2	-56.3	6.2	0.00e+00	0	44	104	0	79	18822
2026-01-28 21:54:12.79	217.34	3.77	-54.1	-56.2	6.2	0.00e+00	0	44	104	0	79	18753
2026-01-28 21:54:13.77	217.45	3.83	-54.1	-56.2	6.2	0.00e+00	0	44	104	0	79	18716
2026-01-28 21:54:14.74	217.56	3.89	-54.1	-56.1	6.2	0.00e+00	0	44	104	0	79	18589
2026-01-28 21:54:15.70	217.67	3.95	-54.0	-56.1	6.2	0.00e+00	0	44	104	0	79	18449
2026-01-28 21:54:16.67	217.78	4.01	-53.9	-56.0	6.2	0.00e+00	0	44	104	0	79	18342
2026-01-28 21:54:17.64	217.89	4.07	-53.9	-56.0	6.2	0.00e+00	0	44	104	0	79	18220
2026-01-28 21:54:18.61	218.00	4.13	-53.8	-55.9	6.2	0.00e+00	0	44	104	0	79	18027
2026-01-28 21:54:19.59	218.11	4.19	-53.7	-55.8	6.2	0.00e+00	0	44	104	0	79	17800
2026-01-28 21:54:20.56	218.23	4.25	-53.6	-55.6	6.2	0.00e+00	0	44	104	0	79	17561
2026-01-28 21:54:21.53	218.34	4.31	-53.4	-55.5	6.2	0.00e+00	0	44	104	0	78	18224
2026-01-28 21:54:22.50	218.45	4.37	-53.1	-55.2	6.2	0.00e+00	0	44	104	0	78	17636
2026-01-28 21:54:23.47	218.56	4.43	-52.7	-54.9	6.2	0.00e+00	0	44	104	0	77	17977
2026-01-28 21:54:24.45	218.68	4.49	-52.7	-54.8	6.2	0.00e+00	0	44	104	0	77	17898
2026-01-28 21:54:25.42	218.79	4.56	-52.7	-54.8	6.2	0.00e+00	0	44	104	0	77	17905
2026-01-28 21:54:26.39	218.91	4.62	-52.7	-54.8	6.2	0.00e+00	0	44	104	0	77	17873
2026-01-28 21:54:27.37	219.03	4.68	-52.7	-54.8	6.2	0.00e+00	0	44	104	0	77	17844
2026-01-28 21:54:28.34	219.14	4.74	-52.7	-54.8	6.2	0.00e+00	0	44	104	0	77	17822
2026-01-28 21:54:29.31	219.26	4.80	-52.7	-54.8	6.2	0.00e+00	0	44	104	0	77	17843
2026-01-28 21:54:30.28	219.38	4.86	-52.7	-54.8	6.2	0.00e+00	0	44	104	0	77	17830
2026-01-28 21:54:31.25	219.50	4.92	-52.7	-54.8	6.2	0.00e+00	0	44	104	0	77	17836
2026-01-28 21:54:32.23	219.62	4.99	-52.7	-54.8	6.2	0.00e+00	0	44	104	0	77	17810
2026-01-28 21:54:33.20	219.74	5.05	-52.7	-54.8	6.2	0.00e+00	0	44	104	0	77	17828
2026-01-28 21:54:34.17	219.86	5.11	-52.8	-54.9	6.2	0.00e+00	0	44	104	0	77	18039
2026-01-28 21:54:35.14	219.98	5.17	-52.6	-54.7	6.2	0.00e+00	0	44	104	0	77	17629
2026-01-28 21:54:36.11	220.10	5.23	-52.8	-54.9	6.2	0.00e+00	0	44	104	0	77	17979
2026-01-28 21:54:37.08	220.22	5.30	-52.7	-54.8	6.2	0.00e+00	0	44	104	0	77	17818
2026-01-28 21:54:38.06	220.34	5.36	-52.6	-54.7	6.2	0.00e+00	0	44	104	0	77	17710
2026-01-28 21:54:39.03	220.47	5.42	-52.6	-54.7	6.2	0.00e+00	0	44	104	0	77	17585
2026-01-28 21:54:40.00	220.59	5.48	-52.8	-54.9	6.2	0.00e+00	0	44	104	0	77	18007
2026-01-28 21:54:40.97	220.71	5.55	-52.7	-54.8	6.2	0.00e+00	0	44	104	0	77	17848
2026-01-28 21:54:41.94	220.84	5.61	-52.6	-54.7	6.2	0.00e+00	0	44	104	0	77	17653
2026-01-28 21:54:42.91	220.96	5.67	-52.6	-54.7	6.2	0.00e+00	0	44	104	0	77	17563
2026-01-28 21:54:43.88	221.09	5.73	-52.7	-54.8	6.2	0.00e+00	0	44	104	0	77	17941
2026-01-28 21:54:44.85	221.22	5.80	-52.7	-54.8	6.2	0.00e+00	0	44	104	0	77	17815
2026-01-28 21:54:45.82	221.35	5.86	-52.6	-54.7	6.2	0.00e+00	0	44	104	0	77	17676
2026-01-28 21:54:46.80	221.48	5.92	-52.6	-54.7	6.2	0.00e+00	0	44	104	0	77	17605
2026-01-28 21:54:47.77	221.60	5.99	-52.7	-54.8	6.2	0.00e+00	0	44	104	0	77	17861
2026-01-28 21:54:48.74	221.73	6.05	-52.7	-54.8	6.2	0.00e+00	0	44	104	0	77	17828
2026-01-28 21:54:49.71	221.86	6.11	-52.6	-54.7	6.2	0.00e+00	0	44	104	0	77	17699
2026-01-28 21:54:50.69	222.00	6.18	-52.6	-54.7	6.2	0.00e+00	0	44	104	0	77	17669
2026-01-28 21:54:51.66	222.13	6.24	-52.7	-54.8	6.2	0.00e+00	0	44	104	0	77	17863
2026-01-28 21:54:52.63	222.26	6.31	-52.7	-54.8	6.2	0.00e+00	0	44	104	0	77	17853
2026-01-28 21:54:53.60	222.39	6.37	-52.7	-54.8	6.2	0.00e+00	0	44	104	0	77	17842
2026-01-28 21:54:54.57	222.53	6.43	-52.6	-54.7	6.2	0.00e+00	0	45	104	0	77	17588
2026-01-28 21:54:55.55	222.66	6.50	-52.6	-54.7	6.2	0.00e+00	0	44	104	0	77	17727
2026-01-28 21:54:56.52	222.80	6.56	-52.7	-54.8	6.2	0.00e+00	0	44	104	0	77	17924
2026-01-28 21:54:57.49	222.93	6.63	-52.7	-54.8	6.2	0.00e+00	0	44	104	0	77	17774
2026-01-28 21:54:58.46	223.07	6.69	-52.6	-54.7	6.2	0.00e+00	0	44	104	0	77	17675
2026-01-28 21:54:59.43	223.21	6.75	-52.6	-54.7	6.2	0.00e+00	0	44	104	0	77	17703
2026-01-28 21:55:00.40	223.35	6.82	-52.7	-54.8	6.2	0.00e+00	0	44	104	0	77	17922
2026-01-28 21:55:01.37	223.48	6.88	-52.7	-54.8	6.2	0.00e+00	0	44	104	0	77	17871
2026-01-28 21:55:02.34	223.62	6.95	-52.6	-54.7	6.2	0.00e+00	0	45	104	0	77	17703
2026-01-28 21:55:03.31	223.76	7.01	-52.6	-54.7	6.2	0.00e+00	0	45	104	0	77	17657
2026-01-28 21:55:04.28	223.90	7.08	-52.8	-54.8	6.2	0.00e+00	0	45	104	0	77	17933
2026-01-28 21:55:05.25	224.05	7.14	-52.7	-54.8	6.2	0.00e+00	0	44	104	0	77	17816
2026-01-28 21:55:06.22	224.19	7.21	-52.6	-54.7	6.2	0.00e+00	0	45	104	0	77	17753
2026-01-28 21:55:07.19	224.33	7.27	-52.6	-54.7	6.2	0.00e+00	0	44	104	0	77	17673
2026-01-28 21:55:08.16	224.48	7.34	-52.8	-54.9	6.2	0.00e+00	0	45	104	0	77	17977
2026-01-28 21:55:09.14	224.62	7.40	-52.7	-54.8	6.2	0.00e+00	0	44	104	0	77	17877
2026-01-28 21:55:10.11	224.77	7.47	-52.7	-54.8	6.2	0.00e+00	0	44	104	0	77	17793
2026-01-28 21:55:11.09	224.91	7.53	-52.6	-54.7	6.2	0.00e+00	0	44	104	0	77	17689
2026-01-28 21:55:12.06	225.06	7.60	-52.8	-54.8	6.2	0.00e+00	0	45	104	0	77	17964
2026-01-28 21:55:13.03	225.21	7.67	-52.7	-54.8	6.2	0.00e+00	0	45	104	0	77	17897
2026-01-28 21:55:14.01	225.36	7.73	-52.7	-54.8	6.2	0.00e+00	0	45	104	0	77	17773
2026-01-28 21:55:14.98	225.51	7.80	-52.6	-54.7	6.2	0.00e+00	0	45	104	0	77	17714
2026-01-28 21:55:15.95	225.66	7.86	-52.8	-54.8	6.2	0.00e+00	0	45	104	0	77	17963
2026-01-28 21:55:16.93	225.81	7.93	-52.7	-54.8	6.2	0.00e+00	0	45	104	0	77	17921
2026-01-28 21:55:17.89	225.96	8.00	-52.7	-54.8	6.2	0.00e+00	0	45	104	0	77	17873
2026-01-28 21:55:18.87	226.12	8.06	-52.6	-54.7	6.2	0.00e+00	0	45	104	0	77	17718
2026-01-28 21:55:19.83	226.27	8.13	-52.8	-54.8	6.2	0.00e+00	0	45	104	0	77	17969
2026-01-28 21:55:20.81	226.42	8.19	-52.7	-54.8	6.2	0.00e+00	0	44	104	0	77	17943
2026-01-28 21:55:21.77	226.58	8.26	-52.7	-54.8	6.2	0.00e+00	0	44	104	0	77	17803
2026-01-28 21:55:22.74	226.73	8.33	-52.7	-54.8	6.2	0.00e+00	0	45	104	0	77	17806
2026-01-28 21:55:23.71	226.89	8.39	-52.7	-54.8	6.2	0.00e+00	0	45	104	0	77	17884
2026-01-28 21:55:24.69	227.05	8.46	-52.8	-54.8	6.2	0.00e+00	0	45	104	0	77	17954
2026-01-28 21:55:25.66	227.21	8.53	-52.7	-54.8	6.2	0.00e+00	0	45	104	0	77	17935
2026-01-28 21:55:26.63	227.37	8.59	-52.7	-54.8	6.2	0.00e+00	0	45	104	0	77	17842
2026-01-28 21:55:27.60	227.53	8.66	-52.7	-54.8	6.2	0.00e+00	0	45	104	0	77	17964
2026-01-28 21:55:28.58	227.69	8.73	-52.8	-54.9	6.2	0.00e+00	0	45	104	0	77	18020
2026-01-28 21:55:29.54	227.85	8.79	-52.7	-54.8	6.2	0.00e+00	0	45	104	0	77	17915
2026-01-28 21:55:30.52	228.01	8.86	-52.7	-54.8	6.2	0.00e+00	0	45	104	0	77	17850
2026-01-28 21:55:31.49	228.18	8.93	-52.7	-54.8	6.2	0.00e+00	0	45	104	0	77	17835
2026-01-28 21:55:32.46	228.34	8.99	-52.8	-54.9	6.2	0.00e+00	0	45	104	0	77	18010
2026-01-28 21:55:33.43	228.51	9.06	-52.7	-54.8	6.2	0.00e+00	0	45	104	0	77	17922
2026-01-28 21:55:34.41	228.68	9.13	-52.7	-54.8	6.2	0.00e+00	0	45	104	0	77	17869
2026-01-28 21:55:35.38	228.84	9.20	-52.7	-54.8	6.2	0.00e+00	0	45	104	0	77	17887
2026-01-28 21:55:36.35	229.01	9.26	-52.8	-54.9	6.2	0.00e+00	0	45	104	0	77	18008
2026-01-28 21:55:37.32	229.18	9.33	-52.7	-54.9	6.2	0.00e+00	0	45	104	0	77	17973
2026-01-28 21:55:38.28	229.35	9.40	-52.7	-54.8	6.2	0.00e+00	0	45	104	0	77	17952
2026-01-28 21:55:39.26	229.52	9.46	-52.7	-54.8	6.2	0.00e+00	0	45	104	0	77	17877
2026-01-28 21:55:40.23	229.69	9.53	-52.8	-54.9	6.2	0.00e+00	0	45	104	0	77	18032
2026-01-28 21:55:41.20	229.87	9.60	-52.8	-54.9	6.2	0.00e+00	0	45	104	0	77	17992
2026-01-28 21:55:42.17	230.04	9.67	-52.7	-54.8	6.2	0.00e+00	0	45	104	0	77	17897
2026-01-28 21:55:43.14	230.21	9.73	-52.7	-54.8	6.2	0.00e+00	0	45	104	0	77	17937
2026-01-28 21:55:44.12	230.39	9.80	-52.8	-54.9	6.2	0.00e+00	0	45	104	0	77	18082
2026-01-28 21:55:45.09	230.57	9.87	-52.8	-54.8	6.2	0.00e+00	0	45	104	0	77	17969
2026-01-28 21:55:46.06	230.74	9.94	-52.8	-54.8	6.2	0.00e+00	0	45	104	0	77	17969
2026-01-28 21:55:47.03	230.92	10.00	-52.7	-54.8	6.2	0.00e+00	0	45	104	0	77	17904
2026-01-28 21:55:48.00	231.10	10.07	-52.8	-54.9	6.2	0.00e+00	0	45	104	0	77	18105
2026-01-28 21:55:48.97	231.28	10.14	-52.8	-54.9	6.2	0.00e+00	0	45	104	0	77	18045
2026-01-28 21:55:49.94	231.46	10.21	-52.8	-54.9	6.2	0.00e+00	0	45	104	0	77	18031
2026-01-28 21:55:50.91	231.65	10.27	-52.8	-54.9	6.2	0.00e+00	0	45	104	0	77	17992
2026-01-28 21:55:51.88	231.83	10.34	-52.8	-54.9	6.2	0.00e+00	0	45	104	0	77	18094
2026-01-28 21:55:52.85	232.01	10.41	-52.8	-54.9	6.2	0.00e+00	0	45	104	0	77	18065
2026-01-28 21:55:53.82	232.20	10.48	-52.8	-54.8	6.2	0.00e+00	0	45	104	0	77	17946
2026-01-28 21:55:54.80	232.39	10.55	-52.8	-54.8	6.2	0.00e+00	0	45	104	0	77	17971
2026-01-28 21:55:55.76	232.57	10.61	-52.8	-54.9	6.2	0.00e+00	0	45	104	0	77	18138
2026-01-28 21:55:56.74	232.76	10.68	-52.8	-54.9	6.2	0.00e+00	0	45	104	0	77	18065
2026-01-28 21:55:57.71	232.95	10.75	-52.8	-54.9	6.2	0.00e+00	0	45	104	0	77	18019
2026-01-28 21:55:58.68	233.14	10.82	-52.8	-54.8	6.2	0.00e+00	0	45	104	0	77	17967
2026-01-28 21:55:59.65	233.33	10.88	-52.8	-54.9	6.2	0.00e+00	0	45	104	0	77	17992
2026-01-28 21:56:00.62	233.53	10.95	-52.8	-54.9	6.2	0.00e+00	0	45	104	0	77	18069
2026-01-28 21:56:01.59	233.72	11.02	-52.8	-54.9	6.2	0.00e+00	0	45	104	0	77	18007
2026-01-28 21:56:02.57	233.92	11.09	-52.8	-54.9	6.2	0.00e+00	0	45	104	0	77	17977
2026-01-28 21:56:03.54	234.11	11.15	-52.8	-54.9	6.2	0.00e+00	0	45	104	0	77	18005
2026-01-28 21:56:04.51	234.31	11.22	-52.8	-54.8	6.2	0.00e+00	0	45	104	0	77	17904
2026-01-28 21:56:05.48	234.51	11.29	-52.5	-54.4	6.2	0.00e+00	0	45	104	0	77	17075
2026-01-28 21:56:06.45	234.70	11.36	-52.3	-54.0	6.2	0.00e+00	0	45	104	0	76	17342
2026-01-28 21:56:07.42	234.90	11.42	-52.3	-54.1	6.3	0.00e+00	0	45	104	0	76	17418
2026-01-28 21:56:08.39	235.11	11.49	-52.3	-54.2	6.2	0.00e+00	0	45	104	0	76	17600
2026-01-28 21:56:09.36	235.31	11.56	-52.3	-54.1	6.2	0.00e+00	0	45	104	0	76	17518
2026-01-28 21:56:10.33	235.51	11.63	-52.4	-54.2	6.2	0.00e+00	0	45	104	0	76	17734
2026-01-28 21:56:11.30	235.71	11.69	-52.3	-54.1	6.2	0.00e+00	0	45	104	0	76	17453
2026-01-28 21:56:12.28	235.92	11.76	-52.5	-54.4	6.2	0.00e+00	0	45	104	0	76	18060
2026-01-28 21:56:13.25	236.13	11.83	-52.2	-53.9	6.3	0.00e+00	0	45	104	0	76	17048
2026-01-28 21:56:14.22	236.33	11.90	-52.9	-55.0	6.2	0.00e+00	0	45	104	0	76	19410
2026-01-28 21:56:15.19	236.54	11.96	-52.2	-53.9	6.2	0.00e+00	0	45	104	0	76	17031
2026-01-28 21:56:16.17	236.75	12.03	-52.2	-53.9	6.2	0.00e+00	0	45	104	0	76	17082
2026-01-28 21:56:17.14	236.97	12.10	-52.2	-54.0	6.2	0.00e+00	0	45	104	0	76	17187
2026-01-28 21:56:18.10	237.18	12.16	-52.7	-54.7	6.2	0.00e+00	0	45	104	0	76	18744
2026-01-28 21:56:19.07	237.39	12.23	-52.4	-54.2	6.2	0.00e+00	0	45	104	0	76	17625
2026-01-28 21:56:20.04	237.60	12.30	-52.7	-54.6	6.2	0.00e+00	0	45	104	0	76	18571
2026-01-28 21:56:21.01	237.82	12.36	-52.2	-53.9	6.2	0.00e+00	0	45	104	0	76	17111
2026-01-28 21:56:21.98	238.03	12.43	-52.8	-54.9	6.2	0.00e+00	0	45	104	0	76	19054
2026-01-28 21:56:22.95	238.25	12.50	-52.3	-54.1	6.2	0.00e+00	0	45	104	0	76	17493
2026-01-28 21:56:23.93	238.47	12.56	-52.2	-54.0	6.2	0.00e+00	0	45	104	0	76	17179
2026-01-28 21:56:24.90	238.69	12.63	-52.1	-53.9	6.2	0.00e+00	0	45	104	0	76	16990
2026-01-28 21:56:25.87	238.91	12.70	-52.7	-54.6	6.2	0.00e+00	0	45	104	0	76	18496
2026-01-28 21:56:26.84	239.13	12.76	-52.1	-53.7	6.2	0.00e+00	0	45	104	0	76	16713
2026-01-28 21:56:27.81	239.36	12.83	-52.8	-54.8	6.2	0.00e+00	0	45	104	0	76	19035
2026-01-28 21:56:28.78	239.58	12.89	-52.5	-54.4	6.2	0.00e+00	0	45	104	0	76	18076
2026-01-28 21:56:29.75	239.81	12.96	-52.3	-54.0	6.2	0.00e+00	0	45	104	0	76	17351
2026-01-28 21:56:30.73	240.04	13.02	-52.3	-54.1	6.2	0.00e+00	0	45	104	0	76	17399
2026-01-28 21:56:31.70	240.26	13.09	-52.3	-54.1	6.2	0.00e+00	0	45	104	0	76	17501
2026-01-28 21:56:32.67	240.49	13.16	-52.3	-54.1	6.2	0.00e+00	0	45	104	0	76	17383
2026-01-28 21:56:33.64	240.72	13.22	-52.5	-54.4	6.2	0.00e+00	0	45	104	0	76	17977
2026-01-28 21:56:34.62	240.96	13.29	-52.0	-53.6	6.3	0.00e+00	0	45	104	0	76	16542
2026-01-28 21:56:35.59	241.19	13.35	-52.8	-54.9	6.2	0.00e+00	0	45	104	0	76	19141
2026-01-28 21:56:36.56	241.42	13.42	-52.7	-54.7	6.2	0.00e+00	0	45	104	0	76	18712
2026-01-28 21:56:37.53	241.66	13.48	-52.1	-53.8	6.2	0.00e+00	0	45	104	0	76	16808
2026-01-28 21:56:38.50	241.89	13.54	-52.1	-53.8	6.3	0.00e+00	0	45	104	0	76	16798
2026-01-28 21:56:39.47	242.13	13.61	-52.1	-53.7	6.3	0.00e+00	0	45	104	0	76	16673
2026-01-28 21:56:40.44	242.37	13.67	-52.1	-53.8	6.2	0.00e+00	0	45	104	0	76	16807
2026-01-28 21:56:41.41	242.61	13.74	-52.0	-53.6	6.3	0.00e+00	0	45	104	0	76	16572
2026-01-28 21:56:42.38	242.85	13.80	-52.0	-53.6	6.3	0.00e+00	0	45	104	0	76	16417
2026-01-28 21:56:43.35	243.09	13.86	-52.4	-54.2	6.2	0.00e+00	0	45	104	0	75	18720
2026-01-28 21:56:44.32	243.33	13.92	-53.0	-55.0	6.2	0.00e+00	0	45	104	0	76	19433
2026-01-28 21:56:45.29	243.58	13.99	-52.3	-54.0	6.2	0.00e+00	0	45	104	0	76	17261
2026-01-28 21:56:46.27	243.82	14.05	-52.1	-53.7	6.3	0.00e+00	0	45	104	0	76	16706
2026-01-28 21:56:47.24	244.07	14.11	-52.0	-53.6	6.3	0.00e+00	0	45	104	0	76	16545
2026-01-28 21:56:48.21	244.32	14.18	-52.0	-53.6	6.3	0.00e+00	0	45	104	0	76	16516
2026-01-28 21:56:49.19	244.57	14.24	-52.0	-53.6	6.3	0.00e+00	0	45	104	0	76	16550
2026-01-28 21:56:50.16	244.82	14.30	-52.0	-53.7	6.3	0.00e+00	0	45	104	0	76	16594
2026-01-28 21:56:51.13	245.07	14.36	-52.1	-53.7	6.3	0.00e+00	0	45	104	0	76	16679
2026-01-28 21:56:52.11	245.33	14.42	-53.0	-55.1	6.2	0.00e+00	0	45	104	0	76	19650
2026-01-28 21:56:53.08	245.58	14.48	-52.7	-54.7	6.2	0.00e+00	0	45	104	0	76	18641
2026-01-28 21:56:54.04	245.83	14.54	-52.1	-53.7	6.3	0.00e+00	0	45	104	0	76	16648
2026-01-28 21:56:55.01	246.09	14.60	-52.1	-53.7	6.3	0.00e+00	0	45	104	0	76	16649
2026-01-28 21:56:55.98	246.34	14.66	-52.1	-53.7	6.3	0.00e+00	0	45	104	0	76	16704
2026-01-28 21:56:56.96	246.61	14.72	-52.1	-53.7	6.2	0.00e+00	0	45	104	0	76	16747
2026-01-28 21:56:57.93	246.87	14.78	-52.1	-53.7	6.2	0.00e+00	0	45	104	0	76	16675
2026-01-28 21:56:58.90	247.13	14.84	-52.8	-54.9	6.2	0.00e+00	0	45	104	0	76	19036
2026-01-28 21:56:59.87	247.39	14.90	-52.9	-54.9	6.2	0.00e+00	0	45	104	0	76	19158
2026-01-28 21:57:00.84	247.65	14.96	-52.7	-54.5	6.2	0.00e+00	0	45	104	0	76	18272
2026-01-28 21:57:01.81	247.92	15.02	-53.1	-55.2	6.2	0.00e+00	0	45	104	0	76	19908
2026-01-28 21:57:02.78	248.18	15.08	-52.9	-54.8	6.2	0.00e+00	0	45	104	0	76	18934
2026-01-28 21:57:03.75	248.45	15.13	-52.6	-54.4	6.2	0.00e+00	0	45	104	0	76	18040
2026-01-28 21:57:04.72	248.72	15.19	-52.5	-54.3	6.2	0.00e+00	0	45	104	0	76	17910
2026-01-28 21:57:05.69	248.98	15.25	-53.0	-55.1	6.2	0.00e+00	0	45	104	0	76	19558
2026-01-28 21:57:06.66	249.25	15.30	-52.9	-54.8	6.2	0.00e+00	0	45	104	0	76	18893
2026-01-28 21:57:07.64	249.53	15.36	-53.1	-55.1	6.2	0.00e+00	0	45	104	0	76	19583
2026-01-28 21:57:08.61	249.80	15.41	-53.0	-55.0	6.2	0.00e+00	0	45	104	0	76	19418
2026-01-28 21:57:09.58	250.07	15.47	-52.8	-54.6	6.2	0.00e+00	0	45	104	0	76	18564
2026-01-28 21:57:10.55	250.35	15.52	-52.4	-54.1	6.2	0.00e+00	0	45	104	0	76	17394
2026-01-28 21:57:11.52	250.62	15.58	-52.3	-53.9	6.3	0.00e+00	0	45	104	0	76	17073
2026-01-28 21:57:12.50	250.90	15.63	-52.2	-53.8	6.3	0.00e+00	0	45	104	0	76	16850
2026-01-28 21:57:13.47	251.18	15.69	-52.2	-53.8	6.3	0.00e+00	0	45	104	0	76	16807
2026-01-28 21:57:14.44	251.46	15.74	-52.5	-54.3	6.2	0.00e+00	0	45	104	0	76	17949
2026-01-28 21:57:15.42	251.75	15.79	-53.1	-55.2	6.2	0.00e+00	0	45	104	0	76	19718
2026-01-28 21:57:16.39	252.03	15.85	-53.0	-55.0	6.2	0.00e+00	0	45	104	0	76	19406
2026-01-28 21:57:17.36	252.31	15.90	-53.0	-55.0	6.2	0.00e+00	0	45	104	0	76	19391
2026-01-28 21:57:18.34	252.60	15.95	-53.1	-55.2	6.2	0.00e+00	0	45	104	0	76	19738
2026-01-28 21:57:19.31	252.88	16.00	-53.0	-55.0	6.2	0.00e+00	0	45	104	0	76	19267
2026-01-28 21:57:20.28	253.17	16.05	-53.1	-55.1	6.2	0.00e+00	0	45	104	0	76	19673
2026-01-28 21:57:21.25	253.45	16.10	-53.0	-55.1	6.2	0.00e+00	0	45	104	0	76	19480
2026-01-28 21:57:22.23	253.74	16.15	-53.1	-55.2	6.2	0.00e+00	0	45	104	0	76	19737
2026-01-28 21:57:23.20	254.03	16.20	-53.0	-55.0	6.2	0.00e+00	0	45	104	0	76	19287
2026-01-28 21:57:24.18	254.33	16.25	-53.1	-55.1	6.2	0.00e+00	0	45	104	0	76	19620
2026-01-28 21:57:25.15	254.62	16.30	-53.0	-55.1	6.2	0.00e+00	0	45	104	0	76	19488
2026-01-28 21:57:26.12	254.91	16.34	-53.1	-55.2	6.2	0.00e+00	0	45	104	0	76	19721
2026-01-28 21:57:27.09	255.20	16.39	-53.0	-55.0	6.2	0.00e+00	0	45	104	0	76	19396
2026-01-28 21:57:28.06	255.50	16.44	-53.0	-55.1	6.2	0.00e+00	0	45	104	0	76	19541
2026-01-28 21:57:29.03	255.79	16.48	-53.0	-55.1	6.2	0.00e+00	0	45	104	0	76	19490
2026-01-28 21:57:30.01	256.09	16.53	-53.1	-55.1	6.2	0.00e+00	0	45	104	0	76	19682
2026-01-28 21:57:30.98	256.39	16.57	-53.0	-55.1	6.2	0.00e+00	0	45	104	0	76	19485
2026-01-28 21:57:31.95	256.69	16.62	-52.9	-55.0	6.2	0.00e+00	0	45	104	0	76	19272
2026-01-28 21:57:32.92	256.99	16.66	-53.0	-55.1	6.2	0.00e+00	0	45	104	0	76	19566
2026-01-28 21:57:33.89	257.29	16.70	-53.1	-55.1	6.2	0.00e+00	0	45	104	0	76	19671
2026-01-28 21:57:34.86	257.59	16.75	-53.0	-55.1	6.2	0.00e+00	0	45	104	0	76	19547
2026-01-28 21:57:35.83	257.89	16.79	-52.9	-54.9	6.2	0.00e+00	0	45	104	0	76	19167
2026-01-28 21:57:36.81	258.20	16.83	-53.0	-55.0	6.2	0.00e+00	0	45	104	0	76	19389
2026-01-28 21:57:37.78	258.50	16.87	-53.1	-55.2	6.2	0.00e+00	0	45	104	0	76	19734
2026-01-28 21:57:38.75	258.81	16.91	-53.0	-55.1	6.2	0.00e+00	0	45	104	0	76	19502
2026-01-28 21:57:39.72	259.11	16.95	-53.0	-55.0	6.2	0.00e+00	0	45	104	0	76	19408
2026-01-28 21:57:40.69	259.42	16.99	-53.0	-55.0	6.2	0.00e+00	0	45	104	0	76	19400
2026-01-28 21:57:41.66	259.73	17.03	-53.1	-55.1	6.2	0.00e+00	0	45	104	0	76	19661
2026-01-28 21:57:42.64	260.04	17.06	-53.1	-55.1	6.2	0.00e+00	0	45	104	0	76	19570
2026-01-28 21:57:43.61	260.35	17.10	-53.1	-55.1	6.2	0.00e+00	0	45	104	0	76	19600
2026-01-28 21:57:44.58	260.66	17.14	-52.9	-54.9	6.2	0.00e+00	0	45	104	0	76	19214
2026-01-28 21:57:45.55	260.97	17.17	-53.0	-55.1	6.2	0.00e+00	0	45	104	0	76	19564
2026-01-28 21:57:46.52	261.28	17.21	-53.1	-55.1	6.2	0.00e+00	0	45	104	0	76	19628
2026-01-28 21:57:47.49	261.60	17.24	-53.1	-55.1	6.2	0.00e+00	0	45	104	0	76	19666
2026-01-28 21:57:48.46	261.91	17.28	-53.0	-55.0	6.2	0.00e+00	0	45	104	0	76	19387
2026-01-28 21:57:49.43	262.22	17.31	-53.0	-55.1	6.2	0.00e+00	0	45	104	0	76	19581
2026-01-28 21:57:50.41	262.54	17.34	-53.1	-55.2	6.2	0.00e+00	0	45	104	0	76	19773
2026-01-28 21:57:51.39	262.86	17.37	-53.1	-55.1	6.2	0.00e+00	0	45	104	0	76	19540
2026-01-28 21:57:52.36	263.18	17.40	-53.0	-55.1	6.2	0.00e+00	0	45	104	0	76	19611
2026-01-28 21:57:53.33	263.50	17.43	-53.0	-55.1	6.2	0.00e+00	0	45	104	0	76	19503
2026-01-28 21:57:54.30	263.81	17.46	-53.2	-55.3	6.2	0.00e+00	0	45	104	0	76	19971
2026-01-28 21:57:55.28	264.14	17.49	-53.1	-55.1	6.2	0.00e+00	0	45	104	0	76	19654
2026-01-28 21:57:56.26	264.46	17.52	-53.1	-55.2	6.2	0.00e+00	0	45	104	0	76	19712
2026-01-28 21:57:57.22	264.77	17.55	-53.0	-55.1	6.2	0.00e+00	0	45	104	0	76	19598
2026-01-28 21:57:58.19	265.09	17.57	-53.2	-55.3	6.2	0.00e+00	0	45	104	0	77	18912
2026-01-28 21:57:59.17	265.42	17.60	-53.2	-55.3	6.2	0.00e+00	0	45	104	0	77	18846
2026-01-28 21:58:00.14	265.74	17.62	-53.1	-55.2	6.2	0.00e+00	0	45	104	0	77	18626
2026-01-28 21:58:01.11	266.06	17.65	-53.1	-55.1	6.2	0.00e+00	0	45	104	0	77	18565
2026-01-28 21:58:02.08	266.39	17.67	-53.3	-55.4	6.2	0.00e+00	0	45	104	0	77	19100
2026-01-28 21:58:03.06	266.71	17.69	-53.3	-55.3	6.2	0.00e+00	0	45	104	0	77	18987
2026-01-28 21:58:04.02	267.03	17.71	-53.1	-55.2	6.2	0.00e+00	0	45	104	0	77	18718
2026-01-28 21:58:05.00	267.36	17.73	-53.1	-55.2	6.2	0.00e+00	0	45	104	0	77	18716
2026-01-28 21:58:05.97	267.69	17.75	-53.3	-55.4	6.2	0.00e+00	0	45	104	0	77	19170
2026-01-28 21:58:06.93	268.01	17.77	-53.3	-55.4	6.2	0.00e+00	0	45	104	0	77	19052
2026-01-28 21:58:07.91	268.34	17.79	-53.1	-55.2	6.2	0.00e+00	0	45	104	0	77	18690
2026-01-28 21:58:08.88	268.66	17.81	-53.2	-55.2	6.2	0.00e+00	0	45	104	0	77	18769
2026-01-28 21:58:09.84	268.99	17.83	-53.4	-55.4	6.2	0.00e+00	0	45	104	0	77	19203
2026-01-28 21:58:10.81	269.32	17.84	-53.3	-55.3	6.2	0.00e+00	0	45	104	0	77	19015
2026-01-28 21:58:11.79	269.65	17.86	-53.2	-55.2	6.2	0.00e+00	0	45	104	0	77	18762
2026-01-28 21:58:12.76	269.97	17.87	-53.2	-55.3	6.2	0.00e+00	0	45	104	0	77	18864
2026-01-28 21:58:13.73	270.30	17.89	-53.4	-55.4	6.2	0.00e+00	0	45	104	0	77	19190
2026-01-28 21:58:14.70	270.63	17.90	-53.3	-55.4	6.2	0.00e+00	0	45	104	0	77	19175
2026-01-28 21:58:15.68	270.96	17.91	-53.3	-55.3	6.2	0.00e+00	0	45	104	0	77	18995
2026-01-28 21:58:16.65	271.29	17.92	-53.3	-55.3	6.2	0.00e+00	0	45	104	0	77	18960
2026-01-28 21:58:17.62	271.62	17.93	-53.4	-55.4	6.2	0.00e+00	0	45	104	0	77	19230
2026-01-28 21:58:18.59	271.95	17.94	-53.4	-55.5	6.2	0.00e+00	0	45	104	0	77	19261
2026-01-28 21:58:19.57	272.28	17.95	-53.3	-55.4	6.2	0.00e+00	0	45	104	0	77	19170
2026-01-28 21:58:20.54	272.61	17.96	-53.3	-55.4	6.2	0.00e+00	0	45	104	0	77	19105
2026-01-28 21:58:21.52	272.95	17.97	-53.4	-55.4	6.2	0.00e+00	0	45	104	0	77	19253
2026-01-28 21:58:22.49	273.28	17.97	-53.4	-55.5	6.2	0.00e+00	0	45	104	0	77	19397
2026-01-28 21:58:23.46	273.61	17.98	-53.4	-55.5	6.2	0.00e+00	0	45	104	0	77	19314
2026-01-28 21:58:24.43	273.94	17.98	-53.3	-55.4	6.2	0.00e+00	0	45	104	0	77	19097
2026-01-28 21:58:25.41	274.27	17.99	-53.4	-55.4	6.2	0.00e+00	0	45	104	0	77	19205
2026-01-28 21:58:26.38	274.60	17.99	-53.4	-55.5	6.2	0.00e+00	0	45	104	0	77	19289
2026-01-28 21:58:27.35	274.93	17.99	-53.4	-55.5	6.2	0.00e+00	0	45	104	0	77	19403
2026-01-28 21:58:28.32	275.27	17.99	-53.3	-55.4	6.2	0.00e+00	0	45	104	0	77	19089
2026-01-28 21:58:29.29	275.60	17.99	-53.4	-55.5	6.2	0.00e+00	0	45	104	0	77	19259
2026-01-28 21:58:30.27	275.93	17.99	-53.5	-55.6	6.2	0.00e+00	0	45	104	0	77	19568
2026-01-28 21:58:31.24	276.26	17.99	-53.5	-55.6	6.2	0.00e+00	0	45	104	0	77	19515
2026-01-28 21:58:32.21	276.59	17.99	-53.4	-55.4	6.2	0.00e+00	0	45	104	0	77	19069
2026-01-28 21:58:33.18	276.92	17.99	-53.4	-55.5	6.2	0.00e+00	0	45	104	0	77	19354
2026-01-28 21:58:34.15	277.25	17.98	-53.6	-55.7	6.2	0.00e+00	0	45	104	0	77	19835
2026-01-28 21:58:35.12	277.58	17.98	-53.6	-55.7	6.2	0.00e+00	0	45	104	0	77	19744
2026-01-28 21:58:36.09	277.91	17.97	-53.4	-55.3	6.2	0.00e+00	0	45	104	0	77	19029
2026-01-28 21:58:37.06	278.25	17.97	-53.5	-55.6	6.2	0.00e+00	0	45	104	0	77	19512
2026-01-28 21:58:38.03	278.58	17.96	-53.7	-55.8	6.2	0.00e+00	0	45	104	0	77	20010
2026-01-28 21:58:39.01	278.91	17.95	-53.6	-55.7	6.2	0.00e+00	0	45	104	0	77	19801
2026-01-28 21:58:39.98	279.24	17.94	-53.5	-55.4	6.2	0.00e+00	0	45	104	0	77	19221
2026-01-28 21:58:40.95	279.57	17.93	-53.5	-55.6	6.2	0.00e+00	0	45	104	0	77	19502
2026-01-28 21:58:41.92	279.90	17.92	-53.7	-55.8	6.2	0.00e+00	0	45	104	0	78	18968
2026-01-28 21:58:42.89	280.23	17.91	-53.6	-55.7	6.2	0.00e+00	0	45	104	0	78	18706
2026-01-28 21:58:43.86	280.55	17.90	-53.7	-55.7	6.2	0.00e+00	0	45	104	0	78	18707
2026-01-28 21:58:44.84	280.89	17.88	-53.6	-55.6	6.2	0.00e+00	0	45	104	0	78	18571
2026-01-28 21:58:45.82	281.22	17.87	-53.7	-55.7	6.2	0.00e+00	0	46	104	0	78	18801
2026-01-28 21:58:46.79	281.54	17.86	-53.6	-55.6	6.2	0.00e+00	0	46	104	0	78	18437
2026-01-28 21:58:47.76	281.87	17.84	-53.7	-55.7	6.2	0.00e+00	0	45	104	0	78	18792
2026-01-28 21:58:48.73	282.20	17.82	-53.7	-55.7	6.2	0.00e+00	0	45	104	0	78	18764
2026-01-28 21:58:49.71	282.53	17.81	-53.7	-55.7	6.2	0.00e+00	0	45	104	0	78	18706
2026-01-28 21:58:50.67	282.85	17.79	-53.5	-55.4	6.2	0.00e+00	0	45	104	0	78	18083
2026-01-28 21:58:51.64	283.18	17.77	-53.7	-55.8	6.2	0.00e+00	0	45	104	0	78	18903
2026-01-28 21:58:52.61	283.50	17.75	-53.7	-55.8	6.2	0.00e+00	0	45	104	0	78	18849
2026-01-28 21:58:53.58	283.83	17.73	-53.7	-55.7	6.2	0.00e+00	0	45	104	0	78	18726
2026-01-28 21:58:54.55	284.15	17.71	-53.6	-55.6	6.2	0.00e+00	0	45	104	0	78	18401
2026-01-28 21:58:55.52	284.47	17.69	-53.7	-55.7	6.2	0.00e+00	0	45	104	0	78	18759
2026-01-28 21:58:56.49	284.80	17.67	-53.6	-55.7	6.2	0.00e+00	0	45	104	0	78	18610
2026-01-28 21:58:57.46	285.12	17.64	-53.7	-55.7	6.2	0.00e+00	0	45	104	0	78	18697
2026-01-28 21:58:58.43	285.44	17.62	-53.7	-55.7	6.2	0.00e+00	0	45	104	0	78	18803
2026-01-28 21:58:59.40	285.76	17.59	-53.7	-55.7	6.2	0.00e+00	0	45	104	0	78	18709
2026-01-28 21:59:00.37	286.08	17.57	-53.6	-55.6	6.2	0.00e+00	0	45	104	0	78	18601
2026-01-28 21:59:01.34	286.40	17.54	-53.6	-55.7	6.2	0.00e+00	0	45	104	0	78	18686
2026-01-28 21:59:02.32	286.73	17.51	-53.6	-55.7	6.2	0.00e+00	0	45	104	0	78	18626
2026-01-28 21:59:03.28	287.04	17.49	-53.7	-55.7	6.2	0.00e+00	0	45	104	0	78	18769
2026-01-28 21:59:04.25	287.36	17.46	-53.6	-55.6	6.2	0.00e+00	0	45	104	0	78	18545
2026-01-28 21:59:05.23	287.68	17.43	-53.7	-55.7	6.2	0.00e+00	0	45	104	0	78	18733
2026-01-28 21:59:06.20	288.00	17.40	-53.6	-55.6	6.2	0.00e+00	0	45	104	0	78	18541
2026-01-28 21:59:07.17	288.31	17.37	-53.7	-55.7	6.2	0.00e+00	0	45	104	0	78	18652
2026-01-28 21:59:08.14	288.63	17.34	-53.5	-55.4	6.2	0.00e+00	0	45	104	0	78	18099
2026-01-28 21:59:09.12	288.95	17.30	-53.6	-55.6	6.2	0.00e+00	0	45	104	0	78	18583
2026-01-28 21:59:10.09	289.26	17.27	-53.6	-55.6	6.2	0.00e+00	0	45	104	0	78	18576
2026-01-28 21:59:11.05	289.57	17.24	-53.7	-55.7	6.2	0.00e+00	0	45	104	0	78	18805
2026-01-28 21:59:12.03	289.89	17.20	-53.6	-55.4	6.2	0.00e+00	0	45	104	0	78	18170
2026-01-28 21:59:13.00	290.20	17.17	-53.7	-55.6	6.2	0.00e+00	0	45	104	0	78	18573
2026-01-28 21:59:13.97	290.51	17.13	-53.4	-55.2	6.2	0.00e+00	0	45	104	0	78	17625
2026-01-28 21:59:14.94	290.82	17.10	-53.7	-55.7	6.2	0.00e+00	0	45	104	0	78	18768
2026-01-28 21:59:15.91	291.13	17.06	-53.5	-55.4	6.2	0.00e+00	0	45	104	0	78	18123
2026-01-28 21:59:16.89	291.44	17.02	-53.8	-55.8	6.2	0.00e+00	0	45	104	0	78	18930
2026-01-28 21:59:17.86	291.74	16.99	-53.3	-55.1	6.2	0.00e+00	0	45	104	0	78	17455
2026-01-28 21:59:18.83	292.05	16.95	-53.3	-55.0	6.2	0.00e+00	0	45	104	0	78	17330
2026-01-28 21:59:19.81	292.36	16.91	-53.4	-55.2	6.2	0.00e+00	0	45	104	0	78	17745
2026-01-28 21:59:20.78	292.66	16.87	-53.4	-55.3	6.2	0.00e+00	0	45	104	0	78	17806
2026-01-28 21:59:21.75	292.97	16.83	-53.5	-55.3	6.2	0.00e+00	0	45	104	0	78	17882
2026-01-28 21:59:22.72	293.27	16.79	-53.4	-55.3	6.2	0.00e+00	0	45	104	0	78	17868
2026-01-28 21:59:23.70	293.57	16.74	-53.6	-55.5	6.2	0.00e+00	0	45	104	0	78	18280
2026-01-28 21:59:24.67	293.87	16.70	-53.5	-55.3	6.2	0.00e+00	0	45	104	0	78	17968
2026-01-28 21:59:25.65	294.18	16.66	-53.3	-55.1	6.2	0.00e+00	0	45	104	0	78	17453
2026-01-28 21:59:26.62	294.48	16.61	-53.4	-55.2	6.2	0.00e+00	0	45	104	0	78	17634
2026-01-28 21:59:27.59	294.77	16.57	-53.1	-54.8	6.2	0.00e+00	0	45	104	0	78	16808
2026-01-28 21:59:28.56	295.07	16.53	-53.2	-54.9	6.2	0.00e+00	0	45	104	0	78	17010
2026-01-28 21:59:29.53	295.37	16.48	-53.1	-54.8	6.2	0.00e+00	0	45	104	0	78	16955
2026-01-28 21:59:30.51	295.66	16.43	-53.0	-54.7	6.2	0.00e+00	0	45	104	0	78	16621
2026-01-28 21:59:31.49	295.96	16.39	-53.1	-54.8	6.2	0.00e+00	0	45	104	0	77	17803
2026-01-28 21:59:32.46	296.25	16.34	-53.1	-54.7	6.2	0.00e+00	0	45	104	0	77	17756
2026-01-28 21:59:33.43	296.54	16.29	-53.0	-54.6	6.2	0.00e+00	0	45	104	0	77	17462
2026-01-28 21:59:34.41	296.84	16.24	-53.2	-55.0	6.2	0.00e+00	0	45	104	0	77	18194
2026-01-28 21:59:35.38	297.13	16.20	-53.1	-54.8	6.2	0.00e+00	0	45	104	0	77	17946
2026-01-28 21:59:36.36	297.42	16.15	-53.2	-55.1	6.2	0.00e+00	0	46	104	0	77	18422
2026-01-28 21:59:37.33	297.71	16.10	-53.2	-54.9	6.2	0.00e+00	0	45	104	0	77	18104
2026-01-28 21:59:38.30	297.99	16.05	-53.1	-54.8	6.2	0.00e+00	0	46	104	0	77	17965
2026-01-28 21:59:39.27	298.28	16.00	-53.4	-55.2	6.2	0.00e+00	0	45	104	0	77	18721
2026-01-28 21:59:40.24	298.56	15.95	-53.1	-54.9	6.2	0.00e+00	0	45	104	0	77	18041
2026-01-28 21:59:41.22	298.85	15.90	-53.2	-55.0	6.2	0.00e+00	0	45	104	0	77	18294
2026-01-28 21:59:42.19	299.13	15.84	-52.1	-53.4	6.3	0.00e+00	0	45	104	0	76	16043
2026-01-28 21:59:43.16	299.41	15.79	-52.2	-53.6	6.3	0.00e+00	0	45	104	0	76	16438
2026-01-28 21:59:44.14	299.69	15.74	-52.4	-53.9	6.3	0.00e+00	0	45	104	0	76	17109
2026-01-28 21:59:45.11	299.97	15.69	-52.5	-54.0	6.3	0.00e+00	0	45	104	0	76	17252
2026-01-28 21:59:46.08	300.25	15.63	-52.6	-54.1	6.3	0.00e+00	0	45	104	0	76	17426
2026-01-28 21:59:47.05	300.52	15.58	-52.2	-53.5	6.3	0.00e+00	0	45	104	0	76	16350
2026-01-28 21:59:48.03	300.80	15.52	-53.1	-54.9	6.2	0.00e+00	0	45	104	0	76	19066
2026-01-28 21:59:49.00	301.07	15.47	-52.8	-54.5	6.2	0.00e+00	0	45	104	0	76	18265
2026-01-28 21:59:49.97	301.35	15.41	-53.6	-55.6	6.2	0.00e+00	0	45	104	0	77	19663
2026-01-28 21:59:50.94	301.62	15.36	-52.5	-54.0	6.3	0.00e+00	0	45	104	0	77	16357
2026-01-28 21:59:51.91	301.89	15.30	-52.5	-53.9	6.3	0.00e+00	0	45	104	0	76	17097
2026-01-28 21:59:52.88	302.16	15.25	-52.7	-54.2	6.3	0.00e+00	0	45	104	0	76	17703
2026-01-28 21:59:53.85	302.43	15.19	-53.3	-55.2	6.2	0.00e+00	0	45	104	0	77	18611
2026-01-28 21:59:54.82	302.69	15.13	-53.1	-54.8	6.2	0.00e+00	0	45	104	0	77	17921
2026-01-28 21:59:55.79	302.96	15.08	-53.5	-55.4	6.2	0.00e+00	0	45	104	0	77	19249
2026-01-28 21:59:56.76	303.22	15.02	-52.6	-54.1	6.3	0.00e+00	0	45	104	0	77	16544
2026-01-28 21:59:57.73	303.49	14.96	-53.5	-55.4	6.2	0.00e+00	0	45	104	0	77	19150
2026-01-28 21:59:58.70	303.75	14.90	-53.3	-55.2	6.2	0.00e+00	0	45	104	0	77	18666
2026-01-28 21:59:59.67	304.01	14.84	-52.9	-54.6	6.3	0.00e+00	0	45	104	0	77	17507
2026-01-28 22:00:00.64	304.27	14.78	-53.1	-54.8	6.2	0.00e+00	0	45	104	0	77	17963
2026-01-28 22:00:01.61	304.53	14.73	-53.5	-55.5	6.2	0.00e+00	0	45	104	0	77	19348
2026-01-28 22:00:02.58	304.79	14.67	-53.5	-55.6	6.2	0.00e+00	0	45	104	0	77	19560
2026-01-28 22:00:03.56	305.05	14.61	-53.5	-55.5	6.2	0.00e+00	0	45	104	0	77	19381
2026-01-28 22:00:04.54	305.30	14.54	-53.6	-55.6	6.2	0.00e+00	0	45	104	0	77	19570
2026-01-28 22:00:05.51	305.56	14.48	-53.5	-55.5	6.2	0.00e+00	0	45	104	0	77	19259
2026-01-28 22:00:06.48	305.81	14.42	-53.0	-54.7	6.2	0.00e+00	0	45	104	0	77	17751
2026-01-28 22:00:07.45	306.06	14.36	-52.9	-54.6	6.2	0.00e+00	0	45	104	0	77	17522
2026-01-28 22:00:08.43	306.31	14.30	-52.8	-54.5	6.2	0.00e+00	0	45	104	0	77	17311
2026-01-28 22:00:09.40	306.56	14.24	-52.9	-54.5	6.2	0.00e+00	0	45	104	0	77	17336
2026-01-28 22:00:10.37	306.81	14.18	-52.9	-54.5	6.3	0.00e+00	0	45	104	0	77	17313
2026-01-28 22:00:11.34	307.06	14.12	-53.2	-55.1	6.2	0.00e+00	0	45	104	0	77	18472
2026-01-28 22:00:12.32	307.31	14.05	-53.5	-55.5	6.2	0.00e+00	0	45	104	0	77	19464
2026-01-28 22:00:13.29	307.55	13.99	-53.0	-54.8	6.2	0.00e+00	0	45	104	0	77	17792
2026-01-28 22:00:14.27	307.80	13.93	-53.6	-55.7	6.2	0.00e+00	0	45	104	0	77	19820
2026-01-28 22:00:15.24	308.04	13.87	-53.2	-55.1	6.2	0.00e+00	0	45	104	0	77	18409
2026-01-28 22:00:16.21	308.28	13.80	-53.1	-54.9	6.2	0.00e+00	0	45	104	0	77	18017
2026-01-28 22:00:17.19	308.52	13.74	-53.0	-54.8	6.2	0.00e+00	0	45	104	0	77	17836
2026-01-28 22:00:18.16	308.76	13.68	-53.2	-55.1	6.2	0.00e+00	0	45	104	0	77	18432
2026-01-28 22:00:19.14	309.00	13.61	-53.4	-55.3	6.2	0.00e+00	0	45	104	0	77	18970
2026-01-28 22:00:20.11	309.24	13.55	-53.3	-55.1	6.2	0.00e+00	0	45	104	0	77	18543
2026-01-28 22:00:21.08	309.47	13.48	-53.4	-55.4	6.2	0.00e+00	0	45	104	0	77	19144
2026-01-28 22:00:22.06	309.71	13.42	-53.0	-54.8	6.2	0.00e+00	0	45	104	0	77	17824
2026-01-28 22:00:23.03	309.94	13.35	-53.0	-54.8	6.2	0.00e+00	0	46	104	0	77	17773
2026-01-28 22:00:24.00	310.17	13.29	-53.0	-54.7	6.2	0.00e+00	0	45	104	0	77	17681
2026-01-28 22:00:24.97	310.40	13.23	-52.9	-54.6	6.2	0.00e+00	0	45	104	0	77	17552
2026-01-28 22:00:25.95	310.63	13.16	-52.8	-54.5	6.2	0.00e+00	0	45	104	0	77	17274
2026-01-28 22:00:26.93	310.86	13.09	-53.1	-54.9	6.2	0.00e+00	0	45	104	0	77	18150
2026-01-28 22:00:27.90	311.09	13.03	-53.3	-55.3	6.2	0.00e+00	0	45	104	0	77	18932
2026-01-28 22:00:28.87	311.32	12.96	-53.4	-55.4	6.2	0.00e+00	0	45	104	0	77	19173
2026-01-28 22:00:29.85	311.54	12.90	-53.0	-54.8	6.2	0.00e+00	0	45	104	0	77	17798
2026-01-28 22:00:30.82	311.77	12.83	-53.0	-54.8	6.2	0.00e+00	0	45	104	0	77	17838
2026-01-28 22:00:31.79	311.99	12.77	-53.0	-54.8	6.2	0.00e+00	0	45	104	0	77	17778
2026-01-28 22:00:32.77	312.21	12.70	-53.0	-54.7	6.2	0.00e+00	0	45	104	0	77	17708
2026-01-28 22:00:33.74	312.43	12.64	-53.0	-54.7	6.2	0.00e+00	0	45	104	0	77	17700
2026-01-28 22:00:34.71	312.65	12.57	-53.0	-54.8	6.2	0.00e+00	0	45	104	0	77	17835
2026-01-28 22:00:35.68	312.87	12.50	-53.3	-55.2	6.2	0.00e+00	0	45	104	0	77	18802
2026-01-28 22:00:36.65	313.09	12.44	-52.9	-54.8	6.2	0.00e+00	0	45	104	0	77	17812
2026-01-28 22:00:37.63	313.30	12.37	-52.9	-54.7	6.2	0.00e+00	0	45	104	0	77	17708
2026-01-28 22:00:38.60	313.52	12.30	-52.9	-54.6	6.2	0.00e+00	0	45	104	0	77	17492
2026-01-28 22:00:39.57	313.73	12.24	-52.7	-54.4	6.2	0.00e+00	0	45	104	0	77	17095
2026-01-28 22:00:40.54	313.94	12.17	-52.7	-54.4	6.2	0.00e+00	0	45	104	0	77	17044
2026-01-28 22:00:41.52	314.16	12.10	-52.7	-54.4	6.2	0.00e+00	0	45	104	0	77	17078
2026-01-28 22:00:42.49	314.37	12.04	-52.7	-54.4	6.2	0.00e+00	0	45	104	0	77	17100
2026-01-28 22:00:43.46	314.57	11.97	-53.3	-55.3	6.2	0.00e+00	0	45	104	0	77	18987
2026-01-28 22:00:44.44	314.78	11.90	-53.3	-55.3	6.2	0.00e+00	0	45	104	0	77	19029
2026-01-28 22:00:45.41	314.99	11.84	-52.7	-54.4	6.2	0.00e+00	0	45	104	0	77	17043
2026-01-28 22:00:46.38	315.20	11.77	-53.0	-54.7	6.2	0.00e+00	0	45	104	0	77	17742
2026-01-28 22:00:47.35	315.40	11.70	-52.6	-54.2	6.2	0.00e+00	0	45	104	0	77	16717
2026-01-28 22:00:48.32	315.60	11.64	-52.5	-54.2	6.2	0.00e+00	0	45	104	0	77	16580
2026-01-28 22:00:49.29	315.81	11.57	-52.3	-53.8	6.3	0.00e+00	0	45	104	0	76	16784
2026-01-28 22:00:50.27	316.01	11.50	-52.3	-53.8	6.3	0.00e+00	0	45	104	0	76	16887
2026-01-28 22:00:51.24	316.21	11.44	-52.6	-54.3	6.2	0.00e+00	0	45	104	0	76	17914
2026-01-28 22:00:52.21	316.41	11.37	-53.2	-55.2	6.2	0.00e+00	0	45	104	0	77	18620
2026-01-28 22:00:53.18	316.61	11.30	-52.0	-53.5	6.3	0.00e+00	0	45	104	0	76	16263
2026-01-28 22:00:54.16	316.81	11.23	-53.1	-54.9	6.2	0.00e+00	0	45	104	0	76	19148
2026-01-28 22:00:55.13	317.00	11.17	-52.1	-53.5	6.3	0.00e+00	0	46	104	0	76	16335
2026-01-28 22:00:56.10	317.20	11.10	-52.0	-53.4	6.3	0.00e+00	0	46	104	0	76	16045
2026-01-28 22:00:57.07	317.39	11.03	-51.8	-53.3	6.3	0.00e+00	0	45	104	0	75	16779
2026-01-28 22:00:58.04	317.58	10.96	-52.1	-53.7	6.3	0.00e+00	0	45	104	0	75	17603
2026-01-28 22:00:59.01	317.77	10.90	-52.5	-54.1	6.3	0.00e+00	0	45	104	0	75	18393
2026-01-28 22:00:59.98	317.96	10.83	-53.1	-55.1	6.2	0.00e+00	0	45	104	0	76	19566
2026-01-28 22:01:00.96	318.16	10.76	-52.0	-53.4	6.3	0.00e+00	0	45	104	0	76	16028
2026-01-28 22:01:01.93	318.34	10.69	-53.1	-55.1	6.2	0.00e+00	0	45	104	0	76	19526
2026-01-28 22:01:02.90	318.53	10.63	-52.0	-53.4	6.3	0.00e+00	0	45	104	0	76	16189
2026-01-28 22:01:03.87	318.72	10.56	-51.9	-53.3	6.3	0.00e+00	0	45	104	0	75	16779
2026-01-28 22:01:04.84	318.90	10.49	-51.8	-53.1	6.3	0.00e+00	0	45	104	0	75	16559
2026-01-28 22:01:05.81	319.09	10.43	-52.3	-54.0	6.2	0.00e+00	0	45	104	0	75	18197
2026-01-28 22:01:06.79	319.27	10.36	-52.4	-54.0	6.3	0.00e+00	0	45	104	0	75	18255
2026-01-28 22:01:07.76	319.46	10.29	-53.1	-55.1	6.2	0.00e+00	0	45	104	0	76	19517
2026-01-28 22:01:08.73	319.64	10.22	-52.0	-53.5	6.3	0.00e+00	0	45	104	0	76	16211
2026-01-28 22:01:09.70	319.82	10.16	-53.1	-55.1	6.2	0.00e+00	0	45	104	0	76	19503
2026-01-28 22:01:10.67	320.00	10.09	-52.1	-53.4	6.3	0.00e+00	0	45	104	0	76	16089
2026-01-28 22:01:11.64	320.18	10.02	-51.8	-53.2	6.3	0.00e+00	0	46	104	0	75	16609
2026-01-28 22:01:12.61	320.36	9.95	-51.8	-53.1	6.3	0.00e+00	0	45	104	0	75	16543
2026-01-28 22:01:13.57	320.53	9.89	-51.9	-53.4	6.3	0.00e+00	0	46	104	0	75	17022
2026-01-28 22:01:14.54	320.71	9.82	-52.0	-53.5	6.3	0.00e+00	0	45	104	0	75	17310
2026-01-28 22:01:15.51	320.88	9.75	-52.8	-54.7	6.2	0.00e+00	0	45	104	0	76	18669
2026-01-28 22:01:16.49	321.06	9.69	-52.4	-54.0	6.2	0.00e+00	0	45	104	0	76	17309
2026-01-28 22:01:17.46	321.23	9.62	-52.6	-54.4	6.2	0.00e+00	0	45	104	0	75	19149
2026-01-28 22:01:18.43	321.40	9.55	-53.0	-54.9	6.2	0.00e+00	0	45	104	0	77	18158
2026-01-28 22:01:19.40	321.57	9.49	-51.9	-53.3	6.3	0.00e+00	0	46	104	0	75	16958
2026-01-28 22:01:20.37	321.74	9.42	-51.8	-53.3	6.3	0.00e+00	0	45	104	0	75	16857
2026-01-28 22:01:21.34	321.91	9.35	-51.9	-53.4	6.3	0.00e+00	0	45	104	0	75	17036
2026-01-28 22:01:22.31	322.08	9.29	-52.0	-53.5	6.3	0.00e+00	0	45	104	0	75	17308
2026-01-28 22:01:23.28	322.25	9.22	-52.6	-54.3	6.2	0.00e+00	0	45	104	0	75	18975
2026-01-28 22:01:24.25	322.42	9.15	-52.8	-54.7	6.2	0.00e+00	0	45	104	0	76	18622
2026-01-28 22:01:25.22	322.58	9.09	-51.9	-53.4	6.3	0.00e+00	0	45	104	0	75	17043
2026-01-28 22:01:26.19	322.75	9.02	-53.1	-55.1	6.2	0.00e+00	0	45	104	0	76	19618
2026-01-28 22:01:27.17	322.91	8.95	-51.8	-53.2	6.3	0.00e+00	0	45	104	0	75	16770
2026-01-28 22:01:28.14	323.08	8.88	-51.7	-53.1	6.3	0.00e+00	0	45	104	0	75	16523
2026-01-28 22:01:29.10	323.24	8.82	-51.7	-53.1	6.3	0.00e+00	0	45	104	0	75	16538
2026-01-28 22:01:30.08	323.40	8.75	-53.0	-55.0	6.2	0.00e+00	0	45	104	0	76	19430
2026-01-28 22:01:31.05	323.56	8.69	-53.1	-55.2	6.2	0.00e+00	0	45	104	0	76	19828
2026-01-28 22:01:32.02	323.72	8.62	-53.3	-55.4	6.2	0.00e+00	0	45	104	0	77	19048
2026-01-28 22:01:33.00	323.88	8.55	-53.2	-55.3	6.2	0.00e+00	0	46	104	0	77	18842
2026-01-28 22:01:33.97	324.04	8.49	-53.1	-55.2	6.2	0.00e+00	0	45	104	0	77	18753
2026-01-28 22:01:34.94	324.20	8.42	-53.1	-55.2	6.2	0.00e+00	0	45	104	0	77	18682
2026-01-28 22:01:35.91	324.35	8.35	-53.2	-55.3	6.2	0.00e+00	0	45	104	0	77	18890
2026-01-28 22:01:36.88	324.51	8.29	-53.1	-55.2	6.2	0.00e+00	0	46	104	0	77	18609
2026-01-28 22:01:37.86	324.66	8.22	-53.0	-55.1	6.2	0.00e+00	0	45	104	0	77	18536
2026-01-28 22:01:38.83	324.82	8.16	-53.0	-55.1	6.2	0.00e+00	0	45	104	0	77	18485
2026-01-28 22:01:39.80	324.97	8.09	-53.1	-55.2	6.2	0.00e+00	0	45	104	0	77	18710
2026-01-28 22:01:40.77	325.12	8.03	-53.0	-55.1	6.2	0.00e+00	0	45	104	0	77	18437
2026-01-28 22:01:41.74	325.27	7.96	-53.0	-55.0	6.2	0.00e+00	0	45	104	0	77	18363
2026-01-28 22:01:42.71	325.42	7.89	-52.9	-55.0	6.2	0.00e+00	0	46	104	0	77	18297
2026-01-28 22:01:43.68	325.57	7.83	-53.0	-55.1	6.2	0.00e+00	0	45	104	0	77	18497
2026-01-28 22:01:44.65	325.72	7.76	-52.9	-55.0	6.2	0.00e+00	0	45	104	0	77	18375
2026-01-28 22:01:45.62	325.87	7.70	-52.9	-55.0	6.2	0.00e+00	0	45	104	0	77	18272
2026-01-28 22:01:46.59	326.02	7.63	-52.9	-54.9	6.2	0.00e+00	0	45	104	0	77	18176
2026-01-28 22:01:47.56	326.17	7.57	-52.9	-55.0	6.2	0.00e+00	0	45	104	0	77	18341
2026-01-28 22:01:48.53	326.31	7.50	-52.9	-55.0	6.2	0.00e+00	0	45	104	0	77	18296
2026-01-28 22:01:49.50	326.46	7.44	-52.9	-54.9	6.2	0.00e+00	0	45	104	0	77	18164
2026-01-28 22:01:50.47	326.60	7.37	-52.8	-54.9	6.2	0.00e+00	0	45	104	0	77	18112
2026-01-28 22:01:51.44	326.74	7.31	-52.8	-54.9	6.2	0.00e+00	0	45	104	0	77	18157
2026-01-28 22:01:52.41	326.89	7.24	-52.9	-55.0	6.2	0.00e+00	0	45	104	0	77	18204
2026-01-28 22:01:53.39	327.03	7.18	-52.8	-54.9	6.2	0.00e+00	0	45	104	0	77	17996
2026-01-28 22:01:54.36	327.17	7.11	-52.8	-54.9	6.2	0.00e+00	0	45	104	0	77	17987
2026-01-28 22:01:55.33	327.31	7.05	-52.8	-54.9	6.2	0.00e+00	0	45	104	0	77	18061
2026-01-28 22:01:56.30	327.45	6.99	-52.9	-55.0	6.2	0.00e+00	0	45	104	0	77	18180
2026-01-28 22:01:57.27	327.59	6.92	-52.8	-54.9	6.2	0.00e+00	0	45	104	0	77	17994
2026-01-28 22:01:58.24	327.73	6.86	-52.8	-54.9	6.2	0.00e+00	0	45	104	0	77	17998
2026-01-28 22:01:59.21	327.87	6.79	-52.7	-54.8	6.2	0.00e+00	0	45	104	0	77	17965
2026-01-28 22:02:00.18	328.01	6.73	-52.8	-54.9	6.2	0.00e+00	0	45	104	0	77	18135
2026-01-28 22:02:01.16	328.14	6.66	-52.7	-54.8	6.2	0.00e+00	0	45	104	0	77	17856
2026-01-28 22:02:02.13	328.28	6.60	-52.7	-54.8	6.2	0.00e+00	0	45	104	0	77	17877
2026-01-28 22:02:03.10	328.41	6.54	-52.7	-54.8	6.2	0.00e+00	0	45	104	0	77	17848
2026-01-28 22:02:04.07	328.55	6.47	-52.8	-54.9	6.2	0.00e+00	0	45	104	0	77	18041
2026-01-28 22:02:05.04	328.68	6.41	-52.7	-54.8	6.2	0.00e+00	0	45	104	0	77	17874
2026-01-28 22:02:06.01	328.81	6.35	-52.7	-54.8	6.2	0.00e+00	0	45	104	0	77	17826
2026-01-28 22:02:06.98	328.95	6.28	-52.6	-54.7	6.2	0.00e+00	0	45	104	0	77	17736
2026-01-28 22:02:07.95	329.08	6.22	-52.8	-54.9	6.2	0.00e+00	0	45	104	0	77	18044
2026-01-28 22:02:08.93	329.21	6.16	-52.7	-54.8	6.2	0.00e+00	0	45	104	0	77	17772
2026-01-28 22:02:09.90	329.34	6.09	-52.6	-54.7	6.2	0.00e+00	0	46	104	0	77	17748
2026-01-28 22:02:10.87	329.47	6.03	-52.6	-54.7	6.2	0.00e+00	0	45	104	0	77	17583
2026-01-28 22:02:11.84	329.60	5.97	-52.7	-54.8	6.2	0.00e+00	0	46	104	0	77	17856
2026-01-28 22:02:12.81	329.73	5.90	-52.6	-54.7	6.2	0.00e+00	0	45	104	0	77	17628
2026-01-28 22:02:13.78	329.85	5.84	-52.6	-54.7	6.2	0.00e+00	0	45	104	0	77	17686
2026-01-28 22:02:14.75	329.98	5.78	-52.5	-54.6	6.2	0.00e+00	0	45	104	0	77	17469
2026-01-28 22:02:15.72	330.11	5.72	-52.7	-54.7	6.2	0.00e+00	0	45	104	0	77	17735
2026-01-28 22:02:16.69	330.23	5.65	-52.5	-54.6	6.2	0.00e+00	0	45	104	0	77	17513
2026-01-28 22:02:17.66	330.36	5.59	-52.5	-54.6	6.2	0.00e+00	0	45	104	0	77	17551
2026-01-28 22:02:18.63	330.48	5.53	-52.5	-54.6	6.2	0.00e+00	0	45	104	0	77	17411
2026-01-28 22:02:19.61	330.61	5.47	-52.6	-54.7	6.2	0.00e+00	0	45	104	0	76	18647
2026-01-28 22:02:20.59	330.73	5.40	-52.5	-54.6	6.2	0.00e+00	0	45	104	0	76	18515
2026-01-28 22:02:21.56	330.85	5.34	-52.5	-54.6	6.2	0.00e+00	0	45	104	0	76	18439
2026-01-28 22:02:22.53	330.97	5.28	-52.4	-54.5	6.2	0.00e+00	0	45	104	0	76	18269
2026-01-28 22:02:23.50	331.10	5.22	-52.5	-54.6	6.2	0.00e+00	0	45	104	0	76	18511
2026-01-28 22:02:24.48	331.22	5.16	-52.5	-54.6	6.2	0.00e+00	0	45	104	0	76	18438
2026-01-28 22:02:25.45	331.34	5.09	-52.4	-54.5	6.2	0.00e+00	0	45	104	0	76	18360
2026-01-28 22:02:26.42	331.46	5.03	-52.5	-54.6	6.2	0.00e+00	0	45	104	0	76	18418
2026-01-28 22:02:27.39	331.58	4.97	-52.9	-55.0	6.2	0.00e+00	0	45	104	0	76	19427
2026-01-28 22:02:28.36	331.69	4.91	-53.3	-55.4	6.2	0.00e+00	0	45	104	0	77	19202
2026-01-28 22:02:29.34	331.81	4.85	-53.5	-55.6	6.2	0.00e+00	0	45	104	0	77	19525
2026-01-28 22:02:30.31	331.93	4.79	-53.6	-55.7	6.2	0.00e+00	0	45	104	0	77	19841
2026-01-28 22:02:31.28	332.05	4.73	-53.7	-55.8	6.2	0.00e+00	0	45	104	0	77	20020
2026-01-28 22:02:32.25	332.16	4.67	-53.7	-55.8	6.2	0.00e+00	0	45	104	0	77	19989
2026-01-28 22:02:33.22	332.28	4.61	-53.7	-55.8	6.2	0.00e+00	0	46	104	0	77	20011
2026-01-28 22:02:34.19	332.39	4.54	-53.7	-55.8	6.2	0.00e+00	0	45	104	0	77	19969
2026-01-28 22:02:35.17	332.51	4.48	-53.6	-55.7	6.2	0.00e+00	0	46	104	0	77	19865
2026-01-28 22:02:36.14	332.62	4.42	-53.6	-55.6	6.2	0.00e+00	0	46	104	0	77	19699
2026-01-28 22:02:37.11	332.73	4.36	-53.4	-55.6	6.2	0.00e+00	0	45	104	0	77	19484
2026-01-28 22:02:38.08	332.85	4.30	-53.4	-55.5	6.2	0.00e+00	0	45	104	0	77	19280
2026-01-28 22:02:39.04	332.96	4.24	-53.4	-55.5	6.2	0.00e+00	0	45	104	0	77	19322
2026-01-28 22:02:40.01	333.07	4.18	-53.4	-55.5	6.2	0.00e+00	0	45	104	0	77	19345
2026-01-28 22:02:40.98	333.18	4.12	-53.4	-55.5	6.2	0.00e+00	0	45	104	0	77	19464
2026-01-28 22:02:41.95	333.29	4.06	-53.5	-55.5	6.2	0.00e+00	0	45	104	0	77	19438
2026-01-28 22:02:42.92	333.40	4.00	-53.5	-55.6	6.2	0.00e+00	0	45	104	0	77	19551
2026-01-28 22:02:43.89	333.51	3.94	-53.5	-55.6	6.2	0.00e+00	0	46	104	0	77	19570
2026-01-28 22:02:44.86	333.62	3.88	-53.5	-55.6	6.2	0.00e+00	0	45	104	0	77	19594
2026-01-28 22:02:45.83	333.72	3.82	-53.5	-55.6	6.2	0.00e+00	0	45	104	0	77	19626
2026-01-28 22:02:46.80	333.83	3.77	-53.5	-55.6	6.2	0.00e+00	0	45	104	0	77	19622
2026-01-28 22:02:47.78	333.94	3.71	-53.5	-55.6	6.2	0.00e+00	0	46	104	0	77	19692
2026-01-28 22:02:48.75	334.05	3.65	-53.5	-55.6	6.2	0.00e+00	0	45	104	0	77	19630
2026-01-28 22:02:49.72	334.15	3.59	-53.5	-55.6	6.2	0.00e+00	0	46	104	0	77	19558
2026-01-28 22:02:50.69	334.26	3.53	-53.5	-55.6	6.2	0.00e+00	0	45	104	0	77	19511
2026-01-28 22:02:51.66	334.36	3.47	-53.5	-55.5	6.2	0.00e+00	0	45	104	0	77	19474
2026-01-28 22:02:52.63	334.47	3.41	-53.4	-55.6	6.2	0.00e+00	0	45	104	0	77	19504
2026-01-28 22:02:53.60	334.57	3.35	-53.4	-55.5	6.2	0.00e+00	0	45	104	0	77	19437
2026-01-28 22:02:54.58	334.68	3.29	-53.4	-55.5	6.2	0.00e+00	0	45	104	0	77	19388
2026-01-28 22:02:55.55	334.78	3.23	-53.4	-55.5	6.2	0.00e+00	0	45	104	0	77	19371
2026-01-28 22:02:56.51	334.88	3.18	-53.4	-55.5	6.2	0.00e+00	0	45	104	0	77	19371
2026-01-28 22:02:57.48	334.98	3.12	-53.4	-55.5	6.2	0.00e+00	0	45	104	0	77	19378
2026-01-28 22:02:58.46	335.09	3.06	-53.4	-55.5	6.2	0.00e+00	0	45	104	0	77	19308
2026-01-28 22:02:59.43	335.19	3.00	-53.4	-55.5	6.2	0.00e+00	0	45	104	0	77	19349
2026-01-28 22:03:00.40	335.29	2.94	-53.4	-55.4	6.2	0.00e+00	0	45	104	0	77	19250
2026-01-28 22:03:01.37	335.39	2.89	-53.4	-55.5	6.2	0.00e+00	0	46	104	0	77	19333
2026-01-28 22:03:02.34	335.49	2.83	-53.4	-55.5	6.2	0.00e+00	0	45	104	0	77	19325
2026-01-28 22:03:03.31	335.59	2.77	-53.4	-55.4	6.2	0.00e+00	0	46	104	0	77	19241
2026-01-28 22:03:04.28	335.69	2.71	-53.4	-55.5	6.2	0.00e+00	0	45	104	0	77	19261
2026-01-28 22:03:05.25	335.79	2.65	-53.3	-55.4	6.2	0.00e+00	0	46	104	0	77	19186
2026-01-28 22:03:06.22	335.88	2.60	-53.3	-55.4	6.2	0.00e+00	0	45	104	0	77	19144
2026-01-28 22:03:07.19	335.98	2.54	-53.3	-55.4	6.2	0.00e+00	0	45	104	0	77	19171
2026-01-28 22:03:08.16	336.08	2.48	-53.3	-55.4	6.2	0.00e+00	0	45	104	0	77	19134
2026-01-28 22:03:09.13	336.17	2.43	-53.3	-55.4	6.2	0.00e+00	0	45	104	0	77	19132
2026-01-28 22:03:10.11	336.27	2.37	-53.3	-55.4	6.2	0.00e+00	0	45	104	0	77	19131
2026-01-28 22:03:11.08	336.37	2.31	-53.3	-55.4	6.2	0.00e+00	0	45	104	0	77	19038
2026-01-28 22:03:12.05	336.46	2.25	-53.3	-55.4	6.2	0.00e+00	0	45	104	0	77	19091
2026-01-28 22:03:13.02	336.56	2.20	-53.3	-55.3	6.2	0.00e+00	0	46	104	0	77	19025
2026-01-28 22:03:13.99	336.65	2.14	-53.3	-55.4	6.2	0.00e+00	0	45	104	0	77	19048
2026-01-28 22:03:14.96	336.75	2.08	-53.3	-55.3	6.2	0.00e+00	0	45	104	0	77	19032
2026-01-28 22:03:15.93	336.84	2.03	-53.2	-55.3	6.2	0.00e+00	0	45	104	0	77	18954
2026-01-28 22:03:16.90	336.93	1.97	-53.2	-55.3	6.2	0.00e+00	0	45	104	0	77	18892
2026-01-28 22:03:17.88	337.03	1.91	-53.2	-55.3	6.2	0.00e+00	0	45	104	0	77	18842

#Closed at: 2026-01-28 22:03:18
#Recorded file [0 MB]: D:/lorett/data/31041_260129_005343.dat