passes_logs/2026/01/28/R3.2S_Murmansk/R3.2S_Murmansk__20260128_004823_NOAA_20_JPSS-1_rec.log

#Pass ID: 20260128_004823_NOAA 20 (JPSS-1)
#Satellite: NOAA 20 (JPSS-1)
#Configuration: NOAA 20
#almurnet v.1.7.20251203
#Start time: 2026-01-28 00:48:23

#Version: 2.2.20231116
#Station: R3.2S_Murmansk
#Location: 33.079688 lon 68.888172 lat
#TLE: 1 43013U 17073A   26027.31247158  .00000160  00000+0  97001-4 0  9994
#TLE: 2 43013  98.7647 328.1226 0000969  21.9986 338.1231 14.19541059424489

#Time	Az	El	Level	Level2	SNR	BER	BlckErr	Temp	State	Recorded	gain1	gain2
2026-01-28 00:48:23.86	24.96	2.03	-53.9	-68.9	3.8	1.49e+00	0	41	0	0	78	21318
2026-01-28 00:48:24.86	24.96	2.09	-53.8	-68.9	3.8	1.49e+00	0	41	104	0	78	21306
2026-01-28 00:48:25.87	24.96	2.16	-53.8	-68.8	3.8	1.49e+00	0	41	104	0	78	21066
2026-01-28 00:48:26.88	24.96	2.22	-53.7	-68.7	3.8	1.49e+00	0	41	104	0	78	20832
2026-01-28 00:48:27.89	24.96	2.29	-53.6	-68.5	3.8	1.49e+00	0	41	104	0	78	20521
2026-01-28 00:48:28.90	24.96	2.35	-53.4	-68.4	3.8	1.49e+00	0	41	104	0	78	20167
2026-01-28 00:48:29.91	24.96	2.42	-53.3	-68.3	3.8	1.49e+00	0	41	104	0	78	19925
2026-01-28 00:48:30.92	24.96	2.48	-53.2	-68.1	3.8	1.49e+00	0	41	104	0	78	19574
2026-01-28 00:48:31.93	24.96	2.55	-52.9	-67.9	3.8	1.49e+00	0	41	104	0	77	20137
2026-01-28 00:48:32.93	24.96	2.61	-52.6	-67.6	3.8	1.49e+00	0	41	104	0	77	19393
2026-01-28 00:48:33.94	24.97	2.68	-52.2	-67.1	3.8	1.49e+00	0	41	104	0	76	19601
2026-01-28 00:48:34.94	24.97	2.75	-51.9	-66.8	3.8	1.49e+00	0	41	104	0	75	19952
2026-01-28 00:48:35.95	24.97	2.81	-51.9	-66.7	3.8	1.49e+00	0	41	104	0	74	21002
2026-01-28 00:48:36.96	24.97	2.88	-51.9	-66.7	3.8	1.49e+00	0	41	104	0	74	20954
2026-01-28 00:48:37.97	24.97	2.94	-51.6	-66.6	3.8	1.49e+00	0	41	104	0	73	21873
2026-01-28 00:48:38.98	24.97	3.01	-51.9	-66.7	3.8	1.49e+00	0	41	104	0	74	20872
2026-01-28 00:48:39.99	24.97	3.08	-51.9	-66.7	3.8	1.49e+00	0	41	104	0	74	21006
2026-01-28 00:48:41.00	24.97	3.15	-51.9	-66.7	3.8	1.49e+00	0	42	104	0	74	21013
2026-01-28 00:48:42.01	24.97	3.21	-51.9	-66.8	3.8	1.49e+00	0	42	104	0	74	21074
2026-01-28 00:48:43.01	24.97	3.28	-51.9	-66.7	3.8	1.49e+00	0	41	104	0	74	21008
2026-01-28 00:48:44.02	24.97	3.35	-51.9	-66.7	3.8	1.49e+00	0	42	104	0	74	20931
2026-01-28 00:48:45.03	24.97	3.41	-51.9	-66.6	3.8	1.49e+00	0	42	104	0	74	20764
2026-01-28 00:48:46.04	24.97	3.48	-51.8	-66.5	3.8	1.49e+00	0	42	104	0	74	20333
2026-01-28 00:48:47.04	24.97	3.55	-51.8	-66.3	3.8	1.49e+00	0	42	104	0	74	19879
2026-01-28 00:48:48.04	24.97	3.62	-51.8	-65.9	3.8	1.49e+00	0	42	104	0	74	19128
2026-01-28 00:48:49.05	24.97	3.69	-51.8	-65.6	3.8	1.49e+00	0	42	104	0	74	18470
2026-01-28 00:48:50.06	24.97	3.75	-51.8	-65.3	3.8	1.49e+00	0	42	104	0	74	17731
2026-01-28 00:48:51.07	24.97	3.82	-51.8	-64.7	3.8	1.49e+00	0	42	104	0	74	16580
2026-01-28 00:48:52.07	24.97	3.89	-51.7	-64.0	4.0	1.48e+00	0	42	104	0	74	15310
2026-01-28 00:48:53.08	24.97	3.96	-51.6	-63.2	4.2	1.45e+00	0	42	0	0	73	14811
2026-01-28 00:48:54.09	24.97	4.03	-51.5	-61.8	4.7	1.27e+00	0	42	0	1048576	73	12632
2026-01-28 00:48:55.09	24.97	4.10	-51.4	-60.7	5.3	6.84e-01	0	42	0	2097152	73	11130
2026-01-28 00:48:56.10	24.97	4.17	-51.2	-59.3	6.3	3.86e-01	0	42	0	4194304	73	9481
2026-01-28 00:48:57.10	24.97	4.24	-51.1	-58.5	7.0	2.27e-01	0	42	0	6291456	73	8617
2026-01-28 00:48:58.11	24.97	4.31	-50.8	-57.5	8.0	1.13e-01	0	42	0	8388608	73	7635
2026-01-28 00:48:59.12	24.97	4.38	-50.7	-57.1	8.4	5.09e-02	0	42	0	10485760	72	7751
2026-01-28 00:49:00.12	24.97	4.45	-50.5	-56.3	9.2	2.35e-02	0	42	0	11534336	72	7046
2026-01-28 00:49:01.14	24.97	4.52	-50.4	-55.8	9.7	1.67e-02	0	42	0	13631488	72	6664
2026-01-28 00:49:02.14	24.97	4.59	-50.3	-55.6	10.0	9.63e-03	0	42	0	15728640	71	6937
2026-01-28 00:49:03.15	24.97	4.66	-50.1	-55.0	10.6	5.47e-03	0	42	0	17825792	71	6466
2026-01-28 00:49:04.16	24.97	4.73	-50.1	-55.0	10.7	4.05e-03	0	42	0	19922944	70	6843
2026-01-28 00:49:05.17	24.97	4.80	-50.2	-55.1	10.6	2.88e-03	0	42	0	20971520	70	6905
2026-01-28 00:49:06.18	24.97	4.87	-50.3	-55.6	10.0	7.15e-03	0	42	0	23068672	71	6923
2026-01-28 00:49:07.18	24.97	4.94	-50.5	-56.3	9.3	8.90e-03	0	42	0	25165824	71	7507
2026-01-28 00:49:08.19	24.97	5.01	-50.7	-56.9	8.8	2.33e-02	0	42	0	27262976	71	7994
2026-01-28 00:49:09.19	24.97	5.09	-51.6	-62.1	4.5	1.13e+00	94	42	0	28311552	73	13099
2026-01-28 00:49:10.20	24.97	5.16	-49.0	-52.5	13.4	1.15e-03	0	42	0	30408704	68	5749
2026-01-28 00:49:11.21	24.97	5.23	-51.8	-64.4	3.8	4.09e-01	0	42	104	31457280	74	16078
2026-01-28 00:49:12.22	24.97	5.30	-48.9	-52.1	13.6	3.89e-05	0	42	0	32505856	69	5207
2026-01-28 00:49:13.23	24.97	5.38	-51.5	-62.1	4.5	3.94e-01	8	42	0	33554432	73	13014
2026-01-28 00:49:14.23	24.97	5.45	-48.5	-51.3	14.6	3.69e-03	0	42	0	35651584	68	5017
2026-01-28 00:49:15.24	24.97	5.52	-48.4	-51.3	14.6	0.00e+00	0	42	0	37748736	68	5017
2026-01-28 00:49:16.25	24.97	5.59	-48.4	-51.3	14.6	7.00e-07	0	42	0	38797312	67	5283
2026-01-28 00:49:17.25	24.97	5.67	-48.5	-51.4	14.4	0.00e+00	0	42	0	40894464	67	5389
2026-01-28 00:49:18.26	24.97	5.74	-48.3	-51.2	14.7	7.00e-07	0	42	0	42991616	67	5229
2026-01-28 00:49:19.27	24.97	5.81	-48.3	-51.2	14.7	0.00e+00	0	42	0	45088768	67	5247
2026-01-28 00:49:20.28	24.97	5.89	-48.3	-51.1	14.8	0.00e+00	0	42	0	47185920	67	5184
2026-01-28 00:49:21.29	24.97	5.96	-48.3	-51.2	14.8	7.00e-07	0	42	0	49283072	67	5235
2026-01-28 00:49:22.30	24.97	6.04	-48.4	-51.2	14.7	0.00e+00	0	42	0	50331648	67	5274
2026-01-28 00:49:23.31	24.97	6.11	-48.2	-50.9	15.0	0.00e+00	0	42	0	52428800	67	5073
2026-01-28 00:49:24.31	24.97	6.19	-48.3	-51.0	14.9	0.00e+00	0	42	0	54525952	67	5150
2026-01-28 00:49:25.32	24.96	6.26	-48.3	-51.1	14.8	0.00e+00	0	42	0	56623104	67	5214
2026-01-28 00:49:26.33	24.96	6.34	-48.3	-51.1	15.0	0.00e+00	0	42	0	58720256	67	5161
2026-01-28 00:49:27.34	24.96	6.41	-48.1	-50.7	15.3	0.00e+00	0	42	0	59768832	66	5253
2026-01-28 00:49:28.35	24.96	6.49	-48.2	-50.9	15.1	0.00e+00	0	42	0	61865984	67	5054
2026-01-28 00:49:29.35	24.96	6.57	-48.3	-51.0	15.0	7.00e-07	0	42	0	63963136	67	5117
2026-01-28 00:49:30.36	24.96	6.64	-48.1	-50.7	15.4	0.00e+00	0	42	0	66060288	66	5222
2026-01-28 00:49:31.37	24.96	6.72	-48.1	-50.7	15.3	0.00e+00	0	43	0	68157440	66	5257
2026-01-28 00:49:32.38	24.96	6.80	-48.2	-50.8	15.2	0.00e+00	0	42	0	69206016	66	5294
2026-01-28 00:49:33.39	24.96	6.87	-48.2	-50.8	15.3	0.00e+00	0	42	0	71303168	66	5289
2026-01-28 00:49:34.39	24.96	6.95	-48.1	-50.6	15.5	0.00e+00	0	42	0	73400320	66	5190
2026-01-28 00:49:35.40	24.96	7.03	-48.1	-50.7	15.4	0.00e+00	0	42	0	75497472	66	5259
2026-01-28 00:49:36.41	24.96	7.10	-48.1	-50.7	15.4	0.00e+00	0	42	0	77594624	66	5259
2026-01-28 00:49:37.42	24.96	7.18	-48.1	-50.7	15.4	0.00e+00	0	42	0	78643200	66	5224
2026-01-28 00:49:38.43	24.95	7.26	-48.1	-50.6	15.5	0.00e+00	0	42	0	80740352	66	5218
2026-01-28 00:49:39.44	24.95	7.34	-48.0	-50.6	15.5	0.00e+00	0	42	0	82837504	66	5164
2026-01-28 00:49:40.45	24.95	7.42	-48.1	-50.6	15.5	0.00e+00	0	42	0	84934656	66	5213
2026-01-28 00:49:41.46	24.95	7.50	-48.0	-50.5	15.6	0.00e+00	0	43	0	87031808	66	5113
2026-01-28 00:49:42.47	24.95	7.58	-48.0	-50.5	15.6	0.00e+00	0	42	0	88080384	66	5118
2026-01-28 00:49:43.47	24.95	7.65	-48.0	-50.5	15.6	0.00e+00	0	42	0	90177536	66	5159
2026-01-28 00:49:44.48	24.95	7.73	-47.9	-50.4	15.8	0.00e+00	0	42	0	92274688	66	5052
2026-01-28 00:49:45.49	24.95	7.81	-47.9	-50.4	15.8	0.00e+00	0	43	0	94371840	66	5070
2026-01-28 00:49:46.50	24.95	7.89	-48.0	-50.4	15.8	0.00e+00	0	42	0	96468992	66	5078
2026-01-28 00:49:47.51	24.95	7.97	-45.7	-50.4	15.7	0.00e+00	0	43	0	97517568	66	5088
2026-01-28 00:49:48.51	24.94	8.05	-48.0	-50.4	15.8	0.00e+00	0	43	0	99614720	66	5088
2026-01-28 00:49:49.52	24.94	8.14	-47.9	-50.4	15.8	0.00e+00	0	42	0	101711872	66	5065
2026-01-28 00:49:50.53	24.94	8.22	-47.9	-50.4	15.8	0.00e+00	0	43	0	103809024	66	5063
2026-01-28 00:49:51.53	24.94	8.30	-47.9	-50.3	15.8	0.00e+00	0	43	0	105906176	66	5019
2026-01-28 00:49:52.54	24.94	8.38	-47.9	-50.3	15.9	0.00e+00	0	43	0	106954752	66	4999
2026-01-28 00:49:53.55	24.94	8.46	-47.9	-50.3	15.9	0.00e+00	0	43	0	109051904	66	5005
2026-01-28 00:49:54.56	24.94	8.54	-47.9	-50.2	16.0	0.00e+00	0	43	0	111149056	66	4974
2026-01-28 00:49:55.56	24.93	8.63	-47.8	-50.2	16.0	0.00e+00	0	42	0	113246208	66	4952
2026-01-28 00:49:56.57	24.93	8.71	-47.8	-50.2	16.1	0.00e+00	0	42	0	115343360	66	4927
2026-01-28 00:49:57.58	24.93	8.79	-47.9	-50.2	16.0	0.00e+00	0	43	0	116391936	66	4979
2026-01-28 00:49:58.58	24.93	8.87	-47.8	-50.1	16.1	0.00e+00	0	43	0	118489088	66	4908
2026-01-28 00:49:59.59	24.93	8.96	-47.7	-50.0	16.3	0.00e+00	0	43	0	120586240	66	4834
2026-01-28 00:50:00.60	24.93	9.04	-47.7	-50.0	16.2	0.00e+00	0	43	0	122683392	66	4850
2026-01-28 00:50:01.61	24.93	9.13	-47.6	-49.9	16.3	0.00e+00	0	43	0	124780544	66	4795
2026-01-28 00:50:02.62	24.92	9.21	-47.8	-50.1	16.2	0.00e+00	0	43	0	125829120	66	4893
2026-01-28 00:50:03.62	24.92	9.29	-47.7	-50.0	16.2	0.00e+00	0	43	0	127926272	66	4849
2026-01-28 00:50:04.63	24.92	9.38	-47.8	-50.1	16.2	0.00e+00	0	42	0	130023424	66	4871
2026-01-28 00:50:05.64	24.92	9.46	-47.6	-49.8	16.4	0.00e+00	0	43	0	132120576	66	4758
2026-01-28 00:50:06.65	24.92	9.55	-47.6	-49.8	16.5	0.00e+00	0	43	0	134217728	66	4716
2026-01-28 00:50:07.65	24.91	9.64	-47.6	-49.8	16.5	0.00e+00	0	43	0	135266304	66	4754
2026-01-28 00:50:08.66	24.91	9.72	-47.6	-49.8	16.5	0.00e+00	0	43	0	137363456	65	4998
2026-01-28 00:50:09.67	24.91	9.81	-47.6	-49.8	16.5	0.00e+00	0	43	0	139460608	65	5008
2026-01-28 00:50:10.68	24.91	9.90	-47.5	-49.8	16.5	0.00e+00	0	43	0	141557760	65	4999
2026-01-28 00:50:11.68	24.91	9.98	-47.5	-49.7	16.5	0.00e+00	0	43	0	143654912	65	4981
2026-01-28 00:50:12.69	24.90	10.07	-47.5	-49.7	16.6	0.00e+00	0	43	0	144703488	65	4956
2026-01-28 00:50:13.70	24.90	10.16	-47.4	-49.6	16.6	0.00e+00	0	43	0	146800640	65	4902
2026-01-28 00:50:14.71	24.90	10.24	-47.4	-49.5	16.8	0.00e+00	0	43	0	148897792	65	4850
2026-01-28 00:50:15.71	24.90	10.33	-47.5	-49.6	16.7	0.00e+00	0	43	0	150994944	65	4902
2026-01-28 00:50:16.72	24.90	10.42	-47.5	-49.7	16.6	0.00e+00	0	43	0	153092096	65	4950
2026-01-28 00:50:17.73	24.89	10.51	-47.6	-49.8	16.5	0.00e+00	0	42	0	154140672	65	5027
2026-01-28 00:50:18.73	24.89	10.60	-47.4	-49.6	16.7	0.00e+00	0	43	0	156237824	65	4874
2026-01-28 00:50:19.74	24.89	10.69	-47.5	-49.7	16.6	0.00e+00	0	43	0	158334976	65	4958
2026-01-28 00:50:20.75	24.89	10.78	-47.5	-49.6	16.7	0.00e+00	0	43	0	160432128	65	4897
2026-01-28 00:50:21.75	24.88	10.87	-47.5	-49.6	16.7	0.00e+00	0	43	0	162529280	65	4900
2026-01-28 00:50:22.76	24.88	10.96	-47.3	-49.3	17.0	0.00e+00	0	42	0	163577856	65	4749
2026-01-28 00:50:23.77	24.88	11.05	-47.3	-49.3	17.0	0.00e+00	0	43	0	165675008	65	4735
2026-01-28 00:50:24.77	24.88	11.14	-47.3	-49.4	17.0	0.00e+00	0	43	0	167772160	65	4765
2026-01-28 00:50:25.78	24.87	11.23	-47.2	-49.3	17.1	0.00e+00	0	43	0	169869312	65	4716
2026-01-28 00:50:26.79	24.87	11.32	-47.2	-49.3	17.1	0.00e+00	0	43	0	171966464	65	4716
2026-01-28 00:50:27.80	24.87	11.42	-47.3	-49.3	17.1	0.00e+00	0	43	0	173015040	65	4734
2026-01-28 00:50:28.81	24.87	11.51	-47.1	-49.1	17.3	0.00e+00	0	43	0	175112192	65	4628
2026-01-28 00:50:29.81	24.86	11.60	-47.1	-49.1	17.3	0.00e+00	0	43	0	177209344	65	4640
2026-01-28 00:50:30.82	24.86	11.69	-47.2	-49.2	17.2	0.00e+00	0	43	0	179306496	65	4677
2026-01-28 00:50:31.82	24.86	11.79	-47.2	-49.1	17.3	0.00e+00	0	43	0	181403648	65	4650
2026-01-28 00:50:32.83	24.85	11.88	-47.1	-49.1	17.3	0.00e+00	0	43	0	182452224	65	4635
2026-01-28 00:50:33.84	24.85	11.98	-47.2	-49.2	17.2	0.00e+00	0	43	0	184549376	65	4701
2026-01-28 00:50:34.85	24.85	12.07	-47.1	-49.1	17.4	0.00e+00	0	43	0	186646528	65	4603
2026-01-28 00:50:35.85	24.85	12.17	-47.0	-49.0	17.5	0.00e+00	0	43	0	188743680	65	4546
2026-01-28 00:50:36.86	24.84	12.26	-47.0	-48.9	17.5	0.00e+00	0	43	0	190840832	64	4802
2026-01-28 00:50:37.87	24.84	12.36	-47.1	-49.0	17.4	0.00e+00	0	43	0	192937984	64	4850
2026-01-28 00:50:38.88	24.84	12.45	-47.0	-48.9	17.5	0.00e+00	0	43	0	193986560	64	4806
2026-01-28 00:50:39.88	24.83	12.55	-47.0	-48.9	17.6	0.00e+00	0	43	0	196083712	64	4788
2026-01-28 00:50:40.89	24.83	12.65	-47.0	-48.9	17.6	0.00e+00	0	43	0	198180864	64	4769
2026-01-28 00:50:41.90	24.83	12.74	-47.0	-48.9	17.6	0.00e+00	0	43	0	200278016	64	4765
2026-01-28 00:50:42.91	24.82	12.84	-46.9	-48.8	17.7	0.00e+00	0	43	0	201326592	64	4710
2026-01-28 00:50:43.92	24.82	12.94	-46.9	-48.7	17.7	0.00e+00	0	43	0	203423744	64	4700
2026-01-28 00:50:44.93	24.82	13.04	-46.8	-48.6	17.9	0.00e+00	0	43	0	205520896	64	4632
2026-01-28 00:50:45.93	24.81	13.14	-46.8	-48.7	17.8	0.00e+00	0	43	0	207618048	64	4667
2026-01-28 00:50:46.94	24.81	13.24	-46.9	-48.7	17.8	0.00e+00	0	43	0	209715200	64	4701
2026-01-28 00:50:47.94	24.81	13.34	-46.8	-48.6	18.0	0.00e+00	0	43	0	210763776	64	4620
2026-01-28 00:50:48.95	24.80	13.44	-46.9	-48.7	17.8	0.00e+00	0	43	0	212860928	64	4678
2026-01-28 00:50:49.96	24.80	13.54	-46.8	-48.7	17.8	0.00e+00	0	43	0	214958080	64	4660
2026-01-28 00:50:50.97	24.79	13.64	-46.8	-48.6	17.9	0.00e+00	0	43	0	217055232	64	4638
2026-01-28 00:50:51.97	24.79	13.74	-46.7	-48.5	18.1	0.00e+00	0	43	0	219152384	64	4554
2026-01-28 00:50:52.98	24.79	13.84	-46.7	-48.5	18.1	0.00e+00	0	43	0	221249536	64	4549
2026-01-28 00:50:53.99	24.78	13.94	-46.7	-48.5	18.1	0.00e+00	0	43	0	222298112	64	4558
2026-01-28 00:50:54.99	24.78	14.04	-46.8	-48.6	18.0	0.00e+00	0	43	0	224395264	64	4604
2026-01-28 00:50:56.00	24.77	14.15	-46.6	-48.3	18.2	0.00e+00	0	43	0	226492416	64	4488
2026-01-28 00:50:57.01	24.77	14.25	-46.5	-48.3	18.3	0.00e+00	0	43	0	228589568	64	4454
2026-01-28 00:50:58.01	24.77	14.35	-46.6	-48.3	18.2	0.00e+00	0	43	0	229638144	64	4489
2026-01-28 00:50:59.02	24.76	14.46	-46.6	-48.3	18.3	0.00e+00	0	43	0	231735296	64	4463
2026-01-28 00:51:00.03	24.76	14.56	-46.6	-48.2	18.4	0.00e+00	0	43	0	233832448	63	4703
2026-01-28 00:51:01.03	24.75	14.67	-46.5	-48.2	18.5	0.00e+00	0	43	0	235929600	63	4681
2026-01-28 00:51:02.04	24.75	14.78	-46.6	-48.2	18.5	0.00e+00	0	43	0	238026752	63	4697
2026-01-28 00:51:03.04	24.74	14.88	-46.5	-48.2	18.5	0.00e+00	0	43	0	239075328	63	4664
2026-01-28 00:51:04.05	24.74	14.99	-46.5	-48.2	18.5	0.00e+00	0	43	0	241172480	63	4683
2026-01-28 00:51:05.05	24.74	15.09	-46.5	-48.2	18.6	0.00e+00	0	43	0	243269632	63	4658
2026-01-28 00:51:06.06	24.73	15.20	-46.4	-48.1	18.6	0.00e+00	0	43	0	245366784	63	4615
2026-01-28 00:51:07.07	24.73	15.31	-46.5	-48.1	18.6	0.00e+00	0	43	0	247463936	63	4629
2026-01-28 00:51:08.08	24.72	15.42	-46.5	-48.1	18.6	0.00e+00	0	43	0	249561088	63	4647
2026-01-28 00:51:09.08	24.72	15.53	-46.4	-48.1	18.7	0.00e+00	0	43	0	250609664	63	4613
2026-01-28 00:51:10.09	24.71	15.64	-46.3	-47.8	18.9	0.00e+00	0	43	0	252706816	63	4484
2026-01-28 00:51:11.09	24.71	15.75	-46.3	-47.8	18.9	0.00e+00	0	43	0	254803968	63	4492
2026-01-28 00:51:12.10	24.70	15.86	-46.3	-47.9	18.8	0.00e+00	0	43	0	256901120	63	4525
2026-01-28 00:51:13.11	24.70	15.97	-46.3	-47.9	18.8	0.00e+00	0	43	0	257949696	63	4513
2026-01-28 00:51:14.12	24.69	16.08	-46.3	-47.8	18.9	0.00e+00	0	43	0	260046848	63	4490
2026-01-28 00:51:15.13	24.68	16.19	-46.2	-47.7	19.0	0.00e+00	0	43	0	262144000	63	4425
2026-01-28 00:51:16.14	24.68	16.31	-46.1	-47.6	19.1	0.00e+00	0	43	0	264241152	63	4374
2026-01-28 00:51:17.14	24.67	16.42	-46.0	-47.6	19.2	0.00e+00	0	43	0	266338304	63	4343
2026-01-28 00:51:18.15	24.67	16.53	-46.0	-47.5	19.2	0.00e+00	0	43	0	267386880	62	4577
2026-01-28 00:51:19.16	24.66	16.65	-46.0	-47.5	19.3	0.00e+00	0	43	0	269484032	62	4553
2026-01-28 00:51:20.17	24.66	16.76	-45.9	-47.4	19.4	0.00e+00	0	43	0	271581184	62	4504
2026-01-28 00:51:21.17	24.65	16.88	-45.9	-47.4	19.4	0.00e+00	0	43	0	273678336	62	4528
2026-01-28 00:51:22.18	24.65	16.99	-45.9	-47.4	19.4	0.00e+00	0	43	0	275775488	62	4530
2026-01-28 00:51:23.19	24.64	17.11	-45.9	-47.4	19.4	0.00e+00	0	43	0	277872640	62	4537
2026-01-28 00:51:24.20	24.63	17.23	-45.8	-47.2	19.5	0.00e+00	0	43	0	278921216	62	4436
2026-01-28 00:51:25.21	24.63	17.34	-45.7	-47.2	19.6	0.00e+00	0	43	0	281018368	62	4394
2026-01-28 00:51:26.21	24.62	17.46	-45.7	-47.1	19.6	0.00e+00	0	43	0	283115520	62	4388
2026-01-28 00:51:27.22	24.62	17.58	-45.7	-47.1	19.7	0.00e+00	0	43	0	285212672	62	4379
2026-01-28 00:51:28.23	24.61	17.70	-45.7	-47.2	19.6	0.00e+00	0	43	0	287309824	62	4400
2026-01-28 00:51:29.24	24.60	17.82	-45.8	-47.2	19.6	0.00e+00	0	43	0	288358400	62	4432
2026-01-28 00:51:30.24	24.60	17.94	-45.7	-47.1	19.7	0.00e+00	0	43	0	290455552	62	4374
2026-01-28 00:51:31.25	24.59	18.06	-45.6	-47.0	19.7	0.00e+00	0	43	0	292552704	62	4339
2026-01-28 00:51:32.26	24.58	18.18	-45.5	-46.9	19.9	0.00e+00	0	43	0	294649856	61	4528
2026-01-28 00:51:33.27	24.58	18.30	-45.5	-46.9	19.9	0.00e+00	0	43	0	296747008	61	4502
2026-01-28 00:51:34.28	24.57	18.43	-45.6	-46.9	19.8	0.00e+00	0	43	0	297795584	61	4544
2026-01-28 00:51:35.29	24.56	18.55	-45.6	-47.0	19.8	0.00e+00	0	43	0	299892736	61	4573
2026-01-28 00:51:36.29	24.56	18.67	-45.6	-47.0	19.9	0.00e+00	0	43	0	301989888	61	4555
2026-01-28 00:51:37.30	24.55	18.80	-45.4	-46.8	20.1	0.00e+00	0	43	0	304087040	61	4460
2026-01-28 00:51:38.30	24.54	18.92	-45.5	-46.9	19.9	0.00e+00	0	43	0	306184192	61	4510
2026-01-28 00:51:39.31	24.53	19.05	-45.5	-46.9	19.9	0.00e+00	0	43	0	307232768	61	4531
2026-01-28 00:51:40.32	24.53	19.18	-45.5	-46.9	20.0	0.00e+00	0	43	0	309329920	61	4530
2026-01-28 00:51:41.33	24.52	19.30	-45.5	-46.9	20.0	0.00e+00	0	43	0	311427072	61	4520
2026-01-28 00:51:42.34	24.51	19.43	-45.6	-46.9	19.9	0.00e+00	0	43	0	313524224	61	4538
2026-01-28 00:51:43.35	24.50	19.56	-45.5	-46.9	20.0	0.00e+00	0	43	0	315621376	61	4501
2026-01-28 00:51:44.36	24.50	19.69	-45.4	-46.8	20.1	0.00e+00	0	43	0	316669952	61	4465
2026-01-28 00:51:45.37	24.49	19.82	-45.4	-46.8	20.1	0.00e+00	0	43	0	318767104	61	4442
2026-01-28 00:51:46.37	24.48	19.95	-45.4	-46.7	20.2	0.00e+00	0	43	0	320864256	61	4431
2026-01-28 00:51:47.38	24.47	20.08	-45.5	-46.9	20.0	0.00e+00	0	43	0	322961408	61	4513
2026-01-28 00:51:48.39	24.46	20.21	-45.4	-46.8	20.1	0.00e+00	0	43	0	325058560	61	4453
2026-01-28 00:51:49.40	24.46	20.35	-45.4	-46.7	20.2	0.00e+00	0	43	0	326107136	61	4429
2026-01-28 00:51:50.40	24.45	20.48	-45.4	-46.8	20.1	0.00e+00	0	43	0	328204288	61	4451
2026-01-28 00:51:51.41	24.44	20.61	-45.3	-46.7	20.2	0.00e+00	0	43	0	330301440	61	4416
2026-01-28 00:51:52.42	24.43	20.75	-45.4	-46.8	20.1	0.00e+00	0	43	0	332398592	61	4449
2026-01-28 00:51:53.43	24.42	20.88	-45.4	-46.8	20.1	0.00e+00	0	43	0	334495744	61	4443
2026-01-28 00:51:54.43	24.41	21.02	-45.4	-46.7	20.2	0.00e+00	0	43	0	335544320	61	4431
2026-01-28 00:51:55.44	24.40	21.16	-45.4	-46.8	20.2	0.00e+00	0	43	0	337641472	61	4467
2026-01-28 00:51:56.45	24.39	21.29	-45.3	-46.6	20.3	0.00e+00	0	43	0	339738624	61	4382
2026-01-28 00:51:57.46	24.39	21.43	-45.3	-46.7	20.2	0.00e+00	0	43	0	341835776	61	4408
2026-01-28 00:51:58.46	24.38	21.57	-45.5	-46.8	20.1	0.00e+00	0	43	0	343932928	61	4471
2026-01-28 00:51:59.47	24.37	21.71	-45.5	-46.9	20.1	0.00e+00	0	43	0	344981504	61	4512
2026-01-28 00:52:00.48	24.36	21.85	-45.4	-46.7	20.3	0.00e+00	0	43	0	347078656	61	4406
2026-01-28 00:52:01.49	24.35	21.99	-45.3	-46.6	20.3	0.00e+00	0	43	0	349175808	61	4385
2026-01-28 00:52:02.50	24.34	22.14	-45.3	-46.6	20.4	0.00e+00	0	43	0	351272960	61	4344
2026-01-28 00:52:03.51	24.33	22.28	-45.3	-46.7	20.3	0.00e+00	0	43	0	353370112	61	4397
2026-01-28 00:52:04.51	24.32	22.42	-45.1	-46.4	20.5	0.00e+00	0	43	0	354418688	61	4279
2026-01-28 00:52:05.52	24.31	22.57	-45.3	-46.6	20.4	0.00e+00	0	43	0	356515840	61	4369
2026-01-28 00:52:06.53	24.30	22.71	-45.3	-46.6	20.4	0.00e+00	0	43	0	358612992	61	4359
2026-01-28 00:52:07.54	24.29	22.86	-45.2	-46.5	20.4	0.00e+00	0	43	0	360710144	61	4323
2026-01-28 00:52:08.54	24.28	23.01	-45.3	-46.6	20.4	0.00e+00	0	43	0	362807296	61	4363
2026-01-28 00:52:09.55	24.26	23.16	-45.2	-46.5	20.4	0.00e+00	0	43	0	363855872	61	4339
2026-01-28 00:52:10.56	24.25	23.31	-45.2	-46.5	20.5	0.00e+00	0	43	0	365953024	61	4297
2026-01-28 00:52:11.57	24.24	23.46	-45.2	-46.5	20.5	0.00e+00	0	43	0	368050176	61	4308
2026-01-28 00:52:12.58	24.23	23.61	-45.2	-46.4	20.5	0.00e+00	0	43	0	370147328	61	4290
2026-01-28 00:52:13.59	24.22	23.76	-45.2	-46.5	20.5	0.00e+00	0	43	0	372244480	61	4339
2026-01-28 00:52:14.59	24.21	23.91	-45.4	-46.7	20.4	0.00e+00	0	43	0	373293056	61	4418
2026-01-28 00:52:15.60	24.20	24.06	-45.3	-46.7	20.4	0.00e+00	0	43	0	375390208	61	4394
2026-01-28 00:52:16.61	24.19	24.22	-45.4	-46.7	20.4	0.00e+00	0	43	0	377487360	61	4406
2026-01-28 00:52:17.62	24.17	24.37	-45.3	-46.6	20.4	0.00e+00	0	43	0	379584512	61	4380
2026-01-28 00:52:18.63	24.16	24.53	-45.3	-46.6	20.4	0.00e+00	0	43	0	381681664	61	4385
2026-01-28 00:52:19.63	24.15	24.69	-45.4	-46.7	20.2	0.00e+00	0	43	0	382730240	61	4439
2026-01-28 00:52:20.64	24.14	24.84	-45.5	-46.8	20.2	0.00e+00	0	43	0	384827392	61	4465
2026-01-28 00:52:21.65	24.12	25.00	-45.5	-46.8	20.2	0.00e+00	0	43	0	386924544	61	4478
2026-01-28 00:52:22.66	24.11	25.16	-45.5	-46.9	20.2	0.00e+00	0	43	0	389021696	61	4498
2026-01-28 00:52:23.67	24.10	25.33	-45.5	-46.8	20.2	0.00e+00	0	43	0	391118848	61	4483
2026-01-28 00:52:24.67	24.08	25.49	-45.5	-46.8	20.2	0.00e+00	0	43	0	393216000	61	4492
2026-01-28 00:52:25.68	24.07	25.65	-45.6	-46.9	20.1	0.00e+00	0	43	0	394264576	61	4542
2026-01-28 00:52:26.69	24.06	25.81	-45.6	-47.0	20.1	0.00e+00	0	43	0	396361728	61	4580
2026-01-28 00:52:27.69	24.04	25.98	-45.7	-47.0	20.1	0.00e+00	0	43	0	398458880	62	4340
2026-01-28 00:52:28.70	24.03	26.14	-45.8	-47.1	20.0	0.00e+00	0	43	0	400556032	62	4375
2026-01-28 00:52:29.71	24.02	26.31	-45.7	-47.1	20.0	0.00e+00	0	43	0	401604608	62	4370
2026-01-28 00:52:30.72	24.00	26.48	-45.8	-47.2	19.9	0.00e+00	0	43	0	403701760	62	4429
2026-01-28 00:52:31.72	23.99	26.65	-45.9	-47.3	19.9	0.00e+00	0	43	0	405798912	62	4453
2026-01-28 00:52:32.73	23.97	26.82	-45.8	-47.2	19.9	0.00e+00	0	43	0	407896064	62	4434
2026-01-28 00:52:33.74	23.96	26.99	-45.9	-47.4	19.8	0.00e+00	0	43	0	409993216	62	4497
2026-01-28 00:52:34.75	23.94	27.16	-46.0	-47.4	19.8	0.00e+00	0	43	0	411041792	62	4506
2026-01-28 00:52:35.76	23.93	27.33	-46.1	-47.5	19.6	0.00e+00	0	43	0	413138944	62	4592
2026-01-28 00:52:36.77	23.91	27.51	-46.2	-47.6	19.5	0.00e+00	0	43	0	415236096	62	4623
2026-01-28 00:52:37.77	23.90	27.68	-46.3	-47.8	19.4	0.00e+00	0	43	0	417333248	63	4448
2026-01-28 00:52:38.78	23.88	27.86	-46.5	-48.0	19.2	0.00e+00	0	43	0	419430400	63	4572
2026-01-28 00:52:39.79	23.86	28.04	-46.6	-48.2	19.0	0.00e+00	0	43	0	421527552	63	4654
2026-01-28 00:52:40.80	23.85	28.22	-46.7	-48.3	18.8	0.00e+00	0	43	0	422576128	64	4474
2026-01-28 00:52:41.81	23.83	28.40	-46.8	-48.4	18.7	0.00e+00	0	43	0	424673280	64	4534
2026-01-28 00:52:42.81	23.81	28.58	-47.0	-48.6	18.5	0.00e+00	0	43	0	426770432	64	4643
2026-01-28 00:52:43.82	23.80	28.76	-47.2	-48.9	18.2	0.00e+00	0	43	0	428867584	64	4802
2026-01-28 00:52:44.83	23.78	28.95	-47.4	-49.2	17.9	0.00e+00	0	43	0	429916160	65	4694
2026-01-28 00:52:45.83	23.76	29.13	-47.5	-49.4	17.7	0.00e+00	0	43	0	432013312	65	4786
2026-01-28 00:52:46.84	23.74	29.32	-47.8	-49.8	17.3	0.00e+00	0	43	0	434110464	66	4741
2026-01-28 00:52:47.85	23.73	29.50	-47.9	-49.9	17.2	0.00e+00	0	43	0	436207616	66	4813
2026-01-28 00:52:48.86	23.71	29.69	-48.1	-50.1	17.1	0.00e+00	0	43	0	438304768	66	4926
2026-01-28 00:52:49.87	23.69	29.88	-48.3	-50.5	16.7	0.00e+00	0	43	0	440401920	67	4826
2026-01-28 00:52:50.88	23.67	30.07	-48.4	-50.6	16.5	0.00e+00	0	43	0	441450496	67	4922
2026-01-28 00:52:51.89	23.65	30.27	-48.5	-50.8	16.4	0.00e+00	0	43	0	443547648	67	5004
2026-01-28 00:52:52.89	23.63	30.46	-48.5	-50.9	16.3	0.00e+00	0	43	0	445644800	67	5066
2026-01-28 00:52:53.90	23.61	30.66	-48.6	-50.9	16.3	0.00e+00	0	43	0	447741952	67	5072
2026-01-28 00:52:54.91	23.59	30.85	-48.6	-50.9	16.4	0.00e+00	0	43	0	449839104	67	5046
2026-01-28 00:52:55.91	23.57	31.05	-48.6	-50.8	16.4	0.00e+00	0	43	0	450887680	67	5019
2026-01-28 00:52:56.92	23.55	31.25	-48.5	-50.7	16.5	0.00e+00	0	43	0	452984832	67	4967
2026-01-28 00:52:57.93	23.53	31.45	-48.5	-50.8	16.4	0.00e+00	0	43	0	455081984	67	5005
2026-01-28 00:52:58.94	23.51	31.65	-48.6	-50.8	16.4	0.00e+00	0	43	0	457179136	67	5039
2026-01-28 00:52:59.94	23.49	31.85	-48.4	-50.6	16.6	0.00e+00	0	43	0	458227712	67	4917
2026-01-28 00:53:00.95	23.47	32.06	-48.4	-50.6	16.6	0.00e+00	0	43	0	460324864	67	4907
2026-01-28 00:53:01.96	23.44	32.26	-48.3	-50.5	16.7	0.00e+00	0	43	0	462422016	67	4839
2026-01-28 00:53:02.97	23.42	32.47	-48.2	-50.3	16.9	0.00e+00	0	43	0	464519168	67	4746
2026-01-28 00:53:03.97	23.40	32.68	-48.3	-50.4	16.9	0.00e+00	0	43	0	466616320	67	4762
2026-01-28 00:53:04.98	23.38	32.89	-48.3	-50.3	16.9	0.00e+00	0	43	0	468713472	67	4750
2026-01-28 00:53:05.99	23.35	33.10	-48.1	-50.1	17.1	0.00e+00	0	43	0	469762048	67	4620
2026-01-28 00:53:07.00	23.33	33.31	-47.8	-49.7	17.6	0.00e+00	0	43	0	471859200	67	4401
2026-01-28 00:53:08.00	23.30	33.53	-47.5	-49.3	17.9	0.00e+00	0	43	0	473956352	66	4459
2026-01-28 00:53:09.01	23.28	33.74	-47.3	-49.0	18.2	0.00e+00	0	43	0	476053504	66	4325
2026-01-28 00:53:10.02	23.25	33.96	-47.3	-49.0	18.3	0.00e+00	0	43	0	478150656	66	4329
2026-01-28 00:53:11.03	23.23	34.18	-47.2	-48.9	18.4	0.00e+00	0	43	0	479199232	65	4504
2026-01-28 00:53:12.03	23.20	34.40	-46.8	-48.3	18.9	0.00e+00	0	43	0	481296384	65	4242
2026-01-28 00:53:13.04	23.18	34.62	-46.4	-48.0	19.3	0.00e+00	0	43	0	483393536	64	4294
2026-01-28 00:53:14.05	23.15	34.85	-46.3	-47.8	19.5	0.00e+00	0	43	0	485490688	63	4471
2026-01-28 00:53:15.05	23.12	35.07	-46.1	-47.5	19.8	0.00e+00	0	43	0	486539264	63	4311
2026-01-28 00:53:16.06	23.10	35.30	-46.0	-47.4	19.9	0.00e+00	0	43	0	488636416	63	4249
2026-01-28 00:53:17.07	23.07	35.53	-45.6	-47.0	20.3	0.00e+00	0	43	0	490733568	63	4055
2026-01-28 00:53:18.08	23.04	35.76	-45.6	-46.9	20.4	0.00e+00	0	43	0	492830720	63	4032
2026-01-28 00:53:19.09	23.01	35.99	-45.3	-46.6	20.7	0.00e+00	0	43	0	494927872	62	4119
2026-01-28 00:53:20.09	22.98	36.23	-44.9	-46.1	21.1	0.00e+00	0	43	0	497025024	61	4123
2026-01-28 00:53:21.10	22.95	36.46	-44.7	-45.8	21.4	0.00e+00	0	43	0	498073600	61	3995
2026-01-28 00:53:22.11	22.92	36.70	-44.6	-45.8	21.5	0.00e+00	0	43	0	500170752	61	3960
2026-01-28 00:53:23.12	22.89	36.94	-44.4	-45.5	21.7	0.00e+00	0	43	0	502267904	60	4058
2026-01-28 00:53:24.13	22.86	37.18	-44.2	-45.3	21.9	0.00e+00	0	43	0	504365056	60	3990
2026-01-28 00:53:25.14	22.83	37.42	-44.2	-45.3	21.9	0.00e+00	0	43	0	506462208	60	3994
2026-01-28 00:53:26.15	22.79	37.67	-44.1	-45.2	22.0	0.00e+00	0	43	0	507510784	60	3945
2026-01-28 00:53:27.16	22.76	37.92	-44.2	-45.4	21.8	0.00e+00	0	43	0	509607936	60	4005
2026-01-28 00:53:28.16	22.73	38.16	-44.5	-45.7	21.9	0.00e+00	0	43	0	511705088	59	4394
2026-01-28 00:53:29.17	22.69	38.41	-44.6	-45.7	21.8	0.00e+00	0	43	0	513802240	59	4425
2026-01-28 00:53:30.18	22.66	38.66	-44.4	-45.5	21.8	0.00e+00	0	43	0	515899392	60	4069
2026-01-28 00:53:31.19	22.62	38.92	-44.4	-45.6	21.7	0.00e+00	0	43	0	516947968	60	4111
2026-01-28 00:53:32.20	22.59	39.17	-44.5	-45.6	21.6	0.00e+00	0	43	0	519045120	60	4134
2026-01-28 00:53:33.21	22.55	39.43	-44.7	-45.8	21.5	0.00e+00	0	43	0	521142272	60	4225
2026-01-28 00:53:34.22	22.51	39.69	-44.9	-46.1	21.3	0.00e+00	0	43	0	523239424	60	4349
2026-01-28 00:53:35.22	22.48	39.95	-44.8	-46.0	21.2	0.00e+00	0	43	0	525336576	60	4329
2026-01-28 00:53:36.23	22.44	40.21	-44.9	-46.1	21.3	0.00e+00	0	43	0	526385152	60	4356
2026-01-28 00:53:37.24	22.40	40.48	-45.1	-46.3	21.1	0.00e+00	0	43	0	528482304	60	4461
2026-01-28 00:53:38.24	22.36	40.74	-45.1	-46.3	21.1	0.00e+00	0	43	0	530579456	61	4202
2026-01-28 00:53:39.25	22.32	41.01	-45.2	-46.4	20.9	0.00e+00	0	43	0	532676608	61	4259
2026-01-28 00:53:40.25	22.28	41.28	-45.2	-46.4	20.9	0.00e+00	0	43	0	534773760	61	4285
2026-01-28 00:53:41.26	22.23	41.56	-45.3	-46.6	20.8	0.00e+00	0	43	0	535822336	61	4347
2026-01-28 00:53:42.26	22.19	41.83	-45.5	-46.8	20.6	0.00e+00	0	43	0	537919488	61	4472
2026-01-28 00:53:43.27	22.15	42.11	-45.5	-46.7	20.7	0.00e+00	0	43	0	540016640	61	4425
2026-01-28 00:53:44.28	22.10	42.39	-45.6	-46.9	20.6	0.00e+00	0	43	0	542113792	61	4530
2026-01-28 00:53:45.29	22.06	42.67	-45.6	-46.9	20.6	0.00e+00	0	43	0	544210944	61	4517
2026-01-28 00:53:46.30	22.01	42.95	-45.7	-47.0	20.5	0.00e+00	0	43	0	545259520	61	4563
2026-01-28 00:53:47.31	21.96	43.24	-45.8	-47.1	20.3	0.00e+00	0	43	0	547356672	62	4361
2026-01-28 00:53:48.31	21.91	43.52	-45.9	-47.2	20.3	0.00e+00	0	43	0	549453824	62	4423
2026-01-28 00:53:49.32	21.87	43.81	-45.9	-47.2	20.2	0.00e+00	0	43	0	551550976	62	4423
2026-01-28 00:53:50.33	21.82	44.11	-45.8	-47.1	20.3	0.00e+00	0	43	0	553648128	62	4385
2026-01-28 00:53:51.33	21.76	44.40	-45.9	-47.3	20.2	0.00e+00	0	43	0	554696704	62	4466
2026-01-28 00:53:52.34	21.71	44.69	-46.1	-47.5	20.0	0.00e+00	0	43	0	556793856	62	4574
2026-01-28 00:53:53.35	21.66	44.99	-46.3	-47.7	19.8	0.00e+00	0	43	0	558891008	63	4439
2026-01-28 00:53:54.36	21.60	45.30	-46.6	-48.2	19.4	0.00e+00	0	43	0	560988160	63	4652
2026-01-28 00:53:55.37	21.55	45.60	-46.9	-48.5	19.0	0.00e+00	0	43	0	563085312	64	4547
2026-01-28 00:53:56.37	21.49	45.90	-46.9	-48.5	18.9	0.00e+00	0	43	0	565182464	64	4568
2026-01-28 00:53:57.38	21.43	46.21	-47.3	-49.0	18.5	0.00e+00	0	43	0	566231040	65	4586
2026-01-28 00:53:58.39	21.38	46.52	-47.3	-48.9	18.5	0.00e+00	0	43	0	568328192	65	4543
2026-01-28 00:53:59.40	21.32	46.83	-47.7	-49.5	18.0	0.00e+00	0	43	0	570425344	65	4850
2026-01-28 00:54:00.41	21.25	47.15	-48.1	-50.0	17.5	0.00e+00	0	43	0	572522496	66	4848
2026-01-28 00:54:01.41	21.19	47.46	-48.4	-50.5	17.0	0.00e+00	0	43	0	573571072	67	4841
2026-01-28 00:54:02.42	21.13	47.78	-48.6	-50.7	16.8	0.00e+00	0	43	0	575668224	67	4954
2026-01-28 00:54:03.42	21.06	48.10	-48.7	-50.9	16.6	0.00e+00	0	43	0	577765376	68	4778
2026-01-28 00:54:04.43	20.99	48.43	-48.6	-50.7	16.9	0.00e+00	0	43	0	579862528	68	4674
2026-01-28 00:54:05.44	20.93	48.75	-48.4	-50.4	17.2	0.00e+00	0	43	0	581959680	68	4543
2026-01-28 00:54:06.44	20.86	49.08	-48.3	-50.2	17.4	0.00e+00	0	43	0	583008256	68	4436
2026-01-28 00:54:07.45	20.78	49.41	-48.0	-49.9	17.8	0.00e+00	0	43	0	585105408	68	4255
2026-01-28 00:54:08.45	20.71	49.74	-47.8	-49.6	18.0	0.00e+00	0	43	0	587202560	66	4616
2026-01-28 00:54:09.46	20.64	50.08	-47.5	-49.3	18.3	0.00e+00	0	43	0	589299712	66	4461
2026-01-28 00:54:10.47	20.56	50.42	-47.1	-48.7	18.8	0.00e+00	0	43	0	591396864	66	4153
2026-01-28 00:54:11.48	20.48	50.76	-46.6	-48.1	19.3	0.00e+00	0	43	0	593494016	65	4141
2026-01-28 00:54:12.48	20.40	51.10	-46.4	-47.9	19.6	0.00e+00	0	43	0	594542592	64	4243
2026-01-28 00:54:13.49	20.32	51.44	-45.6	-46.9	20.6	0.00e+00	0	43	0	596639744	63	4010
2026-01-28 00:54:14.50	20.23	51.79	-44.9	-46.1	21.3	0.00e+00	0	43	0	598736896	61	4122
2026-01-28 00:54:15.51	20.14	52.14	-44.9	-46.0	21.4	0.00e+00	0	43	0	600834048	61	4089
2026-01-28 00:54:16.51	20.06	52.49	-44.4	-45.5	21.9	0.00e+00	0	43	0	601882624	60	4057
2026-01-28 00:54:17.52	19.96	52.85	-44.3	-45.4	22.0	0.00e+00	0	43	0	603979776	60	4028
2026-01-28 00:54:18.53	19.87	53.21	-44.2	-45.3	22.1	0.00e+00	0	43	0	606076928	60	3981
2026-01-28 00:54:19.54	19.77	53.57	-44.2	-45.3	22.1	0.00e+00	0	43	0	608174080	60	3978
2026-01-28 00:54:20.55	19.68	53.93	-44.2	-45.3	22.2	0.00e+00	0	43	0	610271232	60	3966
2026-01-28 00:54:21.55	19.57	54.30	-44.4	-45.5	21.9	0.00e+00	0	43	0	611319808	60	4061
2026-01-28 00:54:22.56	19.47	54.66	-44.8	-46.0	21.5	0.00e+00	0	43	0	613416960	60	4298
2026-01-28 00:54:23.57	19.36	55.04	-44.9	-46.1	21.3	0.00e+00	0	43	0	615514112	60	4373
2026-01-28 00:54:24.58	19.25	55.41	-45.3	-46.6	21.0	0.00e+00	0	43	0	617611264	61	4352
2026-01-28 00:54:25.59	19.14	55.79	-46.0	-47.3	20.2	0.00e+00	0	43	0	619708416	62	4486
2026-01-28 00:54:26.59	19.03	56.16	-46.6	-48.1	19.5	0.00e+00	0	43	0	621805568	63	4643
2026-01-28 00:54:27.60	18.91	56.54	-47.0	-48.6	18.9	0.00e+00	0	43	0	622854144	64	4639
2026-01-28 00:54:28.61	18.78	56.93	-47.8	-49.6	18.0	0.00e+00	0	43	0	624951296	66	4623
2026-01-28 00:54:29.62	18.66	57.31	-48.0	-49.9	17.7	0.00e+00	0	43	0	627048448	66	4784
2026-01-28 00:54:30.63	18.53	57.70	-48.3	-50.2	17.3	0.00e+00	0	43	0	629145600	67	4691
2026-01-28 00:54:31.63	18.39	58.09	-48.8	-51.0	16.7	0.00e+00	0	43	0	630194176	68	4852
2026-01-28 00:54:32.64	18.25	58.48	-48.7	-50.8	16.9	0.00e+00	0	43	0	632291328	68	4748
2026-01-28 00:54:33.65	18.11	58.88	-48.8	-51.0	16.7	0.00e+00	0	43	0	634388480	68	4842
2026-01-28 00:54:34.65	17.97	59.27	-48.4	-50.4	17.2	0.00e+00	0	43	0	636485632	68	4532
2026-01-28 00:54:35.66	17.81	59.67	-47.9	-49.7	17.9	0.00e+00	0	43	0	638582784	67	4426
2026-01-28 00:54:36.67	17.66	60.08	-47.5	-49.2	18.4	0.00e+00	0	43	0	640679936	66	4412
2026-01-28 00:54:37.67	17.50	60.48	-46.8	-48.3	19.3	0.00e+00	0	43	0	641728512	65	4210
2026-01-28 00:54:38.68	17.33	60.89	-46.4	-47.9	19.7	0.00e+00	0	43	0	643825664	64	4249
2026-01-28 00:54:39.69	17.16	61.30	-46.4	-47.8	19.8	0.00e+00	0	43	0	645922816	64	4209
2026-01-28 00:54:40.70	16.98	61.71	-46.2	-47.6	20.0	0.00e+00	0	43	0	648019968	64	4120
2026-01-28 00:54:41.71	16.79	62.13	-45.8	-47.1	20.5	0.00e+00	0	43	0	650117120	63	4128
2026-01-28 00:54:42.71	16.60	62.54	-45.7	-47.0	20.7	0.00e+00	0	43	0	651165696	63	4067
2026-01-28 00:54:43.72	16.41	62.96	-45.2	-46.4	21.2	0.00e+00	0	43	0	653262848	62	4019
2026-01-28 00:54:44.73	16.20	63.38	-44.7	-45.9	21.7	0.00e+00	0	43	0	655360000	61	4006
2026-01-28 00:54:45.73	15.99	63.80	-44.6	-45.7	21.8	0.00e+00	0	43	0	657457152	61	3926
2026-01-28 00:54:46.74	15.77	64.23	-44.6	-45.7	21.8	0.00e+00	0	43	0	658505728	61	3941
2026-01-28 00:54:47.75	15.54	64.66	-44.9	-46.0	21.6	0.00e+00	0	43	0	660602880	61	4077
2026-01-28 00:54:48.76	15.30	65.09	-45.3	-46.5	21.1	0.00e+00	0	43	0	662700032	61	4318
2026-01-28 00:54:49.76	15.05	65.51	-46.2	-47.5	20.2	0.00e+00	0	43	0	664797184	62	4591
2026-01-28 00:54:50.77	14.79	65.95	-46.7	-48.2	19.4	0.00e+00	0	43	0	666894336	64	4429
2026-01-28 00:54:51.78	14.53	66.38	-47.0	-48.6	19.0	0.00e+00	0	43	0	668991488	64	4629
2026-01-28 00:54:52.78	14.25	66.82	-47.0	-48.5	19.2	0.00e+00	0	43	0	670040064	64	4590
2026-01-28 00:54:53.79	13.96	67.26	-46.9	-48.5	19.1	0.00e+00	0	43	0	672137216	64	4557
2026-01-28 00:54:54.80	13.65	67.70	-47.0	-48.5	19.1	0.00e+00	0	43	0	674234368	64	4581
2026-01-28 00:54:55.81	13.33	68.14	-46.9	-48.4	19.3	0.00e+00	0	43	0	676331520	64	4518
2026-01-28 00:54:56.81	13.00	68.58	-46.8	-48.3	19.3	0.00e+00	0	43	0	678428672	64	4493
2026-01-28 00:54:57.82	12.65	69.03	-46.8	-48.2	19.4	0.00e+00	0	43	0	679477248	64	4430
2026-01-28 00:54:58.83	12.29	69.48	-46.7	-48.1	19.4	0.00e+00	0	43	0	681574400	64	4378
2026-01-28 00:54:59.84	11.90	69.93	-46.9	-48.4	19.3	0.00e+00	0	43	0	683671552	64	4506
2026-01-28 00:55:00.84	11.51	70.37	-47.0	-48.5	19.2	0.00e+00	0	43	0	685768704	64	4568
2026-01-28 00:55:01.85	11.08	70.82	-46.5	-48.0	19.7	0.00e+00	0	43	0	686817280	64	4294
2026-01-28 00:55:02.86	10.64	71.28	-46.5	-47.9	19.7	0.00e+00	0	43	0	688914432	64	4274
2026-01-28 00:55:03.87	10.17	71.73	-46.6	-48.1	19.5	0.00e+00	0	43	0	691011584	64	4352
2026-01-28 00:55:04.87	9.68	72.18	-46.7	-48.2	19.4	0.00e+00	0	43	0	693108736	64	4438
2026-01-28 00:55:05.88	9.16	72.63	-46.3	-47.7	19.9	0.00e+00	0	43	0	695205888	64	4162
2026-01-28 00:55:06.89	8.61	73.09	-46.3	-47.7	20.0	0.00e+00	0	43	0	697303040	64	4167
2026-01-28 00:55:07.90	8.03	73.54	-46.6	-48.1	19.6	0.00e+00	0	43	0	698351616	64	4351
2026-01-28 00:55:08.91	7.41	74.00	-47.0	-48.5	19.1	0.00e+00	0	43	0	700448768	64	4587
2026-01-28 00:55:09.92	6.76	74.45	-47.5	-49.2	18.4	0.00e+00	0	43	0	702545920	65	4698
2026-01-28 00:55:10.93	6.06	74.91	-47.8	-49.6	18.1	0.00e+00	0	43	0	704643072	66	4611
2026-01-28 00:55:11.94	5.32	75.36	-47.6	-49.3	18.4	0.00e+00	0	43	0	706740224	66	4454
2026-01-28 00:55:12.94	4.54	75.81	-46.7	-48.2	19.4	0.00e+00	0	43	0	707788800	65	4153
2026-01-28 00:55:13.95	3.69	76.26	-46.4	-47.7	19.8	0.00e+00	0	43	0	709885952	64	4192
2026-01-28 00:55:14.96	2.79	76.71	-46.9	-48.4	19.3	0.00e+00	0	43	0	711983104	64	4508
2026-01-28 00:55:15.97	1.82	77.16	-46.7	-48.2	19.5	0.00e+00	0	43	0	714080256	64	4394
2026-01-28 00:55:16.97	0.78	77.60	-46.8	-48.3	19.4	0.00e+00	0	43	0	716177408	64	4459
2026-01-28 00:55:17.98	359.66	78.04	-47.5	-49.2	18.4	0.00e+00	0	43	0	717225984	65	4682
2026-01-28 00:55:18.98	358.46	78.48	-47.7	-49.4	18.3	0.00e+00	0	43	0	719323136	65	4781
2026-01-28 00:55:19.99	357.16	78.91	-47.1	-48.7	19.0	0.00e+00	0	43	0	721420288	65	4401
2026-01-28 00:55:21.00	355.74	79.34	-46.6	-48.0	19.6	0.00e+00	0	43	0	723517440	65	4074
2026-01-28 00:55:22.01	354.21	79.76	-46.1	-47.4	20.3	0.00e+00	0	43	0	725614592	64	4027
2026-01-28 00:55:23.02	352.54	80.18	-45.7	-46.9	20.8	0.00e+00	0	43	0	726663168	63	4026
2026-01-28 00:55:24.02	350.74	80.58	-46.5	-47.9	19.9	0.00e+00	0	43	0	728760320	63	4498
2026-01-28 00:55:25.03	348.75	80.98	-46.9	-48.4	19.3	0.00e+00	0	43	0	730857472	64	4518
2026-01-28 00:55:26.04	346.59	81.37	-46.9	-48.4	19.3	0.00e+00	0	43	0	732954624	64	4512
2026-01-28 00:55:27.05	344.22	81.74	-46.9	-48.4	19.2	0.00e+00	0	43	0	735051776	65	4266
2026-01-28 00:55:28.05	341.65	82.10	-46.8	-48.3	19.4	0.00e+00	0	43	0	736100352	65	4227
2026-01-28 00:55:29.06	338.82	82.44	-46.9	-48.4	19.3	0.00e+00	0	43	0	738197504	65	4282
2026-01-28 00:55:30.07	335.72	82.77	-46.7	-48.2	19.5	0.00e+00	0	43	0	740294656	65	4177
2026-01-28 00:55:31.08	332.33	83.07	-46.6	-48.1	19.6	0.00e+00	0	43	0	742391808	65	4116
2026-01-28 00:55:32.09	328.65	83.34	-46.6	-48.0	19.7	0.00e+00	0	43	0	744488960	64	4299
2026-01-28 00:55:33.09	324.71	83.59	-45.7	-47.0	20.7	0.00e+00	0	43	0	745537536	63	4066
2026-01-28 00:55:34.10	320.44	83.80	-45.0	-46.1	21.5	0.00e+00	0	43	0	747634688	61	4125
2026-01-28 00:55:35.11	315.88	83.98	-44.9	-46.0	21.6	0.00e+00	0	43	0	749731840	61	4097
2026-01-28 00:55:36.11	311.13	84.11	-45.4	-46.6	21.0	0.00e+00	0	43	0	751828992	61	4389
2026-01-28 00:55:37.12	306.14	84.21	-45.9	-47.2	20.5	0.00e+00	0	43	0	753926144	62	4411
2026-01-28 00:55:38.12	301.07	84.25	-46.4	-47.8	19.9	0.00e+00	0	43	0	754974720	63	4480
2026-01-28 00:55:39.13	295.91	84.26	-46.8	-48.3	19.4	0.00e+00	0	43	0	757071872	64	4489
2026-01-28 00:55:40.14	290.78	84.21	-46.7	-48.2	19.4	0.00e+00	0	43	0	759169024	64	4420
2026-01-28 00:55:41.15	285.77	84.13	-46.5	-47.9	19.9	0.00e+00	0	43	0	761266176	64	4270
2026-01-28 00:55:42.16	280.94	84.00	-46.4	-47.8	19.8	0.00e+00	0	43	0	763363328	64	4234
2026-01-28 00:55:43.17	276.35	83.82	-46.9	-48.4	19.3	0.00e+00	0	43	0	764411904	64	4517
2026-01-28 00:55:44.17	272.08	83.62	-47.3	-48.9	18.7	0.00e+00	0	43	0	766509056	65	4520
2026-01-28 00:55:45.18	268.06	83.37	-47.3	-48.9	18.8	0.00e+00	0	43	0	768606208	65	4531
2026-01-28 00:55:46.19	264.34	83.10	-47.7	-49.5	18.3	0.00e+00	0	43	0	770703360	66	4551
2026-01-28 00:55:47.19	260.96	82.81	-48.0	-49.7	18.0	0.00e+00	0	43	0	772800512	66	4703
2026-01-28 00:55:48.20	257.82	82.49	-47.7	-49.4	18.3	0.00e+00	0	43	0	773849088	66	4504
2026-01-28 00:55:49.21	254.95	82.15	-47.8	-49.5	18.2	0.00e+00	0	43	0	775946240	66	4590
2026-01-28 00:55:50.22	252.32	81.79	-48.1	-49.9	17.8	0.00e+00	0	43	0	778043392	67	4507
2026-01-28 00:55:51.23	249.93	81.41	-47.6	-49.3	18.5	0.00e+00	0	43	0	780140544	67	4196
2026-01-28 00:55:52.23	247.76	81.03	-47.3	-48.9	18.8	0.00e+00	0	43	0	782237696	66	4245
2026-01-28 00:55:53.23	245.77	80.64	-46.8	-48.2	19.5	0.00e+00	0	43	0	783286272	65	4178
2026-01-28 00:55:54.24	243.93	80.23	-46.1	-47.5	20.3	0.00e+00	0	43	0	785383424	64	4052
2026-01-28 00:55:55.25	242.24	79.82	-46.0	-47.2	20.6	0.00e+00	0	43	0	787480576	63	4183
2026-01-28 00:55:56.26	240.69	79.39	-46.5	-47.9	19.8	0.00e+00	0	43	0	789577728	63	4522
2026-01-28 00:55:57.26	239.27	78.97	-46.6	-48.0	19.8	0.00e+00	0	43	0	791674880	63	4562
2026-01-28 00:55:58.27	237.95	78.54	-46.9	-48.4	19.3	0.00e+00	0	43	0	792723456	64	4522
2026-01-28 00:55:59.28	236.72	78.10	-47.2	-48.8	19.0	0.00e+00	0	43	0	794820608	65	4485
2026-01-28 00:56:00.29	235.59	77.65	-47.2	-48.9	18.8	0.00e+00	0	43	0	796917760	65	4499
2026-01-28 00:56:01.30	234.54	77.21	-46.8	-48.3	19.4	0.00e+00	0	43	0	799014912	65	4229
2026-01-28 00:56:02.31	233.56	76.76	-46.9	-48.4	19.3	0.00e+00	0	43	0	801112064	65	4283
2026-01-28 00:56:03.31	232.66	76.32	-47.0	-48.5	19.3	0.00e+00	0	43	0	802160640	65	4301
2026-01-28 00:56:04.32	231.80	75.86	-46.6	-48.0	19.7	0.00e+00	0	43	0	804257792	65	4070
2026-01-28 00:56:05.33	231.00	75.41	-46.4	-47.7	19.9	0.00e+00	0	43	0	806354944	64	4183
2026-01-28 00:56:06.34	230.26	74.96	-46.3	-47.7	19.9	0.00e+00	0	43	0	808452096	64	4177
2026-01-28 00:56:07.34	229.56	74.51	-46.5	-47.9	19.8	0.00e+00	0	43	0	810549248	64	4283
2026-01-28 00:56:08.35	228.90	74.05	-46.7	-48.2	19.5	0.00e+00	0	43	0	811597824	64	4431
2026-01-28 00:56:09.36	228.28	73.60	-46.7	-48.1	19.6	0.00e+00	0	43	0	813694976	64	4390
2026-01-28 00:56:10.37	227.69	73.14	-46.2	-47.5	20.2	0.00e+00	0	43	0	815792128	64	4083
2026-01-28 00:56:11.37	227.14	72.69	-45.6	-46.8	20.9	0.00e+00	0	43	0	817889280	63	3993
2026-01-28 00:56:12.38	226.62	72.23	-45.0	-46.1	21.5	0.00e+00	0	43	0	819986432	62	3899
2026-01-28 00:56:13.39	226.12	71.78	-44.6	-45.6	22.0	0.00e+00	0	43	0	821035008	61	3912
2026-01-28 00:56:14.39	225.65	71.33	-44.5	-45.6	22.1	0.00e+00	0	43	0	823132160	61	3900
2026-01-28 00:56:15.39	225.21	70.88	-44.5	-45.5	22.1	0.00e+00	0	43	0	825229312	60	4085
2026-01-28 00:56:16.40	224.78	70.43	-44.4	-45.5	22.1	0.00e+00	0	43	0	827326464	60	4052
2026-01-28 00:56:17.40	224.38	69.98	-45.2	-46.3	21.3	0.00e+00	0	43	0	829423616	60	4472
2026-01-28 00:56:18.41	224.00	69.53	-46.2	-47.5	20.3	0.00e+00	0	43	0	830472192	62	4580
2026-01-28 00:56:19.42	223.63	69.08	-46.9	-48.3	19.3	0.00e+00	0	43	0	832569344	64	4493
2026-01-28 00:56:20.42	223.28	68.64	-47.6	-49.4	18.3	0.00e+00	0	43	0	834666496	66	4496
2026-01-28 00:56:21.44	222.94	68.19	-48.4	-50.3	17.4	0.00e+00	0	43	0	836763648	67	4752
2026-01-28 00:56:22.44	222.62	67.75	-49.0	-51.3	16.5	0.00e+00	0	43	0	838860800	68	4995
2026-01-28 00:56:23.45	222.32	67.31	-49.8	-52.5	15.5	0.00e+00	0	43	0	839909376	70	5102
2026-01-28 00:56:24.45	222.03	66.87	-49.9	-52.6	15.3	0.00e+00	0	43	0	842006528	70	5164
2026-01-28 00:56:25.46	221.74	66.43	-49.3	-51.6	16.2	0.00e+00	0	43	0	844103680	70	4643
2026-01-28 00:56:26.47	221.47	66.00	-48.4	-50.3	17.5	0.00e+00	0	43	0	846200832	68	4470
2026-01-28 00:56:27.48	221.21	65.56	-47.6	-49.3	18.4	0.00e+00	0	43	0	848297984	67	4212
2026-01-28 00:56:28.49	220.96	65.13	-46.7	-48.2	19.5	0.00e+00	0	43	0	849346560	65	4150
2026-01-28 00:56:29.49	220.72	64.70	-46.2	-47.6	20.0	0.00e+00	0	43	0	851443712	64	4120
2026-01-28 00:56:30.50	220.49	64.27	-45.9	-47.2	20.4	0.00e+00	0	43	0	853540864	63	4163
2026-01-28 00:56:31.51	220.27	63.84	-45.4	-46.6	21.0	0.00e+00	0	43	0	855638016	62	4145
2026-01-28 00:56:32.52	220.06	63.42	-45.1	-46.2	21.3	0.00e+00	0	43	0	857735168	62	3957
2026-01-28 00:56:33.53	219.85	62.99	-44.5	-45.6	22.0	0.00e+00	0	43	0	858783744	60	4122
2026-01-28 00:56:34.53	219.65	62.58	-44.2	-45.2	22.4	0.00e+00	0	43	0	860880896	60	3942
2026-01-28 00:56:35.54	219.46	62.16	-44.2	-45.3	22.3	0.00e+00	0	43	0	862978048	60	3967
2026-01-28 00:56:36.55	219.27	61.74	-44.3	-45.4	22.1	0.00e+00	0	43	0	865075200	60	4007
2026-01-28 00:56:37.56	219.09	61.33	-44.8	-45.9	21.6	0.00e+00	0	43	0	867172352	60	4291
2026-01-28 00:56:38.56	218.92	60.92	-44.9	-46.0	21.5	0.00e+00	0	43	0	868220928	60	4339
2026-01-28 00:56:39.57	218.75	60.51	-45.3	-46.5	21.1	0.00e+00	0	43	0	870318080	61	4334
2026-01-28 00:56:40.58	218.59	60.11	-46.1	-47.5	20.2	0.00e+00	0	43	0	872415232	62	4558
2026-01-28 00:56:41.59	218.43	59.70	-47.2	-48.8	18.9	0.00e+00	0	43	0	874512384	64	4757
2026-01-28 00:56:42.60	218.28	59.30	-47.1	-48.8	18.9	0.00e+00	0	43	0	876609536	65	4448
2026-01-28 00:56:43.61	218.13	58.90	-47.0	-48.6	19.0	0.00e+00	0	43	0	877658112	65	4361
2026-01-28 00:56:44.61	217.99	58.51	-47.1	-48.6	19.0	0.00e+00	0	43	0	879755264	65	4373
2026-01-28 00:56:45.62	217.85	58.11	-47.2	-48.8	18.9	0.00e+00	0	43	0	881852416	65	4446
2026-01-28 00:56:46.63	217.72	57.72	-47.4	-49.0	18.6	0.00e+00	0	43	0	883949568	65	4583
2026-01-28 00:56:47.64	217.58	57.33	-47.8	-49.6	18.0	0.00e+00	0	43	0	886046720	66	4628
2026-01-28 00:56:48.64	217.46	56.95	-48.0	-49.9	17.7	0.00e+00	0	43	0	887095296	66	4769
2026-01-28 00:56:49.65	217.34	56.56	-47.9	-49.7	18.0	0.00e+00	0	43	0	889192448	66	4691
2026-01-28 00:56:50.66	217.21	56.18	-47.1	-48.7	18.9	0.00e+00	0	43	0	891289600	66	4163
2026-01-28 00:56:51.67	217.10	55.80	-46.1	-47.5	20.0	0.00e+00	0	43	0	893386752	64	4090
2026-01-28 00:56:52.68	216.98	55.42	-46.1	-47.5	20.2	0.00e+00	0	43	0	895483904	63	4292
2026-01-28 00:56:53.68	216.88	55.05	-45.5	-46.8	20.8	0.00e+00	0	43	0	897581056	63	3972
2026-01-28 00:56:54.69	216.77	54.68	-44.9	-46.0	21.5	0.00e+00	0	43	0	898629632	61	4091
2026-01-28 00:56:55.70	216.66	54.31	-44.7	-45.8	21.7	0.00e+00	0	43	0	900726784	61	3978
2026-01-28 00:56:56.71	216.56	53.94	-44.5	-45.7	21.9	0.00e+00	0	43	0	902823936	61	3916
2026-01-28 00:56:57.71	216.46	53.58	-44.7	-45.8	21.7	0.00e+00	0	43	0	904921088	61	3989
2026-01-28 00:56:58.72	216.37	53.22	-44.8	-46.0	21.5	0.00e+00	0	43	0	905969664	61	4057
2026-01-28 00:56:59.73	216.27	52.86	-45.0	-46.1	21.3	0.00e+00	0	43	0	908066816	61	4143
2026-01-28 00:57:00.73	216.18	52.50	-45.0	-46.2	21.3	0.00e+00	0	43	0	910163968	61	4158
2026-01-28 00:57:01.74	216.09	52.15	-44.8	-45.9	21.6	0.00e+00	0	43	0	912261120	61	4036
2026-01-28 00:57:02.75	216.00	51.80	-45.0	-46.2	21.3	0.00e+00	0	43	0	914358272	61	4157
2026-01-28 00:57:03.75	215.92	51.45	-45.6	-46.8	20.7	0.00e+00	0	43	0	915406848	61	4485
2026-01-28 00:57:04.76	215.83	51.10	-46.1	-47.5	20.1	0.00e+00	0	43	0	917504000	62	4567
2026-01-28 00:57:05.77	215.75	50.76	-46.6	-48.0	19.6	0.00e+00	0	43	0	919601152	63	4594
2026-01-28 00:57:06.77	215.67	50.42	-46.8	-48.3	19.2	0.00e+00	0	43	0	921698304	64	4467
2026-01-28 00:57:07.78	215.60	50.08	-47.4	-49.1	18.5	0.00e+00	0	43	0	923795456	65	4629
2026-01-28 00:57:08.79	215.52	49.74	-47.8	-49.6	17.9	0.00e+00	0	43	0	925892608	66	4620
2026-01-28 00:57:09.80	215.45	49.41	-48.1	-50.1	17.5	0.00e+00	0	43	0	926941184	66	4874
2026-01-28 00:57:10.81	215.37	49.07	-48.5	-50.6	17.0	0.00e+00	0	43	0	929038336	67	4874
2026-01-28 00:57:11.81	215.30	48.75	-48.5	-50.6	17.0	0.00e+00	0	43	0	931135488	67	4907
2026-01-28 00:57:12.82	215.24	48.42	-48.7	-50.8	16.9	0.00e+00	0	43	0	933232640	68	4720
2026-01-28 00:57:13.83	215.17	48.09	-49.0	-51.3	16.4	0.00e+00	0	43	0	934281216	68	5018
2026-01-28 00:57:14.83	215.10	47.77	-49.1	-51.4	16.2	0.00e+00	0	43	0	936378368	69	4805
2026-01-28 00:57:15.84	215.04	47.45	-48.7	-50.8	16.8	0.00e+00	0	43	0	938475520	69	4464
2026-01-28 00:57:16.84	214.97	47.14	-47.8	-49.6	17.9	0.00e+00	0	43	0	940572672	67	4367
2026-01-28 00:57:17.85	214.91	46.82	-47.1	-48.6	18.8	0.00e+00	0	43	0	942669824	66	4145
2026-01-28 00:57:18.86	214.85	46.51	-46.8	-48.3	19.1	0.00e+00	0	43	0	943718400	65	4235
2026-01-28 00:57:19.86	214.79	46.20	-46.3	-47.7	19.7	0.00e+00	0	43	0	945815552	64	4158
2026-01-28 00:57:20.86	214.74	45.89	-46.5	-48.0	19.5	0.00e+00	0	43	0	947912704	64	4310
2026-01-28 00:57:21.87	214.68	45.58	-47.0	-48.6	18.9	0.00e+00	0	43	0	950009856	64	4613
2026-01-28 00:57:22.88	214.62	45.28	-47.6	-49.4	18.1	0.00e+00	0	43	0	952107008	65	4788
2026-01-28 00:57:23.89	214.57	44.98	-48.2	-50.2	17.3	0.00e+00	0	43	0	954204160	66	4951
2026-01-28 00:57:24.89	214.51	44.68	-49.0	-51.3	16.3	0.00e+00	0	43	0	955252736	68	5039
2026-01-28 00:57:25.90	214.46	44.38	-49.1	-51.6	16.0	0.00e+00	0	43	0	957349888	68	5167
2026-01-28 00:57:26.91	214.41	44.09	-48.8	-51.0	16.5	0.00e+00	0	43	0	959447040	69	4592
2026-01-28 00:57:27.92	214.36	43.79	-48.3	-50.3	17.2	0.00e+00	0	43	0	961544192	68	4469
2026-01-28 00:57:28.92	214.31	43.50	-47.9	-49.8	17.7	0.00e+00	0	43	0	962592768	67	4466
2026-01-28 00:57:29.93	214.26	43.22	-47.6	-49.3	18.1	0.00e+00	0	43	0	964689920	67	4231
2026-01-28 00:57:30.93	214.21	42.93	-47.3	-48.9	18.5	0.00e+00	0	43	0	966787072	66	4271
2026-01-28 00:57:31.94	214.17	42.65	-47.1	-48.7	18.8	0.00e+00	0	43	0	968884224	66	4152
2026-01-28 00:57:32.95	214.12	42.36	-47.2	-48.8	18.7	0.00e+00	0	43	0	970981376	66	4214
2026-01-28 00:57:33.96	214.08	42.08	-47.3	-48.9	18.5	0.00e+00	0	43	0	972029952	66	4288
2026-01-28 00:57:34.97	214.03	41.80	-47.6	-49.3	18.1	0.00e+00	0	43	0	974127104	66	4488
2026-01-28 00:57:35.97	213.99	41.53	-48.3	-50.4	17.1	0.00e+00	0	43	0	976224256	67	4778
2026-01-28 00:57:36.98	213.95	41.26	-48.7	-50.9	16.6	0.00e+00	0	43	0	978321408	67	5051
2026-01-28 00:57:37.99	213.90	40.98	-49.0	-51.4	16.1	0.00e+00	0	43	0	980418560	68	5075
2026-01-28 00:57:39.00	213.86	40.71	-48.9	-51.2	16.4	0.00e+00	0	43	0	982515712	68	4947
2026-01-28 00:57:40.01	213.82	40.45	-48.7	-50.9	16.6	0.00e+00	0	43	0	983564288	68	4809
2026-01-28 00:57:41.01	213.78	40.18	-48.3	-50.3	17.2	0.00e+00	0	43	0	985661440	68	4490
2026-01-28 00:57:42.02	213.74	39.92	-48.2	-50.2	17.3	0.00e+00	0	43	0	987758592	68	4415
2026-01-28 00:57:43.03	213.71	39.65	-47.8	-49.7	17.7	0.00e+00	0	43	0	989855744	67	4417
2026-01-28 00:57:44.04	213.67	39.39	-47.6	-49.3	18.1	0.00e+00	0	43	0	990904320	67	4240
2026-01-28 00:57:45.04	213.63	39.14	-47.5	-49.3	18.1	0.00e+00	0	43	0	993001472	66	4448
2026-01-28 00:57:46.05	213.60	38.88	-47.6	-49.4	18.0	0.00e+00	0	43	0	995098624	66	4507
2026-01-28 00:57:47.05	213.56	38.63	-47.8	-49.6	17.8	0.00e+00	0	43	0	997195776	66	4632
2026-01-28 00:57:48.06	213.52	38.38	-48.0	-49.9	17.5	0.00e+00	0	43	0	999292928	66	4801
2026-01-28 00:57:49.07	213.49	38.12	-48.2	-50.3	17.1	0.00e+00	0	43	0	1001390080	67	4727
2026-01-28 00:57:50.08	213.46	37.88	-48.2	-50.3	17.1	0.00e+00	0	43	0	1002438656	67	4717
2026-01-28 00:57:51.09	213.42	37.63	-48.3	-50.4	17.0	0.00e+00	0	43	0	1004535808	67	4792
2026-01-28 00:57:52.09	213.39	37.38	-48.3	-50.4	17.0	0.00e+00	0	43	0	1006632960	67	4774
2026-01-28 00:57:53.10	213.36	37.14	-48.3	-50.4	17.0	0.00e+00	0	43	0	1008730112	67	4787
2026-01-28 00:57:54.11	213.33	36.90	-48.2	-50.3	17.2	0.00e+00	0	43	0	1010827264	67	4709
2026-01-28 00:57:55.11	213.30	36.66	-48.1	-50.2	17.2	0.00e+00	0	43	0	1011875840	67	4653
2026-01-28 00:57:56.12	213.26	36.42	-47.9	-49.9	17.5	0.00e+00	0	43	0	1013972992	67	4505
2026-01-28 00:57:57.13	213.23	36.18	-47.6	-49.4	17.9	0.00e+00	0	43	0	1016070144	67	4283
2026-01-28 00:57:58.14	213.20	35.95	-47.3	-48.9	18.3	0.00e+00	0	43	0	1018167296	66	4286
2026-01-28 00:57:59.15	213.18	35.72	-47.1	-48.8	18.6	0.00e+00	0	43	0	1019215872	66	4197
2026-01-28 00:58:00.15	213.15	35.49	-46.8	-48.4	18.9	0.00e+00	0	43	0	1021313024	65	4250
2026-01-28 00:58:01.16	213.12	35.26	-46.6	-48.2	19.1	0.00e+00	0	43	0	1023410176	65	4154
2026-01-28 00:58:02.17	213.09	35.03	-46.5	-48.0	19.2	0.00e+00	0	43	0	1025507328	65	4085
2026-01-28 00:58:03.18	213.06	34.80	-46.6	-48.2	19.1	0.00e+00	0	43	0	1027604480	65	4152
2026-01-28 00:58:04.18	213.04	34.58	-46.6	-48.2	19.1	0.00e+00	0	43	0	1029701632	65	4154
2026-01-28 00:58:05.19	213.01	34.35	-46.7	-48.2	19.1	0.00e+00	0	43	0	1030750208	65	4172
2026-01-28 00:58:06.20	212.98	34.13	-46.7	-48.3	19.0	0.00e+00	0	43	0	1032847360	65	4208
2026-01-28 00:58:07.21	212.96	33.91	-47.0	-48.6	18.7	0.00e+00	0	43	0	1034944512	65	4360
2026-01-28 00:58:08.21	212.93	33.69	-47.3	-49.0	18.3	0.00e+00	0	43	0	1037041664	65	4573
2026-01-28 00:58:09.22	212.91	33.48	-47.5	-49.4	17.9	0.00e+00	0	43	0	1039138816	65	4762
2026-01-28 00:58:10.23	212.88	33.26	-47.9	-49.9	17.4	0.00e+00	0	43	0	1040187392	66	4793
2026-01-28 00:58:11.24	212.86	33.05	-48.3	-50.5	16.8	0.00e+00	0	43	0	1042284544	67	4816
2026-01-28 00:58:12.24	212.83	32.84	-48.5	-50.7	16.6	0.00e+00	0	43	0	1044381696	67	4956
2026-01-28 00:58:13.25	212.81	32.62	-48.6	-50.8	16.5	0.00e+00	0	43	0	1046478848	67	5039
2026-01-28 00:58:14.26	212.79	32.41	-48.4	-50.6	16.6	0.00e+00	0	43	0	1047527424	67	4898
2026-01-28 00:58:15.27	212.76	32.21	-48.3	-50.4	16.9	0.00e+00	0	43	0	1049624576	67	4777
2026-01-28 00:58:16.28	212.74	32.00	-48.2	-50.2	17.1	0.00e+00	0	43	0	1051721728	67	4674
2026-01-28 00:58:17.29	212.72	31.79	-48.2	-50.2	17.1	0.00e+00	0	43	0	1053818880	67	4686
2026-01-28 00:58:18.29	212.70	31.59	-47.8	-49.7	17.6	0.00e+00	0	43	0	1055916032	67	4423
2026-01-28 00:58:19.30	212.68	31.39	-47.7	-49.6	17.6	0.00e+00	0	43	0	1058013184	67	4386
2026-01-28 00:58:20.31	212.66	31.19	-47.7	-49.6	17.7	0.00e+00	0	43	0	1059061760	67	4344
2026-01-28 00:58:21.32	212.63	30.99	-47.6	-49.5	17.7	0.00e+00	0	43	0	1061158912	67	4317
2026-01-28 00:58:22.33	212.61	30.79	-47.5	-49.3	17.9	0.00e+00	0	43	0	1063256064	66	4469
2026-01-28 00:58:23.33	212.59	30.59	-47.5	-49.3	18.0	0.00e+00	0	43	0	1065353216	66	4454
2026-01-28 00:58:24.34	212.57	30.40	-47.4	-49.2	18.0	0.00e+00	0	43	0	1067450368	66	4435
2026-01-28 00:58:25.35	212.55	30.20	-47.6	-49.4	17.8	0.00e+00	0	43	0	1068498944	66	4541
2026-01-28 00:58:26.35	212.53	30.01	-47.8	-49.7	17.5	0.00e+00	0	43	0	1070596096	66	4683
2026-01-28 00:58:27.36	212.52	29.82	-47.8	-49.8	17.5	0.00e+00	0	43	0	1072693248	66	4713
2026-01-28 00:58:28.37	212.50	29.63	-47.9	-49.8	17.4	0.00e+00	0	43	0	1074790400	66	4756
2026-01-28 00:58:29.38	212.48	29.44	-48.0	-50.0	17.2	0.00e+00	0	43	0	1076887552	66	4852
2026-01-28 00:58:30.39	212.46	29.25	-47.9	-49.9	17.3	0.00e+00	0	43	0	1077936128	66	4788
2026-01-28 00:58:31.39	212.44	29.06	-47.9	-49.9	17.3	0.00e+00	0	43	0	1080033280	66	4812
2026-01-28 00:58:32.40	212.42	28.88	-47.9	-49.9	17.3	0.00e+00	0	43	0	1082130432	66	4766
2026-01-28 00:58:33.41	212.41	28.69	-47.8	-49.7	17.5	0.00e+00	0	43	0	1084227584	66	4689
2026-01-28 00:58:34.41	212.39	28.51	-47.6	-49.5	17.7	0.00e+00	0	43	0	1086324736	66	4573
2026-01-28 00:58:35.42	212.37	28.33	-47.5	-49.3	17.9	0.00e+00	0	43	0	1087373312	66	4492
2026-01-28 00:58:36.43	212.35	28.15	-47.5	-49.3	17.9	0.00e+00	0	43	0	1089470464	66	4453
2026-01-28 00:58:37.44	212.34	27.97	-47.1	-48.8	18.4	0.00e+00	0	43	0	1091567616	66	4215
2026-01-28 00:58:38.45	212.32	27.79	-47.0	-48.7	18.4	0.00e+00	0	43	0	1093664768	66	4181
2026-01-28 00:58:39.45	212.30	27.61	-46.9	-48.6	18.6	0.00e+00	0	43	0	1095761920	65	4342
2026-01-28 00:58:40.46	212.29	27.44	-46.8	-48.4	18.7	0.00e+00	0	43	0	1096810496	65	4291
2026-01-28 00:58:41.46	212.27	27.26	-46.8	-48.4	18.8	0.00e+00	0	43	0	1098907648	65	4249
2026-01-28 00:58:42.47	212.26	27.09	-46.6	-48.2	18.9	0.00e+00	0	43	0	1101004800	65	4171
2026-01-28 00:58:43.48	212.24	26.92	-46.7	-48.2	18.9	0.00e+00	0	43	0	1103101952	65	4187
2026-01-28 00:58:44.49	212.23	26.74	-46.6	-48.2	18.9	0.00e+00	0	43	0	1105199104	65	4176
2026-01-28 00:58:45.50	212.21	26.57	-46.6	-48.1	19.0	0.00e+00	0	43	0	1106247680	65	4125
2026-01-28 00:58:46.51	212.20	26.40	-46.4	-47.9	19.2	0.00e+00	0	43	0	1108344832	64	4278
2026-01-28 00:58:47.52	212.18	26.23	-46.2	-47.7	19.4	0.00e+00	0	43	0	1110441984	64	4157
2026-01-28 00:58:48.52	212.17	26.07	-46.2	-47.7	19.4	0.00e+00	0	43	0	1112539136	64	4157
2026-01-28 00:58:49.53	212.15	25.90	-46.1	-47.6	19.4	0.00e+00	0	43	0	1114636288	64	4128
2026-01-28 00:58:50.53	212.14	25.74	-46.2	-47.6	19.4	0.00e+00	0	43	0	1115684864	64	4138
2026-01-28 00:58:51.54	212.12	25.57	-46.1	-47.6	19.5	0.00e+00	0	43	0	1117782016	64	4135
2026-01-28 00:58:52.55	212.11	25.41	-46.1	-47.6	19.5	0.00e+00	0	43	0	1119879168	64	4102
2026-01-28 00:58:53.56	212.10	25.25	-46.2	-47.7	19.4	0.00e+00	0	43	0	1121976320	64	4154
2026-01-28 00:58:54.56	212.08	25.09	-46.1	-47.5	19.5	0.00e+00	0	43	0	1124073472	64	4096
2026-01-28 00:58:55.57	212.07	24.93	-46.3	-47.9	19.2	0.00e+00	0	43	0	1126170624	64	4248
2026-01-28 00:58:56.58	212.06	24.77	-46.4	-48.0	19.1	0.00e+00	0	43	0	1127219200	64	4315
2026-01-28 00:58:57.59	212.05	24.61	-46.3	-47.8	19.3	0.00e+00	0	43	0	1129316352	64	4216
2026-01-28 00:58:58.59	212.03	24.45	-46.3	-47.8	19.2	0.00e+00	0	43	0	1131413504	64	4239
2026-01-28 00:58:59.60	212.02	24.29	-46.3	-47.8	19.2	0.00e+00	0	43	0	1133510656	64	4217
2026-01-28 00:59:00.61	212.01	24.14	-46.3	-47.9	19.1	0.00e+00	0	43	0	1134559232	64	4267
2026-01-28 00:59:01.62	212.00	23.98	-46.4	-47.9	19.1	0.00e+00	0	43	0	1136656384	64	4280
2026-01-28 00:59:02.62	211.98	23.83	-46.3	-47.9	19.2	0.00e+00	0	43	0	1138753536	64	4245
2026-01-28 00:59:03.63	211.97	23.68	-46.2	-47.8	19.3	0.00e+00	0	43	0	1140850688	64	4196
2026-01-28 00:59:04.64	211.96	23.52	-46.2	-47.7	19.3	0.00e+00	0	43	0	1142947840	64	4159
2026-01-28 00:59:05.65	211.95	23.37	-46.3	-47.9	19.2	0.00e+00	0	43	0	1143996416	64	4251
2026-01-28 00:59:06.65	211.94	23.22	-46.1	-47.5	19.5	0.00e+00	0	43	0	1146093568	64	4086
2026-01-28 00:59:07.66	211.93	23.07	-46.2	-47.8	19.2	0.00e+00	0	43	0	1148190720	64	4203
2026-01-28 00:59:08.67	211.91	22.93	-46.1	-47.6	19.4	0.00e+00	0	43	0	1150287872	64	4107
2026-01-28 00:59:09.68	211.90	22.78	-46.1	-47.6	19.4	0.00e+00	0	43	0	1152385024	64	4107
2026-01-28 00:59:10.69	211.89	22.63	-46.0	-47.5	19.5	0.00e+00	0	43	0	1154482176	64	4085
2026-01-28 00:59:11.70	211.88	22.48	-46.1	-47.5	19.6	0.00e+00	0	43	0	1155530752	63	4324
2026-01-28 00:59:12.71	211.87	22.34	-46.1	-47.6	19.5	0.00e+00	0	43	0	1157627904	63	4356
2026-01-28 00:59:13.71	211.86	22.19	-46.2	-47.6	19.4	0.00e+00	0	43	0	1159725056	63	4383
2026-01-28 00:59:14.72	211.85	22.05	-46.1	-47.6	19.5	0.00e+00	0	43	0	1161822208	63	4360
2026-01-28 00:59:15.73	211.84	21.91	-46.1	-47.5	19.5	0.00e+00	0	43	0	1162870784	63	4331
2026-01-28 00:59:16.74	211.83	21.77	-46.0	-47.5	19.6	0.00e+00	0	43	0	1164967936	63	4308
2026-01-28 00:59:17.75	211.82	21.62	-46.0	-47.4	19.6	0.00e+00	0	43	0	1167065088	63	4271
2026-01-28 00:59:18.76	211.81	21.48	-46.1	-47.5	19.5	0.00e+00	0	43	0	1169162240	63	4325
2026-01-28 00:59:19.77	211.80	21.34	-46.0	-47.5	19.6	0.00e+00	0	43	0	1171259392	63	4298
2026-01-28 00:59:20.78	211.79	21.20	-46.0	-47.4	19.6	0.00e+00	0	43	0	1173356544	63	4290
2026-01-28 00:59:21.78	211.78	21.07	-46.0	-47.4	19.6	0.00e+00	0	43	0	1174405120	63	4273
2026-01-28 00:59:22.79	211.77	20.93	-46.2	-47.6	19.4	0.00e+00	0	43	0	1176502272	63	4391
2026-01-28 00:59:23.79	211.76	20.79	-46.2	-47.7	19.4	0.00e+00	0	43	0	1178599424	63	4398
2026-01-28 00:59:24.80	211.75	20.66	-46.3	-47.9	19.2	0.00e+00	0	43	0	1180696576	63	4510
2026-01-28 00:59:25.81	211.74	20.52	-46.4	-48.0	19.0	0.00e+00	0	43	0	1182793728	63	4556
2026-01-28 00:59:26.82	211.73	20.39	-46.4	-47.9	19.1	0.00e+00	0	43	0	1183842304	63	4540
2026-01-28 00:59:27.83	211.73	20.25	-46.6	-48.2	18.9	0.00e+00	0	43	0	1185939456	63	4674
2026-01-28 00:59:28.83	211.72	20.12	-46.6	-48.3	18.7	0.00e+00	0	43	0	1188036608	63	4708
2026-01-28 00:59:29.84	211.71	19.99	-46.6	-48.3	18.8	0.00e+00	0	43	0	1190133760	63	4714
2026-01-28 00:59:30.85	211.70	19.86	-46.7	-48.3	18.6	0.00e+00	0	43	0	1191182336	64	4475
2026-01-28 00:59:31.86	211.69	19.73	-46.8	-48.5	18.5	0.00e+00	0	43	0	1193279488	64	4546
2026-01-28 00:59:32.87	211.68	19.60	-46.8	-48.5	18.5	0.00e+00	0	43	0	1195376640	64	4546
2026-01-28 00:59:33.88	211.67	19.47	-46.8	-48.5	18.4	0.00e+00	0	43	0	1197473792	64	4560
2026-01-28 00:59:34.88	211.67	19.34	-46.8	-48.5	18.5	0.00e+00	0	43	0	1199570944	64	4547
2026-01-28 00:59:35.89	211.66	19.21	-46.9	-48.7	18.3	0.00e+00	0	43	0	1201668096	64	4653
2026-01-28 00:59:36.90	211.65	19.08	-46.9	-48.7	18.2	0.00e+00	0	43	0	1202716672	64	4657
2026-01-28 00:59:37.91	211.64	18.95	-47.0	-48.7	18.2	0.00e+00	0	43	0	1204813824	64	4684
2026-01-28 00:59:38.91	211.63	18.83	-47.0	-48.7	18.2	0.00e+00	0	43	0	1206910976	64	4685
2026-01-28 00:59:39.92	211.63	18.70	-47.0	-48.8	18.1	0.00e+00	0	43	0	1209008128	64	4729
2026-01-28 00:59:40.93	211.62	18.58	-47.0	-48.8	18.1	0.00e+00	0	43	0	1211105280	64	4722
2026-01-28 00:59:41.94	211.61	18.45	-47.1	-48.8	18.1	0.00e+00	0	43	0	1212153856	64	4753
2026-01-28 00:59:42.95	211.60	18.33	-47.0	-48.7	18.1	0.00e+00	0	43	0	1214251008	64	4705
2026-01-28 00:59:43.96	211.60	18.21	-47.1	-48.8	18.0	0.00e+00	0	43	0	1216348160	64	4752
2026-01-28 00:59:44.97	211.59	18.08	-47.1	-48.9	18.0	0.00e+00	0	43	0	1218445312	64	4803
2026-01-28 00:59:45.97	211.58	17.96	-47.0	-48.8	18.0	0.00e+00	0	43	0	1220542464	64	4746
2026-01-28 00:59:46.98	211.58	17.84	-47.0	-48.7	18.1	0.00e+00	0	43	0	1221591040	64	4697
2026-01-28 00:59:47.99	211.57	17.72	-47.1	-48.9	17.9	0.00e+00	0	43	0	1223688192	64	4777
2026-01-28 00:59:48.99	211.56	17.60	-47.1	-48.9	17.9	0.00e+00	0	43	0	1225785344	64	4782
2026-01-28 00:59:50.00	211.56	17.48	-47.1	-48.9	18.0	0.00e+00	0	43	0	1227882496	64	4781
2026-01-28 00:59:51.01	211.55	17.36	-47.1	-49.0	17.9	0.00e+00	0	43	0	1229979648	64	4819
2026-01-28 00:59:52.02	211.54	17.24	-47.2	-49.1	17.8	0.00e+00	0	43	0	1231028224	65	4618
2026-01-28 00:59:53.03	211.54	17.13	-47.3	-49.1	17.8	0.00e+00	0	43	0	1233125376	65	4636
2026-01-28 00:59:54.03	211.53	17.01	-47.3	-49.1	17.7	0.00e+00	0	43	0	1235222528	65	4649
2026-01-28 00:59:55.04	211.52	16.89	-47.3	-49.1	17.7	0.00e+00	0	43	0	1237319680	65	4630
2026-01-28 00:59:56.05	211.52	16.78	-47.4	-49.3	17.6	0.00e+00	0	43	0	1239416832	65	4711
2026-01-28 00:59:57.06	211.51	16.66	-47.4	-49.3	17.6	0.00e+00	0	43	0	1240465408	65	4712
2026-01-28 00:59:58.06	211.50	16.55	-47.4	-49.3	17.5	0.00e+00	0	43	0	1242562560	65	4754
2026-01-28 00:59:59.07	211.50	16.43	-47.3	-49.2	17.6	0.00e+00	0	43	0	1244659712	65	4698
