passes_logs/2026/01/28/R3.2S_Murmansk/R3.2S_Murmansk__20260128_044508_FENGYUN_3D_rec.log

#Pass ID: 20260128_044508_FENGYUN 3D
#Satellite: FENGYUN 3D
#Configuration: FENGYUN 3D
#almurnet v.1.7.20251203
#Start time: 2026-01-28 04:45:09

#Version: 2.2.20231116
#Station: R3.2S_Murmansk
#Location: 33.079688 lon 68.888172 lat
#TLE: 1 43010U 17072A   26027.26653803  .00000472  00000+0  24513-3 0  9995
#TLE: 2 43010  98.9961 359.2743 0002530  88.0161 272.1305 14.19701760424993

#Time	Az	El	Level	Level2	SNR	BER	BlckErr	Temp	State	Recorded	gain1	gain2
2026-01-28 04:45:09.12	35.60	2.05	-52.9	-64.8	3.8	8.46e-01	0	41	0	0	76	14994
2026-01-28 04:45:10.12	35.56	2.11	-52.9	-64.8	3.8	8.47e-01	0	41	104	0	76	15031
2026-01-28 04:45:11.13	35.51	2.17	-52.9	-64.8	3.8	8.46e-01	0	41	104	0	76	14985
2026-01-28 04:45:12.13	35.47	2.23	-52.9	-64.8	3.8	8.46e-01	0	41	104	0	76	14994
2026-01-28 04:45:13.14	35.43	2.30	-52.9	-64.8	3.8	8.46e-01	0	41	104	0	76	14981
2026-01-28 04:45:14.15	35.39	2.36	-52.9	-64.8	3.8	8.46e-01	0	41	104	0	76	14942
2026-01-28 04:45:15.16	35.35	2.42	-52.9	-64.8	3.8	8.46e-01	0	41	104	0	76	14959
2026-01-28 04:45:16.16	35.31	2.48	-52.9	-64.8	3.8	8.46e-01	0	41	104	0	76	14941
2026-01-28 04:45:17.17	35.27	2.55	-52.9	-64.8	3.8	8.46e-01	0	41	104	0	76	14988
2026-01-28 04:45:18.18	35.22	2.61	-52.9	-64.8	3.8	8.46e-01	0	41	104	0	76	15002
2026-01-28 04:45:19.19	35.18	2.67	-52.9	-64.8	3.8	8.46e-01	0	41	104	0	76	14964
2026-01-28 04:45:20.19	35.14	2.73	-52.9	-64.8	3.8	8.46e-01	0	42	104	0	76	14962
2026-01-28 04:45:21.20	35.10	2.80	-52.9	-64.8	3.8	8.46e-01	0	41	104	0	76	14944
2026-01-28 04:45:22.21	35.06	2.86	-52.9	-64.8	3.8	8.48e-01	0	42	104	0	76	14982
2026-01-28 04:45:23.22	35.01	2.92	-52.9	-64.8	3.8	8.46e-01	0	42	104	0	76	14916
2026-01-28 04:45:24.23	34.97	2.99	-52.9	-64.8	3.8	8.45e-01	0	41	104	0	76	14999
2026-01-28 04:45:25.24	34.93	3.05	-52.9	-64.8	3.8	8.46e-01	0	42	104	0	76	14958
2026-01-28 04:45:26.25	34.88	3.11	-52.9	-64.8	3.8	8.46e-01	0	42	104	0	76	14969
2026-01-28 04:45:27.26	34.84	3.18	-52.9	-64.8	3.8	8.46e-01	0	42	104	0	76	14954
2026-01-28 04:45:28.27	34.79	3.24	-52.9	-64.8	3.8	8.46e-01	0	42	104	0	76	14968
2026-01-28 04:45:29.27	34.75	3.31	-52.9	-64.8	3.8	8.44e-01	0	42	104	0	76	14973
2026-01-28 04:45:30.28	34.71	3.37	-52.9	-64.8	3.8	8.45e-01	0	42	104	0	76	14989
2026-01-28 04:45:31.29	34.66	3.44	-52.9	-64.8	3.8	8.47e-01	0	42	104	0	76	14934
2026-01-28 04:45:32.30	34.62	3.50	-52.9	-64.8	3.8	8.46e-01	0	42	104	0	76	14916
2026-01-28 04:45:33.31	34.57	3.56	-52.9	-64.8	3.8	8.47e-01	0	42	104	0	76	14959
2026-01-28 04:45:34.32	34.53	3.63	-52.9	-64.8	3.8	8.45e-01	0	42	104	0	76	14964
2026-01-28 04:45:35.33	34.48	3.69	-52.9	-64.8	3.8	8.46e-01	0	42	104	0	76	14999
2026-01-28 04:45:36.33	34.43	3.76	-52.9	-64.8	3.8	8.46e-01	0	42	104	0	76	14940
2026-01-28 04:45:37.34	34.39	3.82	-52.9	-64.8	3.8	8.46e-01	0	42	104	0	76	14982
2026-01-28 04:45:38.34	34.34	3.89	-52.9	-64.8	3.8	8.46e-01	0	42	104	0	76	14944
2026-01-28 04:45:39.35	34.30	3.95	-52.9	-64.8	3.8	8.46e-01	0	42	104	0	76	14980
2026-01-28 04:45:40.36	34.25	4.02	-52.9	-64.8	3.8	8.47e-01	0	42	104	0	76	14987
2026-01-28 04:45:41.37	34.20	4.09	-52.9	-64.8	3.8	8.45e-01	0	42	104	0	76	15001
2026-01-28 04:45:42.37	34.16	4.15	-52.9	-64.8	3.8	8.45e-01	0	42	104	0	76	15006
2026-01-28 04:45:43.38	34.11	4.22	-52.9	-64.8	3.8	8.46e-01	0	42	104	0	76	14996
2026-01-28 04:45:44.39	34.06	4.28	-52.9	-64.8	3.8	8.46e-01	0	42	104	0	76	14936
2026-01-28 04:45:45.40	34.01	4.35	-52.9	-64.8	3.8	8.47e-01	0	42	104	0	76	14983
2026-01-28 04:45:46.41	33.96	4.42	-52.9	-64.8	3.8	8.46e-01	0	42	104	0	76	14934
2026-01-28 04:45:47.41	33.92	4.48	-52.9	-64.8	3.8	8.46e-01	0	42	104	0	76	14994
2026-01-28 04:45:48.42	33.87	4.55	-52.9	-64.8	3.8	8.45e-01	0	42	104	0	76	14990
2026-01-28 04:45:49.43	33.82	4.62	-52.9	-64.8	3.8	8.46e-01	0	42	104	0	76	14998
2026-01-28 04:45:50.44	33.77	4.68	-52.9	-64.8	3.8	8.45e-01	0	42	104	0	76	14976
2026-01-28 04:45:51.45	33.72	4.75	-52.9	-64.8	3.8	8.46e-01	0	42	104	0	76	14959
2026-01-28 04:45:52.45	33.67	4.82	-52.9	-64.8	3.8	8.46e-01	0	42	104	0	76	14967
2026-01-28 04:45:53.46	33.62	4.89	-52.9	-64.8	3.8	8.46e-01	0	42	104	0	76	14975
2026-01-28 04:45:54.47	33.57	4.95	-52.9	-64.8	3.8	8.46e-01	0	42	104	0	76	14960
2026-01-28 04:45:55.48	33.52	5.02	-52.9	-64.8	3.8	8.46e-01	0	42	104	0	76	14978
2026-01-28 04:45:56.49	33.47	5.09	-52.9	-64.8	3.8	8.46e-01	0	42	104	0	76	14971
2026-01-28 04:45:57.50	33.42	5.16	-52.9	-64.8	3.8	8.46e-01	0	42	104	0	76	14962
2026-01-28 04:45:58.50	33.37	5.23	-52.9	-64.8	3.8	8.46e-01	0	42	104	0	76	14948
2026-01-28 04:45:59.51	33.32	5.29	-52.9	-64.8	3.8	8.46e-01	0	42	104	0	76	14949
2026-01-28 04:46:00.52	33.27	5.36	-52.9	-64.8	3.8	8.47e-01	0	42	104	0	76	14988
2026-01-28 04:46:01.52	33.22	5.43	-52.9	-64.8	3.8	8.46e-01	0	42	104	0	76	14972
2026-01-28 04:46:02.52	33.16	5.50	-52.9	-64.8	3.8	8.47e-01	0	42	104	0	76	14963
2026-01-28 04:46:03.53	33.11	5.57	-52.9	-64.8	3.8	8.46e-01	0	42	104	0	76	14973
2026-01-28 04:46:04.54	33.06	5.64	-52.9	-64.8	3.8	8.44e-01	0	42	104	0	76	14969
2026-01-28 04:46:05.55	33.01	5.71	-52.9	-64.8	3.8	8.47e-01	0	42	104	0	76	14970
2026-01-28 04:46:06.55	32.95	5.78	-52.9	-64.8	3.8	8.46e-01	0	42	104	0	76	14982
2026-01-28 04:46:07.56	32.90	5.85	-52.9	-64.8	3.8	8.46e-01	0	42	104	0	76	14962
2026-01-28 04:46:08.57	32.85	5.92	-52.9	-64.8	3.8	8.46e-01	0	42	104	0	76	14989
2026-01-28 04:46:09.58	32.79	5.99	-52.9	-64.8	3.8	8.45e-01	0	42	104	0	76	14966
2026-01-28 04:46:10.58	32.74	6.06	-52.9	-64.8	3.8	8.47e-01	0	42	104	0	76	14994
2026-01-28 04:46:11.59	32.68	6.13	-52.9	-64.8	3.8	8.46e-01	0	43	104	0	76	15018
2026-01-28 04:46:12.60	32.63	6.20	-52.9	-64.8	3.8	8.46e-01	0	42	104	0	76	15000
2026-01-28 04:46:13.61	32.57	6.27	-52.9	-64.8	3.8	8.47e-01	0	42	104	0	76	14958
2026-01-28 04:46:14.62	32.52	6.34	-52.9	-64.8	3.8	8.46e-01	0	42	104	0	76	14998
2026-01-28 04:46:15.63	32.46	6.41	-52.9	-64.8	3.8	8.46e-01	0	42	104	0	76	14974
2026-01-28 04:46:16.64	32.41	6.48	-52.9	-64.8	3.8	8.46e-01	0	43	104	0	76	14937
2026-01-28 04:46:17.64	32.35	6.55	-52.9	-64.8	3.8	8.47e-01	0	42	104	0	76	14952
2026-01-28 04:46:18.65	32.29	6.62	-52.9	-64.8	3.8	8.46e-01	0	42	104	0	76	14975
2026-01-28 04:46:19.66	32.24	6.69	-52.9	-64.8	3.8	8.46e-01	0	43	104	0	76	14997
2026-01-28 04:46:20.67	32.18	6.77	-52.9	-64.8	3.8	8.46e-01	0	43	104	0	76	14974
2026-01-28 04:46:21.68	32.12	6.84	-52.9	-64.8	3.8	8.47e-01	0	43	104	0	76	15019
2026-01-28 04:46:22.68	32.07	6.91	-52.9	-64.8	3.8	8.45e-01	0	43	104	0	76	14960
2026-01-28 04:46:23.69	32.01	6.98	-52.9	-64.8	3.8	8.46e-01	0	42	104	0	76	14941
2026-01-28 04:46:24.70	31.95	7.05	-52.9	-64.8	3.8	8.46e-01	0	43	104	0	76	14966
2026-01-28 04:46:25.71	31.89	7.13	-52.9	-64.8	3.8	8.47e-01	0	43	104	0	76	14973
2026-01-28 04:46:26.72	31.83	7.20	-52.9	-64.8	3.8	8.46e-01	0	42	104	0	76	14917
2026-01-28 04:46:27.72	31.77	7.27	-52.9	-64.8	3.8	8.46e-01	0	43	104	0	76	14929
2026-01-28 04:46:28.73	31.71	7.35	-52.9	-64.8	3.8	8.47e-01	0	43	104	0	76	14938
2026-01-28 04:46:29.73	31.65	7.42	-52.9	-64.8	3.8	8.46e-01	0	43	104	0	76	14959
2026-01-28 04:46:30.74	31.59	7.49	-52.9	-64.8	3.8	8.47e-01	0	43	104	0	76	14965
2026-01-28 04:46:31.74	31.53	7.57	-52.9	-64.8	3.8	8.47e-01	0	43	104	0	76	14967
2026-01-28 04:46:32.75	31.47	7.64	-52.9	-64.8	3.8	8.45e-01	0	43	104	0	76	14950
2026-01-28 04:46:33.76	31.41	7.71	-52.9	-64.8	3.8	8.45e-01	0	42	104	0	76	14950
2026-01-28 04:46:34.77	31.35	7.79	-52.9	-64.8	3.8	8.46e-01	0	43	104	0	76	14985
2026-01-28 04:46:35.77	31.29	7.86	-52.9	-64.8	3.8	8.46e-01	0	43	104	0	76	14925
2026-01-28 04:46:36.79	31.22	7.94	-52.9	-64.8	3.8	8.46e-01	0	43	104	0	76	14974
2026-01-28 04:46:37.79	31.16	8.01	-52.9	-64.8	3.8	8.46e-01	0	43	104	0	76	15003
2026-01-28 04:46:38.79	31.10	8.09	-52.9	-64.8	3.8	8.46e-01	0	43	104	0	76	14972
2026-01-28 04:46:39.80	31.04	8.16	-52.9	-64.8	3.8	8.47e-01	0	43	104	0	76	14976
2026-01-28 04:46:40.81	30.97	8.24	-52.9	-64.8	3.8	8.45e-01	0	43	104	0	76	15000
2026-01-28 04:46:41.82	30.91	8.31	-52.9	-64.8	3.8	8.48e-01	0	43	104	0	76	14978
2026-01-28 04:46:42.82	30.84	8.39	-52.9	-64.8	3.8	8.45e-01	0	43	104	0	76	15018
2026-01-28 04:46:43.82	30.78	8.46	-52.9	-64.8	3.8	8.47e-01	0	43	104	0	76	15015
2026-01-28 04:46:44.83	30.72	8.54	-52.9	-64.8	3.8	8.45e-01	0	43	104	0	76	15019
2026-01-28 04:46:45.84	30.65	8.62	-52.9	-64.8	3.8	8.44e-01	0	43	104	0	76	14940
2026-01-28 04:46:46.85	30.58	8.69	-52.9	-64.8	3.8	8.46e-01	0	43	104	0	76	14991
2026-01-28 04:46:47.85	30.52	8.77	-52.9	-64.8	3.8	8.46e-01	0	43	104	0	76	14991
2026-01-28 04:46:48.86	30.45	8.85	-52.9	-64.8	3.8	8.45e-01	0	43	104	0	76	14965
2026-01-28 04:46:49.87	30.39	8.92	-52.9	-64.8	3.8	8.47e-01	0	43	104	0	76	14937
2026-01-28 04:46:50.88	30.32	9.00	-52.9	-64.8	3.8	8.46e-01	0	43	104	0	76	14999
2026-01-28 04:46:51.89	30.25	9.08	-52.9	-64.8	3.8	8.47e-01	0	43	104	0	76	14995
2026-01-28 04:46:52.89	30.18	9.16	-52.9	-64.8	3.8	8.45e-01	0	43	104	0	76	14955
2026-01-28 04:46:53.90	30.11	9.23	-52.9	-64.8	3.8	8.45e-01	0	43	104	0	76	14978
2026-01-28 04:46:54.91	30.05	9.31	-52.9	-64.8	3.8	8.46e-01	0	43	104	0	76	14999
2026-01-28 04:46:55.92	29.98	9.39	-52.9	-64.8	3.8	8.46e-01	0	43	104	0	76	15001
2026-01-28 04:46:56.93	29.91	9.47	-52.9	-64.8	3.8	8.46e-01	0	43	104	0	76	14970
2026-01-28 04:46:57.93	29.84	9.55	-52.9	-64.8	3.8	8.46e-01	0	43	104	0	76	14942
2026-01-28 04:46:58.94	29.77	9.63	-52.9	-64.8	3.8	8.46e-01	0	43	104	0	76	14986
2026-01-28 04:46:59.95	29.70	9.71	-52.9	-64.8	3.8	8.47e-01	0	43	104	0	76	14999
2026-01-28 04:47:00.96	29.62	9.79	-52.9	-64.8	3.8	8.46e-01	0	43	104	0	76	14976
2026-01-28 04:47:01.97	29.55	9.87	-52.9	-64.8	3.8	8.46e-01	0	43	104	0	76	15002
2026-01-28 04:47:02.98	29.48	9.95	-52.9	-64.8	3.8	8.46e-01	0	43	104	0	76	14982
2026-01-28 04:47:03.99	29.41	10.03	-52.9	-64.8	3.8	8.46e-01	0	43	104	0	76	14971
2026-01-28 04:47:05.00	29.34	10.11	-52.9	-64.8	3.8	8.46e-01	0	43	104	0	76	14985
2026-01-28 04:47:06.01	29.26	10.19	-52.9	-64.8	3.8	8.46e-01	0	43	104	0	76	14992
2026-01-28 04:47:07.02	29.19	10.27	-52.9	-64.8	3.8	8.47e-01	0	43	104	0	76	14964
2026-01-28 04:47:08.02	29.12	10.35	-52.9	-64.8	3.8	8.47e-01	0	43	104	0	76	14978
2026-01-28 04:47:09.03	29.04	10.43	-52.9	-64.8	3.8	8.46e-01	0	43	104	0	76	15009
2026-01-28 04:47:10.04	28.97	10.51	-52.9	-64.8	3.8	8.46e-01	0	43	104	0	76	14967
2026-01-28 04:47:11.04	28.89	10.59	-52.9	-64.8	3.8	8.46e-01	0	43	104	0	76	14971
2026-01-28 04:47:12.05	28.81	10.67	-52.9	-64.8	3.8	8.46e-01	0	43	104	0	76	14967
2026-01-28 04:47:13.06	28.74	10.75	-52.9	-64.8	3.8	8.46e-01	0	43	104	0	76	14982
2026-01-28 04:47:14.07	28.66	10.84	-52.9	-64.8	3.8	8.47e-01	0	43	104	0	76	15000
2026-01-28 04:47:15.08	28.58	10.92	-52.9	-64.8	3.8	8.46e-01	0	43	104	0	76	14943
2026-01-28 04:47:16.09	28.51	11.00	-52.9	-64.8	3.8	8.46e-01	0	43	104	0	76	14956
2026-01-28 04:47:17.10	28.43	11.09	-52.9	-64.8	3.8	8.46e-01	0	43	104	0	76	14997
2026-01-28 04:47:18.11	28.35	11.17	-52.9	-64.8	3.8	8.45e-01	0	43	104	0	76	14965
2026-01-28 04:47:19.11	28.27	11.25	-52.9	-64.8	3.8	8.46e-01	0	43	104	0	76	14942
2026-01-28 04:47:20.12	28.19	11.33	-52.9	-64.8	3.8	8.47e-01	0	43	104	0	76	14971
2026-01-28 04:47:21.12	28.11	11.42	-52.9	-64.8	3.8	8.46e-01	0	43	104	0	76	14954
2026-01-28 04:47:22.13	28.03	11.50	-52.9	-64.8	3.8	8.47e-01	0	43	104	0	76	14982
2026-01-28 04:47:23.13	27.95	11.59	-52.9	-64.8	3.8	8.46e-01	0	43	104	0	76	14977
2026-01-28 04:47:24.14	27.87	11.67	-52.9	-64.8	3.8	8.47e-01	0	43	104	0	76	14977
2026-01-28 04:47:25.15	27.79	11.76	-52.9	-64.8	3.8	8.46e-01	0	43	104	0	76	14946
2026-01-28 04:47:26.16	27.71	11.84	-52.9	-64.8	3.8	8.47e-01	0	43	104	0	76	14994
2026-01-28 04:47:27.16	27.62	11.92	-52.9	-64.8	3.8	8.46e-01	0	43	104	0	76	14976
2026-01-28 04:47:28.17	27.54	12.01	-52.9	-64.8	3.8	8.46e-01	0	43	104	0	76	14987
2026-01-28 04:47:29.18	27.46	12.10	-52.9	-64.8	3.8	8.47e-01	0	43	104	0	76	14908
2026-01-28 04:47:30.19	27.37	12.18	-52.9	-64.8	3.8	8.46e-01	0	43	104	0	76	15033
2026-01-28 04:47:31.20	27.29	12.27	-52.9	-64.8	3.8	8.45e-01	0	43	104	0	76	14970
2026-01-28 04:47:32.21	27.20	12.35	-52.9	-64.8	3.8	8.45e-01	0	43	104	0	76	14970
2026-01-28 04:47:33.21	27.12	12.44	-52.9	-64.8	3.8	8.47e-01	0	43	104	0	76	14989
2026-01-28 04:47:34.22	27.03	12.53	-52.9	-64.8	3.8	8.47e-01	0	43	104	0	76	15003
2026-01-28 04:47:35.23	26.94	12.61	-52.9	-64.8	3.8	8.46e-01	0	43	104	0	76	14945
2026-01-28 04:47:36.23	26.85	12.70	-52.9	-64.8	3.8	8.45e-01	0	43	104	0	76	14960
2026-01-28 04:47:37.24	26.77	12.79	-52.9	-64.8	3.8	8.46e-01	0	43	104	0	76	14965
2026-01-28 04:47:38.25	26.68	12.88	-52.9	-64.8	3.8	8.46e-01	0	43	104	0	76	15007
2026-01-28 04:47:39.26	26.59	12.97	-52.9	-64.8	3.8	8.46e-01	0	43	104	0	76	14965
2026-01-28 04:47:40.27	26.50	13.05	-52.9	-64.8	3.8	8.47e-01	0	43	104	0	76	14936
2026-01-28 04:47:41.28	26.41	13.14	-52.9	-64.8	3.8	8.46e-01	0	43	104	0	76	14982
2026-01-28 04:47:42.29	26.32	13.23	-52.9	-64.8	3.8	8.47e-01	0	43	104	0	76	14948
2026-01-28 04:47:43.29	26.23	13.32	-52.9	-64.8	3.8	8.46e-01	0	43	104	0	76	14980
2026-01-28 04:47:44.30	26.13	13.41	-52.9	-64.8	3.8	8.46e-01	0	43	104	0	76	14986
2026-01-28 04:47:45.31	26.04	13.50	-52.9	-64.8	3.8	8.46e-01	0	43	104	0	76	15012
2026-01-28 04:47:46.32	25.95	13.59	-52.9	-64.8	3.8	8.47e-01	0	43	104	0	76	14992
2026-01-28 04:47:47.33	25.85	13.68	-52.9	-64.8	3.8	8.46e-01	0	43	104	0	76	14992
2026-01-28 04:47:48.33	25.76	13.77	-52.9	-64.8	3.8	8.46e-01	0	43	104	0	76	14953
2026-01-28 04:47:49.34	25.66	13.86	-52.9	-64.8	3.8	8.46e-01	0	43	104	0	76	14924
2026-01-28 04:47:50.35	25.57	13.95	-52.9	-64.8	3.8	8.45e-01	0	43	104	0	76	14996
2026-01-28 04:47:51.36	25.47	14.04	-52.9	-64.8	3.8	8.47e-01	0	43	104	0	76	14979
2026-01-28 04:47:52.36	25.38	14.13	-52.9	-64.8	3.8	8.45e-01	0	43	104	0	76	14986
2026-01-28 04:47:53.37	25.28	14.22	-52.9	-64.8	3.8	8.46e-01	0	43	104	0	76	14945
2026-01-28 04:47:54.38	25.18	14.32	-52.9	-64.8	3.8	8.47e-01	0	43	104	0	76	14963
2026-01-28 04:47:55.39	25.08	14.41	-52.9	-64.8	3.8	8.46e-01	0	43	104	0	76	14975
2026-01-28 04:47:56.40	24.98	14.50	-52.9	-64.8	3.8	8.45e-01	0	43	104	0	76	14928
2026-01-28 04:47:57.41	24.88	14.59	-52.9	-64.8	3.8	8.46e-01	0	43	104	0	76	14976
2026-01-28 04:47:58.41	24.78	14.69	-52.9	-64.8	3.8	8.46e-01	0	43	104	0	76	14963
2026-01-28 04:47:59.42	24.68	14.78	-52.9	-64.8	3.8	8.46e-01	0	43	104	0	76	14978
2026-01-28 04:48:00.43	24.58	14.87	-52.9	-64.8	3.8	8.45e-01	0	43	104	0	76	14989
2026-01-28 04:48:01.43	24.48	14.97	-52.9	-64.8	3.8	8.45e-01	0	43	104	0	76	14965
2026-01-28 04:48:02.44	24.37	15.06	-52.9	-64.8	3.8	8.46e-01	0	43	104	0	76	14936
2026-01-28 04:48:03.44	24.27	15.15	-52.9	-64.8	3.8	8.46e-01	0	43	104	0	76	14976
2026-01-28 04:48:04.45	24.17	15.25	-52.9	-64.8	3.8	8.46e-01	0	43	104	0	76	14928
2026-01-28 04:48:05.46	24.06	15.34	-52.9	-64.8	3.8	8.46e-01	0	43	104	0	76	14962
2026-01-28 04:48:06.46	23.95	15.44	-52.9	-64.8	3.8	8.46e-01	0	43	104	0	76	14979
2026-01-28 04:48:07.47	23.85	15.53	-52.9	-64.8	3.8	8.46e-01	0	43	104	0	76	14996
2026-01-28 04:48:08.48	23.74	15.63	-52.9	-64.8	3.8	8.47e-01	0	43	104	0	76	14960
2026-01-28 04:48:09.49	23.63	15.72	-52.9	-64.8	3.8	8.45e-01	0	43	104	0	76	14960
2026-01-28 04:48:10.50	23.52	15.82	-52.9	-64.8	3.8	8.46e-01	0	43	104	0	76	15001
2026-01-28 04:48:11.51	23.41	15.92	-52.9	-64.8	3.8	8.46e-01	0	43	104	0	76	14979
2026-01-28 04:48:12.52	23.30	16.01	-52.9	-64.8	3.8	8.46e-01	0	43	104	0	76	14988
2026-01-28 04:48:13.53	23.19	16.11	-52.9	-64.8	3.8	8.47e-01	0	43	104	0	76	14974
2026-01-28 04:48:14.53	23.08	16.21	-52.9	-64.8	3.8	8.46e-01	0	43	104	0	76	14943
2026-01-28 04:48:15.54	22.97	16.30	-52.9	-64.8	3.8	8.46e-01	0	43	104	0	76	14985
2026-01-28 04:48:16.55	22.85	16.40	-52.9	-64.8	3.8	8.47e-01	0	43	104	0	76	14997
2026-01-28 04:48:17.55	22.74	16.50	-52.9	-64.8	3.8	8.46e-01	0	43	104	0	76	14942
2026-01-28 04:48:18.56	22.63	16.60	-52.9	-64.8	3.8	8.47e-01	0	43	104	0	76	14943
2026-01-28 04:48:19.57	22.51	16.70	-52.9	-64.8	3.8	8.46e-01	0	43	104	0	76	14944
2026-01-28 04:48:20.58	22.39	16.80	-52.9	-64.8	3.8	8.47e-01	0	43	104	0	76	14976
2026-01-28 04:48:21.59	22.28	16.90	-52.9	-64.8	3.8	8.45e-01	0	43	104	0	76	14992
2026-01-28 04:48:22.59	22.16	16.99	-52.9	-64.8	3.8	8.46e-01	0	43	104	0	76	15017
2026-01-28 04:48:23.60	22.04	17.09	-52.9	-64.8	3.8	8.46e-01	0	43	104	0	76	14953
2026-01-28 04:48:24.61	21.92	17.19	-52.9	-64.8	3.8	8.45e-01	0	43	104	0	76	14979
2026-01-28 04:48:25.62	21.80	17.29	-52.9	-64.8	3.8	8.46e-01	0	43	104	0	76	14966
2026-01-28 04:48:26.63	21.68	17.40	-52.9	-64.8	3.8	8.46e-01	0	43	104	0	76	14972
2026-01-28 04:48:27.64	21.56	17.50	-52.9	-64.8	3.8	8.46e-01	0	43	104	0	76	14980
2026-01-28 04:48:28.64	21.43	17.60	-52.9	-64.8	3.8	8.46e-01	0	43	104	0	76	14946
2026-01-28 04:48:29.65	21.31	17.70	-52.9	-64.8	3.8	8.45e-01	0	43	104	0	76	14989
2026-01-28 04:48:30.66	21.19	17.80	-52.9	-64.8	3.8	8.46e-01	0	43	104	0	76	14959
2026-01-28 04:48:31.67	21.06	17.90	-52.9	-64.8	3.8	8.45e-01	0	43	104	0	76	14977
2026-01-28 04:48:32.68	20.93	18.00	-52.9	-64.8	3.8	8.46e-01	0	43	104	0	76	15007
2026-01-28 04:48:33.69	20.81	18.11	-52.9	-64.8	3.8	8.45e-01	0	43	104	0	76	14986
2026-01-28 04:48:34.69	20.68	18.21	-52.9	-64.8	3.8	8.47e-01	0	43	104	0	76	14965
2026-01-28 04:48:35.71	20.55	18.31	-52.9	-64.8	3.8	8.45e-01	0	43	104	0	76	14971
2026-01-28 04:48:36.71	20.42	18.42	-52.9	-64.8	3.8	8.47e-01	0	43	104	0	76	14970
2026-01-28 04:48:37.72	20.29	18.52	-52.9	-64.8	3.8	8.47e-01	0	43	104	0	76	14983
2026-01-28 04:48:38.72	20.16	18.62	-52.9	-64.8	3.8	8.46e-01	0	43	104	0	76	14938
2026-01-28 04:48:39.73	20.02	18.73	-52.9	-64.8	3.8	8.45e-01	0	43	104	0	76	14942
2026-01-28 04:48:40.73	19.89	18.83	-52.9	-64.8	3.8	8.47e-01	0	43	104	0	76	14980
2026-01-28 04:48:41.74	19.76	18.93	-52.9	-64.8	3.8	8.47e-01	0	43	104	0	76	14964
2026-01-28 04:48:42.75	19.62	19.04	-52.9	-64.8	3.8	8.46e-01	0	43	104	0	76	14953
2026-01-28 04:48:43.76	19.48	19.15	-52.9	-64.8	3.8	8.47e-01	0	43	104	0	76	14965
2026-01-28 04:48:44.77	19.35	19.25	-52.9	-64.8	3.8	8.45e-01	0	43	104	0	76	14992
2026-01-28 04:48:45.77	19.21	19.36	-52.9	-64.8	3.8	8.46e-01	0	43	104	0	76	14981
2026-01-28 04:48:46.78	19.07	19.46	-52.9	-64.8	3.8	8.46e-01	0	43	104	0	76	14943
2026-01-28 04:48:47.79	18.93	19.57	-52.9	-64.8	3.8	8.46e-01	0	43	104	0	76	14920
2026-01-28 04:48:48.79	18.79	19.67	-52.9	-64.8	3.8	8.48e-01	0	43	104	0	76	14952
2026-01-28 04:48:49.80	18.65	19.78	-52.9	-64.8	3.8	8.46e-01	0	43	104	0	76	14943
2026-01-28 04:48:50.81	18.50	19.89	-52.9	-64.8	3.8	8.47e-01	0	43	104	0	76	14962
2026-01-28 04:48:51.82	18.36	20.00	-52.9	-64.8	3.8	8.46e-01	0	43	104	0	76	14974
2026-01-28 04:48:52.83	18.21	20.10	-52.9	-64.8	3.8	8.47e-01	0	43	104	0	76	14968
2026-01-28 04:48:53.83	18.07	20.21	-52.9	-64.8	3.8	8.46e-01	0	43	104	0	76	14969
2026-01-28 04:48:54.84	17.92	20.32	-52.9	-64.8	3.8	8.45e-01	0	43	104	0	76	14972
2026-01-28 04:48:55.85	17.77	20.43	-52.9	-64.8	3.8	8.46e-01	0	43	104	0	76	14980
2026-01-28 04:48:56.86	17.62	20.54	-52.9	-64.8	3.8	8.46e-01	0	43	104	0	76	14937
2026-01-28 04:48:57.87	17.47	20.65	-52.9	-64.8	3.8	8.45e-01	0	43	104	0	76	15035
2026-01-28 04:48:58.88	17.32	20.76	-52.9	-64.8	3.8	8.45e-01	0	43	104	0	76	14966
2026-01-28 04:48:59.89	17.16	20.86	-52.9	-64.8	3.8	8.46e-01	0	43	104	0	76	15023
2026-01-28 04:49:00.89	17.01	20.97	-52.9	-64.8	3.8	8.47e-01	0	43	104	0	76	14956
2026-01-28 04:49:01.90	16.85	21.08	-52.9	-64.8	3.8	8.46e-01	0	43	104	0	76	14926
2026-01-28 04:49:02.91	16.70	21.19	-52.9	-64.8	3.8	8.47e-01	0	43	104	0	76	14958
2026-01-28 04:49:03.91	16.54	21.30	-52.9	-64.8	3.8	8.45e-01	0	43	104	0	76	14970
2026-01-28 04:49:04.92	16.38	21.41	-52.9	-64.8	3.8	8.47e-01	0	43	104	0	76	14977
2026-01-28 04:49:05.93	16.22	21.53	-52.9	-64.8	3.8	8.47e-01	0	43	104	0	76	14994
2026-01-28 04:49:06.94	16.06	21.64	-52.9	-64.8	3.8	8.47e-01	0	43	104	0	76	14934
2026-01-28 04:49:07.95	15.90	21.75	-52.9	-64.8	3.8	8.47e-01	0	43	104	0	76	14928
2026-01-28 04:49:08.95	15.74	21.86	-52.9	-64.8	3.8	8.46e-01	0	43	104	0	76	15020
2026-01-28 04:49:09.96	15.57	21.97	-52.9	-64.8	3.8	8.46e-01	0	43	104	0	76	14968
2026-01-28 04:49:10.97	15.40	22.08	-52.9	-64.8	3.8	8.46e-01	0	43	104	0	76	14964
2026-01-28 04:49:11.98	15.24	22.20	-52.9	-64.8	3.8	8.47e-01	0	43	104	0	76	14977
2026-01-28 04:49:12.99	15.07	22.31	-52.9	-64.8	3.8	8.47e-01	0	43	104	0	76	14963
2026-01-28 04:49:14.00	14.90	22.42	-52.9	-64.8	3.8	8.47e-01	0	43	104	0	76	14975
2026-01-28 04:49:15.00	14.73	22.53	-52.9	-64.8	3.8	8.46e-01	0	43	104	0	76	14970
2026-01-28 04:49:16.01	14.56	22.65	-52.9	-64.8	3.8	8.45e-01	0	43	104	0	76	14950
2026-01-28 04:49:17.02	14.38	22.76	-52.9	-64.8	3.8	8.45e-01	0	43	104	0	76	14986
2026-01-28 04:49:18.03	14.21	22.88	-52.9	-64.8	3.8	8.47e-01	0	43	104	0	76	14977
2026-01-28 04:49:19.04	14.03	22.99	-52.9	-64.8	3.8	8.45e-01	0	43	104	0	76	15011
2026-01-28 04:49:20.05	13.85	23.10	-52.9	-64.8	3.8	8.47e-01	0	43	104	0	76	14977
2026-01-28 04:49:21.05	13.68	23.22	-52.9	-64.8	3.8	8.46e-01	0	43	104	0	76	14945
2026-01-28 04:49:22.06	13.50	23.33	-52.9	-64.8	3.8	8.47e-01	0	43	104	0	76	14964
2026-01-28 04:49:23.07	13.32	23.45	-52.9	-64.8	3.8	8.47e-01	0	43	104	0	76	14992
2026-01-28 04:49:24.08	13.13	23.56	-52.9	-64.8	3.8	8.47e-01	0	43	104	0	76	14949
2026-01-28 04:49:25.09	12.95	23.68	-52.9	-64.8	3.8	8.47e-01	0	43	104	0	76	14969
2026-01-28 04:49:26.10	12.76	23.79	-52.9	-64.8	3.8	8.46e-01	0	43	104	0	76	14986
2026-01-28 04:49:27.10	12.58	23.91	-52.9	-64.8	3.8	8.46e-01	0	43	104	0	76	14981
2026-01-28 04:49:28.11	12.39	24.02	-52.9	-64.8	3.8	8.46e-01	0	43	104	0	76	14925
2026-01-28 04:49:29.12	12.20	24.14	-52.9	-64.8	3.8	8.46e-01	0	43	104	0	76	14945
2026-01-28 04:49:30.13	12.01	24.26	-52.9	-64.8	3.8	8.46e-01	0	43	104	0	76	14986
2026-01-28 04:49:31.13	11.82	24.37	-52.9	-64.8	3.8	8.45e-01	0	43	104	0	76	14962
2026-01-28 04:49:32.14	11.62	24.49	-52.9	-64.8	3.8	8.46e-01	0	43	104	0	76	14971
2026-01-28 04:49:33.15	11.43	24.61	-52.9	-64.8	3.8	8.46e-01	0	43	104	0	76	14969
2026-01-28 04:49:34.15	11.23	24.72	-52.9	-64.8	3.8	8.46e-01	0	43	104	0	76	15012
2026-01-28 04:49:35.16	11.03	24.84	-52.9	-64.8	3.8	8.45e-01	0	43	104	0	76	15008
2026-01-28 04:49:36.17	10.83	24.96	-52.9	-64.8	3.8	8.47e-01	0	43	104	0	76	14951
2026-01-28 04:49:37.18	10.63	25.07	-52.9	-64.8	3.8	8.46e-01	0	43	104	0	76	14954
2026-01-28 04:49:38.19	10.43	25.19	-52.9	-64.8	3.8	8.46e-01	0	43	104	0	76	14943
2026-01-28 04:49:39.20	10.22	25.31	-52.9	-64.8	3.8	8.46e-01	0	43	104	0	76	14985
2026-01-28 04:49:40.21	10.01	25.43	-52.9	-64.8	3.8	8.47e-01	0	43	104	0	76	14924
2026-01-28 04:49:41.22	9.81	25.54	-52.9	-64.8	3.8	8.47e-01	0	43	104	0	76	14977
2026-01-28 04:49:42.22	9.60	25.66	-52.9	-64.8	3.8	8.46e-01	0	43	104	0	76	14903
2026-01-28 04:49:43.23	9.39	25.78	-52.9	-64.8	3.8	8.46e-01	0	43	104	0	76	14939
2026-01-28 04:49:44.24	9.18	25.90	-52.9	-64.8	3.8	8.46e-01	0	43	104	0	76	14967
2026-01-28 04:49:45.25	8.96	26.01	-52.9	-64.8	3.8	8.46e-01	0	43	104	0	76	14959
2026-01-28 04:49:46.25	8.75	26.13	-52.9	-64.8	3.8	8.46e-01	0	43	104	0	76	14964
2026-01-28 04:49:47.26	8.53	26.25	-52.9	-64.8	3.8	8.46e-01	0	43	104	0	76	15014
2026-01-28 04:49:48.27	8.31	26.37	-52.9	-64.8	3.8	8.46e-01	0	43	104	0	76	14954
2026-01-28 04:49:49.28	8.09	26.49	-52.9	-64.8	3.8	8.46e-01	0	43	104	0	76	14931
2026-01-28 04:49:50.29	7.87	26.60	-52.9	-64.8	3.8	8.46e-01	0	43	104	0	76	14933
2026-01-28 04:49:51.29	7.64	26.72	-52.9	-64.8	3.8	8.46e-01	0	43	104	0	76	14919
2026-01-28 04:49:52.30	7.42	26.84	-52.9	-64.8	3.8	8.46e-01	0	43	104	0	76	14965
2026-01-28 04:49:53.31	7.19	26.96	-52.9	-64.8	3.8	8.46e-01	0	43	104	0	76	14955
2026-01-28 04:49:54.32	6.96	27.08	-52.9	-64.8	3.8	8.46e-01	0	43	104	0	76	14961
2026-01-28 04:49:55.33	6.73	27.20	-52.9	-64.8	3.8	8.47e-01	0	43	104	0	76	14967
2026-01-28 04:49:56.33	6.50	27.31	-52.9	-64.8	3.8	8.46e-01	0	44	104	0	76	14940
2026-01-28 04:49:57.34	6.27	27.43	-52.9	-64.8	3.8	8.45e-01	0	43	104	0	76	14974
2026-01-28 04:49:58.35	6.03	27.55	-52.9	-64.8	3.8	8.46e-01	0	43	104	0	76	14929
2026-01-28 04:49:59.36	5.79	27.67	-52.9	-64.8	3.8	8.47e-01	0	43	104	0	76	14932
2026-01-28 04:50:00.37	5.55	27.79	-52.9	-64.8	3.8	8.46e-01	0	43	104	0	76	14977
2026-01-28 04:50:01.37	5.31	27.90	-52.9	-64.8	3.8	8.47e-01	0	43	104	0	76	14910
2026-01-28 04:50:02.38	5.07	28.02	-52.9	-64.8	3.8	8.46e-01	0	43	104	0	76	14904
2026-01-28 04:50:03.39	4.82	28.14	-52.9	-64.8	3.8	8.45e-01	0	43	104	0	76	14933
2026-01-28 04:50:04.40	4.58	28.26	-52.9	-64.8	3.8	8.46e-01	0	43	104	0	76	14902
2026-01-28 04:50:05.41	4.33	28.38	-52.9	-64.8	3.8	8.46e-01	0	43	104	0	76	14921
2026-01-28 04:50:06.41	4.08	28.49	-52.9	-64.8	3.8	8.46e-01	0	43	104	0	76	14932
2026-01-28 04:50:07.42	3.82	28.61	-52.9	-64.8	3.8	8.46e-01	0	43	104	0	76	14911
2026-01-28 04:50:08.43	3.57	28.73	-52.9	-64.8	3.8	8.46e-01	0	43	104	0	76	14985
2026-01-28 04:50:09.43	3.32	28.84	-52.9	-64.8	3.8	8.46e-01	0	43	104	0	76	14974
2026-01-28 04:50:10.44	3.06	28.96	-52.9	-64.8	3.8	8.45e-01	0	43	104	0	76	14970
2026-01-28 04:50:11.45	2.80	29.08	-52.9	-64.8	3.8	8.46e-01	0	43	104	0	76	14989
2026-01-28 04:50:12.46	2.53	29.20	-52.9	-64.8	3.8	8.46e-01	0	43	104	0	76	14949
2026-01-28 04:50:13.47	2.27	29.31	-52.9	-64.8	3.8	8.46e-01	0	43	104	0	76	14984
2026-01-28 04:50:14.47	2.01	29.43	-52.9	-64.8	3.8	8.46e-01	0	43	104	0	76	14952
2026-01-28 04:50:15.48	1.74	29.54	-52.9	-64.8	3.8	8.46e-01	0	43	104	0	76	14982
2026-01-28 04:50:16.49	1.47	29.66	-52.9	-64.8	3.8	8.47e-01	0	43	104	0	76	14975
2026-01-28 04:50:17.50	1.20	29.78	-52.9	-64.8	3.8	8.45e-01	0	44	104	0	76	14966
2026-01-28 04:50:18.51	0.92	29.89	-52.9	-64.8	3.8	8.47e-01	0	43	104	0	76	14979
2026-01-28 04:50:19.51	0.65	30.00	-52.9	-64.8	3.8	8.47e-01	0	43	104	0	76	14956
2026-01-28 04:50:20.53	0.37	30.12	-52.9	-64.8	3.8	8.47e-01	0	43	104	0	76	15036
2026-01-28 04:50:21.53	0.09	30.23	-52.9	-64.8	3.8	8.47e-01	0	43	104	0	76	14987
2026-01-28 04:50:22.54	359.81	30.35	-52.9	-64.8	3.8	8.46e-01	0	43	104	0	76	14953
2026-01-28 04:50:23.55	359.53	30.46	-52.9	-64.8	3.8	8.46e-01	0	43	104	0	76	14961
2026-01-28 04:50:24.56	359.24	30.58	-52.9	-64.8	3.8	8.47e-01	0	43	104	0	76	14951
2026-01-28 04:50:25.57	358.95	30.69	-52.9	-64.8	3.8	8.45e-01	0	43	104	0	76	14936
2026-01-28 04:50:26.57	358.66	30.80	-52.9	-64.8	3.8	8.45e-01	0	43	104	0	76	14957
2026-01-28 04:50:27.58	358.37	30.91	-52.9	-64.8	3.8	8.46e-01	0	43	104	0	76	14957
2026-01-28 04:50:28.59	358.08	31.03	-52.9	-64.8	3.8	8.47e-01	0	43	104	0	76	14944
2026-01-28 04:50:29.60	357.78	31.14	-52.9	-64.8	3.8	8.46e-01	0	43	104	0	76	14953
2026-01-28 04:50:30.61	357.48	31.25	-52.9	-64.8	3.8	8.46e-01	0	43	104	0	76	14922
2026-01-28 04:50:31.61	357.18	31.36	-52.9	-64.8	3.8	8.46e-01	0	43	104	0	76	14885
2026-01-28 04:50:32.62	356.88	31.47	-52.9	-64.8	3.8	8.46e-01	0	43	104	0	76	14958
2026-01-28 04:50:33.63	356.58	31.58	-52.9	-64.8	3.8	8.46e-01	0	43	104	0	76	14980
2026-01-28 04:50:34.64	356.27	31.69	-52.9	-64.8	3.8	8.46e-01	0	43	104	0	76	14996
2026-01-28 04:50:35.65	355.96	31.80	-52.9	-64.8	3.8	8.46e-01	0	43	104	0	76	14984
2026-01-28 04:50:36.65	355.65	31.90	-52.9	-64.8	3.8	8.47e-01	0	43	104	0	76	14972
2026-01-28 04:50:37.66	355.34	32.01	-52.9	-64.8	3.8	8.46e-01	0	43	104	0	76	14978
2026-01-28 04:50:38.67	355.03	32.12	-52.9	-64.8	3.8	8.45e-01	0	43	104	0	76	14980
2026-01-28 04:50:39.67	354.71	32.22	-52.9	-64.8	3.8	8.46e-01	0	43	104	0	76	14949
2026-01-28 04:50:40.68	354.39	32.33	-52.9	-64.8	3.8	8.47e-01	0	44	104	0	76	14945
2026-01-28 04:50:41.69	354.07	32.43	-52.9	-64.8	3.8	8.46e-01	0	43	104	0	76	14998
2026-01-28 04:50:42.70	353.75	32.54	-52.9	-64.8	3.8	8.47e-01	0	43	104	0	76	14933
2026-01-28 04:50:43.71	353.42	32.64	-52.9	-64.8	3.8	8.46e-01	0	43	104	0	76	14962
2026-01-28 04:50:44.72	353.10	32.75	-52.9	-64.8	3.8	8.45e-01	0	43	104	0	76	14915
2026-01-28 04:50:45.73	352.77	32.85	-52.9	-64.8	3.8	8.47e-01	0	43	104	0	76	14941
2026-01-28 04:50:46.74	352.43	32.95	-52.9	-64.8	3.8	8.45e-01	0	43	104	0	76	14969
2026-01-28 04:50:47.75	352.10	33.05	-52.9	-64.8	3.8	8.46e-01	0	43	104	0	76	14955
2026-01-28 04:50:48.75	351.77	33.15	-52.9	-64.8	3.8	8.46e-01	0	43	104	0	76	14896
2026-01-28 04:50:49.76	351.43	33.25	-52.9	-64.8	3.8	8.46e-01	0	43	104	0	76	14944
2026-01-28 04:50:50.76	351.09	33.35	-52.9	-64.8	3.8	8.45e-01	0	43	104	0	76	14928
2026-01-28 04:50:51.77	350.75	33.44	-52.9	-64.8	3.8	8.47e-01	0	43	104	0	76	14961
2026-01-28 04:50:52.78	350.41	33.54	-52.9	-64.8	3.8	8.47e-01	0	43	104	0	76	14921
2026-01-28 04:50:53.79	350.06	33.64	-52.9	-64.8	3.8	8.46e-01	0	43	104	0	76	14946
2026-01-28 04:50:54.80	349.71	33.73	-52.9	-64.8	3.8	8.47e-01	0	43	104	0	76	14952
2026-01-28 04:50:55.81	349.36	33.83	-52.9	-64.8	3.8	8.46e-01	0	43	104	0	76	14974
2026-01-28 04:50:56.82	349.01	33.92	-52.9	-64.8	3.8	8.46e-01	0	43	104	0	76	14965
2026-01-28 04:50:57.83	348.65	34.01	-52.9	-64.8	3.8	8.47e-01	0	43	104	0	76	14928
2026-01-28 04:50:58.83	348.30	34.10	-52.9	-64.8	3.8	8.46e-01	0	43	104	0	76	14927
2026-01-28 04:50:59.84	347.94	34.19	-52.9	-64.8	3.8	8.45e-01	0	43	104	0	76	14962
2026-01-28 04:51:00.84	347.58	34.28	-52.9	-64.8	3.8	8.46e-01	0	43	104	0	76	14967
2026-01-28 04:51:01.85	347.22	34.37	-52.9	-64.8	3.8	8.46e-01	0	43	104	0	76	14968
2026-01-28 04:51:02.86	346.86	34.46	-52.9	-64.8	3.8	8.46e-01	0	43	104	0	76	14962
2026-01-28 04:51:03.87	346.49	34.54	-52.9	-64.8	3.8	8.46e-01	0	43	104	0	76	14973
2026-01-28 04:51:04.87	346.13	34.63	-52.9	-64.8	3.8	8.47e-01	0	43	104	0	76	14892
2026-01-28 04:51:05.88	345.76	34.71	-52.9	-64.8	3.8	8.46e-01	0	43	104	0	76	14958
2026-01-28 04:51:06.89	345.38	34.79	-52.9	-64.8	3.8	8.47e-01	0	43	104	0	76	14963
2026-01-28 04:51:07.89	345.01	34.87	-52.9	-64.8	3.8	8.47e-01	0	43	104	0	76	14978
2026-01-28 04:51:08.90	344.64	34.95	-52.9	-64.8	3.8	8.48e-01	0	43	104	0	76	14891
2026-01-28 04:51:09.91	344.26	35.03	-52.9	-64.8	3.8	8.47e-01	0	43	104	0	76	14977
2026-01-28 04:51:10.92	343.88	35.11	-52.9	-64.8	3.8	8.46e-01	0	43	104	0	76	14945
2026-01-28 04:51:11.93	343.50	35.19	-52.9	-64.8	3.8	8.46e-01	0	43	104	0	76	14934
2026-01-28 04:51:12.94	343.12	35.26	-52.9	-64.8	3.8	8.46e-01	0	43	104	0	76	14977
2026-01-28 04:51:13.95	342.73	35.33	-52.9	-64.8	3.8	8.46e-01	0	43	104	0	76	14947
2026-01-28 04:51:14.95	342.35	35.41	-52.9	-64.8	3.8	8.46e-01	0	43	104	0	76	14971
2026-01-28 04:51:15.96	341.96	35.48	-52.9	-64.8	3.8	8.47e-01	0	43	104	0	76	14980
2026-01-28 04:51:16.97	341.57	35.55	-52.9	-64.8	3.8	8.45e-01	0	43	104	0	76	14949
2026-01-28 04:51:17.98	341.18	35.62	-52.9	-64.8	3.8	8.46e-01	0	44	104	0	76	14948
2026-01-28 04:51:18.99	340.78	35.68	-52.9	-64.8	3.8	8.46e-01	0	43	104	0	76	14952
2026-01-28 04:51:20.00	340.39	35.75	-52.9	-64.8	3.8	8.45e-01	0	43	104	0	76	14951
2026-01-28 04:51:21.01	339.99	35.81	-52.9	-64.8	3.8	8.46e-01	0	43	104	0	76	14969
2026-01-28 04:51:22.01	339.60	35.88	-52.9	-64.8	3.8	8.46e-01	0	43	104	0	76	14924
2026-01-28 04:51:23.02	339.20	35.94	-52.9	-64.8	3.8	8.48e-01	0	43	104	0	76	14985
2026-01-28 04:51:24.02	338.80	36.00	-52.9	-64.8	3.8	8.46e-01	0	44	104	0	76	14941
2026-01-28 04:51:25.03	338.40	36.06	-52.9	-64.8	3.8	8.47e-01	0	43	104	0	76	14925
2026-01-28 04:51:26.04	337.99	36.11	-52.9	-64.8	3.8	8.46e-01	0	43	104	0	76	14962
2026-01-28 04:51:27.05	337.59	36.17	-52.9	-64.8	3.8	8.46e-01	0	43	104	0	76	14944
2026-01-28 04:51:28.05	337.18	36.22	-52.9	-64.8	3.8	8.46e-01	0	43	104	0	76	14946
2026-01-28 04:51:29.06	336.78	36.27	-52.9	-64.8	3.8	8.46e-01	0	43	104	0	76	14914
2026-01-28 04:51:30.07	336.37	36.32	-52.9	-64.8	3.8	8.46e-01	0	43	104	0	76	14981
2026-01-28 04:51:31.08	335.96	36.37	-52.9	-64.8	3.8	8.46e-01	0	43	104	0	76	14937
2026-01-28 04:51:32.09	335.54	36.42	-52.9	-64.8	3.8	8.46e-01	0	43	104	0	76	14971
2026-01-28 04:51:33.09	335.13	36.47	-52.9	-64.8	3.8	8.46e-01	0	43	104	0	76	14958
2026-01-28 04:51:34.10	334.72	36.51	-52.9	-64.8	3.8	8.46e-01	0	43	104	0	76	14940
2026-01-28 04:51:35.11	334.30	36.55	-52.9	-64.8	3.8	8.47e-01	0	43	104	0	76	14934
2026-01-28 04:51:36.12	333.89	36.59	-52.9	-64.8	3.8	8.45e-01	0	43	104	0	76	14946
2026-01-28 04:51:37.13	333.47	36.63	-52.9	-64.8	3.8	8.47e-01	0	43	104	0	76	14941
2026-01-28 04:51:38.13	333.06	36.67	-52.9	-64.8	3.8	8.45e-01	0	43	104	0	76	14937
2026-01-28 04:51:39.14	332.64	36.71	-52.9	-64.8	3.8	8.46e-01	0	43	104	0	76	14949
2026-01-28 04:51:40.15	332.22	36.74	-52.9	-64.8	3.8	8.47e-01	0	43	104	0	76	14916
2026-01-28 04:51:41.15	331.80	36.77	-52.9	-64.8	3.8	8.45e-01	0	43	104	0	76	14964
2026-01-28 04:51:42.16	331.38	36.80	-52.9	-64.8	3.8	8.46e-01	0	43	104	0	76	14888
2026-01-28 04:51:43.17	330.95	36.83	-52.9	-64.8	3.8	8.46e-01	0	43	104	0	76	14961
2026-01-28 04:51:44.17	330.53	36.86	-52.9	-64.8	3.8	8.47e-01	0	43	104	0	76	14970
2026-01-28 04:51:45.18	330.11	36.88	-52.9	-64.8	3.8	8.44e-01	0	43	104	0	76	14967
2026-01-28 04:51:46.19	329.68	36.91	-52.9	-64.8	3.8	8.46e-01	0	43	104	0	76	14918
2026-01-28 04:51:47.20	329.26	36.93	-52.9	-64.8	3.8	8.45e-01	0	43	104	0	76	14924
2026-01-28 04:51:48.20	328.84	36.95	-52.9	-64.8	3.8	8.45e-01	0	43	104	0	76	14947
2026-01-28 04:51:49.21	328.41	36.97	-52.9	-64.8	3.8	8.47e-01	0	43	104	0	76	14933
2026-01-28 04:51:50.22	327.98	36.99	-52.9	-64.8	3.8	8.46e-01	0	43	104	0	76	14955
2026-01-28 04:51:51.23	327.55	37.00	-52.9	-64.8	3.8	8.46e-01	0	43	104	0	76	14960
2026-01-28 04:51:52.24	327.13	37.01	-52.9	-64.8	3.8	8.47e-01	0	43	104	0	76	14930
2026-01-28 04:51:53.24	326.70	37.02	-52.9	-64.8	3.8	8.45e-01	0	43	104	0	76	14928
2026-01-28 04:51:54.25	326.27	37.03	-52.9	-64.8	3.8	8.45e-01	0	43	104	0	76	14924
2026-01-28 04:51:55.26	325.84	37.04	-52.9	-64.8	3.8	8.45e-01	0	43	104	0	76	14881
2026-01-28 04:51:56.27	325.42	37.05	-52.9	-64.8	3.8	8.46e-01	0	43	104	0	76	14956
2026-01-28 04:51:57.28	324.99	37.05	-52.9	-64.8	3.8	8.47e-01	0	44	104	0	76	14985
2026-01-28 04:51:58.29	324.56	37.05	-52.9	-64.8	3.8	8.46e-01	0	43	104	0	76	14946
2026-01-28 04:51:59.29	324.13	37.05	-52.9	-64.8	3.8	8.45e-01	0	43	104	0	76	14945
2026-01-28 04:52:00.30	323.70	37.05	-52.9	-64.8	3.8	8.45e-01	0	43	104	0	76	14921
2026-01-28 04:52:01.31	323.27	37.05	-52.9	-64.8	3.8	8.47e-01	0	43	104	0	76	14965
2026-01-28 04:52:02.32	322.84	37.04	-52.9	-64.8	3.8	8.46e-01	0	43	104	0	76	14954
2026-01-28 04:52:03.32	322.42	37.03	-52.9	-64.8	3.8	8.46e-01	0	43	104	0	76	14930
2026-01-28 04:52:04.33	321.99	37.02	-52.9	-64.8	3.8	8.47e-01	0	43	104	0	76	14969
2026-01-28 04:52:05.34	321.56	37.01	-52.9	-64.8	3.8	8.47e-01	0	43	104	0	76	14960
2026-01-28 04:52:06.34	321.14	37.00	-52.9	-64.8	3.8	8.47e-01	0	43	104	0	76	14902
2026-01-28 04:52:07.35	320.71	36.99	-52.9	-64.8	3.8	8.46e-01	0	43	104	0	76	14952
2026-01-28 04:52:08.36	320.28	36.97	-52.9	-64.8	3.8	8.46e-01	0	43	104	0	76	14920
2026-01-28 04:52:09.37	319.86	36.95	-52.9	-64.8	3.8	8.46e-01	0	44	104	0	76	14941
2026-01-28 04:52:10.38	319.43	36.93	-52.9	-64.8	3.8	8.47e-01	0	43	104	0	76	14906
2026-01-28 04:52:11.38	319.01	36.91	-52.9	-64.8	3.8	8.45e-01	0	43	104	0	76	14930
2026-01-28 04:52:12.39	318.58	36.89	-52.9	-64.8	3.8	8.46e-01	0	43	104	0	76	14933
2026-01-28 04:52:13.40	318.16	36.86	-52.9	-64.8	3.8	8.46e-01	0	43	104	0	76	14947
2026-01-28 04:52:14.41	317.74	36.83	-52.9	-64.8	3.8	8.46e-01	0	43	104	0	76	14935
2026-01-28 04:52:15.42	317.31	36.81	-52.9	-64.8	3.8	8.48e-01	0	44	104	0	76	14930
2026-01-28 04:52:16.43	316.89	36.77	-52.9	-64.8	3.8	8.47e-01	0	43	104	0	76	14922
2026-01-28 04:52:17.43	316.47	36.74	-52.9	-64.8	3.8	8.46e-01	0	43	104	0	76	14936
2026-01-28 04:52:18.44	316.05	36.71	-52.9	-64.8	3.8	8.46e-01	0	43	104	0	76	14963
2026-01-28 04:52:19.45	315.63	36.67	-52.9	-64.8	3.8	8.46e-01	0	43	104	0	76	14971
2026-01-28 04:52:20.45	315.22	36.64	-52.9	-64.8	3.8	8.46e-01	0	43	104	0	76	14963
2026-01-28 04:52:21.46	314.80	36.60	-52.9	-64.8	3.8	8.46e-01	0	43	104	0	76	14901
2026-01-28 04:52:22.46	314.39	36.56	-52.9	-64.8	3.8	8.45e-01	0	43	104	0	76	14960
2026-01-28 04:52:23.47	313.97	36.51	-52.9	-64.8	3.8	8.47e-01	0	43	104	0	76	14979
2026-01-28 04:52:24.48	313.55	36.47	-52.9	-64.8	3.8	8.46e-01	0	43	104	0	76	14915
2026-01-28 04:52:25.49	313.14	36.42	-52.9	-64.8	3.8	8.46e-01	0	43	104	0	76	14969
2026-01-28 04:52:26.50	312.73	36.38	-52.9	-64.8	3.8	8.46e-01	0	43	104	0	76	14939
2026-01-28 04:52:27.51	312.32	36.33	-52.9	-64.8	3.8	8.46e-01	0	44	104	0	76	14943
2026-01-28 04:52:28.52	311.91	36.28	-52.9	-64.8	3.8	8.46e-01	0	43	104	0	76	14900
2026-01-28 04:52:29.52	311.50	36.22	-52.9	-64.8	3.8	8.46e-01	0	44	104	0	76	14937
2026-01-28 04:52:30.53	311.10	36.17	-52.9	-64.8	3.8	8.46e-01	0	43	104	0	76	14940
2026-01-28 04:52:31.54	310.69	36.12	-52.9	-64.8	3.8	8.46e-01	0	43	104	0	76	14926
2026-01-28 04:52:32.54	310.29	36.06	-52.9	-64.8	3.8	8.47e-01	0	43	104	0	76	14909
2026-01-28 04:52:33.55	309.89	36.00	-52.9	-64.8	3.8	8.46e-01	0	43	104	0	76	14946
2026-01-28 04:52:34.56	309.48	35.94	-52.9	-64.8	3.8	8.45e-01	0	43	104	0	76	14903
2026-01-28 04:52:35.57	309.08	35.88	-52.9	-64.8	3.8	8.46e-01	0	43	104	0	76	14912
2026-01-28 04:52:36.58	308.68	35.82	-52.9	-64.8	3.8	8.46e-01	0	43	104	0	76	14986
2026-01-28 04:52:37.59	308.29	35.75	-52.9	-64.8	3.8	8.45e-01	0	43	104	0	76	14897
2026-01-28 04:52:38.59	307.90	35.69	-52.9	-64.8	3.8	8.46e-01	0	43	104	0	76	14924
2026-01-28 04:52:39.60	307.50	35.62	-52.9	-64.8	3.8	8.46e-01	0	43	104	0	76	14984
2026-01-28 04:52:40.61	307.11	35.55	-52.9	-64.8	3.8	8.46e-01	0	43	104	0	76	14954
2026-01-28 04:52:41.62	306.72	35.48	-52.9	-64.8	3.8	8.47e-01	0	43	104	0	76	14951
2026-01-28 04:52:42.62	306.33	35.41	-52.9	-64.8	3.8	8.46e-01	0	43	104	0	76	14944
2026-01-28 04:52:43.63	305.95	35.34	-52.8	-64.8	3.8	8.46e-01	0	43	104	0	76	14894
2026-01-28 04:52:44.64	305.56	35.26	-52.9	-64.8	3.8	8.45e-01	0	43	104	0	76	14962
2026-01-28 04:52:45.64	305.18	35.19	-52.9	-64.8	3.8	8.46e-01	0	43	104	0	76	14941
2026-01-28 04:52:46.65	304.80	35.11	-52.9	-64.7	3.8	8.47e-01	0	44	104	0	76	14870
2026-01-28 04:52:47.66	304.42	35.03	-52.9	-64.8	3.8	8.45e-01	0	43	104	0	76	14885
2026-01-28 04:52:48.67	304.04	34.96	-52.9	-64.8	3.8	8.47e-01	0	43	104	0	76	14932
2026-01-28 04:52:49.68	303.66	34.88	-52.8	-64.8	3.8	8.46e-01	0	43	104	0	76	14917
2026-01-28 04:52:50.68	303.29	34.79	-52.9	-64.7	3.8	8.47e-01	0	43	104	0	76	14852
2026-01-28 04:52:51.69	302.92	34.71	-52.9	-64.8	3.8	8.47e-01	0	43	104	0	76	14924
2026-01-28 04:52:52.70	302.55	34.63	-52.9	-64.8	3.8	8.46e-01	0	43	104	0	76	14886
2026-01-28 04:52:53.71	302.18	34.54	-52.9	-64.8	3.8	8.46e-01	0	43	104	0	76	14920
2026-01-28 04:52:54.72	301.81	34.46	-52.9	-64.8	3.8	8.45e-01	0	43	104	0	76	14930
2026-01-28 04:52:55.73	301.45	34.37	-52.9	-64.8	3.8	8.44e-01	0	44	104	0	76	14922
2026-01-28 04:52:56.73	301.09	34.28	-52.9	-64.8	3.8	8.46e-01	0	43	104	0	76	14962
2026-01-28 04:52:57.74	300.73	34.19	-52.9	-64.8	3.8	8.47e-01	0	43	104	0	76	14909
2026-01-28 04:52:58.75	300.37	34.10	-52.9	-64.8	3.8	8.45e-01	0	43	104	0	76	14907
2026-01-28 04:52:59.76	300.01	34.01	-52.9	-64.7	3.8	8.47e-01	0	43	104	0	76	14873
2026-01-28 04:53:00.76	299.66	33.92	-52.9	-64.8	3.8	8.46e-01	0	43	104	0	76	14900
2026-01-28 04:53:01.77	299.31	33.83	-52.9	-64.8	3.8	8.46e-01	0	43	104	0	76	14917
2026-01-28 04:53:02.77	298.96	33.73	-52.9	-64.7	3.8	8.47e-01	0	43	104	0	76	14827
2026-01-28 04:53:03.78	298.61	33.64	-52.9	-64.7	3.8	8.46e-01	0	43	104	0	76	14823
2026-01-28 04:53:04.79	298.26	33.54	-52.9	-64.8	3.8	8.45e-01	0	43	104	0	76	14895
2026-01-28 04:53:05.80	297.92	33.45	-52.8	-64.7	3.8	8.47e-01	0	43	104	0	76	14873
2026-01-28 04:53:06.81	297.58	33.35	-52.9	-64.8	3.8	8.46e-01	0	43	104	0	76	14898
2026-01-28 04:53:07.81	297.24	33.25	-52.9	-64.7	3.8	8.46e-01	0	43	104	0	76	14866
2026-01-28 04:53:08.82	296.90	33.15	-52.9	-64.7	3.8	8.46e-01	0	43	104	0	76	14849
2026-01-28 04:53:09.83	296.56	33.05	-52.9	-64.8	3.8	8.45e-01	0	43	104	0	76	14923
2026-01-28 04:53:10.84	296.23	32.95	-52.9	-64.8	3.8	8.45e-01	0	43	104	0	76	14907
2026-01-28 04:53:11.84	295.90	32.85	-52.9	-64.7	3.8	8.45e-01	0	43	104	0	76	14863
2026-01-28 04:53:12.85	295.57	32.75	-52.9	-64.8	3.8	8.46e-01	0	43	104	0	76	14908
2026-01-28 04:53:13.86	295.24	32.64	-52.9	-64.8	3.8	8.45e-01	0	43	104	0	76	14941
2026-01-28 04:53:14.87	294.91	32.54	-52.9	-64.8	3.8	8.45e-01	0	44	104	0	76	14924
2026-01-28 04:53:15.88	294.59	32.44	-52.9	-64.8	3.8	8.46e-01	0	43	104	0	76	14891
2026-01-28 04:53:16.89	294.27	32.33	-52.9	-64.8	3.8	8.46e-01	0	44	104	0	76	14942
2026-01-28 04:53:17.90	293.95	32.22	-52.9	-64.8	3.8	8.47e-01	0	43	104	0	76	14967
2026-01-28 04:53:18.90	293.63	32.12	-52.9	-64.8	3.8	8.47e-01	0	43	104	0	76	14934
2026-01-28 04:53:19.91	293.32	32.01	-52.9	-64.8	3.8	8.46e-01	0	43	104	0	76	14904
2026-01-28 04:53:20.91	293.01	31.90	-52.9	-64.8	3.8	8.46e-01	0	43	104	0	76	14928
2026-01-28 04:53:21.92	292.70	31.80	-52.9	-64.7	3.8	8.47e-01	0	43	104	0	76	14848
2026-01-28 04:53:22.93	292.39	31.69	-52.9	-64.7	3.8	8.47e-01	0	43	104	0	76	14767
2026-01-28 04:53:23.94	292.08	31.58	-52.8	-64.5	3.8	8.46e-01	0	43	104	0	76	14520
2026-01-28 04:53:24.94	291.78	31.47	-52.8	-64.6	3.8	8.46e-01	0	43	104	0	76	14701
2026-01-28 04:53:25.95	291.47	31.36	-52.8	-64.7	3.8	8.47e-01	0	43	104	0	76	14861
2026-01-28 04:53:26.96	291.17	31.25	-52.9	-64.8	3.8	8.47e-01	0	43	104	0	76	14948
2026-01-28 04:53:27.97	290.87	31.14	-52.9	-64.7	3.8	8.46e-01	0	43	104	0	76	14790
2026-01-28 04:53:28.97	290.58	31.03	-52.8	-64.7	3.8	8.46e-01	0	43	104	0	76	14719
2026-01-28 04:53:29.98	290.29	30.91	-52.8	-64.6	3.8	8.45e-01	0	43	104	0	76	14701
2026-01-28 04:53:30.99	289.99	30.80	-52.8	-64.7	3.8	8.47e-01	0	43	104	0	76	14795
2026-01-28 04:53:32.00	289.70	30.69	-52.9	-64.7	3.8	8.46e-01	0	43	104	0	76	14851
2026-01-28 04:53:33.01	289.41	30.57	-52.9	-64.7	3.8	8.46e-01	0	43	104	0	76	14868
2026-01-28 04:53:34.02	289.13	30.46	-52.9	-64.7	3.8	8.46e-01	0	43	104	0	76	14854
2026-01-28 04:53:35.02	288.84	30.35	-52.9	-64.8	3.8	8.47e-01	0	43	104	0	76	14901
2026-01-28 04:53:36.03	288.56	30.23	-52.9	-64.7	3.8	8.47e-01	0	43	104	0	76	14809
2026-01-28 04:53:37.04	288.28	30.12	-52.8	-64.7	3.8	8.46e-01	0	43	104	0	76	14810
2026-01-28 04:53:38.04	288.00	30.00	-52.9	-64.8	3.8	8.45e-01	0	43	104	0	76	14966
2026-01-28 04:53:39.05	287.73	29.89	-52.9	-64.8	3.8	8.46e-01	0	44	104	0	76	14922
2026-01-28 04:53:40.06	287.45	29.77	-52.9	-64.7	3.8	8.46e-01	0	43	104	0	76	14849
2026-01-28 04:53:41.07	287.18	29.66	-52.9	-64.8	3.8	8.47e-01	0	44	104	0	76	14921
2026-01-28 04:53:42.08	286.91	29.54	-52.9	-64.8	3.8	8.47e-01	0	43	104	0	76	14955
2026-01-28 04:53:43.09	286.64	29.42	-52.9	-64.8	3.8	8.47e-01	0	43	104	0	76	14893
2026-01-28 04:53:44.09	286.38	29.31	-52.8	-64.7	3.8	8.46e-01	0	43	104	0	76	14850
2026-01-28 04:53:45.10	286.11	29.19	-52.9	-64.8	3.8	8.45e-01	0	43	104	0	76	14947
2026-01-28 04:53:46.11	285.85	29.07	-52.9	-64.8	3.8	8.47e-01	0	43	104	0	76	14922
2026-01-28 04:53:47.12	285.59	28.96	-52.8	-64.8	3.8	8.46e-01	0	43	104	0	76	14881
2026-01-28 04:53:48.13	285.33	28.84	-52.8	-64.7	3.8	8.46e-01	0	44	104	0	76	14771
2026-01-28 04:53:49.14	285.07	28.72	-52.8	-64.7	3.8	8.46e-01	0	44	104	0	76	14737
2026-01-28 04:53:50.15	284.82	28.60	-52.8	-64.7	3.8	8.47e-01	0	44	104	0	76	14730
2026-01-28 04:53:51.16	284.56	28.49	-52.8	-64.7	3.8	8.46e-01	0	43	104	0	76	14842
2026-01-28 04:53:52.16	284.31	28.37	-52.9	-64.8	3.8	8.45e-01	0	43	104	0	76	14884
2026-01-28 04:53:53.17	284.06	28.25	-52.8	-64.7	3.8	8.46e-01	0	43	104	0	76	14832
2026-01-28 04:53:54.18	283.82	28.13	-52.9	-64.7	3.8	8.47e-01	0	43	104	0	76	14820
2026-01-28 04:53:55.19	283.57	28.01	-52.9	-64.8	3.8	8.45e-01	0	43	104	0	76	14918
2026-01-28 04:53:56.20	283.33	27.90	-52.9	-64.8	3.8	8.46e-01	0	43	104	0	76	14907
2026-01-28 04:53:57.21	283.08	27.78	-52.9	-64.7	3.8	8.46e-01	0	43	104	0	76	14784
2026-01-28 04:53:58.21	282.85	27.66	-52.9	-64.7	3.8	8.47e-01	0	43	104	0	76	14759
2026-01-28 04:53:59.22	282.61	27.54	-52.9	-64.7	3.8	8.47e-01	0	43	104	0	76	14840
2026-01-28 04:54:00.23	282.37	27.42	-52.9	-64.8	3.8	8.47e-01	0	43	104	0	76	14906
2026-01-28 04:54:01.24	282.13	27.30	-52.9	-64.8	3.8	8.46e-01	0	43	104	0	76	14902
2026-01-28 04:54:02.24	281.90	27.19	-52.9	-64.8	3.8	8.46e-01	0	44	104	0	76	14967
2026-01-28 04:54:03.25	281.67	27.07	-52.9	-64.7	3.8	8.47e-01	0	43	104	0	76	14876
2026-01-28 04:54:04.26	281.44	26.95	-52.9	-64.8	3.8	8.47e-01	0	43	104	0	76	14885
2026-01-28 04:54:05.27	281.21	26.83	-52.9	-64.8	3.8	8.47e-01	0	43	104	0	76	14906
2026-01-28 04:54:06.28	280.99	26.71	-52.9	-64.8	3.8	8.45e-01	0	43	104	0	76	14892
2026-01-28 04:54:07.28	280.76	26.59	-52.9	-64.8	3.8	8.45e-01	0	44	104	0	76	14907
2026-01-28 04:54:08.29	280.54	26.47	-52.9	-64.8	3.8	8.46e-01	0	43	104	0	76	14931
2026-01-28 04:54:09.30	280.32	26.36	-52.9	-64.8	3.8	8.45e-01	0	43	104	0	76	14914
2026-01-28 04:54:10.31	280.10	26.24	-52.8	-64.8	3.8	8.47e-01	0	43	104	0	76	14934
2026-01-28 04:54:11.32	279.88	26.12	-52.9	-64.8	3.8	8.45e-01	0	43	104	0	76	14897
2026-01-28 04:54:12.32	279.67	26.00	-52.9	-64.8	3.8	8.45e-01	0	43	104	0	76	14931
2026-01-28 04:54:13.33	279.45	25.88	-52.9	-64.8	3.8	8.46e-01	0	43	104	0	76	14904
2026-01-28 04:54:14.34	279.24	25.77	-52.8	-64.8	3.8	8.46e-01	0	43	104	0	76	14917
2026-01-28 04:54:15.35	279.03	25.65	-52.9	-64.8	3.8	8.46e-01	0	43	104	0	76	14944
2026-01-28 04:54:16.35	278.82	25.53	-52.9	-64.8	3.8	8.46e-01	0	43	104	0	76	14913
2026-01-28 04:54:17.36	278.61	25.41	-52.9	-64.8	3.8	8.46e-01	0	43	104	0	76	14915
2026-01-28 04:54:18.37	278.40	25.29	-52.8	-64.7	3.8	8.46e-01	0	43	104	0	76	14864
2026-01-28 04:54:19.38	278.20	25.18	-52.9	-64.8	3.8	8.46e-01	0	43	104	0	76	14900
2026-01-28 04:54:20.39	277.99	25.06	-52.8	-64.7	3.8	8.47e-01	0	43	104	0	76	14857
2026-01-28 04:54:21.40	277.79	24.94	-52.8	-64.8	3.8	8.47e-01	0	43	104	0	76	14905
2026-01-28 04:54:22.41	277.59	24.82	-52.9	-64.8	3.8	8.45e-01	0	43	104	0	76	14917
2026-01-28 04:54:23.42	277.39	24.71	-52.9	-64.8	3.8	8.47e-01	0	44	104	0	76	14921
2026-01-28 04:54:24.43	277.19	24.59	-52.9	-64.8	3.8	8.46e-01	0	43	104	0	76	14926
2026-01-28 04:54:25.44	277.00	24.47	-52.9	-64.8	3.8	8.45e-01	0	43	104	0	76	14906
2026-01-28 04:54:26.44	276.80	24.36	-52.9	-64.8	3.8	8.46e-01	0	43	104	0	76	14974
2026-01-28 04:54:27.45	276.61	24.24	-52.9	-64.8	3.8	8.45e-01	0	43	104	0	76	14916
2026-01-28 04:54:28.45	276.42	24.12	-52.9	-64.8	3.8	8.46e-01	0	43	104	0	76	14927
2026-01-28 04:54:29.46	276.23	24.01	-52.9	-64.8	3.8	8.47e-01	0	43	104	0	76	14890
2026-01-28 04:54:30.47	276.04	23.89	-52.9	-64.7	3.8	8.46e-01	0	43	104	0	76	14874
2026-01-28 04:54:31.48	275.85	23.78	-52.9	-64.8	3.8	8.47e-01	0	43	104	0	76	14941
2026-01-28 04:54:32.49	275.67	23.66	-52.8	-64.8	3.8	8.46e-01	0	43	104	0	76	14896
2026-01-28 04:54:33.49	275.48	23.55	-52.8	-64.8	3.8	8.47e-01	0	43	104	0	76	14939
2026-01-28 04:54:34.50	275.30	23.43	-52.9	-64.8	3.8	8.45e-01	0	43	104	0	76	14881
2026-01-28 04:54:35.51	275.12	23.32	-52.9	-64.8	3.8	8.45e-01	0	43	104	0	76	14897
2026-01-28 04:54:36.52	274.94	23.20	-52.9	-64.8	3.8	8.46e-01	0	43	104	0	76	14913
2026-01-28 04:54:37.53	274.76	23.09	-52.9	-64.8	3.8	8.46e-01	0	43	104	0	76	14917
2026-01-28 04:54:38.53	274.58	22.97	-52.9	-64.8	3.8	8.47e-01	0	43	104	0	76	14881
2026-01-28 04:54:39.54	274.40	22.86	-52.9	-64.8	3.8	8.45e-01	0	43	104	0	76	14905
2026-01-28 04:54:40.55	274.23	22.74	-52.9	-64.8	3.8	8.45e-01	0	43	104	0	76	14970
2026-01-28 04:54:41.56	274.05	22.63	-52.9	-64.8	3.8	8.46e-01	0	43	104	0	76	14914
2026-01-28 04:54:42.57	273.88	22.52	-52.8	-64.8	3.8	8.45e-01	0	43	104	0	76	14916
2026-01-28 04:54:43.58	273.71	22.40	-52.9	-64.8	3.8	8.46e-01	0	43	104	0	76	14914
2026-01-28 04:54:44.58	273.54	22.29	-52.9	-64.8	3.8	8.47e-01	0	43	104	0	76	14909
2026-01-28 04:54:45.59	273.37	22.18	-52.9	-64.8	3.8	8.46e-01	0	43	104	0	76	14926
2026-01-28 04:54:46.60	273.20	22.06	-52.9	-64.8	3.8	8.45e-01	0	43	104	0	76	14960
2026-01-28 04:54:47.60	273.04	21.95	-52.8	-64.8	3.8	8.46e-01	0	43	104	0	76	14968
2026-01-28 04:54:48.61	272.87	21.84	-52.9	-64.8	3.8	8.46e-01	0	43	104	0	76	14919
2026-01-28 04:54:49.62	272.71	21.73	-52.9	-64.8	3.8	8.46e-01	0	43	104	0	76	14948
2026-01-28 04:54:50.63	272.55	21.62	-52.9	-64.8	3.8	8.47e-01	0	43	104	0	76	14945
2026-01-28 04:54:51.64	272.38	21.50	-52.9	-64.8	3.8	8.46e-01	0	43	104	0	76	14961
2026-01-28 04:54:52.65	272.22	21.39	-52.8	-64.8	3.8	8.46e-01	0	43	104	0	76	14905
2026-01-28 04:54:53.66	272.06	21.28	-52.8	-64.8	3.8	8.47e-01	0	43	104	0	76	14919
2026-01-28 04:54:54.67	271.91	21.17	-52.9	-64.8	3.8	8.45e-01	0	43	104	0	76	14942
2026-01-28 04:54:55.68	271.75	21.06	-52.9	-64.8	3.8	8.46e-01	0	43	104	0	76	14949
2026-01-28 04:54:56.69	271.59	20.95	-52.9	-64.8	3.8	8.46e-01	0	43	104	0	76	14895
2026-01-28 04:54:57.69	271.44	20.84	-52.9	-64.8	3.8	8.46e-01	0	44	104	0	76	14901
2026-01-28 04:54:58.70	271.29	20.73	-52.9	-64.8	3.8	8.46e-01	0	43	104	0	76	14931
2026-01-28 04:54:59.71	271.13	20.62	-52.9	-64.8	3.8	8.45e-01	0	43	104	0	76	14942
2026-01-28 04:55:00.72	270.98	20.51	-52.9	-64.7	3.8	8.48e-01	0	43	104	0	76	14849
2026-01-28 04:55:01.73	270.83	20.40	-52.9	-64.8	3.8	8.46e-01	0	43	104	0	76	14886
2026-01-28 04:55:02.73	270.68	20.29	-52.9	-64.8	3.8	8.46e-01	0	43	104	0	76	14904
2026-01-28 04:55:03.74	270.53	20.19	-52.9	-64.8	3.8	8.47e-01	0	43	104	0	76	14887
2026-01-28 04:55:04.75	270.39	20.08	-52.8	-64.8	3.8	8.48e-01	0	43	104	0	76	14967
2026-01-28 04:55:05.76	270.24	19.97	-52.8	-64.8	3.8	8.46e-01	0	43	104	0	76	14901
2026-01-28 04:55:06.77	270.10	19.86	-52.9	-64.8	3.8	8.46e-01	0	44	104	0	76	14913
2026-01-28 04:55:07.78	269.95	19.75	-52.9	-64.8	3.8	8.46e-01	0	43	104	0	76	14901
2026-01-28 04:55:08.79	269.81	19.65	-52.9	-64.8	3.8	8.47e-01	0	44	104	0	76	14952
2026-01-28 04:55:09.80	269.67	19.54	-52.9	-64.8	3.8	8.45e-01	0	43	104	0	76	14915
2026-01-28 04:55:10.81	269.52	19.43	-52.9	-64.8	3.8	8.45e-01	0	43	104	0	76	14953
2026-01-28 04:55:11.82	269.38	19.33	-52.8	-64.7	3.8	8.46e-01	0	43	104	0	76	14874
2026-01-28 04:55:12.82	269.25	19.22	-52.9	-64.7	3.8	8.46e-01	0	43	104	0	76	14878
2026-01-28 04:55:13.83	269.11	19.12	-52.9	-64.8	3.8	8.45e-01	0	43	104	0	76	14918
2026-01-28 04:55:14.84	268.97	19.01	-52.9	-64.8	3.8	8.46e-01	0	43	104	0	76	14920
2026-01-28 04:55:15.84	268.84	18.91	-52.8	-64.8	3.8	8.45e-01	0	44	104	0	76	14957
2026-01-28 04:55:16.85	268.70	18.80	-52.9	-64.8	3.8	8.45e-01	0	43	104	0	76	14957
2026-01-28 04:55:17.87	268.57	18.69	-52.9	-64.8	3.8	8.46e-01	0	43	104	0	76	14933
2026-01-28 04:55:18.87	268.43	18.59	-52.9	-64.8	3.8	8.46e-01	0	43	104	0	76	14944
2026-01-28 04:55:19.88	268.30	18.49	-52.9	-64.8	3.8	8.46e-01	0	43	104	0	76	14937
2026-01-28 04:55:20.89	268.17	18.38	-52.9	-64.8	3.8	8.46e-01	0	44	104	0	76	14906
2026-01-28 04:55:21.90	268.04	18.28	-52.8	-64.8	3.8	8.46e-01	0	43	104	0	76	14925
2026-01-28 04:55:22.91	267.91	18.18	-52.8	-64.8	3.8	8.46e-01	0	43	104	0	76	14903
2026-01-28 04:55:23.92	267.78	18.07	-52.9	-64.8	3.8	8.46e-01	0	44	104	0	76	14922
2026-01-28 04:55:24.93	267.65	17.97	-52.9	-64.8	3.8	8.46e-01	0	43	104	0	76	14933
2026-01-28 04:55:25.93	267.53	17.87	-52.8	-64.8	3.8	8.47e-01	0	43	104	0	76	14891
2026-01-28 04:55:26.94	267.40	17.77	-52.9	-64.8	3.8	8.45e-01	0	43	104	0	76	14912
2026-01-28 04:55:27.95	267.28	17.66	-52.9	-64.8	3.8	8.48e-01	0	43	104	0	76	14963
2026-01-28 04:55:28.96	267.15	17.56	-52.8	-64.8	3.8	8.46e-01	0	43	104	0	76	14942
2026-01-28 04:55:29.96	267.03	17.46	-52.9	-64.8	3.8	8.46e-01	0	43	104	0	76	14971
2026-01-28 04:55:30.97	266.91	17.36	-52.9	-64.8	3.8	8.46e-01	0	44	104	0	76	14921
2026-01-28 04:55:31.97	266.78	17.26	-52.9	-64.8	3.8	8.46e-01	0	43	104	0	76	14943
2026-01-28 04:55:32.98	266.66	17.16	-52.9	-64.8	3.8	8.47e-01	0	43	104	0	76	14949
2026-01-28 04:55:33.99	266.54	17.06	-52.9	-64.8	3.8	8.45e-01	0	43	104	0	76	14976
2026-01-28 04:55:35.00	266.42	16.96	-52.9	-64.8	3.8	8.46e-01	0	43	104	0	76	14886
2026-01-28 04:55:36.00	266.31	16.86	-52.8	-64.8	3.8	8.46e-01	0	43	104	0	76	14921
2026-01-28 04:55:37.02	266.19	16.76	-52.8	-64.8	3.8	8.46e-01	0	43	104	0	76	14935
2026-01-28 04:55:38.03	266.07	16.66	-52.9	-64.8	3.8	8.48e-01	0	43	104	0	76	14967
2026-01-28 04:55:39.03	265.96	16.56	-52.9	-64.8	3.8	8.46e-01	0	43	104	0	76	14956
2026-01-28 04:55:40.04	265.84	16.46	-52.9	-64.8	3.8	8.47e-01	0	43	104	0	76	14938
2026-01-28 04:55:41.05	265.72	16.37	-52.8	-64.8	3.8	8.47e-01	0	43	104	0	76	14912
2026-01-28 04:55:42.06	265.61	16.27	-52.9	-64.8	3.8	8.47e-01	0	43	104	0	76	14931
2026-01-28 04:55:43.07	265.50	16.17	-52.8	-64.8	3.8	8.46e-01	0	43	104	0	76	14883
2026-01-28 04:55:44.08	265.39	16.07	-52.8	-64.8	3.8	8.46e-01	0	43	104	0	76	14914
2026-01-28 04:55:45.09	265.27	15.98	-52.9	-64.8	3.8	8.45e-01	0	43	104	0	76	14916
2026-01-28 04:55:46.10	265.16	15.88	-52.9	-64.8	3.8	8.45e-01	0	44	104	0	76	14886
2026-01-28 04:55:47.10	265.05	15.78	-52.8	-64.8	3.8	8.45e-01	0	43	104	0	76	14947
2026-01-28 04:55:48.11	264.94	15.69	-52.8	-64.8	3.8	8.46e-01	0	43	104	0	76	14916
2026-01-28 04:55:49.11	264.84	15.59	-52.9	-64.8	3.8	8.45e-01	0	43	104	0	76	14931
2026-01-28 04:55:50.12	264.73	15.50	-52.9	-64.8	3.8	8.46e-01	0	43	104	0	76	14907
2026-01-28 04:55:51.13	264.62	15.40	-52.8	-64.8	3.8	8.46e-01	0	44	104	0	76	14894
2026-01-28 04:55:52.13	264.52	15.30	-52.9	-64.8	3.8	8.46e-01	0	44	104	0	76	14920
2026-01-28 04:55:53.14	264.41	15.21	-52.9	-64.8	3.8	8.47e-01	0	43	104	0	76	14880
2026-01-28 04:55:54.15	264.30	15.11	-52.9	-64.7	3.8	8.46e-01	0	43	104	0	76	14871
2026-01-28 04:55:55.16	264.20	15.02	-52.9	-64.8	3.8	8.46e-01	0	43	104	0	76	14933
2026-01-28 04:55:56.16	264.10	14.93	-52.9	-64.7	3.8	8.46e-01	0	44	104	0	76	14871
2026-01-28 04:55:57.17	263.99	14.83	-52.9	-64.8	3.8	8.46e-01	0	44	104	0	76	14926
2026-01-28 04:55:58.18	263.89	14.74	-52.9	-64.8	3.8	8.46e-01	0	44	104	0	76	14888
2026-01-28 04:55:59.19	263.79	14.65	-52.9	-64.8	3.8	8.46e-01	0	43	104	0	76	14962
2026-01-28 04:56:00.20	263.69	14.55	-52.9	-64.8	3.8	8.46e-01	0	43	104	0	76	14946
2026-01-28 04:56:01.21	263.59	14.46	-52.9	-64.8	3.8	8.46e-01	0	43	104	0	76	14968
2026-01-28 04:56:02.21	263.49	14.37	-52.8	-64.8	3.8	8.47e-01	0	43	104	0	76	14913
2026-01-28 04:56:03.22	263.39	14.28	-52.9	-64.8	3.8	8.46e-01	0	44	104	0	76	14958
2026-01-28 04:56:04.23	263.29	14.18	-52.9	-64.8	3.8	8.46e-01	0	43	104	0	76	14909
2026-01-28 04:56:05.24	263.19	14.09	-52.9	-64.8	3.8	8.46e-01	0	43	104	0	76	14899
2026-01-28 04:56:06.25	263.09	14.00	-52.9	-64.8	3.8	8.47e-01	0	43	104	0	76	14945
2026-01-28 04:56:07.25	263.00	13.91	-52.9	-64.8	3.8	8.46e-01	0	43	104	0	76	14909
2026-01-28 04:56:08.26	262.90	13.82	-52.8	-64.8	3.8	8.46e-01	0	43	104	0	76	14898
2026-01-28 04:56:09.27	262.81	13.73	-52.9	-64.8	3.8	8.45e-01	0	43	104	0	76	14950
2026-01-28 04:56:10.27	262.71	13.64	-52.9	-64.8	3.8	8.46e-01	0	43	104	0	76	14919
2026-01-28 04:56:11.28	262.62	13.55	-52.9	-64.8	3.8	8.47e-01	0	44	104	0	76	14954
2026-01-28 04:56:12.29	262.52	13.46	-52.8	-64.8	3.8	8.46e-01	0	44	104	0	76	14920
2026-01-28 04:56:13.30	262.43	13.37	-52.8	-64.8	3.8	8.46e-01	0	43	104	0	76	14931
2026-01-28 04:56:14.30	262.34	13.28	-52.8	-64.8	3.8	8.47e-01	0	43	104	0	76	14886
2026-01-28 04:56:15.31	262.25	13.19	-52.9	-64.8	3.8	8.47e-01	0	43	104	0	76	14889
2026-01-28 04:56:16.32	262.16	13.10	-52.9	-64.8	3.8	8.45e-01	0	43	104	0	76	14953
2026-01-28 04:56:17.33	262.07	13.01	-52.9	-64.8	3.8	8.46e-01	0	44	104	0	76	14954
2026-01-28 04:56:18.33	261.98	12.92	-52.9	-64.8	3.8	8.46e-01	0	44	104	0	76	14931
2026-01-28 04:56:19.34	261.89	12.83	-52.8	-64.8	3.8	8.46e-01	0	44	104	0	76	14917
2026-01-28 04:56:20.35	261.80	12.75	-52.8	-64.8	3.8	8.47e-01	0	43	104	0	76	14903
2026-01-28 04:56:21.36	261.71	12.66	-52.9	-64.8	3.8	8.46e-01	0	44	104	0	76	14949
2026-01-28 04:56:22.37	261.62	12.57	-52.8	-64.8	3.8	8.46e-01	0	43	104	0	76	14925
2026-01-28 04:56:23.38	261.53	12.48	-52.9	-64.8	3.8	8.46e-01	0	43	104	0	76	14928
2026-01-28 04:56:24.39	261.44	12.40	-52.9	-64.8	3.8	8.46e-01	0	43	104	0	76	14940
2026-01-28 04:56:25.39	261.36	12.31	-52.9	-64.8	3.8	8.46e-01	0	43	104	0	76	14932
2026-01-28 04:56:26.40	261.27	12.22	-52.8	-64.8	3.8	8.46e-01	0	44	104	0	76	14949
2026-01-28 04:56:27.41	261.19	12.14	-52.9	-64.8	3.8	8.46e-01	0	43	104	0	76	14894
2026-01-28 04:56:28.42	261.10	12.05	-52.9	-64.8	3.8	8.47e-01	0	43	104	0	76	14903
2026-01-28 04:56:29.42	261.02	11.97	-52.8	-64.7	3.8	8.47e-01	0	43	104	0	76	14876
2026-01-28 04:56:30.43	260.93	11.88	-52.9	-64.8	3.8	8.46e-01	0	43	104	0	76	14882
2026-01-28 04:56:31.44	260.85	11.79	-52.8	-64.8	3.8	8.46e-01	0	43	104	0	76	14897
2026-01-28 04:56:32.45	260.77	11.71	-52.9	-64.8	3.8	8.47e-01	0	43	104	0	76	14938
2026-01-28 04:56:33.45	260.69	11.63	-52.9	-64.8	3.8	8.46e-01	0	43	104	0	76	14917
2026-01-28 04:56:34.46	260.60	11.54	-52.8	-64.8	3.8	8.46e-01	0	44	104	0	76	14896
2026-01-28 04:56:35.47	260.52	11.46	-52.8	-64.7	3.8	8.46e-01	0	43	104	0	76	14855
2026-01-28 04:56:36.48	260.44	11.37	-52.8	-64.7	3.8	8.46e-01	0	43	104	0	76	14871
2026-01-28 04:56:37.49	260.36	11.29	-52.8	-64.7	3.8	8.47e-01	0	43	104	0	76	14856
2026-01-28 04:56:38.49	260.28	11.21	-52.9	-64.8	3.8	8.46e-01	0	43	104	0	76	14903
2026-01-28 04:56:39.50	260.20	11.12	-52.8	-64.8	3.8	8.47e-01	0	43	104	0	76	14903
2026-01-28 04:56:40.51	260.12	11.04	-52.9	-64.8	3.8	8.45e-01	0	43	104	0	76	14918
2026-01-28 04:56:41.52	260.05	10.95	-52.8	-64.7	3.8	8.45e-01	0	43	104	0	76	14876
2026-01-28 04:56:42.53	259.97	10.87	-52.8	-64.7	3.8	8.47e-01	0	43	104	0	76	14865
2026-01-28 04:56:43.54	259.89	10.79	-52.9	-64.7	3.8	8.46e-01	0	43	104	0	76	14871
2026-01-28 04:56:44.55	259.81	10.71	-52.8	-64.8	3.8	8.47e-01	0	44	104	0	76	14907
2026-01-28 04:56:45.56	259.73	10.62	-52.8	-64.7	3.8	8.47e-01	0	43	104	0	76	14859
2026-01-28 04:56:46.57	259.66	10.54	-52.8	-64.7	3.8	8.46e-01	0	44	104	0	76	14874
2026-01-28 04:56:47.57	259.58	10.46	-52.9	-64.8	3.8	8.46e-01	0	44	104	0	76	14927
2026-01-28 04:56:48.58	259.51	10.38	-52.9	-64.8	3.8	8.46e-01	0	43	104	0	76	14892
2026-01-28 04:56:49.59	259.43	10.30	-52.9	-64.8	3.8	8.46e-01	0	43	104	0	76	14884
2026-01-28 04:56:50.60	259.36	10.22	-52.8	-64.7	3.8	8.46e-01	0	43	104	0	76	14874
2026-01-28 04:56:51.61	259.28	10.14	-52.8	-64.8	3.8	8.47e-01	0	43	104	0	76	14886
2026-01-28 04:56:52.61	259.21	10.06	-52.8	-64.7	3.8	8.46e-01	0	43	104	0	76	14873
2026-01-28 04:56:53.62	259.14	9.98	-52.9	-64.8	3.8	8.46e-01	0	43	104	0	76	14891
2026-01-28 04:56:54.63	259.06	9.90	-52.8	-64.8	3.8	8.46e-01	0	43	104	0	76	14948
2026-01-28 04:56:55.64	258.99	9.82	-52.9	-64.8	3.8	8.47e-01	0	43	104	0	76	14897
2026-01-28 04:56:56.65	258.92	9.74	-52.9	-64.8	3.8	8.46e-01	0	44	104	0	76	14932
2026-01-28 04:56:57.65	258.85	9.66	-52.8	-64.8	3.8	8.47e-01	0	43	104	0	76	14902
2026-01-28 04:56:58.66	258.78	9.58	-52.9	-64.8	3.8	8.46e-01	0	43	104	0	76	14908
2026-01-28 04:56:59.67	258.71	9.50	-52.9	-64.8	3.8	8.47e-01	0	43	104	0	76	14937
2026-01-28 04:57:00.68	258.64	9.42	-52.8	-64.8	3.8	8.46e-01	0	43	104	0	76	14917
2026-01-28 04:57:01.69	258.57	9.34	-52.8	-64.8	3.8	8.47e-01	0	43	104	0	76	14892
2026-01-28 04:57:02.70	258.50	9.26	-52.8	-64.8	3.8	8.46e-01	0	44	104	0	76	14892
2026-01-28 04:57:03.71	258.43	9.18	-52.8	-64.8	3.8	8.46e-01	0	43	104	0	76	14889
2026-01-28 04:57:04.72	258.36	9.11	-52.9	-64.8	3.8	8.45e-01	0	44	104	0	76	14920
2026-01-28 04:57:05.73	258.29	9.03	-52.9	-64.8	3.8	8.46e-01	0	44	104	0	76	14909
2026-01-28 04:57:06.74	258.22	8.95	-52.8	-64.8	3.8	8.46e-01	0	44	104	0	76	14911
2026-01-28 04:57:07.74	258.15	8.87	-52.8	-64.7	3.8	8.46e-01	0	44	104	0	76	14867
2026-01-28 04:57:08.75	258.09	8.80	-52.8	-64.8	3.8	8.46e-01	0	43	104	0	76	14928
2026-01-28 04:57:09.76	258.02	8.72	-52.8	-64.8	3.8	8.45e-01	0	43	104	0	76	14905
2026-01-28 04:57:10.77	257.95	8.64	-52.8	-64.8	3.8	8.46e-01	0	43	104	0	76	14896
2026-01-28 04:57:11.77	257.89	8.57	-52.8	-64.7	3.8	8.46e-01	0	44	104	0	76	14861
2026-01-28 04:57:12.78	257.82	8.49	-52.9	-64.8	3.8	8.46e-01	0	43	104	0	76	14902
2026-01-28 04:57:13.79	257.76	8.41	-52.9	-64.8	3.8	8.46e-01	0	44	104	0	76	14910
2026-01-28 04:57:14.80	257.69	8.34	-52.9	-64.8	3.8	8.46e-01	0	43	104	0	76	14925
2026-01-28 04:57:15.81	257.63	8.26	-52.9	-64.8	3.8	8.48e-01	0	43	104	0	76	14904
2026-01-28 04:57:16.81	257.56	8.18	-52.9	-64.8	3.8	8.45e-01	0	43	104	0	76	14890
2026-01-28 04:57:17.82	257.50	8.11	-52.8	-64.7	3.8	8.46e-01	0	43	104	0	76	14865
2026-01-28 04:57:18.83	257.43	8.03	-52.9	-64.8	3.8	8.45e-01	0	43	104	0	76	14921
2026-01-28 04:57:19.83	257.37	7.96	-52.8	-64.8	3.8	8.46e-01	0	44	104	0	76	14888
2026-01-28 04:57:20.85	257.31	7.88	-52.8	-64.8	3.8	8.45e-01	0	43	104	0	76	14906
2026-01-28 04:57:21.85	257.25	7.81	-52.9	-64.8	3.8	8.46e-01	0	43	104	0	76	14899
2026-01-28 04:57:22.86	257.18	7.73	-52.8	-64.8	3.8	8.45e-01	0	43	104	0	76	14937
2026-01-28 04:57:23.87	257.12	7.66	-52.9	-64.8	3.8	8.47e-01	0	43	104	0	76	14886
2026-01-28 04:57:24.87	257.06	7.59	-52.8	-64.8	3.8	8.45e-01	0	44	104	0	76	14913
2026-01-28 04:57:25.88	257.00	7.51	-52.8	-64.8	3.8	8.45e-01	0	44	104	0	76	14891
2026-01-28 04:57:26.89	256.94	7.44	-52.8	-64.8	3.8	8.45e-01	0	43	104	0	76	14892
2026-01-28 04:57:27.90	256.88	7.36	-52.8	-64.8	3.8	8.47e-01	0	43	104	0	76	14893
2026-01-28 04:57:28.90	256.82	7.29	-52.8	-64.8	3.8	8.46e-01	0	44	104	0	76	14922
2026-01-28 04:57:29.91	256.76	7.22	-52.8	-64.8	3.8	8.45e-01	0	44	104	0	76	14925
2026-01-28 04:57:30.92	256.70	7.15	-52.8	-64.8	3.8	8.46e-01	0	43	104	0	76	14951
2026-01-28 04:57:31.93	256.64	7.07	-52.8	-64.8	3.8	8.46e-01	0	43	104	0	76	14914
2026-01-28 04:57:32.93	256.58	7.00	-52.9	-64.7	3.8	8.47e-01	0	44	104	0	76	14870
2026-01-28 04:57:33.94	256.52	6.93	-52.9	-64.8	3.8	8.45e-01	0	43	104	0	76	14909
2026-01-28 04:57:34.95	256.46	6.85	-52.8	-64.8	3.8	8.46e-01	0	43	104	0	76	14946
