passes_logs/2026/01/28/R3.2S_Murmansk/R3.2S_Murmansk__20260128_112156_FENGYUN_3D_rec.log

#Pass ID: 20260128_112156_FENGYUN 3D
#Satellite: FENGYUN 3D
#Configuration: FENGYUN 3D
#almurnet v.1.7.20251203
#Start time: 2026-01-28 11:21:58

#Version: 2.2.20231116
#Station: R3.2S_Murmansk
#Location: 33.079688 lon 68.888172 lat
#TLE: 1 43010U 17072A   26027.90082829  .00000305  00000+0  16579-3 0  9998
#TLE: 2 43010  98.9960 359.9183 0002511  88.1058 272.0405 14.19701796425082

#Time	Az	El	Level	Level2	SNR	BER	BlckErr	Temp	State	Recorded	gain1	gain2
2026-01-28 11:21:58.74	146.22	2.11	-51.7	-63.6	3.8	8.44e-01	0	41	0	0	75	13787
2026-01-28 11:21:59.73	146.22	2.18	-51.6	-63.5	3.8	8.46e-01	0	40	104	0	73	15389
2026-01-28 11:22:00.74	146.21	2.24	-51.6	-63.5	3.8	8.46e-01	0	40	104	0	73	15363
2026-01-28 11:22:01.75	146.21	2.31	-51.6	-63.5	3.8	8.45e-01	0	40	104	0	73	15311
2026-01-28 11:22:02.76	146.21	2.37	-51.6	-63.5	3.8	8.47e-01	0	41	104	0	73	15325
2026-01-28 11:22:03.76	146.21	2.44	-51.6	-63.5	3.8	8.46e-01	0	41	104	0	73	15328
2026-01-28 11:22:04.77	146.20	2.51	-51.6	-63.5	3.8	8.47e-01	0	41	104	0	73	15292
2026-01-28 11:22:05.78	146.20	2.57	-51.6	-63.5	3.8	8.46e-01	0	41	104	0	73	15237
2026-01-28 11:22:06.79	146.20	2.64	-51.6	-63.5	3.8	8.45e-01	0	41	104	0	73	15232
2026-01-28 11:22:07.80	146.20	2.70	-51.6	-63.4	3.8	8.47e-01	0	41	104	0	73	15204
2026-01-28 11:22:08.80	146.19	2.77	-51.6	-63.4	3.8	8.46e-01	0	41	104	0	73	15098
2026-01-28 11:22:09.81	146.19	2.84	-51.6	-63.4	3.8	8.44e-01	0	41	104	0	73	15127
2026-01-28 11:22:10.82	146.19	2.90	-51.6	-63.3	3.8	8.46e-01	0	41	104	0	73	15034
2026-01-28 11:22:11.83	146.19	2.97	-51.6	-63.3	3.8	8.45e-01	0	41	104	0	73	14972
2026-01-28 11:22:12.84	146.18	3.04	-51.6	-63.3	3.8	8.46e-01	0	41	104	0	73	14959
2026-01-28 11:22:13.85	146.18	3.11	-51.6	-63.3	3.8	8.47e-01	0	41	104	0	73	14967
2026-01-28 11:22:14.85	146.18	3.17	-51.6	-63.3	3.8	8.47e-01	0	41	104	0	73	14992
2026-01-28 11:22:15.86	146.17	3.24	-51.6	-63.4	3.8	8.46e-01	0	41	104	0	73	15060
2026-01-28 11:22:16.87	146.17	3.31	-51.6	-63.4	3.8	8.47e-01	0	41	104	0	73	15179
2026-01-28 11:22:17.87	146.17	3.38	-51.6	-63.4	3.8	8.47e-01	0	41	104	0	73	15203
2026-01-28 11:22:18.88	146.17	3.44	-51.6	-63.5	3.8	8.45e-01	0	41	104	0	73	15257
2026-01-28 11:22:19.89	146.16	3.51	-51.6	-63.4	3.8	8.46e-01	0	41	104	0	73	15088
2026-01-28 11:22:20.90	146.16	3.58	-51.6	-63.2	3.8	8.46e-01	0	41	104	0	73	14751
2026-01-28 11:22:21.91	146.16	3.65	-51.5	-62.6	3.8	8.46e-01	0	41	104	0	73	13838
2026-01-28 11:22:22.91	146.15	3.72	-51.4	-61.7	3.8	8.46e-01	0	41	104	0	73	12447
2026-01-28 11:22:23.92	146.15	3.79	-51.2	-59.9	4.2	8.44e-01	0	41	104	0	73	10141
2026-01-28 11:22:24.92	146.15	3.86	-50.8	-57.8	5.1	7.95e-01	0	41	0	0	73	7968
2026-01-28 11:22:25.93	146.14	3.93	-50.2	-55.5	6.7	4.14e-01	0	41	0	2097152	72	6460
2026-01-28 11:22:26.94	146.14	3.99	-49.5	-53.6	8.7	7.67e-02	0	41	0	8388608	71	5482
2026-01-28 11:22:27.95	146.14	4.06	-48.3	-51.3	11.0	4.06e-03	0	41	0	14680064	68	5026
2026-01-28 11:22:28.96	146.13	4.13	-47.3	-49.6	12.7	3.74e-04	0	41	0	19922944	66	4646
2026-01-28 11:22:29.97	146.13	4.20	-46.0	-47.9	14.5	1.02e-05	0	41	0	25165824	64	4252
2026-01-28 11:22:30.98	146.13	4.28	-45.3	-46.9	15.6	0.00e+00	0	41	0	31457280	62	4253
2026-01-28 11:22:31.98	146.12	4.34	-44.6	-46.0	16.5	0.00e+00	0	41	0	36700160	61	4082
2026-01-28 11:22:32.99	146.12	4.42	-44.0	-45.3	17.5	0.00e+00	0	41	0	41943040	59	4242
2026-01-28 11:22:34.00	146.12	4.49	-44.0	-45.3	17.5	0.00e+00	0	42	0	48234496	59	4233
2026-01-28 11:22:35.01	146.11	4.56	-43.9	-45.2	17.6	0.00e+00	0	41	0	53477376	59	4153
2026-01-28 11:22:36.02	146.11	4.63	-43.6	-44.8	18.0	0.00e+00	0	41	0	58720256	59	3986
2026-01-28 11:22:37.03	146.11	4.70	-43.4	-44.7	18.1	0.00e+00	0	41	0	65011712	58	4153
2026-01-28 11:22:38.03	146.10	4.77	-43.9	-45.2	17.6	0.00e+00	0	42	0	70254592	58	4439
2026-01-28 11:22:39.04	146.10	4.84	-44.1	-45.5	17.4	0.00e+00	0	41	0	76546048	58	4553
2026-01-28 11:22:40.04	146.10	4.91	-44.8	-46.3	16.2	0.00e+00	0	41	0	81788928	60	4480
2026-01-28 11:22:41.05	146.09	4.99	-45.6	-47.3	15.2	0.00e+00	0	42	0	88080384	61	4738
2026-01-28 11:22:42.06	146.09	5.06	-46.5	-48.5	14.1	1.10e-06	0	42	0	93323264	63	4819
2026-01-28 11:22:43.07	146.09	5.13	-45.5	-47.1	15.7	0.00e+00	0	42	0	99614720	63	4105
2026-01-28 11:22:44.08	146.08	5.20	-43.8	-45.0	18.2	0.00e+00	0	41	0	104857600	59	4095
2026-01-28 11:22:45.09	146.08	5.28	-50.7	-60.6	3.8	3.56e-01	0	42	104	109051904	72	11607
2026-01-28 11:22:46.09	146.07	5.35	-45.9	-47.5	15.4	0.00e+00	0	42	0	111149056	63	4325
2026-01-28 11:22:47.10	146.07	5.42	-45.0	-46.5	16.4	0.00e+00	0	42	0	116391936	60	4560
2026-01-28 11:22:48.11	146.07	5.50	-43.5	-44.7	18.5	0.00e+00	0	42	0	122683392	58	4168
2026-01-28 11:22:49.12	146.06	5.57	-43.3	-44.4	18.9	0.00e+00	0	42	0	127926272	58	4042
2026-01-28 11:22:50.13	146.06	5.65	-43.5	-44.6	18.7	0.00e+00	0	42	0	133169152	58	4144
2026-01-28 11:22:51.13	146.05	5.72	-43.3	-44.5	18.8	0.00e+00	0	42	0	139460608	58	4060
2026-01-28 11:22:52.14	146.05	5.79	-43.4	-44.5	18.8	0.00e+00	0	42	0	145752064	58	4091
2026-01-28 11:22:53.15	146.05	5.87	-43.3	-44.4	18.9	0.00e+00	0	42	0	150994944	58	4042
2026-01-28 11:22:54.16	146.04	5.94	-43.3	-44.4	19.0	0.00e+00	0	42	0	156237824	58	4022
2026-01-28 11:22:55.16	146.04	6.02	-43.3	-44.4	19.0	0.00e+00	0	42	0	162529280	58	4031
2026-01-28 11:22:56.17	146.03	6.09	-43.2	-44.3	19.1	0.00e+00	0	42	0	167772160	58	3975
2026-01-28 11:22:57.18	146.03	6.17	-43.3	-44.4	19.0	0.00e+00	0	42	0	173015040	58	4026
2026-01-28 11:22:58.19	146.03	6.24	-43.2	-44.3	19.1	0.00e+00	0	42	0	179306496	58	3977
2026-01-28 11:22:59.21	146.02	6.32	-43.2	-44.4	19.0	0.00e+00	0	42	0	184549376	58	4012
2026-01-28 11:23:00.21	146.02	6.40	-43.3	-44.4	19.0	0.00e+00	0	42	0	190840832	58	4020
2026-01-28 11:23:01.22	146.01	6.47	-43.2	-44.3	19.1	0.00e+00	0	42	0	196083712	58	3973
2026-01-28 11:23:02.23	146.01	6.55	-43.1	-44.2	19.3	0.00e+00	0	42	0	201326592	58	3921
2026-01-28 11:23:03.23	146.00	6.63	-42.9	-44.0	19.5	0.00e+00	0	42	0	207618048	57	4078
2026-01-28 11:23:04.24	146.00	6.70	-43.0	-44.1	19.4	0.00e+00	0	42	0	212860928	57	4119
2026-01-28 11:23:05.25	145.99	6.78	-43.0	-44.1	19.4	0.00e+00	0	42	0	219152384	57	4117
2026-01-28 11:23:06.26	145.99	6.86	-42.9	-44.0	19.5	0.00e+00	0	42	0	224395264	57	4071
2026-01-28 11:23:07.27	145.99	6.94	-43.0	-44.1	19.4	0.00e+00	0	42	0	230686720	57	4103
2026-01-28 11:23:08.28	145.98	7.01	-42.8	-43.8	19.6	0.00e+00	0	42	0	235929600	57	4001
2026-01-28 11:23:09.29	145.98	7.09	-42.8	-43.9	19.6	0.00e+00	0	42	0	241172480	57	4015
2026-01-28 11:23:10.30	145.97	7.17	-42.9	-43.9	19.6	0.00e+00	0	42	0	247463936	57	4043
2026-01-28 11:23:11.31	145.97	7.25	-42.8	-43.9	19.6	0.00e+00	0	42	0	252706816	57	4015
2026-01-28 11:23:12.31	145.96	7.33	-42.8	-43.9	19.7	0.00e+00	0	42	0	257949696	57	4007
2026-01-28 11:23:13.32	145.96	7.41	-42.8	-43.8	19.7	0.00e+00	0	42	0	264241152	57	4001
2026-01-28 11:23:14.33	145.95	7.49	-42.8	-43.8	19.7	0.00e+00	0	42	0	269484032	57	3995
2026-01-28 11:23:15.34	145.95	7.57	-42.8	-43.8	19.7	0.00e+00	0	42	0	275775488	57	3990
2026-01-28 11:23:16.35	145.94	7.65	-42.9	-44.0	19.6	0.00e+00	0	42	0	281018368	57	4063
2026-01-28 11:23:17.36	145.94	7.73	-42.6	-43.6	19.9	0.00e+00	0	42	0	287309824	57	3906
2026-01-28 11:23:18.37	145.93	7.81	-42.6	-43.6	20.0	0.00e+00	0	42	0	292552704	57	3883
2026-01-28 11:23:19.37	145.93	7.89	-42.6	-43.6	20.0	0.00e+00	0	42	0	298844160	57	3883
2026-01-28 11:23:20.38	145.92	7.97	-42.6	-43.6	20.0	0.00e+00	0	42	0	304087040	57	3882
2026-01-28 11:23:21.39	145.92	8.05	-42.5	-43.5	20.0	0.00e+00	0	42	0	309329920	57	3865
2026-01-28 11:23:22.40	145.91	8.13	-42.5	-43.5	20.1	0.00e+00	0	42	0	315621376	56	4066
2026-01-28 11:23:23.41	145.90	8.21	-42.4	-43.5	20.1	0.00e+00	0	42	0	320864256	56	4060
2026-01-28 11:23:24.42	145.90	8.29	-42.4	-43.4	20.2	0.00e+00	0	42	0	326107136	56	4039
2026-01-28 11:23:25.43	145.89	8.38	-42.4	-43.5	20.2	0.00e+00	0	42	0	332398592	56	4054
2026-01-28 11:23:26.44	145.89	8.46	-42.3	-43.3	20.3	0.00e+00	0	42	0	337641472	56	3969
2026-01-28 11:23:27.44	145.88	8.54	-42.3	-43.3	20.3	0.00e+00	0	42	0	343932928	56	3998
2026-01-28 11:23:28.45	145.88	8.62	-42.2	-43.2	20.4	0.00e+00	0	42	0	349175808	56	3937
2026-01-28 11:23:29.46	145.87	8.71	-42.3	-43.2	20.4	0.00e+00	0	42	0	355467264	56	3955
2026-01-28 11:23:30.47	145.87	8.79	-42.2	-43.2	20.5	0.00e+00	0	42	0	360710144	56	3917
2026-01-28 11:23:31.48	145.86	8.88	-42.1	-43.1	20.6	0.00e+00	0	42	0	365953024	56	3888
2026-01-28 11:23:32.49	145.85	8.96	-42.2	-43.1	20.5	0.00e+00	0	42	0	372244480	56	3911
2026-01-28 11:23:33.50	145.85	9.04	-42.1	-43.1	20.6	0.00e+00	0	42	0	377487360	56	3871
2026-01-28 11:23:34.51	145.84	9.13	-42.1	-43.1	20.6	0.00e+00	0	42	0	383778816	56	3884
2026-01-28 11:23:35.51	145.84	9.21	-42.1	-43.1	20.6	0.00e+00	0	42	0	389021696	56	3872
2026-01-28 11:23:36.52	145.83	9.30	-42.1	-43.1	20.6	0.00e+00	0	42	0	394264576	56	3874
2026-01-28 11:23:37.53	145.82	9.39	-41.9	-42.9	20.7	0.00e+00	0	42	0	400556032	55	4021
2026-01-28 11:23:38.54	145.82	9.47	-42.0	-42.9	20.7	0.00e+00	0	42	0	405798912	55	4050
2026-01-28 11:23:39.55	145.81	9.56	-42.0	-43.0	20.7	0.00e+00	0	42	0	412090368	55	4054
2026-01-28 11:23:40.56	145.81	9.64	-42.1	-43.0	20.6	0.00e+00	0	42	0	417333248	55	4089
2026-01-28 11:23:41.57	145.80	9.73	-42.0	-42.9	20.7	0.00e+00	0	42	0	423624704	55	4051
2026-01-28 11:23:42.58	145.79	9.82	-41.9	-42.9	20.7	0.00e+00	0	42	0	428867584	55	4007
2026-01-28 11:23:43.59	145.79	9.91	-41.9	-42.8	20.8	0.00e+00	0	42	0	434110464	55	3985
2026-01-28 11:23:44.59	145.78	9.99	-41.8	-42.7	20.9	0.00e+00	0	42	0	440401920	55	3956
2026-01-28 11:23:45.60	145.77	10.08	-41.8	-42.7	20.9	0.00e+00	0	42	0	445644800	55	3954
2026-01-28 11:23:46.61	145.77	10.17	-41.7	-42.7	21.0	0.00e+00	0	42	0	450887680	55	3921
2026-01-28 11:23:47.62	145.76	10.26	-41.8	-42.7	20.9	0.00e+00	0	42	0	457179136	55	3943
2026-01-28 11:23:48.63	145.75	10.35	-41.8	-42.7	21.0	0.00e+00	0	42	0	462422016	55	3935
2026-01-28 11:23:49.63	145.75	10.44	-41.7	-42.6	21.0	0.00e+00	0	42	0	468713472	55	3912
2026-01-28 11:23:50.64	145.74	10.53	-41.6	-42.6	21.0	0.00e+00	0	42	0	473956352	55	3883
2026-01-28 11:23:51.65	145.73	10.62	-41.7	-42.6	21.0	0.00e+00	0	42	0	480247808	55	3903
2026-01-28 11:23:52.66	145.73	10.71	-41.6	-42.5	21.2	0.00e+00	0	42	0	485490688	55	3851
2026-01-28 11:23:53.67	145.72	10.80	-41.6	-42.6	21.1	0.00e+00	0	42	0	491782144	55	3878
2026-01-28 11:23:54.68	145.71	10.89	-41.6	-42.5	21.2	0.00e+00	0	42	0	497025024	55	3834
2026-01-28 11:23:55.69	145.70	10.98	-41.5	-42.4	21.2	0.00e+00	0	42	0	502267904	55	3824
2026-01-28 11:23:56.69	145.70	11.07	-41.6	-42.6	21.1	0.00e+00	0	42	0	508559360	55	3873
2026-01-28 11:23:57.70	145.69	11.16	-41.5	-42.4	21.2	0.00e+00	0	42	0	513802240	55	3823
2026-01-28 11:23:58.71	145.68	11.26	-41.6	-42.5	21.2	0.00e+00	0	42	0	519045120	55	3842
2026-01-28 11:23:59.72	145.68	11.35	-41.6	-42.6	21.2	0.00e+00	0	42	0	525336576	55	3871
2026-01-28 11:24:00.73	145.67	11.44	-41.5	-42.4	21.3	0.00e+00	0	42	0	530579456	55	3798
2026-01-28 11:24:01.73	145.66	11.53	-41.5	-42.4	21.3	0.00e+00	0	42	0	535822336	54	4043
2026-01-28 11:24:02.74	145.65	11.63	-41.5	-42.4	21.2	0.00e+00	0	42	0	542113792	54	4042
2026-01-28 11:24:03.75	145.64	11.72	-41.4	-42.3	21.4	0.00e+00	0	42	0	548405248	54	3972
2026-01-28 11:24:04.76	145.64	11.82	-41.4	-42.3	21.4	0.00e+00	0	42	0	553648128	54	4002
2026-01-28 11:24:05.77	145.63	11.91	-41.4	-42.3	21.4	0.00e+00	0	42	0	558891008	54	3962
2026-01-28 11:24:06.77	145.62	12.01	-41.4	-42.3	21.4	0.00e+00	0	42	0	565182464	54	3963
2026-01-28 11:24:07.78	145.61	12.10	-41.4	-42.4	21.4	0.00e+00	0	42	0	570425344	54	4011
2026-01-28 11:24:08.79	145.60	12.20	-41.5	-42.4	21.3	0.00e+00	0	42	0	576716800	54	4051
2026-01-28 11:24:09.80	145.60	12.29	-41.4	-42.3	21.4	0.00e+00	0	42	0	581959680	54	3973
2026-01-28 11:24:10.80	145.59	12.39	-41.4	-42.4	21.4	0.00e+00	0	42	0	587202560	54	4009
2026-01-28 11:24:11.81	145.58	12.49	-41.3	-42.2	21.5	0.00e+00	0	42	0	593494016	54	3932
2026-01-28 11:24:12.82	145.57	12.59	-41.4	-42.3	21.4	0.00e+00	0	42	0	598736896	54	3973
2026-01-28 11:24:13.83	145.56	12.68	-41.3	-42.2	21.5	0.00e+00	0	42	0	603979776	54	3955
2026-01-28 11:24:14.83	145.55	12.78	-41.2	-42.1	21.6	0.00e+00	0	42	0	610271232	54	3892
2026-01-28 11:24:15.84	145.55	12.88	-41.2	-42.1	21.6	0.00e+00	0	42	0	616562688	54	3890
2026-01-28 11:24:16.85	145.54	12.98	-41.3	-42.2	21.6	0.00e+00	0	42	0	621805568	54	3916
2026-01-28 11:24:17.86	145.53	13.08	-41.3	-42.2	21.5	0.00e+00	0	42	0	627048448	54	3953
2026-01-28 11:24:18.86	145.52	13.18	-41.2	-42.1	21.7	0.00e+00	0	42	0	633339904	54	3881
2026-01-28 11:24:19.87	145.51	13.28	-41.3	-42.2	21.5	0.00e+00	0	42	0	638582784	54	3936
2026-01-28 11:24:20.88	145.50	13.38	-41.2	-42.1	21.7	0.00e+00	0	42	0	643825664	54	3875
2026-01-28 11:24:21.89	145.49	13.48	-41.1	-41.9	21.8	0.00e+00	0	42	0	650117120	54	3817
2026-01-28 11:24:22.90	145.48	13.58	-41.1	-41.9	21.8	0.00e+00	0	42	0	655360000	54	3823
2026-01-28 11:24:23.91	145.47	13.68	-41.0	-41.9	21.9	0.00e+00	0	42	0	661651456	54	3789
2026-01-28 11:24:24.91	145.46	13.79	-40.9	-41.8	21.9	0.00e+00	0	42	0	666894336	53	3988
2026-01-28 11:24:25.92	145.45	13.89	-40.9	-41.8	21.9	0.00e+00	0	42	0	672137216	53	3992
2026-01-28 11:24:26.93	145.45	13.99	-41.0	-41.8	21.9	0.00e+00	0	42	0	678428672	53	3996
2026-01-28 11:24:27.94	145.44	14.10	-40.9	-41.7	22.0	0.00e+00	0	42	0	683671552	53	3958
2026-01-28 11:24:28.95	145.43	14.20	-40.8	-41.7	22.0	0.00e+00	0	42	0	689963008	53	3925
2026-01-28 11:24:29.95	145.42	14.30	-40.9	-41.7	22.0	0.00e+00	0	42	0	695205888	53	3949
2026-01-28 11:24:30.96	145.41	14.41	-41.0	-41.9	21.9	0.00e+00	0	42	0	701497344	53	4007
2026-01-28 11:24:31.97	145.40	14.51	-40.8	-41.6	22.1	0.00e+00	0	42	0	706740224	53	3909
2026-01-28 11:24:32.98	145.39	14.62	-40.7	-41.6	22.1	0.00e+00	0	42	0	711983104	53	3890
2026-01-28 11:24:33.99	145.38	14.73	-40.8	-41.6	22.1	0.00e+00	0	42	0	718274560	53	3908
2026-01-28 11:24:34.99	145.37	14.83	-40.7	-41.5	22.2	0.00e+00	0	42	0	723517440	53	3865
2026-01-28 11:24:36.00	145.35	14.94	-40.6	-41.5	22.2	0.00e+00	0	42	0	728760320	53	3837
2026-01-28 11:24:37.01	145.34	15.05	-40.6	-41.4	22.3	0.00e+00	0	42	0	735051776	53	3817
2026-01-28 11:24:38.02	145.33	15.16	-40.6	-41.4	22.3	0.00e+00	0	42	0	740294656	53	3810
2026-01-28 11:24:39.02	145.32	15.27	-40.5	-41.4	22.4	0.00e+00	0	43	0	746586112	53	3796
2026-01-28 11:24:40.03	145.31	15.37	-40.6	-41.4	22.3	0.00e+00	0	42	0	751828992	53	3821
2026-01-28 11:24:41.04	145.30	15.48	-40.4	-41.3	22.4	0.00e+00	0	42	0	757071872	52	3980
2026-01-28 11:24:42.04	145.29	15.59	-40.5	-41.3	22.4	0.00e+00	0	42	0	763363328	52	3986
2026-01-28 11:24:43.05	145.28	15.70	-40.4	-41.3	22.5	0.00e+00	0	42	0	769654784	52	3967
2026-01-28 11:24:44.05	145.27	15.82	-40.4	-41.3	22.4	0.00e+00	0	42	0	774897664	52	3977
2026-01-28 11:24:45.06	145.26	15.93	-40.5	-41.3	22.4	0.00e+00	0	42	0	780140544	52	4001
2026-01-28 11:24:46.07	145.24	16.04	-40.3	-41.2	22.5	0.00e+00	0	42	0	786432000	52	3934
2026-01-28 11:24:47.07	145.23	16.15	-40.3	-41.2	22.6	0.00e+00	0	43	0	791674880	52	3921
2026-01-28 11:24:48.08	145.22	16.27	-40.4	-41.3	22.5	0.00e+00	0	42	0	796917760	52	3964
2026-01-28 11:24:49.09	145.21	16.38	-40.2	-41.1	22.7	0.00e+00	0	42	0	803209216	52	3884
2026-01-28 11:24:50.09	145.20	16.49	-40.2	-41.1	22.7	0.00e+00	0	42	0	808452096	52	3878
2026-01-28 11:24:51.10	145.19	16.61	-40.3	-41.2	22.6	0.00e+00	0	42	0	813694976	52	3914
2026-01-28 11:24:52.11	145.17	16.72	-40.1	-41.0	22.8	0.00e+00	0	42	0	819986432	52	3828
2026-01-28 11:24:53.12	145.16	16.84	-40.1	-41.0	22.8	0.00e+00	0	42	0	825229312	52	3828
2026-01-28 11:24:54.12	145.15	16.96	-40.1	-40.9	22.9	0.00e+00	0	42	0	831520768	52	3803
2026-01-28 11:24:55.13	145.14	17.07	-40.0	-40.8	22.9	0.00e+00	0	42	0	836763648	52	3778
2026-01-28 11:24:56.14	145.12	17.19	-40.1	-40.9	23.0	0.00e+00	0	43	0	842006528	51	4020
2026-01-28 11:24:57.15	145.11	17.31	-40.0	-40.8	23.0	0.00e+00	0	43	0	848297984	51	3997
2026-01-28 11:24:58.16	145.10	17.43	-40.0	-40.8	23.0	0.00e+00	0	42	0	854589440	51	3995
2026-01-28 11:24:59.17	145.08	17.55	-40.0	-40.8	23.1	0.00e+00	0	42	0	859832320	51	3981
2026-01-28 11:25:00.18	145.07	17.67	-40.0	-40.8	23.0	0.00e+00	0	42	0	865075200	51	3977
2026-01-28 11:25:01.19	145.06	17.79	-39.9	-40.7	23.1	0.00e+00	0	42	0	871366656	51	3948
2026-01-28 11:25:02.19	145.04	17.91	-39.9	-40.7	23.1	0.00e+00	0	43	0	876609536	51	3954
2026-01-28 11:25:03.20	145.03	18.03	-39.9	-40.7	23.2	0.00e+00	0	42	0	881852416	51	3922
2026-01-28 11:25:04.21	145.02	18.15	-39.7	-40.4	23.3	0.00e+00	0	42	0	888143872	51	3823
2026-01-28 11:25:05.22	145.00	18.28	-39.6	-40.4	23.4	0.00e+00	0	42	0	893386752	51	3818
2026-01-28 11:25:06.23	144.99	18.40	-39.7	-40.5	23.3	0.00e+00	0	43	0	898629632	51	3844
2026-01-28 11:25:07.23	144.98	18.52	-39.6	-40.4	23.4	0.00e+00	0	42	0	904921088	51	3808
2026-01-28 11:25:08.24	144.96	18.65	-39.5	-40.3	23.5	0.00e+00	0	42	0	911212544	51	3752
2026-01-28 11:25:09.25	144.95	18.77	-39.5	-40.3	23.5	0.00e+00	0	42	0	916455424	51	3769
2026-01-28 11:25:10.26	144.93	18.90	-39.6	-40.4	23.5	0.00e+00	0	42	0	921698304	51	3785
2026-01-28 11:25:11.27	144.92	19.03	-39.4	-40.2	23.6	0.00e+00	0	42	0	927989760	50	3950
2026-01-28 11:25:12.28	144.90	19.15	-39.4	-40.2	23.6	0.00e+00	0	42	0	933232640	50	3933
2026-01-28 11:25:13.29	144.89	19.28	-39.4	-40.2	23.5	0.00e+00	0	42	0	939524096	50	3951
2026-01-28 11:25:14.29	144.87	19.41	-39.5	-40.2	23.5	0.00e+00	0	42	0	944766976	50	3955
2026-01-28 11:25:15.30	144.86	19.54	-39.5	-40.3	23.5	0.00e+00	0	42	0	950009856	50	3969
2026-01-28 11:25:16.31	144.84	19.67	-39.4	-40.2	23.5	0.00e+00	0	42	0	956301312	50	3946
2026-01-28 11:25:17.32	144.83	19.80	-39.5	-40.3	23.5	0.00e+00	0	42	0	961544192	50	3970
2026-01-28 11:25:18.32	144.81	19.93	-39.4	-40.2	23.6	0.00e+00	0	42	0	966787072	50	3949
2026-01-28 11:25:19.33	144.79	20.06	-39.4	-40.2	23.6	0.00e+00	0	42	0	973078528	50	3935
2026-01-28 11:25:20.34	144.78	20.20	-39.5	-40.3	23.5	0.00e+00	0	42	0	978321408	50	3965
2026-01-28 11:25:21.35	144.76	20.33	-39.4	-40.2	23.6	0.00e+00	0	42	0	984612864	50	3950
2026-01-28 11:25:22.35	144.74	20.46	-39.4	-40.2	23.6	0.00e+00	0	42	0	989855744	50	3945
2026-01-28 11:25:23.36	144.73	20.60	-39.4	-40.2	23.6	0.00e+00	0	42	0	996147200	50	3940
2026-01-28 11:25:24.37	144.71	20.74	-39.5	-40.3	23.5	0.00e+00	0	42	0	1001390080	50	3966
2026-01-28 11:25:25.38	144.69	20.87	-39.4	-40.2	23.6	0.00e+00	0	42	0	1006632960	50	3939
2026-01-28 11:25:26.39	144.68	21.01	-39.5	-40.3	23.5	0.00e+00	0	42	0	1012924416	50	3998
2026-01-28 11:25:27.40	144.66	21.15	-39.5	-40.3	23.6	0.00e+00	0	43	0	1018167296	50	3963
2026-01-28 11:25:28.41	144.64	21.29	-39.5	-40.3	23.5	0.00e+00	0	42	0	1024458752	50	3983
2026-01-28 11:25:29.41	144.62	21.42	-39.4	-40.2	23.6	0.00e+00	0	43	0	1029701632	50	3933
2026-01-28 11:25:30.42	144.61	21.57	-39.4	-40.2	23.6	0.00e+00	0	42	0	1034944512	50	3921
2026-01-28 11:25:31.43	144.59	21.71	-39.4	-40.2	23.6	0.00e+00	0	42	0	1041235968	50	3920
2026-01-28 11:25:32.43	144.57	21.85	-39.4	-40.2	23.6	0.00e+00	0	42	0	1046478848	50	3944
2026-01-28 11:25:33.44	144.55	21.99	-39.4	-40.1	23.7	0.00e+00	0	42	0	1052770304	50	3908
2026-01-28 11:25:34.45	144.53	22.13	-39.2	-40.0	23.8	0.00e+00	0	43	0	1058013184	50	3831
2026-01-28 11:25:35.46	144.51	22.28	-39.1	-39.9	23.9	0.00e+00	0	42	0	1064304640	50	3811
2026-01-28 11:25:36.47	144.49	22.42	-39.1	-39.9	23.9	0.00e+00	0	43	0	1069547520	50	3802
2026-01-28 11:25:37.48	144.47	22.57	-39.2	-39.9	23.9	0.00e+00	0	42	0	1074790400	50	3818
2026-01-28 11:25:38.49	144.45	22.72	-39.1	-39.9	23.9	0.00e+00	0	43	0	1081081856	50	3793
2026-01-28 11:25:39.50	144.43	22.86	-39.0	-39.8	24.0	0.00e+00	0	43	0	1086324736	50	3762
2026-01-28 11:25:40.51	144.41	23.01	-39.1	-39.9	24.0	0.00e+00	0	42	0	1091567616	50	3781
2026-01-28 11:25:41.52	144.39	23.16	-39.0	-39.8	24.0	0.00e+00	0	42	0	1097859072	50	3757
2026-01-28 11:25:42.52	144.37	23.31	-38.9	-39.7	24.1	0.00e+00	0	43	0	1103101952	49	3930
2026-01-28 11:25:43.53	144.35	23.46	-39.0	-39.8	23.9	0.00e+00	0	42	0	1109393408	49	3972
2026-01-28 11:25:44.54	144.33	23.61	-39.1	-39.9	23.9	0.00e+00	0	42	0	1114636288	49	4045
2026-01-28 11:25:45.55	144.31	23.77	-39.0	-39.7	24.0	0.00e+00	0	43	0	1120927744	49	3953
2026-01-28 11:25:46.56	144.29	23.92	-38.9	-39.7	24.1	0.00e+00	0	42	0	1126170624	49	3934
2026-01-28 11:25:47.57	144.27	24.08	-38.9	-39.7	24.1	0.00e+00	0	42	0	1132462080	49	3949
2026-01-28 11:25:48.58	144.24	24.23	-39.0	-39.7	24.0	0.00e+00	0	42	0	1137704960	49	3958
2026-01-28 11:25:49.59	144.22	24.39	-38.9	-39.7	24.1	0.00e+00	0	43	0	1142947840	49	3930
2026-01-28 11:25:50.60	144.20	24.54	-38.9	-39.7	24.1	0.00e+00	0	43	0	1149239296	49	3926
2026-01-28 11:25:51.60	144.18	24.70	-38.8	-39.6	24.2	0.00e+00	0	43	0	1154482176	49	3890
2026-01-28 11:25:52.61	144.15	24.86	-38.8	-39.5	24.2	0.00e+00	0	42	0	1159725056	49	3860
2026-01-28 11:25:53.62	144.13	25.02	-38.8	-39.5	24.2	0.00e+00	0	43	0	1166016512	49	3851
2026-01-28 11:25:54.63	144.11	25.18	-38.7	-39.5	24.3	0.00e+00	0	42	0	1171259392	49	3844
2026-01-28 11:25:55.64	144.08	25.35	-38.8	-39.6	24.2	0.00e+00	0	43	0	1177550848	49	3880
2026-01-28 11:25:56.65	144.06	25.51	-38.7	-39.5	24.3	0.00e+00	0	42	0	1182793728	49	3842
2026-01-28 11:25:57.65	144.03	25.67	-38.6	-39.4	24.4	0.00e+00	0	43	0	1189085184	49	3782
2026-01-28 11:25:58.66	144.01	25.84	-38.6	-39.4	24.4	0.00e+00	0	42	0	1194328064	49	3789
2026-01-28 11:25:59.67	143.98	26.00	-38.5	-39.3	24.5	0.00e+00	0	43	0	1199570944	49	3756
2026-01-28 11:26:00.68	143.96	26.17	-38.5	-39.3	24.5	0.00e+00	0	43	0	1205862400	49	3753
2026-01-28 11:26:01.69	143.93	26.34	-38.6	-39.3	24.5	0.00e+00	0	42	0	1211105280	49	3768
2026-01-28 11:26:02.70	143.91	26.51	-38.5	-39.3	24.5	0.00e+00	0	42	0	1217396736	49	3745
2026-01-28 11:26:03.71	143.88	26.68	-38.4	-39.2	24.6	0.00e+00	0	42	0	1222639616	48	3931
2026-01-28 11:26:04.72	143.85	26.85	-38.4	-39.1	24.6	0.00e+00	0	42	0	1227882496	48	3909
2026-01-28 11:26:05.73	143.83	27.02	-38.4	-39.1	24.6	0.00e+00	0	43	0	1234173952	48	3891
2026-01-28 11:26:06.74	143.80	27.20	-38.3	-39.0	24.7	0.00e+00	0	43	0	1239416832	48	3845
2026-01-28 11:26:07.75	143.77	27.37	-38.3	-39.0	24.7	0.00e+00	0	43	0	1245708288	48	3854
2026-01-28 11:26:08.76	143.74	27.55	-38.2	-38.9	24.8	0.00e+00	0	43	0	1250951168	48	3822
2026-01-28 11:26:09.77	143.72	27.73	-38.2	-39.0	24.8	0.00e+00	0	42	0	1257242624	48	3830
2026-01-28 11:26:10.78	143.69	27.90	-38.3	-39.1	24.7	0.00e+00	0	43	0	1262485504	48	3879
2026-01-28 11:26:11.79	143.66	28.08	-38.3	-39.0	24.7	0.00e+00	0	43	0	1267728384	48	3843
2026-01-28 11:26:12.79	143.63	28.26	-38.3	-39.1	24.7	0.00e+00	0	42	0	1274019840	48	3887
2026-01-28 11:26:13.80	143.60	28.44	-38.4	-39.1	24.6	0.00e+00	0	43	0	1279262720	48	3907
2026-01-28 11:26:14.81	143.57	28.63	-38.3	-39.1	24.7	0.00e+00	0	42	0	1284505600	48	3889
2026-01-28 11:26:15.82	143.54	28.81	-38.4	-39.1	24.6	0.00e+00	0	43	0	1290797056	48	3904
2026-01-28 11:26:16.83	143.51	29.00	-38.3	-39.1	24.7	0.00e+00	0	43	0	1296039936	48	3884
2026-01-28 11:26:17.84	143.48	29.18	-38.3	-39.1	24.7	0.00e+00	0	43	0	1302331392	48	3884
2026-01-28 11:26:18.84	143.44	29.37	-38.3	-39.1	24.7	0.00e+00	0	43	0	1307574272	48	3885
2026-01-28 11:26:19.85	143.41	29.56	-38.2	-39.0	24.8	0.00e+00	0	43	0	1313865728	48	3826
2026-01-28 11:26:20.86	143.38	29.75	-38.3	-39.1	24.7	0.00e+00	0	43	0	1319108608	48	3882
2026-01-28 11:26:21.87	143.35	29.94	-38.2	-39.0	24.8	0.00e+00	0	42	0	1325400064	48	3841
2026-01-28 11:26:22.88	143.31	30.13	-38.1	-38.9	24.9	0.00e+00	0	42	0	1330642944	48	3799
2026-01-28 11:26:23.89	143.28	30.33	-38.2	-39.0	24.8	0.00e+00	0	43	0	1335885824	48	3844
2026-01-28 11:26:24.89	143.24	30.52	-38.2	-38.9	24.8	0.00e+00	0	43	0	1342177280	48	3810
2026-01-28 11:26:25.90	143.21	30.72	-38.0	-38.7	25.0	0.00e+00	0	43	0	1347420160	48	3716
2026-01-28 11:26:26.90	143.18	30.91	-37.7	-38.4	24.7	0.00e+00	0	43	0	1352663040	47	3820
2026-01-28 11:26:27.91	143.14	31.11	-37.7	-38.4	24.8	0.00e+00	0	42	0	1358954496	47	3815
2026-01-28 11:26:28.92	143.10	31.31	-37.8	-38.6	24.6	0.00e+00	0	42	0	1364197376	47	3889
2026-01-28 11:26:29.93	143.07	31.51	-37.8	-38.6	24.6	0.00e+00	0	43	0	1369440256	47	3882
2026-01-28 11:26:30.94	143.03	31.72	-37.8	-38.5	24.7	0.00e+00	0	43	0	1375731712	47	3865
2026-01-28 11:26:31.95	142.99	31.92	-37.7	-38.5	24.7	0.00e+00	0	43	0	1382023168	47	3843
2026-01-28 11:26:32.96	142.95	32.13	-37.8	-38.5	24.7	0.00e+00	0	42	0	1387266048	47	3861
2026-01-28 11:26:33.96	142.91	32.34	-37.7	-38.4	24.7	0.00e+00	0	43	0	1392508928	47	3817
2026-01-28 11:26:34.97	142.88	32.54	-37.6	-38.4	24.8	0.00e+00	0	43	0	1398800384	47	3807
2026-01-28 11:26:35.98	142.84	32.76	-37.7	-38.5	24.7	0.00e+00	0	43	0	1404043264	47	3830
2026-01-28 11:26:36.99	142.79	32.97	-37.6	-38.3	24.8	0.00e+00	0	43	0	1410334720	47	3779
2026-01-28 11:26:38.01	142.75	33.18	-37.5	-38.3	24.9	0.00e+00	0	43	0	1415577600	47	3759
2026-01-28 11:26:39.01	142.71	33.40	-37.6	-38.4	24.9	0.00e+00	0	43	0	1420820480	47	3784
2026-01-28 11:26:40.02	142.67	33.61	-37.7	-38.5	24.8	0.00e+00	0	43	0	1427111936	47	3834
2026-01-28 11:26:41.03	142.63	33.83	-37.5	-38.2	25.0	0.00e+00	0	43	0	1432354816	47	3733
2026-01-28 11:26:42.03	142.58	34.05	-37.4	-38.1	25.1	0.00e+00	0	43	0	1437597696	46	3897
2026-01-28 11:26:43.04	142.54	34.27	-37.2	-37.9	25.2	0.00e+00	0	43	0	1443889152	46	3813
2026-01-28 11:26:44.05	142.49	34.49	-37.2	-37.9	25.2	0.00e+00	0	43	0	1450180608	46	3815
2026-01-28 11:26:45.06	142.45	34.72	-37.2	-37.9	25.2	0.00e+00	0	43	0	1455423488	46	3819
2026-01-28 11:26:46.07	142.40	34.94	-37.0	-37.8	25.4	0.00e+00	0	43	0	1460666368	46	3738
2026-01-28 11:26:47.08	142.36	35.17	-36.9	-37.7	25.5	0.00e+00	0	43	0	1466957824	45	3922
2026-01-28 11:26:48.09	142.31	35.40	-37.1	-37.8	25.3	0.00e+00	0	43	0	1472200704	45	3996
2026-01-28 11:26:49.09	142.26	35.63	-37.1	-37.9	25.3	0.00e+00	0	43	0	1477443584	45	4015
2026-01-28 11:26:50.10	142.21	35.86	-37.3	-38.1	25.1	0.00e+00	0	43	0	1483735040	45	4103
2026-01-28 11:26:51.10	142.16	36.09	-37.4	-38.1	25.1	0.00e+00	0	43	0	1488977920	45	4129
2026-01-28 11:26:52.11	142.11	36.33	-37.5	-38.3	24.9	0.00e+00	0	43	0	1495269376	45	4212
2026-01-28 11:26:53.12	142.06	36.56	-37.6	-38.4	24.8	0.00e+00	0	43	0	1500512256	45	4264
2026-01-28 11:26:54.13	142.01	36.80	-37.7	-38.5	24.8	0.00e+00	0	43	0	1505755136	45	4300
2026-01-28 11:26:55.13	141.96	37.04	-37.8	-38.5	25.1	0.00e+00	0	43	0	1512046592	46	4098
2026-01-28 11:26:56.14	141.90	37.28	-37.8	-38.5	25.1	0.00e+00	0	42	0	1517289472	46	4077
2026-01-28 11:26:57.15	141.85	37.53	-37.7	-38.4	25.2	0.00e+00	0	42	0	1523580928	46	4036
2026-01-28 11:26:58.16	141.79	37.78	-37.7	-38.4	25.2	0.00e+00	0	43	0	1528823808	46	4043
2026-01-28 11:26:59.16	141.74	38.02	-37.7	-38.4	25.2	0.00e+00	0	43	0	1535115264	46	4030
2026-01-28 11:27:00.17	141.68	38.27	-37.5	-38.2	25.4	0.00e+00	0	42	0	1540358144	46	3939
2026-01-28 11:27:01.18	141.62	38.52	-37.5	-38.2	25.4	0.00e+00	0	42	0	1545601024	46	3950
2026-01-28 11:27:02.19	141.56	38.78	-37.5	-38.1	25.5	0.00e+00	0	42	0	1551892480	46	3911
2026-01-28 11:27:03.20	141.50	39.03	-37.5	-38.2	25.4	0.00e+00	0	42	0	1557135360	46	3917
2026-01-28 11:27:04.20	141.44	39.29	-37.6	-38.3	25.3	0.00e+00	0	42	0	1562378240	46	3973
2026-01-28 11:27:05.21	141.38	39.54	-37.7	-38.4	25.3	0.00e+00	0	42	0	1568669696	46	4009
2026-01-28 11:27:06.22	141.31	39.80	-37.7	-38.4	25.3	0.00e+00	0	42	0	1573912576	46	4017
2026-01-28 11:27:07.23	141.25	40.07	-37.8	-38.5	25.2	0.00e+00	0	43	0	1580204032	46	4070
2026-01-28 11:27:08.24	141.18	40.33	-37.9	-38.6	25.1	0.00e+00	0	42	0	1585446912	46	4123
2026-01-28 11:27:09.25	141.12	40.60	-38.0	-38.8	24.9	0.00e+00	0	42	0	1591738368	46	4198
2026-01-28 11:27:10.25	141.05	40.86	-38.0	-38.8	24.9	0.00e+00	0	42	0	1596981248	46	4203
2026-01-28 11:27:11.26	140.98	41.14	-38.0	-38.7	25.0	0.00e+00	0	43	0	1603272704	46	4174
2026-01-28 11:27:12.27	140.91	41.41	-37.9	-38.7	25.0	0.00e+00	0	42	0	1608515584	46	4146
2026-01-28 11:27:13.27	140.84	41.68	-38.0	-38.7	25.0	0.00e+00	0	42	0	1613758464	46	4163
2026-01-28 11:27:14.28	140.77	41.96	-38.1	-38.9	24.9	0.00e+00	0	43	0	1620049920	46	4251
2026-01-28 11:27:15.29	140.69	42.23	-38.1	-38.9	24.9	0.00e+00	0	43	0	1625292800	46	4248
2026-01-28 11:27:16.30	140.62	42.52	-38.2	-38.9	24.9	0.00e+00	0	42	0	1630535680	47	4026
2026-01-28 11:27:17.31	140.54	42.80	-38.2	-39.0	24.8	0.00e+00	0	43	0	1636827136	47	4052
2026-01-28 11:27:18.31	140.46	43.08	-38.2	-38.9	24.9	0.00e+00	0	42	0	1642070016	47	4029
2026-01-28 11:27:19.32	140.38	43.37	-38.0	-38.8	25.0	0.00e+00	0	43	0	1647312896	47	3961
2026-01-28 11:27:20.33	140.30	43.66	-37.9	-38.6	25.2	0.00e+00	0	42	0	1653604352	47	3885
2026-01-28 11:27:21.34	140.22	43.95	-38.0	-38.7	25.0	0.00e+00	0	43	0	1658847232	47	3954
2026-01-28 11:27:22.35	140.13	44.24	-38.2	-38.9	24.9	0.00e+00	0	42	0	1665138688	47	4014
2026-01-28 11:27:23.36	140.05	44.53	-38.3	-39.1	24.7	0.00e+00	0	42	0	1670381568	47	4104
2026-01-28 11:27:24.37	139.96	44.83	-38.4	-39.2	24.6	0.00e+00	0	42	0	1676673024	47	4146
2026-01-28 11:27:25.37	139.87	45.13	-38.5	-39.2	24.6	0.00e+00	0	43	0	1681915904	47	4169
2026-01-28 11:27:26.38	139.78	45.43	-38.5	-39.3	24.5	0.00e+00	0	42	0	1688207360	47	4224
2026-01-28 11:27:27.39	139.69	45.73	-38.6	-39.4	24.4	0.00e+00	0	43	0	1693450240	47	4272
2026-01-28 11:27:28.40	139.59	46.04	-38.9	-39.6	24.8	0.00e+00	0	43	0	1698693120	48	4121
2026-01-28 11:27:29.41	139.50	46.35	-38.6	-39.3	25.0	0.00e+00	0	42	0	1704984576	48	3970
2026-01-28 11:27:30.41	139.40	46.66	-38.4	-39.1	25.2	0.00e+00	0	42	0	1710227456	48	3884
2026-01-28 11:27:31.41	139.30	46.97	-38.4	-39.0	25.2	0.00e+00	0	43	0	1715470336	48	3866
2026-01-28 11:27:32.42	139.19	47.28	-38.0	-38.7	25.6	0.00e+00	0	42	0	1721761792	48	3712
2026-01-28 11:27:33.42	139.09	47.60	-37.8	-38.5	25.3	0.00e+00	0	43	0	1727004672	47	3839
2026-01-28 11:27:34.43	138.98	47.91	-37.9	-38.6	25.2	0.00e+00	0	43	0	1732247552	47	3876
2026-01-28 11:27:35.44	138.87	48.24	-38.0	-38.7	25.1	0.00e+00	0	42	0	1738539008	47	3937
2026-01-28 11:27:36.45	138.76	48.56	-37.9	-38.6	25.2	0.00e+00	0	43	0	1744830464	47	3894
2026-01-28 11:27:37.46	138.65	48.89	-37.9	-38.6	25.1	0.00e+00	0	42	0	1750073344	47	3904
2026-01-28 11:27:38.47	138.53	49.22	-38.0	-38.7	25.1	0.00e+00	0	43	0	1755316224	47	3921
2026-01-28 11:27:39.47	138.41	49.54	-38.0	-38.7	25.1	0.00e+00	0	43	0	1761607680	47	3956
2026-01-28 11:27:40.48	138.29	49.88	-38.4	-39.1	24.7	0.00e+00	0	42	0	1766850560	47	4120
2026-01-28 11:27:41.49	138.16	50.21	-38.7	-39.4	24.4	0.00e+00	0	42	0	1773142016	47	4287
2026-01-28 11:27:42.50	138.03	50.55	-39.1	-39.9	24.6	0.00e+00	0	43	0	1778384896	48	4252
2026-01-28 11:27:43.51	137.90	50.89	-39.2	-39.9	24.5	0.00e+00	0	43	0	1783627776	49	4040
2026-01-28 11:27:44.52	137.77	51.23	-39.3	-40.0	24.4	0.00e+00	0	43	0	1789919232	49	4097
2026-01-28 11:27:45.53	137.63	51.58	-39.6	-40.3	24.2	0.00e+00	0	42	0	1795162112	49	4214
2026-01-28 11:27:46.52	137.49	51.92	-39.8	-40.5	24.0	0.00e+00	0	42	0	1800404992	50	4086
2026-01-28 11:27:47.53	137.35	52.27	-39.6	-40.4	24.1	0.00e+00	0	42	0	1806696448	50	4019
2026-01-28 11:27:48.54	137.20	52.62	-39.8	-40.5	24.0	0.00e+00	0	42	0	1811939328	50	4079
2026-01-28 11:27:49.55	137.05	52.97	-39.8	-40.6	23.9	0.00e+00	0	42	0	1818230784	50	4111
2026-01-28 11:27:50.56	136.90	53.33	-39.8	-40.5	24.0	0.00e+00	0	42	0	1823473664	50	4094
2026-01-28 11:27:51.56	136.74	53.68	-39.8	-40.5	24.0	0.00e+00	0	43	0	1829765120	50	4086
2026-01-28 11:27:52.57	136.57	54.04	-39.7	-40.5	24.1	0.00e+00	0	42	0	1835008000	50	4054
2026-01-28 11:27:53.58	136.41	54.41	-39.6	-40.3	24.2	0.00e+00	0	42	0	1840250880	50	3989
2026-01-28 11:27:54.59	136.24	54.77	-39.8	-40.5	24.0	0.00e+00	0	42	0	1846542336	50	4085
2026-01-28 11:27:55.59	136.06	55.14	-39.7	-40.5	24.1	0.00e+00	0	43	0	1851785216	50	4067
2026-01-28 11:27:56.60	135.88	55.51	-39.6	-40.4	24.2	0.00e+00	0	42	0	1858076672	50	4008
2026-01-28 11:27:57.61	135.69	55.88	-39.5	-40.2	24.3	0.00e+00	0	43	0	1863319552	50	3936
2026-01-28 11:27:58.61	135.50	56.25	-39.5	-40.2	24.3	0.00e+00	0	43	0	1868562432	50	3937
2026-01-28 11:27:59.62	135.31	56.63	-39.5	-40.2	24.3	0.00e+00	0	43	0	1874853888	50	3957
2026-01-28 11:28:00.63	135.11	57.01	-39.5	-40.2	24.3	0.00e+00	0	43	0	1880096768	50	3946
2026-01-28 11:28:01.64	134.90	57.39	-39.3	-40.1	24.4	0.00e+00	0	42	0	1885339648	50	3880
2026-01-28 11:28:02.64	134.69	57.77	-39.4	-40.1	24.4	0.00e+00	0	43	0	1891631104	50	3910
2026-01-28 11:28:03.65	134.47	58.15	-39.0	-39.7	24.8	0.00e+00	0	43	0	1897922560	50	3719
2026-01-28 11:28:04.66	134.24	58.54	-39.4	-40.1	24.4	0.00e+00	0	43	0	1903165440	50	3911
2026-01-28 11:28:05.66	134.01	58.93	-39.2	-40.0	24.5	0.00e+00	0	43	0	1908408320	50	3841
2026-01-28 11:28:06.67	133.77	59.32	-38.8	-39.5	24.9	0.00e+00	0	43	0	1914699776	49	3855
2026-01-28 11:28:07.68	133.52	59.71	-38.7	-39.4	25.1	0.00e+00	0	42	0	1919942656	49	3797
2026-01-28 11:28:08.69	133.27	60.11	-38.7	-39.4	25.1	0.00e+00	0	43	0	1925185536	49	3795
2026-01-28 11:28:09.70	133.00	60.50	-38.5	-39.1	25.2	0.00e+00	0	42	0	1931476992	49	3692
2026-01-28 11:28:10.71	132.73	60.90	-38.4	-39.1	25.3	0.00e+00	0	42	0	1936719872	48	3876
2026-01-28 11:28:11.72	132.45	61.31	-38.6	-39.3	25.1	0.00e+00	0	43	0	1943011328	48	3976
2026-01-28 11:28:12.73	132.16	61.71	-38.9	-39.6	24.9	0.00e+00	0	42	0	1948254208	48	4140
2026-01-28 11:28:13.73	131.86	62.11	-38.7	-39.4	25.1	0.00e+00	0	43	0	1953497088	48	4013
2026-01-28 11:28:14.74	131.55	62.52	-38.4	-39.0	25.3	0.00e+00	0	43	0	1959788544	48	3861
2026-01-28 11:28:15.74	131.23	62.92	-38.3	-39.0	25.4	0.00e+00	0	43	0	1965031424	48	3859
2026-01-28 11:28:16.75	130.90	63.33	-38.3	-39.0	25.4	0.00e+00	0	43	0	1971322880	48	3826
2026-01-28 11:28:17.76	130.56	63.74	-38.4	-39.1	25.3	0.00e+00	0	42	0	1976565760	48	3891
2026-01-28 11:28:18.77	130.20	64.15	-38.4	-39.1	25.3	0.00e+00	0	43	0	1982857216	48	3892
2026-01-28 11:28:19.77	129.83	64.56	-38.3	-39.0	25.4	0.00e+00	0	42	0	1988100096	48	3833
2026-01-28 11:28:20.78	129.45	64.98	-38.0	-38.7	25.6	0.00e+00	0	43	0	1993342976	48	3712
2026-01-28 11:28:21.79	129.05	65.40	-38.0	-38.7	25.7	0.00e+00	0	43	0	1999634432	48	3720
2026-01-28 11:28:22.80	128.64	65.81	-37.6	-38.4	25.5	0.00e+00	0	42	0	2004877312	47	3783
2026-01-28 11:28:23.80	128.21	66.23	-37.3	-38.0	25.8	0.00e+00	0	43	0	2010120192	46	3845
2026-01-28 11:28:24.81	127.77	66.65	-37.1	-37.8	25.9	0.00e+00	0	43	0	2016411648	46	3767
2026-01-28 11:28:25.82	127.30	67.07	-37.0	-37.7	26.0	0.00e+00	0	43	0	2021654528	46	3714
2026-01-28 11:28:26.83	126.82	67.49	-36.9	-37.6	26.1	0.00e+00	0	43	0	2027945984	45	3873
2026-01-28 11:28:27.84	126.31	67.91	-36.9	-37.6	26.1	0.00e+00	0	42	0	2033188864	45	3877
2026-01-28 11:28:28.84	125.79	68.33	-37.0	-37.7	26.1	0.00e+00	0	42	0	2039480320	45	3922
2026-01-28 11:28:29.85	125.24	68.75	-36.8	-37.5	26.2	0.00e+00	0	42	0	2044723200	45	3841
2026-01-28 11:28:30.85	124.68	69.17	-36.8	-37.5	26.2	0.00e+00	0	42	0	2051014656	45	3838
2026-01-28 11:28:31.86	124.08	69.59	-37.0	-37.7	26.0	0.00e+00	0	42	0	2056257536	45	3936
2026-01-28 11:28:32.86	123.46	70.01	-36.9	-37.5	26.2	0.00e+00	0	43	0	2061500416	45	3868
2026-01-28 11:28:33.87	122.81	70.43	-36.7	-37.4	26.3	0.00e+00	0	43	0	2067791872	45	3808
2026-01-28 11:28:34.88	122.12	70.85	-36.8	-37.4	26.3	0.00e+00	0	43	0	2073034752	45	3819
2026-01-28 11:28:35.89	121.40	71.27	-36.9	-37.5	26.2	0.00e+00	0	43	0	2078277632	45	3862
2026-01-28 11:28:36.89	120.66	71.68	-36.9	-37.6	26.1	0.00e+00	0	42	0	2084569088	45	3900
2026-01-28 11:28:37.90	119.87	72.10	-36.8	-37.5	26.2	0.00e+00	0	43	0	2089811968	45	3859
2026-01-28 11:28:38.91	119.04	72.52	-37.1	-37.8	26.0	0.00e+00	0	43	0	2095054848	45	3966
2026-01-28 11:28:39.92	118.16	72.93	-37.0	-37.8	26.0	0.00e+00	0	43	0	2101346304	45	3959
2026-01-28 11:28:40.93	117.25	73.34	-36.8	-37.5	26.3	0.00e+00	0	42	0	2106589184	45	3826
2026-01-28 11:28:41.93	116.29	73.74	-37.1	-37.9	26.0	0.00e+00	0	42	0	2112880640	45	4005
2026-01-28 11:28:42.94	115.27	74.15	-37.1	-37.8	26.0	0.00e+00	0	42	0	2118123520	45	3982
2026-01-28 11:28:43.95	114.20	74.55	-36.6	-37.3	26.4	0.00e+00	0	42	0	2124414976	45	3764
2026-01-28 11:28:44.96	113.06	74.94	-36.8	-37.4	26.3	0.00e+00	0	43	0	2129657856	45	3824
2026-01-28 11:28:45.97	111.87	75.33	-36.5	-37.1	26.6	0.00e+00	0	43	0	2135949312	45	3690
2026-01-28 11:28:46.97	110.62	75.72	-36.4	-37.1	26.5	0.00e+00	0	43	0	2141192192	44	3889
2026-01-28 11:28:47.98	109.28	76.10	-36.6	-37.2	26.5	0.00e+00	0	42	0	2146435072	44	3950
2026-01-28 11:28:48.99	107.87	76.47	-36.5	-37.2	26.5	0.00e+00	0	42	0	2152726528	44	3927
2026-01-28 11:28:49.99	106.39	76.83	-36.1	-36.7	26.8	0.00e+00	0	42	0	2157969408	44	3735
2026-01-28 11:28:51.00	104.81	77.19	-35.6	-36.3	27.1	0.00e+00	0	42	0	2163212288	43	3762
2026-01-28 11:28:52.01	103.13	77.54	-35.7	-36.4	27.1	0.00e+00	0	42	0	2169503744	43	3786
2026-01-28 11:28:53.02	101.36	77.87	-35.6	-36.3	27.2	0.00e+00	0	43	0	2174746624	43	3755
2026-01-28 11:28:54.03	99.49	78.20	-35.2	-35.9	27.5	0.00e+00	0	43	0	2179989504	42	3787
2026-01-28 11:28:55.04	97.51	78.51	-35.1	-35.8	27.5	0.00e+00	0	42	0	2186280960	42	3755
2026-01-28 11:28:56.05	95.42	78.81	-35.0	-35.7	27.6	0.00e+00	0	43	0	2192572416	42	3707
2026-01-28 11:28:57.05	93.23	79.10	-34.8	-35.4	27.8	0.00e+00	0	43	0	2197815296	41	3824
2026-01-28 11:28:58.06	90.91	79.37	-35.0	-35.7	27.6	0.00e+00	0	43	0	2203058176	41	3917
2026-01-28 11:28:59.07	88.47	79.62	-35.0	-35.6	27.7	0.00e+00	0	43	0	2209349632	41	3902
2026-01-28 11:29:00.08	85.91	79.85	-35.0	-35.7	27.7	0.00e+00	0	43	0	2214592512	41	3915
2026-01-28 11:29:01.09	83.23	80.06	-34.8	-35.5	27.8	0.00e+00	0	43	0	2220883968	41	3826
2026-01-28 11:29:02.09	80.47	80.25	-34.8	-35.4	27.8	0.00e+00	0	42	0	2226126848	41	3811
2026-01-28 11:29:03.10	77.58	80.41	-34.9	-35.6	27.7	0.00e+00	0	42	0	2231369728	41	3875
2026-01-28 11:29:04.10	74.62	80.55	-35.1	-35.8	27.5	0.00e+00	0	42	0	2237661184	41	3962
2026-01-28 11:29:05.11	71.54	80.67	-34.8	-35.4	27.8	0.00e+00	0	42	0	2242904064	41	3799
2026-01-28 11:29:06.12	68.40	80.76	-34.9	-35.5	27.7	0.00e+00	0	42	0	2248146944	41	3861
2026-01-28 11:29:07.13	65.21	80.82	-35.1	-35.8	27.5	0.00e+00	0	43	0	2254438400	41	3977
2026-01-28 11:29:08.13	62.02	80.85	-35.0	-35.7	27.6	0.00e+00	0	42	0	2259681280	41	3928
2026-01-28 11:29:09.14	58.78	80.85	-35.0	-35.6	27.7	0.00e+00	0	42	0	2265972736	41	3883
2026-01-28 11:29:10.15	55.55	80.83	-35.1	-35.7	27.6	0.00e+00	0	42	0	2271215616	41	3957
2026-01-28 11:29:11.16	52.35	80.77	-35.2	-35.9	27.5	0.00e+00	0	43	0	2277507072	41	4031
2026-01-28 11:29:12.18	49.17	80.69	-35.3	-36.0	27.4	0.00e+00	0	42	0	2282749952	41	4079
2026-01-28 11:29:13.19	46.08	80.58	-35.5	-36.1	27.3	0.00e+00	0	42	0	2287992832	41	4125
2026-01-28 11:29:14.19	43.10	80.45	-35.4	-36.1	27.3	0.00e+00	0	43	0	2294284288	41	4100
2026-01-28 11:29:15.20	40.19	80.29	-34.9	-35.6	27.7	0.00e+00	0	42	0	2299527168	41	3873
2026-01-28 11:29:16.21	37.37	80.10	-35.0	-35.6	27.7	0.00e+00	0	43	0	2305818624	41	3895
2026-01-28 11:29:17.22	34.67	79.89	-35.2	-35.9	27.5	0.00e+00	0	43	0	2311061504	41	4029
2026-01-28 11:29:18.23	32.09	79.67	-35.2	-35.9	27.5	0.00e+00	0	42	0	2316304384	41	4016
2026-01-28 11:29:19.24	29.62	79.42	-35.3	-36.0	27.4	0.00e+00	0	42	0	2322595840	41	4053
2026-01-28 11:29:20.25	27.28	79.15	-35.4	-36.1	27.3	0.00e+00	0	42	0	2328887296	41	4121
2026-01-28 11:29:21.26	25.05	78.87	-35.3	-35.9	27.4	0.00e+00	0	43	0	2334130176	41	4044
2026-01-28 11:29:22.27	22.94	78.57	-34.9	-35.6	27.7	0.00e+00	0	42	0	2339373056	41	3887
2026-01-28 11:29:23.27	20.95	78.27	-35.2	-35.8	27.5	0.00e+00	0	43	0	2345664512	41	3998
2026-01-28 11:29:24.28	19.06	77.94	-35.3	-35.9	27.4	0.00e+00	0	42	0	2350907392	41	4044
2026-01-28 11:29:25.29	17.27	77.61	-35.3	-36.0	27.5	0.00e+00	0	43	0	2356150272	41	4055
2026-01-28 11:29:26.30	15.58	77.26	-35.5	-36.2	27.3	0.00e+00	0	42	0	2362441728	41	4146
2026-01-28 11:29:27.31	13.98	76.91	-35.7	-36.4	27.1	0.00e+00	0	42	0	2367684608	41	4266
2026-01-28 11:29:28.32	12.47	76.54	-35.9	-36.5	27.0	0.00e+00	0	43	0	2372927488	42	4092
2026-01-28 11:29:29.32	11.05	76.18	-35.8	-36.4	27.1	0.00e+00	0	43	0	2379218944	42	4040
2026-01-28 11:29:30.33	9.70	75.80	-35.9	-36.5	27.0	0.00e+00	0	42	0	2384461824	42	4083
2026-01-28 11:29:31.34	8.42	75.41	-35.8	-36.4	27.1	0.00e+00	0	42	0	2390753280	42	4035
2026-01-28 11:29:32.35	7.21	75.02	-35.9	-36.5	27.0	0.00e+00	0	42	0	2395996160	42	4091
2026-01-28 11:29:33.35	6.08	74.63	-36.1	-36.8	26.8	0.00e+00	0	42	0	2402287616	42	4211
2026-01-28 11:29:34.36	5.00	74.23	-36.3	-37.0	26.6	0.00e+00	0	43	0	2407530496	43	4061
2026-01-28 11:29:35.37	3.97	73.83	-36.3	-36.9	26.7	0.00e+00	0	42	0	2413821952	43	4038
2026-01-28 11:29:36.37	3.00	73.43	-36.4	-37.1	26.6	0.00e+00	0	43	0	2419064832	43	4126
2026-01-28 11:29:37.38	2.07	73.02	-36.4	-37.1	26.6	0.00e+00	0	43	0	2424307712	43	4108
2026-01-28 11:29:38.39	1.19	72.61	-36.6	-37.2	26.4	0.00e+00	0	43	0	2430599168	43	4190
2026-01-28 11:29:39.39	0.36	72.20	-36.9	-37.6	26.2	0.00e+00	0	42	0	2435842048	44	4133
2026-01-28 11:29:40.40	359.56	71.78	-36.9	-37.6	26.3	0.00e+00	0	42	0	2441084928	44	4099
2026-01-28 11:29:41.41	358.80	71.37	-36.6	-37.2	26.6	0.00e+00	0	42	0	2447376384	44	3947
2026-01-28 11:29:42.41	358.08	70.95	-36.6	-37.3	26.5	0.00e+00	0	42	0	2452619264	44	3988
2026-01-28 11:29:43.42	357.39	70.53	-36.9	-37.6	26.3	0.00e+00	0	43	0	2457862144	44	4119
2026-01-28 11:29:44.43	356.73	70.11	-37.3	-38.0	26.0	0.00e+00	0	42	0	2464153600	45	4062
2026-01-28 11:29:45.43	356.11	69.69	-37.3	-38.0	25.9	0.00e+00	0	42	0	2469396480	45	4062
2026-01-28 11:29:46.44	355.50	69.27	-37.3	-38.0	25.9	0.00e+00	0	43	0	2475687936	45	4059
2026-01-28 11:29:47.44	354.93	68.85	-37.3	-38.0	25.9	0.00e+00	0	43	0	2480930816	45	4092
2026-01-28 11:29:48.44	354.38	68.44	-36.9	-37.6	26.2	0.00e+00	0	42	0	2487222272	45	3893
2026-01-28 11:29:49.45	353.85	68.02	-36.9	-37.5	26.3	0.00e+00	0	43	0	2492465152	45	3867
2026-01-28 11:29:50.46	353.34	67.60	-37.2	-37.9	26.0	0.00e+00	0	43	0	2498756608	45	4044
2026-01-28 11:29:51.47	352.86	67.17	-37.2	-37.9	26.0	0.00e+00	0	43	0	2503999488	45	4013
2026-01-28 11:29:52.47	352.39	66.76	-36.9	-37.6	26.2	0.00e+00	0	42	0	2509242368	45	3903
2026-01-28 11:29:53.48	351.94	66.34	-37.0	-37.6	26.2	0.00e+00	0	43	0	2515533824	45	3902
2026-01-28 11:29:54.49	351.51	65.92	-37.0	-37.7	26.2	0.00e+00	0	43	0	2520776704	45	3923
2026-01-28 11:29:55.50	351.09	65.50	-37.0	-37.7	26.2	0.00e+00	0	42	0	2526019584	45	3914
2026-01-28 11:29:56.51	350.69	65.09	-37.1	-37.8	26.1	0.00e+00	0	43	0	2532311040	45	3977
2026-01-28 11:29:57.51	350.31	64.68	-37.4	-38.1	25.8	0.00e+00	0	42	0	2537553920	45	4132
2026-01-28 11:29:58.52	349.93	64.26	-37.3	-38.0	25.9	0.00e+00	0	42	0	2542796800	45	4058
2026-01-28 11:29:59.53	349.58	63.85	-37.2	-37.9	26.0	0.00e+00	0	42	0	2549088256	45	4024
2026-01-28 11:30:00.54	349.23	63.44	-37.3	-38.0	25.9	0.00e+00	0	43	0	2554331136	45	4084
2026-01-28 11:30:01.54	348.90	63.03	-37.4	-38.1	25.8	0.00e+00	0	42	0	2560622592	45	4116
2026-01-28 11:30:02.55	348.57	62.63	-37.5	-38.1	25.8	0.00e+00	0	43	0	2565865472	45	4143
2026-01-28 11:30:03.56	348.26	62.22	-37.5	-38.2	25.7	0.00e+00	0	43	0	2572156928	45	4155
2026-01-28 11:30:04.57	347.96	61.82	-37.5	-38.2	25.8	0.00e+00	0	43	0	2577399808	45	4156
2026-01-28 11:30:05.57	347.67	61.42	-37.4	-38.1	25.9	0.00e+00	0	42	0	2583691264	45	4111
2026-01-28 11:30:06.58	347.39	61.02	-37.4	-38.1	25.8	0.00e+00	0	42	0	2588934144	45	4114
2026-01-28 11:30:07.59	347.11	60.62	-37.3	-38.0	25.9	0.00e+00	0	43	0	2594177024	45	4065
2026-01-28 11:30:08.60	346.85	60.22	-37.4	-38.0	25.8	0.00e+00	0	42	0	2600468480	45	4097
2026-01-28 11:30:09.61	346.59	59.82	-37.5	-38.2	25.7	0.00e+00	0	42	0	2605711360	45	4158
2026-01-28 11:30:10.61	346.34	59.44	-37.8	-38.5	25.4	0.00e+00	0	42	0	2610954240	46	4088
2026-01-28 11:30:11.62	346.10	59.04	-38.1	-38.8	25.2	0.00e+00	0	43	0	2617245696	46	4223
2026-01-28 11:30:12.63	345.87	58.65	-38.2	-39.0	25.1	0.00e+00	0	43	0	2622488576	47	4063
2026-01-28 11:30:13.64	345.64	58.27	-38.4	-39.2	24.9	0.00e+00	0	42	0	2627731456	47	4146
2026-01-28 11:30:14.64	345.42	57.89	-38.7	-39.4	24.6	0.00e+00	0	42	0	2634022912	47	4275
2026-01-28 11:30:15.65	345.21	57.50	-39.2	-39.9	24.8	0.00e+00	0	43	0	2640314368	48	4253
2026-01-28 11:30:16.65	345.00	57.13	-39.2	-39.9	24.8	0.00e+00	0	42	0	2645557248	49	4040
2026-01-28 11:30:17.66	344.80	56.75	-39.2	-39.9	24.8	0.00e+00	0	43	0	2650800128	49	4044
2026-01-28 11:30:18.67	344.60	56.37	-39.1	-39.8	24.9	0.00e+00	0	43	0	2657091584	49	3969
2026-01-28 11:30:19.68	344.41	56.00	-39.1	-39.8	24.8	0.00e+00	0	43	0	2662334464	49	4002
2026-01-28 11:30:20.69	344.22	55.62	-39.0	-39.7	24.9	0.00e+00	0	42	0	2668625920	49	3941
2026-01-28 11:30:21.69	344.04	55.26	-39.0	-39.7	25.0	0.00e+00	0	42	0	2673868800	49	3935
2026-01-28 11:30:22.70	343.86	54.89	-39.2	-39.9	24.8	0.00e+00	0	42	0	2679111680	49	4019
2026-01-28 11:30:23.71	343.69	54.53	-39.2	-39.9	24.7	0.00e+00	0	43	0	2685403136	49	4051
2026-01-28 11:30:24.71	343.52	54.17	-39.4	-40.2	24.5	0.00e+00	0	43	0	2690646016	49	4161
2026-01-28 11:30:25.72	343.36	53.81	-39.3	-40.1	24.6	0.00e+00	0	43	0	2695888896	49	4107
2026-01-28 11:30:26.73	343.20	53.45	-39.2	-39.9	24.7	0.00e+00	0	43	0	2702180352	49	4026
2026-01-28 11:30:27.74	343.04	53.09	-39.1	-39.8	24.8	0.00e+00	0	43	0	2707423232	49	3986
2026-01-28 11:30:28.75	342.89	52.74	-39.0	-39.7	24.9	0.00e+00	0	43	0	2713714688	49	3950
2026-01-28 11:30:29.75	342.74	52.39	-39.0	-39.7	24.9	0.00e+00	0	43	0	2718957568	49	3935
2026-01-28 11:30:30.76	342.60	52.04	-39.0	-39.8	24.8	0.00e+00	0	43	0	2725249024	49	3966
2026-01-28 11:30:31.77	342.46	51.69	-39.0	-39.7	24.9	0.00e+00	0	43	0	2730491904	49	3952
2026-01-28 11:30:32.78	342.32	51.35	-38.9	-39.6	25.0	0.00e+00	0	43	0	2735734784	49	3889
2026-01-28 11:30:33.79	342.19	51.01	-38.6	-39.2	25.3	0.00e+00	0	43	0	2742026240	49	3731
2026-01-28 11:30:34.80	342.05	50.67	-38.3	-39.0	25.5	0.00e+00	0	43	0	2747269120	48	3853
2026-01-28 11:30:35.81	341.93	50.33	-38.3	-39.0	25.5	0.00e+00	0	43	0	2753560576	48	3833
2026-01-28 11:30:36.81	341.80	50.00	-38.4	-39.1	25.5	0.00e+00	0	42	0	2758803456	48	3874
2026-01-28 11:30:37.82	341.68	49.67	-38.4	-39.1	25.4	0.00e+00	0	42	0	2764046336	48	3898
2026-01-28 11:30:38.83	341.56	49.33	-38.3	-39.0	25.5	0.00e+00	0	42	0	2770337792	48	3858
2026-01-28 11:30:39.84	341.44	49.01	-38.2	-38.9	25.6	0.00e+00	0	43	0	2775580672	48	3801
2026-01-28 11:30:40.85	341.33	48.68	-38.2	-38.9	25.6	0.00e+00	0	42	0	2781872128	48	3782
2026-01-28 11:30:41.85	341.21	48.36	-38.2	-38.8	25.6	0.00e+00	0	43	0	2787115008	48	3774
2026-01-28 11:30:42.86	341.10	48.04	-38.2	-38.9	25.5	0.00e+00	0	43	0	2793406464	48	3821
2026-01-28 11:30:43.87	341.00	47.72	-38.2	-38.9	25.5	0.00e+00	0	43	0	2798649344	48	3817
2026-01-28 11:30:44.88	340.89	47.40	-38.2	-38.9	25.6	0.00e+00	0	43	0	2803892224	48	3786
2026-01-28 11:30:45.88	340.79	47.09	-38.1	-38.8	25.6	0.00e+00	0	42	0	2810183680	48	3764
2026-01-28 11:30:46.89	340.69	46.78	-38.1	-38.8	25.7	0.00e+00	0	43	0	2815426560	48	3739
2026-01-28 11:30:47.89	340.59	46.47	-38.1	-38.8	25.7	0.00e+00	0	42	0	2820669440	48	3756
2026-01-28 11:30:48.89	340.49	46.17	-37.4	-38.1	25.7	0.00e+00	0	42	0	2826960896	46	3900
2026-01-28 11:30:49.90	340.40	45.86	-37.5	-38.2	25.7	0.00e+00	0	42	0	2832203776	46	3921
2026-01-28 11:30:50.91	340.30	45.56	-37.7	-38.3	25.5	0.00e+00	0	42	0	2838495232	46	4004
2026-01-28 11:30:51.92	340.21	45.25	-37.8	-38.5	25.4	0.00e+00	0	42	0	2843738112	46	4071
2026-01-28 11:30:52.93	340.12	44.95	-37.9	-38.7	25.3	0.00e+00	0	42	0	2848980992	46	4148
2026-01-28 11:30:53.94	340.04	44.66	-38.0	-38.7	25.2	0.00e+00	0	43	0	2855272448	46	4158
2026-01-28 11:30:54.95	339.95	44.36	-38.1	-38.8	25.1	0.00e+00	0	43	0	2861563904	46	4207
2026-01-28 11:30:55.95	339.87	44.07	-37.9	-38.6	25.3	0.00e+00	0	43	0	2866806784	46	4137
2026-01-28 11:30:56.96	339.78	43.78	-37.9	-38.6	25.3	0.00e+00	0	42	0	2872049664	46	4109
2026-01-28 11:30:57.97	339.70	43.49	-37.9	-38.6	22.2	0.00e+00	0	43	0	2878341120	46	4141
2026-01-28 11:30:58.98	339.62	43.21	-37.7	-38.5	24.4	0.00e+00	0	42	0	2883584000	46	4080
2026-01-28 11:30:59.99	339.54	42.92	-37.8	-38.6	21.8	2.20e-06	0	43	0	2888826880	46	4113
2026-01-28 11:31:00.99	339.47	42.64	-37.8	-38.5	23.7	0.00e+00	0	43	0	2895118336	46	4091
2026-01-28 11:31:02.00	339.39	42.36	-37.7	-38.5	24.3	0.00e+00	0	42	0	2900361216	46	4069
2026-01-28 11:31:03.01	339.32	42.08	-37.7	-38.5	24.5	0.00e+00	0	42	0	2905604096	46	4064
2026-01-28 11:31:04.02	339.24	41.81	-37.7	-38.4	24.7	0.00e+00	0	42	0	2911895552	46	4018
2026-01-28 11:31:05.03	339.17	41.53	-37.6	-38.3	24.4	0.00e+00	0	42	0	2917138432	46	3988
2026-01-28 11:31:06.03	339.10	41.26	-37.7	-38.4	23.1	0.00e+00	0	42	0	2923429888	46	4040
2026-01-28 11:31:07.04	339.03	40.99	-37.7	-38.4	23.4	0.00e+00	0	43	0	2928672768	46	4023
2026-01-28 11:31:08.05	338.96	40.72	-37.6	-38.3	24.6	0.00e+00	0	43	0	2934964224	46	3990
2026-01-28 11:31:09.06	338.90	40.46	-37.5	-38.2	24.1	0.00e+00	0	43	0	2940207104	46	3948
2026-01-28 11:31:10.06	338.83	40.20	-37.3	-38.0	23.5	0.00e+00	0	43	0	2946498560	46	3862
2026-01-28 11:31:11.07	338.77	39.93	-37.3	-38.0	23.6	0.00e+00	0	43	0	2951741440	46	3845
2026-01-28 11:31:12.08	338.71	39.67	-37.1	-37.9	23.9	0.00e+00	0	43	0	2956984320	46	3790
2026-01-28 11:31:13.09	338.64	39.41	-37.1	-37.8	25.5	0.00e+00	0	43	0	2963275776	46	3757
2026-01-28 11:31:14.10	338.58	39.16	-37.1	-37.8	24.7	0.00e+00	0	42	0	2968518656	46	3762
2026-01-28 11:31:15.11	338.52	38.90	-37.0	-37.7	25.2	0.00e+00	0	42	0	2973761536	46	3718
2026-01-28 11:31:16.12	338.46	38.65	-36.9	-37.6	23.7	0.00e+00	0	43	0	2980052992	45	3892
2026-01-28 11:31:17.13	338.40	38.40	-37.0	-37.7	25.2	0.00e+00	0	42	0	2985295872	45	3937
2026-01-28 11:31:18.13	338.35	38.15	-37.0	-37.7	26.0	0.00e+00	0	42	0	2990538752	45	3950
2026-01-28 11:31:19.14	338.29	37.90	-37.0	-37.7	26.0	0.00e+00	0	43	0	2996830208	45	3957
2026-01-28 11:31:20.15	338.24	37.66	-36.9	-37.6	26.1	0.00e+00	0	42	0	3003121664	45	3897
2026-01-28 11:31:21.16	338.18	37.41	-36.9	-37.6	26.1	0.00e+00	0	43	0	3008364544	45	3897
2026-01-28 11:31:22.17	338.13	37.17	-36.9	-37.5	26.1	0.00e+00	0	42	0	3013607424	45	3866
2026-01-28 11:31:23.18	338.07	36.93	-36.9	-37.6	26.1	0.00e+00	0	43	0	3019898880	45	3875
2026-01-28 11:31:24.18	338.02	36.69	-36.9	-37.6	26.1	0.00e+00	0	42	0	3025141760	45	3875
2026-01-28 11:31:25.19	337.97	36.46	-36.9	-37.6	26.1	0.00e+00	0	43	0	3031433216	45	3898
2026-01-28 11:31:26.20	337.92	36.22	-37.1	-37.8	25.9	0.00e+00	0	43	0	3036676096	45	3974
2026-01-28 11:31:27.21	337.87	35.99	-37.2	-37.9	25.8	0.00e+00	0	43	0	3041918976	45	4031
2026-01-28 11:31:28.21	337.82	35.76	-37.4	-38.1	25.6	0.00e+00	0	42	0	3048210432	45	4113
2026-01-28 11:31:29.22	337.77	35.53	-37.5	-38.2	25.5	0.00e+00	0	42	0	3053453312	45	4182
2026-01-28 11:31:30.23	337.73	35.30	-37.6	-38.3	25.4	0.00e+00	0	42	0	3058696192	45	4234
2026-01-28 11:31:31.23	337.68	35.07	-37.7	-38.4	25.4	0.00e+00	0	43	0	3064987648	45	4270
2026-01-28 11:31:32.24	337.63	34.85	-37.8	-38.5	25.3	0.00e+00	0	43	0	3071279104	46	4095
2026-01-28 11:31:33.25	337.59	34.62	-37.8	-38.5	25.3	0.00e+00	0	42	0	3076521984	46	4081
2026-01-28 11:31:34.26	337.54	34.40	-37.8	-38.5	25.3	0.00e+00	0	43	0	3081764864	46	4067
2026-01-28 11:31:35.27	337.50	34.18	-37.9	-38.6	25.2	0.00e+00	0	43	0	3088056320	46	4125
2026-01-28 11:31:36.28	337.46	33.96	-37.8	-38.5	25.3	0.00e+00	0	43	0	3093299200	46	4084
2026-01-28 11:31:37.29	337.41	33.74	-37.7	-38.4	25.3	0.00e+00	0	42	0	3098542080	46	4048
2026-01-28 11:31:38.29	337.37	33.53	-37.7	-38.4	25.4	0.00e+00	0	42	0	3104833536	46	4021
2026-01-28 11:31:39.30	337.33	33.31	-37.8	-38.5	25.3	0.00e+00	0	42	0	3110076416	46	4082
2026-01-28 11:31:40.30	337.29	33.10	-37.8	-38.5	25.3	0.00e+00	0	43	0	3116367872	46	4069
2026-01-28 11:31:41.31	337.25	32.89	-37.8	-38.5	25.2	0.00e+00	0	43	0	3121610752	46	4071
2026-01-28 11:31:42.32	337.21	32.68	-37.8	-38.5	25.3	0.00e+00	0	43	0	3126853632	46	4056
2026-01-28 11:31:43.32	337.17	32.47	-37.7	-38.4	25.3	0.00e+00	0	43	0	3133145088	46	4034
2026-01-28 11:31:44.33	337.13	32.26	-37.8	-38.5	25.2	0.00e+00	0	43	0	3138387968	46	4086
2026-01-28 11:31:45.34	337.09	32.06	-37.8	-38.5	25.2	0.00e+00	0	43	0	3143630848	46	4075
2026-01-28 11:31:46.34	337.06	31.86	-37.8	-38.5	25.2	0.00e+00	0	43	0	3149922304	46	4087
2026-01-28 11:31:47.35	337.02	31.65	-37.8	-38.5	25.2	0.00e+00	0	43	0	3156213760	46	4081
2026-01-28 11:31:48.36	336.98	31.45	-37.7	-38.5	25.3	0.00e+00	0	42	0	3161456640	46	4057
2026-01-28 11:31:49.37	336.95	31.25	-37.7	-38.4	25.3	0.00e+00	0	42	0	3166699520	46	4014
2026-01-28 11:31:50.37	336.91	31.05	-37.7	-38.4	25.3	0.00e+00	0	42	0	3172990976	46	4019
2026-01-28 11:31:51.38	336.88	30.85	-37.6	-38.4	25.4	0.00e+00	0	42	0	3178233856	46	4006
2026-01-28 11:31:52.39	336.84	30.66	-37.5	-38.2	25.5	0.00e+00	0	42	0	3183476736	46	3931
2026-01-28 11:31:53.39	336.81	30.46	-37.5	-38.2	25.4	0.00e+00	0	43	0	3189768192	46	3949
2026-01-28 11:31:54.40	336.78	30.27	-37.4	-38.1	25.5	0.00e+00	0	43	0	3195011072	46	3894
2026-01-28 11:31:55.41	336.74	30.08	-37.4	-38.0	25.6	0.00e+00	0	42	0	3201302528	46	3864
2026-01-28 11:31:56.41	336.71	29.89	-37.4	-38.1	25.6	0.00e+00	0	43	0	3206545408	46	3875
2026-01-28 11:31:57.42	336.68	29.70	-37.4	-38.1	25.5	0.00e+00	0	43	0	3211788288	46	3896
2026-01-28 11:31:58.42	336.65	29.51	-37.5	-38.2	25.5	0.00e+00	0	43	0	3218079744	46	3925
2026-01-28 11:31:59.43	336.61	29.32	-37.6	-38.3	25.4	0.00e+00	0	43	0	3223322624	46	3973
2026-01-28 11:32:00.44	336.58	29.14	-37.6	-38.3	25.4	0.00e+00	0	43	0	3228565504	46	3974
2026-01-28 11:32:01.45	336.55	28.95	-37.7	-38.5	25.2	0.00e+00	0	43	0	3234856960	46	4054
2026-01-28 11:32:02.46	336.52	28.77	-37.7	-38.4	25.3	0.00e+00	0	43	0	3241148416	46	4029
2026-01-28 11:32:03.47	336.49	28.58	-37.8	-38.5	25.2	0.00e+00	0	42	0	3246391296	46	4083
2026-01-28 11:32:04.48	336.46	28.40	-37.9	-38.6	25.1	0.00e+00	0	43	0	3251634176	46	4117
2026-01-28 11:32:05.49	336.43	28.22	-37.7	-38.5	25.2	0.00e+00	0	43	0	3257925632	46	4053
2026-01-28 11:32:06.49	336.40	28.04	-37.8	-38.6	25.1	0.00e+00	0	42	0	3263168512	46	4107
2026-01-28 11:32:07.50	336.38	27.87	-37.7	-38.4	25.2	0.00e+00	0	43	0	3268411392	46	4040
2026-01-28 11:32:08.51	336.35	27.69	-37.8	-38.5	25.2	0.00e+00	0	42	0	3274702848	46	4064
2026-01-28 11:32:09.52	336.32	27.51	-37.7	-38.4	25.2	0.00e+00	0	43	0	3279945728	46	4045
2026-01-28 11:32:10.53	336.29	27.34	-37.6	-38.3	25.3	0.00e+00	0	43	0	3286237184	46	3978
2026-01-28 11:32:11.53	336.27	27.17	-37.6	-38.3	25.3	0.00e+00	0	43	0	3291480064	46	3980
2026-01-28 11:32:12.54	336.24	26.99	-37.6	-38.3	25.3	0.00e+00	0	43	0	3296722944	46	3970
2026-01-28 11:32:13.54	336.21	26.82	-37.6	-38.3	25.3	0.00e+00	0	43	0	3303014400	46	3982
2026-01-28 11:32:14.55	336.19	26.65	-37.6	-38.3	25.3	0.00e+00	0	43	0	3309305856	46	3985
2026-01-28 11:32:15.56	336.16	26.48	-37.6	-38.3	25.3	0.00e+00	0	43	0	3314548736	46	3963
2026-01-28 11:32:16.57	336.14	26.32	-37.6	-38.3	25.3	0.00e+00	0	42	0	3319791616	46	4001
2026-01-28 11:32:17.57	336.11	26.15	-37.8	-38.5	25.1	0.00e+00	0	42	0	3326083072	46	4063
2026-01-28 11:32:18.58	336.09	25.98	-37.7	-38.5	25.2	0.00e+00	0	43	0	3331325952	46	4058
2026-01-28 11:32:19.59	336.06	25.82	-37.8	-38.5	25.1	0.00e+00	0	43	0	3336568832	46	4097
2026-01-28 11:32:20.60	336.04	25.65	-37.9	-38.7	25.0	0.00e+00	0	43	0	3342860288	46	4152
2026-01-28 11:32:21.61	336.01	25.49	-38.0	-38.8	24.9	0.00e+00	0	43	0	3348103168	46	4196
2026-01-28 11:32:22.62	335.99	25.33	-38.0	-38.7	24.9	0.00e+00	0	43	0	3353346048	46	4180
2026-01-28 11:32:23.63	335.97	25.17	-38.0	-38.8	24.9	0.00e+00	0	42	0	3359637504	46	4215
2026-01-28 11:32:24.63	335.94	25.01	-38.1	-38.8	24.8	0.00e+00	0	43	0	3364880384	46	4242
2026-01-28 11:32:25.64	335.92	24.85	-38.1	-38.9	24.8	0.00e+00	0	43	0	3371171840	46	4245
2026-01-28 11:32:26.65	335.90	24.69	-38.2	-39.0	24.7	0.00e+00	0	43	0	3376414720	47	4071
2026-01-28 11:32:27.66	335.88	24.53	-38.1	-38.9	24.8	0.00e+00	0	43	0	3382706176	47	4021
2026-01-28 11:32:28.66	335.85	24.38	-38.2	-38.9	24.7	0.00e+00	0	43	0	3387949056	47	4031
2026-01-28 11:32:29.67	335.83	24.22	-38.2	-38.9	24.7	0.00e+00	0	43	0	3394240512	47	4050
2026-01-28 11:32:30.68	335.81	24.07	-38.2	-39.0	24.6	0.00e+00	0	43	0	3399483392	47	4072
2026-01-28 11:32:31.69	335.79	23.91	-38.3	-39.0	24.6	0.00e+00	0	43	0	3404726272	47	4073
2026-01-28 11:32:32.70	335.77	23.76	-38.3	-39.0	24.6	0.00e+00	0	43	0	3411017728	47	4086
2026-01-28 11:32:33.71	335.75	23.61	-38.2	-38.9	24.7	0.00e+00	0	43	0	3416260608	47	4031
2026-01-28 11:32:34.72	335.73	23.46	-38.2	-38.9	24.7	0.00e+00	0	43	0	3421503488	47	4036
2026-01-28 11:32:35.72	335.71	23.31	-38.3	-39.0	24.6	0.00e+00	0	43	0	3427794944	47	4081
2026-01-28 11:32:36.73	335.69	23.16	-38.2	-39.0	24.6	0.00e+00	0	43	0	3433037824	47	4063
2026-01-28 11:32:37.74	335.67	23.01	-38.3	-39.0	24.6	0.00e+00	0	43	0	3438280704	47	4064
2026-01-28 11:32:38.74	335.65	22.87	-38.3	-39.0	24.6	0.00e+00	0	43	0	3444572160	47	4076
2026-01-28 11:32:39.75	335.63	22.72	-38.2	-39.0	24.7	0.00e+00	0	43	0	3450863616	47	4052
2026-01-28 11:32:40.76	335.61	22.57	-38.3	-39.1	24.5	0.00e+00	0	43	0	3456106496	47	4106
2026-01-28 11:32:41.77	335.59	22.43	-38.3	-39.0	24.6	0.00e+00	0	43	0	3461349376	47	4069
2026-01-28 11:32:42.78	335.57	22.28	-38.3	-39.0	24.6	0.00e+00	0	43	0	3467640832	47	4091
2026-01-28 11:32:43.79	335.55	22.14	-38.3	-39.1	24.5	0.00e+00	0	43	0	3472883712	47	4108
2026-01-28 11:32:44.79	335.53	22.00	-38.3	-39.0	24.5	0.00e+00	0	42	0	3479175168	47	4094
2026-01-28 11:32:45.80	335.52	21.86	-38.4	-39.1	24.4	0.00e+00	0	43	0	3484418048	47	4129
2026-01-28 11:32:46.81	335.50	21.72	-38.4	-39.2	24.4	0.00e+00	0	43	0	3489660928	47	4148
2026-01-28 11:32:47.82	335.48	21.57	-38.4	-39.2	24.4	0.00e+00	0	43	0	3495952384	47	4160
2026-01-28 11:32:48.83	335.46	21.44	-38.5	-39.2	24.3	0.00e+00	0	43	0	3501195264	47	4191
2026-01-28 11:32:49.83	335.45	21.30	-38.5	-39.3	24.3	0.00e+00	0	43	0	3506438144	47	4212
2026-01-28 11:32:50.84	335.43	21.16	-38.6	-39.4	24.2	4.50e-06	0	42	0	3512729600	47	4269
2026-01-28 11:32:51.85	335.41	21.02	-39.0	-39.8	24.4	0.00e+00	0	43	0	3519021056	48	4200
2026-01-28 11:32:52.86	335.40	20.89	-39.1	-39.8	24.3	0.00e+00	0	43	0	3524263936	48	4232
2026-01-28 11:32:53.87	335.38	20.75	-39.1	-39.8	24.3	0.00e+00	0	43	0	3529506816	48	4222
2026-01-28 11:32:54.88	335.36	20.61	-39.1	-39.8	24.3	0.00e+00	0	43	0	3535798272	48	4222
2026-01-28 11:32:55.89	335.35	20.48	-39.1	-39.9	24.2	0.00e+00	0	42	0	3541041152	48	4253
2026-01-28 11:32:56.89	335.33	20.35	-39.3	-40.0	24.1	0.00e+00	0	43	0	3546284032	49	4080
2026-01-28 11:32:57.90	335.31	20.21	-39.2	-39.9	24.1	0.00e+00	0	43	0	3552575488	49	4041
2026-01-28 11:32:58.91	335.30	20.08	-39.2	-40.0	24.1	0.00e+00	0	43	0	3557818368	49	4061
2026-01-28 11:32:59.91	335.28	19.95	-39.3	-40.1	24.1	0.00e+00	0	43	0	3564109824	49	4099
2026-01-28 11:33:00.92	335.27	19.82	-39.3	-40.0	24.1	0.00e+00	0	42	0	3569352704	49	4097
2026-01-28 11:33:01.93	335.25	19.69	-39.3	-40.1	24.0	0.00e+00	0	43	0	3574595584	49	4101
2026-01-28 11:33:02.94	335.24	19.56	-39.3	-40.0	23.9	0.00e+00	0	43	0	3580887040	49	4090
2026-01-28 11:33:03.95	335.22	19.43	-39.4	-40.1	24.0	0.00e+00	0	43	0	3587178496	49	4134
2026-01-28 11:33:04.96	335.21	19.30	-39.4	-40.1	24.0	0.00e+00	0	42	0	3592421376	49	4133
2026-01-28 11:33:05.97	335.19	19.18	-39.4	-40.1	24.0	0.00e+00	0	43	0	3597664256	49	4141
2026-01-28 11:33:06.97	335.18	19.05	-39.4	-40.1	23.9	0.00e+00	0	42	0	3603955712	49	4145
2026-01-28 11:33:07.98	335.17	18.92	-39.5	-40.3	23.8	0.00e+00	0	43	0	3609198592	49	4194
2026-01-28 11:33:08.99	335.15	18.80	-39.5	-40.2	23.8	0.00e+00	0	43	0	3614441472	49	4190
2026-01-28 11:33:09.99	335.14	18.68	-39.5	-40.2	23.8	0.00e+00	0	43	0	3620732928	49	4189
2026-01-28 11:33:11.00	335.12	18.55	-39.5	-40.3	23.8	0.00e+00	0	42	0	3625975808	49	4218
2026-01-28 11:33:12.01	335.11	18.43	-39.6	-40.4	23.7	0.00e+00	0	43	0	3631218688	49	4251
2026-01-28 11:33:13.01	335.10	18.31	-39.7	-40.4	23.7	0.00e+00	0	42	0	3637510144	49	4278
2026-01-28 11:33:14.02	335.08	18.18	-39.7	-40.4	23.6	0.00e+00	0	42	0	3642753024	49	4281
2026-01-28 11:33:15.03	335.07	18.06	-39.7	-40.4	23.6	0.00e+00	0	43	0	3649044480	50	4050
2026-01-28 11:33:16.04	335.06	17.94	-39.7	-40.4	23.7	0.00e+00	0	43	0	3654287360	50	4041
2026-01-28 11:33:17.05	335.04	17.82	-39.8	-40.6	23.5	0.00e+00	0	43	0	3660578816	50	4109
2026-01-28 11:33:18.06	335.03	17.70	-39.9	-40.7	23.4	0.00e+00	0	43	0	3665821696	50	4156
2026-01-28 11:33:19.06	335.02	17.58	-39.8	-40.6	23.5	2.20e-06	0	43	0	3672113152	50	4110
2026-01-28 11:33:20.07	335.01	17.46	-39.8	-40.6	23.5	1.10e-06	0	42	0	3677356032	50	4124
2026-01-28 11:33:21.07	334.99	17.34	-39.9	-40.6	23.4	0.00e+00	0	43	0	3682598912	50	4144
2026-01-28 11:33:22.08	334.98	17.23	-40.0	-40.8	23.2	0.00e+00	0	43	0	3688890368	50	4202
2026-01-28 11:33:23.09	334.97	17.11	-40.1	-40.8	23.2	0.00e+00	0	43	0	3694133248	50	4233
2026-01-28 11:33:24.10	334.96	16.99	-40.1	-40.9	23.2	0.00e+00	0	43	0	3699376128	50	4251
2026-01-28 11:33:25.11	334.95	16.88	-40.0	-40.8	23.3	1.10e-06	0	43	0	3705667584	50	4216
