passes_logs/2026/01/28/R3.2S_Murmansk/R3.2S_Murmansk__20260128_224901_NOAA_20_JPSS-1_rec.log

#Pass ID: 20260128_224901_NOAA 20 (JPSS-1)
#Satellite: NOAA 20 (JPSS-1)
#Configuration: NOAA 20
#almurnet v.1.7.20251203
#Start time: 2026-01-28 22:49:03

#Version: 2.2.20231116
#Station: R3.2S_Murmansk
#Location: 33.079688 lon 68.888172 lat
#TLE: 1 43013U 17073A   26027.94683596  .00000137  00000+0  85741-4 0  9995
#TLE: 2 43013  98.7648 328.7503 0000940  21.3928 338.7287 14.19541154424576

#Time	Az	El	Level	Level2	SNR	BER	BlckErr	Temp	State	Recorded	gain1	gain2
2026-01-28 22:49:03.41	19.55	2.09	-53.6	-68.6	3.8	1.49e+00	0	40	0	0	78	20735
2026-01-28 22:49:04.42	19.61	2.15	-53.7	-68.7	3.8	1.49e+00	0	40	104	0	77	22209
2026-01-28 22:49:05.43	19.67	2.21	-53.9	-68.9	3.8	1.49e+00	0	40	104	0	78	21362
2026-01-28 22:49:06.44	19.72	2.27	-53.9	-68.9	3.8	1.49e+00	0	40	104	0	78	21451
2026-01-28 22:49:07.45	19.78	2.33	-54.0	-69.0	3.8	1.49e+00	0	40	104	0	78	21520
2026-01-28 22:49:08.46	19.84	2.39	-54.0	-69.0	3.8	1.49e+00	0	40	104	0	78	21534
2026-01-28 22:49:09.47	19.90	2.45	-54.0	-69.0	3.8	1.49e+00	0	40	104	0	78	21570
2026-01-28 22:49:10.48	19.96	2.51	-54.0	-69.0	3.8	1.49e+00	0	40	104	0	78	21591
2026-01-28 22:49:11.48	20.02	2.57	-54.0	-68.9	3.8	1.49e+00	0	40	104	0	78	21502
2026-01-28 22:49:12.49	20.08	2.63	-53.9	-68.9	3.8	1.49e+00	0	41	104	0	78	21447
2026-01-28 22:49:13.50	20.13	2.69	-53.9	-68.9	3.8	1.49e+00	0	41	104	0	78	21352
2026-01-28 22:49:14.51	20.19	2.75	-54.0	-68.9	3.8	1.49e+00	0	41	104	0	78	21482
2026-01-28 22:49:15.52	20.25	2.81	-54.0	-69.0	3.8	1.49e+00	0	40	104	0	78	21562
2026-01-28 22:49:16.53	20.31	2.87	-54.0	-69.0	3.8	1.49e+00	0	41	104	0	78	21554
2026-01-28 22:49:17.53	20.37	2.93	-54.0	-68.9	3.8	1.49e+00	0	41	104	0	78	21443
2026-01-28 22:49:18.54	20.43	2.99	-53.9	-68.9	3.8	1.49e+00	0	41	104	0	78	21277
2026-01-28 22:49:19.54	20.49	3.05	-53.8	-68.8	3.8	1.49e+00	0	41	104	0	78	21128
2026-01-28 22:49:20.55	20.55	3.11	-53.7	-68.7	3.8	1.49e+00	0	41	104	0	78	20905
2026-01-28 22:49:21.56	20.62	3.17	-53.6	-68.5	3.8	1.49e+00	0	41	104	0	78	20514
2026-01-28 22:49:22.56	20.68	3.23	-53.4	-68.4	3.8	1.49e+00	0	41	104	0	78	20142
2026-01-28 22:49:23.57	20.74	3.29	-53.3	-68.3	3.8	1.49e+00	0	41	104	0	78	19859
2026-01-28 22:49:24.58	20.80	3.35	-53.1	-68.0	3.8	1.49e+00	0	41	104	0	78	19358
2026-01-28 22:49:25.59	20.86	3.41	-52.8	-67.7	3.8	1.49e+00	0	41	104	0	77	19793
2026-01-28 22:49:26.60	20.92	3.47	-52.4	-67.3	3.8	1.49e+00	0	41	104	0	76	19965
2026-01-28 22:49:27.61	20.99	3.53	-52.0	-67.0	3.8	1.49e+00	0	41	104	0	76	19178
2026-01-28 22:49:28.62	21.05	3.59	-51.9	-66.8	3.8	1.49e+00	0	41	104	0	75	19977
2026-01-28 22:49:29.63	21.11	3.66	-51.9	-66.8	3.8	1.49e+00	0	41	104	0	75	19885
2026-01-28 22:49:30.63	21.17	3.72	-51.9	-66.8	3.8	1.49e+00	0	41	104	0	75	19847
2026-01-28 22:49:31.64	21.24	3.78	-51.9	-66.8	3.8	1.49e+00	0	41	104	0	75	19960
2026-01-28 22:49:32.65	21.30	3.84	-51.9	-66.8	3.8	1.49e+00	0	41	104	0	75	19987
2026-01-28 22:49:33.66	21.37	3.90	-51.9	-66.5	3.8	1.49e+00	0	41	104	0	75	19258
2026-01-28 22:49:34.67	21.43	3.96	-51.8	-65.5	3.8	1.49e+00	0	41	104	0	75	17126
2026-01-28 22:49:35.68	21.49	4.03	-51.7	-63.6	4.1	1.48e+00	0	41	104	0	75	13756
2026-01-28 22:49:36.69	21.56	4.09	-51.5	-61.2	5.1	1.01e+00	0	41	0	1048576	75	10416
2026-01-28 22:49:37.70	21.62	4.15	-51.1	-58.5	7.1	3.96e-01	0	41	0	3145728	74	8129
2026-01-28 22:49:38.71	21.69	4.21	-50.8	-57.1	8.5	6.36e-02	0	41	0	4194304	73	7294
2026-01-28 22:49:39.71	21.75	4.28	-50.0	-54.7	10.9	1.27e-02	0	41	0	6291456	72	5879
2026-01-28 22:49:40.72	21.82	4.34	-49.7	-53.9	11.8	8.41e-04	0	41	0	8388608	71	5699
2026-01-28 22:49:41.72	21.88	4.40	-49.1	-52.6	13.2	6.94e-05	0	41	0	10485760	70	5211
2026-01-28 22:49:42.73	21.95	4.46	-48.6	-51.6	14.2	1.14e-05	0	41	0	12582912	69	4896
2026-01-28 22:49:43.74	22.02	4.53	-48.4	-51.4	14.4	1.50e-06	0	41	0	13631488	68	5056
2026-01-28 22:49:44.75	22.08	4.59	-48.4	-51.3	14.6	0.00e+00	0	41	0	15728640	68	4995
2026-01-28 22:49:45.75	22.15	4.65	-48.4	-51.4	14.5	0.00e+00	0	41	0	17825792	68	5042
2026-01-28 22:49:46.76	22.22	4.72	-48.5	-51.5	14.3	0.00e+00	0	41	0	19922944	68	5150
2026-01-28 22:49:47.76	22.28	4.78	-48.6	-51.6	14.2	0.00e+00	0	41	0	22020096	68	5208
2026-01-28 22:49:48.77	22.35	4.84	-49.2	-52.8	13.0	1.52e-05	0	41	0	23068672	68	5948
2026-01-28 22:49:49.78	22.42	4.91	-49.8	-54.1	11.7	1.43e-04	0	41	0	25165824	70	6172
2026-01-28 22:49:50.79	22.49	4.97	-50.3	-55.7	10.1	1.76e-03	0	41	0	27262976	71	6974
2026-01-28 22:49:51.80	22.56	5.04	-50.8	-57.3	8.2	3.48e-02	0	41	0	29360128	72	7984
2026-01-28 22:49:52.81	22.63	5.10	-50.1	-54.8	10.8	8.39e-02	0	41	0	31457280	72	5990
2026-01-28 22:49:53.81	22.69	5.16	-51.5	-62.7	4.5	3.57e-01	37	42	0	33554432	73	13985
2026-01-28 22:49:54.82	22.76	5.23	-51.4	-59.7	6.2	4.80e-01	0	41	0	33554432	73	9930
2026-01-28 22:49:55.83	22.83	5.29	-48.9	-52.1	13.7	1.32e-01	0	41	0	35651584	69	5184
2026-01-28 22:49:56.84	22.90	5.36	-51.8	-65.6	3.8	7.41e-04	0	41	104	36700160	74	18477
2026-01-28 22:49:57.85	22.97	5.42	-49.0	-52.3	13.2	8.11e-01	0	41	104	36700160	70	5016
2026-01-28 22:49:58.86	23.05	5.49	-48.4	-51.2	14.8	7.00e-07	0	41	0	37748736	68	4969
2026-01-28 22:49:59.87	23.12	5.55	-48.0	-50.6	15.4	0.00e+00	0	42	0	39845888	68	4625
2026-01-28 22:50:00.87	23.19	5.62	-47.6	-50.0	15.9	0.00e+00	0	42	0	41943040	67	4554
2026-01-28 22:50:01.88	23.26	5.68	-47.3	-49.6	16.4	0.00e+00	0	41	0	44040192	66	4621
2026-01-28 22:50:02.89	23.33	5.75	-47.2	-49.4	16.5	0.00e+00	0	42	0	45088768	66	4518
2026-01-28 22:50:03.90	23.40	5.81	-46.9	-49.0	16.9	0.00e+00	0	42	0	47185920	65	4570
2026-01-28 22:50:04.91	23.47	5.88	-47.1	-49.3	16.7	0.00e+00	0	42	0	49283072	65	4715
2026-01-28 22:50:05.92	23.55	5.94	-46.9	-49.0	16.9	0.00e+00	0	41	0	51380224	65	4572
2026-01-28 22:50:06.93	23.62	6.01	-47.0	-49.2	16.8	0.00e+00	0	42	0	53477376	65	4666
2026-01-28 22:50:07.93	23.69	6.08	-46.8	-48.9	17.1	0.00e+00	0	42	0	54525952	65	4495
2026-01-28 22:50:08.94	23.77	6.14	-46.7	-48.7	17.3	0.00e+00	0	42	0	56623104	65	4423
2026-01-28 22:50:09.95	23.84	6.21	-46.6	-48.6	17.4	0.00e+00	0	42	0	58720256	65	4363
2026-01-28 22:50:10.96	23.92	6.28	-46.8	-48.8	17.2	0.00e+00	0	42	0	60817408	65	4447
2026-01-28 22:50:11.97	23.99	6.34	-46.8	-48.8	17.2	0.00e+00	0	42	0	62914560	65	4458
2026-01-28 22:50:12.97	24.06	6.41	-46.7	-48.7	17.4	0.00e+00	0	41	0	63963136	65	4401
2026-01-28 22:50:13.98	24.14	6.47	-46.6	-48.6	17.3	0.00e+00	0	41	0	66060288	65	4355
2026-01-28 22:50:14.99	24.21	6.54	-46.6	-48.5	17.4	0.00e+00	0	42	0	68157440	65	4333
2026-01-28 22:50:16.00	24.29	6.61	-46.6	-48.5	17.5	0.00e+00	0	42	0	70254592	65	4321
2026-01-28 22:50:17.01	24.37	6.68	-46.6	-48.5	17.5	0.00e+00	0	42	0	72351744	65	4337
2026-01-28 22:50:18.01	24.44	6.74	-46.6	-48.5	17.5	0.00e+00	0	42	0	73400320	65	4332
2026-01-28 22:50:19.01	24.52	6.81	-46.5	-48.4	17.6	0.00e+00	0	42	0	75497472	65	4284
2026-01-28 22:50:20.02	24.60	6.88	-46.5	-48.3	17.7	0.00e+00	0	42	0	77594624	64	4487
2026-01-28 22:50:21.03	24.67	6.95	-46.6	-48.4	17.7	0.00e+00	0	42	0	79691776	64	4541
2026-01-28 22:50:22.04	24.75	7.01	-46.3	-48.1	17.9	0.00e+00	0	42	0	81788928	64	4382
2026-01-28 22:50:23.05	24.83	7.08	-46.3	-48.1	17.9	0.00e+00	0	42	0	82837504	64	4363
2026-01-28 22:50:24.05	24.91	7.15	-46.3	-48.1	18.0	0.00e+00	0	42	0	84934656	64	4382
2026-01-28 22:50:25.06	24.99	7.22	-46.3	-48.0	18.1	0.00e+00	0	42	0	87031808	64	4329
2026-01-28 22:50:26.07	25.07	7.29	-46.3	-48.1	18.0	0.00e+00	0	42	0	89128960	64	4341
2026-01-28 22:50:27.08	25.15	7.36	-46.2	-48.0	18.1	0.00e+00	0	41	0	91226112	64	4299
2026-01-28 22:50:28.09	25.23	7.42	-46.2	-48.0	18.1	0.00e+00	0	42	0	92274688	64	4314
2026-01-28 22:50:29.10	25.31	7.49	-46.2	-48.0	18.1	0.00e+00	0	42	0	94371840	64	4317
2026-01-28 22:50:30.10	25.39	7.56	-46.2	-47.9	18.2	0.00e+00	0	42	0	96468992	64	4280
2026-01-28 22:50:31.11	25.47	7.63	-46.1	-47.8	18.2	0.00e+00	0	42	0	98566144	64	4231
2026-01-28 22:50:32.12	25.55	7.70	-46.2	-47.9	18.2	0.00e+00	0	42	0	100663296	64	4287
2026-01-28 22:50:33.12	25.63	7.77	-46.3	-48.1	18.1	0.00e+00	0	42	0	102760448	64	4368
2026-01-28 22:50:34.13	25.71	7.84	-46.1	-47.8	18.4	0.00e+00	0	42	0	103809024	64	4203
2026-01-28 22:50:35.14	25.79	7.91	-46.0	-47.7	18.4	0.00e+00	0	42	0	105906176	64	4185
2026-01-28 22:50:36.15	25.88	7.98	-46.2	-47.8	18.4	0.00e+00	0	42	0	108003328	63	4488
2026-01-28 22:50:37.15	25.96	8.05	-46.1	-47.8	18.5	0.00e+00	0	42	0	110100480	63	4458
2026-01-28 22:50:38.16	26.04	8.12	-46.2	-47.9	18.4	0.00e+00	0	42	0	111149056	63	4518
2026-01-28 22:50:39.17	26.13	8.19	-46.1	-47.8	18.5	0.00e+00	0	42	0	113246208	63	4451
2026-01-28 22:50:40.17	26.21	8.26	-46.1	-47.8	18.5	0.00e+00	0	42	0	115343360	63	4457
2026-01-28 22:50:41.18	26.29	8.33	-46.0	-47.6	18.6	0.00e+00	0	42	0	117440512	63	4376
2026-01-28 22:50:42.18	26.38	8.40	-46.0	-47.7	18.6	0.00e+00	0	42	0	119537664	63	4409
2026-01-28 22:50:43.19	26.46	8.47	-46.0	-47.6	18.7	0.00e+00	0	42	0	120586240	63	4372
2026-01-28 22:50:44.20	26.55	8.54	-46.0	-47.6	18.7	0.00e+00	0	42	0	122683392	63	4358
2026-01-28 22:50:45.21	26.64	8.61	-46.0	-47.7	18.6	0.00e+00	0	42	0	124780544	63	4396
2026-01-28 22:50:46.21	26.72	8.68	-46.0	-47.6	18.7	0.00e+00	0	42	0	126877696	63	4380
2026-01-28 22:50:47.22	26.81	8.76	-46.0	-47.6	18.7	0.00e+00	0	42	0	128974848	63	4372
2026-01-28 22:50:48.22	26.90	8.83	-46.1	-47.8	18.6	0.00e+00	0	42	0	131072000	63	4447
2026-01-28 22:50:49.24	26.99	8.90	-46.0	-47.6	18.7	0.00e+00	0	42	0	132120576	63	4387
2026-01-28 22:50:50.24	27.07	8.97	-46.0	-47.6	18.7	0.00e+00	0	42	0	134217728	63	4365
2026-01-28 22:50:51.25	27.16	9.04	-46.1	-47.7	18.7	0.00e+00	0	42	0	136314880	63	4435
2026-01-28 22:50:52.26	27.25	9.12	-45.9	-47.6	18.8	0.00e+00	0	42	0	138412032	63	4345
2026-01-28 22:50:53.27	27.34	9.19	-46.1	-47.7	18.7	0.00e+00	0	42	0	139460608	63	4414
2026-01-28 22:50:54.28	27.43	9.26	-46.1	-47.7	18.6	0.00e+00	0	42	0	141557760	63	4416
2026-01-28 22:50:55.28	27.52	9.33	-46.1	-47.8	18.6	0.00e+00	0	42	0	143654912	63	4449
2026-01-28 22:50:56.29	27.61	9.41	-46.0	-47.6	18.8	0.00e+00	0	42	0	145752064	63	4364
2026-01-28 22:50:57.30	27.70	9.48	-46.0	-47.7	18.6	0.00e+00	0	42	0	147849216	63	4397
2026-01-28 22:50:58.31	27.79	9.55	-46.0	-47.6	18.8	0.00e+00	0	42	0	148897792	63	4378
2026-01-28 22:50:59.31	27.89	9.62	-45.9	-47.5	18.9	0.00e+00	0	42	0	150994944	63	4307
2026-01-28 22:51:00.32	27.98	9.70	-45.9	-47.5	18.9	0.00e+00	0	42	0	153092096	63	4302
2026-01-28 22:51:01.33	28.07	9.77	-45.9	-47.5	18.9	0.00e+00	0	42	0	155189248	63	4326
2026-01-28 22:51:02.34	28.16	9.85	-45.8	-47.3	19.1	0.00e+00	0	42	0	157286400	63	4240
2026-01-28 22:51:03.34	28.26	9.92	-45.9	-47.4	19.0	0.00e+00	0	42	0	159383552	63	4290
2026-01-28 22:51:04.35	28.35	9.99	-45.7	-47.2	19.1	0.00e+00	0	42	0	160432128	63	4190
2026-01-28 22:51:05.36	28.45	10.07	-45.7	-47.3	19.1	0.00e+00	0	42	0	162529280	63	4214
2026-01-28 22:51:06.37	28.54	10.14	-45.7	-47.2	19.2	0.00e+00	0	42	0	164626432	63	4158
2026-01-28 22:51:07.37	28.64	10.22	-45.6	-47.2	19.2	0.00e+00	0	42	0	166723584	63	4148
2026-01-28 22:51:08.38	28.73	10.29	-45.7	-47.2	19.2	0.00e+00	0	42	0	167772160	63	4173
2026-01-28 22:51:09.39	28.83	10.37	-45.7	-47.2	19.2	0.00e+00	0	42	0	169869312	63	4178
2026-01-28 22:51:10.40	28.93	10.44	-45.7	-47.3	19.1	0.00e+00	0	42	0	171966464	63	4206
2026-01-28 22:51:11.41	29.02	10.52	-45.6	-47.1	19.3	0.00e+00	0	42	0	174063616	63	4120
2026-01-28 22:51:12.41	29.12	10.59	-45.7	-47.3	19.2	0.00e+00	0	42	0	176160768	63	4195
2026-01-28 22:51:13.42	29.22	10.67	-45.6	-47.1	19.4	0.00e+00	0	42	0	178257920	63	4105
2026-01-28 22:51:14.43	29.32	10.74	-45.6	-47.1	19.3	0.00e+00	0	42	0	179306496	63	4123
2026-01-28 22:51:15.44	29.42	10.82	-45.5	-47.0	19.5	0.00e+00	0	42	0	181403648	63	4075
2026-01-28 22:51:16.45	29.52	10.90	-45.6	-47.1	19.4	0.00e+00	0	42	0	183500800	63	4125
2026-01-28 22:51:17.46	29.62	10.97	-45.5	-47.0	19.5	0.00e+00	0	42	0	185597952	63	4069
2026-01-28 22:51:18.46	29.72	11.05	-45.6	-47.1	19.4	0.00e+00	0	42	0	187695104	63	4099
2026-01-28 22:51:19.47	29.82	11.12	-45.4	-46.8	19.6	0.00e+00	0	42	0	188743680	62	4242
2026-01-28 22:51:20.48	29.92	11.20	-45.4	-46.9	19.6	0.00e+00	0	42	0	190840832	62	4250
2026-01-28 22:51:21.49	30.03	11.28	-45.5	-46.9	19.6	0.00e+00	0	42	0	192937984	62	4273
2026-01-28 22:51:22.50	30.13	11.36	-45.4	-46.8	19.7	0.00e+00	0	42	0	195035136	62	4216
2026-01-28 22:51:23.51	30.23	11.43	-45.4	-46.9	19.6	0.00e+00	0	42	0	196083712	62	4256
2026-01-28 22:51:24.51	30.34	11.51	-45.4	-46.8	19.7	0.00e+00	0	42	0	198180864	62	4215
2026-01-28 22:51:25.52	30.44	11.59	-45.4	-46.8	19.8	0.00e+00	0	42	0	200278016	62	4222
2026-01-28 22:51:26.53	30.55	11.66	-45.3	-46.7	19.8	0.00e+00	0	42	0	202375168	62	4153
2026-01-28 22:51:27.54	30.65	11.74	-45.4	-46.8	19.7	0.00e+00	0	42	0	204472320	62	4213
2026-01-28 22:51:28.55	30.76	11.82	-45.3	-46.8	19.7	0.00e+00	0	42	0	206569472	62	4194
2026-01-28 22:51:29.56	30.86	11.90	-45.5	-46.9	19.6	0.00e+00	0	42	0	207618048	62	4282
2026-01-28 22:51:30.57	30.97	11.98	-45.6	-47.1	19.5	0.00e+00	0	42	0	209715200	62	4356
2026-01-28 22:51:31.57	31.08	12.06	-45.5	-46.9	19.5	0.00e+00	0	42	0	211812352	62	4283
2026-01-28 22:51:32.58	31.19	12.13	-45.5	-47.0	19.5	0.00e+00	0	42	0	213909504	62	4315
2026-01-28 22:51:33.59	31.30	12.21	-45.6	-47.1	19.4	0.00e+00	0	42	0	216006656	62	4372
2026-01-28 22:51:34.60	31.40	12.29	-45.7	-47.1	19.4	0.00e+00	0	42	0	217055232	62	4391
2026-01-28 22:51:35.61	31.52	12.37	-45.7	-47.1	19.4	0.00e+00	0	42	0	219152384	62	4379
2026-01-28 22:51:36.62	31.63	12.45	-45.7	-47.1	19.4	0.00e+00	0	42	0	221249536	62	4384
2026-01-28 22:51:37.63	31.74	12.53	-45.7	-47.2	19.3	0.00e+00	0	42	0	223346688	62	4396
2026-01-28 22:51:38.63	31.85	12.61	-45.7	-47.2	19.4	0.00e+00	0	42	0	225443840	62	4411
2026-01-28 22:51:39.64	31.96	12.69	-45.7	-47.2	19.3	0.00e+00	0	42	0	226492416	62	4417
2026-01-28 22:51:40.65	32.07	12.77	-45.7	-47.2	19.2	0.00e+00	0	42	0	228589568	62	4426
2026-01-28 22:51:41.65	32.19	12.85	-45.8	-47.3	19.3	0.00e+00	0	42	0	230686720	62	4453
2026-01-28 22:51:42.66	32.30	12.93	-45.7	-47.2	19.4	0.00e+00	0	42	0	232783872	62	4420
2026-01-28 22:51:43.67	32.41	13.01	-45.7	-47.1	19.4	0.00e+00	0	42	0	234881024	62	4380
2026-01-28 22:51:44.67	32.53	13.09	-45.6	-47.1	19.4	0.00e+00	0	42	0	235929600	62	4374
2026-01-28 22:51:45.68	32.64	13.17	-45.8	-47.4	19.3	0.00e+00	0	42	0	238026752	62	4500
2026-01-28 22:51:46.69	32.76	13.25	-45.8	-47.3	19.4	0.00e+00	0	42	0	240123904	62	4459
2026-01-28 22:51:47.69	32.88	13.33	-45.7	-47.2	19.4	0.00e+00	0	42	0	242221056	62	4432
2026-01-28 22:51:48.70	32.99	13.41	-45.7	-47.2	19.3	0.00e+00	0	42	0	244318208	62	4431
2026-01-28 22:51:49.71	33.11	13.50	-45.7	-47.1	19.5	0.00e+00	0	42	0	245366784	62	4379
2026-01-28 22:51:50.72	33.23	13.58	-45.7	-47.2	19.5	0.00e+00	0	42	0	247463936	62	4405
2026-01-28 22:51:51.72	33.35	13.66	-45.6	-47.1	19.5	0.00e+00	0	42	0	249561088	62	4370
2026-01-28 22:51:52.73	33.47	13.74	-45.7	-47.2	19.4	0.00e+00	0	42	0	251658240	62	4415
2026-01-28 22:51:53.73	33.59	13.82	-45.6	-47.1	19.5	0.00e+00	0	42	0	253755392	62	4348
2026-01-28 22:51:54.74	33.71	13.91	-45.6	-47.1	19.5	0.00e+00	0	42	0	254803968	62	4361
2026-01-28 22:51:55.75	33.83	13.99	-45.7	-47.2	19.4	0.00e+00	0	42	0	256901120	62	4417
2026-01-28 22:51:56.75	33.96	14.07	-45.7	-47.2	19.4	0.00e+00	0	42	0	258998272	62	4401
2026-01-28 22:51:57.76	34.08	14.15	-45.7	-47.2	19.4	0.00e+00	0	42	0	261095424	62	4407
2026-01-28 22:51:58.77	34.20	14.24	-45.7	-47.1	19.5	0.00e+00	0	42	0	263192576	62	4374
2026-01-28 22:51:59.78	34.33	14.32	-45.7	-47.2	19.4	0.00e+00	0	42	0	264241152	62	4422
2026-01-28 22:52:00.79	34.45	14.40	-45.7	-47.1	19.5	0.00e+00	0	42	0	266338304	62	4378
2026-01-28 22:52:01.79	34.58	14.49	-45.6	-47.1	19.6	0.00e+00	0	42	0	268435456	62	4358
2026-01-28 22:52:02.81	34.71	14.57	-45.7	-47.1	19.5	0.00e+00	0	42	0	270532608	62	4373
2026-01-28 22:52:03.81	34.83	14.65	-45.6	-47.0	19.7	0.00e+00	0	42	0	272629760	62	4316
2026-01-28 22:52:04.82	34.96	14.74	-45.5	-46.9	19.7	0.00e+00	0	42	0	273678336	62	4287
2026-01-28 22:52:05.83	35.09	14.82	-45.6	-47.1	19.5	0.00e+00	0	42	0	275775488	62	4366
2026-01-28 22:52:06.83	35.22	14.90	-45.7	-47.2	19.5	0.00e+00	0	42	0	277872640	62	4406
2026-01-28 22:52:07.84	35.35	14.99	-45.7	-47.2	19.4	0.00e+00	0	42	0	279969792	62	4421
2026-01-28 22:52:08.85	35.48	15.07	-45.7	-47.2	19.4	0.00e+00	0	42	0	282066944	62	4406
2026-01-28 22:52:09.86	35.61	15.16	-45.7	-47.1	19.6	0.00e+00	0	42	0	283115520	62	4374
2026-01-28 22:52:10.87	35.75	15.24	-45.7	-47.2	19.5	0.00e+00	0	42	0	285212672	62	4410
2026-01-28 22:52:11.87	35.88	15.33	-45.6	-47.0	19.6	0.00e+00	0	42	0	287309824	62	4339
2026-01-28 22:52:12.88	36.01	15.41	-45.5	-47.0	19.7	0.00e+00	0	42	0	289406976	62	4299
2026-01-28 22:52:13.88	36.14	15.50	-45.5	-47.0	19.7	0.00e+00	0	42	0	291504128	62	4302
2026-01-28 22:52:14.89	36.28	15.58	-45.6	-47.1	19.6	0.00e+00	0	42	0	292552704	62	4342
2026-01-28 22:52:15.90	36.42	15.67	-45.4	-46.8	19.8	0.00e+00	0	42	0	294649856	62	4235
2026-01-28 22:52:16.91	36.55	15.76	-45.4	-46.8	19.9	0.00e+00	0	42	0	296747008	62	4197
2026-01-28 22:52:17.91	36.69	15.84	-45.4	-46.8	19.9	0.00e+00	0	42	0	298844160	62	4210
2026-01-28 22:52:18.92	36.83	15.93	-45.5	-46.9	19.8	0.00e+00	0	42	0	300941312	62	4244
2026-01-28 22:52:19.93	36.97	16.01	-45.5	-46.9	19.8	0.00e+00	0	42	0	301989888	62	4272
2026-01-28 22:52:20.93	37.11	16.10	-45.5	-46.9	19.8	0.00e+00	0	42	0	304087040	62	4257
2026-01-28 22:52:21.93	37.25	16.19	-45.6	-47.1	19.6	0.00e+00	0	42	0	306184192	62	4345
2026-01-28 22:52:22.94	37.39	16.27	-45.6	-47.1	19.7	0.00e+00	0	42	0	308281344	62	4343
2026-01-28 22:52:23.95	37.53	16.36	-45.7	-47.1	19.6	0.00e+00	0	42	0	310378496	62	4375
2026-01-28 22:52:24.96	37.67	16.45	-45.7	-47.2	19.5	0.00e+00	0	42	0	311427072	62	4421
2026-01-28 22:52:25.97	37.82	16.53	-45.6	-47.0	19.6	0.00e+00	0	42	0	313524224	62	4324
2026-01-28 22:52:26.97	37.96	16.62	-45.6	-47.0	19.7	0.00e+00	0	42	0	315621376	62	4320
2026-01-28 22:52:27.98	38.11	16.71	-45.6	-47.0	19.7	0.00e+00	0	42	0	317718528	62	4337
2026-01-28 22:52:28.99	38.25	16.80	-45.6	-47.0	19.8	0.00e+00	0	42	0	319815680	62	4310
2026-01-28 22:52:30.00	38.40	16.88	-45.6	-47.0	19.8	0.00e+00	0	42	0	320864256	62	4306
2026-01-28 22:52:31.01	38.55	16.97	-45.6	-47.0	19.7	0.00e+00	0	42	0	322961408	62	4312
2026-01-28 22:52:32.01	38.70	17.06	-45.6	-47.0	19.7	0.00e+00	0	42	0	325058560	62	4340
2026-01-28 22:52:33.03	38.85	17.15	-45.6	-47.1	19.7	0.00e+00	0	42	0	327155712	62	4349
2026-01-28 22:52:34.03	39.00	17.24	-45.4	-46.8	19.9	0.00e+00	0	42	0	329252864	62	4234
2026-01-28 22:52:35.04	39.15	17.32	-45.5	-46.9	19.9	0.00e+00	0	42	0	331350016	62	4251
2026-01-28 22:52:36.05	39.30	17.41	-45.5	-46.9	19.9	0.00e+00	0	42	0	332398592	62	4273
2026-01-28 22:52:37.06	39.45	17.50	-45.5	-47.0	19.8	0.00e+00	0	42	0	334495744	62	4292
2026-01-28 22:52:38.07	39.61	17.59	-45.4	-46.8	20.0	0.00e+00	0	42	0	336592896	62	4213
2026-01-28 22:52:39.07	39.76	17.68	-45.4	-46.7	20.1	0.00e+00	0	42	0	338690048	62	4187
2026-01-28 22:52:40.08	39.92	17.77	-45.2	-46.6	20.2	0.00e+00	0	42	0	339738624	62	4103
2026-01-28 22:52:41.09	40.07	17.86	-45.1	-46.5	20.2	0.00e+00	0	42	0	341835776	62	4060
2026-01-28 22:52:42.09	40.23	17.95	-45.0	-46.3	20.4	0.00e+00	0	42	0	343932928	61	4196
2026-01-28 22:52:43.10	40.39	18.04	-44.8	-46.1	20.6	0.00e+00	0	42	0	346030080	61	4109
2026-01-28 22:52:44.11	40.55	18.13	-44.6	-45.8	20.9	0.00e+00	0	42	0	348127232	61	3999
2026-01-28 22:52:45.12	40.71	18.22	-44.4	-45.7	21.0	0.00e+00	0	42	0	350224384	60	4152
2026-01-28 22:52:46.13	40.87	18.31	-44.5	-45.8	21.0	0.00e+00	0	42	0	351272960	60	4197
2026-01-28 22:52:47.13	41.03	18.40	-44.4	-45.6	21.1	0.00e+00	0	42	0	353370112	60	4121
2026-01-28 22:52:48.14	41.19	18.49	-44.5	-45.7	21.0	0.00e+00	0	42	0	355467264	60	4154
2026-01-28 22:52:49.15	41.36	18.58	-44.4	-45.7	21.0	0.00e+00	0	42	0	357564416	60	4148
2026-01-28 22:52:50.16	41.52	18.67	-44.4	-45.6	21.1	0.00e+00	0	42	0	359661568	60	4134
2026-01-28 22:52:51.16	41.69	18.76	-44.5	-45.8	20.9	0.00e+00	0	42	0	360710144	60	4203
2026-01-28 22:52:52.17	41.85	18.85	-44.5	-45.7	21.0	0.00e+00	0	42	0	362807296	60	4179
2026-01-28 22:52:53.18	42.02	18.94	-44.5	-45.7	21.0	0.00e+00	0	42	0	364904448	60	4186
2026-01-28 22:52:54.19	42.19	19.03	-44.5	-45.7	21.0	0.00e+00	0	42	0	367001600	60	4169
2026-01-28 22:52:55.19	42.36	19.12	-44.5	-45.7	21.1	0.00e+00	0	42	0	368050176	60	4165
2026-01-28 22:52:56.20	42.53	19.21	-44.3	-45.4	21.3	0.00e+00	0	42	0	370147328	60	4040
2026-01-28 22:52:57.21	42.70	19.30	-44.2	-45.4	21.3	0.00e+00	0	42	0	372244480	60	4011
2026-01-28 22:52:58.21	42.87	19.39	-44.2	-45.4	21.3	0.00e+00	0	42	0	374341632	60	4011
2026-01-28 22:52:59.22	43.05	19.48	-44.2	-45.4	21.4	0.00e+00	0	42	0	376438784	60	4010
2026-01-28 22:53:00.23	43.22	19.57	-44.2	-45.4	21.3	0.00e+00	0	42	0	378535936	60	4037
2026-01-28 22:53:01.23	43.39	19.66	-44.4	-45.6	21.2	0.00e+00	0	42	0	379584512	60	4117
2026-01-28 22:53:02.24	43.57	19.76	-44.4	-45.6	21.2	0.00e+00	0	42	0	381681664	60	4125
2026-01-28 22:53:03.24	43.75	19.85	-44.6	-45.8	21.0	0.00e+00	0	42	0	383778816	60	4214
2026-01-28 22:53:04.25	43.93	19.94	-44.4	-45.6	21.1	0.00e+00	0	42	0	385875968	60	4130
2026-01-28 22:53:05.25	44.10	20.03	-44.4	-45.6	21.2	0.00e+00	0	42	0	387973120	60	4099
2026-01-28 22:53:06.26	44.29	20.12	-44.3	-45.5	21.3	0.00e+00	0	42	0	389021696	60	4070
2026-01-28 22:53:07.27	44.47	20.21	-44.1	-45.3	21.4	0.00e+00	0	42	0	391118848	60	3978
2026-01-28 22:53:08.28	44.65	20.30	-44.1	-45.3	21.5	0.00e+00	0	42	0	393216000	60	3971
2026-01-28 22:53:09.29	44.83	20.40	-44.0	-45.2	21.5	0.00e+00	0	42	0	395313152	60	3924
2026-01-28 22:53:10.30	45.02	20.49	-44.1	-45.3	21.5	0.00e+00	0	42	0	396361728	60	3960
2026-01-28 22:53:11.30	45.20	20.58	-44.1	-45.2	21.5	0.00e+00	0	42	0	398458880	60	3934
2026-01-28 22:53:12.31	45.39	20.67	-44.1	-45.2	21.5	0.00e+00	0	42	0	400556032	60	3936
2026-01-28 22:53:13.32	45.58	20.76	-44.0	-45.1	21.6	0.00e+00	0	42	0	402653184	60	3907
2026-01-28 22:53:14.33	45.77	20.86	-44.4	-45.5	21.6	0.00e+00	0	42	0	404750336	59	4337
2026-01-28 22:53:15.33	45.96	20.95	-44.4	-45.5	21.5	0.00e+00	0	42	0	406847488	59	4326
2026-01-28 22:53:16.34	46.15	21.04	-44.3	-45.4	21.6	0.00e+00	0	42	0	407896064	59	4286
2026-01-28 22:53:17.35	46.34	21.13	-44.3	-45.4	21.6	0.00e+00	0	42	0	409993216	59	4269
2026-01-28 22:53:18.36	46.54	21.22	-44.1	-45.3	21.8	0.00e+00	0	42	0	412090368	59	4196
2026-01-28 22:53:19.37	46.73	21.32	-44.1	-45.2	21.8	0.00e+00	0	42	0	414187520	59	4165
2026-01-28 22:53:20.37	46.93	21.41	-44.0	-45.2	21.9	0.00e+00	0	42	0	416284672	59	4147
2026-01-28 22:53:21.38	47.12	21.50	-43.9	-45.0	22.0	0.00e+00	0	42	0	417333248	59	4089
2026-01-28 22:53:22.39	47.32	21.59	-43.8	-44.9	22.1	0.00e+00	0	42	0	419430400	59	4016
2026-01-28 22:53:23.39	47.52	21.68	-43.8	-44.9	22.1	0.00e+00	0	42	0	421527552	59	4030
2026-01-28 22:53:24.40	47.72	21.77	-43.8	-44.9	22.2	0.00e+00	0	42	0	423624704	59	4041
2026-01-28 22:53:25.41	47.92	21.87	-43.9	-45.0	22.1	0.00e+00	0	42	0	424673280	59	4078
2026-01-28 22:53:26.42	48.13	21.96	-43.9	-44.9	22.2	0.00e+00	0	42	0	426770432	59	4051
2026-01-28 22:53:27.43	48.33	22.05	-43.9	-45.0	22.1	0.00e+00	0	42	0	428867584	59	4058
2026-01-28 22:53:28.43	48.54	22.14	-43.9	-45.0	22.1	0.00e+00	0	42	0	430964736	59	4082
2026-01-28 22:53:29.43	48.74	22.23	-43.9	-45.0	22.0	0.00e+00	0	42	0	433061888	59	4088
2026-01-28 22:53:30.44	48.95	22.33	-43.9	-45.0	22.1	0.00e+00	0	42	0	435159040	59	4075
2026-01-28 22:53:31.46	49.16	22.42	-43.9	-45.0	22.1	0.00e+00	0	42	0	436207616	59	4084
2026-01-28 22:53:32.46	49.37	22.51	-43.9	-45.0	22.1	0.00e+00	0	42	0	438304768	59	4089
2026-01-28 22:53:33.47	49.58	22.60	-44.1	-45.2	21.9	0.00e+00	0	42	0	440401920	59	4165
2026-01-28 22:53:34.48	49.79	22.69	-44.2	-45.3	21.8	0.00e+00	0	42	0	442499072	59	4242
2026-01-28 22:53:35.49	50.01	22.79	-44.4	-45.6	21.5	0.00e+00	0	42	0	444596224	59	4360
2026-01-28 22:53:36.49	50.22	22.88	-44.6	-45.8	21.4	0.00e+00	0	42	0	445644800	59	4450
2026-01-28 22:53:37.50	50.44	22.97	-44.4	-45.6	21.2	0.00e+00	0	42	0	447741952	60	4113
2026-01-28 22:53:38.51	50.65	23.06	-44.5	-45.7	21.2	0.00e+00	0	42	0	449839104	60	4152
2026-01-28 22:53:39.52	50.87	23.15	-44.5	-45.7	21.2	0.00e+00	0	42	0	451936256	60	4159
2026-01-28 22:53:40.53	51.09	23.24	-44.3	-45.5	21.3	0.00e+00	0	42	0	454033408	60	4079
2026-01-28 22:53:41.53	51.31	23.33	-44.1	-45.2	21.6	0.00e+00	0	42	0	455081984	60	3950
2026-01-28 22:53:42.55	51.54	23.42	-44.1	-45.3	21.5	0.00e+00	0	42	0	457179136	60	3967
2026-01-28 22:53:43.56	51.76	23.52	-44.3	-45.5	21.7	0.00e+00	0	42	0	459276288	59	4312
2026-01-28 22:53:44.56	51.99	23.61	-44.4	-45.6	21.6	0.00e+00	0	42	0	461373440	59	4361
2026-01-28 22:53:45.57	52.21	23.70	-44.4	-45.6	21.6	0.00e+00	0	42	0	463470592	59	4360
2026-01-28 22:53:46.58	52.44	23.79	-44.7	-45.9	21.3	0.00e+00	0	42	0	464519168	59	4509
2026-01-28 22:53:47.59	52.67	23.88	-44.5	-45.7	21.2	0.00e+00	0	42	0	466616320	60	4163
2026-01-28 22:53:48.59	52.90	23.97	-44.6	-45.8	21.1	0.00e+00	0	42	0	468713472	60	4207
2026-01-28 22:53:49.60	53.13	24.06	-44.6	-45.9	21.0	0.00e+00	0	42	0	470810624	60	4243
2026-01-28 22:53:50.60	53.36	24.15	-44.6	-45.8	21.0	0.00e+00	0	42	0	472907776	60	4240
2026-01-28 22:53:51.61	53.59	24.24	-44.5	-45.7	21.1	0.00e+00	0	42	0	473956352	60	4190
2026-01-28 22:53:52.62	53.83	24.33	-44.6	-45.8	21.1	0.00e+00	0	42	0	476053504	60	4218
2026-01-28 22:53:53.62	54.06	24.41	-44.6	-45.8	21.1	0.00e+00	0	42	0	478150656	60	4217
2026-01-28 22:53:54.63	54.30	24.50	-44.7	-45.9	21.0	0.00e+00	0	42	0	480247808	60	4250
2026-01-28 22:53:55.64	54.54	24.59	-44.8	-46.1	20.9	0.00e+00	0	42	0	482344960	60	4348
2026-01-28 22:53:56.65	54.78	24.68	-45.0	-46.3	20.6	0.00e+00	0	42	0	483393536	60	4465
2026-01-28 22:53:57.66	55.03	24.77	-45.1	-46.4	20.5	0.00e+00	0	42	0	485490688	60	4508
2026-01-28 22:53:58.66	55.27	24.86	-45.2	-46.5	20.4	0.00e+00	0	42	0	487587840	61	4327
2026-01-28 22:53:59.67	55.51	24.95	-45.3	-46.6	20.3	0.00e+00	0	42	0	489684992	61	4377
2026-01-28 22:54:00.68	55.76	25.03	-45.3	-46.6	20.4	0.00e+00	0	42	0	491782144	61	4368
2026-01-28 22:54:01.69	56.01	25.12	-45.3	-46.6	20.3	0.00e+00	0	42	0	492830720	61	4353
2026-01-28 22:54:02.69	56.25	25.21	-45.2	-46.5	20.4	0.00e+00	0	42	0	494927872	61	4317
2026-01-28 22:54:03.70	56.50	25.29	-45.1	-46.3	20.6	0.00e+00	0	42	0	497025024	61	4228
2026-01-28 22:54:04.71	56.76	25.38	-45.1	-46.3	20.6	0.00e+00	0	42	0	499122176	61	4221
2026-01-28 22:54:05.71	57.01	25.47	-45.0	-46.3	20.7	0.00e+00	0	42	0	501219328	61	4197
2026-01-28 22:54:06.72	57.26	25.55	-44.8	-46.1	20.8	0.00e+00	0	42	0	502267904	61	4109
2026-01-28 22:54:07.73	57.52	25.64	-45.0	-46.3	20.6	0.00e+00	0	42	0	504365056	61	4216
2026-01-28 22:54:08.74	57.77	25.73	-45.1	-46.4	20.5	0.00e+00	0	42	0	506462208	61	4290
2026-01-28 22:54:09.75	58.03	25.81	-45.3	-46.6	20.4	0.00e+00	0	42	0	508559360	61	4356
2026-01-28 22:54:10.75	58.29	25.89	-45.3	-46.6	20.3	0.00e+00	0	42	0	510656512	61	4381
2026-01-28 22:54:11.76	58.55	25.98	-45.3	-46.6	20.4	0.00e+00	0	42	0	511705088	61	4379
2026-01-28 22:54:12.77	58.81	26.06	-45.5	-46.9	20.1	0.00e+00	0	42	0	513802240	61	4516
2026-01-28 22:54:13.78	59.08	26.15	-45.6	-47.0	20.0	0.00e+00	0	42	0	515899392	61	4560
2026-01-28 22:54:14.79	59.34	26.23	-45.7	-47.1	19.9	0.00e+00	0	42	0	517996544	62	4385
2026-01-28 22:54:15.80	59.61	26.31	-46.0	-47.4	19.6	0.00e+00	0	42	0	520093696	62	4535
2026-01-28 22:54:16.81	59.88	26.40	-46.2	-47.8	19.3	0.00e+00	0	42	0	522190848	63	4447
2026-01-28 22:54:17.82	60.15	26.48	-46.4	-48.0	19.0	0.00e+00	0	42	0	523239424	63	4566
2026-01-28 22:54:18.83	60.42	26.56	-46.6	-48.2	18.8	0.00e+00	0	42	0	525336576	63	4665
2026-01-28 22:54:19.83	60.69	26.64	-46.6	-48.3	18.8	0.00e+00	0	42	0	527433728	63	4708
2026-01-28 22:54:20.84	60.96	26.72	-46.6	-48.2	18.8	0.00e+00	0	42	0	529530880	63	4690
2026-01-28 22:54:21.84	61.23	26.80	-46.6	-48.2	18.9	0.00e+00	0	42	0	530579456	63	4662
2026-01-28 22:54:22.85	61.51	26.88	-46.5	-48.1	19.0	0.00e+00	0	42	0	532676608	63	4604
2026-01-28 22:54:23.86	61.79	26.96	-46.6	-48.2	18.9	0.00e+00	0	42	0	534773760	63	4665
2026-01-28 22:54:24.86	62.06	27.04	-46.7	-48.3	18.8	0.00e+00	0	42	0	536870912	63	4744
2026-01-28 22:54:25.87	62.34	27.12	-46.9	-48.6	18.3	0.00e+00	0	42	0	538968064	64	4651
2026-01-28 22:54:26.88	62.63	27.20	-47.2	-49.0	18.0	0.00e+00	0	42	0	540016640	64	4836
2026-01-28 22:54:27.88	62.91	27.28	-47.4	-49.3	17.7	0.00e+00	0	42	0	542113792	65	4747
2026-01-28 22:54:28.89	63.19	27.35	-47.4	-49.3	17.7	0.00e+00	0	42	0	544210944	65	4726
2026-01-28 22:54:29.89	63.47	27.43	-47.3	-49.2	17.8	0.00e+00	0	42	0	546308096	65	4666
2026-01-28 22:54:30.89	63.76	27.50	-47.1	-48.8	18.1	0.00e+00	0	42	0	548405248	65	4484
2026-01-28 22:54:31.90	64.05	27.58	-46.8	-48.5	18.5	0.00e+00	0	42	0	549453824	65	4292
2026-01-28 22:54:32.91	64.34	27.65	-46.7	-48.4	18.6	0.00e+00	0	42	0	551550976	65	4247
2026-01-28 22:54:33.92	64.63	27.73	-46.6	-48.3	18.7	0.00e+00	0	42	0	553648128	65	4205
2026-01-28 22:54:34.93	64.92	27.80	-46.7	-48.3	18.7	0.00e+00	0	42	0	555745280	65	4228
2026-01-28 22:54:35.93	65.21	27.88	-46.8	-48.4	18.5	0.00e+00	0	42	0	557842432	65	4286
2026-01-28 22:54:36.94	65.51	27.95	-46.9	-48.6	18.4	0.00e+00	0	42	0	558891008	65	4363
2026-01-28 22:54:37.95	65.80	28.02	-46.8	-48.5	18.5	0.00e+00	0	42	0	560988160	65	4332
2026-01-28 22:54:38.96	66.10	28.09	-46.7	-48.4	18.6	0.00e+00	0	42	0	563085312	65	4248
2026-01-28 22:54:39.96	66.40	28.16	-46.5	-48.1	18.9	0.00e+00	0	42	0	565182464	65	4122
2026-01-28 22:54:40.97	66.70	28.23	-46.5	-48.0	18.9	0.00e+00	0	42	0	567279616	64	4338
2026-01-28 22:54:41.97	67.00	28.30	-46.3	-47.8	19.2	0.00e+00	0	42	0	568328192	64	4210
2026-01-28 22:54:42.98	67.30	28.37	-46.2	-47.7	19.3	0.00e+00	0	42	0	570425344	64	4147
2026-01-28 22:54:43.99	67.60	28.44	-46.3	-47.8	19.2	0.00e+00	0	42	0	572522496	64	4225
2026-01-28 22:54:45.00	67.91	28.51	-46.5	-48.1	18.9	0.00e+00	0	42	0	574619648	64	4371
2026-01-28 22:54:46.01	68.21	28.57	-46.5	-48.1	18.8	0.00e+00	0	42	0	576716800	64	4384
2026-01-28 22:54:47.01	68.52	28.64	-46.6	-48.3	18.7	0.00e+00	0	42	0	578813952	64	4463
2026-01-28 22:54:48.02	68.83	28.70	-46.7	-48.4	18.5	0.00e+00	0	42	0	579862528	64	4523
2026-01-28 22:54:49.03	69.14	28.77	-46.9	-48.5	18.5	0.00e+00	0	42	0	581959680	64	4594
2026-01-28 22:54:50.04	69.45	28.83	-46.7	-48.3	18.6	0.00e+00	0	42	0	584056832	64	4491
2026-01-28 22:54:51.05	69.76	28.90	-46.7	-48.4	18.6	0.00e+00	0	42	0	586153984	64	4502
2026-01-28 22:54:52.06	70.08	28.96	-46.9	-48.6	18.4	0.00e+00	0	42	0	587202560	64	4612
2026-01-28 22:54:53.06	70.39	29.02	-47.0	-48.7	18.3	0.00e+00	0	42	0	589299712	64	4667
2026-01-28 22:54:54.07	70.71	29.08	-47.3	-49.1	18.0	0.00e+00	0	42	0	591396864	65	4645
2026-01-28 22:54:55.07	71.02	29.14	-47.6	-49.6	17.5	0.00e+00	0	42	0	593494016	65	4873
2026-01-28 22:54:56.08	71.34	29.20	-47.9	-49.9	17.2	0.00e+00	0	42	0	595591168	66	4801
2026-01-28 22:54:57.09	71.66	29.26	-48.1	-50.3	16.8	0.00e+00	0	42	0	596639744	66	4996
2026-01-28 22:54:58.10	71.98	29.32	-48.2	-50.3	16.7	0.00e+00	0	42	0	598736896	66	5011
2026-01-28 22:54:59.10	72.30	29.37	-48.1	-50.3	16.8	0.00e+00	0	42	0	600834048	67	4706
2026-01-28 22:55:00.11	72.62	29.43	-48.4	-50.6	16.5	0.00e+00	0	42	0	602931200	67	4892
2026-01-28 22:55:01.12	72.95	29.48	-48.2	-50.4	16.6	0.00e+00	0	42	0	605028352	67	4793
2026-01-28 22:55:02.13	73.27	29.54	-48.4	-50.6	16.4	0.00e+00	0	42	0	607125504	67	4922
2026-01-28 22:55:03.14	73.60	29.59	-48.4	-50.7	16.4	0.00e+00	0	42	0	608174080	67	4932
2026-01-28 22:55:04.15	73.93	29.64	-48.5	-50.8	16.2	0.00e+00	0	42	0	610271232	67	5023
2026-01-28 22:55:05.16	74.26	29.69	-48.6	-50.9	16.2	0.00e+00	0	42	0	612368384	67	5065
2026-01-28 22:55:06.17	74.59	29.74	-48.4	-50.6	16.5	0.00e+00	0	42	0	614465536	67	4908
2026-01-28 22:55:07.17	74.91	29.79	-48.2	-50.4	16.8	0.00e+00	0	42	0	615514112	67	4774
2026-01-28 22:55:08.18	75.25	29.84	-48.1	-50.2	16.9	0.00e+00	0	42	0	617611264	67	4694
2026-01-28 22:55:09.19	75.58	29.89	-47.8	-49.8	17.3	0.00e+00	0	42	0	619708416	67	4485
2026-01-28 22:55:10.20	75.91	29.94	-47.8	-49.8	17.2	0.00e+00	0	42	0	621805568	67	4478
2026-01-28 22:55:11.21	76.25	29.98	-47.8	-49.7	17.3	0.00e+00	0	42	0	623902720	67	4427
2026-01-28 22:55:12.21	76.58	30.03	-47.8	-49.8	17.3	0.00e+00	0	42	0	625999872	67	4466
2026-01-28 22:55:13.22	76.92	30.07	-47.9	-50.0	17.1	0.00e+00	0	42	0	627048448	67	4563
2026-01-28 22:55:14.23	77.25	30.11	-48.0	-50.1	17.0	0.00e+00	0	42	0	629145600	67	4618
2026-01-28 22:55:15.24	77.59	30.15	-48.1	-50.2	16.8	0.00e+00	0	42	0	631242752	67	4697
2026-01-28 22:55:16.24	77.93	30.20	-48.3	-50.5	16.6	0.00e+00	0	42	0	633339904	67	4844
2026-01-28 22:55:17.25	78.27	30.23	-48.3	-50.6	16.5	0.00e+00	0	42	0	635437056	67	4875
2026-01-28 22:55:18.26	78.61	30.27	-47.9	-50.0	17.1	0.00e+00	0	42	0	636485632	67	4560
2026-01-28 22:55:19.27	78.95	30.31	-47.6	-49.5	17.6	0.00e+00	0	42	0	638582784	67	4320
2026-01-28 22:55:20.27	79.29	30.35	-47.5	-49.4	17.7	0.00e+00	0	42	0	640679936	67	4265
2026-01-28 22:55:21.28	79.63	30.38	-47.2	-49.0	18.0	0.00e+00	0	42	0	642777088	66	4301
2026-01-28 22:55:22.29	79.98	30.42	-47.3	-49.1	18.0	0.00e+00	0	42	0	643825664	66	4348
2026-01-28 22:55:23.29	80.32	30.45	-47.4	-49.3	17.8	0.00e+00	0	42	0	645922816	66	4442
2026-01-28 22:55:24.30	80.66	30.48	-47.4	-49.3	17.8	0.00e+00	0	42	0	648019968	66	4445
2026-01-28 22:55:25.31	81.01	30.51	-47.6	-49.5	17.6	0.00e+00	0	42	0	650117120	66	4564
2026-01-28 22:55:26.32	81.36	30.54	-47.5	-49.3	17.7	0.00e+00	0	42	0	652214272	66	4467
2026-01-28 22:55:27.33	81.70	30.57	-47.5	-49.4	17.7	0.00e+00	0	42	0	654311424	66	4494
2026-01-28 22:55:28.33	82.05	30.60	-47.4	-49.3	17.8	0.00e+00	0	42	0	655360000	66	4462
2026-01-28 22:55:29.34	82.40	30.63	-47.1	-48.9	18.1	0.00e+00	0	42	0	657457152	66	4266
2026-01-28 22:55:30.35	82.74	30.65	-46.8	-48.4	18.6	0.00e+00	0	42	0	659554304	65	4268
2026-01-28 22:55:31.36	83.09	30.68	-46.6	-48.1	18.9	0.00e+00	0	42	0	661651456	65	4142
2026-01-28 22:55:32.37	83.44	30.70	-46.6	-48.2	18.8	0.00e+00	0	42	0	663748608	65	4181
2026-01-28 22:55:33.37	83.79	30.73	-47.0	-48.7	18.3	0.00e+00	0	42	0	664797184	65	4431
2026-01-28 22:55:34.38	84.14	30.75	-47.3	-49.1	18.0	0.00e+00	0	42	0	666894336	65	4602
2026-01-28 22:55:35.39	84.49	30.77	-47.7	-49.7	17.3	0.00e+00	0	42	0	668991488	66	4667
2026-01-28 22:55:36.39	84.84	30.79	-47.9	-49.9	17.2	0.00e+00	0	42	0	671088640	66	4775
2026-01-28 22:55:37.40	85.19	30.80	-47.7	-49.7	17.4	0.00e+00	0	42	0	672137216	66	4659
2026-01-28 22:55:38.41	85.55	30.82	-47.7	-49.6	17.5	0.00e+00	0	42	0	674234368	66	4639
2026-01-28 22:55:39.42	85.90	30.84	-47.5	-49.3	17.7	0.00e+00	0	42	0	676331520	66	4491
2026-01-28 22:55:40.42	86.25	30.85	-47.3	-49.1	17.9	0.00e+00	0	42	0	678428672	66	4372
2026-01-28 22:55:41.43	86.60	30.86	-47.2	-48.9	18.2	0.00e+00	0	42	0	680525824	66	4269
2026-01-28 22:55:42.44	86.96	30.88	-46.9	-48.6	18.5	0.00e+00	0	42	0	682622976	65	4380
2026-01-28 22:55:43.45	87.31	30.89	-46.9	-48.5	18.5	0.00e+00	0	42	0	683671552	65	4335
2026-01-28 22:55:44.46	87.67	30.90	-46.8	-48.4	18.6	0.00e+00	0	42	0	685768704	65	4272
2026-01-28 22:55:45.47	88.02	30.90	-46.7	-48.3	18.8	0.00e+00	0	42	0	687865856	65	4214
2026-01-28 22:55:46.47	88.37	30.91	-46.7	-48.3	18.8	0.00e+00	0	42	0	689963008	65	4205
2026-01-28 22:55:47.48	88.73	30.92	-46.6	-48.1	18.9	0.00e+00	0	42	0	692060160	65	4139
2026-01-28 22:55:48.49	89.08	30.92	-46.3	-47.8	19.3	0.00e+00	0	42	0	693108736	64	4212
2026-01-28 22:55:49.50	89.44	30.93	-46.1	-47.6	19.4	0.00e+00	0	42	0	695205888	64	4127
2026-01-28 22:55:50.51	89.79	30.93	-46.2	-47.8	19.3	0.00e+00	0	42	0	697303040	64	4196
2026-01-28 22:55:51.52	90.15	30.93	-46.2	-47.7	19.4	0.00e+00	0	42	0	699400192	64	4166
2026-01-28 22:55:52.53	90.50	30.93	-46.3	-47.8	19.2	0.00e+00	0	42	0	701497344	64	4205
2026-01-28 22:55:53.54	90.86	30.93	-46.2	-47.7	19.3	0.00e+00	0	42	0	702545920	64	4172
2026-01-28 22:55:54.54	91.21	30.93	-46.3	-47.8	19.3	0.00e+00	0	42	0	704643072	64	4198
2026-01-28 22:55:55.55	91.57	30.92	-46.6	-48.2	18.9	0.00e+00	0	42	0	706740224	64	4413
2026-01-28 22:55:56.56	91.92	30.92	-46.8	-48.5	18.6	0.00e+00	0	42	0	708837376	64	4547
2026-01-28 22:55:57.57	92.28	30.91	-47.0	-48.7	18.3	0.00e+00	0	42	0	710934528	64	4704
2026-01-28 22:55:58.57	92.63	30.91	-47.2	-49.0	18.1	0.00e+00	0	42	0	711983104	65	4548
2026-01-28 22:55:59.58	92.98	30.90	-47.4	-49.3	17.8	0.00e+00	0	42	0	714080256	65	4724
2026-01-28 22:56:00.59	93.34	30.89	-47.5	-49.4	17.6	0.00e+00	0	42	0	716177408	65	4787
2026-01-28 22:56:01.59	93.69	30.88	-47.5	-49.4	17.7	0.00e+00	0	42	0	718274560	65	4794
2026-01-28 22:56:02.60	94.04	30.87	-47.4	-49.3	17.8	0.00e+00	0	42	0	720371712	65	4718
2026-01-28 22:56:03.61	94.40	30.86	-47.2	-49.0	18.1	0.00e+00	0	42	0	721420288	65	4567
2026-01-28 22:56:04.61	94.75	30.84	-47.1	-48.8	18.3	0.00e+00	0	42	0	723517440	65	4450
2026-01-28 22:56:05.62	95.10	30.83	-47.1	-48.9	18.2	0.00e+00	0	42	0	725614592	65	4517
2026-01-28 22:56:06.63	95.45	30.81	-47.3	-49.0	18.1	0.00e+00	0	42	0	727711744	65	4597
2026-01-28 22:56:07.64	95.81	30.79	-47.1	-48.8	18.2	0.00e+00	0	42	0	729808896	65	4470
2026-01-28 22:56:08.64	96.15	30.77	-47.1	-48.8	18.3	0.00e+00	0	42	0	730857472	65	4470
2026-01-28 22:56:09.65	96.51	30.75	-46.9	-48.6	18.5	0.00e+00	0	42	0	732954624	65	4370
2026-01-28 22:56:10.66	96.86	30.73	-47.0	-48.7	18.3	0.00e+00	0	42	0	735051776	65	4441
2026-01-28 22:56:11.67	97.21	30.71	-47.2	-49.0	18.2	0.00e+00	0	42	0	737148928	65	4552
2026-01-28 22:56:12.67	97.56	30.69	-47.5	-49.3	17.8	0.00e+00	0	42	0	739246080	65	4750
2026-01-28 22:56:13.68	97.91	30.66	-47.8	-49.7	17.4	0.00e+00	0	42	0	740294656	66	4694
2026-01-28 22:56:14.69	98.26	30.64	-48.0	-50.0	17.1	0.00e+00	0	42	0	742391808	66	4853
2026-01-28 22:56:15.69	98.60	30.61	-48.2	-50.4	16.8	0.00e+00	0	42	0	744488960	66	5043
2026-01-28 22:56:16.70	98.95	30.59	-48.4	-50.7	16.4	0.00e+00	0	42	0	746586112	67	4928
2026-01-28 22:56:17.71	99.30	30.56	-48.4	-50.6	16.5	0.00e+00	0	42	0	748683264	67	4916
2026-01-28 22:56:18.72	99.64	30.53	-48.2	-50.3	16.8	0.00e+00	0	42	0	750780416	67	4742
2026-01-28 22:56:19.73	99.99	30.50	-48.1	-50.2	16.9	0.00e+00	0	42	0	751828992	67	4672
2026-01-28 22:56:20.73	100.33	30.46	-47.9	-49.9	17.2	0.00e+00	0	42	0	753926144	67	4524
2026-01-28 22:56:21.74	100.68	30.43	-47.8	-49.7	17.4	0.00e+00	0	42	0	756023296	67	4433
2026-01-28 22:56:22.75	101.02	30.40	-47.6	-49.5	17.6	0.00e+00	0	42	0	758120448	67	4314
2026-01-28 22:56:23.76	101.37	30.36	-47.3	-49.1	18.0	0.00e+00	0	42	0	759169024	66	4377
2026-01-28 22:56:24.77	101.71	30.33	-47.2	-49.0	18.1	0.00e+00	0	42	0	761266176	66	4313
2026-01-28 22:56:25.77	102.05	30.29	-47.5	-49.3	17.8	0.00e+00	0	42	0	763363328	66	4478
2026-01-28 22:56:26.78	102.39	30.25	-48.0	-50.0	17.2	0.00e+00	0	43	0	765460480	66	4827
2026-01-28 22:56:27.78	102.73	30.21	-48.2	-50.3	16.9	0.00e+00	0	42	0	767557632	66	5012
2026-01-28 22:56:28.79	103.07	30.17	-48.2	-50.3	16.8	0.00e+00	0	42	0	768606208	67	4724
2026-01-28 22:56:29.80	103.41	30.13	-48.0	-50.1	17.0	0.00e+00	0	42	0	770703360	67	4616
2026-01-28 22:56:30.80	103.74	30.09	-47.9	-49.9	17.2	0.00e+00	0	42	0	772800512	67	4538
2026-01-28 22:56:31.81	104.08	30.04	-47.8	-49.7	17.4	0.00e+00	0	42	0	774897664	67	4431
2026-01-28 22:56:32.82	104.42	30.00	-47.7	-49.6	17.5	0.00e+00	0	42	0	776994816	67	4368
2026-01-28 22:56:33.83	104.75	29.95	-47.5	-49.3	17.8	0.00e+00	0	42	0	779091968	66	4483
2026-01-28 22:56:34.84	105.09	29.91	-47.1	-48.8	18.3	0.00e+00	0	42	0	780140544	66	4229
2026-01-28 22:56:35.84	105.42	29.86	-47.1	-48.8	18.3	0.00e+00	0	42	0	782237696	66	4207
2026-01-28 22:56:36.85	105.75	29.81	-46.7	-48.3	18.8	0.00e+00	0	42	0	784334848	65	4203
2026-01-28 22:56:37.86	106.08	29.76	-46.6	-48.2	18.9	0.00e+00	0	42	0	786432000	65	4191
2026-01-28 22:56:38.87	106.41	29.71	-46.4	-47.9	19.2	0.00e+00	0	42	0	787480576	64	4276
2026-01-28 22:56:39.88	106.74	29.66	-46.3	-47.8	19.3	0.00e+00	0	42	0	789577728	64	4228
2026-01-28 22:56:40.88	107.07	29.61	-46.4	-48.0	19.1	0.00e+00	0	42	0	791674880	64	4303
2026-01-28 22:56:41.89	107.40	29.56	-46.6	-48.2	18.9	0.00e+00	0	42	0	793772032	64	4402
2026-01-28 22:56:42.90	107.72	29.50	-46.8	-48.4	18.7	0.00e+00	0	42	0	795869184	64	4515
2026-01-28 22:56:43.91	108.05	29.45	-46.8	-48.5	18.6	0.00e+00	0	42	0	797966336	64	4565
2026-01-28 22:56:44.92	108.37	29.39	-46.8	-48.5	18.6	0.00e+00	0	42	0	799014912	64	4557
2026-01-28 22:56:45.93	108.70	29.34	-46.5	-48.1	18.9	0.00e+00	0	42	0	801112064	64	4354
2026-01-28 22:56:46.94	109.02	29.28	-46.1	-47.5	19.5	0.00e+00	0	42	0	803209216	64	4095
2026-01-28 22:56:47.95	109.34	29.22	-46.0	-47.4	19.7	0.00e+00	0	42	0	805306368	63	4278
2026-01-28 22:56:48.95	109.66	29.16	-45.9	-47.3	19.8	0.00e+00	0	42	0	807403520	63	4221
2026-01-28 22:56:49.96	109.97	29.10	-46.0	-47.4	19.7	0.00e+00	0	42	0	808452096	63	4287
2026-01-28 22:56:50.97	110.29	29.04	-46.3	-47.8	19.3	0.00e+00	0	42	0	810549248	63	4489
2026-01-28 22:56:51.98	110.61	28.98	-46.3	-47.8	19.3	0.00e+00	0	42	0	812646400	63	4490
2026-01-28 22:56:52.99	110.92	28.92	-46.5	-48.1	19.1	0.00e+00	0	42	0	814743552	63	4605
2026-01-28 22:56:54.00	111.24	28.85	-46.7	-48.3	18.8	0.00e+00	0	42	0	815792128	63	4745
2026-01-28 22:56:55.00	111.55	28.79	-47.1	-48.8	18.3	0.00e+00	0	42	0	817889280	64	4728
2026-01-28 22:56:56.01	111.86	28.73	-47.5	-49.4	17.7	0.00e+00	0	42	0	819986432	65	4782
2026-01-28 22:56:57.02	112.17	28.66	-47.7	-49.6	17.4	0.00e+00	0	42	0	822083584	65	4920
2026-01-28 22:56:58.03	112.48	28.59	-47.9	-49.9	17.2	0.00e+00	0	42	0	824180736	66	4780
2026-01-28 22:56:59.04	112.79	28.53	-47.7	-49.7	17.4	0.00e+00	0	42	0	826277888	66	4660
2026-01-28 22:57:00.05	113.09	28.46	-47.6	-49.5	17.5	0.00e+00	0	42	0	827326464	66	4585
2026-01-28 22:57:01.06	113.40	28.39	-47.3	-49.1	18.0	0.00e+00	0	42	0	829423616	66	4360
2026-01-28 22:57:02.06	113.70	28.32	-47.1	-48.8	18.3	0.00e+00	0	42	0	831520768	66	4222
2026-01-28 22:57:03.07	114.00	28.25	-47.0	-48.7	18.4	0.00e+00	0	42	0	833617920	65	4398
2026-01-28 22:57:04.08	114.31	28.18	-46.8	-48.5	18.5	0.00e+00	0	42	0	835715072	65	4308
2026-01-28 22:57:05.09	114.61	28.11	-46.9	-48.7	18.4	0.00e+00	0	42	0	836763648	65	4394
2026-01-28 22:57:06.09	114.90	28.04	-46.9	-48.6	18.5	0.00e+00	0	42	0	838860800	65	4342
2026-01-28 22:57:07.10	115.20	27.97	-47.0	-48.8	18.3	0.00e+00	0	42	0	840957952	65	4459
2026-01-28 22:57:08.11	115.50	27.90	-47.3	-49.1	18.0	0.00e+00	0	42	0	843055104	65	4628
2026-01-28 22:57:09.11	115.79	27.82	-47.5	-49.3	17.7	0.00e+00	0	42	0	845152256	65	4750
2026-01-28 22:57:10.12	116.08	27.75	-47.5	-49.4	17.6	0.00e+00	0	42	0	846200832	65	4813
2026-01-28 22:57:11.13	116.37	27.68	-47.5	-49.4	17.6	0.00e+00	0	42	0	848297984	65	4792
2026-01-28 22:57:12.14	116.66	27.60	-47.5	-49.3	17.8	0.00e+00	0	42	0	850395136	65	4738
2026-01-28 22:57:13.14	116.95	27.53	-47.4	-49.3	17.8	0.00e+00	0	42	0	852492288	65	4720
2026-01-28 22:57:14.15	117.24	27.45	-47.3	-49.1	18.0	0.00e+00	0	42	0	854589440	65	4619
2026-01-28 22:57:15.16	117.53	27.37	-47.1	-48.9	18.2	0.00e+00	0	42	0	855638016	65	4494
2026-01-28 22:57:16.17	117.81	27.29	-46.9	-48.6	18.5	0.00e+00	0	42	0	857735168	65	4348
2026-01-28 22:57:17.18	118.10	27.22	-46.8	-48.4	18.7	0.00e+00	0	42	0	859832320	65	4253
2026-01-28 22:57:18.18	118.38	27.14	-46.8	-48.5	18.6	0.00e+00	0	42	0	861929472	65	4300
2026-01-28 22:57:19.19	118.66	27.06	-46.9	-48.6	18.5	0.00e+00	0	42	0	864026624	65	4349
2026-01-28 22:57:20.20	118.94	26.98	-46.8	-48.5	18.6	0.00e+00	0	42	0	865075200	65	4314
2026-01-28 22:57:21.20	119.22	26.90	-46.6	-48.2	18.8	0.00e+00	0	42	0	867172352	65	4180
2026-01-28 22:57:22.21	119.49	26.82	-46.3	-47.8	19.2	0.00e+00	0	42	0	869269504	64	4205
2026-01-28 22:57:23.22	119.77	26.74	-46.2	-47.6	19.4	0.00e+00	0	42	0	871366656	64	4141
2026-01-28 22:57:24.23	120.04	26.66	-45.9	-47.3	19.8	0.00e+00	0	42	0	873463808	63	4232
2026-01-28 22:57:25.23	120.32	26.58	-45.5	-46.8	20.2	0.00e+00	0	42	0	874512384	63	3997
2026-01-28 22:57:26.24	120.59	26.50	-45.6	-46.9	20.2	0.00e+00	0	42	0	876609536	62	4267
2026-01-28 22:57:27.24	120.86	26.41	-45.6	-46.9	20.2	0.00e+00	0	42	0	878706688	62	4278
2026-01-28 22:57:28.25	121.12	26.33	-45.9	-47.3	19.8	0.00e+00	0	42	0	880803840	62	4493
2026-01-28 22:57:29.26	121.39	26.25	-46.3	-47.8	19.3	0.00e+00	0	42	0	882900992	63	4464
2026-01-28 22:57:30.27	121.66	26.16	-46.5	-48.0	19.1	0.00e+00	0	42	0	883949568	63	4592
2026-01-28 22:57:31.28	121.92	26.08	-46.4	-47.9	19.2	0.00e+00	0	42	0	886046720	63	4524
2026-01-28 22:57:32.29	122.19	25.99	-46.4	-47.9	19.2	0.00e+00	0	42	0	888143872	63	4520
2026-01-28 22:57:33.30	122.45	25.91	-46.4	-48.0	19.1	0.00e+00	0	42	0	890241024	63	4555
2026-01-28 22:57:34.31	122.71	25.82	-46.5	-48.1	19.0	0.00e+00	0	42	0	892338176	63	4637
2026-01-28 22:57:35.31	122.97	25.74	-46.7	-48.3	18.7	0.00e+00	0	42	0	893386752	64	4493
2026-01-28 22:57:36.32	123.23	25.65	-46.4	-47.9	19.1	0.00e+00	0	42	0	895483904	64	4275
2026-01-28 22:57:37.33	123.48	25.57	-46.1	-47.6	19.4	0.00e+00	0	42	0	897581056	64	4136
2026-01-28 22:57:38.33	123.74	25.48	-46.1	-47.5	19.6	0.00e+00	0	42	0	899678208	63	4327
2026-01-28 22:57:39.34	123.99	25.39	-46.1	-47.5	19.6	0.00e+00	0	42	0	901775360	63	4308
2026-01-28 22:57:40.35	124.24	25.31	-45.8	-47.2	19.9	0.00e+00	0	42	0	902823936	63	4166
2026-01-28 22:57:41.36	124.50	25.22	-46.1	-47.6	19.5	0.00e+00	0	42	0	904921088	63	4367
2026-01-28 22:57:42.36	124.74	25.13	-46.3	-47.9	19.2	0.00e+00	0	42	0	907018240	63	4508
2026-01-28 22:57:43.37	124.99	25.05	-46.1	-47.6	19.5	0.00e+00	0	42	0	909115392	63	4374
2026-01-28 22:57:44.38	125.24	24.96	-46.1	-47.5	19.6	0.00e+00	0	42	0	911212544	63	4326
2026-01-28 22:57:45.39	125.49	24.87	-45.9	-47.3	19.8	0.00e+00	0	42	0	912261120	63	4233
2026-01-28 22:57:46.39	125.73	24.78	-45.9	-47.3	19.7	0.00e+00	0	42	0	914358272	63	4240
2026-01-28 22:57:47.40	125.97	24.69	-46.0	-47.4	19.7	0.00e+00	0	42	0	916455424	63	4260
2026-01-28 22:57:48.41	126.22	24.60	-46.4	-48.0	19.2	0.00e+00	0	42	0	918552576	63	4561
2026-01-28 22:57:49.42	126.46	24.51	-47.0	-48.8	18.2	0.00e+00	0	42	0	920649728	64	4728
2026-01-28 22:57:50.43	126.70	24.42	-47.4	-49.3	17.8	0.00e+00	0	42	0	921698304	65	4723
2026-01-28 22:57:51.43	126.93	24.33	-47.4	-49.3	17.8	0.00e+00	0	42	0	923795456	65	4717
2026-01-28 22:57:52.44	127.17	24.24	-47.2	-49.0	18.0	0.00e+00	0	42	0	925892608	65	4554
2026-01-28 22:57:53.45	127.40	24.15	-46.9	-48.5	18.4	0.00e+00	0	42	0	927989760	65	4336
2026-01-28 22:57:54.46	127.64	24.06	-46.6	-48.3	18.7	0.00e+00	0	42	0	930086912	65	4194
2026-01-28 22:57:55.47	127.87	23.97	-46.2	-47.7	19.2	0.00e+00	0	42	0	931135488	64	4165
2026-01-28 22:57:56.47	128.10	23.88	-46.6	-48.2	18.8	0.00e+00	0	42	0	933232640	64	4406
2026-01-28 22:57:57.49	128.33	23.79	-47.0	-48.7	18.2	0.00e+00	0	42	0	935329792	64	4702
2026-01-28 22:57:58.49	128.56	23.70	-47.0	-48.8	18.1	0.00e+00	0	42	0	937426944	64	4749
2026-01-28 22:57:59.50	128.79	23.61	-46.5	-48.1	18.7	0.00e+00	0	42	0	939524096	64	4385
2026-01-28 22:58:00.51	129.01	23.52	-46.0	-47.5	19.5	0.00e+00	0	42	0	940572672	63	4300
2026-01-28 22:58:01.51	129.24	23.43	-46.0	-47.4	19.6	0.00e+00	0	42	0	942669824	63	4281
2026-01-28 22:58:02.52	129.46	23.34	-45.6	-47.0	20.0	0.00e+00	0	42	0	944766976	63	4059
2026-01-28 22:58:03.53	129.68	23.24	-45.3	-46.7	20.2	0.00e+00	0	42	0	946864128	62	4147
2026-01-28 22:58:04.54	129.90	23.15	-45.8	-47.2	19.7	0.00e+00	0	42	0	948961280	62	4424
2026-01-28 22:58:05.55	130.12	23.06	-46.2	-47.8	19.2	0.00e+00	0	42	0	950009856	63	4446
2026-01-28 22:58:06.55	130.34	22.97	-46.4	-48.0	19.0	0.00e+00	0	42	0	952107008	63	4569
2026-01-28 22:58:07.56	130.56	22.88	-46.3	-47.8	19.1	0.00e+00	0	42	0	954204160	63	4475
2026-01-28 22:58:08.56	130.77	22.79	-45.7	-47.1	19.8	0.00e+00	0	42	0	956301312	63	4145
2026-01-28 22:58:09.57	130.99	22.69	-45.5	-46.9	20.0	0.00e+00	0	42	0	958398464	63	4013
2026-01-28 22:58:10.58	131.20	22.60	-45.5	-46.9	20.0	0.00e+00	0	42	0	959447040	63	4024
2026-01-28 22:58:11.59	131.41	22.51	-45.5	-46.9	20.0	0.00e+00	0	42	0	961544192	63	4031
2026-01-28 22:58:12.59	131.62	22.42	-45.9	-47.3	19.6	0.00e+00	0	42	0	963641344	63	4242
2026-01-28 22:58:13.60	131.83	22.32	-46.5	-48.1	18.9	0.00e+00	0	42	0	965738496	63	4613
2026-01-28 22:58:14.60	132.04	22.23	-46.7	-48.4	18.4	0.00e+00	0	42	0	967835648	64	4526
2026-01-28 22:58:15.60	132.25	22.14	-46.6	-48.3	18.5	0.00e+00	0	42	0	968884224	64	4472
2026-01-28 22:58:16.61	132.45	22.05	-46.2	-47.7	19.1	0.00e+00	0	42	0	970981376	64	4175
2026-01-28 22:58:17.62	132.66	21.96	-45.8	-47.2	19.6	0.00e+00	0	42	0	973078528	63	4172
2026-01-28 22:58:18.63	132.86	21.86	-45.5	-46.9	19.9	0.00e+00	0	42	0	975175680	63	4032
2026-01-28 22:58:19.64	133.07	21.77	-45.2	-46.6	20.2	0.00e+00	0	42	0	977272832	62	4109
2026-01-28 22:58:20.65	133.27	21.68	-45.3	-46.7	20.1	0.00e+00	0	43	0	978321408	62	4166
2026-01-28 22:58:21.66	133.47	21.59	-45.2	-46.6	20.3	0.00e+00	0	42	0	980418560	62	4108
2026-01-28 22:58:22.67	133.67	21.49	-45.2	-46.6	20.2	0.00e+00	0	42	0	982515712	62	4103
2026-01-28 22:58:23.67	133.86	21.40	-45.4	-46.8	20.0	0.00e+00	0	42	0	984612864	62	4210
2026-01-28 22:58:24.68	134.06	21.31	-45.3	-46.7	20.1	0.00e+00	0	42	0	986710016	62	4164
2026-01-28 22:58:25.69	134.26	21.21	-45.2	-46.5	20.2	0.00e+00	0	42	0	987758592	62	4075
2026-01-28 22:58:26.70	134.45	21.12	-44.9	-46.1	20.6	0.00e+00	0	42	0	989855744	61	4130
2026-01-28 22:58:27.71	134.65	21.03	-44.7	-46.0	20.8	0.00e+00	0	42	0	991952896	61	4058
2026-01-28 22:58:28.71	134.84	20.94	-44.9	-46.2	20.5	0.00e+00	0	42	0	994050048	61	4181
2026-01-28 22:58:29.72	135.03	20.84	-45.0	-46.3	20.4	0.00e+00	0	42	0	996147200	61	4232
2026-01-28 22:58:30.72	135.22	20.75	-45.4	-46.7	20.0	0.00e+00	0	42	0	998244352	61	4441
2026-01-28 22:58:31.73	135.41	20.66	-45.4	-46.8	19.9	0.00e+00	0	42	0	999292928	61	4490
2026-01-28 22:58:32.74	135.60	20.57	-45.3	-46.7	20.0	0.00e+00	0	42	0	1001390080	61	4417
2026-01-28 22:58:33.75	135.78	20.48	-45.3	-46.7	20.0	0.00e+00	0	42	0	1003487232	61	4393
2026-01-28 22:58:34.76	135.97	20.38	-45.2	-46.6	20.2	0.00e+00	0	42	0	1005584384	61	4342
2026-01-28 22:58:35.76	136.15	20.29	-44.9	-46.2	20.5	0.00e+00	0	42	0	1006632960	61	4174
2026-01-28 22:58:36.77	136.34	20.20	-45.0	-46.3	20.5	0.00e+00	0	42	0	1008730112	61	4199
2026-01-28 22:58:37.78	136.52	20.11	-44.7	-45.9	20.8	0.00e+00	0	42	0	1010827264	61	4027
2026-01-28 22:58:38.79	136.70	20.01	-44.6	-45.8	20.8	0.00e+00	0	42	0	1012924416	61	3996
2026-01-28 22:58:39.80	136.88	19.92	-44.5	-45.7	20.9	0.00e+00	0	42	0	1015021568	60	4172
2026-01-28 22:58:40.80	137.06	19.83	-44.5	-45.7	20.9	0.00e+00	0	42	0	1016070144	60	4167
2026-01-28 22:58:41.81	137.24	19.74	-44.5	-45.7	20.9	0.00e+00	0	42	0	1018167296	60	4191
2026-01-28 22:58:42.82	137.41	19.65	-44.4	-45.7	21.0	0.00e+00	0	42	0	1020264448	60	4147
2026-01-28 22:58:43.83	137.59	19.55	-44.3	-45.5	21.1	0.00e+00	0	42	0	1022361600	60	4065
2026-01-28 22:58:44.83	137.77	19.46	-44.2	-45.4	21.2	0.00e+00	0	42	0	1024458752	60	4030
2026-01-28 22:58:45.84	137.94	19.37	-44.1	-45.3	21.2	0.00e+00	0	42	0	1026555904	60	3984
2026-01-28 22:58:46.85	138.11	19.28	-44.1	-45.2	21.3	0.00e+00	0	42	0	1027604480	60	3956
2026-01-28 22:58:47.85	138.28	19.19	-44.0	-45.2	21.4	0.00e+00	0	42	0	1029701632	60	3917
2026-01-28 22:58:48.86	138.46	19.10	-44.1	-45.3	21.3	0.00e+00	0	42	0	1031798784	60	3961
2026-01-28 22:58:49.87	138.63	19.01	-44.2	-45.4	21.2	0.00e+00	0	42	0	1033895936	60	4013
2026-01-28 22:58:50.88	138.80	18.91	-44.3	-45.5	21.1	0.00e+00	0	42	0	1034944512	60	4092
2026-01-28 22:58:51.88	138.96	18.82	-44.4	-45.6	21.1	0.00e+00	0	42	0	1037041664	60	4101
2026-01-28 22:58:52.89	139.13	18.73	-44.5	-45.7	20.9	0.00e+00	0	42	0	1039138816	60	4173
2026-01-28 22:58:53.90	139.30	18.64	-44.6	-45.8	20.8	0.00e+00	0	42	0	1041235968	60	4223
2026-01-28 22:58:54.90	139.46	18.55	-44.6	-45.9	20.7	0.00e+00	0	42	0	1043333120	60	4252
2026-01-28 22:58:55.91	139.63	18.46	-44.6	-45.9	20.7	0.00e+00	0	42	0	1045430272	60	4271
2026-01-28 22:58:56.92	139.79	18.37	-44.7	-45.9	20.6	0.00e+00	0	42	0	1046478848	60	4282
2026-01-28 22:58:57.93	139.95	18.28	-44.6	-45.9	20.7	0.00e+00	0	42	0	1048576000	60	4254
2026-01-28 22:58:58.93	140.11	18.19	-44.6	-45.8	20.8	0.00e+00	0	42	0	1050673152	60	4215
2026-01-28 22:58:59.94	140.27	18.10	-44.7	-45.9	20.7	0.00e+00	0	42	0	1052770304	60	4282
2026-01-28 22:59:00.95	140.43	18.01	-44.4	-45.7	20.9	0.00e+00	0	42	0	1054867456	60	4147
2026-01-28 22:59:01.95	140.59	17.92	-44.2	-45.4	21.2	0.00e+00	0	42	0	1055916032	60	4022
2026-01-28 22:59:02.96	140.75	17.83	-44.2	-45.4	21.2	0.00e+00	0	42	0	1058013184	60	4015
2026-01-28 22:59:03.97	140.91	17.74	-44.3	-45.5	21.0	0.00e+00	0	42	0	1060110336	60	4095
2026-01-28 22:59:04.98	141.06	17.65	-44.4	-45.6	20.9	0.00e+00	0	42	0	1062207488	60	4133
2026-01-28 22:59:05.99	141.22	17.56	-44.6	-45.8	20.8	0.00e+00	0	42	0	1063256064	60	4212
2026-01-28 22:59:06.99	141.37	17.47	-44.7	-46.0	20.5	0.00e+00	0	42	0	1065353216	60	4332
2026-01-28 22:59:08.00	141.52	17.38	-44.8	-46.1	20.5	0.00e+00	0	42	0	1067450368	60	4374
2026-01-28 22:59:09.01	141.68	17.29	-44.9	-46.3	20.3	0.00e+00	0	42	0	1069547520	60	4453
2026-01-28 22:59:10.01	141.83	17.20	-45.0	-46.4	20.2	0.00e+00	0	42	0	1071644672	60	4507
2026-01-28 22:59:11.02	141.98	17.11	-45.0	-46.3	20.3	0.00e+00	0	42	0	1073741824	60	4459
2026-01-28 22:59:12.03	142.13	17.03	-45.0	-46.3	20.3	0.00e+00	0	42	0	1074790400	60	4466
2026-01-28 22:59:13.04	142.28	16.94	-44.9	-46.2	20.4	0.00e+00	0	42	0	1076887552	60	4413
2026-01-28 22:59:14.04	142.43	16.85	-44.9	-46.2	20.4	0.00e+00	0	42	0	1078984704	60	4394
2026-01-28 22:59:15.05	142.57	16.76	-45.0	-46.3	20.3	0.00e+00	0	42	0	1081081856	60	4482
2026-01-28 22:59:16.06	142.72	16.67	-45.1	-46.5	20.1	0.00e+00	0	42	0	1083179008	60	4568
2026-01-28 22:59:17.07	142.87	16.58	-45.3	-46.7	19.9	0.00e+00	0	42	0	1084227584	61	4392
2026-01-28 22:59:18.08	143.01	16.50	-45.1	-46.5	20.1	0.00e+00	0	42	0	1086324736	61	4319
2026-01-28 22:59:19.09	143.16	16.41	-45.2	-46.6	20.0	0.00e+00	0	42	0	1088421888	61	4345
2026-01-28 22:59:20.09	143.30	16.32	-45.2	-46.6	20.0	0.00e+00	0	42	0	1090519040	61	4376
2026-01-28 22:59:21.10	143.44	16.23	-45.3	-46.7	19.9	0.00e+00	0	42	0	1091567616	61	4402
2026-01-28 22:59:22.11	143.58	16.15	-45.3	-46.7	19.8	0.00e+00	0	42	0	1093664768	61	4432
2026-01-28 22:59:23.11	143.72	16.06	-45.2	-46.6	19.9	0.00e+00	0	42	0	1095761920	61	4376
2026-01-28 22:59:24.12	143.86	15.97	-45.4	-46.8	19.7	0.00e+00	0	42	0	1097859072	61	4477
2026-01-28 22:59:25.13	144.00	15.89	-45.4	-46.8	19.8	0.00e+00	0	42	0	1099956224	61	4452
2026-01-28 22:59:26.13	144.14	15.80	-45.4	-46.8	19.8	0.00e+00	0	42	0	1102053376	61	4464
2026-01-28 22:59:27.14	144.28	15.71	-45.5	-47.0	19.5	0.00e+00	0	42	0	1103101952	61	4570
2026-01-28 22:59:28.14	144.41	15.63	-45.6	-47.1	19.5	0.00e+00	0	42	0	1105199104	61	4600
2026-01-28 22:59:29.15	144.55	15.54	-45.8	-47.3	19.3	0.00e+00	0	42	0	1107296256	62	4452
2026-01-28 22:59:30.16	144.69	15.45	-45.9	-47.5	19.1	0.00e+00	0	42	0	1109393408	62	4552
2026-01-28 22:59:31.17	144.82	15.37	-45.9	-47.4	19.1	0.00e+00	0	42	0	1111490560	62	4539
2026-01-28 22:59:32.17	144.96	15.28	-46.1	-47.7	18.8	0.00e+00	0	43	0	1112539136	62	4698
2026-01-28 22:59:33.18	145.09	15.20	-46.1	-47.7	18.8	0.00e+00	0	42	0	1114636288	62	4684
2026-01-28 22:59:34.19	145.22	15.11	-46.1	-47.7	18.8	0.00e+00	0	42	0	1116733440	62	4705
2026-01-28 22:59:35.20	145.35	15.03	-46.3	-48.0	18.6	0.00e+00	0	42	0	1118830592	63	4579
2026-01-28 22:59:36.21	145.49	14.94	-46.2	-47.9	18.7	0.00e+00	0	42	0	1119879168	63	4506
2026-01-28 22:59:37.21	145.61	14.86	-46.3	-48.0	18.5	0.00e+00	0	42	0	1121976320	63	4567
2026-01-28 22:59:38.22	145.74	14.77	-46.3	-48.0	18.6	0.00e+00	0	42	0	1124073472	63	4566
2026-01-28 22:59:39.23	145.87	14.69	-46.2	-47.9	18.6	0.00e+00	0	42	0	1126170624	63	4516
2026-01-28 22:59:40.24	146.00	14.60	-46.3	-48.0	18.5	0.00e+00	0	42	0	1128267776	63	4587
2026-01-28 22:59:41.24	146.13	14.52	-46.1	-47.7	18.9	0.00e+00	0	42	0	1130364928	63	4394
2026-01-28 22:59:42.24	146.25	14.43	-46.0	-47.6	18.9	0.00e+00	0	42	0	1131413504	63	4377
2026-01-28 22:59:43.25	146.38	14.35	-45.9	-47.5	19.0	0.00e+00	0	42	0	1133510656	63	4308
2026-01-28 22:59:44.26	146.51	14.27	-45.6	-47.1	19.4	0.00e+00	0	42	0	1135607808	63	4132
2026-01-28 22:59:45.26	146.63	14.18	-45.7	-47.2	19.3	0.00e+00	0	42	0	1137704960	63	4151
2026-01-28 22:59:46.27	146.76	14.10	-45.7	-47.2	19.2	0.00e+00	0	42	0	1139802112	63	4192
2026-01-28 22:59:47.28	146.88	14.02	-45.5	-47.0	19.5	0.00e+00	0	42	0	1140850688	63	4060
2026-01-28 22:59:48.29	147.00	13.93	-45.6	-47.1	19.4	0.00e+00	0	42	0	1142947840	63	4125
2026-01-28 22:59:49.30	147.12	13.85	-45.6	-47.1	19.4	0.00e+00	0	42	0	1145044992	63	4112
2026-01-28 22:59:50.31	147.25	13.77	-45.7	-47.2	19.3	0.00e+00	0	42	0	1147142144	63	4161
2026-01-28 22:59:51.31	147.37	13.69	-45.9	-47.4	19.1	0.00e+00	0	42	0	1148190720	63	4275
2026-01-28 22:59:52.32	147.49	13.60	-45.9	-47.5	18.9	0.00e+00	0	42	0	1150287872	63	4328
2026-01-28 22:59:53.33	147.61	13.52	-46.2	-47.8	18.7	0.00e+00	0	42	0	1152385024	63	4467
2026-01-28 22:59:54.33	147.72	13.44	-46.2	-47.9	18.6	0.00e+00	0	42	0	1154482176	63	4503
2026-01-28 22:59:55.34	147.84	13.36	-46.2	-47.9	18.6	0.00e+00	0	42	0	1156579328	63	4525
2026-01-28 22:59:56.35	147.96	13.27	-46.3	-48.0	18.4	0.00e+00	0	42	0	1158676480	63	4593
2026-01-28 22:59:57.36	148.08	13.19	-46.1	-47.8	18.7	0.00e+00	0	42	0	1159725056	63	4447
2026-01-28 22:59:58.37	148.19	13.11	-46.1	-47.7	18.8	0.00e+00	0	42	0	1161822208	63	4407
2026-01-28 22:59:59.37	148.31	13.03	-46.0	-47.6	18.9	0.00e+00	0	42	0	1163919360	63	4358
2026-01-28 23:00:00.38	148.43	12.95	-45.7	-47.2	19.2	0.00e+00	0	42	0	1166016512	63	4158
2026-01-28 23:00:01.39	148.54	12.87	-45.7	-47.2	19.3	0.00e+00	0	42	0	1168113664	63	4153
2026-01-28 23:00:02.40	148.65	12.79	-45.5	-47.0	19.4	0.00e+00	0	42	0	1169162240	63	4052
2026-01-28 23:00:03.41	148.77	12.71	-45.4	-46.9	19.6	0.00e+00	0	42	0	1171259392	62	4252
2026-01-28 23:00:04.42	148.88	12.63	-45.5	-47.0	19.4	0.00e+00	0	42	0	1173356544	62	4304
2026-01-28 23:00:05.43	148.99	12.54	-45.3	-46.8	19.6	0.00e+00	0	42	0	1175453696	62	4205
2026-01-28 23:00:06.44	149.11	12.46	-45.4	-46.8	19.6	0.00e+00	0	42	0	1177550848	62	4232
2026-01-28 23:00:07.45	149.22	12.38	-45.6	-47.0	19.3	0.00e+00	0	42	0	1178599424	62	4335
2026-01-28 23:00:08.45	149.33	12.30	-45.7	-47.2	19.1	0.00e+00	0	42	0	1180696576	62	4435
2026-01-28 23:00:09.46	149.44	12.23	-45.8	-47.3	19.1	0.00e+00	0	42	0	1182793728	62	4469
2026-01-28 23:00:10.47	149.55	12.15	-45.9	-47.4	19.0	0.00e+00	0	42	0	1184890880	62	4533
2026-01-28 23:00:11.48	149.65	12.07	-45.9	-47.5	18.9	0.00e+00	0	42	0	1186988032	62	4561
2026-01-28 23:00:12.49	149.76	11.99	-46.0	-47.7	18.7	0.00e+00	0	42	0	1188036608	62	4663
2026-01-28 23:00:13.50	149.87	11.91	-46.1	-47.8	18.6	0.00e+00	0	42	0	1190133760	62	4710
2026-01-28 23:00:14.51	149.98	11.83	-46.1	-47.8	18.6	0.00e+00	0	42	0	1192230912	62	4712
2026-01-28 23:00:15.51	150.08	11.75	-46.1	-47.7	18.7	0.00e+00	0	42	0	1194328064	62	4679
2026-01-28 23:00:16.52	150.19	11.67	-46.0	-47.6	18.8	0.00e+00	0	42	0	1196425216	62	4612
2026-01-28 23:00:17.53	150.30	11.59	-45.9	-47.5	18.8	0.00e+00	0	42	0	1198522368	62	4565
2026-01-28 23:00:18.54	150.40	11.52	-45.7	-47.2	19.1	0.00e+00	0	42	0	1199570944	62	4430
2026-01-28 23:00:19.55	150.51	11.44	-45.6	-47.1	19.2	0.00e+00	0	42	0	1201668096	62	4374
2026-01-28 23:00:20.56	150.61	11.36	-45.6	-47.1	19.2	0.00e+00	0	42	0	1203765248	62	4378
2026-01-28 23:00:21.57	150.71	11.28	-45.5	-47.0	19.4	0.00e+00	0	42	0	1205862400	62	4293
2026-01-28 23:00:22.57	150.82	11.20	-45.5	-46.9	19.4	0.00e+00	0	42	0	1206910976	62	4289
2026-01-28 23:00:23.58	150.92	11.13	-45.5	-47.0	19.4	0.00e+00	0	42	0	1209008128	62	4305
2026-01-28 23:00:24.59	151.02	11.05	-45.5	-47.0	19.3	0.00e+00	0	42	0	1211105280	62	4306
2026-01-28 23:00:25.60	151.12	10.97	-45.6	-47.1	19.3	0.00e+00	0	42	0	1213202432	62	4355
2026-01-28 23:00:26.61	151.22	10.90	-45.5	-47.0	19.3	0.00e+00	0	42	0	1215299584	62	4333
2026-01-28 23:00:27.61	151.32	10.82	-45.4	-46.9	19.4	0.00e+00	0	42	0	1217396736	62	4285
2026-01-28 23:00:28.63	151.42	10.74	-45.6	-47.1	19.2	0.00e+00	0	42	0	1218445312	62	4376
2026-01-28 23:00:29.63	151.52	10.67	-45.7	-47.3	19.0	0.00e+00	0	42	0	1220542464	62	4451
2026-01-28 23:00:30.64	151.62	10.59	-45.7	-47.3	19.0	0.00e+00	0	42	0	1222639616	62	4479
2026-01-28 23:00:31.65	151.72	10.51	-45.8	-47.4	18.9	0.00e+00	0	42	0	1224736768	62	4530
2026-01-28 23:00:32.66	151.82	10.44	-45.9	-47.5	18.8	0.00e+00	0	42	0	1226833920	62	4575
2026-01-28 23:00:33.66	151.91	10.36	-45.9	-47.6	18.7	0.00e+00	0	42	0	1227882496	62	4599
2026-01-28 23:00:34.67	152.01	10.29	-45.9	-47.5	18.8	0.00e+00	0	42	0	1229979648	62	4565
2026-01-28 23:00:35.68	152.11	10.21	-45.9	-47.5	18.8	0.00e+00	0	42	0	1232076800	62	4550
2026-01-28 23:00:36.69	152.20	10.14	-45.8	-47.4	18.9	0.00e+00	0	42	0	1234173952	62	4497
2026-01-28 23:00:37.70	152.30	10.06	-45.7	-47.3	18.7	0.00e+00	0	42	0	1235222528	62	4470
2026-01-28 23:00:38.71	152.39	9.99	-45.7	-47.3	18.9	0.00e+00	0	42	0	1237319680	62	4469
2026-01-28 23:00:39.72	152.49	9.91	-45.6	-47.2	19.1	0.00e+00	0	42	0	1239416832	62	4409
