passes_logs/2026/01/14/T1/T1__20260114_032409_AQUA_rec.log

#Pass ID: 20260114_032409_AQUA
#Satellite: AQUA
#Configuration: AQUA
#almurnet v.1.7.20251203
#Start time: 2026-01-14 03:24:10

#Version: 2.0.20230620
#Station: T1
#Location: 37.570604 lon 55.790049 lat
#TLE: 1 27424U 02022A   26013.25278823  .00000890  00000+0  18808-3 0  9998
#TLE: 2 27424  98.4079 339.6508 0002047  80.3961  24.1839 14.61818714260637

#Time	Az	El	Level	Level2	SNR	BER	BlckErr	Temp	State	Recorded	gain1	gain2
2026-01-14 03:24:10.30	358.31	5.03	-50.4	-71.7	3.8	7.47e-01	0	40	0	0	72	41471
2026-01-14 03:24:11.29	358.19	5.08	-45.3	-70.1	3.4	7.62e-01	0	40	104	0	61	65535
2026-01-14 03:24:12.28	358.08	5.13	-45.3	-70.1	3.4	7.63e-01	0	40	104	0	61	65535
2026-01-14 03:24:13.27	357.96	5.18	-45.2	-70.1	3.4	7.66e-01	0	40	104	0	61	65535
2026-01-14 03:24:14.27	357.83	5.24	-45.3	-70.1	3.4	7.64e-01	0	40	104	0	61	65535
2026-01-14 03:24:15.26	357.71	5.29	-45.3	-70.1	3.4	7.67e-01	0	40	104	0	61	65535
2026-01-14 03:24:16.26	357.59	5.34	-45.2	-70.1	3.4	7.64e-01	0	40	104	0	61	65535
2026-01-14 03:24:17.25	357.47	5.40	-45.3	-70.1	3.4	7.66e-01	0	40	104	0	61	65535
2026-01-14 03:24:18.24	357.35	5.45	-45.2	-70.1	3.4	7.64e-01	0	40	104	0	61	65535
2026-01-14 03:24:19.24	357.22	5.50	-45.2	-70.1	3.4	7.65e-01	0	40	104	0	61	65535
2026-01-14 03:24:20.23	357.10	5.55	-45.2	-70.1	3.4	7.67e-01	0	40	104	0	61	65535
2026-01-14 03:24:21.22	356.98	5.61	-45.2	-70.1	3.4	7.65e-01	0	40	104	0	61	65535
2026-01-14 03:24:22.21	356.85	5.66	-45.2	-70.1	3.4	7.64e-01	0	40	104	0	61	65535
2026-01-14 03:24:23.21	356.73	5.71	-45.2	-70.1	3.4	7.65e-01	0	40	104	0	61	65535
2026-01-14 03:24:24.20	356.60	5.77	-45.2	-70.1	3.4	7.62e-01	0	40	104	0	61	65535
2026-01-14 03:24:25.19	356.47	5.82	-45.2	-70.1	3.4	7.68e-01	0	40	104	0	61	65535
2026-01-14 03:24:26.19	356.35	5.87	-45.2	-70.1	3.4	7.62e-01	0	40	104	0	61	65535
2026-01-14 03:24:27.18	356.22	5.92	-45.2	-70.1	3.4	7.65e-01	0	40	104	0	61	65535
2026-01-14 03:24:28.17	356.09	5.98	-45.3	-70.1	3.4	7.63e-01	0	40	104	0	61	65535
2026-01-14 03:24:29.16	355.96	6.03	-45.3	-70.1	3.4	7.65e-01	0	40	104	0	61	65535
2026-01-14 03:24:30.16	355.83	6.08	-45.2	-70.1	3.4	7.60e-01	0	40	104	0	61	65535
2026-01-14 03:24:31.15	355.71	6.13	-45.2	-70.1	3.4	7.65e-01	0	40	104	0	61	65535
2026-01-14 03:24:32.15	355.58	6.19	-45.2	-70.1	3.4	7.64e-01	0	41	104	0	61	65535
2026-01-14 03:24:33.14	355.45	6.24	-45.2	-70.1	3.4	7.65e-01	0	41	104	0	61	65535
2026-01-14 03:24:34.13	355.31	6.29	-45.2	-70.1	3.4	7.65e-01	0	40	104	0	61	65535
2026-01-14 03:24:35.12	355.18	6.35	-45.2	-70.1	3.4	7.65e-01	0	41	104	0	61	65535
2026-01-14 03:24:36.12	355.05	6.40	-45.2	-70.1	3.4	7.63e-01	0	41	104	0	61	65535
2026-01-14 03:24:37.11	354.92	6.45	-45.2	-70.1	3.4	7.63e-01	0	41	104	0	61	65535
2026-01-14 03:24:38.10	354.79	6.50	-45.2	-70.1	3.4	7.62e-01	0	41	104	0	61	65535
2026-01-14 03:24:39.10	354.65	6.56	-45.2	-70.1	3.4	7.64e-01	0	41	104	0	61	65535
2026-01-14 03:24:40.09	354.52	6.61	-45.2	-70.1	3.4	7.61e-01	0	41	104	0	61	65535
2026-01-14 03:24:41.08	354.38	6.66	-45.2	-70.1	3.4	7.66e-01	0	41	104	0	61	65535
2026-01-14 03:24:42.08	354.25	6.71	-45.2	-70.1	3.4	7.65e-01	0	41	104	0	61	65535
2026-01-14 03:24:43.07	354.11	6.77	-45.2	-70.1	3.4	7.64e-01	0	41	104	0	61	65535
2026-01-14 03:24:44.06	353.98	6.82	-45.2	-70.1	3.4	7.61e-01	0	41	104	0	61	65535
2026-01-14 03:24:45.05	353.84	6.87	-45.2	-70.1	3.4	7.65e-01	0	41	104	0	61	65535
2026-01-14 03:24:46.05	353.70	6.92	-45.2	-70.1	3.4	7.64e-01	0	41	104	0	61	65535
2026-01-14 03:24:47.04	353.56	6.98	-45.2	-70.1	3.4	7.64e-01	0	41	104	0	61	65535
2026-01-14 03:24:48.03	353.43	7.03	-45.2	-70.1	3.4	7.62e-01	0	41	104	0	61	65535
2026-01-14 03:24:49.03	353.29	7.08	-45.2	-70.1	3.4	7.61e-01	0	41	104	0	61	65535
2026-01-14 03:24:50.02	353.15	7.13	-45.2	-70.1	3.4	7.62e-01	0	41	104	0	61	65535
2026-01-14 03:24:51.01	353.01	7.19	-45.1	-70.1	3.4	7.66e-01	0	41	104	0	61	65535
2026-01-14 03:24:52.01	352.87	7.24	-45.1	-70.1	3.4	7.65e-01	0	41	104	0	61	65535
2026-01-14 03:24:53.00	352.72	7.29	-45.1	-70.1	3.4	7.64e-01	0	41	104	0	61	65535
2026-01-14 03:24:53.99	352.58	7.34	-45.1	-70.1	3.4	7.65e-01	0	41	104	0	61	65535
2026-01-14 03:24:54.99	352.44	7.40	-45.1	-70.1	3.4	7.65e-01	0	41	104	0	61	65535
2026-01-14 03:24:55.98	352.30	7.45	-45.1	-70.1	3.4	7.67e-01	0	41	104	0	61	65535
2026-01-14 03:24:56.97	352.15	7.50	-45.1	-70.1	3.4	7.62e-01	0	41	104	0	61	65535
2026-01-14 03:24:57.97	352.01	7.55	-45.1	-70.1	3.4	7.66e-01	0	41	104	0	61	65535
2026-01-14 03:24:58.96	351.86	7.60	-45.2	-70.1	3.4	7.65e-01	0	41	104	0	61	65535
2026-01-14 03:24:59.95	351.72	7.66	-45.1	-70.1	3.4	7.62e-01	0	41	104	0	61	65535
2026-01-14 03:25:00.94	351.57	7.71	-45.1	-70.1	3.4	7.59e-01	0	41	104	0	61	65535
2026-01-14 03:25:01.94	351.43	7.76	-45.1	-70.1	3.4	7.62e-01	0	41	104	0	61	65535
2026-01-14 03:25:02.93	351.28	7.81	-45.1	-70.1	3.4	7.65e-01	0	41	104	0	61	65535
2026-01-14 03:25:03.92	351.13	7.86	-45.1	-70.1	3.4	7.62e-01	0	41	104	0	61	65535
2026-01-14 03:25:04.92	350.98	7.92	-45.1	-70.1	3.4	7.67e-01	0	41	104	0	61	65535
2026-01-14 03:25:05.91	350.84	7.97	-45.1	-70.1	3.4	7.62e-01	0	41	104	0	61	65535
2026-01-14 03:25:06.91	350.69	8.02	-45.1	-70.1	3.4	7.63e-01	0	41	104	0	61	65534
2026-01-14 03:25:07.90	350.54	8.07	-45.1	-70.1	3.4	7.60e-01	0	42	104	0	61	65535
2026-01-14 03:25:08.89	350.39	8.12	-45.1	-70.1	3.4	7.64e-01	0	41	104	0	61	65535
2026-01-14 03:25:09.89	350.23	8.17	-45.1	-70.1	3.4	7.64e-01	0	42	104	0	61	65535
2026-01-14 03:25:10.88	350.08	8.22	-45.1	-70.1	3.4	7.60e-01	0	42	104	0	61	65535
2026-01-14 03:25:11.87	349.93	8.28	-45.1	-70.1	3.4	7.61e-01	0	42	104	0	61	65535
2026-01-14 03:25:12.86	349.78	8.33	-45.2	-70.1	3.4	7.61e-01	0	42	104	0	61	65535
2026-01-14 03:25:13.86	349.62	8.38	-45.1	-70.1	3.4	7.65e-01	0	42	104	0	61	65535
2026-01-14 03:25:14.85	349.47	8.43	-45.1	-70.1	3.4	7.64e-01	0	42	104	0	61	65535
2026-01-14 03:25:15.84	349.32	8.48	-45.1	-70.1	3.4	7.63e-01	0	42	104	0	61	65534
2026-01-14 03:25:16.84	349.16	8.53	-45.1	-70.1	3.5	7.56e-01	0	41	104	0	61	65535
2026-01-14 03:25:17.83	349.00	8.58	-45.1	-70.1	3.6	7.54e-01	0	42	104	0	61	65535
2026-01-14 03:25:18.82	348.85	8.63	-45.1	-70.1	3.7	7.52e-01	0	42	104	0	61	65535
2026-01-14 03:25:19.82	348.69	8.68	-45.1	-70.0	3.8	7.42e-01	0	42	104	0	61	64628
2026-01-14 03:25:20.81	348.53	8.74	-45.0	-69.4	3.8	7.44e-01	0	42	104	0	61	60137
2026-01-14 03:25:21.81	348.37	8.79	-45.0	-68.8	3.8	7.45e-01	0	41	104	0	61	56015
2026-01-14 03:25:22.80	348.21	8.84	-44.9	-68.3	3.8	7.48e-01	0	42	104	0	61	52933
2026-01-14 03:25:23.79	348.05	8.89	-44.9	-67.7	3.8	7.48e-01	0	42	104	0	61	49452
2026-01-14 03:25:24.79	347.89	8.94	-44.9	-66.9	3.8	7.45e-01	0	42	104	0	61	44949
2026-01-14 03:25:25.78	347.73	8.99	-44.7	-65.6	3.8	7.46e-01	0	42	104	0	61	38755
2026-01-14 03:25:26.77	347.57	9.04	-44.6	-64.2	3.8	7.47e-01	0	42	104	0	61	33040
2026-01-14 03:25:27.77	347.41	9.09	-44.1	-61.7	3.8	7.45e-01	0	42	104	0	60	26418
2026-01-14 03:25:28.76	347.25	9.14	-44.0	-65.7	3.7	7.50e-01	0	42	104	0	59	43925
2026-01-14 03:25:29.76	347.08	9.19	-44.0	-62.3	3.8	7.48e-01	0	42	104	0	59	29973
2026-01-14 03:25:30.75	346.92	9.24	-44.5	-69.6	3.5	7.66e-01	0	42	104	0	60	65535
2026-01-14 03:25:31.75	346.75	9.29	-43.6	-64.2	3.9	7.43e-01	0	42	104	0	59	37138
2026-01-14 03:25:32.74	346.59	9.34	-44.9	-69.6	3.7	7.53e-01	0	42	104	0	60	65535
2026-01-14 03:25:33.78	346.41	9.39	-45.3	-70.1	3.4	7.65e-01	0	42	104	0	61	65535
2026-01-14 03:25:34.76	346.25	9.44	-45.1	-70.1	3.5	7.56e-01	0	42	104	0	61	65535
2026-01-14 03:25:35.76	346.08	9.49	-45.2	-70.1	3.5	7.60e-01	0	42	104	0	61	65535
2026-01-14 03:25:36.84	345.90	9.54	-49.0	-71.7	3.9	7.41e-01	0	42	104	0	68	52523
2026-01-14 03:25:37.73	345.75	9.58	-45.3	-70.6	3.7	7.51e-01	0	42	104	0	62	65535
2026-01-14 03:25:38.87	345.55	9.64	-44.3	-60.8	3.8	7.48e-01	0	42	104	0	60	23704
2026-01-14 03:25:39.78	345.40	9.69	-45.8	-62.7	3.7	7.44e-01	0	42	104	0	62	26162
2026-01-14 03:25:40.95	345.20	9.74	-44.0	-50.1	20.5	6.03e-01	0	42	0	1048576	59	7308
2026-01-14 03:25:41.83	345.05	9.79	-44.6	-50.4	20.2	6.00e-01	0	42	0	2621440	60	7150
2026-01-14 03:25:42.97	344.85	9.84	-44.9	-50.6	20.0	6.03e-01	0	42	0	4718592	60	7335
2026-01-14 03:25:43.82	344.70	9.88	-45.0	-50.6	20.0	6.03e-01	0	42	0	6291456	60	7325
2026-01-14 03:25:44.96	344.50	9.94	-45.2	-50.6	20.0	6.03e-01	0	42	0	8388608	61	6917
2026-01-14 03:25:45.81	344.36	9.98	-45.4	-50.6	20.1	6.02e-01	0	42	0	9961472	61	6917
2026-01-14 03:25:46.95	344.16	10.03	-45.6	-50.6	19.9	6.01e-01	0	42	0	12058624	62	6559
2026-01-14 03:25:47.80	344.01	10.08	-45.9	-50.6	20.0	6.01e-01	0	42	0	13631488	62	6519
2026-01-14 03:25:48.94	343.81	10.13	-46.0	-50.3	20.1	6.03e-01	0	42	0	15728640	62	6344
2026-01-14 03:25:49.79	343.65	10.17	-46.4	-50.5	20.2	6.03e-01	0	42	0	17301504	63	6084
2026-01-14 03:25:50.93	343.45	10.22	-46.5	-50.4	20.2	5.99e-01	0	42	0	19398656	63	6012
2026-01-14 03:25:51.78	343.30	10.27	-46.4	-50.3	20.3	6.02e-01	0	42	0	20971520	63	5980
2026-01-14 03:25:52.92	343.10	10.32	-46.3	-50.2	20.4	6.01e-01	0	42	0	23592960	63	5891
2026-01-14 03:25:53.77	342.94	10.36	-46.2	-50.4	20.3	6.02e-01	0	42	0	25165824	63	6020
2026-01-14 03:25:55.00	342.72	10.42	-46.1	-50.2	20.5	6.05e-01	0	42	0	27262976	63	5856
2026-01-14 03:25:55.85	342.57	10.46	-46.3	-50.3	20.3	6.01e-01	0	42	0	28835840	63	5948
2026-01-14 03:25:57.07	342.35	10.51	-46.4	-50.2	20.4	6.03e-01	0	42	0	30932992	63	5891
2026-01-14 03:25:57.92	342.19	10.55	-46.5	-50.3	20.4	6.04e-01	0	42	0	32505856	63	5990
2026-01-14 03:25:59.06	341.98	10.61	-46.3	-50.0	20.7	6.03e-01	0	42	0	35127296	63	5734
2026-01-14 03:25:59.91	341.83	10.65	-46.3	-50.0	20.6	6.03e-01	0	42	0	36700160	63	5774
2026-01-14 03:26:01.05	341.62	10.70	-46.2	-50.0	20.5	6.03e-01	0	42	0	38273024	63	5782
2026-01-14 03:26:01.90	341.46	10.74	-46.0	-50.1	20.6	6.02e-01	0	42	0	40370176	63	5791
2026-01-14 03:26:03.04	341.25	10.79	-45.6	-50.0	20.6	6.02e-01	0	42	0	42467328	63	5783
2026-01-14 03:26:03.89	341.09	10.83	-45.3	-49.8	20.8	6.02e-01	0	42	0	44040192	62	5979
2026-01-14 03:26:05.03	340.88	10.88	-45.0	-49.6	20.9	6.02e-01	0	42	0	46137344	62	5851
2026-01-14 03:26:05.88	340.72	10.92	-44.7	-49.6	20.9	6.03e-01	0	42	0	47710208	61	6166
2026-01-14 03:26:07.01	340.50	10.97	-44.5	-49.5	21.1	6.00e-01	0	42	0	49807360	61	6100
2026-01-14 03:26:07.87	340.34	11.01	-44.5	-49.4	21.1	6.03e-01	0	42	0	51380224	61	6055
2026-01-14 03:26:09.00	340.13	11.06	-44.7	-49.5	21.0	6.03e-01	0	42	0	53477376	61	6111
2026-01-14 03:26:09.86	339.96	11.10	-44.7	-49.5	21.0	6.02e-01	0	42	0	55050240	61	6130
2026-01-14 03:26:11.01	339.75	11.15	-44.9	-49.5	21.1	6.03e-01	0	42	0	57147392	61	6089
2026-01-14 03:26:11.86	339.58	11.18	-45.2	-49.6	21.0	6.04e-01	0	42	0	58720256	61	6168
2026-01-14 03:26:13.00	339.36	11.23	-45.3	-49.4	21.2	6.03e-01	0	42	0	60817408	61	6009
2026-01-14 03:26:13.85	339.20	11.27	-45.5	-49.4	21.2	6.02e-01	0	42	0	62390272	61	6047
2026-01-14 03:26:15.12	338.96	11.33	-45.6	-49.4	21.2	6.02e-01	0	42	0	65011712	61	6004
2026-01-14 03:26:15.91	338.80	11.36	-45.8	-49.5	21.1	6.05e-01	0	42	0	66584576	62	5741
2026-01-14 03:26:17.22	338.55	11.42	-45.9	-49.4	21.2	6.04e-01	0	42	0	68681728	62	5684
2026-01-14 03:26:17.93	338.41	11.45	-45.9	-49.4	21.2	6.04e-01	0	42	0	70254592	62	5685
2026-01-14 03:26:19.21	338.16	11.50	-45.9	-49.4	21.1	6.01e-01	0	42	0	72876032	62	5716
2026-01-14 03:26:19.94	338.01	11.53	-45.8	-49.5	21.1	6.01e-01	0	42	0	73924608	62	5736
2026-01-14 03:26:21.22	337.76	11.58	-45.9	-49.5	21.2	6.04e-01	0	42	0	76546048	62	5733
2026-01-14 03:26:21.93	337.62	11.61	-45.9	-49.4	21.2	6.00e-01	0	42	0	77594624	62	5707
2026-01-14 03:26:23.21	337.37	11.67	-45.9	-49.4	21.2	6.03e-01	0	42	0	80216064	62	5698
2026-01-14 03:26:23.95	337.22	11.70	-45.8	-49.4	21.2	6.02e-01	0	42	0	81264640	62	5707
2026-01-14 03:26:25.23	336.97	11.75	-45.8	-49.4	21.2	6.01e-01	0	42	0	83886080	62	5697
2026-01-14 03:26:25.96	336.82	11.78	-45.7	-49.4	21.2	6.03e-01	0	42	0	85458944	62	5689
2026-01-14 03:26:27.24	336.56	11.83	-45.4	-49.3	21.3	6.01e-01	0	42	0	87556096	62	5635
2026-01-14 03:26:28.10	336.39	11.87	-45.3	-49.3	21.3	6.03e-01	0	42	0	89128960	62	5636
2026-01-14 03:26:29.24	336.16	11.91	-45.3	-49.4	21.2	6.04e-01	0	42	0	91226112	62	5709
2026-01-14 03:26:30.09	335.99	11.95	-45.5	-49.5	20.7	6.03e-01	0	42	0	92798976	62	5754
2026-01-14 03:26:31.23	335.76	11.99	-45.6	-49.4	21.2	6.01e-01	0	42	0	94896128	62	5664
2026-01-14 03:26:32.08	335.58	12.02	-45.7	-49.3	21.3	6.01e-01	0	42	0	96993280	62	5630
2026-01-14 03:26:33.22	335.35	12.07	-45.8	-49.4	21.3	6.01e-01	0	42	0	99090432	62	5668
2026-01-14 03:26:34.07	335.18	12.10	-45.9	-49.4	21.3	6.04e-01	0	42	0	100663296	62	5688
2026-01-14 03:26:35.21	334.94	12.15	-45.9	-49.4	21.2	6.02e-01	0	42	0	102760448	62	5694
2026-01-14 03:26:36.06	334.77	12.18	-46.0	-49.4	21.2	6.02e-01	0	42	0	104333312	62	5705
2026-01-14 03:26:37.28	334.51	12.22	-46.0	-49.4	21.2	6.02e-01	0	42	0	106430464	62	5685
2026-01-14 03:26:38.13	334.34	12.26	-46.0	-49.3	21.3	6.01e-01	0	42	0	108003328	62	5626
2026-01-14 03:26:39.27	334.10	12.30	-46.0	-49.2	21.4	6.04e-01	0	42	0	110100480	62	5570
2026-01-14 03:26:40.12	333.92	12.33	-46.1	-49.3	21.3	6.01e-01	0	42	0	111673344	62	5642
2026-01-14 03:26:41.26	333.69	12.37	-46.0	-49.3	21.3	6.00e-01	0	42	0	113770496	62	5645
2026-01-14 03:26:42.11	333.51	12.40	-45.9	-49.3	21.3	6.03e-01	0	42	0	115343360	62	5621
2026-01-14 03:26:43.42	333.23	12.45	-45.9	-49.4	21.3	6.05e-01	0	42	0	117964800	62	5687
2026-01-14 03:26:44.13	333.08	12.48	-45.8	-49.4	21.2	6.01e-01	0	42	0	119537664	62	5697
2026-01-14 03:26:45.63	332.77	12.53	-45.5	-49.3	21.4	6.03e-01	0	42	0	122159104	62	5614
2026-01-14 03:26:46.34	332.62	12.55	-45.5	-49.2	21.4	6.03e-01	0	42	0	123207680	62	5576
2026-01-14 03:26:47.62	332.34	12.60	-45.8	-49.3	21.4	6.01e-01	0	42	0	125829120	62	5632
2026-01-14 03:26:48.63	332.13	12.63	-46.0	-49.3	21.4	6.04e-01	0	42	0	127926272	62	5617
2026-01-14 03:26:49.94	331.85	12.68	-46.2	-49.3	21.3	6.04e-01	0	42	0	130023424	63	5310
2026-01-14 03:26:50.67	331.69	12.70	-46.2	-49.3	21.3	6.03e-01	0	42	0	131596288	63	5326
2026-01-14 03:26:52.26	331.35	12.76	-46.1	-49.4	21.3	6.03e-01	0	42	0	134742016	63	5376
2026-01-14 03:26:53.13	331.16	12.78	-46.0	-49.4	21.2	6.03e-01	0	42	0	136314880	63	5392
2026-01-14 03:26:54.27	330.92	12.82	-45.8	-49.5	21.2	6.02e-01	0	42	0	138412032	63	5417
2026-01-14 03:26:55.12	330.73	12.85	-45.6	-49.3	21.4	6.02e-01	0	42	0	139984896	63	5285
2026-01-14 03:26:56.26	330.49	12.89	-45.6	-49.2	21.5	6.04e-01	0	42	0	142082048	63	5254
2026-01-14 03:26:57.11	330.30	12.91	-45.7	-49.3	21.4	6.02e-01	0	42	0	143654912	63	5287
2026-01-14 03:26:58.25	330.05	12.95	-46.0	-49.4	21.3	6.04e-01	0	42	0	145752064	63	5371
2026-01-14 03:26:59.10	329.87	12.97	-46.2	-49.4	21.3	6.03e-01	0	42	0	147324928	63	5367
2026-01-14 03:27:00.42	329.58	13.02	-46.2	-49.4	21.3	6.01e-01	0	42	0	149946368	63	5379
2026-01-14 03:27:01.13	329.42	13.04	-46.1	-49.4	21.3	6.03e-01	0	42	0	150994944	63	5355
2026-01-14 03:27:02.41	329.14	13.07	-45.9	-49.3	21.4	6.03e-01	0	42	0	153616384	63	5280
2026-01-14 03:27:03.12	328.98	13.10	-45.8	-49.2	21.5	6.02e-01	0	42	0	155189248	63	5252
2026-01-14 03:27:04.40	328.70	13.13	-45.8	-49.3	21.3	6.03e-01	0	42	0	157286400	63	5324
2026-01-14 03:27:05.12	328.54	13.15	-45.9	-49.3	21.4	6.04e-01	0	42	0	158859264	63	5295
2026-01-14 03:27:06.73	328.18	13.20	-46.1	-49.2	21.5	6.04e-01	0	42	0	161480704	63	5267
2026-01-14 03:27:07.32	328.05	13.22	-46.1	-49.3	21.4	6.00e-01	0	42	0	163053568	63	5302
2026-01-14 03:27:08.88	327.70	13.26	-46.0	-49.2	21.4	6.04e-01	0	42	0	165675008	63	5277
2026-01-14 03:27:09.52	327.56	13.28	-46.0	-49.2	21.4	6.02e-01	0	42	0	166723584	63	5275
2026-01-14 03:27:10.96	327.24	13.32	-46.0	-49.3	21.4	6.02e-01	0	42	0	169869312	63	5331
2026-01-14 03:27:11.67	327.08	13.33	-46.0	-49.3	21.3	6.03e-01	0	42	0	170917888	63	5336
2026-01-14 03:27:12.95	326.79	13.37	-46.1	-49.4	21.3	6.04e-01	0	42	0	173539328	63	5375
2026-01-14 03:27:13.68	326.62	13.39	-46.1	-49.4	21.3	6.03e-01	0	42	0	174587904	63	5381
2026-01-14 03:27:14.96	326.33	13.42	-45.9	-49.5	21.2	6.05e-01	0	42	0	177209344	63	5404
2026-01-14 03:27:15.68	326.17	13.44	-45.8	-49.5	21.2	6.04e-01	0	42	0	178257920	63	5443
2026-01-14 03:27:17.01	325.87	13.47	-45.6	-49.5	21.2	6.01e-01	0	42	0	180879360	63	5416
2026-01-14 03:27:17.72	325.71	13.49	-45.5	-49.4	21.3	6.01e-01	0	42	0	182452224	62	5686
2026-01-14 03:27:19.03	325.41	13.52	-45.4	-49.5	21.2	6.03e-01	0	42	0	184549376	62	5737
2026-01-14 03:27:19.74	325.25	13.53	-45.4	-49.4	21.3	6.03e-01	0	42	0	186122240	62	5722
2026-01-14 03:27:21.07	324.95	13.56	-45.3	-49.3	21.4	6.02e-01	0	42	0	188743680	62	5628
2026-01-14 03:27:22.06	324.72	13.59	-45.2	-49.2	21.4	6.04e-01	0	42	0	190316544	62	5566
2026-01-14 03:27:23.37	324.42	13.62	-45.3	-49.3	21.4	6.04e-01	0	42	0	192937984	62	5595
2026-01-14 03:27:24.08	324.26	13.63	-45.3	-49.2	21.4	6.01e-01	0	42	0	193986560	62	5586
2026-01-14 03:27:25.36	323.96	13.66	-45.7	-49.4	21.3	6.03e-01	0	42	0	196608000	62	5666
2026-01-14 03:27:26.10	323.79	13.67	-45.8	-49.4	21.3	6.03e-01	0	42	0	198180864	62	5674
2026-01-14 03:27:27.38	323.50	13.70	-46.1	-49.3	21.3	6.03e-01	0	42	0	200278016	62	5631
2026-01-14 03:27:28.10	323.33	13.71	-46.2	-49.3	21.3	6.04e-01	0	42	0	201850880	63	5318
2026-01-14 03:27:29.38	323.03	13.74	-46.2	-49.3	21.4	6.02e-01	0	43	0	203948032	63	5299
2026-01-14 03:27:30.09	322.87	13.75	-46.2	-49.2	21.4	6.03e-01	0	42	0	205520896	63	5277
2026-01-14 03:27:31.83	322.46	13.78	-46.3	-49.6	21.2	6.02e-01	0	42	0	208666624	63	5469
2026-01-14 03:27:32.40	322.33	13.79	-46.3	-49.4	21.2	6.03e-01	0	42	0	209715200	63	5399
2026-01-14 03:27:34.10	321.94	13.82	-46.4	-49.5	21.2	6.02e-01	0	42	0	212860928	63	5443
2026-01-14 03:27:34.73	321.79	13.83	-46.4	-49.5	21.2	6.03e-01	0	42	0	214433792	63	5430
2026-01-14 03:27:36.26	321.43	13.86	-46.2	-49.4	21.3	6.04e-01	0	42	0	217055232	63	5349
2026-01-14 03:27:36.98	321.26	13.87	-46.3	-49.5	21.1	6.06e-01	0	42	0	218628096	63	5451
2026-01-14 03:27:38.25	320.97	13.89	-46.0	-49.3	21.5	6.03e-01	0	42	0	220725248	63	5290
2026-01-14 03:27:38.97	320.80	13.90	-46.1	-49.4	21.4	6.02e-01	0	43	0	222298112	63	5361
2026-01-14 03:27:40.25	320.50	13.92	-46.0	-49.3	21.3	6.04e-01	0	42	0	224395264	63	5337
2026-01-14 03:27:40.96	320.33	13.93	-46.1	-49.5	21.2	6.01e-01	0	42	0	225968128	63	5414
2026-01-14 03:27:42.23	320.03	13.95	-45.9	-49.1	21.6	5.99e-01	0	42	0	228065280	63	5198
2026-01-14 03:27:42.96	319.86	13.96	-46.1	-49.3	21.4	6.01e-01	0	42	0	229638144	63	5288
2026-01-14 03:27:44.24	319.56	13.98	-46.2	-49.3	21.4	6.02e-01	0	42	0	232259584	63	5303
2026-01-14 03:27:45.17	319.34	13.99	-46.3	-49.4	21.2	6.04e-01	0	42	0	233832448	63	5401
2026-01-14 03:27:46.46	319.04	14.00	-46.1	-49.2	21.4	5.99e-01	0	42	0	236453888	63	5266
2026-01-14 03:27:47.17	318.87	14.01	-46.1	-49.3	21.3	6.04e-01	0	42	0	237502464	63	5328
2026-01-14 03:27:48.45	318.56	14.03	-46.0	-49.2	21.3	6.02e-01	0	43	0	240123904	63	5259
2026-01-14 03:27:49.16	318.40	14.03	-46.0	-49.3	21.1	6.03e-01	0	42	0	241172480	63	5302
2026-01-14 03:27:50.44	318.09	14.05	-45.9	-49.3	21.1	6.04e-01	0	42	0	243793920	63	5324
2026-01-14 03:27:51.15	317.93	14.05	-45.7	-49.1	21.6	6.01e-01	0	42	0	244842496	63	5175
2026-01-14 03:27:52.43	317.62	14.06	-45.7	-49.2	21.2	6.02e-01	0	42	0	247463936	63	5252
2026-01-14 03:27:53.15	317.45	14.07	-45.5	-49.1	21.4	6.03e-01	0	42	0	249036800	63	5197
2026-01-14 03:27:54.43	317.15	14.08	-45.6	-49.5	21.2	6.03e-01	0	42	0	251133952	63	5449
2026-01-14 03:27:55.14	316.98	14.09	-45.4	-49.2	21.4	6.04e-01	0	42	0	252706816	62	5584
2026-01-14 03:27:56.47	316.66	14.10	-45.8	-49.6	21.0	6.05e-01	0	42	0	254803968	62	5836
2026-01-14 03:27:57.18	316.49	14.10	-45.7	-49.3	21.3	6.05e-01	0	42	0	256376832	62	5655
2026-01-14 03:27:58.46	316.19	14.11	-46.0	-49.6	21.0	6.02e-01	0	42	0	258998272	62	5811
2026-01-14 03:27:59.20	316.01	14.11	-45.7	-49.0	21.5	6.04e-01	0	42	0	260046848	62	5450
2026-01-14 03:28:00.47	315.71	14.12	-46.0	-49.2	21.2	6.00e-01	0	42	0	262668288	62	5547
2026-01-14 03:28:01.19	315.54	14.13	-46.2	-49.4	20.6	5.99e-01	0	42	0	263716864	63	5341
2026-01-14 03:28:02.46	315.24	14.13	-46.3	-49.5	20.4	6.03e-01	0	42	0	266338304	63	5440
2026-01-14 03:28:03.18	315.06	14.13	-46.6	-49.9	20.0	6.06e-01	0	42	0	267386880	63	5674
2026-01-14 03:28:04.45	314.76	14.14	-46.4	-49.6	20.7	6.02e-01	0	42	0	270008320	63	5503
2026-01-14 03:28:05.16	314.59	14.14	-46.6	-49.9	20.4	6.03e-01	0	42	0	271056896	64	5378
2026-01-14 03:28:06.44	314.29	14.15	-46.4	-49.6	20.9	6.02e-01	0	42	0	273678336	64	5184
2026-01-14 03:28:07.17	314.11	14.15	-46.8	-50.1	20.3	6.03e-01	0	42	0	275251200	64	5527
2026-01-14 03:28:08.45	313.81	14.15	-46.3	-49.5	21.2	6.05e-01	0	43	0	277348352	64	5104
2026-01-14 03:28:09.16	313.64	14.15	-46.7	-50.1	20.6	6.02e-01	0	42	0	278921216	64	5481
2026-01-14 03:28:10.44	313.33	14.15	-46.2	-49.3	21.3	6.02e-01	0	43	0	281018368	64	5029
2026-01-14 03:28:11.16	313.16	14.15	-46.6	-49.9	20.9	5.99e-01	0	42	0	282591232	64	5376
2026-01-14 03:28:12.44	312.85	14.15	-46.4	-49.7	21.0	6.01e-01	0	42	0	284688384	64	5250
2026-01-14 03:28:13.15	312.68	14.15	-46.4	-49.8	20.9	6.03e-01	0	42	0	286261248	64	5289
2026-01-14 03:28:14.43	312.38	14.15	-46.1	-49.4	21.2	6.03e-01	0	42	0	288882688	64	5050
2026-01-14 03:28:15.14	312.21	14.15	-46.0	-49.2	21.5	6.02e-01	0	42	0	289931264	63	5252
2026-01-14 03:28:16.54	311.87	14.15	-46.0	-49.2	21.5	6.04e-01	0	42	0	292552704	63	5251
2026-01-14 03:28:17.26	311.70	14.14	-45.9	-49.2	21.6	6.02e-01	0	43	0	294125568	63	5228
2026-01-14 03:28:18.53	311.40	14.14	-46.2	-49.5	21.2	6.04e-01	0	42	0	296222720	63	5419
2026-01-14 03:28:19.24	311.23	14.14	-46.0	-49.2	21.5	6.03e-01	0	42	0	297795584	63	5247
2026-01-14 03:28:20.65	310.89	14.13	-46.3	-49.6	21.1	6.04e-01	0	43	0	300417024	63	5513
2026-01-14 03:28:21.36	310.72	14.13	-46.1	-49.3	21.4	6.03e-01	0	43	0	301465600	63	5300
2026-01-14 03:28:22.64	310.42	14.12	-46.3	-49.6	21.1	6.02e-01	0	43	0	304087040	63	5498
2026-01-14 03:28:23.69	310.17	14.12	-46.1	-49.3	21.4	6.00e-01	0	42	0	306184192	63	5324
2026-01-14 03:28:24.84	309.89	14.11	-46.4	-50.0	20.8	5.99e-01	0	42	0	308281344	63	5734
2026-01-14 03:28:25.84	309.65	14.11	-46.0	-49.5	21.1	5.99e-01	0	42	0	309854208	63	5456
2026-01-14 03:28:26.99	309.38	14.10	-46.5	-50.1	20.6	6.03e-01	0	42	0	311951360	63	5827
2026-01-14 03:28:27.85	309.18	14.09	-45.9	-49.0	21.6	6.02e-01	0	42	0	313524224	63	5139
2026-01-14 03:28:28.99	308.90	14.08	-46.5	-49.9	20.9	6.02e-01	0	42	0	316145664	63	5665
2026-01-14 03:28:29.84	308.70	14.08	-45.9	-48.9	21.8	6.03e-01	0	43	0	317718528	63	5050
2026-01-14 03:28:30.97	308.43	14.07	-46.7	-50.1	20.7	6.03e-01	0	42	0	319815680	64	5470
2026-01-14 03:28:31.83	308.23	14.06	-46.1	-49.2	21.5	6.01e-01	0	42	0	321388544	64	4950
2026-01-14 03:28:32.96	307.96	14.05	-46.5	-49.7	21.0	6.03e-01	0	42	0	323485696	64	5256
2026-01-14 03:28:33.81	307.76	14.04	-46.1	-49.2	21.4	6.03e-01	0	42	0	325058560	64	4957
2026-01-14 03:28:34.95	307.49	14.03	-46.0	-49.1	21.5	6.03e-01	0	42	0	327155712	64	4922
2026-01-14 03:28:35.80	307.29	14.02	-46.3	-49.6	21.1	6.02e-01	0	42	0	328728576	63	5514
2026-01-14 03:28:36.94	307.02	14.00	-46.1	-49.3	21.4	6.04e-01	0	42	0	330825728	63	5336
2026-01-14 03:28:37.79	306.82	13.99	-46.7	-50.1	20.7	6.01e-01	0	42	0	332398592	63	5851
2026-01-14 03:28:38.98	306.54	13.98	-46.2	-49.4	21.2	6.02e-01	0	42	0	334495744	64	5099
2026-01-14 03:28:39.83	306.34	13.97	-46.5	-49.8	20.9	6.00e-01	0	42	0	336068608	64	5311
2026-01-14 03:28:40.96	306.07	13.95	-46.2	-49.5	21.2	6.01e-01	0	43	0	338690048	64	5122
2026-01-14 03:28:41.82	305.87	13.94	-46.2	-49.5	21.2	6.02e-01	0	42	0	340262912	64	5131
2026-01-14 03:28:42.95	305.60	13.93	-46.3	-49.5	21.2	6.04e-01	0	43	0	342360064	64	5127
2026-01-14 03:28:43.81	305.40	13.91	-46.5	-49.8	20.9	6.03e-01	0	43	0	343932928	64	5303
2026-01-14 03:28:44.94	305.13	13.90	-46.1	-49.2	21.4	6.01e-01	0	42	0	346030080	64	4973
2026-01-14 03:28:45.79	304.94	13.88	-46.6	-49.9	20.8	6.02e-01	0	42	0	347602944	64	5342
2026-01-14 03:28:46.93	304.67	13.87	-46.5	-49.7	21.1	6.02e-01	0	42	0	349700096	64	5222
2026-01-14 03:28:47.78	304.47	13.85	-46.8	-50.1	20.7	6.02e-01	0	43	0	351272960	64	5487
2026-01-14 03:28:48.92	304.20	13.83	-46.4	-49.5	21.2	6.00e-01	0	42	0	353370112	64	5151
2026-01-14 03:28:49.77	304.00	13.82	-46.7	-50.0	20.7	6.03e-01	0	43	0	354942976	64	5460
2026-01-14 03:28:50.90	303.74	13.80	-46.1	-49.2	21.5	5.99e-01	0	42	0	357040128	63	5268
2026-01-14 03:28:51.75	303.54	13.78	-46.6	-50.0	20.8	6.01e-01	0	42	0	358612992	63	5765
2026-01-14 03:28:52.92	303.27	13.76	-46.4	-49.6	21.1	6.03e-01	0	43	0	360710144	63	5528
2026-01-14 03:28:53.78	303.07	13.75	-46.6	-49.8	21.0	5.99e-01	0	42	0	362283008	63	5629
2026-01-14 03:28:54.91	302.81	13.72	-46.7	-49.9	20.8	6.01e-01	0	43	0	364380160	64	5375
2026-01-14 03:28:55.77	302.61	13.71	-46.6	-49.8	20.9	6.00e-01	0	42	0	365953024	64	5313
2026-01-14 03:28:57.03	302.32	13.68	-46.4	-49.6	21.1	6.02e-01	0	43	0	368574464	64	5215
2026-01-14 03:28:57.83	302.13	13.67	-46.9	-50.4	20.4	6.03e-01	0	42	0	370147328	64	5684
2026-01-14 03:28:58.97	301.87	13.64	-46.2	-49.4	21.3	6.03e-01	0	42	0	372244480	64	5055
2026-01-14 03:28:59.82	301.68	13.62	-46.7	-50.1	20.7	6.01e-01	0	43	0	373817344	64	5473
2026-01-14 03:29:01.15	301.37	13.59	-46.8	-50.3	20.4	6.02e-01	0	42	0	376438784	64	5628
2026-01-14 03:29:01.86	301.21	13.58	-46.6	-50.0	20.8	6.03e-01	0	43	0	377487360	64	5409
2026-01-14 03:29:03.14	300.91	13.55	-47.3	-50.9	19.9	6.04e-01	0	43	0	380108800	65	5713
2026-01-14 03:29:03.85	300.75	13.53	-47.2	-50.7	20.0	6.03e-01	0	42	0	381157376	65	5537
2026-01-14 03:29:05.13	300.46	13.50	-46.5	-49.6	21.1	6.02e-01	0	42	0	383778816	64	5191
2026-01-14 03:29:05.87	300.29	13.49	-47.0	-50.3	20.4	6.04e-01	0	43	0	385351680	64	5609
2026-01-14 03:29:07.14	300.00	13.45	-46.9	-50.3	20.4	6.01e-01	0	42	0	387448832	64	5605
2026-01-14 03:29:07.93	299.82	13.44	-46.6	-49.9	20.9	6.01e-01	0	43	0	389021696	64	5354
2026-01-14 03:29:09.13	299.55	13.41	-47.1	-50.6	20.2	6.02e-01	0	42	0	391118848	64	5855
2026-01-14 03:29:09.98	299.36	13.38	-47.5	-51.3	19.2	6.04e-01	0	42	0	392691712	65	5977
2026-01-14 03:29:11.12	299.10	13.35	-46.7	-50.0	20.8	6.02e-01	0	42	0	394788864	65	5106
2026-01-14 03:29:12.16	298.87	13.33	-47.6	-51.4	19.5	6.01e-01	0	42	0	396886016	65	6008
2026-01-14 03:29:13.09	298.66	13.30	-47.3	-50.8	19.8	6.03e-01	0	42	0	398458880	66	5335
2026-01-14 03:29:14.36	298.37	13.27	-46.7	-49.9	20.9	6.04e-01	0	42	0	401080320	65	5059
2026-01-14 03:29:15.16	298.19	13.25	-47.1	-50.5	20.2	6.05e-01	0	42	0	402653184	65	5464
2026-01-14 03:29:16.55	297.88	13.21	-46.8	-50.2	20.5	6.02e-01	0	42	0	405274624	65	5264
2026-01-14 03:29:17.26	297.72	13.19	-46.6	-49.9	20.8	6.00e-01	0	42	0	406323200	65	5076
2026-01-14 03:29:18.54	297.44	13.15	-46.5	-49.6	21.1	6.02e-01	0	43	0	408944640	64	5190
2026-01-14 03:29:19.25	297.28	13.13	-47.0	-50.4	20.5	6.02e-01	0	42	0	409993216	64	5662
2026-01-14 03:29:20.52	297.00	13.09	-46.6	-49.9	20.7	6.00e-01	0	42	0	412614656	65	5064
2026-01-14 03:29:21.24	296.84	13.07	-46.2	-49.2	21.4	5.99e-01	0	43	0	413663232	64	4976
2026-01-14 03:29:22.51	296.56	13.03	-47.3	-51.0	19.9	6.02e-01	0	42	0	416284672	65	5739
2026-01-14 03:29:23.24	296.40	13.01	-46.9	-50.4	20.3	6.01e-01	0	42	0	417857536	65	5345
2026-01-14 03:29:24.52	296.12	12.97	-46.4	-49.6	21.1	6.04e-01	0	42	0	419954688	64	5186
2026-01-14 03:29:25.23	295.96	12.95	-46.8	-50.3	20.5	6.04e-01	0	43	0	421527552	64	5597
2026-01-14 03:29:26.51	295.68	12.91	-46.8	-50.2	20.6	6.01e-01	0	43	0	423624704	64	5546
2026-01-14 03:29:27.24	295.52	12.89	-46.9	-50.1	20.6	6.05e-01	0	42	0	425197568	64	5526
2026-01-14 03:29:28.51	295.24	12.85	-46.9	-50.2	20.6	6.02e-01	0	42	0	427819008	64	5535
2026-01-14 03:29:29.22	295.09	12.82	-47.0	-50.3	20.5	6.01e-01	0	42	0	428867584	64	5605
2026-01-14 03:29:30.50	294.81	12.78	-47.1	-50.5	20.3	6.05e-01	0	43	0	431489024	65	5412
2026-01-14 03:29:31.21	294.66	12.76	-46.7	-49.8	20.9	6.03e-01	0	42	0	432537600	65	5041
2026-01-14 03:29:32.63	294.35	12.71	-46.8	-50.1	20.7	6.06e-01	0	43	0	435159040	65	5174
2026-01-14 03:29:33.34	294.20	12.69	-46.8	-50.2	20.6	6.03e-01	0	43	0	436731904	65	5243
2026-01-14 03:29:34.62	293.93	12.64	-46.6	-49.9	20.9	6.03e-01	0	42	0	438829056	65	5078
2026-01-14 03:29:35.35	293.77	12.62	-46.9	-50.3	20.5	6.02e-01	0	42	0	440401920	65	5313
2026-01-14 03:29:36.77	293.47	12.57	-46.7	-50.0	20.7	6.06e-01	0	43	0	443023360	65	5135
2026-01-14 03:29:37.48	293.31	12.54	-46.8	-50.1	20.7	6.03e-01	0	43	0	444596224	65	5196
2026-01-14 03:29:38.76	293.04	12.50	-47.0	-50.5	20.3	6.03e-01	0	42	0	446693376	65	5439
2026-01-14 03:29:39.50	292.89	12.47	-46.7	-50.1	20.7	6.02e-01	0	43	0	448266240	65	5190
2026-01-14 03:29:40.78	292.62	12.43	-46.7	-49.9	20.8	6.03e-01	0	42	0	450363392	65	5095
2026-01-14 03:29:41.49	292.47	12.40	-47.0	-50.5	20.3	6.01e-01	0	42	0	451936256	65	5425
2026-01-14 03:29:42.77	292.20	12.35	-46.9	-50.3	20.5	6.01e-01	0	42	0	454557696	65	5288
2026-01-14 03:29:43.48	292.05	12.33	-46.8	-50.1	20.6	6.03e-01	0	43	0	455606272	65	5212
2026-01-14 03:29:44.75	291.78	12.28	-47.0	-50.6	20.2	6.01e-01	0	42	0	458227712	65	5499
2026-01-14 03:29:45.51	291.62	12.25	-47.1	-50.6	20.2	6.02e-01	0	43	0	459276288	65	5513
2026-01-14 03:29:46.79	291.36	12.20	-47.0	-50.5	20.3	6.02e-01	0	43	0	461897728	65	5430
2026-01-14 03:29:47.50	291.21	12.18	-47.0	-50.5	20.3	6.01e-01	0	43	0	463470592	65	5420
2026-01-14 03:29:48.78	290.95	12.13	-46.9	-50.2	20.6	6.02e-01	0	42	0	465567744	65	5243
2026-01-14 03:29:49.49	290.80	12.10	-46.9	-50.2	20.5	6.06e-01	0	43	0	466616320	65	5278
2026-01-14 03:29:50.77	290.54	12.05	-46.9	-50.3	20.5	6.02e-01	0	42	0	469237760	65	5319
2026-01-14 03:29:51.48	290.39	12.02	-46.9	-50.3	20.5	6.05e-01	0	42	0	470810624	65	5339
2026-01-14 03:29:52.76	290.13	11.97	-46.8	-50.5	20.3	6.03e-01	0	43	0	472907776	65	5426
2026-01-14 03:29:53.47	289.99	11.94	-46.6	-50.2	20.5	6.02e-01	0	42	0	474480640	65	5275
2026-01-14 03:29:54.81	289.71	11.89	-46.2	-50.1	20.7	6.04e-01	0	42	0	477102080	64	5498
2026-01-14 03:29:55.52	289.57	11.86	-46.3	-50.3	20.5	6.02e-01	0	42	0	478150656	64	5647
2026-01-14 03:29:56.80	289.31	11.81	-46.5	-50.7	20.1	6.04e-01	0	42	0	480772096	64	5861
2026-01-14 03:29:57.51	289.17	11.78	-46.4	-50.2	20.5	6.04e-01	0	42	0	481820672	64	5588
2026-01-14 03:29:58.79	288.91	11.73	-46.6	-50.0	20.7	6.01e-01	0	42	0	484442112	64	5448
2026-01-14 03:29:59.50	288.77	11.70	-46.8	-50.3	20.5	6.02e-01	0	43	0	485490688	64	5594
2026-01-14 03:30:00.80	288.51	11.64	-47.1	-50.7	20.0	6.02e-01	0	43	0	488112128	65	5574
2026-01-14 03:30:01.50	288.37	11.62	-47.1	-50.6	20.2	6.01e-01	0	42	0	489684992	65	5479
2026-01-14 03:30:02.78	288.12	11.56	-46.7	-50.0	20.7	6.01e-01	0	42	0	491782144	65	5145
2026-01-14 03:30:03.51	287.97	11.53	-46.7	-50.1	20.6	6.00e-01	0	43	0	493355008	65	5193
2026-01-14 03:30:04.79	287.72	11.48	-47.0	-50.5	20.2	6.00e-01	0	42	0	495452160	65	5464
2026-01-14 03:30:05.59	287.56	11.44	-47.0	-50.5	20.2	6.02e-01	0	43	0	497025024	65	5442
2026-01-14 03:30:06.73	287.34	11.39	-46.8	-50.2	20.6	6.03e-01	0	42	0	499122176	65	5224
2026-01-14 03:30:07.77	287.14	11.35	-47.0	-50.4	20.4	6.01e-01	0	43	0	501219328	65	5365
2026-01-14 03:30:08.91	286.92	11.30	-47.1	-50.6	20.2	6.03e-01	0	42	0	503316480	65	5478
2026-01-14 03:30:09.84	286.73	11.26	-47.1	-50.5	20.2	6.02e-01	0	42	0	504889344	65	5459
2026-01-14 03:30:10.84	286.54	11.22	-46.8	-50.1	20.6	6.04e-01	0	43	0	506986496	65	5193
2026-01-14 03:30:11.83	286.35	11.17	-46.7	-50.0	20.7	6.02e-01	0	42	0	508559360	65	5153
2026-01-14 03:30:12.82	286.16	11.13	-47.0	-50.4	20.3	6.02e-01	0	43	0	510656512	65	5387
2026-01-14 03:30:13.82	285.97	11.08	-47.0	-50.6	20.1	6.04e-01	0	43	0	512753664	65	5470
2026-01-14 03:30:14.82	285.78	11.04	-47.0	-50.5	20.3	6.01e-01	0	43	0	514326528	65	5417
2026-01-14 03:30:15.81	285.59	11.00	-46.9	-50.2	20.5	6.01e-01	0	42	0	516423680	65	5262
2026-01-14 03:30:16.81	285.40	10.95	-46.9	-50.2	20.5	6.03e-01	0	43	0	517996544	65	5267
2026-01-14 03:30:17.80	285.21	10.91	-47.0	-50.4	20.4	6.02e-01	0	42	0	520093696	65	5362
2026-01-14 03:30:18.79	285.03	10.86	-47.1	-50.5	20.3	6.04e-01	0	43	0	521666560	65	5410
2026-01-14 03:30:19.79	284.84	10.82	-47.0	-50.4	20.4	6.03e-01	0	42	0	523763712	65	5347
2026-01-14 03:30:20.88	284.64	10.77	-46.9	-50.2	20.5	6.03e-01	0	43	0	525860864	65	5267
2026-01-14 03:30:21.73	284.48	10.73	-46.8	-50.2	20.6	6.02e-01	0	43	0	527433728	65	5222
2026-01-14 03:30:22.87	284.27	10.67	-46.8	-50.3	20.5	6.05e-01	0	43	0	529530880	65	5297
2026-01-14 03:30:23.80	284.09	10.63	-46.8	-50.3	20.5	6.04e-01	0	42	0	531103744	65	5300
2026-01-14 03:30:24.98	283.88	10.58	-46.9	-50.3	20.5	6.04e-01	0	43	0	533200896	65	5303
2026-01-14 03:30:25.83	283.72	10.54	-46.9	-50.3	20.5	6.02e-01	0	43	0	534773760	65	5289
2026-01-14 03:30:26.97	283.51	10.48	-47.0	-50.3	20.4	6.02e-01	0	43	0	537395200	65	5328
2026-01-14 03:30:27.82	283.36	10.44	-47.0	-50.3	20.4	6.01e-01	0	43	0	538968064	65	5330
2026-01-14 03:30:28.96	283.15	10.39	-47.0	-50.4	20.3	6.00e-01	0	42	0	541065216	65	5361
2026-01-14 03:30:29.81	283.00	10.35	-47.0	-50.4	20.2	6.03e-01	0	43	0	542638080	65	5401
2026-01-14 03:30:30.95	282.79	10.30	-47.0	-50.4	20.3	6.02e-01	0	43	0	544735232	65	5352
2026-01-14 03:30:31.80	282.64	10.26	-46.9	-50.4	20.3	6.01e-01	0	43	0	546308096	65	5376
2026-01-14 03:30:32.94	282.43	10.20	-46.8	-50.3	20.4	6.01e-01	0	43	0	548405248	65	5288
2026-01-14 03:30:33.79	282.28	10.16	-46.7	-50.2	20.5	6.04e-01	0	42	0	549978112	65	5259
2026-01-14 03:30:35.01	282.06	10.10	-46.7	-50.2	20.5	6.01e-01	0	43	0	552075264	65	5256
2026-01-14 03:30:35.86	281.91	10.06	-46.8	-50.4	20.3	5.99e-01	0	42	0	553648128	65	5349
2026-01-14 03:30:37.00	281.71	10.01	-46.9	-50.5	20.2	6.04e-01	0	42	0	555745280	65	5438
2026-01-14 03:30:37.85	281.56	9.97	-46.9	-50.5	20.2	6.02e-01	0	43	0	557318144	65	5449
2026-01-14 03:30:38.99	281.36	9.91	-46.9	-50.4	20.3	6.01e-01	0	42	0	559939584	65	5370
2026-01-14 03:30:39.84	281.21	9.87	-47.0	-50.5	20.2	6.03e-01	0	43	0	561512448	65	5446
2026-01-14 03:30:40.98	281.01	9.81	-47.1	-50.5	20.2	6.04e-01	0	43	0	563609600	65	5433
2026-01-14 03:30:41.83	280.87	9.77	-47.0	-50.5	20.3	6.02e-01	0	43	0	565182464	65	5405
2026-01-14 03:30:42.97	280.67	9.72	-47.0	-50.5	20.2	6.02e-01	0	43	0	567279616	65	5423
2026-01-14 03:30:43.82	280.52	9.67	-46.9	-50.4	20.3	5.98e-01	0	43	0	568852480	65	5349
2026-01-14 03:30:44.95	280.33	9.62	-46.9	-50.4	20.2	6.04e-01	0	42	0	570949632	65	5402
2026-01-14 03:30:45.81	280.18	9.58	-46.9	-50.5	20.0	6.04e-01	0	43	0	572522496	65	5431
2026-01-14 03:30:46.95	279.99	9.52	-46.8	-50.4	20.2	6.05e-01	0	42	0	574619648	65	5384
2026-01-14 03:30:47.80	279.84	9.48	-46.8	-50.4	20.3	6.04e-01	0	43	0	576192512	65	5362
2026-01-14 03:30:48.93	279.65	9.42	-46.9	-50.6	20.2	6.01e-01	0	43	0	578289664	65	5465
2026-01-14 03:30:49.79	279.51	9.38	-46.9	-50.5	20.2	6.02e-01	0	43	0	579862528	65	5449
2026-01-14 03:30:50.92	279.32	9.32	-47.0	-50.6	20.1	6.03e-01	0	43	0	581959680	65	5499
2026-01-14 03:30:51.78	279.17	9.28	-46.9	-50.5	20.1	6.04e-01	0	43	0	583532544	65	5461
2026-01-14 03:30:53.04	278.96	9.21	-46.9	-50.4	20.3	6.01e-01	0	42	0	586153984	65	5386
2026-01-14 03:30:53.84	278.83	9.17	-46.9	-50.5	20.2	6.01e-01	0	43	0	587726848	65	5426
2026-01-14 03:30:55.08	278.63	9.11	-47.0	-50.5	20.1	6.03e-01	0	43	0	589824000	65	5464
2026-01-14 03:30:55.93	278.49	9.07	-47.0	-50.6	20.1	6.01e-01	0	43	0	591396864	65	5487
2026-01-14 03:30:57.07	278.30	9.01	-47.0	-50.6	20.1	6.03e-01	0	43	0	593494016	65	5497
2026-01-14 03:30:57.92	278.16	8.97	-51.4	-69.1	3.4	7.42e-01	0	43	104	595066880	73	29266
2026-01-14 03:30:59.06	277.97	8.91	-51.9	-72.2	3.8	7.48e-01	0	43	104	595066880	74	39157
2026-01-14 03:30:59.91	277.84	8.87	-52.1	-72.2	3.8	7.47e-01	0	43	104	595066880	74	39516
2026-01-14 03:31:01.04	277.65	8.81	-52.1	-72.4	3.8	7.46e-01	0	43	104	595066880	75	38068
2026-01-14 03:31:01.89	277.52	8.77	-52.3	-72.4	3.8	7.48e-01	0	43	104	595066880	75	38191
2026-01-14 03:31:03.03	277.33	8.71	-52.2	-72.5	3.8	7.48e-01	0	43	104	595066880	75	38397
2026-01-14 03:31:03.88	277.20	8.66	-52.5	-72.5	3.8	7.50e-01	0	42	104	595066880	75	38597
2026-01-14 03:31:05.01	277.02	8.61	-52.3	-72.6	3.8	7.46e-01	0	43	104	595066880	75	38713
2026-01-14 03:31:05.87	276.88	8.56	-52.7	-72.6	3.8	7.45e-01	0	43	104	595066880	75	38811
2026-01-14 03:31:07.00	276.70	8.50	-52.6	-72.6	3.8	7.41e-01	0	43	104	595066880	76	36905
2026-01-14 03:31:07.85	276.57	8.46	-52.6	-72.7	3.8	7.44e-01	0	43	104	595066880	76	36960
2026-01-14 03:31:08.99	276.39	8.40	-52.6	-72.6	3.8	7.44e-01	0	43	104	595066880	76	36926
2026-01-14 03:31:09.84	276.26	8.36	-52.6	-72.7	3.8	7.47e-01	0	43	104	595066880	76	36958
2026-01-14 03:31:10.97	276.08	8.30	-52.5	-72.7	3.8	7.46e-01	0	43	104	595066880	76	37029
2026-01-14 03:31:11.83	275.95	8.25	-52.4	-72.7	3.8	7.48e-01	0	43	104	595066880	76	36997
2026-01-14 03:31:12.96	275.78	8.20	-52.2	-72.7	3.8	7.47e-01	0	43	104	595066880	76	37014
2026-01-14 03:31:13.81	275.64	8.15	-52.3	-72.7	3.8	7.44e-01	0	43	104	595066880	76	36965
2026-01-14 03:31:14.95	275.47	8.09	-52.1	-72.7	3.8	7.45e-01	0	43	104	595066880	76	37034
2026-01-14 03:31:15.80	275.34	8.05	-52.1	-72.6	3.8	7.47e-01	0	43	104	595066880	76	36866
2026-01-14 03:31:16.94	275.17	7.99	-52.0	-72.7	3.8	7.47e-01	0	43	104	595066880	76	37080
2026-01-14 03:31:17.79	275.04	7.94	-52.3	-72.6	3.8	7.47e-01	0	43	104	595066880	76	36829
2026-01-14 03:31:18.92	274.87	7.89	-52.2	-72.6	3.8	7.45e-01	0	43	104	595066880	76	36829
2026-01-14 03:31:19.77	274.74	7.84	-51.9	-72.6	3.8	7.46e-01	0	43	104	595066880	75	38769
2026-01-14 03:31:20.91	274.57	7.78	-51.9	-72.5	3.8	7.46e-01	0	42	104	595066880	75	38595
2026-01-14 03:31:21.76	274.44	7.74	-51.9	-72.5	3.8	7.45e-01	0	43	104	595066880	75	38595
2026-01-14 03:31:22.89	274.28	7.68	-51.9	-72.5	3.8	7.45e-01	0	43	104	595066880	75	38479
2026-01-14 03:31:23.75	274.15	7.63	-51.9	-72.5	3.8	7.49e-01	0	43	104	595066880	75	38550
2026-01-14 03:31:24.88	273.98	7.57	-51.9	-72.5	3.8	7.48e-01	0	43	104	595066880	75	38533
2026-01-14 03:31:25.73	273.86	7.53	-51.9	-72.5	3.8	7.48e-01	0	43	104	595066880	75	38665
2026-01-14 03:31:26.87	273.69	7.47	-51.9	-72.5	3.8	7.46e-01	0	43	104	595066880	75	38476
2026-01-14 03:31:27.72	273.57	7.42	-51.9	-72.5	3.8	7.47e-01	0	43	104	595066880	75	38473
2026-01-14 03:31:28.85	273.40	7.36	-51.9	-72.5	3.8	7.48e-01	0	43	104	595066880	75	38487
2026-01-14 03:31:29.71	273.28	7.32	-51.9	-72.5	3.8	7.46e-01	0	43	104	595066880	75	38510
2026-01-14 03:31:30.84	273.12	7.26	-51.9	-72.5	3.8	7.48e-01	0	43	104	595066880	75	38476
2026-01-14 03:31:31.69	273.00	7.21	-51.9	-72.5	3.8	7.48e-01	0	43	104	595066880	75	38470
2026-01-14 03:31:32.83	272.83	7.15	-51.9	-72.5	3.8	7.45e-01	0	43	104	595066880	75	38359
2026-01-14 03:31:33.68	272.71	7.11	-51.9	-72.5	3.8	7.47e-01	0	43	104	595066880	75	38343
2026-01-14 03:31:34.81	272.55	7.05	-51.9	-72.5	3.8	7.46e-01	0	42	104	595066880	75	38433
2026-01-14 03:31:35.67	272.43	7.00	-51.9	-72.5	3.8	7.43e-01	0	43	104	595066880	75	38351
2026-01-14 03:31:36.80	272.27	6.94	-51.9	-72.5	3.8	7.46e-01	0	43	104	595066880	75	38275
2026-01-14 03:31:37.65	272.15	6.90	-51.9	-72.5	3.8	7.45e-01	0	43	104	595066880	75	38436
2026-01-14 03:31:38.79	271.99	6.84	-51.9	-72.5	3.8	7.43e-01	0	43	104	595066880	75	38321
2026-01-14 03:31:39.64	271.88	6.79	-51.9	-72.5	3.8	7.50e-01	0	43	104	595066880	75	38305
2026-01-14 03:31:40.77	271.72	6.73	-51.9	-72.5	3.8	7.49e-01	0	43	104	595066880	75	38326
2026-01-14 03:31:41.63	271.60	6.69	-51.9	-72.5	3.8	7.49e-01	0	43	104	595066880	75	38388
2026-01-14 03:31:42.76	271.45	6.63	-51.9	-72.5	3.8	7.46e-01	0	43	104	595066880	75	38351
2026-01-14 03:31:43.61	271.33	6.58	-51.9	-72.5	3.8	7.46e-01	0	43	104	595066880	75	38333
2026-01-14 03:31:44.75	271.18	6.52	-51.9	-72.5	3.8	7.47e-01	0	43	104	595066880	75	38332
2026-01-14 03:31:45.60	271.06	6.48	-51.9	-72.5	3.8	7.47e-01	0	43	104	595066880	75	38406
2026-01-14 03:31:46.73	270.91	6.42	-51.9	-72.5	3.8	7.47e-01	0	43	104	595066880	75	38447
2026-01-14 03:31:47.58	270.80	6.37	-51.9	-72.5	3.8	7.48e-01	0	43	104	595066880	75	38306
2026-01-14 03:31:48.72	270.64	6.31	-51.9	-72.5	3.8	7.46e-01	0	43	104	595066880	75	38344
2026-01-14 03:31:49.57	270.53	6.26	-51.9	-72.5	3.8	7.46e-01	0	43	104	595066880	75	38329
2026-01-14 03:31:50.71	270.38	6.20	-51.9	-72.4	3.8	7.47e-01	0	43	104	595066880	75	38228
2026-01-14 03:31:51.56	270.27	6.16	-51.9	-72.5	3.8	7.45e-01	0	43	104	595066880	75	38309
2026-01-14 03:31:52.69	270.12	6.10	-51.8	-72.5	3.8	7.48e-01	0	43	104	595066880	75	38403
2026-01-14 03:31:53.55	270.00	6.05	-51.8	-72.5	3.8	7.46e-01	0	42	104	595066880	75	38325
2026-01-14 03:31:54.68	269.86	5.99	-51.8	-72.5	3.8	7.47e-01	0	43	104	595066880	75	38294
2026-01-14 03:31:55.53	269.75	5.95	-51.8	-72.5	3.8	7.53e-01	0	43	104	595066880	75	38285
2026-01-14 03:31:56.67	269.60	5.89	-51.8	-72.5	3.8	7.45e-01	0	43	104	595066880	75	38274
2026-01-14 03:31:57.52	269.49	5.84	-51.8	-72.5	3.8	7.48e-01	0	43	104	595066880	75	38340
2026-01-14 03:31:58.65	269.34	5.78	-51.9	-72.5	3.8	7.44e-01	0	43	104	595066880	75	38257
2026-01-14 03:31:59.50	269.23	5.73	-51.9	-72.5	3.8	7.46e-01	0	43	104	595066880	75	38256
2026-01-14 03:32:00.64	269.09	5.67	-51.9	-72.5	3.8	7.48e-01	0	43	104	595066880	75	38302
2026-01-14 03:32:01.49	268.98	5.63	-51.8	-72.5	3.8	7.43e-01	0	42	104	595066880	75	38276
2026-01-14 03:32:02.62	268.84	5.57	-51.9	-72.5	3.8	7.45e-01	0	43	104	595066880	75	38266
2026-01-14 03:32:03.48	268.73	5.52	-51.8	-72.4	3.8	7.44e-01	0	43	104	595066880	75	38234
2026-01-14 03:32:04.61	268.59	5.46	-51.8	-72.5	3.8	7.47e-01	0	43	104	595066880	75	38276
2026-01-14 03:32:05.46	268.48	5.42	-51.8	-72.5	3.8	7.45e-01	0	43	104	595066880	75	38253
2026-01-14 03:32:06.60	268.34	5.36	-51.9	-72.4	3.8	7.46e-01	0	43	104	595066880	75	38195
2026-01-14 03:32:07.45	268.23	5.31	-51.8	-72.5	3.8	7.45e-01	0	43	104	595066880	75	38263
2026-01-14 03:32:08.59	268.09	5.25	-51.8	-72.4	3.8	7.47e-01	0	43	104	595066880	75	38208
2026-01-14 03:32:09.44	267.99	5.20	-51.8	-72.4	3.8	7.48e-01	0	43	104	595066880	75	38208
2026-01-14 03:32:10.57	267.85	5.14	-51.8	-72.4	3.8	7.44e-01	0	43	104	595066880	75	38174
2026-01-14 03:32:11.43	267.75	5.10	-51.9	-72.4	3.8	7.46e-01	0	43	104	595066880	75	38192
2026-01-14 03:32:12.56	267.61	5.04	-51.8	-72.4	3.8	7.46e-01	0	43	104	595066880	75	38157
2026-01-14 03:32:13.41	267.51	4.99	-51.8	-72.4	3.8	7.45e-01	0	42	104	595066880	75	38215

#Closed at: 2026-01-14 03:32:14
#Recorded file [595 MB]: D:/Data/31040_260114_062410.dat