passes_logs/2026/01/14/T1/T1__20260114_221547_NOAA_20_JPSS-1_rec.log

#Pass ID: 20260114_221547_NOAA 20 (JPSS-1)
#Satellite: NOAA 20 (JPSS-1)
#Configuration: NOAA 20
#almurnet v.1.7.20251203
#Start time: 2026-01-14 22:15:47

#Version: 2.0.20230620
#Station: T1
#Location: 37.570604 lon 55.790049 lat
#TLE: 1 43013U 17073A   26014.13176244  .00000049  00000+0  44136-4 0  9994
#TLE: 2 43013  98.7634 315.0803 0001538  40.6488 319.4803 14.19535812422619

#Time	Az	El	Level	Level2	SNR	BER	BlckErr	Temp	State	Recorded	gain1	gain2
2026-01-14 22:15:47.99	28.59	5.01	-48.6	-65.4	3.8	1.49e+00	0	37	0	0	69	23880
2026-01-14 22:15:48.98	28.68	5.07	-48.5	-65.2	3.8	1.49e+00	0	37	104	0	67	26248
2026-01-14 22:15:49.97	28.76	5.13	-48.5	-65.2	3.8	1.49e+00	0	37	104	0	67	26239
2026-01-14 22:15:50.97	28.84	5.19	-48.5	-65.2	3.8	1.49e+00	0	37	104	0	67	26403
2026-01-14 22:15:51.96	28.92	5.25	-48.5	-65.2	3.8	1.49e+00	0	37	104	0	67	26215
2026-01-14 22:15:52.95	29.01	5.31	-48.5	-65.2	3.8	1.49e+00	0	37	104	0	67	26324
2026-01-14 22:15:53.95	29.09	5.37	-48.5	-65.2	3.8	1.49e+00	0	37	104	0	67	26253
2026-01-14 22:15:54.94	29.17	5.43	-48.5	-65.2	3.8	1.49e+00	0	37	104	0	67	26202
2026-01-14 22:15:55.93	29.26	5.49	-48.5	-65.2	3.8	1.49e+00	0	37	104	0	67	26312
2026-01-14 22:15:56.93	29.34	5.55	-48.4	-65.2	3.8	1.49e+00	0	37	104	0	67	26233
2026-01-14 22:15:57.92	29.43	5.61	-48.4	-65.1	3.8	1.49e+00	0	37	104	0	67	26132
2026-01-14 22:15:58.91	29.51	5.67	-48.4	-65.1	3.8	1.49e+00	0	38	104	0	67	25970
2026-01-14 22:15:59.91	29.60	5.73	-48.4	-65.0	3.8	1.49e+00	0	37	104	0	67	25726
2026-01-14 22:16:00.90	29.68	5.79	-48.5	-65.2	3.8	1.49e+00	0	38	104	0	67	26163
2026-01-14 22:16:01.90	29.77	5.85	-48.4	-65.1	3.8	1.49e+00	0	38	104	0	67	25938
2026-01-14 22:16:02.89	29.86	5.91	-48.4	-65.0	3.8	1.49e+00	0	38	104	0	67	25802
2026-01-14 22:16:03.88	29.94	5.97	-48.4	-65.0	3.8	1.49e+00	0	38	104	0	67	25820
2026-01-14 22:16:04.88	30.03	6.03	-48.5	-65.0	3.8	1.49e+00	0	38	104	0	67	25782
2026-01-14 22:16:05.87	30.12	6.09	-48.4	-65.0	3.8	1.49e+00	0	38	104	0	67	25591
2026-01-14 22:16:06.86	30.21	6.15	-48.5	-64.9	3.8	1.49e+00	0	38	104	0	67	25538
2026-01-14 22:16:07.86	30.30	6.21	-48.4	-65.0	3.8	1.49e+00	0	38	104	0	67	25633
2026-01-14 22:16:08.85	30.38	6.27	-48.5	-65.0	3.8	1.49e+00	0	38	104	0	67	25681
2026-01-14 22:16:09.84	30.47	6.33	-48.5	-65.0	3.8	1.49e+00	0	38	104	0	67	25832
2026-01-14 22:16:10.84	30.56	6.39	-48.4	-65.1	3.8	1.49e+00	0	38	104	0	67	26024
2026-01-14 22:16:11.83	30.65	6.45	-48.4	-65.1	3.8	1.49e+00	0	38	104	0	67	25874
2026-01-14 22:16:12.83	30.74	6.52	-48.4	-65.0	3.8	1.49e+00	0	38	104	0	67	25779
2026-01-14 22:16:14.01	30.85	6.59	-48.4	-64.9	3.8	1.49e+00	0	38	104	0	67	25522
2026-01-14 22:16:14.86	30.93	6.64	-48.4	-65.1	3.8	1.49e+00	0	38	104	0	67	25867
2026-01-14 22:16:16.00	31.03	6.71	-48.4	-65.0	3.8	1.49e+00	0	38	104	0	67	25755
2026-01-14 22:16:16.85	31.11	6.77	-48.4	-65.0	3.8	1.49e+00	0	38	104	0	67	25647
2026-01-14 22:16:17.98	31.21	6.84	-48.4	-65.0	3.8	1.49e+00	0	38	104	0	67	25632
2026-01-14 22:16:18.84	31.29	6.89	-48.4	-65.0	3.8	1.49e+00	0	38	104	0	67	25809
2026-01-14 22:16:19.97	31.40	6.96	-48.4	-65.0	3.8	1.49e+00	0	38	104	0	67	25824
2026-01-14 22:16:20.82	31.48	7.01	-48.4	-65.0	3.8	1.49e+00	0	38	104	0	67	25644
2026-01-14 22:16:21.96	31.59	7.08	-48.4	-65.0	3.8	1.49e+00	0	38	104	0	67	25716
2026-01-14 22:16:22.81	31.67	7.14	-48.4	-65.0	3.8	1.49e+00	0	38	104	0	67	25759
2026-01-14 22:16:23.94	31.77	7.21	-48.4	-65.0	3.8	1.49e+00	0	38	104	0	67	25607
2026-01-14 22:16:24.80	31.86	7.26	-48.4	-65.0	3.8	1.49e+00	0	38	104	0	67	25632
2026-01-14 22:16:25.93	31.96	7.33	-48.4	-65.0	3.8	1.49e+00	0	38	104	0	67	25740
2026-01-14 22:16:26.78	32.04	7.39	-48.4	-65.1	3.8	1.49e+00	0	38	104	0	67	25879
2026-01-14 22:16:27.92	32.15	7.46	-48.4	-65.1	3.8	1.49e+00	0	38	104	0	67	25906
2026-01-14 22:16:28.77	32.24	7.51	-48.4	-65.0	3.8	1.49e+00	0	39	104	0	67	25806
2026-01-14 22:16:29.91	32.35	7.59	-48.4	-65.0	3.8	1.49e+00	0	39	104	0	67	25811
2026-01-14 22:16:30.76	32.43	7.64	-48.4	-65.1	3.8	1.49e+00	0	38	104	0	67	26065
2026-01-14 22:16:31.89	32.54	7.71	-48.4	-65.1	3.8	1.49e+00	0	38	104	0	67	26020
2026-01-14 22:16:32.75	32.63	7.77	-48.4	-65.1	3.8	1.49e+00	0	39	104	0	67	26015
2026-01-14 22:16:33.88	32.74	7.84	-48.4	-65.1	3.8	1.49e+00	0	39	104	0	67	26078
2026-01-14 22:16:34.74	32.82	7.89	-48.4	-65.2	3.8	1.49e+00	0	38	104	0	67	26187
2026-01-14 22:16:35.87	32.93	7.96	-48.4	-65.1	3.8	1.49e+00	0	39	104	0	67	26128
2026-01-14 22:16:36.72	33.02	8.02	-48.4	-65.2	3.8	1.49e+00	0	39	104	0	67	26307
2026-01-14 22:16:37.86	33.13	8.09	-48.4	-65.1	3.8	1.49e+00	0	39	104	0	67	26099
2026-01-14 22:16:38.71	33.22	8.15	-48.4	-65.2	3.8	1.49e+00	0	38	104	0	67	26158
2026-01-14 22:16:39.85	33.34	8.22	-48.4	-65.1	3.8	1.49e+00	0	39	104	0	67	26029
2026-01-14 22:16:40.70	33.42	8.27	-48.4	-65.1	3.8	1.49e+00	0	39	104	0	67	25898
2026-01-14 22:16:41.83	33.54	8.35	-48.4	-65.0	3.8	1.49e+00	0	39	104	0	67	25792
2026-01-14 22:16:42.69	33.63	8.40	-48.4	-64.9	3.8	1.49e+00	0	39	104	0	67	25511
2026-01-14 22:16:43.82	33.74	8.48	-48.4	-65.0	3.8	1.49e+00	0	39	104	0	67	25746
2026-01-14 22:16:44.67	33.83	8.53	-48.4	-65.1	3.8	1.49e+00	0	39	104	0	67	26020
2026-01-14 22:16:45.81	33.95	8.60	-48.4	-65.1	3.8	1.49e+00	0	39	104	0	67	26106
2026-01-14 22:16:46.66	34.04	8.66	-48.4	-65.0	3.8	1.49e+00	0	39	104	0	67	25781
2026-01-14 22:16:47.80	34.16	8.73	-48.4	-64.7	3.8	1.49e+00	0	39	104	0	67	24753
2026-01-14 22:16:48.65	34.24	8.79	-48.4	-64.2	3.8	1.49e+00	0	39	104	0	67	23514
2026-01-14 22:16:49.78	34.36	8.86	-48.4	-63.7	3.8	1.49e+00	0	39	104	0	67	22152
2026-01-14 22:16:50.63	34.45	8.92	-48.4	-63.3	3.8	1.49e+00	0	39	104	0	67	21170
2026-01-14 22:16:51.77	34.58	8.99	-48.3	-62.8	3.9	1.49e+00	0	39	104	0	67	20050
2026-01-14 22:16:52.62	34.67	9.05	-48.4	-63.0	3.8	1.48e+00	0	39	104	0	67	20510
2026-01-14 22:16:53.76	34.79	9.12	-49.1	-64.2	3.8	1.49e+00	0	39	104	0	68	22051
2026-01-14 22:16:54.62	34.88	9.18	-48.9	-60.2	4.1	1.49e+00	0	39	104	0	69	13248
2026-01-14 22:16:55.75	35.00	9.25	-49.2	-57.9	6.5	8.31e-02	0	39	0	1048576	69	10088
2026-01-14 22:16:56.61	35.10	9.31	-48.2	-53.9	10.1	7.76e-02	0	39	0	2097152	68	6750
2026-01-14 22:16:57.74	35.22	9.38	-47.3	-52.2	11.8	4.03e-04	0	39	0	4194304	66	6243
2026-01-14 22:16:58.69	35.32	9.45	-47.1	-51.7	12.4	3.78e-04	0	39	0	6291456	66	5881
2026-01-14 22:16:59.69	35.44	9.51	-46.8	-51.1	13.0	6.25e-05	0	39	0	8388608	65	5806
2026-01-14 22:17:00.68	35.54	9.58	-46.8	-51.2	12.8	5.18e-05	0	39	0	9437184	65	5888
2026-01-14 22:17:01.68	35.66	9.64	-46.6	-51.0	13.0	3.89e-05	0	39	0	11534336	65	5735
2026-01-14 22:17:02.67	35.77	9.71	-46.7	-51.1	12.9	4.04e-05	0	39	0	13631488	65	5828
2026-01-14 22:17:03.66	35.88	9.77	-46.7	-51.1	12.9	5.79e-05	0	39	0	15728640	65	5805
2026-01-14 22:17:04.66	35.99	9.84	-46.3	-50.5	13.6	1.98e-05	0	39	0	17825792	64	5762
2026-01-14 22:17:05.66	36.10	9.91	-46.1	-50.1	14.0	3.80e-06	0	39	0	18874368	64	5512
2026-01-14 22:17:06.65	36.22	9.97	-45.8	-49.6	14.5	1.50e-06	0	39	0	20971520	63	5517
2026-01-14 22:17:07.64	36.33	10.04	-45.6	-49.4	14.8	0.00e+00	0	39	0	23068672	63	5367
2026-01-14 22:17:08.64	36.44	10.11	-45.6	-49.5	14.7	0.00e+00	0	39	0	25165824	63	5429
2026-01-14 22:17:09.63	36.56	10.17	-45.6	-49.5	14.6	7.00e-07	0	39	0	26214400	63	5444
2026-01-14 22:17:10.69	36.68	10.24	-45.5	-49.4	14.7	7.00e-07	0	39	0	28311552	63	5355
2026-01-14 22:17:11.54	36.78	10.30	-45.5	-49.3	14.8	0.00e+00	0	39	0	30408704	62	5635
2026-01-14 22:17:12.95	36.94	10.39	-45.4	-49.3	14.9	0.00e+00	0	39	0	32505856	62	5594
2026-01-14 22:17:13.66	37.03	10.44	-45.5	-49.3	14.8	0.00e+00	0	39	0	34603008	62	5615
2026-01-14 22:17:14.94	37.18	10.53	-45.5	-49.4	14.8	0.00e+00	0	39	0	36700160	62	5682
2026-01-14 22:17:15.67	37.26	10.58	-45.6	-49.3	14.8	0.00e+00	0	39	0	37748736	62	5647
2026-01-14 22:17:16.94	37.41	10.66	-45.6	-49.3	14.9	0.00e+00	0	39	0	40894464	62	5605
2026-01-14 22:17:17.70	37.50	10.71	-45.7	-49.3	15.0	7.00e-07	0	39	0	41943040	62	5597
2026-01-14 22:17:18.98	37.66	10.80	-45.8	-49.3	14.9	0.00e+00	0	39	0	44040192	62	5642
2026-01-14 22:17:19.70	37.74	10.85	-45.8	-49.3	14.9	7.00e-07	0	39	0	46137344	62	5653
2026-01-14 22:17:20.98	37.90	10.94	-45.8	-49.3	15.0	0.00e+00	0	39	0	48234496	62	5627
2026-01-14 22:17:21.78	38.00	10.99	-45.7	-49.2	15.0	0.00e+00	0	39	0	49283072	62	5592
2026-01-14 22:17:22.92	38.13	11.07	-45.7	-49.3	15.0	0.00e+00	0	39	0	51380224	62	5607
2026-01-14 22:17:23.77	38.24	11.13	-45.7	-49.3	14.9	0.00e+00	0	39	0	53477376	62	5635
2026-01-14 22:17:24.91	38.38	11.20	-45.7	-49.4	14.9	7.00e-07	0	39	0	55574528	62	5664
2026-01-14 22:17:25.76	38.48	11.26	-45.7	-49.2	15.0	0.00e+00	0	39	0	56623104	62	5583
2026-01-14 22:17:26.90	38.63	11.34	-45.6	-49.1	15.1	0.00e+00	0	39	0	58720256	62	5507
2026-01-14 22:17:27.75	38.73	11.40	-45.6	-49.2	15.1	0.00e+00	0	39	0	60817408	62	5531
2026-01-14 22:17:28.89	38.87	11.47	-45.6	-49.1	15.2	0.00e+00	0	39	0	62914560	62	5468
2026-01-14 22:17:29.75	38.98	11.53	-45.6	-48.9	15.3	0.00e+00	0	39	0	65011712	62	5398
2026-01-14 22:17:30.90	39.13	11.61	-45.6	-49.0	15.3	0.00e+00	0	39	0	67108864	62	5413
2026-01-14 22:17:31.73	39.23	11.67	-45.6	-49.0	15.3	0.00e+00	0	39	0	68157440	62	5405
2026-01-14 22:17:33.00	39.40	11.76	-45.6	-49.0	15.3	0.00e+00	0	39	0	70254592	62	5433
2026-01-14 22:17:33.77	39.49	11.81	-45.6	-49.0	15.3	0.00e+00	0	39	0	72351744	62	5449
2026-01-14 22:17:35.18	39.68	11.91	-45.7	-49.1	15.2	0.00e+00	0	39	0	74448896	62	5482
2026-01-14 22:17:35.89	39.77	11.95	-45.7	-49.0	15.3	0.00e+00	0	40	0	76546048	62	5455
2026-01-14 22:17:37.25	39.94	12.05	-45.6	-48.9	15.4	0.00e+00	0	39	0	78643200	62	5373
2026-01-14 22:17:38.24	40.07	12.12	-45.6	-48.9	15.4	0.00e+00	0	39	0	80740352	62	5390
2026-01-14 22:17:39.24	40.21	12.19	-45.6	-48.8	15.5	0.00e+00	0	39	0	82837504	62	5322
2026-01-14 22:17:40.23	40.34	12.25	-45.6	-48.8	15.5	0.00e+00	0	39	0	83886080	62	5308
2026-01-14 22:17:41.23	40.47	12.32	-45.6	-48.8	15.5	0.00e+00	0	39	0	85983232	62	5332
2026-01-14 22:17:42.23	40.60	12.39	-45.6	-48.8	15.5	0.00e+00	0	39	0	88080384	62	5307
2026-01-14 22:17:43.22	40.73	12.46	-45.5	-48.8	15.5	0.00e+00	0	39	0	90177536	62	5286
2026-01-14 22:17:44.22	40.87	12.53	-45.5	-48.7	15.6	0.00e+00	0	39	0	91226112	62	5251
2026-01-14 22:17:45.22	41.00	12.60	-45.5	-48.7	15.6	0.00e+00	0	39	0	93323264	62	5275
2026-01-14 22:17:46.34	41.15	12.68	-45.5	-48.7	15.6	0.00e+00	0	39	0	95420416	62	5269
2026-01-14 22:17:47.19	41.27	12.74	-45.6	-48.8	15.5	0.00e+00	0	40	0	97517568	62	5336
2026-01-14 22:17:48.53	41.45	12.83	-45.7	-48.9	15.4	0.00e+00	0	39	0	99614720	62	5360
2026-01-14 22:17:49.24	41.55	12.88	-45.8	-49.0	15.3	0.00e+00	0	40	0	100663296	62	5422
2026-01-14 22:17:50.76	41.76	12.98	-45.7	-48.9	15.5	0.00e+00	0	39	0	103809024	62	5341
2026-01-14 22:17:51.47	41.86	13.03	-45.6	-48.9	15.5	0.00e+00	0	39	0	104857600	62	5342
2026-01-14 22:17:52.84	42.05	13.13	-45.6	-48.8	15.5	0.00e+00	0	39	0	108003328	62	5321
2026-01-14 22:17:53.55	42.15	13.18	-45.6	-48.8	15.5	0.00e+00	0	39	0	109051904	62	5318
2026-01-14 22:17:54.83	42.33	13.27	-45.6	-48.9	15.5	0.00e+00	0	39	0	111149056	62	5341
2026-01-14 22:17:55.54	42.43	13.32	-45.6	-48.8	15.5	0.00e+00	0	39	0	113246208	62	5333
2026-01-14 22:17:56.82	42.61	13.41	-45.5	-48.7	15.6	0.00e+00	0	39	0	115343360	62	5234
2026-01-14 22:17:57.56	42.72	13.46	-45.5	-48.7	15.6	0.00e+00	0	39	0	116391936	62	5264
2026-01-14 22:17:59.00	42.93	13.56	-45.6	-48.8	15.6	0.00e+00	0	39	0	119537664	62	5280
2026-01-14 22:17:59.71	43.03	13.61	-45.5	-48.7	15.7	0.00e+00	0	39	0	120586240	62	5224
2026-01-14 22:18:01.05	43.22	13.70	-45.5	-48.6	15.8	0.00e+00	0	39	0	122683392	62	5171
2026-01-14 22:18:01.77	43.33	13.75	-45.5	-48.6	15.7	0.00e+00	0	39	0	124780544	62	5210
2026-01-14 22:18:03.05	43.51	13.84	-45.6	-48.8	15.6	0.00e+00	0	39	0	126877696	62	5296
2026-01-14 22:18:04.06	43.66	13.92	-45.6	-48.8	15.6	0.00e+00	0	40	0	128974848	62	5300
2026-01-14 22:18:05.35	43.85	14.01	-45.5	-48.7	15.7	0.00e+00	0	39	0	131072000	62	5256
2026-01-14 22:18:06.07	43.96	14.06	-45.6	-48.7	15.7	0.00e+00	0	39	0	132120576	62	5263
2026-01-14 22:18:07.69	44.20	14.17	-45.5	-48.6	15.8	0.00e+00	0	39	0	135266304	62	5180
2026-01-14 22:18:08.26	44.29	14.21	-45.5	-48.7	15.7	0.00e+00	0	39	0	136314880	62	5223
2026-01-14 22:18:09.96	44.55	14.33	-45.5	-48.7	15.7	0.00e+00	0	39	0	139460608	62	5252
2026-01-14 22:18:10.64	44.65	14.38	-45.6	-48.8	15.6	0.00e+00	0	40	0	141557760	62	5285
2026-01-14 22:18:12.07	44.87	14.48	-45.6	-48.7	15.7	0.00e+00	0	39	0	143654912	62	5264
2026-01-14 22:18:12.85	44.99	14.53	-45.5	-48.7	15.7	0.00e+00	0	39	0	145752064	62	5219
2026-01-14 22:18:14.02	45.17	14.62	-45.5	-48.6	15.8	0.00e+00	0	39	0	147849216	62	5193
2026-01-14 22:18:14.88	45.30	14.68	-45.5	-48.6	15.7	0.00e+00	0	40	0	148897792	62	5211
2026-01-14 22:18:16.01	45.47	14.76	-45.6	-48.7	15.7	0.00e+00	0	39	0	150994944	62	5247
2026-01-14 22:18:16.87	45.61	14.82	-45.5	-48.7	15.7	0.00e+00	0	39	0	153092096	62	5235
2026-01-14 22:18:18.01	45.79	14.90	-45.5	-48.6	15.8	0.00e+00	0	39	0	155189248	62	5209
2026-01-14 22:18:18.86	45.92	14.96	-45.5	-48.6	15.8	0.00e+00	0	40	0	156237824	62	5192
2026-01-14 22:18:20.00	46.10	15.04	-45.5	-48.6	15.8	0.00e+00	0	39	0	158334976	62	5183
2026-01-14 22:18:20.85	46.24	15.10	-45.5	-48.6	15.8	0.00e+00	0	39	0	160432128	62	5200
2026-01-14 22:18:21.99	46.42	15.18	-45.5	-48.6	15.8	0.00e+00	0	39	0	162529280	62	5174
2026-01-14 22:18:22.84	46.55	15.24	-45.4	-48.6	15.9	0.00e+00	0	40	0	163577856	62	5172
2026-01-14 22:18:24.09	46.76	15.33	-45.4	-48.5	15.9	0.00e+00	0	40	0	166723584	62	5153
2026-01-14 22:18:24.94	46.89	15.39	-45.4	-48.6	15.8	0.00e+00	0	40	0	167772160	62	5183
2026-01-14 22:18:26.08	47.08	15.47	-45.4	-48.6	15.8	0.00e+00	0	39	0	169869312	62	5186
2026-01-14 22:18:26.93	47.22	15.53	-45.4	-48.6	15.8	0.00e+00	0	40	0	171966464	62	5176
2026-01-14 22:18:28.07	47.41	15.61	-45.5	-48.6	15.8	0.00e+00	0	39	0	174063616	62	5210
2026-01-14 22:18:28.92	47.55	15.67	-45.4	-48.5	15.8	0.00e+00	0	40	0	175112192	62	5151
2026-01-14 22:18:30.06	47.73	15.75	-45.4	-48.5	15.9	0.00e+00	0	40	0	177209344	62	5132
2026-01-14 22:18:30.91	47.88	15.81	-45.3	-48.4	16.0	0.00e+00	0	40	0	179306496	62	5071
2026-01-14 22:18:32.05	48.07	15.89	-45.4	-48.4	16.0	0.00e+00	0	40	0	181403648	62	5074
2026-01-14 22:18:33.10	48.24	15.96	-45.4	-48.5	15.9	0.00e+00	0	40	0	183500800	62	5119
2026-01-14 22:18:34.04	48.40	16.03	-45.4	-48.4	16.0	0.00e+00	0	40	0	185597952	62	5080
2026-01-14 22:18:35.04	48.57	16.10	-45.4	-48.4	16.0	0.00e+00	0	40	0	186646528	62	5092
2026-01-14 22:18:36.03	48.74	16.17	-45.4	-48.4	16.0	0.00e+00	0	40	0	188743680	62	5088
2026-01-14 22:18:37.03	48.91	16.24	-45.4	-48.5	15.9	0.00e+00	0	39	0	190840832	62	5132
2026-01-14 22:18:38.02	49.08	16.31	-45.4	-48.4	16.0	0.00e+00	0	40	0	192937984	62	5063
2026-01-14 22:18:39.02	49.25	16.38	-45.3	-48.3	16.1	0.00e+00	0	39	0	193986560	62	5012
2026-01-14 22:18:40.02	49.43	16.45	-45.2	-48.2	16.2	0.00e+00	0	39	0	196083712	62	4938
2026-01-14 22:18:41.01	49.60	16.52	-45.2	-48.1	16.3	0.00e+00	0	39	0	198180864	62	4900
2026-01-14 22:18:42.01	49.77	16.59	-45.1	-48.1	16.3	0.00e+00	0	40	0	200278016	62	4873
2026-01-14 22:18:43.07	49.96	16.66	-45.1	-48.0	16.4	0.00e+00	0	40	0	202375168	62	4865
2026-01-14 22:18:43.98	50.12	16.73	-45.1	-48.1	16.3	0.00e+00	0	40	0	203423744	62	4893
2026-01-14 22:18:45.15	50.33	16.81	-45.2	-48.1	16.3	0.00e+00	0	40	0	205520896	62	4925
2026-01-14 22:18:46.00	50.48	16.87	-45.3	-48.2	16.2	0.00e+00	0	39	0	207618048	62	4983
2026-01-14 22:18:47.14	50.69	16.95	-45.3	-48.3	16.1	0.00e+00	0	39	0	209715200	62	5033
2026-01-14 22:18:48.07	50.85	17.01	-45.3	-48.3	16.1	0.00e+00	0	40	0	211812352	62	5003
2026-01-14 22:18:49.24	51.06	17.09	-45.2	-48.1	16.4	0.00e+00	0	39	0	213909504	62	4884
2026-01-14 22:18:50.10	51.22	17.15	-45.2	-48.1	16.3	0.00e+00	0	39	0	214958080	62	4904
2026-01-14 22:18:51.47	51.47	17.25	-44.9	-47.8	16.6	0.00e+00	0	39	0	218103808	61	5018
2026-01-14 22:18:52.18	51.60	17.30	-44.8	-47.7	16.7	0.00e+00	0	39	0	219152384	61	4937
2026-01-14 22:18:53.46	51.84	17.39	-44.8	-47.6	16.8	0.00e+00	0	40	0	221249536	61	4918
2026-01-14 22:18:54.19	51.97	17.44	-44.7	-47.6	16.8	0.00e+00	0	39	0	223346688	61	4871
2026-01-14 22:18:55.72	52.26	17.54	-44.7	-47.5	16.8	0.00e+00	0	40	0	225443840	61	4867
2026-01-14 22:18:56.43	52.39	17.59	-44.7	-47.5	16.8	0.00e+00	0	40	0	227540992	61	4858
2026-01-14 22:18:57.71	52.63	17.68	-44.7	-47.5	16.9	0.00e+00	0	39	0	229638144	61	4822
2026-01-14 22:18:58.42	52.76	17.73	-44.7	-47.5	16.9	0.00e+00	0	40	0	230686720	61	4844
2026-01-14 22:18:59.70	53.01	17.82	-44.8	-47.6	16.8	0.00e+00	0	40	0	232783872	61	4908
2026-01-14 22:19:00.42	53.14	17.87	-44.7	-47.5	16.9	0.00e+00	0	40	0	234881024	61	4840
2026-01-14 22:19:01.70	53.39	17.96	-44.7	-47.4	17.0	0.00e+00	0	40	0	236978176	61	4799
2026-01-14 22:19:02.41	53.52	18.00	-44.6	-47.3	17.0	0.00e+00	0	39	0	238026752	61	4736
2026-01-14 22:19:03.69	53.77	18.09	-44.6	-47.3	17.1	0.00e+00	0	39	0	241172480	61	4744
2026-01-14 22:19:04.42	53.91	18.14	-44.6	-47.3	17.0	0.00e+00	0	39	0	242221056	61	4747
2026-01-14 22:19:05.69	54.16	18.23	-44.6	-47.3	17.0	0.00e+00	0	40	0	244318208	61	4753
2026-01-14 22:19:06.41	54.30	18.28	-44.6	-47.3	16.9	0.00e+00	0	40	0	245366784	61	4744
2026-01-14 22:19:07.69	54.55	18.36	-44.6	-47.4	17.0	0.00e+00	0	39	0	248512512	61	4790
2026-01-14 22:19:08.68	54.75	18.43	-44.7	-47.4	16.9	0.00e+00	0	40	0	249561088	61	4813
2026-01-14 22:19:09.96	55.00	18.52	-44.8	-47.6	16.8	0.00e+00	0	39	0	252706816	61	4889
2026-01-14 22:19:10.67	55.14	18.57	-44.8	-47.6	16.8	0.00e+00	0	40	0	253755392	61	4922
2026-01-14 22:19:12.32	55.47	18.68	-44.8	-47.6	16.8	0.00e+00	0	39	0	256901120	61	4883
2026-01-14 22:19:12.88	55.58	18.71	-44.8	-47.6	16.8	0.00e+00	0	40	0	257949696	61	4910
2026-01-14 22:19:14.59	55.93	18.83	-44.7	-47.5	16.9	0.00e+00	0	40	0	261095424	61	4822
2026-01-14 22:19:15.16	56.04	18.87	-44.7	-47.5	16.9	0.00e+00	0	40	0	262144000	61	4827
2026-01-14 22:19:16.86	56.39	18.98	-44.8	-47.6	16.8	0.00e+00	0	40	0	265289728	61	4886
2026-01-14 22:19:17.43	56.51	19.02	-44.9	-47.7	16.8	0.00e+00	0	40	0	266338304	61	4945
2026-01-14 22:19:19.42	56.92	19.15	-45.1	-48.0	16.4	0.00e+00	0	40	0	270532608	61	5145
2026-01-14 22:19:19.99	57.04	19.19	-45.2	-48.1	16.3	0.00e+00	0	40	0	271581184	61	5188
2026-01-14 22:19:21.70	57.39	19.30	-45.4	-48.4	16.0	0.00e+00	0	40	0	274726912	61	5387
2026-01-14 22:19:22.27	57.51	19.34	-45.5	-48.5	15.9	0.00e+00	0	40	0	275775488	61	5446
2026-01-14 22:19:23.97	57.87	19.45	-45.5	-48.6	15.8	0.00e+00	0	39	0	278921216	61	5517
2026-01-14 22:19:24.54	57.99	19.48	-45.5	-48.6	15.8	0.00e+00	0	39	0	279969792	61	5516
2026-01-14 22:19:26.25	58.35	19.59	-45.5	-48.6	15.9	0.00e+00	0	39	0	283115520	61	5469
2026-01-14 22:19:26.82	58.47	19.63	-45.5	-48.6	15.9	0.00e+00	0	40	0	284164096	61	5475
2026-01-14 22:19:28.49	58.83	19.74	-45.5	-48.5	15.9	0.00e+00	0	40	0	287309824	61	5460
2026-01-14 22:19:29.06	58.95	19.77	-45.5	-48.6	15.9	0.00e+00	0	40	0	288358400	61	5493
2026-01-14 22:19:30.83	59.34	19.89	-45.8	-49.0	15.6	0.00e+00	0	39	0	291504128	62	5419
2026-01-14 22:19:31.40	59.46	19.92	-45.8	-49.0	15.5	0.00e+00	0	39	0	292552704	62	5462
2026-01-14 22:19:33.10	59.83	20.03	-46.1	-49.5	15.0	0.00e+00	0	40	0	295698432	62	5739
2026-01-14 22:19:33.81	59.99	20.07	-46.2	-49.6	14.9	0.00e+00	0	40	0	296747008	62	5824
2026-01-14 22:19:35.09	60.27	20.15	-46.3	-49.9	14.6	7.00e-07	0	40	0	299892736	63	5692
2026-01-14 22:19:35.80	60.43	20.20	-46.4	-50.0	14.5	0.00e+00	0	40	0	300941312	63	5753
2026-01-14 22:19:37.08	60.71	20.28	-46.4	-50.0	14.5	0.00e+00	0	40	0	303038464	63	5758
2026-01-14 22:19:38.09	60.94	20.34	-46.4	-50.0	14.5	0.00e+00	0	39	0	305135616	63	5773
2026-01-14 22:19:39.08	61.16	20.40	-46.5	-50.0	14.5	0.00e+00	0	40	0	307232768	63	5781
2026-01-14 22:19:40.08	61.38	20.46	-46.4	-49.9	14.6	0.00e+00	0	40	0	309329920	63	5690
2026-01-14 22:19:41.07	61.61	20.52	-46.2	-49.6	14.9	0.00e+00	0	40	0	310378496	63	5525
2026-01-14 22:19:42.07	61.83	20.58	-46.0	-49.4	15.1	7.00e-07	0	39	0	312475648	63	5341
2026-01-14 22:19:43.06	62.06	20.64	-46.0	-49.2	15.2	0.00e+00	0	40	0	314572800	63	5274
2026-01-14 22:19:44.07	62.29	20.70	-46.0	-49.2	15.3	0.00e+00	0	40	0	316669952	63	5249
2026-01-14 22:19:45.07	62.52	20.76	-46.0	-49.3	15.3	0.00e+00	0	40	0	317718528	63	5303
2026-01-14 22:19:46.06	62.74	20.82	-46.0	-49.3	15.2	7.00e-07	0	40	0	319815680	63	5297
2026-01-14 22:19:47.12	62.99	20.88	-46.0	-49.2	15.3	0.00e+00	0	39	0	321912832	63	5264
2026-01-14 22:19:48.02	63.20	20.94	-46.0	-49.3	15.2	0.00e+00	0	39	0	324009984	63	5293
2026-01-14 22:19:49.28	63.49	21.01	-45.9	-49.1	15.4	0.00e+00	0	39	0	326107136	63	5209
2026-01-14 22:19:50.07	63.68	21.06	-45.8	-49.1	15.4	0.00e+00	0	40	0	327155712	63	5172
2026-01-14 22:19:51.43	63.99	21.14	-45.9	-49.1	15.4	0.00e+00	0	40	0	330301440	63	5204
2026-01-14 22:19:52.14	64.16	21.18	-45.9	-49.2	15.4	0.00e+00	0	39	0	331350016	63	5225
2026-01-14 22:19:53.42	64.46	21.25	-45.7	-48.8	15.7	0.00e+00	0	39	0	333447168	63	5041
2026-01-14 22:19:54.16	64.64	21.29	-45.5	-48.7	15.8	0.00e+00	0	39	0	335544320	63	4940
2026-01-14 22:19:55.66	65.00	21.37	-45.3	-48.3	16.2	0.00e+00	0	39	0	337641472	62	5025
2026-01-14 22:19:56.37	65.17	21.41	-45.4	-48.3	16.2	0.00e+00	0	40	0	339738624	62	5015
2026-01-14 22:19:57.74	65.49	21.49	-45.4	-48.3	16.2	0.00e+00	0	40	0	341835776	62	5011
2026-01-14 22:19:58.70	65.73	21.54	-45.4	-48.4	16.2	0.00e+00	0	40	0	343932928	62	5042
2026-01-14 22:20:00.01	66.04	21.61	-45.5	-48.5	16.0	0.00e+00	0	39	0	346030080	62	5136
2026-01-14 22:20:00.76	66.22	21.65	-45.6	-48.7	15.8	0.00e+00	0	40	0	348127232	62	5246
2026-01-14 22:20:02.03	66.53	21.72	-45.9	-49.2	15.4	0.00e+00	0	40	0	350224384	62	5540
2026-01-14 22:20:02.83	66.73	21.77	-46.0	-49.3	15.3	0.00e+00	0	40	0	351272960	62	5604
2026-01-14 22:20:03.98	67.01	21.83	-46.0	-49.3	15.2	0.00e+00	0	40	0	353370112	62	5631
2026-01-14 22:20:04.84	67.22	21.87	-46.0	-49.3	15.2	0.00e+00	0	40	0	355467264	62	5603
2026-01-14 22:20:05.97	67.50	21.93	-46.0	-49.2	15.3	0.00e+00	0	40	0	357564416	62	5564
2026-01-14 22:20:06.82	67.71	21.97	-45.9	-49.1	15.4	0.00e+00	0	40	0	358612992	62	5490
2026-01-14 22:20:07.96	68.00	22.03	-45.8	-49.0	15.5	0.00e+00	0	40	0	360710144	62	5417
2026-01-14 22:20:08.81	68.21	22.08	-45.8	-48.9	15.6	0.00e+00	0	40	0	362807296	62	5376
2026-01-14 22:20:09.98	68.50	22.13	-45.8	-48.9	15.6	0.00e+00	0	40	0	364904448	62	5358
2026-01-14 22:20:10.84	68.72	22.18	-45.7	-48.8	15.7	0.00e+00	0	40	0	367001600	62	5340
2026-01-14 22:20:11.97	69.00	22.23	-45.6	-48.7	15.8	0.00e+00	0	40	0	369098752	62	5260
2026-01-14 22:20:12.83	69.22	22.27	-45.7	-48.8	15.7	0.00e+00	0	40	0	370147328	62	5290
2026-01-14 22:20:14.09	69.54	22.34	-45.7	-48.7	15.8	0.00e+00	0	40	0	372244480	62	5268
2026-01-14 22:20:14.88	69.74	22.37	-45.7	-48.8	15.7	0.00e+00	0	40	0	374341632	62	5321
2026-01-14 22:20:16.06	70.04	22.43	-45.7	-48.8	15.7	0.00e+00	0	40	0	376438784	62	5322
2026-01-14 22:20:16.91	70.25	22.47	-45.7	-48.8	15.7	0.00e+00	0	40	0	377487360	62	5298
2026-01-14 22:20:18.05	70.55	22.52	-45.7	-48.8	15.8	0.00e+00	0	40	0	379584512	62	5284
2026-01-14 22:20:18.91	70.77	22.56	-45.6	-48.7	15.8	0.00e+00	0	40	0	381681664	62	5248
2026-01-14 22:20:20.04	71.06	22.61	-45.5	-48.6	16.0	0.00e+00	0	40	0	383778816	62	5178
2026-01-14 22:20:20.89	71.28	22.65	-45.5	-48.6	16.0	0.00e+00	0	40	0	385875968	62	5173
2026-01-14 22:20:22.03	71.57	22.70	-45.4	-48.4	16.1	0.00e+00	0	40	0	387973120	62	5059
2026-01-14 22:20:23.09	71.85	22.75	-45.3	-48.2	16.2	0.00e+00	0	40	0	390070272	62	4974
2026-01-14 22:20:24.12	72.12	22.79	-45.3	-48.3	16.2	0.00e+00	0	40	0	391118848	62	5010
2026-01-14 22:20:25.11	72.38	22.84	-45.3	-48.2	16.3	0.00e+00	0	39	0	393216000	62	4968
2026-01-14 22:20:26.11	72.64	22.88	-45.4	-48.3	16.2	0.00e+00	0	40	0	395313152	62	5018
2026-01-14 22:20:27.10	72.90	22.92	-45.4	-48.3	16.2	0.00e+00	0	39	0	397410304	62	5019
2026-01-14 22:20:28.10	73.16	22.96	-45.4	-48.4	16.1	0.00e+00	0	40	0	398458880	62	5083
2026-01-14 22:20:29.09	73.42	23.00	-45.5	-48.5	16.0	0.00e+00	0	39	0	400556032	62	5138
2026-01-14 22:20:30.09	73.69	23.04	-45.5	-48.5	16.0	0.00e+00	0	40	0	402653184	62	5142
2026-01-14 22:20:31.09	73.96	23.08	-45.6	-48.6	15.9	0.00e+00	0	40	0	404750336	62	5185
2026-01-14 22:20:32.08	74.22	23.12	-45.6	-48.6	15.9	0.00e+00	0	40	0	406847488	62	5196
2026-01-14 22:20:33.08	74.49	23.16	-45.6	-48.7	15.8	0.00e+00	0	40	0	407896064	62	5263
2026-01-14 22:20:34.08	74.75	23.19	-45.7	-48.8	15.7	0.00e+00	0	40	0	409993216	62	5337
2026-01-14 22:20:35.07	75.02	23.23	-45.7	-48.8	15.8	0.00e+00	0	40	0	412090368	62	5302
2026-01-14 22:20:36.07	75.29	23.27	-45.8	-48.9	15.6	0.00e+00	0	40	0	414187520	62	5396
2026-01-14 22:20:37.16	75.58	23.31	-45.9	-49.1	15.4	0.00e+00	0	39	0	416284672	62	5520
2026-01-14 22:20:38.01	75.81	23.34	-45.9	-49.1	15.4	0.00e+00	0	40	0	417333248	62	5490
2026-01-14 22:20:39.15	76.12	23.38	-46.0	-49.3	15.2	0.00e+00	0	39	0	419430400	62	5649
2026-01-14 22:20:40.17	76.40	23.41	-46.0	-49.4	15.2	0.00e+00	0	40	0	421527552	62	5657
2026-01-14 22:20:41.34	76.71	23.45	-46.0	-49.4	15.1	0.00e+00	0	39	0	423624704	62	5690
2026-01-14 22:20:42.19	76.95	23.48	-46.1	-49.5	15.1	0.00e+00	0	40	0	425721856	62	5724
2026-01-14 22:20:43.33	77.26	23.52	-46.1	-49.5	15.1	0.00e+00	0	40	0	427819008	62	5726
2026-01-14 22:20:44.18	77.49	23.54	-46.2	-49.6	14.9	0.00e+00	0	40	0	428867584	62	5848
2026-01-14 22:20:45.32	77.80	23.58	-46.1	-49.5	15.0	0.00e+00	0	40	0	430964736	63	5430
2026-01-14 22:20:46.17	78.04	23.60	-46.0	-49.3	15.2	0.00e+00	0	40	0	433061888	63	5304
2026-01-14 22:20:47.75	78.47	23.65	-45.8	-48.9	15.6	0.00e+00	0	40	0	436207616	63	5088
2026-01-14 22:20:48.41	78.65	23.67	-45.7	-48.8	15.7	0.00e+00	0	40	0	437256192	63	5030
2026-01-14 22:20:49.83	79.05	23.71	-45.6	-48.7	15.8	0.00e+00	0	40	0	439353344	63	4949
2026-01-14 22:20:50.54	79.24	23.73	-45.4	-48.5	16.0	0.00e+00	0	40	0	441450496	62	5111
2026-01-14 22:20:51.82	79.60	23.76	-45.3	-48.2	16.3	0.00e+00	0	40	0	443547648	62	4966
2026-01-14 22:20:52.53	79.80	23.78	-45.3	-48.2	16.3	0.00e+00	0	40	0	444596224	62	4980
2026-01-14 22:20:53.81	80.15	23.81	-45.3	-48.2	16.3	0.00e+00	0	40	0	446693376	62	4954
2026-01-14 22:20:54.60	80.37	23.83	-45.3	-48.3	16.2	0.00e+00	0	39	0	448790528	62	5018
2026-01-14 22:20:55.81	80.71	23.86	-45.3	-48.3	16.3	0.00e+00	0	39	0	450887680	62	4998
2026-01-14 22:20:56.79	80.98	23.89	-45.2	-48.2	16.3	0.00e+00	0	40	0	452984832	62	4965
2026-01-14 22:20:57.79	81.26	23.91	-45.2	-48.2	16.3	0.00e+00	0	40	0	455081984	62	4933
2026-01-14 22:20:58.79	81.54	23.93	-45.1	-48.1	16.4	0.00e+00	0	40	0	456130560	62	4920
2026-01-14 22:20:59.78	81.82	23.95	-45.0	-48.0	16.5	0.00e+00	0	40	0	458227712	61	5109
2026-01-14 22:21:00.78	82.10	23.97	-44.9	-47.8	16.7	0.00e+00	0	39	0	460324864	61	5022
2026-01-14 22:21:01.77	82.38	23.99	-45.0	-48.0	16.5	0.00e+00	0	39	0	462422016	61	5125
2026-01-14 22:21:02.77	82.67	24.01	-45.1	-48.2	16.3	0.00e+00	0	40	0	463470592	61	5232
2026-01-14 22:21:03.77	82.95	24.03	-45.4	-48.6	15.9	0.00e+00	0	40	0	465567744	61	5482
2026-01-14 22:21:04.76	83.23	24.05	-45.6	-48.8	15.7	0.00e+00	0	39	0	467664896	61	5634
2026-01-14 22:21:05.76	83.51	24.07	-45.5	-48.8	15.7	0.00e+00	0	40	0	469762048	61	5631
2026-01-14 22:21:06.75	83.79	24.08	-45.6	-49.0	15.5	0.00e+00	0	40	0	471859200	61	5725
2026-01-14 22:21:07.75	84.07	24.10	-45.5	-48.7	15.8	0.00e+00	0	40	0	472907776	61	5587
2026-01-14 22:21:08.74	84.36	24.11	-45.2	-48.4	16.1	0.00e+00	0	40	0	475004928	61	5365
2026-01-14 22:21:09.86	84.67	24.13	-45.1	-48.2	16.2	0.00e+00	0	40	0	477102080	61	5274
2026-01-14 22:21:10.72	84.92	24.14	-45.1	-48.1	16.4	0.00e+00	0	39	0	479199232	61	5186
2026-01-14 22:21:11.86	85.24	24.16	-45.1	-48.1	16.3	0.00e+00	0	40	0	481296384	61	5194
2026-01-14 22:21:12.71	85.49	24.17	-45.1	-48.1	16.3	0.00e+00	0	40	0	482344960	61	5196
2026-01-14 22:21:13.85	85.81	24.18	-45.1	-48.2	16.3	0.00e+00	0	40	0	484442112	61	5220
2026-01-14 22:21:14.70	86.05	24.19	-45.2	-48.3	16.2	0.00e+00	0	40	0	486539264	61	5308
2026-01-14 22:21:15.84	86.38	24.20	-45.2	-48.4	16.1	0.00e+00	0	40	0	488636416	61	5377
2026-01-14 22:21:16.69	86.62	24.21	-45.3	-48.5	16.0	0.00e+00	0	40	0	489684992	61	5423
2026-01-14 22:21:17.83	86.95	24.22	-45.4	-48.6	15.9	0.00e+00	0	40	0	491782144	61	5507
2026-01-14 22:21:18.68	87.19	24.22	-45.4	-48.6	15.9	0.00e+00	0	40	0	493879296	61	5503
2026-01-14 22:21:19.82	87.52	24.23	-45.4	-48.6	15.9	0.00e+00	0	40	0	495976448	61	5490
2026-01-14 22:21:20.67	87.76	24.24	-45.3	-48.4	16.0	0.00e+00	0	40	0	498073600	61	5389
2026-01-14 22:21:21.81	88.09	24.24	-45.1	-48.2	16.3	0.00e+00	0	39	0	499122176	61	5222
2026-01-14 22:21:22.66	88.33	24.25	-45.1	-48.1	16.3	0.00e+00	0	40	0	501219328	61	5212
2026-01-14 22:21:23.80	88.66	24.25	-45.2	-48.2	16.3	0.00e+00	0	40	0	503316480	61	5259
2026-01-14 22:21:24.65	88.90	24.26	-45.3	-48.4	16.1	0.00e+00	0	40	0	505413632	61	5367
2026-01-14 22:21:26.07	89.31	24.26	-45.5	-48.6	15.9	0.00e+00	0	40	0	507510784	61	5523
2026-01-14 22:21:26.78	89.51	24.26	-45.5	-48.8	15.8	0.00e+00	0	40	0	508559360	61	5596
2026-01-14 22:21:28.06	89.88	24.26	-45.5	-48.8	15.8	0.00e+00	0	40	0	511705088	61	5600
2026-01-14 22:21:28.77	90.08	24.26	-45.6	-48.8	15.7	0.00e+00	0	40	0	512753664	61	5624
2026-01-14 22:21:30.07	90.45	24.26	-45.5	-48.7	15.8	0.00e+00	0	40	0	514850816	61	5589
2026-01-14 22:21:30.78	90.66	24.26	-45.5	-48.7	15.8	0.00e+00	0	40	0	516947968	61	5560
2026-01-14 22:21:32.44	91.13	24.26	-45.6	-48.7	15.8	0.00e+00	0	40	0	520093696	61	5563
2026-01-14 22:21:33.01	91.30	24.26	-45.4	-48.4	16.1	0.00e+00	0	39	0	520093696	61	5387
2026-01-14 22:21:34.71	91.78	24.25	-45.0	-47.9	16.6	0.00e+00	0	40	0	524288000	61	5088
2026-01-14 22:21:35.28	91.95	24.25	-45.0	-47.9	16.6	0.00e+00	0	40	0	525336576	61	5072
2026-01-14 22:21:36.98	92.44	24.24	-45.0	-48.0	16.5	0.00e+00	0	40	0	528482304	61	5105
2026-01-14 22:21:37.55	92.60	24.23	-45.2	-48.3	16.3	0.00e+00	0	40	0	529530880	61	5281
2026-01-14 22:21:39.25	93.09	24.22	-45.4	-48.4	16.1	0.00e+00	0	40	0	532676608	61	5393
2026-01-14 22:21:39.82	93.25	24.22	-45.5	-48.5	16.0	0.00e+00	0	39	0	533725184	61	5449
2026-01-14 22:21:41.51	93.73	24.20	-45.6	-48.7	15.8	0.00e+00	0	40	0	536870912	61	5556
2026-01-14 22:21:42.08	93.89	24.20	-45.7	-48.8	15.7	0.00e+00	0	40	0	537919488	62	5321
2026-01-14 22:21:43.79	94.38	24.18	-45.7	-48.8	15.8	0.00e+00	0	40	0	541065216	62	5285
2026-01-14 22:21:44.59	94.61	24.17	-45.7	-48.8	15.8	0.00e+00	0	40	0	542113792	62	5295
2026-01-14 22:21:45.73	94.94	24.16	-45.7	-48.8	15.8	0.00e+00	0	40	0	544210944	62	5304
2026-01-14 22:21:46.58	95.18	24.15	-45.7	-48.8	15.7	0.00e+00	0	40	0	546308096	62	5330
2026-01-14 22:21:47.72	95.50	24.13	-45.6	-48.7	15.9	0.00e+00	0	40	0	548405248	62	5242
2026-01-14 22:21:48.57	95.74	24.12	-45.5	-48.5	16.0	0.00e+00	0	40	0	549453824	62	5137
2026-01-14 22:21:49.71	96.07	24.10	-45.4	-48.4	16.1	0.00e+00	0	40	0	551550976	62	5070
2026-01-14 22:21:50.57	96.31	24.09	-45.4	-48.4	16.1	0.00e+00	0	40	0	553648128	62	5068
2026-01-14 22:21:51.88	96.68	24.07	-45.5	-48.6	16.0	0.00e+00	0	40	0	555745280	62	5184
2026-01-14 22:21:52.59	96.89	24.05	-45.5	-48.6	15.9	0.00e+00	0	40	0	557842432	62	5194
2026-01-14 22:21:53.87	97.25	24.03	-45.8	-48.9	15.6	0.00e+00	0	40	0	559939584	62	5378
2026-01-14 22:21:54.58	97.45	24.02	-45.9	-49.0	15.5	0.00e+00	0	40	0	560988160	62	5462
2026-01-14 22:21:56.16	97.90	23.99	-45.8	-48.9	15.6	0.00e+00	0	40	0	564133888	62	5385
2026-01-14 22:21:56.81	98.08	23.98	-45.8	-48.9	15.7	0.00e+00	0	40	0	565182464	62	5363
2026-01-14 22:21:58.23	98.48	23.95	-45.6	-48.7	15.9	0.00e+00	0	40	0	568328192	62	5225
2026-01-14 22:21:58.94	98.68	23.93	-45.4	-48.3	16.1	0.00e+00	0	40	0	569376768	62	5041
2026-01-14 22:22:00.25	99.05	23.90	-45.3	-48.3	16.2	0.00e+00	0	40	0	571473920	62	5001
2026-01-14 22:22:01.23	99.32	23.88	-45.4	-48.4	16.1	0.00e+00	0	40	0	573571072	62	5089
2026-01-14 22:22:02.54	99.69	23.85	-45.3	-48.3	16.2	0.00e+00	0	40	0	575668224	62	5029
2026-01-14 22:22:03.25	99.89	23.83	-45.3	-48.2	16.2	0.00e+00	0	40	0	577765376	62	4970
2026-01-14 22:22:04.53	100.24	23.80	-45.1	-48.0	16.5	0.00e+00	0	40	0	579862528	62	4819
2026-01-14 22:22:05.35	100.47	23.78	-44.9	-47.7	16.7	0.00e+00	0	40	0	580911104	61	4966
2026-01-14 22:22:06.48	100.79	23.75	-44.8	-47.5	16.9	0.00e+00	0	40	0	583008256	61	4858
2026-01-14 22:22:07.33	101.02	23.72	-44.8	-47.5	16.9	0.00e+00	0	40	0	585105408	61	4868
2026-01-14 22:22:08.47	101.34	23.69	-44.8	-47.6	16.9	0.00e+00	0	40	0	587202560	61	4873
2026-01-14 22:22:09.32	101.57	23.67	-44.8	-47.6	16.9	0.00e+00	0	40	0	588251136	61	4891
2026-01-14 22:22:10.46	101.89	23.63	-44.8	-47.5	16.9	0.00e+00	0	40	0	590348288	61	4869
2026-01-14 22:22:11.31	102.12	23.61	-44.9	-47.7	16.8	0.00e+00	0	40	0	592445440	61	4935
2026-01-14 22:22:12.44	102.44	23.58	-44.8	-47.6	16.9	0.00e+00	0	40	0	594542592	61	4904
2026-01-14 22:22:13.30	102.67	23.55	-44.8	-47.6	16.8	0.00e+00	0	40	0	596639744	61	4910
2026-01-14 22:22:14.43	102.98	23.51	-44.8	-47.5	16.9	0.00e+00	0	40	0	598736896	61	4869
2026-01-14 22:22:15.28	103.21	23.49	-44.7	-47.5	17.0	0.00e+00	0	40	0	599785472	61	4839
2026-01-14 22:22:16.42	103.53	23.45	-44.7	-47.4	17.1	0.00e+00	0	40	0	601882624	61	4790
2026-01-14 22:22:17.27	103.76	23.42	-44.6	-47.3	17.2	0.00e+00	0	40	0	603979776	61	4743
2026-01-14 22:22:18.41	104.07	23.38	-44.5	-47.2	17.3	0.00e+00	0	40	0	606076928	61	4656
2026-01-14 22:22:19.26	104.30	23.35	-44.4	-47.1	17.4	0.00e+00	0	40	0	607125504	60	4871
2026-01-14 22:22:20.39	104.60	23.31	-44.4	-47.1	17.4	0.00e+00	0	40	0	609222656	60	4907
2026-01-14 22:22:21.25	104.84	23.28	-44.3	-47.0	17.5	0.00e+00	0	40	0	611319808	60	4819
2026-01-14 22:22:22.38	105.14	23.24	-44.2	-46.9	17.5	0.00e+00	0	40	0	613416960	60	4793
2026-01-14 22:22:23.23	105.37	23.21	-44.2	-46.9	17.6	0.00e+00	0	40	0	614465536	60	4766
2026-01-14 22:22:24.50	105.71	23.16	-44.2	-46.8	17.7	0.00e+00	0	40	0	617611264	60	4706
2026-01-14 22:22:25.30	105.93	23.13	-44.0	-46.6	17.8	0.00e+00	0	40	0	618659840	60	4601
2026-01-14 22:22:26.52	106.25	23.08	-43.9	-46.3	18.0	0.00e+00	0	40	0	620756992	59	4759
2026-01-14 22:22:27.37	106.48	23.05	-43.7	-46.2	18.1	0.00e+00	0	40	0	622854144	59	4665
2026-01-14 22:22:28.52	106.78	23.00	-43.6	-46.0	18.3	0.00e+00	0	40	0	624951296	59	4575
2026-01-14 22:22:29.37	107.01	22.97	-43.7	-46.1	18.2	0.00e+00	0	40	0	625999872	59	4634
2026-01-14 22:22:30.57	107.33	22.92	-43.7	-46.2	18.2	0.00e+00	0	40	0	628097024	59	4684
2026-01-14 22:22:31.42	107.55	22.88	-43.8	-46.2	18.1	0.00e+00	0	40	0	630194176	59	4700
2026-01-14 22:22:32.59	107.86	22.83	-43.7	-46.2	18.2	0.00e+00	0	40	0	632291328	59	4668
2026-01-14 22:22:33.44	108.08	22.79	-43.7	-46.1	18.2	0.00e+00	0	40	0	634388480	59	4650
2026-01-14 22:22:34.61	108.39	22.74	-43.6	-46.1	18.2	0.00e+00	0	39	0	636485632	59	4603
2026-01-14 22:22:35.46	108.61	22.71	-43.6	-46.0	18.4	0.00e+00	0	40	0	637534208	59	4552
2026-01-14 22:22:36.61	108.91	22.66	-43.7	-46.1	18.2	0.00e+00	0	40	0	639631360	59	4639
2026-01-14 22:22:37.47	109.13	22.62	-43.8	-46.3	18.0	0.00e+00	0	39	0	641728512	59	4734
2026-01-14 22:22:38.65	109.44	22.56	-44.1	-46.6	17.7	0.00e+00	0	40	0	643825664	59	4907
2026-01-14 22:22:39.50	109.66	22.52	-44.3	-46.9	17.5	0.00e+00	0	40	0	644874240	59	5045
2026-01-14 22:22:40.67	109.96	22.47	-44.4	-47.1	17.3	0.00e+00	0	40	0	646971392	59	5167
2026-01-14 22:22:41.52	110.18	22.43	-44.5	-47.1	17.2	0.00e+00	0	40	0	649068544	59	5213
2026-01-14 22:22:42.69	110.47	22.37	-44.3	-46.9	17.5	0.00e+00	0	40	0	651165696	59	5069
2026-01-14 22:22:43.54	110.69	22.33	-44.2	-46.7	17.6	0.00e+00	0	40	0	653262848	59	4980
2026-01-14 22:22:44.69	110.98	22.28	-44.0	-46.5	17.9	0.00e+00	0	40	0	655360000	59	4840
2026-01-14 22:22:45.54	111.20	22.23	-44.0	-46.5	17.9	0.00e+00	0	40	0	656408576	59	4831
2026-01-14 22:22:46.68	111.49	22.18	-43.9	-46.5	17.9	0.00e+00	0	40	0	658505728	59	4823
2026-01-14 22:22:47.53	111.70	22.14	-44.0	-46.6	17.8	0.00e+00	0	40	0	660602880	59	4897
2026-01-14 22:22:48.76	112.01	22.07	-44.1	-46.6	17.7	0.00e+00	0	40	0	662700032	59	4925
2026-01-14 22:22:49.61	112.22	22.03	-44.1	-46.6	17.7	0.00e+00	0	40	0	663748608	59	4917
2026-01-14 22:22:50.75	112.51	21.97	-44.2	-46.7	17.6	0.00e+00	0	40	0	666894336	59	4966
2026-01-14 22:22:51.60	112.72	21.93	-44.2	-46.8	17.5	0.00e+00	0	40	0	667942912	59	5033
2026-01-14 22:22:52.74	113.00	21.87	-44.5	-47.2	17.2	0.00e+00	0	40	0	670040064	59	5236
2026-01-14 22:22:53.59	113.21	21.82	-44.7	-47.5	16.9	0.00e+00	0	40	0	672137216	60	5129
2026-01-14 22:22:54.72	113.49	21.76	-45.1	-48.0	16.5	0.00e+00	0	40	0	674234368	60	5414
2026-01-14 22:22:55.58	113.70	21.72	-45.2	-48.2	16.3	0.00e+00	0	40	0	675282944	61	5257
2026-01-14 22:22:56.71	113.98	21.66	-45.4	-48.5	16.0	0.00e+00	0	39	0	677380096	61	5405
2026-01-14 22:22:57.56	114.18	21.61	-45.5	-48.6	15.9	0.00e+00	0	40	0	679477248	61	5472
2026-01-14 22:22:58.70	114.46	21.55	-45.4	-48.4	16.0	0.00e+00	0	40	0	681574400	61	5398
2026-01-14 22:22:59.55	114.66	21.50	-45.5	-48.6	15.9	0.00e+00	0	40	0	682622976	61	5515
2026-01-14 22:23:00.68	114.94	21.44	-45.5	-48.6	15.9	0.00e+00	0	40	0	684720128	61	5510
2026-01-14 22:23:01.54	115.14	21.39	-45.4	-48.5	16.0	0.00e+00	0	40	0	686817280	61	5425
2026-01-14 22:23:02.67	115.41	21.33	-45.2	-48.2	16.3	0.00e+00	0	39	0	688914432	61	5232
2026-01-14 22:23:03.52	115.62	21.28	-45.1	-48.0	16.5	0.00e+00	0	40	0	689963008	61	5135
2026-01-14 22:23:04.66	115.89	21.21	-44.9	-47.7	16.7	0.00e+00	0	40	0	692060160	61	4982
2026-01-14 22:23:05.51	116.09	21.16	-44.7	-47.5	16.9	0.00e+00	0	40	0	694157312	61	4832
2026-01-14 22:23:06.65	116.36	21.10	-44.6	-47.4	17.1	0.00e+00	0	40	0	696254464	61	4775
2026-01-14 22:23:07.50	116.56	21.05	-44.6	-47.4	17.0	0.00e+00	0	40	0	697303040	61	4780
2026-01-14 22:23:08.63	116.82	20.98	-44.7	-47.5	16.9	0.00e+00	0	40	0	700448768	61	4848
2026-01-14 22:23:09.48	117.02	20.93	-44.8	-47.6	16.8	0.00e+00	0	40	0	701497344	61	4919
2026-01-14 22:23:10.62	117.29	20.87	-45.0	-47.9	16.6	0.00e+00	0	40	0	703594496	61	5061
2026-01-14 22:23:11.47	117.48	20.82	-45.1	-48.0	16.4	0.00e+00	0	40	0	705691648	61	5138
2026-01-14 22:23:12.61	117.75	20.75	-45.2	-48.1	16.3	0.00e+00	0	40	0	707788800	61	5198
2026-01-14 22:23:13.46	117.94	20.70	-45.3	-48.2	16.3	0.00e+00	0	40	0	708837376	61	5255
2026-01-14 22:23:14.60	118.20	20.63	-45.1	-48.1	16.4	0.00e+00	0	40	0	710934528	61	5166
2026-01-14 22:23:15.45	118.40	20.58	-45.3	-48.2	16.3	0.00e+00	0	40	0	713031680	61	5242
2026-01-14 22:23:16.69	118.68	20.50	-45.3	-48.3	16.1	0.00e+00	0	40	0	715128832	61	5322
2026-01-14 22:23:17.54	118.87	20.45	-45.3	-48.3	16.1	0.00e+00	0	40	0	716177408	61	5323
2026-01-14 22:23:18.76	119.15	20.37	-45.2	-48.2	16.3	0.00e+00	0	40	0	719323136	61	5222
2026-01-14 22:23:19.61	119.34	20.32	-45.1	-48.0	16.4	0.00e+00	0	40	0	720371712	61	5131
2026-01-14 22:23:20.75	119.59	20.25	-45.0	-47.9	16.5	0.00e+00	0	40	0	722468864	61	5066
2026-01-14 22:23:21.60	119.78	20.20	-44.9	-47.7	16.7	0.00e+00	0	40	0	724566016	61	4966
2026-01-14 22:23:22.73	120.03	20.13	-44.9	-47.7	16.8	0.00e+00	0	39	0	726663168	61	4940
2026-01-14 22:23:23.58	120.22	20.07	-44.9	-47.7	16.7	0.00e+00	0	40	0	727711744	61	4942
2026-01-14 22:23:24.72	120.47	20.00	-45.0	-47.8	16.6	0.00e+00	0	40	0	729808896	61	5010
2026-01-14 22:23:25.57	120.66	19.95	-45.1	-47.9	16.5	0.00e+00	0	40	0	731906048	61	5072
2026-01-14 22:23:26.71	120.91	19.87	-45.0	-47.9	16.5	0.00e+00	0	40	0	734003200	61	5084
2026-01-14 22:23:27.56	121.09	19.82	-45.0	-47.9	16.5	0.00e+00	0	39	0	735051776	61	5068
2026-01-14 22:23:28.69	121.34	19.75	-44.9	-47.8	16.6	0.00e+00	0	40	0	737148928	61	5030
2026-01-14 22:23:29.55	121.52	19.69	-44.8	-47.6	16.8	0.00e+00	0	39	0	739246080	61	4920
2026-01-14 22:23:30.68	121.77	19.62	-44.9	-47.7	16.7	0.00e+00	0	40	0	741343232	61	4929
2026-01-14 22:23:31.54	121.95	19.56	-44.9	-47.8	16.6	0.00e+00	0	40	0	742391808	61	4999
2026-01-14 22:23:32.67	122.19	19.49	-45.0	-47.9	16.6	0.00e+00	0	39	0	744488960	61	5043
2026-01-14 22:23:33.52	122.37	19.43	-45.2	-48.1	16.3	0.00e+00	0	40	0	746586112	61	5205
2026-01-14 22:23:34.66	122.61	19.36	-45.2	-48.1	16.3	0.00e+00	0	40	0	748683264	61	5194
2026-01-14 22:23:35.51	122.79	19.30	-45.2	-48.1	16.4	0.00e+00	0	40	0	750780416	61	5187
2026-01-14 22:23:36.74	123.05	19.22	-45.2	-48.1	16.3	0.00e+00	0	40	0	752877568	61	5188
2026-01-14 22:23:37.59	123.23	19.16	-45.2	-48.1	16.3	0.00e+00	0	39	0	753926144	61	5216
2026-01-14 22:23:38.73	123.47	19.09	-45.2	-48.3	16.1	0.00e+00	0	39	0	756023296	61	5333
2026-01-14 22:23:39.58	123.64	19.03	-45.5	-48.6	15.9	0.00e+00	0	40	0	758120448	61	5486
2026-01-14 22:23:40.72	123.88	18.96	-45.6	-49.1	15.4	0.00e+00	0	40	0	760217600	62	5475
2026-01-14 22:23:41.57	124.05	18.90	-46.0	-49.3	15.2	0.00e+00	0	39	0	761266176	62	5615
2026-01-14 22:23:42.70	124.28	18.82	-45.9	-49.6	14.9	0.00e+00	0	40	0	763363328	63	5492
2026-01-14 22:23:43.55	124.45	18.77	-45.7	-49.2	15.3	0.00e+00	0	39	0	765460480	63	5244
2026-01-14 22:23:44.69	124.69	18.69	-45.6	-48.8	15.7	0.00e+00	0	40	0	767557632	63	4989
2026-01-14 22:23:45.54	124.86	18.63	-45.3	-48.4	16.0	0.00e+00	0	40	0	769654784	62	5074
2026-01-14 22:23:46.68	125.09	18.55	-45.1	-48.0	16.4	0.00e+00	0	40	0	771751936	62	4870
2026-01-14 22:23:47.80	125.31	18.48	-45.1	-48.1	16.4	0.00e+00	0	40	0	773849088	62	4882
2026-01-14 22:23:48.65	125.48	18.42	-45.3	-48.3	16.1	0.00e+00	0	40	0	774897664	62	5011
2026-01-14 22:23:49.79	125.71	18.34	-45.5	-48.7	15.7	0.00e+00	0	40	0	776994816	62	5253
2026-01-14 22:23:50.64	125.87	18.28	-45.8	-49.1	15.3	0.00e+00	0	40	0	779091968	62	5498
2026-01-14 22:23:51.77	126.09	18.21	-46.0	-49.3	15.1	0.00e+00	0	40	0	781189120	62	5610
2026-01-14 22:23:52.63	126.26	18.15	-45.9	-49.2	15.3	0.00e+00	0	40	0	782237696	62	5571
2026-01-14 22:23:53.76	126.48	18.07	-45.6	-48.8	15.7	0.00e+00	0	40	0	784334848	62	5282
2026-01-14 22:23:54.61	126.65	18.01	-45.4	-48.4	16.1	0.00e+00	0	40	0	786432000	62	5043
2026-01-14 22:23:55.75	126.87	17.93	-45.2	-48.2	16.3	0.00e+00	0	40	0	788529152	62	4938
2026-01-14 22:23:56.60	127.03	17.87	-45.2	-48.1	16.4	0.00e+00	0	39	0	789577728	62	4878
2026-01-14 22:23:57.74	127.25	17.80	-45.3	-48.3	16.1	0.00e+00	0	40	0	791674880	62	5009
2026-01-14 22:23:58.59	127.41	17.74	-45.4	-48.5	15.9	0.00e+00	0	39	0	793772032	62	5151
2026-01-14 22:23:59.73	127.63	17.66	-45.8	-48.9	15.5	0.00e+00	0	40	0	795869184	62	5382
2026-01-14 22:24:00.58	127.79	17.60	-45.8	-49.1	15.3	0.00e+00	0	40	0	796917760	62	5480
2026-01-14 22:24:01.71	128.00	17.52	-45.8	-49.1	15.4	0.00e+00	0	40	0	799014912	62	5475
2026-01-14 22:24:02.74	128.19	17.45	-45.8	-48.9	15.5	0.00e+00	0	40	0	801112064	62	5402
2026-01-14 22:24:03.73	128.38	17.38	-45.6	-48.7	15.8	0.00e+00	0	40	0	803209216	62	5227
2026-01-14 22:24:04.72	128.56	17.31	-45.6	-48.7	15.8	0.00e+00	0	40	0	805306368	62	5233
2026-01-14 22:24:05.72	128.75	17.24	-45.5	-48.6	15.8	0.00e+00	0	40	0	807403520	62	5217
2026-01-14 22:24:06.71	128.93	17.17	-45.7	-48.8	15.6	0.00e+00	0	40	0	808452096	62	5312
2026-01-14 22:24:07.71	129.11	17.10	-45.8	-49.1	15.4	0.00e+00	0	40	0	810549248	62	5486
2026-01-14 22:24:08.70	129.29	17.03	-46.0	-49.4	15.1	0.00e+00	0	40	0	812646400	62	5672
2026-01-14 22:24:09.69	129.47	16.96	-46.1	-49.5	15.0	0.00e+00	0	40	0	814743552	62	5737
2026-01-14 22:24:10.68	129.65	16.89	-46.0	-49.4	15.1	0.00e+00	0	40	0	815792128	62	5660
2026-01-14 22:24:11.68	129.83	16.82	-45.7	-48.9	15.5	7.00e-07	0	40	0	817889280	62	5359
2026-01-14 22:24:12.67	130.01	16.75	-45.4	-48.5	15.9	0.00e+00	0	40	0	819986432	62	5120
2026-01-14 22:24:13.67	130.18	16.68	-45.2	-48.2	16.2	0.00e+00	0	40	0	822083584	62	4973
2026-01-14 22:24:14.66	130.36	16.61	-45.1	-48.1	16.3	0.00e+00	0	40	0	824180736	62	4888
2026-01-14 22:24:15.65	130.53	16.54	-45.2	-48.1	16.3	0.00e+00	0	40	0	825229312	62	4912
2026-01-14 22:24:16.65	130.71	16.47	-45.3	-48.4	16.0	0.00e+00	0	40	0	827326464	62	5052
2026-01-14 22:24:17.64	130.88	16.40	-45.6	-48.9	15.5	0.00e+00	0	39	0	829423616	62	5367
2026-01-14 22:24:18.63	131.06	16.33	-46.1	-49.5	15.0	0.00e+00	0	40	0	831520768	62	5735
2026-01-14 22:24:19.63	131.23	16.26	-46.4	-49.9	14.5	1.50e-06	0	40	0	832569344	63	5712
2026-01-14 22:24:20.62	131.40	16.19	-46.5	-50.2	14.2	1.50e-06	0	40	0	834666496	63	5887
2026-01-14 22:24:21.61	131.57	16.12	-46.3	-50.0	14.5	0.00e+00	0	40	0	836763648	63	5731
2026-01-14 22:24:22.61	131.74	16.05	-46.1	-49.7	14.7	0.00e+00	0	40	0	838860800	63	5531
2026-01-14 22:24:23.60	131.91	15.98	-46.0	-49.3	15.1	0.00e+00	0	40	0	840957952	63	5302
2026-01-14 22:24:24.60	132.08	15.91	-45.7	-49.0	15.4	0.00e+00	0	39	0	842006528	63	5136
2026-01-14 22:24:25.59	132.24	15.83	-45.6	-48.8	15.5	0.00e+00	0	40	0	844103680	63	5033
2026-01-14 22:24:26.59	132.41	15.76	-45.6	-48.7	15.6	0.00e+00	0	39	0	846200832	63	4983
2026-01-14 22:24:27.58	132.58	15.69	-45.6	-48.8	15.5	0.00e+00	0	40	0	848297984	63	5032
2026-01-14 22:24:28.62	132.75	15.62	-45.8	-49.2	15.3	0.00e+00	0	39	0	850395136	63	5221
2026-01-14 22:24:29.57	132.91	15.55	-45.9	-49.3	15.1	0.00e+00	0	40	0	851443712	63	5311
2026-01-14 22:24:30.56	133.07	15.48	-46.1	-49.4	15.0	0.00e+00	0	40	0	853540864	63	5400
2026-01-14 22:24:31.55	133.23	15.41	-45.9	-49.3	15.1	0.00e+00	0	40	0	855638016	63	5299
2026-01-14 22:24:32.55	133.40	15.34	-45.9	-49.2	15.2	0.00e+00	0	40	0	857735168	63	5223
2026-01-14 22:24:33.54	133.56	15.27	-45.7	-49.0	15.4	0.00e+00	0	40	0	858783744	63	5104
2026-01-14 22:24:34.53	133.72	15.20	-45.6	-48.7	15.7	0.00e+00	0	40	0	860880896	63	4945
2026-01-14 22:24:35.53	133.88	15.13	-45.5	-48.6	15.7	0.00e+00	0	40	0	862978048	63	4924
2026-01-14 22:24:36.52	134.04	15.06	-45.5	-48.6	15.8	0.00e+00	0	40	0	865075200	63	4879
2026-01-14 22:24:37.52	134.20	14.99	-45.5	-48.6	15.8	0.00e+00	0	40	0	866123776	62	5202
2026-01-14 22:24:38.51	134.35	14.91	-45.7	-48.9	15.4	0.00e+00	0	40	0	868220928	62	5391
2026-01-14 22:24:39.50	134.51	14.84	-45.9	-49.2	15.2	0.00e+00	0	40	0	870318080	62	5562
2026-01-14 22:24:40.50	134.67	14.77	-46.0	-49.5	14.9	0.00e+00	0	40	0	872415232	62	5723
2026-01-14 22:24:41.49	134.82	14.70	-46.1	-49.6	14.8	0.00e+00	0	39	0	874512384	62	5825
2026-01-14 22:24:42.48	134.98	14.63	-46.1	-49.6	14.9	7.00e-07	0	39	0	875560960	62	5789
2026-01-14 22:24:43.54	135.14	14.56	-46.0	-49.4	15.0	0.00e+00	0	40	0	877658112	62	5681
2026-01-14 22:24:44.45	135.28	14.49	-45.9	-49.3	15.1	0.00e+00	0	39	0	879755264	62	5608
2026-01-14 22:24:45.44	135.43	14.42	-45.8	-49.1	15.3	0.00e+00	0	40	0	881852416	62	5505
2026-01-14 22:24:46.44	135.59	14.35	-45.7	-49.0	15.4	0.00e+00	0	40	0	882900992	62	5416
2026-01-14 22:24:47.43	135.74	14.28	-45.7	-48.9	15.4	0.00e+00	0	40	0	884998144	62	5391
2026-01-14 22:24:48.43	135.89	14.21	-45.7	-48.9	15.4	0.00e+00	0	39	0	887095296	62	5398
2026-01-14 22:24:49.42	136.04	14.14	-45.8	-49.1	15.3	0.00e+00	0	40	0	889192448	62	5510
2026-01-14 22:24:50.41	136.19	14.07	-45.8	-49.2	15.2	0.00e+00	0	40	0	890241024	62	5567
2026-01-14 22:24:51.41	136.34	14.00	-45.9	-49.2	15.1	0.00e+00	0	40	0	892338176	62	5583
2026-01-14 22:24:52.40	136.48	13.93	-46.0	-49.4	15.0	0.00e+00	0	40	0	894435328	62	5700
2026-01-14 22:24:53.39	136.63	13.86	-46.0	-49.4	14.9	0.00e+00	0	40	0	896532480	62	5722
2026-01-14 22:24:54.39	136.78	13.79	-46.0	-49.4	14.9	0.00e+00	0	39	0	898629632	62	5692
2026-01-14 22:24:55.38	136.92	13.72	-46.0	-49.3	15.0	0.00e+00	0	40	0	899678208	62	5643
2026-01-14 22:24:56.38	137.07	13.64	-45.9	-49.2	15.1	0.00e+00	0	40	0	901775360	62	5584
2026-01-14 22:24:57.37	137.21	13.57	-45.8	-49.1	15.2	0.00e+00	0	39	0	903872512	62	5499
2026-01-14 22:24:58.36	137.36	13.50	-45.7	-49.0	15.3	0.00e+00	0	39	0	905969664	62	5449
2026-01-14 22:24:59.36	137.50	13.43	-45.6	-48.8	15.5	0.00e+00	0	40	0	907018240	62	5337
2026-01-14 22:25:00.35	137.64	13.36	-45.6	-48.9	15.4	0.00e+00	0	40	0	909115392	62	5383
2026-01-14 22:25:01.34	137.78	13.29	-45.6	-48.9	15.4	0.00e+00	0	40	0	911212544	62	5349
2026-01-14 22:25:02.34	137.93	13.22	-45.7	-48.9	15.4	0.00e+00	0	40	0	913309696	62	5391
2026-01-14 22:25:03.60	138.11	13.13	-45.7	-49.0	15.3	0.00e+00	0	40	0	915406848	62	5433
2026-01-14 22:25:04.43	138.22	13.08	-45.8	-49.1	15.2	0.00e+00	0	40	0	917504000	62	5492
2026-01-14 22:25:05.57	138.38	13.00	-45.8	-49.1	15.2	0.00e+00	0	40	0	919601152	62	5496
2026-01-14 22:25:06.42	138.50	12.94	-45.9	-49.2	15.1	0.00e+00	0	40	0	920649728	62	5565
2026-01-14 22:25:07.55	138.66	12.86	-45.9	-49.2	15.1	0.00e+00	0	40	0	922746880	62	5588
2026-01-14 22:25:08.41	138.78	12.80	-45.9	-49.2	15.2	0.00e+00	0	40	0	924844032	62	5538
2026-01-14 22:25:09.54	138.93	12.72	-46.1	-49.5	14.8	0.00e+00	0	40	0	926941184	62	5726
2026-01-14 22:25:10.39	139.05	12.66	-46.0	-49.4	14.9	0.00e+00	0	40	0	927989760	62	5675
2026-01-14 22:25:11.53	139.20	12.58	-46.0	-49.4	14.9	0.00e+00	0	40	0	930086912	62	5712
2026-01-14 22:25:12.38	139.32	12.52	-46.0	-49.5	14.8	7.00e-07	0	40	0	932184064	62	5726
2026-01-14 22:25:13.52	139.47	12.44	-46.0	-49.5	14.8	0.00e+00	0	39	0	934281216	62	5739
2026-01-14 22:25:14.37	139.59	12.38	-46.1	-49.7	14.6	0.00e+00	0	40	0	935329792	62	5863
2026-01-14 22:25:15.51	139.74	12.30	-46.2	-49.7	14.5	0.00e+00	0	40	0	937426944	63	5591
2026-01-14 22:25:16.36	139.85	12.24	-46.3	-49.9	14.2	0.00e+00	0	39	0	939524096	63	5676
2026-01-14 22:25:17.61	140.02	12.15	-46.3	-49.9	14.4	7.00e-07	0	39	0	941621248	63	5702
2026-01-14 22:25:18.46	140.13	12.09	-46.3	-50.0	14.3	0.00e+00	0	39	0	943718400	63	5748
2026-01-14 22:25:19.67	140.29	12.01	-46.4	-50.1	14.2	7.00e-07	0	39	0	945815552	63	5809
2026-01-14 22:25:20.52	140.40	11.95	-46.2	-49.9	14.4	7.00e-07	0	40	0	946864128	63	5715
2026-01-14 22:25:21.72	140.56	11.87	-46.3	-50.0	14.2	1.50e-06	0	40	0	950009856	63	5788
2026-01-14 22:25:22.57	140.67	11.81	-46.3	-49.9	14.4	0.00e+00	0	39	0	951058432	63	5704
2026-01-14 22:25:23.71	140.81	11.73	-46.2	-49.8	14.5	7.00e-07	0	40	0	953155584	63	5649
2026-01-14 22:25:24.56	140.92	11.67	-46.1	-49.8	14.5	7.00e-07	0	40	0	955252736	63	5604
2026-01-14 22:25:25.69	141.07	11.59	-46.1	-49.7	14.6	0.00e+00	0	40	0	957349888	63	5558
2026-01-14 22:25:26.55	141.18	11.53	-46.1	-49.6	14.7	0.00e+00	0	40	0	958398464	63	5501
2026-01-14 22:25:27.68	141.32	11.45	-46.2	-49.8	14.4	0.00e+00	0	39	0	960495616	63	5630
2026-01-14 22:25:28.53	141.43	11.39	-46.2	-49.8	14.4	0.00e+00	0	40	0	962592768	63	5652
2026-01-14 22:25:29.67	141.57	11.32	-46.3	-50.0	14.3	7.00e-07	0	40	0	964689920	63	5740
2026-01-14 22:25:30.52	141.68	11.26	-46.3	-50.0	14.2	7.00e-07	0	40	0	965738496	63	5775
2026-01-14 22:25:31.65	141.82	11.18	-46.4	-50.1	14.2	1.50e-06	0	40	0	967835648	63	5826
2026-01-14 22:25:32.51	141.92	11.12	-46.6	-50.4	13.9	1.50e-06	0	40	0	969932800	63	6015
2026-01-14 22:25:33.64	142.06	11.04	-46.6	-50.5	13.6	3.80e-06	0	40	0	972029952	64	5766
2026-01-14 22:25:34.49	142.17	10.98	-46.7	-50.6	13.6	5.30e-06	0	39	0	973078528	64	5818
2026-01-14 22:25:35.63	142.30	10.91	-46.8	-50.8	13.3	1.83e-05	0	40	0	975175680	64	5950
2026-01-14 22:25:36.48	142.41	10.85	-46.9	-51.0	13.1	1.52e-05	0	40	0	977272832	64	6077
2026-01-14 22:25:37.61	142.54	10.77	-46.9	-51.0	13.1	3.05e-05	0	39	0	979369984	64	6117
2026-01-14 22:25:38.47	142.65	10.71	-47.1	-51.3	12.8	4.04e-05	0	40	0	980418560	64	6301
2026-01-14 22:25:39.60	142.78	10.63	-47.0	-51.3	12.9	6.40e-05	0	40	0	982515712	64	6285
2026-01-14 22:25:40.46	142.89	10.58	-47.1	-51.5	12.6	6.25e-05	0	40	0	984612864	64	6436
2026-01-14 22:25:41.59	143.02	10.50	-47.1	-51.5	12.6	1.14e-04	0	39	0	986710016	64	6471
2026-01-14 22:25:42.44	143.12	10.44	-47.0	-51.5	12.6	1.12e-04	0	40	0	988807168	64	6446
2026-01-14 22:25:43.58	143.26	10.36	-47.1	-51.4	12.7	8.54e-05	0	40	0	990904320	64	6405
2026-01-14 22:25:44.43	143.36	10.31	-47.0	-51.3	12.8	6.25e-05	0	39	0	991952896	64	6334
2026-01-14 22:25:45.57	143.49	10.23	-46.9	-51.3	12.8	6.79e-05	0	40	0	994050048	64	6327
2026-01-14 22:25:46.42	143.59	10.17	-46.9	-51.3	12.8	5.11e-05	0	40	0	996147200	64	6293
2026-01-14 22:25:47.55	143.72	10.10	-46.9	-51.3	12.8	6.79e-05	0	40	0	998244352	64	6298
2026-01-14 22:25:48.41	143.82	10.04	-47.0	-51.4	12.7	6.25e-05	0	40	0	999292928	64	6360
2026-01-14 22:25:49.54	143.95	9.96	-47.0	-51.3	12.8	6.56e-05	0	40	0	1001390080	64	6299
2026-01-14 22:25:50.39	144.04	9.90	-46.9	-51.2	12.9	5.18e-05	0	40	0	1003487232	64	6204
2026-01-14 22:25:51.53	144.17	9.83	-46.9	-51.2	12.9	4.50e-05	0	40	0	1005584384	64	6243
2026-01-14 22:25:52.38	144.27	9.77	-47.0	-51.3	12.8	4.65e-05	0	39	0	1006632960	64	6303
2026-01-14 22:25:53.51	144.40	9.69	-46.9	-51.3	12.8	5.41e-05	0	40	0	1008730112	64	6284
2026-01-14 22:25:54.37	144.49	9.64	-46.9	-51.3	12.8	5.18e-05	0	40	0	1010827264	64	6307
2026-01-14 22:25:55.50	144.62	9.56	-46.8	-51.1	13.0	5.03e-05	0	40	0	1012924416	64	6171
2026-01-14 22:25:56.43	144.72	9.50	-46.8	-51.2	12.9	4.95e-05	0	40	0	1015021568	64	6219
2026-01-14 22:25:57.60	144.85	9.42	-46.6	-50.9	13.1	2.59e-05	0	40	0	1017118720	64	6035
2026-01-14 22:25:58.45	144.95	9.36	-46.6	-50.9	13.1	2.13e-05	0	40	0	1018167296	64	6037
2026-01-14 22:25:59.59	145.07	9.29	-46.6	-50.9	13.1	2.51e-05	0	39	0	1020264448	64	6037
2026-01-14 22:26:00.44	145.16	9.23	-46.5	-50.7	13.3	1.29e-05	0	40	0	1022361600	64	5921
2026-01-14 22:26:01.57	145.29	9.16	-46.6	-50.8	13.3	1.37e-05	0	40	0	1024458752	64	5958
2026-01-14 22:26:02.43	145.38	9.10	-46.7	-50.9	13.1	2.59e-05	0	40	0	1025507328	64	6054
2026-01-14 22:26:03.56	145.50	9.03	-46.8	-51.3	12.8	3.66e-05	0	40	0	1027604480	64	6322
2026-01-14 22:26:04.42	145.59	8.97	-50.2	-65.0	3.8	1.46e+00	0	40	104	1028653056	71	20413
2026-01-14 22:26:05.55	145.71	8.89	-50.3	-65.7	3.8	1.49e+00	0	40	104	1028653056	71	22113
2026-01-14 22:26:06.40	145.81	8.84	-50.6	-65.8	3.8	1.49e+00	0	40	104	1028653056	71	22466
2026-01-14 22:26:07.54	145.93	8.76	-50.6	-65.9	3.8	1.49e+00	0	40	104	1028653056	71	22689
2026-01-14 22:26:08.39	146.02	8.71	-50.6	-65.9	3.8	1.49e+00	0	39	104	1028653056	72	21390
2026-01-14 22:26:09.59	146.14	8.63	-50.6	-66.0	3.8	1.49e+00	0	40	104	1028653056	72	21636
2026-01-14 22:26:10.44	146.23	8.57	-50.6	-66.0	3.8	1.49e+00	0	40	104	1028653056	72	21600
2026-01-14 22:26:11.65	146.36	8.49	-50.8	-66.0	3.8	1.49e+00	0	40	104	1028653056	72	21676
2026-01-14 22:26:12.51	146.45	8.44	-50.8	-66.1	3.8	1.49e+00	0	40	104	1028653056	72	21756
2026-01-14 22:26:13.72	146.57	8.36	-50.8	-66.0	3.8	1.49e+00	0	40	104	1028653056	72	21750
2026-01-14 22:26:14.58	146.66	8.30	-50.7	-66.1	3.8	1.49e+00	0	40	104	1028653056	72	21812
2026-01-14 22:26:15.71	146.77	8.23	-50.7	-66.1	3.8	1.49e+00	0	39	104	1028653056	72	21790
2026-01-14 22:26:16.56	146.86	8.17	-50.7	-66.1	3.8	1.49e+00	0	40	104	1028653056	72	21904
2026-01-14 22:26:17.70	146.98	8.10	-50.9	-66.1	3.8	1.49e+00	0	39	104	1028653056	72	21860
2026-01-14 22:26:18.55	147.06	8.04	-50.9	-66.1	3.8	1.49e+00	0	40	104	1028653056	72	21894
2026-01-14 22:26:19.69	147.18	7.97	-50.7	-66.1	3.8	1.49e+00	0	40	104	1028653056	72	21833
2026-01-14 22:26:20.54	147.26	7.92	-50.7	-66.1	3.8	1.49e+00	0	39	104	1028653056	72	21938
2026-01-14 22:26:21.68	147.38	7.84	-50.8	-66.1	3.8	1.49e+00	0	40	104	1028653056	72	21840
2026-01-14 22:26:22.53	147.46	7.79	-50.8	-66.1	3.8	1.49e+00	0	40	104	1028653056	72	21891
2026-01-14 22:26:23.67	147.57	7.71	-50.8	-66.1	3.8	1.49e+00	0	40	104	1028653056	72	21866
2026-01-14 22:26:24.52	147.66	7.66	-50.6	-66.0	3.8	1.49e+00	0	40	104	1028653056	72	21752
2026-01-14 22:26:25.65	147.77	7.59	-50.6	-66.1	3.8	1.49e+00	0	40	104	1028653056	72	21787
2026-01-14 22:26:26.51	147.85	7.53	-50.6	-66.1	3.8	1.49e+00	0	40	104	1028653056	72	21823
2026-01-14 22:26:27.69	147.97	7.46	-50.6	-66.1	3.8	1.49e+00	0	40	104	1028653056	72	21834
2026-01-14 22:26:28.54	148.05	7.40	-50.6	-66.0	3.8	1.49e+00	0	40	104	1028653056	72	21718
2026-01-14 22:26:29.74	148.16	7.32	-50.6	-66.1	3.8	1.49e+00	0	40	104	1028653056	72	21791
2026-01-14 22:26:30.59	148.24	7.27	-50.6	-66.0	3.8	1.49e+00	0	40	104	1028653056	72	21646
2026-01-14 22:26:31.73	148.35	7.20	-50.6	-66.0	3.8	1.49e+00	0	40	104	1028653056	72	21669
2026-01-14 22:26:32.58	148.43	7.14	-50.6	-66.0	3.8	1.49e+00	0	40	104	1028653056	72	21695
2026-01-14 22:26:33.72	148.54	7.07	-50.6	-66.0	3.8	1.49e+00	0	40	104	1028653056	72	21663
2026-01-14 22:26:34.57	148.62	7.02	-50.6	-66.0	3.8	1.49e+00	0	40	104	1028653056	72	21742
2026-01-14 22:26:35.71	148.73	6.95	-50.6	-66.0	3.8	1.49e+00	0	40	104	1028653056	72	21748
2026-01-14 22:26:36.56	148.81	6.89	-50.6	-66.0	3.8	1.49e+00	0	40	104	1028653056	72	21657
2026-01-14 22:26:37.69	148.91	6.82	-50.6	-66.0	3.8	1.49e+00	0	40	104	1028653056	72	21691
2026-01-14 22:26:38.54	148.99	6.77	-50.6	-66.0	3.8	1.49e+00	0	40	104	1028653056	72	21680
2026-01-14 22:26:39.68	149.10	6.70	-50.6	-66.0	3.8	1.49e+00	0	40	104	1028653056	72	21743
2026-01-14 22:26:40.53	149.18	6.64	-50.6	-66.0	3.8	1.49e+00	0	40	104	1028653056	72	21702
2026-01-14 22:26:41.67	149.28	6.57	-50.6	-66.0	3.8	1.49e+00	0	40	104	1028653056	72	21689
2026-01-14 22:26:42.52	149.36	6.52	-50.6	-66.0	3.8	1.49e+00	0	40	104	1028653056	72	21600
2026-01-14 22:26:43.65	149.46	6.45	-50.6	-66.0	3.8	1.49e+00	0	40	104	1028653056	72	21692
2026-01-14 22:26:44.51	149.54	6.39	-50.6	-66.0	3.8	1.49e+00	0	40	104	1028653056	72	21666
2026-01-14 22:26:45.64	149.64	6.32	-50.6	-66.0	3.8	1.49e+00	0	40	104	1028653056	72	21715
2026-01-14 22:26:46.49	149.72	6.27	-50.6	-66.0	3.8	1.49e+00	0	40	104	1028653056	72	21742
2026-01-14 22:26:47.63	149.82	6.20	-50.6	-66.0	3.8	1.49e+00	0	40	104	1028653056	72	21691
2026-01-14 22:26:48.48	149.90	6.15	-50.6	-66.0	3.8	1.49e+00	0	40	104	1028653056	72	21678
2026-01-14 22:26:49.62	150.00	6.08	-50.6	-66.0	3.8	1.49e+00	0	40	104	1028653056	72	21626
2026-01-14 22:26:50.47	150.07	6.02	-50.6	-66.0	3.8	1.49e+00	0	40	104	1028653056	72	21676
2026-01-14 22:26:51.60	150.17	5.95	-50.6	-66.0	3.8	1.49e+00	0	40	104	1028653056	72	21722
2026-01-14 22:26:52.45	150.25	5.90	-50.6	-66.0	3.8	1.49e+00	0	40	104	1028653056	72	21649
2026-01-14 22:26:53.59	150.35	5.83	-50.6	-66.0	3.8	1.49e+00	0	40	104	1028653056	72	21630
2026-01-14 22:26:54.44	150.42	5.78	-50.6	-66.0	3.8	1.49e+00	0	40	104	1028653056	72	21665
2026-01-14 22:26:55.58	150.52	5.71	-50.6	-66.0	3.8	1.49e+00	0	39	104	1028653056	72	21664
2026-01-14 22:26:56.43	150.59	5.66	-50.6	-66.0	3.8	1.49e+00	0	40	104	1028653056	72	21592
2026-01-14 22:26:57.57	150.69	5.59	-50.6	-66.0	3.8	1.49e+00	0	40	104	1028653056	72	21740
2026-01-14 22:26:58.42	150.76	5.53	-50.6	-66.0	3.8	1.49e+00	0	40	104	1028653056	72	21695
2026-01-14 22:26:59.65	150.87	5.46	-50.6	-66.0	3.8	1.49e+00	0	40	104	1028653056	72	21696
2026-01-14 22:27:00.50	150.94	5.41	-50.6	-66.0	3.8	1.49e+00	0	40	104	1028653056	72	21583
2026-01-14 22:27:01.70	151.04	5.33	-50.6	-66.0	3.8	1.49e+00	0	40	104	1028653056	72	21729
2026-01-14 22:27:02.55	151.11	5.28	-50.6	-66.0	3.8	1.49e+00	0	40	104	1028653056	72	21655
2026-01-14 22:27:03.75	151.21	5.21	-50.6	-66.0	3.8	1.49e+00	0	40	104	1028653056	72	21621
2026-01-14 22:27:04.60	151.28	5.16	-50.6	-66.0	3.8	1.49e+00	0	40	104	1028653056	72	21645
2026-01-14 22:27:05.74	151.38	5.09	-50.6	-66.0	3.8	1.49e+00	0	40	104	1028653056	72	21724
2026-01-14 22:27:06.59	151.45	5.04	-50.6	-66.0	3.8	1.49e+00	0	40	104	1028653056	72	21572
2026-01-14 22:27:07.72	151.54	4.97	-50.6	-66.0	3.8	1.49e+00	0	40	104	1028653056	72	21630

#Closed at: 2026-01-14 22:27:08
#Recorded file [1028 MB]: D:/Data/31040_260115_011547.dat