passes_logs/2026/01/14/T1/T1__20260114_001437_NOAA_20_JPSS-1_rec.log

#Pass ID: 20260114_001437_NOAA 20 (JPSS-1)
#Satellite: NOAA 20 (JPSS-1)
#Configuration: NOAA 20
#almurnet v.1.7.20251203
#Start time: 2026-01-14 00:14:36

#Version: 2.0.20230620
#Station: T1
#Location: 37.570604 lon 55.790049 lat
#TLE: 1 43013U 17073A   26013.21545503  .00000073  00000+0  55630-4 0  9998
#TLE: 2 43013  98.7633 314.1737 0001580  41.9966 318.1331 14.19535680422486

#Time	Az	El	Level	Level2	SNR	BER	BlckErr	Temp	State	Recorded	gain1	gain2
2026-01-14 00:14:36.60	12.90	4.96	-52.4	-67.6	3.8	1.49e+00	0	41	0	0	75	21850
2026-01-14 00:14:37.59	12.88	5.03	-52.4	-67.6	3.8	1.49e+00	0	41	104	0	76	20768
2026-01-14 00:14:38.59	12.85	5.10	-52.4	-67.7	3.8	1.49e+00	0	41	104	0	76	20802
2026-01-14 00:14:39.58	12.83	5.17	-52.4	-67.6	3.8	1.49e+00	0	41	104	0	76	20755
2026-01-14 00:14:40.57	12.80	5.24	-52.4	-67.6	3.8	1.49e+00	0	41	104	0	76	20634
2026-01-14 00:14:41.57	12.78	5.31	-52.4	-67.6	3.8	1.49e+00	0	41	104	0	76	20714
2026-01-14 00:14:42.56	12.75	5.38	-52.4	-67.6	3.8	1.49e+00	0	41	104	0	76	20750
2026-01-14 00:14:43.56	12.72	5.45	-52.4	-67.6	3.8	1.49e+00	0	41	104	0	76	20735
2026-01-14 00:14:44.55	12.70	5.53	-52.4	-67.6	3.8	1.49e+00	0	41	104	0	76	20692
2026-01-14 00:14:45.54	12.67	5.60	-52.4	-67.6	3.8	1.49e+00	0	41	104	0	76	20742
2026-01-14 00:14:46.54	12.65	5.67	-52.4	-67.6	3.8	1.49e+00	0	41	104	0	76	20746
2026-01-14 00:14:47.53	12.62	5.74	-52.4	-67.7	3.8	1.49e+00	0	41	104	0	76	20777
2026-01-14 00:14:48.52	12.59	5.81	-52.4	-67.6	3.8	1.49e+00	0	41	104	0	76	20745
2026-01-14 00:14:49.52	12.56	5.88	-52.4	-67.6	3.8	1.49e+00	0	41	104	0	76	20701
2026-01-14 00:14:50.51	12.54	5.95	-52.4	-67.6	3.8	1.49e+00	0	41	104	0	76	20724
2026-01-14 00:14:51.50	12.51	6.03	-52.4	-67.6	3.8	1.49e+00	0	42	104	0	76	20754
2026-01-14 00:14:52.50	12.48	6.10	-52.4	-67.6	3.8	1.49e+00	0	41	104	0	76	20642
2026-01-14 00:14:53.49	12.46	6.17	-52.4	-67.6	3.8	1.49e+00	0	42	104	0	76	20727
2026-01-14 00:14:54.48	12.43	6.24	-52.4	-67.7	3.8	1.49e+00	0	42	104	0	76	20871
2026-01-14 00:14:55.48	12.40	6.32	-52.4	-67.6	3.8	1.49e+00	0	42	104	0	76	20747
2026-01-14 00:14:56.47	12.37	6.39	-52.4	-67.7	3.8	1.49e+00	0	42	104	0	76	20793
2026-01-14 00:14:57.47	12.34	6.46	-52.4	-67.6	3.8	1.49e+00	0	42	104	0	76	20754
2026-01-14 00:14:58.46	12.31	6.54	-52.4	-67.6	3.8	1.49e+00	0	42	104	0	76	20733
2026-01-14 00:14:59.45	12.29	6.61	-52.4	-67.6	3.8	1.49e+00	0	42	104	0	76	20731
2026-01-14 00:15:00.45	12.26	6.69	-52.4	-67.6	3.8	1.49e+00	0	42	104	0	76	20718
2026-01-14 00:15:01.44	12.23	6.76	-52.4	-67.7	3.8	1.49e+00	0	42	104	0	76	20796
2026-01-14 00:15:02.43	12.20	6.83	-52.4	-67.6	3.8	1.49e+00	0	42	104	0	76	20697
2026-01-14 00:15:03.43	12.17	6.91	-52.4	-67.6	3.8	1.49e+00	0	42	104	0	76	20741
2026-01-14 00:15:04.42	12.14	6.98	-52.4	-67.7	3.8	1.49e+00	0	42	104	0	76	20791
2026-01-14 00:15:05.41	12.11	7.06	-52.4	-67.7	3.8	1.49e+00	0	42	104	0	76	20806
2026-01-14 00:15:06.41	12.08	7.13	-52.4	-67.7	3.8	1.49e+00	0	42	104	0	76	20820
2026-01-14 00:15:07.40	12.05	7.21	-52.4	-67.6	3.8	1.49e+00	0	42	104	0	76	20688
2026-01-14 00:15:08.40	12.02	7.29	-52.4	-67.6	3.8	1.49e+00	0	42	104	0	76	20736
2026-01-14 00:15:09.39	11.99	7.36	-52.4	-67.6	3.8	1.49e+00	0	42	104	0	76	20635
2026-01-14 00:15:10.38	11.96	7.44	-52.4	-67.6	3.8	1.49e+00	0	42	104	0	76	20714
2026-01-14 00:15:11.38	11.93	7.51	-52.4	-67.6	3.8	1.49e+00	0	42	104	0	76	20776
2026-01-14 00:15:12.37	11.90	7.59	-52.4	-67.6	3.8	1.49e+00	0	42	104	0	76	20764
2026-01-14 00:15:13.36	11.87	7.67	-52.4	-67.6	3.8	1.49e+00	0	42	104	0	76	20770
2026-01-14 00:15:14.36	11.84	7.74	-52.4	-67.7	3.8	1.49e+00	0	42	104	0	76	20828
2026-01-14 00:15:15.35	11.81	7.82	-52.4	-67.7	3.8	1.49e+00	0	42	104	0	76	20784
2026-01-14 00:15:16.34	11.77	7.90	-52.4	-67.6	3.8	1.49e+00	0	42	104	0	76	20725
2026-01-14 00:15:17.34	11.74	7.98	-52.4	-67.7	3.8	1.49e+00	0	42	104	0	76	20812
2026-01-14 00:15:18.33	11.71	8.05	-52.4	-67.6	3.8	1.49e+00	0	42	104	0	76	20673
2026-01-14 00:15:19.32	11.68	8.13	-52.4	-67.6	3.8	1.49e+00	0	42	104	0	76	20767
2026-01-14 00:15:20.32	11.65	8.21	-52.4	-67.6	3.8	1.49e+00	0	43	104	0	76	20761
2026-01-14 00:15:21.31	11.61	8.29	-52.4	-67.7	3.8	1.49e+00	0	42	104	0	76	20843
2026-01-14 00:15:22.30	11.58	8.37	-52.4	-67.6	3.8	1.49e+00	0	42	104	0	76	20759
2026-01-14 00:15:23.30	11.55	8.45	-52.4	-67.6	3.8	1.49e+00	0	42	104	0	76	20700
2026-01-14 00:15:24.29	11.51	8.53	-52.4	-67.7	3.8	1.49e+00	0	42	104	0	76	20854
2026-01-14 00:15:25.28	11.48	8.61	-52.4	-67.7	3.8	1.49e+00	0	42	104	0	76	20791
2026-01-14 00:15:26.28	11.45	8.69	-52.4	-67.6	3.8	1.49e+00	0	42	104	0	76	20743
2026-01-14 00:15:27.27	11.41	8.77	-52.4	-67.7	3.8	1.49e+00	0	42	104	0	76	20801
2026-01-14 00:15:28.26	11.38	8.85	-52.4	-67.6	3.8	1.49e+00	0	42	104	0	76	20771
2026-01-14 00:15:29.26	11.34	8.93	-52.4	-67.7	3.8	1.49e+00	0	42	104	0	76	20829
2026-01-14 00:15:30.25	11.31	9.01	-52.4	-67.6	3.8	1.49e+00	0	43	104	0	76	20769
2026-01-14 00:15:31.24	11.28	9.09	-52.4	-67.6	3.8	1.49e+00	0	43	104	0	76	20743
2026-01-14 00:15:32.24	11.24	9.17	-52.4	-67.7	3.8	1.49e+00	0	43	104	0	76	20838
2026-01-14 00:15:33.23	11.21	9.25	-52.4	-67.6	3.8	1.49e+00	0	43	104	0	76	20749
2026-01-14 00:15:34.22	11.17	9.33	-52.4	-67.6	3.8	1.49e+00	0	43	104	0	76	20704
2026-01-14 00:15:35.22	11.14	9.42	-52.4	-67.6	3.8	1.49e+00	0	42	104	0	76	20748
2026-01-14 00:15:36.21	11.10	9.50	-52.4	-67.6	3.8	1.49e+00	0	43	104	0	76	20723
2026-01-14 00:15:37.20	11.06	9.58	-52.4	-67.6	3.8	1.49e+00	0	43	104	0	76	20707
2026-01-14 00:15:38.20	11.03	9.66	-52.4	-67.6	3.8	1.49e+00	0	43	104	0	76	20745
2026-01-14 00:15:39.19	10.99	9.75	-52.4	-67.6	3.8	1.49e+00	0	43	104	0	76	20735
2026-01-14 00:15:40.19	10.95	9.83	-52.4	-67.6	3.8	1.49e+00	0	43	104	0	76	20722
2026-01-14 00:15:41.18	10.92	9.91	-52.4	-67.6	3.8	1.49e+00	0	43	104	0	76	20720
2026-01-14 00:15:42.17	10.88	10.00	-52.4	-67.6	3.8	1.49e+00	0	43	104	0	76	20725
2026-01-14 00:15:43.16	10.84	10.08	-52.4	-67.7	3.8	1.49e+00	0	43	104	0	76	20781
2026-01-14 00:15:44.16	10.81	10.17	-52.4	-67.6	3.8	1.49e+00	0	43	104	0	76	20644
2026-01-14 00:15:45.15	10.77	10.25	-52.4	-67.7	3.8	1.49e+00	0	43	104	0	76	20813
2026-01-14 00:15:46.14	10.73	10.33	-52.4	-67.7	3.8	1.49e+00	0	43	104	0	76	20792
2026-01-14 00:15:47.14	10.69	10.42	-52.4	-67.6	3.8	1.49e+00	0	43	104	0	76	20674
2026-01-14 00:15:48.13	10.65	10.51	-52.4	-67.6	3.8	1.49e+00	0	43	104	0	76	20678
2026-01-14 00:15:49.12	10.61	10.59	-52.4	-67.6	3.8	1.49e+00	0	43	104	0	76	20736
2026-01-14 00:15:50.11	10.58	10.68	-52.4	-67.6	3.8	1.49e+00	0	43	104	0	76	20695
2026-01-14 00:15:51.11	10.54	10.76	-52.4	-67.6	3.8	1.49e+00	0	43	104	0	76	20750
2026-01-14 00:15:52.10	10.50	10.85	-52.4	-67.6	3.8	1.49e+00	0	43	104	0	76	20733
2026-01-14 00:15:53.09	10.46	10.94	-52.4	-67.7	3.8	1.49e+00	0	43	104	0	76	20808
2026-01-14 00:15:54.09	10.42	11.03	-52.4	-67.6	3.8	1.49e+00	0	43	104	0	76	20729
2026-01-14 00:15:55.08	10.38	11.11	-52.4	-67.7	3.8	1.49e+00	0	43	104	0	76	20783
2026-01-14 00:15:56.07	10.34	11.20	-52.4	-67.7	3.8	1.49e+00	0	43	104	0	76	20779
2026-01-14 00:15:57.06	10.29	11.29	-52.4	-67.6	3.8	1.49e+00	0	43	104	0	76	20714
2026-01-14 00:15:58.06	10.25	11.38	-52.4	-67.6	3.8	1.49e+00	0	43	104	0	76	20771
2026-01-14 00:15:59.05	10.21	11.47	-52.4	-67.7	3.8	1.49e+00	0	43	104	0	76	20777
2026-01-14 00:16:00.04	10.17	11.55	-52.4	-67.6	3.8	1.49e+00	0	43	104	0	76	20716
2026-01-14 00:16:01.04	10.13	11.64	-52.4	-67.7	3.8	1.49e+00	0	43	104	0	76	20820
2026-01-14 00:16:02.03	10.09	11.73	-52.4	-67.7	3.8	1.49e+00	0	43	104	0	76	20808
2026-01-14 00:16:03.02	10.04	11.82	-52.4	-67.6	3.8	1.49e+00	0	43	104	0	76	20613
2026-01-14 00:16:04.02	10.00	11.91	-52.4	-67.7	3.8	1.49e+00	0	43	104	0	76	20781
2026-01-14 00:16:05.01	9.96	12.00	-52.4	-67.6	3.8	1.49e+00	0	43	104	0	76	20774
2026-01-14 00:16:06.00	9.91	12.10	-52.4	-67.6	3.8	1.49e+00	0	43	104	0	76	20758
2026-01-14 00:16:06.99	9.87	12.19	-52.4	-67.7	3.8	1.49e+00	0	43	104	0	76	20801
2026-01-14 00:16:07.99	9.83	12.28	-52.4	-67.6	3.8	1.49e+00	0	43	104	0	76	20752
2026-01-14 00:16:08.98	9.78	12.37	-52.4	-67.7	3.8	1.49e+00	0	43	104	0	76	20792
2026-01-14 00:16:09.97	9.74	12.46	-52.4	-67.7	3.8	1.49e+00	0	43	104	0	76	20821
2026-01-14 00:16:10.97	9.69	12.56	-52.4	-67.6	3.8	1.49e+00	0	43	104	0	76	20718
2026-01-14 00:16:11.96	9.65	12.65	-52.4	-67.7	3.8	1.49e+00	0	43	104	0	76	20784
2026-01-14 00:16:12.95	9.60	12.74	-52.4	-67.6	3.8	1.49e+00	0	43	104	0	76	20747
2026-01-14 00:16:13.94	9.56	12.83	-52.4	-67.6	3.8	1.49e+00	0	43	104	0	76	20730
2026-01-14 00:16:14.94	9.51	12.93	-52.4	-67.7	3.8	1.49e+00	0	43	104	0	76	20826
2026-01-14 00:16:15.93	9.46	13.02	-52.4	-67.6	3.8	1.49e+00	0	43	104	0	76	20656
2026-01-14 00:16:16.93	9.42	13.12	-52.4	-67.6	3.8	1.49e+00	0	43	104	0	76	20773
2026-01-14 00:16:17.92	9.37	13.21	-52.4	-67.6	3.8	1.49e+00	0	43	104	0	76	20759
2026-01-14 00:16:18.91	9.32	13.31	-52.4	-67.7	3.8	1.49e+00	0	43	104	0	76	20804
2026-01-14 00:16:19.91	9.27	13.40	-52.4	-67.6	3.8	1.49e+00	0	43	104	0	76	20724
2026-01-14 00:16:20.90	9.23	13.50	-52.4	-67.6	3.8	1.49e+00	0	43	104	0	76	20745
2026-01-14 00:16:21.89	9.18	13.60	-52.4	-67.6	3.8	1.49e+00	0	43	104	0	76	20758
2026-01-14 00:16:22.89	9.13	13.69	-52.4	-67.7	3.8	1.49e+00	0	43	104	0	76	20834
2026-01-14 00:16:23.88	9.08	13.79	-52.4	-67.7	3.8	1.49e+00	0	43	104	0	76	20806
2026-01-14 00:16:24.87	9.03	13.89	-52.4	-67.6	3.8	1.49e+00	0	43	104	0	76	20632
2026-01-14 00:16:25.87	8.98	13.99	-52.4	-67.7	3.8	1.49e+00	0	43	104	0	76	20832
2026-01-14 00:16:26.86	8.93	14.08	-52.4	-67.6	3.8	1.49e+00	0	43	104	0	76	20747
2026-01-14 00:16:27.85	8.88	14.18	-52.4	-67.7	3.8	1.49e+00	0	43	104	0	76	20869
2026-01-14 00:16:28.85	8.83	14.28	-52.4	-67.7	3.8	1.49e+00	0	43	104	0	76	20785
2026-01-14 00:16:29.84	8.78	14.38	-52.4	-67.6	3.8	1.49e+00	0	43	104	0	76	20752
2026-01-14 00:16:30.83	8.73	14.48	-52.4	-67.6	3.8	1.49e+00	0	43	104	0	76	20700
2026-01-14 00:16:31.83	8.67	14.58	-52.4	-67.7	3.8	1.49e+00	0	43	104	0	76	20794
2026-01-14 00:16:32.82	8.62	14.68	-52.4	-67.7	3.8	1.49e+00	0	43	104	0	76	20820
2026-01-14 00:16:33.81	8.57	14.78	-52.4	-67.7	3.8	1.49e+00	0	43	104	0	76	20789
2026-01-14 00:16:34.81	8.52	14.88	-52.4	-67.6	3.8	1.49e+00	0	43	104	0	76	20739
2026-01-14 00:16:35.80	8.46	14.99	-52.4	-67.6	3.8	1.49e+00	0	43	104	0	76	20741
2026-01-14 00:16:36.79	8.41	15.09	-52.4	-67.7	3.8	1.49e+00	0	43	104	0	76	20805
2026-01-14 00:16:37.79	8.35	15.19	-52.4	-67.6	3.8	1.49e+00	0	43	104	0	76	20703
2026-01-14 00:16:38.78	8.30	15.29	-52.4	-67.6	3.8	1.49e+00	0	43	104	0	76	20734
2026-01-14 00:16:39.77	8.24	15.40	-52.4	-67.6	3.8	1.49e+00	0	43	104	0	76	20764
2026-01-14 00:16:40.77	8.19	15.50	-52.4	-67.6	3.8	1.49e+00	0	43	104	0	76	20698
2026-01-14 00:16:41.76	8.13	15.61	-52.4	-67.7	3.8	1.49e+00	0	43	104	0	76	20930
2026-01-14 00:16:42.75	8.08	15.71	-52.4	-67.6	3.8	1.49e+00	0	43	104	0	76	20759
2026-01-14 00:16:43.75	8.02	15.82	-52.4	-67.7	3.8	1.49e+00	0	43	104	0	76	20809
2026-01-14 00:16:44.74	7.96	15.92	-52.4	-67.6	3.8	1.49e+00	0	43	104	0	76	20739
2026-01-14 00:16:45.74	7.90	16.03	-52.4	-67.6	3.8	1.49e+00	0	43	104	0	76	20706
2026-01-14 00:16:46.73	7.85	16.13	-52.4	-67.6	3.8	1.49e+00	0	43	104	0	76	20738
2026-01-14 00:16:47.72	7.79	16.24	-52.4	-67.6	3.8	1.49e+00	0	43	104	0	76	20750
2026-01-14 00:16:48.72	7.73	16.35	-52.4	-67.6	3.8	1.49e+00	0	43	104	0	76	20719
2026-01-14 00:16:49.71	7.67	16.45	-52.4	-67.6	3.8	1.49e+00	0	43	104	0	76	20709
2026-01-14 00:16:50.70	7.61	16.56	-52.4	-67.7	3.8	1.49e+00	0	43	104	0	76	20777
2026-01-14 00:16:51.69	7.55	16.67	-52.4	-67.6	3.8	1.49e+00	0	43	104	0	76	20730
2026-01-14 00:16:52.69	7.49	16.78	-52.4	-67.7	3.8	1.49e+00	0	43	104	0	76	20850
2026-01-14 00:16:53.68	7.43	16.89	-52.4	-67.6	3.8	1.49e+00	0	43	104	0	76	20751
2026-01-14 00:16:54.67	7.37	17.00	-52.4	-67.6	3.8	1.49e+00	0	43	104	0	76	20739
2026-01-14 00:16:55.67	7.30	17.11	-52.4	-67.7	3.8	1.49e+00	0	43	104	0	76	20797
2026-01-14 00:16:56.66	7.24	17.22	-52.4	-67.6	3.8	1.49e+00	0	43	104	0	76	20686
2026-01-14 00:16:57.65	7.18	17.33	-52.4	-67.7	3.8	1.49e+00	0	43	104	0	76	20780
2026-01-14 00:16:58.65	7.11	17.44	-52.4	-67.7	3.8	1.49e+00	0	43	104	0	76	20838
2026-01-14 00:16:59.64	7.05	17.56	-52.4	-67.7	3.8	1.49e+00	0	43	104	0	76	20796
2026-01-14 00:17:00.64	6.98	17.67	-52.4	-67.6	3.8	1.49e+00	0	43	104	0	76	20684
2026-01-14 00:17:01.63	6.92	17.78	-52.4	-67.6	3.8	1.49e+00	0	43	104	0	76	20743
2026-01-14 00:17:02.62	6.85	17.90	-52.4	-67.6	3.8	1.49e+00	0	43	104	0	76	20769
2026-01-14 00:17:03.62	6.79	18.01	-52.4	-67.7	3.8	1.49e+00	0	43	104	0	76	20835
2026-01-14 00:17:04.61	6.72	18.12	-52.4	-67.6	3.8	1.49e+00	0	43	104	0	76	20745
2026-01-14 00:17:05.60	6.65	18.24	-52.4	-67.6	3.8	1.49e+00	0	43	104	0	76	20760
2026-01-14 00:17:06.60	6.58	18.36	-52.4	-67.6	3.8	1.49e+00	0	43	104	0	76	20687
2026-01-14 00:17:07.59	6.52	18.47	-52.4	-67.7	3.8	1.49e+00	0	43	104	0	76	20798
2026-01-14 00:17:08.58	6.45	18.59	-52.4	-67.6	3.8	1.49e+00	0	43	104	0	76	20749
2026-01-14 00:17:09.58	6.38	18.71	-52.4	-67.7	3.8	1.49e+00	0	43	104	0	76	20781
2026-01-14 00:17:10.57	6.31	18.82	-52.4	-67.7	3.8	1.49e+00	0	43	104	0	76	20812
2026-01-14 00:17:11.56	6.24	18.94	-52.4	-67.6	3.8	1.49e+00	0	43	104	0	76	20765
2026-01-14 00:17:12.56	6.16	19.06	-52.4	-67.7	3.8	1.49e+00	0	43	104	0	76	20802
2026-01-14 00:17:13.55	6.09	19.18	-52.4	-67.7	3.8	1.49e+00	0	43	104	0	76	20780
2026-01-14 00:17:14.54	6.02	19.30	-52.4	-67.6	3.8	1.49e+00	0	43	104	0	76	20754
2026-01-14 00:17:15.54	5.95	19.42	-52.4	-67.6	3.8	1.49e+00	0	43	104	0	76	20755
2026-01-14 00:17:16.53	5.87	19.54	-52.4	-67.6	3.8	1.49e+00	0	43	104	0	76	20756
2026-01-14 00:17:17.53	5.80	19.66	-52.4	-67.6	3.8	1.49e+00	0	43	104	0	76	20718
2026-01-14 00:17:18.52	5.72	19.78	-52.4	-67.6	3.8	1.49e+00	0	43	104	0	76	20768
2026-01-14 00:17:19.51	5.65	19.91	-52.4	-67.6	3.8	1.49e+00	0	44	104	0	76	20727
2026-01-14 00:17:20.50	5.57	20.03	-52.4	-67.6	3.8	1.49e+00	0	43	104	0	76	20698
2026-01-14 00:17:21.50	5.50	20.15	-52.4	-67.6	3.8	1.49e+00	0	43	104	0	76	20765
2026-01-14 00:17:22.49	5.42	20.28	-52.4	-67.6	3.8	1.49e+00	0	43	104	0	76	20706
2026-01-14 00:17:23.48	5.34	20.40	-52.4	-67.6	3.8	1.49e+00	0	43	104	0	76	20694
2026-01-14 00:17:24.48	5.26	20.53	-52.4	-67.6	3.8	1.49e+00	0	43	104	0	76	20769
2026-01-14 00:17:25.47	5.18	20.65	-52.4	-67.6	3.8	1.49e+00	0	43	104	0	76	20694
2026-01-14 00:17:26.46	5.10	20.78	-52.4	-67.7	3.8	1.49e+00	0	43	104	0	76	20789
2026-01-14 00:17:27.46	5.02	20.91	-52.4	-67.7	3.8	1.49e+00	0	43	104	0	76	20839
2026-01-14 00:17:28.45	4.94	21.03	-52.4	-67.6	3.8	1.49e+00	0	43	104	0	76	20715
2026-01-14 00:17:29.44	4.86	21.16	-52.4	-67.7	3.8	1.49e+00	0	43	104	0	76	20785
2026-01-14 00:17:30.44	4.77	21.29	-52.4	-67.7	3.8	1.49e+00	0	43	104	0	76	20860
2026-01-14 00:17:31.41	4.69	21.42	-52.4	-67.7	3.8	1.49e+00	0	43	104	0	76	20790
2026-01-14 00:17:32.41	4.61	21.55	-52.4	-67.7	3.8	1.49e+00	0	43	104	0	76	20794
2026-01-14 00:17:33.40	4.52	21.68	-52.4	-67.7	3.8	1.49e+00	0	43	104	0	76	20819
2026-01-14 00:17:34.39	4.44	21.81	-52.4	-67.7	3.8	1.49e+00	0	43	104	0	76	20810
2026-01-14 00:17:35.39	4.35	21.94	-52.4	-67.6	3.8	1.49e+00	0	43	104	0	76	20771
2026-01-14 00:17:36.38	4.26	22.07	-52.4	-67.7	3.8	1.49e+00	0	43	104	0	76	20855
2026-01-14 00:17:37.37	4.17	22.20	-52.4	-67.7	3.8	1.49e+00	0	43	104	0	76	20812
2026-01-14 00:17:38.37	4.08	22.34	-52.4	-67.6	3.8	1.49e+00	0	43	104	0	76	20765
2026-01-14 00:17:39.36	3.99	22.47	-52.4	-67.7	3.8	1.49e+00	0	43	104	0	76	20801
2026-01-14 00:17:40.35	3.90	22.61	-52.4	-67.7	3.8	1.49e+00	0	43	104	0	76	20842
2026-01-14 00:17:41.34	3.81	22.74	-52.4	-67.7	3.8	1.49e+00	0	43	104	0	76	20870
2026-01-14 00:17:42.34	3.72	22.88	-52.4	-67.6	3.8	1.49e+00	0	44	104	0	76	20692
2026-01-14 00:17:43.33	3.63	23.02	-52.4	-67.6	3.8	1.49e+00	0	43	104	0	76	20753
2026-01-14 00:17:44.32	3.53	23.15	-52.4	-67.7	3.8	1.49e+00	0	44	104	0	76	20782
2026-01-14 00:17:45.31	3.44	23.29	-52.4	-67.7	3.8	1.49e+00	0	43	104	0	76	20837
2026-01-14 00:17:46.31	3.34	23.43	-52.4	-67.7	3.8	1.49e+00	0	43	104	0	76	20830
2026-01-14 00:17:47.30	3.25	23.57	-52.4	-67.6	3.8	1.49e+00	0	43	104	0	76	20764
2026-01-14 00:17:48.29	3.15	23.71	-52.4	-67.7	3.8	1.49e+00	0	43	104	0	76	20810
2026-01-14 00:17:49.29	3.05	23.85	-52.4	-67.6	3.8	1.49e+00	0	43	104	0	76	20711
2026-01-14 00:17:50.28	2.95	23.99	-52.4	-67.6	3.8	1.49e+00	0	43	104	0	76	20691
2026-01-14 00:17:51.28	2.85	24.13	-52.4	-67.6	3.8	1.49e+00	0	43	104	0	76	20691
2026-01-14 00:17:52.27	2.75	24.28	-52.4	-67.6	3.8	1.49e+00	0	43	104	0	76	20765
2026-01-14 00:17:53.26	2.65	24.42	-52.4	-67.7	3.8	1.49e+00	0	43	104	0	76	20823
2026-01-14 00:17:54.25	2.54	24.56	-52.4	-67.6	3.8	1.49e+00	0	44	104	0	76	20768
2026-01-14 00:17:55.25	2.44	24.71	-52.4	-67.6	3.8	1.49e+00	0	43	104	0	76	20753
2026-01-14 00:17:56.24	2.34	24.85	-52.4	-67.7	3.8	1.49e+00	0	44	104	0	76	20802
2026-01-14 00:17:57.23	2.23	25.00	-52.4	-67.6	3.8	1.49e+00	0	43	104	0	76	20718
2026-01-14 00:17:58.23	2.12	25.15	-52.4	-67.7	3.8	1.49e+00	0	43	104	0	76	20805
2026-01-14 00:17:59.22	2.01	25.29	-52.4	-67.6	3.8	1.49e+00	0	43	104	0	76	20733
2026-01-14 00:18:00.21	1.90	25.44	-52.4	-67.6	3.8	1.49e+00	0	43	104	0	76	20748
2026-01-14 00:18:01.21	1.79	25.59	-52.4	-67.6	3.8	1.49e+00	0	43	104	0	76	20712
2026-01-14 00:18:02.20	1.68	25.74	-52.4	-67.7	3.8	1.49e+00	0	43	104	0	76	20805
2026-01-14 00:18:03.19	1.57	25.89	-52.4	-67.6	3.8	1.49e+00	0	43	104	0	76	20743
2026-01-14 00:18:04.18	1.46	26.04	-52.4	-67.7	3.8	1.49e+00	0	43	104	0	76	20781
2026-01-14 00:18:05.18	1.34	26.19	-52.4	-67.6	3.8	1.49e+00	0	44	104	0	76	20768
2026-01-14 00:18:06.17	1.23	26.35	-52.4	-67.6	3.8	1.49e+00	0	44	104	0	76	20739
2026-01-14 00:18:07.16	1.11	26.50	-52.4	-67.7	3.8	1.49e+00	0	43	104	0	76	20800
2026-01-14 00:18:08.15	0.99	26.65	-52.4	-67.6	3.8	1.49e+00	0	44	104	0	76	20713
2026-01-14 00:18:09.15	0.87	26.81	-52.4	-67.7	3.8	1.49e+00	0	43	104	0	76	20781
2026-01-14 00:18:10.14	0.75	26.96	-52.4	-67.7	3.8	1.49e+00	0	44	104	0	76	20800
2026-01-14 00:18:11.14	0.63	27.12	-52.4	-67.7	3.8	1.49e+00	0	43	104	0	76	20862
2026-01-14 00:18:12.13	0.51	27.28	-52.4	-67.7	3.8	1.49e+00	0	43	104	0	76	20811
2026-01-14 00:18:13.12	0.38	27.43	-52.4	-67.6	3.8	1.49e+00	0	44	104	0	76	20724
2026-01-14 00:18:14.11	0.26	27.59	-52.4	-67.6	3.8	1.49e+00	0	44	104	0	76	20733
2026-01-14 00:18:15.11	0.13	27.75	-52.4	-67.7	3.8	1.49e+00	0	44	104	0	76	20805
2026-01-14 00:18:16.10	0.00	27.91	-52.4	-67.7	3.8	1.49e+00	0	44	104	0	76	20786
2026-01-14 00:18:17.09	359.87	28.07	-52.4	-67.6	3.8	1.49e+00	0	44	104	0	76	20756
2026-01-14 00:18:18.09	359.74	28.24	-52.4	-67.7	3.8	1.49e+00	0	44	104	0	76	20782
2026-01-14 00:18:19.08	359.61	28.40	-52.4	-67.6	3.8	1.49e+00	0	44	104	0	76	20738
2026-01-14 00:18:20.07	359.48	28.56	-52.4	-67.7	3.8	1.49e+00	0	43	104	0	76	20796
2026-01-14 00:18:21.06	359.34	28.72	-52.4	-67.7	3.8	1.49e+00	0	44	104	0	76	20845
2026-01-14 00:18:22.06	359.20	28.89	-52.4	-67.7	3.8	1.49e+00	0	44	104	0	76	20808
2026-01-14 00:18:23.05	359.07	29.05	-52.4	-67.6	3.8	1.49e+00	0	44	104	0	76	20769
2026-01-14 00:18:24.04	358.93	29.22	-52.4	-67.6	3.8	1.49e+00	0	43	104	0	76	20748
2026-01-14 00:18:25.03	358.79	29.39	-52.4	-67.6	3.8	1.49e+00	0	43	104	0	76	20696
2026-01-14 00:18:26.03	358.64	29.56	-52.4	-67.7	3.8	1.49e+00	0	44	104	0	76	20807
2026-01-14 00:18:27.02	358.50	29.72	-52.4	-67.7	3.8	1.49e+00	0	44	104	0	76	20785
2026-01-14 00:18:28.01	358.36	29.89	-52.4	-67.6	3.8	1.49e+00	0	44	104	0	76	20769
2026-01-14 00:18:29.01	358.21	30.06	-52.4	-67.7	3.8	1.49e+00	0	44	104	0	76	20833
2026-01-14 00:18:30.00	358.06	30.24	-52.4	-67.7	3.8	1.49e+00	0	43	104	0	76	20777
2026-01-14 00:18:31.00	357.91	30.41	-52.4	-67.6	3.8	1.49e+00	0	44	104	0	76	20772
2026-01-14 00:18:31.99	357.76	30.58	-52.4	-67.7	3.8	1.49e+00	0	44	104	0	76	20799
2026-01-14 00:18:32.98	357.61	30.75	-52.4	-67.7	3.8	1.49e+00	0	44	104	0	76	20829
2026-01-14 00:18:33.98	357.45	30.93	-52.4	-67.7	3.8	1.49e+00	0	44	104	0	76	20855
2026-01-14 00:18:34.97	357.29	31.10	-52.4	-67.7	3.8	1.49e+00	0	44	104	0	76	20797
2026-01-14 00:18:35.96	357.13	31.28	-52.4	-67.7	3.8	1.49e+00	0	44	104	0	76	20800
2026-01-14 00:18:36.95	356.97	31.46	-52.4	-67.7	3.8	1.49e+00	0	44	104	0	76	20802
2026-01-14 00:18:37.95	356.81	31.63	-52.4	-67.7	3.8	1.49e+00	0	44	104	0	76	20844
2026-01-14 00:18:38.94	356.65	31.81	-52.4	-67.7	3.8	1.49e+00	0	44	104	0	76	20836
2026-01-14 00:18:39.93	356.48	31.99	-52.4	-67.7	3.8	1.49e+00	0	44	104	0	76	20855
2026-01-14 00:18:40.93	356.31	32.17	-52.4	-67.6	3.8	1.49e+00	0	44	104	0	76	20757
2026-01-14 00:18:41.92	356.14	32.35	-52.4	-67.7	3.8	1.49e+00	0	43	104	0	76	20814
2026-01-14 00:18:42.91	355.97	32.53	-52.4	-67.6	3.8	1.49e+00	0	44	104	0	76	20757
2026-01-14 00:18:43.91	355.80	32.72	-52.4	-67.6	3.8	1.49e+00	0	44	104	0	76	20719
2026-01-14 00:18:44.90	355.62	32.90	-52.4	-67.7	3.8	1.49e+00	0	44	104	0	76	20832
2026-01-14 00:18:45.90	355.44	33.09	-52.4	-67.7	3.8	1.49e+00	0	44	104	0	76	20902
2026-01-14 00:18:46.89	355.27	33.27	-52.4	-67.6	3.8	1.49e+00	0	43	104	0	76	20758
2026-01-14 00:18:47.88	355.08	33.45	-52.4	-67.6	3.8	1.49e+00	0	44	104	0	76	20738
2026-01-14 00:18:48.88	354.90	33.64	-52.4	-67.6	3.8	1.49e+00	0	44	104	0	76	20749
2026-01-14 00:18:49.87	354.71	33.83	-52.4	-67.6	3.8	1.49e+00	0	44	104	0	76	20723
2026-01-14 00:18:50.86	354.53	34.02	-52.4	-67.7	3.8	1.49e+00	0	44	104	0	76	20814
2026-01-14 00:18:51.85	354.34	34.20	-52.4	-67.7	3.8	1.49e+00	0	44	104	0	76	20841
2026-01-14 00:18:52.85	354.14	34.40	-52.4	-67.7	3.8	1.49e+00	0	44	104	0	76	20808
2026-01-14 00:18:53.84	353.95	34.59	-52.4	-67.7	3.8	1.49e+00	0	44	104	0	76	20912
2026-01-14 00:18:54.83	353.75	34.78	-52.4	-67.7	3.8	1.49e+00	0	44	104	0	76	20832
2026-01-14 00:18:55.83	353.55	34.97	-52.4	-67.7	3.8	1.49e+00	0	44	104	0	76	20834
2026-01-14 00:18:56.82	353.35	35.16	-52.4	-67.7	3.8	1.49e+00	0	44	104	0	76	20797
2026-01-14 00:18:57.82	353.14	35.36	-52.4	-67.7	3.8	1.49e+00	0	44	104	0	76	20834
2026-01-14 00:18:58.81	352.94	35.55	-52.4	-67.7	3.8	1.49e+00	0	44	104	0	76	20808
2026-01-14 00:18:59.80	352.73	35.74	-52.4	-67.7	3.8	1.49e+00	0	44	104	0	76	20819
2026-01-14 00:19:00.79	352.51	35.94	-52.4	-67.7	3.8	1.49e+00	0	44	104	0	76	20778
2026-01-14 00:19:01.79	352.30	36.14	-52.4	-67.6	3.8	1.49e+00	0	44	104	0	76	20770
2026-01-14 00:19:02.78	352.08	36.33	-52.4	-67.7	3.8	1.49e+00	0	44	104	0	76	20826
2026-01-14 00:19:03.77	351.86	36.53	-52.4	-67.7	3.8	1.49e+00	0	43	104	0	76	20908
2026-01-14 00:19:04.77	351.64	36.73	-52.4	-67.7	3.8	1.49e+00	0	44	104	0	76	20860
2026-01-14 00:19:05.76	351.41	36.93	-52.4	-67.7	3.8	1.49e+00	0	43	104	0	76	20813
2026-01-14 00:19:06.75	351.18	37.13	-52.4	-67.7	3.8	1.49e+00	0	44	104	0	76	20817
2026-01-14 00:19:07.75	350.95	37.33	-52.4	-67.7	3.8	1.49e+00	0	44	104	0	76	20910
2026-01-14 00:19:08.74	350.72	37.53	-52.4	-67.7	3.8	1.49e+00	0	43	104	0	76	20836
2026-01-14 00:19:09.73	350.48	37.74	-52.4	-67.7	3.8	1.49e+00	0	44	104	0	76	20822
2026-01-14 00:19:10.73	350.24	37.94	-52.4	-67.7	3.8	1.49e+00	0	44	104	0	76	20792
2026-01-14 00:19:11.72	350.00	38.14	-52.4	-67.6	3.8	1.49e+00	0	44	104	0	76	20773
2026-01-14 00:19:12.71	349.75	38.35	-52.4	-67.7	3.8	1.49e+00	0	44	104	0	76	20849
2026-01-14 00:19:13.71	349.50	38.55	-52.4	-67.7	3.8	1.49e+00	0	44	104	0	76	20783
2026-01-14 00:19:14.70	349.25	38.76	-52.4	-67.7	3.8	1.49e+00	0	44	104	0	76	20811
2026-01-14 00:19:15.69	348.99	38.96	-52.4	-67.7	3.8	1.49e+00	0	44	104	0	76	20788
2026-01-14 00:19:16.69	348.73	39.17	-52.4	-67.7	3.8	1.49e+00	0	44	104	0	76	20863
2026-01-14 00:19:17.68	348.47	39.38	-52.4	-67.7	3.8	1.49e+00	0	44	104	0	76	20798
2026-01-14 00:19:18.67	348.20	39.58	-52.4	-67.7	3.8	1.49e+00	0	44	104	0	76	20817
2026-01-14 00:19:19.67	347.93	39.79	-52.4	-67.7	3.8	1.49e+00	0	44	104	0	76	20805
2026-01-14 00:19:20.66	347.66	40.00	-52.4	-67.7	3.8	1.49e+00	0	44	104	0	76	20855
2026-01-14 00:19:21.65	347.38	40.21	-52.4	-67.7	3.8	1.49e+00	0	44	104	0	76	20890
2026-01-14 00:19:22.65	347.10	40.42	-52.4	-67.7	3.8	1.49e+00	0	44	104	0	76	20833
2026-01-14 00:19:23.64	346.82	40.63	-52.4	-67.7	3.8	1.49e+00	0	44	104	0	76	20813
2026-01-14 00:19:24.63	346.53	40.84	-52.4	-67.6	3.8	1.49e+00	0	44	104	0	76	20773
2026-01-14 00:19:25.63	346.24	41.05	-52.4	-67.7	3.8	1.49e+00	0	43	104	0	76	20788
2026-01-14 00:19:26.62	345.94	41.26	-52.4	-67.7	3.8	1.49e+00	0	44	104	0	76	20821
2026-01-14 00:19:27.61	345.65	41.47	-52.4	-67.7	3.8	1.49e+00	0	44	104	0	76	20781
2026-01-14 00:19:28.61	345.34	41.69	-52.4	-67.7	3.8	1.49e+00	0	44	104	0	76	20819
2026-01-14 00:19:29.60	345.03	41.90	-52.4	-67.7	3.8	1.49e+00	0	44	104	0	76	20806
2026-01-14 00:19:30.60	344.72	42.11	-52.4	-67.7	3.8	1.49e+00	0	44	104	0	76	20844
2026-01-14 00:19:31.59	344.40	42.33	-52.4	-67.7	3.8	1.49e+00	0	44	104	0	76	20816
2026-01-14 00:19:32.58	344.09	42.54	-52.4	-67.6	3.8	1.49e+00	0	44	104	0	76	20723
2026-01-14 00:19:33.58	343.76	42.75	-52.4	-67.7	3.8	1.49e+00	0	44	104	0	76	20782
2026-01-14 00:19:34.57	343.43	42.96	-52.4	-67.6	3.8	1.49e+00	0	44	104	0	76	20684
2026-01-14 00:19:35.56	343.10	43.18	-52.4	-67.7	3.8	1.49e+00	0	44	104	0	76	20790
2026-01-14 00:19:36.56	342.76	43.39	-52.4	-67.7	3.8	1.49e+00	0	44	104	0	76	20850
2026-01-14 00:19:37.55	342.42	43.61	-52.4	-67.6	3.8	1.49e+00	0	44	104	0	76	20756
2026-01-14 00:19:38.54	342.07	43.82	-52.4	-67.7	3.8	1.49e+00	0	43	104	0	76	20871
2026-01-14 00:19:39.54	341.72	44.03	-52.4	-67.7	3.8	1.49e+00	0	44	104	0	76	20783
2026-01-14 00:19:40.53	341.36	44.25	-52.4	-67.6	3.8	1.49e+00	0	44	104	0	76	20760
2026-01-14 00:19:41.53	341.00	44.46	-52.4	-67.6	3.8	1.49e+00	0	43	104	0	76	20727
2026-01-14 00:19:42.52	340.63	44.67	-52.4	-67.6	3.8	1.49e+00	0	44	104	0	76	20774
2026-01-14 00:19:43.51	340.26	44.89	-52.4	-67.7	3.8	1.49e+00	0	44	104	0	76	20785
2026-01-14 00:19:44.51	339.88	45.10	-52.4	-67.7	3.8	1.49e+00	0	44	104	0	76	20813
2026-01-14 00:19:45.50	339.50	45.31	-52.4	-67.7	3.8	1.49e+00	0	43	104	0	76	20795
2026-01-14 00:19:46.50	339.11	45.53	-52.4	-67.7	3.8	1.49e+00	0	44	104	0	76	20883
2026-01-14 00:19:47.49	338.72	45.74	-52.4	-67.6	3.8	1.49e+00	0	44	104	0	76	20776
2026-01-14 00:19:48.48	338.33	45.95	-52.4	-67.7	3.8	1.49e+00	0	44	104	0	76	20830
2026-01-14 00:19:49.48	337.92	46.16	-52.4	-67.6	3.8	1.49e+00	0	44	104	0	76	20716
2026-01-14 00:19:50.47	337.52	46.37	-52.4	-67.6	3.8	1.49e+00	0	43	104	0	76	20738
2026-01-14 00:19:51.46	337.10	46.58	-52.4	-67.7	3.8	1.49e+00	0	43	104	0	76	20833
2026-01-14 00:19:52.45	336.69	46.79	-52.4	-67.7	3.8	1.49e+00	0	44	104	0	76	20826
2026-01-14 00:19:53.45	336.26	47.00	-52.4	-67.7	3.8	1.49e+00	0	44	104	0	76	20906
2026-01-14 00:19:54.44	335.83	47.21	-52.4	-67.6	3.8	1.49e+00	0	44	104	0	76	20769
2026-01-14 00:19:55.43	335.39	47.42	-52.4	-67.7	3.8	1.49e+00	0	44	104	0	76	20792
2026-01-14 00:19:56.43	334.95	47.62	-52.4	-67.6	3.8	1.49e+00	0	44	104	0	76	20721
2026-01-14 00:19:57.42	334.50	47.83	-52.4	-67.7	3.8	1.49e+00	0	44	104	0	76	20832
2026-01-14 00:19:58.41	334.05	48.03	-52.4	-67.7	3.8	1.49e+00	0	44	104	0	76	20784
2026-01-14 00:19:59.41	333.58	48.24	-52.4	-67.7	3.8	1.49e+00	0	44	104	0	76	20812
2026-01-14 00:20:00.40	333.12	48.44	-52.4	-67.7	3.8	1.49e+00	0	43	104	0	76	20818
2026-01-14 00:20:01.39	332.65	48.64	-52.4	-67.7	3.8	1.49e+00	0	44	104	0	76	20817
2026-01-14 00:20:02.39	332.16	48.84	-52.4	-67.6	3.8	1.49e+00	0	44	104	0	76	20733
2026-01-14 00:20:03.38	331.68	49.04	-52.4	-67.6	3.8	1.49e+00	0	44	104	0	76	20747
2026-01-14 00:20:04.37	331.19	49.24	-52.4	-67.7	3.8	1.49e+00	0	44	104	0	76	20826
2026-01-14 00:20:05.37	330.69	49.44	-52.4	-67.6	3.8	1.49e+00	0	43	104	0	76	20738
2026-01-14 00:20:06.36	330.19	49.63	-52.4	-67.7	3.8	1.49e+00	0	44	104	0	76	20825
2026-01-14 00:20:07.35	329.68	49.82	-52.4	-67.6	3.8	1.49e+00	0	44	104	0	76	20751
2026-01-14 00:20:08.35	329.15	50.02	-52.4	-67.7	3.8	1.49e+00	0	44	104	0	76	20813
2026-01-14 00:20:09.34	328.63	50.21	-52.4	-67.7	3.8	1.49e+00	0	44	104	0	76	20833
2026-01-14 00:20:10.33	328.10	50.39	-52.4	-67.6	3.8	1.49e+00	0	44	104	0	76	20765
2026-01-14 00:20:11.33	327.56	50.58	-52.4	-67.7	3.8	1.49e+00	0	44	104	0	76	20795
2026-01-14 00:20:12.32	327.02	50.76	-52.4	-67.7	3.8	1.49e+00	0	44	104	0	76	20904
2026-01-14 00:20:13.31	326.47	50.95	-52.4	-67.7	3.8	1.49e+00	0	44	104	0	76	20792
2026-01-14 00:20:14.30	325.91	51.12	-52.4	-67.7	3.8	1.49e+00	0	44	104	0	76	20863
2026-01-14 00:20:15.30	325.34	51.30	-52.4	-67.7	3.8	1.49e+00	0	43	104	0	76	20826
2026-01-14 00:20:16.29	324.78	51.48	-52.4	-67.7	3.8	1.49e+00	0	44	104	0	76	20886
2026-01-14 00:20:17.29	324.19	51.65	-52.4	-67.7	3.8	1.49e+00	0	44	104	0	76	20821
2026-01-14 00:20:18.28	323.61	51.82	-52.4	-67.7	3.8	1.49e+00	0	44	104	0	76	20829
2026-01-14 00:20:19.27	323.02	51.99	-52.4	-67.7	3.8	1.49e+00	0	44	104	0	76	20788
2026-01-14 00:20:20.27	322.42	52.16	-52.4	-67.7	3.8	1.49e+00	0	44	104	0	76	20871
2026-01-14 00:20:21.26	321.82	52.32	-52.4	-67.7	3.8	1.49e+00	0	44	104	0	76	20802
2026-01-14 00:20:22.25	321.21	52.48	-52.4	-67.7	3.8	1.49e+00	0	44	104	0	76	20923
2026-01-14 00:20:23.25	320.58	52.64	-52.4	-67.6	3.8	1.49e+00	0	43	104	0	76	20770
2026-01-14 00:20:24.24	319.96	52.79	-52.4	-67.7	3.8	1.49e+00	0	44	104	0	76	20818
2026-01-14 00:20:25.23	319.33	52.94	-52.4	-67.7	3.8	1.49e+00	0	44	104	0	76	20848
2026-01-14 00:20:26.22	318.69	53.09	-52.4	-67.7	3.8	1.49e+00	0	44	104	0	76	20785
2026-01-14 00:20:27.22	318.05	53.23	-52.4	-67.6	3.8	1.49e+00	0	44	104	0	76	20714
2026-01-14 00:20:28.21	317.40	53.37	-52.4	-67.7	3.8	1.49e+00	0	43	104	0	76	20868
2026-01-14 00:20:29.20	316.74	53.51	-52.4	-67.7	3.8	1.49e+00	0	44	104	0	76	20838
2026-01-14 00:20:30.20	316.07	53.65	-52.4	-67.7	3.8	1.49e+00	0	44	104	0	76	20830
2026-01-14 00:20:31.19	315.41	53.78	-52.4	-67.6	3.8	1.49e+00	0	44	104	0	76	20719
2026-01-14 00:20:32.18	314.73	53.90	-52.4	-67.6	3.8	1.49e+00	0	44	104	0	76	20772
2026-01-14 00:20:33.18	314.05	54.03	-52.4	-67.7	3.8	1.49e+00	0	43	104	0	76	20781
2026-01-14 00:20:34.17	313.36	54.15	-52.4	-67.7	3.8	1.49e+00	0	44	104	0	76	20881
2026-01-14 00:20:35.16	312.67	54.26	-52.4	-67.7	3.8	1.49e+00	0	44	104	0	76	20841
2026-01-14 00:20:36.16	311.97	54.37	-52.4	-67.7	3.8	1.49e+00	0	44	104	0	76	20781
2026-01-14 00:20:37.15	311.27	54.48	-52.4	-67.7	3.8	1.49e+00	0	44	104	0	76	20867
2026-01-14 00:20:38.14	310.56	54.58	-52.4	-67.7	3.8	1.49e+00	0	44	104	0	76	20910
2026-01-14 00:20:39.14	309.84	54.68	-52.4	-67.7	3.8	1.49e+00	0	44	104	0	76	20784
2026-01-14 00:20:40.13	309.12	54.78	-52.4	-67.7	3.8	1.49e+00	0	44	104	0	76	20824
2026-01-14 00:20:41.12	308.40	54.87	-52.4	-67.7	3.8	1.49e+00	0	43	104	0	76	20816
2026-01-14 00:20:42.11	307.68	54.95	-52.4	-67.7	3.8	1.49e+00	0	44	104	0	76	20868
2026-01-14 00:20:43.11	306.94	55.04	-52.4	-67.7	3.8	1.49e+00	0	43	104	0	76	20826
2026-01-14 00:20:44.10	306.20	55.11	-52.4	-67.7	3.8	1.49e+00	0	44	104	0	76	20878
2026-01-14 00:20:45.09	305.47	55.18	-52.4	-67.7	3.8	1.49e+00	0	43	104	0	76	20839
2026-01-14 00:20:46.08	304.72	55.25	-52.4	-67.6	3.8	1.49e+00	0	44	104	0	76	20719
2026-01-14 00:20:47.08	303.97	55.32	-52.4	-67.7	3.8	1.49e+00	0	44	104	0	76	20861
2026-01-14 00:20:48.07	303.22	55.37	-52.4	-67.7	3.8	1.49e+00	0	43	104	0	76	20850
2026-01-14 00:20:49.06	302.47	55.43	-52.4	-67.7	3.8	1.49e+00	0	44	104	0	76	20865
2026-01-14 00:20:50.06	301.71	55.48	-52.4	-67.7	3.8	1.49e+00	0	44	104	0	76	20842
2026-01-14 00:20:51.05	300.95	55.52	-52.4	-67.7	3.8	1.49e+00	0	44	104	0	76	20831
2026-01-14 00:20:52.04	300.19	55.56	-52.4	-67.7	3.8	1.49e+00	0	44	104	0	76	20817
2026-01-14 00:20:53.03	299.43	55.59	-52.4	-67.7	3.8	1.49e+00	0	43	104	0	76	20858
2026-01-14 00:20:54.02	298.67	55.62	-52.4	-67.7	3.8	1.49e+00	0	44	104	0	76	20848
2026-01-14 00:20:55.02	297.90	55.64	-52.4	-67.6	3.8	1.49e+00	0	44	104	0	76	20727
2026-01-14 00:20:56.01	297.13	55.66	-52.4	-67.7	3.8	1.49e+00	0	44	104	0	76	20862
2026-01-14 00:20:57.00	296.36	55.67	-52.4	-67.7	3.8	1.49e+00	0	44	104	0	76	20809
2026-01-14 00:20:58.00	295.59	55.68	-52.4	-67.7	3.8	1.49e+00	0	44	104	0	76	20780
2026-01-14 00:20:58.99	294.82	55.69	-52.4	-67.6	3.8	1.49e+00	0	44	104	0	76	20713
2026-01-14 00:20:59.98	294.05	55.68	-52.4	-67.7	3.8	1.49e+00	0	44	104	0	76	20870
2026-01-14 00:21:00.98	293.28	55.68	-52.4	-67.7	3.8	1.49e+00	0	44	104	0	76	20857
2026-01-14 00:21:01.97	292.51	55.66	-52.4	-67.7	3.8	1.49e+00	0	44	104	0	76	20886
2026-01-14 00:21:02.96	291.75	55.65	-52.4	-67.7	3.8	1.49e+00	0	44	104	0	76	20918
2026-01-14 00:21:03.96	290.97	55.63	-52.4	-67.7	3.8	1.49e+00	0	44	104	0	76	20786
2026-01-14 00:21:04.95	290.21	55.60	-52.4	-67.7	3.8	1.49e+00	0	44	104	0	76	20845
2026-01-14 00:21:05.94	289.45	55.57	-52.4	-67.7	3.8	1.49e+00	0	44	104	0	76	20787
2026-01-14 00:21:06.94	288.68	55.53	-52.4	-67.7	3.8	1.49e+00	0	44	104	0	76	20781
2026-01-14 00:21:07.93	287.92	55.49	-52.4	-67.7	3.8	1.49e+00	0	43	104	0	76	20802
2026-01-14 00:21:08.92	287.17	55.44	-52.4	-67.7	3.8	1.49e+00	0	44	104	0	76	20789
2026-01-14 00:21:09.91	286.41	55.39	-52.4	-67.7	3.8	1.49e+00	0	43	104	0	76	20865
2026-01-14 00:21:10.91	285.66	55.33	-52.4	-67.7	3.8	1.49e+00	0	44	104	0	76	20778
2026-01-14 00:21:11.90	284.91	55.27	-52.4	-67.6	3.8	1.49e+00	0	44	104	0	76	20769
2026-01-14 00:21:12.89	284.17	55.20	-52.4	-67.7	3.8	1.49e+00	0	44	104	0	76	20812
2026-01-14 00:21:13.89	283.42	55.13	-52.4	-67.7	3.8	1.49e+00	0	44	104	0	76	20867
2026-01-14 00:21:14.88	282.68	55.06	-52.4	-67.6	3.8	1.49e+00	0	44	104	0	76	20751
2026-01-14 00:21:15.87	281.95	54.98	-52.4	-67.7	3.8	1.49e+00	0	44	104	0	76	20817
2026-01-14 00:21:16.86	281.22	54.89	-52.4	-67.7	3.8	1.49e+00	0	44	104	0	76	20838
2026-01-14 00:21:17.86	280.49	54.80	-52.4	-67.7	3.8	1.49e+00	0	44	104	0	76	20850
2026-01-14 00:21:18.85	279.77	54.71	-52.4	-67.7	3.8	1.49e+00	0	43	104	0	76	20881
2026-01-14 00:21:19.85	279.05	54.61	-52.4	-67.7	3.8	1.49e+00	0	44	104	0	76	20905
2026-01-14 00:21:20.84	278.34	54.51	-52.4	-67.7	3.8	1.49e+00	0	44	104	0	76	20827
2026-01-14 00:21:21.83	277.64	54.40	-52.4	-67.7	3.8	1.49e+00	0	44	104	0	76	20795
2026-01-14 00:21:22.83	276.93	54.29	-52.4	-67.7	3.8	1.49e+00	0	44	104	0	76	20806
2026-01-14 00:21:23.82	276.24	54.17	-52.4	-67.7	3.8	1.49e+00	0	44	104	0	76	20809
2026-01-14 00:21:24.81	275.55	54.06	-52.4	-67.6	3.8	1.49e+00	0	44	104	0	76	20743
2026-01-14 00:21:25.80	274.87	53.93	-52.4	-67.7	3.8	1.49e+00	0	43	104	0	76	20779
2026-01-14 00:21:26.80	274.19	53.81	-52.4	-67.7	3.8	1.49e+00	0	44	104	0	76	20858
2026-01-14 00:21:27.79	273.52	53.68	-52.4	-67.7	3.8	1.49e+00	0	44	104	0	76	20804
2026-01-14 00:21:28.78	272.86	53.54	-52.4	-67.7	3.8	1.49e+00	0	44	104	0	76	20785
2026-01-14 00:21:29.78	272.19	53.41	-52.4	-67.7	3.8	1.49e+00	0	44	104	0	76	20874
2026-01-14 00:21:30.77	271.54	53.27	-52.4	-67.7	3.8	1.49e+00	0	44	104	0	76	20907
2026-01-14 00:21:31.76	270.90	53.12	-52.4	-67.7	3.8	1.49e+00	0	44	104	0	76	20847
2026-01-14 00:21:32.76	270.25	52.97	-52.4	-67.6	3.8	1.49e+00	0	44	104	0	76	20763
2026-01-14 00:21:33.75	269.62	52.82	-52.4	-67.7	3.8	1.49e+00	0	44	104	0	76	20843
2026-01-14 00:21:34.74	268.99	52.67	-52.4	-67.7	3.8	1.49e+00	0	44	104	0	76	20862
2026-01-14 00:21:35.74	268.37	52.51	-52.4	-67.7	3.8	1.49e+00	0	44	104	0	76	20920
2026-01-14 00:21:36.73	267.76	52.35	-52.4	-67.7	3.8	1.49e+00	0	44	104	0	76	20824
2026-01-14 00:21:37.73	267.14	52.19	-52.4	-67.6	3.8	1.49e+00	0	44	104	0	76	20762
2026-01-14 00:21:38.72	266.54	52.03	-52.4	-67.7	3.8	1.49e+00	0	44	104	0	76	20813
2026-01-14 00:21:39.71	265.95	51.86	-52.4	-67.7	3.8	1.49e+00	0	44	104	0	76	20867
2026-01-14 00:21:40.71	265.36	51.69	-52.4	-67.7	3.8	1.49e+00	0	44	104	0	76	20820
2026-01-14 00:21:41.70	264.78	51.51	-52.4	-67.7	3.8	1.49e+00	0	44	104	0	76	20796
2026-01-14 00:21:42.69	264.21	51.34	-52.4	-67.7	3.8	1.49e+00	0	44	104	0	76	20813
2026-01-14 00:21:43.69	263.64	51.16	-52.4	-67.7	3.8	1.49e+00	0	44	104	0	76	20832
2026-01-14 00:21:44.68	263.08	50.98	-52.4	-67.7	3.8	1.49e+00	0	44	104	0	76	20827
2026-01-14 00:21:45.67	262.53	50.80	-52.4	-67.6	3.8	1.49e+00	0	44	104	0	76	20773
2026-01-14 00:21:46.67	261.98	50.61	-52.4	-67.7	3.8	1.49e+00	0	44	104	0	76	20847
2026-01-14 00:21:47.66	261.44	50.43	-52.4	-67.7	3.8	1.49e+00	0	44	104	0	76	20880
2026-01-14 00:21:48.65	260.91	50.24	-52.4	-67.7	3.8	1.49e+00	0	44	104	0	76	20798
2026-01-14 00:21:49.65	260.38	50.05	-52.4	-67.7	3.8	1.49e+00	0	44	104	0	76	20808
2026-01-14 00:21:50.64	259.86	49.86	-52.4	-67.7	3.8	1.49e+00	0	43	104	0	76	20793
2026-01-14 00:21:51.63	259.35	49.67	-52.4	-67.6	3.8	1.49e+00	0	44	104	0	76	20732
2026-01-14 00:21:52.63	258.83	49.47	-52.4	-67.6	3.8	1.49e+00	0	44	104	0	76	20749
2026-01-14 00:21:53.62	258.34	49.27	-52.4	-67.7	3.8	1.49e+00	0	44	104	0	76	20796
2026-01-14 00:21:54.61	257.84	49.08	-52.4	-67.7	3.8	1.49e+00	0	44	104	0	76	20821
2026-01-14 00:21:55.61	257.35	48.88	-52.4	-67.7	3.8	1.49e+00	0	44	104	0	76	20930
2026-01-14 00:21:56.60	256.87	48.68	-52.4	-67.7	3.8	1.49e+00	0	44	104	0	76	20797
2026-01-14 00:21:57.59	256.40	48.48	-52.4	-67.7	3.8	1.49e+00	0	44	104	0	76	20856
2026-01-14 00:21:58.59	255.92	48.27	-52.4	-67.7	3.8	1.49e+00	0	44	104	0	76	20809
2026-01-14 00:21:59.58	255.46	48.07	-52.4	-67.6	3.8	1.49e+00	0	44	104	0	76	20718
2026-01-14 00:22:00.57	255.01	47.86	-52.4	-67.7	3.8	1.49e+00	0	44	104	0	76	20782
2026-01-14 00:22:01.57	254.55	47.66	-52.4	-67.7	3.8	1.49e+00	0	44	104	0	76	20794
2026-01-14 00:22:02.56	254.11	47.45	-52.4	-67.6	3.8	1.49e+00	0	44	104	0	76	20765
2026-01-14 00:22:03.55	253.67	47.24	-52.4	-67.7	3.8	1.49e+00	0	44	104	0	76	20875
2026-01-14 00:22:04.55	253.24	47.03	-52.4	-67.7	3.8	1.49e+00	0	44	104	0	76	20811
2026-01-14 00:22:05.54	252.81	46.82	-52.4	-67.7	3.8	1.49e+00	0	44	104	0	76	20798
2026-01-14 00:22:06.53	252.39	46.61	-52.4	-67.6	3.8	1.49e+00	0	43	104	0	76	20758
2026-01-14 00:22:07.53	251.97	46.40	-52.4	-67.7	3.8	1.49e+00	0	44	104	0	76	20839
2026-01-14 00:22:08.52	251.56	46.19	-52.4	-67.6	3.8	1.49e+00	0	44	104	0	76	20774
2026-01-14 00:22:09.51	251.16	45.98	-52.4	-67.7	3.8	1.49e+00	0	44	104	0	76	20831
2026-01-14 00:22:10.51	250.76	45.76	-52.4	-67.6	3.8	1.49e+00	0	44	104	0	76	20767
2026-01-14 00:22:11.50	250.36	45.55	-52.4	-67.6	3.8	1.49e+00	0	44	104	0	76	20752
2026-01-14 00:22:12.49	249.97	45.34	-52.4	-67.6	3.8	1.49e+00	0	44	104	0	76	20738
2026-01-14 00:22:13.48	249.59	45.13	-52.4	-67.7	3.8	1.49e+00	0	44	104	0	76	20826
2026-01-14 00:22:14.48	249.21	44.91	-52.4	-67.7	3.8	1.49e+00	0	44	104	0	76	20857
2026-01-14 00:22:15.47	248.84	44.70	-52.4	-67.7	3.8	1.49e+00	0	44	104	0	76	20836
2026-01-14 00:22:16.46	248.47	44.49	-52.4	-67.7	3.8	1.49e+00	0	44	104	0	76	20786
2026-01-14 00:22:17.46	248.11	44.27	-52.4	-67.6	3.8	1.49e+00	0	44	104	0	76	20756
2026-01-14 00:22:18.45	247.75	44.06	-52.4	-67.7	3.8	1.49e+00	0	44	104	0	76	20810
2026-01-14 00:22:19.44	247.40	43.84	-52.4	-67.7	3.8	1.49e+00	0	44	104	0	76	20813
2026-01-14 00:22:20.43	247.05	43.63	-52.4	-67.7	3.8	1.49e+00	0	44	104	0	76	20806
2026-01-14 00:22:21.43	246.70	43.41	-52.4	-67.6	3.8	1.49e+00	0	44	104	0	76	20758
2026-01-14 00:22:22.42	246.36	43.20	-52.4	-67.7	3.8	1.49e+00	0	44	104	0	76	20864
2026-01-14 00:22:23.41	246.03	42.98	-52.4	-67.6	3.8	1.49e+00	0	44	104	0	76	20719
2026-01-14 00:22:24.41	245.69	42.77	-52.4	-67.6	3.8	1.49e+00	0	44	104	0	76	20721
2026-01-14 00:22:25.40	245.37	42.56	-52.4	-67.6	3.8	1.49e+00	0	44	104	0	76	20753
2026-01-14 00:22:26.40	245.05	42.34	-52.4	-67.7	3.8	1.49e+00	0	44	104	0	76	20849
2026-01-14 00:22:27.39	244.73	42.13	-52.4	-67.7	3.8	1.49e+00	0	44	104	0	76	20828
2026-01-14 00:22:28.38	244.42	41.91	-52.4	-67.7	3.8	1.49e+00	0	44	104	0	76	20812
2026-01-14 00:22:29.38	244.10	41.70	-52.4	-67.7	3.8	1.49e+00	0	44	104	0	76	20876
2026-01-14 00:22:30.37	243.80	41.49	-52.4	-67.7	3.8	1.49e+00	0	44	104	0	76	20809
2026-01-14 00:22:31.36	243.50	41.28	-52.4	-67.7	3.8	1.49e+00	0	44	104	0	76	20799
2026-01-14 00:22:32.35	243.20	41.06	-52.4	-67.7	3.8	1.49e+00	0	44	104	0	76	20812
2026-01-14 00:22:33.35	242.91	40.85	-52.4	-67.7	3.8	1.49e+00	0	44	104	0	76	20808
2026-01-14 00:22:34.34	242.62	40.64	-52.4	-67.7	3.8	1.49e+00	0	44	104	0	76	20873
2026-01-14 00:22:35.34	242.33	40.43	-52.4	-67.7	3.8	1.49e+00	0	44	104	0	76	20834
2026-01-14 00:22:36.33	242.05	40.22	-52.4	-67.6	3.8	1.49e+00	0	44	104	0	76	20767
2026-01-14 00:22:37.32	241.77	40.01	-52.4	-67.7	3.8	1.49e+00	0	44	104	0	76	20840
2026-01-14 00:22:38.32	241.50	39.80	-52.4	-67.6	3.8	1.49e+00	0	44	104	0	76	20764
2026-01-14 00:22:39.31	241.23	39.59	-52.4	-67.7	3.8	1.49e+00	0	44	104	0	76	20823
2026-01-14 00:22:40.30	240.96	39.38	-52.4	-67.7	3.8	1.49e+00	0	44	104	0	76	20806
2026-01-14 00:22:41.30	240.69	39.17	-52.4	-67.6	3.8	1.49e+00	0	44	104	0	76	20767
2026-01-14 00:22:42.29	240.43	38.96	-52.4	-67.7	3.8	1.49e+00	0	44	104	0	76	20849
2026-01-14 00:22:43.28	240.18	38.76	-52.4	-67.7	3.8	1.49e+00	0	44	104	0	76	20860
2026-01-14 00:22:44.27	239.92	38.55	-52.4	-67.7	3.8	1.49e+00	0	44	104	0	76	20808
2026-01-14 00:22:45.27	239.67	38.35	-52.4	-67.7	3.8	1.49e+00	0	44	104	0	76	20804
2026-01-14 00:22:46.26	239.42	38.14	-52.4	-67.6	3.8	1.49e+00	0	44	104	0	76	20750
2026-01-14 00:22:47.25	239.18	37.94	-52.4	-67.7	3.8	1.49e+00	0	44	104	0	76	20812
2026-01-14 00:22:48.25	238.93	37.73	-52.4	-67.7	3.8	1.49e+00	0	44	104	0	76	20833
2026-01-14 00:22:49.24	238.70	37.53	-52.4	-67.7	3.8	1.49e+00	0	44	104	0	76	20816
2026-01-14 00:22:50.23	238.46	37.33	-52.4	-67.7	3.8	1.49e+00	0	44	104	0	76	20814
2026-01-14 00:22:51.22	238.23	37.13	-52.4	-67.7	3.8	1.49e+00	0	44	104	0	76	20789
2026-01-14 00:22:52.22	238.00	36.92	-52.4	-67.7	3.8	1.49e+00	0	44	104	0	76	20807
2026-01-14 00:22:53.21	237.77	36.72	-52.4	-67.7	3.8	1.49e+00	0	44	104	0	76	20874
2026-01-14 00:22:54.20	237.55	36.53	-52.4	-67.6	3.8	1.49e+00	0	44	104	0	76	20763
2026-01-14 00:22:55.20	237.32	36.33	-52.4	-67.7	3.8	1.49e+00	0	44	104	0	76	20933
2026-01-14 00:22:56.19	237.11	36.13	-52.4	-67.7	3.8	1.49e+00	0	44	104	0	76	20918
2026-01-14 00:22:57.18	236.89	35.93	-52.4	-67.7	3.8	1.49e+00	0	44	104	0	76	20854
2026-01-14 00:22:58.18	236.68	35.73	-52.4	-67.7	3.8	1.49e+00	0	44	104	0	76	20862
2026-01-14 00:22:59.17	236.46	35.54	-52.4	-67.7	3.8	1.49e+00	0	44	104	0	76	20823
2026-01-14 00:23:00.16	236.26	35.34	-52.4	-67.7	3.8	1.49e+00	0	44	104	0	76	20798
2026-01-14 00:23:01.16	236.05	35.15	-52.4	-67.7	3.8	1.49e+00	0	44	104	0	76	20830
2026-01-14 00:23:02.15	235.85	34.95	-52.4	-67.7	3.8	1.49e+00	0	44	104	0	76	20899
2026-01-14 00:23:03.14	235.65	34.76	-52.4	-67.7	3.8	1.49e+00	0	44	104	0	76	20782
2026-01-14 00:23:04.13	235.45	34.57	-52.4	-67.7	3.8	1.49e+00	0	44	104	0	76	20871
2026-01-14 00:23:05.13	235.25	34.38	-52.4	-67.6	3.8	1.49e+00	0	44	104	0	76	20761
2026-01-14 00:23:06.12	235.06	34.19	-52.4	-67.6	3.8	1.49e+00	0	44	104	0	76	20734
2026-01-14 00:23:07.11	234.87	34.00	-52.4	-67.7	3.8	1.49e+00	0	44	104	0	76	20779
2026-01-14 00:23:08.11	234.67	33.81	-52.4	-67.7	3.8	1.49e+00	0	44	104	0	76	20858
2026-01-14 00:23:09.10	234.49	33.62	-52.4	-67.7	3.8	1.49e+00	0	44	104	0	76	20816
2026-01-14 00:23:10.09	234.30	33.43	-52.4	-67.7	3.8	1.49e+00	0	44	104	0	76	20804
2026-01-14 00:23:11.09	234.12	33.24	-52.4	-67.6	3.8	1.49e+00	0	44	104	0	76	20762
2026-01-14 00:23:12.08	233.94	33.06	-52.4	-67.7	3.8	1.49e+00	0	44	104	0	76	20878
2026-01-14 00:23:13.07	233.76	32.88	-52.4	-67.7	3.8	1.49e+00	0	44	104	0	76	20812
2026-01-14 00:23:14.06	233.58	32.69	-52.4	-67.7	3.8	1.49e+00	0	44	104	0	76	20822
2026-01-14 00:23:15.06	233.41	32.51	-52.4	-67.7	3.8	1.49e+00	0	44	104	0	76	20797
2026-01-14 00:23:16.05	233.24	32.33	-52.4	-67.7	3.8	1.49e+00	0	44	104	0	76	20821
2026-01-14 00:23:17.04	233.07	32.14	-52.4	-67.7	3.8	1.49e+00	0	44	104	0	76	20798
2026-01-14 00:23:18.03	232.90	31.96	-52.4	-67.7	3.8	1.49e+00	0	44	104	0	76	20795
2026-01-14 00:23:19.03	232.73	31.78	-52.4	-67.7	3.8	1.49e+00	0	44	104	0	76	20799
2026-01-14 00:23:20.02	232.56	31.60	-52.4	-67.7	3.8	1.49e+00	0	44	104	0	76	20793
2026-01-14 00:23:21.01	232.40	31.43	-52.4	-67.7	3.8	1.49e+00	0	44	104	0	76	20809
2026-01-14 00:23:22.01	232.24	31.25	-52.4	-67.7	3.8	1.49e+00	0	44	104	0	76	20880
2026-01-14 00:23:23.00	232.08	31.07	-52.4	-67.7	3.8	1.49e+00	0	44	104	0	76	20780
2026-01-14 00:23:24.00	231.92	30.89	-52.4	-67.7	3.8	1.49e+00	0	44	104	0	76	20829
2026-01-14 00:23:24.99	231.76	30.72	-52.4	-67.6	3.8	1.49e+00	0	44	104	0	76	20728
2026-01-14 00:23:25.98	231.61	30.54	-52.4	-67.7	3.8	1.49e+00	0	44	104	0	76	20830
2026-01-14 00:23:26.97	231.46	30.37	-52.4	-67.6	3.8	1.49e+00	0	44	104	0	76	20727
2026-01-14 00:23:27.97	231.31	30.20	-52.4	-67.7	3.8	1.49e+00	0	44	104	0	76	20810
2026-01-14 00:23:28.96	231.16	30.03	-52.4	-67.7	3.8	1.49e+00	0	44	104	0	76	20813
2026-01-14 00:23:29.95	231.01	29.86	-52.4	-67.6	3.8	1.49e+00	0	44	104	0	76	20753
2026-01-14 00:23:30.95	230.86	29.68	-52.4	-67.6	3.8	1.49e+00	0	44	104	0	76	20733
2026-01-14 00:23:31.94	230.72	29.51	-52.4	-67.6	3.8	1.49e+00	0	44	104	0	76	20753
2026-01-14 00:23:32.93	230.57	29.35	-52.4	-67.7	3.8	1.49e+00	0	44	104	0	76	20817
2026-01-14 00:23:33.92	230.43	29.18	-52.4	-67.7	3.8	1.49e+00	0	44	104	0	76	20819
2026-01-14 00:23:34.92	230.29	29.01	-52.4	-67.6	3.8	1.49e+00	0	44	104	0	76	20770
2026-01-14 00:23:35.91	230.15	28.84	-52.4	-67.7	3.8	1.49e+00	0	44	104	0	76	20813
2026-01-14 00:23:36.90	230.02	28.68	-52.4	-67.7	3.8	1.49e+00	0	44	104	0	76	20867
2026-01-14 00:23:37.89	229.88	28.52	-52.4	-67.7	3.8	1.49e+00	0	44	104	0	76	20856
2026-01-14 00:23:38.89	229.75	28.35	-52.4	-67.7	3.8	1.49e+00	0	44	104	0	76	20858
2026-01-14 00:23:39.88	229.61	28.19	-52.4	-67.7	3.8	1.49e+00	0	44	104	0	76	20825
2026-01-14 00:23:40.87	229.48	28.03	-52.4	-67.7	3.8	1.49e+00	0	44	104	0	76	20822
2026-01-14 00:23:41.87	229.35	27.86	-52.4	-67.7	3.8	1.49e+00	0	44	104	0	76	20789
2026-01-14 00:23:42.86	229.22	27.70	-52.4	-67.7	3.8	1.49e+00	0	44	104	0	76	20808
2026-01-14 00:23:43.85	229.09	27.54	-52.4	-67.7	3.8	1.49e+00	0	44	104	0	76	20827
2026-01-14 00:23:44.85	228.97	27.38	-52.4	-67.7	3.8	1.49e+00	0	44	104	0	76	20827
2026-01-14 00:23:45.84	228.84	27.22	-52.4	-67.6	3.8	1.49e+00	0	44	104	0	76	20740
2026-01-14 00:23:46.83	228.72	27.07	-52.4	-67.7	3.8	1.49e+00	0	44	104	0	76	20804
2026-01-14 00:23:47.82	228.60	26.91	-52.4	-67.6	3.8	1.49e+00	0	44	104	0	76	20749
2026-01-14 00:23:48.82	228.47	26.75	-52.4	-67.6	3.8	1.49e+00	0	44	104	0	76	20765
2026-01-14 00:23:49.81	228.35	26.60	-52.4	-67.6	3.8	1.49e+00	0	44	104	0	76	20761
2026-01-14 00:23:50.80	228.23	26.44	-52.4	-67.6	3.8	1.49e+00	0	44	104	0	76	20721
2026-01-14 00:23:51.80	228.12	26.29	-52.4	-67.7	3.8	1.49e+00	0	44	104	0	76	20854
2026-01-14 00:23:52.79	228.00	26.14	-52.4	-67.7	3.8	1.49e+00	0	44	104	0	76	20833
2026-01-14 00:23:53.78	227.88	25.98	-52.4	-67.7	3.8	1.49e+00	0	44	104	0	76	20839
2026-01-14 00:23:54.78	227.77	25.83	-52.4	-67.7	3.8	1.49e+00	0	44	104	0	76	20791
2026-01-14 00:23:55.77	227.66	25.68	-52.4	-67.7	3.8	1.49e+00	0	44	104	0	76	20842
2026-01-14 00:23:56.76	227.54	25.53	-52.4	-67.6	3.8	1.49e+00	0	44	104	0	76	20761
2026-01-14 00:23:57.76	227.43	25.38	-52.4	-67.7	3.8	1.49e+00	0	44	104	0	76	20855
2026-01-14 00:23:58.75	227.32	25.23	-52.4	-67.7	3.8	1.49e+00	0	44	104	0	76	20889
2026-01-14 00:23:59.74	227.21	25.08	-52.4	-67.6	3.8	1.49e+00	0	44	104	0	76	20775
2026-01-14 00:24:00.74	227.10	24.93	-52.4	-67.6	3.8	1.49e+00	0	44	104	0	76	20720
2026-01-14 00:24:01.73	227.00	24.79	-52.4	-67.7	3.8	1.49e+00	0	44	104	0	76	20886
2026-01-14 00:24:02.72	226.89	24.64	-52.4	-67.7	3.8	1.49e+00	0	44	104	0	76	20796
2026-01-14 00:24:03.71	226.79	24.50	-52.4	-67.7	3.8	1.49e+00	0	44	104	0	76	20856
2026-01-14 00:24:04.71	226.68	24.35	-52.4	-67.7	3.8	1.49e+00	0	44	104	0	76	20835
2026-01-14 00:24:05.70	226.58	24.21	-52.4	-67.7	3.8	1.49e+00	0	44	104	0	76	20836
2026-01-14 00:24:06.69	226.48	24.07	-52.4	-67.7	3.8	1.49e+00	0	44	104	0	76	20804
2026-01-14 00:24:07.69	226.38	23.92	-52.4	-67.6	3.8	1.49e+00	0	44	104	0	76	20769
2026-01-14 00:24:08.68	226.28	23.78	-52.4	-67.7	3.8	1.49e+00	0	44	104	0	76	20841
2026-01-14 00:24:09.67	226.18	23.64	-52.4	-67.7	3.8	1.49e+00	0	44	104	0	76	20856
2026-01-14 00:24:10.67	226.08	23.50	-52.4	-67.6	3.8	1.49e+00	0	44	104	0	76	20716
2026-01-14 00:24:11.66	225.98	23.36	-52.4	-67.7	3.8	1.49e+00	0	44	104	0	76	20780
2026-01-14 00:24:12.65	225.88	23.22	-52.4	-67.7	3.8	1.49e+00	0	44	104	0	76	20825
2026-01-14 00:24:13.65	225.79	23.08	-52.4	-67.7	3.8	1.49e+00	0	44	104	0	76	20873
2026-01-14 00:24:14.64	225.69	22.94	-52.4	-67.7	3.8	1.49e+00	0	44	104	0	76	20824
2026-01-14 00:24:15.63	225.60	22.81	-52.4	-67.7	3.8	1.49e+00	0	44	104	0	76	20837
2026-01-14 00:24:16.63	225.51	22.67	-52.4	-67.7	3.8	1.49e+00	0	44	104	0	76	20820
2026-01-14 00:24:17.62	225.41	22.53	-52.4	-67.7	3.8	1.49e+00	0	44	104	0	76	20903
2026-01-14 00:24:18.61	225.32	22.40	-52.4	-67.7	3.8	1.49e+00	0	44	104	0	76	20904
2026-01-14 00:24:19.61	225.23	22.26	-52.4	-67.6	3.8	1.49e+00	0	44	104	0	76	20754
2026-01-14 00:24:20.60	225.14	22.13	-52.4	-67.6	3.8	1.49e+00	0	44	104	0	76	20759
2026-01-14 00:24:21.59	225.05	21.99	-52.4	-67.7	3.8	1.49e+00	0	44	104	0	76	20786
2026-01-14 00:24:22.59	224.96	21.86	-52.4	-67.7	3.8	1.49e+00	0	44	104	0	76	20833
2026-01-14 00:24:23.58	224.88	21.73	-52.4	-67.7	3.8	1.49e+00	0	44	104	0	76	20852
2026-01-14 00:24:24.57	224.79	21.60	-52.4	-67.7	3.8	1.49e+00	0	44	104	0	76	20821
2026-01-14 00:24:25.56	224.70	21.47	-52.4	-67.7	3.8	1.49e+00	0	44	104	0	76	20788
2026-01-14 00:24:26.56	224.62	21.34	-52.4	-67.6	3.8	1.49e+00	0	44	104	0	76	20669
2026-01-14 00:24:27.55	224.53	21.21	-52.4	-67.7	3.8	1.49e+00	0	43	104	0	76	20814
2026-01-14 00:24:28.54	224.45	21.08	-52.4	-67.6	3.8	1.49e+00	0	44	104	0	76	20749
2026-01-14 00:24:29.54	224.37	20.95	-52.4	-67.7	3.8	1.49e+00	0	44	104	0	76	20835
2026-01-14 00:24:30.53	224.28	20.82	-52.4	-67.7	3.8	1.49e+00	0	44	104	0	76	20811
2026-01-14 00:24:31.53	224.20	20.69	-52.4	-67.6	3.8	1.49e+00	0	44	104	0	76	20752
2026-01-14 00:24:32.52	224.12	20.57	-52.4	-67.7	3.8	1.49e+00	0	44	104	0	76	20894
2026-01-14 00:24:33.51	224.04	20.44	-52.4	-67.7	3.8	1.49e+00	0	44	104	0	76	20799
2026-01-14 00:24:34.51	223.96	20.31	-52.4	-67.7	3.8	1.49e+00	0	44	104	0	76	20832
2026-01-14 00:24:35.50	223.88	20.19	-52.4	-67.6	3.8	1.49e+00	0	44	104	0	76	20728
2026-01-14 00:24:36.49	223.80	20.06	-52.4	-67.7	3.8	1.49e+00	0	44	104	0	76	20811
2026-01-14 00:24:37.49	223.72	19.94	-52.4	-67.7	3.8	1.49e+00	0	44	104	0	76	20794
2026-01-14 00:24:38.48	223.65	19.82	-52.4	-67.6	3.8	1.49e+00	0	44	104	0	76	20737
2026-01-14 00:24:39.47	223.57	19.69	-52.4	-67.7	3.8	1.49e+00	0	44	104	0	76	20826
2026-01-14 00:24:40.47	223.50	19.57	-52.4	-67.7	3.8	1.49e+00	0	44	104	0	76	20843
2026-01-14 00:24:41.46	223.42	19.45	-52.4	-67.6	3.8	1.49e+00	0	44	104	0	76	20754
2026-01-14 00:24:42.46	223.35	19.33	-52.4	-67.6	3.8	1.49e+00	0	44	104	0	76	20775
2026-01-14 00:24:43.45	223.27	19.21	-52.4	-67.6	3.8	1.49e+00	0	44	104	0	76	20769
2026-01-14 00:24:44.44	223.20	19.09	-52.4	-67.7	3.8	1.49e+00	0	44	104	0	76	20785
2026-01-14 00:24:45.44	223.13	18.97	-52.4	-67.7	3.8	1.49e+00	0	44	104	0	76	20851
2026-01-14 00:24:46.43	223.05	18.85	-52.4	-67.7	3.8	1.49e+00	0	44	104	0	76	20806
2026-01-14 00:24:47.42	222.98	18.73	-52.4	-67.7	3.8	1.49e+00	0	44	104	0	76	20855
2026-01-14 00:24:48.42	222.91	18.61	-52.4	-67.7	3.8	1.49e+00	0	44	104	0	76	20808
2026-01-14 00:24:49.41	222.84	18.49	-52.4	-67.7	3.8	1.49e+00	0	44	104	0	76	20789
2026-01-14 00:24:50.40	222.77	18.38	-52.4	-67.7	3.8	1.49e+00	0	44	104	0	76	20835
2026-01-14 00:24:51.40	222.70	18.26	-52.4	-67.7	3.8	1.49e+00	0	44	104	0	76	20783
2026-01-14 00:24:52.39	222.63	18.14	-52.4	-67.7	3.8	1.49e+00	0	44	104	0	76	20785
2026-01-14 00:24:53.38	222.56	18.03	-52.4	-67.7	3.8	1.49e+00	0	44	104	0	76	20777
2026-01-14 00:24:54.37	222.50	17.91	-52.4	-67.7	3.8	1.49e+00	0	44	104	0	76	20779
2026-01-14 00:24:55.37	222.43	17.80	-52.4	-67.6	3.8	1.49e+00	0	44	104	0	76	20723
2026-01-14 00:24:56.36	222.36	17.68	-52.4	-67.6	3.8	1.49e+00	0	44	104	0	76	20772
2026-01-14 00:24:57.36	222.30	17.57	-52.4	-67.6	3.8	1.49e+00	0	44	104	0	76	20769
2026-01-14 00:24:58.35	222.23	17.46	-52.4	-67.7	3.8	1.49e+00	0	44	104	0	76	20819
2026-01-14 00:24:59.34	222.17	17.34	-52.4	-67.7	3.8	1.49e+00	0	44	104	0	76	20790
2026-01-14 00:25:00.34	222.10	17.23	-52.4	-67.7	3.8	1.49e+00	0	44	104	0	76	20820
2026-01-14 00:25:01.33	222.04	17.12	-52.4	-67.7	3.8	1.49e+00	0	44	104	0	76	20806
2026-01-14 00:25:02.32	221.97	17.01	-52.4	-67.7	3.8	1.49e+00	0	44	104	0	76	20781
2026-01-14 00:25:03.32	221.91	16.90	-52.4	-67.7	3.8	1.49e+00	0	44	104	0	76	20803
2026-01-14 00:25:04.31	221.85	16.79	-52.4	-67.6	3.8	1.49e+00	0	44	104	0	76	20694
2026-01-14 00:25:05.30	221.78	16.68	-52.4	-67.6	3.8	1.49e+00	0	44	104	0	76	20773
2026-01-14 00:25:06.30	221.72	16.57	-52.4	-67.6	3.8	1.49e+00	0	44	104	0	76	20759
2026-01-14 00:25:07.29	221.66	16.46	-52.4	-67.6	3.8	1.49e+00	0	44	104	0	76	20742
2026-01-14 00:25:08.28	221.60	16.35	-52.4	-67.7	3.8	1.49e+00	0	44	104	0	76	20788
2026-01-14 00:25:09.28	221.54	16.24	-52.4	-67.7	3.8	1.49e+00	0	44	104	0	76	20781
2026-01-14 00:25:10.27	221.48	16.14	-52.4	-67.7	3.8	1.49e+00	0	44	104	0	76	20777
2026-01-14 00:25:11.26	221.42	16.03	-52.4	-67.6	3.8	1.49e+00	0	44	104	0	76	20754
2026-01-14 00:25:12.25	221.36	15.92	-52.4	-67.7	3.8	1.49e+00	0	44	104	0	76	20788
2026-01-14 00:25:13.25	221.30	15.82	-52.4	-67.6	3.8	1.49e+00	0	43	104	0	76	20723
2026-01-14 00:25:14.24	221.25	15.71	-52.4	-67.6	3.8	1.49e+00	0	44	104	0	76	20663
2026-01-14 00:25:15.23	221.19	15.60	-52.4	-67.7	3.8	1.49e+00	0	44	104	0	76	20784
2026-01-14 00:25:16.23	221.13	15.50	-52.4	-67.7	3.8	1.49e+00	0	44	104	0	76	20800
2026-01-14 00:25:17.22	221.07	15.39	-52.4	-67.7	3.8	1.49e+00	0	44	104	0	76	20880
2026-01-14 00:25:18.21	221.02	15.29	-52.4	-67.7	3.8	1.49e+00	0	44	104	0	76	20777
2026-01-14 00:25:19.20	220.96	15.19	-52.4	-67.6	3.8	1.49e+00	0	44	104	0	76	20771
2026-01-14 00:25:20.20	220.90	15.08	-52.4	-67.6	3.8	1.49e+00	0	44	104	0	76	20771
2026-01-14 00:25:21.19	220.85	14.98	-52.4	-67.6	3.8	1.49e+00	0	44	104	0	76	20720
2026-01-14 00:25:22.18	220.80	14.88	-52.4	-67.6	3.8	1.49e+00	0	44	104	0	76	20697
2026-01-14 00:25:23.18	220.74	14.78	-52.4	-67.6	3.8	1.49e+00	0	44	104	0	76	20707
2026-01-14 00:25:24.17	220.69	14.67	-52.4	-67.6	3.8	1.49e+00	0	44	104	0	76	20729
2026-01-14 00:25:25.16	220.63	14.57	-52.4	-67.7	3.8	1.49e+00	0	44	104	0	76	20821
2026-01-14 00:25:26.16	220.58	14.47	-52.4	-67.7	3.8	1.49e+00	0	44	104	0	76	20820
2026-01-14 00:25:27.15	220.53	14.37	-52.4	-67.6	3.8	1.49e+00	0	44	104	0	76	20753
2026-01-14 00:25:28.14	220.47	14.27	-52.4	-67.6	3.8	1.49e+00	0	44	104	0	76	20683
2026-01-14 00:25:29.13	220.42	14.17	-52.4	-67.6	3.8	1.49e+00	0	44	104	0	76	20700
2026-01-14 00:25:30.13	220.37	14.07	-52.4	-67.7	3.8	1.49e+00	0	44	104	0	76	20792
2026-01-14 00:25:31.12	220.32	13.97	-52.4	-67.6	3.8	1.49e+00	0	44	104	0	76	20699
2026-01-14 00:25:32.11	220.27	13.88	-52.4	-67.6	3.8	1.49e+00	0	44	104	0	76	20716
2026-01-14 00:25:33.11	220.22	13.78	-52.4	-67.6	3.8	1.49e+00	0	44	104	0	76	20672
2026-01-14 00:25:34.10	220.17	13.68	-52.4	-67.6	3.8	1.49e+00	0	44	104	0	76	20723
2026-01-14 00:25:35.09	220.12	13.58	-52.4	-67.7	3.8	1.49e+00	0	44	104	0	76	20788
2026-01-14 00:25:36.09	220.07	13.48	-52.4	-67.6	3.8	1.49e+00	0	44	104	0	76	20666
2026-01-14 00:25:37.08	220.02	13.39	-52.4	-67.6	3.8	1.49e+00	0	44	104	0	76	20694
2026-01-14 00:25:38.07	219.97	13.29	-52.4	-67.7	3.8	1.49e+00	0	44	104	0	76	20805
2026-01-14 00:25:39.07	219.92	13.19	-52.4	-67.6	3.8	1.49e+00	0	44	104	0	76	20776
2026-01-14 00:25:40.06	219.87	13.10	-52.4	-67.7	3.8	1.49e+00	0	44	104	0	76	20801
2026-01-14 00:25:41.05	219.82	13.00	-52.4	-67.6	3.8	1.49e+00	0	44	104	0	76	20729
2026-01-14 00:25:42.04	219.77	12.91	-52.4	-67.6	3.8	1.49e+00	0	44	104	0	76	20773
2026-01-14 00:25:43.04	219.73	12.81	-52.4	-67.6	3.8	1.49e+00	0	44	104	0	76	20684
2026-01-14 00:25:44.03	219.68	12.72	-52.4	-67.6	3.8	1.49e+00	0	44	104	0	76	20712
2026-01-14 00:25:45.02	219.63	12.63	-52.4	-67.7	3.8	1.49e+00	0	44	104	0	76	20805
2026-01-14 00:25:46.01	219.59	12.53	-52.4	-67.6	3.8	1.49e+00	0	44	104	0	76	20755
2026-01-14 00:25:47.01	219.54	12.44	-52.4	-67.7	3.8	1.49e+00	0	44	104	0	76	20782
2026-01-14 00:25:48.00	219.50	12.35	-52.4	-67.6	3.8	1.49e+00	0	44	104	0	76	20742
2026-01-14 00:25:48.99	219.45	12.25	-52.4	-67.7	3.8	1.49e+00	0	44	104	0	76	20807
2026-01-14 00:25:49.99	219.40	12.16	-52.4	-67.7	3.8	1.49e+00	0	44	104	0	76	20862
2026-01-14 00:25:50.98	219.36	12.07	-52.4	-67.7	3.8	1.49e+00	0	44	104	0	76	20804
2026-01-14 00:25:51.97	219.31	11.98	-52.4	-67.6	3.8	1.49e+00	0	44	104	0	76	20755
2026-01-14 00:25:52.97	219.27	11.89	-52.4	-67.7	3.8	1.49e+00	0	44	104	0	76	20793
2026-01-14 00:25:53.96	219.23	11.80	-52.4	-67.6	3.8	1.49e+00	0	44	104	0	76	20770
2026-01-14 00:25:54.95	219.18	11.71	-52.4	-67.7	3.8	1.49e+00	0	44	104	0	76	20819
2026-01-14 00:25:55.95	219.14	11.62	-52.4	-67.6	3.8	1.49e+00	0	44	104	0	76	20674
2026-01-14 00:25:56.94	219.10	11.53	-52.4	-67.6	3.8	1.49e+00	0	44	104	0	76	20775
2026-01-14 00:25:57.93	219.05	11.44	-52.4	-67.7	3.8	1.49e+00	0	44	104	0	76	20823
2026-01-14 00:25:58.93	219.01	11.35	-52.4	-67.6	3.8	1.49e+00	0	44	104	0	76	20732
2026-01-14 00:25:59.92	218.97	11.26	-52.4	-67.7	3.8	1.49e+00	0	44	104	0	76	20855
2026-01-14 00:26:00.91	218.93	11.17	-52.4	-67.6	3.8	1.49e+00	0	44	104	0	76	20752
2026-01-14 00:26:01.91	218.88	11.08	-52.4	-67.6	3.8	1.49e+00	0	44	104	0	76	20763
2026-01-14 00:26:02.90	218.84	10.99	-52.4	-67.7	3.8	1.49e+00	0	44	104	0	76	20798
2026-01-14 00:26:03.89	218.80	10.90	-52.4	-67.6	3.8	1.49e+00	0	44	104	0	76	20712
2026-01-14 00:26:04.89	218.76	10.82	-52.4	-67.7	3.8	1.49e+00	0	44	104	0	76	20799
2026-01-14 00:26:05.88	218.72	10.73	-52.4	-67.6	3.8	1.49e+00	0	44	104	0	76	20676
2026-01-14 00:26:06.87	218.68	10.64	-52.4	-67.7	3.8	1.49e+00	0	44	104	0	76	20792
2026-01-14 00:26:07.86	218.64	10.56	-52.4	-67.6	3.8	1.49e+00	0	44	104	0	76	20728
2026-01-14 00:26:08.86	218.60	10.47	-52.4	-67.6	3.8	1.49e+00	0	44	104	0	76	20707
2026-01-14 00:26:09.85	218.56	10.38	-52.4	-67.6	3.8	1.49e+00	0	44	104	0	76	20755
2026-01-14 00:26:10.84	218.52	10.30	-52.4	-67.6	3.8	1.49e+00	0	44	104	0	76	20764
2026-01-14 00:26:11.84	218.48	10.21	-52.4	-67.6	3.8	1.49e+00	0	44	104	0	76	20731
2026-01-14 00:26:12.83	218.44	10.13	-52.4	-67.6	3.8	1.49e+00	0	44	104	0	76	20707
2026-01-14 00:26:13.82	218.40	10.04	-52.4	-67.6	3.8	1.49e+00	0	44	104	0	76	20684
2026-01-14 00:26:14.82	218.36	9.96	-52.4	-67.6	3.8	1.49e+00	0	44	104	0	76	20729
2026-01-14 00:26:15.81	218.32	9.87	-52.4	-67.6	3.8	1.49e+00	0	44	104	0	76	20762
2026-01-14 00:26:16.80	218.29	9.79	-52.4	-67.6	3.8	1.49e+00	0	44	104	0	76	20737
2026-01-14 00:26:17.80	218.25	9.70	-52.4	-67.7	3.8	1.49e+00	0	44	104	0	76	20782
2026-01-14 00:26:18.79	218.21	9.62	-52.4	-67.6	3.8	1.49e+00	0	44	104	0	76	20732
2026-01-14 00:26:19.78	218.17	9.54	-52.4	-67.7	3.8	1.49e+00	0	44	104	0	76	20790
2026-01-14 00:26:20.77	218.14	9.45	-52.4	-67.7	3.8	1.49e+00	0	44	104	0	76	20816
2026-01-14 00:26:21.77	218.10	9.37	-52.4	-67.6	3.8	1.49e+00	0	44	104	0	76	20722
2026-01-14 00:26:22.76	218.06	9.29	-52.4	-67.7	3.8	1.49e+00	0	44	104	0	76	20823
2026-01-14 00:26:23.75	218.03	9.21	-52.4	-67.6	3.8	1.49e+00	0	44	104	0	76	20709
2026-01-14 00:26:24.75	217.99	9.12	-52.4	-67.7	3.8	1.49e+00	0	44	104	0	76	20875
2026-01-14 00:26:25.74	217.95	9.04	-52.4	-67.6	3.8	1.49e+00	0	44	104	0	76	20755
2026-01-14 00:26:26.73	217.92	8.96	-52.4	-67.6	3.8	1.49e+00	0	44	104	0	76	20665
2026-01-14 00:26:27.73	217.88	8.88	-52.4	-67.6	3.8	1.49e+00	0	44	104	0	76	20742
2026-01-14 00:26:28.72	217.85	8.80	-52.4	-67.7	3.8	1.49e+00	0	44	104	0	76	20814
2026-01-14 00:26:29.71	217.81	8.72	-52.4	-67.7	3.8	1.49e+00	0	44	104	0	76	20824
2026-01-14 00:26:30.71	217.78	8.64	-52.4	-67.6	3.8	1.49e+00	0	44	104	0	76	20761
2026-01-14 00:26:31.70	217.74	8.56	-52.4	-67.6	3.8	1.49e+00	0	44	104	0	76	20740
2026-01-14 00:26:32.69	217.71	8.48	-52.4	-67.6	3.8	1.49e+00	0	44	104	0	76	20776
2026-01-14 00:26:33.69	217.67	8.40	-52.4	-67.7	3.8	1.49e+00	0	44	104	0	76	20785
2026-01-14 00:26:34.68	217.64	8.32	-52.4	-67.6	3.8	1.49e+00	0	44	104	0	76	20758
2026-01-14 00:26:35.67	217.60	8.24	-52.4	-67.6	3.8	1.49e+00	0	44	104	0	76	20729
2026-01-14 00:26:36.67	217.57	8.16	-52.4	-67.6	3.8	1.49e+00	0	44	104	0	76	20764
2026-01-14 00:26:37.66	217.54	8.08	-52.4	-67.7	3.8	1.49e+00	0	44	104	0	76	20797
2026-01-14 00:26:38.65	217.50	8.00	-52.4	-67.6	3.8	1.49e+00	0	44	104	0	76	20765
2026-01-14 00:26:39.65	217.47	7.92	-52.4	-67.7	3.8	1.49e+00	0	44	104	0	76	20797
2026-01-14 00:26:40.64	217.44	7.85	-52.4	-67.6	3.8	1.49e+00	0	44	104	0	76	20758
2026-01-14 00:26:41.63	217.40	7.77	-52.4	-67.7	3.8	1.49e+00	0	44	104	0	76	20788
2026-01-14 00:26:42.63	217.37	7.69	-52.4	-67.7	3.8	1.49e+00	0	44	104	0	76	20834
2026-01-14 00:26:43.62	217.34	7.61	-52.4	-67.6	3.8	1.49e+00	0	44	104	0	76	20628
2026-01-14 00:26:44.61	217.31	7.54	-52.4	-67.7	3.8	1.49e+00	0	44	104	0	76	20850
2026-01-14 00:26:45.61	217.27	7.46	-52.4	-67.7	3.8	1.49e+00	0	44	104	0	76	20801
2026-01-14 00:26:46.60	217.24	7.38	-52.4	-67.7	3.8	1.49e+00	0	44	104	0	76	20856
2026-01-14 00:26:47.59	217.21	7.31	-52.4	-67.6	3.8	1.49e+00	0	44	104	0	76	20687
2026-01-14 00:26:48.59	217.18	7.23	-52.4	-67.6	3.8	1.49e+00	0	44	104	0	76	20697
2026-01-14 00:26:49.58	217.15	7.15	-52.4	-67.6	3.8	1.49e+00	0	44	104	0	76	20727
2026-01-14 00:26:50.57	217.12	7.08	-52.4	-67.7	3.8	1.49e+00	0	44	104	0	76	20782
