passes_logs/2026/01/14/T1/T1__20260114_140855_FENGYUN_3E_rec.log

#Pass ID: 20260114_140855_FENGYUN 3E
#Satellite: FENGYUN 3E
#Configuration: FENGYUN 3E
#almurnet v.1.7.20251203
#Start time: 2026-01-14 14:08:56

#Version: 2.0.20230620
#Station: T1
#Location: 37.570604 lon 55.790049 lat
#TLE: 1 49008U 21062A   26013.59634448 -.00000226  00000+0 -85925-4 0  9991
#TLE: 2 49008  98.7491  18.7414 0001953 139.1941 220.9382 14.19884160234649

#Time	Az	El	Level	Level2	SNR	BER	BlckErr	Temp	State	Recorded	gain1	gain2
2026-01-14 14:08:56.62	158.39	5.06	-48.8	-61.3	3.8	8.46e-01	0	38	0	0	67	15637
2026-01-14 14:08:57.61	158.39	5.13	-48.9	-61.4	3.8	8.46e-01	0	38	104	0	68	14959
2026-01-14 14:08:58.60	158.39	5.20	-49.0	-61.4	3.8	8.47e-01	0	38	104	0	68	15019
2026-01-14 14:08:59.60	158.38	5.28	-48.9	-61.4	3.8	8.46e-01	0	38	104	0	68	14961
2026-01-14 14:09:00.59	158.38	5.35	-48.9	-61.4	3.8	8.46e-01	0	38	104	0	68	15013
2026-01-14 14:09:01.58	158.38	5.42	-49.0	-61.4	3.8	8.47e-01	0	38	104	0	68	14951
2026-01-14 14:09:02.58	158.38	5.49	-49.0	-61.4	3.8	8.46e-01	0	38	104	0	68	15046
2026-01-14 14:09:03.57	158.38	5.56	-49.0	-61.4	3.8	8.46e-01	0	38	104	0	68	15049
2026-01-14 14:09:04.57	158.37	5.64	-49.0	-61.4	3.8	8.47e-01	0	38	104	0	68	14959
2026-01-14 14:09:05.56	158.37	5.71	-49.0	-61.4	3.8	8.46e-01	0	38	104	0	68	14900
2026-01-14 14:09:06.55	158.37	5.78	-49.0	-61.4	3.8	8.48e-01	0	38	104	0	68	14998
2026-01-14 14:09:07.55	158.37	5.86	-49.0	-61.4	3.8	8.48e-01	0	38	104	0	68	15042
2026-01-14 14:09:08.54	158.37	5.93	-49.0	-61.4	3.8	8.47e-01	0	38	104	0	68	15014
2026-01-14 14:09:09.54	158.37	6.01	-48.9	-61.4	3.8	8.48e-01	0	38	104	0	68	15018
2026-01-14 14:09:10.53	158.36	6.08	-48.9	-61.4	3.8	8.47e-01	0	38	104	0	68	14989
2026-01-14 14:09:11.52	158.36	6.15	-48.9	-61.5	3.8	8.46e-01	0	38	104	0	68	15097
2026-01-14 14:09:12.52	158.36	6.23	-49.0	-61.4	3.8	8.47e-01	0	38	104	0	68	14975
2026-01-14 14:09:13.51	158.36	6.30	-48.9	-61.4	3.8	8.48e-01	0	38	104	0	68	15033
2026-01-14 14:09:14.50	158.36	6.38	-48.9	-61.5	3.8	8.47e-01	0	38	104	0	68	15053
2026-01-14 14:09:15.50	158.35	6.46	-48.9	-61.5	3.8	8.47e-01	0	39	104	0	68	15060
2026-01-14 14:09:16.54	158.35	6.53	-49.0	-61.4	3.8	8.47e-01	0	39	104	0	68	15038
2026-01-14 14:09:17.52	158.35	6.61	-48.9	-61.4	3.8	8.47e-01	0	39	104	0	68	15037
2026-01-14 14:09:18.59	158.35	6.69	-48.9	-61.4	3.8	8.48e-01	0	39	104	0	68	14991
2026-01-14 14:09:19.44	158.34	6.76	-48.9	-61.4	3.8	8.46e-01	0	39	104	0	68	15040
2026-01-14 14:09:20.58	158.34	6.84	-49.0	-61.4	3.8	8.45e-01	0	39	104	0	68	14984
2026-01-14 14:09:21.43	158.34	6.91	-48.9	-61.4	3.8	8.47e-01	0	39	104	0	68	15025
2026-01-14 14:09:22.57	158.34	7.00	-48.9	-61.4	3.8	8.47e-01	0	39	104	0	68	15038
2026-01-14 14:09:23.42	158.34	7.06	-48.9	-61.4	3.8	8.46e-01	0	39	104	0	68	14923
2026-01-14 14:09:24.56	158.33	7.15	-48.9	-61.5	3.8	8.48e-01	0	39	104	0	68	15089
2026-01-14 14:09:25.41	158.33	7.22	-48.9	-61.4	3.8	8.46e-01	0	39	104	0	68	15025
2026-01-14 14:09:26.55	158.33	7.31	-48.9	-61.4	3.8	8.47e-01	0	39	104	0	68	15045
2026-01-14 14:09:27.40	158.33	7.37	-48.9	-61.5	3.8	8.47e-01	0	39	104	0	68	15053
2026-01-14 14:09:28.53	158.32	7.46	-48.9	-61.4	3.8	8.47e-01	0	39	104	0	68	15039
2026-01-14 14:09:29.38	158.32	7.53	-48.9	-61.5	3.8	8.47e-01	0	39	104	0	68	15113
2026-01-14 14:09:30.52	158.32	7.62	-48.9	-61.4	3.8	8.47e-01	0	39	104	0	68	14936
2026-01-14 14:09:31.37	158.32	7.69	-48.9	-61.4	3.8	8.46e-01	0	39	104	0	68	14976
2026-01-14 14:09:32.51	158.31	7.78	-48.9	-61.4	3.8	8.46e-01	0	39	104	0	68	15048
2026-01-14 14:09:33.36	158.31	7.85	-48.9	-61.5	3.8	8.47e-01	0	39	104	0	68	15064
2026-01-14 14:09:34.49	158.31	7.94	-48.9	-61.4	3.8	8.47e-01	0	39	104	0	68	14986
2026-01-14 14:09:35.35	158.31	8.01	-49.0	-61.5	3.8	8.47e-01	0	39	104	0	68	15069
2026-01-14 14:09:36.48	158.30	8.10	-48.9	-61.4	3.8	8.46e-01	0	39	104	0	68	15040
2026-01-14 14:09:37.45	158.30	8.18	-49.0	-61.5	3.8	8.46e-01	0	39	104	0	68	15068
2026-01-14 14:09:38.44	158.30	8.26	-49.0	-61.4	3.8	8.47e-01	0	39	104	0	68	15003
2026-01-14 14:09:39.43	158.30	8.34	-49.0	-61.4	3.8	8.46e-01	0	39	104	0	68	14989
2026-01-14 14:09:40.43	158.29	8.42	-49.0	-61.4	3.8	8.48e-01	0	39	104	0	68	15020
2026-01-14 14:09:41.42	158.29	8.50	-48.9	-61.5	3.8	8.48e-01	0	39	104	0	68	15081
2026-01-14 14:09:42.42	158.29	8.59	-48.9	-61.4	3.8	8.46e-01	0	39	104	0	68	15033
2026-01-14 14:09:43.41	158.28	8.67	-49.0	-61.4	3.8	8.46e-01	0	39	104	0	68	14998
2026-01-14 14:09:44.41	158.28	8.75	-49.0	-61.5	3.8	8.47e-01	0	39	104	0	68	15154
2026-01-14 14:09:45.40	158.28	8.83	-48.9	-61.5	3.8	8.46e-01	0	39	104	0	68	15065
2026-01-14 14:09:46.39	158.28	8.91	-48.9	-61.4	3.8	8.46e-01	0	39	104	0	68	14992
2026-01-14 14:09:47.39	158.27	9.00	-48.9	-61.4	3.8	8.47e-01	0	39	104	0	68	15044
2026-01-14 14:09:48.38	158.27	9.08	-48.9	-61.4	3.8	8.47e-01	0	39	104	0	68	15046
2026-01-14 14:09:49.37	158.27	9.17	-49.0	-61.4	3.8	8.48e-01	0	39	104	0	68	14949
2026-01-14 14:09:50.46	158.26	9.26	-49.0	-61.4	3.8	8.46e-01	0	39	104	0	68	14959
2026-01-14 14:09:51.32	158.26	9.33	-49.0	-61.4	3.8	8.47e-01	0	39	104	0	68	15027
2026-01-14 14:09:52.45	158.26	9.43	-48.9	-61.4	3.8	8.47e-01	0	39	104	0	68	14967
2026-01-14 14:09:53.30	158.25	9.50	-49.0	-61.5	3.8	8.47e-01	0	40	104	0	68	15084
2026-01-14 14:09:54.44	158.25	9.60	-49.0	-61.5	3.8	8.47e-01	0	39	104	0	68	15063
2026-01-14 14:09:55.29	158.25	9.67	-48.9	-61.4	3.8	8.47e-01	0	39	104	0	68	15045
2026-01-14 14:09:56.42	158.24	9.77	-48.9	-61.4	3.8	8.46e-01	0	39	104	0	68	15000
2026-01-14 14:09:57.28	158.24	9.84	-49.0	-61.5	3.8	8.48e-01	0	39	104	0	68	15091
2026-01-14 14:09:58.41	158.24	9.94	-49.0	-61.4	3.8	8.46e-01	0	40	104	0	68	14947
2026-01-14 14:09:59.26	158.23	10.02	-48.9	-61.5	3.8	8.47e-01	0	39	104	0	68	15074
2026-01-14 14:10:00.40	158.23	10.12	-48.9	-61.4	3.8	8.46e-01	0	39	104	0	68	14986
2026-01-14 14:10:01.25	158.23	10.19	-48.9	-61.4	3.8	8.48e-01	0	40	104	0	68	15036
2026-01-14 14:10:02.47	158.22	10.30	-49.0	-61.4	3.8	8.46e-01	0	39	104	0	68	15047
2026-01-14 14:10:03.32	158.22	10.37	-48.9	-61.5	3.8	8.47e-01	0	39	104	0	68	15087
2026-01-14 14:10:04.53	158.22	10.48	-48.9	-61.4	3.8	8.47e-01	0	40	104	0	68	15023
2026-01-14 14:10:05.39	158.21	10.56	-48.9	-61.4	3.8	8.48e-01	0	40	104	0	68	15001
2026-01-14 14:10:06.58	158.21	10.66	-48.9	-61.4	3.8	8.47e-01	0	40	104	0	68	15024
2026-01-14 14:10:07.44	158.20	10.74	-48.9	-61.5	3.8	8.48e-01	0	40	104	0	68	15190
2026-01-14 14:10:08.64	158.20	10.85	-49.0	-61.5	3.8	8.46e-01	0	40	104	0	68	15106
2026-01-14 14:10:09.49	158.20	10.93	-48.9	-61.4	3.8	8.45e-01	0	39	104	0	68	15032
2026-01-14 14:10:10.69	158.19	11.04	-49.0	-61.4	3.8	8.48e-01	0	40	104	0	68	14963
2026-01-14 14:10:11.54	158.19	11.11	-49.0	-61.5	3.8	8.47e-01	0	40	104	0	68	15083
2026-01-14 14:10:12.74	158.18	11.22	-49.0	-61.4	3.8	8.47e-01	0	40	104	0	68	14993
2026-01-14 14:10:13.59	158.18	11.30	-49.0	-61.5	3.8	8.47e-01	0	40	104	0	68	15052
2026-01-14 14:10:14.73	158.18	11.41	-49.0	-61.4	3.8	8.47e-01	0	40	104	0	68	15030
2026-01-14 14:10:15.58	158.17	11.49	-48.9	-61.5	3.8	8.47e-01	0	40	104	0	68	15189
2026-01-14 14:10:16.71	158.17	11.59	-49.0	-61.5	3.8	8.48e-01	0	40	104	0	68	15109
2026-01-14 14:10:17.57	158.17	11.67	-49.0	-61.4	3.8	8.47e-01	0	40	104	0	68	15006
2026-01-14 14:10:18.70	158.16	11.78	-49.0	-61.4	3.8	8.46e-01	0	40	104	0	68	15046
2026-01-14 14:10:19.55	158.16	11.86	-49.0	-61.4	3.8	8.47e-01	0	40	104	0	68	15038
2026-01-14 14:10:21.00	158.15	11.99	-49.0	-61.5	3.8	8.46e-01	0	40	104	0	68	15056
2026-01-14 14:10:21.71	158.15	12.06	-49.0	-61.5	3.8	8.47e-01	0	40	104	0	68	15092
2026-01-14 14:10:22.99	158.14	12.18	-49.0	-61.5	3.8	8.47e-01	0	40	104	0	68	15089
2026-01-14 14:10:23.72	158.14	12.25	-48.9	-61.5	3.8	8.46e-01	0	40	104	0	68	15096
2026-01-14 14:10:25.00	158.13	12.38	-48.9	-61.4	3.8	8.47e-01	0	40	104	0	68	15018
2026-01-14 14:10:25.75	158.13	12.45	-49.0	-61.4	3.8	8.47e-01	0	40	104	0	68	14975
2026-01-14 14:10:27.03	158.12	12.57	-49.0	-61.4	3.8	8.47e-01	0	40	104	0	68	15013
2026-01-14 14:10:27.80	158.12	12.65	-48.9	-61.4	3.8	8.47e-01	0	40	104	0	68	14982
2026-01-14 14:10:29.08	158.11	12.77	-48.9	-61.4	3.8	8.46e-01	0	40	104	0	68	15026
2026-01-14 14:10:29.85	158.11	12.85	-49.0	-61.4	3.8	8.46e-01	0	40	104	0	68	15051
2026-01-14 14:10:31.13	158.10	12.97	-48.9	-61.5	3.8	8.46e-01	0	40	104	0	68	15057
2026-01-14 14:10:31.90	158.10	13.05	-49.0	-61.4	3.8	8.47e-01	0	40	104	0	68	14996
2026-01-14 14:10:33.18	158.09	13.18	-48.9	-61.5	3.8	8.46e-01	0	40	104	0	68	15079
2026-01-14 14:10:33.98	158.09	13.26	-48.9	-61.4	3.8	8.46e-01	0	40	104	0	68	15017
2026-01-14 14:10:35.12	158.09	13.37	-49.0	-61.4	3.8	8.48e-01	0	40	104	0	68	15032
2026-01-14 14:10:36.16	158.08	13.48	-49.0	-61.4	3.8	8.47e-01	0	40	104	0	68	14997
2026-01-14 14:10:37.33	158.07	13.59	-48.9	-61.4	3.8	8.47e-01	0	40	104	0	68	14930
2026-01-14 14:10:38.21	158.07	13.68	-49.0	-61.5	3.8	8.47e-01	0	40	104	0	68	15112
2026-01-14 14:10:39.35	158.06	13.80	-49.0	-61.5	3.8	8.46e-01	0	40	104	0	68	15100
2026-01-14 14:10:40.20	158.06	13.89	-49.0	-61.4	3.8	8.46e-01	0	40	104	0	68	15035
2026-01-14 14:10:41.34	158.05	14.00	-49.0	-61.5	3.8	8.46e-01	0	40	104	0	68	15089
2026-01-14 14:10:42.19	158.05	14.09	-49.0	-61.5	3.8	8.47e-01	0	40	104	0	68	15098
2026-01-14 14:10:43.32	158.04	14.21	-49.0	-61.5	3.8	8.46e-01	0	40	104	0	68	15074
2026-01-14 14:10:44.18	158.04	14.30	-49.0	-61.4	3.8	8.48e-01	0	40	104	0	68	15042
2026-01-14 14:10:45.31	158.03	14.42	-49.0	-61.5	3.8	8.47e-01	0	40	104	0	68	15150
2026-01-14 14:10:46.16	158.03	14.50	-49.0	-61.4	3.8	8.46e-01	0	40	104	0	68	15042
2026-01-14 14:10:47.30	158.02	14.63	-49.0	-61.4	3.8	8.45e-01	0	40	104	0	68	15045
2026-01-14 14:10:48.15	158.02	14.72	-49.0	-61.4	3.8	8.47e-01	0	40	104	0	68	14975
2026-01-14 14:10:49.29	158.01	14.84	-48.9	-61.4	3.8	8.46e-01	0	40	104	0	68	15044
2026-01-14 14:10:50.14	158.00	14.93	-48.9	-61.4	3.8	8.48e-01	0	40	104	0	68	14978
2026-01-14 14:10:51.28	158.00	15.05	-48.9	-61.4	3.8	8.46e-01	0	40	104	0	68	15013
2026-01-14 14:10:52.13	157.99	15.14	-49.0	-61.5	3.8	8.46e-01	0	40	104	0	68	15057
2026-01-14 14:10:53.27	157.99	15.26	-48.9	-61.5	3.8	8.47e-01	0	40	104	0	68	15096
2026-01-14 14:10:54.20	157.98	15.37	-49.0	-61.5	3.8	8.46e-01	0	40	104	0	68	15059
2026-01-14 14:10:55.19	157.97	15.47	-48.9	-61.4	3.8	8.46e-01	0	40	104	0	68	15047
2026-01-14 14:10:56.18	157.97	15.58	-48.9	-61.4	3.8	8.46e-01	0	40	104	0	68	15048
2026-01-14 14:10:57.18	157.96	15.69	-48.9	-61.5	3.8	8.47e-01	0	40	104	0	68	15108
2026-01-14 14:10:58.17	157.96	15.80	-49.0	-61.4	3.8	8.48e-01	0	40	104	0	68	14991
2026-01-14 14:10:59.16	157.95	15.91	-48.9	-61.5	3.8	8.48e-01	0	40	104	0	68	15055
2026-01-14 14:11:00.16	157.94	16.02	-48.9	-61.5	3.8	8.47e-01	0	40	104	0	68	15057
2026-01-14 14:11:01.15	157.94	16.13	-49.0	-61.5	3.8	8.48e-01	0	40	104	0	68	15097
2026-01-14 14:11:02.15	157.93	16.25	-48.9	-61.4	3.8	8.47e-01	0	40	104	0	68	14976
2026-01-14 14:11:03.14	157.92	16.36	-48.9	-61.4	3.8	8.48e-01	0	40	104	0	68	14986
2026-01-14 14:11:04.15	157.92	16.47	-49.0	-61.4	3.8	8.46e-01	0	40	104	0	68	15017
2026-01-14 14:11:05.19	157.91	16.59	-49.0	-61.5	3.8	8.47e-01	0	40	104	0	68	15056
2026-01-14 14:11:06.22	157.90	16.71	-48.9	-61.5	3.8	8.46e-01	0	40	104	0	68	15114
2026-01-14 14:11:07.25	157.89	16.83	-49.0	-61.5	3.8	8.46e-01	0	40	104	0	68	15082
2026-01-14 14:11:08.28	157.89	16.95	-49.0	-61.5	3.8	8.46e-01	0	40	104	0	68	15102
2026-01-14 14:11:09.27	157.88	17.06	-49.0	-61.4	3.8	8.46e-01	0	40	104	0	68	15025
2026-01-14 14:11:10.27	157.87	17.18	-49.0	-61.5	3.8	8.47e-01	0	40	104	0	68	15062
2026-01-14 14:11:11.26	157.87	17.30	-49.0	-61.5	3.8	8.46e-01	0	40	104	0	68	15125
2026-01-14 14:11:12.26	157.86	17.42	-49.0	-61.5	3.8	8.47e-01	0	40	104	0	68	15052
2026-01-14 14:11:13.25	157.85	17.53	-48.9	-61.5	3.8	8.47e-01	0	40	104	0	68	15147
2026-01-14 14:11:14.24	157.84	17.65	-48.9	-61.4	3.8	8.48e-01	0	40	104	0	68	14998
2026-01-14 14:11:15.23	157.84	17.77	-49.0	-61.5	3.8	8.47e-01	0	40	104	0	68	15078
2026-01-14 14:11:16.23	157.83	17.89	-49.0	-61.5	3.8	8.47e-01	0	40	104	0	68	15073
2026-01-14 14:11:17.22	157.82	18.01	-48.9	-61.4	3.8	8.47e-01	0	40	104	0	68	15006
2026-01-14 14:11:18.22	157.81	18.13	-49.0	-61.5	3.8	8.47e-01	0	40	104	0	68	15118
2026-01-14 14:11:19.21	157.81	18.25	-49.0	-61.5	3.8	8.46e-01	0	40	104	0	68	15066
2026-01-14 14:11:20.20	157.80	18.38	-48.9	-61.4	3.8	8.47e-01	0	40	104	0	68	15043
2026-01-14 14:11:21.20	157.79	18.50	-49.0	-61.5	3.8	8.47e-01	0	40	104	0	68	15059
2026-01-14 14:11:22.19	157.78	18.62	-49.0	-61.5	3.8	8.47e-01	0	40	104	0	68	15071
2026-01-14 14:11:23.19	157.77	18.75	-49.0	-61.4	3.8	8.47e-01	0	40	104	0	68	14971
2026-01-14 14:11:24.18	157.76	18.87	-49.0	-61.5	3.8	8.46e-01	0	40	104	0	68	15078
2026-01-14 14:11:25.24	157.76	19.00	-49.0	-61.4	3.8	8.46e-01	0	40	104	0	68	15023
2026-01-14 14:11:26.15	157.75	19.12	-49.0	-61.5	3.8	8.47e-01	0	40	104	0	68	15095
2026-01-14 14:11:27.32	157.74	19.27	-49.0	-61.5	3.8	8.48e-01	0	40	104	0	68	15055
2026-01-14 14:11:28.19	157.73	19.38	-49.0	-61.5	3.8	8.45e-01	0	40	104	0	68	15061
2026-01-14 14:11:29.50	157.72	19.55	-49.0	-61.4	3.8	8.46e-01	0	40	104	0	68	15005
2026-01-14 14:11:30.21	157.71	19.64	-49.0	-61.5	3.8	8.48e-01	0	40	104	0	68	15157
2026-01-14 14:11:31.49	157.70	19.81	-49.0	-61.4	3.8	8.47e-01	0	40	104	0	68	14996
2026-01-14 14:11:32.20	157.69	19.90	-49.0	-61.4	3.8	8.47e-01	0	40	104	0	68	14997
2026-01-14 14:11:33.47	157.68	20.07	-48.9	-61.5	3.8	8.46e-01	0	40	104	0	68	15115
2026-01-14 14:11:34.18	157.68	20.16	-48.9	-61.4	3.8	8.47e-01	0	40	104	0	68	14976
2026-01-14 14:11:35.46	157.66	20.33	-48.9	-61.5	3.8	8.47e-01	0	40	104	0	68	15090
2026-01-14 14:11:36.19	157.66	20.43	-48.9	-61.4	3.8	8.48e-01	0	40	104	0	68	15041
2026-01-14 14:11:37.47	157.64	20.60	-49.0	-61.5	3.8	8.45e-01	0	40	104	0	68	15054
2026-01-14 14:11:38.19	157.64	20.70	-49.0	-61.4	3.8	8.45e-01	0	40	104	0	68	14952
2026-01-14 14:11:39.47	157.62	20.87	-48.9	-61.4	3.8	8.47e-01	0	40	104	0	68	15021
2026-01-14 14:11:40.18	157.62	20.97	-49.0	-61.4	3.8	8.47e-01	0	40	104	0	68	15049
2026-01-14 14:11:41.52	157.60	21.15	-48.9	-61.5	3.8	8.47e-01	0	40	104	0	68	15055
2026-01-14 14:11:42.23	157.60	21.25	-48.9	-61.4	3.8	8.47e-01	0	40	104	0	68	15017
2026-01-14 14:11:43.59	157.58	21.44	-49.0	-61.4	3.8	8.47e-01	0	40	104	0	68	15033
2026-01-14 14:11:44.30	157.58	21.54	-49.0	-61.5	3.8	8.47e-01	0	40	104	0	68	15060
2026-01-14 14:11:45.62	157.56	21.72	-49.0	-61.4	3.8	8.47e-01	0	40	104	0	68	15025
2026-01-14 14:11:46.33	157.55	21.82	-49.0	-61.4	3.8	8.47e-01	0	40	104	0	68	15033
2026-01-14 14:11:47.61	157.54	22.00	-48.9	-61.5	3.8	8.48e-01	0	40	104	0	68	15054
2026-01-14 14:11:48.32	157.53	22.11	-49.0	-61.5	3.8	8.47e-01	0	40	104	0	68	15151
2026-01-14 14:11:49.60	157.52	22.29	-48.9	-61.5	3.8	8.46e-01	0	40	104	0	68	15055
2026-01-14 14:11:50.31	157.51	22.39	-48.9	-61.4	3.8	8.46e-01	0	40	104	0	68	14988
2026-01-14 14:11:51.59	157.50	22.58	-48.9	-61.4	3.8	8.46e-01	0	40	104	0	68	15026
2026-01-14 14:11:52.30	157.49	22.68	-49.0	-61.5	3.8	8.47e-01	0	40	104	0	68	15057
2026-01-14 14:11:53.58	157.47	22.87	-49.0	-61.4	3.8	8.47e-01	0	40	104	0	68	15042
2026-01-14 14:11:54.29	157.46	22.97	-48.9	-61.4	3.8	8.47e-01	0	40	104	0	68	15007
2026-01-14 14:11:55.56	157.45	23.16	-49.0	-61.4	3.8	8.47e-01	0	40	104	0	68	14973
2026-01-14 14:11:56.27	157.44	23.27	-49.0	-61.5	3.8	8.47e-01	0	41	104	0	68	15114
2026-01-14 14:11:57.55	157.42	23.46	-49.0	-61.4	3.8	8.46e-01	0	40	104	0	68	15043
2026-01-14 14:11:58.26	157.42	23.57	-49.0	-61.4	3.8	8.46e-01	0	41	104	0	68	15035
2026-01-14 14:11:59.58	157.40	23.77	-49.0	-61.5	3.8	8.47e-01	0	40	104	0	68	15083
2026-01-14 14:12:00.29	157.39	23.88	-49.0	-61.5	3.8	8.48e-01	0	40	104	0	68	15077
2026-01-14 14:12:01.57	157.37	24.07	-49.0	-61.4	3.8	8.46e-01	0	40	104	0	68	15037
2026-01-14 14:12:02.30	157.36	24.19	-49.0	-61.4	3.8	8.46e-01	0	40	104	0	68	15042
2026-01-14 14:12:03.58	157.35	24.39	-49.0	-61.4	3.8	8.47e-01	0	41	104	0	68	14923
2026-01-14 14:12:04.29	157.34	24.50	-49.0	-61.4	3.8	8.47e-01	0	40	104	0	68	14987
2026-01-14 14:12:05.57	157.32	24.70	-49.0	-61.5	3.8	8.47e-01	0	40	104	0	68	15074
2026-01-14 14:12:06.29	157.31	24.81	-49.0	-61.4	3.8	8.46e-01	0	40	104	0	68	15040
2026-01-14 14:12:07.57	157.29	25.02	-49.0	-61.4	3.8	8.48e-01	0	40	104	0	68	15000
2026-01-14 14:12:08.28	157.28	25.13	-49.0	-61.4	3.8	8.47e-01	0	40	104	0	68	15017
2026-01-14 14:12:09.56	157.27	25.34	-48.9	-61.4	3.8	8.47e-01	0	40	104	0	68	15039
2026-01-14 14:12:10.28	157.26	25.45	-49.0	-61.4	3.8	8.47e-01	0	40	104	0	68	15011
2026-01-14 14:12:11.56	157.24	25.66	-49.0	-61.4	3.8	8.47e-01	0	40	104	0	68	15027
2026-01-14 14:12:12.27	157.23	25.78	-49.0	-61.5	3.8	8.47e-01	0	40	104	0	68	15063
2026-01-14 14:12:13.55	157.21	25.99	-48.9	-61.4	3.8	8.47e-01	0	40	104	0	68	15004
2026-01-14 14:12:14.26	157.20	26.11	-48.9	-61.4	3.8	8.47e-01	0	40	104	0	68	15011
2026-01-14 14:12:15.53	157.18	26.32	-49.0	-61.4	3.8	8.47e-01	0	41	104	0	68	14961
2026-01-14 14:12:16.24	157.17	26.44	-49.0	-61.5	3.8	8.46e-01	0	40	104	0	68	15070
2026-01-14 14:12:17.57	157.15	26.67	-49.0	-61.5	3.8	8.47e-01	0	40	104	0	68	15066
2026-01-14 14:12:18.28	157.13	26.79	-49.0	-61.4	3.8	8.46e-01	0	40	104	0	68	14986
2026-01-14 14:12:19.60	157.11	27.01	-49.0	-61.4	3.8	8.47e-01	0	40	104	0	68	15028
2026-01-14 14:12:20.31	157.10	27.14	-48.9	-61.5	3.8	8.46e-01	0	41	104	0	68	15088
2026-01-14 14:12:21.66	157.08	27.37	-49.0	-61.5	3.8	8.47e-01	0	40	104	0	68	15065
2026-01-14 14:12:22.37	157.07	27.50	-48.9	-61.5	3.8	8.47e-01	0	40	104	0	68	15086
2026-01-14 14:12:23.64	157.05	27.72	-48.9	-61.4	3.8	8.49e-01	0	40	104	0	68	14953
2026-01-14 14:12:24.35	157.03	27.85	-49.0	-61.4	3.8	8.46e-01	0	40	104	0	68	15026
2026-01-14 14:12:25.63	157.01	28.07	-48.9	-61.5	3.8	8.48e-01	0	41	104	0	68	15111
2026-01-14 14:12:26.34	157.00	28.20	-49.0	-61.4	3.8	8.47e-01	0	40	104	0	68	14984
2026-01-14 14:12:27.62	156.98	28.43	-48.9	-61.5	3.8	8.46e-01	0	40	104	0	68	15061
2026-01-14 14:12:28.33	156.96	28.56	-48.9	-61.4	3.8	8.46e-01	0	40	104	0	68	15018
2026-01-14 14:12:29.61	156.94	28.80	-48.9	-61.4	3.8	8.47e-01	0	40	104	0	68	15031
2026-01-14 14:12:30.32	156.93	28.93	-49.0	-61.5	3.8	8.48e-01	0	40	104	0	68	15055
2026-01-14 14:12:31.59	156.90	29.16	-49.0	-61.4	3.8	8.46e-01	0	40	104	0	68	14956
2026-01-14 14:12:32.31	156.89	29.30	-48.9	-61.4	3.8	8.47e-01	0	40	104	0	68	14915
2026-01-14 14:12:33.58	156.87	29.54	-49.0	-61.4	3.8	8.47e-01	0	40	104	0	68	15049
2026-01-14 14:12:34.32	156.85	29.68	-48.9	-61.5	3.8	8.47e-01	0	40	104	0	68	15059
2026-01-14 14:12:35.60	156.83	29.92	-48.9	-61.4	3.8	8.47e-01	0	40	104	0	68	14965
2026-01-14 14:12:36.31	156.81	30.06	-49.0	-61.5	3.8	8.48e-01	0	40	104	0	68	15096
2026-01-14 14:12:37.59	156.79	30.30	-48.9	-61.4	3.8	8.47e-01	0	40	104	0	68	15008
2026-01-14 14:12:38.31	156.77	30.44	-48.9	-61.4	3.8	8.46e-01	0	41	104	0	68	15003
2026-01-14 14:12:39.65	156.74	30.70	-49.0	-61.4	3.8	8.46e-01	0	40	104	0	68	14979
2026-01-14 14:12:40.36	156.73	30.84	-49.0	-61.4	3.8	8.47e-01	0	40	104	0	68	14998
2026-01-14 14:12:41.64	156.70	31.10	-49.0	-61.5	3.8	8.47e-01	0	40	104	0	68	15069
2026-01-14 14:12:42.37	156.68	31.24	-49.0	-61.4	3.8	8.46e-01	0	40	104	0	68	15047
2026-01-14 14:12:43.64	156.66	31.50	-48.9	-61.5	3.8	8.47e-01	0	40	104	0	68	15062
2026-01-14 14:12:44.38	156.64	31.65	-49.0	-61.5	3.8	8.47e-01	0	40	104	0	68	15105
2026-01-14 14:12:45.66	156.61	31.91	-49.0	-61.4	3.8	8.47e-01	0	40	104	0	68	15024
2026-01-14 14:12:46.37	156.59	32.06	-49.0	-61.4	3.8	8.47e-01	0	40	104	0	68	14972
2026-01-14 14:12:47.65	156.57	32.32	-48.9	-61.4	3.8	8.46e-01	0	40	104	0	68	15018
2026-01-14 14:12:48.36	156.55	32.47	-49.0	-61.4	3.8	8.47e-01	0	40	104	0	68	15051
2026-01-14 14:12:49.64	156.52	32.74	-48.9	-61.4	3.8	8.46e-01	0	40	104	0	68	14963
2026-01-14 14:12:50.37	156.50	32.89	-49.0	-61.5	3.8	8.47e-01	0	41	104	0	68	15065
2026-01-14 14:12:51.65	156.47	33.16	-48.9	-61.4	3.8	8.47e-01	0	40	104	0	68	14971
2026-01-14 14:12:52.38	156.45	33.32	-49.0	-61.5	3.8	8.47e-01	0	40	104	0	68	15167
2026-01-14 14:12:53.66	156.42	33.59	-49.0	-61.4	3.8	8.46e-01	0	40	104	0	68	15012
2026-01-14 14:12:54.37	156.40	33.75	-49.0	-61.4	3.8	8.47e-01	0	40	104	0	68	14978
2026-01-14 14:12:55.66	156.36	34.03	-49.0	-61.4	3.8	8.47e-01	0	40	104	0	68	15047
2026-01-14 14:12:56.37	156.35	34.19	-49.0	-61.4	3.8	8.47e-01	0	40	104	0	68	15009
2026-01-14 14:12:57.65	156.31	34.47	-49.0	-61.5	3.8	8.47e-01	0	40	104	0	68	15078
2026-01-14 14:12:58.36	156.29	34.63	-49.0	-61.4	3.8	8.46e-01	0	40	104	0	68	15029
2026-01-14 14:12:59.63	156.26	34.91	-49.0	-61.4	3.8	8.46e-01	0	41	104	0	68	14991
2026-01-14 14:13:00.34	156.24	35.07	-49.0	-61.5	3.8	8.47e-01	0	40	104	0	68	15069
2026-01-14 14:13:01.62	156.20	35.37	-49.0	-61.4	3.8	8.47e-01	0	40	104	0	68	15051
2026-01-14 14:13:02.33	156.18	35.53	-49.0	-61.4	3.8	8.47e-01	0	40	104	0	68	15024
2026-01-14 14:13:03.61	156.14	35.83	-49.0	-61.5	3.8	8.47e-01	0	40	104	0	68	15078
2026-01-14 14:13:04.32	156.12	35.99	-49.0	-61.4	3.8	8.47e-01	0	40	104	0	68	15003
2026-01-14 14:13:05.60	156.08	36.29	-49.0	-61.4	3.8	8.46e-01	0	40	104	0	68	15005
2026-01-14 14:13:06.36	156.06	36.47	-49.0	-61.5	3.8	8.45e-01	0	41	104	0	68	15068
2026-01-14 14:13:07.63	156.02	36.77	-48.9	-61.4	3.8	8.47e-01	0	41	104	0	68	14998
2026-01-14 14:13:08.36	155.99	36.95	-49.0	-61.4	3.8	8.46e-01	0	40	104	0	68	15027
2026-01-14 14:13:09.64	155.95	37.26	-49.0	-61.5	3.8	8.46e-01	0	40	104	0	68	15087
2026-01-14 14:13:10.35	155.93	37.43	-49.0	-61.4	3.8	8.46e-01	0	40	104	0	68	15021
2026-01-14 14:13:11.62	155.89	37.74	-49.0	-61.4	3.8	8.47e-01	0	40	104	0	68	14972
2026-01-14 14:13:12.33	155.86	37.92	-49.1	-61.4	3.8	8.46e-01	0	41	104	0	68	14999
2026-01-14 14:13:13.61	155.82	38.24	-49.0	-61.5	3.8	8.47e-01	0	40	104	0	68	15105
2026-01-14 14:13:14.32	155.79	38.41	-49.0	-61.4	3.8	8.47e-01	0	40	104	0	68	15043
2026-01-14 14:13:15.60	155.75	38.74	-49.0	-61.5	3.8	8.46e-01	0	40	104	0	68	15060
2026-01-14 14:13:16.33	155.72	38.92	-49.0	-61.5	3.8	8.47e-01	0	40	104	0	68	15091
2026-01-14 14:13:17.61	155.67	39.25	-49.0	-61.5	3.8	8.48e-01	0	40	104	0	68	15058
2026-01-14 14:13:18.32	155.64	39.43	-49.0	-61.5	3.8	8.46e-01	0	41	104	0	68	15147
2026-01-14 14:13:19.59	155.59	39.76	-49.0	-61.4	3.8	8.48e-01	0	40	104	0	68	14999
2026-01-14 14:13:20.32	155.57	39.95	-49.0	-61.4	3.8	8.46e-01	0	40	104	0	68	15002
2026-01-14 14:13:21.60	155.52	40.29	-49.0	-61.4	3.8	8.49e-01	0	40	104	0	68	15042
2026-01-14 14:13:22.31	155.49	40.48	-49.0	-61.5	3.8	8.47e-01	0	41	104	0	68	15122
2026-01-14 14:13:23.58	155.43	40.82	-49.0	-61.5	3.8	8.46e-01	0	40	104	0	68	15063
2026-01-14 14:13:24.29	155.40	41.01	-49.0	-61.4	3.8	8.47e-01	0	40	104	0	68	15038
2026-01-14 14:13:25.57	155.35	41.36	-49.1	-61.4	3.8	8.48e-01	0	40	104	0	68	15028
2026-01-14 14:13:26.28	155.32	41.55	-49.0	-61.4	3.8	8.47e-01	0	40	104	0	68	14968
2026-01-14 14:13:27.56	155.26	41.91	-49.0	-61.5	3.8	8.47e-01	0	40	104	0	68	15089
2026-01-14 14:13:28.28	155.23	42.11	-49.0	-61.4	3.8	8.47e-01	0	40	104	0	68	14993
2026-01-14 14:13:29.58	155.17	42.47	-49.0	-61.5	3.8	8.47e-01	0	40	104	0	68	15090
2026-01-14 14:13:30.29	155.14	42.67	-49.0	-61.5	3.8	8.47e-01	0	40	104	0	68	15065
2026-01-14 14:13:31.63	155.07	43.05	-49.0	-61.5	3.8	8.47e-01	0	40	104	0	68	15075
2026-01-14 14:13:32.34	155.04	43.25	-49.0	-61.4	3.8	8.47e-01	0	40	104	0	68	14981
2026-01-14 14:13:33.62	154.97	43.62	-49.0	-61.5	3.8	8.47e-01	0	40	104	0	68	15090
2026-01-14 14:13:34.33	154.94	43.83	-49.0	-61.4	3.8	8.46e-01	0	40	104	0	68	15016
2026-01-14 14:13:35.60	154.87	44.20	-49.0	-61.4	3.8	8.47e-01	0	40	104	0	68	15040
2026-01-14 14:13:36.31	154.84	44.41	-49.0	-61.4	3.8	8.47e-01	0	40	104	0	68	15027
2026-01-14 14:13:37.59	154.77	44.79	-49.0	-61.5	3.8	8.47e-01	0	40	104	0	68	15098
2026-01-14 14:13:38.33	154.73	45.01	-49.0	-61.4	3.8	8.47e-01	0	40	104	0	68	15032
2026-01-14 14:13:39.61	154.65	45.40	-49.0	-61.4	3.8	8.46e-01	0	40	104	0	68	15003
2026-01-14 14:13:40.33	154.61	45.62	-49.0	-61.5	3.8	8.47e-01	0	40	104	0	68	15067
2026-01-14 14:13:41.61	154.54	46.01	-49.0	-61.4	3.8	8.47e-01	0	40	104	0	68	15012
2026-01-14 14:13:42.32	154.50	46.23	-48.9	-61.5	3.8	8.48e-01	0	40	104	0	68	15117
2026-01-14 14:13:43.60	154.42	46.63	-49.1	-61.4	3.8	8.46e-01	0	40	104	0	68	15032
2026-01-14 14:13:44.31	154.38	46.85	-49.0	-61.5	3.8	8.47e-01	0	40	104	0	68	15053
2026-01-14 14:13:45.59	154.29	47.25	-49.0	-61.5	3.8	8.47e-01	0	40	104	0	68	15070
2026-01-14 14:13:46.30	154.25	47.48	-48.9	-61.4	3.8	8.46e-01	0	40	104	0	68	15031
2026-01-14 14:13:47.58	154.16	47.89	-49.0	-61.4	3.8	8.47e-01	0	40	104	0	68	15026
2026-01-14 14:13:48.29	154.12	48.11	-49.0	-61.5	3.8	8.47e-01	0	40	104	0	68	15110
2026-01-14 14:13:49.57	154.03	48.53	-49.0	-61.4	3.8	8.48e-01	0	40	104	0	68	15019
2026-01-14 14:13:50.28	153.98	48.76	-49.0	-61.5	3.8	8.48e-01	0	40	104	0	68	15077
2026-01-14 14:13:51.55	153.89	49.18	-49.0	-61.4	3.8	8.46e-01	0	40	104	0	68	14999
2026-01-14 14:13:52.26	153.84	49.42	-49.0	-61.5	3.8	8.47e-01	0	40	104	0	68	15103
2026-01-14 14:13:53.56	153.74	49.85	-48.9	-61.4	3.8	8.48e-01	0	40	104	0	68	15039
2026-01-14 14:13:54.26	153.68	50.09	-49.0	-61.4	3.8	8.47e-01	0	40	104	0	68	14957
2026-01-14 14:13:55.54	153.58	50.52	-49.0	-61.4	3.8	8.47e-01	0	40	104	0	68	15001
2026-01-14 14:13:56.33	153.52	50.79	-49.0	-61.5	3.8	8.45e-01	0	40	104	0	68	15145
2026-01-14 14:13:57.55	153.42	51.21	-48.9	-61.4	3.8	8.47e-01	0	40	104	0	68	15001
2026-01-14 14:13:58.40	153.35	51.50	-49.0	-61.5	3.8	8.46e-01	0	40	104	0	68	15147
2026-01-14 14:13:59.53	153.25	51.90	-49.0	-61.5	3.8	8.46e-01	0	40	104	0	68	15084
2026-01-14 14:14:00.39	153.17	52.20	-49.0	-61.5	3.8	8.46e-01	0	40	104	0	68	15060
2026-01-14 14:14:01.52	153.07	52.60	-49.0	-61.5	3.8	8.47e-01	0	41	104	0	68	15056
2026-01-14 14:14:02.37	152.99	52.90	-49.0	-61.5	3.8	8.48e-01	0	40	104	0	68	15066
2026-01-14 14:14:03.51	152.88	53.31	-49.0	-61.5	3.8	8.46e-01	0	40	104	0	68	15122
2026-01-14 14:14:04.36	152.80	53.62	-49.0	-61.4	3.8	8.45e-01	0	41	104	0	68	15009
2026-01-14 14:14:05.50	152.68	54.03	-49.0	-61.5	3.8	8.46e-01	0	40	104	0	68	15091
2026-01-14 14:14:06.35	152.60	54.34	-49.0	-61.4	3.8	8.47e-01	0	41	104	0	68	15026
2026-01-14 14:14:07.48	152.48	54.76	-49.0	-61.4	3.8	8.47e-01	0	40	104	0	68	15048
2026-01-14 14:14:08.33	152.38	55.08	-49.0	-61.4	3.8	8.47e-01	0	40	104	0	68	15041
2026-01-14 14:14:09.47	152.26	55.50	-49.0	-61.4	3.8	8.47e-01	0	40	104	0	68	14966
2026-01-14 14:14:10.32	152.16	55.82	-49.0	-61.4	3.8	8.47e-01	0	40	104	0	68	15023
2026-01-14 14:14:11.45	152.02	56.25	-49.0	-61.4	3.8	8.46e-01	0	40	104	0	68	15001
2026-01-14 14:14:12.31	151.92	56.58	-49.0	-61.5	3.8	8.47e-01	0	40	104	0	68	15057
2026-01-14 14:14:13.44	151.78	57.01	-49.0	-61.4	3.8	8.48e-01	0	40	104	0	68	14983
2026-01-14 14:14:14.29	151.67	57.34	-49.0	-61.4	3.8	8.46e-01	0	40	104	0	68	14989
2026-01-14 14:14:15.43	151.52	57.78	-48.9	-61.5	3.8	8.47e-01	0	40	104	0	68	15075
2026-01-14 14:14:16.28	151.40	58.11	-48.9	-61.5	3.8	8.47e-01	0	40	104	0	68	15111
2026-01-14 14:14:17.42	151.24	58.56	-49.0	-61.5	3.8	8.46e-01	0	40	104	0	68	15071
2026-01-14 14:14:18.27	151.12	58.90	-49.0	-61.5	3.8	8.47e-01	0	40	104	0	68	15059
2026-01-14 14:14:19.40	150.95	59.35	-49.0	-61.4	3.8	8.48e-01	0	40	104	0	68	14997
2026-01-14 14:14:20.26	150.82	59.69	-48.9	-61.5	3.8	8.47e-01	0	40	104	0	68	15129
2026-01-14 14:14:21.42	150.63	60.16	-48.9	-61.5	3.8	8.46e-01	0	40	104	0	68	15064
2026-01-14 14:14:22.27	150.49	60.50	-49.0	-61.4	3.8	8.47e-01	0	40	104	0	68	14996
2026-01-14 14:14:23.47	150.29	60.99	-48.9	-61.5	3.8	8.47e-01	0	40	104	0	68	15067
2026-01-14 14:14:24.33	150.14	61.34	-49.0	-61.5	3.8	8.48e-01	0	40	104	0	68	15052
2026-01-14 14:14:25.53	149.92	61.84	-49.0	-61.4	3.8	8.47e-01	0	40	104	0	68	14990
2026-01-14 14:14:26.38	149.76	62.19	-49.0	-61.5	3.8	8.47e-01	0	40	104	0	68	15174
2026-01-14 14:14:27.51	149.54	62.66	-48.9	-61.5	3.8	8.47e-01	0	40	104	0	68	15061
2026-01-14 14:14:28.37	149.37	63.02	-49.0	-61.4	3.8	8.47e-01	0	40	104	0	68	14979
2026-01-14 14:14:29.60	149.11	63.54	-49.0	-61.4	3.8	8.46e-01	0	40	104	0	68	15037
2026-01-14 14:14:30.45	148.93	63.90	-49.0	-61.4	3.8	8.47e-01	0	40	104	0	68	15040
2026-01-14 14:14:31.70	148.64	64.43	-49.0	-61.4	3.8	8.47e-01	0	40	104	0	68	15047
2026-01-14 14:14:32.55	148.44	64.80	-49.0	-61.4	3.8	8.48e-01	0	40	104	0	68	14991
2026-01-14 14:14:33.76	148.15	65.32	-49.0	-61.4	3.8	8.46e-01	0	40	104	0	68	15009
2026-01-14 14:14:34.61	147.93	65.69	-49.0	-61.4	3.8	8.47e-01	0	40	104	0	68	15003
2026-01-14 14:14:35.75	147.63	66.18	-48.9	-61.4	3.8	8.47e-01	0	40	104	0	68	15035
2026-01-14 14:14:36.60	147.39	66.55	-49.0	-61.4	3.8	8.47e-01	0	40	104	0	68	14972
2026-01-14 14:14:37.74	147.07	67.05	-49.0	-61.5	3.8	8.48e-01	0	41	104	0	68	15098
2026-01-14 14:14:38.59	146.81	67.42	-48.9	-61.4	3.8	8.47e-01	0	40	104	0	68	14983
2026-01-14 14:14:39.73	146.45	67.93	-49.0	-61.5	3.8	8.47e-01	0	40	104	0	68	15088
2026-01-14 14:14:40.58	146.18	68.30	-49.0	-61.4	3.8	8.46e-01	0	40	104	0	68	14979
2026-01-14 14:14:41.71	145.79	68.80	-49.0	-61.4	3.8	8.47e-01	0	40	104	0	68	15025
2026-01-14 14:14:42.57	145.48	69.19	-48.9	-61.4	3.8	8.46e-01	0	40	104	0	68	14998
2026-01-14 14:14:43.70	145.06	69.69	-49.0	-61.4	3.8	8.46e-01	0	40	104	0	68	14980
2026-01-14 14:14:44.55	144.72	70.07	-48.9	-61.4	3.8	8.47e-01	0	40	104	0	68	14996
2026-01-14 14:14:45.69	144.25	70.58	-49.0	-61.3	3.8	8.48e-01	0	40	104	0	68	14878
2026-01-14 14:14:46.54	143.89	70.97	-49.0	-61.4	3.8	8.47e-01	0	40	104	0	68	14942
2026-01-14 14:14:47.68	143.37	71.48	-48.9	-61.4	3.8	8.47e-01	0	40	104	0	68	14883
2026-01-14 14:14:48.53	142.96	71.86	-49.0	-61.4	3.8	8.46e-01	0	40	104	0	68	14986
2026-01-14 14:14:49.67	142.38	72.38	-49.0	-61.4	3.8	8.47e-01	0	40	104	0	68	14976
2026-01-14 14:14:50.52	141.93	72.77	-48.9	-61.5	3.8	8.46e-01	0	40	104	0	68	15059
2026-01-14 14:14:51.78	141.22	73.34	-49.0	-61.5	3.8	8.46e-01	0	40	104	0	68	15087
2026-01-14 14:14:52.59	140.73	73.70	-48.9	-61.5	3.8	8.47e-01	0	40	104	0	68	15068
2026-01-14 14:14:53.72	140.01	74.22	-48.9	-61.4	3.8	8.48e-01	0	40	104	0	68	14972
2026-01-14 14:14:54.58	139.43	74.61	-48.9	-61.5	3.8	8.47e-01	0	40	104	0	68	15151
2026-01-14 14:14:55.71	138.62	75.12	-48.9	-61.4	3.8	8.46e-01	0	40	104	0	68	15015
2026-01-14 14:14:56.56	137.97	75.50	-48.9	-61.4	3.8	8.46e-01	0	41	104	0	68	14968
2026-01-14 14:14:57.70	137.04	76.01	-49.0	-61.4	3.8	8.46e-01	0	40	104	0	68	14980
2026-01-14 14:14:58.55	136.30	76.39	-49.0	-61.4	3.8	8.47e-01	0	40	104	0	68	15023
2026-01-14 14:14:59.69	135.24	76.90	-49.0	-61.5	3.8	8.47e-01	0	40	104	0	68	15151
2026-01-14 14:15:00.54	134.39	77.28	-48.9	-61.5	3.8	8.48e-01	0	40	104	0	68	15057
2026-01-14 14:15:01.68	133.16	77.78	-48.9	-61.4	3.8	8.47e-01	0	40	104	0	68	15025
2026-01-14 14:15:02.53	132.18	78.16	-49.0	-61.5	3.8	8.47e-01	0	41	104	0	68	15088
2026-01-14 14:15:03.66	130.77	78.65	-49.0	-61.4	3.8	8.47e-01	0	40	104	0	68	15011
2026-01-14 14:15:04.52	129.62	79.02	-49.0	-61.4	3.8	8.47e-01	0	40	104	0	68	15020
2026-01-14 14:15:05.65	127.97	79.50	-49.0	-61.5	3.8	8.46e-01	0	40	104	0	68	15103
2026-01-14 14:15:06.51	126.61	79.86	-48.9	-61.4	3.8	8.48e-01	0	41	104	0	68	14952
2026-01-14 14:15:07.77	124.44	80.37	-48.9	-61.5	3.8	8.46e-01	0	41	104	0	68	15107
2026-01-14 14:15:08.57	122.93	80.70	-48.9	-61.4	3.8	8.47e-01	0	41	104	0	68	14981
2026-01-14 14:15:09.71	120.59	81.14	-49.0	-61.5	3.8	8.47e-01	0	40	104	0	68	15061
2026-01-14 14:15:10.56	118.68	81.46	-49.0	-61.4	3.8	8.46e-01	0	40	104	0	68	15020
2026-01-14 14:15:11.69	115.92	81.88	-49.0	-61.4	3.8	8.48e-01	0	40	104	0	68	14982
2026-01-14 14:15:12.54	113.65	82.18	-49.0	-61.4	3.8	8.46e-01	0	40	104	0	68	15046
2026-01-14 14:15:13.68	110.32	82.56	-49.0	-61.4	3.8	8.47e-01	0	40	104	0	68	14965
2026-01-14 14:15:14.53	107.62	82.82	-49.0	-61.4	3.8	8.47e-01	0	41	104	0	68	14958
2026-01-14 14:15:15.67	103.67	83.15	-49.0	-61.4	3.8	8.47e-01	0	40	104	0	68	15024
2026-01-14 14:15:16.52	100.47	83.38	-49.0	-61.4	3.8	8.46e-01	0	40	104	0	68	14947
2026-01-14 14:15:17.66	95.86	83.64	-48.9	-61.4	3.8	8.46e-01	0	41	104	0	68	14967
2026-01-14 14:15:18.51	92.17	83.81	-48.9	-61.4	3.8	8.47e-01	0	41	104	0	68	15020
2026-01-14 14:15:19.65	86.94	84.00	-49.0	-61.4	3.8	8.48e-01	0	41	104	0	68	14992
2026-01-14 14:15:20.50	82.84	84.10	-49.0	-61.4	3.8	8.46e-01	0	40	104	0	68	15021
2026-01-14 14:15:21.63	77.22	84.19	-49.0	-61.5	3.8	8.46e-01	0	40	104	0	68	15059
2026-01-14 14:15:22.49	72.85	84.22	-49.0	-61.4	3.8	8.46e-01	0	40	104	0	68	15048
2026-01-14 14:15:23.62	67.08	84.21	-48.9	-61.4	3.8	8.46e-01	0	41	104	0	68	15012
2026-01-14 14:15:24.47	62.80	84.16	-49.0	-61.4	3.8	8.46e-01	0	41	104	0	68	14968
2026-01-14 14:15:25.61	57.20	84.04	-48.9	-61.4	3.8	8.46e-01	0	41	104	0	68	14949
2026-01-14 14:15:26.46	53.19	83.92	-48.9	-61.5	3.8	8.46e-01	0	41	104	0	68	15143
2026-01-14 14:15:27.60	48.09	83.72	-49.0	-61.4	3.8	8.48e-01	0	41	104	0	68	15029
2026-01-14 14:15:28.45	44.52	83.54	-49.0	-61.4	3.8	8.48e-01	0	40	104	0	68	14990
2026-01-14 14:15:29.59	40.07	83.25	-48.9	-61.5	3.8	8.47e-01	0	40	104	0	68	15078
2026-01-14 14:15:30.44	36.99	83.02	-48.9	-61.4	3.8	8.46e-01	0	40	104	0	68	15015
2026-01-14 14:15:31.58	33.20	82.68	-48.9	-61.4	3.8	8.47e-01	0	40	104	0	68	14979
2026-01-14 14:15:32.43	30.60	82.40	-48.9	-61.4	3.8	8.48e-01	0	40	104	0	68	15032
2026-01-14 14:15:33.56	27.44	82.02	-48.9	-61.5	3.8	8.47e-01	0	40	104	0	68	15053
2026-01-14 14:15:34.41	25.26	81.71	-48.9	-61.5	3.8	8.46e-01	0	40	104	0	68	15073
2026-01-14 14:15:35.55	22.59	81.29	-48.9	-61.5	3.8	8.48e-01	0	40	104	0	68	15072
2026-01-14 14:15:36.40	20.76	80.96	-48.9	-61.4	3.8	8.47e-01	0	40	104	0	68	14998
2026-01-14 14:15:37.58	18.45	80.49	-48.9	-61.4	3.8	8.47e-01	0	40	104	0	68	14988
2026-01-14 14:15:38.44	16.90	80.14	-48.9	-61.5	3.8	8.46e-01	0	41	104	0	68	15070
2026-01-14 14:15:39.65	14.90	79.64	-48.9	-61.4	3.8	8.47e-01	0	40	104	0	68	15038
2026-01-14 14:15:40.50	13.62	79.28	-48.9	-61.4	3.8	8.47e-01	0	41	104	0	68	15045
2026-01-14 14:15:41.70	11.94	78.77	-48.9	-61.4	3.8	8.48e-01	0	40	104	0	68	15000
2026-01-14 14:15:42.56	10.84	78.40	-48.9	-61.5	3.8	8.48e-01	0	41	104	0	68	15060
2026-01-14 14:15:43.76	9.41	77.88	-48.9	-61.5	3.8	8.45e-01	0	40	104	0	68	15057
2026-01-14 14:15:44.61	8.48	77.50	-48.9	-61.4	3.8	8.47e-01	0	40	104	0	68	14963
2026-01-14 14:15:45.74	7.32	77.00	-49.0	-61.4	3.8	8.47e-01	0	41	104	0	68	15047
2026-01-14 14:15:46.59	6.51	76.62	-48.9	-61.4	3.8	8.47e-01	0	40	104	0	68	15027
2026-01-14 14:15:47.73	5.49	76.11	-49.0	-61.5	3.8	8.47e-01	0	40	104	0	68	15055
2026-01-14 14:15:48.58	4.78	75.73	-48.9	-61.4	3.8	8.48e-01	0	40	104	0	68	14979
2026-01-14 14:15:49.72	3.89	75.22	-48.9	-61.4	3.8	8.46e-01	0	40	104	0	68	14962
2026-01-14 14:15:50.57	3.27	74.83	-48.9	-61.4	3.8	8.48e-01	0	41	104	0	68	14941
2026-01-14 14:15:51.70	2.49	74.32	-49.0	-61.5	3.8	8.46e-01	0	40	104	0	68	15061
2026-01-14 14:15:52.56	1.93	73.93	-49.0	-61.5	3.8	8.47e-01	0	41	104	0	68	15123
2026-01-14 14:15:53.69	1.24	73.42	-48.8	-61.3	3.8	8.46e-01	0	41	104	0	67	15651
2026-01-14 14:15:54.54	0.75	73.04	-48.8	-61.3	3.8	8.48e-01	0	41	104	0	67	15627
2026-01-14 14:15:55.68	0.13	72.52	-48.8	-61.3	3.8	8.47e-01	0	41	104	0	67	15660
2026-01-14 14:15:56.53	359.69	72.14	-48.8	-61.3	3.8	8.47e-01	0	41	104	0	67	15747
2026-01-14 14:15:57.67	359.13	71.63	-48.8	-61.3	3.8	8.47e-01	0	41	104	0	67	15666
2026-01-14 14:15:58.52	358.73	71.24	-48.8	-61.3	3.8	8.47e-01	0	41	104	0	67	15595
2026-01-14 14:15:59.65	358.23	70.73	-48.8	-61.3	3.8	8.48e-01	0	40	104	0	67	15613
2026-01-14 14:16:00.51	357.87	70.35	-48.8	-61.3	3.8	8.47e-01	0	40	104	0	67	15629
2026-01-14 14:16:01.64	357.42	69.84	-48.8	-61.3	3.8	8.47e-01	0	41	104	0	67	15635
2026-01-14 14:16:02.50	357.09	69.46	-48.8	-61.3	3.8	8.47e-01	0	40	104	0	67	15634
2026-01-14 14:16:03.63	356.68	68.96	-48.8	-61.3	3.8	8.47e-01	0	41	104	0	67	15662
2026-01-14 14:16:04.49	356.38	68.57	-48.8	-61.3	3.8	8.46e-01	0	41	104	0	67	15583
2026-01-14 14:16:05.62	356.00	68.07	-48.7	-61.3	3.8	8.48e-01	0	41	104	0	67	15732
2026-01-14 14:16:06.47	355.73	67.70	-48.7	-61.2	3.8	8.47e-01	0	40	104	0	67	15573
2026-01-14 14:16:07.61	355.38	67.20	-48.7	-61.2	3.8	8.46e-01	0	41	104	0	67	15520
2026-01-14 14:16:08.46	355.13	66.83	-48.8	-61.3	3.8	8.46e-01	0	41	104	0	67	15660
2026-01-14 14:16:09.60	354.81	66.33	-48.7	-61.3	3.8	8.48e-01	0	40	104	0	67	15649
2026-01-14 14:16:10.45	354.58	65.96	-48.8	-61.2	3.8	8.47e-01	0	41	104	0	67	15537
2026-01-14 14:16:11.59	354.29	65.47	-48.8	-61.3	3.8	8.47e-01	0	41	104	0	67	15667
2026-01-14 14:16:12.44	354.07	65.10	-48.8	-61.3	3.8	8.46e-01	0	40	104	0	67	15660
2026-01-14 14:16:13.57	353.80	64.62	-48.8	-61.3	3.8	8.47e-01	0	41	104	0	67	15710
2026-01-14 14:16:14.43	353.61	64.25	-48.8	-61.3	3.8	8.47e-01	0	40	104	0	67	15618
2026-01-14 14:16:15.66	353.33	63.73	-48.8	-61.3	3.8	8.48e-01	0	41	104	0	67	15585
2026-01-14 14:16:16.51	353.15	63.37	-48.8	-61.3	3.8	8.46e-01	0	40	104	0	67	15595
2026-01-14 14:16:17.74	352.90	62.86	-48.8	-61.2	3.8	8.45e-01	0	41	104	0	67	15553
2026-01-14 14:16:18.59	352.73	62.50	-48.8	-61.4	3.8	8.47e-01	0	40	104	0	67	15794
2026-01-14 14:16:19.73	352.51	62.03	-48.8	-61.3	3.8	8.46e-01	0	40	104	0	67	15615
2026-01-14 14:16:20.58	352.35	61.68	-48.8	-61.2	3.8	8.47e-01	0	40	104	0	67	15529
2026-01-14 14:16:21.71	352.15	61.22	-48.8	-61.3	3.8	8.47e-01	0	41	104	0	67	15640
2026-01-14 14:16:22.57	352.00	60.87	-48.8	-61.3	3.8	8.47e-01	0	40	104	0	67	15651
2026-01-14 14:16:23.70	351.81	60.41	-48.8	-61.3	3.8	8.48e-01	0	40	104	0	67	15647
2026-01-14 14:16:24.55	351.68	60.06	-48.8	-61.3	3.8	8.46e-01	0	40	104	0	67	15722
2026-01-14 14:16:25.69	351.50	59.61	-48.8	-61.3	3.8	8.47e-01	0	41	104	0	67	15616
2026-01-14 14:16:26.54	351.37	59.27	-48.8	-61.3	3.8	8.46e-01	0	41	104	0	67	15626
2026-01-14 14:16:27.67	351.20	58.82	-48.8	-61.3	3.8	8.47e-01	0	40	104	0	67	15617
2026-01-14 14:16:28.53	351.08	58.48	-48.8	-61.3	3.8	8.48e-01	0	41	104	0	67	15581
2026-01-14 14:16:29.66	350.92	58.04	-48.8	-61.3	3.8	8.47e-01	0	40	104	0	67	15657
2026-01-14 14:16:30.51	350.81	57.71	-48.8	-61.3	3.8	8.47e-01	0	40	104	0	67	15685
2026-01-14 14:16:31.65	350.66	57.27	-48.8	-61.3	3.8	8.47e-01	0	40	104	0	67	15637
2026-01-14 14:16:32.50	350.55	56.94	-48.8	-61.2	3.8	8.46e-01	0	40	104	0	67	15566
2026-01-14 14:16:33.69	350.40	56.49	-48.8	-61.3	3.8	8.47e-01	0	40	104	0	67	15650
2026-01-14 14:16:34.54	350.30	56.17	-48.8	-61.3	3.8	8.47e-01	0	41	104	0	67	15686
2026-01-14 14:16:35.72	350.16	55.72	-48.8	-61.3	3.8	8.47e-01	0	40	104	0	67	15744
2026-01-14 14:16:36.57	350.07	55.40	-48.8	-61.3	3.8	8.47e-01	0	41	104	0	67	15644
2026-01-14 14:16:37.71	349.94	54.98	-48.8	-61.3	3.8	8.45e-01	0	40	104	0	67	15724
2026-01-14 14:16:38.56	349.85	54.67	-48.8	-61.3	3.8	8.45e-01	0	40	104	0	67	15590
2026-01-14 14:16:39.69	349.73	54.25	-48.8	-61.3	3.8	8.46e-01	0	41	104	0	67	15648
2026-01-14 14:16:40.55	349.64	53.94	-48.8	-61.3	3.8	8.47e-01	0	40	104	0	67	15597
2026-01-14 14:16:41.68	349.53	53.53	-48.8	-61.2	3.8	8.46e-01	0	41	104	0	67	15546
2026-01-14 14:16:42.53	349.45	53.23	-48.8	-61.3	3.8	8.47e-01	0	40	104	0	67	15587
2026-01-14 14:16:43.67	349.34	52.82	-48.8	-61.3	3.8	8.46e-01	0	41	104	0	67	15659
2026-01-14 14:16:44.52	349.26	52.52	-48.8	-61.3	3.8	8.49e-01	0	41	104	0	67	15647
2026-01-14 14:16:45.66	349.16	52.12	-48.8	-61.3	3.8	8.47e-01	0	40	104	0	67	15627
2026-01-14 14:16:46.51	349.09	51.82	-48.8	-61.3	3.8	8.46e-01	0	40	104	0	67	15654
2026-01-14 14:16:47.65	348.99	51.43	-48.8	-61.3	3.8	8.47e-01	0	40	104	0	67	15613
2026-01-14 14:16:48.50	348.92	51.13	-48.8	-61.3	3.8	8.49e-01	0	41	104	0	67	15604
2026-01-14 14:16:49.64	348.82	50.74	-48.8	-61.3	3.8	8.47e-01	0	40	104	0	67	15596
2026-01-14 14:16:50.49	348.76	50.46	-48.8	-61.3	3.8	8.49e-01	0	40	104	0	67	15690
2026-01-14 14:16:51.62	348.67	50.07	-48.8	-61.3	3.8	8.47e-01	0	40	104	0	67	15691
2026-01-14 14:16:52.47	348.60	49.79	-48.8	-61.3	3.8	8.47e-01	0	40	104	0	67	15623
2026-01-14 14:16:53.61	348.52	49.41	-48.8	-61.3	3.8	8.48e-01	0	41	104	0	67	15598
2026-01-14 14:16:54.46	348.46	49.13	-48.8	-61.3	3.8	8.46e-01	0	40	104	0	67	15692
2026-01-14 14:16:55.60	348.38	48.76	-48.8	-61.3	3.8	8.47e-01	0	40	104	0	67	15610
2026-01-14 14:16:56.45	348.32	48.48	-48.8	-61.3	3.8	8.48e-01	0	41	104	0	67	15604
2026-01-14 14:16:57.59	348.24	48.11	-48.8	-61.3	3.8	8.47e-01	0	41	104	0	67	15636
2026-01-14 14:16:58.44	348.18	47.84	-48.8	-61.3	3.8	8.48e-01	0	41	104	0	67	15608
2026-01-14 14:16:59.58	348.11	47.48	-48.8	-61.3	3.8	8.48e-01	0	40	104	0	67	15624
2026-01-14 14:17:00.43	348.05	47.21	-48.8	-61.3	3.8	8.46e-01	0	41	104	0	67	15600
2026-01-14 14:17:01.57	347.98	46.85	-48.8	-61.2	3.8	8.46e-01	0	40	104	0	67	15580
2026-01-14 14:17:02.42	347.93	46.59	-48.8	-61.3	3.8	8.46e-01	0	40	104	0	67	15638
2026-01-14 14:17:03.55	347.86	46.24	-48.8	-61.3	3.8	8.46e-01	0	40	104	0	67	15603
2026-01-14 14:17:04.41	347.81	45.97	-48.8	-61.3	3.8	8.46e-01	0	40	104	0	67	15585
2026-01-14 14:17:05.54	347.75	45.63	-48.8	-61.3	3.8	8.47e-01	0	41	104	0	67	15636
2026-01-14 14:17:06.39	347.70	45.37	-48.8	-61.3	3.8	8.47e-01	0	41	104	0	67	15603
2026-01-14 14:17:07.72	347.63	44.98	-48.8	-61.3	3.8	8.47e-01	0	41	104	0	67	15643
2026-01-14 14:17:08.43	347.59	44.76	-48.8	-61.3	3.8	8.47e-01	0	41	104	0	67	15618
2026-01-14 14:17:09.71	347.52	44.39	-48.7	-61.2	3.8	8.47e-01	0	40	104	0	67	15540
2026-01-14 14:17:10.42	347.48	44.18	-48.7	-61.3	3.8	8.47e-01	0	40	104	0	67	15585
2026-01-14 14:17:11.70	347.42	43.81	-48.8	-61.2	3.8	8.46e-01	0	41	104	0	67	15558
2026-01-14 14:17:12.41	347.38	43.60	-48.8	-61.3	3.8	8.47e-01	0	40	104	0	67	15615
2026-01-14 14:17:13.68	347.32	43.24	-48.8	-61.3	3.8	8.46e-01	0	41	104	0	67	15660
2026-01-14 14:17:14.41	347.29	43.03	-48.8	-61.2	3.8	8.47e-01	0	40	104	0	67	15574
2026-01-14 14:17:15.69	347.23	42.67	-48.7	-61.3	3.8	8.47e-01	0	40	104	0	67	15661
2026-01-14 14:17:16.40	347.19	42.47	-48.7	-61.3	3.8	8.48e-01	0	40	104	0	67	15655
2026-01-14 14:17:17.67	347.14	42.11	-48.8	-61.2	3.8	8.46e-01	0	40	104	0	67	15532
2026-01-14 14:17:18.39	347.10	41.92	-48.8	-61.3	3.8	8.47e-01	0	40	104	0	67	15609
2026-01-14 14:17:19.66	347.05	41.57	-48.8	-61.3	3.8	8.46e-01	0	40	104	0	67	15644
2026-01-14 14:17:20.37	347.02	41.37	-48.8	-61.3	3.8	8.46e-01	0	40	104	0	67	15696
2026-01-14 14:17:21.65	346.96	41.03	-48.8	-61.3	3.8	8.46e-01	0	40	104	0	67	15669
2026-01-14 14:17:22.36	346.93	40.84	-48.8	-61.3	3.8	8.48e-01	0	40	104	0	67	15609
2026-01-14 14:17:23.81	346.88	40.45	-48.8	-61.3	3.8	8.47e-01	0	40	104	0	67	15649
2026-01-14 14:17:24.52	346.85	40.26	-48.8	-61.3	3.8	8.46e-01	0	40	104	0	67	15678
2026-01-14 14:17:25.88	346.79	39.91	-48.8	-61.3	3.8	8.47e-01	0	41	104	0	67	15583
2026-01-14 14:17:26.59	346.77	39.72	-48.8	-61.3	3.8	8.47e-01	0	40	104	0	67	15620
2026-01-14 14:17:27.86	346.72	39.40	-48.8	-61.3	3.8	8.46e-01	0	40	104	0	67	15626
2026-01-14 14:17:28.58	346.69	39.21	-48.8	-61.3	3.8	8.47e-01	0	40	104	0	67	15714
2026-01-14 14:17:29.85	346.65	38.89	-48.8	-61.3	3.8	8.46e-01	0	40	104	0	67	15721
2026-01-14 14:17:30.56	346.62	38.71	-48.8	-61.3	3.8	8.47e-01	0	40	104	0	67	15637
2026-01-14 14:17:31.82	346.58	38.39	-48.8	-61.3	3.8	8.46e-01	0	40	104	0	67	15656
2026-01-14 14:17:32.61	346.55	38.20	-48.8	-61.3	3.8	8.46e-01	0	40	104	0	67	15686
2026-01-14 14:17:33.83	346.51	37.90	-48.8	-61.2	3.8	8.47e-01	0	40	104	0	67	15574
2026-01-14 14:17:34.68	346.48	37.69	-48.8	-61.3	3.8	8.47e-01	0	41	104	0	67	15608
2026-01-14 14:17:35.82	346.44	37.41	-48.8	-61.3	3.8	8.47e-01	0	41	104	0	67	15702
2026-01-14 14:17:36.67	346.41	37.20	-48.8	-61.3	3.8	8.47e-01	0	40	104	0	67	15667
2026-01-14 14:17:37.80	346.38	36.93	-48.7	-61.3	3.8	8.46e-01	0	40	104	0	67	15621
2026-01-14 14:17:38.66	346.35	36.73	-48.8	-61.3	3.8	8.46e-01	0	40	104	0	67	15625
2026-01-14 14:17:39.79	346.32	36.46	-48.8	-61.3	3.8	8.47e-01	0	40	104	0	67	15674
2026-01-14 14:17:40.65	346.29	36.26	-48.8	-61.3	3.8	8.47e-01	0	41	104	0	67	15594
2026-01-14 14:17:41.78	346.26	36.00	-48.8	-61.2	3.8	8.46e-01	0	40	104	0	67	15565
2026-01-14 14:17:42.63	346.23	35.80	-48.8	-61.3	3.8	8.47e-01	0	40	104	0	67	15622
2026-01-14 14:17:43.77	346.20	35.54	-48.8	-61.3	3.8	8.47e-01	0	40	104	0	67	15598
2026-01-14 14:17:44.62	346.17	35.34	-48.8	-61.3	3.8	8.46e-01	0	41	104	0	67	15744
2026-01-14 14:17:45.76	346.14	35.09	-48.8	-61.3	3.8	8.47e-01	0	40	104	0	67	15600
2026-01-14 14:17:46.61	346.12	34.90	-48.8	-61.2	3.8	8.47e-01	0	40	104	0	67	15555
2026-01-14 14:17:47.75	346.09	34.64	-48.8	-61.3	3.8	8.46e-01	0	40	104	0	67	15588
2026-01-14 14:17:48.60	346.06	34.45	-48.8	-61.3	3.8	8.47e-01	0	41	104	0	67	15645
2026-01-14 14:17:49.74	346.03	34.20	-48.8	-61.3	3.8	8.47e-01	0	40	104	0	67	15590
2026-01-14 14:17:50.59	346.01	34.02	-48.8	-61.3	3.8	8.48e-01	0	41	104	0	67	15607
2026-01-14 14:17:51.73	345.98	33.77	-48.8	-61.3	3.8	8.46e-01	0	41	104	0	67	15631
2026-01-14 14:17:52.58	345.96	33.58	-48.8	-61.3	3.8	8.47e-01	0	40	104	0	67	15582
2026-01-14 14:17:53.72	345.93	33.34	-48.8	-61.3	3.8	8.47e-01	0	40	104	0	67	15680
2026-01-14 14:17:54.57	345.91	33.16	-48.8	-61.3	3.8	8.46e-01	0	40	104	0	67	15612
2026-01-14 14:17:55.70	345.88	32.92	-48.8	-61.3	3.8	8.48e-01	0	40	104	0	67	15671
2026-01-14 14:17:56.55	345.86	32.74	-48.8	-61.2	3.8	8.47e-01	0	40	104	0	67	15563
2026-01-14 14:17:57.69	345.84	32.51	-48.8	-61.3	3.8	8.46e-01	0	41	104	0	67	15600
2026-01-14 14:17:58.54	345.82	32.33	-48.8	-61.2	3.8	8.47e-01	0	40	104	0	67	15568
2026-01-14 14:17:59.68	345.79	32.10	-48.8	-61.3	3.8	8.47e-01	0	41	104	0	67	15748
2026-01-14 14:18:00.53	345.77	31.92	-48.8	-61.3	3.8	8.48e-01	0	40	104	0	67	15669
2026-01-14 14:18:01.66	345.75	31.69	-48.8	-61.2	3.8	8.46e-01	0	40	104	0	67	15571
2026-01-14 14:18:02.51	345.73	31.52	-48.8	-61.3	3.8	8.47e-01	0	40	104	0	67	15625
2026-01-14 14:18:03.65	345.71	31.30	-48.8	-61.3	3.8	8.47e-01	0	40	104	0	67	15640
2026-01-14 14:18:04.50	345.69	31.13	-48.8	-61.3	3.8	8.46e-01	0	41	104	0	67	15646
2026-01-14 14:18:05.64	345.66	30.90	-48.8	-61.2	3.8	8.46e-01	0	40	104	0	67	15543
2026-01-14 14:18:06.49	345.65	30.74	-48.8	-61.3	3.8	8.47e-01	0	40	104	0	67	15657
2026-01-14 14:18:07.63	345.62	30.51	-48.8	-61.3	3.8	8.46e-01	0	40	104	0	67	15717
2026-01-14 14:18:08.48	345.61	30.35	-48.8	-61.3	3.8	8.47e-01	0	40	104	0	67	15655
2026-01-14 14:18:09.69	345.58	30.12	-48.8	-61.2	3.8	8.46e-01	0	40	104	0	67	15580
2026-01-14 14:18:10.55	345.57	29.95	-48.8	-61.3	3.8	8.46e-01	0	40	104	0	67	15653
2026-01-14 14:18:11.74	345.54	29.73	-48.8	-61.3	3.8	8.48e-01	0	40	104	0	67	15686
2026-01-14 14:18:12.60	345.53	29.57	-48.8	-61.3	3.8	8.46e-01	0	40	104	0	67	15626
2026-01-14 14:18:13.73	345.51	29.36	-48.8	-61.3	3.8	8.47e-01	0	40	104	0	67	15726
2026-01-14 14:18:14.58	345.49	29.20	-48.8	-61.3	3.8	8.46e-01	0	40	104	0	67	15719
2026-01-14 14:18:15.72	345.47	28.99	-48.8	-61.3	3.8	8.46e-01	0	41	104	0	67	15715
2026-01-14 14:18:16.57	345.46	28.83	-48.8	-61.3	3.8	8.46e-01	0	40	104	0	67	15653
2026-01-14 14:18:17.71	345.44	28.62	-48.8	-61.3	3.8	8.46e-01	0	40	104	0	67	15603
2026-01-14 14:18:18.56	345.42	28.47	-48.8	-61.4	3.8	8.46e-01	0	40	104	0	67	15784
2026-01-14 14:18:19.70	345.40	28.27	-48.9	-61.4	3.8	8.46e-01	0	40	104	0	67	15781
2026-01-14 14:18:20.55	345.39	28.11	-48.8	-61.3	3.8	8.46e-01	0	40	104	0	67	15729
2026-01-14 14:18:21.68	345.37	27.91	-48.8	-61.3	3.8	8.47e-01	0	41	104	0	67	15613
2026-01-14 14:18:22.54	345.35	27.76	-48.8	-61.3	3.8	8.47e-01	0	41	104	0	67	15678
2026-01-14 14:18:23.67	345.34	27.56	-48.8	-61.2	3.8	8.46e-01	0	40	104	0	67	15568
2026-01-14 14:18:24.52	345.32	27.42	-48.8	-61.3	3.8	8.47e-01	0	40	104	0	67	15619
2026-01-14 14:18:25.66	345.30	27.22	-48.8	-61.3	3.8	8.47e-01	0	41	104	0	67	15665
2026-01-14 14:18:26.51	345.29	27.07	-48.8	-61.3	3.8	8.46e-01	0	40	104	0	67	15608
2026-01-14 14:18:27.65	345.27	26.88	-48.9	-61.3	3.8	8.47e-01	0	40	104	0	67	15757
2026-01-14 14:18:28.50	345.26	26.73	-48.9	-61.3	3.8	8.46e-01	0	40	104	0	67	15675
2026-01-14 14:18:29.64	345.24	26.54	-48.8	-61.3	3.8	8.46e-01	0	40	104	0	67	15743
2026-01-14 14:18:30.49	345.23	26.40	-48.8	-61.3	3.8	8.46e-01	0	41	104	0	67	15599
2026-01-14 14:18:31.63	345.21	26.21	-48.8	-61.3	3.8	8.47e-01	0	40	104	0	67	15637
2026-01-14 14:18:32.48	345.20	26.07	-48.8	-61.3	3.8	8.47e-01	0	40	104	0	67	15727
2026-01-14 14:18:33.61	345.19	25.88	-48.8	-61.3	3.8	8.48e-01	0	40	104	0	67	15651
2026-01-14 14:18:34.47	345.17	25.74	-48.8	-61.3	3.8	8.47e-01	0	40	104	0	67	15700
2026-01-14 14:18:35.60	345.16	25.56	-48.9	-61.3	3.8	8.47e-01	0	40	104	0	67	15666
2026-01-14 14:18:36.45	345.15	25.42	-48.9	-61.3	3.8	8.47e-01	0	40	104	0	67	15659
2026-01-14 14:18:37.59	345.13	25.24	-48.8	-61.3	3.8	8.47e-01	0	40	104	0	67	15711
2026-01-14 14:18:38.44	345.12	25.10	-48.8	-61.3	3.8	8.47e-01	0	40	104	0	67	15733
2026-01-14 14:18:39.58	345.10	24.92	-48.8	-61.3	3.8	8.46e-01	0	40	104	0	67	15674
2026-01-14 14:18:40.43	345.09	24.79	-48.8	-61.3	3.8	8.47e-01	0	41	104	0	67	15675
2026-01-14 14:18:41.56	345.08	24.61	-48.8	-61.3	3.8	8.47e-01	0	40	104	0	67	15733
2026-01-14 14:18:42.41	345.07	24.48	-48.9	-61.3	3.8	8.47e-01	0	40	104	0	67	15737
2026-01-14 14:18:43.55	345.05	24.30	-48.8	-61.3	3.8	8.46e-01	0	40	104	0	67	15604
2026-01-14 14:18:44.40	345.04	24.17	-48.8	-61.3	3.8	8.45e-01	0	41	104	0	67	15710
2026-01-14 14:18:45.63	345.03	23.98	-48.8	-61.3	3.8	8.47e-01	0	40	104	0	67	15626
2026-01-14 14:18:46.48	345.02	23.85	-48.8	-61.3	3.8	8.46e-01	0	40	104	0	67	15649
2026-01-14 14:18:47.68	345.00	23.67	-48.8	-61.3	3.8	8.48e-01	0	41	104	0	67	15625
2026-01-14 14:18:48.54	344.99	23.54	-48.8	-61.3	3.8	8.47e-01	0	40	104	0	67	15682
2026-01-14 14:18:49.74	344.98	23.36	-48.8	-61.3	3.8	8.46e-01	0	40	104	0	67	15614
2026-01-14 14:18:50.59	344.97	23.24	-48.8	-61.3	3.8	8.46e-01	0	41	104	0	67	15681
2026-01-14 14:18:51.72	344.96	23.07	-48.8	-61.3	3.8	8.46e-01	0	41	104	0	67	15646
2026-01-14 14:18:52.58	344.95	22.94	-48.8	-61.3	3.8	8.46e-01	0	41	104	0	67	15708
2026-01-14 14:18:53.71	344.94	22.78	-48.8	-61.3	3.8	8.46e-01	0	41	104	0	67	15700
2026-01-14 14:18:54.57	344.93	22.65	-48.8	-61.3	3.8	8.47e-01	0	40	104	0	67	15642
2026-01-14 14:18:55.70	344.92	22.49	-48.8	-61.3	3.8	8.47e-01	0	41	104	0	67	15726
2026-01-14 14:18:56.55	344.91	22.37	-48.8	-61.3	3.8	8.46e-01	0	40	104	0	67	15669
2026-01-14 14:18:57.69	344.89	22.21	-48.8	-61.3	3.8	8.47e-01	0	40	104	0	67	15677
2026-01-14 14:18:58.54	344.89	22.09	-48.8	-61.3	3.8	8.47e-01	0	41	104	0	67	15610
2026-01-14 14:18:59.68	344.87	21.92	-48.8	-61.3	3.8	8.46e-01	0	40	104	0	67	15670
2026-01-14 14:19:00.53	344.87	21.80	-48.8	-61.3	3.8	8.46e-01	0	41	104	0	67	15611
2026-01-14 14:19:01.66	344.85	21.65	-48.9	-61.3	3.8	8.46e-01	0	40	104	0	67	15718
2026-01-14 14:19:02.51	344.85	21.53	-48.8	-61.3	3.8	8.46e-01	0	40	104	0	67	15636
2026-01-14 14:19:03.65	344.84	21.37	-48.8	-61.3	3.8	8.47e-01	0	41	104	0	67	15601
2026-01-14 14:19:04.50	344.83	21.25	-48.8	-61.3	3.8	8.46e-01	0	41	104	0	67	15613
2026-01-14 14:19:05.64	344.82	21.10	-48.8	-61.3	3.8	8.48e-01	0	40	104	0	67	15669
2026-01-14 14:19:06.49	344.81	20.98	-48.8	-61.3	3.8	8.47e-01	0	41	104	0	67	15670
2026-01-14 14:19:07.63	344.80	20.83	-48.8	-61.3	3.8	8.47e-01	0	41	104	0	67	15665
2026-01-14 14:19:08.48	344.79	20.71	-48.9	-61.3	3.8	8.46e-01	0	41	104	0	67	15730
2026-01-14 14:19:09.71	344.78	20.55	-48.8	-61.3	3.8	8.46e-01	0	41	104	0	67	15675
2026-01-14 14:19:10.56	344.77	20.44	-48.8	-61.3	3.8	8.48e-01	0	40	104	0	67	15725
2026-01-14 14:19:11.76	344.76	20.28	-48.8	-61.3	3.8	8.48e-01	0	41	104	0	67	15757
2026-01-14 14:19:12.61	344.75	20.17	-48.8	-61.3	3.8	8.46e-01	0	40	104	0	67	15724
2026-01-14 14:19:13.75	344.74	20.02	-48.8	-61.3	3.8	8.46e-01	0	40	104	0	67	15706
2026-01-14 14:19:14.60	344.74	19.91	-48.8	-61.3	3.8	8.46e-01	0	41	104	0	67	15649
2026-01-14 14:19:15.74	344.73	19.76	-48.8	-61.3	3.8	8.48e-01	0	41	104	0	67	15655
2026-01-14 14:19:16.59	344.72	19.65	-48.8	-61.3	3.8	8.46e-01	0	40	104	0	67	15600
2026-01-14 14:19:17.73	344.71	19.50	-48.8	-61.3	3.8	8.46e-01	0	40	104	0	67	15721
2026-01-14 14:19:18.58	344.70	19.40	-48.8	-61.3	3.8	8.47e-01	0	40	104	0	67	15709
2026-01-14 14:19:19.71	344.70	19.25	-48.8	-61.3	3.8	8.47e-01	0	40	104	0	67	15665
2026-01-14 14:19:20.56	344.69	19.14	-48.8	-61.3	3.8	8.48e-01	0	41	104	0	67	15641
2026-01-14 14:19:21.70	344.68	19.00	-48.9	-61.3	3.8	8.47e-01	0	41	104	0	67	15627
2026-01-14 14:19:22.55	344.67	18.89	-48.8	-61.4	3.8	8.46e-01	0	41	104	0	67	15770
2026-01-14 14:19:23.69	344.67	18.75	-48.8	-61.3	3.8	8.47e-01	0	41	104	0	67	15688
2026-01-14 14:19:24.54	344.66	18.65	-48.8	-61.3	3.8	8.47e-01	0	40	104	0	67	15709
2026-01-14 14:19:25.68	344.65	18.51	-48.8	-61.3	3.8	8.47e-01	0	40	104	0	67	15591
2026-01-14 14:19:26.53	344.64	18.40	-48.8	-61.3	3.8	8.47e-01	0	41	104	0	67	15667
2026-01-14 14:19:27.67	344.64	18.26	-48.8	-61.3	3.8	8.47e-01	0	41	104	0	67	15699
2026-01-14 14:19:28.52	344.63	18.16	-48.8	-61.3	3.8	8.46e-01	0	41	104	0	67	15678
2026-01-14 14:19:29.65	344.62	18.03	-48.8	-61.3	3.8	8.47e-01	0	40	104	0	67	15696
2026-01-14 14:19:30.50	344.62	17.92	-48.8	-61.3	3.8	8.46e-01	0	40	104	0	67	15671
2026-01-14 14:19:31.64	344.61	17.79	-48.8	-61.4	3.8	8.46e-01	0	41	104	0	67	15781
2026-01-14 14:19:32.49	344.60	17.69	-48.8	-61.3	3.8	8.47e-01	0	41	104	0	67	15611
2026-01-14 14:19:33.63	344.60	17.55	-48.8	-61.3	3.8	8.47e-01	0	40	104	0	67	15622
2026-01-14 14:19:34.48	344.59	17.45	-48.9	-61.3	3.8	8.48e-01	0	40	104	0	67	15665
2026-01-14 14:19:35.61	344.58	17.32	-48.8	-61.4	3.8	8.46e-01	0	41	104	0	67	15828
2026-01-14 14:19:36.47	344.58	17.22	-48.8	-61.3	3.8	8.47e-01	0	40	104	0	67	15692
2026-01-14 14:19:37.60	344.57	17.09	-48.9	-61.3	3.8	8.46e-01	0	41	104	0	67	15752
2026-01-14 14:19:38.45	344.56	16.99	-48.8	-61.3	3.8	8.46e-01	0	40	104	0	67	15644
2026-01-14 14:19:39.59	344.56	16.86	-48.8	-61.3	3.8	8.47e-01	0	40	104	0	67	15679
2026-01-14 14:19:40.44	344.55	16.76	-48.9	-61.3	3.8	8.46e-01	0	40	104	0	67	15724
2026-01-14 14:19:41.58	344.55	16.63	-48.9	-61.3	3.8	8.46e-01	0	41	104	0	67	15693
2026-01-14 14:19:42.43	344.54	16.53	-48.8	-61.3	3.8	8.47e-01	0	40	104	0	67	15700
2026-01-14 14:19:43.68	344.53	16.39	-48.9	-61.3	3.8	8.46e-01	0	41	104	0	67	15759
2026-01-14 14:19:44.53	344.53	16.30	-48.8	-61.3	3.8	8.46e-01	0	40	104	0	67	15693
2026-01-14 14:19:45.73	344.52	16.16	-48.8	-61.3	3.8	8.47e-01	0	41	104	0	67	15635
2026-01-14 14:19:46.58	344.52	16.07	-48.8	-61.3	3.8	8.47e-01	0	41	104	0	67	15638
2026-01-14 14:19:47.71	344.51	15.94	-48.8	-61.3	3.8	8.47e-01	0	41	104	0	67	15619
2026-01-14 14:19:48.57	344.51	15.85	-48.8	-61.2	3.8	8.47e-01	0	40	104	0	67	15568
2026-01-14 14:19:49.70	344.50	15.72	-48.8	-61.3	3.8	8.47e-01	0	40	104	0	67	15703
2026-01-14 14:19:50.55	344.50	15.63	-48.9	-61.3	3.8	8.47e-01	0	41	104	0	67	15690
2026-01-14 14:19:51.69	344.49	15.51	-48.8	-61.3	3.8	8.46e-01	0	40	104	0	67	15617
2026-01-14 14:19:52.54	344.48	15.41	-48.9	-61.3	3.8	8.47e-01	0	40	104	0	67	15741
2026-01-14 14:19:53.68	344.48	15.29	-48.8	-61.3	3.8	8.47e-01	0	40	104	0	67	15744
2026-01-14 14:19:54.72	344.47	15.18	-48.9	-61.3	3.8	8.46e-01	0	40	104	0	67	15738
2026-01-14 14:19:55.71	344.47	15.07	-48.8	-61.3	3.8	8.47e-01	0	40	104	0	67	15651
2026-01-14 14:19:56.70	344.46	14.97	-48.8	-61.3	3.8	8.47e-01	0	41	104	0	67	15744
2026-01-14 14:19:57.70	344.46	14.86	-48.8	-61.3	3.8	8.46e-01	0	40	104	0	67	15605
2026-01-14 14:19:58.69	344.45	14.76	-48.8	-61.3	3.8	8.46e-01	0	41	104	0	67	15677
2026-01-14 14:19:59.69	344.45	14.65	-48.8	-61.3	3.8	8.46e-01	0	40	104	0	67	15589
2026-01-14 14:20:00.68	344.44	14.55	-48.8	-61.3	3.8	8.47e-01	0	40	104	0	67	15692
2026-01-14 14:20:01.67	344.44	14.45	-48.8	-61.3	3.8	8.47e-01	0	40	104	0	67	15683
2026-01-14 14:20:02.67	344.44	14.34	-48.8	-61.3	3.8	8.46e-01	0	40	104	0	67	15693
2026-01-14 14:20:03.66	344.43	14.24	-48.8	-61.3	3.8	8.47e-01	0	40	104	0	67	15740
2026-01-14 14:20:04.66	344.43	14.14	-48.8	-61.3	3.8	8.48e-01	0	40	104	0	67	15717
2026-01-14 14:20:05.65	344.42	14.04	-48.8	-61.3	3.8	8.47e-01	0	41	104	0	67	15641
2026-01-14 14:20:06.64	344.42	13.94	-48.8	-61.3	3.8	8.47e-01	0	41	104	0	67	15640
2026-01-14 14:20:07.64	344.41	13.83	-48.8	-61.3	3.8	8.47e-01	0	40	104	0	67	15677
2026-01-14 14:20:08.63	344.41	13.73	-48.9	-61.3	3.8	8.46e-01	0	41	104	0	67	15651
2026-01-14 14:20:09.72	344.41	13.62	-48.8	-61.3	3.8	8.48e-01	0	41	104	0	67	15688
2026-01-14 14:20:10.57	344.40	13.54	-48.8	-61.3	3.8	8.46e-01	0	40	104	0	67	15633
2026-01-14 14:20:11.71	344.40	13.43	-48.8	-61.3	3.8	8.46e-01	0	41	104	0	67	15721
2026-01-14 14:20:12.56	344.39	13.34	-48.8	-61.3	3.8	8.48e-01	0	41	104	0	67	15705
2026-01-14 14:20:13.70	344.39	13.23	-48.8	-61.3	3.8	8.46e-01	0	41	104	0	67	15625
2026-01-14 14:20:14.55	344.39	13.14	-48.8	-61.3	3.8	8.47e-01	0	40	104	0	67	15713
2026-01-14 14:20:15.68	344.38	13.03	-48.8	-61.3	3.8	8.47e-01	0	41	104	0	67	15715
2026-01-14 14:20:16.54	344.38	12.95	-48.8	-61.3	3.8	8.46e-01	0	40	104	0	67	15654
2026-01-14 14:20:17.67	344.37	12.84	-48.8	-61.3	3.8	8.47e-01	0	40	104	0	67	15736
2026-01-14 14:20:18.52	344.37	12.76	-48.8	-61.2	3.8	8.46e-01	0	40	104	0	67	15576
2026-01-14 14:20:19.66	344.37	12.65	-48.8	-61.3	3.8	8.47e-01	0	41	104	0	67	15614
2026-01-14 14:20:20.51	344.36	12.56	-48.8	-61.3	3.8	8.46e-01	0	40	104	0	67	15677
2026-01-14 14:20:21.64	344.36	12.46	-48.8	-61.3	3.8	8.46e-01	0	41	104	0	67	15650
2026-01-14 14:20:22.50	344.36	12.37	-48.8	-61.3	3.8	8.47e-01	0	40	104	0	67	15740
2026-01-14 14:20:23.63	344.35	12.27	-48.8	-61.3	3.8	8.45e-01	0	41	104	0	67	15592
2026-01-14 14:20:24.48	344.35	12.19	-48.8	-61.3	3.8	8.45e-01	0	40	104	0	67	15644
2026-01-14 14:20:25.62	344.35	12.08	-48.8	-61.3	3.8	8.47e-01	0	41	104	0	67	15644
2026-01-14 14:20:26.47	344.34	12.00	-48.8	-61.3	3.8	8.48e-01	0	40	104	0	67	15696
2026-01-14 14:20:27.61	344.34	11.89	-48.8	-61.3	3.8	8.47e-01	0	40	104	0	67	15742
2026-01-14 14:20:28.46	344.34	11.81	-48.8	-61.3	3.8	8.46e-01	0	41	104	0	67	15618
2026-01-14 14:20:29.60	344.33	11.71	-48.8	-61.3	3.8	8.47e-01	0	41	104	0	67	15751
2026-01-14 14:20:30.45	344.33	11.63	-48.8	-61.3	3.8	8.46e-01	0	41	104	0	67	15654
2026-01-14 14:20:31.58	344.33	11.52	-48.8	-61.3	3.8	8.47e-01	0	40	104	0	67	15605
2026-01-14 14:20:32.44	344.32	11.44	-48.8	-61.3	3.8	8.47e-01	0	40	104	0	67	15649
2026-01-14 14:20:33.57	344.32	11.34	-48.7	-61.3	3.8	8.47e-01	0	41	104	0	67	15697
2026-01-14 14:20:34.43	344.32	11.26	-48.7	-61.3	3.8	8.47e-01	0	40	104	0	67	15614
2026-01-14 14:20:35.56	344.32	11.16	-48.8	-61.3	3.8	8.47e-01	0	40	104	0	67	15663
2026-01-14 14:20:36.41	344.31	11.08	-48.8	-61.3	3.8	8.47e-01	0	40	104	0	67	15701
2026-01-14 14:20:37.63	344.31	10.97	-48.8	-61.3	3.8	8.48e-01	0	40	104	0	67	15599
2026-01-14 14:20:38.48	344.31	10.90	-48.8	-61.3	3.8	8.47e-01	0	41	104	0	67	15597
2026-01-14 14:20:39.68	344.30	10.79	-48.8	-61.3	3.8	8.47e-01	0	40	104	0	67	15721
2026-01-14 14:20:40.54	344.30	10.71	-48.8	-61.3	3.8	8.47e-01	0	40	104	0	67	15668
2026-01-14 14:20:41.73	344.30	10.61	-48.8	-61.3	3.8	8.47e-01	0	40	104	0	67	15638
2026-01-14 14:20:42.59	344.30	10.53	-48.8	-61.3	3.8	8.46e-01	0	40	104	0	67	15667
2026-01-14 14:20:43.72	344.29	10.43	-48.8	-61.2	3.8	8.46e-01	0	40	104	0	67	15565
2026-01-14 14:20:44.57	344.29	10.35	-48.8	-61.3	3.8	8.47e-01	0	40	104	0	67	15648
2026-01-14 14:20:45.71	344.29	10.25	-48.8	-61.3	3.8	8.47e-01	0	40	104	0	67	15625
2026-01-14 14:20:46.56	344.29	10.18	-48.8	-61.3	3.8	8.47e-01	0	40	104	0	67	15693
2026-01-14 14:20:47.70	344.28	10.08	-48.8	-61.3	3.8	8.47e-01	0	40	104	0	67	15706
2026-01-14 14:20:48.55	344.28	10.01	-48.8	-61.3	3.8	8.48e-01	0	41	104	0	67	15673
2026-01-14 14:20:49.68	344.28	9.91	-48.8	-61.2	3.8	8.46e-01	0	41	104	0	67	15567
2026-01-14 14:20:50.53	344.28	9.84	-48.8	-61.3	3.8	8.47e-01	0	41	104	0	67	15651
2026-01-14 14:20:51.67	344.28	9.74	-48.8	-61.3	3.8	8.46e-01	0	41	104	0	67	15610
2026-01-14 14:20:52.52	344.27	9.67	-48.8	-61.4	3.8	8.47e-01	0	40	104	0	67	15776
2026-01-14 14:20:53.66	344.27	9.57	-48.8	-61.3	3.8	8.46e-01	0	41	104	0	67	15617
2026-01-14 14:20:54.51	344.27	9.50	-48.8	-61.3	3.8	8.48e-01	0	40	104	0	67	15670
2026-01-14 14:20:55.64	344.27	9.40	-48.8	-61.3	3.8	8.48e-01	0	41	104	0	67	15677
2026-01-14 14:20:56.50	344.26	9.33	-48.8	-61.3	3.8	8.48e-01	0	40	104	0	67	15699
2026-01-14 14:20:57.73	344.26	9.22	-48.8	-61.3	3.8	8.47e-01	0	41	104	0	67	15682
2026-01-14 14:20:58.58	344.26	9.15	-48.8	-61.3	3.8	8.46e-01	0	40	104	0	67	15708
2026-01-14 14:20:59.72	344.26	9.06	-48.8	-61.3	3.8	8.46e-01	0	40	104	0	67	15641
2026-01-14 14:21:00.57	344.26	8.99	-48.8	-61.3	3.8	8.46e-01	0	40	104	0	67	15674
2026-01-14 14:21:01.70	344.25	8.89	-48.7	-61.3	3.8	8.47e-01	0	40	104	0	67	15675
2026-01-14 14:21:02.56	344.25	8.82	-48.8	-61.3	3.8	8.47e-01	0	40	104	0	67	15649
2026-01-14 14:21:03.69	344.25	8.73	-48.8	-61.3	3.8	8.45e-01	0	41	104	0	67	15637
2026-01-14 14:21:04.54	344.25	8.66	-48.7	-61.2	3.8	8.47e-01	0	41	104	0	67	15564
2026-01-14 14:21:05.68	344.25	8.57	-48.8	-61.3	3.8	8.46e-01	0	41	104	0	67	15661
2026-01-14 14:21:06.53	344.25	8.50	-48.8	-61.3	3.8	8.47e-01	0	41	104	0	67	15630
2026-01-14 14:21:07.67	344.24	8.40	-48.8	-61.3	3.8	8.46e-01	0	40	104	0	67	15727
2026-01-14 14:21:08.52	344.24	8.34	-48.8	-61.3	3.8	8.46e-01	0	40	104	0	67	15661
2026-01-14 14:21:09.65	344.24	8.24	-48.8	-61.3	3.8	8.47e-01	0	40	104	0	67	15597
2026-01-14 14:21:10.51	344.24	8.17	-48.8	-61.3	3.8	8.48e-01	0	40	104	0	67	15698
2026-01-14 14:21:11.64	344.24	8.08	-48.8	-61.3	3.8	8.47e-01	0	40	104	0	67	15674
2026-01-14 14:21:12.49	344.24	8.02	-48.8	-61.3	3.8	8.46e-01	0	41	104	0	67	15684
