passes_logs/2026/01/14/T1/T1__20260114_235546_NOAA_20_JPSS-1_rec.log

#Pass ID: 20260114_235546_NOAA 20 (JPSS-1)
#Satellite: NOAA 20 (JPSS-1)
#Configuration: NOAA 20
#almurnet v.1.7.20251203
#Start time: 2026-01-14 23:55:46

#Version: 2.0.20230620
#Station: T1
#Location: 37.570604 lon 55.790049 lat
#TLE: 1 43013U 17073A   26014.13176244  .00000049  00000+0  44136-4 0  9994
#TLE: 2 43013  98.7634 315.0803 0001538  40.6488 319.4803 14.19535812422619

#Time	Az	El	Level	Level2	SNR	BER	BlckErr	Temp	State	Recorded	gain1	gain2
2026-01-14 23:55:46.99	14.81	5.01	-50.5	-65.9	3.8	1.49e+00	0	40	0	0	71	22624
2026-01-14 23:55:47.99	14.80	5.08	-50.5	-65.8	3.8	1.49e+00	0	40	104	0	73	20025
2026-01-14 23:55:48.98	14.79	5.15	-50.5	-65.9	3.8	1.49e+00	0	40	104	0	72	21339
2026-01-14 23:55:49.97	14.78	5.22	-50.5	-65.9	3.8	1.49e+00	0	40	104	0	72	21293
2026-01-14 23:55:50.97	14.77	5.30	-50.5	-65.9	3.8	1.49e+00	0	40	104	0	72	21377
2026-01-14 23:55:51.96	14.76	5.37	-50.5	-65.8	3.8	1.49e+00	0	41	104	0	72	21238
2026-01-14 23:55:52.95	14.75	5.44	-50.5	-65.9	3.8	1.49e+00	0	40	104	0	72	21317
2026-01-14 23:55:53.95	14.74	5.51	-50.5	-65.9	3.8	1.49e+00	0	41	104	0	72	21349
2026-01-14 23:55:54.94	14.73	5.58	-50.5	-65.9	3.8	1.49e+00	0	40	104	0	72	21272
2026-01-14 23:55:55.93	14.72	5.65	-50.5	-65.9	3.8	1.49e+00	0	41	104	0	72	21319
2026-01-14 23:55:56.93	14.72	5.73	-50.5	-65.9	3.8	1.49e+00	0	41	104	0	72	21342
2026-01-14 23:55:57.92	14.71	5.80	-50.5	-65.9	3.8	1.49e+00	0	41	104	0	72	21310
2026-01-14 23:55:58.91	14.70	5.87	-50.5	-65.8	3.8	1.49e+00	0	41	104	0	72	21256
2026-01-14 23:55:59.90	14.69	5.94	-50.5	-65.9	3.8	1.49e+00	0	41	104	0	72	21347
2026-01-14 23:56:00.90	14.68	6.02	-50.5	-65.9	3.8	1.49e+00	0	41	104	0	72	21309
2026-01-14 23:56:01.89	14.67	6.09	-50.5	-65.8	3.8	1.49e+00	0	41	104	0	72	21244
2026-01-14 23:56:02.89	14.66	6.17	-50.5	-65.9	3.8	1.49e+00	0	41	104	0	72	21270
2026-01-14 23:56:03.88	14.65	6.24	-50.5	-65.9	3.8	1.49e+00	0	41	104	0	72	21400
2026-01-14 23:56:04.88	14.64	6.31	-50.5	-65.9	3.8	1.49e+00	0	41	104	0	72	21310
2026-01-14 23:56:05.87	14.63	6.39	-50.5	-65.9	3.8	1.49e+00	0	41	104	0	72	21309
2026-01-14 23:56:06.86	14.62	6.46	-50.5	-65.9	3.8	1.49e+00	0	41	104	0	72	21301
2026-01-14 23:56:07.86	14.61	6.54	-50.5	-65.9	3.8	1.49e+00	0	41	104	0	72	21340
2026-01-14 23:56:08.85	14.60	6.61	-50.5	-65.9	3.8	1.49e+00	0	41	104	0	72	21355
2026-01-14 23:56:09.84	14.59	6.69	-50.5	-65.9	3.8	1.49e+00	0	41	104	0	72	21282
2026-01-14 23:56:10.84	14.57	6.76	-50.5	-65.9	3.8	1.49e+00	0	41	104	0	72	21344
2026-01-14 23:56:11.83	14.56	6.84	-50.5	-65.8	3.8	1.49e+00	0	41	104	0	72	21236
2026-01-14 23:56:12.83	14.55	6.91	-50.5	-65.9	3.8	1.49e+00	0	41	104	0	72	21349
2026-01-14 23:56:13.82	14.54	6.99	-50.5	-65.9	3.8	1.49e+00	0	41	104	0	72	21280
2026-01-14 23:56:14.81	14.53	7.07	-50.5	-65.9	3.8	1.49e+00	0	41	104	0	72	21276
2026-01-14 23:56:15.81	14.52	7.14	-50.5	-65.9	3.8	1.49e+00	0	41	104	0	72	21316
2026-01-14 23:56:16.80	14.51	7.22	-50.5	-65.9	3.8	1.49e+00	0	41	104	0	72	21304
2026-01-14 23:56:17.79	14.50	7.30	-50.5	-65.9	3.8	1.49e+00	0	41	104	0	72	21291
2026-01-14 23:56:18.79	14.49	7.37	-50.5	-65.9	3.8	1.49e+00	0	42	104	0	72	21287
2026-01-14 23:56:19.78	14.48	7.45	-50.5	-65.9	3.8	1.49e+00	0	42	104	0	72	21443
2026-01-14 23:56:20.77	14.47	7.53	-50.5	-65.8	3.8	1.49e+00	0	41	104	0	72	21173
2026-01-14 23:56:21.77	14.45	7.61	-50.5	-65.9	3.8	1.49e+00	0	42	104	0	72	21298
2026-01-14 23:56:22.76	14.44	7.68	-50.5	-65.9	3.8	1.49e+00	0	41	104	0	72	21267
2026-01-14 23:56:23.75	14.43	7.76	-50.5	-65.9	3.8	1.49e+00	0	42	104	0	72	21326
2026-01-14 23:56:24.75	14.42	7.84	-50.5	-65.8	3.8	1.49e+00	0	42	104	0	72	21214
2026-01-14 23:56:25.74	14.41	7.92	-50.5	-65.9	3.8	1.49e+00	0	42	104	0	72	21324
2026-01-14 23:56:26.73	14.40	8.00	-50.5	-65.8	3.8	1.49e+00	0	42	104	0	72	21260
2026-01-14 23:56:27.73	14.38	8.08	-50.5	-65.9	3.8	1.49e+00	0	42	104	0	72	21284
2026-01-14 23:56:28.72	14.37	8.16	-50.5	-65.9	3.8	1.49e+00	0	42	104	0	72	21320
2026-01-14 23:56:29.72	14.36	8.24	-50.5	-65.9	3.8	1.49e+00	0	42	104	0	72	21349
2026-01-14 23:56:30.71	14.35	8.32	-50.5	-65.9	3.8	1.49e+00	0	42	104	0	72	21332
2026-01-14 23:56:31.70	14.34	8.40	-50.5	-65.9	3.8	1.49e+00	0	42	104	0	72	21355
2026-01-14 23:56:32.70	14.32	8.48	-50.5	-65.9	3.8	1.49e+00	0	42	104	0	72	21331
2026-01-14 23:56:33.69	14.31	8.56	-50.5	-65.9	3.8	1.49e+00	0	42	104	0	72	21341
2026-01-14 23:56:34.68	14.30	8.64	-50.5	-65.9	3.8	1.49e+00	0	42	104	0	72	21298
2026-01-14 23:56:35.68	14.29	8.72	-50.5	-65.9	3.8	1.49e+00	0	42	104	0	72	21343
2026-01-14 23:56:36.67	14.27	8.80	-50.5	-65.9	3.8	1.49e+00	0	42	104	0	72	21266
2026-01-14 23:56:37.66	14.26	8.88	-50.5	-65.9	3.8	1.49e+00	0	42	104	0	72	21269
2026-01-14 23:56:38.66	14.25	8.97	-50.5	-65.9	3.8	1.49e+00	0	42	104	0	72	21318
2026-01-14 23:56:39.65	14.23	9.05	-50.5	-65.9	3.8	1.49e+00	0	42	104	0	72	21334
2026-01-14 23:56:40.64	14.22	9.13	-50.5	-65.8	3.8	1.49e+00	0	42	104	0	72	21211
2026-01-14 23:56:41.64	14.21	9.21	-50.5	-65.9	3.8	1.49e+00	0	42	104	0	72	21290
2026-01-14 23:56:42.63	14.20	9.30	-50.5	-65.9	3.8	1.49e+00	0	42	104	0	72	21290
2026-01-14 23:56:43.63	14.18	9.38	-50.5	-65.8	3.8	1.49e+00	0	42	104	0	72	21247
2026-01-14 23:56:44.62	14.17	9.46	-50.5	-65.9	3.8	1.49e+00	0	42	104	0	72	21333
2026-01-14 23:56:45.61	14.16	9.55	-50.5	-65.9	3.8	1.49e+00	0	42	104	0	72	21279
2026-01-14 23:56:46.61	14.14	9.63	-50.5	-65.9	3.8	1.49e+00	0	42	104	0	72	21310
2026-01-14 23:56:47.60	14.13	9.72	-50.5	-65.9	3.8	1.49e+00	0	42	104	0	72	21284
2026-01-14 23:56:48.59	14.11	9.80	-50.5	-65.8	3.8	1.49e+00	0	42	104	0	72	21246
2026-01-14 23:56:49.59	14.10	9.89	-50.5	-65.9	3.8	1.49e+00	0	42	104	0	72	21307
2026-01-14 23:56:50.58	14.09	9.97	-50.5	-65.9	3.8	1.49e+00	0	42	104	0	72	21353
2026-01-14 23:56:51.58	14.07	10.06	-50.5	-65.9	3.8	1.49e+00	0	42	104	0	72	21383
2026-01-14 23:56:52.57	14.06	10.14	-50.5	-65.9	3.8	1.49e+00	0	42	104	0	72	21282
2026-01-14 23:56:53.58	14.04	10.23	-50.5	-65.8	3.8	1.49e+00	0	42	104	0	72	21255
2026-01-14 23:56:54.60	14.03	10.32	-50.5	-65.9	3.8	1.49e+00	0	42	104	0	72	21364
2026-01-14 23:56:55.63	14.01	10.41	-50.5	-65.9	3.8	1.49e+00	0	42	104	0	72	21261
2026-01-14 23:56:56.62	14.00	10.50	-50.5	-65.9	3.8	1.49e+00	0	42	104	0	72	21313
2026-01-14 23:56:57.62	13.98	10.59	-50.5	-65.9	3.8	1.49e+00	0	42	104	0	72	21308
2026-01-14 23:56:58.61	13.97	10.67	-50.5	-65.9	3.8	1.49e+00	0	42	104	0	72	21337
2026-01-14 23:56:59.61	13.95	10.76	-50.5	-65.8	3.8	1.49e+00	0	42	104	0	72	21250
2026-01-14 23:57:00.60	13.94	10.85	-50.5	-65.9	3.8	1.49e+00	0	42	104	0	72	21273
2026-01-14 23:57:01.59	13.92	10.94	-50.5	-65.9	3.8	1.49e+00	0	42	104	0	72	21290
2026-01-14 23:57:02.59	13.91	11.03	-50.5	-65.9	3.8	1.49e+00	0	42	104	0	72	21333
2026-01-14 23:57:03.58	13.89	11.12	-50.5	-65.9	3.8	1.49e+00	0	42	104	0	72	21274
2026-01-14 23:57:04.57	13.88	11.21	-50.5	-65.8	3.8	1.49e+00	0	42	104	0	72	21260
2026-01-14 23:57:05.57	13.86	11.30	-50.5	-65.8	3.8	1.49e+00	0	42	104	0	72	21258
2026-01-14 23:57:06.56	13.84	11.39	-50.5	-65.9	3.8	1.49e+00	0	42	104	0	72	21273
2026-01-14 23:57:07.55	13.83	11.48	-50.5	-65.8	3.8	1.49e+00	0	42	104	0	72	21238
2026-01-14 23:57:08.55	13.81	11.57	-50.5	-65.9	3.8	1.49e+00	0	42	104	0	72	21303
2026-01-14 23:57:09.54	13.80	11.66	-50.5	-65.9	3.8	1.49e+00	0	42	104	0	72	21295
2026-01-14 23:57:10.54	13.78	11.75	-50.5	-65.9	3.8	1.49e+00	0	43	104	0	72	21336
2026-01-14 23:57:11.53	13.76	11.85	-50.5	-65.9	3.8	1.49e+00	0	43	104	0	72	21341
2026-01-14 23:57:12.52	13.75	11.94	-50.5	-65.9	3.8	1.49e+00	0	42	104	0	72	21307
2026-01-14 23:57:13.51	13.73	12.03	-50.5	-65.9	3.8	1.49e+00	0	43	104	0	72	21357
2026-01-14 23:57:14.51	13.71	12.12	-50.5	-65.9	3.8	1.49e+00	0	42	104	0	72	21377
2026-01-14 23:57:15.50	13.69	12.22	-50.5	-65.9	3.8	1.49e+00	0	42	104	0	72	21326
2026-01-14 23:57:16.50	13.68	12.31	-50.5	-65.8	3.8	1.49e+00	0	42	104	0	72	21235
2026-01-14 23:57:17.49	13.66	12.41	-50.5	-65.9	3.8	1.49e+00	0	43	104	0	72	21287
2026-01-14 23:57:18.48	13.64	12.50	-50.5	-65.9	3.8	1.49e+00	0	43	104	0	72	21367
2026-01-14 23:57:19.48	13.62	12.60	-50.5	-65.8	3.8	1.49e+00	0	42	104	0	72	21234
2026-01-14 23:57:20.47	13.61	12.69	-50.5	-65.9	3.8	1.49e+00	0	43	104	0	72	21300
2026-01-14 23:57:21.46	13.59	12.79	-50.5	-65.9	3.8	1.49e+00	0	43	104	0	72	21395
2026-01-14 23:57:22.46	13.57	12.88	-50.5	-65.8	3.8	1.49e+00	0	42	104	0	72	21214
2026-01-14 23:57:23.45	13.55	12.98	-50.5	-65.9	3.8	1.49e+00	0	43	104	0	72	21261
2026-01-14 23:57:24.45	13.53	13.08	-50.5	-65.9	3.8	1.49e+00	0	42	104	0	72	21299
2026-01-14 23:57:25.44	13.52	13.17	-50.5	-65.8	3.8	1.49e+00	0	43	104	0	72	21254
2026-01-14 23:57:26.43	13.50	13.27	-50.5	-65.9	3.8	1.49e+00	0	43	104	0	72	21303
2026-01-14 23:57:27.43	13.48	13.37	-50.5	-65.9	3.8	1.49e+00	0	43	104	0	72	21351
2026-01-14 23:57:28.42	13.46	13.47	-50.5	-65.9	3.8	1.49e+00	0	43	104	0	72	21331
2026-01-14 23:57:29.42	13.44	13.57	-50.5	-65.9	3.8	1.49e+00	0	43	104	0	72	21392
2026-01-14 23:57:30.41	13.42	13.67	-50.5	-65.9	3.8	1.49e+00	0	43	104	0	72	21371
2026-01-14 23:57:31.41	13.40	13.77	-50.5	-65.9	3.8	1.49e+00	0	43	104	0	72	21331
2026-01-14 23:57:32.40	13.38	13.87	-50.5	-65.9	3.8	1.49e+00	0	43	104	0	72	21383
2026-01-14 23:57:33.39	13.36	13.97	-50.5	-65.9	3.8	1.49e+00	0	42	104	0	72	21385
2026-01-14 23:57:34.39	13.34	14.07	-50.5	-65.9	3.8	1.49e+00	0	42	104	0	72	21446
2026-01-14 23:57:35.38	13.32	14.17	-50.5	-65.9	3.8	1.49e+00	0	43	104	0	72	21345
2026-01-14 23:57:36.38	13.30	14.27	-50.5	-65.9	3.8	1.49e+00	0	43	104	0	72	21341
2026-01-14 23:57:37.37	13.28	14.37	-50.5	-65.9	3.8	1.49e+00	0	43	104	0	72	21344
2026-01-14 23:57:38.36	13.26	14.48	-50.5	-65.9	3.8	1.49e+00	0	43	104	0	72	21381
2026-01-14 23:57:39.36	13.24	14.58	-50.5	-65.9	3.8	1.49e+00	0	43	104	0	72	21336
2026-01-14 23:57:40.35	13.22	14.68	-50.5	-65.8	3.8	1.49e+00	0	43	104	0	72	21235
2026-01-14 23:57:41.35	13.20	14.79	-50.5	-65.9	3.8	1.49e+00	0	43	104	0	72	21384
2026-01-14 23:57:42.34	13.18	14.89	-50.5	-65.9	3.8	1.49e+00	0	43	104	0	72	21340
2026-01-14 23:57:43.33	13.16	15.00	-50.5	-65.9	3.8	1.49e+00	0	43	104	0	72	21292
2026-01-14 23:57:44.33	13.13	15.10	-50.5	-65.9	3.8	1.49e+00	0	43	104	0	72	21269
2026-01-14 23:57:45.32	13.11	15.21	-50.5	-65.9	3.8	1.49e+00	0	43	104	0	72	21348
2026-01-14 23:57:46.31	13.09	15.31	-50.5	-65.9	3.8	1.49e+00	0	43	104	0	72	21280
2026-01-14 23:57:47.31	13.07	15.42	-50.5	-65.9	3.8	1.49e+00	0	43	104	0	72	21317
2026-01-14 23:57:48.30	13.05	15.53	-50.5	-65.9	3.8	1.49e+00	0	42	104	0	72	21269
2026-01-14 23:57:49.29	13.02	15.63	-50.5	-65.9	3.8	1.49e+00	0	43	104	0	72	21302
2026-01-14 23:57:50.62	12.99	15.78	-50.5	-65.9	3.8	1.49e+00	0	43	104	0	72	21451
2026-01-14 23:57:51.33	12.98	15.86	-50.5	-65.9	3.8	1.49e+00	0	43	104	0	72	21296
2026-01-14 23:57:52.61	12.95	16.00	-50.5	-65.9	3.8	1.49e+00	0	43	104	0	72	21375
2026-01-14 23:57:53.31	12.93	16.07	-50.5	-65.9	3.8	1.49e+00	0	43	104	0	72	21393
2026-01-14 23:57:54.59	12.90	16.21	-50.5	-65.9	3.8	1.49e+00	0	43	104	0	72	21328
2026-01-14 23:57:55.32	12.88	16.30	-50.5	-65.9	3.8	1.49e+00	0	43	104	0	72	21329
2026-01-14 23:57:56.59	12.85	16.44	-50.5	-65.9	3.8	1.49e+00	0	43	104	0	72	21366
2026-01-14 23:57:57.32	12.83	16.52	-50.5	-65.9	3.8	1.49e+00	0	43	104	0	72	21366
2026-01-14 23:57:58.60	12.80	16.66	-50.5	-65.8	3.8	1.49e+00	0	43	104	0	72	21245
2026-01-14 23:57:59.31	12.78	16.74	-50.5	-65.9	3.8	1.49e+00	0	43	104	0	72	21361
2026-01-14 23:58:00.58	12.75	16.89	-50.5	-65.9	3.8	1.49e+00	0	43	104	0	72	21297
2026-01-14 23:58:01.31	12.73	16.97	-50.5	-65.9	3.8	1.49e+00	0	43	104	0	72	21375
2026-01-14 23:58:02.59	12.70	17.12	-50.5	-65.9	3.8	1.49e+00	0	43	104	0	72	21366
2026-01-14 23:58:03.30	12.68	17.20	-50.5	-65.9	3.8	1.49e+00	0	43	104	0	72	21343
2026-01-14 23:58:04.59	12.65	17.35	-50.5	-65.9	3.8	1.49e+00	0	43	104	0	72	21308
2026-01-14 23:58:05.30	12.63	17.43	-50.5	-65.9	3.8	1.49e+00	0	43	104	0	72	21372
2026-01-14 23:58:06.57	12.60	17.58	-50.5	-65.9	3.8	1.49e+00	0	43	104	0	72	21355
2026-01-14 23:58:07.29	12.58	17.67	-50.5	-65.9	3.8	1.49e+00	0	43	104	0	72	21327
2026-01-14 23:58:08.88	12.54	17.85	-50.5	-65.9	3.8	1.49e+00	0	43	104	0	72	21372
2026-01-14 23:58:09.45	12.52	17.92	-50.5	-65.9	3.8	1.49e+00	0	43	104	0	72	21296
2026-01-14 23:58:11.15	12.47	18.13	-50.5	-65.9	3.8	1.49e+00	0	43	104	0	72	21408
2026-01-14 23:58:11.72	12.46	18.19	-50.5	-65.9	3.8	1.49e+00	0	43	104	0	72	21356
2026-01-14 23:58:13.42	12.41	18.40	-50.5	-65.9	3.8	1.49e+00	0	43	104	0	72	21377
2026-01-14 23:58:13.99	12.40	18.47	-50.5	-65.9	3.8	1.49e+00	0	43	104	0	72	21314
2026-01-14 23:58:15.69	12.35	18.68	-50.5	-65.9	3.8	1.49e+00	0	43	104	0	72	21390
2026-01-14 23:58:16.26	12.33	18.75	-50.5	-65.9	3.8	1.49e+00	0	43	104	0	72	21350
2026-01-14 23:58:18.06	12.28	18.97	-50.5	-65.9	3.8	1.49e+00	0	43	104	0	72	21359
2026-01-14 23:58:18.63	12.26	19.04	-50.5	-65.9	3.8	1.49e+00	0	43	104	0	72	21371
2026-01-14 23:58:20.33	12.21	19.25	-50.5	-65.9	3.8	1.49e+00	0	43	104	0	72	21358
2026-01-14 23:58:21.04	12.19	19.34	-50.5	-65.9	3.8	1.49e+00	0	43	104	0	72	21324
2026-01-14 23:58:22.32	12.15	19.50	-50.5	-65.9	3.8	1.49e+00	0	43	104	0	72	21433
2026-01-14 23:58:23.25	12.12	19.62	-50.5	-65.9	3.8	1.49e+00	0	43	104	0	72	21319
2026-01-14 23:58:24.24	12.09	19.75	-50.5	-65.9	3.8	1.49e+00	0	43	104	0	72	21293
2026-01-14 23:58:25.23	12.06	19.87	-50.5	-65.9	3.8	1.49e+00	0	43	104	0	72	21410
2026-01-14 23:58:26.23	12.03	20.00	-50.5	-65.9	3.8	1.49e+00	0	43	104	0	72	21387
2026-01-14 23:58:27.22	12.00	20.13	-50.5	-65.9	3.8	1.49e+00	0	43	104	0	72	21324
2026-01-14 23:58:28.21	11.97	20.26	-50.5	-65.9	3.8	1.49e+00	0	43	104	0	72	21318
2026-01-14 23:58:29.21	11.93	20.39	-50.5	-65.9	3.8	1.49e+00	0	43	104	0	72	21287
2026-01-14 23:58:30.20	11.90	20.52	-50.5	-65.9	3.8	1.49e+00	0	43	104	0	72	21379
2026-01-14 23:58:31.19	11.87	20.65	-50.5	-65.9	3.8	1.49e+00	0	43	104	0	72	21324
2026-01-14 23:58:32.19	11.83	20.79	-50.5	-65.9	3.8	1.49e+00	0	43	104	0	72	21415
2026-01-14 23:58:33.18	11.80	20.92	-50.5	-65.9	3.8	1.49e+00	0	43	104	0	72	21346
2026-01-14 23:58:34.18	11.77	21.05	-50.5	-65.9	3.8	1.49e+00	0	43	104	0	72	21310
2026-01-14 23:58:35.17	11.73	21.19	-50.5	-65.9	3.8	1.49e+00	0	43	104	0	72	21371
2026-01-14 23:58:36.16	11.70	21.32	-50.5	-65.9	3.8	1.49e+00	0	43	104	0	72	21379
2026-01-14 23:58:37.16	11.66	21.46	-50.5	-65.9	3.8	1.49e+00	0	43	104	0	72	21303
2026-01-14 23:58:38.15	11.63	21.59	-50.5	-65.9	3.8	1.49e+00	0	43	104	0	72	21365
2026-01-14 23:58:39.14	11.59	21.73	-50.5	-65.9	3.8	1.49e+00	0	43	104	0	72	21323
2026-01-14 23:58:40.14	11.56	21.87	-50.5	-65.9	3.8	1.49e+00	0	43	104	0	72	21318
2026-01-14 23:58:41.13	11.52	22.01	-50.5	-65.9	3.8	1.49e+00	0	43	104	0	72	21351
2026-01-14 23:58:42.12	11.48	22.14	-50.5	-65.9	3.8	1.49e+00	0	43	104	0	72	21380
2026-01-14 23:58:43.12	11.45	22.29	-50.5	-65.9	3.8	1.49e+00	0	43	104	0	72	21403
2026-01-14 23:58:44.11	11.41	22.43	-50.5	-65.9	3.8	1.49e+00	0	43	104	0	72	21306
2026-01-14 23:58:45.10	11.37	22.57	-50.5	-65.9	3.8	1.49e+00	0	43	104	0	72	21413
2026-01-14 23:58:46.10	11.33	22.71	-50.5	-65.9	3.8	1.49e+00	0	43	104	0	72	21357
2026-01-14 23:58:47.09	11.30	22.85	-50.5	-65.9	3.8	1.49e+00	0	43	104	0	72	21315
2026-01-14 23:58:48.08	11.26	23.00	-50.5	-65.9	3.8	1.49e+00	0	43	104	0	72	21358
2026-01-14 23:58:49.08	11.22	23.14	-50.5	-65.9	3.8	1.49e+00	0	43	104	0	72	21341
2026-01-14 23:58:50.07	11.18	23.29	-50.5	-65.9	3.8	1.49e+00	0	43	104	0	72	21364
2026-01-14 23:58:51.30	11.13	23.47	-50.5	-65.9	3.8	1.49e+00	0	43	104	0	72	21308
2026-01-14 23:58:52.15	11.09	23.59	-50.5	-65.9	3.8	1.49e+00	0	43	104	0	72	21365
2026-01-14 23:58:53.29	11.05	23.76	-50.5	-65.9	3.8	1.49e+00	0	43	104	0	72	21393
2026-01-14 23:58:54.14	11.01	23.89	-50.5	-65.9	3.8	1.49e+00	0	43	104	0	72	21316
2026-01-14 23:58:55.27	10.96	24.06	-50.5	-65.9	3.8	1.49e+00	0	43	104	0	72	21282
2026-01-14 23:58:56.13	10.93	24.19	-50.5	-65.9	3.8	1.49e+00	0	43	104	0	72	21402
2026-01-14 23:58:57.26	10.88	24.36	-50.5	-65.9	3.8	1.49e+00	0	43	104	0	72	21355
2026-01-14 23:58:58.11	10.84	24.50	-50.5	-65.9	3.8	1.49e+00	0	43	104	0	72	21323
2026-01-14 23:58:59.25	10.79	24.67	-50.5	-65.9	3.8	1.49e+00	0	43	104	0	72	21339
2026-01-14 23:59:00.10	10.75	24.80	-50.5	-65.9	3.8	1.49e+00	0	43	104	0	72	21360
2026-01-14 23:59:01.24	10.70	24.98	-50.5	-65.9	3.8	1.49e+00	0	43	104	0	72	21416
2026-01-14 23:59:02.48	10.65	25.18	-50.5	-65.9	3.8	1.49e+00	0	43	104	0	72	21432
2026-01-14 23:59:03.33	10.61	25.31	-50.5	-65.9	3.8	1.49e+00	0	43	104	0	72	21374
2026-01-14 23:59:04.47	10.55	25.49	-50.5	-65.9	3.8	1.49e+00	0	43	104	0	72	21379
2026-01-14 23:59:05.32	10.51	25.63	-50.5	-65.9	3.8	1.49e+00	0	43	104	0	72	21405
2026-01-14 23:59:06.46	10.46	25.81	-50.5	-65.8	3.8	1.49e+00	0	43	104	0	72	21241
2026-01-14 23:59:07.31	10.42	25.95	-50.5	-65.9	3.8	1.49e+00	0	43	104	0	72	21340
2026-01-14 23:59:08.45	10.36	26.13	-50.5	-65.9	3.8	1.49e+00	0	43	104	0	72	21375
2026-01-14 23:59:09.30	10.32	26.27	-50.5	-65.9	3.8	1.49e+00	0	43	104	0	72	21288
2026-01-14 23:59:10.43	10.27	26.46	-50.5	-65.9	3.8	1.49e+00	0	43	104	0	72	21367
2026-01-14 23:59:11.28	10.22	26.60	-50.5	-65.9	3.8	1.49e+00	0	43	104	0	72	21382
2026-01-14 23:59:12.53	10.16	26.81	-50.5	-65.9	3.8	1.49e+00	0	43	104	0	72	21385
2026-01-14 23:59:13.38	10.12	26.95	-50.5	-65.9	3.8	1.49e+00	0	43	104	0	72	21419
2026-01-14 23:59:14.58	10.06	27.15	-50.5	-65.9	3.8	1.49e+00	0	43	104	0	72	21452
2026-01-14 23:59:15.43	10.01	27.30	-50.5	-65.9	3.8	1.49e+00	0	43	104	0	72	21346
2026-01-14 23:59:16.63	9.95	27.50	-50.5	-65.9	3.8	1.49e+00	0	43	104	0	72	21344
2026-01-14 23:59:17.48	9.90	27.65	-50.5	-65.9	3.8	1.49e+00	0	43	104	0	72	21337
2026-01-14 23:59:18.68	9.84	27.86	-50.5	-65.9	3.8	1.49e+00	0	43	104	0	72	21313
2026-01-14 23:59:19.54	9.79	28.01	-50.5	-65.9	3.8	1.49e+00	0	43	104	0	72	21468
2026-01-14 23:59:20.74	9.72	28.22	-50.5	-65.9	3.8	1.49e+00	0	43	104	0	72	21377
2026-01-14 23:59:21.59	9.67	28.37	-50.5	-65.9	3.8	1.49e+00	0	43	104	0	72	21341
2026-01-14 23:59:22.72	9.61	28.57	-50.5	-65.9	3.8	1.49e+00	0	43	104	0	72	21288
2026-01-14 23:59:23.58	9.56	28.72	-50.5	-65.9	3.8	1.49e+00	0	43	104	0	72	21415
2026-01-14 23:59:24.71	9.49	28.92	-50.5	-65.9	3.8	1.49e+00	0	43	104	0	72	21329
2026-01-14 23:59:25.57	9.44	29.08	-50.5	-65.9	3.8	1.49e+00	0	43	104	0	72	21412
2026-01-14 23:59:26.70	9.38	29.28	-50.5	-65.9	3.8	1.49e+00	0	43	104	0	72	21343
2026-01-14 23:59:27.55	9.32	29.44	-50.5	-65.9	3.8	1.49e+00	0	43	104	0	72	21344
2026-01-14 23:59:28.69	9.25	29.65	-50.5	-65.9	3.8	1.49e+00	0	43	104	0	72	21433
2026-01-14 23:59:29.54	9.20	29.81	-50.5	-65.9	3.8	1.49e+00	0	43	104	0	72	21336
2026-01-14 23:59:30.68	9.13	30.02	-50.5	-65.9	3.8	1.49e+00	0	43	104	0	72	21373
2026-01-14 23:59:31.53	9.08	30.18	-50.5	-65.9	3.8	1.49e+00	0	43	104	0	72	21448
2026-01-14 23:59:32.66	9.00	30.39	-50.5	-65.9	3.8	1.49e+00	0	43	104	0	72	21433
2026-01-14 23:59:33.52	8.95	30.56	-50.5	-65.9	3.8	1.49e+00	0	43	104	0	72	21423
2026-01-14 23:59:34.65	8.87	30.77	-50.5	-65.9	3.8	1.49e+00	0	43	104	0	72	21366
2026-01-14 23:59:35.50	8.82	30.94	-50.5	-65.9	3.8	1.49e+00	0	43	104	0	72	21462
2026-01-14 23:59:36.72	8.73	31.17	-50.5	-65.9	3.8	1.49e+00	0	43	104	0	72	21386
2026-01-14 23:59:37.57	8.68	31.34	-50.5	-65.9	3.8	1.49e+00	0	43	104	0	72	21416
2026-01-14 23:59:38.77	8.59	31.58	-50.5	-65.9	3.8	1.49e+00	0	43	104	0	72	21401
2026-01-14 23:59:39.62	8.53	31.74	-50.5	-65.9	3.8	1.49e+00	0	43	104	0	72	21346
2026-01-14 23:59:40.76	8.45	31.97	-50.5	-65.9	3.8	1.49e+00	0	43	104	0	72	21391
2026-01-14 23:59:41.61	8.39	32.14	-50.5	-65.9	3.8	1.49e+00	0	43	104	0	72	21424
2026-01-14 23:59:42.75	8.31	32.37	-50.5	-65.9	3.8	1.49e+00	0	43	104	0	72	21357
2026-01-14 23:59:43.60	8.24	32.54	-50.5	-65.9	3.8	1.49e+00	0	43	104	0	72	21382
2026-01-14 23:59:44.73	8.16	32.77	-50.5	-65.9	3.8	1.49e+00	0	43	104	0	72	21293
2026-01-14 23:59:45.58	8.09	32.95	-50.5	-65.9	3.8	1.49e+00	0	43	104	0	72	21345
2026-01-14 23:59:46.72	8.01	33.18	-50.5	-65.9	3.8	1.49e+00	0	43	104	0	72	21321
2026-01-14 23:59:47.57	7.94	33.36	-50.5	-65.9	3.8	1.49e+00	0	43	104	0	72	21434
2026-01-14 23:59:48.71	7.85	33.60	-50.5	-65.9	3.8	1.49e+00	0	43	104	0	72	21402
2026-01-14 23:59:49.56	7.78	33.78	-50.5	-65.9	3.8	1.49e+00	0	43	104	0	72	21364
2026-01-14 23:59:50.69	7.69	34.02	-50.5	-65.9	3.8	1.49e+00	0	43	104	0	72	21459
2026-01-14 23:59:51.55	7.62	34.20	-50.5	-65.9	3.8	1.49e+00	0	43	104	0	72	21410
2026-01-14 23:59:52.68	7.52	34.45	-50.5	-65.9	3.8	1.49e+00	0	43	104	0	72	21444
2026-01-14 23:59:53.53	7.45	34.63	-50.5	-65.9	3.8	1.49e+00	0	43	104	0	72	21409
2026-01-14 23:59:54.67	7.35	34.88	-50.5	-65.9	3.8	1.49e+00	0	43	104	0	72	21409
2026-01-14 23:59:55.52	7.28	35.07	-50.5	-65.9	3.8	1.49e+00	0	43	104	0	72	21297
2026-01-14 23:59:56.75	7.17	35.34	-50.5	-65.9	3.8	1.49e+00	0	43	104	0	72	21385
2026-01-14 23:59:57.60	7.10	35.53	-50.5	-65.9	3.8	1.49e+00	0	43	104	0	72	21371
2026-01-14 23:59:58.74	6.99	35.78	-50.5	-65.9	3.8	1.49e+00	0	43	104	0	72	21390
2026-01-14 23:59:59.59	6.91	35.97	-50.5	-65.9	3.8	1.49e+00	0	43	104	0	72	21400
2026-01-15 00:00:00.73	6.81	36.23	-50.5	-65.9	3.8	1.49e+00	0	43	104	0	72	21329
2026-01-15 00:00:01.58	6.73	36.43	-50.5	-65.9	3.8	1.49e+00	0	43	104	0	72	21397
2026-01-15 00:00:02.71	6.62	36.69	-50.5	-65.9	3.8	1.49e+00	0	43	104	0	72	21357
2026-01-15 00:00:03.57	6.53	36.89	-50.5	-65.9	3.8	1.49e+00	0	43	104	0	72	21293
2026-01-15 00:00:04.70	6.42	37.15	-50.5	-65.9	3.8	1.49e+00	0	43	104	0	72	21396
2026-01-15 00:00:05.55	6.34	37.35	-50.5	-65.9	3.8	1.49e+00	0	43	104	0	72	21408
2026-01-15 00:00:06.69	6.22	37.62	-50.5	-65.9	3.8	1.49e+00	0	43	104	0	72	21437
2026-01-15 00:00:07.54	6.13	37.82	-50.5	-65.9	3.8	1.49e+00	0	43	104	0	72	21409
2026-01-15 00:00:08.68	6.01	38.09	-50.5	-65.9	3.8	1.49e+00	0	43	104	0	72	21372
2026-01-15 00:00:09.53	5.92	38.30	-50.5	-65.9	3.8	1.49e+00	0	43	104	0	72	21414
2026-01-15 00:00:10.66	5.80	38.57	-50.5	-65.9	3.8	1.49e+00	0	43	104	0	72	21328
2026-01-15 00:00:11.52	5.70	38.78	-50.5	-65.9	3.8	1.49e+00	0	43	104	0	72	21381
2026-01-15 00:00:12.65	5.58	39.06	-50.5	-65.9	3.8	1.49e+00	0	43	104	0	72	21364
2026-01-15 00:00:13.51	5.48	39.27	-50.5	-65.9	3.8	1.49e+00	0	43	104	0	72	21456
2026-01-15 00:00:14.75	5.34	39.58	-50.5	-65.9	3.8	1.49e+00	0	43	104	0	72	21474
2026-01-15 00:00:15.60	5.24	39.80	-50.5	-65.9	3.8	1.49e+00	0	43	104	0	72	21381
2026-01-15 00:00:16.74	5.10	40.08	-50.5	-65.9	3.8	1.49e+00	0	43	104	0	72	21502
2026-01-15 00:00:17.59	5.00	40.30	-50.5	-65.9	3.8	1.49e+00	0	43	104	0	72	21388
2026-01-15 00:00:18.73	4.86	40.59	-50.5	-65.9	3.8	1.49e+00	0	43	104	0	72	21371
2026-01-15 00:00:19.58	4.75	40.81	-50.5	-65.9	3.8	1.49e+00	0	43	104	0	72	21417
2026-01-15 00:00:20.71	4.61	41.10	-50.5	-65.9	3.8	1.49e+00	0	43	104	0	72	21346
2026-01-15 00:00:21.67	4.48	41.35	-50.5	-65.9	3.8	1.49e+00	0	43	104	0	72	21399
2026-01-15 00:00:22.67	4.35	41.62	-50.5	-65.9	3.8	1.49e+00	0	43	104	0	72	21432
2026-01-15 00:00:23.66	4.22	41.88	-50.5	-65.9	3.8	1.49e+00	0	43	104	0	72	21344
2026-01-15 00:00:24.65	4.08	42.14	-50.5	-65.9	3.8	1.49e+00	0	43	104	0	72	21382
2026-01-15 00:00:25.65	3.95	42.41	-50.5	-65.9	3.8	1.49e+00	0	43	104	0	72	21470
2026-01-15 00:00:26.64	3.81	42.68	-50.5	-65.9	3.8	1.49e+00	0	43	104	0	72	21359
2026-01-15 00:00:27.64	3.66	42.95	-50.5	-65.9	3.8	1.49e+00	0	43	104	0	72	21448
2026-01-15 00:00:28.63	3.52	43.22	-50.5	-65.9	3.8	1.49e+00	0	43	104	0	72	21428
2026-01-15 00:00:29.63	3.37	43.49	-50.5	-66.0	3.8	1.49e+00	0	43	104	0	72	21522
2026-01-15 00:00:30.62	3.22	43.77	-50.5	-65.9	3.8	1.49e+00	0	43	104	0	72	21395
2026-01-15 00:00:31.61	3.07	44.04	-50.5	-65.9	3.8	1.49e+00	0	43	104	0	72	21374
2026-01-15 00:00:32.61	2.91	44.32	-50.5	-65.9	3.8	1.49e+00	0	43	104	0	72	21449
2026-01-15 00:00:33.65	2.75	44.62	-50.5	-65.9	3.8	1.49e+00	0	43	104	0	72	21441
2026-01-15 00:00:34.64	2.59	44.90	-50.5	-65.9	3.8	1.49e+00	0	43	104	0	72	21391
2026-01-15 00:00:35.64	2.42	45.18	-50.5	-65.9	3.8	1.49e+00	0	43	104	0	72	21305
2026-01-15 00:00:36.63	2.25	45.47	-50.5	-65.9	3.8	1.49e+00	0	43	104	0	72	21267
2026-01-15 00:00:37.62	2.08	45.75	-50.5	-65.9	3.8	1.49e+00	0	43	104	0	72	21419
2026-01-15 00:00:38.62	1.91	46.05	-50.5	-65.9	3.8	1.49e+00	0	43	104	0	72	21463
2026-01-15 00:00:39.61	1.73	46.33	-50.5	-65.9	3.8	1.49e+00	0	43	104	0	72	21420
2026-01-15 00:00:40.60	1.55	46.63	-50.5	-65.9	3.8	1.49e+00	0	43	104	0	72	21404
2026-01-15 00:00:41.60	1.37	46.92	-50.5	-65.9	3.8	1.49e+00	0	43	104	0	72	21379
2026-01-15 00:00:42.59	1.18	47.22	-50.5	-65.9	3.8	1.49e+00	0	43	104	0	72	21427
2026-01-15 00:00:43.58	0.99	47.51	-50.5	-65.9	3.8	1.49e+00	0	43	104	0	72	21409
2026-01-15 00:00:44.58	0.80	47.82	-50.5	-65.9	3.8	1.49e+00	0	43	104	0	72	21419
2026-01-15 00:00:45.57	0.60	48.12	-50.5	-65.9	3.8	1.49e+00	0	43	104	0	72	21430
2026-01-15 00:00:46.56	0.40	48.42	-50.5	-65.9	3.8	1.49e+00	0	43	104	0	72	21424
2026-01-15 00:00:47.56	0.19	48.73	-50.5	-65.9	3.8	1.49e+00	0	43	104	0	72	21396
2026-01-15 00:00:48.55	359.98	49.03	-50.5	-65.9	3.8	1.49e+00	0	43	104	0	72	21462
2026-01-15 00:00:49.59	359.75	49.35	-50.5	-65.9	3.8	1.49e+00	0	43	104	0	72	21445
2026-01-15 00:00:50.62	359.53	49.67	-50.5	-65.9	3.8	1.49e+00	0	43	104	0	72	21444
2026-01-15 00:00:51.61	359.30	49.99	-50.5	-65.9	3.8	1.49e+00	0	43	104	0	72	21457
2026-01-15 00:00:52.61	359.07	50.30	-50.5	-65.9	3.8	1.49e+00	0	43	104	0	72	21424
2026-01-15 00:00:53.60	358.84	50.61	-50.5	-66.0	3.8	1.49e+00	0	43	104	0	72	21529
2026-01-15 00:00:54.59	358.60	50.93	-50.5	-65.9	3.8	1.49e+00	0	43	104	0	72	21393
2026-01-15 00:00:55.59	358.35	51.25	-50.5	-65.9	3.8	1.49e+00	0	43	104	0	72	21435
2026-01-15 00:00:56.58	358.11	51.57	-50.5	-65.9	3.8	1.49e+00	0	43	104	0	72	21461
2026-01-15 00:00:57.57	357.85	51.89	-50.5	-65.9	3.8	1.49e+00	0	43	104	0	72	21396
2026-01-15 00:00:58.57	357.59	52.21	-50.5	-65.9	3.8	1.49e+00	0	43	104	0	72	21434
2026-01-15 00:00:59.56	357.32	52.54	-50.5	-65.9	3.8	1.49e+00	0	43	104	0	72	21480
2026-01-15 00:01:00.56	357.05	52.87	-50.5	-65.9	3.8	1.49e+00	0	43	104	0	72	21430
2026-01-15 00:01:01.55	356.77	53.19	-50.5	-65.9	3.8	1.49e+00	0	43	104	0	72	21443
2026-01-15 00:01:02.54	356.49	53.52	-50.5	-65.9	3.8	1.49e+00	0	43	104	0	72	21417
2026-01-15 00:01:03.54	356.19	53.85	-50.5	-65.9	3.8	1.49e+00	0	43	104	0	72	21419
2026-01-15 00:01:04.53	355.89	54.18	-50.5	-65.9	3.8	1.49e+00	0	43	104	0	72	21495
2026-01-15 00:01:05.54	355.58	54.52	-50.5	-65.9	3.8	1.49e+00	0	43	104	0	72	21362
2026-01-15 00:01:06.56	355.26	54.87	-50.5	-65.9	3.8	1.49e+00	0	43	104	0	72	21397
2026-01-15 00:01:07.61	354.92	55.22	-50.5	-65.9	3.8	1.49e+00	0	43	104	0	72	21409
2026-01-15 00:01:08.55	354.61	55.54	-50.5	-65.9	3.8	1.49e+00	0	43	104	0	72	21489
2026-01-15 00:01:09.55	354.27	55.88	-50.5	-65.9	3.8	1.49e+00	0	43	104	0	72	21410
2026-01-15 00:01:10.54	353.93	56.22	-50.5	-65.9	3.8	1.49e+00	0	43	104	0	72	21484
2026-01-15 00:01:11.53	353.57	56.56	-50.5	-65.9	3.8	1.49e+00	0	43	104	0	72	21449
2026-01-15 00:01:12.53	353.21	56.90	-50.5	-65.9	3.8	1.49e+00	0	43	104	0	72	21442
2026-01-15 00:01:13.52	352.84	57.24	-50.5	-65.9	3.8	1.49e+00	0	43	104	0	72	21392
2026-01-15 00:01:14.52	352.45	57.59	-50.5	-65.9	3.8	1.49e+00	0	43	104	0	72	21364
2026-01-15 00:01:15.51	352.06	57.93	-50.5	-65.9	3.8	1.49e+00	0	43	104	0	72	21452
2026-01-15 00:01:16.50	351.66	58.27	-50.5	-65.9	3.8	1.49e+00	0	43	104	0	72	21336
2026-01-15 00:01:17.49	351.25	58.61	-50.5	-65.9	3.8	1.49e+00	0	43	104	0	72	21377
2026-01-15 00:01:18.49	350.82	58.96	-50.5	-65.9	3.8	1.49e+00	0	43	104	0	72	21424
2026-01-15 00:01:19.48	350.39	59.31	-50.5	-65.9	3.8	1.49e+00	0	43	104	0	72	21360
2026-01-15 00:01:20.48	349.94	59.66	-50.5	-65.9	3.8	1.49e+00	0	43	104	0	72	21372
2026-01-15 00:01:21.52	349.46	60.02	-50.5	-65.9	3.8	1.49e+00	0	43	104	0	72	21416
2026-01-15 00:01:22.56	348.97	60.38	-50.5	-65.9	3.8	1.49e+00	0	43	104	0	72	21430
2026-01-15 00:01:23.58	348.47	60.74	-50.5	-65.9	3.8	1.49e+00	0	43	104	0	72	21460
2026-01-15 00:01:24.61	347.95	61.10	-50.5	-65.9	3.8	1.49e+00	0	43	104	0	72	21443
2026-01-15 00:01:25.63	347.42	61.46	-50.5	-65.9	3.8	1.49e+00	0	43	104	0	72	21466
2026-01-15 00:01:26.63	346.89	61.81	-50.5	-65.9	3.8	1.49e+00	0	43	104	0	72	21465
2026-01-15 00:01:27.62	346.34	62.15	-50.5	-65.9	3.8	1.49e+00	0	43	104	0	72	21425
2026-01-15 00:01:28.61	345.78	62.50	-50.5	-65.9	3.8	1.49e+00	0	43	104	0	72	21435
2026-01-15 00:01:29.61	345.20	62.84	-50.5	-65.9	3.8	1.49e+00	0	43	104	0	72	21396
2026-01-15 00:01:30.60	344.61	63.19	-50.5	-65.9	3.8	1.49e+00	0	43	104	0	72	21382
2026-01-15 00:01:31.60	344.00	63.53	-50.5	-65.9	3.8	1.49e+00	0	43	104	0	72	21376
2026-01-15 00:01:32.59	343.37	63.87	-50.5	-65.9	3.8	1.49e+00	0	43	104	0	72	21467
2026-01-15 00:01:33.58	342.72	64.21	-50.5	-65.9	3.8	1.49e+00	0	43	104	0	72	21361
2026-01-15 00:01:34.58	342.05	64.55	-50.5	-65.9	3.8	1.49e+00	0	43	104	0	72	21441
2026-01-15 00:01:35.57	341.36	64.89	-50.5	-65.9	3.8	1.49e+00	0	43	104	0	72	21391
2026-01-15 00:01:36.57	340.65	65.23	-50.5	-65.9	3.8	1.49e+00	0	43	104	0	72	21492
2026-01-15 00:01:37.56	339.92	65.56	-50.5	-65.9	3.8	1.49e+00	0	43	104	0	72	21383
2026-01-15 00:01:38.55	339.17	65.89	-50.5	-65.9	3.8	1.49e+00	0	43	104	0	72	21434
2026-01-15 00:01:39.55	338.38	66.22	-50.5	-65.9	3.8	1.49e+00	0	43	104	0	72	21388
2026-01-15 00:01:40.54	337.59	66.55	-50.5	-65.9	3.8	1.49e+00	0	43	104	0	72	21455
2026-01-15 00:01:41.53	336.76	66.87	-50.5	-65.9	3.8	1.49e+00	0	43	104	0	72	21380
2026-01-15 00:01:42.53	335.91	67.19	-50.5	-65.9	3.8	1.49e+00	0	43	104	0	72	21441
2026-01-15 00:01:43.52	335.03	67.51	-50.5	-65.9	3.8	1.49e+00	0	43	104	0	72	21389
2026-01-15 00:01:44.51	334.13	67.82	-50.5	-65.9	3.8	1.49e+00	0	43	104	0	72	21400
2026-01-15 00:01:45.51	333.19	68.13	-50.5	-65.9	3.8	1.49e+00	0	43	104	0	72	21391
2026-01-15 00:01:46.50	332.23	68.43	-50.5	-65.9	3.8	1.49e+00	0	43	104	0	72	21385
2026-01-15 00:01:47.50	331.23	68.73	-50.5	-65.9	3.8	1.49e+00	0	43	104	0	72	21448
2026-01-15 00:01:48.49	330.21	69.03	-50.5	-65.9	3.8	1.49e+00	0	43	104	0	72	21350
2026-01-15 00:01:49.48	329.16	69.31	-50.5	-65.9	3.8	1.49e+00	0	43	104	0	72	21431
2026-01-15 00:01:50.48	328.07	69.60	-50.5	-65.9	3.8	1.49e+00	0	43	104	0	72	21468
2026-01-15 00:01:51.47	326.95	69.87	-50.5	-65.9	3.8	1.49e+00	0	43	104	0	72	21451
2026-01-15 00:01:52.47	325.79	70.14	-50.5	-66.0	3.8	1.49e+00	0	43	104	0	72	21514
2026-01-15 00:01:53.46	324.61	70.41	-50.5	-65.9	3.8	1.49e+00	0	43	104	0	72	21418
2026-01-15 00:01:54.48	323.36	70.67	-50.5	-65.9	3.8	1.49e+00	0	43	104	0	72	21407
2026-01-15 00:01:55.49	322.08	70.92	-50.5	-65.9	3.8	1.49e+00	0	43	104	0	72	21454
2026-01-15 00:01:56.57	320.68	71.18	-50.5	-65.9	3.8	1.49e+00	0	43	104	0	72	21379
2026-01-15 00:01:57.45	319.51	71.38	-50.5	-65.9	3.8	1.49e+00	0	43	104	0	72	21486
2026-01-15 00:01:58.76	317.71	71.67	-50.5	-65.9	3.8	1.49e+00	0	43	104	0	72	21472
2026-01-15 00:01:59.47	316.71	71.82	-50.5	-65.9	3.8	1.49e+00	0	43	104	0	72	21440
2026-01-15 00:02:00.75	314.86	72.08	-50.5	-65.9	3.8	1.49e+00	0	43	104	0	72	21375
2026-01-15 00:02:01.46	313.82	72.21	-50.5	-65.9	3.8	1.49e+00	0	43	104	0	72	21456
2026-01-15 00:02:02.74	311.89	72.44	-50.5	-65.9	3.8	1.49e+00	0	43	104	0	72	21429
2026-01-15 00:02:03.45	310.79	72.56	-50.5	-66.0	3.8	1.49e+00	0	43	104	0	72	21530
2026-01-15 00:02:04.72	308.80	72.76	-50.5	-65.9	3.8	1.49e+00	0	43	104	0	72	21391
2026-01-15 00:02:05.43	307.67	72.86	-50.5	-65.9	3.8	1.49e+00	0	43	104	0	72	21410
2026-01-15 00:02:06.71	305.59	73.03	-50.5	-65.9	3.8	1.49e+00	0	43	104	0	72	21407
2026-01-15 00:02:07.58	304.15	73.13	-50.5	-65.9	3.8	1.49e+00	0	43	104	0	72	21439
2026-01-15 00:02:08.71	302.26	73.25	-50.5	-65.9	3.8	1.49e+00	0	43	104	0	72	21469
2026-01-15 00:02:09.57	300.80	73.32	-50.5	-65.9	3.8	1.49e+00	0	43	104	0	72	21417
2026-01-15 00:02:10.70	298.86	73.41	-50.5	-65.9	3.8	1.49e+00	0	43	104	0	72	21434
2026-01-15 00:02:11.55	297.39	73.46	-50.5	-65.9	3.8	1.49e+00	0	43	104	0	72	21408
2026-01-15 00:02:12.69	295.41	73.51	-50.5	-65.9	3.8	1.49e+00	0	43	104	0	72	21358
2026-01-15 00:02:13.54	293.92	73.54	-50.5	-65.9	3.8	1.49e+00	0	43	104	0	72	21330
2026-01-15 00:02:14.72	291.85	73.56	-50.5	-65.9	3.8	1.49e+00	0	43	104	0	72	21363
2026-01-15 00:02:15.57	290.36	73.56	-50.5	-65.9	3.8	1.49e+00	0	43	104	0	72	21370
2026-01-15 00:02:16.71	288.36	73.55	-50.5	-65.9	3.8	1.49e+00	0	43	104	0	72	21447
2026-01-15 00:02:17.56	286.87	73.53	-50.5	-65.9	3.8	1.49e+00	0	43	104	0	72	21455
2026-01-15 00:02:18.70	284.88	73.48	-50.5	-65.9	3.8	1.49e+00	0	43	104	0	72	21383
2026-01-15 00:02:19.55	283.41	73.43	-50.5	-65.9	3.8	1.49e+00	0	43	104	0	72	21377
2026-01-15 00:02:20.69	281.45	73.35	-50.5	-65.9	3.8	1.49e+00	0	43	104	0	72	21431
2026-01-15 00:02:21.54	280.00	73.28	-50.5	-65.9	3.8	1.49e+00	0	43	104	0	72	21395
2026-01-15 00:02:22.67	278.10	73.17	-50.5	-65.9	3.8	1.49e+00	0	43	104	0	72	21348
2026-01-15 00:02:23.52	276.69	73.07	-50.5	-65.9	3.8	1.49e+00	0	43	104	0	72	21436
2026-01-15 00:02:24.66	274.82	72.93	-50.5	-65.9	3.8	1.49e+00	0	43	104	0	72	21338
2026-01-15 00:02:25.51	273.45	72.81	-50.5	-65.9	3.8	1.49e+00	0	43	104	0	72	21381
2026-01-15 00:02:26.65	271.65	72.64	-50.5	-65.9	3.8	1.49e+00	0	43	104	0	72	21412
2026-01-15 00:02:27.50	270.33	72.50	-50.5	-65.9	3.8	1.49e+00	0	43	104	0	72	21416
2026-01-15 00:02:28.64	268.59	72.31	-50.5	-65.9	3.8	1.49e+00	0	43	104	0	72	21407
2026-01-15 00:02:29.49	267.32	72.15	-50.5	-65.9	3.8	1.49e+00	0	43	104	0	72	21465
2026-01-15 00:02:30.62	265.68	71.93	-50.5	-65.9	3.8	1.49e+00	0	43	104	0	72	21369
2026-01-15 00:02:31.48	264.45	71.75	-50.5	-65.9	3.8	1.49e+00	0	43	104	0	72	21451
2026-01-15 00:02:32.61	262.88	71.50	-50.5	-65.9	3.8	1.49e+00	0	43	104	0	72	21407
2026-01-15 00:02:33.46	261.73	71.31	-50.5	-65.9	3.8	1.49e+00	0	43	104	0	72	21422
2026-01-15 00:02:34.60	260.22	71.04	-50.5	-65.9	3.8	1.49e+00	0	43	104	0	72	21360
2026-01-15 00:02:35.45	259.13	70.84	-50.5	-65.9	3.8	1.49e+00	0	43	104	0	72	21393
2026-01-15 00:02:36.58	257.72	70.55	-50.5	-65.9	3.8	1.49e+00	0	43	104	0	72	21362
2026-01-15 00:02:37.44	256.67	70.33	-50.5	-65.9	3.8	1.49e+00	0	43	104	0	72	21378
2026-01-15 00:02:38.57	255.34	70.03	-50.5	-65.9	3.8	1.49e+00	0	43	104	0	72	21393
2026-01-15 00:02:39.42	254.36	69.79	-50.5	-65.9	3.8	1.49e+00	0	43	104	0	72	21366
2026-01-15 00:02:40.56	253.09	69.47	-50.5	-65.9	3.8	1.49e+00	0	43	104	0	72	21475
2026-01-15 00:02:41.41	252.17	69.23	-50.5	-65.9	3.8	1.49e+00	0	43	104	0	72	21367
2026-01-15 00:02:42.55	250.97	68.89	-50.5	-65.9	3.8	1.49e+00	0	43	104	0	72	21369
2026-01-15 00:02:43.40	250.11	68.64	-50.5	-65.9	3.8	1.49e+00	0	43	104	0	72	21387
2026-01-15 00:02:44.61	248.91	68.27	-50.5	-65.9	3.8	1.49e+00	0	43	104	0	72	21428
2026-01-15 00:02:45.47	248.09	68.01	-50.5	-66.0	3.8	1.49e+00	0	43	104	0	72	21511
2026-01-15 00:02:46.66	246.98	67.64	-50.5	-65.9	3.8	1.49e+00	0	43	104	0	72	21361
2026-01-15 00:02:47.52	246.21	67.36	-50.5	-65.9	3.8	1.49e+00	0	43	104	0	72	21443
2026-01-15 00:02:48.72	245.16	66.98	-50.5	-65.9	3.8	1.49e+00	0	43	104	0	72	21378
2026-01-15 00:02:49.57	244.45	66.70	-50.5	-65.9	3.8	1.49e+00	0	43	104	0	72	21364
2026-01-15 00:02:50.70	243.52	66.33	-50.5	-65.9	3.8	1.49e+00	0	43	104	0	72	21382
2026-01-15 00:02:51.56	242.84	66.05	-50.5	-65.9	3.8	1.49e+00	0	43	104	0	72	21407
2026-01-15 00:02:52.69	241.97	65.67	-50.5	-65.9	3.8	1.49e+00	0	43	104	0	72	21360
2026-01-15 00:02:53.54	241.34	65.39	-50.5	-65.9	3.8	1.49e+00	0	43	104	0	72	21375
2026-01-15 00:02:54.68	240.51	65.00	-50.5	-65.9	3.8	1.49e+00	0	43	104	0	72	21444
2026-01-15 00:02:55.53	239.91	64.71	-50.5	-65.9	3.8	1.49e+00	0	43	104	0	72	21468
2026-01-15 00:02:56.67	239.13	64.32	-50.5	-65.9	3.8	1.49e+00	0	43	104	0	72	21411
2026-01-15 00:02:57.52	238.57	64.03	-50.5	-65.9	3.8	1.49e+00	0	43	104	0	72	21365
2026-01-15 00:02:58.65	237.84	63.64	-50.5	-65.9	3.8	1.49e+00	0	43	104	0	72	21385
2026-01-15 00:02:59.51	237.31	63.34	-50.5	-65.9	3.8	1.49e+00	0	43	104	0	72	21315
2026-01-15 00:03:00.64	236.62	62.95	-50.5	-65.9	3.8	1.49e+00	0	43	104	0	72	21302
2026-01-15 00:03:01.49	236.12	62.65	-50.5	-65.9	3.8	1.49e+00	0	43	104	0	72	21472
2026-01-15 00:03:02.63	235.47	62.26	-50.5	-65.9	3.8	1.49e+00	0	43	104	0	72	21266
2026-01-15 00:03:03.48	235.00	61.96	-50.5	-65.9	3.8	1.49e+00	0	43	104	0	72	21363
2026-01-15 00:03:04.66	234.36	61.55	-50.5	-65.9	3.8	1.49e+00	0	43	104	0	72	21312
2026-01-15 00:03:05.52	233.91	61.25	-50.5	-65.9	3.8	1.49e+00	0	43	104	0	72	21414
2026-01-15 00:03:06.70	233.31	60.83	-50.5	-65.9	3.8	1.49e+00	0	43	104	0	72	21365
2026-01-15 00:03:07.55	232.88	60.53	-50.5	-65.9	3.8	1.49e+00	0	43	104	0	72	21365
2026-01-15 00:03:08.69	232.33	60.13	-50.5	-65.9	3.8	1.49e+00	0	43	104	0	72	21377
2026-01-15 00:03:09.54	231.94	59.84	-50.5	-65.9	3.8	1.49e+00	0	43	104	0	72	21432
2026-01-15 00:03:10.67	231.42	59.44	-50.5	-65.9	3.8	1.49e+00	0	43	104	0	72	21327
2026-01-15 00:03:11.53	231.04	59.14	-50.5	-65.9	3.8	1.49e+00	0	43	104	0	72	21449
2026-01-15 00:03:12.66	230.55	58.75	-50.5	-65.9	3.8	1.49e+00	0	43	104	0	72	21442
2026-01-15 00:03:13.51	230.19	58.45	-50.5	-65.9	3.8	1.49e+00	0	43	104	0	72	21437
2026-01-15 00:03:14.65	229.72	58.05	-50.5	-65.9	3.8	1.49e+00	0	43	104	0	72	21415
2026-01-15 00:03:15.50	229.38	57.76	-50.5	-65.9	3.8	1.49e+00	0	43	104	0	72	21425
2026-01-15 00:03:16.64	228.94	57.36	-50.5	-65.9	3.8	1.49e+00	0	43	104	0	72	21400
2026-01-15 00:03:17.49	228.61	57.07	-50.5	-65.9	3.8	1.49e+00	0	43	104	0	72	21421
2026-01-15 00:03:18.62	228.19	56.68	-50.5	-65.9	3.8	1.49e+00	0	43	104	0	72	21431
2026-01-15 00:03:19.47	227.89	56.39	-50.5	-65.9	3.8	1.49e+00	0	43	104	0	72	21450
2026-01-15 00:03:20.61	227.49	56.00	-50.5	-65.9	3.8	1.49e+00	0	43	104	0	72	21416
2026-01-15 00:03:21.46	227.19	55.70	-50.5	-65.9	3.8	1.49e+00	0	43	104	0	72	21486
2026-01-15 00:03:22.59	226.81	55.32	-50.5	-65.9	3.8	1.49e+00	0	43	104	0	72	21383
2026-01-15 00:03:23.45	226.53	55.03	-50.5	-65.9	3.8	1.49e+00	0	43	104	0	72	21374
2026-01-15 00:03:24.58	226.17	54.65	-50.5	-65.9	3.8	1.49e+00	0	43	104	0	72	21422
2026-01-15 00:03:25.43	225.90	54.36	-50.5	-65.9	3.8	1.49e+00	0	43	104	0	72	21418
2026-01-15 00:03:26.74	225.50	53.92	-50.5	-65.9	3.8	1.49e+00	0	43	104	0	72	21421
2026-01-15 00:03:27.45	225.29	53.68	-50.5	-65.9	3.8	1.49e+00	0	43	104	0	72	21351
2026-01-15 00:03:28.73	224.92	53.26	-50.5	-65.9	3.8	1.49e+00	0	43	104	0	72	21461
2026-01-15 00:03:29.44	224.72	53.02	-50.5	-65.9	3.8	1.49e+00	0	43	104	0	72	21422
2026-01-15 00:03:30.72	224.36	52.60	-50.5	-65.9	3.8	1.49e+00	0	43	104	0	72	21356
2026-01-15 00:03:31.44	224.17	52.36	-50.5	-65.9	3.8	1.49e+00	0	43	104	0	72	21387
2026-01-15 00:03:32.72	223.83	51.94	-50.5	-65.9	3.8	1.49e+00	0	43	104	0	72	21400
2026-01-15 00:03:33.43	223.64	51.71	-50.5	-65.9	3.8	1.49e+00	0	43	104	0	72	21384
2026-01-15 00:03:34.71	223.32	51.30	-50.5	-65.9	3.8	1.49e+00	0	43	104	0	72	21422
2026-01-15 00:03:35.42	223.14	51.07	-50.5	-65.9	3.8	1.49e+00	0	43	104	0	72	21418
2026-01-15 00:03:36.69	222.83	50.66	-50.5	-65.9	3.8	1.49e+00	0	43	104	0	72	21419
2026-01-15 00:03:37.43	222.65	50.43	-50.5	-65.9	3.8	1.49e+00	0	43	104	0	72	21366
2026-01-15 00:03:38.71	222.36	50.02	-50.5	-65.9	3.8	1.49e+00	0	43	104	0	72	21347
2026-01-15 00:03:39.42	222.19	49.80	-50.5	-65.9	3.8	1.49e+00	0	43	104	0	72	21442
2026-01-15 00:03:40.78	221.89	49.37	-50.5	-65.9	3.8	1.49e+00	0	43	104	0	72	21438
2026-01-15 00:03:41.49	221.73	49.15	-50.5	-65.9	3.8	1.49e+00	0	43	104	0	72	21430
2026-01-15 00:03:42.83	221.45	48.73	-50.5	-65.9	3.8	1.49e+00	0	43	104	0	72	21308
2026-01-15 00:03:43.54	221.30	48.51	-50.5	-65.9	3.8	1.49e+00	0	43	104	0	72	21389
2026-01-15 00:03:44.88	221.02	48.10	-50.5	-65.9	3.8	1.49e+00	0	43	104	0	72	21408
2026-01-15 00:03:45.59	220.88	47.89	-50.5	-65.9	3.8	1.49e+00	0	43	104	0	72	21287
2026-01-15 00:03:46.86	220.63	47.50	-50.5	-65.9	3.8	1.49e+00	0	43	104	0	72	21313
2026-01-15 00:03:47.57	220.49	47.29	-50.5	-65.9	3.8	1.49e+00	0	43	104	0	72	21362
2026-01-15 00:03:48.85	220.25	46.90	-50.5	-65.9	3.8	1.49e+00	0	43	104	0	72	21409
2026-01-15 00:03:49.56	220.12	46.69	-50.5	-65.9	3.8	1.49e+00	0	43	104	0	72	21416
2026-01-15 00:03:50.84	219.88	46.31	-50.5	-65.9	3.8	1.49e+00	0	43	104	0	72	21405
2026-01-15 00:03:51.55	219.76	46.10	-50.5	-65.9	3.8	1.49e+00	0	43	104	0	72	21446
2026-01-15 00:03:52.83	219.53	45.73	-50.5	-65.9	3.8	1.49e+00	0	43	104	0	72	21390
2026-01-15 00:03:53.55	219.41	45.52	-50.5	-65.9	3.8	1.49e+00	0	43	104	0	72	21431
2026-01-15 00:03:54.83	219.19	45.15	-50.5	-65.9	3.8	1.49e+00	0	43	104	0	72	21359
2026-01-15 00:03:55.54	219.07	44.95	-50.5	-65.9	3.8	1.49e+00	0	43	104	0	72	21392
2026-01-15 00:03:56.82	218.86	44.58	-50.5	-65.9	3.8	1.49e+00	0	43	104	0	72	21409
2026-01-15 00:03:57.53	218.75	44.38	-50.5	-65.9	3.8	1.49e+00	0	43	104	0	72	21432
2026-01-15 00:03:58.81	218.55	44.02	-50.5	-65.9	3.8	1.49e+00	0	43	104	0	72	21399
2026-01-15 00:03:59.52	218.44	43.82	-50.5	-65.9	3.8	1.49e+00	0	43	104	0	72	21364
2026-01-15 00:04:00.79	218.24	43.47	-50.5	-65.9	3.8	1.49e+00	0	43	104	0	72	21434
2026-01-15 00:04:01.52	218.13	43.27	-50.5	-65.9	3.8	1.49e+00	0	43	104	0	72	21402
2026-01-15 00:04:02.86	217.94	42.90	-50.5	-65.9	3.8	1.49e+00	0	43	104	0	72	21442
2026-01-15 00:04:03.57	217.83	42.70	-50.5	-65.9	3.8	1.49e+00	0	43	104	0	72	21506
2026-01-15 00:04:04.91	217.64	42.34	-50.5	-66.0	3.8	1.49e+00	0	43	104	0	72	21522
2026-01-15 00:04:05.62	217.54	42.15	-50.5	-65.9	3.8	1.49e+00	0	43	104	0	72	21352
2026-01-15 00:04:06.90	217.37	41.81	-50.5	-65.9	3.8	1.49e+00	0	43	104	0	72	21346
2026-01-15 00:04:07.62	217.27	41.62	-50.5	-65.9	3.8	1.49e+00	0	43	104	0	72	21446
2026-01-15 00:04:09.01	217.09	41.25	-50.5	-65.9	3.8	1.49e+00	0	43	104	0	72	21427
2026-01-15 00:04:09.72	217.00	41.06	-50.5	-65.9	3.8	1.49e+00	0	43	104	0	72	21395
2026-01-15 00:04:11.00	216.83	40.73	-50.5	-65.9	3.8	1.49e+00	0	43	104	0	72	21408
2026-01-15 00:04:11.71	216.74	40.55	-50.5	-65.9	3.8	1.49e+00	0	43	104	0	72	21444
2026-01-15 00:04:12.99	216.58	40.22	-50.5	-65.9	3.8	1.49e+00	0	43	104	0	72	21454
2026-01-15 00:04:13.71	216.50	40.03	-50.5	-65.9	3.8	1.49e+00	0	43	104	0	72	21457
2026-01-15 00:04:14.99	216.34	39.71	-50.5	-65.9	3.8	1.49e+00	0	43	104	0	72	21391
2026-01-15 00:04:15.70	216.26	39.53	-50.5	-65.9	3.8	1.49e+00	0	43	104	0	72	21435
2026-01-15 00:04:16.98	216.11	39.21	-50.5	-65.9	3.8	1.49e+00	0	43	104	0	72	21396
2026-01-15 00:04:17.69	216.03	39.03	-50.5	-65.9	3.8	1.49e+00	0	43	104	0	72	21392
2026-01-15 00:04:18.97	215.89	38.72	-50.5	-65.9	3.8	1.49e+00	0	43	104	0	72	21398
2026-01-15 00:04:19.68	215.81	38.54	-50.5	-65.9	3.8	1.49e+00	0	43	104	0	72	21405
2026-01-15 00:04:20.95	215.67	38.23	-50.5	-65.9	3.8	1.49e+00	0	43	104	0	72	21453
2026-01-15 00:04:21.69	215.59	38.05	-50.5	-65.9	3.8	1.49e+00	0	43	104	0	72	21417
2026-01-15 00:04:22.97	215.45	37.75	-50.5	-65.9	3.8	1.49e+00	0	43	104	0	72	21416
2026-01-15 00:04:23.69	215.38	37.58	-50.5	-65.9	3.8	1.49e+00	0	43	104	0	72	21411
2026-01-15 00:04:24.99	215.24	37.27	-50.5	-65.9	3.8	1.49e+00	0	43	104	0	72	21417
2026-01-15 00:04:25.70	215.17	37.10	-50.5	-65.9	3.8	1.49e+00	0	43	104	0	72	21458
2026-01-15 00:04:26.99	215.04	36.80	-50.5	-65.9	3.8	1.49e+00	0	43	104	0	72	21386
2026-01-15 00:04:27.70	214.97	36.63	-50.5	-65.9	3.8	1.49e+00	0	43	104	0	72	21484
2026-01-15 00:04:28.98	214.85	36.34	-50.5	-65.9	3.8	1.49e+00	0	43	104	0	72	21473
2026-01-15 00:04:29.69	214.78	36.17	-50.5	-65.9	3.8	1.49e+00	0	43	104	0	72	21461
2026-01-15 00:04:30.97	214.66	35.88	-50.5	-65.9	3.8	1.49e+00	0	43	104	0	72	21413
2026-01-15 00:04:31.69	214.59	35.72	-50.5	-65.9	3.8	1.49e+00	0	43	104	0	72	21380
2026-01-15 00:04:32.97	214.48	35.43	-50.5	-65.9	3.8	1.49e+00	0	43	104	0	72	21410
2026-01-15 00:04:33.68	214.41	35.27	-50.5	-65.9	3.8	1.49e+00	0	43	104	0	72	21461
2026-01-15 00:04:34.96	214.30	34.99	-50.5	-65.9	3.8	1.49e+00	0	43	104	0	72	21415
2026-01-15 00:04:35.67	214.24	34.83	-50.5	-65.9	3.8	1.49e+00	0	43	104	0	72	21409
2026-01-15 00:04:36.95	214.13	34.55	-50.5	-65.9	3.8	1.49e+00	0	43	104	0	72	21401
2026-01-15 00:04:37.67	214.07	34.39	-50.5	-66.0	3.8	1.49e+00	0	43	104	0	72	21535
2026-01-15 00:04:38.95	213.96	34.12	-50.5	-65.9	3.8	1.49e+00	0	43	104	0	72	21325
2026-01-15 00:04:39.66	213.90	33.97	-50.5	-65.9	3.8	1.49e+00	0	43	104	0	72	21452
2026-01-15 00:04:40.94	213.79	33.69	-50.5	-65.9	3.8	1.49e+00	0	43	104	0	72	21399
2026-01-15 00:04:41.66	213.74	33.54	-50.5	-65.9	3.8	1.49e+00	0	43	104	0	72	21428
2026-01-15 00:04:42.94	213.63	33.27	-50.5	-65.9	3.8	1.49e+00	0	43	104	0	72	21448
2026-01-15 00:04:43.68	213.58	33.12	-50.6	-65.9	3.8	1.49e+00	0	43	104	0	72	21486
2026-01-15 00:04:44.95	213.48	32.85	-50.5	-65.9	3.8	1.49e+00	0	43	104	0	72	21428
2026-01-15 00:04:45.66	213.42	32.71	-50.6	-65.9	3.8	1.49e+00	0	43	104	0	72	21466
2026-01-15 00:04:46.94	213.33	32.44	-50.5	-65.9	3.8	1.49e+00	0	43	104	0	72	21480
2026-01-15 00:04:47.65	213.27	32.30	-50.5	-65.9	3.8	1.49e+00	0	43	104	0	72	21406
2026-01-15 00:04:48.93	213.18	32.04	-50.5	-65.9	3.8	1.49e+00	0	43	104	0	72	21421
2026-01-15 00:04:49.64	213.13	31.90	-50.5	-65.9	3.8	1.49e+00	0	43	104	0	72	21468
2026-01-15 00:04:50.92	213.03	31.64	-50.5	-65.9	3.8	1.49e+00	0	43	104	0	72	21458
2026-01-15 00:04:51.63	212.98	31.50	-50.5	-65.9	3.8	1.49e+00	0	43	104	0	72	21394
2026-01-15 00:04:52.92	212.89	31.24	-50.5	-65.9	3.8	1.49e+00	0	43	104	0	72	21462
2026-01-15 00:04:53.63	212.84	31.11	-50.5	-65.9	3.8	1.49e+00	0	43	104	0	72	21384
2026-01-15 00:04:54.91	212.76	30.86	-50.5	-65.9	3.8	1.49e+00	0	43	104	0	72	21466
2026-01-15 00:04:55.62	212.71	30.72	-50.5	-65.9	3.8	1.49e+00	0	43	104	0	72	21504
2026-01-15 00:04:56.90	212.62	30.47	-50.5	-65.9	3.8	1.49e+00	0	43	104	0	72	21407
2026-01-15 00:04:57.61	212.58	30.34	-50.5	-66.0	3.8	1.49e+00	0	43	104	0	72	21513
2026-01-15 00:04:58.88	212.49	30.10	-50.5	-65.9	3.8	1.49e+00	0	43	104	0	72	21452
2026-01-15 00:04:59.61	212.45	29.96	-50.5	-65.9	3.8	1.49e+00	0	43	104	0	72	21424
2026-01-15 00:05:00.89	212.37	29.72	-50.5	-65.9	3.8	1.49e+00	0	43	104	0	72	21389
2026-01-15 00:05:01.61	212.32	29.58	-50.5	-66.0	3.8	1.49e+00	0	43	104	0	72	21510
2026-01-15 00:05:02.89	212.24	29.35	-50.6	-65.9	3.8	1.49e+00	0	43	104	0	72	21434
2026-01-15 00:05:03.60	212.20	29.22	-50.5	-65.9	3.8	1.49e+00	0	43	104	0	72	21436
2026-01-15 00:05:04.88	212.12	28.98	-50.6	-65.9	3.8	1.49e+00	0	43	104	0	72	21468
2026-01-15 00:05:05.60	212.08	28.85	-50.5	-65.9	3.8	1.49e+00	0	43	104	0	72	21428
2026-01-15 00:05:06.88	212.00	28.62	-50.5	-65.9	3.8	1.49e+00	0	43	104	0	72	21443
2026-01-15 00:05:07.59	211.96	28.49	-50.6	-65.9	3.8	1.49e+00	0	43	104	0	72	21465
2026-01-15 00:05:08.86	211.89	28.27	-50.5	-65.9	3.8	1.49e+00	0	43	104	0	72	21427
2026-01-15 00:05:09.57	211.85	28.14	-50.5	-65.9	3.8	1.49e+00	0	43	104	0	72	21497
2026-01-15 00:05:10.85	211.77	27.92	-50.5	-65.9	3.8	1.49e+00	0	43	104	0	72	21494
2026-01-15 00:05:11.56	211.73	27.79	-50.5	-65.9	3.8	1.49e+00	0	43	104	0	72	21433
2026-01-15 00:05:12.84	211.66	27.57	-50.5	-65.9	3.8	1.49e+00	0	43	104	0	72	21439
2026-01-15 00:05:13.55	211.63	27.45	-50.6	-65.9	3.8	1.49e+00	0	43	104	0	72	21461
2026-01-15 00:05:14.83	211.56	27.23	-50.5	-65.9	3.8	1.49e+00	0	43	104	0	72	21460
2026-01-15 00:05:15.54	211.52	27.11	-50.5	-65.9	3.8	1.49e+00	0	43	104	0	72	21454
2026-01-15 00:05:16.89	211.45	26.88	-50.6	-65.9	3.8	1.49e+00	0	43	104	0	72	21403
2026-01-15 00:05:17.60	211.41	26.76	-50.6	-65.9	3.8	1.49e+00	0	44	104	0	72	21472
2026-01-15 00:05:18.88	211.34	26.54	-50.5	-66.0	3.8	1.49e+00	0	43	104	0	72	21513
2026-01-15 00:05:19.59	211.31	26.42	-50.5	-66.0	3.8	1.49e+00	0	43	104	0	72	21564
2026-01-15 00:05:20.87	211.24	26.21	-50.5	-66.0	3.8	1.49e+00	0	43	104	0	72	21520
2026-01-15 00:05:21.58	211.21	26.09	-50.5	-66.0	3.8	1.49e+00	0	43	104	0	72	21533
2026-01-15 00:05:22.86	211.15	25.88	-50.5	-65.9	3.8	1.49e+00	0	43	104	0	72	21455
2026-01-15 00:05:23.57	211.11	25.77	-50.6	-65.9	3.8	1.49e+00	0	43	104	0	72	21505
2026-01-15 00:05:24.85	211.05	25.56	-50.5	-66.0	3.8	1.49e+00	0	43	104	0	72	21570
2026-01-15 00:05:25.56	211.01	25.45	-50.5	-65.9	3.8	1.49e+00	0	44	104	0	72	21503
2026-01-15 00:05:26.83	210.95	25.24	-50.6	-66.0	3.8	1.49e+00	0	43	104	0	72	21539
2026-01-15 00:05:27.54	210.92	25.13	-50.5	-66.0	3.8	1.49e+00	0	43	104	0	72	21573
2026-01-15 00:05:28.82	210.86	24.93	-50.6	-66.0	3.8	1.49e+00	0	43	104	0	72	21521
2026-01-15 00:05:29.54	210.83	24.82	-50.6	-65.9	3.8	1.49e+00	0	43	104	0	72	21458
2026-01-15 00:05:30.82	210.77	24.62	-50.5	-65.9	3.8	1.49e+00	0	44	104	0	72	21475
2026-01-15 00:05:31.53	210.74	24.51	-50.5	-66.0	3.8	1.49e+00	0	43	104	0	72	21512
2026-01-15 00:05:32.81	210.68	24.31	-50.5	-65.9	3.8	1.49e+00	0	43	104	0	72	21468
2026-01-15 00:05:33.52	210.65	24.20	-50.6	-65.9	3.8	1.49e+00	0	43	104	0	72	21479
2026-01-15 00:05:34.89	210.59	23.99	-50.6	-66.0	3.8	1.49e+00	0	43	104	0	72	21592
2026-01-15 00:05:35.60	210.56	23.88	-50.5	-66.0	3.8	1.49e+00	0	43	104	0	72	21571
2026-01-15 00:05:36.88	210.51	23.69	-50.6	-66.0	3.8	1.49e+00	0	43	104	0	72	21529
2026-01-15 00:05:37.59	210.48	23.58	-50.6	-66.0	3.8	1.49e+00	0	43	104	0	72	21539
2026-01-15 00:05:38.87	210.42	23.39	-50.6	-65.9	3.8	1.49e+00	0	43	104	0	72	21481
2026-01-15 00:05:39.58	210.39	23.29	-50.5	-66.0	3.8	1.49e+00	0	43	104	0	72	21537
2026-01-15 00:05:40.85	210.34	23.10	-50.6	-65.9	3.8	1.49e+00	0	43	104	0	72	21476
2026-01-15 00:05:41.56	210.31	22.99	-50.6	-65.9	3.8	1.49e+00	0	43	104	0	72	21478
2026-01-15 00:05:42.84	210.26	22.81	-50.6	-66.0	3.8	1.49e+00	0	43	104	0	72	21511
2026-01-15 00:05:43.57	210.23	22.70	-50.6	-66.0	3.8	1.49e+00	0	43	104	0	72	21526
2026-01-15 00:05:44.84	210.18	22.52	-50.6	-66.0	3.8	1.49e+00	0	43	104	0	72	21537
2026-01-15 00:05:45.55	210.16	22.42	-50.6	-65.9	3.8	1.49e+00	0	43	104	0	72	21424
2026-01-15 00:05:46.83	210.11	22.23	-50.6	-66.0	3.8	1.49e+00	0	43	104	0	72	21552
2026-01-15 00:05:47.55	210.08	22.13	-50.6	-65.9	3.8	1.49e+00	0	43	104	0	72	21499
2026-01-15 00:05:48.83	210.03	21.95	-50.6	-65.9	3.8	1.49e+00	0	43	104	0	72	21431
2026-01-15 00:05:49.56	210.00	21.85	-50.6	-65.9	3.8	1.49e+00	0	43	104	0	72	21488
2026-01-15 00:05:50.84	209.96	21.67	-50.6	-66.0	3.8	1.49e+00	0	43	104	0	72	21547
2026-01-15 00:05:51.55	209.93	21.57	-50.5	-66.0	3.8	1.49e+00	0	43	104	0	72	21558
2026-01-15 00:05:52.83	209.88	21.39	-50.6	-66.0	3.8	1.49e+00	0	43	104	0	72	21532
2026-01-15 00:05:53.54	209.86	21.30	-50.6	-65.9	3.8	1.49e+00	0	43	104	0	72	21459
2026-01-15 00:05:54.91	209.81	21.11	-50.6	-66.0	3.8	1.49e+00	0	43	104	0	72	21557
2026-01-15 00:05:55.62	209.78	21.01	-50.6	-66.0	3.8	1.49e+00	0	43	104	0	72	21524
2026-01-15 00:05:56.90	209.74	20.84	-50.6	-65.9	3.8	1.49e+00	0	43	104	0	72	21481
2026-01-15 00:05:57.62	209.71	20.74	-50.6	-66.0	3.8	1.49e+00	0	43	104	0	72	21520
2026-01-15 00:05:58.90	209.67	20.57	-50.6	-65.9	3.8	1.49e+00	0	43	104	0	72	21483
2026-01-15 00:05:59.61	209.65	20.48	-50.5	-66.0	3.8	1.49e+00	0	43	104	0	72	21515
2026-01-15 00:06:00.89	209.60	20.31	-50.6	-65.9	3.8	1.49e+00	0	43	104	0	72	21501
2026-01-15 00:06:01.60	209.58	20.21	-50.6	-66.0	3.8	1.49e+00	0	43	104	0	72	21533
2026-01-15 00:06:02.87	209.54	20.05	-50.6	-66.0	3.8	1.49e+00	0	43	104	0	72	21517
2026-01-15 00:06:03.60	209.51	19.95	-50.6	-65.9	3.8	1.49e+00	0	43	104	0	72	21464
2026-01-15 00:06:04.88	209.47	19.79	-50.6	-66.0	3.8	1.49e+00	0	43	104	0	72	21539
2026-01-15 00:06:05.60	209.45	19.69	-50.6	-66.0	3.8	1.49e+00	0	43	104	0	72	21551
2026-01-15 00:06:06.88	209.41	19.53	-50.6	-66.0	3.8	1.49e+00	0	43	104	0	72	21590
2026-01-15 00:06:07.59	209.39	19.44	-50.6	-65.9	3.8	1.49e+00	0	43	104	0	72	21483
2026-01-15 00:06:08.90	209.34	19.27	-50.6	-65.9	3.8	1.49e+00	0	43	104	0	72	21431
2026-01-15 00:06:09.61	209.32	19.18	-50.6	-66.0	3.8	1.49e+00	0	43	104	0	72	21602
2026-01-15 00:06:10.88	209.28	19.02	-50.6	-66.0	3.8	1.49e+00	0	44	104	0	72	21534
2026-01-15 00:06:11.61	209.26	18.93	-50.6	-65.9	3.8	1.49e+00	0	43	104	0	72	21504
2026-01-15 00:06:12.88	209.22	18.77	-50.6	-66.0	3.8	1.49e+00	0	43	104	0	72	21509
2026-01-15 00:06:13.59	209.20	18.69	-50.6	-66.0	3.8	1.49e+00	0	43	104	0	72	21520
2026-01-15 00:06:14.87	209.16	18.53	-50.6	-65.9	3.8	1.49e+00	0	43	104	0	72	21505
2026-01-15 00:06:15.58	209.14	18.44	-50.6	-66.0	3.8	1.49e+00	0	43	104	0	72	21533
2026-01-15 00:06:16.86	209.11	18.28	-50.6	-66.0	3.8	1.49e+00	0	43	104	0	72	21585
2026-01-15 00:06:17.58	209.08	18.20	-50.6	-66.0	3.8	1.49e+00	0	44	104	0	72	21542
2026-01-15 00:06:18.86	209.05	18.04	-50.6	-66.0	3.8	1.49e+00	0	44	104	0	72	21517
2026-01-15 00:06:19.59	209.03	17.95	-50.6	-66.0	3.8	1.49e+00	0	43	104	0	72	21535
2026-01-15 00:06:20.86	208.99	17.80	-50.6	-65.9	3.8	1.49e+00	0	43	104	0	72	21500
2026-01-15 00:06:21.57	208.97	17.72	-50.6	-66.0	3.8	1.49e+00	0	44	104	0	72	21544
2026-01-15 00:06:22.85	208.94	17.57	-50.6	-66.0	3.8	1.49e+00	0	43	104	0	72	21564
2026-01-15 00:06:23.56	208.92	17.48	-50.6	-66.0	3.8	1.49e+00	0	43	104	0	72	21521
2026-01-15 00:06:24.84	208.88	17.33	-50.6	-66.0	3.8	1.49e+00	0	44	104	0	72	21604
2026-01-15 00:06:25.55	208.86	17.25	-50.6	-66.0	3.8	1.49e+00	0	43	104	0	72	21542
2026-01-15 00:06:26.83	208.83	17.10	-50.6	-65.9	3.8	1.49e+00	0	43	104	0	72	21493
2026-01-15 00:06:27.54	208.81	17.02	-50.6	-66.0	3.8	1.49e+00	0	43	104	0	72	21565
2026-01-15 00:06:28.91	208.77	16.86	-50.6	-66.0	3.8	1.49e+00	0	43	104	0	72	21579
2026-01-15 00:06:29.62	208.76	16.78	-50.6	-66.0	3.8	1.49e+00	0	43	104	0	72	21549
2026-01-15 00:06:30.90	208.72	16.63	-50.6	-66.0	3.8	1.49e+00	0	44	104	0	72	21639
2026-01-15 00:06:31.61	208.70	16.55	-50.6	-66.0	3.8	1.49e+00	0	43	104	0	72	21572
2026-01-15 00:06:32.88	208.67	16.41	-50.6	-66.0	3.8	1.49e+00	0	44	104	0	72	21529
2026-01-15 00:06:33.59	208.65	16.33	-50.6	-65.9	3.8	1.49e+00	0	44	104	0	72	21502
2026-01-15 00:06:34.87	208.62	16.18	-50.6	-65.9	3.8	1.49e+00	0	43	104	0	72	21499
2026-01-15 00:06:35.59	208.60	16.10	-50.6	-66.0	3.8	1.49e+00	0	43	104	0	72	21563
2026-01-15 00:06:36.87	208.57	15.96	-50.6	-66.0	3.8	1.49e+00	0	43	104	0	72	21571
2026-01-15 00:06:37.58	208.56	15.88	-50.6	-66.0	3.8	1.49e+00	0	43	104	0	72	21557
2026-01-15 00:06:38.86	208.52	15.74	-50.6	-66.0	3.8	1.49e+00	0	44	104	0	72	21523
2026-01-15 00:06:39.57	208.51	15.66	-50.6	-66.0	3.8	1.49e+00	0	44	104	0	72	21566
2026-01-15 00:06:40.85	208.48	15.52	-50.6	-65.9	3.8	1.49e+00	0	44	104	0	72	21495
2026-01-15 00:06:41.56	208.46	15.45	-50.6	-66.0	3.8	1.49e+00	0	43	104	0	72	21519
2026-01-15 00:06:42.87	208.43	15.30	-50.6	-66.0	3.8	1.49e+00	0	43	104	0	72	21630
2026-01-15 00:06:43.58	208.41	15.23	-50.6	-66.0	3.8	1.49e+00	0	43	104	0	72	21642
2026-01-15 00:06:44.93	208.38	15.08	-50.6	-66.0	3.8	1.49e+00	0	43	104	0	72	21514
2026-01-15 00:06:45.64	208.37	15.01	-50.6	-66.0	3.8	1.49e+00	0	43	104	0	72	21569
2026-01-15 00:06:46.92	208.34	14.87	-50.6	-66.0	3.8	1.49e+00	0	43	104	0	72	21608
2026-01-15 00:06:47.63	208.32	14.79	-50.6	-66.0	3.8	1.49e+00	0	43	104	0	72	21601
2026-01-15 00:06:48.91	208.29	14.66	-50.6	-66.0	3.8	1.49e+00	0	44	104	0	72	21591
2026-01-15 00:06:49.62	208.28	14.59	-50.6	-66.0	3.8	1.49e+00	0	43	104	0	72	21572
2026-01-15 00:06:50.89	208.25	14.45	-50.6	-65.9	3.8	1.49e+00	0	43	104	0	72	21491
2026-01-15 00:06:51.60	208.23	14.38	-50.6	-66.0	3.8	1.49e+00	0	43	104	0	72	21565
2026-01-15 00:06:52.88	208.21	14.25	-50.6	-66.0	3.8	1.49e+00	0	44	104	0	72	21533
2026-01-15 00:06:53.61	208.19	14.17	-50.6	-65.9	3.8	1.49e+00	0	43	104	0	72	21471
2026-01-15 00:06:54.88	208.16	14.04	-50.6	-66.0	3.8	1.49e+00	0	43	104	0	72	21544
2026-01-15 00:06:55.59	208.15	13.97	-50.6	-66.0	3.8	1.49e+00	0	43	104	0	72	21558
2026-01-15 00:06:56.87	208.12	13.84	-50.6	-66.0	3.8	1.49e+00	0	43	104	0	72	21540
2026-01-15 00:06:57.59	208.11	13.76	-50.6	-66.0	3.8	1.49e+00	0	43	104	0	72	21633
2026-01-15 00:06:58.87	208.08	13.63	-50.6	-66.0	3.8	1.49e+00	0	43	104	0	72	21512
2026-01-15 00:06:59.61	208.06	13.56	-50.6	-66.0	3.8	1.49e+00	0	44	104	0	72	21548
2026-01-15 00:07:00.89	208.04	13.43	-50.6	-66.0	3.8	1.49e+00	0	43	104	0	72	21596
2026-01-15 00:07:01.61	208.02	13.36	-50.6	-66.0	3.8	1.49e+00	0	43	104	0	72	21598
2026-01-15 00:07:02.89	208.00	13.23	-50.6	-66.0	3.8	1.49e+00	0	43	104	0	72	21602
2026-01-15 00:07:03.61	207.98	13.16	-50.6	-66.0	3.8	1.49e+00	0	43	104	0	72	21529
2026-01-15 00:07:04.89	207.96	13.03	-50.6	-65.9	3.8	1.49e+00	0	43	104	0	72	21457
2026-01-15 00:07:05.62	207.94	12.96	-50.6	-66.0	3.8	1.49e+00	0	43	104	0	72	21574
2026-01-15 00:07:06.89	207.92	12.84	-50.6	-66.0	3.8	1.49e+00	0	43	104	0	72	21540
2026-01-15 00:07:07.61	207.91	12.77	-50.6	-66.0	3.8	1.49e+00	0	43	104	0	72	21578
2026-01-15 00:07:08.88	207.88	12.64	-50.6	-66.0	3.8	1.49e+00	0	43	104	0	72	21599
2026-01-15 00:07:09.59	207.87	12.58	-50.6	-66.0	3.8	1.49e+00	0	43	104	0	72	21587
2026-01-15 00:07:10.87	207.84	12.45	-50.6	-66.0	3.8	1.49e+00	0	43	104	0	72	21566
2026-01-15 00:07:11.58	207.83	12.38	-50.6	-66.0	3.8	1.49e+00	0	43	104	0	72	21561
2026-01-15 00:07:12.86	207.81	12.26	-50.6	-66.0	3.8	1.49e+00	0	43	104	0	72	21646
2026-01-15 00:07:13.57	207.79	12.19	-50.6	-66.0	3.8	1.49e+00	0	44	104	0	72	21621
2026-01-15 00:07:14.85	207.77	12.07	-50.6	-66.0	3.8	1.49e+00	0	43	104	0	72	21619
2026-01-15 00:07:15.56	207.76	12.01	-50.6	-66.0	3.8	1.49e+00	0	43	104	0	72	21525
2026-01-15 00:07:16.83	207.73	11.89	-50.6	-66.0	3.8	1.49e+00	0	43	104	0	72	21549
2026-01-15 00:07:17.54	207.72	11.82	-50.6	-66.0	3.8	1.49e+00	0	43	104	0	72	21652
2026-01-15 00:07:18.82	207.70	11.70	-50.6	-66.0	3.8	1.49e+00	0	44	104	0	72	21557
2026-01-15 00:07:19.55	207.69	11.63	-50.6	-66.0	3.8	1.49e+00	0	43	104	0	72	21524
2026-01-15 00:07:20.90	207.66	11.51	-50.6	-66.0	3.8	1.49e+00	0	43	104	0	72	21610
2026-01-15 00:07:21.61	207.65	11.44	-50.6	-66.0	3.8	1.49e+00	0	43	104	0	72	21595
2026-01-15 00:07:22.89	207.63	11.32	-50.6	-66.0	3.8	1.49e+00	0	43	104	0	72	21619
2026-01-15 00:07:23.62	207.61	11.26	-50.6	-66.0	3.8	1.49e+00	0	43	104	0	72	21590
2026-01-15 00:07:24.89	207.59	11.14	-50.6	-66.0	3.8	1.49e+00	0	43	104	0	72	21590
2026-01-15 00:07:25.60	207.58	11.08	-50.6	-66.0	3.8	1.49e+00	0	43	104	0	72	21591
2026-01-15 00:07:26.88	207.56	10.96	-50.6	-66.0	3.8	1.49e+00	0	43	104	0	72	21643
2026-01-15 00:07:27.61	207.55	10.89	-50.6	-66.0	3.8	1.49e+00	0	43	104	0	72	21556
2026-01-15 00:07:28.89	207.53	10.78	-50.6	-66.0	3.8	1.49e+00	0	43	104	0	72	21576
2026-01-15 00:07:29.61	207.51	10.71	-50.6	-66.0	3.8	1.49e+00	0	43	104	0	72	21584
2026-01-15 00:07:30.89	207.49	10.60	-50.6	-66.0	3.8	1.49e+00	0	43	104	0	72	21583
2026-01-15 00:07:31.61	207.48	10.54	-50.6	-66.0	3.8	1.49e+00	0	44	104	0	72	21608
2026-01-15 00:07:32.89	207.46	10.42	-50.6	-66.0	3.8	1.49e+00	0	43	104	0	72	21677
2026-01-15 00:07:33.60	207.45	10.36	-50.6	-65.9	3.8	1.49e+00	0	43	104	0	72	21487
2026-01-15 00:07:34.88	207.43	10.25	-50.6	-65.9	3.8	1.49e+00	0	44	104	0	72	21491
2026-01-15 00:07:35.60	207.42	10.18	-50.6	-66.0	3.8	1.49e+00	0	43	104	0	72	21537
2026-01-15 00:07:36.88	207.40	10.07	-50.6	-66.0	3.8	1.49e+00	0	43	104	0	72	21627
2026-01-15 00:07:37.60	207.39	10.01	-50.6	-66.0	3.8	1.49e+00	0	43	104	0	72	21589
2026-01-15 00:07:38.88	207.37	9.90	-50.6	-66.0	3.8	1.49e+00	0	43	104	0	72	21629
2026-01-15 00:07:39.59	207.36	9.84	-50.6	-66.0	3.8	1.49e+00	0	43	104	0	72	21583
2026-01-15 00:07:40.87	207.34	9.73	-50.6	-66.0	3.8	1.49e+00	0	43	104	0	72	21548
2026-01-15 00:07:41.58	207.33	9.66	-50.6	-66.0	3.8	1.49e+00	0	43	104	0	72	21629
2026-01-15 00:07:42.85	207.31	9.56	-50.6	-66.0	3.8	1.49e+00	0	43	104	0	72	21702
2026-01-15 00:07:43.56	207.30	9.50	-50.6	-66.0	3.8	1.49e+00	0	43	104	0	72	21673
2026-01-15 00:07:44.84	207.28	9.39	-50.6	-66.0	3.8	1.49e+00	0	43	104	0	72	21583
2026-01-15 00:07:45.55	207.27	9.33	-50.6	-66.0	3.8	1.49e+00	0	43	104	0	72	21576
2026-01-15 00:07:46.83	207.25	9.22	-50.6	-66.0	3.8	1.49e+00	0	43	104	0	72	21590
2026-01-15 00:07:47.55	207.24	9.16	-50.6	-66.0	3.8	1.49e+00	0	43	104	0	72	21624
2026-01-15 00:07:48.83	207.22	9.05	-50.6	-66.0	3.8	1.49e+00	0	43	104	0	72	21625
2026-01-15 00:07:49.54	207.21	8.99	-50.6	-66.0	3.8	1.49e+00	0	43	104	0	72	21545
2026-01-15 00:07:50.82	207.19	8.88	-50.6	-66.0	3.8	1.49e+00	0	43	104	0	72	21663
2026-01-15 00:07:51.53	207.18	8.82	-50.6	-66.0	3.8	1.49e+00	0	43	104	0	72	21627
2026-01-15 00:07:52.80	207.16	8.72	-50.6	-65.9	3.8	1.49e+00	0	44	104	0	72	21501
2026-01-15 00:07:53.51	207.15	8.66	-50.6	-66.0	3.8	1.49e+00	0	43	104	0	72	21574
2026-01-15 00:07:54.79	207.14	8.56	-50.6	-66.0	3.8	1.49e+00	0	43	104	0	72	21634
2026-01-15 00:07:55.50	207.13	8.50	-50.6	-66.0	3.8	1.49e+00	0	43	104	0	72	21580
2026-01-15 00:07:56.89	207.11	8.38	-50.6	-66.0	3.8	1.49e+00	0	43	104	0	72	21719
2026-01-15 00:07:57.60	207.10	8.33	-50.6	-66.0	3.8	1.49e+00	0	44	104	0	72	21571
2026-01-15 00:07:58.88	207.08	8.22	-50.6	-66.0	3.8	1.49e+00	0	43	104	0	72	21684
2026-01-15 00:07:59.60	207.07	8.16	-50.6	-66.0	3.8	1.49e+00	0	43	104	0	72	21649
2026-01-15 00:08:00.88	207.05	8.06	-50.6	-66.0	3.8	1.49e+00	0	43	104	0	72	21682
2026-01-15 00:08:01.59	207.04	8.00	-50.6	-66.0	3.8	1.49e+00	0	43	104	0	72	21678
2026-01-15 00:08:02.87	207.03	7.90	-50.6	-66.0	3.8	1.49e+00	0	43	104	0	72	21642
2026-01-15 00:08:03.58	207.02	7.84	-50.6	-66.0	3.8	1.49e+00	0	43	104	0	72	21662
2026-01-15 00:08:04.85	207.00	7.74	-50.6	-66.0	3.8	1.49e+00	0	43	104	0	72	21701
2026-01-15 00:08:05.58	206.99	7.68	-50.6	-66.0	3.8	1.49e+00	0	43	104	0	72	21656
2026-01-15 00:08:06.86	206.98	7.58	-50.6	-66.0	3.8	1.49e+00	0	43	104	0	72	21717
2026-01-15 00:08:07.57	206.97	7.53	-50.6	-66.0	3.8	1.49e+00	0	43	104	0	72	21647
2026-01-15 00:08:08.85	206.95	7.43	-50.6	-66.0	3.8	1.49e+00	0	43	104	0	72	21543
