passes_logs/2026/01/14/T1/T1__20260114_114740_NOAA_20_JPSS-1_rec.log

#Pass ID: 20260114_114740_NOAA 20 (JPSS-1)
#Satellite: NOAA 20 (JPSS-1)
#Configuration: NOAA 20
#almurnet v.1.7.20251203
#Start time: 2026-01-14 11:47:39

#Version: 2.0.20230620
#Station: T1
#Location: 37.570604 lon 55.790049 lat
#TLE: 1 43013U 17073A   26013.21545503  .00000073  00000+0  55630-4 0  9998
#TLE: 2 43013  98.7633 314.1737 0001580  41.9966 318.1331 14.19535680422486

#Time	Az	El	Level	Level2	SNR	BER	BlckErr	Temp	State	Recorded	gain1	gain2
2026-01-14 11:47:39.98	223.02	4.98	-51.9	-67.3	3.8	1.49e+00	0	40	0	0	75	21032
2026-01-14 11:47:40.97	223.13	5.03	-51.8	-67.2	3.8	1.49e+00	0	40	104	0	75	20876
2026-01-14 11:47:41.96	223.23	5.08	-51.8	-67.2	3.8	1.49e+00	0	40	104	0	75	20908
2026-01-14 11:47:42.96	223.33	5.14	-51.8	-67.2	3.8	1.49e+00	0	40	104	0	75	20953
2026-01-14 11:47:43.95	223.44	5.19	-51.9	-67.2	3.8	1.49e+00	0	40	104	0	75	20958
2026-01-14 11:47:44.94	223.54	5.24	-51.8	-67.2	3.8	1.49e+00	0	40	104	0	75	20976
2026-01-14 11:47:45.94	223.64	5.29	-51.7	-67.2	3.8	1.49e+00	0	40	104	0	75	20890
2026-01-14 11:47:46.93	223.75	5.35	-51.9	-67.2	3.8	1.49e+00	0	40	104	0	75	20986
2026-01-14 11:47:47.92	223.85	5.40	-51.8	-67.2	3.8	1.49e+00	0	40	104	0	75	20807
2026-01-14 11:47:48.91	223.96	5.45	-51.7	-67.2	3.8	1.49e+00	0	40	104	0	75	20995
2026-01-14 11:47:49.91	224.06	5.50	-51.8	-67.2	3.8	1.49e+00	0	40	104	0	75	20955
2026-01-14 11:47:50.90	224.17	5.56	-51.9	-67.2	3.8	1.49e+00	0	40	104	0	75	21006
2026-01-14 11:47:51.90	224.28	5.61	-51.7	-67.2	3.8	1.49e+00	0	40	104	0	75	20872
2026-01-14 11:47:52.89	224.38	5.66	-51.8	-67.2	3.8	1.49e+00	0	40	104	0	75	20885
2026-01-14 11:47:53.88	224.49	5.72	-51.8	-67.2	3.8	1.49e+00	0	40	104	0	75	20805
2026-01-14 11:47:54.88	224.60	5.77	-51.8	-67.2	3.8	1.49e+00	0	40	104	0	75	20968
2026-01-14 11:47:55.87	224.71	5.82	-51.8	-67.2	3.8	1.49e+00	0	41	104	0	75	20806
2026-01-14 11:47:56.87	224.82	5.87	-51.8	-67.1	3.8	1.49e+00	0	41	104	0	75	20728
2026-01-14 11:47:57.86	224.92	5.93	-51.8	-67.1	3.8	1.49e+00	0	40	104	0	75	20688
2026-01-14 11:47:58.85	225.03	5.98	-51.8	-67.2	3.8	1.49e+00	0	41	104	0	75	20797
2026-01-14 11:47:59.85	225.14	6.03	-51.8	-67.1	3.8	1.49e+00	0	41	104	0	75	20692
2026-01-14 11:48:00.84	225.25	6.09	-51.8	-67.2	3.8	1.49e+00	0	41	104	0	75	20796
2026-01-14 11:48:01.83	225.36	6.14	-51.8	-67.2	3.8	1.49e+00	0	41	104	0	75	20847
2026-01-14 11:48:02.83	225.47	6.19	-51.8	-67.2	3.8	1.49e+00	0	41	104	0	75	20848
2026-01-14 11:48:03.82	225.59	6.24	-51.8	-67.2	3.8	1.49e+00	0	41	104	0	75	20988
2026-01-14 11:48:04.81	225.70	6.30	-51.8	-67.2	3.8	1.49e+00	0	41	104	0	75	20878
2026-01-14 11:48:05.81	225.81	6.35	-51.8	-67.2	3.8	1.49e+00	0	41	104	0	75	20930
2026-01-14 11:48:06.80	225.92	6.40	-51.8	-67.2	3.8	1.49e+00	0	41	104	0	75	20874
2026-01-14 11:48:07.79	226.03	6.46	-51.8	-67.2	3.8	1.49e+00	0	41	104	0	75	20809
2026-01-14 11:48:08.79	226.15	6.51	-51.8	-67.1	3.8	1.49e+00	0	41	104	0	75	20771
2026-01-14 11:48:09.78	226.26	6.56	-51.8	-67.2	3.8	1.49e+00	0	41	104	0	75	20787
2026-01-14 11:48:10.77	226.37	6.62	-51.8	-67.1	3.8	1.49e+00	0	41	104	0	75	20680
2026-01-14 11:48:11.77	226.49	6.67	-51.8	-67.1	3.8	1.49e+00	0	41	104	0	75	20735
2026-01-14 11:48:12.76	226.60	6.72	-51.8	-67.1	3.8	1.49e+00	0	41	104	0	75	20695
2026-01-14 11:48:13.76	226.72	6.78	-51.8	-67.1	3.8	1.49e+00	0	41	104	0	75	20621
2026-01-14 11:48:14.75	226.83	6.83	-51.7	-67.1	3.8	1.49e+00	0	41	104	0	75	20593
2026-01-14 11:48:15.74	226.95	6.88	-51.8	-67.0	3.8	1.49e+00	0	41	104	0	75	20429
2026-01-14 11:48:16.74	227.07	6.94	-51.8	-66.9	3.8	1.49e+00	0	41	104	0	75	20267
2026-01-14 11:48:17.73	227.18	6.99	-51.7	-67.0	3.8	1.49e+00	0	41	104	0	75	20360
2026-01-14 11:48:18.73	227.30	7.04	-51.7	-67.0	3.8	1.49e+00	0	41	104	0	75	20364
2026-01-14 11:48:19.72	227.42	7.10	-51.8	-67.1	3.8	1.49e+00	0	41	104	0	75	20581
2026-01-14 11:48:20.71	227.53	7.15	-51.7	-67.1	3.8	1.49e+00	0	41	104	0	75	20680
2026-01-14 11:48:21.71	227.65	7.20	-51.8	-67.1	3.8	1.49e+00	0	41	104	0	75	20644
2026-01-14 11:48:22.70	227.77	7.26	-51.8	-67.0	3.8	1.49e+00	0	41	104	0	75	20355
2026-01-14 11:48:23.70	227.89	7.31	-51.7	-66.8	3.8	1.49e+00	0	41	104	0	75	20062
2026-01-14 11:48:24.69	228.01	7.36	-51.6	-66.7	3.8	1.49e+00	0	41	104	0	75	19791
2026-01-14 11:48:25.68	228.13	7.42	-51.7	-66.7	3.8	1.49e+00	0	41	104	0	75	19765
2026-01-14 11:48:26.68	228.25	7.47	-51.7	-66.8	3.8	1.49e+00	0	41	104	0	75	20007
2026-01-14 11:48:27.67	228.37	7.52	-51.8	-66.9	3.8	1.49e+00	0	41	104	0	75	20174
2026-01-14 11:48:28.66	228.49	7.58	-51.7	-67.0	3.8	1.49e+00	0	41	104	0	75	20441
2026-01-14 11:48:29.66	228.62	7.63	-51.8	-67.0	3.8	1.49e+00	0	42	104	0	75	20352
2026-01-14 11:48:30.65	228.74	7.68	-51.8	-66.9	3.8	1.49e+00	0	41	104	0	75	20144
2026-01-14 11:48:31.65	228.86	7.74	-51.8	-66.7	3.8	1.49e+00	0	41	104	0	75	19683
2026-01-14 11:48:32.64	228.98	7.79	-51.8	-66.4	3.8	1.49e+00	0	41	104	0	75	18979
2026-01-14 11:48:33.64	229.11	7.84	-51.8	-66.3	3.8	1.49e+00	0	42	104	0	75	18753
2026-01-14 11:48:34.63	229.23	7.90	-51.7	-66.3	3.8	1.49e+00	0	42	104	0	75	18786
2026-01-14 11:48:35.63	229.36	7.95	-51.8	-66.4	3.8	1.49e+00	0	41	104	0	75	18978
2026-01-14 11:48:36.62	229.48	8.00	-51.7	-66.4	3.8	1.49e+00	0	42	104	0	75	19101
2026-01-14 11:48:37.61	229.61	8.06	-51.6	-66.4	3.8	1.49e+00	0	42	104	0	75	18990
2026-01-14 11:48:38.61	229.73	8.11	-51.7	-66.1	3.8	1.49e+00	0	42	104	0	75	18362
2026-01-14 11:48:39.60	229.86	8.16	-51.8	-66.0	3.8	1.49e+00	0	42	104	0	75	18138
2026-01-14 11:48:40.59	229.98	8.22	-51.7	-66.2	3.8	1.49e+00	0	42	104	0	75	18670
2026-01-14 11:48:41.64	230.12	8.27	-51.8	-66.9	3.8	1.49e+00	0	41	104	0	75	20244
2026-01-14 11:48:42.58	230.24	8.32	-51.7	-67.0	3.8	1.49e+00	0	42	104	0	75	20385
2026-01-14 11:48:43.58	230.37	8.38	-51.6	-64.8	3.8	1.49e+00	0	42	104	0	75	15931
2026-01-14 11:48:44.57	230.50	8.43	-51.3	-61.2	5.2	1.24e+00	0	42	0	0	74	11102
2026-01-14 11:48:45.57	230.63	8.48	-50.7	-58.2	7.6	1.47e-01	0	42	0	2097152	73	8289
2026-01-14 11:48:46.56	230.76	8.54	-50.0	-56.0	9.8	2.18e-02	0	42	0	4194304	72	6875
2026-01-14 11:48:47.55	230.88	8.59	-49.4	-54.3	11.6	2.43e-03	0	42	0	6291456	70	6327
2026-01-14 11:48:48.55	231.02	8.64	-48.9	-53.3	12.7	2.49e-04	0	42	0	7340032	69	5938
2026-01-14 11:48:49.54	231.15	8.70	-48.5	-52.7	13.3	2.51e-05	0	42	0	9437184	69	5567
2026-01-14 11:48:50.54	231.28	8.75	-48.5	-52.6	13.4	1.22e-05	0	42	0	11534336	68	5819
2026-01-14 11:48:51.53	231.41	8.80	-48.6	-52.7	13.3	1.44e-05	0	42	0	13631488	68	5885
2026-01-14 11:48:52.52	231.54	8.85	-48.9	-53.3	12.7	2.59e-05	0	42	0	14680064	68	6292
2026-01-14 11:48:53.52	231.67	8.91	-49.3	-54.1	11.8	2.67e-04	0	42	0	16777216	69	6551
2026-01-14 11:48:54.51	231.81	8.96	-49.8	-55.2	10.7	1.24e-03	0	42	0	18874368	70	7014
2026-01-14 11:48:55.51	231.94	9.01	-50.3	-56.4	9.5	6.25e-03	0	42	0	20971520	71	7563
2026-01-14 11:48:56.50	232.07	9.07	-50.4	-56.5	9.4	2.52e-02	0	42	0	23068672	71	7678
2026-01-14 11:48:57.49	232.21	9.12	-49.8	-55.0	10.8	8.90e-02	0	42	0	24117248	71	6446
2026-01-14 11:48:58.49	232.34	9.17	-50.4	-56.8	9.3	5.48e-04	0	42	0	26214400	71	7932
2026-01-14 11:48:59.48	232.48	9.23	-50.8	-58.1	7.7	2.02e-01	0	42	0	28311552	72	8671
2026-01-14 11:49:00.48	232.62	9.28	-49.7	-54.9	10.9	2.34e-02	0	42	0	30408704	71	6350
2026-01-14 11:49:01.48	232.75	9.33	-49.7	-54.8	11.2	2.43e-03	0	42	0	32505856	70	6675
2026-01-14 11:49:02.47	232.89	9.39	-49.6	-54.4	11.6	5.82e-04	0	42	0	33554432	70	6378
2026-01-14 11:49:03.46	233.03	9.44	-49.4	-54.1	11.9	5.32e-04	0	42	0	35651584	70	6185
2026-01-14 11:49:04.46	233.16	9.49	-49.0	-53.3	12.7	1.24e-04	0	42	0	37748736	69	5943
2026-01-14 11:49:05.45	233.30	9.54	-48.6	-52.7	13.3	3.12e-05	0	42	0	39845888	69	5563
2026-01-14 11:49:06.45	233.44	9.60	-48.5	-52.4	13.7	1.14e-05	0	42	0	40894464	68	5695
2026-01-14 11:49:07.44	233.58	9.65	-48.5	-52.5	13.6	5.30e-06	0	42	0	42991616	68	5732
2026-01-14 11:49:08.43	233.72	9.70	-48.6	-52.6	13.5	8.30e-06	0	42	0	45088768	68	5816
2026-01-14 11:49:09.46	233.87	9.76	-48.5	-52.4	13.7	1.29e-05	0	42	0	47185920	68	5671
2026-01-14 11:49:10.46	234.01	9.81	-48.2	-52.0	14.1	8.30e-06	0	42	0	49283072	68	5415
2026-01-14 11:49:11.45	234.15	9.86	-48.1	-51.7	14.3	1.50e-06	0	42	0	50331648	68	5277
2026-01-14 11:49:12.52	234.30	9.92	-48.1	-51.7	14.4	0.00e+00	0	42	0	52428800	68	5223
2026-01-14 11:49:13.39	234.43	9.97	-48.0	-51.6	14.4	0.00e+00	0	42	0	54525952	68	5193
2026-01-14 11:49:14.53	234.59	10.03	-48.0	-51.6	14.5	0.00e+00	0	42	0	56623104	68	5202
2026-01-14 11:49:15.38	234.71	10.07	-48.1	-51.7	14.4	1.50e-06	0	42	0	57671680	68	5255
2026-01-14 11:49:16.52	234.88	10.13	-48.1	-51.7	14.4	7.00e-07	0	42	0	59768832	68	5256
2026-01-14 11:49:17.47	235.01	10.18	-48.0	-51.6	14.4	0.00e+00	0	42	0	61865984	68	5218
2026-01-14 11:49:18.47	235.16	10.23	-48.0	-51.6	14.5	0.00e+00	0	42	0	63963136	68	5201
2026-01-14 11:49:19.46	235.30	10.29	-47.8	-51.3	14.6	0.00e+00	0	42	0	66060288	67	5334
2026-01-14 11:49:20.45	235.45	10.34	-47.8	-51.3	14.6	0.00e+00	0	42	0	67108864	67	5332
2026-01-14 11:49:21.45	235.60	10.39	-47.8	-51.3	14.7	0.00e+00	0	42	0	69206016	67	5330
2026-01-14 11:49:22.44	235.74	10.44	-47.8	-51.3	14.7	7.00e-07	0	42	0	71303168	67	5315
2026-01-14 11:49:23.44	235.89	10.49	-47.8	-51.3	14.6	7.00e-07	0	42	0	73400320	67	5300
2026-01-14 11:49:24.43	236.04	10.55	-47.8	-51.2	14.8	0.00e+00	0	42	0	75497472	67	5239
2026-01-14 11:49:25.43	236.19	10.60	-47.8	-51.2	14.8	0.00e+00	0	42	0	76546048	67	5246
2026-01-14 11:49:26.42	236.34	10.65	-47.8	-51.2	14.8	0.00e+00	0	42	0	78643200	67	5272
2026-01-14 11:49:27.42	236.49	10.70	-47.8	-51.2	14.8	0.00e+00	0	42	0	80740352	67	5230
2026-01-14 11:49:28.42	236.64	10.75	-47.7	-51.1	14.9	0.00e+00	0	42	0	82837504	67	5175
2026-01-14 11:49:29.41	236.79	10.81	-47.6	-51.0	14.9	7.00e-07	0	42	0	83886080	67	5139
2026-01-14 11:49:30.41	236.94	10.86	-47.6	-50.9	15.1	7.00e-07	0	42	0	85983232	67	5082
2026-01-14 11:49:31.45	237.10	10.91	-47.6	-50.9	15.0	0.00e+00	0	42	0	88080384	67	5096
2026-01-14 11:49:32.47	237.25	10.96	-47.6	-50.8	15.1	0.00e+00	0	42	0	90177536	67	5029
2026-01-14 11:49:33.55	237.42	11.02	-47.5	-50.8	15.2	0.00e+00	0	42	0	92274688	67	4998
2026-01-14 11:49:34.41	237.55	11.06	-47.6	-50.8	15.1	0.00e+00	0	42	0	93323264	67	5036
2026-01-14 11:49:35.54	237.73	11.12	-47.4	-50.6	15.4	0.00e+00	0	42	0	95420416	66	5215
2026-01-14 11:49:36.39	237.86	11.17	-47.4	-50.6	15.4	0.00e+00	0	42	0	97517568	66	5184
2026-01-14 11:49:37.53	238.03	11.22	-47.5	-50.7	15.3	0.00e+00	0	42	0	99614720	66	5256
2026-01-14 11:49:38.38	238.17	11.27	-47.3	-50.4	15.6	0.00e+00	0	42	0	100663296	66	5072
2026-01-14 11:49:39.52	238.35	11.33	-47.2	-50.3	15.7	0.00e+00	0	42	0	103809024	66	4995
2026-01-14 11:49:40.37	238.48	11.37	-47.2	-50.3	15.7	0.00e+00	0	42	0	104857600	66	5041
2026-01-14 11:49:41.50	238.66	11.43	-47.1	-50.2	15.8	0.00e+00	0	42	0	106954752	66	4959
2026-01-14 11:49:42.36	238.79	11.47	-47.1	-50.2	15.8	0.00e+00	0	42	0	109051904	66	4952
2026-01-14 11:49:43.49	238.97	11.53	-47.2	-50.3	15.7	0.00e+00	0	42	0	111149056	66	4998
2026-01-14 11:49:44.34	239.11	11.57	-47.2	-50.3	15.7	0.00e+00	0	42	0	112197632	66	5006
2026-01-14 11:49:45.56	239.30	11.63	-47.2	-50.3	15.8	0.00e+00	0	42	0	114294784	66	4988
2026-01-14 11:49:46.41	239.44	11.68	-47.2	-50.2	15.8	0.00e+00	0	42	0	116391936	66	4953
2026-01-14 11:49:47.55	239.62	11.74	-47.1	-50.1	15.9	0.00e+00	0	42	0	118489088	66	4905
2026-01-14 11:49:48.40	239.76	11.78	-47.1	-50.1	15.9	0.00e+00	0	42	0	119537664	66	4891
2026-01-14 11:49:49.53	239.94	11.83	-47.0	-49.9	16.0	0.00e+00	0	42	0	122683392	66	4803
2026-01-14 11:49:50.39	240.08	11.88	-47.0	-50.0	16.0	0.00e+00	0	42	0	123731968	65	5124
2026-01-14 11:49:51.53	240.27	11.93	-47.0	-50.0	16.0	0.00e+00	0	42	0	125829120	65	5118
2026-01-14 11:49:52.38	240.41	11.98	-47.1	-50.1	16.0	0.00e+00	0	42	0	127926272	65	5163
2026-01-14 11:49:53.52	240.59	12.03	-47.2	-50.3	15.7	0.00e+00	0	42	0	130023424	65	5293
2026-01-14 11:49:54.37	240.73	12.08	-47.2	-50.2	15.8	0.00e+00	0	42	0	131072000	65	5269
2026-01-14 11:49:55.51	240.92	12.13	-47.2	-50.2	15.8	0.00e+00	0	42	0	133169152	65	5262
2026-01-14 11:49:56.36	241.06	12.18	-47.1	-50.1	15.9	0.00e+00	0	42	0	135266304	65	5212
2026-01-14 11:49:57.50	241.25	12.23	-46.9	-50.0	16.0	0.00e+00	0	42	0	137363456	65	5120
2026-01-14 11:49:58.35	241.39	12.27	-47.0	-50.1	16.0	0.00e+00	0	42	0	138412032	65	5160
2026-01-14 11:49:59.49	241.58	12.33	-46.9	-50.0	16.0	0.00e+00	0	42	0	140509184	65	5125
2026-01-14 11:50:00.34	241.73	12.37	-46.9	-49.9	16.1	0.00e+00	0	42	0	142606336	65	5060
2026-01-14 11:50:01.48	241.92	12.43	-47.0	-49.9	16.1	0.00e+00	0	42	0	144703488	65	5094
2026-01-14 11:50:02.33	242.06	12.47	-47.0	-50.0	16.0	0.00e+00	0	42	0	145752064	65	5111
2026-01-14 11:50:03.47	242.26	12.52	-46.9	-49.9	16.1	0.00e+00	0	42	0	147849216	65	5059
2026-01-14 11:50:04.40	242.41	12.57	-47.1	-50.1	15.9	0.00e+00	0	42	0	149946368	65	5164
2026-01-14 11:50:05.40	242.58	12.62	-47.0	-50.0	16.0	0.00e+00	0	42	0	152043520	65	5142
2026-01-14 11:50:06.39	242.75	12.67	-47.0	-50.0	16.0	0.00e+00	0	42	0	154140672	65	5136
2026-01-14 11:50:07.38	242.92	12.71	-47.0	-50.0	16.0	0.00e+00	0	42	0	155189248	65	5137
2026-01-14 11:50:08.38	243.10	12.76	-46.9	-50.0	16.0	0.00e+00	0	42	0	157286400	65	5111
2026-01-14 11:50:09.37	243.27	12.81	-46.9	-49.9	16.1	0.00e+00	0	42	0	159383552	65	5090
2026-01-14 11:50:10.37	243.44	12.86	-46.9	-49.8	16.2	0.00e+00	0	42	0	161480704	65	5000
2026-01-14 11:50:11.36	243.61	12.90	-46.9	-49.8	16.2	0.00e+00	0	42	0	162529280	65	5026
2026-01-14 11:50:12.36	243.79	12.95	-46.8	-49.7	16.3	0.00e+00	0	42	0	164626432	65	4962
2026-01-14 11:50:13.35	243.96	13.00	-46.8	-49.7	16.3	0.00e+00	0	42	0	166723584	65	4973
2026-01-14 11:50:14.35	244.13	13.05	-46.8	-49.7	16.3	0.00e+00	0	42	0	168820736	65	4960
2026-01-14 11:50:15.34	244.31	13.09	-46.9	-49.8	16.2	0.00e+00	0	43	0	170917888	65	5010
2026-01-14 11:50:16.41	244.50	13.14	-47.0	-49.9	16.1	0.00e+00	0	42	0	173015040	65	5092
2026-01-14 11:50:17.31	244.66	13.18	-47.1	-50.1	15.9	0.00e+00	0	42	0	174063616	65	5168
2026-01-14 11:50:18.42	244.85	13.24	-47.1	-50.1	16.0	0.00e+00	0	42	0	176160768	65	5160
2026-01-14 11:50:19.27	245.01	13.27	-47.1	-50.1	15.9	0.00e+00	0	42	0	178257920	65	5216
2026-01-14 11:50:20.67	245.26	13.34	-47.1	-50.2	15.9	0.00e+00	0	42	0	180355072	65	5236
2026-01-14 11:50:21.38	245.38	13.37	-47.1	-50.2	15.8	0.00e+00	0	43	0	181403648	65	5266
2026-01-14 11:50:22.92	245.66	13.44	-47.1	-50.1	15.9	0.00e+00	0	42	0	184549376	65	5214
2026-01-14 11:50:23.63	245.79	13.48	-47.1	-50.2	15.9	0.00e+00	0	43	0	185597952	65	5230
2026-01-14 11:50:24.91	246.02	13.53	-47.1	-50.2	15.8	0.00e+00	0	42	0	188743680	65	5232
2026-01-14 11:50:25.62	246.15	13.57	-47.2	-50.3	15.8	0.00e+00	0	42	0	189792256	65	5304
2026-01-14 11:50:26.90	246.38	13.62	-47.2	-50.3	15.7	0.00e+00	0	42	0	191889408	65	5331
2026-01-14 11:50:27.61	246.51	13.66	-47.3	-50.5	15.6	0.00e+00	0	42	0	193986560	65	5436
2026-01-14 11:50:28.90	246.75	13.71	-47.5	-50.7	15.3	0.00e+00	0	42	0	196083712	65	5591
2026-01-14 11:50:29.61	246.88	13.74	-47.5	-50.8	15.3	0.00e+00	0	42	0	197132288	65	5610
2026-01-14 11:50:30.89	247.11	13.80	-47.6	-50.9	15.1	7.00e-07	0	43	0	199229440	65	5709
2026-01-14 11:50:31.60	247.24	13.83	-47.7	-51.0	15.1	0.00e+00	0	42	0	201326592	66	5434
2026-01-14 11:50:32.88	247.48	13.89	-47.7	-50.9	15.2	0.00e+00	0	43	0	203423744	66	5387
2026-01-14 11:50:33.61	247.62	13.92	-47.7	-50.9	15.1	0.00e+00	0	43	0	204472320	66	5396
2026-01-14 11:50:34.89	247.86	13.98	-47.7	-51.0	15.1	0.00e+00	0	43	0	207618048	66	5443
2026-01-14 11:50:35.61	247.99	14.01	-47.8	-51.1	15.0	0.00e+00	0	42	0	208666624	66	5475
2026-01-14 11:50:36.89	248.23	14.06	-47.8	-51.2	14.9	0.00e+00	0	42	0	210763776	66	5532
2026-01-14 11:50:37.87	248.41	14.10	-47.9	-51.3	14.8	7.00e-07	0	43	0	212860928	66	5620
2026-01-14 11:50:38.87	248.60	14.15	-48.0	-51.4	14.7	0.00e+00	0	43	0	214958080	66	5674
2026-01-14 11:50:39.86	248.79	14.19	-48.0	-51.5	14.6	0.00e+00	0	42	0	216006656	66	5756
2026-01-14 11:50:40.85	248.98	14.23	-48.1	-51.6	14.5	0.00e+00	0	43	0	218103808	66	5818
2026-01-14 11:50:41.85	249.17	14.27	-48.1	-51.7	14.4	0.00e+00	0	43	0	220200960	66	5868
2026-01-14 11:50:42.85	249.36	14.32	-48.1	-51.7	14.4	0.00e+00	0	42	0	222298112	67	5562
2026-01-14 11:50:43.84	249.55	14.36	-48.2	-51.8	14.4	1.50e-06	0	42	0	224395264	67	5602
2026-01-14 11:50:44.84	249.74	14.40	-48.2	-51.8	14.3	2.20e-06	0	43	0	225443840	67	5640
2026-01-14 11:50:45.91	249.94	14.44	-48.2	-51.7	14.3	1.50e-06	0	42	0	227540992	67	5585
2026-01-14 11:50:46.79	250.11	14.48	-48.2	-51.9	14.2	1.50e-06	0	42	0	229638144	67	5665
2026-01-14 11:50:47.93	250.33	14.52	-48.2	-51.8	14.2	0.00e+00	0	42	0	231735296	67	5638
2026-01-14 11:50:48.78	250.50	14.56	-48.3	-51.9	14.1	7.00e-07	0	42	0	232783872	67	5712
2026-01-14 11:50:49.91	250.72	14.60	-48.3	-52.0	14.1	7.00e-07	0	42	0	234881024	67	5723
2026-01-14 11:50:50.77	250.89	14.64	-48.3	-51.9	14.2	7.00e-07	0	43	0	236978176	67	5698
2026-01-14 11:50:51.90	251.11	14.68	-48.4	-52.0	14.1	3.00e-06	0	43	0	239075328	67	5765
2026-01-14 11:50:52.76	251.28	14.72	-48.4	-52.1	14.0	1.50e-06	0	42	0	241172480	67	5839
2026-01-14 11:50:53.90	251.50	14.76	-48.5	-52.3	13.8	3.00e-06	0	43	0	243269632	67	5955
2026-01-14 11:50:54.75	251.67	14.80	-48.6	-52.4	13.7	5.30e-06	0	42	0	244318208	67	6004
2026-01-14 11:50:55.89	251.89	14.84	-48.6	-52.5	13.6	6.80e-06	0	42	0	246415360	67	6072
2026-01-14 11:50:56.74	252.06	14.87	-48.6	-52.5	13.6	7.60e-06	0	42	0	248512512	67	6065
2026-01-14 11:50:57.88	252.28	14.92	-48.7	-52.6	13.5	8.30e-06	0	42	0	250609664	67	6184
2026-01-14 11:50:58.73	252.45	14.95	-48.6	-52.5	13.6	7.60e-06	0	42	0	251658240	67	6090
2026-01-14 11:50:59.87	252.68	14.99	-48.5	-52.4	13.7	6.10e-06	0	42	0	253755392	67	6006
2026-01-14 11:51:00.72	252.85	15.02	-48.6	-52.4	13.6	9.10e-06	0	43	0	255852544	67	6043
2026-01-14 11:51:01.97	253.10	15.07	-48.8	-52.7	13.5	9.10e-06	0	42	0	257949696	68	5921
2026-01-14 11:51:02.82	253.27	15.10	-48.9	-52.9	13.4	1.22e-05	0	42	0	258998272	68	6011
2026-01-14 11:51:04.02	253.51	15.14	-48.9	-52.8	13.4	8.30e-06	0	42	0	262144000	68	5973
2026-01-14 11:51:04.87	253.68	15.18	-49.0	-53.0	13.3	9.90e-06	0	42	0	263192576	68	6108
2026-01-14 11:51:06.07	253.93	15.22	-48.9	-52.9	13.4	1.14e-05	0	42	0	265289728	68	5995
2026-01-14 11:51:06.93	254.10	15.25	-48.8	-52.7	13.5	6.80e-06	0	42	0	267386880	68	5908
2026-01-14 11:51:08.06	254.33	15.29	-48.8	-52.8	13.4	9.10e-06	0	43	0	269484032	68	5980
2026-01-14 11:51:08.92	254.51	15.32	-48.7	-52.7	13.6	1.44e-05	0	42	0	270532608	68	5892
2026-01-14 11:51:10.21	254.77	15.37	-48.7	-52.6	13.6	8.30e-06	0	42	0	273678336	68	5809
2026-01-14 11:51:10.92	254.91	15.39	-48.7	-52.6	13.7	6.80e-06	0	43	0	274726912	68	5808
2026-01-14 11:51:12.21	255.18	15.43	-48.5	-52.3	13.9	5.30e-06	0	43	0	276824064	68	5651
2026-01-14 11:51:12.93	255.33	15.46	-48.5	-52.3	14.0	1.50e-06	0	42	0	278921216	68	5595
2026-01-14 11:51:14.21	255.59	15.50	-48.3	-51.9	14.4	1.50e-06	0	42	0	281018368	68	5369
2026-01-14 11:51:14.94	255.74	15.53	-48.2	-51.7	14.6	7.00e-07	0	42	0	282066944	68	5234
2026-01-14 11:51:16.21	256.00	15.57	-48.1	-51.6	14.7	0.00e+00	0	42	0	284164096	68	5171
2026-01-14 11:51:16.94	256.15	15.59	-48.0	-51.4	14.8	0.00e+00	0	42	0	286261248	68	5088
2026-01-14 11:51:18.22	256.42	15.63	-48.0	-51.4	14.9	7.00e-07	0	42	0	288358400	68	5066
2026-01-14 11:51:18.96	256.57	15.66	-47.8	-51.2	14.9	0.00e+00	0	42	0	289406976	67	5237
2026-01-14 11:51:20.23	256.84	15.70	-47.8	-51.2	15.0	0.00e+00	0	42	0	292552704	67	5228
2026-01-14 11:51:21.20	257.04	15.73	-47.8	-51.2	14.9	1.50e-06	0	42	0	293601280	67	5248
2026-01-14 11:51:22.19	257.25	15.76	-47.6	-51.0	15.1	0.00e+00	0	42	0	295698432	67	5142
2026-01-14 11:51:23.19	257.46	15.79	-47.6	-51.0	15.1	0.00e+00	0	42	0	297795584	67	5135
2026-01-14 11:51:24.18	257.67	15.82	-47.6	-50.8	15.2	0.00e+00	0	43	0	299892736	67	5040
2026-01-14 11:51:25.18	257.88	15.85	-47.5	-50.7	15.4	0.00e+00	0	43	0	300941312	67	4967
2026-01-14 11:51:26.17	258.09	15.88	-47.5	-50.7	15.4	0.00e+00	0	42	0	303038464	67	4935
2026-01-14 11:51:27.17	258.30	15.91	-47.3	-50.5	15.6	0.00e+00	0	43	0	305135616	66	5107
2026-01-14 11:51:28.16	258.51	15.94	-47.0	-50.0	16.0	0.00e+00	0	43	0	307232768	66	4859
2026-01-14 11:51:29.16	258.72	15.97	-46.9	-49.9	16.2	0.00e+00	0	42	0	309329920	65	5045
2026-01-14 11:51:30.15	258.93	16.00	-46.9	-49.8	16.2	0.00e+00	0	43	0	310378496	65	5035
2026-01-14 11:51:31.15	259.14	16.02	-46.9	-49.8	16.2	0.00e+00	0	42	0	312475648	65	5011
2026-01-14 11:51:32.14	259.35	16.05	-46.8	-49.8	16.3	0.00e+00	0	43	0	314572800	65	5012
2026-01-14 11:51:33.14	259.57	16.08	-46.9	-49.9	16.2	0.00e+00	0	43	0	316669952	65	5042
2026-01-14 11:51:34.13	259.78	16.11	-47.0	-50.0	16.1	0.00e+00	0	42	0	318767104	65	5134
2026-01-14 11:51:35.33	260.04	16.14	-47.1	-50.1	16.0	0.00e+00	0	43	0	320864256	65	5183
2026-01-14 11:51:36.20	260.22	16.16	-47.1	-50.1	16.0	0.00e+00	0	43	0	321912832	65	5184
2026-01-14 11:51:37.34	260.47	16.19	-47.2	-50.2	15.8	0.00e+00	0	42	0	324009984	65	5278
2026-01-14 11:51:38.28	260.67	16.21	-47.1	-50.2	15.8	0.00e+00	0	42	0	326107136	65	5266
2026-01-14 11:51:39.28	260.89	16.24	-47.1	-50.2	15.9	0.00e+00	0	42	0	328204288	65	5252
2026-01-14 11:51:40.27	261.10	16.26	-47.2	-50.4	15.7	0.00e+00	0	43	0	329252864	65	5363
2026-01-14 11:51:41.27	261.32	16.29	-47.3	-50.5	15.6	0.00e+00	0	42	0	331350016	65	5412
2026-01-14 11:51:42.26	261.53	16.31	-47.3	-50.4	15.6	0.00e+00	0	42	0	333447168	65	5400
2026-01-14 11:51:43.26	261.75	16.34	-47.3	-50.4	15.6	0.00e+00	0	43	0	335544320	65	5393
2026-01-14 11:51:44.26	261.97	16.36	-47.3	-50.4	15.7	0.00e+00	0	43	0	337641472	65	5363
2026-01-14 11:51:45.25	262.18	16.38	-47.3	-50.5	15.6	0.00e+00	0	43	0	338690048	65	5418
2026-01-14 11:51:46.24	262.40	16.41	-47.3	-50.4	15.7	0.00e+00	0	43	0	340787200	65	5370
2026-01-14 11:51:47.24	262.62	16.43	-47.3	-50.4	15.7	0.00e+00	0	43	0	342884352	65	5386
2026-01-14 11:51:48.23	262.84	16.45	-47.3	-50.5	15.6	0.00e+00	0	43	0	344981504	65	5416
2026-01-14 11:51:49.23	263.06	16.47	-47.4	-50.6	15.5	0.00e+00	0	43	0	346030080	65	5491
2026-01-14 11:51:50.22	263.27	16.49	-47.4	-50.6	15.4	0.00e+00	0	43	0	348127232	65	5512
2026-01-14 11:51:51.22	263.49	16.51	-47.5	-50.7	15.4	0.00e+00	0	43	0	350224384	65	5578
2026-01-14 11:51:52.21	263.71	16.53	-47.5	-50.7	15.4	0.00e+00	0	43	0	352321536	65	5542
2026-01-14 11:51:53.21	263.93	16.55	-47.6	-50.8	15.3	0.00e+00	0	43	0	354418688	65	5629
2026-01-14 11:51:54.20	264.15	16.57	-47.6	-50.9	15.2	0.00e+00	0	43	0	355467264	65	5699
2026-01-14 11:51:55.19	264.37	16.59	-47.6	-50.8	15.2	0.00e+00	0	43	0	357564416	65	5655
2026-01-14 11:51:56.19	264.59	16.61	-47.6	-50.9	15.2	0.00e+00	0	43	0	359661568	65	5668
2026-01-14 11:51:57.53	264.89	16.64	-47.7	-51.0	15.1	0.00e+00	0	43	0	361758720	66	5439
2026-01-14 11:51:58.29	265.06	16.65	-47.6	-50.8	15.3	0.00e+00	0	43	0	363855872	66	5323
2026-01-14 11:51:59.56	265.34	16.67	-47.6	-50.9	15.2	0.00e+00	0	43	0	365953024	66	5346
2026-01-14 11:52:00.27	265.50	16.69	-47.6	-50.8	15.3	0.00e+00	0	42	0	367001600	66	5321
2026-01-14 11:52:01.56	265.78	16.71	-47.6	-50.9	15.2	0.00e+00	0	43	0	370147328	66	5345
2026-01-14 11:52:02.28	265.94	16.72	-47.6	-50.8	15.2	0.00e+00	0	43	0	371195904	66	5330
2026-01-14 11:52:03.56	266.23	16.74	-47.6	-50.8	15.3	0.00e+00	0	42	0	373293056	66	5333
2026-01-14 11:52:04.27	266.39	16.75	-47.6	-50.9	15.2	0.00e+00	0	43	0	374341632	66	5370
2026-01-14 11:52:05.55	266.67	16.77	-47.6	-50.8	15.3	0.00e+00	0	43	0	377487360	66	5331
2026-01-14 11:52:06.27	266.83	16.78	-47.6	-50.7	15.4	0.00e+00	0	42	0	378535936	66	5277
2026-01-14 11:52:07.65	267.14	16.80	-47.6	-50.8	15.3	0.00e+00	0	43	0	380633088	66	5307
2026-01-14 11:52:08.36	267.30	16.81	-47.6	-50.8	15.2	0.00e+00	0	43	0	382730240	66	5328
2026-01-14 11:52:09.71	267.60	16.83	-47.6	-50.9	15.2	0.00e+00	0	42	0	384827392	66	5345
2026-01-14 11:52:10.42	267.76	16.84	-47.6	-50.9	15.2	0.00e+00	0	43	0	385875968	66	5373
2026-01-14 11:52:11.83	268.08	16.86	-47.7	-51.0	15.1	0.00e+00	0	43	0	389021696	66	5438
2026-01-14 11:52:12.54	268.24	16.87	-47.7	-51.0	15.1	0.00e+00	0	43	0	390070272	66	5426
2026-01-14 11:52:13.82	268.53	16.88	-47.7	-51.1	15.0	0.00e+00	0	42	0	392167424	66	5483
2026-01-14 11:52:14.89	268.77	16.89	-47.7	-51.0	15.2	0.00e+00	0	43	0	394264576	66	5408
2026-01-14 11:52:16.02	269.02	16.91	-47.5	-50.7	15.4	0.00e+00	0	43	0	396361728	66	5266
2026-01-14 11:52:16.87	269.22	16.91	-47.4	-50.5	15.6	0.00e+00	0	43	0	398458880	66	5137
2026-01-14 11:52:18.37	269.56	16.93	-47.4	-50.6	15.5	0.00e+00	0	43	0	401604608	66	5173
2026-01-14 11:52:19.08	269.72	16.94	-47.4	-50.6	15.6	0.00e+00	0	43	0	402653184	66	5166
2026-01-14 11:52:20.59	270.06	16.95	-47.4	-50.6	15.5	0.00e+00	0	43	0	405798912	66	5209
2026-01-14 11:52:21.30	270.22	16.96	-47.5	-50.7	15.4	0.00e+00	0	43	0	406847488	66	5244
2026-01-14 11:52:22.58	270.51	16.97	-47.6	-50.9	15.2	0.00e+00	0	42	0	408944640	66	5345
2026-01-14 11:52:23.31	270.67	16.97	-47.6	-50.9	15.2	0.00e+00	0	42	0	409993216	66	5362
2026-01-14 11:52:24.59	270.96	16.98	-47.7	-51.0	15.0	0.00e+00	0	43	0	413138944	66	5461
2026-01-14 11:52:25.30	271.12	16.99	-47.8	-51.2	14.9	0.00e+00	0	43	0	414187520	66	5574
2026-01-14 11:52:26.72	271.45	17.00	-48.0	-51.5	14.7	0.00e+00	0	43	0	417333248	66	5725
2026-01-14 11:52:27.43	271.61	17.00	-47.9	-51.3	14.8	0.00e+00	0	43	0	418381824	66	5645
2026-01-14 11:52:28.83	271.92	17.01	-48.0	-51.4	14.7	0.00e+00	0	43	0	420478976	66	5692
2026-01-14 11:52:29.55	272.09	17.01	-47.9	-51.3	14.8	0.00e+00	0	43	0	422576128	66	5656
2026-01-14 11:52:30.82	272.38	17.02	-47.9	-51.3	14.8	0.00e+00	0	43	0	424673280	66	5644
2026-01-14 11:52:31.55	272.54	17.02	-47.7	-51.0	15.1	0.00e+00	0	43	0	425721856	66	5464
2026-01-14 11:52:32.82	272.83	17.03	-47.5	-50.7	15.3	7.00e-07	0	43	0	427819008	66	5271
2026-01-14 11:52:33.53	272.99	17.03	-47.4	-50.7	15.4	0.00e+00	0	43	0	429916160	66	5243
2026-01-14 11:52:35.00	273.33	17.03	-47.3	-50.6	15.5	0.00e+00	0	43	0	432013312	66	5170
2026-01-14 11:52:35.71	273.49	17.03	-47.4	-50.6	15.5	0.00e+00	0	43	0	434110464	66	5165
2026-01-14 11:52:37.06	273.79	17.04	-47.4	-50.6	15.5	0.00e+00	0	43	0	436207616	66	5175
2026-01-14 11:52:37.76	273.95	17.04	-47.4	-50.6	15.5	0.00e+00	0	43	0	437256192	66	5176
2026-01-14 11:52:39.12	274.26	17.04	-47.5	-50.7	15.5	0.00e+00	0	43	0	440401920	66	5229
2026-01-14 11:52:39.84	274.43	17.04	-47.5	-50.6	15.5	0.00e+00	0	43	0	441450496	66	5213
2026-01-14 11:52:41.15	274.72	17.04	-47.5	-50.7	15.4	0.00e+00	0	43	0	443547648	66	5237
2026-01-14 11:52:42.14	274.95	17.04	-47.6	-50.8	15.3	0.00e+00	0	43	0	445644800	66	5331
2026-01-14 11:52:43.47	275.25	17.04	-47.6	-50.8	15.3	0.00e+00	0	42	0	447741952	66	5337
2026-01-14 11:52:44.18	275.41	17.04	-47.6	-50.9	15.2	0.00e+00	0	43	0	449839104	66	5357
2026-01-14 11:52:45.84	275.79	17.04	-47.7	-51.0	15.2	0.00e+00	0	43	0	452984832	66	5407
2026-01-14 11:52:46.40	275.92	17.03	-47.6	-50.8	15.3	0.00e+00	0	43	0	454033408	66	5334
2026-01-14 11:52:48.11	276.31	17.03	-47.5	-50.6	15.5	0.00e+00	0	43	0	457179136	66	5198
2026-01-14 11:52:48.67	276.43	17.03	-47.4	-50.6	15.6	0.00e+00	0	43	0	458227712	66	5182
2026-01-14 11:52:50.45	276.84	17.02	-47.4	-50.5	15.6	7.00e-07	0	42	0	461373440	66	5135
2026-01-14 11:52:51.01	276.96	17.02	-47.4	-50.5	15.6	0.00e+00	0	43	0	462422016	66	5154
2026-01-14 11:52:52.72	277.35	17.01	-47.3	-50.4	15.7	0.00e+00	0	42	0	465567744	66	5064
2026-01-14 11:52:53.42	277.51	17.01	-47.2	-50.3	15.9	0.00e+00	0	43	0	466616320	66	4990
2026-01-14 11:52:54.84	277.83	17.00	-47.2	-50.3	15.8	0.00e+00	0	43	0	469762048	66	5009
2026-01-14 11:52:55.63	278.01	16.99	-47.3	-50.4	15.7	0.00e+00	0	43	0	470810624	66	5080
2026-01-14 11:52:56.83	278.28	16.99	-47.3	-50.5	15.6	0.00e+00	0	43	0	472907776	66	5106
2026-01-14 11:52:57.68	278.48	16.98	-47.4	-50.6	15.5	0.00e+00	0	43	0	475004928	66	5190
2026-01-14 11:52:58.82	278.73	16.97	-47.4	-50.6	15.6	0.00e+00	0	43	0	477102080	66	5174
2026-01-14 11:52:59.89	278.98	16.96	-47.4	-50.6	15.6	0.00e+00	0	43	0	479199232	66	5164
2026-01-14 11:53:00.74	279.17	16.96	-47.3	-50.4	15.7	0.00e+00	0	43	0	480247808	66	5082
2026-01-14 11:53:02.27	279.51	16.94	-47.3	-50.4	15.7	0.00e+00	0	43	0	483393536	66	5063
2026-01-14 11:53:02.98	279.67	16.94	-47.3	-50.4	15.7	0.00e+00	0	43	0	484442112	66	5083
2026-01-14 11:53:04.26	279.96	16.92	-47.3	-50.4	15.7	0.00e+00	0	43	0	487587840	66	5052
2026-01-14 11:53:05.00	280.13	16.92	-47.3	-50.4	15.7	0.00e+00	0	43	0	488636416	66	5089
2026-01-14 11:53:06.28	280.42	16.90	-47.3	-50.4	15.7	0.00e+00	0	43	0	490733568	66	5063
2026-01-14 11:53:07.05	280.59	16.90	-47.2	-50.3	15.8	0.00e+00	0	43	0	492830720	66	5027
2026-01-14 11:53:08.64	280.95	16.88	-47.3	-50.4	15.8	0.00e+00	0	43	0	495976448	66	5052
2026-01-14 11:53:09.23	281.08	16.87	-47.3	-50.4	15.7	0.00e+00	0	43	0	497025024	66	5090
2026-01-14 11:53:10.79	281.43	16.85	-47.2	-50.2	15.9	0.00e+00	0	43	0	499122176	66	4960
2026-01-14 11:53:11.50	281.59	16.84	-47.2	-50.2	15.9	0.00e+00	0	43	0	501219328	66	4980
2026-01-14 11:53:12.79	281.88	16.83	-47.3	-50.4	15.7	0.00e+00	0	43	0	503316480	66	5052
2026-01-14 11:53:13.51	282.04	16.82	-47.3	-50.4	15.7	0.00e+00	0	42	0	504365056	66	5057
2026-01-14 11:53:14.78	282.33	16.80	-47.4	-50.6	15.6	0.00e+00	0	43	0	506462208	66	5175
2026-01-14 11:53:15.49	282.49	16.79	-47.4	-50.6	15.6	0.00e+00	0	43	0	508559360	66	5164
2026-01-14 11:53:16.84	282.79	16.77	-47.5	-50.6	15.5	0.00e+00	0	43	0	510656512	66	5207
2026-01-14 11:53:17.55	282.95	16.76	-47.5	-50.6	15.5	0.00e+00	0	43	0	511705088	66	5210
2026-01-14 11:53:18.82	283.23	16.74	-47.4	-50.4	15.7	0.00e+00	0	43	0	514850816	66	5100
2026-01-14 11:53:19.54	283.39	16.73	-47.3	-50.4	15.8	0.00e+00	0	43	0	515899392	66	5043
2026-01-14 11:53:20.96	283.70	16.70	-47.1	-50.1	16.0	0.00e+00	0	42	0	519045120	66	4911
2026-01-14 11:53:21.67	283.86	16.69	-47.0	-49.9	16.2	0.00e+00	0	42	0	520093696	66	4796
2026-01-14 11:53:23.00	284.16	16.67	-47.0	-49.9	16.1	0.00e+00	0	43	0	522190848	65	5080
2026-01-14 11:53:23.71	284.31	16.65	-46.9	-49.8	16.2	0.00e+00	0	43	0	523239424	65	5035
2026-01-14 11:53:24.99	284.60	16.63	-47.1	-50.1	16.0	0.00e+00	0	43	0	526385152	65	5162
2026-01-14 11:53:26.05	284.83	16.61	-47.1	-50.1	16.0	0.00e+00	0	43	0	528482304	65	5210
2026-01-14 11:53:27.23	285.09	16.59	-47.2	-50.2	15.9	0.00e+00	0	43	0	530579456	65	5246
2026-01-14 11:53:28.08	285.28	16.57	-47.1	-50.1	15.9	0.00e+00	0	43	0	531628032	65	5212
2026-01-14 11:53:29.22	285.53	16.55	-47.0	-50.0	16.0	0.00e+00	0	43	0	533725184	65	5140
2026-01-14 11:53:30.07	285.72	16.53	-47.0	-50.0	16.1	0.00e+00	0	43	0	535822336	65	5127
2026-01-14 11:53:31.21	285.97	16.51	-47.0	-50.0	16.1	0.00e+00	0	43	0	537919488	65	5125
2026-01-14 11:53:32.07	286.16	16.49	-47.1	-50.0	16.1	0.00e+00	0	43	0	538968064	65	5131
2026-01-14 11:53:33.65	286.50	16.46	-46.9	-49.8	16.2	0.00e+00	0	43	0	542113792	65	5032
2026-01-14 11:53:34.28	286.64	16.44	-47.0	-49.9	16.2	0.00e+00	0	43	0	543162368	65	5068
2026-01-14 11:53:35.78	286.97	16.41	-46.9	-49.8	16.2	0.00e+00	0	43	0	546308096	65	5030
2026-01-14 11:53:36.49	287.12	16.40	-47.0	-49.9	16.1	0.00e+00	0	42	0	547356672	65	5092
2026-01-14 11:53:37.77	287.40	16.37	-47.0	-49.9	16.2	0.00e+00	0	43	0	550502400	65	5067
2026-01-14 11:53:38.49	287.56	16.35	-47.0	-49.9	16.1	0.00e+00	0	42	0	551550976	65	5078
2026-01-14 11:53:39.77	287.83	16.32	-46.9	-49.8	16.2	0.00e+00	0	43	0	553648128	65	5015
2026-01-14 11:53:40.50	287.99	16.30	-46.8	-49.7	16.4	0.00e+00	0	43	0	554696704	65	4965
2026-01-14 11:53:41.78	288.27	16.27	-46.8	-49.7	16.4	0.00e+00	0	43	0	557842432	65	4945
2026-01-14 11:53:42.49	288.42	16.25	-46.8	-49.7	16.3	0.00e+00	0	43	0	558891008	65	4978
2026-01-14 11:53:43.77	288.70	16.22	-46.8	-49.8	16.3	0.00e+00	0	43	0	560988160	65	5001
2026-01-14 11:53:44.50	288.86	16.20	-46.8	-49.8	16.3	0.00e+00	0	43	0	563085312	65	4986
2026-01-14 11:53:45.78	289.13	16.17	-46.8	-49.7	16.3	0.00e+00	0	43	0	565182464	65	4967
2026-01-14 11:53:46.53	289.29	16.15	-46.8	-49.8	16.3	0.00e+00	0	43	0	566231040	65	4989
2026-01-14 11:53:47.81	289.56	16.12	-46.7	-49.6	16.5	0.00e+00	0	43	0	569376768	65	4878
2026-01-14 11:53:48.59	289.73	16.09	-46.8	-49.6	16.4	0.00e+00	0	43	0	570425344	65	4918
2026-01-14 11:53:49.87	290.00	16.06	-46.7	-49.6	16.5	0.00e+00	0	43	0	572522496	65	4873
2026-01-14 11:53:50.58	290.16	16.04	-46.7	-49.5	16.6	0.00e+00	0	43	0	573571072	65	4840
2026-01-14 11:53:51.86	290.43	16.00	-46.8	-49.7	16.3	0.00e+00	0	43	0	576716800	65	4956
2026-01-14 11:53:52.77	290.62	15.98	-46.9	-49.8	16.2	0.00e+00	0	43	0	577765376	65	5026
2026-01-14 11:53:53.77	290.83	15.95	-47.0	-49.9	16.1	0.00e+00	0	43	0	579862528	65	5088
2026-01-14 11:53:54.77	291.04	15.92	-47.1	-50.1	16.0	0.00e+00	0	43	0	581959680	65	5165
2026-01-14 11:53:55.76	291.25	15.89	-47.0	-50.0	16.1	0.00e+00	0	43	0	584056832	65	5122
2026-01-14 11:53:56.76	291.46	15.86	-47.0	-49.9	16.1	0.00e+00	0	43	0	586153984	65	5065
2026-01-14 11:53:57.75	291.67	15.83	-47.0	-50.0	16.1	0.00e+00	0	43	0	587202560	65	5101
2026-01-14 11:53:58.76	291.88	15.80	-47.0	-49.9	16.1	0.00e+00	0	43	0	589299712	65	5094
2026-01-14 11:53:59.76	292.09	15.77	-46.7	-49.5	16.5	0.00e+00	0	43	0	591396864	65	4858
2026-01-14 11:54:00.75	292.30	15.74	-46.6	-49.4	16.6	0.00e+00	0	43	0	593494016	65	4802
2026-01-14 11:54:01.85	292.53	15.71	-46.6	-49.3	16.7	0.00e+00	0	43	0	595591168	65	4742
2026-01-14 11:54:02.70	292.70	15.68	-46.5	-49.3	16.7	0.00e+00	0	43	0	596639744	65	4728
2026-01-14 11:54:03.84	292.94	15.64	-46.5	-49.3	16.8	0.00e+00	0	43	0	598736896	65	4711
2026-01-14 11:54:04.69	293.12	15.62	-46.5	-49.2	16.8	0.00e+00	0	43	0	600834048	64	4975
2026-01-14 11:54:05.83	293.35	15.58	-46.4	-49.1	16.8	0.00e+00	0	43	0	602931200	64	4925
2026-01-14 11:54:06.68	293.53	15.55	-46.3	-49.0	17.0	0.00e+00	0	43	0	603979776	64	4866
2026-01-14 11:54:07.82	293.76	15.51	-46.3	-49.0	17.0	0.00e+00	0	43	0	606076928	64	4848
2026-01-14 11:54:08.67	293.94	15.49	-46.4	-49.1	16.9	0.00e+00	0	43	0	608174080	64	4896
2026-01-14 11:54:09.80	294.17	15.45	-46.4	-49.2	16.8	0.00e+00	0	43	0	610271232	64	4930
2026-01-14 11:54:10.66	294.34	15.42	-46.5	-49.3	16.6	0.00e+00	0	43	0	611319808	64	5041
2026-01-14 11:54:11.79	294.57	15.38	-46.5	-49.3	16.7	0.00e+00	0	43	0	613416960	64	5036
2026-01-14 11:54:12.65	294.75	15.35	-46.7	-49.5	16.5	0.00e+00	0	43	0	615514112	64	5136
2026-01-14 11:54:13.86	294.99	15.31	-46.7	-49.6	16.4	0.00e+00	0	43	0	617611264	64	5182
2026-01-14 11:54:14.72	295.17	15.28	-46.7	-49.6	16.4	0.00e+00	0	43	0	619708416	64	5176
2026-01-14 11:54:15.85	295.40	15.24	-46.8	-49.6	16.4	0.00e+00	0	43	0	621805568	64	5216
2026-01-14 11:54:16.70	295.57	15.21	-46.7	-49.6	16.4	0.00e+00	0	43	0	622854144	64	5176
2026-01-14 11:54:17.84	295.80	15.17	-46.7	-49.5	16.5	0.00e+00	0	43	0	624951296	64	5146
2026-01-14 11:54:18.70	295.97	15.13	-46.7	-49.5	16.5	0.00e+00	0	43	0	627048448	64	5146
2026-01-14 11:54:20.07	296.24	15.08	-46.6	-49.4	16.6	0.00e+00	0	43	0	629145600	64	5066
2026-01-14 11:54:20.78	296.38	15.06	-46.5	-49.3	16.7	0.00e+00	0	43	0	630194176	64	5011
2026-01-14 11:54:22.06	296.64	15.01	-46.5	-49.3	16.6	0.00e+00	0	42	0	633339904	64	5028
2026-01-14 11:54:22.79	296.78	14.98	-46.6	-49.4	16.6	0.00e+00	0	43	0	634388480	64	5044
2026-01-14 11:54:24.07	297.04	14.94	-46.3	-49.1	16.9	0.00e+00	0	43	0	636485632	64	4893
2026-01-14 11:54:24.78	297.18	14.91	-46.4	-49.1	16.8	0.00e+00	0	43	0	638582784	64	4919
2026-01-14 11:54:26.44	297.50	14.85	-46.5	-49.3	16.7	0.00e+00	0	43	0	641728512	64	4987
2026-01-14 11:54:27.01	297.62	14.82	-46.6	-49.4	16.6	0.00e+00	0	43	0	642777088	64	5065
2026-01-14 11:54:28.71	297.95	14.76	-46.8	-49.7	16.2	0.00e+00	0	43	0	645922816	64	5264
2026-01-14 11:54:29.31	298.07	14.73	-46.9	-49.8	16.1	0.00e+00	0	43	0	646971392	64	5336
2026-01-14 11:54:30.88	298.37	14.67	-47.2	-50.3	15.7	0.00e+00	0	43	0	650117120	65	5282
2026-01-14 11:54:31.53	298.50	14.65	-47.2	-50.3	15.7	0.00e+00	0	43	0	651165696	65	5295
2026-01-14 11:54:32.95	298.77	14.59	-47.2	-50.3	15.7	0.00e+00	0	43	0	653262848	65	5332
2026-01-14 11:54:33.66	298.91	14.56	-47.2	-50.3	15.7	0.00e+00	0	43	0	655360000	65	5318
2026-01-14 11:54:34.94	299.16	14.51	-47.1	-50.2	15.8	0.00e+00	0	43	0	657457152	65	5244
2026-01-14 11:54:35.70	299.30	14.48	-47.0	-50.1	15.9	0.00e+00	0	43	0	658505728	65	5162
2026-01-14 11:54:36.98	299.55	14.43	-47.1	-50.1	15.8	0.00e+00	0	43	0	660602880	65	5214
2026-01-14 11:54:37.72	299.69	14.40	-47.1	-50.2	15.8	0.00e+00	0	43	0	662700032	65	5242
2026-01-14 11:54:39.00	299.93	14.35	-47.1	-50.2	15.8	0.00e+00	0	43	0	664797184	65	5240
2026-01-14 11:54:39.72	300.07	14.32	-47.1	-50.2	15.8	0.00e+00	0	43	0	665845760	65	5262
2026-01-14 11:54:41.00	300.31	14.26	-47.2	-50.2	15.7	0.00e+00	0	43	0	668991488	65	5259
2026-01-14 11:54:41.98	300.50	14.22	-47.2	-50.2	15.7	0.00e+00	0	43	0	670040064	65	5264
2026-01-14 11:54:43.24	300.73	14.17	-47.2	-50.2	15.7	0.00e+00	0	43	0	673185792	65	5253
2026-01-14 11:54:43.96	300.87	14.14	-47.1	-50.1	15.8	0.00e+00	0	43	0	674234368	65	5217
2026-01-14 11:54:45.24	301.11	14.08	-47.0	-50.0	15.9	0.00e+00	0	43	0	676331520	65	5155
2026-01-14 11:54:45.94	301.24	14.05	-47.0	-50.0	15.9	0.00e+00	0	43	0	678428672	65	5150
2026-01-14 11:54:47.22	301.48	14.00	-47.2	-50.3	15.7	0.00e+00	0	43	0	680525824	65	5280
2026-01-14 11:54:47.95	301.61	13.97	-47.3	-50.4	15.5	0.00e+00	0	43	0	681574400	65	5393
2026-01-14 11:54:49.23	301.85	13.91	-47.6	-50.9	15.1	0.00e+00	0	43	0	683671552	65	5665
2026-01-14 11:54:49.95	301.98	13.88	-47.8	-51.1	14.9	0.00e+00	0	43	0	685768704	66	5499
2026-01-14 11:54:51.23	302.22	13.82	-48.0	-51.5	14.4	0.00e+00	0	43	0	687865856	66	5767
2026-01-14 11:54:51.95	302.35	13.79	-48.2	-51.8	14.2	1.50e-06	0	43	0	688914432	66	5939
2026-01-14 11:54:53.23	302.59	13.74	-48.3	-52.1	13.9	1.50e-06	0	43	0	692060160	67	5796
2026-01-14 11:54:53.95	302.72	13.70	-48.4	-52.2	13.8	5.30e-06	0	43	0	693108736	67	5885
2026-01-14 11:54:55.23	302.95	13.65	-48.5	-52.3	13.7	5.30e-06	0	43	0	695205888	67	5958
2026-01-14 11:54:55.95	303.08	13.62	-48.4	-52.3	13.7	7.60e-06	0	43	0	696254464	67	5957
2026-01-14 11:54:57.42	303.35	13.55	-48.4	-52.4	13.6	6.10e-06	0	43	0	699400192	67	5996
2026-01-14 11:54:58.13	303.47	13.52	-48.5	-52.5	13.5	1.06e-05	0	43	0	700448768	67	6072
2026-01-14 11:54:59.41	303.70	13.46	-48.5	-52.5	13.4	1.60e-05	0	43	0	703594496	67	6112
2026-01-14 11:55:00.15	303.84	13.43	-48.6	-52.6	13.4	7.60e-06	0	43	0	704643072	67	6150
2026-01-14 11:55:01.43	304.07	13.37	-48.6	-52.7	13.3	1.83e-05	0	43	0	706740224	67	6206
2026-01-14 11:55:02.14	304.19	13.34	-48.6	-52.5	13.4	1.90e-05	0	43	0	707788800	67	6122
2026-01-14 11:55:03.42	304.42	13.28	-48.5	-52.4	13.5	8.30e-06	0	43	0	710934528	67	6037
2026-01-14 11:55:04.13	304.55	13.24	-48.5	-52.3	13.6	9.10e-06	0	43	0	711983104	67	5980
2026-01-14 11:55:05.66	304.82	13.17	-48.2	-51.9	14.1	4.50e-06	0	43	0	715128832	67	5685
2026-01-14 11:55:06.37	304.94	13.14	-48.2	-51.8	14.2	3.80e-06	0	43	0	716177408	67	5611
2026-01-14 11:55:07.74	305.18	13.08	-48.1	-51.7	14.2	7.00e-07	0	43	0	719323136	67	5581
2026-01-14 11:55:08.71	305.35	13.03	-48.1	-51.7	14.3	2.20e-06	0	43	0	720371712	67	5555
2026-01-14 11:55:10.01	305.58	12.97	-48.1	-51.7	14.2	0.00e+00	0	43	0	723517440	67	5575
2026-01-14 11:55:10.76	305.71	12.94	-48.1	-51.7	14.2	2.20e-06	0	43	0	724566016	67	5592
2026-01-14 11:55:12.32	305.98	12.86	-48.2	-51.9	14.1	7.00e-07	0	43	0	727711744	67	5671
2026-01-14 11:55:13.03	306.10	12.83	-48.3	-52.1	13.9	6.80e-06	0	43	0	728760320	67	5831
2026-01-14 11:55:14.31	306.32	12.77	-48.4	-52.2	13.8	5.30e-06	0	43	0	730857472	67	5881
2026-01-14 11:55:15.04	306.44	12.73	-48.5	-52.4	13.6	3.80e-06	0	43	0	732954624	67	6015
2026-01-14 11:55:16.32	306.66	12.67	-48.6	-52.7	13.2	1.06e-05	0	43	0	735051776	67	6248
2026-01-14 11:55:17.06	306.79	12.64	-48.9	-53.0	13.2	2.59e-05	0	43	0	736100352	68	6071
2026-01-14 11:55:18.54	307.04	12.57	-48.9	-53.2	12.9	4.04e-05	0	43	0	739246080	68	6214
2026-01-14 11:55:19.25	307.16	12.53	-48.9	-53.2	12.9	4.27e-05	0	43	0	740294656	68	6223
2026-01-14 11:55:20.53	307.37	12.47	-49.0	-53.2	12.9	4.50e-05	0	43	0	742391808	68	6251
2026-01-14 11:55:21.27	307.50	12.43	-49.0	-53.2	12.9	5.87e-05	0	43	0	744488960	68	6271
2026-01-14 11:55:22.70	307.74	12.36	-48.9	-53.0	13.1	4.73e-05	0	43	0	746586112	68	6099
2026-01-14 11:55:23.41	307.85	12.33	-48.7	-52.7	13.3	2.05e-05	0	43	0	747634688	68	5920
2026-01-14 11:55:24.69	308.07	12.27	-48.6	-52.4	13.7	1.14e-05	0	43	0	750780416	68	5705
2026-01-14 11:55:25.41	308.19	12.23	-48.6	-52.5	13.6	4.50e-06	0	43	0	751828992	68	5738
2026-01-14 11:55:26.69	308.40	12.17	-48.5	-52.3	13.8	4.50e-06	0	43	0	753926144	68	5624
2026-01-14 11:55:27.41	308.52	12.13	-48.5	-52.3	13.8	2.20e-06	0	43	0	756023296	68	5632
2026-01-14 11:55:28.69	308.73	12.07	-48.6	-52.5	13.6	1.14e-05	0	43	0	758120448	68	5747
2026-01-14 11:55:29.42	308.84	12.04	-48.6	-52.5	13.6	5.30e-06	0	43	0	759169024	68	5762
2026-01-14 11:55:30.70	309.05	11.97	-48.5	-52.4	13.7	1.06e-05	0	43	0	762314752	68	5685
2026-01-14 11:55:31.47	309.18	11.93	-48.4	-52.3	13.8	2.20e-06	0	43	0	763363328	68	5607
2026-01-14 11:55:33.04	309.43	11.86	-48.3	-52.0	14.0	3.80e-06	0	43	0	766509056	68	5463
2026-01-14 11:55:33.67	309.53	11.82	-48.2	-52.0	14.1	5.30e-06	0	43	0	767557632	68	5438
2026-01-14 11:55:35.14	309.77	11.75	-48.2	-51.9	14.2	2.20e-06	0	43	0	769654784	68	5357
2026-01-14 11:55:35.85	309.88	11.72	-48.1	-51.8	14.2	0.00e+00	0	43	0	771751936	68	5318
2026-01-14 11:55:37.13	310.09	11.65	-47.8	-51.3	14.6	7.00e-07	0	43	0	773849088	67	5309
2026-01-14 11:55:37.84	310.20	11.62	-47.8	-51.3	14.7	0.00e+00	0	43	0	774897664	67	5284
2026-01-14 11:55:39.12	310.40	11.55	-47.8	-51.4	14.5	0.00e+00	0	43	0	778043392	67	5359
2026-01-14 11:55:39.85	310.52	11.52	-47.9	-51.5	14.3	0.00e+00	0	43	0	779091968	67	5457
2026-01-14 11:55:41.13	310.72	11.45	-47.9	-51.5	14.4	1.50e-06	0	43	0	781189120	67	5443
2026-01-14 11:55:41.84	310.83	11.41	-47.9	-51.6	14.3	2.20e-06	0	43	0	782237696	67	5477
2026-01-14 11:55:43.12	311.03	11.35	-47.9	-51.6	14.3	2.20e-06	0	43	0	785383424	67	5474
2026-01-14 11:55:43.83	311.14	11.31	-47.9	-51.7	14.2	1.50e-06	0	43	0	786432000	67	5553
2026-01-14 11:55:45.11	311.34	11.25	-47.8	-51.6	14.3	7.00e-07	0	43	0	788529152	67	5500
2026-01-14 11:55:45.90	311.46	11.21	-47.9	-51.7	14.2	0.00e+00	0	43	0	790626304	67	5573
2026-01-14 11:55:47.16	311.66	11.14	-48.1	-51.9	14.0	7.00e-07	0	43	0	792723456	67	5667
2026-01-14 11:55:47.93	311.77	11.11	-48.1	-51.9	14.0	2.20e-06	0	43	0	793772032	67	5712
2026-01-14 11:55:49.21	311.97	11.04	-48.1	-52.0	13.9	1.50e-06	0	43	0	796917760	67	5731
2026-01-14 11:55:49.92	312.08	11.00	-48.1	-51.9	13.9	3.80e-06	0	43	0	797966336	67	5709
2026-01-14 11:55:51.20	312.27	10.94	-48.1	-52.0	13.9	6.10e-06	0	43	0	800063488	67	5734
2026-01-14 11:55:51.93	312.38	10.90	-48.1	-51.9	13.9	3.00e-06	0	43	0	801112064	67	5716
2026-01-14 11:55:53.20	312.58	10.84	-47.9	-51.7	14.2	7.00e-07	0	43	0	804257792	67	5540
2026-01-14 11:55:53.91	312.68	10.80	-47.7	-51.4	14.5	4.50e-06	0	43	0	805306368	67	5365
2026-01-14 11:55:55.23	312.88	10.73	-47.5	-51.1	14.7	0.00e+00	0	43	0	807403520	67	5202
2026-01-14 11:55:55.93	312.99	10.69	-47.5	-51.1	14.7	7.00e-07	0	43	0	809500672	66	5496
2026-01-14 11:55:57.22	313.18	10.63	-47.2	-50.8	15.0	0.00e+00	0	43	0	811597824	66	5327
2026-01-14 11:55:58.26	313.33	10.57	-47.1	-50.6	15.2	0.00e+00	0	43	0	813694976	66	5204
2026-01-14 11:55:59.22	313.47	10.52	-47.0	-50.3	15.5	0.00e+00	0	43	0	815792128	66	5037
2026-01-14 11:56:00.21	313.62	10.47	-47.0	-50.2	15.6	0.00e+00	0	43	0	816840704	66	4981
2026-01-14 11:56:01.21	313.77	10.42	-47.2	-50.5	15.4	0.00e+00	0	43	0	818937856	66	5104
2026-01-14 11:56:02.20	313.91	10.37	-47.3	-50.6	15.2	0.00e+00	0	43	0	821035008	66	5201
2026-01-14 11:56:03.20	314.06	10.32	-47.4	-50.8	15.0	0.00e+00	0	43	0	823132160	66	5317
2026-01-14 11:56:04.23	314.21	10.26	-47.6	-51.0	14.9	7.00e-07	0	43	0	824180736	66	5413
2026-01-14 11:56:05.26	314.36	10.21	-47.5	-50.9	14.9	0.00e+00	0	43	0	826277888	66	5368
2026-01-14 11:56:06.25	314.50	10.16	-47.6	-50.9	14.9	0.00e+00	0	43	0	828375040	66	5395
2026-01-14 11:56:07.25	314.64	10.11	-47.6	-51.0	14.8	7.00e-07	0	43	0	830472192	66	5441
2026-01-14 11:56:08.24	314.78	10.06	-47.5	-50.9	14.9	7.00e-07	0	43	0	832569344	66	5379
2026-01-14 11:56:09.33	314.94	10.00	-47.5	-50.9	15.0	0.00e+00	0	43	0	834666496	66	5349
2026-01-14 11:56:10.23	315.07	9.95	-47.5	-50.9	14.9	0.00e+00	0	43	0	835715072	66	5352
2026-01-14 11:56:11.49	315.25	9.89	-47.4	-50.7	15.1	0.00e+00	0	43	0	837812224	66	5262
2026-01-14 11:56:12.28	315.36	9.84	-47.4	-50.8	15.1	0.00e+00	0	43	0	839909376	66	5283
2026-01-14 11:56:13.66	315.55	9.77	-47.5	-50.9	14.9	0.00e+00	0	43	0	842006528	66	5365
2026-01-14 11:56:14.37	315.65	9.74	-47.6	-50.9	14.9	0.00e+00	0	43	0	844103680	66	5387
2026-01-14 11:56:15.80	315.85	9.66	-47.6	-51.1	14.7	7.00e-07	0	43	0	846200832	66	5482
2026-01-14 11:56:16.51	315.95	9.62	-47.6	-51.1	14.7	1.50e-06	0	43	0	847249408	66	5524
2026-01-14 11:56:17.79	316.13	9.56	-47.5	-51.2	14.6	0.00e+00	0	43	0	850395136	66	5536
2026-01-14 11:56:18.51	316.23	9.52	-47.5	-51.1	14.7	1.50e-06	0	43	0	851443712	66	5508
2026-01-14 11:56:19.78	316.40	9.45	-47.4	-51.0	14.8	7.00e-07	0	43	0	853540864	66	5453
2026-01-14 11:56:20.50	316.50	9.41	-47.3	-51.0	14.8	7.00e-07	0	43	0	855638016	66	5411
2026-01-14 11:56:22.03	316.71	9.33	-47.2	-50.8	15.0	0.00e+00	0	43	0	857735168	66	5287
2026-01-14 11:56:22.74	316.81	9.29	-47.2	-50.8	15.0	7.00e-07	0	43	0	859832320	66	5299
2026-01-14 11:56:24.02	316.98	9.23	-47.2	-50.9	14.9	0.00e+00	0	43	0	861929472	66	5354
2026-01-14 11:56:24.75	317.08	9.19	-47.2	-50.9	14.9	0.00e+00	0	43	0	862978048	66	5367
2026-01-14 11:56:26.02	317.25	9.12	-47.2	-51.0	14.8	7.00e-07	0	43	0	865075200	66	5406
2026-01-14 11:56:26.75	317.35	9.08	-47.3	-51.1	14.7	0.00e+00	0	43	0	867172352	66	5508
2026-01-14 11:56:28.03	317.52	9.02	-47.4	-51.2	14.5	0.00e+00	0	43	0	869269504	66	5568
2026-01-14 11:56:28.74	317.62	8.98	-50.6	-59.6	7.2	0.00e+00	0	43	0	870318080	71	10948
2026-01-14 11:56:30.02	317.79	8.91	-52.2	-67.3	3.8	1.49e+00	0	43	104	870318080	74	22433
2026-01-14 11:56:30.74	317.88	8.87	-52.2	-67.5	3.8	1.49e+00	0	43	104	870318080	74	22821
2026-01-14 11:56:32.02	318.05	8.80	-52.3	-67.6	3.8	1.49e+00	0	43	104	870318080	75	21976
2026-01-14 11:56:32.73	318.14	8.77	-52.3	-67.6	3.8	1.49e+00	0	43	104	870318080	75	21981
2026-01-14 11:56:34.01	318.31	8.70	-52.6	-67.7	3.8	1.49e+00	0	43	104	870318080	75	22235
2026-01-14 11:56:34.72	318.40	8.66	-52.5	-67.7	3.8	1.49e+00	0	43	104	870318080	75	22238
2026-01-14 11:56:35.99	318.57	8.59	-52.3	-67.8	3.8	1.49e+00	0	43	104	870318080	75	22277
2026-01-14 11:56:36.70	318.66	8.56	-52.5	-67.8	3.8	1.49e+00	0	43	104	870318080	75	22482
2026-01-14 11:56:37.98	318.83	8.49	-52.6	-67.8	3.8	1.49e+00	0	43	104	870318080	76	21249
2026-01-14 11:56:38.69	318.92	8.45	-52.7	-67.8	3.8	1.49e+00	0	43	104	870318080	76	21218
2026-01-14 11:56:39.97	319.08	8.38	-52.7	-67.8	3.8	1.49e+00	0	43	104	870318080	76	21250
2026-01-14 11:56:40.71	319.18	8.34	-52.8	-67.9	3.8	1.49e+00	0	43	104	870318080	76	21336
2026-01-14 11:56:41.98	319.34	8.28	-52.7	-67.9	3.8	1.49e+00	0	43	104	870318080	76	21268
2026-01-14 11:56:42.69	319.43	8.24	-52.8	-67.9	3.8	1.49e+00	0	43	104	870318080	76	21303
2026-01-14 11:56:43.97	319.59	8.17	-52.7	-67.9	3.8	1.49e+00	0	43	104	870318080	76	21338
2026-01-14 11:56:44.70	319.68	8.13	-52.6	-67.9	3.8	1.49e+00	0	43	104	870318080	76	21325
2026-01-14 11:56:45.97	319.84	8.07	-52.6	-67.8	3.8	1.49e+00	0	43	104	870318080	76	21238
2026-01-14 11:56:46.68	319.93	8.03	-52.6	-67.9	3.8	1.49e+00	0	43	104	870318080	76	21286
2026-01-14 11:56:47.96	320.09	7.96	-52.5	-67.8	3.8	1.49e+00	0	43	104	870318080	76	21167
2026-01-14 11:56:48.67	320.18	7.92	-52.5	-67.9	3.8	1.49e+00	0	43	104	870318080	76	21346
2026-01-14 11:56:49.95	320.34	7.85	-52.4	-67.8	3.8	1.49e+00	0	43	104	870318080	76	21206
2026-01-14 11:56:50.66	320.43	7.82	-52.4	-67.8	3.8	1.49e+00	0	43	104	870318080	76	21154
2026-01-14 11:56:51.93	320.58	7.75	-52.4	-67.8	3.8	1.49e+00	0	43	104	870318080	76	21165
2026-01-14 11:56:52.66	320.67	7.71	-52.4	-67.9	3.8	1.49e+00	0	43	104	870318080	76	21268
2026-01-14 11:56:53.94	320.83	7.64	-52.4	-67.8	3.8	1.49e+00	0	43	104	870318080	76	21229
2026-01-14 11:56:54.65	320.92	7.61	-52.4	-67.8	3.8	1.49e+00	0	43	104	870318080	76	21188
2026-01-14 11:56:55.92	321.07	7.54	-52.4	-67.8	3.8	1.49e+00	0	43	104	870318080	76	21082
2026-01-14 11:56:56.63	321.16	7.50	-52.4	-67.8	3.8	1.49e+00	0	43	104	870318080	76	21084
2026-01-14 11:56:57.91	321.31	7.43	-52.4	-67.8	3.8	1.49e+00	0	43	104	870318080	76	21026
2026-01-14 11:56:58.62	321.40	7.39	-52.4	-67.8	3.8	1.49e+00	0	43	104	870318080	76	21074
2026-01-14 11:56:59.90	321.55	7.33	-52.4	-67.8	3.8	1.49e+00	0	43	104	870318080	76	21170
2026-01-14 11:57:00.61	321.63	7.29	-52.4	-67.8	3.8	1.49e+00	0	43	104	870318080	76	21103
2026-01-14 11:57:01.89	321.79	7.22	-52.4	-67.8	3.8	1.49e+00	0	43	104	870318080	76	21020
2026-01-14 11:57:02.60	321.87	7.18	-52.4	-67.8	3.8	1.49e+00	0	43	104	870318080	76	21032
2026-01-14 11:57:03.88	322.02	7.12	-52.4	-67.8	3.8	1.49e+00	0	43	104	870318080	76	21043
2026-01-14 11:57:04.59	322.10	7.08	-52.4	-67.8	3.8	1.49e+00	0	43	104	870318080	76	21092
2026-01-14 11:57:05.86	322.25	7.01	-52.4	-67.8	3.8	1.49e+00	0	43	104	870318080	76	21122
2026-01-14 11:57:06.57	322.34	6.97	-52.4	-67.8	3.8	1.49e+00	0	43	104	870318080	76	21146
2026-01-14 11:57:07.85	322.49	6.91	-52.4	-67.8	3.8	1.49e+00	0	43	104	870318080	76	21019
2026-01-14 11:57:08.56	322.57	6.87	-52.4	-67.8	3.8	1.49e+00	0	43	104	870318080	76	21165
2026-01-14 11:57:09.84	322.72	6.80	-52.4	-67.8	3.8	1.49e+00	0	43	104	870318080	76	21148
2026-01-14 11:57:10.55	322.80	6.76	-52.4	-67.8	3.8	1.49e+00	0	43	104	870318080	76	21168
2026-01-14 11:57:11.83	322.94	6.70	-52.4	-67.8	3.8	1.49e+00	0	43	104	870318080	76	21121
2026-01-14 11:57:12.53	323.02	6.66	-52.4	-67.8	3.8	1.49e+00	0	43	104	870318080	76	21069
2026-01-14 11:57:13.81	323.17	6.59	-52.4	-67.8	3.8	1.49e+00	0	43	104	870318080	76	21087
2026-01-14 11:57:14.52	323.25	6.55	-52.4	-67.8	3.8	1.49e+00	0	43	104	870318080	76	21049
2026-01-14 11:57:15.80	323.40	6.49	-52.4	-67.8	3.8	1.49e+00	0	43	104	870318080	76	21033
2026-01-14 11:57:16.53	323.48	6.45	-52.4	-67.8	3.8	1.49e+00	0	43	104	870318080	76	21200
2026-01-14 11:57:17.80	323.62	6.38	-52.4	-67.8	3.8	1.49e+00	0	43	104	870318080	76	21058
2026-01-14 11:57:18.52	323.70	6.34	-52.4	-67.8	3.8	1.49e+00	0	43	104	870318080	76	21089
2026-01-14 11:57:19.79	323.84	6.28	-52.4	-67.8	3.8	1.49e+00	0	43	104	870318080	76	21079
2026-01-14 11:57:20.52	323.93	6.24	-52.4	-67.8	3.8	1.49e+00	0	43	104	870318080	76	21105
2026-01-14 11:57:21.80	324.07	6.17	-52.4	-67.8	3.8	1.49e+00	0	43	104	870318080	76	21117
2026-01-14 11:57:22.51	324.15	6.13	-52.4	-67.8	3.8	1.49e+00	0	43	104	870318080	76	21072
2026-01-14 11:57:23.79	324.29	6.06	-52.4	-67.8	3.8	1.49e+00	0	43	104	870318080	76	21049
2026-01-14 11:57:24.50	324.36	6.03	-52.4	-67.8	3.8	1.49e+00	0	43	104	870318080	76	21131
2026-01-14 11:57:25.79	324.51	5.96	-52.4	-67.8	3.8	1.49e+00	0	43	104	870318080	76	21028
2026-01-14 11:57:26.50	324.58	5.92	-52.4	-67.8	3.8	1.49e+00	0	43	104	870318080	76	21043
2026-01-14 11:57:27.79	324.72	5.85	-52.4	-67.8	3.8	1.49e+00	0	43	104	870318080	76	21036
2026-01-14 11:57:28.50	324.80	5.82	-52.4	-67.7	3.8	1.49e+00	0	43	104	870318080	76	20960
2026-01-14 11:57:29.78	324.94	5.75	-52.4	-67.8	3.8	1.49e+00	0	43	104	870318080	76	21018
2026-01-14 11:57:30.49	325.01	5.71	-52.4	-67.8	3.8	1.49e+00	0	43	104	870318080	76	21055
2026-01-14 11:57:31.77	325.15	5.65	-52.4	-67.7	3.8	1.49e+00	0	43	104	870318080	76	21004
2026-01-14 11:57:32.48	325.23	5.61	-52.4	-67.8	3.8	1.49e+00	0	43	104	870318080	76	21062
2026-01-14 11:57:33.76	325.36	5.54	-52.4	-67.7	3.8	1.49e+00	0	43	104	870318080	76	21010
2026-01-14 11:57:34.48	325.44	5.50	-52.4	-67.7	3.8	1.49e+00	0	43	104	870318080	76	20998
2026-01-14 11:57:35.76	325.58	5.44	-52.4	-67.8	3.8	1.49e+00	0	43	104	870318080	76	21052
2026-01-14 11:57:36.47	325.65	5.40	-52.4	-67.7	3.8	1.49e+00	0	43	104	870318080	76	21012
2026-01-14 11:57:37.75	325.78	5.33	-52.4	-67.8	3.8	1.49e+00	0	43	104	870318080	76	21089
2026-01-14 11:57:38.47	325.86	5.29	-52.4	-67.8	3.8	1.49e+00	0	43	104	870318080	76	21142
2026-01-14 11:57:39.75	325.99	5.23	-52.4	-67.8	3.8	1.49e+00	0	43	104	870318080	76	21049
2026-01-14 11:57:40.47	326.07	5.19	-52.4	-67.7	3.8	1.49e+00	0	43	104	870318080	76	20970
2026-01-14 11:57:41.75	326.20	5.12	-52.4	-67.7	3.8	1.49e+00	0	43	104	870318080	76	21011
2026-01-14 11:57:42.46	326.27	5.09	-52.4	-67.7	3.8	1.49e+00	0	43	104	870318080	76	20995
2026-01-14 11:57:43.74	326.41	5.02	-52.4	-67.8	3.8	1.49e+00	0	43	104	870318080	76	21046
2026-01-14 11:57:44.45	326.48	4.98	-52.4	-67.7	3.8	1.49e+00	0	43	104	870318080	76	20945

#Closed at: 2026-01-14 11:57:45
#Recorded file [870 MB]: D:/Data/31040_260114_144739.dat