passes_logs/2026/01/14/T1/T1__20260114_055918_FENGYUN_3E_rec.log

#Pass ID: 20260114_055918_FENGYUN 3E
#Satellite: FENGYUN 3E
#Configuration: FENGYUN 3E
#almurnet v.1.7.20251203
#Start time: 2026-01-14 05:59:20

#Version: 2.0.20230620
#Station: T1
#Location: 37.570604 lon 55.790049 lat
#TLE: 1 49008U 21062A   26013.31447241  .00000001  00000+0  21294-4 0  9992
#TLE: 2 49008  98.7491  18.4630 0001950 139.8565 220.2756 14.19884983234609

#Time	Az	El	Level	Level2	SNR	BER	BlckErr	Temp	State	Recorded	gain1	gain2
2026-01-14 05:59:20.93	4.31	5.12	-49.3	-63.1	3.8	8.47e-01	0	37	0	0	68	18186
2026-01-14 05:59:21.92	4.22	5.17	-49.0	-62.8	3.8	8.47e-01	0	38	104	0	67	18518
2026-01-14 05:59:22.92	4.12	5.23	-49.0	-62.8	3.8	8.46e-01	0	37	104	0	67	18615
2026-01-14 05:59:23.92	4.02	5.29	-49.0	-62.8	3.8	8.48e-01	0	38	104	0	67	18597
2026-01-14 05:59:24.92	3.93	5.34	-49.0	-62.8	3.8	8.47e-01	0	38	104	0	67	18638
2026-01-14 05:59:25.91	3.83	5.40	-49.0	-62.8	3.8	8.48e-01	0	38	104	0	67	18635
2026-01-14 05:59:26.91	3.73	5.45	-49.0	-62.8	3.8	8.47e-01	0	37	104	0	67	18613
2026-01-14 05:59:27.90	3.64	5.51	-49.0	-62.8	3.8	8.46e-01	0	38	104	0	67	18607
2026-01-14 05:59:28.90	3.54	5.56	-49.0	-62.8	3.8	8.47e-01	0	38	104	0	67	18638
2026-01-14 05:59:29.90	3.44	5.62	-49.0	-62.7	3.8	8.48e-01	0	38	104	0	67	18497
2026-01-14 05:59:30.89	3.34	5.67	-49.0	-62.8	3.8	8.46e-01	0	38	104	0	67	18586
2026-01-14 05:59:31.89	3.24	5.73	-49.0	-62.8	3.8	8.47e-01	0	38	104	0	67	18708
2026-01-14 05:59:32.89	3.14	5.79	-49.0	-62.8	3.8	8.47e-01	0	38	104	0	67	18530
2026-01-14 05:59:33.89	3.04	5.84	-49.0	-62.8	3.8	8.46e-01	0	38	104	0	67	18599
2026-01-14 05:59:34.88	2.94	5.90	-49.0	-62.8	3.8	8.48e-01	0	38	104	0	67	18533
2026-01-14 05:59:35.88	2.84	5.95	-49.0	-62.8	3.8	8.46e-01	0	38	104	0	67	18554
2026-01-14 05:59:36.87	2.74	6.01	-49.0	-62.8	3.8	8.46e-01	0	38	104	0	67	18540
2026-01-14 05:59:37.87	2.64	6.07	-49.0	-62.8	3.8	8.47e-01	0	38	104	0	67	18641
2026-01-14 05:59:38.86	2.54	6.12	-49.0	-62.8	3.8	8.47e-01	0	38	104	0	67	18652
2026-01-14 05:59:39.86	2.44	6.18	-49.0	-62.8	3.8	8.46e-01	0	38	104	0	67	18617
2026-01-14 05:59:40.86	2.33	6.23	-49.0	-62.8	3.8	8.46e-01	0	39	104	0	67	18590
2026-01-14 05:59:41.85	2.23	6.29	-49.0	-62.8	3.8	8.46e-01	0	38	104	0	67	18650
2026-01-14 05:59:42.85	2.13	6.35	-49.1	-62.8	3.8	8.46e-01	0	38	104	0	67	18673
2026-01-14 05:59:43.85	2.02	6.40	-49.0	-62.8	3.8	8.46e-01	0	38	104	0	67	18555
2026-01-14 05:59:44.84	1.92	6.46	-49.0	-62.8	3.8	8.47e-01	0	39	104	0	67	18685
2026-01-14 05:59:45.84	1.81	6.51	-49.1	-62.8	3.8	8.47e-01	0	39	104	0	67	18728
2026-01-14 05:59:46.84	1.71	6.57	-49.1	-62.9	3.8	8.47e-01	0	38	104	0	67	18771
2026-01-14 05:59:47.83	1.60	6.63	-49.0	-62.8	3.8	8.48e-01	0	39	104	0	67	18688
2026-01-14 05:59:48.83	1.50	6.68	-49.1	-62.8	3.8	8.48e-01	0	39	104	0	67	18603
2026-01-14 05:59:49.83	1.39	6.74	-49.1	-62.7	3.8	8.47e-01	0	39	104	0	67	18418
2026-01-14 05:59:50.82	1.29	6.80	-49.1	-62.7	3.8	8.48e-01	0	39	104	0	67	18432
2026-01-14 05:59:51.82	1.18	6.85	-49.1	-62.7	3.8	8.47e-01	0	39	104	0	67	18335
2026-01-14 05:59:52.81	1.07	6.91	-49.1	-62.7	3.8	8.47e-01	0	39	104	0	67	18391
2026-01-14 05:59:53.81	0.96	6.97	-49.1	-62.6	3.8	8.46e-01	0	39	104	0	67	18260
2026-01-14 05:59:54.80	0.85	7.02	-49.1	-62.5	3.8	8.47e-01	0	39	104	0	67	17948
2026-01-14 05:59:55.80	0.74	7.08	-49.1	-62.2	3.8	8.47e-01	0	39	104	0	67	17458
2026-01-14 05:59:56.80	0.63	7.13	-49.0	-62.0	3.8	8.46e-01	0	39	104	0	67	16924
2026-01-14 05:59:57.79	0.53	7.19	-49.0	-61.9	3.8	8.46e-01	0	39	104	0	67	16794
2026-01-14 05:59:58.79	0.41	7.25	-49.0	-61.8	3.8	8.46e-01	0	39	104	0	67	16662
2026-01-14 05:59:59.79	0.30	7.30	-49.0	-61.9	3.8	8.46e-01	0	39	104	0	67	16849
2026-01-14 06:00:00.78	0.19	7.36	-49.1	-62.2	3.8	8.47e-01	0	39	104	0	67	17290
2026-01-14 06:00:01.78	0.08	7.42	-49.1	-62.3	3.8	8.48e-01	0	39	104	0	67	17550
2026-01-14 06:00:02.77	359.97	7.47	-49.1	-62.4	3.8	8.46e-01	0	39	104	0	67	17835
2026-01-14 06:00:03.77	359.86	7.53	-49.1	-62.3	3.8	8.48e-01	0	39	104	0	67	17581
2026-01-14 06:00:04.77	359.74	7.59	-49.1	-62.1	3.8	8.46e-01	0	39	104	0	67	17246
2026-01-14 06:00:05.76	359.63	7.64	-49.1	-62.0	3.8	8.46e-01	0	39	104	0	67	16993
2026-01-14 06:00:06.76	359.52	7.70	-49.1	-62.0	3.8	8.47e-01	0	39	104	0	67	16949
2026-01-14 06:00:07.75	359.40	7.76	-49.1	-62.1	3.8	8.47e-01	0	39	104	0	67	17187
2026-01-14 06:00:08.75	359.29	7.81	-49.1	-62.2	3.8	8.46e-01	0	39	104	0	67	17433
2026-01-14 06:00:09.75	359.17	7.87	-49.1	-62.3	3.8	8.47e-01	0	39	104	0	67	17545
2026-01-14 06:00:10.75	359.06	7.93	-49.1	-62.2	3.8	8.46e-01	0	39	104	0	67	17329
2026-01-14 06:00:11.74	358.94	7.99	-49.1	-62.0	3.8	8.46e-01	0	39	104	0	67	17051
2026-01-14 06:00:12.74	358.82	8.04	-49.1	-62.1	3.8	8.47e-01	0	39	104	0	67	17186
2026-01-14 06:00:13.74	358.71	8.10	-49.1	-62.3	3.8	8.47e-01	0	39	104	0	67	17633
2026-01-14 06:00:14.73	358.59	8.16	-49.1	-62.7	3.8	8.46e-01	0	39	104	0	67	18311
2026-01-14 06:00:15.73	358.47	8.21	-49.1	-62.5	3.8	8.46e-01	0	39	104	0	67	17984
2026-01-14 06:00:16.73	358.35	8.27	-49.0	-61.1	3.8	8.47e-01	0	39	104	0	67	15289
2026-01-14 06:00:17.73	358.23	8.33	-48.8	-58.6	4.4	8.38e-01	0	39	0	0	67	11482
2026-01-14 06:00:18.73	358.11	8.38	-48.4	-56.2	5.7	6.97e-01	0	39	0	0	67	8744
2026-01-14 06:00:19.72	357.99	8.44	-48.0	-54.5	7.2	1.73e-01	0	39	0	6291456	66	7544
2026-01-14 06:00:20.72	357.87	8.50	-47.6	-53.1	8.5	5.79e-02	0	39	0	13631488	66	6457
2026-01-14 06:00:21.72	357.75	8.56	-47.2	-52.0	9.7	1.38e-02	0	39	0	20971520	65	6008
2026-01-14 06:00:22.72	357.63	8.61	-46.9	-51.2	10.5	4.86e-03	0	39	0	28311552	64	5825
2026-01-14 06:00:23.72	357.51	8.67	-46.6	-50.7	11.0	1.53e-03	0	39	0	35651584	64	5477
2026-01-14 06:00:24.71	357.38	8.73	-46.4	-50.1	11.7	5.15e-04	0	40	0	42991616	63	5437
2026-01-14 06:00:25.71	357.26	8.78	-46.1	-49.6	12.3	2.23e-04	0	40	0	50331648	63	5101
2026-01-14 06:00:26.70	357.14	8.84	-45.9	-49.2	12.6	6.63e-05	0	40	0	57671680	62	5191
2026-01-14 06:00:27.70	357.01	8.90	-45.9	-49.0	12.8	5.26e-05	0	39	0	63963136	62	5099
2026-01-14 06:00:28.70	356.89	8.95	-45.9	-49.1	12.7	5.83e-05	0	39	0	71303168	62	5109
2026-01-14 06:00:29.69	356.76	9.01	-46.2	-49.7	12.1	1.41e-04	0	40	0	78643200	62	5490
2026-01-14 06:00:30.69	356.64	9.07	-46.7	-50.6	11.3	9.10e-04	0	40	0	85983232	62	6067
2026-01-14 06:00:31.69	356.51	9.13	-49.7	-58.3	4.7	2.23e-01	0	40	0	92274688	68	10435
2026-01-14 06:00:32.69	356.38	9.18	-44.2	-46.6	15.0	1.38e-01	0	40	0	93323264	59	4587
2026-01-14 06:00:33.68	356.26	9.24	-43.1	-45.5	16.3	0.00e+00	0	40	0	100663296	56	4771
2026-01-14 06:00:34.68	356.13	9.30	-43.7	-46.4	15.4	0.00e+00	0	40	0	108003328	56	5286
2026-01-14 06:00:35.68	356.00	9.35	-43.1	-45.4	16.2	3.40e-06	0	40	0	114294784	57	4481
2026-01-14 06:00:36.68	355.87	9.41	-43.0	-45.2	16.5	0.00e+00	0	40	0	121634816	56	4615
2026-01-14 06:00:37.68	355.74	9.47	-42.8	-45.1	16.7	0.00e+00	0	40	0	128974848	56	4552
2026-01-14 06:00:38.68	355.61	9.52	-42.9	-45.1	16.6	0.00e+00	0	40	0	136314880	56	4595
2026-01-14 06:00:39.67	355.48	9.58	-42.9	-45.3	16.5	0.00e+00	0	40	0	143654912	56	4660
2026-01-14 06:00:40.67	355.35	9.64	-43.0	-45.3	16.4	0.00e+00	0	40	0	150994944	56	4688
2026-01-14 06:00:41.67	355.22	9.70	-43.2	-45.4	16.4	0.00e+00	0	40	0	158334976	56	4710
2026-01-14 06:00:42.66	355.09	9.75	-43.3	-45.5	16.2	0.00e+00	0	40	0	165675008	56	4802
2026-01-14 06:00:43.66	354.96	9.81	-43.4	-45.7	16.0	0.00e+00	0	40	0	173015040	56	4892
2026-01-14 06:00:44.66	354.82	9.87	-43.5	-45.9	15.9	0.00e+00	0	40	0	179306496	56	4991
2026-01-14 06:00:45.65	354.69	9.92	-43.4	-45.6	16.2	0.00e+00	0	40	0	186646528	56	4838
2026-01-14 06:00:46.65	354.56	9.98	-43.6	-45.6	16.2	0.00e+00	0	40	0	193986560	56	4827
2026-01-14 06:00:47.65	354.42	10.04	-43.6	-45.6	16.1	0.00e+00	0	40	0	201326592	56	4866
2026-01-14 06:00:48.64	354.29	10.09	-43.7	-45.6	16.1	0.00e+00	0	40	0	208666624	56	4867
2026-01-14 06:00:49.64	354.15	10.15	-43.6	-45.4	16.3	0.00e+00	0	40	0	216006656	56	4758
2026-01-14 06:00:50.63	354.02	10.21	-43.5	-45.3	16.5	0.00e+00	0	40	0	223346688	56	4653
2026-01-14 06:00:51.63	353.88	10.26	-43.5	-45.2	16.6	0.00e+00	0	40	0	229638144	56	4614
2026-01-14 06:00:52.63	353.74	10.32	-43.5	-45.0	16.7	0.00e+00	0	40	0	236978176	56	4538
2026-01-14 06:00:53.62	353.61	10.38	-43.5	-45.0	16.8	0.00e+00	0	40	0	244318208	56	4525
2026-01-14 06:00:54.62	353.47	10.43	-43.5	-45.0	16.7	0.00e+00	0	40	0	251658240	56	4532
2026-01-14 06:00:55.62	353.33	10.49	-43.4	-44.9	16.9	0.00e+00	0	40	0	258998272	56	4465
2026-01-14 06:00:56.61	353.19	10.55	-43.3	-44.8	17.0	0.00e+00	0	40	0	266338304	56	4408
2026-01-14 06:00:57.61	353.05	10.60	-43.2	-44.7	17.1	0.00e+00	0	40	0	273678336	56	4347
2026-01-14 06:00:58.61	352.91	10.66	-43.0	-44.6	17.2	0.00e+00	0	40	0	279969792	56	4304
2026-01-14 06:00:59.61	352.77	10.72	-43.0	-44.7	17.1	0.00e+00	0	40	0	287309824	56	4363
2026-01-14 06:01:00.60	352.63	10.77	-42.8	-44.5	17.3	0.00e+00	0	40	0	294649856	56	4261
2026-01-14 06:01:01.60	352.49	10.83	-42.9	-44.6	17.1	0.00e+00	0	40	0	301989888	56	4335
2026-01-14 06:01:02.59	352.34	10.88	-42.8	-44.6	17.2	0.00e+00	0	40	0	309329920	56	4301
2026-01-14 06:01:03.59	352.20	10.94	-42.8	-44.6	17.2	0.00e+00	0	40	0	316669952	56	4293
2026-01-14 06:01:04.58	352.06	11.00	-42.7	-44.4	17.3	0.00e+00	0	40	0	324009984	56	4230
2026-01-14 06:01:05.58	351.91	11.05	-42.8	-44.5	17.2	0.00e+00	0	40	0	330301440	56	4272
2026-01-14 06:01:06.58	351.77	11.11	-42.7	-44.5	17.3	0.00e+00	0	40	0	337641472	56	4257
2026-01-14 06:01:07.58	351.62	11.16	-42.7	-44.5	17.3	0.00e+00	0	40	0	344981504	56	4244
2026-01-14 06:01:08.58	351.47	11.22	-42.8	-44.5	17.2	0.00e+00	0	40	0	352321536	56	4283
2026-01-14 06:01:09.57	351.33	11.28	-42.9	-44.6	17.2	0.00e+00	0	40	0	359661568	56	4315
2026-01-14 06:01:10.57	351.18	11.33	-42.9	-44.5	17.3	0.00e+00	0	40	0	367001600	56	4290
2026-01-14 06:01:11.57	351.03	11.39	-43.1	-44.7	17.1	0.00e+00	0	40	0	374341632	56	4359
2026-01-14 06:01:12.57	350.88	11.44	-43.1	-44.7	17.1	0.00e+00	0	40	0	380633088	56	4348
2026-01-14 06:01:13.56	350.74	11.50	-43.2	-44.7	17.0	0.00e+00	0	40	0	387973120	56	4385
2026-01-14 06:01:14.56	350.59	11.56	-43.3	-44.8	17.0	0.00e+00	0	40	0	395313152	56	4435
2026-01-14 06:01:15.55	350.44	11.61	-43.3	-44.9	16.9	0.00e+00	0	40	0	402653184	56	4465
2026-01-14 06:01:16.55	350.29	11.67	-43.2	-44.8	17.0	0.00e+00	0	40	0	409993216	56	4423
2026-01-14 06:01:17.55	350.13	11.72	-43.3	-44.9	16.9	0.00e+00	0	40	0	417333248	56	4465
2026-01-14 06:01:18.55	349.98	11.78	-43.2	-44.8	17.0	0.00e+00	0	40	0	424673280	56	4416
2026-01-14 06:01:19.55	349.83	11.83	-43.1	-44.8	17.0	0.00e+00	0	40	0	432013312	56	4393
2026-01-14 06:01:20.55	349.68	11.89	-43.1	-44.8	17.0	0.00e+00	0	40	0	439353344	56	4414
2026-01-14 06:01:21.55	349.52	11.94	-43.0	-44.7	17.1	0.00e+00	0	40	0	445644800	56	4341
2026-01-14 06:01:22.55	349.37	12.00	-42.9	-44.6	17.2	0.00e+00	0	40	0	452984832	56	4321
2026-01-14 06:01:23.55	349.21	12.05	-42.8	-44.6	17.2	0.00e+00	0	40	0	460324864	56	4316
2026-01-14 06:01:24.55	349.06	12.11	-42.7	-44.4	17.3	0.00e+00	0	40	0	467664896	56	4233
2026-01-14 06:01:25.55	348.90	12.16	-42.7	-44.5	17.2	0.00e+00	0	40	0	475004928	56	4288
2026-01-14 06:01:26.55	348.74	12.22	-42.9	-44.7	17.1	0.00e+00	0	40	0	482344960	56	4372
2026-01-14 06:01:27.55	348.58	12.27	-42.7	-44.5	17.3	0.00e+00	0	40	0	489684992	56	4277
2026-01-14 06:01:28.55	348.43	12.33	-42.7	-44.6	17.2	0.00e+00	0	40	0	497025024	56	4296
2026-01-14 06:01:29.56	348.27	12.38	-42.7	-44.4	17.4	0.00e+00	0	40	0	504365056	56	4224
2026-01-14 06:01:30.56	348.11	12.44	-42.8	-44.5	17.3	0.00e+00	0	40	0	510656512	56	4269
2026-01-14 06:01:31.56	347.95	12.49	-42.8	-44.5	17.3	0.00e+00	0	40	0	517996544	56	4271
2026-01-14 06:01:32.56	347.79	12.55	-42.8	-44.4	17.4	0.00e+00	0	40	0	525336576	56	4229
2026-01-14 06:01:33.56	347.62	12.60	-43.0	-44.5	17.3	0.00e+00	0	40	0	532676608	56	4267
2026-01-14 06:01:34.57	347.46	12.66	-43.1	-44.6	17.2	0.00e+00	0	40	0	540016640	56	4307
2026-01-14 06:01:35.57	347.30	12.71	-43.1	-44.5	17.3	0.00e+00	0	40	0	547356672	56	4263
2026-01-14 06:01:36.57	347.13	12.76	-43.2	-44.6	17.3	0.00e+00	0	40	0	554696704	56	4308
2026-01-14 06:01:37.57	346.97	12.82	-43.3	-44.6	17.2	0.00e+00	0	40	0	562036736	56	4339
2026-01-14 06:01:38.57	346.81	12.87	-43.1	-44.5	17.4	0.00e+00	0	40	0	568328192	56	4258
2026-01-14 06:01:39.57	346.64	12.92	-43.1	-44.4	17.4	0.00e+00	0	40	0	575668224	56	4227
2026-01-14 06:01:40.57	346.48	12.98	-43.0	-44.3	17.5	0.00e+00	0	40	0	583008256	56	4161
2026-01-14 06:01:41.57	346.31	13.03	-42.9	-44.3	17.6	0.00e+00	0	40	0	590348288	56	4148
2026-01-14 06:01:42.57	346.14	13.08	-42.9	-44.2	17.7	0.00e+00	0	40	0	597688320	56	4111
2026-01-14 06:01:43.57	345.98	13.14	-42.9	-44.2	17.6	0.00e+00	0	40	0	605028352	56	4114
2026-01-14 06:01:44.57	345.81	13.19	-42.8	-44.1	17.8	0.00e+00	0	40	0	612368384	56	4058
2026-01-14 06:01:45.57	345.64	13.24	-42.9	-44.2	17.6	0.00e+00	0	40	0	619708416	56	4120
2026-01-14 06:01:46.57	345.47	13.30	-42.8	-44.1	17.7	0.00e+00	0	40	0	627048448	56	4089
2026-01-14 06:01:47.57	345.30	13.35	-42.8	-44.0	17.8	0.00e+00	0	40	0	633339904	56	4032
2026-01-14 06:01:48.57	345.13	13.40	-42.9	-44.2	17.7	0.00e+00	0	40	0	640679936	56	4105
2026-01-14 06:01:49.57	344.96	13.45	-42.9	-44.1	17.7	0.00e+00	0	40	0	648019968	56	4075
2026-01-14 06:01:50.57	344.79	13.51	-43.0	-44.2	17.6	0.00e+00	0	40	0	655360000	56	4125
2026-01-14 06:01:51.58	344.61	13.56	-42.8	-44.1	17.8	0.00e+00	0	40	0	662700032	56	4059
2026-01-14 06:01:52.58	344.44	13.61	-42.8	-44.1	17.7	0.00e+00	0	40	0	670040064	56	4086
2026-01-14 06:01:53.58	344.27	13.66	-42.7	-44.0	17.8	0.00e+00	0	40	0	677380096	56	4033
2026-01-14 06:01:54.58	344.09	13.71	-42.6	-43.9	17.9	0.00e+00	0	40	0	684720128	56	3983
2026-01-14 06:01:55.58	343.92	13.76	-42.6	-44.0	17.8	0.00e+00	0	40	0	692060160	56	4025
2026-01-14 06:01:56.58	343.74	13.82	-42.3	-43.7	18.0	0.00e+00	0	40	0	699400192	55	4110
2026-01-14 06:01:57.58	343.57	13.87	-42.3	-43.7	18.0	0.00e+00	0	40	0	705691648	55	4104
2026-01-14 06:01:58.58	343.39	13.92	-42.1	-43.5	18.1	0.00e+00	0	40	0	713031680	55	4038
2026-01-14 06:01:59.58	343.21	13.97	-42.1	-43.4	18.2	0.00e+00	0	40	0	720371712	54	4235
2026-01-14 06:02:00.59	343.03	14.02	-42.1	-43.4	18.2	0.00e+00	0	40	0	727711744	54	4231
2026-01-14 06:02:01.59	342.85	14.07	-42.0	-43.4	18.3	0.00e+00	0	40	0	735051776	54	4215
2026-01-14 06:02:02.59	342.67	14.12	-42.1	-43.4	18.3	0.00e+00	0	40	0	742391808	54	4224
2026-01-14 06:02:03.59	342.49	14.17	-42.1	-43.4	18.3	0.00e+00	0	40	0	749731840	54	4199
2026-01-14 06:02:04.60	342.31	14.22	-42.1	-43.4	18.2	0.00e+00	0	40	0	757071872	54	4236
2026-01-14 06:02:05.60	342.13	14.27	-42.1	-43.4	18.3	0.00e+00	0	40	0	764411904	54	4221
2026-01-14 06:02:06.60	341.95	14.32	-42.1	-43.4	18.3	0.00e+00	0	40	0	771751936	54	4220
2026-01-14 06:02:07.61	341.77	14.37	-42.1	-43.4	18.3	0.00e+00	0	40	0	778043392	54	4224
2026-01-14 06:02:08.61	341.58	14.42	-42.2	-43.5	18.2	0.00e+00	0	40	0	785383424	54	4244
2026-01-14 06:02:09.61	341.40	14.47	-42.2	-43.5	18.2	0.00e+00	0	40	0	792723456	54	4243
2026-01-14 06:02:10.61	341.21	14.52	-42.2	-43.6	18.1	0.00e+00	0	40	0	800063488	54	4296
2026-01-14 06:02:11.62	341.03	14.57	-42.2	-43.5	18.2	0.00e+00	0	40	0	807403520	54	4269
2026-01-14 06:02:12.62	340.84	14.61	-42.3	-43.5	18.2	0.00e+00	0	40	0	814743552	54	4289
2026-01-14 06:02:13.62	340.66	14.66	-42.2	-43.4	18.3	0.00e+00	0	40	0	822083584	54	4227
2026-01-14 06:02:14.62	340.47	14.71	-42.2	-43.4	18.3	0.00e+00	0	40	0	829423616	54	4216
2026-01-14 06:02:15.61	340.28	14.76	-42.2	-43.4	18.4	0.00e+00	0	40	0	836763648	54	4202
2026-01-14 06:02:16.62	340.09	14.80	-42.2	-43.3	18.4	0.00e+00	0	40	0	843055104	54	4169
2026-01-14 06:02:17.62	339.91	14.85	-42.2	-43.3	18.4	0.00e+00	0	40	0	850395136	54	4184
2026-01-14 06:02:18.62	339.72	14.90	-42.1	-43.3	18.4	0.00e+00	0	40	0	857735168	54	4155
2026-01-14 06:02:19.62	339.53	14.95	-42.2	-43.4	18.3	0.00e+00	0	40	0	865075200	54	4207
2026-01-14 06:02:20.62	339.34	14.99	-42.3	-43.4	18.3	0.00e+00	0	40	0	872415232	54	4220
2026-01-14 06:02:21.63	339.14	15.04	-42.1	-43.3	18.4	0.00e+00	0	40	0	879755264	54	4174
2026-01-14 06:02:22.63	338.95	15.09	-42.0	-43.2	18.5	0.00e+00	0	40	0	887095296	54	4099
2026-01-14 06:02:23.63	338.76	15.13	-42.0	-43.2	18.5	0.00e+00	0	40	0	894435328	54	4112
2026-01-14 06:02:24.63	338.57	15.18	-41.9	-43.1	18.6	0.00e+00	0	40	0	900726784	54	4057
2026-01-14 06:02:25.63	338.38	15.22	-42.0	-43.2	18.5	0.00e+00	0	40	0	908066816	54	4106
2026-01-14 06:02:26.63	338.18	15.27	-42.0	-43.2	18.5	0.00e+00	0	40	0	915406848	54	4105
2026-01-14 06:02:27.63	337.99	15.31	-42.2	-43.3	18.4	0.00e+00	0	40	0	922746880	54	4162
2026-01-14 06:02:28.64	337.79	15.36	-42.1	-43.2	18.5	0.00e+00	0	40	0	930086912	54	4122
2026-01-14 06:02:29.64	337.59	15.40	-42.0	-43.1	18.6	0.00e+00	0	40	0	937426944	54	4052
2026-01-14 06:02:30.64	337.40	15.45	-42.0	-43.2	18.5	0.00e+00	0	40	0	944766976	54	4110
2026-01-14 06:02:31.64	337.20	15.49	-42.0	-43.1	18.6	0.00e+00	0	40	0	952107008	54	4093
2026-01-14 06:02:32.65	337.00	15.53	-42.1	-43.3	18.4	0.00e+00	0	40	0	959447040	54	4170
2026-01-14 06:02:33.65	336.80	15.58	-42.2	-43.3	18.4	0.00e+00	0	40	0	966787072	54	4187
2026-01-14 06:02:34.65	336.60	15.62	-42.2	-43.3	18.4	0.00e+00	0	40	0	974127104	54	4175
2026-01-14 06:02:35.65	336.41	15.66	-42.3	-43.4	18.4	0.00e+00	0	40	0	981467136	54	4211
2026-01-14 06:02:36.65	336.21	15.71	-42.4	-43.5	18.3	0.00e+00	0	40	0	987758592	54	4263
2026-01-14 06:02:37.66	336.00	15.75	-42.2	-43.3	18.4	0.00e+00	0	40	0	995098624	54	4179
2026-01-14 06:02:38.65	335.80	15.79	-42.3	-43.4	18.3	0.00e+00	0	40	0	1002438656	54	4241
2026-01-14 06:02:39.66	335.60	15.83	-42.2	-43.4	18.4	0.00e+00	0	40	0	1009778688	54	4196
2026-01-14 06:02:40.66	335.40	15.87	-42.1	-43.3	18.5	0.00e+00	0	40	0	1017118720	54	4146
2026-01-14 06:02:41.66	335.20	15.91	-42.1	-43.4	18.4	0.00e+00	0	40	0	1024458752	54	4195
2026-01-14 06:02:42.66	334.99	15.96	-42.0	-43.3	18.5	0.00e+00	0	40	0	1031798784	54	4167
2026-01-14 06:02:43.66	334.79	16.00	-42.0	-43.3	18.5	0.00e+00	0	40	0	1039138816	54	4152
2026-01-14 06:02:44.66	334.58	16.04	-42.0	-43.2	18.6	0.00e+00	0	40	0	1046478848	54	4107
2026-01-14 06:02:45.66	334.38	16.08	-42.1	-43.3	18.4	0.00e+00	0	40	0	1052770304	54	4177
2026-01-14 06:02:46.66	334.17	16.12	-42.1	-43.2	18.5	0.00e+00	0	40	0	1060110336	54	4139
2026-01-14 06:02:47.67	333.97	16.16	-42.1	-43.2	18.6	0.00e+00	0	40	0	1067450368	54	4119
2026-01-14 06:02:48.66	333.76	16.19	-42.0	-43.1	18.7	0.00e+00	0	40	0	1074790400	54	4078
2026-01-14 06:02:49.67	333.55	16.23	-42.0	-43.1	18.7	0.00e+00	0	40	0	1082130432	54	4071
2026-01-14 06:02:50.67	333.34	16.27	-41.9	-43.1	18.7	0.00e+00	0	40	0	1089470464	54	4053
2026-01-14 06:02:51.67	333.14	16.31	-41.7	-42.9	18.9	0.00e+00	0	40	0	1096810496	54	3961
2026-01-14 06:02:52.67	332.93	16.35	-41.6	-42.8	19.0	0.00e+00	0	40	0	1104150528	54	3915
2026-01-14 06:02:53.67	332.72	16.38	-41.4	-42.6	19.1	0.00e+00	0	40	0	1110441984	53	4068
2026-01-14 06:02:54.68	332.51	16.42	-41.5	-42.7	19.0	0.00e+00	0	40	0	1117782016	53	4109
2026-01-14 06:02:55.67	332.30	16.46	-41.6	-42.8	18.9	0.00e+00	0	40	0	1125122048	53	4155
2026-01-14 06:02:56.68	332.09	16.49	-41.5	-42.6	19.1	0.00e+00	0	40	0	1132462080	53	4083
2026-01-14 06:02:57.68	331.87	16.53	-41.6	-42.7	19.0	0.00e+00	0	40	0	1139802112	53	4134
2026-01-14 06:02:58.68	331.66	16.57	-41.6	-42.7	19.0	0.00e+00	0	40	0	1147142144	53	4104
2026-01-14 06:02:59.68	331.45	16.60	-41.7	-42.7	19.0	0.00e+00	0	40	0	1154482176	53	4141
2026-01-14 06:03:00.68	331.24	16.64	-41.7	-42.8	18.9	0.00e+00	0	40	0	1161822208	53	4163
2026-01-14 06:03:01.69	331.02	16.67	-41.7	-42.8	18.9	0.00e+00	0	40	0	1169162240	53	4175
2026-01-14 06:03:02.69	330.81	16.71	-41.7	-42.8	19.0	0.00e+00	0	40	0	1176502272	53	4156
2026-01-14 06:03:03.68	330.60	16.74	-41.8	-42.9	18.9	0.00e+00	0	40	0	1183842304	53	4204
2026-01-14 06:03:04.69	330.38	16.77	-41.8	-42.9	18.8	0.00e+00	0	40	0	1191182336	53	4225
2026-01-14 06:03:05.69	330.16	16.81	-41.7	-42.9	18.9	0.00e+00	0	40	0	1197473792	53	4195
2026-01-14 06:03:06.69	329.95	16.84	-41.7	-42.8	18.9	0.00e+00	0	40	0	1204813824	53	4167
2026-01-14 06:03:07.69	329.73	16.87	-41.7	-42.8	19.0	0.00e+00	0	40	0	1212153856	53	4160
2026-01-14 06:03:08.69	329.51	16.90	-41.8	-42.9	18.9	0.00e+00	0	40	0	1219493888	53	4200
2026-01-14 06:03:09.69	329.30	16.94	-41.9	-43.0	18.7	0.00e+00	0	40	0	1226833920	53	4279
2026-01-14 06:03:10.69	329.08	16.97	-41.9	-43.0	18.8	0.00e+00	0	40	0	1234173952	53	4243
2026-01-14 06:03:11.69	328.86	17.00	-42.0	-43.1	18.7	0.00e+00	0	40	0	1241513984	53	4301
2026-01-14 06:03:12.69	328.64	17.03	-41.9	-43.0	18.8	0.00e+00	0	40	0	1248854016	53	4250
2026-01-14 06:03:13.69	328.42	17.06	-41.9	-43.0	18.8	0.00e+00	0	40	0	1256194048	53	4262
2026-01-14 06:03:14.69	328.20	17.09	-41.9	-43.0	18.8	0.00e+00	0	40	0	1262485504	53	4275
2026-01-14 06:03:15.69	327.98	17.12	-41.8	-42.9	18.9	0.00e+00	0	40	0	1269825536	53	4223
2026-01-14 06:03:16.69	327.76	17.15	-41.8	-42.9	18.8	0.00e+00	0	40	0	1277165568	53	4240
2026-01-14 06:03:17.70	327.54	17.18	-41.7	-42.8	18.9	0.00e+00	0	40	0	1284505600	53	4183
2026-01-14 06:03:18.69	327.32	17.20	-41.6	-42.7	19.0	0.00e+00	0	40	0	1291845632	53	4130
2026-01-14 06:03:19.70	327.10	17.23	-41.6	-42.7	19.1	0.00e+00	0	40	0	1299185664	53	4126
2026-01-14 06:03:20.70	326.87	17.26	-41.7	-42.8	19.0	0.00e+00	0	40	0	1306525696	53	4180
2026-01-14 06:03:21.70	326.65	17.29	-41.6	-42.7	19.0	0.00e+00	0	40	0	1313865728	53	4136
2026-01-14 06:03:22.70	326.43	17.31	-41.6	-42.8	19.0	0.00e+00	0	40	0	1320157184	53	4150
2026-01-14 06:03:23.70	326.21	17.34	-41.5	-42.7	19.1	0.00e+00	0	40	0	1327497216	53	4108
2026-01-14 06:03:24.70	325.98	17.36	-41.5	-42.7	19.0	0.00e+00	0	40	0	1334837248	53	4131
2026-01-14 06:03:25.70	325.76	17.39	-41.5	-42.6	19.1	0.00e+00	0	40	0	1342177280	53	4098
2026-01-14 06:03:26.70	325.53	17.41	-41.6	-42.7	19.0	0.00e+00	0	40	0	1349517312	53	4143
2026-01-14 06:03:27.70	325.31	17.44	-41.7	-42.8	19.0	0.00e+00	0	40	0	1356857344	53	4153
2026-01-14 06:03:28.71	325.08	17.46	-41.7	-42.8	19.0	0.00e+00	0	40	0	1364197376	53	4174
2026-01-14 06:03:29.71	324.86	17.49	-41.7	-42.8	19.0	0.00e+00	0	40	0	1371537408	53	4154
2026-01-14 06:03:30.71	324.63	17.51	-41.5	-42.5	19.2	0.00e+00	0	40	0	1378877440	53	4047
2026-01-14 06:03:31.72	324.40	17.53	-41.5	-42.5	19.2	0.00e+00	0	40	0	1385168896	53	4024
2026-01-14 06:03:32.72	324.17	17.55	-41.4	-42.5	19.3	0.00e+00	0	40	0	1392508928	53	4015
2026-01-14 06:03:33.72	323.95	17.58	-41.3	-42.3	19.4	0.00e+00	0	40	0	1399848960	53	3946
2026-01-14 06:03:34.72	323.72	17.60	-41.3	-42.3	19.4	0.00e+00	0	40	0	1407188992	53	3925
2026-01-14 06:03:35.72	323.49	17.62	-41.4	-42.4	19.4	0.00e+00	0	40	0	1414529024	53	3974
2026-01-14 06:03:36.73	323.26	17.64	-41.3	-42.3	19.5	0.00e+00	0	40	0	1421869056	53	3926
2026-01-14 06:03:37.73	323.03	17.66	-41.3	-42.3	19.5	0.00e+00	0	40	0	1429209088	53	3927
2026-01-14 06:03:38.73	322.81	17.68	-41.2	-42.2	19.5	0.00e+00	0	40	0	1436549120	53	3906
2026-01-14 06:03:39.73	322.58	17.70	-41.2	-42.2	19.5	0.00e+00	0	40	0	1443889152	53	3892
2026-01-14 06:03:40.73	322.35	17.72	-41.2	-42.3	19.5	0.00e+00	0	40	0	1450180608	53	3914
2026-01-14 06:03:41.73	322.12	17.73	-41.2	-42.2	19.5	0.00e+00	0	40	0	1457520640	53	3881
2026-01-14 06:03:42.73	321.89	17.75	-41.2	-42.2	19.6	0.00e+00	0	40	0	1465909248	53	3887
2026-01-14 06:03:43.73	321.66	17.77	-41.2	-42.2	19.5	0.00e+00	0	40	0	1472200704	53	3906
2026-01-14 06:03:44.74	321.43	17.79	-41.1	-42.1	19.6	0.00e+00	0	40	0	1479540736	53	3848
2026-01-14 06:03:45.74	321.19	17.80	-41.2	-42.2	19.6	0.00e+00	0	40	0	1486880768	53	3876
2026-01-14 06:03:46.74	320.96	17.82	-41.1	-42.1	19.6	0.00e+00	0	40	0	1494220800	53	3855
2026-01-14 06:03:47.75	320.73	17.83	-41.1	-42.2	19.6	0.00e+00	0	40	0	1501560832	53	3871
2026-01-14 06:03:48.75	320.50	17.85	-41.2	-42.2	19.5	0.00e+00	0	40	0	1508900864	53	3889
2026-01-14 06:03:49.75	320.27	17.86	-41.2	-42.3	19.5	0.00e+00	0	40	0	1516240896	53	3917
2026-01-14 06:03:50.75	320.04	17.88	-41.3	-42.3	19.4	0.00e+00	0	40	0	1523580928	53	3946
2026-01-14 06:03:51.75	319.80	17.89	-41.3	-42.4	19.4	0.00e+00	0	40	0	1529872384	53	3964
2026-01-14 06:03:52.75	319.57	17.90	-41.4	-42.4	19.3	0.00e+00	0	40	0	1537212416	53	3994
2026-01-14 06:03:53.76	319.34	17.92	-41.3	-42.4	19.4	0.00e+00	0	40	0	1544552448	53	3959
2026-01-14 06:03:54.76	319.10	17.93	-41.3	-42.3	19.4	0.00e+00	0	40	0	1551892480	53	3947
2026-01-14 06:03:55.76	318.87	17.94	-41.3	-42.3	19.4	0.00e+00	0	40	0	1559232512	53	3958
2026-01-14 06:03:56.76	318.64	17.95	-41.2	-42.3	19.5	0.00e+00	0	40	0	1566572544	53	3925
2026-01-14 06:03:57.76	318.41	17.96	-41.2	-42.2	19.5	0.00e+00	0	40	0	1573912576	53	3911
2026-01-14 06:03:58.76	318.17	17.97	-41.1	-42.1	19.6	0.00e+00	0	40	0	1581252608	53	3867
2026-01-14 06:03:59.77	317.94	17.98	-41.2	-42.3	19.5	0.00e+00	0	40	0	1588592640	53	3920
2026-01-14 06:04:00.77	317.70	17.99	-41.1	-42.1	19.6	0.00e+00	0	40	0	1594884096	53	3856
2026-01-14 06:04:01.77	317.47	18.00	-41.1	-42.1	19.6	0.00e+00	0	40	0	1602224128	52	4089
2026-01-14 06:04:02.77	317.24	18.01	-41.1	-42.1	19.6	0.00e+00	0	40	0	1609564160	52	4083
2026-01-14 06:04:03.77	317.00	18.01	-41.1	-42.2	19.6	0.00e+00	0	40	0	1616904192	52	4099
2026-01-14 06:04:04.77	316.77	18.02	-41.1	-42.1	19.6	0.00e+00	0	40	0	1624244224	52	4074
2026-01-14 06:04:05.77	316.53	18.03	-40.9	-41.9	19.8	0.00e+00	0	40	0	1631584256	52	3993
2026-01-14 06:04:06.77	316.30	18.03	-41.0	-42.0	19.8	0.00e+00	0	40	0	1638924288	52	4008
2026-01-14 06:04:07.77	316.06	18.04	-41.0	-42.0	19.7	0.00e+00	0	40	0	1646264320	52	4024
2026-01-14 06:04:08.78	315.83	18.05	-41.0	-42.0	19.8	0.00e+00	0	40	0	1652555776	52	4017
2026-01-14 06:04:09.78	315.59	18.05	-40.9	-41.9	19.8	0.00e+00	0	40	0	1659895808	52	3964
2026-01-14 06:04:10.78	315.36	18.05	-40.9	-41.9	19.8	0.00e+00	0	40	0	1667235840	52	3974
2026-01-14 06:04:11.78	315.12	18.06	-40.9	-41.8	19.9	0.00e+00	0	40	0	1674575872	52	3953
2026-01-14 06:04:12.78	314.89	18.06	-40.9	-41.9	19.8	0.00e+00	0	40	0	1681915904	52	3984
2026-01-14 06:04:13.78	314.65	18.06	-41.1	-42.1	19.7	0.00e+00	0	40	0	1689255936	52	4056
2026-01-14 06:04:14.78	314.42	18.07	-41.0	-42.0	19.7	0.00e+00	0	40	0	1696595968	52	4030
2026-01-14 06:04:15.78	314.18	18.07	-41.0	-42.0	19.7	0.00e+00	0	40	0	1703936000	52	4045
2026-01-14 06:04:16.78	313.95	18.07	-41.1	-42.1	19.6	0.00e+00	0	40	0	1711276032	52	4070
2026-01-14 06:04:17.78	313.71	18.07	-41.2	-42.2	19.6	0.00e+00	0	40	0	1717567488	52	4106
2026-01-14 06:04:18.78	313.48	18.07	-41.1	-42.1	19.6	0.00e+00	0	40	0	1724907520	52	4080
2026-01-14 06:04:19.78	313.24	18.07	-41.1	-42.1	19.6	0.00e+00	0	40	0	1733296128	52	4062
2026-01-14 06:04:20.79	313.01	18.07	-41.1	-42.1	19.6	0.00e+00	0	40	0	1739587584	52	4077
2026-01-14 06:04:21.79	312.77	18.07	-41.1	-42.1	19.6	0.00e+00	0	40	0	1746927616	52	4088
2026-01-14 06:04:22.79	312.54	18.07	-41.1	-42.1	19.6	0.00e+00	0	40	0	1754267648	52	4083
2026-01-14 06:04:23.79	312.30	18.06	-41.2	-42.2	19.5	0.00e+00	0	40	0	1761607680	52	4110
2026-01-14 06:04:24.79	312.07	18.06	-41.3	-42.3	19.4	0.00e+00	0	40	0	1768947712	52	4155
2026-01-14 06:04:25.79	311.83	18.06	-41.3	-42.3	19.5	0.00e+00	0	40	0	1776287744	52	4160
2026-01-14 06:04:26.79	311.60	18.05	-41.3	-42.3	19.4	0.00e+00	0	40	0	1783627776	52	4165
2026-01-14 06:04:27.79	311.36	18.05	-41.3	-42.3	19.4	0.00e+00	0	40	0	1790967808	52	4190
2026-01-14 06:04:28.80	311.13	18.05	-41.3	-42.3	19.4	0.00e+00	0	40	0	1798307840	52	4170
2026-01-14 06:04:29.80	310.89	18.04	-41.2	-42.2	19.5	0.00e+00	0	40	0	1804599296	52	4133
2026-01-14 06:04:30.80	310.66	18.03	-41.1	-42.1	19.6	0.00e+00	0	40	0	1811939328	52	4089
2026-01-14 06:04:31.80	310.42	18.03	-41.2	-42.2	19.5	0.00e+00	0	40	0	1819279360	52	4117
2026-01-14 06:04:32.80	310.19	18.02	-41.2	-42.3	19.5	0.00e+00	0	40	0	1826619392	52	4146
2026-01-14 06:04:33.81	309.95	18.01	-41.0	-42.0	19.7	0.00e+00	0	40	0	1833959424	52	4047
2026-01-14 06:04:34.81	309.72	18.01	-41.1	-42.1	19.6	0.00e+00	0	40	0	1841299456	52	4058
2026-01-14 06:04:35.81	309.48	18.00	-41.2	-42.2	19.6	0.00e+00	0	40	0	1848639488	52	4118
2026-01-14 06:04:36.81	309.25	17.99	-41.3	-42.3	19.5	0.00e+00	0	40	0	1855979520	52	4151
2026-01-14 06:04:37.81	309.02	17.98	-41.3	-42.3	19.4	0.00e+00	0	40	0	1862270976	52	4191
2026-01-14 06:04:38.81	308.78	17.97	-41.3	-42.3	19.5	0.00e+00	0	40	0	1869611008	52	4159
2026-01-14 06:04:39.81	308.55	17.96	-41.2	-42.2	19.5	0.00e+00	0	40	0	1876951040	52	4140
2026-01-14 06:04:40.81	308.31	17.95	-41.2	-42.2	19.5	0.00e+00	0	40	0	1884291072	52	4119
2026-01-14 06:04:41.82	308.08	17.94	-41.3	-42.3	19.4	0.00e+00	0	40	0	1891631104	52	4173
2026-01-14 06:04:42.82	307.85	17.93	-41.1	-42.1	19.6	0.00e+00	0	40	0	1898971136	52	4061
2026-01-14 06:04:43.82	307.61	17.92	-41.0	-42.0	19.7	0.00e+00	0	40	0	1906311168	52	4015
2026-01-14 06:04:44.82	307.38	17.90	-41.0	-42.0	19.7	0.00e+00	0	40	0	1913651200	52	4051
2026-01-14 06:04:45.81	307.15	17.89	-41.0	-42.0	19.7	0.00e+00	0	40	0	1920991232	52	4042
2026-01-14 06:04:46.82	306.92	17.88	-41.0	-42.0	19.7	0.00e+00	0	40	0	1927282688	52	4034
2026-01-14 06:04:47.82	306.68	17.86	-41.1	-42.1	19.6	0.00e+00	0	40	0	1934622720	52	4079
2026-01-14 06:04:48.82	306.45	17.85	-41.1	-42.1	19.6	0.00e+00	0	40	0	1941962752	52	4097
2026-01-14 06:04:49.81	306.22	17.83	-41.2	-42.2	19.5	0.00e+00	0	40	0	1949302784	52	4121
2026-01-14 06:04:50.81	305.99	17.82	-41.2	-42.2	19.6	0.00e+00	0	40	0	1956642816	52	4101
2026-01-14 06:04:51.82	305.76	17.80	-41.2	-42.2	19.5	0.00e+00	0	40	0	1963982848	52	4136
2026-01-14 06:04:52.82	305.53	17.79	-41.2	-42.2	19.5	0.00e+00	0	40	0	1971322880	52	4120
2026-01-14 06:04:53.82	305.30	17.77	-41.2	-42.2	19.5	0.00e+00	0	40	0	1978662912	52	4136
2026-01-14 06:04:54.82	305.07	17.75	-41.2	-42.2	19.6	0.00e+00	0	40	0	1986002944	52	4104
2026-01-14 06:04:55.82	304.84	17.73	-41.2	-42.3	19.4	0.00e+00	0	40	0	1992294400	52	4157
2026-01-14 06:04:56.82	304.61	17.72	-41.2	-42.2	19.5	0.00e+00	0	40	0	1999634432	52	4144
2026-01-14 06:04:57.82	304.38	17.70	-41.1	-42.1	19.6	0.00e+00	0	40	0	2006974464	52	4090
2026-01-14 06:04:58.82	304.15	17.68	-41.3	-42.3	19.5	0.00e+00	0	40	0	2014314496	52	4160
2026-01-14 06:04:59.82	303.92	17.66	-41.2	-42.2	19.5	0.00e+00	0	40	0	2021654528	52	4139
2026-01-14 06:05:00.82	303.69	17.64	-41.3	-42.3	19.4	0.00e+00	0	40	0	2028994560	52	4163
2026-01-14 06:05:01.82	303.46	17.62	-41.3	-42.4	19.4	0.00e+00	0	40	0	2036334592	52	4199
2026-01-14 06:05:02.82	303.23	17.60	-41.2	-42.3	19.5	0.00e+00	0	40	0	2043674624	52	4147
2026-01-14 06:05:03.82	303.01	17.58	-41.3	-42.3	19.4	0.00e+00	0	40	0	2049966080	52	4151
2026-01-14 06:05:04.82	302.78	17.56	-41.3	-42.3	19.5	0.00e+00	0	40	0	2057306112	52	4148
2026-01-14 06:05:05.81	302.55	17.53	-41.3	-42.3	19.5	0.00e+00	0	40	0	2064646144	52	4149
2026-01-14 06:05:06.81	302.33	17.51	-41.2	-42.2	19.6	0.00e+00	0	40	0	2071986176	52	4106
2026-01-14 06:05:07.81	302.10	17.49	-41.3	-42.3	19.4	0.00e+00	0	40	0	2079326208	52	4165
2026-01-14 06:05:08.81	301.87	17.46	-41.3	-42.3	19.4	0.00e+00	0	40	0	2086666240	52	4178
2026-01-14 06:05:09.81	301.65	17.44	-41.3	-42.3	19.4	0.00e+00	0	40	0	2094006272	52	4160
2026-01-14 06:05:10.81	301.42	17.42	-41.3	-42.4	19.4	0.00e+00	0	40	0	2101346304	52	4199
2026-01-14 06:05:11.81	301.20	17.39	-41.3	-42.3	19.4	0.00e+00	0	40	0	2108686336	52	4178
2026-01-14 06:05:12.81	300.97	17.37	-41.4	-42.4	19.3	0.00e+00	0	40	0	2114977792	52	4215
2026-01-14 06:05:13.81	300.75	17.34	-41.4	-42.4	19.3	0.00e+00	0	40	0	2122317824	52	4219
2026-01-14 06:05:14.81	300.53	17.31	-41.4	-42.4	19.3	0.00e+00	0	40	0	2129657856	52	4241
2026-01-14 06:05:15.81	300.30	17.29	-41.5	-42.5	19.2	0.00e+00	0	40	0	2136997888	52	4279
2026-01-14 06:05:16.81	300.08	17.26	-41.6	-42.7	19.1	0.00e+00	0	40	0	2144337920	52	4345
2026-01-14 06:05:17.81	299.86	17.23	-41.6	-42.6	19.1	0.00e+00	0	40	0	2151677952	52	4310
2026-01-14 06:05:18.81	299.63	17.21	-41.4	-42.5	19.2	0.00e+00	0	40	0	2159017984	52	4250
2026-01-14 06:05:19.80	299.41	17.18	-41.4	-42.4	19.3	0.00e+00	0	40	0	2166358016	52	4216
2026-01-14 06:05:20.80	299.19	17.15	-41.5	-42.6	19.1	0.00e+00	0	40	0	2172649472	52	4298
2026-01-14 06:05:21.79	298.97	17.12	-41.4	-42.4	19.3	0.00e+00	0	40	0	2179989504	52	4224
2026-01-14 06:05:22.79	298.75	17.09	-41.4	-42.4	19.3	0.00e+00	0	40	0	2187329536	52	4215
2026-01-14 06:05:23.79	298.53	17.06	-41.4	-42.4	19.2	0.00e+00	0	40	0	2194669568	52	4238
2026-01-14 06:05:24.79	298.31	17.03	-41.4	-42.5	19.2	0.00e+00	0	40	0	2202009600	52	4254
2026-01-14 06:05:25.79	298.09	17.00	-41.5	-42.5	19.1	0.00e+00	0	40	0	2209349632	52	4278
2026-01-14 06:05:26.79	297.87	16.97	-41.5	-42.5	19.2	0.00e+00	0	40	0	2216689664	52	4278
2026-01-14 06:05:27.79	297.66	16.94	-41.4	-42.4	19.2	0.00e+00	0	40	0	2224029696	52	4235
2026-01-14 06:05:28.79	297.44	16.91	-41.3	-42.4	19.3	0.00e+00	0	40	0	2231369728	52	4203
2026-01-14 06:05:29.79	297.22	16.87	-41.3	-42.3	19.4	0.00e+00	0	40	0	2237661184	52	4190
2026-01-14 06:05:30.79	297.00	16.84	-41.4	-42.4	19.3	0.00e+00	0	40	0	2245001216	52	4228
2026-01-14 06:05:31.79	296.79	16.81	-41.4	-42.5	19.2	0.00e+00	0	40	0	2252341248	52	4254
2026-01-14 06:05:32.79	296.57	16.78	-41.5	-42.5	19.2	0.00e+00	0	40	0	2259681280	52	4281
2026-01-14 06:05:33.79	296.36	16.74	-41.5	-42.6	19.2	0.00e+00	0	40	0	2267021312	52	4302
2026-01-14 06:05:34.79	296.14	16.71	-41.6	-42.7	19.0	0.00e+00	0	40	0	2274361344	52	4366
2026-01-14 06:05:35.80	295.92	16.67	-41.7	-42.8	18.9	0.00e+00	0	40	0	2281701376	52	4401
2026-01-14 06:05:36.79	295.71	16.64	-41.8	-42.8	18.9	0.00e+00	0	40	0	2289041408	53	4188
2026-01-14 06:05:37.79	295.50	16.61	-41.8	-42.8	18.8	0.00e+00	0	40	0	2296381440	53	4188
2026-01-14 06:05:38.80	295.28	16.57	-41.8	-42.9	18.8	0.00e+00	0	40	0	2302672896	53	4196
2026-01-14 06:05:39.80	295.07	16.53	-41.8	-42.9	18.7	0.00e+00	0	40	0	2310012928	53	4203
2026-01-14 06:05:40.80	294.86	16.50	-41.7	-42.8	18.8	0.00e+00	0	40	0	2317352960	53	4155
2026-01-14 06:05:41.80	294.65	16.46	-41.5	-42.5	19.0	0.00e+00	0	40	0	2324692992	53	4035
2026-01-14 06:05:42.80	294.44	16.42	-41.3	-42.3	19.1	0.00e+00	0	40	0	2332033024	53	3955
2026-01-14 06:05:43.80	294.22	16.39	-41.3	-42.4	19.1	0.00e+00	0	40	0	2339373056	53	3968
2026-01-14 06:05:44.80	294.01	16.35	-41.3	-42.3	19.1	0.00e+00	0	40	0	2346713088	53	3941
2026-01-14 06:05:45.80	293.81	16.31	-41.3	-42.3	19.0	0.00e+00	0	40	0	2354053120	53	3955
2026-01-14 06:05:46.80	293.60	16.27	-41.4	-42.4	18.9	0.00e+00	0	40	0	2360344576	53	3984
2026-01-14 06:05:47.80	293.39	16.24	-41.4	-42.5	18.8	0.00e+00	0	40	0	2367684608	53	4005
2026-01-14 06:05:48.80	293.18	16.20	-41.5	-42.6	18.7	0.00e+00	0	40	0	2375024640	53	4057
2026-01-14 06:05:49.80	292.97	16.16	-41.5	-42.6	18.7	0.00e+00	0	40	0	2382364672	53	4078
2026-01-14 06:05:50.80	292.77	16.12	-41.5	-42.6	18.7	0.00e+00	0	40	0	2389704704	53	4072
2026-01-14 06:05:51.80	292.56	16.08	-41.5	-42.6	18.6	0.00e+00	0	40	0	2397044736	53	4079
2026-01-14 06:05:52.80	292.35	16.04	-41.6	-42.6	18.6	0.00e+00	0	40	0	2404384768	53	4093
2026-01-14 06:05:53.80	292.15	16.00	-41.5	-42.6	18.7	0.00e+00	0	40	0	2411724800	53	4060
2026-01-14 06:05:54.80	291.94	15.96	-41.4	-42.5	18.7	0.00e+00	0	40	0	2419064832	53	4032
2026-01-14 06:05:55.79	291.74	15.92	-41.4	-42.5	18.7	0.00e+00	0	40	0	2425356288	53	4017
2026-01-14 06:05:56.79	291.54	15.88	-41.4	-42.4	18.8	0.00e+00	0	40	0	2432696320	53	3984
2026-01-14 06:05:57.79	291.34	15.84	-41.3	-42.3	18.8	0.00e+00	0	40	0	2440036352	53	3948
2026-01-14 06:05:58.79	291.13	15.79	-41.2	-42.2	18.7	0.00e+00	0	40	0	2447376384	53	3897
2026-01-14 06:05:59.79	290.93	15.75	-41.2	-42.3	18.8	0.00e+00	0	40	0	2454716416	53	3931
2026-01-14 06:06:00.79	290.73	15.71	-41.2	-42.3	18.9	0.00e+00	0	40	0	2462056448	53	3914
2026-01-14 06:06:01.79	290.53	15.67	-41.2	-42.3	18.8	0.00e+00	0	40	0	2469396480	53	3920
2026-01-14 06:06:02.80	290.33	15.62	-41.3	-42.3	18.7	0.00e+00	0	40	0	2476736512	53	3949
2026-01-14 06:06:03.80	290.13	15.58	-41.3	-42.4	18.7	0.00e+00	0	40	0	2484076544	53	3963
2026-01-14 06:06:04.80	289.93	15.54	-41.3	-42.4	18.7	0.00e+00	0	40	0	2490368000	53	3965
2026-01-14 06:06:05.80	289.73	15.49	-41.3	-42.4	18.7	0.00e+00	0	40	0	2497708032	53	3987
2026-01-14 06:06:06.80	289.53	15.45	-41.3	-42.4	18.7	0.00e+00	0	40	0	2505048064	53	3976
2026-01-14 06:06:07.80	289.34	15.40	-41.3	-42.3	18.7	0.00e+00	0	40	0	2512388096	53	3954
2026-01-14 06:06:08.80	289.14	15.36	-41.2	-42.3	18.7	0.00e+00	0	40	0	2519728128	53	3926
2026-01-14 06:06:09.80	288.94	15.32	-41.2	-42.3	18.7	0.00e+00	0	40	0	2527068160	53	3937
2026-01-14 06:06:10.80	288.75	15.27	-41.2	-42.3	18.7	0.00e+00	0	40	0	2534408192	53	3940
2026-01-14 06:06:11.80	288.55	15.23	-41.3	-42.4	18.6	0.00e+00	0	40	0	2541748224	53	3970
2026-01-14 06:06:12.80	288.36	15.18	-41.2	-42.3	18.7	0.00e+00	0	40	0	2548039680	53	3939
2026-01-14 06:06:13.79	288.17	15.13	-41.2	-42.3	18.7	0.00e+00	0	40	0	2555379712	53	3932
2026-01-14 06:06:14.79	287.97	15.09	-41.1	-42.2	18.8	0.00e+00	0	40	0	2562719744	53	3880
2026-01-14 06:06:15.79	287.78	15.04	-41.2	-42.3	18.7	0.00e+00	0	40	0	2570059776	53	3927
2026-01-14 06:06:16.79	287.59	15.00	-41.1	-42.2	18.7	0.00e+00	0	40	0	2577399808	53	3884
2026-01-14 06:06:17.79	287.40	14.95	-41.2	-42.3	18.7	0.00e+00	0	40	0	2584739840	53	3921
2026-01-14 06:06:18.78	287.21	14.90	-41.2	-42.3	18.6	0.00e+00	0	40	0	2592079872	53	3941
2026-01-14 06:06:19.78	287.02	14.86	-41.3	-42.4	18.6	0.00e+00	0	40	0	2598371328	53	3964
2026-01-14 06:06:20.77	286.83	14.81	-41.3	-42.3	18.6	0.00e+00	0	40	0	2605711360	53	3949
2026-01-14 06:06:21.77	286.64	14.76	-41.2	-42.3	18.6	0.00e+00	0	40	0	2613051392	53	3922
2026-01-14 06:06:22.76	286.46	14.71	-41.2	-42.3	18.6	0.00e+00	0	40	0	2620391424	53	3917
2026-01-14 06:06:23.76	286.27	14.67	-41.1	-42.2	18.7	0.00e+00	0	40	0	2627731456	53	3891
2026-01-14 06:06:24.75	286.08	14.62	-41.2	-42.3	18.6	0.00e+00	0	40	0	2635071488	53	3924
2026-01-14 06:06:25.75	285.90	14.57	-41.1	-42.2	18.7	0.00e+00	0	40	0	2642411520	53	3891
2026-01-14 06:06:26.74	285.71	14.52	-41.2	-42.3	18.5	0.00e+00	0	40	0	2649751552	53	3938
2026-01-14 06:06:27.74	285.53	14.47	-41.2	-42.2	18.6	0.00e+00	0	40	0	2656043008	53	3901
2026-01-14 06:06:28.74	285.34	14.42	-41.1	-42.2	18.7	0.00e+00	0	40	0	2663383040	53	3872
2026-01-14 06:06:29.74	285.16	14.37	-41.2	-42.2	18.6	0.00e+00	0	40	0	2670723072	52	4136
2026-01-14 06:06:30.74	284.98	14.32	-41.1	-42.1	18.6	0.00e+00	0	40	0	2678063104	52	4096
2026-01-14 06:06:31.74	284.79	14.28	-41.2	-42.2	18.6	0.00e+00	0	40	0	2685403136	52	4137
2026-01-14 06:06:32.73	284.61	14.23	-41.2	-42.3	18.5	0.00e+00	0	40	0	2692743168	52	4177
2026-01-14 06:06:33.74	284.43	14.18	-41.2	-42.3	18.5	0.00e+00	0	40	0	2700083200	52	4182
2026-01-14 06:06:34.74	284.25	14.13	-41.1	-42.2	18.6	0.00e+00	0	40	0	2707423232	52	4121
2026-01-14 06:06:35.74	284.07	14.07	-41.1	-42.2	18.6	0.00e+00	0	40	0	2713714688	52	4122
2026-01-14 06:06:36.74	283.89	14.02	-41.1	-42.2	18.6	0.00e+00	0	40	0	2721054720	52	4101
2026-01-14 06:06:37.73	283.71	13.97	-41.1	-42.2	18.6	0.00e+00	0	40	0	2728394752	52	4123
2026-01-14 06:06:38.73	283.53	13.92	-41.0	-42.1	18.7	0.00e+00	0	40	0	2735734784	52	4053
2026-01-14 06:06:39.73	283.36	13.87	-41.1	-42.1	18.6	0.00e+00	0	40	0	2743074816	52	4090
2026-01-14 06:06:40.73	283.18	13.82	-41.1	-42.2	18.5	0.00e+00	0	40	0	2750414848	52	4129
2026-01-14 06:06:41.71	283.01	13.77	-41.1	-42.2	18.6	0.00e+00	0	40	0	2756706304	52	4106
2026-01-14 06:06:42.71	282.83	13.72	-41.0	-42.1	18.6	0.00e+00	0	40	0	2764046336	52	4062
2026-01-14 06:06:43.71	282.65	13.67	-41.0	-42.1	18.6	0.00e+00	0	40	0	2771386368	52	4072
2026-01-14 06:06:44.70	282.48	13.62	-41.1	-42.2	18.5	0.00e+00	0	40	0	2778726400	52	4120
2026-01-14 06:06:45.70	282.31	13.56	-41.1	-42.2	18.5	0.00e+00	0	40	0	2786066432	52	4109
2026-01-14 06:06:46.70	282.13	13.51	-41.2	-42.3	18.4	0.00e+00	0	40	0	2793406464	52	4157
2026-01-14 06:06:47.71	281.96	13.46	-41.2	-42.4	18.3	0.00e+00	0	40	0	2800746496	52	4195
2026-01-14 06:06:48.71	281.79	13.41	-41.3	-42.4	18.3	0.00e+00	0	40	0	2808086528	52	4210
2026-01-14 06:06:49.71	281.61	13.35	-41.3	-42.4	18.3	0.00e+00	0	40	0	2814377984	52	4224
2026-01-14 06:06:50.71	281.44	13.30	-41.3	-42.4	18.2	0.00e+00	0	40	0	2821718016	52	4238
2026-01-14 06:06:51.71	281.27	13.25	-41.4	-42.5	18.2	0.00e+00	0	40	0	2829058048	52	4269
2026-01-14 06:06:52.71	281.10	13.20	-41.5	-42.6	18.0	0.00e+00	0	40	0	2836398080	52	4330
2026-01-14 06:06:53.71	280.93	13.14	-41.6	-42.7	18.0	0.00e+00	0	40	0	2843738112	52	4370
2026-01-14 06:06:54.71	280.77	13.09	-41.6	-42.7	18.0	0.00e+00	0	40	0	2851078144	52	4370
2026-01-14 06:06:55.71	280.60	13.04	-41.6	-42.7	17.9	0.00e+00	0	40	0	2858418176	52	4371
2026-01-14 06:06:56.71	280.43	12.98	-41.5	-42.7	17.9	0.00e+00	0	40	0	2865758208	52	4361
2026-01-14 06:06:57.71	280.26	12.93	-41.6	-42.8	17.8	0.00e+00	0	40	0	2873098240	52	4399
2026-01-14 06:06:58.71	280.10	12.88	-41.6	-42.8	17.8	0.00e+00	0	40	0	2879389696	52	4418
2026-01-14 06:06:59.71	279.93	12.82	-41.5	-42.7	17.9	0.00e+00	0	40	0	2886729728	52	4361
2026-01-14 06:07:00.72	279.77	12.77	-41.5	-42.6	18.0	0.00e+00	0	40	0	2894069760	52	4314
2026-01-14 06:07:01.72	279.60	12.71	-41.5	-42.6	18.0	0.00e+00	0	40	0	2901409792	52	4320
2026-01-14 06:07:02.72	279.44	12.66	-41.3	-42.4	18.2	0.00e+00	0	40	0	2908749824	52	4220
2026-01-14 06:07:03.72	279.27	12.60	-41.2	-42.3	18.2	0.00e+00	0	40	0	2916089856	52	4173
2026-01-14 06:07:04.72	279.11	12.55	-41.3	-42.4	18.1	0.00e+00	0	40	0	2923429888	52	4218
2026-01-14 06:07:05.72	278.95	12.50	-41.2	-42.4	18.2	0.00e+00	0	40	0	2930769920	52	4213
2026-01-14 06:07:06.72	278.79	12.44	-41.3	-42.4	18.1	0.00e+00	0	40	0	2938109952	52	4217
2026-01-14 06:07:07.72	278.63	12.39	-41.3	-42.4	18.1	0.00e+00	0	40	0	2944401408	52	4236
2026-01-14 06:07:08.72	278.47	12.33	-41.4	-42.5	18.0	0.00e+00	0	40	0	2951741440	52	4288
2026-01-14 06:07:09.72	278.31	12.28	-41.4	-42.5	18.0	0.00e+00	0	40	0	2959081472	52	4275
2026-01-14 06:07:10.72	278.15	12.22	-41.4	-42.6	17.9	0.00e+00	0	40	0	2966421504	52	4312
2026-01-14 06:07:11.72	277.99	12.17	-41.3	-42.4	18.1	0.00e+00	0	40	0	2973761536	52	4222
2026-01-14 06:07:12.73	277.83	12.11	-41.3	-42.5	18.0	0.00e+00	0	40	0	2981101568	52	4279
2026-01-14 06:07:13.73	277.68	12.06	-41.3	-42.5	18.0	0.00e+00	0	40	0	2988441600	52	4254
2026-01-14 06:07:14.73	277.52	12.00	-41.4	-42.5	18.0	0.00e+00	0	40	0	2995781632	52	4287
2026-01-14 06:07:15.73	277.36	11.95	-41.3	-42.5	18.0	0.00e+00	0	40	0	3003121664	52	4267
2026-01-14 06:07:16.73	277.21	11.89	-41.3	-42.5	18.0	0.00e+00	0	40	0	3010461696	52	4256
2026-01-14 06:07:17.73	277.05	11.83	-41.3	-42.5	18.0	0.00e+00	0	40	0	3017801728	52	4270
2026-01-14 06:07:18.73	276.90	11.78	-41.3	-42.5	18.0	0.00e+00	0	40	0	3024093184	52	4263
2026-01-14 06:07:19.73	276.75	11.72	-41.4	-42.5	17.9	0.00e+00	0	40	0	3031433216	52	4289
2026-01-14 06:07:20.74	276.59	11.67	-41.4	-42.6	17.9	0.00e+00	0	40	0	3038773248	52	4296
2026-01-14 06:07:21.74	276.44	11.61	-41.4	-42.6	17.9	0.00e+00	0	40	0	3046113280	52	4302
2026-01-14 06:07:22.73	276.29	11.56	-41.5	-42.6	17.8	0.00e+00	0	40	0	3053453312	52	4336
2026-01-14 06:07:23.73	276.14	11.50	-41.5	-42.7	17.8	0.00e+00	0	40	0	3060793344	52	4367
2026-01-14 06:07:24.73	275.99	11.44	-41.6	-42.8	17.7	0.00e+00	0	40	0	3068133376	52	4416
2026-01-14 06:07:25.73	275.84	11.39	-41.6	-42.8	17.7	0.00e+00	0	40	0	3074424832	52	4397
2026-01-14 06:07:26.73	275.69	11.33	-41.6	-42.8	17.7	0.00e+00	0	40	0	3081764864	52	4414
2026-01-14 06:07:27.73	275.54	11.27	-41.6	-42.8	17.7	0.00e+00	0	40	0	3089104896	52	4426
2026-01-14 06:07:28.74	275.39	11.22	-41.6	-42.8	17.7	0.00e+00	0	40	0	3096444928	52	4422
2026-01-14 06:07:29.74	275.24	11.16	-41.6	-42.8	17.6	0.00e+00	0	40	0	3103784960	52	4439
2026-01-14 06:07:30.73	275.10	11.11	-41.8	-43.1	17.4	0.00e+00	0	40	0	3111124992	53	4309
2026-01-14 06:07:31.73	274.95	11.05	-41.7	-42.9	17.6	0.00e+00	0	40	0	3118465024	53	4194
2026-01-14 06:07:32.73	274.80	10.99	-41.5	-42.7	17.7	0.00e+00	0	40	0	3125805056	53	4118
2026-01-14 06:07:33.73	274.66	10.94	-41.6	-42.8	17.6	0.00e+00	0	40	0	3133145088	53	4160
2026-01-14 06:07:34.73	274.51	10.88	-41.6	-42.8	17.6	0.00e+00	0	40	0	3140485120	53	4185
2026-01-14 06:07:35.73	274.37	10.82	-41.7	-42.9	17.5	0.00e+00	0	40	0	3147825152	53	4225
2026-01-14 06:07:36.74	274.22	10.77	-41.7	-42.9	17.5	0.00e+00	0	40	0	3154116608	53	4234
2026-01-14 06:07:37.74	274.08	10.71	-41.8	-43.0	17.4	0.00e+00	0	40	0	3161456640	53	4252
2026-01-14 06:07:38.73	273.94	10.65	-41.9	-43.1	17.3	0.00e+00	0	40	0	3168796672	53	4318
2026-01-14 06:07:39.74	273.80	10.59	-42.0	-43.2	17.2	0.00e+00	0	40	0	3176136704	53	4375
2026-01-14 06:07:40.74	273.65	10.54	-41.9	-43.2	17.2	0.00e+00	0	40	0	3183476736	53	4355
2026-01-14 06:07:41.74	273.51	10.48	-41.8	-43.1	17.3	0.00e+00	0	40	0	3190816768	53	4321
2026-01-14 06:07:42.74	273.37	10.42	-41.8	-43.1	17.3	0.00e+00	0	40	0	3198156800	53	4296
2026-01-14 06:07:43.74	273.23	10.37	-41.7	-43.0	17.4	0.00e+00	0	40	0	3205496832	53	4256
2026-01-14 06:07:44.74	273.09	10.31	-41.6	-42.9	17.5	0.00e+00	0	40	0	3211788288	53	4208
2026-01-14 06:07:45.75	272.95	10.25	-41.6	-42.9	17.5	0.00e+00	0	40	0	3219128320	53	4204
2026-01-14 06:07:46.75	272.82	10.20	-41.5	-42.7	17.7	0.00e+00	0	40	0	3226468352	53	4118
2026-01-14 06:07:47.75	272.68	10.14	-41.4	-42.6	17.7	0.00e+00	0	40	0	3233808384	53	4082
2026-01-14 06:07:48.75	272.54	10.08	-41.5	-42.7	17.7	0.00e+00	0	40	0	3241148416	53	4102
2026-01-14 06:07:49.75	272.40	10.02	-41.4	-42.6	17.7	0.00e+00	0	40	0	3248488448	53	4087
2026-01-14 06:07:50.75	272.27	9.97	-41.4	-42.6	17.7	0.00e+00	0	40	0	3255828480	53	4079
2026-01-14 06:07:51.76	272.13	9.91	-41.4	-42.7	17.6	0.00e+00	0	40	0	3263168512	53	4128
2026-01-14 06:07:52.75	272.00	9.85	-41.5	-42.8	17.5	0.00e+00	0	40	0	3270508544	53	4190
2026-01-14 06:07:53.75	271.86	9.80	-41.5	-42.9	17.4	0.00e+00	0	40	0	3276800000	53	4221
2026-01-14 06:07:54.75	271.73	9.74	-41.6	-43.0	17.3	0.00e+00	0	40	0	3284140032	53	4277
2026-01-14 06:07:55.75	271.60	9.68	-41.8	-43.1	17.2	0.00e+00	0	40	0	3291480064	53	4340
2026-01-14 06:07:56.74	271.47	9.62	-41.8	-43.1	17.2	0.00e+00	0	40	0	3298820096	53	4333
2026-01-14 06:07:57.74	271.33	9.57	-41.9	-43.2	17.1	0.00e+00	0	40	0	3306160128	53	4378
2026-01-14 06:07:58.74	271.20	9.51	-41.9	-43.2	17.0	0.00e+00	0	40	0	3313500160	53	4389
2026-01-14 06:07:59.74	271.07	9.45	-42.0	-43.3	17.0	0.00e+00	0	40	0	3320840192	53	4433
2026-01-14 06:08:00.74	270.94	9.39	-42.0	-43.3	17.0	0.00e+00	0	40	0	3328180224	53	4435
2026-01-14 06:08:01.75	270.81	9.34	-42.0	-43.3	17.0	0.00e+00	0	40	0	3334471680	53	4422
2026-01-14 06:08:02.74	270.68	9.28	-42.0	-43.3	17.0	0.00e+00	0	40	0	3341811712	53	4424
2026-01-14 06:08:03.74	270.55	9.22	-42.0	-43.3	17.0	0.00e+00	0	40	0	3349151744	53	4402
2026-01-14 06:08:04.75	270.42	9.17	-41.9	-43.2	17.1	0.00e+00	0	40	0	3356491776	53	4362
2026-01-14 06:08:05.75	270.29	9.11	-42.0	-43.2	17.1	0.00e+00	0	40	0	3363831808	53	4377
2026-01-14 06:08:06.76	270.16	9.05	-41.9	-43.2	17.1	0.00e+00	0	40	0	3371171840	53	4361
2026-01-14 06:08:07.75	270.04	8.99	-45.1	-47.0	13.7	0.00e+00	0	40	0	3378511872	59	4786
2026-01-14 06:08:08.75	269.91	8.94	-51.0	-61.0	3.8	8.46e-01	0	40	104	3380609024	71	12060
2026-01-14 06:08:09.75	269.79	8.88	-51.0	-61.8	3.8	8.47e-01	0	40	104	3380609024	71	13143
2026-01-14 06:08:10.74	269.66	8.82	-51.2	-62.2	3.8	8.46e-01	0	40	104	3380609024	71	13794
2026-01-14 06:08:11.74	269.54	8.76	-51.2	-62.3	3.8	8.47e-01	0	40	104	3380609024	72	13119
2026-01-14 06:08:12.73	269.41	8.71	-51.2	-62.3	3.8	8.47e-01	0	40	104	3380609024	72	13138
2026-01-14 06:08:13.73	269.29	8.65	-51.3	-62.3	3.8	8.46e-01	0	40	104	3380609024	72	13252
2026-01-14 06:08:14.73	269.17	8.59	-51.4	-62.3	3.8	8.47e-01	0	40	104	3380609024	72	13193
2026-01-14 06:08:15.73	269.04	8.54	-51.3	-62.4	3.8	8.46e-01	0	40	104	3380609024	72	13268
2026-01-14 06:08:16.73	268.92	8.48	-51.5	-62.4	3.8	8.47e-01	0	40	104	3380609024	72	13327
2026-01-14 06:08:17.72	268.80	8.42	-51.5	-62.4	3.8	8.47e-01	0	40	104	3380609024	72	13320
2026-01-14 06:08:18.72	268.68	8.36	-51.5	-62.3	3.8	8.46e-01	0	40	104	3380609024	72	13235
2026-01-14 06:08:19.71	268.56	8.31	-51.5	-62.3	3.8	8.46e-01	0	40	104	3380609024	72	13259
2026-01-14 06:08:20.71	268.44	8.25	-51.5	-62.3	3.8	8.46e-01	0	40	104	3380609024	72	13182
2026-01-14 06:08:21.71	268.32	8.19	-51.5	-62.3	3.8	8.46e-01	0	40	104	3380609024	72	13234
2026-01-14 06:08:22.71	268.20	8.13	-51.5	-62.4	3.8	8.47e-01	0	40	104	3380609024	72	13278
2026-01-14 06:08:23.70	268.08	8.08	-51.5	-62.4	3.8	8.47e-01	0	40	104	3380609024	72	13280
2026-01-14 06:08:24.70	267.96	8.02	-51.6	-62.4	3.8	8.49e-01	0	40	104	3380609024	72	13396
2026-01-14 06:08:25.70	267.84	7.96	-51.6	-62.4	3.8	8.47e-01	0	40	104	3380609024	72	13292
2026-01-14 06:08:26.70	267.72	7.91	-51.6	-62.3	3.8	8.47e-01	0	40	104	3380609024	72	13231
2026-01-14 06:08:27.69	267.61	7.85	-51.6	-62.4	3.8	8.47e-01	0	40	104	3380609024	72	13326
2026-01-14 06:08:28.68	267.49	7.79	-51.6	-62.4	3.8	8.47e-01	0	40	104	3380609024	72	13290
2026-01-14 06:08:29.68	267.38	7.74	-51.6	-62.4	3.8	8.47e-01	0	40	104	3380609024	72	13337
2026-01-14 06:08:30.68	267.26	7.68	-51.6	-
