passes_logs/2026/01/14/T1/T1__20260114_023331_FENGYUN_3D_rec.log

#Pass ID: 20260114_023331_FENGYUN 3D
#Satellite: FENGYUN 3D
#Configuration: FENGYUN 3D
#almurnet v.1.7.20251203
#Start time: 2026-01-14 02:33:33

#Version: 2.0.20230620
#Station: T1
#Location: 37.570604 lon 55.790049 lat
#TLE: 1 43010U 17072A   26013.31211337  .00000452  00000+0  23563-3 0  9990
#TLE: 2 43010  98.9934 345.1024 0002270 111.0315 249.1103 14.19696845423017

#Time	Az	El	Level	Level2	SNR	BER	BlckErr	Temp	State	Recorded	gain1	gain2
2026-01-14 02:33:33.16	11.92	5.08	-47.9	-62.2	3.8	8.47e-01	0	39	0	0	67	18688
2026-01-14 02:33:34.14	11.88	5.15	-47.9	-62.2	3.8	8.47e-01	0	39	104	0	66	19740
2026-01-14 02:33:35.14	11.84	5.22	-47.9	-62.2	3.8	8.47e-01	0	39	104	0	66	19639
2026-01-14 02:33:36.13	11.80	5.29	-47.9	-62.1	3.8	8.47e-01	0	39	104	0	66	19509
2026-01-14 02:33:37.12	11.77	5.36	-47.9	-62.1	3.8	8.46e-01	0	38	104	0	66	19417
2026-01-14 02:33:38.12	11.73	5.43	-47.9	-62.0	3.8	8.46e-01	0	39	104	0	66	19380
2026-01-14 02:33:39.11	11.69	5.50	-47.9	-61.9	3.8	8.47e-01	0	39	104	0	66	19147
2026-01-14 02:33:40.10	11.65	5.56	-47.9	-61.9	3.8	8.46e-01	0	39	104	0	66	18986
2026-01-14 02:33:41.09	11.61	5.63	-47.8	-61.8	3.8	8.45e-01	0	39	104	0	66	18875
2026-01-14 02:33:42.09	11.57	5.71	-47.8	-61.7	3.8	8.47e-01	0	39	104	0	66	18676
2026-01-14 02:33:43.08	11.53	5.78	-47.9	-61.6	3.8	8.47e-01	0	39	104	0	66	18514
2026-01-14 02:33:44.08	11.49	5.85	-47.8	-61.6	3.8	8.47e-01	0	39	104	0	66	18385
2026-01-14 02:33:45.07	11.45	5.92	-47.9	-61.5	3.8	8.47e-01	0	39	104	0	66	18279
2026-01-14 02:33:46.06	11.41	5.99	-47.9	-61.5	3.8	8.47e-01	0	39	104	0	66	18117
2026-01-14 02:33:47.06	11.37	6.06	-47.8	-61.4	3.8	8.46e-01	0	39	104	0	66	17939
2026-01-14 02:33:48.05	11.33	6.13	-47.8	-61.3	3.8	8.47e-01	0	39	104	0	66	17766
2026-01-14 02:33:49.04	11.29	6.20	-47.8	-61.2	3.8	8.47e-01	0	39	104	0	66	17552
2026-01-14 02:33:50.03	11.25	6.27	-47.8	-61.0	3.8	8.46e-01	0	39	104	0	66	17111
2026-01-14 02:33:51.03	11.21	6.34	-47.8	-60.8	3.8	8.45e-01	0	39	104	0	66	16766
2026-01-14 02:33:52.02	11.17	6.42	-47.8	-60.6	3.8	8.47e-01	0	39	104	0	66	16396
2026-01-14 02:33:53.01	11.13	6.49	-47.8	-60.4	3.8	8.47e-01	0	39	104	0	66	16099
2026-01-14 02:33:54.01	11.09	6.56	-47.7	-60.4	3.8	8.47e-01	0	39	104	0	66	16007
2026-01-14 02:33:55.00	11.04	6.63	-47.8	-60.4	3.8	8.46e-01	0	39	104	0	66	16082
2026-01-14 02:33:55.99	11.00	6.70	-47.8	-60.6	3.8	8.46e-01	0	39	104	0	66	16432
2026-01-14 02:33:56.99	10.96	6.78	-47.8	-61.0	3.8	8.46e-01	0	39	104	0	66	17109
2026-01-14 02:33:57.98	10.92	6.85	-47.9	-61.4	3.8	8.46e-01	0	39	104	0	66	18038
2026-01-14 02:33:58.97	10.87	6.92	-47.9	-61.9	3.8	8.47e-01	0	39	104	0	66	19090
2026-01-14 02:33:59.97	10.83	7.00	-47.9	-62.2	3.8	8.47e-01	0	39	104	0	66	19737
2026-01-14 02:34:00.96	10.79	7.07	-47.9	-62.1	3.8	8.47e-01	0	39	104	0	66	19497
2026-01-14 02:34:01.95	10.74	7.14	-47.8	-61.4	3.8	8.46e-01	0	39	104	0	66	18072
2026-01-14 02:34:02.95	10.70	7.22	-47.8	-60.2	3.8	8.47e-01	0	39	104	0	66	15613
2026-01-14 02:34:03.94	10.66	7.29	-47.6	-58.5	4.2	8.44e-01	0	39	0	0	66	12900
2026-01-14 02:34:04.93	10.61	7.37	-47.4	-56.8	4.9	8.06e-01	0	39	0	0	66	10601
2026-01-14 02:34:05.93	10.57	7.44	-47.1	-55.4	5.8	7.15e-01	0	39	0	0	66	9025
2026-01-14 02:34:06.92	10.52	7.52	-46.8	-54.1	6.8	2.47e-01	0	39	0	6291456	65	8234
2026-01-14 02:34:07.91	10.48	7.59	-46.5	-53.0	7.8	1.29e-01	0	39	0	11534336	65	7277
2026-01-14 02:34:08.91	10.43	7.67	-46.2	-52.2	8.6	5.92e-02	0	39	0	16777216	64	6989
2026-01-14 02:34:09.90	10.39	7.74	-46.0	-51.5	9.5	2.26e-02	0	39	0	23068672	63	6824
2026-01-14 02:34:10.89	10.34	7.82	-45.7	-50.8	10.2	1.09e-02	0	39	0	28311552	63	6306
2026-01-14 02:34:11.89	10.30	7.89	-45.4	-50.2	10.8	4.42e-03	0	39	0	33554432	62	6252
2026-01-14 02:34:12.88	10.25	7.97	-45.2	-49.7	11.3	1.94e-03	0	39	0	39845888	62	5887
2026-01-14 02:34:13.87	10.20	8.05	-45.0	-49.3	11.8	8.75e-04	0	39	0	45088768	62	5601
2026-01-14 02:34:14.87	10.16	8.12	-44.7	-48.8	12.2	3.24e-04	0	39	0	50331648	61	5617
2026-01-14 02:34:15.86	10.11	8.20	-44.5	-48.4	12.6	1.94e-04	0	39	0	56623104	61	5384
2026-01-14 02:34:16.86	10.06	8.28	-44.4	-48.2	12.8	8.46e-05	0	39	0	61865984	60	5588
2026-01-14 02:34:17.85	10.01	8.35	-44.3	-48.0	13.0	6.17e-05	0	39	0	67108864	60	5464
2026-01-14 02:34:18.84	9.97	8.43	-44.2	-47.9	13.1	2.86e-05	0	39	0	73400320	60	5393
2026-01-14 02:34:19.84	9.92	8.51	-44.3	-48.1	13.0	4.23e-05	0	39	0	78643200	60	5474
2026-01-14 02:34:20.83	9.87	8.59	-44.4	-48.3	12.8	8.81e-05	0	39	0	83886080	60	5613
2026-01-14 02:34:21.82	9.82	8.66	-44.7	-48.7	12.3	2.25e-04	0	39	0	90177536	60	5912
2026-01-14 02:34:22.82	9.77	8.74	-45.0	-49.4	11.6	5.72e-04	0	39	0	95420416	60	6388
2026-01-14 02:34:23.81	9.72	8.82	-45.5	-50.2	10.7	2.82e-03	0	39	0	100663296	61	6637
2026-01-14 02:34:24.80	9.67	8.90	-46.0	-51.5	9.5	1.14e-02	0	39	0	105906176	62	7218
2026-01-14 02:34:25.80	9.62	8.98	-46.5	-52.9	8.0	4.47e-02	0	39	0	112197632	63	8083
2026-01-14 02:34:26.79	9.57	9.06	-46.9	-54.8	6.2	2.24e-01	0	39	0	117440512	64	9413
2026-01-14 02:34:27.78	9.52	9.14	-47.6	-59.5	4.0	7.85e-01	0	39	0	120586240	65	15252
2026-01-14 02:34:28.82	9.47	9.22	-47.5	-59.9	3.8	8.45e-01	0	39	104	120586240	65	15949
2026-01-14 02:34:29.85	9.42	9.30	-46.3	-51.7	9.1	6.20e-01	0	39	0	121634816	64	6626
2026-01-14 02:34:30.85	9.36	9.38	-43.2	-46.1	14.9	2.63e-05	0	39	0	127926272	58	4914
2026-01-14 02:34:31.84	9.31	9.46	-47.7	-57.4	4.6	3.48e-02	0	39	0	132120576	66	11405
2026-01-14 02:34:32.84	9.26	9.54	-45.2	-49.2	11.8	4.93e-02	0	39	0	134217728	62	5584
2026-01-14 02:34:33.83	9.21	9.62	-44.1	-47.4	13.7	2.17e-05	0	39	0	140509184	60	5054
2026-01-14 02:34:34.83	9.15	9.71	-43.5	-46.4	14.7	3.40e-06	0	39	0	145752064	59	4790
2026-01-14 02:34:35.82	9.10	9.79	-43.0	-45.7	15.4	1.10e-06	0	39	0	152043520	58	4705
2026-01-14 02:34:36.82	9.05	9.87	-42.5	-45.2	16.0	0.00e+00	0	39	0	157286400	57	4656
2026-01-14 02:34:37.81	8.99	9.95	-42.4	-44.9	16.2	0.00e+00	0	39	0	162529280	56	4804
2026-01-14 02:34:38.81	8.94	10.03	-42.3	-44.8	16.3	0.00e+00	0	39	0	168820736	56	4738
2026-01-14 02:34:39.80	8.89	10.11	-42.2	-44.7	16.4	0.00e+00	0	39	0	174063616	56	4690
2026-01-14 02:34:40.80	8.83	10.20	-41.7	-44.2	16.7	0.00e+00	0	39	0	179306496	55	4699
2026-01-14 02:34:41.79	8.78	10.28	-41.6	-44.1	16.8	0.00e+00	0	39	0	184549376	55	4640
2026-01-14 02:34:42.79	8.72	10.36	-41.7	-44.1	16.8	0.00e+00	0	39	0	190840832	55	4640
2026-01-14 02:34:43.78	8.67	10.45	-41.6	-44.1	16.9	0.00e+00	0	39	0	196083712	55	4606
2026-01-14 02:34:44.78	8.61	10.53	-41.6	-44.1	16.9	0.00e+00	0	39	0	202375168	55	4599
2026-01-14 02:34:45.83	8.55	10.62	-41.6	-44.1	16.8	0.00e+00	0	39	0	207618048	55	4641
2026-01-14 02:34:46.75	8.50	10.70	-41.5	-44.0	16.9	0.00e+00	0	39	0	212860928	55	4577
2026-01-14 02:34:47.89	8.43	10.79	-41.5	-44.0	17.0	0.00e+00	0	39	0	219152384	55	4557
2026-01-14 02:34:48.74	8.38	10.87	-41.5	-43.9	17.0	0.00e+00	0	39	0	224395264	54	4806
2026-01-14 02:34:50.07	8.30	10.98	-41.4	-43.9	17.1	0.00e+00	0	39	0	231735296	54	4764
2026-01-14 02:34:50.78	8.26	11.04	-41.3	-43.8	17.2	0.00e+00	0	39	0	235929600	54	4740
2026-01-14 02:34:52.26	8.18	11.17	-41.4	-43.9	17.1	0.00e+00	0	39	0	244318208	54	4769
2026-01-14 02:34:53.26	8.12	11.25	-41.4	-43.9	17.1	0.00e+00	0	39	0	249561088	54	4769
2026-01-14 02:34:54.25	8.06	11.34	-41.3	-43.7	17.2	0.00e+00	0	39	0	254803968	54	4705
2026-01-14 02:34:55.25	8.00	11.43	-41.3	-43.8	17.2	0.00e+00	0	39	0	261095424	54	4724
2026-01-14 02:34:56.24	7.94	11.51	-41.3	-43.8	17.2	0.00e+00	0	39	0	266338304	54	4744
2026-01-14 02:34:57.24	7.88	11.60	-41.3	-43.8	17.1	0.00e+00	0	39	0	271581184	54	4750
2026-01-14 02:34:58.24	7.82	11.69	-41.3	-43.8	17.3	0.00e+00	0	39	0	277872640	54	4706
2026-01-14 02:34:59.23	7.75	11.77	-41.4	-43.8	17.2	0.00e+00	0	39	0	283115520	54	4757
2026-01-14 02:35:00.22	7.69	11.86	-41.3	-43.8	17.2	0.00e+00	0	39	0	288358400	54	4752
2026-01-14 02:35:01.30	7.63	11.96	-41.3	-43.8	17.2	0.00e+00	0	39	0	294649856	54	4723
2026-01-14 02:35:02.15	7.57	12.03	-41.2	-43.7	17.3	0.00e+00	0	39	0	299892736	54	4678
2026-01-14 02:35:03.50	7.49	12.15	-41.3	-43.8	17.2	0.00e+00	0	39	0	307232768	54	4735
2026-01-14 02:35:04.21	7.44	12.22	-41.3	-43.8	17.2	0.00e+00	0	39	0	311427072	54	4759
2026-01-14 02:35:05.49	7.36	12.33	-41.3	-43.8	17.2	0.00e+00	0	39	0	318767104	54	4720
2026-01-14 02:35:06.21	7.31	12.40	-41.4	-43.9	17.1	0.00e+00	0	39	0	322961408	54	4796
2026-01-14 02:35:07.49	7.23	12.51	-41.2	-43.7	17.3	0.00e+00	0	39	0	329252864	54	4668
2026-01-14 02:35:08.20	7.18	12.58	-41.2	-43.6	17.3	0.00e+00	0	39	0	333447168	54	4650
2026-01-14 02:35:09.48	7.10	12.69	-41.1	-43.6	17.4	0.00e+00	0	39	0	340787200	54	4618
2026-01-14 02:35:10.21	7.05	12.76	-41.1	-43.6	17.4	0.00e+00	0	39	0	344981504	54	4612
2026-01-14 02:35:11.49	6.97	12.87	-41.2	-43.6	17.4	0.00e+00	0	39	0	352321536	54	4636
2026-01-14 02:35:12.20	6.92	12.94	-41.2	-43.6	17.4	0.00e+00	0	39	0	356515840	54	4620
2026-01-14 02:35:13.50	6.83	13.06	-41.0	-43.5	17.6	0.00e+00	0	39	0	362807296	54	4554
2026-01-14 02:35:14.22	6.78	13.13	-41.0	-43.4	17.6	0.00e+00	0	39	0	368050176	54	4537
2026-01-14 02:35:15.49	6.69	13.24	-41.0	-43.4	17.6	0.00e+00	0	39	0	374341632	54	4527
2026-01-14 02:35:16.21	6.64	13.31	-41.0	-43.4	17.6	0.00e+00	0	39	0	378535936	54	4527
2026-01-14 02:35:17.52	6.55	13.43	-40.9	-43.3	17.7	0.00e+00	0	39	0	385875968	53	4728
2026-01-14 02:35:18.23	6.50	13.50	-41.0	-43.3	17.7	0.00e+00	0	39	0	390070272	53	4740
2026-01-14 02:35:19.51	6.41	13.62	-41.0	-43.3	17.7	0.00e+00	0	39	0	397410304	53	4728
2026-01-14 02:35:20.22	6.36	13.69	-40.9	-43.2	17.8	0.00e+00	0	39	0	401604608	53	4695
2026-01-14 02:35:21.50	6.27	13.81	-40.9	-43.2	17.8	0.00e+00	0	39	0	407896064	53	4660
2026-01-14 02:35:22.21	6.22	13.88	-40.9	-43.2	17.8	0.00e+00	0	39	0	412090368	53	4675
2026-01-14 02:35:23.49	6.13	14.00	-40.9	-43.2	17.8	0.00e+00	0	39	0	419430400	53	4685
2026-01-14 02:35:24.22	6.08	14.07	-41.0	-43.2	17.8	0.00e+00	0	39	0	423624704	53	4690
2026-01-14 02:35:25.75	5.96	14.21	-40.9	-43.2	17.8	0.00e+00	0	39	0	432013312	53	4662
2026-01-14 02:35:26.46	5.91	14.28	-40.8	-43.1	17.9	0.00e+00	0	39	0	436207616	53	4638
2026-01-14 02:35:27.74	5.82	14.41	-40.8	-43.1	17.9	0.00e+00	0	39	0	443547648	53	4634
2026-01-14 02:35:28.45	5.76	14.47	-40.9	-43.2	17.8	0.00e+00	0	39	0	447741952	53	4663
2026-01-14 02:35:29.73	5.67	14.60	-40.8	-43.1	17.9	0.00e+00	0	39	0	455081984	53	4626
2026-01-14 02:35:30.44	5.61	14.67	-40.8	-43.1	17.9	0.00e+00	0	39	0	458227712	53	4614
2026-01-14 02:35:31.72	5.51	14.79	-40.8	-43.0	18.0	0.00e+00	0	39	0	465567744	53	4581
2026-01-14 02:35:32.43	5.46	14.86	-40.8	-43.0	18.0	0.00e+00	0	39	0	469762048	53	4582
2026-01-14 02:35:33.71	5.36	14.99	-40.8	-43.0	18.0	0.00e+00	0	39	0	477102080	53	4577
2026-01-14 02:35:34.49	5.30	15.07	-40.8	-43.0	18.0	0.00e+00	0	39	0	481296384	53	4564
2026-01-14 02:35:35.77	5.20	15.19	-40.8	-43.1	18.0	0.00e+00	0	39	0	488636416	53	4601
2026-01-14 02:35:36.48	5.14	15.27	-40.7	-43.0	18.0	0.00e+00	0	39	0	492830720	53	4548
2026-01-14 02:35:37.76	5.04	15.39	-40.7	-42.9	18.1	0.00e+00	0	39	0	500170752	53	4516
2026-01-14 02:35:38.48	4.98	15.47	-40.7	-42.9	18.1	0.00e+00	0	39	0	504365056	53	4531
2026-01-14 02:35:39.76	4.88	15.59	-40.5	-42.6	18.4	0.00e+00	0	39	0	511705088	53	4378
2026-01-14 02:35:40.65	4.81	15.68	-40.4	-42.5	18.5	0.00e+00	0	39	0	515899392	52	4556
2026-01-14 02:35:42.12	4.69	15.83	-40.3	-42.3	18.6	0.00e+00	0	39	0	524288000	52	4492
2026-01-14 02:35:42.83	4.63	15.91	-40.3	-42.4	18.6	0.00e+00	0	39	0	528482304	52	4521
2026-01-14 02:35:44.11	4.52	16.04	-40.3	-42.4	18.6	0.00e+00	0	39	0	535822336	52	4510
2026-01-14 02:35:44.82	4.46	16.11	-40.4	-42.4	18.6	0.00e+00	0	39	0	540016640	52	4534
2026-01-14 02:35:46.10	4.35	16.24	-40.4	-42.4	18.6	0.00e+00	0	39	0	546308096	52	4544
2026-01-14 02:35:46.82	4.29	16.32	-40.4	-42.4	18.6	0.00e+00	0	39	0	550502400	52	4511
2026-01-14 02:35:48.10	4.18	16.45	-40.4	-42.4	18.6	0.00e+00	0	39	0	557842432	52	4533
2026-01-14 02:35:48.87	4.12	16.53	-40.4	-42.4	18.7	0.00e+00	0	39	0	562036736	52	4500
2026-01-14 02:35:50.15	4.00	16.66	-40.3	-42.4	18.7	0.00e+00	0	39	0	569376768	52	4497
2026-01-14 02:35:50.86	3.94	16.74	-40.4	-42.4	18.6	0.00e+00	0	39	0	573571072	52	4505
2026-01-14 02:35:52.14	3.83	16.87	-40.5	-42.5	18.6	0.00e+00	0	39	0	580911104	52	4549
2026-01-14 02:35:53.00	3.75	16.96	-40.4	-42.4	18.7	0.00e+00	0	39	0	585105408	52	4501
2026-01-14 02:35:54.13	3.65	17.08	-40.5	-42.4	18.6	0.00e+00	0	39	0	592445440	52	4535
2026-01-14 02:35:54.99	3.57	17.18	-40.5	-42.4	18.6	0.00e+00	0	39	0	596639744	52	4534
2026-01-14 02:35:56.13	3.47	17.30	-40.3	-42.3	18.7	0.00e+00	0	39	0	602931200	52	4468
2026-01-14 02:35:56.98	3.39	17.39	-40.3	-42.2	18.8	0.00e+00	0	39	0	608174080	52	4430
2026-01-14 02:35:58.12	3.29	17.51	-40.3	-42.2	18.8	0.00e+00	0	39	0	614465536	52	4416
2026-01-14 02:35:58.97	3.21	17.60	-40.3	-42.3	18.7	0.00e+00	0	39	0	619708416	52	4451
2026-01-14 02:36:00.11	3.10	17.73	-40.2	-42.2	18.8	0.00e+00	0	39	0	625999872	52	4402
2026-01-14 02:36:00.96	3.02	17.82	-40.1	-42.0	19.0	0.00e+00	0	39	0	630194176	52	4336
2026-01-14 02:36:02.10	2.91	17.95	-40.1	-42.1	19.0	0.00e+00	0	39	0	636485632	52	4348
2026-01-14 02:36:02.95	2.83	18.04	-40.2	-42.1	19.0	0.00e+00	0	39	0	641728512	52	4361
2026-01-14 02:36:04.09	2.72	18.16	-40.2	-42.1	18.9	0.00e+00	0	39	0	648019968	52	4361
2026-01-14 02:36:04.94	2.64	18.26	-40.2	-42.1	19.0	0.00e+00	0	39	0	652214272	52	4358
2026-01-14 02:36:06.08	2.53	18.38	-40.1	-42.0	19.1	0.00e+00	0	39	0	659554304	52	4303
2026-01-14 02:36:07.01	2.43	18.49	-40.1	-41.9	19.1	0.00e+00	0	39	0	664797184	52	4290
2026-01-14 02:36:08.01	2.33	18.60	-40.2	-42.1	19.0	0.00e+00	0	39	0	670040064	52	4341
2026-01-14 02:36:09.00	2.24	18.71	-40.1	-42.0	19.1	0.00e+00	0	39	0	675282944	52	4323
2026-01-14 02:36:10.00	2.13	18.82	-40.1	-42.0	19.1	0.00e+00	0	39	0	681574400	52	4307
2026-01-14 02:36:11.00	2.03	18.94	-40.1	-42.1	19.0	0.00e+00	0	39	0	686817280	52	4347
2026-01-14 02:36:11.99	1.93	19.05	-40.1	-42.0	19.1	0.00e+00	0	39	0	692060160	52	4295
2026-01-14 02:36:12.99	1.83	19.16	-40.1	-42.0	19.0	0.00e+00	0	39	0	698351616	52	4336
2026-01-14 02:36:13.98	1.72	19.28	-40.0	-41.9	19.1	0.00e+00	0	39	0	703594496	52	4284
2026-01-14 02:36:14.98	1.62	19.39	-40.0	-41.9	19.2	0.00e+00	0	39	0	708837376	52	4267
2026-01-14 02:36:15.97	1.51	19.50	-40.0	-41.9	19.1	0.00e+00	0	39	0	715128832	52	4280
2026-01-14 02:36:16.97	1.41	19.62	-40.1	-42.0	19.1	0.00e+00	0	39	0	720371712	52	4308
2026-01-14 02:36:17.97	1.30	19.74	-40.0	-41.9	19.2	0.00e+00	0	39	0	726663168	52	4264
2026-01-14 02:36:18.96	1.19	19.85	-40.0	-41.9	19.2	0.00e+00	0	39	0	731906048	52	4254
2026-01-14 02:36:19.95	1.08	19.97	-39.8	-41.7	19.4	0.00e+00	0	39	0	737148928	51	4410
2026-01-14 02:36:20.95	0.97	20.08	-39.8	-41.7	19.4	0.00e+00	0	39	0	742391808	51	4399
2026-01-14 02:36:21.94	0.87	20.20	-39.7	-41.6	19.5	0.00e+00	0	39	0	748683264	51	4351
2026-01-14 02:36:22.93	0.75	20.32	-39.8	-41.7	19.5	0.00e+00	0	39	0	753926144	51	4409
2026-01-14 02:36:23.93	0.64	20.44	-39.8	-41.6	19.5	0.00e+00	0	39	0	759169024	51	4386
2026-01-14 02:36:24.92	0.53	20.55	-39.8	-41.7	19.5	0.00e+00	0	39	0	765460480	51	4400
2026-01-14 02:36:25.92	0.41	20.67	-39.6	-41.4	19.7	0.00e+00	0	39	0	770703360	51	4278
2026-01-14 02:36:26.92	0.30	20.79	-39.5	-41.4	19.7	0.00e+00	0	39	0	776994816	51	4254
2026-01-14 02:36:27.91	0.18	20.91	-39.5	-41.3	19.8	0.00e+00	0	39	0	782237696	51	4239
2026-01-14 02:36:28.91	0.07	21.03	-39.5	-41.3	19.8	0.00e+00	0	39	0	787480576	50	4470
2026-01-14 02:36:29.90	359.95	21.15	-39.5	-41.4	19.7	0.00e+00	0	39	0	792723456	50	4509
2026-01-14 02:36:30.93	359.83	21.28	-39.6	-41.4	19.7	0.00e+00	0	39	0	799014912	50	4542
2026-01-14 02:36:31.94	359.71	21.40	-39.5	-41.4	19.7	0.00e+00	0	39	0	804257792	50	4509
2026-01-14 02:36:32.95	359.58	21.53	-39.5	-41.4	19.7	0.00e+00	0	39	0	810549248	50	4506
2026-01-14 02:36:33.96	359.46	21.65	-39.6	-41.5	19.7	0.00e+00	0	39	0	815792128	50	4549
2026-01-14 02:36:34.97	359.34	21.78	-39.5	-41.3	19.8	0.00e+00	0	39	0	822083584	50	4479
2026-01-14 02:36:36.00	359.21	21.90	-39.5	-41.4	19.8	0.00e+00	0	39	0	827326464	50	4508
2026-01-14 02:36:36.99	359.08	22.03	-39.5	-41.4	19.8	0.00e+00	0	39	0	832569344	50	4513
2026-01-14 02:36:37.99	358.96	22.15	-39.5	-41.4	19.8	0.00e+00	0	39	0	838860800	50	4502
2026-01-14 02:36:38.98	358.83	22.28	-39.6	-41.4	19.7	0.00e+00	0	39	0	844103680	50	4535
2026-01-14 02:36:39.98	358.70	22.40	-39.2	-41.1	20.0	0.00e+00	0	39	0	850395136	50	4356
2026-01-14 02:36:40.97	358.57	22.53	-39.2	-41.0	20.1	0.00e+00	0	39	0	855638016	50	4330
2026-01-14 02:36:41.96	358.45	22.65	-39.2	-41.1	20.1	0.00e+00	0	39	0	860880896	50	4341
2026-01-14 02:36:42.96	358.31	22.78	-39.2	-41.0	20.1	0.00e+00	0	39	0	867172352	50	4317
2026-01-14 02:36:43.95	358.18	22.91	-39.1	-40.9	20.2	0.00e+00	0	39	0	872415232	50	4285
2026-01-14 02:36:44.95	358.05	23.04	-39.1	-40.9	20.2	0.00e+00	0	39	0	877658112	50	4283
2026-01-14 02:36:45.95	357.91	23.16	-39.1	-40.9	20.2	0.00e+00	0	39	0	882900992	50	4271
2026-01-14 02:36:46.94	357.78	23.29	-39.0	-40.8	20.3	0.00e+00	0	39	0	889192448	50	4222
2026-01-14 02:36:47.94	357.64	23.42	-39.0	-40.8	20.3	0.00e+00	0	39	0	894435328	49	4450
2026-01-14 02:36:48.98	357.50	23.56	-39.1	-40.9	20.2	0.00e+00	0	39	0	900726784	49	4510
2026-01-14 02:36:49.97	357.36	23.69	-39.0	-40.8	20.3	0.00e+00	0	39	0	905969664	49	4478
2026-01-14 02:36:50.97	357.22	23.82	-39.0	-40.8	20.3	0.00e+00	0	39	0	912261120	49	4471
2026-01-14 02:36:51.96	357.08	23.95	-38.9	-40.7	20.4	0.00e+00	0	39	0	917504000	49	4404
2026-01-14 02:36:52.95	356.94	24.08	-38.9	-40.7	20.4	0.00e+00	0	39	0	922746880	49	4440
2026-01-14 02:36:53.95	356.79	24.21	-38.9	-40.7	20.4	0.00e+00	0	39	0	927989760	49	4424
2026-01-14 02:36:54.94	356.65	24.34	-38.9	-40.7	20.4	0.00e+00	0	39	0	934281216	49	4428
2026-01-14 02:36:55.94	356.50	24.48	-38.8	-40.7	20.5	0.00e+00	0	39	0	939524096	49	4396
2026-01-14 02:36:56.93	356.35	24.61	-38.8	-40.7	20.4	0.00e+00	0	39	0	944766976	49	4415
2026-01-14 02:36:57.93	356.20	24.74	-38.8	-40.7	20.4	0.00e+00	0	39	0	951058432	49	4402
2026-01-14 02:36:58.92	356.05	24.88	-38.7	-40.5	20.5	0.00e+00	0	39	0	956301312	49	4339
2026-01-14 02:36:59.92	355.90	25.01	-38.6	-40.4	20.6	0.00e+00	0	39	0	962592768	49	4279
2026-01-14 02:37:00.91	355.75	25.15	-38.6	-40.4	20.7	0.00e+00	0	39	0	967835648	49	4277
2026-01-14 02:37:01.94	355.59	25.29	-38.6	-40.4	20.6	0.00e+00	0	39	0	973078528	49	4274
2026-01-14 02:37:02.98	355.43	25.43	-38.6	-40.5	20.6	0.00e+00	0	39	0	979369984	49	4307
2026-01-14 02:37:03.93	355.28	25.56	-38.6	-40.5	20.6	0.00e+00	0	39	0	984612864	49	4301
2026-01-14 02:37:04.92	355.12	25.70	-38.7	-40.6	20.5	0.00e+00	0	39	0	989855744	49	4346
2026-01-14 02:37:05.91	354.96	25.83	-38.6	-40.4	20.6	0.00e+00	0	39	0	996147200	49	4290
2026-01-14 02:37:06.91	354.80	25.97	-38.7	-40.6	20.5	0.00e+00	0	39	0	1001390080	49	4345
2026-01-14 02:37:07.90	354.64	26.11	-38.7	-40.5	20.6	0.00e+00	0	39	0	1006632960	49	4315
2026-01-14 02:37:08.90	354.47	26.25	-38.5	-40.3	20.8	0.00e+00	0	39	0	1012924416	49	4213
2026-01-14 02:37:09.89	354.31	26.39	-38.4	-40.2	20.9	0.00e+00	0	39	0	1018167296	48	4414
2026-01-14 02:37:10.89	354.14	26.53	-38.5	-40.2	20.9	0.00e+00	0	39	0	1023410176	48	4434
2026-01-14 02:37:11.88	353.97	26.67	-38.5	-40.2	20.8	0.00e+00	0	39	0	1029701632	48	4430
2026-01-14 02:37:12.88	353.80	26.81	-38.3	-40.0	21.0	0.00e+00	0	39	0	1034944512	48	4339
2026-01-14 02:37:13.87	353.63	26.95	-38.4	-40.2	20.9	0.00e+00	0	39	0	1040187392	48	4392
2026-01-14 02:37:14.87	353.46	27.09	-38.4	-40.2	20.9	0.00e+00	0	39	0	1046478848	48	4416
2026-01-14 02:37:15.88	353.28	27.24	-38.4	-40.2	20.9	0.00e+00	0	39	0	1051721728	48	4425
2026-01-14 02:37:16.87	353.10	27.38	-38.5	-40.3	20.8	0.00e+00	0	39	0	1056964608	48	4457
2026-01-14 02:37:17.93	352.91	27.53	-38.6	-40.3	20.7	0.00e+00	0	39	0	1063256064	48	4491
2026-01-14 02:37:18.83	352.75	27.66	-38.5	-40.3	20.8	0.00e+00	0	39	0	1068498944	48	4475
2026-01-14 02:37:19.88	352.56	27.81	-38.5	-40.3	20.8	0.00e+00	0	39	0	1074790400	48	4476
2026-01-14 02:37:20.83	352.38	27.95	-38.6	-40.3	20.8	0.00e+00	0	39	0	1080033280	48	4471
2026-01-14 02:37:21.83	352.20	28.09	-38.5	-40.2	20.9	0.00e+00	0	39	0	1085276160	48	4428
2026-01-14 02:37:22.83	352.01	28.24	-38.5	-40.2	20.9	0.00e+00	0	39	0	1090519040	48	4431
2026-01-14 02:37:23.83	351.82	28.39	-38.4	-40.1	21.0	0.00e+00	0	39	0	1096810496	48	4364
2026-01-14 02:37:24.82	351.63	28.53	-38.3	-40.0	21.1	0.00e+00	0	39	0	1102053376	48	4328
2026-01-14 02:37:25.81	351.44	28.68	-38.2	-40.0	21.1	0.00e+00	0	39	0	1107296256	48	4296
2026-01-14 02:37:26.81	351.25	28.82	-38.2	-39.9	21.1	0.00e+00	0	39	0	1113587712	48	4287
2026-01-14 02:37:27.81	351.05	28.97	-38.3	-40.1	21.0	0.00e+00	0	39	0	1118830592	48	4353
2026-01-14 02:37:28.80	350.86	29.12	-38.4	-40.2	20.9	0.00e+00	0	39	0	1124073472	48	4395
2026-01-14 02:37:29.80	350.66	29.27	-38.5	-40.2	20.9	0.00e+00	0	39	0	1130364928	48	4429
2026-01-14 02:37:30.84	350.45	29.42	-38.5	-40.2	20.9	0.00e+00	0	39	0	1135607808	48	4441
2026-01-14 02:37:31.83	350.25	29.57	-38.6	-40.4	20.8	0.00e+00	0	39	0	1141899264	48	4504
2026-01-14 02:37:32.83	350.04	29.72	-38.5	-40.3	20.8	0.00e+00	0	39	0	1147142144	48	4461
2026-01-14 02:37:33.93	349.81	29.89	-38.5	-40.3	20.8	0.00e+00	0	39	0	1153433600	48	4457
2026-01-14 02:37:34.82	349.62	30.02	-38.5	-40.3	20.9	0.00e+00	0	39	0	1158676480	48	4449
2026-01-14 02:37:36.13	349.35	30.22	-38.6	-40.4	20.7	0.00e+00	0	39	0	1166016512	48	4513
2026-01-14 02:37:36.84	349.20	30.33	-38.4	-40.1	20.9	0.00e+00	0	39	0	1169162240	48	4389
2026-01-14 02:37:38.12	348.92	30.52	-38.3	-40.1	21.0	0.00e+00	0	39	0	1176502272	48	4356
2026-01-14 02:37:38.83	348.76	30.63	-38.4	-40.1	21.0	0.00e+00	0	39	0	1180696576	48	4372
2026-01-14 02:37:40.11	348.48	30.82	-38.5	-40.2	20.9	0.00e+00	0	39	0	1188036608	48	4416
2026-01-14 02:37:40.82	348.32	30.93	-38.4	-40.1	21.0	0.00e+00	0	39	0	1192230912	48	4362
2026-01-14 02:37:42.10	348.04	31.13	-38.4	-40.1	21.0	0.00e+00	0	39	0	1199570944	48	4380
2026-01-14 02:37:42.88	347.86	31.25	-38.3	-40.1	21.0	0.00e+00	0	39	0	1203765248	48	4349
2026-01-14 02:37:44.16	347.57	31.44	-38.2	-39.9	21.2	0.00e+00	0	39	0	1211105280	48	4263
2026-01-14 02:37:44.96	347.38	31.57	-38.2	-39.9	21.1	0.00e+00	0	39	0	1215299584	48	4285
2026-01-14 02:37:46.10	347.12	31.74	-38.1	-39.8	21.3	0.00e+00	0	39	0	1221591040	48	4227
2026-01-14 02:37:46.95	346.92	31.87	-38.1	-39.8	21.3	0.00e+00	0	39	0	1226833920	48	4234
2026-01-14 02:37:48.09	346.65	32.05	-38.2	-39.9	21.1	0.00e+00	0	39	0	1233125376	48	4285
2026-01-14 02:37:48.94	346.44	32.18	-38.2	-39.9	21.1	0.00e+00	0	39	0	1237319680	48	4277
2026-01-14 02:37:50.07	346.17	32.36	-38.0	-39.8	21.3	0.00e+00	0	39	0	1244659712	48	4204
2026-01-14 02:37:51.29	345.87	32.54	-38.0	-39.8	21.3	0.00e+00	0	39	0	1250951168	48	4202
2026-01-14 02:37:52.32	345.61	32.71	-38.0	-39.8	21.3	0.00e+00	0	39	0	1257242624	48	4197
2026-01-14 02:37:53.31	345.37	32.86	-37.9	-39.6	21.2	0.00e+00	0	39	0	1262485504	47	4357
2026-01-14 02:37:54.31	345.11	33.02	-37.9	-39.6	21.2	0.00e+00	0	39	0	1267728384	47	4372
2026-01-14 02:37:55.30	344.86	33.17	-37.8	-39.5	21.3	0.00e+00	0	39	0	1272971264	47	4321
2026-01-14 02:37:56.30	344.60	33.33	-37.9	-39.7	21.2	0.00e+00	0	39	0	1279262720	47	4402
2026-01-14 02:37:57.29	344.35	33.48	-38.0	-39.8	21.1	0.00e+00	0	39	0	1284505600	47	4451
2026-01-14 02:37:58.29	344.08	33.64	-38.1	-39.8	21.0	0.00e+00	0	39	0	1290797056	47	4472
2026-01-14 02:37:59.28	343.82	33.79	-38.1	-39.8	21.0	0.00e+00	0	39	0	1296039936	47	4480
2026-01-14 02:38:00.28	343.55	33.95	-38.1	-39.8	21.0	0.00e+00	0	39	0	1301282816	47	4465
2026-01-14 02:38:01.27	343.28	34.10	-38.0	-39.8	21.1	0.00e+00	0	39	0	1307574272	47	4459
2026-01-14 02:38:02.27	343.01	34.26	-38.1	-39.9	21.0	0.00e+00	0	39	0	1312817152	47	4506
2026-01-14 02:38:03.26	342.74	34.42	-38.2	-40.0	20.9	0.00e+00	0	39	0	1318060032	47	4559
2026-01-14 02:38:04.26	342.46	34.57	-38.3	-40.1	20.8	0.00e+00	0	39	0	1323302912	47	4616
2026-01-14 02:38:05.25	342.18	34.73	-38.1	-39.9	20.9	0.00e+00	0	39	0	1329594368	47	4528
2026-01-14 02:38:06.25	341.90	34.89	-38.0	-39.8	21.0	0.00e+00	0	39	0	1334837248	47	4455
2026-01-14 02:38:07.24	341.61	35.04	-38.1	-39.8	21.0	0.00e+00	0	39	0	1341128704	47	4493
2026-01-14 02:38:08.23	341.33	35.20	-37.9	-39.6	21.2	0.00e+00	0	39	0	1346371584	47	4388
2026-01-14 02:38:09.23	341.03	35.35	-37.9	-39.6	21.2	0.00e+00	0	39	0	1351614464	47	4367
2026-01-14 02:38:10.22	340.74	35.51	-37.8	-39.6	21.2	0.00e+00	0	39	0	1357905920	47	4351
2026-01-14 02:38:11.22	340.44	35.67	-37.9	-39.6	21.2	0.00e+00	0	39	0	1363148800	47	4388
2026-01-14 02:38:12.21	340.15	35.82	-38.0	-39.8	21.1	0.00e+00	0	39	0	1368391680	47	4453
2026-01-14 02:38:13.21	339.84	35.98	-38.1	-39.8	21.1	0.00e+00	0	39	0	1373634560	47	4471
2026-01-14 02:38:14.20	339.54	36.13	-38.0	-39.7	21.1	0.00e+00	0	39	0	1379926016	47	4423
2026-01-14 02:38:15.53	339.13	36.34	-37.8	-39.5	21.3	0.00e+00	0	39	0	1387266048	47	4327
2026-01-14 02:38:16.27	338.89	36.45	-37.8	-39.5	21.3	0.00e+00	0	39	0	1391460352	47	4325
2026-01-14 02:38:17.55	338.49	36.65	-37.8	-39.5	21.3	0.00e+00	0	39	0	1398800384	47	4329
2026-01-14 02:38:18.26	338.26	36.76	-37.9	-39.6	21.2	0.00e+00	0	39	0	1402994688	47	4371
2026-01-14 02:38:19.54	337.85	36.96	-38.0	-39.7	21.1	0.00e+00	0	39	0	1410334720	47	4427
2026-01-14 02:38:20.25	337.62	37.07	-38.0	-39.7	21.1	0.00e+00	0	39	0	1413480448	47	4438
2026-01-14 02:38:21.53	337.20	37.27	-37.9	-39.6	21.2	0.00e+00	0	39	0	1420820480	47	4379
2026-01-14 02:38:22.25	336.96	37.38	-37.9	-39.6	21.2	0.00e+00	0	39	0	1425014784	47	4388
2026-01-14 02:38:23.53	336.53	37.58	-37.9	-39.6	21.2	0.00e+00	0	39	0	1432354816	47	4385
2026-01-14 02:38:24.24	336.29	37.68	-37.9	-39.6	21.3	0.00e+00	0	39	0	1436549120	47	4361
2026-01-14 02:38:25.52	335.85	37.88	-37.9	-39.7	21.2	0.00e+00	0	39	0	1443889152	47	4404
2026-01-14 02:38:26.23	335.61	37.99	-38.0	-39.8	21.1	0.00e+00	0	39	0	1447034880	47	4451
2026-01-14 02:38:27.55	335.15	38.19	-38.1	-39.9	21.0	0.00e+00	0	39	0	1454374912	47	4500
2026-01-14 02:38:28.25	334.90	38.29	-38.2	-39.9	20.9	0.00e+00	0	39	0	1458569216	47	4543
2026-01-14 02:38:29.63	334.41	38.50	-38.1	-39.8	21.0	0.00e+00	0	39	0	1466957824	47	4468
2026-01-14 02:38:30.34	334.16	38.61	-38.1	-39.8	21.0	0.00e+00	0	39	0	1470103552	47	4487
2026-01-14 02:38:31.62	333.70	38.80	-38.1	-39.8	21.0	0.00e+00	0	39	0	1477443584	47	4467
2026-01-14 02:38:32.68	333.31	38.96	-38.1	-39.8	21.0	0.00e+00	0	39	0	1483735040	47	4472
2026-01-14 02:38:33.86	332.87	39.13	-38.1	-39.8	21.0	0.00e+00	0	39	0	1491075072	47	4485
2026-01-14 02:38:34.71	332.56	39.26	-38.2	-39.9	21.0	0.00e+00	0	39	0	1495269376	47	4528
2026-01-14 02:38:35.85	332.13	39.42	-38.1	-39.9	21.0	0.00e+00	0	39	0	1501560832	47	4506
2026-01-14 02:38:36.70	331.80	39.55	-38.2	-39.9	20.9	0.00e+00	0	39	0	1506803712	47	4524
2026-01-14 02:38:37.84	331.37	39.71	-38.3	-40.0	20.8	0.00e+00	0	39	0	1513095168	47	4586
2026-01-14 02:38:38.69	331.04	39.83	-38.3	-40.1	20.8	0.00e+00	0	39	0	1517289472	47	4601
2026-01-14 02:38:39.82	330.60	39.99	-38.1	-39.9	21.0	0.00e+00	0	39	0	1523580928	47	4510
2026-01-14 02:38:40.68	330.26	40.12	-38.1	-39.9	21.0	0.00e+00	0	39	0	1528823808	47	4536
2026-01-14 02:38:41.81	329.81	40.28	-38.1	-39.9	21.0	0.00e+00	0	39	0	1535115264	47	4501
2026-01-14 02:38:42.67	329.47	40.40	-38.1	-39.9	21.0	0.00e+00	0	39	0	1540358144	47	4494
2026-01-14 02:38:43.91	328.97	40.57	-38.0	-39.7	21.1	0.00e+00	0	39	0	1546649600	47	4435
2026-01-14 02:38:44.77	328.62	40.69	-38.0	-39.7	21.1	0.00e+00	0	39	0	1551892480	47	4433
2026-01-14 02:38:45.98	328.12	40.85	-38.0	-39.7	21.1	0.00e+00	0	39	0	1558183936	47	4427
2026-01-14 02:38:46.83	327.77	40.97	-38.1	-39.8	21.0	0.00e+00	0	39	0	1563426816	47	4471
2026-01-14 02:38:48.04	327.26	41.13	-38.1	-39.8	21.0	0.00e+00	0	39	0	1569718272	47	4492
2026-01-14 02:38:48.89	326.90	41.24	-38.0	-39.8	21.1	0.00e+00	0	39	0	1574961152	47	4457
2026-01-14 02:38:50.07	326.40	41.40	-37.9	-39.7	21.2	0.00e+00	0	39	0	1581252608	47	4392
2026-01-14 02:38:50.93	326.03	41.51	-37.8	-39.5	21.3	0.00e+00	0	39	0	1586495488	47	4325
2026-01-14 02:38:52.09	325.53	41.66	-37.8	-39.5	21.3	0.00e+00	0	39	0	1592786944	47	4333
2026-01-14 02:38:52.95	325.16	41.77	-37.8	-39.5	21.3	0.00e+00	0	39	0	1598029824	47	4332
2026-01-14 02:38:54.13	324.64	41.92	-37.8	-39.5	21.3	0.00e+00	0	39	0	1604321280	47	4320
2026-01-14 02:38:55.41	324.07	42.07	-38.0	-39.7	21.2	0.00e+00	0	39	0	1611661312	47	4406
2026-01-14 02:38:56.12	323.75	42.16	-38.0	-39.8	21.1	0.00e+00	0	39	0	1615855616	47	4456
2026-01-14 02:38:57.40	323.17	42.32	-37.7	-39.4	21.4	0.00e+00	0	39	0	1623195648	47	4290
2026-01-14 02:38:58.13	322.84	42.40	-37.6	-39.3	21.5	0.00e+00	0	39	0	1627389952	47	4208
2026-01-14 02:38:59.41	322.26	42.55	-37.8	-39.5	21.3	0.00e+00	0	39	0	1634729984	47	4314
2026-01-14 02:39:00.12	321.93	42.64	-37.9	-39.7	21.1	0.00e+00	0	39	0	1637875712	47	4416
2026-01-14 02:39:01.40	321.34	42.78	-37.8	-39.6	21.2	0.00e+00	0	39	0	1645215744	47	4346
2026-01-14 02:39:02.15	320.99	42.87	-37.8	-39.6	21.2	0.00e+00	0	39	0	1649410048	47	4349
2026-01-14 02:39:03.43	320.38	43.01	-37.7	-39.4	21.4	0.00e+00	0	39	0	1656750080	47	4265
2026-01-14 02:39:04.14	320.05	43.08	-37.7	-39.5	21.3	0.00e+00	0	39	0	1660944384	47	4301
2026-01-14 02:39:05.42	319.44	43.22	-37.5	-39.2	21.5	0.00e+00	0	39	0	1668284416	47	4181
2026-01-14 02:39:06.14	319.09	43.30	-37.4	-39.1	21.6	0.00e+00	0	39	0	1672478720	46	4389
2026-01-14 02:39:07.42	318.47	43.43	-37.6	-39.3	21.5	0.00e+00	0	39	0	1679818752	46	4463
2026-01-14 02:39:08.18	318.10	43.50	-37.6	-39.3	21.5	0.00e+00	0	39	0	1684013056	46	4457
2026-01-14 02:39:09.76	317.33	43.66	-37.6	-39.3	21.5	0.00e+00	0	39	0	1692401664	46	4455
2026-01-14 02:39:10.37	317.03	43.72	-37.6	-39.4	21.4	0.00e+00	0	39	0	1695547392	46	4498
2026-01-14 02:39:11.94	316.25	43.86	-37.9	-39.6	21.3	0.00e+00	0	39	0	1704984576	46	4610
2026-01-14 02:39:12.64	315.90	43.93	-37.9	-39.7	21.2	0.00e+00	0	39	0	1708130304	46	4657
2026-01-14 02:39:13.92	315.25	44.04	-37.8	-39.5	21.3	0.00e+00	0	39	0	1715470336	46	4597
2026-01-14 02:39:14.63	314.89	44.10	-37.7	-39.5	21.3	0.00e+00	0	39	0	1719664640	46	4549
2026-01-14 02:39:15.91	314.24	44.21	-37.6	-39.3	21.5	0.00e+00	0	39	0	1727004672	46	4448
2026-01-14 02:39:16.65	313.86	44.27	-37.5	-39.2	21.6	0.00e+00	0	39	0	1731198976	46	4408
2026-01-14 02:39:17.93	313.21	44.37	-37.7	-39.4	21.4	0.00e+00	0	39	0	1738539008	46	4511
2026-01-14 02:39:18.64	312.84	44.43	-37.7	-39.4	21.4	0.00e+00	0	39	0	1742733312	46	4535
2026-01-14 02:39:19.92	312.18	44.52	-37.8	-39.5	21.3	0.00e+00	0	39	0	1750073344	46	4566
2026-01-14 02:39:20.63	311.81	44.57	-37.8	-39.5	21.3	0.00e+00	0	39	0	1753219072	46	4580
2026-01-14 02:39:21.91	311.14	44.66	-37.9	-39.7	21.2	0.00e+00	0	39	0	1760559104	46	4657
2026-01-14 02:39:22.63	310.76	44.71	-38.0	-39.8	21.0	0.00e+00	0	39	0	1764753408	46	4723
2026-01-14 02:39:23.91	310.08	44.79	-38.1	-39.8	21.0	0.00e+00	0	39	0	1772093440	46	4756
2026-01-14 02:39:24.62	309.71	44.84	-38.0	-39.7	21.1	0.00e+00	0	39	0	1776287744	46	4703
2026-01-14 02:39:25.90	309.02	44.91	-38.0	-39.7	21.1	0.00e+00	0	39	0	1782579200	46	4672
2026-01-14 02:39:26.61	308.64	44.95	-38.1	-39.8	21.0	0.00e+00	0	39	0	1787822080	46	4741
2026-01-14 02:39:27.89	307.96	45.02	-38.0	-39.7	21.1	0.00e+00	0	39	0	1794113536	46	4693
2026-01-14 02:39:28.61	307.57	45.06	-38.0	-39.7	21.1	0.00e+00	0	39	0	1798307840	46	4668
2026-01-14 02:39:29.89	306.88	45.12	-38.0	-39.7	21.1	0.00e+00	0	39	0	1805647872	46	4692
2026-01-14 02:39:30.62	306.49	45.15	-37.9	-39.7	21.2	0.00e+00	0	39	0	1809842176	46	4665
2026-01-14 02:39:31.90	305.79	45.21	-38.1	-39.8	21.0	0.00e+00	0	39	0	1817182208	46	4736
2026-01-14 02:39:32.63	305.39	45.24	-38.0	-39.8	21.1	0.00e+00	0	39	0	1821376512	46	4710
2026-01-14 02:39:33.91	304.70	45.28	-37.8	-39.5	21.3	0.00e+00	0	39	0	1828716544	46	4556
2026-01-14 02:39:34.62	304.31	45.31	-37.8	-39.5	21.3	0.00e+00	0	39	0	1831862272	46	4588
2026-01-14 02:39:35.90	303.61	45.35	-37.9	-39.7	21.2	0.00e+00	0	39	0	1839202304	46	4658
2026-01-14 02:39:36.63	303.21	45.37	-38.0	-39.7	21.1	0.00e+00	0	39	0	1843396608	46	4689
2026-01-14 02:39:38.05	302.43	45.41	-37.8	-39.5	21.3	0.00e+00	0	39	0	1851785216	46	4569
2026-01-14 02:39:38.76	302.03	45.42	-37.8	-39.5	21.3	0.00e+00	0	39	0	1855979520	46	4593
2026-01-14 02:39:40.12	301.28	45.45	-37.9	-39.6	21.2	0.00e+00	0	39	0	1863319552	46	4607
2026-01-14 02:39:40.83	300.89	45.46	-37.8	-39.5	21.3	0.00e+00	0	39	0	1867513856	46	4561
2026-01-14 02:39:42.11	300.18	45.48	-37.8	-39.6	21.2	0.00e+00	0	39	0	1874853888	46	4600
2026-01-14 02:39:42.82	299.79	45.48	-37.8	-39.6	21.2	0.00e+00	0	39	0	1877999616	46	4604
2026-01-14 02:39:44.23	299.01	45.49	-37.8	-39.5	21.3	0.00e+00	0	39	0	1886388224	46	4596
2026-01-14 02:39:44.94	298.62	45.50	-37.8	-39.5	21.3	0.00e+00	0	39	0	1890582528	46	4574
2026-01-14 02:39:46.21	297.91	45.50	-37.8	-39.5	21.3	0.00e+00	0	39	0	1897922560	46	4575
2026-01-14 02:39:46.94	297.51	45.50	-37.8	-39.5	21.3	0.00e+00	0	39	0	1901068288	46	4583
2026-01-14 02:39:48.22	296.80	45.49	-37.5	-39.2	21.5	0.00e+00	0	39	0	1908408320	46	4405
2026-01-14 02:39:48.96	296.39	45.48	-37.5	-39.2	21.5	0.00e+00	0	39	0	1912602624	46	4434
2026-01-14 02:39:50.24	295.68	45.47	-37.7	-39.4	21.4	0.00e+00	0	39	0	1919942656	46	4534
2026-01-14 02:39:50.95	295.29	45.46	-37.8	-39.5	21.3	0.00e+00	0	39	0	1924136960	46	4557
2026-01-14 02:39:52.23	294.58	45.44	-37.6	-39.3	21.5	0.00e+00	0	39	0	1931476992	46	4471
2026-01-14 02:39:52.95	294.19	45.43	-37.7	-39.4	21.4	0.00e+00	0	39	0	1935671296	46	4501
2026-01-14 02:39:54.23	293.48	45.40	-37.8	-39.5	21.3	0.00e+00	0	39	0	1943011328	46	4572
2026-01-14 02:39:54.94	293.09	45.38	-38.1	-39.8	21.0	0.00e+00	0	39	0	1946157056	46	4753
2026-01-14 02:39:56.22	292.39	45.34	-37.9	-39.6	21.2	0.00e+00	0	39	0	1953497088	46	4646
2026-01-14 02:39:56.95	291.99	45.32	-37.9	-39.6	21.2	0.00e+00	0	39	0	1957691392	46	4599
2026-01-14 02:39:58.23	291.29	45.28	-37.8	-39.5	21.4	0.00e+00	0	39	0	1965031424	46	4549
2026-01-14 02:39:59.19	290.76	45.24	-37.7	-39.4	21.4	0.00e+00	0	39	0	1970274304	46	4514
2026-01-14 02:40:00.47	290.07	45.19	-37.5	-39.2	21.6	0.00e+00	0	39	0	1977614336	46	4410
2026-01-14 02:40:01.22	289.66	45.15	-37.4	-39.1	21.6	0.00e+00	0	39	0	1981808640	46	4369
2026-01-14 02:40:02.50	288.97	45.10	-37.7	-39.4	21.4	0.00e+00	0	39	0	1989148672	46	4536
2026-01-14 02:40:03.22	288.58	45.06	-37.9	-39.6	21.3	0.00e+00	0	39	0	1993342976	46	4617
2026-01-14 02:40:04.86	287.70	44.97	-37.8	-39.5	21.3	0.00e+00	0	39	0	2002780160	46	4586
2026-01-14 02:40:05.43	287.39	44.94	-37.8	-39.5	21.3	0.00e+00	0	39	0	2005925888	46	4589
2026-01-14 02:40:07.14	286.48	44.84	-37.7	-39.4	21.4	0.00e+00	0	39	0	2015363072	46	4536
2026-01-14 02:40:07.74	286.16	44.81	-37.9	-39.6	21.2	0.00e+00	0	39	0	2018508800	46	4624
2026-01-14 02:40:09.30	285.34	44.71	-37.8	-39.5	21.3	0.00e+00	0	39	0	2026897408	46	4572
2026-01-14 02:40:09.95	284.99	44.66	-37.8	-39.6	21.3	0.00e+00	0	39	0	2031091712	46	4599
2026-01-14 02:40:11.37	284.25	44.56	-37.7	-39.4	21.4	0.00e+00	0	39	0	2039480320	46	4537
2026-01-14 02:40:12.08	283.88	44.51	-37.6	-39.3	21.5	0.00e+00	0	39	0	2042626048	46	4475
2026-01-14 02:40:13.36	283.22	44.42	-37.6	-39.3	21.5	0.00e+00	0	39	0	2049966080	46	4445
2026-01-14 02:40:14.10	282.83	44.36	-37.6	-39.3	21.5	0.00e+00	0	39	0	2054160384	46	4479
2026-01-14 02:40:15.38	282.18	44.26	-37.6	-39.4	21.4	0.00e+00	0	39	0	2061500416	46	4497
2026-01-14 02:40:16.09	281.81	44.20	-37.8	-39.5	21.3	0.00e+00	0	39	0	2065694720	46	4561
2026-01-14 02:40:17.37	281.16	44.09	-37.7	-39.3	21.4	0.00e+00	0	39	0	2073034752	46	4489
2026-01-14 02:40:18.10	280.79	44.03	-37.7	-39.4	21.4	0.00e+00	0	39	0	2076180480	46	4528
2026-01-14 02:40:19.38	280.15	43.91	-37.7	-39.4	21.4	0.00e+00	0	39	0	2083520512	46	4507
2026-01-14 02:40:20.09	279.79	43.85	-37.6	-39.3	21.5	0.00e+00	0	39	0	2087714816	46	4467
2026-01-14 02:40:21.38	279.15	43.73	-37.5	-39.2	21.5	0.00e+00	0	39	0	2095054848	46	4431
2026-01-14 02:40:22.09	278.80	43.66	-37.4	-39.1	21.6	0.00e+00	0	39	0	2099249152	46	4372
2026-01-14 02:40:23.45	278.13	43.52	-37.5	-39.2	21.6	0.00e+00	0	39	0	2106589184	46	4417
2026-01-14 02:40:24.16	277.78	43.45	-37.5	-39.2	21.6	0.00e+00	0	39	0	2110783488	46	4423
2026-01-14 02:40:25.44	277.16	43.32	-37.5	-39.2	21.6	0.00e+00	0	39	0	2118123520	46	4419
2026-01-14 02:40:26.16	276.81	43.25	-37.4	-39.1	21.6	0.00e+00	0	39	0	2122317824	46	4383
2026-01-14 02:40:27.44	276.20	43.11	-37.4	-39.1	21.7	0.00e+00	0	39	0	2129657856	46	4351
2026-01-14 02:40:28.15	275.86	43.03	-37.5	-39.2	21.6	0.00e+00	0	39	0	2132803584	46	4408
2026-01-14 02:40:29.43	275.26	42.89	-37.5	-39.2	21.6	0.00e+00	0	39	0	2140143616	46	4404
2026-01-14 02:40:30.14	274.93	42.81	-37.4	-39.1	21.6	0.00e+00	0	39	0	2144337920	46	4379
2026-01-14 02:40:31.42	274.33	42.67	-37.4	-39.1	21.6	0.00e+00	0	39	0	2151677952	46	4379
2026-01-14 02:40:32.15	273.99	42.58	-37.5	-39.2	21.6	0.00e+00	0	39	0	2155872256	46	4400
2026-01-14 02:40:33.43	273.40	42.43	-37.5	-39.2	21.6	0.00e+00	0	39	0	2163212288	46	4415
2026-01-14 02:40:34.16	273.07	42.35	-37.5	-39.2	21.5	0.00e+00	0	39	0	2167406592	46	4432
2026-01-14 02:40:35.73	272.36	42.16	-37.5	-39.2	21.5	0.00e+00	0	39	0	2175795200	46	4440
2026-01-14 02:40:36.36	272.08	42.08	-37.5	-39.2	21.6	0.00e+00	0	39	0	2179989504	46	4433
2026-01-14 02:40:37.98	271.36	41.88	-37.6	-39.3	21.5	0.00e+00	0	39	0	2188378112	46	4455
2026-01-14 02:40:38.54	271.11	41.81	-37.5	-39.2	21.6	0.00e+00	0	39	0	2191523840	46	4420
2026-01-14 02:40:40.25	270.36	41.59	-37.7	-39.4	21.4	0.00e+00	0	39	0	2200961024	46	4519
2026-01-14 02:40:40.82	270.12	41.52	-37.6	-39.3	21.4	0.00e+00	0	39	0	2205155328	46	4490
2026-01-14 02:40:42.52	269.39	41.29	-37.4	-39.1	21.6	0.00e+00	0	39	0	2214592512	46	4372
2026-01-14 02:40:43.09	269.14	41.22	-37.5	-39.1	21.6	0.00e+00	0	39	0	2217738240	46	4380
2026-01-14 02:40:44.93	268.37	40.97	-37.6	-39.3	21.5	0.00e+00	0	39	0	2228224000	46	4443
2026-01-14 02:40:45.50	268.13	40.89	-37.5	-39.2	21.5	0.00e+00	0	39	0	2230321152	46	4436
2026-01-14 02:40:47.19	267.44	40.66	-37.5	-39.2	21.6	0.00e+00	0	39	0	2240806912	46	4395
2026-01-14 02:40:47.75	267.21	40.59	-37.4	-39.1	21.7	0.00e+00	0	39	0	2243952640	46	4346
2026-01-14 02:40:49.59	266.46	40.33	-37.5	-39.2	21.6	0.00e+00	0	39	0	2253389824	46	4419
2026-01-14 02:40:50.50	266.10	40.20	-37.5	-39.2	21.6	0.00e+00	0	39	0	2258632704	46	4418
2026-01-14 02:40:51.51	265.70	40.06	-37.5	-39.2	21.6	0.00e+00	0	39	0	2264924160	46	4405
2026-01-14 02:40:52.51	265.30	39.92	-37.4	-39.1	21.6	0.00e+00	0	39	0	2270167040	46	4367
2026-01-14 02:40:53.50	264.92	39.77	-37.2	-38.9	21.8	0.00e+00	0	39	0	2275409920	46	4276
2026-01-14 02:40:54.50	264.53	39.63	-37.4	-39.1	21.6	0.00e+00	0	39	0	2281701376	46	4366
2026-01-14 02:40:55.49	264.15	39.48	-37.3	-39.0	21.7	0.00e+00	0	39	0	2286944256	46	4313
2026-01-14 02:40:56.48	263.78	39.34	-37.3	-38.9	21.7	0.00e+00	0	39	0	2292187136	46	4288
2026-01-14 02:40:57.48	263.40	39.19	-37.4	-39.1	21.6	0.00e+00	0	39	0	2298478592	46	4374
2026-01-14 02:40:58.47	263.03	39.05	-37.4	-39.1	21.6	0.00e+00	0	39	0	2303721472	46	4381
2026-01-14 02:40:59.47	262.67	38.90	-37.6	-39.3	21.4	0.00e+00	0	39	0	2310012928	46	4491
2026-01-14 02:41:00.44	262.31	38.75	-37.6	-39.3	21.4	0.00e+00	0	39	0	2315255808	46	4475
2026-01-14 02:41:01.44	261.95	38.60	-37.6	-39.3	21.5	0.00e+00	0	39	0	2320498688	46	4453
2026-01-14 02:41:02.43	261.59	38.45	-37.6	-39.3	21.4	0.00e+00	0	39	0	2325741568	46	4490
2026-01-14 02:41:03.42	261.24	38.30	-37.7	-39.3	21.4	0.00e+00	0	39	0	2332033024	46	4489
2026-01-14 02:41:04.42	260.89	38.15	-37.5	-39.2	21.6	0.00e+00	0	39	0	2337275904	46	4405
2026-01-14 02:41:05.41	260.54	38.00	-37.5	-39.2	21.5	0.00e+00	0	39	0	2343567360	46	4405
2026-01-14 02:41:06.41	260.20	37.85	-37.5	-39.2	21.5	0.00e+00	0	39	0	2348810240	46	4427
2026-01-14 02:41:07.40	259.86	37.70	-37.6	-39.3	21.5	0.00e+00	0	39	0	2354053120	46	4468
2026-01-14 02:41:08.40	259.52	37.54	-37.7	-39.4	21.4	0.00e+00	0	39	0	2359296000	46	4507
2026-01-14 02:41:09.39	259.18	37.39	-37.7	-39.4	21.3	0.00e+00	0	39	0	2365587456	46	4541
2026-01-14 02:41:10.45	258.83	37.23	-37.7	-39.4	21.3	0.00e+00	0	39	0	2370830336	46	4544
2026-01-14 02:41:11.35	258.53	37.09	-37.6	-39.3	21.4	0.00e+00	0	39	0	2376073216	46	4485
2026-01-14 02:41:12.60	258.12	36.89	-37.4	-39.1	21.6	0.00e+00	0	39	0	2383413248	46	4370
2026-01-14 02:41:13.45	257.85	36.76	-37.4	-39.1	21.6	0.00e+00	0	39	0	2387607552	46	4377
2026-01-14 02:41:14.59	257.48	36.58	-37.4	-39.1	21.6	0.00e+00	0	39	0	2394947584	46	4382
2026-01-14 02:41:15.44	257.22	36.45	-37.5	-39.2	21.5	0.00e+00	0	39	0	2399141888	46	4436
2026-01-14 02:41:16.58	256.86	36.27	-37.6	-39.3	21.4	0.00e+00	0	39	0	2405433344	46	4474
2026-01-14 02:41:17.43	256.59	36.14	-37.6	-39.4	21.4	0.00e+00	0	39	0	2410676224	46	4503
2026-01-14 02:41:18.57	256.24	35.96	-37.7	-39.4	21.3	0.00e+00	0	39	0	2416967680	46	4543
2026-01-14 02:41:19.42	255.98	35.83	-37.7	-39.4	21.3	0.00e+00	0	39	0	2422210560	46	4521
2026-01-14 02:41:20.56	255.64	35.65	-37.6	-39.3	21.5	0.00e+00	0	39	0	2428502016	46	4468
2026-01-14 02:41:21.41	255.38	35.51	-37.4	-39.0	21.7	0.00e+00	0	39	0	2432696320	46	4329
2026-01-14 02:41:22.55	255.04	35.34	-37.4	-39.1	21.6	0.00e+00	0	39	0	2438987776	46	4350
2026-01-14 02:41:23.40	254.79	35.20	-37.3	-39.0	21.7	0.00e+00	0	39	0	2444230656	46	4312
2026-01-14 02:41:24.54	254.46	35.02	-37.2	-38.9	21.8	0.00e+00	0	39	0	2450522112	46	4259
2026-01-14 02:41:25.39	254.22	34.89	-37.2	-38.9	21.8	0.00e+00	0	39	0	2455764992	46	4267
2026-01-14 02:41:26.58	253.88	34.70	-37.3	-39.0	21.7	0.00e+00	0	39	0	2462056448	46	4307
2026-01-14 02:41:27.43	253.64	34.57	-37.3	-38.9	21.8	0.00e+00	0	39	0	2467299328	46	4281
2026-01-14 02:41:28.57	253.32	34.39	-37.2	-38.9	21.8	0.00e+00	0	39	0	2473590784	46	4266
2026-01-14 02:41:29.42	253.08	34.25	-37.3	-39.0	21.7	0.00e+00	0	39	0	2477785088	46	4295
2026-01-14 02:41:30.56	252.77	34.07	-37.4	-39.1	21.6	0.00e+00	0	39	0	2484076544	46	4345
2026-01-14 02:41:31.41	252.54	33.94	-37.5	-39.2	21.6	0.00e+00	0	39	0	2489319424	46	4394
2026-01-14 02:41:32.55	252.23	33.76	-37.6	-39.3	21.5	0.00e+00	0	39	0	2495610880	46	4470
2026-01-14 02:41:33.40	252.01	33.63	-37.6	-39.4	21.4	0.00e+00	0	39	0	2499805184	46	4497
2026-01-14 02:41:34.54	251.70	33.45	-37.6	-39.3	21.5	0.00e+00	0	39	0	2507145216	46	4454
2026-01-14 02:41:35.39	251.48	33.31	-37.5	-39.2	21.5	0.00e+00	0	39	0	2511339520	46	4430
2026-01-14 02:41:36.53	251.19	33.13	-37.6	-39.2	21.5	0.00e+00	0	39	0	2517630976	46	4440
2026-01-14 02:41:37.38	250.97	33.00	-37.7	-39.4	21.4	0.00e+00	0	39	0	2522873856	46	4506
2026-01-14 02:41:38.52	250.68	32.82	-37.4	-39.1	21.6	0.00e+00	0	39	0	2529165312	46	4365
2026-01-14 02:41:39.37	250.47	32.69	-37.4	-39.1	21.6	0.00e+00	0	39	0	2534408192	46	4375
2026-01-14 02:41:40.51	250.18	32.51	-37.4	-39.1	21.7	0.00e+00	0	39	0	2540699648	46	4344
2026-01-14 02:41:41.36	249.97	32.38	-37.5	-39.2	21.6	0.00e+00	0	39	0	2544893952	46	4399
2026-01-14 02:41:42.50	249.69	32.20	-37.5	-39.2	21.6	0.00e+00	0	39	0	2551185408	46	4395
2026-01-14 02:41:43.35	249.49	32.07	-37.5	-39.2	21.5	0.00e+00	0	39	0	2556428288	46	4441
2026-01-14 02:41:44.49	249.21	31.89	-37.4	-39.1	21.6	0.00e+00	0	39	0	2562719744	46	4346
2026-01-14 02:41:45.34	249.01	31.76	-37.4	-39.1	21.6	0.00e+00	0	39	0	2567962624	46	4360
2026-01-14 02:41:46.48	248.74	31.58	-37.5	-39.2	21.5	0.00e+00	0	39	0	2574254080	46	4401
2026-01-14 02:41:47.33	248.55	31.45	-37.5	-39.2	21.5	0.00e+00	0	39	0	2578448384	46	4431
2026-01-14 02:41:48.47	248.28	31.28	-37.7	-39.4	21.3	0.00e+00	0	39	0	2584739840	46	4526
2026-01-14 02:41:49.32	248.09	31.14	-37.8	-39.5	21.3	0.00e+00	0	39	0	2589982720	46	4573
2026-01-14 02:41:50.46	247.83	30.97	-37.8	-39.6	21.2	0.00e+00	0	39	0	2596274176	46	4599
2026-01-14 02:41:51.31	247.64	30.84	-37.9	-39.6	21.2	0.00e+00	0	39	0	2601517056	46	4632
2026-01-14 02:41:52.45	247.39	30.66	-38.0	-39.7	21.1	0.00e+00	0	39	0	2607808512	46	4691
2026-01-14 02:41:53.30	247.20	30.53	-38.1	-39.9	20.9	0.00e+00	0	39	0	2612002816	46	4766
2026-01-14 02:41:54.44	246.95	30.36	-37.9	-39.6	21.1	0.00e+00	0	39	0	2618294272	46	4628
2026-01-14 02:41:55.29	246.77	30.23	-37.8	-39.5	21.3	0.00e+00	0	39	0	2623537152	46	4560
2026-01-14 02:41:56.43	246.52	30.06	-37.7	-39.4	21.4	0.00e+00	0	39	0	2629828608	46	4509
2026-01-14 02:41:57.28	246.34	29.93	-37.6	-39.3	21.4	0.00e+00	0	39	0	2635071488	46	4463
2026-01-14 02:41:58.47	246.10	29.75	-37.7	-39.4	21.3	0.00e+00	0	39	0	2641362944	46	4529
2026-01-14 02:41:59.32	245.92	29.62	-37.7	-39.4	21.3	0.00e+00	0	39	0	2646605824	46	4537
2026-01-14 02:42:00.45	245.69	29.45	-37.7	-39.4	21.4	0.00e+00	0	39	0	2652897280	46	4506
2026-01-14 02:42:01.31	245.51	29.32	-37.6	-39.3	21.4	0.00e+00	0	39	0	2657091584	46	4486
2026-01-14 02:42:02.58	245.25	29.13	-37.8	-39.5	21.3	0.00e+00	0	39	0	2664431616	46	4557
2026-01-14 02:42:03.31	245.11	29.02	-37.8	-39.5	21.2	0.00e+00	0	39	0	2668625920	46	4580
2026-01-14 02:42:04.59	244.85	28.83	-37.8	-39.6	21.2	0.00e+00	0	39	0	2675965952	46	4609
2026-01-14 02:42:05.33	244.71	28.72	-38.0	-39.7	21.1	0.00e+00	0	39	0	2680160256	46	4674
2026-01-14 02:42:06.61	244.46	28.53	-38.0	-39.8	21.0	0.00e+00	0	39	0	2687500288	46	4714
2026-01-14 02:42:07.32	244.32	28.43	-38.0	-39.8	21.0	0.00e+00	0	39	0	2691694592	46	4714
2026-01-14 02:42:08.61	244.08	28.24	-38.1	-39.8	21.0	0.00e+00	0	39	0	2699034624	46	4732
2026-01-14 02:42:09.33	243.94	28.13	-38.1	-39.8	21.0	0.00e+00	0	39	0	2702180352	46	4734
2026-01-14 02:42:10.61	243.70	27.95	-38.0	-39.7	21.0	0.00e+00	0	39	0	2709520384	46	4690
2026-01-14 02:42:11.49	243.54	27.82	-38.0	-39.7	21.1	0.00e+00	0	39	0	2714763264	46	4666
2026-01-14 02:42:12.63	243.33	27.65	-38.0	-39.8	21.0	0.00e+00	0	39	0	2721054720	46	4713
2026-01-14 02:42:13.70	243.13	27.50	-38.2	-39.9	20.9	0.00e+00	0	39	0	2727346176	46	4793
2026-01-14 02:42:14.71	242.95	27.35	-38.2	-40.0	20.8	0.00e+00	0	39	0	2732589056	47	4561
2026-01-14 02:42:15.86	242.75	27.19	-38.3	-40.1	20.8	0.00e+00	0	39	0	2738880512	47	4599
2026-01-14 02:42:16.75	242.59	27.06	-38.3	-40.1	20.7	0.00e+00	0	39	0	2744123392	47	4611
2026-01-14 02:42:18.04	242.36	26.87	-38.3	-40.0	20.8	0.00e+00	0	39	0	2751463424	47	4574
2026-01-14 02:42:18.75	242.24	26.77	-38.3	-40.0	20.8	0.00e+00	0	39	0	2755657728	47	4575
2026-01-14 02:42:20.22	241.99	26.56	-38.3	-40.0	20.8	0.00e+00	0	39	0	2764046336	47	4587
2026-01-14 02:42:20.93	241.87	26.46	-38.3	-40.1	20.7	0.00e+00	0	39	0	2768240640	47	4610
2026-01-14 02:42:22.29	241.64	26.27	-38.2	-40.0	20.8	0.00e+00	0	39	0	2775580672	47	4550
2026-01-14 02:42:23.25	241.48	26.14	-38.3	-40.0	20.8	0.00e+00	0	39	0	2780823552	47	4574
2026-01-14 02:42:24.56	241.26	25.95	-38.4	-40.1	20.7	0.00e+00	0	39	0	2788163584	47	4632
2026-01-14 02:42:25.27	241.14	25.85	-38.4	-40.1	20.6	0.00e+00	0	39	0	2792357888	47	4641
2026-01-14 02:42:26.55	240.94	25.68	-38.4	-40.1	20.6	0.00e+00	0	39	0	2799697920	47	4641
2026-01-14 02:42:27.26	240.82	25.58	-38.4	-40.2	20.6	0.00e+00	0	39	0	2803892224	47	4670
2026-01-14 02:42:28.54	240.62	25.40	-38.2	-40.0	20.8	0.00e+00	0	39	0	2810183680	47	4547
2026-01-14 02:42:29.25	240.51	25.30	-38.2	-40.0	20.8	0.00e+00	0	39	0	2814377984	47	4549
2026-01-14 02:42:30.53	240.31	25.13	-38.2	-40.0	20.8	0.00e+00	0	39	0	2821718016	47	4553
2026-01-14 02:42:31.24	240.20	25.03	-38.2	-39.9	20.8	0.00e+00	0	39	0	2825912320	47	4529
2026-01-14 02:42:32.52	240.00	24.86	-38.2	-39.9	20.8	0.00e+00	0	39	0	2833252352	47	4536
2026-01-14 02:42:33.23	239.89	24.76	-38.2	-39.9	20.8	0.00e+00	0	39	0	2836398080	47	4523
2026-01-14 02:42:34.62	239.68	24.57	-38.2	-40.0	20.8	0.00e+00	0	39	0	2844786688	47	4546
2026-01-14 02:42:35.34	239.57	24.48	-38.3	-40.0	20.8	0.00e+00	0	39	0	2848980992	47	4576
2026-01-14 02:42:36.61	239.38	24.30	-38.2	-39.9	20.9	0.00e+00	0	39	0	2856321024	47	4527
2026-01-14 02:42:37.66	239.23	24.16	-38.2	-39.9	20.8	0.00e+00	0	39	0	2861563904	47	4541
2026-01-14 02:42:38.95	239.04	23.99	-38.2	-39.9	20.8	0.00e+00	0	40	0	2868903936	47	4545
2026-01-14 02:42:39.66	238.94	23.90	-38.2	-39.9	20.8	0.00e+00	0	39	0	2873098240	47	4527
2026-01-14 02:42:40.94	238.76	23.73	-38.1	-39.9	20.8	0.00e+00	0	39	0	2880438272	47	4500
2026-01-14 02:42:41.66	238.65	23.63	-38.2	-39.9	20.8	0.00e+00	0	39	0	2884632576	47	4521
2026-01-14 02:42:42.94	238.47	23.47	-38.2	-39.9	20.8	0.00e+00	0	39	0	2891972608	47	4540
2026-01-14 02:42:43.67	238.37	23.37	-38.3	-40.0	20.7	0.00e+00	0	39	0	2896166912	47	4597
2026-01-14 02:42:44.95	238.20	23.20	-38.4	-40.1	20.6	0.00e+00	0	39	0	2902458368	47	4640
2026-01-14 02:42:45.67	238.10	23.11	-38.4	-40.1	20.6	0.00e+00	0	39	0	2906652672	47	4650
2026-01-14 02:42:47.03	237.91	22.93	-38.5	-40.3	20.4	0.00e+00	0	39	0	2915041280	47	4745
2026-01-14 02:42:47.74	237.82	22.84	-38.6	-40.3	20.4	0.00e+00	0	39	0	2918187008	47	4744
2026-01-14 02:42:49.08	237.64	22.67	-38.6	-40.3	20.4	0.00e+00	0	39	0	2926575616	47	4759
2026-01-14 02:42:50.03	237.51	22.55	-38.6	-40.4	20.4	0.00e+00	0	39	0	2931818496	47	4768
2026-01-14 02:42:51.03	237.38	22.42	-38.7	-40.5	20.5	0.00e+00	0	39	0	2937061376	48	4564
2026-01-14 02:42:52.02	237.25	22.30	-38.7	-40.5	20.5	0.00e+00	0	39	0	2942304256	48	4575
2026-01-14 02:42:53.01	237.12	22.17	-38.8	-40.6	20.5	0.00e+00	0	39	0	2948595712	48	4605
2026-01-14 02:42:54.01	237.00	22.05	-38.8	-40.6	20.4	0.00e+00	0	39	0	2953838592	48	4633
2026-01-14 02:42:55.00	236.87	21.92	-38.8	-40.6	20.4	0.00e+00	0	39	0	2959081472	48	4622
2026-01-14 02:42:56.00	236.74	21.80	-38.9	-40.6	20.4	0.00e+00	0	39	0	2965372928	48	4645
2026-01-14 02:42:57.00	236.62	21.67	-38.8	-40.6	20.4	0.00e+00	0	39	0	2970615808	48	4624
2026-01-14 02:42:57.99	236.50	21.55	-38.8	-40.6	20.4	0.00e+00	0	39	0	2975858688	48	4631
2026-01-14 02:42:58.99	236.37	21.43	-38.8	-40.6	20.4	0.00e+00	0	39	0	2982150144	48	4633
2026-01-14 02:42:59.98	236.25	21.30	-38.8	-40.5	20.4	0.00e+00	0	39	0	2987393024	48	4597
2026-01-14 02:43:00.98	236.13	21.18	-38.8	-40.5	20.5	0.00e+00	0	39	0	2992635904	48	4584
2026-01-14 02:43:01.97	236.01	21.06	-38.8	-40.5	20.5	0.00e+00	0	39	0	2998927360	48	4591
2026-01-14 02:43:02.96	235.90	20.94	-38.8	-40.6	20.4	0.00e+00	0	39	0	3004170240	48	4603
2026-01-14 02:43:03.96	235.78	20.82	-38.7	-40.5	20.5	0.00e+00	0	39	0	3009413120	48	4555
2026-01-14 02:43:04.96	235.66	20.70	-38.8	-40.6	20.4	0.00e+00	0	39	0	3015704576	48	4609
2026-01-14 02:43:05.95	235.55	20.58	-38.8	-40.6	20.4	0.00e+00	0	39	0	3020947456	48	4620
2026-01-14 02:43:06.95	235.43	20.46	-38.9	-40.7	20.3	0.00e+00	0	39	0	3026190336	48	4669
2026-01-14 02:43:07.94	235.32	20.34	-38.9	-40.7	20.3	0.00e+00	0	39	0	3032481792	48	4697
2026-01-14 02:43:08.94	235.20	20.22	-39.1	-40.9	20.1	0.00e+00	0	39	0	3037724672	48	4775
2026-01-14 02:43:09.93	235.09	20.10	-39.1	-40.9	20.1	0.00e+00	0	39	0	3042967552	49	4541
2026-01-14 02:43:10.96	234.98	19.98	-39.3	-41.1	19.9	0.00e+00	0	39	0	3049259008	49	4614
2026-01-14 02:43:11.99	234.86	19.86	-39.3	-41.1	19.9	0.00e+00	0	39	0	3054501888	49	4626
2026-01-14 02:43:12.98	234.75	19.74	-39.4	-41.2	19.8	0.00e+00	0	39	0	3060793344	49	4688
2026-01-14 02:43:13.98	234.64	19.63	-39.4	-41.2	19.8	0.00e+00	0	39	0	3066036224	49	4701
2026-01-14 02:43:14.97	234.54	19.51	-39.3	-41.1	19.9	0.00e+00	0	39	0	3071279104	49	4651
2026-01-14 02:43:15.97	234.43	19.40	-39.4	-41.2	19.8	0.00e+00	0	39	0	3077570560	49	4703
2026-01-14 02:43:16.96	234.32	19.28	-39.5	-41.4	19.7	0.00e+00	0	39	0	3082813440	49	4775
2026-01-14 02:43:17.96	234.22	19.17	-39.4	-41.3	19.7	0.00e+00	0	39	0	3089104896	49	4729
2026-01-14 02:43:18.95	234.11	19.05	-39.4	-41.3	19.8	0.00e+00	0	39	0	3094347776	49	4706
2026-01-14 02:43:19.95	234.01	18.94	-39.4	-41.2	19.8	0.00e+00	0	39	0	3099590656	49	4698
2026-01-14 02:43:20.94	233.91	18.83	-39.5	-41.3	19.7	0.00e+00	0	39	0	3104833536	49	4732
2026-01-14 02:43:21.93	233.81	18.71	-39.5	-41.4	19.7	0.00e+00	0	39	0	3111124992	49	4770
2026-01-14 02:43:22.93	233.71	18.60	-39.6	-41.4	19.6	0.00e+00	0	39	0	3116367872	49	4785
2026-01-14 02:43:23.92	233.60	18.49	-39.7	-41.5	19.5	0.00e+00	0	39	0	3121610752	49	4836
2026-01-14 02:43:24.92	233.50	18.38	-39.7	-41.5	19.5	0.00e+00	0	39	0	3127902208	50	4579
2026-01-14 02:43:25.91	233.41	18.27	-39.7	-41.5	19.5	0.00e+00	0	39	0	3133145088	50	4589
2026-01-14 02:43:26.94	233.30	18.15	-39.7	-41.5	19.5	0.00e+00	0	39	0	3139436544	50	4597
2026-01-14 02:43:27.95	233.21	18.04	-39.7	-41.6	19.5	0.00e+00	0	39	0	3144679424	50	4619
2026-01-14 02:43:28.96	233.11	17.93	-39.8	-41.7	19.4	0.00e+00	0	39	0	3150970880	50	4653
2026-01-14 02:43:29.96	233.01	17.82	-39.8	-41.6	19.4	0.00e+00	0	39	0	3156213760	50	4640
2026-01-14 02:43:30.95	232.92	17.71	-39.8	-41.6	19.4	0.00e+00	0	39	0	3161456640	50	4650
2026-01-14 02:43:31.95	232.82	17.60	-39.8	-41.7	19.4	0.00e+00	0	39	0	3166699520	50	4658
2026-01-14 02:43:32.94	232.73	17.49	-39.8	-41.7	19.3	0.00e+00	0	39	0	3172990976	50	4679
2026-01-14 02:43:33.94	232.63	17.38	-39.9	-41.8	19.3	0.00e+00	0	39	0	3178233856	50	4718
2026-01-14 02:43:34.94	232.54	17.28	-39.8	-41.7	19.3	0.00e+00	0	39	0	3183476736	50	4683
2026-01-14 02:43:35.93	232.45	17.17	-39.9	-41.7	19.3	0.00e+00	0	39	0	3189768192	50	4682
2026-01-14 02:43:36.93	232.36	17.06	-39.8	-41.7	19.4	0.00e+00	0	39	0	3195011072	50	4656
2026-01-14 02:43:37.92	232.27	16.96	-39.8	-41.7	19.3	0.00e+00	0	39	0	3201302528	50	4675
2026-01-14 02:43:38.91	232.18	16.85	-39.9	-41.7	19.3	0.00e+00	0	40	0	3206545408	50	4701
2026-01-14 02:43:39.91	232.09	16.74	-39.8	-41.7	19.3	0.00e+00	0	39	0	3211788288	50	4670
2026-01-14 02:43:40.91	232.00	16.64	-39.9	-41.7	19.3	0.00e+00	0	39	0	3218079744	50	4696
2026-01-14 02:43:41.90	231.91	16.53	-39.9	-41.7	19.3	0.00e+00	0	39	0	3223322624	50	4704
2026-01-14 02:43:42.94	231.82	16.42	-39.9	-41.8	19.3	0.00e+00	0	39	0	3228565504	50	4708
2026-01-14 02:43:43.94	231.73	16.32	-40.0	-41.8	19.2	0.00e+00	0	40	0	3234856960	50	4740
2026-01-14 02:43:44.93	231.65	16.22	-40.0	-41.9	19.2	0.00e+00	0	39	0	3240099840	50	4760
2026-01-14 02:43:46.02	231.55	16.10	-40.0	-41.9	19.2	0.00e+00	0	39	0	3246391296	50	4768
2026-01-14 02:43:46.87	231.48	16.02	-40.0	-41.9	19.1	0.00e+00	0	39	0	3251634176	50	4779
2026-01-14 02:43:48.01	231.38	15.90	-40.0	-41.9	19.1	0.00e+00	0	39	0	3257925632	50	4803
2026-01-14 02:43:48.87	231.31	15.81	-40.1	-42.0	19.0	0.00e+00	0	39	0	3262119936	50	4833
2026-01-14 02:43:50.00	231.22	15.69	-40.1	-42.0	19.0	0.00e+00	0	39	0	3268411392	51	4591
2026-01-14 02:43:50.86	231.14	15.61	-40.1	-42.0	19.0	0.00e+00	0	40	0	3273654272	51	4583
2026-01-14 02:43:51.99	231.05	15.49	-40.1	-42.0	19.0	0.00e+00	0	39	0	3279945728	51	4588
2026-01-14 02:43:52.84	230.98	15.41	-40.2	-42.0	19.0	0.00e+00	0	39	0	3284140032	51	4590
2026-01-14 02:43:53.98	230.89	15.29	-40.2	-42.1	19.0	0.00e+00	0	40	0	3291480064	51	4599
2026-01-14 02:43:54.84	230.82	15.20	-40.1	-42.0	19.0	0.00e+00	0	39	0	3295674368	51	4595
2026-01-14 02:43:56.02	230.73	15.09	-40.2	-42.1	18.9	0.00e+00	0	39	0	3303014400	51	4623
2026-01-14 02:43:56.87	230.66	15.00	-40.3	-42.2	18.8	0.00e+00	0	40	0	3307208704	51	4662
2026-01-14 02:43:58.04	230.57	14.88	-40.3	-42.2	18.8	0.00e+00	0	40	0	3313500160	51	4677
2026-01-14 02:43:58.89	230.50	14.80	-40.3	-42.2	18.8	0.00e+00	0	40	0	3318743040	51	4673
2026-01-14 02:44:00.09	230.40	14.68	-40.4	-42.3	18.7	0.00e+00	0	39	0	3325034496	51	4718
2026-01-14 02:44:00.95	230.34	14.60	-40.4	-42.3	18.6	0.00e+00	0	39	0	3330277376	51	4753
2026-01-14 02:44:02.08	230.25	14.49	-40.5	-42.4	18.6	0.00e+00	0	40	0	3336568832	51	4798
2026-01-14 02:44:02.93	230.19	14.40	-40.5	-42.5	18.5	0.00e+00	0	40	0	3341811712	51	4824
2026-01-14 02:44:04.07	230.10	14.29	-40.6	-42.5	18.5	0.00e+00	0	39	0	3348103168	51	4867
2026-01-14 02:44:04.92	230.04	14.21	-40.6	-42.6	18.3	0.00e+00	0	40	0	3352297472	52	4618
2026-01-14 02:44:06.06	229.95	14.10	-40.5	-42.5	18.5	0.00e+00	0	40	0	3359637504	52	4549
2026-01-14 02:44:06.92	229.89	14.02	-40.6	-42.5	18.4	0.00e+00	0	39	0	3363831808	52	4569
2026-01-14 02:44:08.05	229.80	13.91	-40.6	-42.6	18.4	0.00e+00	0	40	0	3370123264	52	4602
2026-01-14 02:44:08.90	229.74	13.83	-40.6	-42.5	18.4	0.00e+00	0	39	0	3375366144	52	4572
2026-01-14 02:44:10.04	229.66	13.72	-40.6	-42.5	18.4	0.00e+00	0	39	0	3381657600	52	4573
2026-01-14 02:44:10.90	229.60	13.64	-40.7	-42.6	18.3	0.00e+00	0	40	0	3385851904	52	4644
2026-01-14 02:44:12.03	229.51	13.53	-40.7	-42.7	18.2	0.00e+00	0	40	0	3392143360	52	4653
2026-01-14 02:44:12.89	229.45	13.45	-40.6	-42.6	18.3	0.00e+00	0	40	0	3397386240	52	4611
2026-01-14 02:44:14.02	229.37	13.34	-40.7	-42.7	18.2	0.00e+00	0	40	0	3403677696	52	4665
2026-01-14 02:44:14.88	229.31	13.26	-40.7	-42.6	18.3	0.00e+00	0	39	0	3408920576	52	4623
2026-01-14 02:44:16.13	229.22	13.14	-40.6	-42.6	18.3	0.00e+00	0	40	0	3415212032	52	4599
2026-01-14 02:44:16.98	229.16	13.07	-40.7	-42.6	18.3	0.00e+00	0	39	0	3420454912	52	4621
2026-01-14 02:44:18.16	229.08	12.96	-40.7	-42.6	18.3	0.00e+00	0	40	0	3426746368	52	4619
2026-01-14 02:44:19.01	229.02	12.88	-40.7	-42.6	18.3	0.00e+00	0	40	0	3431989248	52	4619
2026-01-14 02:44:20.15	228.95	12.77	-40.8	-42.7	18.2	0.00e+00	0	39	0	3438280704	52	4688
2026-01-14 02:44:21.00	228.89	12.69	-40.9	-42.8	18.1	0.00e+00	0	40	0	3443523584	52	4738
2026-01-14 02:44:22.14	228.81	12.59	-40.8	-42.8	18.1	0.00e+00	0	40	0	3449815040	52	4727
2026-01-14 02:44:23.03	228.75	12.51	-40.8	-42.7	18.2	0.00e+00	0	40	0	3454009344	52	4679
2026-01-14 02:44:24.16	228.68	12.41	-40.8	-42.7	18.1	0.00e+00	0	39	0	3461349376	52	4705
2026-01-14 02:44:25.01	228.62	12.33	-40.8	-42.8	18.1	0.00e+00	0	40	0	3465543680	52	4735
2026-01-14 02:44:26.15	228.55	12.23	-40.9	-42.9	18.0	0.00e+00	0	40	0	3471835136	52	4807
2026-01-14 02:44:27.00	228.49	12.15	-40.9	-42.9	18.0	0.00e+00	0	39	0	3477078016	52	4787
2026-01-14 02:44:28.14	228.42	12.05	-41.0	-43.0	17.9	0.00e+00	0	39	0	3483369472	52	4832
2026-01-14 02:44:29.25	228.35	11.95	-41.1	-43.1	17.8	0.00e+00	0	40	0	3489660928	52	4904
2026-01-14 02:44:30.10	228.29	11.87	-41.1	-43.1	17.8	0.00e+00	0	40	0	3493855232	52	4925
2026-01-14 02:44:31.24	228.22	11.77	-41.1	-43.1	17.8	0.00e+00	0	39	0	3500146688	52	4884
2026-01-14 02:44:32.31	228.15	11.68	-41.1	-43.1	17.8	0.00e+00	0	40	0	3506438144	52	4895
2026-01-14 02:44:33.33	228.09	11.59	-41.1	-43.2	17.7	0.00e+00	0	40	0	3512729600	52	4939
2026-01-14 02:44:34.50	228.01	11.48	-41.0	-43.1	17.8	0.00e+00	0	40	0	3519021056	52	4874
2026-01-14 02:44:35.36	227.96	11.41	-41.1	-43.1	17.8	0.00e+00	0	39	0	3523215360	52	4897
2026-01-14 02:44:36.70	227.88	11.29	-41.1	-43.2	17.7	0.00e+00	0	40	0	3531603968	52	4931
2026-01-14 02:44:37.41	227.84	11.23	-41.1	-43.1	17.7	0.00e+00	0	39	0	3535798272	52	4919
2026-01-14 02:44:38.69	227.76	11.12	-41.1	-43.1	17.7	0.00e+00	0	40	0	3542089728	52	4919
2026-01-14 02:44:39.42	227.71	11.05	-41.1	-43.2	17.7	0.00e+00	0	39	0	3546284032	52	4930
2026-01-14 02:44:40.70	227.64	10.94	-41.1	-43.2	17.6	0.00e+00	0	40	0	3553624064	53	4662
2026-01-14 02:44:41.41	227.60	10.88	-41.1	-43.1	17.7	0.00e+00	0	40	0	3557818368	53	4646
2026-01-14 02:44:42.69	227.52	10.77	-41.1	-43.2	17.6	0.00e+00	0	40	0	3565158400	53	4702
2026-01-14 02:44:43.40	227.48	10.71	-41.1	-43.2	17.6	0.00e+00	0	40	0	3569352704	53	4694
2026-01-14 02:44:44.68	227.40	10.60	-41.2	-43.3	17.6	0.00e+00	0	40	0	3576692736	53	4715
2026-01-14 02:44:45.50	227.35	10.53	-41.1	-43.2	17.6	0.00e+00	0	39	0	3580887040	53	4664
2026-01-14 02:44:46.64	227.29	10.44	-41.2	-43.3	17.5	0.00e+00	0	40	0	3587178496	53	4756
2026-01-14 02:44:47.70	227.23	10.35	-41.2	-43.3	17.5	0.00e+00	0	39	0	3593469952	53	4735
2026-01-14 02:44:48.74	227.17	10.26	-41.2	-43.4	17.4	0.00e+00	0	40	0	3598712832	53	4785
2026-01-14 02:44:49.69	227.11	10.18	-41.1	-43.2	17.6	0.00e+00	0	40	0	3603955712	53	4690
2026-01-14 02:44:50.68	227.06	10.10	-41.2	-43.3	17.5	0.00e+00	0	40	0	3610247168	53	4744
2026-01-14 02:44:51.68	227.00	10.02	-41.3	-43.4	17.3	0.00e+00	0	40	0	3615490048	53	4807
2026-01-14 02:44:52.67	226.95	9.93	-41.4	-43.5	17.3	0.00e+00	0	40	0	3621781504	53	4851
2026-01-14 02:44:53.67	226.89	9.85	-41.3	-43.5	17.3	0.00e+00	0	39	0	3627024384	53	4822
2026-01-14 02:44:54.67	226.84	9.77	-41.4	-43.5	17.2	0.00e+00	0	39	0	3632267264	53	4857
2026-01-14 02:44:55.66	226.78	9.69	-41.4	-43.6	17.2	0.00e+00	0	40	0	3638558720	53	4884
2026-01-14 02:44:56.66	226.73	9.60	-41.6	-43.8	17.0	0.00e+00	0	40	0	3643801600	53	4992
2026-01-14 02:44:57.65	226.67	9.52	-41.5	-43.6	17.1	0.00e+00	0	40	0	3649044480	53	4908
2026-01-14 02:44:58.65	226.62	9.44	-41.5	-43.7	17.1	0.00e+00	0	39	0	3654287360	53	4927
2026-01-14 02:44:59.64	226.57	9.36	-41.5	-43.6	17.1	0.00e+00	0	39	0	3660578816	53	4892
2026-01-14 02:45:00.64	226.51	9.28	-41.6	-43.7	17.0	0.00e+00	0	39	0	3665821696	53	4978
2026-01-14 02:45:01.63	226.46	9.20	-41.6	-43.8	17.0	0.00e+00	0	39	0	3672113152	53	4989
2026-01-14 02:45:02.75	226.40	9.11	-41.7	-43.8	16.9	0.00e+00	0	40	0	3677356032	54	4756
2026-01-14 02:45:03.64	226.36	9.04	-41.6	-43.8	16.9	0.00e+00	0	40	0	3682598912	54	4727
2026-01-14 02:45:04.77	226.30	8.95	-47.0	-51.3	9.9	0.00e+00	0	40	0	3688890368	64	6311
2026-01-14 02:45:05.63	226.25	8.88	-50.2	-61.9	3.8	8.45e-01	0	40	104	3689938944	71	14323
2026-01-14 02:45:06.76	226.20	8.79	-50.5	-62.5	3.8	8.47e-01	0	40	104	3689938944	71	15253
