passes_logs/2026/01/14/T1/T1__20260114_155051_FENGYUN_3E_rec.log

#Pass ID: 20260114_155051_FENGYUN 3E
#Satellite: FENGYUN 3E
#Configuration: FENGYUN 3E
#almurnet v.1.7.20251203
#Start time: 2026-01-14 15:50:52

#Version: 2.0.20230620
#Station: T1
#Location: 37.570604 lon 55.790049 lat
#TLE: 1 49008U 21062A   26013.59634448 -.00000226  00000+0 -85925-4 0  9991
#TLE: 2 49008  98.7491  18.7414 0001953 139.1941 220.9382 14.19884160234649

#Time	Az	El	Level	Level2	SNR	BER	BlckErr	Temp	State	Recorded	gain1	gain2
2026-01-14 15:50:52.89	214.58	5.05	-47.0	-59.5	3.8	8.46e-01	0	40	0	0	63	16068
2026-01-14 15:50:53.88	214.67	5.11	-46.9	-59.4	3.8	8.47e-01	0	40	104	0	64	14964
2026-01-14 15:50:54.88	214.76	5.16	-46.9	-59.4	3.8	8.47e-01	0	40	104	0	64	14979
2026-01-14 15:50:55.87	214.85	5.22	-46.9	-59.4	3.8	8.46e-01	0	40	104	0	64	14984
2026-01-14 15:50:56.86	214.94	5.28	-46.9	-59.4	3.8	8.46e-01	0	40	104	0	64	15049
2026-01-14 15:50:57.86	215.04	5.33	-46.9	-59.4	3.8	8.46e-01	0	40	104	0	64	15051
2026-01-14 15:50:58.85	215.13	5.39	-46.8	-59.4	3.8	8.47e-01	0	40	104	0	64	15011
2026-01-14 15:50:59.85	215.22	5.45	-46.9	-59.5	3.8	8.47e-01	0	40	104	0	64	15053
2026-01-14 15:51:00.84	215.32	5.51	-46.9	-59.5	3.8	8.47e-01	0	41	104	0	64	15059
2026-01-14 15:51:01.83	215.41	5.57	-46.9	-59.4	3.8	8.47e-01	0	41	104	0	64	15031
2026-01-14 15:51:02.83	215.51	5.62	-46.9	-59.5	3.8	8.46e-01	0	41	104	0	64	15107
2026-01-14 15:51:03.82	215.60	5.68	-46.8	-59.4	3.8	8.48e-01	0	41	104	0	64	15007
2026-01-14 15:51:04.81	215.69	5.74	-46.8	-59.4	3.8	8.47e-01	0	41	104	0	64	14995
2026-01-14 15:51:05.81	215.79	5.80	-46.8	-59.5	3.8	8.47e-01	0	41	104	0	64	15068
2026-01-14 15:51:06.80	215.89	5.85	-46.9	-59.4	3.8	8.46e-01	0	41	104	0	64	14986
2026-01-14 15:51:07.79	215.98	5.91	-46.9	-59.4	3.8	8.47e-01	0	41	104	0	64	14997
2026-01-14 15:51:08.79	216.08	5.97	-46.8	-59.5	3.8	8.47e-01	0	41	104	0	64	15062
2026-01-14 15:51:09.78	216.18	6.03	-46.9	-59.4	3.8	8.47e-01	0	41	104	0	64	14959
2026-01-14 15:51:10.78	216.27	6.09	-46.9	-59.5	3.8	8.46e-01	0	41	104	0	64	15057
2026-01-14 15:51:11.77	216.37	6.15	-46.9	-59.4	3.8	8.47e-01	0	41	104	0	64	15028
2026-01-14 15:51:12.76	216.47	6.20	-46.9	-59.5	3.8	8.48e-01	0	41	104	0	64	15064
2026-01-14 15:51:13.76	216.57	6.26	-46.9	-59.5	3.8	8.47e-01	0	41	104	0	64	15120
2026-01-14 15:51:14.75	216.67	6.32	-46.9	-59.5	3.8	8.46e-01	0	41	104	0	64	15071
2026-01-14 15:51:15.74	216.76	6.38	-46.8	-59.4	3.8	8.46e-01	0	41	104	0	64	14947
2026-01-14 15:51:16.74	216.86	6.44	-46.8	-59.5	3.8	8.49e-01	0	41	104	0	64	15082
2026-01-14 15:51:17.73	216.96	6.50	-46.8	-59.4	3.8	8.48e-01	0	41	104	0	64	15045
2026-01-14 15:51:18.72	217.06	6.56	-46.8	-59.4	3.8	8.47e-01	0	41	104	0	64	14974
2026-01-14 15:51:19.72	217.17	6.61	-46.8	-59.4	3.8	8.47e-01	0	41	104	0	64	15024
2026-01-14 15:51:20.71	217.27	6.67	-46.9	-59.4	3.8	8.47e-01	0	41	104	0	64	15030
2026-01-14 15:51:21.71	217.37	6.73	-46.9	-59.5	3.8	8.45e-01	0	41	104	0	64	15056
2026-01-14 15:51:22.70	217.47	6.79	-46.9	-59.4	3.8	8.45e-01	0	41	104	0	64	15033
2026-01-14 15:51:23.69	217.57	6.85	-46.9	-59.5	3.8	8.48e-01	0	41	104	0	64	15061
2026-01-14 15:51:24.69	217.68	6.91	-46.9	-59.4	3.8	8.47e-01	0	41	104	0	64	15020
2026-01-14 15:51:25.68	217.78	6.97	-46.9	-59.4	3.8	8.47e-01	0	41	104	0	64	15049
2026-01-14 15:51:26.68	217.88	7.03	-46.8	-59.5	3.8	8.47e-01	0	41	104	0	64	15092
2026-01-14 15:51:27.67	217.99	7.09	-46.8	-59.4	3.8	8.46e-01	0	41	104	0	64	15019
2026-01-14 15:51:28.67	218.09	7.15	-46.8	-59.5	3.8	8.47e-01	0	41	104	0	64	15091
2026-01-14 15:51:29.66	218.20	7.21	-46.8	-59.4	3.8	8.47e-01	0	42	104	0	64	15020
2026-01-14 15:51:30.65	218.30	7.27	-46.8	-59.4	3.8	8.46e-01	0	42	104	0	64	15046
2026-01-14 15:51:31.65	218.41	7.33	-46.8	-59.5	3.8	8.47e-01	0	41	104	0	64	15126
2026-01-14 15:51:32.64	218.51	7.38	-46.8	-59.4	3.8	8.46e-01	0	42	104	0	64	14957
2026-01-14 15:51:33.63	218.62	7.44	-46.9	-59.4	3.8	8.47e-01	0	42	104	0	64	14999
2026-01-14 15:51:34.63	218.73	7.50	-46.9	-59.5	3.8	8.48e-01	0	42	104	0	64	15097
2026-01-14 15:51:35.62	218.83	7.56	-46.8	-59.5	3.8	8.48e-01	0	42	104	0	64	15053
2026-01-14 15:51:36.61	218.94	7.62	-46.8	-59.5	3.8	8.47e-01	0	42	104	0	64	15115
2026-01-14 15:51:37.61	219.05	7.68	-46.9	-59.5	3.8	8.47e-01	0	42	104	0	64	15069
2026-01-14 15:51:38.60	219.16	7.74	-46.9	-59.5	3.8	8.47e-01	0	42	104	0	64	15080
2026-01-14 15:51:39.59	219.27	7.80	-46.8	-59.4	3.8	8.46e-01	0	42	104	0	64	15000
2026-01-14 15:51:40.59	219.38	7.86	-46.8	-59.4	3.8	8.45e-01	0	42	104	0	64	14974
2026-01-14 15:51:41.58	219.49	7.92	-46.9	-59.4	3.8	8.46e-01	0	42	104	0	64	15036
2026-01-14 15:51:42.58	219.60	7.98	-46.9	-59.4	3.8	8.48e-01	0	42	104	0	64	15049
2026-01-14 15:51:43.57	219.71	8.04	-46.8	-59.5	3.8	8.46e-01	0	42	104	0	64	15079
2026-01-14 15:51:44.56	219.82	8.10	-46.9	-59.4	3.8	8.46e-01	0	42	104	0	64	14983
2026-01-14 15:51:45.56	219.93	8.16	-46.9	-59.5	3.8	8.47e-01	0	42	104	0	64	15092
2026-01-14 15:51:46.55	220.04	8.22	-46.9	-59.4	3.8	8.46e-01	0	42	104	0	64	15000
2026-01-14 15:51:47.62	220.16	8.29	-46.9	-59.5	3.8	8.47e-01	0	42	104	0	64	15163
2026-01-14 15:51:48.48	220.26	8.34	-46.9	-59.5	3.8	8.47e-01	0	42	104	0	64	15059
2026-01-14 15:51:49.61	220.39	8.41	-46.8	-59.4	3.8	8.47e-01	0	42	104	0	64	15034
2026-01-14 15:51:50.46	220.49	8.46	-46.8	-59.5	3.8	8.47e-01	0	42	104	0	64	15089
2026-01-14 15:51:51.60	220.62	8.53	-46.8	-59.5	3.8	8.46e-01	0	42	104	0	64	15064
2026-01-14 15:51:52.45	220.72	8.58	-46.9	-59.5	3.8	8.47e-01	0	42	104	0	64	15095
2026-01-14 15:51:53.59	220.85	8.65	-46.9	-59.5	3.8	8.47e-01	0	42	104	0	64	15102
2026-01-14 15:51:54.44	220.95	8.71	-46.8	-59.4	3.8	8.46e-01	0	42	104	0	64	15039
2026-01-14 15:51:55.58	221.08	8.78	-46.9	-59.5	3.8	8.46e-01	0	42	104	0	64	15080
2026-01-14 15:51:56.43	221.18	8.83	-46.8	-59.4	3.8	8.47e-01	0	42	104	0	64	15051
2026-01-14 15:51:57.56	221.31	8.90	-46.9	-59.4	3.8	8.47e-01	0	42	104	0	64	14981
2026-01-14 15:51:58.42	221.42	8.95	-46.9	-59.5	3.8	8.46e-01	0	42	104	0	64	15086
2026-01-14 15:51:59.55	221.55	9.02	-46.8	-59.4	3.8	8.47e-01	0	42	104	0	64	14941
2026-01-14 15:52:00.40	221.65	9.07	-46.9	-59.4	3.8	8.48e-01	0	42	104	0	64	15030
2026-01-14 15:52:01.54	221.79	9.14	-46.9	-59.5	3.8	8.46e-01	0	42	104	0	64	15095
2026-01-14 15:52:02.39	221.89	9.19	-46.9	-59.4	3.8	8.47e-01	0	42	104	0	64	15026
2026-01-14 15:52:03.53	222.03	9.26	-46.9	-59.4	3.8	8.47e-01	0	42	104	0	64	14973
2026-01-14 15:52:04.38	222.13	9.32	-46.8	-59.4	3.8	8.48e-01	0	42	104	0	64	14999
2026-01-14 15:52:05.52	222.27	9.39	-46.8	-59.4	3.8	8.47e-01	0	42	104	0	64	15007
2026-01-14 15:52:06.37	222.37	9.44	-46.8	-59.5	3.8	8.47e-01	0	42	104	0	64	15099
2026-01-14 15:52:07.51	222.51	9.51	-46.8	-59.4	3.8	8.47e-01	0	42	104	0	64	15025
2026-01-14 15:52:08.36	222.62	9.56	-46.8	-59.4	3.8	8.47e-01	0	42	104	0	64	14979
2026-01-14 15:52:09.49	222.76	9.63	-46.8	-59.5	3.8	8.47e-01	0	42	104	0	64	15067
2026-01-14 15:52:10.35	222.87	9.68	-46.9	-59.4	3.8	8.48e-01	0	42	104	0	64	14988
2026-01-14 15:52:11.48	223.01	9.75	-46.9	-59.5	3.8	8.47e-01	0	42	104	0	64	15122
2026-01-14 15:52:12.33	223.11	9.81	-46.8	-59.5	3.8	8.46e-01	0	42	104	0	64	15053
2026-01-14 15:52:13.47	223.26	9.88	-46.9	-59.4	3.8	8.47e-01	0	42	104	0	64	15030
2026-01-14 15:52:14.32	223.36	9.93	-46.9	-59.4	3.8	8.48e-01	0	42	104	0	64	14943
2026-01-14 15:52:15.46	223.51	10.00	-46.8	-59.4	3.8	8.47e-01	0	42	104	0	64	15016
2026-01-14 15:52:16.31	223.62	10.05	-46.8	-59.4	3.8	8.47e-01	0	42	104	0	64	15048
2026-01-14 15:52:17.44	223.76	10.12	-46.8	-59.5	3.8	8.47e-01	0	42	104	0	64	15135
2026-01-14 15:52:18.29	223.87	10.18	-46.8	-59.4	3.8	8.47e-01	0	42	104	0	64	15010
2026-01-14 15:52:19.43	224.02	10.25	-46.9	-59.4	3.8	8.47e-01	0	43	104	0	64	14968
2026-01-14 15:52:20.28	224.13	10.30	-46.9	-59.5	3.8	8.46e-01	0	42	104	0	64	15071
2026-01-14 15:52:21.42	224.28	10.37	-46.9	-59.4	3.8	8.48e-01	0	42	104	0	64	15030
2026-01-14 15:52:22.27	224.39	10.42	-46.9	-59.4	3.8	8.47e-01	0	42	104	0	64	15004
2026-01-14 15:52:23.41	224.54	10.49	-46.9	-59.5	3.8	8.47e-01	0	42	104	0	64	15095
2026-01-14 15:52:24.26	224.65	10.55	-46.9	-59.4	3.8	8.47e-01	0	42	104	0	64	15036
2026-01-14 15:52:25.40	224.80	10.62	-46.9	-59.5	3.8	8.47e-01	0	42	104	0	64	15071
2026-01-14 15:52:26.25	224.91	10.67	-46.9	-59.4	3.8	8.46e-01	0	43	104	0	64	15031
2026-01-14 15:52:27.48	225.07	10.75	-46.8	-59.4	3.8	8.46e-01	0	42	104	0	64	14966
2026-01-14 15:52:28.33	225.19	10.80	-46.9	-59.5	3.8	8.46e-01	0	42	104	0	64	15129
2026-01-14 15:52:29.54	225.35	10.88	-46.9	-59.4	3.8	8.48e-01	0	42	104	0	64	15031
2026-01-14 15:52:30.40	225.47	10.93	-46.9	-59.4	3.8	8.47e-01	0	42	104	0	64	15033
2026-01-14 15:52:31.60	225.63	11.00	-46.9	-59.5	3.8	8.47e-01	0	43	104	0	64	15088
2026-01-14 15:52:32.45	225.75	11.06	-46.9	-59.5	3.8	8.47e-01	0	43	104	0	64	15061
2026-01-14 15:52:33.58	225.90	11.13	-46.9	-59.4	3.8	8.48e-01	0	43	104	0	64	15015
2026-01-14 15:52:34.44	226.02	11.18	-46.9	-59.4	3.8	8.47e-01	0	42	104	0	64	15022
2026-01-14 15:52:35.68	226.19	11.26	-46.9	-59.5	3.8	8.47e-01	0	42	104	0	64	15090
2026-01-14 15:52:36.53	226.31	11.31	-46.9	-59.5	3.8	8.47e-01	0	43	104	0	64	15066
2026-01-14 15:52:37.73	226.47	11.39	-46.9	-59.4	3.8	8.46e-01	0	43	104	0	64	14990
2026-01-14 15:52:38.58	226.59	11.44	-46.9	-59.5	3.8	8.46e-01	0	43	104	0	64	15077
2026-01-14 15:52:39.78	226.76	11.52	-46.9	-59.4	3.8	8.47e-01	0	43	104	0	64	14985
2026-01-14 15:52:40.64	226.88	11.57	-46.9	-59.4	3.8	8.47e-01	0	43	104	0	64	15020
2026-01-14 15:52:41.77	227.04	11.64	-46.9	-59.5	3.8	8.46e-01	0	43	104	0	64	15072
2026-01-14 15:52:42.62	227.16	11.69	-46.9	-59.5	3.8	8.46e-01	0	43	104	0	64	15056
2026-01-14 15:52:43.76	227.32	11.76	-46.9	-59.5	3.8	8.47e-01	0	42	104	0	64	15088
2026-01-14 15:52:44.61	227.45	11.82	-46.9	-59.4	3.8	8.48e-01	0	43	104	0	64	14981
2026-01-14 15:52:45.75	227.61	11.89	-46.9	-59.5	3.8	8.47e-01	0	43	104	0	64	15133
2026-01-14 15:52:46.60	227.73	11.94	-46.9	-59.5	3.8	8.46e-01	0	43	104	0	64	15084
2026-01-14 15:52:47.74	227.90	12.01	-46.9	-59.5	3.8	8.48e-01	0	43	104	0	64	15073
2026-01-14 15:52:48.59	228.02	12.07	-46.9	-59.5	3.8	8.47e-01	0	43	104	0	64	15075
2026-01-14 15:52:49.73	228.19	12.14	-46.8	-59.5	3.8	8.47e-01	0	43	104	0	64	15071
2026-01-14 15:52:50.58	228.31	12.19	-46.8	-59.4	3.8	8.46e-01	0	43	104	0	64	15003
2026-01-14 15:52:51.71	228.48	12.26	-46.8	-59.4	3.8	8.47e-01	0	43	104	0	64	15023
2026-01-14 15:52:52.57	228.61	12.31	-46.9	-59.4	3.8	8.47e-01	0	43	104	0	64	15046
2026-01-14 15:52:53.70	228.77	12.39	-46.9	-59.5	3.8	8.48e-01	0	43	104	0	64	15069
2026-01-14 15:52:54.56	228.90	12.44	-46.9	-59.4	3.8	8.47e-01	0	43	104	0	64	14962
2026-01-14 15:52:55.77	229.08	12.51	-46.9	-59.5	3.8	8.47e-01	0	43	104	0	64	15083
2026-01-14 15:52:56.62	229.21	12.57	-46.9	-59.4	3.8	8.47e-01	0	43	104	0	64	14991
2026-01-14 15:52:57.76	229.38	12.64	-46.9	-59.5	3.8	8.47e-01	0	43	104	0	64	15105
2026-01-14 15:52:58.61	229.51	12.69	-46.9	-59.4	3.8	8.46e-01	0	43	104	0	64	15045
2026-01-14 15:52:59.74	229.68	12.76	-46.9	-59.4	3.8	8.47e-01	0	43	104	0	64	14983
2026-01-14 15:53:00.60	229.81	12.82	-46.8	-59.5	3.8	8.47e-01	0	43	104	0	64	15070
2026-01-14 15:53:01.73	229.99	12.89	-46.9	-59.5	3.8	8.45e-01	0	43	104	0	64	15084
2026-01-14 15:53:02.58	230.12	12.94	-46.8	-59.5	3.8	8.47e-01	0	43	104	0	64	15068
2026-01-14 15:53:03.72	230.30	13.01	-46.8	-59.4	3.8	8.47e-01	0	43	104	0	64	15000
2026-01-14 15:53:04.57	230.43	13.06	-46.8	-59.5	3.8	8.47e-01	0	43	104	0	64	15080
2026-01-14 15:53:05.71	230.61	13.13	-46.8	-59.5	3.8	8.47e-01	0	43	104	0	64	15065
2026-01-14 15:53:06.56	230.74	13.19	-46.8	-59.4	3.8	8.46e-01	0	43	104	0	64	15046
2026-01-14 15:53:07.70	230.92	13.26	-46.8	-59.4	3.8	8.46e-01	0	43	104	0	64	14994
2026-01-14 15:53:08.55	231.05	13.31	-46.9	-59.5	3.8	8.48e-01	0	43	104	0	64	15129
2026-01-14 15:53:09.69	231.23	13.38	-46.9	-59.5	3.8	8.46e-01	0	43	104	0	64	15072
2026-01-14 15:53:10.54	231.37	13.43	-46.9	-59.4	3.8	8.47e-01	0	43	104	0	64	15019
2026-01-14 15:53:11.72	231.56	13.51	-46.9	-59.5	3.8	8.47e-01	0	43	104	0	64	15064
2026-01-14 15:53:12.57	231.69	13.56	-46.8	-59.4	3.8	8.46e-01	0	43	104	0	64	15044
2026-01-14 15:53:13.71	231.88	13.63	-46.9	-59.5	3.8	8.46e-01	0	43	104	0	64	15112
2026-01-14 15:53:14.56	232.01	13.68	-46.8	-59.4	3.8	8.46e-01	0	43	104	0	64	15011
2026-01-14 15:53:15.70	232.20	13.75	-46.9	-59.5	3.8	8.48e-01	0	43	104	0	64	15053
2026-01-14 15:53:16.55	232.34	13.81	-46.9	-59.5	3.8	8.47e-01	0	43	104	0	64	15056
2026-01-14 15:53:17.69	232.52	13.88	-46.9	-59.4	3.8	8.47e-01	0	43	104	0	64	15041
2026-01-14 15:53:18.54	232.66	13.93	-46.9	-59.5	3.8	8.46e-01	0	43	104	0	64	15066
2026-01-14 15:53:19.67	232.85	14.00	-46.8	-59.4	3.8	8.47e-01	0	43	104	0	64	14955
2026-01-14 15:53:20.53	232.99	14.05	-46.9	-59.4	3.8	8.46e-01	0	43	104	0	64	15049
2026-01-14 15:53:21.66	233.18	14.12	-46.9	-59.4	3.8	8.47e-01	0	43	104	0	64	15011
2026-01-14 15:53:22.51	233.32	14.17	-46.9	-59.5	3.8	8.49e-01	0	43	104	0	64	15104
2026-01-14 15:53:23.65	233.51	14.24	-46.8	-59.5	3.8	8.47e-01	0	43	104	0	64	15095
2026-01-14 15:53:24.50	233.66	14.29	-46.8	-59.4	3.8	8.47e-01	0	43	104	0	64	14978
2026-01-14 15:53:25.64	233.85	14.36	-46.9	-59.5	3.8	8.48e-01	0	43	104	0	64	15114
2026-01-14 15:53:26.49	234.00	14.41	-46.8	-59.4	3.8	8.48e-01	0	43	104	0	64	14982
2026-01-14 15:53:27.62	234.19	14.48	-46.8	-59.5	3.8	8.46e-01	0	43	104	0	64	15070
2026-01-14 15:53:28.48	234.33	14.54	-46.8	-59.4	3.8	8.47e-01	0	43	104	0	64	14940
2026-01-14 15:53:29.61	234.53	14.60	-46.8	-59.4	3.8	8.46e-01	0	43	104	0	64	15004
2026-01-14 15:53:30.47	234.68	14.66	-46.8	-59.5	3.8	8.47e-01	0	43	104	0	64	15060
2026-01-14 15:53:31.60	234.87	14.73	-46.8	-59.4	3.8	8.47e-01	0	43	104	0	64	15005
2026-01-14 15:53:32.46	235.02	14.78	-46.8	-59.4	3.8	8.47e-01	0	43	104	0	64	15046
2026-01-14 15:53:33.59	235.22	14.85	-46.8	-59.4	3.8	8.48e-01	0	43	104	0	64	15038
2026-01-14 15:53:34.44	235.37	14.90	-46.9	-59.4	3.8	8.47e-01	0	43	104	0	64	14966
2026-01-14 15:53:35.58	235.57	14.97	-46.9	-59.5	3.8	8.47e-01	0	43	104	0	64	15076
2026-01-14 15:53:36.43	235.72	15.02	-46.8	-59.5	3.8	8.46e-01	0	43	104	0	64	15127
2026-01-14 15:53:37.57	235.92	15.09	-46.9	-59.4	3.8	8.46e-01	0	43	104	0	64	15001
2026-01-14 15:53:38.42	236.07	15.14	-46.8	-59.5	3.8	8.46e-01	0	43	104	0	64	15053
2026-01-14 15:53:39.56	236.28	15.20	-46.9	-59.5	3.8	8.47e-01	0	43	104	0	64	15102
2026-01-14 15:53:40.41	236.43	15.25	-46.8	-59.5	3.8	8.49e-01	0	43	104	0	64	15058
2026-01-14 15:53:41.55	236.63	15.32	-46.9	-59.4	3.8	8.47e-01	0	43	104	0	64	15047
2026-01-14 15:53:42.40	236.79	15.37	-46.8	-59.4	3.8	8.47e-01	0	43	104	0	64	14987
2026-01-14 15:53:43.54	236.99	15.44	-46.8	-59.4	3.8	8.46e-01	0	43	104	0	64	14911
2026-01-14 15:53:44.39	237.15	15.49	-46.8	-59.4	3.8	8.47e-01	0	43	104	0	64	14960
2026-01-14 15:53:45.52	237.36	15.56	-46.8	-59.5	3.8	8.46e-01	0	43	104	0	64	15069
2026-01-14 15:53:46.38	237.51	15.61	-46.8	-59.4	3.8	8.46e-01	0	43	104	0	64	15022
2026-01-14 15:53:47.51	237.72	15.68	-46.8	-59.4	3.8	8.47e-01	0	43	104	0	64	15019
2026-01-14 15:53:48.36	237.88	15.72	-46.9	-59.4	3.8	8.45e-01	0	43	104	0	64	14997
2026-01-14 15:53:49.50	238.09	15.79	-46.9	-59.4	3.8	8.47e-01	0	43	104	0	64	15034
2026-01-14 15:53:50.35	238.25	15.84	-46.9	-59.4	3.8	8.46e-01	0	43	104	0	64	15021
2026-01-14 15:53:51.48	238.46	15.91	-46.8	-59.4	3.8	8.46e-01	0	43	104	0	64	14984
2026-01-14 15:53:52.34	238.62	15.96	-46.9	-59.4	3.8	8.47e-01	0	43	104	0	64	15039
2026-01-14 15:53:53.47	238.83	16.02	-46.9	-59.4	3.8	8.47e-01	0	43	104	0	64	14967
2026-01-14 15:53:54.32	238.99	16.07	-46.9	-59.4	3.8	8.49e-01	0	43	104	0	64	14933
2026-01-14 15:53:55.46	239.21	16.14	-46.9	-59.4	3.8	8.47e-01	0	43	104	0	64	14894
2026-01-14 15:53:56.31	239.37	16.19	-46.9	-59.4	3.8	8.47e-01	0	43	104	0	64	14949
2026-01-14 15:53:57.44	239.59	16.25	-46.8	-59.4	3.8	8.47e-01	0	43	104	0	64	15004
2026-01-14 15:53:58.30	239.75	16.30	-46.9	-59.4	3.8	8.47e-01	0	43	104	0	64	14978
2026-01-14 15:53:59.59	240.00	16.37	-46.8	-59.4	3.8	8.47e-01	0	43	104	0	64	14967
2026-01-14 15:54:00.30	240.14	16.41	-46.9	-59.4	3.8	8.46e-01	0	43	104	0	64	14939
2026-01-14 15:54:01.58	240.39	16.49	-46.8	-59.4	3.8	8.47e-01	0	43	104	0	64	15002
2026-01-14 15:54:02.29	240.53	16.53	-46.8	-59.4	3.8	8.47e-01	0	43	104	0	64	15014
2026-01-14 15:54:03.57	240.78	16.60	-46.8	-59.4	3.8	8.47e-01	0	43	104	0	64	15015
2026-01-14 15:54:04.28	240.92	16.64	-46.8	-59.4	3.8	8.48e-01	0	43	104	0	64	14946
2026-01-14 15:54:05.56	241.17	16.71	-46.8	-59.4	3.8	8.46e-01	0	43	104	0	64	15019
2026-01-14 15:54:06.30	241.31	16.75	-46.8	-59.4	3.8	8.46e-01	0	43	104	0	64	15046
2026-01-14 15:54:07.57	241.57	16.82	-46.8	-59.4	3.8	8.45e-01	0	43	104	0	64	14977
2026-01-14 15:54:08.30	241.71	16.86	-46.8	-59.4	3.8	8.48e-01	0	43	104	0	64	14987
2026-01-14 15:54:09.57	241.97	16.93	-46.8	-59.4	3.8	8.47e-01	0	43	104	0	64	15010
2026-01-14 15:54:10.29	242.11	16.97	-46.8	-59.4	3.8	8.47e-01	0	43	104	0	64	14968
2026-01-14 15:54:11.57	242.37	17.04	-46.8	-59.4	3.8	8.47e-01	0	43	104	0	64	14986
2026-01-14 15:54:12.29	242.51	17.08	-46.8	-59.4	3.8	8.49e-01	0	43	104	0	64	14949
2026-01-14 15:54:13.57	242.77	17.15	-46.9	-59.4	3.8	8.48e-01	0	43	104	0	64	15029
2026-01-14 15:54:14.28	242.92	17.19	-46.8	-59.5	3.8	8.47e-01	0	43	104	0	64	15076
2026-01-14 15:54:15.67	243.20	17.26	-46.8	-59.4	3.8	8.46e-01	0	43	104	0	64	14995
2026-01-14 15:54:16.38	243.35	17.30	-46.8	-59.4	3.8	8.47e-01	0	43	104	0	64	14944
2026-01-14 15:54:17.70	243.62	17.37	-46.8	-59.4	3.8	8.47e-01	0	43	104	0	64	15012
2026-01-14 15:54:18.41	243.76	17.41	-46.9	-59.4	3.8	8.47e-01	0	43	104	0	64	15014
2026-01-14 15:54:19.69	244.03	17.48	-46.8	-59.4	3.8	8.47e-01	0	43	104	0	64	14955
2026-01-14 15:54:20.40	244.18	17.51	-46.8	-59.4	3.8	8.46e-01	0	43	104	0	64	15007
2026-01-14 15:54:21.68	244.44	17.58	-46.8	-59.4	3.8	8.48e-01	0	43	104	0	64	14993
2026-01-14 15:54:22.39	244.59	17.62	-46.9	-59.5	3.8	8.46e-01	0	43	104	0	64	15125
2026-01-14 15:54:23.67	244.86	17.68	-46.8	-59.4	3.8	8.46e-01	0	43	104	0	64	15033
2026-01-14 15:54:24.39	245.01	17.72	-46.8	-59.4	3.8	8.47e-01	0	43	104	0	64	14970
2026-01-14 15:54:25.67	245.28	17.79	-46.8	-59.4	3.8	8.46e-01	0	43	104	0	64	14906
2026-01-14 15:54:26.38	245.43	17.82	-46.8	-59.4	3.8	8.48e-01	0	43	104	0	64	14961
2026-01-14 15:54:27.66	245.70	17.89	-46.9	-59.4	3.8	8.47e-01	0	43	104	0	64	14899
2026-01-14 15:54:28.37	245.85	17.92	-46.8	-59.4	3.8	8.46e-01	0	43	104	0	64	15025
2026-01-14 15:54:29.65	246.13	17.99	-46.8	-59.5	3.8	8.46e-01	0	43	104	0	64	15069
2026-01-14 15:54:30.36	246.28	18.02	-46.9	-59.4	3.8	8.47e-01	0	43	104	0	64	15022
2026-01-14 15:54:31.64	246.56	18.08	-46.8	-59.4	3.8	8.46e-01	0	43	104	0	64	15008
2026-01-14 15:54:32.35	246.71	18.12	-46.8	-59.4	3.8	8.48e-01	0	43	104	0	64	15008
2026-01-14 15:54:33.62	246.98	18.18	-46.9	-59.4	3.8	8.45e-01	0	43	104	0	64	14969
2026-01-14 15:54:34.34	247.14	18.22	-46.9	-59.4	3.8	8.47e-01	0	43	104	0	64	15033
2026-01-14 15:54:35.61	247.42	18.28	-46.9	-59.4	3.8	8.46e-01	0	43	104	0	64	14966
2026-01-14 15:54:36.35	247.58	18.31	-46.9	-59.5	3.8	8.46e-01	0	43	104	0	64	15065
2026-01-14 15:54:37.63	247.86	18.37	-46.8	-59.4	3.8	8.46e-01	0	43	104	0	64	15008
2026-01-14 15:54:38.34	248.02	18.41	-46.8	-59.4	3.8	8.47e-01	0	43	104	0	64	15037
2026-01-14 15:54:39.63	248.30	18.47	-46.8	-59.4	3.8	8.47e-01	0	43	104	0	64	14983
2026-01-14 15:54:40.34	248.46	18.50	-46.8	-59.4	3.8	8.47e-01	0	43	104	0	64	15041
2026-01-14 15:54:41.62	248.74	18.56	-46.9	-59.4	3.8	8.47e-01	0	43	104	0	64	15002
2026-01-14 15:54:42.35	248.90	18.60	-46.9	-59.4	3.8	8.47e-01	0	43	104	0	64	14982
2026-01-14 15:54:43.62	249.19	18.65	-46.8	-59.4	3.8	8.47e-01	0	43	104	0	64	15037
2026-01-14 15:54:44.33	249.35	18.69	-46.8	-59.4	3.8	8.48e-01	0	43	104	0	64	14995
2026-01-14 15:54:45.61	249.63	18.74	-46.8	-59.4	3.8	8.47e-01	0	43	104	0	64	15048
2026-01-14 15:54:46.32	249.79	18.78	-46.9	-59.4	3.8	8.46e-01	0	43	104	0	64	15041
2026-01-14 15:54:47.60	250.08	18.83	-46.9	-59.4	3.8	8.48e-01	0	43	104	0	64	14985
2026-01-14 15:54:48.31	250.24	18.86	-46.9	-59.4	3.8	8.47e-01	0	43	104	0	64	15049
2026-01-14 15:54:49.58	250.53	18.92	-46.9	-59.5	3.8	8.47e-01	0	43	104	0	64	15180
2026-01-14 15:54:50.30	250.70	18.95	-46.9	-59.5	3.8	8.45e-01	0	43	104	0	64	15103
2026-01-14 15:54:51.57	250.99	19.00	-46.8	-59.4	3.8	8.47e-01	0	43	104	0	64	15035
2026-01-14 15:54:52.30	251.15	19.04	-46.8	-59.4	3.8	8.46e-01	0	43	104	0	64	15003
2026-01-14 15:54:53.58	251.45	19.09	-46.9	-59.5	3.8	8.47e-01	0	43	104	0	64	15082
2026-01-14 15:54:54.29	251.61	19.12	-46.9	-59.4	3.8	8.47e-01	0	43	104	0	64	15039
2026-01-14 15:54:55.67	251.93	19.18	-46.8	-59.4	3.8	8.47e-01	0	43	104	0	64	14957
2026-01-14 15:54:56.38	252.09	19.21	-46.9	-59.4	3.8	8.46e-01	0	43	104	0	64	14948
2026-01-14 15:54:57.74	252.41	19.26	-46.9	-59.5	3.8	8.46e-01	0	43	104	0	64	15073
2026-01-14 15:54:58.45	252.57	19.29	-46.8	-59.5	3.8	8.47e-01	0	43	104	0	64	15084
2026-01-14 15:54:59.73	252.87	19.34	-46.8	-59.4	3.8	8.46e-01	0	43	104	0	64	14977
2026-01-14 15:55:00.44	253.04	19.37	-46.9	-59.4	3.8	8.47e-01	0	43	104	0	64	14992
2026-01-14 15:55:01.72	253.34	19.42	-46.8	-59.4	3.8	8.47e-01	0	43	104	0	64	15023
2026-01-14 15:55:02.44	253.51	19.45	-46.9	-59.4	3.8	8.46e-01	0	43	104	0	64	15030
2026-01-14 15:55:03.72	253.81	19.49	-46.9	-59.5	3.8	8.46e-01	0	43	104	0	64	15060
2026-01-14 15:55:04.43	253.98	19.52	-46.9	-59.4	3.8	8.48e-01	0	43	104	0	64	15003
2026-01-14 15:55:05.71	254.28	19.57	-46.9	-59.5	3.8	8.48e-01	0	43	104	0	64	15055
2026-01-14 15:55:06.43	254.45	19.60	-46.9	-59.4	3.8	8.47e-01	0	43	104	0	64	14982
2026-01-14 15:55:07.71	254.76	19.64	-46.9	-59.4	3.8	8.47e-01	0	43	104	0	64	14998
2026-01-14 15:55:08.42	254.92	19.67	-46.8	-59.4	3.8	8.47e-01	0	43	104	0	64	15023
2026-01-14 15:55:09.70	255.23	19.71	-46.8	-59.4	3.8	8.46e-01	0	43	104	0	64	15038
2026-01-14 15:55:10.41	255.40	19.74	-46.8	-59.4	3.8	8.47e-01	0	43	104	0	64	15002
2026-01-14 15:55:11.68	255.71	19.78	-46.9	-59.5	3.8	8.46e-01	0	43	104	0	64	15065
2026-01-14 15:55:12.43	255.89	19.81	-46.9	-59.4	3.8	8.47e-01	0	43	104	0	64	14977
2026-01-14 15:55:13.70	256.19	19.85	-46.9	-59.4	3.8	8.47e-01	0	43	104	0	64	15017
2026-01-14 15:55:14.41	256.36	19.87	-46.9	-59.4	3.8	8.46e-01	0	44	104	0	64	15011
2026-01-14 15:55:15.79	256.70	19.92	-46.9	-59.4	3.8	8.47e-01	0	43	104	0	64	15010
2026-01-14 15:55:16.50	256.87	19.94	-46.8	-59.4	3.8	8.47e-01	0	43	104	0	64	15013
2026-01-14 15:55:17.87	257.20	19.99	-46.9	-59.4	3.8	8.47e-01	0	43	104	0	64	15003
2026-01-14 15:55:18.58	257.38	20.01	-46.8	-59.4	3.8	8.47e-01	0	43	104	0	64	15030
2026-01-14 15:55:19.86	257.69	20.05	-46.9	-59.4	3.8	8.47e-01	0	43	104	0	64	14961
2026-01-14 15:55:20.58	257.86	20.07	-46.8	-59.4	3.8	8.48e-01	0	43	104	0	64	14942
2026-01-14 15:55:21.86	258.18	20.11	-46.8	-59.4	3.8	8.46e-01	0	43	104	0	64	15001
2026-01-14 15:55:22.57	258.35	20.13	-46.8	-59.4	3.8	8.47e-01	0	43	104	0	64	14947
2026-01-14 15:55:23.85	258.67	20.17	-46.9	-59.5	3.8	8.46e-01	0	43	104	0	64	15098
2026-01-14 15:55:24.57	258.84	20.19	-46.8	-59.4	3.8	8.47e-01	0	43	104	0	64	15009
2026-01-14 15:55:25.85	259.16	20.22	-46.8	-59.4	3.8	8.46e-01	0	44	104	0	64	15004
2026-01-14 15:55:26.58	259.34	20.24	-46.8	-59.4	3.8	8.46e-01	0	43	104	0	64	15015
2026-01-14 15:55:27.85	259.66	20.28	-46.8	-59.5	3.8	8.48e-01	0	43	104	0	64	15081
2026-01-14 15:55:28.58	259.84	20.30	-46.9	-59.5	3.8	8.47e-01	0	43	104	0	64	15089
2026-01-14 15:55:29.86	260.15	20.33	-46.8	-59.4	3.8	8.47e-01	0	43	104	0	64	14973
2026-01-14 15:55:30.57	260.33	20.35	-46.8	-59.4	3.8	8.47e-01	0	43	104	0	64	14997
2026-01-14 15:55:31.84	260.65	20.38	-46.8	-59.4	3.8	8.48e-01	0	43	104	0	64	15027
2026-01-14 15:55:32.55	260.83	20.40	-46.8	-59.4	3.8	8.49e-01	0	43	104	0	64	15029
2026-01-14 15:55:33.83	261.15	20.43	-46.9	-59.5	3.8	8.47e-01	0	43	104	0	64	15088
2026-01-14 15:55:34.54	261.32	20.45	-46.9	-59.4	3.8	8.47e-01	0	43	104	0	64	15036
2026-01-14 15:55:35.82	261.64	20.47	-46.8	-59.4	3.8	8.47e-01	0	43	104	0	64	15010
2026-01-14 15:55:36.55	261.83	20.49	-46.9	-59.4	3.8	8.46e-01	0	43	104	0	64	14966
2026-01-14 15:55:37.82	262.15	20.52	-46.8	-59.4	3.8	8.47e-01	0	44	104	0	64	15032
2026-01-14 15:55:38.53	262.33	20.53	-46.8	-59.4	3.8	8.46e-01	0	43	104	0	64	15015
2026-01-14 15:55:39.84	262.66	20.56	-46.9	-59.4	3.8	8.48e-01	0	43	104	0	64	15003
2026-01-14 15:55:40.55	262.84	20.58	-46.9	-59.4	3.8	8.47e-01	0	43	104	0	64	15039
2026-01-14 15:55:41.86	263.17	20.60	-46.8	-59.4	3.8	8.48e-01	0	43	104	0	64	14939
2026-01-14 15:55:42.57	263.35	20.61	-46.8	-59.4	3.8	8.47e-01	0	43	104	0	64	14935
2026-01-14 15:55:43.88	263.68	20.64	-46.8	-59.4	3.8	8.47e-01	0	43	104	0	64	14903
2026-01-14 15:55:44.59	263.86	20.65	-46.8	-59.4	3.8	8.48e-01	0	43	104	0	64	14903
2026-01-14 15:55:45.87	264.18	20.67	-46.8	-59.4	3.8	8.47e-01	0	43	104	0	64	14939
2026-01-14 15:55:46.58	264.36	20.69	-46.8	-59.4	3.8	8.48e-01	0	43	104	0	64	14975
2026-01-14 15:55:47.86	264.69	20.71	-46.8	-59.4	3.8	8.46e-01	0	43	104	0	64	15010
2026-01-14 15:55:48.60	264.88	20.72	-46.8	-59.4	3.8	8.48e-01	0	43	104	0	64	14982
2026-01-14 15:55:49.87	265.20	20.74	-46.8	-59.4	3.8	8.45e-01	0	43	104	0	64	14954
2026-01-14 15:55:50.60	265.39	20.75	-46.8	-59.4	3.8	8.47e-01	0	43	104	0	64	14932
2026-01-14 15:55:51.88	265.72	20.77	-46.8	-59.3	3.8	8.47e-01	0	43	104	0	64	14878
2026-01-14 15:55:52.59	265.90	20.78	-46.8	-59.4	3.8	8.47e-01	0	43	104	0	64	14908
2026-01-14 15:55:53.86	266.22	20.79	-46.8	-59.4	3.8	8.45e-01	0	43	104	0	64	14991
2026-01-14 15:55:54.59	266.41	20.80	-46.8	-59.4	3.8	8.48e-01	0	43	104	0	64	14955
2026-01-14 15:55:55.87	266.74	20.82	-46.8	-59.4	3.8	8.47e-01	0	43	104	0	64	14925
2026-01-14 15:55:56.59	266.92	20.83	-46.8	-59.4	3.8	8.47e-01	0	43	104	0	64	15015
2026-01-14 15:55:57.87	267.25	20.84	-46.7	-59.4	3.8	8.47e-01	0	43	104	0	64	14974
2026-01-14 15:55:58.58	267.43	20.85	-46.8	-59.4	3.8	8.46e-01	0	43	104	0	64	15049
2026-01-14 15:55:59.87	267.76	20.86	-46.8	-59.4	3.8	8.48e-01	0	43	104	0	64	15040
2026-01-14 15:56:00.58	267.95	20.87	-46.8	-59.4	3.8	8.48e-01	0	43	104	0	64	14994
2026-01-14 15:56:01.86	268.28	20.88	-46.9	-59.4	3.8	8.47e-01	0	43	104	0	64	14966
2026-01-14 15:56:02.57	268.46	20.88	-46.8	-59.5	3.8	8.46e-01	0	43	104	0	64	15064
2026-01-14 15:56:03.85	268.79	20.89	-46.8	-59.4	3.8	8.47e-01	0	43	104	0	64	14995
2026-01-14 15:56:04.56	268.97	20.90	-46.9	-59.4	3.8	8.47e-01	0	43	104	0	64	15010
2026-01-14 15:56:05.83	269.30	20.91	-46.8	-59.4	3.8	8.47e-01	0	43	104	0	64	14972
2026-01-14 15:56:06.54	269.48	20.91	-46.9	-59.5	3.8	8.46e-01	0	43	104	0	64	15074
2026-01-14 15:56:07.82	269.81	20.92	-46.8	-59.4	3.8	8.48e-01	0	43	104	0	64	15035
2026-01-14 15:56:08.53	270.00	20.92	-46.8	-59.4	3.8	8.46e-01	0	43	104	0	64	15038
2026-01-14 15:56:09.81	270.33	20.92	-46.8	-59.4	3.8	8.48e-01	0	43	104	0	64	15001
2026-01-14 15:56:10.52	270.51	20.93	-46.8	-59.5	3.8	8.47e-01	0	43	104	0	64	15068
2026-01-14 15:56:11.80	270.84	20.93	-46.8	-59.4	3.8	8.47e-01	0	43	104	0	64	15033
2026-01-14 15:56:12.53	271.03	20.93	-46.9	-59.4	3.8	8.47e-01	0	43	104	0	64	14976
2026-01-14 15:56:13.80	271.36	20.93	-46.8	-59.4	3.8	8.47e-01	0	43	104	0	64	15015
2026-01-14 15:56:14.53	271.55	20.94	-46.8	-59.4	3.8	8.47e-01	0	43	104	0	64	15045
2026-01-14 15:56:15.81	271.88	20.94	-46.8	-59.5	3.8	8.46e-01	0	43	104	0	64	15057
2026-01-14 15:56:16.52	272.06	20.94	-46.8	-59.5	3.8	8.47e-01	0	43	104	0	64	15099
2026-01-14 15:56:17.79	272.39	20.94	-46.8	-59.4	3.8	8.47e-01	0	43	104	0	64	15033
2026-01-14 15:56:18.50	272.57	20.93	-46.8	-59.4	3.8	8.48e-01	0	43	104	0	64	15031
2026-01-14 15:56:19.78	272.90	20.93	-46.8	-59.4	3.8	8.47e-01	0	43	104	0	64	14997
2026-01-14 15:56:20.49	273.08	20.93	-46.8	-59.4	3.8	8.46e-01	0	43	104	0	64	15030
2026-01-14 15:56:21.90	273.45	20.93	-46.8	-59.5	3.8	8.47e-01	0	43	104	0	64	15069
2026-01-14 15:56:22.61	273.63	20.92	-46.8	-59.5	3.8	8.47e-01	0	43	104	0	64	15082
2026-01-14 15:56:23.89	273.96	20.92	-46.9	-59.4	3.8	8.47e-01	0	43	104	0	64	15013
2026-01-14 15:56:24.61	274.15	20.91	-46.8	-59.5	3.8	8.46e-01	0	43	104	0	64	15063
2026-01-14 15:56:25.89	274.48	20.91	-46.9	-59.4	3.8	8.47e-01	0	43	104	0	64	15025
2026-01-14 15:56:26.60	274.66	20.90	-46.8	-59.4	3.8	8.45e-01	0	43	104	0	64	14995
2026-01-14 15:56:27.88	274.99	20.90	-46.8	-59.4	3.8	8.47e-01	0	43	104	0	64	14995
2026-01-14 15:56:28.59	275.17	20.89	-46.8	-59.4	3.8	8.47e-01	0	43	104	0	64	15023
2026-01-14 15:56:29.86	275.50	20.88	-46.9	-59.5	3.8	8.46e-01	0	43	104	0	64	15055
2026-01-14 15:56:30.60	275.69	20.87	-46.8	-59.4	3.8	8.46e-01	0	43	104	0	64	15008
2026-01-14 15:56:31.88	276.02	20.86	-46.8	-59.5	3.8	8.47e-01	0	43	104	0	64	15127
2026-01-14 15:56:32.61	276.21	20.86	-46.8	-59.4	3.8	8.47e-01	0	43	104	0	64	15035
2026-01-14 15:56:33.88	276.53	20.84	-46.8	-59.4	3.8	8.48e-01	0	43	104	0	64	15035
2026-01-14 15:56:34.59	276.71	20.84	-46.8	-59.4	3.8	8.47e-01	0	43	104	0	64	15009
2026-01-14 15:56:35.87	277.04	20.82	-46.8	-59.4	3.8	8.47e-01	0	43	104	0	64	15006
2026-01-14 15:56:36.58	277.23	20.81	-46.8	-59.4	3.8	8.46e-01	0	43	104	0	64	14983
2026-01-14 15:56:37.89	277.56	20.80	-46.9	-59.4	3.8	8.48e-01	0	43	104	0	64	15032
2026-01-14 15:56:38.60	277.74	20.79	-46.9	-59.4	3.8	8.46e-01	0	43	104	0	64	15035
2026-01-14 15:56:39.88	278.07	20.77	-46.8	-59.5	3.8	8.48e-01	0	43	104	0	64	15120
2026-01-14 15:56:40.59	278.25	20.76	-46.8	-59.5	3.8	8.47e-01	0	43	104	0	64	15145
2026-01-14 15:56:41.87	278.58	20.74	-46.8	-59.5	3.8	8.47e-01	0	43	104	0	64	15060
2026-01-14 15:56:42.58	278.76	20.73	-46.8	-59.4	3.8	8.47e-01	0	43	104	0	64	15042
2026-01-14 15:56:43.86	279.08	20.71	-46.9	-59.4	3.8	8.46e-01	0	43	104	0	64	15047
2026-01-14 15:56:44.57	279.26	20.70	-46.9	-59.4	3.8	8.47e-01	0	43	104	0	64	15014
2026-01-14 15:56:45.85	279.59	20.68	-46.9	-59.4	3.8	8.47e-01	0	43	104	0	64	14979
2026-01-14 15:56:46.56	279.77	20.67	-46.8	-59.4	3.8	8.47e-01	0	43	104	0	64	15009
2026-01-14 15:56:47.83	280.09	20.65	-46.9	-59.5	3.8	8.47e-01	0	43	104	0	64	15069
2026-01-14 15:56:48.56	280.28	20.63	-46.9	-59.4	3.8	8.46e-01	0	43	104	0	64	15002
2026-01-14 15:56:49.84	280.60	20.61	-46.9	-59.4	3.8	8.46e-01	0	43	104	0	64	14961
2026-01-14 15:56:50.55	280.78	20.59	-46.9	-59.4	3.8	8.48e-01	0	43	104	0	64	15015
2026-01-14 15:56:51.82	281.10	20.57	-46.9	-59.5	3.8	8.48e-01	0	43	104	0	64	15092
2026-01-14 15:56:52.53	281.28	20.55	-46.9	-59.4	3.8	8.48e-01	0	43	104	0	64	15018
2026-01-14 15:56:53.81	281.60	20.53	-46.9	-59.4	3.8	8.46e-01	0	43	104	0	64	15014
2026-01-14 15:56:54.52	281.78	20.51	-46.9	-59.5	3.8	8.47e-01	0	43	104	0	64	15127
2026-01-14 15:56:55.90	282.13	20.48	-46.9	-59.4	3.8	8.46e-01	0	43	104	0	64	15034
2026-01-14 15:56:56.61	282.30	20.47	-46.9	-59.4	3.8	8.47e-01	0	43	104	0	64	15023
2026-01-14 15:56:57.88	282.62	20.44	-46.9	-59.4	3.8	8.46e-01	0	43	104	0	64	15041
2026-01-14 15:56:58.59	282.80	20.42	-46.9	-59.5	3.8	8.47e-01	0	43	104	0	64	15132
2026-01-14 15:56:59.87	283.12	20.39	-46.9	-59.4	3.8	8.47e-01	0	43	104	0	64	15043
2026-01-14 15:57:00.58	283.29	20.37	-46.8	-59.4	3.8	8.47e-01	0	43	104	0	64	15028
2026-01-14 15:57:01.86	283.61	20.34	-46.9	-59.5	3.8	8.47e-01	0	43	104	0	64	15111
2026-01-14 15:57:02.57	283.79	20.32	-46.9	-59.5	3.8	8.45e-01	0	43	104	0	64	15153
2026-01-14 15:57:03.85	284.11	20.29	-46.9	-59.5	3.8	8.48e-01	0	43	104	0	64	15053
2026-01-14 15:57:04.56	284.28	20.27	-46.9	-59.5	3.8	8.47e-01	0	43	104	0	64	15091
2026-01-14 15:57:05.84	284.60	20.23	-46.9	-59.5	3.8	8.46e-01	0	43	104	0	64	15057
2026-01-14 15:57:06.69	284.81	20.21	-46.9	-59.5	3.8	8.47e-01	0	43	104	0	64	15079
2026-01-14 15:57:07.83	285.09	20.18	-46.9	-59.5	3.8	8.47e-01	0	43	104	0	64	15136
2026-01-14 15:57:08.68	285.30	20.15	-46.8	-59.4	3.8	8.46e-01	0	43	104	0	64	15051
2026-01-14 15:57:09.81	285.57	20.12	-46.8	-59.4	3.8	8.47e-01	0	43	104	0	64	15040
2026-01-14 15:57:10.67	285.78	20.10	-46.9	-59.5	3.8	8.47e-01	0	43	104	0	64	15065
2026-01-14 15:57:11.80	286.06	20.06	-46.8	-59.4	3.8	8.46e-01	0	43	104	0	64	14991
2026-01-14 15:57:12.65	286.27	20.04	-46.9	-59.5	3.8	8.46e-01	0	43	104	0	64	15109
2026-01-14 15:57:13.79	286.55	20.00	-46.8	-59.5	3.8	8.47e-01	0	43	104	0	64	15091
2026-01-14 15:57:14.64	286.75	19.97	-46.8	-59.5	3.8	8.47e-01	0	43	104	0	64	15054
2026-01-14 15:57:15.78	287.03	19.94	-46.8	-59.5	3.8	8.47e-01	0	43	104	0	64	15139
2026-01-14 15:57:16.63	287.23	19.91	-46.8	-59.4	3.8	8.48e-01	0	43	104	0	64	15042
2026-01-14 15:57:17.77	287.51	19.87	-46.8	-59.5	3.8	8.46e-01	0	43	104	0	64	15169
2026-01-14 15:57:18.62	287.71	19.84	-46.8	-59.5	3.8	8.47e-01	0	43	104	0	64	15061
2026-01-14 15:57:19.75	287.98	19.81	-46.8	-59.5	3.8	8.47e-01	0	43	104	0	64	15113
2026-01-14 15:57:20.61	288.19	19.78	-46.9	-59.5	3.8	8.47e-01	0	43	104	0	64	15181
2026-01-14 15:57:21.74	288.46	19.74	-46.8	-59.5	3.8	8.47e-01	0	43	104	0	64	15064
2026-01-14 15:57:22.59	288.66	19.71	-46.8	-59.5	3.8	8.47e-01	0	43	104	0	64	15092
2026-01-14 15:57:23.73	288.94	19.67	-46.9	-59.4	3.8	8.47e-01	0	44	104	0	64	15014
2026-01-14 15:57:24.58	289.14	19.64	-46.8	-59.5	3.8	8.47e-01	0	43	104	0	64	15098
2026-01-14 15:57:25.71	289.40	19.60	-46.9	-59.5	3.8	8.47e-01	0	43	104	0	64	15060
2026-01-14 15:57:26.57	289.61	19.56	-46.8	-59.5	3.8	8.47e-01	0	43	104	0	64	15067
2026-01-14 15:57:27.70	289.87	19.52	-46.8	-59.5	3.8	8.47e-01	0	43	104	0	64	15063
2026-01-14 15:57:28.55	290.07	19.49	-46.9	-59.5	3.8	8.47e-01	0	43	104	0	64	15116
2026-01-14 15:57:29.69	290.34	19.45	-46.8	-59.4	3.8	8.47e-01	0	43	104	0	64	15032
2026-01-14 15:57:30.54	290.54	19.41	-46.9	-59.5	3.8	8.47e-01	0	43	104	0	64	15057
2026-01-14 15:57:31.68	290.81	19.37	-46.9	-59.4	3.8	8.46e-01	0	43	104	0	64	15036
2026-01-14 15:57:32.53	291.01	19.34	-46.8	-59.4	3.8	8.46e-01	0	43	104	0	64	15049
2026-01-14 15:57:33.67	291.27	19.29	-46.8	-59.5	3.8	8.47e-01	0	43	104	0	64	15075
2026-01-14 15:57:34.52	291.47	19.26	-46.9	-59.4	3.8	8.47e-01	0	43	104	0	64	15011
2026-01-14 15:57:35.65	291.73	19.21	-46.9	-59.5	3.8	8.47e-01	0	43	104	0	64	15201
2026-01-14 15:57:36.50	291.93	19.18	-46.8	-59.5	3.8	8.46e-01	0	43	104	0	64	15096
2026-01-14 15:57:37.64	292.19	19.13	-46.9	-59.5	3.8	8.49e-01	0	43	104	0	64	15062
2026-01-14 15:57:38.49	292.38	19.09	-46.9	-59.4	3.8	8.48e-01	0	43	104	0	64	14991
2026-01-14 15:57:39.63	292.64	19.05	-46.9	-59.5	3.8	8.47e-01	0	43	104	0	64	15065
2026-01-14 15:57:40.48	292.84	19.01	-46.7	-59.5	3.8	8.47e-01	0	43	104	0	64	15053
2026-01-14 15:57:41.62	293.10	18.96	-46.8	-59.5	3.8	8.47e-01	0	43	104	0	64	15155
2026-01-14 15:57:42.47	293.29	18.93	-46.8	-59.5	3.8	8.46e-01	0	43	104	0	64	15174
2026-01-14 15:57:43.60	293.55	18.88	-46.9	-59.5	3.8	8.47e-01	0	43	104	0	64	15091
2026-01-14 15:57:44.46	293.74	18.84	-46.9	-59.5	3.8	8.48e-01	0	43	104	0	64	15110
2026-01-14 15:57:45.59	293.99	18.79	-46.9	-59.5	3.8	8.46e-01	0	43	104	0	64	15123
2026-01-14 15:57:46.44	294.18	18.75	-47.0	-59.5	3.8	8.46e-01	0	43	104	0	64	15195
2026-01-14 15:57:47.71	294.47	18.69	-46.8	-59.4	3.8	8.47e-01	0	43	104	0	64	15039
2026-01-14 15:57:48.49	294.64	18.66	-46.8	-59.5	3.8	8.47e-01	0	43	104	0	64	15062
2026-01-14 15:57:49.71	294.91	18.60	-46.8	-59.5	3.8	8.47e-01	0	43	104	0	64	15090
2026-01-14 15:57:50.56	295.10	18.56	-46.9	-59.5	3.8	8.47e-01	0	43	104	0	64	15115
2026-01-14 15:57:51.69	295.35	18.51	-46.9	-59.4	3.8	8.47e-01	0	43	104	0	64	15017
2026-01-14 15:57:52.55	295.54	18.47	-46.9	-59.5	3.8	8.47e-01	0	43	104	0	64	15089
2026-01-14 15:57:53.68	295.79	18.42	-46.9	-59.5	3.8	8.47e-01	0	43	104	0	64	15152
2026-01-14 15:57:54.54	295.98	18.38	-46.9	-59.5	3.8	8.47e-01	0	43	104	0	64	15089
2026-01-14 15:57:55.67	296.23	18.33	-46.8	-59.5	3.8	8.47e-01	0	43	104	0	64	15096
2026-01-14 15:57:56.52	296.41	18.29	-46.9	-59.5	3.8	8.46e-01	0	43	104	0	64	15058
2026-01-14 15:57:57.66	296.66	18.23	-46.9	-59.4	3.8	8.47e-01	0	43	104	0	64	14994
2026-01-14 15:57:58.51	296.84	18.19	-46.9	-59.5	3.8	8.47e-01	0	43	104	0	64	15069
2026-01-14 15:57:59.65	297.09	18.13	-46.9	-59.5	3.8	8.47e-01	0	43	104	0	64	15060
2026-01-14 15:58:00.50	297.27	18.09	-46.8	-59.5	3.8	8.47e-01	0	43	104	0	64	15186
2026-01-14 15:58:01.63	297.51	18.04	-46.8	-59.5	3.8	8.47e-01	0	43	104	0	64	15152
2026-01-14 15:58:02.48	297.69	17.99	-46.9	-59.4	3.8	8.46e-01	0	43	104	0	64	15028
2026-01-14 15:58:03.62	297.94	17.94	-46.8	-59.5	3.8	8.47e-01	0	43	104	0	64	15073
2026-01-14 15:58:04.47	298.12	17.90	-46.8	-59.5	3.8	8.46e-01	0	43	104	0	64	15116
2026-01-14 15:58:05.61	298.36	17.84	-46.9	-59.5	3.8	8.46e-01	0	43	104	0	64	15114
2026-01-14 15:58:06.46	298.54	17.80	-46.9	-59.5	3.8	8.47e-01	0	43	104	0	64	15060
2026-01-14 15:58:07.83	298.83	17.73	-46.9	-59.5	3.8	8.49e-01	0	43	104	0	64	15084
2026-01-14 15:58:08.54	298.98	17.69	-46.9	-59.5	3.8	8.47e-01	0	43	104	0	64	15156
2026-01-14 15:58:09.82	299.24	17.62	-46.9	-59.5	3.8	8.47e-01	0	43	104	0	64	15084
2026-01-14 15:58:10.53	299.39	17.59	-47.0	-59.4	3.8	8.46e-01	0	43	104	0	64	15021
2026-01-14 15:58:11.81	299.66	17.52	-46.8	-59.5	3.8	8.46e-01	0	43	104	0	64	15119
2026-01-14 15:58:12.52	299.80	17.48	-46.9	-59.5	3.8	8.47e-01	0	44	104	0	64	15127
2026-01-14 15:58:13.80	300.07	17.42	-46.9	-59.5	3.8	8.48e-01	0	43	104	0	64	15095
2026-01-14 15:58:14.51	300.21	17.38	-46.9	-59.5	3.8	8.46e-01	0	43	104	0	64	15184
2026-01-14 15:58:15.79	300.47	17.31	-46.9	-59.5	3.8	8.47e-01	0	43	104	0	64	15133
2026-01-14 15:58:16.50	300.62	17.27	-46.9	-59.5	3.8	8.47e-01	0	43	104	0	64	15148
2026-01-14 15:58:17.78	300.88	17.21	-46.9	-59.5	3.8	8.47e-01	0	43	104	0	64	15079
2026-01-14 15:58:18.49	301.02	17.17	-46.9	-59.5	3.8	8.47e-01	0	43	104	0	64	15157
2026-01-14 15:58:19.84	301.30	17.10	-46.8	-59.5	3.8	8.48e-01	0	43	104	0	64	15143
2026-01-14 15:58:20.55	301.44	17.06	-46.8	-59.5	3.8	8.46e-01	0	43	104	0	64	15138
2026-01-14 15:58:21.91	301.71	16.98	-46.9	-59.5	3.8	8.48e-01	0	43	104	0	64	15104
2026-01-14 15:58:22.62	301.85	16.94	-46.9	-59.5	3.8	8.47e-01	0	43	104	0	64	15163
2026-01-14 15:58:23.89	302.10	16.87	-46.9	-59.5	3.8	8.46e-01	0	43	104	0	64	15078
2026-01-14 15:58:24.62	302.25	16.83	-46.9	-59.5	3.8	8.48e-01	0	44	104	0	64	15201
2026-01-14 15:58:25.90	302.50	16.76	-46.9	-59.5	3.8	8.48e-01	0	43	104	0	64	15083
2026-01-14 15:58:26.61	302.64	16.73	-46.9	-59.4	3.8	8.46e-01	0	43	104	0	64	15045
2026-01-14 15:58:27.88	302.89	16.66	-46.9	-59.5	3.8	8.47e-01	0	44	104	0	64	15100
2026-01-14 15:58:28.61	303.03	16.61	-46.9	-59.5	3.8	8.47e-01	0	43	104	0	64	15113
2026-01-14 15:58:29.89	303.28	16.54	-46.9	-59.5	3.8	8.47e-01	0	43	104	0	64	15110
2026-01-14 15:58:30.60	303.42	16.50	-46.9	-59.5	3.8	8.46e-01	0	44	104	0	64	15161
2026-01-14 15:58:31.88	303.67	16.43	-46.9	-59.5	3.8	8.48e-01	0	43	104	0	64	15134
2026-01-14 15:58:32.59	303.80	16.39	-46.9	-59.5	3.8	8.47e-01	0	44	104	0	64	15081
2026-01-14 15:58:33.86	304.05	16.32	-46.9	-59.5	3.8	8.47e-01	0	43	104	0	64	15108
2026-01-14 15:58:34.59	304.19	16.28	-46.9	-59.5	3.8	8.47e-01	0	43	104	0	64	15175
2026-01-14 15:58:35.86	304.43	16.21	-46.8	-59.5	3.8	8.47e-01	0	43	104	0	64	15135
2026-01-14 15:58:36.57	304.56	16.17	-46.9	-59.6	3.8	8.46e-01	0	44	104	0	64	15237
2026-01-14 15:58:37.85	304.81	16.09	-46.9	-59.5	3.8	8.47e-01	0	44	104	0	64	15135
2026-01-14 15:58:38.56	304.94	16.05	-46.9	-59.5	3.8	8.48e-01	0	43	104	0	64	15188
2026-01-14 15:58:39.84	305.18	15.98	-46.8	-59.5	3.8	8.47e-01	0	43	104	0	64	15113
2026-01-14 15:58:40.57	305.32	15.94	-46.9	-59.5	3.8	8.48e-01	0	43	104	0	64	15146
2026-01-14 15:58:41.84	305.55	15.86	-46.9	-59.5	3.8	8.47e-01	0	44	104	0	64	15187
2026-01-14 15:58:42.56	305.69	15.82	-46.9	-59.5	3.8	8.47e-01	0	43	104	0	64	15151
2026-01-14 15:58:43.83	305.92	15.75	-46.8	-59.5	3.8	8.46e-01	0	43	104	0	64	15168
2026-01-14 15:58:44.54	306.05	15.71	-46.9	-59.4	3.8	8.48e-01	0	43	104	0	64	15044
2026-01-14 15:58:45.82	306.29	15.63	-46.8	-59.5	3.8	8.47e-01	0	43	104	0	64	15074
2026-01-14 15:58:46.55	306.42	15.59	-46.8	-59.5	3.8	8.46e-01	0	43	104	0	64	15172
2026-01-14 15:58:47.82	306.65	15.51	-46.9	-59.5	3.8	8.46e-01	0	43	104	0	64	15137
2026-01-14 15:58:48.55	306.78	15.47	-46.9	-59.5	3.8	8.47e-01	0	43	104	0	64	15120
2026-01-14 15:58:49.83	307.01	15.40	-46.8	-59.5	3.8	8.47e-01	0	43	104	0	64	15109
2026-01-14 15:58:50.54	307.14	15.36	-46.9	-59.5	3.8	8.46e-01	0	43	104	0	64	15114
2026-01-14 15:58:51.81	307.37	15.28	-46.9	-59.5	3.8	8.47e-01	0	43	104	0	64	15138
2026-01-14 15:58:52.77	307.54	15.22	-46.9	-59.5	3.8	8.47e-01	0	43	104	0	64	15177
2026-01-14 15:58:53.77	307.72	15.16	-46.9	-59.5	3.8	8.46e-01	0	44	104	0	64	15136
2026-01-14 15:58:54.76	307.89	15.11	-46.8	-59.5	3.8	8.46e-01	0	43	104	0	64	15207
2026-01-14 15:58:55.76	308.07	15.05	-46.8	-59.5	3.8	8.47e-01	0	44	104	0	64	15138
2026-01-14 15:58:56.75	308.25	14.99	-46.9	-59.5	3.8	8.46e-01	0	43	104	0	64	15070
2026-01-14 15:58:57.74	308.42	14.93	-46.9	-59.5	3.8	8.46e-01	0	43	104	0	64	15108
2026-01-14 15:58:58.74	308.59	14.87	-46.8	-59.5	3.8	8.47e-01	0	44	104	0	64	15115
2026-01-14 15:58:59.73	308.76	14.81	-46.9	-59.5	3.8	8.46e-01	0	43	104	0	64	15116
2026-01-14 15:59:00.72	308.94	14.75	-46.8	-59.5	3.8	8.47e-01	0	43	104	0	64	15087
2026-01-14 15:59:01.72	309.11	14.69	-46.8	-59.5	3.8	8.46e-01	0	44	104	0	64	15109
2026-01-14 15:59:02.71	309.28	14.63	-46.9	-59.5	3.8	8.47e-01	0	43	104	0	64	15112
2026-01-14 15:59:03.70	309.45	14.57	-46.8	-59.4	3.8	8.46e-01	0	43	104	0	64	15046
2026-01-14 15:59:04.70	309.62	14.51	-46.9	-59.5	3.8	8.47e-01	0	43	104	0	64	15139
2026-01-14 15:59:05.69	309.79	14.45	-46.8	-59.5	3.8	8.47e-01	0	44	104	0	64	15171
2026-01-14 15:59:06.69	309.96	14.39	-46.9	-59.6	3.8	8.47e-01	0	43	104	0	64	15267
2026-01-14 15:59:07.68	310.12	14.33	-46.9	-59.5	3.8	8.46e-01	0	43	104	0	64	15082
2026-01-14 15:59:08.67	310.29	14.27	-46.9	-59.5	3.8	8.47e-01	0	43	104	0	64	15124
2026-01-14 15:59:09.67	310.45	14.21	-46.8	-59.5	3.8	8.46e-01	0	43	104	0	64	15190
2026-01-14 15:59:10.66	310.62	14.15	-46.9	-59.5	3.8	8.47e-01	0	43	104	0	64	15148
2026-01-14 15:59:11.66	310.79	14.09	-46.9	-59.5	3.8	8.46e-01	0	43	104	0	64	15137
2026-01-14 15:59:12.65	310.95	14.03	-46.9	-59.5	3.8	8.47e-01	0	43	104	0	64	15135
2026-01-14 15:59:13.64	311.11	13.97	-46.9	-59.5	3.8	8.46e-01	0	43	104	0	64	15079
2026-01-14 15:59:14.64	311.28	13.91	-46.9	-59.5	3.8	8.47e-01	0	43	104	0	64	15208
2026-01-14 15:59:15.63	311.44	13.85	-46.9	-59.5	3.8	8.47e-01	0	43	104	0	64	15090
2026-01-14 15:59:16.62	311.60	13.79	-46.9	-59.5	3.8	8.46e-01	0	43	104	0	64	15155
2026-01-14 15:59:17.62	311.76	13.72	-46.9	-59.5	3.8	8.46e-01	0	44	104	0	64	15159
2026-01-14 15:59:18.61	311.92	13.66	-46.9	-59.5	3.8	8.47e-01	0	43	104	0	64	15098
2026-01-14 15:59:19.61	312.08	13.60	-46.9	-59.5	3.8	8.48e-01	0	43	104	0	64	15116
2026-01-14 15:59:20.60	312.24	13.54	-46.9	-59.5	3.8	8.48e-01	0	43	104	0	64	15122
2026-01-14 15:59:21.60	312.40	13.48	-46.9	-59.5	3.8	8.48e-01	0	43	104	0	64	15072
2026-01-14 15:59:22.59	312.55	13.42	-46.8	-59.5	3.8	8.46e-01	0	43	104	0	64	15153
2026-01-14 15:59:23.58	312.71	13.36	-46.9	-59.5	3.8	8.48e-01	0	43	104	0	64	15125
2026-01-14 15:59:24.58	312.87	13.30	-46.9	-59.5	3.8	8.48e-01	0	44	104	0	64	15122
2026-01-14 15:59:25.57	313.02	13.24	-46.9	-59.5	3.8	8.47e-01	0	43	104	0	64	15069
2026-01-14 15:59:26.56	313.18	13.18	-46.9	-59.5	3.8	8.46e-01	0	43	104	0	64	15155
2026-01-14 15:59:27.56	313.33	13.11	-46.9	-59.5	3.8	8.47e-01	0	43	104	0	64	15200
2026-01-14 15:59:28.55	313.49	13.05	-46.9	-59.5	3.8	8.48e-01	0	43	104	0	64	15071
2026-01-14 15:59:29.55	313.64	12.99	-46.9	-59.5	3.8	8.46e-01	0	43	104	0	64	15119
2026-01-14 15:59:30.54	313.79	12.93	-46.9	-59.5	3.8	8.48e-01	0	43	104	0	64	15135
2026-01-14 15:59:31.53	313.94	12.87	-46.9	-59.6	3.8	8.47e-01	0	43	104	0	64	15231
2026-01-14 15:59:32.59	314.10	12.80	-46.9	-59.5	3.8	8.46e-01	0	43	104	0	64	15064
2026-01-14 15:59:33.45	314.24	12.75	-46.9	-59.5	3.8	8.47e-01	0	43	104	0	64	15138
2026-01-14 15:59:34.58	314.41	12.68	-46.8	-59.5	3.8	8.47e-01	0	43	104	0	64	15144
2026-01-14 15:59:35.43	314.53	12.63	-46.9	-59.5	3.8	8.46e-01	0	43	104	0	64	15145
2026-01-14 15:59:36.57	314.70	12.56	-46.9	-59.5	3.8	8.46e-01	0	43	104	0	64	15134
2026-01-14 15:59:37.42	314.83	12.51	-46.9	-59.5	3.8	8.47e-01	0	43	104	0	64	15128
2026-01-14 15:59:38.56	315.00	12.43	-46.9	-59.5	3.8	8.46e-01	0	43	104	0	64	15152
2026-01-14 15:59:39.41	315.13	12.38	-46.9	-59.5	3.8	8.46e-01	0	43	104	0	64	15130
2026-01-14 15:59:40.54	315.29	12.31	-46.9	-59.5	3.8	8.47e-01	0	43	104	0	64	15120
2026-01-14 15:59:41.39	315.42	12.26	-46.9	-59.5	3.8	8.46e-01	0	43	104	0	64	15143
2026-01-14 15:59:42.53	315.59	12.19	-46.8	-59.5	3.8	8.47e-01	0	43	104	0	64	15102
2026-01-14 15:59:43.38	315.71	12.14	-46.9	-59.4	3.8	8.47e-01	0	44	104	0	64	15032
2026-01-14 15:59:44.56	315.88	12.06	-46.9	-59.5	3.8	8.47e-01	0	43	104	0	64	15142
2026-01-14 15:59:45.42	316.00	12.01	-46.9	-59.5	3.8	8.46e-01	0	43	104	0	64	15101
2026-01-14 15:59:46.61	316.18	11.94	-46.9	-59.5	3.8	8.47e-01	0	43	104	0	64	15146
2026-01-14 15:59:47.47	316.30	11.88	-46.8	-59.5	3.8	8.47e-01	0	43	104	0	64	15141
2026-01-14 15:59:48.68	316.47	11.81	-46.9	-59.5	3.8	8.47e-01	0	43	104	0	64	15118
2026-01-14 15:59:49.53	316.59	11.76	-46.9	-59.5	3.8	8.47e-01	0	43	104	0	64	15095
2026-01-14 15:59:50.71	316.76	11.68	-46.9	-59.5	3.8	8.46e-01	0	43	104	0	64	15082
2026-01-14 15:59:51.57	316.88	11.63	-46.8	-59.5	3.8	8.47e-01	0	43	104	0	64	15147
2026-01-14 15:59:52.70	317.04	11.56	-46.8	-59.5	3.8	8.47e-01	0	44	104	0	64	15072
2026-01-14 15:59:53.55	317.16	11.51	-46.9	-59.5	3.8	8.46e-01	0	43	104	0	64	15141
2026-01-14 15:59:54.69	317.32	11.44	-46.8	-59.5	3.8	8.47e-01	0	43	104	0	64	15131
2026-01-14 15:59:55.54	317.43	11.38	-46.9	-59.5	3.8	8.47e-01	0	43	104	0	64	15062
2026-01-14 15:59:56.68	317.59	11.31	-46.9	-59.6	3.8	8.47e-01	0	44	104	0	64	15244
2026-01-14 15:59:57.53	317.71	11.26	-46.9	-59.5	3.8	8.46e-01	0	43	104	0	64	15182
2026-01-14 15:59:58.66	317.86	11.19	-46.9	-59.5	3.8	8.47e-01	0	44	104	0	64	15095
2026-01-14 15:59:59.52	317.98	11.14	-46.9	-59.5	3.8	8.46e-01	0	43	104	0	64	15091
2026-01-14 16:00:00.65	318.13	11.07	-46.9	-59.5	3.8	8.47e-01	0	44	104	0	64	15140
2026-01-14 16:00:01.50	318.25	11.02	-46.9	-59.5	3.8	8.47e-01	0	43	104	0	64	15152
2026-01-14 16:00:02.64	318.40	10.95	-46.9	-59.5	3.8	8.46e-01	0	43	104	0	64	15131
2026-01-14 16:00:03.49	318.52	10.89	-46.8	-59.5	3.8	8.48e-01	0	43	104	0	64	15150
2026-01-14 16:00:04.63	318.67	10.82	-46.8	-59.5	3.8	8.48e-01	0	44	104	0	64	15181
2026-01-14 16:00:05.48	318.78	10.77	-46.9	-59.5	3.8	8.46e-01	0	44	104	0	64	15103
2026-01-14 16:00:06.62	318.93	10.70	-46.8	-59.5	3.8	8.46e-01	0	43	104	0	64	15146
2026-01-14 16:00:07.47	319.05	10.65	-46.8	-59.5	3.8	8.46e-01	0	44	104	0	64	15070
2026-01-14 16:00:08.60	319.19	10.58	-46.9	-59.5	3.8	8.46e-01	0	43	104	0	64	15120
2026-01-14 16:00:09.45	319.31	10.53	-46.9	-59.5	3.8	8.47e-01	0	43	104	0	64	15162
2026-01-14 16:00:10.59	319.45	10.46	-46.9	-59.5	3.8	8.47e-01	0	43	104	0	64	15120
2026-01-14 16:00:11.44	319.57	10.40	-46.9	-59.5	3.8	8.47e-01	0	43	104	0	64	15129
2026-01-14 16:00:12.58	319.71	10.33	-46.8	-59.5	3.8	8.47e-01	0	43	104	0	64	15162
2026-01-14 16:00:13.43	319.82	10.28	-46.8	-59.5	3.8	8.48e-01	0	43	104	0	64	15059
2026-01-14 16:00:14.56	319.97	10.21	-46.9	-59.5	3.8	8.47e-01	0	43	104	0	64	15147
2026-01-14 16:00:15.41	320.08	10.16	-46.9	-59.5	3.8	8.46e-01	0	43	104	0	64	15143
2026-01-14 16:00:16.55	320.22	10.09	-46.9	-59.5	3.8	8.48e-01	0	44	104	0	64	15138
2026-01-14 16:00:17.40	320.33	10.04	-46.9	-59.5	3.8	8.47e-01	0	44	104	0	64	15179
2026-01-14 16:00:18.62	320.48	9.96	-46.8	-59.5	3.8	8.47e-01	0	43	104	0	64	15163
2026-01-14 16:00:19.47	320.59	9.91	-46.8	-59.5	3.8	8.48e-01	0	43	104	0	64	15099
2026-01-14 16:00:20.60	320.73	9.84	-46.8	-59.5	3.8	8.47e-01	0	43	104	0	64	15107
2026-01-14 16:00:21.45	320.84	9.79	-46.9	-59.5	3.8	8.46e-01	0	43	104	0	64	15203
2026-01-14 16:00:22.59	320.98	9.72	-46.8	-59.5	3.8	8.46e-01	0	44	104	0	64	15128
2026-01-14 16:00:23.44	321.08	9.67	-46.9	-59.5	3.8	8.47e-01	0	44	104	0	64	15121
2026-01-14 16:00:24.58	321.23	9.60	-46.9	-59.5	3.8	8.47e-01	0	44	104	0	64	15191
2026-01-14 16:00:25.43	321.33	9.54	-46.9	-59.5	3.8	8.46e-01	0	43	104	0	64	15176
2026-01-14 16:00:26.57	321.47	9.48	-46.9	-59.5	3.8	8.48e-01	0	44	104	0	64	15152
2026-01-14 16:00:27.42	321.57	9.42	-46.9	-59.5	3.8	8.47e-01	0	43	104	0	64	15158
2026-01-14 16:00:28.55	321.71	9.35	-46.9	-59.4	3.8	8.47e-01	0	44	104	0	64	15043
2026-01-14 16:00:29.41	321.81	9.30	-46.9	-59.5	3.8	8.47e-01	0	43	104	0	64	15090
2026-01-14 16:00:30.54	321.95	9.23	-46.9	-59.5	3.8	8.46e-01	0	44	104	0	64	15187
2026-01-14 16:00:31.39	322.05	9.18	-46.9	-59.5	3.8	8.46e-01	0	44	104	0	64	15128
2026-01-14 16:00:32.53	322.19	9.11	-46.8	-59.5	3.8	8.47e-01	0	43	104	0	64	15102
2026-01-14 16:00:33.38	322.29	9.06	-46.9	-59.6	3.8	8.47e-01	0	43	104	0	64	15235
2026-01-14 16:00:34.56	322.43	8.99	-46.9	-59.5	3.8	8.47e-01	0	43	104	0	64	15157
2026-01-14 16:00:35.41	322.53	8.94	-46.9	-59.5	3.8	8.46e-01	0	43	104	0	64	15170
2026-01-14 16:00:36.61	322.67	8.86	-46.9	-59.5	3.8	8.46e-01	0	43	104	0	64	15223
2026-01-14 16:00:37.47	322.77	8.81	-46.9	-59.5	3.8	8.47e-01	0	44	104	0	64	15176
2026-01-14 16:00:38.60	322.90	8.74	-46.9	-59.5	3.8	8.46e-01	0	44	104	0	64	15114
2026-01-14 16:00:39.45	323.00	8.69	-46.9	-59.5	3.8	8.45e-01	0	44	104	0	64	15178
2026-01-14 16:00:40.68	323.14	8.62	-46.9	-59.5	3.8	8.47e-01	0	44	104	0	64	15205
2026-01-14 16:00:41.54	323.24	8.57	-46.9	-59.5	3.8	8.47e-01	0	44	104	0	64	15167
2026-01-14 16:00:42.67	323.37	8.50	-46.9	-59.5	3.8	8.47e-01	0	43	104	0	64	15166
2026-01-14 16:00:43.52	323.47	8.45	-46.9	-59.5	3.8	8.47e-01	0	43	104	0	64	15084
2026-01-14 16:00:44.66	323.60	8.38	-46.9	-59.6	3.8	8.47e-01	0	43	104	0	64	15238
2026-01-14 16:00:45.51	323.69	8.33	-46.9	-59.5	3.8	8.47e-01	0	43	104	0	64	15193
2026-01-14 16:00:46.65	323.82	8.26	-46.9	-59.5	3.8	8.48e-01	0	44	104	0	64	15137
2026-01-14 16:00:47.50	323.92	8.21	-46.9	-59.5	3.8	8.46e-01	0	43	104	0	64	15187
2026-01-14 16:00:48.63	324.05	8.14	-46.9	-59.5	3.8	8.47e-01	0	44	104	0	64	15178
2026-01-14 16:00:49.49	324.14	8.09	-46.9	-59.5	3.8	8.46e-01	0	43	104	0	64	15187
2026-01-14 16:00:50.62	324.27	8.02	-46.9	-59.6	3.8	8.46e-01	0	44	104	0	64	15240
2026-01-14 16:00:51.48	324.36	7.97	-46.8	-59.5	3.8	8.46e-01	0	44	104	0	64	15055
2026-01-14 16:00:52.61	324.49	7.90	-46.9	-59.5	3.8	8.46e-01	0	43	104	0	64	15132
2026-01-14 16:00:53.46	324.58	7.85	-46.9	-59.5	3.8	8.46e-01	0	43	104	0	64	15156
2026-01-14 16:00:54.60	324.70	7.78	-46.8	-59.5	3.8	8.47e-01	0	43	104	0	64	15129
2026-01-14 16:00:55.45	324.80	7.73	-46.8	-59.5	3.8	8.47e-01	0	44	104	0	64	15162
2026-01-14 16:00:56.59	324.92	7.66	-46.9	-59.5	3.8	8.46e-01	0	43	104	0	64	15133
2026-01-14 16:00:57.44	325.01	7.61	-46.9	-59.5	3.8	8.46e-01	0	43	104	0	64	15131
2026-01-14 16:00:58.58	325.14	7.55	-46.9	-59.4	3.8	8.48e-01	0	43	104	0	64	15049
2026-01-14 16:00:59.43	325.23	7.50	-46.9	-59.5	3.8	8.48e-01	0	43	104	0	64	15116
2026-01-14 16:01:00.57	325.35	7.43	-46.9	-59.5	3.8	8.47e-01	0	44	104	0	64	15104
2026-01-14 16:01:01.42	325.44	7.38	-46.9	-59.5	3.8	8.48e-01	0	44	104	0	64	15169
2026-01-14 16:01:02.55	325.56	7.31	-46.9	-59.5	3.8	8.47e-01	0	43	104	0	64	15172
2026-01-14 16:01:03.41	325.65	7.26	-46.9	-59.5	3.8	8.46e-01	0	43	104	0	64	15218
2026-01-14 16:01:04.54	325.77	7.19	-46.9	-59.5	3.8	8.47e-01	0	44	104	0	64	15204
2026-01-14 16:01:05.39	325.86	7.14	-46.9	-59.5	3.8	8.47e-01	0	43	104	0	64	15202
2026-01-14 16:01:06.53	325.98	7.08	-46.9	-59.5	3.8	8.48e-01	0	43	104	0	64	15111
2026-01-14 16:01:07.38	326.07	7.03	-46.9	-59.5	3.8	8.47e-01	0	43	104	0	64	15120
2026-01-14 16:01:08.59	326.19	6.95	-47.0	-59.5	3.8	8.46e-01	0	43	104	0	64	15149
2026-01-14 16:01:09.45	326.28	6.90	-46.9	-59.5	3.8	8.47e-01	0	43	104	0	64	15131
2026-01-14 16:01:10.58	326.40	6.84	-46.9	-59.5	3.8	8.47e-01	0	44	104	0	64	15063
2026-01-14 16:01:11.43	326.48	6.79	-46.9	-59.5	3.8	8.46e-01	0	43	104	0	64	15176
2026-01-14 16:01:12.57	326.60	6.72	-46.9	-59.5	3.8	8.47e-01	0	44	104	0	64	15187
2026-01-14 16:01:13.42	326.69	6.67	-46.9	-59.5	3.8	8.47e-01	0	44	104	0	64	15206
2026-01-14 16:01:14.56	326.80	6.60	-46.9	-59.5	3.8	8.47e-01	0	43	104	0	64	15182
2026-01-14 16:01:15.41	326.89	6.55	-46.9	-59.6	3.8	8.47e-01	0	44	104	0	64	15244
2026-01-14 16:01:16.55	327.00	6.49	-46.9	-59.5	3.8	8.47e-01	0	44	104	0	64	15152
2026-01-14 16:01:17.40	327.09	6.44	-46.9	-59.5	3.8	8.47e-01	0	44	104	0	64	15063
2026-01-14 16:01:18.54	327.20	6.37	-46.9	-59.5	3.8	8.46e-01	0	43	104	0	64	15121
2026-01-14 16:01:19.39	327.28	6.32	-46.9	-59.5	3.8	8.47e-01	0	44	104	0	64	15205
2026-01-14 16:01:20.52	327.40	6.26	-46.9	-59.5	3.8	8.48e-01	0	43	104	0	64	15143
2026-01-14 16:01:21.38	327.48	6.21	-46.9	-59.6	3.8	8.47e-01	0	44	104	0	64	15229
2026-01-14 16:01:22.51	327.59	6.14	-46.9	-59.5	3.8	8.48e-01	0	44	104	0	64	15170
2026-01-14 16:01:23.36	327.68	6.09	-46.9	-59.5	3.8	8.47e-01	0	44	104	0	64	15203
2026-01-14 16:01:24.61	327.80	6.02	-46.9	-59.5	3.8	8.48e-01	0	44	104	0	64	15148
2026-01-14 16:01:25.46	327.88	5.97	-46.9	-59.5	3.8	8.48e-01	0	43	104	0	64	15196
2026-01-14 16:01:26.60	327.99	5.90	-46.9	-59.5	3.8	8.48e-01	0	44	104	0	64	15151
2026-01-14 16:01:27.45	328.07	5.85	-46.8	-59.5	3.8	8.47e-01	0	43	104	0	64	15145
2026-01-14 16:01:28.59	328.18	5.79	-46.9	-59.5	3.8	8.46e-01	0	43	104	0	64	15116
2026-01-14 16:01:29.44	328.26	5.74	-46.9	-59.5	3.8	8.47e-01	0	44	104	0	64	15122
2026-01-14 16:01:30.58	328.37	5.67	-46.9	-59.5	3.8	8.47e-01	0	43	104	0	64	15183
2026-01-14 16:01:31.43	328.45	5.63	-46.9	-59.5	3.8	8.46e-01	0	44	104	0	64	15151
2026-01-14 16:01:32.56	328.56	5.56	-46.9	-59.5	3.8	8.47e-01	0	44	104	0	64	15201
2026-01-14 16:01:33.42	328.64	5.51	-46.9	-59.5	3.8	8.47e-01	0	44	104	0	64	15161
2026-01-14 16:01:34.55	328.75	5.45	-46.9	-59.5	3.8	8.46e-01	0	44	104	0	64	15145
2026-01-14 16:01:35.40	328.83	5.40	-46.9	-59.5	3.8	8.47e-01	0	44	104	0	64	15130
2026-01-14 16:01:36.54	328.93	5.33	-46.9	-59.5	3.8	8.46e-01	0	44	104	0	64	15152
2026-01-14 16:01:37.39	329.01	5.28	-46.9	-59.5	3.8	8.47e-01	0	44	104	0	64	15173
2026-01-14 16:01:38.53	329.12	5.22	-46.9	-59.5	3.8	8.46e-01	0	44	104	0	64	15208
2026-01-14 16:01:39.38	329.19	5.17	-46.9	-59.5	3.8	8.47e-01	0	43	104	0	64	15183
2026-01-14 16:01:40.52	329.30	5.11	-46.8	-59.5	3.8	8.47e-01	0	44	104	0	64	15164
2026-01-14 16:01:41.37	329.38	5.06	-46.8	-59.5	3.8	8.48e-01	0	44	104	0	64	15105
2026-01-14 16:01:42.50	329.48	4.99	-46.9	-59.5	3.8	8.47e-01	0	44	104	0	64	15166

#Closed at: 2026-01-14 16:01:43
#Recorded file [0 MB]: D:/Data/31040_260114_185052.dat