passes_logs/2026/01/14/T1/T1__20260114_215530_SUOMI_NPP_rec.log

#Pass ID: 20260114_215530_SUOMI NPP
#Satellite: SUOMI NPP
#Configuration: NPP
#almurnet v.1.7.20251203
#Start time: 2026-01-14 21:55:32

#Version: 2.0.20230620
#Station: T1
#Location: 37.570604 lon 55.790049 lat
#TLE: 1 37849U 11061A   26014.11719687  .00000048  00000+0  43625-4 0  9998
#TLE: 2 37849  98.7809 316.1734 0002474  65.2440 294.8994 14.19525043736585

#Time	Az	El	Level	Level2	SNR	BER	BlckErr	Temp	State	Recorded	gain1	gain2
2026-01-14 21:55:32.11	34.49	5.11	-50.0	-65.4	3.8	1.49e+00	0	38	0	0	72	20226
2026-01-14 21:55:33.10	34.59	5.16	-50.1	-65.5	3.8	1.49e+00	0	38	104	0	70	22819
2026-01-14 21:55:34.09	34.69	5.21	-50.1	-65.5	3.8	1.49e+00	0	38	104	0	70	22857
2026-01-14 21:55:35.08	34.80	5.26	-50.1	-65.5	3.8	1.49e+00	0	38	104	0	70	22874
2026-01-14 21:55:36.08	34.91	5.31	-50.1	-65.5	3.8	1.49e+00	0	38	104	0	70	22810
2026-01-14 21:55:37.07	35.01	5.36	-50.1	-65.5	3.8	1.49e+00	0	38	104	0	70	22868
2026-01-14 21:55:38.07	35.12	5.41	-50.1	-65.5	3.8	1.49e+00	0	38	104	0	70	22868
2026-01-14 21:55:39.06	35.23	5.46	-50.1	-65.5	3.8	1.49e+00	0	38	104	0	70	22845
2026-01-14 21:55:40.05	35.33	5.51	-50.1	-65.5	3.8	1.49e+00	0	38	104	0	70	22866
2026-01-14 21:55:41.05	35.44	5.56	-50.1	-65.5	3.8	1.49e+00	0	38	104	0	70	22865
2026-01-14 21:55:42.04	35.55	5.61	-50.1	-65.5	3.8	1.49e+00	0	39	104	0	70	22799
2026-01-14 21:55:43.03	35.66	5.67	-50.1	-65.5	3.8	1.49e+00	0	39	104	0	70	22796
2026-01-14 21:55:44.03	35.77	5.72	-50.1	-65.4	3.8	1.49e+00	0	38	104	0	70	22775
2026-01-14 21:55:45.02	35.88	5.77	-50.1	-65.4	3.8	1.49e+00	0	38	104	0	70	22756
2026-01-14 21:55:46.02	35.99	5.82	-50.1	-65.4	3.8	1.49e+00	0	39	104	0	70	22744
2026-01-14 21:55:47.01	36.10	5.87	-50.1	-65.4	3.8	1.49e+00	0	38	104	0	70	22706
2026-01-14 21:55:48.00	36.21	5.92	-50.1	-65.5	3.8	1.49e+00	0	39	104	0	70	22788
2026-01-14 21:55:48.99	36.32	5.97	-50.1	-65.4	3.8	1.49e+00	0	39	104	0	70	22722
2026-01-14 21:55:49.99	36.43	6.02	-50.1	-65.4	3.8	1.49e+00	0	39	104	0	70	22751
2026-01-14 21:55:50.98	36.54	6.07	-50.1	-65.4	3.8	1.49e+00	0	39	104	0	70	22748
2026-01-14 21:55:51.98	36.65	6.13	-50.1	-65.4	3.8	1.49e+00	0	39	104	0	70	22716
2026-01-14 21:55:52.97	36.77	6.18	-50.1	-65.5	3.8	1.49e+00	0	39	104	0	70	22899
2026-01-14 21:55:53.97	36.88	6.23	-50.1	-65.5	3.8	1.49e+00	0	39	104	0	70	22861
2026-01-14 21:55:54.96	36.99	6.28	-50.1	-65.4	3.8	1.49e+00	0	39	104	0	70	22684
2026-01-14 21:55:55.96	37.11	6.33	-50.1	-65.5	3.8	1.49e+00	0	39	104	0	70	22841
2026-01-14 21:55:56.95	37.22	6.38	-50.1	-65.5	3.8	1.49e+00	0	39	104	0	70	22826
2026-01-14 21:55:57.94	37.33	6.43	-50.1	-65.5	3.8	1.49e+00	0	39	104	0	70	22799
2026-01-14 21:55:58.94	37.45	6.48	-50.1	-65.4	3.8	1.49e+00	0	39	104	0	70	22690
2026-01-14 21:55:59.93	37.56	6.54	-50.1	-65.5	3.8	1.49e+00	0	39	104	0	70	22800
2026-01-14 21:56:00.93	37.68	6.59	-50.0	-65.5	3.8	1.49e+00	0	39	104	0	70	22805
2026-01-14 21:56:01.92	37.80	6.64	-50.1	-65.4	3.8	1.49e+00	0	39	104	0	70	22768
2026-01-14 21:56:02.91	37.91	6.69	-50.0	-65.5	3.8	1.49e+00	0	39	104	0	70	22860
2026-01-14 21:56:03.91	38.03	6.74	-50.0	-65.4	3.8	1.49e+00	0	39	104	0	70	22761
2026-01-14 21:56:04.90	38.15	6.79	-50.1	-65.5	3.8	1.49e+00	0	39	104	0	70	22804
2026-01-14 21:56:05.90	38.26	6.84	-50.0	-65.4	3.8	1.49e+00	0	39	104	0	70	22731
2026-01-14 21:56:06.89	38.38	6.89	-50.1	-65.4	3.8	1.49e+00	0	39	104	0	70	22729
2026-01-14 21:56:07.88	38.50	6.95	-50.0	-65.4	3.8	1.49e+00	0	39	104	0	70	22647
2026-01-14 21:56:08.88	38.62	7.00	-50.1	-65.4	3.8	1.49e+00	0	39	104	0	70	22616
2026-01-14 21:56:09.87	38.74	7.05	-50.1	-65.4	3.8	1.49e+00	0	39	104	0	70	22631
2026-01-14 21:56:10.86	38.86	7.10	-50.1	-65.4	3.8	1.49e+00	0	39	104	0	70	22569
2026-01-14 21:56:11.86	38.98	7.15	-50.1	-65.4	3.8	1.49e+00	0	39	104	0	70	22585
2026-01-14 21:56:12.85	39.10	7.20	-50.0	-65.4	3.8	1.49e+00	0	39	104	0	70	22649
2026-01-14 21:56:13.84	39.22	7.25	-50.0	-65.4	3.8	1.49e+00	0	39	104	0	70	22641
2026-01-14 21:56:14.84	39.34	7.31	-50.1	-65.4	3.8	1.49e+00	0	39	104	0	70	22631
2026-01-14 21:56:15.83	39.46	7.36	-50.0	-65.4	3.8	1.49e+00	0	39	104	0	70	22607
2026-01-14 21:56:16.83	39.58	7.41	-50.1	-65.4	3.8	1.49e+00	0	39	104	0	70	22673
2026-01-14 21:56:17.82	39.70	7.46	-50.1	-65.4	3.8	1.49e+00	0	39	104	0	70	22630
2026-01-14 21:56:18.81	39.83	7.51	-50.0	-65.4	3.8	1.49e+00	0	39	104	0	70	22650
2026-01-14 21:56:19.81	39.95	7.56	-50.1	-65.4	3.8	1.49e+00	0	39	104	0	70	22693
2026-01-14 21:56:20.80	40.07	7.61	-50.0	-65.4	3.8	1.49e+00	0	39	104	0	70	22691
2026-01-14 21:56:21.80	40.20	7.66	-50.1	-65.4	3.8	1.49e+00	0	39	104	0	70	22761
2026-01-14 21:56:22.79	40.32	7.72	-50.1	-65.4	3.8	1.49e+00	0	39	104	0	70	22754
2026-01-14 21:56:23.78	40.45	7.77	-50.0	-65.5	3.8	1.49e+00	0	40	104	0	70	22802
2026-01-14 21:56:24.78	40.57	7.82	-50.1	-65.4	3.8	1.49e+00	0	39	104	0	70	22724
2026-01-14 21:56:25.77	40.70	7.87	-50.1	-65.5	3.8	1.49e+00	0	40	104	0	70	22849
2026-01-14 21:56:26.76	40.82	7.92	-50.1	-65.4	3.8	1.49e+00	0	40	104	0	70	22748
2026-01-14 21:56:27.76	40.95	7.97	-50.0	-65.4	3.8	1.49e+00	0	39	104	0	70	22737
2026-01-14 21:56:28.75	41.08	8.02	-50.0	-65.4	3.8	1.49e+00	0	40	104	0	70	22592
2026-01-14 21:56:29.75	41.20	8.07	-50.0	-65.3	3.8	1.49e+00	0	39	104	0	70	22338
2026-01-14 21:56:30.74	41.33	8.13	-50.0	-65.3	3.8	1.49e+00	0	40	104	0	70	22518
2026-01-14 21:56:31.74	41.46	8.18	-50.1	-65.4	3.8	1.49e+00	0	40	104	0	70	22533
2026-01-14 21:56:32.73	41.59	8.23	-50.1	-65.4	3.8	1.49e+00	0	40	104	0	70	22607
2026-01-14 21:56:33.94	41.75	8.29	-50.1	-65.4	3.8	1.49e+00	0	40	104	0	70	22615
2026-01-14 21:56:34.80	41.86	8.33	-50.1	-65.4	3.8	1.49e+00	0	39	104	0	70	22654
2026-01-14 21:56:35.93	42.01	8.39	-50.0	-65.4	3.8	1.49e+00	0	40	104	0	70	22643
2026-01-14 21:56:36.78	42.12	8.44	-50.0	-65.4	3.8	1.49e+00	0	40	104	0	70	22567
2026-01-14 21:56:37.92	42.27	8.49	-50.0	-65.3	3.8	1.49e+00	0	40	104	0	70	22375
2026-01-14 21:56:38.77	42.38	8.54	-50.0	-65.3	3.8	1.49e+00	0	40	104	0	70	22271
2026-01-14 21:56:39.91	42.53	8.60	-50.1	-65.3	3.8	1.49e+00	0	40	104	0	70	22344
2026-01-14 21:56:40.76	42.64	8.64	-50.1	-65.3	3.8	1.49e+00	0	40	104	0	70	22327
2026-01-14 21:56:41.89	42.79	8.70	-50.1	-65.3	3.8	1.49e+00	0	40	104	0	70	22359
2026-01-14 21:56:42.75	42.91	8.74	-50.0	-65.2	3.8	1.49e+00	0	40	104	0	70	22177
2026-01-14 21:56:43.88	43.06	8.80	-50.0	-65.0	3.8	1.49e+00	0	40	104	0	70	21516
2026-01-14 21:56:44.73	43.18	8.84	-50.0	-64.6	3.8	1.49e+00	0	40	104	0	70	20685
2026-01-14 21:56:45.87	43.33	8.90	-50.0	-64.2	3.8	1.49e+00	0	40	104	0	70	19784
2026-01-14 21:56:46.72	43.45	8.94	-50.0	-64.0	3.8	1.49e+00	0	40	104	0	70	19214
2026-01-14 21:56:47.86	43.60	9.00	-49.9	-63.4	3.8	1.49e+00	0	40	104	0	70	17890
2026-01-14 21:56:48.75	43.72	9.05	-49.9	-63.3	3.9	1.48e+00	0	40	104	0	70	17846
2026-01-14 21:56:49.87	43.88	9.11	-50.1	-64.2	3.8	1.49e+00	0	40	104	0	70	19737
2026-01-14 21:56:50.82	44.01	9.15	-49.8	-61.4	4.0	1.49e+00	0	40	104	0	70	14257
2026-01-14 21:56:51.82	44.15	9.20	-49.8	-62.1	4.1	1.46e+00	0	40	104	0	70	15574
2026-01-14 21:56:52.81	44.28	9.26	-47.3	-51.9	11.8	1.46e+00	0	40	104	0	66	6023
2026-01-14 21:56:53.81	44.42	9.31	-47.0	-51.3	12.8	1.44e-05	0	40	0	1048576	65	5951
2026-01-14 21:56:54.80	44.56	9.36	-46.5	-50.3	13.8	2.21e-05	0	40	0	3145728	64	5597
2026-01-14 21:56:55.80	44.70	9.41	-46.0	-49.4	14.7	0.00e+00	0	40	0	5242880	63	5370
2026-01-14 21:56:56.79	44.84	9.46	-45.9	-49.3	14.9	0.00e+00	0	40	0	7340032	63	5311
2026-01-14 21:56:57.79	44.98	9.51	-45.8	-49.1	15.1	0.00e+00	0	40	0	8388608	63	5185
2026-01-14 21:56:58.78	45.12	9.56	-45.8	-49.1	15.0	0.00e+00	0	40	0	10485760	63	5207
2026-01-14 21:56:59.78	45.26	9.61	-45.8	-49.2	14.9	0.00e+00	0	40	0	12582912	63	5262
2026-01-14 21:57:00.77	45.40	9.66	-45.7	-49.1	15.1	0.00e+00	0	40	0	14680064	63	5160
2026-01-14 21:57:01.77	45.55	9.71	-45.7	-49.0	15.2	0.00e+00	0	40	0	15728640	63	5117
2026-01-14 21:57:02.76	45.69	9.76	-45.7	-49.0	15.1	0.00e+00	0	40	0	17825792	63	5151
2026-01-14 21:57:03.76	45.83	9.81	-45.6	-48.8	15.3	0.00e+00	0	40	0	19922944	63	5030
2026-01-14 21:57:04.83	45.99	9.86	-45.4	-48.6	15.5	0.00e+00	0	40	0	22020096	62	5188
2026-01-14 21:57:05.72	46.12	9.91	-45.6	-48.9	15.3	0.00e+00	0	40	0	24117248	62	5349
2026-01-14 21:57:07.03	46.31	9.97	-45.5	-48.7	15.5	0.00e+00	0	40	0	26214400	62	5263
2026-01-14 21:57:07.74	46.41	10.01	-45.6	-48.8	15.4	0.00e+00	0	40	0	27262976	62	5329
2026-01-14 21:57:09.24	46.63	10.08	-45.5	-48.8	15.4	0.00e+00	0	40	0	30408704	62	5294
2026-01-14 21:57:09.95	46.73	10.12	-45.6	-48.8	15.4	0.00e+00	0	40	0	31457280	62	5309
2026-01-14 21:57:11.23	46.92	10.18	-45.7	-49.1	15.1	0.00e+00	0	40	0	33554432	62	5493
2026-01-14 21:57:11.96	47.03	10.22	-45.6	-49.0	15.3	0.00e+00	0	40	0	35651584	62	5410
2026-01-14 21:57:13.24	47.22	10.28	-45.7	-49.0	15.2	0.00e+00	0	40	0	37748736	62	5434
2026-01-14 21:57:13.96	47.33	10.32	-45.7	-49.0	15.2	0.00e+00	0	40	0	38797312	62	5453
2026-01-14 21:57:15.24	47.52	10.38	-45.6	-48.9	15.3	0.00e+00	0	40	0	41943040	62	5393
2026-01-14 21:57:15.97	47.63	10.42	-45.6	-48.9	15.3	0.00e+00	0	40	0	42991616	62	5383
2026-01-14 21:57:17.25	47.82	10.48	-45.5	-48.8	15.4	0.00e+00	0	40	0	45088768	62	5323
2026-01-14 21:57:17.96	47.93	10.52	-45.6	-48.9	15.3	0.00e+00	0	40	0	46137344	62	5353
2026-01-14 21:57:19.24	48.12	10.58	-45.5	-48.7	15.5	0.00e+00	0	40	0	49283072	62	5255
2026-01-14 21:57:19.96	48.23	10.62	-45.5	-48.7	15.5	0.00e+00	0	40	0	50331648	62	5234
2026-01-14 21:57:21.24	48.42	10.68	-45.6	-48.9	15.3	0.00e+00	0	40	0	52428800	62	5377
2026-01-14 21:57:21.95	48.53	10.72	-45.6	-48.8	15.4	0.00e+00	0	40	0	54525952	62	5318
2026-01-14 21:57:23.23	48.73	10.78	-45.6	-48.9	15.3	0.00e+00	0	40	0	56623104	62	5391
2026-01-14 21:57:23.96	48.84	10.81	-45.6	-48.9	15.3	0.00e+00	0	40	0	57671680	62	5359
2026-01-14 21:57:25.24	49.04	10.88	-45.7	-49.0	15.2	0.00e+00	0	40	0	59768832	62	5417
2026-01-14 21:57:25.95	49.15	10.91	-45.5	-48.7	15.5	0.00e+00	0	40	0	61865984	62	5256
2026-01-14 21:57:27.23	49.35	10.97	-45.5	-48.6	15.6	0.00e+00	0	40	0	63963136	62	5205
2026-01-14 21:57:27.95	49.46	11.01	-45.4	-48.5	15.7	0.00e+00	0	40	0	65011712	62	5159
2026-01-14 21:57:29.23	49.66	11.07	-45.4	-48.6	15.6	0.00e+00	0	40	0	68157440	62	5164
2026-01-14 21:57:29.95	49.77	11.11	-45.5	-48.7	15.5	7.00e-07	0	40	0	69206016	62	5271
2026-01-14 21:57:31.34	49.99	11.17	-45.5	-48.7	15.5	0.00e+00	0	40	0	71303168	62	5233
2026-01-14 21:57:32.05	50.10	11.21	-45.5	-48.8	15.4	0.00e+00	0	40	0	73400320	62	5280
2026-01-14 21:57:33.41	50.32	11.27	-45.6	-48.8	15.4	0.00e+00	0	40	0	75497472	62	5329
2026-01-14 21:57:34.12	50.43	11.31	-45.8	-49.1	15.1	0.00e+00	0	40	0	76546048	62	5499
2026-01-14 21:57:35.40	50.64	11.37	-45.8	-49.1	15.2	0.00e+00	0	40	0	79691776	62	5490
2026-01-14 21:57:36.46	50.80	11.42	-45.7	-49.0	15.3	0.00e+00	0	40	0	81788928	62	5447
2026-01-14 21:57:37.62	50.99	11.48	-45.7	-49.1	15.2	0.00e+00	0	40	0	83886080	62	5465
2026-01-14 21:57:38.48	51.13	11.52	-45.7	-48.9	15.3	0.00e+00	0	40	0	84934656	62	5377
2026-01-14 21:57:39.61	51.31	11.57	-45.7	-48.9	15.3	0.00e+00	0	40	0	87031808	62	5390
2026-01-14 21:57:40.47	51.45	11.61	-45.6	-48.9	15.4	0.00e+00	0	40	0	89128960	62	5342
2026-01-14 21:57:41.60	51.64	11.66	-45.6	-48.8	15.5	0.00e+00	0	40	0	91226112	62	5291
2026-01-14 21:57:42.46	51.78	11.71	-45.7	-48.9	15.4	0.00e+00	0	40	0	92274688	62	5352
2026-01-14 21:57:43.60	51.96	11.76	-45.7	-48.9	15.4	0.00e+00	0	40	0	94371840	62	5374
2026-01-14 21:57:44.45	52.10	11.80	-45.7	-49.0	15.2	0.00e+00	0	40	0	96468992	62	5447
2026-01-14 21:57:45.66	52.30	11.86	-45.8	-49.1	15.1	0.00e+00	0	40	0	98566144	62	5508
2026-01-14 21:57:46.51	52.44	11.90	-45.7	-49.1	15.2	0.00e+00	0	40	0	100663296	62	5496
2026-01-14 21:57:47.70	52.64	11.95	-45.8	-49.2	15.1	0.00e+00	0	40	0	102760448	62	5558
2026-01-14 21:57:48.55	52.78	11.99	-45.8	-49.3	15.0	0.00e+00	0	40	0	103809024	62	5599
2026-01-14 21:57:49.77	52.98	12.05	-45.9	-49.3	14.9	0.00e+00	0	40	0	105906176	62	5650
2026-01-14 21:57:50.62	53.13	12.09	-45.8	-49.2	15.1	0.00e+00	0	40	0	108003328	62	5565
2026-01-14 21:57:51.76	53.32	12.14	-45.9	-49.2	15.1	0.00e+00	0	40	0	110100480	62	5559
2026-01-14 21:57:52.61	53.46	12.18	-45.9	-49.2	15.1	0.00e+00	0	40	0	111149056	62	5551
2026-01-14 21:57:53.86	53.67	12.24	-45.8	-49.1	15.2	0.00e+00	0	40	0	114294784	62	5519
2026-01-14 21:57:54.71	53.81	12.27	-45.9	-49.3	15.1	0.00e+00	0	40	0	115343360	62	5595
2026-01-14 21:57:55.91	54.02	12.33	-45.8	-49.2	15.2	0.00e+00	0	40	0	117440512	62	5534
2026-01-14 21:57:56.77	54.17	12.37	-45.8	-49.2	15.1	0.00e+00	0	40	0	119537664	62	5563
2026-01-14 21:57:57.98	54.37	12.42	-45.9	-49.3	15.0	0.00e+00	0	40	0	121634816	62	5649
2026-01-14 21:57:58.83	54.52	12.46	-45.9	-49.3	15.0	0.00e+00	0	40	0	122683392	62	5603
2026-01-14 21:58:00.02	54.72	12.51	-46.0	-49.5	14.8	7.00e-07	0	40	0	125829120	62	5740
2026-01-14 21:58:00.87	54.87	12.55	-46.0	-49.5	14.9	0.00e+00	0	40	0	126877696	62	5739
2026-01-14 21:58:02.07	55.08	12.61	-46.1	-49.6	14.8	7.00e-07	0	40	0	128974848	62	5810
2026-01-14 21:58:02.93	55.23	12.64	-46.0	-49.5	14.9	0.00e+00	0	40	0	131072000	62	5730
2026-01-14 21:58:04.12	55.43	12.70	-46.2	-49.8	14.5	0.00e+00	0	40	0	133169152	63	5610
2026-01-14 21:58:04.98	55.58	12.73	-46.3	-49.9	14.5	0.00e+00	0	40	0	134217728	63	5669
2026-01-14 21:58:06.19	55.80	12.79	-46.3	-49.8	14.5	0.00e+00	0	40	0	137363456	63	5624
2026-01-14 21:58:07.05	55.95	12.83	-46.3	-49.9	14.5	2.20e-06	0	40	0	138412032	63	5660
2026-01-14 21:58:08.26	56.16	12.88	-46.4	-49.9	14.4	0.00e+00	0	40	0	140509184	63	5717
2026-01-14 21:58:09.12	56.31	12.92	-46.4	-49.9	14.4	0.00e+00	0	40	0	142606336	63	5699
2026-01-14 21:58:10.26	56.51	12.97	-46.4	-50.0	14.4	7.00e-07	0	40	0	144703488	63	5724
2026-01-14 21:58:11.11	56.67	13.00	-46.3	-49.9	14.5	0.00e+00	0	40	0	145752064	63	5683
2026-01-14 21:58:12.37	56.89	13.06	-46.5	-50.2	14.2	1.50e-06	0	40	0	148897792	63	5878
2026-01-14 21:58:13.15	57.03	13.09	-46.5	-50.2	14.2	7.00e-07	0	40	0	149946368	63	5863
2026-01-14 21:58:14.43	57.26	13.14	-46.7	-50.4	13.9	1.50e-06	0	40	0	152043520	63	6052
2026-01-14 21:58:15.14	57.39	13.17	-46.8	-50.6	13.7	4.50e-06	0	40	0	154140672	64	5830
2026-01-14 21:58:16.43	57.62	13.23	-46.8	-50.6	13.6	9.90e-06	0	40	0	156237824	64	5849
2026-01-14 21:58:17.14	57.75	13.26	-46.8	-50.7	13.6	9.90e-06	0	40	0	157286400	64	5906
2026-01-14 21:58:18.42	57.98	13.31	-46.7	-50.5	13.7	5.30e-06	0	40	0	160432128	64	5754
2026-01-14 21:58:19.15	58.11	13.34	-46.6	-50.4	13.8	2.20e-06	0	40	0	161480704	64	5718
2026-01-14 21:58:20.43	58.35	13.40	-46.9	-50.9	13.5	1.22e-05	0	40	0	163577856	64	5993
2026-01-14 21:58:21.15	58.48	13.43	-46.8	-50.7	13.6	1.22e-05	0	40	0	164626432	64	5898
2026-01-14 21:58:22.76	58.77	13.49	-46.8	-50.8	13.5	4.50e-06	0	40	0	167772160	64	5938
2026-01-14 21:58:23.33	58.88	13.52	-46.9	-50.9	13.5	9.90e-06	0	40	0	168820736	64	5996
2026-01-14 21:58:25.27	59.24	13.59	-47.0	-51.0	13.3	1.60e-05	0	41	0	173015040	64	6070
2026-01-14 21:58:25.84	59.34	13.62	-46.9	-50.9	13.4	1.83e-05	0	40	0	174063616	64	5993
2026-01-14 21:58:27.55	59.66	13.69	-46.9	-50.9	13.4	1.22e-05	0	40	0	177209344	64	6011
2026-01-14 21:58:28.12	59.77	13.71	-46.9	-50.8	13.5	1.75e-05	0	40	0	178257920	64	5942
2026-01-14 21:58:29.82	60.08	13.78	-46.7	-50.4	13.9	3.00e-06	0	40	0	181403648	64	5716
2026-01-14 21:58:30.39	60.19	13.80	-46.6	-50.4	13.8	3.80e-06	0	40	0	182452224	64	5718
2026-01-14 21:58:32.10	60.51	13.87	-46.6	-50.4	13.9	1.50e-06	0	40	0	185597952	64	5680
2026-01-14 21:58:32.67	60.62	13.89	-46.7	-50.5	13.8	5.30e-06	0	40	0	186646528	64	5774
2026-01-14 21:58:34.53	60.97	13.96	-46.9	-50.9	13.5	7.60e-06	0	40	0	189792256	64	6002
2026-01-14 21:58:35.10	61.08	13.98	-46.8	-50.8	13.5	1.06e-05	0	40	0	190840832	64	5967
2026-01-14 21:58:36.81	61.41	14.05	-46.8	-50.6	13.6	6.10e-06	0	40	0	193986560	64	5831
2026-01-14 21:58:37.38	61.51	14.07	-46.8	-50.7	13.6	6.80e-06	0	40	0	195035136	64	5910
2026-01-14 21:58:39.19	61.86	14.14	-46.8	-50.7	13.6	3.80e-06	0	40	0	199229440	64	5881
2026-01-14 21:58:39.76	61.97	14.16	-46.7	-50.5	13.9	5.30e-06	0	40	0	200278016	64	5732
2026-01-14 21:58:41.41	62.29	14.22	-46.6	-50.3	14.0	3.00e-06	0	40	0	203423744	64	5620
2026-01-14 21:58:41.98	62.40	14.24	-46.5	-50.2	14.1	3.00e-06	0	40	0	204472320	64	5574
2026-01-14 21:58:43.68	62.73	14.30	-46.4	-50.0	14.2	0.00e+00	0	40	0	207618048	64	5463
2026-01-14 21:58:44.25	62.84	14.32	-46.3	-49.8	14.4	7.00e-07	0	40	0	208666624	64	5336
2026-01-14 21:58:45.96	63.17	14.38	-46.2	-49.7	14.8	0.00e+00	0	40	0	211812352	63	5539
2026-01-14 21:58:46.52	63.28	14.40	-46.0	-49.3	15.0	0.00e+00	0	40	0	212860928	63	5326
2026-01-14 21:58:48.23	63.61	14.46	-45.7	-49.0	15.4	0.00e+00	0	40	0	216006656	63	5102
2026-01-14 21:58:48.80	63.73	14.48	-45.6	-48.7	15.7	0.00e+00	0	40	0	217055232	63	4960
2026-01-14 21:58:50.50	64.06	14.54	-45.4	-48.4	15.9	0.00e+00	0	40	0	220200960	62	5097
2026-01-14 21:58:51.07	64.17	14.56	-45.5	-48.6	15.8	0.00e+00	0	40	0	221249536	62	5174
2026-01-14 21:58:52.77	64.51	14.62	-45.3	-48.3	16.0	0.00e+00	0	40	0	224395264	62	5026
2026-01-14 21:58:53.50	64.65	14.64	-45.4	-48.4	15.9	0.00e+00	0	40	0	225443840	62	5075
2026-01-14 21:58:54.78	64.91	14.69	-45.4	-48.4	15.9	0.00e+00	0	40	0	228589568	62	5094
2026-01-14 21:58:55.69	65.09	14.72	-45.4	-48.5	15.9	0.00e+00	0	40	0	229638144	62	5117
2026-01-14 21:58:56.69	65.29	14.75	-45.3	-48.4	16.0	0.00e+00	0	40	0	231735296	62	5052
2026-01-14 21:58:57.69	65.49	14.78	-45.5	-48.5	15.8	0.00e+00	0	40	0	233832448	62	5148
2026-01-14 21:58:58.68	65.69	14.82	-45.5	-48.6	15.7	0.00e+00	0	40	0	235929600	62	5213
2026-01-14 21:58:59.68	65.89	14.85	-45.6	-48.7	15.7	0.00e+00	0	40	0	236978176	62	5219
2026-01-14 21:59:00.67	66.09	14.88	-45.7	-48.8	15.5	0.00e+00	0	40	0	239075328	62	5316
2026-01-14 21:59:01.67	66.29	14.91	-45.8	-48.9	15.5	0.00e+00	0	40	0	241172480	62	5378
2026-01-14 21:59:02.66	66.49	14.94	-45.6	-48.7	15.7	0.00e+00	0	40	0	243269632	62	5228
2026-01-14 21:59:03.66	66.69	14.97	-45.5	-48.5	15.9	0.00e+00	0	40	0	244318208	62	5114
2026-01-14 21:59:04.65	66.89	15.00	-45.2	-48.2	16.2	0.00e+00	0	40	0	246415360	62	4940
2026-01-14 21:59:05.64	67.09	15.03	-45.1	-48.1	16.3	0.00e+00	0	40	0	248512512	62	4893
2026-01-14 21:59:06.64	67.30	15.06	-45.3	-48.3	16.1	0.00e+00	0	40	0	250609664	62	5005
2026-01-14 21:59:07.64	67.50	15.09	-45.5	-48.6	15.8	0.00e+00	0	40	0	252706816	62	5195
2026-01-14 21:59:08.63	67.71	15.12	-45.7	-48.9	15.5	0.00e+00	0	40	0	253755392	62	5373
2026-01-14 21:59:09.63	67.91	15.15	-45.8	-48.9	15.4	0.00e+00	0	40	0	255852544	62	5398
2026-01-14 21:59:10.63	68.12	15.18	-45.8	-49.0	15.4	0.00e+00	0	40	0	257949696	62	5423
2026-01-14 21:59:11.62	68.32	15.21	-45.7	-48.8	15.6	0.00e+00	0	40	0	260046848	62	5328
2026-01-14 21:59:12.61	68.52	15.24	-45.6	-48.7	15.7	0.00e+00	0	40	0	261095424	62	5232
2026-01-14 21:59:13.61	68.73	15.26	-45.4	-48.4	16.0	0.00e+00	0	40	0	263192576	62	5079
2026-01-14 21:59:14.61	68.94	15.29	-45.2	-48.1	16.2	0.00e+00	0	40	0	265289728	62	4904
2026-01-14 21:59:15.60	69.14	15.32	-45.4	-48.4	16.0	0.00e+00	0	40	0	267386880	62	5084
2026-01-14 21:59:16.60	69.35	15.35	-45.4	-48.4	16.0	0.00e+00	0	40	0	269484032	62	5070
2026-01-14 21:59:17.59	69.56	15.37	-45.6	-48.7	15.6	0.00e+00	0	40	0	270532608	62	5266
2026-01-14 21:59:18.67	69.78	15.40	-45.9	-49.2	15.2	0.00e+00	0	40	0	272629760	62	5554
2026-01-14 21:59:19.52	69.96	15.42	-46.1	-49.5	15.0	0.00e+00	0	40	0	274726912	62	5725
2026-01-14 21:59:20.66	70.20	15.45	-45.9	-49.2	15.2	0.00e+00	0	40	0	276824064	62	5544
2026-01-14 21:59:21.51	70.37	15.47	-46.0	-49.3	15.2	0.00e+00	0	40	0	277872640	62	5596
2026-01-14 21:59:22.65	70.61	15.50	-45.9	-49.2	15.2	0.00e+00	0	40	0	279969792	62	5581
2026-01-14 21:59:23.50	70.79	15.52	-46.0	-49.3	15.2	0.00e+00	0	40	0	282066944	62	5613
2026-01-14 21:59:24.97	71.10	15.56	-46.2	-49.6	14.9	0.00e+00	0	40	0	285212672	62	5794
2026-01-14 21:59:25.68	71.25	15.58	-46.4	-50.0	14.5	0.00e+00	0	40	0	286261248	63	5728
2026-01-14 21:59:27.16	71.56	15.61	-46.6	-50.3	14.1	2.20e-06	0	40	0	288358400	63	5980
2026-01-14 21:59:27.87	71.71	15.63	-46.6	-50.2	14.1	1.50e-06	0	40	0	290455552	64	5586
2026-01-14 21:59:29.15	71.99	15.66	-46.2	-49.7	14.6	0.00e+00	0	40	0	292552704	64	5245
2026-01-14 21:59:29.87	72.14	15.67	-46.0	-49.3	15.0	0.00e+00	0	40	0	293601280	64	5036
2026-01-14 21:59:31.23	72.43	15.70	-45.7	-48.9	15.5	0.00e+00	0	40	0	296747008	63	5059
2026-01-14 21:59:31.94	72.58	15.72	-45.6	-48.7	15.6	0.00e+00	0	40	0	297795584	63	4977
2026-01-14 21:59:33.27	72.86	15.75	-45.3	-48.2	16.1	0.00e+00	0	40	0	299892736	62	4976
2026-01-14 21:59:33.98	73.01	15.76	-45.4	-48.4	15.9	0.00e+00	0	40	0	301989888	62	5088
2026-01-14 21:59:35.34	73.31	15.79	-45.7	-48.9	15.5	0.00e+00	0	40	0	304087040	62	5368
2026-01-14 21:59:36.05	73.46	15.80	-45.9	-49.1	15.3	0.00e+00	0	40	0	305135616	62	5501
2026-01-14 21:59:37.42	73.75	15.83	-45.9	-49.2	15.2	0.00e+00	0	40	0	308281344	62	5571
2026-01-14 21:59:38.13	73.90	15.85	-45.9	-49.2	15.2	0.00e+00	0	40	0	309329920	62	5577
2026-01-14 21:59:39.41	74.18	15.87	-45.6	-48.7	15.7	0.00e+00	0	40	0	311427072	62	5253
2026-01-14 21:59:40.15	74.34	15.88	-45.4	-48.5	15.9	0.00e+00	0	40	0	313524224	62	5114
2026-01-14 21:59:41.53	74.64	15.91	-45.1	-48.0	16.4	0.00e+00	0	40	0	315621376	62	4838
2026-01-14 21:59:42.24	74.79	15.92	-45.1	-48.0	16.4	0.00e+00	0	40	0	316669952	62	4842
2026-01-14 21:59:43.52	75.07	15.95	-45.2	-48.1	16.2	0.00e+00	0	40	0	319815680	62	4907
2026-01-14 21:59:44.24	75.22	15.96	-45.3	-48.3	16.1	0.00e+00	0	40	0	320864256	62	4999
2026-01-14 21:59:45.52	75.50	15.98	-45.6	-48.7	15.7	0.00e+00	0	40	0	322961408	62	5223
2026-01-14 21:59:46.25	75.66	15.99	-45.6	-48.7	15.6	0.00e+00	0	40	0	325058560	62	5259
2026-01-14 21:59:47.68	75.97	16.01	-45.6	-48.7	15.7	0.00e+00	0	40	0	327155712	62	5259
2026-01-14 21:59:48.39	76.12	16.03	-45.6	-48.7	15.7	0.00e+00	0	40	0	328204288	62	5233
2026-01-14 21:59:49.67	76.40	16.05	-45.4	-48.5	15.9	0.00e+00	0	40	0	331350016	62	5108
2026-01-14 21:59:50.38	76.55	16.06	-45.5	-48.6	15.8	0.00e+00	0	40	0	332398592	62	5194
2026-01-14 21:59:51.87	76.88	16.08	-45.7	-49.0	15.4	0.00e+00	0	40	0	335544320	62	5432
2026-01-14 21:59:52.58	77.03	16.09	-45.9	-49.3	15.2	0.00e+00	0	40	0	336592896	62	5606
2026-01-14 21:59:53.86	77.31	16.11	-46.1	-49.5	14.9	0.00e+00	0	40	0	338690048	62	5755
2026-01-14 21:59:54.60	77.48	16.12	-46.1	-49.6	14.8	0.00e+00	0	40	0	339738624	62	5821
2026-01-14 21:59:55.88	77.76	16.13	-46.1	-49.5	14.9	0.00e+00	0	40	0	342884352	62	5768
2026-01-14 21:59:56.61	77.92	16.14	-46.0	-49.3	15.1	0.00e+00	0	40	0	343932928	62	5634
2026-01-14 21:59:57.89	78.20	16.16	-46.0	-49.2	15.2	0.00e+00	0	40	0	346030080	62	5577
2026-01-14 21:59:58.60	78.35	16.17	-46.0	-49.3	15.1	0.00e+00	0	40	0	348127232	62	5610
2026-01-14 22:00:00.05	78.67	16.18	-46.1	-49.5	14.8	0.00e+00	0	40	0	350224384	62	5779
2026-01-14 22:00:01.05	78.89	16.19	-46.3	-49.9	14.5	7.00e-07	0	40	0	352321536	63	5683
2026-01-14 22:00:02.37	79.18	16.21	-46.3	-49.8	14.7	7.00e-07	0	40	0	354418688	63	5613
2026-01-14 22:00:03.08	79.34	16.21	-46.2	-49.7	14.8	0.00e+00	0	40	0	356515840	63	5539
2026-01-14 22:00:04.36	79.62	16.23	-46.0	-49.4	15.0	0.00e+00	0	40	0	358612992	63	5374
2026-01-14 22:00:05.09	79.78	16.23	-45.9	-49.2	15.1	0.00e+00	0	40	0	359661568	63	5268
2026-01-14 22:00:06.37	80.06	16.24	-45.8	-49.0	15.3	0.00e+00	0	40	0	362807296	63	5155
2026-01-14 22:00:07.10	80.22	16.25	-45.8	-49.1	15.3	0.00e+00	0	40	0	363855872	63	5179
2026-01-14 22:00:08.37	80.50	16.26	-45.9	-49.3	15.1	0.00e+00	0	40	0	365953024	63	5290
2026-01-14 22:00:09.11	80.67	16.27	-45.8	-49.1	15.3	0.00e+00	0	40	0	367001600	63	5211
2026-01-14 22:00:10.39	80.95	16.28	-45.8	-49.1	15.3	7.00e-07	0	40	0	370147328	63	5182
2026-01-14 22:00:11.10	81.11	16.28	-45.9	-49.2	15.2	0.00e+00	0	40	0	371195904	63	5262
2026-01-14 22:00:12.46	81.41	16.29	-45.6	-48.8	15.6	0.00e+00	0	40	0	373293056	63	5019
2026-01-14 22:00:13.17	81.57	16.29	-45.6	-48.9	15.5	0.00e+00	0	40	0	375390208	63	5070
2026-01-14 22:00:14.45	81.85	16.30	-45.6	-48.8	15.5	0.00e+00	0	40	0	377487360	63	5039
2026-01-14 22:00:15.17	82.01	16.31	-45.6	-48.9	15.5	0.00e+00	0	40	0	378535936	63	5045
2026-01-14 22:00:16.45	82.29	16.31	-45.7	-49.0	15.4	0.00e+00	0	40	0	381681664	63	5142
2026-01-14 22:00:17.16	82.45	16.31	-45.8	-49.1	15.3	0.00e+00	0	40	0	382730240	63	5187
2026-01-14 22:00:18.44	82.73	16.32	-45.6	-48.9	15.5	0.00e+00	0	40	0	384827392	63	5069
2026-01-14 22:00:19.15	82.89	16.32	-45.5	-48.8	15.6	0.00e+00	0	40	0	385875968	63	4996
2026-01-14 22:00:20.67	83.23	16.33	-45.3	-48.4	15.9	0.00e+00	0	40	0	389021696	62	5097
2026-01-14 22:00:21.67	83.45	16.33	-45.2	-48.3	16.1	0.00e+00	0	40	0	391118848	62	5006
2026-01-14 22:00:22.98	83.74	16.33	-45.2	-48.4	15.9	0.00e+00	0	40	0	393216000	62	5084
2026-01-14 22:00:23.70	83.90	16.33	-45.2	-48.3	16.1	0.00e+00	0	40	0	395313152	62	5033
2026-01-14 22:00:25.32	84.26	16.34	-45.5	-48.8	15.6	0.00e+00	0	40	0	397410304	62	5313
2026-01-14 22:00:25.88	84.38	16.34	-45.5	-48.8	15.6	0.00e+00	0	40	0	398458880	62	5289
2026-01-14 22:00:27.59	84.76	16.34	-45.5	-48.7	15.7	0.00e+00	0	40	0	401604608	62	5261
2026-01-14 22:00:28.16	84.89	16.34	-45.4	-48.7	15.8	0.00e+00	0	40	0	403701760	62	5229
2026-01-14 22:00:29.90	85.28	16.34	-45.2	-48.3	16.0	0.00e+00	0	40	0	406847488	62	5018
2026-01-14 22:00:30.46	85.40	16.34	-45.2	-48.4	16.0	0.00e+00	0	40	0	407896064	62	5047
2026-01-14 22:00:32.17	85.78	16.33	-45.3	-48.6	15.8	0.00e+00	0	40	0	411041792	62	5193
2026-01-14 22:00:32.74	85.91	16.33	-45.4	-48.7	15.7	0.00e+00	0	40	0	412090368	62	5250
2026-01-14 22:00:34.53	86.31	16.33	-45.5	-48.9	15.5	0.00e+00	0	40	0	415236096	62	5352
2026-01-14 22:00:35.10	86.43	16.33	-45.5	-48.8	15.6	0.00e+00	0	40	0	416284672	62	5295
2026-01-14 22:00:36.81	86.81	16.32	-45.4	-48.6	15.8	0.00e+00	0	40	0	419430400	62	5168
2026-01-14 22:00:37.51	86.97	16.32	-45.1	-48.2	16.1	0.00e+00	0	40	0	420478976	62	4980
2026-01-14 22:00:38.93	87.28	16.31	-45.0	-48.1	16.2	0.00e+00	0	40	0	423624704	62	4904
2026-01-14 22:00:39.63	87.44	16.31	-45.2	-48.3	16.1	0.00e+00	0	40	0	424673280	62	4998
2026-01-14 22:00:40.91	87.72	16.30	-45.3	-48.4	15.9	0.00e+00	0	40	0	426770432	62	5095
2026-01-14 22:00:41.81	87.92	16.30	-45.4	-48.6	15.7	0.00e+00	0	40	0	428867584	62	5187
2026-01-14 22:00:42.91	88.16	16.29	-45.6	-48.9	15.5	0.00e+00	0	40	0	430964736	62	5376
2026-01-14 22:00:43.77	88.35	16.28	-45.8	-49.2	15.3	0.00e+00	0	40	0	432013312	62	5545
2026-01-14 22:00:44.91	88.61	16.28	-45.9	-49.3	15.1	0.00e+00	0	40	0	434110464	62	5612
2026-01-14 22:00:46.04	88.86	16.27	-45.8	-49.2	15.2	0.00e+00	0	40	0	436207616	62	5564
2026-01-14 22:00:47.08	89.09	16.26	-45.6	-49.0	15.4	0.00e+00	0	40	0	438304768	62	5455
2026-01-14 22:00:48.22	89.34	16.25	-45.3	-48.6	15.8	0.00e+00	0	40	0	440401920	62	5187
2026-01-14 22:00:49.14	89.54	16.24	-45.3	-48.4	15.9	0.00e+00	0	40	0	442499072	62	5085
2026-01-14 22:00:50.13	89.76	16.23	-45.3	-48.4	16.0	0.00e+00	0	41	0	444596224	62	5082
2026-01-14 22:00:51.13	89.98	16.23	-45.2	-48.3	16.1	0.00e+00	0	40	0	446693376	62	4995
2026-01-14 22:00:52.13	90.20	16.22	-45.3	-48.3	16.0	0.00e+00	0	41	0	447741952	62	5024
2026-01-14 22:00:53.12	90.42	16.21	-45.3	-48.3	16.0	0.00e+00	0	40	0	449839104	62	5024
2026-01-14 22:00:54.12	90.64	16.20	-45.3	-48.3	16.0	0.00e+00	0	40	0	451936256	62	5010
2026-01-14 22:00:55.46	90.94	16.18	-45.4	-48.5	15.9	0.00e+00	0	40	0	454033408	62	5130
2026-01-14 22:00:56.17	91.09	16.17	-45.4	-48.6	15.8	0.00e+00	0	40	0	456130560	62	5178
2026-01-14 22:00:57.45	91.37	16.16	-45.4	-48.6	15.8	0.00e+00	0	40	0	458227712	62	5178
2026-01-14 22:00:58.29	91.56	16.15	-45.4	-48.6	15.7	0.00e+00	0	40	0	459276288	62	5211
2026-01-14 22:00:59.43	91.81	16.13	-45.5	-48.7	15.7	0.00e+00	0	40	0	461373440	62	5231
2026-01-14 22:01:00.28	91.99	16.12	-45.4	-48.5	15.8	0.00e+00	0	40	0	463470592	62	5129
2026-01-14 22:01:01.42	92.24	16.11	-45.4	-48.5	15.8	0.00e+00	0	40	0	465567744	62	5129
2026-01-14 22:01:02.27	92.43	16.10	-45.4	-48.4	15.9	0.00e+00	0	40	0	467664896	62	5093
2026-01-14 22:01:03.40	92.68	16.08	-45.4	-48.5	15.8	0.00e+00	0	40	0	468713472	62	5122
2026-01-14 22:01:04.26	92.86	16.07	-45.4	-48.5	15.8	0.00e+00	0	40	0	470810624	62	5137
2026-01-14 22:01:05.47	93.13	16.05	-45.4	-48.5	15.9	0.00e+00	0	40	0	472907776	62	5103
2026-01-14 22:01:06.32	93.31	16.04	-45.6	-48.6	15.8	0.00e+00	0	40	0	475004928	62	5200
2026-01-14 22:01:07.52	93.57	16.02	-45.2	-48.1	16.2	0.00e+00	0	40	0	477102080	62	4884
2026-01-14 22:01:08.38	93.76	16.00	-44.9	-47.8	16.5	0.00e+00	0	40	0	478150656	61	5005
2026-01-14 22:01:09.52	94.01	15.98	-44.7	-47.5	16.7	0.00e+00	0	40	0	480247808	61	4835
2026-01-14 22:01:10.37	94.19	15.97	-44.7	-47.5	16.7	0.00e+00	0	40	0	482344960	61	4852
2026-01-14 22:01:11.51	94.44	15.95	-44.7	-47.5	16.7	0.00e+00	0	40	0	484442112	61	4858
2026-01-14 22:01:12.36	94.63	15.94	-44.8	-47.7	16.6	0.00e+00	0	40	0	486539264	61	4941
2026-01-14 22:01:13.70	94.92	15.91	-44.8	-47.6	16.7	0.00e+00	0	40	0	488636416	61	4897
2026-01-14 22:01:14.42	95.07	15.90	-44.8	-47.6	16.7	0.00e+00	0	40	0	489684992	61	4889
2026-01-14 22:01:15.70	95.35	15.87	-44.7	-47.5	16.8	0.00e+00	0	40	0	491782144	61	4823
2026-01-14 22:01:16.40	95.50	15.86	-44.7	-47.5	16.8	0.00e+00	0	40	0	493879296	61	4851
2026-01-14 22:01:17.69	95.78	15.84	-44.8	-47.6	16.7	0.00e+00	0	40	0	495976448	61	4885
2026-01-14 22:01:18.40	95.93	15.82	-44.9	-47.7	16.6	0.00e+00	0	40	0	497025024	61	4939
2026-01-14 22:01:20.04	96.28	15.79	-45.2	-48.2	16.1	0.00e+00	0	40	0	500170752	61	5219
2026-01-14 22:01:20.61	96.40	15.78	-45.3	-48.2	16.1	0.00e+00	0	40	0	501219328	61	5267
2026-01-14 22:01:22.32	96.77	15.74	-45.3	-48.2	16.1	0.00e+00	0	40	0	504365056	61	5275
2026-01-14 22:01:22.89	96.89	15.73	-45.3	-48.3	16.0	0.00e+00	0	40	0	505413632	61	5291
2026-01-14 22:01:24.59	97.25	15.69	-45.1	-48.1	16.2	0.00e+00	0	40	0	508559360	61	5172
2026-01-14 22:01:25.16	97.38	15.68	-45.1	-48.0	16.3	0.00e+00	0	40	0	509607936	61	5113
2026-01-14 22:01:26.86	97.74	15.64	-45.2	-48.1	16.2	0.00e+00	0	40	0	513802240	61	5211
2026-01-14 22:01:27.62	97.90	15.62	-45.3	-48.3	16.1	0.00e+00	0	40	0	514850816	61	5283
2026-01-14 22:01:28.90	98.17	15.59	-45.4	-48.4	15.9	0.00e+00	0	40	0	516947968	61	5387
2026-01-14 22:01:29.61	98.32	15.58	-45.3	-48.3	16.0	0.00e+00	0	40	0	517996544	61	5339
2026-01-14 22:01:30.89	98.59	15.55	-45.3	-48.3	16.0	0.00e+00	0	40	0	521142272	61	5326
2026-01-14 22:01:31.91	98.81	15.52	-45.1	-48.1	16.2	0.00e+00	0	40	0	522190848	61	5166
2026-01-14 22:01:32.90	99.02	15.50	-44.9	-47.7	16.6	0.00e+00	0	40	0	524288000	61	4964
2026-01-14 22:01:34.23	99.29	15.46	-44.7	-47.4	16.8	0.00e+00	0	40	0	527433728	61	4806
2026-01-14 22:01:34.99	99.45	15.44	-44.6	-47.4	16.8	0.00e+00	0	40	0	528482304	61	4780
2026-01-14 22:01:36.27	99.72	15.41	-44.4	-47.1	17.1	0.00e+00	0	40	0	530579456	60	4901
2026-01-14 22:01:37.09	99.89	15.39	-44.3	-46.9	17.3	0.00e+00	0	40	0	532676608	60	4779
2026-01-14 22:01:38.49	100.19	15.35	-44.3	-46.9	17.3	0.00e+00	0	40	0	534773760	60	4783
2026-01-14 22:01:39.20	100.33	15.33	-44.2	-46.7	17.4	0.00e+00	0	40	0	536870912	60	4699
2026-01-14 22:01:40.48	100.60	15.30	-44.5	-47.2	17.1	0.00e+00	0	40	0	538968064	60	4938
2026-01-14 22:01:41.19	100.75	15.28	-44.5	-47.3	16.9	0.00e+00	0	40	0	540016640	60	5003
2026-01-14 22:01:42.47	101.01	15.24	-44.7	-47.5	16.8	0.00e+00	0	40	0	542113792	60	5107
2026-01-14 22:01:43.28	101.18	15.22	-44.8	-47.6	16.7	0.00e+00	0	40	0	544210944	60	5169
2026-01-14 22:01:44.41	101.41	15.19	-44.7	-47.5	16.7	0.00e+00	0	40	0	546308096	60	5128
2026-01-14 22:01:45.27	101.59	15.16	-44.7	-47.4	16.8	0.00e+00	0	40	0	547356672	60	5094
2026-01-14 22:01:46.40	101.82	15.13	-44.5	-47.3	17.0	0.00e+00	0	40	0	549453824	60	5008
2026-01-14 22:01:47.25	102.00	15.10	-44.6	-47.4	16.8	0.00e+00	0	40	0	551550976	60	5065
2026-01-14 22:01:48.39	102.23	15.07	-44.8	-47.6	16.6	0.00e+00	0	40	0	553648128	60	5193
2026-01-14 22:01:49.24	102.41	15.04	-44.8	-47.6	16.6	0.00e+00	0	40	0	554696704	60	5203
2026-01-14 22:01:50.38	102.64	15.01	-45.1	-48.0	16.3	0.00e+00	0	40	0	557842432	60	5454
2026-01-14 22:01:51.24	102.81	14.98	-45.1	-48.0	16.3	0.00e+00	0	40	0	558891008	60	5415
2026-01-14 22:01:52.48	103.07	14.94	-45.0	-47.9	16.4	0.00e+00	0	40	0	560988160	60	5375
2026-01-14 22:01:53.33	103.24	14.92	-45.0	-47.9	16.4	0.00e+00	0	40	0	563085312	60	5359
2026-01-14 22:01:54.47	103.47	14.88	-44.9	-47.8	16.4	0.00e+00	0	40	0	565182464	60	5335
2026-01-14 22:01:55.33	103.64	14.85	-44.8	-47.7	16.6	0.00e+00	0	40	0	566231040	60	5225
2026-01-14 22:01:56.47	103.87	14.82	-44.7	-47.6	16.6	0.00e+00	0	40	0	568328192	60	5163
2026-01-14 22:01:57.32	104.05	14.79	-44.7	-47.6	16.7	0.00e+00	0	40	0	570425344	60	5190
2026-01-14 22:01:58.46	104.27	14.75	-44.7	-47.4	16.8	0.00e+00	0	40	0	572522496	60	5083
2026-01-14 22:01:59.31	104.44	14.72	-44.6	-47.4	16.8	0.00e+00	0	40	0	574619648	60	5054
2026-01-14 22:02:00.45	104.67	14.68	-44.6	-47.4	16.8	0.00e+00	0	40	0	576716800	60	5059
2026-01-14 22:02:01.30	104.84	14.66	-44.6	-47.3	17.0	0.00e+00	0	40	0	577765376	60	4997
2026-01-14 22:02:02.44	105.07	14.62	-44.7	-47.5	16.7	0.00e+00	0	40	0	579862528	60	5109
2026-01-14 22:02:03.29	105.24	14.59	-44.6	-47.4	16.8	0.00e+00	0	40	0	581959680	60	5055
2026-01-14 22:02:04.43	105.46	14.55	-44.7	-47.5	16.7	0.00e+00	0	40	0	584056832	60	5129
2026-01-14 22:02:05.28	105.63	14.52	-44.7	-47.6	16.6	0.00e+00	0	40	0	585105408	60	5181
2026-01-14 22:02:06.42	105.86	14.48	-45.0	-47.9	16.3	0.00e+00	0	40	0	587202560	60	5398
2026-01-14 22:02:07.27	106.02	14.45	-45.0	-47.9	16.3	0.00e+00	0	40	0	589299712	60	5385
2026-01-14 22:02:08.41	106.25	14.41	-45.1	-48.0	16.3	0.00e+00	0	40	0	591396864	60	5419
2026-01-14 22:02:09.26	106.41	14.38	-45.0	-48.0	16.3	0.00e+00	0	40	0	592445440	60	5410
2026-01-14 22:02:10.40	106.64	14.34	-45.2	-48.2	16.0	0.00e+00	0	40	0	594542592	61	5272
2026-01-14 22:02:11.28	106.81	14.31	-45.3	-48.4	15.9	0.00e+00	0	40	0	596639744	61	5349
2026-01-14 22:02:12.61	107.07	14.26	-45.7	-48.9	15.4	0.00e+00	0	40	0	598736896	61	5676
2026-01-14 22:02:13.32	107.21	14.23	-45.8	-49.1	15.2	0.00e+00	0	40	0	600834048	62	5474
2026-01-14 22:02:14.60	107.45	14.18	-46.0	-49.4	15.0	0.00e+00	0	40	0	602931200	62	5673
2026-01-14 22:02:15.32	107.59	14.16	-45.9	-49.3	15.0	0.00e+00	0	40	0	603979776	62	5619
2026-01-14 22:02:16.60	107.84	14.11	-45.9	-49.3	15.0	0.00e+00	0	40	0	606076928	62	5624
2026-01-14 22:02:17.36	107.99	14.08	-45.9	-49.2	15.1	7.00e-07	0	40	0	608174080	62	5589
2026-01-14 22:02:18.96	108.29	14.02	-45.7	-48.9	15.4	0.00e+00	0	40	0	611319808	62	5366
2026-01-14 22:02:19.85	108.46	13.98	-45.6	-48.7	15.5	0.00e+00	0	40	0	612368384	62	5268
2026-01-14 22:02:20.94	108.67	13.94	-45.6	-48.7	15.6	0.00e+00	0	40	0	614465536	62	5240
2026-01-14 22:02:22.14	108.90	13.90	-45.7	-48.9	15.5	0.00e+00	0	40	0	616562688	62	5347
2026-01-14 22:02:22.99	109.06	13.86	-45.7	-48.9	15.4	0.00e+00	0	40	0	618659840	62	5397
2026-01-14 22:02:24.49	109.34	13.80	-45.9	-49.2	15.1	0.00e+00	0	40	0	621805568	62	5564
2026-01-14 22:02:25.20	109.48	13.78	-46.0	-49.4	14.9	0.00e+00	0	40	0	622854144	62	5675
2026-01-14 22:02:26.48	109.72	13.72	-46.0	-49.4	14.9	1.50e-06	0	40	0	624951296	62	5698
2026-01-14 22:02:27.23	109.86	13.69	-46.1	-49.6	14.7	0.00e+00	0	40	0	625999872	62	5809
2026-01-14 22:02:28.51	110.10	13.64	-46.2	-49.7	14.6	7.00e-07	0	40	0	629145600	63	5544
2026-01-14 22:02:29.22	110.23	13.61	-46.1	-49.6	14.7	0.00e+00	0	40	0	630194176	63	5515
2026-01-14 22:02:30.50	110.47	13.56	-45.9	-49.3	15.0	0.00e+00	0	40	0	632291328	63	5300
2026-01-14 22:02:31.24	110.60	13.53	-45.9	-49.3	15.0	0.00e+00	0	40	0	634388480	63	5328
2026-01-14 22:02:32.52	110.84	13.48	-45.9	-49.2	15.0	0.00e+00	0	40	0	636485632	63	5271
2026-01-14 22:02:33.24	110.97	13.45	-46.0	-49.4	14.9	0.00e+00	0	40	0	637534208	63	5372
2026-01-14 22:02:34.52	111.21	13.40	-46.1	-49.6	14.7	0.00e+00	0	40	0	639631360	63	5485
2026-01-14 22:02:35.26	111.35	13.37	-46.2	-49.8	14.5	7.00e-07	0	40	0	641728512	63	5614
2026-01-14 22:02:36.56	111.58	13.31	-46.3	-50.0	14.3	7.00e-07	0	40	0	643825664	63	5779
2026-01-14 22:02:37.57	111.77	13.27	-46.4	-50.1	14.3	7.00e-07	0	40	0	645922816	63	5789
2026-01-14 22:02:38.89	112.01	13.21	-46.4	-50.1	14.1	2.20e-06	0	40	0	648019968	63	5839
2026-01-14 22:02:39.61	112.14	13.18	-46.5	-50.3	13.9	1.50e-06	0	40	0	650117120	63	5986
2026-01-14 22:02:41.23	112.43	13.11	-46.7	-50.6	13.6	3.80e-06	0	40	0	652214272	64	5813
2026-01-14 22:02:41.80	112.53	13.09	-46.7	-50.6	13.6	9.10e-06	0	40	0	653262848	64	5826
2026-01-14 22:02:43.69	112.87	13.01	-46.8	-50.8	13.4	1.44e-05	0	40	0	657457152	64	5972
2026-01-14 22:02:44.61	113.04	12.97	-46.8	-50.8	13.4	1.98e-05	0	40	0	659554304	64	5939
2026-01-14 22:02:45.60	113.21	12.92	-46.7	-50.7	13.5	1.22e-05	0	40	0	660602880	64	5890
2026-01-14 22:02:46.60	113.39	12.88	-46.6	-50.4	13.9	4.50e-06	0	40	0	662700032	64	5662
2026-01-14 22:02:47.60	113.57	12.84	-46.3	-49.9	14.3	7.00e-07	0	40	0	664797184	64	5368
2026-01-14 22:02:48.59	113.74	12.79	-46.2	-49.7	14.5	0.00e+00	0	40	0	666894336	64	5266
2026-01-14 22:02:49.63	113.93	12.75	-46.0	-49.4	14.7	0.00e+00	0	41	0	667942912	64	5091
2026-01-14 22:02:50.63	114.10	12.70	-46.1	-49.6	14.7	7.00e-07	0	40	0	670040064	63	5472
2026-01-14 22:02:51.62	114.28	12.66	-46.3	-49.8	14.5	7.00e-07	0	40	0	672137216	63	5599
2026-01-14 22:02:52.62	114.45	12.61	-46.2	-49.8	14.5	7.00e-07	0	40	0	674234368	63	5607
2026-01-14 22:02:53.61	114.62	12.57	-46.3	-49.9	14.3	1.50e-06	0	40	0	676331520	63	5710
2026-01-14 22:02:54.61	114.80	12.52	-46.4	-50.0	14.2	7.00e-07	0	40	0	677380096	63	5780
2026-01-14 22:02:55.60	114.97	12.48	-46.6	-50.3	14.0	7.00e-07	0	40	0	679477248	63	5941
2026-01-14 22:02:56.60	115.14	12.43	-46.6	-50.5	13.7	3.00e-06	0	40	0	681574400	64	5727
2026-01-14 22:02:57.59	115.31	12.39	-46.5	-50.2	13.9	2.20e-06	0	40	0	683671552	64	5588
2026-01-14 22:02:58.59	115.48	12.34	-46.5	-50.2	13.9	3.00e-06	0	40	0	684720128	64	5587
2026-01-14 22:02:59.58	115.65	12.30	-46.5	-50.2	13.9	2.20e-06	0	40	0	686817280	64	5585
2026-01-14 22:03:00.58	115.82	12.25	-46.7	-50.5	13.7	1.50e-06	0	40	0	688914432	64	5782
2026-01-14 22:03:01.57	115.99	12.21	-46.5	-50.3	13.9	6.80e-06	0	40	0	691011584	64	5606
2026-01-14 22:03:02.57	116.16	12.16	-46.5	-50.3	13.9	3.00e-06	0	40	0	693108736	64	5604
2026-01-14 22:03:03.57	116.33	12.11	-46.5	-50.2	13.9	5.30e-06	0	40	0	694157312	64	5591
2026-01-14 22:03:04.56	116.50	12.07	-46.3	-50.0	14.2	3.00e-06	0	40	0	696254464	64	5415
2026-01-14 22:03:05.56	116.66	12.02	-46.4	-50.1	14.0	0.00e+00	0	40	0	698351616	64	5513
2026-01-14 22:03:06.55	116.83	11.97	-46.2	-49.9	14.2	2.20e-06	0	40	0	700448768	64	5372
2026-01-14 22:03:07.55	117.00	11.93	-46.3	-50.1	14.1	7.00e-07	0	40	0	701497344	64	5471
2026-01-14 22:03:08.54	117.16	11.88	-46.4	-50.1	14.1	1.50e-06	0	40	0	703594496	64	5500
2026-01-14 22:03:09.54	117.33	11.83	-46.3	-50.0	14.2	1.50e-06	0	40	0	705691648	64	5449
2026-01-14 22:03:10.53	117.49	11.79	-46.4	-50.1	14.1	0.00e+00	0	40	0	707788800	64	5498
2026-01-14 22:03:11.53	117.66	11.74	-46.4	-50.1	14.1	0.00e+00	0	40	0	709885952	64	5475
2026-01-14 22:03:12.52	117.82	11.69	-46.2	-50.1	14.0	3.00e-06	0	40	0	710934528	64	5525
2026-01-14 22:03:13.52	117.98	11.64	-46.3	-50.0	14.2	1.50e-06	0	40	0	713031680	64	5428
2026-01-14 22:03:14.83	118.20	11.58	-46.1	-49.8	14.3	7.00e-07	0	40	0	716177408	64	5328
2026-01-14 22:03:15.58	118.32	11.55	-46.0	-49.6	14.5	3.80e-06	0	40	0	717225984	64	5181
2026-01-14 22:03:17.17	118.58	11.47	-45.9	-49.3	14.9	0.00e+00	0	40	0	720371712	63	5312
2026-01-14 22:03:18.02	118.71	11.43	-46.0	-49.4	14.8	0.00e+00	0	40	0	721420288	63	5368
2026-01-14 22:03:19.62	118.97	11.35	-45.7	-48.9	15.2	0.00e+00	0	40	0	724566016	63	5098
2026-01-14 22:03:20.19	119.06	11.32	-45.7	-49.0	15.2	0.00e+00	0	40	0	725614592	63	5140
2026-01-14 22:03:21.88	119.33	11.24	-45.4	-48.8	15.3	0.00e+00	0	40	0	728760320	62	5339
2026-01-14 22:03:22.45	119.42	11.21	-45.8	-49.0	15.2	0.00e+00	0	40	0	729808896	62	5449
2026-01-14 22:03:24.15	119.69	11.13	-45.6	-48.8	15.3	0.00e+00	0	40	0	732954624	62	5329
2026-01-14 22:03:24.72	119.78	11.10	-44.9	-48.9	15.2	0.00e+00	0	40	0	734003200	61	5704
2026-01-14 22:03:26.42	120.05	11.02	-44.8	-48.8	15.3	0.00e+00	0	40	0	737148928	61	5624
2026-01-14 22:03:26.99	120.14	10.99	-44.9	-48.8	15.3	0.00e+00	0	40	0	738197504	61	5648
2026-01-14 22:03:28.70	120.41	10.91	-45.3	-48.9	15.2	0.00e+00	0	40	0	741343232	61	5691
2026-01-14 22:03:29.38	120.51	10.87	-45.6	-48.8	15.3	0.00e+00	0	40	0	743440384	61	5593
2026-01-14 22:03:30.80	120.73	10.80	-45.5	-48.7	15.5	0.00e+00	0	40	0	745537536	61	5532
2026-01-14 22:03:31.60	120.86	10.76	-45.5	-48.7	15.4	0.00e+00	0	40	0	746586112	61	5579
2026-01-14 22:03:32.74	121.03	10.71	-45.6	-48.9	15.3	0.00e+00	0	40	0	749731840	62	5342
2026-01-14 22:03:33.59	121.16	10.67	-45.8	-49.1	15.1	0.00e+00	0	40	0	750780416	62	5507
2026-01-14 22:03:34.73	121.34	10.61	-45.8	-49.2	15.0	0.00e+00	0	40	0	752877568	62	5539
2026-01-14 22:03:35.58	121.47	10.57	-46.0	-49.4	14.8	7.00e-07	0	40	0	754974720	62	5693
2026-01-14 22:03:36.72	121.64	10.51	-45.8	-49.5	14.7	0.00e+00	0	40	0	757071872	62	5742
2026-01-14 22:03:37.57	121.77	10.47	-45.7	-49.5	14.7	2.20e-06	0	40	0	758120448	62	5733
2026-01-14 22:03:38.71	121.94	10.41	-45.3	-49.1	15.0	0.00e+00	0	41	0	760217600	62	5477
2026-01-14 22:03:39.95	122.13	10.35	-45.2	-48.9	15.2	7.00e-07	0	41	0	762314752	62	5372
2026-01-14 22:03:40.81	122.26	10.30	-45.0	-48.6	15.5	7.00e-07	0	40	0	764411904	62	5178
2026-01-14 22:03:42.29	122.48	10.23	-44.8	-48.2	15.9	0.00e+00	0	41	0	767557632	61	5255
2026-01-14 22:03:43.00	122.58	10.19	-44.8	-48.2	15.9	0.00e+00	0	40	0	768606208	61	5241
2026-01-14 22:03:44.28	122.77	10.13	-45.0	-48.0	16.1	0.00e+00	0	40	0	770703360	61	5108
2026-01-14 22:03:44.99	122.88	10.09	-44.9	-48.1	16.0	0.00e+00	0	40	0	771751936	61	5165
2026-01-14 22:03:46.27	123.07	10.03	-45.1	-48.1	16.0	0.00e+00	0	40	0	774897664	61	5164
2026-01-14 22:03:47.00	123.18	9.99	-45.2	-48.2	15.8	0.00e+00	0	40	0	775946240	61	5250
2026-01-14 22:03:48.28	123.36	9.93	-45.3	-48.4	15.7	0.00e+00	0	40	0	778043392	61	5373
2026-01-14 22:03:49.00	123.47	9.89	-45.4	-48.6	15.5	0.00e+00	0	40	0	780140544	61	5473
2026-01-14 22:03:50.27	123.65	9.83	-45.4	-48.7	15.3	0.00e+00	0	40	0	782237696	61	5578
2026-01-14 22:03:51.19	123.79	9.78	-45.5	-48.7	15.3	0.00e+00	0	40	0	784334848	61	5554
2026-01-14 22:03:52.20	123.93	9.73	-45.5	-48.7	15.3	0.00e+00	0	40	0	785383424	61	5582
2026-01-14 22:03:53.19	124.07	9.68	-45.7	-49.1	15.0	0.00e+00	0	40	0	787480576	62	5490
2026-01-14 22:03:54.19	124.22	9.63	-45.7	-49.3	14.8	7.00e-07	0	40	0	789577728	62	5595
2026-01-14 22:03:55.18	124.36	9.58	-45.8	-49.2	14.9	0.00e+00	0	41	0	791674880	62	5564
2026-01-14 22:03:56.18	124.50	9.53	-45.6	-49.5	14.7	0.00e+00	0	40	0	792723456	62	5731
2026-01-14 22:03:57.17	124.64	9.47	-45.5	-49.5	14.6	0.00e+00	0	41	0	794820608	62	5754
2026-01-14 22:03:58.17	124.78	9.42	-45.9	-49.4	14.6	0.00e+00	0	40	0	796917760	62	5711
2026-01-14 22:03:59.18	124.93	9.37	-45.4	-49.6	14.5	7.00e-07	0	40	0	799014912	62	5795
2026-01-14 22:04:00.18	125.07	9.32	-46.0	-49.5	14.6	2.20e-06	0	40	0	801112064	62	5727
2026-01-14 22:04:01.22	125.21	9.27	-46.1	-49.6	14.4	0.00e+00	0	40	0	803209216	62	5855
2026-01-14 22:04:02.18	125.35	9.22	-45.6	-49.6	14.3	1.50e-06	0	40	0	804257792	63	5525
2026-01-14 22:04:03.27	125.50	9.16	-45.5	-49.4	14.7	2.20e-06	0	40	0	806354944	63	5342
2026-01-14 22:04:04.12	125.62	9.12	-45.5	-49.4	14.6	0.00e+00	0	40	0	808452096	62	5682
2026-01-14 22:04:05.48	125.80	9.05	-45.7	-49.0	15.0	0.00e+00	0	40	0	810549248	62	5462
2026-01-14 22:04:06.19	125.90	9.01	-45.5	-48.7	15.2	0.00e+00	0	40	0	811597824	62	5277
2026-01-14 22:04:07.67	126.10	8.93	-50.5	-65.5	3.8	1.49e+00	0	40	104	813694976	71	21578
2026-01-14 22:04:08.38	126.20	8.90	-50.2	-65.8	3.8	1.49e+00	0	40	104	813694976	71	22284
2026-01-14 22:04:09.74	126.39	8.83	-50.7	-65.9	3.8	1.49e+00	0	40	104	813694976	72	21335
2026-01-14 22:04:10.45	126.48	8.79	-50.6	-65.9	3.8	1.49e+00	0	40	104	813694976	72	21482
2026-01-14 22:04:11.73	126.66	8.72	-50.6	-66.0	3.8	1.49e+00	0	40	104	813694976	72	21584
2026-01-14 22:04:12.44	126.75	8.69	-50.7	-66.0	3.8	1.49e+00	0	41	104	813694976	72	21560
2026-01-14 22:04:13.71	126.92	8.62	-50.7	-66.0	3.8	1.49e+00	0	41	104	813694976	72	21666
2026-01-14 22:04:14.42	127.02	8.59	-50.8	-66.0	3.8	1.49e+00	0	40	104	813694976	72	21694
2026-01-14 22:04:15.70	127.19	8.52	-50.8	-66.1	3.8	1.49e+00	0	40	104	813694976	72	21791
2026-01-14 22:04:16.41	127.28	8.48	-50.8	-66.1	3.8	1.49e+00	0	40	104	813694976	72	21814
2026-01-14 22:04:17.71	127.45	8.41	-50.8	-66.1	3.8	1.49e+00	0	40	104	813694976	72	21870
2026-01-14 22:04:18.42	127.55	8.38	-50.8	-66.1	3.8	1.49e+00	0	40	104	813694976	72	21846
2026-01-14 22:04:19.69	127.72	8.31	-50.7	-66.1	3.8	1.49e+00	0	40	104	813694976	72	21975
2026-01-14 22:04:20.40	127.81	8.28	-50.7	-66.1	3.8	1.49e+00	0	40	104	813694976	72	21883
2026-01-14 22:04:21.68	127.98	8.21	-50.6	-66.1	3.8	1.49e+00	0	40	104	813694976	72	21871
2026-01-14 22:04:22.59	128.09	8.16	-50.5	-66.1	3.8	1.49e+00	0	40	104	813694976	72	21908
2026-01-14 22:04:23.59	128.22	8.11	-50.5	-66.1	3.8	1.49e+00	0	40	104	813694976	72	21953
2026-01-14 22:04:24.58	128.35	8.06	-50.5	-66.1	3.8	1.49e+00	0	40	104	813694976	72	21948
2026-01-14 22:04:25.58	128.48	8.01	-50.5	-66.1	3.8	1.49e+00	0	40	104	813694976	72	21898
2026-01-14 22:04:26.57	128.61	7.95	-50.6	-66.1	3.8	1.49e+00	0	40	104	813694976	72	21871
2026-01-14 22:04:27.56	128.73	7.90	-50.7	-66.1	3.8	1.49e+00	0	40	104	813694976	72	21903
2026-01-14 22:04:28.56	128.86	7.85	-50.7	-66.1	3.8	1.49e+00	0	40	104	813694976	72	21839
2026-01-14 22:04:29.55	128.99	7.80	-50.7	-66.1	3.8	1.49e+00	0	40	104	813694976	72	21863
2026-01-14 22:04:30.55	129.11	7.75	-50.7	-66.1	3.8	1.49e+00	0	40	104	813694976	72	21791
2026-01-14 22:04:31.54	129.24	7.70	-50.7	-66.1	3.8	1.49e+00	0	40	104	813694976	72	21799
2026-01-14 22:04:32.58	129.37	7.64	-50.7	-66.0	3.8	1.49e+00	0	40	104	813694976	72	21745
2026-01-14 22:04:33.58	129.49	7.59	-50.7	-66.1	3.8	1.49e+00	0	40	104	813694976	72	21776
2026-01-14 22:04:34.57	129.62	7.54	-50.6	-66.0	3.8	1.49e+00	0	40	104	813694976	72	21730
2026-01-14 22:04:35.56	129.74	7.49	-50.6	-66.1	3.8	1.49e+00	0	40	104	813694976	72	21809
2026-01-14 22:04:36.56	129.87	7.43	-50.6	-66.0	3.8	1.49e+00	0	40	104	813694976	72	21743
2026-01-14 22:04:37.55	129.99	7.38	-50.6	-66.0	3.8	1.49e+00	0	40	104	813694976	72	21717
2026-01-14 22:04:38.55	130.11	7.33	-50.6	-66.1	3.8	1.49e+00	0	40	104	813694976	72	21771
2026-01-14 22:04:39.54	130.23	7.28	-50.6	-66.0	3.8	1.49e+00	0	40	104	813694976	72	21743
2026-01-14 22:04:40.53	130.35	7.23	-50.6	-66.0	3.8	1.49e+00	0	40	104	813694976	72	21657
2026-01-14 22:04:41.53	130.48	7.17	-50.6	-66.0	3.8	1.49e+00	0	40	104	813694976	72	21735
2026-01-14 22:04:42.52	130.60	7.12	-50.6	-66.1	3.8	1.49e+00	0	40	104	813694976	72	21791
2026-01-14 22:04:43.52	130.72	7.07	-50.6	-66.0	3.8	1.49e+00	0	40	104	813694976	72	21702
2026-01-14 22:04:44.51	130.84	7.02	-50.6	-66.0	3.8	1.49e+00	0	40	104	813694976	72	21726
2026-01-14 22:04:45.50	130.96	6.97	-50.6	-66.0	3.8	1.49e+00	0	40	104	813694976	72	21730
2026-01-14 22:04:46.50	131.08	6.91	-50.6	-66.0	3.8	1.49e+00	0	40	104	813694976	72	21698
2026-01-14 22:04:47.49	131.19	6.86	-50.6	-66.0	3.8	1.49e+00	0	40	104	813694976	72	21642
2026-01-14 22:04:48.48	131.31	6.81	-50.6	-66.0	3.8	1.49e+00	0	40	104	813694976	72	21626
2026-01-14 22:04:49.54	131.44	6.76	-50.6	-66.0	3.8	1.49e+00	0	40	104	813694976	72	21671
2026-01-14 22:04:50.41	131.54	6.71	-50.6	-66.0	3.8	1.49e+00	0	40	104	813694976	72	21676
2026-01-14 22:04:51.55	131.67	6.65	-50.6	-66.0	3.8	1.49e+00	0	40	104	813694976	72	21671
2026-01-14 22:04:52.40	131.77	6.61	-50.6	-66.0	3.8	1.49e+00	0	40	104	813694976	72	21661
2026-01-14 22:04:53.53	131.91	6.55	-50.6	-66.0	3.8	1.49e+00	0	40	104	813694976	72	21662
2026-01-14 22:04:54.39	132.01	6.50	-50.6	-66.0	3.8	1.49e+00	0	40	104	813694976	72	21631
2026-01-14 22:04:55.52	132.14	6.44	-50.6	-66.0	3.8	1.49e+00	0	40	104	813694976	72	21568
2026-01-14 22:04:56.37	132.24	6.40	-50.6	-66.0	3.8	1.49e+00	0	40	104	813694976	72	21741
2026-01-14 22:04:57.51	132.37	6.34	-50.6	-66.0	3.8	1.49e+00	0	40	104	813694976	72	21713
2026-01-14 22:04:58.36	132.47	6.30	-50.6	-66.0	3.8	1.49e+00	0	40	104	813694976	72	21709
2026-01-14 22:04:59.50	132.60	6.24	-50.6	-66.0	3.8	1.49e+00	0	40	104	813694976	72	21677
2026-01-14 22:05:00.35	132.69	6.19	-50.6	-66.0	3.8	1.49e+00	0	40	104	813694976	72	21653
2026-01-14 22:05:01.53	132.83	6.13	-50.6	-66.0	3.8	1.49e+00	0	40	104	813694976	72	21587
2026-01-14 22:05:02.39	132.92	6.09	-50.6	-66.0	3.8	1.49e+00	0	40	104	813694976	72	21613
2026-01-14 22:05:03.52	133.05	6.03	-50.6	-66.0	3.8	1.49e+00	0	40	104	813694976	72	21663
2026-01-14 22:05:04.37	133.15	5.98	-50.6	-66.0	3.8	1.49e+00	0	40	104	813694976	72	21616
2026-01-14 22:05:05.51	133.28	5.92	-50.6	-66.0	3.8	1.49e+00	0	40	104	813694976	72	21702
2026-01-14 22:05:06.36	133.37	5.88	-50.6	-66.0	3.8	1.49e+00	0	40	104	813694976	72	21680
2026-01-14 22:05:07.49	133.50	5.82	-50.6	-66.0	3.8	1.49e+00	0	40	104	813694976	72	21607
2026-01-14 22:05:08.35	133.59	5.78	-50.6	-66.0	3.8	1.49e+00	0	40	104	813694976	72	21661
2026-01-14 22:05:09.48	133.72	5.72	-50.6	-66.0	3.8	1.49e+00	0	40	104	813694976	72	21596
2026-01-14 22:05:10.34	133.81	5.67	-50.6	-66.0	3.8	1.49e+00	0	40	104	813694976	72	21616
2026-01-14 22:05:11.47	133.94	5.61	-50.6	-66.0	3.8	1.49e+00	0	40	104	813694976	72	21610
2026-01-14 22:05:12.32	134.03	5.57	-50.6	-66.0	3.8	1.49e+00	0	40	104	813694976	72	21687
2026-01-14 22:05:13.46	134.15	5.51	-50.6	-66.0	3.8	1.49e+00	0	40	104	813694976	72	21697
2026-01-14 22:05:14.31	134.25	5.47	-50.6	-66.0	3.8	1.49e+00	0	40	104	813694976	72	21622
2026-01-14 22:05:15.45	134.37	5.41	-50.6	-66.0	3.8	1.49e+00	0	40	104	813694976	72	21577
2026-01-14 22:05:16.30	134.46	5.36	-50.6	-66.0	3.8	1.49e+00	0	40	104	813694976	72	21601
2026-01-14 22:05:17.43	134.58	5.30	-50.6	-66.0	3.8	1.49e+00	0	40	104	813694976	72	21595
2026-01-14 22:05:18.28	134.68	5.26	-50.6	-66.0	3.8	1.49e+00	0	40	104	813694976	72	21584
2026-01-14 22:05:19.53	134.81	5.19	-50.6	-66.0	3.8	1.49e+00	0	40	104	813694976	72	21582
2026-01-14 22:05:20.38	134.90	5.15	-50.6	-66.0	3.8	1.49e+00	0	40	104	813694976	72	21625
2026-01-14 22:05:21.60	135.03	5.09	-50.6	-66.0	3.8	1.49e+00	0	40	104	813694976	72	21573
2026-01-14 22:05:22.45	135.12	5.04	-50.6	-66.0	3.8	1.49e+00	0	40	104	813694976	72	21578
2026-01-14 22:05:23.65	135.25	4.98	-50.6	-66.0	3.8	1.49e+00	0	40	104	813694976	72	21650

#Closed at: 2026-01-14 22:05:24
#Recorded file [813 MB]: D:/Data/31040_260115_005532.dat