passes_logs/2026/01/14/T1/T1__20260114_105539_NOAA_21_JPSS-2_rec.log

#Pass ID: 20260114_105539_NOAA 21 (JPSS-2)
#Satellite: NOAA 21 (JPSS-2)
#Configuration: NOAA 21
#almurnet v.1.7.20251203
#Start time: 2026-01-14 10:55:41

#Version: 2.0.20230620
#Station: T1
#Location: 37.570604 lon 55.790049 lat
#TLE: 1 54234U 22150A   26013.18009385  .00000056  00000+0  47387-4 0  9997
#TLE: 2 54234  98.7496 314.1019 0000691 303.8246  56.2864 14.19534466164559

#Time	Az	El	Level	Level2	SNR	BER	BlckErr	Temp	State	Recorded	gain1	gain2
2026-01-14 10:55:41.67	192.41	5.12	-51.4	-64.9	3.8	1.49e+00	0	36	0	0	73	17947
2026-01-14 10:55:42.67	192.47	5.19	-51.4	-64.9	3.8	1.49e+00	0	37	104	0	74	17056
2026-01-14 10:55:43.66	192.53	5.25	-51.4	-64.9	3.8	1.49e+00	0	37	104	0	74	17070
2026-01-14 10:55:44.66	192.59	5.32	-51.4	-64.9	3.8	1.49e+00	0	37	104	0	74	17048
2026-01-14 10:55:45.66	192.65	5.39	-51.4	-64.9	3.8	1.49e+00	0	37	104	0	74	16902
2026-01-14 10:55:46.66	192.70	5.45	-51.4	-64.8	3.8	1.49e+00	0	37	104	0	74	16880
2026-01-14 10:55:47.66	192.76	5.52	-51.4	-64.7	3.8	1.49e+00	0	37	104	0	74	16682
2026-01-14 10:55:48.66	192.82	5.59	-51.4	-64.6	3.8	1.49e+00	0	37	104	0	74	16502
2026-01-14 10:55:49.66	192.88	5.66	-51.3	-64.5	3.8	1.49e+00	0	37	104	0	74	16195
2026-01-14 10:55:50.66	192.94	5.73	-51.3	-64.4	3.8	1.49e+00	0	37	104	0	74	16051
2026-01-14 10:55:51.65	193.00	5.79	-51.3	-64.4	3.8	1.49e+00	0	37	104	0	74	15976
2026-01-14 10:55:52.65	193.06	5.86	-51.3	-64.4	3.8	1.49e+00	0	37	104	0	74	15982
2026-01-14 10:55:53.65	193.12	5.93	-51.3	-64.5	3.8	1.49e+00	0	37	104	0	74	16218
2026-01-14 10:55:54.65	193.18	6.00	-51.3	-64.4	3.8	1.49e+00	0	37	104	0	74	16122
2026-01-14 10:55:55.65	193.24	6.07	-51.3	-64.5	3.8	1.49e+00	0	37	104	0	74	16222
2026-01-14 10:55:56.65	193.30	6.14	-51.3	-64.4	3.8	1.49e+00	0	37	104	0	74	16126
2026-01-14 10:55:57.64	193.36	6.21	-51.3	-64.4	3.8	1.49e+00	0	37	104	0	74	16005
2026-01-14 10:55:58.64	193.42	6.28	-51.3	-64.1	3.8	1.49e+00	0	37	104	0	74	15549
2026-01-14 10:55:59.64	193.49	6.35	-51.3	-64.0	3.8	1.49e+00	0	37	104	0	74	15283
2026-01-14 10:56:00.63	193.55	6.41	-51.3	-63.8	3.8	1.49e+00	0	37	104	0	74	14892
2026-01-14 10:56:01.63	193.61	6.48	-51.2	-63.6	3.8	1.49e+00	0	37	104	0	74	14566
2026-01-14 10:56:02.63	193.67	6.55	-51.2	-63.3	3.8	1.49e+00	0	37	104	0	74	14174
2026-01-14 10:56:03.63	193.74	6.62	-51.2	-62.9	3.9	1.49e+00	0	37	104	0	74	13558
2026-01-14 10:56:04.62	193.80	6.69	-51.2	-62.7	3.9	1.49e+00	0	37	104	0	74	13220
2026-01-14 10:56:05.62	193.86	6.76	-51.2	-63.1	3.8	1.48e+00	0	37	104	0	74	13732
2026-01-14 10:56:06.62	193.93	6.84	-51.2	-63.0	3.8	1.48e+00	0	37	104	0	74	13688
2026-01-14 10:56:07.62	193.99	6.91	-51.2	-62.9	3.9	1.49e+00	0	37	104	0	74	13548
2026-01-14 10:56:08.62	194.05	6.98	-51.2	-62.6	4.0	1.48e+00	0	38	104	0	74	13060
2026-01-14 10:56:09.62	194.12	7.05	-51.2	-63.0	3.8	1.49e+00	0	37	104	0	74	13692
2026-01-14 10:56:10.62	194.18	7.12	-51.2	-63.1	3.9	1.48e+00	0	37	104	0	74	13877
2026-01-14 10:56:11.62	194.25	7.19	-51.2	-63.3	3.8	1.49e+00	0	37	104	0	74	14143
2026-01-14 10:56:12.62	194.32	7.26	-51.3	-63.8	3.8	1.49e+00	0	38	104	0	74	14953
2026-01-14 10:56:13.62	194.38	7.34	-51.3	-64.3	3.8	1.49e+00	0	37	104	0	74	15939
2026-01-14 10:56:14.62	194.45	7.41	-51.4	-64.8	3.8	1.49e+00	0	37	104	0	74	16870
2026-01-14 10:56:15.61	194.51	7.48	-51.3	-64.6	3.8	1.49e+00	0	38	104	0	74	16323
2026-01-14 10:56:16.61	194.58	7.55	-51.2	-63.1	3.8	1.49e+00	0	38	104	0	74	13749
2026-01-14 10:56:17.61	194.65	7.62	-50.8	-60.1	4.6	1.42e+00	0	38	104	0	73	10305
2026-01-14 10:56:18.61	194.72	7.70	-50.3	-57.4	6.3	3.47e-01	0	38	0	0	72	8075
2026-01-14 10:56:19.61	194.78	7.77	-49.6	-55.2	8.4	1.01e-01	0	38	0	0	71	6594
2026-01-14 10:56:20.60	194.85	7.84	-48.8	-53.3	10.3	1.19e-02	0	38	0	0	69	5962
2026-01-14 10:56:21.60	194.92	7.92	-48.1	-51.8	11.8	9.68e-04	0	38	0	0	68	5322
2026-01-14 10:56:22.60	194.99	7.99	-47.2	-50.5	13.0	7.40e-05	0	38	0	0	66	5157
2026-01-14 10:56:23.60	195.06	8.06	-46.5	-49.5	14.0	7.00e-07	0	38	0	0	65	4834
2026-01-14 10:56:24.59	195.13	8.14	-46.1	-48.8	14.7	1.50e-06	0	38	0	0	64	4747
2026-01-14 10:56:25.59	195.20	8.21	-45.9	-48.5	15.0	0.00e+00	0	38	0	0	63	4865
2026-01-14 10:56:26.59	195.27	8.28	-45.6	-48.2	15.4	0.00e+00	0	38	0	0	63	4672
2026-01-14 10:56:27.59	195.34	8.36	-45.6	-48.2	15.3	0.00e+00	0	38	0	0	63	4685
2026-01-14 10:56:28.58	195.41	8.43	-45.7	-48.2	15.3	0.00e+00	0	38	0	0	63	4691
2026-01-14 10:56:29.58	195.48	8.51	-46.0	-48.6	14.9	0.00e+00	0	38	0	0	63	4925
2026-01-14 10:56:30.58	195.55	8.58	-46.4	-49.2	14.4	0.00e+00	0	38	0	0	63	5266
2026-01-14 10:56:31.58	195.62	8.66	-46.7	-49.8	13.7	3.80e-06	0	38	0	0	64	5305
2026-01-14 10:56:32.57	195.69	8.73	-47.3	-50.6	12.9	3.43e-05	0	38	0	0	65	5494
2026-01-14 10:56:33.57	195.77	8.81	-47.8	-51.5	12.0	2.39e-04	0	38	0	0	66	5759
2026-01-14 10:56:34.57	195.84	8.88	-48.3	-52.4	11.1	1.01e-03	0	38	0	0	67	6049
2026-01-14 10:56:35.57	195.91	8.96	-49.0	-53.7	9.9	5.18e-03	0	38	0	0	68	6577
2026-01-14 10:56:36.56	195.99	9.03	-49.3	-54.5	9.1	1.73e-02	0	38	0	0	69	6817
2026-01-14 10:56:37.56	196.06	9.11	-49.6	-54.9	8.8	3.40e-02	0	38	0	0	69	7160
2026-01-14 10:56:38.57	196.14	9.19	-47.9	-52.2	11.3	4.79e-02	0	38	0	0	68	5553
2026-01-14 10:56:39.56	196.21	9.26	-49.6	-54.9	8.9	8.59e-03	0	38	0	0	69	7185
2026-01-14 10:56:40.57	196.29	9.34	-49.4	-54.5	9.0	3.69e-01	0	38	0	0	70	6427
2026-01-14 10:56:41.56	196.36	9.42	-47.7	-51.1	12.5	9.58e-04	0	38	0	0	67	5183
2026-01-14 10:56:42.56	196.44	9.49	-48.0	-51.6	12.1	3.43e-03	0	38	0	0	68	5180
2026-01-14 10:56:43.56	196.51	9.57	-47.4	-50.7	12.7	1.10e-04	0	38	0	0	66	5267
2026-01-14 10:56:44.57	196.59	9.65	-47.3	-50.5	13.0	4.57e-05	0	38	0	0	66	5151
2026-01-14 10:56:45.56	196.67	9.73	-46.7	-49.6	13.9	9.90e-06	0	38	0	0	65	4904
2026-01-14 10:56:46.57	196.74	9.81	-46.2	-49.0	14.4	0.00e+00	0	38	0	0	64	4838
2026-01-14 10:56:47.57	196.82	9.88	-46.0	-48.7	14.7	1.50e-06	0	38	0	0	63	4958
2026-01-14 10:56:48.57	196.90	9.96	-45.6	-48.2	15.0	0.00e+00	0	38	0	0	63	4665
2026-01-14 10:56:49.57	196.98	10.04	-45.2	-47.7	15.2	0.00e+00	0	38	0	0	62	4696
2026-01-14 10:56:50.57	197.06	10.12	-44.9	-47.4	15.3	0.00e+00	0	38	0	0	61	4773
2026-01-14 10:56:51.57	197.14	10.20	-44.7	-47.3	15.0	0.00e+00	0	38	0	0	61	4716
2026-01-14 10:56:52.57	197.22	10.28	-44.6	-47.3	14.3	7.00e-07	0	38	0	0	61	4711
2026-01-14 10:56:53.57	197.30	10.36	-44.3	-47.2	13.8	3.80e-06	0	38	0	0	60	4942
2026-01-14 10:56:54.57	197.38	10.44	-44.3	-47.2	13.6	6.10e-06	0	39	0	0	60	4957
2026-01-14 10:56:55.57	197.46	10.52	-44.1	-47.1	13.1	3.50e-05	0	38	0	0	60	4916
2026-01-14 10:56:56.57	197.54	10.60	-43.7	-47.0	12.1	1.95e-04	0	39	0	0	59	5129
2026-01-14 10:56:57.57	197.63	10.68	-43.2	-47.0	10.8	1.63e-03	0	38	0	0	58	5437
2026-01-14 10:56:58.58	197.71	10.76	-42.9	-46.9	10.3	4.42e-03	0	38	0	0	57	5713
2026-01-14 10:56:59.58	197.79	10.84	-42.7	-46.8	10.1	5.90e-03	0	39	0	0	57	5606
2026-01-14 10:57:00.58	197.87	10.92	-42.1	-46.6	9.3	1.42e-02	0	39	0	0	56	5852
2026-01-14 10:57:01.58	197.96	11.00	-41.3	-46.4	8.2	4.86e-02	0	38	0	0	54	6380
2026-01-14 10:57:02.58	198.04	11.08	-40.5	-46.2	7.1	1.06e-01	0	38	0	0	52	7025
2026-01-14 10:57:03.58	198.13	11.17	-40.1	-46.1	6.7	1.83e-01	0	39	0	0	52	6936
2026-01-14 10:57:04.58	198.21	11.25	-40.0	-46.1	6.6	2.06e-01	0	38	0	0	51	7350
2026-01-14 10:57:05.58	198.30	11.33	-41.4	-47.3	7.0	1.77e-01	0	38	0	0	53	7478
2026-01-14 10:57:06.58	198.39	11.41	-46.8	-53.9	5.8	3.08e-01	0	39	0	0	64	8545
2026-01-14 10:57:07.58	198.47	11.49	-44.1	-52.2	4.9	1.40e+00	0	38	104	0	60	8799
2026-01-14 10:57:08.59	198.56	11.58	-41.9	-49.1	5.5	9.64e-01	0	38	104	0	54	8748
2026-01-14 10:57:09.59	198.65	11.66	-41.7	-49.0	5.4	3.73e-01	0	39	0	0	55	8144
2026-01-14 10:57:10.59	198.74	11.74	-40.2	-48.2	4.9	7.95e-01	0	39	0	0	52	8840
2026-01-14 10:57:11.59	198.82	11.83	-40.1	-47.7	5.1	6.72e-01	0	38	0	0	51	8796
2026-01-14 10:57:12.59	198.91	11.91	-40.3	-47.7	5.3	5.13e-01	0	38	0	0	51	8827
2026-01-14 10:57:13.59	199.00	11.99	-41.9	-47.3	7.6	4.00e-01	0	39	0	0	54	7070
2026-01-14 10:57:14.59	199.09	12.08	-42.1	-48.1	6.8	3.39e-02	0	39	0	0	56	6947
2026-01-14 10:57:15.60	199.18	12.16	-40.7	-51.4	3.9	1.36e+00	0	39	104	0	53	12039
2026-01-14 10:57:16.60	199.27	12.25	-40.4	-50.9	3.9	1.49e+00	0	39	104	0	52	12022
2026-01-14 10:57:17.60	199.37	12.33	-44.4	-49.4	8.2	2.49e-01	0	39	0	0	59	6779
2026-01-14 10:57:18.60	199.46	12.42	-45.6	-49.5	10.7	6.95e-03	0	38	0	0	63	5459
2026-01-14 10:57:19.61	199.55	12.50	-45.7	-49.6	10.9	3.95e-03	0	39	0	0	62	5797
2026-01-14 10:57:20.61	199.64	12.59	-46.3	-49.5	12.8	3.50e-05	0	39	0	0	63	5425
2026-01-14 10:57:21.61	199.74	12.68	-46.5	-49.4	13.8	6.10e-06	0	39	0	0	63	5367
2026-01-14 10:57:22.61	199.83	12.76	-46.2	-49.0	14.2	3.80e-06	0	38	0	0	63	5125
2026-01-14 10:57:23.61	199.93	12.85	-46.1	-48.8	14.1	2.20e-06	0	38	0	0	63	5037
2026-01-14 10:57:24.61	200.02	12.93	-45.8	-48.5	14.2	0.00e+00	0	39	0	0	63	4862
2026-01-14 10:57:25.61	200.12	13.02	-45.5	-48.1	14.6	7.00e-07	0	39	0	0	63	4649
2026-01-14 10:57:26.62	200.22	13.11	-45.6	-48.2	14.6	1.50e-06	0	39	0	0	63	4666
2026-01-14 10:57:27.62	200.31	13.20	-45.6	-48.2	14.6	0.00e+00	0	39	0	0	62	4956
2026-01-14 10:57:28.62	200.41	13.28	-45.2	-47.6	15.3	0.00e+00	0	39	0	0	62	4648
2026-01-14 10:57:29.62	200.51	13.37	-44.9	-47.2	16.0	0.00e+00	0	39	0	0	61	4657
2026-01-14 10:57:30.62	200.61	13.46	-44.7	-46.9	16.5	0.00e+00	0	39	0	0	61	4521
2026-01-14 10:57:31.63	200.71	13.55	-44.6	-46.7	16.6	0.00e+00	0	39	0	0	61	4440
2026-01-14 10:57:32.63	200.81	13.64	-44.3	-46.4	16.9	0.00e+00	0	39	0	0	60	4536
2026-01-14 10:57:33.63	200.91	13.72	-44.3	-46.4	16.9	0.00e+00	0	39	0	0	60	4514
2026-01-14 10:57:34.63	201.01	13.81	-44.2	-46.4	17.0	0.00e+00	0	39	0	0	60	4494
2026-01-14 10:57:35.63	201.11	13.90	-44.2	-46.3	17.1	0.00e+00	0	39	0	0	60	4473
2026-01-14 10:57:36.63	201.21	13.99	-44.3	-46.4	17.2	0.00e+00	0	39	0	0	60	4501
2026-01-14 10:57:37.63	201.31	14.08	-44.2	-46.2	17.4	0.00e+00	0	39	0	0	60	4438
2026-01-14 10:57:38.63	201.42	14.17	-44.2	-46.3	17.4	0.00e+00	0	39	0	0	60	4455
2026-01-14 10:57:39.64	201.52	14.26	-44.3	-46.3	17.3	0.00e+00	0	39	0	0	60	4487
2026-01-14 10:57:40.64	201.62	14.35	-44.3	-46.4	17.3	0.00e+00	0	39	0	0	60	4521
2026-01-14 10:57:41.64	201.73	14.44	-44.2	-46.3	17.4	0.00e+00	0	39	0	0	60	4478
2026-01-14 10:57:42.64	201.83	14.53	-44.3	-46.4	17.3	0.00e+00	0	39	0	0	60	4522
2026-01-14 10:57:43.64	201.94	14.62	-44.4	-46.5	17.2	0.00e+00	0	39	0	0	60	4557
2026-01-14 10:57:44.64	202.05	14.72	-44.3	-46.4	17.3	0.00e+00	0	39	0	0	60	4529
2026-01-14 10:57:45.63	202.15	14.81	-44.4	-46.5	17.2	0.00e+00	0	39	0	0	60	4552
2026-01-14 10:57:46.64	202.26	14.90	-44.3	-46.3	17.4	0.00e+00	0	39	0	0	60	4489
2026-01-14 10:57:47.64	202.37	14.99	-44.4	-46.4	17.3	0.00e+00	0	39	0	0	60	4544
2026-01-14 10:57:48.64	202.48	15.08	-44.4	-46.5	17.3	0.00e+00	0	39	0	0	60	4578
2026-01-14 10:57:49.64	202.59	15.18	-44.3	-46.4	17.4	0.00e+00	0	39	0	0	60	4512
2026-01-14 10:57:50.64	202.70	15.27	-44.4	-46.4	17.4	0.00e+00	0	39	0	0	60	4537
2026-01-14 10:57:51.64	202.81	15.36	-44.4	-46.5	17.3	0.00e+00	0	39	0	0	60	4575
2026-01-14 10:57:52.65	202.93	15.46	-44.4	-46.5	17.3	0.00e+00	0	39	0	0	60	4573
2026-01-14 10:57:53.65	203.04	15.55	-44.5	-46.5	17.2	0.00e+00	0	39	0	0	60	4593
2026-01-14 10:57:54.65	203.15	15.64	-44.4	-46.4	17.3	0.00e+00	0	39	0	0	60	4535
2026-01-14 10:57:55.65	203.27	15.74	-44.4	-46.4	17.4	0.00e+00	0	39	0	0	60	4520
2026-01-14 10:57:56.65	203.38	15.83	-44.4	-46.4	17.4	0.00e+00	0	39	0	0	60	4521
2026-01-14 10:57:57.65	203.50	15.93	-44.4	-46.4	17.3	0.00e+00	0	39	0	0	60	4540
2026-01-14 10:57:58.65	203.61	16.02	-44.5	-46.5	17.2	0.00e+00	0	39	0	0	60	4582
2026-01-14 10:57:59.65	203.73	16.12	-44.4	-46.5	17.2	0.00e+00	0	39	0	0	60	4568
2026-01-14 10:58:00.66	203.85	16.21	-44.5	-46.5	17.2	0.00e+00	0	39	0	0	60	4595
2026-01-14 10:58:01.66	203.97	16.31	-44.5	-46.6	17.1	0.00e+00	0	39	0	0	60	4632
2026-01-14 10:58:02.66	204.09	16.41	-44.5	-46.5	17.2	0.00e+00	0	39	0	0	60	4581
2026-01-14 10:58:03.66	204.21	16.50	-44.4	-46.5	17.3	0.00e+00	0	39	0	0	60	4558
2026-01-14 10:58:04.66	204.33	16.60	-44.5	-46.6	17.3	0.00e+00	0	39	0	0	60	4601
2026-01-14 10:58:05.66	204.45	16.69	-44.5	-46.5	17.3	0.00e+00	0	39	0	0	60	4589
2026-01-14 10:58:06.66	204.57	16.79	-44.5	-46.5	17.3	0.00e+00	0	39	0	0	60	4591
2026-01-14 10:58:07.66	204.69	16.89	-44.5	-46.5	17.3	0.00e+00	0	39	0	0	60	4598
2026-01-14 10:58:08.66	204.82	16.99	-44.5	-46.6	17.3	0.00e+00	0	39	0	0	60	4608
2026-01-14 10:58:09.67	204.94	17.09	-44.6	-46.7	17.2	0.00e+00	0	39	0	0	60	4658
2026-01-14 10:58:10.67	205.07	17.18	-44.6	-46.6	17.2	0.00e+00	0	39	0	0	60	4635
2026-01-14 10:58:11.67	205.19	17.28	-44.6	-46.6	17.2	0.00e+00	0	39	0	0	60	4638
2026-01-14 10:58:12.67	205.32	17.38	-44.7	-46.7	17.1	0.00e+00	0	39	0	0	60	4694
2026-01-14 10:58:13.67	205.45	17.48	-44.7	-46.7	17.1	0.00e+00	0	39	0	0	60	4697
2026-01-14 10:58:14.67	205.58	17.58	-44.6	-46.7	17.2	0.00e+00	0	39	0	0	60	4657
2026-01-14 10:58:15.67	205.71	17.68	-44.7	-46.8	17.1	0.00e+00	0	39	0	0	60	4718
2026-01-14 10:58:16.67	205.84	17.78	-44.6	-46.7	17.2	0.00e+00	0	39	0	0	60	4685
2026-01-14 10:58:17.67	205.97	17.88	-44.7	-46.8	17.1	0.00e+00	0	39	0	0	60	4747
2026-01-14 10:58:18.67	206.10	17.98	-44.8	-46.9	17.0	0.00e+00	0	39	0	0	60	4766
2026-01-14 10:58:19.67	206.23	18.08	-44.7	-46.8	17.0	0.00e+00	0	39	0	0	60	4749
2026-01-14 10:58:20.67	206.37	18.18	-44.8	-46.9	17.0	0.00e+00	0	39	0	0	60	4768
2026-01-14 10:58:21.67	206.50	18.28	-44.8	-47.0	16.9	0.00e+00	0	39	0	0	60	4815
2026-01-14 10:58:22.67	206.63	18.38	-44.9	-47.1	16.8	0.00e+00	0	39	0	0	60	4883
2026-01-14 10:58:23.68	206.77	18.48	-44.8	-46.9	16.9	0.00e+00	0	39	0	0	60	4814
2026-01-14 10:58:24.68	206.91	18.59	-44.8	-46.9	17.0	0.00e+00	0	39	0	0	60	4809
2026-01-14 10:58:25.68	207.05	18.69	-44.8	-46.9	17.0	0.00e+00	0	39	0	0	60	4771
2026-01-14 10:58:26.68	207.19	18.79	-44.7	-46.8	17.1	0.00e+00	0	39	0	0	60	4749
2026-01-14 10:58:27.68	207.33	18.89	-44.7	-46.8	17.1	0.00e+00	0	39	0	0	60	4759
2026-01-14 10:58:28.68	207.47	18.99	-44.7	-46.8	17.1	0.00e+00	0	39	0	0	60	4740
2026-01-14 10:58:29.69	207.61	19.10	-44.7	-46.9	17.1	0.00e+00	0	39	0	0	60	4764
2026-01-14 10:58:30.69	207.75	19.20	-44.7	-46.8	17.2	0.00e+00	0	39	0	0	60	4720
2026-01-14 10:58:31.69	207.89	19.31	-44.8	-46.8	17.1	0.00e+00	0	39	0	0	60	4754
2026-01-14 10:58:32.69	208.04	19.41	-44.8	-46.8	17.1	0.00e+00	0	39	0	0	60	4746
2026-01-14 10:58:33.69	208.18	19.51	-44.7	-46.7	17.2	0.00e+00	0	39	0	0	60	4676
2026-01-14 10:58:34.70	208.33	19.62	-44.7	-46.7	17.2	0.00e+00	0	39	0	0	60	4682
2026-01-14 10:58:35.70	208.48	19.72	-44.6	-46.6	17.3	0.00e+00	0	39	0	0	60	4616
2026-01-14 10:58:36.70	208.63	19.83	-44.4	-46.4	17.5	0.00e+00	0	39	0	0	60	4534
2026-01-14 10:58:37.70	208.78	19.93	-44.4	-46.4	17.5	0.00e+00	0	39	0	0	60	4530
2026-01-14 10:58:38.70	208.93	20.04	-44.4	-46.4	17.5	0.00e+00	0	39	0	0	60	4529
2026-01-14 10:58:39.70	209.08	20.15	-44.4	-46.4	17.5	0.00e+00	0	39	0	0	60	4526
2026-01-14 10:58:40.70	209.23	20.25	-44.4	-46.4	17.5	0.00e+00	0	39	0	0	60	4518
2026-01-14 10:58:41.70	209.38	20.36	-44.4	-46.4	17.5	0.00e+00	0	39	0	0	60	4532
2026-01-14 10:58:42.70	209.54	20.46	-44.4	-46.4	17.5	0.00e+00	0	39	0	0	60	4503
2026-01-14 10:58:43.71	209.69	20.57	-44.3	-46.3	17.6	0.00e+00	0	39	0	0	60	4486
2026-01-14 10:58:44.71	209.85	20.68	-44.2	-46.2	17.7	0.00e+00	0	39	0	0	60	4430
2026-01-14 10:58:45.71	210.01	20.79	-44.3	-46.3	17.6	0.00e+00	0	39	0	0	60	4445
2026-01-14 10:58:46.71	210.17	20.89	-44.2	-46.2	17.7	0.00e+00	0	39	0	0	60	4410
2026-01-14 10:58:47.71	210.33	21.00	-44.1	-46.1	17.8	0.00e+00	0	39	0	0	60	4354
2026-01-14 10:58:48.71	210.49	21.11	-44.2	-46.2	17.7	0.00e+00	0	39	0	0	60	4402
2026-01-14 10:58:49.71	210.65	21.22	-44.2	-46.2	17.7	0.00e+00	0	39	0	0	60	4421
2026-01-14 10:58:50.71	210.81	21.32	-44.2	-46.2	17.7	0.00e+00	0	39	0	0	60	4401
2026-01-14 10:58:51.71	210.98	21.43	-44.2	-46.1	17.8	0.00e+00	0	39	0	0	60	4391
2026-01-14 10:58:52.71	211.14	21.54	-44.0	-46.0	17.9	0.00e+00	0	39	0	0	60	4309
2026-01-14 10:58:53.71	211.31	21.65	-44.1	-46.1	17.8	0.00e+00	0	39	0	0	60	4361
2026-01-14 10:58:54.71	211.47	21.76	-44.1	-46.1	17.9	0.00e+00	0	39	0	0	60	4349
2026-01-14 10:58:55.71	211.64	21.87	-44.0	-45.9	18.0	0.00e+00	0	39	0	0	60	4274
2026-01-14 10:58:56.71	211.81	21.98	-44.0	-45.9	18.0	0.00e+00	0	39	0	0	59	4513
2026-01-14 10:58:57.71	211.98	22.09	-44.0	-45.9	17.9	0.00e+00	0	39	0	0	59	4535
2026-01-14 10:58:58.71	212.16	22.20	-43.8	-45.7	18.1	0.00e+00	0	39	0	0	59	4415
2026-01-14 10:58:59.71	212.33	22.31	-43.7	-45.6	18.2	0.00e+00	0	39	0	0	59	4380
2026-01-14 10:59:00.71	212.50	22.42	-43.8	-45.7	18.1	0.00e+00	0	39	0	0	59	4419
2026-01-14 10:59:01.71	212.68	22.53	-43.8	-45.8	18.0	0.00e+00	0	39	0	0	59	4449
2026-01-14 10:59:02.71	212.86	22.64	-43.8	-45.7	18.1	0.00e+00	0	39	0	0	59	4426
2026-01-14 10:59:03.71	213.03	22.75	-43.7	-45.6	18.2	0.00e+00	0	39	0	0	59	4390
2026-01-14 10:59:04.71	213.21	22.86	-43.8	-45.8	18.1	0.00e+00	0	39	0	0	59	4453
2026-01-14 10:59:05.71	213.39	22.98	-43.6	-45.5	18.3	0.00e+00	0	39	0	0	59	4305
2026-01-14 10:59:06.71	213.58	23.09	-43.6	-45.4	18.4	0.00e+00	0	39	0	0	59	4284
2026-01-14 10:59:07.71	213.76	23.20	-43.5	-45.3	18.5	0.00e+00	0	39	0	0	59	4228
2026-01-14 10:59:08.71	213.94	23.31	-43.5	-45.4	18.5	0.00e+00	0	39	0	0	58	4504
2026-01-14 10:59:09.71	214.13	23.42	-43.6	-45.4	18.4	0.00e+00	0	39	0	0	58	4534
2026-01-14 10:59:10.71	214.32	23.54	-43.5	-45.4	18.4	0.00e+00	0	39	0	0	58	4495
2026-01-14 10:59:11.71	214.50	23.65	-43.6	-45.5	18.3	0.00e+00	0	39	0	0	58	4583
2026-01-14 10:59:12.71	214.69	23.76	-43.6	-45.5	18.3	0.00e+00	0	39	0	0	58	4554
2026-01-14 10:59:13.72	214.89	23.88	-43.6	-45.4	18.4	0.00e+00	0	39	0	0	58	4539
2026-01-14 10:59:14.72	215.08	23.99	-43.6	-45.5	18.3	0.00e+00	0	39	0	0	58	4567
2026-01-14 10:59:15.72	215.27	24.10	-43.7	-45.6	18.3	0.00e+00	0	39	0	0	58	4604
2026-01-14 10:59:16.72	215.47	24.22	-43.8	-45.6	18.2	0.00e+00	0	39	0	0	58	4641
2026-01-14 10:59:17.72	215.67	24.33	-43.6	-45.5	18.3	0.00e+00	0	39	0	0	58	4575
2026-01-14 10:59:18.72	215.86	24.45	-43.7	-45.5	18.3	0.00e+00	0	39	0	0	58	4591
2026-01-14 10:59:19.73	216.06	24.56	-43.5	-45.4	18.4	0.00e+00	0	39	0	0	58	4506
2026-01-14 10:59:20.73	216.27	24.67	-43.6	-45.4	18.4	0.00e+00	0	39	0	0	58	4520
2026-01-14 10:59:21.73	216.47	24.79	-43.6	-45.5	18.3	0.00e+00	0	39	0	0	58	4560
2026-01-14 10:59:22.73	216.67	24.90	-43.7	-45.6	18.3	0.00e+00	0	39	0	0	58	4600
2026-01-14 10:59:23.73	216.88	25.02	-43.8	-45.7	18.2	0.00e+00	0	39	0	0	58	4656
2026-01-14 10:59:24.73	217.08	25.13	-43.8	-45.7	18.1	0.00e+00	0	39	0	0	58	4661
2026-01-14 10:59:25.73	217.29	25.25	-43.8	-45.7	18.1	0.00e+00	0	39	0	0	58	4698
2026-01-14 10:59:26.74	217.50	25.36	-43.8	-45.7	18.2	0.00e+00	0	39	0	0	58	4683
2026-01-14 10:59:27.74	217.71	25.48	-43.8	-45.7	18.2	0.00e+00	0	39	0	0	58	4682
2026-01-14 10:59:28.74	217.93	25.59	-43.8	-45.7	18.2	0.00e+00	0	39	0	0	58	4678
2026-01-14 10:59:29.74	218.14	25.71	-43.7	-45.6	18.3	0.00e+00	0	39	0	0	58	4611
2026-01-14 10:59:30.74	218.35	25.82	-43.7	-45.6	18.3	0.00e+00	0	39	0	0	58	4615
2026-01-14 10:59:31.75	218.57	25.94	-43.8	-45.6	18.3	0.00e+00	0	39	0	0	58	4632
2026-01-14 10:59:32.75	218.79	26.05	-43.8	-45.7	18.2	0.00e+00	0	39	0	0	58	4656
2026-01-14 10:59:33.75	219.01	26.17	-43.8	-45.7	18.2	0.00e+00	0	39	0	0	58	4674
2026-01-14 10:59:34.75	219.23	26.29	-43.8	-45.7	18.1	0.00e+00	0	39	0	0	58	4686
2026-01-14 10:59:35.75	219.46	26.40	-43.9	-45.8	18.1	0.00e+00	0	39	0	0	58	4716
2026-01-14 10:59:36.75	219.68	26.52	-44.0	-45.9	18.0	0.00e+00	0	39	0	0	58	4801
2026-01-14 10:59:37.75	219.91	26.63	-44.0	-45.9	18.0	0.00e+00	0	39	0	0	58	4783
2026-01-14 10:59:38.75	220.14	26.75	-44.1	-46.0	17.9	0.00e+00	0	39	0	0	58	4851
2026-01-14 10:59:39.75	220.37	26.86	-44.1	-46.1	17.8	0.00e+00	0	39	0	0	58	4872
2026-01-14 10:59:40.75	220.60	26.98	-44.2	-46.2	17.7	0.00e+00	0	39	0	0	59	4677
2026-01-14 10:59:41.75	220.83	27.09	-44.3	-46.2	17.7	0.00e+00	0	39	0	0	59	4695
2026-01-14 10:59:42.75	221.07	27.21	-44.3	-46.3	17.6	0.00e+00	0	39	0	0	59	4712
2026-01-14 10:59:43.75	221.30	27.33	-44.3	-46.3	17.6	0.00e+00	0	39	0	0	59	4718
2026-01-14 10:59:44.76	221.54	27.44	-44.4	-46.3	17.6	0.00e+00	0	39	0	0	59	4748
2026-01-14 10:59:45.75	221.78	27.56	-44.3	-46.3	17.5	0.00e+00	0	39	0	0	59	4745
2026-01-14 10:59:46.76	222.02	27.67	-44.3	-46.3	17.5	0.00e+00	0	39	0	0	59	4753
2026-01-14 10:59:47.76	222.27	27.79	-44.4	-46.4	17.5	0.00e+00	0	39	0	0	59	4785
2026-01-14 10:59:48.76	222.51	27.90	-44.3	-46.3	17.6	0.00e+00	0	39	0	0	59	4728
2026-01-14 10:59:49.76	222.76	28.02	-44.3	-46.3	17.5	0.00e+00	0	39	0	0	59	4739
2026-01-14 10:59:50.77	223.01	28.14	-44.2	-46.2	17.7	0.00e+00	0	39	0	0	59	4678
2026-01-14 10:59:51.77	223.26	28.25	-44.2	-46.2	17.6	0.00e+00	0	39	0	0	59	4672
2026-01-14 10:59:52.77	223.51	28.37	-44.2	-46.2	17.7	0.00e+00	0	39	0	0	59	4670
2026-01-14 10:59:53.78	223.77	28.48	-44.2	-46.2	17.7	0.00e+00	0	39	0	0	59	4670
2026-01-14 10:59:54.78	224.02	28.60	-44.3	-46.3	17.6	0.00e+00	0	39	0	0	59	4730
2026-01-14 10:59:55.78	224.28	28.71	-44.3	-46.3	17.6	0.00e+00	0	39	0	0	59	4711
2026-01-14 10:59:56.78	224.54	28.82	-44.1	-46.0	17.9	0.00e+00	0	39	0	0	59	4591
2026-01-14 10:59:57.78	224.80	28.94	-44.1	-46.0	17.8	0.00e+00	0	39	0	0	59	4580
2026-01-14 10:59:58.78	225.06	29.05	-43.8	-45.7	18.2	0.00e+00	0	39	0	0	59	4401
2026-01-14 10:59:59.79	225.33	29.17	-43.8	-45.7	18.1	0.00e+00	0	39	0	0	59	4424
2026-01-14 11:00:00.78	225.59	29.28	-43.9	-45.8	18.1	0.00e+00	0	39	0	0	59	4459
2026-01-14 11:00:01.79	225.86	29.40	-43.9	-45.8	18.0	0.00e+00	0	39	0	0	59	4486
2026-01-14 11:00:02.79	226.13	29.51	-44.1	-46.0	17.9	0.00e+00	0	39	0	0	59	4567
2026-01-14 11:00:03.79	226.41	29.62	-44.0	-45.9	17.9	0.00e+00	0	39	0	0	59	4531
2026-01-14 11:00:04.79	226.68	29.73	-44.0	-45.9	17.9	0.00e+00	0	39	0	0	59	4539
2026-01-14 11:00:05.79	226.96	29.85	-43.9	-45.8	18.0	0.00e+00	0	40	0	0	59	4489
2026-01-14 11:00:06.79	227.23	29.96	-43.9	-45.8	18.1	0.00e+00	0	39	0	0	59	4469
2026-01-14 11:00:07.79	227.51	30.07	-43.9	-45.8	18.1	0.00e+00	0	39	0	0	59	4451
2026-01-14 11:00:08.79	227.79	30.18	-43.8	-45.7	18.2	0.00e+00	0	39	0	0	59	4425
2026-01-14 11:00:09.79	228.08	30.29	-43.9	-45.8	18.1	0.00e+00	0	39	0	0	59	4451
2026-01-14 11:00:10.79	228.36	30.41	-44.0	-45.9	18.0	0.00e+00	0	39	0	0	59	4523
2026-01-14 11:00:11.79	228.65	30.52	-43.9	-45.8	18.1	0.00e+00	0	39	0	0	59	4486
2026-01-14 11:00:12.80	228.94	30.63	-44.0	-45.9	18.0	0.00e+00	0	39	0	0	59	4518
2026-01-14 11:00:13.80	229.23	30.74	-44.1	-46.0	17.9	0.00e+00	0	39	0	0	59	4568
2026-01-14 11:00:14.80	229.53	30.85	-44.0	-46.0	17.9	0.00e+00	0	39	0	0	59	4559
2026-01-14 11:00:15.80	229.82	30.96	-44.1	-46.1	17.8	0.00e+00	0	39	0	0	59	4620
2026-01-14 11:00:16.80	230.12	31.06	-44.2	-46.1	17.7	0.00e+00	0	39	0	0	59	4642
2026-01-14 11:00:17.80	230.42	31.17	-44.1	-46.1	17.7	0.00e+00	0	39	0	0	59	4636
2026-01-14 11:00:18.80	230.72	31.28	-44.3	-46.3	17.6	0.00e+00	0	39	0	0	59	4716
2026-01-14 11:00:19.80	231.02	31.39	-44.2	-46.2	17.7	0.00e+00	0	39	0	0	59	4681
2026-01-14 11:00:20.80	231.32	31.49	-44.3	-46.2	17.6	0.00e+00	0	39	0	0	59	4705
2026-01-14 11:00:21.80	231.63	31.60	-44.3	-46.3	17.6	0.00e+00	0	39	0	0	59	4722
2026-01-14 11:00:22.80	231.94	31.71	-44.3	-46.3	17.6	0.00e+00	0	39	0	0	59	4740
2026-01-14 11:00:23.81	232.25	31.81	-44.4	-46.4	17.5	0.00e+00	0	39	0	0	59	4770
2026-01-14 11:00:24.81	232.57	31.92	-44.4	-46.4	17.5	0.00e+00	0	39	0	0	59	4812
2026-01-14 11:00:25.81	232.88	32.02	-44.4	-46.4	17.5	0.00e+00	0	39	0	0	59	4790
2026-01-14 11:00:26.81	233.20	32.13	-44.4	-46.4	17.5	0.00e+00	0	39	0	0	59	4794
2026-01-14 11:00:27.81	233.52	32.23	-44.6	-46.6	17.3	0.00e+00	0	39	0	0	59	4906
2026-01-14 11:00:28.81	233.84	32.33	-44.8	-46.8	17.2	0.00e+00	0	39	0	0	60	4752
2026-01-14 11:00:29.81	234.16	32.43	-44.8	-46.9	17.1	0.00e+00	0	39	0	0	60	4787
2026-01-14 11:00:30.81	234.48	32.53	-44.9	-47.0	17.0	0.00e+00	0	39	0	0	60	4857
2026-01-14 11:00:31.81	234.81	32.64	-44.9	-47.0	17.0	0.00e+00	0	39	0	0	60	4851
2026-01-14 11:00:32.81	235.14	32.73	-45.0	-47.1	17.0	0.00e+00	0	39	0	0	60	4908
2026-01-14 11:00:33.81	235.47	32.83	-44.9	-47.0	17.1	0.00e+00	0	39	0	0	60	4833
2026-01-14 11:00:34.82	235.81	32.93	-44.9	-47.0	17.1	0.00e+00	0	39	0	0	60	4823
2026-01-14 11:00:35.82	236.14	33.03	-44.9	-47.0	17.0	0.00e+00	0	39	0	0	60	4848
2026-01-14 11:00:36.82	236.48	33.13	-45.1	-47.2	16.9	0.00e+00	0	39	0	0	60	4940
2026-01-14 11:00:37.82	236.81	33.22	-45.1	-47.3	16.8	0.00e+00	0	39	0	0	60	5008
2026-01-14 11:00:38.82	237.15	33.32	-45.2	-47.4	16.7	0.00e+00	0	39	0	0	61	4773
2026-01-14 11:00:39.82	237.50	33.41	-45.3	-47.4	16.6	0.00e+00	0	39	0	0	61	4799
2026-01-14 11:00:40.83	237.84	33.51	-45.3	-47.4	16.7	0.00e+00	0	39	0	0	61	4806
2026-01-14 11:00:41.82	238.19	33.60	-45.3	-47.4	16.6	0.00e+00	0	39	0	0	61	4784
2026-01-14 11:00:42.82	238.54	33.69	-45.3	-47.4	16.7	0.00e+00	0	39	0	0	61	4789
2026-01-14 11:00:43.83	238.89	33.78	-45.3	-47.5	16.6	0.00e+00	0	39	0	0	61	4846
2026-01-14 11:00:44.83	239.24	33.87	-45.2	-47.3	16.7	0.00e+00	0	39	0	0	61	4743
2026-01-14 11:00:45.82	239.59	33.96	-45.2	-47.3	16.7	0.00e+00	0	40	0	0	61	4759
2026-01-14 11:00:46.83	239.95	34.05	-45.3	-47.4	16.7	0.00e+00	0	39	0	0	61	4798
2026-01-14 11:00:47.83	240.31	34.14	-45.2	-47.3	16.7	0.00e+00	0	39	0	0	61	4759
2026-01-14 11:00:48.83	240.67	34.22	-45.2	-47.3	16.7	0.00e+00	0	39	0	0	61	4750
2026-01-14 11:00:49.83	241.03	34.31	-45.2	-47.3	16.7	0.00e+00	0	39	0	0	61	4757
2026-01-14 11:00:50.83	241.39	34.39	-45.2	-47.3	16.7	0.00e+00	0	39	0	0	61	4734
2026-01-14 11:00:51.83	241.76	34.48	-45.1	-47.3	16.7	0.00e+00	0	39	0	0	61	4707
2026-01-14 11:00:52.83	242.12	34.56	-45.1	-47.3	16.7	0.00e+00	0	39	0	0	61	4727
2026-01-14 11:00:53.83	242.49	34.64	-45.1	-47.2	16.8	0.00e+00	0	39	0	0	61	4683
2026-01-14 11:00:54.84	242.87	34.72	-45.0	-47.1	17.0	0.00e+00	0	39	0	0	61	4602
2026-01-14 11:00:55.84	243.24	34.80	-44.9	-47.0	17.0	0.00e+00	0	39	0	0	61	4567
2026-01-14 11:00:56.84	243.61	34.88	-44.9	-46.9	17.1	0.00e+00	0	39	0	0	61	4535
2026-01-14 11:00:57.83	243.99	34.95	-44.8	-46.8	17.2	0.00e+00	0	39	0	0	61	4484
2026-01-14 11:00:58.84	244.37	35.03	-45.0	-47.1	16.8	0.00e+00	0	39	0	0	61	4635
2026-01-14 11:00:59.84	244.75	35.10	-45.1	-47.3	16.6	0.00e+00	0	39	0	0	61	4741
2026-01-14 11:01:00.83	245.12	35.18	-45.2	-47.4	16.6	0.00e+00	0	39	0	0	61	4811
2026-01-14 11:01:01.84	245.51	35.25	-45.0	-47.2	16.9	0.00e+00	0	39	0	0	61	4676
2026-01-14 11:01:02.84	245.89	35.32	-44.9	-47.0	17.0	0.00e+00	0	39	0	0	61	4572
2026-01-14 11:01:03.84	246.28	35.39	-44.8	-46.9	17.1	0.00e+00	0	39	0	0	61	4516
2026-01-14 11:01:04.84	246.67	35.46	-44.9	-47.0	17.0	0.00e+00	0	39	0	0	61	4562
2026-01-14 11:01:05.84	247.06	35.52	-45.2	-47.3	16.7	0.00e+00	0	40	0	0	61	4751
2026-01-14 11:01:06.84	247.45	35.59	-45.4	-47.6	16.4	0.00e+00	0	39	0	0	61	4922
2026-01-14 11:01:07.85	247.84	35.65	-45.5	-47.8	16.3	0.00e+00	0	39	0	0	61	4999
2026-01-14 11:01:08.85	248.24	35.71	-45.4	-47.6	16.5	0.00e+00	0	39	0	0	61	4874
2026-01-14 11:01:09.85	248.63	35.78	-45.0	-47.1	16.9	0.00e+00	0	39	0	0	61	4634
2026-01-14 11:01:10.85	249.03	35.84	-44.9	-47.0	17.0	0.00e+00	0	39	0	0	61	4547
2026-01-14 11:01:11.85	249.42	35.89	-45.0	-47.1	16.9	0.00e+00	0	39	0	0	61	4623
2026-01-14 11:01:12.85	249.82	35.95	-45.0	-47.2	16.8	0.00e+00	0	39	0	0	61	4671
2026-01-14 11:01:13.86	250.23	36.01	-45.1	-47.2	16.8	0.00e+00	0	39	0	0	61	4704
2026-01-14 11:01:14.86	250.63	36.06	-45.1	-47.2	16.9	0.00e+00	0	40	0	0	61	4685
2026-01-14 11:01:15.86	251.03	36.11	-45.0	-47.1	17.0	0.00e+00	0	39	0	0	61	4647
2026-01-14 11:01:16.86	251.44	36.17	-45.1	-47.3	16.8	0.00e+00	0	39	0	0	61	4709
2026-01-14 11:01:17.86	251.84	36.21	-45.2	-47.3	16.7	0.00e+00	0	39	0	0	61	4730
2026-01-14 11:01:18.86	252.25	36.26	-45.3	-47.5	16.5	0.00e+00	0	39	0	0	61	4817
2026-01-14 11:01:19.86	252.66	36.31	-45.4	-47.6	16.4	0.00e+00	0	39	0	0	61	4899
2026-01-14 11:01:20.86	253.07	36.35	-45.3	-47.6	16.4	0.00e+00	0	39	0	0	61	4875
2026-01-14 11:01:21.86	253.48	36.40	-45.2	-47.3	16.8	0.00e+00	0	39	0	0	61	4723
2026-01-14 11:01:22.86	253.89	36.44	-45.1	-47.1	16.9	0.00e+00	0	39	0	0	61	4646
2026-01-14 11:01:23.86	254.30	36.48	-45.2	-47.4	16.7	0.00e+00	0	39	0	0	61	4765
2026-01-14 11:01:24.86	254.71	36.52	-45.4	-47.6	16.5	0.00e+00	0	39	0	0	61	4916
2026-01-14 11:01:25.86	255.13	36.56	-45.6	-47.9	16.2	0.00e+00	0	39	0	0	61	5081
2026-01-14 11:01:26.86	255.54	36.59	-45.9	-48.2	15.9	0.00e+00	0	39	0	0	62	4980
2026-01-14 11:01:27.86	255.96	36.63	-45.7	-47.9	16.2	0.00e+00	0	39	0	0	62	4806
2026-01-14 11:01:28.87	256.38	36.66	-45.5	-47.8	16.3	0.00e+00	0	39	0	0	62	4714
2026-01-14 11:01:29.87	256.80	36.69	-45.5	-47.7	16.4	0.00e+00	0	40	0	0	62	4652
2026-01-14 11:01:30.87	257.22	36.72	-45.5	-47.7	16.3	0.00e+00	0	39	0	0	62	4673
2026-01-14 11:01:31.87	257.64	36.74	-45.5	-47.6	16.3	0.00e+00	0	39	0	0	62	4650
2026-01-14 11:01:32.87	258.06	36.77	-45.4	-47.6	16.4	0.00e+00	0	39	0	0	62	4640
2026-01-14 11:01:33.87	258.48	36.79	-45.4	-47.6	16.4	0.00e+00	0	39	0	0	62	4630
2026-01-14 11:01:34.88	258.90	36.82	-45.4	-47.7	16.4	0.00e+00	0	39	0	0	62	4655
2026-01-14 11:01:35.88	259.32	36.84	-45.5	-47.6	16.4	0.00e+00	0	39	0	0	62	4649
2026-01-14 11:01:36.88	259.74	36.86	-45.5	-47.8	16.3	0.00e+00	0	39	0	0	62	4711
2026-01-14 11:01:37.88	260.17	36.87	-45.4	-47.6	16.5	0.00e+00	0	39	0	0	62	4623
2026-01-14 11:01:38.88	260.59	36.89	-45.3	-47.5	16.6	0.00e+00	0	39	0	0	62	4575
2026-01-14 11:01:39.88	261.01	36.90	-45.2	-47.4	16.7	0.00e+00	0	40	0	0	62	4523
2026-01-14 11:01:40.88	261.44	36.91	-45.3	-47.5	16.6	0.00e+00	0	40	0	0	62	4555
2026-01-14 11:01:41.87	261.86	36.92	-45.3	-47.5	16.5	0.00e+00	0	40	0	0	62	4569
2026-01-14 11:01:42.88	262.28	36.93	-45.2	-47.4	16.7	0.00e+00	0	39	0	0	62	4506
2026-01-14 11:01:43.88	262.71	36.94	-45.3	-47.4	16.6	0.00e+00	0	39	0	0	62	4525
2026-01-14 11:01:44.88	263.13	36.95	-45.2	-47.4	16.6	0.00e+00	0	40	0	0	62	4496
2026-01-14 11:01:45.88	263.56	36.95	-45.2	-47.4	16.6	0.00e+00	0	39	0	0	62	4516
2026-01-14 11:01:46.88	263.98	36.95	-45.1	-47.3	16.8	0.00e+00	0	39	0	0	62	4451
2026-01-14 11:01:47.88	264.40	36.95	-45.1	-47.3	16.7	0.00e+00	0	39	0	0	62	4455
2026-01-14 11:01:48.88	264.83	36.95	-45.2	-47.3	16.8	0.00e+00	0	40	0	0	62	4481
2026-01-14 11:01:49.89	265.26	36.94	-45.2	-47.4	16.7	0.00e+00	0	40	0	0	62	4503
2026-01-14 11:01:50.89	265.68	36.94	-45.6	-47.8	16.3	0.00e+00	0	40	0	0	62	4747
2026-01-14 11:01:51.89	266.11	36.93	-45.2	-47.4	16.7	0.00e+00	0	39	0	0	62	4507
2026-01-14 11:01:52.89	266.53	36.92	-45.2	-47.4	16.8	0.00e+00	0	39	0	0	62	4498
2026-01-14 11:01:53.89	266.95	36.91	-45.0	-47.1	16.9	0.00e+00	0	39	0	0	62	4383
2026-01-14 11:01:54.90	267.38	36.90	-45.1	-47.2	16.9	0.00e+00	0	39	0	0	62	4426
2026-01-14 11:01:55.89	267.80	36.89	-45.1	-47.3	16.8	0.00e+00	0	39	0	0	62	4454
2026-01-14 11:01:56.89	268.22	36.87	-45.2	-47.4	16.7	0.00e+00	0	39	0	0	62	4497
2026-01-14 11:01:57.89	268.64	36.85	-45.0	-47.2	16.9	0.00e+00	0	40	0	0	62	4408
2026-01-14 11:01:58.89	269.06	36.83	-45.1	-47.2	16.9	0.00e+00	0	40	0	0	62	4421
2026-01-14 11:01:59.89	269.49	36.81	-45.2	-47.4	16.7	0.00e+00	0	39	0	0	62	4509
2026-01-14 11:02:00.89	269.91	36.79	-45.4	-47.6	16.5	0.00e+00	0	39	0	0	62	4636
2026-01-14 11:02:01.90	270.33	36.77	-45.6	-47.9	16.2	0.00e+00	0	40	0	0	62	4760
2026-01-14 11:02:02.90	270.75	36.74	-45.5	-47.8	16.3	0.00e+00	0	39	0	0	62	4716
2026-01-14 11:02:03.90	271.17	36.71	-45.5	-47.8	16.3	0.00e+00	0	40	0	0	62	4728
2026-01-14 11:02:04.90	271.59	36.69	-45.4	-47.7	16.4	0.00e+00	0	40	0	0	62	4656
2026-01-14 11:02:05.90	272.00	36.65	-45.5	-47.7	16.3	0.00e+00	0	40	0	0	62	4703
2026-01-14 11:02:06.90	272.42	36.62	-45.6	-47.9	16.2	0.00e+00	0	40	0	0	62	4791
2026-01-14 11:02:07.90	272.83	36.59	-45.6	-47.9	16.3	0.00e+00	0	40	0	0	62	4780
2026-01-14 11:02:08.90	273.25	36.55	-45.5	-47.7	16.4	0.00e+00	0	39	0	0	62	4680
2026-01-14 11:02:09.90	273.66	36.52	-45.4	-47.6	16.5	0.00e+00	0	40	0	0	62	4635
2026-01-14 11:02:10.90	274.08	36.48	-45.4	-47.7	16.4	0.00e+00	0	39	0	0	62	4680
2026-01-14 11:02:11.90	274.49	36.44	-45.5	-47.9	16.3	0.00e+00	0	39	0	0	62	4761
2026-01-14 11:02:12.90	274.90	36.39	-45.6	-47.9	16.1	0.00e+00	0	40	0	0	62	4789
2026-01-14 11:02:13.90	275.31	36.35	-45.5	-47.7	16.3	0.00e+00	0	40	0	0	62	4703
2026-01-14 11:02:14.91	275.72	36.30	-45.5	-47.7	16.4	0.00e+00	0	39	0	0	62	4687
2026-01-14 11:02:15.90	276.12	36.26	-45.4	-47.6	16.5	0.00e+00	0	39	0	0	62	4649
2026-01-14 11:02:16.90	276.53	36.21	-45.5	-47.8	16.3	0.00e+00	0	40	0	0	62	4748
2026-01-14 11:02:17.90	276.93	36.16	-45.6	-47.9	16.2	0.00e+00	0	40	0	0	62	4781
2026-01-14 11:02:18.90	277.34	36.11	-45.6	-47.9	16.2	0.00e+00	0	40	0	0	62	4802
2026-01-14 11:02:19.90	277.74	36.06	-45.5	-47.8	16.3	0.00e+00	0	40	0	0	62	4732
2026-01-14 11:02:20.90	278.14	36.00	-45.5	-47.7	16.4	0.00e+00	0	40	0	0	62	4679
2026-01-14 11:02:21.90	278.54	35.95	-45.4	-47.6	16.5	0.00e+00	0	39	0	0	62	4631
2026-01-14 11:02:22.90	278.94	35.89	-45.3	-47.5	16.7	0.00e+00	0	39	0	0	62	4554
2026-01-14 11:02:23.91	279.34	35.83	-45.2	-47.4	16.7	0.00e+00	0	39	0	0	62	4537
2026-01-14 11:02:24.91	279.73	35.77	-45.4	-47.6	16.5	0.00e+00	0	39	0	0	62	4630
2026-01-14 11:02:25.91	280.13	35.71	-45.6	-47.9	16.3	0.00e+00	0	40	0	0	62	4776
2026-01-14 11:02:26.91	280.52	35.65	-45.5	-47.8	16.4	0.00e+00	0	40	0	0	62	4709
2026-01-14 11:02:27.91	280.91	35.58	-45.4	-47.7	16.4	0.00e+00	0	39	0	0	62	4683
2026-01-14 11:02:28.91	281.30	35.52	-45.6	-47.9	16.2	0.00e+00	0	40	0	0	62	4791
2026-01-14 11:02:29.91	281.69	35.45	-45.6	-47.9	16.2	0.00e+00	0	40	0	0	62	4792
2026-01-14 11:02:30.91	282.07	35.39	-45.6	-47.9	16.2	0.00e+00	0	40	0	0	62	4765
2026-01-14 11:02:31.91	282.46	35.32	-45.6	-47.8	16.2	0.00e+00	0	39	0	0	62	4753
2026-01-14 11:02:32.91	282.84	35.25	-45.5	-47.8	16.4	0.00e+00	0	40	0	0	62	4709
2026-01-14 11:02:33.91	283.22	35.17	-45.5	-47.8	16.4	0.00e+00	0	40	0	0	62	4714
2026-01-14 11:02:34.91	283.60	35.10	-45.3	-47.6	16.5	0.00e+00	0	40	0	0	62	4626
2026-01-14 11:02:35.91	283.98	35.03	-45.3	-47.5	16.6	0.00e+00	0	40	0	0	62	4575
2026-01-14 11:02:36.91	284.36	34.95	-45.4	-47.6	16.5	0.00e+00	0	40	0	0	62	4640
2026-01-14 11:02:37.91	284.73	34.88	-45.4	-47.7	16.4	0.00e+00	0	40	0	0	62	4686
2026-01-14 11:02:38.92	285.11	34.80	-45.3	-47.6	16.6	0.00e+00	0	40	0	0	62	4601
2026-01-14 11:02:39.92	285.48	34.72	-45.1	-47.3	16.8	0.00e+00	0	40	0	0	62	4473
2026-01-14 11:02:40.91	285.85	34.64	-45.1	-47.3	16.7	0.00e+00	0	40	0	0	62	4475
2026-01-14 11:02:41.92	286.22	34.56	-45.0	-47.1	16.9	0.00e+00	0	40	0	0	61	4643
2026-01-14 11:02:42.92	286.58	34.48	-44.8	-47.0	17.1	0.00e+00	0	40	0	0	61	4566
2026-01-14 11:02:43.92	286.95	34.39	-44.8	-47.0	17.1	0.00e+00	0	40	0	0	61	4554
2026-01-14 11:02:44.92	287.31	34.31	-44.7	-46.8	17.3	0.00e+00	0	40	0	0	61	4466
2026-01-14 11:02:45.92	287.67	34.23	-44.8	-46.9	17.1	0.00e+00	0	40	0	0	61	4523
2026-01-14 11:02:46.92	288.03	34.14	-45.1	-47.2	16.8	0.00e+00	0	40	0	0	61	4695
2026-01-14 11:02:47.92	288.38	34.05	-45.2	-47.4	16.6	0.00e+00	0	40	0	0	61	4808
2026-01-14 11:02:48.93	288.74	33.96	-45.1	-47.3	16.7	0.00e+00	0	40	0	0	61	4754
2026-01-14 11:02:49.93	289.09	33.88	-44.8	-47.0	17.0	0.00e+00	0	39	0	0	61	4576
2026-01-14 11:02:50.93	289.44	33.79	-44.8	-47.0	17.0	0.00e+00	0	39	0	0	61	4548
2026-01-14 11:02:51.93	289.79	33.70	-44.8	-47.1	16.9	0.00e+00	0	40	0	0	61	4599
2026-01-14 11:02:52.93	290.14	33.60	-44.7	-46.9	17.1	0.00e+00	0	40	0	0	61	4528
2026-01-14 11:02:53.93	290.49	33.51	-44.7	-46.8	17.2	0.00e+00	0	40	0	0	61	4483
2026-01-14 11:02:54.94	290.83	33.42	-44.7	-46.8	17.2	0.00e+00	0	40	0	0	61	4487
2026-01-14 11:02:55.94	291.17	33.32	-44.7	-46.8	17.2	0.00e+00	0	40	0	0	61	4480
2026-01-14 11:02:56.94	291.51	33.23	-44.8	-47.0	17.1	0.00e+00	0	40	0	0	61	4567
2026-01-14 11:02:57.94	291.85	33.13	-44.8	-47.0	17.1	0.00e+00	0	40	0	0	61	4569
2026-01-14 11:02:58.94	292.18	33.04	-44.7	-46.9	17.2	0.00e+00	0	40	0	0	61	4507
2026-01-14 11:02:59.94	292.52	32.94	-44.5	-46.8	17.3	0.00e+00	0	40	0	0	60	4714
2026-01-14 11:03:00.94	292.85	32.84	-44.4	-46.6	17.4	0.00e+00	0	40	0	0	60	4646
2026-01-14 11:03:01.94	293.18	32.74	-44.2	-46.5	17.5	0.00e+00	0	40	0	0	60	4565
2026-01-14 11:03:02.94	293.50	32.64	-44.2	-46.4	17.6	0.00e+00	0	40	0	0	60	4542
2026-01-14 11:03:03.94	293.83	32.54	-44.2	-46.4	17.6	0.00e+00	0	39	0	0	60	4523
2026-01-14 11:03:04.94	294.15	32.44	-44.3	-46.6	17.5	0.00e+00	0	40	0	0	60	4602
2026-01-14 11:03:05.95	294.48	32.34	-44.4	-46.6	17.4	0.00e+00	0	40	0	0	60	4639
2026-01-14 11:03:06.95	294.80	32.24	-44.3	-46.5	17.5	0.00e+00	0	40	0	0	60	4587
2026-01-14 11:03:07.95	295.11	32.14	-44.3	-46.5	17.5	0.00e+00	0	40	0	0	60	4559
2026-01-14 11:03:08.95	295.43	32.03	-44.4	-46.6	17.5	0.00e+00	0	40	0	0	60	4603
2026-01-14 11:03:09.95	295.74	31.93	-44.2	-46.5	17.5	0.00e+00	0	40	0	0	60	4575
2026-01-14 11:03:10.96	296.06	31.82	-44.1	-46.5	17.4	0.00e+00	0	40	0	0	60	4583
2026-01-14 11:03:11.96	296.37	31.72	-44.1	-46.6	17.4	0.00e+00	0	40	0	0	60	4599
2026-01-14 11:03:12.96	296.67	31.61	-44.0	-46.3	17.7	0.00e+00	0	40	0	0	60	4457
2026-01-14 11:03:13.96	296.98	31.51	-44.0	-46.2	17.8	0.00e+00	0	40	0	0	60	4396
2026-01-14 11:03:14.96	297.28	31.40	-44.1	-46.2	17.8	0.00e+00	0	40	0	0	60	4395
2026-01-14 11:03:15.96	297.58	31.30	-44.0	-46.0	17.9	0.00e+00	0	40	0	0	60	4333
2026-01-14 11:03:16.96	297.88	31.19	-44.1	-46.1	17.9	0.00e+00	0	40	0	0	60	4385
2026-01-14 11:03:17.97	298.18	31.08	-44.1	-46.2	17.8	0.00e+00	0	40	0	0	60	4417
2026-01-14 11:03:18.97	298.48	30.97	-44.1	-46.3	17.7	0.00e+00	0	40	0	0	60	4458
2026-01-14 11:03:19.97	298.77	30.86	-44.2	-46.4	17.6	0.00e+00	0	40	0	0	60	4496
2026-01-14 11:03:20.97	299.07	30.75	-44.2	-46.4	17.7	0.00e+00	0	40	0	0	60	4497
2026-01-14 11:03:21.97	299.35	30.65	-44.1	-46.2	17.8	0.00e+00	0	40	0	0	60	4411
2026-01-14 11:03:22.97	299.64	30.54	-43.8	-46.0	18.0	0.00e+00	0	40	0	0	59	4552
2026-01-14 11:03:23.98	299.93	30.43	-43.8	-46.0	17.9	0.00e+00	0	40	0	0	59	4574
2026-01-14 11:03:24.97	300.21	30.32	-43.8	-45.9	18.0	0.00e+00	0	40	0	0	59	4531
2026-01-14 11:03:25.97	300.49	30.21	-43.8	-46.0	17.9	0.00e+00	0	40	0	0	59	4588
2026-01-14 11:03:26.97	300.78	30.09	-44.0	-46.2	17.7	0.00e+00	0	40	0	0	59	4670
2026-01-14 11:03:27.97	301.05	29.98	-44.0	-46.2	17.8	0.00e+00	0	40	0	0	59	4653
2026-01-14 11:03:28.97	301.33	29.87	-44.1	-46.3	17.6	0.00e+00	0	40	0	0	59	4758
2026-01-14 11:03:29.97	301.60	29.76	-44.2	-46.3	17.6	0.00e+00	0	40	0	0	59	4750
2026-01-14 11:03:30.97	301.88	29.65	-44.1	-46.3	17.6	0.00e+00	0	40	0	0	59	4723
2026-01-14 11:03:31.97	302.15	29.54	-44.1	-46.3	17.6	0.00e+00	0	40	0	0	59	4716
2026-01-14 11:03:32.98	302.42	29.42	-43.8	-46.0	17.8	0.00e+00	0	40	0	0	59	4598
2026-01-14 11:03:33.98	302.69	29.31	-43.6	-45.8	17.9	0.00e+00	0	40	0	0	59	4467
2026-01-14 11:03:34.98	302.95	29.20	-43.6	-45.7	18.0	0.00e+00	0	40	0	0	59	4441
2026-01-14 11:03:35.98	303.22	29.08	-43.6	-45.6	18.1	0.00e+00	0	40	0	0	59	4375
2026-01-14 11:03:36.98	303.48	28.97	-43.6	-45.5	18.2	0.00e+00	0	40	0	0	59	4333
2026-01-14 11:03:37.98	303.74	28.86	-43.5	-45.4	18.3	0.00e+00	0	40	0	0	59	4277
2026-01-14 11:03:38.98	303.99	28.74	-43.5	-45.4	18.4	0.00e+00	0	40	0	0	58	4535
2026-01-14 11:03:39.98	304.25	28.63	-43.5	-45.4	18.4	0.00e+00	0	40	0	0	58	4544
2026-01-14 11:03:40.98	304.51	28.52	-43.4	-45.4	18.4	0.00e+00	0	40	0	0	58	4502
2026-01-14 11:03:41.98	304.76	28.40	-43.3	-45.3	18.5	0.00e+00	0	40	0	0	58	4474
2026-01-14 11:03:42.98	305.01	28.29	-43.4	-45.3	18.4	0.00e+00	0	40	0	0	58	4490
2026-01-14 11:03:43.98	305.26	28.17	-43.6	-45.5	18.2	0.00e+00	0	40	0	0	58	4585
2026-01-14 11:03:44.98	305.51	28.06	-43.7	-45.6	18.1	0.00e+00	0	40	0	0	58	4642
2026-01-14 11:03:45.98	305.75	27.94	-43.9	-45.9	17.9	0.00e+00	0	40	0	0	58	4775
2026-01-14 11:03:46.99	306.00	27.83	-43.9	-46.0	17.8	0.00e+00	0	40	0	0	58	4834
2026-01-14 11:03:47.99	306.24	27.71	-43.9	-46.0	17.9	0.00e+00	0	40	0	0	58	4825
2026-01-14 11:03:48.99	306.48	27.60	-43.8	-45.8	18.0	0.00e+00	0	40	0	0	58	4731
2026-01-14 11:03:49.99	306.72	27.49	-43.9	-45.8	18.0	0.00e+00	0	40	0	0	58	4748
2026-01-14 11:03:50.99	306.96	27.37	-43.7	-45.7	18.1	0.00e+00	0	40	0	0	58	4672
2026-01-14 11:03:51.99	307.19	27.26	-43.6	-45.5	18.2	0.00e+00	0	40	0	0	58	4593
2026-01-14 11:03:52.99	307.43	27.14	-43.6	-45.6	18.2	0.00e+00	0	40	0	0	58	4616
2026-01-14 11:03:53.99	307.66	27.03	-43.7	-45.6	18.1	0.00e+00	0	40	0	0	58	4645
2026-01-14 11:03:54.99	307.89	26.91	-43.7	-45.7	18.1	0.00e+00	0	40	0	0	58	4676
2026-01-14 11:03:56.00	308.12	26.80	-43.6	-45.6	18.1	0.00e+00	0	40	0	0	58	4641
2026-01-14 11:03:57.00	308.35	26.68	-43.5	-45.6	18.2	0.00e+00	0	40	0	0	58	4621
2026-01-14 11:03:58.00	308.57	26.57	-43.6	-45.6	18.2	0.00e+00	0	40	0	0	58	4645
2026-01-14 11:03:59.00	308.80	26.45	-43.6	-45.7	18.1	0.00e+00	0	40	0	0	58	4670
2026-01-14 11:04:00.00	309.02	26.34	-43.6	-45.6	18.1	0.00e+00	0	40	0	0	58	4649
2026-01-14 11:04:01.00	309.24	26.22	-43.6	-45.6	18.2	0.00e+00	0	40	0	0	58	4636
2026-01-14 11:04:02.00	309.46	26.11	-43.7	-45.7	18.1	0.00e+00	0	40	0	0	58	4689
2026-01-14 11:04:03.01	309.68	25.99	-43.7	-45.7	18.1	0.00e+00	0	40	0	0	58	4657
2026-01-14 11:04:04.01	309.90	25.88	-43.6	-45.5	18.3	0.00e+00	0	40	0	0	58	4574
2026-01-14 11:04:05.01	310.11	25.76	-43.7	-45.6	18.2	0.00e+00	0	40	0	0	58	4620
2026-01-14 11:04:06.00	310.32	25.65	-43.7	-45.6	18.2	0.00e+00	0	40	0	0	58	4611
2026-01-14 11:04:07.00	310.53	25.54	-43.7	-45.6	18.2	0.00e+00	0	40	0	0	58	4634
2026-01-14 11:04:08.01	310.75	25.42	-43.8	-45.7	18.1	0.00e+00	0	40	0	0	58	4689
2026-01-14 11:04:09.01	310.95	25.31	-43.8	-45.8	18.1	0.00e+00	0	40	0	0	58	4708
2026-01-14 11:04:10.01	311.16	25.19	-43.8	-45.8	18.1	0.00e+00	0	40	0	0	58	4716
2026-01-14 11:04:11.01	311.37	25.08	-43.8	-45.7	18.1	0.00e+00	0	40	0	0	58	4698
2026-01-14 11:04:12.01	311.57	24.97	-43.8	-45.8	18.1	0.00e+00	0	40	0	0	58	4713
2026-01-14 11:04:13.01	311.77	24.85	-43.8	-45.7	18.2	0.00e+00	0	40	0	0	58	4687
2026-01-14 11:04:14.01	311.98	24.74	-43.8	-45.7	18.1	0.00e+00	0	40	0	0	58	4674
2026-01-14 11:04:15.01	312.18	24.63	-43.6	-45.5	18.3	0.00e+00	0	40	0	0	58	4589
2026-01-14 11:04:16.01	312.38	24.51	-43.6	-45.5	18.3	0.00e+00	0	40	0	0	58	4566
2026-01-14 11:04:17.01	312.57	24.40	-43.6	-45.4	18.4	0.00e+00	0	40	0	0	58	4536
2026-01-14 11:04:18.01	312.77	24.29	-43.5	-45.4	18.3	0.00e+00	0	40	0	0	58	4522
2026-01-14 11:04:19.01	312.96	24.18	-43.6	-45.4	18.4	0.00e+00	0	40	0	0	58	4536
2026-01-14 11:04:20.01	313.16	24.06	-43.6	-45.5	18.3	0.00e+00	0	40	0	0	58	4559
2026-01-14 11:04:21.01	313.35	23.95	-43.6	-45.5	18.3	0.00e+00	0	40	0	0	58	4565
2026-01-14 11:04:22.01	313.54	23.84	-43.6	-45.5	18.3	0.00e+00	0	40	0	0	58	4562
2026-01-14 11:04:23.01	313.73	23.73	-43.6	-45.5	18.2	0.00e+00	0	40	0	0	58	4597
2026-01-14 11:04:24.01	313.92	23.62	-43.6	-45.5	18.3	0.00e+00	0	40	0	0	58	4574
2026-01-14 11:04:25.01	314.10	23.50	-43.7	-45.6	18.2	0.00e+00	0	40	0	0	58	4629
2026-01-14 11:04:26.01	314.29	23.39	-43.7	-45.7	18.1	0.00e+00	0	40	0	0	58	4660
2026-01-14 11:04:27.01	314.47	23.28	-43.8	-45.7	18.1	0.00e+00	0	40	0	0	58	4672
2026-01-14 11:04:28.01	314.65	23.17	-43.8	-45.7	18.0	0.00e+00	0	40	0	0	58	4695
2026-01-14 11:04:29.02	314.84	23.06	-43.8	-45.7	18.0	0.00e+00	0	40	0	0	58	4670
2026-01-14 11:04:30.02	315.02	22.95	-43.8	-45.7	18.0	0.00e+00	0	40	0	0	58	4686
2026-01-14 11:04:31.02	315.20	22.84	-43.9	-45.8	17.9	0.00e+00	0	40	0	0	58	4759
2026-01-14 11:04:32.02	315.37	22.73	-43.9	-45.8	17.9	0.00e+00	0	40	0	0	58	4756
2026-01-14 11:04:33.02	315.55	22.62	-44.0	-45.9	17.8	0.00e+00	0	40	0	0	58	4808
2026-01-14 11:04:34.02	315.73	22.51	-43.9	-45.9	17.9	0.00e+00	0	40	0	0	58	4783
2026-01-14 11:04:35.02	315.90	22.40	-44.1	-46.0	17.8	0.00e+00	0	40	0	0	58	4865
2026-01-14 11:04:36.02	316.07	22.29	-43.9	-45.9	17.9	0.00e+00	0	40	0	0	58	4791
2026-01-14 11:04:37.02	316.25	22.18	-44.0	-46.0	17.9	0.00e+00	0	40	0	0	58	4823
2026-01-14 11:04:38.02	316.42	22.07	-44.1	-46.1	17.8	0.00e+00	0	40	0	0	58	4873
2026-01-14 11:04:39.03	316.59	21.96	-44.0	-46.0	17.9	0.00e+00	0	40	0	0	58	4815
2026-01-14 11:04:40.03	316.75	21.85	-44.0	-46.0	17.8	0.00e+00	0	40	0	0	58	4852
2026-01-14 11:04:41.03	316.92	21.74	-44.1	-46.1	17.7	0.00e+00	0	40	0	0	58	4915
2026-01-14 11:04:42.03	317.09	21.63	-44.1	-46.1	17.8	0.00e+00	0	40	0	0	58	4907
2026-01-14 11:04:43.04	317.25	21.52	-44.2	-46.1	17.7	0.00e+00	0	40	0	0	58	4921
2026-01-14 11:04:44.04	317.42	21.42	-44.2	-46.2	17.7	0.00e+00	0	40	0	0	58	4929
2026-01-14 11:04:45.04	317.58	21.31	-44.2	-46.2	17.7	0.00e+00	0	40	0	0	59	4656
2026-01-14 11:04:46.04	317.74	21.20	-44.3	-46.3	17.6	0.00e+00	0	40	0	0	59	4722
2026-01-14 11:04:47.04	317.90	21.10	-44.2	-46.2	17.6	0.00e+00	0	40	0	0	59	4681
2026-01-14 11:04:48.04	318.06	20.99	-44.1	-46.1	17.8	0.00e+00	0	40	0	0	59	4616
2026-01-14 11:04:49.04	318.22	20.88	-44.1	-46.1	17.7	0.00e+00	0	40	0	0	59	4619
2026-01-14 11:04:50.04	318.38	20.78	-44.2	-46.2	17.7	0.00e+00	0	40	0	0	59	4663
2026-01-14 11:04:51.04	318.53	20.67	-43.9	-45.9	17.9	0.00e+00	0	40	0	0	59	4533
2026-01-14 11:04:52.05	318.69	20.56	-43.8	-45.8	18.0	0.00e+00	0	40	0	0	59	4482
2026-01-14 11:04:53.05	318.84	20.46	-43.8	-45.8	18.0	0.00e+00	0	40	0	0	59	4446
2026-01-14 11:04:54.05	319.00	20.35	-43.9	-45.9	17.9	0.00e+00	0	40	0	0	59	4495
2026-01-14 11:04:55.05	319.15	20.25	-43.9	-45.9	17.9	0.00e+00	0	40	0	0	59	4495
2026-01-14 11:04:56.06	319.30	20.14	-43.9	-45.9	17.8	0.00e+00	0	40	0	0	59	4519
2026-01-14 11:04:57.05	319.45	20.04	-44.1	-46.1	17.7	0.00e+00	0	40	0	0	59	4608
2026-01-14 11:04:58.05	319.60	19.93	-43.9	-45.9	17.9	0.00e+00	0	40	0	0	59	4506
2026-01-14 11:04:59.06	319.75	19.83	-43.9	-45.9	17.8	0.00e+00	0	40	0	0	59	4524
2026-01-14 11:05:00.06	319.90	19.72	-44.0	-46.0	17.8	0.00e+00	0	40	0	0	59	4577
2026-01-14 11:05:01.06	320.04	19.62	-43.8	-45.8	17.9	0.00e+00	0	40	0	0	59	4458
2026-01-14 11:05:02.06	320.19	19.52	-43.8	-45.7	18.1	0.00e+00	0	40	0	0	59	4411
2026-01-14 11:05:03.06	320.33	19.41	-43.8	-45.8	18.0	0.00e+00	0	40	0	0	59	4451
2026-01-14 11:05:04.06	320.48	19.31	-43.8	-45.8	18.0	0.00e+00	0	40	0	0	59	4447
2026-01-14 11:05:05.06	320.62	19.21	-43.8	-45.8	17.9	0.00e+00	0	40	0	0	59	4459
2026-01-14 11:05:06.06	320.76	19.11	-43.8	-45.8	17.9	0.00e+00	0	40	0	0	59	4454
2026-01-14 11:05:07.06	320.90	19.01	-43.9	-45.9	17.8	0.00e+00	0	40	0	0	59	4513
2026-01-14 11:05:08.06	321.04	18.90	-43.9	-45.8	17.9	0.00e+00	0	40	0	0	59	4481
2026-01-14 11:05:09.07	321.18	18.80	-44.0	-46.0	17.8	0.00e+00	0	40	0	0	59	4546
2026-01-14 11:05:10.07	321.32	18.70	-44.0	-46.0	17.8	0.00e+00	0	40	0	0	59	4553
2026-01-14 11:05:11.07	321.45	18.60	-44.1	-46.0	17.7	0.00e+00	0	40	0	0	59	4586
2026-01-14 11:05:12.06	321.59	18.50	-44.1	-46.0	17.7	0.00e+00	0	40	0	0	59	4586
2026-01-14 11:05:13.07	321.73	18.40	-44.1	-46.1	17.7	0.00e+00	0	40	0	0	59	4604
2026-01-14 11:05:14.07	321.86	18.30	-44.0	-46.0	17.8	0.00e+00	0	40	0	0	59	4569
2026-01-14 11:05:15.07	321.99	18.20	-44.1	-46.1	17.7	0.00e+00	0	40	0	0	59	4627
2026-01-14 11:05:16.07	322.13	18.10	-44.1	-46.1	17.7	0.00e+00	0	40	0	0	59	4622
2026-01-14 11:05:17.07	322.26	18.00	-44.0	-45.9	17.8	0.00e+00	0	40	0	0	59	4543
2026-01-14 11:05:18.07	322.39	17.90	-44.0	-46.0	17.7	0.00e+00	0	40	0	0	59	4589
2026-01-14 11:05:19.07	322.52	17.80	-44.0	-46.0	17.7	0.00e+00	0	40	0	0	59	4593
2026-01-14 11:05:20.07	322.65	17.70	-44.1	-46.1	17.7	0.00e+00	0	40	0	0	59	4624
2026-01-14 11:05:21.07	322.78	17.60	-44.1	-46.1	17.7	0.00e+00	0	40	0	0	59	4621
2026-01-14 11:05:22.07	322.90	17.51	-44.1	-46.1	17.7	0.00e+00	0	40	0	0	59	4619
2026-01-14 11:05:23.08	323.03	17.41	-44.0	-46.0	17.8	0.00e+00	0	40	0	0	59	4559
2026-01-14 11:05:24.08	323.16	17.31	-44.0	-46.0	17.8	0.00e+00	0	40	0	0	59	4551
2026-01-14 11:05:25.08	323.28	17.21	-44.0	-46.0	17.7	0.00e+00	0	40	0	0	59	4570
2026-01-14 11:05:26.08	323.41	17.11	-44.0	-46.0	17.7	0.00e+00	0	40	0	0	59	4554
2026-01-14 11:05:27.09	323.53	17.02	-44.1	-46.0	17.7	0.00e+00	0	40	0	0	59	4594
2026-01-14 11:05:28.09	323.66	16.92	-44.1	-46.1	17.6	0.00e+00	0	40	0	0	59	4640
2026-01-14 11:05:29.09	323.78	16.82	-44.2	-46.2	17.5	0.00e+00	0	40	0	0	59	4686
2026-01-14 11:05:30.09	323.90	16.73	-44.3	-46.4	17.4	0.00e+00	0	40	0	0	59	4766
2026-01-14 11:05:31.09	324.02	16.63	-44.4	-46.4	17.4	0.00e+00	0	40	0	0	59	4775
2026-01-14 11:05:32.09	324.14	16.54	-44.5	-46.6	17.2	0.00e+00	0	40	0	0	59	4884
2026-01-14 11:05:33.10	324.26	16.44	-44.7	-46.8	17.0	0.00e+00	0	40	0	0	59	4985
2026-01-14 11:05:34.10	324.38	16.35	-44.5	-46.6	17.2	0.00e+00	0	40	0	0	60	4631
2026-01-14 11:05:35.10	324.50	16.25	-44.6	-46.7	17.1	0.00e+00	0	40	0	0	60	4692
2026-01-14 11:05:36.10	324.61	16.16	-44.6	-46.8	17.1	0.00e+00	0	40	0	0	60	4713
2026-01-14 11:05:37.10	324.73	16.06	-44.6	-46.8	17.1	0.00e+00	0	40	0	0	60	4724
2026-01-14 11:05:38.10	324.85	15.97	-44.6	-46.9	17.0	0.00e+00	0	40	0	0	60	4763
2026-01-14 11:05:39.10	324.96	15.87	-44.6	-47.0	16.9	0.00e+00	0	40	0	0	60	4836
2026-01-14 11:05:40.10	325.08	15.78	-44.6	-47.0	16.9	0.00e+00	0	40	0	0	60	4830
2026-01-14 11:05:41.11	325.19	15.69	-44.7	-47.2	16.7	0.00e+00	0	40	0	0	60	4943
2026-01-14 11:05:42.11	325.30	15.59	-44.6	-47.1	16.8	0.00e+00	0	40	0	0	60	4905
2026-01-14 11:05:43.11	325.42	15.50	-44.6	-47.1	16.7	0.00e+00	0	40	0	0	60	4908
2026-01-14 11:05:44.11	325.53	15.41	-44.7	-47.2	16.7	0.00e+00	0	40	0	0	60	4933
2026-01-14 11:05:45.11	325.64	15.32	-44.7	-47.1	16.7	0.00e+00	0	40	0	0	60	4914
2026-01-14 11:05:46.10	325.75	15.23	-44.8	-47.2	16.7	0.00e+00	0	40	0	0	60	4931
2026-01-14 11:05:47.10	325.86	15.13	-45.0	-47.3	16.5	0.00e+00	0	40	0	0	60	5021
2026-01-14 11:05:48.11	325.97	15.04	-44.9	-47.2	16.6	0.00e+00	0	40	0	0	60	4970
2026-01-14 11:05:49.11	326.08	14.95	-44.9	-47.2	16.7	0.00e+00	0	40	0	0	60	4953
2026-01-14 11:05:50.11	326.18	14.86	-44.9	-47.2	16.7	0.00e+00	0	40	0	0	60	4957
2026-01-14 11:05:51.11	326.29	14.77	-44.8	-47.1	16.8	0.00e+00	0	40	0	0	60	4888
2026-01-14 11:05:52.11	326.40	14.68	-44.7	-46.9	16.9	0.00e+00	0	40	0	0	60	4811
2026-01-14 11:05:53.10	326.50	14.59	-44.8	-47.1	16.8	0.00e+00	0	40	0	0	60	4882
2026-01-14 11:05:54.11	326.61	14.50	-44.7	-46.9	16.9	0.00e+00	0	40	0	0	60	4811
2026-01-14 11:05:55.11	326.71	14.41	-44.8	-47.0	16.8	0.00e+00	0	40	0	0	60	4860
2026-01-14 11:05:56.11	326.82	14.32	-44.7	-46.9	16.9	0.00e+00	0	40	0	0	60	4808
2026-01-14 11:05:57.11	326.92	14.23	-44.8	-47.1	16.8	0.00e+00	0	40	0	0	60	4883
2026-01-14 11:05:58.10	327.02	14.14	-44.7	-46.9	16.9	0.00e+00	0	40	0	0	60	4814
2026-01-14 11:05:59.11	327.13	14.05	-44.8	-47.0	16.8	0.00e+00	0	40	0	0	60	4859
2026-01-14 11:06:00.11	327.23	13.97	-44.8	-47.1	16.7	0.00e+00	0	40	0	0	60	4907
2026-01-14 11:06:01.11	327.33	13.88	-44.8	-47.1	16.7	0.00e+00	0	40	0	0	60	4908
2026-01-14 11:06:02.11	327.43	13.79	-44.9	-47.2	16.6	0.00e+00	0	40	0	0	60	4975
2026-01-14 11:06:03.11	327.53	13.70	-45.0	-47.3	16.6	0.00e+00	0	40	0	0	60	5005
2026-01-14 11:06:04.11	327.63	13.61	-45.0	-47.3	16.6	0.00e+00	0	40	0	0	60	5003
2026-01-14 11:06:05.11	327.73	13.53	-45.1	-47.4	16.4	0.00e+00	0	40	0	0	60	5078
2026-01-14 11:06:06.12	327.83	13.44	-45.1	-47.4	16.4	0.00e+00	0	40	0	0	60	5073
2026-01-14 11:06:07.12	327.93	13.35	-45.1	-47.3	16.5	0.00e+00	0	40	0	0	60	5033
2026-01-14 11:06:08.12	328.02	13.27	-45.0	-47.3	16.5	0.00e+00	0	40	0	0	60	5004
2026-01-14 11:06:09.12	328.12	13.18	-45.1	-47.3	16.5	0.00e+00	0	40	0	0	60	5034
2026-01-14 11:06:10.13	328.22	13.09	-45.1	-47.3	16.5	0.00e+00	0	40	0	0	60	5032
2026-01-14 11:06:11.13	328.31	13.01	-45.1	-47.4	16.4	0.00e+00	0	40	0	0	60	5073
2026-01-14 11:06:12.13	328.41	12.92	-45.0	-47.2	16.6	0.00e+00	0	40	0	0	60	4968
2026-01-14 11:06:13.13	328.50	12.84	-45.0	-47.3	16.5	0.00e+00	0	40	0	0	60	5028
2026-01-14 11:06:14.12	328.59	12.75	-45.0	-47.3	16.5	0.00e+00	0	40	0	0	60	5019
2026-01-14 11:06:15.12	328.69	12.67	-45.1	-47.4	16.4	0.00e+00	0	40	0	0	60	5065
2026-01-14 11:06:16.12	328.78	12.58	-45.1	-47.4	16.4	0.00e+00	0	40	0	0	60	5048
2026-01-14 11:06:17.11	328.87	12.50	-45.0	-47.3	16.5	0.00e+00	0	40	0	0	60	5002
2026-01-14 11:06:18.11	328.96	12.42	-45.1	-47.4	16.4	0.00e+00	0	40	0	0	60	5046
2026-01-14 11:06:19.10	329.06	12.33	-45.0	-47.2	16.5	0.00e+00	0	40	0	0	60	4980
2026-01-14 11:06:20.10	329.15	12.25	-45.0	-47.2	16.5	0.00e+00	0	40	0	0	60	4973
2026-01-14 11:06:21.09	329.24	12.17	-45.0	-47.3	16.5	0.00e+00	0	40	0	0	60	5012
2026-01-14 11:06:22.09	329.33	12.08	-45.0	-47.2	16.6	0.00e+00	0	40	0	0	60	4959
2026-01-14 11:06:23.08	329.41	12.00	-45.0	-47.2	16.5	0.00e+00	0	40	0	0	60	4974
2026-01-14 11:06:24.08	329.50	11.92	-44.9	-47.2	16.6	0.00e+00	0	40	0	0	60	4961
2026-01-14 11:06:25.08	329.59	11.83	-44.9	-47.2	16.6	0.00e+00	0	40	0	0	60	4952
2026-01-14 11:06:26.07	329.68	11.75	-44.8	-47.1	16.7	0.00e+00	0	40	0	0	60	4884
2026-01-14 11:06:27.46	329.80	11.64	-44.8	-47.1	16.7	0.00e+00	0	40	0	0	60	4912
2026-01-14 11:06:28.22	329.87	11.58	-44.9	-47.2	16.6	0.00e+00	0	40	0	0	60	4953
2026-01-14 11:06:29.84	330.01	11.44	-44.8	-47.1	16.7	0.00e+00	0	40	0	0	60	4904
2026-01-14 11:06:30.41	330.06	11.40	-44.8	-47.1	16.6	0.00e+00	0	40	0	0	60	4911
2026-01-14 11:06:32.11	330.20	11.26	-44.8	-47.1	16.7	0.00e+00	0	40	0	0	60	4885
2026-01-14 11:06:32.78	330.26	11.21	-44.7	-47.0	16.8	0.00e+00	0	40	0	0	60	4828
2026-01-14 11:06:34.20	330.38	11.09	-44.7	-46.9	16.9	0.00e+00	0	40	0	0	60	4779
2026-01-14 11:06:34.99	330.45	11.03	-44.7	-47.0	16.8	0.00e+00	0	40	0	0	60	4831
2026-01-14 11:06:36.17	330.54	10.93	-44.8	-47.1	16.7	0.00e+00	0	40	0	0	60	4894
2026-01-14 11:06:37.03	330.62	10.86	-44.9	-47.2	16.6	0.00e+00	0	40	0	0	60	4952
2026-01-14 11:06:38.16	330.71	10.77	-44.9	-47.2	16.5	0.00e+00	0	40	0	0	60	4950
2026-01-14 11:06:39.01	330.78	10.71	-44.9	-47.1	16.6	0.00e+00	0	40	0	0	60	4909
2026-01-14 11:06:40.15	330.87	10.62	-45.0	-47.3	16.4	0.00e+00	0	40	0	0	60	5002
2026-01-14 11:06:41.00	330.94	10.55	-45.1	-47.3	16.3	0.00e+00	0	40	0	0	60	5035
2026-01-14 11:06:42.14	331.03	10.46	-45.1	-47.4	16.2	0.00e+00	0	40	0	0	60	5099
2026-01-14 11:06:43.00	331.10	10.39	-45.2	-47.5	16.1	0.00e+00	0	40	0	0	61	4858
2026-01-14 11:06:44.13	331.20	10.30	-45.2	-47.6	16.1	0.00e+00	0	40	0	0	61	4899
2026-01-14 11:06:44.99	331.26	10.24	-45.3	-47.8	15.9	0.00e+00	0	40	0	0	61	4996
2026-01-14 11:06:46.12	331.35	10.15	-45.4	-47.9	15.8	0.00e+00	0	40	0	0	61	5049
2026-01-14 11:06:46.99	331.42	10.08	-45.3	-47.8	15.9	0.00e+00	0	40	0	0	61	5002
2026-01-14 11:06:48.13	331.51	9.99	-45.3	-47.9	15.8	0.00e+00	0	40	0	0	61	5063
2026-01-14 11:06:49.09	331.59	9.92	-45.4	-48.0	15.7	0.00e+00	0	40	0	0	61	5122
2026-01-14 11:06:50.24	331.68	9.83	-45.4	-48.0	15.6	0.00e+00	0	40	0	0	61	5150
2026-01-14 11:06:51.16	331.75	9.76	-45.3	-47.8	15.8	0.00e+00	0	40	0	0	61	5037
2026-01-14 11:06:52.15	331.82	9.68	-45.3	-47.9	15.8	0.00e+00	0	40	0	0	61	5075
2026-01-14 11:06:53.34	331.92	9.59	-45.3	-47.8	15.8	0.00e+00	0	40	0	0	61	5035
2026-01-14 11:06:54.25	331.99	9.52	-45.2	-47.8	15.8	0.00e+00	0	40	0	0	61	5020
2026-01-14 11:06:55.44	332.08	9.43	-45.2	-47.8	15.9	0.00e+00	0	40	0	0	61	4992
2026-01-14 11:06:56.31	332.14	9.36	-45.2	-47.8	15.9	0.00e+00	0	40	0	0	61	4989
2026-01-14 11:06:57.65	332.24	9.26	-45.2	-47.7	15.9	0.00e+00	0	40	0	0	61	4970
2026-01-14 11:06:58.36	332.30	9.21	-45.4	-47.9	15.7	0.00e+00	0	40	0	0	61	5079
2026-01-14 11:06:59.64	332.39	9.11	-45.3	-47.8	15.8	0.00e+00	0	40	0	0	61	5008
2026-01-14 11:07:00.38	332.45	9.05	-45.2	-47.7	15.8	0.00e+00	0	40	0	0	61	4979
2026-01-14 11:07:01.66	332.54	8.96	-46.2	-48.9	14.9	0.00e+00	0	40	0	0	62	5388
2026-01-14 11:07:02.37	332.59	8.91	-51.7	-65.1	3.8	1.42e+00	0	40	104	0	74	17290
2026-01-14 11:07:03.65	332.68	8.81	-51.8	-65.2	3.8	1.49e+00	0	40	104	0	74	17575
2026-01-14 11:07:04.36	332.74	8.76	-51.4	-65.4	3.8	1.49e+00	0	40	104	0	74	17896
2026-01-14 11:07:05.63	332.83	8.66	-52.3	-65.5	3.8	1.49e+00	0	40	104	0	75	17137
2026-01-14 11:07:06.34	332.88	8.61	-52.3	-65.5	3.8	1.49e+00	0	40	104	0	75	17138
2026-01-14 11:07:07.62	332.97	8.51	-52.2	-65.5	3.8	1.49e+00	0	40	104	0	75	17268
2026-01-14 11:07:08.33	333.02	8.46	-52.3	-65.6	3.8	1.49e+00	0	40	104	0	75	17383
2026-01-14 11:07:09.61	333.11	8.37	-51.9	-65.7	3.8	1.49e+00	0	40	104	0	75	17494
2026-01-14 11:07:10.32	333.16	8.32	-52.5	-65.7	3.8	1.49e+00	0	40	104	0	75	17490
2026-01-14 11:07:11.60	333.25	8.22	-52.4	-65.7	3.8	1.49e+00	0	40	104	0	75	17482
2026-01-14 11:07:12.31	333.30	8.17	-52.3	-65.7	3.8	1.49e+00	0	40	104	0	75	17510
2026-01-14 11:07:13.60	333.39	8.08	-52.4	-65.7	3.8	1.49e+00	0	40	104	0	76	16647
2026-01-14 11:07:14.31	333.44	8.02	-52.6	-65.7	3.8	1.49e+00	0	40	104	0	76	16608
2026-01-14 11:07:15.59	333.53	7.93	-52.5	-65.7	3.8	1.49e+00	0	40	104	0	76	16601
2026-01-14 11:07:16.30	333.58	7.88	-52.7	-65.7	3.8	1.49e+00	0	40	104	0	76	16578
2026-01-14 11:07:17.58	333.67	7.79	-52.8	-65.7	3.8	1.49e+00	0	40	104	0	76	16621
2026-01-14 11:07:18.29	333.71	7.74	-52.7	-65.7	3.8	1.49e+00	0	40	104	0	76	16601
2026-01-14 11:07:19.56	333.80	7.65	-52.8	-65.7	3.8	1.49e+00	0	40	104	0	76	16614
2026-01-14 11:07:20.27	333.85	7.59	-52.7	-65.7	3.8	1.49e+00	0	40	104	0	76	16534
2026-01-14 11:07:21.55	333.93	7.50	-52.6	-65.7	3.8	1.49e+00	0	40	104	0	76	16554
2026-01-14 11:07:22.26	333.98	7.45	-52.6	-65.7	3.8	1.49e+00	0	40	104	0	76	16592
2026-01-14 11:07:23.59	334.07	7.36	-52.6	-65.7	3.8	1.49e+00	0	40	104	0	76	16566
2026-01-14 11:07:24.30	334.12	7.31	-52.6	-65.7	3.8	1.49e+00	0	40	104	0	76	16537
2026-01-14 11:07:25.64	334.20	7.21	-52.4	-65.6	3.8	1.49e+00	0	40	104	0	76	16496
2026-01-14 11:07:26.35	334.25	7.16	-52.4	-65.6	3.8	1.49e+00	0	41	104	0	76	16451
2026-01-14 11:07:27.69	334.34	7.07	-52.4	-65.6	3.8	1.49e+00	0	41	104	0	76	16498
2026-01-14 11:07:28.40	334.38	7.02	-52.4	-65.7	3.8	1.49e+00	0	40	104	0	76	16553
2026-01-14 11:07:29.78	334.47	6.92	-52.4	-65.7	3.8	1.49e+00	0	40	104	0	76	16514
2026-01-14 11:07:30.49	334.52	6.87	-52.4	-65.6	3.8	1.49e+00	0	40	104	0	76	16494
2026-01-14 11:07:31.82	334.60	6.78	-52.4	-65.6	3.8	1.49e+00	0	40	104	0	76	16454
2026-01-14 11:07:32.53	334.65	6.73	-52.4	-65.6	3.8	1.49e+00	0	40	104	0	76	16435
2026-01-14 11:07:33.80	334.73	6.64	-52.4	-65.6	3.8	1.49e+00	0	40	104	0	76	16467
2026-01-14 11:07:34.51	334.78	6.59	-52.4	-65.6	3.8	1.49e+00	0	40	104	0	76	16442
2026-01-14 11:07:35.79	334.86	6.50	-52.4	-65.6	3.8	1.49e+00	0	40	104	0	76	16461
2026-01-14 11:07:36.52	334.90	6.45	-52.4	-65.6	3.8	1.49e+00	0	40	104	0	76	16464
2026-01-14 11:07:37.79	334.98	6.36	-52.4	-65.7	3.8	1.49e+00	0	40	104	0	76	16504
2026-01-14 11:07:38.50	335.02	6.32	-52.4	-65.6	3.8	1.49e+00	0	40	104	0	76	16414
2026-01-14 11:07:39.78	335.10	6.23	-52.4	-65.6	3.8	1.49e+00	0	41	104	0	76	16456
2026-01-14 11:07:40.49	335.15	6.18	-52.4	-65.6	3.8	1.49e+00	0	40	104	0	76	16460
2026-01-14 11:07:41.78	335.23	6.09	-52.4	-65.6	3.8	1.49e+00	0	40	104	0	76	16494
2026-01-14 11:07:42.49	335.27	6.04	-52.4	-65.6	3.8	1.49e+00	0	40	104	0	76	16478
2026-01-14 11:07:43.79	335.35	5.95	-52.4	-65.6	3.8	1.49e+00	0	40	104	0	76	16458
2026-01-14 11:07:44.50	335.39	5.91	-52.4	-65.6	3.8	1.49e+00	0	40	104	0	76	16476
2026-01-14 11:07:45.77	335.47	5.82	-52.4	-65.6	3.8	1.49e+00	0	40	104	0	76	16447
2026-01-14 11:07:46.48	335.51	5.77	-52.4	-65.6	3.8	1.49e+00	0	40	104	0	76	16466
2026-01-14 11:07:47.76	335.59	5.69	-52.4	-65.7	3.8	1.49e+00	0	40	104	0	76	16504
2026-01-14 11:07:48.47	335.63	5.64	-52.4	-65.6	3.8	1.49e+00	0	40	104	0	76	16394
2026-01-14 11:07:49.75	335.71	5.55	-52.4	-65.6	3.8	1.49e+00	0	40	104	0	76	16428
2026-01-14 11:07:50.46	335.75	5.51	-52.4	-65.6	3.8	1.49e+00	0	40	104	0	76	16482
2026-01-14 11:07:51.74	335.82	5.42	-52.4	-65.6	3.8	1.49e+00	0	40	104	0	76	16482
2026-01-14 11:07:52.46	335.87	5.37	-52.4	-65.6	3.8	1.49e+00	0	40	104	0	76	16453
2026-01-14 11:07:53.74	335.94	5.29	-52.4	-65.6	3.8	1.49e+00	0	41	104	0	76	16464
2026-01-14 11:07:54.45	335.98	5.24	-52.4	-65.6	3.8	1.49e+00	0	40	104	0	76	16431
2026-01-14 11:07:55.73	336.06	5.16	-52.4	-65.6	3.8	1.49e+00	0	40	104	0	76	16474
2026-01-14 11:07:56.44	336.10	5.11	-52.4	-65.6	3.8	1.49e+00	0	41	104	0	76	16413
2026-01-14 11:07:57.71	336.17	5.02	-52.4	-65.6	3.8	1.49e+00	0	41	104	0	76	16486
2026-01-14 11:07:58.43	336.21	4.98	-52.4	-65.6	3.8	1.49e+00	0	40	104	0	76	16465

#Closed at: 2026-01-14 11:07:59
#Recorded file [0 MB]: D:/Data/31040_260114_135541.dat