passes_logs/2026/01/14/T1/T1__20260114_111944_AQUA_rec.log

#Pass ID: 20260114_111944_AQUA
#Satellite: AQUA
#Configuration: AQUA
#almurnet v.1.7.20251203
#Start time: 2026-01-14 11:19:45

#Version: 2.0.20230620
#Station: T1
#Location: 37.570604 lon 55.790049 lat
#TLE: 1 27424U 02022A   26013.25278823  .00000890  00000+0  18808-3 0  9998
#TLE: 2 27424  98.4079 339.6508 0002047  80.3961  24.1839 14.61818714260637

#Time	Az	El	Level	Level2	SNR	BER	BlckErr	Temp	State	Recorded	gain1	gain2
2026-01-14 11:19:45.33	149.37	5.10	-53.2	-73.0	3.8	7.46e-01	0	39	0	0	78	34171
2026-01-14 11:19:46.32	149.35	5.17	-53.1	-72.6	3.8	7.45e-01	0	39	104	0	76	36660
2026-01-14 11:19:47.31	149.33	5.24	-53.2	-72.6	3.8	7.41e-01	0	39	104	0	76	36832
2026-01-14 11:19:48.30	149.30	5.32	-53.2	-72.7	3.8	7.46e-01	0	39	104	0	76	37321
2026-01-14 11:19:49.30	149.28	5.40	-53.2	-72.9	3.8	7.46e-01	0	39	104	0	76	38175
2026-01-14 11:19:50.29	149.26	5.47	-53.1	-73.1	3.8	7.46e-01	0	39	104	0	76	38946
2026-01-14 11:19:51.28	149.24	5.55	-53.2	-73.2	3.8	7.46e-01	0	39	104	0	76	39389
2026-01-14 11:19:52.29	149.21	5.62	-53.2	-73.1	3.8	7.44e-01	0	39	104	0	76	38735
2026-01-14 11:19:53.32	149.19	5.70	-53.2	-72.7	3.8	7.46e-01	0	39	104	0	76	37067
2026-01-14 11:19:54.34	149.16	5.78	-53.1	-72.1	3.8	7.45e-01	0	39	104	0	76	34643
2026-01-14 11:19:55.38	149.14	5.86	-53.1	-71.0	4.0	7.36e-01	0	39	104	0	76	30645
2026-01-14 11:19:56.41	149.12	5.94	-53.1	-70.3	3.9	7.40e-01	0	39	104	0	76	28318
2026-01-14 11:19:57.45	149.09	6.02	-53.1	-69.8	3.9	7.41e-01	0	39	104	0	76	26566
2026-01-14 11:19:58.49	149.07	6.10	-53.0	-68.6	4.7	7.20e-01	0	39	104	0	76	23305
2026-01-14 11:19:59.51	149.04	6.18	-53.0	-68.2	4.9	7.13e-01	0	39	104	0	76	22033
2026-01-14 11:20:00.54	149.02	6.26	-53.0	-67.9	5.1	7.06e-01	0	39	0	0	76	21330
2026-01-14 11:20:01.56	148.99	6.35	-53.0	-67.6	5.3	7.05e-01	0	39	0	0	76	20557
2026-01-14 11:20:02.56	148.97	6.42	-53.0	-67.3	5.4	7.01e-01	0	39	0	524288	76	19974
2026-01-14 11:20:03.55	148.94	6.50	-53.0	-67.0	5.6	6.96e-01	0	40	0	1048576	76	19254
2026-01-14 11:20:04.54	148.92	6.58	-52.9	-66.5	6.0	6.85e-01	0	40	0	2621440	76	18138
2026-01-14 11:20:05.54	148.89	6.66	-52.9	-65.8	6.5	6.75e-01	0	39	0	4194304	76	16866
2026-01-14 11:20:06.53	148.87	6.74	-52.8	-65.2	7.1	6.63e-01	0	40	0	6291456	76	15639
2026-01-14 11:20:07.52	148.84	6.82	-52.8	-64.3	7.9	6.49e-01	0	39	0	7864320	76	14117
2026-01-14 11:20:08.52	148.81	6.90	-52.7	-63.4	8.8	6.36e-01	0	40	0	9961472	76	12737
2026-01-14 11:20:09.51	148.79	6.98	-52.5	-62.3	9.9	6.26e-01	0	40	0	11534336	76	11267
2026-01-14 11:20:10.51	148.76	7.06	-52.3	-61.3	11.0	6.19e-01	0	40	0	13631488	76	10039
2026-01-14 11:20:11.50	148.74	7.14	-52.1	-60.2	12.1	6.14e-01	0	40	0	15728640	76	8789
2026-01-14 11:20:12.49	148.71	7.23	-51.8	-59.2	13.1	6.09e-01	0	40	0	17301504	75	8345
2026-01-14 11:20:13.49	148.68	7.31	-51.5	-58.1	14.2	6.10e-01	0	39	0	19398656	75	7368
2026-01-14 11:20:14.48	148.66	7.39	-51.2	-57.2	15.2	6.09e-01	0	40	0	20971520	74	6982
2026-01-14 11:20:15.51	148.63	7.47	-50.8	-56.3	16.1	6.08e-01	0	40	0	23068672	73	6649
2026-01-14 11:20:16.53	148.60	7.56	-50.4	-55.3	17.1	6.06e-01	0	40	0	25165824	72	6298
2026-01-14 11:20:17.52	148.57	7.64	-50.0	-54.6	17.7	6.09e-01	0	40	0	26738688	72	5830
2026-01-14 11:20:18.52	148.55	7.73	-49.7	-54.0	18.4	6.09e-01	0	40	0	28835840	71	5743
2026-01-14 11:20:19.51	148.52	7.81	-49.4	-53.5	18.9	6.05e-01	0	40	0	30408704	70	5725
2026-01-14 11:20:20.51	148.49	7.89	-49.2	-53.2	19.2	6.08e-01	0	40	0	32505856	70	5532
2026-01-14 11:20:21.50	148.46	7.98	-49.1	-52.9	19.4	6.07e-01	0	40	0	34078720	70	5379
2026-01-14 11:20:22.50	148.44	8.06	-49.1	-52.9	19.5	6.07e-01	0	40	0	36175872	70	5363
2026-01-14 11:20:23.49	148.41	8.15	-49.2	-53.2	19.2	6.06e-01	0	40	0	37748736	70	5532
2026-01-14 11:20:24.48	148.38	8.23	-49.4	-53.5	18.9	6.05e-01	0	40	0	39845888	70	5725
2026-01-14 11:20:25.48	148.35	8.32	-49.8	-54.1	18.3	6.07e-01	0	40	0	41418752	70	6200
2026-01-14 11:20:26.47	148.32	8.40	-50.3	-55.1	17.4	6.07e-01	0	40	0	43515904	71	6503
2026-01-14 11:20:27.46	148.29	8.49	-50.7	-56.1	16.3	6.08e-01	0	40	0	45613056	72	6948
2026-01-14 11:20:28.46	148.26	8.57	-51.3	-57.6	14.8	6.09e-01	0	40	0	47185920	73	7787
2026-01-14 11:20:29.45	148.23	8.66	-51.9	-59.5	12.8	6.10e-01	0	40	0	49283072	74	9168
2026-01-14 11:20:30.45	148.20	8.75	-52.4	-61.8	10.6	6.23e-01	0	40	0	50855936	75	11181
2026-01-14 11:20:31.44	148.17	8.84	-52.8	-64.8	7.5	6.57e-01	0	40	0	52953088	76	15031
2026-01-14 11:20:32.50	148.14	8.93	-53.0	-68.3	4.9	7.17e-01	0	40	0	54001664	76	22438
2026-01-14 11:20:33.41	148.11	9.01	-53.1	-71.0	4.0	7.39e-01	0	40	104	54001664	76	30721
2026-01-14 11:20:34.55	148.08	9.11	-53.0	-69.0	4.2	7.27e-01	0	40	104	54001664	76	24235
2026-01-14 11:20:35.40	148.05	9.19	-52.6	-63.0	8.8	6.36e-01	0	40	0	55050240	76	12158
2026-01-14 11:20:36.54	148.02	9.29	-53.1	-72.1	3.5	7.50e-01	0	40	104	56623104	76	34606
2026-01-14 11:20:37.40	147.99	9.37	-53.0	-70.3	3.9	7.44e-01	0	40	104	56623104	76	28076
2026-01-14 11:20:38.53	147.95	9.47	-52.5	-60.7	11.8	6.11e-01	0	40	0	57147392	76	9382
2026-01-14 11:20:39.39	147.93	9.55	-52.6	-61.3	10.9	6.18e-01	0	40	0	58720256	76	10046
2026-01-14 11:20:40.87	147.88	9.68	-52.3	-60.4	12.2	6.11e-01	0	40	0	61341696	76	8990
2026-01-14 11:20:41.58	147.85	9.75	-52.3	-60.4	12.1	6.14e-01	0	40	0	62914560	76	9015
2026-01-14 11:20:43.06	147.81	9.88	-52.3	-59.9	12.6	6.11e-01	0	40	0	65536000	76	8511
2026-01-14 11:20:43.77	147.78	9.95	-51.8	-58.6	13.9	6.08e-01	0	40	0	66584576	75	7763
2026-01-14 11:20:45.05	147.74	10.07	-51.1	-56.4	16.1	6.07e-01	0	40	0	69206016	74	6414
2026-01-14 11:20:45.77	147.72	10.13	-50.6	-55.5	13.6	6.08e-01	0	40	0	70254592	73	6081
2026-01-14 11:20:47.05	147.67	10.25	-50.0	-54.3	18.2	6.06e-01	0	40	0	72876032	72	5606
2026-01-14 11:20:47.77	147.65	10.32	-49.9	-53.9	18.7	6.08e-01	0	40	0	74448896	71	5714
2026-01-14 11:20:49.05	147.60	10.44	-49.6	-53.7	18.9	6.07e-01	0	40	0	76546048	71	5544
2026-01-14 11:20:49.77	147.58	10.51	-49.5	-53.5	19.1	6.07e-01	0	40	0	78118912	71	5429
2026-01-14 11:20:51.05	147.53	10.63	-49.3	-53.2	19.3	6.08e-01	0	40	0	80216064	70	5568
2026-01-14 11:20:51.76	147.51	10.70	-49.1	-52.9	19.6	6.06e-01	0	41	0	81788928	70	5362
2026-01-14 11:20:53.04	147.46	10.82	-48.6	-52.2	20.3	6.09e-01	0	40	0	84410368	69	5266
2026-01-14 11:20:53.78	147.44	10.89	-48.3	-51.8	20.6	6.07e-01	0	40	0	85458944	68	5293
2026-01-14 11:20:55.06	147.39	11.01	-48.1	-51.4	21.0	6.08e-01	0	40	0	88080384	68	5088
2026-01-14 11:20:55.79	147.37	11.09	-48.1	-51.3	21.1	6.09e-01	0	41	0	89128960	68	5025
2026-01-14 11:20:57.07	147.32	11.21	-48.1	-51.3	21.1	6.07e-01	0	40	0	91750400	68	5022
2026-01-14 11:20:57.92	147.29	11.29	-48.0	-51.2	21.2	6.06e-01	0	41	0	93323264	68	4935
2026-01-14 11:20:59.06	147.25	11.41	-48.1	-51.3	21.2	6.06e-01	0	41	0	95420416	68	4989
2026-01-14 11:21:00.15	147.21	11.51	-48.1	-51.3	19.6	6.09e-01	0	41	0	97517568	68	4997
2026-01-14 11:21:01.00	147.17	11.60	-48.1	-51.3	21.1	6.05e-01	0	40	0	99090432	68	5033
2026-01-14 11:21:02.14	147.13	11.71	-48.1	-51.3	21.2	6.06e-01	0	40	0	101187584	68	4999
2026-01-14 11:21:03.24	147.09	11.82	-47.9	-51.0	21.3	6.06e-01	0	40	0	103284736	67	5143
2026-01-14 11:21:04.28	147.05	11.93	-47.8	-50.9	21.4	6.08e-01	0	41	0	105381888	67	5094
2026-01-14 11:21:05.47	147.00	12.05	-47.8	-50.8	21.5	6.03e-01	0	41	0	107479040	67	5025
2026-01-14 11:21:06.40	146.97	12.14	-47.7	-50.7	21.7	6.08e-01	0	41	0	109051904	67	4938
2026-01-14 11:21:07.57	146.92	12.26	-47.7	-50.8	21.6	6.07e-01	0	41	0	111149056	67	5011
2026-01-14 11:21:08.42	146.89	12.35	-47.7	-50.7	21.6	6.06e-01	0	40	0	112721920	67	4970
2026-01-14 11:21:09.56	146.84	12.46	-47.6	-50.7	21.7	6.07e-01	0	41	0	115343360	67	4942
2026-01-14 11:21:10.41	146.80	12.55	-47.6	-50.7	21.7	6.07e-01	0	41	0	116916224	67	4942
2026-01-14 11:21:11.55	146.76	12.67	-47.6	-50.7	21.7	6.07e-01	0	41	0	119013376	67	4929
2026-01-14 11:21:12.40	146.72	12.76	-47.5	-50.7	21.7	6.07e-01	0	41	0	120586240	67	4927
2026-01-14 11:21:13.53	146.68	12.88	-47.6	-50.7	21.6	6.09e-01	0	41	0	122683392	67	4960
2026-01-14 11:21:14.38	146.64	12.97	-47.6	-50.7	21.6	6.08e-01	0	41	0	124256256	67	4972
2026-01-14 11:21:15.52	146.59	13.09	-47.6	-50.8	21.6	6.09e-01	0	41	0	126353408	67	4994
2026-01-14 11:21:16.38	146.56	13.18	-47.5	-50.7	21.7	6.07e-01	0	41	0	127926272	67	4957
2026-01-14 11:21:17.51	146.51	13.30	-47.5	-50.7	21.7	6.06e-01	0	41	0	130023424	67	4959
2026-01-14 11:21:18.37	146.47	13.39	-47.5	-50.7	21.6	6.08e-01	0	41	0	131596288	67	4956
2026-01-14 11:21:19.50	146.42	13.52	-47.5	-50.7	21.6	6.07e-01	0	41	0	133693440	67	4960
2026-01-14 11:21:20.36	146.38	13.61	-47.6	-50.7	21.6	6.06e-01	0	41	0	135266304	67	4973
2026-01-14 11:21:21.49	146.33	13.73	-47.6	-50.7	21.7	6.08e-01	0	41	0	137363456	67	4970
2026-01-14 11:21:22.39	146.29	13.83	-47.6	-50.7	21.7	6.07e-01	0	41	0	139460608	67	4938
2026-01-14 11:21:23.67	146.24	13.97	-47.6	-50.7	21.7	6.07e-01	0	41	0	141557760	67	4953
2026-01-14 11:21:24.38	146.20	14.05	-47.8	-50.8	21.6	6.04e-01	0	41	0	143130624	67	5018
2026-01-14 11:21:25.93	146.13	14.22	-47.7	-50.7	21.7	6.08e-01	0	41	0	145752064	67	4977
2026-01-14 11:21:26.64	146.10	14.30	-47.7	-50.6	21.7	6.08e-01	0	41	0	147324928	67	4922
2026-01-14 11:21:27.97	146.04	14.45	-47.7	-50.6	21.8	6.09e-01	0	41	0	149422080	67	4910
2026-01-14 11:21:28.68	146.00	14.53	-47.7	-50.7	21.8	6.09e-01	0	41	0	150994944	67	4930
2026-01-14 11:21:30.02	145.94	14.68	-47.6	-50.5	21.9	6.07e-01	0	41	0	153616384	67	4853
2026-01-14 11:21:30.74	145.91	14.76	-47.6	-50.6	21.8	6.07e-01	0	41	0	154664960	67	4876
2026-01-14 11:21:32.01	145.84	14.91	-47.5	-50.4	21.9	6.06e-01	0	41	0	157286400	67	4805
2026-01-14 11:21:32.73	145.81	14.99	-47.5	-50.5	21.9	6.07e-01	0	41	0	158334976	67	4821
2026-01-14 11:21:34.01	145.75	15.14	-47.4	-50.3	22.1	6.09e-01	0	41	0	160956416	66	4996
2026-01-14 11:21:34.75	145.71	15.23	-47.4	-50.2	22.1	6.05e-01	0	41	0	162529280	66	4973
2026-01-14 11:21:36.03	145.65	15.38	-47.4	-50.3	22.1	6.07e-01	0	41	0	164626432	66	4998
2026-01-14 11:21:36.74	145.61	15.46	-47.4	-50.2	22.1	6.07e-01	0	41	0	166199296	66	4974
2026-01-14 11:21:38.03	145.54	15.61	-47.4	-50.3	22.1	6.10e-01	0	41	0	168296448	66	5009
2026-01-14 11:21:38.74	145.51	15.70	-47.3	-50.2	22.2	6.07e-01	0	41	0	169869312	66	4952
2026-01-14 11:21:40.02	145.44	15.85	-47.3	-50.1	22.3	6.07e-01	0	41	0	171966464	66	4890
2026-01-14 11:21:40.77	145.40	15.94	-47.2	-50.0	22.4	6.09e-01	0	41	0	173539328	66	4824
2026-01-14 11:21:42.05	145.33	16.10	-47.2	-49.9	22.4	6.06e-01	0	41	0	176160768	66	4802
2026-01-14 11:21:42.88	145.29	16.20	-47.1	-49.9	22.4	6.06e-01	0	41	0	177733632	66	4776
2026-01-14 11:21:44.01	145.23	16.33	-47.1	-49.8	22.5	6.09e-01	0	41	0	179830784	66	4751
2026-01-14 11:21:44.86	145.18	16.44	-47.1	-49.8	22.5	6.04e-01	0	41	0	181403648	66	4731
2026-01-14 11:21:46.00	145.12	16.58	-47.0	-49.7	22.6	6.06e-01	0	41	0	183500800	66	4703
2026-01-14 11:21:46.85	145.07	16.69	-47.1	-49.8	22.6	6.06e-01	0	41	0	185073664	66	4721
2026-01-14 11:21:47.99	145.01	16.83	-47.1	-49.8	22.5	6.07e-01	0	41	0	187170816	66	4750
2026-01-14 11:21:48.84	144.96	16.93	-47.2	-50.0	22.4	6.07e-01	0	41	0	188743680	66	4833
2026-01-14 11:21:50.02	144.89	17.08	-47.2	-50.0	22.4	6.07e-01	0	41	0	190840832	66	4831
2026-01-14 11:21:50.87	144.84	17.19	-47.2	-50.1	22.3	6.08e-01	0	41	0	192413696	66	4880
2026-01-14 11:21:52.06	144.78	17.34	-47.3	-50.1	22.2	6.07e-01	0	41	0	195035136	66	4926
2026-01-14 11:21:52.91	144.73	17.45	-47.3	-50.2	22.2	6.07e-01	0	41	0	196608000	66	4940
2026-01-14 11:21:54.08	144.66	17.60	-47.3	-50.2	22.2	6.09e-01	0	41	0	198705152	66	4955
2026-01-14 11:21:54.93	144.61	17.71	-47.4	-50.3	22.1	6.07e-01	0	41	0	200278016	66	4999
2026-01-14 11:21:56.10	144.54	17.86	-47.3	-50.3	22.2	6.07e-01	0	41	0	202375168	66	4990
2026-01-14 11:21:56.95	144.48	17.98	-47.3	-50.3	22.1	6.09e-01	0	41	0	203948032	66	4987
2026-01-14 11:21:58.15	144.41	18.13	-47.4	-50.4	22.1	6.06e-01	0	41	0	206045184	66	5049
2026-01-14 11:21:59.00	144.36	18.25	-47.4	-50.4	22.1	6.07e-01	0	41	0	207618048	66	5051
2026-01-14 11:22:00.23	144.28	18.41	-47.4	-50.4	22.1	6.05e-01	0	41	0	210239488	66	5054
2026-01-14 11:22:01.09	144.23	18.53	-47.4	-50.4	22.1	6.05e-01	0	41	0	211812352	66	5054
2026-01-14 11:22:02.29	144.15	18.69	-47.4	-50.4	22.0	6.08e-01	0	41	0	213909504	66	5096
2026-01-14 11:22:03.14	144.09	18.80	-47.4	-50.5	21.9	6.07e-01	0	41	0	215482368	66	5141
2026-01-14 11:22:04.28	144.02	18.96	-47.3	-50.4	22.1	6.07e-01	0	41	0	217579520	66	5053
2026-01-14 11:22:05.14	143.96	19.08	-47.3	-50.3	22.1	6.07e-01	0	41	0	219152384	66	5039
2026-01-14 11:22:06.40	143.88	19.25	-47.2	-50.2	22.2	6.07e-01	0	41	0	221773824	66	4950
2026-01-14 11:22:07.20	143.83	19.36	-47.2	-50.2	22.2	6.07e-01	0	41	0	223346688	66	4969
2026-01-14 11:22:08.34	143.75	19.52	-47.3	-50.2	22.2	6.08e-01	0	41	0	225443840	66	4970
2026-01-14 11:22:09.19	143.69	19.64	-47.3	-50.3	22.2	6.07e-01	0	41	0	227016704	66	4985
2026-01-14 11:22:10.33	143.61	19.80	-47.3	-50.2	22.3	6.06e-01	0	41	0	229113856	66	4973
2026-01-14 11:22:11.23	143.55	19.93	-47.3	-50.2	22.2	6.07e-01	0	41	0	230686720	66	4977
2026-01-14 11:22:12.24	143.48	20.08	-47.4	-50.3	22.1	6.07e-01	0	41	0	232783872	66	5028
2026-01-14 11:22:13.45	143.39	20.25	-47.4	-50.3	22.2	6.07e-01	0	41	0	234881024	66	5011
2026-01-14 11:22:14.31	143.33	20.38	-47.5	-50.4	22.1	6.08e-01	0	41	0	236453888	66	5043
2026-01-14 11:22:15.65	143.23	20.57	-47.6	-50.5	22.0	6.08e-01	0	41	0	239075328	66	5102
2026-01-14 11:22:16.36	143.18	20.68	-47.6	-50.5	22.0	6.05e-01	0	41	0	240123904	66	5122
2026-01-14 11:22:17.87	143.06	20.90	-47.7	-50.6	21.9	6.09e-01	0	41	0	243269632	66	5216
2026-01-14 11:22:18.58	143.01	21.01	-47.8	-50.7	21.8	6.08e-01	0	41	0	244842496	66	5253
2026-01-14 11:22:19.91	142.91	21.20	-47.9	-50.9	21.7	6.06e-01	0	41	0	246939648	66	5363
2026-01-14 11:22:20.62	142.85	21.31	-47.9	-50.8	21.7	6.07e-01	0	41	0	248512512	66	5328
2026-01-14 11:22:21.90	142.75	21.51	-47.9	-50.8	21.7	6.07e-01	0	41	0	250609664	66	5332
2026-01-14 11:22:22.63	142.70	21.62	-47.9	-50.8	21.7	6.07e-01	0	41	0	252182528	66	5332
2026-01-14 11:22:23.90	142.60	21.81	-47.9	-50.8	21.7	6.06e-01	0	41	0	254279680	66	5330
2026-01-14 11:22:24.61	142.54	21.92	-47.8	-50.7	21.8	6.08e-01	0	41	0	255852544	66	5277
2026-01-14 11:22:26.14	142.41	22.16	-47.5	-50.5	22.1	6.07e-01	0	41	0	258998272	66	5115
2026-01-14 11:22:27.14	142.33	22.32	-47.5	-50.4	22.1	6.08e-01	0	41	0	260571136	66	5080
2026-01-14 11:22:28.13	142.25	22.47	-47.5	-50.5	22.1	6.07e-01	0	41	0	262668288	66	5101
2026-01-14 11:22:29.46	142.14	22.69	-47.5	-50.4	22.1	6.08e-01	0	41	0	264765440	66	5076
2026-01-14 11:22:30.19	142.07	22.80	-47.4	-50.4	22.2	6.07e-01	0	41	0	266338304	66	5049
2026-01-14 11:22:31.47	141.96	23.01	-47.5	-50.5	22.0	6.06e-01	0	41	0	268435456	66	5143
2026-01-14 11:22:32.21	141.90	23.13	-47.6	-50.6	21.9	6.07e-01	0	41	0	270008320	66	5218
2026-01-14 11:22:33.49	141.78	23.34	-47.7	-50.8	21.8	6.09e-01	0	41	0	272629760	66	5288
2026-01-14 11:22:34.20	141.72	23.45	-47.7	-50.8	21.8	6.05e-01	0	41	0	273678336	66	5285
2026-01-14 11:22:35.48	141.60	23.67	-47.7	-50.7	21.8	6.08e-01	0	41	0	276299776	66	5279
2026-01-14 11:22:36.20	141.54	23.79	-47.7	-50.8	21.8	6.06e-01	0	41	0	277348352	66	5280
2026-01-14 11:22:37.48	141.42	24.00	-47.7	-50.7	21.8	6.05e-01	0	41	0	279969792	66	5246
2026-01-14 11:22:38.20	141.35	24.12	-47.8	-50.8	21.8	6.06e-01	0	41	0	281542656	66	5296
2026-01-14 11:22:39.53	141.23	24.35	-47.7	-50.7	21.9	6.07e-01	0	41	0	283639808	66	5219
2026-01-14 11:22:40.24	141.16	24.47	-47.7	-50.6	22.0	6.09e-01	0	41	0	285212672	66	5177
2026-01-14 11:22:41.63	141.02	24.71	-47.7	-50.6	22.0	6.06e-01	0	41	0	287834112	66	5196
2026-01-14 11:22:42.34	140.95	24.83	-47.8	-50.7	21.9	6.07e-01	0	41	0	288882688	66	5220
2026-01-14 11:22:43.68	140.82	25.06	-47.7	-50.6	22.0	6.07e-01	0	41	0	291504128	66	5182
2026-01-14 11:22:44.39	140.75	25.19	-47.8	-50.7	21.9	6.04e-01	0	41	0	293076992	66	5246
2026-01-14 11:22:45.77	140.61	25.43	-47.7	-50.6	22.0	6.06e-01	0	41	0	295698432	66	5213
2026-01-14 11:22:46.75	140.51	25.61	-47.7	-50.5	22.0	6.04e-01	0	41	0	297271296	66	5159
2026-01-14 11:22:48.06	140.37	25.84	-47.7	-50.6	22.0	6.05e-01	0	41	0	299892736	66	5186
2026-01-14 11:22:48.77	140.29	25.97	-47.7	-50.6	22.0	6.08e-01	0	41	0	300941312	66	5210
2026-01-14 11:22:50.43	140.11	26.27	-47.7	-50.6	21.9	6.07e-01	0	41	0	304087040	66	5207
2026-01-14 11:22:50.99	140.05	26.38	-47.7	-50.6	22.0	6.06e-01	0	41	0	305135616	66	5208
2026-01-14 11:22:52.90	139.84	26.73	-47.7	-50.7	21.9	6.08e-01	0	41	0	308805632	66	5222
2026-01-14 11:22:53.47	139.78	26.84	-47.6	-50.5	22.1	6.08e-01	0	41	0	309854208	66	5124
2026-01-14 11:22:55.17	139.58	27.16	-47.4	-50.2	22.3	6.09e-01	0	41	0	312999936	66	4964
2026-01-14 11:22:55.74	139.52	27.27	-47.4	-50.2	22.4	6.08e-01	0	41	0	314048512	66	4937
2026-01-14 11:22:57.45	139.31	27.59	-47.4	-50.2	22.4	6.06e-01	0	41	0	317194240	66	4928
2026-01-14 11:22:58.01	139.25	27.70	-47.4	-50.1	22.4	6.06e-01	0	41	0	318242816	66	4911
2026-01-14 11:22:59.72	139.04	28.03	-47.5	-50.3	22.3	6.07e-01	0	41	0	321912832	66	4995
2026-01-14 11:23:00.29	138.97	28.14	-47.5	-50.3	22.2	6.10e-01	0	41	0	322961408	66	5032
2026-01-14 11:23:01.98	138.76	28.48	-47.3	-50.0	22.5	6.04e-01	0	41	0	326107136	66	4863
2026-01-14 11:23:02.60	138.68	28.60	-47.2	-50.0	22.5	6.06e-01	0	41	0	327155712	66	4836
2026-01-14 11:23:04.16	138.48	28.91	-47.2	-50.0	22.6	6.08e-01	0	41	0	329777152	66	4820
2026-01-14 11:23:04.82	138.40	29.05	-47.0	-49.8	22.8	6.07e-01	0	41	0	331350016	66	4706
2026-01-14 11:23:06.24	138.21	29.33	-47.1	-49.8	22.7	6.10e-01	0	41	0	333971456	66	4729
2026-01-14 11:23:06.95	138.11	29.48	-47.1	-49.9	22.7	6.08e-01	0	41	0	335020032	66	4764
2026-01-14 11:23:08.47	137.91	29.79	-47.2	-49.9	22.6	6.08e-01	0	41	0	338165760	66	4812
2026-01-14 11:23:09.18	137.81	29.94	-47.1	-49.8	22.7	6.07e-01	0	41	0	339214336	66	4743
2026-01-14 11:23:10.53	137.62	30.22	-47.0	-49.7	22.8	6.04e-01	0	41	0	341835776	66	4659
2026-01-14 11:23:11.24	137.52	30.37	-47.0	-49.7	22.8	6.09e-01	0	41	0	343408640	66	4680
2026-01-14 11:23:12.59	137.32	30.66	-46.9	-49.6	22.9	6.09e-01	0	41	0	346030080	65	4907
2026-01-14 11:23:13.57	137.18	30.87	-47.1	-49.8	22.7	6.07e-01	0	41	0	347602944	65	5034
2026-01-14 11:23:14.88	136.99	31.15	-47.1	-49.9	22.6	6.09e-01	0	41	0	350224384	65	5067
2026-01-14 11:23:15.59	136.88	31.31	-47.1	-49.8	22.7	6.08e-01	0	41	0	351272960	65	5038
2026-01-14 11:23:17.21	136.63	31.66	-47.1	-49.9	22.6	6.09e-01	0	41	0	354418688	65	5072
2026-01-14 11:23:17.79	136.54	31.79	-47.2	-50.0	22.5	6.05e-01	0	41	0	355467264	65	5137
2026-01-14 11:23:19.49	136.27	32.17	-47.2	-50.0	22.6	6.07e-01	0	41	0	358612992	65	5134
2026-01-14 11:23:20.06	136.18	32.30	-47.2	-50.0	22.6	6.07e-01	0	41	0	359661568	65	5110
2026-01-14 11:23:21.77	135.90	32.68	-47.1	-49.9	22.7	6.07e-01	0	41	0	362807296	65	5064
2026-01-14 11:23:22.34	135.81	32.81	-47.2	-50.0	22.6	6.07e-01	0	41	0	364380160	65	5123
2026-01-14 11:23:24.04	135.52	33.20	-47.5	-50.4	22.3	6.07e-01	0	41	0	367525888	65	5345
2026-01-14 11:23:24.61	135.42	33.33	-47.5	-50.4	22.2	6.08e-01	0	41	0	368574464	65	5387
2026-01-14 11:23:26.31	135.12	33.73	-47.5	-50.6	22.1	6.07e-01	0	41	0	371720192	65	5466
2026-01-14 11:23:26.88	135.02	33.86	-47.5	-50.5	22.1	6.05e-01	0	41	0	372768768	65	5456
2026-01-14 11:23:28.59	134.71	34.27	-47.4	-50.4	22.2	6.06e-01	0	41	0	375914496	65	5364
2026-01-14 11:23:29.16	134.61	34.40	-47.5	-50.5	22.1	6.07e-01	0	41	0	376963072	65	5446
2026-01-14 11:23:31.08	134.25	34.87	-47.9	-51.0	21.7	6.09e-01	0	41	0	380633088	66	5445
2026-01-14 11:23:31.65	134.14	35.00	-47.9	-51.0	21.7	6.07e-01	0	41	0	381681664	66	5408
2026-01-14 11:23:33.67	133.74	35.50	-48.0	-51.0	21.7	6.09e-01	0	41	0	385351680	66	5427
2026-01-14 11:23:34.24	133.63	35.64	-48.0	-51.1	21.6	6.10e-01	0	41	0	386400256	66	5490
2026-01-14 11:23:35.94	133.29	36.06	-48.4	-51.6	21.1	6.09e-01	0	41	0	389545984	67	5510
2026-01-14 11:23:36.65	133.14	36.24	-48.5	-51.6	21.1	6.07e-01	0	41	0	391118848	67	5520
2026-01-14 11:23:37.93	132.87	36.56	-48.7	-52.0	20.8	6.07e-01	0	41	0	393216000	67	5728
2026-01-14 11:23:38.64	132.72	36.74	-48.9	-52.2	20.7	6.08e-01	0	42	0	394788864	68	5565
2026-01-14 11:23:39.92	132.44	37.07	-48.7	-52.0	20.9	6.05e-01	0	41	0	396886016	68	5412
2026-01-14 11:23:40.90	132.22	37.32	-48.6	-51.8	21.0	6.06e-01	0	41	0	398983168	68	5335
2026-01-14 11:23:41.89	132.00	37.58	-48.8	-52.1	20.8	6.06e-01	0	42	0	400556032	68	5513
2026-01-14 11:23:43.25	131.69	37.93	-49.3	-52.8	20.1	6.10e-01	0	41	0	403177472	69	5640
2026-01-14 11:23:43.96	131.53	38.12	-49.3	-52.7	20.2	6.09e-01	0	41	0	404750336	69	5561
2026-01-14 11:23:45.24	131.22	38.46	-48.9	-52.1	20.8	6.06e-01	0	41	0	406847488	69	5203
2026-01-14 11:23:46.08	131.02	38.68	-48.9	-52.2	20.7	6.07e-01	0	41	0	408420352	69	5266
2026-01-14 11:23:47.53	130.67	39.07	-49.1	-52.6	20.3	6.04e-01	0	42	0	411566080	69	5485
2026-01-14 11:23:48.24	130.49	39.26	-49.0	-52.4	20.5	6.08e-01	0	41	0	412614656	69	5345
2026-01-14 11:23:49.52	130.16	39.61	-48.8	-52.1	20.7	6.07e-01	0	41	0	415236096	69	5209
2026-01-14 11:23:50.24	129.98	39.81	-48.8	-52.1	20.8	6.07e-01	0	41	0	416284672	69	5195
2026-01-14 11:23:51.53	129.64	40.16	-49.2	-52.8	20.2	6.08e-01	0	41	0	418906112	69	5601
2026-01-14 11:23:52.25	129.44	40.36	-49.2	-52.6	20.2	6.05e-01	0	41	0	419954688	69	5498
2026-01-14 11:23:53.53	129.09	40.71	-48.7	-51.9	20.9	6.07e-01	0	41	0	422576128	69	5074
2026-01-14 11:23:54.26	128.89	40.92	-48.7	-51.9	21.0	6.08e-01	0	41	0	424148992	69	5060
2026-01-14 11:23:55.53	128.53	41.27	-48.7	-51.9	21.0	6.05e-01	0	41	0	426246144	69	5060
2026-01-14 11:23:56.24	128.33	41.47	-48.6	-51.8	21.1	6.07e-01	0	41	0	427819008	69	5029
2026-01-14 11:23:57.52	127.95	41.84	-48.7	-51.9	21.0	6.06e-01	0	41	0	429916160	69	5085
2026-01-14 11:23:58.25	127.74	42.05	-48.8	-52.2	20.7	6.06e-01	0	41	0	431489024	69	5237
2026-01-14 11:23:59.64	127.31	42.44	-48.6	-51.8	21.1	6.10e-01	0	42	0	434110464	69	4997
2026-01-14 11:24:00.35	127.09	42.65	-48.4	-51.5	21.4	6.08e-01	0	41	0	435159040	68	5118
2026-01-14 11:24:01.63	126.69	43.02	-48.4	-51.4	21.4	6.06e-01	0	42	0	437780480	68	5097
2026-01-14 11:24:02.34	126.46	43.23	-48.0	-51.1	21.7	6.06e-01	0	42	0	439353344	68	4877
2026-01-14 11:24:03.62	126.04	43.60	-47.9	-51.1	21.6	6.07e-01	0	41	0	441450496	67	5174
2026-01-14 11:24:04.34	125.80	43.81	-48.2	-51.4	21.3	6.08e-01	0	41	0	443023360	67	5386
2026-01-14 11:24:05.62	125.37	44.19	-48.0	-51.1	21.6	6.08e-01	0	41	0	445120512	67	5184
2026-01-14 11:24:06.34	125.12	44.40	-47.9	-50.9	21.8	6.06e-01	0	42	0	446693376	67	5074
2026-01-14 11:24:07.62	124.67	44.78	-47.8	-50.7	22.0	6.07e-01	0	41	0	448790528	67	4961
2026-01-14 11:24:08.39	124.39	45.01	-48.0	-50.9	21.8	6.05e-01	0	41	0	450363392	67	5083
2026-01-14 11:24:09.67	123.92	45.39	-48.2	-51.3	21.4	6.07e-01	0	42	0	452984832	67	5294
2026-01-14 11:24:10.41	123.64	45.61	-47.9	-50.8	21.9	6.09e-01	0	41	0	454033408	67	5012
2026-01-14 11:24:11.69	123.15	46.00	-48.0	-51.0	21.7	6.05e-01	0	41	0	456654848	67	5138
2026-01-14 11:24:12.48	122.85	46.24	-48.1	-51.2	21.5	6.07e-01	0	41	0	458227712	67	5239
2026-01-14 11:24:13.65	122.38	46.59	-47.9	-51.0	21.8	6.06e-01	0	41	0	460324864	67	5101
2026-01-14 11:24:14.66	121.97	46.90	-47.9	-51.0	21.7	6.09e-01	0	41	0	462422016	67	5135
2026-01-14 11:24:15.66	121.56	47.20	-48.1	-51.4	21.4	6.07e-01	0	42	0	463994880	67	5357
2026-01-14 11:24:16.65	121.14	47.51	-47.9	-51.2	21.6	6.06e-01	0	42	0	466092032	67	5234
2026-01-14 11:24:17.65	120.71	47.81	-48.0	-51.2	21.5	6.08e-01	0	41	0	467664896	67	5229
2026-01-14 11:24:18.64	120.28	48.11	-48.1	-51.1	21.6	6.07e-01	0	41	0	469762048	67	5215
2026-01-14 11:24:19.64	119.83	48.42	-48.1	-51.1	21.6	6.06e-01	0	42	0	471334912	67	5200
2026-01-14 11:24:20.63	119.38	48.72	-48.4	-51.4	21.4	6.09e-01	0	41	0	473432064	67	5369
2026-01-14 11:24:21.63	118.91	49.03	-48.0	-50.9	21.7	6.08e-01	0	42	0	475004928	67	5098
2026-01-14 11:24:22.62	118.44	49.34	-48.0	-50.9	21.8	6.07e-01	0	42	0	477102080	67	5088
2026-01-14 11:24:23.61	117.96	49.64	-48.0	-51.0	21.8	6.07e-01	0	41	0	479199232	67	5122
2026-01-14 11:24:24.61	117.46	49.95	-48.0	-51.0	21.7	6.08e-01	0	41	0	480772096	67	5127
2026-01-14 11:24:25.61	116.96	50.25	-47.8	-50.7	21.9	6.05e-01	0	41	0	482869248	67	4963
2026-01-14 11:24:26.60	116.44	50.56	-47.7	-50.6	22.1	6.08e-01	0	41	0	484442112	67	4871
2026-01-14 11:24:27.60	115.92	50.87	-47.8	-50.7	21.9	6.06e-01	0	41	0	486539264	67	4978
2026-01-14 11:24:28.59	115.38	51.17	-47.8	-50.7	22.0	6.07e-01	0	41	0	488112128	67	4978
2026-01-14 11:24:29.67	114.79	51.50	-47.5	-50.4	22.3	6.08e-01	0	42	0	490209280	66	5052
2026-01-14 11:24:30.55	114.30	51.77	-47.7	-50.6	22.1	6.05e-01	0	42	0	491782144	66	5173
2026-01-14 11:24:31.88	113.53	52.17	-47.8	-50.6	22.0	6.05e-01	0	42	0	494403584	66	5205
2026-01-14 11:24:32.59	113.12	52.38	-47.7	-50.5	22.2	6.07e-01	0	42	0	495976448	66	5155
2026-01-14 11:24:33.87	112.35	52.77	-47.4	-50.2	22.5	6.07e-01	0	42	0	498073600	66	4933
2026-01-14 11:24:34.60	111.91	52.99	-47.6	-50.5	22.2	6.08e-01	0	41	0	499646464	66	5104
2026-01-14 11:24:35.87	111.11	53.37	-47.5	-50.3	22.4	6.06e-01	0	42	0	501743616	66	4992
2026-01-14 11:24:36.68	110.60	53.61	-47.4	-50.2	22.5	6.08e-01	0	42	0	503316480	66	4958
2026-01-14 11:24:37.81	109.86	53.94	-47.4	-50.2	22.4	6.06e-01	0	42	0	505413632	66	4983
2026-01-14 11:24:38.84	109.18	54.24	-47.3	-50.0	22.6	6.07e-01	0	42	0	507510784	66	4830
2026-01-14 11:24:39.83	108.51	54.53	-47.4	-50.2	22.5	6.07e-01	0	42	0	509607936	66	4959
2026-01-14 11:24:41.03	107.67	54.87	-47.5	-50.3	22.4	6.06e-01	0	41	0	511705088	66	5031
2026-01-14 11:24:41.92	107.04	55.13	-47.3	-50.1	22.5	6.07e-01	0	42	0	513277952	66	4915
2026-01-14 11:24:43.24	106.09	55.50	-48.0	-50.9	21.9	6.06e-01	0	41	0	515899392	66	5351
2026-01-14 11:24:43.95	105.56	55.70	-47.8	-50.6	22.1	6.04e-01	0	41	0	516947968	66	5201
2026-01-14 11:24:45.45	104.43	56.11	-48.1	-51.1	21.7	6.06e-01	0	41	0	520093696	66	5470
2026-01-14 11:24:46.16	103.88	56.30	-47.9	-50.8	21.9	6.06e-01	0	42	0	521142272	66	5336
2026-01-14 11:24:47.44	102.87	56.64	-48.0	-51.0	21.8	6.07e-01	0	42	0	523763712	66	5416
2026-01-14 11:24:48.53	101.99	56.93	-48.5	-51.7	21.2	6.06e-01	0	41	0	525860864	67	5540
2026-01-14 11:24:49.65	101.07	57.22	-48.3	-51.3	21.4	6.06e-01	0	42	0	527958016	67	5310
2026-01-14 11:24:50.70	100.19	57.48	-48.6	-51.8	21.0	6.07e-01	0	42	0	529530880	67	5607
2026-01-14 11:24:51.80	99.24	57.76	-48.8	-51.9	21.0	6.06e-01	0	41	0	531628032	68	5350
2026-01-14 11:24:52.73	98.43	57.98	-49.0	-52.2	20.8	6.07e-01	0	41	0	533725184	68	5572
2026-01-14 11:24:53.73	97.54	58.22	-48.6	-51.8	21.1	6.06e-01	0	42	0	535298048	68	5328
2026-01-14 11:24:54.72	96.65	58.45	-48.9	-52.4	20.5	6.06e-01	0	41	0	537395200	68	5715
2026-01-14 11:24:55.72	95.73	58.67	-48.8	-52.1	20.8	6.07e-01	0	41	0	538968064	68	5523
2026-01-14 11:24:57.00	94.52	58.95	-49.1	-52.5	20.4	6.07e-01	0	42	0	541589504	69	5435
2026-01-14 11:24:57.71	93.85	59.11	-49.0	-52.3	20.7	6.07e-01	0	42	0	543162368	69	5280
2026-01-14 11:24:59.35	92.25	59.44	-49.1	-52.6	20.3	6.07e-01	0	42	0	545783808	69	5514
2026-01-14 11:24:59.92	91.69	59.55	-49.1	-52.7	20.2	6.07e-01	0	42	0	546832384	69	5571
2026-01-14 11:25:01.63	89.97	59.88	-49.1	-52.6	20.3	6.09e-01	0	42	0	550502400	69	5513
2026-01-14 11:25:02.20	89.39	59.98	-48.8	-52.2	20.7	6.05e-01	0	41	0	551550976	69	5279
2026-01-14 11:25:03.90	87.62	60.27	-49.0	-52.5	20.5	6.07e-01	0	41	0	554696704	69	5410
2026-01-14 11:25:04.47	87.02	60.36	-48.7	-52.2	20.7	6.08e-01	0	42	0	555745280	69	5248
2026-01-14 11:25:06.18	85.19	60.62	-48.7	-52.3	20.6	6.06e-01	0	42	0	558891008	69	5333
2026-01-14 11:25:06.75	84.58	60.70	-48.6	-52.3	20.7	6.06e-01	0	42	0	559939584	69	5283
2026-01-14 11:25:08.45	82.71	60.93	-49.2	-52.8	20.2	6.06e-01	0	42	0	563085312	68	5954
2026-01-14 11:25:09.02	82.08	61.00	-48.9	-52.3	20.6	6.07e-01	0	42	0	564133888	68	5654
2026-01-14 11:25:10.73	80.16	61.19	-49.2	-52.6	20.4	6.05e-01	0	41	0	567279616	69	5494
2026-01-14 11:25:11.53	79.25	61.27	-49.1	-52.4	20.6	6.07e-01	0	42	0	568852480	69	5354
2026-01-14 11:25:12.67	77.95	61.38	-49.0	-52.4	20.6	6.06e-01	0	42	0	570949632	69	5343
2026-01-14 11:25:13.52	76.98	61.44	-49.3	-52.7	20.3	6.07e-01	0	42	0	572522496	69	5581
2026-01-14 11:25:14.66	75.66	61.52	-49.2	-52.5	20.5	6.09e-01	0	42	0	574619648	69	5427
2026-01-14 11:25:15.51	74.67	61.58	-49.4	-52.8	20.2	6.06e-01	0	42	0	576192512	69	5617
2026-01-14 11:25:16.65	73.34	61.63	-49.7	-53.3	19.7	6.08e-01	0	42	0	578289664	70	5627
2026-01-14 11:25:17.51	72.33	61.67	-49.4	-52.9	20.1	6.08e-01	0	42	0	579862528	70	5372
2026-01-14 11:25:18.64	71.00	61.70	-49.8	-53.7	19.4	6.08e-01	0	42	0	581959680	70	5878
2026-01-14 11:25:19.49	70.00	61.72	-49.4	-53.0	20.0	6.06e-01	0	42	0	583532544	70	5463
2026-01-14 11:25:20.63	68.65	61.73	-49.4	-52.9	20.1	6.08e-01	0	42	0	586153984	70	5377
2026-01-14 11:25:21.48	67.65	61.73	-49.4	-52.8	20.2	6.07e-01	0	41	0	587726848	70	5335
2026-01-14 11:25:22.62	66.31	61.72	-49.7	-53.2	19.9	6.08e-01	0	42	0	589824000	70	5539
2026-01-14 11:25:23.47	65.31	61.70	-49.3	-52.7	20.4	6.06e-01	0	42	0	591396864	70	5226
2026-01-14 11:25:24.61	63.97	61.66	-49.4	-52.9	20.1	6.07e-01	0	42	0	593494016	70	5388
2026-01-14 11:25:25.46	62.97	61.63	-49.5	-53.0	20.0	6.08e-01	0	42	0	595066880	70	5420
2026-01-14 11:25:26.60	61.64	61.57	-49.4	-52.8	20.2	6.06e-01	0	42	0	597164032	70	5312
2026-01-14 11:25:27.45	60.65	61.51	-49.4	-52.8	20.1	6.07e-01	0	41	0	598736896	70	5335
2026-01-14 11:25:28.59	59.34	61.43	-49.7	-53.4	19.7	6.06e-01	0	42	0	600834048	70	5666
2026-01-14 11:25:29.44	58.36	61.36	-49.6	-53.2	19.8	6.07e-01	0	42	0	602406912	70	5537
2026-01-14 11:25:30.58	57.06	61.25	-49.5	-52.9	20.2	6.09e-01	0	42	0	604504064	70	5349
2026-01-14 11:25:31.43	56.10	61.17	-49.8	-53.4	19.7	6.08e-01	0	42	0	606076928	70	5684
2026-01-14 11:25:32.65	54.73	61.03	-49.7	-53.2	19.8	6.07e-01	0	42	0	608698368	70	5579
2026-01-14 11:25:33.50	53.79	60.93	-49.5	-53.1	20.0	6.08e-01	0	42	0	610271232	70	5475
2026-01-14 11:25:34.64	52.54	60.78	-49.8	-53.6	19.6	6.07e-01	0	42	0	612368384	70	5793
2026-01-14 11:25:35.49	51.61	60.66	-49.7	-53.2	19.8	6.05e-01	0	42	0	613941248	70	5572
2026-01-14 11:25:36.83	50.17	60.46	-49.1	-52.3	20.7	6.08e-01	0	41	0	616562688	70	5015
2026-01-14 11:25:37.55	49.41	60.35	-49.1	-52.3	20.7	6.06e-01	0	42	0	617611264	70	5019
2026-01-14 11:25:39.05	47.84	60.10	-49.4	-52.8	20.3	6.07e-01	0	42	0	620232704	70	5291
2026-01-14 11:25:40.03	46.84	59.93	-49.1	-52.3	20.7	6.06e-01	0	42	0	622329856	70	5032
2026-01-14 11:25:41.34	45.51	59.68	-48.9	-52.1	20.9	6.08e-01	0	41	0	624951296	69	5199
2026-01-14 11:25:42.08	44.77	59.54	-49.4	-52.8	20.3	6.08e-01	0	42	0	625999872	69	5597
2026-01-14 11:25:43.36	43.52	59.29	-49.3	-52.6	20.4	6.08e-01	0	42	0	628621312	69	5488
2026-01-14 11:25:44.09	42.81	59.14	-48.8	-52.0	20.9	6.07e-01	0	42	0	629669888	69	5136
2026-01-14 11:25:45.36	41.61	58.86	-48.9	-52.2	20.7	6.08e-01	0	42	0	632291328	69	5265
2026-01-14 11:25:46.09	40.93	58.70	-49.2	-52.7	20.3	6.06e-01	0	41	0	633864192	69	5553
2026-01-14 11:25:47.37	39.75	58.42	-48.9	-52.1	20.8	6.04e-01	0	42	0	635961344	69	5192
2026-01-14 11:25:48.09	39.10	58.25	-48.7	-51.8	21.1	6.05e-01	0	42	0	637534208	69	5016
2026-01-14 11:25:49.37	37.96	57.95	-49.3	-52.8	20.3	6.07e-01	0	42	0	639631360	69	5608
2026-01-14 11:25:50.08	37.35	57.77	-49.0	-52.4	20.6	6.07e-01	0	42	0	641204224	69	5360
2026-01-14 11:25:51.45	36.17	57.44	-48.0	-51.2	21.7	6.07e-01	0	42	0	643825664	68	4931
2026-01-14 11:25:52.16	35.58	57.26	-47.9	-51.0	21.8	6.09e-01	0	42	0	644874240	67	5149
2026-01-14 11:25:53.45	34.52	56.93	-48.4	-51.7	21.2	6.04e-01	0	42	0	647495680	67	5532
2026-01-14 11:25:54.16	33.94	56.74	-48.3	-51.4	21.4	6.07e-01	0	41	0	648544256	67	5355
2026-01-14 11:25:55.44	32.93	56.40	-47.7	-50.6	22.1	6.06e-01	0	42	0	651165696	67	4921
2026-01-14 11:25:56.18	32.36	56.20	-47.9	-50.9	21.8	6.08e-01	0	42	0	652738560	67	5091
2026-01-14 11:25:57.46	31.38	55.85	-47.7	-50.8	21.9	6.06e-01	0	42	0	654835712	67	5014
2026-01-14 11:25:58.17	30.85	55.66	-47.4	-50.4	22.3	6.09e-01	0	42	0	656408576	66	5055
2026-01-14 11:25:59.45	29.92	55.30	-47.2	-50.0	22.7	6.08e-01	0	42	0	658505728	66	4832
2026-01-14 11:26:00.17	29.40	55.10	-47.2	-50.0	22.7	6.08e-01	0	42	0	660078592	66	4838
2026-01-14 11:26:01.45	28.50	54.73	-47.3	-50.1	22.6	6.07e-01	0	42	0	662175744	66	4892
2026-01-14 11:26:02.19	27.99	54.52	-47.2	-49.9	22.7	6.07e-01	0	42	0	663748608	66	4796
2026-01-14 11:26:03.47	27.13	54.15	-47.1	-49.8	22.9	6.07e-01	0	42	0	666370048	66	4715
2026-01-14 11:26:04.18	26.66	53.94	-47.1	-49.9	22.8	6.07e-01	0	42	0	667418624	66	4789
2026-01-14 11:26:05.84	25.59	53.45	-47.1	-49.9	22.8	6.08e-01	0	42	0	670564352	66	4773
2026-01-14 11:26:06.41	25.23	53.28	-46.9	-49.6	22.9	6.06e-01	0	42	0	671612928	65	4924
2026-01-14 11:26:08.11	24.19	52.78	-46.7	-49.5	23.1	6.08e-01	0	42	0	674758656	65	4842
2026-01-14 11:26:08.73	23.81	52.59	-47.1	-50.1	22.6	6.09e-01	0	42	0	676331520	65	5172
2026-01-14 11:26:10.29	22.90	52.12	-46.7	-49.4	23.1	6.07e-01	0	42	0	678952960	65	4806
2026-01-14 11:26:11.36	22.29	51.80	-46.9	-49.7	22.9	6.06e-01	0	42	0	681050112	65	4956
2026-01-14 11:26:12.22	21.81	51.53	-47.0	-49.8	22.8	6.05e-01	0	42	0	682622976	65	5022
2026-01-14 11:26:13.35	21.19	51.19	-46.7	-49.4	23.1	6.09e-01	0	42	0	684720128	65	4800
2026-01-14 11:26:14.21	20.72	50.93	-47.0	-49.8	22.8	6.07e-01	0	42	0	686292992	65	5017
2026-01-14 11:26:15.44	20.08	50.55	-47.3	-50.1	22.6	6.07e-01	0	42	0	688914432	65	5213
2026-01-14 11:26:16.29	19.64	50.29	-47.2	-49.9	22.7	6.06e-01	0	42	0	690487296	65	5077
2026-01-14 11:26:17.43	19.06	49.94	-46.9	-49.6	23.0	6.06e-01	0	42	0	692584448	65	4893
2026-01-14 11:26:18.28	18.64	49.68	-47.2	-49.9	22.7	6.06e-01	0	42	0	694157312	65	5076
2026-01-14 11:26:19.57	18.02	49.29	-47.7	-50.5	22.2	6.07e-01	0	42	0	696254464	66	5150
2026-01-14 11:26:20.28	17.68	49.07	-47.7	-50.6	22.1	6.07e-01	0	42	0	697827328	66	5171
2026-01-14 11:26:21.58	17.08	48.67	-47.1	-49.9	22.7	6.08e-01	0	42	0	700448768	66	4782
2026-01-14 11:26:22.30	16.75	48.45	-47.3	-50.2	22.5	6.07e-01	0	42	0	701497344	66	4943
2026-01-14 11:26:23.58	16.18	48.06	-47.4	-50.2	22.5	6.07e-01	0	42	0	704118784	66	4933
2026-01-14 11:26:24.29	15.87	47.85	-47.4	-50.1	22.6	6.06e-01	0	42	0	705167360	66	4900
2026-01-14 11:26:25.57	15.32	47.46	-47.8	-50.7	22.0	6.07e-01	0	42	0	707788800	66	5270
2026-01-14 11:26:26.41	14.97	47.20	-47.6	-50.4	22.3	6.05e-01	0	42	0	709361664	66	5058
2026-01-14 11:26:27.54	14.51	46.86	-47.2	-49.9	22.7	6.05e-01	0	42	0	711458816	66	4794
2026-01-14 11:26:28.59	14.08	46.54	-47.2	-49.9	22.8	6.07e-01	0	42	0	713555968	66	4764
2026-01-14 11:26:29.72	13.64	46.20	-48.0	-51.0	21.8	6.06e-01	0	42	0	715653120	66	5404
2026-01-14 11:26:30.64	13.28	45.93	-47.9	-50.9	21.8	6.07e-01	0	41	0	717225984	67	5052
2026-01-14 11:26:31.63	12.91	45.63	-47.8	-50.8	22.0	6.07e-01	0	42	0	718798848	67	4991
2026-01-14 11:26:32.63	12.54	45.33	-47.7	-50.7	22.0	6.07e-01	0	42	0	720896000	67	4929
2026-01-14 11:26:33.62	12.18	45.04	-47.3	-50.1	22.6	6.07e-01	0	42	0	722468864	66	4884
2026-01-14 11:26:34.61	11.82	44.74	-47.4	-50.2	22.5	6.06e-01	0	42	0	724566016	66	4966
2026-01-14 11:26:35.61	11.47	44.45	-47.6	-50.5	22.2	6.07e-01	0	42	0	726663168	66	5125
2026-01-14 11:26:36.60	11.13	44.15	-47.7	-50.5	22.2	6.06e-01	0	42	0	728236032	66	5150
2026-01-14 11:26:37.60	10.79	43.86	-47.7	-50.6	22.1	6.06e-01	0	42	0	730333184	66	5163
2026-01-14 11:26:38.59	10.46	43.57	-47.7	-50.5	22.2	6.06e-01	0	42	0	731906048	66	5142
2026-01-14 11:26:39.59	10.14	43.28	-47.7	-50.6	22.1	6.07e-01	0	42	0	734003200	66	5204
2026-01-14 11:26:40.58	9.82	43.00	-47.7	-50.6	22.1	6.09e-01	0	42	0	736100352	66	5191
2026-01-14 11:26:41.58	9.51	42.71	-47.6	-50.6	22.0	6.08e-01	0	42	0	737673216	66	5213
2026-01-14 11:26:42.57	9.20	42.42	-47.6	-50.7	22.1	6.06e-01	0	42	0	739246080	66	5227
2026-01-14 11:26:43.57	8.90	42.14	-47.8	-51.1	21.7	6.06e-01	0	42	0	741343232	66	5507
2026-01-14 11:26:44.56	8.60	41.86	-48.2	-51.6	21.1	6.06e-01	0	42	0	743440384	67	5503
2026-01-14 11:26:45.56	8.31	41.58	-48.5	-51.9	21.0	6.07e-01	0	42	0	745013248	67	5677
2026-01-14 11:26:46.56	8.03	41.29	-48.4	-51.6	20.2	6.07e-01	0	42	0	747110400	67	5471
2026-01-14 11:26:47.55	7.75	41.02	-48.5	-51.6	21.1	6.05e-01	0	42	0	748683264	67	5514
2026-01-14 11:26:48.55	7.47	40.74	-48.5	-51.6	21.2	6.08e-01	0	42	0	750780416	67	5508
2026-01-14 11:26:49.54	7.20	40.47	-48.6	-51.7	21.1	6.08e-01	0	42	0	752877568	67	5549
2026-01-14 11:26:50.54	6.93	40.19	-48.8	-51.9	21.0	6.06e-01	0	42	0	754450432	68	5367
2026-01-14 11:26:51.53	6.67	39.92	-48.8	-51.9	21.0	6.05e-01	0	42	0	756547584	68	5363
2026-01-14 11:26:52.52	6.42	39.65	-48.9	-52.1	20.9	6.05e-01	0	42	0	758120448	68	5501
2026-01-14 11:26:53.53	6.16	39.38	-48.9	-52.2	20.7	6.06e-01	0	42	0	760217600	68	5546
2026-01-14 11:26:54.56	5.90	39.10	-49.0	-52.4	20.6	6.06e-01	0	42	0	761790464	68	5682
2026-01-14 11:26:55.56	5.66	38.84	-48.9	-52.2	20.7	6.08e-01	0	42	0	763887616	68	5581
2026-01-14 11:26:56.55	5.42	38.57	-48.8	-52.1	20.9	6.08e-01	0	42	0	765984768	68	5500
2026-01-14 11:26:57.55	5.18	38.31	-48.9	-52.2	20.8	6.07e-01	0	42	0	767557632	68	5537
2026-01-14 11:26:58.54	4.95	38.05	-49.1	-52.4	20.5	6.08e-01	0	42	0	769654784	68	5705
2026-01-14 11:26:59.53	4.73	37.79	-49.3	-52.7	20.2	6.07e-01	0	42	0	771227648	69	5580
2026-01-14 11:27:00.53	4.50	37.53	-49.1	-52.6	20.4	6.08e-01	0	42	0	773324800	69	5490
2026-01-14 11:27:01.74	4.23	37.22	-48.9	-52.4	20.5	6.05e-01	0	42	0	775421952	69	5372
2026-01-14 11:27:02.61	4.04	37.00	-48.6	-52.1	20.6	6.07e-01	0	42	0	776994816	69	5169
2026-01-14 11:27:03.92	3.76	36.67	-48.6	-51.9	20.9	6.07e-01	0	42	0	779616256	69	5095
2026-01-14 11:27:05.05	3.53	36.38	-48.7	-52.0	20.9	6.05e-01	0	42	0	781713408	69	5113
2026-01-14 11:27:06.21	3.29	36.09	-48.7	-51.9	21.0	6.05e-01	0	42	0	783810560	69	5068
2026-01-14 11:27:07.07	3.11	35.88	-48.5	-51.7	21.2	6.09e-01	0	42	0	785383424	68	5224
2026-01-14 11:27:08.20	2.89	35.60	-48.1	-51.4	21.4	6.08e-01	0	42	0	787480576	68	5077
2026-01-14 11:27:09.31	2.67	35.33	-48.0	-51.3	21.5	6.10e-01	0	42	0	789577728	68	5002
2026-01-14 11:27:10.35	2.47	35.08	-47.7	-51.0	21.7	6.07e-01	0	42	0	791674880	67	5116
2026-01-14 11:27:11.31	2.29	34.85	-47.7	-51.0	21.7	6.07e-01	0	42	0	793247744	67	5111
2026-01-14 11:27:12.31	2.10	34.61	-47.8	-51.1	21.7	6.08e-01	0	42	0	795344896	67	5160
2026-01-14 11:27:13.30	1.92	34.37	-47.9	-51.1	21.6	6.06e-01	0	42	0	796917760	67	5170
2026-01-14 11:27:14.30	1.74	34.14	-47.8	-50.8	21.9	6.07e-01	0	42	0	799014912	67	4990
2026-01-14 11:27:15.29	1.56	33.90	-47.5	-50.4	22.3	6.05e-01	0	42	0	801112064	67	4784
2026-01-14 11:27:16.29	1.38	33.67	-47.5	-50.4	22.3	6.07e-01	0	42	0	802684928	67	4778
2026-01-14 11:27:17.28	1.21	33.44	-47.5	-50.4	22.3	6.07e-01	0	42	0	804782080	67	4770
2026-01-14 11:27:18.27	1.04	33.21	-47.4	-50.2	22.4	6.05e-01	0	42	0	806354944	66	4983
2026-01-14 11:27:19.27	0.87	32.98	-47.3	-50.0	22.6	6.07e-01	0	42	0	808452096	66	4863
2026-01-14 11:27:20.27	0.71	32.76	-47.2	-49.9	22.7	6.06e-01	0	42	0	810024960	66	4811
2026-01-14 11:27:21.26	0.55	32.53	-47.3	-50.0	22.7	6.05e-01	0	42	0	812122112	66	4832
2026-01-14 11:27:22.25	0.39	32.31	-47.3	-50.0	22.6	6.06e-01	0	42	0	813694976	66	4837
2026-01-14 11:27:23.25	0.23	32.09	-47.3	-50.0	22.6	6.06e-01	0	42	0	815792128	66	4838
2026-01-14 11:27:24.24	0.07	31.87	-47.3	-50.1	22.6	6.07e-01	0	42	0	817889280	66	4875
2026-01-14 11:27:25.24	359.92	31.65	-47.1	-49.9	22.7	6.06e-01	0	42	0	819462144	66	4783
2026-01-14 11:27:26.23	359.77	31.44	-47.1	-49.9	22.7	6.05e-01	0	42	0	821559296	66	4798
2026-01-14 11:27:27.22	359.62	31.22	-47.2	-49.9	22.7	6.07e-01	0	42	0	823132160	66	4796
2026-01-14 11:27:28.22	359.47	31.01	-47.2	-49.9	22.7	6.07e-01	0	42	0	825229312	66	4782
2026-01-14 11:27:29.22	359.32	30.79	-47.1	-49.8	22.8	6.03e-01	0	42	0	826802176	66	4713
2026-01-14 11:27:30.21	359.18	30.58	-47.1	-49.8	22.8	6.07e-01	0	42	0	828899328	66	4718
2026-01-14 11:27:31.20	359.04	30.37	-46.9	-49.6	22.9	6.08e-01	0	42	0	830472192	65	4900
2026-01-14 11:27:32.60	358.85	30.08	-47.0	-49.7	22.9	6.07e-01	0	42	0	833093632	65	4949
2026-01-14 11:27:33.30	358.75	29.94	-46.9	-49.7	22.9	6.04e-01	0	42	0	834666496	65	4927
2026-01-14 11:27:34.58	358.57	29.67	-47.0	-49.8	22.7	6.08e-01	0	42	0	837287936	65	5002
2026-01-14 11:27:35.29	358.48	29.53	-47.1	-49.9	22.7	6.09e-01	0	42	0	838336512	65	5052
2026-01-14 11:27:36.57	358.31	29.27	-47.2	-50.0	22.6	6.09e-01	0	42	0	840957952	65	5109
2026-01-14 11:27:37.28	358.22	29.13	-47.2	-50.0	22.6	6.05e-01	0	42	0	842006528	65	5141
2026-01-14 11:27:38.56	358.05	28.87	-47.2	-50.0	22.6	6.07e-01	0	42	0	844627968	65	5102
2026-01-14 11:27:39.46	357.94	28.69	-47.2	-50.0	22.6	6.10e-01	0	42	0	846200832	65	5111
2026-01-14 11:27:40.60	357.80	28.46	-47.3	-50.1	22.5	6.05e-01	0	42	0	848297984	65	5178
2026-01-14 11:27:41.45	357.69	28.30	-47.4	-50.2	22.4	6.08e-01	0	42	0	849870848	65	5250
2026-01-14 11:27:42.59	357.55	28.08	-47.5	-50.2	22.4	6.06e-01	0	42	0	851968000	65	5273
2026-01-14 11:27:43.44	357.45	27.91	-47.4	-50.1	22.5	6.06e-01	0	42	0	853540864	65	5195
2026-01-14 11:27:44.58	357.31	27.69	-47.2	-50.0	22.6	6.07e-01	0	42	0	855638016	65	5103
2026-01-14 11:27:45.43	357.21	27.53	-47.2	-49.9	22.6	6.06e-01	0	42	0	857210880	65	5086
2026-01-14 11:27:46.60	357.08	27.31	-47.3	-50.0	22.5	6.05e-01	0	42	0	859832320	65	5157
2026-01-14 11:27:47.45	356.98	27.15	-47.3	-50.1	22.5	6.06e-01	0	42	0	861405184	65	5214
2026-01-14 11:27:48.59	356.85	26.94	-47.4	-50.3	22.4	6.07e-01	0	42	0	863502336	65	5281
2026-01-14 11:27:49.44	356.76	26.78	-47.5	-50.4	22.2	6.07e-01	0	42	0	865075200	65	5365
2026-01-14 11:27:50.70	356.62	26.55	-47.5	-50.4	22.2	6.07e-01	0	42	0	867172352	65	5366
2026-01-14 11:27:51.49	356.53	26.40	-47.4	-50.4	22.2	6.07e-01	0	42	0	868745216	65	5373
2026-01-14 11:27:52.69	356.40	26.18	-47.4	-50.5	22.1	6.09e-01	0	42	0	870842368	65	5417
2026-01-14 11:27:53.54	356.31	26.03	-47.3	-50.4	22.2	6.07e-01	0	42	0	872415232	65	5395
2026-01-14 11:27:54.68	356.19	25.82	-47.1	-50.6	22.1	6.05e-01	0	42	0	875036672	65	5467
2026-01-14 11:27:55.53	356.10	25.67	-47.1	-50.6	22.0	6.06e-01	0	42	0	876609536	65	5506
2026-01-14 11:27:56.67	355.99	25.47	-47.0	-50.7	21.9	6.08e-01	0	42	0	878182400	65	5562
2026-01-14 11:27:57.52	355.90	25.32	-47.1	-50.9	21.7	6.07e-01	0	42	0	880279552	65	5669
2026-01-14 11:27:58.66	355.79	25.12	-47.1	-50.9	21.8	6.06e-01	0	42	0	882376704	65	5660
2026-01-14 11:27:59.51	355.70	24.97	-47.2	-50.8	21.7	6.08e-01	0	42	0	883949568	65	5650
2026-01-14 11:28:01.03	355.55	24.71	-47.3	-50.8	21.8	6.07e-01	0	42	0	886571008	65	5625
2026-01-14 11:28:01.74	355.49	24.59	-47.3	-50.8	21.8	6.08e-01	0	42	0	888143872	65	5642
2026-01-14 11:28:03.02	355.37	24.37	-47.5	-50.9	21.8	6.07e-01	0	42	0	890241024	65	5667
2026-01-14 11:28:03.74	355.30	24.25	-47.6	-51.0	21.7	6.07e-01	0	42	0	891813888	65	5726
2026-01-14 11:28:05.02	355.18	24.04	-47.6	-50.9	21.7	6.07e-01	0	42	0	893911040	65	5693
2026-01-14 11:28:05.75	355.11	23.92	-47.7	-50.9	21.7	6.07e-01	0	42	0	895483904	66	5374
2026-01-14 11:28:07.03	355.00	23.70	-47.6	-50.8	21.8	6.08e-01	0	42	0	897581056	66	5334
2026-01-14 11:28:07.88	354.92	23.56	-47.6	-50.8	21.8	6.06e-01	0	42	0	899678208	66	5306
2026-01-14 11:28:09.01	354.82	23.38	-47.7	-50.9	21.7	6.08e-01	0	42	0	901775360	66	5355
2026-01-14 11:28:10.06	354.73	23.21	-47.5	-50.7	21.9	6.08e-01	0	42	0	903348224	66	5245
2026-01-14 11:28:11.00	354.65	23.06	-47.6	-50.7	21.9	6.06e-01	0	42	0	905445376	66	5271
2026-01-14 11:28:12.00	354.56	22.90	-47.6	-50.8	21.9	6.06e-01	0	42	0	907018240	66	5280
2026-01-14 11:28:12.99	354.48	22.74	-47.5	-50.6	22.0	6.07e-01	0	42	0	909115392	66	5168
2026-01-14 11:28:13.99	354.39	22.58	-47.6	-50.6	22.0	6.09e-01	0	42	0	911212544	66	5218
2026-01-14 11:28:14.98	354.31	22.43	-47.7	-50.7	21.9	6.08e-01	0	42	0	912785408	66	5240
2026-01-14 11:28:15.98	354.23	22.27	-47.7	-50.7	21.8	6.08e-01	0	42	0	914358272	66	5266
2026-01-14 11:28:16.97	354.15	22.12	-47.9	-50.9	21.7	6.07e-01	0	42	0	916455424	66	5362
2026-01-14 11:28:17.97	354.07	21.96	-47.9	-50.9	21.7	6.06e-01	0	42	0	918552576	66	5400
2026-01-14 11:28:18.96	353.99	21.81	-48.0	-51.0	21.7	6.06e-01	0	42	0	920125440	66	5416
2026-01-14 11:28:19.95	353.91	21.66	-47.9	-50.9	21.7	6.05e-01	0	42	0	922222592	66	5393
2026-01-14 11:28:20.98	353.83	21.50	-47.9	-50.9	21.7	6.08e-01	0	42	0	924319744	66	5386
2026-01-14 11:28:21.98	353.76	21.35	-47.7	-50.7	21.9	6.09e-01	0	42	0	925892608	66	5248
2026-01-14 11:28:22.97	353.68	21.20	-47.7	-50.7	21.9	6.04e-01	0	42	0	927989760	66	5268
2026-01-14 11:28:24.06	353.60	21.04	-47.7	-50.7	21.9	6.02e-01	0	42	0	929562624	66	5252
2026-01-14 11:28:24.91	353.54	20.92	-47.7	-50.7	21.9	6.01e-01	0	42	0	931659776	66	5224
2026-01-14 11:28:26.05	353.45	20.75	-47.8	-50.8	21.8	6.06e-01	0	42	0	933756928	66	5312
2026-01-14 11:28:27.01	353.38	20.61	-47.8	-50.8	21.8	6.04e-01	0	42	0	935329792	66	5299
2026-01-14 11:28:28.01	353.31	20.46	-47.7	-50.7	21.9	6.02e-01	0	42	0	937426944	66	5259
2026-01-14 11:28:29.00	353.24	20.32	-47.6	-50.7	21.9	6.05e-01	0	42	0	938999808	66	5249
2026-01-14 11:28:30.00	353.17	20.18	-47.6	-50.8	21.8	6.04e-01	0	42	0	941096960	66	5305
2026-01-14 11:28:31.00	353.10	20.04	-47.5	-50.9	21.7	6.04e-01	0	42	0	942669824	66	5349
2026-01-14 11:28:31.99	353.03	19.90	-47.4	-50.8	21.7	6.01e-01	0	42	0	944766976	66	5326
2026-01-14 11:28:32.99	352.96	19.75	-47.2	-50.9	21.7	6.03e-01	0	42	0	946339840	66	5374
2026-01-14 11:28:33.98	352.89	19.62	-47.2	-50.9	21.7	6.03e-01	0	42	0	948436992	66	5384
2026-01-14 11:28:34.97	352.83	19.48	-47.1	-50.8	21.8	6.04e-01	0	42	0	950009856	66	5303
2026-01-14 11:28:35.97	352.76	19.34	-47.1	-50.8	21.8	6.07e-01	0	42	0	952107008	66	5285
2026-01-14 11:28:36.96	352.70	19.20	-47.1	-50.8	21.8	6.02e-01	0	42	0	954204160	66	5298
2026-01-14 11:28:37.96	352.63	19.07	-47.2	-50.7	21.8	6.04e-01	0	42	0	955777024	66	5274
2026-01-14 11:28:38.95	352.57	18.93	-47.3	-50.7	21.8	6.02e-01	0	42	0	957874176	66	5264
2026-01-14 11:28:40.04	352.50	18.78	-47.4	-50.8	21.8	6.04e-01	0	42	0	959971328	66	5287
2026-01-14 11:28:40.94	352.44	18.66	-47.5	-50.9	21.7	6.02e-01	0	42	0	961544192	66	5383
2026-01-14 11:28:42.03	352.37	18.52	-47.4	-50.9	21.7	6.04e-01	0	42	0	963641344	66	5376
2026-01-14 11:28:42.88	352.32	18.40	-47.3	-50.9	21.7	6.01e-01	0	42	0	965214208	66	5392
2026-01-14 11:28:44.29	352.23	18.22	-47.3	-50.8	21.7	6.04e-01	0	42	0	967835648	66	5305
2026-01-14 11:28:45.00	352.19	18.13	-47.2	-50.7	21.9	6.02e-01	0	42	0	968884224	66	5227
2026-01-14 11:28:46.45	352.10	17.94	-47.3	-50.7	21.9	6.01e-01	0	42	0	972029952	66	5241
2026-01-14 11:28:47.16	352.06	17.84	-47.5	-50.8	21.7	6.03e-01	0	42	0	973078528	66	5336
2026-01-14 11:28:48.44	351.99	17.68	-47.5	-50.7	21.8	6.03e-01	0	42	0	975699968	66	5279
2026-01-14 11:28:49.49	351.93	17.54	-47.7	-50.8	21.7	6.05e-01	0	42	0	977272832	66	5337
2026-01-14 11:28:50.65	351.86	17.40	-47.8	-50.9	21.7	6.07e-01	0	42	0	979894272	66	5344
2026-01-14 11:28:51.66	351.80	17.27	-47.8	-50.8	21.7	6.03e-01	0	42	0	981467136	66	5323
2026-01-14 11:28:52.84	351.74	17.12	-47.7	-50.8	21.8	6.03e-01	0	42	0	983564288	66	5302
2026-01-14 11:28:53.71	351.69	17.01	-47.7	-50.8	21.7	6.04e-01	0	42	0	985137152	66	5318
2026-01-14 11:28:55.02	351.61	16.85	-47.5	-50.7	21.8	6.04e-01	0	42	0	987758592	66	5268
2026-01-14 11:28:55.73	351.58	16.76	-47.5	-50.7	21.8	6.03e-01	0	42	0	989331456	66	5265
2026-01-14 11:28:57.01	351.51	16.60	-47.4	-50.8	21.8	6.02e-01	0	42	0	991428608	66	5281
2026-01-14 11:28:57.74	351.47	16.51	-47.3	-50.7	21.8	6.03e-01	0	42	0	993001472	66	5277
2026-01-14 11:28:59.27	351.39	16.33	-47.3	-50.9	21.6	6.02e-01	0	42	0	995622912	66	5365
2026-01-14 11:28:59.98	351.35	16.24	-47.2	-50.8	21.7	6.03e-01	0	42	0	997195776	66	5338
2026-01-14 11:29:01.32	351.28	16.08	-47.3	-50.8	21.7	6.04e-01	0	42	0	999817216	66	5336
2026-01-14 11:29:02.03	351.24	15.99	-47.3	-50.8	21.7	6.03e-01	0	42	0	1000865792	66	5310
2026-01-14 11:29:03.31	351.18	15.84	-47.5	-50.9	21.6	6.06e-01	0	42	0	1003487232	66	5367
2026-01-14 11:29:04.02	351.14	15.76	-47.4	-50.8	21.7	6.01e-01	0	42	0	1004535808	66	5321
2026-01-14 11:29:05.30	351.08	15.61	-47.4	-50.8	21.7	6.04e-01	0	42	0	1007157248	66	5302
2026-01-14 11:29:06.01	351.04	15.52	-47.5	-50.8	21.7	6.04e-01	0	42	0	1008205824	66	5305
2026-01-14 11:29:07.33	350.98	15.37	-47.4	-50.7	21.8	6.04e-01	0	42	0	1010827264	66	5245
2026-01-14 11:29:08.04	350.94	15.29	-47.3	-50.8	21.7	6.02e-01	0	42	0	1012400128	66	5295
2026-01-14 11:29:09.32	350.88	15.14	-47.3	-50.7	21.7	6.04e-01	0	42	0	1014497280	66	5257
2026-01-14 11:29:10.08	350.84	15.05	-47.2	-50.7	21.7	6.01e-01	0	42	0	1016070144	66	5265
2026-01-14 11:29:11.36	350.78	14.91	-47.0	-50.6	21.9	6.03e-01	0	42	0	1018691584	66	5171
2026-01-14 11:29:12.08	350.75	14.82	-47.0	-50.6	21.8	6.00e-01	0	42	0	1019740160	66	5215
2026-01-14 11:29:13.72	350.67	14.64	-47.2	-50.7	21.8	6.02e-01	0	42	0	1022885888	66	5246
2026-01-14 11:29:14.29	350.65	14.57	-47.2	-50.6	21.8	6.04e-01	0	42	0	1023934464	66	5214
2026-01-14 11:29:15.99	350.57	14.38	-47.2	-50.5	21.9	6.04e-01	0	42	0	1027080192	66	5146
2026-01-14 11:29:16.64	350.54	14.31	-47.3	-50.5	21.9	6.03e-01	0	42	0	1028653056	66	5145
2026-01-14 11:29:18.06	350.47	14.16	-47.4	-50.6	21.8	6.04e-01	0	42	0	1031274496	66	5206
2026-01-14 11:29:18.77	350.44	14.08	-47.5	-50.7	21.8	6.05e-01	0	42	0	1032323072	66	5246
2026-01-14 11:29:20.05	350.39	13.94	-47.5	-50.7	21.7	6.05e-01	0	42	0	1034944512	66	5248
2026-01-14 11:29:20.79	350.35	13.86	-47.6	-50.8	21.7	6.02e-01	0	42	0	1035993088	66	5292
2026-01-14 11:29:22.07	350.30	13.72	-47.5	-50.7	21.7	6.06e-01	0	42	0	1038614528	66	5261
2026-01-14 11:29:22.80	350.27	13.64	-47.5	-50.8	21.7	6.03e-01	0	42	0	1040187392	66	5309
2026-01-14 11:29:24.08	350.21	13.50	-47.5	-50.9	21.5	6.02e-01	0	42	0	1042284544	66	5400
2026-01-14 11:29:24.79	350.18	13.43	-47.1	-50.9	21.6	6.02e-01	0	42	0	1043857408	66	5356
2026-01-14 11:29:26.15	350.13	13.28	-46.4	-50.9	21.5	6.03e-01	0	42	0	1046478848	64	6038
2026-01-14 11:29:26.86	350.10	13.21	-46.3	-50.8	21.6	6.01e-01	0	42	0	1047527424	64	5977
2026-01-14 11:29:28.16	350.04	13.07	-46.2	-51.0	21.4	6.05e-01	0	42	0	1050148864	64	6073
2026-01-14 11:29:28.87	350.01	12.99	-45.9	-51.0	21.5	6.03e-01	0	42	0	1051197440	63	6433
2026-01-14 11:29:30.22	349.96	12.85	-45.8	-50.9	21.5	6.05e-01	0	42	0	1053818880	63	6400
2026-01-14 11:29:30.93	349.93	12.78	-45.9	-51.0	21.5	6.02e-01	0	42	0	1055391744	63	6423
2026-01-14 11:29:32.28	349.88	12.64	-45.9	-51.1	21.4	6.04e-01	0	42	0	1057488896	63	6517
2026-01-14 11:29:33.25	349.84	12.54	-45.9	-51.0	21.5	6.03e-01	0	42	0	1059586048	63	6433
2026-01-14 11:29:34.57	349.79	12.41	-45.9	-51.0	21.4	6.04e-01	0	42	0	1062207488	63	6488
2026-01-14 11:29:35.27	349.76	12.33	-45.9	-51.0	21.5	6.04e-01	0	42	0	1063256064	63	6424
2026-01-14 11:29:36.55	349.71	12.20	-46.1	-51.0	21.4	6.04e-01	0	42	0	1065877504	63	6467
2026-01-14 11:29:37.26	349.68	12.13	-46.2	-51.0	21.4	6.03e-01	0	42	0	1066926080	63	6478
2026-01-14 11:29:38.54	349.64	12.00	-46.3	-51.1	21.4	6.04e-01	0	42	0	1069547520	63	6501
2026-01-14 11:29:39.25	349.61	11.93	-46.4	-51.2	21.2	6.03e-01	0	42	0	1070596096	63	6625
2026-01-14 11:29:40.58	349.56	11.80	-46.4	-51.3	21.2	6.05e-01	0	42	0	1073217536	63	6654
2026-01-14 11:29:41.29	349.53	11.73	-46.4	-51.3	21.1	6.04e-01	0	42	0	1074790400	63	6649
2026-01-14 11:29:42.63	349.48	11.60	-46.3	-51.2	21.2	6.02e-01	0	42	0	1077411840	63	6606
2026-01-14 11:29:43.34	349.46	11.53	-46.3	-51.2	21.3	6.04e-01	0	42	0	1078460416	63	6609
2026-01-14 11:29:44.62	349.41	11.40	-46.3	-51.3	21.2	6.01e-01	0	42	0	1081081856	63	6664
2026-01-14 11:29:45.34	349.39	11.33	-46.2	-51.2	21.2	6.00e-01	0	42	0	1082130432	63	6642
2026-01-14 11:29:46.78	349.34	11.19	-46.1	-51.3	21.1	6.04e-01	0	42	0	1084751872	63	6722
2026-01-14 11:29:47.49	349.31	11.12	-46.1	-51.4	21.1	6.01e-01	0	42	0	1086324736	63	6756
2026-01-14 11:29:48.79	349.27	11.00	-45.9	-51.4	21.0	6.01e-01	0	42	0	1088946176	63	6776
2026-01-14 11:29:49.50	349.24	10.93	-45.7	-51.5	21.0	6.04e-01	0	42	0	1089994752	63	6834
2026-01-14 11:29:50.78	349.20	10.81	-45.6	-51.3	21.1	6.00e-01	0	42	0	1092616192	63	6709
2026-01-14 11:29:51.50	349.17	10.74	-45.6	-51.2	21.2	6.04e-01	0	42	0	1093664768	63	6633
2026-01-14 11:29:52.78	349.13	10.62	-45.4	-51.3	21.1	6.03e-01	0	42	0	1096286208	62	7111
2026-01-14 11:29:53.50	349.10	10.55	-45.3	-51.3	21.1	6.04e-01	0	42	0	1097334784	62	7056
2026-01-14 11:29:54.79	349.06	10.43	-45.3	-51.3	21.1	6.02e-01	0	42	0	1099956224	62	7121
2026-01-14 11:29:55.51	349.04	10.36	-45.4	-51.4	21.0	6.02e-01	0	42	0	1101529088	62	7187
2026-01-14 11:29:56.79	349.00	10.25	-45.3	-51.3	21.1	6.03e-01	0	42	0	1103626240	62	7108
2026-01-14 11:29:57.50	348.97	10.18	-45.6	-51.4	20.9	6.01e-01	0	42	0	1105199104	62	7197
2026-01-14 11:29:58.78	348.93	10.06	-46.1	-51.4	21.0	6.02e-01	0	42	0	1107296256	62	7131
2026-01-14 11:29:59.71	348.90	9.98	-46.2	-51.4	21.0	6.03e-01	0	42	0	1109393408	63	6779
2026-01-14 11:30:00.71	348.87	9.89	-46.2	-51.4	21.0	6.00e-01	0	42	0	1110966272	63	6741
2026-01-14 11:30:02.05	348.83	9.76	-46.7	-51.3	21.0	6.03e-01	0	42	0	1113587712	64	6345
2026-01-14 11:30:02.81	348.80	9.69	-47.1	-51.5	20.9	6.02e-01	0	42	0	1115160576	64	6445
2026-01-14 11:30:04.09	348.77	9.58	-47.8	-51.6	20.7	6.01e-01	0	42	0	1117257728	66	5839
2026-01-14 11:30:04.92	348.74	9.50	-48.0	-51.8	20.6	6.02e-01	0	42	0	1118830592	66	5926
2026-01-14 11:30:06.05	348.71	9.40	-47.8	-51.5	20.9	6.02e-01	0	42	0	1120927744	66	5728
2026-01-14 11:30:06.90	348.68	9.33	-47.9	-51.5	20.9	6.03e-01	0	42	0	1122500608	66	5770
2026-01-14 11:30:08.04	348.65	9.23	-48.0	-51.5	20.8	6.02e-01	0	42	0	1124597760	66	5752
2026-01-14 11:30:08.89	348.62	9.15	-48.1	-51.7	20.7	6.01e-01	0	42	0	1126170624	66	5862
2026-01-14 11:30:10.03	348.59	9.05	-48.0	-51.7	20.6	6.01e-01	0	42	0	1128792064	66	5902
2026-01-14 11:30:10.88	348.56	8.98	-48.9	-59.9	14.1	6.07e-01	0	42	0	1130364928	69	12751
2026-01-14 11:30:12.02	348.53	8.88	-50.8	-73.2	3.9	7.41e-01	0	42	104	1130364928	71	52745
2026-01-14 11:30:12.87	348.50	8.80	-52.8	-73.3	3.8	7.47e-01	0	42	104	1130364928	77	37456
2026-01-14 11:30:14.00	348.47	8.70	-50.6	-74.0	3.8	7.45e-01	0	42	104	1130364928	72	54303
2026-01-14 11:30:14.85	348.45	8.63	-53.3	-74.2	3.8	7.45e-01	0	42	104	1130364928	78	39238
2026-01-14 11:30:15.99	348.41	8.53	-52.8	-74.7	3.9	7.46e-01	0	42	104	1130364928	76	46713
2026-01-14 11:30:16.84	348.39	8.46	-54.2	-74.3	3.8	7.49e-01	0	42	104	1130364928	78	39916
2026-01-14 11:30:17.98	348.36	8.36	-54.2	-74.3	3.8	7.46e-01	0	42	104	1130364928	79	37502
2026-01-14 11:30:18.83	348.34	8.29	-53.7	-74.4	3.8	7.47e-01	0	42	104	1130364928	78	40100
2026-01-14 11:30:19.96	348.30	8.19	-54.2	-74.5	3.8	7.45e-01	0	42	104	1130364928	79	38497
2026-01-14 11:30:20.81	348.28	8.12	-54.1	-74.4	3.8	7.42e-01	0	42	104	1130364928	79	37958
2026-01-14 11:30:21.95	348.25	8.03	-53.8	-74.4	3.8	7.45e-01	0	42	104	1130364928	79	37909
2026-01-14 11:30:22.80	348.23	7.95	-54.2	-74.4	3.8	7.48e-01	0	42	104	1130364928	78	40186
2026-01-14 11:30:23.94	348.20	7.86	-54.3	-74.4	3.8	7.44e-01	0	42	104	1130364928	79	38024
2026-01-14 11:30:24.79	348.17	7.79	-54.4	-74.4	3.8	7.43e-01	0	42	104	1130364928	79	38084
2026-01-14 11:30:25.92	348.14	7.69	-54.4	-74.4	3.8	7.45e-01	0	42	104	1130364928	79	37991
2026-01-14 11:30:26.78	348.12	7.62	-53.8	-74.4	3.8	7.48e-01	0	42	104	1130364928	79	38123
2026-01-14 11:30:27.91	348.09	7.53	-54.2	-74.4	3.8	7.44e-01	0	42	104	1130364928	79	38107
2026-01-14 11:30:28.78	348.07	7.46	-54.2	-74.4	3.8	7.46e-01	0	42	104	1130364928	79	38132
2026-01-14 11:30:29.92	348.04	7.36	-54.3	-74.4	3.8	7.44e-01	0	42	104	1130364928	79	38145
2026-01-14 11:30:30.77	348.02	7.29	-54.5	-74.5	3.8	7.44e-01	0	42	104	1130364928	79	38277
2026-01-14 11:30:31.90	347.99	7.20	-54.5	-74.4	3.8	7.47e-01	0	42	104	1130364928	79	38209
2026-01-14 11:30:32.76	347.97	7.13	-54.3	-74.5	3.8	7.47e-01	0	42	104	1130364928	79	38272
2026-01-14 11:30:33.89	347.94	7.04	-54.5	-74.4	3.8	7.45e-01	0	42	104	1130364928	79	38144
2026-01-14 11:30:34.74	347.92	6.97	-54.1	-74.4	3.8	7.47e-01	0	42	104	1130364928	79	38140
2026-01-14 11:30:35.88	347.89	6.88	-54.3	-74.4	3.8	7.48e-01	0	42	104	1130364928	79	38011
2026-01-14 11:30:36.73	347.87	6.81	-54.1	-74.4	3.8	7.48e-01	0	42	104	1130364928	79	38081
2026-01-14 11:30:37.86	347.84	6.72	-54.0	-74.4	3.8	7.50e-01	0	42	104	1130364928	79	38086
2026-01-14 11:30:38.72	347.82	6.66	-53.8	-74.4	3.8	7.47e-01	0	42	104	1130364928	79	37988
2026-01-14 11:30:39.85	347.80	6.57	-53.6	-74.4	3.8	7.46e-01	0	42	104	1130364928	79	37882
2026-01-14 11:30:40.71	347.78	6.50	-53.6	-74.4	3.8	7.46e-01	0	42	104	1130364928	79	37848
2026-01-14 11:30:41.84	347.75	6.41	-53.6	-74.4	3.8	7.47e-01	0	42	104	1130364928	79	37887
2026-01-14 11:30:42.69	347.73	6.34	-53.6	-74.4	3.8	7.48e-01	0	42	104	1130364928	79	37889
2026-01-14 11:30:43.83	347.70	6.25	-53.6	-74.4	3.8	7.46e-01	0	42	104	1130364928	79	37946
2026-01-14 11:30:44.68	347.68	6.19	-53.6	-74.4	3.8	7.43e-01	0	42	104	1130364928	79	37875
2026-01-14 11:30:45.82	347.66	6.10	-53.6	-74.4	3.8	7.43e-01	0	42	104	1130364928	79	37924
2026-01-14 11:30:46.67	347.64	6.03	-53.6	-74.4	3.8	7.45e-01	0	42	104	1130364928	79	37834
2026-01-14 11:30:47.80	347.61	5.95	-53.6	-74.4	3.8	7.46e-01	0	42	104	1130364928	79	37866
2026-01-14 11:30:48.65	347.59	5.88	-53.6	-74.4	3.8	7.50e-01	0	42	104	1130364928	79	37834
2026-01-14 11:30:49.79	347.57	5.79	-53.6	-74.4	3.8	7.46e-01	0	42	104	1130364928	79	37830
2026-01-14 11:30:50.64	347.55	5.73	-53.6	-74.4	3.8	7.47e-01	0	42	104	1130364928	79	37902
2026-01-14 11:30:51.78	347.52	5.64	-53.6	-74.4	3.8	7.45e-01	0	42	104	1130364928	79	37853
2026-01-14 11:30:52.63	347.51	5.58	-53.6	-74.3	3.8	7.47e-01	0	42	104	1130364928	79	37750
2026-01-14 11:30:53.76	347.48	5.49	-53.6	-74.3	3.8	7.45e-01	0	42	104	1130364928	79	37734
2026-01-14 11:30:54.62	347.46	5.43	-53.6	-74.3	3.8	7.46e-01	0	42	104	1130364928	79	37671
2026-01-14 11:30:55.75	347.44	5.34	-53.6	-74.3	3.8	7.46e-01	0	42	104	1130364928	79	37691
2026-01-14 11:30:56.60	347.42	5.28	-53.6	-74.3	3.8	7.44e-01	0	42	104	1130364928	79	37589
2026-01-14 11:30:57.74	347.40	5.19	-53.6	-74.3	3.8	7.46e-01	0	42	104	1130364928	79	37654
2026-01-14 11:30:58.59	347.38	5.13	-53.6	-74.3	3.8	7.45e-01	0	42	104	1130364928	79	37700
2026-01-14 11:30:59.73	347.35	5.04	-53.6	-74.3	3.8	7.48e-01	0	42	104	1130364928	79	37666
2026-01-14 11:31:00.58	347.34	4.98	-53.6	-74.3	3.8	7.44e-01	0	42	104	1130364928	79	37646

#Closed at: 2026-01-14 11:31:01
#Recorded file [1130 MB]: D:/Data/31040_260114_141945.dat