passes_logs/2026/01/14/T1/T1__20260114_082616_NOAA_20_JPSS-1_rec.log

#Pass ID: 20260114_082616_NOAA 20 (JPSS-1)
#Satellite: NOAA 20 (JPSS-1)
#Configuration: NOAA 20
#almurnet v.1.7.20251203
#Start time: 2026-01-14 08:26:18

#Version: 2.0.20230620
#Station: T1
#Location: 37.570604 lon 55.790049 lat
#TLE: 1 43013U 17073A   26013.21545503  .00000073  00000+0  55630-4 0  9998
#TLE: 2 43013  98.7633 314.1737 0001580  41.9966 318.1331 14.19535680422486

#Time	Az	El	Level	Level2	SNR	BER	BlckErr	Temp	State	Recorded	gain1	gain2
2026-01-14 08:26:18.30	112.94	5.12	-51.2	-66.4	3.8	1.49e+00	0	41	0	0	74	20099
2026-01-14 08:26:19.29	112.87	5.19	-51.2	-66.3	3.8	1.49e+00	0	41	104	0	74	20064
2026-01-14 08:26:20.28	112.79	5.25	-51.2	-66.3	3.8	1.49e+00	0	41	104	0	74	20057
2026-01-14 08:26:21.28	112.72	5.31	-51.2	-66.4	3.8	1.49e+00	0	41	104	0	74	20084
2026-01-14 08:26:22.27	112.64	5.37	-51.2	-66.3	3.8	1.49e+00	0	41	104	0	74	20007
2026-01-14 08:26:23.27	112.56	5.44	-51.2	-66.3	3.8	1.49e+00	0	41	104	0	74	19991
2026-01-14 08:26:24.26	112.49	5.50	-51.1	-66.3	3.8	1.49e+00	0	41	104	0	74	19944
2026-01-14 08:26:25.25	112.41	5.56	-51.2	-66.3	3.8	1.49e+00	0	41	104	0	74	19919
2026-01-14 08:26:26.24	112.33	5.62	-51.2	-66.3	3.8	1.49e+00	0	41	104	0	74	19857
2026-01-14 08:26:27.24	112.25	5.69	-51.2	-66.3	3.8	1.49e+00	0	41	104	0	74	19847
2026-01-14 08:26:28.23	112.17	5.75	-51.1	-66.2	3.8	1.49e+00	0	41	104	0	74	19835
2026-01-14 08:26:29.22	112.10	5.81	-51.1	-66.2	3.8	1.49e+00	0	41	104	0	74	19779
2026-01-14 08:26:30.22	112.02	5.88	-51.2	-66.2	3.8	1.49e+00	0	41	104	0	74	19736
2026-01-14 08:26:31.21	111.94	5.94	-51.1	-66.2	3.8	1.49e+00	0	42	104	0	74	19819
2026-01-14 08:26:32.20	111.86	6.00	-51.1	-66.2	3.8	1.49e+00	0	42	104	0	74	19786
2026-01-14 08:26:33.20	111.78	6.07	-51.1	-66.2	3.8	1.49e+00	0	42	104	0	74	19781
2026-01-14 08:26:34.19	111.70	6.13	-51.1	-66.3	3.8	1.49e+00	0	42	104	0	74	19889
2026-01-14 08:26:35.18	111.61	6.20	-51.1	-66.2	3.8	1.49e+00	0	42	104	0	74	19789
2026-01-14 08:26:36.18	111.53	6.26	-51.1	-66.2	3.8	1.49e+00	0	42	104	0	74	19720
2026-01-14 08:26:37.17	111.45	6.32	-51.1	-66.1	3.8	1.49e+00	0	42	104	0	74	19574
2026-01-14 08:26:38.16	111.37	6.39	-51.1	-66.1	3.8	1.49e+00	0	42	104	0	74	19603
2026-01-14 08:26:39.16	111.29	6.45	-51.1	-66.1	3.8	1.49e+00	0	42	104	0	74	19474
2026-01-14 08:26:40.15	111.20	6.52	-51.1	-66.1	3.8	1.49e+00	0	42	104	0	74	19473
2026-01-14 08:26:41.14	111.12	6.58	-51.1	-66.1	3.8	1.49e+00	0	42	104	0	74	19408
2026-01-14 08:26:42.14	111.04	6.65	-51.1	-66.0	3.8	1.49e+00	0	42	104	0	74	19347
2026-01-14 08:26:43.13	110.95	6.71	-51.1	-66.1	3.8	1.49e+00	0	42	104	0	74	19475
2026-01-14 08:26:44.12	110.87	6.77	-51.1	-66.1	3.8	1.49e+00	0	42	104	0	74	19550
2026-01-14 08:26:45.12	110.78	6.84	-51.1	-66.2	3.8	1.49e+00	0	42	104	0	74	19722
2026-01-14 08:26:46.11	110.70	6.90	-51.1	-66.3	3.8	1.49e+00	0	42	104	0	74	19844
2026-01-14 08:26:47.10	110.61	6.97	-51.1	-66.3	3.8	1.49e+00	0	42	104	0	74	20016
2026-01-14 08:26:48.09	110.53	7.03	-51.1	-66.3	3.8	1.49e+00	0	42	104	0	74	19978
2026-01-14 08:26:49.09	110.44	7.10	-51.1	-66.3	3.8	1.49e+00	0	42	104	0	74	19957
2026-01-14 08:26:50.08	110.36	7.17	-51.1	-66.3	3.8	1.49e+00	0	42	104	0	74	19991
2026-01-14 08:26:51.07	110.27	7.23	-51.1	-66.3	3.8	1.49e+00	0	42	104	0	74	19851
2026-01-14 08:26:52.07	110.18	7.30	-51.1	-66.1	3.8	1.49e+00	0	42	104	0	74	19583
2026-01-14 08:26:53.06	110.09	7.36	-51.1	-65.9	3.8	1.49e+00	0	42	104	0	74	19015
2026-01-14 08:26:54.05	110.00	7.43	-51.1	-65.5	3.8	1.49e+00	0	42	104	0	74	18217
2026-01-14 08:26:55.05	109.92	7.49	-51.1	-65.1	3.8	1.49e+00	0	42	104	0	74	17354
2026-01-14 08:26:56.04	109.83	7.56	-51.0	-64.7	3.8	1.49e+00	0	42	104	0	74	16558
2026-01-14 08:26:57.03	109.74	7.63	-51.0	-64.5	3.8	1.49e+00	0	42	104	0	74	16297
2026-01-14 08:26:58.02	109.65	7.69	-51.1	-64.8	3.8	1.49e+00	0	42	104	0	74	16796
2026-01-14 08:26:59.02	109.56	7.76	-51.1	-65.5	3.8	1.49e+00	0	42	104	0	74	18096
2026-01-14 08:27:00.01	109.47	7.82	-51.1	-66.2	3.8	1.49e+00	0	42	104	0	74	19712
2026-01-14 08:27:01.00	109.38	7.89	-51.1	-66.2	3.8	1.49e+00	0	42	104	0	74	19750
2026-01-14 08:27:02.00	109.28	7.96	-51.0	-64.7	3.8	1.49e+00	0	42	104	0	74	16573
2026-01-14 08:27:02.99	109.19	8.02	-50.8	-61.8	4.5	1.37e+00	0	43	0	0	73	12658
2026-01-14 08:27:03.98	109.10	8.09	-50.4	-59.2	6.0	5.60e-01	0	43	0	2097152	72	9867
2026-01-14 08:27:04.97	109.01	8.16	-50.0	-57.3	7.7	1.94e-01	0	42	0	3145728	72	7921
2026-01-14 08:27:05.97	108.91	8.23	-49.6	-55.9	9.1	3.08e-02	0	43	0	5242880	71	7185
2026-01-14 08:27:06.96	108.82	8.29	-49.3	-54.9	10.1	9.62e-03	0	42	0	7340032	70	6786
2026-01-14 08:27:07.95	108.73	8.36	-49.0	-54.3	10.8	4.31e-03	0	42	0	9437184	70	6305
2026-01-14 08:27:08.95	108.63	8.43	-48.9	-54.0	11.1	1.81e-03	0	42	0	10485760	69	6427
2026-01-14 08:27:09.94	108.53	8.49	-48.9	-54.0	11.0	1.44e-03	0	43	0	12582912	69	6479
2026-01-14 08:27:10.93	108.44	8.56	-49.1	-54.5	10.6	2.12e-03	0	42	0	14680064	69	6820
2026-01-14 08:27:11.93	108.34	8.63	-49.5	-55.4	9.6	6.11e-03	0	43	0	16777216	69	7628
2026-01-14 08:27:12.92	108.25	8.70	-50.0	-57.1	7.9	2.37e-02	0	43	0	18874368	70	8754
2026-01-14 08:27:13.91	108.15	8.77	-50.5	-59.2	6.1	1.98e-01	0	43	0	19922944	71	10464
2026-01-14 08:27:14.91	108.05	8.83	-50.8	-61.8	4.5	6.41e-01	0	43	0	22020096	72	13336
2026-01-14 08:27:15.90	107.95	8.90	-51.1	-64.3	3.8	1.40e+00	0	43	104	23068672	72	17724
2026-01-14 08:27:16.89	107.86	8.97	-51.1	-65.9	3.8	1.49e+00	0	43	104	23068672	72	21438
2026-01-14 08:27:17.89	107.76	9.04	-51.2	-66.3	3.8	1.49e+00	0	43	104	23068672	73	21192
2026-01-14 08:27:18.88	107.66	9.11	-50.5	-59.7	5.6	1.49e+00	0	43	0	23068672	73	9926
2026-01-14 08:27:19.87	107.56	9.17	-50.8	-60.9	5.0	5.62e-01	0	43	0	24117248	73	11335
2026-01-14 08:27:20.87	107.46	9.24	-51.1	-65.6	3.8	1.49e+00	0	43	104	25165824	73	19483
2026-01-14 08:27:21.93	107.35	9.32	-51.2	-66.2	3.8	1.49e+00	0	43	104	25165824	73	20887
2026-01-14 08:27:22.83	107.26	9.38	-51.0	-65.3	3.8	1.49e+00	0	43	104	25165824	73	18858
2026-01-14 08:27:24.07	107.13	9.47	-51.1	-65.4	3.8	1.49e+00	0	43	104	25165824	73	19017
2026-01-14 08:27:24.93	107.04	9.53	-51.0	-65.5	3.8	1.49e+00	0	43	104	25165824	73	19174
2026-01-14 08:27:26.06	106.93	9.60	-51.1	-65.4	3.8	1.49e+00	0	43	104	25165824	73	19099
2026-01-14 08:27:26.93	106.83	9.67	-51.1	-65.4	3.8	1.49e+00	0	43	104	25165824	73	19005
2026-01-14 08:27:28.07	106.72	9.74	-51.0	-65.5	3.8	1.49e+00	0	43	104	25165824	73	19247
2026-01-14 08:27:28.98	106.62	9.81	-51.1	-65.1	3.8	1.49e+00	0	43	104	25165824	73	18375
2026-01-14 08:27:29.98	106.51	9.88	-51.1	-63.6	3.9	1.49e+00	0	43	104	25165824	73	15463
2026-01-14 08:27:30.97	106.41	9.95	-50.0	-56.9	8.3	2.96e-01	0	43	0	25165824	72	7622
2026-01-14 08:27:31.97	106.30	10.02	-51.2	-66.3	3.8	1.06e+00	0	43	104	26214400	73	21174
2026-01-14 08:27:32.96	106.20	10.09	-50.2	-57.3	7.8	1.49e+00	0	43	0	26214400	72	7940
2026-01-14 08:27:33.95	106.09	10.16	-49.6	-55.3	10.0	1.52e-02	0	43	0	27262976	71	6721
2026-01-14 08:27:34.95	105.98	10.23	-49.7	-55.8	9.4	1.24e-02	0	43	0	29360128	71	7120
2026-01-14 08:27:35.95	105.87	10.30	-49.4	-54.8	10.6	7.18e-03	0	43	0	31457280	70	6674
2026-01-14 08:27:36.94	105.77	10.37	-49.1	-54.1	11.3	2.45e-03	0	43	0	33554432	70	6139
2026-01-14 08:27:37.93	105.66	10.44	-48.9	-53.7	11.7	7.49e-04	0	43	0	35651584	69	6242
2026-01-14 08:27:38.93	105.55	10.51	-48.7	-53.2	12.2	3.33e-04	0	43	0	36700160	69	5871
2026-01-14 08:27:39.92	105.44	10.58	-48.5	-52.8	12.6	1.36e-04	0	43	0	38797312	69	5638
2026-01-14 08:27:40.95	105.32	10.65	-48.4	-52.6	12.8	6.56e-05	0	43	0	40894464	68	5836
2026-01-14 08:27:41.95	105.21	10.73	-48.4	-52.7	12.8	6.25e-05	0	43	0	42991616	68	5867
2026-01-14 08:27:42.94	105.10	10.80	-48.4	-52.6	12.9	4.80e-05	0	43	0	44040192	68	5838
2026-01-14 08:27:43.94	104.99	10.87	-48.3	-52.4	13.2	4.57e-05	0	43	0	46137344	68	5657
2026-01-14 08:27:44.93	104.87	10.94	-48.2	-52.3	13.2	2.05e-05	0	43	0	48234496	68	5623
2026-01-14 08:27:45.93	104.76	11.01	-48.1	-52.0	13.5	6.80e-06	0	43	0	50331648	68	5422
2026-01-14 08:27:46.92	104.65	11.08	-48.1	-52.1	13.4	5.30e-06	0	43	0	52428800	68	5512
2026-01-14 08:27:47.91	104.53	11.15	-48.2	-52.2	13.3	1.75e-05	0	43	0	53477376	68	5588
2026-01-14 08:27:48.91	104.42	11.22	-48.3	-52.5	13.1	3.12e-05	0	43	0	55574528	68	5733
2026-01-14 08:27:49.90	104.30	11.30	-48.2	-52.3	13.2	2.51e-05	0	43	0	57671680	68	5637
2026-01-14 08:27:50.90	104.18	11.37	-48.2	-52.2	13.4	1.29e-05	0	43	0	59768832	68	5535
2026-01-14 08:27:51.89	104.07	11.44	-48.1	-52.0	13.5	1.44e-05	0	43	0	60817408	68	5446
2026-01-14 08:27:52.88	103.95	11.51	-48.0	-51.8	13.8	5.30e-06	0	43	0	62914560	68	5312
2026-01-14 08:27:53.88	103.83	11.58	-48.0	-51.8	13.7	4.50e-06	0	43	0	65011712	68	5340
2026-01-14 08:27:54.87	103.71	11.66	-48.0	-51.8	13.7	9.90e-06	0	43	0	67108864	68	5331
2026-01-14 08:27:55.93	103.58	11.73	-48.1	-52.0	13.6	6.10e-06	0	43	0	69206016	68	5462
2026-01-14 08:27:56.83	103.48	11.80	-48.1	-51.9	13.6	1.60e-05	0	43	0	70254592	68	5400
2026-01-14 08:27:58.09	103.32	11.89	-48.0	-51.8	13.8	4.50e-06	0	43	0	73400320	68	5304
2026-01-14 08:27:58.86	103.23	11.95	-48.1	-51.8	13.7	4.50e-06	0	43	0	74448896	68	5336
2026-01-14 08:28:00.14	103.07	12.04	-48.0	-51.8	13.8	4.50e-06	0	43	0	76546048	68	5310
2026-01-14 08:28:00.87	102.98	12.09	-48.0	-51.8	13.8	5.30e-06	0	43	0	78643200	68	5300
2026-01-14 08:28:02.15	102.82	12.19	-48.0	-51.7	13.9	3.00e-06	0	43	0	80740352	68	5268
2026-01-14 08:28:02.87	102.73	12.24	-47.7	-51.4	14.1	2.20e-06	0	43	0	81788928	67	5360
2026-01-14 08:28:04.15	102.57	12.33	-47.7	-51.2	14.3	7.00e-07	0	43	0	83886080	67	5247
2026-01-14 08:28:04.86	102.49	12.39	-47.7	-51.2	14.3	7.00e-07	0	43	0	85983232	67	5254
2026-01-14 08:28:06.14	102.32	12.48	-47.7	-51.3	14.2	0.00e+00	0	43	0	88080384	67	5292
2026-01-14 08:28:06.93	102.22	12.54	-47.7	-51.2	14.3	3.00e-06	0	43	0	89128960	67	5279
2026-01-14 08:28:08.11	102.07	12.62	-47.7	-51.3	14.2	0.00e+00	0	43	0	92274688	67	5309
2026-01-14 08:28:08.97	101.96	12.69	-47.7	-51.3	14.2	0.00e+00	0	43	0	93323264	67	5320
2026-01-14 08:28:10.10	101.82	12.77	-47.8	-51.4	14.2	7.00e-07	0	43	0	95420416	67	5359
2026-01-14 08:28:10.96	101.71	12.83	-47.7	-51.3	14.3	1.50e-06	0	43	0	97517568	67	5298
2026-01-14 08:28:12.09	101.56	12.92	-47.7	-51.2	14.3	1.50e-06	0	43	0	99614720	67	5277
2026-01-14 08:28:13.24	101.41	13.00	-47.6	-51.2	14.4	0.00e+00	0	43	0	101711872	67	5239
2026-01-14 08:28:14.10	101.29	13.07	-47.7	-51.3	14.3	0.00e+00	0	43	0	102760448	67	5309
2026-01-14 08:28:15.23	101.14	13.15	-47.7	-51.4	14.2	1.50e-06	0	43	0	104857600	67	5341
2026-01-14 08:28:16.09	101.03	13.22	-47.7	-51.3	14.2	1.50e-06	0	43	0	106954752	67	5336
2026-01-14 08:28:17.22	100.88	13.30	-47.7	-51.4	14.2	1.50e-06	0	43	0	109051904	67	5345
2026-01-14 08:28:18.08	100.76	13.36	-47.6	-51.2	14.4	0.00e+00	0	43	0	110100480	67	5224
2026-01-14 08:28:19.22	100.61	13.45	-47.5	-50.9	14.7	0.00e+00	0	43	0	112197632	67	5073
2026-01-14 08:28:20.07	100.49	13.51	-47.5	-51.0	14.6	0.00e+00	0	43	0	114294784	66	5410
2026-01-14 08:28:21.21	100.34	13.60	-47.4	-50.8	14.8	0.00e+00	0	43	0	116391936	66	5311
2026-01-14 08:28:22.06	100.22	13.66	-47.4	-50.7	14.9	0.00e+00	0	43	0	117440512	66	5264
2026-01-14 08:28:23.20	100.06	13.75	-47.4	-50.7	14.9	0.00e+00	0	43	0	119537664	66	5271
2026-01-14 08:28:24.05	99.95	13.81	-47.4	-50.7	14.9	0.00e+00	0	43	0	121634816	66	5263
2026-01-14 08:28:25.38	99.76	13.91	-47.2	-50.5	15.1	0.00e+00	0	43	0	123731968	66	5134
2026-01-14 08:28:26.09	99.66	13.96	-47.2	-50.5	15.1	0.00e+00	0	43	0	125829120	66	5108
2026-01-14 08:28:27.37	99.48	14.06	-47.2	-50.5	15.1	0.00e+00	0	43	0	127926272	66	5149
2026-01-14 08:28:28.10	99.38	14.11	-47.2	-50.5	15.1	0.00e+00	0	43	0	128974848	66	5140
2026-01-14 08:28:29.38	99.20	14.21	-47.2	-50.5	15.1	0.00e+00	0	43	0	132120576	66	5137
2026-01-14 08:28:30.09	99.10	14.26	-47.2	-50.5	15.1	0.00e+00	0	43	0	133169152	66	5120
2026-01-14 08:28:31.37	98.91	14.36	-47.2	-50.5	15.1	0.00e+00	0	43	0	135266304	66	5130
2026-01-14 08:28:32.08	98.81	14.41	-47.3	-50.6	15.1	0.00e+00	0	43	0	136314880	66	5162
2026-01-14 08:28:33.36	98.62	14.51	-47.3	-50.6	15.0	0.00e+00	0	43	0	139460608	66	5203
2026-01-14 08:28:34.08	98.52	14.56	-47.3	-50.6	15.0	0.00e+00	0	43	0	140509184	66	5204
2026-01-14 08:28:35.36	98.33	14.66	-47.4	-50.8	14.9	0.00e+00	0	44	0	142606336	66	5299
2026-01-14 08:28:36.29	98.19	14.73	-47.4	-50.7	14.9	0.00e+00	0	43	0	144703488	66	5276
2026-01-14 08:28:37.28	98.05	14.81	-47.4	-50.8	14.8	0.00e+00	0	43	0	146800640	66	5324
2026-01-14 08:28:38.28	97.90	14.88	-47.5	-50.9	14.8	0.00e+00	0	43	0	147849216	66	5368
2026-01-14 08:28:39.27	97.75	14.96	-47.6	-51.0	14.6	0.00e+00	0	43	0	149946368	66	5449
2026-01-14 08:28:40.27	97.60	15.03	-47.6	-51.1	14.5	2.20e-06	0	43	0	152043520	66	5523
2026-01-14 08:28:41.26	97.45	15.11	-47.7	-51.2	14.5	0.00e+00	0	43	0	154140672	66	5565
2026-01-14 08:28:42.26	97.30	15.18	-47.6	-51.0	14.6	0.00e+00	0	43	0	156237824	66	5451
2026-01-14 08:28:43.25	97.15	15.26	-47.6	-51.1	14.6	0.00e+00	0	43	0	157286400	66	5491
2026-01-14 08:28:44.25	96.99	15.33	-47.6	-51.0	14.7	0.00e+00	0	43	0	159383552	66	5418
2026-01-14 08:28:45.29	96.83	15.41	-47.7	-51.2	14.5	0.00e+00	0	43	0	161480704	66	5541
2026-01-14 08:28:46.22	96.69	15.48	-47.7	-51.2	14.5	0.00e+00	0	43	0	163577856	66	5560
2026-01-14 08:28:47.22	96.53	15.56	-47.7	-51.1	14.5	0.00e+00	0	43	0	164626432	66	5515
2026-01-14 08:28:48.21	96.38	15.63	-47.6	-51.1	14.6	1.50e-06	0	43	0	166723584	66	5470
2026-01-14 08:28:49.21	96.22	15.71	-47.6	-51.0	14.7	0.00e+00	0	43	0	168820736	66	5445
2026-01-14 08:28:50.20	96.06	15.79	-47.7	-51.1	14.6	1.50e-06	0	43	0	170917888	66	5520
2026-01-14 08:28:51.20	95.90	15.86	-47.6	-51.1	14.6	7.00e-07	0	43	0	171966464	66	5496
2026-01-14 08:28:52.19	95.74	15.94	-47.7	-51.3	14.4	1.50e-06	0	43	0	174063616	66	5598
2026-01-14 08:28:53.50	95.53	16.04	-47.8	-51.4	14.3	0.00e+00	0	43	0	177209344	66	5677
2026-01-14 08:28:54.22	95.42	16.09	-47.8	-51.4	14.3	0.00e+00	0	43	0	178257920	66	5691
2026-01-14 08:28:55.83	95.15	16.21	-47.7	-51.3	14.4	0.00e+00	0	43	0	181403648	66	5613
2026-01-14 08:28:56.40	95.06	16.26	-47.8	-51.3	14.4	0.00e+00	0	43	0	182452224	66	5625
2026-01-14 08:28:58.10	94.78	16.39	-47.8	-51.4	14.3	1.50e-06	0	43	0	185597952	66	5713
2026-01-14 08:28:58.67	94.69	16.43	-47.8	-51.4	14.3	7.00e-07	0	43	0	186646528	66	5690
2026-01-14 08:29:00.38	94.40	16.56	-47.8	-51.4	14.3	7.00e-07	0	43	0	189792256	66	5663
2026-01-14 08:29:00.95	94.31	16.60	-47.8	-51.4	14.4	7.00e-07	0	43	0	190840832	66	5663
2026-01-14 08:29:02.66	94.02	16.73	-47.9	-51.6	14.2	7.00e-07	0	43	0	193986560	66	5790
2026-01-14 08:29:03.22	93.92	16.78	-48.0	-51.6	14.1	2.20e-06	0	43	0	195035136	66	5854
2026-01-14 08:29:05.04	93.61	16.91	-47.9	-51.5	14.2	1.50e-06	0	44	0	198180864	66	5762
2026-01-14 08:29:05.61	93.51	16.96	-47.9	-51.4	14.3	0.00e+00	0	43	0	199229440	66	5718
2026-01-14 08:29:07.31	93.22	17.09	-48.0	-51.6	14.2	1.50e-06	0	43	0	202375168	66	5811
2026-01-14 08:29:08.04	93.09	17.14	-48.0	-51.7	14.1	0.00e+00	0	43	0	204472320	66	5863
2026-01-14 08:29:09.32	92.87	17.24	-48.0	-51.7	14.0	3.80e-06	0	43	0	206569472	66	5903
2026-01-14 08:29:10.06	92.74	17.29	-47.9	-51.6	14.1	2.20e-06	0	43	0	207618048	66	5841
2026-01-14 08:29:11.34	92.52	17.39	-47.8	-51.5	14.3	0.00e+00	0	43	0	210763776	66	5770
2026-01-14 08:29:12.05	92.39	17.44	-47.9	-51.6	14.2	7.00e-07	0	43	0	211812352	66	5825
2026-01-14 08:29:13.33	92.16	17.54	-47.9	-51.5	14.3	0.00e+00	0	43	0	213909504	66	5785
2026-01-14 08:29:14.07	92.03	17.60	-47.8	-51.5	14.3	0.00e+00	0	43	0	214958080	66	5756
2026-01-14 08:29:15.44	91.78	17.70	-47.8	-51.4	14.4	0.00e+00	0	43	0	218103808	66	5678
2026-01-14 08:29:16.15	91.65	17.75	-47.8	-51.5	14.4	0.00e+00	0	43	0	219152384	66	5728
2026-01-14 08:29:17.43	91.42	17.85	-47.9	-51.4	14.4	7.00e-07	0	43	0	221249536	66	5713
2026-01-14 08:29:18.16	91.29	17.91	-47.9	-51.5	14.3	0.00e+00	0	43	0	223346688	66	5723
2026-01-14 08:29:19.43	91.05	18.00	-47.9	-51.5	14.4	7.00e-07	0	43	0	225443840	66	5735
2026-01-14 08:29:20.15	90.92	18.06	-47.8	-51.3	14.5	7.00e-07	0	43	0	226492416	66	5632
2026-01-14 08:29:21.42	90.69	18.15	-47.7	-51.2	14.6	0.00e+00	0	43	0	229638144	66	5565
2026-01-14 08:29:22.13	90.55	18.20	-47.7	-51.2	14.6	7.00e-07	0	43	0	230686720	66	5556
2026-01-14 08:29:23.42	90.31	18.30	-47.7	-51.2	14.6	0.00e+00	0	43	0	232783872	66	5561
2026-01-14 08:29:24.13	90.18	18.35	-47.6	-51.1	14.7	0.00e+00	0	43	0	233832448	66	5478
2026-01-14 08:29:25.40	89.94	18.45	-47.4	-50.9	14.9	0.00e+00	0	43	0	236978176	66	5386
2026-01-14 08:29:26.13	89.80	18.50	-47.4	-50.9	14.9	0.00e+00	0	43	0	238026752	66	5367
2026-01-14 08:29:27.79	89.48	18.63	-47.4	-50.9	14.9	0.00e+00	0	43	0	241172480	66	5373
2026-01-14 08:29:28.36	89.37	18.67	-47.5	-51.0	14.9	0.00e+00	0	43	0	242221056	66	5409
2026-01-14 08:29:30.25	89.01	18.81	-47.4	-50.7	15.1	0.00e+00	0	43	0	245366784	66	5273
2026-01-14 08:29:30.82	88.90	18.85	-47.3	-50.7	15.1	0.00e+00	0	43	0	246415360	66	5240
2026-01-14 08:29:32.53	88.56	18.98	-47.1	-50.3	15.5	0.00e+00	0	43	0	249561088	66	5010
2026-01-14 08:29:33.10	88.45	19.02	-46.9	-50.2	15.6	0.00e+00	0	43	0	250609664	65	5226
2026-01-14 08:29:34.80	88.11	19.15	-46.8	-49.9	15.8	0.00e+00	0	43	0	254803968	65	5089
2026-01-14 08:29:35.37	88.00	19.19	-46.7	-49.8	16.0	0.00e+00	0	43	0	255852544	65	4990
2026-01-14 08:29:37.07	87.66	19.31	-46.4	-49.4	16.4	0.00e+00	0	43	0	258998272	64	5076
2026-01-14 08:29:37.64	87.54	19.35	-46.4	-49.4	16.4	0.00e+00	0	43	0	260046848	64	5052
2026-01-14 08:29:39.49	87.17	19.49	-46.2	-49.2	16.6	0.00e+00	0	43	0	263192576	64	4950
2026-01-14 08:29:40.06	87.05	19.53	-46.2	-49.2	16.6	0.00e+00	0	43	0	264241152	64	4954
2026-01-14 08:29:41.76	86.71	19.65	-46.1	-49.0	16.7	0.00e+00	0	43	0	267386880	64	4870
2026-01-14 08:29:42.46	86.56	19.70	-46.0	-48.9	16.9	0.00e+00	0	43	0	268435456	64	4785
2026-01-14 08:29:43.88	86.27	19.81	-46.1	-49.0	16.8	0.00e+00	0	43	0	271581184	64	4824
2026-01-14 08:29:44.65	86.11	19.86	-46.1	-49.0	16.8	0.00e+00	0	43	0	272629760	64	4859
2026-01-14 08:29:46.25	85.77	19.98	-46.0	-48.9	16.9	0.00e+00	0	43	0	275775488	64	4771
2026-01-14 08:29:46.82	85.65	20.02	-46.0	-48.9	16.9	0.00e+00	0	43	0	276824064	64	4770
2026-01-14 08:29:48.68	85.26	20.15	-46.1	-48.9	16.9	0.00e+00	0	43	0	279969792	64	4783
2026-01-14 08:29:49.25	85.14	20.19	-46.0	-48.8	16.9	0.00e+00	0	43	0	281018368	64	4737
2026-01-14 08:29:50.95	84.78	20.31	-46.1	-48.9	16.9	0.00e+00	0	43	0	284164096	64	4797
2026-01-14 08:29:51.52	84.65	20.35	-46.0	-48.9	16.9	0.00e+00	0	43	0	285212672	64	4774
2026-01-14 08:29:53.23	84.28	20.47	-45.9	-48.7	17.2	0.00e+00	0	43	0	288358400	63	4930
2026-01-14 08:29:53.80	84.16	20.51	-46.0	-48.8	17.1	0.00e+00	0	43	0	289406976	63	5023
2026-01-14 08:29:55.50	83.79	20.63	-46.0	-48.8	17.1	0.00e+00	0	43	0	293601280	63	5024
2026-01-14 08:29:56.07	83.66	20.67	-45.8	-48.6	17.2	0.00e+00	0	44	0	294649856	63	4912
2026-01-14 08:29:57.78	83.29	20.79	-45.9	-48.6	17.2	0.00e+00	0	43	0	297795584	63	4922
2026-01-14 08:29:58.35	83.16	20.83	-45.9	-48.6	17.2	0.00e+00	0	43	0	298844160	63	4913
2026-01-14 08:30:00.05	82.78	20.94	-45.8	-48.4	17.4	0.00e+00	0	43	0	301989888	63	4811
2026-01-14 08:30:00.62	82.65	20.98	-45.8	-48.5	17.4	0.00e+00	0	43	0	303038464	63	4820
2026-01-14 08:30:02.55	82.22	21.11	-45.8	-48.5	17.4	0.00e+00	0	43	0	306184192	63	4835
2026-01-14 08:30:03.11	82.09	21.15	-45.8	-48.5	17.4	0.00e+00	0	43	0	307232768	63	4848
2026-01-14 08:30:05.12	81.64	21.29	-46.0	-48.8	17.1	0.00e+00	0	43	0	311427072	63	4984
2026-01-14 08:30:06.03	81.43	21.35	-46.0	-48.7	17.2	0.00e+00	0	43	0	312475648	63	4953
2026-01-14 08:30:07.03	81.20	21.41	-46.0	-48.7	17.2	0.00e+00	0	43	0	314572800	63	4927
2026-01-14 08:30:08.02	80.97	21.48	-46.0	-48.6	17.2	0.00e+00	0	43	0	316669952	63	4920
2026-01-14 08:30:09.01	80.74	21.54	-46.0	-48.7	17.2	0.00e+00	0	44	0	318767104	63	4932
2026-01-14 08:30:10.01	80.51	21.61	-46.1	-48.7	17.2	0.00e+00	0	43	0	319815680	63	4976
2026-01-14 08:30:11.00	80.27	21.67	-46.1	-48.8	17.1	0.00e+00	0	43	0	321912832	63	5024
2026-01-14 08:30:12.00	80.04	21.74	-46.2	-48.9	17.0	0.00e+00	0	43	0	324009984	63	5055
2026-01-14 08:30:12.99	79.81	21.80	-46.2	-48.9	17.0	0.00e+00	0	43	0	326107136	63	5084
2026-01-14 08:30:13.99	79.57	21.87	-46.0	-48.7	17.2	0.00e+00	0	44	0	328204288	63	4967
2026-01-14 08:30:14.98	79.33	21.93	-46.1	-48.8	17.1	0.00e+00	0	43	0	329252864	63	4991
2026-01-14 08:30:15.98	79.09	21.99	-46.1	-48.8	17.1	0.00e+00	0	44	0	331350016	63	5010
2026-01-14 08:30:16.97	78.86	22.05	-46.2	-48.9	17.0	0.00e+00	0	43	0	333447168	63	5077
2026-01-14 08:30:17.97	78.62	22.12	-46.3	-49.0	16.9	0.00e+00	0	43	0	335544320	63	5131
2026-01-14 08:30:18.96	78.38	22.18	-46.3	-49.0	16.9	0.00e+00	0	43	0	336592896	63	5138
2026-01-14 08:30:19.95	78.14	22.24	-46.2	-48.9	17.0	0.00e+00	0	43	0	338690048	63	5084
2026-01-14 08:30:20.95	77.89	22.30	-46.3	-49.1	16.8	0.00e+00	0	44	0	340787200	63	5183
2026-01-14 08:30:21.95	77.65	22.36	-46.3	-49.1	16.9	0.00e+00	0	43	0	342884352	63	5160
2026-01-14 08:30:22.93	77.41	22.42	-46.0	-48.7	17.3	0.00e+00	0	43	0	344981504	63	4951
2026-01-14 08:30:23.93	77.16	22.48	-45.9	-48.6	17.4	0.00e+00	0	43	0	346030080	63	4883
2026-01-14 08:30:24.99	76.90	22.54	-46.0	-48.7	17.3	0.00e+00	0	44	0	348127232	63	4927
2026-01-14 08:30:25.87	76.68	22.60	-45.9	-48.5	17.4	0.00e+00	0	43	0	350224384	63	4863
2026-01-14 08:30:27.01	76.40	22.66	-45.8	-48.5	17.5	0.00e+00	0	44	0	352321536	63	4824
2026-01-14 08:30:27.86	76.18	22.71	-45.9	-48.5	17.4	0.00e+00	0	44	0	353370112	63	4864
2026-01-14 08:30:29.00	75.90	22.78	-46.0	-48.7	17.3	0.00e+00	0	43	0	355467264	63	4927
2026-01-14 08:30:29.85	75.68	22.83	-45.9	-48.5	17.4	0.00e+00	0	44	0	357564416	63	4843
2026-01-14 08:30:30.99	75.39	22.89	-45.9	-48.5	17.4	0.00e+00	0	44	0	359661568	63	4858
2026-01-14 08:30:31.84	75.18	22.94	-45.9	-48.5	17.4	0.00e+00	0	43	0	360710144	63	4868
2026-01-14 08:30:32.98	74.89	23.00	-45.9	-48.4	17.5	0.00e+00	0	44	0	363855872	63	4800
2026-01-14 08:30:33.83	74.67	23.05	-45.7	-48.3	17.6	0.00e+00	0	44	0	364904448	63	4733
2026-01-14 08:30:35.00	74.37	23.12	-45.8	-48.4	17.5	0.00e+00	0	44	0	367001600	63	4800
2026-01-14 08:30:35.85	74.15	23.16	-45.8	-48.4	17.6	0.00e+00	0	43	0	369098752	63	4779
2026-01-14 08:30:36.99	73.86	23.22	-45.6	-48.1	17.8	0.00e+00	0	44	0	371195904	63	4649
2026-01-14 08:30:37.84	73.63	23.27	-45.5	-48.0	17.9	0.00e+00	0	43	0	372244480	63	4576
2026-01-14 08:30:39.12	73.30	23.34	-45.5	-48.0	18.0	0.00e+00	0	44	0	375390208	63	4546
2026-01-14 08:30:40.24	73.01	23.40	-45.6	-48.0	17.9	0.00e+00	0	44	0	376438784	63	4596
2026-01-14 08:30:41.09	72.79	23.44	-45.5	-48.0	17.9	0.00e+00	0	43	0	378535936	63	4563
2026-01-14 08:30:42.23	72.49	23.50	-45.5	-48.0	18.0	0.00e+00	0	44	0	380633088	63	4582
2026-01-14 08:30:43.08	72.26	23.54	-45.6	-48.1	17.9	0.00e+00	0	43	0	382730240	63	4612
2026-01-14 08:30:44.22	71.96	23.60	-45.7	-48.2	17.8	0.00e+00	0	43	0	384827392	63	4705
2026-01-14 08:30:45.07	71.73	23.64	-45.8	-48.3	17.7	0.00e+00	0	43	0	385875968	63	4734
2026-01-14 08:30:46.21	71.43	23.70	-45.9	-48.5	17.5	0.00e+00	0	43	0	387973120	63	4864
2026-01-14 08:30:47.06	71.20	23.74	-46.1	-48.7	17.3	0.00e+00	0	44	0	390070272	63	4975
2026-01-14 08:30:48.20	70.90	23.79	-46.3	-49.1	17.0	0.00e+00	0	43	0	392167424	63	5172
2026-01-14 08:30:49.05	70.67	23.83	-46.3	-49.0	17.1	0.00e+00	0	43	0	393216000	63	5111
2026-01-14 08:30:50.19	70.36	23.89	-46.2	-48.9	17.2	0.00e+00	0	44	0	395313152	63	5065
2026-01-14 08:30:51.04	70.13	23.92	-46.3	-48.9	17.1	0.00e+00	0	44	0	397410304	63	5086
2026-01-14 08:30:52.17	69.82	23.98	-46.2	-48.8	17.2	0.00e+00	0	44	0	399507456	63	5029
2026-01-14 08:30:53.03	69.59	24.01	-46.2	-48.9	17.2	0.00e+00	0	43	0	400556032	63	5061
2026-01-14 08:30:54.17	69.28	24.06	-46.3	-48.9	17.1	0.00e+00	0	44	0	402653184	63	5095
2026-01-14 08:30:55.30	68.97	24.11	-46.3	-48.9	17.1	0.00e+00	0	44	0	404750336	63	5089
2026-01-14 08:30:56.33	68.69	24.16	-46.4	-49.1	17.0	0.00e+00	0	43	0	406847488	63	5174
2026-01-14 08:30:57.33	68.41	24.20	-46.5	-49.3	16.8	0.00e+00	0	44	0	408944640	63	5302
2026-01-14 08:30:58.32	68.14	24.24	-46.6	-49.4	16.7	0.00e+00	0	44	0	411041792	63	5352
2026-01-14 08:30:59.31	67.86	24.28	-46.7	-49.5	16.4	0.00e+00	0	44	0	413138944	64	5148
2026-01-14 08:31:00.31	67.59	24.32	-46.6	-49.4	16.6	0.00e+00	0	44	0	414187520	64	5074
2026-01-14 08:31:01.30	67.31	24.36	-46.7	-49.5	16.5	0.00e+00	0	44	0	416284672	64	5140
2026-01-14 08:31:02.30	67.03	24.40	-46.8	-49.7	16.3	0.00e+00	0	43	0	418381824	64	5262
2026-01-14 08:31:03.29	66.75	24.44	-46.9	-49.9	16.1	0.00e+00	0	43	0	420478976	64	5364
2026-01-14 08:31:04.29	66.47	24.47	-46.9	-49.9	16.1	0.00e+00	0	44	0	421527552	64	5364
2026-01-14 08:31:05.28	66.20	24.51	-47.0	-49.9	16.1	0.00e+00	0	43	0	423624704	64	5393
2026-01-14 08:31:06.28	65.91	24.55	-47.0	-50.0	16.0	0.00e+00	0	44	0	425721856	64	5433
2026-01-14 08:31:07.27	65.64	24.58	-47.0	-50.0	16.0	0.00e+00	0	43	0	427819008	64	5417
2026-01-14 08:31:08.27	65.35	24.62	-47.2	-50.2	15.8	0.00e+00	0	43	0	429916160	64	5561
2026-01-14 08:31:09.41	65.03	24.65	-47.2	-50.3	15.8	0.00e+00	0	43	0	432013312	65	5280
2026-01-14 08:31:10.26	64.79	24.68	-47.3	-50.4	15.6	0.00e+00	0	43	0	433061888	65	5370
2026-01-14 08:31:11.60	64.41	24.73	-47.3	-50.4	15.6	0.00e+00	0	43	0	436207616	65	5383
2026-01-14 08:31:12.31	64.20	24.75	-47.2	-50.4	15.7	0.00e+00	0	44	0	437256192	65	5342
2026-01-14 08:31:13.59	63.84	24.79	-47.3	-50.5	15.5	0.00e+00	0	44	0	439353344	65	5424
2026-01-14 08:31:14.30	63.63	24.81	-47.3	-50.4	15.6	0.00e+00	0	44	0	440401920	65	5382
2026-01-14 08:31:15.58	63.27	24.85	-47.3	-50.4	15.6	0.00e+00	0	43	0	443547648	65	5386
2026-01-14 08:31:16.29	63.06	24.87	-47.3	-50.5	15.5	0.00e+00	0	43	0	444596224	65	5439
2026-01-14 08:31:17.57	62.69	24.90	-47.3	-50.4	15.7	0.00e+00	0	43	0	446693376	65	5373
2026-01-14 08:31:18.28	62.49	24.92	-47.3	-50.5	15.6	0.00e+00	0	43	0	448790528	65	5405
2026-01-14 08:31:19.56	62.12	24.96	-47.5	-50.7	15.4	0.00e+00	0	44	0	450887680	65	5535
2026-01-14 08:31:20.30	61.91	24.98	-47.6	-50.9	15.2	0.00e+00	0	44	0	451936256	65	5674
2026-01-14 08:31:21.58	61.53	25.01	-47.7	-51.0	15.1	0.00e+00	0	44	0	454033408	66	5412
2026-01-14 08:31:22.29	61.33	25.02	-47.6	-50.9	15.2	7.00e-07	0	44	0	456130560	66	5351
2026-01-14 08:31:23.65	60.93	25.06	-47.6	-50.8	15.2	0.00e+00	0	43	0	458227712	66	5324
2026-01-14 08:31:24.36	60.73	25.07	-47.6	-50.8	15.3	7.00e-07	0	43	0	459276288	66	5281
2026-01-14 08:31:25.64	60.35	25.10	-47.5	-50.7	15.3	0.00e+00	0	44	0	462422016	66	5267
2026-01-14 08:31:26.71	60.04	25.12	-47.4	-50.6	15.5	0.00e+00	0	44	0	464519168	66	5177
2026-01-14 08:31:27.57	59.79	25.14	-47.3	-50.4	15.6	0.00e+00	0	43	0	465567744	66	5099
2026-01-14 08:31:28.70	59.46	25.16	-47.3	-50.4	15.6	0.00e+00	0	44	0	467664896	66	5090
2026-01-14 08:31:29.56	59.21	25.18	-47.4	-50.5	15.5	0.00e+00	0	43	0	469762048	66	5146
2026-01-14 08:31:30.69	58.87	25.20	-47.5	-50.6	15.4	0.00e+00	0	44	0	471859200	66	5206
2026-01-14 08:31:31.54	58.62	25.21	-47.4	-50.6	15.5	0.00e+00	0	43	0	472907776	66	5184
2026-01-14 08:31:32.68	58.29	25.23	-47.5	-50.7	15.4	0.00e+00	0	43	0	475004928	66	5242
2026-01-14 08:31:33.53	58.04	25.24	-47.5	-50.7	15.3	0.00e+00	0	44	0	477102080	66	5279
2026-01-14 08:31:34.67	57.70	25.26	-47.6	-50.9	15.2	0.00e+00	0	44	0	479199232	66	5350
2026-01-14 08:31:35.52	57.45	25.27	-47.6	-50.8	15.2	0.00e+00	0	43	0	480247808	66	5333
2026-01-14 08:31:36.66	57.12	25.28	-47.5	-50.7	15.4	0.00e+00	0	44	0	482344960	66	5252
2026-01-14 08:31:37.51	56.87	25.29	-47.5	-50.6	15.4	0.00e+00	0	44	0	484442112	66	5218
2026-01-14 08:31:38.65	56.53	25.31	-47.4	-50.6	15.4	0.00e+00	0	44	0	486539264	66	5205
2026-01-14 08:31:39.50	56.28	25.31	-47.3	-50.4	15.6	0.00e+00	0	44	0	487587840	66	5097
2026-01-14 08:31:40.64	55.94	25.33	-47.2	-50.2	15.8	0.00e+00	0	44	0	489684992	66	4960
2026-01-14 08:31:41.72	55.62	25.33	-47.0	-49.9	16.1	0.00e+00	0	44	0	491782144	66	4809
2026-01-14 08:31:42.57	55.37	25.34	-47.0	-49.9	16.1	0.00e+00	0	44	0	493879296	65	5090
2026-01-14 08:31:43.71	55.03	25.35	-47.0	-49.9	16.1	0.00e+00	0	43	0	495976448	65	5082
2026-01-14 08:31:44.83	54.70	25.36	-47.2	-50.2	15.8	0.00e+00	0	44	0	498073600	65	5258
2026-01-14 08:31:45.85	54.40	25.36	-47.1	-50.2	15.9	0.00e+00	0	44	0	500170752	65	5233
2026-01-14 08:31:46.85	54.10	25.36	-47.0	-50.0	16.1	0.00e+00	0	44	0	502267904	65	5104
2026-01-14 08:31:47.84	53.81	25.37	-46.8	-49.8	16.2	0.00e+00	0	44	0	503316480	65	4986
2026-01-14 08:31:48.84	53.51	25.37	-46.7	-49.6	16.4	0.00e+00	0	43	0	505413632	65	4897
2026-01-14 08:31:49.83	53.21	25.37	-46.6	-49.5	16.6	0.00e+00	0	44	0	507510784	65	4821
2026-01-14 08:31:50.83	52.92	25.37	-46.7	-49.6	16.5	0.00e+00	0	43	0	509607936	65	4888
2026-01-14 08:31:51.82	52.62	25.37	-46.7	-49.5	16.5	0.00e+00	0	43	0	511705088	65	4870
2026-01-14 08:31:52.82	52.33	25.37	-46.7	-49.5	16.5	0.00e+00	0	44	0	512753664	65	4839
2026-01-14 08:31:53.81	52.03	25.37	-46.5	-49.3	16.7	0.00e+00	0	43	0	514850816	65	4722
2026-01-14 08:31:54.81	51.74	25.37	-46.4	-49.1	17.0	0.00e+00	0	44	0	516947968	64	4878
2026-01-14 08:31:55.80	51.44	25.36	-46.3	-49.0	17.0	0.00e+00	0	44	0	519045120	64	4818
2026-01-14 08:31:56.80	51.15	25.36	-46.2	-48.9	17.0	0.00e+00	0	43	0	520093696	64	4801
2026-01-14 08:31:57.84	50.84	25.35	-46.3	-49.0	17.1	0.00e+00	0	43	0	522190848	64	4828
2026-01-14 08:31:58.85	50.54	25.35	-46.1	-48.7	17.3	0.00e+00	0	44	0	524288000	64	4704
2026-01-14 08:31:59.84	50.25	25.34	-46.0	-48.6	17.3	0.00e+00	0	44	0	526385152	64	4649
2026-01-14 08:32:00.84	49.95	25.33	-46.0	-48.6	17.5	0.00e+00	0	44	0	528482304	63	4905
2026-01-14 08:32:01.94	49.62	25.33	-46.0	-48.6	17.4	0.00e+00	0	44	0	530579456	63	4926
2026-01-14 08:32:02.83	49.36	25.32	-46.2	-48.8	17.3	0.00e+00	0	43	0	531628032	63	5011
2026-01-14 08:32:03.97	49.02	25.31	-45.8	-48.4	17.7	0.00e+00	0	44	0	533725184	63	4768
2026-01-14 08:32:04.82	48.77	25.30	-45.9	-48.4	17.6	0.00e+00	0	44	0	535822336	63	4812
2026-01-14 08:32:05.96	48.44	25.28	-45.8	-48.3	17.8	0.00e+00	0	44	0	537919488	63	4710
2026-01-14 08:32:06.81	48.19	25.27	-45.8	-48.3	17.8	0.00e+00	0	44	0	538968064	63	4738
2026-01-14 08:32:07.95	47.85	25.26	-45.8	-48.3	17.8	0.00e+00	0	44	0	541065216	63	4718
2026-01-14 08:32:08.80	47.60	25.24	-45.7	-48.2	17.8	0.00e+00	0	44	0	543162368	63	4705
2026-01-14 08:32:09.94	47.26	25.23	-45.7	-48.2	17.9	0.00e+00	0	44	0	545259520	63	4657
2026-01-14 08:32:10.79	47.01	25.21	-45.6	-48.1	17.9	0.00e+00	0	43	0	546308096	63	4632
2026-01-14 08:32:11.93	46.68	25.19	-45.6	-48.1	18.0	0.00e+00	0	43	0	548405248	63	4608
2026-01-14 08:32:12.78	46.43	25.18	-45.6	-48.1	17.9	0.00e+00	0	44	0	550502400	63	4645
2026-01-14 08:32:14.00	46.07	25.16	-45.6	-48.1	17.9	0.00e+00	0	44	0	552599552	63	4626
2026-01-14 08:32:14.85	45.82	25.14	-45.7	-48.2	17.9	0.00e+00	0	43	0	554696704	63	4656
2026-01-14 08:32:15.99	45.49	25.12	-45.7	-48.3	17.8	0.00e+00	0	44	0	556793856	63	4709
2026-01-14 08:32:16.84	45.24	25.10	-45.7	-48.2	17.8	0.00e+00	0	43	0	557842432	63	4700
2026-01-14 08:32:17.98	44.91	25.08	-45.8	-48.4	17.7	0.00e+00	0	44	0	559939584	63	4761
2026-01-14 08:32:18.83	44.66	25.06	-45.8	-48.4	17.7	0.00e+00	0	44	0	562036736	63	4766
2026-01-14 08:32:19.97	44.33	25.03	-45.8	-48.4	17.7	0.00e+00	0	44	0	564133888	63	4766
2026-01-14 08:32:20.82	44.09	25.01	-46.0	-48.6	17.5	0.00e+00	0	44	0	565182464	63	4885
2026-01-14 08:32:21.96	43.76	24.98	-45.9	-48.5	17.6	0.00e+00	0	43	0	567279616	63	4841
2026-01-14 08:32:22.81	43.51	24.96	-46.1	-48.7	17.4	0.00e+00	0	44	0	569376768	63	4967
2026-01-14 08:32:23.95	43.18	24.93	-46.0	-48.6	17.5	0.00e+00	0	44	0	571473920	63	4901
2026-01-14 08:32:24.80	42.94	24.91	-46.0	-48.6	17.5	0.00e+00	0	44	0	572522496	63	4922
2026-01-14 08:32:25.94	42.61	24.88	-46.0	-48.6	17.5	0.00e+00	0	44	0	574619648	63	4892
2026-01-14 08:32:26.79	42.36	24.85	-46.0	-48.6	17.5	0.00e+00	0	44	0	576716800	63	4920
2026-01-14 08:32:27.97	42.03	24.82	-46.2	-48.8	17.3	0.00e+00	0	44	0	578813952	63	5024
2026-01-14 08:32:28.83	41.78	24.79	-46.3	-49.0	17.1	0.00e+00	0	44	0	580911104	63	5109
2026-01-14 08:32:30.03	41.44	24.76	-46.4	-49.1	17.0	0.00e+00	0	43	0	583008256	63	5199
2026-01-14 08:32:30.88	41.20	24.73	-46.4	-49.1	17.0	0.00e+00	0	44	0	584056832	63	5208
2026-01-14 08:32:32.08	40.85	24.69	-46.4	-49.1	17.0	0.00e+00	0	44	0	586153984	63	5215
2026-01-14 08:32:32.93	40.61	24.66	-46.4	-49.2	17.0	0.00e+00	0	44	0	588251136	63	5220
2026-01-14 08:32:34.07	40.29	24.62	-46.6	-49.4	16.8	0.00e+00	0	43	0	590348288	63	5344
2026-01-14 08:32:34.92	40.05	24.60	-46.6	-49.3	16.8	0.00e+00	0	44	0	592445440	63	5327
2026-01-14 08:32:36.06	39.73	24.56	-46.6	-49.4	16.7	0.00e+00	0	44	0	594542592	63	5370
2026-01-14 08:32:36.92	39.49	24.52	-46.7	-49.5	16.6	0.00e+00	0	44	0	595591168	63	5438
2026-01-14 08:32:38.05	39.17	24.48	-46.6	-49.5	16.6	0.00e+00	0	44	0	597688320	64	5102
2026-01-14 08:32:38.91	38.93	24.45	-46.6	-49.5	16.6	0.00e+00	0	44	0	599785472	64	5137
2026-01-14 08:32:40.05	38.61	24.41	-46.6	-49.4	16.6	0.00e+00	0	44	0	601882624	64	5092
2026-01-14 08:32:40.90	38.38	24.38	-46.6	-49.4	16.6	0.00e+00	0	44	0	602931200	64	5092
2026-01-14 08:32:42.03	38.06	24.33	-46.8	-49.6	16.4	0.00e+00	0	44	0	605028352	64	5210
2026-01-14 08:32:42.89	37.82	24.30	-46.8	-49.8	16.3	0.00e+00	0	44	0	607125504	64	5290
2026-01-14 08:32:44.02	37.51	24.25	-47.0	-49.9	16.2	0.00e+00	0	44	0	609222656	64	5393
2026-01-14 08:32:44.88	37.27	24.22	-47.0	-50.0	16.1	0.00e+00	0	44	0	610271232	64	5421
2026-01-14 08:32:46.01	36.96	24.17	-47.1	-50.1	16.0	0.00e+00	0	43	0	612368384	64	5472
2026-01-14 08:32:46.86	36.73	24.13	-47.0	-50.0	16.1	0.00e+00	0	43	0	614465536	64	5447
2026-01-14 08:32:48.05	36.41	24.08	-47.0	-50.0	16.1	0.00e+00	0	44	0	616562688	64	5407
2026-01-14 08:32:48.90	36.17	24.04	-47.1	-50.1	16.0	0.00e+00	0	44	0	618659840	64	5492
2026-01-14 08:32:50.10	35.85	23.99	-47.1	-50.2	15.9	0.00e+00	0	44	0	620756992	64	5531
2026-01-14 08:32:50.96	35.61	23.95	-47.1	-50.1	15.9	0.00e+00	0	43	0	621805568	64	5518
2026-01-14 08:32:52.09	35.31	23.90	-47.1	-50.2	15.9	0.00e+00	0	44	0	623902720	64	5574
2026-01-14 08:32:52.95	35.08	23.86	-47.1	-50.3	15.8	0.00e+00	0	43	0	625999872	64	5628
2026-01-14 08:32:54.08	34.77	23.81	-47.1	-50.3	15.8	0.00e+00	0	44	0	628097024	65	5330
2026-01-14 08:32:54.98	34.53	23.76	-47.2	-50.4	15.6	0.00e+00	0	44	0	629145600	65	5391
2026-01-14 08:32:56.09	34.24	23.71	-47.3	-50.6	15.5	0.00e+00	0	44	0	631242752	65	5472
2026-01-14 08:32:56.94	34.01	23.67	-47.4	-50.7	15.4	0.00e+00	0	44	0	633339904	65	5570
2026-01-14 08:32:58.08	33.71	23.61	-47.3	-50.6	15.4	0.00e+00	0	44	0	635437056	65	5506
2026-01-14 08:32:59.14	33.43	23.56	-47.2	-50.4	15.7	0.00e+00	0	44	0	637534208	65	5360
2026-01-14 08:33:00.00	33.20	23.52	-47.1	-50.3	15.8	0.00e+00	0	43	0	638582784	65	5294
2026-01-14 08:33:01.14	32.90	23.46	-47.1	-50.2	15.8	0.00e+00	0	44	0	640679936	65	5278
2026-01-14 08:33:01.99	32.68	23.42	-47.2	-50.3	15.8	0.00e+00	0	43	0	642777088	65	5320
2026-01-14 08:33:03.13	32.38	23.36	-47.2	-50.4	15.7	0.00e+00	0	44	0	644874240	65	5363
2026-01-14 08:33:03.98	32.16	23.31	-47.1	-50.3	15.8	0.00e+00	0	44	0	646971392	65	5295
2026-01-14 08:33:05.12	31.87	23.25	-47.2	-50.4	15.7	0.00e+00	0	43	0	649068544	65	5359
2026-01-14 08:33:06.34	31.55	23.19	-47.2	-50.4	15.6	0.00e+00	0	44	0	651165696	65	5402
2026-01-14 08:33:07.19	31.33	23.14	-47.3	-50.6	15.5	0.00e+00	0	44	0	652214272	65	5485
2026-01-14 08:33:08.33	31.04	23.08	-47.5	-50.7	15.4	0.00e+00	0	44	0	654311424	65	5567
2026-01-14 08:33:09.18	30.82	23.03	-47.5	-50.8	15.3	0.00e+00	0	43	0	656408576	65	5624
2026-01-14 08:33:10.32	30.53	22.97	-47.6	-50.9	15.2	0.00e+00	0	44	0	658505728	65	5671
2026-01-14 08:33:11.17	30.32	22.92	-47.4	-50.6	15.5	0.00e+00	0	44	0	659554304	65	5524
2026-01-14 08:33:12.31	30.03	22.86	-47.4	-50.6	15.5	0.00e+00	0	43	0	661651456	65	5483
2026-01-14 08:33:13.16	29.81	22.81	-47.2	-50.3	15.7	0.00e+00	0	44	0	663748608	65	5329
2026-01-14 08:33:14.30	29.53	22.74	-47.3	-50.4	15.7	0.00e+00	0	44	0	665845760	65	5390
2026-01-14 08:33:15.15	29.32	22.69	-47.3	-50.5	15.6	0.00e+00	0	44	0	666894336	65	5412
2026-01-14 08:33:16.43	29.00	22.62	-47.3	-50.5	15.6	0.00e+00	0	44	0	670040064	65	5438
2026-01-14 08:33:17.14	28.82	22.58	-47.3	-50.5	15.5	0.00e+00	0	44	0	671088640	65	5461
2026-01-14 08:33:18.42	28.51	22.50	-47.3	-50.5	15.6	0.00e+00	0	44	0	673185792	65	5432
2026-01-14 08:33:19.13	28.33	22.46	-47.3	-50.5	15.6	0.00e+00	0	44	0	675282944	65	5418
2026-01-14 08:33:20.41	28.02	22.38	-47.2	-50.3	15.7	0.00e+00	0	43	0	677380096	65	5340
2026-01-14 08:33:21.12	27.84	22.34	-47.1	-50.2	15.9	0.00e+00	0	44	0	678428672	65	5252
2026-01-14 08:33:22.75	27.45	22.24	-47.1	-50.1	15.9	0.00e+00	0	44	0	681574400	65	5217
2026-01-14 08:33:23.32	27.31	22.20	-47.1	-50.1	16.0	0.00e+00	0	44	0	682622976	65	5182
2026-01-14 08:33:25.03	26.90	22.10	-46.9	-49.9	16.2	0.00e+00	0	44	0	685768704	65	5044
2026-01-14 08:33:25.59	26.77	22.06	-46.8	-49.7	16.4	0.00e+00	0	44	0	686817280	65	4955
2026-01-14 08:33:27.30	26.36	21.95	-46.7	-49.7	16.4	0.00e+00	0	43	0	689963008	65	4938
2026-01-14 08:33:27.87	26.22	21.92	-46.7	-49.7	16.4	0.00e+00	0	44	0	691011584	65	4951
2026-01-14 08:33:29.58	25.82	21.81	-46.6	-49.6	16.4	0.00e+00	0	44	0	694157312	65	4920
2026-01-14 08:33:30.14	25.69	21.77	-46.5	-49.5	16.5	0.00e+00	0	44	0	695205888	64	5119
2026-01-14 08:33:31.96	25.26	21.66	-46.3	-49.4	16.7	0.00e+00	0	44	0	699400192	64	5047
2026-01-14 08:33:32.53	25.13	21.62	-46.4	-49.4	16.6	0.00e+00	0	44	0	700448768	64	5073
2026-01-14 08:33:34.23	24.73	21.51	-46.4	-49.4	16.6	0.00e+00	0	44	0	703594496	64	5047
2026-01-14 08:33:34.80	24.60	21.47	-46.4	-49.3	16.7	0.00e+00	0	44	0	704643072	64	5018
2026-01-14 08:33:36.51	24.21	21.36	-46.3	-49.1	16.8	0.00e+00	0	44	0	707788800	64	4922
2026-01-14 08:33:37.08	24.08	21.32	-46.3	-49.1	16.9	0.00e+00	0	44	0	708837376	64	4925
2026-01-14 08:33:39.18	23.60	21.18	-46.4	-49.3	16.7	0.00e+00	0	43	0	711983104	64	5030
2026-01-14 08:33:39.67	23.49	21.15	-46.4	-49.4	16.7	0.00e+00	0	44	0	713031680	64	5050
2026-01-14 08:33:41.56	23.07	21.02	-46.4	-49.3	16.7	0.00e+00	0	44	0	717225984	64	5005
2026-01-14 08:33:42.13	22.94	20.98	-46.4	-49.3	16.8	0.00e+00	0	43	0	718274560	64	4996
2026-01-14 08:33:43.84	22.56	20.86	-46.4	-49.3	16.7	0.00e+00	0	44	0	721420288	64	5016
2026-01-14 08:33:44.41	22.44	20.83	-46.4	-49.3	16.7	0.00e+00	0	44	0	722468864	64	5029
2026-01-14 08:33:46.11	22.06	20.71	-46.5	-49.4	16.6	0.00e+00	0	44	0	725614592	64	5099
2026-01-14 08:33:46.68	21.94	20.67	-46.5	-49.4	16.6	0.00e+00	0	44	0	726663168	64	5098
2026-01-14 08:33:48.39	21.57	20.55	-46.6	-49.6	16.4	0.00e+00	0	43	0	729808896	64	5193
2026-01-14 08:33:48.96	21.44	20.51	-46.6	-49.6	16.5	0.00e+00	0	44	0	730857472	64	5160
2026-01-14 08:33:50.66	21.08	20.39	-46.5	-49.4	16.6	0.00e+00	0	44	0	734003200	64	5069
2026-01-14 08:33:51.44	20.91	20.34	-46.5	-49.4	16.7	0.00e+00	0	44	0	735051776	64	5049
2026-01-14 08:33:52.72	20.64	20.25	-46.5	-49.3	16.8	0.00e+00	0	44	0	738197504	64	4990
2026-01-14 08:33:53.43	20.49	20.20	-46.4	-49.2	16.8	0.00e+00	0	44	0	739246080	64	4939
2026-01-14 08:33:54.72	20.21	20.11	-46.4	-49.2	16.8	0.00e+00	0	43	0	741343232	64	4975
2026-01-14 08:33:55.43	20.06	20.06	-46.3	-49.1	16.9	0.00e+00	0	44	0	743440384	64	4924
2026-01-14 08:33:56.78	19.78	19.96	-46.2	-49.0	17.0	0.00e+00	0	44	0	745537536	64	4821
2026-01-14 08:33:57.49	19.63	19.91	-46.2	-49.0	17.0	0.00e+00	0	43	0	746586112	64	4869
2026-01-14 08:33:58.85	19.35	19.81	-46.2	-49.0	17.0	0.00e+00	0	44	0	749731840	64	4844
2026-01-14 08:33:59.56	19.21	19.76	-46.2	-49.0	17.0	0.00e+00	0	43	0	750780416	64	4849
2026-01-14 08:34:00.83	18.95	19.67	-46.1	-48.9	17.1	0.00e+00	0	44	0	752877568	64	4803
2026-01-14 08:34:01.54	18.80	19.62	-46.0	-48.8	17.2	0.00e+00	0	44	0	753926144	64	4732
2026-01-14 08:34:02.82	18.54	19.53	-46.0	-48.8	17.2	0.00e+00	0	44	0	757071872	64	4711
2026-01-14 08:34:03.55	18.39	19.47	-46.0	-48.7	17.2	0.00e+00	0	43	0	758120448	64	4699
2026-01-14 08:34:04.83	18.14	19.38	-46.0	-48.7	17.4	0.00e+00	0	44	0	760217600	63	4956
2026-01-14 08:34:05.54	17.99	19.33	-45.9	-48.7	17.4	0.00e+00	0	44	0	762314752	63	4930
2026-01-14 08:34:06.82	17.74	19.23	-45.9	-48.7	17.4	0.00e+00	0	44	0	764411904	63	4955
2026-01-14 08:34:07.53	17.60	19.18	-46.0	-48.7	17.3	0.00e+00	0	44	0	765460480	63	4973
2026-01-14 08:34:08.81	17.35	19.09	-46.0	-48.7	17.4	0.00e+00	0	44	0	767557632	63	4937
2026-01-14 08:34:09.52	17.21	19.04	-45.9	-48.6	17.5	0.00e+00	0	44	0	769654784	63	4888
2026-01-14 08:34:10.80	16.96	18.94	-45.8	-48.4	17.6	0.00e+00	0	44	0	771751936	63	4794
2026-01-14 08:34:11.53	16.81	18.89	-45.8	-48.4	17.6	0.00e+00	0	43	0	772800512	63	4786
2026-01-14 08:34:12.81	16.57	18.79	-45.7	-48.2	17.8	0.00e+00	0	44	0	775946240	63	4688
2026-01-14 08:34:13.52	16.43	18.74	-45.7	-48.3	17.8	0.00e+00	0	44	0	776994816	63	4717
2026-01-14 08:34:14.80	16.19	18.65	-45.8	-48.4	17.7	0.00e+00	0	43	0	779091968	63	4769
2026-01-14 08:34:15.53	16.05	18.59	-45.9	-48.4	17.6	0.00e+00	0	44	0	780140544	63	4808
2026-01-14 08:34:16.81	15.80	18.50	-45.8	-48.4	17.7	0.00e+00	0	43	0	783286272	63	4760
2026-01-14 08:34:17.56	15.66	18.44	-45.9	-48.5	17.5	0.00e+00	0	44	0	784334848	63	4826
2026-01-14 08:34:18.84	15.42	18.35	-45.9	-48.5	17.5	0.00e+00	0	43	0	786432000	63	4860
2026-01-14 08:34:19.57	15.29	18.29	-45.8	-48.4	17.6	0.00e+00	0	44	0	788529152	63	4778
2026-01-14 08:34:20.85	15.05	18.20	-45.6	-48.3	17.7	0.00e+00	0	43	0	790626304	63	4718
2026-01-14 08:34:21.59	14.91	18.14	-45.6	-48.3	17.7	0.00e+00	0	44	0	791674880	63	4710
2026-01-14 08:34:22.86	14.68	18.05	-45.6	-48.2	17.8	0.00e+00	0	43	0	794820608	63	4693
2026-01-14 08:34:23.57	14.55	17.99	-45.6	-48.2	17.8	0.00e+00	0	44	0	795869184	63	4690
2026-01-14 08:34:24.85	14.31	17.90	-45.6	-48.2	17.8	0.00e+00	0	44	0	797966336	63	4705
2026-01-14 08:34:25.61	14.18	17.84	-45.6	-48.2	17.8	0.00e+00	0	43	0	800063488	63	4701
2026-01-14 08:34:26.89	13.95	17.74	-45.6	-48.3	17.7	0.00e+00	0	44	0	802160640	63	4729
2026-01-14 08:34:27.67	13.81	17.69	-45.7	-48.4	17.7	0.00e+00	0	44	0	803209216	63	4776
2026-01-14 08:34:29.25	13.52	17.57	-45.7	-48.5	17.6	0.00e+00	0	44	0	806354944	63	4827
2026-01-14 08:34:29.86	13.42	17.52	-45.7	-48.4	17.6	0.00e+00	0	44	0	807403520	63	4801
2026-01-14 08:34:31.42	13.14	17.40	-45.7	-48.5	17.5	0.00e+00	0	44	0	810549248	63	4858
2026-01-14 08:34:32.29	12.99	17.34	-45.6	-48.4	17.6	0.00e+00	0	43	0	811597824	63	4799
2026-01-14 08:34:33.43	12.79	17.25	-45.7	-48.5	17.5	0.00e+00	0	44	0	813694976	63	4830
2026-01-14 08:34:34.29	12.64	17.19	-45.7	-48.5	17.5	0.00e+00	0	43	0	815792128	63	4869
2026-01-14 08:34:35.42	12.45	17.10	-45.7	-48.4	17.6	0.00e+00	0	43	0	817889280	63	4813
2026-01-14 08:34:36.27	12.30	17.04	-45.8	-48.5	17.5	0.00e+00	0	44	0	819986432	63	4824
2026-01-14 08:34:37.41	12.10	16.95	-45.9	-48.6	17.5	0.00e+00	0	44	0	822083584	63	4875
2026-01-14 08:34:38.26	11.96	16.89	-45.9	-48.5	17.5	0.00e+00	0	44	0	823132160	63	4863
2026-01-14 08:34:39.40	11.77	16.80	-45.9	-48.6	17.4	0.00e+00	0	44	0	825229312	63	4916
2026-01-14 08:34:40.25	11.62	16.74	-45.8	-48.6	17.4	0.00e+00	0	43	0	827326464	63	4910
2026-01-14 08:34:41.39	11.43	16.65	-45.8	-48.7	17.4	0.00e+00	0	44	0	829423616	63	4932
2026-01-14 08:34:42.24	11.29	16.59	-45.7	-48.7	17.4	0.00e+00	0	44	0	830472192	63	4953
2026-01-14 08:34:43.38	11.10	16.50	-45.6	-48.6	17.4	0.00e+00	0	43	0	832569344	63	4913
2026-01-14 08:34:44.23	10.96	16.44	-45.7	-48.7	17.3	0.00e+00	0	44	0	834666496	63	4949
2026-01-14 08:34:45.37	10.78	16.35	-45.8	-48.8	17.2	0.00e+00	0	43	0	836763648	63	5037
2026-01-14 08:34:46.22	10.64	16.29	-45.9	-48.8	17.2	0.00e+00	0	44	0	837812224	63	5031
2026-01-14 08:34:47.36	10.45	16.20	-46.0	-48.9	17.1	0.00e+00	0	44	0	839909376	63	5083
2026-01-14 08:34:48.21	10.31	16.14	-46.1	-49.1	16.9	0.00e+00	0	44	0	842006528	63	5197
2026-01-14 08:34:49.35	10.13	16.05	-46.2	-49.3	16.8	0.00e+00	0	44	0	844103680	63	5304
2026-01-14 08:34:50.20	10.00	15.98	-46.3	-49.4	16.6	0.00e+00	0	43	0	845152256	63	5383
2026-01-14 08:34:51.34	9.81	15.90	-46.3	-49.6	16.5	0.00e+00	0	44	0	847249408	63	5502
2026-01-14 08:34:52.20	9.68	15.83	-46.2	-49.6	16.5	0.00e+00	0	44	0	849346560	63	5480
2026-01-14 08:34:53.33	9.50	15.75	-46.3	-49.7	16.3	0.00e+00	0	44	0	851443712	63	5589
2026-01-14 08:34:54.19	9.37	15.68	-46.3	-49.7	16.4	0.00e+00	0	44	0	853540864	63	5559
2026-01-14 08:34:55.32	9.19	15.60	-46.3	-49.6	16.4	0.00e+00	0	44	0	855638016	63	5518
2026-01-14 08:34:56.17	9.06	15.53	-46.4	-49.7	16.4	0.00e+00	0	44	0	856686592	63	5543
2026-01-14 08:34:57.39	8.87	15.44	-46.6	-49.7	16.3	0.00e+00	0	44	0	858783744	63	5586
2026-01-14 08:34:58.24	8.74	15.38	-46.6	-49.6	16.4	0.00e+00	0	44	0	860880896	64	5172
2026-01-14 08:34:59.44	8.56	15.29	-46.5	-49.5	16.5	0.00e+00	0	44	0	862978048	64	5119
2026-01-14 08:35:00.29	8.43	15.22	-46.7	-49.7	16.3	0.00e+00	0	44	0	864026624	64	5240
2026-01-14 08:35:01.50	8.24	15.13	-46.6	-49.7	16.3	0.00e+00	0	44	0	867172352	64	5219
2026-01-14 08:35:02.35	8.12	15.07	-46.6	-49.8	16.2	0.00e+00	0	44	0	868220928	64	5287
2026-01-14 08:35:03.55	7.94	14.98	-46.5	-49.7	16.3	0.00e+00	0	43	0	870318080	64	5239
2026-01-14 08:35:04.40	7.81	14.91	-46.7	-49.9	16.1	0.00e+00	0	44	0	872415232	64	5369
2026-01-14 08:35:05.54	7.64	14.83	-46.7	-49.9	16.1	0.00e+00	0	44	0	874512384	64	5367
2026-01-14 08:35:06.39	7.52	14.76	-46.8	-50.0	16.0	0.00e+00	0	44	0	875560960	64	5412
2026-01-14 08:35:07.53	7.35	14.68	-46.8	-49.9	16.1	0.00e+00	0	44	0	877658112	64	5360
2026-01-14 08:35:08.38	7.23	14.61	-46.7	-49.8	16.2	0.00e+00	0	44	0	879755264	64	5285
2026-01-14 08:35:09.52	7.06	14.53	-46.8	-49.9	16.1	0.00e+00	0	44	0	881852416	64	5375
2026-01-14 08:35:10.37	6.94	14.46	-46.7	-49.8	16.2	0.00e+00	0	44	0	883949568	64	5306
2026-01-14 08:35:11.51	6.78	14.38	-46.7	-49.9	16.1	0.00e+00	0	44	0	886046720	64	5365
2026-01-14 08:35:12.36	6.66	14.31	-46.5	-49.8	16.2	0.00e+00	0	44	0	887095296	64	5309
2026-01-14 08:35:13.50	6.49	14.23	-46.4	-49.9	16.0	0.00e+00	0	44	0	889192448	64	5401
2026-01-14 08:35:14.35	6.37	14.17	-46.4	-50.0	16.0	0.00e+00	0	44	0	891289600	64	5436
2026-01-14 08:35:15.49	6.21	14.08	-46.4	-50.1	15.8	0.00e+00	0	43	0	893386752	64	5520
2026-01-14 08:35:16.34	6.10	14.02	-46.5	-50.2	15.8	0.00e+00	0	44	0	894435328	64	5550
2026-01-14 08:35:17.48	5.94	13.93	-46.6	-50.3	15.7	0.00e+00	0	44	0	896532480	64	5602
2026-01-14 08:35:18.33	5.82	13.87	-46.6	-50.2	15.7	0.00e+00	0	44	0	898629632	64	5590
2026-01-14 08:35:19.47	5.66	13.78	-46.7	-50.2	15.7	0.00e+00	0	44	0	900726784	64	5575
2026-01-14 08:35:20.32	5.55	13.72	-46.8	-50.2	15.8	0.00e+00	0	44	0	901775360	64	5551
2026-01-14 08:35:21.51	5.38	13.63	-46.8	-50.2	15.8	0.00e+00	0	44	0	903872512	64	5534
2026-01-14 08:35:22.37	5.27	13.57	-46.8	-50.2	15.8	0.00e+00	0	44	0	905969664	64	5559
2026-01-14 08:35:23.50	5.12	13.48	-46.8	-50.2	15.7	0.00e+00	0	44	0	908066816	64	5584
2026-01-14 08:35:24.35	5.00	13.42	-46.8	-50.3	15.6	0.00e+00	0	43	0	910163968	64	5634
2026-01-14 08:35:25.49	4.85	13.34	-46.8	-50.4	15.6	0.00e+00	0	43	0	912261120	64	5691
2026-01-14 08:35:26.34	4.74	13.27	-46.8	-50.5	15.5	0.00e+00	0	44	0	913309696	64	5762
2026-01-14 08:35:27.48	4.59	13.19	-46.9	-50.7	15.3	0.00e+00	0	44	0	915406848	64	5883
2026-01-14 08:35:28.33	4.48	13.12	-47.0	-50.7	15.3	0.00e+00	0	44	0	917504000	64	5868
2026-01-14 08:35:29.47	4.33	13.04	-47.1	-50.7	15.3	0.00e+00	0	43	0	919601152	64	5879
2026-01-14 08:35:30.32	4.22	12.98	-47.1	-50.6	15.3	0.00e+00	0	44	0	920649728	64	5847
2026-01-14 08:35:31.46	4.07	12.89	-47.2	-50.5	15.4	0.00e+00	0	44	0	922746880	64	5781
2026-01-14 08:35:32.31	3.96	12.83	-47.2	-50.5	15.4	0.00e+00	0	44	0	924844032	65	5459
2026-01-14 08:35:33.45	3.81	12.75	-47.3	-50.5	15.4	0.00e+00	0	44	0	926941184	65	5448
2026-01-14 08:35:34.30	3.70	12.69	-47.3	-50.6	15.4	0.00e+00	0	44	0	927989760	65	5477
2026-01-14 08:35:35.44	3.56	12.60	-47.3	-50.6	15.4	0.00e+00	0	44	0	930086912	65	5472
2026-01-14 08:35:36.29	3.45	12.54	-47.4	-50.7	15.2	0.00e+00	0	44	0	932184064	65	5587
2026-01-14 08:35:37.43	3.31	12.46	-47.4	-50.7	15.2	0.00e+00	0	44	0	934281216	65	5585
2026-01-14 08:35:38.28	3.20	12.39	-47.5	-50.9	15.1	7.00e-07	0	44	0	935329792	65	5660
2026-01-14 08:35:39.42	3.06	12.31	-47.5	-50.9	15.0	0.00e+00	0	44	0	938475520	65	5704
2026-01-14 08:35:40.27	2.96	12.25	-47.5	-51.0	14.9	0.00e+00	0	44	0	939524096	65	5772
2026-01-14 08:35:41.46	2.81	12.16	-47.4	-51.0	14.9	0.00e+00	0	44	0	941621248	65	5763
2026-01-14 08:35:42.31	2.71	12.10	-47.4	-51.1	14.9	0.00e+00	0	44	0	943718400	65	5798
2026-01-14 08:35:43.44	2.57	12.02	-47.4	-51.2	14.8	7.00e-07	0	44	0	945815552	65	5858
2026-01-14 08:35:44.29	2.47	11.96	-47.5	-51.2	14.7	0.00e+00	0	44	0	946864128	65	5900
2026-01-14 08:35:45.43	2.33	11.87	-47.6	-51.3	14.6	0.00e+00	0	44	0	948961280	65	5964
2026-01-14 08:35:46.29	2.23	11.81	-47.6	-51.4	14.5	0.00e+00	0	44	0	951058432	65	6037
2026-01-14 08:35:47.42	2.09	11.73	-47.6	-51.4	14.5	7.00e-07	0	44	0	953155584	65	6011
2026-01-14 08:35:48.28	1.99	11.67	-47.6	-51.5	14.4	1.50e-06	0	44	0	954204160	65	6075
2026-01-14 08:35:49.42	1.86	11.58	-47.5	-51.6	14.3	0.00e+00	0	44	0	956301312	65	6182
2026-01-14 08:35:50.27	1.76	11.52	-47.3	-51.7	14.2	3.00e-06	0	44	0	958398464	65	6239
2026-01-14 08:35:51.41	1.62	11.44	-47.3	-51.8	14.1	3.00e-06	0	44	0	960495616	65	6298
2026-01-14 08:35:52.26	1.52	11.38	-47.2	-51.8	14.1	7.00e-07	0	44	0	961544192	65	6313
2026-01-14 08:35:53.40	1.39	11.30	-47.2	-51.9	14.0	3.00e-06	0	44	0	963641344	65	6419
2026-01-14 08:35:54.25	1.30	11.24	-47.3	-51.9	14.0	3.00e-06	0	44	0	965738496	65	6413
2026-01-14 08:35:55.43	1.16	11.15	-47.5	-51.9	14.0	3.00e-06	0	44	0	967835648	65	6413
2026-01-14 08:35:56.28	1.06	11.09	-47.6	-51.9	14.0	1.50e-06	0	44	0	969932800	65	6420
2026-01-14 08:35:57.47	0.93	11.01	-47.8	-51.9	14.0	3.00e-06	0	44	0	972029952	66	6037
2026-01-14 08:35:58.33	0.83	10.95	-47.9	-51.9	14.0	2.20e-06	0	44	0	973078528	66	6053
2026-01-14 08:35:59.46	0.70	10.86	-48.0	-52.0	14.0	7.00e-07	0	44	0	975175680	66	6069
2026-01-14 08:36:00.32	0.61	10.80	-48.0	-52.0	13.9	2.20e-06	0	44	0	977272832	66	6117
2026-01-14 08:36:01.45	0.48	10.72	-48.0	-51.9	14.0	3.00e-06	0	44	0	979369984	66	6059
2026-01-14 08:36:02.31	0.39	10.66	-48.0	-51.9	14.0	1.50e-06	0	44	0	980418560	66	6031
2026-01-14 08:36:03.44	0.26	10.58	-47.9	-51.8	14.1	1.50e-06	0	44	0	982515712	66	5991
2026-01-14 08:36:04.40	0.16	10.51	-47.9	-51.9	14.0	3.80e-06	0	44	0	984612864	66	6045
2026-01-14 08:36:05.56	0.03	10.43	-47.9	-52.0	13.9	3.80e-06	0	44	0	986710016	66	6074
2026-01-14 08:36:06.43	359.94	10.37	-47.7	-51.9	14.0	1.50e-06	0	44	0	988807168	66	6023
2026-01-14 08:36:07.56	359.82	10.29	-47.7	-52.1	13.8	2.20e-06	0	44	0	990904320	66	6150
2026-01-14 08:36:08.42	359.73	10.23	-47.7	-52.0	13.9	3.00e-06	0	44	0	991952896	66	6095
2026-01-14 08:36:09.55	359.60	10.15	-47.7	-52.0	13.9	3.00e-06	0	44	0	994050048	66	6085
2026-01-14 08:36:10.40	359.51	10.09	-47.8	-52.1	13.7	3.00e-06	0	44	0	996147200	66	6185
2026-01-14 08:36:11.54	359.39	10.01	-47.7	-51.9	14.0	2.20e-06	0	44	0	998244352	66	6030
2026-01-14 08:36:12.39	359.30	9.95	-47.8	-51.9	13.9	3.80e-06	0	44	0	999292928	66	6061
2026-01-14 08:36:13.53	359.19	9.87	-47.8	-51.9	14.0	4.50e-06	0	44	0	1001390080	66	6019
2026-01-14 08:36:14.38	359.10	9.81	-47.9	-52.0	13.9	1.50e-06	0	44	0	1003487232	66	6113
2026-01-14 08:36:15.52	358.98	9.73	-47.8	-51.9	13.9	4.50e-06	0	44	0	1005584384	66	6051
2026-01-14 08:36:16.37	358.89	9.68	-47.7	-51.9	14.0	2.20e-06	0	44	0	1007681536	66	6012
2026-01-14 08:36:17.51	358.77	9.60	-47.6	-52.0	13.9	3.00e-06	0	44	0	1009778688	66	6092
2026-01-14 08:36:18.36	358.69	9.54	-47.5	-52.0	13.8	2.20e-06	0	44	0	1010827264	66	6107
2026-01-14 08:36:19.56	358.57	9.45	-47.3	-52.0	13.8	2.20e-06	0	44	0	1012924416	66	6121
2026-01-14 08:36:20.42	358.48	9.40	-47.2	-52.2	13.7	2.20e-06	0	44	0	1015021568	66	6206
2026-01-14 08:36:21.55	358.37	9.32	-47.1	-52.2	13.7	7.60e-06	0	44	0	1017118720	66	6205
2026-01-14 08:36:22.41	358.28	9.26	-47.1	-52.3	13.6	3.80e-06	0	44	0	1018167296	66	6305
2026-01-14 08:36:23.55	358.17	9.18	-46.9	-52.3	13.5	6.80e-06	0	44	0	1020264448	65	6709
2026-01-14 08:36:24.40	358.08	9.12	-47.0	-52.4	13.4	8.30e-06	0	44	0	1022361600	65	6772
2026-01-14 08:36:25.54	357.97	9.04	-46.9	-52.7	13.1	2.67e-05	0	44	0	1024458752	65	7001
2026-01-14 08:36:26.39	357.89	8.98	-47.0	-52.9	12.9	4.04e-05	0	44	0	1025507328	65	7184
2026-01-14 08:36:27.52	357.78	8.91	-49.6	-67.2	3.8	6.51e-01	0	44	104	1027604480	71	26390
2026-01-14 08:36:28.37	357.69	8.85	-51.9	-67.3	3.8	1.49e+00	0	44	104	1027604480	74	22337
2026-01-14 08:36:29.51	357.58	8.77	-52.1	-67.5	3.8	1.49e+00	0	44	104	1027604480	74	22984
2026-01-14 08:36:30.36	357.50	8.71	-51.5	-67.6	3.8	1.49e+00	0	44	104	1027604480	74	23217
2026-01-14 08:36:31.50	357.39	8.64	-52.2	-67.6	3.8	1.49e+00	0	44	104	1027604480	75	21981
2026-01-14 08:36:32.35	357.31	8.58	-51.3	-67.7	3.8	1.49e+00	0	44	104	1027604480	74	23518
2026-01-14 08:36:33.48	357.20	8.50	-52.6	-67.7	3.8	1.49e+00	0	44	104	1027604480	75	22170
2026-01-14 08:36:34.33	357.12	8.44	-52.4	-67.7	3.8	1.49e+00	0	44	104	1027604480	75	22156
2026-01-14 08:36:35.50	357.01	8.37	-52.4	-67.8	3.8	1.49e+00	0	44	104	1027604480	75	22263
2026-01-14 08:36:36.35	356.93	8.31	-52.2	-67.8	3.8	1.49e+00	0	44	104	1027604480	75	22393
2026-01-14 08:36:37.60	356.82	8.22	-52.5	-67.8	3.8	1.49e+00	0	44	104	1027604480	75	22323
2026-01-14 08:36:38.45	356.74	8.17	-52.6	-67.8	3.8	1.49e+00	0	44	104	1027604480	75	22432
2026-01-14 08:36:39.65	356.63	8.09	-52.5	-67.8	3.8	1.49e+00	0	44	104	1027604480	75	22430
2026-01-14 08:36:40.50	356.55	8.03	-52.6	-67.8	3.8	1.49e+00	0	44	104	1027604480	76	21212
2026-01-14 08:36:41.63	356.45	7.95	-52.7	-67.8	3.8	1.49e+00	0	44	104	1027604480	76	21165
2026-01-14 08:36:42.49	356.37	7.90	-52.6	-67.9	3.8	1.49e+00	0	44	104	1027604480	76	21275
2026-01-14 08:36:43.62	356.27	7.82	-52.5	-67.8	3.8	1.49e+00	0	44	104	1027604480	76	21200
2026-01-14 08:36:44.47	356.19	7.77	-52.6	-67.8	3.8	1.49e+00	0	44	104	1027604480	76	21224
2026-01-14 08:36:45.61	356.09	7.69	-52.6	-67.9	3.8	1.49e+00	0	44	104	1027604480	76	21279
2026-01-14 08:36:46.46	356.01	7.63	-52.7	-67.9	3.8	1.49e+00	0	43	104	1027604480	76	21370
2026-01-14 08:36:47.60	355.91	7.56	-52.8	-67.9	3.8	1.49e+00	0	44	104	1027604480	76	21301
2026-01-14 08:36:48.45	355.84	7.50	-52.7	-67.9	3.8	1.49e+00	0	44	104	1027604480	76	21290
2026-01-14 08:36:49.59	355.74	7.43	-52.7	-67.9	3.8	1.49e+00	0	44	104	1027604480	76	21317
2026-01-14 08:36:50.44	355.66	7.37	-52.7	-67.9	3.8	1.49e+00	0	44	104	1027604480	76	21359
2026-01-14 08:36:51.57	355.57	7.30	-52.6	-67.8	3.8	1.49e+00	0	44	104	1027604480	76	21240
2026-01-14 08:36:52.42	355.49	7.24	-52.7	-67.8	3.8	1.49e+00	0	44	104	1027604480	76	21239
2026-01-14 08:36:53.56	355.39	7.17	-52.6	-67.9	3.8	1.49e+00	0	44	104	1027604480	76	21348
2026-01-14 08:36:54.41	355.32	7.11	-52.6	-67.9	3.8	1.49e+00	0	44	104	1027604480	76	21264
2026-01-14 08:36:55.59	355.22	7.03	-52.6	-67.9	3.8	1.49e+00	0	44	104	1027604480	76	21283
2026-01-14 08:36:56.44	355.15	6.98	-52.4	-67.8	3.8	1.49e+00	0	44	104	1027604480	76	21169
2026-01-14 08:36:57.67	355.04	6.90	-52.4	-67.8	3.8	1.49e+00	0	44	104	1027604480	76	21156
2026-01-14 08:36:58.53	354.97	6.84	-52.4	-67.8	3.8	1.49e+00	0	44	104	1027604480	76	21124
2026-01-14 08:36:59.66	354.88	6.77	-52.4	-67.8	3.8	1.49e+00	0	44	104	1027604480	76	21140
2026-01-14 08:37:00.51	354.81	6.71	-52.4	-67.8	3.8	1.49e+00	0	44	104	1027604480	76	21092
2026-01-14 08:37:01.65	354.71	6.64	-52.4	-67.8	3.8	1.49e+00	0	43	104	1027604480	76	21066
2026-01-14 08:37:02.50	354.64	6.58	-52.4	-67.8	3.8	1.49e+00	0	44	104	1027604480	76	21176
2026-01-14 08:37:03.64	354.55	6.51	-52.4	-67.8	3.8	1.49e+00	0	44	104	1027604480	76	21224
2026-01-14 08:37:04.49	354.48	6.46	-52.4	-67.8	3.8	1.49e+00	0	44	104	1027604480	76	21097
2026-01-14 08:37:05.62	354.39	6.38	-52.4	-67.8	3.8	1.49e+00	0	44	104	1027604480	76	21128
2026-01-14 08:37:06.47	354.32	6.33	-52.4	-67.8	3.8	1.49e+00	0	44	104	1027604480	76	21072
2026-01-14 08:37:07.61	354.23	6.25	-52.4	-67.8	3.8	1.49e+00	0	44	104	1027604480	76	21115
2026-01-14 08:37:08.46	354.16	6.20	-52.4	-67.8	3.8	1.49e+00	0	44	104	1027604480	76	21185
2026-01-14 08:37:09.60	354.07	6.13	-52.4	-67.8	3.8	1.49e+00	0	44	104	1027604480	76	21142
2026-01-14 08:37:10.45	354.00	6.07	-52.4	-67.8	3.8	1.49e+00	0	43	104	1027604480	76	21116
2026-01-14 08:37:11.58	353.91	6.00	-52.4	-67.8	3.8	1.49e+00	0	44	104	1027604480	76	21122
2026-01-14 08:37:12.44	353.84	5.95	-52.4	-67.8	3.8	1.49e+00	0	44	104	1027604480	76	21134
2026-01-14 08:37:13.57	353.75	5.87	-52.4	-67.8	3.8	1.49e+00	0	44	104	1027604480	76	21030
2026-01-14 08:37:14.42	353.69	5.82	-52.4	-67.8	3.8	1.49e+00	0	44	104	1027604480	76	21046
2026-01-14 08:37:15.56	353.60	5.75	-52.4	-67.8	3.8	1.49e+00	0	44	104	1027604480	76	21209
2026-01-14 08:37:16.41	353.53	5.69	-52.4	-67.8	3.8	1.49e+00	0	44	104	1027604480	76	21095
2026-01-14 08:37:17.54	353.44	5.62	-52.4	-67.8	3.8	1.49e+00	0	44	104	1027604480	76	21132
2026-01-14 08:37:18.40	353.38	5.57	-52.4	-67.8	3.8	1.49e+00	0	44	104	1027604480	76	21110
2026-01-14 08:37:19.53	353.29	5.50	-52.4	-67.8	3.8	1.49e+00	0	44	104	1027604480	76	21110
2026-01-14 08:37:20.39	353.23	5.44	-52.4	-67.8	3.8	1.49e+00	0	44	104	1027604480	76	21116
2026-01-14 08:37:21.52	353.14	5.37	-52.4	-67.8	3.8	1.49e+00	0	44	104	1027604480	76	21192
2026-01-14 08:37:22.37	353.08	5.32	-52.4	-67.7	3.8	1.49e+00	0	44	104	1027604480	76	20989
2026-01-14 08:37:23.51	352.99	5.25	-52.4	-67.8	3.8	1.49e+00	0	44	104	1027604480	76	21033
2026-01-14 08:37:24.36	352.93	5.20	-52.4	-67.7	3.8	1.49e+00	0	44	104	1027604480	76	21015
2026-01-14 08:37:25.49	352.84	5.13	-52.4	-67.8	3.8	1.49e+00	0	44	104	1027604480	76	21019
2026-01-14 08:37:26.34	352.78	5.07	-52.4	-67.8	3.8	1.49e+00	0	44	104	1027604480	76	21042
2026-01-14 08:37:27.48	352.70	5.00	-52.4	-67.8	3.8	1.49e+00	0	44	104	1027604480	76	21148

#Closed at: 2026-01-14 08:37:28
#Recorded file [1027 MB]: D:/Data/31040_260114_112618.dat