passes_logs/2026/01/14/T1/T1__20260114_100507_NOAA_20_JPSS-1_rec.log

#Pass ID: 20260114_100507_NOAA 20 (JPSS-1)
#Satellite: NOAA 20 (JPSS-1)
#Configuration: NOAA 20
#almurnet v.1.7.20251203
#Start time: 2026-01-14 10:05:07

#Version: 2.0.20230620
#Station: T1
#Location: 37.570604 lon 55.790049 lat
#TLE: 1 43013U 17073A   26013.21545503  .00000073  00000+0  55630-4 0  9998
#TLE: 2 43013  98.7633 314.1737 0001580  41.9966 318.1331 14.19535680422486

#Time	Az	El	Level	Level2	SNR	BER	BlckErr	Temp	State	Recorded	gain1	gain2
2026-01-14 10:05:07.61	165.18	4.98	-52.1	-67.4	3.8	1.49e+00	0	37	0	0	75	21446
2026-01-14 10:05:08.60	165.19	5.05	-50.9	-67.1	3.8	1.49e+00	0	37	104	0	73	23064
2026-01-14 10:05:09.60	165.20	5.12	-50.9	-67.1	3.8	1.49e+00	0	37	104	0	73	23097
2026-01-14 10:05:10.60	165.21	5.20	-50.9	-67.1	3.8	1.49e+00	0	37	104	0	73	23257
2026-01-14 10:05:11.60	165.22	5.27	-50.9	-67.1	3.8	1.49e+00	0	37	104	0	73	23104
2026-01-14 10:05:12.60	165.23	5.34	-50.9	-67.1	3.8	1.49e+00	0	37	104	0	73	23193
2026-01-14 10:05:13.60	165.24	5.41	-50.9	-67.1	3.8	1.49e+00	0	37	104	0	73	23268
2026-01-14 10:05:14.60	165.26	5.49	-50.9	-67.2	3.8	1.49e+00	0	37	104	0	73	23312
2026-01-14 10:05:15.60	165.27	5.56	-50.9	-67.1	3.8	1.49e+00	0	37	104	0	73	23277
2026-01-14 10:05:16.59	165.28	5.63	-50.9	-67.1	3.8	1.49e+00	0	37	104	0	73	23283
2026-01-14 10:05:17.59	165.29	5.71	-50.9	-67.1	3.8	1.49e+00	0	37	104	0	73	23202
2026-01-14 10:05:18.59	165.30	5.78	-50.9	-67.0	3.8	1.49e+00	0	38	104	0	73	22992
2026-01-14 10:05:19.58	165.31	5.85	-50.9	-66.9	3.8	1.49e+00	0	37	104	0	73	22737
2026-01-14 10:05:20.58	165.32	5.93	-50.9	-66.9	3.8	1.49e+00	0	38	104	0	73	22556
2026-01-14 10:05:21.58	165.33	6.00	-50.9	-66.7	3.8	1.49e+00	0	38	104	0	73	22229
2026-01-14 10:05:22.57	165.34	6.08	-50.9	-66.6	3.8	1.49e+00	0	38	104	0	73	21764
2026-01-14 10:05:23.57	165.35	6.15	-50.9	-66.4	3.8	1.49e+00	0	38	104	0	73	21333
2026-01-14 10:05:24.57	165.36	6.23	-50.8	-66.1	3.8	1.49e+00	0	38	104	0	73	20676
2026-01-14 10:05:25.56	165.37	6.30	-50.9	-65.9	3.8	1.49e+00	0	38	104	0	73	20117
2026-01-14 10:05:26.56	165.38	6.37	-50.8	-65.5	3.8	1.49e+00	0	38	104	0	73	19380
2026-01-14 10:05:27.55	165.39	6.45	-50.8	-65.2	3.8	1.49e+00	0	38	104	0	73	18573
2026-01-14 10:05:28.55	165.41	6.53	-50.8	-64.8	3.8	1.49e+00	0	38	104	0	73	17750
2026-01-14 10:05:29.55	165.42	6.60	-50.8	-64.2	4.0	1.48e+00	0	38	104	0	73	16517
2026-01-14 10:05:30.54	165.43	6.68	-50.7	-63.6	4.2	1.44e+00	0	38	0	0	73	15487
2026-01-14 10:05:31.54	165.44	6.75	-50.8	-63.1	4.3	1.36e+00	0	38	0	0	73	14629
2026-01-14 10:05:32.53	165.45	6.83	-50.7	-62.4	4.6	1.01e+00	0	38	0	1048576	73	13517
2026-01-14 10:05:33.53	165.46	6.91	-50.6	-61.8	4.8	8.39e-01	0	38	0	3145728	73	12642
2026-01-14 10:05:34.53	165.47	6.98	-50.6	-61.2	5.2	6.91e-01	0	38	0	5242880	73	11766
2026-01-14 10:05:35.53	165.48	7.06	-50.5	-60.6	5.6	5.40e-01	0	38	0	7340032	72	11607
2026-01-14 10:05:36.52	165.50	7.14	-50.4	-60.0	6.1	3.76e-01	0	38	0	8388608	72	10782
2026-01-14 10:05:37.52	165.51	7.22	-50.3	-59.3	6.5	2.66e-01	0	38	0	10485760	72	10012
2026-01-14 10:05:38.51	165.52	7.29	-50.2	-58.7	7.1	1.85e-01	0	38	0	12582912	72	9376
2026-01-14 10:05:39.51	165.53	7.37	-50.0	-58.2	7.6	1.30e-01	0	38	0	14680064	72	8786
2026-01-14 10:05:40.51	165.54	7.45	-49.9	-57.7	8.1	6.94e-02	0	38	0	16777216	71	8765
2026-01-14 10:05:41.51	165.55	7.53	-49.8	-57.2	8.6	4.72e-02	0	38	0	17825792	71	8306
2026-01-14 10:05:42.50	165.57	7.61	-49.7	-56.8	9.0	3.41e-02	0	38	0	19922944	71	7918
2026-01-14 10:05:43.50	165.58	7.69	-49.6	-56.3	9.4	1.64e-02	0	38	0	22020096	71	7539
2026-01-14 10:05:44.50	165.59	7.77	-49.5	-56.1	9.7	1.25e-02	0	39	0	24117248	71	7314
2026-01-14 10:05:45.50	165.60	7.85	-49.5	-55.9	9.9	3.82e-02	0	38	0	25165824	70	7572
2026-01-14 10:05:46.50	165.61	7.93	-49.4	-55.7	10.1	7.63e-03	0	39	0	27262976	70	7443
2026-01-14 10:05:47.50	165.62	8.01	-49.4	-55.8	10.0	7.60e-03	0	39	0	29360128	70	7515
2026-01-14 10:05:48.50	165.64	8.09	-49.4	-55.9	9.9	3.65e-02	0	38	0	31457280	70	7610
2026-01-14 10:05:49.50	165.65	8.17	-49.5	-56.2	9.6	9.87e-03	0	38	0	33554432	70	7859
2026-01-14 10:05:50.50	165.66	8.25	-49.6	-56.5	9.3	1.81e-02	0	38	0	34603008	70	8156
2026-01-14 10:05:51.49	165.67	8.33	-49.8	-57.1	8.7	2.86e-02	0	39	0	36700160	70	8732
2026-01-14 10:05:52.50	165.69	8.41	-50.0	-57.9	7.9	5.13e-02	0	38	0	38797312	70	9517
2026-01-14 10:05:53.50	165.70	8.50	-50.2	-58.8	7.1	9.65e-02	0	38	0	40894464	70	10568
2026-01-14 10:05:54.50	165.71	8.58	-50.3	-59.8	6.2	2.42e-01	0	39	0	42991616	71	11231
2026-01-14 10:05:55.50	165.72	8.66	-50.5	-61.2	5.2	4.44e-01	0	39	0	44040192	71	13180
2026-01-14 10:05:56.49	165.74	8.74	-50.6	-62.6	4.5	7.56e-01	0	39	0	46137344	71	15534
2026-01-14 10:05:57.49	165.75	8.83	-50.7	-64.3	3.9	1.41e+00	0	39	104	47185920	72	17752
2026-01-14 10:05:58.49	165.76	8.91	-50.8	-65.6	3.8	1.49e+00	0	39	104	47185920	72	20618
2026-01-14 10:05:59.49	165.77	8.99	-51.2	-66.9	3.8	1.49e+00	0	39	104	47185920	72	24039
2026-01-14 10:06:00.48	165.79	9.08	-50.8	-66.8	3.8	1.49e+00	0	39	104	47185920	73	22498
2026-01-14 10:06:01.48	165.80	9.16	-50.8	-67.0	3.8	1.49e+00	0	39	104	47185920	73	23037
2026-01-14 10:06:02.47	165.81	9.24	-50.7	-66.9	3.8	1.49e+00	0	39	104	47185920	73	22684
2026-01-14 10:06:03.47	165.82	9.33	-50.2	-60.9	5.3	1.49e+00	0	39	104	47185920	72	11960
2026-01-14 10:06:04.47	165.84	9.41	-50.5	-63.8	4.3	1.60e-01	0	39	0	48234496	71	17704
2026-01-14 10:06:05.47	165.85	9.50	-50.7	-66.9	3.8	1.49e+00	0	39	104	48234496	72	24026
2026-01-14 10:06:06.47	165.86	9.58	-48.8	-55.4	10.5	3.96e-02	0	39	0	49283072	69	7579
2026-01-14 10:06:07.47	165.88	9.67	-48.0	-53.6	12.4	1.23e-03	0	39	0	50331648	68	6520
2026-01-14 10:06:08.47	165.89	9.76	-47.4	-52.6	13.2	3.63e-02	0	39	0	52428800	66	6561
2026-01-14 10:06:09.47	165.90	9.84	-47.3	-52.6	13.3	2.13e-05	0	39	0	54525952	66	6506
2026-01-14 10:06:10.47	165.92	9.93	-47.3	-52.4	13.5	9.10e-06	0	39	0	56623104	66	6366
2026-01-14 10:06:11.46	165.93	10.02	-47.3	-52.4	13.4	1.18e-02	0	39	0	57671680	66	6401
2026-01-14 10:06:12.46	165.94	10.10	-47.4	-52.5	13.4	8.30e-06	0	39	0	59768832	66	6454
2026-01-14 10:06:13.46	165.96	10.19	-47.4	-52.3	13.6	8.30e-06	0	39	0	61865984	66	6319
2026-01-14 10:06:14.46	165.97	10.28	-47.4	-52.4	13.5	6.80e-06	0	39	0	63963136	66	6353
2026-01-14 10:06:15.46	165.98	10.37	-47.5	-52.3	13.6	1.50e-06	0	39	0	66060288	66	6318
2026-01-14 10:06:16.46	166.00	10.46	-47.7	-52.3	13.6	7.60e-06	0	39	0	67108864	66	6298
2026-01-14 10:06:17.46	166.01	10.55	-47.7	-52.1	13.8	3.31e-04	0	39	0	69206016	66	6181
2026-01-14 10:06:18.46	166.02	10.63	-47.7	-52.2	13.7	8.30e-06	0	39	0	71303168	66	6225
2026-01-14 10:06:19.46	166.04	10.72	-47.8	-52.0	13.9	4.50e-06	0	39	0	73400320	66	6129
2026-01-14 10:06:20.46	166.05	10.81	-47.8	-52.1	13.8	3.00e-06	0	39	0	74448896	66	6135
2026-01-14 10:06:21.45	166.07	10.90	-47.9	-52.0	13.9	3.00e-06	0	39	0	76546048	66	6103
2026-01-14 10:06:22.45	166.08	10.99	-48.0	-52.1	13.9	0.00e+00	0	39	0	78643200	66	6148
2026-01-14 10:06:23.45	166.09	11.09	-48.0	-52.0	13.9	7.00e-07	0	39	0	80740352	66	6083
2026-01-14 10:06:24.44	166.11	11.18	-48.0	-51.9	14.0	3.80e-06	0	39	0	82837504	66	6008
2026-01-14 10:06:25.44	166.12	11.27	-48.0	-51.9	13.6	3.78e-04	0	39	0	83886080	66	6019
2026-01-14 10:06:26.43	166.14	11.36	-48.0	-51.9	14.0	2.20e-06	0	39	0	85983232	66	6044
2026-01-14 10:06:27.43	166.15	11.45	-48.0	-51.8	14.1	1.50e-06	0	39	0	88080384	66	5963
2026-01-14 10:06:28.43	166.17	11.54	-48.0	-51.8	14.1	3.00e-06	0	39	0	90177536	66	5977
2026-01-14 10:06:29.42	166.18	11.64	-48.0	-51.8	14.1	1.50e-06	0	39	0	92274688	66	5975
2026-01-14 10:06:30.42	166.19	11.73	-47.9	-51.7	14.2	1.50e-06	0	39	0	93323264	66	5906
2026-01-14 10:06:31.42	166.21	11.82	-48.0	-51.8	14.2	7.00e-07	0	39	0	95420416	66	5942
2026-01-14 10:06:32.41	166.22	11.92	-48.0	-51.8	14.2	7.00e-07	0	39	0	97517568	66	5925
2026-01-14 10:06:33.42	166.24	12.01	-47.9	-51.6	14.3	7.00e-07	0	39	0	99614720	66	5837
2026-01-14 10:06:34.41	166.25	12.11	-47.9	-51.7	14.3	0.00e+00	0	39	0	101711872	66	5861
2026-01-14 10:06:35.41	166.27	12.20	-47.9	-51.7	14.3	0.00e+00	0	39	0	102760448	66	5882
2026-01-14 10:06:36.41	166.28	12.30	-47.9	-51.7	14.3	0.00e+00	0	39	0	104857600	66	5872
2026-01-14 10:06:37.42	166.30	12.39	-47.9	-51.6	14.4	1.50e-06	0	39	0	106954752	66	5825
2026-01-14 10:06:38.41	166.31	12.49	-47.9	-51.6	14.3	7.00e-07	0	39	0	109051904	66	5843
2026-01-14 10:06:39.41	166.33	12.59	-47.9	-51.6	14.3	0.00e+00	0	39	0	110100480	66	5830
2026-01-14 10:06:40.40	166.35	12.68	-47.8	-51.6	14.4	7.00e-07	0	39	0	112197632	66	5807
2026-01-14 10:06:41.40	166.36	12.78	-47.8	-51.6	14.4	1.50e-06	0	39	0	114294784	66	5799
2026-01-14 10:06:42.40	166.38	12.88	-47.8	-51.6	14.4	7.00e-07	0	39	0	116391936	66	5801
2026-01-14 10:06:43.40	166.39	12.98	-47.7	-51.4	14.6	0.00e+00	0	39	0	118489088	66	5706
2026-01-14 10:06:44.39	166.41	13.07	-47.8	-51.4	14.6	7.00e-07	0	39	0	119537664	66	5709
2026-01-14 10:06:45.39	166.42	13.17	-47.8	-51.4	14.5	1.50e-06	0	39	0	121634816	66	5715
2026-01-14 10:06:46.39	166.44	13.27	-47.8	-51.3	14.7	0.00e+00	0	39	0	123731968	66	5644
2026-01-14 10:06:47.39	166.46	13.37	-47.8	-51.3	14.6	0.00e+00	0	39	0	125829120	66	5655
2026-01-14 10:06:48.38	166.47	13.47	-47.7	-51.2	14.8	0.00e+00	0	39	0	126877696	66	5577
2026-01-14 10:06:49.39	166.49	13.57	-47.7	-51.2	14.8	0.00e+00	0	39	0	128974848	66	5578
2026-01-14 10:06:50.38	166.50	13.67	-47.7	-51.2	14.8	0.00e+00	0	39	0	131072000	66	5578
2026-01-14 10:06:51.38	166.52	13.77	-47.6	-51.2	14.8	0.00e+00	0	39	0	133169152	66	5538
2026-01-14 10:06:52.38	166.54	13.88	-47.7	-51.2	14.8	0.00e+00	0	39	0	135266304	66	5552
2026-01-14 10:06:53.38	166.55	13.98	-47.7	-51.2	14.8	0.00e+00	0	39	0	136314880	66	5580
2026-01-14 10:06:54.38	166.57	14.08	-47.6	-51.0	15.0	6.16e-03	0	39	0	138412032	66	5451
2026-01-14 10:06:55.38	166.59	14.18	-47.5	-50.9	15.1	0.00e+00	0	39	0	140509184	66	5364
2026-01-14 10:06:56.37	166.60	14.29	-47.4	-50.8	15.2	0.00e+00	0	39	0	142606336	66	5296
2026-01-14 10:06:57.37	166.62	14.39	-47.5	-50.8	15.2	4.24e-03	0	39	0	144703488	66	5340
2026-01-14 10:06:58.37	166.64	14.50	-47.4	-50.7	15.3	0.00e+00	0	39	0	145752064	66	5252
2026-01-14 10:06:59.37	166.66	14.60	-47.3	-50.5	15.5	0.00e+00	0	39	0	147849216	66	5153
2026-01-14 10:07:00.36	166.67	14.71	-47.4	-50.6	15.4	1.31e-04	0	39	0	149946368	66	5189
2026-01-14 10:07:01.36	166.69	14.81	-47.4	-50.6	15.4	0.00e+00	0	39	0	152043520	66	5203
2026-01-14 10:07:02.36	166.71	14.92	-47.4	-50.6	15.4	0.00e+00	0	40	0	153092096	66	5195
2026-01-14 10:07:03.36	166.73	15.02	-47.4	-50.7	15.4	1.75e-05	0	39	0	155189248	66	5232
2026-01-14 10:07:04.35	166.74	15.13	-47.4	-50.5	15.5	0.00e+00	0	39	0	157286400	66	5144
2026-01-14 10:07:05.34	166.76	15.24	-47.4	-50.6	15.5	0.00e+00	0	39	0	159383552	66	5175
2026-01-14 10:07:06.35	166.78	15.35	-47.5	-50.7	15.3	0.00e+00	0	39	0	161480704	66	5249
2026-01-14 10:07:07.35	166.80	15.46	-47.4	-50.5	15.5	0.00e+00	0	39	0	162529280	66	5150
2026-01-14 10:07:08.34	166.81	15.56	-47.4	-50.5	15.5	0.00e+00	0	39	0	164626432	66	5136
2026-01-14 10:07:09.34	166.83	15.67	-47.4	-50.5	15.5	0.00e+00	0	39	0	166723584	66	5144
2026-01-14 10:07:10.34	166.85	15.78	-47.4	-50.6	15.5	0.00e+00	0	39	0	168820736	66	5166
2026-01-14 10:07:11.34	166.87	15.90	-47.5	-50.7	15.4	0.00e+00	0	40	0	170917888	66	5226
2026-01-14 10:07:12.34	166.89	16.01	-47.5	-50.8	15.3	0.00e+00	0	39	0	171966464	66	5298
2026-01-14 10:07:13.34	166.91	16.12	-47.5	-50.8	15.3	0.00e+00	0	39	0	174063616	66	5280
2026-01-14 10:07:14.33	166.93	16.23	-47.3	-50.5	15.5	0.00e+00	0	39	0	176160768	66	5142
2026-01-14 10:07:15.33	166.94	16.34	-47.3	-50.5	15.5	0.00e+00	0	39	0	178257920	66	5148
2026-01-14 10:07:16.34	166.96	16.46	-47.4	-50.7	15.4	0.00e+00	0	39	0	179306496	66	5226
2026-01-14 10:07:17.33	166.98	16.57	-47.3	-50.5	15.5	0.00e+00	0	39	0	181403648	66	5151
2026-01-14 10:07:18.33	167.00	16.68	-47.2	-50.4	15.6	0.00e+00	0	39	0	183500800	66	5089
2026-01-14 10:07:19.33	167.02	16.80	-47.3	-50.5	15.6	0.00e+00	0	39	0	185597952	66	5130
2026-01-14 10:07:20.33	167.04	16.91	-47.2	-50.4	15.7	0.00e+00	0	39	0	187695104	66	5080
2026-01-14 10:07:21.33	167.06	17.03	-47.2	-50.4	15.6	0.00e+00	0	39	0	188743680	66	5100
2026-01-14 10:07:22.33	167.08	17.15	-47.3	-50.5	15.6	0.00e+00	0	39	0	190840832	66	5131
2026-01-14 10:07:23.33	167.10	17.26	-47.3	-50.6	15.5	0.00e+00	0	39	0	192937984	66	5165
2026-01-14 10:07:24.33	167.12	17.38	-47.3	-50.5	15.6	0.00e+00	0	39	0	195035136	66	5122
2026-01-14 10:07:25.33	167.14	17.50	-47.3	-50.5	15.6	0.00e+00	0	39	0	197132288	66	5144
2026-01-14 10:07:26.32	167.16	17.62	-47.2	-50.3	15.7	0.00e+00	0	39	0	198180864	66	5033
2026-01-14 10:07:27.32	167.18	17.74	-47.1	-50.2	15.9	0.00e+00	0	40	0	200278016	66	4932
2026-01-14 10:07:28.32	167.20	17.86	-47.2	-50.3	15.8	0.00e+00	0	39	0	202375168	66	4990
2026-01-14 10:07:29.32	167.22	17.98	-47.1	-50.2	15.9	0.00e+00	0	39	0	204472320	66	4969
2026-01-14 10:07:30.32	167.24	18.10	-47.0	-50.1	16.0	0.00e+00	0	39	0	205520896	66	4890
2026-01-14 10:07:31.31	167.27	18.22	-46.9	-50.0	16.1	0.00e+00	0	39	0	207618048	65	5136
2026-01-14 10:07:32.31	167.29	18.34	-47.0	-50.2	15.9	0.00e+00	0	39	0	209715200	65	5228
2026-01-14 10:07:33.31	167.31	18.46	-46.9	-50.0	16.1	0.00e+00	0	40	0	211812352	65	5111
2026-01-14 10:07:34.30	167.33	18.59	-46.9	-50.0	16.1	0.00e+00	0	39	0	213909504	65	5136
2026-01-14 10:07:35.30	167.35	18.71	-46.9	-50.0	16.1	0.00e+00	0	40	0	214958080	65	5113
2026-01-14 10:07:36.30	167.37	18.84	-46.8	-49.9	16.2	0.00e+00	0	39	0	217055232	65	5070
2026-01-14 10:07:37.30	167.39	18.96	-46.8	-49.9	16.2	0.00e+00	0	39	0	219152384	65	5057
2026-01-14 10:07:38.29	167.42	19.09	-46.9	-50.0	16.1	0.00e+00	0	40	0	221249536	65	5113
2026-01-14 10:07:39.30	167.44	19.21	-46.8	-49.8	16.3	0.00e+00	0	39	0	222298112	65	5010
2026-01-14 10:07:40.29	167.46	19.34	-46.8	-49.8	16.1	0.00e+00	0	39	0	224395264	65	5004
2026-01-14 10:07:41.29	167.48	19.47	-46.8	-49.7	16.3	0.00e+00	0	39	0	226492416	65	4971
2026-01-14 10:07:42.29	167.51	19.60	-46.7	-49.6	16.4	0.00e+00	0	39	0	228589568	65	4921
2026-01-14 10:07:43.29	167.53	19.73	-46.7	-49.6	16.4	0.00e+00	0	40	0	230686720	65	4915
2026-01-14 10:07:44.29	167.55	19.86	-46.8	-49.7	16.3	0.00e+00	0	39	0	231735296	65	4968
2026-01-14 10:07:45.28	167.58	19.99	-46.8	-49.7	16.3	0.00e+00	0	39	0	233832448	65	4961
2026-01-14 10:07:46.28	167.60	20.12	-46.8	-49.7	16.4	0.00e+00	0	39	0	235929600	65	4931
2026-01-14 10:07:47.28	167.62	20.25	-46.8	-49.7	16.4	0.00e+00	0	39	0	238026752	65	4955
2026-01-14 10:07:48.28	167.65	20.38	-46.8	-49.7	16.3	0.00e+00	0	39	0	240123904	65	4977
2026-01-14 10:07:49.28	167.67	20.52	-46.8	-49.8	16.3	1.50e-06	0	40	0	241172480	65	4996
2026-01-14 10:07:50.27	167.69	20.65	-46.8	-49.8	16.3	0.00e+00	0	40	0	243269632	65	4991
2026-01-14 10:07:51.27	167.72	20.78	-46.8	-49.8	16.3	0.00e+00	0	40	0	245366784	65	5031
2026-01-14 10:07:52.27	167.74	20.92	-46.8	-49.9	16.2	6.17e-05	0	39	0	247463936	65	5063
2026-01-14 10:07:53.26	167.77	21.05	-46.9	-49.9	16.2	0.00e+00	0	39	0	249561088	65	5097
2026-01-14 10:07:54.26	167.79	21.19	-46.9	-49.9	16.2	0.00e+00	0	40	0	250609664	65	5076
2026-01-14 10:07:55.26	167.82	21.33	-46.9	-49.9	16.2	0.00e+00	0	40	0	252706816	65	5050
2026-01-14 10:07:56.26	167.84	21.47	-46.9	-49.9	16.2	0.00e+00	0	39	0	254803968	65	5078
2026-01-14 10:07:57.26	167.87	21.61	-46.9	-49.8	16.2	0.00e+00	0	40	0	256901120	65	5039
2026-01-14 10:07:58.25	167.89	21.75	-46.9	-49.8	16.3	0.00e+00	0	39	0	257949696	65	5024
2026-01-14 10:07:59.25	167.92	21.89	-46.9	-49.8	16.3	0.00e+00	0	39	0	260046848	65	5015
2026-01-14 10:08:00.25	167.95	22.03	-46.8	-49.8	16.3	0.00e+00	0	39	0	262144000	65	5008
2026-01-14 10:08:01.25	167.97	22.17	-46.9	-49.8	16.3	0.00e+00	0	39	0	264241152	65	5029
2026-01-14 10:08:02.25	168.00	22.31	-46.8	-49.7	16.4	0.00e+00	0	39	0	266338304	65	4983
2026-01-14 10:08:03.24	168.03	22.46	-46.8	-49.8	16.3	0.00e+00	0	40	0	267386880	65	4995
2026-01-14 10:08:04.25	168.05	22.60	-46.9	-49.9	16.3	0.00e+00	0	40	0	269484032	65	5047
2026-01-14 10:08:05.24	168.08	22.75	-46.8	-49.8	16.4	0.00e+00	0	40	0	271581184	65	4987
2026-01-14 10:08:06.24	168.11	22.89	-46.9	-49.8	16.3	0.00e+00	0	40	0	273678336	65	5029
2026-01-14 10:08:07.24	168.14	23.04	-46.9	-49.8	16.3	0.00e+00	0	39	0	274726912	65	5029
2026-01-14 10:08:08.24	168.16	23.19	-46.9	-49.9	16.2	0.00e+00	0	39	0	276824064	65	5083
2026-01-14 10:08:09.24	168.19	23.34	-47.0	-50.0	16.1	0.00e+00	0	40	0	278921216	65	5113
2026-01-14 10:08:10.24	168.22	23.49	-47.0	-50.0	16.1	0.00e+00	0	39	0	281018368	65	5142
2026-01-14 10:08:11.24	168.25	23.64	-47.0	-50.0	16.1	0.00e+00	0	40	0	283115520	65	5125
2026-01-14 10:08:12.24	168.28	23.79	-47.1	-50.1	16.0	0.00e+00	0	40	0	284164096	65	5210
2026-01-14 10:08:13.24	168.31	23.94	-47.1	-50.1	16.0	0.00e+00	0	39	0	286261248	65	5193
2026-01-14 10:08:14.23	168.34	24.10	-47.0	-50.1	16.0	0.00e+00	0	39	0	288358400	65	5193
2026-01-14 10:08:15.23	168.37	24.25	-47.1	-50.2	15.9	0.00e+00	0	39	0	290455552	65	5243
2026-01-14 10:08:16.23	168.40	24.41	-47.1	-50.2	15.9	0.00e+00	0	39	0	292552704	65	5240
2026-01-14 10:08:17.23	168.43	24.56	-47.2	-50.3	15.8	0.00e+00	0	40	0	293601280	65	5334
2026-01-14 10:08:18.23	168.46	24.72	-47.2	-50.4	15.8	0.00e+00	0	40	0	295698432	65	5346
2026-01-14 10:08:19.24	168.49	24.88	-47.2	-50.3	15.9	0.00e+00	0	40	0	297795584	65	5284
2026-01-14 10:08:20.24	168.52	25.04	-47.3	-50.5	15.6	0.00e+00	0	40	0	299892736	65	5430
2026-01-14 10:08:21.23	168.55	25.20	-47.3	-50.4	15.8	0.00e+00	0	40	0	301989888	65	5348
2026-01-14 10:08:22.24	168.58	25.36	-47.2	-50.3	15.9	0.00e+00	0	39	0	303038464	65	5280
2026-01-14 10:08:23.24	168.61	25.52	-47.3	-50.5	15.7	0.00e+00	0	40	0	305135616	65	5421
2026-01-14 10:08:24.24	168.64	25.68	-47.3	-50.4	15.7	0.00e+00	0	40	0	307232768	65	5375
2026-01-14 10:08:25.23	168.68	25.85	-47.2	-50.4	15.8	0.00e+00	0	39	0	309329920	65	5352
2026-01-14 10:08:26.23	168.71	26.01	-47.3	-50.5	15.6	0.00e+00	0	39	0	310378496	65	5415
2026-01-14 10:08:27.23	168.74	26.18	-47.4	-50.5	15.7	0.00e+00	0	39	0	312475648	65	5435
2026-01-14 10:08:28.23	168.78	26.34	-47.5	-50.7	15.5	0.00e+00	0	40	0	314572800	65	5560
2026-01-14 10:08:29.23	168.81	26.51	-47.6	-50.8	15.4	0.00e+00	0	39	0	316669952	65	5609
2026-01-14 10:08:30.22	168.84	26.68	-47.4	-50.5	15.6	0.00e+00	0	40	0	318767104	65	5441
2026-01-14 10:08:31.22	168.88	26.85	-47.5	-50.7	15.5	0.00e+00	0	39	0	319815680	65	5533
2026-01-14 10:08:32.22	168.91	27.02	-47.6	-50.7	15.4	0.00e+00	0	40	0	321912832	65	5575
2026-01-14 10:08:33.21	168.95	27.19	-47.6	-50.8	15.3	0.00e+00	0	39	0	324009984	65	5646
2026-01-14 10:08:34.21	168.98	27.36	-47.7	-50.9	15.3	0.00e+00	0	40	0	326107136	66	5350
2026-01-14 10:08:35.21	169.02	27.54	-47.8	-51.0	15.2	7.00e-07	0	39	0	328204288	66	5408
2026-01-14 10:08:36.21	169.05	27.71	-47.9	-51.1	15.1	0.00e+00	0	40	0	329252864	66	5524
2026-01-14 10:08:37.20	169.09	27.89	-48.0	-51.3	14.9	7.00e-07	0	39	0	331350016	66	5618
2026-01-14 10:08:38.20	169.13	28.07	-48.1	-51.5	14.7	0.00e+00	0	39	0	333447168	66	5746
2026-01-14 10:08:39.20	169.16	28.24	-48.1	-51.5	14.7	7.00e-07	0	39	0	335544320	66	5729
2026-01-14 10:08:40.19	169.20	28.42	-48.2	-51.7	14.6	0.00e+00	0	39	0	336592896	66	5865
2026-01-14 10:08:41.19	169.24	28.60	-48.2	-51.6	14.6	1.50e-06	0	40	0	338690048	67	5512
2026-01-14 10:08:42.19	169.28	28.79	-48.2	-51.8	14.4	0.00e+00	0	40	0	340787200	67	5600
2026-01-14 10:08:43.19	169.32	28.97	-48.4	-52.0	14.2	2.20e-06	0	39	0	342884352	67	5748
2026-01-14 10:08:44.19	169.36	29.15	-48.5	-52.1	14.1	1.50e-06	0	40	0	344981504	67	5827
2026-01-14 10:08:45.18	169.40	29.34	-48.5	-52.2	14.0	2.20e-06	0	39	0	346030080	67	5867
2026-01-14 10:08:46.18	169.44	29.53	-48.5	-52.1	14.1	7.00e-07	0	40	0	348127232	67	5821
2026-01-14 10:08:47.18	169.48	29.71	-48.5	-52.2	14.0	7.00e-07	0	40	0	350224384	67	5876
2026-01-14 10:08:48.18	169.52	29.90	-48.5	-52.2	14.0	3.80e-06	0	40	0	352321536	67	5898
2026-01-14 10:08:49.18	169.56	30.09	-48.5	-52.2	14.0	4.50e-06	0	40	0	353370112	67	5906
2026-01-14 10:08:50.18	169.60	30.29	-48.5	-52.3	13.9	2.20e-06	0	40	0	355467264	67	5928
2026-01-14 10:08:51.17	169.64	30.48	-48.5	-52.3	14.0	0.00e+00	0	40	0	357564416	67	5925
2026-01-14 10:08:52.17	169.68	30.67	-48.6	-52.4	13.8	3.00e-06	0	39	0	359661568	67	5997
2026-01-14 10:08:53.17	169.73	30.87	-48.6	-52.4	13.8	4.50e-06	0	39	0	361758720	67	6027
2026-01-14 10:08:54.16	169.77	31.06	-48.6	-52.3	14.1	3.80e-06	0	39	0	362807296	68	5652
2026-01-14 10:08:55.16	169.81	31.26	-48.7	-52.5	13.9	5.30e-06	0	40	0	364904448	68	5757
2026-01-14 10:08:56.16	169.86	31.46	-48.7	-52.5	13.9	4.50e-06	0	40	0	367001600	68	5748
2026-01-14 10:08:57.16	169.90	31.66	-48.8	-52.7	13.8	2.20e-06	0	40	0	369098752	68	5877
2026-01-14 10:08:58.16	169.95	31.87	-48.8	-52.7	13.7	4.50e-06	0	39	0	370147328	68	5872
2026-01-14 10:08:59.15	170.00	32.07	-48.9	-52.7	13.6	6.80e-06	0	40	0	372244480	68	5923
2026-01-14 10:09:00.15	170.04	32.27	-48.9	-52.8	13.6	4.50e-06	0	39	0	374341632	68	5970
2026-01-14 10:09:01.15	170.09	32.48	-48.9	-52.8	13.6	5.30e-06	0	39	0	376438784	68	5955
2026-01-14 10:09:02.14	170.14	32.69	-48.7	-52.6	13.8	9.10e-06	0	39	0	378535936	68	5795
2026-01-14 10:09:03.14	170.19	32.90	-48.8	-52.6	13.8	6.10e-06	0	40	0	379584512	68	5791
2026-01-14 10:09:04.14	170.23	33.11	-48.7	-52.4	14.0	3.80e-06	0	40	0	381681664	68	5703
2026-01-14 10:09:05.13	170.28	33.32	-48.6	-52.3	14.1	3.00e-06	0	40	0	383778816	68	5630
2026-01-14 10:09:06.13	170.33	33.53	-48.6	-52.3	14.1	1.50e-06	0	40	0	385875968	68	5594
2026-01-14 10:09:07.13	170.39	33.75	-48.6	-52.3	14.1	7.00e-07	0	40	0	387973120	68	5614
2026-01-14 10:09:08.13	170.44	33.96	-48.5	-52.0	14.4	7.00e-07	0	40	0	389021696	68	5459
2026-01-14 10:09:09.13	170.49	34.18	-48.1	-51.4	14.9	0.00e+00	0	40	0	391118848	68	5083
2026-01-14 10:09:10.13	170.54	34.40	-47.7	-50.9	15.4	0.00e+00	0	40	0	393216000	67	5050
2026-01-14 10:09:11.13	170.60	34.62	-47.5	-50.6	15.6	0.00e+00	0	40	0	395313152	67	4919
2026-01-14 10:09:12.12	170.65	34.84	-47.5	-50.6	15.7	0.00e+00	0	40	0	397410304	66	5181
2026-01-14 10:09:13.12	170.70	35.07	-47.3	-50.4	15.9	0.00e+00	0	40	0	398458880	66	5044
2026-01-14 10:09:14.12	170.76	35.29	-47.3	-50.3	16.0	0.00e+00	0	39	0	400556032	66	5005
2026-01-14 10:09:15.12	170.82	35.52	-47.2	-50.2	16.1	0.00e+00	0	40	0	402653184	66	4927
2026-01-14 10:09:16.11	170.87	35.75	-47.1	-50.0	16.1	0.00e+00	0	39	0	404750336	66	4862
2026-01-14 10:09:17.11	170.93	35.98	-47.1	-49.9	16.3	0.00e+00	0	39	0	405798912	66	4814
2026-01-14 10:09:18.11	170.99	36.21	-47.0	-49.9	16.3	0.00e+00	0	39	0	407896064	65	5094
2026-01-14 10:09:19.11	171.05	36.45	-46.9	-49.7	16.4	0.00e+00	0	40	0	409993216	65	4968
2026-01-14 10:09:20.10	171.11	36.68	-46.9	-49.7	16.4	0.00e+00	0	40	0	412090368	65	4978
2026-01-14 10:09:21.10	171.17	36.92	-46.9	-49.7	16.5	0.00e+00	0	39	0	414187520	65	4971
2026-01-14 10:09:22.10	171.23	37.16	-46.7	-49.5	16.7	0.00e+00	0	40	0	415236096	65	4856
2026-01-14 10:09:23.10	171.29	37.40	-46.6	-49.4	16.8	0.00e+00	0	40	0	417333248	65	4775
2026-01-14 10:09:24.10	171.36	37.64	-46.4	-49.1	17.0	0.00e+00	0	40	0	419430400	64	4902
2026-01-14 10:09:25.10	171.42	37.89	-46.6	-49.4	16.8	0.00e+00	0	40	0	421527552	64	5051
2026-01-14 10:09:26.10	171.49	38.13	-46.6	-49.4	16.8	0.00e+00	0	40	0	422576128	64	5074
2026-01-14 10:09:27.10	171.55	38.38	-46.5	-49.3	17.0	0.00e+00	0	39	0	424673280	64	4984
2026-01-14 10:09:28.10	171.62	38.63	-46.5	-49.2	17.0	0.00e+00	0	40	0	426770432	64	4971
2026-01-14 10:09:29.09	171.69	38.88	-46.5	-49.2	17.0	0.00e+00	0	39	0	428867584	64	4959
2026-01-14 10:09:30.09	171.76	39.13	-46.7	-49.5	16.7	0.00e+00	0	40	0	430964736	64	5129
2026-01-14 10:09:31.09	171.83	39.39	-46.8	-49.6	16.6	0.00e+00	0	40	0	432013312	64	5174
2026-01-14 10:09:32.08	171.90	39.64	-46.9	-49.8	16.5	0.00e+00	0	40	0	434110464	64	5296
2026-01-14 10:09:33.09	171.97	39.90	-47.0	-49.8	16.4	0.00e+00	0	40	0	436207616	64	5332
2026-01-14 10:09:34.08	172.05	40.16	-47.0	-49.9	16.3	0.00e+00	0	40	0	438304768	64	5398
2026-01-14 10:09:35.08	172.12	40.43	-47.1	-50.0	16.2	0.00e+00	0	40	0	440401920	65	5152
2026-01-14 10:09:36.08	172.20	40.69	-47.2	-50.1	16.1	0.00e+00	0	40	0	441450496	65	5205
2026-01-14 10:09:37.07	172.27	40.95	-47.3	-50.3	16.0	0.00e+00	0	40	0	443547648	65	5316
2026-01-14 10:09:38.07	172.35	41.22	-47.6	-50.7	15.6	0.00e+00	0	40	0	445644800	65	5536
2026-01-14 10:09:39.07	172.43	41.49	-47.6	-50.7	15.6	0.00e+00	0	39	0	447741952	66	5255
2026-01-14 10:09:40.07	172.51	41.77	-47.7	-50.9	15.4	0.00e+00	0	40	0	449839104	66	5351
2026-01-14 10:09:41.07	172.59	42.04	-47.8	-51.0	15.3	0.00e+00	0	40	0	450887680	66	5433
2026-01-14 10:09:42.06	172.68	42.31	-47.9	-51.1	15.1	0.00e+00	0	40	0	452984832	66	5479
2026-01-14 10:09:43.07	172.76	42.59	-47.9	-51.1	15.2	0.00e+00	0	40	0	455081984	66	5484
2026-01-14 10:09:44.06	172.85	42.87	-47.9	-51.1	15.2	0.00e+00	0	40	0	457179136	66	5500
2026-01-14 10:09:45.06	172.94	43.15	-48.0	-51.3	15.0	0.00e+00	0	39	0	458227712	66	5653
2026-01-14 10:09:46.06	173.03	43.44	-47.8	-51.0	15.3	0.00e+00	0	40	0	460324864	66	5424
2026-01-14 10:09:47.06	173.12	43.73	-47.7	-50.8	15.5	0.00e+00	0	40	0	462422016	66	5316
2026-01-14 10:09:48.05	173.21	44.01	-47.6	-50.7	15.6	0.00e+00	0	40	0	464519168	66	5248
2026-01-14 10:09:49.05	173.30	44.30	-47.4	-50.5	15.8	0.00e+00	0	40	0	466616320	66	5105
2026-01-14 10:09:50.05	173.40	44.59	-47.6	-50.6	15.6	0.00e+00	0	40	0	467664896	66	5217
2026-01-14 10:09:51.05	173.50	44.89	-47.8	-51.0	15.3	0.00e+00	0	40	0	469762048	66	5424
2026-01-14 10:09:52.05	173.60	45.19	-47.9	-51.2	15.1	7.00e-07	0	40	0	471859200	66	5564
2026-01-14 10:09:53.05	173.70	45.49	-48.1	-51.5	14.8	0.00e+00	0	40	0	473956352	66	5766
2026-01-14 10:09:54.05	173.80	45.79	-48.4	-52.1	14.3	7.00e-07	0	40	0	475004928	67	5796
2026-01-14 10:09:55.05	173.90	46.09	-48.6	-52.2	14.1	7.00e-07	0	40	0	477102080	67	5901
2026-01-14 10:09:56.04	174.01	46.39	-48.9	-52.7	13.7	2.20e-06	0	40	0	479199232	68	5904
2026-01-14 10:09:57.04	174.12	46.70	-48.9	-52.6	13.8	3.80e-06	0	40	0	481296384	68	5832
2026-01-14 10:09:58.04	174.23	47.01	-48.8	-52.5	13.9	3.00e-06	0	39	0	483393536	68	5786
2026-01-14 10:09:59.03	174.34	47.32	-48.9	-52.7	13.8	1.50e-06	0	40	0	484442112	68	5866
2026-01-14 10:10:00.03	174.46	47.63	-49.0	-52.9	13.6	8.30e-06	0	40	0	486539264	68	6043
2026-01-14 10:10:01.03	174.58	47.95	-49.2	-53.2	13.3	1.44e-05	0	40	0	488636416	69	5909
2026-01-14 10:10:02.02	174.69	48.26	-49.2	-53.1	13.4	2.21e-05	0	40	0	490733568	69	5815
2026-01-14 10:10:03.02	174.82	48.59	-49.1	-53.0	13.5	1.44e-05	0	40	0	492830720	69	5748
2026-01-14 10:10:04.02	174.94	48.91	-48.7	-52.4	14.0	2.20e-06	0	40	0	493879296	69	5361
2026-01-14 10:10:05.01	175.07	49.23	-48.5	-52.1	14.3	2.20e-06	0	40	0	495976448	69	5167
2026-01-14 10:10:06.01	175.20	49.56	-48.3	-51.7	14.8	7.00e-07	0	40	0	498073600	68	5220
2026-01-14 10:10:07.01	175.33	49.89	-48.2	-51.5	15.0	0.00e+00	0	40	0	500170752	68	5129
2026-01-14 10:10:08.01	175.47	50.22	-47.7	-50.9	15.4	0.00e+00	0	40	0	501219328	67	5072
2026-01-14 10:10:09.01	175.61	50.55	-47.6	-50.7	15.5	0.00e+00	0	40	0	503316480	67	4983
2026-01-14 10:10:10.00	175.75	50.89	-47.5	-50.6	15.7	0.00e+00	0	40	0	505413632	66	5161
2026-01-14 10:10:11.00	175.89	51.23	-46.9	-49.8	16.4	0.00e+00	0	40	0	507510784	65	4993
2026-01-14 10:10:12.00	176.04	51.57	-46.5	-49.2	17.0	0.00e+00	0	39	0	509607936	65	4686
2026-01-14 10:10:12.99	176.19	51.91	-46.5	-49.2	17.1	0.00e+00	0	40	0	510656512	65	4655
2026-01-14 10:10:13.99	176.34	52.25	-46.1	-48.7	17.5	0.00e+00	0	40	0	512753664	64	4693
2026-01-14 10:10:14.99	176.50	52.60	-46.0	-48.5	17.8	0.00e+00	0	40	0	514850816	63	4865
2026-01-14 10:10:15.99	176.66	52.95	-46.0	-48.4	17.8	0.00e+00	0	40	0	516947968	63	4809
2026-01-14 10:10:16.98	176.83	53.30	-45.5	-47.9	18.3	0.00e+00	0	40	0	517996544	63	4522
2026-01-14 10:10:17.98	177.00	53.65	-45.3	-47.7	18.6	0.00e+00	0	40	0	520093696	62	4658
2026-01-14 10:10:18.97	177.17	54.01	-45.3	-47.7	18.6	0.00e+00	0	39	0	522190848	62	4682
2026-01-14 10:10:19.98	177.35	54.37	-45.3	-47.6	18.6	0.00e+00	0	39	0	524288000	62	4647
2026-01-14 10:10:20.97	177.53	54.73	-45.0	-47.4	18.8	0.00e+00	0	40	0	526385152	62	4527
2026-01-14 10:10:21.97	177.72	55.09	-45.1	-47.5	18.7	0.00e+00	0	40	0	527433728	62	4569
2026-01-14 10:10:22.97	177.91	55.45	-45.0	-47.3	18.9	0.00e+00	0	40	0	529530880	62	4452
2026-01-14 10:10:23.97	178.11	55.82	-44.9	-47.2	19.0	0.00e+00	0	40	0	531628032	61	4699
2026-01-14 10:10:24.97	178.31	56.19	-45.3	-47.6	18.7	0.00e+00	0	40	0	533725184	61	4884
2026-01-14 10:10:25.97	178.52	56.56	-45.7	-48.1	18.2	0.00e+00	0	39	0	535822336	61	5181
2026-01-14 10:10:26.96	178.73	56.93	-46.1	-48.6	17.7	0.00e+00	0	39	0	536870912	62	5177
2026-01-14 10:10:27.96	178.95	57.31	-46.2	-48.8	17.6	0.00e+00	0	39	0	538968064	62	5282
2026-01-14 10:10:28.96	179.17	57.69	-46.0	-48.5	17.8	0.00e+00	0	40	0	541065216	62	5154
2026-01-14 10:10:29.96	179.41	58.07	-45.9	-48.4	17.9	0.00e+00	0	39	0	543162368	62	5096
2026-01-14 10:10:30.96	179.64	58.45	-45.8	-48.3	18.0	0.00e+00	0	40	0	544210944	62	5008
2026-01-14 10:10:31.95	179.89	58.83	-46.0	-48.6	17.7	0.00e+00	0	39	0	546308096	62	5177
2026-01-14 10:10:32.95	180.14	59.22	-46.1	-48.7	17.6	0.00e+00	0	39	0	548405248	63	4951
2026-01-14 10:10:33.95	180.40	59.61	-46.0	-48.6	17.7	0.00e+00	0	39	0	550502400	63	4876
2026-01-14 10:10:34.95	180.66	60.00	-46.0	-48.5	17.8	0.00e+00	0	40	0	552599552	63	4841
2026-01-14 10:10:35.94	180.94	60.38	-45.9	-48.3	17.9	0.00e+00	0	40	0	553648128	63	4755
2026-01-14 10:10:36.95	181.22	60.78	-45.9	-48.4	17.9	0.00e+00	0	39	0	555745280	63	4799
2026-01-14 10:10:37.95	181.52	61.18	-45.7	-48.2	18.1	0.00e+00	0	40	0	557842432	63	4652
2026-01-14 10:10:38.95	181.82	61.57	-45.4	-47.8	18.5	0.00e+00	0	40	0	559939584	62	4706
2026-01-14 10:10:39.95	182.13	61.97	-45.2	-47.6	18.6	0.00e+00	0	40	0	562036736	62	4605
2026-01-14 10:10:40.94	182.45	62.37	-45.3	-47.6	18.6	0.00e+00	0	40	0	563085312	62	4632
2026-01-14 10:10:41.94	182.78	62.77	-45.3	-47.6	18.6	0.00e+00	0	40	0	565182464	62	4640
2026-01-14 10:10:42.94	183.12	63.18	-45.3	-47.7	18.6	0.00e+00	0	40	0	567279616	62	4655
2026-01-14 10:10:43.93	183.47	63.58	-45.4	-47.8	18.5	0.00e+00	0	40	0	569376768	62	4727
2026-01-14 10:10:44.93	183.84	63.98	-46.1	-48.7	17.6	0.00e+00	0	40	0	570425344	62	5250
2026-01-14 10:10:45.93	184.22	64.39	-46.8	-49.6	16.7	0.00e+00	0	40	0	572522496	64	5187
2026-01-14 10:10:46.93	184.62	64.80	-47.2	-50.1	16.2	0.00e+00	0	40	0	574619648	65	5218
2026-01-14 10:10:47.92	185.02	65.21	-47.2	-50.2	16.1	0.00e+00	0	40	0	576716800	65	5220
2026-01-14 10:10:48.92	185.45	65.62	-47.1	-50.1	16.2	0.00e+00	0	40	0	578813952	65	5161
2026-01-14 10:10:49.92	185.89	66.03	-47.0	-49.8	16.5	0.00e+00	0	40	0	579862528	65	5003
2026-01-14 10:10:50.92	186.34	66.44	-47.2	-50.2	16.1	0.00e+00	0	40	0	581959680	65	5227
2026-01-14 10:10:51.92	186.82	66.86	-47.4	-50.4	15.9	0.00e+00	0	40	0	584056832	65	5370
2026-01-14 10:10:52.92	187.31	67.27	-47.8	-51.0	15.3	0.00e+00	0	40	0	586153984	66	5432
2026-01-14 10:10:53.92	187.82	67.68	-47.9	-51.2	15.1	0.00e+00	0	40	0	588251136	66	5537
2026-01-14 10:10:54.92	188.36	68.10	-47.5	-50.6	15.7	0.00e+00	0	40	0	589299712	66	5169
2026-01-14 10:10:55.92	188.91	68.51	-47.0	-49.8	16.4	0.00e+00	0	40	0	591396864	66	4757
2026-01-14 10:10:56.92	189.49	68.93	-47.0	-49.8	16.5	0.00e+00	0	40	0	593494016	65	5027
2026-01-14 10:10:57.92	190.10	69.34	-46.9	-49.7	16.6	0.00e+00	0	40	0	595591168	65	4951
2026-01-14 10:10:58.92	190.73	69.76	-47.1	-50.0	16.2	0.00e+00	0	40	0	597688320	65	5138
2026-01-14 10:10:59.92	191.39	70.17	-47.4	-50.5	15.8	0.00e+00	0	39	0	598736896	65	5418
2026-01-14 10:11:00.92	192.08	70.58	-47.4	-50.4	15.8	0.00e+00	0	40	0	600834048	65	5371
2026-01-14 10:11:01.91	192.79	70.99	-47.2	-50.1	16.2	0.00e+00	0	40	0	602931200	65	5184
2026-01-14 10:11:02.91	193.55	71.40	-47.3	-50.2	16.1	0.00e+00	0	39	0	605028352	65	5251
2026-01-14 10:11:03.91	194.34	71.81	-48.0	-51.2	15.2	0.00e+00	0	40	0	606076928	66	5577
2026-01-14 10:11:04.90	195.16	72.22	-48.4	-51.9	14.5	0.00e+00	0	40	0	608174080	67	5678
2026-01-14 10:11:05.90	196.03	72.62	-48.1	-51.4	14.9	0.00e+00	0	40	0	610271232	67	5387
2026-01-14 10:11:06.90	196.94	73.02	-48.1	-51.5	14.9	0.00e+00	0	40	0	612368384	67	5420
2026-01-14 10:11:07.90	197.90	73.42	-48.2	-51.6	14.8	7.00e-07	0	39	0	614465536	67	5489
2026-01-14 10:11:08.90	198.90	73.82	-48.6	-52.3	14.1	7.00e-07	0	40	0	615514112	67	5956
2026-01-14 10:11:09.90	199.97	74.21	-49.1	-53.0	13.5	5.30e-06	0	40	0	617611264	69	5730
2026-01-14 10:11:10.90	201.08	74.60	-48.9	-52.7	13.8	4.50e-06	0	40	0	619708416	69	5581
2026-01-14 10:11:11.89	202.25	74.98	-48.5	-52.0	14.5	1.50e-06	0	39	0	621805568	69	5154
2026-01-14 10:11:12.89	203.48	75.36	-48.5	-52.0	14.5	7.00e-07	0	40	0	622854144	68	5430
2026-01-14 10:11:13.89	204.79	75.73	-48.7	-52.3	14.2	2.20e-06	0	40	0	624951296	68	5618
2026-01-14 10:11:14.88	206.15	76.10	-49.0	-52.8	13.7	3.80e-06	0	40	0	627048448	68	5932
2026-01-14 10:11:15.87	207.59	76.45	-49.4	-53.5	13.0	8.30e-06	0	39	0	629145600	69	6100
2026-01-14 10:11:16.87	209.13	76.80	-49.8	-54.3	12.1	1.31e-04	0	40	0	631242752	70	6287
2026-01-14 10:11:17.87	210.74	77.14	-50.0	-54.7	11.8	3.75e-04	0	40	0	632291328	70	6590
2026-01-14 10:11:18.87	212.45	77.48	-49.7	-54.0	12.4	2.27e-04	0	40	0	634388480	70	6074
2026-01-14 10:11:19.87	214.25	77.80	-49.3	-53.2	13.4	5.87e-05	0	39	0	636485632	70	5538
2026-01-14 10:11:20.86	216.13	78.11	-48.9	-52.6	14.0	8.30e-06	0	40	0	638582784	69	5469
2026-01-14 10:11:21.86	218.13	78.40	-48.3	-51.7	14.9	1.50e-06	0	40	0	639631360	68	5222
2026-01-14 10:11:22.86	220.24	78.69	-47.7	-50.8	15.6	0.00e+00	0	40	0	641728512	67	5003
2026-01-14 10:11:23.86	222.45	78.96	-47.8	-51.1	15.3	0.00e+00	0	40	0	643825664	67	5181
2026-01-14 10:11:24.86	224.77	79.21	-47.8	-51.0	15.3	0.00e+00	0	40	0	645922816	67	5157
2026-01-14 10:11:25.86	227.20	79.44	-47.4	-50.4	15.9	0.00e+00	0	40	0	648019968	66	5066
2026-01-14 10:11:26.86	229.74	79.66	-47.3	-50.3	16.1	0.00e+00	0	40	0	649068544	66	4987
2026-01-14 10:11:27.85	232.35	79.85	-47.2	-50.1	16.2	0.00e+00	0	40	0	651165696	66	4895
2026-01-14 10:11:28.85	235.09	80.02	-47.1	-50.1	16.3	0.00e+00	0	40	0	653262848	65	5174
2026-01-14 10:11:29.85	237.92	80.17	-47.7	-51.0	15.5	0.00e+00	0	40	0	655360000	66	5422
2026-01-14 10:11:30.85	240.83	80.30	-48.0	-51.3	15.0	0.00e+00	0	40	0	657457152	66	5629
2026-01-14 10:11:31.84	243.79	80.40	-47.5	-50.5	15.7	0.00e+00	0	40	0	658505728	66	5146
2026-01-14 10:11:32.84	246.82	80.47	-47.2	-50.1	16.2	0.00e+00	0	40	0	660602880	66	4901
2026-01-14 10:11:33.84	249.90	80.52	-47.1	-50.1	16.2	0.00e+00	0	40	0	662700032	66	4907
2026-01-14 10:11:34.84	253.00	80.54	-47.3	-50.4	15.9	0.00e+00	0	40	0	664797184	66	5088
2026-01-14 10:11:35.84	256.10	80.53	-47.7	-51.0	15.4	0.00e+00	0	40	0	665845760	66	5435
2026-01-14 10:11:36.84	259.19	80.50	-47.8	-51.0	15.2	0.00e+00	0	40	0	667942912	66	5460
2026-01-14 10:11:37.83	262.22	80.44	-47.3	-50.4	15.9	0.00e+00	0	40	0	670040064	66	5050
2026-01-14 10:11:38.83	265.23	80.35	-47.0	-49.8	16.4	0.00e+00	0	40	0	672137216	66	4752
2026-01-14 10:11:39.83	268.18	80.24	-47.0	-49.9	16.4	0.00e+00	0	40	0	674234368	65	5051
2026-01-14 10:11:40.83	271.06	80.10	-47.3	-50.2	16.0	0.00e+00	0	40	0	675282944	65	5262
2026-01-14 10:11:41.83	273.84	79.94	-47.5	-50.6	15.7	0.00e+00	0	40	0	677380096	65	5503
2026-01-14 10:11:42.82	276.51	79.76	-47.4	-50.4	15.9	0.00e+00	0	39	0	679477248	65	5393
2026-01-14 10:11:43.82	279.10	79.56	-46.8	-49.6	16.6	0.00e+00	0	40	0	681574400	65	4923
2026-01-14 10:11:44.82	281.59	79.34	-46.5	-49.1	17.1	0.00e+00	0	40	0	683671552	65	4643
2026-01-14 10:11:45.81	283.95	79.10	-46.5	-49.2	17.0	0.00e+00	0	40	0	684720128	64	4973
2026-01-14 10:11:46.81	286.22	78.84	-46.7	-49.4	16.9	0.00e+00	0	40	0	686817280	64	5090
2026-01-14 10:11:47.81	288.38	78.56	-47.7	-50.6	16.2	0.00e+00	0	40	0	688914432	65	5511
2026-01-14 10:11:48.81	290.44	78.27	-47.8	-51.0	15.4	0.00e+00	0	40	0	691011584	66	5445
2026-01-14 10:11:49.81	292.39	77.97	-47.9	-51.2	15.1	0.00e+00	0	40	0	692060160	66	5579
2026-01-14 10:11:50.81	294.24	77.65	-48.6	-52.2	14.1	7.00e-07	0	39	0	694157312	67	5921
2026-01-14 10:11:51.81	296.00	77.33	-49.4	-53.5	13.1	1.67e-05	0	40	0	696254464	69	6079
2026-01-14 10:11:52.81	297.66	76.99	-49.3	-53.3	13.2	5.79e-05	0	40	0	698351616	69	5967
2026-01-14 10:11:53.81	299.24	76.65	-49.4	-53.4	13.1	1.44e-05	0	40	0	700448768	69	6049
2026-01-14 10:11:54.80	300.72	76.29	-49.9	-54.6	12.0	1.74e-04	0	39	0	701497344	70	6501
2026-01-14 10:11:55.80	302.14	75.93	-49.9	-54.5	12.1	3.08e-04	0	40	0	703594496	70	6458
2026-01-14 10:11:56.80	303.48	75.56	-49.4	-53.5	13.0	5.87e-05	0	40	0	705691648	70	5737
2026-01-14 10:11:57.80	304.75	75.19	-49.2	-53.3	13.2	3.89e-05	0	40	0	707788800	70	5604
2026-01-14 10:11:58.80	305.96	74.81	-48.5	-52.1	14.4	5.30e-06	0	40	0	709885952	69	5176
2026-01-14 10:11:59.80	307.11	74.42	-48.4	-51.9	14.7	0.00e+00	0	40	0	710934528	68	5354
2026-01-14 10:12:00.80	308.20	74.03	-49.1	-53.1	13.5	3.00e-06	0	40	0	713031680	68	6141
2026-01-14 10:12:01.79	309.22	73.64	-48.9	-52.6	14.0	4.50e-06	0	40	0	715128832	68	5836
2026-01-14 10:12:02.79	310.20	73.25	-48.8	-52.4	14.2	2.20e-06	0	39	0	717225984	68	5663
2026-01-14 10:12:03.79	311.14	72.85	-49.3	-53.3	13.2	1.67e-05	0	40	0	718274560	69	5978
2026-01-14 10:12:04.79	312.03	72.44	-48.5	-52.1	14.4	3.00e-06	0	40	0	720371712	69	5184
2026-01-14 10:12:05.78	312.87	72.04	-48.3	-51.6	14.9	0.00e+00	0	40	0	722468864	68	5216
2026-01-14 10:12:06.78	313.68	71.63	-48.2	-51.5	15.1	0.00e+00	0	40	0	724566016	68	5104
2026-01-14 10:12:07.78	314.45	71.22	-47.5	-50.6	15.8	0.00e+00	0	40	0	726663168	67	4880
2026-01-14 10:12:08.78	315.19	70.81	-47.4	-50.4	15.9	0.00e+00	0	40	0	727711744	66	5092
2026-01-14 10:12:09.77	315.89	70.41	-47.7	-50.9	15.5	0.00e+00	0	40	0	729808896	66	5367
2026-01-14 10:12:10.77	316.57	69.99	-48.1	-51.5	14.8	0.00e+00	0	40	0	731906048	67	5412
2026-01-14 10:12:11.77	317.21	69.58	-48.1	-51.4	14.9	0.00e+00	0	40	0	734003200	67	5382
2026-01-14 10:12:12.77	317.83	69.17	-48.5	-51.9	14.5	0.00e+00	0	40	0	736100352	67	5711
2026-01-14 10:12:13.77	318.42	68.75	-49.0	-52.8	13.7	0.00e+00	0	40	0	737148928	68	5949
2026-01-14 10:12:14.76	318.99	68.34	-48.7	-52.4	14.2	1.50e-06	0	40	0	739246080	68	5660
2026-01-14 10:12:15.76	319.53	67.93	-49.2	-53.1	13.3	7.00e-07	0	40	0	741343232	69	5853
2026-01-14 10:12:16.76	320.06	67.52	-49.5	-53.8	12.8	5.79e-05	0	40	0	743440384	69	6283
2026-01-14 10:12:17.76	320.56	67.10	-48.6	-52.2	14.3	1.50e-06	0	40	0	744488960	69	5222
2026-01-14 10:12:18.76	321.04	66.69	-47.6	-50.7	15.7	0.00e+00	0	40	0	746586112	67	4940
2026-01-14 10:12:19.76	321.51	66.28	-47.5	-50.5	15.9	0.00e+00	0	40	0	748683264	66	5104
2026-01-14 10:12:20.76	321.96	65.87	-48.0	-51.3	15.1	0.00e+00	0	40	0	750780416	66	5614
2026-01-14 10:12:21.75	322.39	65.46	-47.9	-51.0	15.4	0.00e+00	0	40	0	752877568	66	5454
2026-01-14 10:12:22.75	322.80	65.05	-47.6	-50.7	15.7	0.00e+00	0	40	0	753926144	66	5233
2026-01-14 10:12:23.74	323.20	64.65	-47.0	-49.8	16.5	0.00e+00	0	40	0	756023296	66	4734
2026-01-14 10:12:24.74	323.59	64.24	-46.0	-48.5	17.7	0.00e+00	0	40	0	758120448	64	4588
2026-01-14 10:12:25.74	323.96	63.83	-45.7	-48.1	18.2	0.00e+00	0	40	0	760217600	63	4643
2026-01-14 10:12:26.74	324.33	63.43	-46.2	-48.8	17.5	0.00e+00	0	40	0	762314752	63	5035
2026-01-14 10:12:27.73	324.67	63.03	-46.3	-48.9	17.5	0.00e+00	0	40	0	763363328	63	5084
2026-01-14 10:12:28.74	325.01	62.62	-45.3	-47.6	18.6	0.00e+00	0	40	0	765460480	62	4631
2026-01-14 10:12:29.73	325.34	62.23	-44.7	-46.9	19.3	0.00e+00	0	40	0	767557632	61	4513
2026-01-14 10:12:30.73	325.66	61.83	-45.2	-47.5	18.7	0.00e+00	0	40	0	769654784	61	4825
2026-01-14 10:12:31.73	325.96	61.43	-45.5	-47.8	18.5	0.00e+00	0	40	0	770703360	61	5023
2026-01-14 10:12:32.73	326.26	61.04	-45.9	-48.4	17.9	0.00e+00	0	40	0	772800512	62	5069
2026-01-14 10:12:33.72	326.55	60.65	-47.0	-49.9	16.4	0.00e+00	0	40	0	774897664	64	5389
2026-01-14 10:12:34.72	326.83	60.26	-47.7	-51.0	15.4	0.00e+00	0	39	0	776994816	66	5403
2026-01-14 10:12:35.72	327.10	59.87	-47.2	-50.1	16.2	0.00e+00	0	40	0	779091968	66	4915
2026-01-14 10:12:36.72	327.36	59.48	-46.9	-49.7	16.6	0.00e+00	0	40	0	780140544	65	4978
2026-01-14 10:12:37.71	327.61	59.10	-47.4	-50.4	16.0	0.00e+00	0	40	0	782237696	65	5344
2026-01-14 10:12:38.71	327.86	58.71	-48.4	-52.0	14.4	0.00e+00	0	39	0	784334848	67	5724
2026-01-14 10:12:39.71	328.10	58.33	-48.9	-52.7	13.8	3.80e-06	0	40	0	786432000	68	5919
2026-01-14 10:12:40.71	328.34	57.95	-48.2	-51.7	14.8	0.00e+00	0	40	0	787480576	68	5227
2026-01-14 10:12:41.71	328.57	57.57	-47.8	-51.0	15.4	0.00e+00	0	40	0	789577728	67	5134
2026-01-14 10:12:42.70	328.79	57.20	-47.4	-50.4	15.9	0.00e+00	0	40	0	791674880	66	5074
2026-01-14 10:12:43.70	329.01	56.82	-46.8	-49.6	16.7	0.00e+00	0	40	0	793772032	65	4874
2026-01-14 10:12:44.70	329.22	56.45	-46.5	-49.2	17.1	0.00e+00	0	40	0	795869184	64	4943
2026-01-14 10:12:45.69	329.42	56.09	-46.5	-49.2	17.1	0.00e+00	0	40	0	796917760	64	4966
2026-01-14 10:12:46.69	329.62	55.72	-46.6	-49.3	17.0	0.00e+00	0	40	0	799014912	64	5011
2026-01-14 10:12:47.69	329.81	55.35	-46.2	-48.9	17.4	0.00e+00	0	40	0	801112064	64	4785
2026-01-14 10:12:48.69	330.01	54.99	-45.6	-48.0	18.2	0.00e+00	0	40	0	803209216	63	4596
2026-01-14 10:12:49.68	330.19	54.63	-45.4	-47.8	18.5	0.00e+00	0	40	0	805306368	62	4707
2026-01-14 10:12:50.68	330.37	54.27	-45.3	-47.7	18.6	0.00e+00	0	40	0	806354944	62	4681
2026-01-14 10:12:51.68	330.55	53.92	-46.0	-48.6	17.7	0.00e+00	0	39	0	808452096	62	5196
2026-01-14 10:12:52.68	330.72	53.56	-46.2	-48.8	17.5	0.00e+00	0	40	0	810549248	63	5031
2026-01-14 10:12:53.68	330.89	53.21	-46.3	-49.0	17.4	0.00e+00	0	40	0	812646400	63	5125
2026-01-14 10:12:54.67	331.05	52.87	-46.6	-49.3	17.2	0.00e+00	0	40	0	813694976	63	5288
2026-01-14 10:12:55.67	331.21	52.52	-47.2	-50.1	16.2	0.00e+00	0	40	0	815792128	65	5196
2026-01-14 10:12:56.67	331.37	52.17	-47.9	-51.2	15.2	0.00e+00	0	40	0	817889280	66	5539
2026-01-14 10:12:57.66	331.52	51.83	-48.2	-51.6	14.8	7.00e-07	0	40	0	819986432	67	5501
2026-01-14 10:12:58.66	331.67	51.49	-48.4	-52.0	14.4	0.00e+00	0	40	0	822083584	67	5734
2026-01-14 10:12:59.66	331.82	51.15	-49.2	-53.1	13.4	7.00e-07	0	40	0	823132160	68	6200
2026-01-14 10:13:00.66	331.96	50.82	-49.6	-54.1	12.4	5.79e-05	0	40	0	825229312	69	6498
2026-01-14 10:13:01.65	332.10	50.49	-50.3	-55.8	10.8	8.72e-04	0	40	0	827326464	71	7090
2026-01-14 10:13:02.65	332.24	50.15	-50.3	-56.1	10.4	6.11e-03	0	40	0	829423616	71	7311
2026-01-14 10:13:03.64	332.37	49.83	-50.1	-55.3	11.1	1.85e-03	0	40	0	830472192	71	6681
2026-01-14 10:13:04.64	332.50	49.50	-50.1	-55.1	11.4	1.19e-03	0	40	0	832569344	71	6540
2026-01-14 10:13:05.64	332.63	49.17	-50.3	-55.4	11.1	1.04e-03	0	40	0	834666496	71	6733
2026-01-14 10:13:06.63	332.76	48.85	-50.3	-55.3	11.2	1.73e-03	0	40	0	836763648	71	6715
2026-01-14 10:13:07.63	332.88	48.53	-49.6	-53.9	12.6	3.34e-04	0	40	0	838860800	71	5712
2026-01-14 10:13:08.63	333.00	48.22	-49.1	-53.0	13.4	5.26e-05	0	40	0	839909376	70	5440
2026-01-14 10:13:09.64	333.12	47.90	-48.7	-52.4	14.2	2.20e-06	0	40	0	842006528	69	5344
2026-01-14 10:13:10.64	333.24	47.58	-48.5	-52.0	14.5	1.50e-06	0	40	0	844103680	69	5142
2026-01-14 10:13:11.63	333.35	47.27	-48.5	-52.0	14.5	7.00e-07	0	40	0	846200832	68	5437
2026-01-14 10:13:12.63	333.47	46.96	-48.9	-52.7	13.8	2.20e-06	0	40	0	848297984	68	5898
2026-01-14 10:13:13.63	333.58	46.66	-49.1	-53.1	13.5	9.10e-06	0	40	0	849346560	68	6156
2026-01-14 10:13:14.62	333.68	46.35	-48.8	-52.5	14.0	4.50e-06	0	40	0	851443712	69	5444
2026-01-14 10:13:15.62	333.79	46.05	-48.0	-51.3	15.2	0.00e+00	0	40	0	853540864	68	5024
2026-01-14 10:13:16.62	333.90	45.75	-47.4	-50.5	15.8	0.00e+00	0	40	0	855638016	66	5123
2026-01-14 10:13:17.62	334.00	45.45	-46.9	-49.7	16.6	0.00e+00	0	40	0	857735168	65	4936
2026-01-14 10:13:18.62	334.10	45.15	-46.8	-49.5	16.8	0.00e+00	0	40	0	858783744	65	4852
2026-01-14 10:13:19.62	334.20	44.86	-46.4	-49.0	17.3	0.00e+00	0	40	0	860880896	64	4849
2026-01-14 10:13:20.62	334.29	44.56	-46.2	-48.8	17.4	0.00e+00	0	40	0	862978048	64	4753
2026-01-14 10:13:21.61	334.39	44.28	-46.2	-48.8	17.4	0.00e+00	0	39	0	865075200	64	4739
2026-01-14 10:13:22.61	334.48	43.99	-46.4	-49.0	17.3	0.00e+00	0	40	0	866123776	64	4845
2026-01-14 10:13:23.61	334.57	43.70	-46.9	-49.8	16.5	0.00e+00	0	39	0	868220928	64	5290
2026-01-14 10:13:24.61	334.67	43.42	-47.5	-50.6	15.7	0.00e+00	0	40	0	870318080	65	5522
2026-01-14 10:13:25.61	334.75	43.13	-47.9	-51.3	15.0	0.00e+00	0	40	0	872415232	66	5653
2026-01-14 10:13:26.61	334.84	42.85	-48.0	-51.6	14.8	7.00e-07	0	40	0	874512384	66	5794
2026-01-14 10:13:27.60	334.93	42.58	-47.7	-51.1	15.2	0.00e+00	0	40	0	875560960	66	5501
2026-01-14 10:13:28.60	335.01	42.30	-46.9	-50.0	16.3	0.00e+00	0	40	0	877658112	65	5109
2026-01-14 10:13:29.60	335.10	42.03	-46.3	-49.2	17.1	0.00e+00	0	40	0	879755264	64	4957
2026-01-14 10:13:30.60	335.18	41.76	-46.2	-49.0	17.3	0.00e+00	0	40	0	881852416	64	4831
2026-01-14 10:13:31.59	335.26	41.49	-46.1	-48.9	17.4	0.00e+00	0	40	0	882900992	64	4778
2026-01-14 10:13:32.59	335.34	41.22	-46.5	-49.4	16.9	0.00e+00	0	40	0	884998144	64	5059
2026-01-14 10:13:33.59	335.41	40.95	-47.0	-50.0	16.4	0.00e+00	0	39	0	887095296	64	5421
2026-01-14 10:13:34.58	335.49	40.69	-47.4	-50.6	15.7	0.00e+00	0	40	0	889192448	65	5474
2026-01-14 10:13:35.58	335.57	40.43	-48.0	-51.4	14.9	7.00e-07	0	40	0	891289600	66	5701
2026-01-14 10:13:36.57	335.64	40.17	-48.5	-52.2	14.2	7.00e-07	0	39	0	892338176	67	5858
2026-01-14 10:13:37.57	335.71	39.91	-48.8	-52.5	13.9	3.00e-06	0	40	0	894435328	68	5778
2026-01-14 10:13:38.56	335.79	39.66	-48.7	-52.5	14.1	3.80e-06	0	40	0	896532480	68	5731
2026-01-14 10:13:39.56	335.86	39.40	-48.5	-52.0	14.5	7.00e-07	0	40	0	898629632	68	5432
2026-01-14 10:13:40.56	335.93	39.15	-48.4	-51.9	14.6	7.00e-07	0	40	0	899678208	68	5371
2026-01-14 10:13:41.56	336.00	38.90	-48.1	-51.5	15.0	0.00e+00	0	40	0	901775360	68	5106
2026-01-14 10:13:42.56	336.07	38.65	-47.7	-50.9	15.4	0.00e+00	0	40	0	903872512	67	5096
2026-01-14 10:13:43.55	336.13	38.40	-47.8	-51.0	15.4	0.00e+00	0	40	0	905969664	67	5103
2026-01-14 10:13:44.55	336.20	38.15	-47.5	-50.7	15.6	0.00e+00	0	40	0	908066816	67	4930
2026-01-14 10:13:45.55	336.26	37.91	-47.5	-50.7	15.6	0.00e+00	0	40	0	909115392	66	5252
2026-01-14 10:13:46.55	336.33	37.67	-48.0	-51.4	14.9	0.00e+00	0	40	0	911212544	66	5700
2026-01-14 10:13:47.55	336.39	37.43	-48.4	-52.1	14.3	2.20e-06	0	39	0	913309696	67	5789
2026-01-14 10:13:48.55	336.46	37.19	-48.9	-52.9	13.5	6.10e-06	0	40	0	915406848	68	6050
2026-01-14 10:13:49.55	336.52	36.95	-49.2	-53.5	13.0	2.51e-05	0	40	0	917504000	69	6070
2026-01-14 10:13:50.55	336.58	36.71	-49.5	-53.9	12.6	6.25e-05	0	40	0	918552576	69	6358
2026-01-14 10:13:51.54	336.64	36.48	-49.1	-53.2	13.3	2.82e-05	0	40	0	920649728	69	5857
2026-01-14 10:13:52.54	336.70	36.25	-48.8	-52.8	13.7	1.29e-05	0	40	0	922746880	69	5609
2026-01-14 10:13:53.53	336.76	36.02	-48.5	-52.3	14.2	3.00e-06	0	40	0	924844032	69	5280
2026-01-14 10:13:54.53	336.81	35.79	-48.3	-51.9	14.5	2.20e-06	0	40	0	925892608	68	5392
2026-01-14 10:13:55.53	336.87	35.56	-48.1	-51.7	14.8	0.00e+00	0	40	0	927989760	68	5249
2026-01-14 10:13:56.53	336.93	35.33	-47.8	-51.3	15.1	0.00e+00	0	39	0	930086912	67	5285
2026-01-14 10:13:57.53	336.98	35.11	-47.8	-51.2	15.1	0.00e+00	0	39	0	932184064	67	5228
2026-01-14 10:13:58.52	337.04	34.89	-47.7	-50.9	15.4	0.00e+00	0	40	0	934281216	67	5087
2026-01-14 10:13:59.52	337.09	34.67	-47.5	-50.7	15.6	0.00e+00	0	40	0	935329792	67	4950
2026-01-14 10:14:00.52	337.15	34.45	-47.5	-50.7	15.6	0.00e+00	0	39	0	937426944	67	4952
2026-01-14 10:14:01.52	337.20	34.23	-47.7	-51.0	15.3	0.00e+00	0	40	0	939524096	67	5146
2026-01-14 10:14:02.52	337.25	34.01	-47.9	-51.4	14.9	0.00e+00	0	39	0	941621248	67	5390
2026-01-14 10:14:03.51	337.30	33.80	-48.3	-52.0	14.3	7.00e-07	0	40	0	943718400	67	5753
2026-01-14 10:14:04.51	337.35	33.58	-48.6	-52.6	13.8	6.80e-06	0	39	0	944766976	67	6141
2026-01-14 10:14:05.51	337.40	33.37	-49.0	-53.3	13.2	1.06e-05	0	40	0	946864128	68	6294
2026-01-14 10:14:06.51	337.45	33.16	-49.2	-53.7	12.9	4.50e-05	0	40	0	948961280	68	6588
2026-01-14 10:14:07.52	337.50	32.95	-49.1	-53.6	12.8	5.11e-05	0	40	0	951058432	69	6183
2026-01-14 10:14:08.52	337.55	32.74	-49.2	-53.8	12.7	4.80e-05	0	40	0	953155584	69	6305
2026-01-14 10:14:09.52	337.60	32.53	-49.1	-53.6	12.9	7.55e-05	0	40	0	954204160	69	6132
2026-01-14 10:14:10.52	337.65	32.33	-49.0	-53.4	13.1	3.43e-05	0	40	0	956301312	69	6026
2026-01-14 10:14:11.52	337.69	32.13	-49.0	-53.4	13.1	4.04e-05	0	40	0	958398464	69	6021
2026-01-14 10:14:12.52	337.74	31.92	-48.9	-53.3	13.2	2.13e-05	0	40	0	960495616	69	5947
2026-01-14 10:14:13.52	337.79	31.72	-48.8	-53.2	13.2	2.59e-05	0	40	0	961544192	69	5902
2026-01-14 10:14:14.52	337.83	31.52	-48.7	-53.1	13.4	1.52e-05	0	40	0	963641344	69	5795
2026-01-14 10:14:15.51	337.88	31.32	-48.7	-53.2	13.3	1.52e-05	0	40	0	965738496	69	5880
2026-01-14 10:14:16.52	337.92	31.13	-48.6	-52.9	13.6	6.10e-06	0	40	0	967835648	69	5658
2026-01-14 10:14:17.52	337.97	30.93	-48.7	-53.0	13.5	7.60e-06	0	40	0	969932800	69	5733
2026-01-14 10:14:18.51	338.01	30.74	-48.6	-52.8	13.7	6.80e-06	0	39	0	970981376	69	5604
2026-01-14 10:14:19.51	338.05	30.54	-48.4	-52.5	14.0	9.90e-06	0	40	0	973078528	68	5737
2026-01-14 10:14:20.51	338.09	30.35	-48.2	-52.0	14.5	7.00e-07	0	40	0	975175680	68	5421
2026-01-14 10:14:21.51	338.14	30.16	-48.1	-51.8	14.7	0.00e+00	0	40	0	977272832	68	5327
2026-01-14 10:14:22.51	338.18	29.97	-48.0	-51.6	14.8	0.00e+00	0	40	0	978321408	68	5206
2026-01-14 10:14:23.51	338.22	29.78	-47.6	-51.1	15.2	7.00e-07	0	39	0	980418560	67	5180
2026-01-14 10:14:24.50	338.26	29.60	-47.5	-50.8	15.4	0.00e+00	0	40	0	982515712	67	5040
2026-01-14 10:14:25.50	338.30	29.41	-47.4	-50.7	15.6	0.00e+00	0	40	0	984612864	66	5243
2026-01-14 10:14:26.50	338.34	29.23	-47.3	-50.5	15.8	0.00e+00	0	39	0	986710016	66	5117
2026-01-14 10:14:27.50	338.38	29.04	-47.4	-50.5	15.8	0.00e+00	0	40	0	987758592	66	5121
2026-01-14 10:14:28.50	338.42	28.86	-47.4	-50.5	15.7	0.00e+00	0	40	0	989855744	66	5159
2026-01-14 10:14:29.50	338.46	28.68	-47.4	-50.4	15.9	0.00e+00	0	40	0	991952896	66	5079
2026-01-14 10:14:30.50	338.50	28.50	-47.4	-50.5	15.8	0.00e+00	0	40	0	994050048	66	5112
2026-01-14 10:14:31.50	338.53	28.32	-47.4	-50.5	15.8	0.00e+00	0	40	0	996147200	66	5108
2026-01-14 10:14:32.50	338.57	28.14	-47.5	-50.6	15.7	0.00e+00	0	40	0	997195776	66	5194
2026-01-14 10:14:33.50	338.61	27.97	-47.3	-50.5	15.8	0.00e+00	0	40	0	999292928	66	5129
2026-01-14 10:14:34.50	338.64	27.79	-47.3	-50.4	15.9	0.00e+00	0	40	0	1001390080	66	5074
2026-01-14 10:14:35.50	338.68	27.62	-47.0	-50.1	16.2	0.00e+00	0	40	0	1003487232	66	4882
2026-01-14 10:14:36.49	338.72	27.45	-47.0	-50.1	16.2	0.00e+00	0	40	0	1005584384	65	5180
2026-01-14 10:14:37.49	338.75	27.27	-46.9	-50.0	16.2	0.00e+00	0	39	0	1006632960	65	5111
2026-01-14 10:14:38.49	338.79	27.10	-46.9	-49.8	16.4	0.00e+00	0	40	0	1008730112	65	5038
2026-01-14 10:14:39.48	338.82	26.94	-46.8	-49.8	16.4	0.00e+00	0	40	0	1010827264	65	5024
2026-01-14 10:14:40.48	338.86	26.77	-46.8	-49.8	16.5	0.00e+00	0	40	0	1012924416	65	4998
2026-01-14 10:14:41.48	338.89	26.60	-46.8	-49.7	16.5	0.00e+00	0	40	0	1013972992	65	4948
2026-01-14 10:14:42.48	338.93	26.43	-46.7	-49.6	16.6	0.00e+00	0	40	0	1016070144	65	4906
2026-01-14 10:14:43.48	338.96	26.27	-46.7	-49.6	16.6	0.00e+00	0	40	0	1018167296	65	4920
2026-01-14 10:14:44.48	338.99	26.10	-46.8	-49.6	16.5	0.00e+00	0	40	0	1020264448	65	4922
2026-01-14 10:14:45.48	339.03	25.94	-46.8	-49.7	16.6	0.00e+00	0	40	0	1022361600	65	4933
2026-01-14 10:14:46.48	339.06	25.77	-46.8	-49.7	16.5	0.00e+00	0	40	0	1023410176	65	4955
2026-01-14 10:14:47.48	339.09	25.61	-46.7	-49.6	16.6	0.00e+00	0	40	0	1025507328	65	4922
2026-01-14 10:14:48.48	339.12	25.45	-46.7	-49.6	16.6	0.00e+00	0	40	0	1027604480	65	4908
2026-01-14 10:14:49.48	339.16	25.29	-46.7	-49.6	16.6	0.00e+00	0	40	0	1029701632	65	4897
2026-01-14 10:14:50.48	339.19	25.13	-46.6	-49.5	16.7	0.00e+00	0	40	0	1031798784	65	4845
2026-01-14 10:14:51.48	339.22	24.97	-46.6	-49.5	16.7	0.00e+00	0	40	0	1032847360	65	4830
2026-01-14 10:14:52.48	339.25	24.82	-46.6	-49.4	16.8	0.00e+00	0	40	0	1034944512	65	4798
2026-01-14 10:14:53.48	339.28	24.66	-46.6	-49.5	16.7	0.00e+00	0	40	0	1037041664	65	4827
2026-01-14 10:14:54.48	339.31	24.51	-46.6	-49.4	16.8	0.00e+00	0	40	0	1039138816	65	4767
2026-01-14 10:14:55.48	339.34	24.35	-46.5	-49.2	17.0	0.00e+00	0	40	0	1040187392	64	4965
2026-01-14 10:14:56.48	339.37	24.20	-46.4	-49.2	17.0	0.00e+00	0	40	0	1042284544	64	4956
2026-01-14 10:14:57.48	339.40	24.05	-46.4	-49.2	17.0	0.00e+00	0	40	0	1044381696	64	4941
2026-01-14 10:14:58.48	339.43	23.89	-46.3	-49.0	17.2	0.00e+00	0	40	0	1046478848	64	4848
2026-01-14 10:14:59.48	339.46	23.74	-46.2	-48.9	17.2	0.00e+00	0	39	0	1048576000	64	4813
2026-01-14 10:15:00.48	339.49	23.59	-46.2	-49.0	17.1	0.00e+00	0	40	0	1049624576	64	4844
2026-01-14 10:15:01.48	339.52	23.44	-46.2	-49.0	17.1	0.00e+00	0	40	0	1051721728	64	4848
2026-01-14 10:15:02.48	339.55	23.30	-46.2	-49.0	17.1	0.00e+00	0	40	0	1053818880	64	4865
2026-01-14 10:15:03.48	339.58	23.15	-46.2	-49.0	17.2	0.00e+00	0	40	0	1055916032	64	4835
2026-01-14 10:15:04.49	339.61	23.00	-46.0	-48.8	17.3	0.00e+00	0	39	0	1058013184	64	4756
2026-01-14 10:15:05.48	339.63	22.86	-46.0	-48.7	17.4	0.00e+00	0	40	0	1059061760	64	4679
2026-01-14 10:15:06.48	339.66	22.71	-45.9	-48.6	17.6	0.00e+00	0	40	0	1061158912	63	4904
2026-01-14 10:15:07.48	339.69	22.57	-45.9	-48.5	17.7	0.00e+00	0	40	0	1063256064	63	4852
2026-01-14 10:15:08.48	339.72	22.42	-45.9	-48.5	17.7	0.00e+00	0	40	0	1065353216	63	4844
2026-01-14 10:15:09.48	339.74	22.28	-45.9	-48.4	17.7	0.00e+00	0	40	0	1067450368	63	4803
2026-01-14 10:15:10.48	339.77	22.14	-45.9	-48.5	17.7	0.00e+00	0	40	0	1068498944	63	4840
2026-01-14 10:15:11.48	339.80	22.00	-45.9	-48.5	17.6	0.00e+00	0	40	0	1070596096	63	4869
2026-01-14 10:15:12.48	339.82	21.86	-45.8	-48.4	17.7	0.00e+00	0	39	0	1072693248	63	4813
2026-01-14 10:15:13.48	339.85	21.72	-45.8	-48.5	17.7	0.00e+00	0	40	0	1074790400	63	4843
2026-01-14 10:15:14.48	339.88	21.58	-45.8	-48.6	17.6	0.00e+00	0	40	0	1075838976	63	4889
2026-01-14 10:15:15.49	339.90	21.44	-45.7	-48.6	17.6	0.00e+00	0	40	0	1077936128	63	4887
2026-01-14 10:15:16.49	339.93	21.31	-45.8	-48.7	17.5	0.00e+00	0	40	0	1080033280	63	4949
2026-01-14 10:15:17.49	339.95	21.17	-45.8	-48.8	17.4	0.00e+00	0	40	0	1082130432	63	5004
2026-01-14 10:15:18.49	339.98	21.03	-45.7	-48.8	17.4	0.00e+00	0	40	0	1084227584	63	4999
2026-01-14 10:15:19.49	340.00	20.90	-45.9	-49.0	17.2	0.00e+00	0	40	0	1085276160	63	5104
2026-01-14 10:15:20.49	340.03	20.76	-45.8	-48.9	17.3	0.00e+00	0	40	0	1087373312	63	5081
2026-01-14 10:15:21.49	340.05	20.63	-45.9	-49.0	17.2	0.00e+00	0	40	0	1089470464	63	5112
2026-01-14 10:15:22.49	340.08	20.50	-46.0	-49.2	17.1	0.00e+00	0	40	0	1091567616	63	5219
2026-01-14 10:15:23.49	340.10	20.37	-46.1	-49.1	17.1	0.00e+00	0	40	0	1093664768	63	5191
2026-01-14 10:15:24.49	340.13	20.24	-46.1	-49.2	17.0	0.00e+00	0	40	0	1094713344	63	5233
2026-01-14 10:15:25.49	340.15	20.10	-46.3	-49.2	17.0	0.00e+00	0	40	0	1096810496	63	5278
2026-01-14 10:15:26.49	340.17	19.97	-46.4	-49.3	16.9	0.00e+00	0	40	0	1098907648	63	5331
2026-01-14 10:15:27.49	340.20	19.85	-46.5	-49.3	16.9	0.00e+00	0	40	0	1101004800	63	5318
2026-01-14 10:15:28.49	340.22	19.72	-46.5	-49.3	16.9	0.00e+00	0	40	0	1102053376	63	5319
2026-01-14 10:15:29.49	340.25	19.59	-46.6	-49.4	16.8	0.00e+00	0	40	0	1104150528	63	5371
2026-01-14 10:15:30.49	340.27	19.46	-46.6	-49.5	16.7	0.00e+00	0	40	0	1106247680	63	5453
2026-01-14 10:15:31.48	340.29	19.34	-46.7	-49.7	16.5	0.00e+00	0	40	0	1108344832	63	5531
2026-01-14 10:15:32.48	340.31	19.21	-46.6	-49.6	16.5	0.00e+00	0	40	0	1110441984	64	5201
2026-01-14 10:15:33.48	340.34	19.08	-46.5	-49.6	16.5	0.00e+00	0	40	0	1111490560	64	5185
2026-01-14 10:15:34.48	340.36	18.96	-46.5	-49.6	16.5	0.00e+00	0	40	0	1113587712	64	5192
2026-01-14 10:15:35.48	340.38	18.84	-46.5	-49.6	16.5	0.00e+00	0	40	0	1115684864	64	5210
2026-01-14 10:15:36.48	340.41	18.71	-46.5	-49.7	16.5	0.00e+00	0	40	0	1117782016	64	5227
2026-01-14 10:15:37.48	340.43	18.59	-46.6	-49.7	16.4	0.00e+00	0	40	0	1119879168	64	5236
2026-01-14 10:15:38.48	340.45	18.47	-46.7	-49.7	16.4	0.00e+00	0	40	0	1120927744	64	5270
2026-01-14 10:15:39.48	340.47	18.35	-46.8	-49.8	16.3	0.00e+00	0	40	0	1123024896	64	5314
2026-01-14 10:15:40.48	340.49	18.22	-46.8	-49.8	16.3	0.00e+00	0	40	0	1125122048	64	5315
2026-01-14 10:15:41.48	340.51	18.10	-46.9	-49.9	16.2	0.00e+00	0	40	0	1127219200	64	5362
2026-01-14 10:15:42.48	340.54	17.98	-46.9	-49.9	16.2	0.00e+00	0	40	0	1129316352	64	5361
2026-01-14 10:15:43.48	340.56	17.86	-46.9	-49.8	16.3	0.00e+00	0	40	0	1130364928	64	5316
2026-01-14 10:15:44.48	340.58	17.75	-47.0	-49.9	16.2	0.00e+00	0	40	0	1132462080	64	5384
2026-01-14 10:15:45.48	340.60	17.63	-47.0	-49.9	16.2	0.00e+00	0	40	0	1134559232	64	5374
2026-01-14 10:15:46.48	340.62	17.51	-46.9	-49.9	16.2	0.00e+00	0	40	0	1136656384	64	5366
2026-01-14 10:15:47.48	340.64	17.39	-47.0	-50.0	16.1	0.00e+00	0	40	0	1137704960	64	5451
2026-01-14 10:15:48.49	340.66	17.28	-47.0	-50.1	16.1	0.00e+00	0	39	0	1139802112	64	5465
2026-01-14 10:15:49.48	340.68	17.16	-47.0	-50.1	16.0	0.00e+00	0	40	0	1141899264	64	5481
2026-01-14 10:15:50.48	340.70	17.05	-47.0	-50.1	16.0	0.00e+00	0	40	0	1143996416	64	5523
2026-01-14 10:15:51.48	340.72	16.93	-47.0	-50.1	16.0	0.00e+00	0	40	0	1146093568	64	5493
2026-01-14 10:15:52.48	340.74	16.82	-47.0	-50.1	16.0	0.00e+00	0	40	0	1147142144	64	5514
2026-01-14 10:15:53.49	340.76	16.70	-47.1	-50.2	15.9	0.00e+00	0	40	0	1149239296	64	5574
2026-01-14 10:15:54.49	340.78	16.59	-47.1	-50.2	15.9	0.00e+00	0	40	0	1151336448	65	5261
2026-01-14 10:15:55.49	340.80	16.48	-47.1	-50.2	15.9	0.00e+00	0	40	0	1153433600	65	5267
2026-01-14 10:15:56.49	340.82	16.36	-47.2	-50.3	15.8	0.00e+00	0	40	0	1155530752	65	5332
2026-01-14 10:15:57.50	340.84	16.25	-47.1	-50.3	15.9	0.00e+00	0	40	0	1156579328	65	5286
2026-01-14 10:15:58.49	340.86	16.14	-47.1	-50.2	15.9	0.00e+00	0	40	0	1158676480	65	5244
2026-01-14 10:15:59.50	340.88	16.03	-47.1	-50.2	15.9	0.00e+00	0	40	0	1160773632	65	5265
2026-01-14 10:16:00.50	340.90	15.92	-47.1	-50.3	15.8	0.00e+00	0	40	0	1162870784	65	5304
2026-01-14 10:16:01.50	340.92	15.81	-47.0	-50.3	15.8	0.00e+00	0	40	0	1164967936	65	5282
2026-01-14 10:16:02.50	340.94	15.70	-47.1	-50.3	15.7	0.00e+00	0	40	0	1166016512	65	5337
2026-01-14 10:16:03.50	340.96	15.59	-47.0	-50.3	15.8	0.00e+00	0	40	0	1168113664	65	5309
2026-01-14 10:16:04.49	340.98	15.48	-47.0	-50.2	15.8	0.00e+00	0	40	0	1170210816	65	5279
2026-01-14 10:16:05.50	341.00	15.38	-46.9	-50.2	15.9	0.00e+00	0	40	0	1172307968	65	5277
2026-01-14 10:16:06.49	341.01	15.27	-46.9	-50.2	15.8	0.00e+00	0	40	0	1173356544	65	5275
2026-01-14 10:16:07.49	341.03	15.16	-46.9	-50.4	15.7	0.00e+00	0	40	0	1175453696	65	5347
2026-01-14 10:16:08.49	341.05	15.06	-46.9	-50.3	15.8	0.00e+00	0	40	0	1177550848	65	5306
2026-01-14 10:16:09.50	341.07	14.95	-46.8	-50.2	15.8	0.00e+00	0	40	0	1179648000	65	5279
2026-01-14 10:16:10.49	341.09	14.84	-46.8	-50.3	15.8	0.00e+00	0	39	0	1181745152	65	5327
2026-01-14 10:16:11.50	341.11	14.74	-46.8	-50.3	15.8	0.00e+00	0	40	0	1182793728	65	5293
2026-01-14 10:16:12.49	341.12	14.64	-46.8	-50.4	15.7	0.00e+00	0	40	0	1184890880	65	5344
2026-01-14 10:16:13.49	341.14	14.53	-46.8	-50.3	15.7	0.00e+00	0	40	0	1186988032	65	5339
2026-01-14 10:16:14.49	341.16	14.43	-46.8	-50.4	15.7	0.00e+00	0	40	0	1189085184	65	5378
2026-01-14 10:16:15.49	341.18	14.32	-46.8	-50.4	15.7	0.00e+00	0	40	0	1191182336	65	5367
2026-01-14 10:16:16.49	341.19	14.22	-46.8	-50.3	15.7	0.00e+00	0	40	0	1192230912	65	5329
2026-01-14 10:16:17.50	341.21	14.12	-46.8	-50.4	15.7	0.00e+00	0	40	0	1194328064	65	5363
2026-01-14 10:16:18.50	341.23	14.02	-46.8	-50.4	15.7	0.00e+00	0	40	0	1196425216	65	5351
2026-01-14 10:16:19.50	341.25	13.92	-46.8	-50.4	15.7	0.00e+00	0	40	0	1198522368	65	5380
2026-01-14 10:16:20.50	341.26	13.81	-46.8	-50.5	15.6	0.00e+00	0	40	0	1199570944	65	5403
2026-01-14 10:16:21.50	341.28	13.71	-46.7	-50.4	15.6	0.00e+00	0	40	0	1201668096	65	5392
2026-01-14 10:16:22.50	341.30	13.61	-46.6	-50.4	15.6	0.00e+00	0	40	0	1203765248	65	5400
2026-01-14 10:16:23.50	341.32	13.51	-46.6	-50.6	15.5	0.00e+00	0	39	0	1205862400	65	5483
2026-01-14 10:16:24.50	341.33	13.41	-46.5	-50.5	15.5	0.00e+00	0	39	0	1207959552	65	5442
2026-01-14 10:16:25.51	341.35	13.31	-46.4	-50.5	15.6	0.00e+00	0	40	0	1209008128	64	5739
2026-01-14 10:16:26.51	341.37	13.22	-46.4	-50.6	15.5	0.00e+00	0	40	0	1211105280	64	5801
2026-01-14 10:16:27.51	341.38	13.12	-46.3	-50.4	15.6	0.00e+00	0	40	0	1213202432	64	5708
2026-01-14 10:16:28.51	341.40	13.02	-46.3	-50.6	15.4	0.00e+00	0	40	0	1215299584	64	5817
2026-01-14 10:16:29.51	341.42	12.92	-46.2	-50.4	15.5	0.00e+00	0	40	0	1217396736	64	5713
2026-01-14 10:16:30.52	341.43	12.82	-46.2	-50.5	15.5	0.00e+00	0	40	0	1218445312	64	5765
2026-01-14 10:16:31.51	341.45	12.73	-46.2	-50.5	15.5	0.00e+00	0	40	0	1220542464	64	5747
