passes_logs/2026/01/14/T1/T1__20260114_212630_NOAA_21_JPSS-2_rec.log

#Pass ID: 20260114_212630_NOAA 21 (JPSS-2)
#Satellite: NOAA 21 (JPSS-2)
#Configuration: NOAA 21
#almurnet v.1.7.20251203
#Start time: 2026-01-14 21:26:32

#Version: 2.0.20230620
#Station: T1
#Location: 37.570604 lon 55.790049 lat
#TLE: 1 54234U 22150A   26014.16688770  .00000052  00000+0  45394-4 0  9999
#TLE: 2 54234  98.7497 315.0767 0000655 297.6997  62.4113 14.19534648164696

#Time	Az	El	Level	Level2	SNR	BER	BlckErr	Temp	State	Recorded	gain1	gain2
2026-01-14 21:26:32.98	42.41	5.09	-50.1	-63.3	3.8	1.49e+00	0	41	0	0	72	15784
2026-01-14 21:26:33.97	42.54	5.13	-50.1	-63.2	3.8	1.49e+00	0	41	104	0	72	15754
2026-01-14 21:26:34.96	42.66	5.17	-50.1	-63.2	3.8	1.49e+00	0	41	104	0	72	15752
2026-01-14 21:26:35.96	42.79	5.21	-50.1	-63.3	3.8	1.49e+00	0	42	104	0	72	15767
2026-01-14 21:26:36.96	42.92	5.25	-50.1	-63.2	3.8	1.49e+00	0	41	104	0	72	15754
2026-01-14 21:26:37.95	43.05	5.28	-50.1	-63.3	3.8	1.49e+00	0	41	104	0	72	15761
2026-01-14 21:26:38.95	43.17	5.32	-50.1	-63.3	3.8	1.49e+00	0	42	104	0	72	15773
2026-01-14 21:26:39.95	43.30	5.36	-50.1	-63.2	3.8	1.49e+00	0	42	104	0	72	15758
2026-01-14 21:26:40.94	43.43	5.40	-50.1	-63.3	3.8	1.49e+00	0	42	104	0	72	15788
2026-01-14 21:26:41.94	43.56	5.44	-50.0	-63.3	3.8	1.49e+00	0	42	104	0	72	15801
2026-01-14 21:26:42.94	43.69	5.47	-50.0	-63.2	3.8	1.49e+00	0	42	104	0	72	15677
2026-01-14 21:26:43.93	43.82	5.51	-50.1	-63.2	3.8	1.49e+00	0	42	104	0	72	15685
2026-01-14 21:26:44.93	43.95	5.55	-50.0	-63.2	3.8	1.49e+00	0	42	104	0	72	15716
2026-01-14 21:26:45.93	44.08	5.59	-50.0	-63.2	3.8	1.49e+00	0	42	104	0	72	15661
2026-01-14 21:26:46.92	44.21	5.63	-50.0	-63.3	3.8	1.49e+00	0	42	104	0	72	15766
2026-01-14 21:26:47.92	44.34	5.66	-50.0	-63.2	3.8	1.49e+00	0	42	104	0	72	15676
2026-01-14 21:26:48.92	44.47	5.70	-50.0	-63.2	3.8	1.49e+00	0	42	104	0	72	15685
2026-01-14 21:26:49.92	44.61	5.74	-50.0	-63.2	3.8	1.49e+00	0	42	104	0	72	15683
2026-01-14 21:26:50.92	44.74	5.78	-50.1	-63.2	3.8	1.49e+00	0	42	104	0	72	15716
2026-01-14 21:26:51.91	44.87	5.81	-50.0	-63.2	3.8	1.49e+00	0	42	104	0	72	15722
2026-01-14 21:26:52.91	45.00	5.85	-50.1	-63.2	3.8	1.49e+00	0	42	104	0	72	15747
2026-01-14 21:26:53.91	45.14	5.89	-50.0	-63.2	3.8	1.49e+00	0	42	104	0	72	15672
2026-01-14 21:26:54.91	45.27	5.93	-50.0	-63.2	3.8	1.49e+00	0	42	104	0	72	15730
2026-01-14 21:26:55.91	45.40	5.96	-50.1	-63.2	3.8	1.49e+00	0	42	104	0	72	15703
2026-01-14 21:26:56.91	45.54	6.00	-50.0	-63.2	3.8	1.49e+00	0	42	104	0	72	15677
2026-01-14 21:26:57.91	45.67	6.04	-50.0	-63.2	3.8	1.49e+00	0	42	104	0	72	15686
2026-01-14 21:26:58.90	45.81	6.08	-50.1	-63.2	3.8	1.49e+00	0	42	104	0	72	15689
2026-01-14 21:26:59.90	45.94	6.11	-50.0	-63.2	3.8	1.49e+00	0	42	104	0	72	15658
2026-01-14 21:27:00.90	46.08	6.15	-50.0	-63.2	3.8	1.49e+00	0	42	104	0	72	15732
2026-01-14 21:27:01.90	46.22	6.19	-50.0	-63.2	3.8	1.49e+00	0	42	104	0	72	15697
2026-01-14 21:27:02.90	46.35	6.22	-50.0	-63.2	3.8	1.49e+00	0	43	104	0	72	15642
2026-01-14 21:27:03.90	46.49	6.26	-50.0	-63.2	3.8	1.49e+00	0	42	104	0	72	15679
2026-01-14 21:27:04.90	46.63	6.30	-50.1	-63.2	3.8	1.49e+00	0	43	104	0	72	15650
2026-01-14 21:27:05.90	46.76	6.33	-50.0	-63.2	3.8	1.49e+00	0	42	104	0	72	15662
2026-01-14 21:27:06.90	46.90	6.37	-50.0	-63.2	3.8	1.49e+00	0	43	104	0	72	15685
2026-01-14 21:27:07.90	47.04	6.41	-50.0	-63.2	3.8	1.49e+00	0	42	104	0	72	15674
2026-01-14 21:27:08.89	47.18	6.44	-50.0	-63.2	3.8	1.49e+00	0	43	104	0	72	15730
2026-01-14 21:27:09.89	47.31	6.48	-50.0	-63.2	3.8	1.49e+00	0	43	104	0	72	15738
2026-01-14 21:27:10.89	47.45	6.51	-50.0	-63.2	3.8	1.49e+00	0	42	104	0	72	15663
2026-01-14 21:27:11.89	47.59	6.55	-50.0	-63.2	3.8	1.49e+00	0	43	104	0	72	15707
2026-01-14 21:27:12.89	47.73	6.59	-50.0	-63.2	3.8	1.49e+00	0	42	104	0	72	15684
2026-01-14 21:27:13.89	47.87	6.62	-50.0	-63.2	3.8	1.49e+00	0	43	104	0	72	15694
2026-01-14 21:27:14.89	48.01	6.66	-50.0	-63.2	3.8	1.49e+00	0	43	104	0	72	15683
2026-01-14 21:27:15.88	48.15	6.69	-50.0	-63.2	3.8	1.49e+00	0	43	104	0	72	15664
2026-01-14 21:27:16.88	48.29	6.73	-50.0	-63.2	3.8	1.49e+00	0	43	104	0	72	15658
2026-01-14 21:27:17.88	48.44	6.76	-50.0	-63.2	3.8	1.49e+00	0	43	104	0	72	15687
2026-01-14 21:27:18.88	48.58	6.80	-50.0	-63.2	3.8	1.49e+00	0	43	104	0	72	15677
2026-01-14 21:27:19.88	48.72	6.83	-50.0	-63.2	3.8	1.49e+00	0	43	104	0	72	15702
2026-01-14 21:27:20.88	48.86	6.87	-50.0	-63.2	3.8	1.49e+00	0	43	104	0	72	15653
2026-01-14 21:27:21.87	49.00	6.90	-50.0	-63.2	3.8	1.49e+00	0	43	104	0	72	15691
2026-01-14 21:27:22.87	49.15	6.94	-50.0	-63.2	3.8	1.49e+00	0	43	104	0	72	15588
2026-01-14 21:27:23.87	49.29	6.97	-50.0	-63.2	3.8	1.49e+00	0	43	104	0	72	15678
2026-01-14 21:27:24.86	49.43	7.01	-50.0	-63.2	3.8	1.49e+00	0	43	104	0	72	15675
2026-01-14 21:27:25.86	49.58	7.04	-50.0	-63.2	3.8	1.49e+00	0	43	104	0	72	15694
2026-01-14 21:27:26.86	49.72	7.08	-50.0	-63.2	3.8	1.49e+00	0	43	104	0	72	15647
2026-01-14 21:27:27.86	49.87	7.11	-50.0	-63.2	3.8	1.49e+00	0	43	104	0	72	15719
2026-01-14 21:27:28.85	50.01	7.15	-50.0	-63.2	3.8	1.49e+00	0	43	104	0	72	15690
2026-01-14 21:27:29.85	50.16	7.18	-50.0	-63.2	3.8	1.49e+00	0	43	104	0	72	15671
2026-01-14 21:27:30.85	50.30	7.21	-50.0	-63.2	3.8	1.49e+00	0	43	104	0	72	15650
2026-01-14 21:27:31.84	50.45	7.25	-50.0	-63.2	3.8	1.49e+00	0	43	104	0	72	15646
2026-01-14 21:27:32.84	50.59	7.28	-50.0	-63.2	3.8	1.49e+00	0	43	104	0	72	15649
2026-01-14 21:27:33.84	50.74	7.32	-50.0	-63.2	3.8	1.49e+00	0	43	104	0	72	15660
2026-01-14 21:27:34.84	50.89	7.35	-50.0	-63.2	3.8	1.49e+00	0	43	104	0	72	15723
2026-01-14 21:27:35.84	51.03	7.38	-50.0	-63.2	3.8	1.49e+00	0	43	104	0	72	15713
2026-01-14 21:27:36.84	51.18	7.42	-50.0	-63.2	3.8	1.49e+00	0	43	104	0	72	15660
2026-01-14 21:27:37.83	51.33	7.45	-50.0	-63.2	3.8	1.49e+00	0	43	104	0	72	15635
2026-01-14 21:27:38.83	51.48	7.48	-50.0	-63.2	3.8	1.49e+00	0	43	104	0	72	15655
2026-01-14 21:27:39.83	51.62	7.52	-50.0	-63.2	3.8	1.49e+00	0	43	104	0	72	15637
2026-01-14 21:27:40.83	51.77	7.55	-50.0	-63.2	3.8	1.49e+00	0	43	104	0	72	15628
2026-01-14 21:27:41.83	51.92	7.58	-50.0	-63.2	3.8	1.49e+00	0	43	104	0	72	15619
2026-01-14 21:27:42.82	52.07	7.61	-50.0	-63.2	3.8	1.49e+00	0	43	104	0	72	15665
2026-01-14 21:27:43.82	52.22	7.65	-50.0	-63.1	3.8	1.49e+00	0	43	104	0	72	15567
2026-01-14 21:27:44.82	52.37	7.68	-50.0	-63.2	3.8	1.49e+00	0	43	104	0	72	15597
2026-01-14 21:27:45.81	52.52	7.71	-50.0	-63.1	3.8	1.49e+00	0	43	104	0	72	15524
2026-01-14 21:27:46.81	52.67	7.74	-50.0	-63.1	3.8	1.49e+00	0	43	104	0	72	15461
2026-01-14 21:27:47.81	52.82	7.77	-50.0	-63.1	3.8	1.49e+00	0	43	104	0	72	15410
2026-01-14 21:27:48.81	52.98	7.81	-50.0	-63.1	3.8	1.49e+00	0	43	104	0	72	15436
2026-01-14 21:27:49.80	53.13	7.84	-50.0	-63.1	3.8	1.49e+00	0	43	104	0	72	15532
2026-01-14 21:27:50.80	53.28	7.87	-50.0	-63.1	3.8	1.49e+00	0	43	104	0	72	15523
2026-01-14 21:27:51.80	53.43	7.90	-50.0	-63.1	3.8	1.49e+00	0	43	104	0	72	15543
2026-01-14 21:27:52.80	53.58	7.93	-50.0	-63.2	3.8	1.49e+00	0	43	104	0	72	15623
2026-01-14 21:27:53.80	53.74	7.96	-50.0	-63.2	3.8	1.49e+00	0	43	104	0	72	15661
2026-01-14 21:27:54.79	53.89	7.99	-50.0	-63.2	3.8	1.49e+00	0	43	104	0	72	15686
2026-01-14 21:27:55.79	54.04	8.03	-50.0	-63.2	3.8	1.49e+00	0	43	104	0	72	15698
2026-01-14 21:27:56.79	54.20	8.06	-50.0	-63.2	3.8	1.49e+00	0	43	104	0	72	15617
2026-01-14 21:27:57.79	54.35	8.09	-50.0	-63.2	3.8	1.49e+00	0	43	104	0	72	15690
2026-01-14 21:27:58.79	54.51	8.12	-50.0	-63.2	3.8	1.49e+00	0	43	104	0	72	15658
2026-01-14 21:27:59.79	54.66	8.15	-50.0	-63.2	3.8	1.49e+00	0	43	104	0	72	15659
2026-01-14 21:28:00.79	54.82	8.18	-50.0	-63.2	3.8	1.49e+00	0	43	104	0	72	15679
2026-01-14 21:28:01.78	54.97	8.21	-50.0	-63.2	3.8	1.49e+00	0	43	104	0	72	15630
2026-01-14 21:28:02.78	55.13	8.24	-50.0	-63.2	3.8	1.49e+00	0	43	104	0	72	15589
2026-01-14 21:28:03.78	55.28	8.27	-50.0	-63.1	3.8	1.49e+00	0	43	104	0	72	15479
2026-01-14 21:28:04.78	55.44	8.30	-50.0	-63.0	3.8	1.49e+00	0	43	104	0	72	15357
2026-01-14 21:28:05.78	55.60	8.33	-50.0	-62.9	3.8	1.49e+00	0	44	104	0	72	15204
2026-01-14 21:28:06.78	55.76	8.36	-50.0	-62.9	3.8	1.49e+00	0	43	104	0	72	15120
2026-01-14 21:28:07.77	55.91	8.39	-50.0	-62.9	3.8	1.49e+00	0	43	104	0	72	15108
2026-01-14 21:28:08.77	56.07	8.42	-50.0	-62.9	3.8	1.49e+00	0	43	104	0	71	16012
2026-01-14 21:28:09.77	56.23	8.44	-50.1	-62.9	3.8	1.49e+00	0	43	104	0	71	16057
2026-01-14 21:28:10.77	56.39	8.47	-50.0	-62.9	3.8	1.49e+00	0	44	104	0	71	16072
2026-01-14 21:28:11.76	56.54	8.50	-50.0	-62.9	3.8	1.49e+00	0	43	104	0	71	16120
2026-01-14 21:28:12.76	56.70	8.53	-50.1	-63.0	3.8	1.49e+00	0	43	104	0	71	16206
2026-01-14 21:28:13.76	56.86	8.56	-50.0	-63.0	3.8	1.49e+00	0	44	104	0	71	16230
2026-01-14 21:28:14.75	57.02	8.59	-50.0	-63.1	3.8	1.49e+00	0	43	104	0	71	16371
2026-01-14 21:28:15.75	57.18	8.61	-50.1	-63.2	3.8	1.49e+00	0	43	104	0	71	16531
2026-01-14 21:28:16.75	57.34	8.64	-50.0	-63.2	3.8	1.49e+00	0	44	104	0	71	16553
2026-01-14 21:28:17.74	57.50	8.67	-50.0	-63.2	3.8	1.49e+00	0	43	104	0	71	16651
2026-01-14 21:28:18.74	57.66	8.70	-50.1	-63.2	3.8	1.49e+00	0	43	104	0	71	16653
2026-01-14 21:28:19.74	57.82	8.72	-50.0	-63.2	3.8	1.49e+00	0	44	104	0	71	16646
2026-01-14 21:28:20.74	57.98	8.75	-50.1	-63.2	3.8	1.49e+00	0	43	104	0	71	16594
2026-01-14 21:28:21.73	58.15	8.78	-50.1	-63.2	3.8	1.49e+00	0	43	104	0	71	16577
2026-01-14 21:28:22.73	58.31	8.81	-50.1	-63.2	3.8	1.49e+00	0	44	104	0	71	16516
2026-01-14 21:28:23.73	58.47	8.83	-50.1	-63.1	3.8	1.49e+00	0	44	104	0	71	16391
2026-01-14 21:28:24.73	58.63	8.86	-50.1	-63.0	3.8	1.49e+00	0	44	104	0	71	16161
2026-01-14 21:28:25.73	58.80	8.89	-50.0	-62.8	3.8	1.49e+00	0	44	104	0	71	15801
2026-01-14 21:28:26.73	58.96	8.91	-50.0	-62.5	3.8	1.49e+00	0	43	104	0	71	15315
2026-01-14 21:28:27.73	59.12	8.94	-49.9	-62.2	3.8	1.49e+00	0	44	104	0	71	14753
2026-01-14 21:28:28.73	59.29	8.96	-50.0	-62.1	3.8	1.49e+00	0	44	104	0	71	14674
2026-01-14 21:28:29.73	59.45	8.99	-50.0	-62.4	3.8	1.49e+00	0	44	104	0	71	15073
2026-01-14 21:28:30.72	59.61	9.01	-50.0	-62.6	3.8	1.49e+00	0	44	104	0	71	15509
2026-01-14 21:28:31.72	59.78	9.04	-48.5	-54.0	8.1	6.31e-02	0	44	0	0	68	6866
2026-01-14 21:28:32.73	59.95	9.07	-50.0	-62.7	3.8	6.23e-02	0	44	104	0	70	16687
2026-01-14 21:28:33.72	60.11	9.09	-49.3	-56.8	5.4	1.49e+00	0	44	104	0	70	8397
2026-01-14 21:28:34.73	60.28	9.11	-49.5	-58.2	4.8	2.07e-01	0	44	0	0	69	10502
2026-01-14 21:28:35.73	60.44	9.14	-46.9	-50.9	10.9	1.34e-01	0	43	0	0	65	5666
2026-01-14 21:28:36.73	60.61	9.16	-46.2	-49.6	12.4	1.06e-04	0	44	0	0	63	5494
2026-01-14 21:28:37.73	60.77	9.19	-46.0	-49.3	12.7	8.31e-05	0	44	0	0	63	5286
2026-01-14 21:28:38.73	60.94	9.21	-46.2	-49.6	12.4	1.14e-04	0	44	0	0	63	5483
2026-01-14 21:28:39.73	61.11	9.24	-45.7	-48.9	13.1	5.56e-05	0	44	0	0	63	5042
2026-01-14 21:28:40.73	61.28	9.26	-45.2	-48.0	14.0	4.50e-06	0	44	0	0	62	4844
2026-01-14 21:28:41.73	61.44	9.28	-44.8	-47.5	14.4	1.50e-06	0	44	0	0	61	4866
2026-01-14 21:28:42.73	61.61	9.31	-44.7	-47.3	14.7	0.00e+00	0	44	0	0	61	4724
2026-01-14 21:28:43.73	61.78	9.33	-44.5	-47.1	15.0	0.00e+00	0	44	0	0	61	4599
2026-01-14 21:28:44.73	61.95	9.35	-44.5	-47.1	14.9	7.00e-07	0	43	0	0	61	4617
2026-01-14 21:28:45.73	62.12	9.38	-44.6	-47.1	14.9	0.00e+00	0	44	0	0	61	4629
2026-01-14 21:28:46.73	62.28	9.40	-44.3	-46.8	15.2	0.00e+00	0	44	0	0	60	4722
2026-01-14 21:28:47.73	62.45	9.42	-44.3	-46.7	15.3	0.00e+00	0	44	0	0	60	4681
2026-01-14 21:28:48.73	62.62	9.44	-44.2	-46.7	15.4	0.00e+00	0	44	0	0	60	4655
2026-01-14 21:28:49.73	62.79	9.46	-44.0	-46.4	15.6	0.00e+00	0	43	0	0	60	4536
2026-01-14 21:28:50.73	62.96	9.49	-44.0	-46.4	15.6	0.00e+00	0	44	0	0	60	4533
2026-01-14 21:28:51.73	63.13	9.51	-44.1	-46.5	15.5	0.00e+00	0	44	0	0	60	4570
2026-01-14 21:28:52.73	63.30	9.53	-44.2	-46.6	15.4	0.00e+00	0	44	0	0	60	4625
2026-01-14 21:28:53.73	63.47	9.55	-44.3	-46.8	15.3	0.00e+00	0	44	0	0	60	4717
2026-01-14 21:28:54.73	63.64	9.57	-44.3	-46.8	15.3	0.00e+00	0	44	0	0	60	4712
2026-01-14 21:28:55.73	63.82	9.59	-44.3	-46.7	15.3	0.00e+00	0	44	0	0	60	4683
2026-01-14 21:28:56.74	63.99	9.61	-44.3	-46.7	15.3	0.00e+00	0	44	0	0	60	4697
2026-01-14 21:28:57.74	64.16	9.63	-44.3	-46.7	15.3	0.00e+00	0	44	0	0	60	4703
2026-01-14 21:28:58.74	64.33	9.65	-44.2	-46.7	15.4	0.00e+00	0	44	0	0	60	4666
2026-01-14 21:28:59.74	64.50	9.67	-44.3	-46.7	15.3	0.00e+00	0	44	0	0	60	4705
2026-01-14 21:29:00.74	64.68	9.69	-44.3	-46.7	15.3	0.00e+00	0	44	0	0	60	4696
2026-01-14 21:29:01.74	64.85	9.71	-44.3	-46.7	15.3	0.00e+00	0	44	0	0	60	4693
2026-01-14 21:29:02.74	65.02	9.73	-44.3	-46.7	15.3	0.00e+00	0	44	0	0	60	4693
2026-01-14 21:29:03.74	65.19	9.75	-44.2	-46.6	15.4	0.00e+00	0	44	0	0	60	4646
2026-01-14 21:29:04.74	65.37	9.77	-44.1	-46.6	15.4	0.00e+00	0	43	0	0	60	4608
2026-01-14 21:29:05.74	65.54	9.79	-44.2	-46.7	15.3	0.00e+00	0	44	0	0	60	4656
2026-01-14 21:29:06.74	65.71	9.81	-44.2	-46.6	15.4	0.00e+00	0	44	0	0	60	4634
2026-01-14 21:29:07.74	65.89	9.82	-44.2	-46.6	15.4	0.00e+00	0	44	0	0	60	4630
2026-01-14 21:29:08.74	66.06	9.84	-44.2	-46.6	15.4	0.00e+00	0	44	0	0	60	4643
2026-01-14 21:29:09.74	66.24	9.86	-44.2	-46.6	15.4	0.00e+00	0	44	0	0	60	4623
2026-01-14 21:29:10.74	66.41	9.88	-44.2	-46.7	15.4	7.00e-07	0	44	0	0	60	4660
2026-01-14 21:29:11.74	66.59	9.90	-44.1	-46.5	15.5	0.00e+00	0	43	0	0	60	4586
2026-01-14 21:29:12.74	66.76	9.91	-44.1	-46.5	15.5	0.00e+00	0	44	0	0	60	4560
2026-01-14 21:29:13.75	66.94	9.93	-44.0	-46.4	15.6	0.00e+00	0	44	0	0	60	4545
2026-01-14 21:29:14.75	67.11	9.95	-44.1	-46.5	15.5	0.00e+00	0	43	0	0	60	4586
2026-01-14 21:29:15.75	67.29	9.96	-44.1	-46.6	15.4	0.00e+00	0	44	0	0	60	4628
2026-01-14 21:29:16.74	67.46	9.98	-44.1	-46.6	15.5	0.00e+00	0	44	0	0	60	4608
2026-01-14 21:29:17.75	67.64	9.99	-44.1	-46.6	15.4	0.00e+00	0	44	0	0	60	4622
2026-01-14 21:29:18.75	67.81	10.01	-44.2	-46.7	15.3	0.00e+00	0	44	0	0	60	4695
2026-01-14 21:29:19.75	67.99	10.03	-44.1	-46.6	15.4	0.00e+00	0	44	0	0	60	4613
2026-01-14 21:29:20.75	68.17	10.04	-44.1	-46.6	15.4	0.00e+00	0	43	0	0	60	4633
2026-01-14 21:29:21.74	68.34	10.06	-44.3	-46.8	15.3	0.00e+00	0	44	0	0	60	4730
2026-01-14 21:29:22.74	68.52	10.07	-44.3	-46.7	15.3	0.00e+00	0	44	0	0	60	4705
2026-01-14 21:29:23.74	68.70	10.09	-44.1	-46.6	15.5	0.00e+00	0	44	0	0	60	4613
2026-01-14 21:29:24.74	68.87	10.10	-44.0	-46.4	15.6	0.00e+00	0	44	0	0	60	4544
2026-01-14 21:29:25.75	69.05	10.11	-44.0	-46.4	15.6	0.00e+00	0	44	0	0	60	4515
2026-01-14 21:29:26.74	69.23	10.13	-43.9	-46.2	15.7	0.00e+00	0	44	0	0	59	4703
2026-01-14 21:29:27.75	69.41	10.14	-44.0	-46.3	15.6	0.00e+00	0	44	0	0	59	4752
2026-01-14 21:29:28.75	69.58	10.16	-44.0	-46.4	15.6	0.00e+00	0	44	0	0	59	4785
2026-01-14 21:29:29.75	69.76	10.17	-44.0	-46.4	15.5	0.00e+00	0	44	0	0	59	4795
2026-01-14 21:29:30.74	69.94	10.18	-44.0	-46.4	15.6	0.00e+00	0	44	0	0	59	4776
2026-01-14 21:29:31.74	70.12	10.19	-44.1	-46.5	15.5	0.00e+00	0	44	0	0	59	4837
2026-01-14 21:29:32.74	70.30	10.21	-44.1	-46.6	15.4	0.00e+00	0	44	0	0	59	4876
2026-01-14 21:29:33.74	70.47	10.22	-44.1	-46.5	15.5	0.00e+00	0	44	0	0	59	4851
2026-01-14 21:29:34.74	70.65	10.23	-44.1	-46.5	15.5	0.00e+00	0	44	0	0	59	4858
2026-01-14 21:29:35.74	70.83	10.24	-44.1	-46.5	15.5	0.00e+00	0	43	0	0	59	4842
2026-01-14 21:29:36.74	71.01	10.25	-44.0	-46.4	15.6	0.00e+00	0	44	0	0	59	4769
2026-01-14 21:29:37.74	71.19	10.27	-44.0	-46.3	15.7	0.00e+00	0	43	0	0	59	4753
2026-01-14 21:29:38.74	71.37	10.28	-43.9	-46.2	15.8	0.00e+00	0	44	0	0	59	4659
2026-01-14 21:29:39.74	71.55	10.29	-43.9	-46.2	15.8	0.00e+00	0	44	0	0	59	4688
2026-01-14 21:29:40.74	71.73	10.30	-43.9	-46.2	15.8	0.00e+00	0	44	0	0	59	4674
2026-01-14 21:29:41.74	71.91	10.31	-43.9	-46.2	15.7	0.00e+00	0	44	0	0	59	4693
2026-01-14 21:29:42.74	72.09	10.32	-43.9	-46.2	15.7	0.00e+00	0	44	0	0	59	4678
2026-01-14 21:29:43.74	72.27	10.33	-43.9	-46.2	15.8	0.00e+00	0	44	0	0	59	4678
2026-01-14 21:29:44.73	72.45	10.34	-44.0	-46.3	15.6	0.00e+00	0	43	0	0	59	4752
2026-01-14 21:29:45.74	72.63	10.35	-43.9	-46.2	15.8	0.00e+00	0	44	0	0	59	4657
2026-01-14 21:29:46.73	72.81	10.36	-43.9	-46.3	15.7	0.00e+00	0	44	0	0	59	4712
2026-01-14 21:29:47.73	72.99	10.37	-43.9	-46.2	15.8	0.00e+00	0	44	0	0	59	4680
2026-01-14 21:29:48.73	73.17	10.37	-43.9	-46.2	15.7	0.00e+00	0	44	0	0	59	4689
2026-01-14 21:29:49.73	73.35	10.38	-43.8	-46.1	15.8	0.00e+00	0	44	0	0	59	4621
2026-01-14 21:29:50.73	73.53	10.39	-43.8	-46.1	15.8	0.00e+00	0	44	0	0	59	4624
2026-01-14 21:29:51.73	73.71	10.40	-43.7	-46.0	15.9	0.00e+00	0	44	0	0	59	4564
2026-01-14 21:29:52.73	73.89	10.41	-43.8	-46.1	15.8	0.00e+00	0	44	0	0	59	4620
2026-01-14 21:29:53.73	74.07	10.41	-43.8	-46.1	15.8	0.00e+00	0	44	0	0	59	4647
2026-01-14 21:29:54.73	74.25	10.42	-43.8	-46.1	15.8	0.00e+00	0	44	0	0	59	4633
2026-01-14 21:29:55.73	74.43	10.43	-43.8	-46.2	15.8	0.00e+00	0	44	0	0	59	4652
2026-01-14 21:29:56.73	74.61	10.43	-43.9	-46.2	15.8	0.00e+00	0	43	0	0	59	4664
2026-01-14 21:29:57.74	74.80	10.44	-43.9	-46.2	15.8	0.00e+00	0	44	0	0	59	4678
2026-01-14 21:29:58.74	74.98	10.45	-43.9	-46.2	15.7	0.00e+00	0	44	0	0	59	4692
2026-01-14 21:29:59.74	75.16	10.45	-43.9	-46.2	15.7	0.00e+00	0	44	0	0	59	4705
2026-01-14 21:30:00.74	75.34	10.46	-43.9	-46.3	15.7	0.00e+00	0	44	0	0	59	4706
2026-01-14 21:30:01.74	75.52	10.46	-43.9	-46.2	15.8	0.00e+00	0	44	0	0	59	4664
2026-01-14 21:30:02.74	75.70	10.47	-43.8	-46.1	15.8	0.00e+00	0	44	0	0	59	4633
2026-01-14 21:30:03.74	75.89	10.47	-43.9	-46.3	15.7	0.00e+00	0	44	0	0	59	4707
2026-01-14 21:30:04.74	76.07	10.48	-44.0	-46.3	15.7	0.00e+00	0	44	0	0	59	4713
2026-01-14 21:30:05.74	76.25	10.48	-43.9	-46.2	15.7	0.00e+00	0	44	0	0	59	4683
2026-01-14 21:30:06.74	76.43	10.49	-43.9	-46.3	15.7	0.00e+00	0	44	0	0	59	4713
2026-01-14 21:30:07.74	76.61	10.49	-43.9	-46.2	15.8	0.00e+00	0	44	0	0	59	4690
2026-01-14 21:30:08.74	76.80	10.49	-43.9	-46.2	15.8	0.00e+00	0	44	0	0	59	4678
2026-01-14 21:30:09.74	76.98	10.50	-43.8	-46.1	15.8	0.00e+00	0	44	0	0	59	4649
2026-01-14 21:30:10.74	77.16	10.50	-43.8	-46.2	15.8	0.00e+00	0	43	0	0	59	4662
2026-01-14 21:30:11.74	77.34	10.50	-43.8	-46.1	15.8	0.00e+00	0	44	0	0	59	4625
2026-01-14 21:30:12.74	77.52	10.51	-43.8	-46.2	15.8	0.00e+00	0	44	0	0	59	4652
2026-01-14 21:30:13.74	77.71	10.51	-43.8	-46.2	15.8	0.00e+00	0	44	0	0	59	4674
2026-01-14 21:30:14.73	77.89	10.51	-43.9	-46.2	15.7	0.00e+00	0	44	0	0	59	4704
2026-01-14 21:30:15.74	78.07	10.51	-43.9	-46.3	15.7	0.00e+00	0	44	0	0	59	4707
2026-01-14 21:30:16.73	78.25	10.51	-43.8	-46.2	15.8	0.00e+00	0	44	0	0	59	4659
2026-01-14 21:30:17.74	78.44	10.52	-43.9	-46.2	15.8	0.00e+00	0	44	0	0	59	4677
2026-01-14 21:30:18.74	78.62	10.52	-43.9	-46.2	15.8	0.00e+00	0	44	0	0	59	4686
2026-01-14 21:30:19.74	78.80	10.52	-43.8	-46.1	15.8	0.00e+00	0	44	0	0	59	4648
2026-01-14 21:30:20.74	78.98	10.52	-43.8	-46.2	15.8	0.00e+00	0	44	0	0	59	4656
2026-01-14 21:30:21.75	79.17	10.52	-43.9	-46.2	15.8	0.00e+00	0	44	0	0	59	4671
2026-01-14 21:30:22.74	79.35	10.52	-43.8	-46.2	15.8	0.00e+00	0	44	0	0	59	4655
2026-01-14 21:30:23.74	79.53	10.52	-43.8	-46.2	15.8	0.00e+00	0	44	0	0	59	4680
2026-01-14 21:30:24.74	79.71	10.52	-43.8	-46.1	15.9	0.00e+00	0	44	0	0	59	4629
2026-01-14 21:30:25.74	79.89	10.52	-43.8	-46.1	15.8	0.00e+00	0	44	0	0	59	4640
2026-01-14 21:30:26.74	80.08	10.52	-43.8	-46.2	15.8	0.00e+00	0	44	0	0	59	4674
2026-01-14 21:30:27.74	80.26	10.51	-43.7	-46.1	15.9	0.00e+00	0	44	0	0	59	4608
2026-01-14 21:30:28.74	80.44	10.51	-43.7	-46.0	15.9	0.00e+00	0	44	0	0	59	4594
2026-01-14 21:30:29.74	80.62	10.51	-43.8	-46.1	15.9	0.00e+00	0	44	0	0	59	4625
2026-01-14 21:30:30.74	80.81	10.51	-43.8	-46.1	15.9	0.00e+00	0	44	0	0	59	4610
2026-01-14 21:30:31.74	80.99	10.51	-43.8	-46.1	15.9	0.00e+00	0	44	0	0	59	4601
2026-01-14 21:30:32.74	81.17	10.50	-43.8	-46.1	15.9	0.00e+00	0	44	0	0	59	4623
2026-01-14 21:30:33.74	81.35	10.50	-43.8	-46.2	15.8	0.00e+00	0	44	0	0	59	4658
2026-01-14 21:30:34.74	81.54	10.50	-43.8	-46.1	15.9	0.00e+00	0	44	0	0	59	4631
2026-01-14 21:30:35.74	81.72	10.49	-43.8	-46.2	15.8	0.00e+00	0	44	0	0	59	4670
2026-01-14 21:30:36.74	81.90	10.49	-43.8	-46.1	15.9	0.00e+00	0	44	0	0	59	4614
2026-01-14 21:30:37.74	82.08	10.49	-43.8	-46.2	15.8	0.00e+00	0	44	0	0	59	4656
2026-01-14 21:30:38.74	82.26	10.48	-43.8	-46.1	15.9	0.00e+00	0	44	0	0	59	4622
2026-01-14 21:30:39.75	82.45	10.48	-43.8	-46.1	15.9	0.00e+00	0	44	0	0	59	4631
2026-01-14 21:30:40.74	82.63	10.47	-43.7	-46.0	15.9	0.00e+00	0	44	0	0	59	4594
2026-01-14 21:30:41.74	82.81	10.47	-43.7	-46.0	16.0	0.00e+00	0	44	0	0	59	4575
2026-01-14 21:30:42.74	82.99	10.46	-43.7	-46.0	16.0	0.00e+00	0	44	0	0	59	4571
2026-01-14 21:30:43.74	83.17	10.46	-43.7	-46.1	15.9	0.00e+00	0	44	0	0	59	4603
2026-01-14 21:30:44.74	83.36	10.45	-43.7	-46.0	16.0	0.00e+00	0	43	0	0	59	4565
2026-01-14 21:30:45.74	83.54	10.45	-43.7	-46.1	15.9	0.00e+00	0	44	0	0	59	4611
2026-01-14 21:30:46.74	83.72	10.44	-43.7	-46.0	15.9	0.00e+00	0	44	0	0	59	4592
2026-01-14 21:30:47.74	83.90	10.44	-43.8	-46.1	15.9	0.00e+00	0	44	0	0	59	4634
2026-01-14 21:30:48.74	84.08	10.43	-43.7	-46.1	15.9	0.00e+00	0	44	0	0	59	4624
2026-01-14 21:30:49.74	84.26	10.42	-43.8	-46.1	15.9	0.00e+00	0	44	0	0	59	4637
2026-01-14 21:30:50.74	84.44	10.41	-43.8	-46.2	15.8	0.00e+00	0	44	0	0	59	4669
2026-01-14 21:30:51.74	84.63	10.41	-43.9	-46.3	15.7	0.00e+00	0	44	0	0	59	4736
2026-01-14 21:30:52.74	84.81	10.40	-43.8	-46.2	15.8	0.00e+00	0	44	0	0	59	4656
2026-01-14 21:30:53.74	84.99	10.39	-43.7	-46.2	15.9	0.00e+00	0	44	0	0	59	4653
2026-01-14 21:30:54.74	85.17	10.38	-43.7	-46.1	15.9	0.00e+00	0	44	0	0	59	4608
2026-01-14 21:30:55.74	85.35	10.38	-43.7	-46.1	15.9	0.00e+00	0	44	0	0	59	4641
2026-01-14 21:30:56.74	85.53	10.37	-43.7	-46.1	15.9	0.00e+00	0	44	0	0	59	4627
2026-01-14 21:30:57.74	85.71	10.36	-43.8	-46.1	15.8	0.00e+00	0	44	0	0	59	4648
2026-01-14 21:30:58.74	85.89	10.35	-43.8	-46.2	15.8	0.00e+00	0	44	0	0	59	4656
2026-01-14 21:30:59.74	86.07	10.34	-43.7	-46.1	15.9	0.00e+00	0	44	0	0	59	4626
2026-01-14 21:31:00.74	86.25	10.33	-43.8	-46.2	15.8	0.00e+00	0	44	0	0	59	4705
2026-01-14 21:31:01.74	86.43	10.32	-43.9	-46.3	15.7	0.00e+00	0	44	0	0	59	4748
2026-01-14 21:31:02.74	86.61	10.31	-43.8	-46.2	15.8	0.00e+00	0	44	0	0	59	4679
2026-01-14 21:31:03.74	86.79	10.30	-43.9	-46.3	15.6	0.00e+00	0	44	0	0	59	4756
2026-01-14 21:31:04.74	86.97	10.29	-43.9	-46.4	15.6	0.00e+00	0	44	0	0	59	4768
2026-01-14 21:31:05.74	87.15	10.28	-43.9	-46.2	15.7	0.00e+00	0	44	0	0	59	4689
2026-01-14 21:31:06.74	87.33	10.27	-44.0	-46.4	15.6	0.00e+00	0	44	0	0	59	4761
2026-01-14 21:31:07.75	87.51	10.26	-43.9	-46.3	15.7	0.00e+00	0	44	0	0	59	4735
2026-01-14 21:31:08.75	87.69	10.24	-44.0	-46.3	15.6	0.00e+00	0	44	0	0	59	4759
2026-01-14 21:31:09.75	87.87	10.23	-44.0	-46.4	15.6	0.00e+00	0	44	0	0	59	4761
2026-01-14 21:31:10.75	88.05	10.22	-44.1	-46.5	15.5	0.00e+00	0	44	0	0	59	4824
2026-01-14 21:31:11.76	88.23	10.21	-44.1	-46.5	15.5	0.00e+00	0	44	0	0	59	4864
2026-01-14 21:31:12.76	88.41	10.20	-44.1	-46.6	15.4	0.00e+00	0	44	0	0	59	4897
2026-01-14 21:31:13.76	88.59	10.18	-44.1	-46.5	15.4	0.00e+00	0	43	0	0	59	4862
2026-01-14 21:31:14.76	88.77	10.17	-44.1	-46.5	15.4	0.00e+00	0	44	0	0	59	4864
2026-01-14 21:31:15.76	88.95	10.16	-44.1	-46.5	15.4	0.00e+00	0	44	0	0	59	4862
2026-01-14 21:31:16.76	89.12	10.14	-44.0	-46.4	15.5	0.00e+00	0	44	0	0	59	4784
2026-01-14 21:31:17.76	89.30	10.13	-44.0	-46.5	15.5	0.00e+00	0	44	0	0	59	4819
2026-01-14 21:31:18.76	89.48	10.12	-44.0	-46.4	15.5	0.00e+00	0	44	0	0	59	4798
2026-01-14 21:31:19.76	89.66	10.10	-44.0	-46.4	15.6	0.00e+00	0	44	0	0	59	4785
2026-01-14 21:31:20.76	89.83	10.09	-44.1	-46.4	15.5	0.00e+00	0	44	0	0	59	4810
2026-01-14 21:31:21.76	90.01	10.07	-43.9	-46.3	15.6	0.00e+00	0	44	0	0	59	4744
2026-01-14 21:31:22.76	90.19	10.06	-44.0	-46.4	15.5	0.00e+00	0	44	0	0	59	4776
2026-01-14 21:31:23.76	90.37	10.04	-44.1	-46.5	15.4	0.00e+00	0	44	0	0	59	4857
2026-01-14 21:31:24.76	90.54	10.03	-44.0	-46.4	15.5	0.00e+00	0	44	0	0	59	4808
2026-01-14 21:31:25.76	90.72	10.01	-43.9	-46.3	15.6	0.00e+00	0	43	0	0	59	4755
2026-01-14 21:31:26.76	90.90	10.00	-44.0	-46.4	15.6	0.00e+00	0	43	0	0	59	4766
2026-01-14 21:31:27.76	91.07	9.98	-44.0	-46.4	15.6	0.00e+00	0	44	0	0	59	4762
2026-01-14 21:31:28.76	91.25	9.96	-44.0	-46.4	15.6	0.00e+00	0	44	0	0	59	4771
2026-01-14 21:31:29.76	91.42	9.95	-44.0	-46.3	15.6	0.00e+00	0	43	0	0	59	4740
2026-01-14 21:31:30.76	91.60	9.93	-44.0	-46.4	15.5	0.00e+00	0	44	0	0	59	4784
2026-01-14 21:31:31.76	91.78	9.91	-44.1	-46.5	15.5	0.00e+00	0	43	0	0	59	4822
2026-01-14 21:31:32.75	91.95	9.90	-44.0	-46.4	15.6	0.00e+00	0	44	0	0	59	4775
2026-01-14 21:31:33.75	92.12	9.88	-44.0	-46.4	15.5	0.00e+00	0	44	0	0	59	4782
2026-01-14 21:31:34.75	92.30	9.86	-43.9	-46.3	15.6	0.00e+00	0	44	0	0	59	4741
2026-01-14 21:31:35.75	92.47	9.84	-44.0	-46.3	15.6	0.00e+00	0	44	0	0	59	4759
2026-01-14 21:31:36.75	92.65	9.82	-43.9	-46.3	15.7	0.00e+00	0	43	0	0	59	4729
2026-01-14 21:31:37.74	92.82	9.81	-44.0	-46.3	15.6	0.00e+00	0	44	0	0	59	4752
2026-01-14 21:31:38.75	93.00	9.79	-43.9	-46.3	15.7	0.00e+00	0	43	0	0	59	4707
2026-01-14 21:31:39.75	93.17	9.77	-43.8	-46.1	15.8	0.00e+00	0	44	0	0	59	4648
2026-01-14 21:31:40.75	93.35	9.75	-43.8	-46.2	15.7	0.00e+00	0	44	0	0	59	4674
2026-01-14 21:31:41.75	93.52	9.73	-43.9	-46.2	15.7	0.00e+00	0	44	0	0	59	4668
2026-01-14 21:31:42.75	93.69	9.71	-43.8	-46.1	15.8	0.00e+00	0	43	0	0	59	4616
2026-01-14 21:31:43.75	93.87	9.69	-43.9	-46.2	15.7	0.00e+00	0	44	0	0	59	4699
2026-01-14 21:31:44.75	94.04	9.67	-44.0	-46.3	15.7	0.00e+00	0	44	0	0	59	4733
2026-01-14 21:31:45.75	94.21	9.65	-44.0	-46.3	15.6	0.00e+00	0	44	0	0	59	4736
2026-01-14 21:31:46.75	94.38	9.63	-43.9	-46.3	15.7	0.00e+00	0	44	0	0	59	4720
2026-01-14 21:31:47.75	94.56	9.61	-43.9	-46.2	15.7	0.00e+00	0	44	0	0	59	4697
2026-01-14 21:31:48.75	94.73	9.59	-44.0	-46.3	15.6	0.00e+00	0	43	0	0	59	4752
2026-01-14 21:31:49.75	94.90	9.57	-44.1	-46.4	15.5	0.00e+00	0	43	0	0	59	4810
2026-01-14 21:31:50.75	95.07	9.55	-43.9	-46.3	15.6	0.00e+00	0	43	0	0	59	4722
2026-01-14 21:31:51.75	95.24	9.53	-43.9	-46.3	15.6	0.00e+00	0	44	0	0	59	4729
2026-01-14 21:31:52.75	95.41	9.51	-43.9	-46.3	15.6	0.00e+00	0	44	0	0	59	4724
2026-01-14 21:31:53.75	95.58	9.49	-43.9	-46.2	15.7	0.00e+00	0	44	0	0	59	4705
2026-01-14 21:31:54.75	95.75	9.46	-44.0	-46.4	15.6	0.00e+00	0	44	0	0	59	4767
2026-01-14 21:31:55.75	95.92	9.44	-43.9	-46.3	15.6	0.00e+00	0	43	0	0	59	4738
2026-01-14 21:31:56.75	96.09	9.42	-43.8	-46.1	15.8	0.00e+00	0	43	0	0	59	4641
2026-01-14 21:31:57.75	96.26	9.40	-43.9	-46.2	15.7	0.00e+00	0	43	0	0	59	4693
2026-01-14 21:31:58.76	96.43	9.37	-43.9	-46.3	15.6	0.00e+00	0	43	0	0	59	4724
2026-01-14 21:31:59.76	96.60	9.35	-43.9	-46.2	15.7	0.00e+00	0	43	0	0	59	4702
2026-01-14 21:32:00.76	96.77	9.33	-44.0	-46.3	15.6	0.00e+00	0	44	0	0	59	4744
2026-01-14 21:32:01.76	96.94	9.30	-44.0	-46.3	15.6	0.00e+00	0	44	0	0	59	4726
2026-01-14 21:32:02.76	97.11	9.28	-43.9	-46.3	15.6	0.00e+00	0	44	0	0	59	4737
2026-01-14 21:32:03.76	97.28	9.26	-44.1	-46.5	15.4	0.00e+00	0	44	0	0	59	4829
2026-01-14 21:32:04.76	97.45	9.23	-44.1	-46.4	15.5	0.00e+00	0	44	0	0	59	4810
2026-01-14 21:32:05.76	97.61	9.21	-44.0	-46.3	15.6	0.00e+00	0	43	0	0	59	4751
2026-01-14 21:32:06.76	97.78	9.19	-44.0	-46.3	15.6	0.00e+00	0	43	0	0	59	4724
2026-01-14 21:32:07.76	97.95	9.16	-43.9	-46.3	15.6	0.00e+00	0	44	0	0	59	4709
2026-01-14 21:32:08.76	98.12	9.14	-44.0	-46.4	15.5	0.00e+00	0	44	0	0	59	4802
2026-01-14 21:32:09.77	98.28	9.11	-44.0	-46.4	15.4	0.00e+00	0	44	0	0	59	4797
2026-01-14 21:32:10.77	98.45	9.09	-44.1	-46.5	15.3	0.00e+00	0	44	0	0	59	4864
2026-01-14 21:32:11.77	98.62	9.06	-44.1	-46.6	15.3	0.00e+00	0	43	0	0	59	4877
2026-01-14 21:32:12.77	98.78	9.04	-44.1	-46.5	15.4	0.00e+00	0	44	0	0	59	4844
2026-01-14 21:32:13.77	98.95	9.01	-44.2	-46.6	15.3	0.00e+00	0	44	0	0	59	4885
2026-01-14 21:32:14.77	99.11	8.98	-49.8	-56.5	6.7	5.72e-05	0	43	0	0	69	8647
2026-01-14 21:32:15.77	99.28	8.96	-50.7	-63.5	3.8	1.49e+00	0	43	104	0	71	17260
2026-01-14 21:32:16.77	99.44	8.93	-50.7	-63.7	3.8	1.49e+00	0	43	104	0	72	16547
2026-01-14 21:32:17.77	99.61	8.91	-50.5	-63.8	3.8	1.49e+00	0	44	104	0	72	16871
2026-01-14 21:32:18.77	99.77	8.88	-50.3	-63.9	3.8	1.49e+00	0	44	104	0	72	16909
2026-01-14 21:32:19.77	99.93	8.85	-50.4	-63.9	3.8	1.49e+00	0	44	104	0	72	16935
2026-01-14 21:32:20.76	100.10	8.83	-50.3	-64.0	3.8	1.49e+00	0	44	104	0	72	17093
2026-01-14 21:32:21.76	100.26	8.80	-50.3	-64.0	3.8	1.49e+00	0	43	104	0	72	17090
2026-01-14 21:32:22.76	100.42	8.77	-50.4	-64.0	3.8	1.49e+00	0	43	104	0	72	17148
2026-01-14 21:32:23.76	100.59	8.75	-50.4	-64.0	3.8	1.49e+00	0	43	104	0	72	17173
2026-01-14 21:32:24.76	100.75	8.72	-50.4	-64.0	3.8	1.49e+00	0	44	104	0	72	17183
2026-01-14 21:32:25.76	100.91	8.69	-50.7	-64.0	3.8	1.49e+00	0	44	104	0	72	17215
2026-01-14 21:32:26.76	101.07	8.66	-50.7	-64.0	3.8	1.49e+00	0	44	104	0	72	17274
2026-01-14 21:32:27.76	101.23	8.63	-50.8	-64.0	3.8	1.49e+00	0	44	104	0	72	17257
2026-01-14 21:32:28.75	101.39	8.61	-50.8	-64.1	3.8	1.49e+00	0	43	104	0	72	17328
2026-01-14 21:32:29.76	101.56	8.58	-50.8	-64.1	3.8	1.49e+00	0	44	104	0	72	17305
2026-01-14 21:32:30.75	101.71	8.55	-50.7	-64.0	3.8	1.49e+00	0	44	104	0	72	17231
2026-01-14 21:32:31.75	101.87	8.52	-50.6	-64.1	3.8	1.49e+00	0	44	104	0	72	17289
2026-01-14 21:32:32.75	102.03	8.49	-50.6	-64.0	3.8	1.49e+00	0	44	104	0	72	17226
2026-01-14 21:32:33.75	102.19	8.46	-50.7	-64.1	3.8	1.49e+00	0	44	104	0	72	17362
2026-01-14 21:32:34.74	102.35	8.44	-50.7	-64.1	3.8	1.49e+00	0	43	104	0	72	17308
2026-01-14 21:32:35.74	102.51	8.41	-50.8	-64.1	3.8	1.49e+00	0	44	104	0	72	17311
2026-01-14 21:32:36.74	102.67	8.38	-50.8	-64.0	3.8	1.49e+00	0	44	104	0	72	17253
2026-01-14 21:32:37.74	102.83	8.35	-50.8	-64.0	3.8	1.49e+00	0	44	104	0	72	17159
2026-01-14 21:32:38.74	102.99	8.32	-50.8	-64.0	3.8	1.49e+00	0	43	104	0	72	17244
2026-01-14 21:32:39.74	103.14	8.29	-50.8	-64.0	3.8	1.49e+00	0	43	104	0	72	17145
2026-01-14 21:32:40.74	103.30	8.26	-50.8	-64.0	3.8	1.49e+00	0	43	104	0	72	17228
2026-01-14 21:32:41.74	103.46	8.23	-50.8	-64.0	3.8	1.49e+00	0	43	104	0	72	17179
2026-01-14 21:32:42.74	103.62	8.20	-50.8	-64.0	3.8	1.49e+00	0	44	104	0	72	17202
2026-01-14 21:32:43.73	103.77	8.17	-50.8	-64.0	3.8	1.49e+00	0	43	104	0	72	17187
2026-01-14 21:32:44.73	103.93	8.14	-50.8	-64.0	3.8	1.49e+00	0	43	104	0	72	17178
2026-01-14 21:32:45.73	104.08	8.11	-50.8	-64.0	3.8	1.49e+00	0	43	104	0	72	17093
2026-01-14 21:32:46.73	104.24	8.07	-50.8	-64.0	3.8	1.49e+00	0	43	104	0	72	17183
2026-01-14 21:32:47.73	104.39	8.04	-50.7	-64.0	3.8	1.49e+00	0	44	104	0	72	17205
2026-01-14 21:32:48.73	104.55	8.01	-50.8	-64.0	3.8	1.49e+00	0	43	104	0	72	17135
2026-01-14 21:32:49.73	104.70	7.98	-50.7	-64.0	3.8	1.49e+00	0	43	104	0	72	17150
2026-01-14 21:32:50.72	104.86	7.95	-50.8	-64.0	3.8	1.49e+00	0	44	104	0	72	17170
2026-01-14 21:32:51.72	105.01	7.92	-50.7	-64.0	3.8	1.49e+00	0	44	104	0	72	17165
2026-01-14 21:32:52.71	105.16	7.89	-50.7	-64.0	3.8	1.49e+00	0	43	104	0	72	17132
2026-01-14 21:32:53.71	105.32	7.86	-50.8	-64.0	3.8	1.49e+00	0	43	104	0	72	17219
2026-01-14 21:32:54.71	105.47	7.82	-50.7	-64.0	3.8	1.49e+00	0	43	104	0	72	17140
2026-01-14 21:32:55.71	105.62	7.79	-50.7	-64.0	3.8	1.49e+00	0	43	104	0	72	17196
2026-01-14 21:32:56.71	105.77	7.76	-50.7	-64.0	3.8	1.49e+00	0	43	104	0	72	17192
2026-01-14 21:32:57.71	105.93	7.73	-50.7	-64.0	3.8	1.49e+00	0	43	104	0	72	17168
2026-01-14 21:32:58.70	106.08	7.69	-50.7	-64.0	3.8	1.49e+00	0	44	104	0	72	17146
2026-01-14 21:32:59.70	106.23	7.66	-50.8	-64.0	3.8	1.49e+00	0	43	104	0	72	17139
2026-01-14 21:33:00.70	106.38	7.63	-50.7	-64.0	3.8	1.49e+00	0	43	104	0	72	17099
2026-01-14 21:33:01.70	106.53	7.60	-50.7	-64.0	3.8	1.49e+00	0	43	104	0	72	17207
2026-01-14 21:33:02.70	106.68	7.56	-50.8	-64.0	3.8	1.49e+00	0	44	104	0	72	17136
2026-01-14 21:33:03.69	106.83	7.53	-50.8	-64.0	3.8	1.49e+00	0	43	104	0	72	17107
2026-01-14 21:33:04.69	106.98	7.50	-50.8	-64.0	3.8	1.49e+00	0	44	104	0	72	17105
2026-01-14 21:33:05.69	107.13	7.46	-50.7	-63.9	3.8	1.49e+00	0	44	104	0	72	17042
2026-01-14 21:33:06.69	107.28	7.43	-50.7	-63.9	3.8	1.49e+00	0	43	104	0	72	17071
2026-01-14 21:33:07.69	107.43	7.40	-50.7	-64.0	3.8	1.49e+00	0	43	104	0	72	17088
2026-01-14 21:33:08.69	107.58	7.36	-50.7	-63.9	3.8	1.49e+00	0	44	104	0	72	17008
2026-01-14 21:33:09.69	107.72	7.33	-50.7	-63.9	3.8	1.49e+00	0	43	104	0	72	17067
2026-01-14 21:33:10.68	107.87	7.29	-50.7	-63.9	3.8	1.49e+00	0	43	104	0	72	17075
2026-01-14 21:33:11.68	108.02	7.26	-50.7	-63.9	3.8	1.49e+00	0	43	104	0	72	16950
2026-01-14 21:33:12.68	108.16	7.23	-50.7	-63.9	3.8	1.49e+00	0	43	104	0	72	17081
2026-01-14 21:33:13.68	108.31	7.19	-50.7	-63.9	3.8	1.49e+00	0	43	104	0	72	17005
2026-01-14 21:33:14.68	108.46	7.16	-50.7	-63.9	3.8	1.49e+00	0	44	104	0	72	17037
2026-01-14 21:33:15.68	108.60	7.12	-50.7	-63.9	3.8	1.49e+00	0	44	104	0	72	17060
2026-01-14 21:33:16.67	108.75	7.09	-50.7	-63.9	3.8	1.49e+00	0	43	104	0	72	17067
2026-01-14 21:33:17.67	108.89	7.05	-50.7	-63.9	3.8	1.49e+00	0	44	104	0	72	17012
2026-01-14 21:33:18.67	109.04	7.02	-50.7	-64.0	3.8	1.49e+00	0	44	104	0	72	17102
2026-01-14 21:33:19.67	109.18	6.98	-50.7	-63.9	3.8	1.49e+00	0	43	104	0	72	17079
2026-01-14 21:33:20.67	109.33	6.95	-50.7	-63.9	3.8	1.49e+00	0	43	104	0	72	17003
2026-01-14 21:33:21.66	109.47	6.91	-50.7	-63.9	3.8	1.49e+00	0	43	104	0	72	17064
2026-01-14 21:33:22.66	109.62	6.88	-50.7	-63.9	3.8	1.49e+00	0	43	104	0	72	17036
2026-01-14 21:33:23.66	109.76	6.84	-50.7	-64.0	3.8	1.49e+00	0	43	104	0	72	17086
2026-01-14 21:33:24.65	109.90	6.81	-50.7	-63.9	3.8	1.49e+00	0	43	104	0	72	17046
2026-01-14 21:33:25.65	110.04	6.77	-50.7	-63.9	3.8	1.49e+00	0	44	104	0	72	17046
2026-01-14 21:33:26.65	110.19	6.74	-50.7	-63.9	3.8	1.49e+00	0	44	104	0	72	17004
2026-01-14 21:33:27.64	110.33	6.70	-50.7	-63.9	3.8	1.49e+00	0	43	104	0	72	16947
2026-01-14 21:33:28.64	110.47	6.67	-50.7	-63.9	3.8	1.49e+00	0	43	104	0	72	16996
2026-01-14 21:33:29.64	110.61	6.63	-50.7	-63.9	3.8	1.49e+00	0	43	104	0	72	17040
2026-01-14 21:33:30.64	110.75	6.59	-50.7	-63.9	3.8	1.49e+00	0	44	104	0	72	17065
2026-01-14 21:33:31.64	110.89	6.56	-50.7	-63.9	3.8	1.49e+00	0	43	104	0	72	17025
2026-01-14 21:33:32.63	111.03	6.52	-50.7	-63.9	3.8	1.49e+00	0	44	104	0	72	16995
2026-01-14 21:33:33.63	111.17	6.48	-50.7	-63.9	3.8	1.49e+00	0	43	104	0	72	17029
2026-01-14 21:33:34.63	111.31	6.45	-50.7	-63.9	3.8	1.49e+00	0	43	104	0	72	16999
2026-01-14 21:33:35.63	111.45	6.41	-50.7	-63.9	3.8	1.49e+00	0	44	104	0	72	17061
2026-01-14 21:33:36.62	111.59	6.38	-50.7	-63.9	3.8	1.49e+00	0	44	104	0	72	17016
2026-01-14 21:33:37.62	111.73	6.34	-50.7	-63.9	3.8	1.49e+00	0	43	104	0	72	17000
2026-01-14 21:33:38.62	111.87	6.30	-50.7	-63.9	3.8	1.49e+00	0	43	104	0	72	17029
2026-01-14 21:33:39.62	112.00	6.26	-50.7	-63.9	3.8	1.49e+00	0	44	104	0	72	17004
2026-01-14 21:33:40.62	112.14	6.23	-50.7	-63.9	3.8	1.49e+00	0	43	104	0	72	17049
2026-01-14 21:33:41.62	112.28	6.19	-50.7	-63.9	3.8	1.49e+00	0	44	104	0	72	16972
2026-01-14 21:33:42.61	112.41	6.15	-50.7	-63.9	3.8	1.49e+00	0	44	104	0	72	17074
2026-01-14 21:33:43.61	112.55	6.12	-50.7	-63.9	3.8	1.49e+00	0	44	104	0	72	17038
2026-01-14 21:33:44.61	112.69	6.08	-50.7	-63.9	3.8	1.49e+00	0	44	104	0	72	17002
2026-01-14 21:33:45.61	112.82	6.04	-50.7	-63.9	3.8	1.49e+00	0	44	104	0	72	17059
2026-01-14 21:33:46.61	112.96	6.00	-50.7	-63.9	3.8	1.49e+00	0	43	104	0	72	17012
2026-01-14 21:33:47.61	113.09	5.97	-50.7	-63.9	3.8	1.49e+00	0	43	104	0	72	16994
2026-01-14 21:33:48.61	113.23	5.93	-50.7	-63.9	3.8	1.49e+00	0	43	104	0	72	16975
2026-01-14 21:33:49.60	113.36	5.89	-50.7	-63.9	3.8	1.49e+00	0	44	104	0	72	16988
2026-01-14 21:33:50.60	113.50	5.85	-50.7	-63.9	3.8	1.49e+00	0	44	104	0	72	17036
2026-01-14 21:33:51.61	113.63	5.81	-50.7	-63.9	3.8	1.49e+00	0	44	104	0	72	17002
2026-01-14 21:33:52.60	113.77	5.78	-50.7	-63.9	3.8	1.49e+00	0	44	104	0	72	16968
2026-01-14 21:33:53.61	113.90	5.74	-50.7	-63.9	3.8	1.49e+00	0	43	104	0	72	16979
2026-01-14 21:33:54.61	114.03	5.70	-50.7	-63.9	3.8	1.49e+00	0	44	104	0	72	17008
2026-01-14 21:33:55.61	114.17	5.66	-50.7	-63.9	3.8	1.49e+00	0	44	104	0	72	16970
2026-01-14 21:33:56.61	114.30	5.62	-50.7	-63.9	3.8	1.49e+00	0	43	104	0	72	17008
2026-01-14 21:33:57.60	114.43	5.59	-50.7	-63.9	3.8	1.49e+00	0	44	104	0	72	17032
2026-01-14 21:33:58.60	114.56	5.55	-50.7	-63.9	3.8	1.49e+00	0	44	104	0	72	17027
2026-01-14 21:33:59.60	114.69	5.51	-50.7	-63.9	3.8	1.49e+00	0	43	104	0	72	16968
2026-01-14 21:34:00.60	114.82	5.47	-50.7	-63.9	3.8	1.49e+00	0	43	104	0	72	17044
2026-01-14 21:34:01.59	114.95	5.43	-50.7	-63.9	3.8	1.49e+00	0	43	104	0	72	16955
2026-01-14 21:34:02.59	115.08	5.39	-50.7	-63.9	3.8	1.49e+00	0	44	104	0	72	16923
2026-01-14 21:34:03.59	115.21	5.35	-50.7	-63.9	3.8	1.49e+00	0	44	104	0	72	16949
2026-01-14 21:34:04.59	115.34	5.32	-50.7	-63.9	3.8	1.49e+00	0	44	104	0	72	16993
2026-01-14 21:34:05.59	115.47	5.28	-50.7	-63.9	3.8	1.49e+00	0	43	104	0	72	16961
2026-01-14 21:34:06.58	115.60	5.24	-50.7	-63.9	3.8	1.49e+00	0	44	104	0	72	17020
2026-01-14 21:34:07.58	115.73	5.20	-50.7	-63.9	3.8	1.49e+00	0	44	104	0	72	17059
2026-01-14 21:34:08.58	115.86	5.16	-50.7	-63.9	3.8	1.49e+00	0	43	104	0	72	17007
2026-01-14 21:34:09.58	115.99	5.12	-50.7	-63.9	3.8	1.49e+00	0	44	104	0	72	16983
2026-01-14 21:34:10.57	116.11	5.08	-50.7	-63.9	3.8	1.49e+00	0	43	104	0	72	16956
2026-01-14 21:34:11.57	116.24	5.04	-50.7	-63.9	3.8	1.49e+00	0	43	104	0	72	16958
2026-01-14 21:34:12.57	116.37	5.00	-50.7	-63.9	3.8	1.49e+00	0	43	104	0	72	16972
2026-01-14 21:34:13.56	116.49	4.96	-50.7	-63.9	3.8	1.49e+00	0	43	104	0	72	16985

#Closed at: 2026-01-14 21:34:14
#Recorded file [0 MB]: D:/Data/31040_260115_002632.dat