passes_logs/2026/01/14/T1/T1__20260114_005315_FENGYUN_3D_rec.log

#Pass ID: 20260114_005315_FENGYUN 3D
#Satellite: FENGYUN 3D
#Configuration: FENGYUN 3D
#almurnet v.1.7.20251203
#Start time: 2026-01-14 00:53:15

#Version: 2.0.20230620
#Station: T1
#Location: 37.570604 lon 55.790049 lat
#TLE: 1 43010U 17072A   26013.31211337  .00000452  00000+0  23563-3 0  9990
#TLE: 2 43010  98.9934 345.1024 0002270 111.0315 249.1103 14.19696845423017

#Time	Az	El	Level	Level2	SNR	BER	BlckErr	Temp	State	Recorded	gain1	gain2
2026-01-14 00:53:15.94	23.52	5.05	-51.2	-64.0	3.8	8.48e-01	0	41	0	0	74	15341
2026-01-14 00:53:16.93	23.57	5.12	-51.2	-64.0	3.8	8.47e-01	0	41	104	0	72	17162
2026-01-14 00:53:17.92	23.63	5.18	-51.1	-63.9	3.8	8.48e-01	0	41	104	0	72	17057
2026-01-14 00:53:18.92	23.68	5.25	-51.2	-63.9	3.8	8.48e-01	0	41	104	0	72	16994
2026-01-14 00:53:19.91	23.73	5.32	-51.2	-63.9	3.8	8.46e-01	0	41	104	0	72	17058
2026-01-14 00:53:20.90	23.78	5.38	-51.1	-63.9	3.8	8.47e-01	0	41	104	0	72	16943
2026-01-14 00:53:21.90	23.84	5.45	-51.1	-63.9	3.8	8.47e-01	0	41	104	0	72	16914
2026-01-14 00:53:22.89	23.89	5.52	-51.1	-63.8	3.8	8.46e-01	0	42	104	0	72	16776
2026-01-14 00:53:23.88	23.95	5.59	-51.1	-63.8	3.8	8.47e-01	0	41	104	0	72	16785
2026-01-14 00:53:24.87	24.00	5.65	-51.1	-63.8	3.8	8.46e-01	0	42	104	0	72	16696
2026-01-14 00:53:25.87	24.05	5.72	-51.1	-63.8	3.8	8.47e-01	0	42	104	0	72	16697
2026-01-14 00:53:26.86	24.11	5.79	-51.1	-63.7	3.8	8.48e-01	0	41	104	0	72	16630
2026-01-14 00:53:27.85	24.16	5.86	-51.1	-63.7	3.8	8.46e-01	0	42	104	0	72	16567
2026-01-14 00:53:28.85	24.22	5.93	-51.1	-63.7	3.8	8.46e-01	0	42	104	0	72	16628
2026-01-14 00:53:29.84	24.27	5.99	-51.1	-63.7	3.8	8.48e-01	0	42	104	0	72	16621
2026-01-14 00:53:30.83	24.33	6.06	-51.1	-63.7	3.8	8.48e-01	0	42	104	0	72	16682
2026-01-14 00:53:31.83	24.39	6.13	-51.2	-63.8	3.8	8.46e-01	0	42	104	0	72	16835
2026-01-14 00:53:32.82	24.44	6.20	-51.1	-63.8	3.8	8.47e-01	0	42	104	0	72	16844
2026-01-14 00:53:33.81	24.50	6.27	-51.1	-63.9	3.8	8.47e-01	0	42	104	0	72	16922
2026-01-14 00:53:34.80	24.55	6.34	-51.2	-63.9	3.8	8.47e-01	0	42	104	0	72	17008
2026-01-14 00:53:35.80	24.61	6.41	-51.2	-63.9	3.8	8.47e-01	0	42	104	0	72	17053
2026-01-14 00:53:36.79	24.67	6.48	-51.2	-63.9	3.8	8.46e-01	0	42	104	0	72	16949
2026-01-14 00:53:37.79	24.73	6.55	-51.2	-63.9	3.8	8.47e-01	0	42	104	0	72	16960
2026-01-14 00:53:38.78	24.78	6.62	-51.1	-63.9	3.8	8.47e-01	0	42	104	0	72	16974
2026-01-14 00:53:39.77	24.84	6.69	-51.2	-63.9	3.8	8.47e-01	0	42	104	0	72	16986
2026-01-14 00:53:40.77	24.90	6.76	-51.2	-63.9	3.8	8.47e-01	0	42	104	0	72	16913
2026-01-14 00:53:41.76	24.96	6.83	-51.2	-63.9	3.8	8.46e-01	0	42	104	0	72	16958
2026-01-14 00:53:42.75	25.01	6.90	-51.2	-63.9	3.8	8.46e-01	0	42	104	0	72	16976
2026-01-14 00:53:43.74	25.07	6.97	-51.2	-63.9	3.8	8.47e-01	0	42	104	0	72	16981
2026-01-14 00:53:44.74	25.13	7.04	-51.2	-63.9	3.8	8.46e-01	0	42	104	0	72	16953
2026-01-14 00:53:45.73	25.19	7.11	-51.2	-63.9	3.8	8.48e-01	0	42	104	0	72	16939
2026-01-14 00:53:46.72	25.25	7.18	-51.1	-63.7	3.8	8.47e-01	0	42	104	0	72	16675
2026-01-14 00:53:47.72	25.31	7.25	-51.1	-63.6	3.8	8.47e-01	0	42	104	0	72	16462
2026-01-14 00:53:48.71	25.37	7.33	-51.1	-63.3	3.8	8.47e-01	0	42	104	0	72	15901
2026-01-14 00:53:49.70	25.43	7.40	-51.1	-63.1	3.8	8.46e-01	0	42	104	0	72	15460
2026-01-14 00:53:50.70	25.49	7.47	-51.1	-62.8	3.8	8.47e-01	0	42	104	0	72	15034
2026-01-14 00:53:51.69	25.55	7.54	-51.1	-62.7	3.8	8.46e-01	0	42	104	0	72	14858
2026-01-14 00:53:52.68	25.61	7.61	-51.0	-62.6	3.8	8.47e-01	0	43	104	0	72	14612
2026-01-14 00:53:53.68	25.68	7.69	-51.0	-62.6	3.8	8.45e-01	0	42	104	0	72	14688
2026-01-14 00:53:54.67	25.74	7.76	-51.0	-62.7	3.8	8.46e-01	0	42	104	0	72	14742
2026-01-14 00:53:55.66	25.80	7.83	-51.0	-62.7	3.8	8.45e-01	0	42	104	0	72	14824
2026-01-14 00:53:56.65	25.86	7.91	-51.0	-62.7	3.8	8.46e-01	0	42	104	0	72	14763
2026-01-14 00:53:57.65	25.93	7.98	-51.0	-62.6	3.8	8.47e-01	0	43	104	0	72	14559
2026-01-14 00:53:58.64	25.99	8.05	-51.0	-62.4	3.8	8.46e-01	0	43	104	0	72	14297
2026-01-14 00:53:59.64	26.05	8.13	-51.0	-62.3	3.8	8.46e-01	0	43	104	0	72	14092
2026-01-14 00:54:00.63	26.12	8.20	-51.0	-62.2	3.8	8.46e-01	0	42	104	0	72	13990
2026-01-14 00:54:01.62	26.18	8.27	-51.0	-62.3	3.8	8.46e-01	0	43	104	0	72	14094
2026-01-14 00:54:02.62	26.24	8.35	-51.0	-62.6	3.8	8.46e-01	0	43	104	0	72	14541
2026-01-14 00:54:03.61	26.31	8.42	-51.1	-62.8	3.8	8.46e-01	0	43	104	0	72	15006
2026-01-14 00:54:04.60	26.37	8.50	-51.1	-63.0	3.8	8.46e-01	0	43	104	0	72	15337
2026-01-14 00:54:05.60	26.44	8.57	-51.1	-63.1	3.8	8.47e-01	0	43	104	0	72	15442
2026-01-14 00:54:06.59	26.50	8.65	-51.1	-62.8	3.8	8.47e-01	0	43	104	0	72	14952
2026-01-14 00:54:07.58	26.57	8.72	-51.0	-62.4	3.8	8.47e-01	0	43	104	0	72	14234
2026-01-14 00:54:08.58	26.64	8.80	-50.9	-61.8	3.8	8.47e-01	0	43	104	0	72	13331
2026-01-14 00:54:09.57	26.70	8.87	-50.9	-61.4	3.8	8.44e-01	0	43	104	0	72	12755
2026-01-14 00:54:10.56	26.77	8.95	-50.9	-61.1	4.0	8.45e-01	0	43	104	0	72	12314
2026-01-14 00:54:11.56	26.84	9.03	-50.9	-61.1	4.1	8.43e-01	0	43	0	0	72	12252
2026-01-14 00:54:12.55	26.90	9.10	-48.9	-53.6	9.1	7.95e-01	0	43	0	1048576	69	6193
2026-01-14 00:54:13.54	26.97	9.18	-51.1	-60.3	4.3	2.02e-01	0	43	0	6291456	72	11280
2026-01-14 00:54:14.54	27.04	9.26	-51.2	-62.1	3.9	8.46e-01	0	43	104	6291456	73	13052
2026-01-14 00:54:15.53	27.11	9.33	-48.2	-52.3	10.4	3.64e-04	0	43	0	9437184	66	6332
2026-01-14 00:54:16.53	27.18	9.41	-47.7	-51.4	11.2	6.05e-03	0	43	0	14680064	67	5399
2026-01-14 00:54:17.52	27.24	9.49	-46.5	-49.7	13.0	1.71e-05	0	43	0	20971520	65	4938
2026-01-14 00:54:18.52	27.31	9.56	-46.6	-49.7	13.0	1.83e-05	0	43	0	26214400	64	5260
2026-01-14 00:54:19.51	27.38	9.64	-46.1	-49.1	13.6	1.02e-05	0	43	0	31457280	64	4914
2026-01-14 00:54:20.51	27.45	9.72	-46.0	-49.0	13.7	9.10e-06	0	43	0	37748736	64	4864
2026-01-14 00:54:21.51	27.53	9.80	-45.3	-47.9	14.9	0.00e+00	0	43	0	42991616	62	4801
2026-01-14 00:54:22.50	27.60	9.88	-44.6	-47.0	15.8	0.00e+00	0	43	0	48234496	61	4577
2026-01-14 00:54:23.49	27.67	9.96	-44.4	-46.7	16.1	0.00e+00	0	43	0	54525952	60	4696
2026-01-14 00:54:24.49	27.74	10.03	-44.4	-46.7	16.1	0.00e+00	0	43	0	59768832	60	4683
2026-01-14 00:54:25.48	27.81	10.11	-44.4	-46.7	16.1	0.00e+00	0	43	0	65011712	60	4699
2026-01-14 00:54:26.48	27.88	10.19	-44.3	-46.7	16.2	0.00e+00	0	43	0	71303168	60	4675
2026-01-14 00:54:27.47	27.96	10.27	-44.3	-46.7	16.2	0.00e+00	0	43	0	76546048	60	4669
2026-01-14 00:54:28.47	28.03	10.35	-43.9	-46.2	16.6	0.00e+00	0	43	0	81788928	59	4663
2026-01-14 00:54:29.47	28.10	10.43	-43.8	-46.0	16.8	0.00e+00	0	43	0	88080384	59	4578
2026-01-14 00:54:30.46	28.18	10.51	-43.6	-45.8	17.0	0.00e+00	0	43	0	93323264	59	4460
2026-01-14 00:54:31.46	28.25	10.59	-43.6	-45.8	17.0	0.00e+00	0	43	0	98566144	59	4453
2026-01-14 00:54:32.54	28.33	10.68	-43.4	-45.6	17.2	0.00e+00	0	43	0	104857600	58	4609
2026-01-14 00:54:33.40	28.40	10.75	-43.3	-45.4	17.4	0.00e+00	0	43	0	110100480	58	4530
2026-01-14 00:54:34.53	28.48	10.84	-43.3	-45.5	17.3	0.00e+00	0	43	0	116391936	58	4569
2026-01-14 00:54:35.39	28.55	10.91	-43.3	-45.5	17.3	0.00e+00	0	43	0	120586240	58	4558
2026-01-14 00:54:36.52	28.63	11.01	-43.3	-45.4	17.4	0.00e+00	0	43	0	127926272	58	4539
2026-01-14 00:54:37.38	28.70	11.08	-43.2	-45.4	17.5	0.00e+00	0	43	0	132120576	58	4499
2026-01-14 00:54:38.51	28.79	11.17	-43.3	-45.5	17.3	0.00e+00	0	43	0	138412032	58	4573
2026-01-14 00:54:39.36	28.85	11.24	-43.3	-45.4	17.4	0.00e+00	0	43	0	143654912	58	4542
2026-01-14 00:54:40.50	28.94	11.33	-43.3	-45.4	17.4	0.00e+00	0	43	0	149946368	58	4538
2026-01-14 00:54:41.35	29.01	11.40	-43.2	-45.4	17.5	0.00e+00	0	43	0	155189248	58	4502
2026-01-14 00:54:42.52	29.10	11.50	-43.2	-45.4	17.4	0.00e+00	0	43	0	161480704	58	4536
2026-01-14 00:54:43.37	29.17	11.57	-43.2	-45.4	17.4	0.00e+00	0	43	0	165675008	58	4530
2026-01-14 00:54:44.57	29.27	11.67	-43.2	-45.4	17.4	0.00e+00	0	43	0	173015040	58	4536
2026-01-14 00:54:45.42	29.33	11.75	-43.2	-45.3	17.5	0.00e+00	0	43	0	177209344	58	4493
2026-01-14 00:54:46.61	29.43	11.85	-43.1	-45.3	17.5	0.00e+00	0	43	0	184549376	58	4467
2026-01-14 00:54:47.46	29.50	11.92	-43.2	-45.3	17.5	0.00e+00	0	43	0	188743680	58	4489
2026-01-14 00:54:48.68	29.60	12.02	-43.1	-45.3	17.6	0.00e+00	0	43	0	196083712	58	4457
2026-01-14 00:54:49.53	29.67	12.09	-43.2	-45.4	17.5	0.00e+00	0	43	0	200278016	58	4503
2026-01-14 00:54:50.67	29.76	12.19	-43.1	-45.2	17.7	0.00e+00	0	43	0	206569472	58	4407
2026-01-14 00:54:51.52	29.83	12.26	-43.1	-45.1	17.7	0.00e+00	0	43	0	211812352	58	4388
2026-01-14 00:54:52.66	29.93	12.36	-43.0	-45.0	17.8	0.00e+00	0	43	0	218103808	57	4570
2026-01-14 00:54:53.51	30.00	12.44	-43.0	-45.0	17.8	0.00e+00	0	43	0	223346688	57	4582
2026-01-14 00:54:54.65	30.10	12.53	-43.0	-45.0	17.8	0.00e+00	0	43	0	229638144	57	4569
2026-01-14 00:54:55.50	30.17	12.61	-43.0	-45.1	17.8	0.00e+00	0	44	0	234881024	57	4606
2026-01-14 00:54:56.64	30.27	12.71	-43.0	-45.0	17.9	0.00e+00	0	43	0	240123904	57	4549
2026-01-14 00:54:57.49	30.34	12.78	-43.0	-45.0	17.8	0.00e+00	0	44	0	245366784	57	4580
2026-01-14 00:54:58.63	30.44	12.88	-42.9	-44.9	17.9	0.00e+00	0	43	0	251658240	57	4528
2026-01-14 00:54:59.48	30.51	12.95	-42.9	-44.9	18.0	0.00e+00	0	43	0	256901120	57	4512
2026-01-14 00:55:00.62	30.61	13.05	-42.9	-44.9	18.0	0.00e+00	0	43	0	263192576	57	4517
2026-01-14 00:55:01.47	30.69	13.13	-42.9	-44.9	18.0	0.00e+00	0	43	0	267386880	57	4523
2026-01-14 00:55:02.60	30.79	13.23	-42.9	-44.9	18.0	0.00e+00	0	43	0	274726912	57	4524
2026-01-14 00:55:03.46	30.86	13.31	-42.9	-45.0	17.9	0.00e+00	0	43	0	278921216	57	4546
2026-01-14 00:55:04.59	30.96	13.41	-42.9	-44.9	18.0	0.00e+00	0	43	0	285212672	57	4510
2026-01-14 00:55:05.45	31.04	13.48	-43.0	-45.0	17.9	0.00e+00	0	44	0	290455552	57	4562
2026-01-14 00:55:06.59	31.14	13.59	-42.9	-44.8	18.0	0.00e+00	0	43	0	296747008	57	4487
2026-01-14 00:55:07.44	31.22	13.66	-42.9	-44.8	18.0	0.00e+00	0	43	0	300941312	57	4492
2026-01-14 00:55:08.58	31.33	13.76	-42.7	-44.7	18.2	0.00e+00	0	43	0	308281344	57	4431
2026-01-14 00:55:09.43	31.40	13.84	-42.7	-44.7	18.2	0.00e+00	0	43	0	312475648	57	4415
2026-01-14 00:55:10.56	31.51	13.94	-42.7	-44.7	18.2	0.00e+00	0	43	0	318767104	57	4402
2026-01-14 00:55:11.42	31.59	14.02	-42.7	-44.6	18.2	0.00e+00	0	43	0	324009984	57	4381
2026-01-14 00:55:12.55	31.69	14.12	-42.6	-44.6	18.3	0.00e+00	0	44	0	330301440	57	4366
2026-01-14 00:55:13.41	31.77	14.20	-42.7	-44.7	18.2	0.00e+00	0	43	0	335544320	57	4416
2026-01-14 00:55:14.54	31.88	14.31	-42.6	-44.6	18.3	0.00e+00	0	44	0	341835776	57	4363
2026-01-14 00:55:15.40	31.96	14.39	-42.6	-44.5	18.4	0.00e+00	0	44	0	346030080	57	4330
2026-01-14 00:55:16.53	32.07	14.49	-42.6	-44.6	18.3	0.00e+00	0	44	0	352321536	57	4366
2026-01-14 00:55:17.38	32.15	14.57	-42.6	-44.6	18.3	0.00e+00	0	43	0	357564416	57	4375
2026-01-14 00:55:18.52	32.26	14.67	-42.7	-44.7	18.2	0.00e+00	0	44	0	363855872	57	4407
2026-01-14 00:55:19.38	32.35	14.75	-42.6	-44.6	18.3	0.00e+00	0	43	0	368050176	57	4361
2026-01-14 00:55:20.51	32.46	14.86	-42.6	-44.6	18.3	0.00e+00	0	43	0	375390208	57	4349
2026-01-14 00:55:21.36	32.54	14.94	-42.6	-44.6	18.3	0.00e+00	0	44	0	379584512	57	4365
2026-01-14 00:55:22.61	32.67	15.06	-42.7	-44.6	18.2	0.00e+00	0	43	0	386924544	57	4388
2026-01-14 00:55:23.46	32.75	15.14	-42.5	-44.5	18.4	0.00e+00	0	43	0	391118848	57	4315
2026-01-14 00:55:24.60	32.87	15.25	-42.4	-44.3	18.6	0.00e+00	0	43	0	398458880	56	4470
2026-01-14 00:55:25.45	32.95	15.33	-42.3	-44.3	18.6	0.00e+00	0	44	0	402653184	56	4444
2026-01-14 00:55:26.59	33.07	15.43	-42.3	-44.2	18.7	0.00e+00	0	43	0	408944640	56	4430
2026-01-14 00:55:27.44	33.16	15.52	-42.2	-44.2	18.7	0.00e+00	0	44	0	414187520	56	4408
2026-01-14 00:55:28.58	33.27	15.62	-42.1	-44.0	18.9	0.00e+00	0	43	0	420478976	56	4315
2026-01-14 00:55:29.43	33.36	15.71	-42.1	-44.0	18.8	0.00e+00	0	44	0	424673280	56	4327
2026-01-14 00:55:30.57	33.48	15.82	-42.0	-44.0	18.8	0.00e+00	0	44	0	432013312	56	4328
2026-01-14 00:55:31.42	33.57	15.90	-41.2	-43.9	18.6	0.00e+00	0	44	0	436207616	54	4783
2026-01-14 00:55:32.55	33.69	16.01	-40.3	-43.9	18.3	0.00e+00	0	44	0	442499072	52	5390
2026-01-14 00:55:33.41	33.78	16.09	-40.9	-44.0	18.4	0.00e+00	0	44	0	447741952	52	5403
2026-01-14 00:55:34.54	33.90	16.20	-41.7	-43.9	18.7	0.00e+00	0	44	0	454033408	53	5078
2026-01-14 00:55:35.40	33.99	16.29	-42.0	-44.0	18.7	0.00e+00	0	44	0	459276288	54	4828
2026-01-14 00:55:36.54	34.12	16.40	-42.0	-44.0	18.7	0.00e+00	0	43	0	465567744	54	4820
2026-01-14 00:55:37.39	34.21	16.48	-42.0	-44.0	18.7	0.00e+00	0	43	0	469762048	54	4844
2026-01-14 00:55:38.53	34.33	16.59	-42.1	-44.0	18.7	0.00e+00	0	44	0	476053504	54	4868
2026-01-14 00:55:39.38	34.43	16.68	-42.0	-44.0	18.7	0.00e+00	0	44	0	481296384	54	4852
2026-01-14 00:55:40.52	34.55	16.79	-42.1	-44.1	18.7	0.00e+00	0	43	0	487587840	54	4877
2026-01-14 00:55:41.37	34.65	16.88	-42.0	-44.0	18.8	0.00e+00	0	44	0	491782144	54	4824
2026-01-14 00:55:42.51	34.78	16.99	-42.0	-44.0	18.8	0.00e+00	0	43	0	499122176	54	4822
2026-01-14 00:55:43.36	34.87	17.08	-41.9	-43.9	18.9	0.00e+00	0	44	0	503316480	54	4774
2026-01-14 00:55:44.49	35.00	17.19	-41.9	-43.8	19.0	0.00e+00	0	43	0	509607936	54	4714
2026-01-14 00:55:45.35	35.10	17.28	-42.0	-43.9	18.9	0.00e+00	0	44	0	514850816	54	4775
2026-01-14 00:55:46.48	35.23	17.39	-41.8	-43.7	19.0	0.00e+00	0	44	0	521142272	54	4704
2026-01-14 00:55:47.34	35.33	17.48	-41.8	-43.7	19.0	0.00e+00	0	44	0	525336576	54	4680
2026-01-14 00:55:48.47	35.46	17.59	-41.9	-43.8	19.0	0.00e+00	0	44	0	532676608	54	4734
2026-01-14 00:55:49.33	35.56	17.68	-41.9	-43.8	19.0	0.00e+00	0	44	0	536870912	54	4736
2026-01-14 00:55:50.46	35.70	17.80	-41.8	-43.7	19.0	0.00e+00	0	44	0	543162368	54	4705
2026-01-14 00:55:51.31	35.80	17.88	-41.8	-43.7	19.1	0.00e+00	0	44	0	548405248	54	4677
2026-01-14 00:55:52.45	35.93	18.00	-41.8	-43.7	19.0	0.00e+00	0	43	0	554696704	54	4678
2026-01-14 00:55:53.30	36.04	18.09	-41.9	-43.8	18.9	0.00e+00	0	44	0	559939584	54	4726
2026-01-14 00:55:54.44	36.18	18.21	-41.9	-43.8	18.9	0.00e+00	0	44	0	565182464	54	4759
2026-01-14 00:55:55.29	36.28	18.30	-41.9	-43.8	18.9	0.00e+00	0	44	0	570425344	54	4733
2026-01-14 00:55:56.51	36.43	18.42	-41.8	-43.8	19.0	0.00e+00	0	44	0	577765376	54	4706
2026-01-14 00:55:57.36	36.53	18.51	-41.8	-43.7	19.0	0.00e+00	0	44	0	581959680	54	4688
2026-01-14 00:55:58.50	36.68	18.63	-41.8	-43.7	19.1	0.00e+00	0	44	0	588251136	54	4656
2026-01-14 00:55:59.35	36.78	18.72	-41.7	-43.6	19.2	0.00e+00	0	44	0	593494016	54	4603
2026-01-14 00:56:00.61	36.94	18.85	-41.7	-43.6	19.2	0.00e+00	0	44	0	600834048	54	4601
2026-01-14 00:56:01.41	37.04	18.94	-41.6	-43.5	19.2	0.00e+00	0	44	0	605028352	54	4592
2026-01-14 00:56:02.55	37.19	19.06	-41.7	-43.6	19.2	0.00e+00	0	44	0	611319808	54	4601
2026-01-14 00:56:03.40	37.30	19.15	-41.6	-43.5	19.3	0.00e+00	0	43	0	616562688	54	4551
2026-01-14 00:56:04.54	37.45	19.27	-41.4	-43.3	19.4	0.00e+00	0	44	0	622854144	54	4469
2026-01-14 00:56:05.39	37.56	19.36	-41.3	-43.2	19.5	0.00e+00	0	44	0	627048448	54	4408
2026-01-14 00:56:06.53	37.71	19.49	-41.4	-43.2	19.5	0.00e+00	0	44	0	633339904	54	4420
2026-01-14 00:56:07.38	37.82	19.58	-41.4	-43.2	19.5	0.00e+00	0	44	0	638582784	54	4434
2026-01-14 00:56:08.52	37.97	19.70	-41.2	-43.0	19.6	0.00e+00	0	44	0	644874240	54	4326
2026-01-14 00:56:09.37	38.09	19.79	-41.1	-43.0	19.7	0.00e+00	0	44	0	650117120	54	4303
2026-01-14 00:56:10.51	38.24	19.92	-41.3	-43.1	19.6	0.00e+00	0	44	0	656408576	54	4364
2026-01-14 00:56:11.36	38.36	20.01	-41.3	-43.1	19.6	0.00e+00	0	44	0	660602880	54	4368
2026-01-14 00:56:12.50	38.52	20.14	-41.2	-43.0	19.7	0.00e+00	0	44	0	667942912	54	4308
2026-01-14 00:56:13.35	38.63	20.23	-41.1	-43.0	19.7	0.00e+00	0	44	0	672137216	54	4297
2026-01-14 00:56:14.49	38.79	20.36	-41.2	-43.0	19.7	0.00e+00	0	44	0	678428672	54	4314
2026-01-14 00:56:15.34	38.91	20.45	-41.2	-43.0	19.7	0.00e+00	0	44	0	683671552	54	4337
2026-01-14 00:56:16.48	39.07	20.58	-41.1	-43.0	19.8	0.00e+00	0	44	0	689963008	54	4293
2026-01-14 00:56:17.33	39.19	20.67	-41.1	-42.9	19.8	0.00e+00	0	44	0	694157312	54	4246
2026-01-14 00:56:18.61	39.38	20.81	-41.1	-42.9	19.8	0.00e+00	0	44	0	701497344	54	4278
2026-01-14 00:56:19.34	39.48	20.89	-41.1	-42.9	19.8	0.00e+00	0	44	0	705691648	54	4291
2026-01-14 00:56:20.62	39.67	21.04	-41.0	-42.8	19.9	0.00e+00	0	44	0	713031680	54	4230
2026-01-14 00:56:21.34	39.77	21.12	-41.0	-42.8	19.9	0.00e+00	0	44	0	717225984	54	4231
2026-01-14 00:56:22.62	39.96	21.26	-41.1	-42.9	19.8	0.00e+00	0	44	0	724566016	54	4284
2026-01-14 00:56:23.34	40.07	21.35	-41.1	-42.9	19.8	0.00e+00	0	44	0	728760320	54	4283
2026-01-14 00:56:24.62	40.26	21.49	-41.1	-42.9	19.8	0.00e+00	0	44	0	735051776	54	4283
2026-01-14 00:56:25.35	40.37	21.57	-41.1	-42.9	19.9	0.00e+00	0	44	0	740294656	54	4247
2026-01-14 00:56:26.63	40.56	21.72	-41.2	-43.0	19.8	0.00e+00	0	44	0	746586112	54	4304
2026-01-14 00:56:27.34	40.67	21.80	-41.2	-43.0	19.8	0.00e+00	0	44	0	750780416	54	4321
2026-01-14 00:56:28.61	40.86	21.95	-41.1	-43.0	19.8	0.00e+00	0	44	0	758120448	54	4298
2026-01-14 00:56:29.34	40.98	22.03	-41.1	-42.9	19.8	0.00e+00	0	44	0	762314752	54	4284
2026-01-14 00:56:30.62	41.18	22.18	-41.1	-42.9	19.9	0.00e+00	0	44	0	769654784	54	4260
2026-01-14 00:56:31.58	41.33	22.29	-41.0	-42.8	19.9	0.00e+00	0	44	0	774897664	54	4220
2026-01-14 00:56:32.84	41.53	22.44	-40.9	-42.7	20.0	0.00e+00	0	44	0	782237696	53	4425
2026-01-14 00:56:33.66	41.66	22.53	-40.8	-42.7	20.0	0.00e+00	0	43	0	786432000	53	4392
2026-01-14 00:56:35.02	41.88	22.69	-40.6	-42.4	20.3	0.00e+00	0	44	0	793772032	53	4267
2026-01-14 00:56:35.73	41.99	22.77	-40.6	-42.4	20.3	0.00e+00	0	44	0	797966336	53	4248
2026-01-14 00:56:37.22	42.24	22.95	-40.5	-42.3	20.4	0.00e+00	0	44	0	806354944	52	4459
2026-01-14 00:56:37.93	42.35	23.03	-40.4	-42.1	20.5	0.00e+00	0	44	0	810549248	52	4383
2026-01-14 00:56:39.27	42.58	23.19	-40.4	-42.1	20.5	0.00e+00	0	44	0	817889280	52	4381
2026-01-14 00:56:39.98	42.69	23.27	-40.4	-42.1	20.5	0.00e+00	0	44	0	822083584	52	4375
2026-01-14 00:56:41.26	42.91	23.43	-40.4	-42.1	20.5	0.00e+00	0	44	0	829423616	52	4390
2026-01-14 00:56:41.97	43.03	23.51	-40.4	-42.1	20.5	0.00e+00	0	43	0	833617920	52	4368
2026-01-14 00:56:43.25	43.25	23.66	-40.3	-42.0	20.7	0.00e+00	0	44	0	840957952	52	4315
2026-01-14 00:56:44.01	43.38	23.75	-40.3	-42.0	20.6	0.00e+00	0	44	0	845152256	52	4331
2026-01-14 00:56:45.29	43.60	23.91	-40.4	-42.1	20.5	0.00e+00	0	44	0	851443712	52	4376
2026-01-14 00:56:46.00	43.73	23.99	-40.4	-42.2	20.5	0.00e+00	0	44	0	855638016	52	4405
2026-01-14 00:56:47.28	43.95	24.15	-40.5	-42.3	20.4	0.00e+00	0	44	0	862978048	52	4444
2026-01-14 00:56:47.99	44.08	24.23	-40.6	-42.3	20.4	0.00e+00	0	44	0	867172352	52	4481
2026-01-14 00:56:49.27	44.31	24.39	-40.5	-42.2	20.4	0.00e+00	0	44	0	874512384	52	4426
2026-01-14 00:56:50.00	44.44	24.48	-40.4	-42.2	20.5	0.00e+00	0	44	0	878706688	52	4424
2026-01-14 00:56:51.27	44.67	24.63	-40.5	-42.2	20.4	0.00e+00	0	44	0	884998144	52	4438
2026-01-14 00:56:52.09	44.82	24.73	-40.4	-42.2	20.5	0.00e+00	0	44	0	890241024	52	4412
2026-01-14 00:56:53.23	45.03	24.87	-40.4	-42.2	20.5	0.00e+00	0	44	0	896532480	52	4425
2026-01-14 00:56:54.29	45.23	25.00	-40.4	-42.1	20.5	0.00e+00	0	44	0	902823936	52	4388
2026-01-14 00:56:55.33	45.42	25.13	-40.4	-42.1	20.6	0.00e+00	0	44	0	908066816	52	4377
2026-01-14 00:56:56.26	45.60	25.24	-40.4	-42.1	20.5	0.00e+00	0	44	0	913309696	52	4391
2026-01-14 00:56:57.26	45.79	25.37	-40.4	-42.2	20.5	0.00e+00	0	44	0	919601152	52	4413
2026-01-14 00:56:58.25	45.98	25.49	-40.4	-42.2	20.5	0.00e+00	0	44	0	924844032	52	4413
2026-01-14 00:56:59.24	46.17	25.61	-40.5	-42.2	20.4	0.00e+00	0	44	0	930086912	52	4441
2026-01-14 00:57:00.24	46.36	25.73	-40.4	-42.1	20.5	0.00e+00	0	44	0	936378368	52	4390
2026-01-14 00:57:01.23	46.56	25.86	-40.3	-42.1	20.5	0.00e+00	0	44	0	941621248	52	4378
2026-01-14 00:57:02.23	46.75	25.98	-40.3	-42.1	20.6	0.00e+00	0	44	0	946864128	52	4360
2026-01-14 00:57:03.22	46.95	26.11	-40.3	-42.1	20.6	0.00e+00	0	44	0	953155584	52	4374
2026-01-14 00:57:04.22	47.15	26.23	-40.3	-42.1	20.6	0.00e+00	0	44	0	958398464	52	4355
2026-01-14 00:57:05.24	47.36	26.36	-40.2	-41.9	20.7	0.00e+00	0	44	0	964689920	52	4278
2026-01-14 00:57:06.27	47.57	26.49	-40.1	-41.9	20.8	0.00e+00	0	44	0	969932800	52	4258
2026-01-14 00:57:07.27	47.77	26.61	-40.2	-42.0	20.7	0.00e+00	0	44	0	975175680	52	4304
2026-01-14 00:57:08.26	47.98	26.74	-40.1	-41.9	20.8	0.00e+00	0	44	0	981467136	52	4254
2026-01-14 00:57:09.25	48.19	26.86	-40.1	-41.9	20.8	0.00e+00	0	44	0	986710016	52	4251
2026-01-14 00:57:10.25	48.40	26.99	-40.1	-41.8	20.8	0.00e+00	0	44	0	991952896	52	4220
2026-01-14 00:57:11.25	48.61	27.11	-40.1	-41.9	20.8	0.00e+00	0	44	0	998244352	52	4262
2026-01-14 00:57:12.24	48.82	27.24	-40.2	-42.0	20.7	0.00e+00	0	44	0	1003487232	52	4302
2026-01-14 00:57:13.24	49.03	27.37	-40.2	-42.0	20.7	0.00e+00	0	44	0	1008730112	52	4305
2026-01-14 00:57:14.23	49.25	27.49	-40.2	-42.0	20.7	0.00e+00	0	44	0	1015021568	52	4310
2026-01-14 00:57:15.23	49.47	27.62	-40.2	-41.9	20.8	0.00e+00	0	44	0	1020264448	52	4272
2026-01-14 00:57:16.56	49.76	27.79	-40.0	-41.7	21.0	0.00e+00	0	44	0	1027604480	51	4439
2026-01-14 00:57:17.27	49.92	27.88	-39.9	-41.7	20.7	0.00e+00	0	44	0	1031798784	51	4417
2026-01-14 00:57:18.55	50.21	28.04	-40.0	-41.8	20.7	0.00e+00	0	44	0	1039138816	51	4462
2026-01-14 00:57:19.26	50.37	28.13	-39.9	-41.7	20.8	0.00e+00	0	43	0	1043333120	51	4394
2026-01-14 00:57:20.54	50.66	28.30	-39.9	-41.7	20.7	0.00e+00	0	44	0	1049624576	51	4419
2026-01-14 00:57:21.26	50.82	28.39	-39.9	-41.7	20.7	0.00e+00	0	44	0	1053818880	51	4426
2026-01-14 00:57:22.54	51.12	28.55	-39.9	-41.7	20.7	0.00e+00	0	44	0	1061158912	51	4438
2026-01-14 00:57:23.27	51.29	28.64	-39.8	-41.6	20.8	0.00e+00	0	43	0	1065353216	51	4384
2026-01-14 00:57:24.55	51.59	28.81	-39.9	-41.7	20.8	0.00e+00	0	44	0	1072693248	51	4406
2026-01-14 00:57:25.27	51.76	28.90	-39.8	-41.6	20.8	0.00e+00	0	43	0	1076887552	51	4386
2026-01-14 00:57:26.55	52.06	29.07	-39.9	-41.7	20.8	0.00e+00	0	44	0	1084227584	51	4396
2026-01-14 00:57:27.28	52.24	29.16	-39.8	-41.6	20.8	0.00e+00	0	44	0	1088421888	51	4368
2026-01-14 00:57:28.65	52.57	29.33	-39.9	-41.6	20.8	0.00e+00	0	44	0	1095761920	51	4390
2026-01-14 00:57:29.65	52.82	29.46	-39.8	-41.6	20.8	0.00e+00	0	44	0	1101004800	51	4341
2026-01-14 00:57:30.96	53.14	29.63	-39.7	-41.5	20.9	0.00e+00	0	44	0	1108344832	51	4319
2026-01-14 00:57:31.70	53.32	29.73	-39.8	-41.6	20.8	0.00e+00	0	44	0	1112539136	51	4357
2026-01-14 00:57:32.98	53.65	29.89	-39.9	-41.7	20.7	0.00e+00	0	44	0	1119879168	51	4408
2026-01-14 00:57:33.70	53.83	29.98	-40.0	-41.8	20.7	0.00e+00	0	44	0	1124073472	51	4461
2026-01-14 00:57:34.98	54.15	30.15	-40.1	-41.9	20.6	0.00e+00	0	44	0	1131413504	51	4507
2026-01-14 00:57:35.69	54.34	30.24	-40.0	-41.8	20.7	0.00e+00	0	44	0	1135607808	51	4449
2026-01-14 00:57:36.97	54.67	30.40	-39.9	-41.7	20.8	0.00e+00	0	44	0	1142947840	51	4413
2026-01-14 00:57:37.68	54.85	30.49	-39.9	-41.7	20.8	0.00e+00	0	44	0	1146093568	51	4416
2026-01-14 00:57:38.96	55.19	30.66	-39.7	-41.4	21.0	0.00e+00	0	44	0	1153433600	51	4284
2026-01-14 00:57:39.67	55.38	30.75	-39.7	-41.4	21.0	0.00e+00	0	44	0	1157627904	51	4290
2026-01-14 00:57:40.95	55.72	30.91	-39.5	-41.2	21.2	0.00e+00	0	44	0	1164967936	51	4186
2026-01-14 00:57:41.67	55.91	31.01	-39.5	-41.2	21.2	0.00e+00	0	44	0	1169162240	50	4422
2026-01-14 00:57:42.95	56.26	31.17	-39.6	-41.4	21.0	0.00e+00	0	44	0	1176502272	50	4502
2026-01-14 00:57:43.66	56.45	31.26	-39.7	-41.5	20.9	0.00e+00	0	44	0	1180696576	50	4560
2026-01-14 00:57:45.15	56.87	31.45	-39.7	-41.5	21.0	0.00e+00	0	44	0	1189085184	50	4546
2026-01-14 00:57:45.86	57.06	31.54	-39.6	-41.4	21.0	0.00e+00	0	44	0	1192230912	50	4516
2026-01-14 00:57:47.16	57.43	31.71	-39.5	-41.3	21.1	0.00e+00	0	43	0	1199570944	50	4447
2026-01-14 00:57:47.88	57.63	31.80	-39.4	-41.2	21.1	0.00e+00	0	44	0	1203765248	50	4416
2026-01-14 00:57:49.22	58.01	31.97	-39.6	-41.4	21.0	0.00e+00	0	44	0	1211105280	50	4497
2026-01-14 00:57:49.93	58.22	32.06	-39.7	-41.5	20.9	0.00e+00	0	44	0	1215299584	50	4574
2026-01-14 00:57:51.26	58.60	32.23	-39.8	-41.6	20.8	0.00e+00	0	44	0	1222639616	50	4609
2026-01-14 00:57:51.97	58.81	32.32	-39.8	-41.6	20.8	0.00e+00	0	44	0	1226833920	50	4605
2026-01-14 00:57:53.25	59.18	32.48	-39.9	-41.7	20.8	0.00e+00	0	44	0	1234173952	50	4661
2026-01-14 00:57:53.97	59.40	32.57	-39.9	-41.8	20.7	0.00e+00	0	44	0	1238368256	50	4711
2026-01-14 00:57:55.26	59.78	32.73	-39.7	-41.5	20.9	0.00e+00	0	44	0	1245708288	50	4583
2026-01-14 00:57:55.98	60.00	32.82	-39.7	-41.5	20.9	0.00e+00	0	44	0	1249902592	50	4578
2026-01-14 00:57:57.26	60.39	32.98	-39.7	-41.5	20.9	0.00e+00	0	44	0	1257242624	50	4573
2026-01-14 00:57:57.99	60.61	33.07	-39.7	-41.5	20.9	0.00e+00	0	44	0	1260388352	50	4562
2026-01-14 00:57:59.26	61.00	33.23	-39.8	-41.6	20.9	0.00e+00	0	44	0	1267728384	50	4601
2026-01-14 00:58:00.01	61.23	33.32	-39.7	-41.5	20.9	0.00e+00	0	44	0	1271922688	50	4568
2026-01-14 00:58:01.29	61.63	33.48	-39.7	-41.4	20.9	0.00e+00	0	44	0	1279262720	50	4540
2026-01-14 00:58:02.08	61.88	33.57	-39.8	-41.5	20.8	0.00e+00	0	44	0	1283457024	50	4598
2026-01-14 00:58:03.56	62.35	33.75	-39.8	-41.5	20.9	0.00e+00	0	44	0	1291845632	50	4595
2026-01-14 00:58:04.27	62.58	33.84	-39.7	-41.5	20.9	0.00e+00	0	44	0	1296039936	50	4585
2026-01-14 00:58:05.72	63.04	34.01	-39.5	-41.3	21.1	0.00e+00	0	44	0	1304428544	50	4463
2026-01-14 00:58:06.43	63.27	34.10	-39.6	-41.4	21.0	0.00e+00	0	44	0	1308622848	50	4515
2026-01-14 00:58:07.71	63.69	34.25	-39.5	-41.3	21.1	0.00e+00	0	43	0	1315962880	50	4454
2026-01-14 00:58:08.44	63.93	34.34	-39.6	-41.4	21.1	0.00e+00	0	44	0	1319108608	50	4494
2026-01-14 00:58:09.72	64.36	34.49	-39.5	-41.3	21.1	0.00e+00	0	44	0	1326448640	50	4461
2026-01-14 00:58:10.43	64.60	34.58	-39.7	-41.4	21.0	0.00e+00	0	44	0	1330642944	50	4542
2026-01-14 00:58:11.71	65.03	34.73	-39.8	-41.6	20.9	0.00e+00	0	44	0	1337982976	50	4599
2026-01-14 00:58:12.42	65.27	34.81	-39.7	-41.5	20.9	0.00e+00	0	44	0	1342177280	50	4581
2026-01-14 00:58:13.70	65.70	34.96	-39.6	-41.4	21.0	0.00e+00	0	44	0	1349517312	50	4516
2026-01-14 00:58:14.42	65.95	35.04	-39.5	-41.3	21.1	0.00e+00	0	44	0	1352663040	50	4465
2026-01-14 00:58:15.70	66.40	35.19	-39.5	-41.3	21.1	0.00e+00	0	44	0	1360003072	50	4469
2026-01-14 00:58:16.43	66.65	35.27	-39.6	-41.3	21.1	0.00e+00	0	44	0	1364197376	50	4482
2026-01-14 00:58:17.71	67.10	35.42	-39.5	-41.2	21.1	0.00e+00	0	44	0	1371537408	50	4434
2026-01-14 00:58:18.43	67.35	35.50	-39.5	-41.3	21.0	0.00e+00	0	44	0	1375731712	50	4472
2026-01-14 00:58:19.71	67.81	35.64	-39.8	-41.6	20.8	0.00e+00	0	44	0	1383071744	50	4611
2026-01-14 00:58:20.58	68.12	35.74	-39.7	-41.5	20.9	0.00e+00	0	44	0	1387266048	50	4580
2026-01-14 00:58:21.72	68.53	35.86	-39.6	-41.4	21.0	0.00e+00	0	44	0	1394606080	50	4538
2026-01-14 00:58:22.76	68.91	35.98	-39.6	-41.3	21.1	0.00e+00	0	44	0	1399848960	50	4487
2026-01-14 00:58:23.72	69.26	36.08	-39.6	-41.4	21.0	0.00e+00	0	44	0	1405091840	50	4503
2026-01-14 00:58:24.94	69.71	36.21	-39.8	-41.6	20.9	0.00e+00	0	44	0	1412431872	50	4611
2026-01-14 00:58:25.85	70.05	36.31	-39.6	-41.3	21.1	0.00e+00	0	44	0	1417674752	50	4491
2026-01-14 00:58:26.86	70.43	36.41	-39.8	-41.6	20.9	0.00e+00	0	44	0	1422917632	50	4608
2026-01-14 00:58:27.86	70.81	36.52	-39.7	-41.5	21.0	0.00e+00	0	44	0	1429209088	50	4556
2026-01-14 00:58:28.85	71.18	36.62	-39.6	-41.4	21.1	0.00e+00	0	44	0	1434451968	50	4504
2026-01-14 00:58:29.85	71.56	36.72	-39.6	-41.4	21.1	0.00e+00	0	44	0	1439694848	50	4499
2026-01-14 00:58:30.84	71.94	36.82	-39.4	-41.2	21.2	0.00e+00	0	44	0	1445986304	50	4428
2026-01-14 00:58:31.84	72.33	36.92	-39.4	-41.1	21.3	0.00e+00	0	44	0	1451229184	50	4378
2026-01-14 00:58:32.83	72.71	37.02	-39.4	-41.2	21.2	0.00e+00	0	44	0	1456472064	50	4398
2026-01-14 00:58:33.83	73.10	37.12	-39.3	-41.1	21.3	0.00e+00	0	44	0	1462763520	50	4361
2026-01-14 00:58:34.82	73.49	37.21	-39.4	-41.1	21.3	0.00e+00	0	44	0	1468006400	50	4380
2026-01-14 00:58:35.83	73.89	37.31	-39.4	-41.2	21.2	0.00e+00	0	44	0	1473249280	50	4420
2026-01-14 00:58:36.84	74.29	37.40	-39.4	-41.2	21.2	0.00e+00	0	44	0	1479540736	50	4399
2026-01-14 00:58:37.84	74.69	37.50	-39.3	-41.0	21.4	0.00e+00	0	44	0	1484783616	50	4317
2026-01-14 00:58:38.83	75.09	37.59	-39.3	-41.1	21.3	0.00e+00	0	44	0	1490026496	50	4353
2026-01-14 00:58:39.83	75.49	37.68	-39.4	-41.2	21.2	0.00e+00	0	44	0	1496317952	50	4393
2026-01-14 00:58:40.82	75.89	37.76	-39.6	-41.4	21.1	0.00e+00	0	44	0	1501560832	50	4501
2026-01-14 00:58:41.81	76.30	37.85	-39.5	-41.3	21.1	0.00e+00	0	44	0	1506803712	50	4483
2026-01-14 00:58:42.81	76.71	37.94	-39.5	-41.2	21.1	0.00e+00	0	44	0	1513095168	50	4441
2026-01-14 00:58:43.80	77.11	38.02	-39.3	-41.1	21.3	0.00e+00	0	44	0	1518338048	50	4347
2026-01-14 00:58:44.80	77.53	38.10	-39.1	-40.8	21.5	0.00e+00	0	44	0	1524629504	50	4219
2026-01-14 00:58:45.79	77.94	38.19	-39.2	-41.0	21.3	0.00e+00	0	44	0	1529872384	50	4309
2026-01-14 00:58:46.79	78.36	38.27	-39.4	-41.1	21.2	0.00e+00	0	44	0	1535115264	50	4387
2026-01-14 00:58:47.78	78.78	38.34	-39.3	-41.1	21.3	0.00e+00	0	44	0	1540358144	50	4345
2026-01-14 00:58:48.78	79.20	38.42	-39.3	-41.0	21.3	0.00e+00	0	44	0	1546649600	50	4334
2026-01-14 00:58:49.77	79.62	38.50	-39.3	-41.1	21.2	0.00e+00	0	44	0	1551892480	50	4370
2026-01-14 00:58:50.76	80.04	38.57	-39.4	-41.2	21.2	0.00e+00	0	44	0	1557135360	50	4404
2026-01-14 00:58:51.76	80.47	38.64	-39.5	-41.3	21.1	0.00e+00	0	44	0	1563426816	50	4458
2026-01-14 00:58:52.85	80.94	38.72	-39.3	-41.1	21.3	0.00e+00	0	44	0	1569718272	50	4372
2026-01-14 00:58:53.73	81.32	38.78	-39.3	-41.1	21.3	0.00e+00	0	44	0	1573912576	50	4351
2026-01-14 00:58:55.04	81.89	38.87	-39.2	-40.9	21.4	0.00e+00	0	44	0	1582301184	50	4273
2026-01-14 00:58:55.75	82.20	38.92	-39.2	-40.9	21.4	0.00e+00	0	44	0	1585446912	50	4277
2026-01-14 00:58:57.23	82.85	39.01	-39.3	-41.1	21.3	0.00e+00	0	44	0	1593835520	50	4373
2026-01-14 00:58:57.95	83.16	39.06	-39.4	-41.2	21.2	0.00e+00	0	44	0	1598029824	50	4401
2026-01-14 00:58:59.23	83.73	39.13	-39.3	-41.1	21.2	0.00e+00	0	44	0	1605369856	50	4380
2026-01-14 00:58:59.95	84.05	39.17	-39.3	-41.1	21.3	0.00e+00	0	44	0	1609564160	50	4356
2026-01-14 00:59:01.23	84.62	39.25	-39.3	-41.1	21.3	0.00e+00	0	44	0	1616904192	50	4354
2026-01-14 00:59:01.95	84.94	39.29	-39.2	-41.0	21.3	0.00e+00	0	44	0	1621098496	50	4309
2026-01-14 00:59:03.23	85.51	39.35	-39.3	-41.0	21.3	0.00e+00	0	44	0	1627389952	50	4334
2026-01-14 00:59:03.95	85.83	39.39	-39.2	-41.0	21.4	0.00e+00	0	44	0	1631584256	50	4297
2026-01-14 00:59:05.23	86.41	39.45	-39.1	-40.9	21.4	0.00e+00	0	44	0	1638924288	50	4272
2026-01-14 00:59:05.94	86.73	39.49	-39.1	-40.9	21.4	0.00e+00	0	44	0	1643118592	50	4253
2026-01-14 00:59:07.22	87.31	39.55	-39.2	-41.0	21.3	0.00e+00	0	44	0	1650458624	50	4322
2026-01-14 00:59:07.95	87.64	39.58	-39.4	-41.1	21.2	0.00e+00	0	44	0	1654652928	50	4378
2026-01-14 00:59:09.22	88.22	39.63	-39.6	-41.4	21.0	0.00e+00	0	44	0	1660944384	50	4507
2026-01-14 00:59:09.93	88.55	39.66	-39.6	-41.4	21.0	0.00e+00	0	44	0	1665138688	50	4545
2026-01-14 00:59:11.21	89.13	39.71	-39.5	-41.3	21.1	0.00e+00	0	44	0	1672478720	50	4451
2026-01-14 00:59:11.94	89.47	39.73	-39.4	-41.2	21.2	0.00e+00	0	44	0	1676673024	50	4433
2026-01-14 00:59:13.22	90.05	39.78	-39.6	-41.3	21.1	0.00e+00	0	44	0	1684013056	50	4493
2026-01-14 00:59:13.93	90.38	39.80	-39.7	-41.5	20.9	0.00e+00	0	44	0	1688207360	50	4573
2026-01-14 00:59:15.21	90.97	39.84	-39.6	-41.3	21.1	0.00e+00	0	44	0	1695547392	50	4485
2026-01-14 00:59:15.91	91.30	39.86	-39.7	-41.5	21.0	0.00e+00	0	44	0	1698693120	50	4548
2026-01-14 00:59:17.19	91.89	39.89	-39.5	-41.3	21.1	0.00e+00	0	44	0	1706033152	50	4448
2026-01-14 00:59:17.92	92.23	39.91	-39.5	-41.3	21.1	0.00e+00	0	44	0	1710227456	50	4447
2026-01-14 00:59:19.20	92.82	39.94	-39.4	-41.2	21.1	0.00e+00	0	44	0	1717567488	50	4424
2026-01-14 00:59:19.91	93.15	39.95	-39.5	-41.2	21.2	0.00e+00	0	44	0	1721761792	50	4423
2026-01-14 00:59:21.19	93.75	39.97	-39.6	-41.3	21.1	0.00e+00	0	44	0	1729101824	50	4476
2026-01-14 00:59:21.91	94.08	39.98	-39.6	-41.4	21.0	0.00e+00	0	44	0	1733296128	50	4515
2026-01-14 00:59:23.19	94.68	40.00	-39.7	-41.5	21.0	0.00e+00	0	44	0	1740636160	50	4563
2026-01-14 00:59:23.92	95.02	40.01	-39.8	-41.5	20.9	0.00e+00	0	44	0	1743781888	50	4592
2026-01-14 00:59:25.20	95.62	40.02	-39.7	-41.5	21.0	0.00e+00	0	44	0	1751121920	50	4559
2026-01-14 00:59:25.92	95.96	40.03	-39.6	-41.4	21.1	0.00e+00	0	44	0	1755316224	50	4494
2026-01-14 00:59:27.20	96.56	40.03	-39.6	-41.4	21.0	0.00e+00	0	44	0	1762656256	50	4524
2026-01-14 00:59:27.94	96.90	40.03	-39.6	-41.3	21.1	0.00e+00	0	44	0	1766850560	50	4488
2026-01-14 00:59:29.22	97.50	40.03	-39.7	-41.5	21.0	0.00e+00	0	44	0	1774190592	50	4555
2026-01-14 00:59:30.11	97.92	40.03	-39.5	-41.3	21.0	0.00e+00	0	44	0	1779433472	50	4485
2026-01-14 00:59:31.25	98.45	40.03	-39.5	-41.2	21.1	0.00e+00	0	44	0	1785724928	50	4441
2026-01-14 00:59:32.10	98.85	40.02	-39.6	-41.4	21.0	0.00e+00	0	44	0	1789919232	50	4506
2026-01-14 00:59:33.60	99.55	40.01	-39.7	-41.5	20.9	0.00e+00	0	44	0	1798307840	50	4562
2026-01-14 00:59:34.31	99.88	40.00	-39.6	-41.4	21.0	0.00e+00	0	44	0	1802502144	50	4520
2026-01-14 00:59:35.59	100.48	39.99	-39.5	-41.3	21.1	0.00e+00	0	44	0	1809842176	50	4467
2026-01-14 00:59:36.30	100.81	39.98	-39.6	-41.3	21.1	0.00e+00	0	44	0	1814036480	50	4488
2026-01-14 00:59:37.85	101.53	39.95	-39.5	-41.2	21.2	0.00e+00	0	44	0	1822425088	50	4439
2026-01-14 00:59:38.55	101.86	39.94	-39.5	-41.2	21.2	0.00e+00	0	44	0	1826619392	50	4439
2026-01-14 00:59:39.85	102.46	39.91	-39.6	-41.4	21.0	0.00e+00	0	44	0	1833959424	50	4528
2026-01-14 00:59:40.56	102.79	39.89	-39.6	-41.5	21.0	0.00e+00	0	44	0	1838153728	50	4549
2026-01-14 00:59:41.83	103.38	39.86	-39.7	-41.5	20.9	0.00e+00	0	44	0	1844445184	50	4592
2026-01-14 00:59:42.55	103.72	39.84	-39.7	-41.5	20.9	0.00e+00	0	44	0	1848639488	50	4596
2026-01-14 00:59:43.83	104.31	39.80	-39.8	-41.6	20.8	0.00e+00	0	44	0	1855979520	50	4626
2026-01-14 00:59:44.54	104.63	39.78	-39.8	-41.6	20.8	0.00e+00	0	44	0	1860173824	50	4629
2026-01-14 00:59:45.81	105.22	39.74	-39.9	-41.7	20.8	0.00e+00	0	44	0	1867513856	50	4652
2026-01-14 00:59:46.53	105.55	39.71	-39.6	-41.4	21.0	0.00e+00	0	44	0	1871708160	50	4506
2026-01-14 00:59:47.80	106.13	39.66	-39.4	-41.1	21.2	0.00e+00	0	44	0	1879048192	50	4382
2026-01-14 00:59:48.52	106.46	39.64	-39.4	-41.1	21.2	0.00e+00	0	44	0	1882193920	50	4386
2026-01-14 00:59:49.79	107.04	39.58	-39.4	-41.1	21.3	0.00e+00	0	44	0	1889533952	50	4370
2026-01-14 00:59:50.71	107.46	39.54	-39.5	-41.2	21.2	0.00e+00	0	44	0	1894776832	50	4418
2026-01-14 00:59:51.99	108.04	39.48	-39.5	-41.3	21.1	0.00e+00	0	44	0	1902116864	50	4452
2026-01-14 00:59:52.71	108.37	39.45	-39.6	-41.3	21.1	0.00e+00	0	44	0	1906311168	50	4488
2026-01-14 00:59:53.99	108.94	39.39	-39.5	-41.3	21.1	0.00e+00	0	44	0	1913651200	50	4449
2026-01-14 00:59:54.72	109.27	39.35	-39.4	-41.2	21.2	0.00e+00	0	44	0	1917845504	50	4416
2026-01-14 00:59:56.00	109.84	39.28	-39.5	-41.3	21.1	0.00e+00	0	44	0	1925185536	50	4462
2026-01-14 00:59:56.72	110.17	39.24	-39.3	-41.1	21.3	0.00e+00	0	44	0	1928331264	50	4355
2026-01-14 00:59:58.00	110.74	39.17	-39.4	-41.2	21.2	0.00e+00	0	44	0	1935671296	50	4413
2026-01-14 00:59:58.72	111.06	39.13	-39.6	-41.3	21.0	0.00e+00	0	44	0	1939865600	50	4493
2026-01-14 01:00:00.00	111.62	39.05	-39.5	-41.3	21.1	0.00e+00	0	44	0	1947205632	50	4458
2026-01-14 01:00:00.73	111.94	39.00	-39.5	-41.3	21.1	0.00e+00	0	44	0	1951399936	50	4472
2026-01-14 01:00:02.01	112.50	38.92	-39.7	-41.4	21.0	0.00e+00	0	44	0	1958739968	50	4518
2026-01-14 01:00:02.73	112.82	38.87	-39.7	-41.4	21.0	0.00e+00	0	44	0	1961885696	50	4533
2026-01-14 01:00:04.01	113.38	38.79	-39.9	-41.6	20.8	0.00e+00	0	44	0	1969225728	50	4651
2026-01-14 01:00:04.72	113.68	38.74	-39.8	-41.6	20.9	0.00e+00	0	44	0	1973420032	50	4609
2026-01-14 01:00:06.25	114.34	38.63	-39.5	-41.3	21.1	0.00e+00	0	44	0	1982857216	50	4458
2026-01-14 01:00:06.96	114.65	38.58	-39.5	-41.2	21.2	0.00e+00	0	44	0	1986002944	50	4436
2026-01-14 01:00:08.24	115.20	38.48	-39.3	-41.0	21.3	0.00e+00	0	44	0	1993342976	50	4326
2026-01-14 01:00:08.98	115.51	38.42	-39.3	-41.0	21.3	0.00e+00	0	44	0	1997537280	50	4311
2026-01-14 01:00:10.26	116.05	38.33	-39.4	-41.2	21.2	0.00e+00	0	44	0	2004877312	50	4407
2026-01-14 01:00:10.97	116.35	38.27	-39.5	-41.3	21.0	0.00e+00	0	44	0	2009071616	50	4476
2026-01-14 01:00:12.25	116.89	38.17	-39.6	-41.4	21.0	0.00e+00	0	44	0	2016411648	50	4526
2026-01-14 01:00:12.96	117.19	38.11	-39.6	-41.4	21.0	0.00e+00	0	44	0	2019557376	50	4496
2026-01-14 01:00:14.24	117.72	38.00	-39.7	-41.4	21.0	0.00e+00	0	44	0	2026897408	50	4536
2026-01-14 01:00:14.98	118.02	37.94	-39.6	-41.4	21.0	0.00e+00	0	44	0	2031091712	50	4535
2026-01-14 01:00:16.26	118.55	37.83	-39.6	-41.4	21.0	0.00e+00	0	44	0	2038431744	50	4514
2026-01-14 01:00:17.05	118.87	37.76	-39.6	-41.4	21.0	0.00e+00	0	44	0	2042626048	50	4541
2026-01-14 01:00:18.25	119.36	37.65	-39.5	-41.3	21.1	0.00e+00	0	44	0	2049966080	50	4474
2026-01-14 01:00:19.10	119.70	37.57	-39.5	-41.3	21.1	0.00e+00	0	44	0	2054160384	50	4466
2026-01-14 01:00:20.23	120.16	37.47	-39.5	-41.3	21.1	0.00e+00	0	44	0	2060451840	50	4459
2026-01-14 01:00:21.29	120.58	37.37	-39.5	-41.2	21.1	0.00e+00	0	44	0	2066743296	50	4436
2026-01-14 01:00:22.33	121.00	37.27	-39.4	-41.2	21.2	0.00e+00	0	44	0	2073034752	50	4421
2026-01-14 01:00:23.49	121.45	37.16	-39.5	-41.3	21.1	0.00e+00	0	44	0	2079326208	50	4450
2026-01-14 01:00:24.34	121.79	37.08	-39.6	-41.3	21.0	0.00e+00	0	44	0	2083520512	50	4490
2026-01-14 01:00:25.47	122.23	36.97	-39.7	-41.4	21.0	0.00e+00	0	44	0	2090860544	50	4539
2026-01-14 01:00:26.33	122.56	36.88	-39.8	-41.5	20.9	0.00e+00	0	44	0	2095054848	50	4595
2026-01-14 01:00:27.46	123.00	36.77	-39.6	-41.4	21.0	0.00e+00	0	44	0	2101346304	50	4526
2026-01-14 01:00:28.31	123.32	36.68	-39.6	-41.4	21.0	0.00e+00	0	44	0	2106589184	50	4522
2026-01-14 01:00:29.45	123.76	36.56	-39.6	-41.4	21.0	0.00e+00	0	44	0	2112880640	50	4502
2026-01-14 01:00:30.30	124.08	36.47	-39.6	-41.3	21.1	0.00e+00	0	44	0	2118123520	50	4491
2026-01-14 01:00:31.44	124.51	36.35	-39.6	-41.4	21.1	0.00e+00	0	44	0	2124414976	50	4494
2026-01-14 01:00:32.29	124.83	36.26	-39.5	-41.3	21.1	0.00e+00	0	44	0	2128609280	50	4453
2026-01-14 01:00:33.43	125.25	36.14	-39.4	-41.2	21.1	0.00e+00	0	44	0	2134900736	50	4415
2026-01-14 01:00:34.28	125.56	36.05	-39.4	-41.2	21.0	0.00e+00	0	44	0	2140143616	50	4424
2026-01-14 01:00:35.42	125.98	35.93	-39.1	-40.9	21.1	0.00e+00	0	44	0	2146435072	50	4259
2026-01-14 01:00:36.27	126.29	35.83	-39.0	-40.8	21.2	0.00e+00	0	44	0	2150629376	50	4207
2026-01-14 01:00:37.41	126.70	35.71	-39.1	-40.8	21.1	0.00e+00	0	44	0	2157969408	50	4236
2026-01-14 01:00:38.26	127.01	35.61	-39.0	-40.8	21.1	0.00e+00	0	44	0	2162163712	50	4218
2026-01-14 01:00:39.52	127.46	35.47	-39.2	-41.0	20.9	0.00e+00	0	44	0	2169503744	50	4312
2026-01-14 01:00:40.32	127.74	35.38	-39.2	-41.1	20.8	0.00e+00	0	44	0	2173698048	50	4356
2026-01-14 01:00:41.46	128.14	35.25	-39.0	-40.8	20.9	0.00e+00	0	44	0	2179989504	50	4241
2026-01-14 01:00:42.31	128.44	35.15	-38.9	-40.7	21.0	0.00e+00	0	44	0	2185232384	49	4420
2026-01-14 01:00:43.64	128.90	35.00	-39.0	-40.7	20.9	0.00e+00	0	44	0	2192572416	49	4435
2026-01-14 01:00:44.35	129.15	34.92	-39.1	-40.8	20.9	0.00e+00	0	44	0	2196766720	49	4483
2026-01-14 01:00:45.63	129.58	34.77	-38.9	-40.7	20.9	0.00e+00	0	44	0	2204106752	49	4420
2026-01-14 01:00:46.34	129.83	34.68	-38.8	-40.6	21.0	0.00e+00	0	44	0	2207252480	49	4355
2026-01-14 01:00:47.62	130.26	34.53	-38.9	-40.7	21.0	0.00e+00	0	44	0	2214592512	49	4395
2026-01-14 01:00:48.33	130.50	34.45	-38.9	-40.6	21.0	0.00e+00	0	44	0	2218786816	49	4391
2026-01-14 01:00:49.61	130.92	34.29	-38.8	-40.6	21.0	0.00e+00	0	44	0	2226126848	49	4371
2026-01-14 01:00:50.48	131.21	34.19	-38.9	-40.7	20.9	0.00e+00	0	44	0	2231369728	49	4410
2026-01-14 01:00:51.61	131.58	34.05	-39.0	-40.8	20.8	0.00e+00	0	44	0	2237661184	49	4470
2026-01-14 01:00:52.47	131.86	33.95	-39.1	-40.9	20.7	0.00e+00	0	44	0	2241855488	49	4505
2026-01-14 01:00:53.60	132.22	33.81	-38.9	-40.7	20.8	0.00e+00	0	44	0	2249195520	49	4441
2026-01-14 01:00:54.46	132.50	33.70	-39.0	-40.8	20.8	0.00e+00	0	44	0	2253389824	49	4454
2026-01-14 01:00:55.59	132.86	33.57	-39.1	-41.0	20.6	0.00e+00	0	44	0	2259681280	49	4553
2026-01-14 01:00:56.78	133.23	33.42	-39.1	-41.0	20.6	0.00e+00	0	44	0	2265972736	49	4569
2026-01-14 01:00:57.84	133.56	33.29	-39.0	-40.9	20.7	0.00e+00	0	44	0	2272264192	49	4516
2026-01-14 01:00:58.72	133.84	33.18	-38.9	-40.7	20.8	0.00e+00	0	44	0	2277507072	49	4433
2026-01-14 01:00:59.85	134.19	33.04	-38.9	-40.7	20.8	0.00e+00	0	44	0	2283798528	49	4421
2026-01-14 01:01:00.71	134.45	32.93	-39.0	-40.9	20.7	0.00e+00	0	44	0	2289041408	49	4498
2026-01-14 01:01:01.84	134.79	32.79	-38.9	-40.7	20.8	0.00e+00	0	44	0	2295332864	49	4421
2026-01-14 01:01:02.70	135.05	32.68	-38.9	-40.7	20.8	0.00e+00	0	44	0	2299527168	49	4422
2026-01-14 01:01:03.83	135.39	32.54	-38.9	-40.7	20.8	0.00e+00	0	44	0	2305818624	49	4430
2026-01-14 01:01:04.69	135.64	32.43	-38.9	-40.7	20.8	0.00e+00	0	44	0	2311061504	49	4412
2026-01-14 01:01:05.89	136.00	32.28	-38.7	-40.5	20.9	0.00e+00	0	44	0	2317352960	49	4293
2026-01-14 01:01:06.74	136.25	32.17	-38.7	-40.4	21.0	0.00e+00	0	44	0	2322595840	49	4288
2026-01-14 01:01:07.94	136.59	32.02	-38.7	-40.5	20.9	0.00e+00	0	44	0	2328887296	49	4313
2026-01-14 01:01:08.79	136.84	31.91	-38.7	-40.5	20.9	0.00e+00	0	44	0	2334130176	49	4330
2026-01-14 01:01:09.93	137.16	31.76	-38.7	-40.5	20.9	0.00e+00	0	44	0	2340421632	49	4333
2026-01-14 01:01:10.78	137.40	31.65	-38.9	-40.7	20.7	0.00e+00	0	44	0	2345664512	49	4408
2026-01-14 01:01:12.03	137.76	31.49	-39.0	-40.8	20.6	0.00e+00	0	44	0	2351955968	49	4483
2026-01-14 01:01:12.88	137.99	31.39	-39.0	-40.9	20.6	0.00e+00	0	44	0	2357198848	49	4494
2026-01-14 01:01:14.08	138.32	31.23	-39.1	-41.0	20.5	0.00e+00	0	44	0	2363490304	49	4551
2026-01-14 01:01:15.34	138.67	31.07	-39.1	-40.9	20.5	0.00e+00	0	44	0	2370830336	49	4539
2026-01-14 01:01:16.14	138.89	30.97	-39.1	-40.9	20.5	0.00e+00	0	44	0	2375024640	49	4518
2026-01-14 01:01:17.28	139.19	30.82	-39.0	-40.8	20.6	0.00e+00	0	44	0	2381316096	49	4488
2026-01-14 01:01:18.13	139.42	30.71	-38.9	-40.7	20.7	0.00e+00	0	44	0	2386558976	49	4433
2026-01-14 01:01:19.27	139.72	30.56	-38.8	-40.6	20.7	0.00e+00	0	44	0	2392850432	49	4381
2026-01-14 01:01:20.12	139.95	30.45	-38.9	-40.7	20.7	0.00e+00	0	44	0	2398093312	49	4418
2026-01-14 01:01:21.30	140.26	30.30	-39.0	-40.8	20.6	0.00e+00	0	44	0	2404384768	49	4478
2026-01-14 01:01:22.15	140.48	30.19	-39.1	-41.0	20.4	0.00e+00	0	44	0	2409627648	49	4571
2026-01-14 01:01:23.29	140.77	30.04	-39.3	-41.1	20.3	0.00e+00	0	44	0	2415919104	49	4643
2026-01-14 01:01:24.14	140.99	29.93	-39.3	-41.2	20.3	0.00e+00	0	44	0	2420113408	49	4660
2026-01-14 01:01:25.41	141.31	29.77	-39.4	-41.3	20.2	0.00e+00	0	44	0	2427453440	49	4709
2026-01-14 01:01:26.18	141.50	29.67	-39.2	-41.1	20.3	0.00e+00	0	44	0	2431647744	49	4613
2026-01-14 01:01:27.60	141.85	29.48	-39.1	-41.0	20.4	0.00e+00	0	44	0	2440036352	49	4555
2026-01-14 01:01:28.31	142.03	29.39	-39.2	-41.0	20.4	0.00e+00	0	44	0	2444230656	49	4568
2026-01-14 01:01:29.65	142.36	29.22	-39.1	-40.9	20.4	0.00e+00	0	44	0	2451570688	49	4531
2026-01-14 01:01:30.36	142.53	29.13	-39.1	-40.9	20.4	0.00e+00	0	44	0	2455764992	49	4533
2026-01-14 01:01:31.72	142.86	28.95	-39.1	-41.0	20.4	0.00e+00	0	44	0	2463105024	49	4556
2026-01-14 01:01:32.43	143.03	28.86	-39.1	-41.0	20.4	0.00e+00	0	44	0	2467299328	49	4559
2026-01-14 01:01:33.77	143.34	28.69	-39.2	-41.1	20.3	0.00e+00	0	44	0	2474639360	49	4620
2026-01-14 01:01:34.48	143.51	28.60	-39.1	-41.0	20.4	0.00e+00	0	44	0	2478833664	49	4578
2026-01-14 01:01:35.76	143.81	28.43	-39.2	-41.0	20.3	0.00e+00	0	44	0	2486173696	49	4590
2026-01-14 01:01:36.49	143.98	28.34	-39.2	-41.0	20.3	0.00e+00	0	44	0	2490368000	49	4588
2026-01-14 01:01:37.77	144.27	28.17	-39.2	-41.0	20.3	0.00e+00	0	44	0	2496659456	49	4579
2026-01-14 01:01:38.48	144.43	28.08	-39.2	-41.0	20.4	0.00e+00	0	44	0	2500853760	49	4577
2026-01-14 01:01:39.76	144.72	27.92	-39.0	-40.8	20.5	0.00e+00	0	44	0	2508193792	49	4487
2026-01-14 01:01:40.48	144.88	27.82	-39.0	-40.9	20.5	0.00e+00	0	44	0	2512388096	49	4501
2026-01-14 01:01:41.76	145.17	27.66	-39.1	-40.9	20.4	0.00e+00	0	44	0	2519728128	49	4517
2026-01-14 01:01:42.49	145.33	27.57	-39.1	-41.0	20.3	0.00e+00	0	44	0	2523922432	49	4584
2026-01-14 01:01:43.77	145.61	27.40	-39.1	-41.0	20.4	0.00e+00	0	44	0	2531262464	49	4564
2026-01-14 01:01:44.48	145.76	27.31	-39.2	-41.0	20.3	0.00e+00	0	44	0	2534408192	49	4586
2026-01-14 01:01:45.76	146.04	27.15	-39.1	-41.0	20.4	0.00e+00	0	44	0	2541748224	49	4552
2026-01-14 01:01:46.61	146.22	27.04	-39.2	-41.0	20.3	0.00e+00	0	44	0	2546991104	49	4598
2026-01-14 01:01:47.75	146.46	26.90	-39.1	-40.9	20.4	0.00e+00	0	44	0	2553282560	49	4534
2026-01-14 01:01:48.60	146.64	26.79	-39.1	-40.9	20.4	0.00e+00	0	44	0	2558525440	49	4542
2026-01-14 01:01:50.10	146.96	26.60	-39.1	-40.9	20.4	0.00e+00	0	44	0	2566914048	49	4514
2026-01-14 01:01:50.81	147.10	26.51	-39.2	-41.0	20.3	0.00e+00	0	44	0	2570059776	49	4570
2026-01-14 01:01:52.30	147.41	26.32	-38.9	-40.7	20.5	0.00e+00	0	44	0	2578448384	49	4437
2026-01-14 01:01:53.01	147.55	26.23	-38.9	-40.7	20.5	0.00e+00	0	44	0	2582642688	49	4418
2026-01-14 01:01:54.28	147.81	26.07	-39.0	-40.8	20.5	0.00e+00	0	44	0	2589982720	49	4459
2026-01-14 01:01:55.01	147.96	25.98	-39.0	-40.9	20.4	0.00e+00	0	44	0	2594177024	49	4501
2026-01-14 01:01:56.29	148.21	25.82	-39.1	-41.0	20.3	0.00e+00	0	44	0	2601517056	49	4591
2026-01-14 01:01:57.00	148.35	25.73	-39.2	-41.1	20.2	0.00e+00	0	44	0	2605711360	49	4638
2026-01-14 01:01:58.28	148.60	25.57	-39.3	-41.2	20.2	0.00e+00	0	44	0	2612002816	49	4674
2026-01-14 01:01:58.99	148.74	25.48	-39.3	-41.2	20.1	0.00e+00	0	44	0	2616197120	49	4691
2026-01-14 01:02:00.27	148.98	25.32	-39.3	-41.2	20.2	0.00e+00	0	44	0	2623537152	49	4656
2026-01-14 01:02:00.98	149.12	25.23	-39.2	-41.1	20.2	0.00e+00	0	44	0	2627731456	49	4615
2026-01-14 01:02:02.26	149.36	25.07	-39.3	-41.1	20.2	0.00e+00	0	44	0	2635071488	49	4642
2026-01-14 01:02:02.99	149.50	24.98	-39.2	-41.1	20.2	0.00e+00	0	44	0	2639265792	49	4634
2026-01-14 01:02:04.27	149.74	24.83	-39.4	-41.3	20.1	0.00e+00	0	44	0	2646605824	49	4723
2026-01-14 01:02:05.16	149.90	24.72	-39.4	-41.3	20.1	0.00e+00	0	44	0	2650800128	49	4715
2026-01-14 01:02:06.61	150.17	24.54	-39.2	-41.1	20.2	0.00e+00	0	44	0	2659188736	49	4623
2026-01-14 01:02:07.32	150.30	24.45	-39.2	-41.0	20.3	0.00e+00	0	44	0	2663383040	49	4594
2026-01-14 01:02:08.60	150.53	24.29	-39.2	-41.0	20.3	0.00e+00	0	44	0	2670723072	49	4577
2026-01-14 01:02:09.34	150.66	24.20	-39.2	-41.1	20.2	0.00e+00	0	44	0	2674917376	49	4606
2026-01-14 01:02:10.62	150.89	24.05	-39.2	-41.0	20.3	0.00e+00	0	44	0	2682257408	49	4597
2026-01-14 01:02:11.33	151.02	23.96	-39.2	-41.1	20.2	0.00e+00	0	44	0	2685403136	49	4602
2026-01-14 01:02:12.61	151.24	23.81	-39.3	-41.1	20.2	0.00e+00	0	44	0	2692743168	49	4630
2026-01-14 01:02:13.34	151.37	23.72	-39.3	-41.2	20.1	0.00e+00	0	44	0	2696937472	49	4665
2026-01-14 01:02:14.62	151.59	23.56	-39.4	-41.3	20.0	0.00e+00	0	44	0	2704277504	49	4738
2026-01-14 01:02:15.33	151.71	23.48	-39.5	-41.3	19.9	0.00e+00	0	44	0	2708471808	49	4756
2026-01-14 01:02:16.61	151.93	23.33	-39.4	-41.3	20.0	0.00e+00	0	44	0	2715811840	49	4733
2026-01-14 01:02:17.48	152.08	23.22	-39.5	-41.4	19.9	0.00e+00	0	44	0	2720006144	49	4770
2026-01-14 01:02:18.61	152.27	23.09	-39.5	-41.3	19.9	0.00e+00	0	44	0	2726297600	49	4750
2026-01-14 01:02:19.62	152.43	22.97	-39.5	-41.4	19.9	0.00e+00	0	44	0	2732589056	49	4770
2026-01-14 01:02:20.79	152.63	22.83	-39.5	-41.3	19.9	0.00e+00	0	44	0	2738880512	49	4758
2026-01-14 01:02:21.65	152.77	22.73	-39.5	-41.4	19.9	0.00e+00	0	44	0	2744123392	49	4773
2026-01-14 01:02:22.99	152.99	22.57	-39.5	-41.4	19.9	0.00e+00	0	44	0	2751463424	49	4766
2026-01-14 01:02:23.70	153.10	22.48	-39.6	-41.5	19.8	0.00e+00	0	44	0	2755657728	49	4832
2026-01-14 01:02:25.15	153.33	22.31	-39.6	-41.5	19.8	0.00e+00	0	44	0	2764046336	50	4554
2026-01-14 01:02:25.86	153.44	22.23	-39.6	-41.5	19.8	0.00e+00	0	44	0	2767192064	50	4588
2026-01-14 01:02:27.20	153.65	22.07	-39.8	-41.7	19.6	0.00e+00	0	44	0	2775580672	50	4657
2026-01-14 01:02:27.91	153.77	21.99	-39.7	-41.6	19.7	0.00e+00	0	44	0	2778726400	50	4638
2026-01-14 01:02:29.29	153.98	21.83	-39.8	-41.7	19.6	0.00e+00	0	44	0	2787115008	50	4695
2026-01-14 01:02:30.28	154.13	21.72	-39.8	-41.7	19.6	0.00e+00	0	44	0	2792357888	50	4688
2026-01-14 01:02:31.28	154.28	21.60	-39.8	-41.7	19.6	0.00e+00	0	44	0	2797600768	50	4698
2026-01-14 01:02:32.27	154.43	21.49	-39.8	-41.7	19.6	0.00e+00	0	44	0	2803892224	50	4666
2026-01-14 01:02:33.27	154.58	21.37	-39.8	-41.7	19.6	0.00e+00	0	44	0	2809135104	50	4669
2026-01-14 01:02:34.26	154.73	21.26	-39.8	-41.7	19.6	0.00e+00	0	44	0	2814377984	50	4690
2026-01-14 01:02:35.26	154.88	21.15	-39.8	-41.7	19.5	0.00e+00	0	44	0	2820669440	50	4702
2026-01-14 01:02:36.25	155.03	21.03	-39.9	-41.8	19.6	0.00e+00	0	44	0	2825912320	50	4707
2026-01-14 01:02:37.25	155.17	20.92	-40.0	-41.9	19.5	0.00e+00	0	44	0	2832203776	50	4769
2026-01-14 01:02:38.34	155.33	20.80	-40.1	-42.0	19.3	0.00e+00	0	44	0	2837446656	50	4847
2026-01-14 01:02:39.23	155.46	20.70	-40.1	-42.0	19.3	0.00e+00	0	44	0	2842689536	50	4867
2026-01-14 01:02:40.36	155.62	20.57	-40.3	-42.3	19.1	0.00e+00	0	44	0	2848980992	51	4715
2026-01-14 01:02:41.22	155.74	20.47	-40.4	-42.3	19.0	0.00e+00	0	44	0	2854223872	51	4756
2026-01-14 01:02:42.35	155.90	20.35	-40.3	-42.3	19.0	0.00e+00	0	44	0	2860515328	51	4738
2026-01-14 01:02:43.21	156.02	20.25	-40.4	-42.4	19.0	0.00e+00	0	44	0	2864709632	51	4786
2026-01-14 01:02:44.34	156.18	20.13	-40.3	-42.3	19.0	0.00e+00	0	44	0	2872049664	51	4752
2026-01-14 01:02:45.20	156.30	20.03	-40.4	-42.4	19.0	0.00e+00	0	44	0	2876243968	51	4785
2026-01-14 01:02:46.33	156.45	19.91	-40.4	-42.4	19.0	0.00e+00	0	44	0	2882535424	51	4788
2026-01-14 01:02:47.19	156.57	19.81	-40.3	-42.2	19.1	0.00e+00	0	44	0	2887778304	51	4694
2026-01-14 01:02:48.32	156.72	19.69	-40.2	-42.2	19.1	0.00e+00	0	44	0	2894069760	51	4678
2026-01-14 01:02:49.17	156.84	19.60	-40.4	-42.4	19.0	0.00e+00	0	44	0	2898264064	51	4766
2026-01-14 01:02:50.31	156.99	19.47	-40.2	-42.2	19.2	0.00e+00	0	44	0	2905604096	51	4661
2026-01-14 01:02:51.16	157.10	19.38	-40.2	-42.2	19.1	0.00e+00	0	44	0	2909798400	51	4677
2026-01-14 01:02:52.33	157.26	19.25	-40.4	-42.3	19.0	0.00e+00	0	44	0	2916089856	51	4754
2026-01-14 01:02:53.18	157.37	19.16	-40.3	-42.2	19.1	0.00e+00	0	44	0	2921332736	51	4691
2026-01-14 01:02:54.40	157.53	19.03	-40.3	-42.3	19.1	0.00e+00	0	44	0	2928672768	51	4726
2026-01-14 01:02:55.25	157.64	18.94	-40.4	-42.3	19.0	0.00e+00	0	44	0	2932867072	51	4755
2026-01-14 01:02:56.39	157.78	18.82	-40.4	-42.4	19.0	0.00e+00	0	44	0	2939158528	51	4768
2026-01-14 01:02:57.24	157.89	18.72	-40.3	-42.3	19.0	0.00e+00	0	44	0	2944401408	51	4740
2026-01-14 01:02:58.38	158.03	18.60	-40.4	-42.4	18.9	0.00e+00	0	44	0	2950692864	51	4807
2026-01-14 01:02:59.23	158.14	18.51	-40.4	-42.4	18.9	0.00e+00	0	44	0	2954887168	51	4806
2026-01-14 01:03:00.37	158.28	18.39	-40.6	-42.5	18.8	0.00e+00	0	44	0	2961178624	51	4863
2026-01-14 01:03:01.22	158.39	18.30	-40.6	-42.5	18.8	0.00e+00	0	44	0	2966421504	51	4862
2026-01-14 01:03:02.36	158.53	18.18	-40.5	-42.5	18.8	0.00e+00	0	44	0	2972712960	51	4851
2026-01-14 01:03:03.36	158.65	18.08	-40.6	-42.6	18.8	0.00e+00	0	44	0	2979004416	51	4879
2026-01-14 01:03:04.35	158.77	17.97	-40.7	-42.6	18.7	0.00e+00	0	44	0	2984247296	51	4921
2026-01-14 01:03:05.34	158.89	17.87	-40.7	-42.6	18.7	0.00e+00	0	44	0	2989490176	51	4919
2026-01-14 01:03:06.34	159.01	17.77	-40.6	-42.6	18.7	0.00e+00	0	44	0	2994733056	52	4635
2026-01-14 01:03:07.33	159.13	17.67	-40.6	-42.6	18.6	0.00e+00	0	44	0	3001024512	52	4650
2026-01-14 01:03:08.33	159.24	17.56	-40.8	-42.8	18.5	0.00e+00	0	44	0	3006267392	52	4754
2026-01-14 01:03:09.33	159.36	17.46	-40.7	-42.7	18.6	0.00e+00	0	44	0	3011510272	52	4691
2026-01-14 01:03:10.32	159.48	17.36	-40.8	-42.8	18.5	0.00e+00	0	44	0	3017801728	52	4744
2026-01-14 01:03:11.32	159.59	17.26	-40.9	-42.9	18.4	0.00e+00	0	44	0	3023044608	52	4811
2026-01-14 01:03:12.31	159.71	17.15	-40.8	-42.8	18.4	0.00e+00	0	44	0	3029336064	52	4751
2026-01-14 01:03:13.30	159.82	17.05	-40.9	-43.0	18.3	0.00e+00	0	44	0	3034578944	52	4821
2026-01-14 01:03:14.30	159.93	16.95	-40.8	-42.9	18.4	0.00e+00	0	44	0	3039821824	52	4776
2026-01-14 01:03:15.29	160.05	16.85	-40.8	-42.9	18.4	0.00e+00	0	44	0	3046113280	52	4771
2026-01-14 01:03:16.29	160.16	16.75	-40.9	-42.9	18.4	0.00e+00	0	44	0	3051356160	52	4807
2026-01-14 01:03:17.28	160.27	16.65	-40.9	-42.9	18.3	0.00e+00	0	44	0	3056599040	52	4811
2026-01-14 01:03:18.28	160.38	16.55	-40.9	-42.9	18.3	0.00e+00	0	44	0	3061841920	52	4814
2026-01-14 01:03:19.35	160.50	16.45	-40.9	-42.9	18.4	0.00e+00	0	44	0	3068133376	52	4795
2026-01-14 01:03:20.24	160.59	16.36	-40.8	-42.8	18.5	0.00e+00	0	44	0	3073376256	52	4717
2026-01-14 01:03:21.37	160.72	16.25	-40.9	-42.9	18.3	0.00e+00	0	44	0	3079667712	52	4795
2026-01-14 01:03:22.23	160.81	16.16	-41.0	-43.0	18.2	0.00e+00	0	44	0	3084910592	52	4864
2026-01-14 01:03:23.36	160.93	16.05	-40.9	-43.0	18.3	0.00e+00	0	44	0	3091202048	52	4819
2026-01-14 01:03:24.22	161.02	15.96	-40.9	-43.0	18.3	0.00e+00	0	44	0	3095396352	52	4823
2026-01-14 01:03:25.36	161.14	15.85	-40.9	-42.9	18.3	0.00e+00	0	44	0	3102736384	52	4801
2026-01-14 01:03:26.21	161.23	15.77	-40.9	-43.0	18.2	0.00e+00	0	44	0	3106930688	52	4835
2026-01-14 01:03:27.34	161.35	15.66	-41.0	-43.1	18.2	0.00e+00	0	44	0	3113222144	52	4873
2026-01-14 01:03:28.20	161.44	15.58	-40.9	-43.0	18.2	0.00e+00	0	44	0	3118465024	52	4842
2026-01-14 01:03:29.33	161.56	15.47	-41.1	-43.2	18.1	0.00e+00	0	44	0	3124756480	52	4927
2026-01-14 01:03:30.19	161.64	15.39	-41.1	-43.2	18.1	0.00e+00	0	44	0	3128950784	52	4944
2026-01-14 01:03:31.32	161.76	15.28	-41.2	-43.4	17.9	0.00e+00	0	44	0	3135242240	53	4762
2026-01-14 01:03:32.17	161.85	15.20	-41.1	-43.2	18.1	0.00e+00	0	44	0	3140485120	53	4656
2026-01-14 01:03:33.31	161.96	15.09	-41.2	-43.3	18.0	0.00e+00	0	44	0	3146776576	53	4707
2026-01-14 01:03:34.16	162.05	15.01	-41.1	-43.2	18.0	0.00e+00	0	44	0	3152019456	53	4701
2026-01-14 01:03:35.30	162.16	14.90	-41.2	-43.3	17.9	0.00e+00	0	44	0	3158310912	53	4719
2026-01-14 01:03:36.20	162.25	14.81	-41.1	-43.2	18.0	0.00e+00	0	44	0	3163553792	53	4681
2026-01-14 01:03:37.48	162.37	14.69	-41.1	-43.2	18.1	0.00e+00	0	44	0	3169845248	53	4657
2026-01-14 01:03:38.19	162.44	14.62	-41.1	-43.2	18.0	0.00e+00	0	44	0	3174039552	53	4697
2026-01-14 01:03:39.47	162.57	14.50	-41.0	-43.1	18.1	0.00e+00	0	44	0	3181379584	53	4613
2026-01-14 01:03:40.19	162.64	14.44	-41.1	-43.2	18.0	0.00e+00	0	44	0	3185573888	53	4664
2026-01-14 01:03:41.47	162.76	14.32	-41.1	-43.1	18.1	0.00e+00	0	44	0	3192913920	53	4645
2026-01-14 01:03:42.21	162.83	14.25	-41.1	-43.2	18.1	0.00e+00	0	44	0	3197108224	53	4654
2026-01-14 01:03:43.49	162.95	14.13	-41.1	-43.2	18.0	0.00e+00	0	44	0	3204448256	53	4657
2026-01-14 01:03:44.20	163.02	14.07	-41.2	-43.2	18.0	0.00e+00	0	44	0	3208642560	53	4701
2026-01-14 01:03:45.48	163.14	13.95	-41.2	-43.2	18.0	0.00e+00	0	44	0	3214934016	53	4698
2026-01-14 01:03:46.22	163.21	13.88	-41.2	-43.3	17.9	0.00e+00	0	44	0	3219128320	53	4741
2026-01-14 01:03:47.50	163.32	13.76	-41.4	-43.5	17.7	0.00e+00	0	44	0	3226468352	53	4866
2026-01-14 01:03:48.21	163.39	13.70	-41.4	-43.5	17.5	0.00e+00	0	44	0	3230662656	53	4869
2026-01-14 01:03:49.49	163.51	13.58	-41.5	-43.7	17.5	0.00e+00	0	44	0	3238002688	53	4943
2026-01-14 01:03:50.20	163.57	13.52	-41.6	-43.7	17.5	0.00e+00	0	44	0	3242196992	53	4982
2026-01-14 01:03:51.48	163.69	13.40	-41.6	-43.7	17.5	0.00e+00	0	44	0	3249537024	53	4973
2026-01-14 01:03:52.20	163.75	13.34	-41.6	-43.8	17.4	0.00e+00	0	44	0	3253731328	53	5026
2026-01-14 01:03:53.56	163.87	13.21	-41.8	-43.9	17.3	0.00e+00	0	44	0	3261071360	54	4800
2026-01-14 01:03:54.27	163.94	13.15	-41.8	-44.0	17.3	0.00e+00	0	44	0	3265265664	54	4838
2026-01-14 01:03:55.63	164.06	13.03	-41.8	-44.1	17.2	0.00e+00	0	44	0	3272605696	54	4877
2026-01-14 01:03:56.34	164.12	12.97	-41.8	-44.1	17.2	0.00e+00	0	44	0	3276800000	54	4871
2026-01-14 01:03:57.67	164.23	12.85	-41.9	-44.2	17.1	0.00e+00	0	44	0	3284140032	54	4932
2026-01-14 01:03:58.38	164.30	12.79	-41.9	-44.1	17.2	0.00e+00	0	44	0	3288334336	54	4889
2026-01-14 01:03:59.66	164.41	12.67	-41.9	-44.1	17.2	0.00e+00	0	44	0	3295674368	54	4922
2026-01-14 01:04:00.68	164.49	12.58	-41.8	-44.0	17.2	0.00e+00	0	44	0	3300917248	54	4867
2026-01-14 01:04:01.96	164.60	12.47	-41.9	-44.1	17.2	0.00e+00	0	44	0	3308257280	54	4885
2026-01-14 01:04:02.72	164.67	12.41	-41.9	-44.1	17.2	0.00e+00	0	44	0	3312451584	54	4883
2026-01-14 01:04:04.00	164.77	12.29	-41.9	-44.1	17.2	0.00e+00	0	44	0	3319791616	54	4872
2026-01-14 01:04:04.71	164.83	12.23	-41.9	-44.1	17.2	0.00e+00	0	44	0	3323985920	54	4874
2026-01-14 01:04:05.99	164.94	12.12	-41.8	-44.0	17.3	5.35e-03	0	44	0	3330277376	54	4855
2026-01-14 01:04:06.72	165.00	12.06	-41.8	-44.0	17.2	0.00e+00	0	44	0	3334471680	54	4867
2026-01-14 01:04:08.01	165.11	11.95	-41.9	-44.1	17.2	0.00e+00	0	44	0	3341811712	54	4890
2026-01-14 01:04:08.73	165.16	11.89	-42.0	-44.2	17.1	0.00e+00	0	44	0	3346006016	54	4939
2026-01-14 01:04:10.01	165.27	11.78	-42.0	-44.2	17.1	0.00e+00	0	44	0	3353346048	54	4945
2026-01-14 01:04:10.72	165.33	11.72	-41.9	-44.2	17.1	0.00e+00	0	44	0	3357540352	54	4937
2026-01-14 01:04:12.02	165.43	11.61	-42.1	-44.3	17.0	0.00e+00	0	44	0	3364880384	54	5011
2026-01-14 01:04:12.73	165.49	11.55	-42.0	-44.2	17.0	0.00e+00	0	44	0	3369074688	54	4962
2026-01-14 01:04:14.07	165.59	11.43	-42.1	-44.3	16.9	0.00e+00	0	44	0	3376414720	54	5015
2026-01-14 01:04:14.78	165.65	11.37	-42.0	-44.3	17.0	0.00e+00	0	44	0	3380609024	54	5020
2026-01-14 01:04:16.06	165.75	11.26	-42.1	-44.4	16.9	0.00e+00	0	44	0	3387949056	54	5085
2026-01-14 01:04:16.78	165.81	11.20	-42.1	-44.4	16.9	0.00e+00	0	44	0	3391094784	55	4797
2026-01-14 01:04:18.14	165.91	11.09	-42.1	-44.4	16.8	0.00e+00	0	44	0	3399483392	55	4810
2026-01-14 01:04:18.85	165.97	11.03	-42.2	-44.5	16.8	0.00e+00	0	44	0	3403677696	55	4838
2026-01-14 01:04:20.23	166.07	10.92	-42.1	-44.4	16.8	1.03e-02	0	44	0	3411017728	55	4779
2026-01-14 01:04:20.94	166.13	10.86	-42.1	-44.4	16.8	0.00e+00	0	44	0	3415212032	55	4810
2026-01-14 01:04:22.21	166.22	10.75	-42.0	-44.4	16.8	0.00e+00	0	44	0	3422552064	55	4794
2026-01-14 01:04:22.92	166.28	10.69	-42.0	-44.5	16.7	9.70e-03	0	44	0	3425697792	55	4840
2026-01-14 01:04:24.20	166.37	10.59	-42.0	-44.4	16.7	0.00e+00	0	44	0	3433037824	55	4811
2026-01-14 01:04:24.94	166.43	10.53	-41.9	-44.4	16.8	0.00e+00	0	44	0	3437232128	55	4813
2026-01-14 01:04:26.22	166.52	10.42	-41.9	-44.4	16.8	0.00e+00	0	44	0	3444572160	55	4803
2026-01-14 01:04:26.95	166.58	10.37	-41.8	-44.4	16.8	0.00e+00	0	44	0	3448766464	55	4777
2026-01-14 01:04:28.23	166.67	10.26	-41.9	-44.5	16.7	0.00e+00	0	44	0	3456106496	55	4829
2026-01-14 01:04:28.95	166.72	10.20	-41.9	-44.5	16.6	0.00e+00	0	44	0	3460300800	55	4851
2026-01-14 01:04:30.23	166.82	10.10	-41.8	-44.4	16.7	0.00e+00	0	44	0	3466592256	55	4809
2026-01-14 01:04:30.97	166.87	10.04	-41.9	-44.4	16.7	0.00e+00	0	44	0	3470786560	55	4807
2026-01-14 01:04:32.25	166.96	9.94	-41.9	-44.5	16.7	0.00e+00	0	44	0	3478126592	55	4841
2026-01-14 01:04:33.02	167.02	9.88	-41.9	-44.5	16.7	0.00e+00	0	44	0	3482320896	55	4816
2026-01-14 01:04:34.30	167.11	9.77	-42.0	-44.6	16.5	9.48e-03	0	44	0	3489660928	55	4900
2026-01-14 01:04:35.09	167.17	9.71	-42.0	-44.6	16.6	0.00e+00	0	44	0	3493855232	55	4898
2026-01-14 01:04:36.56	167.27	9.59	-42.1	-44.7	16.5	0.00e+00	0	44	0	3502243840	55	4950
2026-01-14 01:04:37.27	167.32	9.54	-42.4	-45.0	16.4	1.33e-02	0	44	0	3506438144	56	4824
2026-01-14 01:04:38.55	167.41	9.44	-42.4	-45.0	16.4	0.00e+00	0	44	0	3513778176	56	4827
2026-01-14 01:04:39.26	167.46	9.38	-42.4	-45.0	16.4	0.00e+00	0	44	0	3517972480	56	4827
2026-01-14 01:04:40.54	167.55	9.28	-42.6	-45.1	16.2	0.00e+00	0	44	0	3525312512	56	4921
2026-01-14 01:04:41.25	167.59	9.23	-42.6	-45.2	16.1	0.00e+00	0	44	0	3529506816	56	4947
2026-01-14 01:04:42.53	167.68	9.13	-42.8	-45.3	16.0	0.00e+00	0	44	0	3535798272	56	5037
2026-01-14 01:04:43.25	167.73	9.07	-42.8	-45.3	16.0	0.00e+00	0	44	0	3539992576	56	5041
2026-01-14 01:04:44.53	167.82	8.97	-42.9	-45.5	15.8	0.00e+00	0	44	0	3547332608	56	5137
2026-01-14 01:04:45.24	167.86	8.92	-48.4	-61.2	3.8	3.79e-01	0	44	104	3549429760	67	16653
2026-01-14 01:04:46.52	167.95	8.82	-50.6	-62.6	3.8	8.46e-01	0	44	104	3549429760	71	15542
2026-01-14 01:04:47.23	168.00	8.76	-50.6	-63.1	3.8	8.47e-01	0	44	104	3549429760	72	15514
2026-01-14 01:04:48.54	168.08	8.66	-50.8	-63.2	3.8	8.47e-01	0	44	104	3549429760	72	15693
2026-01-14 01:04:49.25	168.13	8.61	-50.8	-63.3	3.8	8.48e-01	0	44	104	3549429760	72	15836
2026-01-14 01:04:50.59	168.22	8.50	-51.1	-63.3	3.8	8.47e-01	0	44	104	3549429760	73	14969
