passes_logs/2026/01/14/T1/T1__20260114_094431_SUOMI_NPP_rec.log

#Pass ID: 20260114_094431_SUOMI NPP
#Satellite: SUOMI NPP
#Configuration: NPP
#almurnet v.1.7.20251203
#Start time: 2026-01-14 09:44:32

#Version: 2.0.20230620
#Station: T1
#Location: 37.570604 lon 55.790049 lat
#TLE: 1 37849U 11061A   26013.27136842  .00000065  00000+0  51889-4 0  9990
#TLE: 2 37849  98.7808 315.3349 0002489  66.6776 293.4661 14.19524902736466

#Time	Az	El	Level	Level2	SNR	BER	BlckErr	Temp	State	Recorded	gain1	gain2
2026-01-14 09:44:32.44	152.12	5.08	-51.8	-66.9	3.8	1.49e+00	0	38	0	0	75	20186
2026-01-14 09:44:33.43	152.11	5.16	-51.8	-67.0	3.8	1.49e+00	0	38	104	0	75	20370
2026-01-14 09:44:34.43	152.10	5.23	-51.7	-67.0	3.8	1.49e+00	0	38	104	0	75	20457
2026-01-14 09:44:35.43	152.09	5.30	-51.8	-67.1	3.8	1.49e+00	0	38	104	0	75	20589
2026-01-14 09:44:36.43	152.07	5.37	-51.7	-67.1	3.8	1.49e+00	0	38	104	0	75	20770
2026-01-14 09:44:37.43	152.06	5.45	-51.8	-67.1	3.8	1.49e+00	0	38	104	0	75	20701
2026-01-14 09:44:38.43	152.05	5.52	-51.8	-67.1	3.8	1.49e+00	0	38	104	0	75	20576
2026-01-14 09:44:39.42	152.03	5.59	-51.7	-67.1	3.8	1.49e+00	0	38	104	0	75	20663
2026-01-14 09:44:40.42	152.02	5.66	-51.7	-67.0	3.8	1.49e+00	0	38	104	0	75	20408
2026-01-14 09:44:41.42	152.01	5.74	-51.7	-66.8	3.8	1.49e+00	0	38	104	0	75	20071
2026-01-14 09:44:42.41	152.00	5.81	-51.7	-66.7	3.8	1.49e+00	0	38	104	0	75	19786
2026-01-14 09:44:43.41	151.98	5.88	-51.7	-66.6	3.8	1.49e+00	0	38	104	0	75	19397
2026-01-14 09:44:44.41	151.97	5.96	-51.7	-66.3	3.8	1.49e+00	0	38	104	0	75	18928
2026-01-14 09:44:45.41	151.96	6.03	-51.7	-66.2	3.8	1.49e+00	0	38	104	0	75	18568
2026-01-14 09:44:46.40	151.94	6.11	-51.7	-66.0	3.8	1.49e+00	0	38	104	0	75	18255
2026-01-14 09:44:47.40	151.93	6.18	-51.7	-65.8	3.8	1.49e+00	0	38	104	0	75	17733
2026-01-14 09:44:48.40	151.91	6.26	-51.7	-65.5	3.8	1.49e+00	0	38	104	0	75	17165
2026-01-14 09:44:49.40	151.90	6.33	-51.7	-65.2	3.8	1.49e+00	0	38	104	0	75	16620
2026-01-14 09:44:50.39	151.89	6.41	-51.6	-64.8	3.8	1.48e+00	0	38	104	0	75	15769
2026-01-14 09:44:51.39	151.87	6.48	-51.6	-64.2	3.9	1.47e+00	0	38	104	0	75	14864
2026-01-14 09:44:52.39	151.86	6.56	-51.5	-63.6	4.2	1.42e+00	0	39	0	0	75	13823
2026-01-14 09:44:53.39	151.84	6.63	-51.5	-62.9	4.4	1.35e+00	0	39	0	0	74	13417
2026-01-14 09:44:54.39	151.83	6.71	-51.4	-62.1	4.7	9.53e-01	0	39	0	2097152	74	12356
2026-01-14 09:44:55.39	151.82	6.79	-51.3	-61.3	5.1	7.37e-01	0	39	0	4194304	74	11195
2026-01-14 09:44:56.38	151.80	6.86	-51.2	-60.6	5.6	5.64e-01	0	39	0	5242880	74	10349
2026-01-14 09:44:57.38	151.79	6.94	-51.1	-60.0	6.0	3.45e-01	0	39	0	7340032	74	9629
2026-01-14 09:44:58.38	151.77	7.02	-50.9	-59.1	6.7	2.29e-01	0	39	0	9437184	73	9203
2026-01-14 09:44:59.38	151.76	7.09	-50.7	-58.3	7.4	1.50e-01	0	39	0	11534336	73	8419
2026-01-14 09:45:00.37	151.74	7.17	-50.5	-57.5	8.2	8.88e-02	0	39	0	13631488	73	7696
2026-01-14 09:45:01.37	151.73	7.25	-50.3	-56.8	8.9	3.41e-02	0	39	0	14680064	72	7479
2026-01-14 09:45:02.37	151.71	7.33	-50.1	-56.1	9.6	1.66e-02	0	39	0	16777216	72	6944
2026-01-14 09:45:03.37	151.70	7.41	-49.9	-55.5	10.3	8.14e-03	0	39	0	18874368	71	6854
2026-01-14 09:45:04.36	151.68	7.48	-49.6	-54.8	11.1	2.32e-03	0	39	0	20971520	71	6289
2026-01-14 09:45:05.36	151.67	7.56	-49.3	-54.2	11.6	8.87e-04	0	39	0	23068672	70	6268
2026-01-14 09:45:06.36	151.65	7.64	-49.1	-53.6	12.2	3.58e-04	0	39	0	24117248	70	5855
2026-01-14 09:45:07.36	151.64	7.72	-48.8	-53.1	12.7	1.50e-04	0	39	0	26214400	69	5848
2026-01-14 09:45:08.35	151.62	7.80	-48.6	-52.8	13.1	3.58e-05	0	39	0	28311552	69	5594
2026-01-14 09:45:09.35	151.61	7.88	-48.4	-52.5	13.4	1.75e-05	0	39	0	30408704	68	5748
2026-01-14 09:45:10.35	151.59	7.96	-48.4	-52.4	13.5	1.83e-05	0	39	0	32505856	68	5696
2026-01-14 09:45:11.35	151.57	8.04	-48.4	-52.4	13.5	1.06e-05	0	39	0	33554432	68	5696
2026-01-14 09:45:12.34	151.56	8.12	-48.4	-52.4	13.4	2.05e-05	0	39	0	35651584	68	5695
2026-01-14 09:45:13.34	151.54	8.20	-48.6	-52.8	13.1	1.67e-05	0	39	0	37748736	68	5938
2026-01-14 09:45:14.34	151.53	8.28	-48.8	-53.2	12.7	2.51e-05	0	39	0	39845888	68	6203
2026-01-14 09:45:15.34	151.51	8.36	-49.0	-53.6	12.2	1.44e-04	0	39	0	40894464	68	6559
2026-01-14 09:45:16.34	151.49	8.44	-49.4	-54.4	11.4	5.39e-04	0	39	0	42991616	69	6744
2026-01-14 09:45:17.34	151.48	8.53	-49.9	-55.5	10.3	2.23e-03	0	39	0	45088768	70	7227
2026-01-14 09:45:18.33	151.46	8.61	-50.3	-56.6	9.2	8.67e-03	0	39	0	47185920	71	7761
2026-01-14 09:45:19.33	151.44	8.69	-50.7	-58.1	7.6	5.72e-02	0	39	0	49283072	72	8679
2026-01-14 09:45:20.33	151.43	8.77	-51.0	-59.7	6.3	1.79e-01	0	39	0	50331648	72	10414
2026-01-14 09:45:21.33	151.41	8.86	-51.3	-61.6	5.0	4.44e-01	0	39	0	52428800	73	12318
2026-01-14 09:45:22.33	151.39	8.94	-51.5	-63.7	4.2	1.30e+00	0	39	0	53477376	73	15608
2026-01-14 09:45:23.32	151.38	9.02	-51.6	-65.5	3.8	1.49e+00	0	39	104	53477376	73	19311
2026-01-14 09:45:24.32	151.36	9.11	-51.7	-65.7	3.8	1.49e+00	0	39	104	53477376	74	18557
2026-01-14 09:45:25.32	151.34	9.19	-50.1	-55.8	10.1	7.94e-01	0	39	0	53477376	71	7095
2026-01-14 09:45:26.32	151.32	9.27	-51.1	-59.7	6.5	1.62e-02	0	39	0	55574528	72	10514
2026-01-14 09:45:27.33	151.31	9.36	-51.7	-66.2	3.8	1.49e+00	0	39	104	55574528	74	19749
2026-01-14 09:45:28.33	151.29	9.44	-50.7	-57.9	7.8	1.46e+00	0	39	0	55574528	73	8052
2026-01-14 09:45:29.33	151.27	9.53	-50.3	-56.5	9.3	1.43e-02	0	39	0	56623104	72	7243
2026-01-14 09:45:30.33	151.25	9.61	-50.2	-56.2	9.6	1.61e-02	0	40	0	58720256	72	7039
2026-01-14 09:45:31.32	151.23	9.70	-49.6	-54.7	11.2	5.29e-03	0	40	0	60817408	71	6262
2026-01-14 09:45:32.32	151.22	9.79	-49.0	-53.5	12.4	7.46e-04	0	39	0	62914560	70	5768
2026-01-14 09:45:33.32	151.20	9.87	-48.5	-52.4	13.6	5.66e-03	0	39	0	65011712	68	5708
2026-01-14 09:45:34.32	151.18	9.96	-48.0	-51.6	14.4	1.50e-06	0	39	0	66060288	68	5198
2026-01-14 09:45:35.32	151.16	10.05	-47.5	-50.9	15.0	0.00e+00	0	40	0	68157440	66	5356
2026-01-14 09:45:36.32	151.14	10.13	-47.3	-50.7	15.2	0.00e+00	0	40	0	70254592	66	5222
2026-01-14 09:45:37.33	151.12	10.22	-47.2	-50.5	15.4	0.00e+00	0	39	0	72351744	66	5121
2026-01-14 09:45:38.33	151.10	10.31	-47.2	-50.5	15.4	0.00e+00	0	39	0	73400320	66	5111
2026-01-14 09:45:39.33	151.09	10.40	-47.1	-50.3	15.5	0.00e+00	0	40	0	75497472	66	5004
2026-01-14 09:45:40.33	151.07	10.49	-47.0	-50.1	15.7	0.00e+00	0	39	0	77594624	66	4894
2026-01-14 09:45:41.33	151.05	10.58	-46.9	-50.0	15.8	0.00e+00	0	39	0	79691776	65	5102
2026-01-14 09:45:42.33	151.03	10.66	-46.8	-49.9	15.9	4.52e-03	0	40	0	81788928	65	5068
2026-01-14 09:45:43.33	151.01	10.75	-46.8	-49.8	16.0	0.00e+00	0	40	0	82837504	65	4998
2026-01-14 09:45:44.33	150.99	10.84	-46.7	-49.7	16.0	0.00e+00	0	39	0	84934656	65	4976
2026-01-14 09:45:45.33	150.97	10.93	-46.8	-49.7	16.0	0.00e+00	0	40	0	87031808	65	4973
2026-01-14 09:45:46.33	150.95	11.02	-46.7	-49.7	16.1	0.00e+00	0	40	0	89128960	65	4941
2026-01-14 09:45:47.32	150.93	11.11	-46.5	-49.4	15.9	0.00e+00	0	39	0	91226112	65	4762
2026-01-14 09:45:48.32	150.91	11.21	-46.4	-49.2	16.6	0.00e+00	0	40	0	92274688	64	4972
2026-01-14 09:45:49.32	150.89	11.30	-46.4	-49.3	16.5	0.00e+00	0	40	0	94371840	64	5001
2026-01-14 09:45:50.32	150.87	11.39	-46.4	-49.2	16.6	0.00e+00	0	40	0	96468992	64	4946
2026-01-14 09:45:51.32	150.85	11.48	-46.4	-49.3	16.5	0.00e+00	0	40	0	98566144	64	4986
2026-01-14 09:45:52.32	150.83	11.57	-46.4	-49.3	16.4	0.00e+00	0	40	0	99614720	64	5029
2026-01-14 09:45:53.31	150.80	11.67	-46.5	-49.4	16.4	0.00e+00	0	40	0	101711872	64	5062
2026-01-14 09:45:54.31	150.78	11.76	-46.6	-49.5	16.3	0.00e+00	0	40	0	103809024	64	5144
2026-01-14 09:45:55.31	150.76	11.85	-46.6	-49.5	16.3	0.00e+00	0	40	0	105906176	64	5150
2026-01-14 09:45:56.31	150.74	11.95	-46.6	-49.7	16.1	0.00e+00	0	40	0	108003328	64	5238
2026-01-14 09:45:57.31	150.72	12.04	-46.8	-49.9	16.0	0.00e+00	0	40	0	109051904	64	5360
2026-01-14 09:45:58.31	150.70	12.13	-46.7	-49.8	16.0	0.00e+00	0	40	0	111149056	64	5336
2026-01-14 09:45:59.30	150.67	12.23	-46.6	-49.6	16.2	0.00e+00	0	40	0	113246208	64	5191
2026-01-14 09:46:00.30	150.65	12.32	-46.6	-49.6	16.3	0.00e+00	0	40	0	115343360	64	5166
2026-01-14 09:46:01.30	150.63	12.42	-46.4	-49.3	16.5	0.00e+00	0	40	0	117440512	64	5035
2026-01-14 09:46:02.30	150.61	12.52	-46.3	-49.2	16.6	0.00e+00	0	40	0	118489088	64	4962
2026-01-14 09:46:03.29	150.59	12.61	-46.2	-49.0	16.8	0.00e+00	0	40	0	120586240	64	4849
2026-01-14 09:46:04.29	150.56	12.71	-46.0	-48.7	17.1	0.00e+00	0	40	0	122683392	64	4685
2026-01-14 09:46:05.29	150.54	12.81	-46.0	-48.7	17.1	0.00e+00	0	40	0	124780544	63	4978
2026-01-14 09:46:06.29	150.52	12.90	-45.9	-48.6	17.3	0.00e+00	0	40	0	125829120	63	4880
2026-01-14 09:46:07.28	150.49	13.00	-45.8	-48.4	17.5	0.00e+00	0	40	0	127926272	63	4782
2026-01-14 09:46:08.28	150.47	13.10	-45.9	-48.5	17.4	0.00e+00	0	40	0	130023424	63	4820
2026-01-14 09:46:09.28	150.45	13.20	-45.9	-48.5	17.4	0.00e+00	0	40	0	132120576	63	4820
2026-01-14 09:46:10.28	150.42	13.30	-45.9	-48.5	17.4	0.00e+00	0	40	0	134217728	63	4818
2026-01-14 09:46:11.27	150.40	13.40	-45.9	-48.5	17.4	0.00e+00	0	40	0	135266304	63	4848
2026-01-14 09:46:12.27	150.38	13.50	-46.0	-48.7	17.3	0.00e+00	0	40	0	137363456	63	4929
2026-01-14 09:46:13.27	150.35	13.60	-46.2	-48.9	17.0	0.00e+00	0	40	0	139460608	63	5086
2026-01-14 09:46:14.26	150.33	13.70	-46.2	-48.9	17.0	0.00e+00	0	40	0	141557760	63	5092
2026-01-14 09:46:15.26	150.30	13.80	-46.3	-49.0	16.9	0.00e+00	0	40	0	143654912	63	5148
2026-01-14 09:46:16.26	150.28	13.90	-46.4	-49.2	16.8	0.00e+00	0	40	0	144703488	63	5237
2026-01-14 09:46:17.26	150.25	14.00	-46.5	-49.4	16.6	0.00e+00	0	40	0	146800640	63	5351
2026-01-14 09:46:18.26	150.23	14.10	-46.6	-49.4	16.6	0.00e+00	0	40	0	148897792	63	5387
2026-01-14 09:46:19.26	150.20	14.21	-46.5	-49.4	16.7	0.00e+00	0	40	0	150994944	63	5355
2026-01-14 09:46:20.25	150.18	14.31	-46.5	-49.3	16.7	0.00e+00	0	40	0	152043520	63	5287
2026-01-14 09:46:21.25	150.15	14.41	-46.5	-49.2	16.7	0.00e+00	0	40	0	154140672	63	5279
2026-01-14 09:46:22.25	150.12	14.52	-46.3	-49.0	16.9	0.00e+00	0	40	0	156237824	63	5139
2026-01-14 09:46:23.25	150.10	14.62	-46.2	-48.9	17.0	0.00e+00	0	40	0	158334976	63	5089
2026-01-14 09:46:24.24	150.07	14.72	-46.2	-48.9	17.0	0.00e+00	0	40	0	160432128	63	5070
2026-01-14 09:46:25.24	150.04	14.83	-45.9	-48.5	17.4	0.00e+00	0	40	0	161480704	63	4841
2026-01-14 09:46:26.24	150.02	14.94	-45.9	-48.6	17.4	0.00e+00	0	40	0	163577856	63	4882
2026-01-14 09:46:27.24	149.99	15.04	-45.9	-48.6	17.4	0.00e+00	0	40	0	165675008	63	4875
2026-01-14 09:46:28.24	149.96	15.15	-45.9	-48.6	17.3	0.00e+00	0	40	0	167772160	63	4907
2026-01-14 09:46:29.24	149.94	15.26	-46.0	-48.7	17.2	0.00e+00	0	40	0	168820736	63	4955
2026-01-14 09:46:30.23	149.91	15.36	-46.2	-49.0	17.0	0.00e+00	0	40	0	170917888	63	5105
2026-01-14 09:46:31.23	149.88	15.47	-46.3	-49.2	16.8	0.00e+00	0	40	0	173015040	63	5227
2026-01-14 09:46:32.23	149.85	15.58	-46.4	-49.4	16.6	0.00e+00	0	40	0	175112192	63	5342
2026-01-14 09:46:33.22	149.82	15.69	-46.4	-49.3	16.7	0.00e+00	0	40	0	177209344	63	5324
2026-01-14 09:46:34.22	149.80	15.80	-46.5	-49.4	16.6	0.00e+00	0	40	0	178257920	63	5401
2026-01-14 09:46:35.22	149.77	15.91	-46.5	-49.4	16.6	0.00e+00	0	40	0	180355072	63	5402
2026-01-14 09:46:36.21	149.74	16.02	-46.5	-49.4	16.6	0.00e+00	0	40	0	182452224	63	5386
2026-01-14 09:46:37.21	149.71	16.13	-46.5	-49.4	16.6	0.00e+00	0	40	0	184549376	63	5357
2026-01-14 09:46:38.21	149.68	16.24	-46.4	-49.2	16.8	0.00e+00	0	40	0	186646528	63	5256
2026-01-14 09:46:39.21	149.65	16.35	-46.2	-48.9	17.1	0.00e+00	0	40	0	187695104	63	5065
2026-01-14 09:46:40.21	149.62	16.47	-46.1	-48.8	17.2	0.00e+00	0	40	0	189792256	63	5001
2026-01-14 09:46:41.21	149.59	16.58	-46.0	-48.6	17.3	0.00e+00	0	40	0	191889408	63	4917
2026-01-14 09:46:42.21	149.56	16.69	-45.9	-48.5	17.5	0.00e+00	0	40	0	193986560	63	4834
2026-01-14 09:46:43.21	149.53	16.81	-46.0	-48.5	17.5	0.00e+00	0	40	0	196083712	63	4846
2026-01-14 09:46:44.20	149.50	16.92	-46.0	-48.6	17.4	0.00e+00	0	40	0	197132288	63	4877
2026-01-14 09:46:45.20	149.47	17.04	-46.0	-48.6	17.4	0.00e+00	0	40	0	199229440	63	4910
2026-01-14 09:46:46.20	149.43	17.15	-46.2	-48.8	17.1	0.00e+00	0	40	0	201326592	63	5021
2026-01-14 09:46:47.19	149.40	17.27	-46.4	-49.1	16.9	0.00e+00	0	40	0	203423744	63	5179
2026-01-14 09:46:48.19	149.37	17.39	-46.4	-49.1	16.9	0.00e+00	0	40	0	204472320	63	5183
2026-01-14 09:46:49.19	149.34	17.50	-46.5	-49.3	16.8	0.00e+00	0	40	0	206569472	63	5304
2026-01-14 09:46:50.18	149.31	17.62	-46.6	-49.4	16.7	0.00e+00	0	40	0	208666624	63	5382
2026-01-14 09:46:51.18	149.27	17.74	-46.5	-49.4	16.6	0.00e+00	0	40	0	210763776	64	5096
2026-01-14 09:46:52.18	149.24	17.86	-46.5	-49.4	16.5	0.00e+00	0	40	0	212860928	64	5081
2026-01-14 09:46:53.18	149.21	17.98	-46.6	-49.5	16.5	0.00e+00	0	40	0	213909504	64	5157
2026-01-14 09:46:54.18	149.17	18.10	-46.4	-49.2	16.8	0.00e+00	0	40	0	216006656	64	4967
2026-01-14 09:46:55.18	149.14	18.22	-46.3	-49.1	17.0	0.00e+00	0	40	0	218103808	64	4874
2026-01-14 09:46:56.18	149.10	18.34	-46.1	-48.8	17.2	0.00e+00	0	40	0	220200960	64	4752
2026-01-14 09:46:57.17	149.07	18.46	-46.1	-48.8	17.2	0.00e+00	0	40	0	221249536	64	4719
2026-01-14 09:46:58.17	149.03	18.58	-46.2	-48.9	17.2	0.00e+00	0	40	0	223346688	63	5061
2026-01-14 09:46:59.17	149.00	18.71	-46.1	-48.8	17.3	0.00e+00	0	40	0	225443840	63	4996
2026-01-14 09:47:00.17	148.96	18.83	-46.2	-48.9	17.1	0.00e+00	0	40	0	227540992	63	5067
2026-01-14 09:47:01.17	148.93	18.96	-46.3	-49.0	17.0	0.00e+00	0	40	0	229638144	63	5150
2026-01-14 09:47:02.17	148.89	19.08	-46.3	-49.0	17.0	0.00e+00	0	40	0	230686720	63	5128
2026-01-14 09:47:03.16	148.85	19.21	-46.4	-49.1	17.0	0.00e+00	0	40	0	232783872	63	5207
2026-01-14 09:47:04.16	148.82	19.33	-46.5	-49.3	16.8	0.00e+00	0	40	0	234881024	63	5303
2026-01-14 09:47:05.16	148.78	19.46	-46.4	-49.2	16.9	0.00e+00	0	40	0	236978176	63	5265
2026-01-14 09:47:06.15	148.74	19.59	-46.6	-49.4	16.8	0.00e+00	0	40	0	239075328	63	5375
2026-01-14 09:47:07.15	148.71	19.71	-46.3	-49.1	17.0	0.00e+00	0	40	0	240123904	63	5178
2026-01-14 09:47:08.15	148.67	19.84	-46.3	-49.0	17.1	0.00e+00	0	40	0	242221056	63	5123
2026-01-14 09:47:09.14	148.63	19.97	-46.1	-48.8	17.3	0.00e+00	0	40	0	244318208	63	5011
2026-01-14 09:47:10.14	148.59	20.10	-45.9	-48.4	17.6	0.00e+00	0	40	0	246415360	63	4813
2026-01-14 09:47:11.14	148.55	20.23	-45.8	-48.4	17.7	0.00e+00	0	40	0	247463936	63	4768
2026-01-14 09:47:12.14	148.51	20.36	-45.9	-48.4	17.6	0.00e+00	0	40	0	249561088	63	4769
2026-01-14 09:47:13.14	148.47	20.50	-45.8	-48.3	17.7	0.00e+00	0	40	0	251658240	63	4748
2026-01-14 09:47:14.14	148.43	20.63	-45.7	-48.2	17.8	0.00e+00	0	40	0	253755392	63	4673
2026-01-14 09:47:15.13	148.39	20.76	-45.8	-48.3	17.7	0.00e+00	0	40	0	255852544	63	4725
2026-01-14 09:47:16.13	148.35	20.90	-45.9	-48.4	17.6	0.00e+00	0	40	0	256901120	63	4795
2026-01-14 09:47:17.13	148.31	21.03	-46.0	-48.5	17.5	0.00e+00	0	40	0	258998272	63	4862
2026-01-14 09:47:18.13	148.27	21.17	-46.0	-48.5	17.5	0.00e+00	0	40	0	261095424	63	4847
2026-01-14 09:47:19.13	148.22	21.30	-46.0	-48.6	17.5	0.00e+00	0	40	0	263192576	63	4891
2026-01-14 09:47:20.13	148.18	21.44	-46.1	-48.7	17.4	0.00e+00	0	40	0	264241152	63	4945
2026-01-14 09:47:21.13	148.14	21.58	-46.1	-48.8	17.3	0.00e+00	0	40	0	266338304	63	5002
2026-01-14 09:47:22.13	148.10	21.72	-46.3	-49.0	17.2	0.00e+00	0	40	0	268435456	63	5104
2026-01-14 09:47:23.13	148.05	21.86	-46.1	-48.7	17.3	0.00e+00	0	40	0	270532608	63	4981
2026-01-14 09:47:24.13	148.01	22.00	-46.2	-48.8	17.3	0.00e+00	0	40	0	272629760	63	5040
2026-01-14 09:47:25.13	147.96	22.14	-46.5	-49.3	16.9	0.00e+00	0	40	0	273678336	63	5288
2026-01-14 09:47:26.13	147.92	22.28	-46.5	-49.2	16.9	0.00e+00	0	40	0	275775488	63	5276
2026-01-14 09:47:27.13	147.87	22.42	-46.3	-49.0	17.1	0.00e+00	0	40	0	277872640	63	5131
2026-01-14 09:47:28.13	147.83	22.57	-46.5	-49.3	16.8	0.00e+00	0	40	0	279969792	64	5006
2026-01-14 09:47:29.13	147.78	22.71	-46.5	-49.3	16.8	0.00e+00	0	40	0	282066944	64	5013
2026-01-14 09:47:30.13	147.73	22.86	-46.4	-49.2	17.0	0.00e+00	0	40	0	283115520	64	4934
2026-01-14 09:47:31.11	147.69	23.00	-46.2	-48.9	17.1	0.00e+00	0	40	0	285212672	64	4797
2026-01-14 09:47:32.11	147.64	23.14	-46.1	-48.9	17.2	0.00e+00	0	40	0	287309824	64	4790
2026-01-14 09:47:33.11	147.59	23.29	-46.2	-49.0	17.1	0.00e+00	0	40	0	289406976	64	4822
2026-01-14 09:47:34.11	147.54	23.44	-46.0	-48.7	17.4	0.00e+00	0	40	0	291504128	63	4954
2026-01-14 09:47:35.11	147.49	23.59	-46.0	-48.7	17.4	0.00e+00	0	40	0	292552704	63	4939
2026-01-14 09:47:36.10	147.44	23.74	-46.0	-48.7	17.4	0.00e+00	0	40	0	294649856	63	4946
2026-01-14 09:47:37.10	147.39	23.89	-45.9	-48.6	17.5	0.00e+00	0	40	0	296747008	63	4875
2026-01-14 09:47:38.10	147.34	24.04	-46.1	-48.8	17.3	0.00e+00	0	40	0	298844160	63	5001
2026-01-14 09:47:39.10	147.29	24.19	-46.2	-48.9	17.3	0.00e+00	0	40	0	299892736	63	5045
2026-01-14 09:47:40.10	147.24	24.35	-46.4	-49.2	17.0	0.00e+00	0	40	0	301989888	63	5224
2026-01-14 09:47:41.10	147.19	24.50	-46.8	-49.7	16.4	0.00e+00	0	40	0	304087040	64	5253
2026-01-14 09:47:42.10	147.13	24.65	-46.7	-49.6	16.6	0.00e+00	0	40	0	306184192	64	5168
2026-01-14 09:47:43.09	147.08	24.81	-46.9	-49.9	16.2	0.00e+00	0	40	0	308281344	64	5357
2026-01-14 09:47:44.09	147.03	24.97	-47.3	-50.4	15.7	0.00e+00	0	40	0	309329920	65	5402
2026-01-14 09:47:45.09	146.97	25.12	-47.2	-50.2	15.9	0.00e+00	0	40	0	311427072	65	5267
2026-01-14 09:47:46.09	146.92	25.28	-47.4	-50.5	15.7	0.00e+00	0	40	0	313524224	65	5447
2026-01-14 09:47:47.09	146.86	25.44	-47.3	-50.4	15.7	0.00e+00	0	40	0	315621376	65	5366
2026-01-14 09:47:48.09	146.80	25.60	-47.2	-50.3	15.8	0.00e+00	0	40	0	317718528	65	5326
2026-01-14 09:47:49.08	146.75	25.76	-47.4	-50.6	15.6	0.00e+00	0	40	0	318767104	65	5497
2026-01-14 09:47:50.08	146.69	25.92	-47.2	-50.3	15.8	0.00e+00	0	40	0	320864256	65	5330
2026-01-14 09:47:51.08	146.63	26.09	-47.2	-50.3	15.9	0.00e+00	0	40	0	322961408	65	5283
2026-01-14 09:47:52.08	146.57	26.25	-47.6	-50.8	15.4	0.00e+00	0	40	0	325058560	65	5622
2026-01-14 09:47:53.08	146.51	26.42	-47.5	-50.7	15.4	0.00e+00	0	40	0	326107136	65	5563
2026-01-14 09:47:54.08	146.45	26.58	-47.4	-50.5	15.6	0.00e+00	0	40	0	328204288	65	5450
2026-01-14 09:47:55.08	146.39	26.75	-47.4	-50.5	15.7	0.00e+00	0	40	0	330301440	66	5150
2026-01-14 09:47:56.08	146.33	26.92	-47.5	-50.8	15.5	0.00e+00	0	40	0	332398592	66	5294
2026-01-14 09:47:57.08	146.27	27.09	-47.7	-51.0	15.1	0.00e+00	0	40	0	334495744	66	5448
2026-01-14 09:47:58.08	146.20	27.26	-47.6	-50.8	15.3	0.00e+00	0	40	0	335544320	66	5339
2026-01-14 09:47:59.08	146.14	27.43	-47.8	-51.1	15.1	0.00e+00	0	40	0	337641472	66	5509
2026-01-14 09:48:00.08	146.08	27.60	-48.2	-51.9	14.4	7.00e-07	0	40	0	339738624	67	5658
2026-01-14 09:48:01.07	146.01	27.77	-48.1	-51.6	14.6	0.00e+00	0	40	0	341835776	67	5527
2026-01-14 09:48:02.07	145.95	27.95	-48.0	-51.5	14.7	0.00e+00	0	40	0	342884352	67	5430
2026-01-14 09:48:03.06	145.88	28.12	-48.0	-51.5	14.9	0.00e+00	0	40	0	344981504	67	5428
2026-01-14 09:48:04.06	145.81	28.30	-47.9	-51.4	14.9	0.00e+00	0	40	0	347078656	67	5347
2026-01-14 09:48:05.06	145.75	28.47	-47.7	-51.0	15.2	0.00e+00	0	40	0	349175808	67	5150
2026-01-14 09:48:06.06	145.68	28.65	-47.6	-50.7	15.5	0.00e+00	0	40	0	351272960	67	4960
2026-01-14 09:48:07.06	145.61	28.83	-47.4	-50.4	15.7	0.00e+00	0	40	0	352321536	66	5084
2026-01-14 09:48:08.06	145.54	29.01	-47.6	-50.8	15.4	0.00e+00	0	40	0	354418688	66	5288
2026-01-14 09:48:09.06	145.47	29.20	-47.7	-50.9	15.3	0.00e+00	0	40	0	356515840	66	5387
2026-01-14 09:48:10.05	145.39	29.38	-47.9	-51.2	14.9	0.00e+00	0	40	0	358612992	66	5584
2026-01-14 09:48:11.05	145.32	29.56	-48.1	-51.6	14.6	1.50e-06	0	40	0	360710144	67	5467
2026-01-14 09:48:12.05	145.25	29.75	-48.5	-52.2	14.0	1.50e-06	0	40	0	361758720	67	5919
2026-01-14 09:48:13.05	145.17	29.93	-48.6	-52.4	13.8	7.60e-06	0	40	0	363855872	67	6050
2026-01-14 09:48:14.05	145.10	30.12	-48.9	-52.7	13.7	8.30e-06	0	40	0	365953024	68	5917
2026-01-14 09:48:15.05	145.02	30.31	-48.9	-52.9	13.5	3.00e-06	0	40	0	368050176	68	5993
2026-01-14 09:48:16.04	144.94	30.50	-48.8	-52.6	13.8	2.20e-06	0	40	0	370147328	68	5796
2026-01-14 09:48:17.04	144.87	30.69	-48.5	-52.0	14.3	7.00e-07	0	40	0	371195904	68	5460
2026-01-14 09:48:18.04	144.79	30.88	-48.5	-52.1	14.4	7.00e-07	0	40	0	373293056	68	5479
2026-01-14 09:48:19.04	144.71	31.07	-48.4	-51.9	14.5	7.00e-07	0	40	0	375390208	68	5354
2026-01-14 09:48:20.03	144.63	31.27	-48.3	-51.8	14.6	0.00e+00	0	40	0	377487360	68	5299
2026-01-14 09:48:21.03	144.54	31.46	-48.8	-52.5	13.9	1.50e-06	0	40	0	378535936	68	5787
2026-01-14 09:48:22.03	144.46	31.66	-48.9	-52.7	13.7	4.50e-06	0	40	0	380633088	68	5920
2026-01-14 09:48:23.03	144.38	31.86	-49.1	-53.1	13.3	1.44e-05	0	40	0	382730240	68	6159
2026-01-14 09:48:24.03	144.29	32.06	-49.5	-53.8	12.6	3.43e-05	0	40	0	384827392	69	6307
2026-01-14 09:48:25.02	144.20	32.26	-49.3	-53.4	13.1	4.27e-05	0	40	0	386924544	69	6012
2026-01-14 09:48:26.02	144.12	32.46	-49.3	-53.2	13.2	4.42e-05	0	40	0	387973120	69	5920
2026-01-14 09:48:27.02	144.03	32.67	-49.4	-53.5	12.9	5.18e-05	0	40	0	390070272	69	6104
2026-01-14 09:48:28.02	143.94	32.87	-49.4	-53.5	13.0	1.22e-05	0	40	0	392167424	69	6075
2026-01-14 09:48:29.02	143.85	33.08	-49.4	-53.6	12.9	2.67e-05	0	40	0	394264576	69	6154
2026-01-14 09:48:30.01	143.75	33.28	-49.4	-53.5	12.9	4.19e-05	0	40	0	395313152	69	6078
2026-01-14 09:48:31.01	143.66	33.49	-49.5	-53.6	12.8	3.89e-05	0	40	0	397410304	69	6179
2026-01-14 09:48:32.01	143.57	33.70	-49.9	-54.6	11.8	3.15e-04	0	40	0	399507456	70	6515
2026-01-14 09:48:33.01	143.47	33.91	-49.8	-54.4	12.1	2.21e-04	0	40	0	401604608	70	6367
2026-01-14 09:48:34.01	143.37	34.13	-49.8	-54.3	12.1	3.46e-04	0	40	0	403701760	70	6313
2026-01-14 09:48:35.00	143.27	34.34	-49.8	-54.4	12.0	5.16e-04	0	40	0	404750336	70	6367
2026-01-14 09:48:36.00	143.17	34.55	-49.6	-53.9	12.5	1.44e-04	0	40	0	406847488	70	6010
2026-01-14 09:48:36.99	143.07	34.77	-49.5	-53.8	12.6	5.34e-05	0	40	0	408944640	70	5950
2026-01-14 09:48:37.99	142.97	34.99	-49.1	-53.0	13.4	3.66e-05	0	40	0	411041792	69	5758
2026-01-14 09:48:38.99	142.87	35.21	-49.2	-53.1	13.3	9.90e-06	0	40	0	413138944	69	5850
2026-01-14 09:48:39.99	142.76	35.43	-49.4	-53.5	12.9	3.43e-05	0	40	0	414187520	69	6110
2026-01-14 09:48:40.98	142.66	35.65	-49.3	-53.4	13.1	2.59e-05	0	40	0	416284672	69	6022
2026-01-14 09:48:41.98	142.55	35.87	-49.6	-54.0	12.5	4.73e-05	0	40	0	418381824	69	6433
2026-01-14 09:48:42.98	142.44	36.10	-49.9	-54.5	12.1	1.79e-04	0	40	0	420478976	70	6429
2026-01-14 09:48:43.98	142.32	36.33	-50.0	-54.8	11.7	5.00e-04	0	40	0	422576128	70	6660
2026-01-14 09:48:44.98	142.21	36.56	-50.4	-55.7	10.7	8.03e-04	0	40	0	423624704	71	7007
2026-01-14 09:48:45.97	142.10	36.78	-50.3	-55.7	10.8	1.92e-03	0	40	0	425721856	71	6962
2026-01-14 09:48:46.97	141.98	37.02	-50.5	-55.9	10.5	2.41e-03	0	40	0	427819008	71	7143
2026-01-14 09:48:47.97	141.86	37.25	-49.8	-54.3	12.2	1.93e-03	0	40	0	429916160	71	5963
2026-01-14 09:48:48.97	141.74	37.48	-49.9	-54.5	11.9	8.59e-04	0	40	0	430964736	71	6089
2026-01-14 09:48:49.97	141.62	37.72	-49.6	-53.8	12.6	2.09e-04	0	40	0	433061888	71	5643
2026-01-14 09:48:50.97	141.50	37.96	-49.3	-53.3	13.1	1.29e-05	0	40	0	435159040	69	5957
2026-01-14 09:48:51.97	141.37	38.20	-49.0	-52.8	13.6	4.50e-06	0	40	0	437256192	69	5612
2026-01-14 09:48:52.97	141.24	38.44	-48.7	-52.3	14.1	1.50e-06	0	40	0	439353344	69	5325
2026-01-14 09:48:53.96	141.11	38.68	-49.1	-53.1	13.4	6.80e-06	0	40	0	440401920	68	6143
2026-01-14 09:48:54.96	140.98	38.92	-49.4	-53.8	12.7	1.98e-05	0	40	0	442499072	69	6282
2026-01-14 09:48:55.96	140.85	39.17	-49.1	-53.2	13.2	3.89e-05	0	40	0	444596224	69	5866
2026-01-14 09:48:56.96	140.71	39.41	-49.3	-53.6	12.8	7.62e-05	0	40	0	446693376	69	6188
2026-01-14 09:48:57.95	140.58	39.66	-49.2	-53.3	13.1	6.10e-05	0	40	0	447741952	69	5971
2026-01-14 09:48:58.95	140.44	39.91	-49.3	-53.5	13.1	1.44e-05	0	40	0	449839104	69	6100
2026-01-14 09:48:59.95	140.29	40.16	-49.4	-53.6	12.9	4.27e-05	0	40	0	451936256	69	6157
2026-01-14 09:49:00.95	140.15	40.42	-49.6	-54.0	12.4	5.03e-05	0	40	0	454033408	70	6115
2026-01-14 09:49:01.95	140.00	40.67	-49.6	-53.9	12.6	1.04e-04	0	40	0	456130560	70	6025
2026-01-14 09:49:02.94	139.86	40.92	-49.2	-53.3	13.1	5.49e-05	0	40	0	457179136	70	5611
2026-01-14 09:49:03.94	139.70	41.18	-49.4	-53.6	12.9	1.29e-05	0	40	0	459276288	69	6142
2026-01-14 09:49:04.94	139.55	41.44	-49.0	-53.0	13.5	8.30e-06	0	40	0	461373440	69	5740
2026-01-14 09:49:05.94	139.39	41.70	-48.6	-52.2	14.2	7.00e-07	0	40	0	463470592	69	5270
2026-01-14 09:49:06.93	139.24	41.96	-48.6	-52.2	14.3	2.20e-06	0	40	0	465567744	68	5535
2026-01-14 09:49:07.93	139.07	42.23	-48.4	-51.9	14.5	7.00e-07	0	40	0	466616320	68	5363
2026-01-14 09:49:08.93	138.91	42.50	-48.3	-51.7	14.8	0.00e+00	0	40	0	468713472	68	5223
2026-01-14 09:49:09.93	138.74	42.76	-48.1	-51.3	15.1	7.00e-07	0	40	0	470810624	68	5026
2026-01-14 09:49:10.93	138.57	43.03	-48.0	-51.2	15.2	0.00e+00	0	40	0	472907776	68	4954
2026-01-14 09:49:11.93	138.40	43.30	-48.3	-51.8	14.6	0.00e+00	0	40	0	473956352	68	5284
2026-01-14 09:49:12.93	138.22	43.58	-48.2	-51.6	14.9	0.00e+00	0	40	0	476053504	68	5169
2026-01-14 09:49:13.93	138.04	43.85	-48.4	-51.8	14.6	0.00e+00	0	40	0	478150656	68	5305
2026-01-14 09:49:14.93	137.86	44.13	-48.2	-51.5	14.9	0.00e+00	0	40	0	480247808	68	5137
2026-01-14 09:49:15.92	137.68	44.40	-47.7	-50.8	15.4	0.00e+00	0	40	0	482344960	67	5010
2026-01-14 09:49:16.92	137.49	44.68	-47.7	-50.9	15.6	0.00e+00	0	40	0	483393536	66	5348
2026-01-14 09:49:17.91	137.30	44.96	-47.2	-50.2	16.0	0.00e+00	0	40	0	485490688	66	4968
2026-01-14 09:49:18.91	137.10	45.24	-47.5	-50.7	15.6	0.00e+00	0	40	0	487587840	66	5222
2026-01-14 09:49:19.91	136.90	45.53	-47.0	-49.9	16.3	0.00e+00	0	40	0	489684992	66	4769
2026-01-14 09:49:20.91	136.70	45.81	-47.6	-50.7	15.5	0.00e+00	0	40	0	490733568	66	5247
2026-01-14 09:49:21.90	136.50	46.10	-47.9	-51.1	15.1	0.00e+00	0	40	0	492830720	66	5504
2026-01-14 09:49:22.90	136.29	46.39	-47.8	-51.1	15.2	7.00e-07	0	40	0	494927872	66	5486
2026-01-14 09:49:23.90	136.07	46.68	-47.7	-50.8	15.5	0.00e+00	0	40	0	497025024	66	5338
2026-01-14 09:49:24.90	135.85	46.97	-47.5	-50.6	15.7	0.00e+00	0	40	0	499122176	66	5177
2026-01-14 09:49:25.90	135.63	47.26	-47.3	-50.3	15.9	0.00e+00	0	40	0	500170752	66	4994
2026-01-14 09:49:26.89	135.41	47.55	-47.3	-50.3	16.0	0.00e+00	0	40	0	502267904	66	4996
2026-01-14 09:49:27.89	135.17	47.85	-47.7	-51.0	15.3	0.00e+00	0	40	0	504365056	66	5423
2026-01-14 09:49:28.89	134.94	48.15	-48.1	-51.5	15.1	0.00e+00	0	40	0	506462208	66	5748
2026-01-14 09:49:29.89	134.70	48.45	-47.9	-51.2	15.1	7.00e-07	0	40	0	508559360	67	5263
2026-01-14 09:49:30.88	134.45	48.75	-47.3	-50.3	15.9	0.00e+00	0	40	0	509607936	66	5020
2026-01-14 09:49:31.88	134.20	49.05	-46.9	-49.8	16.4	0.00e+00	0	40	0	511705088	65	5032
2026-01-14 09:49:32.88	133.95	49.35	-46.6	-49.3	16.8	0.00e+00	0	40	0	513802240	65	4729
2026-01-14 09:49:33.88	133.69	49.66	-46.3	-48.9	17.3	0.00e+00	0	40	0	515899392	64	4782
2026-01-14 09:49:34.88	133.42	49.97	-46.3	-49.0	17.1	0.00e+00	0	40	0	517996544	64	4845
2026-01-14 09:49:35.88	133.15	50.28	-46.1	-48.7	17.5	0.00e+00	0	40	0	519045120	64	4667
2026-01-14 09:49:36.87	132.88	50.58	-46.1	-48.6	17.6	0.00e+00	0	40	0	521142272	63	4915
2026-01-14 09:49:37.87	132.59	50.89	-46.2	-48.8	17.5	0.00e+00	0	40	0	523239424	63	4996
2026-01-14 09:49:38.87	132.31	51.21	-46.6	-49.3	16.9	0.00e+00	0	40	0	525336576	63	5336
2026-01-14 09:49:39.87	132.01	51.52	-47.1	-50.1	16.2	0.00e+00	0	40	0	526385152	64	5468
2026-01-14 09:49:40.87	131.71	51.84	-47.1	-50.1	16.1	0.00e+00	0	40	0	528482304	65	5160
2026-01-14 09:49:41.87	131.40	52.15	-47.3	-50.4	15.9	0.00e+00	0	40	0	530579456	65	5357
2026-01-14 09:49:42.87	131.09	52.47	-46.8	-49.7	16.6	0.00e+00	0	40	0	532676608	65	4927
2026-01-14 09:49:43.87	130.77	52.79	-46.5	-49.2	17.0	0.00e+00	0	40	0	534773760	64	4929
2026-01-14 09:49:44.87	130.44	53.11	-46.8	-49.6	16.7	0.00e+00	0	40	0	535822336	64	5170
2026-01-14 09:49:45.86	130.11	53.42	-46.9	-49.8	16.4	0.00e+00	0	40	0	537919488	64	5336
2026-01-14 09:49:46.86	129.76	53.75	-47.1	-50.1	16.1	0.00e+00	0	40	0	540016640	65	5218
2026-01-14 09:49:47.86	129.41	54.07	-47.3	-50.5	15.8	0.00e+00	0	40	0	542113792	65	5458
2026-01-14 09:49:48.86	129.05	54.39	-46.8	-49.8	16.4	0.00e+00	0	40	0	543162368	65	5038
2026-01-14 09:49:49.85	128.69	54.71	-46.2	-48.9	17.3	0.00e+00	0	40	0	545259520	64	4797
2026-01-14 09:49:50.85	128.31	55.04	-46.1	-48.7	17.3	0.00e+00	0	40	0	547356672	64	4702
2026-01-14 09:49:51.85	127.93	55.37	-46.7	-49.5	16.7	0.00e+00	0	40	0	549453824	64	5113
2026-01-14 09:49:52.84	127.54	55.69	-47.1	-50.1	16.2	0.00e+00	0	40	0	551550976	64	5482
2026-01-14 09:49:53.84	127.14	56.02	-47.5	-50.5	15.7	0.00e+00	0	40	0	552599552	65	5462
2026-01-14 09:49:54.84	126.72	56.34	-47.3	-50.3	15.9	0.00e+00	0	40	0	554696704	65	5324
2026-01-14 09:49:55.84	126.30	56.67	-47.0	-49.8	16.4	0.00e+00	0	40	0	556793856	65	5041
2026-01-14 09:49:56.84	125.87	57.00	-47.2	-50.1	16.1	0.00e+00	0	40	0	558891008	65	5168
2026-01-14 09:49:57.83	125.43	57.33	-48.3	-51.7	14.6	0.00e+00	0	40	0	560988160	67	5566
2026-01-14 09:49:58.83	124.98	57.66	-49.0	-52.8	13.7	7.00e-07	0	40	0	562036736	68	5966
2026-01-14 09:49:59.83	124.51	57.98	-49.1	-53.0	13.5	9.10e-06	0	40	0	564133888	69	5763
2026-01-14 09:50:00.82	124.04	58.31	-49.3	-53.3	13.3	1.75e-05	0	40	0	566231040	69	5958
2026-01-14 09:50:01.82	123.55	58.64	-49.0	-52.9	13.6	9.10e-06	0	40	0	568328192	69	5663
2026-01-14 09:50:02.82	123.05	58.97	-48.4	-51.9	14.7	2.20e-06	0	40	0	569376768	68	5346
2026-01-14 09:50:03.82	122.53	59.30	-48.0	-51.3	15.2	0.00e+00	0	40	0	571473920	68	4998
2026-01-14 09:50:04.82	122.01	59.63	-47.7	-50.9	15.6	0.00e+00	0	40	0	573571072	66	5357
2026-01-14 09:50:05.82	121.47	59.95	-47.3	-50.2	16.1	0.00e+00	0	40	0	575668224	66	4946
2026-01-14 09:50:06.81	120.92	60.28	-47.3	-50.3	16.0	0.00e+00	0	40	0	577765376	66	5015
2026-01-14 09:50:07.81	120.35	60.60	-47.3	-50.2	16.0	0.00e+00	0	40	0	578813952	66	4967
2026-01-14 09:50:08.80	119.77	60.92	-46.7	-49.4	16.8	0.00e+00	0	40	0	580911104	65	4809
2026-01-14 09:50:09.80	119.17	61.25	-46.5	-49.1	17.1	0.00e+00	0	40	0	583008256	64	4894
2026-01-14 09:50:10.80	118.56	61.57	-46.4	-49.0	17.2	0.00e+00	0	40	0	585105408	64	4840
2026-01-14 09:50:11.80	117.93	61.89	-46.9	-49.7	16.6	0.00e+00	0	40	0	587202560	64	5255
2026-01-14 09:50:12.80	117.28	62.21	-46.6	-49.3	16.9	0.00e+00	0	40	0	588251136	64	5041
2026-01-14 09:50:13.80	116.62	62.53	-45.7	-48.1	18.0	0.00e+00	0	40	0	590348288	63	4619
2026-01-14 09:50:14.79	115.94	62.84	-46.7	-49.4	17.0	0.00e+00	0	40	0	592445440	63	5348
2026-01-14 09:50:15.79	115.24	63.16	-47.5	-50.7	15.6	0.00e+00	0	40	0	594542592	65	5530
2026-01-14 09:50:16.79	114.52	63.47	-47.5	-50.5	15.7	0.00e+00	0	40	0	595591168	66	5159
2026-01-14 09:50:17.79	113.78	63.78	-46.6	-49.3	16.9	0.00e+00	0	40	0	597688320	65	4725
2026-01-14 09:50:18.78	113.03	64.08	-46.1	-48.6	17.6	0.00e+00	0	40	0	599785472	64	4624
2026-01-14 09:50:19.78	112.25	64.39	-46.1	-48.6	17.7	0.00e+00	0	40	0	601882624	63	4900
2026-01-14 09:50:20.79	111.45	64.69	-45.9	-48.4	17.9	0.00e+00	0	40	0	603979776	63	4786
2026-01-14 09:50:21.78	110.63	64.99	-46.3	-48.9	17.3	0.00e+00	0	40	0	605028352	63	5097
2026-01-14 09:50:22.78	109.79	65.28	-46.1	-48.7	17.6	0.00e+00	0	40	0	607125504	63	4932
2026-01-14 09:50:23.77	108.93	65.57	-46.3	-48.9	17.4	0.00e+00	0	40	0	609222656	63	5048
2026-01-14 09:50:24.77	108.05	65.85	-46.8	-49.5	16.7	0.00e+00	0	40	0	611319808	64	5146
2026-01-14 09:50:25.77	107.13	66.13	-47.3	-50.3	16.0	0.00e+00	0	40	0	612368384	65	5287
2026-01-14 09:50:26.77	106.20	66.41	-47.8	-51.1	15.3	0.00e+00	0	40	0	614465536	66	5473
2026-01-14 09:50:27.77	105.24	66.68	-48.8	-52.5	13.9	0.00e+00	0	40	0	616562688	68	5773
2026-01-14 09:50:28.77	104.26	66.95	-48.4	-51.8	14.8	0.00e+00	0	40	0	618659840	68	5288
2026-01-14 09:50:29.76	103.26	67.21	-46.6	-49.2	17.0	0.00e+00	0	40	0	620756992	65	4697
2026-01-14 09:50:30.76	102.22	67.46	-46.4	-49.1	17.0	0.00e+00	0	40	0	621805568	64	4887
2026-01-14 09:50:31.76	101.16	67.71	-46.6	-49.4	16.8	0.00e+00	0	40	0	623902720	64	5063
2026-01-14 09:50:32.76	100.08	67.95	-46.4	-49.0	17.2	0.00e+00	0	40	0	625999872	64	4838
2026-01-14 09:50:33.76	98.97	68.19	-46.7	-49.4	16.9	0.00e+00	0	40	0	628097024	64	5046
2026-01-14 09:50:34.76	97.83	68.42	-47.9	-51.2	15.2	0.00e+00	0	40	0	630194176	66	5539
2026-01-14 09:50:35.76	96.67	68.64	-48.4	-52.0	14.4	0.00e+00	0	40	0	631242752	67	5725
2026-01-14 09:50:36.76	95.48	68.85	-47.5	-50.6	15.7	0.00e+00	0	40	0	633339904	67	4887
2026-01-14 09:50:37.76	94.26	69.05	-47.5	-50.6	15.6	0.00e+00	0	40	0	635437056	66	5215
2026-01-14 09:50:38.75	93.04	69.25	-47.8	-51.1	15.3	0.00e+00	0	40	0	637534208	66	5479
2026-01-14 09:50:39.75	91.77	69.44	-47.6	-50.8	15.6	0.00e+00	0	40	0	638582784	66	5294
2026-01-14 09:50:40.75	90.48	69.61	-48.4	-52.0	14.3	0.00e+00	0	40	0	640679936	67	5770
2026-01-14 09:50:41.75	89.17	69.78	-48.9	-52.8	13.6	3.00e-06	0	40	0	642777088	68	5963
2026-01-14 09:50:42.74	87.85	69.94	-48.5	-52.2	14.3	7.60e-06	0	40	0	644874240	68	5566
2026-01-14 09:50:43.73	86.51	70.09	-48.5	-52.2	14.3	7.00e-07	0	40	0	646971392	68	5564
2026-01-14 09:50:44.73	85.13	70.23	-48.8	-52.8	13.7	2.20e-06	0	40	0	648019968	68	5989
2026-01-14 09:50:45.74	83.71	70.35	-49.7	-54.4	12.3	6.33e-05	0	40	0	650117120	70	6381
2026-01-14 09:50:46.73	82.31	70.47	-50.2	-55.3	11.2	1.11e-03	0	40	0	652214272	71	6653
2026-01-14 09:50:47.73	80.88	70.58	-50.1	-55.0	11.4	1.46e-03	0	40	0	654311424	71	6463
2026-01-14 09:50:48.73	79.43	70.67	-49.6	-54.0	12.5	4.29e-04	0	40	0	656408576	71	5759
2026-01-14 09:50:49.72	77.98	70.75	-48.3	-51.6	15.0	7.00e-07	0	40	0	657457152	68	5178
2026-01-14 09:50:50.72	76.50	70.82	-47.5	-50.4	15.9	0.00e+00	0	40	0	659554304	66	5093
2026-01-14 09:50:51.73	75.00	70.88	-48.9	-52.7	13.9	0.00e+00	0	40	0	661651456	68	5873
2026-01-14 09:50:52.73	73.50	70.93	-48.7	-52.4	14.2	3.00e-06	0	40	0	663748608	68	5671
2026-01-14 09:50:53.73	72.00	70.96	-48.3	-51.7	14.8	0.00e+00	0	40	0	665845760	68	5231
2026-01-14 09:50:54.73	70.49	70.98	-49.1	-53.0	13.6	0.00e+00	0	40	0	666894336	68	6072
2026-01-14 09:50:55.73	68.98	70.99	-49.5	-53.6	13.0	3.12e-05	0	40	0	668991488	69	6165
2026-01-14 09:50:56.73	67.47	70.99	-49.3	-53.3	13.3	2.21e-05	0	40	0	671088640	69	5992
2026-01-14 09:50:57.72	65.98	70.97	-49.2	-53.3	13.2	1.22e-05	0	40	0	673185792	69	5987
2026-01-14 09:50:58.72	64.48	70.94	-49.7	-54.3	12.2	7.47e-05	0	40	0	674234368	70	6315
2026-01-14 09:50:59.72	62.98	70.90	-48.9	-52.8	13.8	9.10e-06	0	40	0	676331520	69	5635
2026-01-14 09:51:00.72	61.49	70.85	-49.4	-53.5	13.0	9.10e-06	0	40	0	678428672	69	6100
2026-01-14 09:51:01.71	60.02	70.79	-49.1	-53.0	13.4	8.30e-06	0	40	0	680525824	69	5756
2026-01-14 09:51:02.72	58.53	70.71	-49.0	-52.7	13.9	1.83e-05	0	40	0	682622976	69	5539
2026-01-14 09:51:03.72	57.08	70.62	-49.2	-53.2	13.4	6.10e-06	0	40	0	683671552	69	5864
2026-01-14 09:51:04.71	55.65	70.52	-49.8	-54.2	12.3	1.04e-04	0	40	0	685768704	70	6258
2026-01-14 09:51:05.71	54.23	70.41	-49.7	-54.1	12.4	2.63e-04	0	40	0	687865856	70	6179
2026-01-14 09:51:06.71	52.82	70.29	-49.1	-52.9	13.7	1.44e-05	0	40	0	689963008	70	5350
2026-01-14 09:51:07.70	51.45	70.15	-48.5	-51.8	14.6	3.00e-06	0	40	0	691011584	68	5311
2026-01-14 09:51:08.70	50.08	70.01	-48.7	-52.4	14.2	1.50e-06	0	40	0	693108736	68	5720
2026-01-14 09:51:09.70	48.74	69.86	-49.0	-52.9	13.7	1.22e-05	0	40	0	695205888	69	5694
2026-01-14 09:51:10.69	47.43	69.69	-48.9	-52.7	13.8	9.10e-06	0	40	0	697303040	69	5587
2026-01-14 09:51:11.69	46.13	69.52	-48.7	-52.2	14.2	2.20e-06	0	40	0	699400192	69	5262
2026-01-14 09:51:12.69	44.85	69.34	-49.6	-53.8	12.7	2.74e-05	0	40	0	700448768	69	6326
2026-01-14 09:51:13.69	43.60	69.15	-49.5	-53.6	13.0	7.78e-05	0	40	0	702545920	70	5789
2026-01-14 09:51:14.69	42.38	68.95	-49.1	-52.9	13.5	2.28e-05	0	40	0	704643072	70	5368
2026-01-14 09:51:15.69	41.18	68.74	-49.2	-53.0	13.5	1.37e-05	0	40	0	706740224	69	5761
2026-01-14 09:51:16.68	40.02	68.52	-49.0	-52.7	13.8	1.52e-05	0	40	0	708837376	69	5564
2026-01-14 09:51:17.68	38.87	68.30	-48.5	-51.9	14.6	7.00e-07	0	40	0	709885952	68	5379
2026-01-14 09:51:18.68	37.75	68.07	-48.3	-51.6	14.9	7.00e-07	0	40	0	711983104	68	5188
2026-01-14 09:51:19.68	36.65	67.83	-48.9	-52.5	14.1	0.00e+00	0	40	0	714080256	68	5767
2026-01-14 09:51:20.68	35.58	67.58	-49.1	-52.9	13.8	5.30e-06	0	40	0	716177408	69	5667
2026-01-14 09:51:21.68	34.54	67.33	-49.0	-52.8	13.7	6.80e-06	0	40	0	717225984	69	5628
2026-01-14 09:51:22.67	33.53	67.08	-48.4	-51.7	14.9	7.00e-07	0	40	0	719323136	68	5226
2026-01-14 09:51:23.67	32.53	66.81	-47.7	-50.8	15.6	0.00e+00	0	40	0	721420288	67	5016
2026-01-14 09:51:24.67	31.56	66.54	-47.5	-50.5	15.8	0.00e+00	0	40	0	723517440	67	4843
2026-01-14 09:51:25.66	30.63	66.27	-47.9	-51.0	15.4	0.00e+00	0	40	0	725614592	67	5118
2026-01-14 09:51:26.66	29.71	65.99	-48.3	-51.6	14.8	0.00e+00	0	40	0	726663168	67	5523
2026-01-14 09:51:27.65	28.82	65.71	-48.1	-51.4	14.9	0.00e+00	0	40	0	728760320	67	5386
2026-01-14 09:51:28.65	27.94	65.43	-47.5	-50.5	15.7	0.00e+00	0	40	0	730857472	67	4854
2026-01-14 09:51:29.64	27.10	65.14	-47.4	-50.4	15.9	0.00e+00	0	40	0	732954624	66	5090
2026-01-14 09:51:30.64	26.27	64.84	-47.8	-51.0	15.4	0.00e+00	0	40	0	735051776	66	5431
2026-01-14 09:51:31.64	25.46	64.54	-47.2	-50.2	16.1	0.00e+00	0	40	0	736100352	66	4947
2026-01-14 09:51:32.64	24.67	64.24	-46.7	-49.4	16.9	0.00e+00	0	40	0	738197504	65	4772
2026-01-14 09:51:33.64	23.90	63.94	-46.4	-49.1	17.2	0.00e+00	0	40	0	740294656	64	4882
2026-01-14 09:51:34.64	23.16	63.63	-46.7	-49.5	16.9	0.00e+00	0	40	0	742391808	64	5129
2026-01-14 09:51:35.64	22.43	63.32	-46.1	-48.7	17.6	0.00e+00	0	40	0	743440384	63	4943
2026-01-14 09:51:36.63	21.73	63.01	-46.4	-49.1	17.1	0.00e+00	0	40	0	745537536	63	5175
2026-01-14 09:51:37.62	21.05	62.70	-46.0	-48.6	17.7	0.00e+00	0	40	0	747634688	63	4872
2026-01-14 09:51:38.62	20.37	62.38	-46.0	-48.5	17.7	0.00e+00	0	40	0	749731840	63	4866
2026-01-14 09:51:39.62	19.72	62.07	-46.2	-48.8	17.5	0.00e+00	0	40	0	751828992	63	5017
2026-01-14 09:51:40.62	19.08	61.75	-46.1	-48.6	17.6	0.00e+00	0	40	0	752877568	63	4923
2026-01-14 09:51:41.61	18.46	61.43	-45.7	-48.2	18.0	0.00e+00	0	40	0	754974720	63	4660
2026-01-14 09:51:42.61	17.86	61.11	-46.4	-49.0	17.3	0.00e+00	0	40	0	757071872	63	5147
2026-01-14 09:51:43.60	17.27	60.78	-47.0	-49.9	16.5	0.00e+00	0	40	0	759169024	65	5070
2026-01-14 09:51:44.60	16.70	60.46	-47.6	-50.7	15.7	0.00e+00	0	40	0	760217600	65	5557
2026-01-14 09:51:45.60	16.14	60.13	-47.3	-50.3	16.1	0.00e+00	0	40	0	762314752	65	5285
2026-01-14 09:51:46.59	15.60	59.81	-47.1	-50.0	16.3	0.00e+00	0	40	0	764411904	65	5121
2026-01-14 09:51:47.59	15.06	59.48	-47.9	-51.0	15.4	0.00e+00	0	40	0	766509056	66	5449
2026-01-14 09:51:48.59	14.55	59.16	-48.4	-51.8	14.6	0.00e+00	0	40	0	768606208	67	5634
2026-01-14 09:51:49.59	14.04	58.83	-48.1	-51.5	15.0	0.00e+00	0	40	0	769654784	67	5407
2026-01-14 09:51:50.59	13.54	58.50	-47.5	-50.6	15.8	0.00e+00	0	40	0	771751936	67	4883
2026-01-14 09:51:51.58	13.07	58.18	-47.2	-50.2	16.1	0.00e+00	0	40	0	773849088	65	5245
2026-01-14 09:51:52.58	12.60	57.85	-46.9	-49.7	16.6	0.00e+00	0	40	0	775946240	65	4946
2026-01-14 09:51:53.58	12.14	57.52	-47.4	-50.4	16.0	0.00e+00	0	40	0	778043392	65	5390
2026-01-14 09:51:54.58	11.69	57.19	-47.6	-50.7	15.6	0.00e+00	0	40	0	779091968	66	5277
2026-01-14 09:51:55.57	11.26	56.87	-47.9	-51.1	15.3	0.00e+00	0	40	0	781189120	66	5497
2026-01-14 09:51:56.57	10.83	56.54	-47.2	-50.2	16.1	0.00e+00	0	40	0	783286272	66	4965
2026-01-14 09:51:57.57	10.41	56.21	-46.5	-49.1	17.1	0.00e+00	0	40	0	785383424	64	4914
2026-01-14 09:51:58.57	10.01	55.89	-45.6	-48.0	18.2	0.00e+00	0	40	0	786432000	63	4578
2026-01-14 09:51:59.57	9.61	55.56	-45.6	-48.0	18.3	0.00e+00	0	40	0	788529152	62	4837
2026-01-14 09:52:00.57	9.22	55.24	-46.1	-48.7	17.6	0.00e+00	0	40	0	790626304	62	5247
2026-01-14 09:52:01.57	8.84	54.91	-46.4	-49.0	17.3	0.00e+00	0	40	0	792723456	63	5115
2026-01-14 09:52:02.57	8.47	54.59	-46.4	-49.0	17.3	0.00e+00	0	40	0	794820608	63	5121
2026-01-14 09:52:03.57	8.11	54.26	-47.1	-50.0	16.3	0.00e+00	0	40	0	795869184	65	5145
2026-01-14 09:52:04.57	7.75	53.94	-47.7	-50.9	15.5	0.00e+00	0	40	0	797966336	66	5376
2026-01-14 09:52:05.57	7.41	53.62	-48.3	-51.9	14.5	0.00e+00	0	40	0	800063488	67	5692
2026-01-14 09:52:06.57	7.07	53.30	-48.9	-52.7	13.9	7.00e-07	0	40	0	802160640	68	5909
2026-01-14 09:52:07.56	6.74	52.99	-49.1	-53.0	13.1	6.80e-06	0	40	0	803209216	69	5783
2026-01-14 09:52:08.56	6.42	52.67	-48.4	-51.9	14.6	7.00e-07	0	40	0	805306368	68	5371
2026-01-14 09:52:09.56	6.10	52.35	-47.8	-51.0	15.4	0.00e+00	0	40	0	807403520	67	5140
2026-01-14 09:52:10.56	5.79	52.03	-47.6	-50.8	15.5	0.00e+00	0	40	0	809500672	67	5020
2026-01-14 09:52:11.56	5.49	51.72	-47.5	-50.7	15.6	0.00e+00	0	40	0	811597824	66	5229
2026-01-14 09:52:12.56	5.19	51.41	-47.0	-49.8	16.4	0.00e+00	0	40	0	812646400	66	4753
2026-01-14 09:52:13.56	4.90	51.09	-46.9	-49.6	16.6	0.00e+00	0	40	0	814743552	65	4921
2026-01-14 09:52:14.56	4.61	50.78	-47.2	-50.0	16.3	0.00e+00	0	40	0	816840704	65	5144
2026-01-14 09:52:15.56	4.33	50.47	-46.6	-49.3	16.9	0.00e+00	0	40	0	818937856	65	4706
2026-01-14 09:52:16.55	4.06	50.17	-46.2	-48.8	17.5	0.00e+00	0	40	0	821035008	64	4732
2026-01-14 09:52:17.55	3.79	49.86	-46.7	-49.5	16.8	0.00e+00	0	40	0	822083584	64	5118
2026-01-14 09:52:18.55	3.53	49.56	-47.7	-50.8	15.6	0.00e+00	0	40	0	824180736	65	5611
2026-01-14 09:52:19.55	3.27	49.25	-48.2	-51.5	14.8	0.00e+00	0	40	0	826277888	67	5454
2026-01-14 09:52:20.55	3.02	48.95	-47.8	-50.9	15.4	0.00e+00	0	40	0	828375040	67	5083
2026-01-14 09:52:21.55	2.78	48.65	-47.6	-50.7	15.7	0.00e+00	0	40	0	830472192	66	5228
2026-01-14 09:52:22.55	2.53	48.35	-48.3	-51.7	14.6	0.00e+00	0	40	0	831520768	67	5590
2026-01-14 09:52:23.55	2.30	48.05	-49.1	-53.0	13.6	7.00e-07	0	40	0	833617920	69	5738
2026-01-14 09:52:24.54	2.06	47.76	-49.0	-52.8	13.8	1.29e-05	0	40	0	835715072	69	5595
2026-01-14 09:52:25.54	1.84	47.46	-48.7	-52.3	14.2	1.50e-06	0	40	0	837812224	68	5645
2026-01-14 09:52:26.54	1.61	47.17	-49.3	-53.3	13.3	1.50e-06	0	40	0	838860800	69	5949
2026-01-14 09:52:27.54	1.39	46.88	-50.4	-55.7	10.9	1.30e-04	0	40	0	840957952	71	6998
2026-01-14 09:52:28.54	1.18	46.59	-50.3	-55.3	11.1	6.30e-03	0	40	0	843055104	72	6344
2026-01-14 09:52:29.53	0.97	46.30	-49.4	-53.5	13.1	3.15e-04	0	40	0	845152256	70	5743
2026-01-14 09:52:30.54	0.76	46.01	-48.2	-51.5	15.0	7.00e-07	0	40	0	847249408	68	5135
2026-01-14 09:52:31.53	0.55	45.73	-48.5	-51.9	14.8	0.00e+00	0	40	0	848297984	68	5398
2026-01-14 09:52:32.53	0.35	45.45	-49.0	-52.9	13.7	9.10e-06	0	40	0	850395136	69	5678
2026-01-14 09:52:33.53	0.16	45.17	-48.6	-52.2	14.2	6.10e-06	0	40	0	852492288	69	5267
2026-01-14 09:52:34.53	359.96	44.88	-48.4	-52.0	14.6	0.00e+00	0	40	0	854589440	68	5421
2026-01-14 09:52:35.53	359.77	44.61	-48.0	-51.5	14.8	7.00e-07	0	40	0	856686592	67	5411
2026-01-14 09:52:36.52	359.59	44.33	-48.8	-52.9	13.6	1.50e-06	0	40	0	857735168	68	6006
2026-01-14 09:52:37.52	359.40	44.06	-49.4	-53.9	12.7	3.12e-05	0	40	0	859832320	69	6384
2026-01-14 09:52:38.52	359.22	43.78	-49.5	-54.0	12.5	2.72e-04	0	40	0	861929472	70	6110
2026-01-14 09:52:39.52	359.05	43.51	-48.7	-52.4	13.9	1.60e-05	0	40	0	864026624	69	5396
2026-01-14 09:52:40.51	358.87	43.24	-48.7	-52.4	14.1	7.60e-06	0	40	0	865075200	68	5713
2026-01-14 09:52:41.51	358.70	42.97	-48.5	-52.0	14.6	0.00e+00	0	40	0	867172352	68	5431
2026-01-14 09:52:42.51	358.54	42.70	-49.1	-53.0	13.5	5.30e-06	0	40	0	869269504	68	6114
2026-01-14 09:52:43.51	358.37	42.44	-48.9	-52.6	13.9	2.20e-06	0	40	0	871366656	69	5514
2026-01-14 09:52:44.50	358.21	42.18	-49.0	-52.8	13.7	1.50e-06	0	40	0	873463808	69	5630
2026-01-14 09:52:45.50	358.05	41.91	-49.0	-52.7	13.9	6.10e-06	0	40	0	874512384	69	5590
2026-01-14 09:52:46.50	357.89	41.65	-49.4	-53.4	13.1	2.82e-05	0	40	0	876609536	69	6037
2026-01-14 09:52:47.49	357.74	41.39	-49.1	-53.0	13.3	6.33e-05	0	40	0	878706688	69	5766
2026-01-14 09:52:48.49	357.59	41.14	-49.2	-53.2	13.4	2.97e-05	0	40	0	880803840	69	5881
2026-01-14 09:52:49.49	357.44	40.88	-49.0	-52.8	13.8	1.50e-06	0	40	0	881852416	69	5646
2026-01-14 09:52:50.48	357.29	40.63	-49.6	-54.1	12.4	1.22e-05	0	40	0	883949568	69	6504
2026-01-14 09:52:51.49	357.14	40.37	-49.4	-53.6	12.9	1.17e-04	0	40	0	886046720	70	5809
2026-01-14 09:52:52.48	357.00	40.12	-49.8	-54.4	12.2	2.08e-04	0	40	0	888143872	70	6358
2026-01-14 09:52:53.48	356.86	39.87	-50.7	-56.6	9.7	9.44e-03	0	40	0	890241024	72	7371
2026-01-14 09:52:54.48	356.72	39.62	-51.2	-57.8	8.6	2.74e-02	0	40	0	891289600	73	7957
2026-01-14 09:52:55.47	356.59	39.38	-50.9	-57.0	8.9	3.21e-02	0	40	0	893386752	73	7267
2026-01-14 09:52:56.47	356.46	39.14	-50.0	-54.6	11.9	4.87e-04	0	40	0	895483904	71	6171
2026-01-14 09:52:57.47	356.32	38.89	-49.2	-53.2	13.2	6.94e-05	0	40	0	897581056	70	5579
2026-01-14 09:52:58.47	356.19	38.65	-48.8	-52.6	13.9	4.50e-06	0	40	0	898629632	69	5518
2026-01-14 09:52:59.46	356.07	38.41	-47.8	-51.1	15.3	0.00e+00	0	40	0	900726784	67	5178
2026-01-14 09:53:00.46	355.94	38.17	-47.3	-50.4	16.0	0.00e+00	0	40	0	902823936	66	5078
2026-01-14 09:53:01.46	355.82	37.93	-47.5	-50.7	15.6	0.00e+00	0	40	0	904921088	66	5240
2026-01-14 09:53:02.46	355.69	37.70	-47.2	-50.1	16.1	0.00e+00	0	40	0	907018240	66	4913
2026-01-14 09:53:03.46	355.57	37.46	-47.3	-50.4	16.0	0.00e+00	0	40	0	908066816	66	5046
2026-01-14 09:53:04.46	355.45	37.23	-47.8	-51.0	15.4	0.00e+00	0	40	0	910163968	66	5423
2026-01-14 09:53:05.46	355.34	37.00	-48.3	-52.0	14.4	0.00e+00	0	40	0	912261120	67	5741
2026-01-14 09:53:06.46	355.22	36.77	-49.0	-53.0	13.5	6.10e-06	0	40	0	914358272	69	5738
2026-01-14 09:53:07.46	355.11	36.54	-49.8	-54.9	11.7	1.97e-04	0	40	0	916455424	70	6728
2026-01-14 09:53:08.46	355.00	36.31	-50.1	-55.6	11.0	1.38e-03	0	40	0	917504000	71	6925
2026-01-14 09:53:09.46	354.89	36.09	-49.9	-55.0	11.5	1.09e-03	0	40	0	919601152	71	6480
2026-01-14 09:53:10.46	354.78	35.86	-49.6	-54.4	12.1	5.50e-04	0	40	0	921698304	71	6006
2026-01-14 09:53:11.46	354.67	35.64	-49.4	-53.9	12.8	9.15e-05	0	40	0	923795456	70	6060
2026-01-14 09:53:12.46	354.56	35.42	-49.7	-54.4	12.1	2.94e-04	0	40	0	925892608	70	6389
2026-01-14 09:53:13.45	354.46	35.20	-49.7	-54.3	12.3	2.38e-04	0	40	0	926941184	70	6303
2026-01-14 09:53:14.45	354.36	34.98	-49.9	-54.6	11.9	3.13e-04	0	40	0	929038336	70	6536
2026-01-14 09:53:15.45	354.25	34.77	-50.1	-55.2	11.4	6.30e-04	0	40	0	931135488	70	6971
2026-01-14 09:53:16.45	354.15	34.55	-50.0	-55.0	11.5	7.50e-04	0	40	0	933232640	70	6845
2026-01-14 09:53:17.45	354.06	34.34	-50.2	-55.5	11.0	7.32e-04	0	40	0	934281216	71	6813
2026-01-14 09:53:18.44	353.96	34.13	-50.2	-55.4	11.1	2.02e-03	0	40	0	936378368	71	6741
2026-01-14 09:53:19.43	353.86	33.92	-49.6	-54.0	12.5	8.55e-04	0	40	0	938475520	71	5758
2026-01-14 09:53:20.43	353.77	33.71	-49.2	-53.2	13.4	3.89e-05	0	40	0	940572672	70	5557
2026-01-14 09:53:21.43	353.68	33.50	-48.8	-52.5	14.0	7.60e-06	0	40	0	942669824	69	5448
2026-01-14 09:53:22.43	353.58	33.29	-48.7	-52.3	14.3	0.00e+00	0	40	0	943718400	68	5628
2026-01-14 09:53:23.43	353.49	33.08	-48.5	-52.0	14.5	0.00e+00	0	40	0	945815552	68	5417
2026-01-14 09:53:24.42	353.40	32.88	-48.2	-51.5	15.0	0.00e+00	0	40	0	947912704	68	5156
2026-01-14 09:53:25.42	353.31	32.68	-48.1	-51.5	14.8	7.00e-07	0	40	0	950009856	67	5455
2026-01-14 09:53:26.42	353.23	32.47	-48.1	-51.6	14.7	0.00e+00	0	40	0	951058432	67	5498
2026-01-14 09:53:27.42	353.14	32.27	-48.2	-51.7	14.6	0.00e+00	0	40	0	953155584	67	5565
2026-01-14 09:53:28.41	353.05	32.08	-48.3	-51.8	14.5	1.50e-06	0	40	0	955252736	67	5613
2026-01-14 09:53:29.41	352.97	31.88	-49.0	-52.8	13.8	0.00e+00	0	40	0	957349888	68	5988
2026-01-14 09:53:30.41	352.89	31.68	-49.5	-53.6	13.0	1.83e-05	0	40	0	959447040	69	6137
2026-01-14 09:53:31.41	352.80	31.48	-49.9	-54.4	12.2	1.28e-04	0	40	0	960495616	70	6377
2026-01-14 09:53:32.41	352.72	31.29	-50.4	-55.6	10.9	1.20e-03	0	40	0	962592768	71	6922
2026-01-14 09:53:33.41	352.64	31.09	-50.5	-56.0	10.4	7.46e-03	0	40	0	964689920	72	6870
2026-01-14 09:53:34.41	352.56	30.90	-50.5	-56.1	10.3	1.12e-02	0	40	0	966787072	72	6925
2026-01-14 09:53:35.41	352.48	30.71	-50.2	-55.5	11.0	4.10e-03	0	40	0	968884224	72	6425
2026-01-14 09:53:36.40	352.41	30.52	-49.8	-54.6	11.8	7.44e-04	0	40	0	969932800	71	6201
2026-01-14 09:53:37.40	352.33	30.33	-49.6	-54.1	12.5	1.46e-04	0	40	0	972029952	70	6159
2026-01-14 09:53:38.40	352.26	30.15	-49.4	-53.7	12.8	7.85e-05	0	40	0	974127104	70	5858
2026-01-14 09:53:39.39	352.18	29.96	-49.0	-53.0	13.5	2.28e-05	0	40	0	976224256	70	5414
2026-01-14 09:53:40.39	352.11	29.78	-49.0	-53.0	13.6	4.50e-06	0	40	0	978321408	70	5416
2026-01-14 09:53:41.38	352.04	29.59	-49.1	-53.0	13.6	6.80e-06	0	40	0	979369984	69	5738
2026-01-14 09:53:42.38	351.96	29.41	-48.9	-52.6	13.9	7.00e-07	0	40	0	981467136	69	5527
2026-01-14 09:53:43.38	351.89	29.23	-48.9	-52.6	13.9	7.00e-07	0	40	0	983564288	69	5479
2026-01-14 09:53:44.38	351.82	29.05	-48.7	-52.3	14.2	5.30e-06	0	40	0	985661440	69	5327
2026-01-14 09:53:45.38	351.75	28.87	-48.5	-52.0	14.5	7.00e-07	0	40	0	986710016	69	5132
2026-01-14 09:53:46.38	351.69	28.69	-48.6	-52.1	14.4	7.00e-07	0	40	0	988807168	68	5501
2026-01-14 09:53:47.37	351.62	28.52	-48.1	-51.4	15.1	0.00e+00	0	40	0	990904320	68	5069
2026-01-14 09:53:48.37	351.55	28.34	-48.0	-51.2	15.3	0.00e+00	0	40	0	993001472	68	4940
2026-01-14 09:53:49.37	351.48	28.16	-47.8	-50.9	15.4	0.00e+00	0	40	0	995098624	67	5080
2026-01-14 09:53:50.36	351.42	27.99	-47.5	-50.6	15.7	0.00e+00	0	40	0	996147200	67	4886
2026-01-14 09:53:51.36	351.36	27.82	-47.3	-50.3	15.9	0.00e+00	0	40	0	998244352	66	5033
2026-01-14 09:53:52.36	351.29	27.65	-47.5	-50.6	15.7	0.00e+00	0	40	0	1000341504	66	5208
2026-01-14 09:53:53.35	351.23	27.48	-47.7	-51.0	15.3	0.00e+00	0	40	0	1002438656	66	5423
2026-01-14 09:53:54.35	351.17	27.31	-47.9	-51.4	15.0	0.00e+00	0	40	0	1003487232	66	5700
2026-01-14 09:53:55.35	351.10	27.14	-48.4	-52.4	13.9	7.00e-07	0	40	0	1005584384	67	6012
2026-01-14 09:53:56.35	351.04	26.97	-49.2	-53.6	12.9	3.05e-05	0	40	0	1007681536	68	6555
2026-01-14 09:53:57.35	350.98	26.80	-49.4	-54.0	12.6	8.54e-05	0	40	0	1009778688	69	6441
2026-01-14 09:53:58.35	350.92	26.64	-49.5	-54.1	12.4	9.91e-05	0	40	0	1011875840	69	6525
2026-01-14 09:53:59.34	350.86	26.47	-49.6	-54.2	12.3	1.72e-04	0	40	0	1012924416	69	6571
2026-01-14 09:54:00.35	350.80	26.31	-49.1	-53.2	13.4	4.80e-05	0	40	0	1015021568	69	5865
2026-01-14 09:54:01.34	350.75	26.14	-48.6	-52.4	14.1	4.50e-06	0	40	0	1017118720	69	5344
2026-01-14 09:54:02.34	350.69	25.98	-48.2	-51.8	14.6	0.00e+00	0	40	0	1019215872	68	5326
2026-01-14 09:54:03.34	350.63	25.82	-47.6	-51.0	15.3	0.00e+00	0	40	0	1021313024	67	5115
2026-01-14 09:54:04.34	350.58	25.66	-47.2	-50.7	15.6	0.00e+00	0	40	0	1022361600	66	5233
2026-01-14 09:54:05.34	350.52	25.50	-47.2	-50.7	15.6	0.00e+00	0	40	0	1024458752	66	5244
2026-01-14 09:54:06.33	350.47	25.34	-46.7	-50.1	16.1	0.00e+00	0	40	0	1026555904	65	5169
2026-01-14 09:54:07.33	350.41	25.19	-46.8	-50.2	16.0	0.00e+00	0	40	0	1028653056	65	5247
2026-01-14 09:54:08.34	350.36	25.03	-46.8	-50.3	15.9	0.00e+00	0	40	0	1029701632	65	5327
2026-01-14 09:54:09.34	350.31	24.87	-46.6	-50.0	16.2	0.00e+00	0	40	0	1031798784	65	5142
2026-01-14 09:54:10.33	350.25	24.72	-46.8	-50.3	16.0	0.00e+00	0	40	0	1033895936	65	5284
2026-01-14 09:54:11.33	350.20	24.57	-46.9	-50.3	15.9	0.00e+00	0	40	0	1035993088	65	5325
2026-01-14 09:54:12.33	350.15	24.41	-47.0	-50.3	16.0	0.00e+00	0	40	0	1038090240	65	5290
2026-01-14 09:54:13.32	350.10	24.26	-47.0	-50.2	16.0	0.00e+00	0	40	0	1039138816	65	5258
2026-01-14 09:54:14.33	350.05	24.11	-47.2	-50.4	15.9	0.00e+00	0	40	0	1041235968	65	5361
2026-01-14 09:54:15.33	350.00	23.96	-47.2	-50.4	15.8	0.00e+00	0	40	0	1043333120	65	5386
2026-01-14 09:54:16.32	349.95	23.81	-47.3	-50.4	15.8	0.00e+00	0	40	0	1045430272	65	5392
2026-01-14 09:54:17.32	349.90	23.66	-47.5	-50.6	15.6	0.00e+00	0	40	0	1046478848	65	5527
2026-01-14 09:54:18.32	349.85	23.51	-47.3	-50.4	15.8	0.00e+00	0	40	0	1048576000	65	5376
2026-01-14 09:54:19.31	349.80	23.37	-47.4	-50.6	15.6	0.00e+00	0	40	0	1050673152	65	5500
2026-01-14 09:54:20.31	349.76	23.22	-47.4	-50.6	15.7	0.00e+00	0	40	0	1052770304	65	5469
2026-01-14 09:54:21.31	349.71	23.08	-47.4	-50.6	15.7	0.00e+00	0	40	0	1054867456	65	5477
2026-01-14 09:54:22.30	349.66	22.93	-47.6	-51.0	15.2	0.00e+00	0	40	0	1055916032	65	5772
2026-01-14 09:54:23.29	349.62	22.79	-47.7	-51.2	15.1	7.00e-07	0	40	0	1058013184	66	5552
2026-01-14 09:54:24.29	349.57	22.65	-47.5	-50.9	15.4	0.00e+00	0	40	0	1060110336	66	5348
2026-01-14 09:54:25.29	349.53	22.50	-47.7	-51.1	15.1	0.00e+00	0	40	0	1062207488	66	5506
2026-01-14 09:54:26.28	349.48	22.36	-47.7	-51.1	15.1	7.00e-07	0	40	0	1064304640	66	5510
2026-01-14 09:54:27.28	349.44	22.22	-47.9	-51.3	15.0	0.00e+00	0	40	0	1065353216	66	5627
2026-01-14 09:54:28.28	349.40	22.08	-47.9	-51.3	15.0	0.00e+00	0	40	0	1067450368	66	5610
2026-01-14 09:54:29.28	349.35	21.94	-48.2	-51.7	14.6	0.00e+00	0	40	0	1069547520	66	5879
2026-01-14 09:54:30.28	349.31	21.80	-48.0	-51.4	14.9	7.00e-07	0	40	0	1071644672	67	5395
2026-01-14 09:54:31.28	349.27	21.67	-48.0	-51.3	14.9	0.00e+00	0	40	0	1073741824	67	5336
2026-01-14 09:54:32.27	349.22	21.53	-48.2	-51.8	14.5	7.00e-07	0	40	0	1074790400	67	5619
2026-01-14 09:54:33.28	349.18	21.39	-48.1	-51.6	14.6	0.00e+00	0	40	0	1076887552	67	5505
2026-01-14 09:54:34.27	349.14	21.26	-48.0	-51.5	14.7	0.00e+00	0	40	0	1078984704	67	5414
2026-01-14 09:54:35.27	349.10	21.12	-48.1	-51.7	14.5	1.50e-06	0	40	0	1081081856	67	5577
2026-01-14 09:54:36.27	349.06	20.99	-48.1	-51.7	14.5	0.00e+00	0	40	0	1082130432	67	5591
2026-01-14 09:54:37.28	349.02	20.85	-48.1	-51.8	14.4	7.00e-07	0	40	0	1084227584	67	5633
2026-01-14 09:54:38.27	348.98	20.72	-48.2	-51.9	14.4	7.00e-07	0	40	0	1086324736	67	5677
2026-01-14 09:54:39.27	348.94	20.59	-48.2	-51.8	14.4	1.50e-06	0	40	0	1088421888	67	5651
2026-01-14 09:54:40.27	348.90	20.46	-48.4	-52.0	14.2	0.00e+00	0	40	0	1090519040	67	5782
2026-01-14 09:54:41.26	348.86	20.33	-48.3	-51.9	14.3	0.00e+00	0	40	0	1091567616	67	5714
2026-01-14 09:54:42.26	348.82	20.20	-48.1	-51.6	14.7	0.00e+00	0	40	0	1093664768	67	5485
2026-01-14 09:54:43.26	348.79	20.07	-48.0	-51.5	14.7	7.00e-07	0	40	0	1095761920	67	5434
2026-01-14 09:54:44.26	348.75	19.94	-48.0	-51.7	14.5	0.00e+00	0	40	0	1097859072	67	5560
2026-01-14 09:54:45.26	348.71	19.81	-47.8	-51.4	14.8	0.00e+00	0	40	0	1098907648	67	5366
2026-01-14 09:54:46.26	348.67	19.68	-47.7	-51.3	14.9	0.00e+00	0	40	0	1101004800	66	5634
2026-01-14 09:54:47.26	348.64	19.56	-47.5	-51.2	15.0	0.00e+00	0	40	0	1103101952	66	5568
2026-01-14 09:54:48.26	348.60	19.43	-46.9	-50.5	15.7	0.00e+00	0	40	0	1105199104	65	5426
2026-01-14 09:54:49.26	348.57	19.30	-46.8	-50.5	15.7	0.00e+00	0	40	0	1107296256	65	5410
2026-01-14 09:54:50.25	348.53	19.18	-46.8	-50.5	15.8	0.00e+00	0	40	0	1108344832	65	5427
2026-01-14 09:54:51.26	348.49	19.05	-46.7	-50.3	15.8	0.00e+00	0	40	0	1110441984	65	5326
2026-01-14 09:54:52.25	348.46	18.93	-46.6	-50.1	15.9	0.00e+00	0	40	0	1112539136	65	5209
2026-01-14 09:54:53.25	348.43	18.81	-46.8	-50.4	15.8	0.00e+00	0	40	0	1114636288	65	5382
2026-01-14 09:54:54.25	348.39	18.69	-46.8	-50.4	15.7	0.00e+00	0	40	0	1116733440	65	5396
2026-01-14 09:54:55.25	348.36	18.56	-46.7	-50.2	16.0	0.00e+00	0	40	0	1117782016	65	5224
2026-01-14 09:54:56.25	348.32	18.44	-46.8	-50.2	15.9	0.00e+00	0	40	0	1119879168	65	5257
2026-01-14 09:54:57.25	348.29	18.32	-47.0	-50.6	15.6	0.00e+00	0	40	0	1121976320	65	5491
2026-01-14 09:54:58.25	348.26	18.20	-47.2	-51.0	15.2	0.00e+00	0	40	0	1124073472	65	5737
2026-01-14 09:54:59.25	348.22	18.08	-47.3	-51.1	15.2	0.00e+00	0	40	0	1125122048	65	5815
2026-01-14 09:55:00.25	348.19	17.96	-47.3	-51.2	15.1	0.00e+00	0	40	0	1127219200	65	5861
2026-01-14 09:55:01.24	348.16	17.84	-47.6	-51.6	14.6	0.00e+00	0	40	0	1129316352	65	6192
2026-01-14 09:55:02.24	348.13	17.73	-47.6	-51.6	14.6	1.50e-06	0	40	0	1131413504	65	6143
2026-01-14 09:55:03.24	348.10	17.61	-47.8	-52.1	14.2	7.00e-07	0	40	0	1133510656	66	6136
2026-01-14 09:55:04.24	348.06	17.49	-48.2	-52.7	13.5	2.20e-06	0	40	0	1134559232	66	6617
2026-01-14 09:55:05.24	348.03	17.38	-48.1	-52.6	13.6	1.14e-05	0	40	0	1136656384	67	6138
2026-01-14 09:55:06.23	348.00	17.26	-48.4	-52.9	13.3	1.52e-05	0	40	0	1138753536	67	6407
2026-01-14 09:55:07.24	347.97	17.14	-48.6	-53.3	12.9	4.73e-05	0	40	0	1140850688	67	6715
2026-01-14 09:55:08.24	347.94	17.03	-48.5	-53.1	13.1	4.42e-05	0	40	0	1142947840	67	6544
2026-01-14 09:55:09.23	347.91	16.92	-48.6	-53.1	13.1	1.83e-05	0	40	0	1143996416	67	6534
2026-01-14 09:55:10.23	347.88	16.80	-48.8	-53.4	13.0	4.27e-05	0	40	0	1146093568	68	6375
2026-01-14 09:55:11.23	347.85	16.69	-48.8	-53.4	13.0	5.03e-05	0	40	0	1148190720	68	6363
2026-01-14 09:55:12.23	347.82	16.58	-49.0	-53.7	12.6	3.28e-05	0	40	0	1150287872	68	6610
2026-01-14 09:55:13.23	347.79	16.46	-48.9	-53.5	12.8	4.27e-05	0	40	0	1152385024	68	6453
2026-01-14 09:55:14.23	347.76	16.35	-48.8	-53.2	13.1	5.87e-05	0	40	0	1153433600	68	6269
2026-01-14 09:55:15.23	347.74	16.24	-48.8	-53.5	12.9	5.64e-05	0	40	0	1155530752	68	6431
2026-01-14 09:55:16.23	347.71	16.13	-48.9	-53.5	12.8	6.33e-05	0	40	0	1157627904	68	6474
2026-01-14 09:55:17.22	347.68	16.02	-48.7	-53.2	13.1	3.58e-05	0	40	0	1159725056	68	6234
2026-01-14 09:55:18.22	347.65	15.91	-48.8	-53.2	13.1	2.59e-05	0	40	0	1160773632	68	6242
2026-01-14 09:55:19.22	347.62	15.80	-48.8	-53.2	13.1	5.49e-05	0	40	0	1162870784	68	6243
2026-01-14 09:55:20.21	347.60	15.69	-48.9	-53.4	13.0	3.12e-05	0	40	0	1164967936	68	6359
2026-01-14 09:55:21.21	347.57	15.59	-49.1	-53.7	12.6	8.39e-05	0	40	0	1167065088	68	6635
2026-01-14 09:55:22.21	347.54	15.48	-49.1	-53.7	12.6	8.23e-05	0	40	0	1169162240	68	6573
2026-01-14 09:55:23.21	347.51	15.37	-49.0	-53.6	12.7	7.70e-05	0	40	0	1170210816	68	6551
2026-01-14 09:55:24.21	347.49	15.26	-49.1	-53.9	12.4	1.04e-04	0	40	0	1172307968	68	6740
2026-01-14 09:55:25.21	347.46	15.16	-49.1	-53.8	12.6	1.01e-04	0	40	0	1174405120	68	6653
2026-01-14 09:55:26.20	347.44	15.05	-49.2	-53.8	12.4	9.53e-05	0	40	0	1176502272	69	6334
2026-01-14 09:55:27.20	347.41	14.95	-49.3	-54.0	12.3	1.60e-04	0	40	0	1177550848	69	6484
2026-01-14 09:55:28.20	347.38	14.84	-49.3	-53.9	12.3	1.79e-04	0	40	0	1179648000	69	6416
2026-01-14 09:55:29.19	347.36	14.74	-49.5	-54.3	12.0	2.66e-04	0	40	0	1181745152	69	6676
2026-01-14 09:55:30.19	347.33	14.64	-49.3	-53.9	12.3	2.20e-04	0	40	0	1183842304	69	6378
2026-01-14 09:55:31.19	347.31	14.53	-49.2	-53.8	12.5	1.07e-04	0	40	0	1185939456	69	6316
2026-01-14 09:55:32.18	347.28	14.43	-49.4	-54.2	12.1	1.52e-04	0	40	0	1186988032	69	6615
2026-01-14 09:55:33.18	347.26	14.33	-49.2	-54.1	12.2	1.54e-04	0	40	0	1189085184	69	6522
2026-01-14 09:55:34.18	347.23	14.22	-49.1	-53.9	12.4	1.42e-04	0	40	0	1191182336	69	6361
2026-01-14 09:55:35.18	347.21	14.12	-49.1	-54.0	12.3	1.94e-04	0	40	0	1193279488	69	6424
2026-01-14 09:55:36.18	347.19	14.02	-48.9	-53.7	12.6	1.67e-04	0	40	0	1195376640	69	6216
2026-01-14 09:55:37.18	347.16	13.92	-48.7	-53.5	12.8	1.15e-04	0	40	0	1196425216	69	6062
2026-01-14 09:55:38.18	347.14	13.82	-48.6	-53.4	13.0	5.34e-05	0	40	0	1198522368	69	5999
2026-01-14 09:55:39.18	347.12	13.72	-48.7	-53.5	12.8	4.73e-05	0	40	0	1200619520	69	6063
2026-01-14 09:55:40.18	347.09	13.62	-48.5	-53.0	13.2	1.90e-05	0	40	0	1202716672	68	6121
2026-01-14 09:55:41.18	347.07	13.52	-48.6	-53.0	13.3	1.14e-05	0	40	0	1204813824	68	6074
2026-01-14 09:55:42.18	347.05	13.42	-48.5	-52.9	13.4	2.59e-05	0	40	0	1205862400	68	5996
2026-01-14 09:55:43.18	347.02	13.32	-48.6	-52.8	13.4	1.14e-05	0	40	0	1207959552	68	5983
2026-01-14 09:55:44.17	347.00	13.22	-48.6	-52.8	13.4	1.37e-05	0	40	0	1210056704	68	5963
2026-01-14 09:55:45.17	346.98	13.13	-48.6	-52.8	13.4	1.44e-05	0	40	0	1212153856	68	5975
2026-01-14 09:55:46.17	346.96	13.03	-48.5	-52.6	13.7	9.10e-06	0	40	0	1213202432	68	5804
2026-01-14 09:55:47.17	346.93	12.93	-48.5	-52.6	13.6	6.10e-06	0	40	0	1215299584	68	5833
2026-01-14 09:55:48.17	346.91	12.83	-48.3	-52.3	13.9	4.50e-06	0	40	0	1217396736	68	5627
2026-01-14 09:55:49.17	346.89	12.74	-48.2	-52.3	13.9	7.60e-06	0	40	0	1219493888	68	5638
2026-01-14 09:55:50.16	346.87	12.64	-48.0	-52.1	14.1	1.50e-06	0	40	0	1221591040	68	5523
2026-01-14 09:55:51.16	346.85	12.55	-47.8	-51.9	14.2	7.00e-07	0	40	0	1222639616	67	5710
2026-01-14 09:55:52.16	346.83	12.45	-47.9	-52.2	13.9	6.80e-06	0	40	0	1224736768	67	5879
2026-01-14 09:55:53.16	346.80	12.36	-47.8	-52.0	14.0	3.80e-06	0	40	0	1226833920	67	5777
2026-01-14 09:55:54.16	346.78	12.26	-47.7	-52.0	14.1	7.00e-07	0	40	0	1228931072	67	5741
2026-01-14 09:55:55.16	346.76	12.17	-47.7	-52.1	13.9	4.50e-06	0	40	0	1229979648	67	5843
2026-01-14 09:55:56.15	346.74	12.07	-47.5	-52.0	14.0	7.00e-07	0	40	0	1232076800	67	5775
2026-01-14 09:55:57.14	346.72	11.98	-47.4	-52.0	14.1	3.80e-06	0	40	0	1234173952	66	6082
2026-01-14 09:55:58.14	346.70	11.89	-47.4	-52.2	13.8	7.60e-06	0	40	0	1236271104	66	6249
