passes_logs/2026/01/14/T1/T1__20260114_230528_NOAA_21_JPSS-2_rec.log

#Pass ID: 20260114_230528_NOAA 21 (JPSS-2)
#Satellite: NOAA 21 (JPSS-2)
#Configuration: NOAA 21
#almurnet v.1.7.20251203
#Start time: 2026-01-14 23:05:29

#Version: 2.0.20230620
#Station: T1
#Location: 37.570604 lon 55.790049 lat
#TLE: 1 54234U 22150A   26014.16688770  .00000052  00000+0  45394-4 0  9999
#TLE: 2 54234  98.7497 315.0767 0000655 297.6997  62.4113 14.19534648164696

#Time	Az	El	Level	Level2	SNR	BER	BlckErr	Temp	State	Recorded	gain1	gain2
2026-01-14 23:05:30.00	20.67	5.10	-50.4	-63.6	3.8	1.49e+00	0	37	0	0	71	17478
2026-01-14 23:05:30.98	20.70	5.16	-50.4	-63.6	3.8	1.49e+00	0	37	104	0	72	16341
2026-01-14 23:05:31.98	20.74	5.23	-50.4	-63.6	3.8	1.49e+00	0	37	104	0	72	16423
2026-01-14 23:05:32.97	20.77	5.30	-50.4	-63.6	3.8	1.49e+00	0	37	104	0	72	16440
2026-01-14 23:05:33.96	20.81	5.37	-50.4	-63.6	3.8	1.49e+00	0	37	104	0	72	16453
2026-01-14 23:05:34.96	20.85	5.44	-50.4	-63.6	3.8	1.49e+00	0	37	104	0	72	16417
2026-01-14 23:05:35.95	20.89	5.51	-50.4	-63.6	3.8	1.49e+00	0	37	104	0	72	16407
2026-01-14 23:05:36.94	20.92	5.58	-50.4	-63.6	3.8	1.49e+00	0	37	104	0	72	16457
2026-01-14 23:05:37.94	20.96	5.65	-50.4	-63.6	3.8	1.49e+00	0	37	104	0	72	16427
2026-01-14 23:05:38.93	21.00	5.72	-50.4	-63.6	3.8	1.49e+00	0	37	104	0	72	16369
2026-01-14 23:05:39.93	21.04	5.79	-50.4	-63.6	3.8	1.49e+00	0	37	104	0	72	16412
2026-01-14 23:05:40.92	21.07	5.86	-50.4	-63.6	3.8	1.49e+00	0	37	104	0	72	16438
2026-01-14 23:05:41.91	21.11	5.93	-50.4	-63.6	3.8	1.49e+00	0	37	104	0	72	16472
2026-01-14 23:05:42.91	21.15	6.00	-50.4	-63.6	3.8	1.49e+00	0	37	104	0	72	16408
2026-01-14 23:05:43.90	21.19	6.07	-50.4	-63.6	3.8	1.49e+00	0	38	104	0	72	16352
2026-01-14 23:05:44.90	21.23	6.15	-50.4	-63.6	3.8	1.49e+00	0	38	104	0	72	16330
2026-01-14 23:05:45.89	21.27	6.22	-50.4	-63.6	3.8	1.49e+00	0	38	104	0	72	16456
2026-01-14 23:05:46.88	21.31	6.29	-50.4	-63.6	3.8	1.49e+00	0	38	104	0	72	16401
2026-01-14 23:05:47.88	21.35	6.36	-50.4	-63.6	3.8	1.49e+00	0	38	104	0	72	16439
2026-01-14 23:05:48.87	21.38	6.43	-50.4	-63.6	3.8	1.49e+00	0	38	104	0	72	16426
2026-01-14 23:05:49.86	21.42	6.51	-50.4	-63.6	3.8	1.49e+00	0	38	104	0	72	16424
2026-01-14 23:05:50.86	21.46	6.58	-50.4	-63.6	3.8	1.49e+00	0	38	104	0	72	16476
2026-01-14 23:05:51.85	21.50	6.65	-50.4	-63.6	3.8	1.49e+00	0	38	104	0	72	16426
2026-01-14 23:05:52.84	21.54	6.72	-50.4	-63.6	3.8	1.49e+00	0	38	104	0	72	16426
2026-01-14 23:05:53.84	21.58	6.80	-50.4	-63.6	3.8	1.49e+00	0	38	104	0	72	16450
2026-01-14 23:05:54.83	21.62	6.87	-50.4	-63.6	3.8	1.49e+00	0	38	104	0	72	16463
2026-01-14 23:05:55.82	21.66	6.94	-50.4	-63.6	3.8	1.49e+00	0	38	104	0	72	16401
2026-01-14 23:05:56.82	21.71	7.02	-50.4	-63.6	3.8	1.49e+00	0	38	104	0	72	16458
2026-01-14 23:05:57.81	21.75	7.09	-50.4	-63.6	3.8	1.49e+00	0	38	104	0	72	16473
2026-01-14 23:05:58.80	21.79	7.16	-50.4	-63.6	3.8	1.49e+00	0	38	104	0	72	16422
2026-01-14 23:05:59.80	21.83	7.24	-50.4	-63.6	3.8	1.49e+00	0	38	104	0	72	16484
2026-01-14 23:06:00.79	21.87	7.31	-50.4	-63.6	3.8	1.49e+00	0	38	104	0	72	16430
2026-01-14 23:06:01.79	21.91	7.39	-50.4	-63.6	3.8	1.49e+00	0	38	104	0	72	16490
2026-01-14 23:06:02.78	21.95	7.46	-50.4	-63.6	3.8	1.49e+00	0	38	104	0	72	16447
2026-01-14 23:06:03.77	22.00	7.54	-50.4	-63.6	3.8	1.49e+00	0	38	104	0	72	16444
2026-01-14 23:06:04.77	22.04	7.61	-50.4	-63.6	3.8	1.49e+00	0	38	104	0	72	16435
2026-01-14 23:06:05.76	22.08	7.69	-50.4	-63.6	3.8	1.49e+00	0	38	104	0	72	16432
2026-01-14 23:06:06.75	22.12	7.76	-50.4	-63.6	3.8	1.49e+00	0	38	104	0	72	16426
2026-01-14 23:06:07.75	22.17	7.84	-50.4	-63.6	3.8	1.49e+00	0	38	104	0	72	16415
2026-01-14 23:06:08.74	22.21	7.92	-50.4	-63.6	3.8	1.49e+00	0	38	104	0	72	16442
2026-01-14 23:06:09.73	22.25	7.99	-50.4	-63.6	3.8	1.49e+00	0	38	104	0	72	16402
2026-01-14 23:06:10.73	22.30	8.07	-50.4	-63.6	3.8	1.49e+00	0	39	104	0	72	16407
2026-01-14 23:06:11.72	22.34	8.15	-50.4	-63.6	3.8	1.49e+00	0	38	104	0	72	16464
2026-01-14 23:06:12.72	22.38	8.22	-50.4	-63.6	3.8	1.49e+00	0	38	104	0	72	16452
2026-01-14 23:06:13.71	22.43	8.30	-50.4	-63.6	3.8	1.49e+00	0	38	104	0	72	16401
2026-01-14 23:06:14.70	22.47	8.38	-50.4	-63.6	3.8	1.49e+00	0	39	104	0	72	16425
2026-01-14 23:06:15.70	22.52	8.46	-50.4	-63.6	3.8	1.49e+00	0	39	104	0	72	16392
2026-01-14 23:06:16.69	22.56	8.53	-50.4	-63.6	3.8	1.49e+00	0	38	104	0	72	16383
2026-01-14 23:06:17.68	22.61	8.61	-50.4	-63.6	3.8	1.49e+00	0	39	104	0	72	16427
2026-01-14 23:06:18.68	22.65	8.69	-50.4	-63.6	3.8	1.49e+00	0	39	104	0	72	16420
2026-01-14 23:06:19.67	22.70	8.77	-50.4	-63.6	3.8	1.49e+00	0	39	104	0	72	16431
2026-01-14 23:06:20.66	22.74	8.85	-50.4	-63.6	3.8	1.49e+00	0	39	104	0	72	16448
2026-01-14 23:06:21.66	22.79	8.93	-50.4	-63.6	3.8	1.49e+00	0	39	104	0	72	16423
2026-01-14 23:06:22.65	22.83	9.01	-50.4	-63.6	3.8	1.49e+00	0	39	104	0	72	16374
2026-01-14 23:06:23.65	22.88	9.09	-50.4	-63.6	3.8	1.49e+00	0	39	104	0	72	16486
2026-01-14 23:06:24.64	22.93	9.17	-50.4	-63.6	3.8	1.49e+00	0	39	104	0	72	16379
2026-01-14 23:06:25.63	22.97	9.25	-50.4	-63.6	3.8	1.49e+00	0	39	104	0	72	16439
2026-01-14 23:06:26.63	23.02	9.33	-50.4	-63.6	3.8	1.49e+00	0	39	104	0	72	16434
2026-01-14 23:06:27.62	23.07	9.41	-50.4	-63.6	3.8	1.49e+00	0	39	104	0	72	16449
2026-01-14 23:06:28.61	23.12	9.49	-50.4	-63.6	3.8	1.49e+00	0	39	104	0	72	16458
2026-01-14 23:06:29.61	23.16	9.57	-50.4	-63.6	3.8	1.49e+00	0	39	104	0	72	16395
2026-01-14 23:06:30.60	23.21	9.65	-50.4	-63.6	3.8	1.49e+00	0	39	104	0	72	16437
2026-01-14 23:06:31.60	23.26	9.73	-50.4	-63.6	3.8	1.49e+00	0	39	104	0	72	16417
2026-01-14 23:06:32.59	23.31	9.81	-50.4	-63.6	3.8	1.49e+00	0	39	104	0	72	16429
2026-01-14 23:06:33.58	23.36	9.90	-50.4	-63.6	3.8	1.49e+00	0	39	104	0	72	16387
2026-01-14 23:06:34.58	23.41	9.98	-50.4	-63.6	3.8	1.49e+00	0	39	104	0	72	16426
2026-01-14 23:06:35.57	23.45	10.06	-50.4	-63.6	3.8	1.49e+00	0	39	104	0	72	16413
2026-01-14 23:06:36.56	23.50	10.14	-50.4	-63.6	3.8	1.49e+00	0	39	104	0	72	16371
2026-01-14 23:06:37.56	23.55	10.23	-50.4	-63.6	3.8	1.49e+00	0	39	104	0	72	16470
2026-01-14 23:06:38.55	23.60	10.31	-50.4	-63.6	3.8	1.49e+00	0	39	104	0	72	16464
2026-01-14 23:06:39.55	23.65	10.39	-50.4	-63.6	3.8	1.49e+00	0	39	104	0	72	16350
2026-01-14 23:06:40.54	23.70	10.48	-50.4	-63.6	3.8	1.49e+00	0	39	104	0	72	16438
2026-01-14 23:06:41.53	23.76	10.56	-50.4	-63.6	3.8	1.49e+00	0	39	104	0	72	16444
2026-01-14 23:06:42.53	23.81	10.65	-50.4	-63.6	3.8	1.49e+00	0	39	104	0	72	16401
2026-01-14 23:06:43.52	23.86	10.73	-50.4	-63.6	3.8	1.49e+00	0	39	104	0	72	16439
2026-01-14 23:06:44.52	23.91	10.82	-50.4	-63.6	3.8	1.49e+00	0	39	104	0	72	16358
2026-01-14 23:06:45.51	23.96	10.90	-50.4	-63.6	3.8	1.49e+00	0	39	104	0	72	16401
2026-01-14 23:06:46.50	24.01	10.99	-50.4	-63.6	3.8	1.49e+00	0	39	104	0	72	16431
2026-01-14 23:06:47.50	24.07	11.07	-50.4	-63.6	3.8	1.49e+00	0	39	104	0	72	16484
2026-01-14 23:06:48.49	24.12	11.16	-50.4	-63.6	3.8	1.49e+00	0	39	104	0	72	16439
2026-01-14 23:06:49.49	24.17	11.25	-50.4	-63.6	3.8	1.49e+00	0	39	104	0	72	16437
2026-01-14 23:06:50.48	24.22	11.33	-50.4	-63.6	3.8	1.49e+00	0	39	104	0	72	16401
2026-01-14 23:06:51.47	24.28	11.42	-50.4	-63.6	3.8	1.49e+00	0	39	104	0	72	16466
2026-01-14 23:06:52.47	24.33	11.51	-50.4	-63.6	3.8	1.49e+00	0	39	104	0	72	16457
2026-01-14 23:06:53.48	24.39	11.60	-50.4	-63.6	3.8	1.49e+00	0	39	104	0	72	16423
2026-01-14 23:06:54.50	24.44	11.69	-50.4	-63.6	3.8	1.49e+00	0	39	104	0	72	16372
2026-01-14 23:06:55.53	24.50	11.78	-50.4	-63.6	3.8	1.49e+00	0	39	104	0	72	16400
2026-01-14 23:06:56.55	24.56	11.87	-50.4	-63.6	3.8	1.49e+00	0	39	104	0	72	16390
2026-01-14 23:06:57.58	24.61	11.96	-50.4	-63.6	3.8	1.49e+00	0	39	104	0	72	16411
2026-01-14 23:06:58.60	24.67	12.05	-50.4	-63.6	3.8	1.49e+00	0	39	104	0	72	16408
2026-01-14 23:06:59.60	24.73	12.14	-50.4	-63.6	3.8	1.49e+00	0	39	104	0	72	16383
2026-01-14 23:07:00.59	24.78	12.23	-50.4	-63.6	3.8	1.49e+00	0	39	104	0	72	16429
2026-01-14 23:07:01.58	24.84	12.32	-50.4	-63.6	3.8	1.49e+00	0	39	104	0	72	16463
2026-01-14 23:07:02.58	24.90	12.41	-50.4	-63.6	3.8	1.49e+00	0	39	104	0	72	16420
2026-01-14 23:07:03.57	24.95	12.50	-50.4	-63.6	3.8	1.49e+00	0	39	104	0	72	16411
2026-01-14 23:07:04.57	25.01	12.59	-50.4	-63.6	3.8	1.49e+00	0	39	104	0	72	16411
2026-01-14 23:07:05.56	25.07	12.69	-50.4	-63.6	3.8	1.49e+00	0	39	104	0	72	16409
2026-01-14 23:07:06.55	25.13	12.78	-50.4	-63.6	3.8	1.49e+00	0	39	104	0	72	16415
2026-01-14 23:07:07.55	25.19	12.87	-50.4	-63.6	3.8	1.49e+00	0	39	104	0	72	16500
2026-01-14 23:07:08.54	25.25	12.96	-50.4	-63.6	3.8	1.49e+00	0	39	104	0	72	16460
2026-01-14 23:07:09.54	25.30	13.05	-50.4	-63.6	3.8	1.49e+00	0	39	104	0	72	16423
2026-01-14 23:07:10.53	25.36	13.15	-50.4	-63.6	3.8	1.49e+00	0	39	104	0	72	16423
2026-01-14 23:07:11.52	25.42	13.24	-50.4	-63.6	3.8	1.49e+00	0	39	104	0	72	16416
2026-01-14 23:07:12.55	25.49	13.34	-50.4	-63.6	3.8	1.49e+00	0	39	104	0	72	16455
2026-01-14 23:07:13.57	25.55	13.43	-50.4	-63.6	3.8	1.49e+00	0	39	104	0	72	16413
2026-01-14 23:07:14.60	25.61	13.53	-50.4	-63.6	3.8	1.49e+00	0	39	104	0	72	16383
2026-01-14 23:07:15.62	25.68	13.63	-50.4	-63.6	3.8	1.49e+00	0	39	104	0	72	16408
2026-01-14 23:07:16.62	25.74	13.72	-50.4	-63.6	3.8	1.49e+00	0	39	104	0	72	16376
2026-01-14 23:07:17.61	25.80	13.82	-50.4	-63.6	3.8	1.49e+00	0	39	104	0	72	16424
2026-01-14 23:07:18.61	25.86	13.92	-50.4	-63.6	3.8	1.49e+00	0	39	104	0	72	16398
2026-01-14 23:07:19.60	25.93	14.01	-50.4	-63.6	3.8	1.49e+00	0	39	104	0	72	16437
2026-01-14 23:07:20.60	25.99	14.11	-50.4	-63.6	3.8	1.49e+00	0	40	104	0	72	16382
2026-01-14 23:07:21.59	26.05	14.21	-50.4	-63.6	3.8	1.49e+00	0	40	104	0	72	16388
2026-01-14 23:07:22.58	26.12	14.30	-50.4	-63.6	3.8	1.49e+00	0	39	104	0	72	16456
2026-01-14 23:07:23.58	26.18	14.40	-50.4	-63.6	3.8	1.49e+00	0	40	104	0	72	16426
2026-01-14 23:07:24.57	26.25	14.50	-50.4	-63.6	3.8	1.49e+00	0	40	104	0	72	16422
2026-01-14 23:07:25.56	26.31	14.60	-50.4	-63.5	3.8	1.49e+00	0	39	104	0	72	16311
2026-01-14 23:07:26.56	26.38	14.69	-50.4	-63.6	3.8	1.49e+00	0	39	104	0	72	16384
2026-01-14 23:07:27.55	26.44	14.79	-50.4	-63.6	3.8	1.49e+00	0	39	104	0	72	16374
2026-01-14 23:07:28.54	26.51	14.89	-50.4	-63.6	3.8	1.49e+00	0	39	104	0	72	16416
2026-01-14 23:07:29.54	26.58	14.99	-50.4	-63.6	3.8	1.49e+00	0	40	104	0	72	16392
2026-01-14 23:07:30.53	26.64	15.09	-50.4	-63.6	3.8	1.49e+00	0	40	104	0	72	16402
2026-01-14 23:07:31.52	26.71	15.19	-50.4	-63.6	3.8	1.49e+00	0	40	104	0	72	16438
2026-01-14 23:07:32.52	26.78	15.29	-50.4	-63.6	3.8	1.49e+00	0	39	104	0	72	16396
2026-01-14 23:07:33.51	26.85	15.39	-50.4	-63.6	3.8	1.49e+00	0	40	104	0	72	16405
2026-01-14 23:07:34.51	26.92	15.50	-50.4	-63.6	3.8	1.49e+00	0	39	104	0	72	16496
2026-01-14 23:07:35.50	26.99	15.60	-50.4	-63.6	3.8	1.49e+00	0	40	104	0	72	16417
2026-01-14 23:07:36.49	27.06	15.70	-50.4	-63.6	3.8	1.49e+00	0	40	104	0	72	16436
2026-01-14 23:07:37.49	27.13	15.80	-50.4	-63.6	3.8	1.49e+00	0	40	104	0	72	16415
2026-01-14 23:07:38.48	27.20	15.91	-50.4	-63.6	3.8	1.49e+00	0	39	104	0	72	16426
2026-01-14 23:07:39.48	27.27	16.01	-50.4	-63.6	3.8	1.49e+00	0	40	104	0	72	16429
2026-01-14 23:07:40.47	27.34	16.11	-50.4	-63.6	3.8	1.49e+00	0	40	104	0	72	16412
2026-01-14 23:07:41.46	27.41	16.22	-50.4	-63.6	3.8	1.49e+00	0	40	104	0	72	16430
2026-01-14 23:07:42.45	27.49	16.32	-50.4	-63.6	3.8	1.49e+00	0	40	104	0	72	16424
2026-01-14 23:07:43.45	27.56	16.43	-50.4	-63.6	3.8	1.49e+00	0	40	104	0	72	16395
2026-01-14 23:07:44.46	27.63	16.54	-50.4	-63.6	3.8	1.49e+00	0	40	104	0	72	16477
2026-01-14 23:07:45.48	27.71	16.65	-50.4	-63.6	3.8	1.49e+00	0	40	104	0	72	16421
2026-01-14 23:07:46.51	27.79	16.76	-50.4	-63.6	3.8	1.49e+00	0	40	104	0	72	16359
2026-01-14 23:07:47.53	27.87	16.87	-50.4	-63.6	3.8	1.49e+00	0	40	104	0	72	16412
2026-01-14 23:07:48.56	27.94	16.98	-50.4	-63.6	3.8	1.49e+00	0	40	104	0	72	16353
2026-01-14 23:07:49.58	28.02	17.09	-50.4	-63.6	3.8	1.49e+00	0	40	104	0	72	16386
2026-01-14 23:07:50.61	28.10	17.20	-50.4	-63.6	3.8	1.49e+00	0	40	104	0	72	16414
2026-01-14 23:07:51.63	28.18	17.31	-50.4	-63.6	3.8	1.49e+00	0	40	104	0	72	16442
2026-01-14 23:07:52.63	28.26	17.42	-50.4	-63.6	3.8	1.49e+00	0	40	104	0	72	16431
2026-01-14 23:07:53.62	28.34	17.53	-50.4	-63.6	3.8	1.49e+00	0	40	104	0	72	16395
2026-01-14 23:07:54.62	28.42	17.64	-50.4	-63.6	3.8	1.49e+00	0	40	104	0	72	16370
2026-01-14 23:07:55.61	28.50	17.75	-50.4	-63.6	3.8	1.49e+00	0	40	104	0	72	16440
2026-01-14 23:07:56.61	28.58	17.86	-50.4	-63.6	3.8	1.49e+00	0	40	104	0	72	16387
2026-01-14 23:07:57.60	28.66	17.97	-50.4	-63.6	3.8	1.49e+00	0	40	104	0	72	16388
2026-01-14 23:07:58.59	28.74	18.09	-50.4	-63.6	3.8	1.49e+00	0	40	104	0	72	16410
2026-01-14 23:07:59.59	28.82	18.20	-50.4	-63.6	3.8	1.49e+00	0	40	104	0	72	16365
2026-01-14 23:08:00.58	28.90	18.31	-50.4	-63.6	3.8	1.49e+00	0	40	104	0	72	16428
2026-01-14 23:08:01.58	28.99	18.43	-50.4	-63.6	3.8	1.49e+00	0	40	104	0	72	16375
2026-01-14 23:08:02.57	29.07	18.54	-50.4	-63.6	3.8	1.49e+00	0	40	104	0	72	16472
2026-01-14 23:08:03.56	29.15	18.65	-50.4	-63.6	3.8	1.49e+00	0	40	104	0	72	16393
2026-01-14 23:08:04.56	29.24	18.77	-50.4	-63.6	3.8	1.49e+00	0	40	104	0	72	16434
2026-01-14 23:08:05.55	29.32	18.88	-50.4	-63.6	3.8	1.49e+00	0	40	104	0	72	16398
2026-01-14 23:08:06.54	29.41	19.00	-50.4	-63.6	3.8	1.49e+00	0	40	104	0	72	16434
2026-01-14 23:08:07.58	29.50	19.12	-50.4	-63.6	3.8	1.49e+00	0	40	104	0	72	16443
2026-01-14 23:08:08.53	29.58	19.23	-50.4	-63.6	3.8	1.49e+00	0	40	104	0	72	16423
2026-01-14 23:08:09.52	29.67	19.35	-50.4	-63.6	3.8	1.49e+00	0	40	104	0	72	16365
2026-01-14 23:08:10.52	29.76	19.47	-50.4	-63.6	3.8	1.49e+00	0	40	104	0	72	16360
2026-01-14 23:08:11.51	29.85	19.58	-50.4	-63.6	3.8	1.49e+00	0	40	104	0	72	16405
2026-01-14 23:08:12.50	29.94	19.70	-50.4	-63.6	3.8	1.49e+00	0	40	104	0	72	16413
2026-01-14 23:08:13.50	30.03	19.82	-50.4	-63.6	3.8	1.49e+00	0	40	104	0	72	16405
2026-01-14 23:08:14.49	30.12	19.94	-50.4	-63.6	3.8	1.49e+00	0	40	104	0	72	16400
2026-01-14 23:08:15.49	30.21	20.06	-50.4	-63.6	3.8	1.49e+00	0	40	104	0	72	16362
2026-01-14 23:08:16.48	30.30	20.18	-50.4	-63.6	3.8	1.49e+00	0	40	104	0	72	16398
2026-01-14 23:08:17.47	30.40	20.30	-50.4	-63.6	3.8	1.49e+00	0	40	104	0	72	16362
2026-01-14 23:08:18.47	30.49	20.43	-50.4	-63.6	3.8	1.49e+00	0	40	104	0	72	16466
2026-01-14 23:08:19.46	30.59	20.55	-50.4	-63.6	3.8	1.49e+00	0	40	104	0	72	16431
2026-01-14 23:08:20.45	30.68	20.67	-50.4	-63.6	3.8	1.49e+00	0	40	104	0	72	16406
2026-01-14 23:08:21.45	30.78	20.79	-50.4	-63.6	3.8	1.49e+00	0	40	104	0	72	16441
2026-01-14 23:08:22.44	30.87	20.92	-50.4	-63.6	3.8	1.49e+00	0	40	104	0	72	16351
2026-01-14 23:08:23.43	30.97	21.04	-50.4	-63.6	3.8	1.49e+00	0	40	104	0	72	16428
2026-01-14 23:08:24.43	31.07	21.17	-50.4	-63.6	3.8	1.49e+00	0	40	104	0	72	16467
2026-01-14 23:08:25.42	31.17	21.29	-50.4	-63.6	3.8	1.49e+00	0	40	104	0	72	16449
2026-01-14 23:08:26.42	31.27	21.42	-50.4	-63.6	3.8	1.49e+00	0	40	104	0	72	16471
2026-01-14 23:08:27.41	31.37	21.55	-50.4	-63.6	3.8	1.49e+00	0	40	104	0	72	16404
2026-01-14 23:08:28.40	31.47	21.67	-50.4	-63.6	3.8	1.49e+00	0	40	104	0	72	16387
2026-01-14 23:08:29.40	31.57	21.80	-50.4	-63.6	3.8	1.49e+00	0	40	104	0	72	16389
2026-01-14 23:08:30.39	31.68	21.93	-50.4	-63.6	3.8	1.49e+00	0	40	104	0	72	16446
2026-01-14 23:08:31.39	31.78	22.06	-50.4	-63.6	3.8	1.49e+00	0	40	104	0	72	16428
2026-01-14 23:08:32.38	31.89	22.19	-50.4	-63.6	3.8	1.49e+00	0	40	104	0	72	16454
2026-01-14 23:08:33.38	31.99	22.32	-50.4	-63.6	3.8	1.49e+00	0	40	104	0	72	16424
2026-01-14 23:08:34.37	32.10	22.45	-50.4	-63.6	3.8	1.49e+00	0	40	104	0	72	16446
2026-01-14 23:08:35.40	32.21	22.58	-50.4	-63.6	3.8	1.49e+00	0	40	104	0	72	16391
2026-01-14 23:08:36.41	32.32	22.72	-50.4	-63.6	3.8	1.49e+00	0	40	104	0	72	16375
2026-01-14 23:08:37.45	32.43	22.86	-50.4	-63.6	3.8	1.49e+00	0	40	104	0	72	16445
2026-01-14 23:08:38.47	32.55	22.99	-50.4	-63.6	3.8	1.49e+00	0	40	104	0	72	16324
2026-01-14 23:08:39.50	32.66	23.13	-50.4	-63.6	3.8	1.49e+00	0	40	104	0	72	16409
2026-01-14 23:08:40.54	32.78	23.27	-50.4	-63.6	3.8	1.49e+00	0	40	104	0	72	16437
2026-01-14 23:08:41.52	32.89	23.40	-50.4	-63.6	3.8	1.49e+00	0	40	104	0	72	16414
2026-01-14 23:08:42.59	33.01	23.55	-50.4	-63.6	3.8	1.49e+00	0	40	104	0	72	16400
2026-01-14 23:08:43.47	33.11	23.67	-50.4	-63.6	3.8	1.49e+00	0	40	104	0	72	16468
2026-01-14 23:08:44.78	33.27	23.85	-50.4	-63.6	3.8	1.49e+00	0	40	104	0	72	16435
2026-01-14 23:08:45.49	33.35	23.95	-50.4	-63.6	3.8	1.49e+00	0	40	104	0	72	16390
2026-01-14 23:08:46.77	33.50	24.13	-50.4	-63.6	3.8	1.49e+00	0	40	104	0	72	16480
2026-01-14 23:08:47.48	33.59	24.22	-50.4	-63.6	3.8	1.49e+00	0	40	104	0	72	16434
2026-01-14 23:08:48.76	33.74	24.40	-50.4	-63.6	3.8	1.49e+00	0	40	104	0	72	16362
2026-01-14 23:08:49.48	33.83	24.50	-50.4	-63.6	3.8	1.49e+00	0	40	104	0	72	16398
2026-01-14 23:08:50.76	33.99	24.69	-50.4	-63.6	3.8	1.49e+00	0	40	104	0	72	16404
2026-01-14 23:08:51.47	34.07	24.79	-50.4	-63.6	3.8	1.49e+00	0	40	104	0	72	16430
2026-01-14 23:08:52.75	34.23	24.97	-50.4	-63.6	3.8	1.49e+00	0	40	104	0	72	16454
2026-01-14 23:08:53.46	34.32	25.07	-50.4	-63.6	3.8	1.49e+00	0	40	104	0	72	16375
2026-01-14 23:08:54.75	34.49	25.26	-50.4	-63.6	3.8	1.49e+00	0	40	104	0	72	16349
2026-01-14 23:08:55.46	34.58	25.36	-50.4	-63.6	3.8	1.49e+00	0	40	104	0	72	16429
2026-01-14 23:08:56.80	34.75	25.55	-50.4	-63.6	3.8	1.49e+00	0	40	104	0	72	16410
2026-01-14 23:08:57.51	34.84	25.66	-50.4	-63.6	3.8	1.49e+00	0	40	104	0	72	16426
2026-01-14 23:08:58.87	35.02	25.85	-50.4	-63.6	3.8	1.49e+00	0	40	104	0	72	16426
2026-01-14 23:08:59.58	35.12	25.96	-50.4	-63.6	3.8	1.49e+00	0	40	104	0	72	16462
2026-01-14 23:09:00.90	35.29	26.15	-50.4	-63.6	3.8	1.49e+00	0	40	104	0	72	16377
2026-01-14 23:09:01.61	35.39	26.26	-50.4	-63.6	3.8	1.49e+00	0	40	104	0	72	16426
2026-01-14 23:09:02.89	35.57	26.45	-50.4	-63.6	3.8	1.49e+00	0	40	104	0	72	16367
2026-01-14 23:09:03.60	35.66	26.56	-50.4	-63.6	3.8	1.49e+00	0	40	104	0	72	16427
2026-01-14 23:09:04.88	35.84	26.75	-50.4	-63.6	3.8	1.49e+00	0	40	104	0	72	16390
2026-01-14 23:09:05.59	35.94	26.86	-50.4	-63.6	3.8	1.49e+00	0	40	104	0	72	16358
2026-01-14 23:09:06.86	36.12	27.05	-50.4	-63.6	3.8	1.49e+00	0	40	104	0	72	16443
2026-01-14 23:09:07.60	36.23	27.16	-50.4	-63.6	3.8	1.49e+00	0	40	104	0	72	16383
2026-01-14 23:09:08.88	36.41	27.36	-50.4	-63.6	3.8	1.49e+00	0	40	104	0	72	16407
2026-01-14 23:09:09.59	36.52	27.47	-50.4	-63.6	3.8	1.49e+00	0	40	104	0	72	16403
2026-01-14 23:09:10.88	36.71	27.67	-50.4	-63.6	3.8	1.49e+00	0	40	104	0	72	16427
2026-01-14 23:09:11.59	36.81	27.78	-50.4	-63.6	3.8	1.49e+00	0	40	104	0	72	16323
2026-01-14 23:09:12.87	37.00	27.98	-50.4	-63.6	3.8	1.49e+00	0	40	104	0	72	16462
2026-01-14 23:09:13.58	37.11	28.09	-50.4	-63.6	3.8	1.49e+00	0	40	104	0	72	16403
2026-01-14 23:09:14.86	37.31	28.29	-50.4	-63.6	3.8	1.49e+00	0	40	104	0	72	16412
2026-01-14 23:09:15.57	37.42	28.40	-50.4	-63.6	3.8	1.49e+00	0	40	104	0	72	16468
2026-01-14 23:09:16.84	37.61	28.60	-50.4	-63.6	3.8	1.49e+00	0	40	104	0	72	16427
2026-01-14 23:09:17.55	37.72	28.71	-50.4	-63.6	3.8	1.49e+00	0	40	104	0	72	16462
2026-01-14 23:09:18.83	37.93	28.92	-50.4	-63.6	3.8	1.49e+00	0	40	104	0	72	16422
2026-01-14 23:09:19.54	38.04	29.03	-50.4	-63.6	3.8	1.49e+00	0	40	104	0	72	16393
2026-01-14 23:09:20.82	38.25	29.24	-50.4	-63.6	3.8	1.49e+00	0	40	104	0	72	16362
2026-01-14 23:09:21.53	38.36	29.35	-50.4	-63.6	3.8	1.49e+00	0	40	104	0	72	16374
2026-01-14 23:09:22.81	38.58	29.56	-50.4	-63.6	3.8	1.49e+00	0	40	104	0	72	16424
2026-01-14 23:09:23.52	38.69	29.68	-50.4	-63.6	3.8	1.49e+00	0	40	104	0	72	16441
2026-01-14 23:09:24.79	38.91	29.89	-50.4	-63.6	3.8	1.49e+00	0	40	104	0	72	16415
2026-01-14 23:09:25.52	39.03	30.01	-50.4	-63.6	3.8	1.49e+00	0	40	104	0	72	16368
2026-01-14 23:09:26.79	39.25	30.22	-50.4	-63.6	3.8	1.49e+00	0	40	104	0	72	16345
2026-01-14 23:09:27.50	39.37	30.34	-50.4	-63.6	3.8	1.49e+00	0	40	104	0	72	16446
2026-01-14 23:09:28.78	39.60	30.55	-50.4	-63.6	3.8	1.49e+00	0	40	104	0	72	16420
2026-01-14 23:09:29.51	39.73	30.67	-50.4	-63.6	3.8	1.49e+00	0	40	104	0	72	16386
2026-01-14 23:09:30.78	39.95	30.88	-50.4	-63.6	3.8	1.49e+00	0	40	104	0	72	16413
2026-01-14 23:09:31.51	40.09	31.01	-50.4	-63.6	3.8	1.49e+00	0	40	104	0	72	16404
2026-01-14 23:09:32.78	40.32	31.22	-50.4	-63.6	3.8	1.49e+00	0	40	104	0	72	16412
2026-01-14 23:09:33.49	40.45	31.34	-50.4	-63.6	3.8	1.49e+00	0	40	104	0	72	16437
2026-01-14 23:09:34.77	40.69	31.56	-50.4	-63.6	3.8	1.49e+00	0	40	104	0	72	16407
2026-01-14 23:09:35.48	40.82	31.68	-50.4	-63.6	3.8	1.49e+00	0	40	104	0	72	16398
2026-01-14 23:09:36.76	41.06	31.90	-50.4	-63.6	3.8	1.49e+00	0	40	104	0	72	16385
2026-01-14 23:09:37.48	41.20	32.03	-50.4	-63.6	3.8	1.49e+00	0	40	104	0	72	16441
2026-01-14 23:09:38.76	41.45	32.25	-50.4	-63.6	3.8	1.49e+00	0	40	104	0	72	16407
2026-01-14 23:09:39.47	41.59	32.37	-50.4	-63.6	3.8	1.49e+00	0	40	104	0	72	16418
2026-01-14 23:09:40.75	41.84	32.60	-50.4	-63.6	3.8	1.49e+00	0	40	104	0	72	16436
2026-01-14 23:09:41.46	41.98	32.72	-50.4	-63.6	3.8	1.49e+00	0	40	104	0	72	16428
2026-01-14 23:09:42.74	42.24	32.95	-50.3	-63.6	3.8	1.49e+00	0	40	104	0	72	16342
2026-01-14 23:09:43.46	42.39	33.08	-50.3	-63.6	3.8	1.49e+00	0	40	104	0	72	16391
2026-01-14 23:09:44.76	42.66	33.31	-50.4	-63.6	3.8	1.49e+00	0	40	104	0	72	16337
2026-01-14 23:09:45.47	42.81	33.43	-50.4	-63.6	3.8	1.49e+00	0	40	104	0	72	16453
2026-01-14 23:09:46.81	43.09	33.67	-50.4	-63.6	3.8	1.49e+00	0	40	104	0	72	16414
2026-01-14 23:09:47.52	43.24	33.80	-50.4	-63.6	3.8	1.49e+00	0	40	104	0	72	16394
2026-01-14 23:09:48.86	43.53	34.04	-50.4	-63.6	3.8	1.49e+00	0	40	104	0	72	16399
2026-01-14 23:09:49.57	43.69	34.17	-50.4	-63.6	3.8	1.49e+00	0	40	104	0	72	16358
2026-01-14 23:09:50.93	43.99	34.42	-50.4	-63.6	3.8	1.49e+00	0	40	104	0	72	16439
2026-01-14 23:09:51.64	44.15	34.55	-50.4	-63.6	3.8	1.49e+00	0	40	104	0	72	16369
2026-01-14 23:09:52.91	44.43	34.78	-50.4	-63.6	3.8	1.49e+00	0	40	104	0	72	16366
2026-01-14 23:09:53.62	44.59	34.91	-50.4	-63.6	3.8	1.49e+00	0	40	104	0	72	16386
2026-01-14 23:09:54.90	44.89	35.14	-50.4	-63.6	3.8	1.49e+00	0	40	104	0	72	16355
2026-01-14 23:09:55.61	45.06	35.27	-50.4	-63.6	3.8	1.49e+00	0	40	104	0	72	16435
2026-01-14 23:09:56.89	45.36	35.51	-50.4	-63.6	3.8	1.49e+00	0	40	104	0	72	16388
2026-01-14 23:09:57.60	45.53	35.64	-50.4	-63.6	3.8	1.49e+00	0	40	104	0	72	16391
2026-01-14 23:09:58.87	45.83	35.88	-50.4	-63.6	3.8	1.49e+00	0	40	104	0	72	16365
2026-01-14 23:09:59.58	46.01	36.01	-50.4	-63.6	3.8	1.49e+00	0	40	104	0	72	16384
2026-01-14 23:10:00.86	46.32	36.25	-50.4	-63.6	3.8	1.49e+00	0	40	104	0	72	16375
2026-01-14 23:10:01.58	46.50	36.38	-50.4	-63.6	3.8	1.49e+00	0	40	104	0	72	16384
2026-01-14 23:10:02.86	46.83	36.62	-50.4	-63.6	3.8	1.49e+00	0	40	104	0	72	16400
2026-01-14 23:10:03.57	47.01	36.76	-50.4	-63.6	3.8	1.49e+00	0	40	104	0	72	16375
2026-01-14 23:10:04.85	47.34	37.00	-50.4	-63.5	3.8	1.49e+00	0	41	104	0	72	16306
2026-01-14 23:10:05.56	47.52	37.13	-50.4	-63.6	3.8	1.49e+00	0	41	104	0	72	16444
2026-01-14 23:10:06.84	47.86	37.38	-50.4	-63.6	3.8	1.49e+00	0	40	104	0	72	16414
2026-01-14 23:10:07.55	48.05	37.51	-50.4	-63.6	3.8	1.49e+00	0	40	104	0	72	16387
2026-01-14 23:10:08.83	48.40	37.76	-50.4	-63.6	3.8	1.49e+00	0	40	104	0	72	16338
2026-01-14 23:10:09.55	48.59	37.89	-50.4	-63.6	3.8	1.49e+00	0	40	104	0	72	16386
2026-01-14 23:10:10.83	48.95	38.14	-50.4	-63.6	3.8	1.49e+00	0	40	104	0	72	16348
2026-01-14 23:10:11.54	49.15	38.27	-50.4	-63.6	3.8	1.49e+00	0	40	104	0	72	16410
2026-01-14 23:10:12.81	49.50	38.52	-50.4	-63.6	3.8	1.49e+00	0	40	104	0	72	16384
2026-01-14 23:10:13.52	49.71	38.65	-50.4	-63.6	3.8	1.49e+00	0	40	104	0	72	16411
2026-01-14 23:10:14.80	50.08	38.90	-50.4	-63.6	3.8	1.49e+00	0	40	104	0	72	16448
2026-01-14 23:10:15.51	50.29	39.04	-50.4	-63.6	3.8	1.49e+00	0	40	104	0	72	16358
2026-01-14 23:10:16.79	50.67	39.28	-50.4	-63.6	3.8	1.49e+00	0	40	104	0	72	16410
2026-01-14 23:10:17.50	50.88	39.42	-50.4	-63.6	3.8	1.49e+00	0	41	104	0	72	16437
2026-01-14 23:10:18.78	51.27	39.67	-50.4	-63.6	3.8	1.49e+00	0	40	104	0	72	16414
2026-01-14 23:10:19.50	51.49	39.81	-50.4	-63.6	3.8	1.49e+00	0	40	104	0	72	16357
2026-01-14 23:10:20.78	51.89	40.06	-50.4	-63.6	3.8	1.49e+00	0	40	104	0	72	16373
2026-01-14 23:10:21.49	52.11	40.20	-50.4	-63.6	3.8	1.49e+00	0	41	104	0	72	16364
2026-01-14 23:10:22.86	52.55	40.46	-50.4	-63.6	3.8	1.49e+00	0	40	104	0	72	16445
2026-01-14 23:10:23.57	52.77	40.60	-50.4	-63.6	3.8	1.49e+00	0	40	104	0	72	16405
2026-01-14 23:10:24.85	53.19	40.85	-50.4	-63.6	3.8	1.49e+00	0	41	104	0	72	16442
2026-01-14 23:10:25.56	53.43	40.99	-50.4	-63.6	3.8	1.49e+00	0	40	104	0	72	16425
2026-01-14 23:10:26.84	53.85	41.24	-50.3	-63.6	3.8	1.49e+00	0	41	104	0	72	16396
2026-01-14 23:10:27.55	54.09	41.37	-50.4	-63.6	3.8	1.49e+00	0	40	104	0	72	16366
2026-01-14 23:10:28.82	54.53	41.62	-50.4	-63.6	3.8	1.49e+00	0	40	104	0	72	16425
2026-01-14 23:10:29.53	54.77	41.76	-50.4	-63.6	3.8	1.49e+00	0	40	104	0	72	16379
2026-01-14 23:10:30.81	55.22	42.01	-50.4	-63.6	3.8	1.49e+00	0	40	104	0	72	16415
2026-01-14 23:10:31.55	55.48	42.15	-50.4	-63.6	3.8	1.49e+00	0	40	104	0	72	16373
2026-01-14 23:10:32.83	55.94	42.40	-50.4	-63.6	3.8	1.49e+00	0	40	104	0	72	16446
2026-01-14 23:10:33.54	56.20	42.54	-50.4	-63.6	3.8	1.49e+00	0	40	104	0	72	16463
2026-01-14 23:10:34.82	56.67	42.78	-50.4	-63.6	3.8	1.49e+00	0	40	104	0	72	16418
2026-01-14 23:10:35.54	56.94	42.92	-50.4	-63.6	3.8	1.49e+00	0	40	104	0	72	16399
2026-01-14 23:10:36.82	57.42	43.17	-50.4	-63.6	3.8	1.49e+00	0	40	104	0	72	16421
2026-01-14 23:10:37.54	57.69	43.31	-50.4	-63.6	3.8	1.49e+00	0	40	104	0	72	16401
2026-01-14 23:10:38.82	58.18	43.55	-50.4	-63.6	3.8	1.49e+00	0	40	104	0	72	16392
2026-01-14 23:10:39.55	58.47	43.69	-50.4	-63.6	3.8	1.49e+00	0	40	104	0	72	16419
2026-01-14 23:10:40.90	59.00	43.95	-50.4	-63.6	3.8	1.49e+00	0	41	104	0	72	16396
2026-01-14 23:10:41.61	59.28	44.09	-50.4	-63.6	3.8	1.49e+00	0	41	104	0	72	16361
2026-01-14 23:10:42.89	59.80	44.33	-50.4	-63.6	3.8	1.49e+00	0	40	104	0	72	16434
2026-01-14 23:10:43.62	60.10	44.47	-50.4	-63.6	3.8	1.49e+00	0	41	104	0	72	16408
2026-01-14 23:10:44.89	60.62	44.71	-50.4	-63.6	3.8	1.49e+00	0	40	104	0	72	16409
2026-01-14 23:10:45.60	60.92	44.84	-50.4	-63.6	3.8	1.49e+00	0	40	104	0	72	16395
2026-01-14 23:10:46.88	61.46	45.08	-50.4	-63.6	3.8	1.49e+00	0	40	104	0	72	16419
2026-01-14 23:10:47.59	61.77	45.21	-50.4	-63.6	3.8	1.49e+00	0	40	104	0	72	16354
2026-01-14 23:10:48.87	62.32	45.45	-50.4	-63.6	3.8	1.49e+00	0	41	104	0	72	16439
2026-01-14 23:10:49.61	62.64	45.59	-50.4	-63.6	3.8	1.49e+00	0	41	104	0	72	16386
2026-01-14 23:10:50.89	63.21	45.82	-50.4	-63.6	3.8	1.49e+00	0	41	104	0	72	16431
2026-01-14 23:10:51.61	63.54	45.95	-50.4	-63.6	3.8	1.49e+00	0	40	104	0	72	16379
2026-01-14 23:10:52.89	64.12	46.18	-50.4	-63.6	3.8	1.49e+00	0	40	104	0	72	16412
2026-01-14 23:10:53.60	64.44	46.31	-50.4	-63.6	3.8	1.49e+00	0	40	104	0	72	16416
2026-01-14 23:10:54.88	65.04	46.54	-50.4	-63.6	3.8	1.49e+00	0	41	104	0	72	16385
2026-01-14 23:10:55.60	65.37	46.67	-50.4	-63.6	3.8	1.49e+00	0	40	104	0	72	16465
2026-01-14 23:10:56.88	65.98	46.89	-50.4	-63.6	3.8	1.49e+00	0	40	104	0	72	16431
2026-01-14 23:10:57.59	66.32	47.02	-50.4	-63.6	3.8	1.49e+00	0	40	104	0	72	16455
2026-01-14 23:10:58.87	66.94	47.24	-50.4	-63.6	3.8	1.49e+00	0	40	104	0	72	16354
2026-01-14 23:10:59.57	67.29	47.36	-50.4	-63.6	3.8	1.49e+00	0	40	104	0	72	16370
2026-01-14 23:11:00.85	67.92	47.58	-50.4	-63.6	3.8	1.49e+00	0	40	104	0	72	16427
2026-01-14 23:11:01.59	68.29	47.70	-50.4	-63.6	3.8	1.49e+00	0	40	104	0	72	16450
2026-01-14 23:11:02.87	68.94	47.92	-50.4	-63.6	3.8	1.49e+00	0	40	104	0	72	16390
2026-01-14 23:11:03.58	69.30	48.04	-50.4	-63.6	3.8	1.49e+00	0	40	104	0	72	16456
2026-01-14 23:11:04.86	69.97	48.25	-50.4	-63.6	3.8	1.49e+00	0	40	104	0	72	16409
2026-01-14 23:11:05.57	70.34	48.36	-50.4	-63.6	3.8	1.49e+00	0	40	104	0	72	16447
2026-01-14 23:11:06.85	71.02	48.56	-50.4	-63.6	3.8	1.49e+00	0	40	104	0	72	16420
2026-01-14 23:11:07.57	71.40	48.68	-50.4	-63.6	3.8	1.49e+00	0	40	104	0	72	16424
2026-01-14 23:11:08.85	72.09	48.88	-50.4	-63.6	3.8	1.49e+00	0	40	104	0	72	16496
2026-01-14 23:11:09.56	72.48	48.99	-50.4	-63.6	3.8	1.49e+00	0	41	104	0	72	16402
2026-01-14 23:11:10.85	73.19	49.18	-50.4	-63.6	3.8	1.49e+00	0	40	104	0	72	16441
2026-01-14 23:11:11.56	73.58	49.29	-50.4	-63.6	3.8	1.49e+00	0	40	104	0	72	16384
2026-01-14 23:11:12.84	74.30	49.48	-50.4	-63.6	3.8	1.49e+00	0	40	104	0	72	16471
2026-01-14 23:11:13.55	74.70	49.58	-50.4	-63.6	3.8	1.49e+00	0	40	104	0	72	16387
2026-01-14 23:11:14.82	75.43	49.76	-50.4	-63.6	3.8	1.49e+00	0	40	104	0	72	16393
2026-01-14 23:11:15.53	75.84	49.86	-50.4	-63.6	3.8	1.49e+00	0	40	104	0	72	16376
2026-01-14 23:11:16.83	76.59	50.03	-50.4	-63.6	3.8	1.49e+00	0	40	104	0	72	16422
2026-01-14 23:11:17.54	77.01	50.13	-50.4	-63.6	3.8	1.49e+00	0	40	104	0	72	16410
2026-01-14 23:11:18.81	77.76	50.30	-50.4	-63.6	3.8	1.49e+00	0	40	104	0	72	16474
2026-01-14 23:11:19.52	78.19	50.39	-50.4	-63.6	3.8	1.49e+00	0	40	104	0	72	16403
2026-01-14 23:11:20.80	78.96	50.55	-50.4	-63.6	3.8	1.49e+00	0	41	104	0	72	16363
2026-01-14 23:11:21.51	79.39	50.64	-50.4	-63.6	3.8	1.49e+00	0	40	104	0	72	16373
2026-01-14 23:11:22.79	80.17	50.79	-50.4	-63.6	3.8	1.49e+00	0	40	104	0	72	16402
2026-01-14 23:11:23.50	80.61	50.87	-50.4	-63.6	3.8	1.49e+00	0	40	104	0	72	16453
2026-01-14 23:11:24.78	81.40	51.02	-50.4	-63.6	3.8	1.49e+00	0	40	104	0	72	16417
2026-01-14 23:11:25.49	81.85	51.09	-50.4	-63.6	3.8	1.49e+00	0	41	104	0	72	16458
2026-01-14 23:11:26.78	82.66	51.23	-50.4	-63.6	3.8	1.49e+00	0	41	104	0	72	16356
2026-01-14 23:11:27.49	83.11	51.31	-50.4	-63.6	3.8	1.49e+00	0	40	104	0	72	16429
2026-01-14 23:11:28.77	83.93	51.43	-50.4	-63.6	3.8	1.49e+00	0	40	104	0	72	16388
2026-01-14 23:11:29.48	84.39	51.50	-50.4	-63.6	3.8	1.49e+00	0	41	104	0	72	16377
2026-01-14 23:11:30.82	85.26	51.63	-50.4	-63.6	3.8	1.49e+00	0	41	104	0	72	16417
2026-01-14 23:11:31.53	85.72	51.69	-50.4	-63.6	3.8	1.49e+00	0	41	104	0	72	16413
2026-01-14 23:11:32.87	86.60	51.81	-50.4	-63.6	3.8	1.49e+00	0	40	104	0	72	16420
2026-01-14 23:11:33.58	87.07	51.86	-50.4	-63.6	3.8	1.49e+00	0	41	104	0	72	16409
2026-01-14 23:11:34.86	87.91	51.96	-50.4	-63.6	3.8	1.49e+00	0	41	104	0	72	16347
2026-01-14 23:11:35.57	88.39	52.02	-50.4	-63.6	3.8	1.49e+00	0	40	104	0	72	16486
2026-01-14 23:11:36.84	89.24	52.11	-50.4	-63.6	3.8	1.49e+00	0	41	104	0	72	16435
2026-01-14 23:11:37.55	89.72	52.15	-50.4	-63.6	3.8	1.49e+00	0	40	104	0	72	16361
2026-01-14 23:11:38.83	90.58	52.23	-50.4	-63.6	3.8	1.49e+00	0	41	104	0	72	16389
2026-01-14 23:11:39.54	91.06	52.28	-50.4	-63.6	3.8	1.49e+00	0	41	104	0	72	16433
2026-01-14 23:11:40.82	91.93	52.35	-50.4	-63.6	3.8	1.49e+00	0	40	104	0	72	16400
2026-01-14 23:11:41.53	92.42	52.38	-50.4	-63.6	3.8	1.49e+00	0	41	104	0	72	16448
2026-01-14 23:11:42.81	93.30	52.44	-50.4	-63.6	3.8	1.49e+00	0	40	104	0	72	16424
2026-01-14 23:11:43.52	93.79	52.47	-50.4	-63.6	3.8	1.49e+00	0	40	104	0	72	16435
2026-01-14 23:11:44.79	94.66	52.52	-50.4	-63.6	3.8	1.49e+00	0	40	104	0	72	16451
2026-01-14 23:11:45.50	95.15	52.54	-50.4	-63.6	3.8	1.49e+00	0	41	104	0	72	16396
2026-01-14 23:11:46.78	96.04	52.58	-50.4	-63.6	3.8	1.49e+00	0	41	104	0	72	16405
2026-01-14 23:11:47.49	96.53	52.60	-50.4	-63.6	3.8	1.49e+00	0	41	104	0	72	16396
2026-01-14 23:11:48.77	97.42	52.63	-50.4	-63.6	3.8	1.49e+00	0	41	104	0	72	16391
2026-01-14 23:11:49.48	97.92	52.64	-50.4	-63.6	3.8	1.49e+00	0	41	104	0	72	16421
2026-01-14 23:11:50.76	98.81	52.66	-50.4	-63.6	3.8	1.49e+00	0	41	104	0	72	16398
2026-01-14 23:11:51.47	99.30	52.66	-50.4	-63.6	3.8	1.49e+00	0	40	104	0	72	16375
2026-01-14 23:11:52.74	100.19	52.67	-50.4	-63.6	3.8	1.49e+00	0	40	104	0	72	16416
2026-01-14 23:11:53.47	100.70	52.67	-50.4	-63.6	3.8	1.49e+00	0	41	104	0	72	16429
2026-01-14 23:11:54.75	101.59	52.66	-50.4	-63.6	3.8	1.49e+00	0	41	104	0	72	16354
2026-01-14 23:11:55.46	102.09	52.66	-50.4	-63.6	3.8	1.49e+00	0	40	104	0	72	16363
2026-01-14 23:11:56.74	102.98	52.64	-50.4	-63.6	3.8	1.49e+00	0	41	104	0	72	16461
2026-01-14 23:11:57.45	103.48	52.63	-50.4	-63.6	3.8	1.49e+00	0	40	104	0	72	16399
2026-01-14 23:11:58.72	104.36	52.60	-50.4	-63.6	3.8	1.49e+00	0	41	104	0	72	16478
2026-01-14 23:11:59.45	104.87	52.59	-50.4	-63.6	3.8	1.49e+00	0	41	104	0	72	16417
2026-01-14 23:12:00.72	105.75	52.55	-50.4	-63.6	3.8	1.49e+00	0	41	104	0	72	16467
2026-01-14 23:12:01.43	106.24	52.52	-50.4	-63.6	3.8	1.49e+00	0	40	104	0	72	16397
2026-01-14 23:12:02.71	107.12	52.48	-50.4	-63.6	3.8	1.49e+00	0	41	104	0	72	16445
2026-01-14 23:12:03.42	107.61	52.45	-50.4	-63.6	3.8	1.49e+00	0	41	104	0	72	16432
2026-01-14 23:12:04.70	108.49	52.39	-50.4	-63.6	3.8	1.49e+00	0	41	104	0	72	16370
2026-01-14 23:12:05.41	108.98	52.35	-50.4	-63.6	3.8	1.49e+00	0	41	104	0	72	16398
2026-01-14 23:12:06.69	109.85	52.28	-50.4	-63.6	3.8	1.49e+00	0	40	104	0	72	16372
2026-01-14 23:12:07.40	110.33	52.24	-50.4	-63.6	3.8	1.49e+00	0	41	104	0	72	16387
2026-01-14 23:12:08.80	111.28	52.15	-50.3	-63.6	3.8	1.49e+00	0	41	104	0	72	16400
2026-01-14 23:12:09.51	111.76	52.11	-50.4	-63.6	3.8	1.49e+00	0	41	104	0	72	16447
2026-01-14 23:12:10.87	112.67	52.01	-50.4	-63.6	3.8	1.49e+00	0	41	104	0	72	16403
2026-01-14 23:12:11.58	113.14	51.96	-50.4	-63.6	3.8	1.49e+00	0	41	104	0	72	16458
2026-01-14 23:12:12.90	114.02	51.85	-50.4	-63.6	3.8	1.49e+00	0	41	104	0	72	16472
2026-01-14 23:12:13.61	114.49	51.79	-50.4	-63.6	3.8	1.49e+00	0	41	104	0	72	16468
2026-01-14 23:12:14.89	115.33	51.68	-50.4	-63.6	3.8	1.49e+00	0	41	104	0	72	16376
2026-01-14 23:12:15.60	115.79	51.62	-50.4	-63.6	3.8	1.49e+00	0	41	104	0	72	16414
2026-01-14 23:12:16.88	116.62	51.50	-50.4	-63.7	3.8	1.49e+00	0	41	104	0	72	16504
2026-01-14 23:12:17.59	117.08	51.43	-50.4	-63.6	3.8	1.49e+00	0	40	104	0	72	16462
2026-01-14 23:12:18.87	117.90	51.30	-50.4	-63.6	3.8	1.49e+00	0	41	104	0	72	16464
2026-01-14 23:12:19.58	118.35	51.23	-50.4	-63.6	3.8	1.49e+00	0	41	104	0	72	16396
2026-01-14 23:12:20.85	119.15	51.09	-50.4	-63.6	3.8	1.49e+00	0	41	104	0	72	16420
2026-01-14 23:12:21.56	119.59	51.01	-50.4	-63.6	3.8	1.49e+00	0	41	104	0	72	16352
2026-01-14 23:12:22.84	120.39	50.87	-50.4	-63.6	3.8	1.49e+00	0	41	104	0	72	16485
2026-01-14 23:12:23.55	120.83	50.79	-50.4	-63.6	3.8	1.49e+00	0	41	104	0	72	16397
2026-01-14 23:12:24.83	121.61	50.63	-50.4	-63.6	3.8	1.49e+00	0	41	104	0	72	16432
2026-01-14 23:12:25.54	122.05	50.55	-50.4	-63.6	3.8	1.49e+00	0	41	104	0	72	16467
2026-01-14 23:12:26.81	122.81	50.39	-50.4	-63.7	3.8	1.49e+00	0	41	104	0	72	16504
2026-01-14 23:12:27.52	123.24	50.29	-50.4	-63.6	3.8	1.49e+00	0	41	104	0	72	16440
2026-01-14 23:12:28.80	124.00	50.13	-50.4	-63.6	3.8	1.49e+00	0	41	104	0	72	16404
2026-01-14 23:12:29.53	124.43	50.03	-50.4	-63.6	3.8	1.49e+00	0	41	104	0	72	16467
2026-01-14 23:12:30.80	125.17	49.85	-50.4	-63.6	3.8	1.49e+00	0	41	104	0	72	16437
2026-01-14 23:12:31.51	125.58	49.75	-50.4	-63.6	3.8	1.49e+00	0	41	104	0	72	16385
2026-01-14 23:12:32.81	126.32	49.57	-50.4	-63.6	3.8	1.49e+00	0	41	104	0	72	16432
2026-01-14 23:12:33.51	126.72	49.47	-50.4	-63.6	3.8	1.49e+00	0	41	104	0	72	16432
2026-01-14 23:12:34.79	127.44	49.28	-50.4	-63.6	3.8	1.49e+00	0	41	104	0	72	16442
2026-01-14 23:12:35.52	127.84	49.17	-50.4	-63.6	3.8	1.49e+00	0	41	104	0	72	16422
2026-01-14 23:12:36.80	128.55	48.98	-50.4	-63.6	3.8	1.49e+00	0	41	104	0	72	16404
2026-01-14 23:12:37.51	128.94	48.87	-50.4	-63.6	3.8	1.49e+00	0	41	104	0	72	16489
2026-01-14 23:12:38.78	129.62	48.67	-50.4	-63.6	3.8	1.49e+00	0	41	104	0	72	16430
2026-01-14 23:12:39.49	130.00	48.56	-50.4	-63.6	3.8	1.49e+00	0	41	104	0	72	16420
2026-01-14 23:12:40.77	130.68	48.35	-50.4	-63.6	3.8	1.49e+00	0	41	104	0	72	16413
2026-01-14 23:12:41.50	131.06	48.23	-50.4	-63.6	3.8	1.49e+00	0	40	104	0	72	16425
2026-01-14 23:12:42.77	131.72	48.02	-50.4	-63.6	3.8	1.49e+00	0	41	104	0	72	16368
2026-01-14 23:12:43.49	132.09	47.90	-50.4	-63.6	3.8	1.49e+00	0	41	104	0	72	16453
2026-01-14 23:12:44.76	132.74	47.69	-50.4	-63.6	3.8	1.49e+00	0	41	104	0	72	16457
2026-01-14 23:12:45.47	133.09	47.57	-50.4	-63.6	3.8	1.49e+00	0	41	104	0	72	16459
2026-01-14 23:12:46.75	133.73	47.35	-50.4	-63.6	3.8	1.49e+00	0	41	104	0	72	16462
2026-01-14 23:12:47.47	134.08	47.23	-50.4	-63.6	3.8	1.49e+00	0	41	104	0	72	16439
2026-01-14 23:12:48.75	134.71	47.00	-50.4	-63.6	3.8	1.49e+00	0	41	104	0	72	16425
2026-01-14 23:12:49.48	135.06	46.87	-50.4	-63.6	3.8	1.49e+00	0	41	104	0	72	16447
2026-01-14 23:12:50.75	135.66	46.65	-50.4	-63.6	3.8	1.49e+00	0	41	104	0	72	16430
2026-01-14 23:12:51.46	136.00	46.52	-50.4	-63.6	3.8	1.49e+00	0	41	104	0	72	16414
2026-01-14 23:12:52.74	136.59	46.29	-50.4	-63.6	3.8	1.49e+00	0	41	104	0	72	16444
2026-01-14 23:12:53.45	136.92	46.16	-50.4	-63.6	3.8	1.49e+00	0	41	104	0	72	16476
2026-01-14 23:12:54.73	137.50	45.93	-50.4	-63.6	3.8	1.49e+00	0	41	104	0	72	16465
2026-01-14 23:12:55.44	137.82	45.80	-50.4	-63.6	3.8	1.49e+00	0	41	104	0	72	16378
2026-01-14 23:12:56.72	138.39	45.57	-50.4	-63.6	3.8	1.49e+00	0	41	104	0	72	16410
2026-01-14 23:12:57.44	138.71	45.43	-50.4	-63.6	3.8	1.49e+00	0	41	104	0	72	16415
2026-01-14 23:12:58.72	139.26	45.19	-50.4	-63.6	3.8	1.49e+00	0	41	104	0	72	16378
2026-01-14 23:12:59.45	139.57	45.06	-50.4	-63.6	3.8	1.49e+00	0	41	104	0	72	16496
2026-01-14 23:13:00.72	140.11	44.82	-50.4	-63.6	3.8	1.49e+00	0	41	104	0	72	16412
2026-01-14 23:13:01.45	140.42	44.68	-50.4	-63.6	3.8	1.49e+00	0	41	104	0	72	16430
2026-01-14 23:13:02.85	141.00	44.42	-50.4	-63.6	3.8	1.49e+00	0	41	104	0	72	16498
2026-01-14 23:13:03.56	141.29	44.28	-50.4	-63.6	3.8	1.49e+00	0	41	104	0	72	16378
2026-01-14 23:13:04.84	141.81	44.04	-50.4	-63.6	3.8	1.49e+00	0	41	104	0	72	16461
2026-01-14 23:13:05.56	142.10	43.90	-50.4	-63.6	3.8	1.49e+00	0	41	104	0	72	16444
2026-01-14 23:13:06.84	142.60	43.65	-50.4	-63.6	3.8	1.49e+00	0	41	104	0	72	16406
2026-01-14 23:13:07.55	142.88	43.52	-50.4	-63.6	3.8	1.49e+00	0	41	104	0	72	16496
2026-01-14 23:13:08.83	143.37	43.27	-50.4	-63.6	3.8	1.49e+00	0	41	104	0	72	16427
2026-01-14 23:13:09.55	143.65	43.13	-50.4	-63.6	3.8	1.49e+00	0	41	104	0	72	16437
2026-01-14 23:13:10.83	144.13	42.88	-50.4	-63.6	3.8	1.49e+00	0	41	104	0	72	16395
2026-01-14 23:13:11.56	144.40	42.74	-50.4	-63.6	3.8	1.49e+00	0	41	104	0	72	16464
2026-01-14 23:13:12.83	144.87	42.49	-50.4	-63.6	3.8	1.49e+00	0	41	104	0	72	16406
2026-01-14 23:13:13.54	145.12	42.35	-50.4	-63.6	3.8	1.49e+00	0	41	104	0	72	16495
2026-01-14 23:13:14.82	145.58	42.11	-50.4	-63.6	3.8	1.49e+00	0	41	104	0	72	16421
2026-01-14 23:13:15.55	145.84	41.96	-50.4	-63.6	3.8	1.49e+00	0	41	104	0	72	16417
2026-01-14 23:13:16.83	146.29	41.71	-50.4	-63.6	3.8	1.49e+00	0	41	104	0	72	16470
2026-01-14 23:13:17.56	146.54	41.57	-50.4	-63.6	3.8	1.49e+00	0	41	104	0	72	16452
2026-01-14 23:13:18.84	146.98	41.32	-50.4	-63.6	3.8	1.49e+00	0	41	104	0	72	16431
2026-01-14 23:13:19.55	147.22	41.18	-50.4	-63.6	3.8	1.49e+00	0	41	104	0	72	16430
2026-01-14 23:13:20.83	147.65	40.93	-50.4	-63.6	3.8	1.49e+00	0	41	104	0	72	16439
2026-01-14 23:13:21.54	147.89	40.79	-50.4	-63.6	3.8	1.49e+00	0	41	104	0	72	16413
2026-01-14 23:13:22.82	148.30	40.54	-50.4	-63.6	3.8	1.49e+00	0	41	104	0	72	16405
2026-01-14 23:13:23.53	148.53	40.40	-50.4	-63.6	3.8	1.49e+00	0	41	104	0	72	16474
2026-01-14 23:13:24.81	148.94	40.15	-50.4	-63.6	3.8	1.49e+00	0	41	104	0	72	16476
2026-01-14 23:13:25.52	149.16	40.01	-50.4	-63.6	3.8	1.49e+00	0	41	104	0	72	16455
2026-01-14 23:13:26.79	149.56	39.77	-50.4	-63.6	3.8	1.49e+00	0	41	104	0	72	16441
2026-01-14 23:13:27.50	149.78	39.63	-50.4	-63.6	3.8	1.49e+00	0	41	104	0	72	16470
2026-01-14 23:13:28.78	150.17	39.38	-50.4	-63.6	3.8	1.49e+00	0	41	104	0	72	16432
2026-01-14 23:13:29.51	150.39	39.24	-50.4	-63.6	3.8	1.49e+00	0	41	104	0	72	16425
2026-01-14 23:13:30.78	150.76	38.99	-50.4	-63.6	3.8	1.49e+00	0	41	104	0	72	16481
2026-01-14 23:13:31.49	150.97	38.85	-50.4	-63.6	3.8	1.49e+00	0	41	104	0	72	16422
2026-01-14 23:13:32.77	151.34	38.60	-50.4	-63.6	3.8	1.49e+00	0	41	104	0	72	16445
2026-01-14 23:13:33.48	151.55	38.47	-50.4	-63.6	3.8	1.49e+00	0	41	104	0	72	16488
2026-01-14 23:13:34.76	151.91	38.22	-50.4	-63.6	3.8	1.49e+00	0	41	104	0	72	16478
2026-01-14 23:13:35.47	152.11	38.08	-50.4	-63.6	3.8	1.49e+00	0	41	104	0	72	16481
2026-01-14 23:13:36.74	152.46	37.84	-50.4	-63.6	3.8	1.49e+00	0	41	104	0	72	16432
2026-01-14 23:13:37.47	152.66	37.70	-50.4	-63.6	3.8	1.49e+00	0	41	104	0	72	16481
2026-01-14 23:13:38.75	153.01	37.45	-50.4	-63.6	3.8	1.49e+00	0	41	104	0	72	16407
2026-01-14 23:13:39.45	153.20	37.32	-50.4	-63.6	3.8	1.49e+00	0	41	104	0	72	16458
2026-01-14 23:13:40.73	153.53	37.08	-50.4	-63.6	3.8	1.49e+00	0	41	104	0	72	16431
2026-01-14 23:13:41.46	153.73	36.94	-50.4	-63.6	3.8	1.49e+00	0	41	104	0	72	16469
2026-01-14 23:13:42.74	154.06	36.69	-50.4	-63.6	3.8	1.49e+00	0	41	104	0	72	16427
2026-01-14 23:13:43.45	154.24	36.56	-50.4	-63.6	3.8	1.49e+00	0	41	104	0	72	16445
2026-01-14 23:13:44.72	154.56	36.32	-50.4	-63.6	3.8	1.49e+00	0	41	104	0	72	16474
2026-01-14 23:13:45.43	154.74	36.18	-50.4	-63.6	3.8	1.49e+00	0	41	104	0	72	16482
2026-01-14 23:13:46.71	155.05	35.94	-50.4	-63.6	3.8	1.49e+00	0	41	104	0	72	16482
2026-01-14 23:13:47.42	155.23	35.81	-50.4	-63.6	3.8	1.49e+00	0	41	104	0	72	16495
2026-01-14 23:13:48.70	155.54	35.57	-50.4	-63.6	3.8	1.49e+00	0	41	104	0	72	16448
2026-01-14 23:13:49.41	155.71	35.44	-50.4	-63.6	3.8	1.49e+00	0	41	104	0	72	16442
2026-01-14 23:13:50.69	156.01	35.20	-50.4	-63.6	3.8	1.49e+00	0	41	104	0	72	16450
2026-01-14 23:13:51.40	156.17	35.07	-50.4	-63.6	3.8	1.49e+00	0	41	104	0	72	16413
2026-01-14 23:13:52.67	156.47	34.84	-50.4	-63.7	3.8	1.49e+00	0	41	104	0	72	16504
2026-01-14 23:13:53.38	156.63	34.70	-50.4	-63.6	3.8	1.49e+00	0	41	104	0	72	16484
2026-01-14 23:13:54.66	156.92	34.47	-50.4	-63.6	3.8	1.49e+00	0	41	104	0	72	16473
2026-01-14 23:13:55.37	157.08	34.34	-50.4	-63.6	3.8	1.49e+00	0	41	104	0	72	16499
2026-01-14 23:13:56.66	157.36	34.10	-50.4	-63.7	3.8	1.49e+00	0	41	104	0	72	16511
2026-01-14 23:13:57.38	157.52	33.97	-50.4	-63.6	3.8	1.49e+00	0	41	104	0	72	16456
2026-01-14 23:13:58.65	157.80	33.74	-50.4	-63.6	3.8	1.49e+00	0	41	104	0	72	16467
2026-01-14 23:13:59.38	157.95	33.61	-50.4	-63.6	3.8	1.49e+00	0	41	104	0	72	16465
2026-01-14 23:14:00.66	158.22	33.38	-50.4	-63.6	3.8	1.49e+00	0	41	104	0	72	16433
2026-01-14 23:14:01.37	158.37	33.25	-50.4	-63.6	3.8	1.49e+00	0	41	104	0	72	16503
2026-01-14 23:14:02.64	158.64	33.03	-50.4	-63.6	3.8	1.49e+00	0	41	104	0	72	16457
2026-01-14 23:14:03.35	158.78	32.90	-50.4	-63.7	3.8	1.49e+00	0	41	104	0	72	16515
2026-01-14 23:14:04.63	159.04	32.67	-50.4	-63.7	3.8	1.49e+00	0	41	104	0	72	16534
2026-01-14 23:14:05.35	159.19	32.55	-50.4	-63.6	3.8	1.49e+00	0	41	104	0	72	16474
2026-01-14 23:14:06.63	159.44	32.32	-50.4	-63.6	3.8	1.49e+00	0	41	104	0	72	16479
2026-01-14 23:14:07.34	159.58	32.20	-50.4	-63.6	3.8	1.49e+00	0	41	104	0	72	16480
2026-01-14 23:14:08.62	159.83	31.97	-50.4	-63.6	3.8	1.49e+00	0	41	104	0	72	16456
2026-01-14 23:14:09.35	159.97	31.85	-50.4	-63.6	3.8	1.49e+00	0	41	104	0	72	16490
2026-01-14 23:14:10.62	160.21	31.63	-50.4	-63.6	3.8	1.49e+00	0	41	104	0	72	16450
2026-01-14 23:14:11.33	160.35	31.50	-50.4	-63.6	3.8	1.49e+00	0	41	104	0	72	16472
2026-01-14 23:14:12.61	160.58	31.28	-50.4	-63.6	3.8	1.49e+00	0	41	104	0	72	16450
2026-01-14 23:14:13.32	160.72	31.16	-50.4	-63.7	3.8	1.49e+00	0	41	104	0	72	16504
2026-01-14 23:14:14.60	160.95	30.94	-50.4	-63.6	3.8	1.49e+00	0	41	104	0	72	16382
2026-01-14 23:14:15.31	161.08	30.82	-50.4	-63.6	3.8	1.49e+00	0	41	104	0	72	16481
2026-01-14 23:14:16.59	161.31	30.61	-50.4	-63.7	3.8	1.49e+00	0	41	104	0	72	16532
2026-01-14 23:14:17.30	161.43	30.49	-50.4	-63.7	3.8	1.49e+00	0	41	104	0	72	16513
2026-01-14 23:14:18.58	161.66	30.27	-50.4	-63.7	3.8	1.49e+00	0	41	104	0	72	16517
2026-01-14 23:14:19.30	161.78	30.15	-50.4	-63.6	3.8	1.49e+00	0	41	104	0	72	16489
2026-01-14 23:14:20.58	162.00	29.94	-50.4	-63.6	3.8	1.49e+00	0	41	104	0	72	16478
2026-01-14 23:14:21.31	162.13	29.82	-50.4	-63.7	3.8	1.49e+00	0	41	104	0	72	16532
2026-01-14 23:14:22.58	162.34	29.61	-50.4	-63.6	3.8	1.49e+00	0	41	104	0	72	16458
2026-01-14 23:14:23.29	162.46	29.49	-50.4	-63.7	3.8	1.49e+00	0	41	104	0	72	16518
2026-01-14 23:14:24.57	162.67	29.28	-50.4	-63.6	3.8	1.49e+00	0	41	104	0	72	16478
2026-01-14 23:14:25.28	162.79	29.16	-50.4	-63.6	3.8	1.49e+00	0	41	104	0	72	16493
2026-01-14 23:14:26.56	163.00	28.96	-50.4	-63.6	3.8	1.49e+00	0	41	104	0	72	16500
2026-01-14 23:14:27.27	163.11	28.84	-50.4	-63.6	3.8	1.49e+00	0	41	104	0	72	16481
2026-01-14 23:14:28.54	163.31	28.64	-50.4	-63.7	3.8	1.49e+00	0	41	104	0	72	16556
2026-01-14 23:14:29.30	163.43	28.52	-50.4	-63.6	3.8	1.49e+00	0	41	104	0	72	16469
2026-01-14 23:14:30.58	163.63	28.31	-50.4	-63.7	3.8	1.49e+00	0	41	104	0	72	16516
2026-01-14 23:14:31.29	163.74	28.20	-50.4	-63.6	3.8	1.49e+00	0	41	104	0	72	16481
2026-01-14 23:14:32.57	163.94	28.00	-50.4	-63.6	3.8	1.49e+00	0	41	104	0	72	16502
2026-01-14 23:14:33.28	164.04	27.88	-50.4	-63.6	3.8	1.49e+00	0	41	104	0	72	16467
2026-01-14 23:14:34.55	164.23	27.69	-50.4	-63.6	3.8	1.49e+00	0	41	104	0	72	16484
2026-01-14 23:14:35.26	164.34	27.57	-50.4	-63.6	3.8	1.49e+00	0	41	104	0	72	16484
2026-01-14 23:14:36.54	164.53	27.38	-50.4	-63.6	3.8	1.49e+00	0	41	104	0	72	16457
2026-01-14 23:14:37.25	164.63	27.27	-50.4	-63.6	3.8	1.49e+00	0	41	104	0	72	16494
2026-01-14 23:14:38.53	164.82	27.07	-50.4	-63.7	3.8	1.49e+00	0	41	104	0	72	16512
2026-01-14 23:14:39.24	164.92	26.96	-50.4	-63.6	3.8	1.49e+00	0	41	104	0	72	16466
2026-01-14 23:14:40.52	165.10	26.76	-50.4	-63.7	3.8	1.49e+00	0	41	104	0	72	16528
2026-01-14 23:14:41.23	165.20	26.66	-50.4	-63.7	3.8	1.49e+00	0	41	104	0	72	16512
2026-01-14 23:14:42.50	165.38	26.46	-50.4	-63.7	3.8	1.49e+00	0	41	104	0	72	16554
2026-01-14 23:14:43.21	165.47	26.36	-50.4	-63.7	3.8	1.49e+00	0	41	104	0	72	16533
2026-01-14 23:14:44.50	165.65	26.16	-50.4	-63.6	3.8	1.49e+00	0	41	104	0	72	16478
2026-01-14 23:14:45.21	165.75	26.06	-50.4	-63.6	3.8	1.49e+00	0	41	104	0	72	16479
2026-01-14 23:14:46.85	165.97	25.81	-50.4	-63.6	3.8	1.49e+00	0	41	104	0	72	16467
2026-01-14 23:14:47.42	166.04	25.73	-50.4	-63.6	3.8	1.49e+00	0	41	104	0	72	16472
2026-01-14 23:14:49.13	166.27	25.48	-50.4	-63.7	3.8	1.49e+00	0	41	104	0	72	16519
2026-01-14 23:14:49.69	166.34	25.40	-50.4	-63.7	3.8	1.49e+00	0	41	104	0	72	16513
2026-01-14 23:14:51.40	166.56	25.15	-50.4	-63.7	3.8	1.49e+00	0	41	104	0	72	16518
2026-01-14 23:14:51.96	166.63	25.07	-50.4	-63.7	3.8	1.49e+00	0	41	104	0	72	16518
2026-01-14 23:14:53.67	166.85	24.82	-50.4	-63.6	3.8	1.49e+00	0	41	104	0	72	16481
2026-01-14 23:14:54.23	166.92	24.74	-50.4	-63.7	3.8	1.49e+00	0	41	104	0	72	16507
2026-01-14 23:14:55.94	167.13	24.49	-50.4	-63.6	3.8	1.49e+00	0	41	104	0	72	16480
2026-01-14 23:14:56.51	167.20	24.41	-50.4	-63.7	3.8	1.49e+00	0	41	104	0	72	16523
2026-01-14 23:14:58.21	167.40	24.17	-50.4	-63.6	3.8	1.49e+00	0	41	104	0	72	16497
2026-01-14 23:14:58.78	167.47	24.09	-50.4	-63.6	3.8	1.49e+00	0	41	104	0	72	16496
2026-01-14 23:15:00.48	167.67	23.86	-50.4	-63.6	3.8	1.49e+00	0	41	104	0	72	16489
2026-01-14 23:15:01.05	167.74	23.78	-50.4	-63.6	3.8	1.49e+00	0	41	104	0	72	16500
2026-01-14 23:15:02.76	167.94	23.54	-50.4	-63.7	3.8	1.49e+00	0	41	104	0	72	16511
2026-01-14 23:15:03.32	168.00	23.46	-50.4	-63.7	3.8	1.49e+00	0	41	104	0	72	16552
2026-01-14 23:15:05.28	168.23	23.19	-50.4	-63.6	3.8	1.49e+00	0	41	104	0	72	16461
2026-01-14 23:15:05.84	168.29	23.12	-50.4	-63.6	3.8	1.49e+00	0	41	104	0	72	16468
2026-01-14 23:15:07.55	168.48	22.89	-50.4	-63.7	3.8	1.49e+00	0	41	104	0	72	16511
2026-01-14 23:15:08.11	168.55	22.81	-50.4	-63.6	3.8	1.49e+00	0	41	104	0	72	16480
2026-01-14 23:15:09.82	168.73	22.58	-50.4	-63.6	3.8	1.49e+00	0	41	104	0	72	16498
2026-01-14 23:15:10.38	168.79	22.51	-50.4	-63.7	3.8	1.49e+00	0	41	104	0	72	16505
2026-01-14 23:15:12.09	168.98	22.28	-50.4	-63.7	3.8	1.49e+00	0	41	104	0	72	16532
2026-01-14 23:15:12.65	169.04	22.21	-50.4	-63.6	3.8	1.49e+00	0	41	104	0	72	16500
2026-01-14 23:15:14.36	169.22	21.98	-50.4	-63.6	3.8	1.49e+00	0	41	104	0	72	16475
2026-01-14 23:15:14.92	169.28	21.91	-50.4	-63.6	3.8	1.49e+00	0	41	104	0	72	16438
2026-01-14 23:15:16.63	169.46	21.69	-50.4	-63.7	3.8	1.49e+00	0	41	104	0	72	16563
2026-01-14 23:15:17.19	169.51	21.61	-50.4	-63.7	3.8	1.49e+00	0	41	104	0	72	16512
2026-01-14 23:15:18.90	169.69	21.39	-50.4	-63.6	3.8	1.49e+00	0	41	104	0	72	16450
2026-01-14 23:15:19.46	169.74	21.32	-50.4	-63.6	3.8	1.49e+00	0	41	104	0	72	16476
2026-01-14 23:15:21.23	169.92	21.10	-50.4	-63.7	3.8	1.49e+00	0	41	104	0	72	16508
2026-01-14 23:15:21.80	169.98	21.02	-50.4	-63.7	3.8	1.49e+00	0	41	104	0	72	16557
2026-01-14 23:15:23.50	170.14	20.81	-50.4	-63.6	3.8	1.49e+00	0	41	104	0	72	16446
2026-01-14 23:15:24.07	170.20	20.74	-50.4	-63.7	3.8	1.49e+00	0	41	104	0	72	16523
2026-01-14 23:15:25.77	170.36	20.52	-50.4	-63.7	3.8	1.49e+00	0	41	104	0	72	16550
2026-01-14 23:15:26.34	170.42	20.45	-50.5	-63.7	3.8	1.49e+00	0	41	104	0	72	16535
2026-01-14 23:15:28.04	170.58	20.24	-50.4	-63.6	3.8	1.49e+00	0	41	104	0	72	16483
2026-01-14 23:15:28.61	170.63	20.17	-50.4	-63.6	3.8	1.49e+00	0	41	104	0	72	16460
2026-01-14 23:15:30.31	170.79	19.96	-50.4	-63.7	3.8	1.49e+00	0	41	104	0	72	16577
2026-01-14 23:15:30.88	170.84	19.90	-50.4	-63.7	3.8	1.49e+00	0	41	104	0	72	16530
2026-01-14 23:15:32.59	171.00	19.69	-50.4	-63.7	3.8	1.49e+00	0	41	104	0	72	16521
2026-01-14 23:15:33.15	171.05	19.62	-50.4	-63.6	3.8	1.49e+00	0	41	104	0	72	16501
2026-01-14 23:15:34.86	171.21	19.41	-50.4	-63.7	3.8	1.49e+00	0	41	104	0	72	16510
2026-01-14 23:15:35.43	171.26	19.35	-50.5	-63.7	3.8	1.49e+00	0	41	104	0	72	16521
2026-01-14 23:15:37.13	171.41	19.14	-50.4	-63.7	3.8	1.49e+00	0	41	104	0	72	16548
2026-01-14 23:15:37.70	171.46	19.08	-50.5	-63.7	3.8	1.49e+00	0	41	104	0	72	16522
2026-01-14 23:15:39.40	171.61	18.88	-50.4	-63.7	3.8	1.49e+00	0	41	104	0	72	16507
2026-01-14 23:15:39.97	171.65	18.81	-50.4	-63.7	3.8	1.49e+00	0	41	104	0	72	16594
2026-01-14 23:15:41.67	171.80	18.61	-50.4	-63.7	3.8	1.49e+00	0	41	104	0	72	16527
2026-01-14 23:15:42.24	171.85	18.54	-50.4	-63.7	3.8	1.49e+00	0	41	104	0	72	16512
2026-01-14 23:15:43.94	171.99	18.35	-50.4	-63.7	3.8	1.49e+00	0	41	104	0	72	16569
2026-01-14 23:15:44.51	172.04	18.28	-50.4	-63.6	3.8	1.49e+00	0	41	104	0	72	16496
2026-01-14 23:15:46.22	172.18	18.09	-50.5	-63.7	3.8	1.49e+00	0	41	104	0	72	16567
2026-01-14 23:15:46.78	172.23	18.02	-50.4	-63.7	3.8	1.49e+00	0	41	104	0	72	16527
2026-01-14 23:15:48.49	172.37	17.83	-50.4	-63.6	3.8	1.49e+00	0	41	104	0	72	16500
2026-01-14 23:15:49.05	172.41	17.77	-50.4	-63.6	3.8	1.49e+00	0	41	104	0	72	16463
2026-01-14 23:15:50.76	172.55	17.57	-50.4	-63.7	3.8	1.49e+00	0	41	104	0	72	16555
2026-01-14 23:15:51.33	172.59	17.51	-50.4	-63.6	3.8	1.49e+00	0	41	104	0	72	16479
2026-01-14 23:15:53.08	172.73	17.31	-50.4	-63.7	3.8	1.49e+00	0	41	104	0	72	16543
2026-01-14 23:15:53.64	172.78	17.25	-50.4	-63.7	3.8	1.49e+00	0	41	104	0	72	16519
2026-01-14 23:15:55.35	172.91	17.06	-50.4	-63.7	3.8	1.49e+00	0	41	104	0	72	16544
2026-01-14 23:15:56.04	172.96	16.99	-50.4	-63.7	3.8	1.49e+00	0	41	104	0	72	16510
2026-01-14 23:15:57.46	173.07	16.83	-50.4	-63.7	3.8	1.49e+00	0	41	104	0	72	16557
2026-01-14 23:15:58.24	173.13	16.75	-50.5	-63.7	3.8	1.49e+00	0	41	104	0	72	16540
2026-01-14 23:15:59.51	173.22	16.61	-50.5	-63.7	3.8	1.49e+00	0	41	104	0	72	16521
2026-01-14 23:16:00.30	173.28	16.53	-50.4	-63.6	3.8	1.49e+00	0	41	104	0	72	16482
2026-01-14 23:16:01.50	173.37	16.40	-50.4	-63.6	3.8	1.49e+00	0	41	104	0	72	16500
2026-01-14 23:16:02.48	173.45	16.29	-50.4	-63.7	3.8	1.49e+00	0	41	104	0	72	16593
2026-01-14 23:16:03.47	173.52	16.19	-50.4	-63.7	3.8	1.49e+00	0	41	104	0	72	16570
2026-01-14 23:16:04.47	173.59	16.08	-50.4	-63.7	3.8	1.49e+00	0	41	104	0	72	16569
2026-01-14 23:16:05.46	173.66	15.97	-50.4	-63.7	3.8	1.49e+00	0	41	104	0	72	16562
2026-01-14 23:16:06.45	173.73	15.87	-50.4	-63.6	3.8	1.49e+00	0	41	104	0	72	16500
2026-01-14 23:16:07.45	173.80	15.77	-50.5	-63.6	3.8	1.49e+00	0	41	104	0	72	16484
2026-01-14 23:16:08.44	173.87	15.66	-50.4	-63.6	3.8	1.49e+00	0	41	104	0	72	16470
2026-01-14 23:16:09.43	173.94	15.56	-50.5	-63.7	3.8	1.49e+00	0	41	104	0	72	16566
2026-01-14 23:16:10.43	174.01	15.46	-50.4	-63.7	3.8	1.49e+00	0	41	104	0	72	16530
2026-01-14 23:16:11.42	174.08	15.35	-50.5	-63.7	3.8	1.49e+00	0	41	104	0	72	16512
2026-01-14 23:16:12.42	174.15	15.25	-50.5	-63.7	3.8	1.49e+00	0	41	104	0	72	16632
2026-01-14 23:16:13.41	174.22	15.15	-50.5	-63.7	3.8	1.49e+00	0	41	104	0	72	16507
2026-01-14 23:16:14.40	174.29	15.05	-50.4	-63.7	3.8	1.49e+00	0	41	104	0	72	16571
2026-01-14 23:16:15.40	174.35	14.95	-50.5	-63.7	3.8	1.49e+00	0	41	104	0	72	16590
2026-01-14 23:16:16.39	174.42	14.85	-50.4	-63.7	3.8	1.49e+00	0	41	104	0	72	16575
2026-01-14 23:16:17.38	174.49	14.75	-50.4	-63.7	3.8	1.49e+00	0	41	104	0	72	16527
2026-01-14 23:16:18.38	174.55	14.64	-50.5	-63.7	3.8	1.49e+00	0	41	104	0	72	16523
2026-01-14 23:16:19.37	174.62	14.55	-50.4	-63.7	3.8	1.49e+00	0	41	104	0	72	16517
2026-01-14 23:16:20.36	174.68	14.45	-50.4	-63.7	3.8	1.49e+00	0	41	104	0	72	16607
2026-01-14 23:16:21.36	174.75	14.35	-50.5	-63.7	3.8	1.49e+00	0	41	104	0	72	16547
2026-01-14 23:16:22.35	174.81	14.25	-50.5	-63.7	3.8	1.49e+00	0	41	104	0	72	16534
2026-01-14 23:16:23.35	174.88	14.15	-50.4	-63.7	3.8	1.49e+00	0	41	104	0	72	16532
2026-01-14 23:16:24.34	174.94	14.05	-50.5	-63.7	3.8	1.49e+00	0	41	104	0	72	16597
2026-01-14 23:16:25.33	175.00	13.96	-50.5	-63.7	3.8	1.49e+00	0	41	104	0	72	16529
2026-01-14 23:16:26.32	175.07	13.86	-50.4	-63.7	3.8	1.49e+00	0	41	104	0	72	16560
2026-01-14 23:16:27.32	175.13	13.76	-50.4	-63.7	3.8	1.49e+00	0	41	104	0	72	16566
2026-01-14 23:16:28.31	175.19	13.67	-50.5	-63.7	3.8	1.49e+00	0	41	104	0	72	16544
2026-01-14 23:16:29.37	175.26	13.56	-50.4	-63.7	3.8	1.49e+00	0	41	104	0	72	16505
2026-01-14 23:16:30.24	175.31	13.48	-50.5	-63.7	3.8	1.49e+00	0	41	104	0	72	16509
2026-01-14 23:16:31.37	175.38	13.37	-50.5	-63.7	3.8	1.49e+00	0	41	104	0	72	16530
2026-01-14 23:16:32.22	175.43	13.29	-50.5	-63.6	3.8	1.49e+00	0	41	104	0	72	16487
2026-01-14 23:16:33.36	175.50	13.18	-50.5	-63.7	3.8	1.49e+00	0	41	104	0	72	16526
2026-01-14 23:16:34.21	175.55	13.10	-50.5	-63.7	3.8	1.49e+00	0	41	104	0	72	16546
2026-01-14 23:16:35.68	175.64	12.96	-50.5	-63.7	3.8	1.49e+00	0	41	104	0	72	16557
2026-01-14 23:16:36.39	175.68	12.90	-50.5	-63.6	3.8	1.49e+00	0	41	104	0	72	16485
2026-01-14 23:16:37.87	175.77	12.76	-50.5	-63.7	3.8	1.49e+00	0	41	104	0	72	16559
2026-01-14 23:16:38.58	175.81	12.69	-50.4	-63.7	3.8	1.49e+00	0	41	104	0	72	16605
2026-01-14 23:16:39.87	175.88	12.57	-50.5	-63.7	3.8	1.49e+00	0	41	104	0	72	16532
2026-01-14 23:16:40.58	175.92	12.51	-50.4	-63.7	3.8	1.49e+00	0	41	104	0	72	16526
2026-01-14 23:16:41.86	176.00	12.39	-50.5	-63.7	3.8	1.49e+00	0	41	104	0	72	16547
2026-01-14 23:16:42.58	176.04	12.32	-50.5	-63.7	3.8	1.49e+00	0	41	104	0	72	16508
2026-01-14 23:16:43.86	176.11	12.20	-50.4	-63.6	3.8	1.49e+00	0	41	104	0	72	16492
2026-01-14 23:16:44.59	176.15	12.14	-50.4	-63.7	3.8	1.49e+00	0	41	104	0	72	16524
2026-01-14 23:16:45.86	176.22	12.02	-50.4	-63.7	3.8	1.49e+00	0	41	104	0	72	16561
2026-01-14 23:16:46.57	176.26	11.96	-50.4	-63.7	3.8	1.49e+00	0	41	104	0	72	16569
2026-01-14 23:16:47.85	176.34	11.84	-50.5	-63.7	3.8	1.49e+00	0	41	104	0	72	16541
2026-01-14 23:16:48.58	176.38	11.78	-50.5	-63.7	3.8	1.49e+00	0	41	104	0	72	16568
2026-01-14 23:16:49.85	176.45	11.66	-50.5	-63.7	3.8	1.49e+00	0	41	104	0	72	16617
2026-01-14 23:16:50.56	176.48	11.60	-50.5	-63.7	3.8	1.49e+00	0	41	104	0	72	16554
2026-01-14 23:16:51.84	176.55	11.48	-50.4	-63.6	3.8	1.49e+00	0	41	104	0	72	16497
2026-01-14 23:16:52.55	176.59	11.42	-50.4	-63.7	3.8	1.49e+00	0	41	104	0	72	16520
2026-01-14 23:16:53.83	176.66	11.31	-50.4	-63.7	3.8	1.49e+00	0	41	104	0	72	16554
2026-01-14 23:16:54.54	176.70	11.24	-50.5	-63.7	3.8	1.49e+00	0	41	104	0	72	16562
2026-01-14 23:16:55.82	176.77	11.13	-50.5	-63.7	3.8	1.49e+00	0	41	104	0	72	16539
2026-01-14 23:16:56.54	176.80	11.07	-50.5	-63.7	3.8	1.49e+00	0	41	104	0	72	16581
2026-01-14 23:16:57.82	176.87	10.96	-50.5	-63.7	3.8	1.49e+00	0	41	104	0	72	16581
2026-01-14 23:16:58.53	176.91	10.89	-50.5	-63.7	3.8	1.49e+00	0	41	104	0	72	16555
2026-01-14 23:16:59.81	176.97	10.78	-50.5	-63.7	3.8	1.49e+00	0	41	104	0	72	16545
2026-01-14 23:17:00.52	177.01	10.72	-50.5	-63.7	3.8	1.49e+00	0	41	104	0	72	16594
2026-01-14 23:17:01.80	177.08	10.61	-50.5	-63.7	3.8	1.49e+00	0	41	104	0	72	16527
2026-01-14 23:17:02.51	177.11	10.55	-50.5	-63.6	3.8	1.49e+00	0	41	104	0	72	16476
2026-01-14 23:17:03.78	177.18	10.44	-50.4	-63.7	3.8	1.49e+00	0	41	104	0	72	16536
2026-01-14 23:17:04.49	177.21	10.38	-50.4	-63.7	3.8	1.49e+00	0	41	104	0	72	16561
2026-01-14 23:17:05.77	177.28	10.27	-50.5	-63.7	3.8	1.49e+00	0	41	104	0	72	16533
2026-01-14 23:17:06.49	177.31	10.21	-50.5	-63.7	3.8	1.49e+00	0	41	104	0	72	16552
2026-01-14 23:17:07.77	177.38	10.10	-50.4	-63.7	3.8	1.49e+00	0	41	104	0	72	16536
2026-01-14 23:17:08.48	177.41	10.04	-50.4	-63.7	3.8	1.49e+00	0	41	104	0	72	16516
2026-01-14 23:17:09.77	177.48	9.93	-50.5	-63.7	3.8	1.49e+00	0	41	104	0	72	16521
2026-01-14 23:17:10.49	177.51	9.87	-50.4	-63.6	3.8	1.49e+00	0	41	104	0	72	16501
2026-01-14 23:17:11.76	177.57	9.77	-50.5	-63.7	3.8	1.49e+00	0	41	104	0	72	16541
2026-01-14 23:17:12.49	177.61	9.71	-50.5	-63.7	3.8	1.49e+00	0	41	104	0	72	16599
2026-01-14 23:17:13.77	177.67	9.60	-50.5	-63.7	3.8	1.49e+00	0	41	104	0	72	16538
2026-01-14 23:17:14.47	177.70	9.54	-50.5	-63.7	3.8	1.49e+00	0	41	104	0	72	16551
2026-01-14 23:17:15.75	177.76	9.44	-50.5	-63.7	3.8	1.49e+00	0	41	104	0	72	16587
2026-01-14 23:17:16.46	177.80	9.38	-50.5	-63.7	3.8	1.49e+00	0	41	104	0	72	16569
2026-01-14 23:17:17.74	177.86	9.27	-50.5	-63.6	3.8	1.49e+00	0	41	104	0	72	16496
2026-01-14 23:17:18.47	177.89	9.21	-50.5	-63.7	3.8	1.49e+00	0	41	104	0	72	16508
2026-01-14 23:17:19.75	177.95	9.11	-50.4	-63.7	3.8	1.49e+00	0	41	104	0	72	16540
2026-01-14 23:17:20.46	177.98	9.05	-50.5	-63.7	3.8	1.49e+00	0	41	104	0	72	16553
2026-01-14 23:17:21.73	178.04	8.95	-50.4	-63.7	3.8	1.49e+00	0	41	104	0	72	16592
2026-01-14 23:17:22.44	178.07	8.89	-50.5	-63.6	3.8	1.49e+00	0	41	104	0	72	16467
2026-01-14 23:17:23.72	178.13	8.79	-50.4	-63.7	3.8	1.49e+00	0	41	104	0	72	16571
2026-01-14 23:17:24.43	178.17	8.73	-50.5	-63.7	3.8	1.49e+00	0	41	104	0	72	16562
2026-01-14 23:17:25.71	178.22	8.63	-50.5	-63.7	3.8	1.49e+00	0	41	104	0	72	16597
2026-01-14 23:17:26.42	178.25	8.57	-50.5	-63.7	3.8	1.49e+00	0	41	104	0	72	16569
2026-01-14 23:17:27.70	178.31	8.47	-50.4	-63.7	3.8	1.49e+00	0	41	104	0	72	16548
2026-01-14 23:17:28.40	178.34	8.42	-50.5	-63.7	3.8	1.49e+00	0	41	104	0	72	16544
2026-01-14 23:17:29.78	178.40	8.31	-50.5	-63.7	3.8	1.49e+00	0	41	104	0	72	16572
2026-01-14 23:17:30.49	178.44	8.25	-50.5	-63.7	3.8	1.49e+00	0	41	104	0	72	16586
2026-01-14 23:17:31.81	178.49	8.15	-50.4	-63.7	3.8	1.49e+00	0	41	104	0	72	16515
2026-01-14 23:17:32.52	178.52	8.09	-50.4	-63.7	3.8	1.49e+00	0	41	104	0	72	16535
2026-01-14 23:17:33.87	178.58	7.99	-50.5	-63.7	3.8	1.49e+00	0	41	104	0	72	16583
2026-01-14 23:17:34.58	178.61	7.93	-50.5	-63.7	3.8	1.49e+00	0	41	104	0	72	16606
2026-01-14 23:17:35.87	178.67	7.83	-50.5	-63.7	3.8	1.49e+00	0	41	104	0	72	16528
2026-01-14 23:17:36.58	178.70	7.78	-50.4	-63.7	3.8	1.49e+00	0	41	104	0	72	16547
2026-01-14 23:17:37.85	178.75	7.68	-50.4	-63.7	3.8	1.49e+00	0	41	104	0	72	16552
2026-01-14 23:17:38.57	178.78	7.62	-50.4	-63.7	3.8	1.49e+00	0	41	104	0	72	16555
2026-01-14 23:17:39.84	178.84	7.52	-50.5	-63.7	3.8	1.49e+00	0	41	104	0	72	16555
2026-01-14 23:17:40.55	178.87	7.47	-50.5	-63.7	3.8	1.49e+00	0	41	104	0	72	16549
2026-01-14 23:17:41.83	178.92	7.37	-50.5	-63.7	3.8	1.49e+00	0	41	104	0	72	16505
2026-01-14 23:17:42.54	178.95	7.32	-50.5	-63.7	3.8	1.49e+00	0	41	104	0	72	16552
2026-01-14 23:17:43.82	179.00	7.22	-50.5	-63.7	3.8	1.49e+00	0	41	104	0	72	16569
2026-01-14 23:17:44.66	179.04	7.16	-50.5	-63.7	3.8	1.49e+00	0	41	104	0	72	16574
2026-01-14 23:17:45.79	179.08	7.07	-50.5	-63.7	3.8	1.49e+00	0	41	104	0	72	16533
2026-01-14 23:17:46.64	179.12	7.01	-50.4	-63.7	3.8	1.49e+00	0	41	104	0	72	16539
2026-01-14 23:17:47.78	179.16	6.92	-50.4	-63.6	3.8	1.49e+00	0	41	104	0	72	16494
2026-01-14 23:17:48.63	179.20	6.86	-50.4	-63.7	3.8	1.49e+00	0	41	104	0	72	16560
2026-01-14 23:17:49.77	179.24	6.77	-50.4	-63.6	3.8	1.49e+00	0	41	104	0	72	16499
2026-01-14 23:17:50.62	179.28	6.71	-50.4	-63.6	3.8	1.49e+00	0	42	104	0	72	16502
2026-01-14 23:17:51.75	179.32	6.63	-50.4	-63.7	3.8	1.49e+00	0	41	104	0	72	16513
2026-01-14 23:17:52.61	179.36	6.56	-50.4	-63.7	3.8	1.49e+00	0	41	104	0	72	16519
2026-01-14 23:17:53.74	179.40	6.48	-50.5	-63.7	3.8	1.49e+00	0	41	104	0	72	16535
2026-01-14 23:17:54.59	179.43	6.42	-50.4	-63.7	3.8	1.49e+00	0	41	104	0	72	16538
2026-01-14 23:17:55.73	179.48	6.33	-50.5	-63.7	3.8	1.49e+00	0	41	104	0	72	16580
2026-01-14 23:17:56.58	179.51	6.27	-50.4	-63.7	3.8	1.49e+00	0	41	104	0	72	16532
2026-01-14 23:17:57.71	179.55	6.19	-50.4	-63.7	3.8	1.49e+00	0	41	104	0	72	16569
2026-01-14 23:17:58.57	179.59	6.13	-50.4	-63.6	3.8	1.49e+00	0	41	104	0	72	16481
