passes_logs/2026/01/14/T1/T1__20260114_201703_KHAYYAM_rec.log

#Pass ID: 20260114_201703_KHAYYAM
#Satellite: KHAYYAM
#Configuration: KHAYYAM_480M
#almurnet v.1.7.20251203
#Start time: 2026-01-14 20:17:05

#Version: 2.0.20230620
#Station: T1
#Location: 37.570604 lon 55.790049 lat
#TLE: 1 53370U 22096A   26013.51281675  .00004651  00000+0  19126-3 0  9991
#TLE: 2 53370  97.3561 280.5500 0001428 104.1884 255.9512 15.24640906191010

#Time	Az	El	Level	Level2	SNR	BER	BlckErr	Temp	State	Recorded	gain1	gain2
2026-01-14 20:17:05.03	28.61	3.85	-49.2	-55.0	3.5	0.00e+00	0	45	0	0	69	28927
2026-01-14 20:17:06.02	28.71	3.92	-49.2	-54.9	3.7	0.00e+00	0	46	104	0	69	28779
2026-01-14 20:17:07.01	28.81	3.98	-49.2	-55.0	3.7	0.00e+00	0	46	104	0	69	28885
2026-01-14 20:17:08.00	28.91	4.05	-49.2	-55.0	3.7	0.00e+00	0	46	104	0	69	28819
2026-01-14 20:17:09.00	29.01	4.12	-49.1	-54.9	3.7	0.00e+00	0	46	104	0	69	28775
2026-01-14 20:17:09.99	29.11	4.18	-49.2	-54.9	3.7	0.00e+00	0	46	104	0	69	28792
2026-01-14 20:17:10.99	29.21	4.25	-49.2	-54.9	3.7	0.00e+00	0	46	104	0	69	28792
2026-01-14 20:17:11.98	29.31	4.32	-49.1	-54.9	3.7	0.00e+00	0	46	104	0	69	28787
2026-01-14 20:17:12.97	29.41	4.38	-49.2	-55.0	3.7	0.00e+00	0	46	104	0	69	28848
2026-01-14 20:17:13.97	29.51	4.45	-49.2	-55.0	3.7	0.00e+00	0	47	104	0	69	28970
2026-01-14 20:17:14.96	29.62	4.52	-49.2	-54.9	3.7	0.00e+00	0	47	104	0	69	28763
2026-01-14 20:17:15.96	29.72	4.59	-49.2	-54.9	3.7	0.00e+00	0	47	104	0	69	28811
2026-01-14 20:17:16.95	29.83	4.65	-49.2	-55.0	3.7	0.00e+00	0	47	104	0	69	28985
2026-01-14 20:17:17.94	29.93	4.72	-49.2	-55.0	3.7	0.00e+00	0	47	104	0	69	28964
2026-01-14 20:17:18.94	30.04	4.79	-49.2	-55.0	3.7	0.00e+00	0	47	104	0	69	28851
2026-01-14 20:17:19.93	30.14	4.86	-49.2	-55.0	3.7	0.00e+00	0	47	104	0	69	28865
2026-01-14 20:17:20.93	30.25	4.93	-49.2	-55.0	3.7	0.00e+00	0	47	104	0	69	28876
2026-01-14 20:17:21.92	30.36	5.00	-49.2	-55.0	3.7	0.00e+00	0	47	104	0	69	28883
2026-01-14 20:17:22.91	30.47	5.07	-49.2	-54.9	3.7	0.00e+00	0	47	104	0	69	28716
2026-01-14 20:17:23.91	30.58	5.14	-49.2	-55.0	3.7	0.00e+00	0	47	104	0	69	28895
2026-01-14 20:17:24.90	30.68	5.20	-49.2	-55.0	3.7	0.00e+00	0	47	104	0	69	28909
2026-01-14 20:17:25.89	30.79	5.27	-49.2	-55.0	3.7	0.00e+00	0	47	104	0	69	28873
2026-01-14 20:17:26.89	30.91	5.34	-49.1	-55.0	3.7	0.00e+00	0	47	104	0	69	28858
2026-01-14 20:17:27.88	31.02	5.41	-49.1	-54.9	3.7	0.00e+00	0	47	104	0	69	28798
2026-01-14 20:17:28.88	31.13	5.48	-49.2	-55.0	3.7	0.00e+00	0	47	104	0	69	28846
2026-01-14 20:17:29.87	31.24	5.55	-49.1	-55.0	3.7	0.00e+00	0	48	104	0	69	28893
2026-01-14 20:17:30.86	31.35	5.62	-49.1	-55.0	3.7	0.00e+00	0	48	104	0	69	28897
2026-01-14 20:17:31.84	31.47	5.69	-49.1	-54.9	3.7	0.00e+00	0	48	104	0	69	28806
2026-01-14 20:17:32.84	31.58	5.76	-49.1	-55.0	3.7	0.00e+00	0	48	104	0	69	28896
2026-01-14 20:17:33.83	31.70	5.83	-49.1	-55.0	3.7	0.00e+00	0	48	104	0	69	28922
2026-01-14 20:17:34.82	31.81	5.91	-49.1	-55.0	3.7	0.00e+00	0	48	104	0	69	28905
2026-01-14 20:17:35.82	31.93	5.98	-49.2	-55.0	3.7	0.00e+00	0	48	104	0	69	28854
2026-01-14 20:17:36.81	32.05	6.05	-49.1	-55.0	3.7	0.00e+00	0	48	104	0	69	28868
2026-01-14 20:17:37.80	32.17	6.12	-49.1	-54.9	3.7	0.00e+00	0	48	104	0	69	28774
2026-01-14 20:17:38.80	32.29	6.19	-49.1	-54.9	3.7	0.00e+00	0	48	104	0	69	28774
2026-01-14 20:17:39.79	32.40	6.26	-49.2	-55.0	3.7	0.00e+00	0	48	104	0	69	28874
2026-01-14 20:17:40.79	32.53	6.34	-49.1	-54.9	3.7	0.00e+00	0	48	104	0	69	28804
2026-01-14 20:17:41.78	32.65	6.41	-49.2	-55.0	3.7	0.00e+00	0	48	104	0	69	28882
2026-01-14 20:17:42.77	32.77	6.48	-49.2	-55.0	3.7	0.00e+00	0	48	104	0	69	28884
2026-01-14 20:17:43.77	32.89	6.55	-49.2	-54.9	3.7	0.00e+00	0	48	104	0	69	28809
2026-01-14 20:17:44.76	33.01	6.63	-49.1	-55.0	3.7	0.00e+00	0	48	104	0	69	28913
2026-01-14 20:17:45.75	33.14	6.70	-49.1	-54.9	3.7	0.00e+00	0	48	104	0	69	28795
2026-01-14 20:17:46.75	33.26	6.77	-49.1	-54.9	3.6	0.00e+00	0	48	104	0	69	28800
2026-01-14 20:17:47.74	33.39	6.85	-49.1	-55.0	3.7	0.00e+00	0	49	104	0	69	28846
2026-01-14 20:17:48.73	33.52	6.92	-49.1	-55.0	3.7	0.00e+00	0	49	104	0	69	28829
2026-01-14 20:17:49.73	33.64	6.99	-49.1	-55.0	3.7	0.00e+00	0	49	104	0	69	28940
2026-01-14 20:17:50.72	33.77	7.07	-49.1	-55.0	3.7	0.00e+00	0	49	104	0	69	28874
2026-01-14 20:17:51.71	33.90	7.14	-49.2	-55.0	3.7	0.00e+00	0	49	104	0	69	28863
2026-01-14 20:17:52.71	34.03	7.22	-49.2	-55.0	3.7	0.00e+00	0	49	104	0	69	28878
2026-01-14 20:17:53.70	34.16	7.29	-49.1	-55.0	3.7	0.00e+00	0	49	104	0	69	28903
2026-01-14 20:17:54.69	34.29	7.36	-49.2	-55.0	3.7	0.00e+00	0	49	104	0	69	28862
2026-01-14 20:17:55.69	34.42	7.44	-49.1	-54.9	3.7	0.00e+00	0	49	104	0	69	28718
2026-01-14 20:17:56.68	34.56	7.51	-49.1	-55.0	3.7	0.00e+00	0	49	104	0	69	28877
2026-01-14 20:17:57.67	34.69	7.59	-49.1	-54.9	3.7	0.00e+00	0	49	104	0	69	28758
2026-01-14 20:17:58.79	34.84	7.67	-49.2	-55.0	3.7	0.00e+00	0	49	104	0	69	28822
2026-01-14 20:17:59.65	34.96	7.74	-49.1	-55.0	3.7	0.00e+00	0	49	104	0	69	28956
2026-01-14 20:18:00.78	35.11	7.83	-49.1	-55.0	3.7	0.00e+00	0	49	104	0	69	28862
2026-01-14 20:18:01.63	35.23	7.89	-49.1	-54.9	3.7	0.00e+00	0	49	104	0	69	28799
2026-01-14 20:18:02.77	35.39	7.98	-49.1	-55.0	3.7	0.00e+00	0	49	104	0	69	28824
2026-01-14 20:18:03.62	35.51	8.04	-49.1	-55.0	3.7	0.00e+00	0	49	104	0	69	28871
2026-01-14 20:18:04.76	35.67	8.13	-49.1	-54.9	3.7	0.00e+00	0	49	104	0	69	28797
2026-01-14 20:18:05.61	35.79	8.20	-49.1	-55.0	3.7	0.00e+00	0	49	104	0	69	28848
2026-01-14 20:18:06.75	35.95	8.29	-49.2	-55.0	3.7	0.00e+00	0	49	104	0	69	28823
2026-01-14 20:18:07.60	36.07	8.35	-49.1	-55.0	3.7	0.00e+00	0	49	104	0	69	28825
2026-01-14 20:18:08.73	36.24	8.44	-49.1	-55.0	3.7	0.00e+00	0	49	104	0	69	28896
2026-01-14 20:18:09.59	36.36	8.51	-49.1	-55.0	3.7	0.00e+00	0	49	104	0	69	28868
2026-01-14 20:18:10.74	36.53	8.60	-49.1	-54.9	3.7	0.00e+00	0	49	104	0	69	28776
2026-01-14 20:18:11.59	36.66	8.67	-49.1	-54.9	3.7	0.00e+00	0	49	104	0	69	28658
2026-01-14 20:18:12.73	36.82	8.76	-49.1	-55.0	3.7	0.00e+00	0	49	104	0	69	28825
2026-01-14 20:18:13.58	36.95	8.82	-49.1	-55.0	3.7	0.00e+00	0	50	104	0	69	28979
2026-01-14 20:18:14.71	37.12	8.91	-49.1	-54.9	3.7	0.00e+00	0	49	104	0	69	28727
2026-01-14 20:18:15.57	37.25	8.98	-49.1	-55.0	3.7	0.00e+00	0	49	104	0	69	28816
2026-01-14 20:18:16.70	37.42	9.07	-49.1	-55.0	3.7	0.00e+00	0	50	104	0	69	28876
2026-01-14 20:18:17.56	37.56	9.14	-49.1	-55.0	3.7	0.00e+00	0	49	104	0	69	28941
2026-01-14 20:18:18.69	37.73	9.23	-49.1	-55.0	3.7	0.00e+00	0	50	104	0	69	28813
2026-01-14 20:18:19.54	37.86	9.30	-49.1	-55.0	3.7	0.00e+00	0	49	104	0	69	28891
2026-01-14 20:18:20.68	38.04	9.39	-49.1	-54.9	3.7	0.00e+00	0	49	104	0	69	28736
2026-01-14 20:18:21.53	38.17	9.46	-49.2	-55.0	3.7	0.00e+00	0	50	104	0	69	28875
2026-01-14 20:18:22.67	38.35	9.55	-49.1	-54.9	3.7	0.00e+00	0	50	104	0	69	28783
2026-01-14 20:18:23.52	38.49	9.62	-49.1	-54.9	3.7	0.00e+00	0	49	104	0	69	28749
2026-01-14 20:18:24.66	38.67	9.71	-49.1	-54.9	3.7	0.00e+00	0	50	104	0	69	28748
2026-01-14 20:18:25.51	38.81	9.78	-49.1	-54.9	3.7	0.00e+00	0	49	104	0	69	28755
2026-01-14 20:18:26.64	38.99	9.87	-49.1	-54.9	3.7	0.00e+00	0	50	104	0	69	28804
2026-01-14 20:18:27.50	39.13	9.94	-49.1	-54.9	3.7	0.00e+00	0	49	104	0	69	28780
2026-01-14 20:18:28.63	39.32	10.03	-49.1	-55.0	3.7	0.00e+00	0	50	104	0	69	28895
2026-01-14 20:18:29.48	39.46	10.10	-49.1	-55.0	3.7	0.00e+00	0	50	104	0	69	28850
2026-01-14 20:18:30.62	39.65	10.20	-49.1	-55.0	3.7	0.00e+00	0	50	104	0	69	28845
2026-01-14 20:18:31.47	39.80	10.27	-49.2	-54.9	3.7	0.00e+00	0	50	104	0	69	28641
2026-01-14 20:18:32.60	39.99	10.36	-49.1	-54.9	3.7	0.00e+00	0	50	104	0	69	28740
2026-01-14 20:18:33.46	40.13	10.43	-49.1	-54.9	3.7	0.00e+00	0	50	104	0	69	28717
2026-01-14 20:18:34.59	40.33	10.53	-49.1	-54.9	3.7	0.00e+00	0	50	104	0	69	28671
2026-01-14 20:18:35.45	40.48	10.60	-49.1	-54.8	3.7	0.00e+00	0	50	104	0	69	28441
2026-01-14 20:18:36.58	40.67	10.69	-49.1	-54.9	3.7	0.00e+00	0	50	104	0	69	28526
2026-01-14 20:18:37.43	40.82	10.76	-49.1	-54.9	3.7	0.00e+00	0	50	104	0	69	28571
2026-01-14 20:18:38.57	41.02	10.86	-49.1	-54.9	3.7	0.00e+00	0	50	104	0	69	28531
2026-01-14 20:18:39.42	41.17	10.93	-49.1	-54.9	3.7	0.00e+00	0	50	104	0	69	28572
2026-01-14 20:18:40.59	41.38	11.03	-49.1	-55.0	3.7	0.00e+00	0	50	104	0	69	28821
2026-01-14 20:18:41.44	41.54	11.10	-49.2	-54.9	3.7	0.00e+00	0	50	104	0	69	28808
2026-01-14 20:18:42.64	41.75	11.20	-49.2	-55.0	3.7	0.00e+00	0	50	104	0	69	28910
2026-01-14 20:18:43.49	41.91	11.27	-49.2	-54.9	3.7	0.00e+00	0	50	104	0	69	28732
2026-01-14 20:18:44.69	42.13	11.37	-49.1	-54.9	3.7	0.00e+00	0	50	104	0	69	28786
2026-01-14 20:18:45.54	42.29	11.45	-49.1	-54.9	3.7	0.00e+00	0	50	104	0	69	28666
2026-01-14 20:18:46.76	42.52	11.55	-49.2	-54.9	3.7	0.00e+00	0	50	104	0	69	28785
2026-01-14 20:18:47.61	42.68	11.62	-49.2	-55.0	3.7	0.00e+00	0	50	104	0	69	28840
2026-01-14 20:18:48.74	42.89	11.72	-49.1	-54.9	3.7	0.00e+00	0	50	104	0	69	28811
2026-01-14 20:18:49.60	43.05	11.79	-49.1	-54.9	3.7	0.00e+00	0	50	104	0	69	28782
2026-01-14 20:18:50.73	43.27	11.89	-49.2	-54.9	3.7	0.00e+00	0	50	104	0	69	28770
2026-01-14 20:18:51.59	43.44	11.96	-49.2	-55.0	3.7	0.00e+00	0	50	104	0	69	28876
2026-01-14 20:18:52.72	43.66	12.06	-49.1	-54.9	3.7	0.00e+00	0	50	104	0	69	28709
2026-01-14 20:18:53.57	43.82	12.13	-49.1	-55.0	3.7	0.00e+00	0	50	104	0	69	28837
2026-01-14 20:18:54.71	44.05	12.23	-49.2	-54.9	3.7	0.00e+00	0	50	104	0	69	28804
2026-01-14 20:18:55.56	44.22	12.31	-49.2	-55.0	3.7	0.00e+00	0	50	104	0	69	28835
2026-01-14 20:18:56.70	44.45	12.40	-49.2	-55.0	3.7	0.00e+00	0	50	104	0	69	28850
2026-01-14 20:18:57.55	44.62	12.48	-49.2	-54.9	3.7	0.00e+00	0	50	104	0	69	28797
2026-01-14 20:18:58.69	44.85	12.58	-49.2	-54.9	3.7	0.00e+00	0	50	104	0	69	28745
2026-01-14 20:18:59.54	45.02	12.65	-49.2	-54.9	3.7	0.00e+00	0	50	104	0	69	28776
2026-01-14 20:19:00.68	45.26	12.75	-49.1	-54.9	3.7	0.00e+00	0	50	104	0	69	28747
2026-01-14 20:19:01.53	45.43	12.82	-49.1	-54.9	3.7	0.00e+00	0	50	104	0	69	28682
2026-01-14 20:19:02.66	45.67	12.92	-49.1	-55.0	3.7	0.00e+00	0	50	104	0	69	28879
2026-01-14 20:19:03.51	45.85	13.00	-49.2	-55.0	3.7	0.00e+00	0	50	104	0	69	28871
2026-01-14 20:19:04.65	46.09	13.10	-49.2	-55.0	3.7	0.00e+00	0	50	104	0	69	28905
2026-01-14 20:19:05.50	46.27	13.17	-49.2	-55.0	3.7	0.00e+00	0	50	104	0	69	28877
2026-01-14 20:19:06.83	46.56	13.29	-49.2	-55.0	3.7	0.00e+00	0	50	104	0	69	28893
2026-01-14 20:19:07.54	46.71	13.35	-49.2	-54.9	3.7	0.00e+00	0	50	104	0	69	28805
2026-01-14 20:19:08.82	46.99	13.46	-49.1	-55.0	3.7	0.00e+00	0	50	104	0	69	28914
2026-01-14 20:19:09.52	47.14	13.53	-49.2	-55.0	3.7	0.00e+00	0	50	104	0	69	28843
2026-01-14 20:19:10.80	47.42	13.64	-49.2	-54.9	3.7	0.00e+00	0	51	104	0	69	28749
2026-01-14 20:19:11.51	47.58	13.70	-49.2	-55.0	3.7	0.00e+00	0	50	104	0	69	28859
2026-01-14 20:19:12.79	47.87	13.81	-49.1	-54.9	3.7	0.00e+00	0	50	104	0	69	28807
2026-01-14 20:19:13.50	48.03	13.88	-49.1	-55.0	3.7	0.00e+00	0	50	104	0	69	28865
2026-01-14 20:19:14.78	48.32	13.99	-49.2	-55.0	3.7	0.00e+00	0	50	104	0	69	28858
2026-01-14 20:19:15.49	48.48	14.05	-49.2	-54.9	3.7	0.00e+00	0	50	104	0	69	28802
2026-01-14 20:19:16.78	48.78	14.17	-49.2	-54.9	3.7	0.00e+00	0	50	104	0	69	28788
2026-01-14 20:19:17.49	48.95	14.23	-49.1	-55.0	3.7	0.00e+00	0	50	104	0	69	28815
2026-01-14 20:19:18.77	49.24	14.34	-49.2	-55.0	3.7	0.00e+00	0	50	104	0	69	28895
2026-01-14 20:19:19.48	49.41	14.41	-49.2	-55.0	3.7	0.00e+00	0	50	104	0	69	28990
2026-01-14 20:19:20.76	49.71	14.52	-49.2	-55.0	3.7	0.00e+00	0	50	104	0	69	28925
2026-01-14 20:19:21.48	49.89	14.58	-49.2	-55.0	3.7	0.00e+00	0	50	104	0	69	28838
2026-01-14 20:19:22.76	50.19	14.70	-49.2	-55.0	3.7	0.00e+00	0	50	104	0	69	28894
2026-01-14 20:19:23.47	50.37	14.76	-49.2	-55.0	3.7	0.00e+00	0	50	104	0	69	28848
2026-01-14 20:19:24.75	50.68	14.88	-49.2	-55.0	3.7	0.00e+00	0	50	104	0	69	28928
2026-01-14 20:19:25.46	50.85	14.94	-49.2	-55.0	3.7	0.00e+00	0	51	104	0	69	28830
2026-01-14 20:19:26.73	51.17	15.05	-49.2	-55.0	3.7	0.00e+00	0	50	104	0	69	28879
2026-01-14 20:19:27.44	51.34	15.11	-49.2	-55.0	3.7	0.00e+00	0	51	104	0	69	28865
2026-01-14 20:19:28.72	51.66	15.23	-49.1	-54.7	3.7	0.00e+00	0	51	104	0	69	28093
2026-01-14 20:19:29.43	51.84	15.29	-49.2	-55.0	3.7	0.00e+00	0	50	104	0	69	28823
2026-01-14 20:19:30.71	52.17	15.40	-49.2	-55.0	3.7	0.00e+00	0	51	104	0	69	28913
2026-01-14 20:19:31.42	52.35	15.47	-49.2	-55.0	3.7	0.00e+00	0	50	104	0	69	28865
2026-01-14 20:19:32.78	52.70	15.59	-49.2	-54.9	3.7	0.00e+00	0	51	104	0	69	28810
2026-01-14 20:19:33.49	52.89	15.65	-49.2	-55.0	3.7	0.00e+00	0	50	104	0	69	28884
2026-01-14 20:19:34.83	53.24	15.77	-49.1	-55.0	3.7	0.00e+00	0	50	104	0	69	28910
2026-01-14 20:19:35.54	53.42	15.83	-49.1	-55.0	3.7	0.00e+00	0	51	104	0	69	28942
2026-01-14 20:19:36.89	53.78	15.95	-49.2	-54.9	3.7	0.00e+00	0	50	104	0	69	28744
2026-01-14 20:19:37.60	53.97	16.02	-49.2	-55.0	3.7	0.00e+00	0	50	104	0	69	28881
2026-01-14 20:19:38.90	54.32	16.13	-49.2	-55.0	3.7	0.00e+00	0	50	104	0	69	28853
2026-01-14 20:19:39.61	54.51	16.19	-49.2	-55.0	3.7	0.00e+00	0	51	104	0	69	28942
2026-01-14 20:19:40.88	54.86	16.30	-49.2	-55.0	3.7	0.00e+00	0	51	104	0	69	28823
2026-01-14 20:19:41.59	55.05	16.37	-49.2	-55.0	3.7	0.00e+00	0	51	104	0	69	28912
2026-01-14 20:19:42.87	55.41	16.48	-49.2	-55.0	3.7	0.00e+00	0	51	104	0	69	28892
2026-01-14 20:19:43.59	55.61	16.54	-49.2	-55.0	3.7	0.00e+00	0	50	104	0	69	28986
2026-01-14 20:19:44.87	55.97	16.65	-49.2	-55.0	3.7	0.00e+00	0	50	104	0	69	28970
2026-01-14 20:19:45.60	56.17	16.72	-49.1	-55.0	3.7	0.00e+00	0	51	104	0	69	28843
2026-01-14 20:19:46.88	56.54	16.83	-49.2	-55.0	3.7	0.00e+00	0	51	104	0	69	28944
2026-01-14 20:19:47.59	56.74	16.89	-49.2	-55.0	3.7	0.00e+00	0	50	104	0	69	28955
2026-01-14 20:19:48.86	57.11	17.00	-49.1	-55.0	3.7	0.00e+00	0	51	104	0	69	28884
2026-01-14 20:19:49.57	57.31	17.06	-49.2	-55.0	3.7	0.00e+00	0	50	104	0	69	28924
2026-01-14 20:19:50.85	57.68	17.17	-49.2	-55.0	3.7	0.00e+00	0	51	104	0	69	28934
2026-01-14 20:19:51.56	57.89	17.23	-49.2	-55.0	3.7	0.00e+00	0	51	104	0	69	28997
2026-01-14 20:19:52.84	58.27	17.34	-49.2	-55.0	3.7	0.00e+00	0	51	104	0	69	28968
2026-01-14 20:19:53.55	58.48	17.40	-49.2	-55.0	3.7	0.00e+00	0	50	104	0	69	28892
2026-01-14 20:19:54.83	58.87	17.51	-49.1	-55.0	3.7	0.00e+00	0	51	104	0	69	28976
2026-01-14 20:19:55.54	59.08	17.57	-49.2	-55.0	3.7	0.00e+00	0	51	104	0	69	28937
2026-01-14 20:19:56.82	59.47	17.68	-49.2	-55.0	3.7	0.00e+00	0	50	104	0	69	28958
2026-01-14 20:19:57.54	59.69	17.74	-49.2	-55.0	3.6	0.00e+00	0	50	104	0	69	28952
2026-01-14 20:19:58.82	60.08	17.85	-49.2	-55.0	3.7	0.00e+00	0	51	104	0	69	28938
2026-01-14 20:19:59.53	60.30	17.91	-49.2	-55.0	3.7	0.00e+00	0	51	104	0	69	28990
2026-01-14 20:20:00.81	60.70	18.02	-49.2	-55.0	3.6	0.00e+00	0	51	104	0	69	28992
2026-01-14 20:20:01.52	60.92	18.08	-49.2	-55.0	3.7	0.00e+00	0	51	104	0	69	28956
2026-01-14 20:20:02.79	61.32	18.18	-49.2	-55.0	3.7	0.00e+00	0	50	104	0	69	28943
2026-01-14 20:20:03.50	61.55	18.24	-49.2	-55.0	3.7	0.00e+00	0	51	104	0	69	28926
2026-01-14 20:20:04.78	61.95	18.34	-49.2	-55.0	3.7	0.00e+00	0	51	104	0	69	28947
2026-01-14 20:20:05.49	62.18	18.40	-49.2	-55.0	3.7	0.00e+00	0	51	104	0	69	28883
2026-01-14 20:20:06.85	62.62	18.51	-49.2	-55.0	3.7	0.00e+00	0	51	104	0	69	28984
2026-01-14 20:20:07.56	62.85	18.57	-49.2	-55.0	3.7	0.00e+00	0	51	104	0	69	28958
2026-01-14 20:20:08.84	63.27	18.67	-49.2	-55.0	3.7	0.00e+00	0	51	104	0	69	28958
2026-01-14 20:20:09.55	63.51	18.73	-49.2	-55.0	3.7	0.00e+00	0	51	104	0	69	28961
2026-01-14 20:20:10.83	63.93	18.83	-49.2	-55.0	3.7	0.00e+00	0	51	104	0	69	28982
2026-01-14 20:20:11.55	64.17	18.88	-49.2	-55.0	3.7	0.00e+00	0	51	104	0	69	28952
2026-01-14 20:20:12.83	64.60	18.98	-49.2	-55.0	3.7	0.00e+00	0	51	104	0	69	28893
2026-01-14 20:20:13.54	64.84	19.04	-49.2	-55.0	3.7	0.00e+00	0	51	104	0	69	28942
2026-01-14 20:20:14.81	65.27	19.14	-49.2	-55.0	3.7	0.00e+00	0	51	104	0	69	28936
2026-01-14 20:20:15.54	65.52	19.19	-49.2	-55.0	3.7	0.00e+00	0	50	104	0	69	28912
2026-01-14 20:20:16.82	65.95	19.29	-49.2	-55.0	3.7	0.00e+00	0	51	104	0	69	29033
2026-01-14 20:20:17.53	66.20	19.34	-49.2	-55.0	3.7	0.00e+00	0	51	104	0	69	28956
2026-01-14 20:20:18.81	66.64	19.44	-49.2	-55.0	3.7	0.00e+00	0	51	104	0	69	28960
2026-01-14 20:20:19.52	66.89	19.49	-49.2	-55.0	3.7	0.00e+00	0	51	104	0	69	29061
2026-01-14 20:20:20.79	67.34	19.58	-49.2	-55.0	3.7	0.00e+00	0	51	104	0	69	28956
2026-01-14 20:20:21.52	67.59	19.63	-49.2	-55.0	3.7	0.00e+00	0	51	104	0	69	28979
2026-01-14 20:20:22.80	68.05	19.73	-49.2	-55.0	3.7	0.00e+00	0	51	104	0	69	28939
2026-01-14 20:20:23.52	68.30	19.78	-49.2	-55.0	3.7	0.00e+00	0	51	104	0	69	28869
2026-01-14 20:20:24.90	68.80	19.87	-49.2	-55.0	3.7	0.00e+00	0	51	104	0	69	29027
2026-01-14 20:20:25.61	69.05	19.92	-49.2	-55.0	3.7	0.00e+00	0	51	104	0	69	28938
2026-01-14 20:20:26.88	69.51	20.01	-49.2	-55.0	3.7	0.00e+00	0	51	104	0	69	28929
2026-01-14 20:20:27.62	69.78	20.06	-49.1	-55.0	3.7	0.00e+00	0	51	104	0	69	28951
2026-01-14 20:20:28.90	70.25	20.15	-49.2	-55.0	3.7	0.00e+00	0	51	104	0	69	28873
2026-01-14 20:20:29.61	70.51	20.19	-49.2	-55.0	3.7	0.00e+00	0	51	104	0	69	29006
2026-01-14 20:20:30.89	70.98	20.28	-49.2	-55.0	3.7	0.00e+00	0	51	104	0	69	28899
2026-01-14 20:20:31.60	71.25	20.32	-49.1	-55.0	3.7	0.00e+00	0	51	104	0	69	28976
2026-01-14 20:20:32.88	71.72	20.40	-49.1	-55.0	3.7	0.00e+00	0	51	104	0	69	28917
2026-01-14 20:20:33.60	71.99	20.45	-49.1	-55.0	3.7	0.00e+00	0	51	104	0	69	28990
2026-01-14 20:20:34.88	72.48	20.53	-49.2	-55.0	3.7	0.00e+00	0	51	104	0	69	28972
2026-01-14 20:20:35.59	72.74	20.57	-49.2	-55.0	3.7	0.00e+00	0	51	104	0	69	28924
2026-01-14 20:20:36.87	73.23	20.65	-49.2	-55.0	3.7	0.00e+00	0	51	104	0	69	28863
2026-01-14 20:20:37.58	73.50	20.69	-49.2	-55.0	3.7	0.00e+00	0	51	104	0	69	28913
2026-01-14 20:20:38.85	73.99	20.76	-49.1	-55.0	3.7	0.00e+00	0	51	104	0	69	28939
2026-01-14 20:20:39.58	74.27	20.81	-49.2	-55.0	3.7	0.00e+00	0	51	104	0	69	29007
2026-01-14 20:20:40.86	74.76	20.88	-49.2	-55.0	3.7	0.00e+00	0	51	104	0	69	28918
2026-01-14 20:20:41.57	75.04	20.92	-49.2	-55.0	3.7	0.00e+00	0	51	104	0	69	28978
2026-01-14 20:20:42.84	75.53	20.99	-49.2	-55.0	3.7	0.00e+00	0	51	104	0	69	28948
2026-01-14 20:20:43.55	75.81	21.02	-49.1	-55.0	3.7	0.00e+00	0	51	104	0	69	29048
2026-01-14 20:20:44.83	76.31	21.09	-49.1	-55.0	3.7	0.00e+00	0	51	104	0	69	28975
2026-01-14 20:20:45.54	76.59	21.13	-49.2	-55.0	3.7	0.00e+00	0	51	104	0	69	28995
2026-01-14 20:20:46.82	77.10	21.19	-49.2	-55.0	3.7	0.00e+00	0	51	104	0	69	29063
2026-01-14 20:20:47.53	77.38	21.22	-49.2	-55.0	3.7	0.00e+00	0	51	104	0	69	29018
2026-01-14 20:20:48.81	77.89	21.28	-49.2	-55.0	3.7	0.00e+00	0	51	104	0	69	29052
2026-01-14 20:20:49.52	78.17	21.32	-49.2	-55.0	3.7	0.00e+00	0	51	104	0	69	28959
2026-01-14 20:20:50.79	78.68	21.37	-49.2	-55.0	3.7	0.00e+00	0	51	104	0	69	28980
2026-01-14 20:20:51.52	78.98	21.41	-49.2	-55.0	3.7	0.00e+00	0	51	104	0	69	28994
2026-01-14 20:20:52.80	79.49	21.46	-49.2	-55.0	3.7	0.00e+00	0	51	104	0	69	28957
2026-01-14 20:20:53.51	79.78	21.49	-49.2	-55.0	3.7	0.00e+00	0	51	104	0	69	28962
2026-01-14 20:20:54.78	80.30	21.54	-49.2	-55.0	3.7	0.00e+00	0	51	104	0	69	28993
2026-01-14 20:20:55.49	80.59	21.57	-49.2	-55.0	3.7	0.00e+00	0	51	104	0	69	28946
2026-01-14 20:20:56.83	81.13	21.62	-49.2	-55.0	3.7	0.00e+00	0	51	104	0	69	29055
2026-01-14 20:20:57.54	81.42	21.65	-49.2	-55.0	3.7	0.00e+00	0	51	104	0	69	28959
2026-01-14 20:20:58.89	81.98	21.69	-49.2	-55.0	3.7	0.00e+00	0	51	104	0	69	28981
2026-01-14 20:20:59.60	82.27	21.72	-49.2	-55.0	3.6	0.00e+00	0	51	104	0	69	29000
2026-01-14 20:21:00.87	82.79	21.76	-49.2	-55.0	3.7	0.00e+00	0	51	104	0	69	29059
2026-01-14 20:21:01.58	83.09	21.78	-49.2	-55.0	3.7	0.00e+00	0	51	104	0	69	29007
2026-01-14 20:21:02.86	83.62	21.82	-49.2	-55.0	3.7	0.00e+00	0	51	104	0	69	28946
2026-01-14 20:21:03.58	83.92	21.84	-49.2	-55.0	3.7	0.00e+00	0	51	104	0	69	28968
2026-01-14 20:21:04.86	84.45	21.88	-49.2	-55.0	3.7	0.00e+00	0	51	104	0	69	28957
2026-01-14 20:21:05.57	84.75	21.89	-49.2	-55.0	3.7	0.00e+00	0	51	104	0	69	28961
2026-01-14 20:21:06.85	85.28	21.93	-49.2	-55.0	3.7	0.00e+00	0	51	104	0	69	29013
2026-01-14 20:21:07.57	85.58	21.94	-49.2	-55.0	3.7	0.00e+00	0	51	104	0	69	28824
2026-01-14 20:21:08.85	86.12	21.97	-49.2	-55.0	3.7	0.00e+00	0	51	104	0	69	29095
2026-01-14 20:21:09.56	86.42	21.99	-49.2	-55.0	3.7	0.00e+00	0	51	104	0	69	29006
2026-01-14 20:21:10.84	86.96	22.01	-49.2	-55.0	3.7	0.00e+00	0	51	104	0	69	29005
2026-01-14 20:21:11.55	87.26	22.02	-49.2	-55.0	3.7	0.00e+00	0	51	104	0	69	28990
2026-01-14 20:21:12.82	87.79	22.04	-49.2	-55.0	3.7	0.00e+00	0	51	104	0	69	28943
2026-01-14 20:21:13.53	88.09	22.05	-49.2	-55.0	3.7	0.00e+00	0	51	104	0	69	28937
2026-01-14 20:21:14.81	88.63	22.07	-49.2	-55.0	3.7	0.00e+00	0	51	104	0	69	28944
2026-01-14 20:21:15.52	88.93	22.08	-49.2	-55.0	3.7	0.00e+00	0	51	104	0	69	28974
2026-01-14 20:21:16.80	89.48	22.09	-49.2	-55.0	3.7	0.00e+00	0	51	104	0	69	28964
2026-01-14 20:21:17.51	89.78	22.10	-49.2	-55.0	3.7	0.00e+00	0	51	104	0	69	28981
2026-01-14 20:21:18.79	90.32	22.11	-49.3	-55.0	3.7	0.00e+00	0	51	104	0	69	29024
2026-01-14 20:21:19.51	90.63	22.11	-49.2	-55.0	3.7	0.00e+00	0	51	104	0	69	29132
2026-01-14 20:21:20.79	91.17	22.12	-49.2	-55.0	3.7	0.00e+00	0	51	104	0	69	29113
2026-01-14 20:21:21.51	91.48	22.12	-49.2	-55.0	3.7	0.00e+00	0	51	104	0	69	29070
2026-01-14 20:21:22.79	92.02	22.12	-49.2	-55.0	3.7	0.00e+00	0	51	104	0	69	29018
2026-01-14 20:21:23.50	92.32	22.12	-49.2	-55.0	3.7	0.00e+00	0	51	104	0	69	29045
2026-01-14 20:21:24.78	92.87	22.12	-49.2	-55.0	3.7	0.00e+00	0	51	104	0	69	29015
2026-01-14 20:21:25.49	93.17	22.12	-49.2	-55.0	3.7	0.00e+00	0	51	104	0	69	28877
2026-01-14 20:21:26.77	93.71	22.12	-49.2	-55.0	3.7	0.00e+00	0	51	104	0	69	28972
2026-01-14 20:21:27.48	94.01	22.11	-49.2	-55.0	3.7	0.00e+00	0	51	104	0	69	28970
2026-01-14 20:21:28.76	94.56	22.10	-49.2	-55.0	3.7	0.00e+00	0	51	104	0	69	29012
2026-01-14 20:21:29.47	94.86	22.10	-49.2	-55.0	3.7	0.00e+00	0	51	104	0	69	29015
2026-01-14 20:21:30.75	95.40	22.09	-49.2	-55.0	3.7	0.00e+00	0	51	104	0	69	29021
2026-01-14 20:21:31.46	95.70	22.08	-49.2	-55.0	3.7	0.00e+00	0	51	104	0	69	29011
2026-01-14 20:21:32.85	96.29	22.06	-49.2	-55.0	3.7	0.00e+00	0	51	104	0	69	28992
2026-01-14 20:21:33.55	96.59	22.05	-49.2	-55.0	3.7	0.00e+00	0	51	104	0	69	28988
2026-01-14 20:21:34.89	97.15	22.03	-49.2	-55.0	3.7	0.00e+00	0	51	104	0	69	28991
2026-01-14 20:21:35.61	97.46	22.02	-49.2	-55.0	3.7	0.00e+00	0	51	104	0	69	29064
2026-01-14 20:21:36.96	98.02	21.99	-49.2	-55.0	3.7	0.00e+00	0	51	104	0	69	29010
2026-01-14 20:21:37.67	98.32	21.98	-49.2	-55.0	3.7	0.00e+00	0	51	104	0	69	28970
2026-01-14 20:21:38.95	98.86	21.95	-49.2	-55.0	3.7	0.00e+00	0	51	104	0	69	28850
2026-01-14 20:21:39.66	99.16	21.94	-49.2	-55.0	3.7	0.00e+00	0	51	104	0	69	29033
2026-01-14 20:21:40.94	99.70	21.90	-49.2	-55.0	3.7	0.00e+00	0	51	104	0	69	28986
2026-01-14 20:21:41.65	99.99	21.89	-49.2	-55.0	3.7	0.00e+00	0	51	104	0	69	28967
2026-01-14 20:21:42.93	100.53	21.85	-49.1	-55.0	3.7	0.00e+00	0	51	104	0	69	28944
2026-01-14 20:21:43.64	100.82	21.83	-49.2	-55.0	3.7	0.00e+00	0	51	104	0	69	28965
2026-01-14 20:21:44.92	101.36	21.79	-49.2	-55.0	3.7	0.00e+00	0	51	104	0	69	29117
2026-01-14 20:21:45.64	101.65	21.77	-49.2	-55.0	3.7	0.00e+00	0	51	104	0	69	29058
2026-01-14 20:21:46.92	102.18	21.73	-49.2	-55.0	3.7	0.00e+00	0	51	104	0	69	29141
2026-01-14 20:21:47.63	102.48	21.71	-49.2	-55.0	3.7	0.00e+00	0	51	104	0	69	29130
2026-01-14 20:21:48.91	103.00	21.66	-49.2	-55.0	3.7	0.00e+00	0	51	104	0	69	29037
2026-01-14 20:21:49.62	103.30	21.64	-49.2	-55.0	3.7	0.00e+00	0	51	104	0	69	29004
2026-01-14 20:21:50.90	103.82	21.59	-49.2	-55.0	3.7	0.00e+00	0	51	104	0	69	28951
2026-01-14 20:21:51.62	104.12	21.56	-49.2	-55.0	3.7	0.00e+00	0	51	104	0	69	28952
2026-01-14 20:21:52.90	104.64	21.51	-49.2	-55.0	3.7	0.00e+00	0	51	104	0	69	29033
2026-01-14 20:21:53.61	104.93	21.48	-49.2	-55.0	3.7	0.00e+00	0	51	104	0	69	28945
2026-01-14 20:21:54.89	105.45	21.43	-49.3	-55.0	3.7	0.00e+00	0	51	104	0	69	28996
2026-01-14 20:21:55.60	105.73	21.40	-49.2	-55.0	3.7	0.00e+00	0	51	104	0	69	28957
2026-01-14 20:21:56.88	106.25	21.34	-49.2	-55.0	3.7	0.00e+00	0	51	104	0	69	28971
2026-01-14 20:21:57.59	106.53	21.31	-49.2	-55.0	3.6	0.00e+00	0	51	104	0	69	29114
2026-01-14 20:21:58.86	107.04	21.25	-49.2	-55.0	3.7	0.00e+00	0	51	104	0	69	29083
2026-01-14 20:21:59.57	107.32	21.21	-49.2	-55.0	3.7	0.00e+00	0	51	104	0	69	29083
2026-01-14 20:22:00.85	107.83	21.15	-49.2	-55.0	3.7	0.00e+00	0	51	104	0	69	29006
2026-01-14 20:22:01.56	108.11	21.11	-49.2	-55.0	3.7	0.00e+00	0	51	104	0	69	29075
2026-01-14 20:22:02.84	108.62	21.05	-49.2	-55.0	3.7	0.00e+00	0	51	104	0	69	28994
2026-01-14 20:22:03.57	108.91	21.01	-49.2	-55.0	3.7	0.00e+00	0	51	104	0	69	28946
2026-01-14 20:22:04.84	109.40	20.94	-49.2	-55.0	3.7	0.00e+00	0	51	104	0	69	28981
2026-01-14 20:22:05.55	109.68	20.90	-49.3	-55.0	3.7	0.00e+00	0	51	104	0	69	28963
2026-01-14 20:22:06.83	110.18	20.83	-49.3	-55.0	3.7	0.00e+00	0	51	104	0	69	29019
2026-01-14 20:22:07.54	110.45	20.79	-49.2	-55.0	3.7	0.00e+00	0	51	104	0	69	28943
2026-01-14 20:22:08.82	110.95	20.71	-49.3	-55.0	3.7	0.00e+00	0	51	104	0	69	29091
2026-01-14 20:22:09.53	111.22	20.67	-49.2	-55.0	3.7	0.00e+00	0	51	104	0	69	29036
2026-01-14 20:22:10.81	111.71	20.60	-49.2	-55.0	3.7	0.00e+00	0	51	104	0	69	29042
2026-01-14 20:22:11.52	111.98	20.55	-49.2	-55.0	3.7	0.00e+00	0	51	104	0	69	29055
2026-01-14 20:22:12.79	112.46	20.47	-49.3	-55.0	3.7	0.00e+00	0	51	104	0	69	28949
2026-01-14 20:22:13.50	112.73	20.43	-49.2	-55.0	3.7	0.00e+00	0	51	104	0	69	29058
2026-01-14 20:22:14.78	113.21	20.35	-49.2	-55.0	3.7	0.00e+00	0	51	104	0	69	28994
2026-01-14 20:22:15.53	113.49	20.30	-49.2	-55.0	3.7	0.00e+00	0	51	104	0	69	28999
2026-01-14 20:22:16.80	113.96	20.22	-49.2	-55.0	3.7	0.00e+00	0	51	104	0	69	29032
2026-01-14 20:22:17.51	114.22	20.17	-49.2	-55.0	3.7	0.00e+00	0	51	104	0	69	29009
2026-01-14 20:22:18.79	114.69	20.08	-49.3	-55.0	3.7	0.00e+00	0	51	104	0	69	28876
2026-01-14 20:22:19.50	114.95	20.04	-49.3	-55.0	3.7	0.00e+00	0	51	104	0	69	29043
2026-01-14 20:22:20.78	115.42	19.95	-49.3	-55.0	3.7	0.00e+00	0	51	104	0	69	28996
2026-01-14 20:22:21.49	115.68	19.90	-49.2	-55.0	3.7	0.00e+00	0	51	104	0	69	29047
2026-01-14 20:22:22.77	116.14	19.81	-49.3	-55.0	3.7	0.00e+00	0	51	104	0	69	29026
2026-01-14 20:22:23.48	116.39	19.76	-49.3	-55.0	3.7	0.00e+00	0	51	104	0	69	29056
2026-01-14 20:22:24.75	116.85	19.67	-49.3	-55.0	3.7	0.00e+00	0	51	104	0	69	29075
2026-01-14 20:22:25.47	117.10	19.62	-49.2	-55.0	3.7	0.00e+00	0	51	104	0	69	29074
2026-01-14 20:22:26.85	117.59	19.51	-49.3	-55.0	3.7	0.00e+00	0	51	104	0	69	28999
2026-01-14 20:22:27.56	117.84	19.46	-49.3	-55.0	3.7	0.00e+00	0	51	104	0	69	29002
2026-01-14 20:22:28.90	118.31	19.36	-49.2	-55.0	3.7	0.00e+00	0	51	104	0	69	29022
2026-01-14 20:22:29.61	118.56	19.31	-49.2	-55.0	3.7	0.00e+00	0	51	104	0	69	28969
2026-01-14 20:22:30.89	119.00	19.21	-49.2	-55.0	3.6	0.00e+00	0	51	104	0	69	28928
2026-01-14 20:22:31.60	119.24	19.16	-49.2	-55.0	3.7	0.00e+00	0	51	104	0	69	28966
2026-01-14 20:22:32.88	119.68	19.06	-49.2	-55.0	3.7	0.00e+00	0	51	104	0	69	28887
2026-01-14 20:22:33.59	119.92	19.00	-49.2	-55.0	3.7	0.00e+00	0	51	104	0	69	28988
2026-01-14 20:22:34.87	120.35	18.90	-49.2	-55.0	3.7	0.00e+00	0	51	104	0	69	29050
2026-01-14 20:22:35.58	120.59	18.85	-49.2	-55.0	3.7	0.00e+00	0	51	104	0	69	29092
2026-01-14 20:22:36.85	121.01	18.75	-49.2	-55.0	3.7	0.00e+00	0	51	104	0	69	29135
2026-01-14 20:22:37.56	121.25	18.69	-49.2	-55.0	3.7	0.00e+00	0	51	104	0	69	28980
2026-01-14 20:22:38.84	121.67	18.59	-49.2	-55.0	3.7	0.00e+00	0	51	104	0	69	29004
2026-01-14 20:22:39.57	121.91	18.53	-49.2	-55.0	3.7	0.00e+00	0	51	104	0	69	28851
2026-01-14 20:22:40.84	122.33	18.43	-49.3	-55.0	3.7	0.00e+00	0	51	104	0	69	29065
2026-01-14 20:22:41.56	122.56	18.37	-49.2	-55.0	3.7	0.00e+00	0	51	104	0	69	28871
2026-01-14 20:22:42.83	122.97	18.26	-49.3	-55.0	3.7	0.00e+00	0	51	104	0	69	28967
2026-01-14 20:22:43.54	123.19	18.20	-49.2	-55.0	3.7	0.00e+00	0	51	104	0	69	28868
2026-01-14 20:22:44.82	123.60	18.10	-49.2	-55.0	3.7	0.00e+00	0	51	104	0	69	29008
2026-01-14 20:22:45.53	123.83	18.04	-49.3	-55.0	3.7	0.00e+00	0	51	104	0	69	28954
2026-01-14 20:22:46.81	124.23	17.93	-49.3	-55.0	3.7	0.00e+00	0	51	104	0	69	29056
2026-01-14 20:22:47.52	124.45	17.87	-49.3	-55.1	3.7	0.00e+00	0	51	104	0	69	29169
2026-01-14 20:22:48.79	124.84	17.76	-49.3	-55.0	3.7	0.00e+00	0	51	104	0	69	29125
2026-01-14 20:22:49.50	125.06	17.70	-49.3	-55.1	3.7	0.00e+00	0	51	104	0	69	29163
2026-01-14 20:22:50.78	125.45	17.59	-49.3	-55.0	3.7	0.00e+00	0	51	104	0	69	28999
2026-01-14 20:22:51.49	125.67	17.53	-49.2	-55.0	3.7	0.00e+00	0	51	104	0	69	29033
2026-01-14 20:22:52.77	126.06	17.42	-49.3	-55.0	3.7	0.00e+00	0	51	104	0	69	29038
2026-01-14 20:22:53.48	126.27	17.36	-49.3	-55.0	3.7	0.00e+00	0	51	104	0	69	29048
2026-01-14 20:22:54.77	126.65	17.25	-49.2	-55.0	3.7	0.00e+00	0	51	104	0	69	28871
2026-01-14 20:22:55.48	126.86	17.19	-49.2	-55.0	3.7	0.00e+00	0	51	104	0	69	29001
2026-01-14 20:22:56.76	127.24	17.08	-49.2	-55.0	3.7	0.00e+00	0	51	104	0	69	28954
2026-01-14 20:22:57.47	127.45	17.02	-49.2	-55.0	3.7	0.00e+00	0	51	104	0	69	29041
2026-01-14 20:22:58.75	127.82	16.90	-49.2	-55.0	3.7	0.00e+00	0	51	104	0	69	29054
2026-01-14 20:22:59.46	128.03	16.84	-49.2	-55.0	3.7	0.00e+00	0	51	104	0	69	29032
2026-01-14 20:23:00.74	128.39	16.73	-49.2	-55.0	3.7	0.00e+00	0	51	104	0	69	29117
2026-01-14 20:23:01.46	128.60	16.67	-49.2	-55.0	3.7	0.00e+00	0	51	104	0	69	28989
2026-01-14 20:23:02.74	128.96	16.55	-49.2	-55.0	3.7	0.00e+00	0	51	104	0	69	29063
2026-01-14 20:23:03.45	129.16	16.49	-49.3	-55.0	3.7	0.00e+00	0	51	104	0	69	29037
2026-01-14 20:23:04.73	129.52	16.38	-49.3	-55.0	3.7	0.00e+00	0	51	104	0	69	29051
2026-01-14 20:23:05.44	129.71	16.32	-49.2	-55.0	3.7	0.00e+00	0	51	104	0	69	29006
2026-01-14 20:23:06.72	130.07	16.20	-49.2	-55.0	3.7	0.00e+00	0	51	104	0	69	28867
2026-01-14 20:23:07.44	130.26	16.14	-49.2	-55.0	3.7	0.00e+00	0	51	104	0	69	29010
2026-01-14 20:23:08.72	130.61	16.02	-49.2	-55.0	3.7	0.00e+00	0	51	104	0	69	28984
2026-01-14 20:23:09.43	130.80	15.96	-49.2	-55.0	3.7	0.00e+00	0	51	104	0	69	29088
2026-01-14 20:23:10.71	131.15	15.85	-49.3	-55.0	3.7	0.00e+00	0	51	104	0	69	29111
2026-01-14 20:23:11.42	131.33	15.78	-49.2	-55.0	3.7	0.00e+00	0	51	104	0	69	29061
2026-01-14 20:23:12.69	131.67	15.67	-49.2	-55.0	3.7	0.00e+00	0	51	104	0	69	29054
2026-01-14 20:23:13.40	131.86	15.61	-49.2	-55.0	3.7	0.00e+00	0	51	104	0	69	29030
2026-01-14 20:23:14.78	132.22	15.48	-49.2	-55.0	3.7	0.00e+00	0	51	104	0	69	29015
2026-01-14 20:23:15.49	132.40	15.42	-49.3	-55.0	3.7	0.00e+00	0	51	104	0	69	29027
2026-01-14 20:23:16.83	132.74	15.30	-49.2	-55.0	3.7	0.00e+00	0	51	104	0	69	29046
2026-01-14 20:23:17.54	132.92	15.23	-49.2	-55.0	3.7	0.00e+00	0	51	104	0	69	29008
2026-01-14 20:23:18.88	133.26	15.11	-49.2	-55.0	3.7	0.00e+00	0	51	104	0	69	29041
2026-01-14 20:23:19.59	133.44	15.05	-49.2	-55.0	3.7	0.00e+00	0	51	104	0	69	28959
2026-01-14 20:23:20.87	133.76	14.94	-49.3	-55.0	3.7	0.00e+00	0	51	104	0	69	29074
2026-01-14 20:23:21.58	133.94	14.87	-49.3	-55.0	3.7	0.00e+00	0	51	104	0	69	28927
2026-01-14 20:23:22.87	134.25	14.76	-49.3	-55.0	3.7	0.00e+00	0	51	104	0	69	29098
2026-01-14 20:23:23.58	134.43	14.69	-49.3	-55.1	3.7	0.00e+00	0	51	104	0	69	29151
2026-01-14 20:23:24.86	134.74	14.58	-49.2	-55.0	3.7	0.00e+00	0	51	104	0	69	28974
2026-01-14 20:23:25.58	134.91	14.51	-49.2	-55.0	3.7	0.00e+00	0	51	104	0	69	29040
2026-01-14 20:23:26.86	135.22	14.40	-49.2	-55.0	3.7	0.00e+00	0	51	104	0	69	29100
2026-01-14 20:23:27.57	135.39	14.33	-49.3	-55.0	3.7	0.00e+00	0	51	104	0	69	29063
2026-01-14 20:23:28.85	135.69	14.22	-49.2	-55.0	3.7	0.00e+00	0	51	104	0	69	29068
2026-01-14 20:23:29.57	135.86	14.16	-49.3	-55.0	3.6	0.00e+00	0	51	104	0	69	29076
2026-01-14 20:23:30.85	136.16	14.04	-49.3	-55.0	3.7	0.00e+00	0	51	104	0	69	28984
2026-01-14 20:23:31.58	136.32	13.98	-49.3	-55.0	3.7	0.00e+00	0	51	104	0	69	28967
2026-01-14 20:23:32.85	136.62	13.86	-49.2	-55.0	3.7	0.00e+00	0	51	104	0	69	29062
2026-01-14 20:23:33.56	136.78	13.80	-49.2	-55.0	3.7	0.00e+00	0	51	104	0	69	29008
2026-01-14 20:23:34.84	137.07	13.68	-49.2	-55.0	3.7	0.00e+00	0	51	104	0	69	29028
2026-01-14 20:23:35.55	137.23	13.62	-49.2	-55.0	3.7	0.00e+00	0	51	104	0	69	29077
2026-01-14 20:23:36.83	137.51	13.51	-49.2	-55.0	3.7	0.00e+00	0	51	104	0	69	29074
2026-01-14 20:23:37.55	137.67	13.44	-49.3	-55.1	3.7	0.00e+00	0	51	104	0	69	29152
2026-01-14 20:23:38.83	137.95	13.33	-49.2	-55.0	3.7	0.00e+00	0	51	104	0	69	29031
2026-01-14 20:23:39.55	138.11	13.26	-49.2	-55.0	3.7	0.00e+00	0	51	104	0	69	29010
2026-01-14 20:23:40.83	138.39	13.15	-49.2	-55.0	3.7	0.00e+00	0	51	104	0	69	29004
2026-01-14 20:23:41.54	138.54	13.09	-49.2	-55.0	3.7	0.00e+00	0	51	104	0	69	29009
2026-01-14 20:23:42.82	138.81	12.98	-49.2	-55.0	3.7	0.00e+00	0	51	104	0	69	28926
2026-01-14 20:23:43.55	138.97	12.91	-49.2	-55.0	3.7	0.00e+00	0	51	104	0	69	28982
2026-01-14 20:23:44.82	139.23	12.80	-49.2	-55.0	3.7	0.00e+00	0	51	104	0	69	28956
2026-01-14 20:23:45.55	139.39	12.73	-49.2	-55.0	3.7	0.00e+00	0	51	104	0	69	28991
2026-01-14 20:23:46.83	139.65	12.62	-49.2	-55.0	3.7	0.00e+00	0	51	104	0	69	28946
2026-01-14 20:23:47.54	139.80	12.56	-49.1	-55.0	3.7	0.00e+00	0	51	104	0	69	29056
2026-01-14 20:23:48.81	140.06	12.45	-49.2	-55.0	3.7	0.00e+00	0	51	104	0	69	29110
2026-01-14 20:23:49.52	140.20	12.39	-49.2	-55.0	3.7	0.00e+00	0	51	104	0	69	28966
2026-01-14 20:23:50.80	140.46	12.27	-49.2	-55.0	3.7	0.00e+00	0	51	104	0	69	29030
2026-01-14 20:23:51.51	140.60	12.21	-49.3	-55.0	3.7	0.00e+00	0	51	104	0	69	29033
2026-01-14 20:23:52.79	140.86	12.10	-49.3	-55.0	3.7	0.00e+00	0	51	104	0	69	29026
2026-01-14 20:23:53.50	141.00	12.04	-49.2	-55.0	3.7	0.00e+00	0	51	104	0	69	29035
2026-01-14 20:23:54.78	141.25	11.93	-49.2	-55.0	3.7	0.00e+00	0	51	104	0	69	29016
2026-01-14 20:23:55.50	141.39	11.86	-49.2	-55.0	3.7	0.00e+00	0	51	104	0	69	29121
2026-01-14 20:23:56.78	141.64	11.75	-49.3	-55.0	3.7	0.00e+00	0	51	104	0	69	29024
2026-01-14 20:23:57.49	141.78	11.69	-49.2	-55.0	3.7	0.00e+00	0	51	104	0	69	29071
2026-01-14 20:23:58.76	142.02	11.58	-49.2	-55.0	3.7	0.00e+00	0	51	104	0	69	29080
2026-01-14 20:23:59.47	142.15	11.52	-49.2	-55.0	3.7	0.00e+00	0	51	104	0	69	29101
2026-01-14 20:24:00.77	142.40	11.41	-49.2	-55.0	3.7	0.00e+00	0	51	104	0	69	29045
2026-01-14 20:24:01.48	142.53	11.35	-49.2	-55.0	3.7	0.00e+00	0	51	104	0	69	29095
2026-01-14 20:24:02.75	142.77	11.24	-49.3	-55.0	3.7	0.00e+00	0	51	104	0	69	29029
2026-01-14 20:24:03.46	142.90	11.18	-49.3	-55.0	3.7	0.00e+00	0	51	104	0	69	29014
2026-01-14 20:24:04.74	143.13	11.07	-49.2	-55.0	3.7	0.00e+00	0	51	104	0	69	28993
2026-01-14 20:24:05.45	143.26	11.01	-49.2	-55.0	3.7	0.00e+00	0	51	104	0	69	29060
2026-01-14 20:24:06.79	143.50	10.89	-49.2	-55.0	3.7	0.00e+00	0	51	104	0	69	29008
2026-01-14 20:24:07.50	143.63	10.83	-49.3	-55.0	3.7	0.00e+00	0	51	104	0	69	29072
2026-01-14 20:24:08.84	143.87	10.72	-49.3	-55.0	3.7	0.00e+00	0	51	104	0	69	29027
2026-01-14 20:24:09.55	143.99	10.66	-49.3	-55.0	3.7	0.00e+00	0	51	104	0	69	29019
2026-01-14 20:24:10.91	144.23	10.55	-49.2	-55.0	3.7	0.00e+00	0	51	104	0	69	28971
2026-01-14 20:24:11.62	144.36	10.49	-49.3	-55.0	3.7	0.00e+00	0	51	104	0	69	29093
2026-01-14 20:24:12.89	144.58	10.38	-49.3	-55.0	3.7	0.00e+00	0	51	104	0	69	29109
2026-01-14 20:24:13.61	144.70	10.32	-49.3	-55.1	3.7	0.00e+00	0	51	104	0	69	29174
2026-01-14 20:24:15.01	144.94	10.20	-49.3	-55.0	3.7	0.00e+00	0	51	104	0	69	29039
2026-01-14 20:24:15.72	145.06	10.14	-49.2	-55.0	3.7	0.00e+00	0	51	104	0	69	29054
2026-01-14 20:24:17.00	145.27	10.04	-49.3	-55.0	3.7	0.00e+00	0	51	104	0	69	28986
2026-01-14 20:24:17.71	145.39	9.98	-49.2	-55.0	3.7	0.00e+00	0	51	104	0	69	29049
2026-01-14 20:24:18.99	145.61	9.87	-49.3	-55.0	3.7	0.00e+00	0	51	104	0	69	29091
2026-01-14 20:24:19.71	145.72	9.81	-49.3	-55.0	3.7	0.00e+00	0	51	104	0	69	29052
2026-01-14 20:24:20.99	145.93	9.71	-49.3	-55.0	3.7	0.00e+00	0	51	104	0	69	28970
2026-01-14 20:24:21.71	146.05	9.65	-49.3	-55.0	3.7	0.00e+00	0	51	104	0	69	28982
2026-01-14 20:24:22.99	146.26	9.54	-49.2	-55.0	3.7	0.00e+00	0	51	104	0	69	29108
2026-01-14 20:24:23.70	146.37	9.49	-49.2	-55.0	3.7	0.00e+00	0	51	104	0	69	28985
2026-01-14 20:24:24.98	146.58	9.38	-49.2	-55.0	3.7	0.00e+00	0	51	104	0	69	29125
2026-01-14 20:24:25.69	146.69	9.32	-49.3	-55.0	3.7	0.00e+00	0	51	104	0	69	29082
2026-01-14 20:24:26.97	146.89	9.22	-49.3	-55.0	3.7	0.00e+00	0	51	104	0	69	29046
2026-01-14 20:24:27.68	147.00	9.16	-49.3	-55.0	3.7	0.00e+00	0	51	104	0	69	29012
2026-01-14 20:24:28.95	147.20	9.06	-49.2	-55.0	3.7	0.00e+00	0	51	104	0	69	28965
2026-01-14 20:24:29.68	147.31	9.00	-49.2	-55.0	3.7	0.00e+00	0	51	104	0	69	29037
2026-01-14 20:24:30.96	147.51	8.90	-49.3	-55.0	3.7	0.00e+00	0	51	104	0	69	28991
2026-01-14 20:24:31.68	147.61	8.84	-49.3	-55.0	3.7	0.00e+00	0	51	104	0	69	28978
2026-01-14 20:24:32.96	147.81	8.74	-49.3	-55.0	3.7	0.00e+00	0	51	104	0	69	28955
2026-01-14 20:24:33.67	147.91	8.68	-49.2	-55.0	3.7	0.00e+00	0	51	104	0	69	29027
2026-01-14 20:24:34.95	148.11	8.58	-49.3	-55.0	3.7	0.00e+00	0	51	104	0	69	28985
2026-01-14 20:24:35.68	148.21	8.52	-49.3	-55.0	3.7	0.00e+00	0	51	104	0	69	29063
2026-01-14 20:24:36.95	148.40	8.42	-49.2	-55.1	3.7	0.00e+00	0	51	104	0	69	29155
2026-01-14 20:24:37.66	148.50	8.37	-49.2	-55.0	3.7	0.00e+00	0	51	104	0	69	29069
2026-01-14 20:24:38.94	148.69	8.27	-49.3	-55.0	3.7	0.00e+00	0	51	104	0	69	29086
2026-01-14 20:24:39.65	148.79	8.21	-49.2	-55.1	3.7	0.00e+00	0	51	104	0	69	29168
2026-01-14 20:24:40.93	148.98	8.11	-49.2	-55.0	3.7	0.00e+00	0	51	104	0	69	29100
2026-01-14 20:24:41.64	149.08	8.05	-49.2	-55.0	3.7	0.00e+00	0	51	104	0	69	29071
2026-01-14 20:24:42.92	149.26	7.95	-49.2	-55.0	3.7	0.00e+00	0	51	104	0	69	29042
2026-01-14 20:24:43.64	149.36	7.90	-49.2	-55.0	3.7	0.00e+00	0	51	104	0	69	29093
2026-01-14 20:24:44.92	149.54	7.80	-49.2	-55.0	3.7	0.00e+00	0	51	104	0	69	29012
2026-01-14 20:24:45.63	149.64	7.74	-49.2	-55.0	3.7	0.00e+00	0	51	104	0	69	28936
2026-01-14 20:24:46.90	149.81	7.65	-49.2	-55.0	3.7	0.00e+00	0	51	104	0	69	28986
2026-01-14 20:24:47.61	149.91	7.59	-49.2	-55.0	3.7	0.00e+00	0	51	104	0	69	29016
2026-01-14 20:24:48.89	150.08	7.49	-49.2	-55.0	3.7	0.00e+00	0	51	104	0	69	29143
2026-01-14 20:24:49.60	150.18	7.44	-49.2	-55.0	3.7	0.00e+00	0	51	104	0	69	29093
2026-01-14 20:24:50.88	150.35	7.34	-49.2	-55.0	3.7	0.00e+00	0	51	104	0	69	29076
2026-01-14 20:24:51.59	150.44	7.29	-49.2	-55.0	3.7	0.00e+00	0	51	104	0	69	29065
2026-01-14 20:24:52.88	150.62	7.19	-49.3	-55.0	3.7	0.00e+00	0	51	104	0	69	29024
2026-01-14 20:24:53.59	150.71	7.13	-49.3	-55.0	3.7	0.00e+00	0	51	104	0	69	29040
2026-01-14 20:24:54.87	150.88	7.04	-49.3	-55.0	3.7	0.00e+00	0	51	104	0	69	28917
2026-01-14 20:24:55.58	150.97	6.98	-49.2	-55.0	3.7	0.00e+00	0	51	104	0	69	29020
2026-01-14 20:24:56.86	151.14	6.89	-49.2	-55.0	3.7	0.00e+00	0	51	104	0	69	29005
2026-01-14 20:24:57.57	151.23	6.84	-49.2	-55.0	3.7	0.00e+00	0	51	104	0	69	28952
2026-01-14 20:24:58.86	151.39	6.74	-49.2	-55.0	3.7	0.00e+00	0	51	104	0	69	28916
2026-01-14 20:24:59.82	151.51	6.67	-49.2	-55.0	3.7	0.00e+00	0	51	104	0	69	28966
2026-01-14 20:25:00.82	151.64	6.59	-49.2	-55.0	3.7	0.00e+00	0	51	104	0	69	28927
2026-01-14 20:25:01.82	151.76	6.52	-49.2	-55.0	3.7	0.00e+00	0	51	104	0	69	29004
2026-01-14 20:25:02.81	151.89	6.44	-49.2	-55.0	3.7	0.00e+00	0	51	104	
