passes_logs/2026/01/14/T1/T1__20260114_233505_SUOMI_NPP_rec.log

#Pass ID: 20260114_233505_SUOMI NPP
#Satellite: SUOMI NPP
#Configuration: NPP
#almurnet v.1.7.20251203
#Start time: 2026-01-14 23:35:06

#Version: 2.0.20230620
#Station: T1
#Location: 37.570604 lon 55.790049 lat
#TLE: 1 37849U 11061A   26014.11719687  .00000048  00000+0  43625-4 0  9998
#TLE: 2 37849  98.7809 316.1734 0002474  65.2440 294.8994 14.19525043736585

#Time	Az	El	Level	Level2	SNR	BER	BlckErr	Temp	State	Recorded	gain1	gain2
2026-01-14 23:35:06.57	17.63	5.07	-50.4	-65.8	3.8	1.49e+00	0	39	0	0	71	22450
2026-01-14 23:35:07.56	17.64	5.14	-50.4	-65.8	3.8	1.49e+00	0	40	104	0	72	21072
2026-01-14 23:35:08.55	17.66	5.21	-50.4	-65.8	3.8	1.49e+00	0	40	104	0	72	21099
2026-01-14 23:35:09.55	17.67	5.28	-50.4	-65.8	3.8	1.49e+00	0	40	104	0	72	21033
2026-01-14 23:35:10.54	17.69	5.35	-50.4	-65.8	3.8	1.49e+00	0	40	104	0	72	21075
2026-01-14 23:35:11.53	17.70	5.42	-50.4	-65.8	3.8	1.49e+00	0	40	104	0	72	21096
2026-01-14 23:35:12.53	17.71	5.50	-50.4	-65.8	3.8	1.49e+00	0	40	104	0	72	21102
2026-01-14 23:35:13.52	17.73	5.57	-50.4	-65.8	3.8	1.49e+00	0	40	104	0	72	21129
2026-01-14 23:35:14.51	17.74	5.64	-50.4	-65.8	3.8	1.49e+00	0	40	104	0	72	21105
2026-01-14 23:35:15.56	17.76	5.72	-50.4	-65.8	3.8	1.49e+00	0	40	104	0	72	21095
2026-01-14 23:35:16.55	17.77	5.79	-50.4	-65.8	3.8	1.49e+00	0	40	104	0	72	21070
2026-01-14 23:35:17.62	17.79	5.87	-50.4	-65.8	3.8	1.49e+00	0	40	104	0	72	21074
2026-01-14 23:35:18.47	17.80	5.93	-50.4	-65.8	3.8	1.49e+00	0	40	104	0	72	21111
2026-01-14 23:35:19.61	17.81	6.01	-50.4	-65.8	3.8	1.49e+00	0	40	104	0	72	21052
2026-01-14 23:35:20.46	17.83	6.07	-50.4	-65.8	3.8	1.49e+00	0	40	104	0	72	21134
2026-01-14 23:35:21.60	17.84	6.16	-50.4	-65.8	3.8	1.49e+00	0	40	104	0	72	21025
2026-01-14 23:35:22.45	17.86	6.22	-50.4	-65.7	3.8	1.49e+00	0	40	104	0	72	21005
2026-01-14 23:35:23.59	17.87	6.31	-50.4	-65.8	3.8	1.49e+00	0	40	104	0	72	21052
2026-01-14 23:35:24.44	17.88	6.37	-50.4	-65.8	3.8	1.49e+00	0	40	104	0	72	21115
2026-01-14 23:35:25.57	17.90	6.45	-50.4	-65.8	3.8	1.49e+00	0	40	104	0	72	21200
2026-01-14 23:35:26.42	17.91	6.52	-50.4	-65.8	3.8	1.49e+00	0	40	104	0	72	21163
2026-01-14 23:35:27.56	17.93	6.60	-50.4	-65.8	3.8	1.49e+00	0	40	104	0	72	21127
2026-01-14 23:35:28.41	17.94	6.67	-50.4	-65.8	3.8	1.49e+00	0	40	104	0	72	21141
2026-01-14 23:35:29.55	17.96	6.75	-50.4	-65.8	3.8	1.49e+00	0	40	104	0	72	21125
2026-01-14 23:35:30.40	17.97	6.82	-50.4	-65.8	3.8	1.49e+00	0	41	104	0	72	21044
2026-01-14 23:35:31.54	17.99	6.91	-50.4	-65.8	3.8	1.49e+00	0	40	104	0	72	21064
2026-01-14 23:35:32.39	18.00	6.97	-50.4	-65.8	3.8	1.49e+00	0	40	104	0	72	21090
2026-01-14 23:35:33.52	18.02	7.06	-50.4	-65.8	3.8	1.49e+00	0	41	104	0	72	21131
2026-01-14 23:35:34.37	18.03	7.12	-50.4	-65.8	3.8	1.49e+00	0	41	104	0	72	21124
2026-01-14 23:35:35.51	18.05	7.21	-50.4	-65.8	3.8	1.49e+00	0	40	104	0	72	21043
2026-01-14 23:35:36.36	18.06	7.28	-50.4	-65.8	3.8	1.49e+00	0	41	104	0	72	21093
2026-01-14 23:35:37.50	18.08	7.36	-50.4	-65.8	3.8	1.49e+00	0	41	104	0	72	21041
2026-01-14 23:35:38.35	18.09	7.43	-50.4	-65.8	3.8	1.49e+00	0	41	104	0	72	21138
2026-01-14 23:35:39.48	18.11	7.52	-50.4	-65.8	3.8	1.49e+00	0	41	104	0	72	21126
2026-01-14 23:35:40.33	18.12	7.58	-50.4	-65.8	3.8	1.49e+00	0	41	104	0	72	21127
2026-01-14 23:35:41.47	18.14	7.67	-50.4	-65.8	3.8	1.49e+00	0	41	104	0	72	21115
2026-01-14 23:35:42.32	18.16	7.74	-50.4	-65.8	3.8	1.49e+00	0	41	104	0	72	21061
2026-01-14 23:35:43.46	18.17	7.83	-50.4	-65.8	3.8	1.49e+00	0	41	104	0	72	21060
2026-01-14 23:35:44.31	18.19	7.90	-50.4	-65.8	3.8	1.49e+00	0	41	104	0	72	21101
2026-01-14 23:35:45.56	18.21	8.00	-50.4	-65.8	3.8	1.49e+00	0	41	104	0	72	21021
2026-01-14 23:35:46.41	18.22	8.06	-50.4	-65.8	3.8	1.49e+00	0	41	104	0	72	21126
2026-01-14 23:35:47.61	18.24	8.16	-50.4	-65.8	3.8	1.49e+00	0	41	104	0	72	21086
2026-01-14 23:35:48.46	18.25	8.23	-50.4	-65.8	3.8	1.49e+00	0	41	104	0	72	21042
2026-01-14 23:35:49.64	18.27	8.32	-50.4	-65.8	3.8	1.49e+00	0	41	104	0	72	21173
2026-01-14 23:35:50.50	18.29	8.39	-50.4	-65.8	3.8	1.49e+00	0	41	104	0	72	21083
2026-01-14 23:35:51.73	18.31	8.49	-50.4	-65.8	3.8	1.49e+00	0	41	104	0	72	21074
2026-01-14 23:35:52.58	18.32	8.56	-50.4	-65.8	3.8	1.49e+00	0	41	104	0	72	21122
2026-01-14 23:35:53.71	18.34	8.65	-50.4	-65.8	3.8	1.49e+00	0	41	104	0	72	21167
2026-01-14 23:35:54.56	18.35	8.72	-50.4	-65.8	3.8	1.49e+00	0	41	104	0	72	21096
2026-01-14 23:35:55.70	18.37	8.82	-50.4	-65.8	3.8	1.49e+00	0	41	104	0	72	21113
2026-01-14 23:35:56.55	18.39	8.89	-50.4	-65.8	3.8	1.49e+00	0	41	104	0	72	21064
2026-01-14 23:35:57.69	18.40	8.98	-50.4	-65.8	3.8	1.49e+00	0	41	104	0	72	21090
2026-01-14 23:35:58.54	18.42	9.05	-50.4	-65.8	3.8	1.49e+00	0	41	104	0	72	21051
2026-01-14 23:35:59.67	18.44	9.14	-50.4	-65.8	3.8	1.49e+00	0	41	104	0	72	21098
2026-01-14 23:36:00.53	18.45	9.22	-50.4	-65.8	3.8	1.49e+00	0	41	104	0	72	21149
2026-01-14 23:36:01.66	18.47	9.31	-50.4	-65.8	3.8	1.49e+00	0	41	104	0	72	21149
2026-01-14 23:36:02.51	18.49	9.38	-50.4	-65.8	3.8	1.49e+00	0	41	104	0	72	21081
2026-01-14 23:36:03.65	18.51	9.48	-50.4	-65.8	3.8	1.49e+00	0	41	104	0	72	21134
2026-01-14 23:36:04.50	18.52	9.55	-50.4	-65.8	3.8	1.49e+00	0	41	104	0	72	21118
2026-01-14 23:36:05.65	18.54	9.65	-50.4	-65.8	3.8	1.49e+00	0	41	104	0	72	21060
2026-01-14 23:36:06.50	18.55	9.72	-50.4	-65.8	3.8	1.49e+00	0	41	104	0	72	21085
2026-01-14 23:36:07.70	18.58	9.82	-50.4	-65.8	3.8	1.49e+00	0	41	104	0	72	21060
2026-01-14 23:36:08.55	18.59	9.89	-50.4	-65.8	3.8	1.49e+00	0	41	104	0	72	21110
2026-01-14 23:36:09.75	18.61	10.00	-50.4	-65.8	3.8	1.49e+00	0	41	104	0	72	21023
2026-01-14 23:36:10.60	18.63	10.07	-50.4	-65.8	3.8	1.49e+00	0	41	104	0	72	21070
2026-01-14 23:36:11.74	18.65	10.17	-50.4	-65.8	3.8	1.49e+00	0	41	104	0	72	21104
2026-01-14 23:36:12.59	18.66	10.24	-50.4	-65.8	3.8	1.49e+00	0	41	104	0	72	21098
2026-01-14 23:36:13.72	18.68	10.34	-50.4	-65.8	3.8	1.49e+00	0	41	104	0	72	21091
2026-01-14 23:36:14.58	18.70	10.42	-50.4	-65.8	3.8	1.49e+00	0	41	104	0	72	21053
2026-01-14 23:36:15.71	18.72	10.52	-50.4	-65.8	3.8	1.49e+00	0	42	104	0	72	21146
2026-01-14 23:36:16.56	18.73	10.59	-50.4	-65.7	3.8	1.49e+00	0	42	104	0	72	21017
2026-01-14 23:36:17.70	18.75	10.69	-50.4	-65.8	3.8	1.49e+00	0	41	104	0	72	21113
2026-01-14 23:36:18.55	18.77	10.77	-50.4	-65.8	3.8	1.49e+00	0	42	104	0	72	21103
2026-01-14 23:36:19.69	18.79	10.87	-50.4	-65.7	3.8	1.49e+00	0	41	104	0	72	21011
2026-01-14 23:36:20.54	18.81	10.95	-50.4	-65.8	3.8	1.49e+00	0	42	104	0	72	21071
2026-01-14 23:36:21.68	18.83	11.05	-50.4	-65.8	3.8	1.49e+00	0	42	104	0	72	21041
2026-01-14 23:36:22.53	18.84	11.12	-50.4	-65.8	3.8	1.49e+00	0	42	104	0	72	21102
2026-01-14 23:36:23.66	18.86	11.23	-50.4	-65.8	3.8	1.49e+00	0	41	104	0	72	21075
2026-01-14 23:36:24.52	18.88	11.30	-50.4	-65.8	3.8	1.49e+00	0	41	104	0	72	21087
2026-01-14 23:36:25.65	18.90	11.41	-50.4	-65.8	3.8	1.49e+00	0	41	104	0	72	21149
2026-01-14 23:36:26.50	18.92	11.48	-50.4	-65.8	3.8	1.49e+00	0	42	104	0	72	21090
2026-01-14 23:36:27.64	18.94	11.59	-50.4	-65.8	3.8	1.49e+00	0	41	104	0	72	21122
2026-01-14 23:36:28.49	18.96	11.67	-50.4	-65.8	3.8	1.49e+00	0	42	104	0	72	21067
2026-01-14 23:36:29.63	18.98	11.77	-50.4	-65.8	3.8	1.49e+00	0	41	104	0	72	21128
2026-01-14 23:36:30.48	18.99	11.85	-50.4	-65.8	3.8	1.49e+00	0	42	104	0	72	21087
2026-01-14 23:36:31.61	19.02	11.96	-50.4	-65.8	3.8	1.49e+00	0	41	104	0	72	21092
2026-01-14 23:36:32.47	19.03	12.04	-50.4	-65.8	3.8	1.49e+00	0	41	104	0	72	21116
2026-01-14 23:36:33.60	19.06	12.14	-50.4	-65.8	3.8	1.49e+00	0	42	104	0	72	21141
2026-01-14 23:36:34.45	19.07	12.22	-50.4	-65.8	3.8	1.49e+00	0	42	104	0	72	21107
2026-01-14 23:36:35.59	19.10	12.33	-50.4	-65.8	3.8	1.49e+00	0	42	104	0	72	21063
2026-01-14 23:36:36.44	19.11	12.41	-50.4	-65.8	3.8	1.49e+00	0	42	104	0	72	21130
2026-01-14 23:36:37.58	19.13	12.52	-50.4	-65.8	3.8	1.49e+00	0	42	104	0	72	21061
2026-01-14 23:36:38.43	19.15	12.60	-50.4	-65.8	3.8	1.49e+00	0	42	104	0	72	21206
2026-01-14 23:36:39.56	19.17	12.71	-50.4	-65.8	3.8	1.49e+00	0	42	104	0	72	21161
2026-01-14 23:36:40.42	19.19	12.79	-50.4	-65.8	3.8	1.49e+00	0	42	104	0	72	21082
2026-01-14 23:36:41.55	19.22	12.90	-50.4	-65.8	3.8	1.49e+00	0	42	104	0	72	21109
2026-01-14 23:36:42.40	19.23	12.98	-50.4	-65.8	3.8	1.49e+00	0	42	104	0	72	21073
2026-01-14 23:36:43.63	19.26	13.10	-50.4	-65.8	3.8	1.49e+00	0	42	104	0	72	21044
2026-01-14 23:36:44.49	19.28	13.19	-50.4	-65.8	3.8	1.49e+00	0	42	104	0	72	21138
2026-01-14 23:36:45.68	19.30	13.31	-50.4	-65.8	3.8	1.49e+00	0	42	104	0	72	21163
2026-01-14 23:36:46.53	19.32	13.39	-50.4	-65.8	3.8	1.49e+00	0	42	104	0	72	21161
2026-01-14 23:36:47.73	19.34	13.51	-50.4	-65.8	3.8	1.49e+00	0	42	104	0	72	21122
2026-01-14 23:36:48.58	19.36	13.59	-50.4	-65.8	3.8	1.49e+00	0	42	104	0	72	21063
2026-01-14 23:36:49.72	19.39	13.71	-50.4	-65.8	3.8	1.49e+00	0	42	104	0	72	21081
2026-01-14 23:36:50.57	19.41	13.79	-50.4	-65.8	3.8	1.49e+00	0	42	104	0	72	21141
2026-01-14 23:36:51.71	19.43	13.91	-50.4	-65.8	3.8	1.49e+00	0	42	104	0	72	21125
2026-01-14 23:36:52.56	19.45	13.99	-50.4	-65.8	3.8	1.49e+00	0	42	104	0	72	21206
2026-01-14 23:36:53.69	19.47	14.11	-50.4	-65.8	3.8	1.49e+00	0	42	104	0	72	21114
2026-01-14 23:36:54.55	19.49	14.20	-50.4	-65.8	3.8	1.49e+00	0	42	104	0	72	21115
2026-01-14 23:36:55.68	19.52	14.31	-50.4	-65.8	3.8	1.49e+00	0	42	104	0	72	21096
2026-01-14 23:36:56.53	19.54	14.40	-50.4	-65.8	3.8	1.49e+00	0	42	104	0	72	21036
2026-01-14 23:36:57.67	19.56	14.52	-50.4	-65.8	3.8	1.49e+00	0	42	104	0	72	21148
2026-01-14 23:36:58.52	19.58	14.61	-50.4	-65.8	3.8	1.49e+00	0	42	104	0	72	21129
2026-01-14 23:36:59.66	19.61	14.72	-50.4	-65.8	3.8	1.49e+00	0	42	104	0	72	21135
2026-01-14 23:37:00.51	19.63	14.81	-50.4	-65.8	3.8	1.49e+00	0	42	104	0	72	21105
2026-01-14 23:37:01.64	19.65	14.93	-50.4	-65.8	3.8	1.49e+00	0	42	104	0	72	21104
2026-01-14 23:37:02.50	19.67	15.02	-50.4	-65.8	3.8	1.49e+00	0	42	104	0	72	21134
2026-01-14 23:37:03.70	19.70	15.15	-50.4	-65.8	3.8	1.49e+00	0	42	104	0	72	21081
2026-01-14 23:37:04.55	19.72	15.24	-50.4	-65.8	3.8	1.49e+00	0	42	104	0	72	21138
2026-01-14 23:37:05.68	19.74	15.36	-50.4	-65.8	3.8	1.49e+00	0	42	104	0	72	21113
2026-01-14 23:37:06.54	19.76	15.45	-50.4	-65.8	3.8	1.49e+00	0	42	104	0	72	21093
2026-01-14 23:37:07.67	19.79	15.58	-50.4	-65.8	3.8	1.49e+00	0	42	104	0	72	21171
2026-01-14 23:37:08.52	19.81	15.67	-50.4	-65.8	3.8	1.49e+00	0	42	104	0	72	21125
2026-01-14 23:37:09.66	19.84	15.79	-50.4	-65.8	3.8	1.49e+00	0	42	104	0	72	21123
2026-01-14 23:37:10.51	19.86	15.88	-50.4	-65.8	3.8	1.49e+00	0	42	104	0	72	21106
2026-01-14 23:37:11.65	19.89	16.01	-50.4	-65.8	3.8	1.49e+00	0	42	104	0	72	21188
2026-01-14 23:37:12.50	19.91	16.10	-50.4	-65.8	3.8	1.49e+00	0	42	104	0	72	21168
2026-01-14 23:37:13.63	19.94	16.23	-50.4	-65.8	3.8	1.49e+00	0	42	104	0	72	21080
2026-01-14 23:37:14.49	19.96	16.33	-50.4	-65.8	3.8	1.49e+00	0	42	104	0	72	21132
2026-01-14 23:37:15.62	19.98	16.45	-50.4	-65.8	3.8	1.49e+00	0	42	104	0	72	21104
2026-01-14 23:37:16.47	20.01	16.55	-50.4	-65.8	3.8	1.49e+00	0	42	104	0	72	21147
2026-01-14 23:37:17.61	20.03	16.68	-50.4	-65.8	3.8	1.49e+00	0	42	104	0	72	21180
2026-01-14 23:37:18.46	20.06	16.77	-50.4	-65.8	3.8	1.49e+00	0	42	104	0	72	21114
2026-01-14 23:37:19.60	20.09	16.90	-50.4	-65.8	3.8	1.49e+00	0	42	104	0	72	21153
2026-01-14 23:37:20.45	20.11	17.00	-50.4	-65.8	3.8	1.49e+00	0	42	104	0	72	21110
2026-01-14 23:37:21.58	20.14	17.13	-50.4	-65.8	3.8	1.49e+00	0	42	104	0	72	21110
2026-01-14 23:37:22.43	20.16	17.23	-50.4	-65.8	3.8	1.49e+00	0	42	104	0	72	21176
2026-01-14 23:37:23.57	20.19	17.36	-50.4	-65.8	3.8	1.49e+00	0	42	104	0	72	21124
2026-01-14 23:37:24.42	20.21	17.46	-50.4	-65.8	3.8	1.49e+00	0	42	104	0	72	21149
2026-01-14 23:37:25.55	20.24	17.59	-50.4	-65.8	3.8	1.49e+00	0	42	104	0	72	21120
2026-01-14 23:37:26.41	20.26	17.69	-50.4	-65.8	3.8	1.49e+00	0	42	104	0	72	21178
2026-01-14 23:37:27.54	20.29	17.83	-50.4	-65.8	3.8	1.49e+00	0	42	104	0	72	21130
2026-01-14 23:37:28.40	20.32	17.93	-50.4	-65.8	3.8	1.49e+00	0	42	104	0	72	21203
2026-01-14 23:37:29.53	20.35	18.06	-50.4	-65.8	3.8	1.49e+00	0	42	104	0	72	21141
2026-01-14 23:37:30.38	20.37	18.17	-50.4	-65.8	3.8	1.49e+00	0	42	104	0	72	21060
2026-01-14 23:37:31.52	20.40	18.30	-50.4	-65.8	3.8	1.49e+00	0	42	104	0	72	21200
2026-01-14 23:37:32.37	20.43	18.41	-50.4	-65.8	3.8	1.49e+00	0	42	104	0	72	21120
2026-01-14 23:37:33.54	20.46	18.55	-50.4	-65.8	3.8	1.49e+00	0	42	104	0	72	21111
2026-01-14 23:37:34.39	20.48	18.65	-50.4	-65.8	3.8	1.49e+00	0	42	104	0	72	21183
2026-01-14 23:37:35.60	20.52	18.80	-50.4	-65.8	3.8	1.49e+00	0	42	104	0	72	21133
2026-01-14 23:37:36.46	20.54	18.91	-50.4	-65.8	3.8	1.49e+00	0	42	104	0	72	21113
2026-01-14 23:37:37.66	20.58	19.06	-50.4	-65.8	3.8	1.49e+00	0	42	104	0	72	21096
2026-01-14 23:37:38.51	20.60	19.16	-50.4	-65.8	3.8	1.49e+00	0	42	104	0	72	21106
2026-01-14 23:37:39.71	20.63	19.31	-50.4	-65.8	3.8	1.49e+00	0	42	104	0	72	21217
2026-01-14 23:37:40.56	20.66	19.42	-50.4	-65.8	3.8	1.49e+00	0	42	104	0	72	21200
2026-01-14 23:37:41.69	20.69	19.56	-50.4	-65.8	3.8	1.49e+00	0	42	104	0	72	21157
2026-01-14 23:37:42.55	20.72	19.67	-50.4	-65.8	3.8	1.49e+00	0	42	104	0	72	21137
2026-01-14 23:37:43.68	20.75	19.82	-50.4	-65.8	3.8	1.49e+00	0	42	104	0	72	21160
2026-01-14 23:37:44.53	20.78	19.93	-50.4	-65.8	3.8	1.49e+00	0	42	104	0	72	21169
2026-01-14 23:37:45.67	20.81	20.08	-50.4	-65.8	3.8	1.49e+00	0	42	104	0	72	21213
2026-01-14 23:37:46.52	20.84	20.19	-50.4	-65.8	3.8	1.49e+00	0	42	104	0	72	21143
2026-01-14 23:37:47.66	20.87	20.34	-50.4	-65.8	3.8	1.49e+00	0	42	104	0	72	21194
2026-01-14 23:37:48.51	20.90	20.45	-50.4	-65.8	3.8	1.49e+00	0	42	104	0	72	21139
2026-01-14 23:37:49.64	20.94	20.60	-50.4	-65.8	3.8	1.49e+00	0	42	104	0	72	21150
2026-01-14 23:37:50.49	20.96	20.71	-50.4	-65.8	3.8	1.49e+00	0	42	104	0	72	21063
2026-01-14 23:37:51.63	21.00	20.86	-50.4	-65.8	3.8	1.49e+00	0	42	104	0	72	21079
2026-01-14 23:37:52.48	21.03	20.98	-50.4	-65.8	3.8	1.49e+00	0	42	104	0	72	21141
2026-01-14 23:37:53.62	21.06	21.13	-50.4	-65.8	3.8	1.49e+00	0	42	104	0	72	21116
2026-01-14 23:37:54.47	21.09	21.24	-50.4	-65.8	3.8	1.49e+00	0	42	104	0	72	21169
2026-01-14 23:37:55.61	21.13	21.40	-50.4	-65.8	3.8	1.49e+00	0	42	104	0	72	21177
2026-01-14 23:37:56.46	21.16	21.52	-50.4	-65.8	3.8	1.49e+00	0	42	104	0	72	21146
2026-01-14 23:37:57.59	21.19	21.67	-50.4	-65.8	3.8	1.49e+00	0	42	104	0	72	21170
2026-01-14 23:37:58.44	21.22	21.79	-50.4	-65.8	3.8	1.49e+00	0	42	104	0	72	21152
2026-01-14 23:37:59.58	21.26	21.95	-50.4	-65.8	3.8	1.49e+00	0	42	104	0	72	21104
2026-01-14 23:38:00.43	21.29	22.07	-50.4	-65.8	3.8	1.49e+00	0	42	104	0	72	21130
2026-01-14 23:38:01.57	21.33	22.23	-50.4	-65.8	3.8	1.49e+00	0	42	104	0	72	21117
2026-01-14 23:38:02.42	21.36	22.35	-50.4	-65.8	3.8	1.49e+00	0	42	104	0	72	21176
2026-01-14 23:38:03.56	21.40	22.51	-50.4	-65.8	3.8	1.49e+00	0	42	104	0	72	21143
2026-01-14 23:38:04.41	21.43	22.63	-50.4	-65.8	3.8	1.49e+00	0	42	104	0	72	21092
2026-01-14 23:38:05.54	21.47	22.80	-50.4	-65.8	3.8	1.49e+00	0	42	104	0	72	21136
2026-01-14 23:38:06.39	21.50	22.92	-50.4	-65.8	3.8	1.49e+00	0	42	104	0	72	21152
2026-01-14 23:38:07.53	21.54	23.09	-50.4	-65.8	3.8	1.49e+00	0	42	104	0	72	21116
2026-01-14 23:38:08.38	21.57	23.21	-50.4	-65.8	3.8	1.49e+00	0	42	104	0	72	21093
2026-01-14 23:38:09.52	21.61	23.38	-50.4	-65.8	3.8	1.49e+00	0	42	104	0	72	21195
2026-01-14 23:38:10.37	21.64	23.50	-50.4	-65.8	3.8	1.49e+00	0	42	104	0	72	21142
2026-01-14 23:38:11.50	21.69	23.67	-50.4	-65.8	3.8	1.49e+00	0	42	104	0	72	21148
2026-01-14 23:38:12.36	21.72	23.80	-50.4	-65.8	3.8	1.49e+00	0	42	104	0	72	21165
2026-01-14 23:38:13.49	21.76	23.97	-50.4	-65.8	3.8	1.49e+00	0	42	104	0	72	21136
2026-01-14 23:38:14.34	21.79	24.10	-50.4	-65.8	3.8	1.49e+00	0	42	104	0	72	21188
2026-01-14 23:38:15.48	21.84	24.27	-50.4	-65.8	3.8	1.49e+00	0	43	104	0	72	21196
2026-01-14 23:38:16.33	21.87	24.40	-50.4	-65.8	3.8	1.49e+00	0	42	104	0	72	21167
2026-01-14 23:38:17.47	21.91	24.58	-50.4	-65.8	3.8	1.49e+00	0	42	104	0	72	21207
2026-01-14 23:38:18.32	21.95	24.71	-50.4	-65.8	3.8	1.49e+00	0	42	104	0	72	21156
2026-01-14 23:38:19.45	21.99	24.89	-50.4	-65.9	3.8	1.49e+00	0	42	104	0	72	21266
2026-01-14 23:38:20.30	22.03	25.02	-50.4	-65.8	3.8	1.49e+00	0	42	104	0	72	21156
2026-01-14 23:38:21.44	22.07	25.20	-50.4	-65.8	3.8	1.49e+00	0	42	104	0	72	21193
2026-01-14 23:38:22.29	22.11	25.34	-50.4	-65.8	3.8	1.49e+00	0	42	104	0	72	21151
2026-01-14 23:38:23.43	22.16	25.52	-50.4	-65.8	3.8	1.49e+00	0	42	104	0	72	21158
2026-01-14 23:38:24.28	22.19	25.65	-50.4	-65.8	3.8	1.49e+00	0	42	104	0	72	21138
2026-01-14 23:38:25.42	22.24	25.84	-50.4	-65.8	3.8	1.49e+00	0	42	104	0	72	21166
2026-01-14 23:38:26.27	22.28	25.98	-50.4	-65.8	3.8	1.49e+00	0	42	104	0	72	21119
2026-01-14 23:38:27.51	22.33	26.18	-50.4	-65.8	3.8	1.49e+00	0	42	104	0	72	21133
2026-01-14 23:38:28.37	22.37	26.32	-50.4	-65.8	3.8	1.49e+00	0	42	104	0	72	21235
2026-01-14 23:38:29.56	22.42	26.52	-50.4	-65.8	3.8	1.49e+00	0	42	104	0	72	21222
2026-01-14 23:38:30.42	22.46	26.66	-50.4	-65.8	3.8	1.49e+00	0	42	104	0	72	21154
2026-01-14 23:38:31.61	22.51	26.86	-50.4	-65.8	3.8	1.49e+00	0	42	104	0	72	21169
2026-01-14 23:38:32.47	22.55	27.01	-50.4	-65.8	3.8	1.49e+00	0	42	104	0	72	21067
2026-01-14 23:38:33.66	22.60	27.21	-50.4	-65.8	3.8	1.49e+00	0	42	104	0	72	21193
2026-01-14 23:38:34.52	22.64	27.36	-50.4	-65.8	3.8	1.49e+00	0	42	104	0	72	21207
2026-01-14 23:38:35.73	22.70	27.56	-50.4	-65.8	3.8	1.49e+00	0	42	104	0	72	21149
2026-01-14 23:38:36.58	22.74	27.71	-50.4	-65.8	3.8	1.49e+00	0	42	104	0	72	21179
2026-01-14 23:38:37.72	22.79	27.91	-50.4	-65.8	3.8	1.49e+00	0	42	104	0	72	21184
2026-01-14 23:38:38.57	22.83	28.06	-50.4	-65.8	3.8	1.49e+00	0	42	104	0	72	21166
2026-01-14 23:38:39.70	22.89	28.26	-50.4	-65.8	3.8	1.49e+00	0	42	104	0	72	21179
2026-01-14 23:38:40.56	22.93	28.41	-50.4	-65.8	3.8	1.49e+00	0	42	104	0	72	21157
2026-01-14 23:38:41.69	22.99	28.61	-50.4	-65.8	3.8	1.49e+00	0	42	104	0	72	21180
2026-01-14 23:38:42.54	23.03	28.77	-50.4	-65.8	3.8	1.49e+00	0	42	104	0	72	21202
2026-01-14 23:38:43.68	23.08	28.97	-50.4	-65.8	3.8	1.49e+00	0	42	104	0	72	21145
2026-01-14 23:38:44.53	23.13	29.13	-50.4	-65.8	3.8	1.49e+00	0	42	104	0	72	21099
2026-01-14 23:38:45.67	23.19	29.34	-50.4	-65.8	3.8	1.49e+00	0	42	104	0	72	21130
2026-01-14 23:38:46.52	23.23	29.49	-50.4	-65.8	3.8	1.49e+00	0	42	104	0	72	21209
2026-01-14 23:38:47.66	23.29	29.70	-50.4	-65.8	3.8	1.49e+00	0	42	104	0	72	21121
2026-01-14 23:38:48.51	23.34	29.86	-50.4	-65.8	3.8	1.49e+00	0	42	104	0	72	21131
2026-01-14 23:38:49.64	23.40	30.08	-50.4	-65.8	3.8	1.49e+00	0	42	104	0	72	21136
2026-01-14 23:38:50.49	23.44	30.24	-50.4	-65.8	3.8	1.49e+00	0	42	104	0	72	21238
2026-01-14 23:38:51.63	23.51	30.45	-50.4	-65.8	3.8	1.49e+00	0	43	104	0	72	21058
2026-01-14 23:38:52.48	23.55	30.62	-50.4	-65.8	3.8	1.49e+00	0	42	104	0	72	21114
2026-01-14 23:38:53.61	23.62	30.83	-50.4	-65.8	3.8	1.49e+00	0	42	104	0	72	21114
2026-01-14 23:38:54.47	23.66	31.00	-50.4	-65.8	3.8	1.49e+00	0	42	104	0	72	21149
2026-01-14 23:38:55.81	23.74	31.26	-50.4	-65.8	3.8	1.49e+00	0	42	104	0	72	21174
2026-01-14 23:38:56.52	23.78	31.40	-50.4	-65.8	3.8	1.49e+00	0	42	104	0	72	21184
2026-01-14 23:38:57.80	23.86	31.66	-50.4	-65.8	3.8	1.49e+00	0	42	104	0	72	21180
2026-01-14 23:38:58.51	23.90	31.80	-50.4	-65.8	3.8	1.49e+00	0	42	104	0	72	21226
2026-01-14 23:38:59.78	23.98	32.05	-50.4	-65.8	3.8	1.49e+00	0	42	104	0	72	21185
2026-01-14 23:39:00.49	24.02	32.20	-50.4	-65.8	3.8	1.49e+00	0	42	104	0	72	21172
2026-01-14 23:39:01.77	24.10	32.46	-50.4	-65.8	3.8	1.49e+00	0	42	104	0	72	21142
2026-01-14 23:39:02.48	24.14	32.60	-50.4	-65.8	3.8	1.49e+00	0	42	104	0	72	21180
2026-01-14 23:39:03.76	24.22	32.87	-50.4	-65.8	3.8	1.49e+00	0	43	104	0	72	21105
2026-01-14 23:39:04.47	24.27	33.02	-50.4	-65.8	3.8	1.49e+00	0	43	104	0	72	21229
2026-01-14 23:39:05.74	24.35	33.28	-50.4	-65.8	3.8	1.49e+00	0	42	104	0	72	21161
2026-01-14 23:39:06.47	24.40	33.43	-50.4	-65.8	3.8	1.49e+00	0	42	104	0	72	21089
2026-01-14 23:39:07.74	24.48	33.70	-50.4	-65.8	3.8	1.49e+00	0	42	104	0	72	21157
2026-01-14 23:39:08.45	24.53	33.86	-50.4	-65.8	3.8	1.49e+00	0	42	104	0	72	21154
2026-01-14 23:39:09.73	24.61	34.13	-50.4	-65.8	3.8	1.49e+00	0	42	104	0	72	21166
2026-01-14 23:39:10.44	24.66	34.28	-50.4	-65.8	3.8	1.49e+00	0	42	104	0	72	21152
2026-01-14 23:39:11.72	24.75	34.56	-50.4	-65.8	3.8	1.49e+00	0	42	104	0	72	21161
2026-01-14 23:39:12.43	24.80	34.72	-50.4	-65.8	3.8	1.49e+00	0	42	104	0	72	21198
2026-01-14 23:39:13.71	24.89	35.00	-50.4	-65.8	3.8	1.49e+00	0	42	104	0	72	21200
2026-01-14 23:39:14.43	24.95	35.16	-50.4	-65.8	3.8	1.49e+00	0	42	104	0	72	21158
2026-01-14 23:39:15.71	25.04	35.45	-50.4	-65.8	3.8	1.49e+00	0	42	104	0	72	21155
2026-01-14 23:39:16.42	25.09	35.61	-50.4	-65.8	3.8	1.49e+00	0	43	104	0	72	21210
2026-01-14 23:39:17.70	25.19	35.90	-50.4	-65.8	3.8	1.49e+00	0	42	104	0	72	21150
2026-01-14 23:39:18.41	25.24	36.06	-50.4	-65.8	3.8	1.49e+00	0	42	104	0	72	21213
2026-01-14 23:39:19.68	25.34	36.35	-50.4	-65.8	3.8	1.49e+00	0	42	104	0	72	21148
2026-01-14 23:39:20.41	25.40	36.52	-50.4	-65.8	3.8	1.49e+00	0	42	104	0	72	21234
2026-01-14 23:39:21.69	25.50	36.82	-50.4	-65.8	3.8	1.49e+00	0	43	104	0	72	21089
2026-01-14 23:39:22.40	25.55	36.99	-50.4	-65.8	3.8	1.49e+00	0	43	104	0	72	21180
2026-01-14 23:39:23.77	25.66	37.31	-50.4	-65.8	3.8	1.49e+00	0	42	104	0	72	21176
2026-01-14 23:39:24.48	25.72	37.48	-50.4	-65.8	3.8	1.49e+00	0	42	104	0	72	21113
2026-01-14 23:39:25.85	25.84	37.81	-50.4	-65.8	3.8	1.49e+00	0	42	104	0	72	21244
2026-01-14 23:39:26.56	25.90	37.98	-50.4	-65.8	3.8	1.49e+00	0	42	104	0	72	21232
2026-01-14 23:39:27.84	26.01	38.29	-50.4	-65.8	3.8	1.49e+00	0	42	104	0	72	21131
2026-01-14 23:39:28.55	26.07	38.47	-50.4	-65.8	3.8	1.49e+00	0	42	104	0	72	21171
2026-01-14 23:39:29.84	26.18	38.78	-50.4	-65.8	3.8	1.49e+00	0	42	104	0	72	21206
2026-01-14 23:39:30.55	26.25	38.96	-50.4	-65.8	3.8	1.49e+00	0	42	104	0	72	21201
2026-01-14 23:39:31.83	26.37	39.28	-50.4	-65.9	3.8	1.49e+00	0	42	104	0	72	21273
2026-01-14 23:39:32.56	26.43	39.46	-50.4	-65.8	3.8	1.49e+00	0	42	104	0	72	21256
2026-01-14 23:39:33.83	26.55	39.79	-50.4	-65.8	3.8	1.49e+00	0	42	104	0	72	21173
2026-01-14 23:39:34.54	26.62	39.97	-50.4	-65.8	3.8	1.49e+00	0	43	104	0	72	21129
2026-01-14 23:39:35.82	26.74	40.30	-50.4	-65.8	3.8	1.49e+00	0	42	104	0	72	21120
2026-01-14 23:39:36.53	26.81	40.48	-50.4	-65.8	3.8	1.49e+00	0	42	104	0	72	21174
2026-01-14 23:39:37.81	26.94	40.82	-50.4	-65.8	3.8	1.49e+00	0	43	104	0	72	21188
2026-01-14 23:39:38.53	27.01	41.01	-50.4	-65.9	3.8	1.49e+00	0	42	104	0	72	21300
2026-01-14 23:39:39.81	27.15	41.34	-50.4	-65.8	3.8	1.49e+00	0	42	104	0	72	21147
2026-01-14 23:39:40.52	27.22	41.53	-50.4	-65.8	3.8	1.49e+00	0	42	104	0	72	21165
2026-01-14 23:39:41.80	27.36	41.88	-50.4	-65.9	3.8	1.49e+00	0	42	104	0	72	21261
2026-01-14 23:39:42.51	27.43	42.07	-50.4	-65.8	3.8	1.49e+00	0	42	104	0	72	21207
2026-01-14 23:39:43.79	27.57	42.42	-50.4	-65.8	3.8	1.49e+00	0	43	104	0	72	21208
2026-01-14 23:39:44.51	27.65	42.61	-50.4	-65.8	3.8	1.49e+00	0	42	104	0	72	21174
2026-01-14 23:39:45.79	27.80	42.97	-50.4	-65.9	3.8	1.49e+00	0	42	104	0	72	21271
2026-01-14 23:39:46.50	27.88	43.16	-50.4	-65.8	3.8	1.49e+00	0	42	104	0	72	21152
2026-01-14 23:39:47.78	28.03	43.52	-50.4	-65.8	3.8	1.49e+00	0	42	104	0	72	21160
2026-01-14 23:39:48.50	28.12	43.73	-50.4	-65.8	3.8	1.49e+00	0	42	104	0	72	21163
2026-01-14 23:39:49.78	28.27	44.09	-50.4	-65.8	3.8	1.49e+00	0	42	104	0	72	21176
2026-01-14 23:39:50.49	28.36	44.29	-50.4	-65.8	3.8	1.49e+00	0	42	104	0	72	21135
2026-01-14 23:39:51.77	28.52	44.66	-50.4	-65.8	3.8	1.49e+00	0	42	104	0	72	21203
2026-01-14 23:39:52.48	28.61	44.87	-50.4	-65.9	3.8	1.49e+00	0	42	104	0	72	21284
2026-01-14 23:39:53.75	28.78	45.24	-50.4	-65.9	3.8	1.49e+00	0	42	104	0	72	21331
2026-01-14 23:39:54.46	28.87	45.44	-50.4	-65.9	3.8	1.49e+00	0	42	104	0	72	21284
2026-01-14 23:39:55.74	29.04	45.82	-50.4	-65.8	3.8	1.49e+00	0	42	104	0	72	21187
2026-01-14 23:39:56.45	29.14	46.03	-50.4	-65.8	3.8	1.49e+00	0	42	104	0	72	21191
2026-01-14 23:39:57.73	29.32	46.42	-50.4	-65.8	3.8	1.49e+00	0	42	104	0	72	21224
2026-01-14 23:39:58.45	29.42	46.63	-50.4	-65.8	3.8	1.49e+00	0	42	104	0	72	21149
2026-01-14 23:39:59.73	29.61	47.02	-50.4	-65.8	3.8	1.49e+00	0	42	104	0	72	21193
2026-01-14 23:40:00.44	29.71	47.24	-50.4	-65.8	3.8	1.49e+00	0	42	104	0	72	21205
2026-01-14 23:40:01.72	29.91	47.63	-50.4	-65.8	3.8	1.49e+00	0	43	104	0	72	21172
2026-01-14 23:40:02.44	30.02	47.86	-50.4	-65.9	3.8	1.49e+00	0	43	104	0	72	21278
2026-01-14 23:40:03.72	30.22	48.25	-50.4	-65.8	3.8	1.49e+00	0	42	104	0	72	21211
2026-01-14 23:40:04.43	30.33	48.48	-50.4	-65.8	3.8	1.49e+00	0	42	104	0	72	21188
2026-01-14 23:40:05.71	30.54	48.88	-50.4	-65.8	3.8	1.49e+00	0	43	104	0	72	21170
2026-01-14 23:40:06.42	30.66	49.11	-50.4	-65.8	3.8	1.49e+00	0	42	104	0	72	21219
2026-01-14 23:40:07.70	30.88	49.52	-50.4	-65.8	3.8	1.49e+00	0	42	104	0	72	21222
2026-01-14 23:40:08.44	31.01	49.75	-50.4	-65.8	3.8	1.49e+00	0	43	104	0	72	21166
2026-01-14 23:40:09.71	31.23	50.17	-50.4	-65.8	3.8	1.49e+00	0	43	104	0	72	21185
2026-01-14 23:40:10.43	31.36	50.40	-50.4	-65.8	3.8	1.49e+00	0	42	104	0	72	21209
2026-01-14 23:40:11.70	31.59	50.82	-50.4	-65.8	3.8	1.49e+00	0	43	104	0	72	21213
2026-01-14 23:40:12.41	31.73	51.05	-50.4	-65.8	3.8	1.49e+00	0	42	104	0	72	21209
2026-01-14 23:40:13.69	31.98	51.48	-50.4	-65.8	3.8	1.49e+00	0	43	104	0	72	21133
2026-01-14 23:40:14.40	32.12	51.71	-50.4	-65.8	3.8	1.49e+00	0	43	104	0	72	21165
2026-01-14 23:40:15.68	32.37	52.14	-50.4	-65.8	3.8	1.49e+00	0	43	104	0	72	21194
2026-01-14 23:40:16.39	32.52	52.38	-50.4	-65.8	3.8	1.49e+00	0	42	104	0	72	21230
2026-01-14 23:40:17.66	32.79	52.82	-50.4	-65.8	3.8	1.49e+00	0	43	104	0	72	21219
2026-01-14 23:40:18.39	32.94	53.07	-50.4	-65.8	3.8	1.49e+00	0	42	104	0	72	21185
2026-01-14 23:40:19.67	33.23	53.51	-50.4	-65.8	3.8	1.49e+00	0	42	104	0	72	21209
2026-01-14 23:40:20.39	33.39	53.75	-50.4	-65.8	3.8	1.49e+00	0	42	104	0	72	21234
2026-01-14 23:40:21.67	33.68	54.20	-50.4	-65.8	3.8	1.49e+00	0	43	104	0	72	21137
2026-01-14 23:40:22.38	33.85	54.45	-50.4	-65.8	3.8	1.49e+00	0	43	104	0	72	21121
2026-01-14 23:40:23.66	34.16	54.90	-50.4	-65.8	3.8	1.49e+00	0	43	104	0	72	21194
2026-01-14 23:40:24.37	34.34	55.15	-50.4	-65.8	3.8	1.49e+00	0	43	104	0	72	21118
2026-01-14 23:40:25.65	34.66	55.60	-50.4	-65.8	3.8	1.49e+00	0	43	104	0	72	21206
2026-01-14 23:40:26.38	34.85	55.86	-50.4	-65.9	3.8	1.49e+00	0	43	104	0	72	21273
2026-01-14 23:40:27.66	35.20	56.32	-50.4	-65.8	3.8	1.49e+00	0	42	104	0	72	21258
2026-01-14 23:40:28.37	35.39	56.58	-50.4	-65.8	3.8	1.49e+00	0	42	104	0	72	21246
2026-01-14 23:40:29.65	35.75	57.04	-50.4	-65.8	3.8	1.49e+00	0	43	104	0	72	21183
2026-01-14 23:40:30.36	35.96	57.30	-50.4	-65.8	3.8	1.49e+00	0	43	104	0	72	21206
2026-01-14 23:40:31.72	36.36	57.80	-50.4	-65.9	3.8	1.49e+00	0	42	104	0	72	21261
2026-01-14 23:40:32.43	36.58	58.06	-50.4	-65.8	3.8	1.49e+00	0	43	104	0	72	21246
2026-01-14 23:40:33.77	37.00	58.55	-50.4	-65.8	3.8	1.49e+00	0	43	104	0	72	21219
2026-01-14 23:40:34.48	37.23	58.82	-50.4	-65.8	3.8	1.49e+00	0	43	104	0	72	21231
2026-01-14 23:40:35.83	37.68	59.32	-50.4	-65.8	3.8	1.49e+00	0	42	104	0	72	21222
2026-01-14 23:40:36.54	37.92	59.58	-50.5	-65.8	3.8	1.49e+00	0	42	104	0	72	21123
2026-01-14 23:40:37.87	38.39	60.08	-50.4	-65.8	3.8	1.49e+00	0	43	104	0	72	21232
2026-01-14 23:40:38.58	38.65	60.35	-50.4	-65.8	3.8	1.49e+00	0	42	104	0	72	21163
2026-01-14 23:40:39.86	39.13	60.83	-50.4	-65.8	3.8	1.49e+00	0	43	104	0	72	21196
2026-01-14 23:40:40.57	39.40	61.10	-50.4	-65.9	3.8	1.49e+00	0	43	104	0	72	21262
2026-01-14 23:40:41.85	39.91	61.59	-50.4	-65.8	3.8	1.49e+00	0	42	104	0	72	21239
2026-01-14 23:40:42.56	40.20	61.86	-50.4	-65.8	3.8	1.49e+00	0	43	104	0	72	21238
2026-01-14 23:40:43.83	40.73	62.34	-50.4	-65.8	3.8	1.49e+00	0	43	104	0	72	21241
2026-01-14 23:40:44.54	41.04	62.61	-50.5	-65.9	3.8	1.49e+00	0	43	104	0	72	21286
2026-01-14 23:40:45.82	41.61	63.10	-50.4	-65.8	3.8	1.49e+00	0	43	104	0	72	21242
2026-01-14 23:40:46.54	41.95	63.38	-50.4	-65.8	3.8	1.49e+00	0	42	104	0	72	21164
2026-01-14 23:40:47.82	42.56	63.87	-50.4	-65.8	3.8	1.49e+00	0	43	104	0	72	21140
2026-01-14 23:40:48.53	42.91	64.14	-50.4	-65.8	3.8	1.49e+00	0	43	104	0	72	21191
2026-01-14 23:40:49.81	43.56	64.63	-50.5	-65.8	3.8	1.49e+00	0	43	104	0	72	21145
2026-01-14 23:40:50.52	43.94	64.91	-50.4	-65.9	3.8	1.49e+00	0	42	104	0	72	21284
2026-01-14 23:40:51.80	44.64	65.40	-50.4	-65.8	3.8	1.49e+00	0	43	104	0	72	21203
2026-01-14 23:40:52.51	45.04	65.67	-50.4	-65.8	3.8	1.49e+00	0	42	104	0	72	21134
2026-01-14 23:40:53.78	45.78	66.16	-50.4	-65.8	3.8	1.49e+00	0	42	104	0	72	21207
2026-01-14 23:40:54.49	46.21	66.43	-50.4	-65.8	3.8	1.49e+00	0	43	104	0	72	21193
2026-01-14 23:40:55.77	47.01	66.92	-50.4	-65.8	3.8	1.49e+00	0	43	104	0	72	21242
2026-01-14 23:40:56.50	47.49	67.20	-50.5	-65.8	3.8	1.49e+00	0	42	104	0	72	21217
2026-01-14 23:40:57.78	48.35	67.69	-50.4	-65.8	3.8	1.49e+00	0	43	104	0	72	21211
2026-01-14 23:40:58.48	48.84	67.96	-50.4	-65.9	3.8	1.49e+00	0	43	104	0	72	21272
2026-01-14 23:40:59.76	49.77	68.44	-50.4	-65.8	3.8	1.49e+00	0	42	104	0	72	21235
2026-01-14 23:41:00.47	50.31	68.71	-50.4	-65.8	3.8	1.49e+00	0	42	104	0	72	21160
2026-01-14 23:41:01.75	51.31	69.19	-50.4	-65.8	3.8	1.49e+00	0	43	104	0	72	21248
2026-01-14 23:41:02.46	51.89	69.46	-50.4	-65.8	3.8	1.49e+00	0	43	104	0	72	21225
2026-01-14 23:41:03.74	52.97	69.93	-50.4	-65.8	3.8	1.49e+00	0	43	104	0	72	21193
2026-01-14 23:41:04.45	53.60	70.19	-50.4	-65.8	3.8	1.49e+00	0	43	104	0	72	21170
2026-01-14 23:41:05.73	54.77	70.66	-50.4	-65.8	3.8	1.49e+00	0	42	104	0	72	21195
2026-01-14 23:41:06.44	55.44	70.92	-50.4	-65.8	3.8	1.49e+00	0	43	104	0	72	21142
2026-01-14 23:41:07.71	56.70	71.37	-50.4	-65.8	3.8	1.49e+00	0	43	104	0	72	21236
2026-01-14 23:41:08.42	57.43	71.62	-50.4	-65.8	3.8	1.49e+00	0	42	104	0	72	21204
2026-01-14 23:41:09.70	58.80	72.07	-50.4	-65.8	3.8	1.49e+00	0	43	104	0	72	21164
2026-01-14 23:41:10.43	59.62	72.32	-50.4	-65.9	3.8	1.49e+00	0	43	104	0	72	21283
2026-01-14 23:41:11.71	61.11	72.75	-50.4	-65.8	3.8	1.49e+00	0	42	104	0	72	21182
2026-01-14 23:41:12.42	61.97	72.99	-50.4	-65.8	3.8	1.49e+00	0	42	104	0	72	21188
2026-01-14 23:41:13.82	63.74	73.44	-50.4	-65.8	3.8	1.49e+00	0	42	104	0	72	21138
2026-01-14 23:41:14.53	64.68	73.67	-50.4	-65.8	3.8	1.49e+00	0	42	104	0	72	21175
2026-01-14 23:41:15.89	66.55	74.09	-50.4	-65.8	3.8	1.49e+00	0	42	104	0	72	21175
2026-01-14 23:41:16.60	67.57	74.30	-50.4	-65.8	3.8	1.49e+00	0	43	104	0	72	21140
2026-01-14 23:41:17.87	69.46	74.67	-50.4	-65.8	3.8	1.49e+00	0	42	104	0	72	21139
2026-01-14 23:41:18.60	70.59	74.88	-50.4	-65.8	3.8	1.49e+00	0	43	104	0	72	21073
2026-01-14 23:41:19.88	72.66	75.23	-50.4	-65.8	3.8	1.49e+00	0	43	104	0	72	21213
2026-01-14 23:41:20.60	73.86	75.42	-50.4	-65.8	3.8	1.49e+00	0	43	104	0	72	21186
2026-01-14 23:41:21.88	76.08	75.73	-50.4	-65.8	3.8	1.49e+00	0	42	104	0	72	21147
2026-01-14 23:41:22.59	77.35	75.90	-50.4	-65.8	3.8	1.49e+00	0	42	104	0	72	21230
2026-01-14 23:41:23.87	79.73	76.19	-50.4	-65.8	3.8	1.49e+00	0	43	104	0	72	21149
2026-01-14 23:41:24.59	81.11	76.34	-50.4	-65.8	3.8	1.49e+00	0	42	104	0	72	21176
2026-01-14 23:41:25.87	83.64	76.59	-50.4	-65.8	3.8	1.49e+00	0	43	104	0	72	21146
2026-01-14 23:41:26.60	85.13	76.72	-50.5	-65.8	3.8	1.49e+00	0	43	104	0	72	21194
2026-01-14 23:41:27.87	87.78	76.92	-50.4	-65.8	3.8	1.49e+00	0	42	104	0	72	21170
2026-01-14 23:41:28.58	89.30	77.03	-50.4	-65.8	3.8	1.49e+00	0	42	104	0	72	21167
2026-01-14 23:41:29.86	92.10	77.19	-50.4	-65.8	3.8	1.49e+00	0	43	104	0	72	21080
2026-01-14 23:41:30.57	93.68	77.27	-50.4	-65.8	3.8	1.49e+00	0	42	104	0	72	21172
2026-01-14 23:41:31.85	96.58	77.38	-50.4	-65.8	3.8	1.49e+00	0	43	104	0	72	21106
2026-01-14 23:41:32.56	98.21	77.43	-50.4	-65.8	3.8	1.49e+00	0	43	104	0	72	21234
2026-01-14 23:41:33.84	101.17	77.50	-50.4	-65.8	3.8	1.49e+00	0	43	104	0	72	21215
2026-01-14 23:41:34.55	102.83	77.52	-50.4	-65.8	3.8	1.49e+00	0	43	104	0	72	21243
2026-01-14 23:41:35.83	105.82	77.54	-50.4	-65.8	3.8	1.49e+00	0	43	104	0	72	21139
2026-01-14 23:41:36.53	107.46	77.53	-50.4	-65.8	3.8	1.49e+00	0	43	104	0	72	21210
2026-01-14 23:41:37.81	110.45	77.49	-50.4	-65.8	3.8	1.49e+00	0	43	104	0	72	21191
2026-01-14 23:41:38.54	112.14	77.46	-50.4	-65.8	3.8	1.49e+00	0	42	104	0	72	21177
2026-01-14 23:41:39.81	115.06	77.37	-50.4	-65.8	3.8	1.49e+00	0	42	104	0	72	21176
2026-01-14 23:41:40.52	116.67	77.31	-50.4	-65.8	3.8	1.49e+00	0	43	104	0	72	21149
2026-01-14 23:41:41.80	119.53	77.17	-50.4	-65.8	3.8	1.49e+00	0	43	104	0	72	21191
2026-01-14 23:41:42.51	121.09	77.08	-50.4	-65.8	3.8	1.49e+00	0	42	104	0	72	21227
2026-01-14 23:41:43.79	123.84	76.90	-50.4	-65.8	3.8	1.49e+00	0	43	104	0	72	21223
2026-01-14 23:41:44.50	125.33	76.79	-50.4	-65.8	3.8	1.49e+00	0	43	104	0	72	21236
2026-01-14 23:41:45.78	127.94	76.56	-50.4	-65.8	3.8	1.49e+00	0	43	104	0	72	21191
2026-01-14 23:41:46.49	129.35	76.43	-50.4	-65.8	3.8	1.49e+00	0	43	104	0	72	21196
2026-01-14 23:41:47.76	131.80	76.16	-50.4	-65.8	3.8	1.49e+00	0	42	104	0	72	21173
2026-01-14 23:41:48.47	133.13	76.01	-50.4	-65.8	3.8	1.49e+00	0	43	104	0	72	21188
2026-01-14 23:41:49.75	135.44	75.71	-50.4	-65.8	3.8	1.49e+00	0	42	104	0	72	21196
2026-01-14 23:41:50.46	136.68	75.53	-50.4	-65.8	3.8	1.49e+00	0	43	104	0	72	21212
2026-01-14 23:41:51.74	138.84	75.20	-50.4	-65.8	3.8	1.49e+00	0	42	104	0	72	21187
2026-01-14 23:41:52.46	140.01	75.00	-50.5	-65.8	3.8	1.49e+00	0	43	104	0	72	21154
2026-01-14 23:41:53.74	142.01	74.65	-50.4	-65.8	3.8	1.49e+00	0	43	104	0	72	21130
2026-01-14 23:41:54.46	143.09	74.44	-50.4	-65.8	3.8	1.49e+00	0	42	104	0	72	21161
2026-01-14 23:41:55.74	144.94	74.05	-50.4	-65.8	3.8	1.49e+00	0	43	104	0	72	21195
2026-01-14 23:41:56.45	145.93	73.83	-50.4	-65.8	3.8	1.49e+00	0	43	104	0	72	21100
2026-01-14 23:41:57.73	147.64	73.43	-50.4	-65.8	3.8	1.49e+00	0	43	104	0	72	21159
2026-01-14 23:41:58.44	148.55	73.20	-50.4	-65.8	3.8	1.49e+00	0	43	104	0	72	21197
2026-01-14 23:41:59.71	150.11	72.78	-50.4	-65.8	3.8	1.49e+00	0	43	104	0	72	21226
2026-01-14 23:42:00.50	151.04	72.51	-50.5	-65.8	3.8	1.49e+00	0	43	104	0	72	21110
2026-01-14 23:42:01.78	152.49	72.07	-50.4	-65.8	3.8	1.49e+00	0	43	104	0	72	21229
2026-01-14 23:42:02.49	153.27	71.83	-50.4	-65.8	3.8	1.49e+00	0	42	104	0	72	21165
2026-01-14 23:42:03.77	154.60	71.38	-50.4	-65.8	3.8	1.49e+00	0	43	104	0	72	21204
2026-01-14 23:42:04.48	155.32	71.12	-50.4	-65.8	3.8	1.49e+00	0	43	104	0	72	21114
2026-01-14 23:42:05.82	156.61	70.64	-50.4	-65.8	3.8	1.49e+00	0	42	104	0	72	21144
2026-01-14 23:42:06.53	157.26	70.38	-50.4	-65.9	3.8	1.49e+00	0	43	104	0	72	21282
2026-01-14 23:42:07.87	158.45	69.89	-50.4	-65.8	3.8	1.49e+00	0	43	104	0	72	21244
2026-01-14 23:42:08.58	159.06	69.62	-50.4	-65.8	3.8	1.49e+00	0	43	104	0	72	21240
2026-01-14 23:42:09.94	160.17	69.12	-50.4	-65.8	3.8	1.49e+00	0	43	104	0	72	21195
2026-01-14 23:42:10.65	160.73	68.85	-50.4	-65.8	3.8	1.49e+00	0	43	104	0	72	21138
2026-01-14 23:42:11.92	161.69	68.37	-50.4	-65.8	3.8	1.49e+00	0	43	104	0	72	21216
2026-01-14 23:42:12.63	162.21	68.10	-50.4	-65.8	3.8	1.49e+00	0	43	104	0	72	21244
2026-01-14 23:42:13.91	163.11	67.61	-50.4	-65.9	3.8	1.49e+00	0	43	104	0	72	21288
2026-01-14 23:42:14.62	163.60	67.34	-50.4	-65.8	3.8	1.49e+00	0	43	104	0	72	21113
2026-01-14 23:42:15.90	164.43	66.85	-50.4	-65.8	3.8	1.49e+00	0	42	104	0	72	21228
2026-01-14 23:42:16.61	164.88	66.58	-50.4	-65.8	3.8	1.49e+00	0	43	104	0	72	21245
2026-01-14 23:42:17.89	165.66	66.09	-50.4	-65.8	3.8	1.49e+00	0	42	104	0	72	21114
2026-01-14 23:42:18.61	166.08	65.81	-50.4	-65.8	3.8	1.49e+00	0	42	104	0	72	21086
2026-01-14 23:42:19.89	166.81	65.32	-50.4	-65.8	3.8	1.49e+00	0	43	104	0	72	21183
2026-01-14 23:42:20.60	167.20	65.04	-50.4	-65.8	3.8	1.49e+00	0	43	104	0	72	21174
2026-01-14 23:42:21.88	167.88	64.55	-50.4	-65.8	3.8	1.49e+00	0	43	104	0	72	21171
2026-01-14 23:42:22.59	168.24	64.27	-50.4	-65.8	3.8	1.49e+00	0	43	104	0	72	21133
2026-01-14 23:42:23.86	168.87	63.78	-50.4	-65.8	3.8	1.49e+00	0	43	104	0	72	21195
2026-01-14 23:42:24.58	169.22	63.51	-50.4	-65.8	3.8	1.49e+00	0	43	104	0	72	21174
2026-01-14 23:42:25.85	169.81	63.02	-50.4	-65.8	3.8	1.49e+00	0	42	104	0	72	21250
2026-01-14 23:42:26.58	170.14	62.74	-50.4	-65.9	3.8	1.49e+00	0	43	104	0	72	21336
2026-01-14 23:42:27.86	170.69	62.25	-50.4	-65.9	3.8	1.49e+00	0	43	104	0	72	21262
2026-01-14 23:42:28.57	170.99	61.98	-50.4	-65.8	3.8	1.49e+00	0	43	104	0	72	21204
2026-01-14 23:42:29.85	171.52	61.49	-50.4	-65.8	3.8	1.49e+00	0	43	104	0	72	21220
2026-01-14 23:42:30.56	171.80	61.22	-50.4	-65.8	3.8	1.49e+00	0	43	104	0	72	21214
2026-01-14 23:42:31.83	172.29	60.74	-50.4	-65.9	3.8	1.49e+00	0	43	104	0	72	21290
2026-01-14 23:42:32.56	172.57	60.46	-50.4	-65.8	3.8	1.49e+00	0	42	104	0	72	21171
2026-01-14 23:42:33.84	173.03	59.98	-50.4	-65.8	3.8	1.49e+00	0	43	104	0	72	21208
2026-01-14 23:42:34.54	173.28	59.71	-50.4	-65.8	3.8	1.49e+00	0	43	104	0	72	21203
2026-01-14 23:42:35.82	173.72	59.23	-50.4	-65.8	3.8	1.49e+00	0	43	104	0	72	21247
2026-01-14 23:42:36.55	173.96	58.96	-50.4	-65.8	3.8	1.49e+00	0	43	104	0	72	21224
2026-01-14 23:42:37.82	174.38	58.49	-50.4	-65.8	3.8	1.49e+00	0	43	104	0	72	21222
2026-01-14 23:42:38.53	174.60	58.23	-50.4	-65.8	3.8	1.49e+00	0	43	104	0	72	21164
2026-01-14 23:42:39.81	174.99	57.75	-50.4	-65.8	3.8	1.49e+00	0	43	104	0	72	21131
2026-01-14 23:42:40.54	175.21	57.49	-50.4	-65.8	3.8	1.49e+00	0	42	104	0	72	21139
2026-01-14 23:42:41.82	175.59	57.02	-50.4	-65.8	3.8	1.49e+00	0	43	104	0	72	21137
2026-01-14 23:42:42.54	175.79	56.76	-50.4	-65.8	3.8	1.49e+00	0	43	104	0	72	21105
2026-01-14 23:42:43.82	176.15	56.29	-50.4	-65.8	3.8	1.49e+00	0	43	104	0	72	21238
2026-01-14 23:42:44.53	176.34	56.04	-50.4	-65.8	3.8	1.49e+00	0	43	104	0	72	21239
2026-01-14 23:42:45.80	176.67	55.58	-50.4	-65.8	3.8	1.49e+00	0	43	104	0	72	21171
2026-01-14 23:42:46.51	176.85	55.33	-50.4	-65.8	3.8	1.49e+00	0	43	104	0	72	21236
2026-01-14 23:42:47.79	177.17	54.87	-50.4	-65.9	3.8	1.49e+00	0	43	104	0	72	21262
2026-01-14 23:42:48.53	177.35	54.61	-50.4	-65.9	3.8	1.49e+00	0	43	104	0	72	21262
2026-01-14 23:42:49.81	177.66	54.16	-50.4	-65.9	3.8	1.49e+00	0	43	104	0	72	21267
2026-01-14 23:42:50.52	177.82	53.91	-50.4	-65.8	3.8	1.49e+00	0	43	104	0	72	21224
2026-01-14 23:42:51.80	178.11	53.47	-50.4	-65.8	3.8	1.49e+00	0	43	104	0	72	21188
2026-01-14 23:42:52.51	178.27	53.22	-50.4	-65.8	3.8	1.49e+00	0	43	104	0	72	21253
2026-01-14 23:42:53.79	178.55	52.78	-50.4	-65.8	3.8	1.49e+00	0	43	104	0	72	21257
2026-01-14 23:42:54.50	178.70	52.54	-50.4	-65.8	3.8	1.49e+00	0	42	104	0	72	21190
2026-01-14 23:42:55.77	178.96	52.11	-50.4	-65.9	3.8	1.49e+00	0	43	104	0	72	21271
2026-01-14 23:42:56.48	179.11	51.87	-50.5	-65.9	3.8	1.49e+00	0	43	104	0	72	21273
2026-01-14 23:42:57.76	179.36	51.44	-50.4	-65.8	3.8	1.49e+00	0	43	104	0	72	21251
2026-01-14 23:42:58.47	179.50	51.20	-50.4	-65.8	3.8	1.49e+00	0	43	104	0	72	21209
2026-01-14 23:42:59.75	179.74	50.78	-50.4	-65.9	3.8	1.49e+00	0	43	104	0	72	21301
2026-01-14 23:43:00.49	179.88	50.53	-50.4	-65.8	3.8	1.49e+00	0	42	104	0	72	21145
2026-01-14 23:43:01.77	180.11	50.11	-50.4	-65.8	3.8	1.49e+00	0	43	104	0	72	21252
2026-01-14 23:43:02.48	180.24	49.88	-50.4	-65.8	3.8	1.49e+00	0	43	104	0	72	21249
2026-01-14 23:43:03.87	180.48	49.43	-50.4	-65.8	3.8	1.49e+00	0	43	104	0	72	21125
2026-01-14 23:43:04.58	180.60	49.20	-50.4	-65.8	3.8	1.49e+00	0	43	104	0	72	21146
2026-01-14 23:43:05.85	180.81	48.80	-50.5	-65.8	3.8	1.49e+00	0	43	104	0	72	21251
2026-01-14 23:43:06.58	180.93	48.57	-50.5	-65.8	3.8	1.49e+00	0	42	104	0	72	21238
2026-01-14 23:43:07.86	181.14	48.16	-50.4	-65.9	3.8	1.49e+00	0	43	104	0	72	21289
2026-01-14 23:43:08.56	181.25	47.94	-50.5	-65.8	3.8	1.49e+00	0	43	104	0	72	21227
2026-01-14 23:43:09.84	181.45	47.55	-50.4	-65.8	3.8	1.49e+00	0	43	104	0	72	21237
2026-01-14 23:43:10.55	181.55	47.33	-50.4	-65.8	3.8	1.49e+00	0	43	104	0	72	21243
2026-01-14 23:43:11.83	181.74	46.93	-50.5	-65.8	3.8	1.49e+00	0	43	104	0	72	21210
2026-01-14 23:43:12.54	181.85	46.72	-50.4	-65.8	3.8	1.49e+00	0	43	104	0	72	21227
2026-01-14 23:43:13.82	182.03	46.33	-50.4	-65.8	3.8	1.49e+00	0	43	104	0	72	21253
2026-01-14 23:43:14.53	182.13	46.12	-50.4	-65.8	3.8	1.49e+00	0	43	104	0	72	21245
2026-01-14 23:43:15.81	182.31	45.73	-50.4	-65.9	3.8	1.49e+00	0	43	104	0	72	21293
2026-01-14 23:43:16.53	182.40	45.52	-50.4	-65.8	3.8	1.49e+00	0	43	104	0	72	21252
2026-01-14 23:43:17.81	182.57	45.14	-50.4	-65.8	3.8	1.49e+00	0	43	104	0	72	21109
2026-01-14 23:43:18.52	182.67	44.93	-50.4	-65.8	3.8	1.49e+00	0	43	104	0	72	21178
2026-01-14 23:43:19.83	182.83	44.55	-50.5	-65.8	3.8	1.49e+00	0	43	104	0	72	21143
2026-01-14 23:43:20.54	182.92	44.35	-50.4	-65.9	3.8	1.49e+00	0	43	104	0	72	21267
2026-01-14 23:43:21.89	183.09	43.96	-50.4	-65.8	3.8	1.49e+00	0	43	104	0	72	21198
2026-01-14 23:43:22.60	183.18	43.76	-50.4	-65.8	3.8	1.49e+00	0	43	104	0	72	21247
2026-01-14 23:43:23.93	183.34	43.38	-50.5	-65.8	3.8	1.49e+00	0	43	104	0	72	21172
2026-01-14 23:43:24.64	183.42	43.18	-50.4	-65.8	3.8	1.49e+00	0	43	104	0	72	21197
2026-01-14 23:43:25.91	183.56	42.83	-50.5	-65.8	3.8	1.49e+00	0	43	104	0	72	21250
2026-01-14 23:43:26.62	183.65	42.63	-50.4	-65.9	3.8	1.49e+00	0	43	104	0	72	21286
2026-01-14 23:43:27.90	183.79	42.28	-50.4	-65.8	3.8	1.49e+00	0	43	104	0	72	21215
2026-01-14 23:43:28.61	183.87	42.08	-50.4	-65.8	3.8	1.49e+00	0	42	104	0	72	21225
2026-01-14 23:43:29.89	184.00	41.74	-50.4	-65.8	3.8	1.49e+00	0	43	104	0	72	21185
2026-01-14 23:43:30.61	184.08	41.54	-50.4	-65.8	3.8	1.49e+00	0	43	104	0	72	21235
2026-01-14 23:43:31.89	184.21	41.20	-50.5	-65.8	3.8	1.49e+00	0	43	104	0	72	21225
2026-01-14 23:43:32.60	184.29	41.01	-50.4	-65.9	3.8	1.49e+00	0	43	104	0	72	21298
2026-01-14 23:43:33.88	184.42	40.67	-50.5	-65.9	3.8	1.49e+00	0	43	104	0	72	21268
2026-01-14 23:43:34.60	184.49	40.49	-50.5	-65.8	3.8	1.49e+00	0	43	104	0	72	21222
2026-01-14 23:43:35.88	184.61	40.15	-50.4	-65.8	3.8	1.49e+00	0	43	104	0	72	21170
2026-01-14 23:43:36.59	184.68	39.97	-50.4	-65.8	3.8	1.49e+00	0	43	104	0	72	21220
2026-01-14 23:43:37.86	184.80	39.64	-50.4	-65.8	3.8	1.49e+00	0	43	104	0	72	21163
2026-01-14 23:43:38.57	184.87	39.46	-50.5	-65.8	3.8	1.49e+00	0	43	104	0	72	21242
2026-01-14 23:43:39.85	184.99	39.14	-50.5	-65.8	3.8	1.49e+00	0	43	104	0	72	21210
2026-01-14 23:43:40.56	185.05	38.96	-50.4	-65.8	3.8	1.49e+00	0	43	104	0	72	21246
2026-01-14 23:43:41.84	185.17	38.64	-50.5	-65.8	3.8	1.49e+00	0	43	104	0	72	21251
2026-01-14 23:43:42.56	185.23	38.46	-50.5	-65.8	3.8	1.49e+00	0	43	104	0	72	21195
2026-01-14 23:43:43.84	185.34	38.15	-50.5	-65.8	3.8	1.49e+00	0	43	104	0	72	21192
2026-01-14 23:43:44.55	185.40	37.97	-50.5	-65.9	3.8	1.49e+00	0	43	104	0	72	21302
2026-01-14 23:43:45.83	185.51	37.66	-50.4	-65.8	3.8	1.49e+00	0	43	104	0	72	21220
2026-01-14 23:43:46.54	185.57	37.49	-50.4	-65.9	3.8	1.49e+00	0	43	104	0	72	21310
2026-01-14 23:43:47.82	185.68	37.18	-50.4	-65.9	3.8	1.49e+00	0	43	104	0	72	21268
2026-01-14 23:43:48.54	185.74	37.01	-50.4	-65.8	3.8	1.49e+00	0	43	104	0	72	21230
2026-01-14 23:43:49.82	185.84	36.71	-50.5	-65.9	3.8	1.49e+00	0	43	104	0	72	21307
2026-01-14 23:43:50.53	185.89	36.54	-50.5	-65.8	3.8	1.49e+00	0	43	104	0	72	21259
2026-01-14 23:43:51.81	185.99	36.25	-50.5	-65.9	3.8	1.49e+00	0	43	104	0	72	21274
2026-01-14 23:43:52.52	186.05	36.08	-50.5	-65.9	3.8	1.49e+00	0	43	104	0	72	21312
2026-01-14 23:43:53.79	186.14	35.79	-50.5	-65.8	3.8	1.49e+00	0	43	104	0	72	21238
2026-01-14 23:43:54.50	186.20	35.63	-50.5	-65.8	3.8	1.49e+00	0	43	104	0	72	21240
2026-01-14 23:43:55.78	186.29	35.34	-50.4	-65.9	3.8	1.49e+00	0	43	104	0	72	21289
2026-01-14 23:43:56.49	186.34	35.18	-50.5	-65.8	3.8	1.49e+00	0	43	104	0	72	21185
2026-01-14 23:43:57.89	186.44	34.87	-50.5	-65.8	3.8	1.49e+00	0	43	104	0	72	21187
2026-01-14 23:43:58.60	186.50	34.71	-50.5	-65.8	3.8	1.49e+00	0	43	104	0	72	21246
2026-01-14 23:43:59.90	186.59	34.42	-50.5	-65.9	3.8	1.49e+00	0	43	104	0	72	21277
2026-01-14 23:44:00.62	186.64	34.26	-50.4	-65.9	3.8	1.49e+00	0	43	104	0	72	21274
2026-01-14 23:44:01.90	186.72	33.99	-50.4	-65.9	3.8	1.49e+00	0	42	104	0	72	21270
2026-01-14 23:44:02.61	186.77	33.83	-50.4	-65.9	3.8	1.49e+00	0	42	104	0	72	21269
2026-01-14 23:44:03.88	186.86	33.56	-50.5	-65.9	3.8	1.49e+00	0	43	104	0	72	21269
2026-01-14 23:44:04.59	186.90	33.41	-50.5	-65.9	3.8	1.49e+00	0	43	104	0	72	21266
2026-01-14 23:44:05.87	186.99	33.14	-50.5	-65.9	3.8	1.49e+00	0	43	104	0	72	21301
2026-01-14 23:44:06.60	187.03	32.99	-50.5	-65.9	3.8	1.49e+00	0	43	104	0	72	21298
2026-01-14 23:44:07.87	187.11	32.72	-50.5	-65.9	3.8	1.49e+00	0	43	104	0	72	21324
2026-01-14 23:44:08.58	187.16	32.57	-50.5	-65.8	3.8	1.49e+00	0	43	104	0	72	21252
2026-01-14 23:44:09.86	187.24	32.31	-50.5	-65.8	3.8	1.49e+00	0	43	104	0	72	21234
2026-01-14 23:44:10.57	187.28	32.16	-50.5	-65.9	3.8	1.49e+00	0	43	104	0	72	21319
2026-01-14 23:44:11.85	187.36	31.90	-50.5	-65.9	3.8	1.49e+00	0	43	104	0	72	21269
2026-01-14 23:44:12.56	187.40	31.76	-50.5	-65.9	3.8	1.49e+00	0	43	104	0	72	21311
2026-01-14 23:44:13.84	187.47	31.51	-50.5	-65.8	3.8	1.49e+00	0	43	104	0	72	21204
2026-01-14 23:44:14.55	187.52	31.36	-50.4	-65.8	3.8	1.49e+00	0	43	104	0	72	21247
2026-01-14 23:44:15.82	187.59	31.11	-50.5	-65.9	3.8	1.49e+00	0	43	104	0	72	21281
2026-01-14 23:44:16.55	187.63	30.97	-50.5	-65.9	3.8	1.49e+00	0	42	104	0	72	21276
2026-01-14 23:44:17.83	187.70	30.72	-50.5	-65.8	3.8	1.49e+00	0	43	104	0	72	21239
2026-01-14 23:44:18.55	187.74	30.58	-50.5	-65.8	3.8	1.49e+00	0	43	104	0	72	21241
2026-01-14 23:44:19.83	187.81	30.33	-50.5	-65.8	3.8	1.49e+00	0	43	104	0	72	21259
2026-01-14 23:44:20.54	187.85	30.20	-50.5	-65.9	3.8	1.49e+00	0	43	104	0	72	21284
2026-01-14 23:44:21.81	187.92	29.96	-50.5	-65.8	3.8	1.49e+00	0	43	104	0	72	21236
2026-01-14 23:44:22.52	187.96	29.82	-50.5	-65.8	3.8	1.49e+00	0	43	104	0	72	21248
2026-01-14 23:44:23.80	188.03	29.58	-50.5	-65.8	3.8	1.49e+00	0	43	104	0	72	21251
2026-01-14 23:44:24.54	188.06	29.44	-50.4	-65.9	3.8	1.49e+00	0	43	104	0	72	21264
2026-01-14 23:44:25.82	188.13	29.21	-50.5	-65.8	3.8	1.49e+00	0	43	104	0	72	21180
2026-01-14 23:44:26.53	188.17	29.08	-50.5	-65.9	3.8	1.49e+00	0	43	104	0	72	21291
2026-01-14 23:44:27.81	188.23	28.84	-50.5	-65.8	3.8	1.49e+00	0	43	104	0	72	21230
2026-01-14 23:44:28.51	188.27	28.71	-50.5	-65.9	3.8	1.49e+00	0	43	104	0	72	21296
2026-01-14 23:44:29.79	188.33	28.48	-50.5	-65.9	3.8	1.49e+00	0	43	104	0	72	21278
2026-01-14 23:44:30.50	188.36	28.35	-50.5	-65.9	3.8	1.49e+00	0	43	104	0	72	21316
2026-01-14 23:44:31.78	188.43	28.13	-50.5	-65.9	3.8	1.49e+00	0	43	104	0	72	21296
2026-01-14 23:44:32.49	188.46	28.00	-50.5	-65.8	3.8	1.49e+00	0	43	104	0	72	21228
2026-01-14 23:44:33.78	188.52	27.77	-50.5	-65.8	3.8	1.49e+00	0	43	104	0	72	21246
2026-01-14 23:44:34.49	188.56	27.65	-50.5	-65.9	3.8	1.49e+00	0	43	104	0	72	21279
2026-01-14 23:44:35.77	188.61	27.43	-50.5	-65.9	3.8	1.49e+00	0	43	104	0	72	21298
2026-01-14 23:44:36.48	188.65	27.30	-50.5	-65.9	3.8	1.49e+00	0	43	104	0	72	21271
2026-01-14 23:44:37.76	188.71	27.08	-50.5	-65.9	3.8	1.49e+00	0	43	104	0	72	21361
2026-01-14 23:44:38.47	188.74	26.96	-50.5	-65.9	3.8	1.49e+00	0	43	104	0	72	21294
2026-01-14 23:44:39.75	188.79	26.75	-50.5	-65.9	3.8	1.49e+00	0	43	104	0	72	21271
2026-01-14 23:44:40.46	188.83	26.63	-50.5	-65.8	3.8	1.49e+00	0	43	104	0	72	21215
2026-01-14 23:44:41.73	188.88	26.41	-50.5	-65.9	3.8	1.49e+00	0	43	104	0	72	21270
2026-01-14 23:44:42.44	188.91	26.29	-50.5	-65.8	3.8	1.49e+00	0	43	104	0	72	21258
2026-01-14 23:44:43.72	188.97	26.08	-50.5	-65.9	3.8	1.49e+00	0	43	104	0	72	21292
2026-01-14 23:44:44.43	189.00	25.97	-50.5	-65.9	3.8	1.49e+00	0	43	104	0	72	21273
2026-01-14 23:44:45.71	189.05	25.76	-50.5	-65.9	3.8	1.49e+00	0	43	104	0	72	21322
2026-01-14 23:44:46.42	189.08	25.64	-50.5	-65.9	3.8	1.49e+00	0	43	104	0	72	21294
2026-01-14 23:44:47.69	189.13	25.43	-50.5	-65.8	3.8	1.49e+00	0	43	104	0	72	21248
2026-01-14 23:44:48.42	189.16	25.32	-50.5	-65.8	3.8	1.49e+00	0	43	104	0	72	21259
2026-01-14 23:44:49.70	189.22	25.11	-50.5	-65.9	3.8	1.49e+00	0	43	104	0	72	21301
2026-01-14 23:44:50.42	189.25	25.00	-50.5	-65.9	3.8	1.49e+00	0	43	104	0	72	21296
2026-01-14 23:44:51.70	189.30	24.80	-50.5	-65.9	3.8	1.49e+00	0	43	104	0	72	21261
2026-01-14 23:44:52.41	189.32	24.68	-50.5	-65.9	3.8	1.49e+00	0	43	104	0	72	21366
2026-01-14 23:44:53.69	189.37	24.49	-50.5	-65.9	3.8	1.49e+00	0	43	104	0	72	21268
2026-01-14 23:44:54.40	189.40	24.38	-50.5	-65.9	3.8	1.49e+00	0	43	104	0	72	21320
2026-01-14 23:44:55.68	189.45	24.18	-50.5	-65.8	3.8	1.49e+00	0	43	104	0	72	21249
2026-01-14 23:44:56.40	189.48	24.07	-50.5	-65.9	3.8	1.49e+00	0	43	104	0	72	21325
2026-01-14 23:44:57.68	189.53	23.87	-50.5	-65.9	3.8	1.49e+00	0	43	104	0	72	21313
2026-01-14 23:44:58.60	189.56	23.73	-50.5	-65.9	3.8	1.49e+00	0	43	104	0	72	21312
2026-01-14 23:44:59.59	189.60	23.58	-50.5	-65.8	3.8	1.49e+00	0	43	104	0	72	21228
2026-01-14 23:45:00.58	189.63	23.44	-50.5	-65.8	3.8	1.49e+00	0	43	104	0	72	21196
2026-01-14 23:45:01.58	189.67	23.29	-50.5	-65.9	3.8	1.49e+00	0	43	104	0	72	21331
2026-01-14 23:45:02.57	189.71	23.14	-50.5	-65.8	3.8	1.49e+00	0	43	104	0	72	21213
2026-01-14 23:45:03.56	189.74	22.99	-50.5	-65.9	3.8	1.49e+00	0	43	104	0	72	21375
2026-01-14 23:45:04.56	189.78	22.85	-50.5	-65.9	3.8	1.49e+00	0	43	104	0	72	21324
2026-01-14 23:45:05.55	189.81	22.70	-50.5	-65.8	3.8	1.49e+00	0	43	104	0	72	21252
2026-01-14 23:45:06.56	189.85	22.56	-50.5	-65.9	3.8	1.49e+00	0	43	104	0	72	21272
2026-01-14 23:45:07.59	189.88	22.41	-50.5	-65.9	3.8	1.49e+00	0	43	104	0	72	21262
2026-01-14 23:45:08.61	189.92	22.26	-50.5	-65.9	3.8	1.49e+00	0	43	104	0	72	21270
2026-01-14 23:45:09.64	189.95	22.12	-50.5	-65.8	3.8	1.49e+00	0	43	104	0	72	21247
2026-01-14 23:45:10.63	189.99	21.98	-50.5	-65.9	3.8	1.49e+00	0	43	104	0	72	21325
2026-01-14 23:45:11.63	190.02	21.83	-50.5	-65.9	3.8	1.49e+00	0	43	104	0	72	21301
2026-01-14 23:45:12.62	190.05	21.70	-50.5	-65.9	3.8	1.49e+00	0	43	104	0	72	21261
2026-01-14 23:45:13.61	190.09	21.56	-50.5	-65.8	3.8	1.49e+00	0	43	104	0	72	21222
2026-01-14 23:45:14.61	190.12	21.42	-50.5	-65.9	3.8	1.49e+00	0	43	104	0	72	21270
2026-01-14 23:45:15.60	190.15	21.28	-50.5	-65.9	3.8	1.49e+00	0	43	104	0	72	21361
2026-01-14 23:45:16.59	190.18	21.15	-50.5	-65.9	3.8	1.49e+00	0	43	104	0	72	21342
2026-01-14 23:45:17.59	190.21	21.01	-50.5	-65.9	3.8	1.49e+00	0	43	104	0	72	21270
2026-01-14 23:45:18.58	190.25	20.88	-50.5	-65.9	3.8	1.49e+00	0	43	104	0	72	21273
2026-01-14 23:45:19.57	190.28	20.74	-50.5	-65.9	3.8	1.49e+00	0	43	104	0	72	21286
2026-01-14 23:45:20.57	190.31	20.61	-50.5	-65.9	3.8	1.49e+00	0	43	104	0	72	21279
2026-01-14 23:45:21.56	190.34	20.48	-50.5	-65.9	3.8	1.49e+00	0	43	104	0	72	21328
2026-01-14 23:45:22.56	190.37	20.34	-50.5	-65.9	3.8	1.49e+00	0	43	104	0	72	21391
2026-01-14 23:45:23.55	190.40	20.21	-50.5	-65.9	3.8	1.49e+00	0	43	104	0	72	21303
2026-01-14 23:45:24.54	190.43	20.08	-50.5	-65.8	3.8	1.49e+00	0	43	104	0	72	21258
2026-01-14 23:45:25.54	190.46	19.95	-50.5	-65.9	3.8	1.49e+00	0	43	104	0	72	21262
2026-01-14 23:45:26.53	190.49	19.82	-50.5	-65.9	3.8	1.49e+00	0	43	104	0	72	21400
2026-01-14 23:45:27.52	190.52	19.70	-50.5	-65.9	3.8	1.49e+00	0	43	104	0	72	21303
2026-01-14 23:45:28.51	190.55	19.57	-50.5	-65.9	3.8	1.49e+00	0	43	104	0	72	21314
2026-01-14 23:45:29.51	190.58	19.44	-50.5	-65.9	3.8	1.49e+00	0	42	104	0	72	21391
2026-01-14 23:45:30.50	190.61	19.31	-50.5	-65.9	3.8	1.49e+00	0	43	104	0	72	21382
2026-01-14 23:45:31.49	190.63	19.19	-50.5	-65.8	3.8	1.49e+00	0	43	104	0	72	21257
2026-01-14 23:45:32.49	190.66	19.06	-50.5	-65.9	3.8	1.49e+00	0	43	104	0	72	21351
2026-01-14 23:45:33.48	190.69	18.94	-50.5	-65.9	3.8	1.49e+00	0	43	104	0	72	21385
2026-01-14 23:45:34.48	190.72	18.81	-50.5	-65.9	3.8	1.49e+00	0	43	104	0	72	21359
2026-01-14 23:45:35.47	190.75	18.69	-50.5	-65.9	3.8	1.49e+00	0	43	104	0	72	21348
2026-01-14 23:45:36.47	190.77	18.57	-50.5	-65.9	3.8	1.49e+00	0	43	104	0	72	21319
2026-01-14 23:45:37.46	190.80	18.44	-50.5	-65.9	3.8	1.49e+00	0	43	104	0	72	21308
2026-01-14 23:45:38.48	190.83	18.32	-50.5	-65.8	3.8	1.49e+00	0	43	104	0	72	21256
2026-01-14 23:45:39.51	190.86	18.19	-50.5	-65.9	3.8	1.49e+00	0	43	104	0	72	21345
2026-01-14 23:45:40.53	190.88	18.07	-50.5	-65.9	3.8	1.49e+00	0	43	104	0	72	21291
2026-01-14 23:45:41.57	190.91	17.94	-50.5	-65.9	3.8	1.49e+00	0	43	104	0	72	21324
2026-01-14 23:45:42.55	190.94	17.83	-50.5	-65.9	3.8	1.49e+00	0	43	104	0	72	21319
2026-01-14 23:45:43.62	190.97	17.70	-50.5	-65.9	3.8	1.49e+00	0	43	104	0	72	21303
2026-01-14 23:45:44.48	190.99	17.60	-50.5	-65.9	3.8	1.49e+00	0	43	104	0	72	21275
2026-01-14 23:45:45.61	191.02	17.46	-50.5	-65.9	3.8	1.49e+00	0	43	104	0	72	21332
2026-01-14 23:45:46.46	191.04	17.36	-50.5	-65.9	3.8	1.49e+00	0	43	104	0	72	21359
2026-01-14 23:45:47.60	191.07	17.23	-50.5	-65.9	3.8	1.49e+00	0	43	104	0	72	21289
2026-01-14 23:45:48.45	191.09	17.13	-50.5	-65.9	3.8	1.49e+00	0	43	104	0	72	21345
2026-01-14 23:45:49.58	191.12	17.00	-50.5	-65.9	3.8	1.49e+00	0	43	104	0	72	21363
2026-01-14 23:45:50.44	191.14	16.90	-50.5	-65.9	3.8	1.49e+00	0	43	104	0	72	21407
2026-01-14 23:45:51.57	191.17	16.77	-50.5	-65.9	3.8	1.49e+00	0	43	104	0	72	21442
2026-01-14 23:45:52.42	191.19	16.67	-50.5	-65.9	3.8	1.49e+00	0	43	104	0	72	21391
2026-01-14 23:45:53.56	191.22	16.54	-50.5	-65.9	3.8	1.49e+00	0	43	104	0	72	21374
2026-01-14 23:45:54.41	191.24	16.45	-50.5	-65.9	3.8	1.49e+00	0	43	104	0	72	21352
2026-01-14 23:45:55.55	191.27	16.32	-50.5	-65.9	3.8	1.49e+00	0	43	104	0	72	21335
2026-01-14 23:45:56.40	191.29	16.22	-50.5	-65.9	3.8	1.49e+00	0	43	104	0	72	21383
2026-01-14 23:45:57.53	191.31	16.10	-50.5	-65.9	3.8	1.49e+00	0	43	104	0	72	21268
2026-01-14 23:45:58.39	191.33	16.00	-50.5	-65.9	3.8	1.49e+00	0	43	104	0	72	21390
2026-01-14 23:45:59.52	191.36	15.87	-50.5	-65.9	3.8	1.49e+00	0	43	104	0	72	21268
2026-01-14 23:46:00.42	191.38	15.78	-50.5	-65.8	3.8	1.49e+00	0	43	104	0	72	21241
2026-01-14 23:46:01.54	191.41	15.65	-50.5	-65.9	3.8	1.49e+00	0	43	104	0	72	21373
2026-01-14 23:46:02.39	191.43	15.56	-50.5	-65.9	3.8	1.49e+00	0	43	104	0	72	21295
2026-01-14 23:46:03.53	191.45	15.43	-50.5	-65.9	3.8	1.49e+00	0	43	104	0	72	21388
2026-01-14 23:46:04.38	191.47	15.34	-50.5	-65.9	3.8	1.49e+00	0	43	104	0	72	21320
2026-01-14 23:46:05.52	191.50	15.22	-50.5	-65.9	3.8	1.49e+00	0	43	104	0	72	21367
2026-01-14 23:46:06.37	191.52	15.13	-50.5	-65.9	3.8	1.49e+00	0	43	104	0	72	21291
2026-01-14 23:46:07.50	191.54	15.01	-50.5	-65.9	3.8	1.49e+00	0	43	104	0	72	21316
2026-01-14 23:46:08.36	191.56	14.92	-50.5	-65.9	3.8	1.49e+00	0	43	104	0	72	21368
2026-01-14 23:46:09.49	191.59	14.80	-50.5	-65.9	3.8	1.49e+00	0	43	104	0	72	21346
2026-01-14 23:46:10.34	191.61	14.71	-50.5	-65.9	3.8	1.49e+00	0	43	104	0	72	21280
2026-01-14 23:46:11.48	191.63	14.59	-50.5	-65.9	3.8	1.49e+00	0	43	104	0	72	21294
2026-01-14 23:46:12.33	191.65	14.50	-50.5	-65.9	3.8	1.49e+00	0	43	104	0	72	21341
2026-01-14 23:46:13.47	191.67	14.38	-50.5	-65.9	3.8	1.49e+00	0	43	104	0	72	21349
2026-01-14 23:46:14.32	191.69	14.29	-50.5	-65.9	3.8	1.49e+00	0	43	104	0	72	21364
2026-01-14 23:46:15.45	191.72	14.17	-50.5	-65.9	3.8	1.49e+00	0	43	104	0	72	21365
2026-01-14 23:46:16.30	191.73	14.09	-50.5	-65.9	3.8	1.49e+00	0	43	104	0	72	21371
2026-01-14 23:46:17.44	191.76	13.97	-50.5	-65.9	3.8	1.49e+00	0	43	104	0	72	21391
2026-01-14 23:46:18.29	191.78	13.88	-50.5	-65.9	3.8	1.49e+00	0	43	104	0	72	21364
2026-01-14 23:46:19.43	191.80	13.77	-50.5	-65.9	3.8	1.49e+00	0	43	104	0	72	21391
2026-01-14 23:46:20.28	191.82	13.68	-50.5	-65.9	3.8	1.49e+00	0	43	104	0	72	21419
2026-01-14 23:46:21.41	191.84	13.57	-50.5	-65.9	3.8	1.49e+00	0	43	104	0	72	21341
2026-01-14 23:46:22.26	191.86	13.48	-50.5	-65.8	3.8	1.49e+00	0	43	104	0	72	21254
2026-01-14 23:46:23.40	191.88	13.37	-50.5	-65.9	3.8	1.49e+00	0	43	104	0	72	21323
2026-01-14 23:46:24.25	191.90	13.28	-50.5	-65.9	3.8	1.49e+00	0	43	104	0	72	21339
2026-01-14 23:46:25.39	191.92	13.17	-50.5	-65.9	3.8	1.49e+00	0	43	104	0	72	21336
2026-01-14 23:46:26.24	191.94	13.08	-50.5	-65.9	3.8	1.49e+00	0	43	104	0	72	21333
2026-01-14 23:46:27.46	191.96	12.96	-50.5	-65.9	3.8	1.49e+00	0	43	104	0	72	21323
2026-01-14 23:46:28.31	191.98	12.88	-50.5	-65.9	3.8	1.49e+00	0	43	104	0	72	21363
2026-01-14 23:46:29.51	192.00	12.76	-50.5	-65.9	3.8	1.49e+00	0	43	104	0	72	21333
2026-01-14 23:46:30.36	192.02	12.68	-50.5	-65.9	3.8	1.49e+00	0	43	104	0	72	21354
2026-01-14 23:46:31.56	192.04	12.57	-50.5	-65.9	3.8	1.49e+00	0	43	104	0	72	21333
2026-01-14 23:46:32.41	192.06	12.48	-50.5	-65.9	3.8	1.49e+00	0	43	104	0	72	21375
2026-01-14 23:46:33.61	192.08	12.37	-50.5	-65.9	3.8	1.49e+00	0	43	104	0	72	21335
2026-01-14 23:46:34.46	192.10	12.29	-50.5	-65.9	3.8	1.49e+00	0	43	104	0	72	21346
2026-01-14 23:46:35.66	192.12	12.17	-50.5	-65.9	3.8	1.49e+00	0	43	104	0	72	21462
2026-01-14 23:46:36.51	192.14	12.09	-50.5	-65.9	3.8	1.49e+00	0	43	104	0	72	21409
2026-01-14 23:46:37.71	192.16	11.98	-50.5	-65.9	3.8	1.49e+00	0	43	104	0	72	21309
2026-01-14 23:46:38.56	192.18	11.90	-50.5	-65.9	3.8	1.49e+00	0	43	104	0	72	21323
2026-01-14 23:46:39.70	192.20	11.79	-50.5	-65.9	3.8	1.49e+00	0	43	104	0	72	21368
2026-01-14 23:46:40.55	192.21	11.71	-50.5	-65.9	3.8	1.49e+00	0	43	104	0	72	21421
2026-01-14 23:46:41.69	192.24	11.61	-50.5	-65.9	3.8	1.49e+00	0	43	104	0	72	21340
2026-01-14 23:46:42.54	192.25	11.53	-50.5	-65.9	3.8	1.49e+00	0	43	104	0	72	21363
2026-01-14 23:46:43.68	192.27	11.42	-50.5	-65.9	3.8	1.49e+00	0	43	104	0	72	21335
2026-01-14 23:46:44.53	192.29	11.34	-50.5	-65.9	3.8	1.49e+00	0	43	104	0	72	21298
2026-01-14 23:46:45.66	192.31	11.24	-50.5	-65.9	3.8	1.49e+00	0	43	104	0	72	21439
2026-01-14 23:46:46.52	192.32	11.16	-50.5	-65.9	3.8	1.49e+00	0	43	104	0	72	21370
2026-01-14 23:46:47.65	192.34	11.06	-50.5	-65.9	3.8	1.49e+00	0	43	104	0	72	21285
2026-01-14 23:46:48.50	192.36	10.98	-50.5	-65.9	3.8	1.49e+00	0	43	104	0	72	21445
2026-01-14 23:46:49.64	192.38	10.88	-50.5	-65.9	3.8	1.49e+00	0	43	104	0	72	21367
2026-01-14 23:46:50.49	192.39	10.80	-50.5	-65.9	3.8	1.49e+00	0	43	104	0	72	21326
2026-01-14 23:46:51.66	192.41	10.70	-50.5	-65.9	3.8	1.49e+00	0	43	104	0	72	21356
2026-01-14 23:46:52.51	192.43	10.62	-50.5	-65.9	3.8	1.49e+00	0	43	104	0	72	21331
2026-01-14 23:46:53.69	192.45	10.52	-50.5	-65.9	3.8	1.49e+00	0	43	104	0	72	21348
2026-01-14 23:46:54.54	192.46	10.44	-50.5	-65.9	3.8	1.49e+00	0	43	104	0	72	21382
2026-01-14 23:46:55.76	192.48	10.33	-50.5	-65.9	3.8	1.49e+00	0	43	104	0	72	21365
2026-01-14 23:46:56.61	192.50	10.26	-50.5	-65.9	3.8	1.49e+00	0	43	104	0	72	21396
2026-01-14 23:46:57.74	192.52	10.16	-50.5	-65.9	3.8	1.49e+00	0	43	104	0	72	21342
2026-01-14 23:46:58.60	192.53	10.08	-50.5	-65.9	3.8	1.49e+00	0	43	104	0	72	21324
2026-01-14 23:46:59.73	192.55	9.99	-50.5	-65.9	3.8	1.49e+00	0	43	104	0	72	21414
2026-01-14 23:47:00.59	192.57	9.91	-50.5	-65.9	3.8	1.49e+00	0	43	104	0	72	21311
2026-01-14 23:47:01.72	192.59	9.81	-50.5	-65.9	3.8	1.49e+00	0	43	104	0	72	21376
2026-01-14 23:47:02.57	192.60	9.74	-50.5	-65.9	3.8	1.49e+00	0	43	104	0	72	21365
2026-01-14 23:47:03.71	192.62	9.64	-50.5	-65.9	3.8	1.49e+00	0	43	104	0	72	21304
2026-01-14 23:47:04.56	192.63	9.57	-50.5	-65.9	3.8	1.49e+00	0	43	104	0	72	21394
2026-01-14 23:47:05.70	192.65	9.47	-50.5	-65.9	3.8	1.49e+00	0	43	104	0
