passes_logs/2026/01/14/T1/T1__20260114_013437_SUOMI_NPP_rec.log

#Pass ID: 20260114_013437_SUOMI NPP
#Satellite: SUOMI NPP
#Configuration: NPP
#almurnet v.1.7.20251203
#Start time: 2026-01-14 01:34:39

#Version: 2.0.20230620
#Station: T1
#Location: 37.570604 lon 55.790049 lat
#TLE: 1 37849U 11061A   26013.27136842  .00000065  00000+0  51889-4 0  9990
#TLE: 2 37849  98.7808 315.3349 0002489  66.6776 293.4661 14.19524902736466

#Time	Az	El	Level	Level2	SNR	BER	BlckErr	Temp	State	Recorded	gain1	gain2
2026-01-14 01:34:39.29	5.62	5.13	-49.7	-65.9	3.8	1.49e+00	0	39	0	0	71	22620
2026-01-14 01:34:40.28	5.54	5.19	-49.3	-65.7	3.8	1.49e+00	0	39	104	0	70	23373
2026-01-14 01:34:41.27	5.45	5.25	-49.3	-65.6	3.8	1.49e+00	0	39	104	0	70	23280
2026-01-14 01:34:42.27	5.36	5.31	-49.3	-65.7	3.8	1.49e+00	0	39	104	0	70	23374
2026-01-14 01:34:43.26	5.28	5.37	-49.3	-65.7	3.8	1.49e+00	0	39	104	0	70	23401
2026-01-14 01:34:44.25	5.19	5.42	-49.3	-65.7	3.8	1.49e+00	0	39	104	0	70	23454
2026-01-14 01:34:45.25	5.10	5.48	-49.3	-65.7	3.8	1.49e+00	0	39	104	0	70	23513
2026-01-14 01:34:46.24	5.01	5.54	-49.3	-65.7	3.8	1.49e+00	0	39	104	0	70	23353
2026-01-14 01:34:47.23	4.92	5.60	-49.3	-65.7	3.8	1.49e+00	0	39	104	0	70	23441
2026-01-14 01:34:48.23	4.84	5.66	-49.3	-65.7	3.8	1.49e+00	0	39	104	0	70	23514
2026-01-14 01:34:49.22	4.75	5.72	-49.3	-65.7	3.8	1.49e+00	0	39	104	0	70	23447
2026-01-14 01:34:50.21	4.66	5.78	-49.3	-65.7	3.8	1.49e+00	0	39	104	0	70	23353
2026-01-14 01:34:51.21	4.57	5.84	-49.3	-65.7	3.8	1.49e+00	0	39	104	0	70	23383
2026-01-14 01:34:52.20	4.48	5.90	-49.3	-65.7	3.8	1.49e+00	0	40	104	0	70	23312
2026-01-14 01:34:53.19	4.39	5.95	-49.3	-65.6	3.8	1.49e+00	0	39	104	0	70	23291
2026-01-14 01:34:54.19	4.29	6.01	-49.3	-65.6	3.8	1.49e+00	0	39	104	0	70	23261
2026-01-14 01:34:55.18	4.20	6.07	-49.3	-65.6	3.8	1.49e+00	0	40	104	0	70	23172
2026-01-14 01:34:56.17	4.11	6.13	-49.3	-65.6	3.8	1.49e+00	0	39	104	0	70	23236
2026-01-14 01:34:57.16	4.02	6.19	-49.3	-65.6	3.8	1.49e+00	0	40	104	0	70	23261
2026-01-14 01:34:58.16	3.93	6.25	-49.3	-65.7	3.8	1.49e+00	0	40	104	0	70	23331
2026-01-14 01:34:59.15	3.83	6.31	-49.3	-65.6	3.8	1.49e+00	0	40	104	0	70	23200
2026-01-14 01:35:00.14	3.74	6.37	-49.3	-65.7	3.8	1.49e+00	0	40	104	0	70	23364
2026-01-14 01:35:01.14	3.64	6.43	-49.3	-65.7	3.8	1.49e+00	0	40	104	0	70	23380
2026-01-14 01:35:02.13	3.55	6.49	-49.3	-65.7	3.8	1.49e+00	0	40	104	0	70	23340
2026-01-14 01:35:03.12	3.46	6.55	-49.3	-65.7	3.8	1.49e+00	0	40	104	0	70	23357
2026-01-14 01:35:04.12	3.36	6.61	-49.3	-65.7	3.8	1.49e+00	0	40	104	0	70	23339
2026-01-14 01:35:05.11	3.27	6.67	-49.3	-65.6	3.8	1.49e+00	0	40	104	0	70	23228
2026-01-14 01:35:06.10	3.17	6.73	-49.3	-65.6	3.8	1.49e+00	0	40	104	0	70	23151
2026-01-14 01:35:07.09	3.07	6.79	-49.3	-65.6	3.8	1.49e+00	0	40	104	0	70	23272
2026-01-14 01:35:08.09	2.98	6.85	-49.3	-65.6	3.8	1.49e+00	0	40	104	0	70	23172
2026-01-14 01:35:09.08	2.88	6.91	-49.3	-65.6	3.8	1.49e+00	0	40	104	0	70	23206
2026-01-14 01:35:10.07	2.78	6.97	-49.3	-65.6	3.8	1.49e+00	0	40	104	0	70	23144
2026-01-14 01:35:11.07	2.68	7.03	-49.3	-65.6	3.8	1.49e+00	0	40	104	0	70	23214
2026-01-14 01:35:12.06	2.58	7.09	-49.3	-65.5	3.8	1.49e+00	0	40	104	0	70	22898
2026-01-14 01:35:13.05	2.49	7.15	-49.3	-65.4	3.8	1.49e+00	0	40	104	0	70	22710
2026-01-14 01:35:14.04	2.39	7.21	-49.3	-65.3	3.8	1.49e+00	0	40	104	0	70	22416
2026-01-14 01:35:15.04	2.29	7.27	-49.3	-65.1	3.8	1.49e+00	0	40	104	0	70	21998
2026-01-14 01:35:16.03	2.19	7.33	-49.3	-65.0	3.8	1.49e+00	0	40	104	0	70	21643
2026-01-14 01:35:17.02	2.09	7.39	-49.3	-64.9	3.8	1.49e+00	0	40	104	0	70	21389
2026-01-14 01:35:18.01	1.99	7.46	-49.3	-64.7	3.8	1.49e+00	0	40	104	0	70	20899
2026-01-14 01:35:19.01	1.88	7.52	-49.3	-64.6	3.8	1.49e+00	0	40	104	0	70	20639
2026-01-14 01:35:20.00	1.78	7.58	-49.3	-64.4	3.8	1.49e+00	0	40	104	0	70	20259
2026-01-14 01:35:21.00	1.68	7.64	-49.3	-64.4	3.8	1.49e+00	0	40	104	0	70	20187
2026-01-14 01:35:21.99	1.58	7.70	-49.3	-64.5	3.8	1.49e+00	0	40	104	0	70	20351
2026-01-14 01:35:22.98	1.47	7.76	-49.3	-64.8	3.8	1.49e+00	0	40	104	0	70	21092
2026-01-14 01:35:23.98	1.37	7.82	-49.3	-65.2	3.8	1.49e+00	0	40	104	0	70	22186
2026-01-14 01:35:24.97	1.27	7.88	-49.3	-65.6	3.8	1.49e+00	0	40	104	0	70	23160
2026-01-14 01:35:25.96	1.16	7.94	-49.3	-65.6	3.8	1.49e+00	0	40	104	0	70	23157
2026-01-14 01:35:26.95	1.06	8.01	-49.3	-64.9	3.8	1.49e+00	0	40	104	0	70	21306
2026-01-14 01:35:27.95	0.95	8.07	-49.2	-63.5	3.8	1.49e+00	0	40	104	0	70	18192
2026-01-14 01:35:28.94	0.84	8.13	-49.1	-61.6	4.3	1.44e+00	0	40	0	0	70	14702
2026-01-14 01:35:29.93	0.74	8.19	-48.9	-60.2	5.0	9.92e-01	0	40	0	1048576	69	13215
2026-01-14 01:35:30.93	0.63	8.25	-48.8	-58.9	5.8	4.74e-01	0	40	0	3145728	69	11384
2026-01-14 01:35:31.92	0.52	8.31	-48.6	-57.9	6.5	2.89e-01	0	40	0	5242880	69	10131
2026-01-14 01:35:32.91	0.42	8.37	-48.5	-57.2	7.1	1.66e-01	0	40	0	7340032	69	9379
2026-01-14 01:35:33.91	0.31	8.44	-48.3	-56.2	8.1	9.44e-02	0	40	0	8388608	68	8832
2026-01-14 01:35:34.90	0.20	8.50	-48.1	-55.5	8.8	3.46e-02	0	40	0	10485760	68	8146
2026-01-14 01:35:35.89	0.09	8.56	-48.0	-54.9	9.4	2.60e-02	0	41	0	12582912	68	7598
2026-01-14 01:35:36.89	359.98	8.62	-47.7	-54.4	9.8	1.45e-02	0	40	0	14680064	67	7581
2026-01-14 01:35:37.88	359.87	8.68	-47.7	-54.4	9.8	8.94e-03	0	41	0	15728640	67	7566
2026-01-14 01:35:38.87	359.76	8.75	-47.8	-54.5	9.7	1.28e-02	0	41	0	17825792	67	7681
2026-01-14 01:35:39.87	359.65	8.81	-47.7	-54.5	9.7	1.08e-02	0	41	0	19922944	67	7673
2026-01-14 01:35:40.86	359.53	8.87	-47.9	-55.0	9.1	1.35e-02	0	40	0	22020096	67	8157
2026-01-14 01:35:41.85	359.42	8.93	-48.1	-56.0	8.2	3.91e-02	0	41	0	24117248	67	9124
2026-01-14 01:35:42.85	359.31	8.99	-48.4	-57.0	7.3	8.41e-02	0	41	0	25165824	67	10234
2026-01-14 01:35:43.84	359.20	9.06	-49.0	-60.0	5.1	2.48e-01	0	41	0	27262976	68	13687
2026-01-14 01:35:44.84	359.08	9.12	-48.1	-55.1	9.3	5.75e-01	0	40	0	29360128	68	7777
2026-01-14 01:35:45.83	358.97	9.18	-49.1	-61.3	4.4	1.97e-01	0	41	0	31457280	68	15771
2026-01-14 01:35:46.82	358.85	9.24	-48.7	-61.0	4.7	1.35e+00	0	41	0	31457280	69	14427
2026-01-14 01:35:47.82	358.74	9.31	-45.9	-51.5	12.8	5.07e-01	0	41	0	33554432	63	6834
2026-01-14 01:35:48.89	358.61	9.37	-45.6	-51.5	12.9	2.21e-05	0	41	0	35651584	63	6852
2026-01-14 01:35:49.79	358.51	9.43	-45.3	-51.3	13.0	2.13e-05	0	41	0	36700160	62	7120
2026-01-14 01:35:50.99	358.37	9.50	-45.2	-51.2	13.2	2.51e-05	0	41	0	39845888	62	6961
2026-01-14 01:35:51.84	358.27	9.56	-45.3	-51.3	13.1	4.11e-05	0	41	0	40894464	62	7047
2026-01-14 01:35:52.98	358.13	9.63	-45.5	-51.4	13.0	3.73e-05	0	41	0	42991616	62	7155
2026-01-14 01:35:53.83	358.03	9.68	-45.6	-51.4	12.9	4.57e-05	0	41	0	45088768	62	7170
2026-01-14 01:35:54.97	357.89	9.76	-45.7	-51.4	12.9	5.72e-05	0	41	0	47185920	62	7184
2026-01-14 01:35:55.82	357.79	9.81	-45.7	-51.7	12.7	5.79e-05	0	41	0	48234496	62	7393
2026-01-14 01:35:56.96	357.65	9.88	-45.9	-51.8	12.6	7.47e-05	0	40	0	50331648	62	7515
2026-01-14 01:35:57.81	357.55	9.94	-45.7	-51.5	12.8	6.63e-05	0	41	0	52428800	62	7280
2026-01-14 01:35:58.95	357.41	10.01	-45.9	-51.5	12.9	3.20e-05	0	41	0	54525952	62	7239
2026-01-14 01:35:59.80	357.31	10.06	-45.9	-51.5	12.8	6.63e-05	0	41	0	55574528	62	7277
2026-01-14 01:36:00.94	357.17	10.13	-46.0	-51.7	12.7	6.48e-05	0	41	0	57671680	62	7429
2026-01-14 01:36:01.79	357.06	10.19	-45.8	-51.3	13.1	4.88e-05	0	41	0	59768832	62	7099
2026-01-14 01:36:02.93	356.92	10.26	-45.9	-51.5	12.9	4.65e-05	0	41	0	61865984	62	7248
2026-01-14 01:36:03.78	356.81	10.31	-45.7	-51.3	13.1	2.28e-05	0	41	0	62914560	62	7064
2026-01-14 01:36:04.92	356.67	10.39	-46.0	-51.6	12.8	2.36e-05	0	41	0	65011712	62	7362
2026-01-14 01:36:05.77	356.57	10.44	-45.8	-51.5	13.0	4.73e-05	0	41	0	67108864	62	7206
2026-01-14 01:36:07.04	356.40	10.52	-45.7	-51.4	13.0	2.97e-05	0	41	0	69206016	62	7173
2026-01-14 01:36:07.76	356.31	10.57	-45.9	-51.6	12.8	3.89e-05	0	41	0	70254592	62	7319
2026-01-14 01:36:09.04	356.15	10.65	-45.8	-51.3	13.1	2.82e-05	0	41	0	73400320	62	7073
2026-01-14 01:36:09.77	356.06	10.69	-45.8	-51.1	13.4	2.21e-05	0	41	0	74448896	62	6880
2026-01-14 01:36:11.04	355.89	10.77	-45.8	-51.1	13.4	1.83e-05	0	41	0	76546048	62	6901
2026-01-14 01:36:11.76	355.80	10.82	-45.7	-50.9	13.5	1.37e-05	0	41	0	78643200	62	6776
2026-01-14 01:36:13.03	355.64	10.90	-45.6	-51.0	13.5	6.10e-06	0	41	0	80740352	62	6824
2026-01-14 01:36:13.76	355.54	10.95	-45.4	-50.5	14.0	2.20e-06	0	41	0	81788928	62	6448
2026-01-14 01:36:15.04	355.37	11.03	-45.5	-50.4	14.1	1.50e-06	0	41	0	84934656	62	6362
2026-01-14 01:36:15.75	355.28	11.07	-45.5	-50.4	14.0	0.00e+00	0	41	0	85983232	62	6386
2026-01-14 01:36:17.03	355.11	11.16	-45.6	-50.2	14.2	2.20e-06	0	41	0	88080384	62	6257
2026-01-14 01:36:17.75	355.02	11.20	-45.5	-50.4	14.1	7.00e-07	0	41	0	89128960	62	6360
2026-01-14 01:36:19.03	354.84	11.28	-45.6	-50.4	14.1	2.20e-06	0	41	0	92274688	62	6354
2026-01-14 01:36:19.74	354.75	11.33	-45.5	-50.4	14.1	3.80e-06	0	41	0	93323264	62	6361
2026-01-14 01:36:21.02	354.58	11.41	-45.7	-50.8	13.7	3.00e-06	0	41	0	95420416	62	6700
2026-01-14 01:36:21.75	354.48	11.46	-45.6	-50.6	13.9	4.50e-06	0	41	0	97517568	62	6536
2026-01-14 01:36:23.04	354.30	11.54	-45.6	-50.6	13.9	7.00e-07	0	41	0	99614720	62	6549
2026-01-14 01:36:23.75	354.21	11.58	-45.6	-50.7	13.8	5.30e-06	0	41	0	100663296	62	6621
2026-01-14 01:36:25.03	354.03	11.67	-45.6	-50.6	13.9	4.50e-06	0	41	0	102760448	62	6504
2026-01-14 01:36:25.75	353.93	11.71	-45.4	-50.4	14.1	1.50e-06	0	41	0	104857600	62	6382
2026-01-14 01:36:27.03	353.76	11.79	-45.4	-50.3	14.2	1.50e-06	0	41	0	106954752	62	6277
2026-01-14 01:36:27.74	353.66	11.84	-45.3	-50.4	14.1	2.20e-06	0	41	0	108003328	62	6368
2026-01-14 01:36:29.24	353.45	11.93	-45.2	-50.4	14.1	1.50e-06	0	41	0	111149056	62	6383
2026-01-14 01:36:29.95	353.35	11.98	-45.4	-50.7	13.8	3.00e-06	0	41	0	112197632	62	6638
2026-01-14 01:36:31.26	353.17	12.06	-45.2	-50.8	13.7	3.00e-06	0	41	0	114294784	62	6684
2026-01-14 01:36:32.21	353.03	12.12	-45.1	-51.0	13.5	1.22e-05	0	41	0	116391936	62	6871
2026-01-14 01:36:33.20	352.89	12.19	-45.0	-51.4	13.1	1.52e-05	0	41	0	118489088	62	7125
2026-01-14 01:36:34.20	352.75	12.25	-44.8	-51.1	13.4	1.90e-05	0	41	0	120586240	61	7363
2026-01-14 01:36:35.19	352.61	12.31	-44.7	-51.1	13.4	9.10e-06	0	41	0	122683392	61	7347
2026-01-14 01:36:36.19	352.46	12.38	-44.7	-51.1	13.5	7.60e-06	0	41	0	123731968	61	7289
2026-01-14 01:36:37.19	352.32	12.44	-44.5	-50.6	13.8	3.00e-06	0	41	0	125829120	61	6936
2026-01-14 01:36:38.18	352.17	12.50	-44.5	-50.5	13.9	1.50e-06	0	41	0	127926272	61	6859
2026-01-14 01:36:39.18	352.03	12.57	-44.5	-50.5	14.0	3.00e-06	0	41	0	130023424	61	6833
2026-01-14 01:36:40.25	351.87	12.64	-44.6	-50.3	14.1	4.50e-06	0	41	0	132120576	61	6723
2026-01-14 01:36:41.15	351.74	12.69	-45.0	-50.5	14.0	7.00e-07	0	41	0	133169152	61	6863
2026-01-14 01:36:42.24	351.58	12.76	-45.1	-50.7	13.9	1.50e-06	0	41	0	135266304	61	6969
2026-01-14 01:36:43.19	351.44	12.82	-45.4	-50.6	14.0	1.50e-06	0	41	0	137363456	61	6884
2026-01-14 01:36:44.36	351.26	12.90	-45.7	-50.8	13.8	3.00e-06	0	41	0	139460608	61	7046
2026-01-14 01:36:45.21	351.13	12.95	-45.8	-50.7	13.8	5.30e-06	0	41	0	140509184	62	6637
2026-01-14 01:36:46.57	350.93	13.04	-45.8	-50.7	13.9	1.50e-06	0	41	0	143654912	62	6586
2026-01-14 01:36:47.28	350.82	13.08	-45.9	-50.6	13.9	2.20e-06	0	41	0	144703488	62	6528
2026-01-14 01:36:48.56	350.63	13.16	-46.2	-50.6	14.0	3.00e-06	0	41	0	146800640	62	6519
2026-01-14 01:36:49.29	350.52	13.21	-46.3	-50.5	14.1	4.50e-06	0	41	0	148897792	63	6079
2026-01-14 01:36:50.57	350.32	13.29	-46.4	-50.4	14.1	3.80e-06	0	41	0	150994944	63	6031
2026-01-14 01:36:51.28	350.21	13.34	-46.6	-50.7	13.9	1.50e-06	0	41	0	152043520	63	6222
2026-01-14 01:36:52.55	350.01	13.42	-46.5	-50.5	14.1	2.20e-06	0	41	0	155189248	63	6062
2026-01-14 01:36:53.26	349.90	13.46	-46.5	-50.5	14.1	3.00e-06	0	41	0	156237824	63	6080
2026-01-14 01:36:54.54	349.71	13.54	-46.7	-50.9	13.7	6.10e-06	0	41	0	158334976	63	6378
2026-01-14 01:36:55.25	349.59	13.59	-46.6	-50.9	13.6	8.30e-06	0	41	0	159383552	64	6031
2026-01-14 01:36:56.53	349.39	13.67	-46.8	-51.4	13.1	2.28e-05	0	41	0	162529280	64	6378
2026-01-14 01:36:57.26	349.28	13.71	-46.8	-51.4	13.0	3.05e-05	0	41	0	163577856	64	6420
2026-01-14 01:36:58.54	349.07	13.80	-46.7	-51.4	13.1	3.66e-05	0	41	0	165675008	64	6371
2026-01-14 01:36:59.25	348.96	13.84	-46.6	-51.4	13.0	3.20e-05	0	41	0	167772160	64	6402
2026-01-14 01:37:00.53	348.76	13.92	-46.3	-50.9	13.5	9.90e-06	0	41	0	169869312	64	6057
2026-01-14 01:37:01.23	348.64	13.96	-46.2	-50.8	13.6	1.22e-05	0	41	0	170917888	64	5949
2026-01-14 01:37:02.66	348.41	14.05	-46.0	-50.6	14.0	3.00e-06	0	41	0	174063616	63	6142
2026-01-14 01:37:03.37	348.30	14.10	-45.9	-50.4	14.2	2.20e-06	0	41	0	175112192	63	6013
2026-01-14 01:37:04.64	348.09	14.18	-45.9	-50.4	14.1	1.50e-06	0	41	0	177209344	63	6035
2026-01-14 01:37:05.67	347.92	14.24	-46.2	-50.8	13.8	2.20e-06	0	41	0	179306496	63	6324
2026-01-14 01:37:06.96	347.71	14.32	-46.5	-51.3	13.3	8.30e-06	0	41	0	181403648	63	6658
2026-01-14 01:37:07.71	347.59	14.37	-46.6	-51.2	13.4	1.06e-05	0	41	0	183500800	63	6600
2026-01-14 01:37:08.98	347.37	14.45	-46.7	-51.3	13.1	2.89e-05	0	41	0	185597952	64	6327
2026-01-14 01:37:09.70	347.25	14.49	-46.8	-51.2	13.3	1.75e-05	0	41	0	186646528	64	6263
2026-01-14 01:37:10.98	347.04	14.57	-46.8	-51.2	13.3	1.98e-05	0	41	0	188743680	64	6248
2026-01-14 01:37:11.69	346.92	14.62	-46.9	-51.2	13.2	1.67e-05	0	41	0	190840832	64	6238
2026-01-14 01:37:12.96	346.71	14.70	-46.6	-50.7	13.8	3.80e-06	0	41	0	192937984	64	5860
2026-01-14 01:37:13.69	346.58	14.74	-46.5	-50.6	13.8	5.30e-06	0	41	0	193986560	64	5854
2026-01-14 01:37:14.97	346.37	14.82	-46.3	-50.2	14.2	1.50e-06	0	41	0	197132288	64	5589
2026-01-14 01:37:15.70	346.24	14.87	-46.2	-50.2	14.2	1.50e-06	0	41	0	198180864	64	5572
2026-01-14 01:37:17.04	346.01	14.95	-46.2	-50.3	14.2	7.00e-07	0	41	0	200278016	64	5599
2026-01-14 01:37:17.75	345.89	14.99	-46.3	-50.6	13.8	3.80e-06	0	41	0	202375168	64	5827
2026-01-14 01:37:19.03	345.67	15.07	-46.2	-50.9	13.6	8.30e-06	0	41	0	204472320	64	6026
2026-01-14 01:37:19.74	345.54	15.11	-46.2	-50.9	13.5	9.10e-06	0	41	0	205520896	64	6058
2026-01-14 01:37:21.01	345.32	15.19	-46.1	-51.1	13.4	1.06e-05	0	41	0	207618048	64	6133
2026-01-14 01:37:21.72	345.20	15.23	-46.0	-51.0	13.6	9.90e-06	0	41	0	209715200	63	6438
2026-01-14 01:37:23.00	344.97	15.31	-45.9	-50.7	13.9	8.30e-06	0	41	0	211812352	63	6227
2026-01-14 01:37:23.72	344.84	15.36	-46.1	-50.9	13.6	5.30e-06	0	41	0	212860928	63	6405
2026-01-14 01:37:25.25	344.57	15.45	-46.1	-50.7	13.8	2.20e-06	0	41	0	216006656	63	6231
2026-01-14 01:37:25.96	344.45	15.49	-46.2	-50.9	13.7	1.50e-06	0	41	0	217055232	63	6386
2026-01-14 01:37:27.32	344.20	15.57	-46.3	-51.2	13.4	9.90e-06	0	41	0	220200960	63	6599
2026-01-14 01:37:28.03	344.07	15.62	-46.4	-51.3	13.2	1.29e-05	0	41	0	221249536	63	6691
2026-01-14 01:37:29.30	343.84	15.69	-46.3	-51.3	13.2	1.44e-05	0	41	0	223346688	63	6714
2026-01-14 01:37:30.01	343.72	15.74	-46.4	-51.5	13.1	2.82e-05	0	41	0	225443840	63	6819
2026-01-14 01:37:31.29	343.48	15.81	-46.0	-51.1	13.4	1.67e-05	0	41	0	227540992	63	6502
2026-01-14 01:37:32.02	343.35	15.86	-45.9	-50.9	13.6	1.06e-05	0	41	0	228589568	63	6396
2026-01-14 01:37:33.30	343.11	15.93	-45.8	-50.8	13.8	1.50e-06	0	41	0	230686720	63	6280
2026-01-14 01:37:34.02	342.98	15.97	-45.5	-50.2	14.4	1.50e-06	0	41	0	232783872	63	5860
2026-01-14 01:37:35.30	342.74	16.05	-45.4	-49.7	14.9	0.00e+00	0	41	0	234881024	62	5856
2026-01-14 01:37:36.07	342.60	16.10	-45.4	-49.7	14.8	0.00e+00	0	41	0	235929600	62	5872
2026-01-14 01:37:37.67	342.30	16.19	-45.3	-49.5	15.0	0.00e+00	0	41	0	239075328	62	5752
2026-01-14 01:37:38.24	342.19	16.22	-45.5	-49.7	14.7	0.00e+00	0	41	0	240123904	62	5915
2026-01-14 01:37:39.94	341.87	16.32	-45.6	-49.7	14.8	0.00e+00	0	41	0	243269632	62	5902
2026-01-14 01:37:40.54	341.76	16.36	-45.7	-49.9	14.6	7.00e-07	0	41	0	244318208	62	6015
2026-01-14 01:37:42.10	341.46	16.45	-45.8	-49.7	14.8	0.00e+00	0	41	0	247463936	62	5885
2026-01-14 01:37:42.73	341.34	16.48	-45.8	-49.7	14.9	0.00e+00	0	41	0	248512512	62	5856
2026-01-14 01:37:44.25	341.05	16.57	-45.7	-49.3	15.2	0.00e+00	0	41	0	251658240	62	5613
2026-01-14 01:37:44.96	340.92	16.61	-45.7	-49.2	15.2	0.00e+00	0	41	0	252706816	62	5589
2026-01-14 01:37:46.24	340.67	16.69	-45.5	-48.9	15.6	0.00e+00	0	41	0	255852544	62	5369
2026-01-14 01:37:46.95	340.53	16.73	-45.5	-48.9	15.6	0.00e+00	0	41	0	256901120	62	5347
2026-01-14 01:37:48.23	340.28	16.80	-45.7	-49.2	15.3	7.00e-07	0	41	0	258998272	62	5567
2026-01-14 01:37:48.94	340.14	16.84	-45.8	-49.4	15.1	0.00e+00	0	41	0	260046848	62	5680
2026-01-14 01:37:50.22	339.89	16.91	-46.0	-49.6	14.9	0.00e+00	0	41	0	263192576	62	5828
2026-01-14 01:37:50.94	339.75	16.95	-45.8	-49.3	15.2	0.00e+00	0	41	0	264241152	62	5626
2026-01-14 01:37:52.22	339.50	17.02	-45.5	-48.8	15.7	0.00e+00	0	41	0	266338304	62	5308
2026-01-14 01:37:53.06	339.33	17.07	-45.2	-48.4	16.0	0.00e+00	0	41	0	268435456	62	5092
2026-01-14 01:37:54.49	339.04	17.15	-44.8	-47.9	16.5	0.00e+00	0	41	0	270532608	61	5088
2026-01-14 01:37:55.20	338.90	17.19	-44.8	-48.0	16.5	0.00e+00	0	41	0	272629760	61	5102
2026-01-14 01:37:56.48	338.64	17.26	-44.7	-48.0	16.4	0.00e+00	0	41	0	274726912	61	5120
2026-01-14 01:37:57.19	338.50	17.30	-44.8	-48.0	16.4	0.00e+00	0	41	0	275775488	61	5142
2026-01-14 01:37:58.47	338.24	17.37	-44.9	-48.2	16.3	0.00e+00	0	41	0	277872640	61	5220
2026-01-14 01:37:59.26	338.08	17.41	-45.1	-48.4	16.1	0.00e+00	0	41	0	279969792	61	5343
2026-01-14 01:38:00.45	337.84	17.47	-45.2	-48.4	16.0	0.00e+00	0	41	0	282066944	61	5393
2026-01-14 01:38:01.30	337.66	17.52	-45.2	-48.4	16.1	0.00e+00	0	41	0	284164096	61	5345
2026-01-14 01:38:02.44	337.43	17.58	-45.1	-48.4	16.0	0.00e+00	0	41	0	285212672	61	5374
2026-01-14 01:38:03.29	337.25	17.63	-44.8	-48.1	16.3	0.00e+00	0	41	0	287309824	61	5187
2026-01-14 01:38:04.42	337.02	17.69	-44.5	-48.0	16.4	0.00e+00	0	41	0	289406976	61	5140
2026-01-14 01:38:05.28	336.84	17.73	-44.3	-47.8	16.6	0.00e+00	0	41	0	291504128	60	5300
2026-01-14 01:38:06.41	336.61	17.79	-44.4	-48.1	16.4	0.00e+00	0	41	0	293601280	60	5476
2026-01-14 01:38:07.27	336.43	17.84	-44.6	-48.2	16.2	0.00e+00	0	41	0	294649856	60	5587
2026-01-14 01:38:08.40	336.19	17.89	-44.8	-48.5	15.9	0.00e+00	0	41	0	296747008	60	5783
2026-01-14 01:38:09.26	336.01	17.94	-45.1	-48.8	15.7	0.00e+00	0	41	0	298844160	60	5934
2026-01-14 01:38:10.50	335.75	18.00	-45.5	-49.1	15.4	0.00e+00	0	41	0	300941312	61	5793
2026-01-14 01:38:11.35	335.57	18.04	-45.6	-49.1	15.3	0.00e+00	0	41	0	301989888	61	5823
2026-01-14 01:38:12.49	335.32	18.10	-45.4	-48.7	15.8	0.00e+00	0	41	0	305135616	61	5538
2026-01-14 01:38:13.34	335.14	18.15	-45.3	-48.6	15.9	0.00e+00	0	41	0	306184192	61	5487
2026-01-14 01:38:14.62	334.87	18.21	-45.1	-48.4	16.1	0.00e+00	0	41	0	308281344	61	5372
2026-01-14 01:38:15.33	334.71	18.24	-45.0	-48.4	16.1	0.00e+00	0	41	0	310378496	61	5347
2026-01-14 01:38:16.61	334.44	18.31	-44.9	-48.2	16.2	0.00e+00	0	41	0	312475648	61	5272
2026-01-14 01:38:17.32	334.28	18.34	-44.9	-48.3	16.2	0.00e+00	0	41	0	313524224	61	5299
2026-01-14 01:38:18.60	334.01	18.40	-45.1	-48.6	15.8	0.00e+00	0	41	0	315621376	61	5518
2026-01-14 01:38:19.32	333.85	18.44	-45.1	-48.6	15.8	0.00e+00	0	41	0	317718528	61	5526
2026-01-14 01:38:20.61	333.57	18.50	-45.1	-48.5	16.0	0.00e+00	0	41	0	319815680	61	5404
2026-01-14 01:38:21.32	333.41	18.54	-45.2	-48.5	16.0	0.00e+00	0	41	0	320864256	61	5406
2026-01-14 01:38:22.59	333.13	18.60	-44.9	-48.1	16.4	0.00e+00	0	41	0	324009984	61	5170
2026-01-14 01:38:23.30	332.98	18.63	-44.8	-47.8	16.6	0.00e+00	0	41	0	325058560	61	5010
2026-01-14 01:38:24.58	332.69	18.69	-44.6	-47.6	16.8	0.00e+00	0	41	0	327155712	60	5167
2026-01-14 01:38:25.59	332.47	18.74	-44.4	-47.4	17.0	0.00e+00	0	41	0	329252864	60	5095
2026-01-14 01:38:26.85	332.19	18.79	-44.3	-47.2	17.1	0.00e+00	0	41	0	331350016	60	4979
2026-01-14 01:38:27.68	332.00	18.83	-44.4	-47.5	16.9	0.00e+00	0	41	0	333447168	60	5104
2026-01-14 01:38:28.81	331.75	18.88	-44.4	-47.4	17.0	0.00e+00	0	41	0	335544320	60	5089
2026-01-14 01:38:29.79	331.53	18.93	-44.3	-47.2	17.2	0.00e+00	0	41	0	336592896	60	4967
2026-01-14 01:38:30.96	331.26	18.98	-44.3	-47.1	17.3	0.00e+00	0	41	0	339738624	60	4912
2026-01-14 01:38:31.81	331.07	19.01	-44.4	-47.2	17.2	0.00e+00	0	41	0	340787200	60	4968
2026-01-14 01:38:32.95	330.81	19.06	-44.3	-47.1	17.3	0.00e+00	0	41	0	342884352	60	4874
2026-01-14 01:38:33.80	330.62	19.10	-44.3	-47.1	17.3	0.00e+00	0	41	0	344981504	60	4878
2026-01-14 01:38:34.94	330.36	19.15	-44.5	-47.4	17.0	0.00e+00	0	41	0	347078656	60	5066
2026-01-14 01:38:35.79	330.16	19.19	-44.7	-47.6	16.8	0.00e+00	0	41	0	348127232	60	5198
2026-01-14 01:38:36.93	329.90	19.23	-44.8	-47.9	16.6	0.00e+00	0	41	0	350224384	60	5350
2026-01-14 01:38:37.78	329.71	19.27	-45.1	-48.2	16.3	0.00e+00	0	41	0	352321536	60	5563
2026-01-14 01:38:38.92	329.44	19.32	-45.1	-48.3	16.2	0.00e+00	0	41	0	354418688	60	5606
2026-01-14 01:38:39.77	329.25	19.35	-44.9	-48.1	16.4	0.00e+00	0	41	0	355467264	60	5481
2026-01-14 01:38:40.91	328.98	19.40	-44.8	-47.9	16.6	0.00e+00	0	41	0	357564416	60	5346
2026-01-14 01:38:41.76	328.78	19.43	-44.7	-47.8	16.6	0.00e+00	0	41	0	359661568	60	5324
2026-01-14 01:38:42.90	328.52	19.47	-44.8	-47.9	16.6	0.00e+00	0	41	0	361758720	60	5371
2026-01-14 01:38:43.75	328.32	19.51	-44.7	-47.8	16.6	0.00e+00	0	41	0	362807296	60	5313
2026-01-14 01:38:44.89	328.05	19.55	-44.5	-47.5	16.9	0.00e+00	0	41	0	364904448	60	5154
2026-01-14 01:38:45.74	327.85	19.58	-44.6	-47.7	16.8	0.00e+00	0	41	0	367001600	60	5224
2026-01-14 01:38:46.88	327.58	19.63	-44.8	-47.9	16.6	0.00e+00	0	41	0	369098752	60	5368
2026-01-14 01:38:47.73	327.38	19.66	-44.8	-47.9	16.6	0.00e+00	0	41	0	370147328	60	5376
2026-01-14 01:38:48.87	327.11	19.70	-44.7	-47.8	16.7	0.00e+00	0	41	0	373293056	60	5280
2026-01-14 01:38:49.72	326.91	19.73	-44.6	-47.5	16.9	0.00e+00	0	41	0	374341632	60	5156
2026-01-14 01:38:50.86	326.64	19.77	-44.6	-47.5	17.0	0.00e+00	0	41	0	376438784	60	5115
2026-01-14 01:38:51.71	326.44	19.80	-44.2	-47.0	17.4	0.00e+00	0	41	0	378535936	60	4841
2026-01-14 01:38:52.85	326.16	19.84	-44.1	-46.8	17.7	0.00e+00	0	41	0	380633088	60	4725
2026-01-14 01:38:53.70	325.96	19.87	-44.1	-46.8	17.6	0.00e+00	0	41	0	381681664	60	4720
2026-01-14 01:38:54.84	325.69	19.91	-44.3	-47.1	17.4	0.00e+00	0	41	0	383778816	60	4877
2026-01-14 01:38:55.69	325.48	19.94	-44.4	-47.1	17.3	0.00e+00	0	41	0	385875968	60	4893
2026-01-14 01:38:56.91	325.19	19.98	-44.6	-47.5	17.0	0.00e+00	0	41	0	387973120	60	5117
2026-01-14 01:38:57.76	324.98	20.01	-44.7	-47.6	16.9	0.00e+00	0	41	0	389021696	60	5183
2026-01-14 01:38:58.90	324.71	20.04	-44.4	-47.2	17.2	0.00e+00	0	41	0	392167424	60	4969
2026-01-14 01:38:59.75	324.50	20.07	-44.3	-47.1	17.4	0.00e+00	0	41	0	393216000	60	4890
2026-01-14 01:39:01.00	324.20	20.11	-44.0	-46.8	17.6	0.00e+00	0	41	0	395313152	60	4714
2026-01-14 01:39:01.85	323.99	20.13	-44.2	-47.0	17.4	0.00e+00	0	41	0	397410304	60	4854
2026-01-14 01:39:02.99	323.71	20.17	-44.4	-47.3	17.1	0.00e+00	0	41	0	399507456	60	5014
2026-01-14 01:39:03.84	323.50	20.19	-44.7	-47.7	16.8	0.00e+00	0	41	0	400556032	60	5238
2026-01-14 01:39:05.10	323.19	20.23	-44.9	-47.9	16.7	0.00e+00	0	41	0	403701760	60	5375
2026-01-14 01:39:06.30	322.90	20.26	-45.5	-48.7	15.9	0.00e+00	0	41	0	405798912	61	5529
2026-01-14 01:39:07.15	322.69	20.29	-45.3	-48.4	16.1	0.00e+00	0	41	0	406847488	61	5376
2026-01-14 01:39:08.29	322.41	20.32	-45.4	-48.6	15.9	0.00e+00	0	41	0	408944640	61	5506
2026-01-14 01:39:09.14	322.20	20.34	-45.3	-48.5	16.0	0.00e+00	0	41	0	411041792	61	5418
2026-01-14 01:39:10.28	321.91	20.37	-45.5	-48.7	15.8	0.00e+00	0	41	0	413138944	61	5586
2026-01-14 01:39:11.13	321.70	20.39	-45.4	-48.6	16.0	0.00e+00	0	41	0	414187520	61	5484
2026-01-14 01:39:12.27	321.42	20.42	-45.3	-48.5	16.0	0.00e+00	0	41	0	416284672	61	5448
2026-01-14 01:39:13.12	321.21	20.44	-45.3	-48.6	16.0	0.00e+00	0	41	0	418381824	61	5475
2026-01-14 01:39:14.34	320.90	20.47	-45.4	-48.7	15.8	0.00e+00	0	41	0	420478976	61	5587
2026-01-14 01:39:15.19	320.69	20.49	-45.7	-49.1	15.5	0.00e+00	0	41	0	422576128	62	5501
2026-01-14 01:39:16.41	320.39	20.52	-45.8	-49.3	15.2	0.00e+00	0	41	0	424673280	62	5640
2026-01-14 01:39:17.26	320.17	20.53	-45.9	-49.5	15.1	0.00e+00	0	41	0	425721856	62	5738
2026-01-14 01:39:18.40	319.89	20.56	-45.8	-49.2	15.3	0.00e+00	0	41	0	427819008	62	5585
2026-01-14 01:39:19.25	319.67	20.58	-45.7	-49.1	15.5	0.00e+00	0	41	0	429916160	62	5517
2026-01-14 01:39:20.38	319.39	20.60	-45.6	-48.9	15.6	0.00e+00	0	41	0	432013312	62	5372
2026-01-14 01:39:21.24	319.17	20.62	-45.2	-48.4	16.1	0.00e+00	0	41	0	433061888	62	5089
2026-01-14 01:39:22.37	318.89	20.64	-45.1	-48.3	16.3	0.00e+00	0	41	0	435159040	62	4990
2026-01-14 01:39:23.22	318.67	20.66	-45.3	-48.5	16.1	0.00e+00	0	41	0	437256192	62	5115
2026-01-14 01:39:24.36	318.38	20.68	-45.6	-49.0	15.6	0.00e+00	0	41	0	439353344	62	5447
2026-01-14 01:39:25.22	318.17	20.69	-45.9	-49.4	15.2	0.00e+00	0	41	0	441450496	62	5705
2026-01-14 01:39:26.67	317.80	20.72	-46.2	-50.0	14.6	0.00e+00	0	41	0	443547648	63	5729
2026-01-14 01:39:27.38	317.62	20.73	-46.4	-50.2	14.4	1.50e-06	0	41	0	444596224	63	5895
2026-01-14 01:39:28.85	317.24	20.75	-46.3	-50.2	14.4	7.00e-07	0	41	0	447741952	63	5861
2026-01-14 01:39:29.56	317.06	20.76	-46.2	-49.9	14.7	0.00e+00	0	41	0	448790528	63	5665
2026-01-14 01:39:30.84	316.74	20.78	-45.9	-49.4	15.1	0.00e+00	0	41	0	451936256	63	5398
2026-01-14 01:39:31.55	316.56	20.79	-45.8	-49.2	15.4	0.00e+00	0	41	0	452984832	63	5234
2026-01-14 01:39:32.83	316.23	20.81	-45.8	-49.1	15.5	0.00e+00	0	41	0	455081984	63	5217
2026-01-14 01:39:33.54	316.05	20.82	-45.9	-49.4	15.2	0.00e+00	0	41	0	456130560	63	5357
2026-01-14 01:39:34.82	315.72	20.83	-45.9	-49.3	15.3	0.00e+00	0	41	0	459276288	63	5304
2026-01-14 01:39:35.53	315.54	20.84	-45.9	-49.4	15.1	0.00e+00	0	41	0	460324864	63	5357
2026-01-14 01:39:36.81	315.21	20.85	-45.8	-49.3	15.2	0.00e+00	0	41	0	462422016	63	5310
2026-01-14 01:39:37.52	315.03	20.86	-45.9	-49.4	15.2	0.00e+00	0	41	0	464519168	63	5343
2026-01-14 01:39:38.80	314.70	20.87	-45.7	-49.1	15.4	0.00e+00	0	41	0	466616320	63	5210
2026-01-14 01:39:39.60	314.50	20.88	-45.8	-49.3	15.2	0.00e+00	0	41	0	467664896	63	5312
2026-01-14 01:39:40.74	314.20	20.89	-45.7	-49.2	15.4	0.00e+00	0	41	0	469762048	63	5242
2026-01-14 01:39:41.77	313.94	20.90	-45.9	-49.4	15.2	0.00e+00	0	41	0	471859200	63	5359
2026-01-14 01:39:42.94	313.64	20.91	-45.9	-49.4	15.1	0.00e+00	0	41	0	473956352	63	5373
2026-01-14 01:39:43.82	313.41	20.91	-46.0	-49.7	14.8	0.00e+00	0	41	0	476053504	63	5587
2026-01-14 01:39:44.95	313.12	20.92	-45.8	-49.4	15.2	0.00e+00	0	41	0	478150656	63	5367
2026-01-14 01:39:45.81	312.90	20.92	-46.0	-49.7	14.9	0.00e+00	0	41	0	479199232	63	5539
2026-01-14 01:39:46.95	312.61	20.93	-46.2	-50.0	14.5	0.00e+00	0	41	0	481296384	63	5785
2026-01-14 01:39:47.80	312.39	20.93	-46.2	-50.1	14.5	0.00e+00	0	41	0	483393536	63	5794
2026-01-14 01:39:48.93	312.10	20.94	-46.3	-50.1	14.5	0.00e+00	0	41	0	485490688	63	5809
2026-01-14 01:39:49.78	311.88	20.94	-46.5	-50.4	14.3	7.00e-07	0	41	0	486539264	63	5997
2026-01-14 01:39:50.92	311.59	20.94	-46.5	-50.4	14.2	1.50e-06	0	41	0	488636416	63	5998
2026-01-14 01:39:51.77	311.37	20.94	-46.3	-50.1	14.5	1.50e-06	0	41	0	490733568	63	5813
2026-01-14 01:39:52.91	311.07	20.94	-46.5	-50.4	14.2	1.50e-06	0	41	0	492830720	63	6036
2026-01-14 01:39:53.76	310.85	20.94	-46.4	-50.3	14.3	0.00e+00	0	41	0	494927872	63	5943
2026-01-14 01:39:54.90	310.56	20.94	-46.1	-49.8	14.8	1.50e-06	0	41	0	497025024	63	5599
2026-01-14 01:39:55.80	310.33	20.94	-46.0	-49.6	15.0	0.00e+00	0	41	0	498073600	63	5473
2026-01-14 01:39:57.02	310.01	20.94	-45.7	-49.2	15.4	0.00e+00	0	41	0	500170752	63	5225
2026-01-14 01:39:57.87	309.79	20.94	-45.5	-48.8	15.8	0.00e+00	0	41	0	502267904	62	5296
2026-01-14 01:39:59.01	309.50	20.94	-45.2	-48.4	16.1	0.00e+00	0	41	0	504365056	62	5065
2026-01-14 01:39:59.86	309.28	20.93	-45.0	-48.1	16.4	0.00e+00	0	41	0	506462208	62	4879
2026-01-14 01:40:01.00	308.99	20.93	-45.0	-48.1	16.4	0.00e+00	0	41	0	508559360	62	4883
2026-01-14 01:40:01.85	308.77	20.93	-45.0	-48.1	16.4	0.00e+00	0	41	0	509607936	61	5192
2026-01-14 01:40:02.98	308.48	20.92	-45.2	-48.4	16.1	0.00e+00	0	41	0	511705088	61	5351
2026-01-14 01:40:03.84	308.26	20.92	-45.3	-48.5	16.0	0.00e+00	0	41	0	513802240	61	5403
2026-01-14 01:40:04.97	307.97	20.91	-45.4	-48.6	15.9	0.00e+00	0	41	0	515899392	61	5485
2026-01-14 01:40:05.83	307.75	20.90	-45.6	-48.9	15.6	0.00e+00	0	41	0	516947968	62	5387
2026-01-14 01:40:06.98	307.45	20.89	-45.9	-49.4	15.2	0.00e+00	0	41	0	519045120	62	5697
2026-01-14 01:40:07.83	307.23	20.89	-46.1	-49.6	14.9	0.00e+00	0	41	0	521142272	62	5846
2026-01-14 01:40:09.00	306.93	20.88	-46.1	-49.7	14.9	0.00e+00	0	41	0	523239424	62	5896
2026-01-14 01:40:09.86	306.71	20.87	-46.2	-49.8	14.8	7.00e-07	0	41	0	524288000	63	5612
2026-01-14 01:40:10.99	306.42	20.86	-46.0	-49.5	15.1	0.00e+00	0	41	0	526385152	63	5427
2026-01-14 01:40:11.85	306.20	20.85	-46.1	-49.6	14.9	0.00e+00	0	41	0	528482304	63	5499
2026-01-14 01:40:12.98	305.91	20.84	-45.9	-49.4	15.2	0.00e+00	0	41	0	530579456	63	5354
2026-01-14 01:40:13.87	305.68	20.83	-45.8	-49.1	15.4	0.00e+00	0	41	0	532676608	63	5217
2026-01-14 01:40:15.00	305.39	20.81	-45.5	-48.7	15.9	0.00e+00	0	41	0	534773760	63	4936
2026-01-14 01:40:15.86	305.17	20.80	-45.4	-48.4	16.1	0.00e+00	0	41	0	535822336	62	5097
2026-01-14 01:40:17.00	304.88	20.79	-44.9	-47.8	16.6	0.00e+00	0	41	0	537919488	61	5040
2026-01-14 01:40:17.85	304.67	20.77	-44.8	-47.7	16.8	0.00e+00	0	41	0	540016640	61	4938
2026-01-14 01:40:18.99	304.38	20.76	-44.8	-47.7	16.8	0.00e+00	0	41	0	542113792	61	4947
2026-01-14 01:40:19.84	304.16	20.74	-44.8	-47.6	16.9	0.00e+00	0	41	0	543162368	61	4908
2026-01-14 01:40:20.97	303.87	20.73	-45.0	-47.9	16.5	0.00e+00	0	41	0	545259520	61	5080
2026-01-14 01:40:21.83	303.65	20.71	-45.0	-47.8	16.7	0.00e+00	0	41	0	547356672	61	5036
2026-01-14 01:40:22.98	303.36	20.69	-44.9	-47.7	16.8	0.00e+00	0	41	0	549453824	61	4961
2026-01-14 01:40:23.83	303.15	20.68	-44.6	-47.4	17.1	0.00e+00	0	41	0	550502400	61	4764
2026-01-14 01:40:24.97	302.86	20.66	-44.6	-47.3	17.1	0.00e+00	0	41	0	552599552	61	4748
2026-01-14 01:40:25.82	302.64	20.64	-44.6	-47.3	17.1	0.00e+00	0	41	0	554696704	61	4757
2026-01-14 01:40:26.95	302.36	20.62	-44.6	-47.4	17.1	0.00e+00	0	41	0	556793856	60	5043
2026-01-14 01:40:27.81	302.14	20.60	-44.6	-47.4	17.1	0.00e+00	0	41	0	557842432	60	5046
2026-01-14 01:40:28.94	301.86	20.58	-44.8	-47.7	16.8	0.00e+00	0	41	0	560988160	60	5243
2026-01-14 01:40:29.80	301.64	20.56	-44.6	-47.4	17.0	0.00e+00	0	41	0	562036736	60	5076
2026-01-14 01:40:30.93	301.36	20.54	-44.6	-47.4	17.1	0.00e+00	0	41	0	564133888	60	5048
2026-01-14 01:40:31.79	301.14	20.52	-44.5	-47.1	17.3	0.00e+00	0	41	0	566231040	60	4921
2026-01-14 01:40:32.92	300.86	20.49	-44.4	-47.1	17.3	0.00e+00	0	41	0	568328192	60	4897
2026-01-14 01:40:33.78	300.64	20.47	-44.4	-47.2	17.3	0.00e+00	0	41	0	569376768	60	4927
2026-01-14 01:40:34.91	300.36	20.45	-44.4	-47.1	17.4	0.00e+00	0	41	0	571473920	60	4908
2026-01-14 01:40:35.76	300.15	20.42	-44.5	-47.2	17.3	0.00e+00	0	41	0	573571072	60	4957
2026-01-14 01:40:36.90	299.86	20.40	-44.3	-47.0	17.5	0.00e+00	0	41	0	575668224	60	4825
2026-01-14 01:40:37.76	299.65	20.37	-44.4	-47.1	17.4	0.00e+00	0	41	0	576716800	60	4909
2026-01-14 01:40:38.89	299.37	20.35	-44.6	-47.3	17.1	0.00e+00	0	41	0	578813952	60	5030
2026-01-14 01:40:39.81	299.14	20.32	-44.8	-47.6	16.9	0.00e+00	0	41	0	580911104	60	5204
2026-01-14 01:40:40.98	298.85	20.29	-44.8	-47.6	16.9	0.00e+00	0	41	0	583008256	60	5211
2026-01-14 01:40:41.86	298.63	20.26	-45.0	-47.9	16.6	0.00e+00	0	41	0	585105408	60	5361
2026-01-14 01:40:43.00	298.35	20.23	-45.1	-48.1	16.4	0.00e+00	0	41	0	587202560	61	5182
2026-01-14 01:40:43.85	298.14	20.21	-44.9	-47.7	16.7	0.00e+00	0	41	0	588251136	61	4980
2026-01-14 01:40:44.99	297.86	20.18	-45.0	-47.9	16.6	0.00e+00	0	41	0	590348288	61	5049
2026-01-14 01:40:45.84	297.66	20.15	-45.0	-47.9	16.6	0.00e+00	0	41	0	592445440	61	5082
2026-01-14 01:40:46.98	297.38	20.12	-45.0	-47.9	16.6	0.00e+00	0	41	0	594542592	61	5071
2026-01-14 01:40:47.83	297.17	20.09	-45.0	-47.9	16.6	0.00e+00	0	41	0	595591168	61	5087
2026-01-14 01:40:48.97	296.89	20.05	-45.0	-47.9	16.6	0.00e+00	0	41	0	597688320	61	5059
2026-01-14 01:40:49.82	296.69	20.03	-45.1	-48.0	16.6	0.00e+00	0	41	0	599785472	61	5117
2026-01-14 01:40:50.96	296.41	19.99	-44.7	-47.4	17.0	0.00e+00	0	41	0	601882624	61	4801
2026-01-14 01:40:51.81	296.20	19.96	-44.9	-47.7	16.8	0.00e+00	0	41	0	602931200	61	4980
2026-01-14 01:40:52.98	295.92	19.92	-45.1	-48.0	16.5	0.00e+00	0	41	0	605028352	61	5152
2026-01-14 01:40:53.84	295.71	19.89	-45.3	-48.4	16.2	0.00e+00	0	41	0	607125504	61	5361
2026-01-14 01:40:54.97	295.44	19.86	-45.6	-48.8	15.8	0.00e+00	0	41	0	609222656	61	5595
2026-01-14 01:40:55.82	295.24	19.83	-45.9	-49.2	15.4	0.00e+00	0	41	0	611319808	62	5540
2026-01-14 01:40:57.10	294.93	19.78	-45.9	-49.3	15.3	0.00e+00	0	41	0	613416960	62	5598
2026-01-14 01:40:57.83	294.76	19.76	-46.0	-49.4	15.2	0.00e+00	0	41	0	614465536	62	5694
2026-01-14 01:40:59.11	294.45	19.71	-45.9	-49.2	15.3	0.00e+00	0	41	0	616562688	62	5584
2026-01-14 01:40:59.82	294.28	19.68	-46.0	-49.4	15.2	0.00e+00	0	41	0	618659840	62	5667
2026-01-14 01:41:01.12	293.97	19.64	-45.7	-48.9	15.7	0.00e+00	0	41	0	620756992	62	5358
2026-01-14 01:41:01.83	293.81	19.61	-45.7	-49.0	15.6	0.00e+00	0	41	0	621805568	62	5432
2026-01-14 01:41:03.11	293.50	19.56	-45.7	-48.9	15.6	0.00e+00	0	41	0	624951296	62	5395
2026-01-14 01:41:03.84	293.33	19.53	-45.7	-48.9	15.6	0.00e+00	0	41	0	625999872	62	5385
2026-01-14 01:41:05.12	293.03	19.48	-45.8	-49.1	15.5	0.00e+00	0	41	0	628097024	62	5504
2026-01-14 01:41:05.83	292.87	19.46	-46.0	-49.4	15.2	0.00e+00	0	41	0	629145600	62	5665
2026-01-14 01:41:07.11	292.57	19.40	-46.0	-49.4	15.2	0.00e+00	0	41	0	632291328	63	5400
2026-01-14 01:41:07.82	292.40	19.38	-46.0	-49.3	15.3	0.00e+00	0	41	0	633339904	63	5325
2026-01-14 01:41:09.10	292.10	19.32	-46.1	-49.6	15.0	0.00e+00	0	41	0	635437056	63	5484
2026-01-14 01:41:09.81	291.94	19.30	-46.1	-49.6	15.0	0.00e+00	0	41	0	637534208	63	5501
2026-01-14 01:41:11.15	291.63	19.24	-46.3	-49.8	14.8	0.00e+00	0	41	0	639631360	63	5634
2026-01-14 01:41:11.86	291.47	19.21	-46.3	-49.8	14.8	0.00e+00	0	41	0	640679936	63	5656
2026-01-14 01:41:13.14	291.17	19.16	-46.4	-50.0	14.6	0.00e+00	0	41	0	643825664	63	5756
2026-01-14 01:41:13.87	291.00	19.12	-46.2	-49.7	15.0	0.00e+00	0	41	0	644874240	63	5536
2026-01-14 01:41:15.15	290.71	19.07	-45.9	-49.2	15.4	0.00e+00	0	41	0	646971392	63	5278
2026-01-14 01:41:16.19	290.47	19.02	-45.9	-49.2	15.4	0.00e+00	0	41	0	649068544	63	5240
2026-01-14 01:41:17.14	290.26	18.98	-45.9	-49.3	15.3	0.00e+00	0	41	0	651165696	63	5317
2026-01-14 01:41:18.13	290.03	18.94	-45.6	-48.8	15.7	0.00e+00	0	41	0	652214272	63	5024
2026-01-14 01:41:19.13	289.81	18.89	-45.7	-49.0	15.6	7.00e-07	0	41	0	654311424	63	5111
2026-01-14 01:41:20.12	289.59	18.85	-45.8	-49.1	15.4	0.00e+00	0	41	0	656408576	63	5203
2026-01-14 01:41:21.12	289.36	18.80	-45.9	-49.3	15.3	0.00e+00	0	41	0	658505728	63	5330
2026-01-14 01:41:22.16	289.13	18.76	-45.8	-49.2	15.4	0.00e+00	0	41	0	660602880	63	5235
2026-01-14 01:41:23.09	288.92	18.71	-45.9	-49.1	15.4	0.00e+00	0	41	0	661651456	63	5218
2026-01-14 01:41:24.09	288.70	18.67	-45.7	-48.8	15.7	0.00e+00	0	41	0	663748608	63	5033
2026-01-14 01:41:25.08	288.48	18.62	-45.7	-48.8	15.7	0.00e+00	0	41	0	665845760	63	5041
2026-01-14 01:41:26.08	288.26	18.57	-45.6	-48.7	15.8	0.00e+00	0	41	0	667942912	63	4983
2026-01-14 01:41:27.07	288.04	18.53	-45.6	-48.7	15.9	0.00e+00	0	41	0	668991488	63	4949
2026-01-14 01:41:28.07	287.82	18.48	-45.2	-48.2	16.3	0.00e+00	0	41	0	671088640	62	4955
2026-01-14 01:41:29.06	287.60	18.43	-45.1	-48.0	16.5	0.00e+00	0	41	0	673185792	62	4847
2026-01-14 01:41:30.43	287.30	18.36	-45.0	-47.8	16.7	0.00e+00	0	41	0	675282944	62	4754
2026-01-14 01:41:31.18	287.14	18.33	-45.0	-47.9	16.6	0.00e+00	0	41	0	677380096	62	4794
2026-01-14 01:41:32.77	286.80	18.25	-45.0	-47.8	16.7	0.00e+00	0	41	0	680525824	61	5027
2026-01-14 01:41:33.34	286.67	18.22	-44.9	-47.7	16.7	0.00e+00	0	41	0	681574400	61	4978
2026-01-14 01:41:35.04	286.31	18.14	-44.9	-47.7	16.8	0.00e+00	0	41	0	684720128	61	4957
2026-01-14 01:41:35.61	286.18	18.11	-45.1	-48.0	16.5	0.00e+00	0	41	0	685768704	61	5147
2026-01-14 01:41:37.32	285.82	18.02	-45.2	-48.1	16.2	0.00e+00	0	41	0	688914432	61	5203
2026-01-14 01:41:37.89	285.70	17.99	-45.3	-48.4	16.1	0.00e+00	0	41	0	689963008	61	5361
2026-01-14 01:41:39.59	285.34	17.90	-46.1	-49.5	15.1	0.00e+00	0	41	0	693108736	62	5767
2026-01-14 01:41:40.16	285.22	17.87	-46.3	-49.9	14.7	0.00e+00	0	41	0	694157312	63	5715
2026-01-14 01:41:41.86	284.86	17.79	-46.6	-50.4	14.2	0.00e+00	0	41	0	697303040	63	6039
2026-01-14 01:41:42.45	284.74	17.76	-46.6	-50.4	14.2	3.00e-06	0	41	0	698351616	63	6022
2026-01-14 01:41:44.01	284.41	17.67	-46.5	-50.2	14.4	7.00e-07	0	41	0	701497344	63	5885
2026-01-14 01:41:44.72	284.26	17.64	-46.3	-49.9	14.7	7.00e-07	0	41	0	702545920	63	5676
2026-01-14 01:41:46.22	283.95	17.56	-46.5	-50.3	14.1	0.00e+00	0	41	0	705691648	63	5964
2026-01-14 01:41:46.93	283.81	17.52	-46.5	-50.3	14.2	7.00e-07	0	41	0	706740224	64	5644
2026-01-14 01:41:48.27	283.53	17.44	-46.7	-50.6	13.9	2.20e-06	0	41	0	708837376	64	5824
2026-01-14 01:41:49.27	283.33	17.39	-47.0	-51.1	13.4	1.06e-05	0	41	0	710934528	64	6148
2026-01-14 01:41:50.56	283.07	17.32	-47.1	-51.5	13.0	2.44e-05	0	41	0	713031680	65	6077
2026-01-14 01:41:51.28	282.92	17.28	-47.1	-51.5	13.0	2.82e-05	0	41	0	715128832	65	6115
2026-01-14 01:41:52.56	282.66	17.21	-47.0	-51.3	13.2	1.67e-05	0	41	0	717225984	65	5924
2026-01-14 01:41:53.27	282.52	17.17	-46.8	-50.9	13.6	1.83e-05	0	41	0	718274560	65	5711
2026-01-14 01:41:54.55	282.26	17.10	-46.6	-50.5	14.0	3.00e-06	0	41	0	721420288	64	5763
2026-01-14 01:41:55.28	282.11	17.06	-46.4	-50.2	14.3	5.30e-06	0	41	0	722468864	64	5529
2026-01-14 01:41:56.55	281.86	16.99	-45.9	-49.4	15.2	0.00e+00	0	41	0	724566016	63	5365
2026-01-14 01:41:57.27	281.72	16.95	-45.8	-49.2	15.4	0.00e+00	0	41	0	725614592	63	5231
2026-01-14 01:41:58.54	281.47	16.88	-45.6	-48.8	15.7	0.00e+00	0	41	0	728760320	63	5031
2026-01-14 01:41:59.27	281.32	16.84	-45.5	-48.7	15.8	0.00e+00	0	41	0	729808896	62	5228
2026-01-14 01:42:00.60	281.06	16.76	-45.6	-48.8	15.7	0.00e+00	0	41	0	731906048	62	5316
2026-01-14 01:42:01.56	280.87	16.71	-45.6	-48.8	15.7	0.00e+00	0	41	0	734003200	62	5314
2026-01-14 01:42:02.56	280.68	16.65	-45.8	-49.2	15.3	0.00e+00	0	41	0	736100352	62	5561
2026-01-14 01:42:03.55	280.49	16.59	-45.6	-48.9	15.6	0.00e+00	0	41	0	738197504	62	5370
2026-01-14 01:42:04.54	280.30	16.53	-45.7	-49.0	15.5	0.00e+00	0	41	0	739246080	62	5461
2026-01-14 01:42:05.54	280.10	16.48	-45.9	-49.4	15.2	0.00e+00	0	41	0	741343232	62	5657
2026-01-14 01:42:06.53	279.91	16.42	-46.2	-49.7	14.8	0.00e+00	0	41	0	743440384	62	5917
2026-01-14 01:42:07.53	279.72	16.36	-46.2	-49.9	14.6	0.00e+00	0	41	0	745537536	63	5681
2026-01-14 01:42:08.52	279.54	16.30	-46.3	-50.0	14.6	0.00e+00	0	41	0	747634688	63	5780
2026-01-14 01:42:09.52	279.35	16.24	-46.3	-49.9	14.6	0.00e+00	0	41	0	748683264	63	5706
2026-01-14 01:42:10.51	279.16	16.19	-46.0	-49.4	15.1	0.00e+00	0	41	0	750780416	63	5395
2026-01-14 01:42:11.50	278.97	16.13	-45.8	-49.1	15.4	0.00e+00	0	41	0	752877568	63	5216
2026-01-14 01:42:12.50	278.79	16.07	-45.5	-48.7	15.7	0.00e+00	0	41	0	754974720	63	4979
2026-01-14 01:42:13.50	278.60	16.01	-45.5	-48.7	15.8	0.00e+00	0	41	0	756023296	62	5243
2026-01-14 01:42:14.49	278.42	15.95	-45.5	-48.8	15.7	0.00e+00	0	41	0	758120448	62	5317
2026-01-14 01:42:15.48	278.23	15.89	-45.6	-49.0	15.6	0.00e+00	0	41	0	760217600	62	5422
2026-01-14 01:42:16.48	278.05	15.83	-45.8	-49.2	15.3	0.00e+00	0	41	0	762314752	62	5588
2026-01-14 01:42:17.48	277.86	15.77	-46.1	-49.8	14.8	0.00e+00	0	41	0	764411904	62	5937
2026-01-14 01:42:18.47	277.68	15.71	-46.4	-50.3	14.2	0.00e+00	0	41	0	765460480	63	5944
2026-01-14 01:42:19.46	277.50	15.65	-46.7	-50.7	13.7	1.50e-06	0	41	0	767557632	64	5881
2026-01-14 01:42:20.46	277.32	15.59	-46.9	-51.3	13.2	1.60e-05	0	41	0	769654784	64	6278
2026-01-14 01:42:21.45	277.14	15.53	-46.9	-51.2	13.2	1.67e-05	0	41	0	771751936	64	6223
2026-01-14 01:42:22.45	276.96	15.47	-47.0	-51.4	13.0	2.59e-05	0	41	0	772800512	64	6373
2026-01-14 01:42:23.44	276.79	15.41	-46.9	-51.3	13.2	3.81e-05	0	41	0	774897664	64	6276
2026-01-14 01:42:24.44	276.61	15.35	-46.9	-51.1	13.3	2.82e-05	0	41	0	776994816	64	6155
2026-01-14 01:42:25.50	276.42	15.29	-46.8	-50.9	13.6	1.14e-05	0	41	0	779091968	64	6018
2026-01-14 01:42:26.36	276.27	15.23	-46.6	-50.6	13.8	8.30e-06	0	41	0	780140544	64	5850
2026-01-14 01:42:27.71	276.03	15.15	-46.5	-50.5	14.0	2.20e-06	0	41	0	783286272	64	5724
2026-01-14 01:42:28.42	275.90	15.11	-46.4	-50.3	14.2	0.00e+00	0	41	0	784334848	64	5610
2026-01-14 01:42:29.70	275.68	15.03	-46.5	-50.5	14.0	0.00e+00	0	41	0	786432000	64	5730
2026-01-14 01:42:30.41	275.56	14.99	-46.4	-50.3	14.2	2.20e-06	0	41	0	788529152	64	5593
2026-01-14 01:42:31.70	275.33	14.91	-46.4	-50.2	14.3	3.00e-06	0	41	0	790626304	64	5554
2026-01-14 01:42:32.42	275.21	14.86	-46.4	-50.3	14.2	7.00e-07	0	41	0	791674880	64	5598
2026-01-14 01:42:33.69	274.99	14.78	-46.3	-50.1	14.3	1.50e-06	0	41	0	794820608	64	5522
2026-01-14 01:42:34.50	274.85	14.73	-46.3	-50.0	14.4	7.00e-07	0	41	0	795869184	64	5458
2026-01-14 01:42:35.63	274.66	14.66	-46.2	-49.9	14.5	7.00e-07	0	41	0	797966336	64	5385
2026-01-14 01:42:36.49	274.51	14.61	-46.2	-49.9	14.5	2.20e-06	0	41	0	800063488	64	5397
2026-01-14 01:42:37.62	274.32	14.54	-46.3	-50.1	14.3	1.50e-06	0	41	0	802160640	64	5511
2026-01-14 01:42:38.48	274.18	14.49	-46.5	-50.4	14.0	1.50e-06	0	41	0	803209216	64	5691
2026-01-14 01:42:39.61	273.99	14.42	-46.7	-50.8	13.6	2.20e-06	0	41	0	805306368	64	5964
2026-01-14 01:42:40.80	273.79	14.34	-46.8	-51.0	13.5	8.30e-06	0	41	0	807403520	64	6079
2026-01-14 01:42:41.82	273.62	14.28	-46.8	-50.9	13.5	1.06e-05	0	41	0	809500672	64	6036
2026-01-14 01:42:42.99	273.43	14.20	-46.6	-50.6	13.8	7.60e-06	0	41	0	811597824	64	5850
2026-01-14 01:42:43.84	273.29	14.15	-46.4	-50.3	14.2	6.10e-06	0	41	0	813694976	64	5600
2026-01-14 01:42:44.97	273.10	14.08	-46.1	-49.8	14.6	7.00e-07	0	41	0	815792128	64	5313
2026-01-14 01:42:45.83	272.96	14.03	-46.0	-49.6	14.8	0.00e+00	0	41	0	816840704	64	5185
2026-01-14 01:42:46.97	272.78	13.95	-45.9	-49.3	15.1	0.00e+00	0	41	0	818937856	63	5333
2026-01-14 01:42:47.82	272.64	13.90	-45.9	-49.3	15.2	0.00e+00	0	41	0	821035008	63	5309
2026-01-14 01:42:48.96	272.46	13.83	-45.9	-49.3	15.2	0.00e+00	0	41	0	823132160	63	5317
2026-01-14 01:42:49.81	272.32	13.77	-45.9	-49.3	15.2	0.00e+00	0	41	0	824180736	63	5305
2026-01-14 01:42:50.94	272.14	13.70	-46.0	-49.5	15.0	0.00e+00	0	41	0	826277888	63	5411
2026-01-14 01:42:51.80	272.01	13.65	-46.2	-49.7	14.7	0.00e+00	0	41	0	828375040	63	5579
2026-01-14 01:42:52.93	271.83	13.58	-46.2	-49.7	14.7	0.00e+00	0	41	0	830472192	63	5572
2026-01-14 01:42:53.79	271.69	13.52	-46.2	-49.8	14.7	7.00e-07	0	41	0	831520768	63	5614
2026-01-14 01:42:54.92	271.51	13.45	-46.3	-50.0	14.5	7.00e-07	0	41	0	834666496	63	5742
2026-01-14 01:42:55.78	271.38	13.40	-46.4	-50.1	14.4	7.00e-07	0	41	0	835715072	63	5817
2026-01-14 01:42:56.91	271.20	13.32	-46.2	-49.9	14.6	0.00e+00	0	41	0	837812224	63	5682
2026-01-14 01:42:57.77	271.07	13.27	-46.1	-49.8	14.6	7.00e-07	0	41	0	839909376	63	5639
2026-01-14 01:42:58.90	270.90	13.20	-46.1	-49.9	14.6	0.00e+00	0	41	0	842006528	63	5665
2026-01-14 01:42:59.76	270.76	13.14	-46.0	-49.5	14.9	0.00e+00	0	41	0	843055104	63	5449
2026-01-14 01:43:01.10	270.56	13.06	-46.0	-49.5	15.0	7.00e-07	0	41	0	846200832	63	5424
2026-01-14 01:43:01.81	270.45	13.01	-45.9	-49.4	15.0	0.00e+00	0	41	0	847249408	63	5342
2026-01-14 01:43:03.08	270.26	12.93	-45.8	-49.1	15.3	0.00e+00	0	41	0	849346560	63	5185
2026-01-14 01:43:03.83	270.15	12.88	-45.8	-49.1	15.4	0.00e+00	0	41	0	850395136	63	5169
2026-01-14 01:43:05.11	269.95	12.80	-45.7	-48.9	15.5	0.00e+00	0	41	0	853540864	63	5083
2026-01-14 01:43:05.90	269.84	12.75	-45.7	-48.9	15.5	0.00e+00	0	41	0	854589440	63	5057
2026-01-14 01:43:07.08	269.66	12.68	-45.6	-48.7	15.7	0.00e+00	0	41	0	856686592	63	4961
2026-01-14 01:43:08.08	269.51	12.61	-45.5	-48.6	15.8	0.00e+00	0	41	0	858783744	63	4892
2026-01-14 01:43:09.07	269.37	12.55	-45.2	-48.2	16.1	0.00e+00	0	41	0	860880896	62	4981
2026-01-14 01:43:10.06	269.22	12.49	-45.1	-48.0	16.3	0.00e+00	0	41	0	862978048	62	4865
2026-01-14 01:43:11.06	269.08	12.42	-44.9	-47.8	16.5	0.00e+00	0	41	0	864026624	61	5029
2026-01-14 01:43:12.05	268.93	12.36	-44.8	-47.7	16.6	0.00e+00	0	41	0	866123776	61	4935
2026-01-14 01:43:13.04	268.79	12.30	-44.7	-47.5	16.8	0.00e+00	0	41	0	868220928	61	4859
2026-01-14 01:43:14.04	268.64	12.23	-44.7	-47.5	16.8	0.00e+00	0	41	0	870318080	61	4863
2026-01-14 01:43:15.03	268.50	12.17	-44.9	-47.7	16.6	0.00e+00	0	41	0	871366656	61	4967
2026-01-14 01:43:16.03	268.36	12.10	-44.9	-47.8	16.5	0.00e+00	0	41	0	873463808	61	5040
2026-01-14 01:43:17.02	268.22	12.04	-45.2	-48.2	16.1	0.00e+00	0	41	0	875560960	61	5269
2026-01-14 01:43:18.02	268.08	11.98	-45.3	-48.4	16.0	0.00e+00	0	41	0	877658112	61	5360
2026-01-14 01:43:19.01	267.94	11.91	-45.4	-48.6	15.8	0.00e+00	0	41	0	879755264	61	5500
2026-01-14 01:43:20.01	267.80	11.85	-45.5	-48.6	15.7	0.00e+00	0	41	0	880803840	61	5513
2026-01-14 01:43:21.00	267.66	11.79	-45.6	-48.9	15.5	0.00e+00	0	41	0	882900992	61	5676
2026-01-14 01:43:22.00	267.52	11.72	-45.7	-49.0	15.4	0.00e+00	0	41	0	884998144	62	5429
2026-01-14 01:43:22.99	267.38	11.66	-45.7	-49.0	15.4	0.00e+00	0	41	0	887095296	62	5419
2026-01-14 01:43:23.98	267.24	11.60	-45.8	-49.1	15.3	7.00e-07	0	41	0	888143872	62	5466
2026-01-14 01:43:24.98	267.11	11.53	-45.7	-48.9	15.4	0.00e+00	0	41	0	890241024	62	5374
2026-01-14 01:43:25.97	266.97	11.47	-45.5	-48.7	15.7	0.00e+00	0	41	0	892338176	62	5236
2026-01-14 01:43:26.97	266.83	11.40	-45.4	-48.6	15.8	0.00e+00	0	41	0	894435328	62	5175
2026-01-14 01:43:27.96	266.70	11.34	-45.4	-48.5	15.8	0.00e+00	0	40	0	896532480	62	5146
2026-01-14 01:43:28.96	266.57	11.28	-45.2	-48.3	16.1	0.00e+00	0	41	0	897581056	62	4990
2026-01-14 01:43:29.95	266.43	11.21	-45.2	-48.2	16.1	0.00e+00	0	41	0	899678208	62	4965
2026-01-14 01:43:30.95	266.30	11.15	-45.3	-48.3	16.0	0.00e+00	0	41	0	901775360	62	4998
2026-01-14 01:43:31.96	266.16	11.09	-45.1	-48.1	16.2	0.00e+00	0	41	0	903872512	62	4914
2026-01-14 01:43:32.98	266.03	11.02	-45.3	-48.3	16.0	0.00e+00	0	41	0	905969664	62	5020
2026-01-14 01:43:34.00	265.89	10.96	-45.3	-48.4	15.9	0.00e+00	0	41	0	907018240	62	5090
2026-01-14 01:43:35.04	265.76	10.89	-45.4	-48.5	15.9	0.00e+00	0	41	0	909115392	62	5104
2026-01-14 01:43:36.00	265.63	10.83	-45.4	-48.5	15.8	0.00e+00	0	41	0	911212544	62	5139
2026-01-14 01:43:37.00	265.50	10.76	-45.4	-48.6	15.7	0.00e+00	0	41	0	913309696	62	5198
2026-01-14 01:43:37.99	265.37	10.70	-45.6	-48.9	15.5	0.00e+00	0	41	0	915406848	62	5341
2026-01-14 01:43:38.99	265.24	10.64	-45.5	-48.8	15.5	0.00e+00	0	41	0	916455424	62	5296
2026-01-14 01:43:39.98	265.12	10.57	-45.7	-49.1	15.2	0.00e+00	0	41	0	918552576	62	5496
2026-01-14 01:43:40.98	264.99	10.51	-45.7	-49.1	15.2	0.00e+00	0	41	0	920649728	62	5489
2026-01-14 01:43:41.97	264.86	10.45	-46.0	-49.4	14.9	0.00e+00	0	41	0	922746880	62	5705
2026-01-14 01:43:42.96	264.74	10.38	-46.1	-49.6	14.8	0.00e+00	0	41	0	923795456	62	5801
2026-01-14 01:43:43.96	264.61	10.32	-46.1	-49.7	14.7	0.00e+00	0	41	0	925892608	62	5858
2026-01-14 01:43:44.95	264.49	10.26	-46.3	-49.8	14.5	0.00e+00	0	41	0	927989760	63	5655
2026-01-14 01:43:45.95	264.36	10.19	-46.3	-50.0	14.3	7.00e-07	0	41	0	930086912	63	5729
2026-01-14 01:43:46.94	264.24	10.13	-46.2	-50.0	14.4	0.00e+00	0	41	0	932184064	63	5738
2026-01-14 01:43:47.94	264.11	10.07	-46.0	-49.9	14.4	0.00e+00	0	41	0	933232640	63	5658
2026-01-14 01:43:48.98	263.98	10.00	-45.9	-49.7	14.5	0.00e+00	0	41	0	935329792	63	5585
2026-01-14 01:43:49.94	263.87	9.94	-45.6	-49.5	14.8	7.00e-07	0	41	0	937426944	63	5404
2026-01-14 01:43:50.94	263.74	9.88	-45.4	-49.3	15.0	0.00e+00	0	41	0	939524096	62	5644
2026-01-14 01:43:51.93	263.62	9.81	-45.4	-49.3	15.0	0.00e+00	0	41	0	940572672	62	5624
2026-01-14 01:43:52.92	263.50	9.75	-45.1	-48.7	15.6	0.00e+00	0	41	0	942669824	62	5239
2026-01-14 01:43:53.92	263.38	9.69	-45.0	-48.5	15.8	0.00e+00	0	41	0	944766976	61	5426
2026-01-14 01:43:54.91	263.26	9.63	-45.0	-48.4	15.8	0.00e+00	0	41	0	946864128	61	5399
2026-01-14 01:43:55.91	263.14	9.56	-45.2	-48.6	15.6	0.00e+00	0	41	0	948961280	61	5485
2026-01-14 01:43:56.90	263.02	9.50	-45.2	-48.6	15.7	0.00e+00	0	41	0	950009856	61	5475
2026-01-14 01:43:57.90	262.91	9.44	-45.4	-48.8	15.4	0.00e+00	0	41	0	952107008	61	5628
2026-01-14 01:43:58.89	262.79	9.37	-45.6	-49.0	15.2	0.00e+00	0	41	0	954204160	61	5747
2026-01-14 01:43:59.89	262.67	9.31	-45.7	-49.1	15.1	7.00e-07	0	41	0	956301312	62	5517
2026-01-14 01:44:00.88	262.55	9.25	-46.1	-49.7	14.6	0.00e+00	0	40	0	957349888	62	5859
2026-01-14 01:44:01.88	262.44	9.19	-46.3	-50.0	14.3	7.00e-07	0	41	0	959447040	63	5734
2026-01-14 01:44:02.92	262.32	9.12	-46.4	-50.1	14.1	0.00e+00	0	41	0	961544192	63	5849
2026-01-14 01:44:03.96	262.20	9.06	-46.5	-50.3	14.0	7.00e-07	0	41	0	963641344	63	5942
2026-01-14 01:44:04.99	262.08	8.99	-49.4	-63.1	4.0	1.17e-01	0	41	0	965738496	69	18386
2026-01-14 01:44:05.98	261.96	8.93	-50.6	-65.9	3.8	1.49e+00	0	41	104	965738496	71	22531
2026-01-14 01:44:06.97	261.85	8.87	-50.7	-65.9	3.8	1.49e+00	0	41	104	965738496	72	21502
2026-01-14 01:44:07.97	261.74	8.80	-50.7	-66.0	3.8	1.49e+00	0	41	104	965738496	72	21716
2026-01-14 01:44:08.96	261.63	8.74	-50.7	-66.1	3.8	1.49e+00	0	41	104	965738496	72	21922
2026-01-14 01:44:09.95	261.51	8.68	-50.7	-66.1	3.8	1.49e+00	0	41	104	965738496	72	21969
2026-01-14 01:44:10.95	261.40	8.62	-50.9	-66.2	3.8	1.49e+00	0	41	104	965738496	72	22102
2026-01-14 01:44:11.94	261.29	8.56	-50.8	-66.2	3.8	1.49e+00	0	41	104	965738496	72	22213
2026-01-14 01:44:12.93	261.18	8.49	-51.0	-66.3	3.8	1.49e+00	0	41	104	965738496	72	22303
2026-01-14 01:44:13.93	261.07	8.43	-51.0	-66.2	3.8	1.49e+00	0	41	104	965738496	72	22262
2026-01-14 01:44:14.92	260.96	8.37	-51.0	-66.3	3.8	1.49e+00	0	41	104	965738496	72	22293
2026-01-14 01:44:15.91	260.85	8.31	-51.0	-66.3	3.8	1.49e+00	0	41	104	965738496	72	22330
2026-01-14 01:44:16.91	260.74	8.25	-51.0	-66.3	3.8	1.49e+00	0	41	104	965738496	72	22321
2026-01-14 01:44:17.90	260.64	8.18	-51.0	-66.3	3.8	1.49e+00	0	41	104	965738496	72	22324
2026-01-14 01:44:18.89	260.53	8.12	-51.0	-66.3	3.8	1.49e+00	0	41	104	965738496	72	22317
2026-01-14 01:44:19.89	260.42	8.06	-51.0	-66.3	3.8	1.49e+00	0	41	104	965738496	72	22381
2026-01-14 01:44:20.88	260.31	8.00	-51.0	-66.3	3.8	1.49e+00	0	41	104	965738496	72	22369
2026-01-14 01:44:21.87	260.21	7.94	-51.0	-66.3	3.8	1.49e+00	0	40	104	965738496	72	22483
2026-01-14 01:44:22.86	260.10	7.88	-51.0	-66.3	3.8	1.49e+00	0	41	104	965738496	72	22386
2026-01-14 01:44:23.86	260.00	7.82	-51.0	-66.3	3.8	1.49e+00	0	41	104	965738496	72	22307
2026-01-14 01:44:24.85	259.89	7.75	-50.9	-66.3	3.8	1.49e+00	0	41	104	965738496	72	22310
2026-01-14 01:44:25.85	259.79	7.69	-50.9	-66.3	3.8	1.49e+00	0	41	104	965738496	72	22351
2026-01-14 01:44:26.84	259.68	7.63	-50.8	-66.2	3.8	1.49e+00	0	41	104	965738496	72	22155
2026-01-14 01:44:27.83	259.58	7.57	-50.8	-66.2	3.8	1.49e+00	0	41	104	965738496	72	22220
2026-01-14 01:44:28.83	259.48	7.51	-50.8	-66.3	3.8	1.49e+00	0	41	104	965738496	72	22270
2026-01-14 01:44:29.82	259.37	7.45	-50.8	-66.2	3.8	1.49e+00	0	41	104	965738496	72	22170
2026-01-14 01:44:30.81	259.27	7.39	-50.8	-66.2	3.8	1.49e+00	0	41	104	965738496	72	22097
2026-01-14 01:44:31.81	259.17	7.33	-50.8	-66.2	3.8	1.49e+00	0	41	104	965738496	72	22127
2026-01-14 01:44:32.80	259.07	7.27	-50.8	-66.2	3.8	1.49e+00	0	41	104	965738496	72	22084
2026-01-14 01:44:33.79	258.97	7.20	-50.8	-66.2	3.8	1.49e+00	0	41	104	965738496	72	22082
2026-01-14 01:44:34.79	258.87	7.14	-50.8	-66.2	3.8	1.49e+00	0	41	104	965738496	72	22131
2026-01-14 01:44:35.78	258.77	7.08	-50.8	-66.2	3.8	1.49e+00	0	41	104	965738496	72	22123
2026-01-14 01:44:36.77	258.67	7.02	-50.8	-66.2	3.8	1.49e+00	0	41	104	965738496	72	22142
2026-01-14 01:44:37.76	258.57	6.96	-50.8	-66.2	3.8	1.49e+00	0	41	104	965738496	72	22098
2026-01-14 01:44:38.76	258.47	6.90	-50.8	-66.2	3.8	1.49e+00	0	41	104	965738496	72	22104
2026-01-14 01:44:39.75	258.37	6.84	-50.8	-66.2	3.8	1.49e+00	0	41	104	965738496	72	22181
2026-01-14 01:44:40.75	258.27	6.78	-50.8	-66.2	3.8	1.49e+00	0	41	104	965738496	72	22193
2026-01-14 01:44:41.74	258.17	6.72	-50.8	-66.2	3.8	1.49e+00	0	41	104	965738496	72	22152
2026-01-14 01:44:42.73	258.08	6.66	-50.8	-66.2	3.8	1.49e+00	0	41	104	965738496	72	22107
2026-01-14 01:44:43.72	257.98	6.60	-50.8	-66.2	3.8	1.49e+00	0	41	104	965738496	72	22021
2026-01-14 01:44:44.72	257.88	6.54	-50.8	-66.2	3.8	1.49e+00	0	41	104	965738496	72	22027
2026-01-14 01:44:45.71	257.79	6.48	-50.8	-66.2	3.8	1.49e+00	0	41	104	965738496	72	22092
2026-01-14 01:44:46.70	257.69	6.42	-50.8	-66.2	3.8	1.49e+00	0	41	104	965738496	72	22026
2026-01-14 01:44:47.70	257.60	6.36	-50.8	-66.2	3.8	1.49e+00	0	41	104	965738496	72	22063
2026-01-14 01:44:48.69	257.50	6.30	-50.8	-66.2	3.8	1.49e+00	0	41	104	965738496	72	22051
2026-01-14 01:44:49.68	257.41	6.24	-50.8	-66.2	3.8	1.49e+00	0	41	104	965738496	72	22050
2026-01-14 01:44:50.68	257.31	6.18	-50.8	-66.2	3.8	1.49e+00	0	41	104	965738496	72	22069
2026-01-14 01:44:51.67	257.22	6.12	-50.8	-66.1	3.8	1.49e+00	0	41	104	965738496	72	22006
2026-01-14 01:44:52.66	257.13	6.06	-50.8	-66.2	3.8	1.49e+00	0	41	104	965738496	72	22068
2026-01-14 01:44:53.66	257.04	6.00	-50.8	-66.2	3.8	1.49e+00	0	41	104	965738496	72	22064
2026-01-14 01:44:54.65	256.94	5.94	-50.8	-66.2	3.8	1.49e+00	0	41	104	965738496	72	22101
2026-01-14 01:44:55.64	256.85	5.88	-50.8	-66.2	3.8	1.49e+00	0	41	104	965738496	72	22052
2026-01-14 01:44:56.64	256.76	5.82	-50.8	-66.2	3.8	1.49e+00	0	41	104	965738496	72	22070
2026-01-14 01:44:57.63	256.67	5.76	-50.7	-66.2	3.8	1.49e+00	0	41	104	965738496	72	22072
2026-01-14 01:44:58.62	256.58	5.71	-50.8	-66.2	3.8	1.49e+00	0	41	104	965738496	72	22023
2026-01-14 01:44:59.62	256.49	5.65	-50.7	-66.2	3.8	1.49e+00	0	41	104	965738496	72	22023
2026-01-14 01:45:00.61	256.40	5.59	-50.8	-66.1	3.8	1.49e+00	0	41	104	965738496	72	21971
2026-01-14 01:45:01.61	256.31	5.53	-50.7	-66.2	3.8	1.49e+00	0	41	104	965738496	72	22120
2026-01-14 01:45:02.60	256.22	5.47	-50.7	-66.2	3.8	1.49e+00	0	41	104	965738496	72	22090
2026-01-14 01:45:03.59	256.13	5.41	-50.8	-66.2	3.8	1.49e+00	0	41	104	965738496	72	22058
2026-01-14 01:45:04.59	256.04	5.35	-50.8	-66.2	3.8	1.49e+00	0	41	104	965738496	72	22066
2026-01-14 01:45:05.58	255.95	5.29	-50.8	-66.2	3.8	1.49e+00	0	41	104	965738496	72	22058
2026-01-14 01:45:06.57	255.86	5.23	-50.7	-66.2	3.8	1.49e+00	0	41	104	965738496	72	22015
2026-01-14 01:45:07.57	255.78	5.17	-50.7	-66.1	3.8	1.49e+00	0	41	104	965738496	72	21992
2026-01-14 01:45:08.56	255.69	5.12	-50.8	-66.1	3.8	1.49e+00	0	41	104	965738496	72	21957
2026-01-14 01:45:09.55	255.60	5.06	-50.7	-66.1	3.8	1.49e+00	0	41	104	965738496	72	21990
2026-01-14 01:45:10.55	255.52	5.00	-50.7	-66.2	3.8	1.49e+00	0	41	104	965738496	72	22022

#Closed at: 2026-01-14 01:45:11
#Recorded file [965 MB]: D:/Data/31040_260114_043439.dat