passes_logs/2026/01/14/T1/T1__20260114_125809_AQUA_rec.log

#Pass ID: 20260114_125809_AQUA
#Satellite: AQUA
#Configuration: AQUA
#almurnet v.1.7.20251203
#Start time: 2026-01-14 12:58:11

#Version: 2.0.20230620
#Station: T1
#Location: 37.570604 lon 55.790049 lat
#TLE: 1 27424U 02022A   26013.58555111  .00000773  00000+0  16469-3 0  9993
#TLE: 2 27424  98.4079 339.9892 0002045  80.0365 334.6894 14.61818766260681

#Time	Az	El	Level	Level2	SNR	BER	BlckErr	Temp	State	Recorded	gain1	gain2
2026-01-14 12:58:11.49	206.49	5.13	-53.1	-73.4	3.8	7.44e-01	0	41	104	0	77	38126
2026-01-14 12:58:12.48	206.58	5.19	-53.2	-73.5	3.8	7.48e-01	0	41	104	0	77	38311
2026-01-14 12:58:13.50	206.67	5.26	-53.2	-73.5	3.8	7.50e-01	0	41	104	0	77	38473
2026-01-14 12:58:14.53	206.77	5.32	-53.2	-73.5	3.8	7.47e-01	0	41	104	0	77	38548
2026-01-14 12:58:15.55	206.86	5.39	-53.2	-73.5	3.8	7.43e-01	0	41	104	0	77	38282
2026-01-14 12:58:16.54	206.95	5.45	-53.2	-73.4	3.8	7.47e-01	0	41	104	0	77	38188
2026-01-14 12:58:17.54	207.04	5.52	-53.2	-73.4	3.8	7.48e-01	0	41	104	0	77	38088
2026-01-14 12:58:18.53	207.14	5.58	-53.1	-73.4	3.8	7.45e-01	0	41	104	0	77	38175
2026-01-14 12:58:19.53	207.23	5.65	-53.1	-73.4	3.8	7.46e-01	0	41	104	0	77	38000
2026-01-14 12:58:20.52	207.33	5.72	-53.1	-73.4	3.8	7.49e-01	0	41	104	0	77	37843
2026-01-14 12:58:21.51	207.42	5.78	-53.1	-73.2	3.8	7.46e-01	0	41	104	0	77	37249
2026-01-14 12:58:22.51	207.51	5.85	-53.1	-73.2	3.8	7.44e-01	0	41	104	0	77	36991
2026-01-14 12:58:23.50	207.61	5.91	-53.1	-73.1	3.8	7.43e-01	0	41	104	0	77	36924
2026-01-14 12:58:24.50	207.71	5.98	-53.1	-73.2	3.8	7.49e-01	0	41	104	0	77	37063
2026-01-14 12:58:25.49	207.80	6.04	-53.1	-73.1	3.8	7.44e-01	0	41	104	0	77	36927
2026-01-14 12:58:26.48	207.90	6.11	-53.1	-73.2	3.8	7.45e-01	0	41	104	0	77	37123
2026-01-14 12:58:27.48	207.99	6.17	-53.1	-73.2	3.8	7.43e-01	0	41	104	0	77	37320
2026-01-14 12:58:28.47	208.09	6.24	-53.2	-73.3	3.8	7.43e-01	0	41	104	0	77	37381
2026-01-14 12:58:29.47	208.19	6.31	-53.2	-73.2	3.8	7.47e-01	0	42	104	0	77	37248
2026-01-14 12:58:30.46	208.29	6.37	-53.1	-73.3	3.8	7.45e-01	0	42	104	0	77	37422
2026-01-14 12:58:31.45	208.39	6.44	-53.1	-73.2	3.8	7.46e-01	0	42	104	0	77	37244
2026-01-14 12:58:32.52	208.49	6.51	-53.2	-72.8	3.8	7.41e-01	0	42	104	0	77	35566
2026-01-14 12:58:33.41	208.58	6.57	-53.1	-72.1	3.9	7.43e-01	0	42	104	0	77	32915
2026-01-14 12:58:34.55	208.70	6.65	-53.1	-71.1	3.9	7.42e-01	0	42	104	0	77	29335
2026-01-14 12:58:35.40	208.78	6.71	-53.1	-70.3	4.1	7.36e-01	0	42	104	0	77	26713
2026-01-14 12:58:36.54	208.90	6.78	-53.1	-70.0	4.2	7.34e-01	0	42	104	0	77	25616
2026-01-14 12:58:37.39	208.99	6.84	-53.1	-70.5	3.9	7.40e-01	0	42	104	0	77	27163
2026-01-14 12:58:38.53	209.11	6.92	-53.1	-71.1	3.9	7.41e-01	0	42	104	0	77	29168
2026-01-14 12:58:39.38	209.19	6.98	-53.1	-71.8	3.8	7.45e-01	0	42	104	0	77	31665
2026-01-14 12:58:40.51	209.31	7.05	-53.1	-72.7	3.8	7.44e-01	0	42	104	0	77	35063
2026-01-14 12:58:41.36	209.40	7.11	-53.1	-72.9	3.8	7.46e-01	0	42	104	0	77	35797
2026-01-14 12:58:42.50	209.52	7.19	-53.1	-72.6	3.8	7.47e-01	0	42	104	0	77	34746
2026-01-14 12:58:43.35	209.61	7.25	-53.1	-71.9	3.8	7.44e-01	0	42	104	0	77	31990
2026-01-14 12:58:44.49	209.73	7.32	-53.1	-70.6	4.0	7.38e-01	0	42	104	0	77	27641
2026-01-14 12:58:45.34	209.82	7.38	-53.0	-70.2	3.9	7.41e-01	0	42	104	0	77	26344
2026-01-14 12:58:46.52	209.95	7.46	-53.0	-69.3	3.9	7.41e-01	0	42	104	0	77	23853
2026-01-14 12:58:47.37	210.04	7.52	-53.0	-68.8	4.1	7.19e-01	0	42	104	0	77	22350
2026-01-14 12:58:48.59	210.17	7.61	-53.0	-68.7	4.7	7.16e-01	0	42	104	0	77	22163
2026-01-14 12:58:49.44	210.26	7.67	-53.0	-68.9	4.6	7.24e-01	0	42	104	0	77	22619
2026-01-14 12:58:50.57	210.39	7.74	-53.0	-69.1	4.5	7.26e-01	0	42	104	0	77	23258
2026-01-14 12:58:51.43	210.48	7.80	-53.0	-69.7	4.3	7.32e-01	0	42	104	0	77	24886
2026-01-14 12:58:52.56	210.60	7.88	-53.1	-71.0	4.0	7.43e-01	0	42	104	0	77	28862
2026-01-14 12:58:53.42	210.70	7.94	-53.1	-72.9	3.8	7.46e-01	0	42	104	0	77	35889
2026-01-14 12:58:54.55	210.83	8.02	-53.1	-72.7	3.8	7.45e-01	0	42	104	0	77	34981
2026-01-14 12:58:55.40	210.92	8.08	-53.0	-67.9	4.9	7.11e-01	0	42	104	0	77	20276
2026-01-14 12:58:56.54	211.05	8.16	-52.5	-62.5	9.7	6.28e-01	0	42	0	1572864	77	10788
2026-01-14 12:58:57.39	211.15	8.22	-51.8	-59.4	12.7	6.09e-01	0	42	0	3145728	75	8552
2026-01-14 12:58:58.53	211.28	8.30	-50.9	-56.7	15.6	6.08e-01	0	42	0	5242880	73	6966
2026-01-14 12:58:59.38	211.37	8.36	-50.2	-55.0	17.2	6.06e-01	0	42	0	6815744	72	6121
2026-01-14 12:59:00.52	211.50	8.44	-49.5	-53.7	18.6	6.07e-01	0	42	0	8912896	71	5531
2026-01-14 12:59:01.37	211.60	8.50	-49.1	-53.0	19.3	6.07e-01	0	43	0	10485760	70	5403
2026-01-14 12:59:02.55	211.74	8.59	-48.9	-52.7	19.0	6.06e-01	0	43	0	12582912	69	5573
2026-01-14 12:59:03.40	211.84	8.65	-49.0	-52.8	19.5	6.08e-01	0	42	0	14155776	69	5649
2026-01-14 12:59:04.62	211.98	8.73	-49.4	-53.5	18.8	6.06e-01	0	42	0	16777216	69	6111
2026-01-14 12:59:05.47	212.08	8.79	-49.8	-54.2	18.2	6.06e-01	0	42	0	18350080	70	6272
2026-01-14 12:59:06.67	212.22	8.88	-50.6	-55.7	16.7	6.04e-01	0	42	0	20447232	71	6999
2026-01-14 12:59:07.52	212.33	8.94	-50.9	-56.7	15.7	6.09e-01	0	42	0	22020096	72	7387
2026-01-14 12:59:08.66	212.46	9.02	-51.5	-58.4	14.0	6.07e-01	0	43	0	24117248	73	8486
2026-01-14 12:59:09.51	212.56	9.08	-51.1	-57.0	15.2	6.09e-01	0	42	0	25690112	74	6868
2026-01-14 12:59:10.65	212.70	9.16	-50.1	-54.7	17.7	6.08e-01	0	43	0	27787264	72	5871
2026-01-14 12:59:11.50	212.81	9.23	-51.4	-58.2	14.5	6.09e-01	0	43	0	29360128	73	8305
2026-01-14 12:59:12.64	212.94	9.31	-51.6	-58.5	13.5	6.08e-01	0	43	0	31457280	75	7696
2026-01-14 12:59:13.49	213.05	9.37	-50.5	-55.5	16.6	6.09e-01	0	43	0	33030144	73	6069
2026-01-14 12:59:14.91	213.22	9.47	-50.7	-55.8	16.5	6.05e-01	0	43	0	36175872	73	6317
2026-01-14 12:59:15.62	213.31	9.52	-50.7	-55.8	16.5	6.07e-01	0	43	0	37224448	73	6344
2026-01-14 12:59:16.90	213.47	9.62	-50.6	-55.9	16.5	6.07e-01	0	43	0	39845888	73	6349
2026-01-14 12:59:17.63	213.56	9.67	-50.6	-55.8	16.7	6.07e-01	0	43	0	40894464	73	6284
2026-01-14 12:59:18.91	213.73	9.76	-50.3	-55.1	17.3	6.07e-01	0	43	0	43515904	72	6201
2026-01-14 12:59:19.68	213.82	9.82	-50.0	-54.7	17.7	6.07e-01	0	43	0	45088768	72	5898
2026-01-14 12:59:20.96	213.99	9.91	-49.8	-54.2	18.2	6.05e-01	0	43	0	47185920	71	5896
2026-01-14 12:59:21.67	214.08	9.97	-49.6	-53.9	18.6	6.08e-01	0	43	0	48758784	71	5663
2026-01-14 12:59:22.95	214.24	10.06	-49.4	-53.5	19.0	6.07e-01	0	43	0	50855936	70	5733
2026-01-14 12:59:23.68	214.34	10.11	-49.3	-53.4	19.0	6.08e-01	0	43	0	52428800	70	5715
2026-01-14 12:59:24.96	214.51	10.21	-48.9	-52.7	19.7	6.08e-01	0	43	0	55050240	69	5543
2026-01-14 12:59:25.67	214.60	10.26	-48.7	-52.4	20.0	6.06e-01	0	43	0	56098816	69	5372
2026-01-14 12:59:26.95	214.77	10.35	-48.6	-52.2	20.2	6.07e-01	0	43	0	58720256	69	5241
2026-01-14 12:59:27.66	214.86	10.41	-48.5	-52.0	20.4	6.07e-01	0	43	0	59768832	69	5129
2026-01-14 12:59:28.94	215.03	10.50	-48.5	-51.9	20.5	6.06e-01	0	43	0	62390272	68	5397
2026-01-14 12:59:29.67	215.13	10.56	-48.5	-52.0	20.4	6.06e-01	0	43	0	63438848	68	5441
2026-01-14 12:59:31.04	215.31	10.66	-48.6	-52.1	20.4	6.06e-01	0	43	0	66060288	68	5468
2026-01-14 12:59:31.75	215.41	10.71	-48.5	-52.0	20.4	6.07e-01	0	43	0	67633152	68	5441
2026-01-14 12:59:33.03	215.58	10.81	-48.5	-52.0	20.4	6.06e-01	0	43	0	69730304	68	5431
2026-01-14 12:59:33.74	215.68	10.86	-48.5	-52.0	20.4	6.09e-01	0	43	0	71303168	68	5429
2026-01-14 12:59:35.16	215.88	10.97	-48.5	-52.0	20.4	6.10e-01	0	43	0	73924608	68	5421
2026-01-14 12:59:35.87	215.97	11.02	-48.5	-52.0	20.4	6.06e-01	0	43	0	74973184	68	5426
2026-01-14 12:59:37.22	216.16	11.12	-48.5	-52.0	20.4	6.06e-01	0	43	0	77594624	68	5426
2026-01-14 12:59:37.93	216.26	11.18	-48.5	-52.0	20.4	6.07e-01	0	43	0	79167488	68	5438
2026-01-14 12:59:39.26	216.45	11.28	-48.4	-51.8	20.6	6.06e-01	0	43	0	81788928	68	5333
2026-01-14 12:59:39.97	216.55	11.33	-48.4	-51.8	20.7	6.06e-01	0	43	0	82837504	68	5292
2026-01-14 12:59:41.25	216.73	11.43	-48.3	-51.7	20.8	6.08e-01	0	43	0	85458944	68	5222
2026-01-14 12:59:41.96	216.83	11.48	-48.3	-51.6	20.8	6.06e-01	0	43	0	86507520	68	5204
2026-01-14 12:59:43.24	217.02	11.58	-48.4	-51.8	20.6	6.08e-01	0	43	0	89128960	68	5295
2026-01-14 12:59:43.95	217.12	11.63	-48.3	-51.7	20.7	6.06e-01	0	43	0	90177536	68	5230
2026-01-14 12:59:45.23	217.31	11.73	-48.4	-51.7	20.7	6.05e-01	0	43	0	92798976	68	5259
2026-01-14 12:59:45.94	217.41	11.78	-48.4	-51.7	20.7	6.08e-01	0	43	0	93847552	68	5255
2026-01-14 12:59:47.22	217.60	11.88	-48.4	-51.7	20.7	6.07e-01	0	43	0	96468992	68	5271
2026-01-14 12:59:47.94	217.70	11.94	-48.4	-51.7	20.8	6.05e-01	0	43	0	98041856	68	5235
2026-01-14 12:59:49.22	217.89	12.03	-48.3	-51.7	20.8	6.09e-01	0	43	0	100139008	68	5229
2026-01-14 12:59:49.94	218.00	12.09	-48.3	-51.6	20.8	6.06e-01	0	43	0	101711872	68	5201
2026-01-14 12:59:51.22	218.19	12.19	-48.2	-51.6	20.9	6.06e-01	0	43	0	103809024	68	5160
2026-01-14 12:59:51.93	218.30	12.24	-48.3	-51.7	20.8	6.07e-01	0	43	0	105381888	68	5247
2026-01-14 12:59:53.21	218.49	12.34	-48.3	-51.6	20.8	6.06e-01	0	43	0	108003328	68	5204
2026-01-14 12:59:53.94	218.61	12.40	-48.3	-51.7	20.8	6.07e-01	0	43	0	109051904	68	5234
2026-01-14 12:59:55.22	218.80	12.49	-48.3	-51.6	20.9	6.05e-01	0	43	0	111673344	68	5162
2026-01-14 12:59:56.20	218.95	12.57	-48.4	-51.7	20.8	6.06e-01	0	43	0	113246208	68	5228
2026-01-14 12:59:57.19	219.11	12.65	-48.3	-51.5	20.9	6.07e-01	0	43	0	115343360	68	5134
2026-01-14 12:59:58.19	219.26	12.72	-48.3	-51.5	20.9	6.06e-01	0	43	0	116916224	68	5157
2026-01-14 12:59:59.18	219.42	12.80	-48.3	-51.5	20.9	6.07e-01	0	43	0	119013376	68	5146
2026-01-14 13:00:00.17	219.57	12.88	-48.3	-51.5	20.9	6.07e-01	0	43	0	120586240	68	5151
2026-01-14 13:00:01.17	219.73	12.96	-48.3	-51.4	21.1	6.08e-01	0	43	0	122683392	68	5079
2026-01-14 13:00:02.17	219.89	13.03	-48.3	-51.4	21.0	6.07e-01	0	43	0	124780544	68	5093
2026-01-14 13:00:03.22	220.06	13.11	-48.2	-51.4	21.1	6.06e-01	0	43	0	126353408	68	5078
2026-01-14 13:00:04.14	220.21	13.19	-48.2	-51.4	21.1	6.09e-01	0	43	0	128450560	68	5045
2026-01-14 13:00:05.28	220.39	13.28	-48.2	-51.3	21.2	6.06e-01	0	43	0	130547712	68	5006
2026-01-14 13:00:06.13	220.53	13.34	-48.2	-51.3	21.2	6.07e-01	0	43	0	132120576	68	5009
2026-01-14 13:00:07.47	220.75	13.45	-48.1	-51.3	21.2	6.07e-01	0	43	0	134742016	68	4985
2026-01-14 13:00:08.18	220.87	13.50	-48.1	-51.3	21.2	6.07e-01	0	43	0	135790592	68	5000
2026-01-14 13:00:09.46	221.08	13.60	-48.2	-51.4	21.1	6.05e-01	0	43	0	138412032	68	5085
2026-01-14 13:00:10.18	221.20	13.66	-48.2	-51.4	21.1	6.07e-01	0	43	0	139460608	68	5060
2026-01-14 13:00:11.46	221.42	13.76	-48.2	-51.4	21.1	6.07e-01	0	43	0	142082048	68	5068
2026-01-14 13:00:12.19	221.54	13.82	-48.2	-51.5	21.0	6.07e-01	0	43	0	143130624	68	5105
2026-01-14 13:00:13.47	221.76	13.92	-48.1	-51.2	21.3	6.07e-01	0	43	0	145752064	68	4943
2026-01-14 13:00:14.21	221.88	13.97	-48.1	-51.2	21.3	6.07e-01	0	43	0	147324928	68	4957
2026-01-14 13:00:15.49	222.10	14.08	-48.1	-51.3	21.2	6.08e-01	0	43	0	149422080	68	5008
2026-01-14 13:00:16.20	222.23	14.13	-48.2	-51.4	21.1	6.08e-01	0	43	0	150994944	68	5067
2026-01-14 13:00:17.48	222.45	14.23	-48.0	-51.2	21.3	6.08e-01	0	43	0	153092096	68	4951
2026-01-14 13:00:18.18	222.57	14.29	-48.1	-51.2	21.3	6.09e-01	0	43	0	154664960	68	4976
2026-01-14 13:00:19.48	222.80	14.39	-48.1	-51.3	21.2	6.08e-01	0	43	0	156762112	68	5008
2026-01-14 13:00:20.19	222.92	14.45	-48.0	-51.1	21.4	6.07e-01	0	43	0	158334976	68	4903
2026-01-14 13:00:21.47	223.15	14.55	-48.1	-51.2	21.3	6.07e-01	0	43	0	160956416	68	4947
2026-01-14 13:00:22.18	223.28	14.60	-48.0	-51.1	21.4	6.06e-01	0	43	0	162004992	68	4890
2026-01-14 13:00:23.54	223.52	14.71	-47.8	-50.9	21.5	6.06e-01	0	43	0	164626432	67	5051
2026-01-14 13:00:24.25	223.65	14.77	-47.8	-50.9	21.5	6.08e-01	0	43	0	166199296	67	5052
2026-01-14 13:00:25.53	223.88	14.87	-47.9	-50.9	21.5	6.09e-01	0	43	0	168296448	67	5070
2026-01-14 13:00:26.24	224.01	14.92	-47.9	-50.9	21.5	6.07e-01	0	43	0	169869312	67	5061
2026-01-14 13:00:27.53	224.25	15.03	-47.9	-50.9	21.5	6.04e-01	0	43	0	171966464	67	5092
2026-01-14 13:00:28.26	224.38	15.08	-47.9	-50.9	21.5	6.09e-01	0	43	0	173539328	67	5056
2026-01-14 13:00:29.71	224.65	15.20	-47.9	-51.0	21.5	6.10e-01	0	43	0	176160768	67	5115
2026-01-14 13:00:30.42	224.78	15.26	-48.0	-51.0	21.4	6.07e-01	0	43	0	177733632	67	5140
2026-01-14 13:00:31.70	225.02	15.36	-47.8	-50.8	21.6	6.06e-01	0	43	0	179830784	67	5018
2026-01-14 13:00:32.41	225.16	15.41	-47.8	-50.8	21.7	6.08e-01	0	43	0	181403648	67	4992
2026-01-14 13:00:33.83	225.43	15.53	-47.8	-50.7	21.7	6.07e-01	0	43	0	184025088	67	4980
2026-01-14 13:00:34.54	225.56	15.58	-47.8	-50.8	21.6	6.06e-01	0	43	0	185073664	67	5036
2026-01-14 13:00:35.82	225.81	15.68	-47.8	-50.8	21.6	6.05e-01	0	43	0	187695104	67	5018
2026-01-14 13:00:36.55	225.95	15.74	-47.9	-50.8	21.6	6.07e-01	0	43	0	189267968	67	5028
2026-01-14 13:00:37.83	226.20	15.84	-47.9	-50.8	21.6	6.09e-01	0	43	0	191365120	67	5041
2026-01-14 13:00:38.54	226.34	15.90	-47.8	-50.8	21.6	6.05e-01	0	43	0	192937984	67	5003
2026-01-14 13:00:39.82	226.59	16.00	-47.9	-50.9	21.6	6.08e-01	0	43	0	195035136	67	5054
2026-01-14 13:00:40.56	226.73	16.06	-47.8	-50.8	21.7	6.08e-01	0	43	0	196608000	67	4991
2026-01-14 13:00:41.84	226.99	16.16	-47.9	-50.9	21.5	6.06e-01	0	43	0	198705152	67	5082
2026-01-14 13:00:42.56	227.13	16.22	-48.0	-51.0	21.5	6.08e-01	0	43	0	200278016	67	5122
2026-01-14 13:00:43.84	227.39	16.32	-47.8	-50.8	21.6	6.06e-01	0	43	0	202899456	67	5024
2026-01-14 13:00:44.57	227.53	16.38	-47.8	-50.9	21.6	6.06e-01	0	43	0	203948032	67	5055
2026-01-14 13:00:45.84	227.79	16.48	-47.8	-50.8	21.7	6.06e-01	0	43	0	206569472	67	4995
2026-01-14 13:00:46.74	227.97	16.55	-47.8	-50.8	21.6	6.07e-01	0	43	0	208142336	67	5005
2026-01-14 13:00:47.78	228.19	16.63	-47.8	-50.9	21.6	6.05e-01	0	43	0	210239488	67	5042
2026-01-14 13:00:49.08	228.46	16.73	-47.9	-50.9	21.6	6.08e-01	0	43	0	212336640	67	5067
2026-01-14 13:00:49.79	228.60	16.79	-47.8	-50.8	21.7	6.07e-01	0	43	0	213909504	67	4996
2026-01-14 13:00:51.43	228.95	16.92	-47.8	-50.7	21.7	6.08e-01	0	43	0	217055232	67	4976
2026-01-14 13:00:52.00	229.07	16.96	-47.8	-50.8	21.7	6.08e-01	0	43	0	218103808	67	5006
2026-01-14 13:00:53.69	229.42	17.10	-47.8	-50.8	21.7	6.07e-01	0	43	0	221249536	67	4993
2026-01-14 13:00:54.26	229.54	17.14	-47.8	-50.7	21.7	6.07e-01	0	43	0	222298112	67	4978
2026-01-14 13:00:56.00	229.92	17.28	-47.7	-50.7	21.8	6.08e-01	0	43	0	225443840	67	4959
2026-01-14 13:00:56.93	230.12	17.35	-47.7	-50.7	21.7	6.07e-01	0	43	0	227016704	67	4955
2026-01-14 13:00:57.92	230.33	17.43	-47.7	-50.7	21.8	6.06e-01	0	43	0	229113856	67	4952
2026-01-14 13:00:58.92	230.55	17.50	-47.8	-50.8	21.7	6.09e-01	0	43	0	231211008	67	4992
2026-01-14 13:00:59.92	230.77	17.58	-47.7	-50.7	21.8	6.08e-01	0	43	0	232783872	67	4942
2026-01-14 13:01:00.91	230.99	17.66	-47.7	-50.7	21.7	6.05e-01	0	43	0	234881024	67	4965
2026-01-14 13:01:01.91	231.21	17.74	-47.7	-50.7	21.8	6.08e-01	0	43	0	236453888	67	4950
2026-01-14 13:01:02.90	231.43	17.81	-47.7	-50.7	21.8	6.06e-01	0	43	0	238551040	67	4955
2026-01-14 13:01:03.90	231.65	17.89	-47.8	-50.8	21.7	6.07e-01	0	43	0	240123904	67	4989
2026-01-14 13:01:04.90	231.88	17.97	-47.8	-50.8	21.7	6.06e-01	0	43	0	242221056	67	4990
2026-01-14 13:01:06.13	232.15	18.06	-47.8	-50.7	21.8	6.06e-01	0	43	0	244318208	67	4957
2026-01-14 13:01:07.01	232.35	18.13	-47.8	-50.7	21.8	6.06e-01	0	43	0	245891072	67	4965
2026-01-14 13:01:08.15	232.61	18.22	-47.8	-50.7	21.8	6.07e-01	0	43	0	248512512	67	4965
2026-01-14 13:01:09.07	232.83	18.29	-47.7	-50.7	21.8	6.04e-01	0	43	0	250085376	67	4938
2026-01-14 13:01:10.28	233.11	18.38	-47.7	-50.7	21.8	6.06e-01	0	43	0	252182528	67	4966
2026-01-14 13:01:11.13	233.30	18.45	-47.7	-50.8	21.7	6.08e-01	0	43	0	253755392	67	5000
2026-01-14 13:01:12.47	233.62	18.55	-47.6	-50.7	21.8	6.08e-01	0	43	0	256376832	67	4930
2026-01-14 13:01:13.18	233.78	18.60	-47.7	-50.7	21.8	6.09e-01	0	43	0	257425408	67	4983
2026-01-14 13:01:14.67	234.13	18.72	-47.7	-50.8	21.7	6.09e-01	0	43	0	260571136	67	5013
2026-01-14 13:01:15.65	234.37	18.79	-47.8	-50.8	21.7	6.08e-01	0	43	0	262144000	67	5038
2026-01-14 13:01:16.96	234.68	18.89	-47.8	-50.8	21.7	6.10e-01	0	43	0	264765440	67	5014
2026-01-14 13:01:17.70	234.86	18.94	-47.9	-50.8	21.7	6.05e-01	0	43	0	266338304	67	5032
2026-01-14 13:01:19.31	235.25	19.06	-47.8	-50.8	21.7	6.07e-01	0	43	0	268959744	67	5004
2026-01-14 13:01:19.88	235.39	19.11	-47.8	-50.7	21.8	6.07e-01	0	43	0	270008320	67	4961
2026-01-14 13:01:21.79	235.85	19.25	-47.8	-50.7	21.7	6.07e-01	0	43	0	273678336	67	4979
2026-01-14 13:01:22.36	235.99	19.29	-47.7	-50.7	21.8	6.06e-01	0	43	0	274726912	67	4933
2026-01-14 13:01:24.07	236.42	19.42	-47.7	-50.7	21.8	6.05e-01	0	43	0	277872640	67	4938
2026-01-14 13:01:24.63	236.56	19.46	-47.8	-50.7	21.8	6.07e-01	0	43	0	278921216	67	4974
2026-01-14 13:01:26.34	236.99	19.58	-47.7	-50.7	21.8	6.07e-01	0	43	0	282591232	67	4952
2026-01-14 13:01:26.91	237.13	19.62	-47.8	-50.7	21.8	6.07e-01	0	43	0	283639808	67	4979
2026-01-14 13:01:28.61	237.56	19.75	-47.8	-50.8	21.7	6.07e-01	0	43	0	286785536	67	5027
2026-01-14 13:01:29.18	237.70	19.79	-47.8	-50.8	21.7	6.08e-01	0	43	0	287834112	67	5029
2026-01-14 13:01:30.89	238.14	19.91	-47.7	-50.8	21.8	6.09e-01	0	44	0	290979840	67	4995
2026-01-14 13:01:31.45	238.29	19.95	-47.7	-50.8	21.8	6.07e-01	0	43	0	292028416	67	4996
2026-01-14 13:01:33.16	238.73	20.07	-47.8	-50.9	21.6	6.08e-01	0	44	0	295174144	67	5058
2026-01-14 13:01:33.73	238.88	20.11	-47.7	-50.7	21.8	6.07e-01	0	43	0	296222720	67	4975
2026-01-14 13:01:35.44	239.32	20.23	-47.8	-50.8	21.7	6.07e-01	0	43	0	299368448	67	5024
2026-01-14 13:01:36.00	239.47	20.27	-47.9	-50.9	21.6	6.08e-01	0	43	0	300417024	67	5090
2026-01-14 13:01:37.74	239.93	20.39	-47.9	-50.9	21.6	6.08e-01	0	43	0	303562752	67	5096
2026-01-14 13:01:38.31	240.08	20.43	-47.9	-50.9	21.6	6.07e-01	0	43	0	304611328	67	5066
2026-01-14 13:01:40.00	240.54	20.54	-48.0	-51.0	21.6	6.05e-01	0	43	0	307757056	67	5121
2026-01-14 13:01:40.73	240.73	20.59	-48.0	-51.0	21.6	6.06e-01	0	43	0	309329920	67	5133
2026-01-14 13:01:42.01	241.08	20.68	-47.8	-50.8	21.7	6.08e-01	0	43	0	311951360	67	5007
2026-01-14 13:01:42.97	241.34	20.74	-47.8	-50.7	21.8	6.06e-01	0	43	0	313524224	67	4966
2026-01-14 13:01:44.25	241.69	20.83	-47.9	-50.9	21.7	6.07e-01	0	43	0	316145664	67	5057
2026-01-14 13:01:44.99	241.89	20.88	-48.0	-50.9	21.6	6.06e-01	0	43	0	317194240	67	5094
2026-01-14 13:01:46.27	242.24	20.96	-48.0	-51.0	21.6	6.07e-01	0	44	0	319815680	67	5139
2026-01-14 13:01:47.06	242.46	21.01	-48.0	-51.0	21.6	6.06e-01	0	43	0	321388544	67	5151
2026-01-14 13:01:48.56	242.88	21.11	-48.0	-50.9	21.6	6.06e-01	0	43	0	324009984	67	5097
2026-01-14 13:01:49.27	243.07	21.16	-47.9	-50.9	21.7	6.06e-01	0	43	0	325582848	67	5059
2026-01-14 13:01:50.55	243.43	21.24	-48.1	-51.1	21.5	6.07e-01	0	43	0	327680000	67	5188
2026-01-14 13:01:51.68	243.75	21.31	-48.2	-51.2	21.4	6.07e-01	0	43	0	329777152	67	5227
2026-01-14 13:01:52.53	243.99	21.36	-48.0	-50.9	21.7	6.07e-01	0	44	0	331350016	67	5076
2026-01-14 13:01:53.67	244.31	21.43	-48.0	-50.9	21.7	6.07e-01	0	43	0	333447168	67	5070
2026-01-14 13:01:54.52	244.56	21.48	-48.0	-50.9	21.6	6.08e-01	0	43	0	335020032	67	5084
2026-01-14 13:01:55.66	244.88	21.55	-48.0	-50.9	21.7	6.06e-01	0	43	0	337117184	67	5086
2026-01-14 13:01:56.51	245.13	21.60	-48.0	-50.9	21.7	6.07e-01	0	43	0	339214336	67	5082
2026-01-14 13:01:57.65	245.46	21.67	-47.9	-50.9	21.6	6.05e-01	0	44	0	341311488	67	5088
2026-01-14 13:01:58.50	245.70	21.72	-47.9	-50.9	21.6	6.07e-01	0	44	0	342884352	67	5084
2026-01-14 13:01:59.64	246.03	21.79	-48.0	-51.0	21.5	6.09e-01	0	43	0	344981504	67	5152
2026-01-14 13:02:00.60	246.31	21.85	-48.0	-51.1	21.5	6.09e-01	0	43	0	346554368	67	5160
2026-01-14 13:02:01.77	246.66	21.91	-48.1	-51.2	21.4	6.07e-01	0	44	0	348651520	67	5250
2026-01-14 13:02:02.64	246.91	21.96	-48.0	-50.9	21.6	6.07e-01	0	44	0	350224384	67	5093
2026-01-14 13:02:03.77	247.25	22.03	-48.0	-51.0	21.6	6.09e-01	0	43	0	352321536	67	5103
2026-01-14 13:02:04.69	247.52	22.08	-48.0	-51.1	21.5	6.07e-01	0	44	0	354418688	67	5169
2026-01-14 13:02:05.84	247.86	22.14	-48.0	-51.1	21.5	6.07e-01	0	44	0	356515840	67	5199
2026-01-14 13:02:06.73	248.13	22.19	-48.0	-51.2	21.5	6.07e-01	0	43	0	358088704	67	5223
2026-01-14 13:02:07.87	248.47	22.25	-48.0	-51.1	21.5	6.07e-01	0	43	0	360185856	67	5180
2026-01-14 13:02:08.78	248.74	22.30	-48.0	-51.1	21.5	6.09e-01	0	44	0	361758720	67	5206
2026-01-14 13:02:09.95	249.10	22.36	-47.9	-51.1	21.5	6.08e-01	0	43	0	364380160	67	5169
2026-01-14 13:02:10.80	249.35	22.40	-48.0	-51.1	21.5	6.07e-01	0	43	0	365953024	67	5213
2026-01-14 13:02:12.14	249.76	22.47	-48.0	-51.0	21.6	6.07e-01	0	43	0	368050176	67	5155
2026-01-14 13:02:12.86	249.98	22.51	-48.1	-51.1	21.5	6.07e-01	0	44	0	369623040	67	5164
2026-01-14 13:02:14.34	250.43	22.58	-48.1	-51.2	21.4	6.06e-01	0	44	0	372244480	67	5224
2026-01-14 13:02:15.05	250.65	22.62	-48.1	-51.1	21.5	6.07e-01	0	43	0	373817344	67	5161
2026-01-14 13:02:16.39	251.06	22.68	-48.1	-51.1	21.5	6.06e-01	0	44	0	376438784	67	5172
2026-01-14 13:02:17.10	251.28	22.71	-48.1	-51.2	21.4	6.06e-01	0	44	0	377487360	67	5252
2026-01-14 13:02:18.46	251.71	22.78	-48.0	-51.1	21.5	6.05e-01	0	44	0	380108800	67	5170
2026-01-14 13:02:19.17	251.93	22.81	-47.9	-51.0	21.6	6.08e-01	0	44	0	381681664	67	5106
2026-01-14 13:02:20.54	252.36	22.87	-48.1	-51.2	21.4	6.05e-01	0	44	0	384303104	67	5240
2026-01-14 13:02:21.25	252.58	22.90	-48.0	-51.1	21.5	6.06e-01	0	43	0	385351680	67	5168
2026-01-14 13:02:22.53	252.98	22.96	-48.0	-51.0	21.6	6.07e-01	0	44	0	387448832	67	5147
2026-01-14 13:02:23.28	253.22	22.99	-48.1	-51.2	21.4	6.07e-01	0	43	0	389021696	67	5235
2026-01-14 13:02:24.56	253.62	23.04	-48.0	-51.1	21.5	6.07e-01	0	44	0	391643136	67	5186
2026-01-14 13:02:25.29	253.85	23.07	-47.9	-50.9	21.6	6.06e-01	0	43	0	392691712	67	5076
2026-01-14 13:02:26.57	254.26	23.12	-48.0	-51.0	21.6	6.07e-01	0	43	0	395313152	67	5150
2026-01-14 13:02:27.28	254.48	23.15	-48.1	-51.2	21.4	6.07e-01	0	43	0	396361728	67	5238
2026-01-14 13:02:28.78	254.96	23.21	-48.0	-51.0	21.6	6.08e-01	0	43	0	399507456	67	5109
2026-01-14 13:02:29.49	255.19	23.24	-48.0	-51.1	21.6	6.08e-01	0	44	0	400556032	67	5175
2026-01-14 13:02:30.77	255.60	23.28	-48.1	-51.2	21.4	6.05e-01	0	43	0	403177472	67	5230
2026-01-14 13:02:31.48	255.83	23.31	-48.0	-51.1	21.5	6.06e-01	0	44	0	404226048	67	5208
2026-01-14 13:02:32.76	256.24	23.35	-48.0	-51.2	21.4	6.05e-01	0	43	0	406847488	67	5267
2026-01-14 13:02:33.47	256.47	23.38	-48.0	-51.2	21.4	6.04e-01	0	44	0	408420352	67	5259
2026-01-14 13:02:34.75	256.89	23.42	-48.0	-51.2	21.4	6.07e-01	0	43	0	410517504	67	5264
2026-01-14 13:02:35.46	257.12	23.44	-48.0	-51.2	21.4	6.07e-01	0	43	0	412090368	67	5219
2026-01-14 13:02:36.74	257.53	23.48	-48.0	-51.0	21.6	6.07e-01	0	43	0	414187520	67	5158
2026-01-14 13:02:37.47	257.77	23.51	-47.9	-51.0	21.6	6.06e-01	0	43	0	415760384	67	5112
2026-01-14 13:02:38.75	258.19	23.55	-48.0	-51.1	21.5	6.03e-01	0	44	0	418381824	67	5205
2026-01-14 13:02:39.47	258.42	23.57	-48.0	-51.1	21.5	6.06e-01	0	43	0	419430400	67	5192
2026-01-14 13:02:40.75	258.84	23.60	-48.2	-51.3	21.3	6.07e-01	0	43	0	422051840	67	5303
2026-01-14 13:02:41.47	259.08	23.62	-48.1	-51.2	21.4	6.07e-01	0	44	0	423100416	67	5253
2026-01-14 13:02:42.75	259.50	23.66	-48.0	-51.0	21.6	6.07e-01	0	43	0	425721856	67	5158
2026-01-14 13:02:43.48	259.74	23.67	-48.0	-50.9	21.6	6.07e-01	0	43	0	426770432	67	5096
2026-01-14 13:02:44.76	260.16	23.71	-47.9	-50.9	21.7	6.09e-01	0	43	0	429391872	67	5071
2026-01-14 13:02:45.66	260.46	23.73	-47.9	-51.0	21.6	6.07e-01	0	44	0	430964736	67	5141
2026-01-14 13:02:46.99	260.90	23.76	-48.0	-51.1	21.5	6.09e-01	0	43	0	433586176	67	5214
2026-01-14 13:02:47.70	261.14	23.77	-48.0	-51.2	21.4	6.05e-01	0	43	0	435159040	67	5252
2026-01-14 13:02:48.98	261.56	23.80	-48.0	-51.1	21.5	6.08e-01	0	43	0	437256192	67	5165
2026-01-14 13:02:49.72	261.81	23.81	-47.9	-50.9	21.7	6.07e-01	0	44	0	438829056	67	5072
2026-01-14 13:02:51.00	262.23	23.84	-48.0	-51.0	21.6	6.07e-01	0	43	0	440926208	67	5126
2026-01-14 13:02:51.71	262.47	23.85	-48.1	-51.1	21.5	6.06e-01	0	43	0	442499072	67	5196
2026-01-14 13:02:52.98	262.89	23.87	-48.0	-51.1	21.5	6.08e-01	0	43	0	444596224	67	5173
2026-01-14 13:02:53.69	263.13	23.88	-48.0	-51.1	21.5	6.07e-01	0	44	0	446169088	67	5189
2026-01-14 13:02:54.97	263.56	23.90	-48.0	-51.1	21.5	6.07e-01	0	43	0	448790528	67	5190
2026-01-14 13:02:55.71	263.81	23.91	-48.0	-51.0	21.6	6.06e-01	0	43	0	449839104	67	5147
2026-01-14 13:02:57.05	264.25	23.93	-48.1	-51.1	21.5	6.07e-01	0	43	0	452460544	67	5183
2026-01-14 13:02:57.76	264.49	23.94	-48.2	-51.2	21.5	6.07e-01	0	43	0	454033408	67	5246
2026-01-14 13:02:59.12	264.95	23.95	-48.1	-51.1	21.5	6.08e-01	0	44	0	456130560	67	5167
2026-01-14 13:02:59.83	265.19	23.96	-48.0	-51.0	21.6	6.05e-01	0	44	0	457703424	67	5145
2026-01-14 13:03:01.11	265.62	23.97	-53.4	-73.7	3.8	7.42e-01	0	43	104	459276288	78	37111
2026-01-14 13:03:01.82	265.85	23.97	-50.2	-72.5	3.9	7.43e-01	0	44	104	459276288	71	48682
2026-01-14 13:03:03.21	266.32	23.98	-49.9	-72.2	3.8	7.48e-01	0	44	104	459276288	71	46571
2026-01-14 13:03:03.92	266.56	23.99	-49.8	-72.1	3.8	7.47e-01	0	43	104	459276288	71	46353
2026-01-14 13:03:05.26	267.01	23.99	-49.9	-72.1	3.8	7.45e-01	0	43	104	459276288	71	46206
2026-01-14 13:03:05.97	267.25	24.00	-49.9	-72.1	3.8	7.46e-01	0	44	104	459276288	71	46369
2026-01-14 13:03:07.27	267.69	24.00	-49.9	-72.1	3.8	7.46e-01	0	43	104	459276288	71	46097
2026-01-14 13:03:07.98	267.93	24.00	-49.8	-72.1	3.8	7.47e-01	0	44	104	459276288	71	46233
2026-01-14 13:03:09.30	268.37	24.00	-49.9	-72.1	3.8	7.49e-01	0	44	104	459276288	71	46303
2026-01-14 13:03:10.01	268.61	24.00	-49.8	-72.1	3.8	7.45e-01	0	44	104	459276288	71	46206
2026-01-14 13:03:11.35	269.06	24.00	-49.8	-72.1	3.8	7.49e-01	0	43	104	459276288	71	46289
2026-01-14 13:03:12.06	269.30	24.00	-49.8	-72.1	3.8	7.43e-01	0	44	104	459276288	71	46269
2026-01-14 13:03:13.34	269.73	24.00	-49.8	-72.1	3.8	7.48e-01	0	44	104	459276288	71	46065
2026-01-14 13:03:14.05	269.97	23.99	-49.8	-72.1	3.8	7.50e-01	0	44	104	459276288	71	46239
2026-01-14 13:03:15.32	270.40	23.99	-49.9	-72.1	3.8	7.45e-01	0	43	104	459276288	71	46185
2026-01-14 13:03:16.03	270.63	23.98	-49.9	-72.1	3.8	7.48e-01	0	43	104	459276288	71	46274
2026-01-14 13:03:17.31	271.06	23.97	-49.8	-72.1	3.8	7.45e-01	0	44	104	459276288	71	46215
2026-01-14 13:03:18.03	271.31	23.97	-49.8	-72.1	3.8	7.43e-01	0	44	104	459276288	71	46084
2026-01-14 13:03:19.45	271.78	23.95	-49.9	-72.1	3.8	7.49e-01	0	44	104	459276288	71	46146
2026-01-14 13:03:20.16	272.02	23.95	-49.8	-72.1	3.8	7.45e-01	0	44	104	459276288	71	46059
2026-01-14 13:03:21.49	272.47	23.93	-49.9	-72.1	3.8	7.46e-01	0	44	104	459276288	71	46147
2026-01-14 13:03:22.20	272.70	23.92	-49.8	-72.1	3.8	7.45e-01	0	44	104	459276288	71	46425
2026-01-14 13:03:23.54	273.15	23.91	-49.8	-72.1	3.8	7.48e-01	0	44	104	459276288	71	46236
2026-01-14 13:03:24.25	273.39	23.90	-49.8	-72.1	3.8	7.44e-01	0	43	104	459276288	71	46136
2026-01-14 13:03:25.59	273.84	23.88	-49.8	-72.1	3.8	7.45e-01	0	44	104	459276288	71	46300
2026-01-14 13:03:26.30	274.07	23.86	-49.8	-72.1	3.8	7.46e-01	0	44	104	459276288	71	46257
2026-01-14 13:03:27.62	274.51	23.84	-49.9	-72.1	3.8	7.49e-01	0	43	104	459276288	71	46245
2026-01-14 13:03:28.33	274.75	23.83	-49.8	-72.1	3.8	7.46e-01	0	44	104	459276288	71	46108
2026-01-14 13:03:29.61	275.17	23.81	-49.8	-72.1	3.8	7.45e-01	0	44	104	459276288	71	46102
2026-01-14 13:03:30.32	275.41	23.79	-49.8	-72.1	3.8	7.48e-01	0	44	104	459276288	71	46278
2026-01-14 13:03:31.60	275.83	23.76	-49.8	-72.1	3.8	7.46e-01	0	44	104	459276288	71	46203
2026-01-14 13:03:32.31	276.07	23.75	-49.8	-72.1	3.8	7.43e-01	0	44	104	459276288	71	46222
2026-01-14 13:03:33.59	276.49	23.72	-49.8	-72.1	3.8	7.43e-01	0	44	104	459276288	71	46250
2026-01-14 13:03:34.31	276.73	23.70	-49.8	-72.1	3.8	7.45e-01	0	44	104	459276288	71	46266
2026-01-14 13:03:35.59	277.15	23.67	-49.9	-72.1	3.8	7.47e-01	0	44	104	459276288	71	46181
2026-01-14 13:03:36.30	277.38	23.65	-49.9	-72.1	3.8	7.44e-01	0	44	104	459276288	71	46044
2026-01-14 13:03:37.58	277.80	23.62	-49.8	-72.0	3.8	7.47e-01	0	44	104	459276288	71	45870
2026-01-14 13:03:38.29	278.04	23.60	-49.8	-72.0	3.8	7.49e-01	0	44	104	459276288	71	45893
2026-01-14 13:03:39.57	278.45	23.56	-49.8	-72.1	3.8	7.50e-01	0	43	104	459276288	71	46045
2026-01-14 13:03:40.29	278.69	23.54	-49.9	-72.1	3.8	7.44e-01	0	44	104	459276288	71	46082
2026-01-14 13:03:41.57	279.11	23.51	-49.8	-72.1	3.8	7.47e-01	0	43	104	459276288	71	46199
2026-01-14 13:03:42.28	279.34	23.48	-48.2	-71.6	3.8	7.46e-01	0	44	104	459276288	69	49017
2026-01-14 13:03:43.56	279.75	23.44	-49.8	-72.1	3.8	7.45e-01	0	44	104	459276288	70	49077
2026-01-14 13:03:44.28	279.99	23.42	-49.8	-72.1	3.8	7.45e-01	0	44	104	459276288	70	48773
2026-01-14 13:03:45.56	280.40	23.38	-49.8	-72.1	3.8	7.49e-01	0	44	104	459276288	70	48932
2026-01-14 13:03:46.27	280.63	23.35	-49.7	-72.1	3.8	7.46e-01	0	44	104	459276288	70	48854
2026-01-14 13:03:47.59	281.05	23.31	-48.8	-71.6	3.8	7.46e-01	0	44	104	459276288	69	49210
2026-01-14 13:03:48.30	281.28	23.28	-48.9	-71.9	4.0	7.43e-01	0	44	104	459276288	69	50694
2026-01-14 13:03:49.58	281.69	23.23	-49.3	-72.2	3.9	7.42e-01	0	44	104	459276288	70	49349
2026-01-14 13:03:50.31	281.92	23.21	-49.2	-72.1	3.8	7.44e-01	0	44	104	459276288	70	48841
2026-01-14 13:03:51.66	282.35	23.15	-49.2	-72.2	3.8	7.49e-01	0	44	104	459276288	70	49514
2026-01-14 13:03:52.37	282.58	23.13	-49.4	-72.1	3.8	7.45e-01	0	44	104	459276288	70	48869
2026-01-14 13:03:53.65	282.98	23.08	-49.3	-72.1	3.8	7.53e-01	0	44	104	459276288	69	51987
2026-01-14 13:03:54.36	283.21	23.05	-48.9	-72.1	3.8	7.46e-01	0	44	104	459276288	69	51616
2026-01-14 13:03:55.64	283.61	22.99	-49.5	-71.3	3.8	7.45e-01	0	44	104	459276288	68	50155
2026-01-14 13:03:56.35	283.83	22.96	-47.6	-72.2	3.8	7.46e-01	0	44	104	459276288	70	49525
2026-01-14 13:03:57.62	284.23	22.91	-49.3	-71.4	3.8	7.48e-01	0	44	104	459276288	68	50528
2026-01-14 13:03:58.36	284.46	22.88	-49.8	-72.3	3.7	7.45e-01	0	44	104	459276288	70	50104
2026-01-14 13:03:59.64	284.86	22.82	-49.0	-71.8	3.8	7.46e-01	0	44	104	459276288	69	50163
2026-01-14 13:04:00.35	285.08	22.79	-49.1	-71.5	3.9	7.45e-01	0	44	104	459276288	68	51541
2026-01-14 13:04:01.63	285.48	22.73	-49.8	-71.8	3.9	7.45e-01	0	44	104	459276288	69	49965
2026-01-14 13:04:02.34	285.70	22.69	-49.4	-71.6	3.8	7.44e-01	0	44	104	459276288	69	49056
2026-01-14 13:04:03.62	286.09	22.63	-48.6	-72.1	3.8	7.49e-01	0	44	104	459276288	70	49101
2026-01-14 13:04:04.33	286.31	22.60	-49.5	-72.1	3.8	7.44e-01	0	44	104	459276288	70	48738
2026-01-14 13:04:05.61	286.70	22.54	-49.6	-72.2	3.8	7.50e-01	0	44	104	459276288	70	49277
2026-01-14 13:04:06.32	286.92	22.50	-49.1	-71.9	3.8	7.46e-01	0	44	104	459276288	69	50745
2026-01-14 13:04:07.59	287.30	22.44	-49.3	-71.6	3.8	7.43e-01	0	44	104	459276288	69	48908
2026-01-14 13:04:08.30	287.52	22.40	-48.4	-71.4	3.8	7.46e-01	0	44	104	459276288	68	50612
2026-01-14 13:04:09.58	287.90	22.34	-49.4	-72.2	3.8	7.50e-01	0	44	104	459276288	70	49784
2026-01-14 13:04:10.29	288.12	22.30	-46.5	-72.1	3.9	7.41e-01	0	44	104	459276288	70	49176
2026-01-14 13:04:11.57	288.50	22.23	-49.0	-71.0	3.8	7.52e-01	0	44	104	459276288	67	51437
2026-01-14 13:04:12.28	288.71	22.19	-49.7	-72.1	3.8	7.44e-01	0	44	104	459276288	70	48901
2026-01-14 13:04:13.56	289.09	22.12	-49.6	-72.1	3.8	7.45e-01	0	44	104	459276288	70	48886
2026-01-14 13:04:14.27	289.30	22.08	-49.2	-72.1	3.8	7.47e-01	0	44	104	459276288	70	49187
2026-01-14 13:04:15.55	289.68	22.01	-49.5	-72.2	3.8	7.49e-01	0	44	104	459276288	70	49454
2026-01-14 13:04:16.26	289.89	21.97	-49.8	-72.3	3.9	7.47e-01	0	44	104	459276288	70	50167
2026-01-14 13:04:17.53	290.26	21.90	-48.8	-71.7	3.9	7.48e-01	0	44	104	459276288	69	49685
2026-01-14 13:04:18.24	290.47	21.86	-49.5	-72.2	3.9	7.51e-01	0	44	104	459276288	70	49442
2026-01-14 13:04:19.55	290.85	21.79	-49.4	-72.2	3.9	7.51e-01	0	44	104	459276288	70	49776
2026-01-14 13:04:20.26	291.05	21.74	-49.6	-72.1	3.8	7.46e-01	0	44	104	459276288	70	48728
2026-01-14 13:04:21.57	291.43	21.67	-49.8	-71.3	3.8	7.46e-01	0	44	104	459276288	68	50075
2026-01-14 13:04:22.28	291.64	21.62	-49.8	-71.7	3.9	7.45e-01	0	44	104	459276288	69	49410
2026-01-14 13:04:23.56	292.00	21.55	-49.5	-72.1	3.8	7.44e-01	0	44	104	459276288	70	49089
2026-01-14 13:04:24.27	292.20	21.50	-49.3	-72.0	3.7	7.51e-01	0	44	104	459276288	69	51278
2026-01-14 13:04:25.55	292.57	21.43	-49.8	-71.7	3.8	7.42e-01	0	44	104	459276288	69	49815
2026-01-14 13:04:26.26	292.77	21.38	-49.8	-71.7	3.8	7.45e-01	0	44	104	459276288	69	49644
2026-01-14 13:04:27.53	293.13	21.30	-49.4	-72.1	3.7	7.46e-01	0	44	104	459276288	70	48937
2026-01-14 13:04:28.24	293.33	21.26	-49.4	-72.1	3.8	7.46e-01	0	44	104	459276288	70	48890
2026-01-14 13:04:29.52	293.68	21.18	-49.4	-71.8	3.8	7.45e-01	0	44	104	459276288	69	49984
2026-01-14 13:04:30.23	293.88	21.13	-47.4	-71.6	3.9	7.47e-01	0	44	104	459276288	69	49172
2026-01-14 13:04:31.51	294.23	21.05	-49.8	-71.6	3.8	7.46e-01	0	44	104	459276288	69	49167
2026-01-14 13:04:32.22	294.43	21.01	-49.8	-71.6	3.8	7.43e-01	0	44	104	459276288	69	49135
2026-01-14 13:04:33.50	294.78	20.92	-49.6	-72.1	3.8	7.48e-01	0	44	104	459276288	70	48908
2026-01-14 13:04:34.21	294.98	20.88	-49.6	-72.1	3.8	7.44e-01	0	44	104	459276288	70	48855
2026-01-14 13:04:35.53	295.33	20.79	-49.7	-72.1	3.8	7.48e-01	0	44	104	459276288	70	48847
2026-01-14 13:04:36.24	295.53	20.74	-50.1	-72.2	3.8	7.50e-01	0	44	104	459276288	70	49715
2026-01-14 13:04:37.60	295.89	20.65	-49.8	-72.1	3.8	7.42e-01	0	44	104	459276288	70	48996
2026-01-14 13:04:38.31	296.08	20.61	-49.5	-72.2	3.9	7.47e-01	0	44	104	459276288	70	49521
2026-01-14 13:04:39.59	296.43	20.52	-49.9	-71.9	3.9	7.51e-01	0	44	104	459276288	69	50495
2026-01-14 13:04:40.31	296.62	20.47	-49.6	-71.7	3.8	7.45e-01	0	44	104	459276288	69	49705
2026-01-14 13:04:41.59	296.96	20.38	-49.6	-72.1	3.8	7.46e-01	0	44	104	459276288	70	48749
2026-01-14 13:04:42.30	297.14	20.33	-49.8	-72.1	3.8	7.45e-01	0	44	104	459276288	70	48898
2026-01-14 13:04:43.58	297.48	20.25	-49.8	-72.1	3.8	7.42e-01	0	44	104	459276288	70	49014
2026-01-14 13:04:44.30	297.67	20.20	-49.8	-72.1	3.8	7.49e-01	0	44	104	459276288	70	49046
2026-01-14 13:04:45.58	298.00	20.11	-49.8	-72.2	3.7	7.47e-01	0	44	104	459276288	70	49777
2026-01-14 13:04:46.31	298.19	20.06	-49.8	-71.7	3.8	7.47e-01	0	44	104	459276288	69	49472
2026-01-14 13:04:47.87	298.59	19.95	-49.3	-72.1	3.8	7.44e-01	0	44	104	459276288	70	48995
2026-01-14 13:04:48.57	298.77	19.90	-49.5	-72.1	3.8	7.47e-01	0	44	104	459276288	70	48831
2026-01-14 13:04:49.85	299.09	19.81	-49.8	-72.1	3.8	7.46e-01	0	44	104	459276288	70	48770
2026-01-14 13:04:50.56	299.27	19.75	-49.8	-72.1	3.9	7.48e-01	0	44	104	459276288	70	48941
2026-01-14 13:04:51.84	299.60	19.66	-49.8	-72.1	3.9	7.46e-01	0	44	104	459276288	70	48721
2026-01-14 13:04:52.55	299.77	19.61	-49.5	-72.1	3.8	7.46e-01	0	44	104	459276288	70	49240
2026-01-14 13:04:53.83	300.09	19.52	-49.8	-72.1	3.8	7.46e-01	0	44	104	459276288	70	48854
2026-01-14 13:04:54.59	300.28	19.46	-49.6	-72.1	3.8	7.47e-01	0	44	104	459276288	70	49165
2026-01-14 13:04:55.86	300.60	19.37	-49.6	-72.2	3.9	7.43e-01	0	44	104	459276288	70	49390
2026-01-14 13:04:56.64	300.79	19.31	-49.8	-72.2	3.8	7.50e-01	0	44	104	459276288	70	49764
2026-01-14 13:04:57.92	301.10	19.22	-49.4	-72.1	3.8	7.49e-01	0	44	104	459276288	70	48743
2026-01-14 13:04:58.69	301.29	19.16	-49.6	-72.1	3.8	7.42e-01	0	44	104	459276288	70	48850
2026-01-14 13:04:59.97	301.60	19.07	-49.6	-72.2	3.8	7.48e-01	0	44	104	459276288	70	49471
2026-01-14 13:05:00.68	301.77	19.02	-49.7	-72.1	3.9	7.44e-01	0	44	104	459276288	70	48865
2026-01-14 13:05:01.96	302.08	18.92	-49.6	-72.1	3.8	7.46e-01	0	44	104	459276288	70	48975
2026-01-14 13:05:02.68	302.25	18.87	-49.6	-72.3	3.8	7.46e-01	0	44	104	459276288	70	49897
2026-01-14 13:05:03.96	302.55	18.77	-49.8	-72.0	3.8	7.45e-01	0	44	104	459276288	69	51345
2026-01-14 13:05:04.87	302.77	18.70	-49.7	-72.1	3.8	7.45e-01	0	44	104	459276288	70	48920
2026-01-14 13:05:06.20	303.08	18.60	-49.7	-72.1	3.8	7.46e-01	0	44	104	459276288	70	48761
2026-01-14 13:05:06.92	303.25	18.55	-49.6	-72.1	3.8	7.48e-01	0	44	104	459276288	70	48798
2026-01-14 13:05:08.53	303.62	18.43	-49.5	-72.1	3.8	7.41e-01	0	44	104	459276288	70	48815
2026-01-14 13:05:09.10	303.75	18.39	-49.8	-72.1	3.8	7.48e-01	0	44	104	459276288	70	49112
2026-01-14 13:05:10.80	304.14	18.26	-49.6	-72.2	3.8	7.51e-01	0	44	104	459276288	70	49818
2026-01-14 13:05:11.45	304.29	18.21	-49.5	-72.1	3.8	7.46e-01	0	44	104	459276288	70	48890
2026-01-14 13:05:12.87	304.61	18.10	-49.3	-72.0	3.8	7.47e-01	0	44	104	459276288	70	48668
2026-01-14 13:05:13.58	304.77	18.04	-49.4	-72.1	3.8	7.47e-01	0	44	104	459276288	70	48711
2026-01-14 13:05:14.86	305.06	17.95	-49.6	-72.1	3.8	7.45e-01	0	44	104	459276288	70	48763
2026-01-14 13:05:15.57	305.22	17.89	-49.7	-72.1	3.8	7.45e-01	0	44	104	459276288	70	48828
2026-01-14 13:05:16.85	305.50	17.79	-49.5	-72.1	3.8	7.46e-01	0	44	104	459276288	70	48809
2026-01-14 13:05:17.56	305.66	17.74	-49.3	-72.1	3.8	7.45e-01	0	44	104	459276288	70	49016
2026-01-14 13:05:18.84	305.94	17.64	-49.8	-72.1	3.8	7.47e-01	0	44	104	459276288	70	49021
2026-01-14 13:05:19.55	306.09	17.59	-49.4	-72.2	3.8	7.49e-01	0	44	104	459276288	70	49466
2026-01-14 13:05:20.82	306.37	17.49	-49.8	-72.1	3.8	7.47e-01	0	44	104	459276288	70	48765
2026-01-14 13:05:21.53	306.52	17.43	-49.5	-72.2	3.9	7.47e-01	0	44	104	459276288	70	49371
2026-01-14 13:05:22.83	306.80	17.33	-49.5	-72.1	3.8	7.48e-01	0	44	104	459276288	70	49199
2026-01-14 13:05:23.54	306.95	17.28	-49.7	-72.1	3.8	7.46e-01	0	44	104	459276288	70	48738
2026-01-14 13:05:24.82	307.23	17.18	-49.8	-72.1	3.8	7.46e-01	0	44	104	459276288	70	48718
2026-01-14 13:05:25.52	307.37	17.12	-49.7	-72.2	3.8	7.47e-01	0	44	104	459276288	70	49705
2026-01-14 13:05:26.80	307.64	17.02	-49.5	-72.2	3.9	7.46e-01	0	44	104	459276288	70	49623
2026-01-14 13:05:27.51	307.79	16.97	-49.8	-72.1	3.8	7.46e-01	0	44	104	459276288	70	48841
2026-01-14 13:05:28.79	308.06	16.87	-49.5	-72.2	3.7	7.43e-01	0	44	104	459276288	70	49391
2026-01-14 13:05:29.50	308.20	16.81	-49.3	-72.1	3.8	7.49e-01	0	44	104	459276288	70	48788
2026-01-14 13:05:30.78	308.47	16.71	-49.7	-72.1	3.8	7.45e-01	0	44	104	459276288	70	48943
2026-01-14 13:05:31.49	308.61	16.66	-49.7	-72.1	3.8	7.45e-01	0	44	104	459276288	70	48969
2026-01-14 13:05:32.77	308.87	16.56	-49.8	-72.1	3.8	7.45e-01	0	44	104	459276288	70	48986
2026-01-14 13:05:33.48	309.02	16.50	-49.8	-72.2	3.8	7.44e-01	0	44	104	459276288	70	49296
2026-01-14 13:05:34.75	309.27	16.40	-49.8	-72.1	3.8	7.44e-01	0	44	104	459276288	70	49063
2026-01-14 13:05:35.46	309.42	16.35	-49.6	-72.2	3.9	7.53e-01	0	44	104	459276288	70	49322
2026-01-14 13:05:36.74	309.67	16.24	-49.8	-72.1	3.8	7.45e-01	0	44	104	459276288	70	48999
2026-01-14 13:05:37.69	309.86	16.17	-49.7	-72.0	3.7	7.43e-01	0	44	104	459276288	69	51019
2026-01-14 13:05:38.68	310.06	16.09	-49.3	-72.1	3.8	7.45e-01	0	44	104	459276288	70	49103
2026-01-14 13:05:39.68	310.25	16.01	-49.8	-71.9	3.8	7.45e-01	0	44	104	459276288	69	50605
2026-01-14 13:05:40.67	310.44	15.94	-49.8	-72.1	3.8	7.46e-01	0	44	104	459276288	70	48784
2026-01-14 13:05:41.66	310.64	15.86	-49.4	-72.1	3.8	7.46e-01	0	44	104	459276288	70	48883
2026-01-14 13:05:42.66	310.83	15.78	-48.7	-72.1	3.7	7.47e-01	0	44	104	459276288	70	48870
2026-01-14 13:05:43.65	311.02	15.70	-47.6	-72.1	3.8	7.45e-01	0	44	104	459276288	70	48931
2026-01-14 13:05:44.64	311.21	15.62	-49.7	-72.2	3.8	7.41e-01	0	44	104	459276288	70	49674
2026-01-14 13:05:45.64	311.40	15.55	-49.7	-72.0	3.8	7.47e-01	0	44	104	459276288	70	48619
2026-01-14 13:05:46.63	311.58	15.47	-49.6	-72.1	3.8	7.46e-01	0	44	104	459276288	70	48916
2026-01-14 13:05:47.63	311.77	15.39	-45.8	-72.1	3.9	7.43e-01	0	44	104	459276288	70	48747
2026-01-14 13:05:48.62	311.96	15.31	-49.6	-71.9	3.8	7.46e-01	0	44	104	459276288	69	50771
2026-01-14 13:05:49.62	312.14	15.23	-49.8	-72.1	3.8	7.44e-01	0	44	104	459276288	70	48832
2026-01-14 13:05:50.61	312.33	15.16	-49.8	-72.1	3.8	7.44e-01	0	44	104	459276288	70	48717
2026-01-14 13:05:51.60	312.51	15.08	-49.8	-72.1	3.8	7.49e-01	0	44	104	459276288	70	48816
2026-01-14 13:05:52.60	312.69	15.00	-49.8	-72.1	3.8	7.45e-01	0	44	104	459276288	70	48721
2026-01-14 13:05:53.59	312.87	14.92	-49.5	-72.1	3.8	7.44e-01	0	44	104	459276288	70	49122
2026-01-14 13:05:54.58	313.05	14.84	-49.7	-72.1	3.8	7.47e-01	0	44	104	459276288	70	48853
2026-01-14 13:05:55.58	313.23	14.77	-49.6	-72.2	3.8	7.47e-01	0	44	104	459276288	70	49481
2026-01-14 13:05:56.57	313.41	14.69	-49.1	-72.1	3.8	7.47e-01	0	44	104	459276288	70	48880
2026-01-14 13:05:57.56	313.58	14.61	-49.8	-72.3	3.9	7.50e-01	0	44	104	459276288	70	50248
2026-01-14 13:05:58.56	313.76	14.53	-49.2	-71.6	3.9	7.45e-01	0	44	104	459276288	69	49119
2026-01-14 13:05:59.55	313.93	14.46	-49.8	-72.1	3.9	7.46e-01	0	44	104	459276288	70	48928
2026-01-14 13:06:00.55	314.11	14.38	-49.6	-72.1	3.8	7.41e-01	0	44	104	459276288	70	48719
2026-01-14 13:06:01.54	314.28	14.30	-49.8	-72.1	3.8	7.45e-01	0	44	104	459276288	70	49055
2026-01-14 13:06:02.60	314.46	14.22	-49.7	-71.7	3.8	7.48e-01	0	44	104	459276288	69	49333
2026-01-14 13:06:03.48	314.61	14.15	-50.0	-72.3	3.8	7.42e-01	0	44	104	459276288	70	50008
2026-01-14 13:06:04.62	314.81	14.06	-49.3	-72.1	3.8	7.46e-01	0	44	104	459276288	70	48886
2026-01-14 13:06:05.47	314.95	13.99	-49.7	-71.9	3.9	7.50e-01	0	44	104	459276288	69	50741
2026-01-14 13:06:06.61	315.15	13.90	-49.6	-72.1	3.9	7.42e-01	0	44	104	459276288	70	49232
2026-01-14 13:06:07.46	315.29	13.84	-49.5	-72.1	3.8	7.50e-01	0	44	104	459276288	70	48744
2026-01-14 13:06:08.59	315.48	13.75	-49.7	-72.0	3.8	7.44e-01	0	44	104	459276288	70	48605
2026-01-14 13:06:09.44	315.62	13.68	-49.5	-72.1	3.8	7.42e-01	0	44	104	459276288	70	48774
2026-01-14 13:06:10.58	315.81	13.60	-46.7	-71.6	3.8	7.45e-01	0	44	104	459276288	69	48940
2026-01-14 13:06:11.43	315.95	13.53	-48.6	-72.2	3.8	7.44e-01	0	44	104	459276288	70	49281
2026-01-14 13:06:12.57	316.14	13.44	-49.1	-72.2	3.8	7.45e-01	0	44	104	459276288	70	49320
2026-01-14 13:06:13.42	316.27	13.38	-49.1	-72.3	3.9	7.41e-01	0	44	104	459276288	70	50003
2026-01-14 13:06:14.56	316.46	13.29	-49.8	-72.1	3.8	7.49e-01	0	44	104	459276288	70	48730
2026-01-14 13:06:15.41	316.60	13.22	-49.8	-72.1	3.8	7.49e-01	0	44	104	459276288	70	48762
2026-01-14 13:06:16.54	316.78	13.14	-49.6	-72.1	3.8	7.44e-01	0	44	104	459276288	70	48799
2026-01-14 13:06:17.39	316.91	13.07	-49.6	-72.1	3.8	7.43e-01	0	44	104	459276288	70	49019
2026-01-14 13:06:18.53	317.09	12.98	-49.8	-72.1	3.8	7.43e-01	0	44	104	459276288	70	49177
2026-01-14 13:06:19.38	317.23	12.92	-49.8	-72.1	3.8	7.43e-01	0	44	104	459276288	70	48745
2026-01-14 13:06:20.52	317.41	12.83	-49.4	-72.4	3.9	7.46e-01	0	44	104	459276288	70	50603
2026-01-14 13:06:21.37	317.54	12.76	-49.2	-72.2	3.8	7.46e-01	0	44	104	459276288	70	49450
2026-01-14 13:06:22.51	317.71	12.68	-49.7	-71.6	3.8	7.47e-01	0	44	104	459276288	69	48905
2026-01-14 13:06:23.36	317.85	12.61	-49.8	-72.0	3.8	7.46e-01	0	44	104	459276288	70	48619
2026-01-14 13:06:24.49	318.02	12.53	-48.9	-72.0	3.8	7.45e-01	0	44	104	459276288	70	48586
2026-01-14 13:06:25.35	318.15	12.46	-49.8	-71.7	3.8	7.46e-01	0	44	104	459276288	69	49550
2026-01-14 13:06:26.48	318.32	12.37	-49.7	-71.8	3.8	7.46e-01	0	44	104	459276288	69	49905
2026-01-14 13:06:27.33	318.45	12.31	-49.5	-72.1	3.8	7.43e-01	0	44	104	459276288	70	49180
2026-01-14 13:06:28.47	318.62	12.22	-49.2	-72.3	3.7	7.46e-01	0	44	104	459276288	70	49954
2026-01-14 13:06:29.32	318.75	12.16	-49.4	-72.1	3.8	7.43e-01	0	44	104	459276288	70	48834
2026-01-14 13:06:30.50	318.92	12.07	-49.6	-72.1	3.8	7.45e-01	0	44	104	459276288	70	48786
2026-01-14 13:06:31.35	319.05	12.00	-49.6	-72.1	3.8	7.45e-01	0	44	104	459276288	70	48867
2026-01-14 13:06:32.59	319.23	11.91	-46.8	-72.1	3.8	7.45e-01	0	44	104	459276288	70	48812
2026-01-14 13:06:33.44	319.36	11.85	-49.8	-72.1	3.8	7.44e-01	0	44	104	459276288	70	49240
2026-01-14 13:06:34.64	319.53	11.76	-49.8	-72.1	3.8	7.46e-01	0	44	104	459276288	70	48897
2026-01-14 13:06:35.49	319.65	11.69	-49.1	-71.6	3.8	7.54e-01	0	44	104	459276288	67	55219
2026-01-14 13:06:36.69	319.83	11.60	-49.5	-72.1	3.9	7.47e-01	0	44	104	459276288	70	48810
2026-01-14 13:06:37.54	319.95	11.54	-49.5	-72.0	3.9	7.46e-01	0	44	104	459276288	70	48686
2026-01-14 13:06:38.74	320.12	11.45	-49.6	-72.1	3.8	7.47e-01	0	44	104	459276288	70	48731
2026-01-14 13:06:39.60	320.24	11.38	-49.8	-72.1	3.8	7.47e-01	0	44	104	459276288	70	48727
2026-01-14 13:06:40.74	320.40	11.30	-45.1	-72.1	3.9	7.40e-01	0	44	104	459276288	70	48947
2026-01-14 13:06:41.59	320.52	11.23	-49.7	-71.7	3.9	7.50e-01	0	44	104	459276288	69	49396
2026-01-14 13:06:42.72	320.68	11.15	-49.1	-71.3	3.8	7.43e-01	0	44	104	459276288	68	50174
2026-01-14 13:06:43.57	320.79	11.09	-49.7	-72.0	3.8	7.43e-01	0	44	104	459276288	70	48636
2026-01-14 13:06:44.71	320.95	11.00	-49.6	-72.1	3.8	7.49e-01	0	44	104	459276288	70	48739
2026-01-14 13:06:45.56	321.07	10.94	-49.6	-72.0	3.8	7.45e-01	0	44	104	459276288	70	48613
2026-01-14 13:06:46.70	321.22	10.85	-49.4	-72.0	3.8	7.47e-01	0	44	104	459276288	70	48694
2026-01-14 13:06:47.55	321.34	10.79	-49.8	-72.1	3.7	7.49e-01	0	44	104	459276288	70	49220
2026-01-14 13:06:48.68	321.49	10.71	-49.8	-72.1	3.8	7.51e-01	0	44	104	459276288	70	49023
2026-01-14 13:06:49.54	321.61	10.65	-49.7	-72.1	3.9	7.48e-01	0	44	104	459276288	70	48785
2026-01-14 13:06:50.67	321.76	10.56	-49.6	-72.0	3.9	7.44e-01	0	44	104	459276288	69	51156
2026-01-14 13:06:51.53	321.87	10.50	-49.5	-72.0	3.8	7.45e-01	0	44	104	459276288	70	48658
2026-01-14 13:06:52.66	322.02	10.42	-49.4	-72.0	3.8	7.43e-01	0	44	104	459276288	70	48657
2026-01-14 13:06:53.51	322.13	10.35	-49.5	-72.1	3.8	7.45e-01	0	44	104	459276288	70	48768
2026-01-14 13:06:54.70	322.29	10.27	-49.4	-72.1	3.9	7.50e-01	0	44	104	459276288	70	49089
2026-01-14 13:06:55.55	322.40	10.20	-49.8	-72.1	3.8	7.49e-01	0	44	104	459276288	70	49157
2026-01-14 13:06:56.75	322.55	10.12	-49.6	-72.0	3.7	7.45e-01	0	44	104	459276288	69	51112
2026-01-14 13:06:57.60	322.66	10.06	-49.0	-71.9	3.7	7.48e-01	0	44	104	459276288	68	53772
2026-01-14 13:06:58.74	322.81	9.97	-49.4	-71.8	3.8	7.47e-01	0	44	104	459276288	69	49892
2026-01-14 13:06:59.59	322.92	9.91	-49.3	-72.1	3.8	7.43e-01	0	44	104	459276288	70	48727
2026-01-14 13:07:00.72	323.06	9.83	-49.4	-72.1	3.8	7.46e-01	0	44	104	459276288	70	48860
2026-01-14 13:07:01.58	323.17	9.77	-48.2	-72.0	3.8	7.46e-01	0	44	104	459276288	69	51516
2026-01-14 13:07:02.71	323.31	9.69	-49.7	-71.5	3.9	7.47e-01	0	44	104	459276288	68	51423
2026-01-14 13:07:03.57	323.42	9.62	-49.7	-71.9	3.6	7.45e-01	0	44	104	459276288	68	53516
2026-01-14 13:07:04.70	323.56	9.54	-49.0	-72.1	3.8	7.45e-01	0	44	104	459276288	70	48898
2026-01-14 13:07:05.55	323.66	9.48	-49.2	-72.1	3.9	7.43e-01	0	44	104	459276288	70	49103
2026-01-14 13:07:06.69	323.80	9.40	-49.8	-72.0	3.8	7.47e-01	0	44	104	459276288	70	48640
2026-01-14 13:07:07.54	323.90	9.34	-49.7	-71.6	3.8	7.48e-01	0	44	104	459276288	69	48856
2026-01-14 13:07:08.68	324.04	9.26	-49.3	-72.0	3.8	7.45e-01	0	44	104	459276288	69	51500
2026-01-14 13:07:09.53	324.15	9.20	-49.8	-72.2	3.8	7.46e-01	0	44	104	459276288	70	49320
2026-01-14 13:07:10.66	324.28	9.12	-49.7	-71.8	3.9	7.49e-01	0	44	104	459276288	69	50039
2026-01-14 13:07:11.52	324.39	9.06	-49.0	-71.6	3.9	7.43e-01	0	44	104	459276288	69	49164
2026-01-14 13:07:12.65	324.52	8.98	-44.5	-72.2	3.8	7.45e-01	0	44	104	459276288	70	49378
2026-01-14 13:07:13.50	324.62	8.91	-45.1	-72.2	3.8	7.46e-01	0	44	104	459276288	70	49355
2026-01-14 13:07:14.64	324.76	8.83	-49.5	-72.1	3.7	7.46e-01	0	44	104	459276288	70	48773
2026-01-14 13:07:15.49	324.85	8.77	-49.3	-72.2	3.8	7.50e-01	0	44	104	459276288	70	49489
2026-01-14 13:07:16.63	324.99	8.69	-49.2	-72.0	3.9	7.51e-01	0	44	104	459276288	69	51572
2026-01-14 13:07:17.48	325.09	8.63	-49.5	-72.1	3.9	7.53e-01	0	44	104	459276288	69	52101
2026-01-14 13:07:18.62	325.22	8.55	-49.4	-72.2	3.8	7.48e-01	0	44	104	459276288	70	49499
2026-01-14 13:07:19.47	325.32	8.49	-49.4	-72.2	3.9	7.44e-01	0	44	104	459276288	70	49753
2026-01-14 13:07:20.60	325.45	8.42	-49.7	-71.7	3.8	7.50e-01	0	44	104	459276288	69	49691
2026-01-14 13:07:21.46	325.54	8.36	-49.2	-72.1	3.8	7.46e-01	0	44	104	459276288	70	48933
2026-01-14 13:07:22.59	325.67	8.28	-49.0	-72.1	3.8	7.44e-01	0	44	104	459276288	70	48981
2026-01-14 13:07:23.44	325.77	8.22	-49.2	-72.2	3.8	7.48e-01	0	44	104	459276288	70	49630
2026-01-14 13:07:24.58	325.90	8.14	-49.8	-72.1	3.9	7.44e-01	0	44	104	459276288	70	48824
2026-01-14 13:07:25.43	325.99	8.08	-49.1	-71.7	3.8	7.44e-01	0	44	104	459276288	69	49821
2026-01-14 13:07:26.58	326.12	8.00	-49.8	-72.1	3.9	7.46e-01	0	44	104	459276288	70	48958
2026-01-14 13:07:27.44	326.21	7.94	-49.8	-72.1	3.8	7.47e-01	0	44	104	459276288	70	49133
2026-01-14 13:07:28.65	326.35	7.86	-49.7	-72.2	3.9	7.44e-01	0	44	104	459276288	70	49602
2026-01-14 13:07:29.50	326.44	7.80	-49.0	-72.1	3.8	7.47e-01	0	44	104	459276288	70	48914
2026-01-14 13:07:30.70	326.57	7.72	-49.8	-72.1	3.8	7.47e-01	0	44	104	459276288	70	48835
2026-01-14 13:07:31.55	326.66	7.66	-49.5	-72.1	3.8	7.45e-01	0	44	104	459276288	70	49057
2026-01-14 13:07:32.75	326.79	7.58	-48.3	-71.7	3.8	7.47e-01	0	44	104	459276288	69	49728
2026-01-14 13:07:33.61	326.88	7.52	-49.0	-71.6	3.8	7.46e-01	0	44	104	459276288	69	48717
2026-01-14 13:07:34.74	327.00	7.44	-48.5	-72.2	3.7	7.45e-01	0	44	104	459276288	70	49308
2026-01-14 13:07:35.59	327.09	7.38	-49.8	-72.1	3.8	7.45e-01	0	44	104	459276288	70	49005
2026-01-14 13:07:36.73	327.21	7.31	-49.7	-72.2	3.8	7.48e-01	0	44	104	459276288	70	49693
2026-01-14 13:07:37.58	327.30	7.25	-49.8	-72.2	3.8	7.46e-01	0	44	104	459276288	70	49724
2026-01-14 13:07:38.94	327.45	7.16	-49.8	-71.6	3.8	7.52e-01	0	44	104	459276288	68	51818
2026-01-14 13:07:39.65	327.52	7.11	-48.4	-71.7	3.8	7.44e-01	0	44	104	459276288	69	49429
2026-01-14 13:07:40.93	327.65	7.02	-49.7	-72.2	3.8	7.51e-01	0	44	104	459276288	70	49438
2026-01-14 13:07:41.65	327.73	6.97	-49.7	-71.9	3.9	7.47e-01	0	44	104	459276288	69	50456
2026-01-14 13:07:42.93	327.86	6.89	-49.8	-72.2	3.9	7.45e-01	0	44	104	459276288	70	49468
2026-01-14 13:07:43.64	327.93	6.84	-49.8	-71.6	3.9	7.43e-01	0	44	104	459276288	69	49229
2026-01-14 13:07:44.92	328.06	6.76	-49.1	-71.7	3.7	7.45e-01	0	44	104	459276288	69	49682
2026-01-14 13:07:45.69	328.14	6.70	-49.8	-72.2	3.7	7.45e-01	0	44	104	459276288	70	49637
2026-01-14 13:07:46.97	328.27	6.62	-49.1	-72.3	3.9	7.47e-01	0	44	104	459276288	70	50208
2026-01-14 13:07:47.78	328.35	6.57	-49.8	-72.3	3.9	7.46e-01	0	44	104	459276288	70	49871
2026-01-14 13:07:48.91	328.46	6.49	-49.7	-71.7	3.7	7.45e-01	0	44	104	459276288	69	49809
2026-01-14 13:07:49.76	328.55	6.43	-49.8	-71.6	3.9	7.45e-01	0	44	104	459276288	69	49107
2026-01-14 13:07:50.90	328.66	6.36	-49.4	-71.8	3.9	7.47e-01	0	44	104	459276288	69	50045
2026-01-14 13:07:51.75	328.74	6.30	-49.1	-72.2	3.9	7.44e-01	0	44	104	459276288	70	49319
2026-01-14 13:07:52.89	328.85	6.23	-49.6	-71.9	3.9	7.47e-01	0	44	104	459276288	69	50866
2026-01-14 13:07:53.74	328.94	6.17	-49.8	-72.4	3.9	7.50e-01	0	44	104	459276288	70	50451
2026-01-14 13:07:54.87	329.05	6.10	-49.7	-72.2	3.9	7.48e-01	0	44	104	459276288	70	49820
2026-01-14 13:07:55.73	329.13	6.04	-48.4	-72.2	3.9	7.48e-01	0	44	104	459276288	70	49331
2026-01-14 13:07:56.86	329.24	5.97	-47.0	-72.1	3.9	7.43e-01	0	44	104	459276288	70	49025
2026-01-14 13:07:57.72	329.32	5.91	-49.1	-72.2	3.8	7.50e-01	0	44	104	459276288	70	49779
2026-01-14 13:07:58.85	329.43	5.84	-49.8	-72.2	3.9	7.43e-01	0	44	104	459276288	70	49504
2026-01-14 13:07:59.70	329.51	5.78	-49.8	-72.1	3.8	7.46e-01	0	44	104	459276288	70	49041
2026-01-14 13:08:00.84	329.62	5.71	-49.8	-72.2	3.8	7.44e-01	0	44	104	459276288	70	49611
2026-01-14 13:08:01.75	329.70	5.65	-49.7	-71.8	3.7	7.42e-01	0	44	104	459276288	69	50096
2026-01-14 13:08:02.76	329.80	5.58	-48.6	-71.0	3.7	7.47e-01	0	44	104	459276288	67	51113
2026-01-14 13:08:03.76	329.89	5.52	-49.8	-72.1	3.9	7.46e-01	0	44	104	459276288	70	49103
2026-01-14 13:08:04.75	329.98	5.46	-49.3	-71.6	3.8	7.48e-01	0	44	104	459276288	69	49066
2026-01-14 13:08:05.74	330.07	5.39	-49.0	-72.3	3.8	7.42e-01	0	44	104	459276288	70	49989
2026-01-14 13:08:06.74	330.16	5.33	-49.8	-71.7	3.8	7.48e-01	0	44	104	459276288	69	49453
2026-01-14 13:08:07.73	330.25	5.27	-49.3	-72.3	3.9	7.52e-01	0	44	104	459276288	70	50031
2026-01-14 13:08:09.12	330.38	5.18	-49.3	-71.7	3.8	7.48e-01	0	44	104	459276288	69	49721
2026-01-14 13:08:09.83	330.44	5.13	-49.8	-72.1	3.8	7.42e-01	0	44	104	459276288	70	49041
2026-01-14 13:08:11.10	330.56	5.05	-48.4	-72.2	3.8	7.45e-01	0	44	104	459276288	70	49662
2026-01-14 13:08:11.83	330.62	5.00	-49.1	-72.1	3.9	7.47e-01	0	44	104	459276288	70	49079

#Closed at: 2026-01-14 13:08:13
#Recorded file [459 MB]: D:/Data/31040_260114_155811.dat