passes_logs/2026/01/14/T1/T1__20260114_022641_FENGYUN_3G_rec.log

#Pass ID: 20260114_022641_FENGYUN 3G
#Satellite: FENGYUN 3G
#Configuration: FENGYUN 3G
#almurnet v.1.7.20251203
#Start time: 2026-01-14 02:26:42

#Version: 2.0.20230620
#Station: T1
#Location: 37.570604 lon 55.790049 lat
#TLE: 1 56232U 23055A   26013.24803668  .00022566  00000+0  35531-3 0  9992
#TLE: 2 56232  49.9941  64.9712 0004217  19.4523 340.6605 15.53433909155921

#Time	Az	El	Level	Level2	SNR	BER	BlckErr	Temp	State	Recorded	gain1	gain2
2026-01-14 02:26:42.09	255.65	4.97	-49.9	-69.3	3.8	8.47e-01	0	36	0	0	71	33407
2026-01-14 02:26:43.08	255.49	5.03	-49.9	-69.3	3.8	8.38e-01	0	36	104	0	71	33332
2026-01-14 02:26:44.07	255.33	5.08	-49.9	-69.3	3.8	8.47e-01	0	36	104	0	71	33327
2026-01-14 02:26:45.07	255.17	5.14	-49.9	-69.2	3.8	8.48e-01	0	36	104	0	71	33307
2026-01-14 02:26:46.06	255.00	5.20	-49.9	-69.3	3.8	8.48e-01	0	36	104	0	71	33377
2026-01-14 02:26:47.05	254.84	5.26	-49.9	-69.3	3.8	8.46e-01	0	36	104	0	71	33373
2026-01-14 02:26:48.04	254.68	5.31	-49.9	-69.3	3.8	8.48e-01	0	36	104	0	71	33313
2026-01-14 02:26:49.03	254.52	5.37	-49.9	-69.2	3.8	8.48e-01	0	36	104	0	71	33211
2026-01-14 02:26:50.03	254.35	5.43	-49.9	-69.2	3.8	8.48e-01	0	36	104	0	71	33173
2026-01-14 02:26:51.02	254.18	5.49	-49.9	-69.2	3.8	8.46e-01	0	36	104	0	71	33045
2026-01-14 02:26:52.01	254.02	5.54	-49.9	-69.2	3.8	8.46e-01	0	36	104	0	71	32975
2026-01-14 02:26:53.01	253.85	5.60	-49.9	-69.1	3.8	8.48e-01	0	37	104	0	71	32866
2026-01-14 02:26:54.00	253.68	5.66	-49.8	-69.2	3.8	8.46e-01	0	36	104	0	71	32956
2026-01-14 02:26:54.99	253.51	5.72	-49.9	-69.1	3.8	8.46e-01	0	37	104	0	71	32878
2026-01-14 02:26:55.99	253.33	5.78	-49.9	-69.2	3.8	8.46e-01	0	37	104	0	71	33161
2026-01-14 02:26:56.98	253.16	5.83	-49.9	-69.2	3.8	8.48e-01	0	37	104	0	71	33211
2026-01-14 02:26:57.97	252.99	5.89	-49.9	-69.2	3.8	8.48e-01	0	37	104	0	71	33247
2026-01-14 02:26:58.97	252.81	5.95	-49.9	-69.2	3.8	8.45e-01	0	37	104	0	71	33196
2026-01-14 02:26:59.96	252.64	6.01	-49.9	-69.2	3.8	8.48e-01	0	37	104	0	71	33029
2026-01-14 02:27:00.95	252.46	6.06	-49.9	-69.1	3.8	8.48e-01	0	37	104	0	71	32720
2026-01-14 02:27:01.95	252.29	6.12	-49.9	-69.1	3.8	8.48e-01	0	37	104	0	71	32556
2026-01-14 02:27:02.94	252.11	6.18	-49.9	-69.1	3.8	8.48e-01	0	37	104	0	71	32567
2026-01-14 02:27:03.93	251.93	6.24	-49.9	-69.1	3.8	8.47e-01	0	37	104	0	71	32733
2026-01-14 02:27:04.93	251.75	6.30	-49.8	-69.1	3.8	8.47e-01	0	37	104	0	71	32886
2026-01-14 02:27:05.92	251.57	6.35	-49.9	-69.2	3.8	8.46e-01	0	37	104	0	71	33105
2026-01-14 02:27:06.91	251.39	6.41	-49.9	-69.2	3.8	8.46e-01	0	37	104	0	71	33278
2026-01-14 02:27:07.90	251.20	6.47	-49.9	-69.2	3.8	8.46e-01	0	37	104	0	71	33012
2026-01-14 02:27:08.90	251.02	6.53	-49.9	-69.1	3.8	8.48e-01	0	37	104	0	71	32813
2026-01-14 02:27:09.89	250.83	6.58	-49.9	-69.0	3.8	8.46e-01	0	37	104	0	71	32386
2026-01-14 02:27:10.88	250.65	6.64	-49.9	-68.8	3.8	8.46e-01	0	37	104	0	71	31693
2026-01-14 02:27:11.88	250.46	6.70	-49.9	-68.8	3.8	8.47e-01	0	37	104	0	71	31456
2026-01-14 02:27:12.87	250.27	6.76	-49.8	-68.8	3.8	8.47e-01	0	37	104	0	71	31496
2026-01-14 02:27:13.86	250.08	6.81	-49.8	-68.9	3.8	8.47e-01	0	37	104	0	71	32043
2026-01-14 02:27:14.86	249.89	6.87	-49.9	-69.1	3.8	8.48e-01	0	37	104	0	71	32624
2026-01-14 02:27:15.85	249.70	6.93	-49.9	-69.2	3.8	8.47e-01	0	37	104	0	71	32970
2026-01-14 02:27:16.84	249.51	6.99	-49.9	-69.2	3.8	8.47e-01	0	37	104	0	71	33043
2026-01-14 02:27:17.84	249.31	7.05	-49.9	-69.2	3.8	8.48e-01	0	37	104	0	71	33136
2026-01-14 02:27:18.83	249.12	7.10	-49.9	-69.2	3.8	8.48e-01	0	37	104	0	71	33140
2026-01-14 02:27:19.82	248.92	7.16	-49.9	-69.1	3.8	8.48e-01	0	37	104	0	71	32800
2026-01-14 02:27:20.82	248.72	7.22	-49.9	-69.0	3.8	8.48e-01	0	38	104	0	71	32420
2026-01-14 02:27:21.81	248.53	7.27	-49.9	-69.0	3.8	8.47e-01	0	37	104	0	71	32354
2026-01-14 02:27:22.80	248.33	7.33	-49.9	-69.0	3.8	8.47e-01	0	37	104	0	71	32465
2026-01-14 02:27:23.80	248.13	7.39	-49.8	-69.0	3.8	8.47e-01	0	38	104	0	71	32520
2026-01-14 02:27:24.79	247.93	7.45	-49.9	-69.0	3.8	8.47e-01	0	37	104	0	71	32273
2026-01-14 02:27:25.78	247.72	7.50	-49.8	-68.9	3.8	8.47e-01	0	37	104	0	71	31811
2026-01-14 02:27:26.78	247.52	7.56	-49.9	-68.8	3.8	8.47e-01	0	37	104	0	71	31608
2026-01-14 02:27:27.77	247.32	7.62	-49.9	-69.0	3.8	8.47e-01	0	38	104	0	71	32275
2026-01-14 02:27:28.76	247.11	7.67	-49.9	-69.1	3.8	8.47e-01	0	38	104	0	71	32754
2026-01-14 02:27:29.76	246.90	7.73	-49.9	-69.1	3.8	8.47e-01	0	38	104	0	71	32684
2026-01-14 02:27:30.75	246.69	7.79	-49.8	-69.0	3.8	8.47e-01	0	37	104	0	71	32246
2026-01-14 02:27:31.74	246.49	7.84	-49.8	-68.9	3.8	8.47e-01	0	38	104	0	71	31924
2026-01-14 02:27:32.74	246.27	7.90	-49.8	-68.8	3.8	8.47e-01	0	38	104	0	71	31741
2026-01-14 02:27:33.73	246.06	7.96	-49.8	-68.9	3.8	8.47e-01	0	38	104	0	71	31925
2026-01-14 02:27:34.73	245.85	8.01	-49.8	-68.9	3.8	8.46e-01	0	38	104	0	71	32149
2026-01-14 02:27:35.72	245.64	8.07	-49.8	-68.8	3.8	8.46e-01	0	38	104	0	71	31738
2026-01-14 02:27:36.71	245.42	8.13	-49.9	-68.6	3.8	8.48e-01	0	38	104	0	71	30751
2026-01-14 02:27:37.71	245.20	8.18	-49.8	-68.2	3.8	8.46e-01	0	38	104	0	71	29666
2026-01-14 02:27:38.70	244.99	8.24	-49.9	-68.1	3.8	8.46e-01	0	38	104	0	71	29057
2026-01-14 02:27:39.69	244.77	8.29	-49.8	-68.1	3.8	8.47e-01	0	38	104	0	71	29045
2026-01-14 02:27:40.69	244.55	8.35	-49.8	-68.5	3.8	8.47e-01	0	38	104	0	71	30410
2026-01-14 02:27:41.68	244.33	8.41	-49.9	-68.9	3.8	8.47e-01	0	38	104	0	71	31987
2026-01-14 02:27:42.67	244.11	8.46	-49.9	-69.0	3.8	8.47e-01	0	38	104	0	71	32530
2026-01-14 02:27:43.67	243.88	8.52	-49.9	-69.1	3.8	8.47e-01	0	38	104	0	71	32565
2026-01-14 02:27:44.66	243.66	8.57	-49.8	-69.1	3.8	8.46e-01	0	38	104	0	71	32592
2026-01-14 02:27:45.65	243.44	8.63	-49.9	-68.9	3.8	8.46e-01	0	38	104	0	71	31877
2026-01-14 02:27:46.65	243.21	8.68	-49.9	-68.2	3.8	8.47e-01	0	38	104	0	71	29651
2026-01-14 02:27:47.64	242.98	8.74	-49.8	-67.6	3.8	8.47e-01	0	38	104	0	71	27563
2026-01-14 02:27:48.63	242.75	8.79	-49.8	-66.3	3.9	8.47e-01	0	38	104	0	71	23735
2026-01-14 02:27:49.63	242.52	8.85	-49.6	-63.2	5.1	8.43e-01	0	38	0	0	71	16666
2026-01-14 02:27:50.62	242.29	8.90	-49.3	-59.6	8.1	5.20e-01	0	38	0	0	70	11584
2026-01-14 02:27:51.61	242.06	8.95	-48.7	-56.3	11.5	5.20e-01	0	38	0	0	69	8454
2026-01-14 02:27:52.61	241.83	9.01	-47.6	-53.4	14.4	1.72e-02	0	38	0	0	67	6749
2026-01-14 02:27:53.60	241.59	9.06	-46.6	-51.2	16.6	1.14e-05	0	38	0	0	65	5872
2026-01-14 02:27:54.60	241.35	9.12	-46.8	-51.5	16.7	1.14e-05	0	38	0	0	64	6435
2026-01-14 02:27:55.59	241.12	9.17	-47.3	-52.1	16.0	0.00e+00	0	38	0	0	65	6501
2026-01-14 02:27:56.59	240.88	9.22	-48.1	-54.0	14.2	0.00e+00	0	38	0	0	66	7639
2026-01-14 02:27:57.58	240.64	9.28	-47.1	-51.7	15.7	0.00e+00	0	38	0	0	66	5923
2026-01-14 02:27:58.58	240.40	9.33	-45.8	-49.4	18.6	6.75e-05	0	38	0	0	63	5346
2026-01-14 02:27:59.57	240.16	9.38	-45.6	-49.1	18.8	0.00e+00	0	38	0	0	63	5201
2026-01-14 02:28:00.57	239.91	9.43	-45.4	-48.8	19.1	0.00e+00	0	38	0	0	62	5281
2026-01-14 02:28:01.56	239.67	9.49	-44.8	-48.0	19.8	0.00e+00	0	38	0	0	61	5103
2026-01-14 02:28:02.56	239.42	9.54	-44.4	-47.4	20.3	0.00e+00	0	38	0	0	60	5095
2026-01-14 02:28:03.55	239.17	9.59	-44.1	-47.1	20.8	0.00e+00	0	38	0	0	60	4880
2026-01-14 02:28:04.55	238.93	9.64	-44.0	-46.9	21.0	0.00e+00	0	38	0	0	59	5042
2026-01-14 02:28:05.54	238.68	9.69	-43.8	-46.7	21.2	0.00e+00	0	38	0	0	59	4936
2026-01-14 02:28:06.53	238.43	9.74	-43.8	-46.7	21.2	0.00e+00	0	38	0	0	59	4935
2026-01-14 02:28:07.53	238.17	9.80	-43.9	-46.8	21.0	0.00e+00	0	38	0	0	59	5026
2026-01-14 02:28:08.53	237.92	9.85	-44.1	-47.0	20.9	0.00e+00	0	38	0	0	59	5158
2026-01-14 02:28:09.52	237.67	9.90	-44.1	-47.0	20.9	0.00e+00	0	38	0	0	59	5151
2026-01-14 02:28:10.51	237.41	9.95	-44.2	-47.2	20.7	0.00e+00	0	38	0	0	59	5266
2026-01-14 02:28:11.51	237.16	10.00	-44.2	-47.2	20.7	0.00e+00	0	38	0	0	59	5243
2026-01-14 02:28:12.50	236.90	10.05	-44.3	-47.3	20.6	0.00e+00	0	38	0	0	59	5300
2026-01-14 02:28:13.50	236.64	10.09	-44.3	-47.3	20.6	0.00e+00	0	38	0	0	59	5287
2026-01-14 02:28:14.49	236.38	10.14	-44.3	-47.2	20.7	0.00e+00	0	38	0	0	59	5271
2026-01-14 02:28:15.55	236.10	10.20	-44.3	-47.2	20.7	0.00e+00	0	38	0	0	59	5244
2026-01-14 02:28:16.41	235.88	10.24	-44.3	-47.2	20.7	0.00e+00	0	38	0	0	59	5258
2026-01-14 02:28:17.55	235.57	10.29	-44.3	-47.2	20.7	0.00e+00	0	38	0	0	59	5274
2026-01-14 02:28:18.40	235.35	10.33	-44.2	-47.1	20.8	0.00e+00	0	38	0	0	59	5212
2026-01-14 02:28:19.54	235.04	10.39	-44.1	-47.0	20.9	0.00e+00	0	38	0	0	59	5129
2026-01-14 02:28:20.39	234.81	10.43	-44.0	-46.9	20.9	0.00e+00	0	38	0	0	59	5071
2026-01-14 02:28:21.53	234.51	10.48	-44.0	-46.8	21.0	0.00e+00	0	38	0	0	59	5027
2026-01-14 02:28:22.38	234.28	10.52	-43.8	-46.5	21.3	0.00e+00	0	38	0	0	59	4870
2026-01-14 02:28:23.52	233.97	10.57	-43.7	-46.5	21.4	0.00e+00	0	38	0	0	59	4839
2026-01-14 02:28:24.37	233.74	10.61	-43.7	-46.6	21.3	0.00e+00	0	38	0	0	59	4876
2026-01-14 02:28:25.51	233.42	10.66	-43.7	-46.5	21.4	0.00e+00	0	38	0	0	59	4853
2026-01-14 02:28:26.36	233.19	10.70	-43.6	-46.4	21.4	0.00e+00	0	38	0	0	59	4796
2026-01-14 02:28:27.50	232.87	10.75	-43.7	-46.5	21.3	0.00e+00	0	38	0	0	59	4865
2026-01-14 02:28:28.35	232.64	10.79	-43.6	-46.3	21.5	0.00e+00	0	38	0	0	59	4757
2026-01-14 02:28:29.60	232.29	10.85	-43.5	-46.2	21.6	0.00e+00	0	38	0	0	58	4952
2026-01-14 02:28:30.45	232.05	10.88	-43.5	-46.1	21.7	0.00e+00	0	38	0	0	58	4923
2026-01-14 02:28:31.58	231.73	10.93	-43.7	-46.4	21.5	0.00e+00	0	38	0	0	58	5088
2026-01-14 02:28:32.44	231.49	10.97	-43.7	-46.4	21.5	0.00e+00	0	38	0	0	58	5044
2026-01-14 02:28:33.57	231.17	11.02	-43.6	-46.2	21.6	0.00e+00	0	38	0	0	58	4983
2026-01-14 02:28:34.42	230.93	11.05	-43.4	-46.1	21.7	0.00e+00	0	38	0	0	58	4884
2026-01-14 02:28:35.56	230.60	11.10	-43.4	-46.0	21.8	0.00e+00	0	38	0	0	58	4840
2026-01-14 02:28:36.41	230.36	11.13	-43.3	-45.9	21.9	0.00e+00	0	38	0	0	58	4762
2026-01-14 02:28:37.55	230.03	11.18	-43.2	-45.8	22.0	0.00e+00	0	38	0	0	58	4708
2026-01-14 02:28:38.40	229.79	11.21	-43.2	-45.7	22.1	0.00e+00	0	38	0	0	58	4705
2026-01-14 02:28:39.54	229.46	11.26	-43.2	-45.8	22.1	0.00e+00	0	38	0	0	58	4734
2026-01-14 02:28:40.39	229.21	11.29	-43.2	-45.8	22.0	0.00e+00	0	38	0	0	58	4735
2026-01-14 02:28:41.53	228.88	11.34	-43.2	-45.8	22.0	0.00e+00	0	38	0	0	58	4722
2026-01-14 02:28:42.38	228.63	11.37	-43.1	-45.6	22.1	0.00e+00	0	38	0	0	58	4640
2026-01-14 02:28:43.52	228.29	11.41	-42.9	-45.5	22.3	0.00e+00	0	38	0	0	57	4828
2026-01-14 02:28:44.37	228.04	11.44	-42.8	-45.4	22.3	0.00e+00	0	38	0	0	57	4768
2026-01-14 02:28:45.51	227.71	11.49	-42.7	-45.1	22.6	0.00e+00	0	38	0	0	57	4641
2026-01-14 02:28:46.36	227.45	11.52	-42.7	-45.2	22.5	0.00e+00	0	38	0	0	57	4676
2026-01-14 02:28:47.51	227.11	11.56	-42.8	-45.2	22.5	0.00e+00	0	38	0	0	57	4701
2026-01-14 02:28:48.37	226.86	11.59	-42.7	-45.2	22.5	0.00e+00	0	39	0	0	57	4662
2026-01-14 02:28:49.50	226.52	11.63	-42.8	-45.4	22.4	0.00e+00	0	38	0	0	57	4767
2026-01-14 02:28:50.36	226.26	11.66	-42.7	-45.2	22.5	0.00e+00	0	38	0	0	57	4688
2026-01-14 02:28:51.50	225.92	11.70	-42.8	-45.4	22.3	0.00e+00	0	38	0	0	57	4776
2026-01-14 02:28:52.35	225.66	11.72	-42.7	-45.2	22.5	0.00e+00	0	38	0	0	57	4676
2026-01-14 02:28:53.49	225.31	11.76	-42.9	-45.5	22.3	0.00e+00	0	39	0	0	57	4835
2026-01-14 02:28:54.34	225.05	11.79	-42.8	-45.3	22.4	0.00e+00	0	38	0	0	57	4745
2026-01-14 02:28:55.70	224.64	11.83	-42.9	-45.4	22.3	0.00e+00	0	38	0	0	57	4774
2026-01-14 02:28:56.41	224.42	11.85	-43.0	-45.5	22.2	0.00e+00	0	38	0	0	57	4855
2026-01-14 02:28:57.70	224.03	11.89	-42.9	-45.4	22.3	0.00e+00	0	38	0	0	57	4803
2026-01-14 02:28:58.42	223.80	11.91	-42.8	-45.4	22.4	0.00e+00	0	38	0	0	57	4787
2026-01-14 02:28:59.70	223.41	11.95	-42.9	-45.5	22.3	0.00e+00	0	38	0	0	57	4820
2026-01-14 02:29:00.41	223.19	11.97	-42.8	-45.3	22.4	0.00e+00	0	38	0	0	57	4739
2026-01-14 02:29:01.69	222.79	12.01	-42.8	-45.3	22.3	0.00e+00	0	38	0	0	57	4714
2026-01-14 02:29:02.40	222.57	12.03	-42.7	-45.2	22.4	0.00e+00	0	38	0	0	57	4699
2026-01-14 02:29:03.68	222.17	12.06	-42.7	-45.2	22.6	0.00e+00	0	38	0	0	57	4655
2026-01-14 02:29:04.42	221.94	12.08	-42.6	-45.1	22.6	0.00e+00	0	38	0	0	57	4635
2026-01-14 02:29:05.70	221.54	12.11	-42.6	-45.1	22.6	0.00e+00	0	38	0	0	57	4633
2026-01-14 02:29:06.41	221.32	12.13	-42.6	-45.1	22.6	0.00e+00	0	38	0	0	57	4624
2026-01-14 02:29:07.69	220.92	12.16	-42.7	-45.2	22.6	0.00e+00	0	38	0	0	57	4655
2026-01-14 02:29:08.40	220.69	12.18	-42.7	-45.1	22.6	0.00e+00	0	38	0	0	57	4647
2026-01-14 02:29:09.68	220.29	12.21	-42.6	-45.1	22.6	0.00e+00	0	39	0	0	57	4608
2026-01-14 02:29:10.69	219.97	12.23	-42.6	-45.0	22.7	0.00e+00	0	38	0	0	57	4582
2026-01-14 02:29:11.99	219.56	12.26	-42.7	-45.1	22.6	0.00e+00	0	38	0	0	57	4643
2026-01-14 02:29:12.70	219.33	12.27	-42.7	-45.1	22.6	0.00e+00	0	38	0	0	57	4651
2026-01-14 02:29:13.98	218.92	12.30	-42.7	-45.2	22.5	0.00e+00	0	38	0	0	57	4690
2026-01-14 02:29:14.69	218.70	12.31	-42.9	-45.4	22.4	0.00e+00	0	38	0	0	57	4782
2026-01-14 02:29:15.97	218.29	12.34	-43.0	-45.6	22.2	0.00e+00	0	38	0	0	57	4904
2026-01-14 02:29:16.71	218.05	12.35	-43.2	-45.8	22.1	0.00e+00	0	38	0	0	57	4998
2026-01-14 02:29:17.98	217.65	12.37	-43.1	-45.7	22.1	0.00e+00	0	38	0	0	57	4949
2026-01-14 02:29:18.72	217.41	12.38	-42.9	-45.5	22.2	0.00e+00	0	38	0	0	57	4849
2026-01-14 02:29:20.00	217.00	12.40	-42.8	-45.4	22.4	0.00e+00	0	38	0	0	57	4762
2026-01-14 02:29:20.71	216.77	12.42	-42.7	-45.2	22.5	0.00e+00	0	38	0	0	57	4697
2026-01-14 02:29:22.06	216.33	12.44	-42.7	-45.2	22.5	0.00e+00	0	38	0	0	57	4696
2026-01-14 02:29:22.77	216.10	12.45	-42.7	-45.2	22.6	0.00e+00	0	38	0	0	57	4655
2026-01-14 02:29:24.13	215.66	12.46	-42.8	-45.3	22.4	0.00e+00	0	38	0	0	57	4758
2026-01-14 02:29:24.84	215.43	12.47	-42.9	-45.5	22.3	0.00e+00	0	39	0	0	57	4827
2026-01-14 02:29:26.12	215.02	12.49	-42.8	-45.2	22.5	0.00e+00	0	38	0	0	57	4702
2026-01-14 02:29:27.16	214.68	12.50	-42.4	-44.8	22.9	0.00e+00	0	38	0	0	56	4708
2026-01-14 02:29:28.46	214.26	12.51	-42.3	-44.7	22.9	0.00e+00	0	38	0	0	56	4702
2026-01-14 02:29:29.17	214.03	12.52	-42.3	-44.7	23.0	0.00e+00	0	38	0	0	56	4662
2026-01-14 02:29:30.86	213.48	12.53	-42.1	-44.4	23.2	0.00e+00	0	38	0	0	56	4537
2026-01-14 02:29:31.43	213.29	12.54	-42.1	-44.5	23.2	0.00e+00	0	38	0	0	56	4548
2026-01-14 02:29:33.13	212.74	12.55	-42.2	-44.6	23.1	0.00e+00	0	38	0	0	56	4599
2026-01-14 02:29:33.70	212.55	12.55	-42.1	-44.5	23.1	0.00e+00	0	38	0	0	56	4572
2026-01-14 02:29:35.41	212.00	12.56	-42.6	-45.1	22.6	0.00e+00	0	39	0	0	56	4893
2026-01-14 02:29:35.97	211.81	12.56	-42.9	-45.4	22.3	0.00e+00	0	38	0	0	56	5094
2026-01-14 02:29:37.68	211.25	12.57	-43.2	-45.8	22.0	0.00e+00	0	38	0	0	57	4990
2026-01-14 02:29:38.25	211.07	12.57	-43.1	-45.7	22.1	0.00e+00	0	38	0	0	57	4929
2026-01-14 02:29:40.08	210.47	12.58	-42.9	-45.4	22.3	0.00e+00	0	38	0	0	57	4808
2026-01-14 02:29:40.65	210.28	12.58	-42.8	-45.3	22.4	0.00e+00	0	38	0	0	57	4731
2026-01-14 02:29:42.67	209.62	12.58	-42.9	-45.4	22.4	0.00e+00	0	39	0	0	57	4790
2026-01-14 02:29:43.24	209.44	12.58	-42.8	-45.3	22.4	0.00e+00	0	38	0	0	57	4717
2026-01-14 02:29:44.94	208.88	12.57	-42.5	-45.0	22.7	0.00e+00	0	39	0	0	57	4563
2026-01-14 02:29:45.51	208.70	12.57	-42.5	-45.0	22.7	0.00e+00	0	38	0	0	57	4564
2026-01-14 02:29:47.22	208.14	12.57	-42.6	-45.0	22.7	0.00e+00	0	38	0	0	57	4584
2026-01-14 02:29:47.78	207.95	12.57	-42.6	-45.1	22.7	0.00e+00	0	38	0	0	57	4615
2026-01-14 02:29:49.49	207.40	12.56	-42.7	-45.1	22.6	0.00e+00	0	38	0	0	57	4641
2026-01-14 02:29:50.06	207.21	12.55	-42.6	-45.1	22.6	0.00e+00	0	38	0	0	57	4631
2026-01-14 02:29:51.76	206.66	12.54	-42.5	-45.0	22.7	0.00e+00	0	38	0	0	56	4839
2026-01-14 02:29:52.32	206.47	12.54	-42.7	-45.1	22.6	0.00e+00	0	38	0	0	56	4909
2026-01-14 02:29:54.03	205.92	12.52	-43.1	-45.7	22.1	0.00e+00	0	38	0	0	56	5244
2026-01-14 02:29:54.60	205.73	12.52	-43.3	-45.9	21.9	0.00e+00	0	38	0	0	57	5061
2026-01-14 02:29:56.30	205.18	12.50	-43.2	-45.8	22.1	0.00e+00	0	38	0	0	57	4984
2026-01-14 02:29:56.92	204.98	12.50	-43.2	-45.8	22.1	0.00e+00	0	38	0	0	57	4988
2026-01-14 02:29:58.48	204.47	12.48	-43.0	-45.5	22.2	0.00e+00	0	38	0	0	57	4866
2026-01-14 02:29:59.13	204.26	12.47	-42.8	-45.4	22.4	0.00e+00	0	39	0	0	57	4770
2026-01-14 02:30:00.55	203.80	12.45	-42.5	-45.0	22.7	0.00e+00	0	38	0	0	57	4561
2026-01-14 02:30:01.26	203.57	12.44	-42.4	-44.8	22.9	0.00e+00	0	38	0	0	56	4759
2026-01-14 02:30:02.54	203.16	12.42	-42.3	-44.7	22.9	0.00e+00	0	39	0	0	56	4698
2026-01-14 02:30:03.25	202.93	12.41	-42.4	-44.9	22.8	0.00e+00	0	38	0	0	56	4762
2026-01-14 02:30:04.53	202.52	12.39	-42.4	-44.9	22.8	0.00e+00	0	38	0	0	56	4767
2026-01-14 02:30:05.24	202.29	12.38	-42.3	-44.8	22.9	0.00e+00	0	39	0	0	56	4706
2026-01-14 02:30:06.52	201.88	12.36	-42.5	-45.0	22.7	0.00e+00	0	38	0	0	56	4852
2026-01-14 02:30:07.26	201.64	12.35	-42.6	-45.2	22.6	0.00e+00	0	39	0	0	56	4937
2026-01-14 02:30:08.55	201.23	12.32	-42.7	-45.3	22.5	0.00e+00	0	39	0	0	56	4987
2026-01-14 02:30:09.26	201.00	12.31	-42.7	-45.2	22.6	0.00e+00	0	38	0	0	56	4941
2026-01-14 02:30:10.54	200.59	12.28	-42.4	-44.8	22.9	0.00e+00	0	39	0	0	56	4734
2026-01-14 02:30:11.26	200.36	12.27	-42.3	-44.7	22.9	0.00e+00	0	38	0	0	56	4695
2026-01-14 02:30:12.54	199.96	12.24	-42.3	-44.7	22.9	0.00e+00	0	39	0	0	56	4699
2026-01-14 02:30:13.27	199.72	12.23	-42.2	-44.7	23.0	0.00e+00	0	39	0	0	56	4655
2026-01-14 02:30:14.64	199.29	12.20	-42.3	-44.7	22.9	0.00e+00	0	39	0	0	56	4689
2026-01-14 02:30:15.36	199.06	12.18	-42.5	-44.9	22.8	0.00e+00	0	39	0	0	56	4798
2026-01-14 02:30:16.63	198.66	12.15	-42.9	-45.5	22.3	0.00e+00	0	39	0	0	56	5112
2026-01-14 02:30:17.69	198.33	12.12	-43.0	-45.6	22.1	0.00e+00	0	38	0	0	56	5206
2026-01-14 02:30:18.84	197.97	12.09	-42.9	-45.5	22.2	0.00e+00	0	39	0	0	56	5131
2026-01-14 02:30:19.70	197.70	12.07	-43.0	-45.6	22.1	0.00e+00	0	39	0	0	56	5180
2026-01-14 02:30:20.83	197.35	12.04	-42.9	-45.5	22.2	0.00e+00	0	39	0	0	56	5154
2026-01-14 02:30:21.69	197.08	12.02	-42.8	-45.4	22.2	0.00e+00	0	39	0	0	56	5088
2026-01-14 02:30:22.83	196.72	11.99	-42.8	-45.4	22.4	0.00e+00	0	39	0	0	56	5062
2026-01-14 02:30:23.68	196.46	11.96	-42.6	-45.2	22.5	0.00e+00	0	39	0	0	56	4950
2026-01-14 02:30:24.82	196.11	11.93	-42.7	-45.2	22.5	0.00e+00	0	39	0	0	56	4949
2026-01-14 02:30:25.67	195.85	11.91	-42.8	-45.3	22.4	0.00e+00	0	39	0	0	56	5004
2026-01-14 02:30:26.80	195.50	11.87	-42.8	-45.4	22.3	0.00e+00	0	39	0	0	56	5071
2026-01-14 02:30:27.66	195.23	11.85	-43.1	-45.7	22.0	0.00e+00	0	38	0	0	56	5242
2026-01-14 02:30:28.79	194.89	11.81	-43.4	-46.1	21.7	0.00e+00	0	38	0	0	57	5195
2026-01-14 02:30:29.69	194.61	11.78	-43.3	-46.0	21.7	0.00e+00	0	38	0	0	57	5150
2026-01-14 02:30:30.89	194.25	11.74	-43.2	-45.8	21.9	0.00e+00	0	39	0	0	57	5018
2026-01-14 02:30:31.74	193.99	11.72	-43.1	-45.8	22.0	0.00e+00	0	39	0	0	57	5006
2026-01-14 02:30:33.04	193.60	11.67	-43.0	-45.6	22.0	0.00e+00	0	39	0	0	57	4913
2026-01-14 02:30:33.75	193.38	11.65	-42.6	-45.1	22.5	0.00e+00	0	39	0	0	57	4641
2026-01-14 02:30:35.24	192.94	11.60	-42.6	-45.1	22.6	0.00e+00	0	39	0	0	56	4892
2026-01-14 02:30:35.95	192.72	11.57	-42.8	-45.4	22.2	0.00e+00	0	39	0	0	56	5097
2026-01-14 02:30:37.23	192.34	11.53	-43.0	-45.6	22.1	0.00e+00	0	39	0	0	56	5214
2026-01-14 02:30:38.30	192.02	11.49	-43.4	-46.1	21.8	0.00e+00	0	39	0	0	57	5185
2026-01-14 02:30:39.16	191.77	11.46	-43.5	-46.2	21.5	0.00e+00	0	39	0	0	57	5273
2026-01-14 02:30:40.30	191.43	11.41	-43.6	-46.4	21.4	0.00e+00	0	39	0	0	57	5384
2026-01-14 02:30:41.15	191.18	11.38	-43.4	-46.3	21.5	0.00e+00	0	39	0	0	57	5280
2026-01-14 02:30:42.29	190.85	11.34	-43.2	-46.0	21.7	0.00e+00	0	39	0	0	57	5148
2026-01-14 02:30:43.15	190.60	11.30	-43.0	-45.7	22.1	0.00e+00	0	39	0	0	57	4945
2026-01-14 02:30:44.38	190.24	11.26	-42.7	-45.4	22.3	0.00e+00	0	39	0	0	57	4770
2026-01-14 02:30:45.23	189.99	11.22	-42.9	-45.6	22.2	0.00e+00	0	39	0	0	57	4875
2026-01-14 02:30:46.37	189.66	11.18	-42.8	-45.5	22.2	0.00e+00	0	39	0	0	57	4826
2026-01-14 02:30:47.22	189.42	11.14	-42.9	-45.6	22.1	0.00e+00	0	39	0	0	57	4889
2026-01-14 02:30:48.52	189.05	11.09	-43.3	-46.1	21.6	0.00e+00	0	39	0	0	57	5179
2026-01-14 02:30:49.23	188.84	11.06	-43.4	-46.3	21.4	0.00e+00	0	39	0	0	57	5328
2026-01-14 02:30:50.51	188.48	11.01	-43.8	-46.7	21.2	0.00e+00	0	39	0	0	58	5253
2026-01-14 02:30:51.22	188.28	10.98	-43.8	-46.7	21.1	0.00e+00	0	39	0	0	58	5275
2026-01-14 02:30:52.50	187.91	10.92	-43.7	-46.6	21.1	0.00e+00	0	39	0	0	58	5160
2026-01-14 02:30:53.21	187.71	10.89	-43.8	-46.6	21.3	0.00e+00	0	39	0	0	58	5207
2026-01-14 02:30:54.49	187.36	10.83	-43.3	-46.0	21.8	0.00e+00	0	39	0	0	58	4826
2026-01-14 02:30:55.20	187.16	10.80	-43.1	-45.7	22.0	0.00e+00	0	39	0	0	58	4691
2026-01-14 02:30:56.48	186.80	10.75	-42.8	-45.4	22.2	0.00e+00	0	39	0	0	57	4803
2026-01-14 02:30:57.20	186.60	10.71	-42.7	-45.3	22.4	0.00e+00	0	39	0	0	57	4711
2026-01-14 02:30:58.48	186.25	10.66	-42.7	-45.3	22.3	0.00e+00	0	38	0	0	57	4746
2026-01-14 02:30:59.19	186.05	10.62	-42.8	-45.4	22.2	0.00e+00	0	39	0	0	57	4809
2026-01-14 02:31:00.47	185.70	10.56	-43.0	-45.6	22.1	0.00e+00	0	39	0	0	57	4923
2026-01-14 02:31:01.19	185.51	10.53	-43.4	-46.1	21.6	0.00e+00	0	39	0	0	57	5217
2026-01-14 02:31:02.47	185.16	10.47	-43.7	-46.6	21.3	0.00e+00	0	39	0	0	58	5189
2026-01-14 02:31:03.18	184.97	10.44	-43.9	-46.8	21.0	0.00e+00	0	38	0	0	58	5328
2026-01-14 02:31:04.57	184.59	10.37	-44.1	-47.2	20.6	0.00e+00	0	39	0	0	58	5584
2026-01-14 02:31:05.28	184.40	10.34	-44.0	-47.1	20.8	0.00e+00	0	39	0	0	58	5491
2026-01-14 02:31:06.63	184.04	10.27	-44.0	-47.1	20.8	0.00e+00	0	39	0	0	58	5502
2026-01-14 02:31:07.34	183.86	10.24	-43.9	-47.0	20.8	0.00e+00	0	39	0	0	58	5406
2026-01-14 02:31:08.62	183.52	10.18	-43.9	-47.0	20.9	0.00e+00	0	39	0	0	58	5413
2026-01-14 02:31:09.66	183.24	10.13	-43.8	-46.8	21.0	0.00e+00	0	39	0	0	58	5307
2026-01-14 02:31:10.91	182.92	10.06	-43.9	-47.0	20.8	0.00e+00	0	39	0	0	58	5406
2026-01-14 02:31:11.76	182.70	10.02	-43.7	-46.7	21.1	0.00e+00	0	39	0	0	58	5279
2026-01-14 02:31:12.90	182.40	9.96	-43.5	-46.4	21.4	0.00e+00	0	39	0	0	58	5059
2026-01-14 02:31:13.75	182.18	9.92	-43.6	-46.4	21.3	0.00e+00	0	39	0	0	58	5096
2026-01-14 02:31:14.89	181.89	9.86	-43.6	-46.5	21.3	0.00e+00	0	39	0	0	58	5118
2026-01-14 02:31:15.74	181.67	9.82	-43.8	-46.7	21.0	0.00e+00	0	39	0	0	58	5278
2026-01-14 02:31:16.88	181.38	9.76	-44.1	-47.1	20.7	0.00e+00	0	39	0	0	58	5528
2026-01-14 02:31:17.73	181.17	9.72	-44.2	-47.3	20.5	0.00e+00	0	39	0	0	59	5307
2026-01-14 02:31:18.87	180.88	9.66	-44.1	-47.2	20.7	0.00e+00	0	39	0	0	59	5267
2026-01-14 02:31:19.72	180.67	9.62	-43.9	-47.0	20.9	0.00e+00	0	39	0	0	59	5116
2026-01-14 02:31:20.86	180.38	9.56	-43.8	-46.9	20.9	0.00e+00	0	39	0	0	59	5060
2026-01-14 02:31:21.71	180.17	9.51	-43.6	-46.6	21.1	0.00e+00	0	39	0	0	59	4925
2026-01-14 02:31:22.85	179.89	9.45	-43.5	-46.5	21.3	0.00e+00	0	39	0	0	59	4852
2026-01-14 02:31:23.70	179.68	9.41	-43.5	-46.5	21.2	0.00e+00	0	39	0	0	58	5155
2026-01-14 02:31:24.84	179.40	9.35	-43.4	-46.6	21.2	4.92e-05	0	39	0	0	58	5192
2026-01-14 02:31:25.69	179.19	9.30	-43.5	-46.7	21.1	4.92e-05	0	39	0	0	58	5260
2026-01-14 02:31:26.83	178.92	9.24	-43.5	-46.8	21.0	0.00e+00	0	39	0	0	58	5302
2026-01-14 02:31:27.80	178.68	9.19	-43.9	-47.3	20.6	1.39e-03	0	39	0	0	58	5620
2026-01-14 02:31:28.96	178.41	9.13	-44.1	-47.5	20.3	1.39e-03	0	38	0	0	58	5778
2026-01-14 02:31:29.85	178.19	9.08	-44.3	-47.9	19.9	0.00e+00	0	39	0	0	59	5715
2026-01-14 02:31:30.99	177.92	9.02	-44.5	-48.1	19.7	0.00e+00	0	39	0	0	59	5794
2026-01-14 02:31:31.84	177.72	8.97	-45.8	-50.9	17.8	0.00e+00	0	39	0	0	62	6754
2026-01-14 02:31:32.97	177.46	8.91	-49.9	-67.0	3.9	6.80e-06	0	39	104	0	70	27090
2026-01-14 02:31:33.82	177.26	8.86	-50.2	-68.9	3.8	8.13e-01	0	39	104	0	71	31885
2026-01-14 02:31:34.96	176.99	8.80	-50.4	-69.1	3.8	8.47e-01	0	39	104	0	71	32706
2026-01-14 02:31:35.81	176.80	8.75	-50.3	-69.5	3.8	8.47e-01	0	39	104	0	71	34230
2026-01-14 02:31:36.95	176.53	8.69	-50.5	-69.6	3.8	8.47e-01	0	39	104	0	71	34755
2026-01-14 02:31:37.80	176.34	8.64	-50.6	-69.6	3.8	8.48e-01	0	39	104	0	72	32738
2026-01-14 02:31:38.93	176.08	8.58	-50.8	-69.6	3.8	8.48e-01	0	39	104	0	72	32696
2026-01-14 02:31:39.78	175.89	8.53	-50.8	-69.6	3.8	8.47e-01	0	39	104	0	72	32888
2026-01-14 02:31:40.92	175.63	8.47	-50.8	-69.6	3.8	8.47e-01	0	39	104	0	72	32870
2026-01-14 02:31:41.77	175.44	8.42	-50.7	-69.7	3.8	8.47e-01	0	39	104	0	72	32952
2026-01-14 02:31:42.90	175.19	8.36	-50.8	-69.7	3.8	8.46e-01	0	39	104	0	72	32998
2026-01-14 02:31:43.76	175.00	8.31	-50.9	-69.7	3.8	8.47e-01	0	39	104	0	72	33029
2026-01-14 02:31:44.89	174.75	8.25	-50.9	-69.7	3.8	8.47e-01	0	39	104	0	72	33047
2026-01-14 02:31:45.74	174.56	8.20	-51.0	-69.7	3.8	8.48e-01	0	39	104	0	72	33111
2026-01-14 02:31:46.88	174.31	8.13	-50.9	-69.7	3.8	8.47e-01	0	39	104	0	72	33266
2026-01-14 02:31:47.73	174.13	8.09	-50.7	-69.7	3.8	8.47e-01	0	39	104	0	72	33225
2026-01-14 02:31:48.87	173.88	8.02	-50.9	-69.7	3.8	8.47e-01	0	39	104	0	72	33218
2026-01-14 02:31:49.72	173.70	7.97	-51.0	-69.7	3.8	8.47e-01	0	39	104	0	72	33248
2026-01-14 02:31:50.85	173.46	7.91	-50.9	-69.8	3.8	8.47e-01	0	39	104	0	72	33340
2026-01-14 02:31:51.71	173.27	7.86	-50.7	-69.7	3.8	8.47e-01	0	39	104	0	72	33252
2026-01-14 02:31:52.84	173.04	7.80	-50.9	-69.8	3.8	8.46e-01	0	39	104	0	72	33313
2026-01-14 02:31:53.69	172.86	7.75	-50.9	-69.7	3.8	8.46e-01	0	39	104	0	72	33252
2026-01-14 02:31:54.83	172.62	7.68	-51.0	-69.7	3.8	8.46e-01	0	39	104	0	72	33285
2026-01-14 02:31:55.68	172.44	7.63	-50.9	-69.7	3.8	8.47e-01	0	39	104	0	72	33281
2026-01-14 02:31:56.82	172.21	7.57	-50.9	-69.8	3.8	8.45e-01	0	39	104	0	72	33311
2026-01-14 02:31:57.67	172.03	7.52	-50.9	-69.7	3.8	8.45e-01	0	39	104	0	72	33221
2026-01-14 02:31:58.80	171.80	7.45	-50.6	-69.7	3.8	8.47e-01	0	39	104	0	72	33252
2026-01-14 02:31:59.66	171.62	7.40	-50.7	-69.7	3.8	8.48e-01	0	39	104	0	72	33271
2026-01-14 02:32:00.79	171.39	7.34	-50.7	-69.7	3.8	8.48e-01	0	39	104	0	72	33155
2026-01-14 02:32:01.64	171.22	7.29	-50.7	-69.7	3.8	8.47e-01	0	39	104	0	72	33034
2026-01-14 02:32:02.78	170.99	7.22	-50.7	-69.7	3.8	8.47e-01	0	39	104	0	72	33221
2026-01-14 02:32:03.63	170.83	7.17	-50.7	-69.7	3.8	8.47e-01	0	39	104	0	72	33037
2026-01-14 02:32:04.77	170.60	7.11	-50.7	-69.7	3.8	8.47e-01	0	39	104	0	72	33093
2026-01-14 02:32:05.62	170.43	7.06	-50.7	-69.7	3.8	8.47e-01	0	39	104	0	72	33048
2026-01-14 02:32:06.75	170.21	6.99	-50.7	-69.7	3.8	8.47e-01	0	39	104	0	72	33007
2026-01-14 02:32:07.60	170.04	6.94	-50.7	-69.7	3.8	8.47e-01	0	39	104	0	72	32989
2026-01-14 02:32:08.74	169.82	6.88	-50.7	-69.7	3.8	8.47e-01	0	39	104	0	72	33027
2026-01-14 02:32:09.59	169.66	6.83	-50.7	-69.7	3.8	8.47e-01	0	39	104	0	72	33074
2026-01-14 02:32:10.73	169.44	6.76	-50.7	-69.7	3.8	8.47e-01	0	39	104	0	72	33145
2026-01-14 02:32:11.58	169.28	6.71	-50.7	-69.7	3.8	8.45e-01	0	39	104	0	72	33044
2026-01-14 02:32:12.72	169.06	6.65	-50.7	-69.7	3.8	8.45e-01	0	39	104	0	72	33036
2026-01-14 02:32:13.57	168.90	6.60	-50.7	-69.6	3.8	8.47e-01	0	39	104	0	72	32922
2026-01-14 02:32:14.70	168.69	6.53	-50.7	-69.7	3.8	8.48e-01	0	39	104	0	72	33144
2026-01-14 02:32:15.55	168.53	6.48	-50.7	-69.7	3.8	8.48e-01	0	39	104	0	72	33085
2026-01-14 02:32:16.69	168.32	6.42	-50.7	-69.7	3.8	8.46e-01	0	39	104	0	72	32990
2026-01-14 02:32:17.54	168.16	6.37	-50.7	-69.7	3.8	8.47e-01	0	39	104	0	72	33038
2026-01-14 02:32:18.67	167.96	6.30	-50.7	-69.7	3.8	8.48e-01	0	39	104	0	72	32962
2026-01-14 02:32:19.52	167.80	6.25	-50.7	-69.7	3.8	8.48e-01	0	39	104	0	72	32981
2026-01-14 02:32:20.66	167.59	6.18	-50.7	-69.7	3.8	8.47e-01	0	39	104	0	72	32959
2026-01-14 02:32:21.51	167.44	6.13	-50.7	-69.7	3.8	8.46e-01	0	39	104	0	72	33102
2026-01-14 02:32:22.65	167.24	6.07	-50.7	-69.7	3.8	8.46e-01	0	39	104	0	72	33092
2026-01-14 02:32:23.50	167.08	6.02	-50.7	-69.7	3.8	8.48e-01	0	39	104	0	72	33060
2026-01-14 02:32:24.63	166.88	5.95	-50.7	-69.7	3.8	8.47e-01	0	39	104	0	72	33059
2026-01-14 02:32:25.49	166.73	5.90	-50.7	-69.7	3.8	8.47e-01	0	39	104	0	72	33079
2026-01-14 02:32:26.62	166.53	5.84	-50.7	-69.7	3.8	8.46e-01	0	39	104	0	72	32960
2026-01-14 02:32:27.47	166.39	5.79	-50.7	-69.7	3.8	8.48e-01	0	39	104	0	72	33037
2026-01-14 02:32:28.61	166.19	5.72	-50.7	-69.7	3.8	8.48e-01	0	39	104	0	72	32974
2026-01-14 02:32:29.46	166.04	5.67	-50.7	-69.6	3.8	8.47e-01	0	39	104	0	72	32903
2026-01-14 02:32:30.60	165.85	5.60	-50.7	-69.7	3.8	8.47e-01	0	39	104	0	72	32960
2026-01-14 02:32:31.45	165.70	5.56	-50.7	-69.7	3.8	8.47e-01	0	39	104	0	72	33024
2026-01-14 02:32:32.58	165.51	5.49	-50.7	-69.7	3.8	8.48e-01	0	39	104	0	72	32989
2026-01-14 02:32:33.44	165.36	5.44	-50.7	-69.7	3.8	8.46e-01	0	39	104	0	72	32930
2026-01-14 02:32:34.57	165.17	5.37	-50.7	-69.7	3.8	8.46e-01	0	39	104	0	72	33018
2026-01-14 02:32:35.42	165.03	5.32	-50.7	-69.7	3.8	8.46e-01	0	39	104	0	72	32987
2026-01-14 02:32:36.56	164.84	5.26	-50.7	-69.7	3.8	8.47e-01	0	39	104	0	72	32989
2026-01-14 02:32:37.41	164.70	5.21	-50.7	-69.7	3.8	8.47e-01	0	39	104	0	72	32960
2026-01-14 02:32:38.55	164.52	5.14	-50.7	-69.7	3.8	8.47e-01	0	39	104	0	72	32963
2026-01-14 02:32:39.40	164.38	5.09	-50.7	-69.7	3.8	8.47e-01	0	39	104	0	72	32956
2026-01-14 02:32:40.53	164.19	5.03	-50.7	-69.7	3.8	8.47e-01	0	39	104	0	72	32993

#Closed at: 2026-01-14 02:32:41
#Recorded file [0 MB]: D:/Data/31040_260114_052642.dat