passes_logs/2026/01/14/T1/T1__20260114_122400_FENGYUN_3D_rec.log

#Pass ID: 20260114_122400_FENGYUN 3D
#Satellite: FENGYUN 3D
#Configuration: FENGYUN 3D
#almurnet v.1.7.20251203
#Start time: 2026-01-14 12:24:00

#Version: 2.0.20230620
#Station: T1
#Location: 37.570604 lon 55.790049 lat
#TLE: 1 43010U 17072A   26013.31211337  .00000452  00000+0  23563-3 0  9990
#TLE: 2 43010  98.9934 345.1024 0002270 111.0315 249.1103 14.19696845423017

#Time	Az	El	Level	Level2	SNR	BER	BlckErr	Temp	State	Recorded	gain1	gain2
2026-01-14 12:24:00.85	173.63	5.03	-52.2	-64.6	3.8	8.47e-01	0	40	0	0	76	14629
2026-01-14 12:24:01.84	173.66	5.10	-49.9	-64.2	3.8	8.46e-01	0	41	104	0	70	19691
2026-01-14 12:24:02.83	173.68	5.17	-49.9	-64.1	3.8	8.47e-01	0	41	104	0	70	19595
2026-01-14 12:24:03.82	173.71	5.24	-49.9	-64.0	3.8	8.46e-01	0	41	104	0	70	19325
2026-01-14 12:24:04.82	173.73	5.31	-49.9	-64.0	3.8	8.48e-01	0	41	104	0	70	19217
2026-01-14 12:24:05.81	173.76	5.38	-49.9	-63.8	3.8	8.47e-01	0	41	104	0	70	18899
2026-01-14 12:24:06.81	173.79	5.45	-49.8	-63.7	3.8	8.48e-01	0	41	104	0	70	18603
2026-01-14 12:24:07.80	173.81	5.52	-49.8	-63.5	3.8	8.46e-01	0	41	104	0	70	18171
2026-01-14 12:24:08.79	173.84	5.60	-49.8	-63.3	3.8	8.46e-01	0	41	104	0	70	17869
2026-01-14 12:24:09.79	173.87	5.67	-49.8	-63.2	3.8	8.46e-01	0	41	104	0	70	17583
2026-01-14 12:24:10.78	173.89	5.74	-49.9	-63.1	3.8	8.46e-01	0	41	104	0	70	17330
2026-01-14 12:24:11.77	173.92	5.81	-49.8	-63.0	3.8	8.47e-01	0	41	104	0	70	17129
2026-01-14 12:24:12.77	173.95	5.89	-49.9	-62.9	3.8	8.46e-01	0	41	104	0	70	17045
2026-01-14 12:24:13.76	173.97	5.96	-49.9	-62.9	3.8	8.47e-01	0	41	104	0	70	17064
2026-01-14 12:24:14.76	174.00	6.03	-49.9	-63.0	3.8	8.48e-01	0	41	104	0	70	17231
2026-01-14 12:24:15.75	174.03	6.10	-50.0	-63.0	3.8	8.46e-01	0	41	104	0	70	17280
2026-01-14 12:24:16.74	174.06	6.18	-49.9	-63.1	3.8	8.47e-01	0	41	104	0	70	17458
2026-01-14 12:24:17.74	174.08	6.25	-50.0	-63.2	3.8	8.48e-01	0	41	104	0	70	17631
2026-01-14 12:24:18.73	174.11	6.33	-50.0	-63.4	3.8	8.47e-01	0	41	104	0	70	17898
2026-01-14 12:24:19.73	174.14	6.40	-50.0	-63.6	3.8	8.46e-01	0	41	104	0	70	18343
2026-01-14 12:24:20.72	174.17	6.47	-50.0	-63.7	3.8	8.48e-01	0	41	104	0	70	18577
2026-01-14 12:24:21.71	174.19	6.55	-50.1	-63.9	3.8	8.47e-01	0	41	104	0	70	19060
2026-01-14 12:24:22.71	174.22	6.62	-50.0	-64.0	3.8	8.47e-01	0	41	104	0	70	19367
2026-01-14 12:24:23.70	174.25	6.70	-50.1	-64.1	3.8	8.47e-01	0	42	104	0	70	19505
2026-01-14 12:24:24.70	174.28	6.77	-49.9	-64.0	3.8	8.47e-01	0	41	104	0	70	19235
2026-01-14 12:24:25.69	174.31	6.85	-50.0	-63.4	3.8	8.47e-01	0	42	104	0	70	17970
2026-01-14 12:24:26.68	174.34	6.92	-49.8	-62.2	3.8	8.46e-01	0	41	104	0	70	15596
2026-01-14 12:24:27.68	174.37	7.00	-49.7	-60.4	4.2	8.40e-01	0	42	0	0	70	12774
2026-01-14 12:24:28.67	174.39	7.08	-49.5	-58.6	5.0	8.10e-01	0	42	0	0	70	10300
2026-01-14 12:24:29.66	174.42	7.15	-49.1	-56.7	6.2	4.27e-01	0	42	0	2097152	70	8326
2026-01-14 12:24:30.66	174.45	7.23	-48.5	-54.9	7.9	1.45e-01	0	42	0	7340032	69	7134
2026-01-14 12:24:31.65	174.48	7.30	-48.0	-53.4	9.3	2.85e-02	0	42	0	12582912	68	6375
2026-01-14 12:24:32.65	174.51	7.38	-47.2	-52.0	10.6	1.11e-02	0	42	0	17825792	66	6087
2026-01-14 12:24:33.64	174.54	7.46	-46.6	-50.7	11.9	1.17e-03	0	42	0	24117248	65	5564
2026-01-14 12:24:34.63	174.57	7.54	-46.1	-49.9	12.8	1.75e-04	0	42	0	29360128	64	5341
2026-01-14 12:24:35.63	174.60	7.61	-45.6	-49.0	13.7	1.87e-03	0	42	0	35651584	63	5127
2026-01-14 12:24:36.62	174.63	7.69	-45.2	-48.4	14.4	2.20e-06	0	42	0	40894464	62	5057
2026-01-14 12:24:37.61	174.66	7.77	-44.9	-47.9	14.8	1.10e-06	0	42	0	46137344	61	5092
2026-01-14 12:24:38.61	174.69	7.85	-44.5	-47.5	15.2	1.08e-03	0	42	0	52428800	61	4840
2026-01-14 12:24:39.60	174.72	7.93	-44.5	-47.5	15.2	0.00e+00	0	42	0	57671680	60	5102
2026-01-14 12:24:40.60	174.75	8.01	-44.3	-47.3	15.4	0.00e+00	0	42	0	62914560	60	4988
2026-01-14 12:24:41.59	174.78	8.08	-44.5	-47.4	15.3	0.00e+00	0	42	0	68157440	60	5087
2026-01-14 12:24:42.58	174.82	8.16	-44.7	-47.8	14.9	1.10e-06	0	42	0	74448896	60	5292
2026-01-14 12:24:43.58	174.85	8.24	-45.0	-48.2	14.6	0.00e+00	0	42	0	79691776	60	5532
2026-01-14 12:24:44.57	174.88	8.32	-45.4	-48.8	13.9	3.40e-06	0	42	0	85983232	61	5641
2026-01-14 12:24:45.56	174.91	8.40	-46.0	-49.6	13.1	2.05e-05	0	42	0	91226112	62	5839
2026-01-14 12:24:46.56	174.94	8.48	-46.6	-50.7	12.0	2.80e-04	0	42	0	96468992	63	6246
2026-01-14 12:24:47.55	174.97	8.56	-47.2	-51.9	10.7	2.08e-03	0	42	0	102760448	64	6795
2026-01-14 12:24:48.55	175.01	8.64	-47.8	-53.2	9.4	1.02e-02	0	42	0	108003328	66	7008
2026-01-14 12:24:49.54	175.04	8.72	-48.4	-54.9	7.7	7.54e-02	0	42	0	113246208	67	8048
2026-01-14 12:24:50.53	175.07	8.81	-49.1	-57.0	6.0	2.36e-01	0	42	0	118489088	68	9685
2026-01-14 12:24:51.53	175.10	8.89	-49.5	-59.1	4.7	7.76e-01	0	42	0	120586240	69	11588
2026-01-14 12:24:52.52	175.14	8.97	-49.7	-61.2	4.0	8.39e-01	0	42	0	120586240	70	14032
2026-01-14 12:24:53.52	175.17	9.05	-49.6	-62.1	3.8	8.46e-01	0	42	104	120586240	70	15464
2026-01-14 12:24:54.51	175.20	9.13	-48.2	-56.1	6.6	8.43e-01	0	42	104	120586240	68	8702
2026-01-14 12:24:55.51	175.23	9.22	-49.2	-61.9	4.0	6.55e-03	0	42	0	124780544	68	16936
2026-01-14 12:24:56.50	175.27	9.30	-49.5	-62.9	3.8	8.47e-01	0	42	104	124780544	71	16052
2026-01-14 12:24:57.50	175.30	9.38	-48.3	-57.1	5.9	6.06e-01	0	42	0	125829120	68	9758
2026-01-14 12:24:58.50	175.34	9.47	-48.4	-56.5	6.5	2.64e-01	0	43	0	131072000	68	9089
2026-01-14 12:24:59.54	175.37	9.55	-48.5	-56.6	6.3	2.71e-01	0	42	0	137363456	68	9191
2026-01-14 12:25:00.52	175.40	9.64	-48.8	-56.7	6.3	3.68e-01	0	42	0	142606336	68	9368
2026-01-14 12:25:01.51	175.44	9.72	-48.8	-56.6	6.4	2.85e-01	0	42	0	147849216	68	9184
2026-01-14 12:25:02.51	175.47	9.81	-49.0	-55.9	6.9	2.94e-01	0	42	0	154140672	68	8503
2026-01-14 12:25:03.50	175.51	9.89	-48.9	-55.3	7.4	1.26e-01	0	42	0	159383552	68	7923
2026-01-14 12:25:04.50	175.54	9.98	-49.5	-57.4	5.8	1.35e-01	0	42	0	164626432	69	9578
2026-01-14 12:25:05.49	175.58	10.06	-50.1	-61.6	4.0	8.45e-01	0	42	104	164626432	70	14705
2026-01-14 12:25:06.74	175.62	10.17	-48.3	-53.0	9.8	4.25e-01	0	42	0	165675008	68	6064
2026-01-14 12:25:07.62	175.65	10.24	-50.3	-63.7	3.8	2.28e-01	0	43	104	169869312	71	17645
2026-01-14 12:25:08.92	175.70	10.36	-47.7	-51.9	10.7	8.06e-01	0	43	0	169869312	67	5694
2026-01-14 12:25:09.63	175.72	10.42	-46.9	-50.5	12.2	2.92e-04	0	43	0	174063616	65	5450
2026-01-14 12:25:11.15	175.78	10.55	-45.0	-47.8	15.0	0.00e+00	0	42	0	182452224	62	4756
2026-01-14 12:25:11.86	175.81	10.61	-44.1	-46.7	16.1	0.00e+00	0	43	0	186646528	60	4697
2026-01-14 12:25:13.14	175.85	10.73	-43.7	-46.2	16.5	0.00e+00	0	43	0	193986560	59	4681
2026-01-14 12:25:13.87	175.88	10.79	-43.5	-46.0	16.7	0.00e+00	0	43	0	198180864	59	4569
2026-01-14 12:25:15.15	175.93	10.91	-43.7	-46.2	16.5	0.00e+00	0	43	0	204472320	59	4677
2026-01-14 12:25:15.86	175.95	10.97	-43.5	-46.0	16.7	0.00e+00	0	43	0	208666624	58	4865
2026-01-14 12:25:17.14	176.00	11.08	-43.5	-45.9	16.8	0.00e+00	0	43	0	216006656	58	4813
2026-01-14 12:25:17.85	176.03	11.15	-43.2	-45.7	17.0	0.00e+00	0	43	0	220200960	58	4667
2026-01-14 12:25:19.13	176.08	11.26	-43.3	-45.7	17.0	0.00e+00	0	43	0	227540992	58	4704
2026-01-14 12:25:19.86	176.10	11.33	-43.3	-45.7	17.1	0.00e+00	0	43	0	231735296	58	4658
2026-01-14 12:25:21.14	176.15	11.44	-43.2	-45.6	17.1	0.00e+00	0	43	0	238026752	58	4615
2026-01-14 12:25:21.85	176.18	11.51	-43.2	-45.5	17.2	0.00e+00	0	43	0	242221056	58	4586
2026-01-14 12:25:23.13	176.23	11.63	-43.3	-45.6	17.1	0.00e+00	0	43	0	249561088	58	4629
2026-01-14 12:25:23.84	176.26	11.69	-43.3	-45.5	17.2	0.00e+00	0	43	0	253755392	58	4589
2026-01-14 12:25:25.12	176.31	11.81	-43.4	-45.7	17.1	0.00e+00	0	43	0	261095424	58	4653
2026-01-14 12:25:25.86	176.34	11.88	-43.4	-45.6	17.1	0.00e+00	0	43	0	265289728	58	4619
2026-01-14 12:25:27.13	176.39	11.99	-43.2	-45.4	17.1	0.00e+00	0	43	0	272629760	58	4534
2026-01-14 12:25:28.10	176.43	12.08	-43.4	-45.6	17.1	0.00e+00	0	43	0	277872640	58	4630
2026-01-14 12:25:29.09	176.47	12.18	-43.3	-45.5	17.2	0.00e+00	0	43	0	283115520	58	4575
2026-01-14 12:25:30.09	176.51	12.27	-43.4	-45.6	17.2	0.00e+00	0	43	0	288358400	58	4624
2026-01-14 12:25:31.09	176.55	12.36	-43.5	-45.7	17.1	0.00e+00	0	43	0	294649856	58	4667
2026-01-14 12:25:32.08	176.59	12.46	-43.4	-45.6	17.2	0.00e+00	0	43	0	299892736	58	4634
2026-01-14 12:25:33.08	176.63	12.55	-43.3	-45.6	17.2	0.00e+00	0	43	0	306184192	58	4612
2026-01-14 12:25:34.07	176.67	12.65	-43.3	-45.5	17.2	0.00e+00	0	43	0	311427072	58	4591
2026-01-14 12:25:35.08	176.71	12.74	-43.2	-45.4	17.4	0.00e+00	0	43	0	316669952	58	4503
2026-01-14 12:25:36.08	176.75	12.84	-43.2	-45.4	17.3	0.00e+00	0	43	0	322961408	58	4528
2026-01-14 12:25:37.07	176.80	12.93	-43.2	-45.4	17.3	0.00e+00	0	43	0	328204288	58	4511
2026-01-14 12:25:38.15	176.84	13.04	-43.2	-45.4	17.3	0.00e+00	0	43	0	334495744	58	4533
2026-01-14 12:25:39.00	176.88	13.12	-43.2	-45.4	17.3	0.00e+00	0	43	0	338690048	58	4536
2026-01-14 12:25:40.14	176.93	13.23	-43.1	-45.3	17.5	0.00e+00	0	43	0	344981504	58	4450
2026-01-14 12:25:40.99	176.96	13.32	-43.1	-45.3	17.5	0.00e+00	0	43	0	350224384	58	4471
2026-01-14 12:25:42.13	177.01	13.43	-43.1	-45.3	17.5	0.00e+00	0	43	0	356515840	58	4462
2026-01-14 12:25:42.98	177.05	13.51	-43.1	-45.3	17.5	0.00e+00	0	43	0	361758720	58	4454
2026-01-14 12:25:44.12	177.10	13.62	-42.9	-45.1	17.6	0.00e+00	0	43	0	368050176	57	4635
2026-01-14 12:25:44.97	177.14	13.71	-43.0	-45.2	17.6	0.00e+00	0	43	0	372244480	57	4660
2026-01-14 12:25:46.11	177.19	13.82	-43.0	-45.1	17.6	0.00e+00	0	43	0	379584512	57	4649
2026-01-14 12:25:47.21	177.24	13.93	-42.9	-45.1	17.7	0.00e+00	0	43	0	384827392	57	4612
2026-01-14 12:25:48.24	177.28	14.03	-42.9	-45.0	17.7	0.00e+00	0	43	0	391118848	57	4595
2026-01-14 12:25:49.24	177.33	14.14	-42.8	-44.9	17.8	0.00e+00	0	43	0	396361728	57	4538
2026-01-14 12:25:50.23	177.38	14.24	-42.8	-44.9	17.9	0.00e+00	0	43	0	402653184	57	4508
2026-01-14 12:25:51.23	177.42	14.34	-42.9	-45.0	17.7	0.00e+00	0	43	0	407896064	57	4583
2026-01-14 12:25:52.22	177.47	14.44	-42.8	-44.9	17.8	0.00e+00	0	43	0	413138944	57	4532
2026-01-14 12:25:53.22	177.51	14.54	-42.7	-44.8	18.0	0.00e+00	0	43	0	419430400	57	4445
2026-01-14 12:25:54.21	177.56	14.64	-42.7	-44.8	17.9	0.00e+00	0	43	0	424673280	57	4472
2026-01-14 12:25:55.21	177.61	14.75	-42.8	-44.9	17.9	0.00e+00	0	43	0	429916160	57	4498
2026-01-14 12:25:56.20	177.65	14.85	-42.6	-44.7	18.0	0.00e+00	0	43	0	436207616	57	4423
2026-01-14 12:25:57.20	177.70	14.95	-42.6	-44.7	18.0	0.00e+00	0	43	0	441450496	57	4404
2026-01-14 12:25:58.20	177.75	15.06	-42.7	-44.8	18.0	0.00e+00	0	43	0	446693376	57	4469
2026-01-14 12:25:59.19	177.80	15.16	-42.4	-44.5	18.2	0.00e+00	0	43	0	452984832	56	4571
2026-01-14 12:26:00.23	177.85	15.27	-42.3	-44.4	18.3	0.00e+00	0	43	0	458227712	56	4521
2026-01-14 12:26:01.24	177.90	15.38	-42.3	-44.3	18.4	0.00e+00	0	43	0	464519168	56	4468
2026-01-14 12:26:02.23	177.95	15.48	-42.3	-44.3	18.4	0.00e+00	0	43	0	469762048	56	4463
2026-01-14 12:26:03.23	178.00	15.59	-42.3	-44.4	18.4	0.00e+00	0	43	0	475004928	56	4502
2026-01-14 12:26:04.22	178.05	15.70	-42.1	-44.1	18.6	0.00e+00	0	43	0	481296384	56	4382
2026-01-14 12:26:05.22	178.10	15.81	-42.0	-44.0	18.6	0.00e+00	0	43	0	486539264	56	4340
2026-01-14 12:26:06.21	178.15	15.91	-42.1	-44.1	18.6	0.00e+00	0	43	0	491782144	56	4391
2026-01-14 12:26:07.21	178.20	16.02	-42.0	-44.0	18.7	0.00e+00	0	43	0	498073600	56	4325
2026-01-14 12:26:08.20	178.25	16.13	-41.8	-43.8	18.8	0.00e+00	0	43	0	503316480	55	4463
2026-01-14 12:26:09.20	178.30	16.24	-41.7	-43.7	18.9	0.00e+00	0	43	0	508559360	55	4401
2026-01-14 12:26:10.20	178.35	16.35	-41.7	-43.7	18.9	0.00e+00	0	43	0	514850816	55	4415
2026-01-14 12:26:11.19	178.41	16.46	-41.8	-43.7	18.8	0.00e+00	0	43	0	520093696	55	4427
2026-01-14 12:26:12.19	178.46	16.57	-41.7	-43.6	18.9	0.00e+00	0	43	0	525336576	55	4375
2026-01-14 12:26:13.18	178.51	16.68	-41.6	-43.5	19.0	0.00e+00	0	43	0	531628032	55	4333
2026-01-14 12:26:14.24	178.57	16.80	-41.6	-43.5	18.9	0.00e+00	0	43	0	536870912	55	4331
2026-01-14 12:26:15.16	178.62	16.90	-41.6	-43.5	19.0	0.00e+00	0	43	0	542113792	55	4334
2026-01-14 12:26:16.15	178.67	17.01	-41.5	-43.4	19.1	0.00e+00	0	43	0	548405248	55	4271
2026-01-14 12:26:17.15	178.73	17.13	-41.5	-43.4	19.1	0.00e+00	0	43	0	553648128	54	4508
2026-01-14 12:26:18.15	178.78	17.24	-41.5	-43.5	19.1	0.00e+00	0	43	0	558891008	54	4551
2026-01-14 12:26:19.14	178.84	17.36	-41.4	-43.4	19.2	0.00e+00	0	43	0	565182464	54	4495
2026-01-14 12:26:20.14	178.89	17.47	-41.4	-43.3	19.2	0.00e+00	0	43	0	570425344	54	4468
2026-01-14 12:26:21.13	178.95	17.59	-41.4	-43.3	19.2	0.00e+00	0	43	0	575668224	54	4475
2026-01-14 12:26:22.13	179.01	17.70	-41.3	-43.3	19.2	1.36e-04	0	43	0	581959680	54	4457
2026-01-14 12:26:23.12	179.06	17.82	-41.5	-43.4	19.1	0.00e+00	0	43	0	587202560	54	4514
2026-01-14 12:26:24.12	179.12	17.93	-41.4	-43.3	19.1	0.00e+00	0	43	0	592445440	54	4490
2026-01-14 12:26:25.11	179.18	18.05	-41.3	-43.3	19.3	3.20e-05	0	43	0	598736896	54	4444
2026-01-14 12:26:26.11	179.24	18.17	-41.4	-43.3	19.2	0.00e+00	0	43	0	603979776	54	4461
2026-01-14 12:26:27.11	179.29	18.29	-41.3	-43.3	19.2	0.00e+00	0	43	0	609222656	54	4444
2026-01-14 12:26:28.10	179.35	18.41	-41.4	-43.4	19.2	0.00e+00	0	43	0	615514112	54	4498
2026-01-14 12:26:29.16	179.42	18.53	-41.4	-43.3	19.2	0.00e+00	0	43	0	620756992	54	4487
2026-01-14 12:26:30.04	179.47	18.64	-41.3	-43.3	19.2	0.00e+00	0	43	0	625999872	54	4448
2026-01-14 12:26:31.37	179.55	18.80	-41.4	-43.3	19.2	0.00e+00	0	43	0	633339904	54	4457
2026-01-14 12:26:32.08	179.59	18.89	-41.3	-43.3	19.2	0.00e+00	0	43	0	637534208	54	4451
2026-01-14 12:26:33.36	179.67	19.04	-41.4	-43.4	19.1	0.00e+00	0	43	0	644874240	54	4514
2026-01-14 12:26:34.07	179.72	19.13	-41.4	-43.4	19.1	0.00e+00	0	43	0	649068544	54	4515
2026-01-14 12:26:35.72	179.82	19.33	-41.4	-43.3	19.2	0.00e+00	0	43	0	658505728	54	4489
2026-01-14 12:26:36.29	179.86	19.40	-41.3	-43.3	19.2	0.00e+00	0	43	0	661651456	54	4453
2026-01-14 12:26:38.00	179.96	19.62	-41.3	-43.3	19.3	0.00e+00	0	43	0	671088640	54	4445
2026-01-14 12:26:38.57	180.00	19.69	-41.2	-43.1	19.3	0.00e+00	0	43	0	674234368	54	4386
2026-01-14 12:26:40.29	180.11	19.91	-41.2	-43.2	19.3	0.00e+00	0	43	0	683671552	54	4401
2026-01-14 12:26:40.86	180.15	19.98	-41.1	-43.1	19.4	0.00e+00	0	43	0	686817280	54	4354
2026-01-14 12:26:42.56	180.26	20.20	-41.1	-43.1	19.4	0.00e+00	0	43	0	696254464	54	4351
2026-01-14 12:26:43.13	180.30	20.27	-41.1	-43.0	19.5	0.00e+00	0	43	0	699400192	54	4321
2026-01-14 12:26:44.88	180.42	20.49	-41.0	-42.9	19.3	0.00e+00	0	43	0	709885952	54	4285
2026-01-14 12:26:45.45	180.46	20.57	-41.0	-42.9	19.5	0.00e+00	0	43	0	713031680	54	4283
2026-01-14 12:26:47.16	180.57	20.79	-41.0	-43.0	19.5	0.00e+00	0	43	0	722468864	54	4312
2026-01-14 12:26:47.73	180.61	20.87	-41.1	-43.1	19.4	0.00e+00	0	43	0	725614592	54	4352
2026-01-14 12:26:49.43	180.73	21.09	-41.2	-43.1	19.4	0.00e+00	0	43	0	735051776	54	4381
2026-01-14 12:26:50.00	180.77	21.17	-41.2	-43.1	19.4	0.00e+00	0	43	0	738197504	54	4388
2026-01-14 12:26:51.71	180.89	21.39	-41.1	-43.0	19.5	0.00e+00	0	43	0	747634688	54	4333
2026-01-14 12:26:52.28	180.94	21.47	-41.1	-43.0	19.5	0.00e+00	0	43	0	750780416	54	4319
2026-01-14 12:26:53.97	181.06	21.70	-40.8	-42.7	19.8	0.00e+00	0	44	0	761266176	53	4407
2026-01-14 12:26:54.54	181.10	21.78	-40.8	-42.7	19.7	0.00e+00	0	43	0	763363328	53	4420
2026-01-14 12:26:56.24	181.22	22.01	-40.8	-42.7	19.7	0.00e+00	0	43	0	773849088	53	4429
2026-01-14 12:26:56.81	181.27	22.09	-40.8	-42.7	19.7	0.00e+00	0	43	0	776994816	53	4429
2026-01-14 12:26:58.52	181.40	22.32	-40.7	-42.6	19.8	0.00e+00	0	43	0	786432000	53	4384
2026-01-14 12:26:59.09	181.44	22.40	-40.7	-42.6	19.8	0.00e+00	0	43	0	789577728	53	4381
2026-01-14 12:27:00.78	181.57	22.64	-40.8	-42.7	19.7	0.00e+00	0	43	0	799014912	53	4421
2026-01-14 12:27:01.35	181.61	22.72	-40.8	-42.7	19.7	0.00e+00	0	43	0	802160640	53	4414
2026-01-14 12:27:03.06	181.75	22.96	-40.5	-42.3	20.1	0.00e+00	0	43	0	811597824	53	4237
2026-01-14 12:27:03.62	181.79	23.04	-40.4	-42.2	20.1	0.00e+00	0	43	0	814743552	52	4437
2026-01-14 12:27:05.52	181.94	23.31	-40.4	-42.2	20.2	0.00e+00	0	43	0	825229312	52	4437
2026-01-14 12:27:06.09	181.99	23.39	-40.4	-42.2	20.2	0.00e+00	0	43	0	828375040	52	4437
2026-01-14 12:27:07.79	182.13	23.64	-40.4	-42.2	20.2	0.00e+00	0	43	0	838860800	52	4422
2026-01-14 12:27:08.50	182.19	23.74	-40.4	-42.2	20.1	0.00e+00	0	43	0	843055104	52	4439
2026-01-14 12:27:09.78	182.29	23.93	-40.5	-42.3	20.1	0.00e+00	0	43	0	849346560	52	4473
2026-01-14 12:27:10.49	182.35	24.04	-40.5	-42.3	20.1	0.00e+00	0	43	0	853540864	52	4478
2026-01-14 12:27:11.83	182.47	24.23	-40.4	-42.2	20.2	0.00e+00	0	43	0	860880896	52	4440
2026-01-14 12:27:12.81	182.55	24.38	-40.4	-42.2	20.2	0.00e+00	0	43	0	867172352	52	4420
2026-01-14 12:27:14.12	182.66	24.58	-40.3	-42.1	20.3	0.00e+00	0	43	0	874512384	52	4382
2026-01-14 12:27:14.89	182.73	24.69	-40.3	-42.1	20.3	0.00e+00	0	43	0	878706688	52	4386
2026-01-14 12:27:16.18	182.84	24.89	-40.3	-42.1	20.3	0.00e+00	0	43	0	886046720	52	4388
2026-01-14 12:27:16.89	182.91	25.00	-40.2	-42.1	20.4	0.00e+00	0	43	0	889192448	52	4348
2026-01-14 12:27:18.17	183.02	25.19	-40.2	-42.0	20.4	0.00e+00	0	43	0	896532480	52	4321
2026-01-14 12:27:18.89	183.09	25.30	-40.2	-42.0	20.4	0.00e+00	0	43	0	900726784	52	4320
2026-01-14 12:27:20.17	183.21	25.50	-40.2	-42.1	20.3	0.00e+00	0	43	0	908066816	52	4342
2026-01-14 12:27:20.88	183.27	25.61	-40.2	-42.0	20.4	0.00e+00	0	43	0	912261120	52	4332
2026-01-14 12:27:22.16	183.39	25.81	-40.2	-42.0	20.4	0.00e+00	0	43	0	919601152	52	4304
2026-01-14 12:27:22.89	183.46	25.93	-40.2	-42.0	20.4	0.00e+00	0	43	0	923795456	52	4324
2026-01-14 12:27:24.17	183.58	26.13	-40.3	-42.2	20.3	0.00e+00	0	43	0	931135488	52	4394
2026-01-14 12:27:25.18	183.68	26.29	-40.2	-42.0	20.4	0.00e+00	0	43	0	936378368	52	4336
2026-01-14 12:27:26.49	183.80	26.50	-40.1	-41.9	20.5	0.00e+00	0	43	0	943718400	52	4268
2026-01-14 12:27:27.20	183.87	26.61	-40.2	-42.1	20.4	0.00e+00	0	43	0	947912704	52	4341
2026-01-14 12:27:28.83	184.04	26.88	-40.2	-42.1	20.4	0.00e+00	0	43	0	956301312	52	4344
2026-01-14 12:27:29.40	184.09	26.97	-40.2	-42.0	20.4	0.00e+00	0	43	0	959447040	52	4319
2026-01-14 12:27:31.10	184.27	27.25	-40.2	-42.0	20.4	0.00e+00	0	43	0	969932800	52	4308
2026-01-14 12:27:31.67	184.32	27.34	-40.2	-42.1	20.4	0.00e+00	0	43	0	973078528	52	4349
2026-01-14 12:27:33.37	184.50	27.63	-40.0	-41.8	20.6	0.00e+00	0	43	0	982515712	52	4208
2026-01-14 12:27:33.94	184.56	27.72	-40.0	-41.8	20.6	0.00e+00	0	43	0	985661440	51	4476
2026-01-14 12:27:35.87	184.77	28.05	-40.1	-41.9	20.6	0.00e+00	0	43	0	996147200	51	4505
2026-01-14 12:27:36.44	184.83	28.14	-40.0	-41.8	20.6	0.00e+00	0	43	0	999292928	51	4481
2026-01-14 12:27:38.14	185.01	28.43	-40.0	-41.8	20.6	0.00e+00	0	43	0	1008730112	51	4485
2026-01-14 12:27:38.71	185.08	28.53	-40.0	-41.9	20.6	0.00e+00	0	43	0	1012924416	51	4499
2026-01-14 12:27:40.42	185.27	28.83	-40.1	-42.0	20.5	0.00e+00	0	43	0	1022361600	51	4555
2026-01-14 12:27:40.99	185.33	28.93	-40.1	-42.0	20.5	0.00e+00	0	43	0	1025507328	51	4549
2026-01-14 12:27:42.68	185.52	29.22	-40.3	-42.1	20.4	0.00e+00	0	43	0	1034944512	51	4622
2026-01-14 12:27:43.24	185.59	29.32	-40.3	-42.1	20.4	0.00e+00	0	43	0	1038090240	51	4649
2026-01-14 12:27:45.17	185.82	29.66	-40.4	-42.3	20.3	0.00e+00	0	43	0	1048576000	51	4708
2026-01-14 12:27:45.74	185.88	29.76	-40.4	-42.3	20.2	0.00e+00	0	43	0	1051721728	51	4720
2026-01-14 12:27:47.76	186.13	30.13	-40.2	-42.0	20.5	0.00e+00	0	43	0	1063256064	51	4577
2026-01-14 12:27:48.33	186.20	30.23	-40.2	-42.0	20.5	0.00e+00	0	43	0	1066401792	51	4563
2026-01-14 12:27:50.03	186.41	30.54	-40.2	-42.0	20.5	0.00e+00	0	43	0	1075838976	51	4570
2026-01-14 12:27:50.60	186.48	30.64	-40.1	-41.9	20.5	0.00e+00	0	44	0	1078984704	51	4540
2026-01-14 12:27:52.30	186.69	30.96	-40.0	-41.8	20.7	0.00e+00	0	43	0	1089470464	51	4459
2026-01-14 12:27:52.87	186.77	31.06	-40.0	-41.8	20.6	0.00e+00	0	44	0	1091567616	51	4488
2026-01-14 12:27:54.58	186.99	31.38	-40.1	-41.9	20.6	0.00e+00	0	43	0	1102053376	51	4518
2026-01-14 12:27:55.15	187.06	31.49	-40.1	-41.9	20.6	0.00e+00	0	43	0	1105199104	51	4528
2026-01-14 12:27:56.85	187.29	31.81	-40.2	-42.0	20.5	0.00e+00	0	43	0	1114636288	51	4579
2026-01-14 12:27:57.42	187.37	31.92	-40.2	-42.0	20.4	0.00e+00	0	43	0	1117782016	51	4589
2026-01-14 12:27:59.13	187.60	32.25	-40.1	-41.9	20.6	0.00e+00	0	43	0	1127219200	51	4504
2026-01-14 12:27:59.95	187.71	32.41	-40.0	-41.8	20.6	0.00e+00	0	43	0	1131413504	51	4456
2026-01-14 12:28:01.08	187.87	32.63	-39.8	-41.6	20.8	0.00e+00	0	43	0	1137704960	51	4362
2026-01-14 12:28:01.94	188.00	32.79	-39.8	-41.6	20.8	0.00e+00	0	43	0	1142947840	51	4362
2026-01-14 12:28:03.12	188.17	33.03	-39.8	-41.6	20.8	0.00e+00	0	43	0	1149239296	51	4344
2026-01-14 12:28:03.97	188.29	33.19	-39.9	-41.7	20.8	0.00e+00	0	43	0	1154482176	51	4401
2026-01-14 12:28:05.11	188.46	33.42	-39.8	-41.6	20.8	0.00e+00	0	43	0	1160773632	51	4368
2026-01-14 12:28:05.96	188.58	33.59	-39.8	-41.5	20.9	0.00e+00	0	43	0	1166016512	51	4330
2026-01-14 12:28:07.10	188.76	33.82	-39.8	-41.6	20.9	0.00e+00	0	43	0	1172307968	51	4347
2026-01-14 12:28:07.95	188.89	33.99	-39.8	-41.6	20.8	0.00e+00	0	43	0	1176502272	51	4357
2026-01-14 12:28:09.09	189.06	34.22	-39.9	-41.8	20.7	0.00e+00	0	43	0	1182793728	51	4442
2026-01-14 12:28:10.02	189.21	34.41	-40.0	-41.8	20.7	0.00e+00	0	43	0	1188036608	51	4456
2026-01-14 12:28:11.19	189.39	34.65	-40.0	-41.8	20.7	0.00e+00	0	43	0	1195376640	51	4463
2026-01-14 12:28:12.10	189.54	34.84	-40.0	-41.8	20.7	0.00e+00	0	43	0	1200619520	51	4459
2026-01-14 12:28:13.27	189.73	35.08	-39.8	-41.6	20.9	0.00e+00	0	43	0	1206910976	51	4353
2026-01-14 12:28:14.13	189.87	35.26	-39.8	-41.6	20.9	0.00e+00	0	43	0	1211105280	51	4347
2026-01-14 12:28:15.48	190.10	35.54	-39.7	-41.4	21.0	0.00e+00	0	43	0	1219493888	51	4289
2026-01-14 12:28:16.20	190.22	35.70	-39.6	-41.4	21.0	0.00e+00	0	43	0	1222639616	51	4249
2026-01-14 12:28:17.47	190.43	35.96	-39.4	-41.2	21.2	0.00e+00	0	43	0	1229979648	50	4396
2026-01-14 12:28:18.21	190.56	36.12	-39.5	-41.3	21.1	0.00e+00	0	43	0	1234173952	50	4445
2026-01-14 12:28:19.49	190.79	36.40	-39.4	-41.2	21.2	0.00e+00	0	43	0	1241513984	50	4427
2026-01-14 12:28:20.20	190.91	36.55	-39.4	-41.2	21.2	0.00e+00	0	43	0	1245708288	50	4413
2026-01-14 12:28:21.48	191.15	36.83	-39.5	-41.2	21.2	0.00e+00	0	43	0	1253048320	50	4440
2026-01-14 12:28:22.19	191.28	36.98	-39.4	-41.2	21.2	0.00e+00	0	43	0	1257242624	50	4420
2026-01-14 12:28:23.47	191.51	37.26	-39.5	-41.2	21.1	0.00e+00	0	43	0	1264582656	50	4432
2026-01-14 12:28:24.19	191.65	37.42	-39.6	-41.4	21.0	0.00e+00	0	43	0	1267728384	50	4507
2026-01-14 12:28:25.47	191.89	37.70	-39.8	-41.5	20.9	0.00e+00	0	43	0	1275068416	50	4594
2026-01-14 12:28:26.18	192.03	37.86	-39.8	-41.6	20.8	0.00e+00	0	43	0	1279262720	50	4622
2026-01-14 12:28:27.46	192.28	38.15	-39.9	-41.6	20.8	0.00e+00	0	43	0	1286602752	50	4650
2026-01-14 12:28:28.17	192.42	38.31	-39.7	-41.5	20.9	0.00e+00	0	43	0	1290797056	50	4582
2026-01-14 12:28:29.51	192.69	38.61	-39.7	-41.5	21.0	0.00e+00	0	43	0	1298137088	50	4549
2026-01-14 12:28:30.22	192.83	38.77	-39.6	-41.4	21.1	0.00e+00	0	43	0	1302331392	50	4495
2026-01-14 12:28:31.57	193.11	39.08	-39.4	-41.1	21.3	0.00e+00	0	43	0	1309671424	50	4389
2026-01-14 12:28:32.56	193.32	39.30	-39.3	-41.0	21.4	0.00e+00	0	43	0	1314914304	50	4332
2026-01-14 12:28:33.87	193.60	39.61	-39.5	-41.2	21.2	0.00e+00	0	43	0	1322254336	50	4429
2026-01-14 12:28:34.58	193.75	39.77	-39.6	-41.3	21.2	0.00e+00	0	43	0	1326448640	50	4470
2026-01-14 12:28:35.86	194.03	40.07	-39.7	-41.5	21.0	0.00e+00	0	43	0	1333788672	50	4576
2026-01-14 12:28:36.57	194.19	40.23	-39.8	-41.6	20.9	0.00e+00	0	43	0	1337982976	50	4640
2026-01-14 12:28:37.85	194.47	40.53	-39.8	-41.6	20.9	0.00e+00	0	43	0	1345323008	50	4620
2026-01-14 12:28:38.57	194.64	40.70	-39.9	-41.7	20.8	0.00e+00	0	43	0	1349517312	50	4655
2026-01-14 12:28:39.84	194.93	41.01	-39.8	-41.6	20.9	0.00e+00	0	43	0	1355808768	50	4632
2026-01-14 12:28:40.57	195.11	41.18	-39.9	-41.7	20.8	0.00e+00	0	43	0	1360003072	50	4681
2026-01-14 12:28:41.85	195.41	41.48	-39.9	-41.7	20.8	0.00e+00	0	43	0	1367343104	50	4658
2026-01-14 12:28:42.56	195.58	41.66	-40.0	-41.8	20.8	0.00e+00	0	43	0	1371537408	50	4729
2026-01-14 12:28:43.84	195.90	41.96	-40.0	-41.8	20.8	0.00e+00	0	43	0	1378877440	50	4720
2026-01-14 12:28:44.55	196.07	42.14	-39.9	-41.7	20.8	0.00e+00	0	43	0	1383071744	50	4689
2026-01-14 12:28:45.83	196.40	42.45	-40.0	-41.8	20.7	0.00e+00	0	44	0	1390411776	50	4754
2026-01-14 12:28:46.57	196.59	42.63	-40.2	-42.0	20.6	0.00e+00	0	43	0	1394606080	50	4833
2026-01-14 12:28:47.85	196.92	42.94	-40.2	-42.0	20.6	0.00e+00	0	43	0	1401946112	51	4552
2026-01-14 12:28:48.56	197.11	43.12	-40.1	-42.0	20.6	0.00e+00	0	43	0	1405091840	51	4550
2026-01-14 12:28:49.84	197.45	43.43	-40.1	-41.9	20.6	0.00e+00	0	44	0	1412431872	51	4530
2026-01-14 12:28:50.56	197.65	43.61	-40.1	-41.9	20.6	0.00e+00	0	43	0	1416626176	51	4539
2026-01-14 12:28:51.83	198.00	43.93	-40.1	-41.9	20.7	0.00e+00	0	43	0	1423966208	51	4513
2026-01-14 12:28:52.54	198.20	44.10	-40.0	-41.9	20.7	0.00e+00	0	43	0	1427111936	51	4497
2026-01-14 12:28:53.82	198.57	44.42	-40.1	-41.9	20.7	0.00e+00	0	43	0	1434451968	51	4501
2026-01-14 12:28:54.53	198.77	44.60	-40.0	-41.8	20.7	0.00e+00	0	43	0	1438646272	51	4467
2026-01-14 12:28:55.81	199.15	44.92	-40.1	-41.8	20.7	0.00e+00	0	44	0	1445986304	51	4488
2026-01-14 12:28:56.79	199.44	45.17	-40.0	-41.8	20.7	0.00e+00	0	43	0	1451229184	51	4471
2026-01-14 12:28:58.08	199.84	45.50	-40.0	-41.8	20.8	0.00e+00	0	43	0	1458569216	51	4444
2026-01-14 12:28:58.80	200.06	45.68	-40.0	-41.8	20.7	0.00e+00	0	43	0	1462763520	51	4477
2026-01-14 12:29:00.08	200.46	46.01	-40.0	-41.8	20.8	0.00e+00	0	43	0	1470103552	51	4444
2026-01-14 12:29:00.90	200.72	46.22	-40.1	-41.8	20.7	0.00e+00	0	43	0	1474297856	51	4493
2026-01-14 12:29:02.03	201.09	46.51	-40.1	-41.9	20.7	0.00e+00	0	43	0	1480589312	51	4514
2026-01-14 12:29:02.89	201.38	46.73	-40.1	-41.9	20.7	0.00e+00	0	44	0	1485832192	51	4514
2026-01-14 12:29:04.02	201.76	47.02	-40.1	-41.8	20.8	0.00e+00	0	43	0	1492123648	51	4481
2026-01-14 12:29:04.88	202.05	47.24	-40.1	-41.9	20.7	0.00e+00	0	43	0	1497366528	51	4517
2026-01-14 12:29:06.01	202.44	47.53	-40.1	-41.9	20.7	0.00e+00	0	43	0	1503657984	51	4527
2026-01-14 12:29:06.87	202.75	47.76	-40.2	-42.0	20.6	0.00e+00	0	43	0	1507852288	51	4583
2026-01-14 12:29:08.00	203.15	48.05	-40.5	-42.3	20.4	0.00e+00	0	43	0	1515192320	51	4739
2026-01-14 12:29:08.86	203.46	48.27	-40.7	-42.5	20.1	0.00e+00	0	43	0	1519386624	52	4597
2026-01-14 12:29:10.00	203.89	48.57	-40.7	-42.6	20.0	0.00e+00	0	44	0	1525678080	52	4643
2026-01-14 12:29:10.85	204.21	48.79	-40.6	-42.5	20.2	0.00e+00	0	43	0	1530920960	52	4558
2026-01-14 12:29:11.99	204.64	49.09	-40.4	-42.2	20.4	0.00e+00	0	43	0	1537212416	52	4432
2026-01-14 12:29:12.84	204.98	49.31	-40.4	-42.2	20.4	0.00e+00	0	44	0	1541406720	52	4404
2026-01-14 12:29:13.98	205.43	49.61	-40.3	-42.1	20.5	0.00e+00	0	44	0	1548746752	52	4367
2026-01-14 12:29:14.97	205.83	49.86	-40.5	-42.3	20.3	0.00e+00	0	44	0	1553989632	52	4459
2026-01-14 12:29:15.96	206.23	50.12	-40.5	-42.4	20.2	0.00e+00	0	43	0	1559232512	52	4496
2026-01-14 12:29:16.96	206.65	50.38	-40.4	-42.3	20.3	0.00e+00	0	44	0	1565523968	52	4453
2026-01-14 12:29:17.95	207.07	50.64	-40.3	-42.1	20.4	0.00e+00	0	43	0	1570766848	52	4378
2026-01-14 12:29:18.95	207.50	50.90	-40.2	-42.0	20.6	0.00e+00	0	43	0	1576009728	52	4306
2026-01-14 12:29:19.94	207.94	51.16	-40.4	-42.2	20.4	0.00e+00	0	43	0	1581252608	52	4416
2026-01-14 12:29:20.94	208.38	51.42	-40.6	-42.4	20.2	0.00e+00	0	43	0	1587544064	52	4499
2026-01-14 12:29:21.93	208.83	51.68	-40.9	-42.7	19.9	0.00e+00	0	43	0	1592786944	52	4694
2026-01-14 12:29:22.92	209.29	51.93	-41.0	-42.8	19.8	0.00e+00	0	43	0	1599078400	52	4742
2026-01-14 12:29:23.92	209.76	52.19	-40.5	-42.3	20.3	0.00e+00	0	43	0	1604321280	52	4484
2026-01-14 12:29:24.91	210.23	52.45	-40.4	-42.2	20.4	0.00e+00	0	43	0	1609564160	52	4425
2026-01-14 12:29:25.97	210.75	52.72	-40.6	-42.4	20.2	0.00e+00	0	44	0	1615855616	52	4525
2026-01-14 12:29:26.85	211.19	52.94	-40.6	-42.4	20.2	0.00e+00	0	44	0	1621098496	52	4503
2026-01-14 12:29:28.18	211.86	53.28	-40.5	-42.3	20.3	0.00e+00	0	43	0	1628438528	52	4468
2026-01-14 12:29:28.89	212.22	53.46	-40.6	-42.4	20.1	0.00e+00	0	43	0	1631584256	52	4537
2026-01-14 12:29:30.17	212.89	53.79	-40.9	-42.8	19.9	0.00e+00	0	43	0	1638924288	52	4729
2026-01-14 12:29:30.88	213.27	53.97	-41.1	-43.0	19.7	0.00e+00	0	44	0	1643118592	52	4821
2026-01-14 12:29:32.43	214.11	54.36	-40.9	-42.7	19.9	0.00e+00	0	43	0	1652555776	53	4438
2026-01-14 12:29:33.14	214.50	54.53	-40.7	-42.5	20.1	0.00e+00	0	44	0	1655701504	53	4306
2026-01-14 12:29:34.42	215.22	54.85	-40.8	-42.7	20.0	0.00e+00	0	43	0	1663041536	53	4403
2026-01-14 12:29:35.13	215.63	55.03	-40.6	-42.4	20.2	0.00e+00	0	43	0	1667235840	53	4280
2026-01-14 12:29:36.54	216.45	55.37	-40.4	-42.2	20.4	0.00e+00	0	43	0	1675624448	52	4405
2026-01-14 12:29:37.25	216.87	55.54	-40.4	-42.2	20.4	0.00e+00	0	44	0	1679818752	52	4427
2026-01-14 12:29:38.53	217.64	55.85	-40.7	-42.5	20.1	0.00e+00	0	44	0	1686110208	52	4594
2026-01-14 12:29:39.26	218.09	56.02	-40.7	-42.5	20.1	0.00e+00	0	43	0	1690304512	52	4577
2026-01-14 12:29:40.61	218.93	56.34	-40.7	-42.5	20.1	0.00e+00	0	44	0	1698693120	52	4590
2026-01-14 12:29:41.32	219.38	56.51	-40.6	-42.4	20.2	0.00e+00	0	43	0	1701838848	52	4527
2026-01-14 12:29:42.68	220.26	56.82	-40.6	-42.5	20.2	0.00e+00	0	44	0	1710227456	52	4550
2026-01-14 12:29:43.39	220.73	56.99	-40.4	-42.2	20.4	0.00e+00	0	43	0	1713373184	52	4435
2026-01-14 12:29:44.67	221.59	57.27	-40.3	-42.1	20.5	0.00e+00	0	43	0	1720713216	52	4370
2026-01-14 12:29:45.40	222.08	57.44	-40.5	-42.3	20.3	0.00e+00	0	43	0	1724907520	52	4476
2026-01-14 12:29:46.68	222.97	57.72	-40.6	-42.4	20.2	0.00e+00	0	43	0	1732247552	52	4519
2026-01-14 12:29:47.41	223.48	57.88	-40.4	-42.2	20.4	0.00e+00	0	43	0	1736441856	52	4429
2026-01-14 12:29:48.69	224.39	58.15	-40.3	-42.1	20.5	0.00e+00	0	43	0	1743781888	52	4361
2026-01-14 12:29:49.41	224.92	58.30	-40.4	-42.2	20.4	0.00e+00	0	43	0	1747976192	52	4400
2026-01-14 12:29:50.69	225.86	58.57	-40.3	-42.1	20.5	0.00e+00	0	43	0	1754267648	52	4367
2026-01-14 12:29:51.47	226.44	58.72	-40.3	-42.1	20.5	0.00e+00	0	44	0	1759510528	52	4373
2026-01-14 12:29:53.03	227.63	59.03	-40.0	-41.8	20.7	0.00e+00	0	43	0	1767899136	52	4209
2026-01-14 12:29:53.65	228.11	59.15	-39.9	-41.7	20.9	0.00e+00	0	43	0	1772093440	51	4420
2026-01-14 12:29:55.40	229.49	59.49	-39.9	-41.6	21.0	0.00e+00	0	43	0	1781530624	51	4390
2026-01-14 12:29:55.97	229.94	59.59	-40.0	-41.8	20.8	0.00e+00	0	44	0	1784676352	51	4462
2026-01-14 12:29:57.68	231.33	59.90	-39.9	-41.7	20.9	0.00e+00	0	43	0	1794113536	51	4403
2026-01-14 12:29:58.24	231.79	59.99	-39.8	-41.5	21.0	0.00e+00	0	43	0	1797259264	51	4326
2026-01-14 12:29:59.95	233.23	60.28	-39.8	-41.6	20.9	0.00e+00	0	43	0	1806696448	51	4367
2026-01-14 12:30:00.52	233.71	60.37	-40.0	-41.8	20.7	0.00e+00	0	43	0	1809842176	51	4484
2026-01-14 12:30:02.22	235.18	60.64	-39.9	-41.7	20.9	0.00e+00	0	43	0	1819279360	51	4411
2026-01-14 12:30:02.79	235.67	60.72	-40.1	-41.9	20.7	0.00e+00	0	43	0	1822425088	51	4526
2026-01-14 12:30:04.50	237.19	60.97	-39.5	-41.2	21.2	0.00e+00	0	43	0	1832910848	51	4193
2026-01-14 12:30:05.07	237.70	61.05	-39.4	-41.1	21.3	0.00e+00	0	43	0	1836056576	50	4369
2026-01-14 12:30:06.87	239.33	61.28	-39.7	-41.5	21.0	0.00e+00	0	44	0	1845493760	50	4556
2026-01-14 12:30:07.44	239.86	61.35	-39.9	-41.7	20.8	0.00e+00	0	44	0	1848639488	50	4691
2026-01-14 12:30:09.14	241.44	61.55	-39.8	-41.6	20.9	0.00e+00	0	43	0	1858076672	50	4626
2026-01-14 12:30:09.92	242.17	61.63	-39.7	-41.5	21.1	0.00e+00	0	43	0	1863319552	50	4560
2026-01-14 12:30:11.19	243.37	61.76	-39.9	-41.6	20.9	0.00e+00	0	43	0	1869611008	50	4640
2026-01-14 12:30:12.16	244.30	61.85	-40.0	-41.8	20.8	0.00e+00	0	43	0	1875902464	50	4715
2026-01-14 12:30:13.47	245.56	61.96	-39.7	-41.5	21.0	0.00e+00	0	43	0	1883242496	50	4551
2026-01-14 12:30:14.18	246.25	62.02	-39.8	-41.5	21.0	0.00e+00	0	44	0	1886388224	50	4580
2026-01-14 12:30:15.46	247.50	62.11	-39.7	-41.4	21.1	0.00e+00	0	43	0	1893728256	50	4544
2026-01-14 12:30:16.17	248.20	62.16	-39.4	-41.1	21.3	0.00e+00	0	44	0	1897922560	50	4389
2026-01-14 12:30:17.46	249.47	62.24	-39.6	-41.3	21.1	0.00e+00	0	43	0	1905262592	50	4493
2026-01-14 12:30:18.17	250.17	62.27	-39.9	-41.6	20.9	0.00e+00	0	44	0	1909456896	50	4645
2026-01-14 12:30:19.45	251.45	62.33	-39.6	-41.4	21.1	0.00e+00	0	43	0	1916796928	50	4508
2026-01-14 12:30:20.16	252.16	62.36	-39.6	-41.3	21.1	0.00e+00	0	44	0	1920991232	50	4484
2026-01-14 12:30:21.44	253.44	62.39	-39.4	-41.2	21.3	0.00e+00	0	44	0	1927282688	50	4399
2026-01-14 12:30:22.15	254.15	62.41	-39.5	-41.3	21.2	0.00e+00	0	43	0	1931476992	50	4464
2026-01-14 12:30:23.43	255.44	62.43	-39.4	-41.1	21.3	0.00e+00	0	43	0	1938817024	50	4381
2026-01-14 12:30:24.15	256.16	62.43	-39.4	-41.1	21.3	0.00e+00	0	44	0	1943011328	50	4370
2026-01-14 12:30:25.44	257.46	62.44	-39.4	-41.2	21.3	0.00e+00	0	44	0	1950351360	50	4407
2026-01-14 12:30:26.16	258.18	62.43	-39.4	-41.1	21.3	0.00e+00	0	43	0	1954545664	50	4375
2026-01-14 12:30:27.44	259.47	62.41	-39.5	-41.2	21.3	0.00e+00	0	43	0	1961885696	50	4425
2026-01-14 12:30:28.15	260.18	62.40	-39.3	-41.1	21.4	0.00e+00	0	43	0	1966080000	50	4344
2026-01-14 12:30:29.43	261.46	62.36	-39.4	-41.1	21.3	0.00e+00	0	44	0	1972371456	50	4388
2026-01-14 12:30:30.16	262.19	62.33	-39.6	-41.4	21.1	0.00e+00	0	43	0	1976565760	50	4521
2026-01-14 12:30:31.44	263.46	62.28	-39.5	-41.2	21.3	0.00e+00	0	43	0	1983905792	50	4429
2026-01-14 12:30:32.20	264.22	62.24	-39.5	-41.2	21.3	0.00e+00	0	43	0	1988100096	50	4415
2026-01-14 12:30:33.48	265.48	62.16	-39.5	-41.3	21.2	0.00e+00	0	43	0	1995440128	50	4467
2026-01-14 12:30:34.28	266.26	62.11	-39.5	-41.3	21.2	0.00e+00	0	44	0	1999634432	50	4454
2026-01-14 12:30:35.42	267.38	62.03	-39.7	-41.4	21.1	0.00e+00	0	43	0	2005925888	50	4527
2026-01-14 12:30:36.27	268.20	61.96	-39.6	-41.3	21.2	0.00e+00	0	43	0	2011168768	50	4466
2026-01-14 12:30:37.41	269.30	61.86	-39.8	-41.5	21.0	0.00e+00	0	43	0	2017460224	50	4592
2026-01-14 12:30:38.26	270.11	61.78	-39.6	-41.4	21.1	0.00e+00	0	44	0	2022703104	50	4525
2026-01-14 12:30:39.40	271.19	61.67	-39.6	-41.3	21.2	0.00e+00	0	43	0	2028994560	50	4484
2026-01-14 12:30:40.60	272.32	61.54	-39.6	-41.4	21.2	0.00e+00	0	43	0	2035286016	50	4508
2026-01-14 12:30:41.63	273.28	61.42	-39.7	-41.4	21.2	0.00e+00	0	44	0	2041577472	50	4521
2026-01-14 12:30:42.62	274.19	61.31	-39.9	-41.7	20.9	0.00e+00	0	44	0	2046820352	50	4674
2026-01-14 12:30:43.62	275.10	61.18	-40.1	-41.9	20.7	0.00e+00	0	43	0	2052063232	50	4811
2026-01-14 12:30:44.61	276.00	61.05	-40.0	-41.7	20.9	0.00e+00	0	44	0	2058354688	50	4699
2026-01-14 12:30:45.61	276.89	60.91	-39.9	-41.7	20.9	0.00e+00	0	43	0	2063597568	50	4652
2026-01-14 12:30:46.61	277.78	60.77	-40.0	-41.8	20.8	0.00e+00	0	43	0	2069889024	50	4757
2026-01-14 12:30:47.60	278.64	60.62	-39.9	-41.7	20.9	0.00e+00	0	44	0	2075131904	50	4655
2026-01-14 12:30:48.97	279.82	60.41	-39.5	-41.3	21.3	0.00e+00	0	43	0	2082471936	50	4442
2026-01-14 12:30:49.68	280.43	60.29	-39.7	-41.4	21.2	0.00e+00	0	43	0	2086666240	50	4525
2026-01-14 12:30:50.96	281.50	60.08	-40.0	-41.8	20.9	0.00e+00	0	43	0	2094006272	50	4712
2026-01-14 12:30:51.69	282.11	59.95	-40.0	-41.8	20.8	0.00e+00	0	43	0	2098200576	50	4717
2026-01-14 12:30:53.38	283.48	59.65	-40.3	-42.1	20.5	0.00e+00	0	43	0	2107637760	51	4619
2026-01-14 12:30:53.95	283.94	59.55	-40.3	-42.1	20.6	0.00e+00	0	43	0	2110783488	51	4605
2026-01-14 12:30:55.65	285.28	59.23	-40.2	-42.0	20.6	0.00e+00	0	44	0	2120220672	51	4591
2026-01-14 12:30:56.22	285.73	59.12	-40.2	-42.0	20.7	0.00e+00	0	44	0	2123366400	51	4561
2026-01-14 12:30:57.92	287.03	58.79	-40.2	-42.0	20.7	0.00e+00	0	43	0	2132803584	51	4551
2026-01-14 12:30:58.49	287.45	58.68	-40.1	-41.8	20.8	0.00e+00	0	43	0	2135949312	51	4485
2026-01-14 12:31:00.19	288.71	58.33	-40.0	-41.7	20.9	0.00e+00	0	43	0	2145386496	51	4434
2026-01-14 12:31:00.93	289.25	58.17	-40.0	-41.8	20.8	0.00e+00	0	43	0	2149580800	51	4453
2026-01-14 12:31:02.21	290.16	57.90	-40.4	-42.1	20.5	0.00e+00	0	43	0	2156920832	51	4650
2026-01-14 12:31:03.16	290.82	57.69	-40.5	-42.3	20.4	0.00e+00	0	43	0	2162163712	51	4726
2026-01-14 12:31:04.44	291.71	57.41	-40.4	-42.2	20.5	0.00e+00	0	43	0	2169503744	51	4662
2026-01-14 12:31:05.21	292.23	57.24	-40.4	-42.2	20.5	0.00e+00	0	44	0	2173698048	51	4655
2026-01-14 12:31:06.48	293.07	56.95	-40.6	-42.4	20.3	0.00e+00	0	44	0	2181038080	51	4779
2026-01-14 12:31:07.21	293.55	56.79	-40.6	-42.4	20.3	0.00e+00	0	43	0	2185232384	51	4797
2026-01-14 12:31:08.49	294.37	56.49	-40.4	-42.2	20.4	0.00e+00	0	43	0	2192572416	51	4698
2026-01-14 12:31:09.23	294.84	56.32	-40.5	-42.3	20.4	0.00e+00	0	43	0	2196766720	51	4741
2026-01-14 12:31:10.51	295.64	56.02	-40.6	-42.4	20.3	0.00e+00	0	43	0	2204106752	51	4814
2026-01-14 12:31:11.23	296.08	55.85	-40.6	-42.4	20.3	0.00e+00	0	43	0	2208301056	51	4806
2026-01-14 12:31:12.51	296.85	55.54	-40.6	-42.4	20.1	0.00e+00	0	43	0	2214592512	52	4543
2026-01-14 12:31:13.22	297.27	55.37	-40.6	-42.5	20.1	0.00e+00	0	43	0	2218786816	52	4573
2026-01-14 12:31:14.50	298.02	55.06	-40.6	-42.4	20.1	0.00e+00	0	43	0	2226126848	52	4533
2026-01-14 12:31:15.49	298.58	54.81	-40.7	-42.5	20.1	0.00e+00	0	43	0	2231369728	52	4582
2026-01-14 12:31:16.76	299.29	54.50	-40.8	-42.6	20.0	0.00e+00	0	43	0	2238709760	52	4622
2026-01-14 12:31:17.56	299.73	54.30	-40.7	-42.5	20.1	0.00e+00	0	43	0	2243952640	52	4567
2026-01-14 12:31:18.70	300.35	54.02	-40.7	-42.5	20.1	0.00e+00	0	43	0	2249195520	52	4561
2026-01-14 12:31:19.55	300.80	53.80	-40.5	-42.4	20.2	0.00e+00	0	43	0	2254438400	52	4497
2026-01-14 12:31:20.69	301.39	53.51	-40.6	-42.4	20.1	0.00e+00	0	43	0	2260729856	52	4532
2026-01-14 12:31:21.54	301.83	53.30	-40.5	-42.4	20.1	0.00e+00	0	43	0	2265972736	52	4514
2026-01-14 12:31:22.68	302.41	53.01	-40.5	-42.3	20.2	0.00e+00	0	44	0	2272264192	52	4467
2026-01-14 12:31:23.53	302.83	52.79	-40.5	-42.3	20.3	0.00e+00	0	43	0	2277507072	52	4461
2026-01-14 12:31:24.67	303.38	52.50	-40.6	-42.4	20.2	0.00e+00	0	43	0	2283798528	52	4534
2026-01-14 12:31:25.52	303.79	52.28	-40.6	-42.4	20.5	0.00e+00	0	44	0	2287992832	52	4502
2026-01-14 12:31:26.66	304.33	51.99	-40.8	-42.5	20.3	0.00e+00	0	44	0	2294284288	52	4595
2026-01-14 12:31:27.51	304.72	51.77	-40.7	-42.5	20.4	0.00e+00	0	43	0	2299527168	52	4552
2026-01-14 12:31:28.65	305.24	51.47	-40.6	-42.4	20.4	0.00e+00	0	43	0	2305818624	52	4507
2026-01-14 12:31:29.50	305.62	51.25	-40.6	-42.4	20.4	0.00e+00	0	44	0	2311061504	52	4501
2026-01-14 12:31:30.64	306.12	50.96	-40.6	-42.3	20.5	0.00e+00	0	44	0	2317352960	52	4491
2026-01-14 12:31:31.50	306.49	50.74	-40.5	-42.2	20.6	0.00e+00	0	44	0	2321547264	52	4428
2026-01-14 12:31:32.63	306.97	50.44	-40.2	-41.9	20.8	0.00e+00	0	44	0	2327838720	52	4262
2026-01-14 12:31:33.49	307.33	50.22	-40.0	-41.7	21.1	0.00e+00	0	43	0	2333081600	51	4414
2026-01-14 12:31:34.62	307.80	49.93	-39.8	-41.5	21.2	0.00e+00	0	44	0	2339373056	51	4328
2026-01-14 12:31:35.48	308.14	49.70	-39.8	-41.5	21.2	0.00e+00	0	43	0	2344615936	51	4323
2026-01-14 12:31:36.98	308.74	49.31	-39.8	-41.5	21.2	0.00e+00	0	43	0	2353004544	51	4326
2026-01-14 12:31:37.69	309.01	49.13	-39.8	-41.6	21.2	0.00e+00	0	43	0	2356150272	51	4344
2026-01-14 12:31:38.97	309.50	48.80	-39.9	-41.6	21.1	0.00e+00	0	43	0	2363490304	51	4361
2026-01-14 12:31:39.69	309.77	48.61	-39.8	-41.5	21.2	0.00e+00	0	44	0	2367684608	51	4316
2026-01-14 12:31:40.97	310.25	48.28	-39.7	-41.4	21.3	0.00e+00	0	43	0	2375024640	51	4271
2026-01-14 12:31:41.69	310.51	48.09	-39.8	-41.4	21.3	0.00e+00	0	43	0	2379218944	51	4285
2026-01-14 12:31:42.97	310.97	47.76	-39.7	-41.4	21.3	0.00e+00	0	43	0	2386558976	51	4262
2026-01-14 12:31:43.77	311.25	47.56	-39.7	-41.4	21.3	0.00e+00	0	44	0	2390753280	51	4279
2026-01-14 12:31:44.91	311.64	47.26	-39.8	-41.5	21.3	0.00e+00	0	43	0	2397044736	51	4307
2026-01-14 12:31:45.76	311.93	47.04	-39.8	-41.6	21.2	0.00e+00	0	44	0	2402287616	51	4345
2026-01-14 12:31:46.89	312.31	46.75	-39.8	-41.5	21.2	0.00e+00	0	43	0	2408579072	51	4321
2026-01-14 12:31:47.75	312.60	46.53	-39.6	-41.3	21.4	0.00e+00	0	43	0	2412773376	51	4222
2026-01-14 12:31:48.89	312.97	46.24	-39.6	-41.3	21.4	0.00e+00	0	43	0	2419064832	51	4215
2026-01-14 12:31:49.74	313.24	46.03	-39.7	-41.4	21.4	0.00e+00	0	44	0	2424307712	51	4246
2026-01-14 12:31:50.88	313.60	45.74	-39.8	-41.5	21.3	0.00e+00	0	43	0	2430599168	51	4303
2026-01-14 12:31:51.73	313.86	45.52	-39.8	-41.6	21.2	0.00e+00	0	44	0	2435842048	51	4348
2026-01-14 12:31:52.87	314.21	45.23	-39.9	-41.7	21.1	0.00e+00	0	44	0	2442133504	51	4397
2026-01-14 12:31:53.72	314.46	45.02	-39.9	-41.6	21.1	0.00e+00	0	43	0	2447376384	51	4386
2026-01-14 12:31:54.99	314.84	44.70	-40.0	-41.7	21.0	0.00e+00	0	44	0	2453667840	51	4435
2026-01-14 12:31:55.77	315.06	44.51	-40.0	-41.7	21.1	0.00e+00	0	44	0	2457862144	51	4415
2026-01-14 12:31:57.07	315.43	44.18	-40.0	-41.7	21.0	0.00e+00	0	43	0	2465202176	51	4440
2026-01-14 12:31:57.79	315.64	44.00	-39.9	-41.6	21.1	0.00e+00	0	43	0	2469396480	51	4383
2026-01-14 12:31:59.07	315.99	43.69	-39.7	-41.5	21.3	0.00e+00	0	44	0	2476736512	51	4297
2026-01-14 12:32:00.20	316.30	43.41	-39.7	-41.4	21.3	0.00e+00	0	43	0	2483027968	51	4281
2026-01-14 12:32:01.05	316.53	43.20	-39.5	-41.2	21.4	0.00e+00	0	43	0	2488270848	51	4190
2026-01-14 12:32:02.19	316.83	42.92	-39.6	-41.3	21.4	0.00e+00	0	43	0	2494562304	51	4230
2026-01-14 12:32:03.04	317.05	42.71	-39.8	-41.5	21.2	0.00e+00	0	43	0	2498756608	51	4324
2026-01-14 12:32:04.24	317.35	42.42	-39.8	-41.6	21.2	0.00e+00	0	44	0	2506096640	51	4359
2026-01-14 12:32:05.09	317.57	42.22	-39.8	-41.6	21.2	0.00e+00	0	44	0	2510290944	51	4346
2026-01-14 12:32:06.23	317.85	41.94	-39.9	-41.6	21.2	0.00e+00	0	44	0	2517630976	51	4371
2026-01-14 12:32:07.08	318.06	41.74	-39.9	-41.6	21.2	0.00e+00	0	43	0	2521825280	51	4363
2026-01-14 12:32:08.33	318.36	41.44	-39.9	-41.6	21.1	0.00e+00	0	44	0	2529165312	51	4382
2026-01-14 12:32:09.14	318.55	41.25	-39.9	-41.7	21.1	0.00e+00	0	44	0	2533359616	51	4393
2026-01-14 12:32:10.37	318.84	40.96	-39.7	-41.4	21.3	0.00e+00	0	43	0	2540699648	51	4257
2026-01-14 12:32:11.23	319.04	40.75	-39.4	-41.2	21.5	0.00e+00	0	43	0	2544893952	50	4397
2026-01-14 12:32:12.37	319.30	40.49	-39.4	-41.1	21.6	0.00e+00	0	44	0	2552233984	50	4341
2026-01-14 12:32:13.22	319.49	40.29	-39.4	-41.1	21.6	0.00e+00	0	43	0	2556428288	50	4355
2026-01-14 12:32:14.48	319.77	39.99	-39.3	-41.0	21.6	0.00e+00	0	43	0	2563768320	50	4330
2026-01-14 12:32:15.27	319.94	39.81	-39.4	-41.1	21.5	0.00e+00	0	44	0	2567962624	50	4376
2026-01-14 12:32:16.58	320.22	39.51	-39.4	-41.1	21.6	0.00e+00	0	43	0	2575302656	50	4365
2026-01-14 12:32:17.29	320.37	39.35	-39.4	-41.1	21.5	0.00e+00	0	43	0	2579496960	50	4387
2026-01-14 12:32:18.76	320.68	39.01	-39.4	-41.1	21.5	0.00e+00	0	44	0	2587885568	50	4385
2026-01-14 12:32:19.47	320.82	38.85	-39.3	-41.0	21.7	0.00e+00	0	43	0	2592079872	50	4311
2026-01-14 12:32:20.75	321.08	38.56	-39.2	-40.9	21.7	0.00e+00	0	43	0	2599419904	50	4277
2026-01-14 12:32:21.46	321.23	38.41	-39.3	-41.0	21.7	0.00e+00	0	44	0	2602565632	50	4300
2026-01-14 12:32:22.87	321.50	38.09	-39.2	-40.8	21.8	0.00e+00	0	43	0	2610954240	50	4238
2026-01-14 12:32:23.58	321.64	37.93	-39.2	-40.8	21.8	0.00e+00	0	43	0	2615148544	50	4238
2026-01-14 12:32:24.86	321.89	37.65	-39.1	-40.8	21.8	0.00e+00	0	43	0	2622488576	50	4207
2026-01-14 12:32:25.57	322.02	37.49	-39.2	-40.9	21.8	0.00e+00	0	44	0	2625634304	50	4251
2026-01-14 12:32:26.85	322.26	37.21	-39.3	-40.9	21.7	0.00e+00	0	44	0	2632974336	50	4291
2026-01-14 12:32:27.59	322.40	37.05	-39.3	-41.0	21.6	0.00e+00	0	44	0	2637168640	50	4308
2026-01-14 12:32:28.87	322.63	36.78	-39.4	-41.1	21.5	0.00e+00	0	44	0	2644508672	50	4371
2026-01-14 12:32:29.58	322.76	36.62	-39.5	-41.2	21.5	0.00e+00	0	43	0	2648702976	50	4412
2026-01-14 12:32:31.16	323.04	36.29	-39.5	-41.3	21.4	0.00e+00	0	44	0	2657091584	50	4453
2026-01-14 12:32:31.78	323.15	36.15	-39.6	-41.3	21.4	0.00e+00	0	44	0	2661285888	50	4469
2026-01-14 12:32:33.34	323.41	35.82	-39.6	-41.4	21.3	0.00e+00	0	43	0	2669674496	50	4499
2026-01-14 12:32:34.19	323.56	35.65	-39.6	-41.3	21.4	0.00e+00	0	43	0	2673868800	50	4487
2026-01-14 12:32:35.64	323.80	35.34	-39.6	-41.3	21.4	0.00e+00	0	43	0	2682257408	50	4466
2026-01-14 12:32:36.35	323.92	35.20	-39.6	-41.3	21.4	0.00e+00	0	43	0	2686451712	50	4472
2026-01-14 12:32:37.63	324.13	34.93	-39.6	-41.3	21.4	0.00e+00	0	44	0	2693791744	50	4450
2026-01-14 12:32:38.83	324.32	34.68	-39.4	-41.1	21.5	0.00e+00	0	43	0	2700083200	50	4379
2026-01-14 12:32:39.69	324.45	34.51	-39.5	-41.2	21.5	0.00e+00	0	44	0	2705326080	50	4408
2026-01-14 12:32:40.83	324.63	34.28	-39.5	-41.3	21.4	0.00e+00	0	44	0	2711617536	50	4442
2026-01-14 12:32:42.02	324.82	34.04	-39.4	-41.1	21.6	0.00e+00	0	44	0	2718957568	50	4357
2026-01-14 12:32:42.88	324.95	33.87	-39.4	-41.1	21.5	0.00e+00	0	44	0	2723151872	50	4374
2026-01-14 12:32:44.02	325.12	33.64	-39.4	-41.1	21.6	0.00e+00	0	44	0	2729443328	50	4358
2026-01-14 12:32:44.87	325.25	33.47	-39.3	-41.0	21.6	0.00e+00	0	43	0	2734686208	50	4324
2026-01-14 12:32:46.01	325.41	33.24	-39.4	-41.1	21.5	0.00e+00	0	43	0	2740977664	50	4388
2026-01-14 12:32:46.86	325.54	33.08	-39.4	-41.1	21.5	0.00e+00	0	43	0	2746220544	50	4369
2026-01-14 12:32:48.00	325.70	32.86	-39.5	-41.2	21.4	0.00e+00	0	43	0	2752512000	50	4413
2026-01-14 12:32:48.85	325.82	32.69	-39.7	-41.4	21.3	0.00e+00	0	44	0	2756706304	50	4512
2026-01-14 12:32:50.08	325.99	32.45	-39.6	-41.3	21.4	0.00e+00	0	43	0	2764046336	50	4480
2026-01-14 12:32:50.94	326.11	32.29	-39.5	-41.2	21.4	0.00e+00	0	44	0	2768240640	50	4438
2026-01-14 12:32:52.08	326.27	32.07	-39.6	-41.3	21.4	0.00e+00	0	43	0	2775580672	50	4463
2026-01-14 12:32:52.93	326.38	31.91	-39.7	-41.4	21.3	0.00e+00	0	44	0	2779774976	50	4509
2026-01-14 12:32:54.21	326.56	31.67	-39.7	-41.5	21.2	0.00e+00	0	44	0	2787115008	50	4548
2026-01-14 12:32:54.92	326.65	31.54	-39.7	-41.4	21.3	0.00e+00	0	43	0	2791309312	50	4528
2026-01-14 12:32:56.20	326.82	31.30	-39.8	-41.5	21.2	0.00e+00	0	43	0	2798649344	50	4569
2026-01-14 12:32:56.91	326.91	31.16	-39.8	-41.5	21.2	0.00e+00	0	44	0	2802843648	50	4577
2026-01-14 12:32:58.46	327.11	30.88	-39.7	-41.4	21.3	0.00e+00	0	43	0	2811232256	50	4514
2026-01-14 12:32:59.45	327.23	30.70	-39.7	-41.4	21.3	0.00e+00	0	43	0	2816475136	50	4506
2026-01-14 12:33:00.75	327.39	30.46	-39.7	-41.4	21.3	0.00e+00	0	44	0	2823815168	50	4529
2026-01-14 12:33:01.48	327.48	30.33	-39.7	-41.4	21.2	0.00e+00	0	43	0	2828009472	50	4529
2026-01-14 12:33:03.07	327.68	30.04	-39.7	-41.4	21.3	0.00e+00	0	43	0	2837446656	50	4527
2026-01-14 12:33:03.99	327.79	29.88	-39.7	-41.4	21.2	0.00e+00	0	43	0	2841640960	50	4534
2026-01-14 12:33:04.99	327.91	29.70	-39.7	-41.4	21.2	0.00e+00	0	43	0	2847932416	50	4529
2026-01-14 12:33:05.98	328.02	29.53	-39.7	-41.4	21.2	0.00e+00	0	43	0	2853175296	50	4539
2026-01-14 12:33:06.98	328.14	29.35	-39.8	-41.6	21.1	0.00e+00	0	44	0	2858418176	50	4605
2026-01-14 12:33:07.97	328.25	29.18	-39.6	-41.3	21.3	0.00e+00	0	43	0	2864709632	50	4493
2026-01-14 12:33:08.97	328.37	29.01	-39.6	-41.3	21.3	0.00e+00	0	44	0	2869952512	50	4470
2026-01-14 12:33:09.96	328.48	28.83	-39.6	-41.3	21.3	0.00e+00	0	44	0	2876243968	50	4485
2026-01-14 12:33:10.96	328.59	28.66	-39.6	-41.3	21.4	0.00e+00	0	44	0	2881486848	50	4449
2026-01-14 12:33:11.95	328.70	28.49	-39.6	-41.3	21.3	0.00e+00	0	43	0	2886729728	50	4473
2026-01-14 12:33:12.95	328.81	28.32	-39.6	-41.3	21.3	0.00e+00	0	44	0	2893021184	50	4488
2026-01-14 12:33:13.95	328.92	28.16	-39.7	-41.5	21.2	0.00e+00	0	44	0	2898264064	50	4561
2026-01-14 12:33:14.94	329.02	27.99	-39.7	-41.4	21.2	0.00e+00	0	44	0	2903506944	50	4533
2026-01-14 12:33:15.94	329.13	27.82	-39.8	-41.5	21.2	0.00e+00	0	44	0	2908749824	50	4576
2026-01-14 12:33:16.93	329.23	27.66	-39.8	-41.6	21.1	0.00e+00	0	43	0	2915041280	50	4618
2026-01-14 12:33:17.93	329.34	27.49	-39.9	-41.6	21.1	0.00e+00	0	44	0	2920284160	50	4640
2026-01-14 12:33:18.92	329.44	27.33	-39.9	-41.7	21.0	0.00e+00	0	44	0	2926575616	50	4652
2026-01-14 12:33:19.92	329.54	27.17	-39.9	-41.6	21.1	0.00e+00	0	44	0	2931818496	50	4632
2026-01-14 12:33:20.91	329.64	27.01	-39.9	-41.7	21.0	0.00e+00	0	44	0	2937061376	50	4658
2026-01-14 12:33:21.91	329.74	26.84	-40.0	-41.8	20.9	0.00e+00	0	44	0	2943352832	50	4724
2026-01-14 12:33:22.90	329.84	26.68	-39.9	-41.6	21.0	0.00e+00	0	44	0	2948595712	50	4637
2026-01-14 12:33:23.95	329.94	26.52	-39.8	-41.6	21.1	0.00e+00	0	43	0	2953838592	50	4625
2026-01-14 12:33:24.94	330.04	26.36	-39.9	-41.6	21.0	0.00e+00	0	44	0	2960130048	50	4640
2026-01-14 12:33:25.94	330.13	26.20	-39.8	-41.5	21.1	0.00e+00	0	43	0	2965372928	50	4596
2026-01-14 12:33:27.04	330.24	26.03	-39.9	-41.6	21.0	0.00e+00	0	43	0	2971664384	50	4626
2026-01-14 12:33:27.93	330.32	25.89	-39.9	-41.6	21.0	0.00e+00	0	43	0	2976907264	50	4643
2026-01-14 12:33:29.06	330.43	25.71	-39.8	-41.6	21.1	0.00e+00	0	43	0	2983198720	50	4614
2026-01-14 12:33:29.92	330.51	25.58	-39.9	-41.7	21.0	0.00e+00	0	43	0	2988441600	50	4655
2026-01-14 12:33:31.29	330.63	25.37	-39.9	-41.7	21.0	0.00e+00	0	44	0	2995781632	50	4684
2026-01-14 12:33:32.00	330.70	25.26	-40.0	-41.8	20.9	0.00e+00	0	43	0	2999975936	50	4731
2026-01-14 12:33:33.29	330.81	25.06	-40.0	-41.8	20.9	0.00e+00	0	43	0	3007315968	50	4740
2026-01-14 12:33:34.01	330.88	24.95	-40.1	-41.8	20.9	0.00e+00	0	44	0	3011510272	50	4751
2026-01-14 12:33:35.54	331.01	24.72	-40.1	-41.9	20.8	0.00e+00	0	43	0	3019898880	51	4529
2026-01-14 12:33:36.26	331.08	24.62	-40.1	-41.9	20.8	0.00e+00	0	43	0	3024093184	51	4524
2026-01-14 12:33:37.54	331.19	24.43	-40.1	-41.9	20.8	0.00e+00	0	44	0	3030384640	51	4525
2026-01-14 12:33:38.26	331.25	24.32	-40.2	-41.9	20.8	0.00e+00	0	44	0	3034578944	51	4533
2026-01-14 12:33:39.54	331.36	24.13	-40.2	-41.9	20.8	0.00e+00	0	44	0	3041918976	51	4541
2026-01-14 12:33:40.25	331.42	24.03	-40.2	-42.0	20.7	0.00e+00	0	43	0	3046113280	51	4571
2026-01-14 12:33:41.53	331.52	23.84	-40.2	-42.0	20.7	0.00e+00	0	43	0	3053453312	51	4559
2026-01-14 12:33:42.24	331.58	23.74	-40.2	-42.0	20.7	0.00e+00	0	43	0	3057647616	51	4555
2026-01-14 12:33:43.52	331.69	23.55	-40.3	-42.1	20.6	0.00e+00	0	44	0	3064987648	51	4619
2026-01-14 12:33:44.23	331.75	23.45	-40.3	-42.1	20.6	0.00e+00	0	43	0	3068133376	51	4629
2026-01-14 12:33:45.83	331.87	23.22	-40.3	-42.1	20.6	0.00e+00	0	43	0	3077570560	51	4624
2026-01-14 12:33:46.40	331.92	23.14	-40.3	-42.1	20.6	0.00e+00	0	43	0	3080716288	51	4621
2026-01-14 12:33:48.10	332.05	22.90	-40.5	-42.3	20.5	0.00e+00	0	44	0	3090153472	51	4721
2026-01-14 12:33:48.74	332.10	22.81	-40.5	-42.3	20.4	0.00e+00	0	44	0	3093299200	51	4729
2026-01-14 12:33:50.24	332.22	22.60	-40.5	-42.3	20.4	0.00e+00	0	43	0	3101687808	51	4749
2026-01-14 12:33:50.95	332.28	22.51	-40.5	-42.3	20.4	0.00e+00	0	44	0	3105882112	51	4746
2026-01-14 12:33:52.23	332.37	22.33	-40.7	-42.5	20.3	0.00e+00	0	43	0	3113222144	51	4834
2026-01-14 12:33:52.94	332.43	22.23	-40.6	-42.4	20.3	0.00e+00	0	43	0	3117416448	52	4533
2026-01-14 12:33:54.60	332.55	22.01	-40.7	-42.5	20.2	0.00e+00	0	44	0	3126853632	52	4571
2026-01-14 12:33:55.16	332.59	21.93	-40.7	-42.5	20.2	0.00e+00	0	43	0	3129999360	52	4596
2026-01-14 12:33:57.09	332.73	21.67	-40.6	-42.4	20.3	0.00e+00	0	43	0	3140485120	52	4529
2026-01-14 12:33:57.66	332.78	21.59	-40.6	-42.4	20.2	0.00e+00	0	44	0	3143630848	52	4542
2026-01-14 12:33:59.65	332.92	21.33	-40.7	-42.5	20.1	0.00e+00	0	43	0	3155165184	52	4583
2026-01-14 12:34:00.22	332.96	21.25	-40.8	-42.6	20.1	0.00e+00	0	43	0	3158310912	52	4613
2026-01-14 12:34:01.91	333.08	21.03	-40.6	-42.5	20.2	0.00e+00	0	43	0	3167748096	52	4548
2026-01-14 12:34:02.48	333.12	20.96	-40.7	-42.5	20.2	0.00e+00	0	44	0	3170893824	52	4573
2026-01-14 12:34:04.19	333.24	20.73	-40.8	-42.6	20.1	0.00e+00	0	44	0	3180331008	52	4620
2026-01-14 12:34:04.75	333.27	20.66	-40.8	-42.7	20.0	0.00e+00	0	44	0	3183476736	52	4656
2026-01-14 12:34:06.45	333.39	20.44	-40.8	-42.7	20.0	0.00e+00	0	43	0	3192913920	52	4654
2026-01-14 12:34:07.01	333.43	20.37	-41.0	-42.8	19.9	0.00e+00	0	44	0	3197108224	52	4739
2026-01-14 12:34:08.72	333.54	20.15	-40.9	-42.7	20.0	0.00e+00	0	44	0	3206545408	52	4689
2026-01-14 12:34:09.29	333.58	20.08	-40.9	-42.8	19.9	0.00e+00	0	43	0	3209691136	52	4710
2026-01-14 12:34:11.06	333.70	19.86	-41.0	-42.9	19.8	0.00e+00	0	44	0	3219128320	52	4760
2026-01-14 12:34:11.63	333.73	19.79	-41.0	-42.9	19.8	0.00e+00	0	43	0	3222274048	52	4768
2026-01-14 12:34:13.33	333.84	19.58	-41.2	-43.0	19.7	0.00e+00	0	43	0	3231711232	52	4853
2026-01-14 12:34:13.90	333.88	19.51	-41.2	-43.1	19.7	0.00e+00	0	43	0	3235905536	53	4608
2026-01-14 12:34:15.59	333.99	19.30	-41.2	-43.0	19.7	0.00e+00	0	43	0	3244294144	53	4583
2026-01-14 12:34:16.16	334.02	19.23	-41.2	-43.1	19.6	0.00e+00	0	44	0	3248488448	53	4611
2026-01-14 12:34:17.87	334.13	19.02	-41.4	-43.3	19.5	0.00e+00	0	44	0	3257925632	53	4715
2026-01-14 12:34:18.43	334.16	18.95	-41.3	-43.2	19.5	0.00e+00	0	44	0	3261071360	53	4670
2026-01-14 12:34:20.14	334.27	18.75	-41.3	-43.2	19.5	0.00e+00	0	44	0	3270508544	53	4704
2026-01-14 12:34:20.77	334.31	18.67	-41.3	-43.3	19.5	0.00e+00	0	44	0	3273654272	53	4707
2026-01-14 12:34:22.21	334.39	18.50	-41.4	-43.4	19.4	0.00e+00	0	43	0	3282042880	53	4765
2026-01-14 12:34:22.92	334.43	18.41	-41.4	-43.4	19.4	0.00e+00	0	44	0	3286237184	53	4777
2026-01-14 12:34:24.20	334.51	18.26	-41.5	-43.5	19.3	0.00e+00	0	44	0	3293577216	53	4822
2026-01-14 12:34:24.91	334.55	18.18	-41.5	-43.4	19.3	0.00e+00	0	44	0	3297771520	53	4813
2026-01-14 12:34:26.19	334.63	18.03	-41.5	-43.4	19.3	0.00e+00	0	44	0	3304062976	53	4814
2026-01-14 12:34:26.91	334.67	17.95	-41.6	-43.5	19.3	0.00e+00	0	44	0	3308257280	53	4824
2026-01-14 12:34:28.19	334.74	17.80	-41.7	-43.5	19.2	0.00e+00	0	44	0	3315597312	53	4867
2026-01-14 12:34:28.90	334.78	17.72	-41.7	-43.5	19.2	0.00e+00	0	44	0	3319791616	53	4869
2026-01-14 12:34:30.18	334.86	17.57	-41.8	-43.6	19.1	0.00e+00	0	43	0	3327131648	54	4647
2026-01-14 12:34:30.89	334.90	17.49	-41.8	-43.6	19.1	0.00e+00	0	43	0	3331325952	54	4645
2026-01-14 12:34:32.17	334.97	17.34	-41.7	-43.6	19.1	0.00e+00	0	43	0	3337617408	54	4630
2026-01-14 12:34:32.88	335.01	17.26	-41.7	-43.6	19.1	0.00e+00	0	44	0	3341811712	54	4633
2026-01-14 12:34:34.16	335.08	17.12	-41.7	-43.6	19.1	0.00e+00	0	43	0	3349151744	54	4639
2026-01-14 12:34:34.90	335.12	17.03	-41.7	-43.6	19.1	0.00e+00	0	43	0	3353346048	54	4647
2026-01-14 12:34:36.18	335.19	16.89	-41.7	-43.7	19.1	0.00e+00	0	44	0	3360686080	54	4665
2026-01-14 12:34:36.89	335.23	16.81	-41.6	-43.6	19.1	0.00e+00	0	44	0	3364880384	54	4636
2026-01-14 12:34:38.17	335.30	16.67	-41.7	-43.7	19.0	0.00e+00	0	44	0	3372220416	54	4681
2026-01-14 12:34:38.90	335.34	16.59	-41.7	-43.7	19.0	0.00e+00	0	44	0	3375366144	54	4677
2026-01-14 12:34:40.18	335.40	16.45	-41.7	-43.7	19.0	0.00e+00	0	44	0	3382706176	54	4699
2026-01-14 12:34:40.89	335.44	16.37	-41.7	-43.7	19.0	0.00e+00	0	44	0	3386900480	54	4693
2026-01-14 12:34:42.17	335.51	16.23	-41.7	-43.7	19.0	0.00e+00	0	43	0	3394240512	54	4687
2026-01-14 12:34:43.02	335.55	16.14	-41.7	-43.6	19.1	0.00e+00	0	43	0	3399483392	54	4647
2026-01-14 12:34:44.16	335.61	16.01	-41.7	-43.7	19.0	0.00e+00	0	44	0	3405774848	54	4674
2026-01-14 12:34:45.01	335.66	15.92	-41.8	-43.7	19.0	0.00e+00	0	43	0	3409969152	54	4688
2026-01-14 12:34:46.15	335.71	15.80	-41.8	-43.7	19.0	0.00e+00	0	44	0	3416260608	54	4701
2026-01-14 12:34:47.00	335.76	15.71	-41.9	-43.8	18.9	0.00e+00	0	44	0	3421503488	54	4746
2026-01-14 12:34:48.14	335.81	15.59	-41.9	-43.9	18.9	0.00e+00	0	44	0	3427794944	54	4771
2026-01-14 12:34:49.32	335.87	15.46	-41.9	-43.9	18.8	0.00e+00	0	44	0	3434086400	54	4766
2026-01-14 12:34:50.36	335.93	15.36	-42.0	-43.9	18.8	0.00e+00	0	44	0	3440377856	54	4789
2026-01-14 12:34:51.31	335.97	15.26	-42.0	-44.0	18.7	0.00e+00	0	44	0	3445620736	54	4841
2026-01-14 12:34:52.56	336.03	15.13	-42.1	-44.0	18.7	0.00e+00	0	43	0	3452960768	54	4859
2026-01-14 12:34:53.41	336.07	15.04	-42.1	-44.0	18.7	0.00e+00	0	43	0	3457155072	54	4869
2026-01-14 12:34:54.55	336.13	14.92	-42.1	-44.1	18.6	0.00e+00	0	44	0	3464495104	54	4918
2026-01-14 12:34:55.41	336.17	14.83	-42.2	-44.2	18.5	0.00e+00	0	43	0	3468689408	55	4671
2026-01-14 12:34:56.55	336.23	14.71	-42.3	-44.3	18.5	0.00e+00	0	43	0	3474980864	55	4715
2026-01-14 12:34:57.40	336.27	14.63	-42.3	-44.3	18.4	0.00e+00	0	44	0	3480223744	55	4736
2026-01-14 12:34:58.54	336.32	14.51	-42.3	-44.4	18.4	0.00e+00	0	43	0	3486515200	55	4772
2026-01-14 12:34:59.39	336.36	14.42	-42.3	-44.3	18.4	0.00e+00	0	44	0	3490709504	55	4755
2026-01-14 12:35:00.53	336.41	14.31	-42.3	-44.4	18.4	0.00e+00	0	44	0	3498049536	55	4762
2026-01-14 12:35:01.39	336.45	14.22	-42.5	-44.5	18.2	0.00e+00	0	43	0	3502243840	55	4829
2026-01-14 12:35:02.52	336.50	14.11	-42.5	-44.5	18.2	0.00e+00	0	44	0	3508535296	55	4841
2026-01-14 12:35:03.37	336.54	14.02	-42.5	-44.5	18.2	0.00e+00	0	44	0	3513778176	55	4860
2026-01-14 12:35:04.51	336.59	13.91	-42.5	-44.5	18.2	0.00e+00	0	43	0	3520069632	55	4862
2026-01-14 12:35:05.37	336.63	13.83	-42.5	-44.6	18.1	0.00e+00	0	43	0	3525312512	55	4911
2026-01-14 12:35:06.50	336.68	13.71	-42.5	-44.6	18.1	0.00e+00	0	44	0	3531603968	55	4879
2026-01-14 12:35:07.36	336.72	13.63	-42.5	-44.6	18.1	0.00e+00	0	44	0	3535798272	55	4895
2026-01-14 12:35:08.50	336.77	13.52	-42.6	-44.7	18.0	0.00e+00	0	43	0	3542089728	55	4976
2026-01-14 12:35:09.35	336.81	13.44	-42.6	-44.7	18.0	0.00e+00	0	44	0	3547332608	55	4968
2026-01-14 12:35:10.49	336.86	13.33	-42.5	-44.6	18.1	0.00e+00	0	43	0	3553624064	55	4924
2026-01-14 12:35:11.34	336.90	13.24	-42.5	-44.7	18.0	0.00e+00	0	44	0	3557818368	55	4940
2026-01-14 12:35:12.87	336.96	13.10	-42.7	-44.8	17.9	0.00e+00	0	43	0	3567255552	55	5029
2026-01-14 12:35:13.58	336.99	13.03	-42.8	-45.0	17.9	0.00e+00	0	44	0	3571449856	56	4850
2026-01-14 12:35:14.86	337.05	12.91	-42.8	-45.0	17.9	0.00e+00	0	43	0	3578789888	56	4829
2026-01-14 12:35:15.59	337.08	12.84	-42.8	-45.0	17.9	0.00e+00	0	44	0	3581935616	56	4841
2026-01-14 12:35:16.87	337.13	12.71	-42.8	-45.0	17.9	0.00e+00	0	44	0	3589275648	56	4827
2026-01-14 12:35:17.59	337.16	12.65	-42.9	-45.0	17.9	0.00e+00	0	44	0	3593469952	56	4842
2026-01-14 12:35:18.87	337.22	12.53	-42.9	-45.0	17.8	0.00e+00	0	44	0	3600809984	56	4869
2026-01-14 12:35:19.60	337.25	12.46	-42.9	-45.0	17.8	0.00e+00	0	44	0	3605004288	56	4846
2026-01-14 12:35:20.88	337.30	12.34	-42.9	-45.1	17.8	0.00e+00	0	44	0	3612344320	56	4871
2026-01-14 12:35:21.59	337.33	12.27	-42.9	-45.0	17.8	0.00e+00	0	44	0	3615490048	56	4869
2026-01-14 12:35:22.87	337.38	12.15	-43.0	-45.2	17.7	0.00e+00	0	44	0	3622830080	56	4945
2026-01-14 12:35:23.59	337.41	12.09	-43.0	-45.1	17.7	0.00e+00	0	44	0	3627024384	56	4912
2026-01-14 12:35:24.87	337.46	11.97	-43.0	-45.2	17.6	0.00e+00	0	44	0	3634364416	56	4958
2026-01-14 12:35:25.60	337.49	11.90	-43.1	-45.2	17.6	0.00e+00	0	43	0	3638558720	56	4966
2026-01-14 12:35:26.88	337.54	11.79	-43.2	-45.4	17.5	0.00e+00	0	43	0	3645898752	56	5051
2026-01-14 12:35:27.59	337.57	11.72	-43.1	-45.3	17.5	0.00e+00	0	44	0	3650093056	56	5018
2026-01-14 12:35:28.87	337.62	11.61	-43.1	-45.3	17.5	0.00e+00	0	44	0	3657433088	57	4720
2026-01-14 12:35:29.58	337.65	11.54	-43.1	-45.3	17.5	0.00e+00	0	44	0	3660578816	57	4753
2026-01-14 12:35:31.05	337.71	11.41	-43.2	-45.4	17.4	0.00e+00	0	44	0	3668967424	57	4781
2026-01-14 12:35:31.76	337.74	11.35	-43.2	-45.4	17.4	0.00e+00	0	43	0	3673161728	57	4790
2026-01-14 12:35:33.04	337.79	11.23	-43.2	-45.4	17.4	0.00e+00	0	44	0	3680501760	57	4799
2026-01-14 12:35:33.75	337.81	11.17	-43.3	-45.5	17.3	0.00e+00	0	43	0	3684696064	57	4851
2026-01-14 12:35:35.16	337.87	11.04	-43.2	-45.4	17.4	0.00e+00	0	44	0	3692036096	57	4800
2026-01-14 12:35:36.12	337.90	10.96	-43.3	-45.5	17.3	0.00e+00	0	44	0	3698327552	57	4856
2026-01-14 12:35:37.44	337.95	10.84	-43.3	-45.6	17.2	0.00e+00	0	44	0	3704619008	57	4887
2026-01-14 12:35:38.20	337.98	10.78	-43.3	-45.6	17.2	0.00e+00	0	44	0	3709861888	57	4882
2026-01-14 12:35:39.48	338.03	10.66	-43.4	-45.7	17.1	0.00e+00	0	44	0	3716153344	57	4936
2026-01-14 12:35:40.21	338.06	10.60	-43.5	-45.7	17.1	0.00e+00	0	44	0	3721396224	57	4963
2026-01-14 12:35:41.49	338.10	10.49	-43.4	-45.6	17.2	0.00e+00	0	44	0	3727687680	57	4897
2026-01-14 12:35:42.20	338.13	10.43	-43.5	-45.8	17.0	0.00e+00	0	44	0	3731881984	57	4990
2026-01-14 12:35:43.48	338.18	10.32	-43.5	-45.7	17.1	0.00e+00	0	44	0	3739222016	57	4940
2026-01-14 12:35:44.19	338.20	10.26	-43.5	-45.7	17.0	0.00e+00	0	44	0	3743416320	57	4982
2026-01-14 12:35:45.48	338.25	10.15	-43.6	-45.8	17.0	0.00e+00	0	44	0	3750756352	57	5012
2026-01-14 12:35:46.20	338.27	10.08	-43.5	-45.7	17.1	0.00e+00	0	44	0	3754950656	57	4930
2026-01-14 12:35:47.48	338.32	9.98	-43.6	-45.8	17.0	0.00e+00	0	44	0	3761242112	57	4995
2026-01-14 12:35:48.19	338.35	9.92	-43.5	-45.7	17.1	0.00e+00	0	44	0	3765436416	57	4971
