passes_logs/2026/01/14/T1/T1__20260114_014559_AQUA_rec.log

#Pass ID: 20260114_014559_AQUA
#Satellite: AQUA
#Configuration: AQUA
#almurnet v.1.7.20251203
#Start time: 2026-01-14 01:46:01

#Version: 2.0.20230620
#Station: T1
#Location: 37.570604 lon 55.790049 lat
#TLE: 1 27424U 02022A   26013.25278823  .00000890  00000+0  18808-3 0  9998
#TLE: 2 27424  98.4079 339.6508 0002047  80.3961  24.1839 14.61818714260637

#Time	Az	El	Level	Level2	SNR	BER	BlckErr	Temp	State	Recorded	gain1	gain2
2026-01-14 01:46:01.16	12.34	5.14	-48.3	-71.0	3.8	7.43e-01	0	40	0	0	67	51043
2026-01-14 01:46:02.15	12.31	5.21	-48.3	-71.2	3.8	7.44e-01	0	40	104	0	67	52321
2026-01-14 01:46:03.14	12.29	5.29	-48.3	-71.4	3.8	7.43e-01	0	40	104	0	67	53413
2026-01-14 01:46:04.13	12.27	5.36	-48.3	-71.4	3.8	7.44e-01	0	40	104	0	67	53909
2026-01-14 01:46:05.12	12.24	5.43	-48.3	-71.4	3.8	7.46e-01	0	40	104	0	67	53986
2026-01-14 01:46:06.12	12.22	5.51	-48.3	-71.4	3.8	7.48e-01	0	40	104	0	67	53693
2026-01-14 01:46:07.11	12.20	5.58	-48.3	-71.2	3.8	7.49e-01	0	40	104	0	67	52533
2026-01-14 01:46:08.10	12.17	5.66	-48.3	-71.1	3.8	7.46e-01	0	40	104	0	67	51620
2026-01-14 01:46:09.10	12.15	5.74	-48.3	-70.8	3.8	7.46e-01	0	40	104	0	67	50367
2026-01-14 01:46:10.09	12.12	5.81	-48.3	-70.6	3.8	7.40e-01	0	40	104	0	67	48783
2026-01-14 01:46:11.08	12.10	5.89	-48.3	-70.4	3.8	7.47e-01	0	40	104	0	67	47855
2026-01-14 01:46:12.08	12.08	5.96	-48.3	-70.2	3.8	7.45e-01	0	40	104	0	67	46775
2026-01-14 01:46:13.07	12.05	6.04	-48.3	-70.0	3.8	7.47e-01	0	40	104	0	67	45843
2026-01-14 01:46:14.06	12.03	6.12	-48.2	-69.8	3.8	7.43e-01	0	40	104	0	67	44711
2026-01-14 01:46:15.06	12.00	6.19	-48.3	-69.5	3.9	7.46e-01	0	40	104	0	67	43025
2026-01-14 01:46:16.05	11.98	6.27	-48.3	-68.9	4.1	7.38e-01	0	40	104	0	67	40189
2026-01-14 01:46:17.04	11.95	6.35	-48.3	-68.7	4.2	7.37e-01	0	40	104	0	67	39191
2026-01-14 01:46:18.03	11.92	6.43	-48.3	-68.4	4.1	7.35e-01	0	40	104	0	67	38081
2026-01-14 01:46:19.03	11.90	6.50	-48.3	-68.8	3.8	7.42e-01	0	40	104	0	67	39657
2026-01-14 01:46:20.02	11.87	6.58	-48.3	-68.5	4.1	7.35e-01	0	40	104	0	67	38651
2026-01-14 01:46:21.01	11.85	6.66	-48.3	-69.0	4.0	7.36e-01	0	40	104	0	67	40773
2026-01-14 01:46:22.01	11.82	6.74	-48.3	-69.9	3.9	7.47e-01	0	40	104	0	67	45425
2026-01-14 01:46:23.00	11.79	6.82	-48.3	-70.9	3.8	7.46e-01	0	40	104	0	67	50968
2026-01-14 01:46:23.99	11.77	6.90	-48.3	-71.7	3.8	7.49e-01	0	40	104	0	67	55564
2026-01-14 01:46:24.99	11.74	6.98	-48.3	-71.7	3.8	7.46e-01	0	40	104	0	67	55368
2026-01-14 01:46:25.98	11.71	7.06	-48.3	-70.2	3.9	7.44e-01	0	40	104	0	67	46851
2026-01-14 01:46:26.97	11.69	7.14	-48.2	-67.8	3.9	7.42e-01	0	40	104	0	67	35305
2026-01-14 01:46:27.96	11.66	7.22	-48.2	-64.6	6.0	6.84e-01	0	40	0	0	67	24619
2026-01-14 01:46:28.96	11.63	7.30	-48.1	-62.5	7.9	6.47e-01	0	40	0	2097152	67	19372
2026-01-14 01:46:29.95	11.60	7.38	-48.0	-60.8	9.7	6.23e-01	0	40	0	3670016	67	15823
2026-01-14 01:46:30.95	11.57	7.46	-47.9	-59.3	11.3	6.09e-01	0	40	0	5767168	67	13362
2026-01-14 01:46:31.94	11.55	7.54	-47.7	-58.2	12.4	6.03e-01	0	40	0	7340032	67	11798
2026-01-14 01:46:32.93	11.52	7.62	-47.5	-57.2	13.5	5.99e-01	0	40	0	9437184	67	10427
2026-01-14 01:46:33.93	11.49	7.71	-47.4	-56.5	14.2	6.02e-01	0	40	0	11010048	66	10200
2026-01-14 01:46:34.92	11.46	7.79	-47.3	-55.9	14.8	6.01e-01	0	40	0	13107200	66	9546
2026-01-14 01:46:35.91	11.43	7.87	-47.2	-55.5	15.3	6.01e-01	0	40	0	15204352	66	9071
2026-01-14 01:46:36.91	11.40	7.95	-47.1	-55.1	15.5	6.00e-01	0	40	0	16777216	66	8742
2026-01-14 01:46:37.90	11.37	8.04	-47.1	-54.9	15.8	6.03e-01	0	40	0	18874368	66	8542
2026-01-14 01:46:38.89	11.34	8.12	-47.0	-54.8	15.9	6.01e-01	0	40	0	20447232	66	8442
2026-01-14 01:46:39.89	11.31	8.21	-47.0	-54.8	15.9	6.02e-01	0	40	0	22544384	66	8371
2026-01-14 01:46:40.88	11.28	8.29	-47.0	-54.8	15.9	6.02e-01	0	40	0	24117248	66	8413
2026-01-14 01:46:41.87	11.25	8.37	-47.0	-54.8	15.9	6.02e-01	0	40	0	26214400	66	8460
2026-01-14 01:46:42.87	11.22	8.46	-47.1	-55.1	15.6	6.00e-01	0	40	0	27787264	66	8725
2026-01-14 01:46:43.86	11.19	8.54	-47.2	-55.5	15.2	5.99e-01	0	40	0	29884416	66	9090
2026-01-14 01:46:44.85	11.16	8.63	-47.3	-56.1	14.7	6.03e-01	0	40	0	31981568	66	9745
2026-01-14 01:46:45.85	11.13	8.72	-47.4	-56.8	14.0	6.01e-01	0	40	0	33554432	66	10541
2026-01-14 01:46:46.84	11.10	8.80	-47.6	-57.7	13.0	6.05e-01	0	41	0	35651584	66	11816
2026-01-14 01:46:47.83	11.07	8.89	-47.8	-59.1	11.6	6.13e-01	0	40	0	37224448	66	13833
2026-01-14 01:46:48.83	11.03	8.97	-47.9	-61.0	9.6	6.24e-01	0	40	0	39321600	66	17088
2026-01-14 01:46:49.82	11.00	9.06	-48.1	-63.2	7.4	6.56e-01	0	40	0	40894464	66	22056
2026-01-14 01:46:50.81	10.97	9.15	-48.1	-61.8	8.7	6.33e-01	0	40	0	42991616	66	18853
2026-01-14 01:46:51.81	10.94	9.24	-47.7	-56.5	14.4	6.00e-01	0	40	0	44564480	66	10187
2026-01-14 01:46:52.80	10.90	9.32	-48.3	-70.3	3.8	7.38e-01	0	40	104	46137344	67	47499
2026-01-14 01:46:53.80	10.87	9.41	-48.2	-65.2	5.7	6.94e-01	0	40	104	46137344	67	26457
2026-01-14 01:46:54.79	10.84	9.50	-46.7	-52.3	18.0	6.03e-01	0	40	0	47185920	65	6669
2026-01-14 01:46:55.79	10.80	9.59	-46.1	-51.2	19.4	6.04e-01	0	40	0	49283072	64	6264
2026-01-14 01:46:56.78	10.77	9.68	-46.0	-51.2	19.4	6.06e-01	0	40	0	50855936	64	6240
2026-01-14 01:46:57.78	10.74	9.77	-46.0	-51.1	19.6	6.04e-01	0	40	0	52953088	63	6511
2026-01-14 01:46:58.77	10.70	9.86	-45.9	-50.8	19.9	6.03e-01	0	41	0	55050240	63	6282
2026-01-14 01:46:59.76	10.67	9.95	-45.8	-50.4	20.3	6.01e-01	0	40	0	56623104	63	6015
2026-01-14 01:47:00.76	10.63	10.04	-45.5	-50.1	20.5	6.01e-01	0	40	0	58720256	63	5840
2026-01-14 01:47:01.75	10.60	10.13	-45.4	-49.9	20.7	6.01e-01	0	40	0	60293120	62	6041
2026-01-14 01:47:02.75	10.56	10.23	-45.5	-49.8	20.9	6.01e-01	0	40	0	62390272	62	5945
2026-01-14 01:47:03.74	10.53	10.32	-45.5	-49.7	20.9	6.06e-01	0	40	0	63963136	62	5921
2026-01-14 01:47:04.74	10.49	10.41	-45.5	-49.7	21.0	6.03e-01	0	40	0	66060288	62	5903
2026-01-14 01:47:05.73	10.45	10.50	-45.5	-49.7	21.0	6.02e-01	0	40	0	67633152	62	5862
2026-01-14 01:47:06.73	10.42	10.60	-45.6	-49.7	21.0	6.04e-01	0	40	0	69730304	62	5865
2026-01-14 01:47:07.72	10.38	10.69	-45.6	-49.7	21.0	6.01e-01	0	40	0	71827456	62	5890
2026-01-14 01:47:08.72	10.34	10.78	-45.6	-49.7	21.0	6.04e-01	0	40	0	73400320	62	5901
2026-01-14 01:47:09.74	10.31	10.88	-45.6	-49.6	21.1	6.03e-01	0	40	0	75497472	62	5828
2026-01-14 01:47:10.77	10.27	10.98	-45.7	-49.7	21.0	6.00e-01	0	40	0	77594624	62	5861
2026-01-14 01:47:11.78	10.23	11.08	-45.8	-49.8	21.0	6.00e-01	0	40	0	79167488	62	5927
2026-01-14 01:47:12.77	10.19	11.17	-45.8	-49.7	21.0	6.04e-01	0	40	0	81264640	62	5890
2026-01-14 01:47:13.83	10.15	11.27	-45.7	-49.6	21.1	6.03e-01	0	40	0	82837504	62	5814
2026-01-14 01:47:14.74	10.11	11.36	-45.7	-49.5	21.2	6.02e-01	0	40	0	84934656	62	5761
2026-01-14 01:47:15.88	10.07	11.47	-45.8	-49.6	21.1	6.02e-01	0	40	0	87031808	62	5839
2026-01-14 01:47:16.73	10.03	11.56	-45.9	-49.6	21.1	6.05e-01	0	40	0	88604672	62	5854
2026-01-14 01:47:17.87	9.99	11.67	-45.9	-49.7	21.0	6.02e-01	0	40	0	90701824	62	5887
2026-01-14 01:47:18.72	9.95	11.75	-45.9	-49.6	21.1	6.01e-01	0	40	0	92274688	62	5834
2026-01-14 01:47:19.86	9.91	11.86	-45.8	-49.6	21.2	6.00e-01	0	40	0	94371840	62	5794
2026-01-14 01:47:20.89	9.87	11.97	-45.9	-49.6	21.1	6.01e-01	0	40	0	96468992	62	5844
2026-01-14 01:47:21.88	9.83	12.07	-45.9	-49.6	21.1	6.03e-01	0	40	0	98041856	62	5814
2026-01-14 01:47:22.87	9.78	12.16	-46.0	-49.6	21.0	6.04e-01	0	40	0	100139008	62	5850
2026-01-14 01:47:23.87	9.74	12.27	-45.9	-49.5	21.2	6.01e-01	0	41	0	101711872	62	5773
2026-01-14 01:47:24.87	9.70	12.37	-45.9	-49.5	21.2	6.02e-01	0	40	0	103809024	62	5787
2026-01-14 01:47:25.86	9.66	12.47	-45.9	-49.5	21.2	6.02e-01	0	40	0	105906176	62	5750
2026-01-14 01:47:26.85	9.62	12.57	-45.9	-49.6	21.2	6.02e-01	0	40	0	107479040	62	5815
2026-01-14 01:47:27.85	9.57	12.67	-46.0	-49.6	21.1	6.07e-01	0	40	0	109576192	62	5824
2026-01-14 01:47:28.85	9.53	12.77	-45.9	-49.5	21.3	6.04e-01	0	40	0	111149056	62	5741
2026-01-14 01:47:29.84	9.48	12.88	-45.8	-49.5	21.3	6.03e-01	0	40	0	113246208	62	5731
2026-01-14 01:47:30.83	9.44	12.98	-45.9	-49.5	21.3	6.02e-01	0	40	0	114819072	62	5733
2026-01-14 01:47:31.87	9.39	13.09	-45.9	-49.4	21.4	6.00e-01	0	40	0	116916224	62	5694
2026-01-14 01:47:32.83	9.35	13.19	-45.9	-49.4	21.4	6.02e-01	0	40	0	118489088	62	5689
2026-01-14 01:47:33.83	9.31	13.29	-45.9	-49.4	21.3	6.04e-01	0	41	0	120586240	62	5678
2026-01-14 01:47:34.82	9.26	13.40	-45.8	-49.4	21.3	6.03e-01	0	40	0	122683392	62	5665
2026-01-14 01:47:35.81	9.21	13.50	-45.8	-49.4	21.3	6.05e-01	0	41	0	124256256	62	5699
2026-01-14 01:47:36.81	9.17	13.61	-45.8	-49.4	21.4	6.02e-01	0	41	0	126353408	62	5664
2026-01-14 01:47:37.80	9.12	13.72	-45.9	-49.5	21.3	6.02e-01	0	40	0	127926272	62	5727
2026-01-14 01:47:38.80	9.07	13.83	-45.9	-49.4	21.4	6.02e-01	0	40	0	130023424	62	5660
2026-01-14 01:47:39.79	9.03	13.93	-45.9	-49.3	21.4	6.03e-01	0	40	0	131596288	62	5646
2026-01-14 01:47:40.79	8.98	14.04	-45.8	-49.2	21.5	6.03e-01	0	40	0	133693440	62	5568
2026-01-14 01:47:41.78	8.93	14.15	-45.8	-49.3	21.5	6.01e-01	0	41	0	135266304	62	5603
2026-01-14 01:47:42.77	8.88	14.26	-45.7	-49.1	21.6	6.03e-01	0	40	0	137363456	62	5493
2026-01-14 01:47:43.77	8.83	14.37	-45.7	-49.1	21.7	6.03e-01	0	40	0	139460608	62	5523
2026-01-14 01:47:44.76	8.78	14.48	-45.6	-49.0	21.7	6.05e-01	0	41	0	141033472	62	5449
2026-01-14 01:47:45.77	8.73	14.59	-45.6	-49.0	21.8	6.03e-01	0	40	0	143130624	62	5411
2026-01-14 01:47:46.77	8.68	14.71	-45.6	-49.0	21.7	6.04e-01	0	40	0	144703488	62	5460
2026-01-14 01:47:47.84	8.63	14.83	-45.6	-49.0	21.6	6.02e-01	0	40	0	146800640	62	5448
2026-01-14 01:47:48.71	8.58	14.92	-45.7	-49.0	21.7	6.03e-01	0	40	0	148373504	62	5442
2026-01-14 01:47:49.84	8.52	15.05	-45.8	-49.1	21.7	6.04e-01	0	40	0	150470656	62	5500
2026-01-14 01:47:50.70	8.48	15.15	-45.7	-49.0	21.8	6.01e-01	0	40	0	152043520	62	5427
2026-01-14 01:47:51.84	8.42	15.28	-45.7	-49.0	21.7	6.07e-01	0	40	0	154140672	62	5444
2026-01-14 01:47:52.69	8.37	15.38	-45.7	-49.0	21.8	6.02e-01	0	40	0	155713536	62	5415
2026-01-14 01:47:53.83	8.31	15.51	-45.6	-48.8	21.9	6.04e-01	0	40	0	157810688	62	5330
2026-01-14 01:47:54.68	8.26	15.61	-45.6	-48.8	21.9	6.02e-01	0	40	0	159907840	62	5331
2026-01-14 01:47:55.82	8.20	15.75	-45.6	-48.8	22.0	6.04e-01	0	40	0	162004992	62	5288
2026-01-14 01:47:56.67	8.15	15.85	-45.6	-48.8	22.0	6.04e-01	0	40	0	163577856	62	5280
2026-01-14 01:47:57.81	8.09	15.98	-45.6	-48.7	22.0	6.02e-01	0	40	0	165675008	62	5278
2026-01-14 01:47:58.66	8.04	16.08	-45.6	-48.7	22.0	6.01e-01	0	40	0	167247872	62	5269
2026-01-14 01:47:59.84	7.97	16.23	-45.6	-48.7	22.1	6.05e-01	0	40	0	169345024	62	5256
2026-01-14 01:48:00.70	7.92	16.33	-45.7	-48.8	22.0	6.01e-01	0	40	0	170917888	62	5286
2026-01-14 01:48:01.90	7.85	16.47	-45.6	-48.7	22.0	6.01e-01	0	40	0	173015040	62	5259
2026-01-14 01:48:02.75	7.80	16.58	-45.6	-48.7	22.0	6.03e-01	0	40	0	175112192	62	5275
2026-01-14 01:48:03.96	7.73	16.73	-45.7	-48.8	22.0	6.01e-01	0	40	0	177209344	62	5293
2026-01-14 01:48:04.82	7.68	16.83	-45.7	-48.8	21.9	6.04e-01	0	40	0	178782208	62	5331
2026-01-14 01:48:06.02	7.61	16.98	-45.8	-48.9	21.9	5.99e-01	0	40	0	180879360	62	5397
2026-01-14 01:48:06.87	7.56	17.09	-45.8	-49.0	21.8	6.03e-01	0	40	0	182452224	62	5403
2026-01-14 01:48:08.00	7.49	17.23	-45.7	-48.9	21.8	6.00e-01	0	40	0	184549376	62	5401
2026-01-14 01:48:08.86	7.44	17.34	-45.7	-49.0	21.8	6.02e-01	0	40	0	186122240	62	5436
2026-01-14 01:48:10.11	7.36	17.49	-45.6	-49.0	21.8	6.04e-01	0	41	0	188743680	62	5432
2026-01-14 01:48:10.96	7.30	17.60	-45.6	-49.0	21.8	6.02e-01	0	41	0	190316544	62	5423
2026-01-14 01:48:12.10	7.23	17.75	-45.6	-49.1	21.8	6.02e-01	0	40	0	192413696	62	5466
2026-01-14 01:48:12.95	7.18	17.86	-45.6	-49.0	21.8	6.04e-01	0	40	0	193986560	62	5440
2026-01-14 01:48:14.09	7.10	18.00	-45.4	-49.0	21.8	6.02e-01	0	41	0	196083712	62	5447
2026-01-14 01:48:14.99	7.04	18.12	-45.3	-49.0	21.8	6.05e-01	0	40	0	197656576	62	5457
2026-01-14 01:48:16.03	6.97	18.26	-45.2	-49.0	21.8	6.06e-01	0	41	0	199753728	62	5449
2026-01-14 01:48:17.03	6.91	18.39	-45.2	-49.0	21.8	6.05e-01	0	40	0	201326592	62	5455
2026-01-14 01:48:18.02	6.84	18.52	-45.1	-48.8	22.0	6.05e-01	0	40	0	203423744	62	5332
2026-01-14 01:48:19.01	6.77	18.65	-45.1	-48.8	22.0	6.03e-01	0	40	0	205520896	62	5293
2026-01-14 01:48:20.01	6.70	18.78	-45.0	-48.7	22.1	6.02e-01	0	40	0	207093760	62	5278
2026-01-14 01:48:21.00	6.63	18.92	-45.0	-48.7	22.1	6.05e-01	0	41	0	209190912	62	5236
2026-01-14 01:48:22.00	6.56	19.05	-44.9	-48.6	22.2	6.01e-01	0	40	0	210763776	61	5492
2026-01-14 01:48:22.99	6.49	19.19	-45.0	-48.6	22.1	6.03e-01	0	40	0	212860928	61	5520
2026-01-14 01:48:23.99	6.42	19.32	-45.0	-48.6	22.2	6.00e-01	0	40	0	214433792	61	5511
2026-01-14 01:48:24.98	6.35	19.46	-45.0	-48.6	22.2	6.05e-01	0	40	0	216530944	61	5466
2026-01-14 01:48:25.98	6.28	19.60	-44.9	-48.5	22.3	6.03e-01	0	40	0	218103808	61	5439
2026-01-14 01:48:26.97	6.20	19.74	-45.0	-48.6	22.2	6.04e-01	0	40	0	220200960	61	5477
2026-01-14 01:48:27.97	6.13	19.88	-45.0	-48.7	22.1	6.03e-01	0	40	0	222298112	61	5543
2026-01-14 01:48:28.96	6.05	20.02	-45.0	-48.7	22.1	6.01e-01	0	40	0	223870976	61	5545
2026-01-14 01:48:29.96	5.98	20.16	-45.1	-48.7	22.1	6.05e-01	0	40	0	225968128	61	5585
2026-01-14 01:48:30.95	5.90	20.30	-45.2	-48.8	22.0	6.03e-01	0	41	0	227540992	61	5606
2026-01-14 01:48:31.95	5.82	20.44	-45.3	-48.9	21.9	6.05e-01	0	40	0	229638144	61	5698
2026-01-14 01:48:32.94	5.75	20.58	-45.3	-49.0	21.9	6.00e-01	0	40	0	231735296	61	5744
2026-01-14 01:48:33.94	5.67	20.73	-45.2	-49.0	21.9	6.03e-01	0	40	0	233308160	61	5731
2026-01-14 01:48:34.93	5.59	20.87	-45.3	-49.0	21.9	6.01e-01	0	40	0	234881024	61	5734
2026-01-14 01:48:35.93	5.51	21.02	-45.3	-49.0	21.8	6.02e-01	0	40	0	236978176	61	5753
2026-01-14 01:48:36.92	5.43	21.17	-45.3	-48.9	21.9	6.02e-01	0	40	0	239075328	61	5703
2026-01-14 01:48:37.92	5.34	21.31	-45.3	-48.9	21.4	6.03e-01	0	40	0	240648192	61	5710
2026-01-14 01:48:38.91	5.26	21.46	-45.4	-49.0	21.8	6.04e-01	0	40	0	242745344	61	5734
2026-01-14 01:48:39.91	5.18	21.61	-45.4	-49.1	21.7	6.02e-01	0	40	0	244318208	61	5799
2026-01-14 01:48:40.90	5.09	21.76	-45.5	-49.2	21.7	6.04e-01	0	40	0	246415360	61	5883
2026-01-14 01:48:41.98	5.00	21.93	-45.5	-49.1	21.8	6.04e-01	0	40	0	248512512	61	5839
2026-01-14 01:48:42.83	4.92	22.06	-45.5	-49.1	21.8	6.01e-01	0	40	0	250085376	61	5810
2026-01-14 01:48:43.97	4.82	22.23	-45.6	-49.2	21.6	6.03e-01	0	40	0	252182528	61	5914
2026-01-14 01:48:44.82	4.75	22.36	-45.6	-49.2	21.7	6.03e-01	0	40	0	253755392	61	5859
2026-01-14 01:48:45.95	4.65	22.54	-45.6	-49.2	21.7	6.00e-01	0	40	0	255852544	61	5885
2026-01-14 01:48:46.81	4.57	22.67	-45.6	-49.1	21.7	6.04e-01	0	41	0	257425408	61	5848
2026-01-14 01:48:47.94	4.46	22.85	-45.6	-49.0	21.9	6.04e-01	0	40	0	259522560	61	5783
2026-01-14 01:48:48.80	4.38	22.99	-45.7	-49.1	21.8	6.02e-01	0	40	0	261095424	61	5822
2026-01-14 01:48:49.93	4.28	23.17	-45.8	-49.2	21.8	6.03e-01	0	40	0	263192576	62	5543
2026-01-14 01:48:50.78	4.20	23.31	-45.8	-49.2	21.7	6.02e-01	0	40	0	264765440	62	5555
2026-01-14 01:48:51.92	4.09	23.49	-45.9	-49.3	21.7	6.01e-01	0	40	0	266862592	62	5597
2026-01-14 01:48:52.77	4.00	23.63	-46.0	-49.3	21.6	6.00e-01	0	40	0	268435456	62	5634
2026-01-14 01:48:53.91	3.89	23.81	-46.1	-49.4	21.1	5.99e-01	0	40	0	270532608	62	5682
2026-01-14 01:48:54.77	3.81	23.96	-46.1	-49.3	21.6	6.04e-01	0	40	0	272105472	62	5628
2026-01-14 01:48:55.90	3.69	24.14	-46.2	-49.3	21.6	5.99e-01	0	40	0	274726912	63	5319
2026-01-14 01:48:56.79	3.60	24.29	-46.2	-49.2	21.7	6.05e-01	0	40	0	276299776	63	5264
2026-01-14 01:48:58.09	3.47	24.51	-45.9	-48.9	21.9	6.03e-01	0	40	0	278396928	63	5100
2026-01-14 01:48:58.80	3.39	24.63	-45.8	-48.8	22.1	6.06e-01	0	40	0	279969792	63	5006
2026-01-14 01:49:00.08	3.26	24.85	-45.8	-48.8	22.1	6.01e-01	0	40	0	282066944	63	5010
2026-01-14 01:49:00.79	3.18	24.97	-45.9	-48.8	22.1	6.05e-01	0	40	0	283639808	63	5021
2026-01-14 01:49:02.09	3.04	25.19	-45.8	-48.8	22.1	6.01e-01	0	40	0	286261248	63	4996
2026-01-14 01:49:02.80	2.96	25.32	-45.9	-48.9	22.0	6.03e-01	0	40	0	287309824	63	5062
2026-01-14 01:49:04.08	2.82	25.54	-46.0	-49.0	21.9	6.02e-01	0	41	0	289931264	63	5148
2026-01-14 01:49:04.79	2.74	25.67	-46.1	-49.2	21.7	6.04e-01	0	41	0	290979840	63	5245
2026-01-14 01:49:06.07	2.60	25.89	-46.1	-49.2	21.7	6.04e-01	0	40	0	293601280	63	5263
2026-01-14 01:49:06.92	2.50	26.04	-46.2	-49.3	21.7	6.04e-01	0	40	0	295174144	63	5290
2026-01-14 01:49:08.06	2.37	26.25	-46.2	-49.2	21.8	6.01e-01	0	40	0	297271296	63	5248
2026-01-14 01:49:09.10	2.25	26.44	-46.2	-49.2	21.7	6.04e-01	0	40	0	299368448	63	5279
2026-01-14 01:49:10.25	2.11	26.64	-46.0	-48.9	22.0	6.03e-01	0	40	0	301465600	63	5070
2026-01-14 01:49:11.10	2.01	26.80	-45.9	-48.8	22.1	6.07e-01	0	40	0	303038464	63	5033
2026-01-14 01:49:12.24	1.87	27.01	-46.0	-48.8	22.1	6.06e-01	0	40	0	305135616	63	5037
2026-01-14 01:49:13.09	1.76	27.17	-46.0	-48.8	22.1	6.03e-01	0	40	0	306708480	63	5016
2026-01-14 01:49:14.23	1.62	27.38	-45.7	-48.4	22.4	6.04e-01	0	40	0	308805632	63	4810
2026-01-14 01:49:15.08	1.51	27.54	-45.6	-48.3	22.6	6.02e-01	0	40	0	310378496	63	4743
2026-01-14 01:49:16.22	1.36	27.76	-45.6	-48.4	22.5	6.01e-01	0	40	0	312475648	63	4766
2026-01-14 01:49:17.07	1.25	27.92	-45.6	-48.4	22.4	6.02e-01	0	40	0	314048512	63	4801
2026-01-14 01:49:18.21	1.10	28.14	-45.8	-48.6	22.4	6.03e-01	0	41	0	316145664	63	4895
2026-01-14 01:49:19.06	0.99	28.30	-45.8	-48.7	22.2	6.03e-01	0	40	0	317718528	63	4960
2026-01-14 01:49:20.19	0.84	28.52	-45.9	-48.8	22.1	6.02e-01	0	40	0	319815680	63	5021
2026-01-14 01:49:21.05	0.72	28.69	-45.9	-48.8	22.1	6.02e-01	0	40	0	321912832	63	5015
2026-01-14 01:49:22.19	0.56	28.91	-45.9	-48.8	22.1	6.02e-01	0	40	0	323485696	63	5035
2026-01-14 01:49:23.04	0.44	29.08	-45.8	-48.7	22.2	6.03e-01	0	40	0	325582848	63	4953
2026-01-14 01:49:24.17	0.28	29.31	-45.6	-48.4	22.5	6.02e-01	0	40	0	327680000	63	4803
2026-01-14 01:49:25.05	0.15	29.48	-45.5	-48.3	22.6	6.03e-01	0	40	0	329252864	62	4997
2026-01-14 01:49:26.18	359.99	29.71	-45.6	-48.3	22.6	6.00e-01	0	41	0	331350016	62	5041
2026-01-14 01:49:27.10	359.85	29.90	-45.4	-48.2	22.7	6.04e-01	0	40	0	332922880	62	4930
2026-01-14 01:49:28.27	359.68	30.14	-45.4	-48.1	22.8	6.04e-01	0	40	0	335020032	62	4903
2026-01-14 01:49:29.12	359.55	30.31	-45.4	-48.1	22.8	6.01e-01	0	40	0	336592896	62	4912
2026-01-14 01:49:30.26	359.37	30.55	-45.5	-48.2	22.7	6.02e-01	0	40	0	338690048	62	4938
2026-01-14 01:49:31.11	359.24	30.73	-45.5	-48.1	22.8	6.03e-01	0	41	0	340262912	62	4912
2026-01-14 01:49:32.25	359.06	30.97	-45.4	-48.0	22.8	6.03e-01	0	40	0	342884352	62	4860
2026-01-14 01:49:33.25	358.90	31.18	-45.4	-48.0	22.8	6.03e-01	0	40	0	344457216	62	4853
2026-01-14 01:49:34.24	358.73	31.39	-45.5	-48.2	22.7	6.03e-01	0	40	0	346554368	62	4929
2026-01-14 01:49:35.24	358.57	31.60	-45.4	-48.1	22.8	6.02e-01	0	40	0	348127232	62	4915
2026-01-14 01:49:36.45	358.37	31.86	-45.5	-48.3	22.6	6.05e-01	0	41	0	350748672	62	4995
2026-01-14 01:49:37.31	358.22	32.05	-45.6	-48.4	22.6	6.03e-01	0	40	0	352321536	62	5043
2026-01-14 01:49:38.70	357.98	32.36	-45.6	-48.4	22.5	6.03e-01	0	40	0	354942976	62	5068
2026-01-14 01:49:39.41	357.85	32.51	-45.7	-48.5	22.5	6.03e-01	0	40	0	355991552	62	5122
2026-01-14 01:49:40.69	357.63	32.80	-45.7	-48.4	22.5	6.04e-01	0	40	0	358612992	62	5097
2026-01-14 01:49:41.42	357.49	32.96	-45.7	-48.4	22.5	6.04e-01	0	40	0	359661568	62	5094
2026-01-14 01:49:42.70	357.26	33.25	-45.5	-48.3	22.6	6.02e-01	0	40	0	362283008	62	5016
2026-01-14 01:49:43.41	357.13	33.41	-45.5	-48.4	22.6	6.03e-01	0	40	0	363331584	62	5056
2026-01-14 01:49:44.69	356.88	33.70	-45.8	-48.7	22.3	6.02e-01	0	40	0	365953024	62	5258
2026-01-14 01:49:45.40	356.75	33.86	-45.9	-49.0	22.0	6.02e-01	0	40	0	367525888	62	5411
2026-01-14 01:49:46.68	356.50	34.16	-46.1	-49.3	21.7	6.02e-01	0	40	0	369623040	62	5648
2026-01-14 01:49:47.39	356.36	34.32	-46.2	-49.4	21.7	6.05e-01	0	40	0	371195904	62	5670
2026-01-14 01:49:48.67	356.10	34.62	-46.2	-49.3	21.7	6.01e-01	0	40	0	373293056	63	5298
2026-01-14 01:49:49.60	355.91	34.84	-46.2	-49.2	21.8	6.05e-01	0	40	0	375390208	63	5236
2026-01-14 01:49:50.60	355.71	35.08	-46.3	-49.4	21.6	6.00e-01	0	40	0	376963072	63	5354
2026-01-14 01:49:51.60	355.50	35.32	-46.4	-49.6	21.3	6.05e-01	0	40	0	379060224	63	5512
2026-01-14 01:49:52.59	355.29	35.56	-46.4	-49.8	21.3	6.04e-01	0	40	0	380633088	63	5593
2026-01-14 01:49:53.59	355.07	35.80	-46.2	-49.6	21.5	6.02e-01	0	40	0	382730240	63	5467
2026-01-14 01:49:54.58	354.85	36.04	-46.3	-49.7	21.4	6.03e-01	0	41	0	384303104	63	5557
2026-01-14 01:49:55.58	354.63	36.28	-46.5	-50.0	21.1	6.02e-01	0	40	0	386400256	63	5765
2026-01-14 01:49:56.57	354.40	36.52	-46.6	-50.2	20.8	6.02e-01	0	40	0	387973120	64	5530
2026-01-14 01:49:57.57	354.17	36.77	-46.8	-50.4	20.6	6.01e-01	0	40	0	390070272	64	5693
2026-01-14 01:49:58.56	353.94	37.02	-46.9	-50.4	20.7	6.00e-01	0	40	0	392167424	64	5666
2026-01-14 01:49:59.56	353.70	37.27	-47.0	-50.4	20.6	6.01e-01	0	40	0	393740288	64	5698
2026-01-14 01:50:00.55	353.46	37.52	-47.0	-50.4	20.6	6.02e-01	0	40	0	395837440	64	5669
2026-01-14 01:50:01.55	353.22	37.77	-47.0	-50.4	20.7	6.01e-01	0	40	0	397410304	64	5658
2026-01-14 01:50:02.54	352.97	38.02	-47.0	-50.4	20.7	6.04e-01	0	40	0	399507456	64	5664
2026-01-14 01:50:03.54	352.72	38.28	-47.3	-50.9	20.2	6.05e-01	0	40	0	401080320	65	5693
2026-01-14 01:50:04.53	352.46	38.53	-47.5	-51.3	19.8	6.01e-01	0	40	0	403177472	65	5978
2026-01-14 01:50:05.53	352.20	38.79	-47.3	-51.0	20.1	6.04e-01	0	40	0	405274624	65	5725
2026-01-14 01:50:06.52	351.94	39.05	-47.1	-50.6	20.5	6.01e-01	0	40	0	406847488	65	5475
2026-01-14 01:50:07.52	351.67	39.31	-47.3	-50.7	20.4	6.02e-01	0	40	0	408944640	65	5550
2026-01-14 01:50:08.51	351.40	39.57	-47.5	-51.0	20.1	6.04e-01	0	40	0	410517504	65	5744
2026-01-14 01:50:09.51	351.12	39.83	-47.5	-50.9	20.1	6.03e-01	0	40	0	412614656	65	5702
2026-01-14 01:50:10.50	350.84	40.10	-47.3	-50.8	20.2	6.04e-01	0	40	0	414187520	65	5619
2026-01-14 01:50:11.50	350.55	40.36	-47.2	-50.8	20.3	6.00e-01	0	40	0	416284672	65	5602
2026-01-14 01:50:12.49	350.25	40.63	-47.3	-50.9	20.2	6.02e-01	0	40	0	418381824	65	5711
2026-01-14 01:50:13.51	349.95	40.90	-47.3	-50.9	20.2	6.03e-01	0	40	0	419954688	65	5714
2026-01-14 01:50:14.50	349.65	41.17	-47.1	-50.4	20.6	6.02e-01	0	40	0	422051840	65	5389
2026-01-14 01:50:15.50	349.34	41.44	-47.0	-50.2	20.8	6.05e-01	0	40	0	423624704	65	5276
2026-01-14 01:50:16.49	349.03	41.71	-47.2	-50.6	20.5	6.04e-01	0	41	0	425721856	65	5468
2026-01-14 01:50:17.49	348.71	41.99	-46.9	-50.2	20.8	6.02e-01	0	40	0	427294720	65	5273
2026-01-14 01:50:18.49	348.38	42.26	-46.9	-50.2	20.9	6.03e-01	0	40	0	429391872	65	5240
2026-01-14 01:50:19.48	348.05	42.54	-47.0	-50.3	20.7	6.04e-01	0	40	0	430964736	65	5324
2026-01-14 01:50:20.47	347.72	42.81	-46.9	-50.0	21.0	6.03e-01	0	40	0	433061888	65	5153
2026-01-14 01:50:21.47	347.37	43.09	-46.7	-49.8	21.2	6.04e-01	0	40	0	435159040	65	5017
2026-01-14 01:50:22.47	347.02	43.37	-46.7	-49.9	21.1	6.03e-01	0	40	0	436731904	65	5098
2026-01-14 01:50:23.46	346.67	43.65	-46.4	-49.7	21.3	6.05e-01	0	40	0	438829056	64	5274
2026-01-14 01:50:24.46	346.31	43.93	-46.1	-49.5	21.5	6.05e-01	0	40	0	440401920	64	5149
2026-01-14 01:50:25.45	345.94	44.21	-46.4	-49.9	21.2	6.03e-01	0	40	0	442499072	64	5350
2026-01-14 01:50:26.45	345.57	44.49	-46.3	-49.7	21.3	6.04e-01	0	40	0	444071936	64	5247
2026-01-14 01:50:27.44	345.19	44.77	-46.2	-49.4	21.5	6.05e-01	0	40	0	446169088	64	5093
2026-01-14 01:50:28.44	344.80	45.05	-46.4	-49.4	21.6	6.01e-01	0	40	0	447741952	64	5086
2026-01-14 01:50:29.46	344.39	45.35	-46.5	-49.5	21.5	6.02e-01	0	40	0	449839104	64	5127
2026-01-14 01:50:30.49	343.97	45.64	-47.0	-50.2	20.9	6.02e-01	0	40	0	451936256	64	5561
2026-01-14 01:50:31.48	343.57	45.92	-46.7	-49.8	21.2	6.02e-01	0	40	0	453509120	64	5296
2026-01-14 01:50:32.54	343.12	46.23	-46.6	-49.7	21.3	6.03e-01	0	40	0	455606272	64	5251
2026-01-14 01:50:33.39	342.76	46.47	-46.6	-49.7	21.3	5.98e-01	0	40	0	457179136	64	5249
2026-01-14 01:50:34.53	342.26	46.80	-46.4	-49.4	21.6	6.05e-01	0	40	0	459276288	64	5090
2026-01-14 01:50:35.38	341.88	47.04	-46.5	-49.6	21.4	6.01e-01	0	40	0	460849152	64	5174
2026-01-14 01:50:36.52	341.36	47.37	-46.6	-49.7	21.3	6.01e-01	0	40	0	462946304	64	5265
2026-01-14 01:50:37.37	340.97	47.62	-46.6	-49.7	21.4	5.99e-01	0	40	0	464519168	64	5225
2026-01-14 01:50:38.51	340.44	47.94	-46.6	-49.7	21.4	6.04e-01	0	40	0	467140608	64	5220
2026-01-14 01:50:39.36	340.03	48.19	-46.6	-49.7	21.3	6.05e-01	0	40	0	468713472	64	5275
2026-01-14 01:50:40.50	339.47	48.52	-46.5	-49.6	21.4	6.02e-01	0	40	0	470810624	64	5214
2026-01-14 01:50:41.35	339.05	48.76	-46.6	-49.7	21.3	6.03e-01	0	40	0	472383488	64	5269
2026-01-14 01:50:42.49	338.47	49.09	-46.6	-49.8	21.3	6.05e-01	0	40	0	474480640	64	5291
2026-01-14 01:50:43.34	338.03	49.33	-46.2	-49.2	21.8	6.01e-01	0	40	0	476053504	64	4931
2026-01-14 01:50:44.52	337.41	49.67	-46.4	-49.5	21.5	6.03e-01	0	40	0	478150656	64	5108
2026-01-14 01:50:45.37	336.96	49.91	-46.5	-49.6	21.4	6.02e-01	0	40	0	479723520	64	5179
2026-01-14 01:50:46.57	336.30	50.25	-46.3	-49.4	21.6	6.03e-01	0	40	0	481820672	64	5042
2026-01-14 01:50:47.43	335.82	50.49	-46.0	-48.9	22.0	6.02e-01	0	40	0	483393536	64	4803
2026-01-14 01:50:48.57	335.17	50.82	-46.2	-49.4	21.7	6.02e-01	0	40	0	485490688	63	5379
2026-01-14 01:50:49.42	334.68	51.06	-46.3	-49.5	21.6	6.01e-01	0	40	0	487587840	63	5421
2026-01-14 01:50:50.56	334.00	51.37	-45.9	-48.8	22.2	6.03e-01	0	40	0	489684992	63	5022
2026-01-14 01:50:51.41	333.49	51.61	-45.9	-48.6	22.4	6.03e-01	0	40	0	491257856	63	4913
2026-01-14 01:50:52.54	332.80	51.92	-46.2	-49.0	22.0	5.99e-01	0	40	0	493355008	63	5126
2026-01-14 01:50:53.40	332.26	52.16	-46.0	-48.8	22.2	6.03e-01	0	40	0	494927872	63	5034
2026-01-14 01:50:54.53	331.54	52.47	-45.9	-48.7	22.3	6.02e-01	0	40	0	497025024	63	4963
2026-01-14 01:50:55.39	330.98	52.70	-45.9	-48.8	22.2	6.03e-01	0	40	0	498597888	63	5010
2026-01-14 01:50:56.52	330.23	53.00	-45.7	-48.7	22.3	6.04e-01	0	40	0	500695040	63	4967
2026-01-14 01:50:57.38	329.66	53.23	-45.6	-48.7	22.3	6.02e-01	0	40	0	502267904	63	4938
2026-01-14 01:50:58.51	328.88	53.53	-45.7	-48.8	22.1	6.01e-01	0	40	0	504365056	63	5036
2026-01-14 01:50:59.36	328.29	53.75	-45.5	-48.6	22.4	6.02e-01	0	40	0	505937920	63	4889
2026-01-14 01:51:00.50	327.48	54.04	-45.5	-48.4	22.6	6.01e-01	0	40	0	508035072	62	5042
2026-01-14 01:51:01.35	326.86	54.26	-45.7	-48.5	22.4	6.02e-01	0	40	0	509607936	62	5159
2026-01-14 01:51:02.49	326.02	54.54	-45.8	-48.8	22.2	6.03e-01	0	40	0	511705088	62	5324
2026-01-14 01:51:03.34	325.38	54.75	-45.7	-48.6	22.4	6.06e-01	0	40	0	513277952	62	5175
2026-01-14 01:51:04.48	324.51	55.03	-45.8	-48.6	22.3	6.03e-01	0	40	0	515375104	62	5217
2026-01-14 01:51:05.39	323.81	55.25	-46.1	-49.1	21.9	6.02e-01	0	40	0	517472256	62	5501
2026-01-14 01:51:06.39	323.02	55.49	-46.1	-49.1	21.9	6.02e-01	0	40	0	519045120	62	5478
2026-01-14 01:51:07.39	322.21	55.72	-45.8	-48.7	22.3	6.03e-01	0	40	0	521142272	62	5273
2026-01-14 01:51:08.38	321.41	55.94	-46.2	-49.3	21.8	6.04e-01	0	40	0	522715136	63	5290
2026-01-14 01:51:09.38	320.58	56.16	-46.3	-49.3	21.8	6.01e-01	0	40	0	524812288	63	5294
2026-01-14 01:51:10.37	319.74	56.38	-46.4	-49.4	21.6	6.01e-01	0	40	0	526385152	63	5395
2026-01-14 01:51:11.37	318.89	56.59	-46.2	-49.2	21.9	6.03e-01	0	40	0	528482304	63	5241
2026-01-14 01:51:12.36	318.03	56.79	-46.5	-49.7	21.4	6.03e-01	0	40	0	530579456	63	5589
2026-01-14 01:51:13.36	317.14	56.99	-46.4	-49.5	21.5	6.04e-01	0	40	0	532152320	63	5448
2026-01-14 01:51:14.35	316.26	57.19	-46.4	-49.4	21.6	6.05e-01	0	40	0	534249472	63	5380
2026-01-14 01:51:15.35	315.35	57.38	-46.5	-49.6	21.5	6.04e-01	0	40	0	535822336	63	5481
2026-01-14 01:51:16.34	314.44	57.56	-46.7	-49.8	21.2	6.02e-01	0	40	0	537919488	64	5338
2026-01-14 01:51:17.34	313.51	57.73	-46.8	-50.1	21.0	6.02e-01	0	40	0	539492352	64	5482
2026-01-14 01:51:18.40	312.50	57.91	-46.7	-50.0	21.1	6.01e-01	0	40	0	541589504	64	5412
2026-01-14 01:51:19.28	311.66	58.05	-46.7	-50.0	21.1	6.04e-01	0	40	0	543162368	64	5417
2026-01-14 01:51:20.57	310.41	58.25	-47.0	-50.4	20.7	6.03e-01	0	40	0	545783808	64	5672
2026-01-14 01:51:21.29	309.71	58.36	-46.9	-50.2	20.9	6.01e-01	0	40	0	546832384	64	5533
2026-01-14 01:51:22.57	308.44	58.54	-47.4	-50.8	20.2	6.02e-01	0	40	0	549453824	65	5628
2026-01-14 01:51:23.28	307.73	58.63	-47.7	-51.2	20.0	6.06e-01	0	40	0	551026688	66	5539
2026-01-14 01:51:24.56	306.43	58.79	-47.6	-51.1	20.1	6.04e-01	0	40	0	553123840	66	5506
2026-01-14 01:51:25.27	305.71	58.87	-47.4	-50.8	20.4	6.04e-01	0	40	0	554696704	66	5317
2026-01-14 01:51:26.55	304.39	59.01	-47.7	-51.5	19.5	6.04e-01	0	40	0	556793856	66	5726
2026-01-14 01:51:27.26	303.65	59.08	-47.8	-51.7	19.5	6.03e-01	0	40	0	558366720	66	5862
2026-01-14 01:51:28.54	302.32	59.20	-47.0	-50.3	20.7	6.02e-01	0	40	0	560988160	65	5307
2026-01-14 01:51:29.27	301.55	59.26	-47.1	-50.3	20.7	6.04e-01	0	40	0	562036736	65	5302
2026-01-14 01:51:30.55	300.19	59.36	-47.4	-50.8	20.4	6.06e-01	0	40	0	564658176	65	5605
2026-01-14 01:51:31.26	299.44	59.40	-46.9	-50.2	20.9	6.04e-01	0	40	0	565706752	65	5219
2026-01-14 01:51:32.54	298.07	59.47	-47.6	-51.2	19.9	6.01e-01	0	40	0	568328192	65	5894
2026-01-14 01:51:33.25	297.30	59.51	-47.4	-51.0	20.1	6.03e-01	0	40	0	569376768	65	5751
2026-01-14 01:51:34.62	295.83	59.56	-47.0	-50.3	20.7	6.03e-01	0	40	0	571998208	65	5305
2026-01-14 01:51:35.33	295.06	59.58	-47.1	-50.4	20.6	6.05e-01	0	40	0	573571072	65	5401
2026-01-14 01:51:36.61	293.68	59.60	-47.1	-50.3	20.7	6.08e-01	0	40	0	575668224	65	5300
2026-01-14 01:51:37.68	292.52	59.61	-47.4	-50.8	20.4	6.03e-01	0	40	0	577765376	65	5622
2026-01-14 01:51:38.82	291.28	59.61	-47.4	-50.9	20.2	6.04e-01	0	40	0	579862528	65	5691
2026-01-14 01:51:39.85	290.16	59.60	-47.2	-50.8	20.3	6.01e-01	0	40	0	581959680	65	5613
2026-01-14 01:51:40.84	289.09	59.58	-47.2	-50.6	20.5	6.04e-01	0	40	0	583532544	65	5526
2026-01-14 01:51:41.84	288.01	59.55	-47.2	-50.4	20.7	6.00e-01	0	40	0	585629696	65	5401
2026-01-14 01:51:42.83	286.95	59.51	-47.5	-51.0	20.1	6.04e-01	0	40	0	587202560	65	5779
2026-01-14 01:51:43.82	285.88	59.46	-46.9	-50.4	20.7	6.05e-01	0	40	0	589299712	65	5352
2026-01-14 01:51:44.82	284.81	59.40	-47.2	-50.7	20.4	6.02e-01	0	40	0	591396864	65	5562
2026-01-14 01:51:45.81	283.76	59.33	-47.4	-50.9	20.2	6.02e-01	0	40	0	592969728	65	5695
2026-01-14 01:51:46.80	282.71	59.26	-47.1	-50.4	20.6	6.05e-01	0	40	0	595066880	65	5396
2026-01-14 01:51:47.80	281.66	59.17	-47.2	-50.6	20.4	6.03e-01	0	40	0	596639744	65	5521
2026-01-14 01:51:48.79	280.63	59.08	-47.3	-50.9	20.2	6.02e-01	0	40	0	598736896	65	5717
2026-01-14 01:51:49.79	279.59	58.98	-47.3	-50.9	20.3	6.01e-01	0	40	0	600309760	65	5661
2026-01-14 01:51:50.79	278.56	58.87	-47.2	-50.6	20.5	6.01e-01	0	40	0	602406912	65	5503
2026-01-14 01:51:51.78	277.55	58.75	-47.5	-51.0	20.1	6.01e-01	0	40	0	603979776	65	5736
2026-01-14 01:51:52.87	276.45	58.62	-47.4	-50.8	20.3	6.01e-01	0	40	0	606076928	65	5610
2026-01-14 01:51:53.73	275.59	58.50	-47.2	-50.4	20.7	6.02e-01	0	40	0	607649792	65	5386
2026-01-14 01:51:54.86	274.47	58.34	-47.4	-50.9	20.2	6.05e-01	0	40	0	610271232	65	5659
2026-01-14 01:51:55.72	273.63	58.21	-47.4	-50.7	20.4	6.01e-01	0	40	0	611844096	65	5549
2026-01-14 01:51:56.85	272.54	58.04	-47.4	-50.8	20.3	6.01e-01	0	40	0	613941248	65	5633
2026-01-14 01:51:57.87	271.56	57.87	-46.7	-49.9	21.0	6.05e-01	0	40	0	615514112	65	5090
2026-01-14 01:51:58.86	270.63	57.70	-46.8	-50.0	21.0	6.03e-01	0	40	0	617611264	65	5143
2026-01-14 01:51:59.85	269.70	57.53	-47.1	-50.4	20.6	6.03e-01	0	40	0	619184128	65	5344
2026-01-14 01:52:00.85	268.78	57.34	-46.9	-50.1	21.0	6.04e-01	0	40	0	621281280	65	5170
2026-01-14 01:52:01.84	267.89	57.15	-46.6	-49.6	21.4	6.06e-01	0	40	0	623378432	65	4882
2026-01-14 01:52:02.84	266.99	56.96	-46.8	-49.9	21.1	6.02e-01	0	40	0	624951296	65	5089
2026-01-14 01:52:03.83	266.12	56.76	-47.0	-50.3	20.7	6.00e-01	0	40	0	627048448	65	5325
2026-01-14 01:52:04.83	265.25	56.55	-46.7	-49.9	21.1	6.03e-01	0	40	0	628621312	65	5072
2026-01-14 01:52:05.82	264.40	56.34	-46.4	-49.5	21.3	6.02e-01	0	40	0	630718464	64	5128
2026-01-14 01:52:06.81	263.57	56.12	-46.8	-50.0	21.2	6.05e-01	0	40	0	632291328	64	5447
2026-01-14 01:52:07.81	262.74	55.90	-47.1	-50.3	20.7	6.03e-01	0	40	0	634388480	64	5641
2026-01-14 01:52:08.83	261.91	55.67	-46.6	-49.7	21.3	6.01e-01	0	40	0	635961344	64	5223
2026-01-14 01:52:09.86	261.09	55.43	-46.0	-48.8	22.1	6.05e-01	0	40	0	638058496	63	5019
2026-01-14 01:52:10.89	260.27	55.18	-46.4	-49.5	21.5	6.02e-01	0	40	0	640155648	63	5418
2026-01-14 01:52:11.88	259.51	54.94	-46.1	-49.1	21.9	6.05e-01	0	40	0	641728512	63	5174
2026-01-14 01:52:12.94	258.70	54.68	-46.0	-48.9	22.1	6.04e-01	0	40	0	643825664	63	5048
2026-01-14 01:52:13.83	258.04	54.46	-46.1	-49.0	21.9	6.01e-01	0	40	0	645398528	63	5153
2026-01-14 01:52:14.96	257.21	54.18	-46.1	-49.0	22.0	6.04e-01	0	40	0	647495680	63	5125
2026-01-14 01:52:15.82	256.59	53.96	-45.9	-48.8	22.1	6.05e-01	0	40	0	649068544	63	5009
2026-01-14 01:52:16.95	255.78	53.66	-45.7	-48.5	22.4	6.03e-01	0	40	0	651689984	63	4829
2026-01-14 01:52:17.81	255.19	53.44	-45.8	-48.6	22.4	6.04e-01	0	40	0	653262848	63	4909
2026-01-14 01:52:18.95	254.41	53.14	-45.6	-48.3	22.5	6.03e-01	0	40	0	655360000	63	4756
2026-01-14 01:52:19.80	253.84	52.91	-45.4	-48.2	22.8	6.03e-01	0	40	0	656932864	62	4936
2026-01-14 01:52:20.94	253.09	52.60	-45.7	-48.5	22.4	6.04e-01	0	40	0	659030016	62	5111
2026-01-14 01:52:21.79	252.54	52.37	-45.7	-48.4	22.4	6.04e-01	0	40	0	660602880	62	5066
2026-01-14 01:52:22.93	251.81	52.06	-45.3	-47.9	22.9	6.02e-01	0	40	0	662700032	62	4810
2026-01-14 01:52:23.78	251.28	51.83	-45.7	-48.5	22.4	6.04e-01	0	40	0	664272896	62	5141
2026-01-14 01:52:24.92	250.59	51.51	-45.5	-48.3	22.6	6.01e-01	0	40	0	666370048	62	5004
2026-01-14 01:52:25.77	250.08	51.27	-45.5	-48.3	22.6	6.01e-01	0	40	0	667942912	62	5002
2026-01-14 01:52:26.90	249.41	50.95	-46.1	-49.0	21.9	6.03e-01	0	40	0	670040064	62	5462
2026-01-14 01:52:27.76	248.91	50.71	-46.2	-49.1	21.8	6.02e-01	0	40	0	671612928	63	5206
2026-01-14 01:52:29.10	248.15	50.33	-45.5	-48.2	22.7	6.02e-01	0	40	0	674234368	62	4952
2026-01-14 01:52:30.22	247.54	50.01	-45.6	-48.3	22.6	6.03e-01	0	40	0	676331520	62	5026
2026-01-14 01:52:31.07	247.07	49.77	-45.9	-48.8	22.2	6.04e-01	0	40	0	677904384	62	5309
2026-01-14 01:52:32.21	246.47	49.44	-45.8	-48.7	22.2	6.02e-01	0	40	0	680001536	62	5235
2026-01-14 01:52:33.07	246.02	49.20	-46.0	-48.9	22.1	6.03e-01	0	40	0	681574400	62	5385
2026-01-14 01:52:34.22	245.43	48.87	-45.4	-48.1	22.7	6.04e-01	0	40	0	683671552	62	4919
2026-01-14 01:52:35.08	245.00	48.62	-45.6	-48.3	22.6	6.01e-01	0	40	0	685244416	62	5025
2026-01-14 01:52:36.21	244.44	48.29	-46.0	-48.9	22.1	6.02e-01	0	40	0	687341568	62	5375
2026-01-14 01:52:37.06	244.03	48.05	-46.1	-49.0	21.9	6.04e-01	0	40	0	688914432	62	5461
2026-01-14 01:52:38.20	243.49	47.72	-45.8	-48.5	22.4	6.00e-01	0	40	0	691535872	62	5152
2026-01-14 01:52:39.05	243.09	47.47	-45.8	-48.6	22.3	6.02e-01	0	40	0	693108736	62	5186
2026-01-14 01:52:40.19	242.57	47.14	-45.8	-48.5	22.4	6.05e-01	0	40	0	695205888	62	5140
2026-01-14 01:52:41.14	242.14	46.87	-45.7	-48.4	22.5	6.03e-01	0	40	0	696778752	62	5067
2026-01-14 01:52:42.13	241.70	46.58	-45.9	-48.7	22.2	6.04e-01	0	40	0	698875904	62	5253
2026-01-14 01:52:43.13	241.27	46.29	-46.2	-49.2	21.8	6.02e-01	0	40	0	700448768	63	5255
2026-01-14 01:52:44.12	240.85	46.01	-46.1	-49.0	21.9	6.03e-01	0	40	0	702545920	63	5140
2026-01-14 01:52:45.12	240.44	45.72	-46.1	-49.0	21.9	6.03e-01	0	40	0	704118784	63	5138
2026-01-14 01:52:46.11	240.03	45.44	-45.9	-48.7	22.2	6.05e-01	0	40	0	706215936	63	4960
2026-01-14 01:52:47.44	239.50	45.06	-46.3	-49.2	21.8	6.06e-01	0	40	0	708313088	63	5242
2026-01-14 01:52:48.18	239.21	44.84	-46.1	-49.0	22.0	6.01e-01	0	40	0	709885952	63	5107
2026-01-14 01:52:49.78	238.59	44.39	-46.1	-49.0	21.9	6.04e-01	0	40	0	713031680	63	5150
2026-01-14 01:52:50.34	238.38	44.23	-46.1	-48.9	22.0	6.01e-01	0	40	0	714080256	63	5100
2026-01-14 01:52:52.27	237.67	43.68	-46.0	-48.8	22.1	6.02e-01	0	40	0	717750272	63	5008
2026-01-14 01:52:52.84	237.46	43.52	-46.0	-48.8	22.1	6.02e-01	0	40	0	718798848	63	5015
2026-01-14 01:52:54.54	236.86	43.05	-46.5	-49.5	21.5	6.04e-01	0	40	0	721944576	63	5405
2026-01-14 01:52:55.11	236.67	42.89	-46.7	-49.7	21.2	6.01e-01	0	40	0	722993152	64	5273
2026-01-14 01:52:56.81	236.09	42.41	-46.2	-49.1	21.7	6.05e-01	0	40	0	726138880	64	4926
2026-01-14 01:52:57.39	235.90	42.25	-46.2	-49.2	21.7	6.03e-01	0	40	0	727187456	64	4945
2026-01-14 01:52:59.03	235.36	41.80	-46.6	-49.7	21.3	6.00e-01	0	40	0	730333184	64	5248
2026-01-14 01:52:59.60	235.18	41.64	-46.6	-49.6	21.3	6.05e-01	0	40	0	731381760	64	5216
2026-01-14 01:53:01.54	234.57	41.11	-46.6	-49.6	21.3	6.04e-01	0	40	0	735051776	64	5188
2026-01-14 01:53:02.11	234.40	40.96	-46.7	-49.8	21.2	6.04e-01	0	40	0	736100352	64	5285
2026-01-14 01:53:04.12	233.79	40.41	-46.9	-50.3	20.6	6.02e-01	0	40	0	739770368	64	5641
2026-01-14 01:53:04.69	233.63	40.26	-46.7	-50.1	20.8	6.04e-01	0	40	0	740818944	64	5468
2026-01-14 01:53:06.68	233.06	39.73	-47.1	-50.7	20.3	6.02e-01	0	40	0	744488960	64	5857
2026-01-14 01:53:07.61	232.80	39.48	-47.4	-51.0	19.9	6.04e-01	0	40	0	746586112	65	5781
2026-01-14 01:53:08.60	232.52	39.22	-47.4	-50.9	20.1	6.02e-01	0	40	0	748158976	65	5661
2026-01-14 01:53:09.60	232.25	38.96	-47.2	-50.5	20.4	6.03e-01	0	40	0	750256128	65	5450
2026-01-14 01:53:10.60	231.99	38.70	-47.3	-50.6	20.4	6.01e-01	0	40	0	751828992	65	5502
2026-01-14 01:53:11.59	231.73	38.44	-47.4	-50.8	20.2	6.04e-01	0	40	0	753926144	65	5629
2026-01-14 01:53:12.59	231.47	38.18	-47.4	-50.8	20.1	6.02e-01	0	40	0	755499008	65	5646
2026-01-14 01:53:13.58	231.22	37.93	-47.4	-50.8	20.2	6.04e-01	0	40	0	757596160	65	5607
2026-01-14 01:53:14.58	230.97	37.67	-47.4	-50.8	20.2	6.01e-01	0	40	0	759693312	65	5607
2026-01-14 01:53:15.57	230.73	37.42	-47.4	-50.8	20.2	6.06e-01	0	40	0	761266176	65	5644
2026-01-14 01:53:16.57	230.48	37.17	-47.1	-50.4	20.5	6.01e-01	0	40	0	763363328	65	5366
2026-01-14 01:53:17.56	230.25	36.92	-47.1	-50.4	20.6	6.07e-01	0	40	0	764936192	65	5358
2026-01-14 01:53:18.55	230.02	36.67	-47.4	-50.9	20.1	6.00e-01	0	40	0	767033344	65	5657
2026-01-14 01:53:19.55	229.79	36.43	-47.4	-50.9	20.0	6.05e-01	0	40	0	768606208	65	5717
2026-01-14 01:53:20.54	229.56	36.18	-47.1	-50.5	20.4	6.01e-01	0	40	0	770703360	65	5419
2026-01-14 01:53:21.54	229.34	35.94	-46.8	-50.1	20.8	6.03e-01	0	40	0	772276224	65	5192
2026-01-14 01:53:22.53	229.12	35.70	-46.6	-49.9	21.0	6.02e-01	0	40	0	774373376	65	5061
2026-01-14 01:53:23.53	228.90	35.45	-46.6	-49.9	21.0	5.99e-01	0	40	0	776470528	65	5061
2026-01-14 01:53:24.52	228.69	35.22	-46.8	-50.2	20.7	6.03e-01	0	40	0	778043392	65	5266
2026-01-14 01:53:25.52	228.48	34.98	-46.9	-50.2	20.7	6.05e-01	0	40	0	780140544	65	5272
2026-01-14 01:53:26.54	228.27	34.73	-46.7	-49.9	21.0	6.01e-01	0	40	0	782237696	65	5082
2026-01-14 01:53:27.56	228.06	34.49	-46.5	-49.5	21.3	6.03e-01	0	40	0	783810560	64	5139
2026-01-14 01:53:28.55	227.86	34.26	-46.5	-49.6	21.3	6.02e-01	0	40	0	785907712	64	5179
2026-01-14 01:53:29.55	227.67	34.03	-46.6	-49.7	21.2	6.04e-01	0	40	0	787480576	64	5253
2026-01-14 01:53:30.55	227.47	33.80	-46.6	-49.7	21.1	6.03e-01	0	40	0	789577728	64	5269
2026-01-14 01:53:31.54	227.28	33.57	-46.4	-49.5	21.4	6.03e-01	0	40	0	791150592	64	5119
2026-01-14 01:53:32.53	227.09	33.34	-46.3	-49.2	21.6	6.02e-01	0	40	0	793247744	64	4976
2026-01-14 01:53:33.53	226.91	33.11	-46.2	-49.2	21.7	6.03e-01	0	40	0	794820608	64	4933
2026-01-14 01:53:34.52	226.72	32.89	-46.2	-49.2	21.7	6.03e-01	0	40	0	796917760	64	4952
2026-01-14 01:53:35.52	226.54	32.67	-46.1	-49.1	21.8	6.03e-01	0	40	0	799014912	64	4887
2026-01-14 01:53:36.51	226.37	32.45	-46.0	-48.9	21.9	6.01e-01	0	40	0	800587776	64	4814
2026-01-14 01:53:37.51	226.19	32.22	-46.0	-48.8	22.1	6.03e-01	0	40	0	802684928	63	5016
2026-01-14 01:53:38.50	226.02	32.01	-45.8	-48.7	22.2	6.04e-01	0	40	0	804257792	63	4944
2026-01-14 01:53:39.50	225.85	31.79	-45.9	-48.8	22.1	6.04e-01	0	40	0	806354944	63	5015
2026-01-14 01:53:40.49	225.68	31.57	-45.9	-48.7	22.1	6.06e-01	0	40	0	807927808	63	4978
2026-01-14 01:53:41.49	225.51	31.36	-46.0	-48.8	22.0	6.03e-01	0	40	0	810024960	63	5034
2026-01-14 01:53:42.48	225.35	31.14	-45.8	-48.7	22.2	6.02e-01	0	40	0	811597824	63	4953
2026-01-14 01:53:43.48	225.19	30.93	-45.8	-48.6	22.2	6.01e-01	0	40	0	813694976	63	4906
2026-01-14 01:53:44.48	225.03	30.72	-45.8	-48.6	22.2	6.06e-01	0	40	0	815792128	63	4926
2026-01-14 01:53:45.47	224.87	30.51	-45.8	-48.6	22.2	6.01e-01	0	40	0	817364992	63	4926
2026-01-14 01:53:46.47	224.71	30.30	-45.8	-48.7	22.2	6.04e-01	0	40	0	819462144	63	4927
2026-01-14 01:53:47.46	224.56	30.10	-45.8	-48.6	22.2	6.04e-01	0	40	0	821035008	63	4926
2026-01-14 01:53:48.45	224.41	29.89	-45.8	-48.7	22.2	6.02e-01	0	40	0	823132160	63	4939
2026-01-14 01:53:49.45	224.26	29.69	-45.8	-48.6	22.2	6.06e-01	0	40	0	824705024	63	4926
2026-01-14 01:53:50.44	224.12	29.49	-45.8	-48.6	22.3	6.03e-01	0	40	0	826802176	63	4894
2026-01-14 01:53:51.44	223.97	29.29	-45.9	-48.7	22.1	6.03e-01	0	40	0	828375040	63	4978
2026-01-14 01:53:52.43	223.83	29.09	-45.9	-48.7	22.1	6.04e-01	0	40	0	830472192	63	4965
2026-01-14 01:53:53.42	223.69	28.89	-46.0	-48.8	22.0	6.02e-01	0	40	0	832569344	63	5038
2026-01-14 01:53:54.42	223.55	28.69	-46.0	-48.9	22.0	6.02e-01	0	40	0	834142208	63	5059
2026-01-14 01:53:55.42	223.41	28.50	-46.1	-49.0	21.9	6.04e-01	0	40	0	836239360	63	5112
2026-01-14 01:53:56.41	223.27	28.30	-46.0	-48.9	22.0	6.05e-01	0	40	0	837812224	63	5046
2026-01-14 01:53:57.40	223.14	28.11	-45.9	-48.8	22.0	6.03e-01	0	40	0	839909376	63	5032
2026-01-14 01:53:58.40	223.01	27.92	-46.0	-48.9	22.0	6.02e-01	0	40	0	841482240	63	5069
2026-01-14 01:53:59.39	222.88	27.73	-45.9	-48.9	21.9	6.01e-01	0	40	0	843579392	63	5073
2026-01-14 01:54:00.39	222.75	27.54	-46.0	-49.0	21.9	6.02e-01	0	40	0	845152256	63	5111
2026-01-14 01:54:01.38	222.62	27.35	-45.9	-49.0	21.9	6.02e-01	0	40	0	847249408	63	5107
2026-01-14 01:54:02.44	222.49	27.15	-45.9	-48.9	21.9	6.03e-01	0	40	0	849346560	63	5088
2026-01-14 01:54:03.34	222.37	26.98	-46.0	-49.0	21.9	6.05e-01	0	40	0	850919424	63	5130
2026-01-14 01:54:04.57	222.22	26.75	-46.0	-49.0	21.8	6.03e-01	0	40	0	853016576	63	5141
2026-01-14 01:54:05.42	222.12	26.60	-46.0	-49.0	21.9	6.00e-01	0	40	0	854589440	63	5116
2026-01-14 01:54:06.56	221.98	26.39	-46.0	-49.0	21.9	6.02e-01	0	40	0	857210880	63	5114
2026-01-14 01:54:07.41	221.88	26.23	-46.0	-49.0	21.8	6.02e-01	0	40	0	858783744	63	5137
2026-01-14 01:54:08.55	221.75	26.03	-46.1	-49.1	21.7	6.04e-01	0	40	0	860880896	63	5206
2026-01-14 01:54:09.40	221.65	25.88	-46.1	-49.1	21.8	6.02e-01	0	40	0	862453760	63	5172
2026-01-14 01:54:10.54	221.52	25.67	-46.1	-49.1	21.8	6.00e-01	0	40	0	864550912	63	5177
2026-01-14 01:54:11.39	221.42	25.52	-46.1	-49.1	21.8	6.04e-01	0	40	0	866123776	63	5167
2026-01-14 01:54:12.53	221.29	25.32	-46.2	-49.2	21.7	6.03e-01	0	40	0	868220928	63	5230
2026-01-14 01:54:13.38	221.20	25.17	-46.3	-49.3	21.6	6.02e-01	0	40	0	869793792	63	5292
2026-01-14 01:54:14.52	221.07	24.98	-46.4	-49.4	21.5	6.02e-01	0	40	0	871890944	63	5369
2026-01-14 01:54:15.37	220.98	24.83	-46.5	-49.5	21.4	6.04e-01	0	40	0	873463808	63	5453
2026-01-14 01:54:16.51	220.86	24.63	-46.6	-49.7	21.2	6.04e-01	0	40	0	875560960	63	5564
2026-01-14 01:54:17.37	220.77	24.49	-46.6	-49.7	21.2	6.02e-01	0	40	0	877133824	63	5568
2026-01-14 01:54:18.58	220.64	24.28	-46.6	-49.7	21.2	6.06e-01	0	40	0	879230976	63	5551
2026-01-14 01:54:19.43	220.55	24.14	-46.7	-49.8	21.1	6.02e-01	0	40	0	881328128	63	5603
2026-01-14 01:54:20.57	220.44	23.95	-46.4	-49.5	21.3	6.05e-01	0	40	0	883425280	64	5123
2026-01-14 01:54:21.42	220.35	23.81	-46.3	-49.4	21.4	6.02e-01	0	40	0	884998144	64	5069
2026-01-14 01:54:22.56	220.24	23.62	-46.4	-49.5	21.2	6.03e-01	0	40	0	887095296	64	5148
2026-01-14 01:54:23.41	220.15	23.48	-46.3	-49.4	21.3	6.04e-01	0	40	0	888668160	64	5100
2026-01-14 01:54:24.55	220.04	23.29	-46.3	-49.4	21.4	6.05e-01	0	40	0	890765312	64	5075
2026-01-14 01:54:25.40	219.96	23.16	-46.3	-49.5	21.3	6.02e-01	0	40	0	892338176	64	5101
2026-01-14 01:54:26.54	219.85	22.97	-46.3	-49.4	21.4	6.02e-01	0	40	0	894435328	64	5081
2026-01-14 01:54:27.39	219.77	22.84	-46.3	-49.5	21.3	6.06e-01	0	40	0	896008192	64	5110
2026-01-14 01:54:28.53	219.67	22.66	-46.3	-49.4	21.3	6.02e-01	0	40	0	898105344	64	5097
2026-01-14 01:54:29.38	219.59	22.52	-46.3	-49.4	21.3	6.01e-01	0	40	0	899678208	64	5099
2026-01-14 01:54:30.52	219.48	22.34	-46.2	-49.4	21.4	6.02e-01	0	40	0	901775360	64	5067
2026-01-14 01:54:31.37	219.41	22.21	-46.2	-49.4	21.3	6.04e-01	0	40	0	903348224	64	5091
2026-01-14 01:54:32.51	219.30	22.03	-46.2	-49.4	21.3	6.02e-01	0	40	0	905445376	64	5098
2026-01-14 01:54:33.36	219.23	21.90	-46.2	-49.4	21.3	6.00e-01	0	40	0	907018240	64	5052
2026-01-14 01:54:34.50	219.13	21.73	-46.3	-49.5	21.2	6.02e-01	0	40	0	909639680	64	5140
2026-01-14 01:54:35.35	219.05	21.60	-46.3	-49.5	21.2	6.03e-01	0	40	0	911212544	64	5133
2026-01-14 01:54:36.49	218.96	21.43	-46.3	-49.4	21.3	6.03e-01	0	40	0	912785408	64	5098
2026-01-14 01:54:37.34	218.88	21.30	-46.3	-49.5	21.3	6.02e-01	0	40	0	914882560	64	5135
2026-01-14 01:54:38.48	218.79	21.13	-46.4	-49.7	21.1	6.04e-01	0	40	0	916979712	64	5222
2026-01-14 01:54:39.33	218.72	21.00	-46.3	-49.5	21.2	6.04e-01	0	40	0	918552576	64	5142
2026-01-14 01:54:40.47	218.62	20.83	-46.3	-49.5	21.2	6.03e-01	0	40	0	920649728	64	5138
2026-01-14 01:54:41.32	218.56	20.71	-46.3	-49.5	21.3	6.02e-01	0	40	0	922222592	64	5101
2026-01-14 01:54:42.46	218.46	20.54	-46.2	-49.4	21.3	6.02e-01	0	40	0	924319744	64	5080
2026-01-14 01:54:43.32	218.40	20.42	-46.3	-49.4	21.3	6.04e-01	0	40	0	925892608	64	5080
2026-01-14 01:54:44.45	218.31	20.25	-46.3	-49.4	21.3	6.01e-01	0	40	0	927989760	64	5075
2026-01-14 01:54:45.31	218.24	20.13	-46.2	-49.3	21.4	6.03e-01	0	40	0	929562624	64	4998
2026-01-14 01:54:46.45	218.15	19.97	-46.1	-49.2	21.5	6.04e-01	0	40	0	931659776	64	4961
2026-01-14 01:54:47.30	218.09	19.85	-46.2	-49.3	21.4	6.03e-01	0	40	0	933232640	64	5019
2026-01-14 01:54:48.44	218.00	19.69	-46.2	-49.3	21.4	6.03e-01	0	40	0	935329792	64	5038
2026-01-14 01:54:49.29	217.94	19.57	-46.3	-49.4	21.3	5.99e-01	0	40	0	936902656	64	5066
2026-01-14 01:54:50.43	217.85	19.41	-46.3	-49.4	21.3	6.00e-01	0	40	0	938999808	64	5059
2026-01-14 01:54:51.28	217.79	19.29	-46.3	-49.4	21.3	6.03e-01	0	40	0	940572672	64	5085
2026-01-14 01:54:52.51	217.70	19.12	-46.3	-49.4	21.2	6.04e-01	0	40	0	943194112	64	5098
2026-01-14 01:54:53.37	217.64	19.01	-46.3	-49.4	21.3	6.02e-01	0	40	0	944766976	64	5052
2026-01-14 01:54:54.50	217.56	18.85	-46.4	-49.5	21.2	6.02e-01	0	40	0	946864128	64	5143
2026-01-14 01:54:55.36	217.49	18.73	-46.4	-49.6	21.2	6.05e-01	0	40	0	948436992	64	5165
2026-01-14 01:54:56.49	217.42	18.58	-46.3	-49.5	21.2	6.04e-01	0	40	0	950534144	64	5113
2026-01-14 01:54:57.35	217.36	18.47	-46.4	-49.6	21.1	6.04e-01	0	40	0	952107008	64	5164
2026-01-14 01:54:58.48	217.28	18.32	-46.3	-49.5	21.2	6.02e-01	0	40	0	954204160	64	5140
2026-01-14 01:54:59.34	217.22	18.20	-46.3	-49.5	21.1	6.02e-01	0	40	0	955777024	64	5129
2026-01-14 01:55:00.47	217.14	18.06	-46.2	-49.4	21.3	6.03e-01	0	40	0	957874176	64	5085
2026-01-14 01:55:01.33	217.09	17.94	-46.2	-49.4	21.3	6.04e-01	0	40	0	959447040	64	5070
2026-01-14 01:55:02.46	217.01	17.80	-46.2	-49.4	21.3	6.04e-01	0	40	0	961544192	64	5059
2026-01-14 01:55:03.32	216.95	17.68	-46.2	-49.4	21.2	6.02e-01	0	40	0	963117056	64	5071
2026-01-14 01:55:04.46	216.88	17.54	-46.1	-49.3	21.4	6.04e-01	0	40	0	965738496	64	5014
2026-01-14 01:55:05.31	216.83	17.43	-46.1	-49.4	21.3	6.04e-01	0	40	0	967311360	64	5048
2026-01-14 01:55:06.45	216.75	17.28	-46.1	-49.2	21.4	6.05e-01	0	40	0	969408512	64	4962
2026-01-14 01:55:07.30	216.70	17.18	-46.1	-49.3	21.3	6.06e-01	0	40	0	970981376	64	5011
2026-01-14 01:55:08.50	216.62	17.02	-46.2	-49.4	21.3	6.02e-01	0	40	0	973078528	64	5047
2026-01-14 01:55:09.35	216.57	16.92	-46.2	-49.4	21.2	6.04e-01	0	40	0	974651392	64	5077
2026-01-14 01:55:10.49	216.50	16.78	-46.3	-49.5	21.1	6.03e-01	0	40	0	976748544	64	5159
2026-01-14 01:55:11.34	216.45	16.67	-46.3	-49.6	21.1	6.01e-01	0	40	0	978321408	64	5161
2026-01-14 01:55:12.62	216.37	16.51	-46.3	-49.6	21.1	6.02e-01	0	40	0	980942848	64	5175
2026-01-14 01:55:13.33	216.33	16.43	-46.3	-49.6	21.1	6.01e-01	0	40	0	981991424	64	5188
2026-01-14 01:55:14.61	216.26	16.27	-46.3	-49.6	21.1	6.03e-01	0	40	0	984612864	64	5167
2026-01-14 01:55:15.34	216.21	16.18	-46.2	-49.5	21.2	6.04e-01	0	40	0	985661440	64	5113
2026-01-14 01:55:16.62	216.14	16.03	-46.3	-49.6	21.0	6.02e-01	0	40	0	988282880	64	5195
2026-01-14 01:55:17.34	216.10	15.94	-46.2	-49.4	21.2	6.03e-01	0	40	0	989855744	64	5099
2026-01-14 01:55:18.62	216.02	15.79	-46.2	-49.5	21.1	6.00e-01	0	40	0	991952896	64	5135
2026-01-14 01:55:19.35	215.98	15.70	-46.2	-49.4	21.2	6.00e-01	0	40	0	993525760	64	5089
2026-01-14 01:55:20.63	215.91	15.55	-46.2	-49.4	21.2	6.03e-01	0	40	0	995622912	64	5096
2026-01-14 01:55:21.51	215.86	15.45	-46.1	-49.4	21.2	5.99e-01	0	40	0	997720064	64	5064
2026-01-14 01:55:22.65	215.80	15.31	-46.1	-49.4	21.2	6.00e-01	0	40	0	999817216	64	5088
2026-01-14 01:55:23.50	215.75	15.21	-46.1	-49.4	21.2	6.04e-01	0	40	0	1001390080	64	5086
2026-01-14 01:55:24.64	215.69	15.08	-46.1	-49.4	21.2	6.00e-01	0	40	0	1003487232	64	5090
2026-01-14 01:55:25.49	215.64	14.98	-46.1	-49.4	21.1	6.04e-01	0	40	0	1005060096	64	5084
2026-01-14 01:55:26.63	215.58	14.85	-46.2	-49.4	21.1	6.03e-01	0	40	0	1007157248	64	5090
2026-01-14 01:55:27.80	215.52	14.72	-46.2	-49.4	21.2	6.02e-01	0	40	0	1009254400	64	5087
2026-01-14 01:55:28.82	215.47	14.61	-46.2	-49.5	21.1	6.02e-01	0	40	0	1011351552	64	5118
2026-01-14 01:55:29.82	215.42	14.49	-46.2	-49.4	21.1	6.03e-01	0	40	0	1012924416	64	5092
2026-01-14 01:55:30.81	215.37	14.38	-46.1	-49.3	21.2	6.03e-01	0	40	0	1015021568	64	5026
2026-01-14 01:55:31.81	215.32	14.27	-46.1	-49.4	21.1	6.00e-01	0	40	0	1016594432	64	5094
2026-01-14 01:55:32.81	215.27	14.16	-46.1	-49.3	21.2	6.05e-01	0	40	0	1018691584	64	5035
2026-01-14 01:55:33.80	215.22	14.05	-46.1	-49.4	21.1	6.06e-01	0	40	0	1020788736	64	5085
2026-01-14 01:55:34.79	215.17	13.94	-46.1	-49.4	21.1	6.02e-01	0	40	0	1022361600	64	5079
2026-01-14 01:55:35.79	215.12	13.83	-46.0	-49.4	21.2	6.05e-01	0	40	0	1024458752	63	5347
2026-01-14 01:55:36.78	215.07	13.72	-46.1	-49.4	21.2	6.01e-01	0	40	0	1026031616	63	5379
2026-01-14 01:55:37.78	215.02	13.61	-46.1	-49.4	21.2	6.04e-01	0	40	0	1028128768	63	5383
2026-01-14 01:55:38.77	214.97	13.51	-46.0	-49.4	21.2	6.03e-01	0	40	0	1029701632	63	5349
2026-01-14 01:55:39.84	214.92	13.39	-46.1	-49.4	21.2	6.04e-01	0	40	0	1031798784	63	5380
2026-01-14 01:55:40.73	214.88	13.30	-46.1	-49.4	21.2	6.04e-01	0	40	0	1033371648	63	5402
2026-01-14 01:55:42.04	214.82	13.16	-46.1	-49.3	21.2	6.03e-01	0	40	0	1035993088	63	5327
2026-01-14 01:55:42.75	214.79	13.08	-46.1	-49.4	21.2	6.03e-01	0	40	0	1037565952	63	5354
2026-01-14 01:55:44.26	214.72	12.92	-46.2	-49.5	21.1	6.01e-01	0	40	0	1040187392	63	5407
2026-01-14 01:55:44.97	214.68	12.85	-46.2	-49.5	21.1	6.01e-01	0	40	0	1041235968	63	5428
2026-01-14 01:55:46.25	214.63	12.72	-46.2	-49.5	21.1	6.02e-01	0	40	0	1043857408	63	5407
2026-01-14 01:55:46.98	214.59	12.64	-46.2	-49.5	21.1	6.03e-01	0	40	0	1045430272	63	5404
2026-01-14 01:55:48.26	214.54	12.51	-46.3	-49.5	21.0	6.00e-01	0	40	0	1047527424	63	5446
2026-01-14 01:55:48.97	214.51	12.43	-46.4	-49.7	20.9	6.05e-01	0	40	0	1049100288	63	5534
2026-01-14 01:55:50.25	214.45	12.30	-46.3	-49.6	20.9	6.00e-01	0	40	0	1051197440	63	5517
2026-01-14 01:55:50.97	214.42	12.23	-46.3	-49.6	20.9	6.01e-01	0	40	0	1052770304	63	5522
2026-01-14 01:55:52.25	214.36	12.10	-46.4	-49.8	20.7	6.04e-01	0	40	0	1055391744	63	5653
2026-01-14 01:55:52.96	214.33	12.03	-46.3	-49.8	20.8	6.05e-01	0	40	0	1056440320	63	5607
2026-01-14 01:55:54.24	214.28	11.90	-46.3	-49.8	20.6	6.04e-01	0	40	0	1059061760	63	5643
2026-01-14 01:55:54.97	214.25	11.83	-46.3	-49.9	20.6	6.03e-01	0	40	0	1060110336	63	5701
2026-01-14 01:55:56.25	214.19	11.70	-46.5	-50.1	20.4	6.05e-01	0	40	0	1062731776	63	5830
2026-01-14 01:55:56.96	214.16	11.63	-46.6	-50.2	20.3	6.02e-01	0	40	0	1063780352	63	5891
2026-01-14 01:55:58.24	214.11	11.50	-46.6	-50.2	20.3	6.02e-01	0	40	0	1066401792	64	5542
2026-01-14 01:55:59.17	214.07	11.41	-46.5	-50.1	20.4	6.03e-01	0	40	0	1067974656	64	5472
2026-01-14 01:56:00.47	214.02	11.28	-46.5	-49.9	20.5	6.03e-01	0	40	0	1070596096	64	5387
2026-01-14 01:56:01.18	213.99	11.21	-46.6	-50.0	20.4	6.06e-01	0	40	0	1071644672	64	5463
2026-01-14 01:56:02.46	213.94	11.09	-46.5	-50.0	20.4	6.02e-01	0	40	0	1074266112	64	5428
2026-01-14 01:56:03.18	213.91	11.02	-46.6	-50.0	20.4	6.04e-01	0	40	0	1075838976	64	5462
2026-01-14 01:56:04.46	213.86	10.90	-46.5	-50.0	20.4	6.03e-01	0	40	0	1077936128	64	5463
2026-01-14 01:56:05.17	213.83	10.83	-46.5	-49.9	20.5	6.02e-01	0	40	0	1079508992	64	5389
2026-01-14 01:56:06.45	213.79	10.71	-46.4	-49.9	20.5	6.04e-01	0	40	0	1081606144	64	5389
2026-01-14 01:56:07.16	213.76	10.64	-46.5	-50.0	20.4	6.05e-01	0	40	0	1083179008	64	5419
2026-01-14 01:56:08.46	213.71	10.52	-46.4	-50.0	20.4	6.01e-01	0	40	0	1085276160	64	5408
2026-01-14 01:56:09.17	213.68	10.45	-46.4	-49.9	20.5	6.05e-01	0	40	0	1086849024	64	5378
2026-01-14 01:56:10.53	213.63	10.32	-46.4	-50.0	20.4	6.04e-01	0	40	0	1089470464	64	5422
2026-01-14 01:56:11.24	213.60	10.25	-46.5	-50.0	20.3	6.03e-01	0	40	0	1090519040	64	5456
2026-01-14 01:56:12.52	213.56	10.14	-46.5	-50.1	20.3	6.03e-01	0	40	0	1093140480	64	5479
2026-01-14 01:56:13.25	213.53	10.07	-46.6	-50.1	20.2	6.04e-01	0	40	0	1094713344	64	5527
2026-01-14 01:56:14.53	213.48	9.95	-46.6	-50.1	20.2	6.02e-01	0	40	0	1096810496	64	5527
2026-01-14 01:56:15.25	213.46	9.88	-46.6	-50.1	20.3	6.02e-01	0	40	0	1098383360	64	5497
2026-01-14 01:56:16.72	213.40	9.75	-46.5	-50.0	20.4	6.04e-01	0	40	0	1101004800	64	5425
2026-01-14 01:56:17.43	213.38	9.68	-46.4	-50.0	20.4	6.03e-01	0	40	0	1102053376	64	5412
2026-01-14 01:56:18.77	213.33	9.56	-46.4	-50.0	20.3	6.04e-01	0	40	0	1104674816	64	5456
2026-01-14 01:56:19.48	213.31	9.50	-46.5	-50.1	20.3	6.02e-01	0	40	0	1106247680	64	5477
2026-01-14 01:56:20.76	213.26	9.38	-46.5	-50.1	20.2	6.02e-01	0	40	0	1108344832	64	5524
2026-01-14 01:56:21.47	213.24	9.32	-46.5	-50.2	20.1	6.04e-01	0	40	0	1109917696	64	5561
2026-01-14 01:56:22.77	213.19	9.20	-46.5	-50.2	20.1	6.01e-01	0	40	0	1112539136	64	5568
2026-01-14 01:56:23.48	213.17	9.14	-46.6	-50.3	19.9	6.04e-01	0	40	0	1113587712	64	5649
2026-01-14 01:56:24.75	213.13	9.03	-46.7	-50.4	19.9	6.03e-01	0	40	0	1116209152	64	5667
2026-01-14 01:56:25.54	213.10	8.96	-46.7	-50.5	19.9	6.01e-01	0	40	0	1117257728	64	5743
2026-01-14 01:56:26.82	213.06	8.84	-51.3	-70.4	3.9	7.45e-01	0	40	104	1118306304	73	34064
2026-01-14 01:56:27.56	213.03	8.78	-51.7	-71.5	3.9	7.47e-01	0	40	104	1118306304	74	36494
2026-01-14 01:56:28.84	212.99	8.67	-51.7	-72.1	3.8	7.48e-01	0	40	104	1118306304	74	38903
2026-01-14 01:56:29.56	212.97	8.61	-52.0	-72.2	3.8	7.50e-01	0	40	104	1118306304	74	39195
2026-01-14 01:56:30.84	212.93	8.49	-51.9	-72.2	3.8	7.42e-01	0	40	104	1118306304	75	37348
2026-01-14 01:56:31.55	212.90	8.43	-52.3	-72.3	3.8	7.43e-01	0	40	104	1118306304	75	37487
2026-01-14 01:56:32.83	212.86	8.32	-52.3	-72.3	3.8	7.46e-01	0	40	104	1118306304	75	37635
2026-01-14 01:56:33.54	212.84	8.26	-52.4	-72.3	3.8	7.47e-01	0	40	104	1118306304	75	37669
2026-01-14 01:56:34.82	212.80	8.15	-52.1	-72.3	3.8	7.46e-01	0	40	104	1118306304	75	37748
2026-01-14 01:56:35.52	212.78	8.09	-51.8	-72.4	3.8	7.46e-01	0	40	104	1118306304	75	37851
2026-01-14 01:56:36.82	212.74	7.98	-52.4	-72.3	3.8	7.49e-01	0	40	104	1118306304	75	37798
2026-01-14 01:56:37.53	212.71	7.92	-52.5	-72.4	3.8	7.47e-01	0	40	104	1118306304	75	37881
2026-01-14 01:56:38.80	212.68	7.82	-52.4	-72.4	3.8	7.45e-01	0	40	104	1118306304	75	38009
2026-01-14 01:56:39.51	212.65	7.76	-52.2	-72.4	3.8	7.46e-01	0	40	104	1118306304	75	38011
2026-01-14 01:56:40.82	212.61	7.65	-52.6	-72.4	3.8	7.45e-01	0	40	104	1118306304	75	37873
2026-01-14 01:56:41.53	212.59	7.59	-52.3	-72.4	3.8	7.45e-01	0	40	104	1118306304	75	37910
2026-01-14 01:56:42.84	212.55	7.48	-51.8	-72.4	3.8	7.50e-01	0	40	104	1118306304	75	37867
2026-01-14 01:56:43.55	212.53	7.42	-51.5	-72.3	3.8	7.47e-01	0	40	104	1118306304	75	37769
2026-01-14 01:56:44.83	212.49	7.32	-52.1	-72.3	3.8	7.44e-01	0	40	104	1118306304	75	37721
2026-01-14 01:56:45.54	212.47	7.26	-52.0	-72.3	3.8	7.45e-01	0	40	104	1118306304	75	37739
2026-01-14 01:56:46.82	212.44	7.15	-51.8	-72.3	3.8	7.48e-01	0	40	104	1118306304	75	37590
2026-01-14 01:56:47.53	212.42	7.09	-51.7	-72.3	3.8	7.45e-01	0	40	104	1118306304	75	37618
2026-01-14 01:56:48.80	212.38	6.99	-51.8	-72.3	3.8	7.44e-01	0	40	104	1118306304	75	37582
2026-01-14 01:56:49.52	212.36	6.93	-51.8	-72.3	3.8	7.44e-01	0	40	104	1118306304	75	37552
2026-01-14 01:56:50.79	212.32	6.83	-51.7	-72.3	3.8	7.46e-01	0	40	104	1118306304	75	37595
2026-01-14 01:56:51.50	212.30	6.77	-51.8	-72.3	3.8	7.47e-01	0	40	104	1118306304	75	37597
2026-01-14 01:56:52.78	212.27	6.67	-51.7	-72.3	3.8	7.46e-01	0	40	104	1118306304	75	37571
2026-01-14 01:56:53.49	212.25	6.61	-51.7	-72.3	3.8	7.47e-01	0	40	104	1118306304	75	37421
2026-01-14 01:56:54.77	212.21	6.51	-51.7	-72.3	3.8	7.47e-01	0	40	104	1118306304	75	37407
2026-01-14 01:56:55.48	212.19	6.46	-51.7	-72.3	3.8	7.49e-01	0	40	104	1118306304	75	37443
2026-01-14 01:56:56.75	212.16	6.36	-51.7	-72.3	3.8	7.44e-01	0	40	104	1118306304	75	37501
2026-01-14 01:56:57.46	212.14	6.30	-51.7	-72.3	3.8	7.48e-01	0	40	104	1118306304	75	37436
2026-01-14 01:56:58.75	212.10	6.20	-51.7	-72.3	3.8	7.47e-01	0	40	104	1118306304	75	37505
2026-01-14 01:56:59.46	212.08	6.14	-51.7	-72.3	3.8	7.46e-01	0	40	104	1118306304	75	37495
2026-01-14 01:57:00.74	212.05	6.04	-51.7	-72.3	3.8	7.45e-01	0	40	104	1118306304	75	37436
2026-01-14 01:57:01.45	212.03	5.99	-51.7	-72.3	3.8	7.47e-01	0	40	104	1118306304	75	37520
2026-01-14 01:57:02.73	212.00	5.89	-51.7	-72.3	3.8	7.48e-01	0	40	104	1118306304	75	37431
2026-01-14 01:57:03.44	211.98	5.83	-51.7	-72.3	3.8	7.46e-01	0	40	104	1118306304	75	37516
2026-01-14 01:57:04.71	211.95	5.74	-51.7	-72.3	3.8	7.47e-01	0	40	104	1118306304	75	37527
2026-01-14 01:57:05.43	211.93	5.68	-51.7	-72.3	3.8	7.42e-01	0	40	104	1118306304	75	37427
2026-01-14 01:57:06.70	211.90	5.58	-51.7	-72.3	3.8	7.45e-01	0	40	104	1118306304	75	37415
2026-01-14 01:57:07.43	211.88	5.53	-51.7	-72.3	3.8	7.45e-01	0	40	104	1118306304	75	37450
2026-01-14 01:57:08.70	211.85	5.43	-51.7	-72.3	3.8	7.46e-01	0	40	104	1118306304	75	37454
2026-01-14 01:57:09.43	211.83	5.38	-51.7	-72.3	3.8	7.47e-01	0	40	104	1118306304	75	37438
2026-01-14 01:57:10.71	211.80	5.28	-51.7	-72.3	3.8	7.43e-01	0	40	104	1118306304	75	37545
2026-01-14 01:57:11.43	211.78	5.22	-51.7	-72.3	3.8	7.48e-01	0	40	104	1118306304	75	37489
2026-01-14 01:57:12.71	211.75	5.13	-51.7	-72.3	3.8	7.45e-01	0	40	104	1118306304	75	37412
2026-01-14 01:57:13.42	211.73	5.08	-51.7	-72.3	3.8	7.45e-01	0	40	104	1118306304	75	37387
2026-01-14 01:57:14.70	211.70	4.98	-51.7	-72.3	3.8	7.48e-01	0	40	104	1118306304	75	37424

#Closed at: 2026-01-14 01:57:15
#Recorded file [1118 MB]: D:/Data/31040_260114_044601.dat