passes_logs/2026/01/14/T1/T1__20260114_080626_SUOMI_NPP_rec.log

#Pass ID: 20260114_080626_SUOMI NPP
#Satellite: SUOMI NPP
#Configuration: NPP
#almurnet v.1.7.20251203
#Start time: 2026-01-14 08:06:27

#Version: 2.0.20230620
#Station: T1
#Location: 37.570604 lon 55.790049 lat
#TLE: 1 37849U 11061A   26013.27136842  .00000065  00000+0  51889-4 0  9990
#TLE: 2 37849  98.7808 315.3349 0002489  66.6776 293.4661 14.19524902736466

#Time	Az	El	Level	Level2	SNR	BER	BlckErr	Temp	State	Recorded	gain1	gain2
2026-01-14 08:06:27.34	99.64	5.04	-51.7	-66.9	3.8	1.49e+00	0	40	0	0	75	20179
2026-01-14 08:06:28.33	99.55	5.10	-51.7	-66.8	3.8	1.49e+00	0	40	104	0	75	19949
2026-01-14 08:06:29.33	99.45	5.16	-51.7	-66.9	3.8	1.49e+00	0	40	104	0	75	20079
2026-01-14 08:06:30.32	99.36	5.21	-51.7	-66.8	3.8	1.49e+00	0	41	104	0	75	20057
2026-01-14 08:06:31.31	99.26	5.27	-51.7	-66.9	3.8	1.49e+00	0	40	104	0	75	20102
2026-01-14 08:06:32.31	99.17	5.33	-51.7	-66.8	3.8	1.49e+00	0	41	104	0	75	20054
2026-01-14 08:06:33.30	99.07	5.38	-51.7	-66.8	3.8	1.49e+00	0	41	104	0	75	19962
2026-01-14 08:06:34.29	98.98	5.44	-51.7	-66.9	3.8	1.49e+00	0	41	104	0	75	20078
2026-01-14 08:06:35.29	98.88	5.50	-51.7	-66.8	3.8	1.49e+00	0	41	104	0	75	20015
2026-01-14 08:06:36.28	98.79	5.55	-51.7	-66.9	3.8	1.49e+00	0	41	104	0	75	20103
2026-01-14 08:06:37.27	98.69	5.61	-51.7	-66.9	3.8	1.49e+00	0	41	104	0	75	20089
2026-01-14 08:06:38.27	98.59	5.67	-51.7	-66.8	3.8	1.49e+00	0	41	104	0	75	20053
2026-01-14 08:06:39.26	98.50	5.72	-51.7	-66.9	3.8	1.49e+00	0	41	104	0	75	20094
2026-01-14 08:06:40.25	98.40	5.78	-51.7	-66.8	3.8	1.49e+00	0	41	104	0	75	20048
2026-01-14 08:06:41.25	98.30	5.84	-51.7	-66.9	3.8	1.49e+00	0	41	104	0	75	20093
2026-01-14 08:06:42.24	98.20	5.89	-51.7	-66.9	3.8	1.49e+00	0	41	104	0	75	20082
2026-01-14 08:06:43.23	98.10	5.95	-51.7	-66.9	3.8	1.49e+00	0	41	104	0	75	20157
2026-01-14 08:06:44.22	98.01	6.01	-51.7	-66.8	3.8	1.49e+00	0	41	104	0	75	20071
2026-01-14 08:06:45.22	97.91	6.06	-51.7	-66.8	3.8	1.49e+00	0	41	104	0	75	20054
2026-01-14 08:06:46.21	97.81	6.12	-51.7	-66.8	3.8	1.49e+00	0	41	104	0	75	20044
2026-01-14 08:06:47.20	97.71	6.18	-51.7	-66.8	3.8	1.49e+00	0	41	104	0	75	20042
2026-01-14 08:06:48.20	97.60	6.24	-51.7	-66.8	3.8	1.49e+00	0	41	104	0	75	19995
2026-01-14 08:06:49.19	97.50	6.29	-51.7	-66.8	3.8	1.49e+00	0	41	104	0	75	19889
2026-01-14 08:06:50.18	97.40	6.35	-51.7	-66.7	3.8	1.49e+00	0	41	104	0	75	19833
2026-01-14 08:06:51.17	97.30	6.41	-51.7	-66.7	3.8	1.49e+00	0	41	104	0	75	19727
2026-01-14 08:06:52.17	97.20	6.46	-51.6	-66.7	3.8	1.49e+00	0	41	104	0	75	19634
2026-01-14 08:06:53.16	97.09	6.52	-51.7	-66.6	3.8	1.49e+00	0	41	104	0	75	19520
2026-01-14 08:06:54.16	96.99	6.58	-51.7	-66.6	3.8	1.49e+00	0	41	104	0	75	19476
2026-01-14 08:06:55.15	96.89	6.64	-51.6	-66.5	3.8	1.49e+00	0	41	104	0	75	19389
2026-01-14 08:06:56.14	96.78	6.69	-51.7	-66.6	3.8	1.49e+00	0	41	104	0	75	19445
2026-01-14 08:06:57.14	96.68	6.75	-51.6	-66.6	3.8	1.49e+00	0	42	104	0	75	19408
2026-01-14 08:06:58.13	96.57	6.81	-51.6	-66.6	3.8	1.49e+00	0	41	104	0	75	19437
2026-01-14 08:06:59.12	96.47	6.87	-51.7	-66.6	3.8	1.49e+00	0	42	104	0	75	19442
2026-01-14 08:07:00.12	96.36	6.93	-51.7	-66.5	3.8	1.49e+00	0	42	104	0	75	19250
2026-01-14 08:07:01.11	96.26	6.98	-51.6	-66.4	3.8	1.49e+00	0	42	104	0	75	19043
2026-01-14 08:07:02.10	96.15	7.04	-51.6	-66.3	3.8	1.49e+00	0	42	104	0	75	18895
2026-01-14 08:07:03.10	96.04	7.10	-51.6	-66.1	3.8	1.49e+00	0	42	104	0	75	18389
2026-01-14 08:07:04.09	95.94	7.16	-51.6	-66.1	3.8	1.49e+00	0	42	104	0	75	18419
2026-01-14 08:07:05.08	95.83	7.21	-51.6	-66.1	3.8	1.49e+00	0	42	104	0	75	18438
2026-01-14 08:07:06.08	95.72	7.27	-51.6	-66.3	3.8	1.49e+00	0	42	104	0	75	18847
2026-01-14 08:07:07.07	95.61	7.33	-51.6	-66.5	3.8	1.49e+00	0	42	104	0	75	19262
2026-01-14 08:07:08.06	95.50	7.39	-51.7	-66.6	3.8	1.49e+00	0	42	104	0	75	19614
2026-01-14 08:07:09.05	95.39	7.45	-51.7	-66.8	3.8	1.49e+00	0	42	104	0	75	19890
2026-01-14 08:07:10.05	95.28	7.50	-51.6	-66.8	3.8	1.49e+00	0	42	104	0	75	19894
2026-01-14 08:07:11.04	95.17	7.56	-51.7	-66.8	3.8	1.49e+00	0	42	104	0	75	20016
2026-01-14 08:07:12.03	95.06	7.62	-51.7	-66.9	3.8	1.49e+00	0	42	104	0	75	20140
2026-01-14 08:07:13.02	94.95	7.68	-51.7	-66.9	3.8	1.49e+00	0	42	104	0	75	20201
2026-01-14 08:07:14.02	94.84	7.74	-51.6	-66.8	3.8	1.49e+00	0	42	104	0	75	19978
2026-01-14 08:07:15.01	94.72	7.79	-51.6	-66.6	3.8	1.49e+00	0	42	104	0	75	19492
2026-01-14 08:07:16.00	94.61	7.85	-51.6	-66.1	3.8	1.49e+00	0	42	104	0	75	18431
2026-01-14 08:07:16.99	94.50	7.91	-51.6	-65.5	3.8	1.49e+00	0	42	104	0	75	17245
2026-01-14 08:07:17.99	94.38	7.97	-51.6	-65.1	3.8	1.49e+00	0	42	104	0	75	16371
2026-01-14 08:07:18.98	94.27	8.03	-51.6	-65.1	3.8	1.49e+00	0	42	104	0	75	16404
2026-01-14 08:07:19.97	94.16	8.09	-51.6	-65.8	3.8	1.49e+00	0	42	104	0	75	17802
2026-01-14 08:07:20.97	94.04	8.14	-51.7	-66.6	3.8	1.49e+00	0	42	104	0	75	19567
2026-01-14 08:07:21.96	93.93	8.20	-51.7	-66.5	3.8	1.49e+00	0	42	104	0	75	19340
2026-01-14 08:07:22.95	93.81	8.26	-51.5	-64.6	3.8	1.49e+00	0	42	104	0	75	15534
2026-01-14 08:07:23.95	93.69	8.32	-51.3	-61.8	4.7	1.32e+00	0	42	0	0	74	11883
2026-01-14 08:07:24.94	93.58	8.38	-50.9	-59.7	6.1	5.54e-01	0	42	0	2097152	73	9831
2026-01-14 08:07:25.93	93.46	8.44	-50.5	-57.8	7.6	1.23e-01	0	42	0	4194304	73	7977
2026-01-14 08:07:26.93	93.34	8.50	-50.2	-56.7	8.8	4.32e-02	0	42	0	5242880	72	7391
2026-01-14 08:07:27.92	93.22	8.55	-50.0	-56.1	9.4	2.03e-02	0	42	0	7340032	72	6955
2026-01-14 08:07:28.91	93.10	8.61	-50.1	-56.4	9.1	1.86e-02	0	42	0	9437184	72	7201
2026-01-14 08:07:29.90	92.98	8.67	-50.3	-56.9	8.6	3.11e-02	0	43	0	11534336	72	7593
2026-01-14 08:07:30.90	92.86	8.73	-50.6	-58.0	7.5	7.47e-02	0	42	0	13631488	72	8600
2026-01-14 08:07:31.89	92.74	8.79	-51.0	-59.7	6.0	1.87e-01	0	42	0	14680064	72	10499
2026-01-14 08:07:32.88	92.62	8.85	-51.3	-62.1	4.6	5.25e-01	0	42	0	16777216	73	13029
2026-01-14 08:07:33.88	92.50	8.91	-51.5	-64.9	3.9	1.47e+00	0	42	104	17825792	73	17903
2026-01-14 08:07:34.87	92.38	8.96	-51.7	-66.6	3.8	1.49e+00	0	42	104	17825792	73	21928
2026-01-14 08:07:35.86	92.26	9.02	-51.7	-66.9	3.8	1.49e+00	0	42	104	17825792	73	22539
2026-01-14 08:07:36.86	92.13	9.08	-51.3	-61.8	4.7	1.37e+00	0	43	104	17825792	73	12651
2026-01-14 08:07:37.93	92.00	9.14	-51.5	-63.1	4.3	8.95e-01	0	42	0	18874368	73	14573
2026-01-14 08:07:38.81	91.89	9.20	-51.4	-65.5	3.8	1.49e+00	0	43	104	18874368	74	18269
2026-01-14 08:07:39.95	91.75	9.26	-50.5	-57.2	8.3	8.37e-01	0	42	0	18874368	72	7871
2026-01-14 08:07:40.81	91.64	9.32	-51.7	-66.8	3.8	1.15e+00	0	42	104	19922944	74	21055
2026-01-14 08:07:41.94	91.50	9.38	-50.6	-58.0	7.4	1.44e+00	0	42	0	19922944	73	8106
2026-01-14 08:07:42.79	91.39	9.43	-50.1	-56.1	9.5	5.02e-02	0	43	0	20971520	72	6937
2026-01-14 08:07:43.93	91.24	9.50	-49.5	-54.4	11.3	1.54e-03	0	42	0	23068672	70	6401
2026-01-14 08:07:44.78	91.13	9.55	-49.4	-54.3	11.5	8.22e-04	0	42	0	25165824	70	6304
2026-01-14 08:07:45.92	90.99	9.62	-49.5	-54.5	11.2	1.00e-03	0	42	0	27262976	70	6458
2026-01-14 08:07:46.77	90.88	9.67	-49.4	-54.2	11.6	7.71e-04	0	42	0	28311552	70	6224
2026-01-14 08:07:47.91	90.73	9.74	-49.2	-54.0	11.8	5.04e-04	0	42	0	30408704	70	6066
2026-01-14 08:07:48.76	90.62	9.79	-49.1	-53.7	12.1	4.37e-04	0	42	0	32505856	70	5863
2026-01-14 08:07:49.90	90.47	9.85	-49.0	-53.5	12.3	1.93e-04	0	43	0	34603008	70	5777
2026-01-14 08:07:50.75	90.36	9.90	-49.0	-53.4	12.3	1.59e-04	0	42	0	35651584	69	6053
2026-01-14 08:07:51.89	90.21	9.97	-48.8	-53.2	12.6	1.20e-04	0	43	0	37748736	69	5894
2026-01-14 08:07:52.74	90.10	10.02	-48.9	-53.2	12.5	7.62e-05	0	42	0	39845888	69	5917
2026-01-14 08:07:54.07	89.92	10.10	-48.9	-53.4	12.5	1.33e-04	0	43	0	41943040	69	5999
2026-01-14 08:07:54.78	89.83	10.14	-48.9	-53.2	12.5	1.59e-04	0	43	0	44040192	69	5923
2026-01-14 08:07:56.07	89.65	10.22	-48.8	-53.2	12.6	4.88e-05	0	43	0	46137344	69	5871
2026-01-14 08:07:56.78	89.56	10.26	-48.6	-52.9	13.0	5.26e-05	0	43	0	47185920	69	5659
2026-01-14 08:07:58.06	89.38	10.34	-48.5	-52.6	13.2	2.59e-05	0	43	0	49283072	69	5487
2026-01-14 08:07:58.78	89.29	10.38	-48.5	-52.7	13.1	2.28e-05	0	43	0	51380224	69	5566
2026-01-14 08:08:00.06	89.11	10.45	-48.4	-52.3	13.5	1.14e-05	0	43	0	53477376	68	5636
2026-01-14 08:08:00.77	89.02	10.50	-48.4	-52.3	13.5	6.10e-06	0	43	0	54525952	68	5616
2026-01-14 08:08:02.05	88.84	10.57	-48.3	-52.2	13.6	3.00e-06	0	43	0	57671680	68	5547
2026-01-14 08:08:02.77	88.74	10.61	-48.4	-52.3	13.6	9.10e-06	0	43	0	58720256	68	5610
2026-01-14 08:08:04.05	88.56	10.69	-48.5	-52.5	13.3	1.44e-05	0	43	0	60817408	68	5777
2026-01-14 08:08:04.76	88.47	10.73	-48.5	-52.6	13.3	1.98e-05	0	43	0	61865984	68	5795
2026-01-14 08:08:06.04	88.29	10.81	-48.4	-52.3	13.5	1.22e-05	0	43	0	65011712	68	5644
2026-01-14 08:08:06.77	88.18	10.85	-48.2	-52.0	13.9	3.80e-06	0	43	0	66060288	68	5433
2026-01-14 08:08:08.14	87.99	10.93	-48.2	-52.0	13.9	4.50e-06	0	43	0	68157440	68	5425
2026-01-14 08:08:08.85	87.89	10.97	-48.2	-52.1	13.8	7.60e-06	0	43	0	70254592	68	5487
2026-01-14 08:08:10.13	87.71	11.05	-48.3	-52.4	13.5	1.06e-05	0	43	0	72351744	68	5661
2026-01-14 08:08:11.17	87.56	11.11	-48.5	-52.7	13.2	1.52e-05	0	43	0	74448896	68	5920
2026-01-14 08:08:12.12	87.43	11.16	-48.6	-52.8	13.1	2.05e-05	0	43	0	76546048	68	5964
2026-01-14 08:08:13.11	87.28	11.22	-48.5	-52.7	13.2	1.60e-05	0	43	0	77594624	68	5893
2026-01-14 08:08:14.11	87.14	11.28	-48.3	-52.2	13.7	1.52e-05	0	43	0	79691776	68	5566
2026-01-14 08:08:15.10	87.00	11.34	-48.3	-52.2	13.7	9.90e-06	0	43	0	81788928	68	5553
2026-01-14 08:08:16.10	86.85	11.40	-48.3	-52.3	13.6	1.06e-05	0	43	0	83886080	68	5632
2026-01-14 08:08:17.09	86.71	11.46	-48.5	-52.6	13.3	1.14e-05	0	43	0	84934656	68	5797
2026-01-14 08:08:18.09	86.56	11.51	-48.6	-52.9	13.0	2.59e-05	0	43	0	87031808	68	6046
2026-01-14 08:08:19.08	86.41	11.57	-48.7	-53.2	12.7	4.19e-05	0	43	0	89128960	68	6242
2026-01-14 08:08:20.16	86.25	11.64	-48.9	-53.5	12.5	1.07e-04	0	43	0	91226112	68	6424
2026-01-14 08:08:21.04	86.12	11.69	-48.8	-53.3	12.7	7.62e-05	0	43	0	92274688	68	6293
2026-01-14 08:08:22.18	85.95	11.75	-48.6	-52.9	13.0	5.26e-05	0	43	0	95420416	68	6044
2026-01-14 08:08:23.03	85.83	11.80	-48.7	-53.2	12.7	6.10e-05	0	43	0	96468992	68	6234
2026-01-14 08:08:24.17	85.66	11.87	-48.9	-53.6	12.3	1.31e-04	0	43	0	98566144	68	6532
2026-01-14 08:08:25.02	85.53	11.92	-48.9	-53.6	12.3	1.70e-04	0	43	0	100663296	68	6556
2026-01-14 08:08:26.15	85.36	11.98	-48.7	-53.3	12.7	1.69e-04	0	43	0	102760448	68	6316
2026-01-14 08:08:27.23	85.19	12.05	-48.5	-52.9	13.0	3.96e-05	0	43	0	104857600	68	6045
2026-01-14 08:08:28.08	85.06	12.10	-48.4	-52.7	13.2	3.20e-05	0	43	0	105906176	68	5902
2026-01-14 08:08:29.22	84.89	12.16	-48.3	-52.5	13.4	1.98e-05	0	43	0	108003328	68	5748
2026-01-14 08:08:30.07	84.76	12.21	-48.4	-52.7	13.3	9.10e-06	0	43	0	110100480	68	5879
2026-01-14 08:08:31.21	84.58	12.28	-48.4	-52.6	13.3	2.97e-05	0	43	0	112197632	68	5849
2026-01-14 08:08:32.06	84.45	12.33	-48.2	-52.3	13.6	8.30e-06	0	43	0	113246208	68	5655
2026-01-14 08:08:33.20	84.27	12.39	-48.1	-52.1	13.8	4.50e-06	0	43	0	115343360	68	5493
2026-01-14 08:08:34.41	84.08	12.46	-47.8	-51.7	14.1	3.80e-06	0	43	0	117440512	67	5530
2026-01-14 08:08:35.27	83.95	12.51	-48.0	-51.9	13.9	2.20e-06	0	43	0	119537664	67	5680
2026-01-14 08:08:36.40	83.77	12.58	-48.1	-52.2	13.7	3.80e-06	0	43	0	121634816	67	5856
2026-01-14 08:08:37.25	83.64	12.63	-48.3	-52.4	13.5	5.30e-06	0	43	0	123731968	67	5993
2026-01-14 08:08:38.39	83.45	12.69	-48.3	-52.3	13.4	1.22e-05	0	43	0	125829120	67	5981
2026-01-14 08:08:39.25	83.32	12.74	-48.1	-52.0	13.8	4.50e-06	0	43	0	126877696	67	5738
2026-01-14 08:08:40.38	83.14	12.81	-47.8	-51.4	14.4	0.00e+00	0	43	0	128974848	67	5380
2026-01-14 08:08:41.24	83.00	12.85	-47.8	-51.4	14.4	7.00e-07	0	43	0	131072000	67	5377
2026-01-14 08:08:42.37	82.82	12.92	-47.6	-51.2	14.6	7.00e-07	0	43	0	133169152	67	5253
2026-01-14 08:08:43.23	82.68	12.97	-47.7	-51.4	14.4	1.50e-06	0	43	0	134217728	67	5379
2026-01-14 08:08:44.36	82.49	13.03	-47.8	-51.6	14.2	7.00e-07	0	43	0	136314880	67	5497
2026-01-14 08:08:45.21	82.35	13.08	-47.8	-51.5	14.3	7.00e-07	0	43	0	138412032	67	5455
2026-01-14 08:08:46.35	82.17	13.14	-47.4	-50.9	14.9	0.00e+00	0	43	0	140509184	66	5353
2026-01-14 08:08:47.21	82.03	13.19	-47.2	-50.6	15.2	0.00e+00	0	43	0	141557760	66	5178
2026-01-14 08:08:48.34	81.84	13.26	-47.3	-50.6	15.1	0.00e+00	0	43	0	143654912	66	5211
2026-01-14 08:08:49.20	81.70	13.31	-47.2	-50.5	15.3	0.00e+00	0	43	0	145752064	66	5145
2026-01-14 08:08:50.33	81.51	13.37	-47.2	-50.6	15.3	0.00e+00	0	43	0	147849216	66	5160
2026-01-14 08:08:51.18	81.37	13.42	-47.1	-50.4	15.4	0.00e+00	0	43	0	148897792	66	5056
2026-01-14 08:08:52.32	81.17	13.48	-46.9	-50.0	15.7	7.00e-07	0	43	0	150994944	65	5140
2026-01-14 08:08:53.17	81.03	13.53	-47.0	-50.2	15.6	0.00e+00	0	43	0	153092096	65	5242
2026-01-14 08:08:54.31	80.84	13.59	-47.0	-50.1	15.6	0.00e+00	0	43	0	155189248	65	5197
2026-01-14 08:08:55.17	80.69	13.64	-47.1	-50.3	15.5	0.00e+00	0	43	0	157286400	65	5311
2026-01-14 08:08:56.30	80.50	13.70	-47.1	-50.3	15.4	0.00e+00	0	43	0	159383552	65	5330
2026-01-14 08:08:57.15	80.36	13.75	-47.0	-50.1	15.6	0.00e+00	0	43	0	160432128	65	5205
2026-01-14 08:08:58.29	80.16	13.81	-46.9	-50.0	15.8	0.00e+00	0	43	0	162529280	65	5114
2026-01-14 08:08:59.14	80.01	13.86	-46.9	-49.9	15.8	0.00e+00	0	43	0	164626432	65	5081
2026-01-14 08:09:00.28	79.82	13.92	-46.9	-49.9	15.8	0.00e+00	0	43	0	166723584	65	5087
2026-01-14 08:09:01.13	79.67	13.97	-46.8	-49.8	15.9	0.00e+00	0	43	0	167772160	65	5029
2026-01-14 08:09:02.27	79.47	14.03	-46.7	-49.7	16.0	0.00e+00	0	43	0	169869312	65	4978
2026-01-14 08:09:03.20	79.31	14.08	-46.8	-49.8	15.9	0.00e+00	0	43	0	171966464	65	5040
2026-01-14 08:09:04.37	79.10	14.15	-46.8	-49.8	16.0	0.00e+00	0	43	0	174063616	65	4984
2026-01-14 08:09:05.23	78.95	14.19	-46.9	-49.9	15.9	0.00e+00	0	43	0	176160768	65	5052
2026-01-14 08:09:06.36	78.75	14.25	-47.0	-50.0	15.7	0.00e+00	0	43	0	178257920	65	5145
2026-01-14 08:09:07.31	78.58	14.30	-47.1	-50.3	15.5	0.00e+00	0	43	0	179306496	65	5312
2026-01-14 08:09:08.31	78.41	14.36	-47.2	-50.5	15.3	0.00e+00	0	43	0	181403648	65	5410
2026-01-14 08:09:09.30	78.23	14.41	-47.3	-50.5	15.3	0.00e+00	0	43	0	183500800	65	5432
2026-01-14 08:09:10.30	78.05	14.46	-47.2	-50.4	15.4	0.00e+00	0	43	0	185597952	65	5348
2026-01-14 08:09:11.56	77.82	14.53	-47.3	-50.5	15.3	0.00e+00	0	43	0	187695104	65	5417
2026-01-14 08:09:12.29	77.69	14.57	-47.3	-50.6	15.2	0.00e+00	0	43	0	188743680	65	5467
2026-01-14 08:09:13.57	77.46	14.64	-47.5	-50.9	14.9	7.00e-07	0	43	0	190840832	65	5658
2026-01-14 08:09:14.28	77.33	14.68	-47.6	-51.2	14.6	7.00e-07	0	43	0	192937984	65	5858
2026-01-14 08:09:15.56	77.09	14.74	-47.5	-50.9	14.9	0.00e+00	0	43	0	195035136	65	5693
2026-01-14 08:09:16.27	76.96	14.78	-47.4	-50.8	15.0	0.00e+00	0	43	0	196083712	65	5643
2026-01-14 08:09:17.55	76.73	14.85	-47.1	-50.3	15.5	0.00e+00	0	43	0	199229440	65	5297
2026-01-14 08:09:18.27	76.60	14.89	-46.8	-49.9	15.9	0.00e+00	0	43	0	200278016	65	5074
2026-01-14 08:09:19.55	76.36	14.95	-46.9	-50.0	15.8	0.00e+00	0	43	0	202375168	65	5107
2026-01-14 08:09:20.26	76.23	14.99	-46.8	-49.8	16.0	0.00e+00	0	43	0	203423744	65	4998
2026-01-14 08:09:21.60	75.98	15.06	-46.7	-49.6	16.2	0.00e+00	0	43	0	206569472	65	4881
2026-01-14 08:09:22.31	75.84	15.09	-46.4	-49.2	16.5	0.00e+00	0	43	0	207618048	64	4972
2026-01-14 08:09:23.65	75.59	15.16	-46.4	-49.2	16.5	0.00e+00	0	43	0	210763776	64	4967
2026-01-14 08:09:24.36	75.46	15.20	-46.4	-49.2	16.6	0.00e+00	0	43	0	211812352	64	4946
2026-01-14 08:09:25.72	75.20	15.27	-46.4	-49.2	16.5	0.00e+00	0	43	0	213909504	64	4928
2026-01-14 08:09:26.43	75.07	15.30	-46.4	-49.3	16.5	0.00e+00	0	43	0	214958080	64	4992
2026-01-14 08:09:27.77	74.81	15.37	-46.5	-49.4	16.4	0.00e+00	0	43	0	218103808	64	5046
2026-01-14 08:09:28.48	74.67	15.41	-46.5	-49.4	16.4	0.00e+00	0	43	0	219152384	64	5062
2026-01-14 08:09:29.82	74.42	15.47	-46.8	-49.8	15.9	0.00e+00	0	43	0	222298112	64	5330
2026-01-14 08:09:30.53	74.28	15.51	-46.9	-50.0	15.8	0.00e+00	0	43	0	223346688	64	5432
2026-01-14 08:09:31.81	74.03	15.57	-46.9	-49.9	15.9	7.00e-07	0	43	0	225443840	64	5365
2026-01-14 08:09:32.52	73.90	15.61	-46.8	-49.7	16.0	0.00e+00	0	43	0	226492416	64	5267
2026-01-14 08:09:33.80	73.65	15.67	-46.8	-49.7	16.0	0.00e+00	0	43	0	229638144	64	5271
2026-01-14 08:09:34.53	73.50	15.70	-46.8	-49.8	16.0	0.00e+00	0	43	0	230686720	64	5292
2026-01-14 08:09:35.81	73.25	15.77	-46.8	-49.7	16.1	0.00e+00	0	43	0	232783872	64	5260
2026-01-14 08:09:36.52	73.11	15.80	-46.6	-49.7	16.1	0.00e+00	0	43	0	233832448	64	5225
2026-01-14 08:09:37.80	72.86	15.86	-46.4	-49.4	16.3	0.00e+00	0	43	0	236978176	64	5045
2026-01-14 08:09:38.51	72.72	15.90	-46.2	-49.0	16.6	0.00e+00	0	43	0	238026752	64	4861
2026-01-14 08:09:39.79	72.47	15.96	-46.1	-49.0	16.6	0.00e+00	0	43	0	240123904	64	4840
2026-01-14 08:09:40.64	72.30	16.00	-46.2	-49.1	16.5	0.00e+00	0	43	0	242221056	64	4896
2026-01-14 08:09:41.78	72.07	16.05	-46.3	-49.3	16.4	0.00e+00	0	43	0	244318208	64	4987
2026-01-14 08:09:42.63	71.90	16.09	-46.4	-49.5	16.2	0.00e+00	0	43	0	245366784	64	5109
2026-01-14 08:09:43.77	71.67	16.14	-46.4	-49.3	16.3	0.00e+00	0	43	0	247463936	64	5025
2026-01-14 08:09:44.89	71.45	16.19	-46.3	-49.3	16.4	0.00e+00	0	43	0	249561088	64	4991
2026-01-14 08:09:45.74	71.27	16.23	-46.4	-49.4	16.3	0.00e+00	0	43	0	251658240	64	5063
2026-01-14 08:09:46.88	71.04	16.28	-46.3	-49.3	16.4	0.00e+00	0	43	0	253755392	64	5021
2026-01-14 08:09:47.73	70.87	16.32	-46.4	-49.5	16.2	0.00e+00	0	43	0	255852544	64	5112
2026-01-14 08:09:48.87	70.64	16.37	-46.3	-49.3	16.4	0.00e+00	0	43	0	257949696	64	4992
2026-01-14 08:09:49.72	70.46	16.41	-46.4	-49.3	16.4	0.00e+00	0	43	0	258998272	64	5031
2026-01-14 08:09:50.86	70.23	16.46	-46.4	-49.3	16.4	0.00e+00	0	43	0	261095424	64	5007
2026-01-14 08:09:51.71	70.05	16.50	-46.5	-49.5	16.2	0.00e+00	0	43	0	263192576	64	5128
2026-01-14 08:09:52.90	69.81	16.55	-46.5	-49.4	16.3	0.00e+00	0	43	0	265289728	64	5085
2026-01-14 08:09:53.75	69.63	16.59	-46.5	-49.5	16.2	0.00e+00	0	43	0	266338304	64	5119
2026-01-14 08:09:54.88	69.40	16.64	-46.7	-49.7	16.0	0.00e+00	0	43	0	268435456	64	5265
2026-01-14 08:09:55.74	69.22	16.67	-46.7	-49.8	15.9	0.00e+00	0	43	0	270532608	64	5292
2026-01-14 08:09:56.98	68.96	16.73	-46.9	-50.1	15.7	0.00e+00	0	43	0	272629760	64	5473
2026-01-14 08:09:57.84	68.78	16.76	-46.9	-50.2	15.6	0.00e+00	0	43	0	274726912	64	5529
2026-01-14 08:09:58.97	68.54	16.81	-46.7	-49.9	15.9	0.00e+00	0	43	0	276824064	64	5341
2026-01-14 08:09:59.82	68.36	16.85	-46.6	-49.6	16.1	0.00e+00	0	43	0	277872640	64	5189
2026-01-14 08:10:01.10	68.09	16.90	-46.5	-49.5	16.2	0.00e+00	0	43	0	279969792	64	5105
2026-01-14 08:10:01.83	67.94	16.93	-46.4	-49.3	16.4	0.00e+00	0	43	0	282066944	64	5019
2026-01-14 08:10:03.11	67.67	16.98	-46.3	-49.2	16.5	0.00e+00	0	43	0	284164096	64	4958
2026-01-14 08:10:03.83	67.51	17.01	-46.1	-48.9	16.7	0.00e+00	0	43	0	285212672	64	4813
2026-01-14 08:10:05.11	67.24	17.06	-46.1	-49.0	16.7	0.00e+00	0	43	0	288358400	64	4832
2026-01-14 08:10:05.82	67.09	17.09	-46.0	-48.8	16.9	0.00e+00	0	43	0	289406976	63	5012
2026-01-14 08:10:07.10	66.81	17.14	-46.0	-48.7	17.0	0.00e+00	0	43	0	291504128	63	4965
2026-01-14 08:10:07.87	66.65	17.17	-46.0	-48.7	17.1	0.00e+00	0	43	0	293601280	63	4957
2026-01-14 08:10:09.15	66.37	17.22	-45.9	-48.6	17.2	0.00e+00	0	43	0	295698432	63	4872
2026-01-14 08:10:09.87	66.21	17.25	-45.8	-48.4	17.3	0.00e+00	0	43	0	296747008	63	4786
2026-01-14 08:10:11.15	65.94	17.29	-46.1	-48.8	17.0	0.00e+00	0	43	0	298844160	63	5017
2026-01-14 08:10:11.97	65.76	17.32	-46.0	-48.8	17.0	0.00e+00	0	43	0	300941312	63	5002
2026-01-14 08:10:13.11	65.51	17.37	-46.0	-48.7	17.1	0.00e+00	0	43	0	303038464	63	4952
2026-01-14 08:10:13.96	65.32	17.40	-46.2	-49.0	16.8	0.00e+00	0	43	0	304087040	63	5137
2026-01-14 08:10:15.10	65.07	17.44	-46.0	-48.8	17.0	0.00e+00	0	43	0	306184192	63	5001
2026-01-14 08:10:16.23	64.83	17.48	-46.1	-48.9	16.9	0.00e+00	0	43	0	308281344	63	5073
2026-01-14 08:10:17.08	64.64	17.51	-46.1	-48.9	16.8	0.00e+00	0	43	0	310378496	63	5100
2026-01-14 08:10:18.22	64.39	17.55	-46.3	-49.1	16.7	0.00e+00	0	43	0	312475648	63	5200
2026-01-14 08:10:19.07	64.20	17.58	-46.3	-49.2	16.6	0.00e+00	0	43	0	314572800	63	5243
2026-01-14 08:10:20.21	63.95	17.62	-46.5	-49.4	16.4	0.00e+00	0	43	0	316669952	63	5369
2026-01-14 08:10:21.06	63.76	17.65	-46.3	-49.2	16.6	0.00e+00	0	43	0	317718528	63	5254
2026-01-14 08:10:22.20	63.50	17.69	-46.4	-49.4	16.4	0.00e+00	0	43	0	319815680	63	5352
2026-01-14 08:10:23.05	63.31	17.71	-46.5	-49.5	16.4	0.00e+00	0	43	0	321912832	63	5405
2026-01-14 08:10:24.19	63.06	17.75	-46.5	-49.4	16.4	0.00e+00	0	43	0	324009984	63	5376
2026-01-14 08:10:25.05	62.87	17.78	-46.5	-49.5	16.3	0.00e+00	0	43	0	325058560	63	5414
2026-01-14 08:10:26.18	62.61	17.81	-46.7	-49.6	16.3	0.00e+00	0	43	0	327155712	63	5528
2026-01-14 08:10:27.04	62.42	17.84	-46.5	-49.5	16.2	0.00e+00	0	43	0	329252864	64	5127
2026-01-14 08:10:28.17	62.16	17.88	-46.5	-49.5	16.2	0.00e+00	0	43	0	331350016	64	5124
2026-01-14 08:10:29.03	61.97	17.90	-46.6	-49.6	16.1	0.00e+00	0	43	0	332398592	64	5197
2026-01-14 08:10:30.16	61.71	17.94	-46.7	-49.7	16.1	0.00e+00	0	43	0	334495744	64	5244
2026-01-14 08:10:31.23	61.47	17.97	-46.7	-49.8	16.0	0.00e+00	0	43	0	336592896	64	5311
2026-01-14 08:10:32.09	61.28	17.99	-46.7	-49.8	15.9	0.00e+00	0	43	0	338690048	64	5307
2026-01-14 08:10:33.22	61.02	18.03	-46.9	-50.1	15.7	0.00e+00	0	43	0	340787200	64	5466
2026-01-14 08:10:34.29	60.77	18.06	-46.9	-50.1	15.6	0.00e+00	0	43	0	342884352	64	5519
2026-01-14 08:10:35.32	60.54	18.09	-47.0	-50.2	15.6	0.00e+00	0	43	0	344981504	64	5542
2026-01-14 08:10:36.49	60.27	18.12	-46.7	-49.8	15.9	0.00e+00	0	43	0	347078656	64	5312
2026-01-14 08:10:37.34	60.07	18.14	-46.7	-49.7	16.1	0.00e+00	0	43	0	348127232	64	5238
2026-01-14 08:10:38.69	59.76	18.18	-46.5	-49.5	16.3	0.00e+00	0	43	0	351272960	64	5102
2026-01-14 08:10:39.40	59.60	18.20	-46.6	-49.5	16.2	0.00e+00	0	43	0	352321536	64	5156
2026-01-14 08:10:40.68	59.30	18.23	-46.5	-49.4	16.3	0.00e+00	0	43	0	354418688	64	5079
2026-01-14 08:10:41.39	59.14	18.25	-46.6	-49.5	16.2	0.00e+00	0	43	0	355467264	64	5146
2026-01-14 08:10:42.67	58.84	18.28	-46.6	-49.5	16.2	0.00e+00	0	43	0	358612992	64	5145
2026-01-14 08:10:43.39	58.68	18.30	-46.7	-49.8	15.9	0.00e+00	0	43	0	359661568	64	5328
2026-01-14 08:10:44.67	58.38	18.33	-46.7	-49.8	15.9	0.00e+00	0	43	0	361758720	64	5318
2026-01-14 08:10:45.52	58.18	18.35	-46.7	-49.8	15.9	0.00e+00	0	43	0	363855872	64	5305
2026-01-14 08:10:46.66	57.92	18.37	-46.7	-49.8	15.9	0.00e+00	0	43	0	365953024	64	5337
2026-01-14 08:10:47.69	57.68	18.40	-46.6	-49.6	16.1	0.00e+00	0	43	0	368050176	64	5195
2026-01-14 08:10:48.86	57.40	18.42	-46.6	-49.6	16.1	0.00e+00	0	43	0	370147328	64	5192
2026-01-14 08:10:49.71	57.20	18.44	-46.6	-49.7	16.0	0.00e+00	0	43	0	371195904	64	5242
2026-01-14 08:10:50.85	56.94	18.46	-46.9	-50.2	15.6	0.00e+00	0	43	0	373293056	64	5543
2026-01-14 08:10:51.70	56.74	18.48	-47.0	-50.3	15.5	0.00e+00	0	43	0	375390208	64	5606
2026-01-14 08:10:52.84	56.47	18.50	-47.2	-50.6	15.1	0.00e+00	0	43	0	377487360	65	5479
2026-01-14 08:10:53.69	56.27	18.52	-47.4	-50.8	14.9	0.00e+00	0	43	0	378535936	65	5629
2026-01-14 08:10:54.83	56.00	18.54	-47.6	-51.3	14.5	0.00e+00	0	43	0	380633088	65	5930
2026-01-14 08:10:55.68	55.80	18.56	-47.7	-51.3	14.5	7.00e-07	0	43	0	382730240	66	5649
2026-01-14 08:10:56.82	55.53	18.58	-47.7	-51.4	14.4	7.00e-07	0	43	0	384827392	66	5695
2026-01-14 08:10:57.67	55.33	18.59	-47.6	-51.3	14.5	1.50e-06	0	43	0	386924544	66	5615
2026-01-14 08:10:58.81	55.06	18.61	-47.6	-51.2	14.6	1.50e-06	0	43	0	389021696	66	5575
2026-01-14 08:10:59.66	54.86	18.63	-47.4	-51.0	14.7	0.00e+00	0	43	0	390070272	66	5454
2026-01-14 08:11:00.80	54.58	18.64	-47.3	-50.7	15.1	0.00e+00	0	43	0	392167424	66	5264
2026-01-14 08:11:01.65	54.38	18.66	-47.0	-50.4	15.4	0.00e+00	0	43	0	394264576	66	5072
2026-01-14 08:11:02.98	54.07	18.68	-47.0	-50.3	15.4	0.00e+00	0	43	0	396361728	65	5329
2026-01-14 08:11:03.69	53.90	18.69	-47.1	-50.5	15.3	0.00e+00	0	43	0	397410304	65	5410
2026-01-14 08:11:04.97	53.59	18.70	-47.1	-50.4	15.3	0.00e+00	0	43	0	400556032	65	5401
2026-01-14 08:11:05.69	53.42	18.71	-47.2	-50.6	15.2	0.00e+00	0	43	0	401604608	65	5467
2026-01-14 08:11:07.22	53.06	18.73	-47.0	-50.2	15.5	0.00e+00	0	43	0	404750336	65	5270
2026-01-14 08:11:07.93	52.89	18.74	-47.0	-50.3	15.4	0.00e+00	0	43	0	405798912	65	5326
2026-01-14 08:11:09.21	52.58	18.76	-46.8	-50.1	15.6	0.00e+00	0	43	0	407896064	65	5172
2026-01-14 08:11:10.29	52.32	18.77	-46.7	-49.8	15.9	0.00e+00	0	43	0	409993216	65	5033
2026-01-14 08:11:11.14	52.12	18.78	-46.6	-49.8	16.0	0.00e+00	0	43	0	412090368	65	4986
2026-01-14 08:11:12.28	51.84	18.79	-46.6	-49.7	16.0	0.00e+00	0	43	0	414187520	65	4971
2026-01-14 08:11:13.13	51.64	18.80	-46.5	-49.6	16.1	0.00e+00	0	43	0	415236096	64	5207
2026-01-14 08:11:14.31	51.36	18.81	-46.4	-49.4	16.3	0.00e+00	0	43	0	417333248	64	5063
2026-01-14 08:11:15.17	51.15	18.82	-46.5	-49.5	16.2	0.00e+00	0	43	0	419430400	64	5152
2026-01-14 08:11:16.31	50.88	18.83	-46.5	-49.6	16.1	0.00e+00	0	43	0	421527552	64	5184
2026-01-14 08:11:17.16	50.67	18.83	-46.6	-49.7	16.1	0.00e+00	0	43	0	422576128	64	5250
2026-01-14 08:11:18.30	50.40	18.84	-46.9	-50.0	15.7	0.00e+00	0	43	0	425721856	64	5452
2026-01-14 08:11:19.15	50.19	18.85	-46.9	-50.1	15.7	0.00e+00	0	43	0	426770432	64	5481
2026-01-14 08:11:20.50	49.87	18.85	-46.9	-50.1	15.6	0.00e+00	0	43	0	428867584	64	5483
2026-01-14 08:11:21.21	49.70	18.86	-46.9	-50.1	15.6	0.00e+00	0	43	0	430964736	64	5492
2026-01-14 08:11:22.49	49.39	18.87	-46.8	-50.0	15.7	0.00e+00	0	43	0	433061888	64	5443
2026-01-14 08:11:23.20	49.22	18.87	-46.8	-49.9	15.8	0.00e+00	0	43	0	434110464	64	5396
2026-01-14 08:11:24.48	48.91	18.87	-46.7	-49.9	15.8	0.00e+00	0	43	0	437256192	64	5356
2026-01-14 08:11:25.19	48.74	18.88	-46.7	-49.8	15.9	0.00e+00	0	43	0	438304768	64	5338
2026-01-14 08:11:26.84	48.34	18.88	-46.7	-49.8	15.9	0.00e+00	0	43	0	441450496	64	5336
2026-01-14 08:11:27.40	48.21	18.88	-46.7	-49.7	16.0	0.00e+00	0	43	0	442499072	64	5275
2026-01-14 08:11:29.11	47.79	18.88	-46.7	-49.8	15.9	0.00e+00	0	43	0	445644800	64	5331
2026-01-14 08:11:29.74	47.64	18.88	-46.8	-50.0	15.7	0.00e+00	0	43	0	446693376	64	5420
2026-01-14 08:11:31.24	47.28	18.89	-47.0	-50.3	15.5	0.00e+00	0	43	0	449839104	64	5623
2026-01-14 08:11:31.95	47.11	18.88	-47.2	-50.6	15.2	0.00e+00	0	43	0	450887680	64	5791
2026-01-14 08:11:33.23	46.80	18.88	-47.3	-50.9	14.9	0.00e+00	0	43	0	452984832	65	5657
2026-01-14 08:11:33.94	46.63	18.88	-47.5	-51.2	14.6	0.00e+00	0	43	0	454033408	65	5876
2026-01-14 08:11:35.22	46.32	18.88	-47.6	-51.4	14.4	0.00e+00	0	43	0	457179136	65	5999
2026-01-14 08:11:35.93	46.15	18.88	-47.6	-51.2	14.6	2.20e-06	0	43	0	458227712	65	5904
2026-01-14 08:11:37.21	45.84	18.88	-47.5	-51.1	14.7	0.00e+00	0	43	0	460324864	65	5829
2026-01-14 08:11:37.94	45.66	18.87	-47.4	-51.0	14.8	0.00e+00	0	43	0	462422016	65	5751
2026-01-14 08:11:39.26	45.35	18.87	-47.1	-50.5	15.3	0.00e+00	0	43	0	464519168	65	5411
2026-01-14 08:11:39.97	45.17	18.86	-46.9	-50.2	15.5	0.00e+00	0	43	0	465567744	65	5244
2026-01-14 08:11:41.25	44.87	18.86	-46.6	-49.7	16.0	0.00e+00	0	43	0	468713472	65	4945
2026-01-14 08:11:41.99	44.69	18.85	-46.4	-49.4	16.3	0.00e+00	0	43	0	469762048	64	5063
2026-01-14 08:11:43.27	44.38	18.85	-46.1	-49.0	16.6	0.00e+00	0	43	0	471859200	64	4863
2026-01-14 08:11:44.02	44.20	18.84	-46.1	-49.0	16.7	0.00e+00	0	43	0	472907776	64	4833
2026-01-14 08:11:45.30	43.89	18.83	-46.2	-49.1	16.6	0.00e+00	0	43	0	476053504	64	4890
2026-01-14 08:11:46.02	43.72	18.83	-46.3	-49.3	16.4	0.00e+00	0	43	0	477102080	64	5004
2026-01-14 08:11:47.29	43.41	18.82	-46.2	-49.2	16.5	0.00e+00	0	43	0	479199232	64	4931
2026-01-14 08:11:48.00	43.24	18.81	-46.3	-49.2	16.5	0.00e+00	0	43	0	481296384	64	4959
2026-01-14 08:11:49.29	42.93	18.80	-46.2	-49.0	16.7	0.00e+00	0	43	0	483393536	64	4866
2026-01-14 08:11:50.01	42.76	18.79	-46.1	-48.9	16.8	0.00e+00	0	43	0	484442112	63	5099
2026-01-14 08:11:51.29	42.46	18.78	-46.2	-49.0	16.7	0.00e+00	0	43	0	486539264	63	5138
2026-01-14 08:11:52.01	42.28	18.77	-46.3	-49.2	16.6	0.00e+00	0	43	0	488636416	63	5224
2026-01-14 08:11:53.29	41.98	18.76	-46.3	-49.1	16.6	0.00e+00	0	43	0	490733568	63	5214
2026-01-14 08:11:54.00	41.81	18.75	-46.3	-49.3	16.6	0.00e+00	0	43	0	491782144	63	5281
2026-01-14 08:11:55.28	41.50	18.73	-46.2	-49.1	16.7	0.00e+00	0	43	0	494927872	63	5205
2026-01-14 08:11:56.00	41.33	18.72	-46.1	-48.9	16.8	0.00e+00	0	43	0	495976448	63	5080
2026-01-14 08:11:57.28	41.02	18.71	-45.9	-48.6	17.1	0.00e+00	0	43	0	498073600	63	4907
2026-01-14 08:11:58.01	40.85	18.70	-45.9	-48.7	17.1	0.00e+00	0	43	0	500170752	63	4929
2026-01-14 08:11:59.29	40.55	18.68	-45.8	-48.6	17.2	0.00e+00	0	43	0	502267904	63	4887
2026-01-14 08:12:00.01	40.38	18.67	-45.7	-48.4	17.3	0.00e+00	0	43	0	503316480	63	4800
2026-01-14 08:12:01.30	40.07	18.65	-45.7	-48.4	17.4	0.00e+00	0	43	0	505413632	63	4782
2026-01-14 08:12:02.02	39.90	18.64	-45.7	-48.4	17.4	0.00e+00	0	43	0	507510784	63	4765
2026-01-14 08:12:03.30	39.59	18.62	-45.6	-48.3	17.5	0.00e+00	0	43	0	509607936	63	4710
2026-01-14 08:12:04.01	39.43	18.60	-45.8	-48.4	17.3	0.00e+00	0	43	0	510656512	63	4806
2026-01-14 08:12:05.29	39.12	18.58	-45.9	-48.6	17.1	0.00e+00	0	43	0	512753664	63	4909
2026-01-14 08:12:06.02	38.95	18.57	-46.0	-48.7	17.0	0.00e+00	0	43	0	514850816	63	4981
2026-01-14 08:12:07.30	38.65	18.55	-46.1	-48.8	17.0	0.00e+00	0	43	0	516947968	63	5031
2026-01-14 08:12:08.02	38.48	18.53	-46.0	-48.8	17.0	0.00e+00	0	43	0	517996544	63	5037
2026-01-14 08:12:09.30	38.18	18.51	-46.2	-49.0	16.8	0.00e+00	0	43	0	521142272	63	5148
2026-01-14 08:12:10.02	38.01	18.49	-46.2	-49.0	16.8	0.00e+00	0	43	0	522190848	63	5155
2026-01-14 08:12:11.29	37.71	18.47	-46.4	-49.4	16.5	0.00e+00	0	43	0	524288000	63	5355
2026-01-14 08:12:12.19	37.50	18.45	-46.4	-49.4	16.5	0.00e+00	0	43	0	526385152	63	5355
2026-01-14 08:12:13.58	37.18	18.42	-46.2	-49.1	16.6	0.00e+00	0	43	0	528482304	63	5211
2026-01-14 08:12:14.29	37.01	18.41	-46.5	-49.4	16.4	0.00e+00	0	43	0	530579456	63	5401
2026-01-14 08:12:15.57	36.71	18.38	-46.1	-49.0	16.8	0.00e+00	0	43	0	532676608	63	5118
2026-01-14 08:12:16.28	36.55	18.36	-46.4	-49.4	16.4	0.00e+00	0	43	0	533725184	63	5360
2026-01-14 08:12:17.56	36.25	18.33	-46.4	-49.4	16.4	0.00e+00	0	43	0	535822336	63	5395
2026-01-14 08:12:18.27	36.08	18.31	-46.5	-49.6	16.3	0.00e+00	0	43	0	537919488	63	5487
2026-01-14 08:12:19.55	35.79	18.28	-46.7	-50.0	15.8	0.00e+00	0	43	0	540016640	64	5411
2026-01-14 08:12:20.26	35.62	18.27	-46.9	-50.2	15.6	0.00e+00	0	43	0	541065216	64	5540
2026-01-14 08:12:21.54	35.33	18.23	-47.2	-50.6	15.1	0.00e+00	0	43	0	544210944	65	5506
2026-01-14 08:12:22.25	35.16	18.22	-47.4	-51.0	14.8	0.00e+00	0	43	0	545259520	65	5739
2026-01-14 08:12:23.53	34.87	18.18	-47.5	-51.1	14.7	7.00e-07	0	43	0	547356672	65	5820
2026-01-14 08:12:24.27	34.70	18.16	-47.4	-51.0	14.8	0.00e+00	0	43	0	548405248	65	5750
2026-01-14 08:12:25.66	34.38	18.13	-47.3	-50.9	14.9	7.00e-07	0	43	0	551550976	65	5713
2026-01-14 08:12:26.37	34.22	18.11	-47.0	-50.5	15.3	7.00e-07	0	43	0	552599552	65	5428
2026-01-14 08:12:27.64	33.93	18.07	-47.2	-50.8	15.0	0.00e+00	0	43	0	554696704	65	5620
2026-01-14 08:12:28.35	33.76	18.05	-47.3	-50.9	14.9	0.00e+00	0	43	0	556793856	65	5664
2026-01-14 08:12:29.76	33.44	18.01	-47.3	-50.9	14.9	0.00e+00	0	43	0	558891008	65	5694
2026-01-14 08:12:30.47	33.28	17.99	-47.2	-50.7	15.0	7.00e-07	0	43	0	560988160	65	5572
2026-01-14 08:12:31.75	32.99	17.95	-47.2	-50.6	15.2	0.00e+00	0	43	0	563085312	65	5485
2026-01-14 08:12:32.48	32.83	17.93	-47.0	-50.3	15.4	0.00e+00	0	43	0	564133888	65	5315
2026-01-14 08:12:33.76	32.54	17.89	-46.9	-50.2	15.5	0.00e+00	0	43	0	566231040	65	5237
2026-01-14 08:12:34.47	32.38	17.87	-47.0	-50.3	15.4	0.00e+00	0	43	0	568328192	65	5332
2026-01-14 08:12:35.75	32.09	17.83	-47.2	-50.6	15.2	0.00e+00	0	43	0	570425344	65	5477
2026-01-14 08:12:36.47	31.93	17.81	-47.3	-50.7	15.0	0.00e+00	0	43	0	571473920	65	5586
2026-01-14 08:12:37.75	31.64	17.77	-47.4	-50.9	14.9	0.00e+00	0	43	0	574619648	65	5719
2026-01-14 08:12:38.46	31.48	17.74	-47.4	-50.9	14.9	0.00e+00	0	43	0	575668224	65	5691
2026-01-14 08:12:39.74	31.20	17.70	-47.2	-50.6	15.2	1.50e-06	0	43	0	577765376	65	5483
2026-01-14 08:12:40.45	31.04	17.68	-47.1	-50.5	15.3	0.00e+00	0	43	0	578813952	65	5405
2026-01-14 08:12:41.73	30.76	17.64	-47.0	-50.3	15.5	0.00e+00	0	43	0	581959680	65	5309
2026-01-14 08:12:42.45	30.60	17.61	-46.8	-50.0	15.7	0.00e+00	0	43	0	583008256	65	5156
2026-01-14 08:12:43.73	30.31	17.57	-46.9	-50.1	15.6	0.00e+00	0	43	0	585105408	65	5215
2026-01-14 08:12:44.69	30.10	17.53	-46.9	-50.1	15.7	0.00e+00	0	43	0	587202560	65	5175
2026-01-14 08:12:45.98	29.82	17.49	-46.8	-50.0	15.7	0.00e+00	0	43	0	589299712	65	5149
2026-01-14 08:12:46.70	29.66	17.46	-46.8	-49.9	15.8	0.00e+00	0	43	0	590348288	65	5083
2026-01-14 08:12:47.97	29.38	17.42	-46.9	-50.1	15.6	0.00e+00	0	43	0	593494016	65	5210
2026-01-14 08:12:48.68	29.23	17.39	-46.7	-49.9	15.9	0.00e+00	0	43	0	594542592	65	5053
2026-01-14 08:12:49.96	28.95	17.35	-46.8	-49.9	15.8	0.00e+00	0	43	0	596639744	65	5091
2026-01-14 08:12:50.69	28.79	17.32	-46.7	-49.8	15.9	0.00e+00	0	43	0	598736896	65	5026
2026-01-14 08:12:51.97	28.51	17.27	-46.6	-49.8	15.9	0.00e+00	0	43	0	600834048	65	5039
2026-01-14 08:12:52.68	28.36	17.24	-46.6	-49.8	15.9	0.00e+00	0	43	0	601882624	65	5039
2026-01-14 08:12:54.13	28.05	17.19	-46.2	-49.4	16.3	0.00e+00	0	43	0	605028352	64	5073
2026-01-14 08:12:54.84	27.89	17.16	-46.1	-49.2	16.5	0.00e+00	0	43	0	606076928	64	4946
2026-01-14 08:12:56.17	27.61	17.11	-45.9	-48.9	16.8	0.00e+00	0	43	0	608174080	63	5100
2026-01-14 08:12:56.88	27.46	17.08	-45.8	-48.9	16.9	0.00e+00	0	43	0	610271232	63	5064
2026-01-14 08:12:58.22	27.17	17.03	-45.9	-49.0	16.9	0.00e+00	0	43	0	612368384	63	5118
2026-01-14 08:12:58.93	27.02	17.00	-45.9	-49.0	16.8	0.00e+00	0	43	0	613416960	63	5129
2026-01-14 08:13:00.24	26.74	16.95	-45.8	-48.8	17.0	0.00e+00	0	43	0	616562688	63	4990
2026-01-14 08:13:00.95	26.59	16.92	-46.0	-49.0	16.8	0.00e+00	0	43	0	617611264	63	5141
2026-01-14 08:13:02.24	26.32	16.86	-45.8	-48.8	16.9	0.00e+00	0	43	0	619708416	63	5021
2026-01-14 08:13:02.95	26.17	16.84	-46.0	-49.0	16.8	0.00e+00	0	43	0	621805568	63	5133
2026-01-14 08:13:04.23	25.90	16.78	-46.5	-49.8	16.1	0.00e+00	0	43	0	623902720	63	5598
2026-01-14 08:13:04.94	25.76	16.75	-46.6	-50.1	15.8	0.00e+00	0	43	0	624951296	64	5466
2026-01-14 08:13:06.22	25.49	16.70	-47.0	-50.6	15.2	0.00e+00	0	43	0	627048448	64	5796
2026-01-14 08:13:06.93	25.34	16.67	-47.3	-51.0	14.8	0.00e+00	0	43	0	629145600	65	5758
2026-01-14 08:13:08.21	25.08	16.61	-47.5	-51.3	14.5	7.00e-07	0	43	0	631242752	65	5978
2026-01-14 08:13:08.92	24.93	16.58	-47.2	-50.8	14.9	7.00e-07	0	43	0	632291328	65	5622
2026-01-14 08:13:10.20	24.67	16.53	-47.3	-50.9	14.9	7.00e-07	0	43	0	635437056	65	5711
2026-01-14 08:13:10.91	24.52	16.50	-47.2	-50.8	15.0	0.00e+00	0	43	0	636485632	65	5642
2026-01-14 08:13:12.19	24.26	16.44	-47.3	-50.9	14.8	0.00e+00	0	43	0	638582784	65	5717
2026-01-14 08:13:12.90	24.11	16.41	-47.3	-51.0	14.9	1.50e-06	0	44	0	639631360	65	5730
2026-01-14 08:13:14.18	23.85	16.35	-47.3	-51.0	14.9	0.00e+00	0	43	0	642777088	65	5727
2026-01-14 08:13:15.11	23.66	16.31	-47.6	-51.4	14.4	7.00e-07	0	43	0	643825664	65	6012
2026-01-14 08:13:16.11	23.46	16.26	-47.4	-51.1	14.7	7.00e-07	0	43	0	645922816	65	5852
2026-01-14 08:13:17.43	23.20	16.20	-47.6	-51.3	14.4	0.00e+00	0	43	0	648019968	65	5980
2026-01-14 08:13:18.17	23.05	16.17	-47.6	-51.5	14.3	7.00e-07	0	43	0	650117120	65	6114
2026-01-14 08:13:19.77	22.73	16.10	-47.2	-50.8	15.0	0.00e+00	0	43	0	653262848	65	5641
2026-01-14 08:13:20.35	22.61	16.07	-47.3	-50.9	14.9	0.00e+00	0	43	0	654311424	65	5715
2026-01-14 08:13:21.91	22.30	16.00	-46.9	-50.3	15.5	0.00e+00	0	43	0	657457152	65	5293
2026-01-14 08:13:22.53	22.18	15.97	-46.7	-50.0	15.7	0.00e+00	0	43	0	658505728	65	5132
2026-01-14 08:13:24.09	21.87	15.89	-46.7	-49.9	15.8	0.00e+00	0	43	0	660602880	65	5095
2026-01-14 08:13:24.88	21.71	15.86	-46.8	-50.2	15.8	0.00e+00	0	43	0	662700032	65	5219
2026-01-14 08:13:26.10	21.47	15.80	-46.5	-49.7	16.0	0.00e+00	0	43	0	664797184	64	5226
2026-01-14 08:13:27.09	21.28	15.75	-46.4	-49.6	16.1	0.00e+00	0	43	0	666894336	64	5192
2026-01-14 08:13:28.29	21.05	15.69	-46.5	-49.8	15.9	0.00e+00	0	43	0	668991488	64	5325
2026-01-14 08:13:29.14	20.88	15.65	-46.5	-49.8	16.0	0.00e+00	0	43	0	670040064	64	5293
2026-01-14 08:13:30.49	20.62	15.58	-46.4	-49.8	16.0	0.00e+00	0	43	0	673185792	64	5281
2026-01-14 08:13:31.20	20.48	15.55	-46.5	-50.0	15.8	0.00e+00	0	43	0	674234368	64	5411
2026-01-14 08:13:32.67	20.20	15.48	-47.0	-50.7	15.1	0.00e+00	0	44	0	677380096	64	5909
2026-01-14 08:13:33.38	20.07	15.44	-46.9	-50.7	15.1	0.00e+00	0	43	0	678428672	64	5884
2026-01-14 08:13:34.73	19.81	15.37	-47.2	-51.2	14.7	0.00e+00	0	43	0	680525824	65	5860
2026-01-14 08:13:35.44	19.67	15.34	-47.1	-51.0	14.8	7.00e-07	0	44	0	682622976	65	5752
2026-01-14 08:13:36.79	19.42	15.27	-47.0	-50.7	15.1	0.00e+00	0	43	0	684720128	65	5553
2026-01-14 08:13:37.50	19.29	15.24	-46.9	-50.4	15.3	0.00e+00	0	43	0	685768704	65	5380
2026-01-14 08:13:38.84	19.03	15.17	-46.6	-49.9	15.8	0.00e+00	0	43	0	688914432	65	5069
2026-01-14 08:13:39.55	18.90	15.13	-46.7	-49.8	15.9	0.00e+00	0	43	0	689963008	65	5038
2026-01-14 08:13:40.84	18.66	15.07	-46.8	-50.0	15.8	0.00e+00	0	43	0	692060160	65	5122
2026-01-14 08:13:41.56	18.53	15.03	-46.8	-50.0	15.7	0.00e+00	0	43	0	694157312	65	5149
2026-01-14 08:13:42.84	18.29	14.96	-47.1	-50.4	15.3	0.00e+00	0	43	0	696254464	65	5376
2026-01-14 08:13:43.57	18.15	14.93	-47.3	-50.7	15.1	0.00e+00	0	43	0	697303040	65	5566
2026-01-14 08:13:44.84	17.92	14.86	-47.6	-51.2	14.6	0.00e+00	0	43	0	699400192	65	5889
2026-01-14 08:13:45.57	17.79	14.82	-47.8	-51.5	14.3	0.00e+00	0	43	0	701497344	66	5738
2026-01-14 08:13:46.85	17.55	14.75	-48.0	-51.9	13.8	2.20e-06	0	43	0	703594496	66	6025
2026-01-14 08:13:47.58	17.42	14.72	-48.2	-52.4	13.4	1.14e-05	0	43	0	704643072	67	6004
2026-01-14 08:13:48.85	17.19	14.65	-48.3	-52.9	12.9	3.81e-05	0	43	0	707788800	67	6386
2026-01-14 08:13:49.63	17.05	14.61	-48.1	-52.6	13.2	2.97e-05	0	43	0	708837376	67	6173
2026-01-14 08:13:50.90	16.82	14.54	-47.8	-52.4	13.4	1.22e-05	0	43	0	710934528	67	6021
2026-01-14 08:13:51.61	16.69	14.50	-47.9	-52.7	13.1	1.22e-05	0	43	0	713031680	67	6271
2026-01-14 08:13:53.22	16.40	14.42	-47.5	-52.0	13.8	3.00e-06	0	43	0	715128832	67	5748
2026-01-14 08:13:53.81	16.30	14.39	-47.4	-51.8	14.0	3.00e-06	0	43	0	717225984	66	5958
2026-01-14 08:13:55.37	16.02	14.30	-47.4	-51.8	14.0	5.30e-06	0	43	0	719323136	66	5968
2026-01-14 08:13:56.02	15.91	14.27	-47.4	-51.7	14.0	1.50e-06	0	43	0	721420288	66	5917
2026-01-14 08:13:57.44	15.66	14.19	-47.2	-51.6	14.2	2.20e-06	0	43	0	723517440	66	5800
2026-01-14 08:13:58.15	15.53	14.15	-47.3	-51.7	14.1	0.00e+00	0	43	0	724566016	66	5890
2026-01-14 08:13:59.43	15.31	14.08	-47.0	-51.3	14.4	0.00e+00	0	43	0	727711744	66	5643
2026-01-14 08:14:00.15	15.19	14.04	-46.9	-51.1	14.6	0.00e+00	0	43	0	728760320	65	5855
2026-01-14 08:14:01.45	14.96	13.97	-46.8	-51.0	14.8	0.00e+00	0	43	0	730857472	65	5736
2026-01-14 08:14:02.16	14.84	13.93	-46.8	-51.0	14.7	0.00e+00	0	43	0	732954624	65	5731
2026-01-14 08:14:03.44	14.62	13.86	-47.0	-51.1	14.7	7.00e-07	0	43	0	735051776	65	5807
2026-01-14 08:14:04.15	14.50	13.82	-47.2	-51.2	14.5	7.00e-07	0	43	0	736100352	65	5900
2026-01-14 08:14:05.43	14.28	13.75	-47.5	-51.5	14.2	7.00e-07	0	43	0	738197504	65	6123
2026-01-14 08:14:06.14	14.16	13.72	-47.6	-51.6	14.2	0.00e+00	0	43	0	740294656	65	6181
2026-01-14 08:14:07.42	13.94	13.64	-47.8	-51.8	14.1	1.50e-06	0	43	0	742391808	66	5938
2026-01-14 08:14:08.13	13.82	13.61	-47.8	-51.8	14.0	2.20e-06	0	43	0	743440384	66	5949
2026-01-14 08:14:09.41	13.61	13.53	-47.5	-51.4	14.4	7.00e-07	0	43	0	745537536	66	5683
2026-01-14 08:14:10.12	13.49	13.49	-47.4	-51.3	14.5	0.00e+00	0	43	0	747634688	66	5650
2026-01-14 08:14:11.40	13.27	13.42	-47.1	-51.0	14.8	0.00e+00	0	43	0	749731840	66	5414
2026-01-14 08:14:12.17	13.15	13.38	-47.0	-50.8	15.0	0.00e+00	0	43	0	750780416	66	5309
2026-01-14 08:14:13.79	12.88	13.29	-46.9	-50.6	15.2	0.00e+00	0	43	0	753926144	65	5518
2026-01-14 08:14:14.36	12.79	13.26	-46.9	-50.6	15.1	0.00e+00	0	43	0	754974720	65	5526
2026-01-14 08:14:16.06	12.51	13.16	-46.9	-50.6	15.2	0.00e+00	0	43	0	758120448	65	5475
2026-01-14 08:14:16.63	12.41	13.13	-46.9	-50.7	15.1	0.00e+00	0	43	0	759169024	65	5551
2026-01-14 08:14:18.34	12.14	13.03	-46.9	-50.9	14.8	0.00e+00	0	43	0	762314752	65	5712
2026-01-14 08:14:18.91	12.04	13.00	-46.9	-51.0	14.7	0.00e+00	0	43	0	763363328	65	5772
2026-01-14 08:14:20.61	11.77	12.90	-46.9	-51.4	14.4	0.00e+00	0	43	0	766509056	65	6006
2026-01-14 08:14:21.18	11.68	12.87	-46.8	-51.4	14.3	7.00e-07	0	44	0	767557632	65	6019
2026-01-14 08:14:22.89	11.41	12.77	-46.8	-51.4	14.3	1.50e-06	0	43	0	771751936	65	6044
2026-01-14 08:14:23.46	11.32	12.74	-46.8	-51.4	14.4	7.00e-07	0	43	0	772800512	65	6002
2026-01-14 08:14:25.17	11.05	12.64	-46.9	-51.2	14.5	0.00e+00	0	43	0	775946240	65	5919
2026-01-14 08:14:25.73	10.96	12.61	-46.9	-51.1	14.6	0.00e+00	0	43	0	776994816	65	5845
2026-01-14 08:14:27.55	10.67	12.51	-46.9	-50.9	14.9	7.00e-07	0	43	0	780140544	65	5658
2026-01-14 08:14:28.12	10.58	12.48	-47.0	-50.9	14.8	0.00e+00	0	43	0	781189120	65	5697
2026-01-14 08:14:29.82	10.32	12.38	-47.1	-50.8	14.9	7.00e-07	0	43	0	784334848	65	5644
2026-01-14 08:14:30.39	10.23	12.34	-47.0	-50.7	15.1	0.00e+00	0	43	0	785383424	65	5543
2026-01-14 08:14:32.18	9.96	12.24	-46.7	-50.3	15.4	0.00e+00	0	43	0	788529152	65	5298
2026-01-14 08:14:32.75	9.87	12.21	-46.8	-50.4	15.4	0.00e+00	0	43	0	789577728	65	5375
2026-01-14 08:14:34.45	9.61	12.11	-46.4	-49.8	15.9	0.00e+00	0	43	0	792723456	64	5291
2026-01-14 08:14:35.02	9.52	12.08	-46.3	-49.6	16.1	0.00e+00	0	43	0	793772032	64	5199
2026-01-14 08:14:36.71	9.27	11.98	-46.0	-49.2	16.5	0.00e+00	0	43	0	796917760	64	4948
2026-01-14 08:14:37.28	9.18	11.95	-46.0	-49.1	16.6	0.00e+00	0	43	0	797966336	63	5204
2026-01-14 08:14:38.98	8.93	11.85	-45.9	-48.9	16.8	0.00e+00	0	43	0	801112064	63	5084
2026-01-14 08:14:39.55	8.84	11.81	-45.9	-48.9	16.7	0.00e+00	0	43	0	802160640	63	5086
2026-01-14 08:14:41.24	8.59	11.72	-45.9	-49.0	16.7	0.00e+00	0	44	0	805306368	63	5136
2026-01-14 08:14:41.81	8.51	11.68	-45.9	-49.1	16.6	0.00e+00	0	43	0	806354944	63	5207
2026-01-14 08:14:43.52	8.26	11.58	-46.0	-49.4	16.3	0.00e+00	0	43	0	809500672	63	5379
2026-01-14 08:14:44.08	8.18	11.55	-46.1	-49.6	16.2	0.00e+00	0	44	0	810549248	63	5479
2026-01-14 08:14:46.09	7.88	11.43	-46.3	-50.1	15.7	0.00e+00	0	44	0	814743552	63	5793
2026-01-14 08:14:46.66	7.80	11.40	-46.3	-50.0	15.7	0.00e+00	0	43	0	815792128	63	5783
2026-01-14 08:14:48.65	7.51	11.28	-46.5	-50.1	15.7	0.00e+00	0	43	0	819986432	63	5830
2026-01-14 08:14:49.22	7.43	11.25	-46.5	-50.1	15.7	0.00e+00	0	43	0	821035008	63	5834
2026-01-14 08:14:50.92	7.19	11.15	-46.4	-49.9	15.9	0.00e+00	0	43	0	824180736	63	5669
2026-01-14 08:14:51.49	7.11	11.12	-46.4	-50.0	15.8	0.00e+00	0	43	0	825229312	63	5756
2026-01-14 08:14:53.28	6.86	11.01	-46.1	-49.8	16.0	0.00e+00	0	43	0	828375040	63	5634
2026-01-14 08:14:53.85	6.78	10.98	-46.0	-49.7	16.0	0.00e+00	0	43	0	829423616	63	5575
2026-01-14 08:14:55.56	6.54	10.88	-46.0	-49.7	16.0	0.00e+00	0	43	0	832569344	63	5589
2026-01-14 08:14:56.13	6.46	10.85	-46.0	-49.8	16.0	0.00e+00	0	43	0	833617920	63	5603
2026-01-14 08:14:57.83	6.22	10.75	-45.8	-49.5	16.2	0.00e+00	0	43	0	836763648	63	5427
2026-01-14 08:14:58.40	6.14	10.71	-46.0	-49.7	16.1	0.00e+00	0	43	0	837812224	63	5559
2026-01-14 08:15:00.11	5.91	10.61	-46.1	-49.7	16.0	0.00e+00	0	43	0	840957952	63	5590
2026-01-14 08:15:00.91	5.80	10.56	-46.2	-49.9	15.9	0.00e+00	0	43	0	843055104	63	5688
2026-01-14 08:15:02.05	5.65	10.50	-46.4	-50.1	15.6	0.00e+00	0	43	0	845152256	63	5841
2026-01-14 08:15:02.90	5.53	10.45	-46.5	-50.1	15.6	0.00e+00	0	43	0	846200832	63	5840
2026-01-14 08:15:04.04	5.38	10.38	-46.5	-50.1	15.5	1.50e-06	0	44	0	848297984	64	5505
2026-01-14 08:15:04.89	5.26	10.33	-46.6	-50.4	15.2	0.00e+00	0	43	0	850395136	64	5686
2026-01-14 08:15:06.03	5.11	10.26	-46.9	-50.7	15.0	0.00e+00	0	43	0	852492288	64	5860
2026-01-14 08:15:06.88	5.00	10.21	-46.9	-50.6	15.1	0.00e+00	0	43	0	853540864	64	5797
2026-01-14 08:15:08.02	4.85	10.15	-47.0	-50.8	14.9	0.00e+00	0	43	0	855638016	64	5967
2026-01-14 08:15:08.87	4.73	10.10	-47.1	-50.9	14.8	0.00e+00	0	43	0	857735168	64	6025
2026-01-14 08:15:10.01	4.58	10.03	-47.1	-50.9	14.8	7.00e-07	0	43	0	859832320	64	6035
2026-01-14 08:15:10.86	4.47	9.98	-47.1	-50.9	14.8	0.00e+00	0	43	0	860880896	65	5703
2026-01-14 08:15:11.99	4.32	9.91	-47.3	-51.1	14.6	0.00e+00	0	43	0	862978048	65	5837
2026-01-14 08:15:12.85	4.21	9.86	-47.1	-50.7	14.9	0.00e+00	0	43	0	865075200	65	5583
2026-01-14 08:15:13.98	4.07	9.79	-47.2	-50.7	15.0	0.00e+00	0	43	0	867172352	65	5541
2026-01-14 08:15:14.84	3.96	9.74	-47.2	-50.6	15.0	0.00e+00	0	44	0	868220928	65	5488
2026-01-14 08:15:15.97	3.81	9.68	-46.5	-49.8	15.8	0.00e+00	0	43	0	870318080	65	5026
2026-01-14 08:15:16.83	3.70	9.63	-46.3	-49.7	15.9	0.00e+00	0	43	0	872415232	64	5252
2026-01-14 08:15:17.97	3.56	9.56	-46.1	-49.7	15.9	0.00e+00	0	43	0	874512384	64	5275
2026-01-14 08:15:18.82	3.45	9.51	-45.9	-49.7	16.0	0.00e+00	0	43	0	876609536	63	5540
2026-01-14 08:15:19.95	3.31	9.44	-45.6	-49.5	16.2	0.00e+00	0	43	0	878706688	63	5425
2026-01-14 08:15:20.81	3.20	9.39	-45.9	-49.8	15.8	0.00e+00	0	44	0	879755264	63	5614
2026-01-14 08:15:21.95	3.05	9.32	-46.1	-50.1	15.6	0.00e+00	0	43	0	881852416	63	5795
2026-01-14 08:15:22.80	2.95	9.27	-46.2	-50.0	15.6	0.00e+00	0	43	0	883949568	63	5781
2026-01-14 08:15:23.93	2.81	9.21	-46.6	-50.6	15.0	0.00e+00	0	43	0	886046720	64	5838
2026-01-14 08:15:24.79	2.70	9.16	-46.9	-50.9	14.8	0.00e+00	0	43	0	887095296	64	6027
2026-01-14 08:15:25.93	2.56	9.09	-47.1	-51.2	14.4	0.00e+00	0	43	0	889192448	64	6252
2026-01-14 08:15:26.78	2.46	9.04	-47.2	-51.3	14.3	0.00e+00	0	43	0	891289600	65	5940
2026-01-14 08:15:27.92	2.32	8.97	-48.9	-57.6	8.6	9.10e-06	0	43	0	893386752	68	10323
2026-01-14 08:15:28.77	2.21	8.92	-51.8	-67.1	3.8	1.31e+00	0	43	104	893386752	74	21930
2026-01-14 08:15:29.91	2.08	8.86	-51.4	-67.4	3.8	1.49e+00	0	43	104	893386752	74	22726
2026-01-14 08:15:30.76	1.97	8.81	-51.8	-67.5	3.8	1.49e+00	0	43	104	893386752	74	22859
2026-01-14 08:15:31.89	1.84	8.74	-51.8	-67.5	3.8	1.49e+00	0	43	104	893386752	74	22958
2026-01-14 08:15:32.75	1.74	8.69	-52.3	-67.6	3.8	1.49e+00	0	43	104	893386752	75	21965
2026-01-14 08:15:33.88	1.60	8.62	-52.3	-67.6	3.8	1.49e+00	0	43	104	893386752	75	21929
2026-01-14 08:15:34.73	1.50	8.57	-52.6	-67.7	3.8	1.49e+00	0	43	104	893386752	75	22180
2026-01-14 08:15:35.87	1.36	8.51	-52.3	-67.7	3.8	1.49e+00	0	43	104	893386752	75	22133
2026-01-14 08:15:36.72	1.26	8.46	-52.2	-67.7	3.8	1.49e+00	0	43	104	893386752	75	22142
2026-01-14 08:15:37.85	1.13	8.39	-52.5	-67.8	3.8	1.49e+00	0	44	104	893386752	75	22286
2026-01-14 08:15:38.70	1.03	8.34	-52.5	-67.7	3.8	1.49e+00	0	43	104	893386752	75	22207
2026-01-14 08:15:39.84	0.90	8.27	-52.3	-67.7	3.8	1.49e+00	0	43	104	893386752	75	22226
2026-01-14 08:15:40.69	0.80	8.22	-52.5	-67.7	3.8	1.49e+00	0	43	104	893386752	75	22215
2026-01-14 08:15:41.83	0.67	8.16	-52.6	-67.8	3.8	1.49e+00	0	43	104	893386752	75	22272
2026-01-14 08:15:42.68	0.57	8.11	-52.3	-67.8	3.8	1.49e+00	0	43	104	893386752	75	22291
2026-01-14 08:15:43.82	0.44	8.04	-52.4	-67.8	3.8	1.49e+00	0	43	104	893386752	75	22307
2026-01-14 08:15:44.67	0.35	7.99	-52.5	-67.8	3.8	1.49e+00	0	43	104	893386752	75	22311
2026-01-14 08:15:45.80	0.22	7.92	-52.6	-67.7	3.8	1.49e+00	0	43	104	893386752	75	22230
2026-01-14 08:15:46.66	0.12	7.87	-52.6	-67.8	3.8	1.49e+00	0	43	104	893386752	75	22328
2026-01-14 08:15:47.79	359.99	7.81	-52.6	-67.7	3.8	1.49e+00	0	43	104	893386752	75	22256
2026-01-14 08:15:48.64	359.90	7.76	-52.6	-67.8	3.8	1.49e+00	0	43	104	893386752	76	21145
2026-01-14 08:15:49.78	359.77	7.69	-52.7	-67.8	3.8	1.49e+00	0	43	104	893386752	76	21076
2026-01-14 08:15:50.63	359.68	7.64	-52.6	-67.8	3.8	1.49e+00	0	43	104	893386752	76	21074
2026-01-14 08:15:51.76	359.55	7.58	-52.5	-67.8	3.8	1.49e+00	0	43	104	893386752	76	21114
2026-01-14 08:15:52.62	359.46	7.53	-52.6	-67.7	3.8	1.49e+00	0	43	104	893386752	76	20973
2026-01-14 08:15:53.75	359.33	7.46	-52.5	-67.7	3.8	1.49e+00	0	43	104	893386752	76	20960
2026-01-14 08:15:54.61	359.24	7.41	-52.5	-67.8	3.8	1.49e+00	0	43	104	893386752	76	21041
2026-01-14 08:15:55.74	359.12	7.34	-52.5	-67.8	3.8	1.49e+00	0	43	104	893386752	76	21047
2026-01-14 08:15:56.59	359.02	7.29	-52.3	-67.7	3.8	1.49e+00	0	43	104	893386752	76	20965
2026-01-14 08:15:57.73	358.90	7.23	-52.3	-67.7	3.8	1.49e+00	0	43	104	893386752	76	20987
2026-01-14 08:15:58.58	358.81	7.18	-52.3	-67.7	3.8	1.49e+00	0	43	104	893386752	76	20939
2026-01-14 08:15:59.72	358.69	7.11	-52.3	-67.7	3.8	1.49e+00	0	43	104	893386752	76	20912
2026-01-14 08:16:00.57	358.60	7.06	-52.3	-67.7	3.8	1.49e+00	0	43	104	893386752	76	20917
2026-01-14 08:16:01.71	358.48	7.00	-52.3	-67.7	3.8	1.49e+00	0	43	104	893386752	76	20921
2026-01-14 08:16:02.56	358.39	6.95	-52.3	-67.7	3.8	1.49e+00	0	43	104	893386752	76	20931
2026-01-14 08:16:03.69	358.27	6.88	-52.3	-67.7	3.8	1.49e+00	0	43	104	893386752	76	20984
2026-01-14 08:16:04.54	358.18	6.83	-52.3	-67.7	3.8	1.49e+00	0	44	104	893386752	76	20959
2026-01-14 08:16:05.68	358.06	6.77	-52.3	-67.7	3.8	1.49e+00	0	43	104	893386752	76	20862
2026-01-14 08:16:06.53	357.97	6.72	-52.3	-67.7	3.8	1.49e+00	0	44	104	893386752	76	20893
2026-01-14 08:16:07.67	357.85	6.65	-52.3	-67.7	3.8	1.49e+00	0	43	104	893386752	76	20907
2026-01-14 08:16:08.52	357.77	6.60	-52.3	-67.7	3.8	1.49e+00	0	43	104	893386752	76	20945
2026-01-14 08:16:09.65	357.65	6.54	-52.3	-67.7	3.8	1.49e+00	0	43	104	893386752	76	20892
2026-01-14 08:16:10.50	357.56	6.49	-52.3	-67.7	3.8	1.49e+00	0	43	104	893386752	76	20825
2026-01-14 08:16:11.64	357.45	6.42	-52.3	-67.7	3.8	1.49e+00	0	44	104	893386752	76	20827
2026-01-14 08:16:12.49	357.36	6.37	-52.3	-67.7	3.8	1.49e+00	0	44	104	893386752	76	20928
2026-01-14 08:16:13.63	357.24	6.31	-52.3	-67.7	3.8	1.49e+00	0	43	104	893386752	76	20946
2026-01-14 08:16:14.48	357.16	6.26	-52.3	-67.7	3.8	1.49e+00	0	43	104	893386752	76	20878
2026-01-14 08:16:15.61	357.05	6.20	-52.3	-67.7	3.8	1.49e+00	0	43	104	893386752	76	20831
2026-01-14 08:16:16.47	356.96	6.15	-52.3	-67.7	3.8	1.49e+00	0	43	104	893386752	76	20931
2026-01-14 08:16:17.60	356.85	6.08	-52.3	-67.7	3.8	1.49e+00	0	43	104	893386752	76	20926
2026-01-14 08:16:18.45	356.76	6.03	-52.3	-67.7	3.8	1.49e+00	0	43	104	893386752	76	20794
2026-01-14 08:16:19.59	356.65	5.97	-52.3	-67.7	3.8	1.49e+00	0	43	104	893386752	76	20894
2026-01-14 08:16:20.44	356.57	5.92	-52.3	-67.7	3.8	1.49e+00	0	43	104	893386752	76	20851
2026-01-14 08:16:21.57	356.46	5.85	-52.3	-67.7	3.8	1.49e+00	0	43	104	893386752	76	20847
2026-01-14 08:16:22.43	356.37	5.81	-52.3	-67.7	3.8	1.49e+00	0	43	104	893386752	76	20777
2026-01-14 08:16:23.56	356.26	5.74	-52.3	-67.7	3.8	1.49e+00	0	43	104	893386752	76	20852
2026-01-14 08:16:24.41	356.18	5.69	-52.3	-67.7	3.8	1.49e+00	0	43	104	893386752	76	20843
2026-01-14 08:16:25.55	356.07	5.63	-52.3	-67.7	3.8	1.49e+00	0	43	104	893386752	76	20855
2026-01-14 08:16:26.40	355.99	5.58	-52.3	-67.7	3.8	1.49e+00	0	43	104	893386752	76	20913
2026-01-14 08:16:27.53	355.88	5.51	-52.3	-67.7	3.8	1.49e+00	0	43	104	893386752	76	20868
2026-01-14 08:16:28.39	355.80	5.47	-52.3	-67.7	3.8	1.49e+00	0	43	104	893386752	76	20834
2026-01-14 08:16:29.52	355.69	5.40	-52.3	-67.7	3.8	1.49e+00	0	43	104	893386752	76	20862
2026-01-14 08:16:30.37	355.61	5.35	-52.3	-67.7	3.8	1.49e+00	0	43	104	893386752	76	20833
2026-01-14 08:16:31.51	355.51	5.29	-52.3	-67.7	3.8	1.49e+00	0	44	104	893386752	76	20844
2026-01-14 08:16:32.36	355.43	5.24	-52.3	-67.7	3.8	1.49e+00	0	43	104	893386752	76	20837
2026-01-14 08:16:33.50	355.32	5.18	-52.3	-67.7	3.8	1.49e+00	0	43	104	893386752	76	20909
2026-01-14 08:16:34.35	355.24	5.13	-52.3	-67.7	3.8	1.49e+00	0	43	104	893386752	76	20804
2026-01-14 08:16:35.48	355.14	5.06	-52.3	-67.7	3.8	1.49e+00	0	43	104	893386752	76	20835
2026-01-14 08:16:36.33	355.06	5.02	-52.3	-67.7	3.8	1.49e+00	0	43	104	893386752	76	20858
2026-01-14 08:16:37.47	354.95	4.95	-52.3	-67.7	3.8	1.49e+00	0	43	104	893386752	76	20952

#Closed at: 2026-01-14 08:16:38
#Recorded file [893 MB]: D:/Data/31040_260114_110627.dat