passes_logs/2026/01/14/T1/T1__20260114_041831_FENGYUN_3E_rec.log

#Pass ID: 20260114_041831_FENGYUN 3E
#Satellite: FENGYUN 3E
#Configuration: FENGYUN 3E
#almurnet v.1.7.20251203
#Start time: 2026-01-14 04:18:33

#Version: 2.0.20230620
#Station: T1
#Location: 37.570604 lon 55.790049 lat
#TLE: 1 49008U 21062A   26013.31447241  .00000001  00000+0  21294-4 0  9992
#TLE: 2 49008  98.7491  18.4630 0001950 139.8565 220.2756 14.19884983234609

#Time	Az	El	Level	Level2	SNR	BER	BlckErr	Temp	State	Recorded	gain1	gain2
2026-01-14 04:18:33.06	14.13	5.08	-50.0	-61.1	3.8	8.46e-01	0	41	0	0	70	12893
2026-01-14 04:18:34.05	14.11	5.15	-50.1	-61.5	3.8	8.48e-01	0	41	104	0	70	13436
2026-01-14 04:18:35.04	14.10	5.22	-50.1	-61.5	3.8	8.47e-01	0	41	104	0	70	13505
2026-01-14 04:18:36.03	14.09	5.29	-50.1	-61.6	3.8	8.46e-01	0	41	104	0	70	13582
2026-01-14 04:18:37.03	14.07	5.36	-50.1	-61.5	3.8	8.46e-01	0	41	104	0	70	13471
2026-01-14 04:18:38.02	14.06	5.43	-50.1	-61.5	3.8	8.47e-01	0	41	104	0	70	13453
2026-01-14 04:18:39.01	14.04	5.51	-50.1	-61.4	3.8	8.47e-01	0	41	104	0	70	13299
2026-01-14 04:18:40.00	14.03	5.58	-50.1	-61.3	3.8	8.48e-01	0	41	104	0	70	13115
2026-01-14 04:18:41.00	14.01	5.65	-50.1	-61.2	3.8	8.47e-01	0	41	104	0	70	12987
2026-01-14 04:18:41.99	14.00	5.72	-50.0	-61.1	3.8	8.47e-01	0	42	104	0	70	12879
2026-01-14 04:18:42.98	13.98	5.79	-50.0	-61.1	3.8	8.46e-01	0	41	104	0	70	12904
2026-01-14 04:18:43.98	13.97	5.87	-50.0	-61.0	3.8	8.48e-01	0	41	104	0	70	12742
2026-01-14 04:18:44.97	13.95	5.94	-50.0	-60.9	3.8	8.47e-01	0	41	104	0	70	12643
2026-01-14 04:18:45.96	13.93	6.01	-50.0	-60.8	3.8	8.46e-01	0	41	104	0	70	12483
2026-01-14 04:18:46.96	13.92	6.09	-50.0	-60.7	3.8	8.47e-01	0	42	104	0	70	12318
2026-01-14 04:18:47.95	13.90	6.16	-50.0	-60.6	3.8	8.46e-01	0	42	104	0	70	12145
2026-01-14 04:18:48.94	13.89	6.23	-50.0	-60.4	3.8	8.46e-01	0	42	104	0	70	11955
2026-01-14 04:18:49.94	13.87	6.31	-49.9	-60.4	3.8	8.46e-01	0	42	104	0	70	11914
2026-01-14 04:18:50.93	13.86	6.38	-50.0	-60.4	3.8	8.46e-01	0	42	104	0	70	11924
2026-01-14 04:18:51.92	13.84	6.45	-50.0	-60.4	3.8	8.46e-01	0	42	104	0	70	11946
2026-01-14 04:18:52.91	13.82	6.53	-50.0	-60.6	3.8	8.46e-01	0	42	104	0	70	12098
2026-01-14 04:18:53.91	13.81	6.60	-50.0	-60.8	3.8	8.47e-01	0	42	104	0	70	12425
2026-01-14 04:18:54.90	13.79	6.68	-50.0	-61.0	3.8	8.46e-01	0	42	104	0	70	12790
2026-01-14 04:18:55.90	13.77	6.75	-50.0	-61.4	3.8	8.47e-01	0	42	104	0	70	13302
2026-01-14 04:18:56.89	13.76	6.83	-50.1	-61.5	3.8	8.47e-01	0	42	104	0	70	13541
2026-01-14 04:18:57.88	13.74	6.90	-50.1	-61.4	3.8	8.47e-01	0	42	104	0	70	13308
2026-01-14 04:18:58.88	13.72	6.98	-50.0	-60.7	3.8	8.45e-01	0	42	104	0	70	12343
2026-01-14 04:18:59.87	13.71	7.06	-49.9	-59.6	3.8	8.47e-01	0	42	104	0	70	10848
2026-01-14 04:19:00.86	13.69	7.13	-49.6	-58.1	4.2	8.42e-01	0	42	104	0	70	9132
2026-01-14 04:19:01.85	13.67	7.21	-49.4	-56.7	4.7	8.17e-01	0	42	0	0	69	8258
2026-01-14 04:19:02.85	13.66	7.28	-49.0	-55.3	5.6	7.34e-01	0	42	0	0	68	7427
2026-01-14 04:19:03.84	13.64	7.36	-48.7	-54.0	6.5	2.52e-01	0	42	0	5242880	68	6408
2026-01-14 04:19:04.83	13.62	7.44	-48.1	-52.8	7.5	1.33e-01	0	42	0	12582912	67	5858
2026-01-14 04:19:05.83	13.60	7.52	-47.7	-51.9	8.4	5.50e-02	0	42	0	19922944	66	5608
2026-01-14 04:19:06.82	13.59	7.59	-47.4	-51.2	9.1	2.75e-02	0	42	0	27262976	65	5481
2026-01-14 04:19:07.81	13.57	7.67	-47.0	-50.5	9.8	1.41e-02	0	42	0	34603008	64	5344
2026-01-14 04:19:08.81	13.55	7.75	-46.8	-50.0	10.4	5.44e-03	0	42	0	41943040	64	5056
2026-01-14 04:19:09.80	13.53	7.83	-46.5	-49.5	10.9	2.92e-03	0	42	0	48234496	63	5073
2026-01-14 04:19:10.79	13.51	7.91	-46.3	-49.2	11.3	1.62e-03	0	43	0	55574528	63	4891
2026-01-14 04:19:11.79	13.49	7.98	-46.2	-49.0	11.5	8.80e-04	0	42	0	62914560	63	4771
2026-01-14 04:19:12.78	13.48	8.06	-46.0	-48.6	11.9	5.40e-04	0	42	0	70254592	62	4838
2026-01-14 04:19:13.77	13.46	8.14	-46.0	-48.6	12.0	3.89e-04	0	42	0	77594624	62	4834
2026-01-14 04:19:14.77	13.44	8.22	-45.8	-48.4	12.1	3.16e-04	0	43	0	84934656	62	4715
2026-01-14 04:19:15.76	13.42	8.30	-45.8	-48.4	12.2	2.88e-04	0	43	0	92274688	62	4711
2026-01-14 04:19:16.75	13.40	8.38	-45.9	-48.5	12.0	2.99e-04	0	43	0	98566144	62	4785
2026-01-14 04:19:17.75	13.38	8.46	-46.0	-48.7	11.8	4.61e-04	0	42	0	105906176	62	4884
2026-01-14 04:19:18.74	13.36	8.54	-46.2	-49.0	11.5	8.15e-04	0	42	0	113246208	62	5085
2026-01-14 04:19:19.73	13.34	8.62	-46.4	-49.3	11.2	1.28e-03	0	42	0	120586240	62	5224
2026-01-14 04:19:20.73	13.32	8.70	-46.8	-49.9	10.5	2.97e-03	0	43	0	127926272	63	5338
2026-01-14 04:19:21.72	13.30	8.78	-47.2	-50.7	9.7	9.74e-03	0	43	0	134217728	63	5795
2026-01-14 04:19:22.71	13.28	8.87	-47.6	-51.6	8.7	3.15e-02	0	43	0	141557760	64	6098
2026-01-14 04:19:23.71	13.26	8.95	-48.2	-52.9	7.4	8.02e-02	0	43	0	148897792	65	6722
2026-01-14 04:19:24.70	13.24	9.03	-48.7	-54.5	6.0	3.05e-01	0	43	0	156237824	66	7571
2026-01-14 04:19:25.70	13.22	9.11	-49.6	-58.4	4.2	8.09e-01	0	43	0	158334976	68	10544
2026-01-14 04:19:26.69	13.20	9.20	-47.2	-50.9	9.3	7.29e-01	0	43	0	159383552	65	5336
2026-01-14 04:19:27.68	13.18	9.28	-50.0	-60.4	3.8	4.34e-01	0	43	104	165675008	69	12603
2026-01-14 04:19:28.68	13.16	9.36	-49.9	-61.1	3.8	8.48e-01	0	43	104	165675008	69	13719
2026-01-14 04:19:29.67	13.14	9.44	-46.8	-50.3	5.4	8.16e-01	0	43	104	165675008	64	5224
2026-01-14 04:19:30.67	13.12	9.53	-45.1	-47.5	13.1	4.46e-05	0	43	0	170917888	60	4787
2026-01-14 04:19:31.66	13.10	9.61	-44.6	-46.9	13.7	1.14e-05	0	43	0	177209344	60	4472
2026-01-14 04:19:32.66	13.08	9.70	-43.8	-45.7	14.8	0.00e+00	0	43	0	184549376	58	4346
2026-01-14 04:19:33.66	13.06	9.78	-43.1	-44.8	15.7	0.00e+00	0	43	0	191889408	57	4182
2026-01-14 04:19:34.65	13.04	9.87	-42.7	-44.3	16.2	0.00e+00	0	43	0	199229440	56	4155
2026-01-14 04:19:35.65	13.01	9.95	-42.3	-43.9	16.5	0.00e+00	0	43	0	206569472	55	4200
2026-01-14 04:19:36.64	12.99	10.04	-42.1	-43.6	16.7	0.00e+00	0	43	0	213909504	55	4093
2026-01-14 04:19:37.64	12.97	10.12	-42.0	-43.5	16.9	0.00e+00	0	43	0	220200960	54	4262
2026-01-14 04:19:38.63	12.95	10.21	-42.1	-43.6	16.8	0.00e+00	0	43	0	227540992	54	4300
2026-01-14 04:19:39.73	12.92	10.30	-41.6	-43.0	17.3	0.00e+00	0	43	0	235929600	54	4035
2026-01-14 04:19:40.60	12.90	10.38	-41.7	-43.2	17.2	0.00e+00	0	43	0	242221056	54	4114
2026-01-14 04:19:41.91	12.87	10.49	-41.6	-43.1	17.3	0.00e+00	0	43	0	251658240	53	4292
2026-01-14 04:19:42.62	12.86	10.56	-41.7	-43.1	17.2	0.00e+00	0	43	0	256901120	53	4329
2026-01-14 04:19:43.90	12.83	10.67	-41.5	-42.9	17.5	0.00e+00	0	43	0	265289728	53	4199
2026-01-14 04:19:44.61	12.81	10.73	-41.3	-42.6	17.7	0.00e+00	0	43	0	271581184	53	4092
2026-01-14 04:19:45.90	12.78	10.85	-41.1	-42.5	17.9	0.00e+00	0	43	0	279969792	53	4025
2026-01-14 04:19:46.62	12.77	10.91	-41.3	-42.7	17.7	0.00e+00	0	43	0	285212672	53	4100
2026-01-14 04:19:48.23	12.73	11.05	-41.1	-42.5	17.9	0.00e+00	0	43	0	296747008	53	4006
2026-01-14 04:19:48.80	12.71	11.11	-41.0	-42.3	18.0	0.00e+00	0	43	0	300941312	52	4189
2026-01-14 04:19:50.51	12.67	11.26	-41.1	-42.4	18.0	0.00e+00	0	43	0	313524224	52	4226
2026-01-14 04:19:51.08	12.66	11.31	-41.1	-42.4	17.9	0.00e+00	0	43	0	317718528	52	4240
2026-01-14 04:19:52.78	12.62	11.47	-41.1	-42.4	18.0	0.00e+00	0	43	0	330301440	52	4213
2026-01-14 04:19:53.35	12.60	11.52	-41.0	-42.3	18.1	0.00e+00	0	43	0	334495744	52	4152
2026-01-14 04:19:55.06	12.56	11.67	-41.2	-42.5	17.8	0.00e+00	0	43	0	347078656	52	4285
2026-01-14 04:19:55.74	12.54	11.74	-40.9	-42.2	18.1	0.00e+00	0	43	0	351272960	52	4140
2026-01-14 04:19:57.16	12.51	11.87	-41.0	-42.3	18.1	0.00e+00	0	43	0	361758720	52	4152
2026-01-14 04:19:57.96	12.49	11.94	-40.9	-42.3	18.1	0.00e+00	0	43	0	368050176	52	4152
2026-01-14 04:19:59.10	12.46	12.05	-41.0	-42.3	18.1	0.00e+00	0	43	0	375390208	52	4146
2026-01-14 04:19:59.95	12.44	12.13	-41.0	-42.3	18.1	0.00e+00	0	43	0	381681664	52	4192
2026-01-14 04:20:01.09	12.41	12.23	-41.0	-42.3	18.1	0.00e+00	0	43	0	390070272	52	4156
2026-01-14 04:20:01.94	12.38	12.31	-41.0	-42.3	18.1	0.00e+00	0	43	0	396361728	52	4181
2026-01-14 04:20:03.08	12.35	12.42	-40.9	-42.2	18.2	0.00e+00	0	43	0	404750336	52	4113
2026-01-14 04:20:03.93	12.33	12.50	-41.0	-42.3	18.2	0.00e+00	0	43	0	409993216	52	4154
2026-01-14 04:20:05.06	12.30	12.61	-40.9	-42.2	18.2	0.00e+00	0	43	0	418381824	52	4119
2026-01-14 04:20:05.92	12.28	12.69	-41.0	-42.3	18.1	0.00e+00	0	43	0	424673280	52	4180
2026-01-14 04:20:07.09	12.25	12.81	-41.0	-42.2	18.2	0.00e+00	0	43	0	433061888	52	4137
2026-01-14 04:20:07.94	12.22	12.89	-40.9	-42.2	18.2	0.00e+00	0	43	0	439353344	52	4111
2026-01-14 04:20:09.08	12.19	13.00	-41.0	-42.2	18.2	0.00e+00	0	43	0	447741952	52	4145
2026-01-14 04:20:09.93	12.17	13.08	-41.0	-42.3	18.2	0.00e+00	0	43	0	454033408	52	4153
2026-01-14 04:20:11.07	12.13	13.19	-41.1	-42.3	18.1	0.00e+00	0	43	0	462422016	52	4183
2026-01-14 04:20:11.92	12.11	13.27	-40.9	-42.1	18.3	0.00e+00	0	43	0	468713472	52	4092
2026-01-14 04:20:13.06	12.08	13.39	-40.9	-42.2	18.2	0.00e+00	0	43	0	476053504	52	4101
2026-01-14 04:20:14.01	12.05	13.48	-41.0	-42.3	18.2	0.00e+00	0	43	0	483393536	52	4158
2026-01-14 04:20:15.00	12.02	13.58	-40.8	-42.0	18.4	0.00e+00	0	43	0	490733568	52	4030
2026-01-14 04:20:16.00	11.99	13.68	-40.8	-42.0	18.4	0.00e+00	0	43	0	497025024	52	4012
2026-01-14 04:20:16.99	11.96	13.78	-40.9	-42.1	18.3	0.00e+00	0	43	0	504365056	52	4085
2026-01-14 04:20:17.99	11.93	13.88	-40.8	-42.0	18.4	0.00e+00	0	43	0	511705088	52	4029
2026-01-14 04:20:18.98	11.90	13.98	-40.8	-42.1	18.4	0.00e+00	0	43	0	519045120	52	4063
2026-01-14 04:20:19.98	11.87	14.08	-40.8	-42.0	18.5	0.00e+00	0	43	0	526385152	52	4012
2026-01-14 04:20:20.98	11.84	14.18	-40.7	-41.9	18.6	0.00e+00	0	43	0	533725184	52	3964
2026-01-14 04:20:21.97	11.81	14.28	-40.8	-42.0	18.5	0.00e+00	0	43	0	541065216	51	4275
2026-01-14 04:20:22.96	11.78	14.38	-40.7	-41.9	18.6	0.00e+00	0	43	0	548405248	51	4195
2026-01-14 04:20:23.96	11.75	14.48	-40.7	-41.9	18.6	0.00e+00	0	43	0	555745280	51	4215
2026-01-14 04:20:24.96	11.72	14.59	-40.7	-42.0	18.6	0.00e+00	0	43	0	562036736	51	4247
2026-01-14 04:20:25.98	11.69	14.69	-40.7	-41.9	18.6	0.00e+00	0	43	0	569376768	51	4216
2026-01-14 04:20:26.98	11.66	14.80	-40.6	-41.8	18.7	0.00e+00	0	43	0	576716800	51	4177
2026-01-14 04:20:27.97	11.63	14.90	-40.6	-41.8	18.7	0.00e+00	0	43	0	584056832	51	4170
2026-01-14 04:20:29.08	11.59	15.02	-40.6	-41.8	18.7	0.00e+00	0	43	0	592445440	51	4187
2026-01-14 04:20:29.93	11.56	15.11	-40.6	-41.8	18.7	0.00e+00	0	43	0	597688320	51	4173
2026-01-14 04:20:31.27	11.52	15.25	-40.5	-41.7	18.8	0.00e+00	0	44	0	608174080	51	4127
2026-01-14 04:20:31.99	11.49	15.32	-40.5	-41.6	18.9	0.00e+00	0	43	0	613416960	51	4098
2026-01-14 04:20:33.26	11.45	15.46	-40.5	-41.7	18.9	0.00e+00	0	43	0	622854144	51	4106
2026-01-14 04:20:33.98	11.43	15.54	-40.4	-41.6	19.0	0.00e+00	0	43	0	627048448	51	4059
2026-01-14 04:20:35.25	11.39	15.67	-40.3	-41.5	19.0	0.00e+00	0	43	0	636485632	51	4029
2026-01-14 04:20:36.00	11.36	15.75	-40.4	-41.6	19.0	0.00e+00	0	44	0	641728512	51	4053
2026-01-14 04:20:37.28	11.32	15.89	-40.5	-41.7	18.9	0.00e+00	0	43	0	651165696	51	4102
2026-01-14 04:20:38.08	11.29	15.98	-40.3	-41.5	19.0	0.00e+00	0	43	0	657457152	51	4034
2026-01-14 04:20:39.50	11.24	16.14	-40.3	-41.5	19.0	0.00e+00	0	43	0	666894336	51	4005
2026-01-14 04:20:40.21	11.21	16.21	-40.2	-41.4	19.2	0.00e+00	0	43	0	672137216	51	3962
2026-01-14 04:20:41.50	11.17	16.36	-40.2	-41.3	19.2	0.00e+00	0	43	0	681574400	51	3949
2026-01-14 04:20:42.21	11.14	16.44	-40.1	-41.2	19.3	0.00e+00	0	44	0	686817280	50	4133
2026-01-14 04:20:43.49	11.09	16.58	-40.1	-41.3	19.3	0.00e+00	0	44	0	696254464	50	4146
2026-01-14 04:20:44.20	11.07	16.66	-40.1	-41.2	19.3	0.00e+00	0	43	0	701497344	50	4145
2026-01-14 04:20:45.82	11.01	16.84	-40.1	-41.2	19.3	0.00e+00	0	43	0	713031680	50	4114
2026-01-14 04:20:46.39	10.99	16.91	-40.0	-41.1	19.4	0.00e+00	0	43	0	717225984	50	4058
2026-01-14 04:20:48.10	10.92	17.10	-39.8	-40.9	19.6	0.00e+00	0	43	0	728760320	50	3990
2026-01-14 04:20:48.72	10.90	17.17	-39.9	-41.0	19.5	0.00e+00	0	43	0	734003200	50	4032
2026-01-14 04:20:50.28	10.84	17.35	-39.9	-41.0	19.5	0.00e+00	0	44	0	745537536	50	4010
2026-01-14 04:20:50.92	10.82	17.43	-39.8	-40.9	19.6	0.00e+00	0	44	0	749731840	50	3973
2026-01-14 04:20:52.35	10.76	17.59	-39.9	-41.0	19.6	0.00e+00	0	44	0	760217600	50	4006
2026-01-14 04:20:53.06	10.73	17.67	-39.7	-40.7	19.7	0.00e+00	0	43	0	765460480	50	3902
2026-01-14 04:20:54.34	10.68	17.82	-39.7	-40.7	19.8	0.00e+00	0	43	0	773849088	50	3888
2026-01-14 04:20:55.05	10.65	17.91	-39.6	-40.7	19.7	0.00e+00	0	44	0	779091968	50	3882
2026-01-14 04:20:56.33	10.60	18.06	-39.6	-40.6	19.8	0.00e+00	0	44	0	788529152	50	3857
2026-01-14 04:20:57.12	10.57	18.15	-39.6	-40.7	19.8	0.00e+00	0	44	0	794820608	50	3870
2026-01-14 04:20:58.31	10.52	18.30	-39.7	-40.7	19.8	0.00e+00	0	43	0	803209216	49	4106
2026-01-14 04:20:59.16	10.49	18.40	-39.6	-40.6	19.9	0.00e+00	0	43	0	809500672	49	4065
2026-01-14 04:21:00.29	10.44	18.53	-39.6	-40.7	19.8	0.00e+00	0	44	0	816840704	49	4107
2026-01-14 04:21:01.15	10.40	18.64	-39.6	-40.6	19.8	0.00e+00	0	43	0	823132160	49	4085
2026-01-14 04:21:02.28	10.35	18.78	-39.4	-40.4	20.0	0.00e+00	0	44	0	831520768	49	3983
2026-01-14 04:21:03.14	10.32	18.88	-39.3	-40.3	20.1	0.00e+00	0	44	0	837812224	49	3933
2026-01-14 04:21:04.27	10.27	19.02	-39.4	-40.4	20.1	0.00e+00	0	44	0	846200832	49	3966
2026-01-14 04:21:05.13	10.23	19.13	-39.3	-40.3	20.1	0.00e+00	0	43	0	852492288	49	3941
2026-01-14 04:21:06.31	10.18	19.27	-39.3	-40.2	20.2	0.00e+00	0	44	0	860880896	49	3911
2026-01-14 04:21:07.16	10.14	19.38	-39.3	-40.2	20.2	0.00e+00	0	44	0	867172352	49	3895
2026-01-14 04:21:08.41	10.08	19.54	-39.3	-40.3	20.2	0.00e+00	0	43	0	876609536	49	3919
2026-01-14 04:21:09.26	10.05	19.64	-39.1	-40.1	20.3	0.00e+00	0	44	0	881852416	49	3834
2026-01-14 04:21:10.40	9.99	19.79	-39.2	-40.2	20.2	0.00e+00	0	44	0	890241024	49	3884
2026-01-14 04:21:11.25	9.95	19.90	-39.1	-40.1	20.4	0.00e+00	0	44	0	896532480	48	4056
2026-01-14 04:21:12.39	9.90	20.04	-39.1	-40.0	20.4	0.00e+00	0	44	0	904921088	48	4025
2026-01-14 04:21:13.24	9.86	20.15	-39.2	-40.2	20.2	0.00e+00	0	44	0	911212544	48	4106
2026-01-14 04:21:14.58	9.80	20.33	-39.0	-40.0	20.5	0.00e+00	0	44	0	920649728	48	4026
2026-01-14 04:21:15.29	9.76	20.42	-39.1	-40.1	20.4	0.00e+00	0	44	0	925892608	48	4057
2026-01-14 04:21:16.57	9.70	20.58	-39.1	-40.1	20.4	0.00e+00	0	44	0	935329792	48	4053
2026-01-14 04:21:17.28	9.67	20.68	-39.1	-40.1	20.4	0.00e+00	0	44	0	939524096	48	4063
2026-01-14 04:21:18.56	9.61	20.85	-39.0	-39.9	20.5	0.00e+00	0	44	0	948961280	48	3985
2026-01-14 04:21:19.29	9.57	20.94	-39.0	-39.9	20.4	0.00e+00	0	44	0	954204160	48	3989
2026-01-14 04:21:20.57	9.50	21.11	-39.0	-40.0	20.5	0.00e+00	0	43	0	963641344	48	4028
2026-01-14 04:21:21.29	9.47	21.21	-39.0	-40.0	20.4	0.00e+00	0	43	0	968884224	48	4025
2026-01-14 04:21:22.57	9.40	21.38	-39.1	-40.0	20.4	0.00e+00	0	44	0	978321408	48	4035
2026-01-14 04:21:23.29	9.37	21.48	-39.1	-40.1	20.4	0.00e+00	0	44	0	983564288	48	4062
2026-01-14 04:21:24.56	9.30	21.65	-39.0	-39.9	20.5	0.00e+00	0	44	0	993001472	48	3990
2026-01-14 04:21:25.27	9.26	21.75	-39.0	-40.0	20.4	0.00e+00	0	44	0	998244352	48	4032
2026-01-14 04:21:26.56	9.19	21.93	-39.0	-39.9	20.5	0.00e+00	0	44	0	1006632960	48	3998
2026-01-14 04:21:27.27	9.16	22.03	-39.0	-39.9	20.5	0.00e+00	0	44	0	1011875840	48	3988
2026-01-14 04:21:28.61	9.08	22.21	-39.1	-40.0	20.5	0.00e+00	0	43	0	1022361600	48	4039
2026-01-14 04:21:29.32	9.05	22.31	-39.0	-39.9	20.6	0.00e+00	0	44	0	1026555904	48	3983
2026-01-14 04:21:30.60	8.97	22.49	-39.0	-39.9	20.5	0.00e+00	0	44	0	1035993088	48	4004
2026-01-14 04:21:31.66	8.92	22.64	-39.0	-40.0	20.5	0.00e+00	0	44	0	1044381696	48	4016
2026-01-14 04:21:32.85	8.85	22.81	-39.0	-40.0	20.5	0.00e+00	0	44	0	1052770304	48	4012
2026-01-14 04:21:33.70	8.80	22.93	-39.0	-40.0	20.2	0.00e+00	0	44	0	1058013184	48	4007
2026-01-14 04:21:34.84	8.73	23.10	-39.1	-40.1	20.5	0.00e+00	0	44	0	1066401792	48	4052
2026-01-14 04:21:35.69	8.69	23.22	-39.2	-40.1	20.4	0.00e+00	0	43	0	1072693248	48	4075
2026-01-14 04:21:36.83	8.62	23.39	-39.3	-40.3	20.2	0.00e+00	0	43	0	1081081856	48	4160
2026-01-14 04:21:37.68	8.57	23.51	-39.2	-40.1	20.4	0.00e+00	0	44	0	1087373312	48	4084
2026-01-14 04:21:38.82	8.50	23.68	-39.1	-40.0	20.5	0.00e+00	0	44	0	1095761920	48	4044
2026-01-14 04:21:39.67	8.45	23.80	-39.3	-40.2	20.3	0.00e+00	0	44	0	1102053376	48	4120
2026-01-14 04:21:40.80	8.38	23.97	-39.1	-40.1	20.4	0.00e+00	0	44	0	1109393408	48	4057
2026-01-14 04:21:41.66	8.33	24.10	-39.1	-40.1	20.4	0.00e+00	0	44	0	1115684864	48	4055
2026-01-14 04:21:42.79	8.26	24.27	-39.2	-40.2	20.4	0.00e+00	0	43	0	1124073472	48	4100
2026-01-14 04:21:43.64	8.20	24.40	-39.1	-40.0	20.5	0.00e+00	0	44	0	1130364928	48	4047
2026-01-14 04:21:44.78	8.13	24.57	-39.1	-40.0	20.5	0.00e+00	0	43	0	1138753536	48	4037
2026-01-14 04:21:45.79	8.07	24.73	-39.1	-40.1	20.4	0.00e+00	0	44	0	1146093568	48	4061
2026-01-14 04:21:46.96	7.99	24.91	-39.1	-40.0	20.5	0.00e+00	0	44	0	1154482176	48	4049
2026-01-14 04:21:47.84	7.93	25.04	-39.1	-40.1	20.4	0.00e+00	0	44	0	1160773632	48	4070
2026-01-14 04:21:48.98	7.86	25.22	-39.1	-40.0	20.5	0.00e+00	0	44	0	1169162240	48	4028
2026-01-14 04:21:49.83	7.80	25.35	-39.1	-40.0	20.5	0.00e+00	0	44	0	1175453696	48	4029
2026-01-14 04:21:50.97	7.72	25.53	-39.1	-40.0	20.5	0.00e+00	0	44	0	1182793728	48	4046
2026-01-14 04:21:51.82	7.66	25.67	-39.1	-40.0	20.5	0.00e+00	0	44	0	1189085184	48	4048
2026-01-14 04:21:52.96	7.59	25.85	-39.0	-39.9	20.6	0.00e+00	0	44	0	1197473792	48	3989
2026-01-14 04:21:53.81	7.53	25.98	-39.0	-39.9	20.2	0.00e+00	0	44	0	1203765248	48	3999
2026-01-14 04:21:54.95	7.45	26.17	-38.9	-39.9	20.6	0.00e+00	0	44	0	1212153856	48	3973
2026-01-14 04:21:55.80	7.39	26.30	-39.0	-39.9	20.6	0.00e+00	0	44	0	1217396736	48	3983
2026-01-14 04:21:56.94	7.30	26.49	-39.0	-39.9	20.6	0.00e+00	0	44	0	1225785344	48	3994
2026-01-14 04:21:57.79	7.24	26.63	-38.9	-39.9	20.6	0.00e+00	0	44	0	1232076800	48	3972
2026-01-14 04:21:58.93	7.16	26.82	-38.9	-39.8	20.7	0.00e+00	0	44	0	1240465408	48	3928
2026-01-14 04:21:59.78	7.09	26.96	-38.8	-39.7	20.8	0.00e+00	0	44	0	1246756864	48	3910
2026-01-14 04:22:01.09	7.00	27.17	-38.7	-39.6	20.9	0.00e+00	0	44	0	1256194048	48	3850
2026-01-14 04:22:01.80	6.94	27.29	-38.7	-39.6	20.9	0.00e+00	0	44	0	1261436928	48	3849
2026-01-14 04:22:03.09	6.84	27.51	-38.7	-39.6	20.9	0.00e+00	0	44	0	1270874112	48	3851
2026-01-14 04:22:04.30	6.75	27.72	-38.7	-39.7	20.8	0.00e+00	0	44	0	1279262720	48	3878
2026-01-14 04:22:05.16	6.68	27.86	-38.4	-39.4	20.8	0.00e+00	0	44	0	1285554176	47	3972
2026-01-14 04:22:06.30	6.59	28.06	-38.3	-39.2	21.0	0.00e+00	0	44	0	1293942784	47	3909
2026-01-14 04:22:07.15	6.52	28.21	-38.3	-39.2	21.0	0.00e+00	0	44	0	1300234240	47	3899
2026-01-14 04:22:08.30	6.43	28.41	-38.1	-39.0	21.2	0.00e+00	0	44	0	1308622848	46	4021
2026-01-14 04:22:09.16	6.35	28.56	-38.1	-39.0	21.1	0.00e+00	0	44	0	1314914304	46	4032
2026-01-14 04:22:10.37	6.25	28.77	-38.1	-39.0	21.2	0.00e+00	0	44	0	1323302912	46	4045
2026-01-14 04:22:11.23	6.18	28.92	-37.9	-38.8	21.3	0.00e+00	0	44	0	1329594368	46	3952
2026-01-14 04:22:12.36	6.08	29.12	-38.0	-38.9	21.3	0.00e+00	0	44	0	1337982976	46	3977
2026-01-14 04:22:13.21	6.01	29.27	-38.0	-38.9	21.3	0.00e+00	0	44	0	1344274432	46	3964
2026-01-14 04:22:14.51	5.90	29.51	-38.0	-38.9	21.3	0.00e+00	0	44	0	1353711616	46	3971
2026-01-14 04:22:15.22	5.83	29.64	-38.1	-39.0	21.1	0.00e+00	0	43	0	1357905920	46	4039
2026-01-14 04:22:16.50	5.72	29.87	-38.0	-38.9	21.2	0.00e+00	0	44	0	1367343104	46	3996
2026-01-14 04:22:17.21	5.65	30.00	-38.1	-39.0	21.2	0.00e+00	0	44	0	1372585984	46	4025
2026-01-14 04:22:18.49	5.54	30.24	-38.2	-39.1	21.1	0.00e+00	0	44	0	1382023168	46	4095
2026-01-14 04:22:19.20	5.47	30.37	-38.2	-39.1	21.1	0.00e+00	0	44	0	1387266048	46	4078
2026-01-14 04:22:20.48	5.35	30.61	-38.1	-39.0	21.2	0.00e+00	0	44	0	1396703232	46	4029
2026-01-14 04:22:21.19	5.28	30.74	-38.1	-39.0	21.2	0.00e+00	0	44	0	1400897536	46	4043
2026-01-14 04:22:22.47	5.16	30.98	-38.2	-39.1	21.1	0.00e+00	0	44	0	1410334720	46	4072
2026-01-14 04:22:23.18	5.09	31.12	-38.3	-39.2	21.0	0.00e+00	0	44	0	1415577600	46	4101
2026-01-14 04:22:24.46	4.96	31.36	-38.3	-39.2	21.0	0.00e+00	0	44	0	1425014784	46	4123
2026-01-14 04:22:25.19	4.89	31.50	-38.3	-39.2	21.0	0.00e+00	0	44	0	1430257664	46	4133
2026-01-14 04:22:26.47	4.76	31.75	-38.4	-39.3	20.9	0.00e+00	0	44	0	1439694848	46	4184
2026-01-14 04:22:27.19	4.69	31.89	-38.4	-39.3	20.9	0.00e+00	0	44	0	1444937728	46	4170
2026-01-14 04:22:28.57	4.54	32.16	-38.5	-39.4	20.8	0.00e+00	0	44	0	1454374912	46	4224
2026-01-14 04:22:29.28	4.47	32.30	-38.5	-39.5	20.8	0.00e+00	0	44	0	1459617792	46	4244
2026-01-14 04:22:30.56	4.33	32.56	-38.6	-39.5	20.7	0.00e+00	0	44	0	1469054976	46	4280
2026-01-14 04:22:31.28	4.25	32.70	-38.6	-39.6	20.7	0.00e+00	0	44	0	1474297856	46	4292
2026-01-14 04:22:32.69	4.10	32.98	-38.5	-39.5	20.8	0.00e+00	0	44	0	1484783616	46	4251
2026-01-14 04:22:33.40	4.02	33.13	-38.6	-39.6	20.7	0.00e+00	0	44	0	1488977920	46	4299
2026-01-14 04:22:34.76	3.87	33.40	-38.6	-39.6	20.7	0.00e+00	0	44	0	1499463680	46	4292
2026-01-14 04:22:35.47	3.79	33.55	-38.6	-39.5	20.8	0.00e+00	0	44	0	1504706560	46	4263
2026-01-14 04:22:36.75	3.64	33.81	-38.6	-39.5	20.8	0.00e+00	0	44	0	1513095168	46	4265
2026-01-14 04:22:37.49	3.55	33.97	-38.6	-39.5	20.7	0.00e+00	0	44	0	1519386624	46	4275
2026-01-14 04:22:38.77	3.40	34.23	-38.4	-39.3	20.9	0.00e+00	0	43	0	1528823808	46	4182
2026-01-14 04:22:39.48	3.32	34.38	-38.5	-39.4	20.8	0.00e+00	0	44	0	1533018112	46	4230
2026-01-14 04:22:40.76	3.16	34.65	-38.1	-39.0	21.2	0.00e+00	0	44	0	1542455296	46	4007
2026-01-14 04:22:41.52	3.07	34.82	-37.9	-38.8	21.4	0.00e+00	0	44	0	1547698176	46	3917
2026-01-14 04:22:42.80	2.91	35.09	-37.7	-38.5	21.5	0.00e+00	0	43	0	1557135360	46	3824
2026-01-14 04:22:43.51	2.82	35.24	-37.8	-38.6	21.5	0.00e+00	0	44	0	1562378240	46	3862
2026-01-14 04:22:44.79	2.65	35.52	-37.8	-38.7	21.4	0.00e+00	0	44	0	1571815424	46	3911
2026-01-14 04:22:45.50	2.56	35.67	-37.9	-38.8	21.3	0.00e+00	0	44	0	1577058304	46	3956
2026-01-14 04:22:46.78	2.39	35.95	-38.1	-39.0	21.2	0.00e+00	0	44	0	1586495488	46	4049
2026-01-14 04:22:47.49	2.30	36.11	-38.2	-39.1	21.1	0.00e+00	0	44	0	1590689792	46	4087
2026-01-14 04:22:48.77	2.12	36.39	-38.3	-39.3	21.0	0.00e+00	0	44	0	1600126976	46	4157
2026-01-14 04:22:49.50	2.02	36.56	-38.3	-39.2	21.0	0.00e+00	0	44	0	1605369856	46	4125
2026-01-14 04:22:50.78	1.84	36.85	-38.4	-39.3	21.0	0.00e+00	0	44	0	1614807040	46	4161
2026-01-14 04:22:51.49	1.74	37.01	-38.4	-39.3	21.0	0.00e+00	0	44	0	1620049920	46	4173
2026-01-14 04:22:52.77	1.56	37.30	-38.4	-39.4	20.9	0.00e+00	0	44	0	1629487104	46	4199
2026-01-14 04:22:53.48	1.46	37.46	-38.3	-39.2	21.0	0.00e+00	0	44	0	1634729984	46	4134
2026-01-14 04:22:54.76	1.27	37.75	-38.5	-39.5	20.8	0.00e+00	0	44	0	1644167168	46	4266
2026-01-14 04:22:55.47	1.16	37.92	-38.5	-39.4	20.8	0.00e+00	0	44	0	1648361472	46	4230
2026-01-14 04:22:56.75	0.97	38.21	-38.5	-39.4	20.8	0.00e+00	0	44	0	1657798656	46	4234
2026-01-14 04:22:57.48	0.85	38.39	-38.5	-39.4	20.8	0.00e+00	0	44	0	1663041536	46	4237
2026-01-14 04:22:58.76	0.65	38.69	-38.8	-39.7	20.6	0.00e+00	0	44	0	1672478720	47	4118
2026-01-14 04:22:59.47	0.54	38.86	-38.8	-39.8	20.5	0.00e+00	0	44	0	1677721600	47	4165
2026-01-14 04:23:00.75	0.33	39.16	-39.0	-40.0	20.4	0.00e+00	0	44	0	1687158784	47	4244
2026-01-14 04:23:01.46	0.22	39.33	-38.9	-39.9	20.4	0.00e+00	0	44	0	1692401664	47	4211
2026-01-14 04:23:02.74	0.00	39.64	-38.9	-39.8	20.5	0.00e+00	0	43	0	1700790272	47	4175
2026-01-14 04:23:03.58	359.86	39.84	-38.7	-39.7	20.7	0.00e+00	0	44	0	1707081728	47	4100
2026-01-14 04:23:04.71	359.67	40.12	-38.8	-39.7	20.6	0.00e+00	0	44	0	1715470336	47	4124
2026-01-14 04:23:05.75	359.49	40.37	-38.6	-39.5	20.8	0.00e+00	0	44	0	1722810368	47	4040
2026-01-14 04:23:06.70	359.32	40.61	-38.6	-39.6	20.7	0.00e+00	0	44	0	1730150400	47	4057
2026-01-14 04:23:07.95	359.09	40.92	-38.5	-39.4	20.9	0.00e+00	0	44	0	1738539008	47	3992
2026-01-14 04:23:08.83	358.93	41.14	-38.4	-39.3	21.0	0.00e+00	0	44	0	1744830464	47	3934
2026-01-14 04:23:10.14	358.69	41.47	-38.3	-39.2	21.1	0.00e+00	0	44	0	1754267648	47	3903
2026-01-14 04:23:10.86	358.55	41.65	-38.2	-39.1	21.2	0.00e+00	0	44	0	1759510528	47	3838
2026-01-14 04:23:12.14	358.30	41.97	-38.3	-39.2	21.1	0.00e+00	0	44	0	1768947712	47	3882
2026-01-14 04:23:12.86	358.16	42.16	-38.4	-39.3	21.0	0.00e+00	0	44	0	1774190592	47	3927
2026-01-14 04:23:14.14	357.91	42.49	-38.3	-39.2	21.0	0.00e+00	0	44	0	1783627776	47	3911
2026-01-14 04:23:14.85	357.77	42.67	-38.5	-39.4	20.9	0.00e+00	0	44	0	1788870656	47	3990
2026-01-14 04:23:16.13	357.50	43.00	-38.5	-39.4	20.9	0.00e+00	0	44	0	1798307840	47	3986
2026-01-14 04:23:16.84	357.35	43.19	-38.7	-39.6	20.7	0.00e+00	0	44	0	1802502144	47	4073
2026-01-14 04:23:18.12	357.08	43.52	-38.8	-39.7	20.6	0.00e+00	0	44	0	1811939328	47	4131
2026-01-14 04:23:18.84	356.93	43.71	-38.9	-39.8	20.5	0.00e+00	0	44	0	1817182208	47	4172
2026-01-14 04:23:20.15	356.64	44.06	-39.0	-40.0	20.4	0.00e+00	0	44	0	1826619392	47	4266
2026-01-14 04:23:20.86	356.48	44.25	-38.7	-39.7	20.6	0.00e+00	0	44	0	1831862272	47	4124
2026-01-14 04:23:22.21	356.17	44.61	-38.9	-39.9	20.5	0.00e+00	0	44	0	1842348032	47	4202
2026-01-14 04:23:22.92	356.01	44.80	-38.9	-39.8	20.5	0.00e+00	0	44	0	1846542336	47	4180
2026-01-14 04:23:24.27	355.69	45.17	-38.6	-39.6	20.8	0.00e+00	0	44	0	1857028096	47	4059
2026-01-14 04:23:24.98	355.52	45.36	-38.6	-39.6	20.8	0.00e+00	0	44	0	1862270976	47	4058
2026-01-14 04:23:26.26	355.21	45.71	-38.6	-39.5	20.8	0.00e+00	0	44	0	1870659584	47	4033
2026-01-14 04:23:26.97	355.03	45.91	-38.8	-39.8	20.6	0.00e+00	0	44	0	1875902464	47	4148
2026-01-14 04:23:28.25	354.71	46.26	-39.1	-40.0	20.4	0.00e+00	0	44	0	1885339648	47	4280
2026-01-14 04:23:28.96	354.53	46.46	-39.2	-40.1	20.2	0.00e+00	0	44	0	1890582528	47	4339
2026-01-14 04:23:30.23	354.20	46.81	-39.5	-40.4	20.3	0.00e+00	0	44	0	1900019712	48	4220
2026-01-14 04:23:30.96	354.00	47.01	-39.4	-40.3	20.4	0.00e+00	0	44	0	1905262592	49	3936
2026-01-14 04:23:32.24	353.65	47.37	-39.8	-40.8	19.9	0.00e+00	0	44	0	1913651200	49	4167
2026-01-14 04:23:33.01	353.44	47.59	-39.9	-40.9	19.9	0.00e+00	0	44	0	1919942656	49	4198
2026-01-14 04:23:34.29	353.08	47.95	-39.8	-40.8	20.0	0.00e+00	0	44	0	1929379840	49	4146
2026-01-14 04:23:35.01	352.87	48.15	-39.8	-40.7	20.0	0.00e+00	0	44	0	1933574144	49	4138
2026-01-14 04:23:36.28	352.50	48.52	-39.9	-40.8	19.9	0.00e+00	0	44	0	1943011328	49	4191
2026-01-14 04:23:37.00	352.29	48.72	-39.8	-40.7	20.0	0.00e+00	0	43	0	1948254208	49	4138
2026-01-14 04:23:38.27	351.90	49.09	-39.8	-40.7	20.0	0.00e+00	0	44	0	1957691392	49	4134
2026-01-14 04:23:39.19	351.62	49.35	-39.8	-40.8	20.0	0.00e+00	0	44	0	1963982848	49	4172
2026-01-14 04:23:40.18	351.30	49.64	-39.9	-40.8	19.9	0.00e+00	0	44	0	1971322880	49	4181
2026-01-14 04:23:41.18	350.98	49.93	-39.8	-40.8	20.0	0.00e+00	0	44	0	1978662912	50	3933
2026-01-14 04:23:42.55	350.53	50.33	-40.2	-41.2	19.6	0.00e+00	0	44	0	1988100096	50	4132
2026-01-14 04:23:43.26	350.29	50.53	-40.0	-41.0	19.8	0.00e+00	0	44	0	1994391552	50	4005
2026-01-14 04:23:44.54	349.85	50.91	-39.9	-40.9	19.9	0.00e+00	0	44	0	2002780160	50	3963
2026-01-14 04:23:45.27	349.60	51.12	-39.9	-40.9	19.9	0.00e+00	0	44	0	2008023040	50	3964
2026-01-14 04:23:46.55	349.14	51.50	-40.2	-41.1	19.6	0.00e+00	0	44	0	2017460224	50	4092
2026-01-14 04:23:47.26	348.88	51.71	-40.1	-41.1	19.8	0.00e+00	0	44	0	2022703104	50	4052
2026-01-14 04:23:48.54	348.41	52.09	-40.5	-41.5	19.4	0.00e+00	0	44	0	2032140288	50	4262
2026-01-14 04:23:49.27	348.13	52.30	-40.5	-41.5	19.3	0.00e+00	0	44	0	2037383168	50	4275
2026-01-14 04:23:50.55	347.64	52.68	-40.4	-41.4	19.4	0.00e+00	0	44	0	2045771776	50	4224
2026-01-14 04:23:51.26	347.36	52.89	-40.2	-41.2	19.6	0.00e+00	0	44	0	2051014656	50	4121
2026-01-14 04:23:52.66	346.80	53.31	-40.2	-41.2	19.6	0.00e+00	0	44	0	2061500416	50	4133
2026-01-14 04:23:53.37	346.50	53.52	-40.0	-41.0	19.8	0.00e+00	0	44	0	2066743296	50	4012
2026-01-14 04:23:54.71	345.94	53.92	-39.9	-40.9	19.9	0.00e+00	0	44	0	2076180480	50	3969
2026-01-14 04:23:55.43	345.63	54.13	-39.9	-40.9	19.9	0.00e+00	0	44	0	2081423360	50	3982
2026-01-14 04:23:56.70	345.07	54.51	-40.8	-41.9	18.8	0.00e+00	0	44	0	2090860544	51	4207
2026-01-14 04:23:57.41	344.76	54.72	-40.2	-41.2	19.6	0.00e+00	0	44	0	2096103424	50	4111
2026-01-14 04:23:58.69	344.17	55.10	-40.5	-41.6	19.2	0.00e+00	0	44	0	2105540608	50	4299
2026-01-14 04:23:59.42	343.83	55.32	-40.6	-41.7	19.2	0.00e+00	0	44	0	2110783488	50	4361
2026-01-14 04:24:00.70	343.22	55.70	-40.1	-41.1	19.7	0.00e+00	0	44	0	2119172096	50	4090
2026-01-14 04:24:01.42	342.87	55.91	-39.7	-40.7	20.1	0.00e+00	0	44	0	2125463552	50	3888
2026-01-14 04:24:02.70	342.23	56.29	-39.3	-40.3	20.4	0.00e+00	0	44	0	2133852160	49	3928
2026-01-14 04:24:03.43	341.86	56.51	-39.4	-40.3	20.4	0.00e+00	0	44	0	2139095040	49	3942
2026-01-14 04:24:04.71	341.19	56.89	-39.5	-40.5	20.3	0.00e+00	0	44	0	2148532224	49	4021
2026-01-14 04:24:05.48	340.79	57.11	-39.8	-40.8	20.0	0.00e+00	0	44	0	2153775104	49	4148
2026-01-14 04:24:06.76	340.09	57.49	-39.8	-40.8	19.9	0.00e+00	0	44	0	2163212288	49	4169
2026-01-14 04:24:07.57	339.64	57.73	-40.1	-41.1	19.7	0.00e+00	0	44	0	2169503744	50	4091
2026-01-14 04:24:08.70	339.00	58.05	-40.3	-41.3	19.5	0.00e+00	0	44	0	2176843776	50	4177
2026-01-14 04:24:09.72	338.40	58.35	-40.2	-41.2	19.6	0.00e+00	0	44	0	2185232384	50	4123
2026-01-14 04:24:10.88	337.71	58.68	-40.1	-41.1	19.7	0.00e+00	0	44	0	2193620992	50	4059
2026-01-14 04:24:11.75	337.18	58.93	-40.3	-41.3	19.4	0.00e+00	0	44	0	2198863872	50	4188
2026-01-14 04:24:12.89	336.48	59.26	-39.8	-40.8	20.0	0.00e+00	0	44	0	2207252480	50	3924
2026-01-14 04:24:13.79	335.90	59.51	-39.8	-40.7	20.0	0.00e+00	0	44	0	2214592512	50	3906
2026-01-14 04:24:15.07	335.07	59.87	-39.6	-40.6	20.2	0.00e+00	0	44	0	2222981120	50	3840
2026-01-14 04:24:15.78	334.60	60.07	-39.8	-40.7	20.1	0.00e+00	0	44	0	2228224000	50	3895
2026-01-14 04:24:17.06	333.73	60.43	-39.6	-40.6	20.2	0.00e+00	0	44	0	2237661184	50	3836
2026-01-14 04:24:17.77	333.23	60.62	-39.9	-40.9	20.0	0.00e+00	0	44	0	2242904064	50	3977
2026-01-14 04:24:19.05	332.32	60.97	-40.0	-41.0	19.8	0.00e+00	0	44	0	2252341248	50	4028
2026-01-14 04:24:19.76	331.81	61.16	-40.0	-41.1	19.8	0.00e+00	0	44	0	2257584128	50	4053
2026-01-14 04:24:21.04	330.86	61.50	-39.7	-40.7	20.1	0.00e+00	0	44	0	2265972736	50	3894
2026-01-14 04:24:21.75	330.32	61.68	-39.9	-40.9	19.9	0.00e+00	0	44	0	2271215616	49	4211
2026-01-14 04:24:23.03	329.33	62.01	-39.6	-40.6	20.2	0.00e+00	0	44	0	2280652800	49	4080
2026-01-14 04:24:23.75	328.76	62.20	-39.5	-40.5	20.3	0.00e+00	0	44	0	2285895680	49	4013
2026-01-14 04:24:25.04	327.72	62.52	-39.9	-40.8	19.9	0.00e+00	0	44	0	2295332864	49	4185
2026-01-14 04:24:25.75	327.14	62.70	-39.8	-40.8	20.0	0.00e+00	0	44	0	2300575744	49	4168
2026-01-14 04:24:27.03	326.06	63.01	-39.5	-40.4	20.3	0.00e+00	0	44	0	2310012928	49	3990
2026-01-14 04:24:27.75	325.44	63.18	-39.1	-40.0	20.7	0.00e+00	0	44	0	2315255808	49	3802
2026-01-14 04:24:29.16	324.21	63.51	-38.7	-39.6	21.1	0.00e+00	0	44	0	2325741568	48	3831
2026-01-14 04:24:29.87	323.57	63.67	-38.5	-39.4	21.0	0.00e+00	0	44	0	2329935872	47	3974
2026-01-14 04:24:31.15	322.40	63.96	-38.8	-39.7	20.7	0.00e+00	0	44	0	2339373056	47	4121
2026-01-14 04:24:31.89	321.71	64.12	-38.9	-39.8	20.6	0.00e+00	0	44	0	2344615936	47	4167
2026-01-14 04:24:33.25	320.42	64.41	-39.3	-40.3	20.5	0.00e+00	0	44	0	2354053120	48	4146
2026-01-14 04:24:33.96	319.74	64.56	-39.3	-40.2	20.5	0.00e+00	0	44	0	2360344576	48	4145
2026-01-14 04:24:35.24	318.48	64.81	-39.0	-39.9	20.8	0.00e+00	0	44	0	2368733184	48	3997
2026-01-14 04:24:35.95	317.77	64.95	-38.9	-39.9	20.9	0.00e+00	0	44	0	2373976064	48	3962
2026-01-14 04:24:37.23	316.46	65.19	-38.8	-39.7	21.0	0.00e+00	0	44	0	2383413248	48	3871
2026-01-14 04:24:37.95	315.72	65.32	-38.6	-39.5	21.1	0.00e+00	0	44	0	2388656128	48	3798
2026-01-14 04:24:39.23	314.37	65.54	-38.4	-39.3	21.0	0.00e+00	0	44	0	2398093312	47	3951
2026-01-14 04:24:39.96	313.59	65.66	-38.7	-39.6	20.8	0.00e+00	0	44	0	2403336192	47	4065
2026-01-14 04:24:41.24	312.20	65.87	-38.7	-39.6	20.8	0.00e+00	0	44	0	2412773376	47	4076
2026-01-14 04:24:41.96	311.41	65.98	-38.8	-39.7	20.7	0.00e+00	0	44	0	2418016256	47	4114
2026-01-14 04:24:43.24	309.98	66.16	-38.9	-39.8	20.6	0.00e+00	0	44	0	2426404864	47	4177
2026-01-14 04:24:43.95	309.18	66.26	-38.7	-39.6	20.7	0.00e+00	0	44	0	2431647744	47	4091
2026-01-14 04:24:45.23	307.71	66.42	-38.3	-39.2	21.1	0.00e+00	0	44	0	2441084928	47	3911
2026-01-14 04:24:45.96	306.87	66.50	-38.5	-39.4	21.0	0.00e+00	0	44	0	2446327808	47	3971
2026-01-14 04:24:47.24	305.37	66.64	-38.5	-39.5	20.9	0.00e+00	0	44	0	2455764992	47	4014
2026-01-14 04:24:47.98	304.50	66.72	-38.8	-39.7	20.7	0.00e+00	0	44	0	2461007872	47	4130
2026-01-14 04:24:49.26	302.97	66.84	-38.7	-39.6	20.8	0.00e+00	0	44	0	2470445056	47	4097
2026-01-14 04:24:49.98	302.11	66.90	-38.7	-39.6	20.8	0.00e+00	0	44	0	2475687936	47	4095
2026-01-14 04:24:51.26	300.56	66.99	-38.4	-39.3	21.0	0.00e+00	0	44	0	2485125120	47	3958
2026-01-14 04:24:51.97	299.69	67.03	-38.3	-39.1	21.2	0.00e+00	0	44	0	2490368000	47	3863
2026-01-14 04:24:53.25	298.12	67.10	-38.5	-39.4	21.0	0.00e+00	0	44	0	2498756608	47	3971
2026-01-14 04:24:53.96	297.25	67.13	-38.6	-39.5	20.9	0.00e+00	0	44	0	2503999488	47	4028
2026-01-14 04:24:55.24	295.66	67.18	-38.7	-39.7	20.7	0.00e+00	0	44	0	2513436672	47	4112
2026-01-14 04:24:55.96	294.77	67.20	-39.0	-40.0	20.4	0.00e+00	0	44	0	2518679552	47	4258
2026-01-14 04:24:57.24	293.18	67.22	-38.6	-39.5	20.8	0.00e+00	0	44	0	2528116736	47	4032
2026-01-14 04:24:57.95	292.30	67.22	-38.5	-39.4	20.9	0.00e+00	0	44	0	2532311040	47	3996
2026-01-14 04:24:59.23	290.71	67.21	-38.1	-39.0	21.3	0.00e+00	0	44	0	2541748224	47	3820
2026-01-14 04:24:59.95	289.81	67.20	-38.3	-39.1	21.2	0.00e+00	0	44	0	2546991104	46	4097
2026-01-14 04:25:01.23	288.22	67.17	-38.5	-39.4	21.0	0.00e+00	0	44	0	2556428288	46	4212
2026-01-14 04:25:02.09	287.16	67.14	-38.6	-39.5	20.9	0.00e+00	0	44	0	2562719744	46	4282
2026-01-14 04:25:03.23	285.75	67.09	-38.6	-39.5	20.9	0.00e+00	0	44	0	2571108352	47	4028
2026-01-14 04:25:04.29	284.45	67.04	-38.8	-39.7	20.7	0.00e+00	0	44	0	2578448384	47	4124
2026-01-14 04:25:05.36	283.15	66.97	-38.6	-39.5	20.9	0.00e+00	0	44	0	2586836992	47	4033
2026-01-14 04:25:06.21	282.12	66.90	-38.3	-39.2	21.1	0.00e+00	0	44	0	2593128448	47	3897
2026-01-14 04:25:07.35	280.75	66.81	-38.4	-39.3	21.1	0.00e+00	0	44	0	2600468480	47	3937
2026-01-14 04:25:08.20	279.74	66.73	-38.5	-39.4	21.0	0.00e+00	0	44	0	2606759936	47	3977
2026-01-14 04:25:09.34	278.39	66.61	-38.7	-39.6	20.7	0.00e+00	0	44	0	2615148544	47	4094
2026-01-14 04:25:10.19	277.40	66.52	-38.6	-39.5	20.9	0.00e+00	0	44	0	2621440000	47	4017
2026-01-14 04:25:11.33	276.08	66.38	-38.6	-39.5	20.9	0.00e+00	0	44	0	2629828608	47	4016
2026-01-14 04:25:12.18	275.11	66.28	-38.8	-39.8	20.7	0.00e+00	0	44	0	2636120064	47	4157
2026-01-14 04:25:13.32	273.82	66.12	-39.1	-40.0	20.4	0.00e+00	0	44	0	2643460096	47	4268
2026-01-14 04:25:14.17	272.87	66.00	-39.0	-39.9	20.5	0.00e+00	0	44	0	2649751552	47	4219
2026-01-14 04:25:15.39	271.53	65.81	-38.9	-39.9	20.6	0.00e+00	0	44	0	2659188736	47	4194
2026-01-14 04:25:16.24	270.61	65.68	-38.6	-39.6	20.8	0.00e+00	0	44	0	2664431616	47	4056
2026-01-14 04:25:17.38	269.39	65.49	-38.7	-39.6	20.8	0.00e+00	0	44	0	2672820224	47	4086
2026-01-14 04:25:18.23	268.49	65.34	-38.6	-39.5	20.9	0.00e+00	0	44	0	2679111680	47	4035
2026-01-14 04:25:19.37	267.31	65.13	-38.4	-39.3	21.1	0.00e+00	0	44	0	2687500288	47	3949
2026-01-14 04:25:20.22	266.45	64.97	-38.5	-39.4	20.7	0.00e+00	0	44	0	2693791744	47	3969
2026-01-14 04:25:21.36	265.31	64.75	-38.4	-39.3	21.0	0.00e+00	0	44	0	2702180352	47	3950
2026-01-14 04:25:22.21	264.47	64.58	-38.3	-39.2	21.2	0.00e+00	0	44	0	2708471808	47	3882
2026-01-14 04:25:23.35	263.37	64.34	-38.1	-39.0	21.3	0.00e+00	0	44	0	2715811840	47	3803
2026-01-14 04:25:24.20	262.56	64.16	-38.4	-39.2	21.2	0.00e+00	0	44	0	2722103296	46	4141
2026-01-14 04:25:25.34	261.50	63.91	-39.0	-40.0	20.4	0.00e+00	0	44	0	2730491904	47	4256
2026-01-14 04:25:26.19	260.72	63.72	-39.5	-40.4	20.4	0.00e+00	0	44	0	2736783360	48	4235
2026-01-14 04:25:27.33	259.70	63.46	-39.5	-40.4	20.4	0.00e+00	0	44	0	2745171968	48	4235
2026-01-14 04:25:28.19	258.95	63.26	-39.2	-40.2	20.6	0.00e+00	0	44	0	2751463424	48	4100
2026-01-14 04:25:29.70	257.65	62.90	-38.9	-39.8	21.0	0.00e+00	0	44	0	2761949184	48	3918
2026-01-14 04:25:30.41	257.05	62.72	-39.1	-40.0	20.7	0.00e+00	0	44	0	2767192064	48	4022
2026-01-14 04:25:31.69	256.00	62.40	-39.6	-40.6	20.2	0.00e+00	0	44	0	2776629248	48	4313
2026-01-14 04:25:32.40	255.43	62.23	-39.9	-40.8	19.9	0.00e+00	0	44	0	2781872128	49	4189
2026-01-14 04:25:33.68	254.42	61.90	-40.0	-41.0	19.9	0.00e+00	0	44	0	2791309312	49	4243
2026-01-14 04:25:34.43	253.84	61.70	-40.0	-41.0	19.9	0.00e+00	0	44	0	2796552192	49	4249
2026-01-14 04:25:35.71	252.87	61.36	-39.5	-40.5	20.3	0.00e+00	0	44	0	2804940800	49	4027
2026-01-14 04:25:36.50	252.29	61.15	-39.4	-40.4	20.4	0.00e+00	0	44	0	2811232256	49	3964
2026-01-14 04:25:37.66	251.45	60.84	-39.5	-40.5	20.3	0.00e+00	0	44	0	2819620864	49	4008
2026-01-14 04:25:38.69	250.72	60.56	-39.8	-40.7	20.1	0.00e+00	0	44	0	2826960896	49	4131
2026-01-14 04:25:39.86	249.91	60.24	-40.2	-41.2	19.7	0.00e+00	0	44	0	2835349504	49	4361
2026-01-14 04:25:40.74	249.32	59.99	-40.1	-41.1	19.7	0.00e+00	0	44	0	2841640960	49	4325
2026-01-14 04:25:41.88	248.57	59.67	-39.7	-40.7	20.2	0.00e+00	0	44	0	2850029568	49	4104
2026-01-14 04:25:42.73	248.02	59.43	-39.5	-40.4	20.3	0.00e+00	0	44	0	2856321024	49	3991
2026-01-14 04:25:43.87	247.30	59.11	-39.6	-40.6	20.2	0.00e+00	0	44	0	2864709632	49	4079
2026-01-14 04:25:44.73	246.77	58.86	-39.9	-40.9	19.9	0.00e+00	0	44	0	2871001088	49	4221
2026-01-14 04:25:45.86	246.08	58.54	-40.3	-41.3	19.6	0.00e+00	0	44	0	2879389696	50	4159
2026-01-14 04:25:46.72	245.57	58.29	-40.3	-41.3	19.6	0.00e+00	0	44	0	2884632576	50	4165
2026-01-14 04:25:47.85	244.92	57.96	-40.2	-41.1	19.7	0.00e+00	0	44	0	2893021184	50	4096
2026-01-14 04:25:48.71	244.43	57.71	-40.2	-41.2	19.7	0.00e+00	0	44	0	2899312640	50	4108
2026-01-14 04:25:49.84	243.80	57.37	-39.8	-40.7	20.1	0.00e+00	0	44	0	2907701248	50	3906
2026-01-14 04:25:50.69	243.34	57.12	-39.7	-40.7	20.1	0.00e+00	0	44	0	2913992704	50	3891
2026-01-14 04:25:51.83	242.73	56.79	-39.5	-40.5	20.3	0.00e+00	0	44	0	2922381312	49	4020
2026-01-14 04:25:52.68	242.29	56.54	-39.6	-40.5	20.2	0.00e+00	0	44	0	2927624192	49	4039
2026-01-14 04:25:53.82	241.71	56.20	-39.8	-40.8	20.0	0.00e+00	0	44	0	2936012800	49	4174
2026-01-14 04:25:54.71	241.27	55.93	-40.0	-41.0	19.8	0.00e+00	0	44	0	2942304256	49	4273
2026-01-14 04:25:56.02	240.63	55.54	-40.0	-40.9	19.9	0.00e+00	0	44	0	2951741440	49	4240
2026-01-14 04:25:56.73	240.29	55.33	-39.8	-40.8	20.0	0.00e+00	0	44	0	2956984320	49	4177
2026-01-14 04:25:58.18	239.62	54.90	-40.0	-41.0	19.8	0.00e+00	0	44	0	2967470080	49	4274
2026-01-14 04:25:58.89	239.29	54.69	-40.1	-41.1	19.8	0.00e+00	0	44	0	2972712960	49	4294
2026-01-14 04:26:00.17	238.72	54.30	-40.5	-41.5	19.4	0.00e+00	0	44	0	2982150144	50	4261
2026-01-14 04:26:00.88	238.41	54.09	-40.5	-41.6	19.3	0.00e+00	0	44	0	2987393024	50	4304
2026-01-14 04:26:02.27	237.82	53.68	-40.2	-41.2	19.7	0.00e+00	0	44	0	2996830208	50	4109
2026-01-14 04:26:02.98	237.52	53.46	-39.9	-40.9	20.0	0.00e+00	0	44	0	3002073088	50	3973
2026-01-14 04:26:04.28	236.99	53.08	-39.8	-40.8	20.0	0.00e+00	0	44	0	3011510272	50	3942
2026-01-14 04:26:04.99	236.71	52.86	-39.9	-40.9	19.9	0.00e+00	0	44	0	3016753152	50	3976
2026-01-14 04:26:06.27	236.20	52.48	-40.2	-41.2	19.6	0.00e+00	0	44	0	3026190336	50	4138
2026-01-14 04:26:06.98	235.93	52.27	-40.4	-41.4	19.5	0.00e+00	0	44	0	3031433216	50	4206
2026-01-14 04:26:08.26	235.45	51.89	-40.3	-41.3	19.6	0.00e+00	0	44	0	3040870400	50	4149
2026-01-14 04:26:08.97	235.18	51.68	-40.2	-41.2	19.7	0.00e+00	0	44	0	3046113280	50	4123
2026-01-14 04:26:10.25	234.72	51.30	-39.9	-40.8	19.9	0.00e+00	0	44	0	3054501888	50	3953
2026-01-14 04:26:10.99	234.46	51.09	-40.0	-41.0	19.8	0.00e+00	0	44	0	3059744768	50	4038
2026-01-14 04:26:12.27	234.01	50.71	-40.2	-41.1	19.7	0.00e+00	0	44	0	3069181952	50	4097
2026-01-14 04:26:13.06	233.74	50.48	-40.2	-41.2	19.7	0.00e+00	0	44	0	3075473408	50	4101
2026-01-14 04:26:14.61	233.22	50.02	-40.2	-41.2	19.6	0.00e+00	0	44	0	3085959168	50	4120
2026-01-14 04:26:15.32	232.99	49.82	-40.3	-41.3	19.5	0.00e+00	0	44	0	3091202048	50	4160
2026-01-14 04:26:16.60	232.58	49.44	-40.5	-41.5	19.4	0.00e+00	0	44	0	3100639232	50	4262
2026-01-14 04:26:17.72	232.23	49.12	-40.0	-41.0	19.3	0.00e+00	0	44	0	3109027840	50	4025
2026-01-14 04:26:18.85	231.89	48.79	-40.1	-41.1	19.7	0.00e+00	0	44	0	3116367872	50	4077
2026-01-14 04:26:19.71	231.63	48.55	-40.1	-41.1	19.6	0.00e+00	0	44	0	3123707904	50	4072
2026-01-14 04:26:20.85	231.29	48.22	-39.9	-40.9	20.0	0.00e+00	0	44	0	3131047936	50	3970
2026-01-14 04:26:21.70	231.05	47.98	-39.7	-40.7	20.1	0.00e+00	0	44	0	3137339392	50	3888
2026-01-14 04:26:22.84	230.72	47.65	-39.7	-40.7	20.0	0.00e+00	0	44	0	3145728000	50	3882
2026-01-14 04:26:23.69	230.48	47.41	-39.6	-40.6	20.2	0.00e+00	0	44	0	3152019456	50	3833
2026-01-14 04:26:24.83	230.17	47.09	-39.4	-40.3	20.4	0.00e+00	0	44	0	3160408064	49	3940
2026-01-14 04:26:25.68	229.94	46.85	-39.5	-40.5	20.3	0.00e+00	0	44	0	3166699520	49	4006
2026-01-14 04:26:26.82	229.64	46.53	-39.1	-40.0	20.7	0.00e+00	0	44	0	3174039552	49	3820
2026-01-14 04:26:27.67	229.42	46.30	-39.0	-40.0	20.7	0.00e+00	0	44	0	3180331008	48	4006
2026-01-14 04:26:28.81	229.13	45.98	-38.9	-39.8	20.8	0.00e+00	0	44	0	3188719616	48	3946
2026-01-14 04:26:29.66	228.92	45.75	-38.9	-39.8	20.8	0.00e+00	0	44	0	3195011072	48	3958
2026-01-14 04:26:31.00	228.59	45.38	-39.2	-40.1	20.6	0.00e+00	0	44	0	3204448256	48	4072
2026-01-14 04:26:31.71	228.41	45.18	-39.2	-40.1	20.6	0.00e+00	0	44	0	3209691136	48	4066
2026-01-14 04:26:33.18	228.07	44.78	-39.1	-40.1	20.6	0.00e+00	0	44	0	3220176896	48	4056
2026-01-14 04:26:33.89	227.90	44.59	-39.1	-40.0	20.5	0.00e+00	0	44	0	3225419776	48	4050
2026-01-14 04:26:35.24	227.59	44.23	-39.0	-39.9	20.7	0.00e+00	0	44	0	3234856960	48	3996
2026-01-14 04:26:35.96	227.43	44.04	-38.9	-39.9	20.8	0.00e+00	0	44	0	3240099840	48	3966
2026-01-14 04:26:37.24	227.15	43.69	-38.7	-39.6	21.0	0.00e+00	0	44	0	3249537024	48	3856
2026-01-14 04:26:38.29	226.92	43.42	-38.7	-39.6	21.1	0.00e+00	0	44	0	3256877056	48	3848
2026-01-14 04:26:39.15	226.74	43.19	-38.6	-39.5	20.8	0.00e+00	0	44	0	3263168512	47	4044
2026-01-14 04:26:40.29	226.50	42.89	-38.8	-39.7	20.6	0.00e+00	0	44	0	3271557120	47	4116
2026-01-14 04:26:41.14	226.32	42.67	-38.9	-39.9	20.5	0.00e+00	0	44	0	3277848576	47	4209
2026-01-14 04:26:42.31	226.09	42.37	-39.1	-40.0	20.3	0.00e+00	0	44	0	3286237184	47	4273
2026-01-14 04:26:43.16	225.92	42.15	-39.1	-40.1	20.3	0.00e+00	0	44	0	3292528640	47	4318
2026-01-14 04:26:44.30	225.69	41.85	-39.1	-40.1	20.3	0.00e+00	0	44	0	3300917248	47	4300
2026-01-14 04:26:45.15	225.53	41.64	-39.0	-40.0	20.4	0.00e+00	0	44	0	3306160128	47	4245
2026-01-14 04:26:46.29	225.31	41.35	-39.1	-40.1	20.4	0.00e+00	0	44	0	3314548736	47	4295
2026-01-14 04:26:47.14	225.15	41.13	-38.8	-39.8	20.6	0.00e+00	0	44	0	3320840192	47	4166
2026-01-14 04:26:48.48	224.91	40.80	-38.8	-39.7	20.6	0.00e+00	0	44	0	3331325952	47	4144
2026-01-14 04:26:49.20	224.78	40.62	-38.8	-39.7	20.6	0.00e+00	0	44	0	3335520256	47	4130
2026-01-14 04:26:50.48	224.55	40.30	-38.8	-39.7	20.6	0.00e+00	0	44	0	3344957440	47	4145
2026-01-14 04:26:51.19	224.42	40.12	-38.8	-39.8	20.6	0.00e+00	0	44	0	3350200320	47	4162
2026-01-14 04:26:52.75	224.15	39.74	-39.1	-40.1	20.3	0.00e+00	0	44	0	3361734656	47	4296
2026-01-14 04:26:53.38	224.05	39.59	-39.1	-40.1	20.3	0.00e+00	0	44	0	3365928960	47	4295
2026-01-14 04:26:54.88	223.80	39.23	-39.1	-40.0	20.3	0.00e+00	0	44	0	3377463296	47	4291
2026-01-14 04:26:55.60	223.68	39.05	-39.0	-40.0	20.4	0.00e+00	0	44	0	3381657600	47	4268
2026-01-14 04:26:56.88	223.47	38.75	-39.0	-39.9	20.4	0.00e+00	0	44	0	3391094784	47	4240
2026-01-14 04:26:57.59	223.36	38.58	-39.0	-39.9	20.5	0.00e+00	0	44	0	3396337664	47	4239
2026-01-14 04:26:58.87	223.16	38.28	-38.8	-39.8	20.3	0.00e+00	0	44	0	3405774848	47	4152
2026-01-14 04:26:59.58	223.05	38.11	-38.6	-39.5	20.6	0.00e+00	0	44	0	3411017728	47	4030
2026-01-14 04:27:00.86	222.85	37.81	-38.5	-39.5	20.8	0.00e+00	0	44	0	3420454912	47	4005
2026-01-14 04:27:01.57	222.75	37.65	-38.7	-39.6	20.7	0.00e+00	0	44	0	3425697792	47	4081
2026-01-14 04:27:02.85	222.56	37.35	-38.5	-39.5	20.9	0.00e+00	0	44	0	3434086400	47	4011
2026-01-14 04:27:03.56	222.45	37.19	-38.6	-39.6	20.8	0.00e+00	0	44	0	3439329280	47	4052
2026-01-14 04:27:04.84	222.27	36.89	-38.6	-39.6	20.8	0.00e+00	0	44	0	3448766464	47	4055
2026-01-14 04:27:05.58	222.16	36.73	-38.6	-39.5	20.8	0.00e+00	0	44	0	3454009344	47	4037
2026-01-14 04:27:06.87	221.98	36.44	-38.6	-39.5	20.8	0.00e+00	0	44	0	3463446528	47	4028
2026-01-14 04:27:07.58	221.88	36.28	-38.5	-39.4	20.8	0.00e+00	0	44	0	3468689408	47	4003
2026-01-14 04:27:08.86	221.71	35.99	-38.5	-39.4	20.9	0.00e+00	0	44	0	3478126592	47	3970
2026-01-14 04:27:09.57	221.61	35.84	-38.4	-39.3	20.9	0.00e+00	0	44	0	3483369472	47	3944
2026-01-14 04:27:10.85	221.44	35.55	-38.4	-39.4	20.9	0.00e+00	0	44	0	3491758080	47	3964
2026-01-14 04:27:11.59	221.35	35.39	-38.4	-39.3	21.0	0.00e+00	0	44	0	3498049536	47	3947
2026-01-14 04:27:12.87	221.18	35.11	-38.5	-39.4	20.9	0.00e+00	0	44	0	3506438144	47	3980
2026-01-14 04:27:13.58	221.09	34.96	-38.6	-39.5	20.8	0.00e+00	0	44	0	3511681024	47	4025
2026-01-14 04:27:14.86	220.93	34.69	-38.6	-39.6	20.8	0.00e+00	0	44	0	3521118208	47	4066
2026-01-14 04:27:15.57	220.84	34.53	-38.6	-39.5	20.7	0.00e+00	0	44	0	3526361088	47	4046
2026-01-14 04:27:16.85	220.69	34.26	-38.5	-39.5	20.8	0.00e+00	0	44	0	3535798272	47	4014
2026-01-14 04:27:17.57	220.60	34.11	-38.5	-39.4	20.9	0.00e+00	0	44	0	3541041152	47	3977
2026-01-14 04:27:18.85	220.45	33.84	-38.4	-39.3	21.0	0.00e+00	0	44	0	3549429760	47	3921
2026-01-14 04:27:19.57	220.37	33.69	-38.4	-39.3	20.8	0.00e+00	0	44	0	3555721216	47	3939
2026-01-14 04:27:20.85	220.22	33.43	-38.2	-39.1	21.2	0.00e+00	0	44	0	3564109824	47	3835
2026-01-14 04:27:21.56	220.14	33.28	-38.2	-39.1	21.2	0.00e+00	0	44	0	3569352704	47	3848
2026-01-14 04:27:22.84	219.99	33.02	-38.3	-39.2	21.0	0.00e+00	0	44	0	3578789888	47	3898
2026-01-14 04:27:23.58	219.91	32.87	-38.4	-39.3	20.8	0.00e+00	0	44	0	3584032768	47	3949
2026-01-14 04:27:24.85	219.77	32.61	-38.5	-39.5	20.8	0.00e+00	0	44	0	3593469952	47	4010
2026-01-14 04:27:25.56	219.69	32.47	-38.6	-39.6	20.7	0.00e+00	0	44	0	3598712832	47	4056
2026-01-14 04:27:26.84	219.55	32.22	-38.7	-39.7	20.7	0.00e+00	0	44	0	3608150016	47	4107
2026-01-14 04:27:27.56	219.48	32.07	-38.7	-39.7	20.7	0.00e+00	0	44	0	3612344320	47	4099
2026-01-14 04:27:28.84	219.34	31.82	-38.8	-39.7	20.5	0.00e+00	0	44	0	3621781504	47	4130
2026-01-14 04:27:29.56	219.27	31.68	-38.7	-39.6	20.7	0.00e+00	0	44	0	3627024384	47	4094
2026-01-14 04:27:30.84	219.14	31.43	-38.6	-39.5	20.8	0.00e+00	0	44	0	3636461568	47	4039
2026-01-14 04:27:31.57	219.07	31.29	-38.6	-39.5	20.8	0.00e+00	0	44	0	3641704448	47	4041
2026-01-14 04:27:32.85	218.94	31.04	-38.5	-39.4	20.9	0.00e+00	0	44	0	3651141632	47	3985
2026-01-14 04:27:33.57	218.87	30.91	-38.5	-39.4	20.9	0.00e+00	0	44	0	3656384512	47	3973
2026-01-14 04:27:34.85	218.74	30.66	-38.4	-39.3	20.9	0.00e+00	0	44	0	3665821696	47	3949
2026-01-14 04:27:35.56	218.67	30.53	-38.4	-39.3	21.0	0.00e+00	0	44	0	3671064576	47	3932
2026-01-14 04:27:36.84	218.55	30.29	-38.4	-39.3	20.9	0.00e+00	0	44	0	3679453184	47	3950
2026-01-14 04:27:37.55	218.49	30.16	-38.5	-39.4	20.9	0.00e+00	0	44	0	3684696064	47	3977
2026-01-14 04:27:38.83	218.37	29.92	-38.5	-39.4	20.8	0.00e+00	0	44	0	3694133248	47	3986
2026-01-14 04:27:39.55	218.30	29.79	-38.5	-39.4	20.9	0.00e+00	0	44	0	3699376128	47	3980
2026-01-14 04:27:40.83	218.19	29.55	-38.5	-39.4	20.8	0.00e+00	0	44	0	3708813312	47	3976
2026-01-14 04:27:41.55	218.12	29.42	-38.4	-39.3	20.9	0.00e+00	0	44	0	3714056192	47	3937
2026-01-14 04:27:42.83	218.01	29.19	-38.4	-39.3	20.9	0.00e+00	0	44	0	3723493376	47	3948
2026-01-14 04:27:43.54	217.95	29.06	-38.4	-39.4	20.9	0.00e+00	0	44	0	3727687680	47	3965
2026-01-14 04:27:44.82	217.83	28.83	-38.5	-39.4	20.8	0.00e+00	0	44	0	3737124864	47	3996
2026-01-14 04:27:45.53	217.77	28.70	-38.5	-39.4	20.8	0.00e+00	0	44	0	3742367744	47	3991
2026-01-14 04:27:46.81	217.67	28.48	-38.5	-39.5	20.8	0.00e+00	0	44	0	3751804928	47	4010
2026-01-14 04:27:47.52	217.61	28.35	-38.5	-39.5	20.8	0.00e+00	0	44	0	3757047808	47	4007
2026-01-14 04:27:48.80	217.50	28.13	-38.6	-39.5	20.7	0.00e+00	0	44	0	3766484992	47	4022
2026-01-14 04:27:49.51	217.44	28.01	-38.6	-39.5	20.8	0.00e+00	0	44	0	3771727872	47	4017
2026-01-14 04:27:50.79	217.34	27.79	-38.5	-39.4	20.8	0.00e+00	0	44	0	3780116480	47	3979
2026-01-14 04:27:51.52	217.28	27.66	-38.6	-39.5	20.8	0.00e+00	0	44	0	3786407936	47	4029
2026-01-14 04:27:52.80	217.18	27.44	-38.7	-39.6	20.6	0.00e+00	0	44	0	3794796544	47	4090
2026-01-14 04:27:53.52	217.12	27.32	-38.7	-39.6	20.7	0.00e+00	0	44	0	3800039424	47	4066
2026-01-14 04:27:54.80	217.02	27.10	-38.5	-39.4	20.8	0.00e+00	0	44	0	3809476608	47	3998
2026-01-14 04:27:55.54	216.97	26.98	-38.6	-39.5	20.8	0.00e+00	0	44	0	3814719488	47	4013
2026-01-14 04:27:56.82	216.87	26.77	-38.6	-39.5	20.7	0.00e+00	0	44	0	3824156672	47	4036
2026-01-14 04:27:57.55	216.82	26.64	-38.6	-39.5	20.7	0.00e+00	0	44	0	3829399552	47	4044
2026-01-14 04:27:58.83	216.72	26.43	-38.6	-39.5	20.7	0.00e+00	0	44	0	3838836736	47	4039
2026-01-14 04:27:59.55	216.67	26.32	-38.6	-39.5	20.7	0.00e+00	0	44	0	3844079616	47	4042
2026-01-14 04:28:00.83	216.58	26.11	-38.7	-39.6	20.6	0.00e+00	0	44	0	3853516800	47	4094
2026-01-14 04:28:01.56	216.52	25.99	-38.7	-39.6	20.6	0.00e+00	0	44	0	3858759680	47	4097
2026-01-14 04:28:02.84	216.43	25.78	-38.7	-39.6	20.6	0.00e+00	0	44	0	3867148288	47	4084
2026-01-14 04:28:03.56	216.38	25.67	-38.7	-39.7	20.6	0.00e+00	0	44	0	3873439744	47	4100
2026-01-14 04:28:04.84	216.29	25.46	-38.7	-39.7	20.6	0.00e+00	0	44	0	3881828352	47	4102
2026-01-14 04:28:05.55	216.24	25.35	-38.7	-39.7	20.6	0.00e+00	0	44	0	3887071232	47	4105
2026-01-14 04:28:06.83	216.16	25.15	-38.8	-39.8	20.5	0.00e+00	0	44	0	3896508416	47	4167
2026-01-14 04:28:07.54	216.11	25.04	-38.9	-39.8	20.4	0.00e+00	0	44	0	3901751296	47	4185
2026-01-14 04:28:08.82	216.02	24.84	-38.9	-39.8	20.4	0.00e+00	0	44	0	3911188480	47	4172
2026-01-14 04:28:09.56	215.98	24.72	-38.9	-39.8	20.4	0.00e+00	0	44	0	3916431360	47	4172
2026-01-14 04:28:10.84	215.89	24.53	-38.9	-39.9	20.4	0.00e+00	0	44	0	3924819968	47	4197
2026-01-14 04:28:11.56	215.84	24.42	-38.9	-39.9	20.3	0.00e+00	0	44	0	3931111424	47	4219
2026-01-14 04:28:12.84	215.76	24.22	-38.9	-39.9	20.3	0.00e+00	0	44	0	3939500032	47	4207
2026-01-14 04:28:13.55	215.72	24.11	-39.0	-40.0	20.3	0.00e+00	0	44	0	3944742912	47	4244
2026-01-14 04:28:14.83	215.64	23.92	-39.0	-39.9	20.3	0.00e+00	0	44	0	3954180096	47	4237
2026-01-14 04:28:15.59	215.59	23.81	-39.0	-39.9	20.3	0.00e+00	0	44	0	3959422976	47	4238
2026-01-14 04:28:17.17	215.49	23.57	-39.1	-40.0	20.2	0.00e+00	0	44	0	3970957312	47	4289
2026-01-14 04:28:17.80	215.46	23.48	-39.0	-40.0	20.2	0.00e+00	0	44	0	3975151616	47	4270
2026-01-14 04:28:19.32	215.36	23.26	-39.1	-40.1	20.1	0.00e+00	0	44	0	3986685952	47	4324
2026-01-14 04:28:20.20	215.31	23.13	-39.1	-40.1	20.1	0.00e+00	0	44	0	3992977408	47	4315
2026-01-14 04:28:21.34	215.24	22.96	-39.1	-40.0	20.2	0.00e+00	0	44	0	4001366016	47	4280
2026-01-14 04:28:22.19	215.20	22.84	-39.0	-40.0	20.1	0.00e+00	0	44	0	4007657472	47	4247
2026-01-14 04:28:23.32	215.13	22.68	-39.1	-40.1	20.1	0.00e+00	0	44	0	4014997504	47	4303
2026-01-14 04:28:24.18	215.08	22.55	-39.0	-40.0	20.2	0.00e+00	0	44	0	4021288960	47	4269
2026-01-14 04:28:25.32	215.02	22.39	-39.0	-40.0	20.3	0.00e+00	0	44	0	4029677568	47	4243
2026-01-14 04:28:26.17	214.97	22.27	-39.0	-39.9	20.3	0.00e+00	0	44	0	4035969024	47	4227
2026-01-14 04:28:27.31	214.91	22.11	-39.0	-40.0	20.2	0.00e+00	0	44	0	4044357632	47	4257
2026-01-14 04:28:28.16	214.86	21.99	-39.1	-40.0	20.2	0.00e+00	0	44	0	4050649088	47	4274
2026-01-14 04:28:29.29	214.80	21.83	-39.1	-40.0	20.2	0.00e+00	0	44	0	4057989120	47	4280
2026-01-14 04:28:30.15	214.75	21.71	-39.0	-39.9	20.3	0.00e+00	0	44	0	4064280576	47	4229
2026-01-14 04:28:31.28	214.69	21.56	-39.0	-39.9	20.3	0.00e+00	0	44	0	4072669184	47	4234
2026-01-14 04:28:32.14	214.64	21.44	-39.0	-40.0	20.2	0.00e+00	0	44	0	4078960640	47	4252
2026-01-14 04:28:33.28	214.58	21.29	-39.1	-40.1	20.1	0.00e+00	0	44	0	4087349248	47	4300
2026-01-14 04:28:34.13	214.54	21.17	-39.2	-40.2	20.0	0.00e+00	0	44	0	4093640704	47	4341
2026-01-14 04:28:35.27	214.48	21.02	-39.1	-40.1	20.1	0.00e+00	0	44	0	4102029312	47	4326
2026-01-14 04:28:36.12	214.44	20.90	-39.2	-40.1	20.1	0.00e+00	0	44	0	4108320768	47	4335
2026-01-14 04:28:37.58	214.36	20.71	-39.2	-40.2	20.0	0.00e+00	0	44	0	4118806528	47	4355
2026-01-14 04:28:38.29	214.33	20.61	-39.2	-40.3	19.9	0.00e+00	0	44	0	4123000832	47	4392
2026-01-14 04:28:39.79	214.25	20.42	-39.4	-40.3	20.1	0.00e+00	0	44	0	4134535168	48	4192
2026-01-14 04:28:40.50	214.22	20.32	-39.4	-40.4	20.1	0.00e+00	0	44	0	4139778048	48	4214
2026-01-14 04:28:41.78	214.16	20.15	-39.5	-40.5	20.0	0.00e+00	0	44	0	4148166656	48	4278
2026-01-14 04:28:42.52	214.12	20.06	-39.5	-40.5	20.0	0.00e+00	0	44	0	4154458112	48	4280
2026-01-14 04:28:43.80	214.06	19.89	-39.6	-40.6	20.0	0.00e+00	0	44	0	4162846720	48	4296
2026-01-14 04:28:44.53	214.03	19.80	-39.6	-40.6	19.9	0.00e+00	0	44	0	4168089600	48	4321
2026-01-14 04:28:45.81	213.97	19.64	-39.7	-40.7	19.8	0.00e+00	0	44	0	4177526784	48	4357
2026-01-14 04:28:46.55	213.93	19.54	-39.7	-40.7	19.8	0.00e+00	0	44	0	4182769664	48	4381
2026-01-14 04:28:47.82	213.87	19.38	-39.8	-40.8	19.7	0.00e+00	0	44	0	4192206848	48	4404
2026-01-14 04:28:48.54	213.84	19.29	-39.8	-40.8	19.7	0.00e+00	0	44	0	4197449728	48	4398
2026-01-14 04:28:49.81	213.78	19.13	-39.9	-40.9	19.6	0.00e+00	0	44	0	4206886912	49	4206
2026-01-14 04:28:50.52	213.75	19.04	-40.0	-41.0	19.5	0.00e+00	0	44	0	4212129792	49	4257
2026-01-14 04:28:51.80	213.69	18.88	-39.9	-40.9	19.6	0.00e+00	0	44	0	4220518400	49	4206
2026-01-14 04:28:52.59	213.66	18.79	-39.9	-40.9	19.6	0.00e+00	0	44	0	4226809856	49	4229
2026-01-14 04:28:54.09	213.59	18.60	-39.9	-40.9	19.5	0.00e+00	0	44	0	4237295616	49	4223
2026-01-14 04:28:54.80	213.56	18.51	-40.0	-41.0	19.6	0.00e+00	0	44	0	4242538496	49	4251
2026-01-14 04:28:56.23	213.50	18.34	-40.0	-41.0	19.5	0.00e+00	0	44	0	4253024256	49	4286
2026-01-14 04:28:56.94	213.47	18.25	-40.0	-41.0	19.5	0.00e+00	0	44	0	4258267136	49	4273
2026-01-14 04:28:58.22	213.42	18.10	-40.0	-41.0	19.5	0.00e+00	0	44	0	4267704320	49	4271
2026-01-14 04:28:58.93	213.39	18.01	-40.0	-41.1	19.4	0.00e+00	0	44	0	4272947200	49	4295
2026-01-14 04:29:00.21	213.33	17.86	-40.1	-41.2	19.3	0.00e+00	0	44	0	4281335808	49	4342
2026-01-14 04:29:00.92	213.30	17.78	-40.1	-41.1	19.4	0.00e+00	0	44	0	4286578688	49	4311
2026-01-14 04:29:02.20	213.25	17.63	-40.1	-41.1	19.4	0.00e+00	0	44	0	4296015872	49	4336
2026-01-14 04:29:02.93	213.22	17.54	-40.2	-41.2	19.3	0.00e+00	0	44	0	4301258752	49	4378
2026-01-14 04:29:04.21	213.17	17.39	-40.2	-41.2	19.3	0.00e+00	0	44	0	4310695936	49	4355
2026-01-14 04:29:04.93	213.14	17.31	-40.2	-41.2	19.3	0.00e+00	0	44	0	4315938816	49	4368
2026-01-14 04:29:06.21	213.09	17.16	-40.2	-41.2	19.3	0.00e+00	0	44	0	4325376000	49	4375
2026-01-14 04:29:07.02	213.06	17.06	-40.2	-41.2	19.2	0.00e+00	0	44	0	4330618880	49	4384
2026-01-14 04:29:08.16	213.02	16.93	-40.3	-41.3	19.2	0.00e+00	0	44	0	4339007488	49	4434
2026-01-14 04:29:09.20	212.98	16.81	-40.4	-41.4	19.1	0.00e+00	0	44	0	4346347520	50	4232
2026-01-14 04:29:10.36	212.93	16.68	-40.4	-41.4	19.0	0.00e+00	0	44	0	4354736128	50	4222
2026-01-14 04:29:11.25	212.90	16.58	-40.4	-41.4	19.1	0.00e+00	0	44	0	4361027584	50	4239
2026-01-14 04:29:12.39	212.86	16.45	-40.4	-41.5	19.0	0.00e+00	0	44	0	4369416192	50	4244
2026-01-14 04:29:13.24	212.82	16.36	-40.4	-41.5	19.0	0.00e+00	0	44	0	4375707648	50	4243
2026-01-14 04:29:14.60	212.77	16.21	-40.4	-41.5	18.9	0.00e+00	0	44	0	4385144832	50	4273
2026-01-14 04:29:15.31	212.75	16.13	-40.5	-41.6	18.9	0.00e+00	0	44	0	4390387712	50	4300
2026-01-14 04:29:16.59	212.70	15.98	-40.5	-41.5	18.9	0.00e+00	0	44	0	4399824896	50	4289
2026-01-14 04:29:17.30	212.68	15.91	-40.5	-41.5	19.0	0.00e+00	0	44	0	4405067776	50	4289
2026-01-14 04:29:18.58	212.63	15.77	-40.5	-41.6	18.9	0.00e+00	0	44	0	4414504960	50	4292
2026-01-14 04:29:19.30	212.61	15.69	-40.6	-41.7	18.9	0.00e+00	0	44	0	4419747840	50	4345
2026-01-14 04:29:20.58	212.56	15.55	-40.5	-41.6	18.9	0.00e+00	0	44	0	4429185024	50	4317
2026-01-14 04:29:21.29	212.54	15.47	-40.6	-41.7	18.8	0.00e+00	0	44	0	4433379328	50	4341
2026-01-14 04:29:22.57	212.49	15.33	-40.6	-41.7	18.8	0.00e+00	0	44	0	4442816512	50	4348
2026-01-14 04:29:23.30	212.47	15.25	-40.5	-41.6	18.9	0.00e+00	0	44	0	4448059392	50	4323
2026-01-14 04:29:24.58	212.42	15.12	-40.6	-41.7	18.7	0.00e+00	0	44	0	4457496576	50	4380
2026-01-14 04:29:25.29	212.40	15.04	-40.6	-41.7	18.8	0.00e+00	0	44	0	4462739456	50	4364
2026-01-14 04:29:26.56	212.36	14.91	-40.6	-41.7	18.8	0.00e+00	0	44	0	4472176640	50	4371
2026-01-14 04:29:27.28	212.33	14.83	-40.6	-41.7	18.8	0.00e+00	0	44	0	4477419520	50	4369
2026-01-14 04:29:28.63	212.29	14.69	-40.6	-41.7	18.8	0.00e+00	0	44	0	4486856704	50	4364
2026-01-14 04:29:29.34	212.26	14.62	-40.6	-41.7	18.8	0.00e+00	0	44	0	4492099584	50	4341
2026-01-14 04:29:30.68	212.22	14.48	-40.6	-41.7	18.8	0.00e+00	0	44	0	4501536768	50	4343
2026-01-14 04:29:31.39	212.20	14.40	-40.6	-41.7	18.8	0.00e+00	0	44	0	4506779648	50	4342
2026-01-14 04:29:32.78	212.15	14.26	-40.6	-41.7	18.7	0.00e+00	0	44	0	4517265408	50	4359
2026-01-14 04:29:33.73	212.12	14.16	-40.6	-41.7	18.7	0.00e+00	0	44	0	4523556864	50	4377
2026-01-14 04:29:34.73	212.09	14.06	-40.6	-41.7	18.8	0.00e+00	0	44	0	4530896896	50	4352
2026-01-14 04:29:35.72	212.06	13.96	-40.6	-41.7	18.7	0.00e+00	0	44	0	4538236928	50	4346
2026-01-14 04:29:36.72	212.03	13.86	-40.7	-41.8	18.6	0.00e+00	0	44	0	4545576960	50	4412
2026-01-14 04:29:37.71	212.00	13.76	-40.7	-41.8	18.6	0.00e+00	0	44	0	4552916992	50	4392
2026-01-14 04:29:38.71	211.97	13.66	-40.7	-41.8	18.6	0.00e+00	0	44	0	4560257024	50	4415
2026-01-14 04:29:39.70	211.94	13.56	-40.7	-41.8	18.6	0.00e+00	0	44	0	4566548480	51	4171
2026-01-14 04:29:40.76	211.91	13.45	-40.6	-41.7	18.7	0.00e+00	0	44	0	4574937088	51	4127
2026-01-14 04:29:41.66	211.88	13.36	-40.6	-41.7	18.7	0.00e+00	0	44	0	4581228544	51	4124
2026-01-14 04:29:42.75	211.85	13.25	-40.8	-41.8	18.6	0.00e+00	0	44	0	4588568576	51	4189
2026-01-14 04:29:43.60	211.82	13.17	-40.8	-41.8	18.6	0.00e+00	0	44	0	4594860032	51	4188
2026-01-14 04:29:44.74	211.79	13.06	-40.8	-41.8	18.5	0.00e+00	0	44	0	4603248640	51	4193
2026-01-14 04:29:45.59	211.76	12.97	-40.8	-41.9	18.5	0.00e+00	0	44	0	4609540096	51	4197
2026-01-14 04:29:46.73	211.73	12.86	-40.9	-41.9	18.5	0.00e+00	0	44	0	4617928704	51	4229
2026-01-14 04:29:47.80	211.70	12.76	-40.9	-42.0	18.4	0.00e+00	0	44	0	4625268736	51	4277
2026-01-14 04:29:48.83	211.67	12.66	-41.0	-42.1	18.3	0.00e+00	0	44	0	4632608768	51	4306
2026-01-14 04:29:50.00	211.64	12.55	-41.0	-42.1	18.3	0.00e+00	0	44	0	4640997376	51	4323
2026-01-14 04:29:50.85	211.61	12.46	-41.1	-42.2	18.2	0.00e+00	0	44	0	4647288832	51	4377
2026-01-14 04:29:51.99	211.58	12.36	-41.1	-42.2	18.1	0.00e+00	0	44	0	4655677440	51	4384
2026-01-14 04:29:52.84	211.56	12.27	-41.1	-42.2	18.2	0.00e+00	0	44	0	4661968896	51	4344
2026-01-14 04:29:53.98	211.53	12.17	-41.2	-42.3	18.1	0.00e+00	0	44	0	4670357504	51	4429
2026-01-14 04:29:54.83	211.50	12.09	-41.2	-42.3	18.0	0.00e+00	0	44	0	4675600384	52	4157
2026-01-14 04:29:55.97	211.47	11.98	-41.2	-42.3	18.0	0.00e+00	0	44	0	4683988992	52	4160
2026-01-14 04:29:56.82	211.45	11.90	-41.3	-42.4	17.9	0.00e+00	0	44	0	4690280448	52	4215
2026-01-14 04:29:57.96	211.42	11.79	-41.3	-42.5	17.8	0.00e+00	0	44	0	4698669056	52	4255
2026-01-14 04:29:58.81	211.40	11.71	-41.3	-42.5	17.8	0.00e+00	0	44	0	4704960512	52	4261
2026-01-14 04:29:59.94	211.37	11.61	-41.4	-42.5	17.8	0.00e+00	0	44	0	4712300544	52	4291
2026-01-14 04:30:00.80	211.34	11.53	-41.4	-42.6	17.8	0.00e+00	0	44	0	4718592000	52	4292
2026-01-14 04:30:02.03	211.31	11.42	-41.4	-42.6	17.7	0.00e+00	0	44	0	4728029184	52	4315
2026-01-14 04:30:02.88	211.29	11.34	-41.6	-42.7	17.6	0.00e+00	0	44	0	4734320640	52	4383
2026-01-14 04:30:04.09	211.26	11.23	-41.6	-42.7	17.6	0.00e+00	0	44	0	4742709248	52	4390
2026-01-14 04:30:04.94	211.24	11.15	-41.5	-42.7	17.6	0.00e+00	0	44	0	4749000704	52	4363
2026-01-14 04:30:06.08	211.21	11.05	-41.6	-42.7	17.6	0.00e+00	0	44	0	4757389312	52	4391
2026-01-14 04:30:06.93	211.19	10.97	-41.6	-42.8	17.5	0.00e+00	0	44	0	4763680768	52	4420
2026-01-14 04:30:08.07	211.16	10.87	-41.6	-42.8	17.4	0.00e+00	0	44	0	4772069376	52	4438
