passes_logs/2026/01/14/T1/T1__20260114_091508_NOAA_21_JPSS-2_rec.log

#Pass ID: 20260114_091508_NOAA 21 (JPSS-2)
#Satellite: NOAA 21 (JPSS-2)
#Configuration: NOAA 21
#almurnet v.1.7.20251203
#Start time: 2026-01-14 09:15:08

#Version: 2.0.20230620
#Station: T1
#Location: 37.570604 lon 55.790049 lat
#TLE: 1 54234U 22150A   26013.18009385  .00000056  00000+0  47387-4 0  9997
#TLE: 2 54234  98.7496 314.1019 0000691 303.8246  56.2864 14.19534466164559

#Time	Az	El	Level	Level2	SNR	BER	BlckErr	Temp	State	Recorded	gain1	gain2
2026-01-14 09:15:08.05	139.17	4.99	-51.9	-64.9	3.8	1.49e+00	0	40	0	0	75	16119
2026-01-14 09:15:09.04	139.14	5.06	-51.9	-64.8	3.8	1.49e+00	0	40	104	0	75	15937
2026-01-14 09:15:10.04	139.11	5.13	-51.9	-64.8	3.8	1.49e+00	0	40	104	0	75	15799
2026-01-14 09:15:11.03	139.07	5.20	-51.9	-64.7	3.8	1.49e+00	0	40	104	0	75	15727
2026-01-14 09:15:12.03	139.04	5.27	-51.9	-64.7	3.8	1.49e+00	0	41	104	0	75	15690
2026-01-14 09:15:13.02	139.00	5.34	-51.9	-64.6	3.8	1.49e+00	0	41	104	0	75	15460
2026-01-14 09:15:14.03	138.96	5.41	-51.9	-64.5	3.8	1.49e+00	0	41	104	0	75	15313
2026-01-14 09:15:15.02	138.93	5.48	-51.8	-64.3	3.8	1.49e+00	0	41	104	0	75	15003
2026-01-14 09:15:16.02	138.89	5.55	-51.8	-64.2	3.8	1.49e+00	0	41	104	0	75	14710
2026-01-14 09:15:17.02	138.86	5.62	-51.8	-63.9	3.8	1.49e+00	0	41	104	0	75	14241
2026-01-14 09:15:18.01	138.82	5.69	-51.8	-63.6	3.8	1.49e+00	0	41	104	0	75	13813
2026-01-14 09:15:19.01	138.79	5.77	-51.8	-63.4	3.8	1.49e+00	0	41	104	0	75	13466
2026-01-14 09:15:20.01	138.75	5.84	-51.7	-63.2	3.8	1.49e+00	0	41	104	0	75	13179
2026-01-14 09:15:21.00	138.71	5.91	-51.7	-62.7	3.9	1.49e+00	0	41	104	0	75	12495
2026-01-14 09:15:22.00	138.68	5.98	-51.7	-62.8	3.8	1.48e+00	0	41	104	0	75	12589
2026-01-14 09:15:23.00	138.64	6.05	-51.7	-62.4	4.0	1.48e+00	0	41	104	0	75	12071
2026-01-14 09:15:23.99	138.60	6.13	-51.7	-62.4	4.0	1.48e+00	0	41	104	0	75	11957
2026-01-14 09:15:24.99	138.56	6.20	-51.7	-62.4	3.9	1.48e+00	0	41	104	0	75	12001
2026-01-14 09:15:25.98	138.53	6.27	-51.7	-62.9	3.9	1.48e+00	0	41	104	0	75	12803
2026-01-14 09:15:26.98	138.49	6.35	-51.7	-63.2	3.9	1.49e+00	0	41	104	0	75	13183
2026-01-14 09:15:27.98	138.45	6.42	-51.7	-63.5	3.8	1.49e+00	0	41	104	0	75	13610
2026-01-14 09:15:28.98	138.41	6.49	-51.8	-63.9	3.8	1.49e+00	0	41	104	0	75	14252
2026-01-14 09:15:29.97	138.37	6.57	-51.8	-64.1	3.8	1.49e+00	0	41	104	0	75	14694
2026-01-14 09:15:30.97	138.33	6.64	-51.8	-64.3	3.8	1.49e+00	0	41	104	0	75	15012
2026-01-14 09:15:31.97	138.30	6.71	-51.8	-64.4	3.8	1.49e+00	0	41	104	0	75	15070
2026-01-14 09:15:32.96	138.26	6.79	-51.8	-64.2	3.8	1.49e+00	0	41	104	0	75	14804
2026-01-14 09:15:33.96	138.22	6.86	-51.8	-63.8	3.8	1.49e+00	0	41	104	0	75	14164
2026-01-14 09:15:34.96	138.18	6.94	-51.7	-63.2	3.9	1.49e+00	0	41	104	0	75	13242
2026-01-14 09:15:35.95	138.14	7.01	-51.6	-61.9	3.9	1.48e+00	0	42	104	0	75	11360
2026-01-14 09:15:36.95	138.10	7.09	-51.4	-60.7	4.4	1.45e+00	0	41	104	0	74	10476
2026-01-14 09:15:37.95	138.06	7.16	-51.2	-59.5	4.9	1.12e+00	0	42	104	0	74	9105
2026-01-14 09:15:38.95	138.02	7.24	-50.9	-58.0	5.9	4.10e-01	0	41	0	0	73	8149
2026-01-14 09:15:39.95	137.98	7.31	-50.5	-56.5	7.1	2.07e-01	0	42	0	0	72	7251
2026-01-14 09:15:40.95	137.94	7.39	-50.0	-55.2	8.4	6.70e-02	0	41	0	0	72	6213
2026-01-14 09:15:41.95	137.89	7.47	-49.5	-53.9	9.7	1.64e-02	0	42	0	0	70	6057
2026-01-14 09:15:42.94	137.85	7.54	-48.8	-52.7	11.0	2.83e-03	0	41	0	0	69	5553
2026-01-14 09:15:43.94	137.81	7.62	-48.2	-51.6	12.1	3.62e-04	0	41	0	0	68	5187
2026-01-14 09:15:44.94	137.77	7.70	-47.5	-50.6	13.0	8.23e-05	0	42	0	0	67	4899
2026-01-14 09:15:45.95	137.73	7.77	-46.9	-49.7	13.8	9.10e-06	0	42	0	0	65	4983
2026-01-14 09:15:46.94	137.68	7.85	-46.5	-49.2	14.3	7.00e-07	0	41	0	0	65	4702
2026-01-14 09:15:47.94	137.64	7.93	-46.2	-48.8	14.8	0.00e+00	0	42	0	0	64	4714
2026-01-14 09:15:48.93	137.60	8.01	-46.0	-48.5	15.1	0.00e+00	0	42	0	0	63	4835
2026-01-14 09:15:49.93	137.56	8.08	-46.0	-48.5	15.1	0.00e+00	0	42	0	0	63	4850
2026-01-14 09:15:50.93	137.51	8.16	-46.0	-48.6	15.1	0.00e+00	0	42	0	0	63	4874
2026-01-14 09:15:51.92	137.47	8.24	-46.2	-48.8	14.8	7.00e-07	0	42	0	0	63	5011
2026-01-14 09:15:52.92	137.43	8.32	-46.7	-49.4	14.3	0.00e+00	0	42	0	0	63	5357
2026-01-14 09:15:53.91	137.38	8.40	-47.0	-49.9	13.6	7.00e-07	0	42	0	0	64	5399
2026-01-14 09:15:54.91	137.34	8.48	-47.7	-50.9	12.7	6.02e-05	0	42	0	0	65	5682
2026-01-14 09:15:55.91	137.29	8.55	-48.4	-52.1	11.5	3.70e-04	0	42	0	0	67	5797
2026-01-14 09:15:56.91	137.25	8.63	-49.3	-53.7	9.9	4.96e-03	0	42	0	0	69	6251
2026-01-14 09:15:57.91	137.20	8.71	-50.1	-55.5	8.2	3.27e-02	0	42	0	0	70	7234
2026-01-14 09:15:58.91	137.16	8.79	-50.8	-57.5	6.3	1.98e-01	0	42	0	0	72	8137
2026-01-14 09:15:59.90	137.11	8.87	-51.3	-60.7	4.0	8.77e-01	0	42	104	0	73	11031
2026-01-14 09:16:00.90	137.07	8.95	-51.7	-62.5	3.9	1.47e+00	0	42	104	0	73	13690
2026-01-14 09:16:01.90	137.02	9.04	-51.9	-64.3	3.8	1.49e+00	0	42	104	0	74	15937
2026-01-14 09:16:02.90	136.97	9.12	-48.9	-52.9	10.7	1.10e+00	0	42	104	0	69	5661
2026-01-14 09:16:03.90	136.93	9.20	-51.6	-62.1	3.9	8.89e-01	0	42	104	0	73	13063
2026-01-14 09:16:04.90	136.88	9.28	-51.8	-64.7	3.8	1.49e+00	0	42	104	0	74	16532
2026-01-14 09:16:05.89	136.83	9.36	-49.2	-53.4	10.4	7.62e-01	0	42	0	0	70	5668
2026-01-14 09:16:06.89	136.79	9.44	-51.9	-64.4	3.8	1.40e+00	0	42	104	0	74	16040
2026-01-14 09:16:07.89	136.74	9.53	-49.6	-54.1	6.0	1.47e+00	0	42	104	0	71	5848
2026-01-14 09:16:08.89	136.69	9.61	-49.3	-53.5	10.2	6.73e-03	0	42	0	0	70	5780
2026-01-14 09:16:09.89	136.64	9.69	-48.7	-52.5	11.4	1.25e-03	0	42	0	0	69	5403
2026-01-14 09:16:10.89	136.59	9.77	-48.0	-51.2	12.6	2.02e-04	0	42	0	0	68	4983
2026-01-14 09:16:11.88	136.55	9.86	-47.1	-50.0	13.7	1.44e-05	0	42	0	0	66	4854
2026-01-14 09:16:12.88	136.50	9.94	-46.5	-49.2	14.6	0.00e+00	0	42	0	0	65	4663
2026-01-14 09:16:13.88	136.45	10.02	-46.2	-48.7	15.1	7.00e-07	0	42	0	0	64	4662
2026-01-14 09:16:14.88	136.40	10.11	-46.1	-48.6	15.3	0.00e+00	0	42	0	0	63	4871
2026-01-14 09:16:15.88	136.35	10.19	-45.9	-48.3	15.5	0.00e+00	0	42	0	0	63	4728
2026-01-14 09:16:16.88	136.30	10.28	-45.8	-48.1	15.7	0.00e+00	0	42	0	0	63	4635
2026-01-14 09:16:17.88	136.25	10.36	-45.6	-47.9	15.9	0.00e+00	0	42	0	0	63	4528
2026-01-14 09:16:18.88	136.19	10.45	-45.5	-47.7	16.1	0.00e+00	0	42	0	0	63	4437
2026-01-14 09:16:19.88	136.14	10.53	-45.2	-47.4	16.4	0.00e+00	0	42	0	0	62	4517
2026-01-14 09:16:20.88	136.09	10.62	-45.2	-47.4	16.5	0.00e+00	0	42	0	0	62	4504
2026-01-14 09:16:21.87	136.04	10.70	-45.2	-47.4	16.4	0.00e+00	0	42	0	0	62	4527
2026-01-14 09:16:22.87	135.99	10.79	-45.2	-47.4	16.4	0.00e+00	0	42	0	0	62	4519
2026-01-14 09:16:23.86	135.94	10.88	-45.2	-47.4	16.4	0.00e+00	0	42	0	0	62	4539
2026-01-14 09:16:24.86	135.88	10.96	-45.2	-47.4	16.4	0.00e+00	0	42	0	0	62	4545
2026-01-14 09:16:25.86	135.83	11.05	-45.0	-47.2	16.6	0.00e+00	0	42	0	0	62	4399
2026-01-14 09:16:26.86	135.78	11.14	-45.0	-47.2	16.6	0.00e+00	0	42	0	0	62	4409
2026-01-14 09:16:27.86	135.72	11.23	-45.1	-47.2	16.6	0.00e+00	0	42	0	0	62	4440
2026-01-14 09:16:28.86	135.67	11.31	-45.0	-47.1	16.7	0.00e+00	0	42	0	0	62	4372
2026-01-14 09:16:29.85	135.61	11.40	-44.9	-47.0	16.8	0.00e+00	0	42	0	0	61	4578
2026-01-14 09:16:30.85	135.56	11.49	-44.9	-47.0	16.8	0.00e+00	0	42	0	0	61	4597
2026-01-14 09:16:31.85	135.50	11.58	-44.9	-47.0	16.8	0.00e+00	0	42	0	0	61	4580
2026-01-14 09:16:32.84	135.45	11.67	-44.9	-47.0	16.8	0.00e+00	0	42	0	0	61	4556
2026-01-14 09:16:33.84	135.39	11.76	-44.9	-47.1	16.7	0.00e+00	0	42	0	0	61	4601
2026-01-14 09:16:34.84	135.34	11.85	-45.0	-47.1	16.6	0.00e+00	0	42	0	0	61	4647
2026-01-14 09:16:35.84	135.28	11.94	-44.9	-47.0	16.7	0.00e+00	0	42	0	0	61	4596
2026-01-14 09:16:36.84	135.22	12.03	-44.8	-46.9	16.9	0.00e+00	0	42	0	0	61	4527
2026-01-14 09:16:37.84	135.16	12.12	-44.9	-47.0	16.8	0.00e+00	0	42	0	0	61	4565
2026-01-14 09:16:38.84	135.11	12.21	-44.9	-47.1	16.7	0.00e+00	0	42	0	0	61	4608
2026-01-14 09:16:39.84	135.05	12.30	-45.0	-47.2	16.7	0.00e+00	0	42	0	0	61	4655
2026-01-14 09:16:40.85	134.99	12.39	-44.8	-46.9	16.9	0.00e+00	0	42	0	0	61	4539
2026-01-14 09:16:41.84	134.93	12.48	-44.8	-46.9	16.9	0.00e+00	0	42	0	0	61	4521
2026-01-14 09:16:42.85	134.87	12.58	-44.9	-47.0	16.9	0.00e+00	0	42	0	0	61	4548
2026-01-14 09:16:43.85	134.81	12.67	-44.9	-47.0	16.8	0.00e+00	0	42	0	0	61	4561
2026-01-14 09:16:44.85	134.75	12.76	-44.9	-47.0	16.8	0.00e+00	0	42	0	0	61	4587
2026-01-14 09:16:45.84	134.69	12.86	-44.9	-47.0	16.8	0.00e+00	0	42	0	0	61	4587
2026-01-14 09:16:46.85	134.63	12.95	-44.8	-46.9	17.0	0.00e+00	0	43	0	0	61	4510
2026-01-14 09:16:47.85	134.57	13.04	-44.8	-46.9	16.9	0.00e+00	0	42	0	0	61	4540
2026-01-14 09:16:48.85	134.51	13.14	-44.8	-46.9	16.9	0.00e+00	0	43	0	0	61	4545
2026-01-14 09:16:49.86	134.44	13.23	-44.8	-46.9	17.0	0.00e+00	0	42	0	0	61	4503
2026-01-14 09:16:50.85	134.38	13.33	-44.8	-46.9	17.0	0.00e+00	0	42	0	0	61	4534
2026-01-14 09:16:51.86	134.32	13.42	-44.8	-46.9	17.0	0.00e+00	0	42	0	0	61	4519
2026-01-14 09:16:52.86	134.25	13.52	-44.8	-46.9	17.0	0.00e+00	0	42	0	0	61	4512
2026-01-14 09:16:53.85	134.19	13.61	-44.7	-46.8	17.1	0.00e+00	0	42	0	0	61	4458
2026-01-14 09:16:54.86	134.13	13.71	-44.7	-46.8	17.1	0.00e+00	0	43	0	0	61	4491
2026-01-14 09:16:55.86	134.06	13.81	-44.7	-46.8	17.1	0.00e+00	0	43	0	0	61	4442
2026-01-14 09:16:56.86	134.00	13.91	-44.5	-46.6	17.3	0.00e+00	0	42	0	0	61	4367
2026-01-14 09:16:57.86	133.93	14.00	-44.5	-46.6	17.3	0.00e+00	0	42	0	0	61	4377
2026-01-14 09:16:58.86	133.86	14.10	-44.5	-46.5	17.4	0.00e+00	0	43	0	0	61	4330
2026-01-14 09:16:59.85	133.80	14.20	-44.5	-46.5	17.4	0.00e+00	0	42	0	0	60	4582
2026-01-14 09:17:00.86	133.73	14.30	-44.6	-46.6	17.2	0.00e+00	0	42	0	0	60	4645
2026-01-14 09:17:01.86	133.66	14.40	-44.5	-46.6	17.3	0.00e+00	0	42	0	0	60	4599
2026-01-14 09:17:02.86	133.59	14.49	-44.5	-46.5	17.4	0.00e+00	0	42	0	0	60	4591
2026-01-14 09:17:03.87	133.53	14.60	-44.5	-46.5	17.4	0.00e+00	0	42	0	0	60	4578
2026-01-14 09:17:04.87	133.46	14.70	-44.6	-46.6	17.3	0.00e+00	0	42	0	0	60	4648
2026-01-14 09:17:05.87	133.39	14.80	-44.6	-46.6	17.3	0.00e+00	0	42	0	0	60	4648
2026-01-14 09:17:06.87	133.32	14.90	-44.6	-46.6	17.3	0.00e+00	0	42	0	0	60	4632
2026-01-14 09:17:07.87	133.25	15.00	-44.6	-46.6	17.3	0.00e+00	0	42	0	0	60	4641
2026-01-14 09:17:08.87	133.18	15.10	-44.6	-46.7	17.2	0.00e+00	0	42	0	0	60	4676
2026-01-14 09:17:09.87	133.10	15.20	-44.7	-46.7	17.2	0.00e+00	0	42	0	0	60	4702
2026-01-14 09:17:10.87	133.03	15.30	-44.7	-46.8	17.2	0.00e+00	0	42	0	0	60	4712
2026-01-14 09:17:11.87	132.96	15.40	-44.8	-46.9	17.1	0.00e+00	0	42	0	0	60	4763
2026-01-14 09:17:12.87	132.89	15.51	-44.8	-46.9	17.1	0.00e+00	0	42	0	0	60	4785
2026-01-14 09:17:13.87	132.81	15.61	-44.7	-46.8	17.1	0.00e+00	0	42	0	0	60	4742
2026-01-14 09:17:14.87	132.74	15.71	-44.8	-47.0	17.0	0.00e+00	0	42	0	0	60	4821
2026-01-14 09:17:15.88	132.67	15.82	-44.8	-46.9	17.1	0.00e+00	0	42	0	0	60	4780
2026-01-14 09:17:16.88	132.59	15.92	-44.9	-47.0	17.0	0.00e+00	0	42	0	0	60	4821
2026-01-14 09:17:17.88	132.52	16.03	-44.8	-46.9	17.0	0.00e+00	0	42	0	0	60	4797
2026-01-14 09:17:18.88	132.44	16.13	-44.7	-46.8	17.1	0.00e+00	0	42	0	0	60	4755
2026-01-14 09:17:19.88	132.36	16.24	-44.7	-46.8	17.1	0.00e+00	0	43	0	0	60	4745
2026-01-14 09:17:20.88	132.29	16.35	-44.8	-46.9	17.1	0.00e+00	0	42	0	0	60	4780
2026-01-14 09:17:21.88	132.21	16.45	-44.8	-47.0	17.0	0.00e+00	0	42	0	0	60	4816
2026-01-14 09:17:22.88	132.13	16.56	-44.7	-46.8	17.2	0.00e+00	0	42	0	0	60	4749
2026-01-14 09:17:23.88	132.05	16.67	-44.7	-46.8	17.2	0.00e+00	0	42	0	0	60	4742
2026-01-14 09:17:24.88	131.97	16.77	-44.7	-46.8	17.2	0.00e+00	0	42	0	0	60	4720
2026-01-14 09:17:25.88	131.89	16.88	-44.8	-46.8	17.2	0.00e+00	0	43	0	0	60	4757
2026-01-14 09:17:26.88	131.81	16.99	-44.7	-46.8	17.2	0.00e+00	0	42	0	0	60	4733
2026-01-14 09:17:27.88	131.73	17.10	-44.8	-46.9	17.1	0.00e+00	0	42	0	0	60	4765
2026-01-14 09:17:28.89	131.65	17.21	-44.7	-46.8	17.2	0.00e+00	0	42	0	0	60	4717
2026-01-14 09:17:29.88	131.56	17.32	-44.7	-46.8	17.2	0.00e+00	0	43	0	0	60	4716
2026-01-14 09:17:30.87	131.48	17.43	-44.7	-46.8	17.2	0.00e+00	0	42	0	0	60	4707
2026-01-14 09:17:31.87	131.40	17.54	-44.6	-46.6	17.4	0.00e+00	0	42	0	0	60	4623
2026-01-14 09:17:32.86	131.32	17.65	-44.6	-46.6	17.3	0.00e+00	0	42	0	0	60	4640
2026-01-14 09:17:33.86	131.23	17.76	-44.5	-46.6	17.4	0.00e+00	0	43	0	0	60	4606
2026-01-14 09:17:34.86	131.14	17.87	-44.6	-46.7	17.3	0.00e+00	0	42	0	0	60	4667
2026-01-14 09:17:35.86	131.06	17.98	-44.6	-46.7	17.3	0.00e+00	0	42	0	0	60	4655
2026-01-14 09:17:36.85	130.97	18.10	-44.7	-46.8	17.2	0.00e+00	0	42	0	0	60	4714
2026-01-14 09:17:37.85	130.88	18.21	-44.7	-46.7	17.3	0.00e+00	0	42	0	0	60	4689
2026-01-14 09:17:38.85	130.80	18.32	-44.7	-46.8	17.2	0.00e+00	0	42	0	0	60	4713
2026-01-14 09:17:39.85	130.71	18.44	-44.8	-46.9	17.1	0.00e+00	0	42	0	0	60	4765
2026-01-14 09:17:40.85	130.62	18.55	-44.8	-46.9	17.1	0.00e+00	0	42	0	0	60	4784
2026-01-14 09:17:41.85	130.53	18.67	-44.9	-47.0	17.0	0.00e+00	0	42	0	0	60	4826
2026-01-14 09:17:42.84	130.44	18.78	-44.8	-46.9	17.1	0.00e+00	0	42	0	0	60	4795
2026-01-14 09:17:43.84	130.35	18.90	-44.8	-46.9	17.1	0.00e+00	0	42	0	0	60	4789
2026-01-14 09:17:44.84	130.25	19.01	-44.8	-46.9	17.1	0.00e+00	0	42	0	0	60	4787
2026-01-14 09:17:45.84	130.16	19.13	-44.7	-46.8	17.2	0.00e+00	0	43	0	0	60	4726
2026-01-14 09:17:46.84	130.07	19.25	-44.8	-46.8	17.2	0.00e+00	0	42	0	0	60	4754
2026-01-14 09:17:47.83	129.97	19.37	-44.7	-46.7	17.3	0.00e+00	0	42	0	0	60	4681
2026-01-14 09:17:48.83	129.88	19.48	-44.7	-46.8	17.2	0.00e+00	0	42	0	0	60	4721
2026-01-14 09:17:49.83	129.78	19.60	-44.6	-46.6	17.3	0.00e+00	0	43	0	0	60	4641
2026-01-14 09:17:50.82	129.68	19.72	-44.6	-46.7	17.3	0.00e+00	0	43	0	0	60	4655
2026-01-14 09:17:51.82	129.59	19.84	-44.5	-46.6	17.4	0.00e+00	0	42	0	0	60	4600
2026-01-14 09:17:52.82	129.49	19.96	-44.5	-46.5	17.5	0.00e+00	0	43	0	0	60	4561
2026-01-14 09:17:53.82	129.39	20.08	-44.5	-46.6	17.4	0.00e+00	0	42	0	0	60	4606
2026-01-14 09:17:54.82	129.29	20.20	-44.6	-46.7	17.3	0.00e+00	0	42	0	0	60	4656
2026-01-14 09:17:55.82	129.19	20.33	-44.4	-46.4	17.5	0.00e+00	0	42	0	0	60	4541
2026-01-14 09:17:56.82	129.09	20.45	-44.4	-46.4	17.6	0.00e+00	0	43	0	0	60	4506
2026-01-14 09:17:57.82	128.98	20.57	-44.4	-46.4	17.6	0.00e+00	0	42	0	0	60	4510
2026-01-14 09:17:58.82	128.88	20.69	-44.3	-46.2	17.7	0.00e+00	0	42	0	0	60	4434
2026-01-14 09:17:59.82	128.78	20.82	-44.2	-46.1	17.9	0.00e+00	0	42	0	0	60	4369
2026-01-14 09:18:00.82	128.67	20.94	-44.2	-46.2	17.8	0.00e+00	0	42	0	0	60	4416
2026-01-14 09:18:01.81	128.57	21.07	-44.2	-46.1	17.8	0.00e+00	0	42	0	0	60	4378
2026-01-14 09:18:02.82	128.46	21.19	-44.0	-45.9	18.0	0.00e+00	0	42	0	0	60	4278
2026-01-14 09:18:03.82	128.35	21.32	-44.0	-45.9	18.0	0.00e+00	0	42	0	0	60	4286
2026-01-14 09:18:04.82	128.24	21.44	-44.0	-45.9	18.0	0.00e+00	0	42	0	0	59	4512
2026-01-14 09:18:05.82	128.13	21.57	-44.0	-45.9	18.0	0.00e+00	0	43	0	0	59	4518
2026-01-14 09:18:06.82	128.02	21.70	-44.0	-45.9	18.0	0.00e+00	0	42	0	0	59	4523
2026-01-14 09:18:07.82	127.91	21.83	-43.9	-45.8	18.0	0.00e+00	0	42	0	0	59	4478
2026-01-14 09:18:08.82	127.80	21.96	-43.9	-45.9	18.0	0.00e+00	0	43	0	0	59	4512
2026-01-14 09:18:09.82	127.69	22.08	-43.9	-45.8	18.1	0.00e+00	0	42	0	0	59	4464
2026-01-14 09:18:10.82	127.57	22.21	-43.8	-45.7	18.2	0.00e+00	0	42	0	0	59	4413
2026-01-14 09:18:11.82	127.46	22.34	-43.7	-45.6	18.3	0.00e+00	0	42	0	0	59	4357
2026-01-14 09:18:12.82	127.34	22.47	-43.6	-45.5	18.4	0.00e+00	0	42	0	0	59	4313
2026-01-14 09:18:13.81	127.22	22.60	-43.6	-45.5	18.3	0.00e+00	0	42	0	0	59	4334
2026-01-14 09:18:14.81	127.10	22.74	-43.6	-45.5	18.4	0.00e+00	0	42	0	0	59	4297
2026-01-14 09:18:15.81	126.99	22.87	-43.4	-45.3	18.6	0.00e+00	0	42	0	0	58	4482
2026-01-14 09:18:16.80	126.87	23.00	-43.4	-45.3	18.6	0.00e+00	0	42	0	0	58	4447
2026-01-14 09:18:17.80	126.75	23.13	-43.5	-45.4	18.5	0.00e+00	0	42	0	0	58	4498
2026-01-14 09:18:18.80	126.62	23.27	-43.6	-45.4	18.5	0.00e+00	0	42	0	0	58	4528
2026-01-14 09:18:19.80	126.50	23.40	-43.3	-45.2	18.7	0.00e+00	0	42	0	0	58	4395
2026-01-14 09:18:20.80	126.37	23.54	-43.3	-45.1	18.7	0.00e+00	0	42	0	0	58	4381
2026-01-14 09:18:21.80	126.25	23.67	-43.3	-45.2	18.7	0.00e+00	0	42	0	0	58	4394
2026-01-14 09:18:22.79	126.12	23.81	-43.3	-45.1	18.7	0.00e+00	0	42	0	0	58	4382
2026-01-14 09:18:23.79	126.00	23.94	-43.4	-45.2	18.7	0.00e+00	0	42	0	0	58	4393
2026-01-14 09:18:24.79	125.87	24.08	-43.3	-45.1	18.8	0.00e+00	0	42	0	0	58	4366
2026-01-14 09:18:25.79	125.74	24.22	-43.3	-45.1	18.8	0.00e+00	0	42	0	0	58	4357
2026-01-14 09:18:26.78	125.61	24.36	-43.3	-45.1	18.7	0.00e+00	0	42	0	0	58	4378
2026-01-14 09:18:27.78	125.47	24.49	-43.3	-45.1	18.7	0.00e+00	0	42	0	0	58	4376
2026-01-14 09:18:28.78	125.34	24.63	-43.4	-45.3	18.6	0.00e+00	0	42	0	0	58	4442
2026-01-14 09:18:29.78	125.21	24.77	-43.5	-45.3	18.6	0.00e+00	0	42	0	0	58	4469
2026-01-14 09:18:30.78	125.07	24.92	-43.6	-45.4	18.4	0.00e+00	0	42	0	0	58	4538
2026-01-14 09:18:31.78	124.93	25.06	-43.6	-45.5	18.4	0.00e+00	0	42	0	0	58	4551
2026-01-14 09:18:32.78	124.79	25.20	-43.7	-45.6	18.3	0.00e+00	0	42	0	0	58	4623
2026-01-14 09:18:33.77	124.65	25.34	-43.7	-45.6	18.3	0.00e+00	0	42	0	0	58	4618
2026-01-14 09:18:34.77	124.51	25.48	-43.7	-45.6	18.3	0.00e+00	0	42	0	0	58	4624
2026-01-14 09:18:35.77	124.37	25.63	-43.8	-45.6	18.2	0.00e+00	0	42	0	0	58	4648
2026-01-14 09:18:36.77	124.23	25.77	-43.7	-45.6	18.3	0.00e+00	0	43	0	0	58	4630
2026-01-14 09:18:37.77	124.08	25.91	-43.8	-45.7	18.3	0.00e+00	0	42	0	0	58	4658
2026-01-14 09:18:38.77	123.94	26.06	-43.9	-45.8	18.2	0.00e+00	0	42	0	0	58	4717
2026-01-14 09:18:39.76	123.79	26.20	-43.8	-45.7	18.3	0.00e+00	0	42	0	0	58	4671
2026-01-14 09:18:40.76	123.64	26.35	-43.9	-45.8	18.2	0.00e+00	0	42	0	0	58	4718
2026-01-14 09:18:41.76	123.49	26.50	-43.9	-45.8	18.1	0.00e+00	0	43	0	0	58	4758
2026-01-14 09:18:42.76	123.34	26.64	-43.8	-45.7	18.3	0.00e+00	0	42	0	0	58	4684
2026-01-14 09:18:43.76	123.18	26.79	-44.0	-45.9	18.1	0.00e+00	0	42	0	0	58	4787
2026-01-14 09:18:44.75	123.03	26.94	-44.1	-46.0	18.0	0.00e+00	0	42	0	0	58	4856
2026-01-14 09:18:45.75	122.87	27.09	-44.1	-46.0	18.0	0.00e+00	0	42	0	0	58	4818
2026-01-14 09:18:46.75	122.72	27.24	-44.0	-45.9	18.0	0.00e+00	0	42	0	0	58	4803
2026-01-14 09:18:47.75	122.56	27.39	-44.1	-46.0	17.9	0.00e+00	0	42	0	0	58	4839
2026-01-14 09:18:48.75	122.40	27.54	-44.1	-46.0	17.9	0.00e+00	0	42	0	0	58	4849
2026-01-14 09:18:49.74	122.23	27.69	-44.2	-46.1	17.8	0.00e+00	0	42	0	0	59	4639
2026-01-14 09:18:50.74	122.07	27.84	-44.1	-46.1	17.8	0.00e+00	0	42	0	0	59	4613
2026-01-14 09:18:51.74	121.91	28.00	-44.4	-46.4	17.6	0.00e+00	0	42	0	0	59	4770
2026-01-14 09:18:52.74	121.74	28.15	-44.5	-46.5	17.5	0.00e+00	0	42	0	0	59	4833
2026-01-14 09:18:53.74	121.57	28.30	-44.5	-46.5	17.4	0.00e+00	0	42	0	0	59	4869
2026-01-14 09:18:54.74	121.40	28.46	-44.4	-46.4	17.6	0.00e+00	0	42	0	0	59	4792
2026-01-14 09:18:55.73	121.23	28.61	-44.4	-46.4	17.6	0.00e+00	0	42	0	0	59	4772
2026-01-14 09:18:56.73	121.05	28.77	-44.3	-46.3	17.8	0.00e+00	0	42	0	0	59	4719
2026-01-14 09:18:57.73	120.88	28.92	-44.3	-46.2	17.8	0.00e+00	0	42	0	0	59	4702
2026-01-14 09:18:58.73	120.70	29.08	-44.1	-46.0	17.9	0.00e+00	0	42	0	0	59	4583
2026-01-14 09:18:59.73	120.52	29.24	-44.2	-46.1	17.9	0.00e+00	0	42	0	0	59	4627
2026-01-14 09:19:00.72	120.34	29.39	-44.2	-46.2	17.8	0.00e+00	0	43	0	0	59	4666
2026-01-14 09:19:01.72	120.16	29.55	-44.3	-46.2	17.7	0.00e+00	0	43	0	0	59	4683
2026-01-14 09:19:02.72	119.98	29.71	-44.4	-46.4	17.5	0.00e+00	0	42	0	0	59	4769
2026-01-14 09:19:03.72	119.79	29.87	-44.4	-46.4	17.5	0.00e+00	0	42	0	0	59	4809
2026-01-14 09:19:04.72	119.60	30.03	-44.6	-46.6	17.3	0.00e+00	0	42	0	0	59	4899
2026-01-14 09:19:05.72	119.41	30.19	-44.5	-46.6	17.4	0.00e+00	0	42	0	0	59	4888
2026-01-14 09:19:06.72	119.22	30.35	-44.6	-46.6	17.4	0.00e+00	0	42	0	0	59	4917
2026-01-14 09:19:07.71	119.03	30.51	-44.5	-46.6	17.5	0.00e+00	0	42	0	0	59	4882
2026-01-14 09:19:08.71	118.83	30.67	-44.5	-46.6	17.5	0.00e+00	0	42	0	0	59	4892
2026-01-14 09:19:09.71	118.63	30.84	-44.4	-46.4	17.6	0.00e+00	0	42	0	0	59	4795
2026-01-14 09:19:10.70	118.44	31.00	-44.4	-46.3	17.7	0.00e+00	0	42	0	0	59	4747
2026-01-14 09:19:11.70	118.23	31.16	-44.4	-46.4	17.7	0.00e+00	0	42	0	0	59	4789
2026-01-14 09:19:12.71	118.03	31.33	-44.4	-46.4	17.6	0.00e+00	0	42	0	0	59	4793
2026-01-14 09:19:13.70	117.82	31.49	-44.5	-46.5	17.5	0.00e+00	0	42	0	0	59	4841
2026-01-14 09:19:14.70	117.62	31.66	-44.6	-46.7	17.3	0.00e+00	0	42	0	0	59	4930
2026-01-14 09:19:15.69	117.41	31.82	-44.6	-46.6	17.4	0.00e+00	0	42	0	0	59	4917
2026-01-14 09:19:16.69	117.19	31.99	-44.7	-46.7	17.4	0.00e+00	0	42	0	0	60	4680
2026-01-14 09:19:17.69	116.98	32.15	-44.7	-46.7	17.4	0.00e+00	0	42	0	0	60	4684
2026-01-14 09:19:18.69	116.76	32.32	-44.7	-46.8	17.4	0.00e+00	0	42	0	0	60	4710
2026-01-14 09:19:19.69	116.54	32.49	-44.6	-46.6	17.5	0.00e+00	0	42	0	0	60	4626
2026-01-14 09:19:20.69	116.32	32.65	-44.5	-46.5	17.6	0.00e+00	0	42	0	0	60	4583
2026-01-14 09:19:21.68	116.10	32.82	-44.5	-46.5	17.6	0.00e+00	0	42	0	0	60	4558
2026-01-14 09:19:22.68	115.87	32.99	-44.6	-46.6	17.5	0.00e+00	0	42	0	0	60	4645
2026-01-14 09:19:23.68	115.65	33.16	-44.5	-46.6	17.5	0.00e+00	0	42	0	0	60	4602
2026-01-14 09:19:24.68	115.41	33.33	-44.7	-46.7	17.3	0.00e+00	0	43	0	0	60	4695
2026-01-14 09:19:25.68	115.18	33.50	-44.8	-46.9	17.2	0.00e+00	0	42	0	0	60	4782
2026-01-14 09:19:26.68	114.95	33.67	-44.9	-46.9	17.1	0.00e+00	0	42	0	0	60	4814
2026-01-14 09:19:27.68	114.71	33.84	-44.9	-47.0	17.2	0.00e+00	0	42	0	0	60	4818
2026-01-14 09:19:28.68	114.47	34.01	-44.9	-47.0	17.1	0.00e+00	0	42	0	0	60	4862
2026-01-14 09:19:29.68	114.22	34.18	-45.0	-47.1	17.0	0.00e+00	0	42	0	0	60	4895
2026-01-14 09:19:30.68	113.98	34.36	-45.1	-47.2	16.9	0.00e+00	0	42	0	0	60	4977
2026-01-14 09:19:31.68	113.73	34.53	-45.2	-47.3	16.8	0.00e+00	0	42	0	0	60	5037
2026-01-14 09:19:32.69	113.47	34.70	-45.4	-47.6	16.5	0.00e+00	0	42	0	0	61	4907
2026-01-14 09:19:33.68	113.22	34.87	-45.4	-47.6	16.4	0.00e+00	0	42	0	0	61	4921
2026-01-14 09:19:34.68	112.96	35.05	-45.3	-47.5	16.5	0.00e+00	0	42	0	0	61	4844
2026-01-14 09:19:35.68	112.70	35.22	-45.4	-47.6	16.4	0.00e+00	0	42	0	0	61	4910
2026-01-14 09:19:36.68	112.44	35.40	-45.5	-47.7	16.4	0.00e+00	0	42	0	0	61	4930
2026-01-14 09:19:37.68	112.18	35.57	-45.6	-47.8	16.3	0.00e+00	0	42	0	0	61	5015
2026-01-14 09:19:38.68	111.91	35.74	-45.5	-47.7	16.4	0.00e+00	0	42	0	0	61	4944
2026-01-14 09:19:39.68	111.64	35.92	-45.7	-47.9	16.2	0.00e+00	0	42	0	0	61	5076
2026-01-14 09:19:40.68	111.36	36.09	-45.8	-48.1	16.1	0.00e+00	0	42	0	0	62	4887
2026-01-14 09:19:41.68	111.09	36.27	-45.9	-48.2	16.0	0.00e+00	0	43	0	0	62	4981
2026-01-14 09:19:42.68	110.81	36.44	-45.8	-48.1	16.1	0.00e+00	0	42	0	0	62	4922
2026-01-14 09:19:43.68	110.52	36.62	-45.7	-48.0	16.2	0.00e+00	0	42	0	0	62	4852
2026-01-14 09:19:44.68	110.24	36.79	-45.7	-48.0	16.2	0.00e+00	0	42	0	0	62	4838
2026-01-14 09:19:45.68	109.95	36.97	-45.7	-48.0	16.2	0.00e+00	0	42	0	0	62	4826
2026-01-14 09:19:46.67	109.66	37.14	-45.7	-47.9	16.3	0.00e+00	0	42	0	0	62	4809
2026-01-14 09:19:47.67	109.36	37.32	-45.8	-48.1	16.1	0.00e+00	0	42	0	0	62	4881
2026-01-14 09:19:48.67	109.07	37.50	-45.6	-47.8	16.4	0.00e+00	0	42	0	0	62	4757
2026-01-14 09:19:49.67	108.76	37.67	-45.8	-48.0	16.2	0.00e+00	0	42	0	0	62	4843
2026-01-14 09:19:50.66	108.46	37.85	-45.7	-47.9	16.3	0.00e+00	0	42	0	0	62	4798
2026-01-14 09:19:51.66	108.15	38.02	-45.8	-48.0	16.1	0.00e+00	0	42	0	0	62	4864
2026-01-14 09:19:52.66	107.84	38.20	-45.7	-48.0	16.3	0.00e+00	0	42	0	0	62	4817
2026-01-14 09:19:53.66	107.53	38.37	-45.7	-47.9	16.3	0.00e+00	0	42	0	0	62	4801
2026-01-14 09:19:54.66	107.21	38.55	-45.7	-48.0	16.2	0.00e+00	0	42	0	0	62	4823
2026-01-14 09:19:55.66	106.88	38.72	-45.7	-48.0	16.2	0.00e+00	0	42	0	0	62	4847
2026-01-14 09:19:56.66	106.56	38.90	-45.6	-47.8	16.4	0.00e+00	0	42	0	0	62	4714
2026-01-14 09:19:57.66	106.23	39.07	-45.5	-47.7	16.5	0.00e+00	0	42	0	0	62	4659
2026-01-14 09:19:58.65	105.90	39.25	-45.5	-47.7	16.4	0.00e+00	0	42	0	0	62	4691
2026-01-14 09:19:59.65	105.56	39.42	-45.6	-47.8	16.3	0.00e+00	0	43	0	0	62	4739
2026-01-14 09:20:00.65	105.22	39.60	-45.6	-47.8	16.4	0.00e+00	0	42	0	0	62	4733
2026-01-14 09:20:01.66	104.88	39.77	-45.6	-47.9	16.4	0.00e+00	0	42	0	0	62	4761
2026-01-14 09:20:02.65	104.53	39.94	-45.7	-48.0	16.2	0.00e+00	0	42	0	0	62	4845
2026-01-14 09:20:03.65	104.18	40.12	-45.9	-48.2	16.0	0.00e+00	0	42	0	0	62	4965
2026-01-14 09:20:04.65	103.83	40.29	-46.0	-48.4	15.8	0.00e+00	0	42	0	0	62	5078
2026-01-14 09:20:05.65	103.47	40.46	-46.2	-48.6	15.7	0.00e+00	0	42	0	0	63	4896
2026-01-14 09:20:06.65	103.10	40.64	-46.3	-48.7	15.5	0.00e+00	0	42	0	0	63	4934
2026-01-14 09:20:07.65	102.74	40.81	-46.4	-48.8	15.5	0.00e+00	0	42	0	0	63	4996
2026-01-14 09:20:08.65	102.37	40.98	-46.5	-49.0	15.3	0.00e+00	0	42	0	0	63	5108
2026-01-14 09:20:09.64	102.00	41.15	-46.6	-49.1	15.2	0.00e+00	0	42	0	0	63	5218
2026-01-14 09:20:10.65	101.61	41.32	-46.7	-49.2	15.1	0.00e+00	0	42	0	0	63	5226
2026-01-14 09:20:11.64	101.24	41.49	-46.6	-49.1	15.0	0.00e+00	0	42	0	0	64	4925
2026-01-14 09:20:12.64	100.85	41.66	-46.7	-49.3	14.9	0.00e+00	0	42	0	0	64	4986
2026-01-14 09:20:13.64	100.46	41.82	-46.7	-49.3	14.9	0.00e+00	0	42	0	0	64	5005
2026-01-14 09:20:14.64	100.06	41.99	-46.7	-49.2	14.9	0.00e+00	0	42	0	0	64	4982
2026-01-14 09:20:15.63	99.67	42.16	-46.7	-49.3	14.9	0.00e+00	0	42	0	0	64	5020
2026-01-14 09:20:16.63	99.27	42.32	-46.8	-49.4	14.8	0.00e+00	0	42	0	0	64	5089
2026-01-14 09:20:17.63	98.86	42.49	-46.8	-49.4	14.8	7.00e-07	0	42	0	0	64	5052
2026-01-14 09:20:18.63	98.45	42.65	-46.9	-49.5	14.8	7.00e-07	0	42	0	0	64	5106
2026-01-14 09:20:19.63	98.03	42.81	-46.7	-49.3	14.9	0.00e+00	0	42	0	0	64	4995
2026-01-14 09:20:20.63	97.61	42.97	-46.7	-49.3	14.9	0.00e+00	0	43	0	0	64	5010
2026-01-14 09:20:21.62	97.19	43.13	-46.4	-48.9	15.3	0.00e+00	0	43	0	0	64	4776
2026-01-14 09:20:22.62	96.77	43.29	-46.2	-48.5	15.6	0.00e+00	0	42	0	0	64	4589
2026-01-14 09:20:23.62	96.33	43.45	-46.2	-48.5	15.6	0.00e+00	0	42	0	0	64	4579
2026-01-14 09:20:24.62	95.90	43.61	-46.1	-48.5	15.6	0.00e+00	0	42	0	0	64	4577
2026-01-14 09:20:25.62	95.46	43.76	-46.3	-48.7	15.4	0.00e+00	0	42	0	0	64	4703
2026-01-14 09:20:26.62	95.01	43.92	-46.4	-48.8	15.3	0.00e+00	0	42	0	0	64	4745
2026-01-14 09:20:27.62	94.56	44.07	-46.5	-49.0	15.2	0.00e+00	0	42	0	0	64	4829
2026-01-14 09:20:28.62	94.11	44.22	-46.7	-49.3	14.8	7.00e-07	0	42	0	0	64	5000
2026-01-14 09:20:29.62	93.65	44.37	-46.8	-49.5	14.6	0.00e+00	0	42	0	0	64	5113
2026-01-14 09:20:30.62	93.19	44.52	-46.8	-49.5	14.6	0.00e+00	0	42	0	0	64	5105
2026-01-14 09:20:31.62	92.72	44.67	-46.8	-49.4	14.8	0.00e+00	0	42	0	0	64	5073
2026-01-14 09:20:32.62	92.25	44.82	-46.4	-48.9	15.2	7.00e-07	0	42	0	0	64	4783
2026-01-14 09:20:33.62	91.77	44.96	-46.1	-48.4	15.7	0.00e+00	0	42	0	0	64	4536
2026-01-14 09:20:34.62	91.29	45.10	-46.0	-48.3	15.9	0.00e+00	0	43	0	0	63	4736
2026-01-14 09:20:35.62	90.81	45.24	-46.1	-48.5	15.7	0.00e+00	0	42	0	0	63	4841
2026-01-14 09:20:36.61	90.33	45.38	-46.1	-48.5	15.6	0.00e+00	0	42	0	0	63	4846
2026-01-14 09:20:37.61	89.83	45.52	-46.2	-48.6	15.7	0.00e+00	0	43	0	0	63	4892
2026-01-14 09:20:38.61	89.34	45.65	-46.0	-48.4	15.8	0.00e+00	0	42	0	0	63	4783
2026-01-14 09:20:39.61	88.84	45.79	-45.9	-48.2	16.0	0.00e+00	0	43	0	0	63	4700
2026-01-14 09:20:40.62	88.33	45.92	-45.9	-48.3	15.8	0.00e+00	0	42	0	0	63	4741
2026-01-14 09:20:41.61	87.82	46.05	-46.4	-49.0	15.2	0.00e+00	0	42	0	0	63	5105
2026-01-14 09:20:42.61	87.31	46.17	-46.5	-49.1	15.0	0.00e+00	0	42	0	0	63	5200
2026-01-14 09:20:43.61	86.79	46.30	-46.4	-49.0	15.1	0.00e+00	0	42	0	0	63	5110
2026-01-14 09:20:44.61	86.27	46.42	-46.5	-49.1	15.0	0.00e+00	0	42	0	0	63	5196
2026-01-14 09:20:45.61	85.74	46.54	-46.4	-48.9	15.2	0.00e+00	0	42	0	0	63	5086
2026-01-14 09:20:46.60	85.22	46.66	-46.6	-49.2	15.0	0.00e+00	0	42	0	0	63	5229
2026-01-14 09:20:47.61	84.68	46.77	-46.8	-49.5	14.6	7.00e-07	0	42	0	0	64	5154
2026-01-14 09:20:48.60	84.15	46.89	-46.7	-49.6	14.6	0.00e+00	0	42	0	0	64	5172
2026-01-14 09:20:49.60	83.60	47.00	-46.2	-48.7	15.4	0.00e+00	0	42	0	0	64	4689
2026-01-14 09:20:50.60	83.06	47.11	-46.2	-48.7	15.4	0.00e+00	0	42	0	0	64	4673
2026-01-14 09:20:51.60	82.51	47.21	-46.5	-49.2	15.0	0.00e+00	0	42	0	0	64	4934
2026-01-14 09:20:52.60	81.96	47.31	-46.5	-49.1	15.0	7.00e-07	0	42	0	0	64	4902
2026-01-14 09:20:53.60	81.40	47.41	-46.5	-49.1	15.1	0.00e+00	0	42	0	0	64	4886
2026-01-14 09:20:54.59	80.85	47.51	-46.3	-48.8	15.4	0.00e+00	0	42	0	0	64	4720
2026-01-14 09:20:55.59	80.28	47.61	-46.1	-48.4	15.7	0.00e+00	0	42	0	0	64	4537
2026-01-14 09:20:56.58	79.72	47.70	-46.1	-48.4	15.9	0.00e+00	0	42	0	0	63	4783
2026-01-14 09:20:57.58	79.15	47.78	-45.8	-48.0	16.2	0.00e+00	0	42	0	0	63	4597
2026-01-14 09:20:58.58	78.58	47.87	-45.5	-47.7	16.6	0.00e+00	0	42	0	0	63	4418
2026-01-14 09:20:59.58	78.00	47.95	-45.5	-47.6	16.6	0.00e+00	0	42	0	0	62	4643
2026-01-14 09:21:00.57	77.43	48.03	-45.5	-47.7	16.6	0.00e+00	0	42	0	0	62	4683
2026-01-14 09:21:01.57	76.84	48.11	-45.7	-47.9	16.4	0.00e+00	0	42	0	0	62	4779
2026-01-14 09:21:02.57	76.26	48.18	-46.1	-48.4	15.9	0.00e+00	0	42	0	0	62	5086
2026-01-14 09:21:03.56	75.68	48.25	-45.9	-48.2	16.1	0.00e+00	0	42	0	0	62	4931
2026-01-14 09:21:04.56	75.09	48.32	-45.8	-48.0	16.2	0.00e+00	0	42	0	0	62	4851
2026-01-14 09:21:05.55	74.50	48.39	-45.8	-48.1	16.2	0.00e+00	0	42	0	0	62	4904
2026-01-14 09:21:06.55	73.90	48.45	-46.1	-48.5	15.8	0.00e+00	0	42	0	0	62	5144
2026-01-14 09:21:07.55	73.31	48.50	-46.5	-49.0	15.3	0.00e+00	0	43	0	0	63	5131
2026-01-14 09:21:08.55	72.71	48.56	-46.6	-49.2	15.1	0.00e+00	0	42	0	0	64	4927
2026-01-14 09:21:09.55	72.10	48.61	-46.5	-49.0	15.2	0.00e+00	0	43	0	0	64	4840
2026-01-14 09:21:10.55	71.50	48.66	-46.4	-48.8	15.2	0.00e+00	0	42	0	0	64	4750
2026-01-14 09:21:11.55	70.89	48.70	-46.3	-48.7	15.4	0.00e+00	0	42	0	0	64	4691
2026-01-14 09:21:12.55	70.29	48.74	-46.4	-48.8	15.3	0.00e+00	0	42	0	0	64	4747
2026-01-14 09:21:13.55	69.68	48.78	-46.5	-49.0	15.2	0.00e+00	0	42	0	0	64	4835
2026-01-14 09:21:14.55	69.07	48.82	-46.3	-48.8	15.4	0.00e+00	0	43	0	0	64	4710
2026-01-14 09:21:15.54	68.46	48.85	-46.2	-48.6	15.5	0.00e+00	0	42	0	0	64	4644
2026-01-14 09:21:16.54	67.85	48.87	-46.3	-48.7	15.4	0.00e+00	0	42	0	0	64	4684
2026-01-14 09:21:17.54	67.24	48.90	-46.3	-48.7	15.4	0.00e+00	0	42	0	0	64	4663
2026-01-14 09:21:18.53	66.63	48.92	-46.0	-48.4	15.7	0.00e+00	0	42	0	0	63	4782
2026-01-14 09:21:19.53	66.01	48.93	-45.8	-48.1	16.1	0.00e+00	0	42	0	0	63	4600
2026-01-14 09:21:20.53	65.40	48.95	-46.2	-48.6	15.6	0.00e+00	0	42	0	0	63	4880
2026-01-14 09:21:21.53	64.78	48.96	-46.4	-48.8	15.4	0.00e+00	0	42	0	0	63	5012
2026-01-14 09:21:22.53	64.16	48.96	-46.3	-48.7	15.6	0.00e+00	0	43	0	0	63	4928
2026-01-14 09:21:23.53	63.55	48.96	-45.9	-48.1	16.0	0.00e+00	0	42	0	0	63	4642
2026-01-14 09:21:24.52	62.94	48.96	-45.6	-47.8	16.4	0.00e+00	0	42	0	0	63	4470
2026-01-14 09:21:25.52	62.32	48.96	-45.4	-47.5	16.6	0.00e+00	0	42	0	0	62	4586
2026-01-14 09:21:26.52	61.70	48.95	-45.5	-47.7	16.5	0.00e+00	0	42	0	0	62	4688
2026-01-14 09:21:27.52	61.09	48.94	-45.6	-47.8	16.4	0.00e+00	0	42	0	0	62	4752
2026-01-14 09:21:28.52	60.47	48.92	-45.5	-47.7	16.5	0.00e+00	0	42	0	0	62	4684
2026-01-14 09:21:29.52	59.86	48.90	-45.8	-48.0	16.2	0.00e+00	0	42	0	0	62	4869
2026-01-14 09:21:30.52	59.24	48.88	-46.2	-48.5	15.7	0.00e+00	0	42	0	0	63	4850
2026-01-14 09:21:31.52	58.63	48.85	-46.3	-48.7	15.5	0.00e+00	0	42	0	0	63	4938
2026-01-14 09:21:32.52	58.02	48.83	-46.3	-48.7	15.5	0.00e+00	0	42	0	0	63	4935
2026-01-14 09:21:33.51	57.41	48.79	-46.3	-48.6	15.6	0.00e+00	0	42	0	0	63	4921
2026-01-14 09:21:34.51	56.80	48.76	-46.4	-48.8	15.4	0.00e+00	0	42	0	0	63	5023
2026-01-14 09:21:35.51	56.20	48.72	-46.5	-48.9	15.4	0.00e+00	0	42	0	0	63	5072
2026-01-14 09:21:36.51	55.59	48.67	-46.6	-49.2	15.1	0.00e+00	0	42	0	0	63	5236
2026-01-14 09:21:37.51	54.99	48.63	-46.6	-49.1	15.1	7.00e-07	0	42	0	0	64	4915
2026-01-14 09:21:38.51	54.38	48.58	-46.4	-48.8	15.4	0.00e+00	0	42	0	0	64	4716
2026-01-14 09:21:39.50	53.79	48.52	-46.2	-48.6	15.6	0.00e+00	0	42	0	0	64	4615
2026-01-14 09:21:40.50	53.19	48.47	-45.9	-48.2	16.0	0.00e+00	0	42	0	0	63	4672
2026-01-14 09:21:41.50	52.60	48.41	-45.9	-48.1	16.2	0.00e+00	0	42	0	0	63	4637
2026-01-14 09:21:42.50	52.00	48.34	-45.9	-48.1	16.1	0.00e+00	0	42	0	0	63	4637
2026-01-14 09:21:43.50	51.41	48.28	-45.8	-48.0	16.2	0.00e+00	0	42	0	0	63	4591
2026-01-14 09:21:44.50	50.82	48.21	-45.9	-48.2	16.0	0.00e+00	0	42	0	0	63	4663
2026-01-14 09:21:45.50	50.24	48.13	-46.3	-48.7	15.5	0.00e+00	0	42	0	0	63	4958
2026-01-14 09:21:46.50	49.66	48.06	-46.4	-48.8	15.3	0.00e+00	0	42	0	0	63	5024
2026-01-14 09:21:47.49	49.08	47.98	-46.3	-48.8	15.3	0.00e+00	0	42	0	0	63	4988
2026-01-14 09:21:48.49	48.51	47.90	-46.3	-48.6	15.4	0.00e+00	0	42	0	0	63	4921
2026-01-14 09:21:49.49	47.93	47.81	-45.9	-48.1	16.0	0.00e+00	0	42	0	0	63	4630
2026-01-14 09:21:50.49	47.36	47.72	-45.8	-48.0	16.1	0.00e+00	0	42	0	0	63	4571
2026-01-14 09:21:51.49	46.80	47.63	-45.7	-48.0	16.2	0.00e+00	0	42	0	0	63	4564
2026-01-14 09:21:52.49	46.23	47.54	-45.9	-48.1	16.1	0.00e+00	0	42	0	0	63	4641
2026-01-14 09:21:53.49	45.67	47.44	-46.1	-48.4	15.8	0.00e+00	0	42	0	0	63	4785
2026-01-14 09:21:54.48	45.12	47.35	-46.3	-48.7	15.5	0.00e+00	0	42	0	0	63	4964
2026-01-14 09:21:55.49	44.56	47.24	-46.4	-48.8	15.3	0.00e+00	0	42	0	0	63	5015
2026-01-14 09:21:56.48	44.02	47.14	-46.5	-48.9	15.1	0.00e+00	0	42	0	0	63	5077
2026-01-14 09:21:57.48	43.47	47.03	-46.5	-48.9	15.2	0.00e+00	0	42	0	0	63	5091
2026-01-14 09:21:58.48	42.93	46.92	-46.2	-48.5	15.7	0.00e+00	0	42	0	0	63	4865
2026-01-14 09:21:59.48	42.39	46.81	-46.3	-48.7	15.6	0.00e+00	0	42	0	0	63	4942
2026-01-14 09:22:00.48	41.86	46.70	-46.6	-49.0	15.3	0.00e+00	0	42	0	0	63	5123
2026-01-14 09:22:01.48	41.33	46.58	-46.7	-49.3	15.0	0.00e+00	0	42	0	0	64	4988
2026-01-14 09:22:02.48	40.80	46.46	-46.6	-49.1	15.1	7.00e-07	0	42	0	0	64	4896
2026-01-14 09:22:03.48	40.28	46.34	-46.1	-48.4	15.6	0.00e+00	0	42	0	0	64	4544
2026-01-14 09:22:04.48	39.76	46.21	-45.8	-48.1	16.1	0.00e+00	0	42	0	0	63	4613
2026-01-14 09:22:05.48	39.25	46.09	-45.7	-47.9	16.3	0.00e+00	0	42	0	0	63	4526
2026-01-14 09:22:06.47	38.75	45.96	-46.2	-48.6	15.7	0.00e+00	0	42	0	0	63	4885
2026-01-14 09:22:07.47	38.24	45.83	-47.0	-49.6	14.6	7.00e-07	0	42	0	0	64	5214
2026-01-14 09:22:08.47	37.74	45.70	-47.4	-50.2	14.0	1.50e-06	0	42	0	0	65	5243
2026-01-14 09:22:09.47	37.24	45.56	-46.9	-49.5	14.5	1.50e-06	0	42	0	0	65	4858
2026-01-14 09:22:10.47	36.75	45.43	-46.0	-48.4	15.7	0.00e+00	0	42	0	0	64	4525
2026-01-14 09:22:11.47	36.26	45.29	-45.4	-47.6	16.6	0.00e+00	0	42	0	0	62	4640
2026-01-14 09:22:12.46	35.78	45.15	-45.7	-47.9	16.4	0.00e+00	0	42	0	0	62	4809
2026-01-14 09:22:13.46	35.30	45.01	-46.4	-49.0	15.4	0.00e+00	0	42	0	0	63	5104
2026-01-14 09:22:14.47	34.82	44.87	-47.2	-50.0	14.2	1.50e-06	0	42	0	0	65	5158
2026-01-14 09:22:15.47	34.35	44.72	-47.4	-50.3	13.8	8.30e-06	0	42	0	0	65	5297
2026-01-14 09:22:16.46	33.89	44.58	-46.5	-49.1	14.8	1.50e-06	0	42	0	0	65	4618
2026-01-14 09:22:17.46	33.42	44.43	-45.6	-47.9	16.0	0.00e+00	0	42	0	0	63	4506
2026-01-14 09:22:18.46	32.97	44.28	-45.3	-47.4	16.5	0.00e+00	0	42	0	0	62	4539
2026-01-14 09:22:19.46	32.51	44.13	-45.4	-47.5	16.6	0.00e+00	0	42	0	0	62	4577
2026-01-14 09:22:20.45	32.07	43.98	-45.5	-47.7	16.5	0.00e+00	0	42	0	0	62	4683
2026-01-14 09:22:21.45	31.62	43.82	-46.5	-49.0	15.3	0.00e+00	0	42	0	0	63	5105
2026-01-14 09:22:22.44	31.19	43.67	-47.7	-50.6	13.6	7.00e-07	0	42	0	0	65	5527
2026-01-14 09:22:23.44	30.75	43.51	-48.1	-51.3	12.7	5.72e-05	0	42	0	0	66	5628
2026-01-14 09:22:24.44	30.32	43.36	-47.4	-50.3	13.4	3.35e-05	0	42	0	0	66	5010
2026-01-14 09:22:25.43	29.89	43.20	-46.7	-49.2	14.4	3.00e-06	0	42	0	0	65	4699
2026-01-14 09:22:26.43	29.47	43.04	-46.4	-48.9	14.9	0.00e+00	0	42	0	0	64	4780
2026-01-14 09:22:27.43	29.05	42.88	-46.3	-48.8	15.3	0.00e+00	0	42	0	0	64	4738
2026-01-14 09:22:28.43	28.63	42.72	-46.5	-49.0	15.2	0.00e+00	0	42	0	0	64	4841
2026-01-14 09:22:29.43	28.22	42.55	-46.8	-49.4	14.8	0.00e+00	0	42	0	0	64	5085
2026-01-14 09:22:30.43	27.82	42.39	-47.0	-49.7	14.5	0.00e+00	0	42	0	0	64	5278
2026-01-14 09:22:31.43	27.41	42.23	-47.0	-49.8	14.5	0.00e+00	0	42	0	0	64	5298
2026-01-14 09:22:32.42	27.02	42.06	-46.6	-49.1	15.1	7.00e-07	0	42	0	0	64	4893
2026-01-14 09:22:33.42	26.62	41.90	-45.9	-48.2	16.0	0.00e+00	0	42	0	0	63	4658
2026-01-14 09:22:34.42	26.23	41.73	-45.5	-47.7	16.5	0.00e+00	0	42	0	0	63	4403
2026-01-14 09:22:35.42	25.85	41.56	-45.6	-47.8	16.5	0.00e+00	0	42	0	0	63	4456
2026-01-14 09:22:36.41	25.47	41.39	-46.1	-48.4	15.9	0.00e+00	0	42	0	0	63	4776
2026-01-14 09:22:37.41	25.09	41.22	-46.7	-49.2	15.1	0.00e+00	0	42	0	0	64	4968
2026-01-14 09:22:38.41	24.71	41.06	-47.3	-50.1	14.2	7.00e-07	0	42	0	0	65	5175
2026-01-14 09:22:39.40	24.35	40.89	-47.5	-50.3	13.8	6.80e-06	0	42	0	0	65	5334
2026-01-14 09:22:40.40	23.98	40.72	-47.1	-49.8	14.3	3.00e-06	0	42	0	0	65	5000
2026-01-14 09:22:41.40	23.62	40.54	-46.6	-49.1	14.9	0.00e+00	0	42	0	0	65	4644
2026-01-14 09:22:42.40	23.26	40.37	-46.5	-49.0	15.2	0.00e+00	0	42	0	0	65	4550
2026-01-14 09:22:43.40	22.90	40.20	-46.4	-48.8	15.4	7.00e-07	0	42	0	0	64	4718
2026-01-14 09:22:44.40	22.55	40.03	-46.1	-48.5	15.7	0.00e+00	0	42	0	0	64	4579
2026-01-14 09:22:45.40	22.21	39.86	-46.4	-48.9	15.4	0.00e+00	0	42	0	0	64	4762
2026-01-14 09:22:46.40	21.86	39.68	-46.6	-49.2	15.1	0.00e+00	0	42	0	0	64	4953
2026-01-14 09:22:47.40	21.52	39.51	-47.0	-49.8	14.5	0.00e+00	0	42	0	0	64	5298
2026-01-14 09:22:48.39	21.19	39.34	-47.1	-49.9	14.3	0.00e+00	0	42	0	0	64	5381
2026-01-14 09:22:49.39	20.86	39.16	-46.8	-49.4	14.8	7.00e-07	0	42	0	0	64	5094
2026-01-14 09:22:50.39	20.53	38.99	-46.4	-48.9	15.3	0.00e+00	0	42	0	0	64	4779
2026-01-14 09:22:51.39	20.20	38.81	-46.1	-48.4	15.8	0.00e+00	0	42	0	0	64	4533
2026-01-14 09:22:52.38	19.88	38.64	-45.6	-47.8	16.4	0.00e+00	0	42	0	0	63	4488
2026-01-14 09:22:53.38	19.56	38.47	-45.2	-47.4	16.9	0.00e+00	0	42	0	0	62	4504
2026-01-14 09:22:54.38	19.25	38.29	-45.6	-47.9	16.5	0.00e+00	0	42	0	0	62	4784
2026-01-14 09:22:55.38	18.93	38.12	-46.1	-48.5	15.8	0.00e+00	0	42	0	0	62	5141
2026-01-14 09:22:56.38	18.63	37.94	-46.2	-48.8	15.5	0.00e+00	0	42	0	0	63	5006
2026-01-14 09:22:57.38	18.32	37.77	-46.2	-48.8	15.5	0.00e+00	0	42	0	0	63	4988
2026-01-14 09:22:58.38	18.02	37.59	-46.1	-48.7	15.6	0.00e+00	0	42	0	0	63	4963
2026-01-14 09:22:59.38	17.72	37.42	-46.0	-48.5	15.8	0.00e+00	0	42	0	0	63	4832
2026-01-14 09:23:00.38	17.42	37.24	-45.9	-48.2	16.0	0.00e+00	0	42	0	0	63	4702
2026-01-14 09:23:01.38	17.13	37.07	-45.8	-48.1	16.2	0.00e+00	0	42	0	0	63	4616
2026-01-14 09:23:02.38	16.84	36.89	-45.5	-47.7	16.6	0.00e+00	0	42	0	0	63	4437
2026-01-14 09:23:03.38	16.56	36.72	-45.4	-47.6	16.7	0.00e+00	0	42	0	0	62	4622
2026-01-14 09:23:04.37	16.28	36.54	-45.3	-47.5	16.8	0.00e+00	0	42	0	0	62	4579
2026-01-14 09:23:05.38	15.99	36.37	-45.6	-47.8	16.6	0.00e+00	0	42	0	0	62	4725
2026-01-14 09:23:06.37	15.72	36.20	-45.6	-47.8	16.5	0.00e+00	0	42	0	0	62	4749
2026-01-14 09:23:07.37	15.45	36.02	-45.7	-47.9	16.4	0.00e+00	0	42	0	0	62	4807
2026-01-14 09:23:08.37	15.18	35.85	-45.7	-47.9	16.4	0.00e+00	0	42	0	0	62	4773
2026-01-14 09:23:09.37	14.91	35.67	-45.2	-47.3	17.0	0.00e+00	0	42	0	0	62	4454
2026-01-14 09:23:10.37	14.64	35.50	-44.8	-46.9	17.3	0.00e+00	0	42	0	0	61	4500
2026-01-14 09:23:11.37	14.38	35.33	-44.7	-46.7	17.5	0.00e+00	0	42	0	0	61	4417
2026-01-14 09:23:12.36	14.12	35.16	-44.7	-46.8	17.5	0.00e+00	0	42	0	0	61	4445
2026-01-14 09:23:13.36	13.87	34.98	-44.8	-46.8	17.5	0.00e+00	0	42	0	0	61	4454
2026-01-14 09:23:14.36	13.61	34.81	-44.9	-47.0	17.3	0.00e+00	0	42	0	0	61	4559
2026-01-14 09:23:15.36	13.36	34.64	-44.8	-46.9	17.3	0.00e+00	0	42	0	0	61	4502
2026-01-14 09:23:16.36	13.11	34.47	-44.8	-46.8	17.4	0.00e+00	0	42	0	0	61	4463
2026-01-14 09:23:17.36	12.87	34.30	-44.8	-46.8	17.3	0.00e+00	0	42	0	0	61	4493
2026-01-14 09:23:18.35	12.62	34.13	-44.8	-46.8	17.3	0.00e+00	0	42	0	0	61	4483
2026-01-14 09:23:19.35	12.38	33.96	-44.9	-47.0	17.2	0.00e+00	0	42	0	0	61	4563
2026-01-14 09:23:20.35	12.15	33.79	-45.0	-47.1	17.0	0.00e+00	0	42	0	0	61	4647
2026-01-14 09:23:21.35	11.91	33.62	-45.2	-47.4	16.8	0.00e+00	0	42	0	0	61	4769
2026-01-14 09:23:22.34	11.68	33.45	-45.3	-47.5	16.6	0.00e+00	0	42	0	0	61	4817
2026-01-14 09:23:23.34	11.45	33.28	-45.2	-47.4	16.7	0.00e+00	0	42	0	0	61	4772
2026-01-14 09:23:24.34	11.22	33.11	-45.1	-47.2	16.9	0.00e+00	0	42	0	0	61	4700
2026-01-14 09:23:25.34	10.99	32.94	-44.9	-46.9	17.2	0.00e+00	0	42	0	0	61	4529
2026-01-14 09:23:26.34	10.77	32.77	-44.5	-46.6	17.6	0.00e+00	0	42	0	0	61	4342
2026-01-14 09:23:27.33	10.55	32.61	-44.5	-46.6	17.6	0.00e+00	0	42	0	0	61	4360
2026-01-14 09:23:28.33	10.33	32.44	-44.7	-46.8	17.4	0.00e+00	0	42	0	0	61	4475
2026-01-14 09:23:29.33	10.11	32.27	-44.9	-47.0	17.2	0.00e+00	0	42	0	0	61	4595
2026-01-14 09:23:30.33	9.90	32.11	-45.0	-47.2	17.0	0.00e+00	0	42	0	0	61	4666
2026-01-14 09:23:31.33	9.69	31.94	-45.0	-47.2	17.0	0.00e+00	0	42	0	0	61	4661
2026-01-14 09:23:32.33	9.48	31.78	-45.1	-47.2	17.0	0.00e+00	0	42	0	0	61	4688
2026-01-14 09:23:33.33	9.27	31.61	-45.0	-47.2	17.0	0.00e+00	0	42	0	0	61	4657
2026-01-14 09:23:34.33	9.06	31.45	-45.1	-47.2	17.0	0.00e+00	0	42	0	0	61	4653
2026-01-14 09:23:35.33	8.86	31.29	-44.9	-46.9	17.3	0.00e+00	0	42	0	0	61	4531
2026-01-14 09:23:36.33	8.66	31.12	-44.7	-46.7	17.5	0.00e+00	0	42	0	0	61	4421
2026-01-14 09:23:37.33	8.46	30.96	-44.6	-46.6	17.7	0.00e+00	0	42	0	0	61	4348
2026-01-14 09:23:38.33	8.26	30.80	-44.6	-46.6	17.6	0.00e+00	0	42	0	0	61	4363
2026-01-14 09:23:39.32	8.07	30.64	-44.7	-46.8	17.5	0.00e+00	0	42	0	0	61	4442
2026-01-14 09:23:40.32	7.87	30.48	-44.8	-46.8	17.4	0.00e+00	0	42	0	0	61	4468
2026-01-14 09:23:41.32	7.68	30.32	-44.9	-47.0	17.3	0.00e+00	0	42	0	0	61	4554
2026-01-14 09:23:42.32	7.49	30.16	-44.8	-46.8	17.4	0.00e+00	0	42	0	0	61	4482
2026-01-14 09:23:43.32	7.30	30.00	-44.7	-46.7	17.5	0.00e+00	0	42	0	0	61	4429
2026-01-14 09:23:44.32	7.12	29.84	-44.7	-46.8	17.4	0.00e+00	0	42	0	0	61	4449
2026-01-14 09:23:45.31	6.93	29.68	-44.7	-46.7	17.5	0.00e+00	0	42	0	0	61	4424
2026-01-14 09:23:46.31	6.75	29.52	-44.7	-46.7	17.4	0.00e+00	0	42	0	0	61	4441
2026-01-14 09:23:47.32	6.57	29.36	-44.8	-46.9	17.3	0.00e+00	0	42	0	0	61	4510
2026-01-14 09:23:48.32	6.39	29.21	-44.9	-47.0	17.2	0.00e+00	0	42	0	0	61	4560
2026-01-14 09:23:49.31	6.21	29.05	-44.9	-47.1	17.1	0.00e+00	0	42	0	0	61	4601
2026-01-14 09:23:50.31	6.04	28.90	-44.7	-46.7	17.4	0.00e+00	0	42	0	0	61	4437
2026-01-14 09:23:51.31	5.87	28.74	-44.6	-46.6	17.5	0.00e+00	0	42	0	0	61	4350
2026-01-14 09:23:52.30	5.70	28.59	-44.4	-46.4	17.7	0.00e+00	0	42	0	0	60	4504
2026-01-14 09:23:53.31	5.52	28.43	-44.4	-46.3	17.8	0.00e+00	0	42	0	0	60	4484
2026-01-14 09:23:54.30	5.36	28.28	-44.3	-46.3	17.8	0.00e+00	0	42	0	0	60	4470
2026-01-14 09:23:55.30	5.19	28.13	-44.3	-46.3	17.8	0.00e+00	0	42	0	0	60	4457
2026-01-14 09:23:56.30	5.02	27.98	-44.3	-46.2	17.9	0.00e+00	0	42	0	0	60	4428
2026-01-14 09:23:57.30	4.86	27.83	-44.3	-46.2	17.9	0.00e+00	0	42	0	0	60	4433
2026-01-14 09:23:58.30	4.70	27.67	-44.2	-46.1	17.9	0.00e+00	0	42	0	0	60	4391
2026-01-14 09:23:59.30	4.54	27.52	-44.3	-46.3	17.8	0.00e+00	0	42	0	0	60	4458
2026-01-14 09:24:00.30	4.38	27.37	-44.3	-46.2	17.9	0.00e+00	0	42	0	0	60	4425
2026-01-14 09:24:01.29	4.22	27.23	-44.3	-46.3	17.9	0.00e+00	0	42	0	0	60	4448
2026-01-14 09:24:02.29	4.07	27.08	-44.2	-46.2	17.9	0.00e+00	0	42	0	0	60	4404
2026-01-14 09:24:03.29	3.91	26.93	-44.3	-46.2	17.9	0.00e+00	0	42	0	0	60	4424
2026-01-14 09:24:04.29	3.76	26.78	-44.2	-46.1	18.0	0.00e+00	0	42	0	0	60	4362
2026-01-14 09:24:05.29	3.61	26.63	-44.2	-46.1	18.0	0.00e+00	0	42	0	0	60	4378
2026-01-14 09:24:06.29	3.46	26.49	-44.1	-46.0	18.1	0.00e+00	0	42	0	0	60	4326
2026-01-14 09:24:07.29	3.31	26.34	-44.1	-46.0	18.0	0.00e+00	0	42	0	0	60	4332
2026-01-14 09:24:08.29	3.16	26.20	-43.9	-45.8	18.2	0.00e+00	0	42	0	0	59	4466
2026-01-14 09:24:09.29	3.01	26.05	-43.9	-45.8	18.2	0.00e+00	0	42	0	0	59	4477
2026-01-14 09:24:10.28	2.87	25.91	-43.7	-45.6	18.4	0.00e+00	0	42	0	0	59	4362
2026-01-14 09:24:11.29	2.73	25.76	-43.8	-45.7	18.3	0.00e+00	0	42	0	0	59	4417
2026-01-14 09:24:12.29	2.58	25.62	-43.8	-45.7	18.3	0.00e+00	0	42	0	0	59	4417
2026-01-14 09:24:13.28	2.44	25.48	-43.9	-45.8	18.2	0.00e+00	0	42	0	0	59	4470
2026-01-14 09:24:14.27	2.31	25.34	-43.9	-45.8	18.2	0.00e+00	0	42	0	0	59	4481
2026-01-14 09:24:15.27	2.17	25.20	-43.9	-45.8	18.2	0.00e+00	0	42	0	0	59	4442
2026-01-14 09:24:16.27	2.03	25.06	-44.0	-45.9	18.2	0.00e+00	0	42	0	0	59	4497
2026-01-14 09:24:17.26	1.90	24.92	-44.1	-46.0	18.0	0.00e+00	0	42	0	0	59	4572
2026-01-14 09:24:18.26	1.76	24.78	-44.1	-46.0	18.0	0.00e+00	0	42	0	0	59	4587
2026-01-14 09:24:19.26	1.63	24.64	-44.1	-46.1	17.9	0.00e+00	0	42	0	0	59	4618
2026-01-14 09:24:20.26	1.50	24.50	-44.2	-46.2	17.8	0.00e+00	0	42	0	0	59	4678
2026-01-14 09:24:21.26	1.37	24.36	-44.2	-46.3	17.7	0.00e+00	0	42	0	0	59	4727
2026-01-14 09:24:22.26	1.24	24.23	-44.3	-46.4	17.7	0.00e+00	0	42	0	0	59	4786
2026-01-14 09:24:23.25	1.11	24.09	-44.4	-46.5	17.5	0.00e+00	0	42	0	0	59	4835
2026-01-14 09:24:24.25	0.98	23.95	-44.4	-46.5	17.5	0.00e+00	0	42	0	0	59	4869
2026-01-14 09:24:25.25	0.86	23.82	-44.4	-46.6	17.5	0.00e+00	0	42	0	0	59	4897
2026-01-14 09:24:26.25	0.73	23.68	-44.5	-46.7	17.4	0.00e+00	0	42	0	0	59	4937
2026-01-14 09:24:27.25	0.61	23.55	-44.5	-46.7	17.4	0.00e+00	0	42	0	0	59	4948
2026-01-14 09:24:28.26	0.48	23.41	-44.7	-46.8	17.2	0.00e+00	0	42	0	0	59	5040
2026-01-14 09:24:29.25	0.36	23.28	-44.6	-46.7	17.4	0.00e+00	0	42	0	0	60	4695
2026-01-14 09:24:30.25	0.24	23.15	-44.6	-46.7	17.4	0.00e+00	0	42	0	0	60	4685
2026-01-14 09:24:31.25	0.12	23.02	-44.6	-46.7	17.4	0.00e+00	0	42	0	0	60	4691
2026-01-14 09:24:32.25	0.00	22.88	-44.5	-46.6	17.5	0.00e+00	0	42	0	0	60	4623
2026-01-14 09:24:33.25	359.88	22.75	-44.5	-46.6	17.5	0.00e+00	0	42	0	0	60	4625
2026-01-14 09:24:34.24	359.77	22.62	-44.4	-46.5	17.6	0.00e+00	0	42	0	0	60	4582
2026-01-14 09:24:35.24	359.65	22.49	-44.4	-46.4	17.7	0.00e+00	0	42	0	0	60	4535
2026-01-14 09:24:36.24	359.54	22.36	-44.4	-46.5	17.6	0.00e+00	0	42	0	0	60	4551
2026-01-14 09:24:37.24	359.42	22.23	-44.3	-46.3	17.8	0.00e+00	0	42	0	0	60	4469
2026-01-14 09:24:38.23	359.31	22.11	-44.2	-46.3	17.8	0.00e+00	0	42	0	0	60	4446
2026-01-14 09:24:39.23	359.20	21.98	-44.3	-46.3	17.8	0.00e+00	0	42	0	0	60	4452
2026-01-14 09:24:40.23	359.09	21.85	-44.3	-46.3	17.8	0.00e+00	0	42	0	0	60	4484
2026-01-14 09:24:41.23	358.98	21.72	-44.3	-46.4	17.8	0.00e+00	0	42	0	0	60	4494
2026-01-14 09:24:42.23	358.87	21.60	-44.4	-46.4	17.8	0.00e+00	0	42	0	0	60	4518
2026-01-14 09:24:43.22	358.76	21.47	-44.3	-46.3	17.8	0.00e+00	0	42	0	0	60	4491
2026-01-14 09:24:44.22	358.66	21.35	-44.3	-46.3	17.8	0.00e+00	0	42	0	0	60	4478
2026-01-14 09:24:45.22	358.55	21.22	-44.4	-46.4	17.8	0.00e+00	0	42	0	0	60	4505
2026-01-14 09:24:46.22	358.44	21.10	-44.3	-46.4	17.8	0.00e+00	0	42	0	0	60	4499
2026-01-14 09:24:47.22	358.34	20.97	-44.3	-46.3	17.8	0.00e+00	0	42	0	0	60	4456
2026-01-14 09:24:48.22	358.24	20.85	-44.3	-46.4	17.7	0.00e+00	0	42	0	0	60	4502
2026-01-14 09:24:49.21	358.13	20.73	-44.3	-46.3	17.7	0.00e+00	0	42	0	0	60	4493
2026-01-14 09:24:50.21	358.03	20.61	-44.3	-46.3	17.8	0.00e+00	0	42	0	0	60	4456
2026-01-14 09:24:51.21	357.93	20.48	-44.3	-46.4	17.7	0.00e+00	0	42	0	0	60	4498
2026-01-14 09:24:52.21	357.83	20.36	-44.3	-46.3	17.8	0.00e+00	0	42	0	0	60	4447
2026-01-14 09:24:53.21	357.73	20.24	-44.2	-46.2	17.8	0.00e+00	0	42	0	0	60	4430
2026-01-14 09:24:54.21	357.63	20.12	-44.1	-46.1	17.8	0.00e+00	0	42	0	0	60	4371
2026-01-14 09:24:55.21	357.53	20.00	-44.1	-46.1	17.9	0.00e+00	0	42	0	0	60	4355
2026-01-14 09:24:56.21	357.44	19.88	-44.0	-46.0	17.9	0.00e+00	0	42	0	0	60	4311
2026-01-14 09:24:57.21	357.34	19.76	-44.0	-46.0	17.9	0.00e+00	0	42	0	0	60	4335
2026-01-14 09:24:58.20	357.25	19.64	-44.1	-46.1	17.9	0.00e+00	0	42	0	0	60	4357
2026-01-14 09:24:59.20	357.15	19.53	-44.0	-46.1	17.9	0.00e+00	0	42	0	0	60	4342
2026-01-14 09:25:00.20	357.06	19.41	-43.9	-46.0	17.9	0.00e+00	0	42	0	0	59	4556
2026-01-14 09:25:01.19	356.96	19.29	-43.8	-45.9	18.0	0.00e+00	0	42	0	0	59	4501
2026-01-14 09:25:02.19	356.87	19.18	-43.8	-45.9	18.0	0.00e+00	0	42	0	0	59	4521
2026-01-14 09:25:03.19	356.78	19.06	-43.9	-45.9	18.0	0.00e+00	0	42	0	0	59	4527
2026-01-14 09:25:04.18	356.69	18.94	-43.9	-45.9	18.0	0.00e+00	0	42	0	0	59	4522
2026-01-14 09:25:05.18	356.60	18.83	-43.8	-45.8	18.0	0.00e+00	0	42	0	0	59	4480
2026-01-14 09:25:06.18	356.51	18.71	-43.9	-45.9	18.0	0.00e+00	0	42	0	0	59	4503
2026-01-14 09:25:07.18	356.42	18.60	-43.9	-45.9	18.0	0.00e+00	0	42	0	0	59	4505
2026-01-14 09:25:08.18	356.33	18.49	-43.9	-45.9	18.0	0.00e+00	0	42	0	0	59	4516
2026-01-14 09:25:09.17	356.24	18.37	-44.0	-45.9	18.0	0.00e+00	0	42	0	0	59	4541
2026-01-14 09:25:10.17	356.16	18.26	-44.1	-46.1	17.9	0.00e+00	0	42	0	0	59	4600
2026-01-14 09:25:11.17	356.07	18.15	-44.1	-46.2	17.8	0.00e+00	0	42	0	0	59	4652
2026-01-14 09:25:12.16	355.99	18.04	-44.1	-46.1	17.9	0.00e+00	0	42	0	0	59	4614
2026-01-14 09:25:13.16	355.90	17.93	-44.1	-46.1	17.8	0.00e+00	0	42	0	0	59	4649
2026-01-14 09:25:14.16	355.82	17.81	-44.2	-46.2	17.7	0.00e+00	0	42	0	0	59	4701
2026-01-14 09:25:15.16	355.73	17.70	-44.3	-46.3	17.6	0.00e+00	0	42	0	0	59	4756
2026-01-14 09:25:16.15	355.65	17.59	-44.4	-46.4	17.6	0.00e+00	0	42	0	0	59	4791
2026-01-14 09:25:17.15	355.57	17.48	-44.4	-46.5	17.6	0.00e+00	0	42	0	0	59	4820
2026-01-14 09:25:18.15	355.49	17.37	-44.6	-46.6	17.4	0.00e+00	0	42	0	0	59	4896
2026-01-14 09:25:19.15	355.41	17.27	-44.6	-46.7	17.3	0.00e+00	0	42	0	0	59	4952
2026-01-14 09:25:20.15	355.33	17.16	-44.7	-46.8	17.3	0.00e+00	0	42	0	0	60	4730
2026-01-14 09:25:21.15	355.25	17.05	-44.7	-46.8	17.3	0.00e+00	0	42	0	0	60	4759
2026-01-14 09:25:22.15	355.17	16.94	-44.9	-47.0	17.1	0.00e+00	0	42	0	0	60	4858
2026-01-14 09:25:23.15	355.09	16.83	-44.8	-47.0	17.1	0.00e+00	0	42	0	0	60	4869
2026-01-14 09:25:24.15	355.01	16.73	-44.8	-47.1	17.0	0.00e+00	0	42	0	0	60	4909
2026-01-14 09:25:25.14	354.93	16.62	-44.8	-47.1	17.0	0.00e+00	0	42	0	0	60	4900
2026-01-14 09:25:26.14	354.85	16.51	-44.8	-47.2	17.0	0.00e+00	0	42	0	0	60	4933
2026-01-14 09:25:27.14	354.78	16.41	-44.9	-47.3	16.9	0.00e+00	0	42	0	0	60	4999
2026-01-14 09:25:28.14	354.70	16.30	-44.9	-47.3	16.8	0.00e+00	0	42	0	0	60	5000
2026-01-14 09:25:29.14	354.63	16.20	-45.0	-47.4	16.8	0.00e+00	0	42	0	0	60	5046
2026-01-14 09:25:30.15	354.55	16.09	-45.0	-47.3	16.8	0.00e+00	0	42	0	0	60	5005
2026-01-14 09:25:31.14	354.48	15.99	-45.1	-47.4	16.7	0.00e+00	0	41	0	0	60	5065
2026-01-14 09:25:32.14	354.40	15.89	-45.1	-47.4	16.7	0.00e+00	0	42	0	0	60	5067
2026-01-14 09:25:33.14	354.33	15.78	-45.0	-47.3	16.8	0.00e+00	0	42	0	0	60	5031
2026-01-14 09:25:34.13	354.26	15.68	-45.1	-47.4	16.7	0.00e+00	0	42	0	0	60	5054
2026-01-14 09:25:35.12	354.19	15.58	-45.0	-47.3	16.8	0.00e+00	0	41	0	0	60	4998
2026-01-14 09:25:36.12	354.12	15.48	-45.0	-47.3	16.8	0.00e+00	0	42	0	0	60	4987
2026-01-14 09:25:37.11	354.05	15.38	-44.9	-47.1	16.9	0.00e+00	0	42	0	0	60	4917
2026-01-14 09:25:38.11	353.97	15.27	-44.9	-47.1	16.9	0.00e+00	0	42	0	0	60	4925
2026-01-14 09:25:39.11	353.90	15.17	-45.0	-47.3	16.8	0.00e+00	0	42	0	0	60	4984
2026-01-14 09:25:40.10	353.84	15.07	-44.8	-47.1	16.9	0.00e+00	0	42	0	0	60	4897
2026-01-14 09:25:41.10	353.77	14.97	-44.8	-47.1	16.9	0.00e+00	0	42	0	0	60	4888
2026-01-14 09:25:42.10	353.70	14.87	-44.9	-47.2	16.8	0.00e+00	0	42	0	0	60	4938
2026-01-14 09:25:43.10	353.63	14.77	-44.8	-47.0	17.0	0.00e+00	0	42	0	0	60	4847
2026-01-14 09:25:44.09	353.56	14.67	-44.7	-46.9	17.0	0.00e+00	0	42	0	0	60	4803
2026-01-14 09:25:45.10	353.49	14.57	-44.8	-46.9	17.1	0.00e+00	0	42	0	0	60	4803
2026-01-14 09:25:46.10	353.43	14.48	-44.9	-47.0	16.9	0.00e+00	0	42	0	0	60	4869
2026-01-14 09:25:47.09	353.36	14.38	-44.7	-46.9	17.1	0.00e+00	0	42	0	0	60	4782
2026-01-14 09:25:48.09	353.30	14.28	-44.8	-47.0	17.0	0.00e+00	0	42	0	0	60	4820
2026-01-14 09:25:49.08	353.23	14.18	-44.7	-46.9	17.1	0.00e+00	0	42	0	0	60	4803
2026-01-14 09:25:50.08	353.17	14.09	-44.7	-46.9	17.1	0.00e+00	0	42	0	0	60	4793
2026-01-14 09:25:51.08	353.10	13.99	-44.8	-47.0	17.0	0.00e+00	0	42	0	0	60	4837
2026-01-14 09:25:52.08	353.04	13.89	-44.8	-47.0	16.9	0.00e+00	0	42	0	0	60	4855
2026-01-14 09:25:53.08	352.97	13.80	-44.9	-47.2	16.8	0.00e+00	0	42	0	0	60	4949
2026-01-14 09:25:54.08	352.91	13.70	-44.7	-46.9	17.0	0.00e+00	0	42	0	0	60	4812
2026-01-14 09:25:55.08	352.85	13.61	-44.6	-46.9	17.1	0.00e+00	0	42	0	0	60	4808
2026-01-14 09:25:56.08	352.79	13.51	-44.6	-47.0	17.0	0.00e+00	0	42	0	0	60	4846
2026-01-14 09:25:57.08	352.72	13.42	-44.5	-47.0	17.0	0.00e+00	0	42	0	0	60	4837
2026-01-14 09:25:58.08	352.66	13.32	-44.5	-47.0	17.0	0.00e+00	0	42	0	0	60	4869
2026-01-14 09:25:59.08	352.60	13.23	-44.5	-47.1	16.9	0.00e+00	0	42	0	0	60	4914
2026-01-14 09:26:00.09	352.54	13.13	-44.5	-47.1	16.9	0.00e+00	0	42	0	0	60	4888
2026-01-14 09:26:01.09	352.48	13.04	-44.5	-47.1	16.9	0.00e+00	0	42	0	0	60	4915
2026-01-14 09:26:02.08	352.42	12.95	-44.4	-47.1	16.9	0.00e+00	0	42	0	0	60	4909
2026-01-14 09:26:03.08	352.36	12.85	-44.4	-47.1	16.9	0.00e+00	0	42	0	0	60	4924
2026-01-14 09:26:04.08	352.30	12.76	-44.4	-47.2	16.8	0.00e+00	0	42	0	0	60	4952
2026-01-14 09:26:05.08	352.24	12.67	-44.4	-47.3	16.7	0.00e+00	0	42	0	0	60	4990
2026-01-14 09:26:06.08	352.19	12.58	-44.3	-47.2	16.8	0.00e+00	0	42	0	0	60	4980
2026-01-14 09:26:07.07	352.13	12.49	-44.4	-47.3	16.8	0.00e+00	0	42	0	0	60	4985
2026-01-14 09:26:08.07	352.07	12.40	-44.5	-47.3	16.7	0.00e+00	0	42	0	0	60	5040
2026-01-14 09:26:09.07	352.01	12.31	-44.6	-47.4	16.6	0.00e+00	0	42	0	0	60	5081
2026-01-14 09:26:10.07	351.96	12.22	-44.7	-47.4	16.6	0.00e+00	0	42	0	0	60	5062
2026-01-14 09:26:11.07	351.90	12.12	-44.7	-47.4	16.6	0.00e+00	0	42	0	0	60	5095
2026-01-14 09:26:12.07	351.84	12.03	-44.9	-47.4	16.5	0.00e+00	0	42	0	0	60	5095
2026-01-14 09:26:13.07	351.79	11.95	-44.8	-47.4	16.6	0.00e+00	0	42	0	0	60	5070
2026-01-14 09:26:14.06	351.73	11.86	-45.0	-47.5	16.5	0.00e+00	0	42	0	0	60	5151
2026-01-14 09:26:15.07	351.68	11.77	-45.0	-47.5	16.4	0.00e+00	0	42	0	0	60	5158
2026-01-14 09:26:16.07	351.62	11.68	-45.0	-47.5	16.5	0.00e+00	0	41	0	0	60	5124
2026-01-14 09:26:17.06	351.57	11.59	-44.8	-47.4	16.6	0.00e+00	0	42	0	0	60	5045
2026-01-14 09:26:18.06	351.52	11.50	-44.9	-47.5	16.5	0.00e+00	0	42	0	0	60	5111
2026-01-14 09:26:19.06	351.46	11.41	-44.8	-47.5	16.5	0.00e+00	0	42	0	0	60	5112
2026-01-14 09:26:20.05	351.41	11.33	-44.8	-47.5	16.5	0.00e+00	0	42	0	0	60	5110
2026-01-14 09:26:21.05	351.36	11.24	-44.7	-47.5	16.5	0.00e+00	0	41	0	0	60	5114
2026-01-14 09:26:22.05	351.31	11.15	-44.6	-47.5	16.5	0.00e+00	0	42	0	0	60	5116
2026-01-14 09:26:23.05	351.25	11.07	-44.7	-47.5	16.4	0.00e+00	0	42	0	0	60	5152
2026-01-14 09:26:24.05	351.20	10.98	-44.7	-47.6	16.3	0.00e+00	0	42	0	0	60	5204
2026-01-14 09:26:25.04	351.15	10.89	-44.5	-47.4	16.5	0.00e+00	0	42	0	0	60	5092
2026-01-14 09:26:26.04	351.10	10.81	-44.5	-47.5	16.4	0.00e+00	0	42	0	0	60	5123
2026-01-14 09:26:27.04	351.05	10.72	-44.7	-47.6	16.3	0.00e+00	0	42	0	0	60	5206
2026-01-14 09:26:28.04	351.00	10.64	-44.7	-47.6	16.4	0.00e+00	0	42	0	0	60	5170
2026-01-14 09:26:29.03	350.95	10.55	-44.7	-47.5	16.4	0.00e+00	0	42	0	0	60	5155
2026-01-14 09:26:30.03	350.90	10.47	-44.8	-47.6	16.3	0.00e+00	0	42	0	0	60	5215
2026-01-14 09:26:31.03	350.85	10.38	-44.8	-47.5	16.4	0.00e+00	0	42	0	0	60	5159
2026-01-14 09:26:32.02	350.80	10.30	-45.0	-47.6	16.3	0.00e+00	0	42	0	0	60	5202
2026-01-14 09:26:33.02	350.75	10.22	-45.1	-47.5	16.4	0.00e+00	0	42	0	0	60	5155
2026-01-14 09:26:34.02	350.70	10.13	-45.1	-47.5	16.4	0.00e+00	0	42	0	0	60	5128
2026-01-14 09:26:35.02	350.65	10.05	-45.2	-47.6	16.3	0.00e+00	0	42	0	0	61	4892
2026-01-14 09:26:36.02	350.61	9.97	-45.3	-47.7	16.2	0.00e+00	0	42	0	0	61	4941
2026-01-14 09:26:37.02	350.56	9.88	-45.3	-47.6	16.3	0.00e+00	0	42	0	0	61	4897
2026-01-14 09:26:38.02	350.51	9.80	-45.3	-47.7	16.2	0.00e+00	0	42	0	0	61	4955
2026-01-14 09:26:39.02	350.46	9.72	-45.4	-47.7	16.2	0.00e+00	0	42	0	0	61	4974
2026-01-14 09:26:40.02	350.42	9.63	-45.5	-47.9	16.0	0.00e+00	0	42	0	0	61	5073
2026-01-14 09:26:41.02	350.37	9.55	-45.3	-47.8	16.1	0.00e+00	0	42	0	0	61	5013
2026-01-14 09:26:42.02	350.32	9.47	-45.3	-47.9	16.0	0.00e+00	0	42	0	0	61	5098
2026-01-14 09:26:43.01	350.28	9.39	-45.3	-47.9	16.0	0.00e+00	0	42	0	0	61	5060
2026-01-14 09:26:44.01	350.23	9.31	-45.1	-47.8	16.1	0.00e+00	0	42	0	0	61	5019
2026-01-14 09:26:45.01	350.19	9.23	-45.1	-47.9	16.0	0.00e+00	0	42	0	0	61	5063
2026-01-14 09:26:46.01	350.14	9.15	-45.2	-48.0	15.9	0.00e+00	0	42	0	0	61	5102
2026-01-14 09:26:47.00	350.10	9.07	-45.3	-48.1	15.8	0.00e+00	0	41	0	0	61	5178
2026-01-14 09:26:48.00	350.05	8.99	-50.6	-61.8	4.3	3.85e-02	0	42	0	0	72	13356
2026-01-14 09:26:49.00	350.01	8.91	-50.1	-65.1	3.8	1.49e+00	0	42	104	0	70	21914
2026-01-14 09:26:50.00	349.96	8.83	-51.6	-65.4	3.8	1.49e+00	0	42	104	0	74	17978
2026-01-14 09:26:51.00	349.92	8.75	-51.0	-65.5	3.8	1.49e+00	0	42	104	0	74	18292
2026-01-14 09:26:52.00	349.87	8.67	-52.5	-65.6	3.8	1.49e+00	0	42	104	0	75	17286
2026-01-14 09:26:53.00	349.83	8.59	-51.3	-65.7	3.8	1.49e+00	0	42	104	0	74	18571
2026-01-14 09:26:54.00	349.79	8.51	-52.8	-65.7	3.8	1.49e+00	0	42	104	0	76	16682
2026-01-14 09:26:55.00	349.75	8.43	-52.7	-65.7	3.8	1.49e+00	0	42	104	0	76	16608
2026-01-14 09:26:55.99	349.70	8.35	-52.6	-65.8	3.8	1.49e+00	0	42	104	0	76	16775
2026-01-14 09:26:56.99	349.66	8.28	-52.7	-65.8	3.8	1.49e+00	0	42	104	0	76	16745
2026-01-14 09:26:57.99	349.62	8.20	-52.7	-65.8	3.8	1.49e+00	0	42	104	0	76	16798
2026-01-14 09:26:58.98	349.58	8.12	-52.8	-65.8	3.8	1.49e+00	0	42	104	0	76	16811
2026-01-14 09:26:59.98	349.54	8.04	-52.6	-65.8	3.8	1.49e+00	0	42	104	0	76	16835
2026-01-14 09:27:00.99	349.49	7.96	-52.8	-65.8	3.8	1.49e+00	0	42	104	0	76	16806
2026-01-14 09:27:01.98	349.45	7.89	-52.8	-65.8	3.8	1.49e+00	0	42	104	0	76	16824
2026-01-14 09:27:02.98	349.41	7.81	-52.8	-65.8	3.8	1.49e+00	0	42	104	0	76	16859
2026-01-14 09:27:03.98	349.37	7.74	-52.6	-65.8	3.8	1.49e+00	0	42	104	0	76	16884
2026-01-14 09:27:04.98	349.33	7.66	-52.8	-65.8	3.8	1.49e+00	0	42	104	0	76	16873
2026-01-14 09:27:05.97	349.29	7.58	-52.8	-65.8	3.8	1.49e+00	0	42	104	0	76	16863
2026-01-14 09:27:06.97	349.25	7.51	-52.8	-65.9	3.8	1.49e+00	0	42	104	0	76	16917
2026-01-14 09:27:07.97	349.21	7.43	-52.9	-65.8	3.8	1.49e+00	0	42	104	0	76	16850
2026-01-14 09:27:08.98	349.17	7.35	-52.8	-65.8	3.8	1.49e+00	0	42	104	0	76	16878
2026-01-14 09:27:09.97	349.13	7.28	-52.8	-65.9	3.8	1.49e+00	0	42	104	0	76	16893
2026-01-14 09:27:10.97	349.09	7.21	-52.8	-65.9	3.8	1.49e+00	0	42	104	0	76	16888
2026-01-14 09:27:11.97	349.05	7.13	-52.7	-65.8	3.8	1.49e+00	0	42	104	0	76	16864
2026-01-14 09:27:12.96	349.02	7.06	-52.9	-65.8	3.8	1.49e+00	0	42	104	0	76	16845
2026-01-14 09:27:13.96	348.98	6.98	-52.7	-65.8	3.8	1.49e+00	0	42	104	0	76	16877
2026-01-14 09:27:14.96	348.94	6.91	-52.7	-65.8	3.8	1.49e+00	0	41	104	0	76	16817
2026-01-14 09:27:15.96	348.90	6.83	-52.7	-65.8	3.8	1.49e+00	0	42	104	0	76	16822
2026-01-14 09:27:16.96	348.86	6.76	-52.6	-65.8	3.8	1.49e+00	0	42	104	0	76	16772
2026-01-14 09:27:17.95	348.83	6.69	-52.6	-65.8	3.8	1.49e+00	0	42	104	0	76	16774
2026-01-14 09:27:18.95	348.79	6.61	-52.6	-65.8	3.8	1.49e+00	0	42	104	0	76	16758
2026-01-14 09:27:19.95	348.75	6.54	-52.6	-65.8	3.8	1.49e+00	0	42	104	0	76	16756
2026-01-14 09:27:20.94	348.71	6.47	-52.6	-65.8	3.8	1.49e+00	0	42	104	0	76	16763
2026-01-14 09:27:21.94	348.68	6.39	-52.6	-65.8	3.8	1.49e+00	0	42	104	0	76	16728
2026-01-14 09:27:22.94	348.64	6.32	-52.6	-65.8	3.8	1.49e+00	0	42	104	0	76	16754
2026-01-14 09:27:23.94	348.61	6.25	-52.6	-65.8	3.8	1.49e+00	0	42	104	0	76	16770
2026-01-14 09:27:24.95	348.57	6.18	-52.6	-65.8	3.8	1.49e+00	0	42	104	0	76	16722
2026-01-14 09:27:25.94	348.53	6.10	-52.6	-65.8	3.8	1.49e+00	0	42	104	0	76	16733
2026-01-14 09:27:26.95	348.50	6.03	-52.6	-65.8	3.8	1.49e+00	0	42	104	0	76	16774
2026-01-14 09:27:27.94	348.46	5.96	-52.6	-65.8	3.8	1.49e+00	0	42	104	0	76	16778
2026-01-14 09:27:28.94	348.43	5.89	-52.6	-65.7	3.8	1.49e+00	0	42	104	0	76	16679
2026-01-14 09:27:29.94	348.39	5.82	-52.6	-65.8	3.8	1.49e+00	0	42	104	0	76	16702
2026-01-14 09:27:30.94	348.36	5.75	-52.6	-65.8	3.8	1.49e+00	0	42	104	0	76	16811
2026-01-14 09:27:31.93	348.32	5.67	-52.6	-65.8	3.8	1.49e+00	0	42	104	0	76	16743
2026-01-14 09:27:32.93	348.29	5.60	-52.5	-65.8	3.8	1.49e+00	0	42	104	0	76	16767
2026-01-14 09:27:33.93	348.25	5.53	-52.6	-65.8	3.8	1.49e+00	0	42	104	0	76	16713
2026-01-14 09:27:34.93	348.22	5.46	-52.5	-65.8	3.8	1.49e+00	0	42	104	0	76	16695
2026-01-14 09:27:35.93	348.18	5.39	-52.6	-65.8	3.8	1.49e+00	0	42	104	0	76	16775
2026-01-14 09:27:36.93	348.15	5.32	-52.6	-65.8	3.8	1.49e+00	0	42	104	0	76	16745
2026-01-14 09:27:37.93	348.12	5.25	-52.5	-65.8	3.8	1.49e+00	0	42	104	0	76	16717
2026-01-14 09:27:38.93	348.08	5.18	-52.5	-65.8	3.8	1.49e+00	0	42	104	0	76	16748
2026-01-14 09:27:39.93	348.05	5.11	-52.5	-65.8	3.8	1.49e+00	0	42	104	0	76	16720
2026-01-14 09:27:40.93	348.02	5.04	-52.6	-65.8	3.8	1.49e+00	0	42	104	0	76	16719
2026-01-14 09:27:41.93	347.98	4.97	-52.6	-65.7	3.8	1.49e+00	0	42	104	0	76	16654

#Closed at: 2026-01-14 09:27:42
#Recorded file [0 MB]: D:/Data/31040_260114_121508.dat