passes_logs/2025/01/15/planumMaritime01/planumMaritime01__20250115_185742_NOAA_19_rec.log

#Pass ID: 20250115_185742_NOAA 19
#Satellite: NOAA 19
#Configuration: NOAA 19
#Start time: 2025-01-15 18:57:47.475871

#LorettStation: 1.0.0 05.05.2024
#Station: planumMaritime01
#Location: 37.49445 lon 55.92918 lat
#TLE: 1 33591U 09005A   25015.14570653  .00000261  00000+0  16322-3 0  9994
#TLE: 2 33591  99.0196  78.9093 0014467  57.1425 303.1137 14.13259366821569

#Time	Az	El	Level	SNR
2025-01-15 18:57:49.637716	191.2	10.2	-80.3	0.0
2025-01-15 18:57:50.759902	191.3	10.3	-80.3	0.0
2025-01-15 18:57:51.882953	191.4	10.4	-80.5	0.0
2025-01-15 18:57:53.005685	191.5	10.4	-80.1	0.0
2025-01-15 18:57:54.129668	191.5	10.5	-80.2	0.0
2025-01-15 18:57:55.254345	191.6	10.6	-80.2	0.0
2025-01-15 18:57:56.378955	191.7	10.7	-80.2	0.0
2025-01-15 18:57:57.501741	191.8	10.8	-79.8	0.0
2025-01-15 18:57:58.624536	191.9	10.9	-80.2	0.0
2025-01-15 18:57:59.746688	191.9	11.0	-80.5	0.0
2025-01-15 18:58:00.869503	192.0	11.1	-80.3	0.0
2025-01-15 18:58:01.992276	192.1	11.2	-80.4	0.0
2025-01-15 18:58:03.116381	192.2	11.3	-80.4	0.0
2025-01-15 18:58:04.239643	192.3	11.4	-80.4	0.0
2025-01-15 18:58:05.362763	192.4	11.5	-80.2	0.0
2025-01-15 18:58:06.485128	192.4	11.6	-80.3	0.0
2025-01-15 18:58:07.608521	192.5	11.7	-79.7	0.0
2025-01-15 18:58:08.731997	192.6	11.8	-80.1	0.0
2025-01-15 18:58:09.855790	192.7	11.9	-80.3	0.0
2025-01-15 18:58:10.979387	192.8	12.0	-80.2	0.0
2025-01-15 18:58:12.101984	192.9	12.1	-80.1	0.0
2025-01-15 18:58:13.225810	192.9	12.2	-80.6	0.0
2025-01-15 18:58:14.347858	193.0	12.3	-80.2	0.0
2025-01-15 18:58:15.472427	193.1	12.4	-79.7	0.0
2025-01-15 18:58:16.594289	193.2	12.4	-79.9	0.0
2025-01-15 18:58:17.718746	193.3	12.5	-80.3	0.0
2025-01-15 18:58:18.841483	193.4	12.6	-80.7	0.0
2025-01-15 18:58:19.964535	193.5	12.7	-80.6	0.0
2025-01-15 18:58:21.089658	193.6	12.8	-80.5	0.0
2025-01-15 18:58:22.212642	193.7	12.9	-80.5	0.0
2025-01-15 18:58:23.334608	193.8	13.0	-80.5	0.0
2025-01-15 18:58:24.457528	193.8	13.1	-80.3	0.0
2025-01-15 18:58:25.583801	193.9	13.2	-80.6	0.0
2025-01-15 18:58:26.706027	194.0	13.4	-80.8	0.0
2025-01-15 18:58:27.829085	194.1	13.5	-80.7	0.0
2025-01-15 18:58:28.953956	194.2	13.6	-80.3	0.0
2025-01-15 18:58:30.077523	194.3	13.7	-80.8	0.0
2025-01-15 18:58:31.202501	194.4	13.8	-80.7	0.0
2025-01-15 18:58:32.326676	194.5	13.9	-80.6	0.0
2025-01-15 18:58:33.452384	194.6	14.0	-81.0	0.0
2025-01-15 18:58:34.577626	194.7	14.1	-80.9	0.0
2025-01-15 18:58:35.700971	194.8	14.2	-80.9	0.0
2025-01-15 18:58:36.823320	194.9	14.3	-80.7	0.0
2025-01-15 18:58:37.944967	195.0	14.4	-80.7	0.0
2025-01-15 18:58:39.068172	195.1	14.5	-80.7	0.0
2025-01-15 18:58:40.193370	195.2	14.6	-80.8	0.0
2025-01-15 18:58:41.317671	195.3	14.7	-80.8	0.0
2025-01-15 18:58:42.439259	195.4	14.8	-80.5	0.0
2025-01-15 18:58:43.565769	195.5	14.9	-80.6	0.0
2025-01-15 18:58:44.688246	195.6	15.0	-80.6	0.0
2025-01-15 18:58:45.809478	195.7	15.1	-80.9	0.0
2025-01-15 18:58:46.936192	195.8	15.2	-80.6	0.0
2025-01-15 18:58:48.059990	195.9	15.4	-80.6	0.0
2025-01-15 18:58:49.183304	196.0	15.5	-80.7	0.0
2025-01-15 18:58:50.306610	196.1	15.6	-80.9	0.0
2025-01-15 18:58:51.432825	196.3	15.7	-80.9	0.0
2025-01-15 18:58:52.555919	196.4	15.8	-80.8	0.0
2025-01-15 18:58:53.677995	196.5	15.9	-80.8	0.0
2025-01-15 18:58:54.801514	196.6	16.0	-80.5	0.0
2025-01-15 18:58:55.924387	196.7	16.1	-80.5	0.0
2025-01-15 18:58:57.046196	196.8	16.2	-80.3	0.0
2025-01-15 18:58:58.167545	196.9	16.3	-80.8	0.0
2025-01-15 18:58:59.291985	197.0	16.5	-80.8	0.0
2025-01-15 18:59:00.415509	197.2	16.6	-80.9	0.0
2025-01-15 18:59:01.537362	197.3	16.7	-80.8	0.0
2025-01-15 18:59:02.660036	197.4	16.8	-80.6	0.0
2025-01-15 18:59:03.784680	197.5	16.9	-80.3	0.0
2025-01-15 18:59:04.904661	197.6	17.0	-80.8	0.0
2025-01-15 18:59:06.028465	197.7	17.1	-80.7	0.0
2025-01-15 18:59:07.153210	197.9	17.3	-80.8	0.0
2025-01-15 18:59:08.276742	198.0	17.4	-81.0	0.0
2025-01-15 18:59:09.400303	198.1	17.5	-80.7	0.0
2025-01-15 18:59:10.523611	198.2	17.6	-81.0	0.0
2025-01-15 18:59:11.647896	198.3	17.7	-81.1	0.0
2025-01-15 18:59:12.772236	198.5	17.8	-81.0	0.0
2025-01-15 18:59:13.895935	198.6	18.0	-81.0	0.0
2025-01-15 18:59:15.018746	198.7	18.1	-81.0	0.0
2025-01-15 18:59:16.140649	198.9	18.2	-80.8	0.0
2025-01-15 18:59:17.262035	199.0	18.3	-80.8	0.0
2025-01-15 18:59:18.385620	199.1	18.4	-80.1	0.0
2025-01-15 18:59:19.509123	199.2	18.6	-80.5	0.0
2025-01-15 18:59:20.633963	199.4	18.7	-81.1	0.0
2025-01-15 18:59:21.758412	199.5	18.8	-80.9	0.0
2025-01-15 18:59:22.880678	199.6	18.9	-80.7	0.0
2025-01-15 18:59:24.002130	199.8	19.0	-80.8	0.0
2025-01-15 18:59:25.124874	199.9	19.2	-80.7	0.0
2025-01-15 18:59:26.247090	200.0	19.3	-80.7	0.0
2025-01-15 18:59:27.369169	200.2	19.4	-80.7	0.0
2025-01-15 18:59:28.492149	200.3	19.5	-80.9	0.0
2025-01-15 18:59:29.616271	200.5	19.7	-81.0	0.0
2025-01-15 18:59:30.738840	200.6	19.8	-80.5	0.0
2025-01-15 18:59:31.862106	200.7	19.9	-80.2	0.0
2025-01-15 18:59:32.985680	200.9	20.0	-80.8	0.0
2025-01-15 18:59:34.109192	201.0	20.2	-80.5	0.0
2025-01-15 18:59:35.232339	201.2	20.3	-80.6	0.0
2025-01-15 18:59:36.357735	201.3	20.4	-80.4	0.0
2025-01-15 18:59:37.479504	201.5	20.5	-80.5	0.0
2025-01-15 18:59:38.603635	201.6	20.7	-80.6	0.0
2025-01-15 18:59:39.726445	201.8	20.8	-80.7	0.0
2025-01-15 18:59:40.848330	201.9	20.9	-80.3	0.0
2025-01-15 18:59:41.971579	202.1	21.1	-80.6	0.0
2025-01-15 18:59:43.094754	202.2	21.2	-80.5	0.0
2025-01-15 18:59:44.220325	202.4	21.3	-80.5	0.0
2025-01-15 18:59:45.344543	202.5	21.5	-80.9	0.0
2025-01-15 18:59:46.467575	202.7	21.6	-80.6	0.0
2025-01-15 18:59:47.592617	202.9	21.7	-80.5	0.0
2025-01-15 18:59:48.717202	203.0	21.9	-80.7	0.0
2025-01-15 18:59:49.838740	203.2	22.0	-80.9	0.0
2025-01-15 18:59:50.961644	203.3	22.1	-80.9	0.0
2025-01-15 18:59:52.084907	203.5	22.3	-80.9	0.0
2025-01-15 18:59:53.209999	203.7	22.4	-80.4	0.0
2025-01-15 18:59:54.333451	203.8	22.5	-80.5	0.0
2025-01-15 18:59:55.456648	204.0	22.7	-80.9	0.0
2025-01-15 18:59:56.583682	204.2	22.8	-80.5	0.0
2025-01-15 18:59:57.705455	204.3	22.9	-80.8	0.0
2025-01-15 18:59:58.829693	204.5	23.1	-80.9	0.0
2025-01-15 18:59:59.954817	204.7	23.2	-80.6	0.0
2025-01-15 19:00:01.078315	204.9	23.3	-80.7	0.0
2025-01-15 19:00:02.199104	205.0	23.5	-80.8	0.0
2025-01-15 19:00:03.322525	205.2	23.6	-80.8	0.0
2025-01-15 19:00:04.448274	205.4	23.8	-80.6	0.0
2025-01-15 19:00:05.573575	205.6	23.9	-80.8	0.0
2025-01-15 19:00:06.696338	205.8	24.0	-80.8	0.0
2025-01-15 19:00:07.818656	206.0	24.2	-80.8	0.0
2025-01-15 19:00:08.941172	206.1	24.3	-80.8	0.0
2025-01-15 19:00:10.063564	206.3	24.5	-80.8	0.0
2025-01-15 19:00:11.188021	206.5	24.6	-81.1	0.0
2025-01-15 19:00:12.311350	206.7	24.7	-80.7	0.0
2025-01-15 19:00:13.435717	206.9	24.9	-80.6	0.0
2025-01-15 19:00:14.560257	207.1	25.0	-80.6	0.0
2025-01-15 19:00:15.684335	207.3	25.2	-80.7	0.0
2025-01-15 19:00:16.806276	207.5	25.3	-80.7	0.0
2025-01-15 19:00:17.929025	207.7	25.5	-80.6	0.0
2025-01-15 19:00:19.052067	207.9	25.6	-80.7	0.0
2025-01-15 19:00:20.173682	208.1	25.7	-80.5	0.0
2025-01-15 19:00:21.296022	208.3	25.9	-80.7	0.0
2025-01-15 19:00:22.418303	208.5	26.0	-81.0	0.0
2025-01-15 19:00:23.539498	208.7	26.2	-80.7	0.0
2025-01-15 19:00:24.661607	208.9	26.3	-80.4	0.0
2025-01-15 19:00:25.784380	209.2	26.5	-80.8	0.0
2025-01-15 19:00:26.907361	209.4	26.6	-80.8	0.0
2025-01-15 19:00:28.031657	209.6	26.8	-80.7	0.0
2025-01-15 19:00:29.154498	209.8	26.9	-80.7	0.0
2025-01-15 19:00:30.278235	210.0	27.1	-80.8	0.0
2025-01-15 19:00:31.401263	210.2	27.2	-80.3	0.0
2025-01-15 19:00:32.523560	210.5	27.4	-80.7	0.0
2025-01-15 19:00:33.646671	210.7	27.5	-80.9	0.0
2025-01-15 19:00:34.769285	210.9	27.7	-80.8	0.0
2025-01-15 19:00:35.893531	211.2	27.8	-80.5	0.0
2025-01-15 19:00:37.017548	211.4	28.0	-80.2	0.0
2025-01-15 19:00:38.139238	211.6	28.1	-80.4	0.0
2025-01-15 19:00:39.262102	211.9	28.3	-80.9	0.0
2025-01-15 19:00:40.387817	212.1	28.4	-80.8	0.0
2025-01-15 19:00:41.512776	212.4	28.6	-80.9	0.0
2025-01-15 19:00:42.635607	212.6	28.7	-80.8	0.0
2025-01-15 19:00:43.759396	212.8	28.9	-80.9	0.0
2025-01-15 19:00:44.881348	213.1	29.0	-80.9	0.0
2025-01-15 19:00:46.006034	213.3	29.2	-80.7	0.0
2025-01-15 19:00:47.130371	213.6	29.3	-80.6	0.0
2025-01-15 19:00:48.254293	213.9	29.5	-80.4	0.0
2025-01-15 19:00:49.377790	214.1	29.6	-81.0	0.0
2025-01-15 19:00:50.500374	214.4	29.8	-80.9	0.0
2025-01-15 19:00:51.623452	214.6	29.9	-80.6	0.0
2025-01-15 19:00:52.748204	214.9	30.1	-80.7	0.0
2025-01-15 19:00:53.872070	215.2	30.2	-80.5	0.0
2025-01-15 19:00:54.997415	215.4	30.4	-80.4	0.0
2025-01-15 19:00:56.121552	215.7	30.6	-81.1	0.0
2025-01-15 19:00:57.245354	216.0	30.7	-80.3	0.0
2025-01-15 19:00:58.368099	216.3	30.9	-80.9	0.0
2025-01-15 19:00:59.492766	216.6	31.0	-80.8	0.0
2025-01-15 19:01:00.614636	216.8	31.2	-80.9	0.0
2025-01-15 19:01:01.736028	217.1	31.3	-81.0	0.0
2025-01-15 19:01:02.859631	217.4	31.5	-80.3	0.0
2025-01-15 19:01:03.983791	217.7	31.6	-80.9	0.0
2025-01-15 19:01:05.108771	218.0	31.8	-81.0	0.0
2025-01-15 19:01:06.231120	218.3	31.9	-80.9	0.0
2025-01-15 19:01:07.354121	218.6	32.1	-80.8	0.0
2025-01-15 19:01:08.477515	218.9	32.3	-80.9	0.0
2025-01-15 19:01:09.599258	219.2	32.4	-80.8	0.0
2025-01-15 19:01:10.723917	219.5	32.6	-81.0	0.0
2025-01-15 19:01:11.847625	219.8	32.7	-81.0	0.0
2025-01-15 19:01:12.971027	220.1	32.9	-81.0	0.0
2025-01-15 19:01:14.092819	220.5	33.0	-80.8	0.0
2025-01-15 19:01:15.217640	220.8	33.2	-80.7	0.0
2025-01-15 19:01:16.338693	221.1	33.3	-81.1	0.0
2025-01-15 19:01:17.461311	221.4	33.5	-81.1	0.0
2025-01-15 19:01:18.585463	221.8	33.6	-80.8	0.0
2025-01-15 19:01:19.709130	222.1	33.8	-81.3	0.0
2025-01-15 19:01:20.831356	222.4	33.9	-81.1	0.0
2025-01-15 19:01:21.955409	222.8	34.1	-80.9	0.0
2025-01-15 19:01:23.079414	223.1	34.2	-81.2	0.0
2025-01-15 19:01:24.199981	223.4	34.4	-81.0	0.0
2025-01-15 19:01:25.323586	223.8	34.5	-81.1	0.0
2025-01-15 19:01:26.447940	224.1	34.7	-81.1	0.0
2025-01-15 19:01:27.569010	224.5	34.8	-81.2	0.0
2025-01-15 19:01:28.691497	224.9	35.0	-81.1	0.0
2025-01-15 19:01:29.813634	225.2	35.1	-80.7	0.0
2025-01-15 19:01:30.935023	225.6	35.3	-80.9	0.0
2025-01-15 19:01:32.056755	225.9	35.4	-81.1	0.0
2025-01-15 19:01:33.179667	226.3	35.6	-81.1	0.0
2025-01-15 19:01:34.305419	226.7	35.7	-81.1	0.0
2025-01-15 19:01:35.428275	227.1	35.9	-80.8	0.0
2025-01-15 19:01:36.551766	227.4	36.0	-81.3	0.0
2025-01-15 19:01:37.675019	227.8	36.2	-81.3	0.0
2025-01-15 19:01:38.799835	228.2	36.3	-81.1	0.0
2025-01-15 19:01:39.925630	228.6	36.5	-81.0	0.0
2025-01-15 19:01:41.049859	229.0	36.6	-81.0	0.0
2025-01-15 19:01:42.172902	229.4	36.7	-81.3	0.0
2025-01-15 19:01:43.295854	229.8	36.9	-81.3	0.0
2025-01-15 19:01:44.419087	230.2	37.0	-80.6	0.0
2025-01-15 19:01:45.541638	230.6	37.2	-81.3	0.0
2025-01-15 19:01:46.664848	231.0	37.3	-81.3	0.0
2025-01-15 19:01:47.791968	231.4	37.4	-81.3	0.0
2025-01-15 19:01:48.916485	231.8	37.6	-81.0	0.0
2025-01-15 19:01:50.038512	232.3	37.7	-81.2	0.0
2025-01-15 19:01:51.162076	232.7	37.8	-81.3	0.0
2025-01-15 19:01:52.286347	233.1	38.0	-81.1	0.0
2025-01-15 19:01:53.409658	233.5	38.1	-81.4	0.0
2025-01-15 19:01:54.531248	234.0	38.2	-81.7	0.0
2025-01-15 19:01:55.656201	234.4	38.3	-81.4	0.0
2025-01-15 19:01:56.780044	234.9	38.5	-81.1	0.0
2025-01-15 19:01:57.903892	235.3	38.6	-81.1	0.0
2025-01-15 19:01:59.027248	235.8	38.7	-81.0	0.0
2025-01-15 19:02:00.151521	236.2	38.8	-81.3	0.0
2025-01-15 19:02:01.270633	236.7	39.0	-80.9	0.0
2025-01-15 19:02:02.395431	237.1	39.1	-81.1	0.0
2025-01-15 19:02:03.519405	237.6	39.2	-80.9	0.0
2025-01-15 19:02:04.642671	238.0	39.3	-80.9	0.0
2025-01-15 19:02:05.764993	238.5	39.4	-81.0	0.0
2025-01-15 19:02:06.889133	239.0	39.5	-81.2	0.0
2025-01-15 19:02:08.011271	239.4	39.6	-81.1	0.0
2025-01-15 19:02:09.134443	239.9	39.7	-81.2	0.0
2025-01-15 19:02:10.257319	240.4	39.9	-81.1	0.0
2025-01-15 19:02:11.377410	240.9	40.0	-81.3	0.0
2025-01-15 19:02:12.500709	241.4	40.1	-81.4	0.0
2025-01-15 19:02:13.625523	241.9	40.2	-81.1	0.0
2025-01-15 19:02:14.747738	242.4	40.3	-80.7	0.0
2025-01-15 19:02:15.872498	242.8	40.4	-81.2	0.0
2025-01-15 19:02:16.995450	243.3	40.4	-80.9	0.0
2025-01-15 19:02:18.119318	243.8	40.5	-81.1	0.0
2025-01-15 19:02:19.243010	244.3	40.6	-81.3	0.0
2025-01-15 19:02:20.367183	244.9	40.7	-81.3	0.0
2025-01-15 19:02:21.491174	245.4	40.8	-80.9	0.0
2025-01-15 19:02:22.614848	245.9	40.9	-81.2	0.0
2025-01-15 19:02:23.738683	246.4	41.0	-81.1	0.0
2025-01-15 19:02:24.861629	246.9	41.0	-80.9	0.0
2025-01-15 19:02:25.985235	247.4	41.1	-80.7	0.0
2025-01-15 19:02:27.108709	247.9	41.2	-80.9	0.0
2025-01-15 19:02:28.231686	248.5	41.3	-80.8	0.0
2025-01-15 19:02:29.353772	249.0	41.3	-81.0	0.0
2025-01-15 19:02:30.475622	249.5	41.4	-81.1	0.0
2025-01-15 19:02:31.599605	250.0	41.5	-80.7	0.0
2025-01-15 19:02:32.723544	250.6	41.5	-81.1	0.0
2025-01-15 19:02:33.847641	251.1	41.6	-81.0	0.0
2025-01-15 19:02:34.970764	251.6	41.6	-80.8	0.0
2025-01-15 19:02:36.094365	252.2	41.7	-80.6	0.0
2025-01-15 19:02:37.217606	252.7	41.7	-81.1	0.0
2025-01-15 19:02:38.339597	253.3	41.8	-80.8	0.0
2025-01-15 19:02:39.464806	253.8	41.8	-80.6	0.0
2025-01-15 19:02:40.589314	254.3	41.9	-81.0	0.0
2025-01-15 19:02:41.711695	254.9	41.9	-80.7	0.0
2025-01-15 19:02:42.836446	255.4	41.9	-80.9	0.0
2025-01-15 19:02:43.960241	256.0	42.0	-81.4	0.0
2025-01-15 19:02:45.083407	256.5	42.0	-81.1	0.0
2025-01-15 19:02:46.204936	257.1	42.0	-81.0	0.0
2025-01-15 19:02:47.329317	257.6	42.1	-80.9	0.0
2025-01-15 19:02:48.453699	258.2	42.1	-81.0	0.0
2025-01-15 19:02:49.577507	258.7	42.1	-80.9	0.0
2025-01-15 19:02:50.700360	259.3	42.1	-80.9	0.0
2025-01-15 19:02:51.824855	259.8	42.1	-80.6	0.0
2025-01-15 19:02:52.945672	260.4	42.1	-80.5	0.0
2025-01-15 19:02:54.069854	260.9	42.1	-80.7	0.0
2025-01-15 19:02:55.194393	261.5	42.2	-80.5	0.0
2025-01-15 19:02:56.316927	262.0	42.2	-81.0	0.0
2025-01-15 19:02:57.440524	262.6	42.2	-81.2	0.0
2025-01-15 19:02:58.563981	263.2	42.1	-80.7	0.0
2025-01-15 19:02:59.687934	263.7	42.1	-81.1	0.0
2025-01-15 19:03:00.809804	264.3	42.1	-80.9	0.0
2025-01-15 19:03:01.932484	264.8	42.1	-80.9	0.0
2025-01-15 19:03:03.056282	265.4	42.1	-80.9	0.0
2025-01-15 19:03:04.177102	265.9	42.1	-80.9	0.0
2025-01-15 19:03:05.298827	266.5	42.1	-81.1	0.0
2025-01-15 19:03:06.422301	267.0	42.0	-81.1	0.0
2025-01-15 19:03:07.547322	267.6	42.0	-80.9	0.0
2025-01-15 19:03:08.671651	268.1	42.0	-81.3	0.0
2025-01-15 19:03:09.795740	268.7	41.9	-81.1	0.0
2025-01-15 19:03:10.917882	269.2	41.9	-80.5	0.0
2025-01-15 19:03:12.040329	269.7	41.9	-80.1	0.0
2025-01-15 19:03:13.164855	270.3	41.8	-81.0	0.0
2025-01-15 19:03:14.288747	270.8	41.8	-80.8	0.0
2025-01-15 19:03:15.411482	271.4	41.7	-80.7	0.0
2025-01-15 19:03:16.536870	271.9	41.7	-80.7	0.0
2025-01-15 19:03:17.661488	272.4	41.6	-80.5	0.0
2025-01-15 19:03:18.783924	273.0	41.6	-80.9	0.0
2025-01-15 19:03:19.905798	273.5	41.5	-80.9	0.0
2025-01-15 19:03:21.028145	274.0	41.5	-81.1	0.0
2025-01-15 19:03:22.150487	274.6	41.4	-80.9	0.0
2025-01-15 19:03:23.274517	275.1	41.3	-81.3	0.0
2025-01-15 19:03:24.396474	275.6	41.3	-81.1	0.0
2025-01-15 19:03:25.520928	276.1	41.2	-81.4	0.0
2025-01-15 19:03:26.642863	276.7	41.1	-81.0	0.0
2025-01-15 19:03:27.765642	277.2	41.0	-81.1	0.0
2025-01-15 19:03:28.891024	277.7	41.0	-81.3	0.0
2025-01-15 19:03:30.015835	278.2	40.9	-81.3	0.0
2025-01-15 19:03:31.139105	278.7	40.8	-81.2	0.0
2025-01-15 19:03:32.261409	279.2	40.7	-81.2	0.0
2025-01-15 19:03:33.384926	279.7	40.6	-81.4	0.0
2025-01-15 19:03:34.505514	280.2	40.5	-80.9	0.0
2025-01-15 19:03:35.629252	280.7	40.5	-81.3	0.0
2025-01-15 19:03:36.749513	281.2	40.4	-80.9	0.0
2025-01-15 19:03:37.872239	281.7	40.3	-81.1	0.0
2025-01-15 19:03:38.996353	282.2	40.2	-80.8	0.0
2025-01-15 19:03:40.118470	282.7	40.1	-81.4	0.0
2025-01-15 19:03:41.242068	283.2	40.0	-81.1	0.0
2025-01-15 19:03:42.366048	283.7	39.9	-81.2	0.0
2025-01-15 19:03:43.489191	284.1	39.8	-81.4	0.0
2025-01-15 19:03:44.612550	284.6	39.6	-81.3	0.0
2025-01-15 19:03:45.737836	285.1	39.5	-81.4	0.0
2025-01-15 19:03:46.861730	285.5	39.4	-81.2	0.0
2025-01-15 19:03:47.983909	286.0	39.3	-80.9	0.0
2025-01-15 19:03:49.108226	286.5	39.2	-81.4	0.0
2025-01-15 19:03:50.235836	286.9	39.1	-81.1	0.0
2025-01-15 19:03:51.361982	287.4	39.0	-81.3	0.0
2025-01-15 19:03:52.485261	287.8	38.8	-81.0	0.0
2025-01-15 19:03:53.605524	288.3	38.7	-81.1	0.0
2025-01-15 19:03:54.725884	288.7	38.6	-81.3	0.0
2025-01-15 19:03:55.847851	289.2	38.5	-80.8	0.0
2025-01-15 19:03:56.971045	289.6	38.4	-81.3	0.0
2025-01-15 19:03:58.095901	290.1	38.2	-81.0	0.0
2025-01-15 19:03:59.217222	290.5	38.1	-81.0	0.0
2025-01-15 19:04:00.339366	290.9	38.0	-81.1	0.0
2025-01-15 19:04:01.463868	291.3	37.8	-81.3	0.0
2025-01-15 19:04:02.588951	291.8	37.7	-80.5	0.0
2025-01-15 19:04:03.712016	292.2	37.6	-81.0	0.0
2025-01-15 19:04:04.833364	292.6	37.4	-80.8	0.0
2025-01-15 19:04:05.956103	293.0	37.3	-80.6	0.0
2025-01-15 19:04:07.078393	293.4	37.2	-81.3	0.0
2025-01-15 19:04:08.201827	293.8	37.0	-81.0	0.0
2025-01-15 19:04:09.325161	294.2	36.9	-81.2	0.0
2025-01-15 19:04:10.449917	294.6	36.8	-81.3	0.0
2025-01-15 19:04:11.572249	295.0	36.6	-80.6	0.0
2025-01-15 19:04:12.693618	295.4	36.5	-81.0	0.0
2025-01-15 19:04:13.816026	295.8	36.3	-80.6	0.0
2025-01-15 19:04:14.940398	296.2	36.2	-80.6	0.0
2025-01-15 19:04:16.063354	296.6	36.0	-80.9	0.0
2025-01-15 19:04:17.186207	297.0	35.9	-81.0	0.0
2025-01-15 19:04:18.309463	297.3	35.8	-80.9	0.0
2025-01-15 19:04:19.431580	297.7	35.6	-81.3	0.0
2025-01-15 19:04:20.557416	298.1	35.5	-81.0	0.0
2025-01-15 19:04:21.678523	298.4	35.3	-81.2	0.0
2025-01-15 19:04:22.801044	298.8	35.2	-81.3	0.0
2025-01-15 19:04:23.924041	299.2	35.0	-81.4	0.0
2025-01-15 19:04:25.049479	299.5	34.9	-81.7	0.0
2025-01-15 19:04:26.172210	299.9	34.7	-81.3	0.0
2025-01-15 19:04:27.295928	300.2	34.6	-81.4	0.0
2025-01-15 19:04:28.418579	300.6	34.4	-81.7	0.0
2025-01-15 19:04:29.545363	300.9	34.3	-81.6	0.0
2025-01-15 19:04:30.668040	301.2	34.1	-81.6	0.0
2025-01-15 19:04:31.790386	301.6	34.0	-81.2	0.0
2025-01-15 19:04:32.911266	301.9	33.8	-81.3	0.0
2025-01-15 19:04:34.034143	302.3	33.7	-80.5	0.0
2025-01-15 19:04:35.156412	302.6	33.5	-81.5	0.0
2025-01-15 19:04:36.279287	302.9	33.4	-81.3	0.0
2025-01-15 19:04:37.401541	303.2	33.2	-81.5	0.0
2025-01-15 19:04:38.524215	303.5	33.1	-81.5	0.0
2025-01-15 19:04:39.645737	303.9	32.9	-81.3	0.0
2025-01-15 19:04:40.768977	304.2	32.8	-81.1	0.0
2025-01-15 19:04:41.893010	304.5	32.6	-81.1	0.0
2025-01-15 19:04:43.015753	304.8	32.5	-81.2	0.0
2025-01-15 19:04:44.138870	305.1	32.3	-81.6	0.0
2025-01-15 19:04:45.261495	305.4	32.1	-81.4	0.0
2025-01-15 19:04:46.384591	305.7	32.0	-81.1	0.0
2025-01-15 19:04:47.507516	306.0	31.8	-81.3	0.0
2025-01-15 19:04:48.630645	306.3	31.7	-81.3	0.0
2025-01-15 19:04:49.755003	306.6	31.5	-81.3	0.0
2025-01-15 19:04:50.876820	306.9	31.4	-81.3	0.0
2025-01-15 19:04:51.999972	307.2	31.2	-81.4	0.0
2025-01-15 19:04:53.125292	307.4	31.1	-80.9	0.0
2025-01-15 19:04:54.249346	307.7	30.9	-81.0	0.0
2025-01-15 19:04:55.373565	308.0	30.8	-81.0	0.0
2025-01-15 19:04:56.496723	308.3	30.6	-81.3	0.0
2025-01-15 19:04:57.621047	308.5	30.5	-80.8	0.0
2025-01-15 19:04:58.742890	308.8	30.3	-81.1	0.0
2025-01-15 19:04:59.866893	309.1	30.2	-81.4	0.0
2025-01-15 19:05:00.987121	309.3	30.0	-81.2	0.0
2025-01-15 19:05:02.109089	309.6	29.8	-81.3	0.0
2025-01-15 19:05:03.234204	309.9	29.7	-81.1	0.0
2025-01-15 19:05:04.358118	310.1	29.5	-81.2	0.0
2025-01-15 19:05:05.483571	310.4	29.4	-81.2	0.0
2025-01-15 19:05:06.609939	310.6	29.2	-81.3	0.0
2025-01-15 19:05:07.735948	310.9	29.1	-81.1	0.0
2025-01-15 19:05:08.859339	311.1	28.9	-81.5	0.0
2025-01-15 19:05:09.984473	311.4	28.8	-81.6	0.0
2025-01-15 19:05:11.107743	311.6	28.6	-81.5	0.0
2025-01-15 19:05:12.230434	311.9	28.5	-81.4	0.0
2025-01-15 19:05:13.354721	312.1	28.3	-81.2	0.0
2025-01-15 19:05:14.475324	312.3	28.2	-81.3	0.0
2025-01-15 19:05:15.600868	312.6	28.0	-81.1	0.0
2025-01-15 19:05:16.722002	312.8	27.9	-81.5	0.0
2025-01-15 19:05:17.844869	313.0	27.7	-81.3	0.0
2025-01-15 19:05:18.967345	313.3	27.6	-81.4	0.0
2025-01-15 19:05:20.090348	313.5	27.4	-81.3	0.0
2025-01-15 19:05:21.215549	313.7	27.3	-81.1	0.0
2025-01-15 19:05:22.338651	313.9	27.1	-81.2	0.0
2025-01-15 19:05:23.461273	314.2	27.0	-81.2	0.0
2025-01-15 19:05:24.585032	314.4	26.9	-80.9	0.0
2025-01-15 19:05:25.711235	314.6	26.7	-81.2	0.0
2025-01-15 19:05:26.832302	314.8	26.6	-81.2	0.0
2025-01-15 19:05:27.954661	315.0	26.4	-81.1	0.0
2025-01-15 19:05:29.077594	315.2	26.3	-80.7	0.0
2025-01-15 19:05:30.200736	315.5	26.1	-81.2	0.0
2025-01-15 19:05:31.325698	315.7	26.0	-81.0	0.0
2025-01-15 19:05:32.448423	315.9	25.8	-80.6	0.0
2025-01-15 19:05:33.573513	316.1	25.7	-80.8	0.0
2025-01-15 19:05:34.694811	316.3	25.5	-81.1	0.0
2025-01-15 19:05:35.817023	316.5	25.4	-80.7	0.0
2025-01-15 19:05:36.940494	316.7	25.3	-80.6	0.0
2025-01-15 19:05:38.063443	316.9	25.1	-81.2	0.0
2025-01-15 19:05:39.189745	317.1	25.0	-80.8	0.0
2025-01-15 19:05:40.312420	317.3	24.8	-81.1	0.0
2025-01-15 19:05:41.434872	317.4	24.7	-81.4	0.0
2025-01-15 19:05:42.556448	317.6	24.6	-80.7	0.0
2025-01-15 19:05:43.679751	317.8	24.4	-80.6	0.0
2025-01-15 19:05:44.803337	318.0	24.3	-81.1	0.0
2025-01-15 19:05:45.927256	318.2	24.1	-81.0	0.0
2025-01-15 19:05:47.050323	318.4	24.0	-80.9	0.0
2025-01-15 19:05:48.172917	318.6	23.9	-81.0	0.0
2025-01-15 19:05:49.296732	318.7	23.7	-81.6	0.0
2025-01-15 19:05:50.419425	318.9	23.6	-81.4	0.0
2025-01-15 19:05:51.542630	319.1	23.4	-80.9	0.0
2025-01-15 19:05:52.663949	319.3	23.3	-81.3	0.0
2025-01-15 19:05:53.787876	319.4	23.2	-81.4	0.0
2025-01-15 19:05:54.909644	319.6	23.0	-81.2	0.0
2025-01-15 19:05:56.033076	319.8	22.9	-81.1	0.0
2025-01-15 19:05:57.156497	320.0	22.8	-81.5	0.0
2025-01-15 19:05:58.280460	320.1	22.6	-81.6	0.0
2025-01-15 19:05:59.404387	320.3	22.5	-81.6	0.0
2025-01-15 19:06:00.528700	320.5	22.4	-81.5	0.0
2025-01-15 19:06:01.651521	320.6	22.2	-81.2	0.0
2025-01-15 19:06:02.772703	320.8	22.1	-81.5	0.0
2025-01-15 19:06:03.895641	321.0	22.0	-81.7	0.0
2025-01-15 19:06:05.019984	321.1	21.8	-81.5	0.0
2025-01-15 19:06:06.144605	321.3	21.7	-81.4	0.0
2025-01-15 19:06:07.267040	321.4	21.6	-80.8	0.0
2025-01-15 19:06:08.392785	321.6	21.4	-81.1	0.0
2025-01-15 19:06:09.516957	321.7	21.3	-81.3	0.0
2025-01-15 19:06:10.640249	321.9	21.2	-81.0	0.0
2025-01-15 19:06:11.763726	322.0	21.1	-81.0	0.0
2025-01-15 19:06:12.887246	322.2	20.9	-80.8	0.0
2025-01-15 19:06:14.011194	322.4	20.8	-81.1	0.0
2025-01-15 19:06:15.134078	322.5	20.7	-81.4	0.0
2025-01-15 19:06:16.256766	322.6	20.6	-81.3	0.0
2025-01-15 19:06:17.380850	322.8	20.4	-81.2	0.0
2025-01-15 19:06:18.503237	322.9	20.3	-81.3	0.0
2025-01-15 19:06:19.625426	323.1	20.2	-81.2	0.0
2025-01-15 19:06:20.749645	323.2	20.0	-81.5	0.0
2025-01-15 19:06:21.873491	323.4	19.9	-81.1	0.0
2025-01-15 19:06:22.998067	323.5	19.8	-81.4	0.0
2025-01-15 19:06:24.122641	323.7	19.7	-80.9	0.0
2025-01-15 19:06:25.248595	323.8	19.6	-81.1	0.0
2025-01-15 19:06:26.371789	323.9	19.4	-81.2	0.0
2025-01-15 19:06:27.494875	324.1	19.3	-80.7	0.0
2025-01-15 19:06:28.619889	324.2	19.2	-81.2	0.0
2025-01-15 19:06:29.742101	324.3	19.1	-81.4	0.0
2025-01-15 19:06:30.867996	324.5	18.9	-81.2	0.0
2025-01-15 19:06:31.990383	324.6	18.8	-81.5	0.0
2025-01-15 19:06:33.113055	324.7	18.7	-81.5	0.0
2025-01-15 19:06:34.237606	324.9	18.6	-81.2	0.0
2025-01-15 19:06:35.360936	325.0	18.5	-81.3	0.0
2025-01-15 19:06:36.486767	325.1	18.3	-81.4	0.0
2025-01-15 19:06:37.610105	325.3	18.2	-81.2	0.0
2025-01-15 19:06:38.731166	325.4	18.1	-81.2	0.0
2025-01-15 19:06:39.853044	325.5	18.0	-81.0	0.0
2025-01-15 19:06:40.974563	325.6	17.9	-81.2	0.0
2025-01-15 19:06:42.096393	325.8	17.8	-80.9	0.0
2025-01-15 19:06:43.218384	325.9	17.6	-80.8	0.0
2025-01-15 19:06:44.341815	326.0	17.5	-81.0	0.0
2025-01-15 19:06:45.465795	326.1	17.4	-81.3	0.0
2025-01-15 19:06:46.589649	326.2	17.3	-81.0	0.0
2025-01-15 19:06:47.714677	326.4	17.2	-81.0	0.0
2025-01-15 19:06:48.837237	326.5	17.1	-81.3	0.0
2025-01-15 19:06:49.959569	326.6	17.0	-81.2	0.0
2025-01-15 19:06:51.084527	326.7	16.8	-81.3	0.0
2025-01-15 19:06:52.205560	326.8	16.7	-81.4	0.0
2025-01-15 19:06:53.329839	326.9	16.6	-81.6	0.0
2025-01-15 19:06:54.451740	327.1	16.5	-81.6	0.0
2025-01-15 19:06:55.576715	327.2	16.4	-81.3	0.0
2025-01-15 19:06:56.698733	327.3	16.3	-81.4	0.0
2025-01-15 19:06:57.824499	327.4	16.2	-81.5	0.0
2025-01-15 19:06:58.947247	327.5	16.1	-81.4	0.0
2025-01-15 19:07:00.071553	327.6	15.9	-81.4	0.0
2025-01-15 19:07:01.193941	327.7	15.8	-81.4	0.0
2025-01-15 19:07:02.315859	327.8	15.7	-81.6	0.0
2025-01-15 19:07:03.438452	328.0	15.6	-81.2	0.0
2025-01-15 19:07:04.560784	328.1	15.5	-81.4	0.0
2025-01-15 19:07:05.683362	328.2	15.4	-81.3	0.0
2025-01-15 19:07:06.805616	328.3	15.3	-81.2	0.0
2025-01-15 19:07:07.928141	328.4	15.2	-81.3	0.0
2025-01-15 19:07:09.049712	328.5	15.1	-80.8	0.0
2025-01-15 19:07:10.173251	328.6	15.0	-81.2	0.0
2025-01-15 19:07:11.296898	328.7	14.9	-81.5	0.0
2025-01-15 19:07:12.420121	328.8	14.8	-81.1	0.0
2025-01-15 19:07:13.541598	328.9	14.7	-81.2	0.0
2025-01-15 19:07:14.664877	329.0	14.6	-81.5	0.0
2025-01-15 19:07:15.789531	329.1	14.5	-80.9	0.0
2025-01-15 19:07:16.914370	329.2	14.3	-81.3	0.0
2025-01-15 19:07:18.036580	329.3	14.2	-81.7	0.0
2025-01-15 19:07:19.158187	329.4	14.1	-81.0	0.0
2025-01-15 19:07:20.279901	329.5	14.0	-80.7	0.0
2025-01-15 19:07:21.404629	329.6	13.9	-80.7	0.0
2025-01-15 19:07:22.526365	329.7	13.8	-81.3	0.0
2025-01-15 19:07:23.649568	329.8	13.7	-81.4	0.0
2025-01-15 19:07:24.774295	329.9	13.6	-81.2	0.0
2025-01-15 19:07:25.898379	330.0	13.5	-81.5	0.0
2025-01-15 19:07:27.021958	330.1	13.4	-81.0	0.0
2025-01-15 19:07:28.146278	330.2	13.3	-81.2	0.0
2025-01-15 19:07:29.268163	330.3	13.2	-81.5	0.0
2025-01-15 19:07:30.390970	330.3	13.1	-81.0	0.0
2025-01-15 19:07:31.514074	330.4	13.0	-81.3	0.0
2025-01-15 19:07:32.636707	330.5	12.9	-81.0	0.0
2025-01-15 19:07:33.759659	330.6	12.8	-81.2	0.0
2025-01-15 19:07:34.883287	330.7	12.7	-81.2	0.0
2025-01-15 19:07:36.005632	330.8	12.6	-81.2	0.0
2025-01-15 19:07:37.129762	330.9	12.5	-81.1	0.0
2025-01-15 19:07:38.251418	331.0	12.4	-81.1	0.0
2025-01-15 19:07:39.375862	331.1	12.3	-81.2	0.0
2025-01-15 19:07:40.496164	331.2	12.2	-81.4	0.0
2025-01-15 19:07:41.620332	331.2	12.1	-81.3	0.0
2025-01-15 19:07:42.743320	331.3	12.0	-81.3	0.0
2025-01-15 19:07:43.866686	331.4	12.0	-80.8	0.0
2025-01-15 19:07:44.990443	331.5	11.9	-81.1	0.0
2025-01-15 19:07:46.116142	331.6	11.8	-81.4	0.0
2025-01-15 19:07:47.243325	331.7	11.7	-81.0	0.0
2025-01-15 19:07:48.370740	331.7	11.6	-80.9	0.0
2025-01-15 19:07:49.495565	331.8	11.5	-81.0	0.0
2025-01-15 19:07:50.618852	331.9	11.4	-80.9	0.0
2025-01-15 19:07:51.741984	332.0	11.3	-80.9	0.0
2025-01-15 19:07:52.866008	332.1	11.2	-81.1	0.0
2025-01-15 19:07:53.989879	332.2	11.1	-81.3	0.0
2025-01-15 19:07:55.113433	332.2	11.0	-81.1	0.0
2025-01-15 19:07:56.236903	332.3	10.9	-81.0	0.0
2025-01-15 19:07:57.358731	332.4	10.8	-80.8	0.0
2025-01-15 19:07:58.482041	332.5	10.7	-80.9	0.0
2025-01-15 19:07:59.604747	332.6	10.6	-80.9	0.0
2025-01-15 19:08:00.727769	332.6	10.5	-81.3	0.0
2025-01-15 19:08:01.852104	332.7	10.5	-81.1	0.0
2025-01-15 19:08:02.974953	332.8	10.4	-81.2	0.0
2025-01-15 19:08:04.098484	332.9	10.3	-80.8	0.0
2025-01-15 19:08:05.224541	332.9	10.2	-81.0	0.0
2025-01-15 19:08:06.348252	333.0	10.1	-80.7	0.0
2025-01-15 19:08:07.471572	333.1	10.0	-81.1	0.0
#Closed at: 2025-01-15 18:57:42.479181