passes_logs/2025/01/15/planumMaritime01/planumMaritime01__20250115_174313_NOAA_18_rec.log

#Pass ID: 20250115_174313_NOAA 18
#Satellite: NOAA 18
#Configuration: NOAA 18
#Start time: 2025-01-15 17:43:18.984957

#LorettStation: 1.0.0 05.05.2024
#Station: planumMaritime01
#Location: 37.49445 lon 55.92918 lat
#TLE: 1 28654U 05018A   25015.16278545  .00000300  00000+0  18295-3 0  9990
#TLE: 2 28654  98.8567  96.2156 0014367 178.7074 181.4138 14.13486503 13201

#Time	Az	El	Level	SNR
2025-01-15 17:43:21.148206	105.0	10.1	-80.2	0.0
2025-01-15 17:43:22.271526	104.9	10.2	-79.9	0.0
2025-01-15 17:43:23.397901	104.8	10.3	-80.4	0.0
2025-01-15 17:43:24.519416	104.6	10.4	-80.1	0.0
2025-01-15 17:43:25.644024	104.5	10.5	-80.2	0.0
2025-01-15 17:43:26.766004	104.4	10.5	-80.3	0.0
2025-01-15 17:43:27.890804	104.3	10.6	-80.1	0.0
2025-01-15 17:43:29.014654	104.2	10.7	-80.3	0.0
2025-01-15 17:43:30.136018	104.0	10.8	-80.2	0.0
2025-01-15 17:43:31.259399	103.9	10.9	-80.3	0.0
2025-01-15 17:43:32.381059	103.8	10.9	-80.4	0.0
2025-01-15 17:43:33.504417	103.7	11.0	-80.4	0.0
2025-01-15 17:43:34.625470	103.5	11.1	-80.7	0.0
2025-01-15 17:43:35.751057	103.4	11.2	-80.0	0.0
2025-01-15 17:43:36.875983	103.3	11.3	-79.8	0.0
2025-01-15 17:43:38.000404	103.2	11.3	-79.9	0.0
2025-01-15 17:43:39.122246	103.0	11.4	-79.8	0.0
2025-01-15 17:43:40.245484	102.9	11.5	-79.9	0.0
2025-01-15 17:43:41.369189	102.8	11.6	-80.1	0.0
2025-01-15 17:43:42.493873	102.6	11.6	-80.2	0.0
2025-01-15 17:43:43.618978	102.5	11.7	-79.8	0.0
2025-01-15 17:43:44.744474	102.4	11.8	-80.4	0.0
2025-01-15 17:43:45.867440	102.2	11.9	-80.5	0.0
2025-01-15 17:43:46.989788	102.1	12.0	-80.4	0.0
2025-01-15 17:43:48.114910	102.0	12.0	-80.6	0.0
2025-01-15 17:43:49.236362	101.8	12.1	-79.9	0.0
2025-01-15 17:43:50.359289	101.7	12.2	-80.1	0.0
2025-01-15 17:43:51.484660	101.6	12.3	-80.3	0.0
2025-01-15 17:43:52.608387	101.4	12.4	-80.6	0.0
2025-01-15 17:43:53.732145	101.3	12.5	-80.6	0.0
2025-01-15 17:43:54.854962	101.1	12.5	-80.1	0.0
2025-01-15 17:43:55.977264	101.0	12.6	-80.3	0.0
2025-01-15 17:43:57.102575	100.9	12.7	-80.4	0.0
2025-01-15 17:43:58.225771	100.7	12.8	-80.3	0.0
2025-01-15 17:43:59.351777	100.6	12.9	-80.2	0.0
2025-01-15 17:44:00.475096	100.4	12.9	-80.1	0.0
2025-01-15 17:44:01.599928	100.3	13.0	-80.3	0.0
2025-01-15 17:44:02.723022	100.1	13.1	-80.2	0.0
2025-01-15 17:44:03.846882	100.0	13.2	-80.3	0.0
2025-01-15 17:44:04.969609	99.9	13.3	-80.4	0.0
2025-01-15 17:44:06.092848	99.7	13.4	-80.2	0.0
2025-01-15 17:44:07.214843	99.6	13.4	-79.9	0.0
2025-01-15 17:44:08.338487	99.4	13.5	-80.3	0.0
2025-01-15 17:44:09.463611	99.3	13.6	-80.4	0.0
2025-01-15 17:44:10.586386	99.1	13.7	-80.0	0.0
2025-01-15 17:44:11.709629	99.0	13.8	-80.2	0.0
2025-01-15 17:44:12.831649	98.8	13.8	-80.6	0.0
2025-01-15 17:44:13.953434	98.7	13.9	-80.2	0.0
2025-01-15 17:44:15.075744	98.5	14.0	-80.5	0.0
2025-01-15 17:44:16.198113	98.3	14.1	-80.3	0.0
2025-01-15 17:44:17.321783	98.2	14.2	-80.8	0.0
2025-01-15 17:44:18.445326	98.0	14.3	-80.8	0.0
2025-01-15 17:44:19.569890	97.9	14.3	-81.0	0.0
2025-01-15 17:44:20.691801	97.7	14.4	-80.6	0.0
2025-01-15 17:44:21.813090	97.6	14.5	-80.9	0.0
2025-01-15 17:44:22.936792	97.4	14.6	-80.9	0.0
2025-01-15 17:44:24.059717	97.2	14.7	-80.7	0.0
2025-01-15 17:44:25.180708	97.1	14.8	-80.9	0.0
2025-01-15 17:44:26.305122	96.9	14.8	-80.9	0.0
2025-01-15 17:44:27.428463	96.7	14.9	-80.9	0.0
2025-01-15 17:44:28.549684	96.6	15.0	-80.7	0.0
2025-01-15 17:44:29.672172	96.4	15.1	-80.9	0.0
2025-01-15 17:44:30.795488	96.2	15.2	-80.7	0.0
2025-01-15 17:44:31.919439	96.1	15.3	-80.8	0.0
2025-01-15 17:44:33.042109	95.9	15.3	-80.9	0.0
2025-01-15 17:44:34.164419	95.7	15.4	-80.8	0.0
2025-01-15 17:44:35.289672	95.6	15.5	-80.7	0.0
2025-01-15 17:44:36.410741	95.4	15.6	-80.7	0.0
2025-01-15 17:44:37.533603	95.2	15.7	-81.0	0.0
2025-01-15 17:44:38.655871	95.1	15.8	-80.5	0.0
2025-01-15 17:44:39.779046	94.9	15.8	-81.1	0.0
2025-01-15 17:44:40.901847	94.7	15.9	-81.0	0.0
2025-01-15 17:44:42.024633	94.5	16.0	-81.0	0.0
2025-01-15 17:44:43.149312	94.4	16.1	-81.0	0.0
2025-01-15 17:44:44.272536	94.2	16.2	-80.7	0.0
2025-01-15 17:44:45.396942	94.0	16.3	-80.7	0.0
2025-01-15 17:44:46.519565	93.8	16.3	-80.9	0.0
2025-01-15 17:44:47.642131	93.6	16.4	-80.9	0.0
2025-01-15 17:44:48.766528	93.5	16.5	-80.7	0.0
2025-01-15 17:44:49.888724	93.3	16.6	-81.0	0.0
2025-01-15 17:44:51.013453	93.1	16.7	-80.7	0.0
2025-01-15 17:44:52.135125	92.9	16.8	-81.0	0.0
2025-01-15 17:44:53.258154	92.7	16.8	-81.1	0.0
2025-01-15 17:44:54.381601	92.5	16.9	-80.6	0.0
2025-01-15 17:44:55.507334	92.3	17.0	-80.6	0.0
2025-01-15 17:44:56.633813	92.2	17.1	-80.4	0.0
2025-01-15 17:44:57.754923	92.0	17.2	-80.0	0.0
2025-01-15 17:44:58.878349	91.8	17.3	-80.5	0.0
2025-01-15 17:45:00.002983	91.6	17.3	-80.9	0.0
2025-01-15 17:45:01.123828	91.4	17.4	-81.0	0.0
2025-01-15 17:45:02.247660	91.2	17.5	-80.9	0.0
2025-01-15 17:45:03.371840	91.0	17.6	-80.8	0.0
2025-01-15 17:45:04.492961	90.8	17.7	-80.8	0.0
2025-01-15 17:45:05.617405	90.6	17.7	-80.9	0.0
2025-01-15 17:45:06.740041	90.4	17.8	-80.8	0.0
2025-01-15 17:45:07.864371	90.2	17.9	-80.7	0.0
2025-01-15 17:45:08.985816	90.0	18.0	-80.5	0.0
2025-01-15 17:45:10.106950	89.8	18.1	-80.5	0.0
2025-01-15 17:45:11.229435	89.6	18.2	-80.9	0.0
2025-01-15 17:45:12.354610	89.4	18.2	-80.3	0.0
2025-01-15 17:45:13.478814	89.2	18.3	-80.7	0.0
2025-01-15 17:45:14.601740	89.0	18.4	-80.8	0.0
2025-01-15 17:45:15.725017	88.8	18.5	-80.6	0.0
2025-01-15 17:45:16.847094	88.6	18.6	-80.9	0.0
2025-01-15 17:45:17.968947	88.4	18.7	-80.6	0.0
2025-01-15 17:45:19.090657	88.1	18.7	-80.5	0.0
2025-01-15 17:45:20.213537	87.9	18.8	-80.6	0.0
2025-01-15 17:45:21.338376	87.7	18.9	-80.9	0.0
2025-01-15 17:45:22.461998	87.5	19.0	-81.0	0.0
2025-01-15 17:45:23.585438	87.3	19.1	-80.7	0.0
2025-01-15 17:45:24.707885	87.1	19.1	-80.5	0.0
2025-01-15 17:45:25.830831	86.8	19.2	-80.6	0.0
2025-01-15 17:45:26.957544	86.6	19.3	-80.8	0.0
2025-01-15 17:45:28.078969	86.4	19.4	-80.7	0.0
2025-01-15 17:45:29.202542	86.2	19.5	-80.8	0.0
2025-01-15 17:45:30.326685	86.0	19.5	-81.0	0.0
2025-01-15 17:45:31.450571	85.7	19.6	-80.9	0.0
2025-01-15 17:45:32.573228	85.5	19.7	-80.8	0.0
2025-01-15 17:45:33.697235	85.3	19.8	-80.9	0.0
2025-01-15 17:45:34.820344	85.1	19.9	-80.7	0.0
2025-01-15 17:45:35.942167	84.8	19.9	-80.4	0.0
2025-01-15 17:45:37.064514	84.6	20.0	-81.0	0.0
2025-01-15 17:45:38.186561	84.4	20.1	-80.6	0.0
2025-01-15 17:45:39.309296	84.1	20.2	-80.7	0.0
2025-01-15 17:45:40.430108	83.9	20.2	-80.8	0.0
2025-01-15 17:45:41.553154	83.7	20.3	-80.7	0.0
2025-01-15 17:45:42.676461	83.4	20.4	-80.8	0.0
2025-01-15 17:45:43.799101	83.2	20.5	-80.9	0.0
2025-01-15 17:45:44.922558	83.0	20.5	-80.9	0.0
2025-01-15 17:45:46.046063	82.7	20.6	-81.0	0.0
2025-01-15 17:45:47.169774	82.5	20.7	-80.8	0.0
2025-01-15 17:45:48.292331	82.2	20.8	-80.7	0.0
2025-01-15 17:45:49.414673	82.0	20.9	-81.2	0.0
2025-01-15 17:45:50.536789	81.8	20.9	-80.9	0.0
2025-01-15 17:45:51.662139	81.5	21.0	-80.8	0.0
2025-01-15 17:45:52.786244	81.3	21.1	-81.0	0.0
2025-01-15 17:45:53.910783	81.0	21.1	-80.9	0.0
2025-01-15 17:45:55.034123	80.8	21.2	-80.7	0.0
2025-01-15 17:45:56.157929	80.5	21.3	-81.1	0.0
2025-01-15 17:45:57.282330	80.3	21.4	-81.1	0.0
2025-01-15 17:45:58.403351	80.0	21.4	-81.0	0.0
2025-01-15 17:45:59.526067	79.8	21.5	-81.0	0.0
2025-01-15 17:46:00.648964	79.5	21.6	-81.0	0.0
2025-01-15 17:46:01.771996	79.3	21.7	-80.9	0.0
2025-01-15 17:46:02.893495	79.0	21.7	-80.6	0.0
2025-01-15 17:46:04.016847	78.7	21.8	-80.8	0.0
2025-01-15 17:46:05.139072	78.5	21.9	-81.2	0.0
2025-01-15 17:46:06.261474	78.2	21.9	-80.9	0.0
2025-01-15 17:46:07.384813	78.0	22.0	-81.0	0.0
2025-01-15 17:46:08.507081	77.7	22.1	-80.5	0.0
2025-01-15 17:46:09.629729	77.4	22.1	-80.7	0.0
2025-01-15 17:46:10.751660	77.2	22.2	-80.8	0.0
2025-01-15 17:46:11.876143	76.9	22.3	-81.0	0.0
2025-01-15 17:46:12.999940	76.6	22.3	-80.5	0.0
2025-01-15 17:46:14.122731	76.4	22.4	-80.9	0.0
2025-01-15 17:46:15.245308	76.1	22.5	-80.9	0.0
2025-01-15 17:46:16.369694	75.8	22.5	-80.6	0.0
2025-01-15 17:46:17.492436	75.6	22.6	-80.8	0.0
2025-01-15 17:46:18.617703	75.3	22.7	-80.8	0.0
2025-01-15 17:46:19.740043	75.0	22.7	-80.5	0.0
2025-01-15 17:46:20.862188	74.7	22.8	-80.9	0.0
2025-01-15 17:46:21.989337	74.5	22.9	-81.0	0.0
2025-01-15 17:46:23.111518	74.2	22.9	-80.8	0.0
2025-01-15 17:46:24.235095	73.9	23.0	-81.0	0.0
2025-01-15 17:46:25.357373	73.6	23.0	-80.9	0.0
2025-01-15 17:46:26.480285	73.4	23.1	-80.9	0.0
2025-01-15 17:46:27.604030	73.1	23.2	-80.8	0.0
2025-01-15 17:46:28.728037	72.8	23.2	-81.0	0.0
2025-01-15 17:46:29.850174	72.5	23.3	-81.2	0.0
2025-01-15 17:46:30.975042	72.2	23.3	-80.9	0.0
2025-01-15 17:46:32.096590	71.9	23.4	-80.6	0.0
2025-01-15 17:46:33.219865	71.6	23.4	-81.1	0.0
2025-01-15 17:46:34.341383	71.4	23.5	-80.7	0.0
2025-01-15 17:46:35.466112	71.1	23.6	-81.1	0.0
2025-01-15 17:46:36.588368	70.8	23.6	-81.2	0.0
2025-01-15 17:46:37.708694	70.5	23.7	-81.3	0.0
2025-01-15 17:46:38.830950	70.2	23.7	-81.1	0.0
2025-01-15 17:46:39.951802	69.9	23.8	-81.2	0.0
2025-01-15 17:46:41.075788	69.6	23.8	-81.1	0.0
2025-01-15 17:46:42.200647	69.3	23.9	-81.0	0.0
2025-01-15 17:46:43.323892	69.0	23.9	-80.7	0.0
2025-01-15 17:46:44.446218	68.7	24.0	-81.0	0.0
2025-01-15 17:46:45.569629	68.4	24.0	-80.8	0.0
2025-01-15 17:46:46.695206	68.1	24.1	-81.1	0.0
2025-01-15 17:46:47.817748	67.8	24.1	-80.9	0.0
2025-01-15 17:46:48.940391	67.5	24.2	-80.4	0.0
2025-01-15 17:46:50.063552	67.2	24.2	-80.1	0.0
2025-01-15 17:46:51.188912	66.9	24.2	-80.6	0.0
2025-01-15 17:46:52.311866	66.6	24.3	-80.6	0.0
2025-01-15 17:46:53.435191	66.3	24.3	-80.3	0.0
2025-01-15 17:46:54.557374	66.0	24.4	-80.8	0.0
2025-01-15 17:46:55.678850	65.7	24.4	-80.0	0.0
2025-01-15 17:46:56.799879	65.4	24.5	-80.8	0.0
2025-01-15 17:46:57.920176	65.1	24.5	-80.7	0.0
2025-01-15 17:46:59.044355	64.8	24.5	-80.9	0.0
2025-01-15 17:47:00.166885	64.5	24.6	-80.2	0.0
2025-01-15 17:47:01.290380	64.2	24.6	-80.2	0.0
2025-01-15 17:47:02.413991	63.9	24.6	-80.6	0.0
2025-01-15 17:47:03.536928	63.6	24.7	-80.8	0.0
2025-01-15 17:47:04.659854	63.2	24.7	-80.8	0.0
2025-01-15 17:47:05.782600	62.9	24.7	-80.9	0.0
2025-01-15 17:47:06.904594	62.6	24.8	-81.4	0.0
2025-01-15 17:47:08.029892	62.3	24.8	-80.9	0.0
2025-01-15 17:47:09.151860	62.0	24.8	-81.0	0.0
2025-01-15 17:47:10.276906	61.7	24.9	-80.4	0.0
2025-01-15 17:47:11.400004	61.4	24.9	-80.3	0.0
2025-01-15 17:47:12.523853	61.1	24.9	-80.9	0.0
2025-01-15 17:47:13.647903	60.7	25.0	-80.7	0.0
2025-01-15 17:47:14.771103	60.4	25.0	-81.0	0.0
2025-01-15 17:47:15.895928	60.1	25.0	-80.3	0.0
2025-01-15 17:47:17.020236	59.8	25.0	-80.9	0.0
2025-01-15 17:47:18.146487	59.5	25.1	-80.8	0.0
2025-01-15 17:47:19.271106	59.1	25.1	-81.1	0.0
2025-01-15 17:47:20.394045	58.8	25.1	-80.8	0.0
2025-01-15 17:47:21.516998	58.5	25.1	-80.6	0.0
2025-01-15 17:47:22.640173	58.2	25.1	-81.0	0.0
2025-01-15 17:47:23.764781	57.9	25.2	-81.0	0.0
2025-01-15 17:47:24.888537	57.5	25.2	-80.6	0.0
2025-01-15 17:47:26.011539	57.2	25.2	-81.0	0.0
2025-01-15 17:47:27.133794	56.9	25.2	-80.8	0.0
2025-01-15 17:47:28.257039	56.6	25.2	-80.9	0.0
2025-01-15 17:47:29.377975	56.3	25.2	-81.1	0.0
2025-01-15 17:47:30.499629	55.9	25.3	-80.9	0.0
2025-01-15 17:47:31.620334	55.6	25.3	-80.9	0.0
2025-01-15 17:47:32.742570	55.3	25.3	-81.1	0.0
2025-01-15 17:47:33.867725	55.0	25.3	-81.1	0.0
2025-01-15 17:47:34.990593	54.7	25.3	-81.1	0.0
2025-01-15 17:47:36.115418	54.3	25.3	-81.1	0.0
2025-01-15 17:47:37.238614	54.0	25.3	-80.9	0.0
2025-01-15 17:47:38.359691	53.7	25.3	-80.9	0.0
2025-01-15 17:47:39.483328	53.4	25.3	-81.1	0.0
2025-01-15 17:47:40.605668	53.0	25.3	-81.2	0.0
2025-01-15 17:47:41.727370	52.7	25.3	-81.1	0.0
2025-01-15 17:47:42.849295	52.4	25.3	-81.2	0.0
2025-01-15 17:47:43.972544	52.1	25.3	-81.4	0.0
2025-01-15 17:47:45.098847	51.7	25.3	-81.4	0.0
2025-01-15 17:47:46.219101	51.4	25.3	-81.3	0.0
2025-01-15 17:47:47.343930	51.1	25.3	-81.2	0.0
2025-01-15 17:47:48.466336	50.8	25.3	-80.9	0.0
2025-01-15 17:47:49.588488	50.4	25.3	-81.0	0.0
2025-01-15 17:47:50.712040	50.1	25.3	-80.8	0.0
2025-01-15 17:47:51.834552	49.8	25.3	-80.6	0.0
2025-01-15 17:47:52.958220	49.5	25.3	-80.6	0.0
2025-01-15 17:47:54.079605	49.2	25.3	-80.8	0.0
2025-01-15 17:47:55.201247	48.8	25.3	-80.7	0.0
2025-01-15 17:47:56.322975	48.5	25.3	-80.8	0.0
2025-01-15 17:47:57.447223	48.2	25.3	-81.0	0.0
2025-01-15 17:47:58.569135	47.9	25.2	-80.5	0.0
2025-01-15 17:47:59.689492	47.5	25.2	-80.9	0.0
2025-01-15 17:48:00.811202	47.2	25.2	-81.0	0.0
2025-01-15 17:48:01.932792	46.9	25.2	-80.5	0.0
2025-01-15 17:48:03.055805	46.6	25.2	-80.8	0.0
2025-01-15 17:48:04.177976	46.3	25.2	-81.0	0.0
2025-01-15 17:48:05.303472	45.9	25.2	-80.8	0.0
2025-01-15 17:48:06.425860	45.6	25.1	-81.0	0.0
2025-01-15 17:48:07.549314	45.3	25.1	-80.7	0.0
2025-01-15 17:48:08.672133	45.0	25.1	-80.9	0.0
2025-01-15 17:48:09.794454	44.7	25.1	-80.9	0.0
2025-01-15 17:48:10.918956	44.3	25.0	-80.6	0.0
2025-01-15 17:48:12.040476	44.0	25.0	-80.9	0.0
2025-01-15 17:48:13.162452	43.7	25.0	-80.9	0.0
2025-01-15 17:48:14.284575	43.4	25.0	-81.0	0.0
2025-01-15 17:48:15.407107	43.1	24.9	-80.8	0.0
2025-01-15 17:48:16.527143	42.8	24.9	-81.1	0.0
2025-01-15 17:48:17.652037	42.4	24.9	-81.2	0.0
2025-01-15 17:48:18.774955	42.1	24.9	-81.4	0.0
2025-01-15 17:48:19.896136	41.8	24.8	-81.0	0.0
2025-01-15 17:48:21.017462	41.5	24.8	-80.9	0.0
2025-01-15 17:48:22.139415	41.2	24.8	-81.0	0.0
2025-01-15 17:48:23.261155	40.9	24.7	-80.9	0.0
2025-01-15 17:48:24.383615	40.6	24.7	-81.1	0.0
2025-01-15 17:48:25.508672	40.3	24.7	-81.1	0.0
2025-01-15 17:48:26.632064	39.9	24.6	-81.0	0.0
2025-01-15 17:48:27.755421	39.6	24.6	-81.2	0.0
2025-01-15 17:48:28.879050	39.3	24.6	-80.5	0.0
2025-01-15 17:48:30.001983	39.0	24.5	-81.0	0.0
2025-01-15 17:48:31.125325	38.7	24.5	-81.0	0.0
2025-01-15 17:48:32.247439	38.4	24.4	-80.8	0.0
2025-01-15 17:48:33.370174	38.1	24.4	-81.2	0.0
2025-01-15 17:48:34.491231	37.8	24.4	-80.7	0.0
2025-01-15 17:48:35.613906	37.5	24.3	-80.9	0.0
2025-01-15 17:48:36.734902	37.2	24.3	-80.6	0.0
2025-01-15 17:48:37.856525	36.9	24.2	-80.7	0.0
2025-01-15 17:48:38.980743	36.6	24.2	-80.8	0.0
2025-01-15 17:48:40.104360	36.3	24.1	-80.8	0.0
2025-01-15 17:48:41.227943	36.0	24.1	-80.9	0.0
2025-01-15 17:48:42.351589	35.7	24.0	-80.8	0.0
2025-01-15 17:48:43.474178	35.4	24.0	-80.8	0.0
2025-01-15 17:48:44.597408	35.1	23.9	-80.6	0.0
2025-01-15 17:48:45.720009	34.8	23.9	-80.8	0.0
2025-01-15 17:48:46.844097	34.5	23.9	-80.9	0.0
2025-01-15 17:48:47.967898	34.2	23.8	-80.7	0.0
2025-01-15 17:48:49.089677	33.9	23.7	-80.9	0.0
2025-01-15 17:48:50.211875	33.6	23.7	-80.4	0.0
2025-01-15 17:48:51.335432	33.3	23.6	-81.0	0.0
2025-01-15 17:48:52.459008	33.0	23.6	-80.8	0.0
2025-01-15 17:48:53.583308	32.8	23.5	-80.6	0.0
2025-01-15 17:48:54.705976	32.5	23.5	-80.8	0.0
2025-01-15 17:48:55.828476	32.2	23.4	-80.9	0.0
2025-01-15 17:48:56.951932	31.9	23.4	-80.9	0.0
2025-01-15 17:48:58.073584	31.6	23.3	-80.7	0.0
2025-01-15 17:48:59.197694	31.3	23.3	-80.6	0.0
2025-01-15 17:49:00.320132	31.0	23.2	-81.0	0.0
2025-01-15 17:49:01.443064	30.8	23.1	-80.7	0.0
2025-01-15 17:49:02.568503	30.5	23.1	-80.8	0.0
2025-01-15 17:49:03.688744	30.2	23.0	-80.8	0.0
2025-01-15 17:49:04.812001	29.9	23.0	-80.8	0.0
2025-01-15 17:49:05.936620	29.6	22.9	-81.2	0.0
2025-01-15 17:49:07.061345	29.4	22.8	-81.2	0.0
2025-01-15 17:49:08.184761	29.1	22.8	-80.8	0.0
2025-01-15 17:49:09.308248	28.8	22.7	-81.1	0.0
2025-01-15 17:49:10.433683	28.5	22.6	-81.1	0.0
2025-01-15 17:49:11.555388	28.3	22.6	-81.1	0.0
2025-01-15 17:49:12.679029	28.0	22.5	-80.8	0.0
2025-01-15 17:49:13.801669	27.7	22.4	-80.5	0.0
2025-01-15 17:49:14.927057	27.5	22.4	-80.6	0.0
2025-01-15 17:49:16.048507	27.2	22.3	-80.7	0.0
2025-01-15 17:49:17.175822	26.9	22.3	-80.4	0.0
2025-01-15 17:49:18.298102	26.7	22.2	-80.5	0.0
2025-01-15 17:49:19.419991	26.4	22.1	-80.6	0.0
2025-01-15 17:49:20.544198	26.1	22.0	-80.7	0.0
2025-01-15 17:49:21.667995	25.9	22.0	-81.0	0.0
2025-01-15 17:49:22.788855	25.6	21.9	-80.8	0.0
2025-01-15 17:49:23.910032	25.4	21.8	-80.7	0.0
2025-01-15 17:49:25.033628	25.1	21.8	-80.8	0.0
2025-01-15 17:49:26.159117	24.8	21.7	-80.9	0.0
2025-01-15 17:49:27.281040	24.6	21.6	-80.9	0.0
2025-01-15 17:49:28.404019	24.3	21.6	-80.8	0.0
2025-01-15 17:49:29.527963	24.1	21.5	-81.0	0.0
2025-01-15 17:49:30.652349	23.8	21.4	-80.9	0.0
2025-01-15 17:49:31.775998	23.6	21.3	-81.1	0.0
2025-01-15 17:49:32.898895	23.3	21.3	-81.2	0.0
2025-01-15 17:49:34.023155	23.1	21.2	-81.4	0.0
2025-01-15 17:49:35.146952	22.8	21.1	-81.1	0.0
2025-01-15 17:49:36.268540	22.6	21.0	-80.8	0.0
2025-01-15 17:49:37.391697	22.3	21.0	-80.8	0.0
2025-01-15 17:49:38.514638	22.1	20.9	-81.2	0.0
2025-01-15 17:49:39.635409	21.8	20.8	-80.9	0.0
2025-01-15 17:49:40.758787	21.6	20.7	-80.9	0.0
2025-01-15 17:49:41.881998	21.4	20.7	-81.1	0.0
2025-01-15 17:49:43.003560	21.1	20.6	-80.7	0.0
2025-01-15 17:49:44.127634	20.9	20.5	-80.9	0.0
2025-01-15 17:49:45.252223	20.6	20.4	-80.9	0.0
2025-01-15 17:49:46.375784	20.4	20.4	-81.0	0.0
2025-01-15 17:49:47.499649	20.2	20.3	-80.8	0.0
2025-01-15 17:49:48.622293	19.9	20.2	-80.8	0.0
2025-01-15 17:49:49.747270	19.7	20.1	-80.7	0.0
2025-01-15 17:49:50.870424	19.5	20.1	-81.1	0.0
2025-01-15 17:49:51.991817	19.2	20.0	-80.8	0.0
2025-01-15 17:49:53.112371	19.0	19.9	-80.5	0.0
2025-01-15 17:49:54.234759	18.8	19.8	-80.8	0.0
2025-01-15 17:49:55.356405	18.6	19.7	-80.6	0.0
2025-01-15 17:49:56.480379	18.3	19.7	-80.9	0.0
2025-01-15 17:49:57.603217	18.1	19.6	-80.6	0.0
2025-01-15 17:49:58.725764	17.9	19.5	-80.7	0.0
2025-01-15 17:49:59.847791	17.7	19.4	-81.2	0.0
2025-01-15 17:50:00.970145	17.4	19.3	-80.7	0.0
2025-01-15 17:50:02.094067	17.2	19.3	-80.8	0.0
2025-01-15 17:50:03.219390	17.0	19.2	-81.3	0.0
2025-01-15 17:50:04.342222	16.8	19.1	-80.9	0.0
2025-01-15 17:50:05.468714	16.6	19.0	-80.6	0.0
2025-01-15 17:50:06.593903	16.4	18.9	-80.7	0.0
2025-01-15 17:50:07.716890	16.1	18.9	-81.0	0.0
2025-01-15 17:50:08.841787	15.9	18.8	-81.0	0.0
2025-01-15 17:50:09.963049	15.7	18.7	-80.9	0.0
2025-01-15 17:50:11.087902	15.5	18.6	-81.0	0.0
2025-01-15 17:50:12.210668	15.3	18.5	-81.0	0.0
2025-01-15 17:50:13.332748	15.1	18.5	-80.8	0.0
2025-01-15 17:50:14.457482	14.9	18.4	-80.9	0.0
2025-01-15 17:50:15.581836	14.7	18.3	-80.8	0.0
2025-01-15 17:50:16.705912	14.5	18.2	-80.9	0.0
2025-01-15 17:50:17.828865	14.3	18.1	-80.9	0.0
2025-01-15 17:50:18.951756	14.1	18.0	-80.5	0.0
2025-01-15 17:50:20.074668	13.9	18.0	-80.5	0.0
2025-01-15 17:50:21.196740	13.7	17.9	-80.9	0.0
2025-01-15 17:50:22.323104	13.5	17.8	-80.7	0.0
2025-01-15 17:50:23.447026	13.3	17.7	-80.7	0.0
2025-01-15 17:50:24.570346	13.1	17.6	-80.8	0.0
2025-01-15 17:50:25.693036	12.9	17.5	-80.7	0.0
2025-01-15 17:50:26.814378	12.7	17.5	-80.8	0.0
2025-01-15 17:50:27.934952	12.5	17.4	-80.5	0.0
2025-01-15 17:50:29.059482	12.3	17.3	-80.2	0.0
2025-01-15 17:50:30.184568	12.1	17.2	-81.3	0.0
2025-01-15 17:50:31.307745	11.9	17.1	-81.2	0.0
2025-01-15 17:50:32.431524	11.7	17.1	-80.8	0.0
2025-01-15 17:50:33.554060	11.5	17.0	-81.0	0.0
2025-01-15 17:50:34.677450	11.3	16.9	-80.5	0.0
2025-01-15 17:50:35.800173	11.2	16.8	-80.9	0.0
2025-01-15 17:50:36.921766	11.0	16.7	-81.2	0.0
2025-01-15 17:50:38.042578	10.8	16.6	-80.8	0.0
2025-01-15 17:50:39.164465	10.6	16.6	-81.0	0.0
2025-01-15 17:50:40.289238	10.4	16.5	-80.9	0.0
2025-01-15 17:50:41.411085	10.2	16.4	-81.3	0.0
2025-01-15 17:50:42.533165	10.1	16.3	-81.1	0.0
2025-01-15 17:50:43.659294	9.9	16.2	-81.1	0.0
2025-01-15 17:50:44.785132	9.7	16.1	-81.0	0.0
2025-01-15 17:50:45.908603	9.5	16.1	-81.0	0.0
2025-01-15 17:50:47.029670	9.4	16.0	-81.2	0.0
2025-01-15 17:50:48.152684	9.2	15.9	-81.1	0.0
2025-01-15 17:50:49.278752	9.0	15.8	-81.2	0.0
2025-01-15 17:50:50.401833	8.8	15.7	-81.2	0.0
2025-01-15 17:50:51.523931	8.7	15.6	-81.3	0.0
2025-01-15 17:50:52.646010	8.5	15.6	-81.1	0.0
2025-01-15 17:50:53.768542	8.3	15.5	-81.3	0.0
2025-01-15 17:50:54.891815	8.1	15.4	-81.1	0.0
2025-01-15 17:50:56.014032	8.0	15.3	-81.0	0.0
2025-01-15 17:50:57.137747	7.8	15.2	-81.0	0.0
2025-01-15 17:50:58.262758	7.6	15.1	-81.1	0.0
2025-01-15 17:50:59.384666	7.5	15.1	-80.7	0.0
2025-01-15 17:51:00.507102	7.3	15.0	-80.7	0.0
2025-01-15 17:51:01.631225	7.2	14.9	-80.6	0.0
2025-01-15 17:51:02.755080	7.0	14.8	-81.0	0.0
2025-01-15 17:51:03.876680	6.8	14.7	-80.7	0.0
2025-01-15 17:51:04.999448	6.7	14.6	-81.1	0.0
2025-01-15 17:51:06.121803	6.5	14.6	-80.9	0.0
2025-01-15 17:51:07.245458	6.3	14.5	-80.6	0.0
2025-01-15 17:51:08.369447	6.2	14.4	-80.6	0.0
2025-01-15 17:51:09.493211	6.0	14.3	-81.0	0.0
2025-01-15 17:51:10.616784	5.9	14.2	-80.7	0.0
2025-01-15 17:51:11.737509	5.7	14.1	-80.5	0.0
2025-01-15 17:51:12.862420	5.6	14.1	-81.0	0.0
2025-01-15 17:51:13.985406	5.4	14.0	-81.2	0.0
2025-01-15 17:51:15.108796	5.3	13.9	-81.1	0.0
2025-01-15 17:51:16.231803	5.1	13.8	-80.9	0.0
2025-01-15 17:51:17.354018	5.0	13.7	-81.1	0.0
2025-01-15 17:51:18.478848	4.8	13.6	-81.1	0.0
2025-01-15 17:51:19.601966	4.7	13.6	-80.7	0.0
2025-01-15 17:51:20.723808	4.5	13.5	-80.8	0.0
2025-01-15 17:51:21.845711	4.4	13.4	-81.0	0.0
2025-01-15 17:51:22.967890	4.2	13.3	-80.8	0.0
2025-01-15 17:51:24.088738	4.1	13.2	-81.2	0.0
2025-01-15 17:51:25.210966	3.9	13.1	-81.4	0.0
2025-01-15 17:51:26.333793	3.8	13.1	-81.0	0.0
2025-01-15 17:51:27.454510	3.6	13.0	-81.3	0.0
2025-01-15 17:51:28.580214	3.5	12.9	-80.8	0.0
2025-01-15 17:51:29.704192	3.3	12.8	-81.1	0.0
2025-01-15 17:51:30.826906	3.2	12.7	-81.0	0.0
2025-01-15 17:51:31.950393	3.1	12.7	-80.9	0.0
2025-01-15 17:51:33.075902	2.9	12.6	-80.6	0.0
2025-01-15 17:51:34.200198	2.8	12.5	-80.4	0.0
2025-01-15 17:51:35.323475	2.6	12.4	-80.7	0.0
2025-01-15 17:51:36.446423	2.5	12.3	-80.4	0.0
2025-01-15 17:51:37.569965	2.4	12.3	-80.4	0.0
2025-01-15 17:51:38.693258	2.2	12.2	-80.8	0.0
2025-01-15 17:51:39.817391	2.1	12.1	-80.8	0.0
2025-01-15 17:51:40.938426	2.0	12.0	-80.6	0.0
2025-01-15 17:51:42.060810	1.8	11.9	-81.0	0.0
2025-01-15 17:51:43.184023	1.7	11.9	-81.2	0.0
2025-01-15 17:51:44.308044	1.6	11.8	-81.1	0.0
2025-01-15 17:51:45.431132	1.4	11.7	-81.0	0.0
2025-01-15 17:51:46.552526	1.3	11.6	-81.3	0.0
2025-01-15 17:51:47.677765	1.2	11.5	-81.2	0.0
2025-01-15 17:51:48.800796	1.0	11.5	-80.9	0.0
2025-01-15 17:51:49.925178	0.9	11.4	-81.0	0.0
2025-01-15 17:51:51.047470	0.8	11.3	-80.8	0.0
2025-01-15 17:51:52.169946	0.7	11.2	-80.9	0.0
2025-01-15 17:51:53.294135	0.5	11.1	-80.8	0.0
2025-01-15 17:51:54.418053	0.4	11.1	-81.2	0.0
2025-01-15 17:51:55.541741	0.3	11.0	-80.8	0.0
2025-01-15 17:51:56.666262	0.2	10.9	-81.0	0.0
2025-01-15 17:51:57.788779	0.0	10.8	-81.3	0.0
2025-01-15 17:51:58.911314	359.9	10.7	-80.9	0.0
2025-01-15 17:52:00.036462	359.8	10.7	-81.4	0.0
2025-01-15 17:52:01.160255	359.7	10.6	-80.9	0.0
2025-01-15 17:52:02.281853	359.5	10.5	-81.2	0.0
2025-01-15 17:52:03.405166	359.4	10.4	-81.0	0.0
2025-01-15 17:52:04.528933	359.3	10.3	-80.8	0.0
2025-01-15 17:52:05.650830	359.2	10.3	-80.9	0.0
2025-01-15 17:52:06.775465	359.1	10.2	-81.0	0.0
2025-01-15 17:52:07.900399	358.9	10.1	-80.9	0.0
2025-01-15 17:52:09.023552	358.8	10.0	-81.0	0.0
#Closed at: 2025-01-15 17:43:13.988190