passes_logs/2025/01/15/planumMaritime01/planumMaritime01__20250115_180415_METEOR-M2_3_rec.log

#Pass ID: 20250115_180415_METEOR-M2 3
#Satellite: METEOR-M2 3
#Configuration: METEOR-M2 3
#Start time: 2025-01-15 18:04:20.007268

#LorettStation: 1.0.0 05.05.2024
#Station: planumMaritime01
#Location: 37.49445 lon 55.92918 lat
#TLE: 1 57166U 23091A   25015.11335980  .00000040  00000+0  36643-4 0  9992
#TLE: 2 57166  98.6849  73.5750 0003221 223.8450 136.2474 14.23969247 80787

#Time	Az	El	Level	SNR
2025-01-15 18:04:22.170616	171.1	10.2	-80.2	0.0
2025-01-15 18:04:23.292905	171.2	10.3	-80.1	0.0
2025-01-15 18:04:24.418562	171.2	10.4	-80.1	0.0
2025-01-15 18:04:25.541544	171.2	10.5	-80.1	0.0
2025-01-15 18:04:26.664538	171.3	10.6	-80.3	0.0
2025-01-15 18:04:27.785593	171.3	10.7	-80.1	0.0
2025-01-15 18:04:28.908207	171.3	10.8	-80.4	0.0
2025-01-15 18:04:30.031067	171.3	10.9	-80.1	0.0
2025-01-15 18:04:31.153584	171.4	11.0	-80.0	0.0
2025-01-15 18:04:32.276975	171.4	11.1	-80.5	0.0
2025-01-15 18:04:33.399674	171.4	11.2	-80.6	0.0
2025-01-15 18:04:34.520559	171.5	11.3	-80.7	0.0
2025-01-15 18:04:35.643681	171.5	11.4	-80.6	0.0
2025-01-15 18:04:36.767284	171.5	11.5	-80.2	0.0
2025-01-15 18:04:37.889968	171.5	11.6	-80.6	0.0
2025-01-15 18:04:39.012587	171.6	11.7	-80.7	0.0
2025-01-15 18:04:40.136242	171.6	11.8	-80.6	0.0
2025-01-15 18:04:41.258789	171.6	11.9	-80.3	0.0
2025-01-15 18:04:42.381170	171.7	12.0	-80.1	0.0
2025-01-15 18:04:43.505544	171.7	12.1	-80.5	0.0
2025-01-15 18:04:44.631071	171.7	12.2	-80.6	0.0
2025-01-15 18:04:45.752178	171.8	12.4	-80.6	0.0
2025-01-15 18:04:46.876012	171.8	12.5	-80.7	0.0
2025-01-15 18:04:47.998816	171.8	12.6	-80.4	0.0
2025-01-15 18:04:49.120976	171.9	12.7	-80.5	0.0
2025-01-15 18:04:50.243297	171.9	12.8	-80.5	0.0
2025-01-15 18:04:51.365778	171.9	12.9	-80.4	0.0
2025-01-15 18:04:52.488392	172.0	13.0	-80.4	0.0
2025-01-15 18:04:53.610697	172.0	13.1	-80.2	0.0
2025-01-15 18:04:54.732489	172.0	13.2	-80.3	0.0
2025-01-15 18:04:55.855295	172.1	13.3	-80.3	0.0
2025-01-15 18:04:56.977762	172.1	13.5	-80.2	0.0
2025-01-15 18:04:58.101082	172.1	13.6	-80.3	0.0
2025-01-15 18:04:59.225085	172.2	13.7	-80.3	0.0
2025-01-15 18:05:00.348117	172.2	13.8	-80.3	0.0
2025-01-15 18:05:01.472171	172.2	13.9	-80.6	0.0
2025-01-15 18:05:02.593645	172.3	14.0	-80.5	0.0
2025-01-15 18:05:03.716683	172.3	14.1	-80.5	0.0
2025-01-15 18:05:04.839160	172.3	14.3	-80.4	0.0
2025-01-15 18:05:05.958965	172.4	14.4	-80.5	0.0
2025-01-15 18:05:07.081490	172.4	14.5	-80.7	0.0
2025-01-15 18:05:08.205263	172.4	14.6	-80.5	0.0
2025-01-15 18:05:09.327299	172.5	14.7	-80.6	0.0
2025-01-15 18:05:10.450474	172.5	14.8	-80.9	0.0
2025-01-15 18:05:11.573005	172.6	15.0	-81.0	0.0
2025-01-15 18:05:12.694264	172.6	15.1	-80.6	0.0
2025-01-15 18:05:13.817574	172.6	15.2	-80.5	0.0
2025-01-15 18:05:14.941083	172.7	15.3	-80.4	0.0
2025-01-15 18:05:16.062531	172.7	15.4	-80.8	0.0
2025-01-15 18:05:17.186047	172.8	15.6	-80.5	0.0
2025-01-15 18:05:18.308045	172.8	15.7	-80.6	0.0
2025-01-15 18:05:19.432486	172.8	15.8	-80.5	0.0
2025-01-15 18:05:20.555891	172.9	15.9	-80.3	0.0
2025-01-15 18:05:21.678680	172.9	16.1	-80.6	0.0
2025-01-15 18:05:22.802932	172.9	16.2	-80.6	0.0
2025-01-15 18:05:23.927106	173.0	16.3	-80.5	0.0
2025-01-15 18:05:25.050968	173.0	16.4	-80.4	0.0
2025-01-15 18:05:26.178408	173.1	16.6	-80.6	0.0
2025-01-15 18:05:27.299820	173.1	16.7	-80.3	0.0
2025-01-15 18:05:28.422778	173.2	16.8	-80.8	0.0
2025-01-15 18:05:29.547895	173.2	17.0	-80.5	0.0
2025-01-15 18:05:30.671357	173.2	17.1	-80.5	0.0
2025-01-15 18:05:31.794142	173.3	17.2	-80.5	0.0
2025-01-15 18:05:32.919062	173.3	17.4	-80.7	0.0
2025-01-15 18:05:34.040808	173.4	17.5	-80.4	0.0
2025-01-15 18:05:35.164973	173.4	17.6	-80.7	0.0
2025-01-15 18:05:36.288082	173.5	17.8	-80.6	0.0
2025-01-15 18:05:37.410598	173.5	17.9	-80.8	0.0
2025-01-15 18:05:38.532895	173.5	18.0	-80.9	0.0
2025-01-15 18:05:39.655142	173.6	18.2	-80.4	0.0
2025-01-15 18:05:40.778521	173.6	18.3	-81.2	0.0
2025-01-15 18:05:41.900812	173.7	18.4	-81.0	0.0
2025-01-15 18:05:43.021775	173.7	18.6	-80.9	0.0
2025-01-15 18:05:44.147329	173.8	18.7	-81.1	0.0
2025-01-15 18:05:45.271339	173.8	18.8	-81.4	0.0
2025-01-15 18:05:46.394197	173.9	19.0	-81.3	0.0
2025-01-15 18:05:47.517189	173.9	19.1	-81.0	0.0
2025-01-15 18:05:48.640668	174.0	19.3	-81.1	0.0
2025-01-15 18:05:49.763078	174.0	19.4	-80.9	0.0
2025-01-15 18:05:50.886644	174.1	19.6	-80.8	0.0
2025-01-15 18:05:52.008452	174.1	19.7	-80.4	0.0
2025-01-15 18:05:53.130690	174.2	19.8	-80.9	0.0
2025-01-15 18:05:54.254061	174.2	20.0	-81.0	0.0
2025-01-15 18:05:55.379190	174.3	20.1	-81.1	0.0
2025-01-15 18:05:56.500723	174.3	20.3	-81.2	0.0
2025-01-15 18:05:57.624042	174.4	20.4	-80.8	0.0
2025-01-15 18:05:58.745139	174.4	20.6	-80.8	0.0
2025-01-15 18:05:59.866986	174.5	20.7	-80.7	0.0
2025-01-15 18:06:00.988782	174.5	20.9	-80.9	0.0
2025-01-15 18:06:02.110743	174.6	21.0	-80.8	0.0
2025-01-15 18:06:03.234611	174.6	21.2	-80.8	0.0
2025-01-15 18:06:04.356204	174.7	21.4	-80.5	0.0
2025-01-15 18:06:05.480163	174.8	21.5	-80.5	0.0
2025-01-15 18:06:06.604338	174.8	21.7	-81.0	0.0
2025-01-15 18:06:07.726342	174.9	21.8	-80.8	0.0
2025-01-15 18:06:08.849052	174.9	22.0	-80.8	0.0
2025-01-15 18:06:09.970843	175.0	22.1	-81.0	0.0
2025-01-15 18:06:11.094167	175.0	22.3	-80.7	0.0
2025-01-15 18:06:12.217748	175.1	22.5	-80.9	0.0
2025-01-15 18:06:13.341635	175.2	22.6	-81.0	0.0
2025-01-15 18:06:14.463873	175.2	22.8	-81.1	0.0
2025-01-15 18:06:15.587781	175.3	22.9	-80.7	0.0
2025-01-15 18:06:16.711397	175.3	23.1	-80.6	0.0
2025-01-15 18:06:17.832521	175.4	23.3	-80.8	0.0
2025-01-15 18:06:18.956004	175.5	23.4	-80.9	0.0
2025-01-15 18:06:20.078733	175.5	23.6	-81.0	0.0
2025-01-15 18:06:21.203154	175.6	23.8	-80.8	0.0
2025-01-15 18:06:22.325166	175.7	24.0	-81.1	0.0
2025-01-15 18:06:23.447881	175.7	24.1	-80.6	0.0
2025-01-15 18:06:24.572914	175.8	24.3	-80.6	0.0
2025-01-15 18:06:25.693986	175.9	24.5	-81.0	0.0
2025-01-15 18:06:26.819527	175.9	24.6	-80.8	0.0
2025-01-15 18:06:27.941701	176.0	24.8	-81.0	0.0
2025-01-15 18:06:29.064636	176.1	25.0	-80.5	0.0
2025-01-15 18:06:30.187213	176.1	25.2	-80.7	0.0
2025-01-15 18:06:31.312994	176.2	25.4	-80.7	0.0
2025-01-15 18:06:32.437313	176.3	25.5	-80.8	0.0
2025-01-15 18:06:33.562013	176.3	25.7	-80.7	0.0
2025-01-15 18:06:34.683659	176.4	25.9	-80.8	0.0
2025-01-15 18:06:35.805494	176.5	26.1	-80.9	0.0
2025-01-15 18:06:36.934552	176.6	26.3	-80.7	0.0
2025-01-15 18:06:38.057421	176.6	26.5	-80.7	0.0
2025-01-15 18:06:39.180275	176.7	26.6	-80.8	0.0
2025-01-15 18:06:40.302325	176.8	26.8	-80.7	0.0
2025-01-15 18:06:41.429683	176.9	27.0	-80.3	0.0
2025-01-15 18:06:42.551622	176.9	27.2	-80.6	0.0
2025-01-15 18:06:43.675760	177.0	27.4	-80.7	0.0
2025-01-15 18:06:44.800299	177.1	27.6	-80.8	0.0
2025-01-15 18:06:45.922146	177.2	27.8	-80.6	0.0
2025-01-15 18:06:47.045991	177.3	28.0	-80.7	0.0
2025-01-15 18:06:48.169680	177.3	28.2	-80.6	0.0
2025-01-15 18:06:49.290911	177.4	28.4	-80.4	0.0
2025-01-15 18:06:50.412931	177.5	28.6	-80.9	0.0
2025-01-15 18:06:51.536242	177.6	28.8	-80.5	0.0
2025-01-15 18:06:52.658101	177.7	29.0	-80.8	0.0
2025-01-15 18:06:53.782818	177.8	29.2	-80.8	0.0
2025-01-15 18:06:54.906393	177.9	29.4	-80.7	0.0
2025-01-15 18:06:56.029349	178.0	29.6	-80.5	0.0
2025-01-15 18:06:57.154361	178.0	29.8	-80.9	0.0
2025-01-15 18:06:58.276841	178.1	30.1	-80.9	0.0
2025-01-15 18:06:59.399954	178.2	30.3	-80.7	0.0
2025-01-15 18:07:00.523898	178.3	30.5	-80.7	0.0
2025-01-15 18:07:01.648425	178.4	30.7	-80.1	0.0
2025-01-15 18:07:02.770818	178.5	30.9	-80.6	0.0
2025-01-15 18:07:03.892663	178.6	31.1	-80.5	0.0
2025-01-15 18:07:05.016626	178.7	31.4	-80.5	0.0
2025-01-15 18:07:06.138494	178.8	31.6	-80.5	0.0
2025-01-15 18:07:07.260538	178.9	31.8	-80.2	0.0
2025-01-15 18:07:08.384974	179.0	32.0	-80.3	0.0
2025-01-15 18:07:09.508620	179.1	32.3	-80.2	0.0
2025-01-15 18:07:10.630792	179.2	32.5	-80.3	0.0
2025-01-15 18:07:11.753888	179.3	32.7	-80.1	0.0
2025-01-15 18:07:12.879394	179.5	32.9	-80.3	0.0
2025-01-15 18:07:14.002907	179.6	33.2	-80.0	0.0
2025-01-15 18:07:15.126607	179.7	33.4	-80.1	0.0
2025-01-15 18:07:16.248870	179.8	33.7	-80.1	0.0
2025-01-15 18:07:17.374182	179.9	33.9	-79.7	0.0
2025-01-15 18:07:18.495283	180.0	34.1	-79.7	0.0
2025-01-15 18:07:19.618925	180.2	34.4	-79.8	0.0
2025-01-15 18:07:20.740526	180.3	34.6	-79.7	0.0
2025-01-15 18:07:21.864441	180.4	34.9	-79.6	0.0
2025-01-15 18:07:22.986003	180.5	35.1	-79.6	0.0
2025-01-15 18:07:24.106888	180.6	35.4	-79.7	0.0
2025-01-15 18:07:25.232057	180.8	35.6	-79.6	0.0
2025-01-15 18:07:26.355998	180.9	35.9	-79.5	0.0
2025-01-15 18:07:27.481321	181.0	36.1	-79.6	0.0
2025-01-15 18:07:28.605312	181.2	36.4	-79.4	0.0
2025-01-15 18:07:29.729701	181.3	36.6	-79.4	0.0
2025-01-15 18:07:30.852569	181.5	36.9	-79.3	0.0
2025-01-15 18:07:31.975746	181.6	37.2	-79.2	0.0
2025-01-15 18:07:33.096592	181.7	37.4	-79.2	1.1
2025-01-15 18:07:34.218561	181.9	37.7	-79.2	0.0
2025-01-15 18:07:35.340841	182.0	38.0	-79.3	0.6
2025-01-15 18:07:36.463947	182.2	38.2	-79.2	0.0
2025-01-15 18:07:37.586906	182.3	38.5	-79.2	0.0
2025-01-15 18:07:38.709012	182.5	38.8	-79.0	0.0
2025-01-15 18:07:39.834263	182.6	39.1	-79.0	0.5
2025-01-15 18:07:40.956870	182.8	39.3	-79.0	0.7
2025-01-15 18:07:42.080149	183.0	39.6	-78.8	0.0
2025-01-15 18:07:43.212906	183.1	39.9	-79.0	0.6
2025-01-15 18:07:44.333785	183.3	40.2	-78.9	1.0
2025-01-15 18:07:45.456155	183.5	40.5	-78.9	0.0
2025-01-15 18:07:46.579778	183.7	40.8	-78.5	0.0
2025-01-15 18:07:47.702235	183.8	41.1	-78.5	0.8
2025-01-15 18:07:48.826687	184.0	41.4	-78.7	0.0
2025-01-15 18:07:49.949451	184.2	41.6	-78.5	0.9
2025-01-15 18:07:51.072642	184.4	41.9	-78.5	0.0
2025-01-15 18:07:52.196758	184.6	42.2	-78.7	0.0
2025-01-15 18:07:53.320685	184.8	42.5	-78.5	0.0
2025-01-15 18:07:54.442571	185.0	42.9	-78.4	0.0
2025-01-15 18:07:55.567801	185.2	43.2	-78.4	0.0
2025-01-15 18:07:56.690565	185.4	43.5	-78.2	0.0
2025-01-15 18:07:57.816339	185.6	43.8	-78.2	0.0
2025-01-15 18:07:58.937937	185.8	44.1	-78.3	1.7
2025-01-15 18:08:00.061531	186.0	44.4	-78.2	0.0
2025-01-15 18:08:01.184608	186.2	44.7	-78.4	0.7
2025-01-15 18:08:02.307723	186.5	45.0	-78.4	1.5
2025-01-15 18:08:03.430550	186.7	45.4	-78.3	2.0
2025-01-15 18:08:04.554541	186.9	45.7	-78.1	1.6
2025-01-15 18:08:05.675550	187.2	46.0	-78.2	1.9
2025-01-15 18:08:06.800224	187.4	46.3	-78.2	0.0
2025-01-15 18:08:07.922898	187.7	46.7	-78.2	0.0
2025-01-15 18:08:09.046325	187.9	47.0	-78.0	0.0
2025-01-15 18:08:10.168267	188.2	47.3	-77.9	0.0
2025-01-15 18:08:11.291453	188.5	47.7	-78.0	0.0
2025-01-15 18:08:12.412143	188.7	48.0	-77.8	0.0
2025-01-15 18:08:13.535881	189.0	48.3	-77.7	0.0
2025-01-15 18:08:14.659644	189.3	48.7	-77.9	0.0
2025-01-15 18:08:15.783143	189.6	49.0	-77.8	0.0
2025-01-15 18:08:16.905070	189.9	49.4	-77.6	0.0
2025-01-15 18:08:18.029444	190.2	49.7	-77.7	0.0
2025-01-15 18:08:19.151996	190.5	50.1	-77.5	0.0
2025-01-15 18:08:20.275176	190.8	50.4	-77.7	0.0
2025-01-15 18:08:21.399191	191.1	50.8	-77.6	0.0
2025-01-15 18:08:22.523942	191.5	51.1	-77.4	0.0
2025-01-15 18:08:23.645061	191.8	51.5	-77.6	0.0
2025-01-15 18:08:24.768543	192.2	51.8	-77.8	0.0
2025-01-15 18:08:25.891863	192.5	52.2	-77.6	0.0
2025-01-15 18:08:27.015161	192.9	52.5	-77.6	0.0
2025-01-15 18:08:28.138851	193.3	52.9	-77.8	0.0
2025-01-15 18:08:29.260805	193.6	53.3	-77.7	0.0
2025-01-15 18:08:30.383820	194.0	53.6	-77.7	0.0
2025-01-15 18:08:31.508570	194.4	54.0	-78.0	0.0
2025-01-15 18:08:32.631671	194.9	54.4	-78.0	0.0
2025-01-15 18:08:33.754887	195.3	54.7	-78.2	0.0
2025-01-15 18:08:34.877845	195.7	55.1	-78.5	0.0
2025-01-15 18:08:35.997884	196.2	55.5	-78.2	0.0
2025-01-15 18:08:37.119659	196.6	55.8	-78.6	0.0
2025-01-15 18:08:38.241879	197.1	56.2	-78.4	0.0
2025-01-15 18:08:39.363640	197.6	56.6	-78.4	0.0
2025-01-15 18:08:40.484582	198.1	56.9	-78.3	0.0
2025-01-15 18:08:41.608171	198.6	57.3	-78.5	0.0
2025-01-15 18:08:42.730832	199.1	57.7	-78.8	0.0
2025-01-15 18:08:43.852468	199.7	58.1	-78.7	0.0
2025-01-15 18:08:44.974969	200.2	58.4	-78.9	0.0
2025-01-15 18:08:46.096712	200.8	58.8	-79.0	0.0
2025-01-15 18:08:47.220355	201.4	59.2	-79.3	0.0
2025-01-15 18:08:48.344789	202.0	59.5	-79.7	0.0
2025-01-15 18:08:49.466199	202.6	59.9	-79.5	0.0
2025-01-15 18:08:50.591521	203.2	60.3	-79.8	0.0
2025-01-15 18:08:51.716495	203.9	60.7	-79.8	0.0
2025-01-15 18:08:52.840188	204.6	61.0	-79.6	0.0
2025-01-15 18:08:53.962053	205.2	61.4	-80.2	0.0
2025-01-15 18:08:55.083489	206.0	61.8	-80.0	0.0
2025-01-15 18:08:56.206434	206.7	62.1	-80.2	0.0
2025-01-15 18:08:57.328258	207.5	62.5	-80.4	0.0
2025-01-15 18:08:58.453683	208.2	62.8	-80.4	0.0
2025-01-15 18:08:59.577001	209.0	63.2	-80.6	0.0
2025-01-15 18:09:00.696999	209.9	63.5	-80.4	0.0
2025-01-15 18:09:01.819022	210.7	63.9	-80.5	0.0
2025-01-15 18:09:02.942690	211.6	64.2	-80.6	0.0
2025-01-15 18:09:04.066132	212.5	64.6	-80.4	0.0
2025-01-15 18:09:05.187640	213.5	64.9	-80.7	0.0
2025-01-15 18:09:06.311791	214.4	65.2	-80.5	0.0
2025-01-15 18:09:07.436484	215.4	65.6	-80.2	0.0
2025-01-15 18:09:08.558783	216.4	65.9	-80.3	0.0
2025-01-15 18:09:09.682304	217.5	66.2	-79.6	0.0
2025-01-15 18:09:10.805685	218.6	66.5	-79.7	0.3
2025-01-15 18:09:11.928604	219.7	66.8	-79.5	0.2
2025-01-15 18:09:13.051532	220.8	67.1	-79.5	1.3
2025-01-15 18:09:14.176439	222.0	67.4	-79.3	2.1
2025-01-15 18:09:15.298775	223.2	67.7	-79.5	2.2
2025-01-15 18:09:16.422561	224.4	68.0	-79.1	3.3
2025-01-15 18:09:17.545862	225.7	68.2	-78.7	2.1
2025-01-15 18:09:18.666985	227.0	68.5	-78.6	2.2
2025-01-15 18:09:19.792723	228.4	68.7	-78.6	2.8
2025-01-15 18:09:20.917577	229.7	69.0	-78.4	2.4
2025-01-15 18:09:22.041243	231.2	69.2	-77.9	2.5
2025-01-15 18:09:23.164669	232.6	69.4	-77.9	2.9
2025-01-15 18:09:24.287930	234.1	69.6	-77.8	2.2
2025-01-15 18:09:25.410799	235.6	69.8	-77.9	2.0
2025-01-15 18:09:26.532975	237.1	70.0	-78.0	2.2
2025-01-15 18:09:27.656082	238.6	70.1	-78.2	1.6
2025-01-15 18:09:28.778188	240.2	70.3	-78.0	0.1
2025-01-15 18:09:29.901686	241.8	70.4	-78.0	0.0
2025-01-15 18:09:31.023887	243.5	70.5	-78.1	0.0
2025-01-15 18:09:32.147582	245.1	70.6	-78.2	0.0
2025-01-15 18:09:33.272915	246.8	70.7	-78.1	0.0
2025-01-15 18:09:34.394330	248.5	70.8	-78.2	0.0
2025-01-15 18:09:35.516900	250.2	70.8	-78.4	0.0
2025-01-15 18:09:36.638051	251.9	70.9	-78.3	0.0
2025-01-15 18:09:37.761554	253.6	70.9	-78.3	0.0
2025-01-15 18:09:38.886203	255.3	70.9	-78.5	0.0
2025-01-15 18:09:40.010363	257.0	70.9	-78.3	0.0
2025-01-15 18:09:41.133525	258.7	70.9	-78.2	0.0
2025-01-15 18:09:42.256264	260.4	70.9	-78.2	0.0
2025-01-15 18:09:43.377899	262.1	70.8	-78.3	0.0
2025-01-15 18:09:44.501795	263.8	70.8	-78.4	0.0
2025-01-15 18:09:45.624728	265.5	70.7	-78.7	0.0
2025-01-15 18:09:46.745585	267.1	70.6	-78.6	0.0
2025-01-15 18:09:47.868095	268.8	70.5	-79.0	0.0
2025-01-15 18:09:48.990632	270.4	70.3	-79.1	0.0
2025-01-15 18:09:50.112981	272.0	70.2	-79.3	0.0
2025-01-15 18:09:51.233511	273.5	70.0	-79.5	0.0
2025-01-15 18:09:52.358211	275.1	69.9	-80.0	0.0
2025-01-15 18:09:53.480024	276.6	69.7	-79.9	0.0
2025-01-15 18:09:54.604068	278.1	69.5	-80.3	0.0
2025-01-15 18:09:55.728526	279.5	69.3	-80.6	0.0
2025-01-15 18:09:56.853194	280.9	69.1	-80.9	0.0
2025-01-15 18:09:57.977857	282.3	68.8	-80.8	0.0
2025-01-15 18:09:59.098883	283.7	68.6	-80.9	0.0
2025-01-15 18:10:00.221732	285.0	68.3	-81.1	0.0
2025-01-15 18:10:01.343761	286.3	68.1	-81.2	0.0
2025-01-15 18:10:02.465795	287.5	67.8	-80.8	0.0
2025-01-15 18:10:03.588527	288.8	67.5	-80.5	0.0
2025-01-15 18:10:04.712141	290.0	67.3	-81.0	0.0
2025-01-15 18:10:05.836449	291.1	67.0	-80.9	0.0
2025-01-15 18:10:06.959473	292.2	66.7	-80.8	0.0
2025-01-15 18:10:08.080611	293.3	66.4	-80.5	0.0
2025-01-15 18:10:09.202472	294.4	66.0	-80.6	0.0
2025-01-15 18:10:10.326386	295.4	65.7	-80.5	0.0
2025-01-15 18:10:11.448395	296.4	65.4	-80.6	0.0
2025-01-15 18:10:12.574332	297.4	65.1	-80.2	0.0
2025-01-15 18:10:13.697083	298.4	64.7	-80.8	0.0
2025-01-15 18:10:14.821568	299.3	64.4	-80.2	0.0
2025-01-15 18:10:15.943968	300.2	64.1	-80.4	0.0
2025-01-15 18:10:17.067218	301.0	63.7	-80.0	0.0
2025-01-15 18:10:18.190148	301.9	63.4	-80.0	0.0
2025-01-15 18:10:19.313774	302.7	63.0	-79.9	0.0
2025-01-15 18:10:20.435608	303.5	62.7	-79.7	0.0
2025-01-15 18:10:21.559648	304.2	62.3	-79.9	0.0
2025-01-15 18:10:22.680897	305.0	61.9	-79.8	0.0
2025-01-15 18:10:23.800833	305.7	61.6	-79.7	0.0
2025-01-15 18:10:24.925130	306.4	61.2	-79.8	0.0
2025-01-15 18:10:26.048723	307.1	60.8	-79.6	0.0
2025-01-15 18:10:27.170938	307.8	60.5	-79.6	0.0
2025-01-15 18:10:28.293205	308.4	60.1	-79.8	0.0
2025-01-15 18:10:29.417759	309.0	59.7	-79.9	0.0
2025-01-15 18:10:30.541068	309.6	59.4	-79.7	0.0
2025-01-15 18:10:31.665641	310.2	59.0	-80.1	0.0
2025-01-15 18:10:32.788089	310.8	58.6	-80.2	0.0
2025-01-15 18:10:33.911743	311.4	58.3	-80.0	0.0
2025-01-15 18:10:35.036846	311.9	57.9	-80.1	0.0
2025-01-15 18:10:36.161241	312.5	57.5	-80.2	0.0
2025-01-15 18:10:37.285106	313.0	57.1	-80.2	0.0
2025-01-15 18:10:38.405171	313.5	56.8	-80.0	0.0
2025-01-15 18:10:39.528088	314.0	56.4	-80.4	0.0
2025-01-15 18:10:40.650553	314.4	56.0	-80.2	0.0
2025-01-15 18:10:41.773934	314.9	55.7	-80.3	0.0
2025-01-15 18:10:42.898841	315.4	55.3	-80.3	0.0
2025-01-15 18:10:44.020886	315.8	54.9	-80.4	0.0
2025-01-15 18:10:45.145020	316.2	54.6	-80.6	0.0
2025-01-15 18:10:46.268026	316.6	54.2	-80.8	0.0
2025-01-15 18:10:47.391663	317.1	53.8	-80.5	0.0
2025-01-15 18:10:48.515537	317.5	53.5	-80.7	0.0
2025-01-15 18:10:49.636556	317.8	53.1	-80.7	0.0
2025-01-15 18:10:50.760795	318.2	52.7	-80.7	0.0
2025-01-15 18:10:51.883986	318.6	52.4	-80.6	0.0
2025-01-15 18:10:53.008898	318.9	52.0	-80.9	0.0
2025-01-15 18:10:54.131931	319.3	51.7	-80.9	0.0
2025-01-15 18:10:55.255309	319.6	51.3	-80.6	0.0
2025-01-15 18:10:56.380966	320.0	51.0	-80.7	0.0
2025-01-15 18:10:57.505965	320.3	50.6	-80.4	0.0
2025-01-15 18:10:58.627745	320.6	50.3	-80.6	0.0
2025-01-15 18:10:59.749493	320.9	49.9	-80.9	0.0
2025-01-15 18:11:00.871529	321.3	49.6	-80.7	0.0
2025-01-15 18:11:01.994710	321.6	49.2	-80.7	0.0
2025-01-15 18:11:03.117419	321.9	48.9	-80.7	0.0
2025-01-15 18:11:04.238447	322.1	48.6	-80.5	0.0
2025-01-15 18:11:05.362966	322.4	48.2	-80.6	0.0
2025-01-15 18:11:06.487085	322.7	47.9	-80.8	0.0
2025-01-15 18:11:07.610857	323.0	47.5	-80.7	0.0
2025-01-15 18:11:08.734050	323.2	47.2	-80.7	0.0
2025-01-15 18:11:09.856288	323.5	46.9	-80.7	0.0
2025-01-15 18:11:10.978793	323.7	46.6	-80.5	0.0
2025-01-15 18:11:12.100770	324.0	46.2	-80.6	0.0
2025-01-15 18:11:13.223317	324.2	45.9	-80.5	0.0
2025-01-15 18:11:14.343795	324.5	45.6	-80.7	0.0
2025-01-15 18:11:15.468463	324.7	45.3	-80.3	0.0
2025-01-15 18:11:16.591906	324.9	44.9	-80.7	0.0
2025-01-15 18:11:17.712720	325.2	44.6	-80.8	0.0
2025-01-15 18:11:18.835729	325.4	44.3	-80.8	0.0
2025-01-15 18:11:19.959319	325.6	44.0	-80.9	0.0
2025-01-15 18:11:21.083206	325.8	43.7	-80.7	0.0
2025-01-15 18:11:22.206648	326.0	43.4	-80.8	0.0
2025-01-15 18:11:23.329952	326.2	43.1	-80.7	0.0
2025-01-15 18:11:24.453171	326.4	42.8	-80.8	0.0
2025-01-15 18:11:25.575287	326.6	42.5	-80.8	0.0
2025-01-15 18:11:26.697910	326.8	42.2	-80.5	0.0
2025-01-15 18:11:27.821061	327.0	41.9	-80.4	0.0
2025-01-15 18:11:28.941872	327.2	41.6	-80.5	0.0
2025-01-15 18:11:30.065423	327.4	41.3	-80.4	0.0
2025-01-15 18:11:31.190767	327.5	41.0	-80.9	0.0
2025-01-15 18:11:32.313977	327.7	40.7	-80.4	0.0
2025-01-15 18:11:33.437488	327.9	40.4	-80.7	0.0
2025-01-15 18:11:34.559025	328.1	40.1	-81.0	0.0
2025-01-15 18:11:35.682582	328.2	39.9	-81.0	0.0
2025-01-15 18:11:36.805043	328.4	39.6	-80.8	0.0
2025-01-15 18:11:37.929789	328.6	39.3	-80.6	0.0
2025-01-15 18:11:39.053748	328.7	39.0	-80.9	0.0
2025-01-15 18:11:40.175989	328.9	38.7	-80.9	0.0
2025-01-15 18:11:41.298094	329.0	38.5	-80.5	0.0
2025-01-15 18:11:42.424480	329.2	38.2	-81.2	0.0
2025-01-15 18:11:43.545899	329.3	37.9	-81.1	0.0
2025-01-15 18:11:44.669743	329.5	37.7	-80.6	0.0
2025-01-15 18:11:45.793385	329.6	37.4	-80.7	0.0
2025-01-15 18:11:46.915564	329.8	37.1	-81.1	0.0
2025-01-15 18:11:48.036751	329.9	36.9	-81.1	0.0
2025-01-15 18:11:49.162376	330.0	36.6	-81.2	0.0
2025-01-15 18:11:50.284914	330.2	36.4	-80.9	0.0
2025-01-15 18:11:51.410242	330.3	36.1	-80.9	0.0
2025-01-15 18:11:52.532464	330.4	35.8	-80.8	0.0
2025-01-15 18:11:53.656584	330.6	35.6	-80.8	0.0
2025-01-15 18:11:54.781790	330.7	35.3	-80.9	0.0
2025-01-15 18:11:55.903885	330.8	35.1	-81.1	0.0
2025-01-15 18:11:57.027780	331.0	34.9	-81.2	0.0
2025-01-15 18:11:58.150328	331.1	34.6	-81.1	0.0
2025-01-15 18:11:59.272214	331.2	34.4	-81.1	0.0
2025-01-15 18:12:00.396916	331.3	34.1	-81.3	0.0
2025-01-15 18:12:01.520048	331.4	33.9	-81.0	0.0
2025-01-15 18:12:02.642984	331.6	33.6	-81.2	0.0
2025-01-15 18:12:03.765361	331.7	33.4	-81.3	0.0
2025-01-15 18:12:04.889718	331.8	33.2	-81.3	0.0
2025-01-15 18:12:06.011952	331.9	32.9	-81.4	0.0
2025-01-15 18:12:07.131100	332.0	32.7	-81.0	0.0
2025-01-15 18:12:08.255118	332.1	32.5	-81.1	0.0
2025-01-15 18:12:09.377740	332.2	32.3	-81.1	0.0
2025-01-15 18:12:10.502200	332.3	32.0	-81.0	0.0
2025-01-15 18:12:11.625270	332.4	31.8	-81.0	0.0
2025-01-15 18:12:12.746881	332.5	31.6	-81.0	0.0
2025-01-15 18:12:13.868574	332.6	31.4	-81.1	0.0
2025-01-15 18:12:14.991301	332.7	31.2	-81.2	0.0
2025-01-15 18:12:16.114165	332.8	30.9	-81.1	0.0
2025-01-15 18:12:17.235721	332.9	30.7	-81.0	0.0
2025-01-15 18:12:18.359629	333.0	30.5	-81.1	0.0
2025-01-15 18:12:19.484936	333.1	30.3	-81.0	0.0
2025-01-15 18:12:20.605745	333.2	30.1	-81.3	0.0
2025-01-15 18:12:21.729599	333.3	29.9	-81.0	0.0
2025-01-15 18:12:22.853281	333.4	29.7	-81.2	0.0
2025-01-15 18:12:23.974447	333.5	29.5	-81.1	0.0
2025-01-15 18:12:25.095834	333.6	29.2	-81.2	0.0
2025-01-15 18:12:26.218425	333.7	29.0	-81.2	0.0
2025-01-15 18:12:27.342780	333.7	28.8	-81.3	0.0
2025-01-15 18:12:28.464334	333.8	28.6	-81.3	0.0
2025-01-15 18:12:29.587084	333.9	28.4	-81.4	0.0
2025-01-15 18:12:30.712696	334.0	28.2	-81.5	0.0
2025-01-15 18:12:31.836610	334.1	28.0	-81.4	0.0
2025-01-15 18:12:32.958848	334.2	27.8	-81.4	0.0
2025-01-15 18:12:34.081041	334.2	27.7	-81.5	0.0
2025-01-15 18:12:35.203042	334.3	27.5	-80.7	0.0
2025-01-15 18:12:36.326917	334.4	27.3	-80.6	0.0
2025-01-15 18:12:37.450161	334.5	27.1	-80.9	0.0
2025-01-15 18:12:38.572899	334.6	26.9	-80.9	0.0
2025-01-15 18:12:39.696112	334.6	26.7	-81.2	0.0
2025-01-15 18:12:40.820827	334.7	26.5	-81.4	0.0
2025-01-15 18:12:41.946020	334.8	26.3	-81.1	0.0
2025-01-15 18:12:43.069741	334.9	26.1	-81.1	0.0
2025-01-15 18:12:44.192108	334.9	26.0	-81.1	0.0
2025-01-15 18:12:45.315801	335.0	25.8	-81.1	0.0
2025-01-15 18:12:46.438996	335.1	25.6	-81.0	0.0
2025-01-15 18:12:47.562958	335.2	25.4	-80.9	0.0
2025-01-15 18:12:48.685584	335.2	25.2	-81.0	0.0
2025-01-15 18:12:49.809760	335.3	25.1	-81.0	0.0
2025-01-15 18:12:50.932530	335.4	24.9	-81.2	0.0
2025-01-15 18:12:52.055337	335.4	24.7	-81.3	0.0
2025-01-15 18:12:53.177007	335.5	24.5	-81.1	0.0
2025-01-15 18:12:54.299912	335.6	24.4	-81.2	0.0
2025-01-15 18:12:55.422011	335.6	24.2	-81.3	0.0
2025-01-15 18:12:56.542923	335.7	24.0	-81.3	0.0
2025-01-15 18:12:57.666318	335.8	23.9	-81.2	0.0
2025-01-15 18:12:58.789935	335.8	23.7	-81.3	0.0
2025-01-15 18:12:59.913244	335.9	23.5	-81.1	0.0
2025-01-15 18:13:01.034899	335.9	23.4	-81.0	0.0
2025-01-15 18:13:02.159755	336.0	23.2	-81.2	0.0
2025-01-15 18:13:03.284222	336.1	23.0	-81.4	0.0
2025-01-15 18:13:04.408853	336.1	22.9	-81.3	0.0
2025-01-15 18:13:05.531030	336.2	22.7	-81.6	0.0
2025-01-15 18:13:06.654849	336.3	22.5	-81.5	0.0
2025-01-15 18:13:07.778553	336.3	22.4	-81.6	0.0
2025-01-15 18:13:08.899938	336.4	22.2	-81.5	0.0
2025-01-15 18:13:10.022557	336.4	22.1	-81.8	0.0
2025-01-15 18:13:11.144206	336.5	21.9	-81.5	0.0
2025-01-15 18:13:12.266311	336.5	21.7	-81.4	0.0
2025-01-15 18:13:13.390026	336.6	21.6	-81.1	0.0
2025-01-15 18:13:14.515064	336.7	21.4	-81.1	0.0
2025-01-15 18:13:15.640068	336.7	21.3	-81.1	0.0
2025-01-15 18:13:16.762781	336.8	21.1	-81.2	0.0
2025-01-15 18:13:17.886428	336.8	21.0	-81.0	0.0
2025-01-15 18:13:19.009742	336.9	20.8	-81.4	0.0
2025-01-15 18:13:20.132219	336.9	20.7	-81.4	0.0
2025-01-15 18:13:21.256466	337.0	20.5	-81.4	0.0
2025-01-15 18:13:22.379290	337.0	20.4	-81.5	0.0
2025-01-15 18:13:23.500906	337.1	20.2	-81.3	0.0
2025-01-15 18:13:24.622484	337.1	20.1	-81.3	0.0
2025-01-15 18:13:25.745389	337.2	19.9	-81.0	0.0
2025-01-15 18:13:26.867224	337.2	19.8	-81.5	0.0
2025-01-15 18:13:27.992001	337.3	19.7	-81.5	0.0
2025-01-15 18:13:29.114002	337.3	19.5	-81.5	0.0
2025-01-15 18:13:30.235950	337.4	19.4	-81.7	0.0
2025-01-15 18:13:31.360787	337.4	19.2	-81.5	0.0
2025-01-15 18:13:32.483999	337.5	19.1	-81.4	0.0
2025-01-15 18:13:33.608878	337.5	19.0	-81.7	0.0
2025-01-15 18:13:34.730785	337.6	18.8	-81.6	0.0
2025-01-15 18:13:35.853672	337.6	18.7	-81.4	0.0
2025-01-15 18:13:36.977025	337.7	18.5	-81.6	0.0
2025-01-15 18:13:38.100040	337.7	18.4	-81.7	0.0
2025-01-15 18:13:39.221802	337.8	18.3	-81.9	0.0
2025-01-15 18:13:40.347187	337.8	18.1	-81.3	0.0
2025-01-15 18:13:41.469572	337.9	18.0	-81.1	0.0
2025-01-15 18:13:42.592586	337.9	17.9	-81.6	0.0
2025-01-15 18:13:43.715955	338.0	17.7	-81.5	0.0
2025-01-15 18:13:44.837855	338.0	17.6	-81.4	0.0
2025-01-15 18:13:45.959682	338.0	17.5	-81.3	0.0
2025-01-15 18:13:47.083284	338.1	17.3	-81.2	0.0
2025-01-15 18:13:48.206806	338.1	17.2	-81.2	0.0
2025-01-15 18:13:49.328064	338.2	17.1	-81.1	0.0
2025-01-15 18:13:50.453203	338.2	16.9	-81.3	0.0
2025-01-15 18:13:51.574866	338.3	16.8	-81.3	0.0
2025-01-15 18:13:52.699717	338.3	16.7	-81.5	0.0
2025-01-15 18:13:53.823687	338.3	16.6	-81.3	0.0
2025-01-15 18:13:54.949208	338.4	16.4	-81.1	0.0
2025-01-15 18:13:56.074298	338.4	16.3	-81.1	0.0
2025-01-15 18:13:57.195841	338.5	16.2	-81.3	0.0
2025-01-15 18:13:58.320520	338.5	16.1	-81.3	0.0
2025-01-15 18:13:59.442812	338.5	15.9	-81.4	0.0
2025-01-15 18:14:00.563868	338.6	15.8	-81.2	0.0
2025-01-15 18:14:01.688512	338.6	15.7	-81.4	0.0
2025-01-15 18:14:02.812114	338.7	15.6	-81.3	0.0
2025-01-15 18:14:03.933514	338.7	15.4	-81.5	0.0
2025-01-15 18:14:05.057686	338.7	15.3	-81.5	0.0
2025-01-15 18:14:06.179883	338.8	15.2	-81.5	0.0
2025-01-15 18:14:07.301531	338.8	15.1	-81.5	0.0
2025-01-15 18:14:08.424100	338.9	15.0	-81.4	0.0
2025-01-15 18:14:09.545626	338.9	14.9	-81.7	0.0
2025-01-15 18:14:10.668596	338.9	14.7	-81.6	0.0
2025-01-15 18:14:11.792860	339.0	14.6	-80.9	0.0
2025-01-15 18:14:12.914120	339.0	14.5	-81.2	0.0
2025-01-15 18:14:14.036923	339.0	14.4	-81.0	0.0
2025-01-15 18:14:15.158988	339.1	14.3	-81.2	0.0
2025-01-15 18:14:16.283224	339.1	14.2	-81.0	0.0
2025-01-15 18:14:17.407299	339.2	14.0	-81.5	0.0
2025-01-15 18:14:18.530789	339.2	13.9	-81.4	0.0
2025-01-15 18:14:19.652210	339.2	13.8	-81.2	0.0
2025-01-15 18:14:20.776207	339.3	13.7	-81.3	0.0
2025-01-15 18:14:21.900242	339.3	13.6	-81.6	0.0
2025-01-15 18:14:23.022091	339.3	13.5	-81.4	0.0
2025-01-15 18:14:24.144527	339.4	13.4	-81.1	0.0
2025-01-15 18:14:25.265591	339.4	13.3	-81.3	0.0
2025-01-15 18:14:26.387841	339.4	13.1	-81.5	0.0
2025-01-15 18:14:27.511512	339.5	13.0	-81.2	0.0
2025-01-15 18:14:28.633831	339.5	12.9	-80.9	0.0
2025-01-15 18:14:29.756975	339.5	12.8	-81.3	0.0
2025-01-15 18:14:30.881646	339.6	12.7	-81.4	0.0
2025-01-15 18:14:32.002490	339.6	12.6	-81.3	0.0
2025-01-15 18:14:33.125928	339.6	12.5	-81.3	0.0
2025-01-15 18:14:34.247626	339.7	12.4	-80.9	0.0
2025-01-15 18:14:35.370176	339.7	12.3	-80.9	0.0
2025-01-15 18:14:36.493497	339.7	12.2	-81.0	0.0
2025-01-15 18:14:37.617382	339.8	12.1	-81.3	0.0
2025-01-15 18:14:38.742220	339.8	12.0	-81.5	0.0
2025-01-15 18:14:39.865284	339.8	11.9	-81.4	0.0
2025-01-15 18:14:40.987741	339.9	11.8	-81.4	0.0
2025-01-15 18:14:42.111394	339.9	11.7	-81.4	0.0
2025-01-15 18:14:43.233972	339.9	11.5	-81.0	0.0
2025-01-15 18:14:44.356270	340.0	11.4	-81.5	0.0
2025-01-15 18:14:45.480127	340.0	11.3	-81.2	0.0
2025-01-15 18:14:46.600568	340.0	11.2	-81.5	0.0
2025-01-15 18:14:47.724457	340.0	11.1	-81.3	0.0
2025-01-15 18:14:48.847896	340.1	11.0	-81.3	0.0
2025-01-15 18:14:49.971154	340.1	10.9	-81.5	0.0
2025-01-15 18:14:51.094274	340.1	10.8	-81.5	0.0
2025-01-15 18:14:52.217332	340.2	10.7	-81.7	0.0
2025-01-15 18:14:53.339900	340.2	10.6	-81.4	0.0
2025-01-15 18:14:54.460730	340.2	10.5	-81.5	0.0
2025-01-15 18:14:55.584782	340.3	10.4	-81.3	0.0
2025-01-15 18:14:56.708732	340.3	10.3	-80.9	0.0
2025-01-15 18:14:57.832235	340.3	10.2	-81.2	0.0
2025-01-15 18:14:58.954792	340.3	10.1	-81.1	0.0
2025-01-15 18:15:00.079459	340.4	10.0	-81.2	0.0
#Closed at: 2025-01-15 18:04:15.011257