passes_logs/2025/01/15/planumMaritime01/planumMaritime01__20250115_092911_NOAA_18_rec.log

#Pass ID: 20250115_092911_NOAA 18
#Satellite: NOAA 18
#Configuration: NOAA 18
#Start time: 2025-01-15 09:29:16.900395

#LorettStation: 1.0.0 05.05.2024
#Station: planumMaritime01
#Location: 37.49445 lon 55.92918 lat
#TLE: 1 28654U 05018A   25014.17177243  .00000313  00000+0  18955-3 0  9990
#TLE: 2 28654  98.8569  95.2344 0014326 181.4762 178.6370 14.13485757 13061

#Time	Az	El	Level	SNR
2025-01-15 09:29:19.048490	12.4	10.2	-82.3	0.0
2025-01-15 09:29:20.173339	12.4	10.3	-82.0	0.0
2025-01-15 09:29:21.297552	12.3	10.4	-81.8	0.0
2025-01-15 09:29:22.420904	12.3	10.5	-82.1	0.0
2025-01-15 09:29:23.543878	12.3	10.6	-82.0	0.0
2025-01-15 09:29:24.664919	12.2	10.7	-82.3	0.0
2025-01-15 09:29:25.786220	12.2	10.8	-82.1	0.0
2025-01-15 09:29:26.910251	12.2	10.9	-82.1	0.0
2025-01-15 09:29:28.033865	12.1	11.0	-81.2	0.0
2025-01-15 09:29:29.157081	12.1	11.1	-82.1	0.0
2025-01-15 09:29:30.280498	12.1	11.2	-82.2	0.0
2025-01-15 09:29:31.403224	12.0	11.3	-81.9	0.0
2025-01-15 09:29:32.526726	12.0	11.4	-82.3	0.0
2025-01-15 09:29:33.650494	12.0	11.5	-82.4	0.0
2025-01-15 09:29:34.773264	11.9	11.6	-82.4	0.0
2025-01-15 09:29:35.897079	11.9	11.7	-82.2	0.0
2025-01-15 09:29:37.018786	11.9	11.8	-82.1	0.0
2025-01-15 09:29:38.142001	11.8	11.9	-82.5	0.0
2025-01-15 09:29:39.266416	11.8	12.0	-82.6	0.0
2025-01-15 09:29:40.389740	11.8	12.1	-82.3	0.0
2025-01-15 09:29:41.512156	11.7	12.2	-82.4	0.0
2025-01-15 09:29:42.634615	11.7	12.3	-82.2	0.0
2025-01-15 09:29:43.758757	11.6	12.4	-82.3	0.0
2025-01-15 09:29:44.882232	11.6	12.5	-82.1	0.0
2025-01-15 09:29:46.005427	11.6	12.6	-82.2	0.0
2025-01-15 09:29:47.128870	11.5	12.7	-82.3	0.0
2025-01-15 09:29:48.250432	11.5	12.8	-82.5	0.0
2025-01-15 09:29:49.375459	11.5	12.9	-82.5	0.0
2025-01-15 09:29:50.498759	11.4	13.0	-82.4	0.0
2025-01-15 09:29:51.619872	11.4	13.1	-82.6	0.0
2025-01-15 09:29:52.742186	11.3	13.2	-82.2	0.0
2025-01-15 09:29:53.866008	11.3	13.3	-82.5	0.0
2025-01-15 09:29:54.987702	11.3	13.4	-82.4	0.0
2025-01-15 09:29:56.113297	11.2	13.6	-81.9	0.0
2025-01-15 09:29:57.239286	11.2	13.7	-82.5	0.0
2025-01-15 09:29:58.362631	11.1	13.8	-82.2	0.0
2025-01-15 09:29:59.485279	11.1	13.9	-82.3	0.0
2025-01-15 09:30:00.608978	11.0	14.0	-82.8	0.0
2025-01-15 09:30:01.732094	11.0	14.1	-82.6	0.0
2025-01-15 09:30:02.855925	11.0	14.2	-82.4	0.0
2025-01-15 09:30:03.978557	10.9	14.3	-82.5	0.0
2025-01-15 09:30:05.101959	10.9	14.4	-82.0	0.0
2025-01-15 09:30:06.223274	10.8	14.6	-82.0	0.0
2025-01-15 09:30:07.348723	10.8	14.7	-82.5	0.0
2025-01-15 09:30:08.470983	10.7	14.8	-82.6	0.0
2025-01-15 09:30:09.593137	10.7	14.9	-82.6	0.0
2025-01-15 09:30:10.716255	10.6	15.0	-82.6	0.0
2025-01-15 09:30:11.838820	10.6	15.1	-83.0	0.0
2025-01-15 09:30:12.962270	10.6	15.2	-82.8	0.0
2025-01-15 09:30:14.086826	10.5	15.4	-82.9	0.0
2025-01-15 09:30:15.209310	10.5	15.5	-82.6	0.0
2025-01-15 09:30:16.333351	10.4	15.6	-82.8	0.0
2025-01-15 09:30:17.457073	10.4	15.7	-82.2	0.0
2025-01-15 09:30:18.579686	10.3	15.8	-82.8	0.0
2025-01-15 09:30:19.702104	10.3	16.0	-82.7	0.0
2025-01-15 09:30:20.828363	10.2	16.1	-82.5	0.0
2025-01-15 09:30:21.950108	10.2	16.2	-82.7	0.0
2025-01-15 09:30:23.073770	10.1	16.3	-82.6	0.0
2025-01-15 09:30:24.197163	10.1	16.4	-82.1	0.0
2025-01-15 09:30:25.319889	10.0	16.6	-82.8	0.0
2025-01-15 09:30:26.443607	10.0	16.7	-82.3	0.0
2025-01-15 09:30:27.567868	9.9	16.8	-82.6	0.0
2025-01-15 09:30:28.691799	9.9	16.9	-82.8	0.0
2025-01-15 09:30:29.814881	9.8	17.1	-82.7	0.0
2025-01-15 09:30:30.938388	9.8	17.2	-82.8	0.0
2025-01-15 09:30:32.064459	9.7	17.3	-82.4	0.0
2025-01-15 09:30:33.188965	9.7	17.4	-82.4	0.0
2025-01-15 09:30:34.312687	9.6	17.6	-82.2	0.0
2025-01-15 09:30:35.435213	9.5	17.7	-82.3	0.0
2025-01-15 09:30:36.556713	9.5	17.8	-82.0	0.0
2025-01-15 09:30:37.679150	9.4	17.9	-82.6	0.0
2025-01-15 09:30:38.803442	9.4	18.1	-82.6	0.0
2025-01-15 09:30:39.926887	9.3	18.2	-82.7	0.0
2025-01-15 09:30:41.049105	9.3	18.3	-82.5	0.0
2025-01-15 09:30:42.172339	9.2	18.5	-82.7	0.0
2025-01-15 09:30:43.296470	9.1	18.6	-82.7	0.0
2025-01-15 09:30:44.417966	9.1	18.7	-82.9	0.0
2025-01-15 09:30:45.541779	9.0	18.9	-82.0	0.0
2025-01-15 09:30:46.664561	9.0	19.0	-82.9	0.0
2025-01-15 09:30:47.786886	8.9	19.1	-82.5	0.0
2025-01-15 09:30:48.910591	8.8	19.3	-82.8	0.0
2025-01-15 09:30:50.033191	8.8	19.4	-82.5	0.0
2025-01-15 09:30:51.156133	8.7	19.6	-82.8	0.0
2025-01-15 09:30:52.279244	8.7	19.7	-82.8	0.0
2025-01-15 09:30:53.403733	8.6	19.8	-82.4	0.0
2025-01-15 09:30:54.527198	8.5	20.0	-82.7	0.0
2025-01-15 09:30:55.652643	8.5	20.1	-82.8	0.0
2025-01-15 09:30:56.775172	8.4	20.3	-82.7	0.0
2025-01-15 09:30:57.896133	8.3	20.4	-82.8	0.0
2025-01-15 09:30:59.018141	8.3	20.5	-82.7	0.0
2025-01-15 09:31:00.141470	8.2	20.7	-82.6	0.0
2025-01-15 09:31:01.264261	8.1	20.8	-82.2	0.0
2025-01-15 09:31:02.388160	8.1	21.0	-82.0	0.0
2025-01-15 09:31:03.512736	8.0	21.1	-82.8	0.0
2025-01-15 09:31:04.634669	7.9	21.3	-82.6	0.0
2025-01-15 09:31:05.758284	7.8	21.4	-83.0	0.0
2025-01-15 09:31:06.880875	7.8	21.6	-82.8	0.0
2025-01-15 09:31:08.003691	7.7	21.7	-82.6	0.0
2025-01-15 09:31:09.128003	7.6	21.9	-82.4	0.0
2025-01-15 09:31:10.249797	7.5	22.0	-82.3	0.0
2025-01-15 09:31:11.373853	7.5	22.2	-82.6	0.0
2025-01-15 09:31:12.495415	7.4	22.3	-82.0	0.0
2025-01-15 09:31:13.620854	7.3	22.5	-82.8	0.0
2025-01-15 09:31:14.745485	7.2	22.6	-82.8	0.0
2025-01-15 09:31:15.865885	7.2	22.8	-82.6	0.0
2025-01-15 09:31:16.987853	7.1	22.9	-82.8	0.0
2025-01-15 09:31:18.107260	7.0	23.1	-82.8	0.0
2025-01-15 09:31:19.230636	6.9	23.2	-82.6	0.0
2025-01-15 09:31:20.352361	6.8	23.4	-82.9	0.0
2025-01-15 09:31:21.476458	6.8	23.6	-82.9	0.0
2025-01-15 09:31:22.598007	6.7	23.7	-83.0	0.0
2025-01-15 09:31:23.723067	6.6	23.9	-83.0	0.0
2025-01-15 09:31:24.848499	6.5	24.0	-82.9	0.0
2025-01-15 09:31:25.973124	6.4	24.2	-83.0	0.0
2025-01-15 09:31:27.095946	6.3	24.4	-83.0	0.0
2025-01-15 09:31:28.219631	6.2	24.5	-82.7	0.0
2025-01-15 09:31:29.343935	6.2	24.7	-82.6	0.0
2025-01-15 09:31:30.465598	6.1	24.9	-82.8	0.0
2025-01-15 09:31:31.587769	6.0	25.0	-83.0	0.0
2025-01-15 09:31:32.709148	5.9	25.2	-82.9	0.0
2025-01-15 09:31:33.834115	5.8	25.4	-82.9	0.0
2025-01-15 09:31:34.955892	5.7	25.5	-83.0	0.0
2025-01-15 09:31:36.078231	5.6	25.7	-82.9	0.0
2025-01-15 09:31:37.202547	5.5	25.9	-82.8	0.0
2025-01-15 09:31:38.323806	5.4	26.1	-82.7	0.0
2025-01-15 09:31:39.444820	5.3	26.2	-82.7	0.0
2025-01-15 09:31:40.567200	5.2	26.4	-82.7	0.0
2025-01-15 09:31:41.691899	5.1	26.6	-82.5	0.0
2025-01-15 09:31:42.817915	5.0	26.8	-82.8	0.0
2025-01-15 09:31:43.942009	4.9	26.9	-82.7	0.0
2025-01-15 09:31:45.065163	4.8	27.1	-82.9	0.0
2025-01-15 09:31:46.187488	4.7	27.3	-82.8	0.0
2025-01-15 09:31:47.310433	4.6	27.5	-82.4	0.0
2025-01-15 09:31:48.434312	4.5	27.7	-82.6	0.0
2025-01-15 09:31:49.558764	4.4	27.9	-82.4	0.0
2025-01-15 09:31:50.684436	4.3	28.0	-83.0	0.0
2025-01-15 09:31:51.808202	4.2	28.2	-82.7	0.0
2025-01-15 09:31:52.931159	4.0	28.4	-83.1	0.0
2025-01-15 09:31:54.054204	3.9	28.6	-82.8	0.0
2025-01-15 09:31:55.176803	3.8	28.8	-82.7	0.0
2025-01-15 09:31:56.301702	3.7	29.0	-82.9	0.0
2025-01-15 09:31:57.424266	3.6	29.2	-83.1	0.0
2025-01-15 09:31:58.545343	3.5	29.4	-82.8	0.0
2025-01-15 09:31:59.668299	3.3	29.6	-82.9	0.0
2025-01-15 09:32:00.792457	3.2	29.8	-82.8	0.0
2025-01-15 09:32:01.914785	3.1	30.0	-83.0	0.0
2025-01-15 09:32:03.038062	3.0	30.2	-82.4	0.0
2025-01-15 09:32:04.164167	2.8	30.4	-82.5	0.0
2025-01-15 09:32:05.287580	2.7	30.6	-82.6	0.0
2025-01-15 09:32:06.411018	2.6	30.8	-82.8	0.0
2025-01-15 09:32:07.532623	2.4	31.0	-82.7	0.0
2025-01-15 09:32:08.654186	2.3	31.2	-82.7	0.0
2025-01-15 09:32:09.779087	2.2	31.4	-82.4	0.0
2025-01-15 09:32:10.902852	2.0	31.6	-82.6	0.0
2025-01-15 09:32:12.023498	1.9	31.8	-82.3	0.0
2025-01-15 09:32:13.147612	1.7	32.0	-82.6	0.0
2025-01-15 09:32:14.270208	1.6	32.2	-82.3	0.0
2025-01-15 09:32:15.389899	1.5	32.4	-82.5	0.0
2025-01-15 09:32:16.514423	1.3	32.6	-82.2	0.0
2025-01-15 09:32:17.638920	1.2	32.9	-82.4	0.0
2025-01-15 09:32:18.762908	1.0	33.1	-82.5	0.0
2025-01-15 09:32:19.885845	0.8	33.3	-82.4	0.0
2025-01-15 09:32:21.008304	0.7	33.5	-82.8	0.0
2025-01-15 09:32:22.129982	0.5	33.7	-82.6	0.0
2025-01-15 09:32:23.253382	0.4	34.0	-82.6	0.0
2025-01-15 09:32:24.375404	0.2	34.2	-82.6	0.0
2025-01-15 09:32:25.498041	0.0	34.4	-82.3	0.0
2025-01-15 09:32:26.621270	359.9	34.6	-82.4	0.0
2025-01-15 09:32:27.745429	359.7	34.9	-82.4	0.0
2025-01-15 09:32:28.868564	359.5	35.1	-82.6	0.0
2025-01-15 09:32:29.991038	359.4	35.3	-82.6	0.0
2025-01-15 09:32:31.113041	359.2	35.5	-82.4	0.0
2025-01-15 09:32:32.236656	359.0	35.8	-82.5	0.0
2025-01-15 09:32:33.360106	358.8	36.0	-82.1	0.0
2025-01-15 09:32:34.480264	358.6	36.2	-82.5	0.0
2025-01-15 09:32:35.604516	358.4	36.5	-82.5	0.0
2025-01-15 09:32:36.729352	358.3	36.7	-82.5	0.0
2025-01-15 09:32:37.851460	358.1	37.0	-82.7	0.0
2025-01-15 09:32:38.975567	357.9	37.2	-82.7	0.0
2025-01-15 09:32:40.098603	357.7	37.4	-82.4	0.0
2025-01-15 09:32:41.222676	357.5	37.7	-82.7	0.0
2025-01-15 09:32:42.346374	357.3	37.9	-82.9	0.0
2025-01-15 09:32:43.468075	357.0	38.2	-82.8	0.0
2025-01-15 09:32:44.591121	356.8	38.4	-83.1	0.0
2025-01-15 09:32:45.716068	356.6	38.7	-82.7	0.0
2025-01-15 09:32:46.839663	356.4	38.9	-82.9	0.0
2025-01-15 09:32:47.963441	356.2	39.2	-83.0	0.0
2025-01-15 09:32:49.085847	355.9	39.4	-82.7	0.0
2025-01-15 09:32:50.210859	355.7	39.7	-82.7	0.0
2025-01-15 09:32:51.332072	355.5	39.9	-82.9	0.0
2025-01-15 09:32:52.452375	355.2	40.2	-82.7	0.0
2025-01-15 09:32:53.575097	355.0	40.4	-82.5	0.0
2025-01-15 09:32:54.698061	354.8	40.7	-83.3	0.0
2025-01-15 09:32:55.819685	354.5	41.0	-82.6	0.0
2025-01-15 09:32:56.943772	354.3	41.2	-83.1	0.0
2025-01-15 09:32:58.067161	354.0	41.5	-82.7	0.0
2025-01-15 09:32:59.192899	353.7	41.8	-82.9	0.0
2025-01-15 09:33:00.316678	353.5	42.0	-83.0	0.0
2025-01-15 09:33:01.438650	353.2	42.3	-82.9	0.0
2025-01-15 09:33:02.562650	352.9	42.6	-83.1	0.0
2025-01-15 09:33:03.687190	352.6	42.8	-82.9	0.0
2025-01-15 09:33:04.812723	352.4	43.1	-82.9	0.0
2025-01-15 09:33:05.936325	352.1	43.4	-82.4	0.0
2025-01-15 09:33:07.061680	351.8	43.6	-83.0	0.0
2025-01-15 09:33:08.186341	351.5	43.9	-82.8	0.0
2025-01-15 09:33:09.308671	351.2	44.2	-82.9	0.0
2025-01-15 09:33:10.430527	350.9	44.5	-83.0	0.0
2025-01-15 09:33:11.553136	350.5	44.7	-82.9	0.0
2025-01-15 09:33:12.676515	350.2	45.0	-82.9	0.0
2025-01-15 09:33:13.799270	349.9	45.3	-83.0	0.0
2025-01-15 09:33:14.922680	349.6	45.6	-83.1	0.0
2025-01-15 09:33:16.045705	349.2	45.9	-83.1	0.0
2025-01-15 09:33:17.169460	348.9	46.1	-82.8	0.0
2025-01-15 09:33:18.291967	348.5	46.4	-82.8	0.0
2025-01-15 09:33:19.413783	348.2	46.7	-82.8	0.0
2025-01-15 09:33:20.535972	347.8	47.0	-83.1	0.0
2025-01-15 09:33:21.658304	347.4	47.3	-82.7	0.0
2025-01-15 09:33:22.780662	347.1	47.5	-82.2	0.0
2025-01-15 09:33:23.903194	346.7	47.8	-82.5	0.0
2025-01-15 09:33:25.025988	346.3	48.1	-82.3	0.0
2025-01-15 09:33:26.149298	345.9	48.4	-82.7	0.0
2025-01-15 09:33:27.269864	345.5	48.7	-82.8	0.0
2025-01-15 09:33:28.393793	345.1	49.0	-83.0	0.0
2025-01-15 09:33:29.514167	344.6	49.3	-83.1	0.0
2025-01-15 09:33:30.641815	344.2	49.5	-83.0	0.0
2025-01-15 09:33:31.764769	343.8	49.8	-82.7	0.0
2025-01-15 09:33:32.884869	343.3	50.1	-82.9	0.0
2025-01-15 09:33:34.007657	342.9	50.4	-83.0	0.0
2025-01-15 09:33:35.132637	342.4	50.7	-82.9	0.0
2025-01-15 09:33:36.255260	341.9	51.0	-82.7	0.0
2025-01-15 09:33:37.379964	341.4	51.3	-83.0	0.0
2025-01-15 09:33:38.503646	340.9	51.5	-83.1	0.0
2025-01-15 09:33:39.622835	340.4	51.8	-82.9	0.0
2025-01-15 09:33:40.745587	339.9	52.1	-82.7	0.0
2025-01-15 09:33:41.869713	339.4	52.4	-82.7	0.0
2025-01-15 09:33:42.994399	338.9	52.7	-83.0	0.0
2025-01-15 09:33:44.116753	338.3	53.0	-82.7	0.0
2025-01-15 09:33:45.240575	337.8	53.2	-82.6	0.0
2025-01-15 09:33:46.363597	337.2	53.5	-82.7	0.0
2025-01-15 09:33:47.483655	336.7	53.8	-82.8	0.0
2025-01-15 09:33:48.608564	336.1	54.1	-82.9	0.0
2025-01-15 09:33:49.731194	335.5	54.3	-82.8	0.0
2025-01-15 09:33:50.854246	334.9	54.6	-82.3	0.0
2025-01-15 09:33:51.977399	334.2	54.9	-82.9	0.0
2025-01-15 09:33:53.100723	333.6	55.2	-82.5	0.0
2025-01-15 09:33:54.226192	333.0	55.4	-82.8	0.0
2025-01-15 09:33:55.348405	332.3	55.7	-82.8	0.0
2025-01-15 09:33:56.469916	331.6	56.0	-83.0	0.0
2025-01-15 09:33:57.593379	331.0	56.2	-82.7	0.0
2025-01-15 09:33:58.715407	330.3	56.5	-82.7	0.0
2025-01-15 09:33:59.838003	329.5	56.7	-82.9	0.0
2025-01-15 09:34:00.958987	328.8	57.0	-82.5	0.0
2025-01-15 09:34:02.083430	328.1	57.2	-82.8	0.0
2025-01-15 09:34:03.207269	327.3	57.5	-82.7	0.0
2025-01-15 09:34:04.331594	326.6	57.7	-82.9	0.0
2025-01-15 09:34:05.453601	325.8	57.9	-82.6	0.0
2025-01-15 09:34:06.578879	325.0	58.2	-82.5	0.0
2025-01-15 09:34:07.702008	324.2	58.4	-82.4	0.0
2025-01-15 09:34:08.827474	323.4	58.6	-82.7	0.0
2025-01-15 09:34:09.951936	322.6	58.8	-82.2	0.0
2025-01-15 09:34:11.075038	321.7	59.0	-82.4	0.0
2025-01-15 09:34:12.199435	320.9	59.3	-82.4	0.0
2025-01-15 09:34:13.322543	320.0	59.5	-82.7	0.0
2025-01-15 09:34:14.445237	319.1	59.7	-82.7	0.0
2025-01-15 09:34:15.566555	318.2	59.8	-82.4	0.0
2025-01-15 09:34:16.691972	317.3	60.0	-82.4	0.0
2025-01-15 09:34:17.815274	316.4	60.2	-82.7	0.0
2025-01-15 09:34:18.937334	315.4	60.4	-82.4	0.0
2025-01-15 09:34:20.062619	314.5	60.6	-82.5	0.0
2025-01-15 09:34:21.185293	313.5	60.7	-82.5	0.0
2025-01-15 09:34:22.307496	312.6	60.9	-82.6	0.0
2025-01-15 09:34:23.431053	311.6	61.0	-82.8	0.0
2025-01-15 09:34:24.553685	310.6	61.1	-82.9	0.0
2025-01-15 09:34:25.674670	309.6	61.3	-82.7	0.0
2025-01-15 09:34:26.799341	308.5	61.4	-82.8	0.0
2025-01-15 09:34:27.923000	307.5	61.5	-82.7	0.0
2025-01-15 09:34:29.045547	306.5	61.6	-82.5	0.0
2025-01-15 09:34:30.171423	305.4	61.7	-82.7	0.0
2025-01-15 09:34:31.293926	304.4	61.8	-82.3	0.0
2025-01-15 09:34:32.417749	303.3	61.9	-82.5	0.0
2025-01-15 09:34:33.540115	302.2	62.0	-82.7	0.0
2025-01-15 09:34:34.661016	301.2	62.0	-82.4	0.0
2025-01-15 09:34:35.785081	300.1	62.1	-82.6	0.0
2025-01-15 09:34:36.907760	299.0	62.1	-82.6	0.0
2025-01-15 09:34:38.029202	297.9	62.2	-82.7	0.0
2025-01-15 09:34:39.150822	296.8	62.2	-82.8	0.0
2025-01-15 09:34:40.274216	295.7	62.2	-82.9	0.0
2025-01-15 09:34:41.399499	294.6	62.3	-82.8	0.0
2025-01-15 09:34:42.520503	293.5	62.3	-82.9	0.0
2025-01-15 09:34:43.644174	292.4	62.3	-83.1	0.0
2025-01-15 09:34:44.766490	291.3	62.2	-82.7	0.0
2025-01-15 09:34:45.889465	290.2	62.2	-82.6	0.0
2025-01-15 09:34:47.011696	289.1	62.2	-82.7	0.0
2025-01-15 09:34:48.137489	288.0	62.1	-82.6	0.0
2025-01-15 09:34:49.260323	287.0	62.1	-82.8	0.0
2025-01-15 09:34:50.385006	285.9	62.0	-82.7	0.0
2025-01-15 09:34:51.508606	284.8	62.0	-83.0	0.0
2025-01-15 09:34:52.630389	283.7	61.9	-82.8	0.0
2025-01-15 09:34:53.753915	282.7	61.8	-82.8	0.0
2025-01-15 09:34:54.877840	281.6	61.7	-82.5	0.0
2025-01-15 09:34:56.002060	280.6	61.6	-82.9	0.0
2025-01-15 09:34:57.120571	279.5	61.5	-83.1	0.0
2025-01-15 09:34:58.242682	278.5	61.4	-83.2	0.0
2025-01-15 09:34:59.367391	277.5	61.3	-83.0	0.0
2025-01-15 09:35:00.491027	276.5	61.1	-83.2	0.0
2025-01-15 09:35:01.615740	275.5	61.0	-82.7	0.0
2025-01-15 09:35:02.738747	274.5	60.9	-82.8	0.0
2025-01-15 09:35:03.862525	273.5	60.7	-83.0	0.0
2025-01-15 09:35:04.985338	272.5	60.5	-82.9	0.0
2025-01-15 09:35:06.107297	271.6	60.4	-83.1	0.0
2025-01-15 09:35:07.232496	270.6	60.2	-83.0	0.0
2025-01-15 09:35:08.354504	269.7	60.0	-83.1	0.0
2025-01-15 09:35:09.476606	268.8	59.8	-83.0	0.0
2025-01-15 09:35:10.599463	267.9	59.6	-82.9	0.0
2025-01-15 09:35:11.721697	267.0	59.4	-82.9	0.0
2025-01-15 09:35:12.845243	266.2	59.2	-82.7	0.0
2025-01-15 09:35:13.969366	265.3	59.0	-82.6	0.0
2025-01-15 09:35:15.090388	264.4	58.8	-82.6	0.0
2025-01-15 09:35:16.212888	263.6	58.6	-82.7	0.0
2025-01-15 09:35:17.337479	262.8	58.4	-82.6	0.0
2025-01-15 09:35:18.462331	262.0	58.2	-82.7	0.0
2025-01-15 09:35:19.584871	261.2	57.9	-82.9	0.0
2025-01-15 09:35:20.707311	260.4	57.7	-82.8	0.0
2025-01-15 09:35:21.830204	259.7	57.4	-82.7	0.0
2025-01-15 09:35:22.955584	258.9	57.2	-82.9	0.0
2025-01-15 09:35:24.078257	258.2	56.9	-83.0	0.0
2025-01-15 09:35:25.202803	257.4	56.7	-82.9	0.0
2025-01-15 09:35:26.325562	256.7	56.4	-82.8	0.0
2025-01-15 09:35:27.448897	256.0	56.2	-82.8	0.0
2025-01-15 09:35:28.572371	255.4	55.9	-82.8	0.0
2025-01-15 09:35:29.695248	254.7	55.7	-82.7	0.0
2025-01-15 09:35:30.818500	254.0	55.4	-82.7	0.0
2025-01-15 09:35:31.940648	253.4	55.1	-82.6	0.0
2025-01-15 09:35:33.064226	252.7	54.9	-83.0	0.0
2025-01-15 09:35:34.185389	252.1	54.6	-82.9	0.0
2025-01-15 09:35:35.307669	251.5	54.3	-83.1	0.0
2025-01-15 09:35:36.429625	250.9	54.0	-82.8	0.0
2025-01-15 09:35:37.553307	250.3	53.8	-82.7	0.0
2025-01-15 09:35:38.677224	249.8	53.5	-83.1	0.0
2025-01-15 09:35:39.801446	249.2	53.2	-82.8	0.0
2025-01-15 09:35:40.923934	248.6	52.9	-83.0	0.0
2025-01-15 09:35:42.047885	248.1	52.6	-83.0	0.0
2025-01-15 09:35:43.173338	247.6	52.4	-82.8	0.0
2025-01-15 09:35:44.296689	247.0	52.1	-82.7	0.0
2025-01-15 09:35:45.419210	246.5	51.8	-82.7	0.0
2025-01-15 09:35:46.542414	246.0	51.5	-82.9	0.0
2025-01-15 09:35:47.668164	245.5	51.2	-82.6	0.0
2025-01-15 09:35:48.793186	245.0	50.9	-82.9	0.0
2025-01-15 09:35:49.914363	244.6	50.6	-82.4	0.0
2025-01-15 09:35:51.039378	244.1	50.3	-82.5	0.0
2025-01-15 09:35:52.164293	243.6	50.1	-82.3	0.0
2025-01-15 09:35:53.287393	243.2	49.8	-82.5	0.0
2025-01-15 09:35:54.411289	242.7	49.5	-82.5	0.0
2025-01-15 09:35:55.535144	242.3	49.2	-82.6	0.0
2025-01-15 09:35:56.660028	241.9	48.9	-82.6	0.0
2025-01-15 09:35:57.787249	241.5	48.6	-82.6	0.0
2025-01-15 09:35:58.910297	241.1	48.3	-82.5	0.0
2025-01-15 09:36:00.033459	240.7	48.0	-82.6	0.0
2025-01-15 09:36:01.155344	240.3	47.8	-82.7	0.0
2025-01-15 09:36:02.275721	239.9	47.5	-82.7	0.0
2025-01-15 09:36:03.400386	239.5	47.2	-82.5	0.0
2025-01-15 09:36:04.521605	239.1	46.9	-82.8	0.0
2025-01-15 09:36:05.645293	238.8	46.6	-82.9	0.0
2025-01-15 09:36:06.767467	238.4	46.3	-82.6	0.0
2025-01-15 09:36:07.891781	238.1	46.0	-82.8	0.0
2025-01-15 09:36:09.013426	237.7	45.8	-82.7	0.0
2025-01-15 09:36:10.138585	237.4	45.5	-82.6	0.0
2025-01-15 09:36:11.261297	237.0	45.2	-82.6	0.0
2025-01-15 09:36:12.385364	236.7	44.9	-82.7	0.0
2025-01-15 09:36:13.510249	236.4	44.6	-83.0	0.0
2025-01-15 09:36:14.633784	236.1	44.4	-82.8	0.0
2025-01-15 09:36:15.758010	235.8	44.1	-82.9	0.0
2025-01-15 09:36:16.881508	235.4	43.8	-82.9	0.0
2025-01-15 09:36:18.005336	235.1	43.5	-82.8	0.0
2025-01-15 09:36:19.126944	234.9	43.3	-82.9	0.0
2025-01-15 09:36:20.252936	234.6	43.0	-82.8	0.0
2025-01-15 09:36:21.375979	234.3	42.7	-82.8	0.0
2025-01-15 09:36:22.498462	234.0	42.4	-82.9	0.0
2025-01-15 09:36:23.622770	233.7	42.2	-82.5	0.0
2025-01-15 09:36:24.745661	233.4	41.9	-82.7	0.0
2025-01-15 09:36:25.869233	233.2	41.6	-82.7	0.0
2025-01-15 09:36:26.992484	232.9	41.4	-82.6	0.0
2025-01-15 09:36:28.117095	232.7	41.1	-82.7	0.0
2025-01-15 09:36:29.238898	232.4	40.8	-82.6	0.0
2025-01-15 09:36:30.363871	232.2	40.6	-82.7	0.0
2025-01-15 09:36:31.488292	231.9	40.3	-82.4	0.0
2025-01-15 09:36:32.611008	231.7	40.1	-82.6	0.0
2025-01-15 09:36:33.735410	231.4	39.8	-82.6	0.0
2025-01-15 09:36:34.857925	231.2	39.5	-82.9	0.0
2025-01-15 09:36:35.985055	231.0	39.3	-82.8	0.0
2025-01-15 09:36:37.107374	230.7	39.0	-82.8	0.0
2025-01-15 09:36:38.231592	230.5	38.8	-83.1	0.0
2025-01-15 09:36:39.355290	230.3	38.5	-83.0	0.0
2025-01-15 09:36:40.479428	230.1	38.3	-83.1	0.0
2025-01-15 09:36:41.603318	229.9	38.0	-83.0	0.0
2025-01-15 09:36:42.725880	229.7	37.8	-82.8	0.0
2025-01-15 09:36:43.847108	229.4	37.5	-82.7	0.0
2025-01-15 09:36:44.970989	229.2	37.3	-83.1	0.0
2025-01-15 09:36:46.096585	229.0	37.0	-82.8	0.0
2025-01-15 09:36:47.218462	228.8	36.8	-83.1	0.0
2025-01-15 09:36:48.341748	228.7	36.6	-83.2	0.0
2025-01-15 09:36:49.466706	228.5	36.3	-82.8	0.0
2025-01-15 09:36:50.590277	228.3	36.1	-82.9	0.0
2025-01-15 09:36:51.711873	228.1	35.8	-83.2	0.0
2025-01-15 09:36:52.833184	227.9	35.6	-82.9	0.0
2025-01-15 09:36:53.955064	227.7	35.4	-83.1	0.0
2025-01-15 09:36:55.080389	227.5	35.1	-83.0	0.0
2025-01-15 09:36:56.203524	227.4	34.9	-82.9	0.0
2025-01-15 09:36:57.327717	227.2	34.7	-83.2	0.0
2025-01-15 09:36:58.452700	227.0	34.5	-83.0	0.0
2025-01-15 09:36:59.576154	226.9	34.2	-82.9	0.0
2025-01-15 09:37:00.699249	226.7	34.0	-82.5	0.0
2025-01-15 09:37:01.821984	226.5	33.8	-82.7	0.0
2025-01-15 09:37:02.945307	226.4	33.6	-82.9	0.0
2025-01-15 09:37:04.068954	226.2	33.3	-82.5	0.0
2025-01-15 09:37:05.190782	226.0	33.1	-82.7	0.0
2025-01-15 09:37:06.313455	225.9	32.9	-82.4	0.0
2025-01-15 09:37:07.435660	225.7	32.7	-82.2	0.0
2025-01-15 09:37:08.557829	225.6	32.5	-82.6	0.0
2025-01-15 09:37:09.680907	225.4	32.2	-82.7	0.0
2025-01-15 09:37:10.803607	225.3	32.0	-82.8	0.0
2025-01-15 09:37:11.927527	225.1	31.8	-82.8	0.0
2025-01-15 09:37:13.051470	225.0	31.6	-82.3	0.0
2025-01-15 09:37:14.175557	224.9	31.4	-82.8	0.0
2025-01-15 09:37:15.298910	224.7	31.2	-82.2	0.0
2025-01-15 09:37:16.422004	224.6	31.0	-82.8	0.0
2025-01-15 09:37:17.545357	224.5	30.8	-82.4	0.0
2025-01-15 09:37:18.668852	224.3	30.6	-82.7	0.0
2025-01-15 09:37:19.794921	224.2	30.4	-83.1	0.0
2025-01-15 09:37:20.916437	224.1	30.2	-83.0	0.0
2025-01-15 09:37:22.039644	223.9	30.0	-83.0	0.0
2025-01-15 09:37:23.162945	223.8	29.8	-82.7	0.0
2025-01-15 09:37:24.285354	223.7	29.6	-83.1	0.0
2025-01-15 09:37:25.410082	223.5	29.4	-82.7	0.0
2025-01-15 09:37:26.533291	223.4	29.2	-83.0	0.0
2025-01-15 09:37:27.664164	223.3	29.0	-83.0	0.0
2025-01-15 09:37:28.787457	223.2	28.8	-83.1	0.0
2025-01-15 09:37:29.909520	223.1	28.6	-83.2	0.0
2025-01-15 09:37:31.034852	222.9	28.4	-83.0	0.0
2025-01-15 09:37:32.156550	222.8	28.2	-82.4	0.0
2025-01-15 09:37:33.282027	222.7	28.0	-83.0	0.0
2025-01-15 09:37:34.404330	222.6	27.8	-83.2	0.0
2025-01-15 09:37:35.527834	222.5	27.6	-83.2	0.0
2025-01-15 09:37:36.650667	222.4	27.5	-83.0	0.0
2025-01-15 09:37:37.774744	222.3	27.3	-82.9	0.0
2025-01-15 09:37:38.895179	222.2	27.1	-83.1	0.0
2025-01-15 09:37:40.018433	222.1	26.9	-82.9	0.0
2025-01-15 09:37:41.142615	222.0	26.7	-82.7	0.0
2025-01-15 09:37:42.268807	221.9	26.5	-83.1	0.0
2025-01-15 09:37:43.393356	221.8	26.4	-83.0	0.0
2025-01-15 09:37:44.515827	221.7	26.2	-83.1	0.0
2025-01-15 09:37:45.637217	221.6	26.0	-82.9	0.0
2025-01-15 09:37:46.759402	221.5	25.8	-82.5	0.0
2025-01-15 09:37:47.882413	221.4	25.7	-83.0	0.0
2025-01-15 09:37:49.003601	221.3	25.5	-83.0	0.0
2025-01-15 09:37:50.123070	221.2	25.3	-82.9	0.0
2025-01-15 09:37:51.246896	221.1	25.1	-82.8	0.0
2025-01-15 09:37:52.369661	221.0	25.0	-83.1	0.0
2025-01-15 09:37:53.491691	220.9	24.8	-82.8	0.0
2025-01-15 09:37:54.614404	220.8	24.6	-83.0	0.0
2025-01-15 09:37:55.736689	220.7	24.5	-83.1	0.0
2025-01-15 09:37:56.860143	220.6	24.3	-83.0	0.0
2025-01-15 09:37:57.985079	220.5	24.1	-83.1	0.0
2025-01-15 09:37:59.108654	220.4	24.0	-82.6	0.0
2025-01-15 09:38:00.233542	220.3	23.8	-83.0	0.0
2025-01-15 09:38:01.357752	220.3	23.6	-82.9	0.0
2025-01-15 09:38:02.482594	220.2	23.5	-83.2	0.0
2025-01-15 09:38:03.605650	220.1	23.3	-83.1	0.0
2025-01-15 09:38:04.727134	220.0	23.2	-82.8	0.0
2025-01-15 09:38:05.848680	219.9	23.0	-82.9	0.0
2025-01-15 09:38:06.972647	219.8	22.8	-83.1	0.0
2025-01-15 09:38:08.096943	219.8	22.7	-82.9	0.0
2025-01-15 09:38:09.219337	219.7	22.5	-82.9	0.0
2025-01-15 09:38:10.343678	219.6	22.4	-82.9	0.0
2025-01-15 09:38:11.465085	219.5	22.2	-82.8	0.0
2025-01-15 09:38:12.588031	219.4	22.1	-82.9	0.0
2025-01-15 09:38:13.713295	219.4	21.9	-82.8	0.0
2025-01-15 09:38:14.837752	219.3	21.8	-82.7	0.0
2025-01-15 09:38:15.958665	219.2	21.6	-82.6	0.0
2025-01-15 09:38:17.081924	219.1	21.4	-82.8	0.0
2025-01-15 09:38:18.202886	219.1	21.3	-82.3	0.0
2025-01-15 09:38:19.326768	219.0	21.1	-82.7	0.0
2025-01-15 09:38:20.451201	218.9	21.0	-83.0	0.0
2025-01-15 09:38:21.573699	218.9	20.9	-82.6	0.0
2025-01-15 09:38:22.698061	218.8	20.7	-82.4	0.0
2025-01-15 09:38:23.819348	218.7	20.6	-82.8	0.0
2025-01-15 09:38:24.946090	218.6	20.4	-82.7	0.0
2025-01-15 09:38:26.069547	218.6	20.3	-82.5	0.0
2025-01-15 09:38:27.193742	218.5	20.1	-82.7	0.0
2025-01-15 09:38:28.315953	218.4	20.0	-82.6	0.0
2025-01-15 09:38:29.438221	218.4	19.8	-82.9	0.0
2025-01-15 09:38:30.561001	218.3	19.7	-82.9	0.0
2025-01-15 09:38:31.682038	218.2	19.6	-82.5	0.0
2025-01-15 09:38:32.805302	218.2	19.4	-82.6	0.0
2025-01-15 09:38:33.928704	218.1	19.3	-82.9	0.0
2025-01-15 09:38:35.053140	218.1	19.1	-83.1	0.0
2025-01-15 09:38:36.175137	218.0	19.0	-82.5	0.0
2025-01-15 09:38:37.297906	217.9	18.9	-82.7	0.0
2025-01-15 09:38:38.419529	217.9	18.7	-82.9	0.0
2025-01-15 09:38:39.544873	217.8	18.6	-83.1	0.0
2025-01-15 09:38:40.669648	217.7	18.5	-82.9	0.0
2025-01-15 09:38:41.792841	217.7	18.3	-82.8	0.0
2025-01-15 09:38:42.916668	217.6	18.2	-82.8	0.0
2025-01-15 09:38:44.039566	217.6	18.1	-83.0	0.0
2025-01-15 09:38:45.161204	217.5	17.9	-82.3	0.0
2025-01-15 09:38:46.285111	217.4	17.8	-82.7	0.0
2025-01-15 09:38:47.409132	217.4	17.7	-83.0	0.0
2025-01-15 09:38:48.532965	217.3	17.5	-83.1	0.0
2025-01-15 09:38:49.655860	217.3	17.4	-82.6	0.0
2025-01-15 09:38:50.779498	217.2	17.3	-83.1	0.0
2025-01-15 09:38:51.903063	217.2	17.2	-82.9	0.0
2025-01-15 09:38:53.025891	217.1	17.0	-83.0	0.0
2025-01-15 09:38:54.149913	217.1	16.9	-82.9	0.0
2025-01-15 09:38:55.272526	217.0	16.8	-83.1	0.0
2025-01-15 09:38:56.397071	216.9	16.7	-82.9	0.0
2025-01-15 09:38:57.520730	216.9	16.5	-82.7	0.0
2025-01-15 09:38:58.644625	216.8	16.4	-83.2	0.0
2025-01-15 09:38:59.769420	216.8	16.3	-83.0	0.0
2025-01-15 09:39:00.894383	216.7	16.2	-83.1	0.0
2025-01-15 09:39:02.016771	216.7	16.0	-83.1	0.0
2025-01-15 09:39:03.140787	216.6	15.9	-83.1	0.0
2025-01-15 09:39:04.265546	216.6	15.8	-83.2	0.0
2025-01-15 09:39:05.387036	216.5	15.7	-83.0	0.0
2025-01-15 09:39:06.508693	216.5	15.5	-82.9	0.0
2025-01-15 09:39:07.632290	216.4	15.4	-83.3	0.0
2025-01-15 09:39:08.753121	216.4	15.3	-83.0	0.0
2025-01-15 09:39:09.874888	216.3	15.2	-83.3	0.0
2025-01-15 09:39:10.997388	216.3	15.1	-83.2	0.0
2025-01-15 09:39:12.123714	216.2	15.0	-82.9	0.0
2025-01-15 09:39:13.247004	216.2	14.8	-82.9	0.0
2025-01-15 09:39:14.369263	216.2	14.7	-83.1	0.0
2025-01-15 09:39:15.494609	216.1	14.6	-83.1	0.0
2025-01-15 09:39:16.619109	216.1	14.5	-83.1	0.0
2025-01-15 09:39:17.742209	216.0	14.4	-83.1	0.0
2025-01-15 09:39:18.866135	216.0	14.3	-83.0	0.0
2025-01-15 09:39:19.988402	215.9	14.1	-82.8	0.0
2025-01-15 09:39:21.109631	215.9	14.0	-82.7	0.0
2025-01-15 09:39:22.230666	215.8	13.9	-83.1	0.0
2025-01-15 09:39:23.353058	215.8	13.8	-82.9	0.0
2025-01-15 09:39:24.475159	215.7	13.7	-83.2	0.0
2025-01-15 09:39:25.600127	215.7	13.6	-83.1	0.0
2025-01-15 09:39:26.722962	215.7	13.5	-82.8	0.0
2025-01-15 09:39:27.846627	215.6	13.4	-83.0	0.0
2025-01-15 09:39:28.968704	215.6	13.3	-82.7	0.0
2025-01-15 09:39:30.092622	215.5	13.1	-82.9	0.0
2025-01-15 09:39:31.215430	215.5	13.0	-82.6	0.0
2025-01-15 09:39:32.340078	215.5	12.9	-82.9	0.0
2025-01-15 09:39:33.461235	215.4	12.8	-82.8	0.0
2025-01-15 09:39:34.586373	215.4	12.7	-82.9	0.0
2025-01-15 09:39:35.708773	215.3	12.6	-82.6	0.0
2025-01-15 09:39:36.832890	215.3	12.5	-83.1	0.0
2025-01-15 09:39:37.954226	215.3	12.4	-83.0	0.0
2025-01-15 09:39:39.075359	215.2	12.3	-82.9	0.0
2025-01-15 09:39:40.198073	215.2	12.2	-82.8	0.0
2025-01-15 09:39:41.319153	215.1	12.1	-82.9	0.0
2025-01-15 09:39:42.441408	215.1	12.0	-82.8	0.0
2025-01-15 09:39:43.565257	215.1	11.9	-83.0	0.0
2025-01-15 09:39:44.690446	215.0	11.8	-82.9	0.0
2025-01-15 09:39:45.814944	215.0	11.7	-82.8	0.0
2025-01-15 09:39:46.935948	214.9	11.6	-82.9	0.0
2025-01-15 09:39:48.058017	214.9	11.5	-82.9	0.0
2025-01-15 09:39:49.183021	214.9	11.4	-83.0	0.0
2025-01-15 09:39:50.306997	214.8	11.3	-83.0	0.0
2025-01-15 09:39:51.429300	214.8	11.2	-82.9	0.0
2025-01-15 09:39:52.553748	214.8	11.1	-83.1	0.0
2025-01-15 09:39:53.679109	214.7	11.0	-83.0	0.0
2025-01-15 09:39:54.803341	214.7	10.9	-83.2	0.0
2025-01-15 09:39:55.925669	214.7	10.8	-83.4	0.0
2025-01-15 09:39:57.049016	214.6	10.7	-83.0	0.0
2025-01-15 09:39:58.169676	214.6	10.6	-83.0	0.0
2025-01-15 09:39:59.292489	214.6	10.5	-83.1	0.0
2025-01-15 09:40:00.416740	214.5	10.4	-82.6	0.0
2025-01-15 09:40:01.538317	214.5	10.3	-83.0	0.0
2025-01-15 09:40:02.662646	214.5	10.2	-83.1	0.0
2025-01-15 09:40:03.786181	214.4	10.1	-83.0	0.0
2025-01-15 09:40:04.908960	214.4	10.0	-82.9	0.0
#Closed at: 2025-01-15 09:29:11.902938