passes_logs/2025/01/15/planumMaritime01/planumMaritime01__20250115_074849_NOAA_18_rec.log

#Pass ID: 20250115_074849_NOAA 18
#Satellite: NOAA 18
#Configuration: NOAA 18
#Start time: 2025-01-15 07:48:54.296890

#LorettStation: 1.0.0 05.05.2024
#Station: planumMaritime01
#Location: 37.49445 lon 55.92918 lat
#TLE: 1 28654U 05018A   25014.17177243  .00000313  00000+0  18955-3 0  9990
#TLE: 2 28654  98.8569  95.2344 0014326 181.4762 178.6370 14.13485757 13061

#Time	Az	El	Level	SNR
2025-01-15 07:48:56.467345	32.6	10.2	-81.7	0.0
2025-01-15 07:48:57.590521	32.7	10.2	-81.7	0.0
2025-01-15 07:48:58.715490	32.8	10.3	-81.7	0.0
2025-01-15 07:48:59.840334	32.9	10.4	-81.9	0.0
2025-01-15 07:49:00.962812	33.0	10.5	-81.9	0.0
2025-01-15 07:49:02.086710	33.2	10.6	-81.7	0.0
2025-01-15 07:49:03.207223	33.3	10.6	-81.8	0.0
2025-01-15 07:49:04.328699	33.4	10.7	-81.7	0.0
2025-01-15 07:49:05.453945	33.5	10.8	-81.9	0.0
2025-01-15 07:49:06.578005	33.6	10.9	-81.8	0.0
2025-01-15 07:49:07.701077	33.7	11.0	-81.7	0.0
2025-01-15 07:49:08.824710	33.8	11.1	-81.5	0.0
2025-01-15 07:49:09.949732	34.0	11.1	-82.0	0.0
2025-01-15 07:49:11.072819	34.1	11.2	-81.9	0.0
2025-01-15 07:49:12.196734	34.2	11.3	-81.9	0.0
2025-01-15 07:49:13.320160	34.3	11.4	-82.0	0.0
2025-01-15 07:49:14.443765	34.4	11.5	-82.0	0.0
2025-01-15 07:49:15.567986	34.5	11.6	-81.9	0.0
2025-01-15 07:49:16.693516	34.7	11.6	-82.1	0.0
2025-01-15 07:49:17.818801	34.8	11.7	-82.1	0.0
2025-01-15 07:49:18.939687	34.9	11.8	-81.8	0.0
2025-01-15 07:49:20.063408	35.0	11.9	-81.7	0.0
2025-01-15 07:49:21.186755	35.2	12.0	-81.9	0.0
2025-01-15 07:49:22.310580	35.3	12.1	-81.9	0.0
2025-01-15 07:49:23.433544	35.4	12.1	-82.0	0.0
2025-01-15 07:49:24.557734	35.5	12.2	-81.8	0.0
2025-01-15 07:49:25.681039	35.7	12.3	-81.9	0.0
2025-01-15 07:49:26.804496	35.8	12.4	-82.0	0.0
2025-01-15 07:49:27.926850	35.9	12.5	-82.0	0.0
2025-01-15 07:49:29.048309	36.0	12.6	-82.1	0.0
2025-01-15 07:49:30.171332	36.2	12.7	-81.9	0.0
2025-01-15 07:49:31.296112	36.3	12.7	-82.1	0.0
2025-01-15 07:49:32.418536	36.4	12.8	-81.8	0.0
2025-01-15 07:49:33.542100	36.6	12.9	-81.8	0.0
2025-01-15 07:49:34.666010	36.7	13.0	-82.0	0.0
2025-01-15 07:49:35.788349	36.8	13.1	-81.9	0.0
2025-01-15 07:49:36.911527	36.9	13.2	-81.7	0.0
2025-01-15 07:49:38.033627	37.1	13.3	-81.5	0.0
2025-01-15 07:49:39.157891	37.2	13.4	-82.0	0.0
2025-01-15 07:49:40.280258	37.4	13.4	-81.9	0.0
2025-01-15 07:49:41.403509	37.5	13.5	-82.3	0.0
2025-01-15 07:49:42.526955	37.6	13.6	-82.0	0.0
2025-01-15 07:49:43.652048	37.8	13.7	-81.5	0.0
2025-01-15 07:49:44.775507	37.9	13.8	-81.9	0.0
2025-01-15 07:49:45.898922	38.0	13.9	-82.0	0.0
2025-01-15 07:49:47.024242	38.2	14.0	-82.1	0.0
2025-01-15 07:49:48.147549	38.3	14.1	-81.9	0.0
2025-01-15 07:49:49.274443	38.5	14.1	-82.0	0.0
2025-01-15 07:49:50.398582	38.6	14.2	-82.1	0.0
2025-01-15 07:49:51.521061	38.7	14.3	-82.1	0.0
2025-01-15 07:49:52.643300	38.9	14.4	-82.1	0.0
2025-01-15 07:49:53.767087	39.0	14.5	-82.1	0.0
2025-01-15 07:49:54.889467	39.2	14.6	-81.7	0.0
2025-01-15 07:49:56.013160	39.3	14.7	-81.8	0.0
2025-01-15 07:49:57.133961	39.5	14.8	-82.0	0.0
2025-01-15 07:49:58.257672	39.6	14.9	-82.1	0.0
2025-01-15 07:49:59.381540	39.8	15.0	-82.0	0.0
2025-01-15 07:50:00.503846	39.9	15.0	-81.6	0.0
2025-01-15 07:50:01.624991	40.1	15.1	-82.0	0.0
2025-01-15 07:50:02.748651	40.2	15.2	-81.9	0.0
2025-01-15 07:50:03.873154	40.4	15.3	-81.9	0.0
2025-01-15 07:50:04.995053	40.5	15.4	-82.0	0.0
2025-01-15 07:50:06.119666	40.7	15.5	-82.0	0.0
2025-01-15 07:50:07.243711	40.8	15.6	-81.7	0.0
2025-01-15 07:50:08.367311	41.0	15.7	-82.0	0.0
2025-01-15 07:50:09.490719	41.2	15.8	-81.9	0.0
2025-01-15 07:50:10.614385	41.3	15.9	-82.0	0.0
2025-01-15 07:50:11.738433	41.5	16.0	-81.8	0.0
2025-01-15 07:50:12.862309	41.6	16.0	-81.9	0.0
2025-01-15 07:50:13.986480	41.8	16.1	-82.1	0.0
2025-01-15 07:50:15.110370	42.0	16.2	-82.0	0.0
2025-01-15 07:50:16.234324	42.1	16.3	-81.8	0.0
2025-01-15 07:50:17.355553	42.3	16.4	-81.9	0.0
2025-01-15 07:50:18.480496	42.4	16.5	-81.9	0.0
2025-01-15 07:50:19.605882	42.6	16.6	-82.2	0.0
2025-01-15 07:50:20.729380	42.8	16.7	-82.1	0.0
2025-01-15 07:50:21.852127	42.9	16.8	-82.1	0.0
2025-01-15 07:50:22.975638	43.1	16.9	-81.9	0.0
2025-01-15 07:50:24.101329	43.3	17.0	-81.6	0.0
2025-01-15 07:50:25.223910	43.5	17.1	-82.1	0.0
2025-01-15 07:50:26.349106	43.6	17.2	-82.1	0.0
2025-01-15 07:50:27.472116	43.8	17.3	-82.1	0.0
2025-01-15 07:50:28.596537	44.0	17.3	-82.4	0.0
2025-01-15 07:50:29.720713	44.2	17.4	-81.6	0.0
2025-01-15 07:50:30.843774	44.3	17.5	-82.1	0.0
2025-01-15 07:50:31.967191	44.5	17.6	-82.3	0.0
2025-01-15 07:50:33.088300	44.7	17.7	-82.2	0.0
2025-01-15 07:50:34.214090	44.9	17.8	-82.3	0.0
2025-01-15 07:50:35.341005	45.0	17.9	-82.3	0.0
2025-01-15 07:50:36.464192	45.2	18.0	-82.3	0.0
2025-01-15 07:50:37.588181	45.4	18.1	-82.4	0.0
2025-01-15 07:50:38.711696	45.6	18.2	-82.7	0.0
2025-01-15 07:50:39.834972	45.8	18.3	-82.5	0.0
2025-01-15 07:50:40.957796	46.0	18.4	-82.1	0.0
2025-01-15 07:50:42.080353	46.1	18.5	-82.3	0.0
2025-01-15 07:50:43.203715	46.3	18.6	-82.3	0.0
2025-01-15 07:50:44.327110	46.5	18.7	-82.5	0.0
2025-01-15 07:50:45.453263	46.7	18.8	-82.3	0.0
2025-01-15 07:50:46.577469	46.9	18.9	-82.3	0.0
2025-01-15 07:50:47.699568	47.1	19.0	-82.3	0.0
2025-01-15 07:50:48.825331	47.3	19.1	-82.6	0.0
2025-01-15 07:50:49.947727	47.5	19.2	-82.5	0.0
2025-01-15 07:50:51.071407	47.7	19.2	-82.5	0.0
2025-01-15 07:50:52.195505	47.9	19.3	-82.5	0.0
2025-01-15 07:50:53.318088	48.1	19.4	-82.2	0.0
2025-01-15 07:50:54.439896	48.3	19.5	-82.3	0.0
2025-01-15 07:50:55.564382	48.5	19.6	-82.5	0.0
2025-01-15 07:50:56.688246	48.7	19.7	-82.6	0.0
2025-01-15 07:50:57.812258	48.9	19.8	-82.6	0.0
2025-01-15 07:50:58.936474	49.1	19.9	-82.4	0.0
2025-01-15 07:51:00.058344	49.3	20.0	-82.5	0.0
2025-01-15 07:51:01.182082	49.5	20.1	-82.5	0.0
2025-01-15 07:51:02.304913	49.7	20.2	-82.3	0.0
2025-01-15 07:51:03.427559	49.9	20.3	-82.3	0.0
2025-01-15 07:51:04.550695	50.1	20.4	-82.3	0.0
2025-01-15 07:51:05.677303	50.4	20.5	-82.3	0.0
2025-01-15 07:51:06.800682	50.6	20.6	-82.3	0.0
2025-01-15 07:51:07.925448	50.8	20.7	-81.4	0.0
2025-01-15 07:51:09.049173	51.0	20.8	-81.6	0.0
2025-01-15 07:51:10.172712	51.2	20.9	-82.0	0.0
2025-01-15 07:51:11.295894	51.4	21.0	-82.2	0.0
2025-01-15 07:51:12.418321	51.7	21.1	-82.3	0.0
2025-01-15 07:51:13.540588	51.9	21.2	-81.9	0.0
2025-01-15 07:51:14.663366	52.1	21.3	-82.2	0.0
2025-01-15 07:51:15.786104	52.3	21.3	-82.3	0.0
2025-01-15 07:51:16.911747	52.6	21.4	-82.2	0.0
2025-01-15 07:51:18.037499	52.8	21.5	-82.4	0.0
2025-01-15 07:51:19.160979	53.0	21.6	-82.4	0.0
2025-01-15 07:51:20.283524	53.2	21.7	-82.3	0.0
2025-01-15 07:51:21.407800	53.5	21.8	-82.1	0.0
2025-01-15 07:51:22.531466	53.7	21.9	-82.3	0.0
2025-01-15 07:51:23.653784	53.9	22.0	-82.2	0.0
2025-01-15 07:51:24.777701	54.2	22.1	-82.3	0.0
2025-01-15 07:51:25.900877	54.4	22.2	-82.3	0.0
2025-01-15 07:51:27.024022	54.6	22.3	-82.6	0.0
2025-01-15 07:51:28.150191	54.9	22.4	-82.3	0.0
2025-01-15 07:51:29.272977	55.1	22.5	-82.5	0.0
2025-01-15 07:51:30.395394	55.4	22.6	-82.2	0.0
2025-01-15 07:51:31.519659	55.6	22.7	-82.3	0.0
2025-01-15 07:51:32.645561	55.9	22.8	-82.3	0.0
2025-01-15 07:51:33.767510	56.1	22.9	-82.3	0.0
2025-01-15 07:51:34.893873	56.4	22.9	-82.4	0.0
2025-01-15 07:51:36.018626	56.6	23.0	-82.1	0.0
2025-01-15 07:51:37.140203	56.9	23.1	-82.1	0.0
2025-01-15 07:51:38.262398	57.1	23.2	-82.4	0.0
2025-01-15 07:51:39.386236	57.4	23.3	-82.3	0.0
2025-01-15 07:51:40.511873	57.6	23.4	-82.2	0.0
2025-01-15 07:51:41.632309	57.9	23.5	-82.1	0.0
2025-01-15 07:51:42.755317	58.1	23.6	-82.2	0.0
2025-01-15 07:51:43.877941	58.4	23.7	-81.9	0.0
2025-01-15 07:51:45.000879	58.7	23.8	-82.4	0.0
2025-01-15 07:51:46.123142	58.9	23.9	-82.5	0.0
2025-01-15 07:51:47.247677	59.2	23.9	-82.4	0.0
2025-01-15 07:51:48.370481	59.4	24.0	-82.3	0.0
2025-01-15 07:51:49.492185	59.7	24.1	-82.6	0.0
2025-01-15 07:51:50.616660	60.0	24.2	-82.4	0.0
2025-01-15 07:51:51.741190	60.3	24.3	-82.6	0.0
2025-01-15 07:51:52.863437	60.5	24.4	-82.4	0.0
2025-01-15 07:51:53.987625	60.8	24.5	-82.5	0.0
2025-01-15 07:51:55.111893	61.1	24.6	-82.2	0.0
2025-01-15 07:51:56.233055	61.4	24.7	-82.3	0.0
2025-01-15 07:51:57.355715	61.6	24.7	-82.4	0.0
2025-01-15 07:51:58.478436	61.9	24.8	-82.4	0.0
2025-01-15 07:51:59.602070	62.2	24.9	-82.4	0.0
2025-01-15 07:52:00.724685	62.5	25.0	-82.1	0.0
2025-01-15 07:52:01.848850	62.8	25.1	-82.1	0.0
2025-01-15 07:52:02.971735	63.0	25.2	-82.3	0.0
2025-01-15 07:52:04.094179	63.3	25.3	-82.6	0.0
2025-01-15 07:52:05.216524	63.6	25.3	-82.4	0.0
2025-01-15 07:52:06.339352	63.9	25.4	-82.1	0.0
2025-01-15 07:52:07.462676	64.2	25.5	-82.4	0.0
2025-01-15 07:52:08.586727	64.5	25.6	-82.6	0.0
2025-01-15 07:52:09.711049	64.8	25.7	-82.5	0.0
2025-01-15 07:52:10.831701	65.1	25.7	-82.4	0.0
2025-01-15 07:52:11.954112	65.4	25.8	-82.7	0.0
2025-01-15 07:52:13.078981	65.7	25.9	-82.4	0.0
2025-01-15 07:52:14.201949	66.0	26.0	-82.1	0.0
2025-01-15 07:52:15.325394	66.3	26.1	-82.4	0.0
2025-01-15 07:52:16.448243	66.6	26.1	-82.4	0.0
2025-01-15 07:52:17.568879	66.9	26.2	-82.4	0.0
2025-01-15 07:52:18.693460	67.2	26.3	-82.6	0.0
2025-01-15 07:52:19.817990	67.5	26.4	-82.6	0.0
2025-01-15 07:52:20.942271	67.8	26.4	-82.4	0.0
2025-01-15 07:52:22.065339	68.1	26.5	-82.6	0.0
2025-01-15 07:52:23.189037	68.4	26.6	-82.5	0.0
2025-01-15 07:52:24.312312	68.7	26.7	-82.4	0.0
2025-01-15 07:52:25.435453	69.1	26.7	-82.3	0.0
2025-01-15 07:52:26.561270	69.4	26.8	-82.3	0.0
2025-01-15 07:52:27.683715	69.7	26.9	-82.7	0.0
2025-01-15 07:52:28.805304	70.0	27.0	-82.5	0.0
2025-01-15 07:52:29.930224	70.3	27.0	-82.4	0.0
2025-01-15 07:52:31.054047	70.7	27.1	-82.5	0.0
2025-01-15 07:52:32.176960	71.0	27.2	-82.6	0.0
2025-01-15 07:52:33.300877	71.3	27.2	-82.4	0.0
2025-01-15 07:52:34.425804	71.6	27.3	-82.5	0.0
2025-01-15 07:52:35.549102	72.0	27.4	-82.6	0.0
2025-01-15 07:52:36.671424	72.3	27.4	-82.6	0.0
2025-01-15 07:52:37.797093	72.6	27.5	-82.6	0.0
2025-01-15 07:52:38.921592	73.0	27.6	-82.3	0.0
2025-01-15 07:52:40.045107	73.3	27.6	-82.4	0.0
2025-01-15 07:52:41.169521	73.6	27.7	-82.5	0.0
2025-01-15 07:52:42.293015	74.0	27.7	-82.6	0.0
2025-01-15 07:52:43.417805	74.3	27.8	-82.5	0.0
2025-01-15 07:52:44.539404	74.6	27.9	-82.5	0.0
2025-01-15 07:52:45.664696	75.0	27.9	-82.5	0.0
2025-01-15 07:52:46.788903	75.3	28.0	-82.6	0.0
2025-01-15 07:52:47.912441	75.6	28.0	-82.3	0.0
2025-01-15 07:52:49.034366	76.0	28.1	-82.5	0.0
2025-01-15 07:52:50.157195	76.3	28.1	-82.5	0.0
2025-01-15 07:52:51.282404	76.7	28.2	-82.6	0.0
2025-01-15 07:52:52.406567	77.0	28.2	-82.4	0.0
2025-01-15 07:52:53.529588	77.4	28.3	-82.4	0.0
2025-01-15 07:52:54.653161	77.7	28.3	-82.2	0.0
2025-01-15 07:52:55.775732	78.1	28.4	-82.3	0.0
2025-01-15 07:52:56.901898	78.4	28.4	-82.5	0.0
2025-01-15 07:52:58.024604	78.8	28.5	-82.4	0.0
2025-01-15 07:52:59.148582	79.1	28.5	-82.4	0.0
2025-01-15 07:53:00.272127	79.5	28.6	-82.3	0.0
2025-01-15 07:53:01.394109	79.8	28.6	-82.3	0.0
2025-01-15 07:53:02.518497	80.2	28.7	-82.1	0.0
2025-01-15 07:53:03.641223	80.5	28.7	-82.4	0.0
2025-01-15 07:53:04.765516	80.9	28.7	-82.2	0.0
2025-01-15 07:53:05.889553	81.3	28.8	-82.3	0.0
2025-01-15 07:53:07.013004	81.6	28.8	-82.3	0.0
2025-01-15 07:53:08.134936	82.0	28.9	-82.3	0.0
2025-01-15 07:53:09.257968	82.3	28.9	-82.5	0.0
2025-01-15 07:53:10.381612	82.7	28.9	-82.5	0.0
2025-01-15 07:53:11.507096	83.1	29.0	-82.4	0.0
2025-01-15 07:53:12.630558	83.4	29.0	-82.4	0.0
2025-01-15 07:53:13.753995	83.8	29.0	-82.1	0.0
2025-01-15 07:53:14.878507	84.2	29.1	-82.5	0.0
2025-01-15 07:53:16.002516	84.5	29.1	-82.3	0.0
2025-01-15 07:53:17.128042	84.9	29.1	-82.5	0.0
2025-01-15 07:53:18.249141	85.2	29.1	-82.5	0.0
2025-01-15 07:53:19.371841	85.6	29.2	-82.4	0.0
2025-01-15 07:53:20.496497	86.0	29.2	-82.4	0.0
2025-01-15 07:53:21.619993	86.3	29.2	-82.8	0.0
2025-01-15 07:53:22.742343	86.7	29.2	-82.5	0.0
2025-01-15 07:53:23.864433	87.1	29.2	-82.3	0.0
2025-01-15 07:53:24.987755	87.5	29.3	-82.3	0.0
2025-01-15 07:53:26.111222	87.8	29.3	-82.6	0.0
2025-01-15 07:53:27.234178	88.2	29.3	-82.6	0.0
2025-01-15 07:53:28.358830	88.6	29.3	-82.6	0.0
2025-01-15 07:53:29.480768	88.9	29.3	-82.3	0.0
2025-01-15 07:53:30.603980	89.3	29.3	-82.1	0.0
2025-01-15 07:53:31.725892	89.7	29.3	-82.5	0.0
2025-01-15 07:53:32.849694	90.0	29.4	-82.5	0.0
2025-01-15 07:53:33.973251	90.4	29.4	-82.7	0.0
2025-01-15 07:53:35.095458	90.8	29.4	-82.5	0.0
2025-01-15 07:53:36.217784	91.2	29.4	-82.6	0.0
2025-01-15 07:53:37.341167	91.5	29.4	-82.7	0.0
2025-01-15 07:53:38.463751	91.9	29.4	-82.3	0.0
2025-01-15 07:53:39.586691	92.3	29.4	-82.6	0.0
2025-01-15 07:53:40.709481	92.7	29.4	-82.5	0.0
2025-01-15 07:53:41.832158	93.0	29.4	-82.5	0.0
2025-01-15 07:53:42.960665	93.4	29.4	-82.7	0.0
2025-01-15 07:53:44.083809	93.8	29.4	-82.5	0.0
2025-01-15 07:53:45.207477	94.1	29.4	-82.9	0.0
2025-01-15 07:53:46.330949	94.5	29.4	-82.9	0.0
2025-01-15 07:53:47.453186	94.9	29.4	-82.6	0.0
2025-01-15 07:53:48.577851	95.3	29.4	-82.7	0.0
2025-01-15 07:53:49.700641	95.6	29.3	-82.7	0.0
2025-01-15 07:53:50.821830	96.0	29.3	-82.7	0.0
2025-01-15 07:53:51.944281	96.4	29.3	-82.5	0.0
2025-01-15 07:53:53.066134	96.7	29.3	-82.5	0.0
2025-01-15 07:53:54.188723	97.1	29.3	-82.5	0.0
2025-01-15 07:53:55.313004	97.5	29.3	-82.8	0.0
2025-01-15 07:53:56.434808	97.9	29.3	-82.6	0.0
2025-01-15 07:53:57.556871	98.2	29.2	-82.8	0.0
2025-01-15 07:53:58.682621	98.6	29.2	-82.7	0.0
2025-01-15 07:53:59.806104	99.0	29.2	-82.8	0.0
2025-01-15 07:54:00.927644	99.3	29.2	-82.8	0.0
2025-01-15 07:54:02.052852	99.7	29.2	-82.7	0.0
2025-01-15 07:54:03.175661	100.1	29.1	-82.7	0.0
2025-01-15 07:54:04.297060	100.4	29.1	-82.8	0.0
2025-01-15 07:54:05.420636	100.8	29.1	-82.7	0.0
2025-01-15 07:54:06.542289	101.2	29.0	-82.4	0.0
2025-01-15 07:54:07.664345	101.5	29.0	-82.4	0.0
2025-01-15 07:54:08.787140	101.9	29.0	-82.8	0.0
2025-01-15 07:54:09.910938	102.3	29.0	-82.9	0.0
2025-01-15 07:54:11.034347	102.6	28.9	-82.4	0.0
2025-01-15 07:54:12.158278	103.0	28.9	-82.5	0.0
2025-01-15 07:54:13.282805	103.3	28.8	-82.4	0.0
2025-01-15 07:54:14.407645	103.7	28.8	-82.6	0.0
2025-01-15 07:54:15.531721	104.1	28.8	-82.7	0.0
2025-01-15 07:54:16.653965	104.4	28.7	-82.7	0.0
2025-01-15 07:54:17.775702	104.8	28.7	-82.7	0.0
2025-01-15 07:54:18.896990	105.1	28.7	-82.8	0.0
2025-01-15 07:54:20.021164	105.5	28.6	-82.7	0.0
2025-01-15 07:54:21.143172	105.8	28.6	-82.8	0.0
2025-01-15 07:54:22.266733	106.2	28.5	-82.7	0.0
2025-01-15 07:54:23.393171	106.6	28.5	-82.7	0.0
2025-01-15 07:54:24.519066	106.9	28.4	-82.7	0.0
2025-01-15 07:54:25.644440	107.3	28.4	-82.5	0.0
2025-01-15 07:54:26.766214	107.6	28.3	-82.8	0.0
2025-01-15 07:54:27.887821	108.0	28.3	-82.7	0.0
2025-01-15 07:54:29.011132	108.3	28.2	-82.6	0.0
2025-01-15 07:54:30.131662	108.6	28.2	-82.7	0.0
2025-01-15 07:54:31.253865	109.0	28.1	-82.6	0.0
2025-01-15 07:54:32.376051	109.3	28.1	-82.5	0.0
2025-01-15 07:54:33.499377	109.7	28.0	-82.5	0.0
2025-01-15 07:54:34.621155	110.0	28.0	-82.8	0.0
2025-01-15 07:54:35.745600	110.4	27.9	-82.6	0.0
2025-01-15 07:54:36.869722	110.7	27.8	-82.7	0.0
2025-01-15 07:54:37.993928	111.0	27.8	-82.7	0.0
2025-01-15 07:54:39.114866	111.4	27.7	-82.9	0.0
2025-01-15 07:54:40.238139	111.7	27.7	-82.7	0.0
2025-01-15 07:54:41.361475	112.1	27.6	-82.6	0.0
2025-01-15 07:54:42.484320	112.4	27.5	-82.7	0.0
2025-01-15 07:54:43.606739	112.7	27.5	-82.7	0.0
2025-01-15 07:54:44.728274	113.1	27.4	-82.8	0.0
2025-01-15 07:54:45.850416	113.4	27.3	-82.7	0.0
2025-01-15 07:54:46.972848	113.7	27.3	-82.4	0.0
2025-01-15 07:54:48.094734	114.0	27.2	-82.6	0.0
2025-01-15 07:54:49.218040	114.4	27.1	-82.5	0.0
2025-01-15 07:54:50.344387	114.7	27.1	-82.6	0.0
2025-01-15 07:54:51.469223	115.0	27.0	-82.7	0.0
2025-01-15 07:54:52.593449	115.3	26.9	-82.7	0.0
2025-01-15 07:54:53.715248	115.7	26.9	-82.6	0.0
2025-01-15 07:54:54.838560	116.0	26.8	-82.5	0.0
2025-01-15 07:54:55.962134	116.3	26.7	-82.6	0.0
2025-01-15 07:54:57.086480	116.6	26.6	-82.5	0.0
2025-01-15 07:54:58.209317	116.9	26.6	-82.6	0.0
2025-01-15 07:54:59.333865	117.2	26.5	-82.7	0.0
2025-01-15 07:55:00.457033	117.6	26.4	-82.7	0.0
2025-01-15 07:55:01.579324	117.9	26.3	-82.9	0.0
2025-01-15 07:55:02.702339	118.2	26.3	-82.8	0.0
2025-01-15 07:55:03.827697	118.5	26.2	-82.7	0.0
2025-01-15 07:55:04.952747	118.8	26.1	-82.8	0.0
2025-01-15 07:55:06.075100	119.1	26.0	-82.8	0.0
2025-01-15 07:55:07.199025	119.4	25.9	-82.5	0.0
2025-01-15 07:55:08.322874	119.7	25.9	-82.7	0.0
2025-01-15 07:55:09.447928	120.0	25.8	-82.7	0.0
2025-01-15 07:55:10.573160	120.3	25.7	-82.7	0.0
2025-01-15 07:55:11.694643	120.6	25.6	-82.9	0.0
2025-01-15 07:55:12.817895	120.9	25.5	-82.9	0.0
2025-01-15 07:55:13.940381	121.2	25.5	-82.8	0.0
2025-01-15 07:55:15.063422	121.5	25.4	-82.6	0.0
2025-01-15 07:55:16.187077	121.8	25.3	-82.8	0.0
2025-01-15 07:55:17.311406	122.1	25.2	-82.8	0.0
2025-01-15 07:55:18.433859	122.3	25.1	-82.5	0.0
2025-01-15 07:55:19.557984	122.6	25.0	-82.5	0.0
2025-01-15 07:55:20.682984	122.9	24.9	-82.7	0.0
2025-01-15 07:55:21.807587	123.2	24.9	-82.8	0.0
2025-01-15 07:55:22.931651	123.5	24.8	-82.8	0.0
2025-01-15 07:55:24.054716	123.8	24.7	-82.4	0.0
2025-01-15 07:55:25.178526	124.0	24.6	-82.7	0.0
2025-01-15 07:55:26.301016	124.3	24.5	-82.6	0.0
2025-01-15 07:55:27.424183	124.6	24.4	-82.8	0.0
2025-01-15 07:55:28.547727	124.9	24.3	-82.8	0.0
2025-01-15 07:55:29.672874	125.1	24.2	-82.7	0.0
2025-01-15 07:55:30.796884	125.4	24.2	-82.5	0.0
2025-01-15 07:55:31.920851	125.7	24.1	-82.7	0.0
2025-01-15 07:55:33.044193	126.0	24.0	-82.6	0.0
2025-01-15 07:55:34.168030	126.2	23.9	-82.6	0.0
2025-01-15 07:55:35.294348	126.5	23.8	-82.6	0.0
2025-01-15 07:55:36.417392	126.8	23.7	-82.6	0.0
2025-01-15 07:55:37.540722	127.0	23.6	-82.8	0.0
2025-01-15 07:55:38.663021	127.3	23.5	-82.6	0.0
2025-01-15 07:55:39.788338	127.5	23.4	-82.5	0.0
2025-01-15 07:55:40.907480	127.8	23.3	-82.5	0.0
2025-01-15 07:55:42.030429	128.1	23.2	-82.7	0.0
2025-01-15 07:55:43.154723	128.3	23.1	-82.7	0.0
2025-01-15 07:55:44.280976	128.6	23.1	-82.7	0.0
2025-01-15 07:55:45.402870	128.8	23.0	-82.1	0.0
2025-01-15 07:55:46.524924	129.1	22.9	-82.7	0.0
2025-01-15 07:55:47.647325	129.3	22.8	-82.5	0.0
2025-01-15 07:55:48.769912	129.6	22.7	-82.7	0.0
2025-01-15 07:55:49.893658	129.8	22.6	-82.4	0.0
2025-01-15 07:55:51.017473	130.1	22.5	-82.4	0.0
2025-01-15 07:55:52.142278	130.3	22.4	-82.5	0.0
2025-01-15 07:55:53.264544	130.5	22.3	-82.3	0.0
2025-01-15 07:55:54.386546	130.8	22.2	-82.5	0.0
2025-01-15 07:55:55.511157	131.0	22.1	-82.1	0.0
2025-01-15 07:55:56.634934	131.3	22.0	-82.5	0.0
2025-01-15 07:55:57.760801	131.5	21.9	-82.0	0.0
2025-01-15 07:55:58.885054	131.7	21.8	-82.4	0.0
2025-01-15 07:56:00.007901	132.0	21.7	-82.3	0.0
2025-01-15 07:56:01.130658	132.2	21.6	-82.2	0.0
2025-01-15 07:56:02.252781	132.4	21.5	-82.6	0.0
2025-01-15 07:56:03.378489	132.7	21.4	-82.4	0.0
2025-01-15 07:56:04.500937	132.9	21.3	-82.4	0.0
2025-01-15 07:56:05.626051	133.1	21.2	-82.2	0.0
2025-01-15 07:56:06.751536	133.3	21.1	-82.2	0.0
2025-01-15 07:56:07.873741	133.6	21.1	-82.3	0.0
2025-01-15 07:56:08.995752	133.8	21.0	-82.2	0.0
2025-01-15 07:56:10.120873	134.0	20.9	-82.2	0.0
2025-01-15 07:56:11.243861	134.2	20.8	-82.4	0.0
2025-01-15 07:56:12.365626	134.5	20.7	-82.6	0.0
2025-01-15 07:56:13.487899	134.7	20.6	-82.4	0.0
2025-01-15 07:56:14.611408	134.9	20.5	-82.3	0.0
2025-01-15 07:56:15.733435	135.1	20.4	-82.7	0.0
2025-01-15 07:56:16.854614	135.3	20.3	-82.8	0.0
2025-01-15 07:56:17.976113	135.5	20.2	-82.7	0.0
2025-01-15 07:56:19.100710	135.7	20.1	-82.4	0.0
2025-01-15 07:56:20.224707	135.9	20.0	-82.4	0.0
2025-01-15 07:56:21.347513	136.2	19.9	-82.3	0.0
2025-01-15 07:56:22.470730	136.4	19.8	-82.9	0.0
2025-01-15 07:56:23.594985	136.6	19.7	-82.8	0.0
2025-01-15 07:56:24.719301	136.8	19.6	-82.7	0.0
2025-01-15 07:56:25.841665	137.0	19.5	-82.8	0.0
2025-01-15 07:56:26.962556	137.2	19.4	-82.6	0.0
2025-01-15 07:56:28.085700	137.4	19.3	-82.8	0.0
2025-01-15 07:56:29.210654	137.6	19.2	-82.5	0.0
2025-01-15 07:56:30.332144	137.8	19.1	-82.5	0.0
2025-01-15 07:56:31.454782	138.0	19.0	-82.7	0.0
2025-01-15 07:56:32.577869	138.2	18.9	-82.7	0.0
2025-01-15 07:56:33.700370	138.4	18.8	-82.7	0.0
2025-01-15 07:56:34.823465	138.6	18.7	-82.7	0.0
2025-01-15 07:56:35.946253	138.8	18.6	-82.5	0.0
2025-01-15 07:56:37.069892	138.9	18.5	-82.4	0.0
2025-01-15 07:56:38.193733	139.1	18.4	-82.5	0.0
2025-01-15 07:56:39.314873	139.3	18.3	-82.6	0.0
2025-01-15 07:56:40.437457	139.5	18.2	-82.9	0.0
2025-01-15 07:56:41.562903	139.7	18.2	-82.6	0.0
2025-01-15 07:56:42.683890	139.9	18.1	-82.9	0.0
2025-01-15 07:56:43.810082	140.1	18.0	-83.0	0.0
2025-01-15 07:56:44.933270	140.2	17.9	-82.8	0.0
2025-01-15 07:56:46.054733	140.4	17.8	-82.6	0.0
2025-01-15 07:56:47.178097	140.6	17.7	-82.2	0.0
2025-01-15 07:56:48.302069	140.8	17.6	-82.7	0.0
2025-01-15 07:56:49.423041	141.0	17.5	-82.8	0.0
2025-01-15 07:56:50.546628	141.1	17.4	-82.7	0.0
2025-01-15 07:56:51.672690	141.3	17.3	-82.5	0.0
2025-01-15 07:56:52.796101	141.5	17.2	-82.9	0.0
2025-01-15 07:56:53.917379	141.7	17.1	-82.7	0.0
2025-01-15 07:56:55.039080	141.8	17.0	-82.6	0.0
2025-01-15 07:56:56.162068	142.0	16.9	-82.8	0.0
2025-01-15 07:56:57.284524	142.2	16.8	-82.8	0.0
2025-01-15 07:56:58.407768	142.4	16.7	-82.4	0.0
2025-01-15 07:56:59.530341	142.5	16.6	-82.5	0.0
2025-01-15 07:57:00.654550	142.7	16.5	-82.6	0.0
2025-01-15 07:57:01.777952	142.9	16.4	-82.4	0.0
2025-01-15 07:57:02.901412	143.0	16.3	-82.4	0.0
2025-01-15 07:57:04.025373	143.2	16.3	-82.4	0.0
2025-01-15 07:57:05.148949	143.4	16.2	-82.2	0.0
2025-01-15 07:57:06.273659	143.5	16.1	-82.5	0.0
2025-01-15 07:57:07.396895	143.7	16.0	-82.1	0.0
2025-01-15 07:57:08.520242	143.9	15.9	-82.1	0.0
2025-01-15 07:57:09.643842	144.0	15.8	-82.1	0.0
2025-01-15 07:57:10.765912	144.2	15.7	-82.2	0.0
2025-01-15 07:57:11.889889	144.3	15.6	-82.3	0.0
2025-01-15 07:57:13.014853	144.5	15.5	-82.4	0.0
2025-01-15 07:57:14.138640	144.6	15.4	-82.5	0.0
2025-01-15 07:57:15.262007	144.8	15.3	-82.3	0.0
2025-01-15 07:57:16.386232	145.0	15.2	-82.5	0.0
2025-01-15 07:57:17.509862	145.1	15.1	-82.7	0.0
2025-01-15 07:57:18.633510	145.3	15.0	-82.7	0.0
2025-01-15 07:57:19.757972	145.4	15.0	-82.4	0.0
2025-01-15 07:57:20.883502	145.6	14.9	-82.6	0.0
2025-01-15 07:57:22.006676	145.7	14.8	-82.5	0.0
2025-01-15 07:57:23.129547	145.9	14.7	-82.7	0.0
2025-01-15 07:57:24.252497	146.0	14.6	-82.8	0.0
2025-01-15 07:57:25.377374	146.2	14.5	-82.7	0.0
2025-01-15 07:57:26.500234	146.3	14.4	-82.7	0.0
2025-01-15 07:57:27.622714	146.5	14.3	-82.5	0.0
2025-01-15 07:57:28.745521	146.6	14.2	-82.5	0.0
2025-01-15 07:57:29.868515	146.7	14.1	-82.6	0.0
2025-01-15 07:57:30.993798	146.9	14.0	-82.7	0.0
2025-01-15 07:57:32.115628	147.0	13.9	-82.5	0.0
2025-01-15 07:57:33.238773	147.2	13.9	-82.7	0.0
2025-01-15 07:57:34.362453	147.3	13.8	-82.9	0.0
2025-01-15 07:57:35.487011	147.5	13.7	-82.6	0.0
2025-01-15 07:57:36.611479	147.6	13.6	-82.7	0.0
2025-01-15 07:57:37.735884	147.7	13.5	-82.7	0.0
2025-01-15 07:57:38.858638	147.9	13.4	-82.6	0.0
2025-01-15 07:57:39.981470	148.0	13.3	-82.9	0.0
2025-01-15 07:57:41.103983	148.1	13.2	-82.9	0.0
2025-01-15 07:57:42.227745	148.3	13.1	-82.9	0.0
2025-01-15 07:57:43.351872	148.4	13.1	-82.9	0.0
2025-01-15 07:57:44.473547	148.5	13.0	-82.8	0.0
2025-01-15 07:57:45.599068	148.7	12.9	-82.4	0.0
2025-01-15 07:57:46.723135	148.8	12.8	-82.4	0.0
2025-01-15 07:57:47.849316	148.9	12.7	-83.0	0.0
2025-01-15 07:57:48.970732	149.1	12.6	-82.7	0.0
2025-01-15 07:57:50.097369	149.2	12.5	-82.8	0.0
2025-01-15 07:57:51.219673	149.3	12.4	-82.9	0.0
2025-01-15 07:57:52.341833	149.5	12.4	-82.8	0.0
2025-01-15 07:57:53.468113	149.6	12.3	-82.6	0.0
2025-01-15 07:57:54.590621	149.7	12.2	-83.1	0.0
2025-01-15 07:57:55.714587	149.8	12.1	-82.9	0.0
2025-01-15 07:57:56.836156	150.0	12.0	-83.0	0.0
2025-01-15 07:57:57.958458	150.1	11.9	-83.0	0.0
2025-01-15 07:57:59.084056	150.2	11.8	-82.8	0.0
2025-01-15 07:58:00.204674	150.3	11.8	-82.8	0.0
2025-01-15 07:58:01.328345	150.5	11.7	-83.0	0.0
2025-01-15 07:58:02.450313	150.6	11.6	-82.8	0.0
2025-01-15 07:58:03.572904	150.7	11.5	-82.8	0.0
2025-01-15 07:58:04.696047	150.8	11.4	-83.0	0.0
2025-01-15 07:58:05.821699	150.9	11.3	-82.7	0.0
2025-01-15 07:58:06.942179	151.1	11.2	-82.9	0.0
2025-01-15 07:58:08.064990	151.2	11.2	-83.0	0.0
2025-01-15 07:58:09.189800	151.3	11.1	-82.9	0.0
2025-01-15 07:58:10.313681	151.4	11.0	-82.8	0.0
2025-01-15 07:58:11.437671	151.5	10.9	-82.8	0.0
2025-01-15 07:58:12.560335	151.7	10.8	-82.9	0.0
2025-01-15 07:58:13.683291	151.8	10.7	-82.6	0.0
2025-01-15 07:58:14.805383	151.9	10.7	-82.9	0.0
2025-01-15 07:58:15.928666	152.0	10.6	-83.0	0.0
2025-01-15 07:58:17.050993	152.1	10.5	-83.0	0.0
2025-01-15 07:58:18.172623	152.2	10.4	-82.8	0.0
2025-01-15 07:58:19.296666	152.3	10.3	-82.4	0.0
2025-01-15 07:58:20.420872	152.4	10.2	-82.6	0.0
2025-01-15 07:58:21.544159	152.6	10.2	-82.5	0.0
2025-01-15 07:58:22.669095	152.7	10.1	-82.9	0.0
#Closed at: 2025-01-15 07:48:49.301770