passes_logs/2025/01/15/planumMaritime01/planumMaritime01__20250115_192212_NOAA_18_rec.log

#Pass ID: 20250115_192212_NOAA 18
#Satellite: NOAA 18
#Configuration: NOAA 18
#Start time: 2025-01-15 19:22:17.818066

#LorettStation: 1.0.0 05.05.2024
#Station: planumMaritime01
#Location: 37.49445 lon 55.92918 lat
#TLE: 1 28654U 05018A   25015.16278545  .00000300  00000+0  18295-3 0  9990
#TLE: 2 28654  98.8567  96.2156 0014367 178.7074 181.4138 14.13486503 13201

#Time	Az	El	Level	SNR
2025-01-15 19:22:19.970985	164.0	10.2	-80.1	0.0
2025-01-15 19:22:21.095961	164.0	10.3	-79.5	0.0
2025-01-15 19:22:22.218579	164.0	10.4	-80.1	0.0
2025-01-15 19:22:23.341671	164.1	10.5	-79.7	0.0
2025-01-15 19:22:24.465194	164.1	10.6	-79.8	0.0
2025-01-15 19:22:25.588768	164.1	10.7	-79.7	0.0
2025-01-15 19:22:26.713526	164.1	10.8	-80.2	0.0
2025-01-15 19:22:27.836110	164.1	10.9	-79.8	0.0
2025-01-15 19:22:28.959876	164.1	11.0	-79.4	0.0
2025-01-15 19:22:30.083015	164.1	11.1	-80.1	0.0
2025-01-15 19:22:31.206940	164.1	11.2	-79.7	0.0
2025-01-15 19:22:32.329740	164.1	11.3	-79.8	0.0
2025-01-15 19:22:33.455469	164.2	11.4	-80.3	0.0
2025-01-15 19:22:34.578036	164.2	11.5	-80.1	0.0
2025-01-15 19:22:35.700324	164.2	11.6	-79.9	0.0
2025-01-15 19:22:36.826226	164.2	11.7	-80.3	0.0
2025-01-15 19:22:37.951834	164.2	11.8	-80.2	0.0
2025-01-15 19:22:39.074942	164.2	11.9	-80.2	0.0
2025-01-15 19:22:40.200353	164.2	12.0	-80.5	0.0
2025-01-15 19:22:41.325066	164.2	12.1	-80.1	0.0
2025-01-15 19:22:42.447387	164.2	12.2	-80.1	0.0
2025-01-15 19:22:43.569725	164.3	12.3	-79.9	0.0
2025-01-15 19:22:44.691704	164.3	12.4	-80.4	0.0
2025-01-15 19:22:45.815380	164.3	12.5	-80.4	0.0
2025-01-15 19:22:46.938789	164.3	12.6	-80.4	0.0
2025-01-15 19:22:48.060985	164.3	12.7	-80.1	0.0
2025-01-15 19:22:49.183085	164.3	12.9	-79.8	0.0
2025-01-15 19:22:50.306409	164.3	13.0	-80.5	0.0
2025-01-15 19:22:51.430112	164.3	13.1	-80.3	0.0
2025-01-15 19:22:52.551929	164.4	13.2	-80.6	0.0
2025-01-15 19:22:53.672906	164.4	13.3	-80.3	0.0
2025-01-15 19:22:54.795984	164.4	13.4	-80.2	0.0
2025-01-15 19:22:55.917800	164.4	13.5	-80.3	0.0
2025-01-15 19:22:57.040987	164.4	13.6	-80.0	0.0
2025-01-15 19:22:58.163670	164.4	13.7	-80.2	0.0
2025-01-15 19:22:59.285637	164.4	13.8	-79.8	0.0
2025-01-15 19:23:00.406749	164.4	14.0	-79.9	0.0
2025-01-15 19:23:01.529017	164.5	14.1	-80.2	0.0
2025-01-15 19:23:02.651150	164.5	14.2	-80.2	0.0
2025-01-15 19:23:03.774644	164.5	14.3	-80.0	0.0
2025-01-15 19:23:04.896572	164.5	14.4	-79.8	0.0
2025-01-15 19:23:06.018688	164.5	14.5	-80.4	0.0
2025-01-15 19:23:07.140252	164.5	14.6	-80.1	0.0
2025-01-15 19:23:08.264389	164.5	14.8	-80.2	0.0
2025-01-15 19:23:09.388147	164.6	14.9	-80.1	0.0
2025-01-15 19:23:10.510379	164.6	15.0	-80.2	0.0
2025-01-15 19:23:11.632773	164.6	15.1	-80.1	0.0
2025-01-15 19:23:12.755174	164.6	15.2	-80.0	0.0
2025-01-15 19:23:13.878620	164.6	15.4	-80.2	0.0
2025-01-15 19:23:15.001881	164.6	15.5	-80.1	0.0
2025-01-15 19:23:16.125515	164.6	15.6	-80.9	0.0
2025-01-15 19:23:17.247729	164.7	15.7	-80.8	0.0
2025-01-15 19:23:18.370648	164.7	15.8	-80.7	0.0
2025-01-15 19:23:19.493917	164.7	16.0	-80.5	0.0
2025-01-15 19:23:20.614642	164.7	16.1	-80.5	0.0
2025-01-15 19:23:21.737176	164.7	16.2	-80.8	0.0
2025-01-15 19:23:22.861360	164.7	16.3	-80.4	0.0
2025-01-15 19:23:23.982576	164.7	16.5	-80.0	0.0
2025-01-15 19:23:25.106812	164.8	16.6	-80.5	0.0
2025-01-15 19:23:26.230380	164.8	16.7	-80.7	0.0
2025-01-15 19:23:27.353146	164.8	16.8	-80.7	0.0
2025-01-15 19:23:28.475755	164.8	17.0	-80.5	0.0
2025-01-15 19:23:29.598987	164.8	17.1	-80.2	0.0
2025-01-15 19:23:30.724757	164.8	17.2	-80.5	0.0
2025-01-15 19:23:31.848167	164.8	17.4	-79.8	0.0
2025-01-15 19:23:32.969255	164.9	17.5	-80.2	0.0
2025-01-15 19:23:34.094937	164.9	17.6	-80.4	0.0
2025-01-15 19:23:35.219171	164.9	17.7	-80.0	0.0
2025-01-15 19:23:36.340547	164.9	17.9	-80.0	0.0
2025-01-15 19:23:37.463548	164.9	18.0	-80.2	0.0
2025-01-15 19:23:38.585838	164.9	18.1	-80.4	0.0
2025-01-15 19:23:39.710599	165.0	18.3	-80.1	0.0
2025-01-15 19:23:40.834968	165.0	18.4	-80.2	0.0
2025-01-15 19:23:41.958505	165.0	18.5	-80.6	0.0
2025-01-15 19:23:43.082310	165.0	18.7	-80.1	0.0
2025-01-15 19:23:44.205557	165.0	18.8	-80.3	0.0
2025-01-15 19:23:45.328131	165.0	19.0	-80.1	0.0
2025-01-15 19:23:46.451237	165.1	19.1	-80.4	0.0
2025-01-15 19:23:47.573545	165.1	19.2	-80.5	0.0
2025-01-15 19:23:48.695514	165.1	19.4	-80.3	0.0
2025-01-15 19:23:49.818595	165.1	19.5	-80.5	0.0
2025-01-15 19:23:50.940736	165.1	19.7	-80.6	0.0
2025-01-15 19:23:52.064872	165.1	19.8	-80.4	0.0
2025-01-15 19:23:53.188714	165.2	19.9	-80.5	0.0
2025-01-15 19:23:54.312042	165.2	20.1	-80.5	0.0
2025-01-15 19:23:55.437140	165.2	20.2	-80.6	0.0
2025-01-15 19:23:56.559789	165.2	20.4	-80.4	0.0
2025-01-15 19:23:57.681803	165.2	20.5	-80.9	0.0
2025-01-15 19:23:58.806078	165.2	20.7	-80.6	0.0
2025-01-15 19:23:59.929220	165.3	20.8	-80.7	0.0
2025-01-15 19:24:01.052656	165.3	21.0	-80.9	0.0
2025-01-15 19:24:02.174999	165.3	21.1	-80.7	0.0
2025-01-15 19:24:03.298706	165.3	21.3	-80.7	0.0
2025-01-15 19:24:04.420751	165.3	21.4	-80.7	0.0
2025-01-15 19:24:05.542583	165.4	21.6	-80.4	0.0
2025-01-15 19:24:06.665089	165.4	21.7	-80.6	0.0
2025-01-15 19:24:07.786925	165.4	21.9	-80.3	0.0
2025-01-15 19:24:08.910433	165.4	22.0	-80.8	0.0
2025-01-15 19:24:10.033570	165.4	22.2	-80.3	0.0
2025-01-15 19:24:11.154078	165.5	22.4	-80.1	0.0
2025-01-15 19:24:12.275034	165.5	22.5	-80.2	0.0
2025-01-15 19:24:13.399517	165.5	22.7	-80.3	0.0
2025-01-15 19:24:14.521934	165.5	22.8	-80.7	0.0
2025-01-15 19:24:15.646681	165.5	23.0	-80.3	0.0
2025-01-15 19:24:16.768875	165.6	23.2	-80.5	0.0
2025-01-15 19:24:17.891219	165.6	23.3	-80.4	0.0
2025-01-15 19:24:19.012151	165.6	23.5	-80.5	0.0
2025-01-15 19:24:20.132873	165.6	23.7	-80.8	0.0
2025-01-15 19:24:21.257163	165.6	23.8	-80.7	0.0
2025-01-15 19:24:22.380016	165.7	24.0	-80.7	0.0
2025-01-15 19:24:23.502670	165.7	24.2	-80.7	0.0
2025-01-15 19:24:24.628306	165.7	24.3	-80.6	0.0
2025-01-15 19:24:25.752009	165.7	24.5	-80.8	0.0
2025-01-15 19:24:26.872416	165.8	24.7	-80.9	0.0
2025-01-15 19:24:27.995234	165.8	24.8	-80.8	0.0
2025-01-15 19:24:29.118720	165.8	25.0	-80.3	0.0
2025-01-15 19:24:30.240639	165.8	25.2	-81.0	0.0
2025-01-15 19:24:31.365760	165.9	25.4	-80.7	0.0
2025-01-15 19:24:32.488933	165.9	25.6	-80.8	0.0
2025-01-15 19:24:33.613644	165.9	25.7	-80.9	0.0
2025-01-15 19:24:34.735280	165.9	25.9	-80.8	0.0
2025-01-15 19:24:35.858030	165.9	26.1	-80.8	0.0
2025-01-15 19:24:36.981756	166.0	26.3	-80.9	0.0
2025-01-15 19:24:38.104990	166.0	26.5	-80.6	0.0
2025-01-15 19:24:39.227518	166.0	26.6	-80.7	0.0
2025-01-15 19:24:40.350435	166.0	26.8	-80.4	0.0
2025-01-15 19:24:41.474477	166.1	27.0	-80.4	0.0
2025-01-15 19:24:42.598711	166.1	27.2	-80.8	0.0
2025-01-15 19:24:43.721388	166.1	27.4	-80.7	0.0
2025-01-15 19:24:44.843527	166.2	27.6	-80.7	0.0
2025-01-15 19:24:45.964368	166.2	27.8	-81.0	0.0
2025-01-15 19:24:47.087257	166.2	28.0	-80.2	0.0
2025-01-15 19:24:48.209258	166.2	28.2	-80.4	0.0
2025-01-15 19:24:49.332655	166.3	28.4	-80.7	0.0
2025-01-15 19:24:50.455563	166.3	28.6	-80.8	0.0
2025-01-15 19:24:51.579522	166.3	28.8	-80.7	0.0
2025-01-15 19:24:52.702768	166.3	29.0	-80.8	0.0
2025-01-15 19:24:53.825047	166.4	29.2	-80.0	0.0
2025-01-15 19:24:54.948737	166.4	29.4	-80.3	0.0
2025-01-15 19:24:56.073108	166.4	29.6	-80.1	0.0
2025-01-15 19:24:57.199747	166.5	29.8	-80.7	0.0
2025-01-15 19:24:58.321005	166.5	30.0	-80.5	0.0
2025-01-15 19:24:59.442058	166.5	30.2	-79.9	0.0
2025-01-15 19:25:00.565623	166.6	30.4	-80.9	0.0
2025-01-15 19:25:01.687085	166.6	30.6	-80.7	0.0
2025-01-15 19:25:02.809324	166.6	30.8	-80.8	0.0
2025-01-15 19:25:03.933744	166.6	31.1	-81.1	0.0
2025-01-15 19:25:05.056710	166.7	31.3	-81.1	0.0
2025-01-15 19:25:06.179512	166.7	31.5	-80.8	0.0
2025-01-15 19:25:07.304918	166.7	31.7	-80.6	0.0
2025-01-15 19:25:08.427721	166.8	31.9	-80.9	0.0
2025-01-15 19:25:09.550065	166.8	32.2	-80.8	0.0
2025-01-15 19:25:10.672436	166.8	32.4	-80.8	0.0
2025-01-15 19:25:11.793758	166.9	32.6	-80.5	0.0
2025-01-15 19:25:12.917506	166.9	32.8	-80.8	0.0
2025-01-15 19:25:14.041141	167.0	33.1	-80.7	0.0
2025-01-15 19:25:15.165762	167.0	33.3	-80.4	0.0
2025-01-15 19:25:16.288422	167.0	33.5	-80.8	0.0
2025-01-15 19:25:17.411218	167.1	33.8	-80.7	0.0
2025-01-15 19:25:18.535882	167.1	34.0	-80.7	0.0
2025-01-15 19:25:19.656025	167.1	34.3	-80.9	0.0
2025-01-15 19:25:20.779135	167.2	34.5	-80.6	0.0
2025-01-15 19:25:21.903307	167.2	34.7	-80.5	0.0
2025-01-15 19:25:23.026983	167.3	35.0	-80.5	0.0
2025-01-15 19:25:24.148756	167.3	35.2	-80.6	0.0
2025-01-15 19:25:25.270400	167.3	35.5	-80.7	0.0
2025-01-15 19:25:26.393922	167.4	35.7	-80.8	0.0
2025-01-15 19:25:27.517046	167.4	36.0	-80.9	0.0
2025-01-15 19:25:28.640314	167.5	36.2	-80.7	0.0
2025-01-15 19:25:29.763677	167.5	36.5	-80.6	0.0
2025-01-15 19:25:30.887917	167.5	36.8	-80.6	0.0
2025-01-15 19:25:32.012269	167.6	37.0	-80.8	0.0
2025-01-15 19:25:33.134325	167.6	37.3	-80.9	0.0
2025-01-15 19:25:34.256685	167.7	37.6	-80.8	0.0
2025-01-15 19:25:35.378721	167.7	37.8	-80.6	0.0
2025-01-15 19:25:36.500902	167.8	38.1	-81.2	0.0
2025-01-15 19:25:37.625538	167.8	38.4	-80.7	0.0
2025-01-15 19:25:38.748875	167.9	38.6	-80.8	0.0
2025-01-15 19:25:39.870104	167.9	38.9	-80.9	0.0
2025-01-15 19:25:40.994103	168.0	39.2	-80.9	0.0
2025-01-15 19:25:42.118183	168.0	39.5	-80.7	0.0
2025-01-15 19:25:43.245010	168.1	39.8	-80.9	0.0
2025-01-15 19:25:44.367926	168.1	40.0	-80.7	0.0
2025-01-15 19:25:45.492064	168.2	40.3	-80.7	0.0
2025-01-15 19:25:46.613900	168.2	40.6	-80.5	0.0
2025-01-15 19:25:47.737803	168.3	40.9	-80.5	0.0
2025-01-15 19:25:48.860095	168.3	41.2	-80.4	0.0
2025-01-15 19:25:49.981771	168.4	41.5	-80.6	0.0
2025-01-15 19:25:51.106413	168.5	41.8	-80.3	0.0
2025-01-15 19:25:52.230636	168.5	42.1	-80.3	0.0
2025-01-15 19:25:53.354340	168.6	42.4	-80.5	0.0
2025-01-15 19:25:54.475260	168.6	42.7	-80.4	0.0
2025-01-15 19:25:55.598334	168.7	43.0	-80.3	0.4
2025-01-15 19:25:56.721678	168.8	43.3	-80.5	0.3
2025-01-15 19:25:57.844746	168.8	43.6	-80.5	0.0
2025-01-15 19:25:58.969710	168.9	44.0	-80.0	0.0
2025-01-15 19:26:00.092818	169.0	44.3	-80.4	0.9
2025-01-15 19:26:01.216651	169.0	44.6	-80.4	1.1
2025-01-15 19:26:02.338328	169.1	44.9	-80.0	0.0
2025-01-15 19:26:03.461373	169.2	45.3	-80.4	0.8
2025-01-15 19:26:04.584181	169.2	45.6	-80.4	1.5
2025-01-15 19:26:05.707154	169.3	45.9	-80.4	2.5
2025-01-15 19:26:06.831430	169.4	46.2	-80.2	2.5
2025-01-15 19:26:07.955174	169.5	46.6	-80.0	2.5
2025-01-15 19:26:09.079824	169.6	46.9	-80.1	3.4
2025-01-15 19:26:10.200873	169.6	47.3	-80.2	4.4
2025-01-15 19:26:11.322170	169.7	47.6	-79.8	3.9
2025-01-15 19:26:12.444361	169.8	48.0	-80.2	3.8
2025-01-15 19:26:13.567014	169.9	48.3	-80.0	3.8
2025-01-15 19:26:14.690701	170.0	48.7	-80.2	3.3
2025-01-15 19:26:15.812618	170.1	49.0	-80.1	3.1
2025-01-15 19:26:16.933709	170.1	49.4	-79.8	3.7
2025-01-15 19:26:18.056732	170.2	49.7	-80.3	3.0
2025-01-15 19:26:19.180719	170.3	50.1	-79.9	3.4
2025-01-15 19:26:20.304040	170.4	50.5	-79.7	3.9
2025-01-15 19:26:21.427743	170.5	50.8	-79.8	3.2
2025-01-15 19:26:22.549600	170.6	51.2	-80.0	3.2
2025-01-15 19:26:23.673133	170.7	51.6	-80.0	2.6
2025-01-15 19:26:24.795930	170.9	52.0	-80.1	2.7
2025-01-15 19:26:25.916596	171.0	52.4	-80.2	2.5
2025-01-15 19:26:27.040071	171.1	52.7	-80.2	2.3
2025-01-15 19:26:28.161925	171.2	53.1	-79.7	0.9
2025-01-15 19:26:29.284285	171.3	53.5	-80.4	0.0
2025-01-15 19:26:30.406450	171.4	53.9	-80.3	0.0
2025-01-15 19:26:31.531853	171.6	54.3	-80.1	0.0
2025-01-15 19:26:32.654826	171.7	54.7	-80.8	0.0
2025-01-15 19:26:33.776963	171.8	55.1	-80.5	0.0
2025-01-15 19:26:34.901895	172.0	55.5	-80.4	0.0
2025-01-15 19:26:36.025784	172.1	55.9	-80.3	0.0
2025-01-15 19:26:37.148776	172.2	56.3	-80.5	0.0
2025-01-15 19:26:38.270330	172.4	56.7	-80.7	0.0
2025-01-15 19:26:39.393347	172.5	57.2	-80.3	0.0
2025-01-15 19:26:40.515718	172.7	57.6	-80.2	0.0
2025-01-15 19:26:41.639623	172.9	58.0	-80.6	0.0
2025-01-15 19:26:42.762391	173.0	58.4	-81.0	0.0
2025-01-15 19:26:43.886860	173.2	58.9	-80.5	0.0
2025-01-15 19:26:45.011249	173.4	59.3	-81.0	0.0
2025-01-15 19:26:46.134393	173.6	59.7	-81.0	0.0
2025-01-15 19:26:47.257128	173.7	60.2	-80.4	0.0
2025-01-15 19:26:48.381230	173.9	60.6	-80.8	0.0
2025-01-15 19:26:49.503825	174.1	61.0	-81.0	0.0
2025-01-15 19:26:50.625393	174.4	61.5	-80.7	0.0
2025-01-15 19:26:51.751781	174.6	61.9	-80.5	0.0
2025-01-15 19:26:52.875394	174.8	62.4	-80.6	0.0
2025-01-15 19:26:53.999573	175.0	62.8	-80.7	2.1
2025-01-15 19:26:55.123271	175.3	63.3	-80.4	1.5
2025-01-15 19:26:56.246502	175.5	63.7	-80.0	2.1
2025-01-15 19:26:57.369065	175.8	64.2	-80.0	4.9
2025-01-15 19:26:58.492157	176.1	64.7	-79.5	5.7
2025-01-15 19:26:59.613507	176.3	65.1	-79.0	6.5
2025-01-15 19:27:00.739219	176.6	65.6	-78.9	7.9
2025-01-15 19:27:01.863413	177.0	66.1	-78.2	8.5
2025-01-15 19:27:02.986616	177.3	66.5	-78.1	9.1
2025-01-15 19:27:04.109260	177.6	67.0	-78.5	10.3
2025-01-15 19:27:05.233848	178.0	67.5	-78.2	10.8
2025-01-15 19:27:06.357204	178.3	68.0	-78.0	11.0
2025-01-15 19:27:07.478952	178.7	68.4	-77.3	12.0
2025-01-15 19:27:08.602445	179.1	68.9	-77.3	12.7
2025-01-15 19:27:09.726965	179.5	69.4	-77.0	12.8
2025-01-15 19:27:10.851749	180.0	69.9	-77.1	12.8
2025-01-15 19:27:11.975032	180.5	70.4	-76.9	13.2
2025-01-15 19:27:13.096736	181.0	70.8	-77.0	13.7
2025-01-15 19:27:14.221998	181.5	71.3	-77.0	14.3
2025-01-15 19:27:15.344988	182.0	71.8	-76.7	14.5
2025-01-15 19:27:16.468092	182.6	72.3	-76.3	15.1
2025-01-15 19:27:17.591797	183.2	72.8	-76.5	15.4
2025-01-15 19:27:18.713866	183.9	73.3	-76.5	14.7
2025-01-15 19:27:19.837664	184.6	73.8	-76.6	14.8
2025-01-15 19:27:20.960876	185.3	74.3	-76.7	14.0
2025-01-15 19:27:22.085275	186.1	74.7	-76.9	14.5
2025-01-15 19:27:23.208218	187.0	75.2	-76.5	13.9
2025-01-15 19:27:24.330625	187.9	75.7	-76.1	15.0
2025-01-15 19:27:25.454328	188.8	76.2	-76.2	14.2
2025-01-15 19:27:26.577217	189.9	76.7	-76.6	14.7
2025-01-15 19:27:27.702006	191.0	77.1	-76.7	14.8
2025-01-15 19:27:28.826894	192.2	77.6	-76.6	12.7
2025-01-15 19:27:29.949875	193.5	78.1	-77.0	13.9
2025-01-15 19:27:31.072204	194.9	78.6	-77.0	15.0
2025-01-15 19:27:32.194717	196.5	79.0	-76.8	14.0
2025-01-15 19:27:33.317215	198.1	79.5	-77.0	13.8
2025-01-15 19:27:34.438740	199.9	79.9	-77.4	13.2
2025-01-15 19:27:35.560105	201.9	80.3	-77.8	13.3
2025-01-15 19:27:36.682764	204.1	80.7	-77.8	13.0
2025-01-15 19:27:37.805737	206.5	81.2	-77.7	12.3
2025-01-15 19:27:38.928246	209.1	81.5	-77.7	12.3
2025-01-15 19:27:40.052201	211.9	81.9	-77.9	11.3
2025-01-15 19:27:41.174870	215.0	82.3	-78.3	11.2
2025-01-15 19:27:42.299990	218.5	82.6	-78.1	11.3
2025-01-15 19:27:43.420088	222.2	82.9	-77.9	11.6
2025-01-15 19:27:44.542324	226.2	83.2	-78.3	11.6
2025-01-15 19:27:45.665057	230.5	83.4	-77.9	11.7
2025-01-15 19:27:46.785914	235.1	83.6	-77.7	11.8
2025-01-15 19:27:47.908254	240.0	83.7	-77.9	11.0
2025-01-15 19:27:49.030626	245.0	83.8	-78.0	10.3
2025-01-15 19:27:50.152629	250.2	83.9	-78.3	9.9
2025-01-15 19:27:51.275007	255.5	83.9	-78.2	11.2
2025-01-15 19:27:52.398979	260.7	83.8	-78.6	9.7
2025-01-15 19:27:53.523769	265.8	83.7	-78.5	10.4
2025-01-15 19:27:54.646362	270.7	83.6	-78.8	10.2
2025-01-15 19:27:55.769345	275.3	83.4	-79.0	8.7
2025-01-15 19:27:56.892877	279.6	83.2	-79.3	7.7
2025-01-15 19:27:58.015165	283.7	82.9	-79.5	6.8
2025-01-15 19:27:59.139394	287.4	82.6	-79.2	7.1
2025-01-15 19:28:00.262201	290.8	82.3	-79.4	5.8
2025-01-15 19:28:01.385275	294.0	81.9	-79.8	5.9
2025-01-15 19:28:02.507913	296.8	81.6	-80.0	4.7
2025-01-15 19:28:03.628468	299.5	81.2	-80.4	3.2
2025-01-15 19:28:04.752795	301.8	80.8	-80.3	1.4
2025-01-15 19:28:05.875463	304.0	80.4	-80.4	0.0
2025-01-15 19:28:06.999140	306.0	79.9	-80.7	0.0
2025-01-15 19:28:08.120328	307.8	79.5	-81.0	0.0
2025-01-15 19:28:09.244588	309.5	79.0	-81.1	0.0
2025-01-15 19:28:10.366899	311.1	78.6	-80.9	0.0
2025-01-15 19:28:11.490085	312.5	78.1	-81.2	0.0
2025-01-15 19:28:12.612682	313.8	77.7	-81.4	0.0
2025-01-15 19:28:13.734931	315.0	77.2	-81.2	0.0
2025-01-15 19:28:14.859784	316.1	76.7	-81.3	0.0
2025-01-15 19:28:15.985147	317.2	76.2	-81.3	0.0
2025-01-15 19:28:17.107245	318.2	75.7	-81.2	0.0
2025-01-15 19:28:18.230887	319.1	75.3	-81.0	0.0
2025-01-15 19:28:19.352394	319.9	74.8	-81.1	0.0
2025-01-15 19:28:20.475680	320.7	74.3	-81.1	0.0
2025-01-15 19:28:21.596943	321.4	73.8	-81.3	0.0
2025-01-15 19:28:22.721384	322.1	73.3	-81.4	0.0
2025-01-15 19:28:23.842661	322.8	72.8	-81.0	0.0
2025-01-15 19:28:24.964870	323.4	72.3	-81.0	0.0
2025-01-15 19:28:26.086990	324.0	71.9	-80.8	0.0
2025-01-15 19:28:27.209967	324.6	71.4	-80.9	0.0
2025-01-15 19:28:28.332692	325.1	70.9	-80.5	0.0
2025-01-15 19:28:29.454843	325.6	70.4	-80.8	0.0
2025-01-15 19:28:30.578360	326.1	69.9	-80.6	0.0
2025-01-15 19:28:31.701042	326.5	69.4	-80.5	0.0
2025-01-15 19:28:32.823864	326.9	69.0	-80.7	0.0
2025-01-15 19:28:33.947083	327.3	68.5	-80.8	0.0
2025-01-15 19:28:35.070741	327.7	68.0	-80.6	0.0
2025-01-15 19:28:36.193495	328.1	67.5	-80.9	0.0
2025-01-15 19:28:37.314468	328.4	67.0	-80.8	0.0
2025-01-15 19:28:38.438222	328.8	66.6	-80.7	0.0
2025-01-15 19:28:39.561919	329.1	66.1	-80.9	0.0
2025-01-15 19:28:40.683939	329.4	65.6	-80.5	0.0
2025-01-15 19:28:41.808232	329.7	65.2	-81.3	0.0
2025-01-15 19:28:42.931303	330.0	64.7	-80.9	0.0
2025-01-15 19:28:44.055551	330.3	64.2	-81.2	0.0
2025-01-15 19:28:45.177982	330.5	63.8	-81.0	0.0
2025-01-15 19:28:46.301356	330.8	63.3	-80.9	0.0
2025-01-15 19:28:47.423521	331.0	62.9	-80.6	0.0
2025-01-15 19:28:48.547468	331.3	62.4	-80.6	0.0
2025-01-15 19:28:49.669859	331.5	62.0	-80.9	0.0
2025-01-15 19:28:50.793643	331.7	61.5	-81.0	0.0
2025-01-15 19:28:51.915768	331.9	61.1	-80.8	0.0
2025-01-15 19:28:53.039957	332.1	60.6	-81.1	0.0
2025-01-15 19:28:54.163011	332.3	60.2	-80.8	0.0
2025-01-15 19:28:55.285942	332.5	59.8	-81.1	0.0
2025-01-15 19:28:56.409969	332.7	59.3	-81.2	0.0
2025-01-15 19:28:57.533003	332.9	58.9	-81.3	0.0
2025-01-15 19:28:58.655183	333.0	58.5	-81.3	0.0
2025-01-15 19:28:59.778200	333.2	58.0	-81.3	0.0
2025-01-15 19:29:00.902418	333.4	57.6	-81.5	0.0
2025-01-15 19:29:02.028149	333.5	57.2	-81.5	0.0
2025-01-15 19:29:03.147600	333.7	56.8	-81.2	0.0
2025-01-15 19:29:04.270666	333.8	56.4	-81.3	0.0
2025-01-15 19:29:05.395807	334.0	56.0	-81.4	0.0
2025-01-15 19:29:06.520715	334.1	55.6	-81.0	0.0
2025-01-15 19:29:07.642239	334.3	55.2	-81.0	0.0
2025-01-15 19:29:08.764518	334.4	54.8	-81.3	0.0
2025-01-15 19:29:09.887977	334.5	54.4	-81.3	0.0
2025-01-15 19:29:11.011578	334.6	54.0	-81.0	0.0
2025-01-15 19:29:12.133952	334.8	53.6	-81.3	0.0
2025-01-15 19:29:13.257541	334.9	53.2	-81.1	0.0
2025-01-15 19:29:14.380125	335.0	52.8	-81.4	0.0
2025-01-15 19:29:15.502671	335.1	52.4	-81.3	0.0
2025-01-15 19:29:16.625785	335.2	52.0	-81.4	0.0
2025-01-15 19:29:17.749703	335.3	51.6	-81.3	0.0
2025-01-15 19:29:18.874473	335.4	51.3	-81.0	0.0
2025-01-15 19:29:19.998804	335.5	50.9	-81.3	0.0
2025-01-15 19:29:21.119588	335.6	50.5	-81.5	0.0
2025-01-15 19:29:22.241923	335.7	50.2	-81.2	0.0
2025-01-15 19:29:23.365080	335.8	49.8	-81.2	0.0
2025-01-15 19:29:24.487454	335.9	49.4	-81.1	0.0
2025-01-15 19:29:25.612244	336.0	49.1	-81.0	0.0
2025-01-15 19:29:26.733879	336.1	48.7	-81.2	0.0
2025-01-15 19:29:27.855980	336.2	48.4	-81.2	0.0
2025-01-15 19:29:28.977155	336.3	48.0	-81.1	0.0
2025-01-15 19:29:30.100175	336.4	47.7	-81.2	0.0
2025-01-15 19:29:31.222120	336.4	47.3	-81.1	0.0
2025-01-15 19:29:32.346442	336.5	47.0	-80.9	0.0
2025-01-15 19:29:33.470111	336.6	46.6	-81.4	0.0
2025-01-15 19:29:34.593442	336.7	46.3	-81.2	0.0
2025-01-15 19:29:35.716078	336.8	46.0	-81.2	0.0
2025-01-15 19:29:36.838822	336.8	45.6	-81.2	0.0
2025-01-15 19:29:37.961529	336.9	45.3	-81.5	0.0
2025-01-15 19:29:39.082562	337.0	45.0	-81.5	0.0
2025-01-15 19:29:40.204521	337.0	44.7	-81.5	0.0
2025-01-15 19:29:41.328615	337.1	44.3	-81.6	0.0
2025-01-15 19:29:42.456325	337.2	44.0	-81.5	0.0
2025-01-15 19:29:43.578687	337.3	43.7	-81.4	0.0
2025-01-15 19:29:44.701340	337.3	43.4	-81.5	0.0
2025-01-15 19:29:45.824643	337.4	43.1	-81.5	0.0
2025-01-15 19:29:46.947014	337.4	42.8	-81.6	0.0
2025-01-15 19:29:48.068466	337.5	42.5	-81.3	0.0
2025-01-15 19:29:49.191516	337.6	42.2	-81.0	0.0
2025-01-15 19:29:50.315737	337.6	41.9	-80.8	0.0
2025-01-15 19:29:51.439515	337.7	41.6	-81.4	0.0
2025-01-15 19:29:52.561877	337.7	41.3	-81.0	0.0
2025-01-15 19:29:53.687518	337.8	41.0	-80.9	0.0
2025-01-15 19:29:54.810444	337.9	40.7	-81.1	0.0
2025-01-15 19:29:55.934770	337.9	40.4	-81.2	0.0
2025-01-15 19:29:57.057127	338.0	40.1	-81.1	0.0
2025-01-15 19:29:58.178115	338.0	39.8	-81.1	0.0
2025-01-15 19:29:59.301541	338.1	39.5	-80.8	0.0
2025-01-15 19:30:00.425992	338.1	39.2	-81.0	0.0
2025-01-15 19:30:01.549202	338.2	39.0	-81.3	0.0
2025-01-15 19:30:02.672069	338.2	38.7	-81.0	0.0
2025-01-15 19:30:03.795367	338.3	38.4	-80.9	0.0
2025-01-15 19:30:04.918400	338.3	38.2	-81.2	0.0
2025-01-15 19:30:06.040522	338.4	37.9	-81.1	0.0
2025-01-15 19:30:07.161050	338.4	37.6	-81.1	0.0
2025-01-15 19:30:08.283060	338.5	37.3	-80.7	0.0
2025-01-15 19:30:09.408786	338.5	37.1	-81.0	0.0
2025-01-15 19:30:10.531975	338.5	36.8	-81.0	0.0
2025-01-15 19:30:11.654722	338.6	36.6	-80.8	0.0
2025-01-15 19:30:12.777747	338.6	36.3	-81.0	0.0
2025-01-15 19:30:13.900363	338.7	36.1	-81.3	0.0
2025-01-15 19:30:15.022537	338.7	35.8	-80.8	0.0
2025-01-15 19:30:16.146124	338.8	35.5	-80.9	0.0
2025-01-15 19:30:17.269748	338.8	35.3	-81.4	0.0
2025-01-15 19:30:18.392857	338.8	35.1	-81.4	0.0
2025-01-15 19:30:19.514442	338.9	34.8	-81.2	0.0
2025-01-15 19:30:20.636298	338.9	34.6	-81.5	0.0
2025-01-15 19:30:21.759041	339.0	34.3	-81.1	0.0
2025-01-15 19:30:22.881480	339.0	34.1	-81.0	0.0
2025-01-15 19:30:24.006585	339.0	33.8	-81.2	0.0
2025-01-15 19:30:25.128749	339.1	33.6	-81.4	0.0
2025-01-15 19:30:26.249229	339.1	33.4	-81.3	0.0
2025-01-15 19:30:27.374523	339.2	33.1	-81.3	0.0
2025-01-15 19:30:28.499083	339.2	32.9	-81.1	0.0
2025-01-15 19:30:29.621446	339.2	32.7	-80.7	0.0
2025-01-15 19:30:30.744762	339.3	32.5	-81.3	0.0
2025-01-15 19:30:31.867802	339.3	32.2	-80.9	0.0
2025-01-15 19:30:32.989216	339.3	32.0	-81.1	0.0
2025-01-15 19:30:34.109747	339.4	31.8	-81.2	0.0
2025-01-15 19:30:35.232814	339.4	31.6	-81.4	0.0
2025-01-15 19:30:36.355556	339.4	31.3	-81.1	0.0
2025-01-15 19:30:37.478205	339.5	31.1	-81.0	0.0
2025-01-15 19:30:38.601242	339.5	30.9	-81.1	0.0
2025-01-15 19:30:39.726008	339.5	30.7	-81.5	0.0
2025-01-15 19:30:40.850220	339.6	30.5	-81.3	0.0
2025-01-15 19:30:41.973293	339.6	30.3	-80.9	0.0
2025-01-15 19:30:43.097606	339.6	30.1	-81.0	0.0
2025-01-15 19:30:44.220646	339.7	29.9	-81.3	0.0
2025-01-15 19:30:45.341513	339.7	29.6	-81.4	0.0
2025-01-15 19:30:46.466846	339.7	29.4	-81.2	0.0
2025-01-15 19:30:47.592031	339.7	29.2	-81.4	0.0
2025-01-15 19:30:48.721652	339.8	29.0	-81.4	0.0
2025-01-15 19:30:49.845254	339.8	28.8	-81.4	0.0
2025-01-15 19:30:50.968250	339.8	28.6	-81.5	0.0
2025-01-15 19:30:52.088957	339.9	28.4	-81.4	0.0
2025-01-15 19:30:53.211061	339.9	28.2	-81.6	0.0
2025-01-15 19:30:54.333627	339.9	28.0	-81.5	0.0
2025-01-15 19:30:55.459284	339.9	27.8	-81.3	0.0
2025-01-15 19:30:56.581778	340.0	27.7	-81.6	0.0
2025-01-15 19:30:57.704600	340.0	27.5	-81.4	0.0
2025-01-15 19:30:58.827191	340.0	27.3	-81.7	0.0
2025-01-15 19:30:59.949349	340.0	27.1	-81.3	0.0
2025-01-15 19:31:01.072072	340.1	26.9	-81.4	0.0
2025-01-15 19:31:02.193698	340.1	26.7	-81.7	0.0
2025-01-15 19:31:03.319178	340.1	26.5	-81.3	0.0
2025-01-15 19:31:04.442783	340.2	26.3	-81.5	0.0
2025-01-15 19:31:05.565982	340.2	26.2	-81.8	0.0
2025-01-15 19:31:06.687630	340.2	26.0	-81.1	0.0
2025-01-15 19:31:07.810948	340.2	25.8	-81.6	0.0
2025-01-15 19:31:08.935367	340.3	25.6	-81.1	0.0
2025-01-15 19:31:10.057965	340.3	25.4	-81.3	0.0
2025-01-15 19:31:11.179259	340.3	25.3	-81.4	0.0
2025-01-15 19:31:12.303433	340.3	25.1	-81.3	0.0
2025-01-15 19:31:13.425432	340.3	24.9	-81.2	0.0
2025-01-15 19:31:14.547301	340.4	24.7	-81.4	0.0
2025-01-15 19:31:15.670602	340.4	24.6	-81.7	0.0
2025-01-15 19:31:16.794697	340.4	24.4	-81.4	0.0
2025-01-15 19:31:17.920662	340.4	24.2	-81.5	0.0
2025-01-15 19:31:19.042584	340.5	24.1	-81.3	0.0
2025-01-15 19:31:20.163519	340.5	23.9	-81.6	0.0
2025-01-15 19:31:21.284717	340.5	23.7	-81.5	0.0
2025-01-15 19:31:22.408235	340.5	23.6	-81.1	0.0
2025-01-15 19:31:23.534401	340.6	23.4	-81.3	0.0
2025-01-15 19:31:24.654498	340.6	23.2	-81.5	0.0
2025-01-15 19:31:25.777921	340.6	23.1	-81.3	0.0
2025-01-15 19:31:26.902000	340.6	22.9	-81.5	0.0
2025-01-15 19:31:28.024476	340.6	22.7	-81.4	0.0
2025-01-15 19:31:29.147556	340.7	22.6	-81.2	0.0
2025-01-15 19:31:30.271485	340.7	22.4	-81.7	0.0
2025-01-15 19:31:31.395928	340.7	22.3	-81.5	0.0
2025-01-15 19:31:32.517783	340.7	22.1	-81.3	0.0
2025-01-15 19:31:33.640373	340.7	22.0	-81.8	0.0
2025-01-15 19:31:34.761696	340.8	21.8	-81.4	0.0
2025-01-15 19:31:35.886997	340.8	21.6	-81.6	0.0
2025-01-15 19:31:37.010917	340.8	21.5	-81.4	0.0
2025-01-15 19:31:38.134353	340.8	21.3	-81.7	0.0
2025-01-15 19:31:39.260099	340.8	21.2	-81.1	0.0
2025-01-15 19:31:40.382878	340.9	21.0	-81.3	0.0
2025-01-15 19:31:41.506178	340.9	20.9	-81.7	0.0
2025-01-15 19:31:42.629565	340.9	20.7	-81.5	0.0
2025-01-15 19:31:43.752620	340.9	20.6	-81.7	0.0
2025-01-15 19:31:44.874729	340.9	20.5	-81.7	0.0
2025-01-15 19:31:46.001160	341.0	20.3	-81.5	0.0
2025-01-15 19:31:47.123054	341.0	20.2	-81.1	0.0
2025-01-15 19:31:48.246750	341.0	20.0	-81.2	0.0
2025-01-15 19:31:49.368370	341.0	19.9	-81.4	0.0
2025-01-15 19:31:50.490493	341.0	19.7	-81.4	0.0
2025-01-15 19:31:51.611947	341.1	19.6	-81.6	0.0
2025-01-15 19:31:52.734228	341.1	19.4	-81.4	0.0
2025-01-15 19:31:53.858790	341.1	19.3	-81.2	0.0
2025-01-15 19:31:54.982071	341.1	19.2	-81.3	0.0
2025-01-15 19:31:56.104149	341.1	19.0	-80.8	0.0
2025-01-15 19:31:57.227953	341.1	18.9	-81.6	0.0
2025-01-15 19:31:58.352985	341.2	18.8	-81.3	0.0
2025-01-15 19:31:59.476296	341.2	18.6	-81.4	0.0
2025-01-15 19:32:00.599154	341.2	18.5	-81.3	0.0
2025-01-15 19:32:01.722629	341.2	18.3	-81.1	0.0
2025-01-15 19:32:02.843888	341.2	18.2	-81.0	0.0
2025-01-15 19:32:03.965613	341.2	18.1	-81.1	0.0
2025-01-15 19:32:05.088569	341.3	17.9	-81.3	0.0
2025-01-15 19:32:06.209833	341.3	17.8	-81.5	0.0
2025-01-15 19:32:07.333130	341.3	17.7	-81.4	0.0
2025-01-15 19:32:08.457091	341.3	17.6	-81.2	0.0
2025-01-15 19:32:09.579683	341.3	17.4	-81.5	0.0
2025-01-15 19:32:10.703121	341.3	17.3	-81.4	0.0
2025-01-15 19:32:11.824958	341.4	17.2	-81.8	0.0
2025-01-15 19:32:12.947632	341.4	17.0	-81.5	0.0
2025-01-15 19:32:14.071824	341.4	16.9	-81.5	0.0
2025-01-15 19:32:15.197149	341.4	16.8	-81.6	0.0
2025-01-15 19:32:16.320355	341.4	16.7	-81.7	0.0
2025-01-15 19:32:17.443577	341.4	16.5	-81.3	0.0
2025-01-15 19:32:18.566901	341.5	16.4	-81.5	0.0
2025-01-15 19:32:19.691597	341.5	16.3	-81.7	0.0
2025-01-15 19:32:20.813354	341.5	16.2	-81.7	0.0
2025-01-15 19:32:21.933843	341.5	16.0	-81.5	0.0
2025-01-15 19:32:23.055693	341.5	15.9	-81.7	0.0
2025-01-15 19:32:24.176321	341.5	15.8	-81.4	0.0
2025-01-15 19:32:25.297926	341.5	15.7	-81.9	0.0
2025-01-15 19:32:26.421645	341.6	15.5	-81.7	0.0
2025-01-15 19:32:27.546038	341.6	15.4	-81.3	0.0
2025-01-15 19:32:28.669145	341.6	15.3	-81.6	0.0
2025-01-15 19:32:29.794890	341.6	15.2	-81.0	0.0
2025-01-15 19:32:30.917837	341.6	15.1	-81.4	0.0
2025-01-15 19:32:32.041270	341.6	15.0	-80.9	0.0
2025-01-15 19:32:33.166682	341.7	14.8	-81.1	0.0
2025-01-15 19:32:34.291336	341.7	14.7	-81.1	0.0
2025-01-15 19:32:35.413738	341.7	14.6	-81.1	0.0
2025-01-15 19:32:36.540262	341.7	14.5	-81.0	0.0
2025-01-15 19:32:37.662678	341.7	14.4	-81.4	0.0
2025-01-15 19:32:38.786711	341.7	14.3	-81.1	0.0
2025-01-15 19:32:39.908646	341.7	14.1	-81.3	0.0
2025-01-15 19:32:41.030119	341.8	14.0	-81.0	0.0
2025-01-15 19:32:42.154461	341.8	13.9	-81.1	0.0
2025-01-15 19:32:43.279156	341.8	13.8	-81.1	0.0
2025-01-15 19:32:44.402217	341.8	13.7	-81.3	0.0
2025-01-15 19:32:45.526196	341.8	13.6	-81.4	0.0
2025-01-15 19:32:46.651352	341.8	13.5	-81.2	0.0
2025-01-15 19:32:47.775862	341.8	13.4	-80.9	0.0
2025-01-15 19:32:48.897201	341.8	13.2	-81.5	0.0
2025-01-15 19:32:50.019877	341.9	13.1	-81.0	0.0
2025-01-15 19:32:51.142393	341.9	13.0	-81.3	0.0
2025-01-15 19:32:52.264757	341.9	12.9	-81.4	0.0
2025-01-15 19:32:53.387525	341.9	12.8	-81.4	0.0
2025-01-15 19:32:54.508594	341.9	12.7	-81.4	0.0
2025-01-15 19:32:55.630052	341.9	12.6	-81.7	0.0
2025-01-15 19:32:56.754066	341.9	12.5	-81.6	0.0
2025-01-15 19:32:57.876679	342.0	12.4	-81.5	0.0
2025-01-15 19:32:58.999353	342.0	12.3	-81.7	0.0
2025-01-15 19:33:00.122820	342.0	12.2	-81.4	0.0
2025-01-15 19:33:01.245361	342.0	12.1	-81.4	0.0
2025-01-15 19:33:02.367764	342.0	12.0	-81.8	0.0
2025-01-15 19:33:03.491188	342.0	11.9	-81.5	0.0
2025-01-15 19:33:04.614393	342.0	11.8	-81.2	0.0
2025-01-15 19:33:05.737956	342.0	11.7	-81.4	0.0
2025-01-15 19:33:06.860380	342.1	11.6	-81.4	0.0
2025-01-15 19:33:07.984864	342.1	11.5	-81.4	0.0
2025-01-15 19:33:09.108748	342.1	11.4	-81.3	0.0
2025-01-15 19:33:10.230564	342.1	11.3	-81.4	0.0
2025-01-15 19:33:11.353294	342.1	11.1	-81.7	0.0
2025-01-15 19:33:12.477263	342.1	11.0	-81.5	0.0
2025-01-15 19:33:13.600201	342.1	10.9	-81.8	0.0
2025-01-15 19:33:14.724170	342.1	10.8	-81.8	0.0
2025-01-15 19:33:15.846689	342.2	10.7	-81.5	0.0
2025-01-15 19:33:16.969343	342.2	10.7	-81.6	0.0
2025-01-15 19:33:18.093381	342.2	10.6	-81.6	0.0
2025-01-15 19:33:19.216288	342.2	10.5	-81.4	0.0
2025-01-15 19:33:20.338476	342.2	10.4	-81.7	0.0
2025-01-15 19:33:21.460371	342.2	10.3	-81.7	0.0
2025-01-15 19:33:22.583388	342.2	10.2	-81.6	0.0
2025-01-15 19:33:23.704783	342.2	10.1	-81.7	0.0
2025-01-15 19:33:24.829051	342.3	10.0	-81.7	0.0
#Closed at: 2025-01-15 19:22:12.819800