passes_logs/2025/01/15/planumMaritime01/planumMaritime01__20250115_090415_NOAA_19_rec.log

#Pass ID: 20250115_090415_NOAA 19
#Satellite: NOAA 19
#Configuration: NOAA 19
#Start time: 2025-01-15 09:04:20.131859

#LorettStation: 1.0.0 05.05.2024
#Station: planumMaritime01
#Location: 37.49445 lon 55.92918 lat
#TLE: 1 33591U 09005A   25014.15453959  .00000276  00000+0  17122-3 0  9998
#TLE: 2 33591  99.0198  77.9105 0014501  59.8090 300.4516 14.13258688821422

#Time	Az	El	Level	SNR
2025-01-15 09:04:22.292070	5.7	10.2	-80.9	0.0
2025-01-15 09:04:23.416179	5.6	10.3	-81.1	0.0
2025-01-15 09:04:24.539647	5.5	10.3	-80.9	0.0
2025-01-15 09:04:25.662877	5.4	10.4	-80.9	0.0
2025-01-15 09:04:26.784776	5.3	10.5	-80.9	0.0
2025-01-15 09:04:27.907961	5.2	10.6	-81.1	0.0
2025-01-15 09:04:29.034082	5.1	10.7	-81.0	0.0
2025-01-15 09:04:30.157122	5.0	10.8	-81.1	0.0
2025-01-15 09:04:31.277655	4.9	10.9	-81.3	0.0
2025-01-15 09:04:32.401134	4.8	11.0	-81.1	0.0
2025-01-15 09:04:33.524467	4.8	11.1	-81.5	0.0
2025-01-15 09:04:34.649751	4.7	11.1	-81.1	0.0
2025-01-15 09:04:35.775278	4.6	11.2	-81.2	0.0
2025-01-15 09:04:36.898023	4.5	11.3	-81.1	0.0
2025-01-15 09:04:38.022042	4.4	11.4	-81.1	0.0
2025-01-15 09:04:39.146346	4.3	11.5	-81.4	0.0
2025-01-15 09:04:40.269716	4.2	11.6	-81.2	0.0
2025-01-15 09:04:41.394263	4.1	11.7	-81.5	0.0
2025-01-15 09:04:42.517243	4.0	11.8	-80.3	0.0
2025-01-15 09:04:43.644388	3.9	11.9	-81.3	0.0
2025-01-15 09:04:44.769049	3.8	12.0	-81.5	0.0
2025-01-15 09:04:45.892031	3.7	12.1	-81.2	0.0
2025-01-15 09:04:47.015040	3.6	12.2	-81.5	0.0
2025-01-15 09:04:48.136484	3.5	12.2	-81.5	0.0
2025-01-15 09:04:49.260067	3.4	12.3	-81.5	0.0
2025-01-15 09:04:50.384071	3.3	12.4	-81.8	0.0
2025-01-15 09:04:51.508024	3.2	12.5	-81.6	0.0
2025-01-15 09:04:52.628812	3.1	12.6	-81.7	0.0
2025-01-15 09:04:53.750613	3.0	12.7	-81.7	0.0
2025-01-15 09:04:54.875751	2.9	12.8	-81.6	0.0
2025-01-15 09:04:56.000727	2.7	12.9	-81.5	0.0
2025-01-15 09:04:57.123881	2.6	13.0	-81.9	0.0
2025-01-15 09:04:58.248761	2.5	13.1	-81.5	0.0
2025-01-15 09:04:59.370784	2.4	13.2	-81.4	0.0
2025-01-15 09:05:00.494524	2.3	13.3	-81.4	0.0
2025-01-15 09:05:01.617250	2.2	13.4	-81.2	0.0
2025-01-15 09:05:02.739056	2.1	13.5	-81.2	0.0
2025-01-15 09:05:03.861577	2.0	13.6	-81.6	0.0
2025-01-15 09:05:04.984544	1.9	13.7	-81.6	0.0
2025-01-15 09:05:06.107679	1.8	13.8	-81.6	0.0
2025-01-15 09:05:07.230191	1.6	13.9	-81.4	0.0
2025-01-15 09:05:08.351812	1.5	14.0	-81.7	0.0
2025-01-15 09:05:09.474545	1.4	14.1	-81.8	0.0
2025-01-15 09:05:10.597389	1.3	14.2	-81.6	0.0
2025-01-15 09:05:11.718667	1.2	14.3	-81.7	0.0
2025-01-15 09:05:12.843515	1.1	14.4	-81.5	0.0
2025-01-15 09:05:13.968228	0.9	14.5	-81.6	0.0
2025-01-15 09:05:15.093103	0.8	14.6	-81.7	0.0
2025-01-15 09:05:16.215993	0.7	14.7	-81.6	0.0
2025-01-15 09:05:17.339993	0.6	14.8	-81.8	0.0
2025-01-15 09:05:18.465077	0.5	14.9	-81.5	0.0
2025-01-15 09:05:19.587412	0.3	15.0	-81.8	0.0
2025-01-15 09:05:20.710179	0.2	15.1	-81.8	0.0
2025-01-15 09:05:21.834408	0.1	15.2	-81.8	0.0
2025-01-15 09:05:22.955583	360.0	15.3	-81.7	0.0
2025-01-15 09:05:24.079348	359.8	15.4	-81.8	0.0
2025-01-15 09:05:25.203710	359.7	15.5	-81.4	0.0
2025-01-15 09:05:26.326365	359.6	15.6	-81.6	0.0
2025-01-15 09:05:27.449741	359.5	15.7	-81.5	0.0
2025-01-15 09:05:28.572263	359.3	15.8	-81.7	0.0
2025-01-15 09:05:29.695168	359.2	15.9	-81.5	0.0
2025-01-15 09:05:30.818027	359.1	16.0	-81.7	0.0
2025-01-15 09:05:31.940908	358.9	16.1	-81.7	0.0
2025-01-15 09:05:33.064166	358.8	16.2	-81.7	0.0
2025-01-15 09:05:34.188061	358.7	16.3	-81.7	0.0
2025-01-15 09:05:35.309942	358.5	16.4	-81.7	0.0
2025-01-15 09:05:36.432025	358.4	16.5	-82.0	0.0
2025-01-15 09:05:37.554085	358.3	16.6	-81.7	0.0
2025-01-15 09:05:38.677809	358.1	16.7	-81.7	0.0
2025-01-15 09:05:39.800067	358.0	16.8	-81.8	0.0
2025-01-15 09:05:40.920948	357.8	16.9	-81.9	0.0
2025-01-15 09:05:42.044344	357.7	17.0	-81.7	0.0
2025-01-15 09:05:43.167584	357.6	17.1	-81.9	0.0
2025-01-15 09:05:44.290601	357.4	17.2	-81.6	0.0
2025-01-15 09:05:45.412470	357.3	17.3	-81.7	0.0
2025-01-15 09:05:46.535679	357.1	17.5	-81.7	0.0
2025-01-15 09:05:47.658419	357.0	17.6	-81.9	0.0
2025-01-15 09:05:48.781787	356.8	17.7	-81.5	0.0
2025-01-15 09:05:49.905149	356.7	17.8	-81.9	0.0
2025-01-15 09:05:51.027850	356.5	17.9	-81.8	0.0
2025-01-15 09:05:52.151468	356.4	18.0	-81.9	0.0
2025-01-15 09:05:53.275474	356.2	18.1	-81.7	0.0
2025-01-15 09:05:54.400746	356.1	18.2	-81.7	0.0
2025-01-15 09:05:55.525714	355.9	18.3	-81.6	0.0
2025-01-15 09:05:56.647254	355.8	18.4	-81.7	0.0
2025-01-15 09:05:57.771242	355.6	18.5	-81.5	0.0
2025-01-15 09:05:58.895150	355.5	18.7	-81.4	0.0
2025-01-15 09:06:00.018734	355.3	18.8	-81.5	0.0
2025-01-15 09:06:01.143451	355.1	18.9	-81.8	0.0
2025-01-15 09:06:02.267197	355.0	19.0	-81.7	0.0
2025-01-15 09:06:03.388345	354.8	19.1	-81.6	0.0
2025-01-15 09:06:04.512418	354.7	19.2	-81.4	0.0
2025-01-15 09:06:05.636974	354.5	19.3	-81.5	0.0
2025-01-15 09:06:06.760122	354.3	19.4	-81.5	0.0
2025-01-15 09:06:07.883778	354.2	19.5	-81.5	0.0
2025-01-15 09:06:09.007246	354.0	19.7	-81.3	0.0
2025-01-15 09:06:10.132166	353.8	19.8	-81.6	0.0
2025-01-15 09:06:11.254983	353.7	19.9	-81.7	0.0
2025-01-15 09:06:12.377286	353.5	20.0	-82.0	0.0
2025-01-15 09:06:13.499396	353.3	20.1	-81.8	0.0
2025-01-15 09:06:14.623872	353.1	20.2	-81.7	0.0
2025-01-15 09:06:15.745617	353.0	20.3	-81.7	0.0
2025-01-15 09:06:16.869867	352.8	20.4	-81.9	0.0
2025-01-15 09:06:17.991209	352.6	20.6	-81.8	0.0
2025-01-15 09:06:19.115067	352.4	20.7	-82.0	0.0
2025-01-15 09:06:20.237379	352.2	20.8	-82.1	0.0
2025-01-15 09:06:21.360694	352.1	20.9	-81.9	0.0
2025-01-15 09:06:22.484003	351.9	21.0	-81.7	0.0
2025-01-15 09:06:23.608145	351.7	21.1	-81.8	0.0
2025-01-15 09:06:24.732720	351.5	21.3	-81.7	0.0
2025-01-15 09:06:25.856504	351.3	21.4	-82.0	0.0
2025-01-15 09:06:26.977643	351.1	21.5	-81.9	0.0
2025-01-15 09:06:28.101508	350.9	21.6	-81.9	0.0
2025-01-15 09:06:29.224979	350.7	21.7	-81.9	0.0
2025-01-15 09:06:30.349467	350.5	21.8	-81.8	0.0
2025-01-15 09:06:31.472988	350.3	21.9	-82.1	0.0
2025-01-15 09:06:32.597884	350.2	22.1	-81.9	0.0
2025-01-15 09:06:33.722313	350.0	22.2	-81.8	0.0
2025-01-15 09:06:34.844011	349.8	22.3	-81.8	0.0
2025-01-15 09:06:35.967562	349.6	22.4	-82.0	0.0
2025-01-15 09:06:37.089146	349.3	22.5	-82.1	0.0
2025-01-15 09:06:38.210591	349.1	22.7	-82.0	0.0
2025-01-15 09:06:39.333079	348.9	22.8	-81.9	0.0
2025-01-15 09:06:40.457560	348.7	22.9	-82.2	0.0
2025-01-15 09:06:41.581194	348.5	23.0	-81.8	0.0
2025-01-15 09:06:42.703169	348.3	23.1	-82.0	0.0
2025-01-15 09:06:43.825034	348.1	23.2	-82.3	0.0
2025-01-15 09:06:44.948064	347.9	23.4	-82.0	0.0
2025-01-15 09:06:46.070094	347.7	23.5	-82.0	0.0
2025-01-15 09:06:47.194419	347.5	23.6	-82.0	0.0
2025-01-15 09:06:48.315949	347.2	23.7	-81.6	0.0
2025-01-15 09:06:49.439345	347.0	23.8	-82.0	0.0
2025-01-15 09:06:50.562051	346.8	24.0	-81.9	0.0
2025-01-15 09:06:51.685775	346.6	24.1	-81.9	0.0
2025-01-15 09:06:52.808142	346.3	24.2	-82.0	0.0
2025-01-15 09:06:53.928925	346.1	24.3	-81.9	0.0
2025-01-15 09:06:55.049716	345.9	24.4	-82.2	0.0
2025-01-15 09:06:56.171973	345.7	24.5	-82.2	0.0
2025-01-15 09:06:57.296676	345.4	24.7	-82.0	0.0
2025-01-15 09:06:58.420195	345.2	24.8	-82.0	0.0
2025-01-15 09:06:59.546192	344.9	24.9	-81.6	0.0
2025-01-15 09:07:00.668843	344.7	25.0	-81.8	0.0
2025-01-15 09:07:01.793780	344.5	25.1	-81.8	0.0
2025-01-15 09:07:02.916068	344.2	25.3	-81.6	0.0
2025-01-15 09:07:04.038137	344.0	25.4	-82.1	0.0
2025-01-15 09:07:05.160137	343.7	25.5	-81.4	0.0
2025-01-15 09:07:06.283932	343.5	25.6	-82.1	0.0
2025-01-15 09:07:07.407075	343.2	25.7	-82.0	0.0
2025-01-15 09:07:08.530094	343.0	25.8	-81.9	0.0
2025-01-15 09:07:09.653629	342.7	26.0	-81.4	0.0
2025-01-15 09:07:10.776380	342.5	26.1	-81.6	0.0
2025-01-15 09:07:11.899683	342.2	26.2	-81.6	0.0
2025-01-15 09:07:13.025575	342.0	26.3	-81.7	0.0
2025-01-15 09:07:14.148715	341.7	26.4	-81.8	0.0
2025-01-15 09:07:15.271025	341.4	26.6	-81.9	0.0
2025-01-15 09:07:16.396197	341.2	26.7	-81.8	0.0
2025-01-15 09:07:17.523596	340.9	26.8	-82.1	0.0
2025-01-15 09:07:18.647166	340.6	26.9	-81.9	0.0
2025-01-15 09:07:19.770761	340.4	27.0	-81.8	0.0
2025-01-15 09:07:20.896766	340.1	27.1	-81.9	0.0
2025-01-15 09:07:22.021000	339.8	27.3	-81.7	0.0
2025-01-15 09:07:23.141577	339.5	27.4	-82.1	0.0
2025-01-15 09:07:24.265218	339.3	27.5	-81.9	0.0
2025-01-15 09:07:25.387305	339.0	27.6	-81.9	0.0
2025-01-15 09:07:26.508115	338.7	27.7	-82.1	0.0
2025-01-15 09:07:27.632859	338.4	27.8	-81.9	0.0
2025-01-15 09:07:28.755616	338.1	28.0	-81.6	0.0
2025-01-15 09:07:29.877607	337.8	28.1	-82.2	0.0
2025-01-15 09:07:31.000486	337.5	28.2	-82.2	0.0
2025-01-15 09:07:32.125684	337.3	28.3	-81.8	0.0
2025-01-15 09:07:33.248783	337.0	28.4	-82.3	0.0
2025-01-15 09:07:34.371819	336.7	28.5	-82.1	0.0
2025-01-15 09:07:35.495793	336.4	28.6	-82.3	0.0
2025-01-15 09:07:36.619090	336.1	28.7	-82.1	0.0
2025-01-15 09:07:37.742908	335.8	28.9	-82.1	0.0
2025-01-15 09:07:38.865528	335.4	29.0	-82.1	0.0
2025-01-15 09:07:39.986861	335.1	29.1	-82.1	0.0
2025-01-15 09:07:41.111466	334.8	29.2	-82.2	0.0
2025-01-15 09:07:42.235297	334.5	29.3	-82.1	0.0
2025-01-15 09:07:43.357277	334.2	29.4	-82.3	0.0
2025-01-15 09:07:44.479946	333.9	29.5	-81.9	0.0
2025-01-15 09:07:45.600841	333.6	29.6	-82.0	0.0
2025-01-15 09:07:46.724385	333.2	29.7	-82.3	0.0
2025-01-15 09:07:47.848216	332.9	29.8	-82.1	0.0
2025-01-15 09:07:48.969760	332.6	29.9	-82.1	0.0
2025-01-15 09:07:50.091075	332.3	30.1	-82.0	0.0
2025-01-15 09:07:51.215727	331.9	30.2	-82.2	0.0
2025-01-15 09:07:52.340952	331.6	30.3	-82.2	0.0
2025-01-15 09:07:53.462345	331.3	30.4	-82.4	0.0
2025-01-15 09:07:54.585285	330.9	30.5	-82.2	0.0
2025-01-15 09:07:55.708332	330.6	30.6	-82.2	0.0
2025-01-15 09:07:56.830382	330.3	30.7	-81.8	0.0
2025-01-15 09:07:57.954432	329.9	30.8	-82.2	0.0
2025-01-15 09:07:59.075980	329.6	30.9	-82.2	0.0
2025-01-15 09:08:00.201400	329.2	31.0	-82.3	0.0
2025-01-15 09:08:01.324723	328.9	31.1	-82.2	0.0
2025-01-15 09:08:02.447731	328.5	31.2	-82.3	0.0
2025-01-15 09:08:03.570467	328.2	31.3	-82.4	0.0
2025-01-15 09:08:04.693528	327.8	31.4	-82.4	0.0
2025-01-15 09:08:05.818097	327.5	31.4	-82.3	0.0
2025-01-15 09:08:06.939624	327.1	31.5	-82.2	0.0
2025-01-15 09:08:08.063170	326.7	31.6	-82.2	0.0
2025-01-15 09:08:09.186006	326.4	31.7	-82.3	0.0
2025-01-15 09:08:10.312176	326.0	31.8	-82.1	0.0
2025-01-15 09:08:11.435123	325.6	31.9	-81.9	0.0
2025-01-15 09:08:12.557882	325.3	32.0	-82.0	0.0
2025-01-15 09:08:13.682108	324.9	32.1	-82.0	0.0
2025-01-15 09:08:14.805739	324.5	32.2	-82.0	0.0
2025-01-15 09:08:15.928963	324.2	32.2	-81.8	0.0
2025-01-15 09:08:17.053269	323.8	32.3	-82.0	0.0
2025-01-15 09:08:18.173626	323.4	32.4	-82.1	0.0
2025-01-15 09:08:19.296737	323.0	32.5	-81.8	0.0
2025-01-15 09:08:20.421923	322.6	32.6	-82.4	0.0
2025-01-15 09:08:21.545626	322.2	32.6	-82.3	0.0
2025-01-15 09:08:22.669538	321.9	32.7	-82.2	0.0
2025-01-15 09:08:23.791276	321.5	32.8	-82.1	0.0
2025-01-15 09:08:24.913456	321.1	32.9	-82.2	0.0
2025-01-15 09:08:26.037460	320.7	32.9	-82.3	0.0
2025-01-15 09:08:27.159348	320.3	33.0	-82.1	0.0
2025-01-15 09:08:28.282626	319.9	33.1	-82.1	0.0
2025-01-15 09:08:29.404171	319.5	33.2	-82.2	0.0
2025-01-15 09:08:30.527822	319.1	33.2	-81.7	0.0
2025-01-15 09:08:31.649565	318.7	33.3	-82.1	0.0
2025-01-15 09:08:32.773685	318.3	33.4	-82.3	0.0
2025-01-15 09:08:33.897824	317.9	33.4	-82.0	0.0
2025-01-15 09:08:35.020532	317.5	33.5	-82.0	0.0
2025-01-15 09:08:36.145496	317.1	33.5	-82.1	0.0
2025-01-15 09:08:37.268778	316.7	33.6	-82.0	0.0
2025-01-15 09:08:38.389633	316.3	33.7	-82.0	0.0
2025-01-15 09:08:39.513414	315.9	33.7	-82.1	0.0
2025-01-15 09:08:40.635671	315.4	33.8	-82.1	0.0
2025-01-15 09:08:41.760155	315.0	33.8	-82.0	0.0
2025-01-15 09:08:42.885428	314.6	33.9	-81.9	0.0
2025-01-15 09:08:44.008113	314.2	33.9	-81.9	0.0
2025-01-15 09:08:45.130990	313.8	34.0	-82.0	0.0
2025-01-15 09:08:46.254704	313.4	34.0	-81.8	0.0
2025-01-15 09:08:47.378818	312.9	34.1	-82.0	0.0
2025-01-15 09:08:48.502353	312.5	34.1	-81.9	0.0
2025-01-15 09:08:49.625368	312.1	34.1	-81.7	0.0
2025-01-15 09:08:50.750804	311.7	34.2	-81.8	0.0
2025-01-15 09:08:51.874041	311.2	34.2	-81.8	0.0
2025-01-15 09:08:52.997062	310.8	34.3	-81.9	0.0
2025-01-15 09:08:54.118438	310.4	34.3	-81.8	0.0
2025-01-15 09:08:55.242516	310.0	34.3	-81.8	0.0
2025-01-15 09:08:56.366220	309.5	34.3	-81.9	0.0
2025-01-15 09:08:57.490607	309.1	34.4	-81.8	0.0
2025-01-15 09:08:58.611156	308.7	34.4	-81.7	0.0
2025-01-15 09:08:59.734165	308.2	34.4	-82.0	0.0
2025-01-15 09:09:00.856388	307.8	34.4	-81.7	0.0
2025-01-15 09:09:01.978850	307.4	34.5	-81.7	0.0
2025-01-15 09:09:03.104603	307.0	34.5	-81.9	0.0
2025-01-15 09:09:04.228859	306.5	34.5	-82.0	0.0
2025-01-15 09:09:05.351302	306.1	34.5	-81.8	0.0
2025-01-15 09:09:06.472611	305.7	34.5	-81.8	0.0
2025-01-15 09:09:07.596182	305.2	34.5	-82.1	0.0
2025-01-15 09:09:08.719925	304.8	34.6	-81.8	0.0
2025-01-15 09:09:09.843223	304.3	34.6	-82.1	0.0
2025-01-15 09:09:10.967441	303.9	34.6	-82.0	0.0
2025-01-15 09:09:12.091939	303.5	34.6	-82.1	0.0
2025-01-15 09:09:13.215150	303.0	34.6	-81.9	0.0
2025-01-15 09:09:14.339727	302.6	34.6	-82.3	0.0
2025-01-15 09:09:15.461439	302.2	34.6	-82.2	0.0
2025-01-15 09:09:16.584391	301.7	34.6	-82.1	0.0
2025-01-15 09:09:17.706911	301.3	34.6	-82.0	0.0
2025-01-15 09:09:18.831091	300.9	34.6	-81.9	0.0
2025-01-15 09:09:19.953947	300.4	34.5	-82.4	0.0
2025-01-15 09:09:21.075480	300.0	34.5	-81.9	0.0
2025-01-15 09:09:22.197509	299.6	34.5	-82.2	0.0
2025-01-15 09:09:23.319270	299.1	34.5	-82.0	0.0
2025-01-15 09:09:24.444865	298.7	34.5	-82.3	0.0
2025-01-15 09:09:25.566661	298.3	34.5	-82.2	0.0
2025-01-15 09:09:26.690880	297.8	34.5	-82.1	0.0
2025-01-15 09:09:27.813568	297.4	34.4	-82.1	0.0
2025-01-15 09:09:28.936550	297.0	34.4	-82.1	0.0
2025-01-15 09:09:30.061258	296.5	34.4	-81.7	0.0
2025-01-15 09:09:31.185608	296.1	34.4	-81.9	0.0
2025-01-15 09:09:32.307555	295.7	34.3	-82.0	0.0
2025-01-15 09:09:33.430771	295.3	34.3	-82.3	0.0
2025-01-15 09:09:34.552871	294.8	34.3	-82.2	0.0
2025-01-15 09:09:35.676917	294.4	34.2	-82.2	0.0
2025-01-15 09:09:36.799282	294.0	34.2	-82.1	0.0
2025-01-15 09:09:37.920361	293.6	34.2	-82.2	0.0
2025-01-15 09:09:39.043619	293.1	34.1	-82.1	0.0
2025-01-15 09:09:40.167526	292.7	34.1	-81.6	0.0
2025-01-15 09:09:41.289702	292.3	34.0	-82.0	0.0
2025-01-15 09:09:42.410860	291.9	34.0	-82.3	0.0
2025-01-15 09:09:43.532568	291.5	33.9	-81.5	0.0
2025-01-15 09:09:44.655074	291.0	33.9	-82.3	0.0
2025-01-15 09:09:45.778418	290.6	33.8	-82.1	0.0
2025-01-15 09:09:46.900486	290.2	33.8	-82.3	0.0
2025-01-15 09:09:48.023898	289.8	33.7	-82.0	0.0
2025-01-15 09:09:49.145091	289.4	33.7	-82.3	0.0
2025-01-15 09:09:50.268887	289.0	33.6	-82.4	0.0
2025-01-15 09:09:51.395866	288.6	33.6	-82.3	0.0
2025-01-15 09:09:52.520291	288.2	33.5	-81.9	0.0
2025-01-15 09:09:53.643830	287.7	33.4	-82.3	0.0
2025-01-15 09:09:54.769494	287.3	33.4	-81.9	0.0
2025-01-15 09:09:55.890350	286.9	33.3	-82.3	0.0
2025-01-15 09:09:57.013288	286.5	33.3	-82.2	0.0
2025-01-15 09:09:58.136160	286.1	33.2	-82.2	0.0
2025-01-15 09:09:59.261328	285.7	33.1	-82.1	0.0
2025-01-15 09:10:00.384782	285.3	33.0	-82.1	0.0
2025-01-15 09:10:01.506861	284.9	33.0	-82.2	0.0
2025-01-15 09:10:02.628597	284.6	32.9	-82.3	0.0
2025-01-15 09:10:03.750087	284.2	32.8	-82.4	0.0
2025-01-15 09:10:04.873620	283.8	32.8	-82.3	0.0
2025-01-15 09:10:05.997440	283.4	32.7	-82.4	0.0
2025-01-15 09:10:07.119578	283.0	32.6	-82.2	0.0
2025-01-15 09:10:08.243943	282.6	32.5	-82.2	0.0
2025-01-15 09:10:09.366396	282.2	32.4	-82.2	0.0
2025-01-15 09:10:10.489449	281.9	32.4	-82.4	0.0
2025-01-15 09:10:11.611877	281.5	32.3	-82.1	0.0
2025-01-15 09:10:12.735433	281.1	32.2	-82.1	0.0
2025-01-15 09:10:13.859580	280.7	32.1	-82.1	0.0
2025-01-15 09:10:14.980976	280.4	32.0	-82.4	0.0
2025-01-15 09:10:16.102169	280.0	31.9	-82.2	0.0
2025-01-15 09:10:17.225240	279.6	31.8	-82.2	0.0
2025-01-15 09:10:18.349868	279.2	31.8	-82.0	0.0
2025-01-15 09:10:19.472136	278.9	31.7	-82.1	0.0
2025-01-15 09:10:20.596030	278.5	31.6	-82.4	0.0
2025-01-15 09:10:21.719469	278.2	31.5	-82.2	0.0
2025-01-15 09:10:22.842578	277.8	31.4	-82.4	0.0
2025-01-15 09:10:23.966104	277.4	31.3	-82.3	0.0
2025-01-15 09:10:25.088490	277.1	31.2	-82.3	0.0
2025-01-15 09:10:26.212094	276.7	31.1	-81.9	0.0
2025-01-15 09:10:27.335381	276.4	31.0	-82.5	0.0
2025-01-15 09:10:28.458500	276.0	30.9	-82.3	0.0
2025-01-15 09:10:29.584128	275.7	30.8	-82.1	0.0
2025-01-15 09:10:30.708071	275.4	30.7	-82.2	0.0
2025-01-15 09:10:31.832662	275.0	30.6	-82.3	0.0
2025-01-15 09:10:32.955451	274.7	30.5	-82.4	0.0
2025-01-15 09:10:34.078829	274.3	30.4	-82.5	0.0
2025-01-15 09:10:35.200748	274.0	30.3	-81.7	0.0
2025-01-15 09:10:36.323662	273.7	30.2	-82.5	0.0
2025-01-15 09:10:37.446417	273.3	30.1	-82.2	0.0
2025-01-15 09:10:38.568838	273.0	30.0	-82.3	0.0
2025-01-15 09:10:39.691680	272.7	29.9	-82.2	0.0
2025-01-15 09:10:40.812508	272.4	29.8	-82.0	0.0
2025-01-15 09:10:41.935637	272.0	29.7	-82.0	0.0
2025-01-15 09:10:43.062644	271.7	29.6	-82.3	0.0
2025-01-15 09:10:44.185818	271.4	29.5	-82.2	0.0
2025-01-15 09:10:45.311174	271.1	29.3	-82.4	0.0
2025-01-15 09:10:46.431898	270.8	29.2	-82.2	0.0
2025-01-15 09:10:47.554742	270.5	29.1	-82.6	0.0
2025-01-15 09:10:48.679316	270.1	29.0	-82.3	0.0
2025-01-15 09:10:49.802532	269.8	28.9	-82.1	0.0
2025-01-15 09:10:50.926535	269.5	28.8	-82.3	0.0
2025-01-15 09:10:52.051668	269.2	28.7	-82.1	0.0
2025-01-15 09:10:53.174035	268.9	28.6	-82.4	0.0
2025-01-15 09:10:54.296580	268.6	28.5	-82.2	0.0
2025-01-15 09:10:55.420801	268.3	28.3	-82.3	0.0
2025-01-15 09:10:56.544408	268.0	28.2	-82.1	0.0
2025-01-15 09:10:57.667942	267.7	28.1	-82.0	0.0
2025-01-15 09:10:58.792208	267.5	28.0	-82.1	0.0
2025-01-15 09:10:59.914749	267.2	27.9	-82.3	0.0
2025-01-15 09:11:01.037134	266.9	27.8	-82.5	0.0
2025-01-15 09:11:02.160585	266.6	27.7	-82.3	0.0
2025-01-15 09:11:03.285726	266.3	27.5	-82.0	0.0
2025-01-15 09:11:04.406129	266.0	27.4	-82.2	0.0
2025-01-15 09:11:05.529675	265.8	27.3	-82.5	0.0
2025-01-15 09:11:06.652273	265.5	27.2	-82.3	0.0
2025-01-15 09:11:07.774700	265.2	27.1	-82.5	0.0
2025-01-15 09:11:08.899835	264.9	27.0	-82.6	0.0
2025-01-15 09:11:10.021571	264.7	26.8	-82.6	0.0
2025-01-15 09:11:11.144195	264.4	26.7	-82.5	0.0
2025-01-15 09:11:12.265382	264.1	26.6	-82.5	0.0
2025-01-15 09:11:13.388680	263.9	26.5	-82.5	0.0
2025-01-15 09:11:14.512780	263.6	26.4	-82.2	0.0
2025-01-15 09:11:15.637301	263.3	26.3	-82.7	0.0
2025-01-15 09:11:16.761545	263.1	26.1	-82.5	0.0
2025-01-15 09:11:17.883952	262.8	26.0	-82.7	0.0
2025-01-15 09:11:19.005089	262.6	25.9	-82.3	0.0
2025-01-15 09:11:20.127904	262.3	25.8	-82.5	0.0
2025-01-15 09:11:21.253297	262.1	25.7	-82.5	0.0
2025-01-15 09:11:22.378017	261.8	25.5	-82.5	0.0
2025-01-15 09:11:23.501086	261.6	25.4	-82.6	0.0
2025-01-15 09:11:24.622542	261.3	25.3	-82.5	0.0
2025-01-15 09:11:25.747278	261.1	25.2	-82.5	0.0
2025-01-15 09:11:26.867926	260.8	25.1	-82.2	0.0
2025-01-15 09:11:27.989631	260.6	24.9	-82.1	0.0
2025-01-15 09:11:29.111353	260.4	24.8	-82.5	0.0
2025-01-15 09:11:30.232992	260.1	24.7	-82.3	0.0
2025-01-15 09:11:31.357719	259.9	24.6	-82.3	0.0
2025-01-15 09:11:32.479180	259.7	24.5	-82.1	0.0
2025-01-15 09:11:33.602937	259.4	24.4	-82.6	0.0
2025-01-15 09:11:34.726515	259.2	24.2	-82.5	0.0
2025-01-15 09:11:35.849449	259.0	24.1	-82.3	0.0
2025-01-15 09:11:36.971868	258.8	24.0	-82.3	0.0
2025-01-15 09:11:38.095060	258.5	23.9	-82.3	0.0
2025-01-15 09:11:39.215598	258.3	23.8	-82.6	0.0
2025-01-15 09:11:40.338337	258.1	23.6	-82.3	0.0
2025-01-15 09:11:41.460203	257.9	23.5	-82.1	0.0
2025-01-15 09:11:42.585357	257.7	23.4	-82.1	0.0
2025-01-15 09:11:43.707301	257.4	23.3	-82.3	0.0
2025-01-15 09:11:44.830429	257.2	23.2	-82.3	0.0
2025-01-15 09:11:45.951895	257.0	23.1	-82.3	0.0
2025-01-15 09:11:47.075440	256.8	22.9	-82.3	0.0
2025-01-15 09:11:48.199870	256.6	22.8	-82.2	0.0
2025-01-15 09:11:49.322959	256.4	22.7	-82.0	0.0
2025-01-15 09:11:50.446519	256.2	22.6	-82.1	0.0
2025-01-15 09:11:51.569867	256.0	22.5	-82.2	0.0
2025-01-15 09:11:52.692489	255.8	22.3	-81.9	0.0
2025-01-15 09:11:53.813803	255.6	22.2	-82.3	0.0
2025-01-15 09:11:54.936164	255.4	22.1	-82.2	0.0
2025-01-15 09:11:56.060577	255.2	22.0	-82.3	0.0
2025-01-15 09:11:57.184131	255.0	21.9	-82.2	0.0
2025-01-15 09:11:58.308886	254.8	21.8	-82.1	0.0
2025-01-15 09:11:59.432543	254.6	21.6	-82.2	0.0
2025-01-15 09:12:00.555244	254.4	21.5	-82.5	0.0
2025-01-15 09:12:01.678750	254.2	21.4	-82.2	0.0
2025-01-15 09:12:02.802697	254.0	21.3	-82.3	0.0
2025-01-15 09:12:03.927018	253.8	21.2	-82.4	0.0
2025-01-15 09:12:05.049324	253.6	21.1	-82.3	0.0
2025-01-15 09:12:06.173190	253.5	21.0	-82.4	0.0
2025-01-15 09:12:07.296952	253.3	20.8	-82.2	0.0
2025-01-15 09:12:08.419259	253.1	20.7	-82.5	0.0
2025-01-15 09:12:09.543079	252.9	20.6	-82.3	0.0
2025-01-15 09:12:10.667539	252.7	20.5	-82.1	0.0
2025-01-15 09:12:11.792321	252.6	20.4	-82.4	0.0
2025-01-15 09:12:12.915660	252.4	20.3	-81.8	0.0
2025-01-15 09:12:14.037317	252.2	20.2	-82.1	0.0
2025-01-15 09:12:15.160219	252.0	20.0	-82.4	0.0
2025-01-15 09:12:16.282695	251.9	19.9	-82.5	0.0
2025-01-15 09:12:17.405136	251.7	19.8	-82.4	0.0
2025-01-15 09:12:18.527850	251.5	19.7	-81.8	0.0
2025-01-15 09:12:19.650908	251.3	19.6	-81.5	0.0
2025-01-15 09:12:20.776259	251.2	19.5	-82.2	0.0
2025-01-15 09:12:21.900010	251.0	19.4	-82.1	0.0
2025-01-15 09:12:23.024373	250.8	19.3	-82.2	0.0
2025-01-15 09:12:24.146785	250.7	19.1	-82.1	0.0
2025-01-15 09:12:25.267194	250.5	19.0	-81.8	0.0
2025-01-15 09:12:26.389776	250.4	18.9	-82.1	0.0
2025-01-15 09:12:27.510978	250.2	18.8	-82.3	0.0
2025-01-15 09:12:28.634142	250.0	18.7	-81.8	0.0
2025-01-15 09:12:29.759364	249.9	18.6	-82.0	0.0
2025-01-15 09:12:30.879794	249.7	18.5	-82.1	0.0
2025-01-15 09:12:32.003607	249.6	18.4	-82.1	0.0
2025-01-15 09:12:33.126967	249.4	18.3	-82.4	0.0
2025-01-15 09:12:34.250578	249.3	18.1	-82.1	0.0
2025-01-15 09:12:35.374168	249.1	18.0	-82.3	0.0
2025-01-15 09:12:36.496785	248.9	17.9	-82.7	0.0
2025-01-15 09:12:37.621217	248.8	17.8	-82.2	0.0
2025-01-15 09:12:38.744485	248.6	17.7	-82.3	0.0
2025-01-15 09:12:39.866969	248.5	17.6	-82.4	0.0
2025-01-15 09:12:40.990403	248.4	17.5	-82.2	0.0
2025-01-15 09:12:42.111877	248.2	17.4	-82.2	0.0
2025-01-15 09:12:43.234478	248.1	17.3	-82.4	0.0
2025-01-15 09:12:44.355171	247.9	17.2	-82.4	0.0
2025-01-15 09:12:45.480405	247.8	17.1	-82.5	0.0
2025-01-15 09:12:46.603714	247.6	17.0	-82.3	0.0
2025-01-15 09:12:47.728519	247.5	16.9	-82.5	0.0
2025-01-15 09:12:48.853330	247.4	16.8	-82.1	0.0
2025-01-15 09:12:49.975560	247.2	16.6	-82.4	0.0
2025-01-15 09:12:51.099588	247.1	16.5	-82.4	0.0
2025-01-15 09:12:52.221959	246.9	16.4	-82.4	0.0
2025-01-15 09:12:53.347487	246.8	16.3	-81.9	0.0
2025-01-15 09:12:54.470891	246.7	16.2	-82.4	0.0
2025-01-15 09:12:55.596837	246.5	16.1	-82.3	0.0
2025-01-15 09:12:56.720411	246.4	16.0	-82.5	0.0
2025-01-15 09:12:57.843271	246.3	15.9	-82.5	0.0
2025-01-15 09:12:58.968065	246.1	15.8	-82.2	0.0
2025-01-15 09:13:00.090969	246.0	15.7	-82.2	0.0
2025-01-15 09:13:01.211768	245.9	15.6	-81.8	0.0
2025-01-15 09:13:02.334480	245.7	15.5	-82.0	0.0
2025-01-15 09:13:03.456989	245.6	15.4	-82.4	0.0
2025-01-15 09:13:04.580722	245.5	15.3	-82.5	0.0
2025-01-15 09:13:05.705833	245.4	15.2	-82.5	0.0
2025-01-15 09:13:06.828950	245.2	15.1	-82.4	0.0
2025-01-15 09:13:07.951699	245.1	15.0	-82.6	0.0
2025-01-15 09:13:09.075012	245.0	14.9	-82.3	0.0
2025-01-15 09:13:10.197530	244.9	14.8	-82.2	0.0
2025-01-15 09:13:11.322652	244.7	14.7	-82.2	0.0
2025-01-15 09:13:12.444359	244.6	14.6	-82.2	0.0
2025-01-15 09:13:13.566990	244.5	14.5	-82.2	0.0
2025-01-15 09:13:14.688606	244.4	14.4	-82.2	0.0
2025-01-15 09:13:15.811908	244.3	14.3	-82.1	0.0
2025-01-15 09:13:16.934287	244.1	14.2	-81.9	0.0
2025-01-15 09:13:18.059108	244.0	14.1	-82.2	0.0
2025-01-15 09:13:19.182924	243.9	14.0	-82.5	0.0
2025-01-15 09:13:20.306455	243.8	13.9	-82.5	0.0
2025-01-15 09:13:21.428150	243.7	13.8	-82.4	0.0
2025-01-15 09:13:22.552393	243.6	13.7	-82.5	0.0
2025-01-15 09:13:23.675598	243.5	13.6	-82.5	0.0
2025-01-15 09:13:24.799165	243.3	13.5	-82.2	0.0
2025-01-15 09:13:25.923623	243.2	13.4	-82.3	0.0
2025-01-15 09:13:27.047337	243.1	13.3	-82.4	0.0
2025-01-15 09:13:28.171617	243.0	13.2	-82.1	0.0
2025-01-15 09:13:29.295868	242.9	13.1	-82.5	0.0
2025-01-15 09:13:30.419184	242.8	13.0	-82.5	0.0
2025-01-15 09:13:31.544346	242.7	12.9	-82.3	0.0
2025-01-15 09:13:32.667632	242.6	12.8	-82.1	0.0
2025-01-15 09:13:33.790491	242.5	12.8	-82.1	0.0
2025-01-15 09:13:34.912358	242.4	12.7	-82.3	0.0
2025-01-15 09:13:36.035541	242.3	12.6	-82.2	0.0
2025-01-15 09:13:37.158809	242.2	12.5	-82.4	0.0
2025-01-15 09:13:38.282384	242.1	12.4	-82.2	0.0
2025-01-15 09:13:39.407362	241.9	12.3	-82.2	0.0
2025-01-15 09:13:40.529500	241.8	12.2	-82.1	0.0
2025-01-15 09:13:41.655286	241.7	12.1	-82.3	0.0
2025-01-15 09:13:42.777270	241.6	12.0	-82.4	0.0
2025-01-15 09:13:43.900408	241.5	11.9	-82.3	0.0
2025-01-15 09:13:45.023020	241.4	11.8	-82.2	0.0
2025-01-15 09:13:46.146040	241.3	11.7	-82.3	0.0
2025-01-15 09:13:47.270474	241.2	11.6	-82.4	0.0
2025-01-15 09:13:48.394240	241.1	11.5	-82.3	0.0
2025-01-15 09:13:49.515546	241.0	11.5	-82.5	0.0
2025-01-15 09:13:50.639101	240.9	11.4	-81.5	0.0
2025-01-15 09:13:51.763801	240.9	11.3	-82.5	0.0
2025-01-15 09:13:52.884644	240.8	11.2	-82.6	0.0
2025-01-15 09:13:54.008608	240.7	11.1	-82.5	0.0
2025-01-15 09:13:55.132343	240.6	11.0	-82.2	0.0
2025-01-15 09:13:56.254776	240.5	10.9	-82.4	0.0
2025-01-15 09:13:57.376297	240.4	10.8	-82.5	0.0
2025-01-15 09:13:58.498625	240.3	10.7	-82.4	0.0
2025-01-15 09:13:59.621663	240.2	10.6	-82.5	0.0
2025-01-15 09:14:00.746055	240.1	10.6	-82.4	0.0
2025-01-15 09:14:01.868715	240.0	10.5	-82.4	0.0
2025-01-15 09:14:02.991243	239.9	10.4	-82.3	0.0
2025-01-15 09:14:04.114325	239.8	10.3	-82.4	0.0
2025-01-15 09:14:05.238027	239.7	10.2	-82.3	0.0
2025-01-15 09:14:06.361506	239.7	10.1	-82.2	0.0
#Closed at: 2025-01-15 09:04:15.133941