passes_logs/2025/01/15/planumMaritime01/planumMaritime01__20250115_073040_METOP-C_rec.log

#Pass ID: 20250115_073040_METOP-C
#Satellite: METOP-C
#Configuration: METOP-C
#Start time: 2025-01-15 07:30:45.139150

#LorettStation: 1.0.0 05.05.2024
#Station: planumMaritime01
#Location: 37.49445 lon 55.92918 lat
#TLE: 1 43689U 18087A   25014.16634806  .00000210  00000+0  11601-3 0  9994
#TLE: 2 43689  98.6967  76.6709 0001376 166.5927 193.5287 14.21480388321094

#Time	Az	El	Level	SNR
2025-01-15 07:30:47.294890	19.8	10.2	-81.1	0.0
2025-01-15 07:30:48.419410	19.8	10.3	-81.0	0.0
2025-01-15 07:30:49.543343	19.8	10.4	-81.1	0.0
2025-01-15 07:30:50.668456	19.9	10.5	-81.1	0.0
2025-01-15 07:30:51.790176	19.9	10.6	-81.1	0.0
2025-01-15 07:30:52.914945	19.9	10.7	-81.2	0.0
2025-01-15 07:30:54.038944	19.9	10.8	-81.3	0.0
2025-01-15 07:30:55.161313	20.0	10.9	-81.3	0.0
2025-01-15 07:30:56.284445	20.0	11.0	-81.4	0.0
2025-01-15 07:30:57.407343	20.0	11.1	-81.3	0.0
2025-01-15 07:30:58.532150	20.1	11.2	-81.4	0.0
2025-01-15 07:30:59.656641	20.1	11.3	-81.2	0.0
2025-01-15 07:31:00.780210	20.1	11.4	-81.3	0.0
2025-01-15 07:31:01.900220	20.2	11.5	-81.4	0.0
2025-01-15 07:31:03.022681	20.2	11.6	-81.4	0.0
2025-01-15 07:31:04.145037	20.2	11.7	-81.6	0.0
2025-01-15 07:31:05.266319	20.3	11.8	-81.2	0.0
2025-01-15 07:31:06.389717	20.3	11.9	-81.2	0.0
2025-01-15 07:31:07.515499	20.3	12.0	-81.2	0.0
2025-01-15 07:31:08.639383	20.4	12.1	-81.5	0.0
2025-01-15 07:31:09.760067	20.4	12.2	-81.6	0.0
2025-01-15 07:31:10.884552	20.4	12.3	-81.3	0.0
2025-01-15 07:31:12.007229	20.5	12.4	-81.4	0.0
2025-01-15 07:31:13.129130	20.5	12.5	-81.8	0.0
2025-01-15 07:31:14.254108	20.5	12.6	-81.7	0.0
2025-01-15 07:31:15.377188	20.6	12.7	-81.6	0.0
2025-01-15 07:31:16.499582	20.6	12.9	-81.5	0.0
2025-01-15 07:31:17.622103	20.6	13.0	-81.3	0.0
2025-01-15 07:31:18.747048	20.7	13.1	-81.6	0.0
2025-01-15 07:31:19.870149	20.7	13.2	-81.5	0.0
2025-01-15 07:31:20.993273	20.7	13.3	-81.3	0.0
2025-01-15 07:31:22.116376	20.8	13.4	-81.6	0.0
2025-01-15 07:31:23.237193	20.8	13.5	-81.6	0.0
2025-01-15 07:31:24.358800	20.8	13.6	-81.9	0.0
2025-01-15 07:31:25.479635	20.9	13.7	-81.6	0.0
2025-01-15 07:31:26.601099	20.9	13.8	-81.5	0.0
2025-01-15 07:31:27.725072	20.9	14.0	-81.6	0.0
2025-01-15 07:31:28.848250	21.0	14.1	-81.6	0.0
2025-01-15 07:31:29.968040	21.0	14.2	-81.3	0.0
2025-01-15 07:31:31.092218	21.1	14.3	-81.6	0.0
2025-01-15 07:31:32.214251	21.1	14.4	-81.8	0.0
2025-01-15 07:31:33.337852	21.1	14.5	-81.8	0.0
2025-01-15 07:31:34.462850	21.2	14.6	-81.4	0.0
2025-01-15 07:31:35.585327	21.2	14.8	-81.6	0.0
2025-01-15 07:31:36.708596	21.2	14.9	-81.6	0.0
2025-01-15 07:31:37.830644	21.3	15.0	-81.1	0.0
2025-01-15 07:31:38.954293	21.3	15.1	-81.7	0.0
2025-01-15 07:31:40.075962	21.4	15.2	-81.1	0.0
2025-01-15 07:31:41.199258	21.4	15.4	-81.6	0.0
2025-01-15 07:31:42.323370	21.4	15.5	-81.7	0.0
2025-01-15 07:31:43.444184	21.5	15.6	-81.4	0.0
2025-01-15 07:31:44.568448	21.5	15.7	-81.7	0.0
2025-01-15 07:31:45.695226	21.6	15.8	-81.7	0.0
2025-01-15 07:31:46.816302	21.6	16.0	-81.6	0.0
2025-01-15 07:31:47.938749	21.6	16.1	-81.6	0.0
2025-01-15 07:31:49.061219	21.7	16.2	-81.7	0.0
2025-01-15 07:31:50.185776	21.7	16.3	-81.5	0.0
2025-01-15 07:31:51.307092	21.8	16.5	-81.7	0.0
2025-01-15 07:31:52.431561	21.8	16.6	-81.2	0.0
2025-01-15 07:31:53.555158	21.9	16.7	-81.3	0.0
2025-01-15 07:31:54.678990	21.9	16.8	-81.4	0.0
2025-01-15 07:31:55.802616	21.9	17.0	-81.6	0.0
2025-01-15 07:31:56.925986	22.0	17.1	-81.8	0.0
2025-01-15 07:31:58.049181	22.0	17.2	-81.6	0.0
2025-01-15 07:31:59.173209	22.1	17.4	-81.7	0.0
2025-01-15 07:32:00.296680	22.1	17.5	-81.5	0.0
2025-01-15 07:32:01.419930	22.2	17.6	-81.4	0.0
2025-01-15 07:32:02.543154	22.2	17.7	-81.8	0.0
2025-01-15 07:32:03.668570	22.3	17.9	-81.8	0.0
2025-01-15 07:32:04.791991	22.3	18.0	-81.7	0.0
2025-01-15 07:32:05.916363	22.3	18.1	-81.9	0.0
2025-01-15 07:32:07.039825	22.4	18.3	-81.7	0.0
2025-01-15 07:32:08.162174	22.4	18.4	-81.7	0.0
2025-01-15 07:32:09.285366	22.5	18.6	-81.7	0.0
2025-01-15 07:32:10.408080	22.5	18.7	-81.8	0.0
2025-01-15 07:32:11.529440	22.6	18.8	-81.7	0.0
2025-01-15 07:32:12.654649	22.6	19.0	-81.7	0.0
2025-01-15 07:32:13.777476	22.7	19.1	-81.7	0.0
2025-01-15 07:32:14.900368	22.7	19.2	-81.8	0.0
2025-01-15 07:32:16.025874	22.8	19.4	-81.7	0.0
2025-01-15 07:32:17.150986	22.8	19.5	-81.8	0.0
2025-01-15 07:32:18.275166	22.9	19.7	-81.9	0.0
2025-01-15 07:32:19.397566	22.9	19.8	-81.6	0.0
2025-01-15 07:32:20.521478	23.0	20.0	-81.2	0.0
2025-01-15 07:32:21.645162	23.0	20.1	-81.9	0.0
2025-01-15 07:32:22.768333	23.1	20.2	-81.9	0.0
2025-01-15 07:32:23.890290	23.1	20.4	-81.8	0.0
2025-01-15 07:32:25.012939	23.2	20.5	-81.9	0.0
2025-01-15 07:32:26.134323	23.3	20.7	-81.9	0.0
2025-01-15 07:32:27.256589	23.3	20.8	-81.8	0.0
2025-01-15 07:32:28.380021	23.4	21.0	-81.9	0.0
2025-01-15 07:32:29.503503	23.4	21.1	-81.8	0.0
2025-01-15 07:32:30.626190	23.5	21.3	-81.9	0.0
2025-01-15 07:32:31.749394	23.5	21.4	-81.9	0.0
2025-01-15 07:32:32.873139	23.6	21.6	-81.8	0.0
2025-01-15 07:32:33.994582	23.6	21.7	-81.8	0.0
2025-01-15 07:32:35.118686	23.7	21.9	-81.7	0.0
2025-01-15 07:32:36.242145	23.8	22.1	-81.9	0.0
2025-01-15 07:32:37.365881	23.8	22.2	-82.0	0.0
2025-01-15 07:32:38.491739	23.9	22.4	-81.9	0.0
2025-01-15 07:32:39.615201	23.9	22.5	-81.9	0.0
2025-01-15 07:32:40.740702	24.0	22.7	-81.7	0.0
2025-01-15 07:32:41.865059	24.1	22.9	-81.9	0.0
2025-01-15 07:32:42.988480	24.1	23.0	-82.0	0.0
2025-01-15 07:32:44.112963	24.2	23.2	-81.9	0.0
2025-01-15 07:32:45.235280	24.3	23.3	-82.0	0.0
2025-01-15 07:32:46.358873	24.3	23.5	-82.0	0.0
2025-01-15 07:32:47.483829	24.4	23.7	-82.0	0.0
2025-01-15 07:32:48.606224	24.4	23.8	-81.8	0.0
2025-01-15 07:32:49.727085	24.5	24.0	-82.1	0.0
2025-01-15 07:32:50.850522	24.6	24.2	-81.4	0.0
2025-01-15 07:32:51.972290	24.6	24.3	-81.7	0.0
2025-01-15 07:32:53.094556	24.7	24.5	-82.0	0.0
2025-01-15 07:32:54.216733	24.8	24.7	-81.7	0.0
2025-01-15 07:32:55.339236	24.9	24.9	-81.8	0.0
2025-01-15 07:32:56.464187	24.9	25.0	-81.6	0.0
2025-01-15 07:32:57.586445	25.0	25.2	-81.7	0.0
2025-01-15 07:32:58.709535	25.1	25.4	-81.6	0.0
2025-01-15 07:32:59.832801	25.1	25.6	-81.9	0.0
2025-01-15 07:33:00.957980	25.2	25.8	-81.8	0.0
2025-01-15 07:33:02.080430	25.3	25.9	-81.8	0.0
2025-01-15 07:33:03.205900	25.4	26.1	-81.8	0.0
2025-01-15 07:33:04.328909	25.4	26.3	-81.7	0.0
2025-01-15 07:33:05.451113	25.5	26.5	-81.9	0.0
2025-01-15 07:33:06.575912	25.6	26.7	-81.6	0.0
2025-01-15 07:33:07.697978	25.7	26.9	-82.0	0.0
2025-01-15 07:33:08.820636	25.7	27.0	-82.1	0.0
2025-01-15 07:33:09.942831	25.8	27.2	-82.1	0.0
2025-01-15 07:33:11.064139	25.9	27.4	-82.0	0.0
2025-01-15 07:33:12.188806	26.0	27.6	-82.0	0.0
2025-01-15 07:33:13.312406	26.1	27.8	-81.9	0.0
2025-01-15 07:33:14.435339	26.2	28.0	-81.6	0.0
2025-01-15 07:33:15.556729	26.2	28.2	-81.9	0.0
2025-01-15 07:33:16.679295	26.3	28.4	-81.9	0.0
2025-01-15 07:33:17.803630	26.4	28.6	-81.8	0.0
2025-01-15 07:33:18.927315	26.5	28.8	-81.8	0.0
2025-01-15 07:33:20.052230	26.6	29.0	-81.9	0.0
2025-01-15 07:33:21.173654	26.7	29.2	-81.7	0.0
2025-01-15 07:33:22.297335	26.8	29.4	-81.7	0.0
2025-01-15 07:33:23.421976	26.9	29.6	-81.7	0.0
2025-01-15 07:33:24.543199	27.0	29.8	-81.7	0.0
2025-01-15 07:33:25.666674	27.0	30.0	-81.8	0.0
2025-01-15 07:33:26.789004	27.1	30.2	-81.6	0.0
2025-01-15 07:33:27.912566	27.2	30.4	-81.5	0.0
2025-01-15 07:33:29.036074	27.3	30.6	-81.6	0.0
2025-01-15 07:33:30.158021	27.4	30.9	-81.7	0.0
2025-01-15 07:33:31.282199	27.5	31.1	-81.5	0.0
2025-01-15 07:33:32.404412	27.6	31.3	-81.5	0.0
2025-01-15 07:33:33.525757	27.7	31.5	-81.7	0.0
2025-01-15 07:33:34.649413	27.8	31.7	-81.9	0.0
2025-01-15 07:33:35.774133	28.0	32.0	-81.6	0.0
2025-01-15 07:33:36.896373	28.1	32.2	-81.7	0.0
2025-01-15 07:33:38.019894	28.2	32.4	-81.6	0.0
2025-01-15 07:33:39.142105	28.3	32.6	-81.7	0.0
2025-01-15 07:33:40.261832	28.4	32.9	-81.7	0.0
2025-01-15 07:33:41.384796	28.5	33.1	-81.7	0.0
2025-01-15 07:33:42.507429	28.6	33.3	-81.8	0.0
2025-01-15 07:33:43.632931	28.7	33.6	-81.9	0.0
2025-01-15 07:33:44.755431	28.8	33.8	-81.7	0.0
2025-01-15 07:33:45.877024	29.0	34.0	-81.9	0.0
2025-01-15 07:33:46.998006	29.1	34.3	-81.8	0.0
2025-01-15 07:33:48.119218	29.2	34.5	-82.0	0.0
2025-01-15 07:33:49.240681	29.3	34.7	-81.9	0.0
2025-01-15 07:33:50.366196	29.5	35.0	-81.9	0.0
2025-01-15 07:33:51.488575	29.6	35.2	-82.0	0.0
2025-01-15 07:33:52.612512	29.7	35.5	-81.9	0.0
2025-01-15 07:33:53.735825	29.9	35.7	-82.0	0.0
2025-01-15 07:33:54.860310	30.0	36.0	-81.7	0.0
2025-01-15 07:33:55.983134	30.1	36.2	-81.7	0.0
2025-01-15 07:33:57.107521	30.3	36.5	-81.9	0.0
2025-01-15 07:33:58.231144	30.4	36.7	-81.9	0.0
2025-01-15 07:33:59.354557	30.5	37.0	-81.9	0.0
2025-01-15 07:34:00.478707	30.7	37.3	-82.2	0.0
2025-01-15 07:34:01.601227	30.8	37.5	-82.1	0.0
2025-01-15 07:34:02.724270	31.0	37.8	-81.4	0.0
2025-01-15 07:34:03.846120	31.1	38.0	-82.0	0.0
2025-01-15 07:34:04.967409	31.3	38.3	-81.9	0.0
2025-01-15 07:34:06.091196	31.4	38.6	-82.0	0.0
2025-01-15 07:34:07.213274	31.6	38.9	-81.9	0.0
2025-01-15 07:34:08.334437	31.8	39.1	-82.1	0.0
2025-01-15 07:34:09.458188	31.9	39.4	-81.9	0.0
2025-01-15 07:34:10.582936	32.1	39.7	-82.2	0.0
2025-01-15 07:34:11.704042	32.3	40.0	-82.2	0.0
2025-01-15 07:34:12.827618	32.4	40.2	-82.1	0.0
2025-01-15 07:34:13.951188	32.6	40.5	-82.2	0.0
2025-01-15 07:34:15.073283	32.8	40.8	-82.3	0.0
2025-01-15 07:34:16.198115	33.0	41.1	-82.3	0.0
2025-01-15 07:34:17.321579	33.2	41.4	-82.1	0.0
2025-01-15 07:34:18.443488	33.3	41.7	-82.2	0.0
2025-01-15 07:34:19.567030	33.5	42.0	-82.0	0.0
2025-01-15 07:34:20.692064	33.7	42.3	-81.9	0.0
2025-01-15 07:34:21.814351	33.9	42.6	-82.1	0.0
2025-01-15 07:34:22.942630	34.1	42.9	-82.2	0.0
2025-01-15 07:34:24.066079	34.3	43.2	-82.1	0.0
2025-01-15 07:34:25.189271	34.5	43.5	-82.0	0.0
2025-01-15 07:34:26.312009	34.8	43.8	-82.1	0.0
2025-01-15 07:34:27.435072	35.0	44.1	-82.2	0.0
2025-01-15 07:34:28.560561	35.2	44.4	-82.0	0.0
2025-01-15 07:34:29.685103	35.4	44.7	-82.0	0.0
2025-01-15 07:34:30.807073	35.7	45.0	-81.9	0.0
2025-01-15 07:34:31.928147	35.9	45.3	-81.8	0.0
2025-01-15 07:34:33.055016	36.1	45.6	-81.9	0.0
2025-01-15 07:34:34.179402	36.4	46.0	-82.2	0.0
2025-01-15 07:34:35.300471	36.6	46.3	-81.9	0.0
2025-01-15 07:34:36.423504	36.9	46.6	-82.1	0.0
2025-01-15 07:34:37.547951	37.1	46.9	-82.0	0.0
2025-01-15 07:34:38.669418	37.4	47.3	-82.1	0.0
2025-01-15 07:34:39.792070	37.7	47.6	-82.0	0.0
2025-01-15 07:34:40.918102	37.9	47.9	-82.1	0.0
2025-01-15 07:34:42.043742	38.2	48.2	-82.1	0.0
2025-01-15 07:34:43.165072	38.5	48.6	-82.2	0.0
2025-01-15 07:34:44.285880	38.8	48.9	-82.0	0.0
2025-01-15 07:34:45.408683	39.1	49.3	-82.0	0.0
2025-01-15 07:34:46.532976	39.4	49.6	-82.1	0.0
2025-01-15 07:34:47.656157	39.7	49.9	-82.2	0.0
2025-01-15 07:34:48.779318	40.1	50.3	-82.0	0.0
2025-01-15 07:34:49.901779	40.4	50.6	-81.9	0.0
2025-01-15 07:34:51.026665	40.7	51.0	-82.3	0.0
2025-01-15 07:34:52.149132	41.1	51.3	-81.9	0.0
2025-01-15 07:34:53.274450	41.4	51.7	-82.3	0.0
2025-01-15 07:34:54.397423	41.8	52.0	-82.3	0.0
2025-01-15 07:34:55.521322	42.1	52.4	-82.1	0.0
2025-01-15 07:34:56.643708	42.5	52.7	-82.3	0.0
2025-01-15 07:34:57.768643	42.9	53.1	-82.2	0.0
2025-01-15 07:34:58.891196	43.3	53.4	-82.1	0.0
2025-01-15 07:35:00.012663	43.7	53.8	-82.0	0.0
2025-01-15 07:35:01.134906	44.1	54.1	-82.3	0.0
2025-01-15 07:35:02.258380	44.6	54.5	-82.2	0.0
2025-01-15 07:35:03.383516	45.0	54.9	-82.0	0.0
2025-01-15 07:35:04.506388	45.4	55.2	-82.0	0.0
2025-01-15 07:35:05.628505	45.9	55.6	-82.0	0.0
2025-01-15 07:35:06.751527	46.4	56.0	-82.0	0.0
2025-01-15 07:35:07.875578	46.9	56.3	-81.9	0.0
2025-01-15 07:35:08.998204	47.3	56.7	-81.9	0.0
2025-01-15 07:35:10.120443	47.9	57.0	-81.8	0.0
2025-01-15 07:35:11.241526	48.4	57.4	-82.0	0.0
2025-01-15 07:35:12.366861	48.9	57.8	-81.7	0.0
2025-01-15 07:35:13.490594	49.5	58.1	-81.7	0.0
2025-01-15 07:35:14.613742	50.0	58.5	-81.9	0.0
2025-01-15 07:35:15.734961	50.6	58.9	-81.8	0.0
2025-01-15 07:35:16.857448	51.2	59.2	-81.9	0.0
2025-01-15 07:35:17.981802	51.8	59.6	-81.8	0.0
2025-01-15 07:35:19.102558	52.5	59.9	-81.7	0.0
2025-01-15 07:35:20.224691	53.1	60.3	-81.4	0.0
2025-01-15 07:35:21.347539	53.8	60.7	-81.1	0.0
2025-01-15 07:35:22.470113	54.5	61.0	-80.8	0.0
2025-01-15 07:35:23.593411	55.2	61.4	-80.9	0.0
2025-01-15 07:35:24.716729	55.9	61.7	-80.8	0.0
2025-01-15 07:35:25.842409	56.7	62.1	-81.0	0.0
2025-01-15 07:35:26.965490	57.4	62.4	-81.0	0.0
2025-01-15 07:35:28.088429	58.2	62.8	-81.1	0.0
2025-01-15 07:35:29.212699	59.0	63.1	-81.2	0.0
2025-01-15 07:35:30.336817	59.9	63.5	-80.8	0.0
2025-01-15 07:35:31.461562	60.8	63.8	-80.5	0.0
2025-01-15 07:35:32.584303	61.6	64.1	-80.7	0.7
2025-01-15 07:35:33.707509	62.6	64.5	-80.4	2.3
2025-01-15 07:35:34.828638	63.5	64.8	-80.3	2.2
2025-01-15 07:35:35.951152	64.5	65.1	-80.4	0.4
2025-01-15 07:35:37.074458	65.5	65.4	-80.7	1.7
2025-01-15 07:35:38.196339	66.5	65.7	-80.5	0.3
2025-01-15 07:35:39.318048	67.5	66.0	-80.5	1.7
2025-01-15 07:35:40.439686	68.6	66.3	-80.6	0.1
2025-01-15 07:35:41.562855	69.7	66.6	-80.5	0.0
2025-01-15 07:35:42.687273	70.9	66.9	-80.3	0.0
2025-01-15 07:35:43.808456	72.1	67.2	-80.7	0.0
2025-01-15 07:35:44.932481	73.3	67.4	-80.9	0.0
2025-01-15 07:35:46.057460	74.5	67.7	-80.9	0.0
2025-01-15 07:35:47.180020	75.8	67.9	-80.9	0.0
2025-01-15 07:35:48.301266	77.1	68.2	-80.9	0.0
2025-01-15 07:35:49.426119	78.4	68.4	-80.6	0.0
2025-01-15 07:35:50.549062	79.7	68.6	-81.0	0.0
2025-01-15 07:35:51.672472	81.1	68.8	-81.3	0.0
2025-01-15 07:35:52.795902	82.5	69.0	-81.3	0.0
2025-01-15 07:35:53.919796	84.0	69.2	-81.2	0.0
2025-01-15 07:35:55.041313	85.5	69.4	-81.6	0.0
2025-01-15 07:35:56.164865	87.0	69.6	-81.6	0.0
2025-01-15 07:35:57.288923	88.5	69.7	-81.4	0.0
2025-01-15 07:35:58.411016	90.0	69.8	-81.7	0.0
2025-01-15 07:35:59.533068	91.6	70.0	-81.7	0.0
2025-01-15 07:36:00.655102	93.2	70.1	-81.7	0.0
2025-01-15 07:36:01.779299	94.8	70.2	-82.0	0.0
2025-01-15 07:36:02.902503	96.4	70.3	-82.2	0.0
2025-01-15 07:36:04.026577	98.0	70.3	-82.1	0.0
2025-01-15 07:36:05.148779	99.7	70.4	-82.0	0.0
2025-01-15 07:36:06.273373	101.3	70.4	-82.0	0.0
2025-01-15 07:36:07.394395	103.0	70.4	-82.1	0.0
2025-01-15 07:36:08.518481	104.6	70.4	-81.9	0.0
2025-01-15 07:36:09.642435	106.3	70.4	-81.8	0.0
2025-01-15 07:36:10.765561	107.9	70.4	-81.5	0.0
2025-01-15 07:36:11.890164	109.6	70.3	-81.3	0.0
2025-01-15 07:36:13.013672	111.2	70.3	-81.2	0.0
2025-01-15 07:36:14.137994	112.9	70.2	-81.1	0.0
2025-01-15 07:36:15.261062	114.5	70.1	-80.7	0.5
2025-01-15 07:36:16.384450	116.1	70.0	-80.6	0.3
2025-01-15 07:36:17.510288	117.7	69.9	-80.5	3.2
2025-01-15 07:36:18.632294	119.2	69.8	-80.1	2.8
2025-01-15 07:36:19.758391	120.7	69.6	-79.7	4.1
2025-01-15 07:36:20.881882	122.3	69.5	-79.6	4.9
2025-01-15 07:36:22.007634	123.8	69.3	-79.7	5.0
2025-01-15 07:36:23.132641	125.2	69.1	-79.8	5.2
2025-01-15 07:36:24.259306	126.7	68.9	-79.5	4.7
2025-01-15 07:36:25.384385	128.1	68.7	-79.5	4.9
2025-01-15 07:36:26.508826	129.4	68.5	-79.1	5.5
2025-01-15 07:36:27.629034	130.8	68.3	-78.9	6.1
2025-01-15 07:36:28.751158	132.1	68.1	-78.8	6.5
2025-01-15 07:36:29.874883	133.4	67.8	-78.9	6.0
2025-01-15 07:36:30.998561	134.6	67.6	-79.0	6.3
2025-01-15 07:36:32.123376	135.8	67.3	-79.0	6.2
2025-01-15 07:36:33.245963	137.0	67.0	-78.9	6.7
2025-01-15 07:36:34.367467	138.2	66.8	-78.9	6.8
2025-01-15 07:36:35.488363	139.3	66.5	-78.6	7.2
2025-01-15 07:36:36.611048	140.4	66.2	-78.6	6.8
2025-01-15 07:36:37.735509	141.5	65.9	-78.8	7.2
2025-01-15 07:36:38.859708	142.5	65.6	-78.8	5.5
2025-01-15 07:36:39.983629	143.6	65.3	-78.9	6.6
2025-01-15 07:36:41.106579	144.5	64.9	-78.9	6.5
2025-01-15 07:36:42.226995	145.5	64.6	-78.9	7.0
2025-01-15 07:36:43.349158	146.4	64.3	-78.9	7.1
2025-01-15 07:36:44.472968	147.3	64.0	-79.0	6.1
2025-01-15 07:36:45.595174	148.2	63.6	-79.2	5.4
2025-01-15 07:36:46.718279	149.1	63.3	-79.8	4.0
2025-01-15 07:36:47.839861	149.9	62.9	-79.9	4.1
2025-01-15 07:36:48.960804	150.7	62.6	-80.2	3.5
2025-01-15 07:36:50.085371	151.5	62.2	-80.0	3.8
2025-01-15 07:36:51.206822	152.2	61.9	-80.2	3.8
2025-01-15 07:36:52.330619	153.0	61.5	-80.4	2.7
2025-01-15 07:36:53.452919	153.7	61.2	-80.7	1.7
2025-01-15 07:36:54.576310	154.4	60.8	-81.1	0.0
2025-01-15 07:36:55.698342	155.1	60.5	-80.8	0.0
2025-01-15 07:36:56.821736	155.7	60.1	-81.2	0.0
2025-01-15 07:36:57.945534	156.4	59.7	-81.4	0.0
2025-01-15 07:36:59.066707	157.0	59.4	-81.5	0.0
2025-01-15 07:37:00.190007	157.6	59.0	-81.9	0.0
2025-01-15 07:37:01.311636	158.2	58.7	-81.9	0.0
2025-01-15 07:37:02.434027	158.8	58.3	-82.2	0.0
2025-01-15 07:37:03.557019	159.3	57.9	-82.0	0.0
2025-01-15 07:37:04.680464	159.9	57.6	-82.0	0.0
2025-01-15 07:37:05.806010	160.4	57.2	-82.1	0.0
2025-01-15 07:37:06.929202	160.9	56.8	-82.3	0.0
2025-01-15 07:37:08.052301	161.4	56.5	-82.2	0.0
2025-01-15 07:37:09.175930	161.9	56.1	-82.0	0.0
2025-01-15 07:37:10.298943	162.4	55.7	-81.9	0.0
2025-01-15 07:37:11.423899	162.9	55.4	-82.0	0.0
2025-01-15 07:37:12.545485	163.3	55.0	-82.0	0.0
2025-01-15 07:37:13.668061	163.8	54.6	-82.1	0.0
2025-01-15 07:37:14.789905	164.2	54.3	-82.1	0.0
2025-01-15 07:37:15.914590	164.6	53.9	-82.1	0.0
2025-01-15 07:37:17.037795	165.0	53.6	-81.8	0.0
2025-01-15 07:37:18.159905	165.4	53.2	-81.5	0.0
2025-01-15 07:37:19.284109	165.8	52.9	-81.4	0.0
2025-01-15 07:37:20.408277	166.2	52.5	-81.2	0.0
2025-01-15 07:37:21.530298	166.6	52.1	-81.0	0.0
2025-01-15 07:37:22.655354	166.9	51.8	-81.0	0.0
2025-01-15 07:37:23.778242	167.3	51.4	-81.2	0.0
2025-01-15 07:37:24.901889	167.6	51.1	-81.0	0.0
2025-01-15 07:37:26.024494	168.0	50.7	-81.1	0.0
2025-01-15 07:37:27.146653	168.3	50.4	-81.0	0.0
2025-01-15 07:37:28.273455	168.6	50.0	-81.1	0.0
2025-01-15 07:37:29.397416	169.0	49.7	-81.0	0.0
2025-01-15 07:37:30.518163	169.3	49.4	-81.1	0.0
2025-01-15 07:37:31.641671	169.6	49.0	-80.9	0.0
2025-01-15 07:37:32.764533	169.9	48.7	-81.0	0.0
2025-01-15 07:37:33.887082	170.2	48.3	-80.8	0.0
2025-01-15 07:37:35.011547	170.5	48.0	-81.0	0.0
2025-01-15 07:37:36.133864	170.7	47.7	-80.9	0.1
2025-01-15 07:37:37.259149	171.0	47.3	-80.5	0.0
2025-01-15 07:37:38.383965	171.3	47.0	-81.0	0.0
2025-01-15 07:37:39.508152	171.5	46.7	-81.0	0.0
2025-01-15 07:37:40.633581	171.8	46.4	-81.3	0.0
2025-01-15 07:37:41.755290	172.0	46.0	-81.2	0.0
2025-01-15 07:37:42.876536	172.3	45.7	-81.2	0.0
2025-01-15 07:37:43.999200	172.5	45.4	-81.2	0.0
2025-01-15 07:37:45.122534	172.8	45.1	-81.2	0.0
2025-01-15 07:37:46.246666	173.0	44.8	-81.2	0.0
2025-01-15 07:37:47.367654	173.2	44.4	-81.2	0.0
2025-01-15 07:37:48.491169	173.5	44.1	-81.1	0.0
2025-01-15 07:37:49.615715	173.7	43.8	-81.0	0.0
2025-01-15 07:37:50.741622	173.9	43.5	-81.1	0.0
2025-01-15 07:37:51.864486	174.1	43.2	-81.1	0.0
2025-01-15 07:37:52.987097	174.3	42.9	-81.2	0.0
2025-01-15 07:37:54.108689	174.5	42.6	-81.1	0.0
2025-01-15 07:37:55.230428	174.7	42.3	-81.2	0.0
2025-01-15 07:37:56.352349	174.9	42.0	-81.3	0.0
2025-01-15 07:37:57.476146	175.1	41.7	-81.3	0.0
2025-01-15 07:37:58.599565	175.3	41.4	-81.2	0.0
2025-01-15 07:37:59.722403	175.5	41.1	-81.0	0.0
2025-01-15 07:38:00.844410	175.7	40.8	-81.3	0.0
2025-01-15 07:38:01.968844	175.8	40.6	-81.4	0.0
2025-01-15 07:38:03.092534	176.0	40.3	-81.4	0.0
2025-01-15 07:38:04.217266	176.2	40.0	-81.2	0.0
2025-01-15 07:38:05.338102	176.4	39.7	-81.2	0.0
2025-01-15 07:38:06.459588	176.5	39.4	-81.6	0.0
2025-01-15 07:38:07.583460	176.7	39.2	-81.5	0.0
2025-01-15 07:38:08.706344	176.9	38.9	-81.5	0.0
2025-01-15 07:38:09.828961	177.0	38.6	-81.6	0.0
2025-01-15 07:38:10.952837	177.2	38.3	-81.6	0.0
2025-01-15 07:38:12.074112	177.3	38.1	-81.6	0.0
2025-01-15 07:38:13.199329	177.5	37.8	-81.8	0.0
2025-01-15 07:38:14.322635	177.6	37.5	-81.8	0.0
2025-01-15 07:38:15.444061	177.8	37.3	-81.6	0.0
2025-01-15 07:38:16.567312	177.9	37.0	-81.8	0.0
2025-01-15 07:38:17.690349	178.1	36.7	-81.9	0.0
2025-01-15 07:38:18.815608	178.2	36.5	-82.0	0.0
2025-01-15 07:38:19.939563	178.3	36.2	-82.0	0.0
2025-01-15 07:38:21.062051	178.5	36.0	-81.9	0.0
2025-01-15 07:38:22.184752	178.6	35.7	-82.1	0.0
2025-01-15 07:38:23.307249	178.7	35.5	-82.0	0.0
2025-01-15 07:38:24.429192	178.9	35.2	-82.0	0.0
2025-01-15 07:38:25.552664	179.0	35.0	-81.9	0.0
2025-01-15 07:38:26.675736	179.1	34.7	-82.3	0.0
2025-01-15 07:38:27.800559	179.3	34.5	-82.0	0.0
2025-01-15 07:38:28.925113	179.4	34.2	-82.0	0.0
2025-01-15 07:38:30.049090	179.5	34.0	-81.9	0.0
2025-01-15 07:38:31.171300	179.6	33.8	-82.1	0.0
2025-01-15 07:38:32.294258	179.7	33.5	-82.4	0.0
2025-01-15 07:38:33.419155	179.9	33.3	-81.9	0.0
2025-01-15 07:38:34.539384	180.0	33.1	-82.0	0.0
2025-01-15 07:38:35.660630	180.1	32.8	-82.1	0.0
2025-01-15 07:38:36.785072	180.2	32.6	-82.1	0.0
2025-01-15 07:38:37.907784	180.3	32.4	-82.4	0.0
2025-01-15 07:38:39.031708	180.4	32.1	-82.3	0.0
2025-01-15 07:38:40.157091	180.5	31.9	-82.3	0.0
2025-01-15 07:38:41.278576	180.6	31.7	-82.2	0.0
2025-01-15 07:38:42.400766	180.7	31.5	-82.4	0.0
2025-01-15 07:38:43.523770	180.8	31.3	-82.4	0.0
2025-01-15 07:38:44.646350	180.9	31.0	-82.3	0.0
2025-01-15 07:38:45.772203	181.0	30.8	-82.3	0.0
2025-01-15 07:38:46.898531	181.1	30.6	-82.1	0.0
2025-01-15 07:38:48.021829	181.2	30.4	-82.3	0.0
2025-01-15 07:38:49.146420	181.3	30.2	-82.3	0.0
2025-01-15 07:38:50.270814	181.4	30.0	-82.2	0.0
2025-01-15 07:38:51.396182	181.5	29.8	-82.1	0.0
2025-01-15 07:38:52.519901	181.6	29.5	-82.4	0.0
2025-01-15 07:38:53.643211	181.7	29.3	-82.4	0.0
2025-01-15 07:38:54.764457	181.8	29.1	-81.7	0.0
2025-01-15 07:38:55.887061	181.9	28.9	-81.9	0.0
2025-01-15 07:38:57.011662	182.0	28.7	-82.3	0.0
2025-01-15 07:38:58.136522	182.1	28.5	-82.3	0.0
2025-01-15 07:38:59.260245	182.1	28.3	-82.4	0.0
2025-01-15 07:39:00.382290	182.2	28.1	-82.4	0.0
2025-01-15 07:39:01.506037	182.3	27.9	-82.2	0.0
2025-01-15 07:39:02.628095	182.4	27.7	-82.4	0.0
2025-01-15 07:39:03.751137	182.5	27.5	-82.4	0.0
2025-01-15 07:39:04.875740	182.6	27.3	-82.4	0.0
2025-01-15 07:39:05.999116	182.6	27.2	-82.3	0.0
2025-01-15 07:39:07.122368	182.7	27.0	-82.3	0.0
2025-01-15 07:39:08.244887	182.8	26.8	-82.3	0.0
2025-01-15 07:39:09.367248	182.9	26.6	-82.3	0.0
2025-01-15 07:39:10.489364	183.0	26.4	-82.4	0.0
2025-01-15 07:39:11.611389	183.0	26.2	-82.5	0.0
2025-01-15 07:39:12.733567	183.1	26.0	-82.4	0.0
2025-01-15 07:39:13.858562	183.2	25.9	-82.3	0.0
2025-01-15 07:39:14.981548	183.3	25.7	-82.2	0.0
2025-01-15 07:39:16.105245	183.3	25.5	-82.1	0.0
2025-01-15 07:39:17.228672	183.4	25.3	-82.0	0.0
2025-01-15 07:39:18.353475	183.5	25.1	-81.8	0.0
2025-01-15 07:39:19.477571	183.5	25.0	-82.2	0.0
2025-01-15 07:39:20.599861	183.6	24.8	-82.0	0.0
2025-01-15 07:39:21.724997	183.7	24.6	-82.2	0.0
2025-01-15 07:39:22.848506	183.8	24.4	-82.4	0.0
2025-01-15 07:39:23.972606	183.8	24.3	-82.1	0.0
2025-01-15 07:39:25.097747	183.9	24.1	-82.1	0.0
2025-01-15 07:39:26.221202	184.0	23.9	-82.3	0.0
2025-01-15 07:39:27.346645	184.0	23.7	-82.3	0.0
2025-01-15 07:39:28.468808	184.1	23.6	-82.2	0.0
2025-01-15 07:39:29.594971	184.2	23.4	-82.2	0.0
2025-01-15 07:39:30.717833	184.2	23.2	-82.3	0.0
2025-01-15 07:39:31.840008	184.3	23.1	-82.0	0.0
2025-01-15 07:39:32.962571	184.3	22.9	-82.2	0.0
2025-01-15 07:39:34.084282	184.4	22.8	-82.3	0.0
2025-01-15 07:39:35.205613	184.5	22.6	-82.3	0.0
2025-01-15 07:39:36.329632	184.5	22.4	-82.2	0.0
2025-01-15 07:39:37.452897	184.6	22.3	-82.0	0.0
2025-01-15 07:39:38.578486	184.6	22.1	-82.4	0.0
2025-01-15 07:39:39.699202	184.7	22.0	-82.3	0.0
2025-01-15 07:39:40.822643	184.8	21.8	-82.3	0.0
2025-01-15 07:39:41.945417	184.8	21.6	-82.4	0.0
2025-01-15 07:39:43.068509	184.9	21.5	-82.4	0.0
2025-01-15 07:39:44.191869	184.9	21.3	-82.5	0.0
2025-01-15 07:39:45.315569	185.0	21.2	-82.3	0.0
2025-01-15 07:39:46.438534	185.0	21.0	-82.2	0.0
2025-01-15 07:39:47.560691	185.1	20.9	-82.4	0.0
2025-01-15 07:39:48.684757	185.2	20.7	-82.4	0.0
2025-01-15 07:39:49.807431	185.2	20.6	-82.5	0.0
2025-01-15 07:39:50.930107	185.3	20.4	-82.3	0.0
2025-01-15 07:39:52.053915	185.3	20.3	-82.2	0.0
2025-01-15 07:39:53.177214	185.4	20.1	-82.3	0.0
2025-01-15 07:39:54.300558	185.4	20.0	-82.4	0.0
2025-01-15 07:39:55.423822	185.5	19.8	-82.4	0.0
2025-01-15 07:39:56.547193	185.5	19.7	-82.3	0.0
2025-01-15 07:39:57.668549	185.6	19.5	-82.5	0.0
2025-01-15 07:39:58.790711	185.6	19.4	-82.4	0.0
2025-01-15 07:39:59.914307	185.7	19.3	-82.2	0.0
2025-01-15 07:40:01.035985	185.7	19.1	-82.5	0.0
2025-01-15 07:40:02.158604	185.8	19.0	-82.6	0.0
2025-01-15 07:40:03.282003	185.8	18.8	-82.5	0.0
2025-01-15 07:40:04.404641	185.9	18.7	-82.3	0.0
2025-01-15 07:40:05.527321	185.9	18.6	-82.4	0.0
2025-01-15 07:40:06.649710	186.0	18.4	-82.4	0.0
2025-01-15 07:40:07.772463	186.0	18.3	-82.5	0.0
2025-01-15 07:40:08.896719	186.1	18.1	-82.6	0.0
2025-01-15 07:40:10.021972	186.1	18.0	-82.7	0.0
2025-01-15 07:40:11.144357	186.2	17.9	-82.5	0.0
2025-01-15 07:40:12.269484	186.2	17.7	-82.4	0.0
2025-01-15 07:40:13.393673	186.2	17.6	-82.2	0.0
2025-01-15 07:40:14.518754	186.3	17.5	-82.5	0.0
2025-01-15 07:40:15.639644	186.3	17.3	-82.5	0.0
2025-01-15 07:40:16.762418	186.4	17.2	-82.5	0.0
2025-01-15 07:40:17.887949	186.4	17.1	-82.6	0.0
2025-01-15 07:40:19.009644	186.5	17.0	-82.5	0.0
2025-01-15 07:40:20.131215	186.5	16.8	-82.5	0.0
2025-01-15 07:40:21.253584	186.5	16.7	-82.3	0.0
2025-01-15 07:40:22.379680	186.6	16.6	-82.5	0.0
2025-01-15 07:40:23.502596	186.6	16.4	-82.4	0.0
2025-01-15 07:40:24.626428	186.7	16.3	-82.1	0.0
2025-01-15 07:40:25.749579	186.7	16.2	-82.6	0.0
2025-01-15 07:40:26.873971	186.8	16.1	-82.3	0.0
2025-01-15 07:40:27.996017	186.8	15.9	-82.6	0.0
2025-01-15 07:40:29.118781	186.8	15.8	-82.4	0.0
2025-01-15 07:40:30.241189	186.9	15.7	-82.3	0.0
2025-01-15 07:40:31.362216	186.9	15.6	-82.5	0.0
2025-01-15 07:40:32.484950	187.0	15.4	-82.6	0.0
2025-01-15 07:40:33.604750	187.0	15.3	-82.5	0.0
2025-01-15 07:40:34.727314	187.0	15.2	-82.5	0.0
2025-01-15 07:40:35.849727	187.1	15.1	-82.5	0.0
2025-01-15 07:40:36.973603	187.1	15.0	-82.6	0.0
2025-01-15 07:40:38.096324	187.2	14.8	-82.5	0.0
2025-01-15 07:40:39.221314	187.2	14.7	-82.3	0.0
2025-01-15 07:40:40.345508	187.2	14.6	-82.5	0.0
2025-01-15 07:40:41.468871	187.3	14.5	-82.3	0.0
2025-01-15 07:40:42.591897	187.3	14.4	-82.5	0.0
2025-01-15 07:40:43.714267	187.3	14.3	-82.4	0.0
2025-01-15 07:40:44.839480	187.4	14.1	-82.5	0.0
2025-01-15 07:40:45.962869	187.4	14.0	-82.7	0.0
2025-01-15 07:40:47.085987	187.4	13.9	-82.3	0.0
2025-01-15 07:40:48.209070	187.5	13.8	-82.7	0.0
2025-01-15 07:40:49.332250	187.5	13.7	-82.5	0.0
2025-01-15 07:40:50.455308	187.6	13.6	-82.4	0.0
2025-01-15 07:40:51.580734	187.6	13.5	-82.5	0.0
2025-01-15 07:40:52.704430	187.6	13.3	-82.4	0.0
2025-01-15 07:40:53.828522	187.7	13.2	-82.5	0.0
2025-01-15 07:40:54.952073	187.7	13.1	-82.6	0.0
2025-01-15 07:40:56.074695	187.7	13.0	-82.5	0.0
2025-01-15 07:40:57.196736	187.8	12.9	-82.5	0.0
2025-01-15 07:40:58.319607	187.8	12.8	-82.6	0.0
2025-01-15 07:40:59.442638	187.8	12.7	-82.5	0.0
2025-01-15 07:41:00.566712	187.9	12.6	-82.3	0.0
2025-01-15 07:41:01.689639	187.9	12.5	-82.3	0.0
2025-01-15 07:41:02.814577	187.9	12.4	-82.2	0.0
2025-01-15 07:41:03.934195	188.0	12.3	-82.4	0.0
2025-01-15 07:41:05.057729	188.0	12.1	-82.1	0.0
2025-01-15 07:41:06.179508	188.0	12.0	-82.6	0.0
2025-01-15 07:41:07.302163	188.1	11.9	-82.4	0.0
2025-01-15 07:41:08.425963	188.1	11.8	-82.5	0.0
2025-01-15 07:41:09.549279	188.1	11.7	-82.6	0.0
2025-01-15 07:41:10.672666	188.2	11.6	-82.4	0.0
2025-01-15 07:41:11.796012	188.2	11.5	-82.3	0.0
2025-01-15 07:41:12.917685	188.2	11.4	-82.5	0.0
2025-01-15 07:41:14.039809	188.2	11.3	-82.3	0.0
2025-01-15 07:41:15.161934	188.3	11.2	-82.3	0.0
2025-01-15 07:41:16.286452	188.3	11.1	-82.5	0.0
2025-01-15 07:41:17.410397	188.3	11.0	-82.2	0.0
2025-01-15 07:41:18.532643	188.4	10.9	-82.3	0.0
2025-01-15 07:41:19.654846	188.4	10.8	-82.2	0.0
2025-01-15 07:41:20.778256	188.4	10.7	-82.7	0.0
2025-01-15 07:41:21.900705	188.5	10.6	-82.3	0.0
2025-01-15 07:41:23.023341	188.5	10.5	-82.5	0.0
2025-01-15 07:41:24.146217	188.5	10.4	-82.6	0.0
2025-01-15 07:41:25.269534	188.5	10.3	-82.7	0.0
2025-01-15 07:41:26.394841	188.6	10.2	-82.1	0.0
2025-01-15 07:41:27.516919	188.6	10.1	-82.2	0.0
#Closed at: 2025-01-15 07:30:40.140778