passes_logs/2026/01/05/T1/T1__20260105_223408_NOAA_21_JPSS-2_rec.log

#Pass ID: 20260105_223408_NOAA 21 (JPSS-2)
#Satellite: NOAA 21 (JPSS-2)
#Configuration: NOAA 21
#almurnet v.1.7.20251203
#Start time: 2026-01-05 22:34:08

#Version: 2.0.20230620
#Station: T1
#Location: 37.570604 lon 55.790049 lat
#TLE: 1 54234U 22150A   26005.21525222  .00000150  00000+0  91957-4 0  9992
#TLE: 2 54234  98.7490 306.2339 0001053 341.6032  18.5106 14.19532220163427

#Time	Az	El	Level	Level2	SNR	BER	BlckErr	Temp	State	Recorded	gain1	gain2
2026-01-05 22:34:08.54	25.21	5.01	-50.1	-63.4	3.8	1.49e+00	0	41	0	0	71	16929
2026-01-05 22:34:09.54	25.28	5.08	-50.1	-63.4	3.8	1.49e+00	0	41	104	0	71	16913
2026-01-05 22:34:10.54	25.34	5.14	-50.1	-63.4	3.8	1.49e+00	0	41	104	0	71	16914
2026-01-05 22:34:11.54	25.41	5.21	-50.1	-63.4	3.8	1.49e+00	0	41	104	0	71	17017
2026-01-05 22:34:12.54	25.47	5.27	-50.1	-63.4	3.8	1.49e+00	0	41	104	0	71	16981
2026-01-05 22:34:13.54	25.54	5.34	-50.1	-63.4	3.8	1.49e+00	0	41	104	0	71	16978
2026-01-05 22:34:14.54	25.61	5.40	-50.1	-63.4	3.8	1.49e+00	0	41	104	0	71	16957
2026-01-05 22:34:15.54	25.67	5.47	-50.1	-63.4	3.8	1.49e+00	0	41	104	0	71	16950
2026-01-05 22:34:16.55	25.74	5.53	-50.1	-63.4	3.8	1.49e+00	0	41	104	0	71	16910
2026-01-05 22:34:17.55	25.81	5.60	-50.1	-63.4	3.8	1.49e+00	0	41	104	0	71	16963
2026-01-05 22:34:18.55	25.88	5.66	-50.1	-63.4	3.8	1.49e+00	0	41	104	0	71	16923
2026-01-05 22:34:19.55	25.95	5.73	-50.1	-63.4	3.8	1.49e+00	0	41	104	0	71	16955
2026-01-05 22:34:20.56	26.01	5.79	-50.1	-63.4	3.8	1.49e+00	0	41	104	0	71	16894
2026-01-05 22:34:21.56	26.08	5.86	-50.2	-63.4	3.8	1.49e+00	0	41	104	0	71	16901
2026-01-05 22:34:22.56	26.15	5.92	-50.2	-63.3	3.8	1.49e+00	0	41	104	0	71	16871
2026-01-05 22:34:23.57	26.22	5.99	-50.1	-63.3	3.8	1.49e+00	0	42	104	0	71	16777
2026-01-05 22:34:24.57	26.29	6.06	-50.1	-63.3	3.8	1.49e+00	0	41	104	0	71	16845
2026-01-05 22:34:25.57	26.36	6.12	-50.1	-63.3	3.8	1.49e+00	0	41	104	0	71	16776
2026-01-05 22:34:26.57	26.43	6.19	-50.1	-63.3	3.8	1.49e+00	0	41	104	0	71	16726
2026-01-05 22:34:27.57	26.50	6.26	-50.1	-63.3	3.8	1.49e+00	0	42	104	0	71	16815
2026-01-05 22:34:28.58	26.57	6.32	-50.1	-63.3	3.8	1.49e+00	0	42	104	0	71	16873
2026-01-05 22:34:29.58	26.64	6.39	-50.1	-63.3	3.8	1.49e+00	0	42	104	0	71	16858
2026-01-05 22:34:30.58	26.72	6.46	-50.1	-63.4	3.8	1.49e+00	0	42	104	0	71	16922
2026-01-05 22:34:31.58	26.79	6.53	-50.1	-63.4	3.8	1.49e+00	0	42	104	0	71	16959
2026-01-05 22:34:32.59	26.86	6.59	-50.1	-63.4	3.8	1.49e+00	0	42	104	0	71	16968
2026-01-05 22:34:33.59	26.93	6.66	-50.1	-63.4	3.8	1.49e+00	0	42	104	0	71	16942
2026-01-05 22:34:34.59	27.00	6.73	-50.1	-63.4	3.8	1.49e+00	0	42	104	0	71	16945
2026-01-05 22:34:35.59	27.08	6.80	-50.1	-63.4	3.8	1.49e+00	0	42	104	0	71	17016
2026-01-05 22:34:36.59	27.15	6.86	-50.1	-63.4	3.8	1.49e+00	0	42	104	0	71	16902
2026-01-05 22:34:37.60	27.22	6.93	-50.2	-63.4	3.8	1.49e+00	0	42	104	0	71	16929
2026-01-05 22:34:38.60	27.30	7.00	-50.1	-63.4	3.8	1.49e+00	0	42	104	0	71	16911
2026-01-05 22:34:39.60	27.37	7.07	-50.1	-63.2	3.8	1.49e+00	0	42	104	0	71	16678
2026-01-05 22:34:40.60	27.45	7.14	-50.1	-63.2	3.8	1.49e+00	0	42	104	0	71	16587
2026-01-05 22:34:41.60	27.52	7.21	-50.1	-63.0	3.8	1.49e+00	0	42	104	0	71	16313
2026-01-05 22:34:42.60	27.60	7.27	-50.1	-63.0	3.8	1.49e+00	0	42	104	0	71	16144
2026-01-05 22:34:43.60	27.67	7.34	-50.1	-63.0	3.8	1.49e+00	0	42	104	0	71	16140
2026-01-05 22:34:44.60	27.75	7.41	-50.1	-63.1	3.8	1.49e+00	0	42	104	0	71	16388
2026-01-05 22:34:45.61	27.83	7.48	-50.1	-63.2	3.8	1.49e+00	0	42	104	0	71	16633
2026-01-05 22:34:46.61	27.90	7.55	-50.1	-63.3	3.8	1.49e+00	0	42	104	0	71	16836
2026-01-05 22:34:47.61	27.98	7.62	-50.1	-63.4	3.8	1.49e+00	0	42	104	0	71	16889
2026-01-05 22:34:48.61	28.06	7.69	-50.1	-63.3	3.8	1.49e+00	0	42	104	0	71	16750
2026-01-05 22:34:49.62	28.13	7.76	-50.1	-63.1	3.8	1.49e+00	0	42	104	0	71	16474
2026-01-05 22:34:50.62	28.21	7.83	-50.1	-62.9	3.8	1.49e+00	0	42	104	0	71	16034
2026-01-05 22:34:51.62	28.29	7.90	-50.0	-62.8	3.8	1.49e+00	0	42	104	0	71	15816
2026-01-05 22:34:52.63	28.37	7.97	-50.1	-62.7	3.8	1.49e+00	0	42	104	0	71	15605
2026-01-05 22:34:53.63	28.45	8.04	-50.0	-62.8	3.8	1.49e+00	0	42	104	0	71	15784
2026-01-05 22:34:54.63	28.53	8.11	-50.0	-62.9	3.8	1.49e+00	0	42	104	0	71	15995
2026-01-05 22:34:55.64	28.61	8.18	-50.1	-63.0	3.8	1.49e+00	0	42	104	0	71	16265
2026-01-05 22:34:56.64	28.69	8.25	-50.1	-63.0	3.8	1.49e+00	0	42	104	0	71	16232
2026-01-05 22:34:57.64	28.77	8.32	-50.1	-62.8	3.8	1.49e+00	0	43	104	0	71	15831
2026-01-05 22:34:58.65	28.85	8.40	-50.1	-62.4	3.8	1.49e+00	0	42	104	0	71	15156
2026-01-05 22:34:59.65	28.93	8.47	-50.0	-62.0	3.8	1.49e+00	0	42	104	0	71	14487
2026-01-05 22:35:00.65	29.01	8.54	-49.9	-61.6	3.8	1.49e+00	0	43	104	0	71	13781
2026-01-05 22:35:01.65	29.09	8.61	-49.9	-61.3	3.9	1.49e+00	0	42	104	0	71	13381
2026-01-05 22:35:02.66	29.18	8.68	-49.9	-60.6	4.0	1.48e+00	0	43	104	0	71	12326
2026-01-05 22:35:03.66	29.26	8.76	-49.8	-60.3	4.1	1.48e+00	0	43	104	0	71	11948
2026-01-05 22:35:04.66	29.34	8.83	-49.8	-59.8	4.2	1.47e+00	0	43	104	0	71	11182
2026-01-05 22:35:05.67	29.43	8.90	-49.6	-58.7	4.3	1.35e+00	0	42	104	0	71	9859
2026-01-05 22:35:06.67	29.51	8.97	-49.3	-57.3	5.3	6.66e-01	0	43	0	0	70	8878
2026-01-05 22:35:07.67	29.60	9.04	-48.9	-55.5	6.6	2.82e-01	0	42	0	0	69	7711
2026-01-05 22:35:08.68	29.68	9.12	-49.7	-60.1	3.9	4.36e-01	0	43	104	0	69	13047
2026-01-05 22:35:09.67	29.77	9.19	-49.8	-60.0	4.1	1.47e+00	0	43	104	0	70	12227
2026-01-05 22:35:10.67	29.85	9.26	-48.1	-53.3	8.6	2.44e-01	0	43	0	0	68	6339
2026-01-05 22:35:11.68	29.94	9.34	-49.3	-57.0	5.6	3.50e-02	0	42	0	0	69	9155
2026-01-05 22:35:12.68	30.02	9.41	-46.4	-50.0	11.8	2.73e-01	0	43	0	0	65	5146
2026-01-05 22:35:13.68	30.11	9.48	-44.3	-46.9	15.2	0.00e+00	0	43	0	0	60	4785
2026-01-05 22:35:14.68	30.20	9.56	-43.7	-46.1	15.8	0.00e+00	0	43	0	0	59	4643
2026-01-05 22:35:15.68	30.29	9.63	-43.3	-45.6	16.4	0.00e+00	0	43	0	0	58	4619
2026-01-05 22:35:16.69	30.37	9.71	-43.1	-45.3	16.6	0.00e+00	0	43	0	0	58	4471
2026-01-05 22:35:17.69	30.46	9.78	-42.9	-45.0	16.9	0.00e+00	0	43	0	0	57	4582
2026-01-05 22:35:18.69	30.55	9.85	-42.9	-45.1	16.9	0.00e+00	0	43	0	0	57	4605
2026-01-05 22:35:19.69	30.64	9.93	-42.8	-44.9	17.1	0.00e+00	0	43	0	0	57	4503
2026-01-05 22:35:20.69	30.73	10.00	-42.9	-45.1	16.9	0.00e+00	0	43	0	0	57	4616
2026-01-05 22:35:21.70	30.82	10.08	-42.9	-45.0	17.0	0.00e+00	0	43	0	0	57	4578
2026-01-05 22:35:22.70	30.91	10.15	-42.8	-45.0	17.0	0.00e+00	0	43	0	0	57	4566
2026-01-05 22:35:23.70	31.00	10.23	-42.9	-45.1	16.9	0.00e+00	0	43	0	0	57	4616
2026-01-05 22:35:24.70	31.09	10.30	-43.0	-45.2	16.9	0.00e+00	0	43	0	0	57	4654
2026-01-05 22:35:25.70	31.19	10.38	-43.0	-45.2	16.9	0.00e+00	0	43	0	0	57	4664
2026-01-05 22:35:26.71	31.28	10.46	-42.8	-44.9	17.1	0.00e+00	0	43	0	0	57	4514
2026-01-05 22:35:27.71	31.37	10.53	-42.7	-44.8	17.2	0.00e+00	0	43	0	0	57	4479
2026-01-05 22:35:28.71	31.46	10.61	-42.6	-44.7	17.3	0.00e+00	0	43	0	0	57	4427
2026-01-05 22:35:29.71	31.56	10.68	-42.6	-44.6	17.4	0.00e+00	0	43	0	0	57	4364
2026-01-05 22:35:30.70	31.65	10.76	-42.5	-44.6	17.5	0.00e+00	0	43	0	0	57	4347
2026-01-05 22:35:31.71	31.75	10.84	-42.4	-44.4	17.6	0.00e+00	0	43	0	0	56	4529
2026-01-05 22:35:32.71	31.84	10.91	-42.4	-44.4	17.7	0.00e+00	0	43	0	0	56	4506
2026-01-05 22:35:33.70	31.94	10.99	-42.4	-44.4	17.6	0.00e+00	0	43	0	0	56	4524
2026-01-05 22:35:34.70	32.03	11.07	-42.4	-44.5	17.6	0.00e+00	0	43	0	0	56	4561
2026-01-05 22:35:35.70	32.13	11.14	-42.3	-44.3	17.7	0.00e+00	0	43	0	0	56	4466
2026-01-05 22:35:36.70	32.23	11.22	-42.2	-44.3	17.8	0.00e+00	0	43	0	0	56	4448
2026-01-05 22:35:37.71	32.32	11.30	-42.4	-44.4	17.6	0.00e+00	0	43	0	0	56	4534
2026-01-05 22:35:38.71	32.42	11.38	-42.2	-44.2	17.8	0.00e+00	0	43	0	0	56	4434
2026-01-05 22:35:39.71	32.52	11.46	-42.3	-44.3	17.7	0.00e+00	0	43	0	0	56	4487
2026-01-05 22:35:40.71	32.62	11.53	-42.3	-44.3	17.8	0.00e+00	0	43	0	0	56	4462
2026-01-05 22:35:41.71	32.72	11.61	-42.2	-44.2	17.8	0.00e+00	0	43	0	0	56	4436
2026-01-05 22:35:42.71	32.82	11.69	-42.1	-44.1	17.9	0.00e+00	0	43	0	0	56	4372
2026-01-05 22:35:43.71	32.92	11.77	-42.1	-44.1	17.9	0.00e+00	0	43	0	0	56	4382
2026-01-05 22:35:44.71	33.02	11.85	-42.0	-44.0	18.0	0.00e+00	0	43	0	0	56	4313
2026-01-05 22:35:45.71	33.12	11.93	-42.1	-44.1	18.0	0.00e+00	0	43	0	0	56	4351
2026-01-05 22:35:46.71	33.22	12.01	-42.1	-44.1	17.9	0.00e+00	0	43	0	0	56	4369
2026-01-05 22:35:47.71	33.33	12.09	-42.2	-44.2	17.9	0.00e+00	0	43	0	0	56	4410
2026-01-05 22:35:48.71	33.43	12.17	-42.2	-44.2	17.9	0.00e+00	0	43	0	0	56	4400
2026-01-05 22:35:49.71	33.53	12.25	-42.1	-44.1	18.0	0.00e+00	0	43	0	0	56	4348
2026-01-05 22:35:50.71	33.64	12.33	-42.1	-44.1	18.0	0.00e+00	0	43	0	0	56	4356
2026-01-05 22:35:51.71	33.74	12.41	-42.2	-44.2	17.9	0.00e+00	0	43	0	0	56	4393
2026-01-05 22:35:52.71	33.85	12.49	-42.1	-44.1	18.0	0.00e+00	0	43	0	0	56	4344
2026-01-05 22:35:53.71	33.95	12.57	-42.1	-44.0	18.0	0.00e+00	0	43	0	0	56	4335
2026-01-05 22:35:54.71	34.06	12.65	-42.1	-44.1	18.0	0.00e+00	0	43	0	0	56	4342
2026-01-05 22:35:55.71	34.17	12.73	-42.0	-43.9	18.1	0.00e+00	0	43	0	0	56	4291
2026-01-05 22:35:56.71	34.28	12.81	-41.9	-43.9	18.1	0.00e+00	0	43	0	0	55	4503
2026-01-05 22:35:57.71	34.38	12.89	-42.0	-43.9	18.0	0.00e+00	0	43	0	0	55	4541
2026-01-05 22:35:58.71	34.49	12.97	-41.9	-43.8	18.1	0.00e+00	0	43	0	0	55	4476
2026-01-05 22:35:59.72	34.60	13.05	-41.9	-43.8	18.1	0.00e+00	0	43	0	0	55	4485
2026-01-05 22:36:00.71	34.71	13.13	-41.8	-43.7	18.2	0.00e+00	0	43	0	0	55	4404
2026-01-05 22:36:01.71	34.82	13.22	-41.8	-43.7	18.1	0.00e+00	0	43	0	0	55	4438
2026-01-05 22:36:02.72	34.93	13.30	-41.8	-43.7	18.1	0.00e+00	0	43	0	0	55	4433
2026-01-05 22:36:03.71	35.04	13.38	-41.7	-43.7	18.1	0.00e+00	0	43	0	0	55	4420
2026-01-05 22:36:04.72	35.16	13.46	-41.7	-43.7	18.2	0.00e+00	0	43	0	0	55	4403
2026-01-05 22:36:05.72	35.27	13.55	-41.8	-43.8	18.1	0.00e+00	0	43	0	0	55	4445
2026-01-05 22:36:06.72	35.38	13.63	-41.7	-43.7	18.2	0.00e+00	0	43	0	0	55	4393
2026-01-05 22:36:07.72	35.50	13.71	-41.7	-43.7	18.2	0.00e+00	0	43	0	0	55	4404
2026-01-05 22:36:08.72	35.61	13.80	-41.7	-43.7	18.2	0.00e+00	0	43	0	0	55	4410
2026-01-05 22:36:09.72	35.73	13.88	-42.0	-44.0	17.9	0.00e+00	0	43	0	0	55	4578
2026-01-05 22:36:10.72	35.84	13.96	-41.9	-43.9	18.1	0.00e+00	0	43	0	0	55	4502
2026-01-05 22:36:11.72	35.96	14.05	-41.8	-43.8	18.1	0.00e+00	0	43	0	0	55	4455
2026-01-05 22:36:12.72	36.08	14.13	-41.9	-43.8	18.0	0.00e+00	0	43	0	0	55	4490
2026-01-05 22:36:13.73	36.20	14.21	-41.8	-43.7	18.1	0.00e+00	0	43	0	0	55	4441
2026-01-05 22:36:14.73	36.31	14.30	-41.7	-43.7	18.2	0.00e+00	0	43	0	0	55	4405
2026-01-05 22:36:15.73	36.43	14.38	-41.8	-43.7	18.2	0.00e+00	0	43	0	0	55	4423
2026-01-05 22:36:16.73	36.55	14.47	-41.9	-43.8	18.1	0.00e+00	0	43	0	0	55	4487
2026-01-05 22:36:17.73	36.67	14.55	-41.9	-43.8	18.1	0.00e+00	0	43	0	0	55	4489
2026-01-05 22:36:18.73	36.79	14.64	-41.8	-43.7	18.2	0.00e+00	0	43	0	0	55	4440
2026-01-05 22:36:19.73	36.92	14.72	-41.8	-43.7	18.2	0.00e+00	0	43	0	0	55	4399
2026-01-05 22:36:20.74	37.04	14.81	-41.8	-43.7	18.2	0.00e+00	0	43	0	0	55	4401
2026-01-05 22:36:21.74	37.16	14.89	-41.8	-43.7	18.2	0.00e+00	0	43	0	0	55	4441
2026-01-05 22:36:22.74	37.29	14.98	-41.9	-43.8	18.1	0.00e+00	0	43	0	0	55	4460
2026-01-05 22:36:23.74	37.41	15.07	-42.0	-44.0	18.0	0.00e+00	0	43	0	0	55	4550
2026-01-05 22:36:24.74	37.54	15.15	-41.9	-43.9	18.0	0.00e+00	0	43	0	0	55	4524
2026-01-05 22:36:25.74	37.66	15.24	-41.9	-43.9	18.0	0.00e+00	0	43	0	0	55	4502
2026-01-05 22:36:26.74	37.79	15.33	-41.9	-43.9	17.9	0.00e+00	0	43	0	0	55	4525
2026-01-05 22:36:27.74	37.92	15.41	-41.9	-43.9	17.9	0.00e+00	0	43	0	0	55	4534
2026-01-05 22:36:28.74	38.04	15.50	-41.9	-43.9	18.0	0.00e+00	0	44	0	0	55	4515
2026-01-05 22:36:29.74	38.17	15.59	-42.0	-43.9	17.9	0.00e+00	0	43	0	0	55	4540
2026-01-05 22:36:30.74	38.30	15.67	-41.9	-43.8	18.1	0.00e+00	0	43	0	0	55	4484
2026-01-05 22:36:31.75	38.43	15.76	-42.0	-43.9	18.0	0.00e+00	0	43	0	0	55	4529
2026-01-05 22:36:32.75	38.56	15.85	-42.0	-43.9	18.0	0.00e+00	0	43	0	0	55	4523
2026-01-05 22:36:33.75	38.70	15.94	-42.0	-44.0	18.0	0.00e+00	0	43	0	0	55	4563
2026-01-05 22:36:34.76	38.83	16.03	-42.2	-44.1	17.8	0.00e+00	0	43	0	0	55	4643
2026-01-05 22:36:35.75	38.96	16.11	-42.2	-44.2	17.8	0.00e+00	0	43	0	0	55	4675
2026-01-05 22:36:36.75	39.10	16.20	-42.1	-44.0	17.9	0.00e+00	0	43	0	0	55	4593
2026-01-05 22:36:37.76	39.23	16.29	-42.1	-44.1	17.8	0.00e+00	0	43	0	0	55	4643
2026-01-05 22:36:38.76	39.37	16.38	-42.2	-44.2	17.8	0.00e+00	0	43	0	0	55	4690
2026-01-05 22:36:39.76	39.50	16.47	-42.2	-44.2	17.8	0.00e+00	0	43	0	0	55	4677
2026-01-05 22:36:40.76	39.64	16.56	-42.2	-44.1	17.9	0.00e+00	0	43	0	0	55	4627
2026-01-05 22:36:41.76	39.78	16.65	-42.3	-44.3	17.7	0.00e+00	0	44	0	0	55	4712
2026-01-05 22:36:42.76	39.92	16.74	-42.0	-44.0	18.0	0.00e+00	0	43	0	0	55	4552
2026-01-05 22:36:43.77	40.06	16.83	-42.1	-44.0	18.0	0.00e+00	0	43	0	0	55	4581
2026-01-05 22:36:44.77	40.20	16.92	-42.0	-43.9	18.1	0.00e+00	0	43	0	0	55	4535
2026-01-05 22:36:45.76	40.34	17.00	-41.9	-43.8	18.2	0.00e+00	0	43	0	0	55	4478
2026-01-05 22:36:46.77	40.48	17.10	-42.0	-43.9	18.2	0.00e+00	0	43	0	0	55	4508
2026-01-05 22:36:47.77	40.62	17.19	-42.0	-43.9	18.1	0.00e+00	0	43	0	0	55	4544
2026-01-05 22:36:48.77	40.77	17.28	-42.0	-43.9	18.1	0.00e+00	0	43	0	0	55	4542
2026-01-05 22:36:49.77	40.91	17.37	-41.8	-43.7	18.4	0.00e+00	0	43	0	0	55	4403
2026-01-05 22:36:50.77	41.06	17.46	-41.8	-43.7	18.3	0.00e+00	0	43	0	0	55	4408
2026-01-05 22:36:51.77	41.20	17.55	-41.8	-43.7	18.3	0.00e+00	0	43	0	0	55	4416
2026-01-05 22:36:52.78	41.35	17.64	-41.7	-43.6	18.4	0.00e+00	0	43	0	0	55	4379
2026-01-05 22:36:53.78	41.50	17.73	-41.7	-43.6	18.4	0.00e+00	0	43	0	0	55	4342
2026-01-05 22:36:54.78	41.65	17.82	-41.5	-43.4	18.6	0.00e+00	0	43	0	0	55	4249
2026-01-05 22:36:55.78	41.80	17.91	-41.5	-43.4	18.6	0.00e+00	0	43	0	0	55	4258
2026-01-05 22:36:56.78	41.95	18.01	-41.6	-43.5	18.5	0.00e+00	0	43	0	0	55	4304
2026-01-05 22:36:57.78	42.10	18.10	-41.6	-43.5	18.4	0.00e+00	0	44	0	0	55	4308
2026-01-05 22:36:58.79	42.25	18.19	-41.7	-43.6	18.4	0.00e+00	0	43	0	0	55	4344
2026-01-05 22:36:59.79	42.40	18.28	-41.4	-43.2	18.7	0.00e+00	0	43	0	0	54	4440
2026-01-05 22:37:00.76	42.55	18.37	-41.3	-43.1	18.8	0.00e+00	0	43	0	0	54	4384
2026-01-05 22:37:01.76	42.71	18.46	-41.2	-43.0	18.9	0.00e+00	0	43	0	0	54	4326
2026-01-05 22:37:02.76	42.86	18.56	-41.2	-43.0	18.9	0.00e+00	0	43	0	0	54	4331
2026-01-05 22:37:03.77	43.02	18.65	-41.2	-43.0	18.9	0.00e+00	0	43	0	0	54	4303
2026-01-05 22:37:04.77	43.18	18.74	-41.3	-43.1	18.9	0.00e+00	0	44	0	0	54	4348
2026-01-05 22:37:05.77	43.34	18.84	-41.4	-43.2	18.8	0.00e+00	0	43	0	0	54	4412
2026-01-05 22:37:06.77	43.50	18.93	-41.4	-43.3	18.7	0.00e+00	0	43	0	0	54	4455
2026-01-05 22:37:07.77	43.66	19.02	-41.4	-43.3	18.7	0.00e+00	0	44	0	0	54	4445
2026-01-05 22:37:08.77	43.82	19.12	-41.4	-43.2	18.7	0.00e+00	0	43	0	0	54	4418
2026-01-05 22:37:09.77	43.98	19.21	-41.4	-43.3	18.7	0.00e+00	0	43	0	0	54	4460
2026-01-05 22:37:10.78	44.15	19.30	-41.5	-43.4	18.5	0.00e+00	0	43	0	0	54	4512
2026-01-05 22:37:11.78	44.31	19.40	-41.4	-43.3	18.7	0.00e+00	0	43	0	0	54	4452
2026-01-05 22:37:12.78	44.48	19.49	-41.4	-43.3	18.7	0.00e+00	0	43	0	0	54	4444
2026-01-05 22:37:13.78	44.64	19.59	-41.4	-43.2	18.7	0.00e+00	0	43	0	0	54	4417
2026-01-05 22:37:14.79	44.81	19.68	-41.4	-43.2	18.7	0.00e+00	0	43	0	0	54	4413
2026-01-05 22:37:15.78	44.98	19.77	-41.3	-43.2	18.8	0.00e+00	0	43	0	0	54	4400
2026-01-05 22:37:16.78	45.15	19.87	-41.3	-43.1	18.8	0.00e+00	0	43	0	0	54	4373
2026-01-05 22:37:17.79	45.32	19.96	-41.3	-43.1	18.8	0.00e+00	0	43	0	0	54	4380
2026-01-05 22:37:18.79	45.49	20.06	-41.3	-43.1	18.9	0.00e+00	0	43	0	0	54	4375
2026-01-05 22:37:19.78	45.66	20.15	-41.2	-43.1	18.9	0.00e+00	0	44	0	0	54	4348
2026-01-05 22:37:20.79	45.84	20.25	-41.3	-43.1	18.9	0.00e+00	0	43	0	0	54	4377
2026-01-05 22:37:21.79	46.01	20.34	-41.3	-43.1	18.9	0.00e+00	0	44	0	0	54	4354
2026-01-05 22:37:22.79	46.19	20.44	-41.2	-43.0	19.0	0.00e+00	0	43	0	0	54	4327
2026-01-05 22:37:23.79	46.36	20.53	-41.1	-42.9	19.0	0.00e+00	0	43	0	0	54	4273
2026-01-05 22:37:24.79	46.54	20.63	-41.0	-42.8	19.1	0.00e+00	0	43	0	0	54	4230
2026-01-05 22:37:25.79	46.72	20.73	-40.9	-42.7	19.1	0.00e+00	0	44	0	0	53	4419
2026-01-05 22:37:26.79	46.90	20.82	-40.8	-42.5	19.3	0.00e+00	0	44	0	0	53	4336
2026-01-05 22:37:27.79	47.08	20.92	-40.7	-42.5	19.3	0.00e+00	0	44	0	0	53	4308
2026-01-05 22:37:28.79	47.26	21.01	-40.6	-42.4	19.4	0.00e+00	0	43	0	0	53	4243
2026-01-05 22:37:29.79	47.44	21.11	-40.6	-42.4	19.5	0.00e+00	0	43	0	0	53	4249
2026-01-05 22:37:30.79	47.63	21.20	-40.6	-42.3	19.6	0.00e+00	0	43	0	0	53	4209
2026-01-05 22:37:31.79	47.81	21.30	-40.6	-42.3	19.5	0.00e+00	0	43	0	0	53	4224
2026-01-05 22:37:32.79	48.00	21.40	-40.7	-42.4	19.4	0.00e+00	0	43	0	0	53	4278
2026-01-05 22:37:33.79	48.19	21.49	-40.7	-42.5	19.4	0.00e+00	0	43	0	0	53	4298
2026-01-05 22:37:34.80	48.38	21.59	-40.8	-42.5	19.4	0.00e+00	0	44	0	0	53	4331
2026-01-05 22:37:35.80	48.57	21.68	-40.8	-42.6	19.3	0.00e+00	0	43	0	0	53	4344
2026-01-05 22:37:36.80	48.76	21.78	-40.8	-42.6	19.3	0.00e+00	0	43	0	0	53	4364
2026-01-05 22:37:37.80	48.95	21.88	-40.9	-42.7	19.2	0.00e+00	0	43	0	0	53	4413
2026-01-05 22:37:38.80	49.15	21.97	-40.8	-42.5	19.3	0.00e+00	0	43	0	0	53	4331
2026-01-05 22:37:39.80	49.34	22.07	-40.7	-42.4	19.4	0.00e+00	0	43	0	0	53	4290
2026-01-05 22:37:40.81	49.54	22.17	-40.8	-42.5	19.3	0.00e+00	0	44	0	0	53	4336
2026-01-05 22:37:41.81	49.73	22.26	-40.7	-42.5	19.4	0.00e+00	0	43	0	0	53	4309
2026-01-05 22:37:42.81	49.93	22.36	-40.7	-42.5	19.4	0.00e+00	0	43	0	0	53	4311
2026-01-05 22:37:43.81	50.13	22.46	-40.8	-42.6	19.4	0.00e+00	0	43	0	0	53	4343
2026-01-05 22:37:44.81	50.33	22.55	-40.7	-42.5	19.4	0.00e+00	0	43	0	0	53	4309
2026-01-05 22:37:45.81	50.53	22.65	-40.7	-42.4	19.6	0.00e+00	0	44	0	0	53	4255
2026-01-05 22:37:46.81	50.74	22.75	-40.7	-42.4	19.5	0.00e+00	0	43	0	0	53	4278
2026-01-05 22:37:47.81	50.94	22.84	-40.6	-42.3	19.6	0.00e+00	0	44	0	0	53	4223
2026-01-05 22:37:48.81	51.15	22.94	-40.6	-42.3	19.6	0.00e+00	0	43	0	0	53	4241
2026-01-05 22:37:49.81	51.35	23.03	-40.6	-42.4	19.5	0.00e+00	0	43	0	0	53	4243
2026-01-05 22:37:50.81	51.56	23.13	-40.6	-42.3	19.5	0.00e+00	0	43	0	0	53	4218
2026-01-05 22:37:51.81	51.77	23.23	-40.7	-42.5	19.4	0.00e+00	0	43	0	0	53	4297
2026-01-05 22:37:52.81	51.98	23.32	-40.7	-42.4	19.4	0.00e+00	0	43	0	0	53	4264
2026-01-05 22:37:53.82	52.20	23.42	-40.6	-42.4	19.5	0.00e+00	0	43	0	0	53	4256
2026-01-05 22:37:54.82	52.41	23.52	-40.7	-42.4	19.4	0.00e+00	0	43	0	0	53	4286
2026-01-05 22:37:55.82	52.62	23.61	-40.8	-42.5	19.4	0.00e+00	0	43	0	0	53	4325
2026-01-05 22:37:56.82	52.84	23.71	-40.8	-42.6	19.3	0.00e+00	0	43	0	0	53	4344
2026-01-05 22:37:57.83	53.06	23.81	-40.8	-42.6	19.3	0.00e+00	0	44	0	0	53	4354
2026-01-05 22:37:58.83	53.28	23.90	-40.9	-42.7	19.3	0.00e+00	0	43	0	0	53	4398
2026-01-05 22:37:59.83	53.50	24.00	-41.0	-42.8	19.2	0.00e+00	0	44	0	0	53	4446
2026-01-05 22:38:00.84	53.72	24.10	-41.1	-42.9	19.1	0.00e+00	0	43	0	0	53	4505
2026-01-05 22:38:01.84	53.94	24.19	-41.1	-42.9	19.1	0.00e+00	0	43	0	0	53	4495
2026-01-05 22:38:02.84	54.17	24.29	-41.1	-42.9	19.1	0.00e+00	0	43	0	0	53	4532
2026-01-05 22:38:03.84	54.39	24.38	-41.1	-42.9	19.0	0.00e+00	0	43	0	0	53	4533
2026-01-05 22:38:04.84	54.62	24.48	-41.1	-42.9	19.1	0.00e+00	0	44	0	0	53	4503
2026-01-05 22:38:05.84	54.84	24.57	-41.0	-42.8	19.2	0.00e+00	0	43	0	0	53	4450
2026-01-05 22:38:06.84	55.07	24.67	-40.9	-42.7	19.2	0.00e+00	0	43	0	0	53	4420
2026-01-05 22:38:07.84	55.30	24.77	-41.0	-42.7	19.3	0.00e+00	0	43	0	0	53	4430
2026-01-05 22:38:08.84	55.54	24.86	-40.9	-42.7	19.3	0.00e+00	0	44	0	0	53	4412
2026-01-05 22:38:09.84	55.77	24.96	-40.9	-42.6	19.3	0.00e+00	0	43	0	0	53	4382
2026-01-05 22:38:10.84	56.00	25.05	-40.8	-42.6	19.4	0.00e+00	0	43	0	0	53	4354
2026-01-05 22:38:11.84	56.24	25.14	-40.9	-42.6	19.3	0.00e+00	0	44	0	0	53	4371
2026-01-05 22:38:12.84	56.48	25.24	-40.9	-42.6	19.3	0.00e+00	0	43	0	0	53	4389
2026-01-05 22:38:13.84	56.72	25.33	-41.0	-42.8	19.1	0.00e+00	0	43	0	0	53	4462
2026-01-05 22:38:14.85	56.96	25.43	-41.1	-42.9	19.1	0.00e+00	0	43	0	0	53	4509
2026-01-05 22:38:15.85	57.20	25.52	-41.1	-42.9	19.0	0.00e+00	0	43	0	0	53	4533
2026-01-05 22:38:16.85	57.44	25.62	-41.3	-43.1	18.9	0.00e+00	0	43	0	0	53	4621
2026-01-05 22:38:17.85	57.69	25.71	-41.3	-43.1	18.9	0.00e+00	0	44	0	0	53	4610
2026-01-05 22:38:18.85	57.93	25.80	-41.4	-43.2	18.9	0.00e+00	0	44	0	0	53	4665
2026-01-05 22:38:19.85	58.18	25.90	-41.1	-42.9	19.1	0.00e+00	0	43	0	0	53	4525
2026-01-05 22:38:20.85	58.43	25.99	-41.0	-42.7	19.2	0.00e+00	0	43	0	0	53	4433
2026-01-05 22:38:21.85	58.68	26.08	-41.0	-42.7	19.3	0.00e+00	0	43	0	0	53	4433
2026-01-05 22:38:22.85	58.93	26.17	-41.0	-42.8	19.2	0.00e+00	0	44	0	0	53	4457
2026-01-05 22:38:23.85	59.18	26.27	-41.0	-42.8	19.2	0.00e+00	0	43	0	0	53	4451
2026-01-05 22:38:24.85	59.44	26.36	-41.0	-42.8	19.1	0.00e+00	0	43	0	0	53	4452
2026-01-05 22:38:25.85	59.69	26.45	-41.1	-42.9	19.1	0.00e+00	0	43	0	0	53	4505
2026-01-05 22:38:26.85	59.95	26.54	-41.1	-42.9	19.1	0.00e+00	0	43	0	0	53	4510
2026-01-05 22:38:27.85	60.21	26.63	-41.1	-42.9	19.1	0.00e+00	0	43	0	0	53	4530
2026-01-05 22:38:28.85	60.47	26.72	-41.1	-42.9	19.2	0.00e+00	0	44	0	0	53	4511
2026-01-05 22:38:29.85	60.73	26.81	-41.0	-42.8	19.2	0.00e+00	0	43	0	0	53	4470
2026-01-05 22:38:30.84	60.99	26.90	-41.1	-42.9	19.2	0.00e+00	0	44	0	0	53	4517
2026-01-05 22:38:31.84	61.26	26.99	-41.0	-42.8	19.3	0.00e+00	0	43	0	0	53	4459
2026-01-05 22:38:32.85	61.52	27.08	-41.0	-42.8	19.3	0.00e+00	0	44	0	0	53	4463
2026-01-05 22:38:33.85	61.79	27.17	-41.1	-42.9	19.1	0.00e+00	0	43	0	0	53	4513
2026-01-05 22:38:34.85	62.06	27.26	-41.0	-42.8	19.2	0.00e+00	0	43	0	0	53	4444
2026-01-05 22:38:35.85	62.33	27.35	-40.9	-42.7	19.3	0.00e+00	0	43	0	0	53	4415
2026-01-05 22:38:36.85	62.60	27.44	-40.9	-42.6	19.3	0.00e+00	0	44	0	0	53	4380
2026-01-05 22:38:37.85	62.88	27.52	-40.8	-42.5	19.4	0.00e+00	0	43	0	0	53	4314
2026-01-05 22:38:38.85	63.15	27.61	-40.7	-42.4	19.5	0.00e+00	0	43	0	0	53	4263
2026-01-05 22:38:39.85	63.43	27.70	-40.6	-42.3	19.6	0.00e+00	0	44	0	0	53	4238
2026-01-05 22:38:40.85	63.71	27.78	-40.7	-42.5	19.5	0.00e+00	0	43	0	0	53	4301
2026-01-05 22:38:41.85	63.99	27.87	-40.7	-42.4	19.6	0.00e+00	0	44	0	0	53	4265
2026-01-05 22:38:42.85	64.27	27.95	-40.8	-42.6	19.5	0.00e+00	0	43	0	0	53	4344
2026-01-05 22:38:43.85	64.55	28.04	-40.8	-42.5	19.5	0.00e+00	0	43	0	0	53	4328
2026-01-05 22:38:44.86	64.84	28.13	-40.8	-42.6	19.4	0.00e+00	0	44	0	0	53	4346
2026-01-05 22:38:45.86	65.12	28.21	-40.9	-42.6	19.4	0.00e+00	0	43	0	0	53	4364
2026-01-05 22:38:46.85	65.40	28.29	-41.0	-42.7	19.2	0.00e+00	0	43	0	0	53	4414
2026-01-05 22:38:47.86	65.70	28.38	-41.0	-42.7	19.2	0.00e+00	0	43	0	0	53	4425
2026-01-05 22:38:48.86	65.99	28.46	-40.9	-42.7	19.2	0.00e+00	0	44	0	0	53	4404
2026-01-05 22:38:49.86	66.28	28.54	-40.7	-42.4	19.5	0.00e+00	0	43	0	0	53	4272
2026-01-05 22:38:50.87	66.57	28.62	-40.7	-42.4	19.6	0.00e+00	0	44	0	0	53	4267
2026-01-05 22:38:51.87	66.87	28.70	-40.6	-42.4	19.6	0.00e+00	0	44	0	0	53	4245
2026-01-05 22:38:52.87	67.16	28.78	-40.7	-42.5	19.5	0.00e+00	0	43	0	0	53	4300
2026-01-05 22:38:53.88	67.46	28.86	-41.0	-42.7	19.2	0.00e+00	0	43	0	0	53	4438
2026-01-05 22:38:54.88	67.76	28.94	-41.1	-42.9	19.1	0.00e+00	0	44	0	0	53	4502
2026-01-05 22:38:55.88	68.06	29.02	-41.2	-42.9	19.1	0.00e+00	0	43	0	0	53	4540
2026-01-05 22:38:56.88	68.36	29.10	-41.2	-43.0	19.0	0.00e+00	0	43	0	0	53	4579
2026-01-05 22:38:57.89	68.67	29.18	-41.3	-43.1	19.0	0.00e+00	0	43	0	0	53	4603
2026-01-05 22:38:58.89	68.97	29.25	-41.1	-42.8	19.2	0.00e+00	0	44	0	0	53	4482
2026-01-05 22:38:59.89	69.28	29.33	-41.1	-42.8	19.2	0.00e+00	0	43	0	0	53	4472
2026-01-05 22:39:00.88	69.58	29.40	-41.0	-42.7	19.3	0.00e+00	0	43	0	0	53	4421
2026-01-05 22:39:01.88	69.89	29.48	-40.9	-42.7	19.3	0.00e+00	0	43	0	0	53	4408
2026-01-05 22:39:02.88	70.20	29.55	-41.1	-42.8	19.2	0.00e+00	0	44	0	0	53	4481
2026-01-05 22:39:03.88	70.51	29.62	-41.0	-42.8	19.2	0.00e+00	0	43	0	0	53	4462
2026-01-05 22:39:04.88	70.82	29.70	-41.2	-43.0	19.1	0.00e+00	0	43	0	0	53	4563
2026-01-05 22:39:05.88	71.14	29.77	-41.3	-43.1	19.0	0.00e+00	0	43	0	0	53	4599
2026-01-05 22:39:06.89	71.46	29.84	-41.2	-43.0	19.0	0.00e+00	0	43	0	0	53	4547
2026-01-05 22:39:07.89	71.77	29.91	-41.1	-42.9	19.1	0.00e+00	0	43	0	0	53	4516
2026-01-05 22:39:08.89	72.09	29.98	-41.1	-42.8	19.2	0.00e+00	0	44	0	0	53	4482
2026-01-05 22:39:09.89	72.41	30.05	-41.1	-42.9	19.1	0.00e+00	0	43	0	0	53	4517
2026-01-05 22:39:10.90	72.74	30.11	-41.1	-42.9	19.2	0.00e+00	0	43	0	0	53	4519
2026-01-05 22:39:11.90	73.06	30.18	-41.0	-42.7	19.3	0.00e+00	0	44	0	0	53	4435
2026-01-05 22:39:12.90	73.38	30.25	-40.9	-42.7	19.3	0.00e+00	0	44	0	0	53	4405
2026-01-05 22:39:13.90	73.71	30.31	-41.0	-42.8	19.2	0.00e+00	0	43	0	0	53	4467
2026-01-05 22:39:14.90	74.03	30.38	-41.1	-42.9	19.1	0.00e+00	0	44	0	0	53	4517
2026-01-05 22:39:15.90	74.36	30.44	-41.4	-43.2	18.9	0.00e+00	0	43	0	0	53	4661
2026-01-05 22:39:16.91	74.69	30.50	-41.5	-43.4	18.6	0.00e+00	0	44	0	0	53	4781
2026-01-05 22:39:17.91	75.02	30.57	-41.5	-43.4	18.7	0.00e+00	0	43	0	0	53	4772
2026-01-05 22:39:18.91	75.35	30.63	-41.4	-43.2	18.9	0.00e+00	0	43	0	0	53	4703
2026-01-05 22:39:19.91	75.68	30.69	-41.3	-43.1	18.9	0.00e+00	0	44	0	0	53	4618
2026-01-05 22:39:20.91	76.02	30.75	-41.3	-43.0	19.0	0.00e+00	0	44	0	0	53	4595
2026-01-05 22:39:21.91	76.35	30.80	-41.2	-43.0	19.0	0.00e+00	0	43	0	0	53	4589
2026-01-05 22:39:22.92	76.69	30.86	-41.2	-43.0	19.0	0.00e+00	0	43	0	0	53	4576
2026-01-05 22:39:23.91	77.03	30.92	-41.4	-43.2	18.8	0.00e+00	0	44	0	0	53	4698
2026-01-05 22:39:24.91	77.37	30.97	-41.6	-43.5	18.6	0.00e+00	0	44	0	0	53	4829
2026-01-05 22:39:25.92	77.71	31.03	-41.7	-43.5	18.6	0.00e+00	0	44	0	0	54	4585
2026-01-05 22:39:26.92	78.05	31.08	-41.7	-43.5	18.6	0.00e+00	0	44	0	0	54	4598
2026-01-05 22:39:27.92	78.39	31.13	-41.7	-43.5	18.7	0.00e+00	0	44	0	0	54	4587
2026-01-05 22:39:28.92	78.73	31.18	-41.6	-43.5	18.6	0.00e+00	0	43	0	0	54	4560
2026-01-05 22:39:29.92	79.08	31.23	-41.7	-43.6	18.5	0.00e+00	0	43	0	0	54	4607
2026-01-05 22:39:30.92	79.42	31.28	-41.6	-43.5	18.6	0.00e+00	0	44	0	0	54	4546
2026-01-05 22:39:31.92	79.77	31.33	-41.8	-43.7	18.4	0.00e+00	0	43	0	0	54	4679
2026-01-05 22:39:32.92	80.11	31.38	-41.6	-43.5	18.7	0.00e+00	0	43	0	0	54	4553
2026-01-05 22:39:33.91	80.46	31.42	-41.7	-43.6	18.6	0.00e+00	0	43	0	0	54	4601
2026-01-05 22:39:34.92	80.81	31.47	-41.6	-43.5	18.7	0.00e+00	0	43	0	0	54	4561
2026-01-05 22:39:35.92	81.16	31.51	-41.7	-43.6	18.5	0.00e+00	0	43	0	0	54	4619
2026-01-05 22:39:36.92	81.51	31.56	-41.7	-43.6	18.4	0.00e+00	0	43	0	0	54	4639
2026-01-05 22:39:37.92	81.86	31.60	-41.8	-43.7	18.4	0.00e+00	0	44	0	0	54	4676
2026-01-05 22:39:38.93	82.22	31.64	-41.6	-43.5	18.6	0.00e+00	0	43	0	0	54	4588
2026-01-05 22:39:39.93	82.57	31.68	-41.4	-43.3	18.8	0.00e+00	0	43	0	0	54	4477
2026-01-05 22:39:40.93	82.93	31.72	-41.4	-43.3	18.8	0.00e+00	0	44	0	0	54	4463
2026-01-05 22:39:41.94	83.29	31.75	-41.1	-42.9	19.2	0.00e+00	0	44	0	0	54	4266
2026-01-05 22:39:42.94	83.64	31.79	-41.3	-43.1	19.0	0.00e+00	0	43	0	0	54	4383
2026-01-05 22:39:43.94	84.00	31.82	-41.5	-43.3	18.8	0.00e+00	0	44	0	0	54	4487
2026-01-05 22:39:44.95	84.36	31.86	-41.7	-43.6	18.6	0.00e+00	0	44	0	0	54	4616
2026-01-05 22:39:45.94	84.72	31.89	-41.8	-43.8	18.4	0.00e+00	0	44	0	0	54	4711
2026-01-05 22:39:46.95	85.08	31.92	-41.8	-43.7	18.5	0.00e+00	0	43	0	0	54	4679
2026-01-05 22:39:47.95	85.44	31.95	-41.6	-43.5	18.6	0.00e+00	0	43	0	0	54	4586
2026-01-05 22:39:48.95	85.80	31.98	-41.7	-43.6	18.6	0.00e+00	0	44	0	0	54	4633
2026-01-05 22:39:49.96	86.16	32.01	-41.7	-43.7	18.5	0.00e+00	0	44	0	0	54	4655
2026-01-05 22:39:50.95	86.52	32.03	-41.8	-43.7	18.4	0.00e+00	0	44	0	0	54	4685
2026-01-05 22:39:51.96	86.89	32.06	-41.6	-43.5	18.7	0.00e+00	0	44	0	0	54	4559
2026-01-05 22:39:52.96	87.25	32.08	-41.4	-43.3	18.9	0.00e+00	0	44	0	0	54	4455
2026-01-05 22:39:53.96	87.61	32.11	-41.6	-43.5	18.7	0.00e+00	0	43	0	0	54	4573
2026-01-05 22:39:54.96	87.98	32.13	-41.7	-43.6	18.5	0.00e+00	0	44	0	0	54	4647
2026-01-05 22:39:55.97	88.34	32.15	-41.8	-43.7	18.4	0.00e+00	0	43	0	0	54	4704
2026-01-05 22:39:56.97	88.71	32.17	-41.9	-43.8	18.4	0.00e+00	0	43	0	0	54	4720
2026-01-05 22:39:57.97	89.07	32.19	-41.9	-43.8	18.4	0.00e+00	0	44	0	0	54	4733
2026-01-05 22:39:58.98	89.44	32.20	-41.9	-43.8	18.3	0.00e+00	0	43	0	0	54	4746
2026-01-05 22:39:59.98	89.81	32.22	-41.8	-43.7	18.4	0.00e+00	0	43	0	0	54	4674
2026-01-05 22:40:00.98	90.17	32.23	-41.8	-43.7	18.4	0.00e+00	0	44	0	0	54	4686
2026-01-05 22:40:01.98	90.54	32.24	-41.9	-43.7	18.4	0.00e+00	0	44	0	0	54	4704
2026-01-05 22:40:02.98	90.91	32.26	-41.9	-43.8	18.3	0.00e+00	0	43	0	0	54	4737
2026-01-05 22:40:03.98	91.27	32.27	-42.0	-43.9	18.2	0.00e+00	0	44	0	0	54	4803
2026-01-05 22:40:04.98	91.64	32.27	-42.1	-44.0	18.2	0.00e+00	0	44	0	0	54	4852
2026-01-05 22:40:05.98	92.01	32.28	-42.0	-43.9	18.2	0.00e+00	0	44	0	0	54	4773
2026-01-05 22:40:06.99	92.38	32.29	-42.0	-43.9	18.2	0.00e+00	0	44	0	0	54	4786
2026-01-05 22:40:07.99	92.75	32.29	-41.9	-43.8	18.3	0.00e+00	0	44	0	0	54	4730
2026-01-05 22:40:08.99	93.12	32.30	-41.7	-43.6	18.5	0.00e+00	0	43	0	0	54	4625
2026-01-05 22:40:09.98	93.48	32.30	-41.6	-43.5	18.6	0.00e+00	0	44	0	0	54	4561
2026-01-05 22:40:10.98	93.85	32.30	-41.7	-43.5	18.6	0.00e+00	0	43	0	0	54	4597
2026-01-05 22:40:11.98	94.22	32.30	-41.6	-43.5	18.7	0.00e+00	0	43	0	0	54	4579
2026-01-05 22:40:12.98	94.58	32.30	-41.5	-43.3	18.9	0.00e+00	0	43	0	0	54	4486
2026-01-05 22:40:13.98	94.95	32.30	-41.5	-43.3	18.8	0.00e+00	0	44	0	0	54	4478
2026-01-05 22:40:14.98	95.32	32.29	-41.5	-43.3	18.8	0.00e+00	0	44	0	0	54	4483
2026-01-05 22:40:15.99	95.69	32.29	-41.5	-43.3	18.9	0.00e+00	0	44	0	0	54	4458
2026-01-05 22:40:16.98	96.06	32.28	-41.6	-43.4	18.7	0.00e+00	0	43	0	0	54	4535
2026-01-05 22:40:17.99	96.43	32.27	-41.5	-43.3	18.7	0.00e+00	0	44	0	0	54	4493
2026-01-05 22:40:18.99	96.79	32.26	-41.4	-43.2	18.9	0.00e+00	0	44	0	0	54	4398
2026-01-05 22:40:19.99	97.16	32.25	-41.4	-43.2	18.9	0.00e+00	0	44	0	0	54	4399
2026-01-05 22:40:20.99	97.53	32.24	-41.2	-43.0	19.1	0.00e+00	0	44	0	0	54	4307
2026-01-05 22:40:21.99	97.89	32.23	-41.2	-43.0	19.1	0.00e+00	0	44	0	0	54	4309
2026-01-05 22:40:23.00	98.26	32.22	-41.5	-43.4	18.7	0.00e+00	0	44	0	0	54	4512
2026-01-05 22:40:24.00	98.63	32.20	-41.7	-43.6	18.6	0.00e+00	0	43	0	0	54	4611
2026-01-05 22:40:25.00	99.00	32.18	-41.8	-43.6	18.6	0.00e+00	0	44	0	0	54	4648
2026-01-05 22:40:26.00	99.36	32.17	-41.8	-43.6	18.6	0.00e+00	0	44	0	0	54	4623
2026-01-05 22:40:27.00	99.73	32.15	-41.5	-43.4	18.8	0.00e+00	0	44	0	0	54	4505
2026-01-05 22:40:28.01	100.09	32.13	-41.6	-43.4	18.8	0.00e+00	0	43	0	0	54	4513
2026-01-05 22:40:29.01	100.46	32.10	-41.6	-43.4	18.7	0.00e+00	0	44	0	0	54	4536
2026-01-05 22:40:30.01	100.82	32.08	-41.5	-43.3	18.8	0.00e+00	0	44	0	0	54	4493
2026-01-05 22:40:31.01	101.18	32.06	-41.3	-43.2	19.0	0.00e+00	0	43	0	0	54	4394
2026-01-05 22:40:32.01	101.55	32.03	-41.4	-43.3	18.9	0.00e+00	0	44	0	0	54	4442
2026-01-05 22:40:33.01	101.91	32.00	-41.7	-43.5	18.6	0.00e+00	0	44	0	0	54	4578
2026-01-05 22:40:34.01	102.27	31.98	-41.7	-43.5	18.6	0.00e+00	0	44	0	0	54	4583
2026-01-05 22:40:35.01	102.63	31.95	-41.7	-43.5	18.6	0.00e+00	0	44	0	0	54	4597
2026-01-05 22:40:36.01	102.99	31.92	-41.8	-43.6	18.5	0.00e+00	0	43	0	0	54	4633
2026-01-05 22:40:37.01	103.35	31.89	-41.7	-43.6	18.5	0.00e+00	0	44	0	0	54	4618
2026-01-05 22:40:38.02	103.71	31.85	-41.6	-43.4	18.6	0.00e+00	0	44	0	0	54	4531
2026-01-05 22:40:39.02	104.07	31.82	-41.5	-43.3	18.7	0.00e+00	0	43	0	0	54	4488
2026-01-05 22:40:40.02	104.43	31.78	-41.6	-43.4	18.7	0.00e+00	0	44	0	0	54	4521
2026-01-05 22:40:41.01	104.78	31.75	-41.8	-43.7	18.4	0.00e+00	0	44	0	0	54	4680
2026-01-05 22:40:42.02	105.14	31.71	-42.0	-44.0	18.2	0.00e+00	0	44	0	0	54	4818
2026-01-05 22:40:43.02	105.50	31.67	-41.8	-43.7	18.4	0.00e+00	0	44	0	0	54	4674
2026-01-05 22:40:44.02	105.85	31.63	-41.7	-43.6	18.4	0.00e+00	0	44	0	0	54	4633
2026-01-05 22:40:45.02	106.20	31.59	-41.8	-43.7	18.4	0.00e+00	0	44	0	0	54	4673
2026-01-05 22:40:46.02	106.55	31.55	-41.8	-43.6	18.4	0.00e+00	0	44	0	0	54	4651
2026-01-05 22:40:47.02	106.91	31.51	-41.8	-43.7	18.4	0.00e+00	0	43	0	0	54	4660
2026-01-05 22:40:48.02	107.26	31.46	-41.8	-43.7	18.3	0.00e+00	0	43	0	0	54	4690
2026-01-05 22:40:49.02	107.61	31.42	-41.7	-43.6	18.5	0.00e+00	0	44	0	0	54	4621
2026-01-05 22:40:50.02	107.95	31.37	-41.6	-43.4	18.7	0.00e+00	0	44	0	0	54	4513
2026-01-05 22:40:51.02	108.30	31.32	-41.6	-43.4	18.7	0.00e+00	0	44	0	0	54	4538
2026-01-05 22:40:52.01	108.65	31.28	-41.6	-43.5	18.6	0.00e+00	0	44	0	0	54	4572
2026-01-05 22:40:53.01	108.99	31.23	-41.6	-43.4	18.6	0.00e+00	0	43	0	0	54	4520
2026-01-05 22:40:54.01	109.34	31.18	-41.4	-43.2	18.7	0.00e+00	0	43	0	0	54	4440
2026-01-05 22:40:55.01	109.68	31.12	-41.4	-43.3	18.7	0.00e+00	0	44	0	0	54	4451
2026-01-05 22:40:56.01	110.02	31.07	-41.5	-43.3	18.8	0.00e+00	0	44	0	0	54	4453
2026-01-05 22:40:57.02	110.37	31.02	-41.5	-43.3	18.9	0.00e+00	0	44	0	0	54	4442
2026-01-05 22:40:58.02	110.71	30.96	-41.5	-43.3	18.8	0.00e+00	0	44	0	0	54	4465
2026-01-05 22:40:59.02	111.05	30.91	-41.5	-43.4	18.7	0.00e+00	0	44	0	0	54	4510
2026-01-05 22:41:00.03	111.39	30.85	-41.5	-43.4	18.8	0.00e+00	0	44	0	0	54	4507
2026-01-05 22:41:01.03	111.72	30.79	-41.5	-43.3	18.7	0.00e+00	0	44	0	0	54	4481
2026-01-05 22:41:02.03	112.06	30.73	-41.4	-43.2	18.9	0.00e+00	0	44	0	0	54	4424
2026-01-05 22:41:03.03	112.39	30.68	-41.3	-43.1	18.9	0.00e+00	0	44	0	0	54	4385
2026-01-05 22:41:04.03	112.73	30.62	-41.2	-42.9	19.1	0.00e+00	0	44	0	0	54	4278
2026-01-05 22:41:05.03	113.06	30.55	-41.1	-42.8	19.2	0.00e+00	0	44	0	0	54	4229
2026-01-05 22:41:06.03	113.39	30.49	-40.9	-42.7	19.3	0.00e+00	0	44	0	0	53	4396
2026-01-05 22:41:07.03	113.72	30.43	-41.0	-42.8	19.3	0.00e+00	0	44	0	0	53	4447
2026-01-05 22:41:08.03	114.05	30.36	-41.2	-42.9	19.1	0.00e+00	0	44	0	0	53	4539
2026-01-05 22:41:09.04	114.38	30.30	-41.3	-43.2	18.9	0.00e+00	0	43	0	0	53	4657
2026-01-05 22:41:10.04	114.70	30.23	-41.5	-43.3	18.7	0.00e+00	0	44	0	0	53	4749
2026-01-05 22:41:11.04	115.03	30.17	-41.6	-43.4	18.7	0.00e+00	0	44	0	0	53	4804
2026-01-05 22:41:12.04	115.35	30.10	-41.5	-43.3	18.8	0.00e+00	0	44	0	0	53	4738
2026-01-05 22:41:13.04	115.67	30.03	-41.2	-43.0	19.0	0.00e+00	0	44	0	0	53	4575
2026-01-05 22:41:14.04	115.99	29.96	-41.2	-42.9	19.1	0.00e+00	0	44	0	0	53	4537
2026-01-05 22:41:15.04	116.31	29.89	-41.1	-42.9	19.1	0.00e+00	0	44	0	0	53	4527
2026-01-05 22:41:16.04	116.63	29.82	-41.0	-42.8	19.2	0.00e+00	0	43	0	0	53	4458
2026-01-05 22:41:17.04	116.95	29.75	-41.0	-42.8	19.2	0.00e+00	0	44	0	0	53	4454
2026-01-05 22:41:18.04	117.26	29.68	-41.1	-42.8	19.2	0.00e+00	0	44	0	0	53	4480
2026-01-05 22:41:19.04	117.57	29.61	-41.0	-42.7	19.2	0.00e+00	0	44	0	0	53	4441
2026-01-05 22:41:20.04	117.89	29.53	-41.2	-42.9	19.0	0.00e+00	0	44	0	0	53	4545
2026-01-05 22:41:21.04	118.20	29.46	-41.3	-43.0	19.0	0.00e+00	0	44	0	0	53	4598
2026-01-05 22:41:22.04	118.51	29.38	-41.3	-43.0	19.0	0.00e+00	0	44	0	0	53	4592
2026-01-05 22:41:23.04	118.81	29.31	-41.3	-43.1	18.9	0.00e+00	0	44	0	0	53	4628
2026-01-05 22:41:24.04	119.12	29.23	-41.2	-43.0	19.0	0.00e+00	0	44	0	0	53	4559
2026-01-05 22:41:25.04	119.43	29.16	-41.1	-42.9	19.1	0.00e+00	0	44	0	0	53	4501
2026-01-05 22:41:26.05	119.73	29.08	-41.1	-42.9	19.0	0.00e+00	0	44	0	0	53	4502
2026-01-05 22:41:27.05	120.03	29.00	-41.0	-42.8	19.1	0.00e+00	0	44	0	0	53	4453
2026-01-05 22:41:28.05	120.34	28.92	-41.0	-42.8	19.0	0.00e+00	0	44	0	0	53	4486
2026-01-05 22:41:29.05	120.63	28.84	-41.1	-42.9	19.1	0.00e+00	0	43	0	0	53	4514
2026-01-05 22:41:30.05	120.93	28.76	-41.1	-42.9	19.1	0.00e+00	0	44	0	0	53	4519
2026-01-05 22:41:31.05	121.23	28.68	-41.1	-42.9	19.0	0.00e+00	0	44	0	0	53	4513
2026-01-05 22:41:32.06	121.53	28.60	-41.1	-42.9	19.0	0.00e+00	0	44	0	0	53	4531
2026-01-05 22:41:33.06	121.82	28.52	-41.0	-42.7	19.1	0.00e+00	0	44	0	0	53	4437
2026-01-05 22:41:34.06	122.11	28.43	-40.7	-42.5	19.3	0.00e+00	0	44	0	0	53	4293
2026-01-05 22:41:35.07	122.41	28.35	-40.8	-42.5	19.3	0.00e+00	0	44	0	0	53	4339
2026-01-05 22:41:36.07	122.70	28.27	-40.5	-42.2	19.6	0.00e+00	0	44	0	0	53	4189
2026-01-05 22:41:37.07	122.98	28.18	-40.4	-42.1	19.7	0.00e+00	0	44	0	0	52	4356
2026-01-05 22:41:38.07	123.27	28.10	-40.5	-42.2	19.5	0.00e+00	0	44	0	0	52	4415
2026-01-05 22:41:39.07	123.55	28.01	-40.5	-42.2	19.5	0.00e+00	0	43	0	0	52	4428
2026-01-05 22:41:40.07	123.84	27.93	-40.4	-42.1	19.8	0.00e+00	0	43	0	0	52	4350
2026-01-05 22:41:41.07	124.12	27.84	-40.3	-42.0	19.7	0.00e+00	0	44	0	0	52	4330
2026-01-05 22:41:42.07	124.40	27.76	-40.5	-42.2	19.7	0.00e+00	0	44	0	0	52	4398
2026-01-05 22:41:43.07	124.68	27.67	-40.4	-42.1	19.8	0.00e+00	0	44	0	0	52	4356
2026-01-05 22:41:44.07	124.95	27.58	-40.4	-42.1	19.8	0.00e+00	0	44	0	0	52	4347
2026-01-05 22:41:45.08	125.23	27.49	-40.4	-42.0	19.7	0.00e+00	0	44	0	0	52	4339
2026-01-05 22:41:46.07	125.50	27.41	-40.5	-42.2	19.5	0.00e+00	0	44	0	0	52	4426
2026-01-05 22:41:47.07	125.78	27.32	-40.7	-42.4	19.3	0.00e+00	0	44	0	0	52	4519
2026-01-05 22:41:48.08	126.05	27.23	-40.6	-42.4	19.4	0.00e+00	0	44	0	0	52	4514
2026-01-05 22:41:49.08	126.32	27.14	-40.6	-42.3	19.6	0.00e+00	0	44	0	0	52	4478
2026-01-05 22:41:50.08	126.59	27.05	-40.7	-42.4	19.5	0.00e+00	0	44	0	0	52	4521
2026-01-05 22:41:51.08	126.86	26.96	-40.6	-42.3	19.6	0.00e+00	0	44	0	0	52	4456
2026-01-05 22:41:52.08	127.12	26.87	-40.4	-42.1	19.8	0.00e+00	0	44	0	0	52	4379
2026-01-05 22:41:53.08	127.39	26.78	-40.4	-42.1	19.7	0.00e+00	0	44	0	0	52	4387
2026-01-05 22:41:54.09	127.65	26.68	-40.4	-42.1	19.8	0.00e+00	0	44	0	0	52	4345
2026-01-05 22:41:55.09	127.91	26.59	-40.5	-42.2	19.7	0.00e+00	0	44	0	0	52	4425
2026-01-05 22:41:56.09	128.17	26.50	-40.4	-42.1	19.7	0.00e+00	0	44	0	0	52	4386
2026-01-05 22:41:57.10	128.43	26.41	-40.5	-42.3	19.6	0.00e+00	0	44	0	0	52	4451
2026-01-05 22:41:58.10	128.69	26.32	-40.5	-42.2	19.6	0.00e+00	0	44	0	0	52	4436
2026-01-05 22:41:59.09	128.94	26.22	-40.5	-42.3	19.6	0.00e+00	0	44	0	0	52	4456
2026-01-05 22:42:00.10	129.20	26.13	-40.5	-42.4	19.5	0.00e+00	0	43	0	0	52	4504
2026-01-05 22:42:01.10	129.45	26.04	-40.5	-42.2	19.6	0.00e+00	0	43	0	0	52	4441
2026-01-05 22:42:02.10	129.70	25.94	-40.5	-42.2	19.6	0.00e+00	0	44	0	0	52	4431
2026-01-05 22:42:03.10	129.95	25.85	-40.4	-42.1	19.7	0.00e+00	0	43	0	0	52	4388
2026-01-05 22:42:04.10	130.20	25.76	-40.3	-42.0	19.9	0.00e+00	0	44	0	0	52	4292
2026-01-05 22:42:05.10	130.44	25.66	-40.3	-42.0	19.8	0.00e+00	0	44	0	0	52	4316
2026-01-05 22:42:06.10	130.69	25.57	-40.4	-42.1	19.8	0.00e+00	0	44	0	0	52	4341
2026-01-05 22:42:07.10	130.93	25.47	-40.4	-42.1	19.7	0.00e+00	0	44	0	0	52	4355
2026-01-05 22:42:08.10	131.17	25.38	-40.4	-42.1	19.7	0.00e+00	0	44	0	0	52	4388
2026-01-05 22:42:09.10	131.42	25.28	-40.5	-42.2	19.7	0.00e+00	0	44	0	0	52	4401
2026-01-05 22:42:10.10	131.65	25.19	-40.5	-42.2	19.6	0.00e+00	0	44	0	0	52	4430
2026-01-05 22:42:11.11	131.90	25.09	-40.6	-42.3	19.6	0.00e+00	0	44	0	0	52	4493
2026-01-05 22:42:12.11	132.13	25.00	-40.7	-42.5	19.4	0.00e+00	0	44	0	0	52	4562
2026-01-05 22:42:13.11	132.37	24.90	-40.8	-42.6	19.4	0.00e+00	0	43	0	0	52	4626
2026-01-05 22:42:14.12	132.60	24.81	-40.8	-42.5	19.4	0.00e+00	0	44	0	0	52	4590
2026-01-05 22:42:15.11	132.83	24.71	-40.8	-42.5	19.4	0.00e+00	0	44	0	0	52	4596
2026-01-05 22:42:16.11	133.06	24.61	-40.8	-42.5	19.4	0.00e+00	0	44	0	0	52	4595
2026-01-05 22:42:17.11	133.29	24.52	-40.8	-42.6	19.4	0.00e+00	0	44	0	0	52	4599
2026-01-05 22:42:18.11	133.52	24.42	-40.8	-42.6	19.4	0.00e+00	0	44	0	0	52	4614
2026-01-05 22:42:19.11	133.75	24.33	-40.9	-42.7	19.2	0.00e+00	0	44	0	0	52	4663
2026-01-05 22:42:20.11	133.97	24.23	-40.7	-42.5	19.4	0.00e+00	0	44	0	0	52	4559
2026-01-05 22:42:21.11	134.20	24.13	-40.9	-42.6	19.3	0.00e+00	0	43	0	0	52	4646
2026-01-05 22:42:22.11	134.42	24.04	-40.9	-42.6	19.3	0.00e+00	0	44	0	0	52	4636
2026-01-05 22:42:23.11	134.64	23.94	-40.8	-42.5	19.4	0.00e+00	0	44	0	0	52	4583
2026-01-05 22:42:24.11	134.86	23.84	-40.7	-42.5	19.4	0.00e+00	0	44	0	0	52	4548
2026-01-05 22:42:25.11	135.08	23.75	-40.8	-42.5	19.4	0.00e+00	0	44	0	0	52	4580
2026-01-05 22:42:26.11	135.30	23.65	-40.7	-42.5	19.4	0.00e+00	0	44	0	0	52	4554
2026-01-05 22:42:27.11	135.52	23.55	-40.6	-42.4	19.5	0.00e+00	0	43	0	0	52	4505
2026-01-05 22:42:28.11	135.73	23.46	-40.7	-42.5	19.4	0.00e+00	0	44	0	0	52	4553
2026-01-05 22:42:29.11	135.94	23.36	-40.8	-42.5	19.3	0.00e+00	0	44	0	0	52	4580
2026-01-05 22:42:30.11	136.16	23.26	-40.8	-42.5	19.3	0.00e+00	0	44	0	0	52	4581
2026-01-05 22:42:31.11	136.37	23.16	-40.7	-42.4	19.4	0.00e+00	0	44	0	0	52	4532
2026-01-05 22:42:32.12	136.58	23.07	-40.7	-42.4	19.4	0.00e+00	0	44	0	0	52	4527
2026-01-05 22:42:33.12	136.79	22.97	-40.7	-42.5	19.3	0.00e+00	0	44	0	0	52	4556
2026-01-05 22:42:34.12	137.00	22.87	-40.8	-42.5	19.4	0.00e+00	0	44	0	0	52	4574
2026-01-05 22:42:35.12	137.20	22.77	-40.8	-42.5	19.3	0.00e+00	0	44	0	0	52	4579
2026-01-05 22:42:36.12	137.41	22.68	-40.7	-42.4	19.5	0.00e+00	0	44	0	0	52	4529
2026-01-05 22:42:37.12	137.61	22.58	-40.7	-42.5	19.4	0.00e+00	0	44	0	0	52	4561
2026-01-05 22:42:38.12	137.81	22.48	-40.7	-42.5	19.4	0.00e+00	0	44	0	0	52	4556
2026-01-05 22:42:39.12	138.01	22.38	-40.7	-42.4	19.4	0.00e+00	0	44	0	0	52	4539
2026-01-05 22:42:40.12	138.21	22.29	-40.7	-42.5	19.4	0.00e+00	0	44	0	0	52	4560
2026-01-05 22:42:41.12	138.41	22.19	-40.8	-42.5	19.4	0.00e+00	0	44	0	0	52	4597
2026-01-05 22:42:42.12	138.61	22.09	-40.8	-42.5	19.4	0.00e+00	0	44	0	0	52	4576
2026-01-05 22:42:43.11	138.80	22.00	-40.8	-42.5	19.4	0.00e+00	0	44	0	0	52	4590
2026-01-05 22:42:44.12	139.00	21.90	-40.9	-42.7	19.3	0.00e+00	0	44	0	0	52	4663
2026-01-05 22:42:45.12	139.19	21.80	-41.0	-42.8	19.2	0.00e+00	0	44	0	0	52	4717
2026-01-05 22:42:46.12	139.39	21.71	-41.0	-42.7	19.2	0.00e+00	0	44	0	0	52	4702
2026-01-05 22:42:47.12	139.58	21.61	-41.0	-42.8	19.2	0.00e+00	0	44	0	0	52	4731
2026-01-05 22:42:48.12	139.77	21.51	-41.0	-42.8	19.1	0.00e+00	0	44	0	0	52	4747
2026-01-05 22:42:49.13	139.96	21.41	-41.0	-42.8	19.1	0.00e+00	0	44	0	0	52	4729
2026-01-05 22:42:50.13	140.15	21.32	-41.0	-42.8	19.1	0.00e+00	0	44	0	0	52	4749
2026-01-05 22:42:51.13	140.33	21.22	-41.1	-42.9	19.0	0.00e+00	0	44	0	0	52	4811
2026-01-05 22:42:52.13	140.52	21.12	-41.0	-42.8	19.1	0.00e+00	0	44	0	0	52	4740
2026-01-05 22:42:53.13	140.70	21.03	-41.0	-42.8	19.2	0.00e+00	0	44	0	0	52	4735
2026-01-05 22:42:54.14	140.89	20.93	-41.0	-42.8	19.1	0.00e+00	0	44	0	0	52	4736
2026-01-05 22:42:55.14	141.07	20.83	-40.9	-42.7	19.3	0.00e+00	0	43	0	0	52	4653
2026-01-05 22:42:56.14	141.25	20.74	-40.8	-42.6	19.3	0.00e+00	0	44	0	0	52	4631
2026-01-05 22:42:57.14	141.43	20.64	-40.9	-42.7	19.2	0.00e+00	0	44	0	0	52	4681
2026-01-05 22:42:58.13	141.61	20.54	-40.8	-42.6	19.3	0.00e+00	0	44	0	0	52	4614
2026-01-05 22:42:59.13	141.79	20.45	-40.8	-42.6	19.3	0.00e+00	0	44	0	0	52	4633
2026-01-05 22:43:00.14	141.97	20.35	-40.8	-42.5	19.4	0.00e+00	0	44	0	0	52	4586
2026-01-05 22:43:01.13	142.14	20.26	-40.8	-42.5	19.3	0.00e+00	0	44	0	0	52	4596
2026-01-05 22:43:02.13	142.32	20.16	-40.8	-42.6	19.3	0.00e+00	0	44	0	0	52	4599
2026-01-05 22:43:03.13	142.49	20.07	-40.8	-42.5	19.3	0.00e+00	0	44	0	0	52	4594
2026-01-05 22:43:04.13	142.66	19.97	-40.8	-42.6	19.3	0.00e+00	0	44	0	0	52	4636
2026-01-05 22:43:05.13	142.83	19.87	-40.9	-42.6	19.2	0.00e+00	0	44	0	0	52	4636
2026-01-05 22:43:06.14	143.01	19.78	-41.0	-42.8	19.1	0.00e+00	0	44	0	0	52	4721
2026-01-05 22:43:07.14	143.17	19.68	-40.7	-42.5	19.3	0.00e+00	0	44	0	0	52	4587
2026-01-05 22:43:08.14	143.34	19.59	-40.7	-42.5	19.4	0.00e+00	0	44	0	0	52	4550
2026-01-05 22:43:09.14	143.51	19.49	-40.6	-42.4	19.4	0.00e+00	0	44	0	0	52	4524
2026-01-05 22:43:10.15	143.68	19.40	-40.8	-42.6	19.2	0.00e+00	0	44	0	0	52	4607
2026-01-05 22:43:11.15	143.84	19.30	-40.8	-42.6	19.2	0.00e+00	0	44	0	0	52	4616
2026-01-05 22:43:12.15	144.01	19.21	-40.8	-42.6	19.2	0.00e+00	0	44	0	0	52	4621
2026-01-05 22:43:13.15	144.17	19.11	-40.8	-42.7	19.2	0.00e+00	0	44	0	0	52	4655
2026-01-05 22:43:14.16	144.34	19.02	-40.8	-42.6	19.2	0.00e+00	0	44	0	0	52	4633
2026-01-05 22:43:15.15	144.50	18.93	-40.8	-42.6	19.2	0.00e+00	0	44	0	0	52	4625
2026-01-05 22:43:16.15	144.66	18.83	-40.8	-42.6	19.2	0.00e+00	0	44	0	0	52	4651
2026-01-05 22:43:17.15	144.82	18.74	-40.8	-42.6	19.1	0.00e+00	0	44	0	0	52	4651
2026-01-05 22:43:18.16	144.98	18.64	-40.7	-42.5	19.3	0.00e+00	0	44	0	0	52	4593
2026-01-05 22:43:19.16	145.13	18.55	-40.7	-42.5	19.3	0.00e+00	0	44	0	0	52	4579
2026-01-05 22:43:20.15	145.29	18.46	-40.6	-42.4	19.3	0.00e+00	0	43	0	0	52	4529
2026-01-05 22:43:21.16	145.45	18.36	-40.7	-42.5	19.2	0.00e+00	0	44	0	0	52	4580
2026-01-05 22:43:22.15	145.60	18.27	-40.7	-42.5	19.3	0.00e+00	0	44	0	0	52	4563
2026-01-05 22:43:23.16	145.76	18.18	-40.7	-42.5	19.3	0.00e+00	0	44	0	0	52	4551
2026-01-05 22:43:24.16	145.91	18.08	-40.7	-42.5	19.2	0.00e+00	0	44	0	0	52	4571
2026-01-05 22:43:25.16	146.06	17.99	-40.8	-42.6	19.1	0.00e+00	0	44	0	0	52	4637
2026-01-05 22:43:26.16	146.21	17.90	-40.9	-42.7	19.0	0.00e+00	0	44	0	0	52	4674
2026-01-05 22:43:27.16	146.36	17.81	-41.1	-42.9	18.9	0.00e+00	0	44	0	0	52	4775
2026-01-05 22:43:28.16	146.51	17.71	-41.0	-42.8	19.0	0.00e+00	0	44	0	0	52	4752
2026-01-05 22:43:29.16	146.66	17.62	-41.2	-43.0	18.8	0.00e+00	0	44	0	0	53	4561
2026-01-05 22:43:30.16	146.81	17.53	-41.1	-42.9	18.9	0.00e+00	0	44	0	0	53	4534
2026-01-05 22:43:31.16	146.96	17.44	-41.2	-43.0	18.8	0.00e+00	0	44	0	0	53	4557
2026-01-05 22:43:32.16	147.10	17.35	-41.2	-43.1	18.8	0.00e+00	0	44	0	0	53	4609
2026-01-05 22:43:33.17	147.25	17.25	-41.3	-43.1	18.7	0.00e+00	0	43	0	0	53	4632
2026-01-05 22:43:34.17	147.39	17.16	-41.4	-43.3	18.6	0.00e+00	0	44	0	0	53	4730
2026-01-05 22:43:35.17	147.54	17.07	-41.4	-43.3	18.6	0.00e+00	0	44	0	0	53	4718
2026-01-05 22:43:36.17	147.68	16.98	-41.5	-43.4	18.5	0.00e+00	0	44	0	0	53	4777
2026-01-05 22:43:37.17	147.82	16.89	-41.4	-43.3	18.6	0.00e+00	0	44	0	0	53	4724
2026-01-05 22:43:38.17	147.96	16.80	-41.5	-43.4	18.5	0.00e+00	0	44	0	0	53	4766
2026-01-05 22:43:39.17	148.10	16.71	-41.4	-43.3	18.6	0.00e+00	0	44	0	0	53	4722
2026-01-05 22:43:40.17	148.24	16.62	-41.5	-43.3	18.5	0.00e+00	0	44	0	0	53	4757
2026-01-05 22:43:41.17	148.38	16.53	-41.5	-43.4	18.5	0.00e+00	0	44	0	0	53	4786
2026-01-05 22:43:42.17	148.52	16.44	-41.4	-43.3	18.6	0.00e+00	0	44	0	0	53	4742
2026-01-05 22:43:43.17	148.65	16.35	-41.6	-43.5	18.4	0.00e+00	0	44	0	0	53	4835
2026-01-05 22:43:44.17	148.79	16.26	-41.6	-43.4	18.4	0.00e+00	0	44	0	0	53	4799
2026-01-05 22:43:45.17	148.92	16.17	-41.7	-43.5	18.3	0.00e+00	0	44	0	0	53	4867
2026-01-05 22:43:46.17	149.06	16.08	-41.7	-43.6	18.2	0.00e+00	0	44	0	0	54	4644
2026-01-05 22:43:47.18	149.19	15.99	-41.8	-43.7	18.2	0.00e+00	0	44	0	0	54	4697
2026-01-05 22:43:48.18	149.33	15.90	-41.8	-43.7	18.1	0.00e+00	0	44	0	0	54	4704
2026-01-05 22:43:49.18	149.46	15.81	-41.9	-43.8	18.2	0.00e+00	0	44	0	0	54	4731
2026-01-05 22:43:50.18	149.59	15.72	-41.8	-43.8	18.2	0.00e+00	0	44	0	0	54	4706
2026-01-05 22:43:51.18	149.72	15.64	-41.9	-43.8	18.1	0.00e+00	0	44	0	0	54	4756
2026-01-05 22:43:52.18	149.85	15.55	-41.8	-43.7	18.2	0.00e+00	0	44	0	0	54	4697
2026-01-05 22:43:53.19	149.98	15.46	-41.9	-43.9	18.1	0.00e+00	0	44	0	0	54	4766
2026-01-05 22:43:54.19	150.11	15.37	-41.8	-43.8	18.2	0.00e+00	0	44	0	0	54	4723
2026-01-05 22:43:55.19	150.24	15.28	-41.9	-43.8	18.1	0.00e+00	0	44	0	0	54	4727
2026-01-05 22:43:56.19	150.37	15.20	-41.9	-43.9	18.0	0.00e+00	0	43	0	0	54	4763
2026-01-05 22:43:57.19	150.49	15.11	-42.0	-44.0	17.9	0.00e+00	0	44	0	0	54	4828
2026-01-05 22:43:58.19	150.62	15.02	-42.2	-44.2	17.7	0.00e+00	0	44	0	0	55	4667
2026-01-05 22:43:59.19	150.74	14.94	-42.0	-44.0	17.8	0.00e+00	0	44	0	0	55	4561
2026-01-05 22:44:00.19	150.87	14.85	-42.0	-43.9	17.9	0.00e+00	0	44	0	0	55	4539
2026-01-05 22:44:01.19	150.99	14.76	-42.1	-44.1	17.7	0.00e+00	0	44	0	0	55	4637
2026-01-05 22:44:02.19	151.11	14.68	-42.1	-44.2	17.7	0.00e+00	0	44	0	0	55	4652
2026-01-05 22:44:03.20	151.24	14.59	-42.2	-44.2	17.6	0.00e+00	0	44	0	0	55	4691
2026-01-05 22:44:04.20	151.36	14.50	-42.2	-44.2	17.7	0.00e+00	0	44	0	0	55	4668
2026-01-05 22:44:05.20	151.48	14.42	-42.2	-44.2	17.7	0.00e+00	0	44	0	0	55	4681
2026-01-05 22:44:06.20	151.60	14.33	-42.2	-44.2	17.7	0.00e+00	0	44	0	0	55	4664
2026-01-05 22:44:07.21	151.72	14.25	-42.2	-44.2	17.7	0.00e+00	0	44	0	0	55	4691
2026-01-05 22:44:08.21	151.84	14.16	-42.0	-44.0	17.9	0.00e+00	0	44	0	0	55	4570
2026-01-05 22:44:09.21	151.96	14.08	-41.9	-43.8	18.1	0.00e+00	0	44	0	0	55	4479
2026-01-05 22:44:10.20	152.07	13.99	-41.9	-43.8	18.0	0.00e+00	0	43	0	0	55	4477
2026-01-05 22:44:11.20	152.19	13.91	-41.8	-43.7	18.1	0.00e+00	0	44	0	0	55	4440
2026-01-05 22:44:12.21	152.31	13.82	-41.9	-43.9	18.0	0.00e+00	0	44	0	0	55	4518
2026-01-05 22:44:13.20	152.42	13.74	-42.0	-43.9	18.0	0.00e+00	0	44	0	0	55	4526
2026-01-05 22:44:14.20	152.54	13.66	-41.9	-43.9	17.9	0.00e+00	0	44	0	0	55	4538
2026-01-05 22:44:15.21	152.65	13.57	-42.0	-44.0	17.9	0.00e+00	0	44	0	0	55	4569
2026-01-05 22:44:16.21	152.77	13.49	-41.9	-43.9	17.9	0.00e+00	0	44	0	0	55	4520
2026-01-05 22:44:17.21	152.88	13.40	-42.0	-44.0	17.8	0.00e+00	0	44	0	0	55	4598
2026-01-05 22:44:18.21	152.99	13.32	-42.0	-44.0	17.8	0.00e+00	0	44	0	0	55	4596
2026-01-05 22:44:19.21	153.10	13.24	-42.1	-44.1	17.7	0.00e+00	0	44	0	0	55	4649
2026-01-05 22:44:20.21	153.21	13.15	-42.1	-44.1	17.8	0.00e+00	0	44	0	0	55	4616
2026-01-05 22:44:21.21	153.32	13.07	-42.1	-44.1	17.7	0.00e+00	0	44	0	0	55	4630
2026-01-05 22:44:22.21	153.43	12.99	-42.1	-44.2	17.7	0.00e+00	0	44	0	0	55	4656
2026-01-05 22:44:23.21	153.54	12.91	-42.2	-44.3	17.6	0.00e+00	0	44	0	0	55	4720
2026-01-05 22:44:24.21	153.65	12.82	-42.2	-44.2	17.6	0.00e+00	0	44	0	0	55	4662
2026-01-05 22:44:25.21	153.76	12.74	-42.2	-44.3	17.6	0.00e+00	0	44	0	0	55	4719
2026-01-05 22:44:26.22	153.87	12.66	-42.2	-44.3	17.6	0.00e+00	0	44	0	0	55	4728
2026-01-05 22:44:27.21	153.98	12.58	-42.0	-44.1	17.8	0.00e+00	0	44	0	0	55	4602
2026-01-05 22:44:28.21	154.08	12.50	-42.0	-44.1	17.8	0.00e+00	0	44	0	0	55	4602
2026-01-05 22:44:29.22	154.19	12.42	-42.0	-44.0	17.8	0.00e+00	0	44	0	0	55	4579
2026-01-05 22:44:30.22	154.29	12.34	-42.0	-44.0	17.8	0.00e+00	0	44	0	0	55	4582
2026-01-05 22:44:31.22	154.40	12.25	-42.0	-44.0	17.8	0.00e+00	0	44	0	0	55	4583
2026-01-05 22:44:32.23	154.50	12.17	-41.9	-44.0	17.8	0.00e+00	0	44	0	0	55	4549
2026-01-05 22:44:33.23	154.61	12.09	-42.0	-44.0	17.8	0.00e+00	0	44	0	0	55	4563
2026-01-05 22:44:34.23	154.71	12.01	-41.9	-44.0	17.8	9.22e-04	0	44	0	0	55	4552
2026-01-05 22:44:35.23	154.81	11.93	-42.0	-44.0	17.8	0.00e+00	0	44	0	0	55	4568
2026-01-05 22:44:36.24	154.92	11.85	-42.1	-44.1	17.7	0.00e+00	0	44	0	0	55	4630
2026-01-05 22:44:37.24	155.02	11.77	-41.8	-43.8	18.0	0.00e+00	0	44	0	0	55	4465
2026-01-05 22:44:38.24	155.12	11.69	-41.8	-43.8	18.0	0.00e+00	0	44	0	0	55	4465
2026-01-05 22:44:39.24	155.22	11.61	-42.0	-44.0	17.8	0.00e+00	0	44	0	0	55	4582
2026-01-05 22:44:40.24	155.32	11.53	-42.0	-44.0	17.9	0.00e+00	0	44	0	0	55	4546
2026-01-05 22:44:41.24	155.42	11.45	-41.9	-43.8	18.0	0.00e+00	0	44	0	0	55	4469
2026-01-05 22:44:42.24	155.52	11.38	-41.9	-43.8	18.0	0.00e+00	0	44	0	0	55	4469
2026-01-05 22:44:43.24	155.62	11.30	-41.9	-43.9	17.9	0.00e+00	0	44	0	0	55	4501
2026-01-05 22:44:44.24	155.72	11.22	-42.1	-44.0	17.8	0.00e+00	0	44	0	0	55	4596
2026-01-05 22:44:45.24	155.81	11.14	-42.0	-43.9	17.9	0.00e+00	0	44	0	0	55	4536
2026-01-05 22:44:46.24	155.91	11.06	-41.9	-43.8	18.0	0.00e+00	0	44	0	0	55	4459
2026-01-05 22:44:47.25	156.01	10.98	-42.0	-43.9	17.9	0.00e+00	0	44	0	0	55	4524
2026-01-05 22:44:48.25	156.10	10.90	-42.0	-43.9	17.8	0.00e+00	0	44	0	0	55	4540
2026-01-05 22:44:49.24	156.20	10.83	-42.1	-44.1	17.7	0.00e+00	0	44	0	0	55	4599
2026-01-05 22:44:50.25	156.29	10.75	-42.1	-44.1	17.6	0.00e+00	0	44	0	0	55	4640
2026-01-05 22:44:51.24	156.39	10.67	-42.2	-44.2	14.3	0.00e+00	0	44	0	0	55	4668
2026-01-05 22:44:52.24	156.48	10.60	-42.3	-44.3	17.4	0.00e+00	0	44	0	0	55	4754
2026-01-05 22:44:53.24	156.58	10.52	-42.2	-44.3	17.5	0.00e+00	0	44	0	0	55	4712
2026-01-05 22:44:54.24	156.67	10.44	-42.3	-44.3	17.4	2.12e-02	0	44	0	0	55	4756
2026-01-05 22:44:55.25	156.76	10.37	-42.4	-44.4	17.3	0.00e+00	0	44	0	0	55	4791
2026-01-05 22:44:56.25	156.85	10.29	-42.6	-44.7	17.1	0.00e+00	0	44	0	0	55	4930
2026-01-05 22:44:57.25	156.95	10.21	-42.6	-44.7	17.2	3.79e-02	0	44	0	0	56	4688
2026-01-05 22:44:58.25	157.04	10.14	-42.7	-44.7	17.1	0.00e+00	0	44	0	0	56	4704
2026-01-05 22:44:59.25	157.13	10.06	-42.6	-44.6	17.2	0.00e+00	0	44	0	0	56	4643
2026-01-05 22:45:00.26	157.22	9.98	-42.7	-44.7	17.1	0.00e+00	0	44	0	0	56	4685
2026-01-05 22:45:01.26	157.31	9.91	-42.7	-44.7	17.1	0.00e+00	0	44	0	0	56	4696
2026-01-05 22:45:02.26	157.40	9.83	-42.7	-44.8	17.0	0.00e+00	0	44	0	0	56	4753
2026-01-05 22:45:03.26	157.49	9.76	-42.7	-44.8	17.1	0.00e+00	0	43	0	0	57	4464
2026-01-05 22:45:04.26	157.58	9.68	-42.7	-44.8	17.0	0.00e+00	0	44	0	0	57	4488
2026-01-05 22:45:05.26	157.66	9.61	-42.8	-44.9	17.0	0.00e+00	0	44	0	0	57	4496
2026-01-05 22:45:06.27	157.75	9.53	-42.6	-44.6	17.2	0.00e+00	0	44	0	0	57	4388
2026-01-05 22:45:07.27	157.84	9.46	-42.6	-44.7	17.2	0.00e+00	0	44	0	0	57	4392
2026-01-05 22:45:08.27	157.93	9.38	-42.6	-44.7	17.2	0.00e+00	0	44	0	0	57	4420
2026-01-05 22:45:09.27	158.01	9.31	-42.7	-44.9	17.0	0.00e+00	0	44	0	0	57	4495
2026-01-05 22:45:10.27	158.10	9.24	-42.7	-44.8	17.0	0.00e+00	0	44	0	0	57	4470
2026-01-05 22:45:11.28	158.19	9.16	-42.8	-44.9	17.0	0.00e+00	0	44	0	0	57	4517
2026-01-05 22:45:12.28	158.27	9.09	-42.7	-44.9	17.0	0.00e+00	0	44	0	0	57	4497
2026-01-05 22:45:13.28	158.36	9.01	-42.7	-44.8	17.0	0.00e+00	0	44	0	0	57	4480
2026-01-05 22:45:14.28	158.44	8.94	-50.5	-62.9	3.8	1.05e+00	0	44	104	0	71	15994
2026-01-05 22:45:15.29	158.52	8.87	-50.2	-63.5	3.8	1.49e+00	0	44	104	0	71	17094
2026-01-05 22:45:16.29	158.61	8.79	-50.3	-63.7	3.8	1.49e+00	0	44	104	0	71	17526
2026-01-05 22:45:17.29	158.69	8.72	-50.6	-63.7	3.8	1.49e+00	0	44	104	0	71	17678
2026-01-05 22:45:18.29	158.77	8.65	-50.6	-63.8	3.8	1.49e+00	0	44	104	0	72	16742
2026-01-05 22:45:19.29	158.86	8.58	-50.2	-63.9	3.8	1.49e+00	0	44	104	0	72	16904
2026-01-05 22:45:20.30	158.94	8.50	-50.7	-63.9	3.8	1.49e+00	0	44	104	0	72	16950
2026-01-05 22:45:21.30	159.02	8.43	-50.8	-63.9	3.8	1.49e+00	0	44	104	0	72	16970
2026-01-05 22:45:22.30	159.10	8.36	-50.9	-63.9	3.8	1.49e+00	0	44	104	0	72	17070
2026-01-05 22:45:23.30	159.18	8.29	-50.8	-63.9	3.8	1.49e+00	0	44	104	0	72	17061
2026-01-05 22:45:24.31	159.26	8.21	-50.9	-64.0	3.8	1.49e+00	0	44	104	0	72	17158
2026-01-05 22:45:25.31	159.34	8.14	-50.8	-63.9	3.8	1.49e+00	0	44	104	0	72	16933
2026-01-05 22:45:26.31	159.42	8.07	-50.9	-64.0	3.8	1.49e+00	0	44	104	0	72	17125
2026-01-05 22:45:27.32	159.50	8.00	-50.9	-64.0	3.8	1.49e+00	0	44	104	0	72	17179
2026-01-05 22:45:28.32	159.58	7.93	-50.9	-64.0	3.8	1.49e+00	0	44	104	0	72	17164
2026-01-05 22:45:29.32	159.66	7.86	-50.9	-64.0	3.8	1.49e+00	0	43	104	0	72	17165
2026-01-05 22:45:30.32	159.74	7.79	-50.9	-64.0	3.8	1.49e+00	0	44	104	0	72	17196
2026-01-05 22:45:31.33	159.82	7.71	-51.0	-64.0	3.8	1.49e+00	0	44	104	0	72	17143
2026-01-05 22:45:32.33	159.89	7.64	-50.9	-64.0	3.8	1.49e+00	0	44	104	0	72	17121
2026-01-05 22:45:33.33	159.97	7.57	-50.8	-64.0	3.8	1.49e+00	0	44	104	0	72	17190
2026-01-05 22:45:34.34	160.05	7.50	-51.0	-64.0	3.8	1.49e+00	0	44	104	0	72	17123
2026-01-05 22:45:35.34	160.13	7.43	-51.0	-64.0	3.8	1.49e+00	0	44	104	0	72	17191
2026-01-05 22:45:36.34	160.20	7.36	-50.9	-63.9	3.8	1.49e+00	0	44	104	0	72	17076
2026-01-05 22:45:37.34	160.28	7.29	-50.7	-64.0	3.8	1.49e+00	0	44	104	0	72	17115
2026-01-05 22:45:38.35	160.35	7.22	-50.4	-63.9	3.8	1.49e+00	0	44	104	0	72	17071
2026-01-05 22:45:39.35	160.43	7.15	-50.6	-63.9	3.8	1.49e+00	0	44	104	0	72	17054
2026-01-05 22:45:40.35	160.50	7.08	-50.6	-63.9	3.8	1.49e+00	0	44	104	0	72	17069
2026-01-05 22:45:41.36	160.58	7.01	-50.6	-63.9	3.8	1.49e+00	0	44	104	0	72	17033
2026-01-05 22:45:42.36	160.65	6.94	-50.6	-63.9	3.8	1.49e+00	0	44	104	0	72	16961
2026-01-05 22:45:43.36	160.73	6.88	-50.5	-63.9	3.8	1.49e+00	0	44	104	0	72	16977
2026-01-05 22:45:44.37	160.80	6.81	-50.5	-63.9	3.8	1.49e+00	0	44	104	0	72	17007
2026-01-05 22:45:45.37	160.87	6.74	-50.6	-63.9	3.8	1.49e+00	0	44	104	0	72	17035
2026-01-05 22:45:46.37	160.95	6.67	-50.6	-63.9	3.8	1.49e+00	0	44	104	0	72	17017
2026-01-05 22:45:47.37	161.02	6.60	-50.5	-63.9	3.8	1.49e+00	0	44	104	0	72	17060
2026-01-05 22:45:48.38	161.09	6.53	-50.6	-63.9	3.8	1.49e+00	0	44	104	0	72	17034
2026-01-05 22:45:49.38	161.16	6.46	-50.6	-63.9	3.8	1.49e+00	0	44	104	0	72	17033
2026-01-05 22:45:50.38	161.23	6.40	-50.6	-63.9	3.8	1.49e+00	0	44	104	0	72	17014
2026-01-05 22:45:51.38	161.30	6.33	-50.6	-63.9	3.8	1.49e+00	0	44	104	0	72	17005
2026-01-05 22:45:52.39	161.38	6.26	-50.6	-64.0	3.8	1.49e+00	0	44	104	0	72	17086
2026-01-05 22:45:53.39	161.45	6.19	-50.6	-63.9	3.8	1.49e+00	0	44	104	0	72	17008
2026-01-05 22:45:54.39	161.52	6.13	-50.5	-64.0	3.8	1.49e+00	0	44	104	0	72	17125
2026-01-05 22:45:55.40	161.59	6.06	-50.6	-63.9	3.8	1.49e+00	0	44	104	0	72	17026
2026-01-05 22:45:56.40	161.66	5.99	-50.6	-63.9	3.8	1.49e+00	0	44	104	0	72	17051
2026-01-05 22:45:57.40	161.73	5.92	-50.5	-63.9	3.8	1.49e+00	0	44	104	0	72	17049
2026-01-05 22:45:58.40	161.79	5.86	-50.5	-63.9	3.8	1.49e+00	0	44	104	0	72	17054
2026-01-05 22:45:59.40	161.86	5.79	-50.5	-63.9	3.8	1.49e+00	0	44	104	0	72	17078
2026-01-05 22:46:00.41	161.93	5.72	-50.6	-63.9	3.8	1.49e+00	0	44	104	0	72	17048
2026-01-05 22:46:01.41	162.00	5.66	-50.6	-63.9	3.8	1.49e+00	0	44	104	0	72	17062
2026-01-05 22:46:02.41	162.07	5.59	-50.5	-63.9	3.8	1.49e+00	0	44	104	0	72	17040
2026-01-05 22:46:03.42	162.14	5.52	-50.6	-63.9	3.8	1.49e+00	0	44	104	0	72	17067
2026-01-05 22:46:04.42	162.20	5.46	-50.6	-63.9	3.8	1.49e+00	0	44	104	0	72	17044
2026-01-05 22:46:05.42	162.27	5.39	-50.5	-63.9	3.8	1.49e+00	0	44	104	0	72	17047
2026-01-05 22:46:06.42	162.34	5.33	-50.5	-64.0	3.8	1.49e+00	0	44	104	0	72	17088
2026-01-05 22:46:07.42	162.40	5.26	-50.5	-63.9	3.8	1.49e+00	0	44	104	0	72	17012
2026-01-05 22:46:08.43	162.47	5.20	-50.5	-63.9	3.8	1.49e+00	0	44	104	0	72	17078
2026-01-05 22:46:09.43	162.53	5.13	-50.5	-63.9	3.8	1.49e+00	0	44	104	0	72	17046
2026-01-05 22:46:10.43	162.60	5.07	-50.5	-63.9	3.8	1.49e+00	0	44	104	0	72	16972
2026-01-05 22:46:11.43	162.66	5.00	-50.6	-63.9	3.8	1.49e+00	0	44	104	0	72	17063

#Closed at: 2026-01-05 22:46:12
#Recorded file [0 MB]: D:/Data/31040_260106_013408.dat