passes_logs/2026/01/05/T1/T1__20260105_020328_FENGYUN_3D_rec.log

#Pass ID: 20260105_020328_FENGYUN 3D
#Satellite: FENGYUN 3D
#Configuration: FENGYUN 3D
#almurnet v.1.7.20251203
#Start time: 2026-01-05 02:03:28

#Version: 2.0.20230620
#Station: T1
#Location: 37.570604 lon 55.790049 lat
#TLE: 1 43010U 17072A   26004.50247883 -.00000063  00000+0 -78815-5 0  9998
#TLE: 2 43010  98.9915 336.1565 0001968 126.3752 233.7605 14.19691805421760

#Time	Az	El	Level	Level2	SNR	BER	BlckErr	Temp	State	Recorded	gain1	gain2
2026-01-05 02:03:28.05	14.82	4.97	-51.9	-65.2	3.8	8.47e-01	0	39	0	0	74	17631
2026-01-05 02:03:29.04	14.81	5.04	-51.9	-65.2	3.8	8.48e-01	0	40	104	0	74	17547
2026-01-05 02:03:30.05	14.80	5.11	-52.0	-65.2	3.8	8.47e-01	0	40	104	0	74	17576
2026-01-05 02:03:31.05	14.78	5.19	-52.0	-65.2	3.8	8.46e-01	0	40	104	0	74	17663
2026-01-05 02:03:32.06	14.77	5.26	-52.0	-65.2	3.8	8.47e-01	0	40	104	0	74	17646
2026-01-05 02:03:33.06	14.76	5.33	-52.0	-65.2	3.8	8.47e-01	0	40	104	0	74	17575
2026-01-05 02:03:34.07	14.75	5.40	-52.0	-65.2	3.8	8.47e-01	0	40	104	0	74	17598
2026-01-05 02:03:35.07	14.73	5.47	-52.0	-65.2	3.8	8.48e-01	0	40	104	0	74	17565
2026-01-05 02:03:36.08	14.72	5.55	-52.0	-65.2	3.8	8.47e-01	0	40	104	0	74	17594
2026-01-05 02:03:37.08	14.71	5.62	-52.0	-65.2	3.8	8.47e-01	0	40	104	0	74	17542
2026-01-05 02:03:38.08	14.69	5.69	-52.0	-65.2	3.8	8.46e-01	0	40	104	0	74	17543
2026-01-05 02:03:39.09	14.68	5.77	-52.0	-65.2	3.8	8.46e-01	0	40	104	0	74	17582
2026-01-05 02:03:40.09	14.67	5.84	-52.0	-65.2	3.8	8.47e-01	0	40	104	0	74	17562
2026-01-05 02:03:41.10	14.65	5.91	-52.0	-65.2	3.8	8.47e-01	0	40	104	0	74	17672
2026-01-05 02:03:42.10	14.64	5.99	-52.0	-65.2	3.8	8.47e-01	0	40	104	0	74	17624
2026-01-05 02:03:43.11	14.63	6.06	-52.0	-65.2	3.8	8.47e-01	0	40	104	0	74	17607
2026-01-05 02:03:44.11	14.61	6.13	-51.9	-65.2	3.8	8.47e-01	0	40	104	0	74	17621
2026-01-05 02:03:45.11	14.60	6.21	-51.9	-65.2	3.8	8.48e-01	0	40	104	0	74	17545
2026-01-05 02:03:46.12	14.58	6.28	-51.9	-65.2	3.8	8.45e-01	0	40	104	0	74	17561
2026-01-05 02:03:47.12	14.57	6.36	-51.9	-65.2	3.8	8.46e-01	0	40	104	0	74	17524
2026-01-05 02:03:48.12	14.56	6.43	-51.8	-65.2	3.8	8.47e-01	0	40	104	0	74	17514
2026-01-05 02:03:49.13	14.54	6.51	-51.8	-65.2	3.8	8.47e-01	0	40	104	0	74	17557
2026-01-05 02:03:50.13	14.53	6.58	-51.8	-65.1	3.8	8.47e-01	0	40	104	0	74	17470
2026-01-05 02:03:51.14	14.51	6.66	-51.8	-65.1	3.8	8.47e-01	0	40	104	0	74	17414
2026-01-05 02:03:52.14	14.50	6.74	-51.7	-65.1	3.8	8.48e-01	0	41	104	0	74	17435
2026-01-05 02:03:53.14	14.48	6.81	-51.7	-65.1	3.8	8.47e-01	0	40	104	0	74	17449
2026-01-05 02:03:54.15	14.47	6.89	-51.7	-65.1	3.8	8.47e-01	0	40	104	0	74	17444
2026-01-05 02:03:55.15	14.45	6.96	-51.6	-65.1	3.8	8.46e-01	0	41	104	0	74	17451
2026-01-05 02:03:56.16	14.44	7.04	-51.6	-65.1	3.8	8.49e-01	0	40	104	0	74	17425
2026-01-05 02:03:57.16	14.42	7.12	-51.5	-65.1	3.8	8.47e-01	0	40	104	0	74	17415
2026-01-05 02:03:58.17	14.41	7.20	-51.5	-65.1	3.8	8.47e-01	0	41	104	0	74	17437
2026-01-05 02:03:59.17	14.39	7.27	-51.4	-65.1	3.8	8.46e-01	0	41	104	0	74	17405
2026-01-05 02:04:00.17	14.38	7.35	-51.4	-65.1	3.8	8.46e-01	0	41	104	0	74	17467
2026-01-05 02:04:01.18	14.36	7.43	-51.4	-65.2	3.8	8.46e-01	0	41	104	0	74	17551
2026-01-05 02:04:02.18	14.35	7.51	-51.4	-65.2	3.8	8.47e-01	0	41	104	0	74	17520
2026-01-05 02:04:03.19	14.33	7.59	-51.4	-65.2	3.8	8.47e-01	0	41	104	0	74	17523
2026-01-05 02:04:04.19	14.32	7.66	-51.4	-65.2	3.8	8.47e-01	0	41	104	0	74	17504
2026-01-05 02:04:05.20	14.30	7.74	-51.4	-65.2	3.8	8.47e-01	0	41	104	0	74	17595
2026-01-05 02:04:06.20	14.28	7.82	-51.3	-65.1	3.8	8.48e-01	0	41	104	0	74	17433
2026-01-05 02:04:07.20	14.27	7.90	-51.4	-65.2	3.8	8.46e-01	0	41	104	0	74	17516
2026-01-05 02:04:08.20	14.25	7.98	-51.3	-65.2	3.8	8.47e-01	0	41	104	0	74	17527
2026-01-05 02:04:09.21	14.24	8.06	-51.4	-65.2	3.8	8.48e-01	0	41	104	0	74	17543
2026-01-05 02:04:10.21	14.22	8.14	-51.3	-65.2	3.8	8.46e-01	0	41	104	0	74	17567
2026-01-05 02:04:11.22	14.20	8.22	-51.3	-65.2	3.8	8.47e-01	0	41	104	0	74	17524
2026-01-05 02:04:12.22	14.19	8.30	-51.3	-65.2	3.8	8.47e-01	0	41	104	0	74	17600
2026-01-05 02:04:13.23	14.17	8.38	-51.4	-65.2	3.8	8.47e-01	0	41	104	0	74	17507
2026-01-05 02:04:14.23	14.15	8.46	-51.4	-65.1	3.8	8.47e-01	0	41	104	0	74	17474
2026-01-05 02:04:15.23	14.14	8.55	-51.4	-65.2	3.8	8.48e-01	0	41	104	0	74	17502
2026-01-05 02:04:16.24	14.12	8.63	-51.4	-65.1	3.8	8.47e-01	0	41	104	0	74	17475
2026-01-05 02:04:17.24	14.10	8.71	-51.5	-65.1	3.8	8.45e-01	0	41	104	0	74	17468
2026-01-05 02:04:18.25	14.08	8.79	-51.5	-65.1	3.8	8.47e-01	0	41	104	0	74	17473
2026-01-05 02:04:19.25	14.07	8.87	-51.5	-65.1	3.8	8.48e-01	0	41	104	0	74	17438
2026-01-05 02:04:20.26	14.05	8.96	-51.6	-65.1	3.8	8.48e-01	0	41	104	0	74	17434
2026-01-05 02:04:21.26	14.03	9.04	-51.6	-65.1	3.8	8.45e-01	0	41	104	0	74	17466
2026-01-05 02:04:22.27	14.01	9.12	-51.7	-65.2	3.8	8.47e-01	0	41	104	0	74	17522
2026-01-05 02:04:23.27	14.00	9.21	-51.7	-65.1	3.8	8.47e-01	0	41	104	0	74	17462
2026-01-05 02:04:24.27	13.98	9.29	-51.8	-65.2	3.8	8.48e-01	0	41	104	0	74	17500
2026-01-05 02:04:25.28	13.96	9.38	-51.8	-65.1	3.8	8.47e-01	0	41	104	0	74	17427
2026-01-05 02:04:26.28	13.94	9.46	-51.9	-65.2	3.8	8.47e-01	0	41	104	0	74	17532
2026-01-05 02:04:27.29	13.92	9.55	-51.9	-65.1	3.8	8.47e-01	0	41	104	0	74	17389
2026-01-05 02:04:28.29	13.90	9.63	-52.0	-65.1	3.8	8.47e-01	0	41	104	0	74	17460
2026-01-05 02:04:29.30	13.88	9.72	-52.0	-65.2	3.8	8.47e-01	0	42	104	0	74	17499
2026-01-05 02:04:30.30	13.87	9.80	-52.1	-65.2	3.8	8.47e-01	0	41	104	0	74	17515
2026-01-05 02:04:31.31	13.85	9.89	-52.1	-65.2	3.8	8.47e-01	0	41	104	0	74	17497
2026-01-05 02:04:32.31	13.83	9.97	-52.2	-65.1	3.8	8.45e-01	0	41	104	0	74	17407
2026-01-05 02:04:33.31	13.81	10.06	-52.2	-65.1	3.8	8.48e-01	0	42	104	0	75	16479
2026-01-05 02:04:34.32	13.79	10.15	-52.2	-65.2	3.8	8.47e-01	0	42	104	0	75	16505
2026-01-05 02:04:35.32	13.77	10.23	-52.3	-65.1	3.8	8.48e-01	0	42	104	0	75	16492
2026-01-05 02:04:36.33	13.75	10.32	-52.3	-65.2	3.8	8.48e-01	0	42	104	0	75	16511
2026-01-05 02:04:37.33	13.73	10.41	-52.3	-65.1	3.8	8.46e-01	0	42	104	0	75	16480
2026-01-05 02:04:38.33	13.71	10.50	-52.4	-65.1	3.8	8.46e-01	0	42	104	0	75	16484
2026-01-05 02:04:39.34	13.69	10.58	-52.4	-65.2	3.8	8.47e-01	0	42	104	0	75	16516
2026-01-05 02:04:40.34	13.67	10.67	-52.4	-65.1	3.8	8.47e-01	0	42	104	0	75	16475
2026-01-05 02:04:41.35	13.65	10.76	-52.4	-65.2	3.8	8.47e-01	0	42	104	0	75	16514
2026-01-05 02:04:42.35	13.63	10.85	-52.5	-65.1	3.8	8.47e-01	0	42	104	0	75	16476
2026-01-05 02:04:43.36	13.61	10.94	-52.5	-65.2	3.8	8.48e-01	0	41	104	0	75	16543
2026-01-05 02:04:44.36	13.59	11.03	-52.5	-65.1	3.8	8.46e-01	0	42	104	0	75	16497
2026-01-05 02:04:45.37	13.57	11.12	-52.5	-65.2	3.8	8.48e-01	0	42	104	0	75	16538
2026-01-05 02:04:46.37	13.54	11.21	-52.5	-65.1	3.8	8.47e-01	0	42	104	0	75	16495
2026-01-05 02:04:47.37	13.52	11.30	-52.5	-65.1	3.8	8.47e-01	0	42	104	0	75	16464
2026-01-05 02:04:48.38	13.50	11.39	-52.5	-65.2	3.8	8.47e-01	0	42	104	0	75	16530
2026-01-05 02:04:49.38	13.48	11.49	-52.5	-65.1	3.8	8.46e-01	0	41	104	0	75	16479
2026-01-05 02:04:50.39	13.46	11.58	-52.5	-65.1	3.8	8.46e-01	0	42	104	0	75	16456
2026-01-05 02:04:51.39	13.44	11.67	-52.5	-65.1	3.8	8.47e-01	0	42	104	0	75	16403
2026-01-05 02:04:52.39	13.41	11.76	-52.5	-65.1	3.8	8.47e-01	0	42	104	0	75	16406
2026-01-05 02:04:53.40	13.39	11.86	-52.4	-65.1	3.8	8.47e-01	0	42	104	0	75	16395
2026-01-05 02:04:54.40	13.37	11.95	-52.4	-65.1	3.8	8.48e-01	0	42	104	0	75	16445
2026-01-05 02:04:55.41	13.35	12.04	-52.4	-65.1	3.8	8.47e-01	0	42	104	0	75	16395
2026-01-05 02:04:56.41	13.32	12.14	-52.3	-65.1	3.8	8.46e-01	0	42	104	0	75	16403
2026-01-05 02:04:57.41	13.30	12.23	-52.3	-65.1	3.8	8.47e-01	0	42	104	0	75	16407
2026-01-05 02:04:58.42	13.28	12.33	-52.2	-65.1	3.8	8.47e-01	0	42	104	0	75	16423
2026-01-05 02:04:59.42	13.25	12.42	-52.2	-65.1	3.8	8.47e-01	0	42	104	0	75	16442
2026-01-05 02:05:00.42	13.23	12.52	-52.1	-65.1	3.8	8.48e-01	0	42	104	0	75	16474
2026-01-05 02:05:01.43	13.21	12.61	-52.1	-65.1	3.8	8.47e-01	0	42	104	0	75	16458
2026-01-05 02:05:02.43	13.18	12.71	-52.0	-65.2	3.8	8.47e-01	0	42	104	0	75	16556
2026-01-05 02:05:03.44	13.16	12.81	-51.9	-65.1	3.8	8.47e-01	0	42	104	0	75	16430
2026-01-05 02:05:04.44	13.13	12.90	-51.9	-65.1	3.8	8.48e-01	0	42	104	0	75	16462
2026-01-05 02:05:05.44	13.11	13.00	-51.8	-65.1	3.8	8.46e-01	0	42	104	0	75	16484
2026-01-05 02:05:06.45	13.08	13.10	-51.8	-65.1	3.8	8.47e-01	0	42	104	0	75	16484
2026-01-05 02:05:07.45	13.06	13.19	-51.8	-65.1	3.8	8.48e-01	0	42	104	0	75	16472
2026-01-05 02:05:08.46	13.04	13.29	-51.7	-65.1	3.8	8.47e-01	0	42	104	0	75	16497
2026-01-05 02:05:09.46	13.01	13.39	-51.7	-65.1	3.8	8.46e-01	0	42	104	0	75	16487
2026-01-05 02:05:10.47	12.98	13.49	-51.7	-65.1	3.8	8.47e-01	0	42	104	0	75	16429
2026-01-05 02:05:11.47	12.96	13.59	-51.7	-65.1	3.8	8.47e-01	0	42	104	0	75	16451
2026-01-05 02:05:12.48	12.93	13.69	-51.6	-65.1	3.8	8.46e-01	0	42	104	0	75	16457
2026-01-05 02:05:13.48	12.91	13.79	-51.6	-65.1	3.8	8.47e-01	0	42	104	0	75	16488
2026-01-05 02:05:14.48	12.88	13.89	-51.6	-65.1	3.8	8.47e-01	0	42	104	0	75	16486
2026-01-05 02:05:15.49	12.85	13.99	-51.6	-65.1	3.8	8.45e-01	0	42	104	0	75	16497
2026-01-05 02:05:16.49	12.83	14.10	-51.6	-65.2	3.8	8.46e-01	0	42	104	0	75	16534
2026-01-05 02:05:17.50	12.80	14.20	-51.6	-65.2	3.8	8.47e-01	0	42	104	0	75	16525
2026-01-05 02:05:18.50	12.77	14.30	-51.6	-65.1	3.8	8.48e-01	0	42	104	0	75	16440
2026-01-05 02:05:19.51	12.75	14.40	-51.6	-65.2	3.8	8.46e-01	0	42	104	0	75	16513
2026-01-05 02:05:20.51	12.72	14.51	-51.6	-65.1	3.8	8.46e-01	0	42	104	0	75	16483
2026-01-05 02:05:21.51	12.69	14.61	-51.6	-65.1	3.8	8.46e-01	0	42	104	0	75	16426
2026-01-05 02:05:22.52	12.66	14.72	-51.6	-65.1	3.8	8.47e-01	0	42	104	0	75	16469
2026-01-05 02:05:23.52	12.63	14.82	-51.5	-65.1	3.8	8.47e-01	0	42	104	0	75	16494
2026-01-05 02:05:24.53	12.61	14.93	-51.5	-65.1	3.8	8.48e-01	0	42	104	0	75	16404
2026-01-05 02:05:25.53	12.58	15.03	-51.6	-65.1	3.8	8.47e-01	0	42	104	0	75	16433
2026-01-05 02:05:26.54	12.55	15.14	-51.6	-65.1	3.8	8.46e-01	0	42	104	0	75	16501
2026-01-05 02:05:27.54	12.52	15.25	-51.6	-65.1	3.8	8.47e-01	0	42	104	0	75	16421
2026-01-05 02:05:28.55	12.49	15.35	-51.6	-65.2	3.8	8.47e-01	0	42	104	0	75	16517
2026-01-05 02:05:29.55	12.46	15.46	-51.6	-65.2	3.8	8.48e-01	0	42	104	0	75	16531
2026-01-05 02:05:30.55	12.43	15.57	-51.6	-65.1	3.8	8.46e-01	0	42	104	0	75	16469
2026-01-05 02:05:31.56	12.40	15.68	-51.6	-65.1	3.8	8.48e-01	0	42	104	0	75	16490
2026-01-05 02:05:32.56	12.37	15.79	-51.7	-65.2	3.8	8.47e-01	0	42	104	0	75	16551
2026-01-05 02:05:33.57	12.34	15.90	-51.7	-65.1	3.8	8.47e-01	0	42	104	0	75	16473
2026-01-05 02:05:34.57	12.31	16.00	-51.8	-65.1	3.8	8.46e-01	0	42	104	0	75	16499
2026-01-05 02:05:35.57	12.28	16.11	-51.8	-65.1	3.8	8.46e-01	0	42	104	0	75	16424
2026-01-05 02:05:36.58	12.25	16.23	-51.9	-65.1	3.8	8.46e-01	0	42	104	0	75	16492
2026-01-05 02:05:37.58	12.22	16.34	-51.9	-65.2	3.8	8.48e-01	0	42	104	0	75	16505
2026-01-05 02:05:38.58	12.18	16.45	-52.0	-65.1	3.8	8.46e-01	0	42	104	0	75	16484
2026-01-05 02:05:39.59	12.15	16.56	-52.0	-65.1	3.8	8.47e-01	0	42	104	0	75	16481
2026-01-05 02:05:40.59	12.12	16.67	-52.1	-65.1	3.8	8.46e-01	0	42	104	0	75	16483
2026-01-05 02:05:41.60	12.09	16.79	-52.2	-65.1	3.8	8.46e-01	0	42	104	0	75	16391
2026-01-05 02:05:42.60	12.05	16.90	-52.2	-65.1	3.8	8.47e-01	0	42	104	0	75	16492
2026-01-05 02:05:43.61	12.02	17.02	-52.3	-65.1	3.8	8.47e-01	0	42	104	0	75	16386
2026-01-05 02:05:44.61	11.99	17.13	-52.3	-65.1	3.8	8.47e-01	0	42	104	0	75	16358
2026-01-05 02:05:45.61	11.95	17.25	-52.3	-65.1	3.8	8.47e-01	0	42	104	0	75	16456
2026-01-05 02:05:46.62	11.92	17.36	-52.4	-65.1	3.8	8.48e-01	0	42	104	0	75	16466
2026-01-05 02:05:47.62	11.88	17.48	-52.4	-65.1	3.8	8.47e-01	0	42	104	0	75	16406
2026-01-05 02:05:48.63	11.85	17.60	-52.4	-65.1	3.8	8.48e-01	0	42	104	0	75	16356
2026-01-05 02:05:49.63	11.81	17.71	-52.5	-65.1	3.8	8.49e-01	0	42	104	0	75	16345
2026-01-05 02:05:50.63	11.78	17.83	-52.5	-65.1	3.8	8.47e-01	0	42	104	0	75	16401
2026-01-05 02:05:51.64	11.74	17.95	-52.5	-65.1	3.8	8.47e-01	0	42	104	0	75	16426
2026-01-05 02:05:52.64	11.71	18.07	-52.5	-65.1	3.8	8.47e-01	0	42	104	0	75	16411
2026-01-05 02:05:53.65	11.67	18.19	-52.4	-65.1	3.8	8.46e-01	0	42	104	0	75	16339
2026-01-05 02:05:54.65	11.63	18.31	-52.4	-65.1	3.8	8.47e-01	0	42	104	0	75	16373
2026-01-05 02:05:55.65	11.60	18.43	-52.3	-65.1	3.8	8.47e-01	0	42	104	0	75	16328
2026-01-05 02:05:56.66	11.56	18.55	-52.2	-65.0	3.8	8.47e-01	0	42	104	0	75	16300
2026-01-05 02:05:57.66	11.52	18.68	-52.1	-65.1	3.8	8.47e-01	0	42	104	0	75	16318
2026-01-05 02:05:58.67	11.48	18.80	-52.0	-65.1	3.8	8.48e-01	0	42	104	0	75	16343
2026-01-05 02:05:59.67	11.45	18.92	-51.9	-65.0	3.8	8.48e-01	0	42	104	0	75	16284
2026-01-05 02:06:00.67	11.41	19.05	-51.8	-65.1	3.8	8.46e-01	0	42	104	0	75	16369
2026-01-05 02:06:01.68	11.37	19.17	-51.6	-65.1	3.8	8.45e-01	0	42	104	0	75	16350
2026-01-05 02:06:02.68	11.33	19.30	-51.5	-65.1	3.8	8.48e-01	0	42	104	0	75	16358
2026-01-05 02:06:03.69	11.29	19.42	-51.4	-65.1	3.8	8.48e-01	0	42	104	0	74	17343
2026-01-05 02:06:04.69	11.25	19.55	-51.3	-65.1	3.8	8.47e-01	0	42	104	0	74	17463
2026-01-05 02:06:05.69	11.21	19.68	-51.3	-65.2	3.8	8.47e-01	0	42	104	0	74	17492
2026-01-05 02:06:06.70	11.17	19.81	-51.1	-65.1	3.8	8.47e-01	0	42	104	0	74	17443
2026-01-05 02:06:07.70	11.13	19.93	-51.1	-65.2	3.8	8.47e-01	0	42	104	0	74	17537
2026-01-05 02:06:08.71	11.09	20.06	-51.1	-65.1	3.8	8.48e-01	0	42	104	0	74	17447
2026-01-05 02:06:09.71	11.04	20.19	-51.0	-65.1	3.8	8.46e-01	0	42	104	0	74	17375
2026-01-05 02:06:10.72	11.00	20.32	-51.0	-65.1	3.8	8.47e-01	0	42	104	0	74	17404
2026-01-05 02:06:11.72	10.96	20.45	-51.0	-65.1	3.8	8.47e-01	0	42	104	0	73	18307
2026-01-05 02:06:12.72	10.92	20.59	-50.9	-65.1	3.8	8.47e-01	0	42	104	0	73	18338
2026-01-05 02:06:13.73	10.87	20.72	-51.0	-65.1	3.8	8.46e-01	0	42	104	0	73	18406
2026-01-05 02:06:14.73	10.83	20.85	-51.0	-65.1	3.8	8.48e-01	0	42	104	0	73	18347
2026-01-05 02:06:15.73	10.79	20.99	-51.0	-65.1	3.8	8.46e-01	0	42	104	0	73	18371
2026-01-05 02:06:16.74	10.74	21.12	-51.0	-65.0	3.8	8.48e-01	0	42	104	0	73	18275
2026-01-05 02:06:17.74	10.70	21.26	-51.1	-65.1	3.8	8.48e-01	0	42	104	0	73	18428
2026-01-05 02:06:18.75	10.65	21.39	-51.1	-65.1	3.8	8.47e-01	0	42	104	0	73	18496
2026-01-05 02:06:19.75	10.60	21.53	-51.1	-65.2	3.8	8.47e-01	0	42	104	0	73	18529
2026-01-05 02:06:20.76	10.56	21.67	-51.2	-65.1	3.8	8.47e-01	0	43	104	0	73	18448
2026-01-05 02:06:21.76	10.51	21.80	-51.2	-65.2	3.8	8.47e-01	0	42	104	0	73	18554
2026-01-05 02:06:22.76	10.46	21.94	-51.3	-65.1	3.8	8.47e-01	0	42	104	0	73	18453
2026-01-05 02:06:23.77	10.42	22.08	-51.3	-65.1	3.8	8.47e-01	0	42	104	0	73	18437
2026-01-05 02:06:24.77	10.37	22.22	-51.4	-65.1	3.8	8.47e-01	0	42	104	0	73	18379
2026-01-05 02:06:25.78	10.32	22.37	-51.5	-65.1	3.8	8.47e-01	0	42	104	0	73	18427
2026-01-05 02:06:26.78	10.27	22.51	-51.5	-65.0	3.8	8.46e-01	0	42	104	0	73	18305
2026-01-05 02:06:27.78	10.22	22.65	-51.6	-65.1	3.8	8.47e-01	0	42	104	0	73	18341
2026-01-05 02:06:28.79	10.17	22.79	-51.6	-65.1	3.8	8.48e-01	0	42	104	0	73	18374
2026-01-05 02:06:29.79	10.12	22.94	-51.7	-65.1	3.8	8.47e-01	0	42	104	0	74	17422
2026-01-05 02:06:30.79	10.07	23.08	-51.8	-65.1	3.8	8.46e-01	0	42	104	0	74	17353
2026-01-05 02:06:31.80	10.02	23.23	-51.8	-65.1	3.8	8.46e-01	0	43	104	0	74	17391
2026-01-05 02:06:32.80	9.96	23.37	-51.9	-65.2	3.8	8.47e-01	0	42	104	0	74	17500
2026-01-05 02:06:33.81	9.91	23.52	-51.9	-65.1	3.8	8.48e-01	0	42	104	0	74	17460
2026-01-05 02:06:34.81	9.86	23.67	-51.9	-65.1	3.8	8.47e-01	0	43	104	0	74	17346
2026-01-05 02:06:35.81	9.80	23.82	-51.9	-65.1	3.8	8.48e-01	0	42	104	0	74	17347
2026-01-05 02:06:36.82	9.75	23.97	-51.9	-65.1	3.8	8.47e-01	0	43	104	0	74	17448
2026-01-05 02:06:37.82	9.69	24.12	-51.9	-65.1	3.8	8.47e-01	0	42	104	0	74	17399
2026-01-05 02:06:38.83	9.64	24.27	-51.9	-65.1	3.8	8.46e-01	0	43	104	0	74	17392
2026-01-05 02:06:39.83	9.58	24.42	-51.9	-65.1	3.8	8.47e-01	0	43	104	0	74	17410
2026-01-05 02:06:40.84	9.53	24.58	-51.9	-65.1	3.8	8.48e-01	0	43	104	0	74	17389
2026-01-05 02:06:41.84	9.47	24.73	-51.9	-65.1	3.8	8.47e-01	0	42	104	0	74	17379
2026-01-05 02:06:42.85	9.41	24.89	-51.9	-65.1	3.8	8.48e-01	0	43	104	0	74	17417
2026-01-05 02:06:43.85	9.35	25.04	-51.9	-65.1	3.8	8.46e-01	0	42	104	0	74	17328
2026-01-05 02:06:44.86	9.29	25.20	-51.8	-65.1	3.8	8.46e-01	0	42	104	0	74	17380
2026-01-05 02:06:45.86	9.23	25.36	-51.8	-65.1	3.8	8.48e-01	0	42	104	0	74	17316
2026-01-05 02:06:46.86	9.17	25.52	-51.8	-65.1	3.8	8.46e-01	0	42	104	0	74	17330
2026-01-05 02:06:47.87	9.11	25.68	-51.7	-65.1	3.8	8.46e-01	0	42	104	0	74	17336
2026-01-05 02:06:48.87	9.05	25.84	-51.7	-65.1	3.8	8.46e-01	0	43	104	0	74	17340
2026-01-05 02:06:49.88	8.99	26.00	-51.7	-65.1	3.8	8.47e-01	0	43	104	0	74	17365
2026-01-05 02:06:50.88	8.92	26.16	-51.6	-65.2	3.8	8.45e-01	0	42	104	0	74	17482
2026-01-05 02:06:51.89	8.86	26.33	-51.6	-65.1	3.8	8.47e-01	0	42	104	0	74	17380
2026-01-05 02:06:52.89	8.80	26.49	-51.6	-65.1	3.8	8.47e-01	0	42	104	0	74	17381
2026-01-05 02:06:53.89	8.73	26.65	-51.5	-65.1	3.8	8.46e-01	0	42	104	0	74	17392
2026-01-05 02:06:54.90	8.66	26.82	-51.5	-65.1	3.8	8.47e-01	0	43	104	0	74	17404
2026-01-05 02:06:55.90	8.60	26.99	-51.5	-65.1	3.8	8.46e-01	0	43	104	0	74	17336
2026-01-05 02:06:56.90	8.53	27.16	-51.4	-65.1	3.8	8.47e-01	0	42	104	0	74	17349
2026-01-05 02:06:57.91	8.46	27.33	-51.4	-65.1	3.8	8.47e-01	0	42	104	0	74	17385
2026-01-05 02:06:58.91	8.39	27.50	-51.4	-65.1	3.8	8.46e-01	0	42	104	0	74	17399
2026-01-05 02:06:59.92	8.32	27.67	-51.4	-65.1	3.8	8.46e-01	0	43	104	0	74	17372
2026-01-05 02:07:00.92	8.25	27.84	-51.3	-65.1	3.8	8.46e-01	0	42	104	0	74	17431
2026-01-05 02:07:01.93	8.18	28.01	-51.3	-65.1	3.8	8.47e-01	0	43	104	0	74	17333
2026-01-05 02:07:02.93	8.11	28.19	-51.4	-65.1	3.8	8.47e-01	0	43	104	0	74	17367
2026-01-05 02:07:03.93	8.04	28.36	-51.3	-65.1	3.8	8.49e-01	0	42	104	0	74	17481
2026-01-05 02:07:04.94	7.96	28.54	-51.4	-65.1	3.8	8.47e-01	0	42	104	0	74	17460
2026-01-05 02:07:05.94	7.89	28.72	-51.4	-65.1	3.8	8.47e-01	0	42	104	0	74	17449
2026-01-05 02:07:06.95	7.81	28.90	-51.4	-65.2	3.8	8.47e-01	0	42	104	0	74	17489
2026-01-05 02:07:07.95	7.74	29.08	-51.4	-65.1	3.8	8.46e-01	0	42	104	0	74	17465
2026-01-05 02:07:08.95	7.66	29.26	-51.3	-65.1	3.8	8.48e-01	0	42	104	0	74	17467
2026-01-05 02:07:09.96	7.58	29.44	-51.4	-65.1	3.8	8.47e-01	0	43	104	0	74	17456
2026-01-05 02:07:10.96	7.50	29.62	-51.4	-65.1	3.8	8.48e-01	0	43	104	0	74	17390
2026-01-05 02:07:11.97	7.42	29.81	-51.3	-65.1	3.8	8.46e-01	0	43	104	0	74	17360
2026-01-05 02:07:12.97	7.34	29.99	-51.4	-65.1	3.8	8.47e-01	0	43	104	0	74	17399
2026-01-05 02:07:13.98	7.26	30.18	-51.4	-65.1	3.8	8.47e-01	0	43	104	0	74	17382
2026-01-05 02:07:14.98	7.18	30.37	-51.4	-65.1	3.8	8.47e-01	0	43	104	0	74	17314
2026-01-05 02:07:15.99	7.09	30.56	-51.4	-65.1	3.8	8.46e-01	0	43	104	0	74	17371
2026-01-05 02:07:16.99	7.01	30.75	-51.4	-65.0	3.8	8.47e-01	0	42	104	0	74	17258
2026-01-05 02:07:17.99	6.92	30.94	-51.4	-65.0	3.8	8.47e-01	0	42	104	0	74	17259
2026-01-05 02:07:19.00	6.83	31.13	-51.5	-65.1	3.8	8.48e-01	0	43	104	0	74	17333
2026-01-05 02:07:20.00	6.75	31.32	-51.8	-65.2	3.8	8.46e-01	0	43	104	0	74	17508
2026-01-05 02:07:21.01	6.66	31.52	-52.6	-65.3	3.8	8.48e-01	0	43	104	0	75	16827
2026-01-05 02:07:22.01	6.57	31.71	-52.3	-65.3	3.8	8.48e-01	0	42	104	0	75	16764
2026-01-05 02:07:23.02	6.47	31.91	-52.9	-65.4	3.8	8.46e-01	0	43	104	0	76	16020
2026-01-05 02:07:24.02	6.38	32.11	-52.6	-65.4	3.8	8.47e-01	0	43	104	0	76	16018
2026-01-05 02:07:25.02	6.29	32.31	-53.0	-65.1	3.8	8.47e-01	0	43	104	0	76	15417
2026-01-05 02:07:26.03	6.19	32.51	-53.1	-65.0	3.8	8.48e-01	0	43	104	0	77	14401
2026-01-05 02:07:27.03	6.10	32.71	-53.0	-64.2	3.8	8.46e-01	0	42	104	0	77	13212
2026-01-05 02:07:28.04	6.00	32.92	-39.5	-41.2	22.3	3.59e-03	0	43	0	2097152	50	4424
2026-01-05 02:07:29.04	5.90	33.12	-43.4	-45.8	18.2	0.00e+00	0	42	0	7340032	59	4464
2026-01-05 02:07:30.04	5.80	33.33	-43.0	-44.9	19.1	0.00e+00	0	42	0	13631488	58	4265
2026-01-05 02:07:31.05	5.70	33.54	-51.6	-57.6	6.6	1.66e-02	0	43	0	18874368	73	7799
2026-01-05 02:07:32.05	5.59	33.74	-41.0	-42.8	20.9	0.00e+00	0	42	0	25165824	54	4204
2026-01-05 02:07:33.05	5.49	33.95	-47.2	-49.9	14.2	0.00e+00	0	43	0	30408704	65	5087
2026-01-05 02:07:34.05	5.38	34.16	-39.1	-40.8	22.6	0.00e+00	0	43	0	35651584	50	4218
2026-01-05 02:07:35.06	5.28	34.38	-39.2	-40.8	22.6	0.00e+00	0	43	0	41943040	50	4237
2026-01-05 02:07:36.06	5.17	34.59	-39.1	-40.8	22.6	0.00e+00	0	42	0	47185920	50	4206
2026-01-05 02:07:37.06	5.06	34.81	-38.9	-40.6	22.7	0.00e+00	0	42	0	52428800	49	4352
2026-01-05 02:07:38.06	4.95	35.02	-38.9	-40.6	22.8	0.00e+00	0	42	0	58720256	49	4345
2026-01-05 02:07:39.06	4.83	35.24	-38.6	-40.3	23.0	0.00e+00	0	43	0	63963136	49	4207
2026-01-05 02:07:40.07	4.72	35.46	-38.5	-40.1	23.1	0.00e+00	0	43	0	69206016	48	4375
2026-01-05 02:07:41.15	4.59	35.70	-38.5	-40.2	23.1	0.00e+00	0	43	0	75497472	48	4403
2026-01-05 02:07:42.04	4.49	35.89	-38.4	-40.1	23.1	0.00e+00	0	43	0	80740352	48	4348
2026-01-05 02:07:43.19	4.35	36.15	-38.6	-40.2	23.0	0.00e+00	0	42	0	87031808	48	4440
2026-01-05 02:07:44.04	4.25	36.34	-38.5	-40.2	23.1	0.00e+00	0	43	0	92274688	48	4405
2026-01-05 02:07:45.19	4.11	36.60	-38.7	-40.4	22.9	0.00e+00	0	42	0	98566144	48	4502
2026-01-05 02:07:46.05	4.00	36.80	-38.9	-40.5	22.8	0.00e+00	0	42	0	103809024	48	4592
2026-01-05 02:07:47.19	3.86	37.06	-39.0	-40.7	22.6	0.00e+00	0	43	0	110100480	48	4685
2026-01-05 02:07:48.05	3.75	37.26	-39.2	-40.9	22.5	0.00e+00	0	42	0	114294784	48	4771
2026-01-05 02:07:49.20	3.60	37.52	-39.2	-40.9	22.4	0.00e+00	0	42	0	120586240	49	4529
2026-01-05 02:07:50.06	3.48	37.72	-39.2	-40.9	22.5	0.00e+00	0	43	0	125829120	49	4494
2026-01-05 02:07:51.20	3.33	37.99	-39.1	-40.7	22.6	0.00e+00	0	43	0	132120576	49	4440
2026-01-05 02:07:52.06	3.21	38.19	-38.9	-40.6	22.7	0.00e+00	0	43	0	137363456	49	4353
2026-01-05 02:07:53.21	3.06	38.47	-39.0	-40.7	22.7	0.00e+00	0	42	0	143654912	49	4404
2026-01-05 02:07:54.06	2.94	38.67	-39.2	-40.8	22.5	0.00e+00	0	42	0	148897792	49	4467
2026-01-05 02:07:55.21	2.77	38.94	-39.2	-40.9	22.5	0.00e+00	0	42	0	155189248	49	4494
2026-01-05 02:07:56.07	2.65	39.15	-39.3	-41.0	22.4	0.00e+00	0	43	0	159383552	49	4558
2026-01-05 02:07:57.32	2.47	39.46	-39.4	-41.1	22.3	0.00e+00	0	42	0	166723584	49	4625
2026-01-05 02:07:58.10	2.35	39.65	-39.4	-41.1	22.3	0.00e+00	0	43	0	170917888	49	4628
2026-01-05 02:07:59.53	2.13	40.00	-39.5	-41.2	22.2	0.00e+00	0	43	0	179306496	49	4662
2026-01-05 02:08:00.25	2.02	40.18	-39.5	-41.2	22.2	0.00e+00	0	43	0	183500800	49	4670
2026-01-05 02:08:01.54	1.82	40.50	-39.4	-41.1	22.3	0.00e+00	0	43	0	190840832	49	4637
2026-01-05 02:08:02.25	1.71	40.68	-39.3	-41.0	22.4	0.00e+00	0	43	0	195035136	49	4576
2026-01-05 02:08:03.67	1.48	41.04	-39.3	-40.9	22.4	0.00e+00	0	43	0	202375168	49	4544
2026-01-05 02:08:04.64	1.32	41.29	-39.5	-41.1	22.3	0.00e+00	0	43	0	207618048	49	4651
2026-01-05 02:08:05.95	1.10	41.62	-39.6	-41.2	22.2	0.00e+00	0	42	0	214958080	49	4704
2026-01-05 02:08:06.66	0.97	41.81	-39.6	-41.2	22.2	0.00e+00	0	43	0	219152384	49	4685
2026-01-05 02:08:08.33	0.68	42.24	-39.5	-41.1	22.3	0.00e+00	0	43	0	228589568	49	4628
2026-01-05 02:08:08.90	0.58	42.39	-39.4	-41.1	22.3	0.00e+00	0	43	0	231735296	49	4620
2026-01-05 02:08:10.57	0.28	42.83	-39.2	-40.9	22.5	0.00e+00	0	42	0	241172480	49	4499
2026-01-05 02:08:11.15	0.17	42.98	-39.1	-40.7	22.6	0.00e+00	0	42	0	244318208	49	4418
2026-01-05 02:08:12.72	359.88	43.40	-39.1	-40.7	22.6	0.00e+00	0	43	0	253755392	49	4435
2026-01-05 02:08:13.32	359.76	43.56	-39.2	-40.8	22.6	0.00e+00	0	43	0	256901120	49	4465
2026-01-05 02:08:14.90	359.46	43.99	-39.2	-40.9	22.5	0.00e+00	0	43	0	265289728	49	4501
2026-01-05 02:08:15.50	359.34	44.15	-39.1	-40.8	22.6	0.00e+00	0	42	0	269484032	49	4463
2026-01-05 02:08:17.08	359.02	44.58	-39.3	-41.0	22.4	0.00e+00	0	42	0	277872640	49	4557
2026-01-05 02:08:17.71	358.89	44.76	-39.3	-41.0	22.4	0.00e+00	0	42	0	281018368	49	4588
2026-01-05 02:08:19.32	358.55	45.20	-39.4	-41.1	22.3	0.00e+00	0	43	0	290455552	49	4649
2026-01-05 02:08:19.90	358.43	45.36	-39.5	-41.2	22.2	0.00e+00	0	42	0	293601280	49	4672
2026-01-05 02:08:21.52	358.07	45.82	-39.5	-41.2	22.3	0.00e+00	0	42	0	303038464	49	4669
2026-01-05 02:08:22.09	357.94	45.98	-39.5	-41.2	22.2	0.00e+00	0	42	0	306184192	49	4679
2026-01-05 02:08:24.17	357.47	46.57	-39.3	-41.0	22.4	0.00e+00	0	43	0	317718528	49	4567
2026-01-05 02:08:24.74	357.34	46.73	-39.4	-41.1	22.4	0.00e+00	0	42	0	320864256	49	4612
2026-01-05 02:08:26.46	356.92	47.22	-39.4	-41.1	22.3	0.00e+00	0	42	0	330301440	49	4620
2026-01-05 02:08:27.03	356.79	47.39	-39.5	-41.2	22.3	0.00e+00	0	43	0	333447168	49	4688
2026-01-05 02:08:28.69	356.37	47.87	-39.7	-41.4	22.1	0.00e+00	0	43	0	342884352	50	4537
2026-01-05 02:08:29.26	356.23	48.04	-39.8	-41.5	22.0	0.00e+00	0	42	0	346030080	50	4592
2026-01-05 02:08:30.86	355.81	48.51	-39.8	-41.5	22.0	0.00e+00	0	42	0	355467264	50	4588
2026-01-05 02:08:31.45	355.65	48.68	-39.9	-41.6	22.0	0.00e+00	0	42	0	358612992	50	4605
2026-01-05 02:08:33.03	355.22	49.15	-40.0	-41.7	21.9	0.00e+00	0	43	0	368050176	50	4698
2026-01-05 02:08:33.62	355.06	49.32	-40.1	-41.8	21.8	0.00e+00	0	43	0	371195904	50	4719
2026-01-05 02:08:35.56	354.51	49.90	-40.2	-41.9	21.7	0.00e+00	0	43	0	381681664	51	4515
2026-01-05 02:08:36.13	354.34	50.07	-40.3	-41.9	21.7	0.00e+00	0	42	0	384827392	51	4545
2026-01-05 02:08:37.74	353.86	50.56	-40.2	-41.9	21.7	0.00e+00	0	43	0	394264576	51	4527
2026-01-05 02:08:38.31	353.69	50.73	-40.3	-42.0	21.6	0.00e+00	0	42	0	397410304	51	4590
2026-01-05 02:08:39.91	353.19	51.22	-40.6	-42.3	21.3	0.00e+00	0	42	0	406847488	51	4758
2026-01-05 02:08:40.48	353.01	51.39	-40.7	-42.5	21.2	0.00e+00	0	43	0	409993216	52	4551
2026-01-05 02:08:42.14	352.47	51.90	-40.6	-42.3	21.3	0.00e+00	0	42	0	418381824	52	4482
2026-01-05 02:08:42.85	352.23	52.12	-40.5	-42.2	21.4	0.00e+00	0	42	0	422576128	52	4423
2026-01-05 02:08:44.14	351.79	52.52	-40.4	-42.1	21.5	0.00e+00	0	42	0	429916160	52	4345
2026-01-05 02:08:45.05	351.47	52.80	-40.4	-42.1	21.5	0.00e+00	0	43	0	435159040	52	4352
2026-01-05 02:08:46.05	351.12	53.11	-40.5	-42.2	21.4	0.00e+00	0	42	0	441450496	52	4437
2026-01-05 02:08:47.05	350.75	53.42	-40.8	-42.5	21.2	0.00e+00	0	43	0	446693376	52	4575
2026-01-05 02:08:48.06	350.38	53.74	-40.7	-42.4	21.3	0.00e+00	0	43	0	451936256	52	4535
2026-01-05 02:08:49.06	350.00	54.05	-40.5	-42.1	21.4	0.00e+00	0	43	0	458227712	52	4390
2026-01-05 02:08:50.07	349.60	54.37	-40.4	-42.1	21.6	0.00e+00	0	43	0	463470592	52	4350
2026-01-05 02:08:51.07	349.21	54.68	-40.5	-42.2	21.5	0.00e+00	0	43	0	468713472	52	4411
2026-01-05 02:08:52.07	348.80	54.99	-40.3	-42.1	21.5	0.00e+00	0	42	0	475004928	52	4356
2026-01-05 02:08:53.07	348.38	55.31	-40.1	-41.8	21.7	0.00e+00	0	43	0	480247808	52	4221
2026-01-05 02:08:54.07	347.96	55.62	-40.1	-41.8	21.4	0.00e+00	0	42	0	485490688	52	4235
2026-01-05 02:08:55.07	347.52	55.94	-40.0	-41.8	21.5	0.00e+00	0	43	0	491782144	51	4462
2026-01-05 02:08:56.08	347.07	56.26	-40.0	-41.8	21.5	0.00e+00	0	42	0	497025024	51	4470
2026-01-05 02:08:57.08	346.62	56.57	-40.0	-41.8	21.5	0.00e+00	0	43	0	503316480	51	4449
2026-01-05 02:08:58.08	346.15	56.89	-39.9	-41.7	21.6	0.00e+00	0	43	0	508559360	51	4409
2026-01-05 02:08:59.37	345.54	57.29	-39.7	-41.5	21.8	0.00e+00	0	42	0	515899392	51	4292
2026-01-05 02:09:00.11	345.17	57.53	-39.8	-41.5	21.7	0.00e+00	0	42	0	520093696	51	4329
2026-01-05 02:09:01.41	344.52	57.94	-39.8	-41.5	21.7	0.00e+00	0	43	0	527433728	51	4340
2026-01-05 02:09:02.19	344.12	58.18	-39.9	-41.7	21.6	0.00e+00	0	43	0	531628032	51	4411
2026-01-05 02:09:03.80	343.27	58.69	-40.2	-42.0	21.5	0.00e+00	0	43	0	540016640	51	4546
2026-01-05 02:09:04.37	342.96	58.86	-40.1	-41.8	21.6	0.00e+00	0	42	0	544210944	51	4477
2026-01-05 02:09:06.01	342.05	59.38	-40.2	-42.0	21.4	0.00e+00	0	42	0	553648128	51	4546
2026-01-05 02:09:06.59	341.71	59.56	-40.1	-41.9	21.5	0.00e+00	0	42	0	556793856	51	4533
2026-01-05 02:09:08.18	340.78	60.05	-39.5	-41.2	22.0	0.00e+00	0	42	0	565182464	51	4192
2026-01-05 02:09:08.75	340.44	60.22	-39.6	-41.4	21.9	0.00e+00	0	43	0	568328192	51	4249
2026-01-05 02:09:10.33	339.46	60.71	-39.8	-41.5	21.8	0.00e+00	0	42	0	577765376	51	4328
2026-01-05 02:09:10.90	339.10	60.88	-39.7	-41.4	21.9	0.00e+00	0	42	0	580911104	51	4275
2026-01-05 02:09:12.50	338.05	61.37	-39.4	-41.2	22.1	0.00e+00	0	42	0	589299712	50	4399
2026-01-05 02:09:13.08	337.66	61.54	-39.3	-41.0	22.2	0.00e+00	0	42	0	592445440	50	4317
2026-01-05 02:09:15.05	336.30	62.13	-39.0	-40.6	22.5	0.00e+00	0	42	0	603979776	49	4382
2026-01-05 02:09:15.62	335.90	62.30	-39.1	-40.8	22.4	0.00e+00	0	42	0	607125504	49	4482
2026-01-05 02:09:17.27	334.69	62.78	-39.2	-40.9	22.2	0.00e+00	0	42	0	616562688	49	4530
2026-01-05 02:09:17.84	334.26	62.95	-39.2	-40.9	22.2	0.00e+00	0	43	0	619708416	49	4516
2026-01-05 02:09:19.56	332.93	63.44	-38.9	-40.6	22.4	0.00e+00	0	42	0	629145600	49	4384
2026-01-05 02:09:20.13	332.48	63.60	-38.8	-40.6	22.5	0.00e+00	0	42	0	632291328	49	4341
2026-01-05 02:09:21.76	331.14	64.05	-38.9	-40.6	22.4	0.00e+00	0	42	0	641728512	49	4383
2026-01-05 02:09:22.33	330.67	64.21	-38.8	-40.5	22.5	0.00e+00	0	42	0	644874240	49	4338
2026-01-05 02:09:23.92	329.30	64.63	-38.5	-40.1	22.8	0.00e+00	0	42	0	654311424	48	4385
2026-01-05 02:09:24.51	328.78	64.79	-38.6	-40.3	22.7	0.00e+00	0	42	0	657457152	48	4446
2026-01-05 02:09:26.08	327.36	65.20	-38.8	-40.5	22.5	0.00e+00	0	42	0	665845760	48	4590
2026-01-05 02:09:26.67	326.81	65.35	-38.7	-40.4	22.6	0.00e+00	0	42	0	668991488	48	4517
2026-01-05 02:09:28.53	325.04	65.81	-38.4	-40.0	22.9	0.00e+00	0	42	0	679477248	48	4340
2026-01-05 02:09:29.10	324.48	65.95	-38.0	-39.7	23.2	0.00e+00	0	42	0	682622976	48	4159
2026-01-05 02:09:31.16	322.40	66.43	-38.0	-39.7	22.8	0.00e+00	0	42	0	694157312	47	4427
2026-01-05 02:09:31.73	321.81	66.56	-38.1	-39.8	22.7	0.00e+00	0	42	0	697303040	47	4475
2026-01-05 02:09:33.45	319.98	66.93	-37.9	-39.6	22.8	0.00e+00	0	42	0	707788800	47	4348
2026-01-05 02:09:34.02	319.36	67.05	-38.0	-39.7	22.8	0.00e+00	0	42	0	710934528	47	4401
2026-01-05 02:09:35.60	317.61	67.37	-37.7	-39.4	23.0	0.00e+00	0	42	0	719323136	47	4249
2026-01-05 02:09:36.21	316.91	67.49	-37.7	-39.4	23.0	0.00e+00	0	43	0	723517440	47	4250
2026-01-05 02:09:37.83	315.04	67.79	-37.8	-39.5	22.9	0.00e+00	0	42	0	731906048	47	4320
2026-01-05 02:09:38.41	314.35	67.89	-37.7	-39.3	23.0	0.00e+00	0	42	0	735051776	47	4235
2026-01-05 02:09:40.03	312.40	68.16	-37.8	-39.5	22.8	0.00e+00	0	42	0	744488960	47	4323
2026-01-05 02:09:40.60	311.70	68.25	-37.8	-39.5	22.9	0.00e+00	0	42	0	747634688	47	4307
2026-01-05 02:09:42.19	309.72	68.48	-38.1	-39.8	22.7	0.00e+00	0	42	0	756023296	47	4442
2026-01-05 02:09:42.77	308.99	68.56	-38.1	-39.8	22.7	0.00e+00	0	42	0	760217600	47	4451
2026-01-05 02:09:44.34	306.98	68.76	-37.9	-39.6	22.8	0.00e+00	0	42	0	768606208	47	4371
2026-01-05 02:09:44.94	306.20	68.83	-37.7	-39.4	22.9	0.00e+00	0	42	0	771751936	47	4276
2026-01-05 02:09:46.52	304.12	69.00	-38.0	-39.7	22.8	0.00e+00	0	42	0	781189120	47	4409
2026-01-05 02:09:47.12	303.32	69.05	-38.0	-39.7	22.8	0.00e+00	0	43	0	784334848	47	4397
2026-01-05 02:09:48.70	301.19	69.18	-38.0	-39.7	22.8	0.00e+00	0	43	0	792723456	47	4433
2026-01-05 02:09:49.30	300.38	69.23	-37.9	-39.6	22.9	0.00e+00	0	43	0	796917760	47	4374
2026-01-05 02:09:50.87	298.24	69.32	-38.0	-39.7	22.8	0.00e+00	0	42	0	805306368	47	4432
2026-01-05 02:09:51.50	297.37	69.35	-38.0	-39.7	22.8	0.00e+00	0	42	0	809500672	47	4404
2026-01-05 02:09:52.95	295.37	69.40	-37.9	-39.6	22.8	0.00e+00	0	42	0	816840704	47	4389
2026-01-05 02:09:53.67	294.37	69.41	-38.0	-39.7	22.7	0.00e+00	0	42	0	821035008	47	4418
2026-01-05 02:09:55.27	292.15	69.43	-38.1	-39.8	22.7	0.00e+00	0	42	0	830472192	47	4469
2026-01-05 02:09:55.85	291.34	69.43	-38.1	-39.9	22.6	0.00e+00	0	42	0	833617920	47	4501
2026-01-05 02:09:57.44	289.14	69.41	-37.9	-39.6	22.8	0.00e+00	0	42	0	842006528	47	4369
2026-01-05 02:09:58.01	288.35	69.39	-38.0	-39.7	22.8	0.00e+00	0	42	0	846200832	47	4395
2026-01-05 02:09:59.60	286.16	69.33	-38.0	-39.7	22.8	0.00e+00	0	42	0	854589440	47	4425
2026-01-05 02:10:00.17	285.37	69.30	-38.1	-39.8	22.8	0.00e+00	0	42	0	857735168	47	4471
2026-01-05 02:10:01.81	283.14	69.20	-37.9	-39.5	22.9	0.00e+00	0	42	0	867172352	47	4334
2026-01-05 02:10:02.38	282.37	69.15	-37.9	-39.5	22.9	0.00e+00	0	43	0	870318080	47	4340
2026-01-05 02:10:03.97	280.24	69.02	-38.2	-39.9	22.6	0.00e+00	0	43	0	878706688	47	4540
2026-01-05 02:10:04.55	279.47	68.96	-38.2	-39.9	22.6	0.00e+00	0	43	0	881852416	47	4529
2026-01-05 02:10:06.14	277.38	68.79	-38.0	-39.7	22.8	0.00e+00	0	43	0	891289600	47	4420
2026-01-05 02:10:06.71	276.64	68.72	-38.1	-39.8	22.6	0.00e+00	0	43	0	894435328	47	4485
2026-01-05 02:10:08.46	274.41	68.49	-38.0	-39.7	22.7	0.00e+00	0	42	0	904921088	47	4420
2026-01-05 02:10:09.04	273.68	68.40	-38.0	-39.7	22.8	0.00e+00	0	42	0	908066816	47	4414
2026-01-05 02:10:10.68	271.66	68.15	-38.3	-40.0	22.6	0.00e+00	0	43	0	916455424	47	4550
2026-01-05 02:10:11.26	270.95	68.06	-38.1	-39.8	22.7	0.00e+00	0	43	0	920649728	47	4480
2026-01-05 02:10:13.13	268.73	67.74	-38.2	-39.9	22.6	0.00e+00	0	43	0	931135488	47	4506
2026-01-05 02:10:13.70	268.06	67.63	-38.1	-39.8	22.7	0.00e+00	0	42	0	934281216	47	4457
2026-01-05 02:10:15.34	266.19	67.32	-38.2	-39.9	22.6	0.00e+00	0	42	0	942669824	47	4531
2026-01-05 02:10:15.91	265.55	67.20	-38.0	-39.7	22.7	0.00e+00	0	43	0	946864128	47	4437
2026-01-05 02:10:17.53	263.78	66.86	-37.9	-39.6	22.9	0.00e+00	0	42	0	955252736	47	4353
2026-01-05 02:10:18.10	263.17	66.74	-38.1	-39.8	22.7	0.00e+00	0	43	0	958398464	47	4451
2026-01-05 02:10:19.95	261.24	66.33	-38.2	-39.8	22.7	0.00e+00	0	43	0	968884224	47	4492
2026-01-05 02:10:20.52	260.66	66.19	-38.3	-39.9	22.6	0.00e+00	0	42	0	972029952	47	4536
2026-01-05 02:10:22.11	259.08	65.81	-38.1	-39.8	22.7	0.00e+00	0	43	0	981467136	47	4445
2026-01-05 02:10:22.68	258.53	65.67	-38.1	-39.8	22.7	0.00e+00	0	43	0	984612864	47	4478
2026-01-05 02:10:24.61	256.71	65.19	-38.4	-40.1	22.5	0.00e+00	0	42	0	995098624	47	4606
2026-01-05 02:10:25.18	256.19	65.04	-38.3	-40.0	22.5	0.00e+00	0	42	0	998244352	47	4569
2026-01-05 02:10:26.79	254.75	64.62	-38.4	-40.1	22.5	0.00e+00	0	42	0	1007681536	47	4610
2026-01-05 02:10:27.37	254.24	64.46	-38.2	-39.9	22.7	0.00e+00	0	42	0	1010827264	47	4516
2026-01-05 02:10:28.95	252.90	64.03	-38.2	-40.0	22.6	0.00e+00	0	42	0	1020264448	47	4552
2026-01-05 02:10:29.57	252.39	63.86	-38.2	-39.9	22.6	0.00e+00	0	42	0	1023410176	47	4544
2026-01-05 02:10:31.14	251.13	63.42	-38.4	-40.1	22.4	0.00e+00	0	43	0	1031798784	47	4645
2026-01-05 02:10:31.76	250.64	63.24	-38.4	-40.1	22.4	0.00e+00	0	43	0	1035993088	47	4641
2026-01-05 02:10:33.41	249.38	62.77	-38.5	-40.2	22.4	0.00e+00	0	43	0	1044381696	47	4695
2026-01-05 02:10:33.98	248.96	62.60	-38.5	-40.2	22.4	0.00e+00	0	43	0	1047527424	47	4689
2026-01-05 02:10:35.56	247.81	62.14	-38.9	-40.6	22.4	0.00e+00	0	42	0	1056964608	48	4647
2026-01-05 02:10:36.14	247.40	61.97	-39.0	-40.7	22.3	0.00e+00	0	43	0	1060110336	48	4682
2026-01-05 02:10:37.73	246.31	61.49	-39.1	-40.8	22.3	0.00e+00	0	42	0	1068498944	48	4756
2026-01-05 02:10:38.59	245.74	61.23	-39.2	-40.9	22.2	0.00e+00	0	42	0	1073741824	49	4523
2026-01-05 02:10:39.73	245.00	60.88	-39.4	-41.1	22.0	0.00e+00	0	43	0	1080033280	49	4642
2026-01-05 02:10:40.59	244.45	60.62	-39.5	-41.3	21.9	0.00e+00	0	42	0	1085276160	49	4712
2026-01-05 02:10:41.74	243.74	60.26	-39.1	-40.9	22.2	0.00e+00	0	43	0	1091567616	49	4495
2026-01-05 02:10:42.60	243.22	60.00	-39.1	-40.7	22.3	0.00e+00	0	42	0	1096810496	49	4439
2026-01-05 02:10:43.74	242.55	59.65	-39.4	-41.1	22.0	0.00e+00	0	42	0	1103101952	49	4650
2026-01-05 02:10:44.60	242.05	59.38	-39.5	-41.2	22.0	0.00e+00	0	42	0	1107296256	49	4688
2026-01-05 02:10:45.75	241.40	59.02	-39.4	-41.1	22.0	0.00e+00	0	43	0	1113587712	49	4636
2026-01-05 02:10:46.60	240.94	58.75	-39.3	-41.0	22.1	0.00e+00	0	42	0	1118830592	49	4572
2026-01-05 02:10:47.92	240.23	58.34	-39.3	-41.0	22.1	0.00e+00	0	43	0	1126170624	49	4561
2026-01-05 02:10:48.64	239.86	58.11	-39.3	-41.1	22.1	0.00e+00	0	42	0	1130364928	49	4602
2026-01-05 02:10:49.93	239.20	57.70	-39.4	-41.1	22.1	0.00e+00	0	42	0	1137704960	49	4619
2026-01-05 02:10:50.64	238.84	57.48	-39.5	-41.2	22.0	0.00e+00	0	43	0	1141899264	49	4675
2026-01-05 02:10:51.93	238.22	57.07	-39.8	-41.5	21.8	0.00e+00	0	42	0	1149239296	50	4581
2026-01-05 02:10:52.64	237.88	56.85	-39.9	-41.6	21.7	0.00e+00	0	43	0	1152385024	50	4646
2026-01-05 02:10:54.28	237.12	56.33	-39.8	-41.5	21.8	0.00e+00	0	42	0	1161822208	50	4568
2026-01-05 02:10:54.86	236.86	56.14	-39.9	-41.6	21.7	0.00e+00	0	42	0	1164967936	50	4629
2026-01-05 02:10:56.43	236.17	55.65	-40.0	-41.8	21.5	0.00e+00	0	42	0	1174405120	50	4729
2026-01-05 02:10:57.01	235.92	55.46	-40.2	-42.0	21.4	0.00e+00	0	43	0	1177550848	51	4550
2026-01-05 02:10:58.60	235.25	54.96	-40.0	-41.8	21.6	0.00e+00	0	43	0	1185939456	51	4443
2026-01-05 02:10:59.17	235.02	54.78	-39.8	-41.6	21.7	0.00e+00	0	42	0	1190133760	51	4344
2026-01-05 02:11:00.76	234.38	54.28	-39.8	-41.5	21.8	0.00e+00	0	42	0	1198522368	51	4312
2026-01-05 02:11:01.33	234.16	54.10	-39.8	-41.5	21.8	0.00e+00	0	42	0	1201668096	51	4324
2026-01-05 02:11:02.92	233.55	53.60	-39.9	-41.7	21.6	0.00e+00	0	42	0	1211105280	51	4416
2026-01-05 02:11:03.49	233.34	53.43	-40.1	-41.9	21.5	0.00e+00	0	42	0	1214251008	51	4508
2026-01-05 02:11:05.07	232.77	52.93	-39.9	-41.6	21.7	0.00e+00	0	42	0	1222639616	51	4369
2026-01-05 02:11:05.69	232.55	52.74	-39.7	-41.4	21.9	0.00e+00	0	42	0	1225785344	51	4276
2026-01-05 02:11:07.57	231.90	52.16	-39.8	-41.5	21.8	0.00e+00	0	42	0	1237319680	51	4328
2026-01-05 02:11:08.14	231.71	51.98	-39.9	-41.6	21.7	0.00e+00	0	42	0	1240465408	51	4387
2026-01-05 02:11:09.74	231.18	51.49	-40.0	-41.7	21.5	0.00e+00	0	42	0	1248854016	51	4433
2026-01-05 02:11:10.34	230.99	51.30	-39.9	-41.7	21.5	0.00e+00	0	43	0	1251999744	51	4410
2026-01-05 02:11:11.91	230.49	50.82	-39.6	-41.3	21.8	0.00e+00	0	42	0	1261436928	51	4215
2026-01-05 02:11:12.54	230.30	50.63	-39.4	-41.1	21.9	0.00e+00	0	42	0	1264582656	50	4380
2026-01-05 02:11:13.97	229.87	50.20	-39.4	-41.1	21.9	0.00e+00	0	43	0	1272971264	50	4388
2026-01-05 02:11:14.69	229.65	49.98	-39.4	-41.1	22.0	0.00e+00	0	42	0	1277165568	50	4366
2026-01-05 02:11:16.26	229.20	49.51	-39.7	-41.4	21.7	0.00e+00	0	43	0	1285554176	50	4526
2026-01-05 02:11:16.87	229.03	49.32	-39.8	-41.6	21.6	0.00e+00	0	43	0	1288699904	50	4601
2026-01-05 02:11:18.63	228.54	48.80	-39.5	-41.2	21.9	0.00e+00	0	43	0	1299185664	50	4415
2026-01-05 02:11:19.21	228.39	48.63	-39.3	-41.1	22.0	0.00e+00	0	42	0	1302331392	50	4359
2026-01-05 02:11:20.78	227.97	48.16	-39.2	-40.9	22.1	0.00e+00	0	43	0	1310720000	50	4285
2026-01-05 02:11:21.39	227.82	47.98	-39.2	-40.9	22.1	0.00e+00	0	42	0	1314914304	50	4275
2026-01-05 02:11:22.96	227.42	47.53	-39.0	-40.7	22.3	0.00e+00	0	43	0	1323302912	49	4417
2026-01-05 02:11:23.54	227.27	47.36	-38.9	-40.6	22.3	0.00e+00	0	43	0	1326448640	49	4369
2026-01-05 02:11:25.12	226.89	46.90	-38.7	-40.4	22.5	0.00e+00	0	42	0	1335885824	49	4262
2026-01-05 02:11:25.70	226.75	46.73	-38.6	-40.2	22.6	0.00e+00	0	43	0	1339031552	49	4181
2026-01-05 02:11:27.49	226.33	46.22	-38.7	-40.4	22.5	0.00e+00	0	42	0	1348468736	49	4250
2026-01-05 02:11:28.07	226.20	46.06	-38.8	-40.5	22.4	0.00e+00	0	43	0	1352663040	49	4328
2026-01-05 02:11:29.68	225.84	45.60	-39.1	-40.9	22.1	0.00e+00	0	42	0	1361051648	49	4508
2026-01-05 02:11:30.26	225.72	45.44	-39.2	-41.0	22.0	0.00e+00	0	42	0	1364197376	49	4560
2026-01-05 02:11:31.86	225.37	44.99	-39.1	-40.8	22.1	0.00e+00	0	42	0	1373634560	49	4493
2026-01-05 02:11:32.43	225.25	44.83	-39.1	-40.8	22.1	0.00e+00	0	42	0	1376780288	49	4487
2026-01-05 02:11:34.05	224.92	44.39	-39.1	-40.8	22.1	0.00e+00	0	42	0	1386217472	49	4467
2026-01-05 02:11:34.62	224.80	44.23	-39.1	-40.8	22.1	0.00e+00	0	42	0	1389363200	49	4474
2026-01-05 02:11:36.29	224.47	43.77	-39.0	-40.7	22.2	0.00e+00	0	42	0	1398800384	49	4423
2026-01-05 02:11:36.86	224.36	43.62	-39.0	-40.7	22.2	0.00e+00	0	43	0	1401946112	49	4433
2026-01-05 02:11:38.50	224.04	43.18	-39.0	-40.8	22.1	0.00e+00	0	43	0	1411383296	49	4459
2026-01-05 02:11:39.07	223.94	43.03	-39.0	-40.8	22.1	0.00e+00	0	42	0	1414529024	49	4443
2026-01-05 02:11:41.01	223.58	42.51	-38.5	-40.2	22.6	0.00e+00	0	43	0	1425014784	49	4177
2026-01-05 02:11:41.59	223.47	42.36	-38.5	-40.2	22.6	0.00e+00	0	42	0	1428160512	49	4158
2026-01-05 02:11:43.19	223.19	41.94	-38.3	-40.0	22.7	0.00e+00	0	42	0	1437597696	48	4313
2026-01-05 02:11:43.76	223.09	41.79	-38.4	-40.1	22.7	0.00e+00	0	43	0	1440743424	48	4347
2026-01-05 02:11:45.38	222.82	41.37	-38.4	-40.1	22.6	0.00e+00	0	42	0	1449132032	48	4358
2026-01-05 02:11:45.95	222.72	41.22	-38.5	-40.2	22.6	0.00e+00	0	42	0	1453326336	48	4426
2026-01-05 02:11:47.61	222.45	40.80	-38.7	-40.4	22.4	0.00e+00	0	42	0	1461714944	48	4500
2026-01-05 02:11:48.34	222.33	40.61	-38.7	-40.4	22.4	0.00e+00	0	43	0	1465909248	48	4523
2026-01-05 02:11:49.62	222.12	40.29	-38.7	-40.4	22.4	0.00e+00	0	43	0	1473249280	48	4528
2026-01-05 02:11:50.54	221.98	40.06	-38.7	-40.4	22.4	0.00e+00	0	42	0	1478492160	48	4515
2026-01-05 02:11:51.55	221.83	39.81	-38.6	-40.4	22.4	0.00e+00	0	43	0	1483735040	48	4505
2026-01-05 02:11:52.55	221.67	39.56	-38.6	-40.4	22.4	0.00e+00	0	43	0	1490026496	48	4498
2026-01-05 02:11:53.55	221.52	39.32	-38.6	-40.4	22.4	0.00e+00	0	43	0	1495269376	48	4498
2026-01-05 02:11:54.55	221.38	39.07	-38.6	-40.3	22.4	0.00e+00	0	43	0	1501560832	48	4474
2026-01-05 02:11:55.56	221.23	38.83	-38.6	-40.3	22.5	0.00e+00	0	43	0	1506803712	48	4464
2026-01-05 02:11:56.56	221.09	38.59	-38.6	-40.3	22.5	0.00e+00	0	43	0	1512046592	48	4445
2026-01-05 02:11:57.56	220.95	38.35	-38.3	-40.0	22.7	0.00e+00	0	42	0	1518338048	48	4309
2026-01-05 02:11:58.57	220.81	38.11	-38.3	-40.0	22.7	0.00e+00	0	43	0	1523580928	48	4297
2026-01-05 02:11:59.57	220.67	37.87	-38.3	-40.0	22.7	0.00e+00	0	43	0	1529872384	48	4324
2026-01-05 02:12:00.57	220.54	37.63	-38.3	-40.1	22.6	0.00e+00	0	43	0	1535115264	48	4349
2026-01-05 02:12:01.58	220.40	37.40	-38.3	-40.0	22.7	0.00e+00	0	43	0	1540358144	48	4335
2026-01-05 02:12:02.58	220.27	37.17	-38.3	-40.0	22.7	0.00e+00	0	43	0	1546649600	48	4323
2026-01-05 02:12:03.58	220.14	36.93	-38.3	-40.0	22.7	0.00e+00	0	43	0	1551892480	48	4314
2026-01-05 02:12:04.59	220.02	36.70	-38.4	-40.0	22.6	0.00e+00	0	42	0	1557135360	48	4333
2026-01-05 02:12:05.59	219.89	36.47	-38.3	-40.0	22.6	0.00e+00	0	43	0	1563426816	48	4332
2026-01-05 02:12:06.59	219.77	36.25	-38.3	-40.0	22.7	0.00e+00	0	43	0	1568669696	48	4296
2026-01-05 02:12:07.96	219.60	35.94	-38.5	-40.2	22.5	0.00e+00	0	43	0	1577058304	48	4399
2026-01-05 02:12:08.71	219.51	35.77	-38.6	-40.3	22.4	0.00e+00	0	43	0	1581252608	48	4459
2026-01-05 02:12:09.99	219.36	35.49	-38.6	-40.3	22.4	0.00e+00	0	43	0	1587544064	48	4488
2026-01-05 02:12:10.71	219.28	35.33	-38.6	-40.3	22.4	0.00e+00	0	42	0	1591738368	48	4484
2026-01-05 02:12:12.00	219.13	35.05	-38.6	-40.3	22.4	0.00e+00	0	43	0	1599078400	48	4465
2026-01-05 02:12:12.72	219.05	34.89	-38.6	-40.4	22.4	0.00e+00	0	42	0	1603272704	48	4499
2026-01-05 02:12:14.00	218.91	34.61	-38.5	-40.2	22.5	0.00e+00	0	43	0	1610612736	48	4414
2026-01-05 02:12:14.71	218.83	34.46	-38.4	-40.1	22.6	0.00e+00	0	43	0	1614807040	48	4389
2026-01-05 02:12:16.00	218.69	34.18	-38.5	-40.2	22.5	0.00e+00	0	43	0	1622147072	48	4414
2026-01-05 02:12:16.72	218.61	34.03	-38.6	-40.3	22.5	0.00e+00	0	42	0	1626341376	48	4449
2026-01-05 02:12:18.15	218.46	33.73	-38.6	-40.3	22.4	0.00e+00	0	43	0	1633681408	48	4493
2026-01-05 02:12:18.87	218.39	33.58	-38.6	-40.3	22.4	0.00e+00	0	43	0	1637875712	48	4483
2026-01-05 02:12:20.16	218.25	33.31	-38.7	-40.4	22.4	0.00e+00	0	42	0	1645215744	48	4545
2026-01-05 02:12:20.87	218.18	33.16	-38.7	-40.4	22.3	0.00e+00	0	43	0	1649410048	48	4544
2026-01-05 02:12:22.16	218.05	32.90	-38.6	-40.4	22.4	0.00e+00	0	42	0	1656750080	48	4495
2026-01-05 02:12:22.88	217.98	32.75	-38.6	-40.4	22.4	0.00e+00	0	43	0	1660944384	48	4501
2026-01-05 02:12:24.17	217.86	32.49	-38.6	-40.3	22.4	0.00e+00	0	43	0	1668284416	48	4467
2026-01-05 02:12:24.88	217.79	32.35	-38.6	-40.3	22.4	0.00e+00	0	43	0	1671430144	48	4449
2026-01-05 02:12:26.17	217.67	32.09	-38.8	-40.5	22.3	0.00e+00	0	43	0	1678770176	48	4557
2026-01-05 02:12:26.89	217.60	31.94	-38.7	-40.4	22.3	0.00e+00	0	42	0	1682964480	48	4516
2026-01-05 02:12:28.17	217.48	31.69	-38.7	-40.4	22.4	0.00e+00	0	43	0	1690304512	48	4522
2026-01-05 02:12:28.89	217.41	31.55	-38.7	-40.4	22.4	0.00e+00	0	43	0	1694498816	48	4506
2026-01-05 02:12:30.18	217.30	31.30	-38.7	-40.4	22.3	0.00e+00	0	42	0	1701838848	48	4543
2026-01-05 02:12:30.90	217.23	31.16	-38.7	-40.4	22.3	0.00e+00	0	43	0	1704984576	48	4522
2026-01-05 02:12:32.19	217.12	30.91	-38.7	-40.4	22.3	0.00e+00	0	43	0	1712324608	48	4529
2026-01-05 02:12:33.19	217.03	30.72	-38.7	-40.4	22.3	0.00e+00	0	42	0	1718616064	48	4536
2026-01-05 02:12:34.19	216.95	30.52	-38.7	-40.4	22.3	0.00e+00	0	43	0	1723858944	48	4533
2026-01-05 02:12:35.19	216.86	30.34	-38.8	-40.5	22.3	0.00e+00	0	42	0	1730150400	48	4556
2026-01-05 02:12:36.20	216.78	30.15	-38.8	-40.5	22.2	0.00e+00	0	42	0	1735393280	48	4578
2026-01-05 02:12:37.20	216.70	29.96	-38.9	-40.6	22.2	0.00e+00	0	42	0	1740636160	48	4619
2026-01-05 02:12:38.20	216.61	29.77	-39.0	-40.7	22.1	0.00e+00	0	42	0	1746927616	48	4700
2026-01-05 02:12:39.20	216.53	29.59	-39.1	-40.9	22.0	0.00e+00	0	43	0	1752170496	48	4772
2026-01-05 02:12:40.25	216.45	29.40	-39.1	-40.8	22.0	0.00e+00	0	43	0	1758461952	48	4753
2026-01-05 02:12:41.19	216.37	29.22	-39.1	-40.9	21.9	0.00e+00	0	43	0	1763704832	48	4787
2026-01-05 02:12:42.20	216.30	29.04	-39.3	-41.1	21.8	0.00e+00	0	42	0	1768947712	49	4602
2026-01-05 02:12:43.36	216.21	28.83	-39.2	-41.0	21.8	0.00e+00	0	42	0	1776287744	49	4575
2026-01-05 02:12:44.25	216.14	28.67	-39.2	-41.0	21.8	0.00e+00	0	43	0	1780482048	49	4577
2026-01-05 02:12:45.39	216.05	28.47	-39.2	-41.0	21.8	0.00e+00	0	42	0	1786773504	49	4581
2026-01-05 02:12:46.31	215.98	28.31	-39.3	-41.0	21.8	0.00e+00	0	43	0	1792016384	49	4592
2026-01-05 02:12:47.49	215.90	28.10	-39.4	-41.1	21.7	0.00e+00	0	42	0	1799356416	49	4646
2026-01-05 02:12:48.35	215.84	27.95	-39.3	-41.0	21.8	0.00e+00	0	43	0	1803550720	49	4577
2026-01-05 02:12:49.71	215.74	27.71	-39.1	-40.9	21.9	0.00e+00	0	43	0	1811939328	49	4504
2026-01-05 02:12:50.42	215.69	27.59	-39.1	-40.8	21.9	0.00e+00	0	43	0	1815085056	49	4471
2026-01-05 02:12:51.71	215.60	27.37	-39.1	-40.8	21.9	0.00e+00	0	43	0	1822425088	49	4479
2026-01-05 02:12:52.43	215.55	27.25	-39.0	-40.7	22.0	0.00e+00	0	43	0	1826619392	49	4434
2026-01-05 02:12:53.72	215.46	27.03	-39.1	-40.8	22.0	0.00e+00	0	42	0	1833959424	49	4473
2026-01-05 02:12:54.44	215.41	26.91	-39.0	-40.8	22.0	0.00e+00	0	43	0	1838153728	49	4454
2026-01-05 02:12:55.72	215.32	26.69	-39.2	-40.9	21.9	0.00e+00	0	43	0	1845493760	49	4519
2026-01-05 02:12:56.44	215.28	26.57	-39.1	-40.8	21.9	0.00e+00	0	43	0	1849688064	49	4489
2026-01-05 02:12:57.73	215.19	26.36	-39.1	-40.8	22.0	0.00e+00	0	43	0	1855979520	49	4462
2026-01-05 02:12:58.44	215.15	26.24	-39.1	-40.9	21.9	0.00e+00	0	42	0	1860173824	49	4509
2026-01-05 02:12:59.73	215.06	26.03	-39.1	-40.8	21.9	0.00e+00	0	43	0	1867513856	49	4492
2026-01-05 02:13:00.45	215.02	25.91	-39.2	-40.9	21.9	0.00e+00	0	42	0	1871708160	49	4525
2026-01-05 02:13:01.74	214.94	25.71	-39.2	-41.0	21.8	0.00e+00	0	43	0	1879048192	49	4557
2026-01-05 02:13:02.72	214.88	25.55	-39.3	-41.0	21.8	0.00e+00	0	43	0	1884291072	49	4586
2026-01-05 02:13:03.73	214.81	25.39	-39.3	-41.1	21.7	0.00e+00	0	43	0	1890582528	49	4616
2026-01-05 02:13:04.73	214.75	25.23	-39.3	-41.1	21.8	0.00e+00	0	43	0	1895825408	49	4609
2026-01-05 02:13:05.73	214.69	25.07	-39.3	-41.1	21.7	0.00e+00	0	42	0	1901068288	49	4610
2026-01-05 02:13:06.74	214.63	24.91	-39.4	-41.2	21.6	0.00e+00	0	43	0	1907359744	49	4673
2026-01-05 02:13:07.74	214.57	24.76	-39.4	-41.2	21.6	0.00e+00	0	43	0	1912602624	49	4669
2026-01-05 02:13:08.74	214.51	24.60	-39.5	-41.2	21.6	0.00e+00	0	43	0	1917845504	49	4688
2026-01-05 02:13:09.74	214.46	24.45	-39.3	-41.1	21.7	0.00e+00	0	43	0	1924136960	49	4606
2026-01-05 02:13:10.74	214.40	24.29	-39.4	-41.1	21.7	0.00e+00	0	43	0	1929379840	49	4645
2026-01-05 02:13:11.86	214.34	24.12	-39.5	-41.2	21.6	0.00e+00	0	42	0	1935671296	49	4692
2026-01-05 02:13:12.75	214.29	23.99	-39.4	-41.1	21.7	0.00e+00	0	43	0	1940914176	49	4637
2026-01-05 02:13:13.89	214.22	23.82	-39.4	-41.2	21.7	0.00e+00	0	43	0	1947205632	49	4656
2026-01-05 02:13:14.81	214.17	23.68	-39.5	-41.2	21.7	0.00e+00	0	42	0	1952448512	49	4680
2026-01-05 02:13:15.81	214.12	23.53	-39.5	-41.3	21.6	0.00e+00	0	43	0	1958739968	49	4731
2026-01-05 02:13:16.81	214.07	23.38	-39.7	-41.4	21.5	0.00e+00	0	43	0	1963982848	49	4796
2026-01-05 02:13:17.82	214.01	23.23	-39.6	-41.3	21.6	0.00e+00	0	43	0	1969225728	49	4755
2026-01-05 02:13:18.82	213.96	23.09	-39.7	-41.5	21.5	0.00e+00	0	43	0	1975517184	50	4548
2026-01-05 02:13:19.82	213.91	22.94	-39.8	-41.6	21.4	0.00e+00	0	42	0	1980760064	50	4630
2026-01-05 02:13:20.83	213.85	22.79	-39.8	-41.6	21.3	0.00e+00	0	43	0	1986002944	50	4641
2026-01-05 02:13:21.83	213.80	22.65	-39.8	-41.6	21.4	0.00e+00	0	43	0	1992294400	50	4629
2026-01-05 02:13:22.86	213.75	22.50	-39.9	-41.7	21.3	0.00e+00	0	43	0	1997537280	50	4672
2026-01-05 02:13:23.89	213.70	22.36	-39.9	-41.8	21.3	0.00e+00	0	43	0	2003828736	50	4706
2026-01-05 02:13:24.89	213.65	22.21	-39.9	-41.7	21.3	0.00e+00	0	42	0	2009071616	50	4679
2026-01-05 02:13:25.96	213.60	22.06	-39.9	-41.7	21.3	0.00e+00	0	43	0	2015363072	50	4699
2026-01-05 02:13:26.85	213.55	21.94	-39.8	-41.6	21.3	0.00e+00	0	43	0	2020605952	50	4639
2026-01-05 02:13:27.99	213.50	21.78	-39.8	-41.7	21.3	0.00e+00	0	43	0	2026897408	50	4656
2026-01-05 02:13:28.85	213.46	21.66	-39.9	-41.7	21.3	0.00e+00	0	43	0	2032140288	50	4698
2026-01-05 02:13:29.99	213.40	21.50	-39.8	-41.6	21.4	0.00e+00	0	43	0	2037383168	50	4606
2026-01-05 02:13:30.85	213.36	21.38	-39.8	-41.6	21.4	0.00e+00	0	43	0	2042626048	50	4599
2026-01-05 02:13:32.00	213.31	21.23	-39.7	-41.5	21.4	0.00e+00	0	43	0	2048917504	50	4585
2026-01-05 02:13:32.86	213.27	21.11	-39.7	-41.5	21.4	0.00e+00	0	43	0	2054160384	50	4576
2026-01-05 02:13:34.00	213.22	20.96	-39.7	-41.5	21.4	0.00e+00	0	43	0	2060451840	50	4573
2026-01-05 02:13:34.86	213.18	20.84	-39.7	-41.4	21.5	0.00e+00	0	42	0	2065694720	50	4526
2026-01-05 02:13:36.01	213.13	20.69	-39.8	-41.6	21.4	0.00e+00	0	43	0	2071986176	50	4611
2026-01-05 02:13:36.86	213.09	20.57	-39.7	-41.5	21.5	0.00e+00	0	43	0	2077229056	50	4557
2026-01-05 02:13:38.06	213.04	20.41	-39.7	-41.5	21.5	0.00e+00	0	43	0	2083520512	50	4554
2026-01-05 02:13:38.92	213.00	20.30	-39.8	-41.5	21.4	0.00e+00	0	43	0	2087714816	50	4574
2026-01-05 02:13:40.06	212.95	20.15	-39.9	-41.7	21.3	0.00e+00	0	43	0	2095054848	50	4652
2026-01-05 02:13:40.92	212.91	20.04	-39.9	-41.6	21.3	0.00e+00	0	43	0	2099249152	50	4651
2026-01-05 02:13:42.07	212.87	19.89	-40.0	-41.7	21.3	0.00e+00	0	43	0	2105540608	50	4687
2026-01-05 02:13:42.93	212.83	19.78	-40.0	-41.7	21.3	0.00e+00	0	43	0	2110783488	50	4692
2026-01-05 02:13:44.07	212.78	19.63	-40.1	-41.8	21.2	0.00e+00	0	42	0	2117074944	50	4742
2026-01-05 02:13:45.11	212.74	19.50	-40.2	-41.9	21.1	0.00e+00	0	43	0	2123366400	50	4814
2026-01-05 02:13:46.30	212.69	19.35	-40.2	-42.0	21.1	0.00e+00	0	43	0	2129657856	50	4827
2026-01-05 02:13:47.16	212.66	19.24	-40.3	-42.1	21.0	0.00e+00	0	43	0	2134900736	51	4610
2026-01-05 02:13:48.50	212.60	19.07	-40.4	-42.2	20.9	0.00e+00	0	43	0	2142240768	51	4692
2026-01-05 02:13:49.21	212.57	18.98	-40.4	-42.2	20.9	0.00e+00	0	43	0	2146435072	51	4672
2026-01-05 02:13:50.74	212.51	18.79	-40.5	-42.4	20.7	0.00e+00	0	43	0	2154823680	51	4769
2026-01-05 02:13:51.46	212.49	18.70	-40.5	-42.3	20.7	0.00e+00	0	43	0	2159017984	51	4753
2026-01-05 02:13:52.75	212.44	18.55	-40.5	-42.4	20.7	0.00e+00	0	43	0	2166358016	51	4774
2026-01-05 02:13:53.46	212.41	18.46	-40.6	-42.4	20.7	0.00e+00	0	43	0	2170552320	51	4777
2026-01-05 02:13:54.75	212.36	18.30	-40.6	-42.4	20.6	0.00e+00	0	43	0	2177892352	52	4527
2026-01-05 02:13:55.47	212.33	18.21	-40.6	-42.5	20.6	0.00e+00	0	43	0	2181038080	52	4566
2026-01-05 02:13:56.76	212.28	18.06	-40.7	-42.6	20.5	0.00e+00	0	43	0	2188378112	52	4610
2026-01-05 02:13:57.47	212.26	17.97	-40.8	-42.6	20.4	0.00e+00	0	43	0	2192572416	52	4640
2026-01-05 02:13:58.76	212.21	17.82	-40.6	-42.5	20.6	0.00e+00	0	43	0	2199912448	52	4561
2026-01-05 02:13:59.47	212.18	17.73	-40.6	-42.5	20.5	0.00e+00	0	43	0	2204106752	52	4565
2026-01-05 02:14:00.76	212.14	17.58	-40.7	-42.6	20.5	0.00e+00	0	43	0	2211446784	52	4602
2026-01-05 02:14:01.48	212.11	17.50	-40.7	-42.6	20.5	0.00e+00	0	43	0	2214592512	52	4614
2026-01-05 02:14:02.77	212.07	17.35	-40.7	-42.6	20.5	0.00e+00	0	43	0	2221932544	52	4613
2026-01-05 02:14:03.49	212.04	17.26	-40.7	-42.6	20.5	0.00e+00	0	43	0	2226126848	52	4614
2026-01-05 02:14:04.79	212.00	17.11	-40.8	-42.6	20.4	0.00e+00	0	43	0	2233466880	52	4651
2026-01-05 02:14:05.51	211.97	17.03	-40.8	-42.6	20.4	0.00e+00	0	43	0	2237661184	52	4641
2026-01-05 02:14:06.86	211.92	16.87	-40.9	-42.8	20.3	0.00e+00	0	43	0	2245001216	52	4717
2026-01-05 02:14:07.58	211.90	16.79	-40.9	-42.7	20.3	0.00e+00	0	43	0	2249195520	52	4700
2026-01-05 02:14:08.87	211.86	16.64	-41.0	-42.8	20.3	0.00e+00	0	43	0	2256535552	52	4730
2026-01-05 02:14:09.58	211.83	16.56	-41.0	-42.8	20.3	0.00e+00	0	43	0	2260729856	52	4735
2026-01-05 02:14:10.87	211.79	16.42	-41.0	-42.8	20.2	0.00e+00	0	43	0	2268069888	52	4750
2026-01-05 02:14:11.59	211.77	16.34	-40.9	-42.8	20.3	0.00e+00	0	43	0	2272264192	52	4715
2026-01-05 02:14:12.88	211.72	16.19	-40.9	-42.8	20.3	0.00e+00	0	43	0	2279604224	52	4728
2026-01-05 02:14:13.59	211.70	16.11	-41.1	-42.9	20.1	0.00e+00	0	43	0	2282749952	52	4809
2026-01-05 02:14:14.89	211.66	15.97	-40.9	-42.8	20.3	0.00e+00	0	43	0	2290089984	53	4460
2026-01-05 02:14:15.60	211.64	15.89	-41.1	-42.9	20.2	0.00e+00	0	43	0	2294284288	53	4528
2026-01-05 02:14:16.89	211.60	15.75	-41.2	-43.1	20.0	0.00e+00	0	43	0	2301624320	53	4619
2026-01-05 02:14:17.61	211.57	15.67	-41.2	-43.0	20.1	0.00e+00	0	43	0	2305818624	53	4580
2026-01-05 02:14:18.90	211.53	15.53	-41.1	-43.0	20.1	0.00e+00	0	43	0	2313158656	53	4573
2026-01-05 02:14:19.61	211.51	15.45	-41.3	-43.2	20.0	0.00e+00	0	43	0	2317352960	53	4656
2026-01-05 02:14:20.90	211.47	15.31	-41.3	-43.2	19.9	0.00e+00	0	43	0	2324692992	53	4698
2026-01-05 02:14:21.62	211.45	15.23	-41.3	-43.2	19.9	0.00e+00	0	43	0	2328887296	53	4675
2026-01-05 02:14:22.90	211.41	15.10	-41.3	-43.2	19.9	0.00e+00	0	43	0	2336227328	53	4674
2026-01-05 02:14:23.62	211.39	15.02	-41.4	-43.3	19.8	0.00e+00	0	43	0	2339373056	53	4728
2026-01-05 02:14:24.91	211.35	14.88	-41.6	-43.5	19.7	0.00e+00	0	43	0	2346713088	53	4839
2026-01-05 02:14:25.62	211.33	14.81	-41.5	-43.4	19.7	0.00e+00	0	43	0	2350907392	53	4784
2026-01-05 02:14:26.91	211.29	14.67	-41.4	-43.3	19.8	0.00e+00	0	43	0	2358247424	53	4732
2026-01-05 02:14:27.68	211.27	14.59	-41.4	-43.3	19.8	0.00e+00	0	43	0	2362441728	53	4758
2026-01-05 02:14:29.28	211.22	14.42	-41.5	-43.4	19.7	0.00e+00	0	43	0	2371878912	53	4784
2026-01-05 02:14:29.86	211.21	14.36	-41.5	-43.4	19.7	0.00e+00	0	43	0	2375024640	53	4789
2026-01-05 02:14:31.45	211.16	14.20	-41.6	-43.5	19.6	0.00e+00	0	43	0	2383413248	53	4861
2026-01-05 02:14:32.02	211.15	14.14	-41.6	-43.5	19.6	0.00e+00	0	43	0	2386558976	54	4573
2026-01-05 02:14:33.62	211.10	13.98	-41.7	-43.6	19.5	0.00e+00	0	43	0	2395996160	54	4631
2026-01-05 02:14:34.22	211.09	13.92	-41.6	-43.6	19.6	0.00e+00	0	43	0	2399141888	54	4604
2026-01-05 02:14:35.80	211.04	13.76	-41.6	-43.5	19.6	0.00e+00	0	43	0	2408579072	54	4556
2026-01-05 02:14:36.39	211.03	13.70	-41.7	-43.6	19.5	0.00e+00	0	43	0	2411724800	54	4639
2026-01-05 02:14:37.97	210.98	13.54	-41.8	-43.7	19.4	0.00e+00	0	43	0	2420113408	54	4704
2026-01-05 02:14:38.58	210.97	13.48	-41.7	-43.6	19.5	0.00e+00	0	43	0	2423259136	54	4626
2026-01-05 02:14:40.16	210.93	13.32	-41.7	-43.6	19.5	0.00e+00	0	43	0	2432696320	54	4626
2026-01-05 02:14:40.78	210.91	13.26	-41.7	-43.6	19.4	0.00e+00	0	43	0	2435842048	54	4650
2026-01-05 02:14:42.54	210.86	13.08	-41.9	-43.9	19.3	0.00e+00	0	43	0	2446327808	54	4765
2026-01-05 02:14:43.12	210.85	13.03	-41.8	-43.8	19.4	0.00e+00	0	43	0	2449473536	54	4706
2026-01-05 02:14:45.09	210.80	12.83	-42.0	-43.9	19.2	0.00e+00	0	43	0	2459959296	54	4798
2026-01-05 02:14:45.67	210.78	12.78	-41.9	-43.8	19.3	0.00e+00	0	43	0	2464153600	54	4739
2026-01-05 02:14:47.27	210.74	12.62	-41.8	-43.8	19.3	0.00e+00	0	43	0	2472542208	54	4714
2026-01-05 02:14:47.85	210.73	12.57	-41.9	-43.8	19.3	0.00e+00	0	43	0	2475687936	54	4730
2026-01-05 02:14:49.44	210.69	12.41	-41.9	-43.9	19.2	0.00e+00	0	43	0	2485125120	54	4777
2026-01-05 02:14:50.03	210.68	12.36	-42.0	-43.9	19.2	0.00e+00	0	43	0	2488270848	54	4804
2026-01-05 02:14:51.60	210.64	12.21	-42.1	-44.0	19.1	0.00e+00	0	43	0	2496659456	54	4847
2026-01-05 02:14:52.22	210.62	12.15	-42.1	-44.0	19.1	0.00e+00	0	43	0	2500853760	54	4850
2026-01-05 02:14:53.98	210.58	11.98	-42.2	-44.2	18.9	0.00e+00	0	43	0	2510290944	55	4684
2026-01-05 02:14:54.56	210.57	11.93	-42.2	-44.2	18.9	0.00e+00	0	43	0	2513436672	55	4684
2026-01-05 02:14:56.16	210.53	11.78	-42.2	-44.1	19.0	0.00e+00	0	43	0	2522873856	55	4636
2026-01-05 02:14:56.73	210.52	11.72	-42.2	-44.2	18.9	0.00e+00	0	43	0	2526019584	55	4652
2026-01-05 02:14:58.32	210.48	11.58	-42.3	-44.2	18.9	0.00e+00	0	42	0	2534408192	55	4696
2026-01-05 02:14:58.90	210.47	11.52	-42.1	-44.1	19.0	0.00e+00	0	43	0	2537553920	55	4610
2026-01-05 02:15:00.47	210.43	11.38	-42.3	-44.3	18.8	0.00e+00	0	43	0	2546991104	55	4731
2026-01-05 02:15:01.08	210.42	11.32	-42.2	-44.1	18.9	0.00e+00	0	43	0	2550136832	55	4650
2026-01-05 02:15:02.65	210.38	11.18	-42.3	-44.3	18.8	0.00e+00	0	43	0	2558525440	55	4715
2026-01-05 02:15:03.38	210.36	11.11	-42.2	-44.1	18.9	0.00e+00	0	43	0	2563768320	55	4647
2026-01-05 02:15:04.67	210.34	11.00	-42.1	-44.1	19.0	0.00e+00	0	43	0	2570059776	55	4620
2026-01-05 02:15:05.58	210.32	10.91	-42.2	-44.1	18.9	0.00e+00	0	43	0	2575302656	55	4643
2026-01-05 02:15:06.58	210.29	10.82	-42.3	-44.2	18.8	0.00e+00	0	43	0	2581594112	55	4701
2026-01-05 02:15:07.58	210.27	10.73	-42.3	-44.3	18.8	0.00e+00	0	43	0	2586836992	55	4716
2026-01-05 02:15:08.59	210.25	10.64	-42.2	-44.2	18.9	0.00e+00	0	43	0	2592079872	55	4658
2026-01-05 02:15:09.59	210.23	10.55	-42.3	-44.3	18.8	0.00e+00	0	43	0	2598371328	55	4714
2026-01-05 02:15:10.60	210.21	10.47	-42.4	-44.3	18.7	0.00e+00	0	43	0	2603614208	55	4754
2026-01-05 02:15:11.60	210.19	10.38	-42.3	-44.3	18.7	0.00e+00	0	43	0	2608857088	55	4729
2026-01-05 02:15:12.60	210.16	10.29	-42.5	-44.5	18.6	0.00e+00	0	43	0	2615148544	55	4824
2026-01-05 02:15:13.60	210.14	10.20	-42.6	-44.6	18.5	0.00e+00	0	43	0	2620391424	55	4890
2026-01-05 02:15:14.69	210.12	10.11	-42.4	-44.4	18.7	0.00e+00	0	43	0	2626682880	55	4791
2026-01-05 02:15:15.58	210.10	10.03	-42.3	-44.3	18.8	0.00e+00	0	43	0	2631925760	55	4722
2026-01-05 02:15:16.63	210.08	9.94	-42.4	-44.5	18.6	0.00e+00	0	42	0	2638217216	55	4815
2026-01-05 02:15:17.65	210.06	9.85	-42.5	-44.6	18.5	0.00e+00	0	43	0	2643460096	55	4877
2026-01-05 02:15:18.81	210.04	9.75	-42.5	-44.5	18.5	0.00e+00	0	43	0	2649751552	55	4868
2026-01-05 02:15:19.73	210.02	9.67	-42.6	-44.6	18.4	0.00e+00	0	43	0	2654994432	55	4922
2026-01-05 02:15:20.91	210.00	9.57	-42.5	-44.6	18.5	0.00e+00	0	43	0	2662334464	55	4875
2026-01-05 02:15:21.81	209.98	9.49	-42.9	-44.9	18.3	0.00e+00	0	43	0	2666528768	56	4790
2026-01-05 02:15:23.02	209.95	9.39	-42.9	-45.0	18.2	0.00e+00	0	43	0	2673868800	56	4837
2026-01-05 02:15:23.88	209.94	9.32	-42.8	-44.8	18.4	0.00e+00	0	43	0	2678063104	56	4720
2026-01-05 02:15:25.02	209.92	9.22	-43.0	-45.0	18.2	0.00e+00	0	43	0	2685403136	56	4852
2026-01-05 02:15:25.88	209.90	9.15	-43.1	-45.1	18.1	0.00e+00	0	43	0	2689597440	56	4901
2026-01-05 02:15:27.03	209.88	9.05	-43.2	-45.2	18.0	0.00e+00	0	43	0	2695888896	57	4696
2026-01-05 02:15:27.89	209.86	8.98	-52.4	-64.1	3.8	1.89e-02	0	43	0	2701131776	75	14698
2026-01-05 02:15:29.04	209.84	8.88	-52.5	-64.8	3.8	8.46e-01	0	43	104	2701131776	75	15849
2026-01-05 02:15:29.90	209.82	8.81	-53.0	-65.2	3.8	8.46e-01	0	43	104	2701131776	76	15650
2026-01-05 02:15:31.04	209.80	8.72	-53.0	-65.3	3.8	8.47e-01	0	43	104	2701131776	76	15876
2026-01-05 02:15:31.90	209.79	8.65	-53.1	-65.3	3.8	8.47e-01	0	43	104	2701131776	76	15923
2026-01-05 02:15:33.05	209.76	8.55	-53.3	-65.4	3.8	8.46e-01	0	43	104	2701131776	77	15156
2026-01-05 02:15:33.91	209.75	8.48	-53.2	-65.4	3.8	8.46e-01	0	43	104	2701131776	77	15220
2026-01-05 02:15:35.06	209.73	8.39	-53.1	-65.5	3.8	8.46e-01	0	43	104	2701131776	77	15266
2026-01-05 02:15:35.92	209.71	8.32	-53.1	-65.5	3.8	8.47e-01	0	43	104	2701131776	77	15316
2026-01-05 02:15:37.07	209.69	8.22	-53.4	-65.5	3.8	8.48e-01	0	43	104	2701131776	77	15375
2026-01-05 02:15:37.93	209.68	8.15	-53.3	-65.5	3.8	8.47e-01	0	43	104	2701131776	77	15391
