passes_logs/2026/01/05/T1/T1__20260105_005546_AQUA_rec.log

#Pass ID: 20260105_005546_AQUA
#Satellite: AQUA
#Configuration: AQUA
#almurnet v.1.7.20251203
#Start time: 2026-01-05 00:55:46

#Version: 2.0.20230620
#Station: T1
#Location: 37.570604 lon 55.790049 lat
#TLE: 1 27424U 02022A   26003.93831470  .00001925  00000+0  39553-3 0  9995
#TLE: 2 27424  98.4067 330.1809 0002003  92.1713 343.8415 14.61796291259276

#Time	Az	El	Level	Level2	SNR	BER	BlckErr	Temp	State	Recorded	gain1	gain2
2026-01-05 00:55:46.72	19.70	5.00	-49.9	-74.3	3.8	7.47e-01	0	36	0	0	71	59458
2026-01-05 00:55:47.71	19.73	5.08	-49.8	-74.4	3.8	7.48e-01	0	36	104	0	70	63799
2026-01-05 00:55:48.72	19.76	5.15	-49.9	-74.4	3.8	7.46e-01	0	36	104	0	70	63684
2026-01-05 00:55:49.72	19.79	5.23	-49.8	-74.4	3.8	7.45e-01	0	36	104	0	70	63721
2026-01-05 00:55:50.72	19.83	5.30	-49.8	-74.3	3.8	7.44e-01	0	36	104	0	70	63219
2026-01-05 00:55:51.73	19.86	5.37	-49.8	-74.3	3.8	7.44e-01	0	36	104	0	70	62938
2026-01-05 00:55:52.73	19.89	5.45	-49.9	-74.1	3.8	7.43e-01	0	36	104	0	70	61979
2026-01-05 00:55:53.74	19.93	5.52	-49.8	-74.0	3.8	7.45e-01	0	37	104	0	70	60836
2026-01-05 00:55:54.74	19.96	5.60	-49.8	-73.8	3.8	7.48e-01	0	36	104	0	70	59915
2026-01-05 00:55:55.75	19.99	5.67	-49.8	-73.7	3.8	7.42e-01	0	36	104	0	70	58654
2026-01-05 00:55:56.75	20.03	5.75	-49.8	-73.6	3.8	7.47e-01	0	36	104	0	70	58201
2026-01-05 00:55:57.75	20.06	5.83	-49.8	-73.5	3.8	7.47e-01	0	37	104	0	70	57607
2026-01-05 00:55:58.76	20.09	5.90	-49.8	-73.5	3.8	7.47e-01	0	37	104	0	70	57650
2026-01-05 00:55:59.76	20.13	5.98	-49.8	-73.5	3.8	7.48e-01	0	37	104	0	70	57766
2026-01-05 00:56:00.77	20.16	6.06	-49.8	-73.7	3.8	7.46e-01	0	37	104	0	70	58731
2026-01-05 00:56:01.77	20.20	6.13	-49.8	-73.7	3.8	7.45e-01	0	37	104	0	70	59089
2026-01-05 00:56:02.77	20.23	6.21	-49.8	-73.8	3.8	7.49e-01	0	37	104	0	70	59636
2026-01-05 00:56:03.78	20.27	6.29	-49.8	-73.8	3.8	7.45e-01	0	37	104	0	70	59432
2026-01-05 00:56:04.78	20.30	6.36	-49.8	-73.7	3.8	7.42e-01	0	37	104	0	70	58615
2026-01-05 00:56:05.79	20.34	6.44	-49.8	-73.5	3.8	7.47e-01	0	37	104	0	70	57545
2026-01-05 00:56:06.79	20.37	6.52	-49.8	-73.4	3.8	7.48e-01	0	37	104	0	70	56768
2026-01-05 00:56:07.79	20.41	6.60	-49.8	-73.4	3.8	7.46e-01	0	37	104	0	70	56911
2026-01-05 00:56:08.80	20.44	6.68	-49.8	-73.5	3.8	7.45e-01	0	37	104	0	70	57574
2026-01-05 00:56:09.80	20.48	6.76	-49.8	-73.7	3.8	7.44e-01	0	37	104	0	70	59090
2026-01-05 00:56:10.81	20.52	6.84	-49.8	-74.1	3.8	7.51e-01	0	37	104	0	70	61505
2026-01-05 00:56:11.81	20.55	6.92	-49.8	-74.3	3.8	7.49e-01	0	37	104	0	70	63059
2026-01-05 00:56:12.82	20.59	7.00	-49.8	-74.2	3.8	7.43e-01	0	37	104	0	70	62727
2026-01-05 00:56:13.82	20.63	7.08	-49.8	-73.7	3.8	7.45e-01	0	37	104	0	70	58967
2026-01-05 00:56:14.83	20.66	7.16	-49.8	-72.7	3.8	7.45e-01	0	37	104	0	70	52522
2026-01-05 00:56:15.83	20.70	7.24	-49.8	-71.4	4.1	7.36e-01	0	37	104	0	70	44983
2026-01-05 00:56:16.83	20.74	7.32	-49.8	-70.6	3.9	7.39e-01	0	37	104	0	70	41309
2026-01-05 00:56:17.84	20.78	7.40	-49.8	-69.2	4.8	7.17e-01	0	37	0	0	70	34935
2026-01-05 00:56:18.84	20.81	7.48	-49.8	-68.6	5.1	7.08e-01	0	37	0	0	70	32629
2026-01-05 00:56:19.85	20.85	7.56	-49.8	-68.2	5.4	6.99e-01	0	38	0	524288	70	31345
2026-01-05 00:56:20.85	20.89	7.64	-49.8	-68.0	5.5	6.98e-01	0	37	0	1048576	70	30616
2026-01-05 00:56:21.86	20.93	7.73	-49.8	-68.2	5.4	7.04e-01	0	38	0	1572864	70	31314
2026-01-05 00:56:22.86	20.97	7.81	-49.7	-68.3	5.3	7.01e-01	0	37	0	1572864	70	31761
2026-01-05 00:56:23.87	21.01	7.89	-49.8	-68.7	5.1	7.12e-01	0	38	0	1572864	70	33150
2026-01-05 00:56:24.87	21.04	7.98	-49.8	-69.1	4.9	7.18e-01	0	38	0	1572864	70	34689
2026-01-05 00:56:25.88	21.08	8.06	-49.8	-69.4	4.0	7.32e-01	0	38	104	1572864	70	36044
2026-01-05 00:56:26.88	21.12	8.14	-49.7	-68.9	5.0	7.14e-01	0	37	0	1572864	70	33830
2026-01-05 00:56:27.88	21.16	8.23	-49.7	-68.6	5.1	7.09e-01	0	38	0	1572864	70	32573
2026-01-05 00:56:28.89	21.20	8.31	-49.7	-68.2	5.4	6.98e-01	0	38	0	1572864	70	31328
2026-01-05 00:56:29.89	21.24	8.40	-49.7	-67.7	5.7	6.91e-01	0	37	0	2621440	70	29556
2026-01-05 00:56:30.90	21.28	8.48	-49.7	-67.4	5.9	6.84e-01	0	38	0	3670016	70	28445
2026-01-05 00:56:31.90	21.32	8.57	-49.7	-66.8	6.4	6.76e-01	0	37	0	5242880	70	26516
2026-01-05 00:56:32.90	21.36	8.65	-49.7	-66.4	6.7	6.69e-01	0	38	0	7340032	70	25349
2026-01-05 00:56:33.91	21.41	8.74	-49.6	-65.6	7.4	6.55e-01	0	38	0	8912896	70	23148
2026-01-05 00:56:34.91	21.45	8.82	-49.6	-64.5	8.5	6.39e-01	0	38	0	11010048	70	20425
2026-01-05 00:56:35.92	21.49	8.91	-49.5	-63.5	9.6	6.24e-01	0	38	0	13107200	70	18174
2026-01-05 00:56:36.92	21.53	9.00	-49.5	-62.2	10.9	6.16e-01	0	38	0	14680064	70	15647
2026-01-05 00:56:37.93	21.57	9.09	-49.4	-60.8	12.2	6.09e-01	0	38	0	16777216	70	13405
2026-01-05 00:56:38.93	21.61	9.17	-51.1	-66.2	6.9	6.67e-01	0	38	0	18350080	72	22112
2026-01-05 00:56:39.93	21.66	9.26	-49.3	-59.6	13.8	6.05e-01	0	38	0	20447232	70	11607
2026-01-05 00:56:40.93	21.70	9.35	-50.2	-67.3	6.1	6.85e-01	0	38	0	22020096	70	28145
2026-01-05 00:56:41.93	21.74	9.44	-47.5	-53.0	19.6	6.04e-01	0	38	0	24117248	67	6436
2026-01-05 00:56:42.94	21.79	9.53	-47.8	-53.1	20.1	6.03e-01	0	38	0	26214400	67	6498
2026-01-05 00:56:43.94	21.83	9.61	-47.7	-52.5	20.5	6.04e-01	0	38	0	27787264	67	6090
2026-01-05 00:56:44.94	21.87	9.70	-47.4	-51.8	21.2	6.06e-01	0	38	0	29884416	66	5985
2026-01-05 00:56:46.00	21.92	9.80	-47.3	-51.5	21.6	6.04e-01	0	38	0	31457280	66	5728
2026-01-05 00:56:46.86	21.96	9.88	-47.3	-51.4	21.7	6.04e-01	0	38	0	33554432	66	5658
2026-01-05 00:56:48.00	22.01	9.98	-47.1	-51.1	21.9	6.02e-01	0	38	0	35651584	66	5467
2026-01-05 00:56:48.86	22.05	10.06	-47.1	-50.9	22.1	6.02e-01	0	38	0	37224448	66	5349
2026-01-05 00:56:50.01	22.10	10.16	-47.1	-50.9	22.1	6.04e-01	0	38	0	39321600	66	5363
2026-01-05 00:56:50.87	22.14	10.24	-47.1	-50.8	22.2	6.05e-01	0	38	0	40894464	66	5314
2026-01-05 00:56:52.02	22.19	10.35	-47.2	-50.9	22.1	6.05e-01	0	38	0	42991616	66	5369
2026-01-05 00:56:52.88	22.23	10.43	-47.1	-50.8	22.2	6.06e-01	0	38	0	44564480	66	5297
2026-01-05 00:56:54.02	22.28	10.53	-47.3	-51.0	22.0	6.03e-01	0	38	0	46661632	66	5422
2026-01-05 00:56:54.88	22.32	10.61	-47.3	-50.9	22.1	6.05e-01	0	38	0	48234496	66	5378
2026-01-05 00:56:56.02	22.37	10.72	-47.4	-50.8	22.2	6.03e-01	0	38	0	50331648	66	5337
2026-01-05 00:56:56.88	22.41	10.80	-47.4	-50.8	22.2	6.03e-01	0	38	0	51904512	66	5315
2026-01-05 00:56:58.03	22.47	10.91	-47.3	-50.6	22.4	6.05e-01	0	38	0	54525952	66	5178
2026-01-05 00:56:58.89	22.51	10.99	-47.4	-50.5	22.5	6.04e-01	0	38	0	56098816	66	5158
2026-01-05 00:57:00.03	22.56	11.10	-47.6	-50.7	22.3	6.01e-01	0	38	0	58195968	66	5253
2026-01-05 00:57:00.89	22.60	11.18	-47.6	-50.6	22.4	6.02e-01	0	38	0	59768832	66	5198
2026-01-05 00:57:02.04	22.66	11.29	-47.6	-50.6	22.4	6.02e-01	0	38	0	61865984	66	5180
2026-01-05 00:57:02.89	22.70	11.37	-47.7	-50.7	22.4	6.03e-01	0	38	0	63438848	66	5223
2026-01-05 00:57:04.04	22.76	11.48	-47.6	-50.5	22.5	6.03e-01	0	38	0	65536000	66	5152
2026-01-05 00:57:04.90	22.80	11.56	-47.6	-50.5	22.5	6.02e-01	0	38	0	67108864	66	5136
2026-01-05 00:57:06.04	22.86	11.67	-47.7	-50.6	22.4	6.04e-01	0	38	0	69206016	66	5161
2026-01-05 00:57:06.90	22.90	11.76	-47.6	-50.5	22.5	6.05e-01	0	38	0	70778880	66	5105
2026-01-05 00:57:08.05	22.96	11.87	-47.6	-50.4	22.7	6.02e-01	0	38	0	72876032	66	5063
2026-01-05 00:57:08.91	23.00	11.96	-47.5	-50.4	22.6	6.05e-01	0	38	0	74448896	66	5056
2026-01-05 00:57:10.06	23.06	12.07	-47.5	-50.3	22.7	6.02e-01	0	38	0	76546048	66	5028
2026-01-05 00:57:10.91	23.10	12.15	-47.4	-50.3	22.7	6.05e-01	0	38	0	78643200	66	5014
2026-01-05 00:57:12.06	23.16	12.27	-47.4	-50.3	22.7	6.04e-01	0	38	0	80740352	66	5025
2026-01-05 00:57:12.92	23.21	12.35	-47.4	-50.3	22.8	6.03e-01	0	38	0	82313216	66	4990
2026-01-05 00:57:14.07	23.27	12.47	-47.5	-50.4	22.7	6.04e-01	0	38	0	84410368	66	5058
2026-01-05 00:57:14.93	23.31	12.56	-47.6	-50.5	22.6	6.04e-01	0	38	0	85983232	66	5119
2026-01-05 00:57:16.07	23.37	12.67	-47.6	-50.5	22.6	6.04e-01	0	38	0	88080384	66	5114
2026-01-05 00:57:17.13	23.43	12.78	-47.6	-50.4	22.7	6.06e-01	0	38	0	90177536	66	5076
2026-01-05 00:57:17.99	23.48	12.87	-47.6	-50.5	22.6	6.04e-01	0	38	0	91750400	66	5114
2026-01-05 00:57:19.14	23.54	12.99	-47.6	-50.4	22.6	6.04e-01	0	38	0	93847552	66	5070
2026-01-05 00:57:20.26	23.60	13.10	-47.5	-50.3	22.8	6.03e-01	0	38	0	95944704	66	5004
2026-01-05 00:57:21.31	23.66	13.21	-47.4	-50.3	22.7	6.04e-01	0	38	0	98041856	66	5004
2026-01-05 00:57:22.34	23.72	13.32	-47.4	-50.2	22.8	6.03e-01	0	38	0	99614720	66	4978
2026-01-05 00:57:23.34	23.77	13.43	-47.2	-50.2	22.9	6.03e-01	0	38	0	101711872	66	4929
2026-01-05 00:57:24.35	23.83	13.53	-47.2	-50.1	22.9	6.04e-01	0	38	0	103809024	66	4916
2026-01-05 00:57:25.35	23.88	13.64	-47.1	-50.0	22.9	6.05e-01	0	38	0	105381888	66	4864
2026-01-05 00:57:26.35	23.94	13.75	-47.0	-49.9	23.1	6.04e-01	0	38	0	107479040	66	4812
2026-01-05 00:57:27.35	24.00	13.85	-47.0	-50.0	23.1	6.03e-01	0	38	0	109051904	66	4815
2026-01-05 00:57:28.36	24.06	13.96	-47.0	-50.0	23.0	6.04e-01	0	38	0	111149056	66	4837
2026-01-05 00:57:29.36	24.12	14.07	-47.0	-50.0	23.1	6.05e-01	0	38	0	113246208	66	4824
2026-01-05 00:57:30.36	24.17	14.18	-47.1	-50.1	23.0	6.04e-01	0	38	0	114819072	66	4894
2026-01-05 00:57:31.37	24.23	14.29	-47.0	-49.9	23.1	6.02e-01	0	38	0	116916224	66	4812
2026-01-05 00:57:32.37	24.29	14.40	-47.1	-50.1	23.0	6.04e-01	0	38	0	118489088	66	4887
2026-01-05 00:57:33.37	24.35	14.51	-47.1	-50.2	22.9	6.04e-01	0	38	0	120586240	66	4937
2026-01-05 00:57:34.37	24.41	14.62	-47.2	-50.2	22.9	6.04e-01	0	38	0	122683392	66	4937
2026-01-05 00:57:35.37	24.48	14.73	-47.2	-50.2	22.9	6.05e-01	0	38	0	124256256	66	4945
2026-01-05 00:57:36.38	24.54	14.84	-47.2	-50.2	22.9	6.04e-01	0	38	0	126353408	66	4950
2026-01-05 00:57:37.38	24.60	14.95	-47.1	-50.1	22.9	6.02e-01	0	38	0	127926272	66	4882
2026-01-05 00:57:38.38	24.66	15.07	-47.2	-50.1	23.0	6.03e-01	0	38	0	130023424	66	4871
2026-01-05 00:57:39.39	24.73	15.18	-47.2	-50.0	23.0	6.04e-01	0	38	0	131596288	66	4865
2026-01-05 00:57:40.39	24.79	15.30	-47.2	-50.0	23.1	6.06e-01	0	38	0	133693440	66	4853
2026-01-05 00:57:41.39	24.85	15.41	-47.3	-50.1	23.1	6.06e-01	0	39	0	135790592	66	4892
2026-01-05 00:57:42.40	24.92	15.53	-47.2	-50.0	23.1	6.04e-01	0	38	0	137363456	66	4835
2026-01-05 00:57:43.40	24.98	15.64	-47.3	-50.0	23.0	6.05e-01	0	38	0	139460608	66	4860
2026-01-05 00:57:44.40	25.05	15.76	-47.4	-50.1	23.0	6.04e-01	0	38	0	141033472	66	4897
2026-01-05 00:57:45.41	25.11	15.88	-47.3	-50.1	23.0	6.02e-01	0	38	0	143130624	66	4881
2026-01-05 00:57:46.41	25.18	15.99	-47.1	-49.8	23.3	6.03e-01	0	38	0	144703488	66	4706
2026-01-05 00:57:47.42	25.25	16.11	-47.0	-49.7	23.3	6.06e-01	0	39	0	146800640	66	4688
2026-01-05 00:57:48.42	25.31	16.23	-47.0	-49.7	23.4	6.03e-01	0	38	0	148897792	66	4670
2026-01-05 00:57:49.42	25.38	16.35	-47.0	-49.7	23.4	6.05e-01	0	38	0	150470656	65	4963
2026-01-05 00:57:50.49	25.46	16.48	-47.0	-49.8	23.3	6.05e-01	0	38	0	152567808	65	4997
2026-01-05 00:57:51.35	25.52	16.58	-47.0	-49.8	23.3	6.04e-01	0	38	0	154140672	65	5010
2026-01-05 00:57:52.50	25.60	16.72	-46.9	-49.7	23.3	6.02e-01	0	38	0	156237824	65	4980
2026-01-05 00:57:53.36	25.66	16.83	-46.9	-49.9	23.2	6.05e-01	0	38	0	157810688	65	5068
2026-01-05 00:57:54.50	25.74	16.97	-46.8	-49.8	23.3	6.04e-01	0	38	0	159907840	65	5001
2026-01-05 00:57:55.36	25.80	17.07	-46.7	-49.8	23.3	6.04e-01	0	38	0	161480704	65	4991
2026-01-05 00:57:56.51	25.88	17.22	-46.6	-49.8	23.3	6.04e-01	0	38	0	164102144	65	4999
2026-01-05 00:57:57.37	25.94	17.32	-46.5	-49.7	23.3	6.05e-01	0	38	0	165675008	65	4972
2026-01-05 00:57:58.51	26.03	17.46	-46.4	-49.7	23.3	6.04e-01	0	38	0	167772160	64	5269
2026-01-05 00:57:59.37	26.09	17.57	-46.4	-49.7	23.3	6.04e-01	0	38	0	169345024	64	5265
2026-01-05 00:58:00.53	26.17	17.72	-46.3	-49.7	23.4	6.04e-01	0	39	0	171442176	64	5244
2026-01-05 00:58:01.39	26.24	17.83	-46.3	-49.6	23.4	6.01e-01	0	38	0	173015040	64	5207
2026-01-05 00:58:02.64	26.33	17.99	-46.2	-49.5	23.6	6.03e-01	0	38	0	175636480	64	5124
2026-01-05 00:58:03.49	26.40	18.10	-46.3	-49.5	23.6	6.05e-01	0	38	0	177209344	64	5118
2026-01-05 00:58:04.64	26.49	18.25	-46.3	-49.5	23.5	6.04e-01	0	38	0	179306496	64	5143
2026-01-05 00:58:05.49	26.55	18.36	-46.4	-49.6	23.5	6.04e-01	0	38	0	180879360	64	5184
2026-01-05 00:58:06.64	26.64	18.51	-46.5	-49.7	23.4	6.04e-01	0	38	0	182976512	64	5223
2026-01-05 00:58:07.50	26.71	18.62	-46.6	-49.7	23.4	6.01e-01	0	38	0	184549376	64	5270
2026-01-05 00:58:08.65	26.80	18.77	-46.7	-49.8	23.3	6.03e-01	0	38	0	186646528	64	5302
2026-01-05 00:58:09.51	26.87	18.89	-46.7	-49.8	23.3	6.04e-01	0	38	0	188219392	64	5323
2026-01-05 00:58:10.65	26.96	19.04	-46.7	-49.7	23.4	6.04e-01	0	39	0	190316544	64	5249
2026-01-05 00:58:11.62	27.04	19.17	-46.7	-49.7	23.4	6.02e-01	0	38	0	192413696	64	5230
2026-01-05 00:58:12.80	27.14	19.33	-46.7	-49.6	23.5	6.02e-01	0	39	0	194510848	64	5186
2026-01-05 00:58:13.66	27.21	19.45	-46.6	-49.6	23.5	6.06e-01	0	39	0	196083712	64	5160
2026-01-05 00:58:15.01	27.33	19.63	-46.6	-49.6	23.5	6.06e-01	0	39	0	198705152	64	5190
2026-01-05 00:58:15.73	27.39	19.73	-46.5	-49.5	23.6	6.05e-01	0	38	0	199753728	64	5130
2026-01-05 00:58:17.23	27.52	19.94	-46.6	-49.6	23.4	6.03e-01	0	38	0	202899456	64	5202
2026-01-05 00:58:17.94	27.58	20.04	-46.6	-49.7	23.3	6.05e-01	0	39	0	203948032	64	5269
2026-01-05 00:58:19.23	27.69	20.22	-46.7	-49.8	23.3	6.04e-01	0	38	0	206569472	64	5314
2026-01-05 00:58:19.94	27.75	20.32	-46.7	-49.8	23.2	6.04e-01	0	38	0	207618048	64	5337
2026-01-05 00:58:21.23	27.87	20.50	-46.7	-49.7	23.4	6.03e-01	0	38	0	210239488	64	5267
2026-01-05 00:58:21.95	27.93	20.60	-46.7	-49.8	23.3	6.05e-01	0	38	0	211812352	64	5285
2026-01-05 00:58:23.24	28.05	20.79	-46.7	-49.7	23.4	6.03e-01	0	38	0	213909504	64	5246
2026-01-05 00:58:23.95	28.11	20.89	-46.6	-49.6	23.5	6.05e-01	0	38	0	215482368	64	5171
2026-01-05 00:58:25.24	28.23	21.08	-46.7	-49.7	23.4	6.02e-01	0	39	0	217579520	64	5251
2026-01-05 00:58:26.06	28.31	21.20	-46.7	-49.7	23.4	6.03e-01	0	39	0	219152384	64	5275
2026-01-05 00:58:27.53	28.45	21.41	-46.6	-49.7	23.4	6.04e-01	0	38	0	222298112	64	5257
2026-01-05 00:58:28.25	28.52	21.52	-46.5	-49.7	23.4	6.04e-01	0	38	0	223346688	64	5276
2026-01-05 00:58:29.53	28.64	21.71	-46.6	-49.9	23.3	6.05e-01	0	38	0	225968128	64	5344
2026-01-05 00:58:30.25	28.71	21.82	-46.6	-49.8	23.3	6.03e-01	0	38	0	227016704	64	5336
2026-01-05 00:58:31.83	28.87	22.06	-46.6	-49.8	23.3	6.03e-01	0	38	0	230162432	64	5331
2026-01-05 00:58:32.40	28.92	22.14	-46.6	-49.8	23.3	6.07e-01	0	39	0	231211008	64	5333
2026-01-05 00:58:33.99	29.08	22.39	-46.8	-49.8	23.4	6.04e-01	0	39	0	234356736	64	5302
2026-01-05 00:58:34.59	29.14	22.48	-46.7	-49.7	23.4	6.03e-01	0	38	0	235405312	64	5251
2026-01-05 00:58:36.17	29.31	22.72	-47.0	-49.8	23.3	6.05e-01	0	39	0	238551040	64	5328
2026-01-05 00:58:36.74	29.37	22.81	-47.0	-49.8	23.3	6.04e-01	0	38	0	239599616	64	5308
2026-01-05 00:58:38.34	29.53	23.06	-47.1	-49.9	23.3	6.02e-01	0	38	0	242221056	64	5386
2026-01-05 00:58:38.91	29.59	23.15	-47.1	-49.9	23.2	6.04e-01	0	38	0	243269632	64	5393
2026-01-05 00:58:40.49	29.76	23.40	-47.0	-49.9	23.3	6.04e-01	0	38	0	246415360	64	5378
2026-01-05 00:58:41.06	29.83	23.50	-47.1	-49.9	23.2	6.04e-01	0	38	0	247463936	64	5397
2026-01-05 00:58:42.67	30.00	23.76	-47.1	-49.9	23.3	6.04e-01	0	39	0	250609664	64	5360
2026-01-05 00:58:43.54	30.10	23.90	-47.2	-49.9	23.3	6.02e-01	0	39	0	252182528	64	5368
2026-01-05 00:58:44.69	30.23	24.08	-47.3	-49.9	23.2	6.04e-01	0	39	0	254279680	65	5086
2026-01-05 00:58:45.55	30.33	24.23	-47.3	-50.0	23.1	6.04e-01	0	38	0	255852544	65	5126
2026-01-05 00:58:46.69	30.46	24.41	-47.2	-49.9	23.2	6.04e-01	0	38	0	257949696	65	5079
2026-01-05 00:58:47.56	30.56	24.56	-47.2	-49.9	23.3	6.03e-01	0	39	0	259522560	65	5053
2026-01-05 00:58:48.70	30.69	24.75	-47.3	-50.0	23.2	6.04e-01	0	39	0	261619712	65	5121
2026-01-05 00:58:49.56	30.79	24.89	-47.3	-50.1	23.1	6.02e-01	0	39	0	263192576	65	5170
2026-01-05 00:58:50.71	30.93	25.09	-47.4	-50.1	23.0	6.01e-01	0	39	0	265289728	65	5211
2026-01-05 00:58:51.56	31.03	25.23	-47.3	-50.1	23.1	6.03e-01	0	38	0	266862592	65	5189
2026-01-05 00:58:52.94	31.20	25.47	-47.3	-50.1	23.1	6.03e-01	0	39	0	269484032	65	5178
2026-01-05 00:58:53.65	31.29	25.59	-47.3	-50.1	23.1	6.04e-01	0	38	0	271056896	65	5191
2026-01-05 00:58:55.16	31.48	25.86	-47.0	-50.0	23.2	6.04e-01	0	39	0	273678336	65	5103
2026-01-05 00:58:55.88	31.57	25.98	-47.0	-49.9	23.2	6.07e-01	0	38	0	275251200	65	5083
2026-01-05 00:58:57.23	31.74	26.22	-47.0	-49.9	23.2	6.01e-01	0	39	0	277872640	65	5097
2026-01-05 00:58:57.94	31.84	26.35	-47.1	-49.9	23.2	6.02e-01	0	38	0	278921216	65	5086
2026-01-05 00:58:59.23	32.01	26.58	-47.0	-49.7	23.4	6.02e-01	0	39	0	281542656	65	4983
2026-01-05 00:58:59.95	32.10	26.71	-46.9	-49.6	23.5	6.03e-01	0	39	0	283115520	65	4919
2026-01-05 00:59:01.24	32.28	26.94	-46.9	-49.7	23.5	6.05e-01	0	39	0	285212672	65	4937
2026-01-05 00:59:01.95	32.37	27.07	-47.0	-49.7	23.5	6.06e-01	0	38	0	286785536	65	4936
2026-01-05 00:59:03.24	32.55	27.31	-47.2	-49.9	23.3	6.04e-01	0	39	0	288882688	65	5059
2026-01-05 00:59:03.95	32.65	27.44	-47.2	-49.9	23.3	6.07e-01	0	38	0	290455552	65	5088
2026-01-05 00:59:05.25	32.83	27.68	-46.9	-49.8	23.4	6.03e-01	0	38	0	292552704	65	4988
2026-01-05 00:59:05.96	32.93	27.81	-46.8	-49.6	23.5	6.03e-01	0	38	0	294125568	65	4921
2026-01-05 00:59:07.25	33.12	28.06	-46.7	-49.5	23.6	6.05e-01	0	39	0	296747008	65	4851
2026-01-05 00:59:07.97	33.22	28.19	-46.8	-49.6	23.6	6.04e-01	0	38	0	297795584	65	4871
2026-01-05 00:59:09.26	33.42	28.44	-47.1	-49.7	23.5	6.03e-01	0	39	0	300417024	65	4961
2026-01-05 00:59:09.97	33.52	28.58	-47.0	-49.7	23.5	6.06e-01	0	39	0	301465600	65	4949
2026-01-05 00:59:11.26	33.72	28.83	-46.9	-49.5	23.6	6.05e-01	0	39	0	304087040	65	4861
2026-01-05 00:59:11.98	33.83	28.97	-46.8	-49.4	23.7	6.05e-01	0	39	0	305659904	65	4788
2026-01-05 00:59:13.27	34.03	29.22	-46.8	-49.4	23.7	6.03e-01	0	38	0	307757056	65	4801
2026-01-05 00:59:13.99	34.14	29.36	-46.8	-49.4	23.7	6.05e-01	0	38	0	309329920	65	4808
2026-01-05 00:59:15.27	34.34	29.61	-47.0	-49.7	23.5	6.04e-01	0	38	0	311427072	65	4957
2026-01-05 00:59:15.99	34.46	29.76	-47.0	-49.8	23.4	6.04e-01	0	39	0	312999936	65	4985
2026-01-05 00:59:17.28	34.67	30.02	-46.9	-49.6	23.6	6.04e-01	0	38	0	315621376	65	4873
2026-01-05 00:59:18.00	34.79	30.16	-46.7	-49.3	23.8	6.04e-01	0	38	0	316669952	65	4756
2026-01-05 00:59:19.29	35.01	30.42	-46.6	-49.3	23.8	6.06e-01	0	39	0	319291392	65	4740
2026-01-05 00:59:20.00	35.13	30.57	-46.7	-49.5	23.7	6.03e-01	0	39	0	320339968	65	4822
2026-01-05 00:59:21.29	35.35	30.84	-46.9	-49.7	23.5	6.02e-01	0	39	0	322961408	65	4942
2026-01-05 00:59:22.01	35.47	30.98	-46.7	-49.4	23.7	6.05e-01	0	39	0	324009984	65	4808
2026-01-05 00:59:23.30	35.70	31.25	-46.7	-49.5	23.6	6.03e-01	0	39	0	326631424	65	4854
2026-01-05 00:59:24.01	35.83	31.40	-46.6	-49.5	23.6	6.04e-01	0	39	0	328204288	65	4841
2026-01-05 00:59:25.30	36.06	31.68	-46.8	-49.6	23.6	6.03e-01	0	39	0	330301440	65	4887
2026-01-05 00:59:26.16	36.22	31.86	-46.8	-49.5	23.6	6.05e-01	0	38	0	331874304	65	4856
2026-01-05 00:59:27.31	36.43	32.10	-46.9	-49.6	23.6	6.04e-01	0	39	0	333971456	65	4895
2026-01-05 00:59:28.17	36.59	32.29	-46.9	-49.8	23.4	6.03e-01	0	38	0	336068608	65	4994
2026-01-05 00:59:29.31	36.81	32.54	-46.9	-49.8	23.5	6.04e-01	0	38	0	337641472	65	4989
2026-01-05 00:59:30.17	36.98	32.73	-47.2	-49.9	23.3	6.04e-01	0	39	0	339738624	65	5086
2026-01-05 00:59:31.32	37.20	32.98	-47.2	-49.9	23.4	6.03e-01	0	39	0	341835776	65	5071
2026-01-05 00:59:32.18	37.37	33.17	-47.3	-49.9	23.3	6.04e-01	0	39	0	343408640	65	5092
2026-01-05 00:59:33.32	37.60	33.42	-47.3	-50.0	23.2	6.04e-01	0	38	0	345505792	65	5118
2026-01-05 00:59:34.18	37.78	33.61	-47.3	-50.0	23.3	6.02e-01	0	39	0	347078656	65	5103
2026-01-05 00:59:35.37	38.02	33.88	-47.3	-50.0	23.2	6.02e-01	0	38	0	349175808	65	5132
2026-01-05 00:59:36.23	38.21	34.08	-47.3	-50.1	23.1	6.04e-01	0	38	0	350748672	65	5169
2026-01-05 00:59:37.49	38.47	34.36	-47.3	-50.1	23.1	6.02e-01	0	38	0	353370112	65	5206
2026-01-05 00:59:38.22	38.63	34.53	-47.4	-50.2	23.0	6.06e-01	0	39	0	354942976	65	5263
2026-01-05 00:59:39.51	38.92	34.83	-47.9	-50.9	22.6	6.01e-01	0	39	0	357040128	66	5341
2026-01-05 00:59:40.23	39.08	34.99	-47.9	-50.9	22.5	6.04e-01	0	39	0	358612992	66	5356
2026-01-05 00:59:41.52	39.37	35.30	-47.8	-50.8	22.6	6.04e-01	0	38	0	360710144	66	5299
2026-01-05 00:59:42.23	39.53	35.46	-47.7	-50.7	22.6	6.04e-01	0	39	0	362283008	66	5225
2026-01-05 00:59:43.84	39.91	35.84	-48.1	-51.0	22.4	6.04e-01	0	39	0	365428736	66	5427
2026-01-05 00:59:44.41	40.04	35.98	-48.1	-51.0	22.4	6.04e-01	0	39	0	365953024	66	5439
2026-01-05 00:59:46.01	40.43	36.36	-48.2	-51.0	22.4	6.04e-01	0	39	0	369098752	66	5434
2026-01-05 00:59:46.58	40.57	36.50	-48.3	-51.1	22.3	6.05e-01	0	38	0	370147328	67	5202
2026-01-05 00:59:48.25	40.98	36.90	-48.2	-51.1	22.3	6.03e-01	0	38	0	373293056	67	5165
2026-01-05 00:59:48.82	41.13	37.04	-48.1	-51.0	22.4	6.03e-01	0	39	0	374341632	67	5138
2026-01-05 00:59:50.41	41.53	37.43	-48.4	-51.4	22.0	6.03e-01	0	38	0	377487360	67	5377
2026-01-05 00:59:50.98	41.68	37.57	-48.3	-51.2	22.2	6.04e-01	0	39	0	378535936	67	5269
2026-01-05 00:59:52.58	42.11	37.97	-48.4	-51.3	22.2	6.05e-01	0	39	0	381681664	67	5283
2026-01-05 00:59:53.15	42.26	38.11	-48.4	-51.3	22.1	6.03e-01	0	38	0	382730240	67	5286
2026-01-05 00:59:54.73	42.70	38.51	-48.2	-51.1	22.3	6.05e-01	0	39	0	385875968	67	5195
2026-01-05 00:59:55.59	42.94	38.73	-48.3	-51.1	22.3	6.02e-01	0	39	0	387448832	67	5204
2026-01-05 00:59:57.15	43.38	39.12	-48.0	-50.8	22.5	6.04e-01	0	39	0	390070272	67	5041
2026-01-05 00:59:58.25	43.70	39.40	-48.2	-51.0	22.4	6.05e-01	0	39	0	392167424	67	5129
2026-01-05 00:59:59.43	44.05	39.71	-48.1	-50.9	22.5	6.05e-01	0	38	0	394264576	67	5050
2026-01-05 01:00:00.29	44.31	39.93	-47.9	-50.7	22.7	6.05e-01	0	38	0	395837440	67	4947
2026-01-05 01:00:01.44	44.67	40.23	-47.8	-50.6	22.8	6.02e-01	0	38	0	397934592	67	4874
2026-01-05 01:00:02.30	44.93	40.45	-47.8	-50.5	22.8	6.03e-01	0	39	0	400031744	67	4843
2026-01-05 01:00:03.44	45.30	40.75	-47.7	-50.5	22.8	6.03e-01	0	38	0	402128896	67	4817
2026-01-05 01:00:04.30	45.57	40.97	-47.8	-50.5	22.8	6.05e-01	0	39	0	403701760	67	4823
2026-01-05 01:00:05.44	45.95	41.27	-47.8	-50.5	22.8	6.04e-01	0	39	0	405798912	67	4834
2026-01-05 01:00:06.30	46.23	41.50	-47.6	-50.3	23.1	6.02e-01	0	38	0	407371776	67	4706
2026-01-05 01:00:07.45	46.62	41.81	-47.4	-50.0	23.2	6.04e-01	0	39	0	409468928	66	4865
2026-01-05 01:00:08.31	46.92	42.04	-47.3	-49.8	23.4	6.04e-01	0	39	0	411041792	66	4759
2026-01-05 01:00:09.55	47.35	42.37	-47.3	-49.9	23.3	6.05e-01	0	38	0	413138944	66	4799
2026-01-05 01:00:10.40	47.65	42.59	-47.3	-49.9	23.3	6.03e-01	0	39	0	414711808	66	4809
2026-01-05 01:00:11.63	48.10	42.93	-47.1	-49.6	23.6	6.04e-01	0	39	0	417333248	66	4609
2026-01-05 01:00:12.49	48.41	43.16	-47.0	-49.5	23.6	6.02e-01	0	38	0	418906112	66	4596
2026-01-05 01:00:13.64	48.85	43.47	-46.7	-49.2	23.9	6.05e-01	0	38	0	421003264	65	4657
2026-01-05 01:00:14.50	49.17	43.70	-46.7	-49.1	24.0	6.03e-01	0	38	0	422576128	65	4651
2026-01-05 01:00:15.64	49.62	44.01	-46.7	-49.3	23.9	6.04e-01	0	39	0	424673280	65	4715
2026-01-05 01:00:16.50	49.96	44.25	-46.7	-49.2	23.9	6.05e-01	0	38	0	426246144	65	4702
2026-01-05 01:00:17.64	50.41	44.56	-46.4	-48.8	24.2	6.03e-01	0	38	0	428343296	64	4758
2026-01-05 01:00:18.50	50.77	44.79	-46.3	-48.7	24.4	6.02e-01	0	38	0	429916160	64	4668
2026-01-05 01:00:19.65	51.24	45.11	-46.4	-48.8	24.3	6.04e-01	0	38	0	432537600	64	4727
2026-01-05 01:00:20.62	51.66	45.38	-46.3	-48.6	24.4	6.03e-01	0	39	0	434110464	64	4642
2026-01-05 01:00:21.80	52.17	45.70	-46.4	-48.7	22.6	6.03e-01	0	38	0	436207616	64	4705
2026-01-05 01:00:22.66	52.54	45.94	-46.3	-48.7	24.4	6.01e-01	0	39	0	437780480	64	4679
2026-01-05 01:00:24.01	53.15	46.31	-46.4	-48.8	24.3	6.04e-01	0	38	0	440401920	64	4720
2026-01-05 01:00:24.72	53.47	46.50	-46.2	-48.6	24.5	6.04e-01	0	38	0	441974784	64	4637
2026-01-05 01:00:26.02	54.08	46.86	-46.5	-49.0	24.1	6.04e-01	0	38	0	444071936	64	4832
2026-01-05 01:00:26.74	54.42	47.06	-46.5	-48.9	24.1	6.03e-01	0	39	0	445644800	64	4804
2026-01-05 01:00:28.30	55.17	47.49	-46.6	-49.0	24.1	6.06e-01	0	39	0	448266240	64	4837
2026-01-05 01:00:29.28	55.65	47.76	-46.6	-49.0	24.2	6.04e-01	0	38	0	450363392	64	4828
2026-01-05 01:00:30.28	56.15	48.03	-46.8	-49.2	23.9	6.02e-01	0	39	0	452460544	64	4976
2026-01-05 01:00:31.28	56.67	48.30	-46.6	-49.1	24.1	6.06e-01	0	38	0	454033408	64	4881
2026-01-05 01:00:32.29	57.19	48.58	-46.9	-49.4	23.8	6.06e-01	0	39	0	456130560	64	5063
2026-01-05 01:00:33.29	57.72	48.85	-46.9	-49.4	23.8	6.05e-01	0	39	0	457703424	64	5089
2026-01-05 01:00:34.29	58.26	49.12	-47.1	-49.6	23.6	6.04e-01	0	38	0	459800576	64	5193
2026-01-05 01:00:35.30	58.81	49.40	-46.8	-49.3	23.9	6.05e-01	0	39	0	461897728	64	5017
2026-01-05 01:00:36.29	59.37	49.66	-46.6	-49.0	24.2	6.04e-01	0	39	0	463470592	64	4829
2026-01-05 01:00:37.30	59.94	49.93	-46.7	-49.2	24.0	6.04e-01	0	38	0	465567744	64	4955
2026-01-05 01:00:38.36	60.56	50.22	-46.7	-49.2	23.9	6.03e-01	0	39	0	467140608	64	4941
2026-01-05 01:00:39.22	61.06	50.45	-46.5	-48.9	24.2	6.02e-01	0	39	0	469237760	64	4812
2026-01-05 01:00:40.58	61.88	50.80	-46.4	-48.8	24.3	6.04e-01	0	39	0	471334912	64	4725
2026-01-05 01:00:41.29	62.31	50.99	-46.4	-48.8	24.4	6.03e-01	0	39	0	472907776	64	4717
2026-01-05 01:00:42.58	63.12	51.32	-46.5	-48.9	24.3	6.04e-01	0	38	0	475529216	64	4773
2026-01-05 01:00:43.30	63.57	51.51	-46.4	-48.8	24.3	6.04e-01	0	38	0	476577792	64	4753
2026-01-05 01:00:44.59	64.41	51.84	-46.6	-49.0	24.2	6.03e-01	0	38	0	479199232	64	4836
2026-01-05 01:00:45.30	64.87	52.02	-46.6	-49.0	24.2	6.02e-01	0	39	0	480247808	64	4835
2026-01-05 01:00:46.59	65.73	52.34	-46.8	-49.2	24.0	6.05e-01	0	38	0	482869248	64	4975
2026-01-05 01:00:47.31	66.22	52.52	-46.7	-49.1	24.1	6.04e-01	0	39	0	483917824	64	4906
2026-01-05 01:00:48.60	67.11	52.84	-47.1	-49.6	23.6	6.07e-01	0	39	0	486539264	64	5173
2026-01-05 01:00:49.47	67.72	53.05	-46.9	-49.4	23.8	6.05e-01	0	39	0	488112128	64	5069
2026-01-05 01:00:50.62	68.54	53.32	-47.1	-49.6	23.6	6.03e-01	0	38	0	490209280	64	5186
2026-01-05 01:00:51.66	69.30	53.57	-47.2	-49.7	23.5	6.02e-01	0	39	0	492306432	65	4980
2026-01-05 01:00:52.65	70.03	53.80	-46.9	-49.4	23.8	6.02e-01	0	38	0	494403584	65	4791
2026-01-05 01:00:53.86	70.94	54.07	-46.9	-49.3	23.8	6.04e-01	0	39	0	496500736	65	4749
2026-01-05 01:00:54.74	71.62	54.27	-46.9	-49.4	23.9	6.03e-01	0	38	0	498073600	65	4764
2026-01-05 01:00:56.04	72.63	54.56	-47.0	-49.5	23.7	6.06e-01	0	38	0	500695040	65	4861
2026-01-05 01:00:56.75	73.19	54.71	-46.9	-49.4	23.8	6.05e-01	0	38	0	501743616	65	4774
2026-01-05 01:00:58.23	74.38	55.02	-47.1	-49.7	23.6	6.02e-01	0	38	0	504889344	65	4927
2026-01-05 01:00:58.95	74.97	55.17	-47.4	-50.0	23.2	6.04e-01	0	38	0	505937920	65	5157
2026-01-05 01:01:00.26	76.05	55.43	-47.4	-50.0	23.2	6.03e-01	0	39	0	508559360	65	5133
2026-01-05 01:01:00.98	76.66	55.57	-47.4	-50.0	23.3	6.04e-01	0	39	0	509607936	65	5153
2026-01-05 01:01:02.27	77.75	55.81	-47.8	-50.5	22.9	6.04e-01	0	38	0	512229376	66	5116
2026-01-05 01:01:02.98	78.37	55.94	-48.0	-50.8	22.6	6.03e-01	0	39	0	513802240	66	5288
2026-01-05 01:01:04.27	79.50	56.17	-48.1	-50.9	22.5	6.05e-01	0	39	0	515899392	66	5396
2026-01-05 01:01:04.99	80.13	56.30	-48.1	-50.9	22.5	6.03e-01	0	38	0	517472256	67	5069
2026-01-05 01:01:06.27	81.28	56.51	-48.4	-51.3	22.1	6.03e-01	0	38	0	519569408	67	5305
2026-01-05 01:01:06.99	81.93	56.62	-48.3	-51.2	22.3	6.04e-01	0	39	0	521142272	67	5237
2026-01-05 01:01:08.28	83.12	56.82	-48.2	-51.1	22.3	6.03e-01	0	38	0	523763712	67	5190
2026-01-05 01:01:09.09	83.87	56.94	-48.1	-51.0	22.4	6.06e-01	0	39	0	524812288	67	5131
2026-01-05 01:01:10.24	84.95	57.10	-47.8	-50.7	22.7	6.03e-01	0	38	0	527433728	67	4946
2026-01-05 01:01:11.30	85.96	57.24	-48.0	-51.0	22.4	6.02e-01	0	39	0	529006592	67	5114
2026-01-05 01:01:12.34	86.95	57.37	-48.0	-50.8	22.6	6.04e-01	0	39	0	531103744	67	5009
2026-01-05 01:01:13.34	87.92	57.49	-48.2	-51.1	22.4	6.02e-01	0	39	0	533200896	67	5189
2026-01-05 01:01:14.34	88.89	57.60	-48.1	-50.9	22.5	6.02e-01	0	38	0	534773760	67	5084
2026-01-05 01:01:15.34	89.88	57.70	-48.2	-51.1	22.3	6.03e-01	0	39	0	536870912	67	5209
2026-01-05 01:01:16.35	90.88	57.80	-48.2	-51.3	22.2	6.02e-01	0	39	0	538443776	67	5307
2026-01-05 01:01:17.35	91.87	57.88	-48.1	-51.1	22.3	6.04e-01	0	38	0	540540928	67	5214
2026-01-05 01:01:18.35	92.88	57.96	-48.5	-51.5	22.0	6.00e-01	0	39	0	542113792	67	5429
2026-01-05 01:01:19.35	93.89	58.03	-48.5	-51.4	22.1	6.02e-01	0	38	0	544210944	67	5353
2026-01-05 01:01:20.36	94.91	58.10	-48.7	-51.8	21.8	6.05e-01	0	39	0	546308096	68	5295
2026-01-05 01:01:21.36	95.93	58.15	-48.6	-51.7	21.9	6.01e-01	0	38	0	547880960	68	5242
2026-01-05 01:01:22.36	96.95	58.20	-48.9	-52.1	21.5	6.02e-01	0	39	0	549978112	68	5520
2026-01-05 01:01:23.37	97.99	58.23	-48.8	-51.8	21.7	6.03e-01	0	38	0	552075264	68	5328
2026-01-05 01:01:24.37	99.01	58.26	-48.4	-51.2	22.2	6.04e-01	0	38	0	553648128	68	4970
2026-01-05 01:01:25.45	100.13	58.29	-48.6	-51.5	22.1	6.03e-01	0	38	0	555745280	68	5114
2026-01-05 01:01:26.34	101.04	58.30	-48.2	-51.0	22.4	6.02e-01	0	38	0	557318144	68	4868
2026-01-05 01:01:27.39	102.13	58.30	-48.3	-51.2	22.4	6.03e-01	0	39	0	559415296	68	4947
2026-01-05 01:01:28.25	103.02	58.30	-48.4	-51.3	22.3	6.04e-01	0	39	0	560988160	68	5027
2026-01-05 01:01:29.40	104.20	58.28	-48.4	-51.3	22.3	6.06e-01	0	39	0	563085312	68	5022
2026-01-05 01:01:30.26	105.09	58.26	-48.3	-51.1	22.5	6.04e-01	0	39	0	564658176	68	4874
2026-01-05 01:01:31.40	106.26	58.23	-48.6	-51.4	22.1	6.04e-01	0	39	0	566755328	68	5089
2026-01-05 01:01:32.26	107.14	58.19	-48.4	-51.1	22.4	6.04e-01	0	39	0	568328192	68	4919
2026-01-05 01:01:33.40	108.31	58.14	-48.7	-51.6	21.9	6.06e-01	0	39	0	570425344	68	5180
2026-01-05 01:01:34.26	109.18	58.09	-48.2	-51.1	22.4	6.02e-01	0	38	0	571998208	68	4895
2026-01-05 01:01:35.41	110.35	58.02	-48.5	-51.5	22.1	6.05e-01	0	39	0	574095360	68	5123
2026-01-05 01:01:36.27	111.21	57.96	-48.4	-51.3	22.3	6.03e-01	0	39	0	576192512	68	5017
2026-01-05 01:01:37.41	112.36	57.87	-48.1	-50.9	22.6	6.03e-01	0	39	0	578289664	68	4803
2026-01-05 01:01:38.27	113.22	57.79	-48.1	-51.0	22.5	6.04e-01	0	38	0	579862528	68	4862
2026-01-05 01:01:39.41	114.34	57.68	-48.1	-51.0	22.5	6.03e-01	0	39	0	581959680	68	4839
2026-01-05 01:01:40.29	115.21	57.59	-48.3	-51.1	22.5	6.04e-01	0	39	0	583532544	68	4890
2026-01-05 01:01:41.63	116.51	57.44	-47.7	-50.3	23.0	6.05e-01	0	39	0	586153984	67	4753
2026-01-05 01:01:42.34	117.20	57.36	-47.9	-50.6	22.8	6.03e-01	0	39	0	587202560	67	4918
2026-01-05 01:01:43.63	118.43	57.19	-47.7	-50.5	22.9	6.04e-01	0	39	0	589824000	67	4821
2026-01-05 01:01:44.35	119.12	57.10	-47.7	-50.4	23.0	6.04e-01	0	38	0	590872576	67	4805
2026-01-05 01:01:45.63	120.32	56.92	-47.6	-50.2	23.0	6.04e-01	0	39	0	593494016	67	4703
2026-01-05 01:01:46.35	120.99	56.81	-47.6	-50.2	23.1	6.04e-01	0	39	0	595066880	66	4968
2026-01-05 01:01:47.64	122.17	56.61	-47.9	-50.5	22.9	6.04e-01	0	39	0	597164032	66	5148
2026-01-05 01:01:48.35	122.82	56.50	-47.7	-50.4	23.0	6.06e-01	0	38	0	598736896	66	5052
2026-01-05 01:01:49.64	123.97	56.28	-47.3	-50.0	23.3	6.05e-01	0	38	0	600834048	66	4825
2026-01-05 01:01:50.36	124.61	56.16	-47.5	-50.2	23.2	6.04e-01	0	38	0	602406912	66	4927
2026-01-05 01:01:51.65	125.74	55.93	-47.6	-50.2	23.2	6.05e-01	0	39	0	605028352	66	4957
2026-01-05 01:01:52.36	126.35	55.80	-47.5	-50.2	23.1	6.05e-01	0	39	0	606076928	66	4944
2026-01-05 01:01:53.65	127.45	55.55	-47.0	-49.5	23.8	6.02e-01	0	39	0	608698368	66	4561
2026-01-05 01:01:54.36	128.05	55.41	-47.4	-50.1	23.2	6.05e-01	0	39	0	609746944	66	4894
2026-01-05 01:01:55.65	129.12	55.15	-47.3	-50.0	23.3	6.03e-01	0	39	0	612368384	66	4854
2026-01-05 01:01:56.37	129.71	55.01	-47.3	-50.1	23.2	6.04e-01	0	39	0	613941248	66	4880
2026-01-05 01:01:57.66	130.75	54.73	-46.9	-49.5	23.7	6.04e-01	0	39	0	616038400	65	4829
2026-01-05 01:01:58.37	131.31	54.58	-46.8	-49.3	23.9	6.04e-01	0	39	0	617611264	65	4732
2026-01-05 01:01:59.66	132.32	54.30	-47.0	-49.5	23.7	6.03e-01	0	38	0	619708416	65	4836
2026-01-05 01:02:00.46	132.93	54.12	-47.0	-49.6	23.7	6.03e-01	0	39	0	621281280	65	4872
2026-01-05 01:02:01.60	133.80	53.86	-47.0	-49.6	23.7	6.03e-01	0	38	0	623378432	65	4871
2026-01-05 01:02:02.66	134.59	53.62	-46.8	-49.2	24.0	6.03e-01	0	38	0	625475584	65	4699
2026-01-05 01:02:03.55	135.24	53.41	-46.8	-49.2	24.0	6.05e-01	0	38	0	627048448	65	4698
2026-01-05 01:02:04.69	136.06	53.13	-47.1	-49.7	23.6	6.05e-01	0	39	0	629145600	65	4935
2026-01-05 01:02:05.76	136.82	52.88	-47.2	-49.8	23.5	6.06e-01	0	39	0	631242752	65	5025
2026-01-05 01:02:06.62	137.42	52.67	-47.2	-49.8	23.5	6.04e-01	0	39	0	632815616	65	5024
2026-01-05 01:02:07.77	138.20	52.38	-47.1	-49.7	23.6	6.04e-01	0	39	0	634912768	65	4952
2026-01-05 01:02:08.63	138.78	52.16	-47.0	-49.5	23.8	6.03e-01	0	38	0	636485632	65	4844
2026-01-05 01:02:09.77	139.54	51.88	-47.3	-49.9	23.4	6.05e-01	0	38	0	638582784	65	5089
2026-01-05 01:02:10.63	140.10	51.66	-47.7	-50.4	23.0	6.03e-01	0	39	0	640679936	65	5389
2026-01-05 01:02:11.77	140.83	51.36	-47.4	-50.0	23.3	6.04e-01	0	39	0	642777088	66	4857
2026-01-05 01:02:12.63	141.37	51.14	-47.5	-50.1	23.2	6.06e-01	0	39	0	644349952	66	4900
2026-01-05 01:02:13.77	142.07	50.84	-47.3	-49.8	23.5	6.03e-01	0	39	0	646447104	66	4746
2026-01-05 01:02:14.64	142.60	50.61	-47.2	-49.7	23.5	6.05e-01	0	39	0	648019968	66	4676
2026-01-05 01:02:15.78	143.28	50.31	-47.4	-50.1	23.3	6.04e-01	0	39	0	650117120	66	4877
2026-01-05 01:02:16.64	143.78	50.08	-47.8	-50.5	22.9	6.03e-01	0	38	0	651689984	66	5121
2026-01-05 01:02:17.94	144.53	49.73	-47.7	-50.4	22.9	6.05e-01	0	39	0	654311424	66	5070
2026-01-05 01:02:18.66	144.93	49.53	-47.6	-50.3	23.1	6.04e-01	0	39	0	655360000	66	5001
2026-01-05 01:02:20.22	145.80	49.11	-47.9	-50.7	22.7	6.04e-01	0	39	0	658505728	66	5220
2026-01-05 01:02:20.93	146.18	48.92	-48.1	-50.9	22.5	6.04e-01	0	39	0	659554304	66	5355
2026-01-05 01:02:22.21	146.86	48.57	-47.9	-50.6	22.8	6.06e-01	0	39	0	662175744	67	4897
2026-01-05 01:02:22.93	147.24	48.37	-47.7	-50.3	23.0	6.04e-01	0	39	0	663748608	67	4744
2026-01-05 01:02:24.22	147.90	48.02	-47.5	-50.1	23.2	6.02e-01	0	38	0	665845760	67	4636
2026-01-05 01:02:24.93	148.26	47.82	-47.5	-50.2	23.2	6.03e-01	0	39	0	667418624	67	4658
2026-01-05 01:02:26.22	148.90	47.47	-47.6	-50.2	23.1	6.04e-01	0	39	0	669515776	67	4690
2026-01-05 01:02:26.94	149.25	47.27	-47.6	-50.3	23.1	6.04e-01	0	39	0	671088640	67	4729
2026-01-05 01:02:28.23	149.87	46.91	-47.6	-50.3	23.0	6.03e-01	0	38	0	673185792	67	4758
2026-01-05 01:02:28.95	150.21	46.71	-47.8	-50.5	22.9	6.05e-01	0	39	0	674758656	67	4821
2026-01-05 01:02:30.23	150.80	46.36	-47.7	-50.3	23.1	6.05e-01	0	38	0	677380096	67	4740
2026-01-05 01:02:30.95	151.13	46.16	-47.5	-50.0	23.3	6.04e-01	0	38	0	678428672	67	4590
2026-01-05 01:02:32.24	151.70	45.80	-47.2	-49.7	23.5	6.01e-01	0	38	0	681050112	66	4704
2026-01-05 01:02:33.18	152.11	45.54	-47.4	-50.0	23.3	6.04e-01	0	39	0	682622976	66	4837
2026-01-05 01:02:34.50	152.68	45.18	-47.6	-50.3	23.1	6.03e-01	0	39	0	685244416	66	5008
2026-01-05 01:02:35.21	152.98	44.98	-47.5	-50.1	23.2	6.03e-01	0	39	0	686292992	66	4881
2026-01-05 01:02:36.85	153.66	44.53	-47.1	-49.6	23.6	6.05e-01	0	39	0	689438720	66	4643
2026-01-05 01:02:37.42	153.89	44.38	-47.2	-49.7	23.6	6.06e-01	0	39	0	690487296	66	4662
2026-01-05 01:02:39.03	154.53	43.93	-47.3	-49.9	23.4	6.05e-01	0	38	0	693633024	66	4762
2026-01-05 01:02:39.60	154.75	43.78	-47.4	-50.0	23.4	6.05e-01	0	38	0	694681600	66	4815
2026-01-05 01:02:41.21	155.36	43.34	-47.5	-50.2	23.1	6.04e-01	0	39	0	697827328	66	4956
2026-01-05 01:02:41.84	155.60	43.17	-47.6	-50.2	23.1	6.02e-01	0	39	0	698875904	66	4974
2026-01-05 01:02:43.29	156.14	42.77	-47.6	-50.3	23.0	6.04e-01	0	39	0	701497344	66	5007
2026-01-05 01:02:44.07	156.42	42.56	-47.5	-50.1	23.2	6.02e-01	0	38	0	703070208	66	4889
2026-01-05 01:02:45.71	157.00	42.12	-47.5	-50.1	23.0	6.06e-01	0	39	0	706215936	66	4921
2026-01-05 01:02:46.28	157.20	41.97	-47.6	-50.2	23.1	6.03e-01	0	39	0	707264512	66	4958
2026-01-05 01:02:48.11	157.82	41.48	-47.9	-50.6	22.8	6.05e-01	0	38	0	710410240	66	5169
2026-01-05 01:02:48.68	158.01	41.33	-48.0	-50.7	22.7	6.04e-01	0	39	0	711983104	66	5263
2026-01-05 01:02:50.32	158.55	40.89	-47.9	-50.6	22.8	6.04e-01	0	38	0	714604544	66	5187
2026-01-05 01:02:50.89	158.74	40.74	-47.9	-50.5	22.9	6.03e-01	0	39	0	715653120	66	5145
2026-01-05 01:02:52.55	159.26	40.31	-48.1	-50.8	22.6	6.04e-01	0	39	0	718798848	66	5317
2026-01-05 01:02:53.13	159.44	40.15	-48.2	-51.0	22.4	6.01e-01	0	39	0	720371712	67	5111
2026-01-05 01:02:54.72	159.93	39.74	-48.1	-50.9	22.5	6.02e-01	0	38	0	722993152	67	5068
2026-01-05 01:02:55.42	160.14	39.56	-48.0	-50.7	22.6	6.05e-01	0	38	0	724566016	67	4973
2026-01-05 01:02:56.71	160.52	39.23	-47.8	-50.5	22.9	6.05e-01	0	39	0	726663168	67	4830
2026-01-05 01:02:57.43	160.73	39.04	-47.7	-50.4	23.0	6.03e-01	0	38	0	728236032	67	4760
2026-01-05 01:02:58.72	161.10	38.71	-47.6	-50.3	23.0	6.05e-01	0	38	0	730333184	67	4758
2026-01-05 01:02:59.71	161.38	38.46	-47.9	-50.7	22.8	6.04e-01	0	39	0	732430336	67	4930
2026-01-05 01:03:00.71	161.65	38.21	-47.9	-50.7	22.7	6.04e-01	0	38	0	734527488	67	4936
2026-01-05 01:03:01.71	161.93	37.96	-47.9	-50.7	22.7	6.04e-01	0	39	0	736100352	67	4932
2026-01-05 01:03:02.71	162.20	37.71	-47.8	-50.5	22.9	6.04e-01	0	38	0	738197504	67	4819
2026-01-05 01:03:03.71	162.46	37.46	-47.7	-50.4	23.0	6.07e-01	0	38	0	739770368	67	4764
2026-01-05 01:03:04.72	162.72	37.21	-47.6	-50.4	23.0	6.03e-01	0	38	0	741867520	67	4763
2026-01-05 01:03:05.72	162.98	36.96	-47.5	-50.2	23.1	6.04e-01	0	39	0	743440384	66	4953
2026-01-05 01:03:06.77	163.24	36.71	-47.4	-50.1	23.2	6.05e-01	0	39	0	745537536	66	4882
2026-01-05 01:03:07.72	163.48	36.48	-47.3	-50.0	23.3	6.01e-01	0	39	0	747634688	66	4831
2026-01-05 01:03:08.72	163.72	36.23	-47.2	-49.9	23.4	6.04e-01	0	39	0	749207552	66	4769
2026-01-05 01:03:09.86	164.00	35.96	-47.1	-49.7	23.5	6.04e-01	0	38	0	751304704	66	4693
2026-01-05 01:03:10.72	164.20	35.75	-47.1	-49.7	23.6	6.03e-01	0	39	0	752877568	66	4669
2026-01-05 01:03:12.10	164.53	35.43	-47.0	-49.6	23.6	6.04e-01	0	39	0	755499008	66	4627
2026-01-05 01:03:12.81	164.69	35.26	-46.9	-49.5	23.7	6.06e-01	0	38	0	757071872	65	4834
2026-01-05 01:03:14.31	165.03	34.91	-46.7	-49.2	24.0	6.04e-01	0	39	0	759693312	65	4654
2026-01-05 01:03:15.28	165.25	34.68	-46.5	-48.9	24.2	6.05e-01	0	38	0	761790464	65	4532
2026-01-05 01:03:16.28	165.46	34.45	-46.5	-48.9	24.2	6.04e-01	0	39	0	763363328	64	4798
2026-01-05 01:03:17.28	165.68	34.22	-46.4	-48.8	24.3	6.05e-01	0	39	0	765460480	64	4749
2026-01-05 01:03:18.29	165.90	33.99	-46.3	-48.7	24.4	6.04e-01	0	39	0	767033344	64	4683
2026-01-05 01:03:19.29	166.11	33.76	-46.4	-48.9	24.3	6.02e-01	0	39	0	769130496	64	4770
2026-01-05 01:03:20.30	166.32	33.53	-46.5	-48.9	24.2	6.04e-01	0	38	0	771227648	64	4814
2026-01-05 01:03:21.30	166.52	33.31	-46.5	-49.0	24.1	6.03e-01	0	39	0	772800512	64	4858
2026-01-05 01:03:22.30	166.72	33.08	-46.5	-49.0	23.9	6.06e-01	0	39	0	774897664	64	4861
2026-01-05 01:03:23.35	166.93	32.85	-46.4	-48.8	24.3	6.05e-01	0	39	0	776994816	64	4725
2026-01-05 01:03:24.27	167.11	32.65	-46.3	-48.7	24.4	6.03e-01	0	38	0	778567680	64	4700
2026-01-05 01:03:25.28	167.31	32.43	-46.2	-48.6	24.5	6.03e-01	0	39	0	780140544	64	4630
2026-01-05 01:03:26.45	167.53	32.17	-46.1	-48.5	24.5	6.02e-01	0	38	0	782761984	64	4569
2026-01-05 01:03:27.35	167.70	31.98	-46.1	-48.5	24.6	6.00e-01	0	39	0	784334848	64	4581
2026-01-05 01:03:28.41	167.90	31.75	-46.1	-48.5	24.5	6.04e-01	0	38	0	786432000	64	4589
2026-01-05 01:03:29.27	168.05	31.56	-46.1	-48.5	24.6	6.04e-01	0	39	0	788004864	64	4592
2026-01-05 01:03:30.41	168.26	31.32	-46.1	-48.5	24.6	6.02e-01	0	38	0	790102016	64	4580
2026-01-05 01:03:31.27	168.41	31.14	-46.1	-48.5	24.6	6.06e-01	0	38	0	791674880	64	4547
2026-01-05 01:03:32.42	168.61	30.90	-46.1	-48.5	24.6	6.05e-01	0	39	0	793772032	64	4571
2026-01-05 01:03:33.28	168.76	30.72	-46.0	-48.4	24.7	6.03e-01	0	39	0	795344896	63	4775
2026-01-05 01:03:34.42	168.96	30.48	-46.1	-48.5	24.5	6.03e-01	0	39	0	797442048	63	4828
2026-01-05 01:03:35.28	169.11	30.31	-46.2	-48.6	24.5	6.04e-01	0	39	0	799014912	63	4913
2026-01-05 01:03:36.43	169.30	30.07	-46.3	-48.7	24.4	6.04e-01	0	38	0	801112064	63	4981
2026-01-05 01:03:37.29	169.44	29.90	-46.3	-48.8	24.4	6.03e-01	0	39	0	802684928	63	4988
2026-01-05 01:03:38.55	169.65	29.64	-46.4	-48.8	24.2	6.03e-01	0	39	0	805306368	63	5030
2026-01-05 01:03:39.28	169.76	29.50	-46.5	-48.9	24.3	6.05e-01	0	39	0	806879232	63	5048
2026-01-05 01:03:40.57	169.97	29.24	-46.3	-48.7	24.4	6.04e-01	0	38	0	808976384	63	4954
2026-01-05 01:03:41.28	170.08	29.10	-46.3	-48.7	24.4	6.04e-01	0	38	0	810549248	63	4933
2026-01-05 01:03:42.57	170.28	28.85	-46.4	-48.8	24.4	6.04e-01	0	38	0	812646400	63	5014
2026-01-05 01:03:43.29	170.39	28.71	-46.4	-48.8	24.4	6.03e-01	0	39	0	814219264	63	5018
2026-01-05 01:03:44.58	170.58	28.45	-46.5	-49.0	24.3	6.05e-01	0	39	0	816840704	63	5103
2026-01-05 01:03:45.30	170.69	28.32	-46.5	-48.9	24.3	6.04e-01	0	39	0	817889280	63	5097
2026-01-05 01:03:46.59	170.88	28.07	-46.5	-48.9	24.3	6.03e-01	0	39	0	820510720	63	5078
2026-01-05 01:03:47.30	170.99	27.93	-46.5	-49.0	24.2	6.02e-01	0	39	0	821559296	63	5134
2026-01-05 01:03:48.60	171.17	27.69	-46.6	-49.0	24.2	6.06e-01	0	39	0	824180736	63	5134
2026-01-05 01:03:49.52	171.30	27.51	-46.5	-48.9	24.2	6.04e-01	0	39	0	825753600	63	5081
2026-01-05 01:03:50.52	171.44	27.33	-46.6	-49.0	24.2	6.05e-01	0	38	0	827850752	63	5115
2026-01-05 01:03:51.53	171.58	27.14	-46.6	-49.0	24.1	6.05e-01	0	39	0	829423616	64	4861
2026-01-05 01:03:52.52	171.72	26.96	-46.5	-48.9	24.2	6.03e-01	0	39	0	831520768	64	4814
2026-01-05 01:03:53.53	171.86	26.77	-46.6	-49.1	24.0	6.03e-01	0	38	0	833617920	64	4894
2026-01-05 01:03:54.53	171.99	26.59	-46.7	-49.2	23.9	6.02e-01	0	39	0	835190784	64	4962
2026-01-05 01:03:55.53	172.12	26.41	-46.7	-49.3	23.9	6.04e-01	0	39	0	837287936	64	4995
2026-01-05 01:03:56.53	172.26	26.23	-46.8	-49.3	23.8	6.03e-01	0	39	0	838860800	64	5011
2026-01-05 01:03:57.53	172.39	26.05	-46.8	-49.4	23.8	6.05e-01	0	39	0	840957952	64	5050
2026-01-05 01:03:58.58	172.52	25.87	-46.8	-49.4	23.7	6.03e-01	0	39	0	843055104	64	5072
2026-01-05 01:03:59.53	172.64	25.70	-47.0	-49.5	23.7	6.04e-01	0	39	0	844627968	64	5154
2026-01-05 01:04:00.53	172.77	25.52	-47.0	-49.6	23.6	6.07e-01	0	39	0	846725120	64	5166
2026-01-05 01:04:01.53	172.89	25.35	-46.8	-49.4	23.8	6.04e-01	0	39	0	848297984	64	5071
2026-01-05 01:04:02.54	173.01	25.18	-46.9	-49.5	23.7	6.04e-01	0	38	0	850395136	64	5116
2026-01-05 01:04:03.54	173.13	25.00	-46.9	-49.5	23.7	6.01e-01	0	39	0	851968000	64	5139
2026-01-05 01:04:04.54	173.25	24.83	-47.0	-49.6	23.6	6.03e-01	0	39	0	854065152	64	5205
2026-01-05 01:04:05.54	173.37	24.66	-47.0	-49.7	23.5	6.06e-01	0	39	0	855638016	64	5242
2026-01-05 01:04:06.54	173.49	24.49	-47.0	-49.7	23.5	6.01e-01	0	38	0	857735168	64	5245
2026-01-05 01:04:07.54	173.61	24.33	-47.1	-49.8	23.4	6.03e-01	0	39	0	859832320	64	5311
2026-01-05 01:04:08.54	173.72	24.16	-47.0	-49.6	23.5	6.04e-01	0	39	0	861405184	64	5218
2026-01-05 01:04:09.55	173.84	23.99	-47.0	-49.6	23.6	6.02e-01	0	38	0	863502336	64	5184
2026-01-05 01:04:10.55	173.95	23.83	-47.0	-49.6	23.6	6.02e-01	0	38	0	865075200	64	5199
2026-01-05 01:04:11.55	174.06	23.67	-47.1	-49.8	23.5	6.06e-01	0	39	0	867172352	64	5282
2026-01-05 01:04:12.55	174.17	23.50	-47.2	-49.8	23.4	6.02e-01	0	39	0	868745216	65	5017
2026-01-05 01:04:13.55	174.28	23.34	-47.1	-49.7	23.5	6.04e-01	0	38	0	870842368	65	4966
2026-01-05 01:04:14.55	174.39	23.18	-47.2	-49.7	23.5	6.05e-01	0	39	0	872939520	65	4981
2026-01-05 01:04:15.55	174.49	23.02	-47.1	-49.7	23.5	6.03e-01	0	39	0	874512384	65	4941
2026-01-05 01:04:16.56	174.60	22.86	-46.9	-49.5	23.6	6.04e-01	0	38	0	876609536	65	4856
2026-01-05 01:04:17.56	174.70	22.70	-46.9	-49.5	23.7	6.04e-01	0	39	0	878182400	65	4867
2026-01-05 01:04:18.56	174.81	22.55	-46.9	-49.6	23.6	6.05e-01	0	39	0	880279552	65	4888
2026-01-05 01:04:19.56	174.91	22.39	-46.9	-49.6	23.5	6.03e-01	0	38	0	881852416	65	4888
2026-01-05 01:04:20.56	175.01	22.24	-46.9	-49.6	23.5	6.04e-01	0	38	0	883949568	65	4921
2026-01-05 01:04:21.57	175.11	22.08	-46.9	-49.6	23.6	6.05e-01	0	39	0	886046720	65	4895
2026-01-05 01:04:22.57	175.21	21.93	-46.9	-49.6	23.6	6.04e-01	0	39	0	887619584	65	4885
2026-01-05 01:04:23.57	175.31	21.78	-46.9	-49.6	23.6	6.04e-01	0	38	0	889716736	65	4882
2026-01-05 01:04:24.57	175.41	21.63	-46.8	-49.5	23.7	6.04e-01	0	39	0	891813888	65	4822
2026-01-05 01:04:25.58	175.51	21.47	-46.7	-49.4	23.8	6.04e-01	0	39	0	893386752	65	4762
2026-01-05 01:04:26.58	175.60	21.33	-46.7	-49.4	23.7	6.04e-01	0	39	0	895483904	65	4810
2026-01-05 01:04:27.58	175.70	21.18	-46.8	-49.5	23.7	6.02e-01	0	39	0	897056768	65	4827
2026-01-05 01:04:28.59	175.79	21.03	-46.8	-49.5	23.6	6.05e-01	0	38	0	899153920	65	4859
2026-01-05 01:04:29.59	175.88	20.88	-46.7	-49.4	23.7	6.04e-01	0	39	0	900726784	65	4798
2026-01-05 01:04:30.59	175.97	20.74	-46.8	-49.4	23.7	6.04e-01	0	39	0	902823936	65	4806
2026-01-05 01:04:31.59	176.07	20.59	-46.7	-49.4	23.8	6.04e-01	0	39	0	904921088	65	4770
2026-01-05 01:04:32.60	176.16	20.45	-46.7	-49.4	23.8	6.01e-01	0	39	0	906493952	65	4766
2026-01-05 01:04:33.60	176.25	20.30	-46.7	-49.3	23.8	6.06e-01	0	39	0	908591104	65	4738
2026-01-05 01:04:34.60	176.33	20.16	-46.6	-49.2	23.9	6.05e-01	0	39	0	910163968	65	4667
2026-01-05 01:04:35.60	176.42	20.02	-46.6	-49.1	24.0	6.04e-01	0	39	0	912261120	65	4648
2026-01-05 01:04:36.83	176.53	19.85	-46.6	-49.2	23.9	6.02e-01	0	39	0	914358272	65	4674
2026-01-05 01:04:37.69	176.60	19.73	-46.7	-49.3	23.8	6.04e-01	0	39	0	915931136	65	4727
2026-01-05 01:04:39.04	176.72	19.54	-46.6	-49.3	23.8	6.03e-01	0	39	0	918552576	65	4709
2026-01-05 01:04:39.75	176.78	19.44	-46.6	-49.3	23.9	6.04e-01	0	38	0	920125440	65	4709
2026-01-05 01:04:41.04	176.88	19.26	-46.6	-49.3	23.9	6.03e-01	0	39	0	922222592	65	4707
2026-01-05 01:04:41.75	176.94	19.17	-46.7	-49.3	23.8	6.02e-01	0	38	0	923795456	65	4732
2026-01-05 01:04:43.04	177.05	18.99	-46.7	-49.2	23.8	6.05e-01	0	38	0	926416896	65	4704
2026-01-05 01:04:43.76	177.11	18.89	-46.7	-49.4	23.8	6.02e-01	0	38	0	927465472	65	4761
2026-01-05 01:04:45.05	177.21	18.72	-46.7	-49.3	23.8	6.03e-01	0	38	0	930086912	65	4714
2026-01-05 01:04:45.76	177.27	18.63	-46.7	-49.3	23.8	6.04e-01	0	38	0	931135488	65	4739
2026-01-05 01:04:47.04	177.37	18.46	-46.8	-49.4	23.7	6.04e-01	0	39	0	933756928	65	4781
2026-01-05 01:04:47.76	177.43	18.36	-46.8	-49.5	23.7	6.04e-01	0	39	0	934805504	65	4821
2026-01-05 01:04:49.05	177.53	18.19	-46.9	-49.6	23.5	6.01e-01	0	38	0	937426944	65	4885
2026-01-05 01:04:49.76	177.58	18.10	-46.9	-49.6	23.5	6.02e-01	0	39	0	938475520	65	4903
2026-01-05 01:04:51.06	177.68	17.93	-46.8	-49.5	23.6	6.05e-01	0	39	0	941096960	65	4833
2026-01-05 01:04:51.77	177.73	17.84	-46.7	-49.4	23.7	6.03e-01	0	38	0	942669824	65	4802
2026-01-05 01:04:53.25	177.84	17.65	-46.8	-49.5	23.6	6.03e-01	0	39	0	945291264	65	4837
2026-01-05 01:04:53.96	177.90	17.56	-46.7	-49.4	23.3	6.03e-01	0	39	0	946864128	65	4781
2026-01-05 01:04:55.29	178.00	17.39	-46.6	-49.3	23.7	6.04e-01	0	39	0	948961280	65	4754
2026-01-05 01:04:56.01	178.05	17.30	-46.7	-49.4	23.7	6.06e-01	0	38	0	950534144	65	4788
2026-01-05 01:04:57.30	178.14	17.14	-46.7	-49.4	23.6	6.06e-01	0	38	0	952631296	65	4787
2026-01-05 01:04:58.01	178.19	17.05	-46.8	-49.5	23.5	6.05e-01	0	38	0	954204160	65	4840
2026-01-05 01:04:59.30	178.28	16.89	-46.7	-49.4	23.7	6.07e-01	0	38	0	956825600	65	4779
2026-01-05 01:05:00.02	178.34	16.80	-46.7	-49.4	23.7	6.02e-01	0	38	0	957874176	65	4762
2026-01-05 01:05:01.30	178.42	16.64	-46.6	-49.3	23.6	6.02e-01	0	38	0	960495616	64	4999
2026-01-05 01:05:02.02	178.47	16.55	-46.7	-49.3	23.7	6.03e-01	0	39	0	961544192	64	5021
2026-01-05 01:05:03.31	178.56	16.40	-46.7	-49.4	23.6	6.03e-01	0	38	0	964165632	64	5068
2026-01-05 01:05:04.09	178.62	16.30	-46.6	-49.3	23.8	6.03e-01	0	39	0	965738496	64	4985
2026-01-05 01:05:05.62	178.72	16.12	-46.7	-49.3	23.8	6.07e-01	0	39	0	968359936	64	5024
2026-01-05 01:05:06.66	178.79	16.00	-46.6	-49.3	23.6	6.04e-01	0	39	0	970457088	64	5007
2026-01-05 01:05:07.93	178.87	15.84	-46.7	-49.4	23.6	6.03e-01	0	39	0	973078528	64	5081
2026-01-05 01:05:08.73	178.93	15.75	-46.6	-49.4	23.7	6.04e-01	0	38	0	974127104	64	5069
2026-01-05 01:05:09.88	179.00	15.62	-46.8	-49.6	23.5	6.05e-01	0	39	0	976748544	64	5172
2026-01-05 01:05:10.74	179.06	15.51	-46.7	-49.5	23.6	6.01e-01	0	39	0	978321408	64	5121
2026-01-05 01:05:11.88	179.13	15.38	-46.7	-49.4	23.6	6.01e-01	0	38	0	980418560	64	5096
2026-01-05 01:05:12.74	179.19	15.28	-46.7	-49.5	23.6	6.02e-01	0	38	0	981991424	64	5108
2026-01-05 01:05:13.89	179.26	15.15	-46.6	-49.4	23.6	6.05e-01	0	39	0	984088576	64	5046
2026-01-05 01:05:14.75	179.31	15.05	-46.7	-49.4	23.7	6.04e-01	0	38	0	985661440	64	5058
2026-01-05 01:05:15.90	179.38	14.92	-46.7	-49.5	23.6	6.02e-01	0	39	0	987758592	64	5111
2026-01-05 01:05:16.75	179.44	14.82	-46.6	-49.3	23.7	6.04e-01	0	39	0	989331456	64	5027
2026-01-05 01:05:17.90	179.51	14.69	-46.6	-49.3	23.7	6.01e-01	0	39	0	991428608	64	5036
2026-01-05 01:05:18.76	179.56	14.60	-46.7	-49.4	23.6	6.02e-01	0	38	0	993001472	64	5053
2026-01-05 01:05:20.11	179.64	14.45	-46.6	-49.3	23.7	6.03e-01	0	38	0	995622912	64	5034
2026-01-05 01:05:20.83	179.68	14.37	-46.7	-49.4	23.6	6.04e-01	0	39	0	997195776	64	5073
2026-01-05 01:05:22.12	179.76	14.22	-46.8	-49.5	23.6	6.03e-01	0	38	0	999292928	64	5115
2026-01-05 01:05:22.83	179.80	14.15	-46.7	-49.4	23.6	6.04e-01	0	39	0	1000865792	64	5096
2026-01-05 01:05:24.12	179.88	14.00	-46.7	-49.4	23.6	6.06e-01	0	39	0	1003487232	64	5071
2026-01-05 01:05:24.84	179.92	13.93	-46.8	-49.5	23.6	6.04e-01	0	39	0	1004535808	64	5104
2026-01-05 01:05:26.13	179.99	13.79	-46.8	-49.5	23.5	6.03e-01	0	39	0	1007157248	64	5153
2026-01-05 01:05:26.85	180.04	13.71	-46.8	-49.6	23.5	6.03e-01	0	39	0	1008205824	64	5167
2026-01-05 01:05:28.14	180.11	13.57	-46.7	-49.4	23.6	6.03e-01	0	39	0	1010827264	64	5076
2026-01-05 01:05:28.98	180.16	13.48	-46.8	-49.6	23.5	6.06e-01	0	39	0	1012400128	64	5162
2026-01-05 01:05:30.12	180.22	13.36	-46.8	-49.7	23.4	6.03e-01	0	39	0	1014497280	64	5219
2026-01-05 01:05:30.98	180.27	13.27	-46.8	-49.6	23.4	6.03e-01	0	39	0	1016070144	64	5183
2026-01-05 01:05:32.13	180.33	13.15	-46.8	-49.6	23.4	6.05e-01	0	39	0	1018167296	64	5197
2026-01-05 01:05:32.99	180.38	13.06	-46.6	-49.5	23.5	6.05e-01	0	39	0	1019740160	64	5102
2026-01-05 01:05:34.13	180.44	12.94	-46.6	-49.4	23.6	6.02e-01	0	39	0	1021837312	64	5058
2026-01-05 01:05:35.32	180.50	12.81	-46.7	-49.4	23.6	6.05e-01	0	38	0	1024458752	64	5087
2026-01-05 01:05:36.36	180.56	12.70	-46.7	-49.5	23.5	6.03e-01	0	39	0	1026031616	64	5101
2026-01-05 01:05:37.35	180.61	12.60	-46.6	-49.4	23.6	6.03e-01	0	38	0	1028128768	64	5072
2026-01-05 01:05:38.36	180.67	12.50	-46.6	-49.4	23.6	6.04e-01	0	39	0	1029701632	64	5072
2026-01-05 01:05:39.36	180.72	12.40	-46.5	-49.3	23.6	6.03e-01	0	38	0	1031798784	64	5041
2026-01-05 01:05:40.36	180.77	12.30	-46.7	-49.5	23.5	6.03e-01	0	39	0	1033371648	64	5121
2026-01-05 01:05:41.37	180.82	12.19	-46.7	-49.6	23.4	6.03e-01	0	39	0	1035468800	64	5162
2026-01-05 01:05:42.37	180.87	12.09	-46.8	-49.6	23.4	6.03e-01	0	39	0	1037565952	64	5214
2026-01-05 01:05:43.37	180.93	11.99	-46.8	-49.7	23.3	6.02e-01	0	38	0	1039138816	64	5264
2026-01-05 01:05:44.36	180.98	11.89	-46.7	-49.6	23.4	6.04e-01	0	39	0	1041235968	64	5181
2026-01-05 01:05:45.36	181.03	11.79	-46.8	-49.7	23.3	6.02e-01	0	39	0	1042808832	64	5233
2026-01-05 01:05:46.36	181.08	11.70	-46.7	-49.6	23.4	6.05e-01	0	38	0	1044905984	64	5193
2026-01-05 01:05:47.37	181.13	11.60	-46.8	-49.7	23.3	6.04e-01	0	39	0	1046478848	64	5228
2026-01-05 01:05:48.43	181.18	11.49	-46.8	-49.7	23.3	6.03e-01	0	39	0	1048576000	64	5258
2026-01-05 01:05:49.32	181.22	11.40	-46.8	-49.7	23.0	6.05e-01	0	38	0	1050673152	64	5270
2026-01-05 01:05:50.63	181.28	11.28	-46.9	-49.8	23.2	6.05e-01	0	39	0	1052770304	64	5314
2026-01-05 01:05:51.35	181.32	11.21	-46.9	-49.8	23.2	6.05e-01	0	38	0	1054343168	64	5307
2026-01-05 01:05:52.63	181.38	11.08	-46.9	-49.8	23.1	6.03e-01	0	38	0	1056440320	64	5324
2026-01-05 01:05:53.35	181.42	11.02	-47.0	-49.8	23.1	6.02e-01	0	39	0	1058013184	64	5328
2026-01-05 01:05:54.64	181.48	10.89	-47.0	-49.9	23.1	6.02e-01	0	39	0	1060634624	64	5374
2026-01-05 01:05:55.35	181.51	10.82	-47.0	-49.9	23.0	6.03e-01	0	39	0	1061683200	64	5362
2026-01-05 01:05:56.64	181.57	10.70	-47.0	-49.9	23.1	6.05e-01	0	39	0	1064304640	64	5385
2026-01-05 01:05:57.35	181.60	10.64	-47.1	-50.0	22.9	6.04e-01	0	39	0	1065353216	64	5457
2026-01-05 01:05:58.64	181.66	10.51	-47.0	-50.0	23.0	6.01e-01	0	38	0	1067974656	64	5415
2026-01-05 01:05:59.35	181.69	10.45	-47.2	-50.2	22.7	6.05e-01	0	38	0	1069023232	65	5257
2026-01-05 01:06:00.64	181.75	10.33	-47.1	-50.1	22.9	6.03e-01	0	39	0	1071644672	65	5172
2026-01-05 01:06:01.61	181.80	10.24	-47.1	-50.1	22.8	6.05e-01	0	39	0	1073217536	65	5201
2026-01-05 01:06:02.61	181.84	10.14	-47.2	-50.2	22.7	6.05e-01	0	39	0	1075314688	65	5263
2026-01-05 01:06:03.61	181.89	10.05	-47.2	-50.2	22.7	6.03e-01	0	38	0	1077411840	65	5276
2026-01-05 01:06:04.61	181.93	9.96	-47.2	-50.2	22.7	6.05e-01	0	39	0	1078984704	65	5251
2026-01-05 01:06:05.61	181.97	9.87	-47.2	-50.2	22.7	6.03e-01	0	38	0	1081081856	65	5250
2026-01-05 01:06:06.61	182.02	9.78	-47.3	-50.3	22.7	6.02e-01	0	39	0	1082654720	65	5300
2026-01-05 01:06:07.61	182.06	9.69	-47.3	-50.3	22.7	6.03e-01	0	38	0	1084751872	65	5312
2026-01-05 01:06:08.61	182.11	9.60	-47.4	-50.4	22.6	6.02e-01	0	39	0	1086324736	65	5359
2026-01-05 01:06:09.62	182.15	9.51	-47.4	-50.4	22.6	6.04e-01	0	38	0	1088421888	65	5365
2026-01-05 01:06:10.62	182.19	9.42	-47.5	-50.5	22.5	6.01e-01	0	39	0	1090519040	65	5415
2026-01-05 01:06:11.62	182.23	9.33	-47.5	-50.5	22.5	6.02e-01	0	39	0	1092091904	65	5460
2026-01-05 01:06:12.78	182.28	9.23	-47.5	-50.6	22.4	6.05e-01	0	39	0	1094189056	65	5476
2026-01-05 01:06:13.64	182.32	9.15	-47.5	-50.6	22.3	6.03e-01	0	38	0	1096286208	65	5522
2026-01-05 01:06:14.79	182.37	9.05	-47.5	-50.7	22.3	6.03e-01	0	39	0	1098383360	65	5538
2026-01-05 01:06:15.65	182.40	8.97	-48.2	-51.6	21.8	6.02e-01	0	39	0	1099956224	66	5808
2026-01-05 01:06:16.80	182.45	8.87	-53.5	-71.1	4.4	7.32e-01	0	39	104	1100480512	77	29257
2026-01-05 01:06:17.66	182.48	8.80	-53.5	-74.2	3.8	7.44e-01	0	39	104	1100480512	77	41554
2026-01-05 01:06:18.80	182.53	8.70	-53.6	-74.8	3.8	7.50e-01	0	39	104	1100480512	78	42238
2026-01-05 01:06:19.66	182.57	8.62	-54.3	-74.9	3.8	7.45e-01	0	39	104	1100480512	79	40233
2026-01-05 01:06:20.80	182.61	8.52	-54.5	-74.9	3.8	7.47e-01	0	39	104	1100480512	79	40383
2026-01-05 01:06:21.66	182.65	8.45	-54.6	-74.9	3.8	7.46e-01	0	39	104	1100480512	80	37944
2026-01-05 01:06:22.81	182.69	8.35	-54.3	-74.9	3.8	7.46e-01	0	39	104	1100480512	80	38153
2026-01-05 01:06:23.67	182.72	8.28	-54.7	-74.9	3.8	7.45e-01	0	39	104	1100480512	80	38164
2026-01-05 01:06:24.82	182.77	8.18	-54.5	-75.0	3.8	7.48e-01	0	39	104	1100480512	80	38269
2026-01-05 01:06:25.68	182.80	8.11	-54.9	-75.0	3.8	7.46e-01	0	39	104	1100480512	80	38282
2026-01-05 01:06:26.82	182.85	8.01	-54.9	-75.0	3.8	7.45e-01	0	39	104	1100480512	80	38300
2026-01-05 01:06:27.68	182.88	7.94	-54.9	-75.0	3.8	7.45e-01	0	39	104	1100480512	80	38296
2026-01-05 01:06:28.83	182.92	7.84	-55.0	-75.0	3.8	7.46e-01	0	39	104	1100480512	80	38261
2026-01-05 01:06:29.69	182.96	7.77	-54.7	-75.0	3.8	7.47e-01	0	39	104	1100480512	80	38473
2026-01-05 01:06:30.84	183.00	7.68	-55.0	-75.0	3.8	7.46e-01	0	39	104	1100480512	80	38452
2026-01-05 01:06:31.70	183.03	7.61	-54.8	-75.0	3.8	7.48e-01	0	38	104	1100480512	80	38372
2026-01-05 01:06:32.85	183.08	7.51	-55.0	-75.0	3.8	7.46e-01	0	39	104	1100480512	80	38409
2026-01-05 01:06:33.71	183.11	7.44	-54.9	-75.0	3.8	7.45e-01	0	39	104	1100480512	80	38468
2026-01-05 01:06:34.85	183.15	7.35	-54.2	-75.0	3.8	7.46e-01	0	39	104	1100480512	80	38524
2026-01-05 01:06:35.72	183.18	7.28	-54.8	-75.0	3.8	7.46e-01	0	39	104	1100480512	80	38576
2026-01-05 01:06:36.87	183.22	7.18	-54.9	-75.0	3.8	7.46e-01	0	39	104	1100480512	80	38509
2026-01-05 01:06:37.73	183.26	7.11	-54.9	-75.0	3.8	7.47e-01	0	39	104	1100480512	80	38495
2026-01-05 01:06:38.87	183.30	7.02	-54.5	-75.0	3.8	7.44e-01	0	39	104	1100480512	80	38473
2026-01-05 01:06:39.73	183.33	6.95	-54.7	-75.0	3.8	7.47e-01	0	39	104	1100480512	80	38425
2026-01-05 01:06:40.88	183.37	6.86	-54.7	-75.0	3.8	7.43e-01	0	39	104	1100480512	80	38499
2026-01-05 01:06:41.74	183.40	6.79	-54.7	-75.0	3.8	7.45e-01	0	39	104	1100480512	80	38432
2026-01-05 01:06:42.89	183.44	6.70	-54.2	-75.0	3.8	7.48e-01	0	39	104	1100480512	80	38349
2026-01-05 01:06:43.75	183.47	6.63	-54.1	-75.0	3.8	7.45e-01	0	39	104	1100480512	79	40924
2026-01-05 01:06:44.90	183.51	6.54	-54.1	-75.0	3.8	7.47e-01	0	39	104	1100480512	79	40867
2026-01-05 01:06:45.76	183.54	6.47	-54.1	-75.0	3.8	7.45e-01	0	39	104	1100480512	79	40832
2026-01-05 01:06:46.91	183.58	6.38	-54.1	-75.0	3.8	7.42e-01	0	39	104	1100480512	79	40807
2026-01-05 01:06:47.77	183.61	6.31	-54.1	-75.0	3.8	7.46e-01	0	39	104	1100480512	79	40880
2026-01-05 01:06:48.92	183.65	6.22	-54.0	-75.0	3.8	7.48e-01	0	39	104	1100480512	79	40754
2026-01-05 01:06:49.78	183.68	6.16	-54.1	-75.0	3.8	7.45e-01	0	39	104	1100480512	79	40775
2026-01-05 01:06:50.93	183.72	6.07	-54.1	-75.0	3.8	7.44e-01	0	38	104	1100480512	79	40955
2026-01-05 01:06:51.79	183.75	6.00	-54.1	-75.0	3.8	7.44e-01	0	39	104	1100480512	79	40799
2026-01-05 01:06:52.93	183.78	5.91	-54.1	-75.0	3.8	7.46e-01	0	39	104	1100480512	79	40873
2026-01-05 01:06:53.79	183.81	5.85	-54.1	-75.0	3.8	7.45e-01	0	39	104	1100480512	79	40769
2026-01-05 01:06:54.94	183.85	5.76	-54.0	-75.0	3.8	7.47e-01	0	39	104	1100480512	79	40844
2026-01-05 01:06:55.80	183.88	5.69	-54.1	-75.0	3.8	7.47e-01	0	39	104	1100480512	79	40825
2026-01-05 01:06:56.95	183.92	5.61	-54.1	-75.1	3.8	7.47e-01	0	39	104	1100480512	79	40992
2026-01-05 01:06:57.81	183.95	5.54	-54.1	-75.0	3.8	7.44e-01	0	38	104	1100480512	79	40825
2026-01-05 01:06:58.96	183.98	5.45	-54.1	-75.0	3.8	7.45e-01	0	39	104	1100480512	79	40882
2026-01-05 01:06:59.82	184.01	5.39	-54.0	-75.1	3.8	7.47e-01	0	39	104	1100480512	79	41001
2026-01-05 01:07:00.97	184.05	5.30	-54.1	-75.0	3.8	7.52e-01	0	39	104	1100480512	79	40963
2026-01-05 01:07:01.83	184.08	5.24	-54.1	-75.0	3.8	7.45e-01	0	39	104	1100480512	79	40901
2026-01-05 01:07:02.98	184.11	5.15	-54.1	-75.0	3.8	7.46e-01	0	39	104	1100480512	79	40914
2026-01-05 01:07:03.84	184.14	5.09	-54.1	-75.0	3.8	7.48e-01	0	39	104	1100480512	79	40947
2026-01-05 01:07:04.98	184.18	5.00	-54.1	-75.0	3.8	7.46e-01	0	39	104	1100480512	79	40937

#Closed at: 2026-01-05 01:07:05
#Recorded file [1100 MB]: D:/Data/31040_260105_035546.dat