passes_logs/2026/01/05/T1/T1__20260105_023330_AQUA_rec.log

#Pass ID: 20260105_023330_AQUA
#Satellite: AQUA
#Configuration: AQUA
#almurnet v.1.7.20251203
#Start time: 2026-01-05 02:33:31

#Version: 2.0.20230620
#Station: T1
#Location: 37.570604 lon 55.790049 lat
#TLE: 1 27424U 02022A   26003.93831470  .00001925  00000+0  39553-3 0  9995
#TLE: 2 27424  98.4067 330.1809 0002003  92.1713 343.8415 14.61796291259276

#Time	Az	El	Level	Level2	SNR	BER	BlckErr	Temp	State	Recorded	gain1	gain2
2026-01-05 02:33:31.01	5.73	5.01	-51.9	-74.4	3.8	7.45e-01	0	40	0	0	75	47783
2026-01-05 02:33:32.01	5.66	5.08	-51.8	-73.7	3.8	7.47e-01	0	40	104	0	75	44264
2026-01-05 02:33:33.01	5.58	5.15	-51.2	-73.9	3.8	7.48e-01	0	40	104	0	74	47638
2026-01-05 02:33:34.02	5.51	5.21	-51.2	-74.0	3.8	7.46e-01	0	40	104	0	74	48299
2026-01-05 02:33:35.02	5.43	5.28	-51.1	-74.0	3.8	7.45e-01	0	40	104	0	74	48284
2026-01-05 02:33:36.02	5.35	5.35	-51.1	-74.1	3.8	7.47e-01	0	40	104	0	74	48990
2026-01-05 02:33:37.03	5.28	5.42	-51.1	-74.1	3.8	7.43e-01	0	40	104	0	74	49205
2026-01-05 02:33:38.03	5.20	5.49	-51.1	-74.2	3.8	7.46e-01	0	40	104	0	74	49415
2026-01-05 02:33:39.04	5.12	5.56	-51.1	-74.2	3.8	7.46e-01	0	40	104	0	74	49779
2026-01-05 02:33:40.04	5.05	5.62	-51.2	-74.3	3.8	7.48e-01	0	40	104	0	74	49946
2026-01-05 02:33:41.05	4.97	5.69	-51.1	-74.3	3.8	7.42e-01	0	40	104	0	74	49944
2026-01-05 02:33:42.05	4.89	5.76	-51.1	-74.3	3.8	7.43e-01	0	41	104	0	74	50184
2026-01-05 02:33:43.05	4.81	5.83	-51.1	-74.3	3.8	7.46e-01	0	41	104	0	74	50316
2026-01-05 02:33:44.06	4.73	5.90	-51.1	-74.3	3.8	7.45e-01	0	40	104	0	74	50304
2026-01-05 02:33:45.06	4.65	5.97	-51.1	-74.3	3.8	7.45e-01	0	40	104	0	74	50050
2026-01-05 02:33:46.07	4.57	6.04	-51.0	-74.2	3.8	7.46e-01	0	41	104	0	74	49514
2026-01-05 02:33:47.07	4.49	6.11	-51.1	-74.1	3.8	7.44e-01	0	41	104	0	74	48756
2026-01-05 02:33:48.08	4.41	6.18	-51.1	-74.0	3.8	7.47e-01	0	41	104	0	74	48210
2026-01-05 02:33:49.08	4.33	6.25	-51.1	-73.9	3.8	7.43e-01	0	41	104	0	74	47696
2026-01-05 02:33:50.09	4.25	6.32	-51.1	-73.8	3.8	7.46e-01	0	41	104	0	74	47516
2026-01-05 02:33:51.09	4.16	6.39	-51.0	-73.9	3.8	7.42e-01	0	41	104	0	74	47788
2026-01-05 02:33:52.09	4.08	6.46	-51.1	-74.0	3.8	7.45e-01	0	41	104	0	74	48349
2026-01-05 02:33:53.10	4.00	6.53	-51.1	-74.1	3.8	7.47e-01	0	41	104	0	74	48866
2026-01-05 02:33:54.10	3.91	6.60	-51.1	-74.0	3.8	7.49e-01	0	41	104	0	74	48689
2026-01-05 02:33:55.11	3.83	6.68	-51.1	-73.9	3.8	7.45e-01	0	41	104	0	74	48105
2026-01-05 02:33:56.11	3.75	6.75	-51.1	-73.7	3.8	7.47e-01	0	41	104	0	74	46906
2026-01-05 02:33:57.11	3.66	6.82	-51.1	-73.6	3.8	7.47e-01	0	41	104	0	74	46447
2026-01-05 02:33:58.12	3.57	6.89	-51.1	-73.6	3.8	7.44e-01	0	41	104	0	74	46382
2026-01-05 02:33:59.12	3.49	6.96	-51.1	-73.7	3.8	7.45e-01	0	41	104	0	74	46788
2026-01-05 02:34:00.12	3.40	7.03	-51.1	-73.9	3.8	7.48e-01	0	41	104	0	74	47706
2026-01-05 02:34:01.13	3.32	7.11	-51.1	-74.1	3.8	7.45e-01	0	41	104	0	74	48975
2026-01-05 02:34:02.13	3.23	7.18	-51.1	-74.3	3.8	7.47e-01	0	41	104	0	74	49871
2026-01-05 02:34:03.14	3.14	7.25	-51.1	-74.3	3.8	7.46e-01	0	41	104	0	74	50275
2026-01-05 02:34:04.14	3.05	7.32	-51.1	-74.2	3.8	7.48e-01	0	41	104	0	74	49710
2026-01-05 02:34:05.14	2.96	7.40	-51.1	-74.0	3.8	7.48e-01	0	41	104	0	74	48213
2026-01-05 02:34:06.15	2.87	7.47	-50.9	-73.5	3.8	7.48e-01	0	41	104	0	73	48574
2026-01-05 02:34:07.15	2.78	7.54	-50.9	-72.8	3.8	7.44e-01	0	41	104	0	73	44891
2026-01-05 02:34:08.16	2.69	7.62	-50.9	-71.8	3.9	7.40e-01	0	41	104	0	73	39713
2026-01-05 02:34:09.16	2.60	7.69	-50.9	-70.7	3.9	7.40e-01	0	41	104	0	73	35199
2026-01-05 02:34:10.16	2.51	7.76	-50.9	-69.5	4.7	7.18e-01	0	41	104	0	73	30651
2026-01-05 02:34:11.16	2.42	7.84	-50.9	-69.1	4.9	7.13e-01	0	41	104	0	73	29300
2026-01-05 02:34:12.17	2.32	7.91	-51.0	-70.0	3.9	7.40e-01	0	41	104	0	73	32182
2026-01-05 02:34:13.17	2.23	7.98	-50.9	-70.3	4.0	7.38e-01	0	41	104	0	73	33349
2026-01-05 02:34:14.17	2.14	8.06	-50.9	-70.9	4.1	7.46e-01	0	41	104	0	73	35950
2026-01-05 02:34:15.18	2.04	8.13	-50.9	-70.5	4.3	7.29e-01	0	41	104	0	73	34444
2026-01-05 02:34:16.18	1.95	8.21	-50.9	-69.6	4.6	7.21e-01	0	41	104	0	73	30892
2026-01-05 02:34:17.18	1.85	8.28	-50.8	-67.8	5.7	6.93e-01	0	42	0	0	73	25032
2026-01-05 02:34:18.19	1.76	8.36	-50.8	-66.1	7.0	6.62e-01	0	42	0	1572864	73	20775
2026-01-05 02:34:19.20	1.66	8.43	-50.6	-64.5	8.7	6.35e-01	0	42	0	3670016	73	17184
2026-01-05 02:34:20.20	1.56	8.51	-50.6	-63.0	10.2	6.18e-01	0	41	0	5242880	73	14482
2026-01-05 02:34:21.20	1.47	8.58	-50.4	-61.4	11.8	6.11e-01	0	41	0	7340032	72	12767
2026-01-05 02:34:22.21	1.37	8.66	-50.2	-60.1	13.2	6.07e-01	0	42	0	9437184	72	10979
2026-01-05 02:34:23.21	1.27	8.74	-50.0	-58.9	14.4	6.05e-01	0	42	0	11010048	72	9558
2026-01-05 02:34:24.21	1.17	8.81	-49.9	-58.1	15.3	6.05e-01	0	42	0	13107200	71	9270
2026-01-05 02:34:25.21	1.07	8.89	-49.7	-57.4	15.9	6.02e-01	0	42	0	15204352	71	8535
2026-01-05 02:34:26.21	0.97	8.96	-49.7	-57.2	16.2	6.03e-01	0	42	0	16777216	71	8289
2026-01-05 02:34:27.22	0.87	9.04	-49.8	-57.3	16.2	6.04e-01	0	42	0	18874368	71	8384
2026-01-05 02:34:28.39	0.75	9.13	-51.0	-63.0	10.6	6.19e-01	0	42	0	20971520	72	15342
2026-01-05 02:34:29.30	0.66	9.20	-51.6	-65.3	7.2	6.49e-01	0	42	0	22544384	74	17798
2026-01-05 02:34:30.48	0.54	9.29	-48.9	-54.0	19.9	6.04e-01	0	42	0	24641536	68	6875
2026-01-05 02:34:31.37	0.44	9.36	-51.1	-61.8	11.5	6.12e-01	0	42	0	26214400	73	12616
2026-01-05 02:34:32.42	0.33	9.44	-50.8	-62.0	11.1	6.12e-01	0	42	0	28311552	73	12906
2026-01-05 02:34:33.31	0.24	9.51	-51.1	-61.6	11.5	6.13e-01	0	42	0	29884416	73	12326
2026-01-05 02:34:34.46	0.12	9.60	-50.5	-59.0	14.4	6.05e-01	0	42	0	31981568	72	9655
2026-01-05 02:34:35.32	0.03	9.67	-50.1	-57.0	16.3	6.05e-01	0	42	0	34078720	72	7677
2026-01-05 02:34:36.46	359.91	9.75	-49.9	-55.4	18.0	6.05e-01	0	42	0	36175872	71	6797
2026-01-05 02:34:37.32	359.82	9.82	-50.1	-55.7	17.8	6.03e-01	0	42	0	37748736	71	7031
2026-01-05 02:34:38.46	359.69	9.91	-50.0	-55.3	17.9	6.02e-01	0	42	0	39845888	71	6647
2026-01-05 02:34:39.32	359.60	9.98	-49.3	-53.9	19.5	6.02e-01	0	42	0	41418752	70	6029
2026-01-05 02:34:40.47	359.47	10.07	-49.0	-53.3	19.9	6.06e-01	0	42	0	43515904	69	5992
2026-01-05 02:34:41.33	359.38	10.14	-49.1	-53.6	19.8	6.03e-01	0	42	0	45088768	69	6136
2026-01-05 02:34:42.48	359.25	10.23	-48.5	-52.3	21.0	6.04e-01	0	42	0	47185920	69	5303
2026-01-05 02:34:43.34	359.16	10.30	-48.7	-52.6	20.7	6.03e-01	0	42	0	48758784	69	5478
2026-01-05 02:34:44.48	359.03	10.39	-48.7	-52.3	20.9	6.04e-01	0	42	0	50855936	68	5642
2026-01-05 02:34:45.34	358.93	10.46	-48.2	-51.7	21.6	6.04e-01	0	42	0	52428800	68	5241
2026-01-05 02:34:46.48	358.81	10.55	-47.7	-51.0	22.1	6.03e-01	0	42	0	54525952	67	5107
2026-01-05 02:34:47.34	358.71	10.62	-47.5	-50.7	22.3	6.06e-01	0	42	0	56098816	66	5261
2026-01-05 02:34:48.49	358.58	10.71	-47.3	-50.8	22.3	6.07e-01	0	42	0	58720256	66	5300
2026-01-05 02:34:49.35	358.48	10.78	-47.1	-50.5	22.6	6.03e-01	0	42	0	60293120	66	5120
2026-01-05 02:34:50.49	358.35	10.87	-47.0	-50.3	22.7	6.03e-01	0	42	0	62390272	65	5318
2026-01-05 02:34:51.35	358.24	10.94	-47.0	-50.4	22.7	6.04e-01	0	42	0	63963136	65	5356
2026-01-05 02:34:52.49	358.11	11.03	-47.0	-50.3	22.6	6.02e-01	0	42	0	66060288	65	5339
2026-01-05 02:34:53.35	358.01	11.10	-46.9	-50.2	22.8	6.05e-01	0	42	0	67633152	65	5236
2026-01-05 02:34:54.50	357.87	11.19	-46.9	-50.1	22.9	6.03e-01	0	42	0	69730304	65	5213
2026-01-05 02:34:55.36	357.77	11.26	-46.9	-50.2	22.9	6.03e-01	0	42	0	71303168	65	5228
2026-01-05 02:34:56.50	357.63	11.36	-46.8	-50.1	23.0	6.04e-01	0	42	0	73400320	65	5182
2026-01-05 02:34:57.36	357.53	11.43	-46.8	-50.1	23.0	6.02e-01	0	42	0	74973184	65	5160
2026-01-05 02:34:58.59	357.38	11.53	-46.8	-50.0	22.9	6.02e-01	0	42	0	77594624	65	5150
2026-01-05 02:34:59.44	357.28	11.60	-46.7	-50.0	23.0	6.02e-01	0	42	0	79167488	65	5135
2026-01-05 02:35:00.59	357.13	11.69	-46.7	-50.0	23.1	6.05e-01	0	42	0	81264640	65	5127
2026-01-05 02:35:01.45	357.03	11.76	-46.7	-50.0	23.1	6.02e-01	0	42	0	82837504	65	5111
2026-01-05 02:35:02.59	356.88	11.86	-46.7	-50.0	23.0	6.03e-01	0	42	0	84934656	65	5135
2026-01-05 02:35:03.45	356.78	11.93	-46.7	-50.0	23.0	6.04e-01	0	42	0	86507520	65	5146
2026-01-05 02:35:04.59	356.63	12.03	-46.5	-49.8	23.2	6.03e-01	0	42	0	88604672	65	5014
2026-01-05 02:35:05.45	356.52	12.10	-46.6	-50.0	23.1	6.03e-01	0	42	0	90177536	65	5118
2026-01-05 02:35:06.60	356.38	12.19	-46.5	-49.9	23.1	6.03e-01	0	42	0	92274688	64	5370
2026-01-05 02:35:07.46	356.27	12.26	-46.4	-49.9	23.2	6.06e-01	0	42	0	93847552	64	5380
2026-01-05 02:35:08.60	356.12	12.36	-46.4	-50.1	23.0	6.04e-01	0	42	0	95944704	64	5481
2026-01-05 02:35:09.46	356.01	12.43	-46.3	-50.0	23.0	6.04e-01	0	42	0	98041856	64	5403
2026-01-05 02:35:10.61	355.85	12.53	-46.3	-50.0	23.1	6.01e-01	0	42	0	100139008	64	5425
2026-01-05 02:35:11.46	355.74	12.60	-46.2	-49.8	23.2	6.04e-01	0	42	0	101711872	64	5314
2026-01-05 02:35:12.61	355.59	12.70	-46.3	-49.9	23.2	6.03e-01	0	42	0	103809024	64	5368
2026-01-05 02:35:13.80	355.43	12.80	-46.3	-49.9	23.2	6.03e-01	0	42	0	105906176	64	5365
2026-01-05 02:35:14.83	355.29	12.89	-46.2	-49.8	23.3	6.06e-01	0	42	0	108003328	64	5305
2026-01-05 02:35:15.83	355.16	12.97	-46.2	-49.8	23.3	6.04e-01	0	42	0	109576192	64	5303
2026-01-05 02:35:16.82	355.02	13.06	-46.5	-49.7	23.3	6.01e-01	0	42	0	111673344	64	5269
2026-01-05 02:35:17.82	354.88	13.14	-46.4	-49.6	23.4	6.04e-01	0	42	0	113770496	64	5215
2026-01-05 02:35:18.83	354.74	13.23	-46.5	-49.8	23.3	6.03e-01	0	42	0	115343360	64	5290
2026-01-05 02:35:19.83	354.60	13.32	-46.6	-49.6	23.4	6.07e-01	0	42	0	117440512	64	5171
2026-01-05 02:35:20.83	354.46	13.40	-46.8	-49.6	23.4	6.06e-01	0	42	0	119013376	64	5193
2026-01-05 02:35:21.83	354.32	13.49	-46.7	-49.5	23.6	6.06e-01	0	42	0	121110528	64	5135
2026-01-05 02:35:22.83	354.18	13.57	-46.8	-49.5	23.5	6.03e-01	0	42	0	122683392	64	5138
2026-01-05 02:35:23.83	354.04	13.66	-46.7	-49.4	23.6	6.05e-01	0	42	0	124780544	64	5072
2026-01-05 02:35:24.83	353.89	13.75	-46.8	-49.5	23.6	6.03e-01	0	42	0	126877696	64	5128
2026-01-05 02:35:25.83	353.75	13.84	-46.8	-49.5	23.6	6.05e-01	0	42	0	128450560	64	5117
2026-01-05 02:35:26.84	353.60	13.92	-46.7	-49.4	23.6	6.05e-01	0	42	0	130547712	64	5071
2026-01-05 02:35:27.84	353.46	14.01	-46.8	-49.5	23.6	6.03e-01	0	42	0	132120576	64	5124
2026-01-05 02:35:28.84	353.31	14.10	-47.0	-49.6	23.5	6.03e-01	0	42	0	134217728	64	5205
2026-01-05 02:35:29.84	353.16	14.19	-46.9	-49.6	23.6	6.04e-01	0	42	0	135790592	64	5165
2026-01-05 02:35:31.01	352.98	14.29	-47.0	-49.7	23.5	6.03e-01	0	43	0	138412032	64	5227
2026-01-05 02:35:31.87	352.85	14.36	-47.0	-49.8	23.3	6.03e-01	0	42	0	139984896	64	5324
2026-01-05 02:35:33.02	352.68	14.47	-46.8	-49.6	23.5	6.03e-01	0	42	0	142082048	64	5206
2026-01-05 02:35:33.88	352.55	14.54	-46.8	-49.6	23.5	6.04e-01	0	42	0	143654912	64	5209
2026-01-05 02:35:35.02	352.37	14.64	-46.7	-49.6	23.5	6.05e-01	0	42	0	145752064	64	5181
2026-01-05 02:35:35.88	352.24	14.72	-46.7	-49.6	23.5	6.04e-01	0	43	0	147324928	64	5190
2026-01-05 02:35:37.03	352.06	14.82	-46.5	-49.5	23.6	6.05e-01	0	43	0	149422080	64	5112
2026-01-05 02:35:37.89	351.93	14.90	-46.7	-49.5	23.5	6.04e-01	0	42	0	150994944	64	5142
2026-01-05 02:35:39.03	351.75	15.00	-46.8	-49.6	23.6	6.03e-01	0	42	0	153092096	64	5171
2026-01-05 02:35:39.89	351.61	15.08	-46.7	-49.4	23.7	6.02e-01	0	42	0	154664960	64	5075
2026-01-05 02:35:41.04	351.43	15.18	-46.8	-49.4	23.6	6.08e-01	0	42	0	157286400	64	5097
2026-01-05 02:35:41.90	351.29	15.26	-46.7	-49.4	23.8	6.04e-01	0	42	0	158859264	64	5058
2026-01-05 02:35:43.09	351.10	15.36	-46.8	-49.5	23.6	6.04e-01	0	43	0	160956416	64	5109
2026-01-05 02:35:43.95	350.96	15.44	-47.0	-49.6	23.5	6.03e-01	0	43	0	162529280	64	5211
2026-01-05 02:35:45.10	350.77	15.54	-46.7	-49.4	23.6	6.04e-01	0	42	0	164626432	64	5047
2026-01-05 02:35:45.96	350.63	15.62	-46.7	-49.4	23.8	6.02e-01	0	42	0	166199296	64	5048
2026-01-05 02:35:47.10	350.44	15.72	-46.6	-49.3	23.8	6.03e-01	0	43	0	168296448	64	5005
2026-01-05 02:35:47.96	350.29	15.80	-46.6	-49.3	23.8	6.05e-01	0	43	0	169869312	64	5031
2026-01-05 02:35:49.11	350.10	15.91	-46.6	-49.4	23.7	6.03e-01	0	42	0	172490752	64	5073
2026-01-05 02:35:49.96	349.96	15.98	-46.5	-49.3	23.8	6.03e-01	0	42	0	174063616	64	5038
2026-01-05 02:35:51.11	349.76	16.09	-46.5	-49.4	23.7	6.04e-01	0	42	0	176160768	64	5069
2026-01-05 02:35:52.15	349.58	16.18	-46.4	-49.4	23.7	6.05e-01	0	43	0	177733632	64	5077
2026-01-05 02:35:53.14	349.41	16.27	-46.3	-49.3	23.8	6.05e-01	0	42	0	179830784	64	5021
2026-01-05 02:35:54.14	349.24	16.36	-46.4	-49.4	23.7	6.02e-01	0	42	0	181403648	64	5059
2026-01-05 02:35:55.15	349.06	16.46	-46.5	-49.5	23.7	6.05e-01	0	42	0	183500800	64	5131
2026-01-05 02:35:56.15	348.88	16.55	-46.5	-49.6	23.5	6.03e-01	0	42	0	185597952	64	5171
2026-01-05 02:35:57.15	348.70	16.64	-46.5	-49.5	23.7	6.04e-01	0	43	0	187170816	64	5111
2026-01-05 02:35:58.44	348.47	16.76	-46.5	-49.4	23.7	6.03e-01	0	43	0	189792256	64	5066
2026-01-05 02:35:59.19	348.34	16.83	-46.5	-49.5	23.7	6.04e-01	0	43	0	190840832	64	5106
2026-01-05 02:36:00.47	348.11	16.94	-46.4	-49.6	23.6	6.03e-01	0	43	0	193462272	64	5161
2026-01-05 02:36:01.18	347.98	17.01	-46.3	-49.4	23.7	6.02e-01	0	43	0	195035136	64	5080
2026-01-05 02:36:02.85	347.67	17.16	-46.0	-49.5	23.7	6.02e-01	0	43	0	198180864	64	5154
2026-01-05 02:36:03.43	347.56	17.22	-46.0	-49.5	23.7	6.04e-01	0	42	0	199229440	63	5452
2026-01-05 02:36:05.06	347.26	17.37	-45.8	-49.5	23.7	6.01e-01	0	42	0	201850880	63	5457
2026-01-05 02:36:05.76	347.13	17.43	-45.7	-49.4	23.8	6.02e-01	0	42	0	203423744	63	5384
2026-01-05 02:36:07.05	346.88	17.55	-45.7	-49.4	23.8	6.03e-01	0	42	0	206045184	63	5358
2026-01-05 02:36:07.80	346.74	17.62	-46.0	-49.4	23.8	6.04e-01	0	43	0	207093760	63	5401
2026-01-05 02:36:09.09	346.49	17.74	-46.2	-49.4	23.8	6.05e-01	0	43	0	209715200	63	5384
2026-01-05 02:36:10.06	346.30	17.83	-46.4	-49.4	23.8	6.04e-01	0	42	0	211288064	63	5393
2026-01-05 02:36:11.38	346.05	17.95	-46.6	-49.4	23.8	6.05e-01	0	42	0	213909504	63	5393
2026-01-05 02:36:12.10	345.90	18.02	-46.6	-49.3	23.8	6.02e-01	0	42	0	215482368	64	5036
2026-01-05 02:36:13.74	345.58	18.17	-46.7	-49.4	23.8	6.02e-01	0	43	0	218103808	64	5048
2026-01-05 02:36:14.32	345.47	18.23	-46.7	-49.4	23.7	6.04e-01	0	43	0	219676672	64	5097
2026-01-05 02:36:15.89	345.15	18.37	-46.3	-49.4	23.8	6.06e-01	0	43	0	222298112	64	5076
2026-01-05 02:36:16.51	345.02	18.43	-46.3	-49.5	23.7	6.03e-01	0	42	0	223870976	64	5118
2026-01-05 02:36:18.09	344.70	18.58	-46.2	-49.3	23.9	6.05e-01	0	43	0	226492416	64	5020
2026-01-05 02:36:18.66	344.59	18.63	-46.3	-49.3	23.8	6.04e-01	0	43	0	227540992	64	5032
2026-01-05 02:36:20.24	344.26	18.78	-46.6	-49.3	23.9	6.04e-01	0	43	0	230686720	64	5016
2026-01-05 02:36:20.87	344.13	18.84	-46.7	-49.4	23.8	6.04e-01	0	42	0	231735296	64	5060
2026-01-05 02:36:22.30	343.83	18.97	-46.7	-49.3	23.8	6.02e-01	0	43	0	234356736	64	5039
2026-01-05 02:36:23.02	343.68	19.04	-46.7	-49.3	23.9	6.04e-01	0	43	0	235929600	64	5023
2026-01-05 02:36:24.31	343.40	19.16	-46.6	-49.3	23.9	6.05e-01	0	43	0	238026752	64	5002
2026-01-05 02:36:25.03	343.25	19.22	-46.6	-49.4	23.8	6.04e-01	0	42	0	239599616	64	5052
2026-01-05 02:36:26.31	342.97	19.34	-46.6	-49.3	23.8	6.03e-01	0	42	0	242221056	64	5039
2026-01-05 02:36:27.20	342.78	19.43	-46.5	-49.3	23.9	6.05e-01	0	43	0	243793920	64	5013
2026-01-05 02:36:28.35	342.53	19.53	-46.7	-49.4	23.8	6.08e-01	0	43	0	245891072	64	5056
2026-01-05 02:36:29.41	342.30	19.63	-46.9	-49.5	23.7	6.04e-01	0	43	0	247988224	64	5113
2026-01-05 02:36:30.45	342.07	19.73	-47.0	-49.5	23.7	6.04e-01	0	42	0	249561088	64	5152
2026-01-05 02:36:31.45	341.85	19.82	-47.0	-49.6	23.7	6.02e-01	0	43	0	251658240	64	5182
2026-01-05 02:36:32.45	341.62	19.91	-47.1	-49.7	23.6	6.04e-01	0	43	0	253231104	64	5221
2026-01-05 02:36:33.45	341.40	20.01	-47.0	-49.6	23.6	6.03e-01	0	43	0	255328256	64	5198
2026-01-05 02:36:34.45	341.17	20.10	-46.9	-49.6	23.6	6.02e-01	0	43	0	257425408	64	5179
2026-01-05 02:36:35.45	340.94	20.19	-46.7	-49.6	23.6	6.03e-01	0	42	0	258998272	64	5168
2026-01-05 02:36:36.45	340.71	20.28	-46.6	-49.5	23.7	6.04e-01	0	43	0	261095424	64	5132
2026-01-05 02:36:37.45	340.48	20.38	-46.5	-49.4	23.8	6.06e-01	0	43	0	262668288	64	5073
2026-01-05 02:36:38.45	340.25	20.47	-46.6	-49.4	23.8	6.04e-01	0	42	0	264765440	64	5051
2026-01-05 02:36:39.46	340.01	20.56	-46.8	-49.5	23.8	6.04e-01	0	42	0	266862592	64	5105
2026-01-05 02:36:40.46	339.77	20.65	-46.9	-49.5	23.7	6.06e-01	0	43	0	268435456	64	5128
2026-01-05 02:36:41.47	339.53	20.75	-47.0	-49.6	23.7	6.00e-01	0	43	0	270532608	64	5195
2026-01-05 02:36:42.47	339.30	20.84	-46.9	-49.5	23.7	6.04e-01	0	42	0	272105472	64	5155
2026-01-05 02:36:43.47	339.06	20.93	-46.5	-49.5	23.7	6.00e-01	0	43	0	274202624	64	5117
2026-01-05 02:36:44.47	338.81	21.02	-46.3	-49.5	23.8	6.05e-01	0	43	0	275775488	64	5110
2026-01-05 02:36:45.47	338.57	21.11	-46.1	-49.5	23.7	6.04e-01	0	43	0	277872640	64	5133
2026-01-05 02:36:46.48	338.32	21.21	-46.1	-49.5	23.7	6.02e-01	0	42	0	279969792	64	5105
2026-01-05 02:36:47.48	338.08	21.30	-46.2	-49.5	23.7	6.03e-01	0	43	0	281542656	64	5118
2026-01-05 02:36:48.48	337.83	21.39	-46.5	-49.6	23.6	6.06e-01	0	43	0	283639808	64	5217
2026-01-05 02:36:49.49	337.57	21.48	-46.7	-49.8	23.4	6.03e-01	0	42	0	285212672	64	5323
2026-01-05 02:36:50.49	337.32	21.57	-46.8	-49.8	23.4	6.03e-01	0	43	0	287309824	64	5329
2026-01-05 02:36:51.49	337.07	21.66	-46.7	-49.8	23.4	6.04e-01	0	42	0	288882688	64	5295
2026-01-05 02:36:52.49	336.82	21.75	-46.5	-49.6	23.6	6.02e-01	0	43	0	290979840	64	5173
2026-01-05 02:36:53.49	336.56	21.84	-46.4	-49.5	23.7	6.04e-01	0	43	0	293076992	64	5105
2026-01-05 02:36:54.49	336.30	21.93	-46.4	-49.5	23.7	6.05e-01	0	43	0	294649856	64	5101
2026-01-05 02:36:55.49	336.04	22.02	-46.5	-49.6	23.7	6.04e-01	0	43	0	296747008	64	5167
2026-01-05 02:36:56.50	335.78	22.11	-46.7	-49.7	23.5	6.06e-01	0	43	0	298319872	64	5222
2026-01-05 02:36:57.50	335.52	22.20	-46.8	-49.7	23.5	6.05e-01	0	43	0	300417024	64	5250
2026-01-05 02:36:58.50	335.25	22.29	-46.9	-49.7	23.6	6.04e-01	0	43	0	302514176	64	5237
2026-01-05 02:36:59.50	334.99	22.37	-46.9	-49.7	23.5	6.04e-01	0	43	0	304087040	64	5225
2026-01-05 02:37:00.51	334.72	22.46	-46.9	-49.6	23.7	6.03e-01	0	43	0	306184192	64	5167
2026-01-05 02:37:01.51	334.45	22.55	-47.0	-49.6	23.6	6.03e-01	0	43	0	307757056	64	5174
2026-01-05 02:37:02.51	334.18	22.64	-47.0	-49.6	23.7	6.02e-01	0	43	0	309854208	64	5172
2026-01-05 02:37:03.52	333.90	22.73	-46.9	-49.6	23.6	6.04e-01	0	43	0	311951360	64	5172
2026-01-05 02:37:04.52	333.63	22.81	-47.1	-49.8	23.5	6.05e-01	0	43	0	313524224	64	5293
2026-01-05 02:37:05.52	333.35	22.90	-47.0	-49.8	23.4	6.02e-01	0	43	0	315621376	64	5305
2026-01-05 02:37:06.52	333.08	22.98	-46.8	-49.7	23.6	6.02e-01	0	42	0	317194240	64	5230
2026-01-05 02:37:07.53	332.80	23.07	-46.7	-49.6	23.6	6.03e-01	0	43	0	319291392	64	5178
2026-01-05 02:37:08.53	332.52	23.16	-46.6	-49.6	23.6	6.05e-01	0	43	0	320864256	64	5169
2026-01-05 02:37:09.54	332.23	23.24	-46.5	-49.5	23.6	6.04e-01	0	43	0	322961408	64	5156
2026-01-05 02:37:10.54	331.95	23.33	-46.7	-49.7	23.5	6.02e-01	0	43	0	325058560	64	5254
2026-01-05 02:37:11.54	331.66	23.41	-46.9	-49.7	23.5	6.03e-01	0	43	0	326631424	64	5256
2026-01-05 02:37:12.54	331.38	23.49	-47.1	-49.8	23.5	6.04e-01	0	43	0	328728576	64	5332
2026-01-05 02:37:13.54	331.09	23.58	-47.0	-49.7	23.6	6.05e-01	0	43	0	330301440	64	5257
2026-01-05 02:37:14.54	330.80	23.66	-47.0	-49.6	23.6	6.05e-01	0	43	0	332398592	64	5196
2026-01-05 02:37:15.55	330.50	23.74	-47.0	-49.6	23.7	6.03e-01	0	43	0	334495744	64	5187
2026-01-05 02:37:16.55	330.21	23.82	-47.0	-49.6	23.7	6.03e-01	0	43	0	336068608	64	5175
2026-01-05 02:37:17.55	329.92	23.90	-47.2	-49.8	23.5	6.04e-01	0	43	0	338165760	65	5023
2026-01-05 02:37:18.56	329.62	23.98	-47.1	-49.8	23.5	6.03e-01	0	42	0	339738624	65	5002
2026-01-05 02:37:19.56	329.32	24.06	-47.2	-49.8	23.5	6.02e-01	0	43	0	341835776	65	5036
2026-01-05 02:37:20.56	329.02	24.14	-47.0	-49.7	23.5	6.02e-01	0	43	0	343932928	65	4962
2026-01-05 02:37:21.56	328.72	24.22	-46.8	-49.6	23.6	6.05e-01	0	43	0	345505792	65	4917
2026-01-05 02:37:22.56	328.42	24.30	-46.6	-49.7	23.6	6.03e-01	0	43	0	347602944	65	4942
2026-01-05 02:37:23.56	328.11	24.38	-46.4	-49.6	23.7	6.02e-01	0	43	0	349175808	64	5168
2026-01-05 02:37:24.57	327.80	24.46	-46.5	-49.6	23.6	6.00e-01	0	43	0	351272960	64	5215
2026-01-05 02:37:25.57	327.49	24.53	-46.7	-49.7	23.5	6.01e-01	0	43	0	352845824	64	5268
2026-01-05 02:37:26.57	327.19	24.61	-46.8	-49.8	23.5	6.03e-01	0	43	0	354942976	64	5302
2026-01-05 02:37:27.58	326.87	24.68	-47.1	-49.9	23.4	6.03e-01	0	43	0	357040128	64	5362
2026-01-05 02:37:28.58	326.56	24.76	-47.0	-49.7	23.5	6.05e-01	0	43	0	358612992	64	5231
2026-01-05 02:37:29.58	326.25	24.83	-47.0	-49.6	23.6	6.03e-01	0	43	0	360710144	64	5216
2026-01-05 02:37:30.58	325.93	24.90	-47.0	-49.7	23.6	6.04e-01	0	43	0	362283008	64	5229
2026-01-05 02:37:31.97	325.49	25.00	-47.0	-49.6	23.7	6.04e-01	0	42	0	364904448	64	5208
2026-01-05 02:37:32.71	325.25	25.06	-47.0	-49.8	23.5	6.03e-01	0	43	0	366477312	64	5290
2026-01-05 02:37:34.00	324.84	25.15	-46.9	-49.8	23.4	6.05e-01	0	43	0	368574464	64	5329
2026-01-05 02:37:34.71	324.61	25.20	-46.9	-49.9	23.4	6.04e-01	0	43	0	370147328	64	5375
2026-01-05 02:37:36.00	324.20	25.29	-46.6	-49.6	23.7	6.00e-01	0	43	0	372768768	64	5163
2026-01-05 02:37:36.71	323.96	25.34	-46.5	-49.5	23.8	6.05e-01	0	42	0	373817344	64	5115
2026-01-05 02:37:38.00	323.54	25.42	-46.7	-49.6	23.7	6.05e-01	0	43	0	376438784	64	5173
2026-01-05 02:37:38.71	323.31	25.47	-46.8	-49.6	23.6	6.04e-01	0	43	0	377487360	64	5204
2026-01-05 02:37:40.00	322.89	25.56	-46.8	-49.6	23.7	6.02e-01	0	43	0	380108800	64	5197
2026-01-05 02:37:40.72	322.65	25.60	-46.8	-49.6	23.7	6.02e-01	0	43	0	381681664	64	5208
2026-01-05 02:37:42.01	322.22	25.69	-46.8	-49.7	23.6	6.03e-01	0	43	0	383778816	64	5235
2026-01-05 02:37:42.72	321.98	25.73	-46.8	-49.7	23.6	6.04e-01	0	43	0	385351680	64	5230
2026-01-05 02:37:44.01	321.55	25.81	-46.8	-49.6	23.7	6.02e-01	0	43	0	387448832	64	5167
2026-01-05 02:37:44.73	321.31	25.86	-46.8	-49.6	23.7	6.04e-01	0	43	0	389021696	64	5182
2026-01-05 02:37:46.02	320.87	25.93	-46.7	-49.5	23.8	6.04e-01	0	43	0	391643136	64	5102
2026-01-05 02:37:46.74	320.63	25.98	-46.9	-49.7	23.6	6.03e-01	0	43	0	392691712	64	5258
2026-01-05 02:37:48.03	320.19	26.05	-46.9	-49.7	23.6	6.02e-01	0	43	0	395313152	64	5259
2026-01-05 02:37:48.75	319.94	26.10	-46.8	-49.7	23.5	6.05e-01	0	42	0	396361728	64	5269
2026-01-05 02:37:50.04	319.50	26.17	-46.7	-49.7	23.6	6.05e-01	0	43	0	398983168	64	5227
2026-01-05 02:37:50.75	319.26	26.21	-46.5	-49.4	23.7	6.02e-01	0	43	0	400031744	64	5098
2026-01-05 02:37:52.05	318.81	26.28	-46.6	-49.5	23.7	6.04e-01	0	43	0	402653184	64	5139
2026-01-05 02:37:52.76	318.56	26.32	-46.6	-49.5	23.8	6.04e-01	0	43	0	404226048	64	5140
2026-01-05 02:37:54.05	318.11	26.39	-46.7	-49.7	23.6	6.05e-01	0	43	0	406323200	64	5219
2026-01-05 02:37:54.76	317.86	26.42	-46.6	-49.4	23.8	6.01e-01	0	43	0	407896064	64	5099
2026-01-05 02:37:56.05	317.41	26.49	-46.7	-49.4	23.8	6.05e-01	0	43	0	409993216	64	5080
2026-01-05 02:37:56.76	317.16	26.53	-46.9	-49.5	23.8	6.05e-01	0	43	0	411566080	64	5136
2026-01-05 02:37:58.05	316.71	26.59	-47.0	-49.6	23.6	6.05e-01	0	43	0	413663232	64	5205
2026-01-05 02:37:58.77	316.45	26.62	-47.1	-49.8	23.5	6.04e-01	0	43	0	415236096	64	5281
2026-01-05 02:38:00.05	316.00	26.68	-46.8	-49.3	23.9	6.04e-01	0	43	0	417857536	64	5041
2026-01-05 02:38:00.77	315.74	26.72	-46.9	-49.6	23.7	6.06e-01	0	42	0	418906112	64	5164
2026-01-05 02:38:02.05	315.28	26.77	-46.8	-49.5	23.8	6.04e-01	0	43	0	421527552	64	5143
2026-01-05 02:38:02.77	315.03	26.80	-46.9	-49.6	23.6	6.04e-01	0	43	0	422576128	64	5215
2026-01-05 02:38:04.19	314.52	26.86	-46.8	-49.8	23.5	6.05e-01	0	43	0	425197568	64	5296
2026-01-05 02:38:05.17	314.16	26.90	-46.6	-49.6	23.6	6.02e-01	0	43	0	427294720	64	5200
2026-01-05 02:38:06.49	313.68	26.96	-46.6	-49.7	23.6	6.00e-01	0	43	0	429916160	64	5219
2026-01-05 02:38:07.27	313.40	26.99	-46.8	-49.8	23.4	6.03e-01	0	43	0	431489024	64	5333
2026-01-05 02:38:08.55	312.94	27.03	-46.7	-49.4	23.9	6.04e-01	0	43	0	433586176	64	5072
2026-01-05 02:38:09.29	312.67	27.06	-46.8	-49.5	23.8	6.04e-01	0	43	0	435159040	64	5103
2026-01-05 02:38:10.58	312.19	27.11	-47.3	-50.0	23.3	6.04e-01	0	43	0	437256192	65	5111
2026-01-05 02:38:11.30	311.93	27.13	-46.9	-49.4	23.9	6.05e-01	0	43	0	438829056	65	4779
2026-01-05 02:38:12.59	311.46	27.17	-46.9	-49.4	23.8	6.04e-01	0	43	0	441450496	65	4787
2026-01-05 02:38:13.47	311.13	27.20	-47.0	-49.6	23.7	6.03e-01	0	43	0	443023360	65	4902
2026-01-05 02:38:14.61	310.71	27.23	-46.8	-49.4	23.9	6.02e-01	0	43	0	445120512	65	4763
2026-01-05 02:38:15.66	310.33	27.26	-47.3	-49.9	23.3	6.04e-01	0	43	0	447217664	65	5086
2026-01-05 02:38:16.52	310.01	27.29	-46.8	-49.4	23.9	6.04e-01	0	43	0	448790528	65	4762
2026-01-05 02:38:17.67	309.58	27.32	-46.7	-49.2	24.0	6.03e-01	0	43	0	450887680	65	4681
2026-01-05 02:38:18.53	309.26	27.34	-47.4	-50.2	23.2	6.04e-01	0	43	0	452460544	65	5237
2026-01-05 02:38:19.68	308.83	27.36	-46.6	-49.1	24.0	6.04e-01	0	43	0	454557696	64	4907
2026-01-05 02:38:20.54	308.51	27.38	-47.0	-49.6	23.6	6.04e-01	0	43	0	456130560	65	4872
2026-01-05 02:38:21.68	308.09	27.41	-47.6	-50.3	23.0	6.03e-01	0	43	0	458227712	65	5333
2026-01-05 02:38:22.54	307.77	27.42	-46.4	-48.8	24.3	6.02e-01	0	43	0	459800576	64	4740
2026-01-05 02:38:23.68	307.34	27.45	-47.1	-49.7	23.4	6.04e-01	0	43	0	461897728	65	4953
2026-01-05 02:38:24.54	307.02	27.46	-47.1	-49.6	23.6	6.03e-01	0	43	0	463470592	65	4925
2026-01-05 02:38:25.68	306.59	27.48	-46.6	-49.0	24.1	6.04e-01	0	42	0	465567744	65	4553
2026-01-05 02:38:26.60	306.25	27.49	-47.3	-49.9	23.3	6.03e-01	0	43	0	467664896	65	5090
2026-01-05 02:38:27.78	305.80	27.51	-46.8	-49.3	23.9	6.05e-01	0	43	0	469762048	65	4744
2026-01-05 02:38:28.64	305.48	27.52	-47.7	-50.5	23.0	6.05e-01	0	43	0	471334912	66	5101
2026-01-05 02:38:29.99	304.97	27.53	-47.7	-50.4	22.9	6.05e-01	0	43	0	473956352	65	5374
2026-01-05 02:38:30.70	304.70	27.54	-46.7	-49.2	23.8	6.01e-01	0	43	0	475004928	65	4659
2026-01-05 02:38:31.99	304.22	27.55	-47.7	-50.4	22.8	6.04e-01	0	43	0	477626368	66	5095
2026-01-05 02:38:32.71	303.95	27.55	-46.5	-48.9	24.2	6.04e-01	0	43	0	479199232	64	4794
2026-01-05 02:38:34.26	303.36	27.56	-47.3	-49.9	23.3	6.05e-01	0	43	0	481820672	65	5100
2026-01-05 02:38:34.97	303.09	27.56	-47.2	-49.8	23.5	6.02e-01	0	43	0	483393536	65	5021
2026-01-05 02:38:36.26	302.61	27.56	-46.3	-48.7	24.2	6.04e-01	0	43	0	485490688	64	4680
2026-01-05 02:38:36.98	302.34	27.56	-47.5	-50.3	23.0	6.02e-01	0	43	0	487063552	65	5280
2026-01-05 02:38:38.27	301.85	27.56	-46.9	-49.4	23.7	6.02e-01	0	43	0	489160704	65	4791
2026-01-05 02:38:38.98	301.58	27.56	-48.4	-51.4	21.9	6.04e-01	0	43	0	490733568	67	5378
2026-01-05 02:38:40.27	301.09	27.56	-47.7	-50.4	22.9	6.04e-01	0	43	0	493355008	66	5094
2026-01-05 02:38:41.02	300.81	27.55	-47.8	-50.6	22.8	6.06e-01	0	43	0	494403584	66	5170
2026-01-05 02:38:42.30	300.33	27.54	-47.3	-50.0	23.3	6.05e-01	0	43	0	497025024	66	4844
2026-01-05 02:38:43.02	300.06	27.54	-47.8	-50.7	22.7	6.04e-01	0	43	0	498073600	66	5235
2026-01-05 02:38:44.30	299.58	27.53	-47.5	-50.3	23.0	6.05e-01	0	43	0	500695040	65	5318
2026-01-05 02:38:45.02	299.30	27.52	-47.2	-49.9	23.3	6.03e-01	0	43	0	502267904	66	4776
2026-01-05 02:38:46.31	298.82	27.51	-47.5	-50.2	23.2	6.04e-01	0	43	0	504365056	66	4948
2026-01-05 02:38:47.03	298.55	27.50	-47.7	-50.4	23.0	6.02e-01	0	43	0	505937920	66	5099
2026-01-05 02:38:48.32	298.06	27.48	-47.4	-50.0	23.3	6.00e-01	0	43	0	508035072	66	4842
2026-01-05 02:38:49.03	297.80	27.47	-47.7	-50.5	22.8	6.03e-01	0	43	0	509607936	66	5120
2026-01-05 02:38:50.31	297.32	27.45	-47.6	-50.4	23.0	6.04e-01	0	43	0	512229376	65	5344
2026-01-05 02:38:51.03	297.05	27.43	-47.2	-49.8	23.4	6.05e-01	0	43	0	513277952	66	4737
2026-01-05 02:38:52.32	296.57	27.41	-47.6	-50.3	23.0	6.04e-01	0	43	0	515899392	65	5331
2026-01-05 02:38:53.03	296.30	27.39	-47.2	-49.8	23.5	6.06e-01	0	43	0	516947968	65	5018
2026-01-05 02:38:54.31	295.82	27.36	-47.3	-50.0	23.3	6.04e-01	0	43	0	519569408	65	5119
2026-01-05 02:38:55.03	295.56	27.35	-47.6	-50.3	23.0	6.02e-01	0	43	0	520617984	65	5329
2026-01-05 02:38:56.32	295.08	27.32	-47.2	-49.7	23.6	6.05e-01	0	43	0	523239424	65	4966
2026-01-05 02:38:57.04	294.81	27.30	-47.6	-50.3	23.0	6.03e-01	0	43	0	524288000	65	5326
2026-01-05 02:38:58.32	294.33	27.26	-47.2	-49.8	23.5	6.03e-01	0	43	0	526909440	65	4995
2026-01-05 02:38:59.04	294.07	27.24	-47.8	-50.6	22.7	6.04e-01	0	43	0	528482304	66	5218
2026-01-05 02:39:00.33	293.59	27.20	-47.1	-49.6	23.6	6.06e-01	0	43	0	530579456	65	4902
2026-01-05 02:39:01.04	293.33	27.18	-48.0	-50.8	22.6	6.05e-01	0	43	0	532152320	66	5306
2026-01-05 02:39:02.33	292.86	27.14	-47.2	-49.7	23.5	6.01e-01	0	43	0	534249472	66	4690
2026-01-05 02:39:03.04	292.59	27.12	-48.0	-50.8	22.6	6.04e-01	0	43	0	535822336	66	5314
2026-01-05 02:39:04.32	292.13	27.07	-47.2	-49.8	23.4	6.05e-01	0	43	0	538443776	66	4756
2026-01-05 02:39:05.04	291.86	27.05	-47.8	-50.7	22.7	6.04e-01	0	43	0	539492352	66	5256
2026-01-05 02:39:06.33	291.39	27.00	-47.5	-50.2	23.1	6.06e-01	0	43	0	542113792	66	4973
2026-01-05 02:39:07.04	291.13	26.97	-48.1	-51.1	22.3	6.04e-01	0	43	0	543162368	66	5467
2026-01-05 02:39:08.33	290.67	26.92	-47.4	-50.1	23.2	6.05e-01	0	43	0	545783808	66	4883
2026-01-05 02:39:09.07	290.40	26.89	-48.4	-51.4	22.0	6.03e-01	0	43	0	547356672	67	5401
2026-01-05 02:39:10.67	289.82	26.83	-47.9	-50.6	22.8	6.02e-01	0	43	0	549978112	66	5172
2026-01-05 02:39:11.26	289.61	26.80	-48.0	-50.8	22.5	6.03e-01	0	42	0	551026688	67	4999
2026-01-05 02:39:13.06	288.96	26.72	-48.5	-51.4	22.1	6.02e-01	0	43	0	554696704	67	5389
2026-01-05 02:39:13.63	288.76	26.70	-47.9	-50.6	22.6	6.05e-01	0	43	0	555745280	67	4889
2026-01-05 02:39:15.21	288.20	26.62	-48.5	-51.4	22.1	6.04e-01	0	43	0	558366720	67	5361
2026-01-05 02:39:15.82	287.98	26.59	-48.0	-50.7	22.5	6.05e-01	0	43	0	559939584	67	4970
2026-01-05 02:39:17.40	287.42	26.52	-48.1	-50.9	22.5	6.04e-01	0	43	0	562561024	66	5356
2026-01-05 02:39:17.98	287.22	26.49	-48.1	-51.0	22.3	6.04e-01	0	43	0	563609600	67	5103
2026-01-05 02:39:19.55	286.67	26.41	-48.1	-50.8	22.6	6.06e-01	0	43	0	566755328	66	5313
2026-01-05 02:39:20.16	286.45	26.37	-48.5	-51.5	22.0	6.08e-01	0	43	0	567803904	67	5403
2026-01-05 02:39:21.73	285.91	26.29	-48.3	-51.1	22.3	6.03e-01	0	43	0	570949632	67	5202
2026-01-05 02:39:22.35	285.69	26.26	-48.2	-51.1	22.3	6.05e-01	0	43	0	571998208	67	5163
2026-01-05 02:39:23.97	285.13	26.17	-48.0	-50.7	22.7	6.03e-01	0	43	0	575143936	67	4983
2026-01-05 02:39:24.54	284.93	26.13	-48.1	-50.8	22.6	6.03e-01	0	43	0	576192512	67	5040
2026-01-05 02:39:26.18	284.37	26.04	-47.8	-50.5	22.9	6.05e-01	0	43	0	579338240	67	4816
2026-01-05 02:39:26.75	284.18	26.00	-48.3	-51.2	22.3	6.02e-01	0	43	0	580386816	67	5229
2026-01-05 02:39:28.42	283.61	25.90	-47.8	-50.5	22.9	6.03e-01	0	43	0	583532544	67	4823
2026-01-05 02:39:28.99	283.42	25.87	-48.2	-51.0	22.4	6.06e-01	0	43	0	584581120	67	5110
2026-01-05 02:39:30.59	282.88	25.77	-47.8	-50.4	22.9	6.04e-01	0	43	0	587202560	67	4786
2026-01-05 02:39:31.34	282.63	25.72	-47.8	-50.5	22.9	6.04e-01	0	43	0	588775424	67	4817
2026-01-05 02:39:32.63	282.19	25.64	-48.6	-51.5	21.8	6.03e-01	0	43	0	591396864	67	5439
2026-01-05 02:39:33.57	281.88	25.58	-48.2	-51.0	22.4	6.02e-01	0	43	0	592969728	67	5112
2026-01-05 02:39:34.57	281.55	25.51	-48.0	-50.7	22.7	6.05e-01	0	43	0	595066880	67	4938
2026-01-05 02:39:35.57	281.22	25.45	-48.4	-51.2	22.1	6.04e-01	0	43	0	596639744	67	5267
2026-01-05 02:39:36.57	280.89	25.38	-48.3	-51.1	22.2	6.04e-01	0	43	0	598736896	67	5205
2026-01-05 02:39:37.58	280.56	25.31	-47.9	-50.6	22.8	6.03e-01	0	43	0	600834048	67	4911
2026-01-05 02:39:38.58	280.24	25.24	-48.2	-50.9	22.5	6.03e-01	0	43	0	602406912	67	5099
2026-01-05 02:39:39.58	279.91	25.17	-48.2	-51.0	22.4	6.02e-01	0	43	0	604504064	67	5104
2026-01-05 02:39:40.58	279.59	25.10	-48.0	-50.7	22.6	6.04e-01	0	43	0	606076928	67	4962
2026-01-05 02:39:41.58	279.27	25.03	-47.9	-50.6	22.7	6.04e-01	0	42	0	608174080	67	4884
2026-01-05 02:39:42.58	278.95	24.96	-48.0	-50.7	22.7	6.01e-01	0	43	0	609746944	67	4964
2026-01-05 02:39:43.58	278.64	24.89	-48.1	-51.0	22.4	6.03e-01	0	43	0	611844096	67	5104
2026-01-05 02:39:44.58	278.32	24.81	-48.0	-50.9	22.5	6.04e-01	0	43	0	613941248	67	5050
2026-01-05 02:39:45.59	278.00	24.74	-47.7	-50.4	23.0	6.04e-01	0	43	0	615514112	67	4779
2026-01-05 02:39:46.59	277.69	24.66	-47.6	-50.3	23.1	6.02e-01	0	43	0	617611264	67	4723
2026-01-05 02:39:47.86	277.29	24.57	-48.3	-51.2	22.3	6.03e-01	0	43	0	619708416	67	5231
2026-01-05 02:39:48.62	277.06	24.51	-48.2	-51.1	22.3	6.03e-01	0	43	0	621281280	67	5164
2026-01-05 02:39:50.25	276.56	24.38	-48.0	-50.7	22.7	6.03e-01	0	43	0	624427008	67	4967
2026-01-05 02:39:50.82	276.38	24.34	-48.2	-51.0	22.4	6.02e-01	0	43	0	625475584	67	5132
2026-01-05 02:39:52.44	275.89	24.21	-48.1	-51.0	22.4	6.06e-01	0	43	0	628621312	67	5121
2026-01-05 02:39:53.01	275.72	24.17	-47.8	-50.6	22.8	6.04e-01	0	43	0	629669888	67	4873
2026-01-05 02:39:54.60	275.24	24.04	-47.8	-50.6	22.8	6.03e-01	0	43	0	632291328	67	4893
2026-01-05 02:39:55.17	275.07	24.00	-48.0	-50.8	22.6	6.03e-01	0	43	0	633339904	67	5012
2026-01-05 02:39:56.78	274.59	23.87	-48.0	-50.8	22.6	6.02e-01	0	43	0	636485632	67	5029
2026-01-05 02:39:57.37	274.41	23.82	-48.0	-50.8	22.6	6.05e-01	0	43	0	637534208	67	4989
2026-01-05 02:39:58.94	273.95	23.69	-48.1	-50.9	22.4	6.03e-01	0	43	0	640679936	67	5073
2026-01-05 02:39:59.55	273.77	23.64	-47.9	-50.7	22.7	6.04e-01	0	43	0	641728512	67	4941
2026-01-05 02:40:01.12	273.32	23.51	-47.8	-50.5	22.8	6.05e-01	0	43	0	644874240	67	4869
2026-01-05 02:40:01.71	273.15	23.46	-47.7	-50.5	22.8	6.04e-01	0	43	0	645922816	67	4866
2026-01-05 02:40:03.28	272.70	23.33	-47.8	-50.6	22.8	6.05e-01	0	43	0	648544256	67	4900
2026-01-05 02:40:04.08	272.47	23.26	-47.9	-50.7	22.7	6.01e-01	0	43	0	650117120	67	4944
2026-01-05 02:40:05.22	272.15	23.16	-47.9	-50.6	22.8	6.05e-01	0	43	0	652214272	67	4919
2026-01-05 02:40:06.08	271.90	23.09	-47.8	-50.6	22.8	6.04e-01	0	43	0	653787136	67	4878
2026-01-05 02:40:07.22	271.58	22.99	-47.9	-50.6	22.7	6.02e-01	0	43	0	656408576	67	4913
2026-01-05 02:40:08.08	271.34	22.92	-47.9	-50.7	22.7	6.07e-01	0	43	0	657981440	67	4944
2026-01-05 02:40:09.32	271.00	22.81	-47.8	-50.5	22.8	6.04e-01	0	43	0	660078592	67	4848
2026-01-05 02:40:10.17	270.77	22.74	-47.9	-50.6	22.8	6.05e-01	0	43	0	661651456	67	4878
2026-01-05 02:40:11.32	270.45	22.64	-47.9	-50.6	22.8	6.04e-01	0	43	0	663748608	67	4909
2026-01-05 02:40:12.18	270.22	22.56	-47.9	-50.8	22.6	6.05e-01	0	43	0	665321472	67	4984
2026-01-05 02:40:13.32	269.91	22.46	-47.8	-50.5	22.8	6.05e-01	0	43	0	667418624	67	4861
2026-01-05 02:40:14.18	269.68	22.39	-47.7	-50.4	22.9	6.00e-01	0	43	0	668991488	67	4814
2026-01-05 02:40:15.32	269.37	22.28	-47.7	-50.5	22.8	6.05e-01	0	43	0	671612928	67	4864
2026-01-05 02:40:16.31	269.11	22.20	-47.7	-50.5	22.8	6.05e-01	0	43	0	673185792	67	4866
2026-01-05 02:40:17.48	268.80	22.09	-47.7	-50.6	22.8	6.03e-01	0	43	0	675282944	67	4879
2026-01-05 02:40:18.34	268.58	22.02	-47.6	-50.3	23.0	6.01e-01	0	43	0	676855808	67	4758
2026-01-05 02:40:19.49	268.28	21.91	-47.6	-50.4	23.0	6.05e-01	0	43	0	678952960	67	4767
2026-01-05 02:40:20.35	268.06	21.83	-47.8	-50.6	22.8	6.02e-01	0	43	0	680525824	67	4898
2026-01-05 02:40:21.49	267.76	21.73	-47.9	-50.7	22.6	6.04e-01	0	43	0	683147264	67	4964
2026-01-05 02:40:22.35	267.54	21.65	-47.9	-50.8	22.6	6.05e-01	0	43	0	684720128	67	4993
2026-01-05 02:40:23.50	267.25	21.55	-47.7	-50.4	22.9	6.05e-01	0	43	0	686817280	67	4800
2026-01-05 02:40:24.36	267.03	21.47	-47.7	-50.5	22.9	6.02e-01	0	43	0	688390144	67	4820
2026-01-05 02:40:25.50	266.75	21.37	-47.8	-50.6	22.7	6.02e-01	0	43	0	690487296	67	4919
2026-01-05 02:40:26.36	266.53	21.29	-47.7	-50.5	22.8	6.04e-01	0	43	0	692060160	67	4859
2026-01-05 02:40:27.51	266.25	21.18	-47.7	-50.5	22.9	6.04e-01	0	43	0	694157312	67	4822
2026-01-05 02:40:28.37	266.03	21.11	-47.7	-50.6	22.7	6.05e-01	0	43	0	695730176	67	4897
2026-01-05 02:40:29.51	265.76	21.00	-47.7	-50.5	22.8	6.04e-01	0	43	0	697827328	67	4870
2026-01-05 02:40:30.37	265.55	20.92	-47.7	-50.6	22.7	6.04e-01	0	43	0	699400192	67	4917
2026-01-05 02:40:31.51	265.27	20.82	-47.7	-50.6	22.8	6.02e-01	0	43	0	701497344	67	4885
2026-01-05 02:40:32.37	265.06	20.74	-47.6	-50.4	22.9	6.05e-01	0	43	0	703070208	67	4780
2026-01-05 02:40:33.64	264.76	20.62	-47.6	-50.4	23.0	6.03e-01	0	43	0	705691648	66	5046
2026-01-05 02:40:34.36	264.59	20.55	-47.6	-50.4	22.9	6.05e-01	0	43	0	707264512	66	5068
2026-01-05 02:40:35.65	264.29	20.43	-47.8	-50.7	22.7	6.03e-01	0	43	0	709361664	66	5240
2026-01-05 02:40:36.36	264.12	20.37	-47.7	-50.5	22.8	6.07e-01	0	43	0	710934528	66	5132
2026-01-05 02:40:37.65	263.82	20.25	-47.5	-50.3	23.0	6.05e-01	0	43	0	713031680	66	5009
2026-01-05 02:40:38.37	263.65	20.18	-47.6	-50.4	22.9	6.02e-01	0	43	0	714604544	66	5045
2026-01-05 02:40:39.65	263.36	20.06	-47.7	-50.5	22.8	6.04e-01	0	43	0	716701696	66	5146
2026-01-05 02:40:40.47	263.17	19.99	-47.7	-50.5	22.8	6.03e-01	0	43	0	718274560	66	5108
2026-01-05 02:40:41.61	262.91	19.88	-47.7	-50.5	22.8	6.03e-01	0	43	0	720896000	66	5133
2026-01-05 02:40:42.47	262.72	19.80	-47.7	-50.4	22.8	6.01e-01	0	43	0	722468864	66	5100
2026-01-05 02:40:43.62	262.46	19.69	-47.7	-50.4	22.8	6.03e-01	0	43	0	724566016	66	5089
2026-01-05 02:40:44.47	262.27	19.61	-47.7	-50.5	22.8	6.03e-01	0	43	0	726138880	66	5124
2026-01-05 02:40:45.62	262.02	19.50	-47.8	-50.6	22.7	6.04e-01	0	43	0	728236032	66	5189
2026-01-05 02:40:46.48	261.83	19.42	-47.7	-50.4	22.8	6.03e-01	0	43	0	729808896	66	5079
2026-01-05 02:40:47.64	261.58	19.32	-47.5	-50.2	23.1	6.05e-01	0	43	0	731906048	66	4955
2026-01-05 02:40:48.49	261.39	19.24	-47.5	-50.3	23.0	6.03e-01	0	43	0	733478912	66	4990
2026-01-05 02:40:49.64	261.15	19.13	-47.5	-50.3	23.0	6.02e-01	0	43	0	735576064	66	5007
2026-01-05 02:40:50.49	260.96	19.05	-47.6	-50.4	22.8	6.05e-01	0	43	0	737148928	66	5094
2026-01-05 02:40:51.64	260.72	18.94	-47.6	-50.4	22.8	6.05e-01	0	43	0	739246080	66	5088
2026-01-05 02:40:52.50	260.54	18.86	-47.5	-50.4	22.9	6.02e-01	0	43	0	740818944	66	5062
2026-01-05 02:40:53.64	260.30	18.75	-47.6	-50.4	22.9	6.06e-01	0	43	0	742916096	66	5056
2026-01-05 02:40:54.61	260.10	18.66	-47.6	-50.3	22.9	6.03e-01	0	43	0	745013248	66	5037
2026-01-05 02:40:55.79	259.85	18.55	-47.6	-50.4	22.8	6.05e-01	0	43	0	747110400	66	5083
2026-01-05 02:40:56.66	259.68	18.47	-47.5	-50.2	22.9	6.02e-01	0	43	0	748683264	66	4983
2026-01-05 02:40:57.80	259.44	18.36	-47.5	-50.2	23.0	6.05e-01	0	43	0	750780416	66	4957
2026-01-05 02:40:58.66	259.27	18.28	-47.5	-50.3	23.0	6.03e-01	0	43	0	752877568	66	4984
2026-01-05 02:41:00.10	258.98	18.15	-47.6	-50.3	22.9	6.07e-01	0	43	0	755499008	66	5037
2026-01-05 02:41:00.81	258.84	18.08	-47.7	-50.6	22.7	6.04e-01	0	43	0	756547584	66	5163
2026-01-05 02:41:02.29	258.54	17.94	-47.5	-50.4	22.8	6.04e-01	0	43	0	759169024	66	5059
2026-01-05 02:41:03.26	258.35	17.85	-47.5	-50.3	22.9	6.04e-01	0	43	0	761266176	66	4998
2026-01-05 02:41:04.26	258.16	17.76	-47.4	-50.2	23.1	6.05e-01	0	43	0	763363328	66	4942
2026-01-05 02:41:05.26	257.96	17.67	-47.4	-50.2	23.1	6.03e-01	0	43	0	764936192	66	4953
2026-01-05 02:41:06.26	257.77	17.58	-47.7	-50.4	22.8	6.04e-01	0	43	0	767033344	66	5093
2026-01-05 02:41:07.26	257.58	17.48	-47.7	-50.5	22.8	6.04e-01	0	43	0	768606208	66	5122
2026-01-05 02:41:08.26	257.39	17.39	-47.8	-50.6	22.6	6.05e-01	0	43	0	770703360	66	5214
2026-01-05 02:41:09.26	257.20	17.30	-47.8	-50.5	22.7	6.03e-01	0	43	0	772276224	66	5150
2026-01-05 02:41:10.38	256.99	17.19	-47.7	-50.4	22.8	6.04e-01	0	43	0	774373376	66	5097
2026-01-05 02:41:11.26	256.82	17.11	-47.7	-50.4	22.9	6.05e-01	0	43	0	776470528	66	5060
2026-01-05 02:41:12.41	256.61	17.00	-47.6	-50.3	22.9	6.03e-01	0	43	0	778567680	66	5035
2026-01-05 02:41:13.27	256.45	16.92	-47.6	-50.3	22.9	6.03e-01	0	43	0	780140544	66	5019
2026-01-05 02:41:14.64	256.20	16.80	-47.8	-50.6	22.7	6.02e-01	0	43	0	782761984	66	5178
2026-01-05 02:41:15.75	256.00	16.70	-47.9	-50.7	22.6	6.01e-01	0	43	0	784859136	66	5227
2026-01-05 02:41:16.96	255.78	16.58	-47.8	-50.6	22.6	6.03e-01	0	43	0	786956288	66	5215
2026-01-05 02:41:18.00	255.60	16.49	-47.7	-50.4	22.8	6.03e-01	0	43	0	789053440	66	5097
2026-01-05 02:41:19.08	255.41	16.39	-47.7	-50.5	22.8	6.02e-01	0	43	0	790626304	66	5128
2026-01-05 02:41:19.95	255.25	16.31	-47.8	-50.6	22.6	6.05e-01	0	43	0	792723456	66	5201
2026-01-05 02:41:21.09	255.05	16.20	-47.7	-50.5	22.8	6.03e-01	0	43	0	794820608	66	5106
2026-01-05 02:41:22.14	254.87	16.11	-47.5	-50.3	23.0	6.04e-01	0	43	0	796393472	66	4998
2026-01-05 02:41:23.00	254.72	16.03	-47.5	-50.2	23.0	6.05e-01	0	43	0	797966336	66	4978
2026-01-05 02:41:24.14	254.53	15.93	-47.5	-50.3	22.9	6.03e-01	0	43	0	800587776	66	5025
2026-01-05 02:41:25.00	254.38	15.85	-47.6	-50.4	22.8	6.04e-01	0	43	0	802160640	66	5086
2026-01-05 02:41:26.15	254.19	15.74	-47.6	-50.5	22.7	6.04e-01	0	43	0	804257792	66	5104
2026-01-05 02:41:27.36	253.98	15.63	-47.6	-50.4	22.8	6.04e-01	0	43	0	806354944	66	5060
2026-01-05 02:41:28.21	253.84	15.56	-47.6	-50.4	22.8	6.04e-01	0	43	0	807927808	66	5078
2026-01-05 02:41:29.36	253.65	15.45	-47.7	-50.4	22.8	6.03e-01	0	43	0	810024960	66	5084
2026-01-05 02:41:30.22	253.51	15.37	-47.7	-50.5	22.8	6.02e-01	0	43	0	811597824	66	5102
2026-01-05 02:41:31.37	253.32	15.27	-47.8	-50.5	22.7	6.06e-01	0	43	0	813694976	66	5155
2026-01-05 02:41:32.22	253.18	15.19	-47.8	-50.5	22.7	6.04e-01	0	43	0	815792128	66	5155
2026-01-05 02:41:33.36	253.00	15.09	-47.8	-50.6	22.7	6.04e-01	0	43	0	817889280	66	5169
2026-01-05 02:41:34.22	252.86	15.01	-47.8	-50.6	22.7	6.03e-01	0	43	0	819462144	66	5171
2026-01-05 02:41:35.37	252.68	14.91	-47.8	-50.7	22.6	6.04e-01	0	43	0	821559296	66	5230
2026-01-05 02:41:36.23	252.54	14.83	-47.6	-50.4	22.8	6.02e-01	0	43	0	823132160	66	5043
2026-01-05 02:41:37.55	252.33	14.72	-47.7	-50.5	22.7	6.04e-01	0	43	0	825229312	66	5121
2026-01-05 02:41:38.26	252.22	14.65	-47.7	-50.6	22.7	6.01e-01	0	43	0	826802176	66	5161
2026-01-05 02:41:39.76	251.99	14.52	-47.8	-50.6	22.6	6.04e-01	0	43	0	829947904	66	5203
2026-01-05 02:41:40.47	251.88	14.46	-47.7	-50.5	22.7	6.02e-01	0	43	0	830996480	66	5153
2026-01-05 02:41:41.85	251.67	14.33	-47.7	-50.6	22.2	6.01e-01	0	43	0	833617920	66	5166
2026-01-05 02:41:42.57	251.56	14.27	-47.7	-50.5	22.8	6.01e-01	0	43	0	835190784	66	5103
2026-01-05 02:41:43.86	251.36	14.16	-47.7	-50.5	22.7	6.04e-01	0	43	0	837287936	66	5141
2026-01-05 02:41:44.58	251.26	14.09	-47.8	-50.6	22.6	6.05e-01	0	43	0	838860800	66	5167
2026-01-05 02:41:45.87	251.06	13.98	-47.9	-50.7	22.5	6.03e-01	0	43	0	840957952	66	5272
2026-01-05 02:41:46.58	250.96	13.92	-47.8	-50.7	22.6	6.03e-01	0	43	0	842530816	66	5219
2026-01-05 02:41:47.87	250.77	13.80	-47.9	-50.8	22.4	6.04e-01	0	43	0	844627968	66	5300
2026-01-05 02:41:48.59	250.66	13.74	-47.8	-50.7	22.5	6.00e-01	0	43	0	846200832	66	5276
2026-01-05 02:41:49.87	250.48	13.63	-47.7	-50.6	22.6	6.04e-01	0	43	0	848822272	66	5173
2026-01-05 02:41:50.59	250.37	13.57	-47.8	-50.7	22.5	6.02e-01	0	43	0	849870848	66	5220
2026-01-05 02:41:51.88	250.19	13.45	-47.7	-50.6	22.6	6.04e-01	0	43	0	852492288	66	5173
2026-01-05 02:41:52.59	250.09	13.39	-47.6	-50.5	22.7	6.04e-01	0	43	0	853540864	66	5117
2026-01-05 02:41:53.88	249.90	13.28	-47.7	-50.5	22.7	6.03e-01	0	43	0	856162304	66	5134
2026-01-05 02:41:54.60	249.80	13.22	-47.8	-50.7	22.6	6.02e-01	0	43	0	857210880	66	5237
2026-01-05 02:41:55.89	249.62	13.11	-47.7	-50.6	22.6	6.01e-01	0	43	0	859832320	66	5205
2026-01-05 02:41:56.61	249.52	13.04	-47.8	-50.7	22.5	6.05e-01	0	43	0	861405184	66	5264
2026-01-05 02:41:57.90	249.35	12.93	-47.9	-50.9	22.3	6.04e-01	0	43	0	863502336	66	5370
2026-01-05 02:41:58.61	249.25	12.87	-47.9	-50.9	22.3	6.03e-01	0	43	0	865075200	66	5393
2026-01-05 02:41:59.90	249.07	12.76	-47.8	-50.8	22.4	6.02e-01	0	43	0	867172352	66	5322
2026-01-05 02:42:00.61	248.98	12.70	-47.8	-50.8	22.3	6.05e-01	0	43	0	868745216	66	5328
2026-01-05 02:42:01.90	248.80	12.59	-47.8	-50.8	22.4	6.01e-01	0	43	0	871366656	66	5307
2026-01-05 02:42:02.62	248.71	12.53	-47.9	-50.8	22.4	6.01e-01	0	43	0	872415232	66	5331
2026-01-05 02:42:04.15	248.50	12.40	-47.9	-50.8	22.4	6.02e-01	0	43	0	875560960	66	5287
2026-01-05 02:42:04.86	248.41	12.34	-47.8	-50.7	22.5	6.04e-01	0	43	0	876609536	66	5254
2026-01-05 02:42:06.15	248.24	12.23	-48.0	-50.9	22.3	6.05e-01	0	43	0	879230976	66	5362
2026-01-05 02:42:06.87	248.15	12.17	-48.1	-51.0	22.2	6.06e-01	0	43	0	880279552	66	5430
2026-01-05 02:42:08.29	247.96	12.05	-48.1	-51.0	22.2	6.03e-01	0	43	0	882900992	66	5441
2026-01-05 02:42:09.26	247.84	11.97	-48.0	-51.0	22.2	6.03e-01	0	43	0	884998144	66	5423
2026-01-05 02:42:10.57	247.67	11.86	-48.0	-50.9	22.2	6.04e-01	0	43	0	887619584	66	5387
2026-01-05 02:42:11.28	247.58	11.80	-48.1	-51.1	22.1	6.03e-01	0	43	0	888668160	66	5499
2026-01-05 02:42:12.57	247.42	11.70	-47.8	-50.7	22.4	6.06e-01	0	43	0	891289600	66	5277
2026-01-05 02:42:13.28	247.33	11.64	-47.9	-50.9	22.3	6.03e-01	0	43	0	892338176	66	5346
2026-01-05 02:42:14.57	247.17	11.53	-47.9	-50.9	22.2	6.02e-01	0	43	0	894959616	66	5387
2026-01-05 02:42:15.29	247.08	11.47	-47.9	-50.9	22.3	6.03e-01	0	43	0	896008192	66	5366
2026-01-05 02:42:16.58	246.92	11.36	-48.0	-51.0	22.2	6.05e-01	0	43	0	898629632	66	5407
2026-01-05 02:42:17.30	246.83	11.30	-48.1	-51.0	22.1	6.02e-01	0	43	0	900202496	66	5464
2026-01-05 02:42:18.60	246.68	11.20	-48.1	-51.0	22.2	6.03e-01	0	43	0	902299648	66	5420
2026-01-05 02:42:19.59	246.56	11.12	-48.2	-51.1	22.0	6.04e-01	0	43	0	904396800	67	5205
2026-01-05 02:42:20.59	246.44	11.03	-48.2	-51.1	22.1	6.04e-01	0	43	0	905969664	67	5205
2026-01-05 02:42:21.59	246.32	10.95	-48.1	-51.0	22.2	6.04e-01	0	43	0	908066816	67	5113
2026-01-05 02:42:22.59	246.20	10.87	-48.3	-51.3	21.9	6.02e-01	0	43	0	910163968	67	5297
2026-01-05 02:42:23.59	246.08	10.79	-48.3	-51.3	21.9	6.02e-01	0	43	0	911736832	67	5303
2026-01-05 02:42:24.59	245.97	10.71	-48.2	-51.3	21.9	6.02e-01	0	43	0	913833984	67	5294
2026-01-05 02:42:25.60	245.85	10.63	-48.2	-51.3	21.9	6.05e-01	0	43	0	915406848	67	5295
2026-01-05 02:42:26.60	245.73	10.55	-48.2	-51.2	21.9	6.06e-01	0	43	0	917504000	67	5267
2026-01-05 02:42:27.60	245.62	10.47	-48.2	-51.3	21.9	6.04e-01	0	43	0	919076864	67	5295
2026-01-05 02:42:28.68	245.49	10.38	-48.2	-51.2	21.9	6.05e-01	0	43	0	921174016	67	5278
2026-01-05 02:42:29.54	245.40	10.31	-48.2	-51.2	21.9	6.02e-01	0	43	0	922746880	67	5279
2026-01-05 02:42:30.69	245.27	10.22	-48.2	-51.3	21.9	6.02e-01	0	43	0	925368320	67	5310
2026-01-05 02:42:31.66	245.16	10.14	-48.2	-51.2	21.9	6.05e-01	0	43	0	926941184	67	5263
2026-01-05 02:42:32.86	245.03	10.05	-48.2	-51.2	21.9	6.04e-01	0	43	0	929038336	67	5278
2026-01-05 02:42:33.74	244.93	9.98	-48.3	-51.4	21.8	6.05e-01	0	43	0	930611200	67	5341
2026-01-05 02:42:35.10	244.78	9.87	-48.4	-51.6	21.6	6.04e-01	0	43	0	933232640	67	5488
2026-01-05 02:42:35.81	244.70	9.81	-48.5	-51.7	21.4	6.04e-01	0	43	0	934805504	67	5567
2026-01-05 02:42:37.10	244.56	9.71	-48.4	-51.6	21.5	6.04e-01	0	43	0	936902656	67	5525
2026-01-05 02:42:37.81	244.48	9.66	-48.4	-51.6	21.5	6.04e-01	0	43	0	938475520	67	5471
2026-01-05 02:42:39.10	244.35	9.56	-48.4	-51.6	21.5	6.04e-01	0	43	0	941096960	67	5493
2026-01-05 02:42:39.81	244.27	9.50	-48.4	-51.6	21.6	6.04e-01	0	43	0	942145536	67	5466
2026-01-05 02:42:41.10	244.13	9.40	-48.4	-51.4	21.6	6.03e-01	0	43	0	944766976	67	5399
2026-01-05 02:42:41.82	244.06	9.34	-48.4	-51.5	21.6	6.04e-01	0	43	0	945815552	67	5454
2026-01-05 02:42:43.10	243.92	9.25	-48.4	-51.5	21.6	6.04e-01	0	43	0	948436992	67	5427
2026-01-05 02:42:44.03	243.83	9.17	-48.5	-51.6	21.5	6.02e-01	0	43	0	950009856	67	5476
2026-01-05 02:42:45.03	243.72	9.10	-48.5	-51.6	21.4	6.03e-01	0	43	0	952107008	67	5516
2026-01-05 02:42:46.03	243.62	9.02	-48.5	-51.6	21.4	6.07e-01	0	43	0	953679872	67	5518
2026-01-05 02:42:47.03	243.52	8.94	-54.4	-70.7	4.1	7.43e-01	0	43	104	955252736	79	24794
2026-01-05 02:42:48.04	243.42	8.87	-54.6	-74.8	3.8	7.48e-01	0	43	104	955252736	79	39849
2026-01-05 02:42:49.04	243.32	8.79	-54.5	-74.9	3.8	7.47e-01	0	43	104	955252736	79	40299
2026-01-05 02:42:50.05	243.21	8.71	-54.6	-75.0	3.8	7.42e-01	0	43	104	955252736	80	38359
2026-01-05 02:42:51.05	243.11	8.64	-54.7	-75.0	3.8	7.44e-01	0	43	104	955252736	80	38367
2026-01-05 02:42:52.05	243.01	8.56	-54.5	-75.1	3.8	7.46e-01	0	43	104	955252736	80	38755
2026-01-05 02:42:53.06	242.91	8.48	-54.0	-75.1	3.8	7.44e-01	0	43	104	955252736	80	39015
2026-01-05 02:42:54.06	242.82	8.41	-54.4	-75.2	3.8	7.47e-01	0	43	104	955252736	79	41534
2026-01-05 02:42:55.07	242.72	8.33	-55.0	-75.1	3.8	7.46e-01	0	43	104	955252736	80	38975
2026-01-05 02:42:56.07	242.62	8.26	-54.9	-75.1	3.8	7.47e-01	0	43	104	955252736	80	38970
2026-01-05 02:42:57.07	242.52	8.18	-54.9	-75.1	3.8	7.45e-01	0	43	104	955252736	80	38975
2026-01-05 02:42:58.08	242.43	8.11	-54.8	-75.1	3.8	7.47e-01	0	43	104	955252736	80	39053
2026-01-05 02:42:59.08	242.33	8.03	-54.8	-75.2	3.8	7.47e-01	0	43	104	955252736	80	39168
2026-01-05 02:43:00.08	242.24	7.96	-54.8	-75.1	3.8	7.44e-01	0	43	104	955252736	80	39012
2026-01-05 02:43:01.09	242.14	7.88	-54.8	-75.1	3.8	7.47e-01	0	43	104	955252736	80	39037
2026-01-05 02:43:02.09	242.05	7.81	-54.9	-75.1	3.8	7.46e-01	0	43	104	955252736	80	39028
2026-01-05 02:43:03.10	241.95	7.73	-54.9	-75.1	3.8	7.47e-01	0	43	104	955252736	80	39133
2026-01-05 02:43:04.10	241.86	7.66	-54.8	-75.1	3.8	7.45e-01	0	43	104	955252736	80	39026
2026-01-05 02:43:05.11	241.77	7.59	-54.7	-75.1	3.8	7.48e-01	0	43	104	955252736	80	39111
2026-01-05 02:43:06.11	241.68	7.51	-54.7	-75.1	3.8	7.43e-01	0	43	104	955252736	80	38991
2026-01-05 02:43:07.11	241.59	7.44	-54.6	-75.1	3.8	7.46e-01	0	43	104	955252736	80	39033
2026-01-05 02:43:08.12	241.49	7.36	-54.2	-75.1	3.8	7.47e-01	0	43	104	955252736	80	38980
2026-01-05 02:43:09.12	241.40	7.29	-54.2	-75.1	3.8	7.45e-01	0	43	104	955252736	80	38833
2026-01-05 02:43:10.13	241.31	7.22	-54.2	-75.1	3.8	7.45e-01	0	43	104	955252736	80	38875
2026-01-05 02:43:11.13	241.22	7.15	-54.1	-75.1	3.8	7.45e-01	0	43	104	955252736	80	38943
2026-01-05 02:43:12.14	241.13	7.07	-54.1	-75.1	3.8	7.44e-01	0	43	104	955252736	80	38885
2026-01-05 02:43:13.14	241.05	7.00	-54.1	-75.1	3.8	7.41e-01	0	43	104	955252736	80	38925
2026-01-05 02:43:14.14	240.96	6.93	-54.2	-75.1	3.8	7.48e-01	0	43	104	955252736	80	38846
2026-01-05 02:43:15.15	240.87	6.86	-54.1	-75.1	3.8	7.46e-01	0	43	104	955252736	80	38815
2026-01-05 02:43:16.15	240.78	6.78	-54.1	-75.1	3.8	7.48e-01	0	43	104	955252736	80	38844
2026-01-05 02:43:17.16	240.70	6.71	-54.1	-75.1	3.8	7.44e-01	0	43	104	955252736	80	38742
2026-01-05 02:43:18.16	240.61	6.64	-54.1	-75.1	3.8	7.49e-01	0	43	104	955252736	80	38822
2026-01-05 02:43:19.16	240.53	6.57	-54.1	-75.1	3.8	7.46e-01	0	43	104	955252736	80	38830
2026-01-05 02:43:20.17	240.44	6.50	-54.1	-75.1	3.8	7.47e-01	0	43	104	955252736	80	38788
2026-01-05 02:43:21.17	240.36	6.43	-54.1	-75.1	3.8	7.46e-01	0	43	104	955252736	80	38761
2026-01-05 02:43:22.18	240.27	6.36	-54.1	-75.0	3.8	7.45e-01	0	43	104	955252736	80	38649
2026-01-05 02:43:23.18	240.19	6.28	-54.1	-75.1	3.8	7.45e-01	0	43	104	955252736	80	38787
2026-01-05 02:43:24.19	240.10	6.21	-54.1	-75.1	3.8	7.47e-01	0	43	104	955252736	80	38738
2026-01-05 02:43:25.19	240.02	6.14	-54.1	-75.1	3.8	7.46e-01	0	43	104	955252736	80	38732
2026-01-05 02:43:26.19	239.94	6.07	-54.1	-75.1	3.8	7.41e-01	0	43	104	955252736	80	38827
2026-01-05 02:43:27.20	239.86	6.00	-54.1	-75.1	3.8	7.46e-01	0	43	104	955252736	80	38807
2026-01-05 02:43:28.20	239.78	5.93	-54.1	-75.1	3.8	7.46e-01	0	43	104	955252736	80	38821
2026-01-05 02:43:29.21	239.69	5.86	-54.1	-75.0	3.8	7.46e-01	0	43	104	955252736	80	38655
2026-01-05 02:43:30.21	239.61	5.79	-54.1	-75.0	3.8	7.44e-01	0	43	104	955252736	80	38632
2026-01-05 02:43:31.21	239.53	5.72	-54.1	-75.1	3.8	7.47e-01	0	43	104	955252736	80	38754
2026-01-05 02:43:32.22	239.45	5.65	-54.1	-75.0	3.8	7.47e-01	0	43	104	955252736	80	38656
2026-01-05 02:43:33.22	239.37	5.58	-54.1	-75.1	3.8	7.48e-01	0	43	104	955252736	80	38756
2026-01-05 02:43:34.22	239.30	5.52	-54.1	-75.1	3.8	7.47e-01	0	43	104	955252736	80	38796
2026-01-05 02:43:35.23	239.22	5.45	-54.1	-75.0	3.8	7.44e-01	0	43	104	955252736	80	38600
2026-01-05 02:43:36.23	239.14	5.38	-54.1	-75.1	3.8	7.44e-01	0	43	104	955252736	80	38727
2026-01-05 02:43:37.24	239.06	5.31	-54.1	-75.0	3.8	7.48e-01	0	43	104	955252736	80	38633
2026-01-05 02:43:38.24	238.98	5.24	-54.1	-75.1	3.8	7.46e-01	0	43	104	955252736	80	38763
2026-01-05 02:43:39.25	238.91	5.17	-54.1	-75.0	3.8	7.44e-01	0	43	104	955252736	80	38501
2026-01-05 02:43:40.25	238.83	5.10	-54.1	-75.0	3.8	7.46e-01	0	43	104	955252736	80	38633
2026-01-05 02:43:41.26	238.75	5.04	-54.1	-75.0	3.8	7.47e-01	0	43	104	955252736	80	38675
2026-01-05 02:43:42.26	238.68	4.97	-54.1	-75.0	3.8	7.47e-01	0	43	104	955252736	80	38609

#Closed at: 2026-01-05 02:43:43
#Recorded file [955 MB]: D:/Data/31040_260105_053330.dat