passes_logs/2026/01/05/T1/T1__20260105_134049_FENGYUN_3E_rec.log

#Pass ID: 20260105_134049_FENGYUN 3E
#Satellite: FENGYUN 3E
#Configuration: FENGYUN 3E
#almurnet v.1.7.20251203
#Start time: 2026-01-05 13:40:49

#Version: 2.0.20230620
#Station: T1
#Location: 37.570604 lon 55.790049 lat
#TLE: 1 49008U 21062A   26004.99925679  .00000018  00000+0  29282-4 0  9995
#TLE: 2 49008  98.7472  10.2448 0001540 159.6420 200.4818 14.19883565233423

#Time	Az	El	Level	Level2	SNR	BER	BlckErr	Temp	State	Recorded	gain1	gain2
2026-01-05 13:40:49.23	143.79	5.00	-50.3	-61.0	3.8	8.46e-01	0	40	0	0	71	12033
2026-01-05 13:40:50.23	143.76	5.07	-50.3	-60.8	3.8	8.47e-01	0	40	104	0	71	11711
2026-01-05 13:40:51.23	143.74	5.14	-50.3	-60.7	3.8	8.46e-01	0	40	104	0	71	11654
2026-01-05 13:40:52.23	143.71	5.21	-50.2	-60.7	3.8	8.47e-01	0	40	104	0	71	11635
2026-01-05 13:40:53.23	143.68	5.28	-50.3	-60.7	3.8	8.47e-01	0	40	104	0	71	11637
2026-01-05 13:40:54.24	143.65	5.36	-50.3	-60.8	3.8	8.48e-01	0	40	104	0	71	11760
2026-01-05 13:40:55.24	143.63	5.43	-50.3	-60.8	3.8	8.47e-01	0	41	104	0	71	11789
2026-01-05 13:40:56.24	143.60	5.50	-50.3	-60.8	3.8	8.46e-01	0	41	104	0	71	11817
2026-01-05 13:40:57.25	143.57	5.57	-50.3	-60.8	3.8	8.47e-01	0	41	104	0	71	11747
2026-01-05 13:40:58.25	143.54	5.65	-50.3	-60.8	3.8	8.47e-01	0	40	104	0	71	11781
2026-01-05 13:40:59.25	143.51	5.72	-50.2	-60.6	3.8	8.47e-01	0	41	104	0	71	11494
2026-01-05 13:41:00.26	143.49	5.79	-50.2	-60.4	3.8	8.47e-01	0	41	104	0	71	11220
2026-01-05 13:41:01.26	143.46	5.86	-50.2	-60.1	3.8	8.47e-01	0	41	104	0	71	10783
2026-01-05 13:41:02.26	143.43	5.94	-50.1	-59.7	3.8	8.46e-01	0	41	104	0	71	10335
2026-01-05 13:41:03.26	143.40	6.01	-50.1	-59.4	3.8	8.47e-01	0	41	104	0	71	10055
2026-01-05 13:41:04.27	143.37	6.08	-50.0	-59.3	3.8	8.47e-01	0	41	104	0	70	10458
2026-01-05 13:41:05.27	143.34	6.16	-50.0	-59.1	3.9	8.46e-01	0	41	104	0	70	10221
2026-01-05 13:41:06.27	143.31	6.23	-50.0	-59.3	3.8	8.45e-01	0	41	104	0	70	10432
2026-01-05 13:41:07.28	143.28	6.31	-50.0	-59.3	3.8	8.47e-01	0	41	104	0	70	10512
2026-01-05 13:41:08.28	143.25	6.38	-50.1	-59.7	3.8	8.47e-01	0	41	104	0	70	10906
2026-01-05 13:41:09.28	143.22	6.46	-50.1	-59.9	3.8	8.45e-01	0	41	104	0	70	11232
2026-01-05 13:41:10.28	143.19	6.53	-50.2	-60.3	3.8	8.46e-01	0	41	104	0	70	11816
2026-01-05 13:41:11.28	143.16	6.60	-50.2	-60.6	3.8	8.47e-01	0	41	104	0	70	12213
2026-01-05 13:41:12.29	143.13	6.68	-50.2	-60.7	3.8	8.46e-01	0	41	104	0	70	12348
2026-01-05 13:41:13.29	143.10	6.76	-50.2	-60.6	3.8	8.46e-01	0	41	104	0	70	12116
2026-01-05 13:41:14.29	143.07	6.83	-50.1	-59.8	3.8	8.46e-01	0	41	104	0	70	11035
2026-01-05 13:41:15.29	143.04	6.91	-50.0	-59.0	3.9	8.45e-01	0	41	104	0	70	10088
2026-01-05 13:41:16.30	143.01	6.98	-49.9	-58.1	4.1	8.43e-01	0	41	0	0	70	9126
2026-01-05 13:41:17.30	142.98	7.06	-49.6	-57.1	4.4	8.33e-01	0	42	0	0	70	8138
2026-01-05 13:41:18.30	142.95	7.14	-49.4	-56.3	4.7	8.17e-01	0	42	0	0	69	7832
2026-01-05 13:41:19.31	142.91	7.21	-49.1	-55.3	5.2	7.51e-01	0	41	0	0	69	6984
2026-01-05 13:41:20.31	142.88	7.29	-49.0	-54.8	5.5	7.16e-01	0	41	0	0	68	7014
2026-01-05 13:41:21.31	142.85	7.37	-48.7	-53.9	6.2	4.28e-01	0	41	0	4194304	68	6278
2026-01-05 13:41:22.31	142.82	7.44	-48.1	-52.8	7.0	1.54e-01	0	41	0	11534336	67	5893
2026-01-05 13:41:23.31	142.79	7.52	-47.7	-51.9	7.8	8.37e-02	0	42	0	18874368	66	5637
2026-01-05 13:41:24.31	142.75	7.60	-47.1	-50.8	8.9	3.24e-02	0	42	0	26214400	65	5240
2026-01-05 13:41:25.32	142.72	7.68	-46.6	-49.8	10.1	8.29e-03	0	42	0	33554432	63	5236
2026-01-05 13:41:26.32	142.69	7.76	-45.9	-48.7	11.2	2.51e-03	0	42	0	39845888	62	4914
2026-01-05 13:41:27.32	142.66	7.84	-45.2	-47.8	12.2	3.67e-04	0	42	0	47185920	61	4662
2026-01-05 13:41:28.32	142.62	7.91	-44.8	-47.2	12.7	8.46e-05	0	42	0	54525952	60	4645
2026-01-05 13:41:29.32	142.59	7.99	-44.4	-46.7	13.1	3.08e-05	0	42	0	61865984	59	4607
2026-01-05 13:41:30.32	142.56	8.07	-43.7	-45.8	14.0	2.20e-06	0	42	0	69206016	58	4427
2026-01-05 13:41:31.33	142.52	8.15	-43.6	-45.7	14.1	1.10e-06	0	42	0	76546048	58	4353
2026-01-05 13:41:32.33	142.49	8.23	-43.4	-45.5	14.4	0.00e+00	0	42	0	83886080	57	4494
2026-01-05 13:41:33.33	142.45	8.31	-43.7	-45.8	14.0	1.10e-06	0	42	0	91226112	57	4681
2026-01-05 13:41:34.34	142.42	8.39	-43.7	-45.8	14.0	3.40e-06	0	42	0	98566144	57	4665
2026-01-05 13:41:35.34	142.38	8.47	-44.2	-46.4	13.5	4.50e-06	0	42	0	105906176	57	4992
2026-01-05 13:41:36.34	142.35	8.55	-44.8	-47.2	12.6	6.40e-05	0	42	0	113246208	59	4894
2026-01-05 13:41:37.34	142.31	8.63	-45.1	-47.6	12.2	1.53e-04	0	42	0	120586240	59	5106
2026-01-05 13:41:38.35	142.28	8.72	-46.0	-48.9	11.0	6.91e-04	0	42	0	126877696	61	5329
2026-01-05 13:41:39.35	142.24	8.80	-46.8	-50.1	9.7	7.40e-03	0	42	0	134217728	62	5781
2026-01-05 13:41:40.35	142.21	8.88	-47.4	-51.4	8.4	2.82e-02	0	42	0	141557760	64	5942
2026-01-05 13:41:41.35	142.17	8.96	-48.3	-53.2	6.7	1.56e-01	0	42	0	148897792	66	6527
2026-01-05 13:41:42.36	142.14	9.04	-48.4	-53.5	6.4	4.40e-01	0	42	0	156237824	66	6744
2026-01-05 13:41:43.36	142.10	9.13	-45.5	-48.2	11.8	7.91e-04	0	42	0	163577856	61	4886
2026-01-05 13:41:44.36	142.06	9.21	-47.0	-50.5	9.6	7.11e-04	0	42	0	170917888	63	5677
2026-01-05 13:41:45.36	142.03	9.29	-49.9	-58.2	3.9	8.47e-01	0	42	104	171966464	69	9786
2026-01-05 13:41:46.36	141.99	9.37	-47.0	-50.4	9.5	5.64e-02	0	42	0	176160768	64	5292
2026-01-05 13:41:47.36	141.95	9.46	-43.3	-45.3	14.6	0.00e+00	0	42	0	183500800	57	4418
2026-01-05 13:41:48.36	141.91	9.54	-43.3	-45.3	14.6	0.00e+00	0	42	0	190840832	57	4415
2026-01-05 13:41:49.36	141.88	9.63	-42.3	-44.1	15.6	0.00e+00	0	42	0	198180864	55	4326
2026-01-05 13:41:50.37	141.84	9.71	-42.1	-43.8	15.9	0.00e+00	0	42	0	204472320	55	4183
2026-01-05 13:41:51.37	141.80	9.80	-42.3	-44.0	15.7	0.00e+00	0	42	0	211812352	55	4283
2026-01-05 13:41:52.36	141.76	9.88	-41.7	-43.4	16.3	0.00e+00	0	42	0	219152384	54	4241
2026-01-05 13:41:53.36	141.72	9.96	-40.8	-42.5	17.2	0.00e+00	0	42	0	226492416	52	4250
2026-01-05 13:41:54.36	141.69	10.05	-40.3	-41.9	17.8	0.00e+00	0	42	0	233832448	51	4220
2026-01-05 13:41:55.37	141.65	10.14	-40.4	-42.0	17.7	0.00e+00	0	42	0	241172480	51	4251
2026-01-05 13:41:56.37	141.61	10.22	-40.0	-41.5	18.1	0.00e+00	0	42	0	248512512	50	4287
2026-01-05 13:41:57.37	141.57	10.31	-39.9	-41.4	18.2	0.00e+00	0	42	0	255852544	50	4236
2026-01-05 13:41:58.37	141.53	10.40	-40.0	-41.6	18.1	0.00e+00	0	42	0	263192576	50	4304
2026-01-05 13:41:59.37	141.49	10.48	-39.9	-41.4	18.2	0.00e+00	0	42	0	269484032	50	4215
2026-01-05 13:42:00.38	141.45	10.57	-39.9	-41.5	18.2	0.00e+00	0	42	0	276824064	50	4257
2026-01-05 13:42:01.38	141.41	10.66	-39.9	-41.4	18.2	0.00e+00	0	42	0	284164096	50	4221
2026-01-05 13:42:02.38	141.37	10.74	-39.9	-41.5	18.2	0.00e+00	0	42	0	291504128	50	4249
2026-01-05 13:42:03.38	141.32	10.83	-39.8	-41.3	18.3	0.00e+00	0	42	0	298844160	50	4173
2026-01-05 13:42:04.38	141.28	10.92	-39.7	-41.2	18.5	0.00e+00	0	42	0	306184192	50	4116
2026-01-05 13:42:05.37	141.24	11.01	-39.7	-41.2	18.5	0.00e+00	0	43	0	313524224	50	4099
2026-01-05 13:42:06.38	141.20	11.10	-39.7	-41.2	18.5	0.00e+00	0	42	0	320864256	50	4099
2026-01-05 13:42:07.38	141.16	11.19	-39.7	-41.2	18.5	0.00e+00	0	42	0	328204288	50	4135
2026-01-05 13:42:08.38	141.11	11.28	-39.5	-41.0	18.7	0.00e+00	0	42	0	335544320	49	4275
2026-01-05 13:42:09.39	141.07	11.37	-39.6	-41.0	18.6	0.00e+00	0	42	0	342884352	49	4288
2026-01-05 13:42:10.39	141.03	11.46	-39.5	-41.0	18.7	0.00e+00	0	42	0	349175808	49	4276
2026-01-05 13:42:11.39	140.99	11.55	-39.5	-41.0	18.7	0.00e+00	0	42	0	356515840	49	4259
2026-01-05 13:42:12.39	140.94	11.64	-39.4	-40.9	18.8	0.00e+00	0	42	0	363855872	49	4222
2026-01-05 13:42:13.39	140.90	11.73	-39.5	-41.0	18.7	0.00e+00	0	43	0	371195904	49	4264
2026-01-05 13:42:14.39	140.85	11.82	-39.5	-41.0	18.7	0.00e+00	0	43	0	378535936	49	4251
2026-01-05 13:42:15.39	140.81	11.91	-39.4	-40.9	18.8	0.00e+00	0	43	0	385875968	49	4209
2026-01-05 13:42:16.39	140.77	12.01	-39.3	-40.8	18.9	0.00e+00	0	43	0	393216000	49	4151
2026-01-05 13:42:17.39	140.72	12.10	-39.3	-40.7	19.0	0.00e+00	0	42	0	400556032	49	4128
2026-01-05 13:42:18.39	140.67	12.19	-39.4	-40.8	18.9	0.00e+00	0	42	0	407896064	49	4184
2026-01-05 13:42:19.39	140.63	12.28	-39.3	-40.7	19.0	0.00e+00	0	43	0	414187520	49	4114
2026-01-05 13:42:20.39	140.58	12.38	-39.3	-40.8	18.9	0.00e+00	0	43	0	421527552	49	4167
2026-01-05 13:42:21.39	140.54	12.47	-39.3	-40.8	18.9	0.00e+00	0	42	0	428867584	49	4161
2026-01-05 13:42:22.39	140.49	12.56	-39.1	-40.5	19.1	0.00e+00	0	43	0	436207616	49	4022
2026-01-05 13:42:23.39	140.44	12.66	-39.2	-40.6	19.1	0.00e+00	0	43	0	443547648	48	4306
2026-01-05 13:42:24.40	140.40	12.76	-39.1	-40.5	19.2	0.00e+00	0	43	0	450887680	48	4275
2026-01-05 13:42:25.40	140.35	12.85	-39.0	-40.4	19.3	0.00e+00	0	43	0	458227712	48	4229
2026-01-05 13:42:26.40	140.30	12.95	-39.1	-40.5	19.2	0.00e+00	0	42	0	465567744	48	4261
2026-01-05 13:42:27.40	140.25	13.04	-39.1	-40.5	19.2	0.00e+00	0	42	0	471859200	48	4284
2026-01-05 13:42:28.40	140.20	13.14	-39.0	-40.4	19.3	0.00e+00	0	43	0	479199232	48	4229
2026-01-05 13:42:29.40	140.16	13.23	-39.0	-40.4	19.3	0.00e+00	0	42	0	486539264	48	4213
2026-01-05 13:42:30.40	140.11	13.33	-38.8	-40.2	19.5	0.00e+00	0	43	0	493879296	48	4105
2026-01-05 13:42:31.40	140.06	13.43	-38.9	-40.2	19.4	0.00e+00	0	43	0	501219328	48	4132
2026-01-05 13:42:32.40	140.01	13.53	-38.8	-40.1	19.6	0.00e+00	0	43	0	508559360	48	4084
2026-01-05 13:42:33.40	139.96	13.62	-38.8	-40.1	19.5	0.00e+00	0	43	0	515899392	48	4094
2026-01-05 13:42:34.40	139.91	13.72	-38.8	-40.2	19.5	0.00e+00	0	43	0	523239424	48	4114
2026-01-05 13:42:35.40	139.86	13.82	-38.6	-39.9	19.7	0.00e+00	0	43	0	530579456	48	4003
2026-01-05 13:42:36.40	139.80	13.92	-38.6	-39.9	19.7	0.00e+00	0	43	0	536870912	48	4002
2026-01-05 13:42:37.40	139.75	14.02	-38.6	-40.0	19.7	0.00e+00	0	43	0	544210944	48	4018
2026-01-05 13:42:38.40	139.70	14.12	-38.7	-40.0	19.7	0.00e+00	0	43	0	551550976	48	4032
2026-01-05 13:42:39.41	139.65	14.22	-38.7	-40.1	19.6	0.00e+00	0	43	0	558891008	48	4072
2026-01-05 13:42:40.41	139.60	14.32	-38.4	-39.8	19.6	0.00e+00	0	43	0	566231040	47	4149
2026-01-05 13:42:41.41	139.54	14.42	-38.4	-39.8	19.5	0.00e+00	0	43	0	573571072	47	4174
2026-01-05 13:42:42.41	139.49	14.52	-38.3	-39.7	19.7	0.00e+00	0	43	0	580911104	47	4118
2026-01-05 13:42:43.41	139.44	14.63	-38.4	-39.8	19.6	0.00e+00	0	43	0	588251136	47	4169
2026-01-05 13:42:44.41	139.38	14.73	-38.3	-39.6	19.7	0.00e+00	0	43	0	595591168	47	4093
2026-01-05 13:42:45.41	139.33	14.83	-38.3	-39.7	19.7	0.00e+00	0	43	0	601882624	47	4101
2026-01-05 13:42:46.41	139.27	14.93	-38.2	-39.6	19.8	0.00e+00	0	43	0	609222656	47	4052
2026-01-05 13:42:47.42	139.22	15.04	-38.2	-39.6	19.8	0.00e+00	0	43	0	616562688	47	4070
2026-01-05 13:42:48.42	139.16	15.14	-38.3	-39.7	19.7	0.00e+00	0	43	0	623902720	47	4123
2026-01-05 13:42:49.42	139.10	15.25	-38.3	-39.7	19.7	0.00e+00	0	43	0	631242752	47	4115
2026-01-05 13:42:50.42	139.05	15.35	-38.2	-39.6	19.8	0.00e+00	0	43	0	638582784	47	4067
2026-01-05 13:42:51.42	138.99	15.46	-38.1	-39.5	19.8	0.00e+00	0	43	0	645922816	47	4025
2026-01-05 13:42:52.43	138.93	15.56	-38.2	-39.6	19.8	0.00e+00	0	43	0	653262848	46	4319
2026-01-05 13:42:53.42	138.88	15.67	-38.2	-39.6	19.8	0.00e+00	0	43	0	659554304	46	4306
2026-01-05 13:42:54.42	138.82	15.78	-38.0	-39.4	20.0	0.00e+00	0	43	0	666894336	46	4198
2026-01-05 13:42:55.42	138.76	15.88	-38.0	-39.4	19.9	0.00e+00	0	43	0	674234368	46	4201
2026-01-05 13:42:56.42	138.70	15.99	-38.0	-39.3	20.0	0.00e+00	0	43	0	681574400	46	4174
2026-01-05 13:42:57.42	138.64	16.10	-37.9	-39.3	20.0	0.00e+00	0	43	0	688914432	46	4161
2026-01-05 13:42:58.42	138.58	16.21	-37.9	-39.3	20.0	0.00e+00	0	43	0	696254464	46	4156
2026-01-05 13:42:59.42	138.52	16.31	-37.8	-39.2	20.1	0.00e+00	0	43	0	703594496	46	4115
2026-01-05 13:43:00.43	138.46	16.42	-37.9	-39.2	20.1	0.00e+00	0	43	0	710934528	46	4128
2026-01-05 13:43:01.42	138.40	16.53	-37.7	-39.1	20.2	0.00e+00	0	43	0	718274560	46	4057
2026-01-05 13:43:02.42	138.33	16.64	-37.7	-39.0	19.6	0.00e+00	0	43	0	724566016	46	4026
2026-01-05 13:43:03.42	138.27	16.75	-37.7	-39.0	20.2	0.00e+00	0	43	0	731906048	45	4274
2026-01-05 13:43:04.42	138.21	16.86	-37.7	-39.0	20.2	0.00e+00	0	43	0	739246080	45	4277
2026-01-05 13:43:05.42	138.15	16.98	-37.6	-39.0	20.3	0.00e+00	0	43	0	746586112	45	4251
2026-01-05 13:43:06.43	138.08	17.09	-37.6	-38.9	20.3	0.00e+00	0	43	0	753926144	45	4227
2026-01-05 13:43:07.43	138.02	17.20	-37.6	-38.9	20.4	0.00e+00	0	43	0	761266176	45	4211
2026-01-05 13:43:08.43	137.95	17.31	-37.5	-38.9	20.4	0.00e+00	0	43	0	768606208	45	4206
2026-01-05 13:43:09.43	137.89	17.43	-37.6	-38.9	20.4	0.00e+00	0	43	0	775946240	45	4231
2026-01-05 13:43:10.43	137.82	17.54	-37.6	-39.0	20.3	0.00e+00	0	43	0	783286272	45	4256
2026-01-05 13:43:11.43	137.75	17.66	-37.4	-38.7	20.5	0.00e+00	0	43	0	789577728	45	4143
2026-01-05 13:43:12.43	137.69	17.77	-37.5	-38.8	20.5	0.00e+00	0	43	0	796917760	45	4171
2026-01-05 13:43:13.43	137.62	17.89	-37.5	-38.8	20.5	0.00e+00	0	43	0	804257792	45	4181
2026-01-05 13:43:14.43	137.55	18.00	-37.4	-38.7	20.5	0.00e+00	0	43	0	811597824	45	4142
2026-01-05 13:43:15.43	137.48	18.12	-37.2	-38.5	20.6	0.00e+00	0	43	0	818937856	45	4036
2026-01-05 13:43:16.43	137.42	18.24	-37.3	-38.6	20.6	0.00e+00	0	43	0	826277888	45	4079
2026-01-05 13:43:17.43	137.35	18.35	-37.3	-38.6	20.6	0.00e+00	0	43	0	833617920	45	4068
2026-01-05 13:43:18.43	137.28	18.47	-37.2	-38.5	20.7	0.00e+00	0	43	0	840957952	45	4013
2026-01-05 13:43:19.43	137.20	18.59	-37.3	-38.6	20.6	0.00e+00	0	43	0	848297984	45	4079
2026-01-05 13:43:20.44	137.13	18.71	-37.2	-38.5	20.6	0.00e+00	0	43	0	855638016	45	4042
2026-01-05 13:43:21.43	137.06	18.83	-37.3	-38.6	20.6	0.00e+00	0	43	0	861929472	45	4093
2026-01-05 13:43:22.43	136.99	18.95	-37.3	-38.7	20.5	0.00e+00	0	43	0	869269504	45	4106
2026-01-05 13:43:23.43	136.92	19.07	-37.0	-38.3	20.8	0.00e+00	0	43	0	876609536	44	4184
2026-01-05 13:43:24.43	136.84	19.19	-37.1	-38.5	20.7	0.00e+00	0	43	0	883949568	44	4250
2026-01-05 13:43:25.44	136.77	19.31	-37.1	-38.5	20.7	0.00e+00	0	43	0	891289600	44	4259
2026-01-05 13:43:26.44	136.69	19.43	-37.1	-38.5	20.7	0.00e+00	0	43	0	898629632	44	4256
2026-01-05 13:43:27.44	136.62	19.56	-37.1	-38.5	20.6	0.00e+00	0	43	0	905969664	44	4270
2026-01-05 13:43:28.44	136.54	19.68	-37.2	-38.6	20.5	0.00e+00	0	43	0	913309696	44	4304
2026-01-05 13:43:29.44	136.46	19.80	-37.1	-38.5	20.6	0.00e+00	0	43	0	920649728	44	4268
2026-01-05 13:43:30.44	136.39	19.93	-37.1	-38.5	20.6	0.00e+00	0	43	0	927989760	44	4277
2026-01-05 13:43:31.44	136.31	20.05	-37.2	-38.6	20.6	0.00e+00	0	43	0	934281216	44	4295
2026-01-05 13:43:32.44	136.23	20.18	-37.1	-38.4	20.6	0.00e+00	0	43	0	941621248	44	4240
2026-01-05 13:43:33.45	136.15	20.31	-37.1	-38.5	20.6	0.00e+00	0	43	0	948961280	44	4251
2026-01-05 13:43:34.45	136.07	20.43	-37.0	-38.4	20.7	0.00e+00	0	43	0	956301312	44	4199
2026-01-05 13:43:35.45	135.99	20.56	-37.0	-38.3	20.8	0.00e+00	0	43	0	963641344	44	4191
2026-01-05 13:43:36.45	135.91	20.69	-37.0	-38.4	20.7	0.00e+00	0	43	0	970981376	44	4207
2026-01-05 13:43:37.45	135.83	20.82	-37.0	-38.4	20.7	0.00e+00	0	43	0	978321408	44	4218
2026-01-05 13:43:38.45	135.74	20.95	-37.1	-38.4	20.7	0.00e+00	0	43	0	985661440	44	4242
2026-01-05 13:43:39.46	135.66	21.08	-37.2	-38.6	20.5	0.00e+00	0	43	0	993001472	44	4316
2026-01-05 13:43:40.46	135.57	21.21	-37.0	-38.4	20.7	0.00e+00	0	43	0	999292928	44	4221
2026-01-05 13:43:41.46	135.49	21.34	-36.9	-38.3	20.8	0.00e+00	0	43	0	1006632960	44	4179
2026-01-05 13:43:42.46	135.40	21.47	-37.0	-38.4	20.7	0.00e+00	0	43	0	1013972992	44	4202
2026-01-05 13:43:43.46	135.32	21.60	-37.0	-38.4	20.6	0.00e+00	0	43	0	1021313024	44	4227
2026-01-05 13:43:44.46	135.23	21.73	-37.2	-38.7	20.4	0.00e+00	0	43	0	1028653056	44	4358
2026-01-05 13:43:45.46	135.14	21.87	-37.0	-38.4	20.6	0.00e+00	0	43	0	1035993088	44	4229
2026-01-05 13:43:46.46	135.05	22.00	-37.0	-38.5	20.6	0.00e+00	0	43	0	1043333120	44	4260
2026-01-05 13:43:47.46	134.96	22.14	-37.1	-38.6	20.5	0.00e+00	0	43	0	1050673152	44	4301
2026-01-05 13:43:48.46	134.87	22.27	-37.0	-38.5	20.6	0.00e+00	0	43	0	1056964608	44	4243
2026-01-05 13:43:49.46	134.78	22.41	-37.1	-38.6	20.5	0.00e+00	0	43	0	1064304640	44	4308
2026-01-05 13:43:50.46	134.69	22.54	-36.9	-38.4	20.7	0.00e+00	0	43	0	1071644672	44	4198
2026-01-05 13:43:51.46	134.60	22.68	-36.9	-38.3	20.8	0.00e+00	0	43	0	1078984704	44	4175
2026-01-05 13:43:52.47	134.50	22.82	-37.0	-38.4	20.7	0.00e+00	0	43	0	1086324736	44	4209
2026-01-05 13:43:53.46	134.41	22.96	-37.1	-38.5	20.6	0.00e+00	0	43	0	1093664768	44	4271
2026-01-05 13:43:54.47	134.31	23.10	-37.0	-38.4	20.7	0.00e+00	0	43	0	1101004800	44	4202
2026-01-05 13:43:55.47	134.21	23.24	-37.1	-38.5	20.6	0.00e+00	0	43	0	1108344832	44	4253
2026-01-05 13:43:56.46	134.12	23.38	-36.9	-38.3	20.7	0.00e+00	0	43	0	1115684864	44	4177
2026-01-05 13:43:57.47	134.02	23.52	-37.0	-38.4	20.8	0.00e+00	0	43	0	1121976320	44	4196
2026-01-05 13:43:58.47	133.92	23.66	-37.0	-38.4	20.8	0.00e+00	0	43	0	1129316352	44	4201
2026-01-05 13:43:59.47	133.82	23.80	-37.0	-38.4	20.7	0.00e+00	0	43	0	1136656384	44	4230
2026-01-05 13:44:00.47	133.72	23.95	-36.9	-38.3	20.8	0.00e+00	0	43	0	1143996416	44	4154
2026-01-05 13:44:01.47	133.62	24.09	-36.9	-38.2	20.9	0.00e+00	0	43	0	1151336448	44	4129
2026-01-05 13:44:02.47	133.51	24.24	-36.8	-38.2	20.9	0.00e+00	0	43	0	1158676480	44	4116
2026-01-05 13:44:03.47	133.41	24.38	-36.8	-38.1	21.0	0.00e+00	0	43	0	1166016512	44	4080
2026-01-05 13:44:04.48	133.31	24.53	-36.8	-38.2	20.9	0.00e+00	0	43	0	1173356544	44	4103
2026-01-05 13:44:05.48	133.20	24.67	-36.7	-38.1	20.9	0.00e+00	0	43	0	1180696576	43	4310
2026-01-05 13:44:06.48	133.09	24.82	-36.5	-37.9	21.1	0.00e+00	0	43	0	1186988032	43	4200
2026-01-05 13:44:07.48	132.98	24.97	-36.6	-38.0	21.0	0.00e+00	0	43	0	1194328064	43	4246
2026-01-05 13:44:08.48	132.88	25.12	-36.6	-37.9	21.0	0.00e+00	0	43	0	1201668096	43	4228
2026-01-05 13:44:09.48	132.77	25.27	-36.8	-38.1	20.9	0.00e+00	0	43	0	1209008128	43	4333
2026-01-05 13:44:10.48	132.65	25.42	-36.4	-37.7	21.2	0.00e+00	0	43	0	1216348160	43	4117
2026-01-05 13:44:11.48	132.54	25.57	-36.4	-37.7	21.0	0.00e+00	0	43	0	1223688192	43	4142
2026-01-05 13:44:12.48	132.43	25.72	-36.2	-37.5	21.4	0.00e+00	0	43	0	1231028224	43	4036
2026-01-05 13:44:13.48	132.32	25.87	-36.2	-37.5	21.4	0.00e+00	0	43	0	1238368256	43	4048
2026-01-05 13:44:14.48	132.20	26.03	-36.1	-37.4	21.5	0.00e+00	0	43	0	1245708288	43	3994
2026-01-05 13:44:15.48	132.08	26.18	-36.1	-37.4	21.5	0.00e+00	0	43	0	1253048320	42	4209
2026-01-05 13:44:16.49	131.96	26.34	-36.0	-37.3	21.6	0.00e+00	0	43	0	1260388352	42	4166
2026-01-05 13:44:17.49	131.85	26.49	-36.0	-37.2	21.7	0.00e+00	0	43	0	1266679808	42	4143
2026-01-05 13:44:18.49	131.72	26.65	-36.1	-37.3	21.6	0.00e+00	0	43	0	1274019840	42	4185
2026-01-05 13:44:19.49	131.60	26.81	-36.0	-37.3	21.6	0.00e+00	0	43	0	1281359872	42	4157
2026-01-05 13:44:20.49	131.48	26.97	-35.9	-37.2	21.7	0.00e+00	0	43	0	1288699904	42	4111
2026-01-05 13:44:21.49	131.36	27.12	-36.0	-37.3	21.6	0.00e+00	0	43	0	1296039936	42	4160
2026-01-05 13:44:22.49	131.23	27.28	-36.0	-37.3	21.5	0.00e+00	0	43	0	1303379968	42	4183
2026-01-05 13:44:23.50	131.10	27.44	-36.0	-37.3	21.5	0.00e+00	0	43	0	1310720000	42	4177
2026-01-05 13:44:24.50	130.98	27.61	-36.0	-37.3	21.5	0.00e+00	0	43	0	1318060032	42	4180
2026-01-05 13:44:25.50	130.85	27.77	-36.0	-37.4	21.5	0.00e+00	0	43	0	1325400064	42	4211
2026-01-05 13:44:26.50	130.72	27.93	-36.0	-37.4	21.4	0.00e+00	0	43	0	1331691520	42	4198
2026-01-05 13:44:27.50	130.59	28.09	-36.0	-37.3	21.5	0.00e+00	0	43	0	1339031552	42	4183
2026-01-05 13:44:28.51	130.45	28.26	-36.0	-37.4	21.4	0.00e+00	0	43	0	1346371584	42	4207
2026-01-05 13:44:29.51	130.32	28.42	-36.0	-37.3	21.4	0.00e+00	0	43	0	1353711616	42	4185
2026-01-05 13:44:30.51	130.18	28.59	-36.1	-37.4	21.4	0.00e+00	0	43	0	1361051648	42	4220
2026-01-05 13:44:31.52	130.04	28.76	-36.3	-37.6	21.2	0.00e+00	0	43	0	1368391680	42	4340
2026-01-05 13:44:32.52	129.90	28.93	-36.0	-37.4	21.4	0.00e+00	0	43	0	1375731712	42	4211
2026-01-05 13:44:33.52	129.76	29.09	-36.1	-37.5	21.3	0.00e+00	0	43	0	1383071744	42	4267
2026-01-05 13:44:34.52	129.62	29.26	-36.1	-37.5	21.3	0.00e+00	0	43	0	1390411776	42	4268
2026-01-05 13:44:35.52	129.48	29.43	-36.2	-37.6	21.3	0.00e+00	0	43	0	1396703232	42	4293
2026-01-05 13:44:36.52	129.33	29.60	-36.1	-37.5	21.3	0.00e+00	0	43	0	1404043264	42	4259
2026-01-05 13:44:37.52	129.19	29.77	-36.3	-37.6	21.3	0.00e+00	0	43	0	1411383296	42	4332
2026-01-05 13:44:38.52	129.04	29.95	-36.3	-37.7	21.1	0.00e+00	0	43	0	1418723328	42	4376
2026-01-05 13:44:39.52	128.89	30.12	-36.3	-37.7	21.2	0.00e+00	0	43	0	1426063360	42	4375
2026-01-05 13:44:40.53	128.74	30.30	-36.4	-37.7	21.2	0.00e+00	0	43	0	1433403392	42	4391
2026-01-05 13:44:41.53	128.58	30.47	-36.4	-37.8	21.1	0.00e+00	0	43	0	1440743424	42	4428
2026-01-05 13:44:42.52	128.43	30.64	-36.3	-37.6	21.3	0.00e+00	0	43	0	1448083456	42	4315
2026-01-05 13:44:43.53	128.27	30.82	-36.2	-37.5	21.4	0.00e+00	0	43	0	1454374912	42	4267
2026-01-05 13:44:44.53	128.11	31.00	-36.2	-37.5	21.4	0.00e+00	0	43	0	1461714944	42	4276
2026-01-05 13:44:45.53	127.95	31.18	-36.2	-37.6	21.3	0.00e+00	0	43	0	1469054976	42	4295
2026-01-05 13:44:46.53	127.79	31.36	-36.1	-37.5	21.5	0.00e+00	0	43	0	1476395008	42	4244
2026-01-05 13:44:47.53	127.63	31.54	-36.1	-37.4	21.5	0.00e+00	0	43	0	1483735040	42	4239
2026-01-05 13:44:48.53	127.46	31.72	-36.2	-37.5	21.4	0.00e+00	0	43	0	1491075072	42	4279
2026-01-05 13:44:49.54	127.29	31.90	-36.0	-37.3	21.6	0.00e+00	0	43	0	1498415104	42	4176
2026-01-05 13:44:50.54	127.13	32.08	-36.1	-37.4	21.5	0.00e+00	0	43	0	1505755136	42	4209
2026-01-05 13:44:51.54	126.95	32.26	-36.0	-37.3	21.6	0.00e+00	0	43	0	1513095168	42	4189
2026-01-05 13:44:52.54	126.78	32.45	-36.2	-37.5	21.4	0.00e+00	0	43	0	1520435200	42	4286
2026-01-05 13:44:53.54	126.61	32.63	-36.0	-37.3	21.5	0.00e+00	0	43	0	1527775232	42	4172
2026-01-05 13:44:54.54	126.43	32.82	-35.8	-37.2	21.7	0.00e+00	0	43	0	1535115264	42	4102
2026-01-05 13:44:55.54	126.25	33.00	-35.9	-37.2	21.5	0.00e+00	0	43	0	1541406720	42	4139
2026-01-05 13:44:56.54	126.07	33.19	-35.9	-37.2	21.6	0.00e+00	0	43	0	1548746752	42	4105
2026-01-05 13:44:57.54	125.89	33.38	-36.2	-37.6	21.2	0.00e+00	0	43	0	1556086784	42	4331
2026-01-05 13:44:58.54	125.70	33.57	-36.0	-37.3	21.5	0.00e+00	0	43	0	1563426816	42	4181
2026-01-05 13:44:59.54	125.51	33.76	-36.0	-37.3	21.5	0.00e+00	0	43	0	1570766848	42	4173
2026-01-05 13:45:00.54	125.32	33.95	-35.9	-37.3	21.6	0.00e+00	0	43	0	1578106880	42	4149
2026-01-05 13:45:01.54	125.13	34.14	-35.9	-37.2	21.6	0.00e+00	0	43	0	1585446912	42	4130
2026-01-05 13:45:02.54	124.94	34.33	-36.1	-37.5	21.4	0.00e+00	0	43	0	1592786944	42	4259
2026-01-05 13:45:03.54	124.74	34.52	-36.1	-37.4	21.5	0.00e+00	0	43	0	1599078400	41	4466
2026-01-05 13:45:04.55	124.54	34.72	-36.0	-37.3	21.6	0.00e+00	0	43	0	1606418432	41	4407
2026-01-05 13:45:05.55	124.34	34.91	-36.2	-37.5	21.4	0.00e+00	0	43	0	1613758464	41	4507
2026-01-05 13:45:06.55	124.13	35.11	-36.1	-37.5	21.5	0.00e+00	0	43	0	1621098496	41	4497
2026-01-05 13:45:07.55	123.92	35.31	-36.2	-37.6	21.4	0.00e+00	0	43	0	1628438528	42	4292
2026-01-05 13:45:08.55	123.72	35.50	-36.2	-37.5	21.5	0.00e+00	0	43	0	1635778560	42	4258
2026-01-05 13:45:09.55	123.50	35.70	-36.3	-37.6	21.4	0.00e+00	0	43	0	1643118592	42	4334
2026-01-05 13:45:10.55	123.29	35.90	-36.4	-37.8	21.3	0.00e+00	0	43	0	1650458624	42	4395
2026-01-05 13:45:11.55	123.07	36.10	-36.2	-37.6	21.5	0.00e+00	0	43	0	1657798656	42	4303
2026-01-05 13:45:12.55	122.85	36.30	-36.2	-37.5	21.5	0.00e+00	0	43	0	1664090112	42	4279
2026-01-05 13:45:13.56	122.63	36.50	-36.1	-37.4	21.6	0.00e+00	0	43	0	1671430144	42	4208
2026-01-05 13:45:14.56	122.40	36.70	-35.9	-37.1	21.8	0.00e+00	0	43	0	1678770176	42	4090
2026-01-05 13:45:15.56	122.18	36.90	-35.8	-37.1	21.8	0.00e+00	0	43	0	1686110208	42	4057
2026-01-05 13:45:16.56	121.94	37.11	-35.8	-37.0	21.8	0.00e+00	0	43	0	1693450240	42	4050
2026-01-05 13:45:17.57	121.71	37.31	-35.7	-37.0	21.9	0.00e+00	0	43	0	1700790272	42	4027
2026-01-05 13:45:18.56	121.47	37.51	-35.5	-36.8	22.0	0.00e+00	0	43	0	1708130304	41	4159
2026-01-05 13:45:19.56	121.23	37.72	-35.7	-37.0	21.8	0.00e+00	0	43	0	1715470336	41	4245
2026-01-05 13:45:20.56	120.99	37.93	-35.8	-37.1	21.7	0.00e+00	0	43	0	1722810368	41	4332
2026-01-05 13:45:21.56	120.74	38.13	-35.9	-37.2	21.7	0.00e+00	0	43	0	1729101824	41	4363
2026-01-05 13:45:22.57	120.49	38.34	-36.4	-37.3	22.3	0.00e+00	0	43	0	1736441856	42	4162
2026-01-05 13:45:23.57	120.24	38.55	-36.4	-37.3	22.2	0.00e+00	0	43	0	1743781888	43	3930
2026-01-05 13:45:24.57	119.99	38.76	-36.4	-37.2	22.3	0.00e+00	0	43	0	1751121920	42	4143
2026-01-05 13:45:25.57	119.73	38.97	-36.5	-37.3	22.3	0.00e+00	0	43	0	1758461952	42	4187
2026-01-05 13:45:26.57	119.46	39.17	-36.5	-37.3	22.3	0.00e+00	0	43	0	1765801984	42	4171
2026-01-05 13:45:27.57	119.20	39.38	-36.5	-37.4	22.2	0.00e+00	0	43	0	1773142016	42	4200
2026-01-05 13:45:28.57	118.93	39.59	-36.5	-37.4	22.2	0.00e+00	0	43	0	1780482048	42	4202
2026-01-05 13:45:29.57	118.66	39.81	-36.6	-37.5	22.1	0.00e+00	0	43	0	1786773504	43	4011
2026-01-05 13:45:30.58	118.38	40.02	-36.6	-37.4	22.2	0.00e+00	0	43	0	1794113536	43	3988
2026-01-05 13:45:31.58	118.10	40.23	-36.7	-37.6	22.1	0.00e+00	0	43	0	1801453568	43	4057
2026-01-05 13:45:32.57	117.82	40.44	-36.8	-37.6	22.0	0.00e+00	0	43	0	1808793600	43	4085
2026-01-05 13:45:33.57	117.53	40.66	-37.0	-37.9	21.8	0.00e+00	0	43	0	1816133632	43	4222
2026-01-05 13:45:34.58	117.23	40.87	-36.8	-37.7	21.9	0.00e+00	0	43	0	1823473664	43	4109
2026-01-05 13:45:35.58	116.94	41.08	-36.7	-37.6	22.1	0.00e+00	0	43	0	1830813696	43	4058
2026-01-05 13:45:36.58	116.64	41.30	-36.6	-37.5	22.1	0.00e+00	0	43	0	1838153728	43	4023
2026-01-05 13:45:37.58	116.34	41.51	-36.8	-37.7	21.9	0.00e+00	0	43	0	1845493760	43	4115
2026-01-05 13:45:38.59	116.02	41.73	-36.9	-37.7	21.9	0.00e+00	0	43	0	1852833792	43	4133
2026-01-05 13:45:39.59	115.71	41.95	-36.8	-37.7	22.0	0.00e+00	0	43	0	1860173824	43	4106
2026-01-05 13:45:40.59	115.40	42.16	-36.9	-37.8	21.9	0.00e+00	0	43	0	1867513856	43	4156
2026-01-05 13:45:41.59	115.08	42.38	-36.7	-37.5	22.1	0.00e+00	0	43	0	1873805312	43	4045
2026-01-05 13:45:42.59	114.75	42.59	-36.6	-37.4	22.2	0.00e+00	0	43	0	1881145344	43	3989
2026-01-05 13:45:43.59	114.42	42.81	-36.5	-37.3	22.3	0.00e+00	0	43	0	1888485376	43	3938
2026-01-05 13:45:44.59	114.09	43.03	-36.3	-37.2	22.4	0.00e+00	0	43	0	1895825408	43	3877
2026-01-05 13:45:45.59	113.75	43.24	-36.2	-37.0	22.5	0.00e+00	0	43	0	1903165440	43	3800
2026-01-05 13:45:46.59	113.41	43.46	-36.3	-37.1	22.4	0.00e+00	0	43	0	1910505472	43	3841
2026-01-05 13:45:47.59	113.06	43.67	-36.4	-37.2	22.4	0.00e+00	0	43	0	1917845504	43	3893
2026-01-05 13:45:48.59	112.71	43.89	-36.2	-37.0	22.4	0.00e+00	0	43	0	1925185536	43	3824
2026-01-05 13:45:49.59	112.35	44.11	-36.6	-37.4	22.2	0.00e+00	0	43	0	1932525568	43	4000
2026-01-05 13:45:50.59	111.99	44.32	-36.8	-37.7	21.9	0.00e+00	0	43	0	1938817024	43	4112
2026-01-05 13:45:51.60	111.62	44.54	-36.9	-37.7	21.9	0.00e+00	0	43	0	1946157056	43	4145
2026-01-05 13:45:52.60	111.25	44.76	-37.1	-38.0	21.7	0.00e+00	0	43	0	1953497088	43	4267
2026-01-05 13:45:53.60	110.87	44.98	-37.0	-37.8	21.8	0.00e+00	0	43	0	1960837120	43	4189
2026-01-05 13:45:54.60	110.49	45.19	-37.2	-38.1	21.6	0.00e+00	0	43	0	1968177152	43	4292
2026-01-05 13:45:55.60	110.10	45.41	-36.8	-37.7	21.9	0.00e+00	0	43	0	1975517184	43	4119
2026-01-05 13:45:56.60	109.71	45.62	-36.8	-37.6	22.0	0.00e+00	0	43	0	1982857216	43	4085
2026-01-05 13:45:57.60	109.31	45.84	-36.7	-37.6	22.0	0.00e+00	0	43	0	1990197248	43	4078
2026-01-05 13:45:58.60	108.91	46.05	-36.8	-37.7	21.9	0.00e+00	0	43	0	1996488704	43	4123
2026-01-05 13:45:59.60	108.50	46.27	-37.1	-38.0	21.7	0.00e+00	0	43	0	2003828736	43	4250
2026-01-05 13:46:00.60	108.09	46.48	-37.1	-38.0	21.7	0.00e+00	0	43	0	2011168768	43	4247
2026-01-05 13:46:01.60	107.67	46.69	-37.2	-38.0	21.7	0.00e+00	0	43	0	2018508800	43	4284
2026-01-05 13:46:02.60	107.24	46.90	-37.3	-38.1	21.6	0.00e+00	0	43	0	2025848832	43	4338
2026-01-05 13:46:03.61	106.80	47.12	-37.7	-38.6	21.3	0.00e+00	0	43	0	2033188864	44	4305
2026-01-05 13:46:04.61	106.37	47.33	-37.8	-38.7	21.2	0.00e+00	0	43	0	2040528896	45	4136
2026-01-05 13:46:05.60	105.93	47.54	-37.9	-38.9	21.1	0.00e+00	0	43	0	2047868928	45	4199
2026-01-05 13:46:06.60	105.48	47.75	-37.9	-38.8	21.1	0.00e+00	0	43	0	2055208960	45	4183
2026-01-05 13:46:07.60	105.02	47.95	-38.1	-39.0	21.0	0.00e+00	0	43	0	2061500416	45	4250
2026-01-05 13:46:08.60	104.56	48.16	-37.8	-38.7	21.2	0.00e+00	0	43	0	2068840448	45	4114
2026-01-05 13:46:09.61	104.08	48.37	-37.7	-38.6	21.3	0.00e+00	0	43	0	2076180480	45	4061
2026-01-05 13:46:10.61	103.61	48.57	-37.5	-38.4	21.5	0.00e+00	0	43	0	2083520512	45	3975
2026-01-05 13:46:11.61	103.13	48.78	-37.4	-38.2	21.6	0.00e+00	0	43	0	2090860544	45	3913
2026-01-05 13:46:12.61	102.64	48.98	-37.5	-38.3	21.5	0.00e+00	0	43	0	2098200576	45	3955
2026-01-05 13:46:13.61	102.15	49.18	-37.6	-38.5	21.4	0.00e+00	0	43	0	2105540608	45	4037
2026-01-05 13:46:14.61	101.65	49.38	-38.0	-38.9	21.1	0.00e+00	0	43	0	2112880640	45	4210
2026-01-05 13:46:15.61	101.14	49.58	-38.3	-39.2	20.8	0.00e+00	0	43	0	2120220672	46	4127
2026-01-05 13:46:16.62	100.62	49.78	-38.8	-39.8	20.3	0.00e+00	0	43	0	2126512128	47	4146
2026-01-05 13:46:17.62	100.10	49.97	-38.8	-39.8	20.3	0.00e+00	0	43	0	2133852160	47	4169
2026-01-05 13:46:18.62	99.57	50.17	-38.7	-39.6	20.4	0.00e+00	0	43	0	2141192192	47	4087
2026-01-05 13:46:19.62	99.04	50.36	-38.4	-39.4	20.7	0.00e+00	0	43	0	2148532224	47	3959
2026-01-05 13:46:20.63	98.49	50.55	-38.2	-39.1	20.8	0.00e+00	0	43	0	2155872256	47	3855
2026-01-05 13:46:21.63	97.95	50.74	-37.9	-38.8	21.1	0.00e+00	0	43	0	2163212288	46	3944
2026-01-05 13:46:22.63	97.39	50.92	-37.6	-38.5	21.4	0.00e+00	0	43	0	2170552320	45	4045
2026-01-05 13:46:23.63	96.83	51.10	-37.6	-38.5	21.4	0.00e+00	0	43	0	2177892352	45	4036
2026-01-05 13:46:24.63	96.26	51.29	-37.9	-38.8	21.2	0.00e+00	0	43	0	2185232384	45	4169
2026-01-05 13:46:25.63	95.69	51.46	-37.9	-38.8	21.2	0.00e+00	0	43	0	2191523840	45	4148
2026-01-05 13:46:26.63	95.11	51.64	-38.3	-39.2	20.8	0.00e+00	0	43	0	2198863872	46	4123
2026-01-05 13:46:27.63	94.52	51.81	-38.2	-39.2	20.8	0.00e+00	0	43	0	2206203904	46	4111
2026-01-05 13:46:28.63	93.92	51.99	-37.9	-38.9	21.1	0.00e+00	0	43	0	2213543936	46	3966
2026-01-05 13:46:29.63	93.32	52.15	-37.6	-38.5	21.4	0.00e+00	0	43	0	2220883968	46	3803
2026-01-05 13:46:30.62	92.72	52.32	-37.4	-38.3	21.6	0.00e+00	0	43	0	2228224000	45	3934
2026-01-05 13:46:31.62	92.10	52.48	-37.5	-38.4	21.5	0.00e+00	0	43	0	2235564032	45	3999
2026-01-05 13:46:32.62	91.48	52.64	-37.7	-38.6	21.2	0.00e+00	0	43	0	2242904064	45	4097
2026-01-05 13:46:33.63	90.84	52.80	-37.8	-38.7	21.3	0.00e+00	0	43	0	2249195520	45	4112
2026-01-05 13:46:34.63	90.20	52.95	-37.8	-38.7	21.3	0.00e+00	0	43	0	2257584128	45	4105
2026-01-05 13:46:35.63	89.56	53.10	-37.8	-38.7	21.2	0.00e+00	0	43	0	2263875584	45	4133
2026-01-05 13:46:36.63	88.91	53.25	-37.6	-38.5	21.4	0.00e+00	0	43	0	2271215616	45	4022
2026-01-05 13:46:37.63	88.25	53.40	-37.8	-38.7	21.2	0.00e+00	0	43	0	2278555648	45	4120
2026-01-05 13:46:38.63	87.59	53.54	-37.6	-38.5	21.4	0.00e+00	0	43	0	2285895680	45	4040
2026-01-05 13:46:39.63	86.92	53.67	-37.4	-38.2	21.7	0.00e+00	0	44	0	2293235712	45	3912
2026-01-05 13:46:40.63	86.25	53.81	-37.3	-38.2	21.7	0.00e+00	0	43	0	2300575744	45	3889
2026-01-05 13:46:41.63	85.57	53.94	-37.4	-38.3	21.6	0.00e+00	0	43	0	2307915776	45	3924
2026-01-05 13:46:42.64	84.87	54.06	-37.6	-38.5	21.4	0.00e+00	0	43	0	2315255808	45	4049
2026-01-05 13:46:43.64	84.18	54.19	-37.9	-38.8	21.1	0.00e+00	0	43	0	2322595840	45	4189
2026-01-05 13:46:44.64	83.48	54.30	-38.4	-39.4	20.7	0.00e+00	0	44	0	2328887296	46	4203
2026-01-05 13:46:45.64	82.77	54.42	-38.6	-39.5	20.5	0.00e+00	0	43	0	2336227328	46	4274
2026-01-05 13:46:46.64	82.06	54.53	-38.4	-39.4	20.7	0.00e+00	0	43	0	2343567360	46	4204
2026-01-05 13:46:47.64	81.35	54.63	-38.1	-39.0	21.1	0.00e+00	0	43	0	2350907392	46	4014
2026-01-05 13:46:48.64	80.62	54.73	-37.7	-38.6	21.4	0.00e+00	0	43	0	2358247424	46	3847
2026-01-05 13:46:49.64	79.90	54.83	-37.7	-38.6	21.4	0.00e+00	0	43	0	2365587456	46	3851
2026-01-05 13:46:50.63	79.17	54.92	-37.9	-38.8	21.1	0.00e+00	0	43	0	2372927488	46	3956
2026-01-05 13:46:51.64	78.43	55.01	-38.1	-39.0	21.0	0.00e+00	0	43	0	2380267520	46	4010
2026-01-05 13:46:52.64	77.69	55.09	-38.4	-39.3	20.7	0.00e+00	0	43	0	2387607552	46	4164
2026-01-05 13:46:53.64	76.95	55.17	-38.3	-39.2	20.8	0.00e+00	0	43	0	2393899008	46	4132
2026-01-05 13:46:54.64	76.20	55.25	-38.0	-38.9	21.1	0.00e+00	0	43	0	2401239040	46	3964
2026-01-05 13:46:55.64	75.45	55.31	-37.7	-38.5	21.4	0.00e+00	0	43	0	2408579072	46	3824
2026-01-05 13:46:56.64	74.69	55.38	-37.4	-38.3	21.6	0.00e+00	0	43	0	2415919104	45	3914
2026-01-05 13:46:57.64	73.93	55.44	-37.7	-38.6	21.4	0.00e+00	0	43	0	2423259136	45	4070
2026-01-05 13:46:58.64	73.17	55.49	-38.0	-38.9	21.1	0.00e+00	0	43	0	2430599168	45	4205
2026-01-05 13:46:59.64	72.40	55.54	-38.2	-39.1	20.9	0.00e+00	0	43	0	2437939200	46	4085
2026-01-05 13:47:00.64	71.64	55.59	-38.2	-39.1	20.9	0.00e+00	0	43	0	2445279232	46	4070
2026-01-05 13:47:01.64	70.87	55.62	-38.1	-39.0	21.0	0.00e+00	0	43	0	2452619264	46	4014
2026-01-05 13:47:02.65	70.09	55.66	-37.8	-38.7	21.3	0.00e+00	0	43	0	2458910720	46	3895
2026-01-05 13:47:03.65	69.31	55.69	-37.7	-38.6	21.4	0.00e+00	0	43	0	2466250752	46	3856
2026-01-05 13:47:04.65	68.54	55.71	-37.8	-38.7	21.3	0.00e+00	0	43	0	2473590784	46	3878
2026-01-05 13:47:05.65	67.76	55.73	-37.9	-38.8	21.2	0.00e+00	0	43	0	2480930816	46	3915
2026-01-05 13:47:06.65	66.99	55.74	-38.3	-39.2	20.8	0.00e+00	0	43	0	2488270848	46	4135
2026-01-05 13:47:07.65	66.21	55.75	-38.2	-39.1	20.9	0.00e+00	0	43	0	2495610880	46	4083
2026-01-05 13:47:08.65	65.43	55.76	-38.2	-39.1	21.0	0.00e+00	0	43	0	2502950912	46	4070
2026-01-05 13:47:09.66	64.65	55.75	-37.9	-38.8	21.2	0.00e+00	0	43	0	2510290944	46	3931
2026-01-05 13:47:10.66	63.87	55.75	-37.8	-38.7	21.3	0.00e+00	0	43	0	2516582400	45	4101
2026-01-05 13:47:11.66	63.09	55.73	-37.8	-38.7	21.2	0.00e+00	0	44	0	2523922432	45	4116
2026-01-05 13:47:12.66	62.32	55.72	-38.1	-39.1	21.0	0.00e+00	0	43	0	2531262464	45	4294
2026-01-05 13:47:13.66	61.54	55.69	-38.4	-39.3	20.7	0.00e+00	0	43	0	2538602496	46	4188
2026-01-05 13:47:14.66	60.77	55.67	-38.4	-39.3	20.8	0.00e+00	0	43	0	2545942528	46	4159
2026-01-05 13:47:15.66	59.99	55.63	-38.5	-39.4	20.6	0.00e+00	0	43	0	2553282560	46	4242
2026-01-05 13:47:16.66	59.22	55.60	-38.2	-39.1	21.0	0.00e+00	0	43	0	2560622592	46	4058
2026-01-05 13:47:17.65	58.46	55.55	-37.9	-38.8	21.2	0.00e+00	0	43	0	2567962624	46	3930
2026-01-05 13:47:18.66	57.69	55.50	-37.6	-38.5	21.4	0.00e+00	0	43	0	2575302656	46	3817
2026-01-05 13:47:19.66	56.93	55.45	-37.8	-38.7	21.3	0.00e+00	0	43	0	2581594112	46	3876
2026-01-05 13:47:20.66	56.17	55.39	-37.9	-38.8	21.2	0.00e+00	0	43	0	2588934144	46	3925
2026-01-05 13:47:21.67	55.41	55.33	-38.1	-39.0	21.0	0.00e+00	0	43	0	2596274176	46	4029
2026-01-05 13:47:22.67	54.65	55.26	-38.1	-39.0	21.0	0.00e+00	0	43	0	2603614208	46	4023
2026-01-05 13:47:23.67	53.90	55.19	-37.9	-38.8	21.2	0.00e+00	0	43	0	2610954240	46	3946
2026-01-05 13:47:24.67	53.16	55.11	-37.6	-38.5	21.5	0.00e+00	0	43	0	2618294272	46	3786
2026-01-05 13:47:25.67	52.42	55.03	-37.5	-38.3	21.6	0.00e+00	0	43	0	2625634304	45	3951
2026-01-05 13:47:26.67	51.68	54.94	-37.4	-38.2	21.7	0.00e+00	0	43	0	2632974336	45	3893
2026-01-05 13:47:27.67	50.95	54.85	-37.4	-38.3	21.6	0.00e+00	0	43	0	2640314368	45	3921
2026-01-05 13:47:28.68	50.22	54.76	-37.6	-38.5	21.5	0.00e+00	0	43	0	2647654400	45	4011
2026-01-05 13:47:29.68	49.50	54.66	-37.5	-38.4	21.5	0.00e+00	0	43	0	2654994432	45	3964
2026-01-05 13:47:30.68	48.78	54.55	-37.6	-38.5	21.3	0.00e+00	0	43	0	2662334464	45	4025
2026-01-05 13:47:31.68	48.07	54.44	-37.8	-38.7	21.2	0.00e+00	0	43	0	2668625920	45	4103
2026-01-05 13:47:32.67	47.37	54.33	-37.6	-38.5	21.5	0.00e+00	0	43	0	2675965952	45	4009
2026-01-05 13:47:33.68	46.66	54.21	-37.7	-38.6	21.4	0.00e+00	0	43	0	2683305984	45	4060
2026-01-05 13:47:34.68	45.97	54.09	-37.8	-38.7	21.3	0.00e+00	0	43	0	2690646016	45	4108
2026-01-05 13:47:35.68	45.28	53.97	-38.1	-39.0	20.9	0.00e+00	0	43	0	2697986048	46	4051
2026-01-05 13:47:36.68	44.60	53.84	-38.2	-39.1	20.9	0.00e+00	0	43	0	2705326080	46	4085
2026-01-05 13:47:37.68	43.92	53.71	-38.0	-38.9	21.1	0.00e+00	0	43	0	2712666112	46	3965
2026-01-05 13:47:38.68	43.25	53.57	-37.7	-38.6	21.4	0.00e+00	0	43	0	2720006144	46	3846
2026-01-05 13:47:39.68	42.59	53.43	-37.4	-38.2	21.7	0.00e+00	0	43	0	2726297600	45	3898
2026-01-05 13:47:40.68	41.93	53.29	-37.4	-38.3	21.6	0.00e+00	0	43	0	2733637632	45	3928
2026-01-05 13:47:41.69	41.28	53.14	-37.7	-38.6	21.2	0.00e+00	0	43	0	2740977664	45	4077
2026-01-05 13:47:42.69	40.63	52.99	-37.7	-38.6	21.3	0.00e+00	0	43	0	2748317696	45	4073
2026-01-05 13:47:43.69	39.99	52.84	-37.6	-38.5	21.4	0.00e+00	0	43	0	2755657728	45	4027
2026-01-05 13:47:44.69	39.36	52.68	-37.4	-38.2	21.6	0.00e+00	0	43	0	2762997760	45	3908
2026-01-05 13:47:45.69	38.74	52.53	-37.3	-38.2	21.7	0.00e+00	0	43	0	2770337792	45	3896
2026-01-05 13:47:46.69	38.12	52.36	-37.5	-38.4	21.5	0.00e+00	0	43	0	2777677824	45	3962
2026-01-05 13:47:47.69	37.51	52.20	-37.9	-38.8	21.2	0.00e+00	0	43	0	2785017856	45	4174
2026-01-05 13:47:48.70	36.90	52.03	-38.3	-39.2	20.8	0.00e+00	0	43	0	2791309312	46	4135
2026-01-05 13:47:49.70	36.31	51.86	-38.2	-39.2	20.7	0.00e+00	0	43	0	2798649344	46	4110
2026-01-05 13:47:50.70	35.72	51.69	-38.0	-38.9	21.1	0.00e+00	0	43	0	2805989376	46	3988
2026-01-05 13:47:51.70	35.14	51.51	-37.5	-38.4	21.4	0.00e+00	0	43	0	2813329408	45	3976
2026-01-05 13:47:52.71	34.56	51.33	-37.5	-38.4	21.5	0.00e+00	0	43	0	2820669440	45	3983
2026-01-05 13:47:53.70	33.99	51.15	-38.0	-38.9	21.1	0.00e+00	0	43	0	2828009472	45	4212
2026-01-05 13:47:54.71	33.43	50.97	-38.4	-39.4	20.6	0.00e+00	0	43	0	2835349504	46	4194
2026-01-05 13:47:55.71	32.87	50.78	-38.5	-39.4	20.6	0.00e+00	0	43	0	2842689536	46	4226
2026-01-05 13:47:56.71	32.32	50.60	-38.1	-39.0	20.8	0.00e+00	0	43	0	2848980992	46	4047
2026-01-05 13:47:57.71	31.78	50.41	-38.0	-38.9	21.1	0.00e+00	0	43	0	2856321024	46	3970
2026-01-05 13:47:58.72	31.24	50.22	-37.7	-38.6	21.3	0.00e+00	0	43	0	2863661056	46	3843
2026-01-05 13:47:59.71	30.72	50.03	-37.8	-38.6	21.3	0.00e+00	0	43	0	2871001088	46	3868
2026-01-05 13:48:00.72	30.19	49.83	-37.5	-38.4	21.5	0.00e+00	0	43	0	2878341120	45	3960
2026-01-05 13:48:01.72	29.68	49.64	-37.7	-38.6	21.3	0.00e+00	0	44	0	2885681152	45	4071
2026-01-05 13:48:02.72	29.17	49.44	-38.0	-39.0	21.0	0.00e+00	0	43	0	2893021184	45	4260
2026-01-05 13:48:03.72	28.67	49.24	-38.1	-39.0	20.9	0.00e+00	0	43	0	2900361216	45	4282
2026-01-05 13:48:04.72	28.18	49.04	-38.0	-38.9	21.0	0.00e+00	0	43	0	2907701248	45	4218
2026-01-05 13:48:05.72	27.69	48.84	-37.8	-38.7	21.2	0.00e+00	0	43	0	2915041280	45	4136
2026-01-05 13:48:06.72	27.21	48.64	-37.8	-38.7	21.2	0.00e+00	0	43	0	2922381312	45	4127
2026-01-05 13:48:07.73	26.73	48.43	-37.6	-38.5	21.4	0.00e+00	0	43	0	2929721344	45	4037
2026-01-05 13:48:08.73	26.26	48.22	-37.8	-38.7	21.1	0.00e+00	0	43	0	2936012800	45	4129
2026-01-05 13:48:09.73	25.80	48.02	-38.0	-38.9	21.0	0.00e+00	0	43	0	2943352832	45	4211
2026-01-05 13:48:10.73	25.34	47.81	-38.1	-39.0	20.9	0.00e+00	0	43	0	2950692864	45	4269
2026-01-05 13:48:11.73	24.89	47.60	-37.9	-38.9	21.0	0.00e+00	0	43	0	2958032896	45	4208
2026-01-05 13:48:12.73	24.45	47.39	-37.6	-38.5	21.2	0.00e+00	0	43	0	2965372928	45	4011
2026-01-05 13:48:13.73	24.01	47.18	-37.5	-38.4	21.5	0.00e+00	0	44	0	2972712960	45	3975
2026-01-05 13:48:14.73	23.58	46.97	-37.3	-38.2	21.6	0.00e+00	0	43	0	2980052992	45	3897
2026-01-05 13:48:15.73	23.15	46.76	-37.1	-37.9	21.8	0.00e+00	0	43	0	2987393024	45	3780
2026-01-05 13:48:16.74	22.72	46.55	-37.1	-37.9	21.9	0.00e+00	0	43	0	2994733056	44	4004
2026-01-05 13:48:17.73	22.31	46.34	-37.3	-38.2	21.7	0.00e+00	0	44	0	3001024512	44	4133
2026-01-05 13:48:18.74	21.90	46.12	-37.3	-38.2	21.6	0.00e+00	0	43	0	3008364544	44	4122
2026-01-05 13:48:19.74	21.50	45.91	-37.4	-38.3	21.6	0.00e+00	0	43	0	3015704576	44	4182
2026-01-05 13:48:20.74	21.10	45.69	-37.2	-38.1	21.7	0.00e+00	0	43	0	3023044608	44	4075
2026-01-05 13:48:21.74	20.70	45.48	-36.9	-37.7	22.1	0.00e+00	0	43	0	3030384640	44	3901
2026-01-05 13:48:22.74	20.32	45.27	-36.8	-37.6	22.1	0.00e+00	0	43	0	3037724672	44	3868
2026-01-05 13:48:23.74	19.93	45.05	-36.8	-37.7	22.1	0.00e+00	0	43	0	3045064704	44	3889
2026-01-05 13:48:24.75	19.55	44.83	-37.0	-37.9	21.9	0.00e+00	0	43	0	3052404736	44	3986
2026-01-05 13:48:25.75	19.18	44.62	-37.0	-37.9	21.9	0.00e+00	0	43	0	3058696192	44	3962
2026-01-05 13:48:26.75	18.82	44.40	-36.8	-37.6	22.2	0.00e+00	0	43	0	3066036224	44	3861
2026-01-05 13:48:27.75	18.45	44.19	-36.6	-37.5	22.3	0.00e+00	0	43	0	3073376256	44	3789
2026-01-05 13:48:28.75	18.10	43.97	-36.4	-37.2	22.4	0.00e+00	0	43	0	3080716288	43	3906
2026-01-05 13:48:29.75	17.74	43.75	-36.5	-37.3	22.3	0.00e+00	0	43	0	3088056320	43	3932
2026-01-05 13:48:30.75	17.40	43.54	-36.6	-37.4	22.2	0.00e+00	0	43	0	3095396352	43	3984
2026-01-05 13:48:31.76	17.05	43.32	-36.7	-37.6	22.1	0.00e+00	0	43	0	3102736384	43	4058
2026-01-05 13:48:32.76	16.71	43.10	-36.7	-37.6	22.1	0.00e+00	0	43	0	3110076416	43	4053
2026-01-05 13:48:33.76	16.38	42.89	-36.8	-37.7	22.0	0.00e+00	0	43	0	3117416448	43	4123
2026-01-05 13:48:34.76	16.05	42.67	-36.9	-37.8	21.9	0.00e+00	0	44	0	3123707904	43	4165
2026-01-05 13:48:35.76	15.73	42.46	-36.8	-37.7	22.0	0.00e+00	0	43	0	3131047936	43	4129
2026-01-05 13:48:36.76	15.41	42.24	-36.5	-37.4	20.5	0.00e+00	0	43	0	3138387968	43	3988
2026-01-05 13:48:37.77	15.09	42.03	-36.7	-37.6	22.0	0.00e+00	0	43	0	3145728000	43	4071
2026-01-05 13:48:38.77	14.78	41.81	-36.7	-37.6	22.1	0.00e+00	0	43	0	3153068032	43	4055
2026-01-05 13:48:39.77	14.47	41.60	-36.9	-37.8	21.9	0.00e+00	0	43	0	3160408064	43	4151
2026-01-05 13:48:40.78	14.16	41.38	-37.0	-37.9	21.8	0.00e+00	0	43	0	3167748096	43	4204
2026-01-05 13:48:41.77	13.87	41.17	-37.0	-37.8	21.8	0.00e+00	0	43	0	3175088128	43	4190
2026-01-05 13:48:42.77	13.57	40.96	-36.9	-37.8	21.9	0.00e+00	0	43	0	3182428160	43	4150
2026-01-05 13:48:43.78	13.28	40.74	-36.7	-37.6	22.1	0.00e+00	0	43	0	3189768192	43	4068
2026-01-05 13:48:44.78	12.99	40.53	-36.7	-37.5	22.1	0.00e+00	0	44	0	3197108224	43	4039
2026-01-05 13:48:45.78	12.70	40.32	-36.6	-37.5	22.1	0.00e+00	0	43	0	3204448256	43	4018
2026-01-05 13:48:46.78	12.42	40.11	-36.7	-37.6	21.8	0.00e+00	0	43	0	3210739712	43	4084
2026-01-05 13:48:47.78	12.15	39.90	-36.7	-37.6	22.0	0.00e+00	0	43	0	3218079744	43	4091
2026-01-05 13:48:48.78	11.88	39.69	-36.9	-37.8	21.9	0.00e+00	0	43	0	3225419776	43	4147
2026-01-05 13:48:49.79	11.60	39.47	-36.6	-37.4	22.2	0.00e+00	0	43	0	3232759808	43	3998
2026-01-05 13:48:50.79	11.34	39.27	-36.3	-37.1	22.4	0.00e+00	0	43	0	3240099840	43	3861
2026-01-05 13:48:51.79	11.08	39.06	-36.2	-37.1	22.5	0.00e+00	0	43	0	3247439872	43	3838
2026-01-05 13:48:52.79	10.82	38.85	-36.3	-37.2	22.4	0.00e+00	0	43	0	3254779904	43	3879
2026-01-05 13:48:53.79	10.56	38.64	-36.3	-37.1	22.4	0.00e+00	0	43	0	3262119936	43	3864
2026-01-05 13:48:54.79	10.31	38.43	-36.4	-37.3	22.3	0.00e+00	0	43	0	3268411392	43	3917
2026-01-05 13:48:55.80	10.06	38.23	-36.5	-37.3	22.2	0.00e+00	0	43	0	3275751424	43	3956
2026-01-05 13:48:56.80	9.81	38.02	-36.5	-37.4	22.2	0.00e+00	0	43	0	3283091456	43	3966
2026-01-05 13:48:57.79	9.57	37.82	-36.5	-37.3	22.1	0.00e+00	0	43	0	3290431488	43	3936
2026-01-05 13:48:58.79	9.33	37.61	-36.5	-37.3	22.3	0.00e+00	0	43	0	3297771520	43	3939
2026-01-05 13:48:59.79	9.09	37.41	-36.4	-37.3	22.3	0.00e+00	0	43	0	3305111552	43	3918
2026-01-05 13:49:00.79	8.86	37.21	-36.5	-37.4	22.2	0.00e+00	0	43	0	3312451584	43	3965
2026-01-05 13:49:01.79	8.63	37.00	-36.6	-37.5	22.1	0.00e+00	0	43	0	3319791616	43	4018
2026-01-05 13:49:02.79	8.40	36.80	-36.7	-37.6	22.0	0.00e+00	0	43	0	3327131648	43	4067
2026-01-05 13:49:03.79	8.18	36.60	-36.7	-37.5	22.1	0.00e+00	0	43	0	3333423104	43	4039
2026-01-05 13:49:04.79	7.95	36.40	-36.6	-37.4	22.2	0.00e+00	0	43	0	3340763136	43	3995
2026-01-05 13:49:05.79	7.73	36.20	-36.5	-37.4	22.2	0.00e+00	0	43	0	3348103168	43	3965
2026-01-05 13:49:06.79	7.52	36.00	-36.3	-37.1	22.5	0.00e+00	0	43	0	3355443200	43	3845
2026-01-05 13:49:07.80	7.30	35.80	-36.3	-37.1	22.4	0.00e+00	0	43	0	3362783232	43	3859
2026-01-05 13:49:08.80	7.09	35.61	-36.2	-37.0	22.5	0.00e+00	0	43	0	3370123264	43	3821
2026-01-05 13:49:09.80	6.88	35.41	-36.3	-37.2	22.4	0.00e+00	0	43	0	3377463296	43	3873
2026-01-05 13:49:10.80	6.67	35.22	-36.4	-37.3	22.3	0.00e+00	0	43	0	3384803328	43	3938
2026-01-05 13:49:11.80	6.47	35.02	-36.4	-37.3	22.3	0.00e+00	0	44	0	3391094784	43	3934
2026-01-05 13:49:12.80	6.27	34.83	-36.4	-37.3	22.3	0.00e+00	0	43	0	3398434816	43	3934
2026-01-05 13:49:13.80	6.07	34.63	-36.3	-37.2	22.4	0.00e+00	0	43	0	3405774848	43	3875
2026-01-05 13:49:14.80	5.87	34.44	-36.1	-37.0	22.5	0.00e+00	0	43	0	3413114880	43	3796
2026-01-05 13:49:15.80	5.68	34.25	-36.0	-36.9	22.6	0.00e+00	0	43	0	3420454912	42	3970
2026-01-05 13:49:16.80	5.49	34.06	-36.0	-36.8	22.7	0.00e+00	0	43	0	3427794944	42	3946
2026-01-05 13:49:17.79	5.30	33.87	-36.1	-37.0	22.5	0.00e+00	0	44	0	3435134976	42	4007
2026-01-05 13:49:18.79	5.11	33.68	-36.3	-37.1	22.3	0.00e+00	0	43	0	3442475008	42	4094
2026-01-05 13:49:19.79	4.93	33.49	-36.6	-37.4	22.2	0.00e+00	0	43	0	3449815040	42	4238
2026-01-05 13:49:20.79	4.74	33.31	-36.7	-37.6	22.0	0.00e+00	0	43	0	3456106496	42	4324
2026-01-05 13:49:21.80	4.56	33.12	-36.8	-37.7	21.9	0.00e+00	0	44	0	3463446528	43	4116
2026-01-05 13:49:22.81	4.38	32.93	-36.9	-37.8	21.9	0.00e+00	0	43	0	3470786560	43	4154
2026-01-05 13:49:23.80	4.20	32.75	-36.7	-37.6	22.0	0.00e+00	0	43	0	3478126592	43	4068
2026-01-05 13:49:24.81	4.03	32.56	-36.7	-37.6	22.0	0.00e+00	0	44	0	3485466624	43	4064
2026-01-05 13:49:25.81	3.86	32.38	-36.5	-37.4	22.2	0.00e+00	0	43	0	3492806656	43	3980
2026-01-05 13:49:26.81	3.68	32.20	-36.5	-37.4	22.2	0.00e+00	0	43	0	3500146688	43	3992
2026-01-05 13:49:27.82	3.51	32.01	-36.6	-37.5	22.1	0.00e+00	0	43	0	3507486720	43	4016
2026-01-05 13:49:28.82	3.35	31.83	-36.5	-37.4	22.2	0.00e+00	0	44	0	3514826752	43	3966
2026-01-05 13:49:29.82	3.18	31.65	-36.4	-37.2	22.3	0.00e+00	0	43	0	3522166784	43	3905
2026-01-05 13:49:30.82	3.02	31.47	-36.5	-37.3	22.2	0.00e+00	0	43	0	3529506816	43	3944
2026-01-05 13:49:31.82	2.86	31.29	-36.3	-37.2	22.3	0.00e+00	0	44	0	3536846848	43	3888
2026-01-05 13:49:32.82	2.70	31.12	-36.3	-37.1	22.4	0.00e+00	0	43	0	3543138304	43	3860
2026-01-05 13:49:33.82	2.54	30.94	-36.1	-36.9	22.5	0.00e+00	0	43	0	3550478336	42	3982
2026-01-05 13:49:34.83	2.38	30.76	-36.1	-36.9	22.6	0.00e+00	0	43	0	3557818368	42	3987
2026-01-05 13:49:35.83	2.23	30.59	-36.1	-37.0	22.5	0.00e+00	0	43	0	3565158400	42	4012
2026-01-05 13:49:36.83	2.08	30.41	-36.2	-37.0	22.5	0.00e+00	0	44	0	3572498432	42	4043
2026-01-05 13:49:37.83	1.92	30.24	-36.3	-37.2	22.3	0.00e+00	0	44	0	3579838464	42	4108
2026-01-05 13:49:38.83	1.78	30.07	-36.3	-37.1	22.4	0.00e+00	0	43	0	3587178496	42	4071
2026-01-05 13:49:39.83	1.63	29.90	-36.3	-37.2	22.4	0.00e+00	0	43	0	3594518528	42	4101
2026-01-05 13:49:40.83	1.48	29.72	-36.4	-37.2	22.3	0.00e+00	0	43	0	3600809984	42	4122
2026-01-05 13:49:41.83	1.34	29.55	-36.5	-37.3	22.2	0.00e+00	0	43	0	3608150016	42	4185
2026-01-05 13:49:42.83	1.19	29.39	-36.5	-37.4	22.2	0.00e+00	0	43	0	3615490048	42	4197
2026-01-05 13:49:43.83	1.05	29.22	-36.5	-37.3	22.3	0.00e+00	0	44	0	3622830080	42	4176
2026-01-05 13:49:44.83	0.91	29.05	-36.5	-37.4	22.2	0.00e+00	0	43	0	3630170112	42	4217
2026-01-05 13:49:45.83	0.77	28.88	-36.6	-37.5	22.1	0.00e+00	0	43	0	3637510144	42	4264
2026-01-05 13:49:46.84	0.64	28.71	-36.6	-37.5	22.1	0.00e+00	0	43	0	3644850176	42	4267
2026-01-05 13:49:47.83	0.50	28.55	-36.7	-37.6	22.0	0.00e+00	0	43	0	3652190208	42	4295
2026-01-05 13:49:48.83	0.37	28.39	-36.8	-37.6	21.9	0.00e+00	0	43	0	3659530240	43	4086
2026-01-05 13:49:49.83	0.23	28.22	-36.8	-37.7	21.9	0.00e+00	0	43	0	3665821696	43	4116
2026-01-05 13:49:50.83	0.10	28.06	-36.8	-37.6	22.0	0.00e+00	0	44	0	3673161728	43	4087
2026-01-05 13:49:51.83	359.97	27.90	-36.9	-37.8	21.8	0.00e+00	0	43	0	3680501760	43	4149
2026-01-05 13:49:52.84	359.84	27.73	-37.0	-37.8	21.8	0.00e+00	0	43	0	3687841792	43	4186
2026-01-05 13:49:53.83	359.72	27.58	-36.9	-37.7	21.9	0.00e+00	0	43	0	3695181824	43	4142
2026-01-05 13:49:54.84	359.59	27.41	-36.9	-37.8	21.8	0.00e+00	0	43	0	3702521856	43	4176
2026-01-05 13:49:55.84	359.47	27.26	-36.9	-37.7	21.8	0.00e+00	0	43	0	3709861888	43	4145
2026-01-05 13:49:56.85	359.34	27.10	-36.9	-37.8	21.8	0.00e+00	0	43	0	3717201920	43	4166
2026-01-05 13:49:57.85	359.22	26.94	-36.9	-37.7	21.8	0.00e+00	0	43	0	3724541952	43	4140
2026-01-05 13:49:58.85	359.10	26.78	-36.8	-37.7	21.9	0.00e+00	0	43	0	3730833408	43	4119
2026-01-05 13:49:59.85	358.98	26.63	-36.9	-37.7	21.9	0.00e+00	0	43	0	3738173440	43	4145
2026-01-05 13:50:00.85	358.86	26.47	-36.7	-37.6	22.0	0.00e+00	0	43	0	3745513472	43	4072
2026-01-05 13:50:01.85	358.74	26.32	-36.7	-37.6	22.0	0.00e+00	0	44	0	3752853504	43	4078
2026-01-05 13:50:02.85	358.63	26.16	-36.7	-37.6	22.0	0.00e+00	0	43	0	3760193536	43	4075
2026-01-05 13:50:03.85	358.51	26.01	-36.7	-37.6	22.0	0.00e+00	0	43	0	3767533568	43	4071
2026-01-05 13:50:04.85	358.40	25.86	-36.7	-37.5	22.0	0.00e+00	0	43	0	3774873600	43	4046
2026-01-05 13:50:05.85	358.28	25.71	-36.6	-37.5	22.0	0.00e+00	0	43	0	3782213632	43	4040
2026-01-05 13:50:06.85	358.17	25.56	-36.8	-37.7	21.9	0.00e+00	0	43	0	3788505088	43	4140
2026-01-05 13:50:07.86	358.06	25.40	-36.8	-37.7	21.9	0.00e+00	0	43	0	3795845120	43	4122
2026-01-05 13:50:08.86	357.95	25.25	-36.9	-37.8	21.8	0.00e+00	0	43	0	3803185152	43	4155
2026-01-05 13:50:09.86	357.84	25.11	-36.9	-37.8	21.7	0.00e+00	0	43	0	3810525184	43	4186
2026-01-05 13:50:10.86	357.74	24.96	-36.9	-37.8	21.7	0.00e+00	0	43	0	3817865216	43	4174
2026-01-05 13:50:11.87	357.63	24.81	-37.0	-37.9	21.7	0.00e+00	0	43	0	3825205248	43	4196
2026-01-05 13:50:12.87	357.52	24.66	-37.0	-37.9	21.7	0.00e+00	0	43	0	3832545280	43	4217
2026-01-05 13:50:13.88	357.42	24.52	-37.1	-37.9	21.6	0.00e+00	0	43	0	3839885312	43	4241
2026-01-05 13:50:14.88	357.31	24.37	-37.1	-38.0	21.6	0.00e+00	0	43	0	3847225344	43	4248
2026-01-05 13:50:15.88	357.21	24.23	-37.0	-37.9	21.6	0.00e+00	0	43	0	3854565376	43	4231
2026-01-05 13:50:16.88	357.11	24.08	-37.0	-37.9	21.6	0.00e+00	0	43	0	3861905408	43	4237
2026-01-05 13:50:17.89	357.01	23.94	-37.0	-37.9	21.7	0.00e+00	0	43	0	3869245440	43	4219
2026-01-05 13:50:18.89	356.91	23.80	-37.0	-37.9	21.7	0.00e+00	0	43	0	3875536896	43	4225
2026-01-05 13:50:19.89	356.81	23.66	-37.0	-37.9	21.7	0.00e+00	0	43	0	3882876928	43	4210
2026-01-05 13:50:20.89	356.71	23.51	-37.0	-37.9	21.6	0.00e+00	0	43	0	3890216960	43	4220
2026-01-05 13:50:21.89	356.62	23.37	-37.1	-38.0	21.6	0.00e+00	0	43	0	3897556992	43	4250
2026-01-05 13:50:22.89	356.52	23.23	-36.9	-37.8	21.7	0.00e+00	0	43	0	3904897024	43	4189
2026-01-05 13:50:23.89	356.43	23.10	-37.0	-37.8	21.7	0.00e+00	0	43	0	3912237056	43	4188
2026-01-05 13:50:24.89	356.33	22.96	-37.0	-37.9	21.7	0.00e+00	0	43	0	3919577088	43	4194
2026-01-05 13:50:25.90	356.24	22.82	-36.9	-37.8	21.8	0.00e+00	0	43	0	3926917120	43	4158
2026-01-05 13:50:26.90	356.14	22.68	-36.9	-37.8	21.8	0.00e+00	0	44	0	3933208576	43	4171
2026-01-05 13:50:27.90	356.05	22.55	-36.9	-37.8	21.7	0.00e+00	0	44	0	3940548608	43	4178
2026-01-05 13:50:28.90	355.96	22.41	-36.9	-37.8	21.8	0.00e+00	0	43	0	3947888640	43	4175
2026-01-05 13:50:29.90	355.87	22.28	-36.9	-37.8	21.8	0.00e+00	0	43	0	3955228672	43	4169
2026-01-05 13:50:30.90	355.78	22.14	-37.0	-37.9	21.7	0.00e+00	0	43	0	3962568704	43	4206
2026-01-05 13:50:31.90	355.70	22.01	-37.0	-37.9	21.7	0.00e+00	0	43	0	3969908736	43	4204
2026-01-05 13:50:32.90	355.61	21.87	-37.0	-37.9	21.7	0.00e+00	0	43	0	3977248768	43	4194
2026-01-05 13:50:33.90	355.52	21.74	-37.0	-37.9	21.7	0.00e+00	0	43	0	3984588800	43	4206
2026-01-05 13:50:34.90	355.43	21.61	-37.1	-38.0	21.6	0.00e+00	0	43	0	3991928832	43	4244
2026-01-05 13:50:35.90	355.35	21.48	-37.1	-38.0	21.6	0.00e+00	0	43	0	3998220288	43	4255
2026-01-05 13:50:36.91	355.26	21.35	-37.2	-38.1	21.5	0.00e+00	0	43	0	4005560320	43	4303
2026-01-05 13:50:37.91	355.18	21.22	-37.2	-38.1	21.5	0.00e+00	0	44	0	4012900352	43	4325
2026-01-05 13:50:38.90	355.10	21.09	-37.4	-38.3	21.4	0.00e+00	0	43	0	4020240384	44	4178
2026-01-05 13:50:39.90	355.02	20.96	-37.5	-38.4	21.4	0.00e+00	0	43	0	4027580416	44	4201
2026-01-05 13:50:40.90	354.93	20.83	-37.5	-38.4	21.3	0.00e+00	0	43	0	4034920448	44	4237
2026-01-05 13:50:41.90	354.85	20.70	-37.6	-38.5	21.3	0.00e+00	0	43	0	4042260480	44	4278
2026-01-05 13:50:42.90	354.77	20.58	-37.7	-38.6	21.2	0.00e+00	0	43	0	4049600512	44	4322
2026-01-05 13:50:43.91	354.69	20.45	-37.7	-38.7	21.1	0.00e+00	0	43	0	4056940544	44	4342
2026-01-05 13:50:44.91	354.61	20.32	-37.8	-38.7	21.1	0.00e+00	0	43	0	4063232000	45	4121
2026-01-05 13:50:45.91	354.54	20.20	-37.8	-38.8	21.0	0.00e+00	0	43	0	4070572032	45	4153
2026-01-05 13:50:46.91	354.46	20.07	-37.8	-38.7	21.1	0.00e+00	0	43	0	4077912064	45	4130
2026-01-05 13:50:47.91	354.38	19.95	-37.9	-38.8	20.9	0.00e+00	0	43	0	4085252096	45	4185
2026-01-05 13:50:48.91	354.31	19.83	-37.8	-38.7	21.0	0.00e+00	0	43	0	4092592128	45	4142
2026-01-05 13:50:49.91	354.23	19.70	-37.9	-38.8	21.0	0.00e+00	0	43	0	4099932160	45	4182
2026-01-05 13:50:50.91	354.16	19.58	-37.8	-38.8	21.0	0.00e+00	0	43	0	4107272192	45	4148
2026-01-05 13:50:51.91	354.08	19.46	-37.8	-38.8	21.0	0.00e+00	0	43	0	4114612224	45	4148
2026-01-05 13:50:52.91	354.01	19.34	-37.9	-38.9	20.9	0.00e+00	0	43	0	4120903680	45	4197
2026-01-05 13:50:53.91	353.93	19.22	-37.8	-38.8	20.9	0.00e+00	0	43	0	4128243712	45	4185
2026-01-05 13:50:54.91	353.86	19.10	-37.8	-38.8	20.9	0.00e+00	0	43	0	4135583744	45	4188
2026-01-05 13:50:55.91	353.79	18.98	-37.8	-38.9	20.9	0.00e+00	0	43	0	4142923776	45	4199
2026-01-05 13:50:56.91	353.72	18.86	-37.9	-39.0	20.9	0.00e+00	0	43	0	4150263808	45	4244
2026-01-05 13:50:57.91	353.65	18.74	-37.9	-38.9	20.8	0.00e+00	0	43	0	4157603840	45	4231
2026-01-05 13:50:58.91	353.58	18.62	-38.0	-39.0	20.8	0.00e+00	0	43	0	4164943872	45	4256
2026-01-05 13:50:59.91	353.51	18.50	-38.0	-39.0	20.8	0.00e+00	0	43	0	4172283904	45	4275
2026-01-05 13:51:00.91	353.44	18.39	-38.1	-39.2	20.6	0.00e+00	0	43	0	4179623936	45	4347
2026-01-05 13:51:01.91	353.37	18.27	-38.1	-39.1	20.7	0.00e+00	0	43	0	4185915392	45	4331
2026-01-05 13:51:02.91	353.30	18.15	-38.1	-39.2	20.7	0.00e+00	0	44	0	4193255424	45	4342
2026-01-05 13:51:03.91	353.24	18.04	-38.2	-39.2	20.6	0.00e+00	0	43	0	4200595456	45	4384
2026-01-05 13:51:04.91	353.17	17.92	-38.1	-39.1	20.7	0.00e+00	0	44	0	4207935488	45	4336
2026-01-05 13:51:05.91	353.10	17.81	-38.1	-39.1	20.7	0.00e+00	0	43	0	4215275520	45	4328
2026-01-05 13:51:06.91	353.04	17.69	-38.2	-39.3	20.5	0.00e+00	0	43	0	4222615552	45	4402
2026-01-05 13:51:07.91	352.97	17.58	-38.1	-39.2	20.6	0.00e+00	0	43	0	4229955584	45	4355
2026-01-05 13:51:08.91	352.91	17.47	-38.3	-39.3	20.5	0.00e+00	0	43	0	4237295616	46	4176
2026-01-05 13:51:09.91	352.84	17.35	-38.3	-39.4	20.5	0.00e+00	0	43	0	4244635648	46	4198
2026-01-05 13:51:10.92	352.78	17.24	-38.3	-39.3	20.5	0.00e+00	0	43	0	4250927104	46	4188
2026-01-05 13:51:11.92	352.72	17.13	-38.4	-39.3	20.5	0.00e+00	0	43	0	4258267136	46	4187
2026-01-05 13:51:12.92	352.65	17.02	-38.4	-39.4	20.5	0.00e+00	0	43	0	4266655744	46	4209
2026-01-05 13:51:13.92	352.59	16.91	-38.5	-39.5	20.4	0.00e+00	0	43	0	4272947200	46	4249
2026-01-05 13:51:14.92	352.53	16.80	-38.4	-39.4	20.4	0.00e+00	0	43	0	4280287232	46	4224
2026-01-05 13:51:15.92	352.47	16.69	-38.4	-39.4	20.4	0.00e+00	0	43	0	4287627264	46	4221
2026-01-05 13:51:16.92	352.41	16.58	-38.5	-39.5	20.3	0.00e+00	0	43	0	4294967296	46	4266
2026-01-05 13:51:17.92	352.35	16.47	-38.5	-39.5	20.3	0.00e+00	0	43	0	4302307328	46	4276
2026-01-05 13:51:18.93	352.29	16.36	-38.6	-39.6	20.2	0.00e+00	0	43	0	4309647360	46	4316
2026-01-05 13:51:19.93	352.23	16.25	-38.5	-39.6	20.3	0.00e+00	0	43	0	4316987392	46	4295
2026-01-05 13:51:20.93	352.17	16.14	-38.7	-39.7	20.1	0.00e+00	0	43	0	4324327424	46	4390
2026-01-05 13:51:21.93	352.11	16.04	-38.6	-39.6	20.2	0.00e+00	0	43	0	4330618880	46	4331
2026-01-05 13:51:22.93	352.05	15.93	-38.6	-39.7	20.1	0.00e+00	0	43	0	4337958912	46	4351
2026-01-05 13:51:23.93	352.00	15.82	-38.8	-39.8	19.9	0.00e+00	0	43	0	4345298944	47	4181
2026-01-05 13:51:24.93	351.94	15.72	-38.7	-39.8	20.1	0.00e+00	0	43	0	4352638976	47	4150
2026-01-05 13:51:25.93	351.88	15.61	-38.8	-39.8	20.0	0.00e+00	0	43	0	4359979008	47	4184
2026-01-05 13:51:26.92	351.83	15.51	-38.8	-39.8	20.0	0.00e+00	0	44	0	4367319040	47	4178
2026-01-05 13:51:27.92	351.77	15.40	-38.9	-39.9	19.9	0.00e+00	0	43	0	4374659072	47	4202
2026-01-05 13:51:28.92	351.71	15.30	-38.9	-39.9	19.9	0.00e+00	0	43	0	4380950528	47	4229
2026-01-05 13:51:29.92	351.66	15.20	-38.9	-39.9	19.9	0.00e+00	0	43	0	4388290560	47	4225
2026-01-05 13:51:30.92	351.60	15.09	-38.8	-39.8	20.0	0.00e+00	0	43	0	4395630592	47	4169
2026-01-05 13:51:31.92	351.55	14.99	-38.9	-39.9	19.9	0.00e+00	0	43	0	4402970624	47	4228
2026-01-05 13:51:32.92	351.50	14.89	-38.9	-39.9	19.9	0.00e+00	0	43	0	4410310656	47	4223
2026-01-05 13:51:33.92	351.44	14.78	-39.0	-40.1	19.7	0.00e+00	0	43	0	4417650688	47	4313
2026-01-05 13:51:34.92	351.39	14.68	-38.9	-40.0	19.8	0.00e+00	0	43	0	4424990720	47	4263
2026-01-05 13:51:35.91	351.34	14.58	-39.0	-40.0	19.8	0.00e+00	0	43	0	4431282176	47	4287
2026-01-05 13:51:36.91	351.29	14.48	-39.0	-40.0	19.8	0.00e+00	0	43	0	4438622208	47	4283
2026-01-05 13:51:37.91	351.23	14.38	-39.1	-40.1	19.7	0.00e+00	0	43	0	4445962240	47	4308
2026-01-05 13:51:38.90	351.18	14.28	-39.1	-40.1	19.7	0.00e+00	0	43	0	4453302272	47	4323
2026-01-05 13:51:39.90	351.13	14.18	-39.1	-40.2	19.7	0.00e+00	0	43	0	4460642304	47	4354
2026-01-05 13:51:40.90	351.08	14.08	-39.2	-40.2	19.6	0.00e+00	0	43	0	4467982336	47	4389
2026-01-05 13:51:41.89	351.03	13.98	-39.2	-40.2	19.6	0.00e+00	0	44	0	4475322368	47	4382
2026-01-05 13:51:42.89	350.98	13.89	-39.2	-40.3	19.6	0.00e+00	0	43	0	4482662400	47	4408
2026-01-05 13:51:43.89	350.93	13.79	-39.4	-40.4	19.7	0.00e+00	0	44	0	4490002432	48	4229
2026-01-05 13:51:44.88	350.88	13.69	-39.4	-40.5	19.6	0.00e+00	0	43	0	4496293888	48	4267
2026-01-05 13:51:45.88	350.83	13.59	-39.5	-40.6	19.6	0.00e+00	0	43	0	4503633920	48	4299
2026-01-05 13:51:46.88	350.78	13.50	-39.5	-40.6	19.5	0.00e+00	0	44	0	4510973952	48	4319
2026-01-05 13:51:47.87	350.74	13.40	-39.5	-40.6	19.6	0.00e+00	0	43	0	4518313984	48	4299
2026-01-05 13:51:48.86	350.69	13.30	-39.6	-40.7	19.4	0.00e+00	0	43	0	4525654016	48	4357
2026-01-05 13:51:49.87	350.64	13.21	-39.4	-40.6	19.5	0.00e+00	0	44	0	4532994048	48	4297
2026-01-05 13:51:50.86	350.59	13.11	-39.4	-40.6	19.5	0.00e+00	0	43	0	4539285504	48	4325
2026-01-05 13:51:51.86	350.55	13.02	-39.4	-40.6	19.5	0.00e+00	0	43	0	4546625536	48	4334
2026-01-05 13:51:52.86	350.50	12.92	-39.4	-40.6	19.5	0.00e+00	0	44	0	4553965568	48	4327
2026-01-05 13:51:53.86	350.45	12.83	-39.4	-40.7	19.4	0.00e+00	0	44	0	4561305600	48	4357
2026-01-05 13:51:54.85	350.41	12.73	-39.3	-40.6	19.5	0.00e+00	0	44	0	4568645632	48	4326
2026-01-05 13:51:55.85	350.36	12.64	-39.4	-40.8	19.3	0.00e+00	0	43	0	4575985664	48	4397
2026-01-05 13:51:56.85	350.32	12.55	-39.3	-40.6	19.5	0.00e+00	0	44	0	4583325696	48	4318
2026-01-05 13:51:57.85	350.27	12.45	-39.3	-40.6	19.5	0.00e+00	0	44	0	4590665728	48	4298
2026-01-05 13:51:58.85	350.23	12.36	-39.4	-40.6	19.5	0.00e+00	0	43	0	4596957184	48	4331
2026-01-05 13:51:59.85	350.18	12.27	-39.4	-40.7	19.4	0.00e+00	0	44	0	4604297216	48	4348
2026-01-05 13:52:00.85	350.14	12.18	-39.7	-40.9	19.2	0.00e+00	0	43	0	4611637248	48	4448
2026-01-05 13:52:01.84	350.10	12.09	-39.5	-40.7	19.4	0.00e+00	0	44	0	4618977280	48	4379
2026-01-05 13:52:02.84	350.05	11.99	-39.4	-40.6	19.5	0.00e+00	0	43	0	4626317312	48	4298
2026-01-05 13:52:03.83	350.01	11.90	-39.5	-40.6	19.4	0.00e+00	0	44	0	4633657344	48	4331
2026-01-05 13:52:04.83	349.97	11.81	-39.6	-40.8	19.2	0.00e+00	0	43	0	4640997376	48	4401
2026-01-05 13:52:05.82	349.92	11.72	-39.7	-40.9	19.2	0.00e+00	0	44	0	4647288832	48	4467
2026-01-05 13:52:06.81	349.88	11.63	-39.6	-40.8	19.3	0.00e+00	0	44	0	4654628864	48	4422
2026-01-05 13:52:07.81	349.84	11.54	-39.6	-40.8	19.3	0.00e+00	0	43	0	4661968896	48	4423
2026-01-05 13:52:08.80	349.80	11.45	-39.6	-40.9	19.2	0.00e+00	0	43	0	4669308928	48	4448
2026-01-05 13:52:09.80	349.76	11.36	-39.5	-40.8	19.2	0.00e+00	0	43	0	4676648960	48	4424
2026-01-05 13:52:10.80	349.72	11.28	-39.5	-40.8	19.2	0.00e+00	0	43	0	4683988992	48	4440
2026-01-05 13:52:11.80	349.68	11.19	-39.5	-40.9	19.2	0.00e+00	0	43	0	4691329024	48	4460
2026-01-05 13:52:12.79	349.63	11.10	-39.6	-41.0	19.0	0.00e+00	0	43	0	4698669056	48	4541
2026-01-05 13:52:13.79	349.59	11.01	-39.7	-41.1	18.9	0.00e+00	0	43	0	4704960512	48	4567
