passes_logs/2026/01/05/T1/T1__20260105_220348_KHAYYAM_rec.log

#Pass ID: 20260105_220348_KHAYYAM
#Satellite: KHAYYAM
#Configuration: KHAYYAM_480M
#almurnet v.1.7.20251203
#Start time: 2026-01-05 22:03:50

#Version: 2.0.20230620
#Station: T1
#Location: 37.570604 lon 55.790049 lat
#TLE: 1 53370U 22096A   26005.50641227  .00007567  00000+0  30852-3 0  9992
#TLE: 2 53370  97.3566 272.6856 0001238  87.7352 272.4028 15.24728297189794

#Time	Az	El	Level	Level2	SNR	BER	BlckErr	Temp	State	Recorded	gain1	gain2
2026-01-05 22:03:50.11	4.08	5.07	-50.6	-56.0	3.4	0.00e+00	0	46	0	0	73	25720
2026-01-05 22:03:51.10	4.01	5.14	-50.8	-56.5	3.7	0.00e+00	0	46	104	0	72	28876
2026-01-05 22:03:52.10	3.94	5.22	-50.8	-56.5	3.7	0.00e+00	0	46	104	0	72	29028
2026-01-05 22:03:53.10	3.87	5.30	-50.9	-56.6	3.7	0.00e+00	0	46	104	0	72	29151
2026-01-05 22:03:54.10	3.80	5.38	-50.8	-56.5	3.7	0.00e+00	0	46	104	0	72	29001
2026-01-05 22:03:55.09	3.73	5.45	-50.8	-56.5	3.7	0.00e+00	0	46	104	0	72	28990
2026-01-05 22:03:56.09	3.66	5.53	-50.8	-56.5	3.7	0.00e+00	0	46	104	0	72	28865
2026-01-05 22:03:57.09	3.58	5.61	-50.8	-56.5	3.7	0.00e+00	0	47	104	0	72	28988
2026-01-05 22:03:58.09	3.51	5.69	-50.8	-56.5	3.7	0.00e+00	0	47	104	0	72	28998
2026-01-05 22:03:59.09	3.43	5.77	-50.9	-56.5	3.7	0.00e+00	0	47	104	0	72	28969
2026-01-05 22:04:00.09	3.36	5.85	-50.9	-56.5	3.7	0.00e+00	0	47	104	0	72	28947
2026-01-05 22:04:01.09	3.28	5.93	-50.8	-56.6	3.7	0.00e+00	0	47	104	0	72	29172
2026-01-05 22:04:02.08	3.21	6.00	-50.8	-56.5	3.7	0.00e+00	0	47	104	0	72	28977
2026-01-05 22:04:03.08	3.13	6.08	-50.8	-56.5	3.7	0.00e+00	0	47	104	0	72	28934
2026-01-05 22:04:04.08	3.06	6.16	-50.7	-56.4	3.7	0.00e+00	0	47	104	0	72	28757
2026-01-05 22:04:05.07	2.98	6.24	-50.8	-56.5	3.7	0.00e+00	0	47	104	0	72	28833
2026-01-05 22:04:06.07	2.90	6.33	-50.8	-56.5	3.7	0.00e+00	0	47	104	0	72	28900
2026-01-05 22:04:07.07	2.82	6.41	-50.8	-56.5	3.7	0.00e+00	0	47	104	0	72	28988
2026-01-05 22:04:08.07	2.74	6.49	-50.8	-56.5	3.7	0.00e+00	0	47	104	0	72	29027
2026-01-05 22:04:09.07	2.66	6.57	-50.7	-56.5	3.7	0.00e+00	0	47	104	0	72	28855
2026-01-05 22:04:10.06	2.58	6.65	-50.8	-56.4	3.7	0.00e+00	0	48	104	0	72	28793
2026-01-05 22:04:11.06	2.50	6.73	-50.8	-56.5	3.7	0.00e+00	0	48	104	0	72	28922
2026-01-05 22:04:12.06	2.42	6.82	-50.8	-56.5	3.7	0.00e+00	0	48	104	0	72	28939
2026-01-05 22:04:13.06	2.34	6.90	-50.8	-56.4	3.7	0.00e+00	0	48	104	0	72	28730
2026-01-05 22:04:14.06	2.26	6.98	-50.7	-56.4	3.7	0.00e+00	0	48	104	0	72	28787
2026-01-05 22:04:15.06	2.17	7.07	-50.8	-56.5	3.7	0.00e+00	0	48	104	0	72	28879
2026-01-05 22:04:16.05	2.09	7.15	-50.8	-56.5	3.7	0.00e+00	0	48	104	0	72	28861
2026-01-05 22:04:17.05	2.01	7.23	-50.8	-56.5	3.7	0.00e+00	0	48	104	0	72	28825
2026-01-05 22:04:18.05	1.92	7.32	-50.8	-56.5	3.7	0.00e+00	0	48	104	0	72	28992
2026-01-05 22:04:19.05	1.83	7.40	-50.8	-56.5	3.7	0.00e+00	0	48	104	0	72	28868
2026-01-05 22:04:20.05	1.75	7.49	-50.8	-56.5	3.7	0.00e+00	0	48	104	0	72	28847
2026-01-05 22:04:21.05	1.66	7.57	-50.9	-56.5	3.7	0.00e+00	0	48	104	0	72	29067
2026-01-05 22:04:22.05	1.57	7.66	-50.8	-56.5	3.7	0.00e+00	0	48	104	0	72	28981
2026-01-05 22:04:23.04	1.48	7.74	-50.8	-56.5	3.7	0.00e+00	0	49	104	0	72	28993
2026-01-05 22:04:24.04	1.39	7.83	-50.9	-56.5	3.7	0.00e+00	0	48	104	0	72	28998
2026-01-05 22:04:25.03	1.30	7.92	-50.9	-56.5	3.7	0.00e+00	0	48	104	0	72	29061
2026-01-05 22:04:26.04	1.21	8.01	-50.8	-56.5	3.7	0.00e+00	0	49	104	0	72	28927
2026-01-05 22:04:27.03	1.12	8.09	-50.8	-56.5	3.7	0.00e+00	0	48	104	0	72	28966
2026-01-05 22:04:28.02	1.03	8.18	-50.8	-56.5	3.7	0.00e+00	0	48	104	0	72	28899
2026-01-05 22:04:29.02	0.94	8.27	-50.8	-56.5	3.7	0.00e+00	0	49	104	0	72	29009
2026-01-05 22:04:30.02	0.84	8.36	-50.8	-56.5	3.7	0.00e+00	0	49	104	0	72	28926
2026-01-05 22:04:31.02	0.75	8.45	-50.8	-56.5	3.7	0.00e+00	0	49	104	0	72	28825
2026-01-05 22:04:32.02	0.65	8.53	-50.8	-56.5	3.7	0.00e+00	0	49	104	0	72	28915
2026-01-05 22:04:33.01	0.56	8.62	-50.8	-56.5	3.7	0.00e+00	0	49	104	0	72	28941
2026-01-05 22:04:34.02	0.46	8.71	-50.7	-56.5	3.7	0.00e+00	0	49	104	0	72	28822
2026-01-05 22:04:35.02	0.36	8.81	-50.8	-56.4	3.7	0.00e+00	0	49	104	0	72	28808
2026-01-05 22:04:36.01	0.27	8.90	-50.7	-56.4	3.7	0.00e+00	0	49	104	0	72	28784
2026-01-05 22:04:37.01	0.17	8.99	-50.8	-56.4	3.7	0.00e+00	0	49	104	0	72	28700
2026-01-05 22:04:38.01	0.07	9.08	-50.7	-56.4	3.7	0.00e+00	0	49	104	0	72	28592
2026-01-05 22:04:39.01	359.97	9.17	-50.6	-56.4	3.7	0.00e+00	0	49	104	0	72	28544
2026-01-05 22:04:40.00	359.87	9.26	-51.8	-57.1	3.7	0.00e+00	0	49	104	0	74	27572
2026-01-05 22:04:41.00	359.76	9.35	-50.7	-56.4	3.7	0.00e+00	0	49	104	0	73	27029
2026-01-05 22:04:42.00	359.66	9.45	-50.5	-56.2	3.7	0.00e+00	0	49	104	0	73	26391
2026-01-05 22:04:43.00	359.56	9.54	-51.5	-56.9	3.7	0.00e+00	0	49	104	0	73	28586
2026-01-05 22:04:44.00	359.45	9.64	-51.1	-56.5	3.7	0.00e+00	0	49	104	0	73	27283
2026-01-05 22:04:45.00	359.34	9.73	-51.1	-56.6	3.7	0.00e+00	0	49	104	0	73	27550
2026-01-05 22:04:46.00	359.24	9.82	-51.5	-56.8	3.7	0.00e+00	0	49	104	0	73	28451
2026-01-05 22:04:47.00	359.13	9.92	-51.1	-56.2	3.7	0.00e+00	0	49	104	0	73	26492
2026-01-05 22:04:47.99	359.02	10.01	-51.7	-57.0	3.7	0.00e+00	0	49	104	0	74	27407
2026-01-05 22:04:48.99	358.91	10.11	-52.0	-57.4	3.7	0.00e+00	0	49	104	0	74	28547
2026-01-05 22:04:49.99	358.80	10.21	-50.8	-55.1	3.7	0.00e+00	0	49	104	0	73	23339
2026-01-05 22:04:50.99	358.69	10.30	-50.6	-55.7	3.7	0.00e+00	0	49	104	0	72	26325
2026-01-05 22:04:51.99	358.58	10.40	-51.6	-56.6	3.7	0.00e+00	0	50	104	0	73	27758
2026-01-05 22:04:52.99	358.47	10.50	-50.9	-56.6	3.7	0.00e+00	0	49	104	0	73	27740
2026-01-05 22:04:53.99	358.35	10.60	-51.3	-56.6	3.7	0.00e+00	0	50	104	0	73	27780
2026-01-05 22:04:54.99	358.24	10.70	-51.4	-56.8	3.7	0.00e+00	0	50	104	0	73	28172
2026-01-05 22:04:55.99	358.12	10.79	-51.5	-56.9	3.7	0.00e+00	0	49	104	0	73	28732
2026-01-05 22:04:56.98	358.00	10.89	-52.6	-57.5	3.7	0.00e+00	0	50	104	0	75	27396
2026-01-05 22:04:57.98	357.89	10.99	-51.4	-56.7	3.7	0.00e+00	0	49	104	0	74	26542
2026-01-05 22:04:58.98	357.77	11.09	-51.6	-57.5	3.7	0.00e+00	0	50	104	0	73	30572
2026-01-05 22:04:59.97	357.65	11.19	-50.9	-56.7	3.7	0.00e+00	0	50	104	0	72	29534
2026-01-05 22:05:00.97	357.53	11.29	-50.7	-56.5	3.7	0.00e+00	0	50	104	0	72	29005
2026-01-05 22:05:01.97	357.40	11.40	-50.8	-56.6	3.7	0.00e+00	0	50	104	0	72	29190
2026-01-05 22:05:02.97	357.28	11.50	-51.0	-56.7	3.7	0.00e+00	0	50	104	0	72	29805
2026-01-05 22:05:03.97	357.16	11.60	-50.7	-56.6	3.7	0.00e+00	0	50	104	0	72	29157
2026-01-05 22:05:04.96	357.03	11.70	-50.8	-56.6	3.7	0.00e+00	0	50	104	0	72	29184
2026-01-05 22:05:05.96	356.90	11.81	-52.1	-57.4	3.7	0.00e+00	0	50	104	0	74	28790
2026-01-05 22:05:06.96	356.78	11.91	-52.8	-57.6	3.7	0.00e+00	0	50	104	0	76	26174
2026-01-05 22:05:07.96	356.65	12.02	-50.0	-56.4	3.7	0.00e+00	0	50	104	0	71	30291
2026-01-05 22:05:08.95	356.52	12.12	-49.8	-56.1	3.7	0.00e+00	0	50	104	0	71	29400
2026-01-05 22:05:09.95	356.39	12.22	-50.0	-56.2	3.7	0.00e+00	0	50	104	0	71	29674
2026-01-05 22:05:10.95	356.25	12.33	-49.9	-56.2	3.7	0.00e+00	0	50	104	0	71	29607
2026-01-05 22:05:11.95	356.12	12.44	-50.0	-56.2	3.7	0.00e+00	0	50	104	0	71	29514
2026-01-05 22:05:12.95	355.99	12.54	-50.4	-56.5	3.7	0.00e+00	0	50	104	0	71	30705
2026-01-05 22:05:13.94	355.85	12.65	-50.7	-56.5	3.7	0.00e+00	0	50	104	0	72	29072
2026-01-05 22:05:14.94	355.71	12.76	-51.3	-56.9	3.7	0.00e+00	0	50	104	0	73	28564
2026-01-05 22:05:15.93	355.58	12.87	-50.9	-56.6	3.7	0.00e+00	0	50	104	0	73	27668
2026-01-05 22:05:16.93	355.44	12.97	-53.3	-57.8	3.7	0.00e+00	0	50	104	0	77	25298
2026-01-05 22:05:17.93	355.29	13.08	-52.8	-57.9	3.7	0.00e+00	0	50	104	0	77	25395
2026-01-05 22:05:18.93	355.15	13.19	-51.6	-57.1	3.7	0.00e+00	0	50	104	0	75	26165
2026-01-05 22:05:19.92	355.01	13.30	-51.9	-57.3	3.7	0.00e+00	0	50	104	0	75	26638
2026-01-05 22:05:20.92	354.86	13.41	-51.9	-57.3	3.7	0.00e+00	0	50	104	0	75	26720
2026-01-05 22:05:21.93	354.72	13.53	-52.0	-57.3	3.7	0.00e+00	0	50	104	0	75	26823
2026-01-05 22:05:22.92	354.57	13.64	-52.2	-57.6	3.7	0.00e+00	0	50	104	0	75	27588
2026-01-05 22:05:23.92	354.42	13.75	-52.8	-57.8	3.7	0.00e+00	0	50	104	0	76	26745
2026-01-05 22:05:24.92	354.27	13.86	-53.2	-57.8	3.7	0.00e+00	0	50	104	0	77	25373
2026-01-05 22:05:25.92	354.12	13.98	-52.5	-57.7	3.6	0.00e+00	0	50	104	0	76	26558
2026-01-05 22:05:26.92	353.96	14.09	-53.3	-58.5	3.7	0.00e+00	0	50	104	0	77	27209
2026-01-05 22:05:27.91	353.81	14.20	-52.7	-57.8	3.7	0.00e+00	0	50	104	0	76	26709
2026-01-05 22:05:28.91	353.65	14.32	-52.2	-57.4	3.7	0.00e+00	0	50	104	0	76	25516
2026-01-05 22:05:29.91	353.50	14.43	-52.1	-57.3	3.6	0.00e+00	0	50	104	0	76	25210
2026-01-05 22:05:30.91	353.34	14.55	-52.1	-57.3	3.7	0.00e+00	0	50	104	0	76	25128
2026-01-05 22:05:31.91	353.18	14.67	-52.1	-57.3	3.7	0.00e+00	0	50	104	0	76	25250
2026-01-05 22:05:32.91	353.01	14.78	-52.9	-57.8	3.7	0.00e+00	0	50	104	0	76	26597
2026-01-05 22:05:33.90	352.85	14.90	-52.9	-57.9	3.7	0.00e+00	0	50	104	0	76	26910
2026-01-05 22:05:34.90	352.68	15.02	-52.1	-57.4	3.7	0.00e+00	0	50	104	0	76	25432
2026-01-05 22:05:35.90	352.52	15.14	-52.6	-57.9	3.7	0.00e+00	0	50	104	0	76	26930
2026-01-05 22:05:36.89	352.35	15.26	-52.0	-57.3	3.7	0.00e+00	0	50	104	0	76	25349
2026-01-05 22:05:37.90	352.18	15.38	-52.2	-57.5	3.7	0.00e+00	0	50	104	0	76	25731
2026-01-05 22:05:38.89	352.01	15.50	-52.2	-57.5	3.7	0.00e+00	0	50	104	0	76	25941
2026-01-05 22:05:39.89	351.83	15.62	-52.4	-57.7	3.7	0.00e+00	0	51	104	0	76	26507
2026-01-05 22:05:40.88	351.66	15.74	-52.5	-57.8	3.7	0.00e+00	0	51	104	0	76	26639
2026-01-05 22:05:41.88	351.48	15.86	-52.6	-57.8	3.7	0.00e+00	0	51	104	0	76	26798
2026-01-05 22:05:42.87	351.30	15.98	-52.3	-57.7	3.7	0.00e+00	0	51	104	0	76	26422
2026-01-05 22:05:43.86	351.12	16.10	-52.1	-57.6	3.7	0.00e+00	0	50	104	0	76	26006
2026-01-05 22:05:44.86	350.94	16.23	-51.6	-57.1	3.7	0.00e+00	0	50	104	0	75	26179
2026-01-05 22:05:45.86	350.76	16.35	-52.0	-57.5	3.7	0.00e+00	0	51	104	0	75	27234
2026-01-05 22:05:46.86	350.57	16.48	-51.2	-56.9	3.7	0.00e+00	0	50	104	0	74	27087
2026-01-05 22:05:47.86	350.38	16.60	-50.2	-56.2	3.7	0.00e+00	0	50	104	0	72	27938
2026-01-05 22:05:48.86	350.19	16.73	-49.3	-55.6	3.7	0.00e+00	0	51	104	0	70	29219
2026-01-05 22:05:49.86	350.00	16.85	-49.4	-55.5	3.8	0.00e+00	0	51	104	0	70	29076
2026-01-05 22:05:50.85	349.81	16.98	-51.1	-56.8	3.7	0.00e+00	0	50	104	0	72	29900
2026-01-05 22:05:51.85	349.61	17.11	-49.4	-55.6	3.8	0.00e+00	0	50	104	0	70	29256
2026-01-05 22:05:52.85	349.41	17.24	-50.1	-56.0	3.7	0.00e+00	0	50	104	0	70	30808
2026-01-05 22:05:53.84	349.21	17.36	-49.6	-55.6	3.7	0.00e+00	0	51	104	0	69	31061
2026-01-05 22:05:54.84	349.01	17.49	-49.0	-55.2	3.8	0.00e+00	0	50	104	0	70	28128
2026-01-05 22:05:55.84	348.81	17.62	-49.2	-55.3	3.7	0.00e+00	0	51	104	0	69	30099
2026-01-05 22:05:56.83	348.60	17.75	-49.4	-55.4	3.7	0.00e+00	0	51	104	0	69	30390
2026-01-05 22:05:57.83	348.40	17.88	-49.8	-55.8	3.7	0.00e+00	0	51	104	0	70	30079
2026-01-05 22:05:58.83	348.18	18.02	-50.5	-56.3	3.7	0.00e+00	0	51	104	0	71	30118
2026-01-05 22:05:59.83	347.97	18.15	-51.8	-57.0	3.7	0.00e+00	0	51	104	0	74	27265
2026-01-05 22:06:00.83	347.76	18.28	-51.8	-57.0	3.7	0.00e+00	0	51	104	0	74	27515
2026-01-05 22:06:01.83	347.54	18.41	-51.8	-57.2	3.7	0.00e+00	0	51	104	0	75	26418
2026-01-05 22:06:02.83	347.32	18.55	-52.1	-57.4	3.7	0.00e+00	0	51	104	0	75	27040
2026-01-05 22:06:03.83	347.10	18.68	-51.9	-56.9	3.7	0.00e+00	0	51	104	0	75	25658
2026-01-05 22:06:04.83	346.87	18.82	-51.6	-56.8	3.7	0.00e+00	0	51	104	0	75	25143
2026-01-05 22:06:05.83	346.65	18.95	-51.3	-56.6	3.7	0.00e+00	0	51	104	0	74	26052
2026-01-05 22:06:06.82	346.42	19.09	-51.6	-56.7	3.7	0.00e+00	0	51	104	0	74	26438
2026-01-05 22:06:07.82	346.19	19.22	-52.0	-56.9	3.7	0.00e+00	0	51	104	0	74	26984
2026-01-05 22:06:08.82	345.96	19.36	-52.6	-57.0	3.7	0.00e+00	0	51	104	0	75	25895
2026-01-05 22:06:09.82	345.72	19.50	-52.7	-57.0	3.7	0.00e+00	0	51	104	0	76	24264
2026-01-05 22:06:10.82	345.48	19.64	-52.3	-57.1	3.7	0.00e+00	0	51	104	0	76	24753
2026-01-05 22:06:11.82	345.24	19.78	-52.7	-57.2	3.7	0.00e+00	0	51	104	0	76	24908
2026-01-05 22:06:12.82	345.00	19.91	-52.1	-56.5	3.7	0.00e+00	0	51	104	0	76	23098
2026-01-05 22:06:13.81	344.75	20.05	-52.3	-56.7	3.7	0.00e+00	0	51	104	0	76	23688
2026-01-05 22:06:14.81	344.50	20.19	-52.7	-57.3	3.7	0.00e+00	0	51	104	0	76	25256
2026-01-05 22:06:15.81	344.25	20.33	-53.1	-57.6	3.7	0.00e+00	0	51	104	0	76	26217
2026-01-05 22:06:16.81	344.00	20.48	-53.2	-57.5	3.7	0.00e+00	0	51	104	0	77	24436
2026-01-05 22:06:17.80	343.74	20.62	-53.0	-57.1	3.7	0.00e+00	0	51	104	0	77	23197
2026-01-05 22:06:18.80	343.48	20.76	-52.4	-56.8	3.7	0.00e+00	0	51	104	0	76	23698
2026-01-05 22:06:19.80	343.22	20.90	-51.4	-56.7	3.7	0.00e+00	0	51	104	0	74	26360
2026-01-05 22:06:20.79	342.96	21.04	-51.8	-56.8	3.7	0.00e+00	0	51	104	0	74	26764
2026-01-05 22:06:21.79	342.69	21.19	-51.5	-56.9	3.7	0.00e+00	0	51	104	0	74	26901
2026-01-05 22:06:22.79	342.42	21.33	-52.6	-57.3	3.7	0.00e+00	0	51	104	0	75	26719
2026-01-05 22:06:23.79	342.14	21.47	-53.1	-57.5	3.7	0.00e+00	0	51	104	0	76	25872
2026-01-05 22:06:24.78	341.87	21.62	-52.9	-57.7	3.7	0.00e+00	0	51	104	0	77	24988
2026-01-05 22:06:25.78	341.59	21.76	-51.1	-56.9	3.7	0.00e+00	0	51	104	0	74	27072
2026-01-05 22:06:26.78	341.30	21.91	-50.3	-56.0	3.7	0.00e+00	0	51	104	0	72	27322
2026-01-05 22:06:27.78	341.02	22.05	-50.9	-56.5	3.7	0.00e+00	0	51	104	0	72	28872
2026-01-05 22:06:28.77	340.73	22.20	-50.1	-55.9	3.7	0.00e+00	0	51	104	0	72	27016
2026-01-05 22:06:29.77	340.44	22.34	-51.2	-56.4	3.6	0.00e+00	0	51	104	0	73	27180
2026-01-05 22:06:30.77	340.14	22.49	-50.4	-56.3	3.7	0.00e+00	0	51	104	0	72	28254
2026-01-05 22:06:31.77	339.85	22.64	-51.8	-57.2	3.7	0.00e+00	0	51	104	0	74	27901
2026-01-05 22:06:32.76	339.55	22.78	-52.2	-57.5	3.7	0.00e+00	0	51	104	0	75	27259
2026-01-05 22:06:33.76	339.24	22.93	-52.0	-57.3	3.7	0.00e+00	0	51	104	0	75	26723
2026-01-05 22:06:34.76	338.93	23.08	-51.9	-57.2	3.7	0.00e+00	0	51	104	0	75	26452
2026-01-05 22:06:35.75	338.62	23.23	-51.4	-56.7	3.7	0.00e+00	0	51	104	0	74	26331
2026-01-05 22:06:36.76	338.30	23.38	-51.4	-56.7	3.7	0.00e+00	0	51	104	0	74	26342
2026-01-05 22:06:37.75	337.99	23.52	-52.6	-57.8	3.7	0.00e+00	0	51	104	0	75	28337
2026-01-05 22:06:38.75	337.67	23.67	-52.9	-58.0	3.7	0.00e+00	0	51	104	0	76	27309
2026-01-05 22:06:39.75	337.34	23.82	-52.5	-57.8	3.7	0.00e+00	0	51	104	0	76	26724
2026-01-05 22:06:40.74	337.01	23.97	-53.1	-58.1	3.7	0.00e+00	0	51	104	0	76	27711
2026-01-05 22:06:41.74	336.68	24.12	-53.3	-58.1	3.7	0.00e+00	0	51	104	0	77	26053
2026-01-05 22:06:42.73	336.35	24.27	-53.2	-57.9	3.7	0.00e+00	0	51	104	0	77	25646
2026-01-05 22:06:43.73	336.01	24.42	-53.0	-57.8	3.7	0.00e+00	0	51	104	0	77	25278
2026-01-05 22:06:44.73	335.66	24.57	-52.4	-57.6	3.7	0.00e+00	0	51	104	0	76	26197
2026-01-05 22:06:45.73	335.32	24.72	-52.3	-57.6	3.7	0.00e+00	0	51	104	0	76	26178
2026-01-05 22:06:46.73	334.97	24.87	-53.3	-58.1	3.7	0.00e+00	0	51	104	0	77	26074
2026-01-05 22:06:47.73	334.61	25.02	-53.6	-58.3	3.7	0.00e+00	0	51	104	0	77	26600
2026-01-05 22:06:48.72	334.25	25.16	-53.3	-58.2	3.7	0.00e+00	0	51	104	0	78	24896
2026-01-05 22:06:49.72	333.89	25.31	-53.7	-58.4	3.7	0.00e+00	0	51	104	0	78	25456
2026-01-05 22:06:50.72	333.53	25.46	-53.7	-58.4	3.7	0.00e+00	0	51	104	0	78	25430
2026-01-05 22:06:51.71	333.16	25.61	-53.7	-58.4	3.7	0.00e+00	0	51	104	0	78	25528
2026-01-05 22:06:52.71	332.78	25.76	-53.6	-58.4	3.7	0.00e+00	0	51	104	0	78	25567
2026-01-05 22:06:53.71	332.41	25.91	-52.0	-57.5	3.6	0.00e+00	0	51	104	0	76	25728
2026-01-05 22:06:54.70	332.03	26.05	-51.2	-56.9	3.7	0.00e+00	0	51	104	0	74	27057
2026-01-05 22:06:55.71	331.64	26.20	-51.4	-57.1	3.7	0.00e+00	0	51	104	0	74	27637
2026-01-05 22:06:56.70	331.25	26.35	-50.8	-56.6	3.7	0.00e+00	0	51	104	0	73	27519
2026-01-05 22:06:57.70	330.86	26.50	-50.7	-56.4	3.7	0.00e+00	0	51	104	0	73	27183
2026-01-05 22:06:58.70	330.46	26.65	-52.2	-57.3	3.7	0.00e+00	0	51	104	0	75	26792
2026-01-05 22:06:59.69	330.06	26.79	-52.8	-57.5	3.7	0.00e+00	0	51	104	0	76	25711
2026-01-05 22:07:00.69	329.65	26.94	-53.5	-58.0	3.7	0.00e+00	0	51	104	0	77	25729
2026-01-05 22:07:01.69	329.24	27.08	-53.4	-57.9	3.7	0.00e+00	0	51	104	0	77	25396
2026-01-05 22:07:02.68	328.83	27.23	-53.2	-57.9	3.7	0.00e+00	0	51	104	0	77	25620
2026-01-05 22:07:03.68	328.41	27.37	-52.9	-57.7	3.7	0.00e+00	0	51	104	0	77	24839
2026-01-05 22:07:04.68	327.99	27.52	-51.2	-56.8	3.7	0.00e+00	0	51	104	0	74	26621
2026-01-05 22:07:05.67	327.56	27.66	-51.2	-56.7	3.7	0.00e+00	0	51	104	0	74	26511
2026-01-05 22:07:06.67	327.13	27.80	-51.1	-56.6	3.7	0.00e+00	0	51	104	0	74	26018
2026-01-05 22:07:07.66	326.70	27.94	-51.4	-56.9	3.7	0.00e+00	0	51	104	0	74	26948
2026-01-05 22:07:08.66	326.26	28.08	-52.1	-57.2	3.7	0.00e+00	0	51	104	0	74	27872
2026-01-05 22:07:09.66	325.82	28.22	-52.1	-57.2	3.7	0.00e+00	0	51	104	0	75	26332
2026-01-05 22:07:10.66	325.37	28.36	-52.7	-57.5	3.7	0.00e+00	0	51	104	0	76	25732
2026-01-05 22:07:11.65	324.92	28.50	-53.1	-57.8	3.7	0.00e+00	0	51	104	0	76	26674
2026-01-05 22:07:12.65	324.46	28.63	-53.3	-57.8	3.7	0.00e+00	0	51	104	0	77	25097
2026-01-05 22:07:13.65	324.00	28.77	-53.3	-57.8	3.7	0.00e+00	0	51	104	0	77	25166
2026-01-05 22:07:14.65	323.53	28.90	-53.0	-57.6	3.7	0.00e+00	0	51	104	0	77	24543
2026-01-05 22:07:15.65	323.06	29.04	-52.5	-57.2	3.7	0.00e+00	0	51	104	0	76	25014
2026-01-05 22:07:16.65	322.59	29.17	-51.6	-56.9	3.7	0.00e+00	0	51	104	0	75	25396
2026-01-05 22:07:17.65	322.11	29.30	-51.5	-56.8	3.7	0.00e+00	0	51	104	0	74	26617
2026-01-05 22:07:18.64	321.63	29.43	-51.4	-56.8	3.7	0.00e+00	0	51	104	0	74	26855
2026-01-05 22:07:19.64	321.14	29.56	-51.9	-57.2	3.7	0.00e+00	0	51	104	0	74	28018
2026-01-05 22:07:20.64	320.65	29.68	-53.1	-57.9	3.7	0.00e+00	0	51	104	0	76	27059
2026-01-05 22:07:21.63	320.16	29.81	-53.2	-58.0	3.7	0.00e+00	0	51	104	0	77	25778
2026-01-05 22:07:22.63	319.66	29.93	-53.6	-58.3	3.7	0.00e+00	0	51	104	0	77	26746
2026-01-05 22:07:23.63	319.15	30.05	-53.8	-58.3	3.7	0.00e+00	0	51	104	0	78	25151
2026-01-05 22:07:24.63	318.64	30.17	-52.6	-57.5	3.7	0.00e+00	0	51	104	0	77	24262
2026-01-05 22:07:25.62	318.13	30.29	-52.3	-57.3	3.7	0.00e+00	0	51	104	0	75	26794
2026-01-05 22:07:26.62	317.62	30.41	-50.9	-56.5	3.7	0.00e+00	0	51	104	0	74	25827
2026-01-05 22:07:27.62	317.10	30.52	-51.9	-57.2	3.7	0.00e+00	0	51	104	0	74	27995
2026-01-05 22:07:28.62	316.57	30.64	-53.1	-58.0	3.7	0.00e+00	0	51	104	0	76	27338
2026-01-05 22:07:29.61	316.05	30.75	-53.9	-58.3	3.7	0.00e+00	0	51	104	0	78	25375
2026-01-05 22:07:30.61	315.51	30.85	-54.0	-58.3	3.7	0.00e+00	0	51	104	0	78	25171
2026-01-05 22:07:31.61	314.98	30.96	-53.9	-58.3	3.7	0.00e+00	0	51	104	0	78	25238
2026-01-05 22:07:32.61	314.44	31.07	-53.9	-58.3	3.7	0.00e+00	0	51	104	0	78	25290
2026-01-05 22:07:33.61	313.89	31.17	-54.0	-58.4	3.7	0.00e+00	0	51	104	0	78	25476
2026-01-05 22:07:34.60	313.35	31.27	-53.7	-58.2	3.7	0.00e+00	0	51	104	0	78	24897
2026-01-05 22:07:35.60	312.80	31.36	-53.3	-57.8	3.7	0.00e+00	0	51	104	0	78	23860
2026-01-05 22:07:36.60	312.24	31.46	-53.4	-57.8	3.7	0.00e+00	0	51	104	0	78	23949
2026-01-05 22:07:37.60	311.68	31.55	-53.5	-57.9	3.7	0.00e+00	0	51	104	0	78	24181
2026-01-05 22:07:38.60	311.12	31.64	-53.8	-58.1	3.7	0.00e+00	0	51	104	0	78	24771
2026-01-05 22:07:39.59	310.56	31.73	-53.9	-58.5	3.7	0.00e+00	0	51	104	0	78	25896
2026-01-05 22:07:40.59	309.99	31.81	-54.0	-58.5	3.7	0.00e+00	0	51	104	0	78	25906
2026-01-05 22:07:41.59	309.42	31.89	-53.9	-58.3	3.7	0.00e+00	0	51	104	0	78	25234
2026-01-05 22:07:42.59	308.84	31.97	-53.9	-58.2	3.7	0.00e+00	0	51	104	0	78	24961
2026-01-05 22:07:43.58	308.27	32.05	-54.1	-58.6	3.7	0.00e+00	0	51	104	0	78	26171
2026-01-05 22:07:44.58	307.69	32.12	-54.0	-58.5	3.7	0.00e+00	0	51	104	0	78	25908
2026-01-05 22:07:45.57	307.11	32.19	-53.7	-58.2	3.7	0.00e+00	0	51	104	0	78	25071
2026-01-05 22:07:46.57	306.52	32.26	-53.5	-58.0	3.7	0.00e+00	0	51	104	0	78	24338
2026-01-05 22:07:47.57	305.93	32.33	-53.5	-57.9	3.7	0.00e+00	0	51	104	0	78	23970
2026-01-05 22:07:48.57	305.34	32.39	-53.5	-57.9	3.7	0.00e+00	0	51	104	0	78	23971
2026-01-05 22:07:49.57	304.75	32.45	-53.5	-57.9	3.7	0.00e+00	0	51	104	0	78	24027
2026-01-05 22:07:50.57	304.15	32.50	-53.1	-57.8	3.7	0.00e+00	0	51	104	0	78	23916
2026-01-05 22:07:51.57	303.55	32.55	-52.9	-57.7	3.7	0.00e+00	0	51	104	0	77	24841
2026-01-05 22:07:52.57	302.95	32.60	-53.0	-57.7	3.7	0.00e+00	0	51	104	0	77	24862
2026-01-05 22:07:53.56	302.35	32.65	-53.3	-57.6	3.7	0.00e+00	0	51	104	0	77	24685
2026-01-05 22:07:54.56	301.75	32.69	-53.3	-57.7	3.7	0.00e+00	0	51	104	0	77	24924
2026-01-05 22:07:55.56	301.14	32.73	-53.5	-58.1	3.7	0.00e+00	0	51	104	0	77	26111
2026-01-05 22:07:56.56	300.53	32.77	-53.5	-58.2	3.7	0.00e+00	0	51	104	0	77	26367
2026-01-05 22:07:57.56	299.93	32.80	-53.6	-58.2	3.7	0.00e+00	0	51	104	0	77	26381
2026-01-05 22:07:58.56	299.31	32.83	-53.8	-58.2	3.7	0.00e+00	0	51	104	0	78	24988
2026-01-05 22:07:59.56	298.70	32.85	-53.8	-58.1	3.7	0.00e+00	0	51	104	0	78	24599
2026-01-05 22:08:00.56	298.09	32.88	-53.8	-58.1	3.7	0.00e+00	0	51	104	0	78	24688
2026-01-05 22:08:01.55	297.48	32.89	-53.6	-58.0	3.7	0.00e+00	0	51	104	0	78	24457
2026-01-05 22:08:02.55	296.87	32.91	-53.6	-58.1	3.7	0.00e+00	0	51	104	0	78	24780
2026-01-05 22:08:03.55	296.25	32.92	-53.6	-57.7	3.7	0.00e+00	0	51	104	0	78	23658
2026-01-05 22:08:04.55	295.64	32.93	-53.5	-57.6	3.7	0.00e+00	0	51	104	0	78	23362
2026-01-05 22:08:05.55	295.02	32.93	-53.4	-57.8	3.7	0.00e+00	0	51	104	0	78	23817
2026-01-05 22:08:06.54	294.41	32.94	-53.4	-58.1	3.7	0.00e+00	0	51	104	0	78	24601
2026-01-05 22:08:07.54	293.80	32.93	-53.6	-58.2	3.7	0.00e+00	0	51	104	0	78	24910
2026-01-05 22:08:08.54	293.18	32.93	-53.8	-58.3	3.7	0.00e+00	0	51	104	0	78	25125
2026-01-05 22:08:09.54	292.57	32.92	-54.0	-58.3	3.7	0.00e+00	0	51	104	0	78	25316
2026-01-05 22:08:10.54	291.95	32.91	-53.9	-58.4	3.7	0.00e+00	0	51	104	0	78	25587
2026-01-05 22:08:11.54	291.34	32.89	-54.0	-58.5	3.7	0.00e+00	0	51	104	0	78	25822
2026-01-05 22:08:12.53	290.73	32.87	-54.1	-58.5	3.7	0.00e+00	0	51	104	0	78	25919
2026-01-05 22:08:13.53	290.12	32.85	-54.1	-58.5	3.7	0.00e+00	0	51	104	0	78	25953
2026-01-05 22:08:14.53	289.50	32.82	-54.0	-58.5	3.7	0.00e+00	0	51	104	0	78	25956
2026-01-05 22:08:15.53	288.89	32.79	-54.1	-58.6	3.7	0.00e+00	0	51	104	0	78	26024
2026-01-05 22:08:16.53	288.28	32.76	-54.1	-58.6	3.7	0.00e+00	0	51	104	0	78	26033
2026-01-05 22:08:17.53	287.68	32.72	-54.1	-58.6	3.7	0.00e+00	0	51	104	0	78	26054
2026-01-05 22:08:18.52	287.08	32.68	-54.1	-58.6	3.7	0.00e+00	0	51	104	0	78	26154
2026-01-05 22:08:19.52	286.47	32.64	-53.9	-58.5	3.7	0.00e+00	0	51	104	0	78	25691
2026-01-05 22:08:20.52	285.87	32.59	-53.8	-58.4	3.7	0.00e+00	0	51	104	0	78	25602
2026-01-05 22:08:21.52	285.27	32.54	-54.0	-58.5	3.7	0.00e+00	0	51	104	0	78	25853
2026-01-05 22:08:22.52	284.67	32.49	-54.1	-58.7	3.7	0.00e+00	0	51	104	0	78	26280
2026-01-05 22:08:23.51	284.08	32.43	-54.1	-58.7	3.7	0.00e+00	0	51	104	0	78	26283
2026-01-05 22:08:24.51	283.48	32.37	-54.0	-58.6	3.7	0.00e+00	0	51	104	0	78	26048
2026-01-05 22:08:25.51	282.89	32.31	-54.0	-58.5	3.7	0.00e+00	0	51	104	0	78	25906
2026-01-05 22:08:26.51	282.30	32.25	-54.0	-58.5	3.7	0.00e+00	0	51	104	0	78	25867
2026-01-05 22:08:27.50	281.72	32.18	-54.1	-58.6	3.7	0.00e+00	0	51	104	0	78	26235
2026-01-05 22:08:28.50	281.13	32.11	-53.8	-58.4	3.7	0.00e+00	0	51	104	0	78	25410
2026-01-05 22:08:29.50	280.55	32.03	-53.8	-58.3	3.7	0.00e+00	0	51	104	0	78	25107
2026-01-05 22:08:30.49	279.98	31.95	-53.7	-58.3	3.7	0.00e+00	0	51	104	0	78	25096
2026-01-05 22:08:31.49	279.40	31.87	-54.0	-58.6	3.7	0.00e+00	0	51	104	0	78	26015
2026-01-05 22:08:32.49	278.83	31.79	-54.1	-58.7	3.6	0.00e+00	0	51	104	0	78	26305
2026-01-05 22:08:33.48	278.26	31.71	-54.1	-58.7	3.7	0.00e+00	0	51	104	0	78	26286
2026-01-05 22:08:34.48	277.70	31.62	-53.9	-58.5	3.7	0.00e+00	0	51	104	0	78	25841
2026-01-05 22:08:35.48	277.13	31.53	-53.7	-58.3	3.7	0.00e+00	0	51	104	0	78	25348
2026-01-05 22:08:36.47	276.58	31.44	-53.7	-58.4	3.7	0.00e+00	0	51	104	0	78	25590
2026-01-05 22:08:37.47	276.02	31.34	-53.7	-58.5	3.7	0.00e+00	0	51	104	0	78	25735
2026-01-05 22:08:38.47	275.47	31.24	-53.6	-58.2	3.7	0.00e+00	0	51	104	0	78	24945
2026-01-05 22:08:39.46	274.93	31.14	-53.6	-58.3	3.7	0.00e+00	0	51	104	0	78	25282
2026-01-05 22:08:40.46	274.38	31.04	-53.5	-58.2	3.7	0.00e+00	0	51	104	0	78	24913
2026-01-05 22:08:41.46	273.84	30.93	-53.5	-58.2	3.7	0.00e+00	0	51	104	0	78	24901
2026-01-05 22:08:42.46	273.30	30.83	-53.5	-58.1	3.7	0.00e+00	0	51	104	0	78	24625
2026-01-05 22:08:43.46	272.77	30.72	-53.7	-58.1	3.7	0.00e+00	0	51	104	0	78	24552
2026-01-05 22:08:44.45	272.24	30.60	-53.8	-58.4	3.6	0.00e+00	0	51	104	0	78	25501
2026-01-05 22:08:45.45	271.72	30.49	-53.9	-58.4	3.7	0.00e+00	0	51	104	0	78	25486
2026-01-05 22:08:46.45	271.20	30.38	-53.7	-58.3	3.7	0.00e+00	0	51	104	0	78	25330
2026-01-05 22:08:47.45	270.68	30.26	-53.6	-58.3	3.7	0.00e+00	0	51	104	0	78	25316
2026-01-05 22:08:48.44	270.17	30.14	-53.8	-58.3	3.7	0.00e+00	0	51	104	0	78	25349
2026-01-05 22:08:49.44	269.66	30.02	-53.8	-58.4	3.7	0.00e+00	0	51	104	0	78	25518
2026-01-05 22:08:50.44	269.15	29.90	-53.8	-58.3	3.7	0.00e+00	0	51	104	0	78	25341
2026-01-05 22:08:51.44	268.65	29.77	-53.9	-58.4	3.7	0.00e+00	0	51	104	0	78	25515
2026-01-05 22:08:52.43	268.16	29.65	-53.8	-58.3	3.7	0.00e+00	0	51	104	0	78	25151
2026-01-05 22:08:53.43	267.67	29.52	-53.8	-58.3	3.7	0.00e+00	0	51	104	0	78	25231
2026-01-05 22:08:54.42	267.18	29.39	-53.3	-58.0	3.7	0.00e+00	0	51	104	0	78	24354
2026-01-05 22:08:55.42	266.70	29.26	-53.6	-58.2	3.7	0.00e+00	0	51	104	0	78	24964
2026-01-05 22:08:56.41	266.22	29.13	-53.8	-58.2	3.7	0.00e+00	0	51	104	0	78	25079
2026-01-05 22:08:57.41	265.75	29.00	-53.8	-58.3	3.7	0.00e+00	0	51	104	0	78	25193
2026-01-05 22:08:58.41	265.28	28.86	-53.5	-58.0	3.7	0.00e+00	0	51	104	0	78	24391
2026-01-05 22:08:59.40	264.81	28.73	-53.2	-58.0	3.7	0.00e+00	0	51	104	0	78	24292
2026-01-05 22:09:00.40	264.35	28.59	-53.1	-58.0	3.7	0.00e+00	0	51	104	0	78	24396
2026-01-05 22:09:01.40	263.89	28.45	-53.0	-57.9	3.7	0.00e+00	0	51	104	0	78	24177
2026-01-05 22:09:02.39	263.44	28.31	-53.5	-58.4	3.7	0.00e+00	0	51	104	0	78	25495
2026-01-05 22:09:03.40	262.99	28.17	-53.8	-58.4	3.7	0.00e+00	0	51	104	0	78	25636
2026-01-05 22:09:04.39	262.55	28.03	-53.6	-58.2	3.7	0.00e+00	0	51	104	0	78	25068
2026-01-05 22:09:05.39	262.11	27.89	-53.6	-58.2	3.7	0.00e+00	0	51	104	0	78	25073
2026-01-05 22:09:06.39	261.67	27.75	-53.3	-58.1	3.7	0.00e+00	0	51	104	0	78	24597
2026-01-05 22:09:07.39	261.24	27.61	-53.4	-58.2	3.7	0.00e+00	0	51	104	0	78	24820
2026-01-05 22:09:08.39	260.81	27.46	-53.4	-58.0	3.7	0.00e+00	0	51	104	0	78	24332
2026-01-05 22:09:09.39	260.38	27.32	-53.5	-58.1	3.7	0.00e+00	0	51	104	0	78	24533
2026-01-05 22:09:10.39	259.96	27.17	-53.2	-57.9	3.7	0.00e+00	0	51	104	0	78	23995
2026-01-05 22:09:11.39	259.55	27.03	-53.5	-58.1	3.7	0.00e+00	0	51	104	0	78	24616
2026-01-05 22:09:12.38	259.14	26.88	-53.5	-58.3	3.7	0.00e+00	0	51	104	0	78	25278
2026-01-05 22:09:13.38	258.73	26.73	-53.5	-58.3	3.7	0.00e+00	0	51	104	0	78	25097
2026-01-05 22:09:14.38	258.33	26.59	-53.7	-58.4	3.7	0.00e+00	0	51	104	0	78	25448
2026-01-05 22:09:15.38	257.93	26.44	-53.6	-58.2	3.7	0.00e+00	0	51	104	0	78	25066
2026-01-05 22:09:16.38	257.53	26.29	-53.7	-58.3	3.7	0.00e+00	0	51	104	0	78	25150
2026-01-05 22:09:17.38	257.14	26.14	-53.6	-58.2	3.7	0.00e+00	0	51	104	0	78	24896
2026-01-05 22:09:18.38	256.75	25.99	-53.8	-58.3	3.7	0.00e+00	0	51	104	0	78	25275
2026-01-05 22:09:19.38	256.37	25.84	-54.0	-58.4	3.7	0.00e+00	0	51	104	0	78	25525
2026-01-05 22:09:20.38	255.99	25.69	-53.8	-58.4	3.7	0.00e+00	0	51	104	0	78	25535
2026-01-05 22:09:21.37	255.62	25.54	-53.8	-58.3	3.7	0.00e+00	0	51	104	0	78	25364
2026-01-05 22:09:22.37	255.25	25.39	-53.4	-58.3	3.7	0.00e+00	0	51	104	0	78	25136
2026-01-05 22:09:23.36	254.89	25.24	-53.3	-58.1	3.7	0.00e+00	0	51	104	0	78	24725
2026-01-05 22:09:24.36	254.52	25.09	-52.9	-58.0	3.7	0.00e+00	0	51	104	0	77	25699
2026-01-05 22:09:25.36	254.16	24.94	-53.0	-58.0	3.7	0.00e+00	0	51	104	0	77	25858
2026-01-05 22:09:26.36	253.81	24.79	-53.0	-58.1	3.7	0.00e+00	0	51	104	0	77	26182
2026-01-05 22:09:27.36	253.45	24.64	-53.1	-57.8	3.7	0.00e+00	0	51	104	0	77	25329
2026-01-05 22:09:28.36	253.11	24.49	-53.2	-58.1	3.7	0.00e+00	0	51	104	0	77	26030
2026-01-05 22:09:29.36	252.76	24.34	-53.2	-58.1	3.7	0.00e+00	0	52	104	0	77	26259
2026-01-05 22:09:30.36	252.42	24.19	-53.1	-58.3	3.7	0.00e+00	0	51	104	0	77	26624
2026-01-05 22:09:31.36	252.08	24.04	-52.9	-58.3	3.7	0.00e+00	0	51	104	0	77	26593
2026-01-05 22:09:32.35	251.75	23.89	-53.4	-58.4	3.7	0.00e+00	0	51	104	0	77	26988
2026-01-05 22:09:33.35	251.42	23.74	-53.2	-58.4	3.7	0.00e+00	0	51	104	0	77	27041
2026-01-05 22:09:34.35	251.10	23.59	-53.4	-58.3	3.7	0.00e+00	0	51	104	0	77	26774
2026-01-05 22:09:35.35	250.77	23.44	-53.2	-58.4	3.7	0.00e+00	0	51	104	0	77	26919
2026-01-05 22:09:36.35	250.45	23.29	-52.9	-58.3	3.7	0.00e+00	0	51	104	0	77	26607
2026-01-05 22:09:37.35	250.14	23.14	-53.1	-58.3	3.7	0.00e+00	0	52	104	0	77	26621
2026-01-05 22:09:38.35	249.82	22.99	-52.9	-58.2	3.7	0.00e+00	0	52	104	0	77	26521
2026-01-05 22:09:39.34	249.52	22.85	-52.7	-57.8	3.7	0.00e+00	0	51	104	0	77	25324
2026-01-05 22:09:40.34	249.21	22.70	-52.9	-57.9	3.7	0.00e+00	0	51	104	0	77	25532
2026-01-05 22:09:41.34	248.91	22.55	-52.8	-58.1	3.7	0.00e+00	0	51	104	0	77	25981
2026-01-05 22:09:42.33	248.61	22.40	-53.3	-58.1	3.7	0.00e+00	0	51	104	0	77	26262
2026-01-05 22:09:43.33	248.32	22.25	-53.2	-58.2	3.7	0.00e+00	0	51	104	0	77	26349
2026-01-05 22:09:44.32	248.03	22.11	-53.5	-58.4	3.7	0.00e+00	0	51	104	0	77	27118
2026-01-05 22:09:45.32	247.74	21.96	-53.5	-58.4	3.7	0.00e+00	0	51	104	0	77	26949
2026-01-05 22:09:46.32	247.45	21.82	-53.6	-58.4	3.7	0.00e+00	0	51	104	0	77	27048
2026-01-05 22:09:47.32	247.16	21.67	-53.6	-58.4	3.7	0.00e+00	0	51	104	0	77	27061
2026-01-05 22:09:48.31	246.89	21.52	-53.8	-58.4	3.7	0.00e+00	0	51	104	0	78	25457
2026-01-05 22:09:49.31	246.61	21.38	-53.8	-58.4	3.7	0.00e+00	0	51	104	0	78	25451
2026-01-05 22:09:50.31	246.33	21.23	-53.8	-58.4	3.7	0.00e+00	0	51	104	0	78	25580
2026-01-05 22:09:51.31	246.06	21.09	-53.5	-58.5	3.7	0.00e+00	0	51	104	0	78	25752
2026-01-05 22:09:52.31	245.79	20.94	-53.7	-58.6	3.7	0.00e+00	0	51	104	0	78	26015
2026-01-05 22:09:53.30	245.53	20.80	-53.6	-58.5	3.7	0.00e+00	0	51	104	0	78	25812
2026-01-05 22:09:54.30	245.27	20.66	-53.9	-58.6	3.7	0.00e+00	0	51	104	0	78	26023
2026-01-05 22:09:55.30	245.01	20.52	-53.9	-58.5	3.7	0.00e+00	0	52	104	0	78	25861
2026-01-05 22:09:56.30	244.75	20.37	-53.9	-58.4	3.7	0.00e+00	0	51	104	0	78	25455
2026-01-05 22:09:57.30	244.49	20.23	-53.9	-58.4	3.7	0.00e+00	0	51	104	0	78	25677
2026-01-05 22:09:58.30	244.24	20.09	-53.9	-58.4	3.7	0.00e+00	0	51	104	0	78	25428
2026-01-05 22:09:59.30	243.99	19.95	-53.8	-58.3	3.7	0.00e+00	0	51	104	0	78	25125
2026-01-05 22:10:00.30	243.74	19.81	-53.6	-58.3	3.7	0.00e+00	0	51	104	0	78	25125
2026-01-05 22:10:01.29	243.50	19.67	-53.8	-58.3	3.7	0.00e+00	0	51	104	0	78	25370
2026-01-05 22:10:02.29	243.26	19.53	-53.4	-58.3	3.7	0.00e+00	0	51	104	0	78	25229
2026-01-05 22:10:03.29	243.02	19.39	-52.7	-58.0	3.7	0.00e+00	0	51	104	0	77	25964
2026-01-05 22:10:04.29	242.78	19.25	-52.3	-58.1	3.7	0.00e+00	0	51	104	0	76	27659
2026-01-05 22:10:05.29	242.55	19.12	-52.7	-58.2	3.7	0.00e+00	0	52	104	0	76	27926
2026-01-05 22:10:06.29	242.32	18.98	-52.7	-58.0	3.7	0.00e+00	0	51	104	0	76	27502
2026-01-05 22:10:07.28	242.09	18.84	-52.7	-57.9	3.7	0.00e+00	0	51	104	0	76	27111
2026-01-05 22:10:08.28	241.86	18.71	-53.3	-58.1	3.7	0.00e+00	0	51	104	0	77	26037
2026-01-05 22:10:09.28	241.64	18.57	-52.9	-57.8	3.7	0.00e+00	0	51	104	0	77	25262
2026-01-05 22:10:10.27	241.42	18.44	-53.4	-58.2	3.7	0.00e+00	0	51	104	0	77	26394
2026-01-05 22:10:11.27	241.20	18.30	-53.8	-58.2	3.7	0.00e+00	0	51	104	0	78	25004
2026-01-05 22:10:12.27	240.98	18.17	-53.8	-58.3	3.7	0.00e+00	0	51	104	0	78	25238
2026-01-05 22:10:13.27	240.76	18.04	-53.7	-58.3	3.6	0.00e+00	0	51	104	0	78	25205
2026-01-05 22:10:14.27	240.55	17.90	-53.7	-58.3	3.7	0.00e+00	0	51	104	0	78	25134
2026-01-05 22:10:15.27	240.34	17.77	-53.8	-58.4	3.7	0.00e+00	0	51	104	0	78	25407
2026-01-05 22:10:16.27	240.13	17.64	-53.6	-58.2	3.7	0.00e+00	0	51	104	0	78	24983
2026-01-05 22:10:17.27	239.92	17.51	-53.8	-58.3	3.7	0.00e+00	0	51	104	0	78	25301
2026-01-05 22:10:18.27	239.72	17.38	-53.4	-58.2	3.7	0.00e+00	0	51	104	0	78	24987
2026-01-05 22:10:19.26	239.52	17.25	-53.5	-58.2	3.7	0.00e+00	0	51	104	0	78	24813
2026-01-05 22:10:20.26	239.32	17.12	-53.6	-58.2	3.7	0.00e+00	0	51	104	0	78	24955
2026-01-05 22:10:21.26	239.12	16.99	-53.5	-58.2	3.7	0.00e+00	0	51	104	0	78	24955
2026-01-05 22:10:22.25	238.92	16.86	-53.4	-58.2	3.7	0.00e+00	0	51	104	0	78	24844
2026-01-05 22:10:23.25	238.73	16.74	-53.7	-58.4	3.7	0.00e+00	0	51	104	0	78	25396
2026-01-05 22:10:24.24	238.54	16.61	-53.7	-58.4	3.7	0.00e+00	0	51	104	0	78	25443
2026-01-05 22:10:25.24	238.34	16.48	-53.7	-58.3	3.7	0.00e+00	0	52	104	0	78	25321
2026-01-05 22:10:26.24	238.16	16.36	-53.6	-58.3	3.7	0.00e+00	0	51	104	0	78	25341
2026-01-05 22:10:27.23	237.97	16.23	-53.6	-58.4	3.7	0.00e+00	0	51	104	0	78	25508
2026-01-05 22:10:28.23	237.79	16.11	-53.2	-58.3	3.7	0.00e+00	0	52	104	0	78	25184
2026-01-05 22:10:29.23	237.60	15.98	-53.6	-58.3	3.7	0.00e+00	0	51	104	0	78	25323
2026-01-05 22:10:30.23	237.42	15.86	-53.2	-58.2	3.7	0.00e+00	0	51	104	0	78	25012
2026-01-05 22:10:31.22	237.24	15.74	-53.1	-58.3	3.7	0.00e+00	0	51	104	0	78	25211
2026-01-05 22:10:32.22	237.06	15.61	-53.1	-58.1	3.7	0.00e+00	0	51	104	0	78	24780
2026-01-05 22:10:33.22	236.89	15.49	-53.1	-58.2	3.7	0.00e+00	0	51	104	0	78	25066
2026-01-05 22:10:34.22	236.71	15.37	-53.1	-58.1	3.7	0.00e+00	0	51	104	0	78	24624
2026-01-05 22:10:35.22	236.54	15.25	-53.1	-58.1	3.7	0.00e+00	0	51	104	0	78	24719
2026-01-05 22:10:36.22	236.37	15.13	-53.1	-58.1	3.7	0.00e+00	0	51	104	0	78	24655
2026-01-05 22:10:37.22	236.20	15.01	-53.1	-58.1	3.7	0.00e+00	0	51	104	0	78	24541
2026-01-05 22:10:38.21	236.03	14.89	-53.2	-58.0	3.7	0.00e+00	0	51	104	0	78	24510
2026-01-05 22:10:39.22	235.86	14.77	-53.2	-57.9	3.7	0.00e+00	0	51	104	0	78	24146
2026-01-05 22:10:40.21	235.70	14.65	-53.4	-58.0	3.7	0.00e+00	0	51	104	0	78	24436
2026-01-05 22:10:41.21	235.54	14.54	-53.2	-58.1	3.7	0.00e+00	0	51	104	0	78	24602
2026-01-05 22:10:42.21	235.38	14.42	-53.6	-58.2	3.7	0.00e+00	0	51	104	0	78	24939
2026-01-05 22:10:43.20	235.22	14.30	-53.3	-58.0	3.7	0.00e+00	0	51	104	0	78	24515
2026-01-05 22:10:44.20	235.06	14.19	-53.1	-58.3	3.7	0.00e+00	0	51	104	0	78	25160
2026-01-05 22:10:45.20	234.90	14.07	-53.3	-58.0	3.7	0.00e+00	0	51	104	0	78	24491
2026-01-05 22:10:46.19	234.75	13.96	-53.2	-58.2	3.7	0.00e+00	0	51	104	0	78	25055
2026-01-05 22:10:47.19	234.59	13.84	-53.0	-58.2	3.7	0.00e+00	0	51	104	0	78	25062
2026-01-05 22:10:48.19	234.44	13.73	-53.1	-58.2	3.7	0.00e+00	0	51	104	0	77	26536
2026-01-05 22:10:49.18	234.29	13.62	-53.1	-58.3	3.7	0.00e+00	0	51	104	0	77	26706
2026-01-05 22:10:50.18	234.14	13.51	-53.4	-58.2	3.7	0.00e+00	0	51	104	0	77	26571
2026-01-05 22:10:51.18	233.99	13.39	-52.8	-58.2	3.7	0.00e+00	0	51	104	0	77	26480
2026-01-05 22:10:52.17	233.84	13.28	-53.4	-58.2	3.7	0.00e+00	0	51	104	0	77	26323
2026-01-05 22:10:53.17	233.70	13.17	-53.1	-58.2	3.7	0.00e+00	0	51	104	0	77	26578
2026-01-05 22:10:54.18	233.55	13.06	-53.5	-58.2	3.7	0.00e+00	0	51	104	0	77	26513
2026-01-05 22:10:55.18	233.41	12.95	-53.3	-58.0	3.7	0.00e+00	0	51	104	0	77	25787
2026-01-05 22:10:56.18	233.27	12.84	-53.4	-57.9	3.7	0.00e+00	0	51	104	0	77	25588
2026-01-05 22:10:57.18	233.13	12.73	-53.4	-58.1	3.7	0.00e+00	0	51	104	0	77	26007
2026-01-05 22:10:58.18	232.99	12.62	-53.4	-58.0	3.7	0.00e+00	0	51	104	0	77	25714
2026-01-05 22:10:59.18	232.85	12.51	-53.3	-57.9	3.7	0.00e+00	0	51	104	0	77	25560
2026-01-05 22:11:00.18	232.71	12.40	-53.5	-57.9	3.7	0.00e+00	0	52	104	0	77	25660
2026-01-05 22:11:01.18	232.58	12.30	-53.4	-57.9	3.7	0.00e+00	0	51	104	0	77	25650
2026-01-05 22:11:02.18	232.44	12.19	-53.4	-58.0	3.7	0.00e+00	0	51	104	0	77	25714
2026-01-05 22:11:03.18	232.31	12.08	-53.4	-57.9	3.7	0.00e+00	0	51	104	0	77	25554
2026-01-05 22:11:04.18	232.18	11.98	-53.5	-58.1	3.7	0.00e+00	0	51	104	0	77	26020
2026-01-05 22:11:05.18	232.05	11.87	-53.5	-58.0	3.7	0.00e+00	0	51	104	0	77	25722
2026-01-05 22:11:06.18	231.92	11.77	-53.6	-58.1	3.7	0.00e+00	0	51	104	0	77	26068
2026-01-05 22:11:07.17	231.79	11.67	-53.4	-58.1	3.7	0.00e+00	0	51	104	0	77	26067
2026-01-05 22:11:08.18	231.66	11.56	-53.5	-58.1	3.7	0.00e+00	0	52	104	0	77	26063
2026-01-05 22:11:09.18	231.53	11.46	-53.5	-58.1	3.7	0.00e+00	0	51	104	0	77	26106
2026-01-05 22:11:10.18	231.41	11.35	-53.4	-58.1	3.7	0.00e+00	0	51	104	0	77	26201
2026-01-05 22:11:11.29	231.27	11.24	-53.3	-57.8	3.7	0.00e+00	0	51	104	0	77	25375
2026-01-05 22:11:12.14	231.17	11.15	-53.2	-58.0	3.7	0.00e+00	0	52	104	0	77	25729
2026-01-05 22:11:13.28	231.03	11.04	-53.5	-58.1	3.7	0.00e+00	0	52	104	0	77	26025
2026-01-05 22:11:14.14	230.92	10.95	-52.9	-58.1	3.7	0.00e+00	0	51	104	0	77	25994
2026-01-05 22:11:15.29	230.79	10.84	-53.3	-57.9	3.7	0.00e+00	0	51	104	0	77	25507
2026-01-05 22:11:16.14	230.68	10.75	-53.1	-57.8	3.7	0.00e+00	0	51	104	0	77	25098
2026-01-05 22:11:17.29	230.55	10.64	-53.1	-58.0	3.7	0.00e+00	0	51	104	0	77	25796
2026-01-05 22:11:18.14	230.45	10.55	-53.2	-57.8	3.7	0.00e+00	0	52	104	0	77	25260
2026-01-05 22:11:19.29	230.32	10.44	-53.0	-57.7	3.7	0.00e+00	0	51	104	0	77	25035
2026-01-05 22:11:20.14	230.22	10.35	-53.3	-57.9	3.7	0.00e+00	0	52	104	0	77	25469
2026-01-05 22:11:21.29	230.09	10.24	-53.0	-57.7	3.7	0.00e+00	0	52	104	0	77	25069
2026-01-05 22:11:22.14	229.99	10.16	-53.3	-57.8	3.7	0.00e+00	0	51	104	0	77	25144
2026-01-05 22:11:23.29	229.86	10.05	-53.2	-57.7	3.7	0.00e+00	0	52	104	0	77	25091
2026-01-05 22:11:24.15	229.77	9.96	-53.4	-58.0	3.7	0.00e+00	0	51	104	0	77	25702
2026-01-05 22:11:25.29	229.64	9.85	-53.3	-57.9	3.7	0.00e+00	0	51	104	0	77	25544
2026-01-05 22:11:26.15	229.55	9.77	-53.4	-58.0	3.7	0.00e+00	0	51	104	0	77	25823
2026-01-05 22:11:27.29	229.42	9.66	-53.3	-57.8	3.7	0.00e+00	0	51	104	0	77	25135
2026-01-05 22:11:28.15	229.33	9.58	-53.2	-57.7	3.7	0.00e+00	0	51	104	0	77	25008
2026-01-05 22:11:29.29	229.21	9.47	-53.4	-57.9	3.7	0.00e+00	0	51	104	0	77	25607
2026-01-05 22:11:30.15	229.12	9.39	-53.3	-57.9	3.7	0.00e+00	0	51	104	0	77	25435
2026-01-05 22:11:31.29	229.00	9.28	-53.2	-57.6	3.7	0.00e+00	0	52	104	0	77	24686
2026-01-05 22:11:32.14	228.91	9.20	-53.3	-57.8	3.7	0.00e+00	0	51	104	0	77	25161
2026-01-05 22:11:33.29	228.79	9.10	-53.2	-57.8	3.7	0.00e+00	0	52	104	0	77	25118
2026-01-05 22:11:34.14	228.71	9.02	-53.2	-57.7	3.7	0.00e+00	0	51	104	0	77	24900
2026-01-05 22:11:35.29	228.59	8.91	-53.2	-58.0	3.7	0.00e+00	0	51	104	0	77	25898
2026-01-05 22:11:36.14	228.50	8.83	-53.5	-58.0	3.7	0.00e+00	0	52	104	0	78	24370
2026-01-05 22:11:37.29	228.39	8.73	-53.6	-58.4	3.7	0.00e+00	0	51	104	0	78	25595
2026-01-05 22:11:38.14	228.30	8.65	-53.7	-58.5	3.7	0.00e+00	0	51	104	0	78	25739
2026-01-05 22:11:39.29	228.19	8.55	-53.7	-58.4	3.7	0.00e+00	0	51	104	0	78	25395
2026-01-05 22:11:40.15	228.11	8.47	-53.9	-58.3	3.7	0.00e+00	0	51	104	0	78	25159
2026-01-05 22:11:41.29	228.00	8.37	-54.1	-58.7	3.7	0.00e+00	0	51	104	0	78	26299
2026-01-05 22:11:42.14	227.92	8.29	-53.7	-58.4	3.7	0.00e+00	0	52	104	0	78	25541
2026-01-05 22:11:43.29	227.81	8.19	-54.2	-58.7	3.6	0.00e+00	0	51	104	0	79	25029
2026-01-05 22:11:44.15	227.72	8.11	-54.1	-58.4	3.7	0.00e+00	0	51	104	0	79	24235
2026-01-05 22:11:45.29	227.62	8.01	-54.0	-58.6	3.7	0.00e+00	0	51	104	0	79	24615
2026-01-05 22:11:46.15	227.54	7.93	-54.1	-58.6	3.7	0.00e+00	0	51	104	0	79	24772
2026-01-05 22:11:47.30	227.43	7.83	-54.1	-58.7	3.7	0.00e+00	0	51	104	0	78	26414
2026-01-05 22:11:48.15	227.35	7.76	-53.7	-58.5	3.7	0.00e+00	0	51	104	0	79	24287
2026-01-05 22:11:49.30	227.25	7.66	-53.8	-58.5	3.7	0.00e+00	0	51	104	0	79	24313
2026-01-05 22:11:50.15	227.17	7.59	-54.0	-58.4	3.7	0.00e+00	0	51	104	0	79	24221
2026-01-05 22:11:51.29	227.07	7.49	-54.1	-58.4	3.7	0.00e+00	0	51	104	0	79	24139
2026-01-05 22:11:52.15	226.99	7.41	-54.1	-58.5	3.7	0.00e+00	0	51	104	0	79	24262
2026-01-05 22:11:53.29	226.89	7.32	-53.9	-58.3	3.7	0.00e+00	0	51	104	0	79	23698
2026-01-05 22:11:54.15	226.82	7.24	-53.8	-58.5	3.7	0.00e+00	0	52	104	0	79	24448
2026-01-05 22:11:55.29	226.72	7.14	-53.6	-58.4	3.7	0.00e+00	0	52	104	0	79	24091
2026-01-05 22:11:56.15	226.65	7.07	-53.2	-57.9	3.7	0.00e+00	0	51	104	0	78	24101
2026-01-05 22:11:57.29	226.55	6.98	-53.3	-57.9	3.7	0.00e+00	0	51	104	0	78	24143
2026-01-05 22:11:58.15	226.47	6.90	-53.3	-57.9	3.7	0.00e+00	0	51	104	0	78	24094
2026-01-05 22:11:59.30	226.38	6.81	-53.3	-57.9	3.7	0.00e+00	0	51	104	0	78	24058
2026-01-05 22:12:00.15	226.31	6.74	-53.3	-57.9	3.7	0.00e+00	0	52	104	0	78	24098
2026-01-05 22:12:01.29	226.21	6.64	-53.3	-57.9	3.7	0.00e+00	0	51	104	0	78	23990
2026-01-05 22:12:02.15	226.14	6.57	-53.3	-57.9	3.7	0.00e+00	0	51	104	0	78	24113
2026-01-05 22:12:03.29	226.05	6.48	-53.3	-57.9	3.7	0.00e+00	0	51	104	0	78	24185
2026-01-05 22:12:04.15	225.98	6.41	-53.3	-57.9	3.7	0.00e+00	0	51	104	0	78	24159
2026-01-05 22:12:05.29	225.89	6.31	-53.3	-57.9	3.7	0.00e+00	0	51	104	0	78	24193
2026-01-05 22:12:06.15	225.82	6.24	-53.3	-57.9	3.7	0.00e+00	0	51	104	0	78	24092
2026-01-05 22:12:07.28	225.73	6.15	-53.3	-57.9	3.7	0.00e+00	0	51	104	0	78	24032
2026-01-05 22:12:08.14	225.66	6.08	-53.3	-57.9	3.7	0.00e+00	0	51	104	0	78	24164
2026-01-05 22:12:09.28	225.57	5.99	-53.3	-57.9	3.7	0.00e+00	0	51	104	0	78	24145
2026-01-05 22:12:10.14	225.50	5.92	-53.2	-57.9	3.7	0.00e+00	0	52	104	0	78	24052
2026-01-05 22:12:11.28	225.42	5.83	-53.3	-57.9	3.7	0.00e+00	0	51	104	0	78	24036
2026-01-05 22:12:12.15	225.35	5.76	-53.3	-57.9	3.7	0.00e+00	0	51	104	0	78	24153
2026-01-05 22:12:13.29	225.26	5.67	-53.3	-57.9	3.7	0.00e+00	0	51	104	0	78	24057
2026-01-05 22:12:14.14	225.20	5.60	-53.3	-57.9	3.7	0.00e+00	0	51	104	0	78	24168
2026-01-05 22:12:15.29	225.11	5.51	-53.3	-57.9	3.7	0.00e+00	0	51	104	0	78	24095
2026-01-05 22:12:16.14	225.05	5.44	-53.3	-57.9	3.7	0.00e+00	0	52	104	0	78	24095
2026-01-05 22:12:17.29	224.96	5.35	-53.2	-57.9	3.7	0.00e+00	0	51	104	0	78	24066
2026-01-05 22:12:18.15	224.90	5.28	-53.2	-57.9	3.7	0.00e+00	0	51	104	0	78	24129
2026-01-05 22:12:19.29	224.82	5.20	-53.2	-57.9	3.7	0.00e+00	0	52	104	0	78	24014
2026-01-05 22:12:20.15	224.76	5.13	-53.2	-57.9	3.7	0.00e+00	0	52	104	0	78	24020
2026-01-05 22:12:21.29	224.67	5.04	-53.3	-57.9	3.7	0.00e+00	0	51	104	0	78	24023

#Closed at: 2026-01-05 22:12:22
#Recorded file [0 MB]: D:/Data/31040_260106_010350.dat