passes_logs/2026/01/05/T1/T1__20260105_152138_FENGYUN_3E_rec.log

#Pass ID: 20260105_152138_FENGYUN 3E
#Satellite: FENGYUN 3E
#Configuration: FENGYUN 3E
#almurnet v.1.7.20251203
#Start time: 2026-01-05 15:21:41

#Version: 2.0.20230620
#Station: T1
#Location: 37.570604 lon 55.790049 lat
#TLE: 1 49008U 21062A   26004.99925679  .00000018  00000+0  29282-4 0  9995
#TLE: 2 49008  98.7472  10.2448 0001540 159.6420 200.4818 14.19883565233423

#Time	Az	El	Level	Level2	SNR	BER	BlckErr	Temp	State	Recorded	gain1	gain2
2026-01-05 15:21:41.02	197.58	5.14	-50.3	-61.3	3.8	8.47e-01	0	38	0	0	71	12461
2026-01-05 15:21:42.01	197.64	5.20	-50.3	-61.4	3.8	8.47e-01	0	38	104	0	71	12593
2026-01-05 15:21:43.02	197.71	5.27	-50.3	-61.4	3.8	8.46e-01	0	38	104	0	71	12539
2026-01-05 15:21:44.17	197.79	5.35	-50.3	-61.4	3.8	8.46e-01	0	38	104	0	71	12566
2026-01-05 15:21:45.09	197.85	5.41	-50.3	-61.4	3.8	8.48e-01	0	38	104	0	71	12556
2026-01-05 15:21:46.29	197.93	5.48	-50.3	-61.3	3.8	8.48e-01	0	38	104	0	71	12492
2026-01-05 15:21:47.15	197.99	5.54	-50.3	-61.2	3.8	8.46e-01	0	38	104	0	71	12335
2026-01-05 15:21:48.30	198.06	5.62	-50.3	-61.0	3.8	8.48e-01	0	38	104	0	71	11975
2026-01-05 15:21:49.16	198.12	5.67	-50.2	-60.8	3.8	8.46e-01	0	38	104	0	71	11788
2026-01-05 15:21:50.30	198.20	5.75	-50.2	-60.6	3.8	8.48e-01	0	39	104	0	71	11525
2026-01-05 15:21:51.17	198.26	5.81	-50.2	-60.4	3.8	8.47e-01	0	38	104	0	71	11201
2026-01-05 15:21:52.31	198.34	5.88	-50.1	-60.2	3.8	8.47e-01	0	39	104	0	71	10936
2026-01-05 15:21:53.17	198.40	5.94	-50.1	-60.3	3.8	8.46e-01	0	38	104	0	71	11066
2026-01-05 15:21:54.32	198.48	6.02	-50.1	-60.2	3.8	8.47e-01	0	39	104	0	71	10923
2026-01-05 15:21:55.18	198.54	6.08	-50.1	-60.2	3.8	8.46e-01	0	39	104	0	71	10984
2026-01-05 15:21:56.33	198.62	6.15	-50.1	-60.1	3.8	8.47e-01	0	39	104	0	71	10832
2026-01-05 15:21:57.19	198.68	6.21	-50.1	-59.9	3.8	8.47e-01	0	39	104	0	71	10569
2026-01-05 15:21:58.39	198.76	6.29	-50.1	-59.7	3.8	8.47e-01	0	39	104	0	70	11021
2026-01-05 15:21:59.24	198.82	6.35	-50.0	-59.3	3.8	8.45e-01	0	39	104	0	70	10515
2026-01-05 15:22:00.39	198.91	6.43	-49.9	-59.0	3.8	8.46e-01	0	39	104	0	70	10134
2026-01-05 15:22:01.25	198.97	6.49	-49.9	-58.6	4.0	8.45e-01	0	39	104	0	70	9688
2026-01-05 15:22:02.53	199.06	6.57	-49.9	-58.6	4.0	8.46e-01	0	39	104	0	70	9714
2026-01-05 15:22:03.25	199.11	6.62	-49.9	-58.6	4.0	8.45e-01	0	39	104	0	70	9633
2026-01-05 15:22:04.76	199.22	6.72	-50.0	-59.1	3.9	8.44e-01	0	39	104	0	70	10204
2026-01-05 15:22:05.48	199.27	6.77	-50.0	-59.5	3.8	8.45e-01	0	39	104	0	70	10705
2026-01-05 15:22:06.83	199.37	6.87	-50.1	-60.0	3.8	8.46e-01	0	39	104	0	70	11374
2026-01-05 15:22:07.55	199.43	6.92	-50.1	-60.4	3.8	8.46e-01	0	39	104	0	70	11889
2026-01-05 15:22:08.84	199.52	7.01	-50.2	-60.4	3.8	8.47e-01	0	39	104	0	70	11897
2026-01-05 15:22:09.56	199.58	7.06	-50.2	-60.2	3.8	8.47e-01	0	39	104	0	70	11658
2026-01-05 15:22:10.85	199.67	7.14	-50.0	-59.4	3.8	8.46e-01	0	39	104	0	70	10564
2026-01-05 15:22:11.57	199.73	7.19	-49.9	-59.0	3.8	8.44e-01	0	39	104	0	70	10072
2026-01-05 15:22:12.86	199.82	7.28	-49.9	-58.8	4.0	8.45e-01	0	39	104	0	70	9854
2026-01-05 15:22:13.58	199.88	7.33	-50.0	-59.2	3.8	8.44e-01	0	39	104	0	70	10311
2026-01-05 15:22:14.87	199.98	7.42	-50.1	-60.4	3.8	8.47e-01	0	39	104	0	70	11890
2026-01-05 15:22:15.59	200.03	7.47	-50.2	-61.1	3.8	8.47e-01	0	39	104	0	70	12876
2026-01-05 15:22:16.88	200.13	7.57	-50.0	-58.9	4.0	8.45e-01	0	40	104	0	70	10022
2026-01-05 15:22:17.59	200.19	7.62	-49.4	-56.3	4.8	8.36e-01	0	39	104	0	69	7872
2026-01-05 15:22:18.89	200.29	7.71	-47.6	-51.6	8.5	8.42e-02	0	39	0	6291456	66	5404
2026-01-05 15:22:19.60	200.34	7.76	-46.6	-49.7	10.4	9.84e-03	0	39	0	10485760	63	5216
2026-01-05 15:22:20.89	200.44	7.85	-44.5	-46.7	13.3	4.46e-05	0	39	0	19922944	59	4635
2026-01-05 15:22:21.60	200.50	7.90	-43.5	-45.5	14.6	3.40e-06	0	40	0	25165824	57	4500
2026-01-05 15:22:22.89	200.60	7.99	-41.9	-43.7	16.1	0.00e+00	0	40	0	34603008	54	4367
2026-01-05 15:22:23.61	200.66	8.04	-41.4	-43.0	16.7	0.00e+00	0	39	0	39845888	53	4276
2026-01-05 15:22:24.90	200.76	8.13	-40.8	-42.4	17.3	0.00e+00	0	39	0	49283072	52	4206
2026-01-05 15:22:25.62	200.82	8.18	-40.7	-42.3	17.4	0.00e+00	0	40	0	54525952	52	4149
2026-01-05 15:22:26.90	200.92	8.28	-40.7	-42.3	17.4	0.00e+00	0	40	0	63963136	51	4428
2026-01-05 15:22:27.62	200.98	8.33	-41.0	-42.6	17.2	0.00e+00	0	40	0	69206016	51	4560
2026-01-05 15:22:28.91	201.09	8.42	-41.5	-43.2	16.5	0.00e+00	0	40	0	77594624	52	4645
2026-01-05 15:22:29.62	201.14	8.47	-42.1	-43.8	16.0	0.00e+00	0	40	0	83886080	53	4690
2026-01-05 15:22:30.91	201.25	8.57	-43.6	-45.6	14.5	0.00e+00	0	40	0	92274688	56	4831
2026-01-05 15:22:31.63	201.31	8.62	-44.3	-46.5	13.6	2.20e-06	0	39	0	97517568	57	5044
2026-01-05 15:22:32.91	201.42	8.71	-45.7	-48.4	11.7	3.91e-04	0	40	0	106954752	60	5340
2026-01-05 15:22:33.62	201.48	8.76	-46.4	-49.5	10.6	2.28e-03	0	40	0	112197632	62	5401
2026-01-05 15:22:34.92	201.58	8.86	-47.4	-51.3	8.7	2.40e-02	0	40	0	121634816	64	5903
2026-01-05 15:22:35.63	201.64	8.91	-47.9	-52.4	7.7	8.27e-02	0	40	0	126877696	65	6292
2026-01-05 15:22:36.92	201.75	9.00	-48.6	-53.9	6.3	2.30e-01	0	40	0	136314880	66	7112
2026-01-05 15:22:37.63	201.81	9.06	-48.7	-54.1	6.2	3.12e-01	0	40	0	141557760	66	7205
2026-01-05 15:22:38.92	201.92	9.15	-46.3	-49.1	11.1	1.93e-02	0	40	0	150994944	63	4850
2026-01-05 15:22:39.63	201.98	9.20	-49.0	-55.1	5.5	5.28e-02	0	40	0	155189248	67	7698
2026-01-05 15:22:40.92	202.10	9.30	-49.0	-54.7	5.8	4.64e-01	0	40	0	158334976	68	6905
2026-01-05 15:22:41.63	202.16	9.35	-45.7	-48.4	11.9	4.82e-02	0	40	0	163577856	62	4710
2026-01-05 15:22:42.92	202.27	9.45	-45.8	-48.5	11.8	3.89e-04	0	40	0	173015040	61	5049
2026-01-05 15:22:43.64	202.33	9.50	-45.9	-48.7	11.6	7.77e-04	0	40	0	178257920	61	5164
2026-01-05 15:22:44.92	202.44	9.60	-44.4	-46.5	13.7	1.60e-05	0	40	0	187695104	59	4522
2026-01-05 15:22:45.83	202.53	9.66	-44.0	-46.1	14.2	5.70e-06	0	40	0	193986560	58	4546
2026-01-05 15:22:46.85	202.62	9.74	-44.2	-46.3	13.9	3.40e-06	0	40	0	201326592	58	4666
2026-01-05 15:22:47.85	202.70	9.82	-43.6	-45.5	14.7	1.10e-06	0	40	0	208666624	58	4255
2026-01-05 15:22:48.85	202.79	9.89	-43.0	-44.8	15.3	0.00e+00	0	40	0	214958080	56	4436
2026-01-05 15:22:49.85	202.88	9.97	-42.2	-43.9	16.1	0.00e+00	0	40	0	222298112	54	4471
2026-01-05 15:22:50.85	202.98	10.04	-41.4	-43.0	16.9	0.00e+00	0	40	0	229638144	53	4287
2026-01-05 15:22:51.85	203.07	10.12	-41.5	-43.1	16.8	0.00e+00	0	40	0	236978176	53	4330
2026-01-05 15:22:52.86	203.16	10.19	-41.0	-42.6	17.3	0.00e+00	0	40	0	244318208	52	4307
2026-01-05 15:22:53.87	203.25	10.27	-41.1	-42.6	17.3	0.00e+00	0	40	0	251658240	52	4331
2026-01-05 15:22:54.87	203.34	10.35	-40.9	-42.5	17.4	0.00e+00	0	40	0	258998272	52	4246
2026-01-05 15:22:55.87	203.44	10.42	-41.1	-42.7	17.2	0.00e+00	0	40	0	266338304	52	4346
2026-01-05 15:22:56.95	203.54	10.51	-41.0	-42.5	17.4	0.00e+00	0	40	0	273678336	52	4274
2026-01-05 15:22:57.84	203.62	10.58	-40.7	-42.2	17.7	0.00e+00	0	40	0	279969792	52	4125
2026-01-05 15:22:58.99	203.73	10.66	-40.6	-42.1	17.7	0.00e+00	0	40	0	288358400	52	4092
2026-01-05 15:22:59.89	203.82	10.73	-40.7	-42.1	17.8	0.00e+00	0	40	0	295698432	51	4335
2026-01-05 15:23:01.08	203.93	10.83	-40.6	-42.1	17.9	0.00e+00	0	40	0	304087040	51	4308
2026-01-05 15:23:01.94	204.01	10.89	-40.7	-42.2	17.8	0.00e+00	0	40	0	310378496	51	4370
2026-01-05 15:23:03.27	204.14	11.00	-40.4	-41.8	18.1	0.00e+00	0	40	0	319815680	51	4191
2026-01-05 15:23:03.99	204.21	11.05	-40.1	-41.5	18.4	0.00e+00	0	40	0	325058560	51	4041
2026-01-05 15:23:05.43	204.35	11.16	-39.9	-41.3	18.6	0.00e+00	0	40	0	335544320	50	4173
2026-01-05 15:23:06.14	204.42	11.22	-39.8	-41.2	18.7	0.00e+00	0	40	0	340787200	50	4124
2026-01-05 15:23:07.43	204.55	11.32	-39.8	-41.2	18.7	0.00e+00	0	40	0	350224384	50	4121
2026-01-05 15:23:08.48	204.65	11.40	-39.9	-41.3	18.6	0.00e+00	0	40	0	357564416	50	4177
2026-01-05 15:23:09.41	204.74	11.48	-39.9	-41.3	18.6	0.00e+00	0	40	0	363855872	50	4154
2026-01-05 15:23:10.41	204.84	11.56	-39.8	-41.2	18.7	0.00e+00	0	40	0	371195904	50	4102
2026-01-05 15:23:11.42	204.94	11.64	-39.7	-41.1	18.8	0.00e+00	0	40	0	378535936	50	4063
2026-01-05 15:23:12.42	205.04	11.72	-39.6	-40.9	19.0	0.00e+00	0	40	0	385875968	50	4002
2026-01-05 15:23:13.42	205.15	11.80	-39.6	-41.0	18.9	0.00e+00	0	40	0	393216000	49	4252
2026-01-05 15:23:14.42	205.25	11.88	-39.4	-40.8	19.1	0.00e+00	0	40	0	400556032	49	4177
2026-01-05 15:23:15.47	205.36	11.96	-39.5	-40.8	19.0	0.00e+00	0	40	0	407896064	49	4190
2026-01-05 15:23:16.36	205.45	12.03	-39.4	-40.8	19.1	0.00e+00	0	40	0	414187520	49	4167
2026-01-05 15:23:17.71	205.59	12.14	-39.4	-40.8	19.1	0.00e+00	0	40	0	423624704	49	4153
2026-01-05 15:23:18.42	205.66	12.20	-39.4	-40.7	19.1	0.00e+00	0	40	0	428867584	49	4143
2026-01-05 15:23:19.71	205.80	12.30	-39.3	-40.6	19.2	0.00e+00	0	40	0	438304768	49	4098
2026-01-05 15:23:20.42	205.87	12.36	-39.2	-40.6	19.3	0.00e+00	0	40	0	443547648	49	4061
2026-01-05 15:23:21.71	206.01	12.46	-39.3	-40.6	19.3	0.00e+00	0	40	0	452984832	49	4089
2026-01-05 15:23:22.42	206.09	12.52	-39.2	-40.6	19.3	0.00e+00	0	40	0	458227712	49	4079
2026-01-05 15:23:23.71	206.22	12.63	-39.3	-40.6	19.3	0.00e+00	0	40	0	466616320	49	4092
2026-01-05 15:23:24.53	206.31	12.69	-39.1	-40.5	19.4	0.00e+00	0	40	0	472907776	49	4036
2026-01-05 15:23:26.03	206.48	12.82	-39.1	-40.5	19.4	0.00e+00	0	40	0	484442112	49	4037
2026-01-05 15:23:26.74	206.55	12.87	-39.2	-40.6	19.3	0.00e+00	0	40	0	488636416	49	4056
2026-01-05 15:23:28.02	206.69	12.98	-39.2	-40.6	19.3	0.00e+00	0	40	0	498073600	48	4299
2026-01-05 15:23:28.74	206.77	13.04	-39.2	-40.7	19.2	0.00e+00	0	40	0	503316480	48	4343
2026-01-05 15:23:30.02	206.91	13.14	-39.3	-40.7	19.2	0.00e+00	0	40	0	512753664	48	4375
2026-01-05 15:23:30.74	206.99	13.20	-39.3	-40.7	19.2	0.00e+00	0	40	0	517996544	48	4370
2026-01-05 15:23:32.02	207.14	13.31	-39.2	-40.7	19.2	0.00e+00	0	40	0	527433728	48	4357
2026-01-05 15:23:32.74	207.22	13.37	-39.3	-40.8	19.1	0.00e+00	0	40	0	532676608	48	4396
2026-01-05 15:23:34.03	207.37	13.48	-39.2	-40.7	19.2	0.00e+00	0	40	0	542113792	48	4378
2026-01-05 15:23:34.74	207.45	13.54	-39.2	-40.7	19.1	0.00e+00	0	40	0	546308096	48	4380
2026-01-05 15:23:36.02	207.59	13.64	-39.0	-40.5	19.3	0.00e+00	0	40	0	555745280	48	4253
2026-01-05 15:23:36.74	207.68	13.70	-39.1	-40.5	19.3	0.00e+00	0	40	0	560988160	48	4275
2026-01-05 15:23:38.17	207.84	13.82	-39.0	-40.4	19.4	0.00e+00	0	40	0	571473920	48	4234
2026-01-05 15:23:39.17	207.96	13.91	-39.0	-40.4	19.4	0.00e+00	0	40	0	578813952	48	4230
2026-01-05 15:23:40.17	208.08	13.99	-39.0	-40.5	19.3	0.00e+00	0	40	0	586153984	48	4266
2026-01-05 15:23:41.52	208.24	14.11	-38.9	-40.4	19.4	0.00e+00	0	40	0	595591168	48	4200
2026-01-05 15:23:42.24	208.32	14.17	-39.0	-40.5	19.3	0.00e+00	0	40	0	600834048	48	4272
2026-01-05 15:23:43.52	208.47	14.28	-39.0	-40.4	19.3	0.00e+00	0	40	0	610271232	48	4239
2026-01-05 15:23:44.23	208.56	14.34	-39.0	-40.5	19.3	0.00e+00	0	40	0	615514112	48	4279
2026-01-05 15:23:45.52	208.71	14.45	-39.0	-40.5	19.2	0.00e+00	0	40	0	623902720	48	4279
2026-01-05 15:23:46.23	208.80	14.51	-38.8	-40.3	19.4	0.00e+00	0	40	0	630194176	48	4176
2026-01-05 15:23:47.52	208.96	14.62	-38.7	-40.2	19.5	0.00e+00	0	40	0	639631360	48	4120
2026-01-05 15:23:48.23	209.05	14.68	-38.7	-40.2	19.6	0.00e+00	0	40	0	643825664	48	4100
2026-01-05 15:23:49.55	209.21	14.79	-38.7	-40.2	19.6	0.00e+00	0	40	0	653262848	48	4110
2026-01-05 15:23:50.52	209.33	14.88	-38.7	-40.1	19.6	0.00e+00	0	40	0	660602880	48	4087
2026-01-05 15:23:51.84	209.49	14.99	-38.7	-40.2	19.6	0.00e+00	0	40	0	670040064	48	4105
2026-01-05 15:23:52.58	209.59	15.06	-38.4	-39.9	19.5	0.00e+00	0	40	0	675282944	47	4201
2026-01-05 15:23:53.87	209.75	15.17	-38.3	-39.8	19.6	0.00e+00	0	40	0	684720128	47	4165
2026-01-05 15:23:54.58	209.84	15.23	-38.3	-39.7	19.7	0.00e+00	0	40	0	689963008	47	4129
2026-01-05 15:23:56.29	210.06	15.38	-38.1	-39.6	19.8	0.00e+00	0	40	0	702545920	47	4056
2026-01-05 15:23:56.85	210.13	15.43	-38.1	-39.6	19.8	0.00e+00	0	40	0	706740224	47	4052
2026-01-05 15:23:58.57	210.36	15.58	-38.1	-39.5	19.9	0.00e+00	0	40	0	719323136	47	4048
2026-01-05 15:23:59.14	210.43	15.63	-38.1	-39.6	19.8	0.00e+00	0	40	0	722468864	46	4294
2026-01-05 15:24:00.82	210.65	15.78	-38.2	-39.6	19.8	0.00e+00	0	40	0	735051776	46	4327
2026-01-05 15:24:01.39	210.73	15.83	-38.2	-39.6	19.8	0.00e+00	0	40	0	739246080	46	4322
2026-01-05 15:24:03.05	210.95	15.98	-38.2	-39.6	19.7	0.00e+00	0	40	0	750780416	46	4329
2026-01-05 15:24:03.62	211.02	16.03	-38.2	-39.6	19.8	0.00e+00	0	40	0	754974720	46	4301
2026-01-05 15:24:05.21	211.24	16.17	-38.3	-39.7	19.7	0.00e+00	0	40	0	766509056	46	4384
2026-01-05 15:24:05.78	211.32	16.22	-38.3	-39.7	19.7	0.00e+00	0	40	0	770703360	46	4362
2026-01-05 15:24:07.54	211.56	16.38	-38.4	-39.8	19.6	0.00e+00	0	40	0	783286272	46	4415
2026-01-05 15:24:08.12	211.64	16.43	-38.3	-39.7	19.8	0.00e+00	0	40	0	787480576	46	4364
2026-01-05 15:24:09.72	211.86	16.57	-38.3	-39.7	19.7	0.00e+00	0	40	0	799014912	46	4372
2026-01-05 15:24:10.29	211.94	16.62	-38.4	-39.8	19.7	0.00e+00	0	40	0	803209216	46	4409
2026-01-05 15:24:11.96	212.17	16.77	-38.3	-39.7	19.8	0.00e+00	0	40	0	815792128	46	4353
2026-01-05 15:24:12.72	212.28	16.84	-38.3	-39.7	19.8	0.00e+00	0	41	0	821035008	46	4348
2026-01-05 15:24:14.01	212.46	16.96	-38.2	-39.6	19.9	0.00e+00	0	40	0	830472192	46	4294
2026-01-05 15:24:14.72	212.56	17.02	-38.2	-39.5	19.9	0.00e+00	0	41	0	835715072	46	4287
2026-01-05 15:24:16.04	212.75	17.14	-38.2	-39.5	20.0	0.00e+00	0	40	0	845152256	46	4260
2026-01-05 15:24:16.75	212.86	17.21	-38.2	-39.5	20.0	0.00e+00	0	40	0	850395136	46	4282
2026-01-05 15:24:18.04	213.04	17.33	-38.2	-39.4	20.0	0.00e+00	0	40	0	859832320	46	4237
2026-01-05 15:24:18.76	213.15	17.39	-37.9	-39.2	20.3	0.00e+00	0	41	0	864026624	46	4107
2026-01-05 15:24:20.05	213.34	17.51	-37.8	-39.0	20.4	0.00e+00	0	41	0	873463808	46	4035
2026-01-05 15:24:20.76	213.44	17.58	-37.7	-38.9	20.5	0.00e+00	0	40	0	878706688	46	3994
2026-01-05 15:24:22.05	213.64	17.69	-37.6	-38.8	20.6	0.00e+00	0	41	0	888143872	46	3944
2026-01-05 15:24:22.76	213.74	17.76	-37.6	-38.8	20.7	0.00e+00	0	41	0	893386752	45	4171
2026-01-05 15:24:24.04	213.94	17.88	-37.6	-38.8	20.6	0.00e+00	0	40	0	902823936	45	4188
2026-01-05 15:24:24.76	214.04	17.94	-37.6	-38.9	20.6	0.00e+00	0	41	0	908066816	45	4207
2026-01-05 15:24:26.05	214.24	18.06	-37.8	-39.1	20.4	0.00e+00	0	40	0	917504000	45	4313
2026-01-05 15:24:26.76	214.35	18.13	-37.8	-39.1	20.5	0.00e+00	0	41	0	921698304	45	4296
2026-01-05 15:24:28.04	214.55	18.25	-37.8	-39.1	20.4	0.00e+00	0	40	0	931135488	45	4314
2026-01-05 15:24:28.76	214.66	18.32	-37.8	-39.1	20.4	0.00e+00	0	40	0	936378368	45	4312
2026-01-05 15:24:30.06	214.86	18.44	-37.6	-38.9	20.6	0.00e+00	0	40	0	945815552	45	4212
2026-01-05 15:24:30.77	214.97	18.50	-37.7	-39.0	20.5	0.00e+00	0	40	0	951058432	45	4269
2026-01-05 15:24:32.12	215.19	18.63	-37.6	-39.0	20.5	0.00e+00	0	40	0	961544192	45	4256
2026-01-05 15:24:32.84	215.30	18.70	-37.5	-38.9	20.6	0.00e+00	0	40	0	965738496	45	4195
2026-01-05 15:24:34.12	215.51	18.82	-37.5	-38.8	20.6	0.00e+00	0	40	0	975175680	45	4167
2026-01-05 15:24:35.20	215.68	18.92	-37.4	-38.8	20.6	0.00e+00	0	40	0	983564288	45	4161
2026-01-05 15:24:36.39	215.87	19.03	-37.5	-38.9	20.5	0.00e+00	0	40	0	991952896	45	4213
2026-01-05 15:24:37.44	216.05	19.13	-37.5	-38.9	20.6	0.00e+00	0	40	0	999292928	45	4200
2026-01-05 15:24:38.35	216.20	19.21	-37.5	-38.8	20.6	0.00e+00	0	40	0	1005584384	45	4188
2026-01-05 15:24:39.38	216.37	19.31	-37.5	-38.8	20.6	0.00e+00	0	40	0	1013972992	45	4187
2026-01-05 15:24:40.38	216.53	19.41	-37.4	-38.7	20.7	0.00e+00	0	40	0	1020264448	45	4133
2026-01-05 15:24:41.38	216.70	19.50	-37.2	-38.5	20.8	0.00e+00	0	40	0	1027604480	45	4033
2026-01-05 15:24:42.38	216.87	19.60	-37.1	-38.4	20.9	0.00e+00	0	41	0	1034944512	45	3992
2026-01-05 15:24:43.38	217.04	19.69	-37.1	-38.5	20.8	0.00e+00	0	40	0	1042284544	44	4245
2026-01-05 15:24:44.39	217.21	19.79	-37.1	-38.5	20.9	0.00e+00	0	40	0	1049624576	44	4244
2026-01-05 15:24:45.45	217.39	19.89	-37.1	-38.4	20.9	0.00e+00	0	40	0	1056964608	44	4232
2026-01-05 15:24:46.35	217.55	19.97	-37.2	-38.6	20.7	0.00e+00	0	41	0	1063256064	44	4302
2026-01-05 15:24:47.59	217.76	20.09	-37.2	-38.6	20.8	0.00e+00	0	41	0	1072693248	44	4303
2026-01-05 15:24:48.45	217.91	20.17	-37.3	-38.6	20.7	0.00e+00	0	40	0	1078984704	44	4322
2026-01-05 15:24:49.60	218.11	20.28	-37.4	-38.7	20.6	0.00e+00	0	40	0	1087373312	44	4385
2026-01-05 15:24:50.46	218.27	20.37	-37.5	-38.8	20.5	0.00e+00	0	41	0	1093664768	44	4441
2026-01-05 15:24:51.84	218.51	20.50	-37.5	-38.9	20.5	0.00e+00	0	41	0	1103101952	44	4458
2026-01-05 15:24:52.56	218.64	20.57	-37.5	-38.9	20.5	0.00e+00	0	40	0	1108344832	44	4448
2026-01-05 15:24:53.84	218.87	20.69	-37.4	-38.8	20.6	0.00e+00	0	41	0	1117782016	44	4413
2026-01-05 15:24:54.56	219.00	20.76	-37.4	-38.7	20.6	0.00e+00	0	40	0	1123024896	44	4379
2026-01-05 15:24:55.84	219.23	20.88	-37.2	-38.5	20.8	0.00e+00	0	40	0	1132462080	44	4286
2026-01-05 15:24:56.56	219.37	20.95	-37.3	-38.6	20.7	0.00e+00	0	41	0	1137704960	44	4337
2026-01-05 15:24:58.23	219.68	21.11	-37.3	-38.6	20.7	0.00e+00	0	40	0	1149239296	44	4308
2026-01-05 15:24:58.80	219.78	21.17	-37.3	-38.7	20.7	0.00e+00	0	40	0	1153433600	44	4353
2026-01-05 15:25:00.46	220.09	21.33	-37.2	-38.5	20.7	0.00e+00	0	41	0	1164967936	44	4280
2026-01-05 15:25:01.03	220.20	21.38	-37.1	-38.4	20.8	0.00e+00	0	40	0	1170210816	44	4239
2026-01-05 15:25:02.69	220.52	21.54	-37.2	-38.5	20.8	0.00e+00	0	40	0	1181745152	44	4265
2026-01-05 15:25:03.74	220.72	21.64	-37.2	-38.5	20.7	0.00e+00	0	40	0	1189085184	44	4290
2026-01-05 15:25:04.65	220.89	21.73	-37.2	-38.5	20.8	0.00e+00	0	40	0	1195376640	44	4275
2026-01-05 15:25:05.65	221.09	21.83	-37.1	-38.4	20.9	0.00e+00	0	40	0	1202716672	44	4222
2026-01-05 15:25:06.73	221.30	21.93	-37.1	-38.4	20.9	0.00e+00	0	41	0	1211105280	44	4218
2026-01-05 15:25:07.65	221.48	22.02	-37.1	-38.4	20.9	0.00e+00	0	40	0	1217396736	44	4235
2026-01-05 15:25:08.65	221.68	22.12	-37.2	-38.6	20.8	0.00e+00	0	40	0	1224736768	44	4298
2026-01-05 15:25:09.65	221.87	22.22	-37.3	-38.6	20.8	0.00e+00	0	40	0	1232076800	44	4303
2026-01-05 15:25:10.65	222.07	22.31	-37.3	-38.6	20.8	0.00e+00	0	41	0	1239416832	44	4319
2026-01-05 15:25:11.66	222.28	22.41	-37.4	-38.8	20.6	0.00e+00	0	41	0	1246756864	44	4404
2026-01-05 15:25:12.66	222.48	22.51	-37.3	-38.7	20.7	0.00e+00	0	40	0	1253048320	44	4360
2026-01-05 15:25:13.66	222.68	22.61	-37.4	-38.7	20.7	0.00e+00	0	41	0	1260388352	44	4375
2026-01-05 15:25:14.66	222.89	22.70	-37.3	-38.7	20.8	0.00e+00	0	41	0	1267728384	44	4354
2026-01-05 15:25:15.66	223.09	22.80	-37.1	-38.4	21.0	0.00e+00	0	41	0	1275068416	44	4214
2026-01-05 15:25:16.67	223.30	22.90	-37.1	-38.5	20.9	0.00e+00	0	41	0	1282408448	44	4251
2026-01-05 15:25:17.67	223.51	22.99	-37.1	-38.5	21.0	0.00e+00	0	40	0	1289748480	44	4243
2026-01-05 15:25:18.67	223.72	23.09	-37.1	-38.5	20.9	0.00e+00	0	41	0	1297088512	44	4270
2026-01-05 15:25:19.68	223.93	23.19	-37.2	-38.6	20.8	0.00e+00	0	40	0	1304428544	44	4313
2026-01-05 15:25:20.67	224.14	23.28	-37.1	-38.4	20.9	0.00e+00	0	40	0	1311768576	44	4242
2026-01-05 15:25:21.68	224.36	23.38	-37.2	-38.6	20.8	0.00e+00	0	40	0	1319108608	44	4297
2026-01-05 15:25:22.68	224.58	23.48	-37.0	-38.3	21.0	0.00e+00	0	41	0	1326448640	44	4188
2026-01-05 15:25:23.68	224.79	23.58	-37.0	-38.3	21.0	0.00e+00	0	40	0	1333788672	44	4169
2026-01-05 15:25:24.68	225.01	23.67	-36.9	-38.3	21.1	0.00e+00	0	41	0	1340080128	44	4158
2026-01-05 15:25:25.68	225.23	23.77	-36.9	-38.2	21.1	0.00e+00	0	41	0	1347420160	44	4126
2026-01-05 15:25:26.69	225.45	23.87	-36.8	-38.1	21.2	0.00e+00	0	41	0	1354760192	44	4064
2026-01-05 15:25:27.69	225.67	23.96	-36.8	-38.1	21.2	0.00e+00	0	41	0	1362100224	44	4065
2026-01-05 15:25:28.69	225.89	24.06	-36.8	-38.1	21.2	0.00e+00	0	41	0	1369440256	44	4057
2026-01-05 15:25:29.70	226.12	24.16	-36.8	-38.1	21.2	0.00e+00	0	40	0	1376780288	44	4072
2026-01-05 15:25:30.76	226.36	24.26	-36.8	-38.2	21.1	0.00e+00	0	41	0	1384120320	44	4103
2026-01-05 15:25:31.65	226.56	24.34	-36.9	-38.2	21.1	0.00e+00	0	41	0	1390411776	44	4144
2026-01-05 15:25:32.80	226.83	24.45	-36.9	-38.3	21.0	0.00e+00	0	41	0	1398800384	44	4165
2026-01-05 15:25:33.65	227.02	24.54	-37.0	-38.4	20.9	0.00e+00	0	40	0	1405091840	44	4207
2026-01-05 15:25:34.80	227.29	24.65	-37.0	-38.3	21.0	0.00e+00	0	40	0	1413480448	44	4183
2026-01-05 15:25:35.66	227.49	24.73	-37.0	-38.3	21.0	0.00e+00	0	41	0	1419771904	44	4179
2026-01-05 15:25:36.80	227.75	24.84	-37.0	-38.3	21.0	0.00e+00	0	41	0	1428160512	44	4181
2026-01-05 15:25:37.66	227.95	24.92	-36.9	-38.2	21.1	0.00e+00	0	40	0	1434451968	44	4135
2026-01-05 15:25:38.80	228.22	25.03	-36.8	-38.1	21.2	0.00e+00	0	40	0	1441792000	44	4077
2026-01-05 15:25:40.01	228.51	25.14	-36.8	-38.1	21.2	0.00e+00	0	40	0	1451229184	44	4095
2026-01-05 15:25:41.05	228.76	25.24	-36.9	-38.3	21.1	0.00e+00	0	41	0	1458569216	44	4155
2026-01-05 15:25:42.03	229.00	25.33	-36.9	-38.2	21.1	0.00e+00	0	41	0	1465909248	44	4144
2026-01-05 15:25:43.03	229.24	25.43	-36.9	-38.3	21.0	0.00e+00	0	40	0	1473249280	44	4174
2026-01-05 15:25:44.03	229.49	25.52	-36.9	-38.3	21.1	0.00e+00	0	40	0	1480589312	44	4152
2026-01-05 15:25:45.03	229.73	25.62	-36.8	-38.2	21.1	0.00e+00	0	41	0	1486880768	44	4104
2026-01-05 15:25:46.03	229.98	25.71	-36.8	-38.1	21.2	0.00e+00	0	41	0	1494220800	44	4094
2026-01-05 15:25:47.03	230.23	25.80	-36.8	-38.1	21.3	0.00e+00	0	40	0	1501560832	44	4055
2026-01-05 15:25:48.03	230.48	25.90	-36.7	-38.0	21.3	0.00e+00	0	40	0	1508900864	44	4043
2026-01-05 15:25:49.04	230.73	25.99	-36.6	-37.9	21.3	0.00e+00	0	40	0	1516240896	44	3991
2026-01-05 15:25:50.04	230.98	26.08	-36.7	-38.0	21.3	0.00e+00	0	40	0	1523580928	44	4032
2026-01-05 15:25:51.04	231.24	26.17	-36.8	-38.1	21.2	0.00e+00	0	40	0	1530920960	44	4070
2026-01-05 15:25:52.04	231.49	26.27	-36.8	-38.1	21.1	0.00e+00	0	40	0	1538260992	44	4086
2026-01-05 15:25:53.05	231.75	26.36	-36.8	-38.1	21.1	0.00e+00	0	40	0	1545601024	44	4075
2026-01-05 15:25:54.05	232.01	26.45	-36.6	-38.0	21.3	0.00e+00	0	41	0	1551892480	44	4008
2026-01-05 15:25:55.05	232.27	26.54	-36.4	-37.6	21.4	0.00e+00	0	40	0	1559232512	43	4098
2026-01-05 15:25:56.05	232.53	26.63	-36.3	-37.6	21.5	0.00e+00	0	40	0	1566572544	43	4065
2026-01-05 15:25:57.06	232.80	26.72	-36.4	-37.6	21.4	0.00e+00	0	40	0	1573912576	43	4096
2026-01-05 15:25:58.36	233.14	26.84	-36.5	-37.8	21.3	0.00e+00	0	40	0	1583349760	43	4154
2026-01-05 15:25:59.12	233.34	26.91	-36.5	-37.8	21.4	0.00e+00	0	41	0	1589641216	43	4162
2026-01-05 15:26:00.76	233.78	27.06	-36.6	-37.9	21.3	0.00e+00	0	40	0	1601175552	43	4218
2026-01-05 15:26:01.33	233.94	27.11	-36.7	-38.0	21.2	0.00e+00	0	41	0	1605369856	43	4284
2026-01-05 15:26:02.93	234.37	27.25	-36.6	-37.9	21.3	0.00e+00	0	40	0	1616904192	43	4215
2026-01-05 15:26:03.50	234.53	27.30	-36.5	-37.8	21.3	0.00e+00	0	40	0	1621098496	43	4181
2026-01-05 15:26:05.13	234.97	27.44	-36.5	-37.8	21.4	0.00e+00	0	40	0	1632632832	43	4150
2026-01-05 15:26:05.71	235.13	27.49	-36.4	-37.6	21.5	0.00e+00	0	40	0	1636827136	43	4093
2026-01-05 15:26:07.30	235.57	27.63	-36.3	-37.6	21.5	0.00e+00	0	40	0	1648361472	43	4053
2026-01-05 15:26:07.91	235.74	27.68	-36.3	-37.6	21.5	0.00e+00	0	40	0	1652555776	43	4066
2026-01-05 15:26:09.48	236.18	27.82	-36.4	-37.7	21.4	0.00e+00	0	41	0	1664090112	43	4144
2026-01-05 15:26:10.10	236.36	27.87	-36.5	-37.8	21.3	0.00e+00	0	40	0	1668284416	43	4166
2026-01-05 15:26:11.68	236.81	28.01	-36.4	-37.7	21.3	0.00e+00	0	41	0	1679818752	43	4145
2026-01-05 15:26:12.27	236.98	28.06	-36.3	-37.6	21.4	0.00e+00	0	41	0	1684013056	43	4096
2026-01-05 15:26:13.84	237.43	28.19	-36.3	-37.5	21.5	0.00e+00	0	40	0	1695547392	43	4047
2026-01-05 15:26:14.46	237.61	28.24	-36.1	-37.4	21.6	0.00e+00	0	41	0	1699741696	43	3991
2026-01-05 15:26:16.03	238.06	28.37	-36.2	-37.5	21.6	0.00e+00	0	41	0	1711276032	43	4009
2026-01-05 15:26:16.82	238.29	28.43	-36.2	-37.5	21.5	0.00e+00	0	40	0	1716518912	43	4040
2026-01-05 15:26:17.97	238.63	28.53	-36.3	-37.6	21.5	0.00e+00	0	41	0	1724907520	43	4062
2026-01-05 15:26:18.82	238.88	28.60	-36.3	-37.5	21.5	0.00e+00	0	40	0	1731198976	43	4051
2026-01-05 15:26:19.97	239.22	28.69	-36.3	-37.7	21.4	0.00e+00	0	41	0	1739587584	43	4099
2026-01-05 15:26:20.83	239.48	28.76	-36.4	-37.7	21.4	0.00e+00	0	40	0	1745879040	43	4108
2026-01-05 15:26:22.02	239.84	28.85	-36.3	-37.6	21.5	0.00e+00	0	41	0	1754267648	43	4077
2026-01-05 15:26:23.29	240.22	28.95	-36.4	-37.8	21.4	0.00e+00	0	40	0	1763704832	43	4146
2026-01-05 15:26:24.01	240.44	29.01	-36.4	-37.7	21.4	0.00e+00	0	40	0	1768947712	43	4111
2026-01-05 15:26:25.77	240.97	29.14	-36.4	-37.7	21.4	0.00e+00	0	41	0	1781530624	43	4141
2026-01-05 15:26:26.35	241.15	29.18	-36.4	-37.7	21.4	0.00e+00	0	40	0	1785724928	43	4108
2026-01-05 15:26:27.92	241.63	29.30	-36.2	-37.5	21.6	0.00e+00	0	40	0	1797259264	43	4034
2026-01-05 15:26:28.54	241.82	29.35	-36.2	-37.5	21.6	0.00e+00	0	40	0	1801453568	43	4019
2026-01-05 15:26:30.12	242.31	29.47	-36.1	-37.4	21.6	0.00e+00	0	40	0	1812987904	43	3992
2026-01-05 15:26:30.81	242.53	29.52	-36.2	-37.5	21.5	0.00e+00	0	41	0	1817182208	42	4269
2026-01-05 15:26:32.24	242.98	29.62	-36.2	-37.5	21.5	0.00e+00	0	41	0	1827667968	42	4264
2026-01-05 15:26:32.95	243.20	29.67	-36.3	-37.6	21.5	0.00e+00	0	41	0	1832910848	42	4292
2026-01-05 15:26:34.24	243.61	29.76	-36.3	-37.6	21.5	0.00e+00	0	40	0	1842348032	42	4293
2026-01-05 15:26:35.02	243.86	29.82	-36.3	-37.5	21.5	0.00e+00	0	41	0	1847590912	42	4290
2026-01-05 15:26:36.30	244.27	29.90	-36.2	-37.5	21.5	0.00e+00	0	41	0	1857028096	42	4288
2026-01-05 15:26:37.02	244.50	29.95	-36.2	-37.5	21.5	0.00e+00	0	41	0	1862270976	42	4279
2026-01-05 15:26:38.31	244.91	30.04	-36.2	-37.5	21.5	0.00e+00	0	40	0	1871708160	42	4243
2026-01-05 15:26:39.03	245.15	30.09	-36.2	-37.5	21.5	0.00e+00	0	40	0	1876951040	42	4284
2026-01-05 15:26:40.31	245.56	30.17	-36.2	-37.5	21.5	0.00e+00	0	41	0	1886388224	42	4291
2026-01-05 15:26:41.03	245.80	30.22	-36.3	-37.6	21.4	0.00e+00	0	40	0	1891631104	42	4334
2026-01-05 15:26:42.32	246.22	30.30	-36.3	-37.6	21.4	0.00e+00	0	40	0	1901068288	42	4336
2026-01-05 15:26:43.04	246.45	30.35	-36.3	-37.6	21.4	0.00e+00	0	40	0	1906311168	42	4307
2026-01-05 15:26:44.42	246.91	30.43	-36.2	-37.4	21.5	0.00e+00	0	40	0	1915748352	42	4241
2026-01-05 15:26:45.14	247.15	30.48	-36.2	-37.5	21.5	0.00e+00	0	40	0	1920991232	42	4274
2026-01-05 15:26:46.47	247.59	30.56	-36.3	-37.6	21.4	0.00e+00	0	41	0	1931476992	42	4328
2026-01-05 15:26:47.44	247.91	30.62	-36.3	-37.6	21.5	0.00e+00	0	41	0	1937768448	42	4314
2026-01-05 15:26:48.78	248.36	30.69	-36.3	-37.6	21.5	0.00e+00	0	41	0	1947205632	42	4301
2026-01-05 15:26:49.49	248.60	30.73	-36.2	-37.5	21.6	0.00e+00	0	40	0	1952448512	42	4252
2026-01-05 15:26:51.13	249.16	30.83	-36.1	-37.3	21.7	0.00e+00	0	40	0	1965031424	42	4180
2026-01-05 15:26:52.02	249.46	30.88	-36.0	-37.2	21.8	0.00e+00	0	41	0	1971322880	42	4140
2026-01-05 15:26:53.17	249.85	30.94	-36.0	-37.3	21.7	0.00e+00	0	40	0	1978662912	42	4150
2026-01-05 15:26:54.34	250.25	31.00	-36.1	-37.4	21.7	0.00e+00	0	40	0	1988100096	42	4196
2026-01-05 15:26:55.20	250.54	31.04	-36.1	-37.5	21.6	0.00e+00	0	40	0	1993342976	42	4244
2026-01-05 15:26:56.35	250.94	31.10	-36.2	-37.5	21.5	0.00e+00	0	40	0	2001731584	42	4273
2026-01-05 15:26:57.20	251.23	31.14	-36.2	-37.5	21.5	0.00e+00	0	40	0	2008023040	42	4287
2026-01-05 15:26:58.34	251.62	31.20	-36.3	-37.7	21.4	0.00e+00	0	40	0	2016411648	42	4341
2026-01-05 15:26:59.20	251.92	31.24	-36.3	-37.6	21.4	0.00e+00	0	40	0	2022703104	42	4300
2026-01-05 15:27:00.35	252.32	31.29	-36.3	-37.6	21.4	0.00e+00	0	40	0	2031091712	42	4315
2026-01-05 15:27:01.20	252.62	31.33	-36.2	-37.5	21.5	0.00e+00	0	41	0	2037383168	42	4244
2026-01-05 15:27:02.44	253.05	31.39	-36.1	-37.4	21.5	0.00e+00	0	41	0	2045771776	42	4227
2026-01-05 15:27:03.30	253.35	31.42	-36.6	-37.5	22.2	0.00e+00	0	40	0	2052063232	42	4262
2026-01-05 15:27:04.44	253.75	31.47	-36.7	-37.6	22.2	0.00e+00	0	41	0	2060451840	42	4312
2026-01-05 15:27:05.30	254.06	31.51	-36.7	-37.6	22.2	0.00e+00	0	40	0	2066743296	42	4302
2026-01-05 15:27:06.59	254.51	31.56	-36.6	-37.5	22.3	0.00e+00	0	40	0	2076180480	42	4269
2026-01-05 15:27:07.31	254.77	31.59	-36.6	-37.4	22.3	0.00e+00	0	41	0	2081423360	42	4235
2026-01-05 15:27:08.85	255.32	31.64	-36.5	-37.3	22.4	0.00e+00	0	41	0	2091909120	42	4184
2026-01-05 15:27:09.81	255.66	31.68	-36.4	-37.3	22.5	0.00e+00	0	40	0	2099249152	42	4162
2026-01-05 15:27:10.81	256.01	31.71	-36.4	-37.3	22.4	0.00e+00	0	41	0	2106589184	42	4147
2026-01-05 15:27:11.81	256.37	31.75	-36.5	-37.4	22.4	0.00e+00	0	41	0	2113929216	42	4205
2026-01-05 15:27:13.18	256.86	31.79	-36.5	-37.3	22.4	0.00e+00	0	40	0	2123366400	42	4191
2026-01-05 15:27:13.93	257.13	31.81	-36.4	-37.3	22.4	0.00e+00	0	40	0	2129657856	42	4185
2026-01-05 15:27:15.55	257.71	31.86	-36.4	-37.3	22.4	0.00e+00	0	41	0	2141192192	42	4162
2026-01-05 15:27:16.12	257.92	31.88	-36.4	-37.3	22.4	0.00e+00	0	41	0	2145386496	42	4147
2026-01-05 15:27:17.96	258.58	31.93	-36.4	-37.3	22.4	0.00e+00	0	41	0	2157969408	42	4167
2026-01-05 15:27:18.54	258.79	31.94	-36.4	-37.3	22.4	0.00e+00	0	40	0	2162163712	42	4164
2026-01-05 15:27:20.16	259.38	31.98	-36.7	-37.5	22.2	0.00e+00	0	41	0	2173698048	42	4291
2026-01-05 15:27:20.73	259.59	31.99	-36.7	-37.5	22.2	0.00e+00	0	40	0	2177892352	42	4283
2026-01-05 15:27:22.40	260.20	32.03	-36.6	-37.5	22.3	0.00e+00	0	40	0	2190475264	42	4272
2026-01-05 15:27:22.97	260.40	32.04	-36.6	-37.5	22.3	0.00e+00	0	41	0	2194669568	42	4266
2026-01-05 15:27:24.56	260.98	32.07	-36.4	-37.2	22.4	0.00e+00	0	41	0	2205155328	42	4141
2026-01-05 15:27:25.13	261.19	32.08	-36.3	-37.1	22.6	0.00e+00	0	41	0	2210398208	42	4078
2026-01-05 15:27:26.77	261.79	32.11	-36.4	-37.2	22.5	0.00e+00	0	40	0	2221932544	42	4144
2026-01-05 15:27:27.35	262.00	32.11	-36.5	-37.4	22.4	0.00e+00	0	40	0	2226126848	42	4194
2026-01-05 15:27:28.92	262.58	32.13	-36.6	-37.5	22.3	0.00e+00	0	40	0	2237661184	42	4267
2026-01-05 15:27:29.49	262.79	32.14	-36.7	-37.5	22.2	0.00e+00	0	40	0	2241855488	42	4285
2026-01-05 15:27:31.06	263.36	32.16	-36.6	-37.4	22.3	0.00e+00	0	40	0	2252341248	42	4239
2026-01-05 15:27:31.65	263.58	32.16	-36.6	-37.5	22.3	0.00e+00	0	40	0	2256535552	42	4259
2026-01-05 15:27:33.53	264.27	32.18	-36.6	-37.5	22.3	0.00e+00	0	40	0	2270167040	42	4249
2026-01-05 15:27:34.10	264.48	32.18	-36.6	-37.5	22.3	0.00e+00	0	40	0	2274361344	42	4264
2026-01-05 15:27:35.71	265.07	32.19	-36.7	-37.6	22.2	0.00e+00	0	41	0	2285895680	42	4292
2026-01-05 15:27:36.28	265.28	32.19	-36.4	-37.3	22.5	0.00e+00	0	40	0	2290089984	42	4158
2026-01-05 15:27:37.89	265.87	32.19	-36.4	-37.2	22.5	0.00e+00	0	41	0	2301624320	42	4131
2026-01-05 15:27:38.77	266.19	32.19	-36.3	-37.1	22.6	0.00e+00	0	40	0	2307915776	42	4075
2026-01-05 15:27:39.91	266.61	32.19	-36.2	-37.0	22.6	0.00e+00	0	40	0	2316304384	42	4039
2026-01-05 15:27:40.76	266.92	32.19	-36.2	-37.0	22.7	0.00e+00	0	40	0	2322595840	42	4009
2026-01-05 15:27:41.91	267.35	32.18	-36.2	-37.1	22.6	0.00e+00	0	40	0	2330984448	42	4054
2026-01-05 15:27:42.76	267.66	32.18	-36.2	-37.1	22.6	0.00e+00	0	40	0	2337275904	42	4055
2026-01-05 15:27:43.90	268.08	32.17	-36.2	-37.0	22.6	0.00e+00	0	40	0	2345664512	42	4029
2026-01-05 15:27:44.76	268.39	32.16	-36.0	-36.8	22.8	0.00e+00	0	41	0	2351955968	42	3951
2026-01-05 15:27:45.91	268.81	32.15	-36.2	-37.0	22.7	0.00e+00	0	41	0	2359296000	42	4016
2026-01-05 15:27:46.76	269.12	32.14	-36.1	-37.0	22.7	0.00e+00	0	40	0	2365587456	42	4006
2026-01-05 15:27:47.91	269.55	32.13	-36.3	-37.1	22.6	0.00e+00	0	40	0	2373976064	42	4087
2026-01-05 15:27:48.97	269.93	32.12	-36.6	-37.4	22.3	0.00e+00	0	40	0	2382364672	42	4216
2026-01-05 15:27:50.02	270.32	32.10	-36.7	-37.6	22.2	0.00e+00	0	40	0	2389704704	42	4303
2026-01-05 15:27:50.90	270.64	32.09	-36.8	-37.7	22.1	0.00e+00	0	40	0	2395996160	43	4105
2026-01-05 15:27:52.04	271.05	32.07	-36.7	-37.6	22.2	0.00e+00	0	41	0	2404384768	43	4062
2026-01-05 15:27:52.90	271.37	32.05	-36.5	-37.4	22.3	0.00e+00	0	41	0	2410676224	43	3979
2026-01-05 15:27:54.05	271.79	32.03	-36.4	-37.2	22.5	0.00e+00	0	41	0	2419064832	43	3905
2026-01-05 15:27:54.91	272.10	32.01	-36.4	-37.3	22.5	0.00e+00	0	40	0	2424307712	43	3917
2026-01-05 15:27:56.08	272.52	31.99	-36.5	-37.3	22.4	0.00e+00	0	41	0	2433744896	43	3948
2026-01-05 15:27:56.94	272.84	31.97	-36.6	-37.4	22.3	0.00e+00	0	40	0	2440036352	43	3993
2026-01-05 15:27:58.08	273.25	31.94	-36.7	-37.6	22.2	0.00e+00	0	40	0	2447376384	43	4071
2026-01-05 15:27:59.44	273.74	31.91	-36.8	-37.6	22.1	0.00e+00	0	40	0	2457862144	43	4087
2026-01-05 15:28:00.16	274.00	31.89	-36.8	-37.7	22.1	0.00e+00	0	40	0	2463105024	43	4108
2026-01-05 15:28:01.46	274.47	31.85	-36.5	-37.4	22.4	0.00e+00	0	40	0	2472542208	43	3960
2026-01-05 15:28:02.17	274.72	31.83	-36.4	-37.3	22.4	0.00e+00	0	40	0	2477785088	43	3918
2026-01-05 15:28:03.54	275.21	31.79	-36.4	-37.2	22.5	0.00e+00	0	40	0	2487222272	43	3909
2026-01-05 15:28:04.26	275.47	31.76	-36.3	-37.1	22.6	0.00e+00	0	40	0	2492465152	43	3852
2026-01-05 15:28:05.64	275.96	31.72	-36.0	-36.8	22.8	0.00e+00	0	41	0	2501902336	42	3935
2026-01-05 15:28:06.36	276.22	31.69	-36.1	-37.0	22.7	0.00e+00	0	41	0	2507145216	42	4007
2026-01-05 15:28:07.74	276.71	31.64	-36.3	-37.1	22.5	0.00e+00	0	40	0	2517630976	42	4097
2026-01-05 15:28:08.45	276.96	31.62	-36.3	-37.2	22.5	0.00e+00	0	40	0	2522873856	42	4107
2026-01-05 15:28:09.84	277.46	31.57	-36.5	-37.3	22.4	0.00e+00	0	40	0	2532311040	42	4180
2026-01-05 15:28:10.55	277.71	31.54	-36.5	-37.3	22.3	0.00e+00	0	40	0	2537553920	42	4168
2026-01-05 15:28:11.84	278.16	31.49	-36.4	-37.3	22.4	0.00e+00	0	40	0	2546991104	42	4162
2026-01-05 15:28:12.91	278.54	31.44	-36.4	-37.3	22.5	0.00e+00	0	40	0	2554331136	42	4152
2026-01-05 15:28:14.12	278.96	31.39	-36.4	-37.3	22.4	0.00e+00	0	40	0	2563768320	42	4156
2026-01-05 15:28:15.15	279.32	31.34	-36.5	-37.4	22.3	0.00e+00	0	40	0	2571108352	42	4194
2026-01-05 15:28:16.32	279.73	31.29	-36.7	-37.6	22.2	0.00e+00	0	40	0	2579496960	42	4320
2026-01-05 15:28:17.18	280.03	31.25	-36.7	-37.6	22.2	0.00e+00	0	41	0	2585788416	42	4324
2026-01-05 15:28:18.33	280.42	31.20	-36.8	-37.7	22.0	0.00e+00	0	40	0	2594177024	43	4128
2026-01-05 15:28:19.18	280.72	31.16	-36.9	-37.8	22.0	0.00e+00	0	40	0	2600468480	43	4152
2026-01-05 15:28:20.32	281.11	31.10	-36.9	-37.7	22.0	0.00e+00	0	41	0	2608857088	43	4139
2026-01-05 15:28:21.18	281.40	31.06	-36.8	-37.7	22.0	0.00e+00	0	41	0	2614099968	43	4117
2026-01-05 15:28:22.32	281.79	31.00	-36.6	-37.5	22.3	0.00e+00	0	40	0	2622488576	43	4017
2026-01-05 15:28:23.18	282.09	30.95	-36.7	-37.6	22.2	0.00e+00	0	40	0	2628780032	43	4073
2026-01-05 15:28:24.33	282.48	30.89	-36.6	-37.5	22.2	0.00e+00	0	40	0	2637168640	43	4029
2026-01-05 15:28:25.19	282.77	30.84	-36.7	-37.5	22.2	0.00e+00	0	40	0	2643460096	43	4031
2026-01-05 15:28:26.33	283.15	30.78	-36.5	-37.4	22.3	0.00e+00	0	40	0	2651848704	43	3980
2026-01-05 15:28:27.19	283.44	30.73	-36.6	-37.4	22.3	0.00e+00	0	40	0	2658140160	43	3991
2026-01-05 15:28:28.33	283.82	30.67	-36.6	-37.4	22.3	0.00e+00	0	40	0	2666528768	43	4004
2026-01-05 15:28:29.19	284.11	30.62	-36.6	-37.4	22.2	0.00e+00	0	40	0	2672820224	43	3997
2026-01-05 15:28:30.33	284.49	30.55	-36.7	-37.5	22.2	0.00e+00	0	40	0	2680160256	43	4045
2026-01-05 15:28:31.30	284.81	30.49	-36.7	-37.5	22.2	0.00e+00	0	40	0	2687500288	43	4049
2026-01-05 15:28:32.49	285.21	30.42	-36.8	-37.7	22.1	0.00e+00	0	40	0	2695888896	43	4115
2026-01-05 15:28:33.41	285.51	30.36	-36.8	-37.7	22.1	0.00e+00	0	40	0	2702180352	43	4124
2026-01-05 15:28:34.57	285.89	30.29	-36.7	-37.6	22.2	0.00e+00	0	40	0	2711617536	43	4072
2026-01-05 15:28:35.43	286.17	30.23	-36.7	-37.6	22.2	0.00e+00	0	41	0	2717908992	43	4055
2026-01-05 15:28:36.85	286.63	30.14	-36.8	-37.6	22.1	0.00e+00	0	40	0	2727346176	43	4098
2026-01-05 15:28:37.56	286.86	30.09	-36.7	-37.5	22.2	0.00e+00	0	41	0	2732589056	43	4031
2026-01-05 15:28:38.85	287.27	30.01	-36.6	-37.4	22.3	0.00e+00	0	40	0	2742026240	43	3992
2026-01-05 15:28:39.57	287.50	29.96	-36.7	-37.5	22.2	0.00e+00	0	40	0	2747269120	43	4034
2026-01-05 15:28:40.85	287.91	29.87	-36.6	-37.5	22.2	0.00e+00	0	40	0	2756706304	43	4005
2026-01-05 15:28:41.57	288.14	29.82	-36.7	-37.6	22.2	0.00e+00	0	40	0	2761949184	43	4066
2026-01-05 15:28:42.86	288.55	29.73	-36.6	-37.4	22.3	0.00e+00	0	40	0	2771386368	43	3991
2026-01-05 15:28:43.57	288.77	29.68	-36.5	-37.4	22.3	0.00e+00	0	40	0	2776629248	43	3982
2026-01-05 15:28:44.86	289.18	29.59	-36.6	-37.4	22.3	0.00e+00	0	40	0	2785017856	43	3986
2026-01-05 15:28:45.57	289.40	29.54	-36.7	-37.6	22.1	0.00e+00	0	40	0	2790260736	43	4062
2026-01-05 15:28:46.86	289.80	29.45	-36.7	-37.5	22.2	0.00e+00	0	40	0	2799697920	43	4042
2026-01-05 15:28:47.58	290.03	29.39	-36.6	-37.4	22.2	0.00e+00	0	40	0	2804940800	43	3997
2026-01-05 15:28:48.87	290.42	29.30	-36.6	-37.5	22.2	0.00e+00	0	40	0	2814377984	43	4023
2026-01-05 15:28:49.58	290.64	29.24	-36.7	-37.6	22.2	0.00e+00	0	41	0	2819620864	43	4057
2026-01-05 15:28:50.87	291.04	29.15	-36.7	-37.6	22.1	0.00e+00	0	40	0	2829058048	43	4063
2026-01-05 15:28:51.59	291.25	29.09	-36.7	-37.5	22.2	0.00e+00	0	40	0	2834300928	43	4032
2026-01-05 15:28:52.87	291.64	28.99	-36.7	-37.6	22.1	0.00e+00	0	40	0	2843738112	43	4070
2026-01-05 15:28:53.59	291.86	28.94	-36.7	-37.6	22.2	0.00e+00	0	40	0	2848980992	43	4054
2026-01-05 15:28:55.16	292.33	28.82	-36.6	-37.5	22.2	0.00e+00	0	40	0	2859466752	43	4035
2026-01-05 15:28:55.75	292.51	28.77	-36.6	-37.5	22.2	0.00e+00	0	40	0	2863661056	43	4019
2026-01-05 15:28:57.52	293.03	28.63	-36.6	-37.5	22.2	0.00e+00	0	40	0	2876243968	43	4009
2026-01-05 15:28:58.09	293.20	28.58	-36.6	-37.5	22.3	0.00e+00	0	40	0	2880438272	43	4015
2026-01-05 15:28:59.74	293.68	28.45	-36.7	-37.6	22.2	0.00e+00	0	40	0	2893021184	43	4052
2026-01-05 15:29:00.31	293.85	28.40	-36.7	-37.6	22.1	0.00e+00	0	40	0	2897215488	43	4063
2026-01-05 15:29:02.16	294.38	28.25	-36.9	-37.8	22.0	0.00e+00	0	40	0	2909798400	43	4169
2026-01-05 15:29:02.73	294.55	28.20	-37.0	-37.9	21.9	0.00e+00	0	40	0	2915041280	43	4194
2026-01-05 15:29:04.39	295.02	28.07	-36.9	-37.8	22.0	0.00e+00	0	41	0	2926575616	43	4162
2026-01-05 15:29:04.96	295.18	28.02	-37.0	-37.9	21.9	0.00e+00	0	40	0	2930769920	43	4211
2026-01-05 15:29:06.58	295.64	27.88	-37.1	-37.9	21.8	0.00e+00	0	40	0	2942304256	43	4242
2026-01-05 15:29:07.15	295.80	27.83	-37.0	-37.9	21.9	0.00e+00	0	40	0	2946498560	43	4197
2026-01-05 15:29:09.01	296.32	27.68	-37.0	-37.9	21.9	0.00e+00	0	40	0	2960130048	43	4212
2026-01-05 15:29:09.59	296.48	27.63	-37.0	-37.8	21.9	0.00e+00	0	40	0	2964324352	43	4184
2026-01-05 15:29:11.18	296.92	27.49	-37.0	-37.8	22.0	0.00e+00	0	40	0	2975858688	43	4179
2026-01-05 15:29:11.75	297.08	27.44	-37.0	-37.8	22.0	0.00e+00	0	40	0	2979004416	43	4189
2026-01-05 15:29:13.33	297.51	27.30	-36.9	-37.8	22.0	0.00e+00	0	40	0	2990538752	43	4156
2026-01-05 15:29:13.90	297.67	27.25	-36.9	-37.8	22.0	0.00e+00	0	40	0	2994733056	43	4151
2026-01-05 15:29:15.47	298.09	27.11	-36.9	-37.8	22.0	0.00e+00	0	40	0	3006267392	43	4175
2026-01-05 15:29:16.09	298.26	27.06	-36.9	-37.7	22.0	0.00e+00	0	40	0	3010461696	43	4129
2026-01-05 15:29:17.74	298.70	26.91	-36.7	-37.6	22.1	0.00e+00	0	40	0	3023044608	43	4075
2026-01-05 15:29:18.32	298.85	26.86	-36.8	-37.6	22.1	0.00e+00	0	40	0	3027238912	43	4094
2026-01-05 15:29:19.92	299.27	26.71	-36.9	-37.8	22.0	0.00e+00	0	40	0	3038773248	43	4151
2026-01-05 15:29:20.51	299.43	26.66	-36.9	-37.8	22.0	0.00e+00	0	40	0	3042967552	43	4147
2026-01-05 15:29:22.08	299.83	26.52	-36.9	-37.7	22.0	0.00e+00	0	41	0	3054501888	43	4134
2026-01-05 15:29:22.67	299.99	26.47	-36.9	-37.8	22.0	0.00e+00	0	40	0	3058696192	43	4174
2026-01-05 15:29:24.47	300.45	26.30	-36.9	-37.8	22.0	0.00e+00	0	40	0	3071279104	43	4146
2026-01-05 15:29:25.05	300.60	26.25	-36.9	-37.8	22.0	0.00e+00	0	40	0	3075473408	43	4170
2026-01-05 15:29:26.73	301.02	26.10	-37.1	-37.9	21.9	0.00e+00	0	40	0	3088056320	43	4231
2026-01-05 15:29:27.30	301.17	26.04	-37.0	-37.9	21.9	0.00e+00	0	40	0	3092250624	43	4218
2026-01-05 15:29:29.16	301.63	25.87	-36.9	-37.8	22.0	0.00e+00	0	41	0	3104833536	43	4174
2026-01-05 15:29:29.74	301.78	25.82	-36.9	-37.8	21.9	0.00e+00	0	40	0	3109027840	43	4163
2026-01-05 15:29:31.35	302.17	25.67	-37.0	-37.9	21.9	0.00e+00	0	40	0	3120562176	43	4202
2026-01-05 15:29:31.92	302.31	25.61	-37.0	-37.9	21.8	0.00e+00	0	40	0	3125805056	43	4216
2026-01-05 15:29:33.50	302.70	25.47	-37.2	-38.1	21.7	0.00e+00	0	40	0	3136290816	43	4301
2026-01-05 15:29:34.12	302.85	25.41	-37.2	-38.1	21.7	0.00e+00	0	41	0	3141533696	43	4325
2026-01-05 15:29:35.96	303.29	25.24	-37.3	-38.2	21.8	0.00e+00	0	40	0	3154116608	44	4133
2026-01-05 15:29:36.53	303.43	25.18	-37.4	-38.3	21.7	0.00e+00	0	41	0	3158310912	44	4149
2026-01-05 15:29:38.21	303.83	25.02	-37.3	-38.1	21.8	0.00e+00	0	41	0	3170893824	44	4091
2026-01-05 15:29:38.78	303.96	24.97	-37.2	-38.1	21.8	0.00e+00	0	40	0	3175088128	44	4057
2026-01-05 15:29:40.40	304.34	24.82	-37.1	-38.0	22.0	0.00e+00	0	40	0	3186622464	44	4022
2026-01-05 15:29:40.97	304.47	24.76	-37.1	-38.0	21.9	0.00e+00	0	40	0	3190816768	44	4023
2026-01-05 15:29:42.85	304.91	24.59	-37.2	-38.0	21.9	0.00e+00	0	40	0	3204448256	44	4050
2026-01-05 15:29:43.42	305.04	24.53	-37.2	-38.0	21.9	0.00e+00	0	40	0	3208642560	44	4031
2026-01-05 15:29:45.41	305.49	24.34	-37.2	-38.0	21.9	0.00e+00	0	41	0	3222274048	44	4034
2026-01-05 15:29:45.98	305.62	24.29	-37.2	-38.0	21.9	0.00e+00	0	40	0	3226468352	44	4039
2026-01-05 15:29:47.60	305.98	24.13	-37.3	-38.2	21.7	0.00e+00	0	40	0	3238002688	44	4120
2026-01-05 15:29:48.17	306.11	24.08	-37.4	-38.3	21.7	0.00e+00	0	40	0	3242196992	44	4159
2026-01-05 15:29:49.78	306.46	23.92	-37.5	-38.4	21.6	0.00e+00	0	40	0	3253731328	44	4223
2026-01-05 15:29:50.35	306.59	23.87	-37.5	-38.4	21.5	0.00e+00	0	40	0	3257925632	44	4226
2026-01-05 15:29:51.95	306.94	23.72	-37.6	-38.5	21.5	0.00e+00	0	41	0	3269459968	44	4262
2026-01-05 15:29:52.54	307.07	23.66	-37.6	-38.5	21.5	0.00e+00	0	41	0	3273654272	44	4278
2026-01-05 15:29:54.11	307.41	23.51	-37.6	-38.5	21.5	0.00e+00	0	40	0	3285188608	44	4244
2026-01-05 15:29:54.78	307.55	23.44	-37.5	-38.4	21.5	0.00e+00	0	40	0	3290431488	44	4228
2026-01-05 15:29:56.21	307.85	23.31	-37.6	-38.5	21.5	0.00e+00	0	40	0	3299868672	44	4278
2026-01-05 15:29:56.99	308.02	23.23	-37.6	-38.5	21.4	0.00e+00	0	40	0	3306160128	44	4273
2026-01-05 15:29:58.27	308.29	23.11	-37.5	-38.3	21.6	0.00e+00	0	40	0	3315597312	44	4187
2026-01-05 15:29:58.99	308.44	23.04	-37.4	-38.3	21.6	0.00e+00	0	40	0	3320840192	44	4173
2026-01-05 15:30:00.28	308.71	22.92	-37.4	-38.3	21.6	0.00e+00	0	40	0	3330277376	44	4153
2026-01-05 15:30:01.20	308.90	22.83	-37.3	-38.1	21.7	0.00e+00	0	40	0	3336568832	44	4098
2026-01-05 15:30:02.20	309.10	22.73	-37.4	-38.3	21.7	0.00e+00	0	40	0	3343908864	44	4150
2026-01-05 15:30:03.20	309.31	22.63	-37.5	-38.4	21.6	0.00e+00	0	40	0	3351248896	44	4203
2026-01-05 15:30:04.20	309.51	22.54	-37.5	-38.4	21.5	0.00e+00	0	40	0	3358588928	44	4230
2026-01-05 15:30:05.21	309.71	22.44	-37.7	-38.6	21.4	0.00e+00	0	40	0	3364880384	44	4312
2026-01-05 15:30:06.21	309.91	22.35	-37.8	-38.7	21.3	0.00e+00	0	40	0	3372220416	44	4356
2026-01-05 15:30:07.21	310.11	22.25	-37.9	-38.8	21.2	0.00e+00	0	41	0	3379560448	45	4162
2026-01-05 15:30:08.21	310.31	22.15	-38.0	-38.9	21.1	0.00e+00	0	40	0	3386900480	45	4232
2026-01-05 15:30:09.25	310.51	22.05	-37.9	-38.8	21.1	0.00e+00	0	40	0	3394240512	45	4176
2026-01-05 15:30:10.25	310.71	21.96	-38.0	-39.0	21.1	0.00e+00	0	40	0	3401580544	45	4244
2026-01-05 15:30:11.25	310.90	21.86	-37.9	-38.9	21.1	0.00e+00	0	40	0	3408920576	45	4201
2026-01-05 15:30:12.38	311.12	21.75	-37.9	-38.8	21.1	0.00e+00	0	40	0	3417309184	45	4190
2026-01-05 15:30:13.23	311.28	21.67	-37.8	-38.8	21.2	0.00e+00	0	40	0	3423600640	45	4164
2026-01-05 15:30:14.38	311.50	21.56	-37.8	-38.7	21.2	0.00e+00	0	40	0	3431989248	45	4143
2026-01-05 15:30:15.23	311.66	21.48	-37.8	-38.7	21.2	0.00e+00	0	40	0	3438280704	45	4138
2026-01-05 15:30:16.37	311.88	21.37	-37.8	-38.7	21.2	0.00e+00	0	40	0	3446669312	45	4125
2026-01-05 15:30:17.23	312.04	21.29	-37.7	-38.6	21.3	0.00e+00	0	40	0	3451912192	45	4083
2026-01-05 15:30:18.37	312.25	21.18	-37.7	-38.6	21.3	0.00e+00	0	40	0	3460300800	45	4070
2026-01-05 15:30:19.23	312.41	21.10	-37.9	-38.8	21.2	0.00e+00	0	40	0	3466592256	45	4163
2026-01-05 15:30:20.37	312.62	20.99	-38.0	-38.9	21.0	0.00e+00	0	40	0	3474980864	45	4230
2026-01-05 15:30:21.23	312.78	20.91	-38.0	-38.9	21.0	0.00e+00	0	41	0	3481272320	45	4241
2026-01-05 15:30:22.37	312.99	20.80	-38.1	-39.0	21.0	0.00e+00	0	40	0	3489660928	45	4251
2026-01-05 15:30:23.23	313.14	20.71	-38.1	-39.0	20.9	0.00e+00	0	40	0	3495952384	45	4291
2026-01-05 15:30:24.37	313.35	20.61	-38.3	-39.2	20.8	0.00e+00	0	40	0	3504340992	46	4144
2026-01-05 15:30:25.23	313.50	20.52	-38.3	-39.3	20.8	0.00e+00	0	40	0	3509583872	46	4159
2026-01-05 15:30:26.50	313.72	20.40	-38.3	-39.3	20.7	0.00e+00	0	40	0	3519021056	46	4160
2026-01-05 15:30:27.22	313.85	20.34	-38.4	-39.3	20.7	0.00e+00	0	40	0	3524263936	46	4193
2026-01-05 15:30:28.75	314.12	20.19	-38.4	-39.3	20.7	0.00e+00	0	40	0	3535798272	46	4180
2026-01-05 15:30:29.46	314.24	20.12	-38.4	-39.3	20.7	0.00e+00	0	40	0	3539992576	46	4185
2026-01-05 15:30:30.75	314.46	20.00	-38.2	-39.2	20.8	0.00e+00	0	40	0	3549429760	46	4111
2026-01-05 15:30:31.47	314.59	19.93	-38.3	-39.2	20.8	0.00e+00	0	40	0	3554672640	46	4130
2026-01-05 15:30:32.76	314.81	19.81	-38.3	-39.2	20.8	0.00e+00	0	40	0	3564109824	46	4135
2026-01-05 15:30:33.47	314.93	19.74	-38.1	-39.0	20.9	0.00e+00	0	41	0	3569352704	46	4032
2026-01-05 15:30:34.95	315.18	19.60	-37.8	-38.8	21.1	0.00e+00	0	40	0	3579838464	46	3918
2026-01-05 15:30:35.67	315.30	19.54	-37.9	-38.8	21.1	0.00e+00	0	40	0	3585081344	46	3943
2026-01-05 15:30:36.96	315.51	19.42	-37.9	-38.9	21.1	0.00e+00	0	40	0	3594518528	46	3962
2026-01-05 15:30:37.67	315.63	19.35	-37.9	-38.8	21.1	0.00e+00	0	40	0	3599761408	46	3953
2026-01-05 15:30:38.96	315.84	19.23	-37.9	-38.8	21.1	0.00e+00	0	40	0	3609198592	46	3932
2026-01-05 15:30:39.68	315.96	19.16	-38.0	-38.9	21.0	0.00e+00	0	40	0	3614441472	46	3993
2026-01-05 15:30:40.96	316.17	19.04	-38.1	-39.0	20.9	0.00e+00	0	40	0	3623878656	46	4049
2026-01-05 15:30:41.68	316.28	18.97	-38.2	-39.1	20.8	0.00e+00	0	40	0	3629121536	46	4066
2026-01-05 15:30:42.97	316.49	18.85	-38.3	-39.3	20.7	0.00e+00	0	40	0	3637510144	46	4162
2026-01-05 15:30:43.76	316.62	18.78	-38.5	-39.4	20.5	0.00e+00	0	40	0	3643801600	46	4231
2026-01-05 15:30:44.90	316.80	18.68	-38.6	-39.6	20.4	0.00e+00	0	40	0	3652190208	46	4318
2026-01-05 15:30:46.01	316.97	18.57	-38.7	-39.7	20.3	0.00e+00	0	40	0	3659530240	46	4348
2026-01-05 15:30:47.04	317.14	18.48	-38.7	-39.7	20.3	0.00e+00	0	40	0	3667918848	47	4129
2026-01-05 15:30:48.04	317.29	18.38	-38.8	-39.8	20.2	0.00e+00	0	40	0	3674210304	47	4191
2026-01-05 15:30:49.25	317.48	18.27	-38.9	-39.9	20.2	0.00e+00	0	40	0	3683647488	47	4223
2026-01-05 15:30:50.15	317.62	18.19	-38.9	-39.9	20.1	0.00e+00	0	40	0	3689938944	47	4233
2026-01-05 15:30:51.15	317.77	18.10	-38.8	-39.8	20.2	0.00e+00	0	40	0	3697278976	47	4174
2026-01-05 15:30:52.15	317.92	18.01	-38.8	-39.8	20.2	0.00e+00	0	40	0	3704619008	47	4192
2026-01-05 15:30:53.15	318.07	17.92	-38.8	-39.8	20.2	0.00e+00	0	40	0	3711959040	47	4178
2026-01-05 15:30:54.45	318.27	17.80	-38.7	-39.7	20.2	0.00e+00	0	40	0	3720347648	47	4113
2026-01-05 15:30:55.23	318.38	17.73	-38.7	-39.7	20.4	0.00e+00	0	40	0	3726639104	47	4112
2026-01-05 15:30:56.52	318.58	17.61	-38.6	-39.6	20.5	0.00e+00	0	40	0	3736076288	47	4058
2026-01-05 15:30:57.23	318.68	17.54	-38.5	-39.5	20.5	0.00e+00	0	41	0	3741319168	47	4012
2026-01-05 15:30:58.52	318.87	17.43	-38.5	-39.4	20.5	0.00e+00	0	40	0	3750756352	47	4001
2026-01-05 15:30:59.24	318.97	17.36	-38.5	-39.4	20.6	0.00e+00	0	40	0	3755999232	47	4000
2026-01-05 15:31:00.52	319.16	17.25	-38.5	-39.5	20.5	0.00e+00	0	40	0	3764387840	47	4039
2026-01-05 15:31:01.24	319.26	17.18	-38.6	-39.6	20.4	0.00e+00	0	40	0	3769630720	47	4061
2026-01-05 15:31:02.52	319.45	17.07	-38.6	-39.6	20.4	0.00e+00	0	40	0	3779067904	47	4057
2026-01-05 15:31:03.24	319.55	17.00	-38.7	-39.7	20.3	0.00e+00	0	40	0	3784310784	47	4106
2026-01-05 15:31:04.52	319.73	16.89	-38.7	-39.7	20.3	0.00e+00	0	40	0	3793747968	47	4127
2026-01-05 15:31:05.24	319.83	16.82	-38.8	-39.8	20.2	0.00e+00	0	40	0	3798990848	47	4156
2026-01-05 15:31:06.52	320.01	16.71	-38.8	-39.8	20.2	0.00e+00	0	40	0	3808428032	47	4168
2026-01-05 15:31:07.24	320.11	16.64	-38.8	-39.8	20.1	0.00e+00	0	40	0	3813670912	47	4183
2026-01-05 15:31:08.65	320.31	16.52	-39.0	-40.0	20.0	0.00e+00	0	40	0	3823108096	47	4269
2026-01-05 15:31:09.37	320.40	16.45	-39.0	-40.1	19.9	0.00e+00	0	40	0	3828350976	47	4293
2026-01-05 15:31:10.76	320.59	16.33	-39.0	-40.0	20.0	0.00e+00	0	40	0	3838836736	47	4274
2026-01-05 15:31:11.47	320.69	16.27	-39.1	-40.1	19.9	0.00e+00	0	40	0	3844079616	47	4320
2026-01-05 15:31:12.82	320.87	16.15	-39.1	-40.2	19.9	0.00e+00	0	40	0	3853516800	47	4351
2026-01-05 15:31:13.54	320.97	16.08	-39.2	-40.3	19.8	0.00e+00	0	40	0	3858759680	47	4399
2026-01-05 15:31:14.82	321.14	15.97	-39.2	-40.2	19.8	0.00e+00	0	40	0	3868196864	47	4390
2026-01-05 15:31:15.54	321.24	15.91	-39.4	-40.5	19.8	0.00e+00	0	40	0	3873439744	48	4257
2026-01-05 15:31:16.83	321.41	15.80	-39.4	-40.4	19.9	0.00e+00	0	40	0	3882876928	48	4227
2026-01-05 15:31:17.54	321.50	15.73	-39.3	-40.4	19.9	0.00e+00	0	40	0	3887071232	48	4196
2026-01-05 15:31:19.07	321.70	15.60	-39.2	-40.2	20.0	0.00e+00	0	40	0	3898605568	48	4145
2026-01-05 15:31:19.78	321.79	15.54	-39.2	-40.2	20.1	0.00e+00	0	40	0	3903848448	48	4133
2026-01-05 15:31:21.14	321.97	15.42	-39.1	-40.1	20.2	0.00e+00	0	40	0	3913285632	48	4061
2026-01-05 15:31:21.85	322.06	15.36	-39.1	-40.1	20.2	0.00e+00	0	40	0	3918528512	48	4080
2026-01-05 15:31:23.14	322.22	15.25	-39.0	-40.0	20.2	0.00e+00	0	40	0	3927965696	48	4047
2026-01-05 15:31:23.85	322.31	15.19	-39.0	-40.0	20.2	0.00e+00	0	40	0	3933208576	48	4026
2026-01-05 15:31:25.29	322.49	15.06	-39.0	-40.0	20.2	0.00e+00	0	40	0	3943694336	48	4043
2026-01-05 15:31:26.00	322.58	15.00	-39.1	-40.0	20.2	0.00e+00	0	40	0	3948937216	48	4046
2026-01-05 15:31:27.29	322.74	14.89	-39.1	-40.0	20.2	0.00e+00	0	40	0	3958374400	48	4042
2026-01-05 15:31:28.00	322.83	14.83	-39.0	-39.9	20.3	0.00e+00	0	40	0	3962568704	48	3984
2026-01-05 15:31:29.29	322.99	14.72	-39.2	-40.1	20.1	0.00e+00	0	40	0	3972005888	48	4087
2026-01-05 15:31:30.01	323.08	14.66	-39.1	-40.1	20.2	0.00e+00	0	40	0	3977248768	48	4054
2026-01-05 15:31:31.30	323.23	14.55	-39.1	-40.1	20.2	0.00e+00	0	41	0	3986685952	48	4065
2026-01-05 15:31:32.01	323.32	14.49	-39.2	-40.2	20.1	0.00e+00	0	40	0	3991928832	48	4121
2026-01-05 15:31:33.30	323.47	14.38	-39.2	-40.2	20.1	0.00e+00	0	40	0	4001366016	48	4128
2026-01-05 15:31:34.02	323.56	14.32	-39.3	-40.2	20.0	0.00e+00	0	40	0	4006608896	48	4144
2026-01-05 15:31:35.30	323.71	14.21	-39.4	-40.4	19.8	0.00e+00	0	40	0	4016046080	48	4231
2026-01-05 15:31:36.02	323.80	14.15	-39.4	-40.5	19.8	0.00e+00	0	41	0	4021288960	48	4255
2026-01-05 15:31:37.31	323.95	14.04	-39.5	-40.5	19.7	0.00e+00	0	40	0	4029677568	48	4290
2026-01-05 15:31:38.02	324.03	13.98	-39.6	-40.7	19.6	0.00e+00	0	40	0	4035969024	48	4356
2026-01-05 15:31:39.31	324.18	13.87	-39.6	-40.6	19.6	0.00e+00	0	40	0	4044357632	48	4335
2026-01-05 15:31:40.03	324.27	13.81	-39.7	-40.8	19.5	0.00e+00	0	40	0	4049600512	48	4400
2026-01-05 15:31:41.31	324.41	13.71	-39.6	-40.7	19.6	0.00e+00	0	40	0	4059037696	48	4376
2026-01-05 15:31:42.03	324.50	13.65	-39.6	-40.8	19.5	0.00e+00	0	40	0	4064280576	48	4392
2026-01-05 15:31:43.59	324.67	13.52	-39.6	-40.7	19.6	0.00e+00	0	40	0	4075814912	48	4349
2026-01-05 15:31:44.30	324.75	13.46	-39.5	-40.6	19.6	0.00e+00	0	40	0	4081057792	48	4330
2026-01-05 15:31:45.65	324.91	13.35	-39.6	-40.7	19.5	0.00e+00	0	40	0	4090494976	48	4389
2026-01-05 15:31:46.37	324.99	13.29	-39.6	-40.7	19.5	0.00e+00	0	40	0	4095737856	48	4377
2026-01-05 15:31:47.65	325.13	13.18	-39.4	-40.5	19.7	0.00e+00	0	40	0	4105175040	48	4284
2026-01-05 15:31:48.37	325.21	13.13	-39.5	-40.7	19.5	0.00e+00	0	40	0	4110417920	48	4366
2026-01-05 15:31:49.66	325.35	13.02	-39.4	-40.6	19.6	0.00e+00	0	40	0	4118806528	48	4315
2026-01-05 15:31:50.37	325.43	12.96	-39.6	-40.8	19.5	0.00e+00	0	40	0	4125097984	48	4398
2026-01-05 15:31:51.66	325.57	12.86	-39.6	-40.7	19.5	0.00e+00	0	40	0	4133486592	48	4390
2026-01-05 15:31:52.37	325.65	12.80	-39.7	-40.8	19.4	0.00e+00	0	40	0	4138729472	48	4441
2026-01-05 15:31:53.66	325.79	12.70	-39.6	-40.8	19.5	0.00e+00	0	40	0	4148166656	48	4403
2026-01-05 15:31:54.38	325.86	12.64	-39.8	-41.0	19.3	0.00e+00	0	40	0	4153409536	49	4248
2026-01-05 15:31:55.67	326.00	12.53	-39.8	-41.0	19.2	0.00e+00	0	41	0	4162846720	49	4261
2026-01-05 15:31:56.49	326.09	12.47	-40.0	-41.1	19.1	0.00e+00	0	40	0	4169138176	49	4325
2026-01-05 15:31:57.64	326.21	12.38	-40.0	-41.2	19.1	0.00e+00	0	40	0	4177526784	49	4359
2026-01-05 15:31:58.49	326.30	12.31	-40.0	-41.1	19.1	0.00e+00	0	40	0	4182769664	49	4339
2026-01-05 15:31:59.64	326.42	12.22	-40.1	-41.3	19.0	0.00e+00	0	40	0	4191158272	49	4416
2026-01-05 15:32:00.49	326.51	12.15	-40.2	-41.3	18.9	0.00e+00	0	40	0	4197449728	49	4427
2026-01-05 15:32:01.64	326.63	12.06	-40.1	-41.2	19.0	0.00e+00	0	40	0	4205838336	49	4389
2026-01-05 15:32:02.50	326.71	11.99	-40.2	-41.3	18.9	0.00e+00	0	40	0	4212129792	49	4412
2026-01-05 15:32:03.64	326.83	11.90	-40.2	-41.4	18.9	0.00e+00	0	40	0	4220518400	49	4447
2026-01-05 15:32:04.49	326.92	11.83	-40.2	-41.3	18.9	0.00e+00	0	40	0	4226809856	49	4427
2026-01-05 15:32:05.64	327.03	11.74	-40.1	-41.2	19.1	0.00e+00	0	40	0	4235198464	49	4357
2026-01-05 15:32:06.50	327.12	11.67	-40.1	-41.2	19.0	0.00e+00	0	40	0	4240441344	49	4368
2026-01-05 15:32:07.64	327.24	11.58	-40.0	-41.1	19.1	0.00e+00	0	40	0	4248829952	49	4316
2026-01-05 15:32:08.50	327.32	11.52	-40.1	-41.2	19.0	0.00e+00	0	40	0	4255121408	49	4360
2026-01-05 15:32:09.64	327.43	11.43	-40.1	-41.2	19.0	0.00e+00	0	40	0	4263510016	49	4351
2026-01-05 15:32:10.50	327.52	11.36	-39.9	-41.0	19.2	0.00e+00	0	41	0	4269801472	49	4267
2026-01-05 15:32:11.65	327.63	11.27	-40.0	-41.1	19.1	0.00e+00	0	41	0	4278190080	49	4310
2026-01-05 15:32:12.51	327.72	11.20	-40.0	-41.1	19.1	0.00e+00	0	40	0	4284481536	49	4299
2026-01-05 15:32:13.65	327.83	11.12	-40.0	-41.0	19.2	0.00e+00	0	40	0	4292870144	49	4280
2026-01-05 15:32:14.51	327.91	11.05	-40.0	-41.1	19.1	0.00e+00	0	40	0	4299161600	49	4317
2026-01-05 15:32:15.65	328.02	10.96	-40.1	-41.2	19.0	0.00e+00	0	40	0	4306501632	49	4347
2026-01-05 15:32:16.51	328.10	10.90	-40.0	-41.1	19.1	0.00e+00	0	40	0	4312793088	49	4321
2026-01-05 15:32:17.65	328.21	10.81	-40.1	-41.2	19.0	0.00e+00	0	40	0	4321181696	49	4371
2026-01-05 15:32:18.51	328.29	10.74	-40.1	-41.2	18.9	0.00e+00	0	40	0	4327473152	49	4378
2026-01-05 15:32:19.66	328.40	10.65	-40.3	-41.4	18.8	0.00e+00	0	40	0	4335861760	50	4232
2026-01-05 15:32:20.51	328.48	10.59	-40.3	-41.4	18.8	0.00e+00	0	40	0	4342153216	50	4205
2026-01-05 15:32:21.86	328.61	10.49	-40.5	-41.6	18.5	0.00e+00	0	40	0	4351590400	50	4339
2026-01-05 15:32:22.58	328.67	10.43	-40.4	-41.5	18.5	0.00e+00	0	40	0	4356833280	50	4282
2026-01-05 15:32:24.07	328.81	10.32	-40.3	-41.5	18.7	0.00e+00	0	40	0	4368367616	50	4245
2026-01-05 15:32:24.79	328.88	10.27	-40.5	-41.6	18.6	0.00e+00	0	40	0	4372561920	50	4320
2026-01-05 15:32:26.14	329.00	10.16	-40.6	-41.7	18.5	0.00e+00	0	40	0	4383047680	50	4361
2026-01-05 15:32:26.86	329.07	10.11	-40.6	-41.7	18.5	0.00e+00	0	40	0	4388290560	50	4369
2026-01-05 15:32:28.14	329.18	10.01	-40.6	-41.8	18.4	0.00e+00	0	40	0	4396679168	50	4405
2026-01-05 15:32:28.86	329.25	9.96	-40.7	-41.9	18.3	0.00e+00	0	40	0	4401922048	50	4451
2026-01-05 15:32:30.26	329.37	9.86	-40.7	-41.9	18.3	0.00e+00	0	40	0	4412407808	50	4460
2026-01-05 15:32:30.97	329.44	9.80	-40.7	-41.9	18.3	0.00e+00	0	40	0	4417650688	51	4205
2026-01-05 15:32:32.33	329.56	9.70	-40.8	-41.9	18.2	0.00e+00	0	40	0	4427087872	51	4242
2026-01-05 15:32:33.05	329.62	9.65	-40.8	-42.0	18.2	0.00e+00	0	40	0	4432330752	51	4247
2026-01-05 15:32:34.34	329.74	9.55	-40.8	-42.0	18.2	0.00e+00	0	40	0	4441767936	51	4246
2026-01-05 15:32:35.05	329.80	9.50	-40.7	-41.9	18.3	0.00e+00	0	40	0	4447010816	51	4213
2026-01-05 15:32:36.34	329.91	9.41	-40.8	-42.0	18.2	0.00e+00	0	40	0	4456448000	51	4251
2026-01-05 15:32:37.06	329.97	9.35	-40.8	-42.0	18.1	0.00e+00	0	40	0	4461690880	51	4269
2026-01-05 15:32:38.34	330.08	9.26	-40.8	-42.0	18.2	0.00e+00	0	40	0	4471128064	51	4265
2026-01-05 15:32:39.06	330.14	9.21	-40.9	-42.1	18.1	0.00e+00	0	40	0	4476370944	51	4304
2026-01-05 15:32:40.35	330.25	9.11	-40.8	-42.0	18.1	0.00e+00	0	40	0	4484759552	51	4278
2026-01-05 15:32:41.06	330.32	9.06	-40.8	-41.9	18.2	0.00e+00	0	40	0	4490002432	51	4241
2026-01-05 15:32:42.35	330.42	8.97	-50.3	-61.1	3.8	7.55e-01	0	40	104	4496293888	70	12958
2026-01-05 15:32:43.31	330.51	8.90	-49.8	-61.7	3.8	8.47e-01	0	40	104	4496293888	70	13823
2026-01-05 15:32:44.31	330.59	8.83	-49.8	-61.9	3.8	8.47e-01	0	40	104	4496293888	69	14969
2026-01-05 15:32:45.32	330.67	8.75	-50.4	-62.0	3.8	8.47e-01	0	40	104	4496293888	71	13501
2026-01-05 15:32:46.32	330.76	8.68	-50.1	-62.0	3.8	8.48e-01	0	40	104	4496293888	70	14324
2026-01-05 15:32:47.32	330.84	8.61	-50.9	-62.1	3.8	8.47e-01	0	40	104	4496293888	71	13606
2026-01-05 15:32:48.32	330.92	8.54	-51.0	-62.1	3.8	8.46e-01	0	40	104	4496293888	71	13690
2026-01-05 15:32:49.32	331.00	8.47	-50.1	-62.1	3.8	8.47e-01	0	40	104	4496293888	70	14525
2026-01-05 15:32:50.37	331.09	8.39	-51.1	-62.2	3.8	8.47e-01	0	40	104	4496293888	72	12970
2026-01-05 15:32:51.33	331.17	8.33	-51.2	-62.1	3.8	8.48e-01	0	40	104	4496293888	72	12957
2026-01-05 15:32:52.46	331.26	8.25	-51.3	-62.2	3.8	8.47e-01	0	40	104	4496293888	72	13003
2026-01-05 15:32:53.35	331.33	8.18	-51.3	-62.3	3.8	8.46e-01	0	40	104	4496293888	72	13133
2026-01-05 15:32:54.65	331.43	8.09	-51.4	-62.2	3.8	8.46e-01	0	40	104	4496293888	72	13070
2026-01-05 15:32:55.37	331.49	8.04	-51.3	-62.2	3.8	8.48e-01	0	40	104	4496293888	72	13029
2026-01-05 15:32:56.66	331.59	7.95	-51.5	-62.2	3.8	8.47e-01	0	40	104	4496293888	72	13031
2026-01-05 15:32:57.37	331.65	7.90	-51.4	-62.2	3.8	8.47e-01	0	40	104	4496293888	72	12978
2026-01-05 15:32:58.66	331.75	7.81	-51.5	-62.2	3.8	8.46e-01	0	40	104	4496293888	72	12968
2026-01-05 15:32:59.38	331.81	7.76	-51.4	-62.2	3.8	8.48e-01	0	40	104	4496293888	72	13063
2026-01-05 15:33:00.67	331.91	7.67	-51.4	-62.2	3.8	8.47e-01	0	40	104	4496293888	72	13020
2026-01-05 15:33:01.38	331.96	7.62	-51.4	-62.1	3.8	8.47e-01	0	40	104	4496293888	72	12936
2026-01-05 15:33:02.67	332.06	7.53	-51.4	-62.1	3.8	8.46e-01	0	40	104	4496293888	72	12944
2026-01-05 15:33:03.39	332.12	7.48	-51.3	-62.1	3.8	8.47e-01	0	40	104	4496293888	72	12910
2026-01-05 15:33:04.68	332.22	7.39	-51.1	-62.1	3.8	8.46e-01	0	40	104	4496293888	72	12929
2026-01-05 15:33:05.40	332.27	7.34	-51.1	-62.1	3.8	8.47e-01	0	40	104	4496293888	72	12908
2026-01-05 15:33:06.68	332.37	7.25	-51.1	-62.1	3.8	8.47e-01	0	40	104	4496293888	72	12828
2026-01-05 15:33:07.40	332.42	7.20	-51.0	-62.1	3.8	8.47e-01	0	40	104	4496293888	72	12907
2026-01-05 15:33:08.82	332.53	7.11	-51.1	-62.1	3.8	8.47e-01	0	40	104	4496293888	72	12818
2026-01-05 15:33:09.54	332.58	7.06	-51.0	-62.1	3.8	8.46e-01	0	40	104	4496293888	72	12927
2026-01-05 15:33:10.83	332.68	6.97	-51.0	-62.2	3.8	8.48e-01	0	40	104	4496293888	72	12990
2026-01-05 15:33:11.54	332.73	6.92	-51.0	-62.1	3.8	8.47e-01	0	40	104	4496293888	72	12811
2026-01-05 15:33:12.84	332.83	6.83	-51.0	-62.1	3.8	8.47e-01	0	40	104	4496293888	72	12907
2026-01-05 15:33:13.55	332.88	6.78	-51.0	-62.1	3.8	8.48e-01	0	40	104	4496293888	72	12899
2026-01-05 15:33:14.84	332.97	6.70	-51.0	-62.1	3.8	8.46e-01	0	40	104	4496293888	72	12891
2026-01-05 15:33:15.56	333.02	6.65	-51.0	-62.0	3.8	8.48e-01	0	41	104	4496293888	72	12775
2026-01-05 15:33:16.85	333.12	6.56	-51.0	-62.1	3.8	8.46e-01	0	40	104	4496293888	72	12852
2026-01-05 15:33:17.57	333.17	6.51	-51.0	-62.1	3.8	8.48e-01	0	40	104	4496293888	72	12917
2026-01-05 15:33:19.21	333.29	6.40	-51.0	-62.1	3.8	8.46e-01	0	40	104	4496293888	72	12852
2026-01-05 15:33:20.07	333.35	6.35	-51.0	-62.1	3.8	8.47e-01	0	41	104	4496293888	72	12933
2026-01-05 15:33:21.67	333.46	6.24	-51.0	-62.1	3.8	8.45e-01	0	40	104	4496293888	72	12866
2026-01-05 15:33:22.24	333.50	6.20	-51.0	-62.1	3.8	8.46e-01	0	40	104	4496293888	72	12824
2026-01-05 15:33:23.82	333.61	6.10	-51.0	-62.1	3.8	8.47e-01	0	40	104	4496293888	72	12881
2026-01-05 15:33:24.42	333.66	6.06	-51.0	-62.1	3.8	8.46e-01	0	40	104	4496293888	72	12863
2026-01-05 15:33:26.00	333.77	5.95	-51.0	-62.2	3.8	8.46e-01	0	40	104	4496293888	72	12961
2026-01-05 15:33:26.57	333.81	5.91	-51.0	-62.0	3.8	8.47e-01	0	40	104	4496293888	72	12796
2026-01-05 15:33:28.15	333.91	5.81	-51.0	-62.1	3.8	8.47e-01	0	40	104	4496293888	72	12934
2026-01-05 15:33:28.74	333.96	5.77	-51.0	-62.1	3.8	8.47e-01	0	40	104	4496293888	72	12867
2026-01-05 15:33:30.32	334.06	5.67	-51.0	-62.1	3.8	8.46e-01	0	40	104	4496293888	72	12860
