passes_logs/2026/01/05/T1/T1__20260105_123857_SUOMI_NPP_rec.log

#Pass ID: 20260105_123857_SUOMI NPP
#Satellite: SUOMI NPP
#Configuration: NPP
#almurnet v.1.7.20251203
#Start time: 2026-01-05 12:38:58

#Version: 2.0.20230620
#Station: T1
#Location: 37.570604 lon 55.790049 lat
#TLE: 1 37849U 11061A   26003.96724563  .00000164  00000+0  98899-4 0  9990
#TLE: 2 37849  98.7800 306.1116 0002573  82.3190 277.8279 14.19522066735141

#Time	Az	El	Level	Level2	SNR	BER	BlckErr	Temp	State	Recorded	gain1	gain2
2026-01-05 12:38:58.73	259.91	5.04	-50.6	-66.1	3.8	1.49e+00	0	36	0	0	71	23129
2026-01-05 12:38:59.73	260.05	5.07	-50.6	-66.1	3.8	1.49e+00	0	37	104	0	73	20539
2026-01-05 12:39:00.73	260.19	5.10	-50.6	-66.0	3.8	1.49e+00	0	37	104	0	73	20521
2026-01-05 12:39:01.73	260.34	5.12	-50.6	-66.1	3.8	1.49e+00	0	36	104	0	73	20616
2026-01-05 12:39:02.74	260.48	5.15	-50.6	-66.0	3.8	1.49e+00	0	37	104	0	73	20528
2026-01-05 12:39:03.74	260.62	5.18	-50.6	-66.1	3.8	1.49e+00	0	37	104	0	73	20597
2026-01-05 12:39:04.75	260.77	5.20	-50.6	-66.0	3.8	1.49e+00	0	37	104	0	73	20518
2026-01-05 12:39:05.75	260.91	5.23	-50.6	-66.0	3.8	1.49e+00	0	37	104	0	73	20502
2026-01-05 12:39:06.75	261.05	5.25	-50.6	-66.1	3.8	1.49e+00	0	37	104	0	73	20555
2026-01-05 12:39:07.76	261.20	5.28	-50.6	-66.0	3.8	1.49e+00	0	37	104	0	73	20529
2026-01-05 12:39:08.76	261.34	5.30	-50.6	-66.1	3.8	1.49e+00	0	37	104	0	73	20577
2026-01-05 12:39:09.76	261.48	5.33	-50.6	-66.0	3.8	1.49e+00	0	37	104	0	73	20504
2026-01-05 12:39:10.77	261.63	5.35	-50.6	-66.1	3.8	1.49e+00	0	37	104	0	73	20593
2026-01-05 12:39:11.77	261.77	5.38	-50.6	-66.0	3.8	1.49e+00	0	37	104	0	73	20523
2026-01-05 12:39:12.77	261.92	5.40	-50.6	-66.0	3.8	1.49e+00	0	37	104	0	73	20508
2026-01-05 12:39:13.78	262.07	5.43	-50.6	-66.1	3.8	1.49e+00	0	37	104	0	73	20555
2026-01-05 12:39:14.78	262.21	5.45	-50.6	-66.1	3.8	1.49e+00	0	37	104	0	73	20577
2026-01-05 12:39:15.79	262.36	5.48	-50.6	-66.1	3.8	1.49e+00	0	37	104	0	73	20540
2026-01-05 12:39:16.79	262.50	5.50	-50.6	-66.0	3.8	1.49e+00	0	37	104	0	73	20516
2026-01-05 12:39:17.80	262.65	5.53	-50.5	-66.0	3.8	1.49e+00	0	37	104	0	73	20527
2026-01-05 12:39:18.80	262.80	5.55	-50.6	-66.0	3.8	1.49e+00	0	37	104	0	73	20458
2026-01-05 12:39:19.80	262.94	5.58	-50.6	-66.0	3.8	1.49e+00	0	37	104	0	73	20498
2026-01-05 12:39:20.81	263.09	5.60	-50.6	-66.0	3.8	1.49e+00	0	37	104	0	73	20492
2026-01-05 12:39:21.81	263.24	5.62	-50.6	-66.0	3.8	1.49e+00	0	37	104	0	73	20437
2026-01-05 12:39:22.81	263.38	5.65	-50.6	-66.0	3.8	1.49e+00	0	37	104	0	73	20483
2026-01-05 12:39:23.82	263.53	5.67	-50.6	-66.1	3.8	1.49e+00	0	38	104	0	73	20545
2026-01-05 12:39:24.82	263.68	5.69	-50.6	-66.0	3.8	1.49e+00	0	37	104	0	73	20467
2026-01-05 12:39:25.82	263.83	5.72	-50.6	-66.0	3.8	1.49e+00	0	38	104	0	73	20448
2026-01-05 12:39:26.83	263.98	5.74	-50.6	-66.0	3.8	1.49e+00	0	37	104	0	73	20476
2026-01-05 12:39:27.83	264.13	5.76	-50.6	-66.1	3.8	1.49e+00	0	37	104	0	73	20565
2026-01-05 12:39:28.84	264.28	5.79	-50.6	-66.0	3.8	1.49e+00	0	38	104	0	73	20499
2026-01-05 12:39:29.84	264.42	5.81	-50.6	-66.0	3.8	1.49e+00	0	38	104	0	73	20426
2026-01-05 12:39:30.84	264.57	5.83	-50.6	-66.0	3.8	1.49e+00	0	38	104	0	73	20511
2026-01-05 12:39:31.85	264.72	5.85	-50.6	-66.0	3.8	1.49e+00	0	38	104	0	73	20511
2026-01-05 12:39:32.85	264.87	5.87	-50.6	-66.0	3.8	1.49e+00	0	38	104	0	73	20447
2026-01-05 12:39:33.85	265.02	5.90	-50.6	-66.0	3.8	1.49e+00	0	38	104	0	73	20413
2026-01-05 12:39:34.86	265.17	5.92	-50.6	-66.0	3.8	1.49e+00	0	38	104	0	73	20452
2026-01-05 12:39:35.86	265.32	5.94	-50.6	-66.1	3.8	1.49e+00	0	38	104	0	73	20572
2026-01-05 12:39:36.86	265.47	5.96	-50.6	-66.1	3.8	1.49e+00	0	38	104	0	73	20591
2026-01-05 12:39:37.87	265.62	5.98	-50.6	-66.0	3.8	1.49e+00	0	38	104	0	73	20486
2026-01-05 12:39:38.87	265.78	6.00	-50.6	-66.0	3.8	1.49e+00	0	38	104	0	73	20494
2026-01-05 12:39:39.88	265.93	6.03	-50.6	-66.1	3.8	1.49e+00	0	38	104	0	73	20560
2026-01-05 12:39:40.88	266.08	6.05	-50.6	-66.0	3.8	1.49e+00	0	38	104	0	73	20448
2026-01-05 12:39:41.89	266.23	6.07	-50.6	-66.0	3.8	1.49e+00	0	38	104	0	73	20485
2026-01-05 12:39:42.89	266.38	6.09	-50.6	-66.0	3.8	1.49e+00	0	38	104	0	73	20493
2026-01-05 12:39:43.90	266.54	6.11	-50.6	-66.0	3.8	1.49e+00	0	38	104	0	73	20467
2026-01-05 12:39:44.90	266.69	6.13	-50.6	-66.1	3.8	1.49e+00	0	38	104	0	73	20543
2026-01-05 12:39:45.90	266.84	6.15	-50.6	-66.0	3.8	1.49e+00	0	38	104	0	73	20478
2026-01-05 12:39:46.91	266.99	6.17	-50.6	-66.0	3.8	1.49e+00	0	38	104	0	73	20451
2026-01-05 12:39:47.91	267.14	6.19	-50.6	-66.0	3.8	1.49e+00	0	38	104	0	73	20437
2026-01-05 12:39:48.92	267.30	6.21	-50.6	-66.0	3.8	1.49e+00	0	38	104	0	73	20472
2026-01-05 12:39:49.92	267.45	6.23	-50.6	-66.0	3.8	1.49e+00	0	38	104	0	73	20476
2026-01-05 12:39:50.93	267.61	6.25	-50.6	-66.1	3.8	1.49e+00	0	38	104	0	73	20587
2026-01-05 12:39:51.93	267.76	6.27	-50.6	-66.0	3.8	1.49e+00	0	38	104	0	73	20474
2026-01-05 12:39:52.94	267.91	6.29	-50.6	-66.1	3.8	1.49e+00	0	38	104	0	73	20572
2026-01-05 12:39:53.94	268.07	6.31	-50.6	-66.0	3.8	1.49e+00	0	38	104	0	73	20442
2026-01-05 12:39:54.94	268.22	6.32	-50.6	-66.0	3.8	1.49e+00	0	38	104	0	73	20481
2026-01-05 12:39:55.95	268.38	6.34	-50.6	-66.0	3.8	1.49e+00	0	38	104	0	73	20398
2026-01-05 12:39:56.95	268.53	6.36	-50.6	-66.0	3.8	1.49e+00	0	38	104	0	73	20468
2026-01-05 12:39:57.96	268.69	6.38	-50.6	-66.0	3.8	1.49e+00	0	38	104	0	73	20507
2026-01-05 12:39:58.96	268.84	6.40	-50.6	-66.1	3.8	1.49e+00	0	38	104	0	73	20539
2026-01-05 12:39:59.97	269.00	6.42	-50.6	-66.0	3.8	1.49e+00	0	38	104	0	73	20520
2026-01-05 12:40:00.97	269.15	6.43	-50.6	-66.0	3.8	1.49e+00	0	38	104	0	73	20504
2026-01-05 12:40:01.98	269.31	6.45	-50.5	-66.0	3.8	1.49e+00	0	38	104	0	73	20492
2026-01-05 12:40:02.98	269.46	6.47	-50.6	-66.1	3.8	1.49e+00	0	38	104	0	73	20549
2026-01-05 12:40:03.98	269.62	6.49	-50.6	-66.0	3.8	1.49e+00	0	38	104	0	73	20463
2026-01-05 12:40:04.99	269.78	6.50	-50.6	-66.0	3.8	1.49e+00	0	38	104	0	73	20503
2026-01-05 12:40:05.99	269.93	6.52	-50.5	-66.0	3.8	1.49e+00	0	38	104	0	73	20514
2026-01-05 12:40:06.99	270.09	6.54	-50.6	-66.0	3.8	1.49e+00	0	39	104	0	73	20464
2026-01-05 12:40:08.00	270.24	6.55	-50.6	-66.1	3.8	1.49e+00	0	38	104	0	73	20548
2026-01-05 12:40:09.00	270.40	6.57	-50.6	-66.0	3.8	1.49e+00	0	38	104	0	73	20518
2026-01-05 12:40:10.00	270.56	6.59	-50.6	-66.0	3.8	1.49e+00	0	39	104	0	73	20450
2026-01-05 12:40:11.01	270.72	6.60	-50.6	-66.0	3.8	1.49e+00	0	38	104	0	73	20500
2026-01-05 12:40:12.01	270.87	6.62	-50.6	-66.1	3.8	1.49e+00	0	39	104	0	73	20541
2026-01-05 12:40:13.02	271.03	6.63	-50.6	-66.0	3.8	1.49e+00	0	39	104	0	73	20430
2026-01-05 12:40:14.02	271.19	6.65	-50.6	-66.0	3.8	1.49e+00	0	39	104	0	73	20525
2026-01-05 12:40:15.03	271.35	6.67	-50.6	-66.0	3.8	1.49e+00	0	39	104	0	73	20502
2026-01-05 12:40:16.03	271.50	6.68	-50.6	-66.0	3.8	1.49e+00	0	38	104	0	73	20459
2026-01-05 12:40:17.04	271.66	6.70	-50.6	-66.1	3.8	1.49e+00	0	39	104	0	73	20588
2026-01-05 12:40:18.04	271.82	6.71	-50.6	-66.1	3.8	1.49e+00	0	38	104	0	73	20571
2026-01-05 12:40:19.04	271.98	6.73	-50.5	-66.0	3.8	1.49e+00	0	38	104	0	73	20455
2026-01-05 12:40:20.05	272.14	6.74	-50.6	-66.0	3.8	1.49e+00	0	39	104	0	73	20468
2026-01-05 12:40:21.05	272.30	6.75	-50.6	-66.1	3.8	1.49e+00	0	38	104	0	73	20565
2026-01-05 12:40:22.05	272.45	6.77	-50.6	-66.0	3.8	1.49e+00	0	39	104	0	73	20474
2026-01-05 12:40:23.06	272.61	6.78	-50.6	-66.0	3.8	1.49e+00	0	39	104	0	73	20513
2026-01-05 12:40:24.06	272.77	6.80	-50.6	-66.0	3.8	1.49e+00	0	39	104	0	73	20484
2026-01-05 12:40:25.07	272.93	6.81	-50.5	-66.1	3.8	1.49e+00	0	39	104	0	73	20543
2026-01-05 12:40:26.07	273.09	6.82	-50.6	-66.0	3.8	1.49e+00	0	39	104	0	73	20498
2026-01-05 12:40:27.07	273.25	6.84	-50.6	-66.0	3.8	1.49e+00	0	39	104	0	73	20497
2026-01-05 12:40:28.08	273.41	6.85	-50.6	-66.0	3.8	1.49e+00	0	39	104	0	73	20460
2026-01-05 12:40:29.08	273.57	6.86	-50.6	-66.0	3.8	1.49e+00	0	39	104	0	73	20468
2026-01-05 12:40:30.09	273.73	6.88	-50.6	-66.0	3.8	1.49e+00	0	39	104	0	73	20503
2026-01-05 12:40:31.09	273.89	6.89	-50.6	-66.0	3.8	1.49e+00	0	39	104	0	73	20466
2026-01-05 12:40:32.10	274.05	6.90	-50.5	-66.0	3.8	1.49e+00	0	39	104	0	73	20517
2026-01-05 12:40:33.10	274.21	6.91	-50.5	-66.0	3.8	1.49e+00	0	39	104	0	73	20429
2026-01-05 12:40:34.11	274.37	6.93	-50.6	-66.0	3.8	1.49e+00	0	39	104	0	73	20428
2026-01-05 12:40:35.11	274.53	6.94	-50.5	-66.0	3.8	1.49e+00	0	39	104	0	73	20481
2026-01-05 12:40:36.11	274.69	6.95	-50.5	-66.0	3.8	1.49e+00	0	39	104	0	73	20499
2026-01-05 12:40:37.12	274.86	6.96	-50.6	-66.0	3.8	1.49e+00	0	39	104	0	73	20487
2026-01-05 12:40:38.12	275.02	6.97	-50.6	-66.1	3.8	1.49e+00	0	39	104	0	73	20543
2026-01-05 12:40:39.12	275.18	6.98	-50.5	-66.0	3.8	1.49e+00	0	39	104	0	73	20470
2026-01-05 12:40:40.13	275.34	6.99	-50.6	-66.0	3.8	1.49e+00	0	39	104	0	73	20506
2026-01-05 12:40:41.13	275.50	7.00	-50.6	-66.0	3.8	1.49e+00	0	39	104	0	73	20424
2026-01-05 12:40:42.14	275.66	7.01	-50.6	-66.0	3.8	1.49e+00	0	39	104	0	73	20473
2026-01-05 12:40:43.14	275.82	7.03	-50.5	-66.0	3.8	1.49e+00	0	39	104	0	73	20437
2026-01-05 12:40:44.15	275.98	7.04	-50.5	-66.0	3.8	1.49e+00	0	39	104	0	73	20438
2026-01-05 12:40:45.15	276.15	7.05	-50.5	-66.0	3.8	1.49e+00	0	39	104	0	73	20489
2026-01-05 12:40:46.16	276.31	7.06	-50.6	-66.0	3.8	1.49e+00	0	39	104	0	73	20468
2026-01-05 12:40:47.16	276.47	7.06	-50.6	-66.0	3.8	1.49e+00	0	39	104	0	73	20420
2026-01-05 12:40:48.16	276.63	7.07	-50.6	-66.0	3.8	1.49e+00	0	39	104	0	73	20481
2026-01-05 12:40:49.17	276.79	7.08	-50.5	-66.0	3.8	1.49e+00	0	39	104	0	73	20489
2026-01-05 12:40:50.17	276.96	7.09	-50.6	-66.0	3.8	1.49e+00	0	39	104	0	73	20467
2026-01-05 12:40:51.18	277.12	7.10	-50.6	-66.0	3.8	1.49e+00	0	39	104	0	73	20408
2026-01-05 12:40:52.18	277.28	7.11	-50.6	-66.0	3.8	1.49e+00	0	39	104	0	73	20396
2026-01-05 12:40:53.19	277.44	7.12	-50.6	-66.0	3.8	1.49e+00	0	39	104	0	73	20448
2026-01-05 12:40:54.19	277.61	7.13	-50.6	-66.0	3.8	1.49e+00	0	39	104	0	73	20418
2026-01-05 12:40:55.19	277.77	7.13	-50.5	-66.0	3.8	1.49e+00	0	39	104	0	73	20500
2026-01-05 12:40:56.20	277.93	7.14	-50.6	-66.0	3.8	1.49e+00	0	39	104	0	73	20497
2026-01-05 12:40:57.20	278.10	7.15	-50.6	-66.0	3.8	1.49e+00	0	39	104	0	73	20534
2026-01-05 12:40:58.21	278.26	7.16	-50.6	-66.0	3.8	1.49e+00	0	39	104	0	73	20477
2026-01-05 12:40:59.21	278.42	7.16	-50.6	-66.0	3.8	1.49e+00	0	39	104	0	73	20501
2026-01-05 12:41:00.21	278.58	7.17	-50.6	-66.1	3.8	1.49e+00	0	39	104	0	73	20567
2026-01-05 12:41:01.22	278.75	7.18	-50.6	-66.0	3.8	1.49e+00	0	39	104	0	73	20471
2026-01-05 12:41:02.23	278.91	7.19	-50.6	-66.0	3.8	1.49e+00	0	39	104	0	73	20479
2026-01-05 12:41:03.23	279.07	7.19	-50.6	-66.0	3.8	1.49e+00	0	39	104	0	73	20500
2026-01-05 12:41:04.23	279.24	7.20	-50.6	-66.0	3.8	1.49e+00	0	39	104	0	73	20465
2026-01-05 12:41:05.24	279.40	7.20	-50.6	-66.1	3.8	1.49e+00	0	39	104	0	73	20583
2026-01-05 12:41:06.24	279.56	7.21	-50.6	-66.0	3.8	1.49e+00	0	39	104	0	73	20463
2026-01-05 12:41:07.25	279.73	7.22	-50.6	-66.0	3.8	1.49e+00	0	39	104	0	73	20504
2026-01-05 12:41:08.25	279.89	7.22	-50.6	-66.0	3.8	1.49e+00	0	39	104	0	73	20483
2026-01-05 12:41:09.25	280.06	7.23	-50.6	-66.0	3.8	1.49e+00	0	39	104	0	73	20466
2026-01-05 12:41:10.26	280.22	7.23	-50.6	-66.0	3.8	1.49e+00	0	39	104	0	73	20483
2026-01-05 12:41:11.27	280.39	7.24	-50.5	-66.1	3.8	1.49e+00	0	39	104	0	73	20562
2026-01-05 12:41:12.27	280.55	7.24	-50.5	-66.0	3.8	1.49e+00	0	39	104	0	73	20526
2026-01-05 12:41:13.27	280.71	7.25	-50.6	-66.0	3.8	1.49e+00	0	39	104	0	73	20495
2026-01-05 12:41:14.28	280.88	7.25	-50.6	-66.0	3.8	1.49e+00	0	39	104	0	73	20457
2026-01-05 12:41:15.28	281.04	7.25	-50.6	-66.0	3.8	1.49e+00	0	39	104	0	73	20472
2026-01-05 12:41:16.28	281.20	7.26	-50.5	-66.1	3.8	1.49e+00	0	39	104	0	73	20573
2026-01-05 12:41:17.29	281.37	7.26	-50.6	-66.0	3.8	1.49e+00	0	39	104	0	73	20487
2026-01-05 12:41:18.29	281.53	7.27	-50.6	-66.1	3.8	1.49e+00	0	39	104	0	73	20570
2026-01-05 12:41:19.30	281.70	7.27	-50.6	-66.1	3.8	1.49e+00	0	39	104	0	73	20551
2026-01-05 12:41:20.30	281.86	7.27	-50.6	-66.0	3.8	1.49e+00	0	39	104	0	73	20487
2026-01-05 12:41:21.30	282.02	7.28	-50.6	-66.0	3.8	1.49e+00	0	39	104	0	73	20488
2026-01-05 12:41:22.31	282.19	7.28	-50.6	-66.0	3.8	1.49e+00	0	39	104	0	73	20428
2026-01-05 12:41:23.31	282.35	7.28	-50.6	-66.0	3.8	1.49e+00	0	39	104	0	73	20457
2026-01-05 12:41:24.32	282.52	7.28	-50.6	-66.0	3.8	1.49e+00	0	39	104	0	73	20516
2026-01-05 12:41:25.32	282.68	7.29	-50.5	-66.0	3.8	1.49e+00	0	39	104	0	73	20504
2026-01-05 12:41:26.33	282.85	7.29	-50.6	-66.0	3.8	1.49e+00	0	39	104	0	73	20484
2026-01-05 12:41:27.33	283.01	7.29	-50.5	-66.0	3.8	1.49e+00	0	39	104	0	73	20487
2026-01-05 12:41:28.33	283.17	7.29	-50.6	-66.0	3.8	1.49e+00	0	39	104	0	73	20362
2026-01-05 12:41:29.34	283.34	7.29	-50.6	-66.0	3.8	1.49e+00	0	39	104	0	73	20392
2026-01-05 12:41:30.34	283.50	7.29	-50.6	-66.0	3.8	1.49e+00	0	39	104	0	73	20461
2026-01-05 12:41:31.35	283.67	7.29	-50.5	-66.0	3.8	1.49e+00	0	39	104	0	73	20427
2026-01-05 12:41:32.35	283.83	7.29	-50.5	-66.0	3.8	1.49e+00	0	39	104	0	73	20430
2026-01-05 12:41:33.35	284.00	7.30	-50.5	-66.0	3.8	1.49e+00	0	39	104	0	73	20498
2026-01-05 12:41:34.36	284.16	7.30	-50.5	-66.0	3.8	1.49e+00	0	39	104	0	73	20490
2026-01-05 12:41:35.36	284.33	7.30	-50.6	-66.0	3.8	1.49e+00	0	39	104	0	73	20434
2026-01-05 12:41:36.37	284.49	7.30	-50.5	-66.0	3.8	1.49e+00	0	39	104	0	73	20449
2026-01-05 12:41:37.37	284.65	7.30	-50.5	-66.0	3.8	1.49e+00	0	39	104	0	73	20427
2026-01-05 12:41:38.38	284.82	7.29	-50.5	-66.0	3.8	1.49e+00	0	39	104	0	73	20408
2026-01-05 12:41:39.38	284.98	7.29	-50.5	-66.0	3.8	1.49e+00	0	39	104	0	73	20474
2026-01-05 12:41:40.38	285.15	7.29	-50.5	-66.0	3.8	1.49e+00	0	39	104	0	73	20337
2026-01-05 12:41:41.39	285.31	7.29	-50.5	-66.0	3.8	1.49e+00	0	39	104	0	73	20383
2026-01-05 12:41:42.39	285.48	7.29	-50.5	-66.0	3.8	1.49e+00	0	39	104	0	73	20443
2026-01-05 12:41:43.39	285.64	7.29	-50.5	-66.0	3.8	1.49e+00	0	39	104	0	73	20401
2026-01-05 12:41:44.40	285.81	7.29	-50.5	-66.0	3.8	1.49e+00	0	39	104	0	73	20462
2026-01-05 12:41:45.40	285.97	7.29	-50.5	-66.0	3.8	1.49e+00	0	39	104	0	73	20309
2026-01-05 12:41:46.41	286.13	7.28	-50.5	-66.0	3.8	1.49e+00	0	39	104	0	73	20332
2026-01-05 12:41:47.41	286.30	7.28	-50.5	-66.0	3.8	1.49e+00	0	39	104	0	73	20373
2026-01-05 12:41:48.41	286.46	7.28	-50.5	-66.0	3.8	1.49e+00	0	39	104	0	73	20378
2026-01-05 12:41:49.42	286.63	7.28	-50.5	-66.0	3.8	1.49e+00	0	39	104	0	73	20392
2026-01-05 12:41:50.43	286.79	7.27	-50.5	-66.0	3.8	1.49e+00	0	39	104	0	73	20358
2026-01-05 12:41:51.43	286.95	7.27	-50.5	-66.0	3.8	1.49e+00	0	39	104	0	73	20382
2026-01-05 12:41:52.43	287.12	7.27	-50.5	-66.0	3.8	1.49e+00	0	39	104	0	73	20337
2026-01-05 12:41:53.44	287.28	7.26	-50.5	-66.0	3.8	1.49e+00	0	39	104	0	73	20371
2026-01-05 12:41:54.44	287.45	7.26	-50.5	-66.0	3.8	1.49e+00	0	39	104	0	73	20396
2026-01-05 12:41:55.44	287.61	7.26	-50.5	-66.0	3.8	1.49e+00	0	39	104	0	73	20374
2026-01-05 12:41:56.45	287.77	7.25	-50.5	-66.0	3.8	1.49e+00	0	39	104	0	73	20429
2026-01-05 12:41:57.45	287.94	7.25	-50.5	-66.0	3.8	1.49e+00	0	39	104	0	73	20400
2026-01-05 12:41:58.46	288.10	7.24	-50.5	-66.0	3.8	1.49e+00	0	40	104	0	73	20314
2026-01-05 12:41:59.46	288.27	7.24	-50.5	-66.0	3.8	1.49e+00	0	39	104	0	73	20371
2026-01-05 12:42:00.47	288.43	7.23	-50.5	-66.0	3.8	1.49e+00	0	39	104	0	73	20326
2026-01-05 12:42:01.47	288.59	7.23	-50.5	-66.0	3.8	1.49e+00	0	39	104	0	73	20340
2026-01-05 12:42:02.48	288.76	7.22	-50.5	-66.0	3.8	1.49e+00	0	39	104	0	73	20454
2026-01-05 12:42:03.48	288.92	7.22	-50.5	-66.0	3.8	1.49e+00	0	39	104	0	73	20336
2026-01-05 12:42:04.48	289.08	7.21	-50.5	-66.0	3.8	1.49e+00	0	39	104	0	73	20399
2026-01-05 12:42:05.49	289.25	7.21	-50.5	-66.0	3.8	1.49e+00	0	39	104	0	73	20384
2026-01-05 12:42:06.49	289.41	7.20	-50.5	-65.9	3.8	1.49e+00	0	39	104	0	73	20239
2026-01-05 12:42:07.50	289.57	7.20	-50.5	-66.0	3.8	1.49e+00	0	39	104	0	73	20396
2026-01-05 12:42:08.50	289.74	7.19	-50.5	-66.0	3.8	1.49e+00	0	39	104	0	73	20316
2026-01-05 12:42:09.50	289.90	7.18	-50.5	-66.0	3.8	1.49e+00	0	39	104	0	73	20373
2026-01-05 12:42:10.51	290.06	7.18	-50.5	-66.0	3.8	1.49e+00	0	39	104	0	73	20374
2026-01-05 12:42:11.51	290.23	7.17	-50.5	-66.0	3.8	1.49e+00	0	39	104	0	73	20345
2026-01-05 12:42:12.52	290.39	7.16	-50.5	-65.9	3.8	1.49e+00	0	39	104	0	73	20260
2026-01-05 12:42:13.52	290.55	7.15	-50.5	-66.0	3.8	1.49e+00	0	39	104	0	73	20324
2026-01-05 12:42:14.52	290.71	7.15	-50.5	-66.0	3.8	1.49e+00	0	39	104	0	73	20326
2026-01-05 12:42:15.52	290.88	7.14	-50.5	-66.0	3.8	1.49e+00	0	40	104	0	73	20387
2026-01-05 12:42:16.53	291.04	7.13	-50.5	-66.0	3.8	1.49e+00	0	40	104	0	73	20371
2026-01-05 12:42:17.53	291.20	7.12	-50.5	-66.0	3.8	1.49e+00	0	39	104	0	73	20390
2026-01-05 12:42:18.54	291.36	7.11	-50.5	-66.0	3.8	1.49e+00	0	39	104	0	73	20364
2026-01-05 12:42:19.54	291.53	7.11	-50.5	-66.0	3.8	1.49e+00	0	40	104	0	73	20344
2026-01-05 12:42:20.54	291.69	7.10	-50.5	-66.0	3.8	1.49e+00	0	39	104	0	73	20363
2026-01-05 12:42:21.55	291.85	7.09	-50.5	-66.0	3.8	1.49e+00	0	39	104	0	73	20374
2026-01-05 12:42:22.55	292.01	7.08	-50.5	-65.9	3.8	1.49e+00	0	39	104	0	73	20296
2026-01-05 12:42:23.56	292.17	7.07	-50.5	-66.0	3.8	1.49e+00	0	39	104	0	73	20420
2026-01-05 12:42:24.56	292.34	7.06	-50.5	-66.0	3.8	1.49e+00	0	39	104	0	73	20324
2026-01-05 12:42:25.57	292.50	7.05	-50.5	-66.0	3.8	1.49e+00	0	39	104	0	73	20306
2026-01-05 12:42:26.57	292.66	7.04	-50.5	-66.0	3.8	1.49e+00	0	39	104	0	73	20403
2026-01-05 12:42:27.57	292.82	7.03	-50.5	-66.0	3.8	1.49e+00	0	40	104	0	73	20333
2026-01-05 12:42:28.58	292.98	7.02	-50.5	-66.0	3.8	1.49e+00	0	39	104	0	73	20355
2026-01-05 12:42:29.58	293.14	7.01	-50.5	-66.0	3.8	1.49e+00	0	39	104	0	73	20405
2026-01-05 12:42:30.58	293.30	7.00	-50.5	-66.0	3.8	1.49e+00	0	39	104	0	73	20314
2026-01-05 12:42:31.59	293.46	6.99	-50.5	-65.9	3.8	1.49e+00	0	39	104	0	73	20299
2026-01-05 12:42:32.59	293.63	6.98	-50.5	-65.9	3.8	1.49e+00	0	40	104	0	73	20259
2026-01-05 12:42:33.60	293.79	6.97	-50.5	-66.0	3.8	1.49e+00	0	40	104	0	73	20310
2026-01-05 12:42:34.60	293.95	6.96	-50.5	-66.0	3.8	1.49e+00	0	39	104	0	73	20305
2026-01-05 12:42:35.61	294.11	6.94	-50.5	-66.0	3.8	1.49e+00	0	40	104	0	73	20433
2026-01-05 12:42:36.61	294.27	6.93	-50.5	-66.0	3.8	1.49e+00	0	39	104	0	73	20365
2026-01-05 12:42:37.61	294.43	6.92	-50.5	-65.9	3.8	1.49e+00	0	39	104	0	73	20220
2026-01-05 12:42:38.62	294.59	6.91	-50.5	-66.0	3.8	1.49e+00	0	39	104	0	73	20329
2026-01-05 12:42:39.62	294.75	6.90	-50.5	-65.9	3.8	1.49e+00	0	39	104	0	73	20292
2026-01-05 12:42:40.62	294.91	6.88	-50.5	-66.0	3.8	1.49e+00	0	40	104	0	73	20323
2026-01-05 12:42:41.63	295.07	6.87	-50.5	-65.9	3.8	1.49e+00	0	40	104	0	73	20254
2026-01-05 12:42:42.63	295.23	6.86	-50.5	-65.9	3.8	1.49e+00	0	39	104	0	73	20282
2026-01-05 12:42:43.63	295.39	6.84	-50.5	-65.9	3.8	1.49e+00	0	40	104	0	73	20247
2026-01-05 12:42:44.64	295.55	6.83	-50.5	-66.0	3.8	1.49e+00	0	40	104	0	73	20334
2026-01-05 12:42:45.64	295.70	6.82	-50.5	-66.0	3.8	1.49e+00	0	39	104	0	73	20317
2026-01-05 12:42:46.65	295.86	6.80	-50.5	-66.0	3.8	1.49e+00	0	39	104	0	73	20367
2026-01-05 12:42:47.65	296.02	6.79	-50.5	-66.0	3.8	1.49e+00	0	40	104	0	73	20323
2026-01-05 12:42:48.65	296.18	6.78	-50.5	-65.9	3.8	1.49e+00	0	40	104	0	73	20260
2026-01-05 12:42:49.65	296.34	6.76	-50.5	-66.0	3.8	1.49e+00	0	39	104	0	73	20313
2026-01-05 12:42:50.66	296.50	6.75	-50.5	-65.9	3.8	1.49e+00	0	40	104	0	73	20248
2026-01-05 12:42:51.66	296.65	6.73	-50.5	-65.9	3.8	1.49e+00	0	39	104	0	72	21457
2026-01-05 12:42:52.66	296.81	6.72	-50.5	-66.0	3.8	1.49e+00	0	40	104	0	72	21515
2026-01-05 12:42:53.67	296.97	6.71	-50.5	-65.9	3.8	1.49e+00	0	40	104	0	72	21480
2026-01-05 12:42:54.66	297.13	6.69	-50.5	-66.0	3.8	1.49e+00	0	40	104	0	72	21517
2026-01-05 12:42:55.67	297.29	6.68	-50.5	-66.0	3.8	1.49e+00	0	39	104	0	72	21517
2026-01-05 12:42:56.67	297.44	6.66	-50.5	-65.9	3.8	1.49e+00	0	40	104	0	72	21504
2026-01-05 12:42:57.67	297.60	6.64	-50.5	-65.9	3.8	1.49e+00	0	40	104	0	72	21447
2026-01-05 12:42:58.68	297.76	6.63	-50.5	-65.9	3.8	1.49e+00	0	40	104	0	72	21476
2026-01-05 12:42:59.68	297.91	6.61	-50.5	-65.9	3.8	1.49e+00	0	40	104	0	72	21489
2026-01-05 12:43:00.69	298.07	6.60	-50.5	-65.9	3.8	1.49e+00	0	40	104	0	72	21396
2026-01-05 12:43:01.69	298.23	6.58	-50.5	-65.9	3.8	1.49e+00	0	40	104	0	72	21470
2026-01-05 12:43:02.70	298.38	6.56	-50.5	-65.9	3.8	1.49e+00	0	40	104	0	72	21476
2026-01-05 12:43:03.70	298.54	6.55	-50.5	-65.9	3.8	1.49e+00	0	40	104	0	72	21494
2026-01-05 12:43:04.70	298.69	6.53	-50.5	-65.9	3.8	1.49e+00	0	40	104	0	72	21470
2026-01-05 12:43:05.71	298.85	6.51	-50.5	-66.0	3.8	1.49e+00	0	40	104	0	72	21540
2026-01-05 12:43:06.71	299.01	6.50	-50.5	-65.9	3.8	1.49e+00	0	40	104	0	72	21448
2026-01-05 12:43:07.71	299.16	6.48	-50.5	-66.0	3.8	1.49e+00	0	40	104	0	72	21516
2026-01-05 12:43:08.72	299.32	6.46	-50.5	-65.9	3.8	1.49e+00	0	40	104	0	72	21445
2026-01-05 12:43:09.72	299.47	6.45	-50.5	-66.0	3.8	1.49e+00	0	40	104	0	72	21565
2026-01-05 12:43:10.72	299.63	6.43	-50.5	-65.9	3.8	1.49e+00	0	40	104	0	72	21452
2026-01-05 12:43:11.73	299.78	6.41	-50.5	-66.0	3.8	1.49e+00	0	39	104	0	72	21512
2026-01-05 12:43:12.73	299.94	6.39	-50.5	-65.9	3.8	1.49e+00	0	39	104	0	72	21478
2026-01-05 12:43:13.74	300.09	6.37	-50.5	-65.9	3.8	1.49e+00	0	39	104	0	72	21427
2026-01-05 12:43:14.74	300.25	6.36	-50.5	-66.0	3.8	1.49e+00	0	40	104	0	72	21517
2026-01-05 12:43:15.75	300.40	6.34	-50.4	-65.9	3.8	1.49e+00	0	39	104	0	72	21501
2026-01-05 12:43:16.75	300.55	6.32	-50.5	-65.9	3.8	1.49e+00	0	40	104	0	72	21493
2026-01-05 12:43:17.76	300.71	6.30	-50.5	-65.9	3.8	1.49e+00	0	40	104	0	72	21464
2026-01-05 12:43:18.76	300.86	6.28	-50.5	-65.9	3.8	1.49e+00	0	40	104	0	72	21447
2026-01-05 12:43:19.76	301.01	6.26	-50.5	-65.9	3.8	1.49e+00	0	40	104	0	72	21414
2026-01-05 12:43:20.77	301.17	6.24	-50.5	-65.9	3.8	1.49e+00	0	40	104	0	72	21505
2026-01-05 12:43:21.77	301.32	6.22	-50.5	-65.9	3.8	1.49e+00	0	40	104	0	72	21405
2026-01-05 12:43:22.77	301.47	6.20	-50.5	-66.0	3.8	1.49e+00	0	40	104	0	72	21556
2026-01-05 12:43:23.78	301.63	6.18	-50.5	-65.9	3.8	1.49e+00	0	39	104	0	72	21447
2026-01-05 12:43:24.78	301.78	6.17	-50.5	-65.9	3.8	1.49e+00	0	40	104	0	72	21486
2026-01-05 12:43:25.79	301.93	6.15	-50.5	-66.0	3.8	1.49e+00	0	40	104	0	72	21572
2026-01-05 12:43:26.79	302.08	6.13	-50.5	-66.0	3.8	1.49e+00	0	40	104	0	72	21510
2026-01-05 12:43:27.79	302.23	6.10	-50.5	-65.9	3.8	1.49e+00	0	40	104	0	72	21448
2026-01-05 12:43:28.80	302.39	6.08	-50.4	-65.9	3.8	1.49e+00	0	40	104	0	72	21448
2026-01-05 12:43:29.81	302.54	6.06	-50.5	-66.0	3.8	1.49e+00	0	40	104	0	72	21546
2026-01-05 12:43:30.81	302.69	6.04	-50.5	-65.9	3.8	1.49e+00	0	40	104	0	72	21450
2026-01-05 12:43:31.81	302.84	6.02	-50.5	-65.9	3.8	1.49e+00	0	40	104	0	72	21455
2026-01-05 12:43:32.82	302.99	6.00	-50.5	-65.9	3.8	1.49e+00	0	40	104	0	72	21495
2026-01-05 12:43:33.82	303.14	5.98	-50.5	-65.9	3.8	1.49e+00	0	40	104	0	72	21425
2026-01-05 12:43:34.83	303.29	5.96	-50.5	-65.9	3.8	1.49e+00	0	40	104	0	72	21424
2026-01-05 12:43:35.83	303.44	5.94	-50.5	-66.0	3.8	1.49e+00	0	40	104	0	72	21527
2026-01-05 12:43:36.83	303.59	5.92	-50.5	-65.9	3.8	1.49e+00	0	40	104	0	72	21448
2026-01-05 12:43:37.84	303.74	5.89	-50.5	-65.9	3.8	1.49e+00	0	40	104	0	72	21495
2026-01-05 12:43:38.84	303.89	5.87	-50.5	-65.9	3.8	1.49e+00	0	40	104	0	72	21433
2026-01-05 12:43:39.85	304.04	5.85	-50.5	-65.9	3.8	1.49e+00	0	40	104	0	72	21489
2026-01-05 12:43:40.85	304.19	5.83	-50.5	-65.9	3.8	1.49e+00	0	40	104	0	72	21506
2026-01-05 12:43:41.86	304.34	5.81	-50.5	-65.9	3.8	1.49e+00	0	40	104	0	72	21484
2026-01-05 12:43:42.86	304.48	5.78	-50.5	-65.9	3.8	1.49e+00	0	40	104	0	72	21501
2026-01-05 12:43:43.87	304.63	5.76	-50.5	-65.9	3.8	1.49e+00	0	40	104	0	72	21502
2026-01-05 12:43:44.87	304.78	5.74	-50.5	-65.9	3.8	1.49e+00	0	40	104	0	72	21481
2026-01-05 12:43:45.87	304.93	5.71	-50.5	-65.9	3.8	1.49e+00	0	40	104	0	72	21473
2026-01-05 12:43:46.88	305.08	5.69	-50.5	-65.9	3.8	1.49e+00	0	40	104	0	72	21428
2026-01-05 12:43:47.88	305.22	5.67	-50.5	-65.9	3.8	1.49e+00	0	40	104	0	72	21487
2026-01-05 12:43:48.89	305.37	5.64	-50.5	-66.0	3.8	1.49e+00	0	40	104	0	72	21540
2026-01-05 12:43:49.89	305.52	5.62	-50.5	-65.9	3.8	1.49e+00	0	40	104	0	72	21475
2026-01-05 12:43:50.90	305.66	5.60	-50.5	-65.9	3.8	1.49e+00	0	40	104	0	72	21455
2026-01-05 12:43:51.90	305.81	5.57	-50.5	-65.9	3.8	1.49e+00	0	40	104	0	72	21481
2026-01-05 12:43:52.91	305.96	5.55	-50.5	-65.9	3.8	1.49e+00	0	40	104	0	72	21477
2026-01-05 12:43:53.91	306.10	5.53	-50.5	-65.9	3.8	1.49e+00	0	40	104	0	72	21487
2026-01-05 12:43:54.91	306.25	5.50	-50.5	-66.0	3.8	1.49e+00	0	40	104	0	72	21534
2026-01-05 12:43:55.92	306.39	5.48	-50.5	-65.9	3.8	1.49e+00	0	40	104	0	72	21425
2026-01-05 12:43:56.93	306.54	5.45	-50.5	-65.9	3.8	1.49e+00	0	40	104	0	72	21455
2026-01-05 12:43:57.93	306.68	5.43	-50.5	-65.9	3.8	1.49e+00	0	40	104	0	72	21469
2026-01-05 12:43:58.93	306.83	5.40	-50.5	-65.9	3.8	1.49e+00	0	40	104	0	72	21469
2026-01-05 12:43:59.94	306.97	5.38	-50.5	-66.0	3.8	1.49e+00	0	40	104	0	72	21516
2026-01-05 12:44:00.94	307.12	5.35	-50.5	-65.9	3.8	1.49e+00	0	40	104	0	72	21500
2026-01-05 12:44:01.95	307.26	5.33	-50.5	-65.9	3.8	1.49e+00	0	40	104	0	72	21459
2026-01-05 12:44:02.95	307.41	5.30	-50.5	-65.9	3.8	1.49e+00	0	40	104	0	72	21489
2026-01-05 12:44:03.95	307.55	5.28	-50.5	-65.9	3.8	1.49e+00	0	40	104	0	72	21386
2026-01-05 12:44:04.96	307.69	5.25	-50.5	-65.9	3.8	1.49e+00	0	40	104	0	72	21473
2026-01-05 12:44:05.96	307.84	5.23	-50.5	-65.9	3.8	1.49e+00	0	40	104	0	72	21484
2026-01-05 12:44:06.97	307.98	5.20	-50.5	-65.9	3.8	1.49e+00	0	40	104	0	72	21392
2026-01-05 12:44:07.97	308.12	5.18	-50.5	-65.9	3.8	1.49e+00	0	40	104	0	72	21429
2026-01-05 12:44:08.98	308.26	5.15	-50.5	-66.0	3.8	1.49e+00	0	40	104	0	72	21525
2026-01-05 12:44:09.98	308.41	5.13	-50.5	-65.9	3.8	1.49e+00	0	40	104	0	72	21392
2026-01-05 12:44:10.99	308.55	5.10	-50.5	-65.9	3.8	1.49e+00	0	40	104	0	72	21398
2026-01-05 12:44:11.99	308.69	5.07	-50.5	-65.9	3.8	1.49e+00	0	40	104	0	72	21497
2026-01-05 12:44:12.99	308.83	5.05	-50.5	-65.9	3.8	1.49e+00	0	40	104	0	72	21420
2026-01-05 12:44:14.00	308.97	5.02	-50.5	-65.9	3.8	1.49e+00	0	40	104	0	72	21480
2026-01-05 12:44:15.00	309.11	4.99	-50.5	-65.9	3.8	1.49e+00	0	40	104	0	72	21458

#Closed at: 2026-01-05 12:44:16
#Recorded file [0 MB]: D:/Data/31040_260105_153858.dat