passes_logs/2026/01/05/T1/T1__20260105_214449_NOAA_20_JPSS-1_rec.log

#Pass ID: 20260105_214449_NOAA 20 (JPSS-1)
#Satellite: NOAA 20 (JPSS-1)
#Configuration: NOAA 20
#almurnet v.1.7.20251203
#Start time: 2026-01-05 21:44:51

#Version: 2.0.20230620
#Station: T1
#Location: 37.570604 lon 55.790049 lat
#TLE: 1 43013U 17073A   26005.46207808  .00000128  00000+0  81791-4 0  9997
#TLE: 2 43013  98.7627 306.5027 0001826  53.0458 307.0885 14.19533487421381

#Time	Az	El	Level	Level2	SNR	BER	BlckErr	Temp	State	Recorded	gain1	gain2
2026-01-05 21:44:51.22	36.05	5.08	-50.2	-65.5	3.8	1.49e+00	0	40	0	0	72	20343
2026-01-05 21:44:52.22	36.16	5.12	-50.2	-65.5	3.8	1.49e+00	0	41	104	0	71	21644
2026-01-05 21:44:53.22	36.28	5.17	-50.2	-65.5	3.8	1.49e+00	0	41	104	0	71	21675
2026-01-05 21:44:54.22	36.39	5.22	-50.2	-65.5	3.8	1.49e+00	0	41	104	0	71	21672
2026-01-05 21:44:55.22	36.50	5.27	-50.2	-65.5	3.8	1.49e+00	0	41	104	0	71	21730
2026-01-05 21:44:56.22	36.61	5.32	-50.2	-65.5	3.8	1.49e+00	0	41	104	0	71	21658
2026-01-05 21:44:57.22	36.72	5.37	-50.2	-65.5	3.8	1.49e+00	0	41	104	0	71	21686
2026-01-05 21:44:58.22	36.84	5.42	-50.2	-65.5	3.8	1.49e+00	0	41	104	0	71	21655
2026-01-05 21:44:59.22	36.95	5.46	-50.2	-65.5	3.8	1.49e+00	0	41	104	0	71	21688
2026-01-05 21:45:00.22	37.06	5.51	-50.2	-65.5	3.8	1.49e+00	0	41	104	0	71	21607
2026-01-05 21:45:01.22	37.18	5.56	-50.2	-65.5	3.8	1.49e+00	0	41	104	0	71	21702
2026-01-05 21:45:02.22	37.29	5.61	-50.2	-65.5	3.8	1.49e+00	0	41	104	0	71	21627
2026-01-05 21:45:03.22	37.41	5.66	-50.2	-65.5	3.8	1.49e+00	0	41	104	0	71	21658
2026-01-05 21:45:04.22	37.52	5.71	-50.2	-65.5	3.8	1.49e+00	0	41	104	0	71	21623
2026-01-05 21:45:05.22	37.64	5.76	-50.2	-65.5	3.8	1.49e+00	0	41	104	0	71	21708
2026-01-05 21:45:06.22	37.75	5.80	-50.2	-65.5	3.8	1.49e+00	0	41	104	0	71	21661
2026-01-05 21:45:07.21	37.87	5.85	-50.2	-65.5	3.8	1.49e+00	0	41	104	0	71	21644
2026-01-05 21:45:08.21	37.99	5.90	-50.2	-65.5	3.8	1.49e+00	0	41	104	0	71	21647
2026-01-05 21:45:09.21	38.10	5.95	-50.2	-65.5	3.8	1.49e+00	0	41	104	0	71	21654
2026-01-05 21:45:10.20	38.22	6.00	-50.2	-65.5	3.8	1.49e+00	0	41	104	0	71	21613
2026-01-05 21:45:11.20	38.34	6.05	-50.2	-65.5	3.8	1.49e+00	0	41	104	0	71	21627
2026-01-05 21:45:12.20	38.46	6.10	-50.2	-65.5	3.8	1.49e+00	0	41	104	0	71	21650
2026-01-05 21:45:13.20	38.57	6.14	-50.2	-65.5	3.8	1.49e+00	0	41	104	0	71	21586
2026-01-05 21:45:14.20	38.69	6.19	-50.2	-65.5	3.8	1.49e+00	0	41	104	0	71	21682
2026-01-05 21:45:15.19	38.81	6.24	-50.2	-65.5	3.8	1.49e+00	0	41	104	0	71	21625
2026-01-05 21:45:16.19	38.93	6.29	-50.2	-65.5	3.8	1.49e+00	0	41	104	0	71	21657
2026-01-05 21:45:17.19	39.05	6.34	-50.2	-65.5	3.8	1.49e+00	0	42	104	0	71	21551
2026-01-05 21:45:18.19	39.17	6.39	-50.2	-65.5	3.8	1.49e+00	0	42	104	0	71	21526
2026-01-05 21:45:19.19	39.29	6.43	-50.2	-65.5	3.8	1.49e+00	0	42	104	0	71	21593
2026-01-05 21:45:20.19	39.41	6.48	-50.2	-65.5	3.8	1.49e+00	0	41	104	0	71	21656
2026-01-05 21:45:21.19	39.53	6.53	-50.2	-65.5	3.8	1.49e+00	0	42	104	0	71	21593
2026-01-05 21:45:22.19	39.66	6.58	-50.2	-65.5	3.8	1.49e+00	0	41	104	0	71	21605
2026-01-05 21:45:23.18	39.78	6.63	-50.2	-65.5	3.8	1.49e+00	0	42	104	0	71	21687
2026-01-05 21:45:24.18	39.90	6.68	-50.2	-65.5	3.8	1.49e+00	0	42	104	0	71	21621
2026-01-05 21:45:25.18	40.02	6.72	-50.2	-65.5	3.8	1.49e+00	0	42	104	0	71	21614
2026-01-05 21:45:26.18	40.15	6.77	-50.2	-65.5	3.8	1.49e+00	0	42	104	0	71	21585
2026-01-05 21:45:27.18	40.27	6.82	-50.2	-65.5	3.8	1.49e+00	0	42	104	0	71	21601
2026-01-05 21:45:28.17	40.39	6.87	-50.2	-65.5	3.8	1.49e+00	0	42	104	0	71	21666
2026-01-05 21:45:29.17	40.52	6.92	-50.2	-65.5	3.8	1.49e+00	0	42	104	0	71	21587
2026-01-05 21:45:30.17	40.64	6.96	-50.2	-65.5	3.8	1.49e+00	0	42	104	0	71	21598
2026-01-05 21:45:31.17	40.77	7.01	-50.2	-65.5	3.8	1.49e+00	0	42	104	0	71	21603
2026-01-05 21:45:32.17	40.90	7.06	-50.2	-65.5	3.8	1.49e+00	0	42	104	0	71	21612
2026-01-05 21:45:33.17	41.02	7.11	-50.2	-65.5	3.8	1.49e+00	0	42	104	0	71	21622
2026-01-05 21:45:34.17	41.15	7.16	-50.2	-65.5	3.8	1.49e+00	0	42	104	0	71	21648
2026-01-05 21:45:35.17	41.28	7.21	-50.2	-65.5	3.8	1.49e+00	0	42	104	0	71	21578
2026-01-05 21:45:36.17	41.40	7.25	-50.2	-65.5	3.8	1.49e+00	0	42	104	0	71	21639
2026-01-05 21:45:37.17	41.53	7.30	-50.2	-65.4	3.8	1.49e+00	0	42	104	0	71	21500
2026-01-05 21:45:38.17	41.66	7.35	-50.2	-65.4	3.8	1.49e+00	0	42	104	0	71	21474
2026-01-05 21:45:39.17	41.79	7.40	-50.2	-65.5	3.8	1.49e+00	0	42	104	0	71	21527
2026-01-05 21:45:40.16	41.92	7.45	-50.2	-65.5	3.8	1.49e+00	0	42	104	0	71	21510
2026-01-05 21:45:41.16	42.05	7.49	-50.2	-65.5	3.8	1.49e+00	0	42	104	0	71	21511
2026-01-05 21:45:42.16	42.18	7.54	-50.2	-65.4	3.8	1.49e+00	0	42	104	0	71	21490
2026-01-05 21:45:43.16	42.31	7.59	-50.2	-65.4	3.8	1.49e+00	0	42	104	0	71	21502
2026-01-05 21:45:44.15	42.44	7.64	-50.2	-65.4	3.8	1.49e+00	0	42	104	0	71	21463
2026-01-05 21:45:45.16	42.57	7.68	-50.2	-65.4	3.8	1.49e+00	0	42	104	0	71	21467
2026-01-05 21:45:46.15	42.70	7.73	-50.2	-65.5	3.8	1.49e+00	0	42	104	0	71	21546
2026-01-05 21:45:47.15	42.83	7.78	-50.2	-65.4	3.8	1.49e+00	0	42	104	0	71	21485
2026-01-05 21:45:48.15	42.96	7.83	-50.2	-65.4	3.8	1.49e+00	0	42	104	0	71	21494
2026-01-05 21:45:49.15	43.10	7.88	-50.2	-65.5	3.8	1.49e+00	0	42	104	0	71	21527
2026-01-05 21:45:50.15	43.23	7.92	-50.2	-65.4	3.8	1.49e+00	0	42	104	0	71	21362
2026-01-05 21:45:51.14	43.36	7.97	-50.2	-65.4	3.8	1.49e+00	0	42	104	0	71	21445
2026-01-05 21:45:52.14	43.50	8.02	-50.2	-65.4	3.8	1.49e+00	0	42	104	0	71	21416
2026-01-05 21:45:53.14	43.63	8.07	-50.2	-65.5	3.8	1.49e+00	0	42	104	0	71	21621
2026-01-05 21:45:54.14	43.77	8.11	-50.2	-65.5	3.8	1.49e+00	0	42	104	0	71	21514
2026-01-05 21:45:55.14	43.90	8.16	-50.2	-65.3	3.8	1.49e+00	0	42	104	0	71	21230
2026-01-05 21:45:56.14	44.04	8.21	-50.2	-65.2	3.8	1.49e+00	0	42	104	0	71	20966
2026-01-05 21:45:57.14	44.17	8.25	-50.2	-65.1	3.8	1.49e+00	0	42	104	0	71	20678
2026-01-05 21:45:58.14	44.31	8.30	-50.2	-65.1	3.8	1.49e+00	0	42	104	0	71	20735
2026-01-05 21:45:59.14	44.45	8.35	-50.2	-65.2	3.8	1.49e+00	0	43	104	0	71	20854
2026-01-05 21:46:00.13	44.58	8.40	-50.2	-65.3	3.8	1.49e+00	0	42	104	0	71	21095
2026-01-05 21:46:01.13	44.72	8.44	-50.2	-65.3	3.8	1.49e+00	0	42	104	0	71	21103
2026-01-05 21:46:02.13	44.86	8.49	-50.2	-65.3	3.8	1.49e+00	0	42	104	0	71	21135
2026-01-05 21:46:03.13	45.00	8.54	-50.2	-65.4	3.8	1.49e+00	0	42	104	0	71	21267
2026-01-05 21:46:04.12	45.14	8.58	-50.2	-65.4	3.8	1.49e+00	0	42	104	0	71	21466
2026-01-05 21:46:05.12	45.28	8.63	-50.2	-65.5	3.8	1.49e+00	0	42	104	0	71	21539
2026-01-05 21:46:06.12	45.42	8.68	-50.2	-65.3	3.8	1.49e+00	0	42	104	0	71	21119
2026-01-05 21:46:07.12	45.56	8.72	-50.1	-64.9	3.8	1.49e+00	0	43	104	0	71	20101
2026-01-05 21:46:08.12	45.70	8.77	-50.1	-64.2	3.8	1.49e+00	0	42	104	0	71	18640
2026-01-05 21:46:09.11	45.84	8.82	-50.1	-63.5	3.9	1.49e+00	0	43	104	0	71	17233
2026-01-05 21:46:10.11	45.98	8.86	-50.0	-63.3	3.8	1.49e+00	0	42	104	0	71	16748
2026-01-05 21:46:11.11	46.12	8.91	-50.0	-63.2	3.8	1.48e+00	0	43	104	0	71	16577
2026-01-05 21:46:12.10	46.26	8.96	-50.0	-62.7	3.9	1.48e+00	0	43	104	0	71	15615
2026-01-05 21:46:13.10	46.41	9.00	-49.9	-61.0	4.5	1.36e+00	0	43	0	0	71	12875
2026-01-05 21:46:14.10	46.55	9.05	-49.5	-58.4	5.9	6.15e-01	0	42	0	2097152	71	9585
2026-01-05 21:46:15.10	46.70	9.10	-49.5	-58.8	5.7	4.06e-01	0	43	0	3145728	71	9951
2026-01-05 21:46:16.10	46.84	9.14	-50.0	-62.9	3.9	1.47e+00	0	43	104	4194304	71	16022
2026-01-05 21:46:17.09	46.98	9.19	-48.3	-53.9	10.3	2.15e-01	0	43	0	5242880	68	6774
2026-01-05 21:46:18.09	47.13	9.23	-49.9	-61.5	4.3	2.90e-01	0	43	0	6291456	70	14516
2026-01-05 21:46:19.09	47.27	9.28	-46.6	-50.7	13.5	3.50e-05	0	43	0	8388608	65	5538
2026-01-05 21:46:20.09	47.42	9.33	-46.6	-50.6	13.6	1.37e-05	0	43	0	10485760	65	5480
2026-01-05 21:46:21.09	47.57	9.37	-46.5	-50.5	13.7	8.30e-06	0	43	0	12582912	65	5442
2026-01-05 21:46:22.08	47.71	9.42	-46.6	-50.7	13.5	4.50e-06	0	43	0	13631488	64	5863
2026-01-05 21:46:23.08	47.86	9.46	-46.5	-50.5	13.7	5.30e-06	0	43	0	15728640	64	5761
2026-01-05 21:46:24.08	48.01	9.51	-46.1	-49.8	14.4	7.00e-07	0	43	0	17825792	64	5288
2026-01-05 21:46:25.08	48.16	9.55	-46.1	-49.7	14.6	0.00e+00	0	42	0	19922944	63	5540
2026-01-05 21:46:26.08	48.31	9.60	-45.9	-49.3	14.9	0.00e+00	0	43	0	20971520	63	5329
2026-01-05 21:46:27.08	48.46	9.64	-45.5	-48.8	15.5	0.00e+00	0	42	0	23068672	63	5012
2026-01-05 21:46:28.08	48.61	9.69	-45.5	-48.7	15.6	0.00e+00	0	43	0	25165824	62	5225
2026-01-05 21:46:29.08	48.76	9.73	-45.4	-48.6	15.6	0.00e+00	0	43	0	27262976	62	5213
2026-01-05 21:46:30.07	48.91	9.78	-45.4	-48.6	15.7	0.00e+00	0	43	0	29360128	62	5188
2026-01-05 21:46:31.07	49.06	9.82	-45.6	-48.8	15.5	0.00e+00	0	42	0	30408704	62	5298
2026-01-05 21:46:32.07	49.21	9.87	-45.4	-48.5	15.8	0.00e+00	0	43	0	32505856	62	5126
2026-01-05 21:46:33.07	49.36	9.91	-45.3	-48.4	15.8	0.00e+00	0	43	0	34603008	62	5081
2026-01-05 21:46:34.06	49.51	9.96	-45.4	-48.5	15.8	0.00e+00	0	43	0	36700160	62	5113
2026-01-05 21:46:35.06	49.67	10.00	-45.3	-48.4	15.9	0.00e+00	0	42	0	37748736	62	5084
2026-01-05 21:46:36.05	49.82	10.05	-45.2	-48.3	16.0	0.00e+00	0	43	0	39845888	62	5016
2026-01-05 21:46:37.05	49.97	10.09	-45.4	-48.5	15.8	0.00e+00	0	43	0	41943040	62	5115
2026-01-05 21:46:38.05	50.13	10.14	-45.4	-48.5	15.8	0.00e+00	0	43	0	44040192	62	5119
2026-01-05 21:46:39.05	50.28	10.18	-45.4	-48.6	15.7	0.00e+00	0	43	0	46137344	62	5190
2026-01-05 21:46:40.05	50.44	10.22	-45.5	-48.7	15.6	0.00e+00	0	43	0	47185920	62	5235
2026-01-05 21:46:41.04	50.59	10.27	-45.6	-48.8	15.5	0.00e+00	0	43	0	49283072	62	5327
2026-01-05 21:46:42.04	50.75	10.31	-45.5	-48.7	15.6	0.00e+00	0	43	0	51380224	62	5233
2026-01-05 21:46:43.04	50.90	10.36	-45.4	-48.5	15.9	0.00e+00	0	43	0	53477376	62	5110
2026-01-05 21:46:44.04	51.06	10.40	-45.5	-48.6	15.7	0.00e+00	0	43	0	55574528	62	5205
2026-01-05 21:46:45.04	51.22	10.44	-45.5	-48.6	15.7	0.00e+00	0	43	0	56623104	62	5215
2026-01-05 21:46:46.04	51.38	10.49	-45.5	-48.6	15.7	0.00e+00	0	43	0	58720256	62	5212
2026-01-05 21:46:47.02	51.53	10.53	-45.5	-48.7	15.6	0.00e+00	0	43	0	60817408	62	5254
2026-01-05 21:46:48.02	51.69	10.57	-45.5	-48.7	15.6	0.00e+00	0	43	0	62914560	62	5242
2026-01-05 21:46:49.01	51.85	10.62	-45.5	-48.6	15.7	0.00e+00	0	43	0	63963136	62	5203
2026-01-05 21:46:50.01	52.01	10.66	-45.5	-48.7	15.6	0.00e+00	0	43	0	66060288	62	5246
2026-01-05 21:46:51.01	52.17	10.70	-45.6	-48.8	15.5	0.00e+00	0	43	0	68157440	62	5333
2026-01-05 21:46:52.00	52.33	10.74	-45.6	-48.8	15.6	0.00e+00	0	43	0	70254592	62	5280
2026-01-05 21:46:53.00	52.49	10.79	-45.7	-48.9	15.5	0.00e+00	0	43	0	72351744	62	5359
2026-01-05 21:46:54.00	52.65	10.83	-45.7	-48.9	15.4	0.00e+00	0	43	0	73400320	62	5395
2026-01-05 21:46:55.00	52.81	10.87	-45.7	-48.9	15.4	0.00e+00	0	43	0	75497472	62	5394
2026-01-05 21:46:55.99	52.98	10.91	-45.6	-48.8	15.6	0.00e+00	0	43	0	77594624	62	5300
2026-01-05 21:46:56.99	53.14	10.96	-45.6	-48.8	15.6	0.00e+00	0	43	0	79691776	62	5295
2026-01-05 21:46:57.99	53.30	11.00	-45.6	-48.8	15.6	0.00e+00	0	43	0	80740352	62	5300
2026-01-05 21:46:58.99	53.47	11.04	-45.6	-48.9	15.5	0.00e+00	0	43	0	82837504	62	5341
2026-01-05 21:46:59.98	53.63	11.08	-45.7	-48.9	15.4	0.00e+00	0	43	0	84934656	62	5379
2026-01-05 21:47:00.98	53.79	11.12	-45.7	-48.9	15.4	0.00e+00	0	43	0	87031808	62	5388
2026-01-05 21:47:01.98	53.96	11.16	-45.7	-49.0	15.3	0.00e+00	0	43	0	89128960	62	5438
2026-01-05 21:47:02.98	54.13	11.20	-45.7	-49.0	15.3	0.00e+00	0	43	0	90177536	62	5460
2026-01-05 21:47:03.98	54.29	11.25	-45.7	-49.0	15.4	0.00e+00	0	43	0	92274688	62	5437
2026-01-05 21:47:04.98	54.46	11.29	-45.8	-49.0	15.3	0.00e+00	0	43	0	94371840	62	5462
2026-01-05 21:47:05.98	54.63	11.33	-45.7	-49.0	15.4	0.00e+00	0	43	0	96468992	62	5425
2026-01-05 21:47:06.98	54.79	11.37	-45.7	-49.0	15.4	0.00e+00	0	43	0	98566144	62	5427
2026-01-05 21:47:07.99	54.96	11.41	-45.8	-49.1	15.2	0.00e+00	0	43	0	99614720	62	5519
2026-01-05 21:47:08.99	55.13	11.45	-45.8	-49.1	15.2	0.00e+00	0	43	0	101711872	62	5498
2026-01-05 21:47:09.99	55.30	11.49	-45.9	-49.2	15.2	0.00e+00	0	43	0	103809024	62	5533
2026-01-05 21:47:10.99	55.47	11.53	-45.7	-49.0	15.4	0.00e+00	0	43	0	105906176	62	5431
2026-01-05 21:47:11.99	55.64	11.57	-45.7	-49.0	15.4	0.00e+00	0	43	0	108003328	62	5416
2026-01-05 21:47:12.98	55.81	11.61	-45.7	-49.0	15.4	0.00e+00	0	43	0	109051904	62	5423
2026-01-05 21:47:13.98	55.98	11.65	-45.7	-48.9	15.4	0.00e+00	0	43	0	111149056	62	5402
2026-01-05 21:47:14.98	56.15	11.69	-45.7	-49.0	15.4	0.00e+00	0	43	0	113246208	62	5404
2026-01-05 21:47:15.98	56.32	11.73	-45.6	-48.8	15.6	0.00e+00	0	43	0	115343360	62	5292
2026-01-05 21:47:16.98	56.50	11.77	-45.5	-48.7	15.7	0.00e+00	0	43	0	116391936	62	5226
2026-01-05 21:47:17.98	56.67	11.81	-45.5	-48.6	15.7	0.00e+00	0	43	0	118489088	62	5214
2026-01-05 21:47:18.98	56.84	11.85	-45.4	-48.5	15.9	0.00e+00	0	43	0	120586240	62	5145
2026-01-05 21:47:19.98	57.01	11.88	-45.4	-48.5	15.9	0.00e+00	0	43	0	122683392	62	5107
2026-01-05 21:47:20.98	57.19	11.92	-45.5	-48.6	15.8	0.00e+00	0	43	0	124780544	62	5201
2026-01-05 21:47:21.98	57.36	11.96	-45.6	-48.8	15.6	0.00e+00	0	43	0	125829120	62	5280
2026-01-05 21:47:22.99	57.54	12.00	-45.7	-48.9	15.5	0.00e+00	0	43	0	127926272	62	5376
2026-01-05 21:47:23.99	57.71	12.04	-45.7	-49.0	15.4	0.00e+00	0	43	0	130023424	62	5423
2026-01-05 21:47:24.99	57.89	12.08	-45.8	-49.1	15.3	0.00e+00	0	43	0	132120576	62	5477
2026-01-05 21:47:25.99	58.07	12.11	-45.9	-49.2	15.2	0.00e+00	0	43	0	134217728	62	5583
2026-01-05 21:47:26.99	58.24	12.15	-46.0	-49.4	15.0	0.00e+00	0	43	0	135266304	62	5685
2026-01-05 21:47:27.99	58.42	12.19	-46.1	-49.5	14.9	0.00e+00	0	43	0	137363456	62	5784
2026-01-05 21:47:28.99	58.60	12.22	-46.1	-49.5	14.9	0.00e+00	0	43	0	139460608	62	5763
2026-01-05 21:47:30.00	58.78	12.26	-45.9	-49.3	15.1	0.00e+00	0	43	0	141557760	62	5649
2026-01-05 21:47:31.00	58.96	12.30	-45.8	-49.1	15.3	0.00e+00	0	43	0	143654912	62	5489
2026-01-05 21:47:32.00	59.14	12.34	-45.8	-49.1	15.3	0.00e+00	0	43	0	144703488	62	5525
2026-01-05 21:47:33.00	59.31	12.37	-45.8	-49.0	15.3	0.00e+00	0	43	0	146800640	62	5458
2026-01-05 21:47:33.99	59.49	12.41	-45.8	-49.0	15.4	0.00e+00	0	43	0	148897792	62	5411
2026-01-05 21:47:34.99	59.67	12.44	-45.8	-49.1	15.3	0.00e+00	0	43	0	150994944	62	5499
2026-01-05 21:47:35.99	59.85	12.48	-45.8	-49.0	15.4	0.00e+00	0	43	0	152043520	62	5452
2026-01-05 21:47:36.99	60.03	12.51	-45.8	-49.0	15.4	0.00e+00	0	43	0	154140672	62	5449
2026-01-05 21:47:37.99	60.22	12.55	-45.7	-48.9	15.5	0.00e+00	0	43	0	156237824	62	5391
2026-01-05 21:47:38.99	60.40	12.58	-45.6	-48.9	15.6	0.00e+00	0	43	0	158334976	62	5351
2026-01-05 21:47:39.99	60.58	12.62	-45.6	-48.9	15.5	0.00e+00	0	43	0	160432128	62	5387
2026-01-05 21:47:40.98	60.76	12.65	-45.7	-49.0	15.4	0.00e+00	0	43	0	161480704	62	5422
2026-01-05 21:47:41.98	60.94	12.69	-45.8	-49.1	15.3	0.00e+00	0	43	0	163577856	62	5504
2026-01-05 21:47:42.98	61.13	12.72	-45.8	-49.1	15.3	0.00e+00	0	43	0	165675008	62	5526
2026-01-05 21:47:43.98	61.31	12.76	-45.9	-49.3	15.1	0.00e+00	0	43	0	167772160	62	5600
2026-01-05 21:47:44.98	61.50	12.79	-46.0	-49.4	15.1	0.00e+00	0	43	0	169869312	62	5671
2026-01-05 21:47:45.97	61.68	12.82	-45.9	-49.2	15.2	0.00e+00	0	43	0	170917888	62	5579
2026-01-05 21:47:46.97	61.86	12.86	-45.8	-49.1	15.3	0.00e+00	0	43	0	173015040	62	5504
2026-01-05 21:47:47.97	62.05	12.89	-45.8	-49.0	15.4	0.00e+00	0	43	0	175112192	62	5430
2026-01-05 21:47:48.97	62.24	12.92	-45.7	-48.9	15.5	0.00e+00	0	43	0	177209344	62	5379
2026-01-05 21:47:49.97	62.42	12.95	-45.6	-48.9	15.5	0.00e+00	0	43	0	178257920	62	5390
2026-01-05 21:47:50.96	62.61	12.99	-45.5	-48.7	15.7	0.00e+00	0	43	0	180355072	62	5250
2026-01-05 21:47:51.96	62.79	13.02	-45.5	-48.6	15.8	0.00e+00	0	43	0	182452224	62	5206
2026-01-05 21:47:52.96	62.98	13.05	-45.3	-48.3	16.1	0.00e+00	0	43	0	184549376	62	5020
2026-01-05 21:47:53.96	63.17	13.08	-45.2	-48.2	16.2	0.00e+00	0	43	0	186646528	62	4961
2026-01-05 21:47:54.96	63.36	13.11	-45.1	-48.1	16.3	0.00e+00	0	43	0	187695104	62	4881
2026-01-05 21:47:55.95	63.54	13.15	-45.2	-48.1	16.2	0.00e+00	0	43	0	189792256	62	4926
2026-01-05 21:47:56.95	63.73	13.18	-45.2	-48.2	16.2	0.00e+00	0	43	0	191889408	62	4959
2026-01-05 21:47:57.95	63.92	13.21	-45.2	-48.2	16.2	0.00e+00	0	43	0	193986560	62	4966
2026-01-05 21:47:58.95	64.11	13.24	-45.2	-48.2	16.2	0.00e+00	0	43	0	195035136	62	4956
2026-01-05 21:47:59.95	64.30	13.27	-45.2	-48.2	16.2	0.00e+00	0	43	0	197132288	62	4975
2026-01-05 21:48:00.95	64.49	13.30	-45.2	-48.2	16.2	0.00e+00	0	43	0	199229440	62	4981
2026-01-05 21:48:01.95	64.69	13.33	-45.2	-48.2	16.3	0.00e+00	0	43	0	201326592	62	4929
2026-01-05 21:48:02.95	64.88	13.36	-45.1	-48.1	16.3	0.00e+00	0	43	0	203423744	62	4892
2026-01-05 21:48:03.94	65.07	13.39	-45.1	-48.0	16.4	0.00e+00	0	43	0	204472320	62	4865
2026-01-05 21:48:04.94	65.26	13.41	-44.9	-47.8	16.6	0.00e+00	0	43	0	206569472	61	5012
2026-01-05 21:48:05.94	65.45	13.44	-44.9	-47.8	16.7	0.00e+00	0	43	0	208666624	61	4992
2026-01-05 21:48:06.94	65.64	13.47	-44.7	-47.6	16.8	0.00e+00	0	43	0	210763776	61	4872
2026-01-05 21:48:07.94	65.84	13.50	-44.7	-47.5	16.8	0.00e+00	0	43	0	212860928	61	4859
2026-01-05 21:48:08.94	66.03	13.53	-44.7	-47.5	16.9	0.00e+00	0	43	0	213909504	61	4826
2026-01-05 21:48:09.93	66.22	13.56	-44.8	-47.6	16.8	0.00e+00	0	43	0	216006656	61	4902
2026-01-05 21:48:10.93	66.42	13.58	-44.8	-47.6	16.8	0.00e+00	0	43	0	218103808	61	4884
2026-01-05 21:48:11.93	66.61	13.61	-44.8	-47.6	16.8	0.00e+00	0	43	0	220200960	61	4916
2026-01-05 21:48:12.93	66.81	13.64	-44.9	-47.8	16.6	0.00e+00	0	43	0	222298112	61	5026
2026-01-05 21:48:13.94	67.01	13.66	-45.0	-48.0	16.4	0.00e+00	0	43	0	223346688	61	5131
2026-01-05 21:48:14.94	67.20	13.69	-45.1	-48.1	16.3	0.00e+00	0	43	0	225443840	61	5200
2026-01-05 21:48:15.93	67.40	13.72	-45.2	-48.3	16.1	0.00e+00	0	43	0	227540992	61	5303
2026-01-05 21:48:16.93	67.59	13.74	-45.3	-48.3	16.1	0.00e+00	0	43	0	229638144	61	5340
2026-01-05 21:48:17.93	67.79	13.77	-45.3	-48.4	16.0	0.00e+00	0	43	0	230686720	61	5368
2026-01-05 21:48:18.93	67.99	13.79	-45.4	-48.4	16.0	0.00e+00	0	43	0	232783872	61	5391
2026-01-05 21:48:19.93	68.18	13.82	-45.5	-48.6	15.9	0.00e+00	0	43	0	234881024	61	5478
2026-01-05 21:48:20.92	68.38	13.84	-45.5	-48.6	15.8	0.00e+00	0	43	0	236978176	61	5513
2026-01-05 21:48:21.92	68.58	13.87	-45.5	-48.6	15.8	0.00e+00	0	43	0	239075328	61	5508
2026-01-05 21:48:22.92	68.78	13.89	-45.5	-48.6	15.9	0.00e+00	0	43	0	240123904	61	5493
2026-01-05 21:48:23.92	68.97	13.91	-45.6	-48.7	15.7	0.00e+00	0	43	0	242221056	61	5578
2026-01-05 21:48:24.92	69.17	13.94	-45.6	-48.6	15.8	0.00e+00	0	43	0	244318208	61	5520
2026-01-05 21:48:25.91	69.37	13.96	-45.5	-48.5	15.9	0.00e+00	0	43	0	246415360	61	5457
2026-01-05 21:48:26.91	69.57	13.98	-45.5	-48.6	15.9	0.00e+00	0	43	0	248512512	61	5491
2026-01-05 21:48:27.91	69.77	14.00	-45.5	-48.5	15.9	0.00e+00	0	43	0	249561088	61	5461
2026-01-05 21:48:28.91	69.97	14.03	-45.5	-48.6	15.8	0.00e+00	0	43	0	251658240	61	5510
2026-01-05 21:48:29.91	70.17	14.05	-45.5	-48.6	15.8	0.00e+00	0	43	0	253755392	61	5525
2026-01-05 21:48:30.91	70.37	14.07	-45.6	-48.8	15.7	0.00e+00	0	43	0	255852544	61	5621
2026-01-05 21:48:31.90	70.57	14.09	-45.7	-48.9	15.6	0.00e+00	0	43	0	256901120	62	5369
2026-01-05 21:48:32.90	70.77	14.11	-45.7	-48.8	15.7	0.00e+00	0	43	0	258998272	62	5336
2026-01-05 21:48:33.90	70.97	14.13	-45.6	-48.8	15.7	0.00e+00	0	43	0	261095424	62	5305
2026-01-05 21:48:34.90	71.18	14.15	-45.6	-48.8	15.7	0.00e+00	0	43	0	263192576	62	5280
2026-01-05 21:48:35.90	71.38	14.17	-45.5	-48.6	15.9	0.00e+00	0	43	0	265289728	62	5197
2026-01-05 21:48:36.90	71.58	14.19	-45.5	-48.6	15.9	0.00e+00	0	43	0	266338304	62	5179
2026-01-05 21:48:37.90	71.78	14.21	-45.6	-48.7	15.8	0.00e+00	0	43	0	268435456	62	5230
2026-01-05 21:48:38.90	71.99	14.23	-45.5	-48.6	15.8	0.00e+00	0	43	0	270532608	62	5208
2026-01-05 21:48:39.89	72.19	14.25	-45.7	-48.8	15.7	0.00e+00	0	43	0	272629760	62	5306
2026-01-05 21:48:40.89	72.39	14.27	-45.6	-48.7	15.8	0.00e+00	0	43	0	273678336	62	5243
2026-01-05 21:48:41.88	72.59	14.29	-45.5	-48.5	16.0	0.00e+00	0	43	0	275775488	62	5143
2026-01-05 21:48:42.88	72.80	14.31	-45.5	-48.5	16.0	0.00e+00	0	43	0	277872640	62	5138
2026-01-05 21:48:43.88	73.00	14.32	-45.5	-48.6	15.9	0.00e+00	0	43	0	279969792	62	5185
2026-01-05 21:48:44.88	73.21	14.34	-45.4	-48.4	16.1	0.00e+00	0	43	0	282066944	62	5062
2026-01-05 21:48:45.87	73.41	14.36	-45.2	-48.2	16.3	0.00e+00	0	43	0	283115520	62	4977
2026-01-05 21:48:46.87	73.61	14.37	-45.2	-48.2	16.3	0.00e+00	0	43	0	285212672	62	4928
2026-01-05 21:48:47.87	73.82	14.39	-45.2	-48.2	16.3	0.00e+00	0	43	0	287309824	62	4931
2026-01-05 21:48:48.87	74.02	14.41	-45.3	-48.3	16.2	0.00e+00	0	43	0	289406976	62	5006
2026-01-05 21:48:49.86	74.23	14.42	-45.2	-48.2	16.3	0.00e+00	0	43	0	291504128	62	4969
2026-01-05 21:48:50.86	74.43	14.44	-45.3	-48.4	16.2	0.00e+00	0	43	0	292552704	62	5045
2026-01-05 21:48:51.86	74.64	14.45	-45.3	-48.4	16.1	0.00e+00	0	43	0	294649856	62	5069
2026-01-05 21:48:52.85	74.84	14.47	-45.3	-48.4	16.1	0.00e+00	0	43	0	296747008	62	5048
2026-01-05 21:48:53.85	75.05	14.48	-45.3	-48.3	16.2	0.00e+00	0	43	0	298844160	62	4998
2026-01-05 21:48:54.85	75.26	14.49	-45.2	-48.2	16.3	0.00e+00	0	43	0	299892736	62	4966
2026-01-05 21:48:55.85	75.46	14.51	-45.2	-48.2	16.3	0.00e+00	0	43	0	301989888	62	4955
2026-01-05 21:48:56.85	75.67	14.52	-45.2	-48.2	16.3	0.00e+00	0	43	0	304087040	62	4936
2026-01-05 21:48:57.85	75.88	14.53	-45.3	-48.3	16.2	0.00e+00	0	43	0	306184192	62	4990
2026-01-05 21:48:58.84	76.08	14.55	-45.2	-48.1	16.4	0.00e+00	0	43	0	308281344	62	4911
2026-01-05 21:48:59.84	76.29	14.56	-45.2	-48.1	16.4	0.00e+00	0	43	0	309329920	62	4917
2026-01-05 21:49:00.83	76.50	14.57	-45.1	-48.0	16.5	0.00e+00	0	43	0	311427072	62	4866
2026-01-05 21:49:01.83	76.71	14.58	-45.1	-48.1	16.4	0.00e+00	0	43	0	313524224	62	4872
2026-01-05 21:49:02.83	76.91	14.59	-45.1	-48.0	16.4	0.00e+00	0	43	0	315621376	62	4867
2026-01-05 21:49:03.82	77.12	14.60	-45.1	-48.1	16.4	0.00e+00	0	43	0	317718528	62	4878
2026-01-05 21:49:04.82	77.33	14.61	-45.1	-48.0	16.5	0.00e+00	0	43	0	318767104	62	4859
2026-01-05 21:49:05.82	77.54	14.62	-45.1	-48.0	16.5	0.00e+00	0	43	0	320864256	62	4851
2026-01-05 21:49:06.82	77.74	14.63	-45.0	-47.9	16.6	0.00e+00	0	43	0	322961408	62	4805
2026-01-05 21:49:07.81	77.95	14.64	-45.0	-47.9	16.6	0.00e+00	0	43	0	325058560	62	4766
2026-01-05 21:49:08.81	78.16	14.65	-45.1	-48.0	16.5	0.00e+00	0	43	0	326107136	62	4820
2026-01-05 21:49:09.81	78.37	14.66	-45.0	-47.9	16.6	0.00e+00	0	43	0	328204288	62	4760
2026-01-05 21:49:10.80	78.58	14.67	-44.9	-47.8	16.7	0.00e+00	0	43	0	330301440	61	5008
2026-01-05 21:49:11.80	78.79	14.68	-44.8	-47.7	16.8	0.00e+00	0	43	0	332398592	61	4944
2026-01-05 21:49:12.80	79.00	14.69	-44.7	-47.5	17.0	0.00e+00	0	43	0	334495744	61	4840
2026-01-05 21:49:13.79	79.20	14.69	-44.6	-47.4	17.0	0.00e+00	0	43	0	335544320	61	4776
2026-01-05 21:49:14.79	79.41	14.70	-44.6	-47.4	17.0	0.00e+00	0	43	0	337641472	61	4782
2026-01-05 21:49:15.79	79.62	14.71	-44.7	-47.4	17.0	0.00e+00	0	43	0	339738624	61	4811
2026-01-05 21:49:16.79	79.83	14.71	-44.8	-47.6	16.9	0.00e+00	0	43	0	341835776	61	4885
2026-01-05 21:49:17.78	80.04	14.72	-44.7	-47.5	16.9	0.00e+00	0	44	0	342884352	61	4835
2026-01-05 21:49:18.78	80.25	14.72	-44.7	-47.4	17.0	0.00e+00	0	43	0	344981504	61	4814
2026-01-05 21:49:19.77	80.46	14.73	-44.8	-47.6	16.9	0.00e+00	0	43	0	347078656	61	4881
2026-01-05 21:49:20.77	80.67	14.73	-44.8	-47.7	16.8	0.00e+00	0	43	0	349175808	61	4938
2026-01-05 21:49:21.77	80.88	14.74	-44.8	-47.6	16.8	0.00e+00	0	43	0	351272960	61	4898
2026-01-05 21:49:22.77	81.09	14.74	-44.7	-47.6	16.8	0.00e+00	0	43	0	352321536	61	4894
2026-01-05 21:49:23.77	81.30	14.75	-44.6	-47.5	17.0	0.00e+00	0	43	0	354418688	61	4833
2026-01-05 21:49:24.77	81.51	14.75	-44.6	-47.5	17.0	0.00e+00	0	43	0	356515840	61	4820
2026-01-05 21:49:25.77	81.72	14.75	-44.6	-47.4	17.0	0.00e+00	0	43	0	358612992	61	4813
2026-01-05 21:49:26.76	81.93	14.76	-44.4	-47.2	17.2	0.00e+00	0	43	0	360710144	60	4955
2026-01-05 21:49:27.76	82.14	14.76	-44.3	-47.1	17.4	0.00e+00	0	43	0	361758720	60	4887
2026-01-05 21:49:28.76	82.35	14.76	-44.3	-47.0	17.4	0.00e+00	0	43	0	363855872	60	4851
2026-01-05 21:49:29.76	82.56	14.76	-44.4	-47.2	17.3	0.00e+00	0	43	0	365953024	60	4934
2026-01-05 21:49:30.76	82.77	14.76	-44.5	-47.3	17.2	0.00e+00	0	43	0	368050176	60	5023
2026-01-05 21:49:31.76	82.98	14.76	-44.5	-47.3	17.1	0.00e+00	0	43	0	370147328	60	5033
2026-01-05 21:49:32.77	83.19	14.76	-44.6	-47.4	17.1	0.00e+00	0	43	0	371195904	60	5051
2026-01-05 21:49:33.76	83.40	14.77	-44.5	-47.3	17.1	0.00e+00	0	43	0	373293056	60	5005
2026-01-05 21:49:34.76	83.61	14.76	-44.4	-47.3	17.2	0.00e+00	0	44	0	375390208	60	4998
2026-01-05 21:49:35.76	83.82	14.76	-44.3	-47.1	17.3	0.00e+00	0	43	0	377487360	60	4914
2026-01-05 21:49:36.76	84.03	14.76	-44.2	-47.0	17.5	0.00e+00	0	43	0	378535936	60	4829
2026-01-05 21:49:37.75	84.24	14.76	-44.1	-46.8	17.6	0.00e+00	0	43	0	380633088	60	4745
2026-01-05 21:49:38.75	84.45	14.76	-44.0	-46.7	17.7	0.00e+00	0	43	0	382730240	60	4699
2026-01-05 21:49:39.75	84.66	14.76	-44.1	-46.8	17.6	0.00e+00	0	43	0	384827392	60	4716
2026-01-05 21:49:40.75	84.87	14.76	-44.1	-46.8	17.6	0.00e+00	0	43	0	386924544	60	4738
2026-01-05 21:49:41.75	85.08	14.75	-44.1	-46.8	17.7	0.00e+00	0	43	0	387973120	60	4714
2026-01-05 21:49:42.75	85.30	14.75	-44.2	-46.9	17.6	0.00e+00	0	43	0	390070272	60	4761
2026-01-05 21:49:43.75	85.51	14.75	-44.2	-46.9	17.6	0.00e+00	0	43	0	392167424	60	4774
2026-01-05 21:49:44.75	85.72	14.74	-44.2	-46.9	17.5	0.00e+00	0	43	0	394264576	60	4790
2026-01-05 21:49:45.75	85.93	14.74	-44.1	-46.8	17.6	0.00e+00	0	43	0	395313152	60	4741
2026-01-05 21:49:46.75	86.14	14.74	-44.1	-46.8	17.6	0.00e+00	0	43	0	397410304	60	4732
2026-01-05 21:49:47.75	86.35	14.73	-44.2	-46.9	17.6	0.00e+00	0	43	0	399507456	60	4770
2026-01-05 21:49:48.75	86.56	14.73	-44.3	-47.0	17.4	0.00e+00	0	43	0	401604608	60	4839
2026-01-05 21:49:49.75	86.77	14.72	-44.4	-47.1	17.3	0.00e+00	0	43	0	403701760	60	4920
2026-01-05 21:49:50.75	86.98	14.71	-44.5	-47.3	17.1	0.00e+00	0	43	0	404750336	60	5021
2026-01-05 21:49:51.75	87.19	14.71	-44.6	-47.5	17.0	0.00e+00	0	43	0	406847488	60	5118
2026-01-05 21:49:52.75	87.40	14.70	-44.7	-47.5	16.9	0.00e+00	0	43	0	408944640	60	5140
2026-01-05 21:49:53.74	87.61	14.69	-44.7	-47.5	16.9	0.00e+00	0	43	0	411041792	60	5142
2026-01-05 21:49:54.75	87.82	14.69	-44.5	-47.3	17.2	0.00e+00	0	43	0	413138944	60	5011
2026-01-05 21:49:55.74	88.02	14.68	-44.4	-47.1	17.3	0.00e+00	0	43	0	414187520	60	4905
2026-01-05 21:49:56.74	88.23	14.67	-44.4	-47.1	17.3	0.00e+00	0	43	0	416284672	60	4912
2026-01-05 21:49:57.74	88.44	14.66	-44.4	-47.1	17.3	0.00e+00	0	43	0	418381824	60	4919
2026-01-05 21:49:58.74	88.65	14.65	-44.3	-47.0	17.4	0.00e+00	0	43	0	420478976	60	4864
2026-01-05 21:49:59.73	88.86	14.65	-44.4	-47.2	17.2	0.00e+00	0	43	0	421527552	60	4937
2026-01-05 21:50:00.73	89.07	14.64	-44.5	-47.3	17.1	0.00e+00	0	43	0	423624704	60	5016
2026-01-05 21:50:01.73	89.28	14.63	-44.6	-47.4	17.1	0.00e+00	0	43	0	425721856	60	5074
2026-01-05 21:50:02.73	89.49	14.62	-44.6	-47.4	17.0	0.00e+00	0	43	0	427819008	60	5082
2026-01-05 21:50:03.73	89.70	14.61	-44.6	-47.4	17.1	0.00e+00	0	43	0	429916160	60	5053
2026-01-05 21:50:04.72	89.90	14.59	-44.6	-47.4	17.1	0.00e+00	0	43	0	430964736	60	5053
2026-01-05 21:50:05.72	90.11	14.58	-44.6	-47.3	17.1	0.00e+00	0	43	0	433061888	60	5040
2026-01-05 21:50:06.72	90.32	14.57	-44.3	-47.0	17.4	0.00e+00	0	43	0	435159040	60	4838
2026-01-05 21:50:07.72	90.53	14.56	-44.1	-46.7	17.7	0.00e+00	0	43	0	437256192	60	4702
2026-01-05 21:50:08.72	90.73	14.55	-44.1	-46.7	17.7	0.00e+00	0	43	0	439353344	60	4689
2026-01-05 21:50:09.71	90.94	14.54	-44.2	-46.9	17.6	0.00e+00	0	43	0	440401920	60	4773
2026-01-05 21:50:10.70	91.15	14.52	-44.2	-46.9	17.5	0.00e+00	0	43	0	442499072	60	4774
2026-01-05 21:50:11.70	91.35	14.51	-44.2	-46.9	17.5	0.00e+00	0	43	0	444596224	60	4781
2026-01-05 21:50:12.70	91.56	14.50	-44.4	-47.1	17.4	0.00e+00	0	43	0	446693376	60	4876
2026-01-05 21:50:13.70	91.77	14.48	-44.4	-47.2	17.3	0.00e+00	0	43	0	447741952	60	4929
2026-01-05 21:50:14.70	91.97	14.47	-44.4	-47.1	17.4	0.00e+00	0	43	0	449839104	60	4880
2026-01-05 21:50:15.70	92.18	14.45	-44.4	-47.1	17.4	0.00e+00	0	43	0	451936256	60	4878
2026-01-05 21:50:16.69	92.39	14.44	-44.3	-47.0	17.5	0.00e+00	0	43	0	454033408	60	4839
2026-01-05 21:50:17.69	92.59	14.42	-44.2	-46.9	17.5	0.00e+00	0	43	0	456130560	60	4774
2026-01-05 21:50:18.70	92.80	14.41	-44.1	-46.7	17.7	0.00e+00	0	43	0	457179136	60	4696
2026-01-05 21:50:19.70	93.01	14.39	-44.0	-46.5	17.9	0.00e+00	0	43	0	459276288	60	4592
2026-01-05 21:50:20.69	93.21	14.38	-43.9	-46.5	17.9	0.00e+00	0	43	0	461373440	59	4817
2026-01-05 21:50:21.69	93.41	14.36	-44.0	-46.5	17.8	0.00e+00	0	43	0	463470592	59	4836
2026-01-05 21:50:22.68	93.62	14.34	-43.8	-46.3	18.0	0.00e+00	0	43	0	465567744	59	4720
2026-01-05 21:50:23.68	93.82	14.33	-43.8	-46.2	18.1	0.00e+00	0	43	0	466616320	59	4684
2026-01-05 21:50:24.68	94.03	14.31	-43.8	-46.3	18.1	0.00e+00	0	43	0	468713472	59	4727
2026-01-05 21:50:25.68	94.23	14.29	-43.9	-46.4	17.9	0.00e+00	0	43	0	470810624	59	4786
2026-01-05 21:50:26.67	94.43	14.27	-43.9	-46.3	18.0	0.00e+00	0	43	0	472907776	59	4753
2026-01-05 21:50:27.67	94.64	14.25	-43.9	-46.4	17.9	0.00e+00	0	43	0	473956352	59	4793
2026-01-05 21:50:28.66	94.84	14.23	-44.1	-46.7	17.7	0.00e+00	0	43	0	476053504	59	4950
2026-01-05 21:50:29.66	95.04	14.22	-44.2	-46.8	17.6	0.00e+00	0	43	0	478150656	59	5009
2026-01-05 21:50:30.65	95.25	14.20	-44.2	-46.8	17.6	0.00e+00	0	43	0	480247808	59	5004
2026-01-05 21:50:31.65	95.45	14.18	-44.2	-46.7	17.6	0.00e+00	0	43	0	482344960	59	4966
2026-01-05 21:50:32.65	95.65	14.16	-44.3	-46.8	17.5	0.00e+00	0	43	0	483393536	59	5030
2026-01-05 21:50:33.65	95.85	14.14	-44.2	-46.8	17.6	0.00e+00	0	43	0	485490688	59	4990
2026-01-05 21:50:34.64	96.05	14.12	-44.2	-46.8	17.6	0.00e+00	0	43	0	487587840	59	4985
2026-01-05 21:50:35.64	96.26	14.09	-44.0	-46.6	17.7	0.00e+00	0	43	0	489684992	59	4877
2026-01-05 21:50:36.64	96.46	14.07	-43.9	-46.4	17.9	0.00e+00	0	43	0	490733568	59	4763
2026-01-05 21:50:37.63	96.66	14.05	-43.8	-46.4	17.9	0.00e+00	0	43	0	492830720	59	4779
2026-01-05 21:50:38.63	96.86	14.03	-43.9	-46.4	17.9	0.00e+00	0	43	0	494927872	59	4800
2026-01-05 21:50:39.63	97.06	14.01	-43.7	-46.2	18.1	0.00e+00	0	44	0	497025024	59	4695
2026-01-05 21:50:40.63	97.26	13.98	-43.6	-46.1	18.2	0.00e+00	0	43	0	499122176	59	4620
2026-01-05 21:50:41.62	97.46	13.96	-43.7	-46.2	18.1	0.00e+00	0	43	0	500170752	59	4668
2026-01-05 21:50:42.62	97.66	13.94	-43.8	-46.2	18.1	0.00e+00	0	43	0	502267904	59	4696
2026-01-05 21:50:43.61	97.86	13.92	-43.7	-46.2	18.2	0.00e+00	0	43	0	504365056	59	4654
2026-01-05 21:50:44.61	98.06	13.89	-43.8	-46.3	18.1	0.00e+00	0	44	0	506462208	59	4721
2026-01-05 21:50:45.61	98.25	13.87	-43.7	-46.2	18.1	0.00e+00	0	43	0	508559360	59	4679
2026-01-05 21:50:46.61	98.45	13.84	-43.9	-46.4	17.9	0.00e+00	0	44	0	509607936	59	4789
2026-01-05 21:50:47.60	98.65	13.82	-44.0	-46.5	17.8	0.00e+00	0	43	0	511705088	59	4842
2026-01-05 21:50:48.60	98.85	13.79	-44.0	-46.6	17.8	0.00e+00	0	43	0	513802240	59	4876
2026-01-05 21:50:49.60	99.05	13.77	-44.2	-46.8	17.6	0.00e+00	0	43	0	515899392	59	4997
2026-01-05 21:50:50.59	99.24	13.74	-44.2	-46.8	17.6	0.00e+00	0	43	0	516947968	59	4986
2026-01-05 21:50:51.59	99.44	13.72	-44.2	-46.8	17.6	0.00e+00	0	43	0	519045120	59	5015
2026-01-05 21:50:52.58	99.63	13.69	-44.3	-46.9	17.4	0.00e+00	0	43	0	521142272	59	5073
2026-01-05 21:50:53.59	99.83	13.67	-44.3	-46.9	17.4	0.00e+00	0	43	0	523239424	59	5090
2026-01-05 21:50:54.59	100.03	13.64	-44.1	-46.7	17.7	0.00e+00	0	43	0	525336576	59	4955
2026-01-05 21:50:55.58	100.22	13.61	-44.0	-46.5	17.8	0.00e+00	0	43	0	526385152	59	4839
2026-01-05 21:50:56.58	100.42	13.58	-43.9	-46.4	17.9	0.00e+00	0	43	0	528482304	59	4764
2026-01-05 21:50:57.58	100.61	13.56	-43.9	-46.4	17.9	0.00e+00	0	43	0	530579456	59	4810
2026-01-05 21:50:58.57	100.80	13.53	-43.9	-46.4	17.9	0.00e+00	0	43	0	532676608	59	4807
2026-01-05 21:50:59.57	101.00	13.50	-44.0	-46.6	17.8	0.00e+00	0	43	0	534773760	59	4878
2026-01-05 21:51:00.57	101.19	13.47	-44.0	-46.6	17.8	0.00e+00	0	43	0	535822336	59	4890
2026-01-05 21:51:01.56	101.38	13.45	-43.9	-46.4	17.9	0.00e+00	0	43	0	537919488	59	4795
2026-01-05 21:51:02.56	101.58	13.42	-43.8	-46.3	18.0	0.00e+00	0	43	0	540016640	59	4759
2026-01-05 21:51:03.57	101.77	13.39	-43.9	-46.4	17.9	0.00e+00	0	43	0	542113792	59	4780
2026-01-05 21:51:04.56	101.96	13.36	-43.9	-46.5	17.9	0.00e+00	0	43	0	543162368	59	4817
2026-01-05 21:51:05.57	102.16	13.33	-44.1	-46.6	17.7	0.00e+00	0	43	0	545259520	59	4898
2026-01-05 21:51:06.56	102.35	13.30	-44.2	-46.8	17.5	0.00e+00	0	43	0	547356672	59	5005
2026-01-05 21:51:07.56	102.54	13.27	-44.3	-46.9	17.4	0.00e+00	0	43	0	549453824	59	5061
2026-01-05 21:51:08.56	102.73	13.24	-44.4	-47.1	17.3	0.00e+00	0	43	0	551550976	59	5174
2026-01-05 21:51:09.55	102.92	13.21	-44.6	-47.3	17.1	0.00e+00	0	43	0	552599552	59	5295
2026-01-05 21:51:10.55	103.11	13.18	-44.6	-47.4	17.0	0.00e+00	0	43	0	554696704	59	5376
2026-01-05 21:51:11.54	103.30	13.15	-44.7	-47.5	16.9	0.00e+00	0	43	0	556793856	60	5118
2026-01-05 21:51:12.54	103.49	13.11	-44.7	-47.5	16.9	0.00e+00	0	43	0	558891008	60	5128
2026-01-05 21:51:13.54	103.68	13.08	-44.7	-47.5	16.9	0.00e+00	0	43	0	559939584	60	5159
2026-01-05 21:51:14.53	103.86	13.05	-44.7	-47.5	17.0	0.00e+00	0	43	0	562036736	60	5112
2026-01-05 21:51:15.53	104.05	13.02	-44.8	-47.6	16.9	0.00e+00	0	43	0	564133888	60	5160
2026-01-05 21:51:16.53	104.24	12.99	-44.8	-47.7	16.7	0.00e+00	0	43	0	566231040	60	5246
2026-01-05 21:51:17.52	104.43	12.95	-44.8	-47.6	16.8	0.00e+00	0	43	0	568328192	60	5210
2026-01-05 21:51:18.52	104.61	12.92	-44.9	-47.7	16.7	0.00e+00	0	43	0	569376768	60	5266
2026-01-05 21:51:19.52	104.80	12.89	-44.8	-47.7	16.8	0.00e+00	0	43	0	571473920	60	5236
2026-01-05 21:51:20.52	104.99	12.86	-44.9	-47.7	16.7	0.00e+00	0	43	0	573571072	60	5240
2026-01-05 21:51:21.52	105.17	12.82	-44.9	-47.8	16.6	0.00e+00	0	43	0	575668224	60	5331
2026-01-05 21:51:22.51	105.36	12.79	-44.8	-47.6	16.8	0.00e+00	0	43	0	577765376	60	5189
2026-01-05 21:51:23.51	105.54	12.75	-44.8	-47.6	16.8	0.00e+00	0	43	0	578813952	60	5172
2026-01-05 21:51:24.51	105.73	12.72	-44.7	-47.5	16.9	0.00e+00	0	43	0	580911104	60	5145
2026-01-05 21:51:25.50	105.91	12.69	-44.8	-47.6	16.8	0.00e+00	0	43	0	583008256	60	5191
2026-01-05 21:51:26.51	106.09	12.65	-44.9	-47.7	16.7	0.00e+00	0	43	0	585105408	60	5263
2026-01-05 21:51:27.51	106.28	12.62	-45.1	-48.0	16.4	0.00e+00	0	43	0	586153984	60	5450
2026-01-05 21:51:28.51	106.46	12.58	-45.3	-48.4	16.1	0.00e+00	0	43	0	588251136	61	5345
2026-01-05 21:51:29.51	106.64	12.55	-45.6	-48.8	15.6	0.00e+00	0	43	0	590348288	61	5650
2026-01-05 21:51:30.50	106.82	12.51	-45.8	-49.1	15.4	0.00e+00	0	43	0	592445440	62	5523
2026-01-05 21:51:31.50	107.01	12.48	-46.0	-49.4	15.1	0.00e+00	0	43	0	594542592	62	5693
2026-01-05 21:51:32.50	107.19	12.44	-46.0	-49.5	14.9	7.00e-07	0	43	0	595591168	62	5782
2026-01-05 21:51:33.50	107.37	12.40	-46.1	-49.7	14.8	0.00e+00	0	43	0	597688320	62	5874
2026-01-05 21:51:34.50	107.55	12.37	-46.3	-49.8	14.7	7.00e-07	0	43	0	599785472	63	5628
2026-01-05 21:51:35.49	107.73	12.33	-46.3	-49.9	14.6	0.00e+00	0	43	0	601882624	63	5667
2026-01-05 21:51:36.49	107.91	12.29	-46.4	-50.0	14.5	7.00e-07	0	43	0	602931200	63	5739
2026-01-05 21:51:37.49	108.09	12.26	-46.5	-50.2	14.3	3.00e-06	0	43	0	605028352	63	5879
2026-01-05 21:51:38.49	108.26	12.22	-46.6	-50.4	13.9	2.20e-06	0	43	0	607125504	64	5701
2026-01-05 21:51:39.49	108.44	12.18	-46.6	-50.5	13.9	1.50e-06	0	43	0	609222656	64	5739
2026-01-05 21:51:40.49	108.62	12.15	-46.7	-50.5	13.9	5.30e-06	0	43	0	611319808	64	5747
2026-01-05 21:51:41.48	108.80	12.11	-46.6	-50.3	14.0	6.80e-06	0	43	0	612368384	64	5609
2026-01-05 21:51:42.48	108.97	12.07	-46.4	-50.1	14.3	7.00e-07	0	43	0	614465536	64	5471
2026-01-05 21:51:43.47	109.15	12.03	-46.3	-49.8	14.5	0.00e+00	0	43	0	616562688	64	5338
2026-01-05 21:51:44.47	109.32	11.99	-46.2	-49.7	14.7	0.00e+00	0	43	0	618659840	64	5221
2026-01-05 21:51:45.47	109.50	11.96	-46.0	-49.4	15.0	0.00e+00	0	43	0	620756992	63	5396
2026-01-05 21:51:46.47	109.68	11.92	-46.0	-49.3	15.1	0.00e+00	0	43	0	621805568	63	5332
2026-01-05 21:51:47.46	109.85	11.88	-46.1	-49.5	15.0	0.00e+00	0	43	0	623902720	63	5410
2026-01-05 21:51:48.46	110.02	11.84	-46.0	-49.4	15.0	7.00e-07	0	43	0	625999872	63	5391
2026-01-05 21:51:49.46	110.20	11.80	-46.0	-49.4	15.0	0.00e+00	0	43	0	628097024	63	5376
2026-01-05 21:51:50.45	110.37	11.76	-46.1	-49.6	14.8	0.00e+00	0	43	0	629145600	63	5474
2026-01-05 21:51:51.45	110.54	11.72	-46.3	-49.7	14.7	0.00e+00	0	43	0	631242752	63	5584
2026-01-05 21:51:52.45	110.71	11.68	-46.3	-49.8	14.6	7.00e-07	0	43	0	633339904	63	5640
2026-01-05 21:51:53.44	110.88	11.64	-46.4	-50.0	14.4	7.00e-07	0	43	0	635437056	63	5734
2026-01-05 21:51:54.44	111.06	11.60	-46.4	-50.1	14.4	1.50e-06	0	43	0	637534208	63	5789
2026-01-05 21:51:55.44	111.23	11.56	-46.5	-50.3	14.1	3.00e-06	0	43	0	638582784	63	5948
2026-01-05 21:51:56.44	111.40	11.52	-46.6	-50.5	14.0	0.00e+00	0	43	0	640679936	63	6082
2026-01-05 21:51:57.43	111.57	11.48	-46.6	-50.5	13.8	6.80e-06	0	43	0	642777088	64	5783
2026-01-05 21:51:58.44	111.74	11.44	-46.5	-50.5	13.8	3.80e-06	0	43	0	644874240	64	5761
2026-01-05 21:51:59.43	111.91	11.40	-46.7	-50.5	13.8	3.80e-06	0	43	0	646971392	64	5774
2026-01-05 21:52:00.43	112.08	11.36	-46.3	-50.3	14.0	2.20e-06	0	44	0	648019968	64	5623
2026-01-05 21:52:01.43	112.24	11.32	-46.4	-50.2	14.2	1.50e-06	0	43	0	650117120	64	5529
2026-01-05 21:52:02.43	112.41	11.28	-46.0	-49.9	14.4	7.00e-07	0	43	0	652214272	64	5389
2026-01-05 21:52:03.42	112.58	11.24	-46.1	-49.9	14.6	7.00e-07	0	43	0	654311424	63	5663
2026-01-05 21:52:04.42	112.75	11.20	-46.3	-49.8	14.6	0.00e+00	0	43	0	655360000	63	5636
2026-01-05 21:52:05.42	112.91	11.15	-46.2	-49.9	14.5	0.00e+00	0	43	0	657457152	63	5712
2026-01-05 21:52:06.42	113.08	11.11	-46.2	-49.8	14.6	7.00e-07	0	43	0	659554304	63	5598
2026-01-05 21:52:07.41	113.24	11.07	-46.2	-49.6	14.7	0.00e+00	0	43	0	661651456	63	5506
2026-01-05 21:52:08.41	113.41	11.03	-46.2	-49.7	14.7	0.00e+00	0	43	0	663748608	63	5586
2026-01-05 21:52:09.40	113.57	10.99	-46.2	-49.7	14.7	7.00e-07	0	43	0	664797184	63	5569
2026-01-05 21:52:10.40	113.74	10.94	-46.2	-49.7	14.7	7.00e-07	0	43	0	666894336	63	5579
2026-01-05 21:52:11.40	113.90	10.90	-46.2	-49.6	14.8	2.20e-06	0	43	0	668991488	63	5478
2026-01-05 21:52:12.40	114.06	10.86	-46.0	-49.3	15.1	0.00e+00	0	43	0	671088640	63	5311
2026-01-05 21:52:13.40	114.23	10.82	-45.8	-49.2	15.2	0.00e+00	0	43	0	672137216	63	5231
2026-01-05 21:52:14.39	114.39	10.77	-45.9	-49.3	15.1	0.00e+00	0	43	0	674234368	63	5300
2026-01-05 21:52:15.39	114.55	10.73	-45.8	-49.2	15.2	0.00e+00	0	43	0	676331520	63	5224
2026-01-05 21:52:16.39	114.71	10.69	-45.7	-49.2	15.1	7.00e-07	0	43	0	678428672	63	5251
2026-01-05 21:52:17.39	114.87	10.64	-45.8	-49.0	15.3	0.00e+00	0	43	0	680525824	63	5151
2026-01-05 21:52:18.39	115.03	10.60	-45.6	-48.7	15.6	0.00e+00	0	43	0	681574400	63	4980
2026-01-05 21:52:19.39	115.19	10.56	-45.5	-48.7	15.7	0.00e+00	0	43	0	683671552	62	5270
2026-01-05 21:52:20.39	115.35	10.51	-45.6	-48.7	15.6	0.00e+00	0	43	0	685768704	62	5261
2026-01-05 21:52:21.39	115.51	10.47	-45.7	-48.9	15.5	0.00e+00	0	43	0	687865856	62	5364
2026-01-05 21:52:22.38	115.67	10.43	-45.6	-49.0	15.3	0.00e+00	0	44	0	689963008	62	5432
2026-01-05 21:52:23.38	115.83	10.38	-45.7	-49.0	15.3	0.00e+00	0	43	0	691011584	62	5424
2026-01-05 21:52:24.37	115.98	10.34	-45.7	-49.0	15.3	0.00e+00	0	44	0	693108736	62	5427
2026-01-05 21:52:25.37	116.14	10.29	-45.6	-49.0	15.3	0.00e+00	0	43	0	695205888	62	5460
2026-01-05 21:52:26.37	116.30	10.25	-45.8	-49.2	15.2	0.00e+00	0	43	0	697303040	62	5545
2026-01-05 21:52:27.37	116.46	10.21	-45.7	-49.1	15.2	0.00e+00	0	44	0	699400192	62	5525
2026-01-05 21:52:28.36	116.61	10.16	-45.7	-49.0	15.3	0.00e+00	0	43	0	700448768	62	5449
2026-01-05 21:52:29.36	116.77	10.12	-45.7	-49.0	15.4	0.00e+00	0	43	0	702545920	62	5407
2026-01-05 21:52:30.36	116.92	10.07	-45.6	-48.8	15.5	0.00e+00	0	43	0	704643072	62	5329
2026-01-05 21:52:31.36	117.08	10.03	-45.4	-48.5	15.8	0.00e+00	0	43	0	706740224	62	5156
2026-01-05 21:52:32.36	117.23	9.98	-45.3	-48.4	15.9	0.00e+00	0	44	0	707788800	62	5042
2026-01-05 21:52:33.35	117.38	9.94	-45.1	-48.2	16.1	0.00e+00	0	43	0	709885952	62	4937
2026-01-05 21:52:34.35	117.54	9.89	-45.0	-47.9	16.3	0.00e+00	0	43	0	711983104	61	5100
2026-01-05 21:52:35.35	117.69	9.85	-44.9	-48.0	16.3	0.00e+00	0	43	0	714080256	61	5110
2026-01-05 21:52:36.35	117.84	9.80	-44.9	-47.9	16.3	0.00e+00	0	43	0	716177408	61	5065
2026-01-05 21:52:37.35	117.99	9.76	-44.8	-47.7	16.6	0.00e+00	0	43	0	717225984	61	4944
2026-01-05 21:52:38.35	118.14	9.71	-44.9	-47.8	16.5	0.00e+00	0	43	0	719323136	61	4998
2026-01-05 21:52:39.34	118.29	9.67	-45.0	-48.0	16.3	0.00e+00	0	43	0	721420288	61	5113
2026-01-05 21:52:40.34	118.44	9.62	-45.2	-48.2	16.1	0.00e+00	0	43	0	723517440	61	5237
2026-01-05 21:52:41.33	118.59	9.57	-45.3	-48.5	15.8	0.00e+00	0	43	0	724566016	61	5412
2026-01-05 21:52:42.33	118.74	9.53	-45.5	-48.7	15.6	0.00e+00	0	43	0	726663168	61	5532
2026-01-05 21:52:43.33	118.89	9.48	-45.4	-48.5	15.8	0.00e+00	0	43	0	728760320	61	5409
2026-01-05 21:52:44.33	119.04	9.44	-45.2	-48.4	15.8	0.00e+00	0	43	0	730857472	61	5365
2026-01-05 21:52:45.33	119.19	9.39	-45.3	-48.4	15.9	0.00e+00	0	43	0	732954624	61	5342
2026-01-05 21:52:46.32	119.34	9.35	-45.3	-48.3	15.9	0.00e+00	0	43	0	734003200	61	5339
2026-01-05 21:52:47.32	119.48	9.30	-45.1	-48.1	16.1	0.00e+00	0	44	0	736100352	61	5201
2026-01-05 21:52:48.32	119.63	9.25	-45.2	-48.3	16.0	0.00e+00	0	43	0	738197504	61	5297
2026-01-05 21:52:49.32	119.78	9.21	-45.0	-48.2	16.0	0.00e+00	0	43	0	740294656	61	5245
2026-01-05 21:52:50.31	119.92	9.16	-45.2	-48.3	15.9	0.00e+00	0	43	0	742391808	61	5327
2026-01-05 21:52:51.31	120.07	9.11	-45.1	-48.2	16.0	0.00e+00	0	43	0	743440384	61	5263
2026-01-05 21:52:52.30	120.21	9.07	-45.3	-48.4	15.8	0.00e+00	0	43	0	745537536	61	5384
2026-01-05 21:52:53.30	120.36	9.02	-45.2	-48.6	15.6	0.00e+00	0	44	0	747634688	61	5485
2026-01-05 21:52:54.30	120.50	8.97	-50.5	-64.9	3.8	1.31e+00	0	43	104	748683264	71	20072
2026-01-05 21:52:55.30	120.64	8.93	-50.7	-65.8	3.8	1.49e+00	0	43	104	748683264	72	21201
2026-01-05 21:52:56.30	120.79	8.88	-50.7	-65.9	3.8	1.49e+00	0	43	104	748683264	72	21486
2026-01-05 21:52:57.29	120.93	8.83	-50.6	-66.0	3.8	1.49e+00	0	43	104	748683264	72	21616
2026-01-05 21:52:58.30	121.07	8.79	-50.7	-66.0	3.8	1.49e+00	0	43	104	748683264	72	21674
2026-01-05 21:52:59.29	121.21	8.74	-50.7	-66.1	3.8	1.49e+00	0	43	104	748683264	72	21807
2026-01-05 21:53:00.29	121.36	8.69	-50.9	-66.1	3.8	1.49e+00	0	43	104	748683264	72	21867
2026-01-05 21:53:01.29	121.50	8.64	-50.7	-66.1	3.8	1.49e+00	0	43	104	748683264	72	21907
2026-01-05 21:53:02.29	121.64	8.60	-50.8	-66.1	3.8	1.49e+00	0	43	104	748683264	72	21903
2026-01-05 21:53:03.28	121.78	8.55	-50.8	-66.2	3.8	1.49e+00	0	43	104	748683264	72	22014
2026-01-05 21:53:04.29	121.92	8.50	-50.9	-66.2	3.8	1.49e+00	0	43	104	748683264	72	22081
2026-01-05 21:53:05.28	122.06	8.45	-50.7	-66.1	3.8	1.49e+00	0	43	104	748683264	72	22007
2026-01-05 21:53:06.28	122.20	8.41	-50.7	-66.2	3.8	1.49e+00	0	43	104	748683264	72	22070
2026-01-05 21:53:07.27	122.33	8.36	-50.7	-66.2	3.8	1.49e+00	0	43	104	748683264	72	22105
2026-01-05 21:53:08.27	122.47	8.31	-50.6	-66.2	3.8	1.49e+00	0	44	104	748683264	72	22030
2026-01-05 21:53:09.27	122.61	8.26	-50.7	-66.2	3.8	1.49e+00	0	43	104	748683264	72	22086
2026-01-05 21:53:10.27	122.75	8.22	-50.6	-66.2	3.8	1.49e+00	0	44	104	748683264	72	22173
2026-01-05 21:53:11.26	122.88	8.17	-50.4	-66.2	3.8	1.49e+00	0	43	104	748683264	72	22085
2026-01-05 21:53:12.26	123.02	8.12	-50.6	-66.2	3.8	1.49e+00	0	43	104	748683264	72	22090
2026-01-05 21:53:13.26	123.15	8.07	-50.6	-66.2	3.8	1.49e+00	0	43	104	748683264	72	22207
2026-01-05 21:53:14.26	123.29	8.03	-50.6	-66.2	3.8	1.49e+00	0	44	104	748683264	72	22170
2026-01-05 21:53:15.26	123.42	7.98	-50.6	-66.2	3.8	1.49e+00	0	44	104	748683264	72	22079
2026-01-05 21:53:16.26	123.56	7.93	-50.6	-66.2	3.8	1.49e+00	0	43	104	748683264	72	22047
2026-01-05 21:53:17.26	123.69	7.88	-50.6	-66.1	3.8	1.49e+00	0	43	104	748683264	72	21947
2026-01-05 21:53:18.26	123.83	7.83	-50.6	-66.1	3.8	1.49e+00	0	43	104	748683264	72	21996
2026-01-05 21:53:19.25	123.96	7.79	-50.6	-66.1	3.8	1.49e+00	0	44	104	748683264	72	21974
2026-01-05 21:53:20.25	124.09	7.74	-50.6	-66.1	3.8	1.49e+00	0	43	104	748683264	72	21983
2026-01-05 21:53:21.25	124.22	7.69	-50.6	-66.1	3.8	1.49e+00	0	43	104	748683264	72	21990
2026-01-05 21:53:22.25	124.36	7.64	-50.6	-66.1	3.8	1.49e+00	0	43	104	748683264	72	21884
2026-01-05 21:53:23.24	124.49	7.59	-50.6	-66.2	3.8	1.49e+00	0	43	104	748683264	72	22020
2026-01-05 21:53:24.24	124.62	7.54	-50.6	-66.1	3.8	1.49e+00	0	43	104	748683264	72	21875
2026-01-05 21:53:25.24	124.75	7.50	-50.6	-66.1	3.8	1.49e+00	0	43	104	748683264	72	21891
2026-01-05 21:53:26.24	124.88	7.45	-50.6	-66.1	3.8	1.49e+00	0	44	104	748683264	72	21889
2026-01-05 21:53:27.24	125.01	7.40	-50.6	-66.1	3.8	1.49e+00	0	43	104	748683264	72	21943
2026-01-05 21:53:28.24	125.14	7.35	-50.6	-66.1	3.8	1.49e+00	0	44	104	748683264	72	21886
2026-01-05 21:53:29.23	125.27	7.30	-50.6	-66.1	3.8	1.49e+00	0	43	104	748683264	72	21885
2026-01-05 21:53:30.23	125.40	7.25	-50.6	-66.1	3.8	1.49e+00	0	43	104	748683264	72	21934
2026-01-05 21:53:31.23	125.52	7.21	-50.6	-66.1	3.8	1.49e+00	0	43	104	748683264	72	21864
2026-01-05 21:53:32.22	125.65	7.16	-50.6	-66.1	3.8	1.49e+00	0	43	104	748683264	72	21900
2026-01-05 21:53:33.22	125.78	7.11	-50.6	-66.1	3.8	1.49e+00	0	43	104	748683264	72	21926
2026-01-05 21:53:34.22	125.91	7.06	-50.6	-66.1	3.8	1.49e+00	0	43	104	748683264	72	21872
2026-01-05 21:53:35.22	126.03	7.01	-50.6	-66.1	3.8	1.49e+00	0	43	104	748683264	72	21856
2026-01-05 21:53:36.22	126.16	6.96	-50.6	-66.1	3.8	1.49e+00	0	43	104	748683264	72	21839
2026-01-05 21:53:37.22	126.28	6.91	-50.6	-66.1	3.8	1.49e+00	0	44	104	748683264	72	21938
2026-01-05 21:53:38.22	126.41	6.86	-50.6	-66.1	3.8	1.49e+00	0	43	104	748683264	72	21921
2026-01-05 21:53:39.22	126.54	6.82	-50.6	-66.1	3.8	1.49e+00	0	43	104	748683264	72	21891
2026-01-05 21:53:40.21	126.66	6.77	-50.6	-66.1	3.8	1.49e+00	0	44	104	748683264	72	21969
2026-01-05 21:53:41.21	126.78	6.72	-50.6	-66.1	3.8	1.49e+00	0	43	104	748683264	72	21908
2026-01-05 21:53:42.20	126.91	6.67	-50.6	-66.1	3.8	1.49e+00	0	44	104	748683264	72	21822
2026-01-05 21:53:43.20	127.03	6.62	-50.6	-66.1	3.8	1.49e+00	0	43	104	748683264	72	21856
2026-01-05 21:53:44.19	127.15	6.57	-50.6	-66.1	3.8	1.49e+00	0	44	104	748683264	72	21913
2026-01-05 21:53:45.19	127.27	6.52	-50.6	-66.1	3.8	1.49e+00	0	43	104	748683264	72	21860
2026-01-05 21:53:46.19	127.40	6.47	-50.6	-66.1	3.8	1.49e+00	0	44	104	748683264	72	21921
2026-01-05 21:53:47.18	127.52	6.43	-50.5	-66.1	3.8	1.49e+00	0	43	104	748683264	72	21812
2026-01-05 21:53:48.18	127.64	6.38	-50.5	-66.1	3.8	1.49e+00	0	43	104	748683264	72	21908
2026-01-05 21:53:49.18	127.76	6.33	-50.5	-66.1	3.8	1.49e+00	0	43	104	748683264	72	21816
2026-01-05 21:53:50.18	127.88	6.28	-50.6	-66.1	3.8	1.49e+00	0	43	104	748683264	72	21929
2026-01-05 21:53:51.17	128.00	6.23	-50.5	-66.1	3.8	1.49e+00	0	44	104	748683264	72	21875
2026-01-05 21:53:52.17	128.12	6.18	-50.5	-66.1	3.8	1.49e+00	0	44	104	748683264	72	21942
2026-01-05 21:53:53.17	128.24	6.13	-50.5	-66.1	3.8	1.49e+00	0	43	104	748683264	72	21869
2026-01-05 21:53:54.17	128.36	6.08	-50.6	-66.1	3.8	1.49e+00	0	44	104	748683264	72	21916
2026-01-05 21:53:55.17	128.48	6.03	-50.5	-66.1	3.8	1.49e+00	0	44	104	748683264	72	21859
2026-01-05 21:53:56.17	128.60	5.99	-50.5	-66.1	3.8	1.49e+00	0	44	104	748683264	72	21835
2026-01-05 21:53:57.16	128.71	5.94	-50.5	-66.1	3.8	1.49e+00	0	43	104	748683264	72	21805
2026-01-05 21:53:58.16	128.83	5.89	-50.5	-66.1	3.8	1.49e+00	0	43	104	748683264	72	21822
2026-01-05 21:53:59.16	128.95	5.84	-50.5	-66.1	3.8	1.49e+00	0	43	104	748683264	72	21909
2026-01-05 21:54:00.16	129.06	5.79	-50.5	-66.1	3.8	1.49e+00	0	44	104	748683264	72	21835
2026-01-05 21:54:01.16	129.18	5.74	-50.6	-66.1	3.8	1.49e+00	0	43	104	748683264	72	21865
2026-01-05 21:54:02.16	129.30	5.69	-50.6	-66.1	3.8	1.49e+00	0	43	104	748683264	72	21776
2026-01-05 21:54:03.15	129.41	5.64	-50.5	-66.1	3.8	1.49e+00	0	43	104	748683264	72	21863
2026-01-05 21:54:04.15	129.53	5.59	-50.5	-66.1	3.8	1.49e+00	0	43	104	748683264	72	21848
2026-01-05 21:54:05.15	129.64	5.54	-50.5	-66.1	3.8	1.49e+00	0	43	104	748683264	72	21906
2026-01-05 21:54:06.14	129.75	5.50	-50.5	-66.1	3.8	1.49e+00	0	43	104	748683264	72	21843
2026-01-05 21:54:07.14	129.87	5.45	-50.5	-66.1	3.8	1.49e+00	0	44	104	748683264	72	21818
2026-01-05 21:54:08.13	129.98	5.40	-50.6	-66.1	3.8	1.49e+00	0	44	104	748683264	72	21773
2026-01-05 21:54:09.13	130.10	5.35	-50.5	-66.1	3.8	1.49e+00	0	43	104	748683264	72	21788
2026-01-05 21:54:10.13	130.21	5.30	-50.6	-66.1	3.8	1.49e+00	0	44	104	748683264	72	21812
2026-01-05 21:54:11.13	130.32	5.25	-50.5	-66.1	3.8	1.49e+00	0	44	104	748683264	72	21862
2026-01-05 21:54:12.13	130.43	5.20	-50.5	-66.1	3.8	1.49e+00	0	44	104	748683264	72	21877
2026-01-05 21:54:13.13	130.55	5.15	-50.5	-66.1	3.8	1.49e+00	0	43	104	748683264	72	21843
2026-01-05 21:54:14.13	130.66	5.10	-50.5	-66.1	3.8	1.49e+00	0	44	104	748683264	72	21831
2026-01-05 21:54:15.13	130.77	5.05	-50.5	-66.1	3.8	1.49e+00	0	43	104	748683264	72	21833
2026-01-05 21:54:16.12	130.88	5.01	-50.5	-66.1	3.8	1.49e+00	0	43	104	748683264	72	21815
2026-01-05 21:54:17.12	130.99	4.96	-50.5	-66.1	3.8	1.49e+00	0	43	104	748683264	72	21840

#Closed at: 2026-01-05 21:54:18
#Recorded file [748 MB]: D:/Data/31040_260106_004451.dat