passes_logs/2026/01/05/T1/T1__20260105_060459_KHAYYAM_rec.log

#Pass ID: 20260105_060459_KHAYYAM
#Satellite: KHAYYAM
#Configuration: KHAYYAM_480M
#almurnet v.1.7.20251203
#Start time: 2026-01-05 06:05:00

#Version: 2.0.20230620
#Station: T1
#Location: 37.570604 lon 55.790049 lat
#TLE: 1 53370U 22096A   26004.25948006  .00009070  00000+0  36935-3 0  9997
#TLE: 2 53370  97.3569 271.4608 0001229  85.3250 274.8128 15.24710400189604

#Time	Az	El	Level	Level2	SNR	BER	BlckErr	Temp	State	Recorded	gain1	gain2
2026-01-05 06:05:00.72	89.67	5.07	-54.1	-58.8	3.6	0.00e+00	0	45	0	0	79	25179
2026-01-05 06:05:01.71	89.51	5.11	-54.1	-58.7	3.7	0.00e+00	0	45	104	0	78	26434
2026-01-05 06:05:02.72	89.33	5.17	-54.1	-58.7	3.7	0.00e+00	0	45	104	0	78	26505
2026-01-05 06:05:03.72	89.16	5.22	-54.1	-58.7	3.7	0.00e+00	0	45	104	0	78	26475
2026-01-05 06:05:04.73	88.99	5.27	-54.1	-58.7	3.7	0.00e+00	0	45	104	0	78	26470
2026-01-05 06:05:05.73	88.82	5.32	-54.1	-58.7	3.7	0.00e+00	0	46	104	0	78	26543
2026-01-05 06:05:06.74	88.64	5.37	-54.1	-58.7	3.7	0.00e+00	0	46	104	0	78	26516
2026-01-05 06:05:07.74	88.47	5.42	-54.1	-58.7	3.7	0.00e+00	0	46	104	0	78	26455
2026-01-05 06:05:08.74	88.30	5.47	-54.1	-58.7	3.7	0.00e+00	0	46	104	0	78	26481
2026-01-05 06:05:09.75	88.12	5.52	-54.1	-58.7	3.7	0.00e+00	0	46	104	0	78	26466
2026-01-05 06:05:10.75	87.94	5.57	-54.1	-58.7	3.7	0.00e+00	0	46	104	0	78	26490
2026-01-05 06:05:11.76	87.76	5.62	-54.1	-58.7	3.7	0.00e+00	0	46	104	0	78	26387
2026-01-05 06:05:12.76	87.59	5.66	-54.1	-58.7	3.7	0.00e+00	0	46	104	0	78	26435
2026-01-05 06:05:13.76	87.41	5.71	-54.1	-58.7	3.7	0.00e+00	0	46	104	0	78	26446
2026-01-05 06:05:14.77	87.23	5.76	-54.1	-58.7	3.7	0.00e+00	0	46	104	0	78	26459
2026-01-05 06:05:15.77	87.05	5.81	-54.1	-58.7	3.7	0.00e+00	0	46	104	0	78	26434
2026-01-05 06:05:16.78	86.86	5.86	-54.1	-58.7	3.7	0.00e+00	0	46	104	0	78	26465
2026-01-05 06:05:17.78	86.68	5.91	-54.1	-58.7	3.7	0.00e+00	0	46	104	0	78	26459
2026-01-05 06:05:18.78	86.50	5.96	-54.1	-58.7	3.7	0.00e+00	0	46	104	0	78	26436
2026-01-05 06:05:19.79	86.32	6.01	-54.1	-58.7	3.7	0.00e+00	0	47	104	0	78	26463
2026-01-05 06:05:20.79	86.13	6.06	-54.1	-58.7	3.7	0.00e+00	0	46	104	0	78	26456
2026-01-05 06:05:21.80	85.95	6.11	-54.1	-58.7	3.7	0.00e+00	0	47	104	0	78	26471
2026-01-05 06:05:22.80	85.76	6.16	-54.1	-58.7	3.7	0.00e+00	0	47	104	0	78	26409
2026-01-05 06:05:23.80	85.57	6.20	-54.1	-58.7	3.7	0.00e+00	0	47	104	0	78	26453
2026-01-05 06:05:24.81	85.39	6.25	-54.1	-58.7	3.7	0.00e+00	0	47	104	0	78	26387
2026-01-05 06:05:25.81	85.20	6.30	-54.0	-58.7	3.7	0.00e+00	0	47	104	0	78	26343
2026-01-05 06:05:26.82	85.01	6.35	-54.0	-58.7	3.7	0.00e+00	0	47	104	0	78	26425
2026-01-05 06:05:27.82	84.82	6.40	-54.0	-58.7	3.7	0.00e+00	0	47	104	0	78	26307
2026-01-05 06:05:28.82	84.63	6.44	-54.0	-58.7	3.7	0.00e+00	0	47	104	0	78	26442
2026-01-05 06:05:29.83	84.44	6.49	-54.0	-58.7	3.7	0.00e+00	0	47	104	0	78	26421
2026-01-05 06:05:30.83	84.24	6.54	-54.0	-58.7	3.7	0.00e+00	0	47	104	0	78	26279
2026-01-05 06:05:31.83	84.05	6.59	-54.0	-58.7	3.7	0.00e+00	0	47	104	0	78	26344
2026-01-05 06:05:32.84	83.86	6.63	-54.0	-58.7	3.7	0.00e+00	0	47	104	0	78	26394
2026-01-05 06:05:33.84	83.66	6.68	-54.0	-58.7	3.7	0.00e+00	0	47	104	0	78	26438
2026-01-05 06:05:34.85	83.46	6.73	-54.0	-58.7	3.7	0.00e+00	0	47	104	0	78	26374
2026-01-05 06:05:35.85	83.27	6.78	-54.0	-58.7	3.7	0.00e+00	0	48	104	0	78	26293
2026-01-05 06:05:36.86	83.07	6.82	-54.0	-58.7	3.7	0.00e+00	0	48	104	0	78	26394
2026-01-05 06:05:37.86	82.87	6.87	-54.1	-58.7	3.7	0.00e+00	0	48	104	0	78	26348
2026-01-05 06:05:38.86	82.68	6.92	-54.0	-58.7	3.7	0.00e+00	0	48	104	0	78	26405
2026-01-05 06:05:39.87	82.47	6.96	-54.0	-58.7	3.7	0.00e+00	0	48	104	0	78	26368
2026-01-05 06:05:40.87	82.27	7.01	-54.0	-58.7	3.7	0.00e+00	0	48	104	0	78	26399
2026-01-05 06:05:41.87	82.07	7.05	-54.0	-58.7	3.7	0.00e+00	0	48	104	0	78	26435
2026-01-05 06:05:42.88	81.87	7.10	-54.0	-58.7	3.7	0.00e+00	0	48	104	0	78	26321
2026-01-05 06:05:43.88	81.67	7.15	-54.0	-58.6	3.7	0.00e+00	0	48	104	0	78	26258
2026-01-05 06:05:44.88	81.47	7.19	-54.0	-58.7	3.7	0.00e+00	0	48	104	0	78	26420
2026-01-05 06:05:45.89	81.26	7.24	-54.0	-58.7	3.7	0.00e+00	0	48	104	0	78	26360
2026-01-05 06:05:46.89	81.05	7.28	-54.0	-58.7	3.7	0.00e+00	0	48	104	0	78	26286
2026-01-05 06:05:47.90	80.85	7.33	-54.0	-58.7	3.7	0.00e+00	0	48	104	0	78	26322
2026-01-05 06:05:48.90	80.64	7.37	-54.0	-58.7	3.7	0.00e+00	0	48	104	0	78	26401
2026-01-05 06:05:49.91	80.43	7.42	-54.0	-58.7	3.7	0.00e+00	0	48	104	0	78	26344
2026-01-05 06:05:50.91	80.22	7.46	-54.0	-58.7	3.7	0.00e+00	0	48	104	0	78	26346
2026-01-05 06:05:51.92	80.01	7.51	-54.0	-58.7	3.7	0.00e+00	0	48	104	0	78	26378
2026-01-05 06:05:52.92	79.80	7.55	-54.0	-58.7	3.7	0.00e+00	0	48	104	0	78	26364
2026-01-05 06:05:53.93	79.59	7.59	-54.0	-58.7	3.7	0.00e+00	0	48	104	0	78	26334
2026-01-05 06:05:54.93	79.38	7.64	-54.0	-58.7	3.7	0.00e+00	0	48	104	0	78	26308
2026-01-05 06:05:55.93	79.17	7.68	-54.0	-58.7	3.7	0.00e+00	0	48	104	0	78	26303
2026-01-05 06:05:56.94	78.95	7.72	-54.0	-58.6	3.7	0.00e+00	0	48	104	0	78	26266
2026-01-05 06:05:57.94	78.74	7.77	-54.0	-58.7	3.7	0.00e+00	0	48	104	0	78	26356
2026-01-05 06:05:58.95	78.52	7.81	-54.0	-58.7	3.7	0.00e+00	0	48	104	0	78	26307
2026-01-05 06:05:59.95	78.31	7.85	-54.0	-58.7	3.7	0.00e+00	0	49	104	0	78	26314
2026-01-05 06:06:00.95	78.09	7.89	-54.0	-58.6	3.7	0.00e+00	0	49	104	0	78	26232
2026-01-05 06:06:01.96	77.88	7.94	-54.0	-58.7	3.7	0.00e+00	0	49	104	0	78	26325
2026-01-05 06:06:02.96	77.66	7.98	-54.0	-58.7	3.7	0.00e+00	0	49	104	0	78	26332
2026-01-05 06:06:03.97	77.44	8.02	-54.0	-58.7	3.7	0.00e+00	0	49	104	0	78	26283
2026-01-05 06:06:04.97	77.22	8.06	-54.0	-58.6	3.7	0.00e+00	0	48	104	0	78	26213
2026-01-05 06:06:05.97	77.00	8.10	-54.0	-58.6	3.7	0.00e+00	0	49	104	0	78	26250
2026-01-05 06:06:06.98	76.78	8.14	-54.0	-58.7	3.7	0.00e+00	0	49	104	0	78	26286
2026-01-05 06:06:07.98	76.55	8.18	-54.0	-58.7	3.7	0.00e+00	0	49	104	0	78	26311
2026-01-05 06:06:08.99	76.33	8.23	-54.0	-58.7	3.7	0.00e+00	0	49	104	0	78	26313
2026-01-05 06:06:09.99	76.11	8.27	-54.0	-58.6	3.7	0.00e+00	0	49	104	0	78	26275
2026-01-05 06:06:11.00	75.88	8.31	-54.0	-58.7	3.7	0.00e+00	0	49	104	0	78	26289
2026-01-05 06:06:12.00	75.66	8.35	-54.0	-58.7	3.7	0.00e+00	0	49	104	0	78	26320
2026-01-05 06:06:13.00	75.43	8.38	-54.0	-58.6	3.7	0.00e+00	0	49	104	0	78	26257
2026-01-05 06:06:14.01	75.20	8.42	-54.0	-58.6	3.7	0.00e+00	0	49	104	0	78	26210
2026-01-05 06:06:15.01	74.98	8.46	-54.0	-58.7	3.7	0.00e+00	0	49	104	0	78	26279
2026-01-05 06:06:16.02	74.75	8.50	-54.0	-58.7	3.7	0.00e+00	0	49	104	0	78	26390
2026-01-05 06:06:17.02	74.52	8.54	-54.0	-58.6	3.7	0.00e+00	0	49	104	0	78	26266
2026-01-05 06:06:18.02	74.29	8.58	-54.0	-58.7	3.7	0.00e+00	0	49	104	0	78	26278
2026-01-05 06:06:19.03	74.06	8.62	-54.0	-58.7	3.7	0.00e+00	0	49	104	0	78	26315
2026-01-05 06:06:20.03	73.83	8.65	-54.0	-58.7	3.7	0.00e+00	0	49	104	0	78	26363
2026-01-05 06:06:21.04	73.59	8.69	-54.0	-58.7	3.7	0.00e+00	0	49	104	0	78	26317
2026-01-05 06:06:22.04	73.36	8.73	-54.0	-58.7	3.7	0.00e+00	0	49	104	0	78	26326
2026-01-05 06:06:23.04	73.13	8.76	-54.0	-58.7	3.7	0.00e+00	0	49	104	0	78	26356
2026-01-05 06:06:24.05	72.89	8.80	-54.0	-58.7	3.7	0.00e+00	0	49	104	0	78	26284
2026-01-05 06:06:25.05	72.66	8.84	-54.0	-58.7	3.7	0.00e+00	0	49	104	0	78	26386
2026-01-05 06:06:26.06	72.42	8.87	-54.0	-58.6	3.7	0.00e+00	0	49	104	0	78	26236
2026-01-05 06:06:27.06	72.19	8.91	-54.0	-58.7	3.7	0.00e+00	0	49	104	0	78	26300
2026-01-05 06:06:28.07	71.95	8.94	-54.0	-58.6	3.7	0.00e+00	0	49	104	0	78	26269
2026-01-05 06:06:29.07	71.71	8.98	-54.0	-58.7	3.7	0.00e+00	0	49	104	0	78	26329
2026-01-05 06:06:30.08	71.47	9.01	-54.0	-58.7	3.7	0.00e+00	0	49	104	0	78	26279
2026-01-05 06:06:31.08	71.23	9.04	-53.5	-57.3	3.7	0.00e+00	0	49	104	0	78	22422
2026-01-05 06:06:32.16	70.98	9.08	-54.0	-58.6	3.7	0.00e+00	0	49	104	0	78	26094
2026-01-05 06:06:33.02	70.77	9.11	-54.0	-58.5	3.7	0.00e+00	0	49	104	0	78	25949
2026-01-05 06:06:34.17	70.49	9.15	-54.1	-58.8	3.7	0.00e+00	0	49	104	0	78	26655
2026-01-05 06:06:35.14	70.26	9.18	-53.9	-58.2	3.7	0.00e+00	0	50	104	0	78	24885
2026-01-05 06:06:36.32	69.97	9.22	-54.0	-58.4	3.7	0.00e+00	0	49	104	0	78	25550
2026-01-05 06:06:37.21	69.76	9.25	-54.1	-58.6	3.7	0.00e+00	0	49	104	0	78	26207
2026-01-05 06:06:38.42	69.46	9.28	-54.1	-58.6	3.7	0.00e+00	0	50	104	0	78	26192
2026-01-05 06:06:39.28	69.25	9.31	-54.2	-58.8	3.7	0.00e+00	0	50	104	0	79	25138
2026-01-05 06:06:40.43	68.97	9.35	-54.2	-58.5	3.7	0.00e+00	0	49	104	0	79	24499
2026-01-05 06:06:41.28	68.76	9.37	-54.2	-58.5	3.7	0.00e+00	0	49	104	0	79	24377
2026-01-05 06:06:42.43	68.48	9.41	-54.3	-58.6	3.7	0.00e+00	0	50	104	0	79	24758
2026-01-05 06:06:43.29	68.27	9.43	-54.2	-58.8	3.7	0.00e+00	0	49	104	0	79	25123
2026-01-05 06:06:44.44	67.99	9.46	-54.3	-58.7	3.7	0.00e+00	0	50	104	0	79	24943
2026-01-05 06:06:45.30	67.77	9.49	-54.3	-58.8	3.7	0.00e+00	0	50	104	0	79	25264
2026-01-05 06:06:46.44	67.49	9.52	-54.2	-58.7	3.7	0.00e+00	0	50	104	0	79	25023
2026-01-05 06:06:47.30	67.28	9.55	-53.6	-58.4	3.7	0.00e+00	0	49	104	0	79	24223
2026-01-05 06:06:48.45	66.99	9.58	-54.1	-58.9	3.7	0.00e+00	0	49	104	0	79	25511
2026-01-05 06:06:49.31	66.77	9.60	-54.1	-58.8	3.7	0.00e+00	0	49	104	0	79	25291
2026-01-05 06:06:50.45	66.49	9.63	-54.1	-58.8	3.7	0.00e+00	0	49	104	0	79	25143
2026-01-05 06:06:51.31	66.27	9.65	-53.4	-57.8	3.7	0.00e+00	0	50	104	0	78	23809
2026-01-05 06:06:52.54	65.96	9.69	-53.5	-57.7	3.7	0.00e+00	0	50	104	0	78	23533
2026-01-05 06:06:53.40	65.75	9.71	-53.4	-57.7	3.7	0.00e+00	0	50	104	0	78	23529
2026-01-05 06:06:54.55	65.46	9.74	-53.9	-58.0	3.7	0.00e+00	0	50	104	0	78	24250
2026-01-05 06:06:55.41	65.24	9.76	-53.7	-57.5	3.7	0.00e+00	0	49	104	0	78	23119
2026-01-05 06:06:56.55	64.95	9.79	-53.6	-57.6	3.7	0.00e+00	0	50	104	0	78	23318
2026-01-05 06:06:57.41	64.73	9.81	-53.7	-57.7	3.7	0.00e+00	0	50	104	0	78	23663
2026-01-05 06:06:58.55	64.44	9.83	-53.7	-57.8	3.7	0.00e+00	0	50	104	0	78	23901
2026-01-05 06:06:59.41	64.22	9.85	-53.9	-58.1	3.7	0.00e+00	0	50	104	0	78	24689
2026-01-05 06:07:00.56	63.93	9.88	-54.1	-58.4	3.7	0.00e+00	0	50	104	0	78	25472
2026-01-05 06:07:01.42	63.70	9.90	-54.1	-58.4	3.7	0.00e+00	0	50	104	0	78	25454
2026-01-05 06:07:02.57	63.41	9.92	-54.1	-58.5	3.7	0.00e+00	0	50	104	0	78	25859
2026-01-05 06:07:03.43	63.19	9.94	-54.3	-58.7	3.7	0.00e+00	0	50	104	0	79	24924
2026-01-05 06:07:04.57	62.89	9.97	-54.1	-58.6	3.7	0.00e+00	0	50	104	0	79	24621
2026-01-05 06:07:05.43	62.67	9.98	-54.2	-58.8	3.7	0.00e+00	0	50	104	0	79	25118
2026-01-05 06:07:06.58	62.37	10.01	-54.1	-58.9	3.7	0.00e+00	0	50	104	0	79	25496
2026-01-05 06:07:07.44	62.15	10.02	-54.2	-58.9	3.7	0.00e+00	0	50	104	0	79	25422
2026-01-05 06:07:08.58	61.86	10.04	-54.1	-58.6	3.7	0.00e+00	0	50	104	0	79	24759
2026-01-05 06:07:09.44	61.63	10.06	-54.1	-58.5	3.7	0.00e+00	0	50	104	0	79	24497
2026-01-05 06:07:10.59	61.33	10.08	-54.3	-59.0	3.7	0.00e+00	0	50	104	0	79	25691
2026-01-05 06:07:11.45	61.11	10.10	-54.2	-58.9	3.7	0.00e+00	0	50	104	0	79	25416
2026-01-05 06:07:12.59	60.81	10.12	-54.3	-59.0	3.7	0.00e+00	0	50	104	0	79	25807
2026-01-05 06:07:13.45	60.59	10.13	-54.3	-59.0	3.7	0.00e+00	0	50	104	0	79	25833
2026-01-05 06:07:14.59	60.29	10.15	-54.0	-58.8	3.7	0.00e+00	0	50	104	0	79	25330
2026-01-05 06:07:15.71	59.99	10.17	-53.7	-58.2	3.7	0.00e+00	0	50	104	0	79	23435
2026-01-05 06:07:16.74	59.72	10.18	-53.6	-57.8	3.7	0.00e+00	0	50	104	0	79	22509
2026-01-05 06:07:17.74	59.46	10.20	-53.6	-57.7	3.7	0.00e+00	0	50	104	0	79	22224
2026-01-05 06:07:18.95	59.14	10.22	-54.2	-58.6	3.7	0.00e+00	0	50	104	0	79	24629
2026-01-05 06:07:19.84	58.91	10.23	-54.3	-58.8	3.7	0.00e+00	0	50	104	0	79	25181
2026-01-05 06:07:20.99	58.60	10.24	-54.4	-58.9	3.7	0.00e+00	0	50	104	0	79	25406
2026-01-05 06:07:21.85	58.38	10.25	-54.2	-58.6	3.7	0.00e+00	0	50	104	0	79	24757
2026-01-05 06:07:22.99	58.08	10.27	-53.9	-58.3	3.7	0.00e+00	0	50	104	0	79	23770
2026-01-05 06:07:23.85	57.85	10.28	-54.1	-58.4	3.7	0.00e+00	0	50	104	0	79	24179
2026-01-05 06:07:25.00	57.54	10.29	-53.9	-58.3	3.7	0.00e+00	0	50	104	0	79	23856
2026-01-05 06:07:25.86	57.31	10.30	-54.1	-58.5	3.7	0.00e+00	0	50	104	0	79	24414
2026-01-05 06:07:27.00	57.01	10.31	-53.8	-57.8	3.7	0.00e+00	0	50	104	0	79	22567
2026-01-05 06:07:27.86	56.78	10.32	-54.0	-58.2	3.7	0.00e+00	0	50	104	0	79	23556
2026-01-05 06:07:29.01	56.48	10.33	-53.8	-57.7	3.7	0.00e+00	0	50	104	0	79	22331
2026-01-05 06:07:29.87	56.25	10.34	-53.8	-57.9	3.7	0.00e+00	0	50	104	0	79	22791
2026-01-05 06:07:31.09	55.92	10.35	-54.1	-58.4	3.7	0.00e+00	0	50	104	0	79	24121
2026-01-05 06:07:31.95	55.70	10.36	-54.2	-58.6	3.7	0.00e+00	0	50	104	0	79	24569
2026-01-05 06:07:33.10	55.39	10.37	-54.1	-58.5	3.7	0.00e+00	0	50	104	0	79	24387
2026-01-05 06:07:33.96	55.16	10.37	-54.1	-58.5	3.7	0.00e+00	0	50	104	0	79	24402
2026-01-05 06:07:35.10	54.85	10.38	-54.2	-58.6	3.7	0.00e+00	0	50	104	0	79	24765
2026-01-05 06:07:35.98	54.62	10.38	-54.5	-58.9	3.7	0.00e+00	0	50	104	0	79	25453
2026-01-05 06:07:37.13	54.31	10.39	-54.3	-58.9	3.7	0.00e+00	0	50	104	0	79	25497
2026-01-05 06:07:38.10	54.05	10.39	-54.1	-58.3	3.7	0.00e+00	0	50	104	0	79	23730
2026-01-05 06:07:39.28	53.74	10.40	-54.4	-58.9	3.7	0.00e+00	0	50	104	0	79	25448
2026-01-05 06:07:40.14	53.51	10.40	-54.2	-58.6	3.7	0.00e+00	0	50	104	0	79	24626
2026-01-05 06:07:41.28	53.20	10.41	-54.2	-58.8	3.6	0.00e+00	0	50	104	0	79	25200
2026-01-05 06:07:42.22	52.95	10.41	-54.2	-58.7	3.7	0.00e+00	0	50	104	0	79	25055
2026-01-05 06:07:43.22	52.68	10.41	-54.2	-58.7	3.7	0.00e+00	0	50	104	0	79	24964
2026-01-05 06:07:44.45	52.35	10.41	-54.2	-58.7	3.7	0.00e+00	0	50	104	0	79	24850
2026-01-05 06:07:45.34	52.12	10.41	-54.3	-58.7	3.7	0.00e+00	0	50	104	0	79	25073
2026-01-05 06:07:46.48	51.81	10.42	-54.3	-58.8	3.7	0.00e+00	0	50	104	0	79	25358
2026-01-05 06:07:47.34	51.58	10.42	-54.2	-58.8	3.7	0.00e+00	0	50	104	0	79	25226
2026-01-05 06:07:48.48	51.27	10.42	-54.2	-58.4	3.7	0.00e+00	0	50	104	0	79	24232
2026-01-05 06:07:49.34	51.04	10.41	-54.2	-58.5	3.7	0.00e+00	0	50	104	0	79	24384
2026-01-05 06:07:50.49	50.74	10.41	-53.0	-56.4	3.7	0.00e+00	0	50	104	0	77	21458
2026-01-05 06:07:51.35	50.51	10.41	-53.4	-57.0	3.7	0.00e+00	0	50	104	0	77	23135
2026-01-05 06:07:52.49	50.20	10.41	-53.9	-57.9	3.7	0.00e+00	0	50	104	0	78	23986
2026-01-05 06:07:53.35	49.97	10.41	-54.1	-58.3	3.7	0.00e+00	0	50	104	0	78	25183
2026-01-05 06:07:54.50	49.66	10.40	-54.1	-58.1	3.7	0.00e+00	0	50	104	0	78	24752
2026-01-05 06:07:55.36	49.43	10.40	-54.0	-58.1	3.7	0.00e+00	0	50	104	0	78	24740
2026-01-05 06:07:56.51	49.13	10.39	-54.0	-58.1	3.7	0.00e+00	0	50	104	0	78	24534
2026-01-05 06:07:57.37	48.90	10.39	-53.8	-57.5	3.7	0.00e+00	0	50	104	0	78	23149
2026-01-05 06:07:58.51	48.59	10.38	-53.6	-57.4	3.7	0.00e+00	0	50	104	0	78	22664
2026-01-05 06:07:59.37	48.36	10.38	-53.7	-57.5	3.7	0.00e+00	0	50	104	0	79	21771
2026-01-05 06:08:00.52	48.06	10.37	-53.4	-57.2	3.7	0.00e+00	0	50	104	0	78	22333
2026-01-05 06:08:01.38	47.83	10.37	-53.5	-57.3	3.7	0.00e+00	0	50	104	0	78	22537
2026-01-05 06:08:02.52	47.52	10.36	-52.8	-56.2	3.7	0.00e+00	0	50	104	0	77	21007
2026-01-05 06:08:03.38	47.29	10.35	-52.2	-55.2	3.8	0.00e+00	0	50	104	0	76	19794
2026-01-05 06:08:04.53	46.99	10.34	-52.6	-55.9	3.7	0.00e+00	0	50	104	0	76	21416
2026-01-05 06:08:05.39	46.76	10.33	-52.5	-55.5	3.7	0.00e+00	0	50	104	0	76	20536
2026-01-05 06:08:06.53	46.46	10.32	-53.8	-57.7	3.7	0.00e+00	0	50	104	0	79	22178
2026-01-05 06:08:07.39	46.23	10.31	-53.1	-56.4	3.7	0.00e+00	0	50	104	0	78	20380
2026-01-05 06:08:08.54	45.92	10.30	-53.0	-56.3	3.7	0.00e+00	0	50	104	0	77	21141
2026-01-05 06:08:09.40	45.70	10.29	-53.1	-56.4	3.7	0.00e+00	0	50	104	0	77	21517
2026-01-05 06:08:10.55	45.39	10.28	-52.9	-56.1	3.7	0.00e+00	0	50	104	0	77	20770
2026-01-05 06:08:11.40	45.17	10.27	-52.8	-55.9	3.7	0.00e+00	0	50	104	0	77	20187
2026-01-05 06:08:12.55	44.86	10.26	-53.6	-57.1	3.7	0.00e+00	0	50	104	0	77	23385
2026-01-05 06:08:13.41	44.64	10.24	-54.1	-58.2	3.7	0.00e+00	0	50	104	0	78	24868
2026-01-05 06:08:14.55	44.34	10.23	-52.3	-55.3	3.7	0.00e+00	0	50	104	0	76	19999
2026-01-05 06:08:15.41	44.11	10.22	-53.2	-56.6	3.7	0.00e+00	0	50	104	0	77	21996
2026-01-05 06:08:16.56	43.81	10.20	-53.8	-57.5	3.7	0.00e+00	0	50	104	0	78	23046
2026-01-05 06:08:17.41	43.58	10.19	-53.1	-56.3	3.7	0.00e+00	0	50	104	0	77	21352
2026-01-05 06:08:18.56	43.28	10.17	-54.1	-58.0	3.7	0.00e+00	0	50	104	0	78	24426
2026-01-05 06:08:19.42	43.06	10.16	-54.2	-58.4	3.7	0.00e+00	0	50	104	0	79	23967
2026-01-05 06:08:20.57	42.76	10.14	-54.2	-58.4	3.7	0.00e+00	0	50	104	0	79	24125
2026-01-05 06:08:21.42	42.53	10.12	-54.4	-58.7	3.7	0.00e+00	0	50	104	0	79	25037
2026-01-05 06:08:22.57	42.23	10.11	-54.6	-59.0	3.7	0.00e+00	0	50	104	0	79	25860
2026-01-05 06:08:23.43	42.01	10.09	-53.7	-57.4	3.7	0.00e+00	0	50	104	0	79	21526
2026-01-05 06:08:24.57	41.71	10.07	-52.0	-54.8	3.7	0.00e+00	0	50	104	0	74	21169
2026-01-05 06:08:25.43	41.49	10.05	-52.3	-55.3	3.7	0.00e+00	0	50	104	0	75	21133
2026-01-05 06:08:26.58	41.19	10.03	-51.9	-54.7	3.7	0.00e+00	0	50	104	0	75	19771
2026-01-05 06:08:27.44	40.97	10.02	-52.4	-55.4	3.7	0.00e+00	0	50	104	0	75	21568
2026-01-05 06:08:28.60	40.67	9.99	-52.7	-55.9	3.7	0.00e+00	0	50	104	0	76	21529
2026-01-05 06:08:29.46	40.45	9.98	-52.8	-56.2	3.7	0.00e+00	0	50	104	0	76	22283
2026-01-05 06:08:30.60	40.16	9.95	-53.0	-56.4	3.7	0.00e+00	0	50	104	0	76	22695
2026-01-05 06:08:31.46	39.94	9.93	-51.9	-54.6	3.7	0.00e+00	0	50	104	0	75	19601
2026-01-05 06:08:32.61	39.64	9.91	-50.5	-52.8	3.7	0.00e+00	0	50	104	0	72	18869
2026-01-05 06:08:33.47	39.42	9.89	-52.6	-55.6	3.7	0.00e+00	0	50	104	0	75	21934
2026-01-05 06:08:34.61	39.13	9.86	-49.2	-51.2	3.7	0.00e+00	0	50	104	0	70	17710
2026-01-05 06:08:35.47	38.91	9.84	-49.7	-51.8	3.6	0.00e+00	0	50	104	0	69	20079
2026-01-05 06:08:36.61	38.62	9.82	-48.4	-50.3	3.6	0.00e+00	0	50	104	0	69	16948
2026-01-05 06:08:37.48	38.40	9.80	-44.6	-46.1	3.6	0.00e+00	0	50	104	0	61	16529
2026-01-05 06:08:38.62	38.11	9.77	-44.1	-45.5	3.8	0.00e+00	0	50	104	0	59	17349
2026-01-05 06:08:39.66	37.85	9.74	-44.1	-45.6	3.7	0.00e+00	0	50	104	0	59	17395
2026-01-05 06:08:40.65	37.60	9.72	-44.6	-46.1	3.5	0.00e+00	0	50	104	0	59	18406
2026-01-05 06:08:41.66	37.34	9.69	-44.6	-46.1	3.5	0.00e+00	0	50	104	0	60	17475
2026-01-05 06:08:42.66	37.09	9.67	-48.4	-50.7	3.7	0.00e+00	0	50	104	0	69	17746
2026-01-05 06:08:43.66	36.84	9.64	-48.5	-50.4	3.6	0.00e+00	0	50	104	0	67	19243
2026-01-05 06:08:44.97	36.52	9.61	-49.7	-51.8	4.1	0.00e+00	0	50	104	0	71	17931
2026-01-05 06:08:45.68	36.34	9.59	-50.2	-52.5	4.0	0.00e+00	0	50	104	0	71	19297
2026-01-05 06:08:46.98	36.02	9.55	-51.2	-53.8	3.8	0.00e+00	0	50	104	0	73	20142
2026-01-05 06:08:47.69	35.84	9.53	-52.5	-55.8	3.7	0.00e+00	0	50	104	0	75	22448
2026-01-05 06:08:48.98	35.52	9.50	-53.7	-58.5	3.7	0.00e+00	0	50	104	0	78	25706
2026-01-05 06:08:49.69	35.34	9.48	-52.6	-56.3	3.7	0.00e+00	0	50	104	0	77	21191
2026-01-05 06:08:50.98	35.03	9.44	-52.2	-55.1	3.7	0.00e+00	0	50	104	0	76	19517
2026-01-05 06:08:51.69	34.85	9.42	-52.1	-55.0	3.7	0.00e+00	0	50	104	0	76	19405
2026-01-05 06:08:53.08	34.51	9.38	-52.4	-56.0	3.7	0.00e+00	0	50	104	0	75	22968
2026-01-05 06:08:54.07	34.27	9.35	-50.1	-52.4	4.0	0.00e+00	0	50	104	0	70	20252
2026-01-05 06:08:55.37	33.95	9.31	-52.5	-55.7	3.8	0.00e+00	0	50	104	0	76	20881
2026-01-05 06:08:56.09	33.78	9.28	-51.0	-53.4	4.0	0.00e+00	0	50	104	0	74	18148
2026-01-05 06:08:57.74	33.38	9.23	-49.4	-51.6	3.6	0.00e+00	0	50	104	0	70	18396
2026-01-05 06:08:58.31	33.24	9.21	-49.5	-51.7	3.5	0.00e+00	0	50	104	0	70	18817
2026-01-05 06:08:59.92	32.86	9.16	-50.6	-53.6	3.6	0.00e+00	0	50	104	0	71	21924
2026-01-05 06:09:00.49	32.72	9.14	-50.1	-52.6	3.6	0.00e+00	0	50	104	0	71	19702
2026-01-05 06:09:02.08	32.34	9.09	-53.6	-58.2	3.7	0.00e+00	0	50	104	0	77	26483
2026-01-05 06:09:02.76	32.18	9.07	-51.7	-55.1	3.7	0.00e+00	0	51	104	0	73	23372
2026-01-05 06:09:04.20	31.83	9.02	-52.0	-55.7	3.7	0.00e+00	0	50	104	0	74	23542
2026-01-05 06:09:04.92	31.66	9.00	-51.5	-54.1	3.8	0.00e+00	0	50	104	0	75	18433
2026-01-05 06:09:06.20	31.36	8.95	-50.6	-52.9	3.6	0.00e+00	0	50	104	0	73	18164
2026-01-05 06:09:06.92	31.19	8.93	-51.3	-53.6	3.8	0.00e+00	0	50	104	0	73	19481
2026-01-05 06:09:08.21	30.89	8.88	-54.4	-58.3	3.7	0.00e+00	0	50	104	0	79	23822
2026-01-05 06:09:08.92	30.72	8.86	-55.3	-59.6	3.7	0.00e+00	0	50	104	0	81	24790
2026-01-05 06:09:10.22	30.42	8.81	-55.4	-60.0	3.7	0.00e+00	0	50	104	0	81	25753
2026-01-05 06:09:10.96	30.25	8.78	-55.2	-59.6	3.7	0.00e+00	0	50	104	0	81	24626
2026-01-05 06:09:12.25	29.95	8.74	-54.6	-58.4	3.7	0.00e+00	0	50	104	0	81	21591
2026-01-05 06:09:13.03	29.77	8.71	-55.3	-59.7	3.7	0.00e+00	0	50	104	0	81	25067
2026-01-05 06:09:14.20	29.50	8.67	-55.1	-59.3	3.7	0.00e+00	0	50	104	0	81	23795
2026-01-05 06:09:15.28	29.25	8.63	-55.5	-59.8	3.7	0.00e+00	0	50	104	0	81	25322
2026-01-05 06:09:16.32	29.01	8.59	-55.7	-60.2	3.7	0.00e+00	0	50	104	0	82	24978
2026-01-05 06:09:17.47	28.75	8.54	-55.7	-60.1	3.7	0.00e+00	0	50	104	0	82	24726
2026-01-05 06:09:18.40	28.54	8.51	-55.4	-59.8	3.7	0.00e+00	0	51	104	0	82	23871
2026-01-05 06:09:19.58	28.27	8.46	-55.2	-59.6	3.7	0.00e+00	0	50	104	0	82	23257
2026-01-05 06:09:20.44	28.08	8.43	-55.5	-60.0	3.7	0.00e+00	0	50	104	0	82	24311
2026-01-05 06:09:21.59	27.82	8.39	-55.5	-60.0	3.7	0.00e+00	0	50	104	0	82	24389
2026-01-05 06:09:22.45	27.63	8.35	-55.2	-59.7	3.7	0.00e+00	0	50	104	0	82	23498
2026-01-05 06:09:23.59	27.38	8.31	-54.8	-59.2	3.7	0.00e+00	0	50	104	0	81	23603
2026-01-05 06:09:24.46	27.18	8.27	-54.8	-59.4	3.7	0.00e+00	0	50	104	0	81	23977
2026-01-05 06:09:25.60	26.93	8.23	-54.9	-59.5	3.7	0.00e+00	0	50	104	0	81	24278
2026-01-05 06:09:26.46	26.74	8.19	-54.9	-59.5	3.7	0.00e+00	0	50	104	0	81	24266
2026-01-05 06:09:27.61	26.49	8.15	-54.9	-59.4	3.7	0.00e+00	0	51	104	0	81	24237
2026-01-05 06:09:28.47	26.30	8.11	-54.9	-59.4	3.7	0.00e+00	0	50	104	0	81	24213
2026-01-05 06:09:29.62	26.05	8.06	-54.8	-59.4	3.7	0.00e+00	0	50	104	0	81	24194
2026-01-05 06:09:30.48	25.86	8.03	-54.8	-59.4	3.7	0.00e+00	0	50	104	0	81	24106
2026-01-05 06:09:31.63	25.61	7.98	-54.8	-59.4	3.7	0.00e+00	0	51	104	0	81	24133
2026-01-05 06:09:32.49	25.42	7.95	-54.8	-59.4	3.7	0.00e+00	0	50	104	0	81	24179
2026-01-05 06:09:33.64	25.18	7.90	-54.8	-59.4	3.7	0.00e+00	0	50	104	0	81	24129
2026-01-05 06:09:34.50	24.99	7.86	-54.8	-59.4	3.7	0.00e+00	0	50	104	0	81	24206
2026-01-05 06:09:35.65	24.75	7.81	-54.8	-59.4	3.7	0.00e+00	0	50	104	0	81	24191
2026-01-05 06:09:36.51	24.56	7.78	-54.8	-59.4	3.7	0.00e+00	0	50	104	0	81	24204
2026-01-05 06:09:37.65	24.32	7.73	-54.8	-59.4	3.7	0.00e+00	0	50	104	0	81	24155
2026-01-05 06:09:38.51	24.14	7.69	-54.8	-59.4	3.7	0.00e+00	0	50	104	0	81	24100
2026-01-05 06:09:39.66	23.90	7.64	-54.8	-59.4	3.7	0.00e+00	0	51	104	0	81	24156
2026-01-05 06:09:40.53	23.72	7.60	-54.8	-59.4	3.7	0.00e+00	0	50	104	0	81	24075
2026-01-05 06:09:41.67	23.48	7.55	-54.8	-59.4	3.7	0.00e+00	0	50	104	0	81	24079
2026-01-05 06:09:42.53	23.30	7.52	-54.8	-59.4	3.7	0.00e+00	0	50	104	0	81	24092
2026-01-05 06:09:43.68	23.06	7.47	-54.8	-59.4	3.7	0.00e+00	0	50	104	0	81	24164
2026-01-05 06:09:44.54	22.88	7.43	-54.8	-59.4	3.7	0.00e+00	0	50	104	0	81	24058
2026-01-05 06:09:45.69	22.65	7.38	-54.8	-59.4	3.7	0.00e+00	0	51	104	0	81	24052
2026-01-05 06:09:46.55	22.47	7.34	-54.8	-59.4	3.7	0.00e+00	0	50	104	0	81	24033
2026-01-05 06:09:47.70	22.24	7.29	-54.8	-59.4	3.7	0.00e+00	0	50	104	0	81	24070
2026-01-05 06:09:48.56	22.06	7.25	-54.8	-59.4	3.7	0.00e+00	0	50	104	0	81	23986
2026-01-05 06:09:49.71	21.83	7.20	-54.8	-59.4	3.7	0.00e+00	0	50	104	0	81	24093
2026-01-05 06:09:50.57	21.65	7.16	-54.8	-59.4	3.7	0.00e+00	0	51	104	0	81	24109
2026-01-05 06:09:51.71	21.43	7.11	-54.8	-59.3	3.7	0.00e+00	0	51	104	0	81	23963
2026-01-05 06:09:52.58	21.25	7.07	-54.8	-59.4	3.7	0.00e+00	0	51	104	0	81	24067
2026-01-05 06:09:53.72	21.02	7.02	-54.8	-59.4	3.7	0.00e+00	0	50	104	0	81	24053
2026-01-05 06:09:54.58	20.85	6.98	-54.8	-59.4	3.7	0.00e+00	0	51	104	0	81	23970
2026-01-05 06:09:55.73	20.63	6.92	-54.8	-59.4	3.7	0.00e+00	0	50	104	0	81	23980
2026-01-05 06:09:56.59	20.46	6.88	-54.8	-59.4	3.7	0.00e+00	0	51	104	0	81	24020
2026-01-05 06:09:57.74	20.23	6.83	-54.8	-59.4	3.7	0.00e+00	0	50	104	0	81	24054
2026-01-05 06:09:58.60	20.06	6.79	-54.8	-59.4	3.7	0.00e+00	0	51	104	0	81	23979
2026-01-05 06:09:59.75	19.84	6.74	-54.8	-59.4	3.7	0.00e+00	0	50	104	0	81	24002
2026-01-05 06:10:00.61	19.67	6.70	-54.8	-59.3	3.7	0.00e+00	0	50	104	0	81	23937
2026-01-05 06:10:01.76	19.45	6.64	-54.8	-59.4	3.7	0.00e+00	0	50	104	0	81	23984
2026-01-05 06:10:02.62	19.29	6.60	-54.8	-59.3	3.7	0.00e+00	0	51	104	0	81	23963
2026-01-05 06:10:03.76	19.07	6.55	-54.8	-59.4	3.7	0.00e+00	0	51	104	0	81	24066
2026-01-05 06:10:04.63	18.90	6.51	-54.8	-59.4	3.7	0.00e+00	0	51	104	0	81	23965
2026-01-05 06:10:05.77	18.69	6.45	-54.8	-59.3	3.7	0.00e+00	0	51	104	0	81	23936
2026-01-05 06:10:06.63	18.53	6.41	-54.8	-59.3	3.7	0.00e+00	0	50	104	0	81	23948
2026-01-05 06:10:07.78	18.31	6.36	-54.8	-59.4	3.7	0.00e+00	0	51	104	0	81	24020
2026-01-05 06:10:08.64	18.15	6.32	-54.8	-59.3	3.7	0.00e+00	0	51	104	0	81	23945
2026-01-05 06:10:09.79	17.94	6.26	-54.8	-59.4	3.7	0.00e+00	0	51	104	0	81	23988
2026-01-05 06:10:10.65	17.78	6.22	-54.8	-59.4	3.7	0.00e+00	0	51	104	0	81	23973
2026-01-05 06:10:11.80	17.56	6.17	-54.7	-59.3	3.7	0.00e+00	0	51	104	0	81	23954
2026-01-05 06:10:12.66	17.40	6.12	-54.8	-59.4	3.7	0.00e+00	0	51	104	0	81	23991
2026-01-05 06:10:13.81	17.19	6.07	-54.8	-59.3	3.7	0.00e+00	0	51	104	0	81	23939
2026-01-05 06:10:14.67	17.04	6.03	-54.8	-59.4	3.7	0.00e+00	0	50	104	0	81	24026
2026-01-05 06:10:15.81	16.83	5.97	-54.7	-59.3	3.7	0.00e+00	0	51	104	0	81	23954
2026-01-05 06:10:16.68	16.67	5.93	-54.8	-59.4	3.7	0.00e+00	0	50	104	0	81	24028
2026-01-05 06:10:17.82	16.47	5.87	-54.8	-59.3	3.7	0.00e+00	0	50	104	0	81	23946
2026-01-05 06:10:18.68	16.31	5.83	-54.8	-59.3	3.7	0.00e+00	0	51	104	0	81	23889
2026-01-05 06:10:19.83	16.11	5.78	-54.8	-59.3	3.7	0.00e+00	0	51	104	0	81	23956
2026-01-05 06:10:20.69	15.96	5.73	-54.8	-59.3	3.7	0.00e+00	0	51	104	0	81	23921
2026-01-05 06:10:21.84	15.75	5.68	-54.8	-59.3	3.7	0.00e+00	0	51	104	0	81	23923
2026-01-05 06:10:22.70	15.60	5.64	-54.8	-59.3	3.7	0.00e+00	0	51	104	0	81	23941
2026-01-05 06:10:23.85	15.40	5.58	-54.8	-59.3	3.7	0.00e+00	0	51	104	0	81	23898
2026-01-05 06:10:24.71	15.25	5.54	-54.8	-59.3	3.7	0.00e+00	0	51	104	0	81	23872
2026-01-05 06:10:25.86	15.05	5.48	-54.8	-59.3	3.7	0.00e+00	0	51	104	0	81	23920
2026-01-05 06:10:26.72	14.90	5.44	-54.8	-59.3	3.7	0.00e+00	0	50	104	0	81	23953
2026-01-05 06:10:27.87	14.70	5.38	-54.7	-59.3	3.7	0.00e+00	0	51	104	0	81	23922
2026-01-05 06:10:28.73	14.56	5.34	-54.7	-59.3	3.7	0.00e+00	0	51	104	0	81	23879
2026-01-05 06:10:29.87	14.36	5.28	-54.8	-59.3	3.7	0.00e+00	0	50	104	0	81	23944
2026-01-05 06:10:30.73	14.21	5.24	-54.7	-59.3	3.7	0.00e+00	0	50	104	0	81	23897
2026-01-05 06:10:31.88	14.02	5.18	-54.8	-59.3	3.7	0.00e+00	0	51	104	0	81	23935
2026-01-05 06:10:32.74	13.88	5.14	-54.7	-59.3	3.7	0.00e+00	0	51	104	0	81	23894
2026-01-05 06:10:33.89	13.68	5.08	-54.7	-59.3	3.7	0.00e+00	0	50	104	0	81	23937
2026-01-05 06:10:34.75	13.54	5.04	-54.7	-59.3	3.7	0.00e+00	0	51	104	0	81	23878
2026-01-05 06:10:35.90	13.35	4.98	-54.7	-59.3	3.7	0.00e+00	0	51	104	0	81	23827

#Closed at: 2026-01-05 06:10:36
#Recorded file [0 MB]: D:/Data/31040_260105_090500.dat