passes_logs/2026/01/05/T1/T1__20260105_093346_NOAA_20_JPSS-1_rec.log

#Pass ID: 20260105_093346_NOAA 20 (JPSS-1)
#Satellite: NOAA 20 (JPSS-1)
#Configuration: NOAA 20
#almurnet v.1.7.20251203
#Start time: 2026-01-05 09:33:47

#Version: 2.0.20230620
#Station: T1
#Location: 37.570604 lon 55.790049 lat
#TLE: 1 43013U 17073A   26004.47528369  .00000132  00000+0  83671-4 0  9999
#TLE: 2 43013  98.7626 305.5264 0001854  54.5883 305.5466 14.19533142421242

#Time	Az	El	Level	Level2	SNR	BER	BlckErr	Temp	State	Recorded	gain1	gain2
2026-01-05 09:33:47.09	148.88	5.04	-49.9	-65.1	3.8	1.49e+00	0	39	0	0	71	20669
2026-01-05 09:33:48.09	148.87	5.12	-49.9	-65.0	3.8	1.49e+00	0	39	104	0	71	20347
2026-01-05 09:33:49.09	148.85	5.19	-49.9	-65.0	3.8	1.49e+00	0	39	104	0	71	20429
2026-01-05 09:33:50.10	148.83	5.26	-49.9	-65.0	3.8	1.49e+00	0	39	104	0	71	20414
2026-01-05 09:33:51.10	148.81	5.33	-49.9	-65.1	3.8	1.49e+00	0	39	104	0	71	20696
2026-01-05 09:33:52.10	148.79	5.40	-49.9	-65.2	3.8	1.49e+00	0	39	104	0	71	20869
2026-01-05 09:33:53.11	148.77	5.48	-49.9	-65.3	3.8	1.49e+00	0	39	104	0	71	21020
2026-01-05 09:33:54.11	148.75	5.55	-49.9	-65.3	3.8	1.49e+00	0	39	104	0	71	21138
2026-01-05 09:33:55.12	148.73	5.62	-49.9	-65.2	3.8	1.49e+00	0	39	104	0	71	20992
2026-01-05 09:33:56.12	148.72	5.70	-49.9	-65.1	3.8	1.49e+00	0	40	104	0	71	20759
2026-01-05 09:33:57.13	148.70	5.77	-49.9	-65.0	3.8	1.49e+00	0	40	104	0	71	20406
2026-01-05 09:33:58.13	148.68	5.84	-49.9	-64.8	3.8	1.49e+00	0	39	104	0	71	19864
2026-01-05 09:33:59.14	148.66	5.92	-49.8	-64.5	3.8	1.49e+00	0	39	104	0	71	19278
2026-01-05 09:34:00.14	148.64	5.99	-49.8	-64.3	3.8	1.49e+00	0	40	104	0	71	18810
2026-01-05 09:34:01.14	148.62	6.07	-49.8	-64.0	3.8	1.49e+00	0	40	104	0	71	18300
2026-01-05 09:34:02.15	148.60	6.14	-49.8	-63.9	3.8	1.49e+00	0	40	104	0	71	17952
2026-01-05 09:34:03.15	148.58	6.22	-49.8	-63.9	3.8	1.49e+00	0	40	104	0	71	18065
2026-01-05 09:34:04.15	148.56	6.29	-49.8	-64.0	3.8	1.49e+00	0	40	104	0	71	18110
2026-01-05 09:34:05.16	148.54	6.37	-49.8	-64.1	3.8	1.49e+00	0	40	104	0	71	18415
2026-01-05 09:34:06.16	148.52	6.44	-49.8	-64.3	3.8	1.49e+00	0	40	104	0	71	18944
2026-01-05 09:34:07.17	148.50	6.52	-49.8	-64.6	3.8	1.49e+00	0	40	104	0	71	19550
2026-01-05 09:34:08.17	148.48	6.59	-49.8	-64.9	3.8	1.49e+00	0	40	104	0	71	20185
2026-01-05 09:34:09.18	148.46	6.67	-49.8	-65.0	3.8	1.49e+00	0	40	104	0	71	20352
2026-01-05 09:34:10.18	148.44	6.75	-49.8	-64.9	3.8	1.49e+00	0	40	104	0	71	20211
2026-01-05 09:34:11.19	148.41	6.82	-49.8	-64.6	3.8	1.49e+00	0	40	104	0	71	19484
2026-01-05 09:34:12.19	148.39	6.90	-49.8	-64.2	3.8	1.49e+00	0	40	104	0	71	18601
2026-01-05 09:34:13.19	148.37	6.98	-49.8	-63.5	3.8	1.49e+00	0	40	104	0	71	17249
2026-01-05 09:34:14.20	148.35	7.05	-49.7	-63.0	3.8	1.49e+00	0	40	104	0	71	16234
2026-01-05 09:34:15.20	148.33	7.13	-49.7	-62.2	4.1	1.48e+00	0	40	0	0	71	14798
2026-01-05 09:34:16.21	148.31	7.21	-49.6	-61.6	4.2	1.41e+00	0	40	0	0	71	13756
2026-01-05 09:34:17.21	148.29	7.29	-49.5	-61.0	4.4	1.34e+00	0	40	0	0	71	12822
2026-01-05 09:34:18.22	148.27	7.37	-49.5	-60.1	4.8	9.02e-01	0	40	0	2097152	70	12346
2026-01-05 09:34:19.22	148.24	7.44	-49.4	-59.3	5.2	6.79e-01	0	40	0	4194304	70	11193
2026-01-05 09:34:20.23	148.22	7.52	-49.2	-58.3	5.9	4.94e-01	0	40	0	6291456	70	10026
2026-01-05 09:34:21.23	148.20	7.60	-49.1	-57.5	6.5	2.53e-01	0	40	0	7340032	70	9142
2026-01-05 09:34:22.23	148.18	7.68	-48.8	-56.5	7.4	1.54e-01	0	40	0	9437184	69	8650
2026-01-05 09:34:23.24	148.15	7.76	-48.6	-55.6	8.3	7.55e-02	0	40	0	11534336	69	7754
2026-01-05 09:34:24.24	148.13	7.84	-48.3	-54.7	9.2	2.47e-02	0	40	0	13631488	68	7419
2026-01-05 09:34:25.25	148.11	7.92	-48.0	-53.8	10.2	9.07e-03	0	40	0	15728640	68	6679
2026-01-05 09:34:26.25	148.09	8.00	-47.6	-53.0	10.8	4.14e-03	0	41	0	16777216	67	6491
2026-01-05 09:34:27.25	148.06	8.08	-47.5	-52.6	11.2	2.10e-03	0	40	0	18874368	66	6518
2026-01-05 09:34:28.26	148.04	8.16	-47.3	-52.3	11.5	9.18e-04	0	41	0	20971520	66	6317
2026-01-05 09:34:29.26	148.02	8.24	-47.3	-52.2	11.7	6.13e-04	0	41	0	23068672	66	6242
2026-01-05 09:34:30.27	147.99	8.32	-47.3	-52.2	11.6	5.58e-04	0	40	0	25165824	66	6266
2026-01-05 09:34:31.27	147.97	8.40	-47.4	-52.4	11.5	7.36e-04	0	41	0	26214400	66	6385
2026-01-05 09:34:32.28	147.95	8.49	-47.5	-52.7	11.2	9.81e-04	0	41	0	28311552	66	6597
2026-01-05 09:34:33.28	147.92	8.57	-47.7	-53.1	10.8	2.12e-03	0	41	0	30408704	66	6892
2026-01-05 09:34:34.28	147.90	8.65	-48.0	-54.0	9.9	5.02e-03	0	41	0	32505856	66	7640
2026-01-05 09:34:35.29	147.87	8.73	-48.2	-54.6	9.2	1.62e-02	0	41	0	34603008	67	7751
2026-01-05 09:34:36.29	147.85	8.82	-48.6	-55.8	8.0	4.28e-02	0	41	0	35651584	67	8900
2026-01-05 09:34:37.30	147.83	8.90	-49.0	-57.1	6.9	9.88e-02	0	41	0	37748736	68	9776
2026-01-05 09:34:38.30	147.80	8.98	-49.2	-58.4	5.9	3.12e-01	0	41	0	39845888	69	10675
2026-01-05 09:34:39.31	147.78	9.07	-49.4	-59.4	5.2	5.43e-01	0	41	0	41943040	69	11988
2026-01-05 09:34:40.39	147.75	9.16	-49.4	-60.1	4.8	5.41e-01	0	41	0	44040192	69	13016
2026-01-05 09:34:41.30	147.73	9.23	-49.5	-60.9	4.5	1.31e+00	0	41	0	45088768	69	14347
2026-01-05 09:34:42.31	147.70	9.32	-48.8	-55.8	8.0	2.01e-01	0	41	0	47185920	69	7905
2026-01-05 09:34:43.32	147.68	9.40	-47.1	-51.7	12.5	8.30e-06	0	41	0	49283072	64	6609
2026-01-05 09:34:44.32	147.65	9.49	-49.9	-63.4	3.8	1.09e+00	0	41	104	49283072	70	17917
2026-01-05 09:34:45.31	147.63	9.57	-46.0	-49.6	14.5	2.32e-04	0	41	0	50331648	63	5472
2026-01-05 09:34:46.32	147.60	9.66	-46.0	-49.5	14.5	0.00e+00	0	41	0	51380224	63	5451
2026-01-05 09:34:47.32	147.57	9.74	-45.6	-48.9	15.2	0.00e+00	0	41	0	53477376	63	5089
2026-01-05 09:34:48.33	147.55	9.83	-45.5	-48.9	15.2	0.00e+00	0	41	0	55574528	63	5045
2026-01-05 09:34:49.33	147.52	9.92	-45.3	-48.4	15.7	0.00e+00	0	41	0	57671680	62	5095
2026-01-05 09:34:50.33	147.49	10.00	-45.4	-48.6	15.6	0.00e+00	0	41	0	59768832	62	5198
2026-01-05 09:34:51.34	147.47	10.09	-45.5	-48.7	15.5	0.00e+00	0	41	0	60817408	62	5268
2026-01-05 09:34:52.34	147.44	10.18	-45.2	-48.3	15.9	0.00e+00	0	41	0	62914560	62	5013
2026-01-05 09:34:53.34	147.41	10.26	-44.9	-47.9	16.2	0.00e+00	0	41	0	65011712	61	5075
2026-01-05 09:34:54.34	147.39	10.35	-44.4	-47.3	16.8	0.00e+00	0	41	0	67108864	60	5004
2026-01-05 09:34:55.34	147.36	10.44	-44.2	-47.0	17.2	0.00e+00	0	41	0	69206016	60	4815
2026-01-05 09:34:56.46	147.33	10.54	-44.1	-46.8	17.3	0.00e+00	0	41	0	71303168	60	4752
2026-01-05 09:34:57.35	147.30	10.62	-43.9	-46.5	17.6	0.00e+00	0	41	0	72351744	59	4853
2026-01-05 09:34:58.37	147.28	10.71	-43.7	-46.3	17.8	0.00e+00	0	41	0	74448896	59	4720
2026-01-05 09:34:59.56	147.24	10.81	-43.6	-46.2	17.9	0.00e+00	0	41	0	76546048	59	4670
2026-01-05 09:35:00.42	147.22	10.89	-43.7	-46.2	17.8	0.00e+00	0	41	0	78643200	59	4702
2026-01-05 09:35:01.57	147.19	10.99	-43.8	-46.3	17.7	0.00e+00	0	41	0	80740352	59	4757
2026-01-05 09:35:02.43	147.16	11.07	-43.9	-46.5	17.6	0.00e+00	0	41	0	81788928	59	4849
2026-01-05 09:35:03.57	147.13	11.17	-43.8	-46.3	17.7	0.00e+00	0	41	0	83886080	59	4743
2026-01-05 09:35:04.43	147.10	11.25	-43.8	-46.3	17.7	0.00e+00	0	41	0	85983232	59	4749
2026-01-05 09:35:05.58	147.07	11.36	-43.7	-46.3	17.8	0.00e+00	0	41	0	88080384	59	4722
2026-01-05 09:35:06.44	147.04	11.44	-43.7	-46.3	17.8	0.00e+00	0	41	0	89128960	59	4711
2026-01-05 09:35:07.58	147.01	11.54	-43.8	-46.3	17.8	0.00e+00	0	41	0	91226112	59	4735
2026-01-05 09:35:08.44	146.98	11.62	-43.8	-46.3	17.8	0.00e+00	0	41	0	93323264	59	4729
2026-01-05 09:35:09.59	146.95	11.73	-43.8	-46.4	17.7	0.00e+00	0	41	0	95420416	59	4794
2026-01-05 09:35:10.83	146.91	11.84	-43.9	-46.4	17.5	0.00e+00	0	41	0	97517568	59	4806
2026-01-05 09:35:11.69	146.89	11.92	-43.8	-46.4	17.8	0.00e+00	0	41	0	99614720	59	4775
2026-01-05 09:35:12.83	146.85	12.03	-43.7	-46.2	17.9	0.00e+00	0	41	0	101711872	59	4695
2026-01-05 09:35:13.69	146.82	12.11	-43.7	-46.3	17.8	0.00e+00	0	41	0	102760448	59	4711
2026-01-05 09:35:14.84	146.79	12.22	-43.7	-46.3	17.9	0.00e+00	0	41	0	104857600	59	4728
2026-01-05 09:35:15.70	146.76	12.30	-43.6	-46.1	18.0	0.00e+00	0	41	0	106954752	59	4647
2026-01-05 09:35:16.84	146.73	12.41	-43.6	-46.1	18.1	0.00e+00	0	41	0	109051904	59	4615
2026-01-05 09:35:17.70	146.70	12.49	-43.5	-46.0	18.1	0.00e+00	0	41	0	111149056	59	4575
2026-01-05 09:35:18.85	146.66	12.60	-43.5	-46.0	18.1	0.00e+00	0	41	0	113246208	59	4597
2026-01-05 09:35:19.71	146.63	12.68	-43.5	-46.0	18.1	0.00e+00	0	41	0	114294784	59	4596
2026-01-05 09:35:20.85	146.60	12.79	-43.5	-46.0	18.1	0.00e+00	0	41	0	116391936	59	4593
2026-01-05 09:35:21.81	146.57	12.88	-43.5	-46.1	18.0	0.00e+00	0	41	0	118489088	59	4621
2026-01-05 09:35:22.81	146.53	12.98	-43.6	-46.2	18.0	0.00e+00	0	41	0	120586240	59	4674
2026-01-05 09:35:23.81	146.50	13.08	-43.5	-46.0	18.1	0.00e+00	0	41	0	121634816	58	4841
2026-01-05 09:35:24.82	146.47	13.18	-43.4	-45.9	18.3	0.00e+00	0	41	0	123731968	58	4779
2026-01-05 09:35:25.82	146.43	13.28	-43.4	-45.9	18.2	0.00e+00	0	41	0	125829120	58	4814
2026-01-05 09:35:26.82	146.40	13.37	-43.4	-45.8	18.3	0.00e+00	0	41	0	127926272	58	4756
2026-01-05 09:35:27.82	146.36	13.47	-43.4	-45.9	18.3	0.00e+00	0	41	0	130023424	58	4805
2026-01-05 09:35:28.83	146.33	13.57	-43.4	-45.9	18.3	0.00e+00	0	41	0	131072000	58	4762
2026-01-05 09:35:29.83	146.30	13.67	-43.3	-45.8	18.3	0.00e+00	0	41	0	133169152	58	4738
2026-01-05 09:35:30.83	146.26	13.77	-43.4	-45.9	18.3	0.00e+00	0	41	0	135266304	58	4795
2026-01-05 09:35:31.84	146.22	13.88	-43.4	-45.9	18.3	0.00e+00	0	41	0	137363456	58	4792
2026-01-05 09:35:32.84	146.19	13.98	-43.4	-45.9	18.3	0.00e+00	0	41	0	139460608	58	4765
2026-01-05 09:35:33.84	146.15	14.08	-43.4	-45.9	18.2	0.00e+00	0	41	0	140509184	58	4770
2026-01-05 09:35:34.94	146.11	14.19	-43.4	-45.8	18.4	0.00e+00	0	41	0	142606336	58	4741
2026-01-05 09:35:35.83	146.08	14.28	-43.4	-45.9	18.3	0.00e+00	0	41	0	144703488	58	4773
2026-01-05 09:35:37.15	146.03	14.42	-43.5	-46.0	18.2	0.00e+00	0	41	0	146800640	58	4818
2026-01-05 09:35:38.28	145.99	14.54	-43.4	-45.8	18.4	0.00e+00	0	41	0	148897792	58	4732
2026-01-05 09:35:39.14	145.96	14.62	-43.4	-45.8	18.4	0.00e+00	0	42	0	150994944	58	4737
2026-01-05 09:35:40.29	145.92	14.74	-43.4	-45.9	18.3	0.00e+00	0	41	0	153092096	58	4769
2026-01-05 09:35:41.15	145.88	14.83	-43.4	-45.8	18.4	0.00e+00	0	41	0	155189248	58	4726
2026-01-05 09:35:42.32	145.84	14.96	-43.4	-45.8	18.4	0.00e+00	0	41	0	157286400	58	4717
2026-01-05 09:35:43.18	145.81	15.05	-43.4	-45.7	18.4	0.00e+00	0	41	0	158334976	58	4705
2026-01-05 09:35:44.33	145.76	15.17	-43.4	-45.8	18.4	0.00e+00	0	41	0	160432128	58	4711
2026-01-05 09:35:45.19	145.73	15.26	-43.3	-45.7	18.5	0.00e+00	0	41	0	162529280	58	4700
2026-01-05 09:35:46.33	145.69	15.38	-43.3	-45.7	18.4	0.00e+00	0	42	0	164626432	58	4705
2026-01-05 09:35:47.20	145.65	15.48	-43.4	-45.9	18.4	0.00e+00	0	42	0	165675008	58	4762
2026-01-05 09:35:48.34	145.61	15.60	-43.4	-45.8	18.4	0.00e+00	0	42	0	167772160	58	4748
2026-01-05 09:35:49.20	145.57	15.69	-43.4	-45.8	18.4	0.00e+00	0	42	0	169869312	58	4732
2026-01-05 09:35:50.35	145.52	15.82	-43.3	-45.7	18.5	0.00e+00	0	41	0	171966464	58	4694
2026-01-05 09:35:51.21	145.49	15.91	-43.4	-45.8	18.4	0.00e+00	0	41	0	173015040	58	4740
2026-01-05 09:35:52.35	145.44	16.04	-43.4	-45.9	18.3	0.00e+00	0	41	0	176160768	58	4778
2026-01-05 09:35:53.21	145.41	16.13	-43.5	-45.9	18.3	0.00e+00	0	41	0	177209344	58	4811
2026-01-05 09:35:54.36	145.36	16.26	-43.5	-46.0	18.3	0.00e+00	0	41	0	179306496	58	4815
2026-01-05 09:35:55.22	145.32	16.36	-43.5	-46.0	18.3	0.00e+00	0	41	0	181403648	58	4815
2026-01-05 09:35:56.43	145.27	16.49	-43.4	-45.9	18.4	0.00e+00	0	42	0	183500800	58	4764
2026-01-05 09:35:57.29	145.24	16.59	-43.5	-45.9	18.3	0.00e+00	0	42	0	184549376	58	4792
2026-01-05 09:35:58.43	145.19	16.72	-43.4	-45.8	18.4	0.00e+00	0	42	0	186646528	58	4737
2026-01-05 09:35:59.29	145.15	16.81	-43.4	-45.8	18.5	0.00e+00	0	41	0	188743680	58	4726
2026-01-05 09:36:00.41	145.10	16.94	-43.5	-45.9	18.3	0.00e+00	0	42	0	190840832	58	4794
2026-01-05 09:36:01.31	145.06	17.04	-43.4	-45.8	18.4	0.00e+00	0	42	0	192937984	58	4732
2026-01-05 09:36:02.32	145.02	17.16	-43.3	-45.7	18.5	0.00e+00	0	42	0	193986560	58	4693
2026-01-05 09:36:03.56	144.96	17.30	-43.4	-45.8	18.4	0.00e+00	0	41	0	197132288	58	4734
2026-01-05 09:36:04.41	144.92	17.40	-43.4	-45.9	18.4	0.00e+00	0	42	0	198180864	58	4760
2026-01-05 09:36:05.56	144.87	17.54	-43.5	-45.9	18.3	0.00e+00	0	42	0	200278016	58	4804
2026-01-05 09:36:06.42	144.83	17.64	-43.5	-46.0	18.2	0.00e+00	0	41	0	202375168	58	4864
2026-01-05 09:36:07.57	144.78	17.77	-43.4	-45.9	18.4	0.00e+00	0	42	0	204472320	58	4799
2026-01-05 09:36:08.43	144.74	17.87	-43.4	-45.9	18.3	0.00e+00	0	42	0	205520896	58	4776
2026-01-05 09:36:09.57	144.68	18.01	-43.4	-45.9	18.4	0.00e+00	0	42	0	207618048	58	4763
2026-01-05 09:36:10.43	144.64	18.11	-43.3	-45.7	18.6	0.00e+00	0	42	0	209715200	58	4657
2026-01-05 09:36:11.58	144.59	18.25	-43.2	-45.6	18.6	0.00e+00	0	42	0	211812352	58	4641
2026-01-05 09:36:12.44	144.55	18.35	-43.1	-45.5	18.7	0.00e+00	0	42	0	212860928	58	4568
2026-01-05 09:36:13.58	144.49	18.49	-43.1	-45.5	18.7	0.00e+00	0	42	0	214958080	58	4561
2026-01-05 09:36:14.77	144.43	18.64	-43.2	-45.6	18.6	0.00e+00	0	42	0	218103808	58	4625
2026-01-05 09:36:15.83	144.38	18.76	-43.2	-45.6	18.7	0.00e+00	0	42	0	219152384	58	4615
2026-01-05 09:36:16.88	144.33	18.89	-43.3	-45.7	18.5	0.00e+00	0	42	0	221249536	58	4681
2026-01-05 09:36:17.81	144.28	19.01	-43.3	-45.7	18.5	0.00e+00	0	42	0	223346688	58	4701
2026-01-05 09:36:18.81	144.23	19.13	-43.3	-45.9	18.4	0.00e+00	0	42	0	225443840	58	4762
2026-01-05 09:36:19.82	144.18	19.26	-43.3	-45.8	18.5	0.00e+00	0	42	0	227540992	58	4725
2026-01-05 09:36:20.82	144.13	19.38	-43.3	-45.8	18.5	0.00e+00	0	41	0	228589568	58	4739
2026-01-05 09:36:21.82	144.07	19.51	-43.4	-45.8	18.5	0.00e+00	0	42	0	230686720	58	4748
2026-01-05 09:36:22.82	144.02	19.64	-43.3	-45.7	18.6	0.00e+00	0	41	0	232783872	58	4679
2026-01-05 09:36:23.82	143.97	19.76	-43.3	-45.8	18.5	0.00e+00	0	41	0	234881024	58	4712
2026-01-05 09:36:24.83	143.91	19.89	-43.3	-45.7	18.6	0.00e+00	0	41	0	236978176	58	4662
2026-01-05 09:36:25.83	143.86	20.02	-43.1	-45.5	18.8	0.00e+00	0	41	0	238026752	58	4582
2026-01-05 09:36:26.83	143.81	20.15	-43.2	-45.6	18.7	0.00e+00	0	42	0	240123904	58	4628
2026-01-05 09:36:27.83	143.75	20.28	-43.2	-45.6	18.7	0.00e+00	0	42	0	242221056	58	4627
2026-01-05 09:36:28.83	143.69	20.41	-43.2	-45.6	18.7	0.00e+00	0	42	0	244318208	58	4615
2026-01-05 09:36:29.84	143.64	20.54	-43.2	-45.5	18.7	0.00e+00	0	42	0	246415360	58	4589
2026-01-05 09:36:30.84	143.58	20.67	-43.2	-45.5	18.8	0.00e+00	0	42	0	247463936	58	4589
2026-01-05 09:36:31.84	143.52	20.81	-43.2	-45.6	18.7	0.00e+00	0	42	0	249561088	58	4632
2026-01-05 09:36:32.85	143.47	20.94	-43.3	-45.6	18.6	0.00e+00	0	42	0	251658240	58	4640
2026-01-05 09:36:33.84	143.41	21.07	-43.2	-45.5	18.8	0.00e+00	0	42	0	253755392	58	4584
2026-01-05 09:36:34.87	143.35	21.21	-43.2	-45.5	18.8	0.00e+00	0	41	0	255852544	58	4574
2026-01-05 09:36:35.88	143.29	21.35	-43.1	-45.4	18.8	0.00e+00	0	42	0	256901120	58	4541
2026-01-05 09:36:36.90	143.23	21.48	-43.1	-45.4	18.9	0.00e+00	0	42	0	258998272	58	4518
2026-01-05 09:36:37.90	143.17	21.62	-43.2	-45.5	18.8	0.00e+00	0	42	0	261095424	58	4577
2026-01-05 09:36:38.97	143.10	21.77	-43.1	-45.4	18.9	0.00e+00	0	42	0	263192576	58	4520
2026-01-05 09:36:39.86	143.05	21.89	-42.9	-45.2	19.1	0.00e+00	0	42	0	264241152	57	4683
2026-01-05 09:36:40.89	142.98	22.03	-43.0	-45.3	19.0	0.00e+00	0	42	0	266338304	57	4747
2026-01-05 09:36:41.89	142.92	22.17	-43.1	-45.5	18.8	0.00e+00	0	42	0	268435456	57	4817
2026-01-05 09:36:42.89	142.86	22.31	-43.1	-45.4	18.9	0.00e+00	0	42	0	270532608	57	4784
2026-01-05 09:36:43.90	142.79	22.45	-43.1	-45.5	18.8	0.00e+00	0	42	0	272629760	57	4847
2026-01-05 09:36:44.90	142.73	22.60	-43.2	-45.5	18.8	0.00e+00	0	42	0	274726912	57	4869
2026-01-05 09:36:45.90	142.66	22.74	-43.4	-45.8	18.6	0.00e+00	0	42	0	275775488	57	4998
2026-01-05 09:36:46.90	142.60	22.88	-43.4	-45.8	18.5	0.00e+00	0	41	0	277872640	57	4997
2026-01-05 09:36:47.90	142.53	23.02	-43.4	-45.8	18.6	0.00e+00	0	42	0	279969792	57	4998
2026-01-05 09:36:48.91	142.47	23.17	-43.4	-45.8	18.5	0.00e+00	0	42	0	282066944	57	5019
2026-01-05 09:36:49.91	142.40	23.32	-43.5	-45.9	18.4	0.00e+00	0	42	0	283115520	57	5091
2026-01-05 09:36:50.95	142.33	23.47	-43.3	-45.7	18.6	0.00e+00	0	41	0	285212672	57	4974
2026-01-05 09:36:51.98	142.26	23.62	-43.5	-45.9	18.5	0.00e+00	0	42	0	287309824	57	5055
2026-01-05 09:36:52.98	142.19	23.77	-43.4	-45.9	18.5	0.00e+00	0	42	0	289406976	57	5050
2026-01-05 09:36:53.99	142.12	23.92	-43.5	-45.9	18.4	0.00e+00	0	41	0	291504128	57	5088
2026-01-05 09:36:54.99	142.05	24.07	-43.6	-46.0	18.3	0.00e+00	0	42	0	293601280	57	5143
2026-01-05 09:36:56.00	141.97	24.22	-43.6	-46.1	18.3	0.00e+00	0	42	0	294649856	57	5204
2026-01-05 09:36:57.00	141.90	24.37	-43.6	-46.1	18.3	0.00e+00	0	42	0	296747008	58	4901
2026-01-05 09:36:58.00	141.83	24.52	-43.8	-46.2	18.1	0.00e+00	0	42	0	298844160	58	4979
2026-01-05 09:36:59.00	141.75	24.67	-43.7	-46.2	18.2	0.00e+00	0	42	0	300941312	58	4956
2026-01-05 09:37:00.01	141.68	24.83	-43.9	-46.3	18.0	0.00e+00	0	42	0	303038464	58	5035
2026-01-05 09:37:01.01	141.60	24.98	-43.9	-46.4	18.0	0.00e+00	0	42	0	304087040	58	5044
2026-01-05 09:37:02.01	141.53	25.14	-43.9	-46.4	18.0	0.00e+00	0	42	0	306184192	58	5075
2026-01-05 09:37:03.01	141.45	25.29	-44.0	-46.5	17.9	0.00e+00	0	42	0	308281344	58	5115
2026-01-05 09:37:04.02	141.37	25.45	-44.0	-46.5	17.9	0.00e+00	0	42	0	310378496	58	5154
2026-01-05 09:37:05.02	141.29	25.61	-44.1	-46.7	17.8	0.00e+00	0	42	0	311427072	58	5219
2026-01-05 09:37:06.02	141.21	25.77	-44.2	-46.8	17.6	0.00e+00	0	42	0	313524224	59	5001
2026-01-05 09:37:07.02	141.13	25.93	-44.3	-46.9	17.5	0.00e+00	0	42	0	315621376	59	5081
2026-01-05 09:37:08.03	141.05	26.09	-44.4	-47.1	17.3	0.00e+00	0	42	0	317718528	59	5189
2026-01-05 09:37:09.02	140.97	26.25	-44.5	-47.2	17.2	0.00e+00	0	42	0	319815680	59	5267
2026-01-05 09:37:10.03	140.89	26.41	-44.6	-47.4	17.1	0.00e+00	0	42	0	320864256	59	5359
2026-01-05 09:37:11.03	140.81	26.57	-44.7	-47.5	17.1	0.00e+00	0	42	0	322961408	60	5108
2026-01-05 09:37:12.03	140.72	26.74	-44.8	-47.7	16.9	0.00e+00	0	42	0	325058560	60	5220
2026-01-05 09:37:13.03	140.64	26.90	-45.0	-47.8	16.7	0.00e+00	0	42	0	327155712	60	5340
2026-01-05 09:37:14.03	140.55	27.07	-45.0	-47.8	16.7	0.00e+00	0	42	0	329252864	60	5325
2026-01-05 09:37:15.04	140.46	27.24	-45.1	-48.0	16.6	0.00e+00	0	42	0	330301440	60	5418
2026-01-05 09:37:16.04	140.37	27.40	-45.2	-48.1	16.4	0.00e+00	0	42	0	332398592	61	5194
2026-01-05 09:37:17.05	140.28	27.57	-45.2	-48.1	16.4	0.00e+00	0	42	0	334495744	61	5185
2026-01-05 09:37:18.05	140.19	27.74	-45.3	-48.3	16.2	0.00e+00	0	42	0	336592896	61	5321
2026-01-05 09:37:19.05	140.10	27.92	-45.4	-48.4	16.1	0.00e+00	0	42	0	338690048	61	5371
2026-01-05 09:37:20.06	140.01	28.09	-45.5	-48.5	16.1	0.00e+00	0	42	0	339738624	61	5416
2026-01-05 09:37:21.17	139.91	28.28	-45.5	-48.5	16.1	0.00e+00	0	42	0	341835776	61	5433
2026-01-05 09:37:22.03	139.83	28.43	-45.5	-48.6	16.0	0.00e+00	0	42	0	343932928	61	5468
2026-01-05 09:37:23.18	139.72	28.63	-45.6	-48.7	15.8	0.00e+00	0	42	0	346030080	61	5576
2026-01-05 09:37:24.03	139.63	28.78	-45.6	-48.7	15.9	0.00e+00	0	42	0	347078656	61	5562
2026-01-05 09:37:25.18	139.52	28.98	-45.7	-48.8	15.8	0.00e+00	0	42	0	349175808	62	5309
2026-01-05 09:37:26.04	139.44	29.13	-45.9	-49.1	15.5	0.00e+00	0	42	0	351272960	62	5471
2026-01-05 09:37:27.18	139.32	29.34	-45.9	-49.1	15.5	0.00e+00	0	42	0	353370112	62	5486
2026-01-05 09:37:28.04	139.24	29.49	-46.0	-49.2	15.4	0.00e+00	0	42	0	355467264	62	5558
2026-01-05 09:37:29.19	139.12	29.70	-46.1	-49.3	15.2	0.00e+00	0	42	0	357564416	62	5656
2026-01-05 09:37:30.04	139.03	29.86	-46.0	-49.3	15.3	0.00e+00	0	42	0	358612992	62	5634
2026-01-05 09:37:31.19	138.91	30.07	-46.2	-49.6	15.0	0.00e+00	0	42	0	360710144	63	5490
2026-01-05 09:37:32.05	138.82	30.22	-46.0	-49.3	15.2	0.00e+00	0	42	0	362807296	63	5310
2026-01-05 09:37:33.20	138.70	30.44	-46.0	-49.3	15.3	0.00e+00	0	42	0	364904448	63	5309
2026-01-05 09:37:34.06	138.61	30.60	-46.1	-49.4	15.2	0.00e+00	0	42	0	365953024	63	5354
2026-01-05 09:37:35.33	138.47	30.83	-46.1	-49.4	15.2	0.00e+00	0	42	0	369098752	63	5385
2026-01-05 09:37:36.05	138.39	30.97	-46.0	-49.3	15.3	0.00e+00	0	42	0	370147328	63	5307
2026-01-05 09:37:37.33	138.25	31.21	-46.1	-49.5	15.1	7.00e-07	0	42	0	372244480	63	5413
2026-01-05 09:37:38.05	138.16	31.35	-46.2	-49.6	15.0	0.00e+00	0	42	0	374341632	63	5509
2026-01-05 09:37:39.33	138.02	31.59	-46.5	-50.1	14.5	7.00e-07	0	42	0	376438784	63	5802
2026-01-05 09:37:40.05	137.93	31.73	-46.6	-50.2	14.5	1.50e-06	0	42	0	377487360	63	5861
2026-01-05 09:37:41.34	137.78	31.98	-46.5	-50.1	14.5	0.00e+00	0	42	0	379584512	63	5834
2026-01-05 09:37:42.06	137.70	32.12	-46.6	-50.3	14.2	1.50e-06	0	42	0	381681664	64	5645
2026-01-05 09:37:43.36	137.54	32.38	-46.5	-50.0	14.5	0.00e+00	0	42	0	383778816	64	5461
2026-01-05 09:37:44.07	137.45	32.52	-46.4	-49.9	14.6	0.00e+00	0	42	0	384827392	64	5388
2026-01-05 09:37:45.36	137.29	32.78	-46.3	-49.8	14.7	0.00e+00	0	42	0	387973120	64	5303
2026-01-05 09:37:46.07	137.21	32.92	-46.3	-49.7	14.8	7.00e-07	0	42	0	389021696	64	5268
2026-01-05 09:37:47.46	137.03	33.20	-46.2	-49.6	14.9	0.00e+00	0	42	0	391118848	64	5174
2026-01-05 09:37:48.18	136.94	33.34	-46.2	-49.6	15.0	0.00e+00	0	42	0	393216000	64	5189
2026-01-05 09:37:49.55	136.76	33.62	-46.3	-49.8	14.7	0.00e+00	0	42	0	395313152	64	5325
2026-01-05 09:37:50.26	136.67	33.77	-46.5	-50.1	14.5	0.00e+00	0	42	0	396361728	64	5505
2026-01-05 09:37:51.55	136.49	34.03	-46.4	-50.1	14.4	7.00e-07	0	42	0	399507456	64	5507
2026-01-05 09:37:52.27	136.40	34.18	-46.3	-50.0	14.6	7.00e-07	0	42	0	400556032	64	5410
2026-01-05 09:37:53.56	136.22	34.45	-46.3	-49.8	14.8	7.00e-07	0	42	0	402653184	64	5306
2026-01-05 09:37:54.27	136.12	34.60	-46.3	-49.9	14.7	0.00e+00	0	42	0	404750336	64	5377
2026-01-05 09:37:55.56	135.94	34.87	-46.4	-50.1	14.4	0.00e+00	0	42	0	406847488	64	5522
2026-01-05 09:37:56.28	135.84	35.02	-46.4	-50.2	14.4	0.00e+00	0	42	0	407896064	64	5539
2026-01-05 09:37:57.57	135.65	35.30	-46.5	-50.2	14.3	2.20e-06	0	42	0	409993216	64	5592
2026-01-05 09:37:58.28	135.55	35.45	-46.7	-50.7	13.9	7.00e-07	0	42	0	412090368	64	5880
2026-01-05 09:37:59.57	135.35	35.73	-46.6	-50.3	14.3	3.80e-06	0	42	0	414187520	64	5626
2026-01-05 09:38:00.29	135.25	35.88	-46.5	-50.1	14.4	7.00e-07	0	42	0	415236096	64	5515
2026-01-05 09:38:01.57	135.05	36.16	-46.4	-49.9	14.6	0.00e+00	0	42	0	418381824	64	5402
2026-01-05 09:38:02.29	134.94	36.32	-46.4	-50.0	14.6	0.00e+00	0	42	0	419430400	64	5415
2026-01-05 09:38:03.58	134.74	36.60	-46.5	-50.1	14.4	1.50e-06	0	42	0	421527552	64	5470
2026-01-05 09:38:04.29	134.62	36.76	-46.5	-50.1	14.5	7.00e-07	0	42	0	422576128	64	5500
2026-01-05 09:38:05.62	134.41	37.06	-46.2	-49.6	15.0	0.00e+00	0	42	0	425721856	64	5186
2026-01-05 09:38:06.33	134.29	37.22	-46.1	-49.4	15.2	0.00e+00	0	42	0	426770432	64	5089
2026-01-05 09:38:07.73	134.06	37.53	-46.0	-49.2	15.5	0.00e+00	0	42	0	429916160	63	5236
2026-01-05 09:38:08.45	133.94	37.69	-45.8	-49.0	15.6	0.00e+00	0	42	0	430964736	63	5121
2026-01-05 09:38:09.74	133.72	37.99	-45.9	-49.0	15.7	0.00e+00	0	42	0	433061888	63	5149
2026-01-05 09:38:10.46	133.60	38.15	-46.0	-49.2	15.5	0.00e+00	0	42	0	434110464	63	5238
2026-01-05 09:38:11.74	133.37	38.45	-45.9	-49.0	15.6	0.00e+00	0	42	0	437256192	63	5152
2026-01-05 09:38:12.46	133.24	38.62	-45.8	-48.9	15.7	0.00e+00	0	42	0	438304768	63	5070
2026-01-05 09:38:13.75	133.01	38.92	-45.6	-48.7	15.9	0.00e+00	0	42	0	440401920	63	4943
2026-01-05 09:38:14.46	132.88	39.08	-45.7	-48.7	15.9	0.00e+00	0	42	0	442499072	63	4977
2026-01-05 09:38:15.75	132.64	39.39	-45.7	-48.7	15.9	0.00e+00	0	42	0	444596224	63	4970
2026-01-05 09:38:16.47	132.50	39.56	-45.6	-48.6	16.0	0.00e+00	0	42	0	445644800	63	4907
2026-01-05 09:38:17.76	132.26	39.87	-45.6	-48.6	16.1	0.00e+00	0	42	0	448790528	63	4925
2026-01-05 09:38:18.53	132.11	40.05	-45.4	-48.4	16.2	0.00e+00	0	42	0	449839104	62	5063
2026-01-05 09:38:19.82	131.85	40.36	-45.6	-48.6	16.0	0.00e+00	0	42	0	451936256	62	5192
2026-01-05 09:38:20.62	131.69	40.55	-45.6	-48.6	16.0	0.00e+00	0	42	0	454033408	62	5201
2026-01-05 09:38:21.77	131.46	40.83	-45.8	-49.0	15.7	0.00e+00	0	42	0	456130560	62	5434
2026-01-05 09:38:22.63	131.28	41.04	-45.8	-49.0	15.7	0.00e+00	0	42	0	457179136	62	5415
2026-01-05 09:38:23.77	131.04	41.32	-45.9	-49.1	15.6	0.00e+00	0	42	0	459276288	62	5496
2026-01-05 09:38:24.63	130.85	41.54	-46.1	-49.4	15.2	0.00e+00	0	42	0	461373440	62	5700
2026-01-05 09:38:25.78	130.61	41.82	-46.0	-49.2	15.4	0.00e+00	0	42	0	463470592	62	5560
2026-01-05 09:38:26.64	130.42	42.04	-46.0	-49.2	15.5	0.00e+00	0	42	0	464519168	62	5562
2026-01-05 09:38:27.78	130.16	42.32	-45.9	-49.1	15.6	0.00e+00	0	42	0	466616320	62	5484
2026-01-05 09:38:28.64	129.97	42.54	-45.8	-48.9	15.7	0.00e+00	0	42	0	468713472	62	5365
2026-01-05 09:38:29.79	129.70	42.83	-45.6	-48.7	16.0	0.00e+00	0	42	0	470810624	62	5223
2026-01-05 09:38:30.64	129.50	43.05	-45.6	-48.7	16.0	0.00e+00	0	42	0	472907776	62	5231
2026-01-05 09:38:31.79	129.23	43.34	-45.5	-48.6	16.0	0.00e+00	0	42	0	475004928	62	5161
2026-01-05 09:38:32.73	129.00	43.58	-45.4	-48.4	16.2	0.00e+00	0	42	0	476053504	62	5099
2026-01-05 09:38:33.73	128.75	43.84	-45.6	-48.7	16.0	7.00e-07	0	42	0	478150656	62	5231
2026-01-05 09:38:34.74	128.50	44.10	-45.5	-48.6	16.0	0.00e+00	0	42	0	480247808	62	5207
2026-01-05 09:38:35.74	128.24	44.36	-45.1	-48.0	16.7	0.00e+00	0	42	0	482344960	62	4837
2026-01-05 09:38:36.75	127.98	44.62	-45.0	-47.8	16.8	0.00e+00	0	42	0	484442112	62	4748
2026-01-05 09:38:37.74	127.72	44.88	-44.7	-47.4	17.2	0.00e+00	0	42	0	485490688	61	4780
2026-01-05 09:38:38.75	127.45	45.15	-44.7	-47.4	17.2	0.00e+00	0	42	0	487587840	61	4806
2026-01-05 09:38:39.75	127.18	45.41	-44.8	-47.6	17.0	0.00e+00	0	42	0	489684992	61	4877
2026-01-05 09:38:40.75	126.90	45.68	-44.8	-47.6	17.0	0.00e+00	0	42	0	491782144	61	4893
2026-01-05 09:38:41.76	126.62	45.94	-44.9	-47.6	17.0	0.00e+00	0	42	0	492830720	61	4907
2026-01-05 09:38:42.76	126.33	46.21	-45.1	-47.9	16.8	0.00e+00	0	42	0	494927872	61	5053
2026-01-05 09:38:43.76	126.04	46.48	-45.2	-48.1	16.5	0.00e+00	0	42	0	497025024	61	5194
2026-01-05 09:38:44.76	125.75	46.75	-45.3	-48.2	16.4	0.00e+00	0	42	0	499122176	61	5256
2026-01-05 09:38:45.94	125.39	47.07	-45.3	-48.2	16.4	0.00e+00	0	42	0	501219328	61	5271
2026-01-05 09:38:46.82	125.12	47.30	-45.5	-48.5	16.1	0.00e+00	0	42	0	502267904	61	5436
2026-01-05 09:38:48.13	124.71	47.66	-45.3	-48.2	16.3	0.00e+00	0	42	0	505413632	61	5272
2026-01-05 09:38:48.84	124.48	47.85	-45.2	-48.0	16.6	0.00e+00	0	42	0	506462208	61	5138
2026-01-05 09:38:50.13	124.06	48.21	-45.0	-47.8	16.8	0.00e+00	0	42	0	508559360	61	5004
2026-01-05 09:38:51.28	123.68	48.52	-45.0	-47.9	16.7	0.00e+00	0	42	0	510656512	61	5052
2026-01-05 09:38:52.14	123.39	48.76	-45.0	-47.9	16.7	0.00e+00	0	42	0	512753664	61	5064
2026-01-05 09:38:53.28	123.00	49.07	-45.0	-47.9	16.7	0.00e+00	0	42	0	514850816	61	5097
2026-01-05 09:38:54.14	122.70	49.31	-44.7	-47.4	17.1	0.00e+00	0	42	0	516947968	61	4812
2026-01-05 09:38:55.30	122.28	49.63	-44.5	-47.1	17.5	0.00e+00	0	42	0	519045120	60	4901
2026-01-05 09:38:56.16	121.97	49.86	-44.4	-47.1	17.5	0.00e+00	0	42	0	520093696	60	4879
2026-01-05 09:38:57.40	121.51	50.21	-44.5	-47.2	17.4	0.00e+00	0	42	0	522190848	60	4947
2026-01-05 09:38:58.26	121.19	50.45	-44.6	-47.3	17.3	0.00e+00	0	42	0	524288000	60	4988
2026-01-05 09:38:59.41	120.74	50.77	-44.7	-47.3	17.3	0.00e+00	0	42	0	526385152	60	5034
2026-01-05 09:39:00.26	120.41	51.00	-44.6	-47.3	17.3	0.00e+00	0	42	0	528482304	60	5003
2026-01-05 09:39:01.41	119.95	51.32	-44.4	-47.0	17.7	0.00e+00	0	42	0	530579456	60	4823
2026-01-05 09:39:02.28	119.60	51.56	-44.3	-46.8	17.7	0.00e+00	0	42	0	531628032	60	4741
2026-01-05 09:39:03.62	119.04	51.94	-44.0	-46.5	18.0	0.00e+00	0	42	0	534773760	60	4579
2026-01-05 09:39:04.33	118.74	52.14	-43.9	-46.3	18.1	0.00e+00	0	42	0	535822336	59	4757
2026-01-05 09:39:05.62	118.18	52.49	-43.7	-46.1	18.4	0.00e+00	0	42	0	537919488	59	4647
2026-01-05 09:39:06.34	117.87	52.70	-43.9	-46.3	18.3	0.00e+00	0	42	0	538968064	59	4729
2026-01-05 09:39:07.63	117.29	53.05	-43.9	-46.3	18.2	0.00e+00	0	42	0	542113792	59	4756
2026-01-05 09:39:08.35	116.96	53.25	-43.8	-46.2	18.3	0.00e+00	0	42	0	543162368	59	4686
2026-01-05 09:39:09.63	116.36	53.61	-43.5	-45.9	18.6	0.00e+00	0	42	0	545259520	59	4529
2026-01-05 09:39:10.35	116.02	53.81	-43.5	-45.8	18.6	0.00e+00	0	42	0	547356672	58	4744
2026-01-05 09:39:11.64	115.40	54.16	-43.7	-46.1	18.5	0.00e+00	0	42	0	549453824	58	4881
2026-01-05 09:39:12.35	115.05	54.36	-43.8	-46.2	18.3	0.00e+00	0	42	0	550502400	58	4973
2026-01-05 09:39:13.64	114.40	54.71	-43.9	-46.4	18.1	0.00e+00	0	42	0	552599552	58	5071
2026-01-05 09:39:14.36	114.03	54.91	-43.7	-46.2	18.3	0.00e+00	0	42	0	554696704	58	4935
2026-01-05 09:39:15.65	113.35	55.26	-43.6	-46.0	18.6	0.00e+00	0	42	0	556793856	58	4818
2026-01-05 09:39:16.36	112.98	55.46	-43.6	-46.0	18.6	0.00e+00	0	42	0	557842432	58	4822
2026-01-05 09:39:17.65	112.27	55.81	-43.8	-46.3	18.2	0.00e+00	0	42	0	560988160	58	5033
2026-01-05 09:39:18.36	111.88	56.00	-44.0	-46.5	18.0	0.00e+00	0	42	0	562036736	58	5118
2026-01-05 09:39:19.65	111.15	56.34	-44.3	-47.0	17.6	0.00e+00	0	42	0	564133888	59	5114
2026-01-05 09:39:20.36	110.74	56.53	-44.7	-47.6	17.2	0.00e+00	0	42	0	565182464	60	5161
2026-01-05 09:39:21.65	109.98	56.88	-45.2	-48.3	16.4	0.00e+00	0	42	0	568328192	61	5284
2026-01-05 09:39:22.36	109.56	57.06	-45.3	-48.4	16.3	0.00e+00	0	42	0	569376768	61	5375
2026-01-05 09:39:23.65	108.77	57.40	-45.5	-48.7	16.0	0.00e+00	0	42	0	571473920	61	5552
2026-01-05 09:39:24.37	108.32	57.59	-45.7	-48.9	15.8	0.00e+00	0	42	0	573571072	62	5379
2026-01-05 09:39:25.66	107.50	57.92	-45.9	-49.1	15.5	0.00e+00	0	42	0	575668224	62	5503
2026-01-05 09:39:26.37	107.04	58.10	-45.7	-48.7	16.0	0.00e+00	0	42	0	576716800	62	5279
2026-01-05 09:39:27.68	106.18	58.43	-45.6	-48.7	16.1	0.00e+00	0	42	0	579862528	62	5219
2026-01-05 09:39:28.39	105.70	58.61	-45.7	-48.7	16.0	0.00e+00	0	42	0	580911104	62	5257
2026-01-05 09:39:29.68	104.82	58.93	-45.3	-48.2	16.5	0.00e+00	0	42	0	583008256	62	4954
2026-01-05 09:39:30.40	104.32	59.11	-45.2	-48.0	16.7	0.00e+00	0	42	0	584056832	62	4846
2026-01-05 09:39:31.76	103.35	59.43	-45.0	-47.7	16.9	0.00e+00	0	42	0	587202560	61	4981
2026-01-05 09:39:32.48	102.83	59.61	-44.9	-47.7	17.0	0.00e+00	0	42	0	588251136	61	4934
2026-01-05 09:39:33.77	101.87	59.91	-44.6	-47.3	17.4	0.00e+00	0	42	0	590348288	61	4739
2026-01-05 09:39:34.48	101.34	60.07	-44.8	-47.6	17.1	0.00e+00	0	42	0	592445440	61	4894
2026-01-05 09:39:35.77	100.35	60.37	-44.9	-47.7	17.0	0.00e+00	0	42	0	594542592	61	4941
2026-01-05 09:39:36.49	99.79	60.53	-44.7	-47.4	17.2	0.00e+00	0	42	0	595591168	61	4785
2026-01-05 09:39:37.78	98.77	60.81	-44.0	-46.5	18.0	0.00e+00	0	42	0	598736896	60	4590
2026-01-05 09:39:38.50	98.19	60.97	-43.5	-45.9	18.5	0.00e+00	0	42	0	599785472	59	4528
2026-01-05 09:39:39.78	97.13	61.24	-43.0	-45.3	19.1	0.00e+00	0	42	0	601882624	58	4467
2026-01-05 09:39:40.50	96.53	61.38	-42.9	-45.2	19.3	0.00e+00	0	42	0	603979776	57	4654
2026-01-05 09:39:41.79	95.44	61.64	-42.8	-45.0	19.5	0.00e+00	0	42	0	606076928	57	4560
2026-01-05 09:39:42.60	94.74	61.80	-42.6	-44.8	19.6	0.00e+00	0	42	0	607125504	57	4484
2026-01-05 09:39:43.75	93.73	62.02	-42.7	-44.9	19.5	0.00e+00	0	42	0	609222656	57	4529
2026-01-05 09:39:44.61	92.96	62.18	-42.5	-44.8	19.7	0.00e+00	0	42	0	611319808	57	4444
2026-01-05 09:39:45.75	91.93	62.39	-42.4	-44.6	19.8	0.00e+00	0	42	0	613416960	56	4607
2026-01-05 09:39:46.61	91.15	62.54	-42.3	-44.4	20.0	0.00e+00	0	42	0	614465536	56	4523
2026-01-05 09:39:47.76	90.07	62.73	-42.4	-44.5	19.8	0.00e+00	0	42	0	616562688	56	4593
2026-01-05 09:39:48.61	89.27	62.87	-42.6	-44.9	19.5	0.00e+00	0	42	0	618659840	56	4770
2026-01-05 09:39:49.76	88.17	63.05	-42.5	-44.7	19.6	0.00e+00	0	42	0	620756992	56	4701
2026-01-05 09:39:50.61	87.35	63.18	-42.6	-44.9	19.5	0.00e+00	0	42	0	622854144	56	4781
2026-01-05 09:39:51.76	86.22	63.34	-42.8	-45.0	19.4	0.00e+00	0	42	0	624951296	56	4857
2026-01-05 09:39:52.61	85.38	63.46	-42.6	-44.8	19.6	0.00e+00	0	42	0	625999872	56	4759
2026-01-05 09:39:53.76	84.22	63.61	-42.6	-44.8	19.7	0.00e+00	0	42	0	628097024	56	4714
2026-01-05 09:39:54.71	83.26	63.73	-42.4	-44.6	19.8	0.00e+00	0	42	0	630194176	56	4624
2026-01-05 09:39:55.89	82.05	63.86	-42.4	-44.6	19.8	0.00e+00	0	42	0	632291328	56	4624
2026-01-05 09:39:56.75	81.16	63.95	-42.3	-44.5	19.9	0.00e+00	0	42	0	634388480	56	4558
2026-01-05 09:39:58.10	79.75	64.09	-42.5	-44.6	19.8	0.00e+00	0	42	0	636485632	56	4628
2026-01-05 09:39:58.81	79.00	64.15	-42.4	-44.6	19.8	0.00e+00	0	42	0	637534208	56	4621
2026-01-05 09:40:00.10	77.62	64.26	-42.4	-44.5	19.9	0.00e+00	0	42	0	640679936	56	4567
2026-01-05 09:40:00.82	76.85	64.31	-42.3	-44.4	20.0	0.00e+00	0	42	0	641728512	56	4517
2026-01-05 09:40:02.11	75.46	64.40	-42.1	-44.1	20.2	0.00e+00	0	42	0	643825664	56	4387
2026-01-05 09:40:02.82	74.70	64.44	-42.3	-44.4	20.1	0.00e+00	0	42	0	644874240	56	4516
2026-01-05 09:40:04.11	73.29	64.51	-42.4	-44.5	19.9	0.00e+00	0	42	0	648019968	56	4598
2026-01-05 09:40:04.89	72.44	64.54	-42.5	-44.7	19.8	0.00e+00	0	42	0	649068544	56	4657
2026-01-05 09:40:06.18	71.02	64.58	-42.4	-44.5	19.9	0.00e+00	0	42	0	651165696	56	4568
2026-01-05 09:40:06.99	70.13	64.60	-42.1	-44.2	20.2	0.00e+00	0	42	0	653262848	56	4400
2026-01-05 09:40:08.13	68.88	64.62	-42.1	-44.2	20.2	0.00e+00	0	42	0	655360000	56	4409
2026-01-05 09:40:09.23	67.67	64.63	-41.9	-44.0	20.3	0.00e+00	0	42	0	657457152	55	4587
2026-01-05 09:40:10.26	66.53	64.63	-42.2	-44.3	19.9	0.00e+00	0	42	0	659554304	55	4753
2026-01-05 09:40:11.26	65.43	64.62	-41.9	-44.0	20.3	0.00e+00	0	42	0	660602880	55	4566
2026-01-05 09:40:12.26	64.33	64.60	-42.2	-44.4	19.9	0.00e+00	0	42	0	662700032	55	4769
2026-01-05 09:40:13.27	63.22	64.57	-42.5	-44.7	19.6	0.00e+00	0	42	0	664797184	55	4972
2026-01-05 09:40:14.52	61.85	64.52	-43.1	-45.4	19.1	0.00e+00	0	42	0	666894336	56	5078
2026-01-05 09:40:15.26	61.04	64.49	-43.2	-45.5	19.0	0.00e+00	0	42	0	668991488	57	4852
2026-01-05 09:40:16.54	59.65	64.42	-43.2	-45.4	19.1	0.00e+00	0	42	0	671088640	57	4813
2026-01-05 09:40:17.26	58.87	64.38	-43.2	-45.5	19.0	0.00e+00	0	42	0	672137216	57	4841
2026-01-05 09:40:18.55	57.49	64.29	-43.3	-45.7	18.9	0.00e+00	0	42	0	675282944	57	4940
2026-01-05 09:40:19.28	56.71	64.23	-43.4	-45.8	18.8	0.00e+00	0	42	0	676331520	57	4987
2026-01-05 09:40:20.56	55.35	64.12	-43.0	-45.3	19.2	0.00e+00	0	42	0	678428672	57	4708
2026-01-05 09:40:21.28	54.59	64.05	-43.0	-45.2	19.3	0.00e+00	0	42	0	679477248	57	4690
2026-01-05 09:40:22.56	53.26	63.92	-43.1	-45.3	19.2	0.00e+00	0	42	0	682622976	57	4730
2026-01-05 09:40:23.28	52.52	63.84	-43.0	-45.3	19.2	0.00e+00	0	42	0	683671552	57	4724
2026-01-05 09:40:24.57	51.20	63.69	-42.7	-44.9	19.6	0.00e+00	0	42	0	685768704	57	4515
2026-01-05 09:40:25.29	50.47	63.61	-42.7	-44.9	19.5	0.00e+00	0	42	0	687865856	57	4531
2026-01-05 09:40:26.58	49.18	63.44	-42.3	-44.4	20.1	0.00e+00	0	42	0	689963008	56	4500
2026-01-05 09:40:27.30	48.46	63.34	-42.2	-44.3	20.2	0.00e+00	0	42	0	691011584	56	4455
2026-01-05 09:40:28.59	47.20	63.15	-41.8	-43.8	20.4	0.00e+00	0	42	0	693108736	55	4474
2026-01-05 09:40:29.30	46.52	63.05	-41.6	-43.6	20.5	0.00e+00	0	42	0	695205888	55	4389
2026-01-05 09:40:30.59	45.29	62.84	-41.7	-43.7	20.5	0.00e+00	0	42	0	697303040	54	4696
2026-01-05 09:40:31.31	44.61	62.72	-41.8	-43.9	20.3	0.00e+00	0	42	0	698351616	54	4805
2026-01-05 09:40:32.60	43.41	62.51	-42.1	-44.3	20.0	0.00e+00	0	42	0	701497344	55	4723
2026-01-05 09:40:33.47	42.62	62.35	-42.4	-44.6	19.7	0.00e+00	0	42	0	702545920	55	4893
2026-01-05 09:40:34.61	41.59	62.15	-43.0	-45.3	19.3	0.00e+00	0	42	0	704643072	56	4986
2026-01-05 09:40:35.66	40.66	61.95	-43.0	-45.2	19.3	0.00e+00	0	42	0	706740224	56	4951
2026-01-05 09:40:36.54	39.89	61.78	-43.1	-45.3	19.2	0.00e+00	0	42	0	708837376	56	5038
2026-01-05 09:40:37.68	38.92	61.56	-43.9	-46.4	18.3	0.00e+00	0	42	0	710934528	58	5065
2026-01-05 09:40:38.54	38.19	61.38	-44.2	-46.7	17.9	0.00e+00	0	42	0	711983104	59	4959
2026-01-05 09:40:39.69	37.23	61.14	-44.3	-46.8	17.8	0.00e+00	0	42	0	714080256	59	5029
2026-01-05 09:40:40.55	36.53	60.96	-44.2	-46.7	17.9	0.00e+00	0	42	0	716177408	59	4939
2026-01-05 09:40:41.70	35.61	60.71	-44.8	-47.5	17.3	0.00e+00	0	42	0	718274560	60	5107
2026-01-05 09:40:42.56	34.93	60.52	-45.3	-48.2	16.5	0.00e+00	0	42	0	719323136	61	5251
2026-01-05 09:40:43.70	34.05	60.27	-46.1	-49.3	15.5	0.00e+00	0	42	0	722468864	62	5609
2026-01-05 09:40:44.56	33.39	60.07	-46.4	-49.8	15.1	0.00e+00	0	42	0	723517440	63	5597
2026-01-05 09:40:45.70	32.54	59.81	-46.5	-49.9	14.9	0.00e+00	0	42	0	725614592	63	5660
2026-01-05 09:40:46.56	31.91	59.61	-46.3	-49.6	15.1	0.00e+00	0	42	0	727711744	63	5519
2026-01-05 09:40:47.71	31.08	59.33	-46.4	-49.8	15.0	0.00e+00	0	42	0	729808896	63	5596
2026-01-05 09:40:48.57	30.47	59.12	-46.3	-49.6	15.2	0.00e+00	0	42	0	730857472	63	5519
2026-01-05 09:40:49.71	29.68	58.85	-46.5	-50.0	14.9	0.00e+00	0	42	0	732954624	63	5758
2026-01-05 09:40:50.58	29.09	58.63	-46.8	-50.5	14.1	7.00e-07	0	42	0	735051776	64	5773
2026-01-05 09:40:51.72	28.32	58.35	-47.1	-51.0	13.5	1.14e-05	0	42	0	737148928	65	5782
2026-01-05 09:40:52.58	27.76	58.13	-46.8	-50.4	14.2	7.00e-07	0	42	0	738197504	65	5397
2026-01-05 09:40:53.73	27.02	57.83	-46.3	-49.7	15.0	7.00e-07	0	42	0	740294656	64	5252
2026-01-05 09:40:54.59	26.48	57.61	-46.1	-49.4	15.2	0.00e+00	0	42	0	742391808	64	5083
2026-01-05 09:40:55.74	25.76	57.32	-46.1	-49.4	15.3	0.00e+00	0	42	0	744488960	64	5044
2026-01-05 09:40:56.59	25.25	57.09	-46.1	-49.4	15.3	7.00e-07	0	42	0	746586112	64	5056
2026-01-05 09:40:57.74	24.56	56.79	-46.0	-49.2	15.5	0.00e+00	0	42	0	748683264	63	5264
2026-01-05 09:40:58.60	24.06	56.56	-45.7	-48.8	16.0	0.00e+00	0	42	0	749731840	63	5018
2026-01-05 09:40:59.75	23.40	56.26	-45.2	-48.1	16.7	0.00e+00	0	42	0	751828992	62	4890
2026-01-05 09:41:00.60	22.92	56.03	-45.0	-47.8	17.0	0.00e+00	0	42	0	753926144	62	4721
2026-01-05 09:41:01.75	22.29	55.72	-44.6	-47.3	17.3	0.00e+00	0	42	0	756023296	61	4744
2026-01-05 09:41:02.61	21.82	55.49	-44.2	-46.7	17.9	0.00e+00	0	42	0	757071872	60	4691
2026-01-05 09:41:04.10	21.04	55.08	-43.8	-46.3	18.3	0.00e+00	0	42	0	760217600	59	4718
2026-01-05 09:41:04.82	20.66	54.89	-43.9	-46.4	18.3	0.00e+00	0	42	0	761266176	59	4786
2026-01-05 09:41:06.11	20.01	54.53	-44.1	-46.6	18.0	0.00e+00	0	42	0	764411904	59	4925
2026-01-05 09:41:06.82	19.66	54.34	-44.2	-46.8	17.8	0.00e+00	0	42	0	765460480	59	5029
2026-01-05 09:41:08.11	19.03	53.98	-44.4	-47.1	17.5	0.00e+00	0	42	0	767557632	59	5179
2026-01-05 09:41:08.88	18.66	53.77	-44.4	-47.0	17.6	0.00e+00	0	42	0	768606208	59	5137
2026-01-05 09:41:10.17	18.05	53.42	-44.6	-47.2	17.5	0.00e+00	0	42	0	771751936	59	5255
2026-01-05 09:41:10.98	17.68	53.19	-44.7	-47.4	17.3	0.00e+00	0	42	0	772800512	60	5096
2026-01-05 09:41:12.13	17.16	52.87	-44.8	-47.6	17.2	0.00e+00	0	42	0	774897664	60	5202
2026-01-05 09:41:13.22	16.68	52.57	-45.0	-47.8	17.0	0.00e+00	0	42	0	776994816	60	5303
2026-01-05 09:41:14.26	16.23	52.28	-45.2	-48.1	16.6	0.00e+00	0	42	0	779091968	61	5215
2026-01-05 09:41:15.26	15.80	52.01	-45.3	-48.3	16.5	0.00e+00	0	42	0	781189120	61	5283
2026-01-05 09:41:16.46	15.30	51.67	-45.1	-47.9	16.9	0.00e+00	0	42	0	783286272	61	5053
2026-01-05 09:41:17.32	14.95	51.43	-45.0	-47.7	17.0	0.00e+00	0	42	0	785383424	61	4968
2026-01-05 09:41:18.47	14.49	51.12	-45.2	-48.0	16.8	0.00e+00	0	42	0	787480576	61	5110
2026-01-05 09:41:19.32	14.16	50.88	-45.3	-48.2	16.6	0.00e+00	0	42	0	788529152	61	5221
2026-01-05 09:41:20.47	13.71	50.56	-45.4	-48.3	16.4	0.00e+00	0	42	0	790626304	61	5322
2026-01-05 09:41:21.33	13.39	50.32	-45.6	-48.6	16.2	0.00e+00	0	42	0	792723456	61	5527
2026-01-05 09:41:22.47	12.96	50.01	-46.0	-49.3	15.6	0.00e+00	0	42	0	794820608	62	5593
2026-01-05 09:41:23.33	12.65	49.77	-46.0	-49.3	15.4	0.00e+00	0	42	0	795869184	62	5650
2026-01-05 09:41:24.48	12.24	49.46	-46.1	-49.5	15.3	0.00e+00	0	42	0	797966336	63	5437
2026-01-05 09:41:25.34	11.94	49.22	-45.9	-49.1	15.7	0.00e+00	0	42	0	800063488	63	5194
2026-01-05 09:41:26.48	11.54	48.91	-45.5	-48.6	16.2	0.00e+00	0	42	0	802160640	63	4873
2026-01-05 09:41:27.34	11.25	48.67	-45.3	-48.2	16.5	0.00e+00	0	42	0	804257792	62	4952
2026-01-05 09:41:28.48	10.87	48.36	-45.3	-48.2	16.6	0.00e+00	0	42	0	806354944	62	4935
2026-01-05 09:41:29.34	10.59	48.13	-45.4	-48.2	16.5	0.00e+00	0	42	0	807403520	62	4983
2026-01-05 09:41:30.49	10.22	47.81	-45.7	-48.7	16.1	0.00e+00	0	42	0	809500672	62	5263
2026-01-05 09:41:31.35	9.95	47.58	-45.7	-48.7	16.1	0.00e+00	0	42	0	811597824	62	5254
2026-01-05 09:41:32.50	9.59	47.27	-45.7	-48.8	16.0	0.00e+00	0	42	0	813694976	62	5316
2026-01-05 09:41:33.36	9.33	47.04	-45.6	-48.7	16.1	0.00e+00	0	42	0	814743552	62	5233
2026-01-05 09:41:34.50	8.98	46.73	-45.5	-48.4	16.4	0.00e+00	0	42	0	816840704	62	5073
2026-01-05 09:41:35.37	8.73	46.50	-45.3	-48.2	16.5	0.00e+00	0	42	0	818937856	62	4969
2026-01-05 09:41:36.51	8.40	46.20	-45.3	-48.2	16.6	0.00e+00	0	42	0	821035008	62	4927
2026-01-05 09:41:37.37	8.15	45.97	-45.2	-48.1	16.7	0.00e+00	0	42	0	822083584	62	4897
2026-01-05 09:41:38.51	7.83	45.67	-45.5	-48.5	16.3	0.00e+00	0	42	0	825229312	62	5123
2026-01-05 09:41:39.37	7.60	45.44	-45.7	-48.7	16.1	0.00e+00	0	42	0	826277888	62	5265
2026-01-05 09:41:40.52	7.29	45.14	-45.9	-49.1	15.7	0.00e+00	0	42	0	828375040	62	5518
2026-01-05 09:41:41.38	7.06	44.91	-46.0	-49.3	15.5	0.00e+00	0	42	0	830472192	62	5623
2026-01-05 09:41:42.53	6.76	44.61	-46.1	-49.6	15.1	0.00e+00	0	42	0	832569344	63	5497
2026-01-05 09:41:43.39	6.54	44.39	-46.2	-49.6	15.1	0.00e+00	0	42	0	833617920	63	5523
2026-01-05 09:41:44.64	6.22	44.07	-46.3	-49.7	15.1	0.00e+00	0	42	0	836763648	63	5554
2026-01-05 09:41:45.37	6.04	43.88	-46.3	-49.7	15.1	0.00e+00	0	42	0	837812224	63	5536
2026-01-05 09:41:46.66	5.72	43.55	-46.3	-49.6	15.1	0.00e+00	0	42	0	839909376	63	5510
2026-01-05 09:41:47.38	5.55	43.36	-46.2	-49.6	15.2	0.00e+00	0	42	0	840957952	63	5472
2026-01-05 09:41:48.66	5.25	43.04	-46.2	-49.6	15.1	0.00e+00	0	42	0	844103680	63	5521
2026-01-05 09:41:49.38	5.08	42.86	-46.3	-49.8	15.1	0.00e+00	0	42	0	845152256	63	5601
2026-01-05 09:41:50.67	4.78	42.53	-46.3	-49.8	14.9	0.00e+00	0	42	0	847249408	63	5624
2026-01-05 09:41:51.39	4.62	42.35	-46.4	-50.1	14.7	0.00e+00	0	42	0	848297984	63	5798
2026-01-05 09:41:52.67	4.33	42.03	-46.9	-50.8	13.9	7.00e-07	0	42	0	851443712	64	5969
2026-01-05 09:41:53.39	4.18	41.85	-47.0	-50.9	13.8	4.50e-06	0	42	0	852492288	64	6051
2026-01-05 09:41:54.68	3.90	41.54	-47.2	-51.4	13.3	6.80e-06	0	42	0	854589440	65	6026
2026-01-05 09:41:55.40	3.75	41.36	-47.2	-51.4	13.3	2.28e-05	0	42	0	856686592	65	6002
2026-01-05 09:41:56.69	3.48	41.04	-47.5	-52.0	12.7	5.56e-05	0	42	0	858783744	65	6460
2026-01-05 09:41:57.40	3.33	40.87	-47.5	-52.1	12.6	9.99e-05	0	42	0	859832320	65	6495
2026-01-05 09:41:58.69	3.07	40.56	-47.6	-52.1	12.6	1.55e-04	0	42	0	862978048	66	6150
2026-01-05 09:41:59.40	2.93	40.39	-47.5	-51.8	12.9	5.87e-05	0	42	0	864026624	66	5942
2026-01-05 09:42:00.77	2.66	40.06	-47.6	-52.0	12.7	6.63e-05	0	42	0	866123776	66	6077
2026-01-05 09:42:01.49	2.52	39.89	-47.5	-51.8	12.9	5.64e-05	0	42	0	868220928	66	5928
2026-01-05 09:42:02.78	2.27	39.58	-47.4	-51.7	13.0	3.73e-05	0	42	0	870318080	66	5891
2026-01-05 09:42:03.50	2.14	39.41	-47.4	-51.6	13.0	4.50e-05	0	42	0	871366656	66	5846
2026-01-05 09:42:04.78	1.90	39.11	-47.3	-51.5	13.3	2.97e-05	0	42	0	873463808	66	5726
2026-01-05 09:42:05.50	1.77	38.94	-46.9	-50.7	14.0	7.60e-06	0	42	0	875560960	65	5564
2026-01-05 09:42:06.79	1.54	38.65	-46.5	-50.0	14.6	0.00e+00	0	42	0	877658112	65	5134
2026-01-05 09:42:07.51	1.41	38.48	-46.3	-49.7	14.9	7.00e-07	0	42	0	878706688	64	5273
2026-01-05 09:42:08.80	1.19	38.18	-46.3	-49.7	14.9	0.00e+00	0	42	0	881852416	64	5277
2026-01-05 09:42:09.51	1.06	38.02	-46.0	-49.5	15.2	0.00e+00	0	42	0	882900992	64	5132
2026-01-05 09:42:10.80	0.85	37.73	-46.0	-49.6	15.0	0.00e+00	0	42	0	884998144	63	5522
2026-01-05 09:42:11.52	0.72	37.57	-46.1	-49.9	14.9	0.00e+00	0	42	0	887095296	63	5672
2026-01-05 09:42:12.81	0.51	37.28	-46.2	-50.0	14.8	0.00e+00	0	42	0	889192448	63	5768
2026-01-05 09:42:13.52	0.40	37.12	-46.2	-50.0	14.8	7.00e-07	0	42	0	890241024	63	5739
2026-01-05 09:42:14.84	0.19	36.83	-46.3	-50.0	14.7	1.50e-06	0	42	0	893386752	63	5775
2026-01-05 09:42:15.56	0.07	36.67	-46.3	-49.9	14.9	0.00e+00	0	42	0	894435328	63	5670
2026-01-05 09:42:16.85	359.87	36.38	-46.4	-49.9	14.9	0.00e+00	0	42	0	896532480	63	5688
2026-01-05 09:42:17.56	359.76	36.23	-46.4	-49.9	14.8	0.00e+00	0	42	0	897581056	63	5718
2026-01-05 09:42:18.85	359.57	35.95	-46.3	-49.9	14.9	7.00e-07	0	42	0	900726784	63	5657
2026-01-05 09:42:19.57	359.46	35.79	-46.3	-49.8	15.0	0.00e+00	0	42	0	901775360	63	5632
2026-01-05 09:42:20.86	359.27	35.52	-46.3	-49.8	15.0	7.00e-07	0	42	0	903872512	63	5638
2026-01-05 09:42:21.57	359.16	35.37	-46.1	-49.5	15.3	0.00e+00	0	42	0	904921088	63	5449
2026-01-05 09:42:22.86	358.98	35.09	-46.1	-49.5	15.3	0.00e+00	0	42	0	908066816	63	5420
2026-01-05 09:42:23.63	358.87	34.93	-46.2	-49.6	15.1	0.00e+00	0	42	0	909115392	63	5513
2026-01-05 09:42:24.92	358.69	34.66	-46.3	-49.7	15.0	0.00e+00	0	42	0	911212544	63	5583
2026-01-05 09:42:25.63	358.59	34.51	-46.3	-49.8	14.9	0.00e+00	0	42	0	913309696	63	5643
2026-01-05 09:42:26.92	358.42	34.24	-46.2	-49.6	15.0	0.00e+00	0	42	0	915406848	63	5502
2026-01-05 09:42:27.64	358.32	34.10	-46.1	-49.5	15.2	0.00e+00	0	42	0	916455424	63	5451
2026-01-05 09:42:28.92	358.15	33.83	-46.1	-49.7	15.1	0.00e+00	0	42	0	919601152	63	5532
2026-01-05 09:42:29.64	358.06	33.69	-46.3	-49.9	14.9	0.00e+00	0	42	0	920649728	63	5657
2026-01-05 09:42:30.93	357.89	33.43	-46.3	-49.9	14.9	0.00e+00	0	42	0	922746880	63	5695
2026-01-05 09:42:31.64	357.80	33.28	-46.4	-50.1	14.6	7.00e-07	0	42	0	924844032	63	5826
2026-01-05 09:42:32.93	357.64	33.03	-46.6	-50.4	14.3	0.00e+00	0	42	0	926941184	63	6039
2026-01-05 09:42:33.65	357.55	32.88	-46.6	-50.5	14.2	7.00e-07	0	42	0	927989760	64	5751
2026-01-05 09:42:35.08	357.37	32.60	-46.7	-50.7	14.0	2.20e-06	0	42	0	931135488	64	5859
2026-01-05 09:42:36.07	357.25	32.41	-46.9	-50.9	13.7	5.30e-06	0	42	0	932184064	64	6061
2026-01-05 09:42:37.39	357.09	32.15	-47.0	-51.0	13.6	6.80e-06	0	42	0	935329792	64	6110
2026-01-05 09:42:38.11	357.01	32.01	-47.1	-51.3	13.4	6.10e-06	0	42	0	936378368	64	6278
2026-01-05 09:42:39.75	356.82	31.69	-47.1	-51.2	13.5	1.06e-05	0	42	0	939524096	64	6222
2026-01-05 09:42:40.32	356.75	31.58	-47.2	-51.3	13.3	9.10e-06	0	42	0	940572672	65	5957
2026-01-05 09:42:41.93	356.57	31.28	-47.3	-51.4	13.2	2.05e-05	0	42	0	943718400	65	6033
2026-01-05 09:42:42.50	356.51	31.17	-47.4	-51.5	13.1	2.74e-05	0	42	0	944766976	65	6110
2026-01-05 09:42:44.12	356.33	30.87	-47.6	-51.9	12.7	3.66e-05	0	42	0	947912704	65	6385
2026-01-05 09:42:44.70	356.27	30.76	-47.6	-51.9	12.8	8.01e-05	0	42	0	948961280	65	6359
2026-01-05 09:42:46.38	356.09	30.45	-47.5	-51.8	12.8	6.02e-05	0	42	0	952107008	65	6297
2026-01-05 09:42:46.95	356.03	30.34	-47.5	-51.8	12.8	7.70e-05	0	42	0	953155584	65	6330
2026-01-05 09:42:48.54	355.86	30.05	-47.3	-51.6	13.1	4.65e-05	0	42	0	956301312	65	6146
2026-01-05 09:42:49.12	355.80	29.95	-47.3	-51.6	13.1	2.59e-05	0	42	0	957349888	65	6150
2026-01-05 09:42:50.71	355.64	29.66	-47.2	-51.3	13.3	1.90e-05	0	42	0	960495616	65	5971
2026-01-05 09:42:51.57	355.55	29.51	-47.2	-51.2	13.4	1.29e-05	0	42	0	961544192	65	5892
2026-01-05 09:42:52.71	355.44	29.30	-47.2	-51.3	13.3	2.21e-05	0	42	0	963641344	65	5952
2026-01-05 09:42:53.57	355.35	29.15	-47.3	-51.4	13.2	1.83e-05	0	42	0	965738496	65	5995
2026-01-05 09:42:54.72	355.24	28.95	-47.2	-51.3	13.3	1.14e-05	0	42	0	967835648	65	5974
2026-01-05 09:42:55.58	355.16	28.80	-47.1	-51.2	13.4	1.14e-05	0	42	0	968884224	65	5918
2026-01-05 09:42:56.73	355.05	28.60	-47.0	-51.1	13.5	9.10e-06	0	42	0	970981376	65	5831
2026-01-05 09:42:57.59	354.97	28.45	-46.9	-51.0	13.7	5.30e-06	0	42	0	973078528	65	5733
2026-01-05 09:42:58.73	354.86	28.25	-46.8	-50.9	13.8	9.10e-06	0	42	0	975175680	65	5665
2026-01-05 09:42:59.59	354.79	28.10	-46.7	-50.6	14.0	7.00e-07	0	42	0	977272832	65	5511
2026-01-05 09:43:00.74	354.68	27.91	-46.9	-50.9	13.7	4.50e-06	0	42	0	978321408	65	5696
2026-01-05 09:43:01.71	354.59	27.74	-47.0	-51.1	13.6	8.30e-06	0	42	0	980418560	65	5806
2026-01-05 09:43:02.89	354.49	27.55	-47.1	-51.2	13.5	8.30e-06	0	42	0	982515712	65	5881
2026-01-05 09:43:03.75	354.42	27.40	-47.0	-51.0	13.6	9.10e-06	0	42	0	984612864	65	5776
2026-01-05 09:43:04.89	354.32	27.21	-47.1	-51.3	13.3	1.67e-05	0	42	0	986710016	65	5947
2026-01-05 09:43:05.75	354.24	27.07	-47.0	-51.1	13.5	1.44e-05	0	42	0	988807168	65	5831
2026-01-05 09:43:06.90	354.15	26.88	-46.9	-51.1	13.5	7.60e-06	0	42	0	990904320	65	5794
2026-01-05 09:43:07.76	354.07	26.74	-46.8	-50.9	13.7	6.80e-06	0	42	0	991952896	65	5708
2026-01-05 09:43:08.90	353.98	26.56	-46.8	-50.9	13.7	3.80e-06	0	42	0	994050048	65	5717
2026-01-05 09:43:09.77	353.91	26.41	-46.8	-50.9	13.7	8.30e-06	0	43	0	996147200	65	5685
2026-01-05 09:43:10.91	353.81	26.23	-46.6	-50.6	14.0	4.50e-06	0	42	0	998244352	65	5514
2026-01-05 09:43:11.77	353.75	26.09	-46.5	-50.3	14.2	1.50e-06	0	42	0	999292928	65	5332
2026-01-05 09:43:12.93	353.65	25.91	-46.4	-50.1	14.5	7.00e-07	0	42	0	1001390080	64	5497
2026-01-05 09:43:13.79	353.59	25.77	-46.4	-50.1	14.6	0.00e+00	0	42	0	1003487232	64	5486
2026-01-05 09:43:14.94	353.50	25.59	-46.2	-49.7	14.9	0.00e+00	0	42	0	1005584384	64	5272
2026-01-05 09:43:15.82	353.43	25.46	-46.2	-49.7	14.9	0.00e+00	0	42	0	1006632960	64	5232
2026-01-05 09:43:17.14	353.33	25.25	-46.1	-49.5	15.1	0.00e+00	0	42	0	1009778688	64	5151
2026-01-05 09:43:17.86	353.27	25.14	-46.0	-49.4	15.2	0.00e+00	0	42	0	1010827264	64	5098
2026-01-05 09:43:19.15	353.18	24.94	-45.8	-49.0	15.6	0.00e+00	0	42	0	1012924416	63	5151
2026-01-05 09:43:19.86	353.12	24.83	-45.7	-48.9	15.8	0.00e+00	0	42	0	1015021568	63	5067
2026-01-05 09:43:21.15	353.03	24.64	-45.5	-48.8	15.9	0.00e+00	0	42	0	1017118720	63	4999
2026-01-05 09:43:21.88	352.98	24.53	-45.3	-48.6	16.1	0.00e+00	0	42	0	1018167296	62	5202
2026-01-05 09:43:23.17	352.89	24.33	-45.3	-48.7	16.0	0.00e+00	0	42	0	1021313024	62	5238
2026-01-05 09:43:23.98	352.83	24.21	-45.2	-48.7	16.0	0.00e+00	0	42	0	1022361600	62	5256
2026-01-05 09:43:25.13	352.75	24.04	-45.2	-48.7	16.0	0.00e+00	0	42	0	1024458752	62	5238
2026-01-05 09:43:25.99	352.69	23.91	-45.2	-48.8	15.9	0.00e+00	0	42	0	1026555904	62	5287
2026-01-05 09:43:27.14	352.61	23.74	-45.2	-48.7	16.0	0.00e+00	0	42	0	1028653056	62	5229
2026-01-05 09:43:27.99	352.55	23.62	-45.2	-48.5	16.1	0.00e+00	0	42	0	1029701632	62	5151
2026-01-05 09:43:29.14	352.47	23.45	-45.2	-48.4	16.2	0.00e+00	0	42	0	1031798784	62	5082
2026-01-05 09:43:30.00	352.42	23.33	-45.3	-48.4	16.3	0.00e+00	0	42	0	1033895936	62	5080
2026-01-05 09:43:31.15	352.34	23.16	-45.2	-48.3	16.4	0.00e+00	0	42	0	1035993088	62	4986
2026-01-05 09:43:32.01	352.28	23.04	-45.3	-48.4	16.3	0.00e+00	0	42	0	1037041664	62	5055
2026-01-05 09:43:33.15	352.21	22.88	-45.3	-48.3	16.4	0.00e+00	0	42	0	1040187392	62	4993
2026-01-05 09:43:34.01	352.15	22.75	-45.3	-48.3	16.3	0.00e+00	0	43	0	1041235968	62	5033
2026-01-05 09:43:35.15	352.08	22.59	-45.3	-48.4	16.3	0.00e+00	0	42	0	1043333120	62	5080
2026-01-05 09:43:36.03	352.03	22.47	-45.3	-48.4	16.3	0.00e+00	0	42	0	1045430272	62	5068
2026-01-05 09:43:37.18	351.95	22.31	-45.2	-48.4	16.3	0.00e+00	0	42	0	1047527424	62	5052
2026-01-05 09:43:38.13	351.89	22.18	-45.2	-48.4	16.3	0.00e+00	0	42	0	1048576000	62	5066
2026-01-05 09:43:39.13	351.83	22.04	-45.2	-48.3	16.3	0.00e+00	0	42	0	1050673152	62	5028
2026-01-05 09:43:40.14	351.77	21.90	-45.2	-48.3	16.3	0.00e+00	0	42	0	1052770304	62	5029
2026-01-05 09:43:41.14	351.71	21.76	-45.1	-48.2	16.4	0.00e+00	0	42	0	1054867456	62	4974
2026-01-05 09:43:42.43	351.64	21.59	-45.2	-48.2	16.4	0.00e+00	0	42	0	1056964608	62	4966
2026-01-05 09:43:43.20	351.59	21.49	-45.1	-48.2	16.5	0.00e+00	0	42	0	1058013184	62	4938
2026-01-05 09:43:44.48	351.52	21.31	-45.2	-48.3	16.4	0.00e+00	0	42	0	1061158912	62	4999
2026-01-05 09:43:45.25	351.47	21.21	-45.1	-48.1	16.6	0.00e+00	0	42	0	1062207488	62	4872
2026-01-05 09:43:46.54	351.40	21.04	-45.0	-47.9	16.8	0.00e+00	0	42	0	1064304640	61	5064
2026-01-05 09:43:47.26	351.36	20.94	-45.0	-47.9	16.7	0.00e+00	0	42	0	1066401792	61	5081
2026-01-05 09:43:48.55	351.28	20.77	-45.0	-47.9	16.7	0.00e+00	0	42	0	1068498944	61	5089
2026-01-05 09:43:49.26	351.24	20.68	-45.0	-48.0	16.6	0.00e+00	0	42	0	1069547520	61	5110
2026-01-05 09:43:50.55	351.17	20.51	-45.1	-48.0	16.6	0.00e+00	0	42	0	1072693248	61	5148
2026-01-05 09:43:51.27	351.13	20.42	-45.0	-47.9	16.7	0.00e+00	0	43	0	1073741824	61	5084
2026-01-05 09:43:52.56	351.06	20.25	-45.0	-48.0	16.7	0.00e+00	0	43	0	1075838976	61	5112
2026-01-05 09:43:53.27	351.03	20.16	-44.9	-47.9	16.8	0.00e+00	0	42	0	1076887552	61	5057
2026-01-05 09:43:54.56	350.96	20.00	-45.0	-48.0	16.6	0.00e+00	0	42	0	1080033280	61	5153
2026-01-05 09:43:55.28	350.92	19.91	-44.9	-47.9	16.7	0.00e+00	0	42	0	1081081856	61	5071
2026-01-05 09:43:56.57	350.85	19.74	-45.0	-48.1	16.5	0.00e+00	0	42	0	1083179008	61	5194
2026-01-05 09:43:57.28	350.81	19.65	-45.0	-48.2	16.5	0.00e+00	0	42	0	1085276160	61	5228
2026-01-05 09:43:58.57	350.75	19.49	-45.0	-48.2	16.4	0.00e+00	0	42	0	1087373312	61	5237
2026-01-05 09:43:59.29	350.71	19.40	-45.0	-48.3	16.3	0.00e+00	0	42	0	1088421888	61	5284
2026-01-05 09:44:00.58	350.65	19.24	-44.9	-48.2	16.4	0.00e+00	0	42	0	1091567616	61	5254
2026-01-05 09:44:01.30	350.61	19.15	-44.8	-48.3	16.3	0.00e+00	0	42	0	1092616192	61	5305
2026-01-05 09:44:02.59	350.55	18.99	-45.0	-48.4	16.2	0.00e+00	0	42	0	1094713344	61	5378
2026-01-05 09:44:03.30	350.51	18.91	-44.9	-48.4	16.3	0.00e+00	0	42	0	1095761920	61	5360
2026-01-05 09:44:04.59	350.45	18.75	-44.9	-48.5	16.1	0.00e+00	0	42	0	1098907648	61	5428
2026-01-05 09:44:05.50	350.41	18.64	-44.9	-48.5	16.1	0.00e+00	0	42	0	1099956224	61	5427
2026-01-05 09:44:06.51	350.36	18.52	-44.8	-48.5	16.1	0.00e+00	0	42	0	1102053376	61	5461
2026-01-05 09:44:07.51	350.31	18.40	-44.7	-48.4	16.2	0.00e+00	0	42	0	1104150528	61	5386
2026-01-05 09:44:08.51	350.26	18.28	-44.7	-48.5	16.1	0.00e+00	0	42	0	1106247680	61	5455
2026-01-05 09:44:09.51	350.22	18.16	-44.7	-48.5	16.1	0.00e+00	0	42	0	1108344832	61	5440
2026-01-05 09:44:10.52	350.17	18.04	-44.7	-48.5	16.1	0.00e+00	0	42	0	1109393408	61	5407
2026-01-05 09:44:11.52	350.12	17.92	-44.8	-48.5	16.1	0.00e+00	0	42	0	1111490560	61	5449
2026-01-05 09:44:12.54	350.08	17.80	-44.7	-48.4	16.2	0.00e+00	0	42	0	1113587712	61	5380
2026-01-05 09:44:13.54	350.03	17.69	-44.7	-48.4	16.2	0.00e+00	0	42	0	1115684864	61	5358
2026-01-05 09:44:14.54	349.99	17.57	-44.9	-48.5	16.1	0.00e+00	0	42	0	1117782016	61	5439
2026-01-05 09:44:15.55	349.94	17.45	-44.9	-48.5	16.1	0.00e+00	0	42	0	1118830592	61	5422
2026-01-05 09:44:16.55	349.90	17.34	-45.0	-48.4	16.1	0.00e+00	0	42	0	1120927744	61	5391
2026-01-05 09:44:17.55	349.85	17.22	-44.9	-48.3	16.2	0.00e+00	0	42	0	1123024896	61	5315
2026-01-05 09:44:18.56	349.81	17.11	-44.9	-48.3	16.2	0.00e+00	0	42	0	1125122048	61	5310
2026-01-05 09:44:19.56	349.77	16.99	-44.9	-48.3	16.2	0.00e+00	0	42	0	1126170624	61	5301
2026-01-05 09:44:20.56	349.72	16.88	-45.0	-48.3	16.2	0.00e+00	0	42	0	1128267776	61	5324
2026-01-05 09:44:21.57	349.68	16.77	-44.9	-48.3	16.2	0.00e+00	0	42	0	1130364928	61	5322
2026-01-05 09:44:22.57	349.64	16.66	-44.9	-48.3	16.2	0.00e+00	0	42	0	1132462080	61	5303
2026-01-05 09:44:23.57	349.60	16.54	-44.9	-48.3	16.1	0.00e+00	0	42	0	1134559232	61	5308
2026-01-05 09:44:24.57	349.56	16.43	-44.8	-48.2	16.3	0.00e+00	0	42	0	1135607808	61	5257
2026-01-05 09:44:25.57	349.52	16.32	-44.9	-48.3	16.2	0.00e+00	0	42	0	1137704960	61	5337
2026-01-05 09:44:26.57	349.48	16.21	-44.9	-48.4	16.1	0.00e+00	0	42	0	1139802112	61	5361
2026-01-05 09:44:27.58	349.44	16.10	-45.0	-48.5	16.0	0.00e+00	0	42	0	1141899264	61	5425
2026-01-05 09:44:28.58	349.40	15.99	-44.9	-48.4	16.1	0.00e+00	0	42	0	1143996416	61	5356
2026-01-05 09:44:29.58	349.36	15.88	-44.9	-48.3	16.1	0.00e+00	0	42	0	1145044992	61	5329
2026-01-05 09:44:30.59	349.32	15.78	-45.0	-48.4	16.1	0.00e+00	0	42	0	1147142144	61	5374
2026-01-05 09:44:31.59	349.28	15.67	-45.1	-48.5	16.0	0.00e+00	0	42	0	1149239296	61	5442
2026-01-05 09:44:32.59	349.24	15.56	-45.0	-48.4	16.1	0.00e+00	0	42	0	1151336448	61	5350
2026-01-05 09:44:33.59	349.20	15.45	-45.2	-48.5	15.9	0.00e+00	0	42	0	1153433600	61	5452
2026-01-05 09:44:34.60	349.16	15.35	-45.2	-48.6	15.8	0.00e+00	0	42	0	1154482176	61	5481
2026-01-05 09:44:35.60	349.12	15.24	-45.2	-48.6	15.9	0.00e+00	0	42	0	1156579328	61	5480
2026-01-05 09:44:36.96	349.07	15.10	-45.4	-48.7	15.7	0.00e+00	0	42	0	1159725056	61	5585
2026-01-05 09:44:37.67	349.05	15.02	-45.3	-48.6	15.8	0.00e+00	0	42	0	1160773632	61	5487
2026-01-05 09:44:38.96	349.00	14.89	-45.4	-48.8	15.7	0.00e+00	0	42	0	1162870784	61	5595
2026-01-05 09:44:39.68	348.97	14.81	-45.4	-48.8	15.7	0.00e+00	0	42	0	1163919360	61	5609
2026-01-05 09:44:40.97	348.93	14.68	-45.4	-48.9	15.6	0.00e+00	0	42	0	1167065088	61	5682
2026-01-05 09:44:41.69	348.90	14.60	-45.4	-49.0	15.5	0.00e+00	0	42	0	1168113664	61	5730
2026-01-05 09:44:42.97	348.85	14.47	-45.4	-49.2	15.3	0.00e+00	0	42	0	1170210816	61	5883
2026-01-05 09:44:43.69	348.83	14.40	-45.4	-49.1	15.3	0.00e+00	0	42	0	1172307968	61	5827
2026-01-05 09:44:45.06	348.78	14.26	-45.3	-49.1	15.4	0.00e+00	0	42	0	1174405120	61	5816
2026-01-05 09:44:45.78	348.76	14.19	-45.3	-49.1	15.3	0.00e+00	0	42	0	1175453696	61	5855
2026-01-05 09:44:47.16	348.71	14.05	-45.4	-49.3	15.1	0.00e+00	0	43	0	1178599424	61	5967
2026-01-05 09:44:47.88	348.68	13.98	-45.5	-49.4	15.1	0.00e+00	0	42	0	1179648000	61	6005
2026-01-05 09:44:49.17	348.64	13.85	-45.6	-49.5	14.9	0.00e+00	0	42	0	1181745152	61	6123
2026-01-05 09:44:49.89	348.62	13.77	-45.5	-49.5	14.9	0.00e+00	0	42	0	1183842304	61	6094
2026-01-05 09:44:51.29	348.57	13.64	-45.6	-49.5	15.0	0.00e+00	0	42	0	1185939456	61	6081
2026-01-05 09:44:52.00	348.54	13.57	-45.6	-49.4	15.0	0.00e+00	0	42	0	1188036608	62	5693
2026-01-05 09:44:53.29	348.50	13.44	-45.7	-49.4	15.0	0.00e+00	0	42	0	1190133760	62	5686
2026-01-05 09:44:54.01	348.48	13.37	-45.7	-49.4	15.0	0.00e+00	0	42	0	1191182336	62	5683
2026-01-05 09:44:55.30	348.44	13.24	-45.7	-49.2	15.2	0.00e+00	0	42	0	1193279488	62	5566
2026-01-05 09:44:56.01	348.41	13.17	-45.7	-49.2	15.2	0.00e+00	0	42	0	1195376640	62	5580
2026-01-05 09:44:57.30	348.37	13.05	-45.7	-49.3	15.1	0.00e+00	0	42	0	1197473792	62	5628
2026-01-05 09:44:58.02	348.35	12.98	-45.7	-49.3	15.1	0.00e+00	0	42	0	1198522368	62	5635
2026-01-05 09:44:59.31	348.31	12.85	-45.7	-49.3	15.1	0.00e+00	0	42	0	1201668096	62	5636
2026-01-05 09:45:00.07	348.28	12.78	-45.7	-49.4	15.0	0.00e+00	0	42	0	1202716672	62	5704
2026-01-05 09:45:01.69	348.23	12.63	-45.3	-49.3	15.1	0.00e+00	0	42	0	1205862400	62	5654
2026-01-05 09:45:02.26	348.22	12.57	-45.3	-49.4	15.0	0.00e+00	0	42	0	1206910976	62	5664
2026-01-05 09:45:04.14	348.16	12.39	-45.0	-49.2	15.2	0.00e+00	0	42	0	1210056704	62	5571
2026-01-05 09:45:04.71	348.14	12.34	-45.0	-49.3	15.1	0.00e+00	0	43	0	1211105280	62	5593
2026-01-05 09:45:06.31	348.09	12.19	-44.9	-49.3	15.1	0.00e+00	0	42	0	1214251008	61	5952
2026-01-05 09:45:06.88	348.08	12.14	-44.7	-49.2	15.2	0.00e+00	0	42	0	1215299584	61	5859
2026-01-05 09:45:08.47	348.03	11.99	-44.7	-49.2	15.2	7.00e-07	0	43	0	1218445312	61	5889
2026-01-05 09:45:09.04	348.01	11.94	-44.7	-49.3	15.0	0.00e+00	0	42	0	1219493888	61	5982
2026-01-05 09:45:10.62	347.97	11.79	-44.7	-49.3	15.0	0.00e+00	0	42	0	1222639616	61	5976
2026-01-05 09:45:11.48	347.94	11.71	-44.8	-49.5	14.9	0.00e+00	0	42	0	1223688192	61	6105
2026-01-05 09:45:12.63	347.91	11.61	-44.6	-49.3	15.0	0.00e+00	0	43	0	1225785344	61	5958
2026-01-05 09:45:13.49	347.89	11.53	-44.7	-49.4	14.9	7.00e-07	0	42	0	1227882496	61	6047
2026-01-05 09:45:14.63	347.85	11.42	-44.8	-49.6	14.7	7.00e-07	0	42	0	1229979648	61	6158
2026-01-05 09:45:15.49	347.83	11.35	-44.7	-49.5	14.9	0.00e+00	0	42	0	1232076800	61	6075
2026-01-05 09:45:16.64	347.80	11.24	-44.8	-49.8	14.6	0.00e+00	0	42	0	1233125376	61	6285
2026-01-05 09:45:17.50	347.77	11.17	-44.7	-49.9	14.5	0.00e+00	0	42	0	1235222528	61	6353
2026-01-05 09:45:18.64	347.74	11.06	-44.6	-49.7	14.6	0.00e+00	0	42	0	1237319680	61	6217
2026-01-05 09:45:19.50	347.72	10.99	-44.5	-49.7	14.7	7.00e-07	0	42	0	1239416832	61	6242
2026-01-05 09:45:20.65	347.69	10.88	-44.4	-49.6	14.7	0.00e+00	0	43	0	1241513984	60	6517
2026-01-05 09:45:21.51	347.66	10.81	-44.3	-49.6	14.8	0.00e+00	0	42	0	1242562560	60	6510
2026-01-05 09:45:22.66	347.63	10.71	-44.2	-49.5	14.8	7.00e-07	0	42	0	1244659712	60	6459
2026-01-05 09:45:23.52	347.61	10.63	-44.2	-49.5	14.8	7.00e-07	0	42	0	1246756864	60	6464
2026-01-05 09:45:24.66	347.58	10.53	-44.2	-49.7	14.6	7.00e-07	0	42	0	1248854016	60	6574
