passes_logs/2026/01/05/T1/T1__20260105_232417_NOAA_20_JPSS-1_rec.log

#Pass ID: 20260105_232417_NOAA 20 (JPSS-1)
#Satellite: NOAA 20 (JPSS-1)
#Configuration: NOAA 20
#almurnet v.1.7.20251203
#Start time: 2026-01-05 23:24:19

#Version: 2.0.20230620
#Station: T1
#Location: 37.570604 lon 55.790049 lat
#TLE: 1 43013U 17073A   26005.46207808  .00000128  00000+0  81791-4 0  9997
#TLE: 2 43013  98.7627 306.5027 0001826  53.0458 307.0885 14.19533487421381

#Time	Az	El	Level	Level2	SNR	BER	BlckErr	Temp	State	Recorded	gain1	gain2
2026-01-05 23:24:19.18	18.33	5.09	-50.4	-65.9	3.8	1.49e+00	0	37	0	0	71	22713
2026-01-05 23:24:20.18	18.35	5.16	-50.3	-65.9	3.8	1.49e+00	0	37	104	0	72	21377
2026-01-05 23:24:21.19	18.37	5.23	-50.2	-65.9	3.8	1.49e+00	0	38	104	0	72	21316
2026-01-05 23:24:22.19	18.39	5.31	-50.2	-65.9	3.8	1.49e+00	0	38	104	0	72	21359
2026-01-05 23:24:23.19	18.41	5.38	-50.3	-65.9	3.8	1.49e+00	0	38	104	0	72	21374
2026-01-05 23:24:24.20	18.43	5.45	-50.3	-65.9	3.8	1.49e+00	0	38	104	0	72	21374
2026-01-05 23:24:25.20	18.44	5.52	-50.3	-65.9	3.8	1.49e+00	0	37	104	0	72	21384
2026-01-05 23:24:26.21	18.46	5.59	-50.2	-65.9	3.8	1.49e+00	0	38	104	0	72	21361
2026-01-05 23:24:27.21	18.48	5.67	-50.3	-65.9	3.8	1.49e+00	0	38	104	0	72	21294
2026-01-05 23:24:28.22	18.51	5.74	-50.3	-65.9	3.8	1.49e+00	0	38	104	0	72	21367
2026-01-05 23:24:29.22	18.53	5.81	-50.3	-65.9	3.8	1.49e+00	0	38	104	0	72	21417
2026-01-05 23:24:30.22	18.55	5.88	-50.2	-65.9	3.8	1.49e+00	0	38	104	0	72	21311
2026-01-05 23:24:31.23	18.57	5.96	-50.3	-65.9	3.8	1.49e+00	0	38	104	0	72	21371
2026-01-05 23:24:32.23	18.59	6.03	-50.3	-65.9	3.8	1.49e+00	0	38	104	0	72	21380
2026-01-05 23:24:33.24	18.61	6.11	-50.2	-65.9	3.8	1.49e+00	0	38	104	0	72	21395
2026-01-05 23:24:34.24	18.63	6.18	-50.2	-65.9	3.8	1.49e+00	0	38	104	0	72	21284
2026-01-05 23:24:35.24	18.65	6.25	-50.2	-65.9	3.8	1.49e+00	0	38	104	0	72	21354
2026-01-05 23:24:36.25	18.67	6.33	-50.3	-65.9	3.8	1.49e+00	0	38	104	0	72	21334
2026-01-05 23:24:37.25	18.69	6.40	-50.3	-65.9	3.8	1.49e+00	0	38	104	0	72	21369
2026-01-05 23:24:38.26	18.71	6.48	-50.2	-65.9	3.8	1.49e+00	0	38	104	0	72	21365
2026-01-05 23:24:39.26	18.73	6.55	-50.2	-65.9	3.8	1.49e+00	0	38	104	0	72	21329
2026-01-05 23:24:40.27	18.75	6.63	-50.3	-65.9	3.8	1.49e+00	0	38	104	0	72	21372
2026-01-05 23:24:41.27	18.77	6.70	-50.3	-65.9	3.8	1.49e+00	0	38	104	0	72	21354
2026-01-05 23:24:42.27	18.80	6.78	-50.3	-65.9	3.8	1.49e+00	0	38	104	0	72	21366
2026-01-05 23:24:43.28	18.82	6.85	-50.2	-65.9	3.8	1.49e+00	0	38	104	0	72	21315
2026-01-05 23:24:44.28	18.84	6.93	-50.2	-65.9	3.8	1.49e+00	0	38	104	0	72	21376
2026-01-05 23:24:45.32	18.86	7.01	-50.3	-65.9	3.8	1.49e+00	0	38	104	0	72	21374
2026-01-05 23:24:46.33	18.88	7.09	-50.3	-65.9	3.8	1.49e+00	0	38	104	0	72	21298
2026-01-05 23:24:47.36	18.90	7.17	-50.2	-65.9	3.8	1.49e+00	0	39	104	0	72	21409
2026-01-05 23:24:48.39	18.93	7.24	-50.2	-65.9	3.8	1.49e+00	0	39	104	0	72	21389
2026-01-05 23:24:49.43	18.95	7.32	-50.2	-65.9	3.8	1.49e+00	0	39	104	0	72	21397
2026-01-05 23:24:50.48	18.97	7.41	-50.3	-65.9	3.8	1.49e+00	0	38	104	0	72	21290
2026-01-05 23:24:51.40	18.99	7.48	-50.3	-65.9	3.8	1.49e+00	0	38	104	0	72	21344
2026-01-05 23:24:52.55	19.02	7.57	-50.2	-65.9	3.8	1.49e+00	0	39	104	0	72	21364
2026-01-05 23:24:53.44	19.04	7.64	-50.2	-65.9	3.8	1.49e+00	0	39	104	0	72	21465
2026-01-05 23:24:54.76	19.07	7.74	-50.1	-65.9	3.8	1.49e+00	0	39	104	0	72	21294
2026-01-05 23:24:55.47	19.08	7.79	-50.2	-65.9	3.8	1.49e+00	0	38	104	0	72	21393
2026-01-05 23:24:56.77	19.11	7.90	-50.3	-65.9	3.8	1.49e+00	0	39	104	0	72	21399
2026-01-05 23:24:57.48	19.13	7.95	-50.3	-65.9	3.8	1.49e+00	0	39	104	0	72	21363
2026-01-05 23:24:58.77	19.16	8.05	-50.3	-65.9	3.8	1.49e+00	0	39	104	0	72	21308
2026-01-05 23:24:59.49	19.17	8.11	-50.2	-65.8	3.8	1.49e+00	0	39	104	0	72	21236
2026-01-05 23:25:00.78	19.20	8.21	-50.3	-65.9	3.8	1.49e+00	0	39	104	0	72	21334
2026-01-05 23:25:01.50	19.22	8.27	-50.3	-65.9	3.8	1.49e+00	0	39	104	0	72	21377
2026-01-05 23:25:02.79	19.25	8.38	-50.3	-65.9	3.8	1.49e+00	0	39	104	0	72	21287
2026-01-05 23:25:03.51	19.27	8.43	-50.3	-65.9	3.8	1.49e+00	0	39	104	0	72	21375
2026-01-05 23:25:04.80	19.30	8.54	-50.3	-65.9	3.8	1.49e+00	0	39	104	0	72	21329
2026-01-05 23:25:05.52	19.31	8.60	-50.3	-65.9	3.8	1.49e+00	0	39	104	0	72	21360
2026-01-05 23:25:06.81	19.34	8.70	-50.3	-65.9	3.8	1.49e+00	0	39	104	0	72	21318
2026-01-05 23:25:07.52	19.36	8.76	-50.3	-65.9	3.8	1.49e+00	0	39	104	0	72	21305
2026-01-05 23:25:08.81	19.39	8.86	-50.3	-65.9	3.8	1.49e+00	0	39	104	0	72	21361
2026-01-05 23:25:09.53	19.41	8.92	-50.3	-65.9	3.8	1.49e+00	0	39	104	0	72	21352
2026-01-05 23:25:10.82	19.44	9.03	-50.3	-65.9	3.8	1.49e+00	0	39	104	0	72	21330
2026-01-05 23:25:11.54	19.46	9.09	-50.3	-65.9	3.8	1.49e+00	0	39	104	0	72	21289
2026-01-05 23:25:12.83	19.49	9.19	-50.3	-65.9	3.8	1.49e+00	0	39	104	0	72	21340
2026-01-05 23:25:13.55	19.51	9.25	-50.3	-65.9	3.8	1.49e+00	0	39	104	0	72	21373
2026-01-05 23:25:14.84	19.54	9.36	-50.3	-65.9	3.8	1.49e+00	0	39	104	0	72	21287
2026-01-05 23:25:15.55	19.56	9.42	-50.3	-65.9	3.8	1.49e+00	0	39	104	0	72	21404
2026-01-05 23:25:16.85	19.59	9.53	-50.3	-65.9	3.8	1.49e+00	0	39	104	0	72	21339
2026-01-05 23:25:17.56	19.61	9.59	-50.3	-65.9	3.8	1.49e+00	0	39	104	0	72	21390
2026-01-05 23:25:18.86	19.64	9.70	-50.3	-65.9	3.8	1.49e+00	0	39	104	0	72	21328
2026-01-05 23:25:19.57	19.66	9.76	-50.3	-65.9	3.8	1.49e+00	0	39	104	0	72	21316
2026-01-05 23:25:20.86	19.69	9.87	-50.3	-65.9	3.8	1.49e+00	0	39	104	0	72	21427
2026-01-05 23:25:21.58	19.71	9.93	-50.3	-65.9	3.8	1.49e+00	0	39	104	0	72	21368
2026-01-05 23:25:22.87	19.74	10.04	-50.3	-65.9	3.8	1.49e+00	0	39	104	0	72	21384
2026-01-05 23:25:23.59	19.76	10.10	-50.3	-65.9	3.8	1.49e+00	0	39	104	0	72	21388
2026-01-05 23:25:24.88	19.79	10.21	-50.3	-65.9	3.8	1.49e+00	0	39	104	0	72	21294
2026-01-05 23:25:25.60	19.81	10.28	-50.3	-65.9	3.8	1.49e+00	0	39	104	0	72	21371
2026-01-05 23:25:26.89	19.84	10.39	-50.3	-65.9	3.8	1.49e+00	0	39	104	0	72	21391
2026-01-05 23:25:27.61	19.86	10.45	-50.3	-65.9	3.8	1.49e+00	0	39	104	0	72	21318
2026-01-05 23:25:28.89	19.89	10.56	-50.3	-65.9	3.8	1.49e+00	0	39	104	0	72	21314
2026-01-05 23:25:29.61	19.91	10.63	-50.3	-65.9	3.8	1.49e+00	0	39	104	0	72	21352
2026-01-05 23:25:30.90	19.95	10.74	-50.3	-65.9	3.8	1.49e+00	0	39	104	0	72	21327
2026-01-05 23:25:31.62	19.97	10.80	-50.3	-65.9	3.8	1.49e+00	0	39	104	0	72	21389
2026-01-05 23:25:32.91	20.00	10.92	-50.3	-65.8	3.8	1.49e+00	0	39	104	0	72	21258
2026-01-05 23:25:33.63	20.02	10.98	-50.3	-65.9	3.8	1.49e+00	0	39	104	0	72	21374
2026-01-05 23:25:34.92	20.06	11.10	-50.3	-65.9	3.8	1.49e+00	0	39	104	0	72	21406
2026-01-05 23:25:35.64	20.07	11.16	-50.3	-65.9	3.8	1.49e+00	0	39	104	0	72	21336
2026-01-05 23:25:36.93	20.11	11.28	-50.3	-65.9	3.8	1.49e+00	0	39	104	0	72	21349
2026-01-05 23:25:37.65	20.13	11.34	-50.3	-65.9	3.8	1.49e+00	0	39	104	0	72	21372
2026-01-05 23:25:38.94	20.17	11.46	-50.3	-65.9	3.8	1.49e+00	0	39	104	0	72	21338
2026-01-05 23:25:39.66	20.18	11.53	-50.3	-65.9	3.8	1.49e+00	0	39	104	0	72	21354
2026-01-05 23:25:40.95	20.22	11.64	-50.3	-65.9	3.8	1.49e+00	0	39	104	0	72	21360
2026-01-05 23:25:41.67	20.24	11.71	-50.3	-65.9	3.8	1.49e+00	0	39	104	0	72	21420
2026-01-05 23:25:42.96	20.28	11.83	-50.3	-65.9	3.8	1.49e+00	0	39	104	0	72	21354
2026-01-05 23:25:43.68	20.30	11.89	-50.3	-65.9	3.8	1.49e+00	0	39	104	0	72	21381
2026-01-05 23:25:44.97	20.33	12.01	-50.3	-65.9	3.8	1.49e+00	0	39	104	0	72	21349
2026-01-05 23:25:45.68	20.35	12.08	-50.3	-65.9	3.8	1.49e+00	0	39	104	0	72	21316
2026-01-05 23:25:46.97	20.39	12.20	-50.3	-65.9	3.8	1.49e+00	0	39	104	0	72	21303
2026-01-05 23:25:47.69	20.41	12.27	-50.3	-65.9	3.8	1.49e+00	0	39	104	0	72	21359
2026-01-05 23:25:48.98	20.45	12.39	-50.3	-65.9	3.8	1.49e+00	0	39	104	0	72	21366
2026-01-05 23:25:49.70	20.47	12.46	-50.3	-65.9	3.8	1.49e+00	0	39	104	0	72	21353
2026-01-05 23:25:50.99	20.51	12.58	-50.3	-65.9	3.8	1.49e+00	0	39	104	0	72	21320
2026-01-05 23:25:51.71	20.53	12.65	-50.3	-65.9	3.8	1.49e+00	0	39	104	0	72	21332
2026-01-05 23:25:53.00	20.57	12.77	-50.3	-65.9	3.8	1.49e+00	0	39	104	0	72	21345
2026-01-05 23:25:53.71	20.59	12.84	-50.3	-65.9	3.8	1.49e+00	0	39	104	0	72	21316
2026-01-05 23:25:55.01	20.63	12.97	-50.3	-65.9	3.8	1.49e+00	0	39	104	0	72	21347
2026-01-05 23:25:55.73	20.65	13.03	-50.3	-65.9	3.8	1.49e+00	0	40	104	0	72	21408
2026-01-05 23:25:57.01	20.69	13.16	-50.3	-65.9	3.8	1.49e+00	0	39	104	0	72	21346
2026-01-05 23:25:57.73	20.71	13.23	-50.3	-65.9	3.8	1.49e+00	0	39	104	0	72	21335
2026-01-05 23:25:59.02	20.75	13.36	-50.3	-65.9	3.8	1.49e+00	0	39	104	0	72	21309
2026-01-05 23:25:59.74	20.77	13.43	-50.3	-65.8	3.8	1.49e+00	0	39	104	0	72	21255
2026-01-05 23:26:01.03	20.81	13.55	-50.3	-65.9	3.8	1.49e+00	0	40	104	0	72	21308
2026-01-05 23:26:01.75	20.84	13.62	-50.3	-65.9	3.8	1.49e+00	0	39	104	0	72	21330
2026-01-05 23:26:03.04	20.88	13.75	-50.3	-65.9	3.8	1.49e+00	0	40	104	0	72	21293
2026-01-05 23:26:03.76	20.90	13.82	-50.3	-65.9	3.8	1.49e+00	0	39	104	0	72	21298
2026-01-05 23:26:05.05	20.94	13.95	-50.3	-65.9	3.8	1.49e+00	0	40	104	0	72	21348
2026-01-05 23:26:05.77	20.96	14.03	-50.3	-65.9	3.8	1.49e+00	0	39	104	0	72	21463
2026-01-05 23:26:07.06	21.00	14.16	-50.3	-65.9	3.8	1.49e+00	0	40	104	0	72	21380
2026-01-05 23:26:07.78	21.03	14.23	-50.3	-65.9	3.8	1.49e+00	0	40	104	0	72	21285
2026-01-05 23:26:09.06	21.07	14.36	-50.3	-65.9	3.8	1.49e+00	0	39	104	0	72	21311
2026-01-05 23:26:09.78	21.09	14.43	-50.3	-65.9	3.8	1.49e+00	0	40	104	0	72	21459
2026-01-05 23:26:11.07	21.14	14.57	-50.3	-65.9	3.8	1.49e+00	0	39	104	0	72	21292
2026-01-05 23:26:11.79	21.16	14.64	-50.3	-65.9	3.8	1.49e+00	0	39	104	0	72	21311
2026-01-05 23:26:13.08	21.20	14.78	-50.3	-65.9	3.8	1.49e+00	0	40	104	0	72	21314
2026-01-05 23:26:13.80	21.23	14.85	-50.3	-65.9	3.8	1.49e+00	0	40	104	0	72	21282
2026-01-05 23:26:15.09	21.27	14.98	-50.3	-65.9	3.8	1.49e+00	0	40	104	0	72	21265
2026-01-05 23:26:15.81	21.29	15.06	-50.3	-65.9	3.8	1.49e+00	0	40	104	0	72	21298
2026-01-05 23:26:17.10	21.34	15.20	-50.3	-65.9	3.8	1.49e+00	0	39	104	0	72	21272
2026-01-05 23:26:17.82	21.36	15.27	-50.3	-65.9	3.8	1.49e+00	0	40	104	0	72	21266
2026-01-05 23:26:19.11	21.41	15.41	-50.3	-65.9	3.8	1.49e+00	0	40	104	0	72	21340
2026-01-05 23:26:19.83	21.43	15.49	-50.3	-65.9	3.8	1.49e+00	0	40	104	0	72	21383
2026-01-05 23:26:21.11	21.48	15.62	-50.3	-65.9	3.8	1.49e+00	0	40	104	0	72	21369
2026-01-05 23:26:21.83	21.50	15.70	-50.3	-65.9	3.8	1.49e+00	0	40	104	0	72	21328
2026-01-05 23:26:23.12	21.55	15.84	-50.3	-65.9	3.8	1.49e+00	0	40	104	0	72	21298
2026-01-05 23:26:23.84	21.58	15.92	-50.3	-65.9	3.8	1.49e+00	0	40	104	0	72	21344
2026-01-05 23:26:25.13	21.62	16.06	-50.3	-65.9	3.8	1.49e+00	0	40	104	0	72	21366
2026-01-05 23:26:25.85	21.65	16.14	-50.3	-65.9	3.8	1.49e+00	0	40	104	0	72	21306
2026-01-05 23:26:27.14	21.69	16.28	-50.3	-65.9	3.8	1.49e+00	0	40	104	0	72	21355
2026-01-05 23:26:27.86	21.72	16.36	-50.3	-65.9	3.8	1.49e+00	0	40	104	0	72	21358
2026-01-05 23:26:29.15	21.77	16.50	-50.3	-65.9	3.8	1.49e+00	0	40	104	0	72	21383
2026-01-05 23:26:29.86	21.80	16.58	-50.3	-65.9	3.8	1.49e+00	0	40	104	0	72	21356
2026-01-05 23:26:31.16	21.84	16.73	-50.3	-65.9	3.8	1.49e+00	0	40	104	0	72	21302
2026-01-05 23:26:31.88	21.87	16.81	-50.3	-65.9	3.8	1.49e+00	0	40	104	0	72	21378
2026-01-05 23:26:33.16	21.92	16.96	-50.3	-65.9	3.8	1.49e+00	0	40	104	0	72	21294
2026-01-05 23:26:33.88	21.95	17.04	-50.3	-65.9	3.8	1.49e+00	0	40	104	0	72	21316
2026-01-05 23:26:35.17	22.00	17.18	-50.3	-65.9	3.8	1.49e+00	0	40	104	0	72	21286
2026-01-05 23:26:35.89	22.02	17.27	-50.3	-65.9	3.8	1.49e+00	0	40	104	0	72	21317
2026-01-05 23:26:37.18	22.07	17.42	-50.3	-65.9	3.8	1.49e+00	0	40	104	0	72	21359
2026-01-05 23:26:37.90	22.10	17.50	-50.3	-65.9	3.8	1.49e+00	0	40	104	0	72	21417
2026-01-05 23:26:39.19	22.15	17.65	-50.3	-65.9	3.8	1.49e+00	0	40	104	0	72	21268
2026-01-05 23:26:39.91	22.18	17.73	-50.3	-65.9	3.8	1.49e+00	0	40	104	0	72	21290
2026-01-05 23:26:41.20	22.23	17.89	-50.3	-65.9	3.8	1.49e+00	0	40	104	0	72	21424
2026-01-05 23:26:41.92	22.26	17.97	-50.3	-65.9	3.8	1.49e+00	0	40	104	0	72	21287
2026-01-05 23:26:43.21	22.32	18.12	-50.3	-65.9	3.8	1.49e+00	0	40	104	0	72	21331
2026-01-05 23:26:43.93	22.35	18.21	-50.3	-65.9	3.8	1.49e+00	0	40	104	0	72	21398
2026-01-05 23:26:45.22	22.40	18.36	-50.3	-65.9	3.8	1.49e+00	0	40	104	0	72	21294
2026-01-05 23:26:45.94	22.43	18.45	-50.3	-65.9	3.8	1.49e+00	0	40	104	0	72	21300
2026-01-05 23:26:47.23	22.48	18.61	-50.3	-65.9	3.8	1.49e+00	0	40	104	0	72	21332
2026-01-05 23:26:47.94	22.51	18.69	-50.3	-65.9	3.8	1.49e+00	0	40	104	0	72	21444
2026-01-05 23:26:49.23	22.57	18.85	-50.3	-65.9	3.8	1.49e+00	0	40	104	0	72	21359
2026-01-05 23:26:49.95	22.60	18.94	-50.3	-65.9	3.8	1.49e+00	0	40	104	0	72	21292
2026-01-05 23:26:51.24	22.65	19.10	-50.3	-65.8	3.8	1.49e+00	0	40	104	0	72	21215
2026-01-05 23:26:52.33	22.70	19.23	-50.3	-65.9	3.8	1.49e+00	0	40	104	0	72	21301
2026-01-05 23:26:53.19	22.74	19.34	-50.3	-65.9	3.8	1.49e+00	0	40	104	0	72	21303
2026-01-05 23:26:54.34	22.79	19.48	-50.3	-65.9	3.8	1.49e+00	0	40	104	0	72	21312
2026-01-05 23:26:55.20	22.83	19.59	-50.3	-65.8	3.8	1.49e+00	0	40	104	0	72	21256
2026-01-05 23:26:56.34	22.88	19.74	-50.3	-65.9	3.8	1.49e+00	0	40	104	0	72	21316
2026-01-05 23:26:57.21	22.92	19.85	-50.3	-65.9	3.8	1.49e+00	0	40	104	0	72	21348
2026-01-05 23:26:58.36	22.97	19.99	-50.3	-65.9	3.8	1.49e+00	0	40	104	0	72	21338
2026-01-05 23:26:59.28	23.01	20.11	-50.3	-65.9	3.8	1.49e+00	0	40	104	0	72	21322
2026-01-05 23:27:00.28	23.06	20.24	-50.3	-65.9	3.8	1.49e+00	0	40	104	0	72	21283
2026-01-05 23:27:01.29	23.10	20.37	-50.3	-65.9	3.8	1.49e+00	0	40	104	0	72	21272
2026-01-05 23:27:02.55	23.16	20.54	-50.3	-65.9	3.8	1.49e+00	0	40	104	0	72	21302
2026-01-05 23:27:03.30	23.20	20.63	-50.3	-65.9	3.8	1.49e+00	0	40	104	0	72	21293
2026-01-05 23:27:04.59	23.26	20.80	-50.3	-65.9	3.8	1.49e+00	0	40	104	0	72	21339
2026-01-05 23:27:05.37	23.30	20.91	-50.3	-65.9	3.8	1.49e+00	0	40	104	0	72	21356
2026-01-05 23:27:06.66	23.36	21.08	-50.3	-65.9	3.8	1.49e+00	0	40	104	0	72	21345
2026-01-05 23:27:07.38	23.40	21.18	-50.3	-65.9	3.8	1.49e+00	0	40	104	0	72	21365
2026-01-05 23:27:08.67	23.46	21.35	-50.3	-65.9	3.8	1.49e+00	0	40	104	0	72	21287
2026-01-05 23:27:09.39	23.49	21.45	-50.3	-65.9	3.8	1.49e+00	0	40	104	0	72	21325
2026-01-05 23:27:10.68	23.56	21.62	-50.3	-65.8	3.8	1.49e+00	0	40	104	0	72	21258
2026-01-05 23:27:11.40	23.59	21.72	-50.3	-65.9	3.8	1.49e+00	0	40	104	0	72	21308
2026-01-05 23:27:12.69	23.66	21.90	-50.3	-65.9	3.8	1.49e+00	0	40	104	0	72	21342
2026-01-05 23:27:13.41	23.70	22.00	-50.3	-65.9	3.8	1.49e+00	0	40	104	0	72	21275
2026-01-05 23:27:14.70	23.76	22.18	-50.3	-65.8	3.8	1.49e+00	0	40	104	0	72	21215
2026-01-05 23:27:15.42	23.80	22.28	-50.3	-65.9	3.8	1.49e+00	0	40	104	0	72	21296
2026-01-05 23:27:16.87	23.88	22.48	-50.3	-65.9	3.8	1.49e+00	0	40	104	0	72	21287
2026-01-05 23:27:17.58	23.92	22.58	-50.3	-65.9	3.8	1.49e+00	0	40	104	0	72	21305
2026-01-05 23:27:18.88	23.98	22.77	-50.3	-65.9	3.8	1.49e+00	0	40	104	0	72	21380
2026-01-05 23:27:19.59	24.02	22.87	-50.3	-65.9	3.8	1.49e+00	0	40	104	0	72	21368
2026-01-05 23:27:20.89	24.09	23.06	-50.3	-65.8	3.8	1.49e+00	0	40	104	0	72	21241
2026-01-05 23:27:21.60	24.13	23.16	-50.3	-65.9	3.8	1.49e+00	0	40	104	0	72	21361
2026-01-05 23:27:22.89	24.20	23.35	-50.3	-65.9	3.8	1.49e+00	0	40	104	0	72	21296
2026-01-05 23:27:23.61	24.24	23.45	-50.3	-65.9	3.8	1.49e+00	0	40	104	0	72	21304
2026-01-05 23:27:24.90	24.32	23.64	-50.3	-65.9	3.8	1.49e+00	0	40	104	0	72	21316
2026-01-05 23:27:25.62	24.36	23.75	-50.3	-65.9	3.8	1.49e+00	0	40	104	0	72	21332
2026-01-05 23:27:26.91	24.43	23.94	-50.3	-65.8	3.8	1.49e+00	0	40	104	0	72	21236
2026-01-05 23:27:27.63	24.47	24.05	-50.3	-65.9	3.8	1.49e+00	0	40	104	0	72	21330
2026-01-05 23:27:28.92	24.55	24.24	-50.3	-65.9	3.8	1.49e+00	0	40	104	0	72	21282
2026-01-05 23:27:29.64	24.59	24.35	-50.3	-65.9	3.8	1.49e+00	0	40	104	0	72	21310
2026-01-05 23:27:30.93	24.67	24.54	-50.3	-65.9	3.8	1.49e+00	0	40	104	0	72	21301
2026-01-05 23:27:31.65	24.71	24.65	-50.3	-65.9	3.8	1.49e+00	0	40	104	0	72	21330
2026-01-05 23:27:33.03	24.79	24.87	-50.3	-65.8	3.8	1.49e+00	0	40	104	0	72	21257
2026-01-05 23:27:33.75	24.84	24.98	-50.3	-65.9	3.8	1.49e+00	0	40	104	0	72	21283
2026-01-05 23:27:35.04	24.92	25.18	-50.3	-65.9	3.8	1.49e+00	0	40	104	0	72	21321
2026-01-05 23:27:35.76	24.96	25.29	-50.3	-65.8	3.8	1.49e+00	0	40	104	0	72	21251
2026-01-05 23:27:37.05	25.04	25.49	-50.3	-65.9	3.8	1.49e+00	0	40	104	0	72	21310
2026-01-05 23:27:37.77	25.09	25.61	-50.3	-65.9	3.8	1.49e+00	0	40	104	0	72	21340
2026-01-05 23:27:39.06	25.17	25.81	-50.3	-65.9	3.8	1.49e+00	0	40	104	0	72	21307
2026-01-05 23:27:39.77	25.22	25.93	-50.3	-65.9	3.8	1.49e+00	0	40	104	0	72	21311
2026-01-05 23:27:41.07	25.30	26.14	-50.3	-65.9	3.8	1.49e+00	0	40	104	0	72	21280
2026-01-05 23:27:41.78	25.35	26.25	-50.3	-65.8	3.8	1.49e+00	0	40	104	0	72	21253
2026-01-05 23:27:43.07	25.43	26.46	-50.3	-65.9	3.8	1.49e+00	0	40	104	0	72	21335
2026-01-05 23:27:43.79	25.48	26.58	-50.3	-65.8	3.8	1.49e+00	0	40	104	0	72	21234
2026-01-05 23:27:45.08	25.57	26.79	-50.3	-65.9	3.8	1.49e+00	0	40	104	0	72	21284
2026-01-05 23:27:45.80	25.62	26.91	-50.3	-65.9	3.8	1.49e+00	0	40	104	0	72	21327
2026-01-05 23:27:47.09	25.71	27.13	-50.3	-65.9	3.8	1.49e+00	0	40	104	0	72	21380
2026-01-05 23:27:47.81	25.76	27.25	-50.3	-65.9	3.8	1.49e+00	0	40	104	0	72	21408
2026-01-05 23:27:49.10	25.85	27.47	-50.3	-65.9	3.8	1.49e+00	0	40	104	0	72	21361
2026-01-05 23:27:49.82	25.90	27.59	-50.3	-65.9	3.8	1.49e+00	0	40	104	0	72	21300
2026-01-05 23:27:51.10	25.99	27.81	-50.3	-65.9	3.8	1.49e+00	0	40	104	0	72	21421
2026-01-05 23:27:51.82	26.04	27.93	-50.3	-65.9	3.8	1.49e+00	0	40	104	0	72	21279
2026-01-05 23:27:53.11	26.14	28.15	-50.3	-65.9	3.8	1.49e+00	0	40	104	0	72	21292
2026-01-05 23:27:53.83	26.19	28.28	-50.3	-65.9	3.8	1.49e+00	0	40	104	0	72	21322
2026-01-05 23:27:55.12	26.29	28.50	-50.3	-65.8	3.8	1.49e+00	0	40	104	0	72	21238
2026-01-05 23:27:55.84	26.34	28.63	-50.3	-65.9	3.8	1.49e+00	0	40	104	0	72	21287
2026-01-05 23:27:57.13	26.44	28.86	-50.3	-65.8	3.8	1.49e+00	0	40	104	0	72	21255
2026-01-05 23:27:57.85	26.50	28.99	-50.3	-65.9	3.8	1.49e+00	0	40	104	0	72	21291
2026-01-05 23:27:59.14	26.60	29.22	-50.3	-65.9	3.8	1.49e+00	0	40	104	0	72	21301
2026-01-05 23:27:59.86	26.66	29.35	-50.3	-65.8	3.8	1.49e+00	0	40	104	0	72	21208
2026-01-05 23:28:01.15	26.76	29.58	-50.3	-65.9	3.8	1.49e+00	0	40	104	0	72	21285
2026-01-05 23:28:01.87	26.82	29.72	-50.3	-65.9	3.8	1.49e+00	0	40	104	0	72	21324
2026-01-05 23:28:03.16	26.92	29.95	-50.3	-65.8	3.8	1.49e+00	0	40	104	0	72	21229
2026-01-05 23:28:03.87	26.98	30.08	-50.3	-65.9	3.8	1.49e+00	0	40	104	0	72	21261
2026-01-05 23:28:05.17	27.09	30.33	-50.3	-65.8	3.8	1.49e+00	0	40	104	0	72	21244
2026-01-05 23:28:06.22	27.18	30.52	-50.3	-65.9	3.8	1.49e+00	0	40	104	0	72	21298
2026-01-05 23:28:07.41	27.28	30.75	-50.3	-65.8	3.8	1.49e+00	0	40	104	0	72	21233
2026-01-05 23:28:08.44	27.37	30.94	-50.3	-65.9	3.8	1.49e+00	0	40	104	0	72	21336
2026-01-05 23:28:09.61	27.47	31.17	-50.3	-65.8	3.8	1.49e+00	0	40	104	0	72	21260
2026-01-05 23:28:10.51	27.55	31.34	-50.3	-65.9	3.8	1.49e+00	0	40	104	0	72	21306
2026-01-05 23:28:11.53	27.64	31.54	-50.3	-65.9	3.8	1.49e+00	0	40	104	0	72	21313
2026-01-05 23:28:12.53	27.73	31.73	-50.3	-65.9	3.8	1.49e+00	0	40	104	0	72	21308
2026-01-05 23:28:13.54	27.83	31.93	-50.3	-65.9	3.8	1.49e+00	0	40	104	0	72	21274
2026-01-05 23:28:14.54	27.92	32.13	-50.3	-65.9	3.8	1.49e+00	0	40	104	0	72	21286
2026-01-05 23:28:15.54	28.01	32.33	-50.3	-65.9	3.8	1.49e+00	0	40	104	0	72	21309
2026-01-05 23:28:16.55	28.11	32.53	-50.3	-65.8	3.8	1.49e+00	0	40	104	0	72	21249
2026-01-05 23:28:17.55	28.21	32.73	-50.3	-65.9	3.8	1.49e+00	0	40	104	0	72	21329
2026-01-05 23:28:18.55	28.30	32.93	-50.3	-65.9	3.8	1.49e+00	0	40	104	0	72	21270
2026-01-05 23:28:19.56	28.40	33.14	-50.3	-65.9	3.8	1.49e+00	0	40	104	0	72	21315
2026-01-05 23:28:20.57	28.50	33.35	-50.3	-65.8	3.8	1.49e+00	0	40	104	0	72	21203
2026-01-05 23:28:21.60	28.61	33.56	-50.3	-65.8	3.8	1.49e+00	0	40	104	0	72	21221
2026-01-05 23:28:22.63	28.71	33.77	-50.3	-65.9	3.8	1.49e+00	0	40	104	0	72	21321
2026-01-05 23:28:23.64	28.82	33.99	-50.3	-65.8	3.8	1.49e+00	0	40	104	0	72	21234
2026-01-05 23:28:24.64	28.92	34.20	-50.3	-65.9	3.8	1.49e+00	0	40	104	0	72	21281
2026-01-05 23:28:25.64	29.03	34.41	-50.3	-65.8	3.8	1.49e+00	0	40	104	0	72	21236
2026-01-05 23:28:26.65	29.14	34.62	-50.3	-65.9	3.8	1.49e+00	0	40	104	0	72	21342
2026-01-05 23:28:27.65	29.25	34.84	-50.3	-65.9	3.8	1.49e+00	0	40	104	0	72	21297
2026-01-05 23:28:28.66	29.36	35.06	-50.3	-65.8	3.8	1.49e+00	0	40	104	0	72	21235
2026-01-05 23:28:29.66	29.47	35.27	-50.3	-65.8	3.8	1.49e+00	0	40	104	0	72	21223
2026-01-05 23:28:30.66	29.58	35.49	-50.3	-65.9	3.8	1.49e+00	0	40	104	0	72	21293
2026-01-05 23:28:31.67	29.70	35.72	-50.3	-65.9	3.8	1.49e+00	0	40	104	0	72	21290
2026-01-05 23:28:32.67	29.81	35.94	-50.3	-65.8	3.8	1.49e+00	0	40	104	0	72	21174
2026-01-05 23:28:33.68	29.93	36.16	-50.3	-65.8	3.8	1.49e+00	0	40	104	0	72	21249
2026-01-05 23:28:34.68	30.05	36.39	-50.3	-65.9	3.8	1.49e+00	0	40	104	0	72	21287
2026-01-05 23:28:35.69	30.17	36.62	-50.3	-65.9	3.8	1.49e+00	0	40	104	0	72	21278
2026-01-05 23:28:36.69	30.30	36.84	-50.3	-65.9	3.8	1.49e+00	0	40	104	0	72	21295
2026-01-05 23:28:37.69	30.42	37.07	-50.3	-65.8	3.8	1.49e+00	0	40	104	0	72	21230
2026-01-05 23:28:38.70	30.55	37.30	-50.3	-65.8	3.8	1.49e+00	0	40	104	0	72	21237
2026-01-05 23:28:39.70	30.68	37.54	-50.3	-65.9	3.8	1.49e+00	0	40	104	0	72	21359
2026-01-05 23:28:40.71	30.81	37.77	-50.3	-65.9	3.8	1.49e+00	0	40	104	0	72	21275
2026-01-05 23:28:41.71	30.94	38.01	-50.3	-65.8	3.8	1.49e+00	0	40	104	0	72	21236
2026-01-05 23:28:42.71	31.07	38.24	-50.3	-65.9	3.8	1.49e+00	0	40	104	0	72	21320
2026-01-05 23:28:43.72	31.21	38.48	-50.3	-65.9	3.8	1.49e+00	0	40	104	0	72	21288
2026-01-05 23:28:44.73	31.35	38.72	-50.3	-65.9	3.8	1.49e+00	0	40	104	0	72	21341
2026-01-05 23:28:45.73	31.49	38.97	-50.3	-65.9	3.8	1.49e+00	0	40	104	0	72	21287
2026-01-05 23:28:46.73	31.63	39.21	-50.3	-65.8	3.8	1.49e+00	0	40	104	0	72	21250
2026-01-05 23:28:47.74	31.77	39.45	-50.3	-65.8	3.8	1.49e+00	0	40	104	0	72	21257
2026-01-05 23:28:48.74	31.92	39.70	-50.3	-65.9	3.8	1.49e+00	0	40	104	0	72	21283
2026-01-05 23:28:49.74	32.06	39.95	-50.3	-65.9	3.8	1.49e+00	0	40	104	0	72	21310
2026-01-05 23:28:50.75	32.21	40.20	-50.3	-65.9	3.8	1.49e+00	0	40	104	0	72	21269
2026-01-05 23:28:51.75	32.37	40.45	-50.3	-65.8	3.8	1.49e+00	0	40	104	0	72	21225
2026-01-05 23:28:52.76	32.52	40.70	-50.3	-65.8	3.8	1.49e+00	0	40	104	0	72	21257
2026-01-05 23:28:53.76	32.68	40.96	-50.3	-65.9	3.8	1.49e+00	0	40	104	0	72	21311
2026-01-05 23:28:54.76	32.84	41.21	-50.3	-65.8	3.8	1.49e+00	0	40	104	0	72	21243
2026-01-05 23:28:55.77	33.00	41.47	-50.3	-65.8	3.8	1.49e+00	0	40	104	0	72	21245
2026-01-05 23:28:56.77	33.16	41.73	-50.3	-65.9	3.8	1.49e+00	0	40	104	0	72	21278
2026-01-05 23:28:57.78	33.33	41.99	-50.3	-65.9	3.8	1.49e+00	0	40	104	0	72	21307
2026-01-05 23:28:58.78	33.50	42.25	-50.3	-65.9	3.8	1.49e+00	0	40	104	0	72	21299
2026-01-05 23:28:59.79	33.68	42.52	-50.3	-65.9	3.8	1.49e+00	0	40	104	0	72	21263
2026-01-05 23:29:00.79	33.85	42.78	-50.3	-65.8	3.8	1.49e+00	0	40	104	0	72	21241
2026-01-05 23:29:01.80	34.03	43.05	-50.3	-65.8	3.8	1.49e+00	0	40	104	0	72	21252
2026-01-05 23:29:02.80	34.21	43.32	-50.3	-65.8	3.8	1.49e+00	0	40	104	0	72	21239
2026-01-05 23:29:03.80	34.39	43.59	-50.3	-65.9	3.8	1.49e+00	0	40	104	0	72	21352
2026-01-05 23:29:04.81	34.58	43.86	-50.3	-65.9	3.8	1.49e+00	0	40	104	0	72	21323
2026-01-05 23:29:05.81	34.77	44.13	-50.3	-65.8	3.8	1.49e+00	0	40	104	0	72	21260
2026-01-05 23:29:06.82	34.97	44.41	-50.3	-65.9	3.8	1.49e+00	0	40	104	0	72	21291
2026-01-05 23:29:07.82	35.16	44.69	-50.3	-65.9	3.8	1.49e+00	0	40	104	0	72	21298
2026-01-05 23:29:08.83	35.37	44.97	-50.3	-65.9	3.8	1.49e+00	0	40	104	0	72	21349
2026-01-05 23:29:09.83	35.57	45.24	-50.3	-65.8	3.8	1.49e+00	0	40	104	0	72	21207
2026-01-05 23:29:10.83	35.78	45.52	-50.3	-65.9	3.8	1.49e+00	0	40	104	0	72	21348
2026-01-05 23:29:11.84	35.99	45.81	-50.3	-65.9	3.8	1.49e+00	0	40	104	0	72	21308
2026-01-05 23:29:12.84	36.20	46.09	-50.3	-65.9	3.8	1.49e+00	0	40	104	0	72	21349
2026-01-05 23:29:13.85	36.42	46.38	-50.3	-65.9	3.8	1.49e+00	0	40	104	0	72	21276
2026-01-05 23:29:14.85	36.65	46.67	-50.3	-65.9	3.8	1.49e+00	0	40	104	0	72	21272
2026-01-05 23:29:15.85	36.87	46.96	-50.3	-65.9	3.8	1.49e+00	0	40	104	0	72	21295
2026-01-05 23:29:16.86	37.10	47.25	-50.3	-65.9	3.8	1.49e+00	0	40	104	0	72	21272
2026-01-05 23:29:17.86	37.34	47.54	-50.3	-65.9	3.8	1.49e+00	0	40	104	0	72	21296
2026-01-05 23:29:18.86	37.58	47.83	-50.3	-65.9	3.8	1.49e+00	0	40	104	0	72	21289
2026-01-05 23:29:19.87	37.82	48.13	-50.3	-65.9	3.8	1.49e+00	0	40	104	0	72	21304
2026-01-05 23:29:20.87	38.07	48.43	-50.3	-65.9	3.8	1.49e+00	0	40	104	0	72	21339
2026-01-05 23:29:21.88	38.33	48.73	-50.3	-65.9	3.8	1.49e+00	0	40	104	0	72	21310
2026-01-05 23:29:22.88	38.58	49.02	-50.3	-65.9	3.8	1.49e+00	0	40	104	0	72	21342
2026-01-05 23:29:23.89	38.85	49.33	-50.3	-65.9	3.8	1.49e+00	0	40	104	0	72	21301
2026-01-05 23:29:24.89	39.12	49.63	-50.3	-65.9	3.8	1.49e+00	0	40	104	0	72	21287
2026-01-05 23:29:25.90	39.39	49.93	-50.3	-65.9	3.8	1.49e+00	0	40	104	0	72	21313
2026-01-05 23:29:26.90	39.67	50.24	-50.3	-65.9	3.8	1.49e+00	0	40	104	0	72	21327
2026-01-05 23:29:27.90	39.96	50.54	-50.3	-65.9	3.8	1.49e+00	0	40	104	0	72	21296
2026-01-05 23:29:28.91	40.25	50.85	-50.3	-65.9	3.8	1.49e+00	0	40	104	0	72	21304
2026-01-05 23:29:29.91	40.54	51.16	-50.3	-65.9	3.8	1.49e+00	0	40	104	0	72	21267
2026-01-05 23:29:30.92	40.85	51.48	-50.3	-65.9	3.8	1.49e+00	0	40	104	0	72	21261
2026-01-05 23:29:31.92	41.16	51.79	-50.3	-65.9	3.8	1.49e+00	0	40	104	0	72	21391
2026-01-05 23:29:32.93	41.48	52.10	-50.3	-65.9	3.8	1.49e+00	0	40	104	0	72	21304
2026-01-05 23:29:33.93	41.80	52.41	-50.3	-65.8	3.8	1.49e+00	0	40	104	0	72	21243
2026-01-05 23:29:34.93	42.13	52.73	-50.3	-65.9	3.8	1.49e+00	0	40	104	0	72	21332
2026-01-05 23:29:35.94	42.46	53.05	-50.3	-65.9	3.8	1.49e+00	0	40	104	0	72	21325
2026-01-05 23:29:36.94	42.81	53.36	-50.3	-65.9	3.8	1.49e+00	0	40	104	0	72	21309
2026-01-05 23:29:37.95	43.16	53.68	-50.3	-65.9	3.8	1.49e+00	0	40	104	0	72	21371
2026-01-05 23:29:38.95	43.52	54.00	-50.3	-65.9	3.8	1.49e+00	0	40	104	0	72	21378
2026-01-05 23:29:39.95	43.88	54.32	-50.3	-65.9	3.8	1.49e+00	0	40	104	0	72	21265
2026-01-05 23:29:40.96	44.26	54.64	-50.3	-65.9	3.8	1.49e+00	0	40	104	0	72	21349
2026-01-05 23:29:41.96	44.64	54.96	-50.3	-65.9	3.8	1.49e+00	0	40	104	0	72	21298
2026-01-05 23:29:42.97	45.04	55.29	-50.3	-65.9	3.8	1.49e+00	0	40	104	0	72	21292
2026-01-05 23:29:43.97	45.44	55.61	-50.3	-65.9	3.8	1.49e+00	0	40	104	0	72	21357
2026-01-05 23:29:44.98	45.85	55.93	-50.3	-65.9	3.8	1.49e+00	0	40	104	0	72	21323
2026-01-05 23:29:45.98	46.27	56.26	-50.3	-65.9	3.8	1.49e+00	0	40	104	0	72	21322
2026-01-05 23:29:46.99	46.70	56.58	-50.3	-65.9	3.8	1.49e+00	0	40	104	0	72	21323
2026-01-05 23:29:47.99	47.14	56.91	-50.3	-65.9	3.8	1.49e+00	0	40	104	0	72	21361
2026-01-05 23:29:49.00	47.60	57.23	-50.3	-65.9	3.8	1.49e+00	0	40	104	0	72	21314
2026-01-05 23:29:50.00	48.06	57.56	-50.3	-65.9	3.8	1.49e+00	0	40	104	0	72	21373
2026-01-05 23:29:51.01	48.53	57.89	-50.3	-65.9	3.8	1.49e+00	0	40	104	0	72	21301
2026-01-05 23:29:52.01	49.01	58.21	-50.3	-65.9	3.8	1.49e+00	0	40	104	0	72	21358
2026-01-05 23:29:53.01	49.51	58.53	-50.3	-65.9	3.8	1.49e+00	0	40	104	0	72	21355
2026-01-05 23:29:54.02	50.02	58.86	-50.3	-65.9	3.8	1.49e+00	0	40	104	0	72	21308
2026-01-05 23:29:55.02	50.54	59.18	-50.3	-65.9	3.8	1.49e+00	0	40	104	0	72	21343
2026-01-05 23:29:56.03	51.08	59.51	-50.3	-65.9	3.8	1.49e+00	0	40	104	0	72	21327
2026-01-05 23:29:57.03	51.62	59.83	-50.3	-65.9	3.8	1.49e+00	0	40	104	0	72	21332
2026-01-05 23:29:58.04	52.19	60.16	-50.3	-65.9	3.8	1.49e+00	0	40	104	0	72	21307
2026-01-05 23:29:59.04	52.76	60.48	-50.3	-65.9	3.8	1.49e+00	0	40	104	0	72	21306
2026-01-05 23:30:00.05	53.35	60.80	-50.3	-65.9	3.8	1.49e+00	0	40	104	0	72	21330
2026-01-05 23:30:01.05	53.96	61.12	-50.3	-65.9	3.8	1.49e+00	0	40	104	0	72	21289
2026-01-05 23:30:02.06	54.58	61.44	-50.3	-65.9	3.8	1.49e+00	0	40	104	0	72	21330
2026-01-05 23:30:03.06	55.21	61.76	-50.3	-65.9	3.8	1.49e+00	0	40	104	0	72	21353
2026-01-05 23:30:04.06	55.87	62.07	-50.3	-65.9	3.8	1.49e+00	0	40	104	0	72	21362
2026-01-05 23:30:05.07	56.54	62.39	-50.3	-65.9	3.8	1.49e+00	0	40	104	0	72	21361
2026-01-05 23:30:06.07	57.22	62.70	-50.3	-65.9	3.8	1.49e+00	0	40	104	0	72	21335
2026-01-05 23:30:07.07	57.93	63.01	-50.3	-65.9	3.8	1.49e+00	0	40	104	0	72	21303
2026-01-05 23:30:08.08	58.66	63.32	-50.3	-65.9	3.8	1.49e+00	0	40	104	0	72	21344
2026-01-05 23:30:09.08	59.40	63.62	-50.3	-65.9	3.8	1.49e+00	0	40	104	0	72	21268
2026-01-05 23:30:10.09	60.16	63.92	-50.3	-65.9	3.8	1.49e+00	0	40	104	0	72	21295
2026-01-05 23:30:11.09	60.94	64.22	-50.3	-65.8	3.8	1.49e+00	0	40	104	0	72	21253
2026-01-05 23:30:12.10	61.75	64.52	-50.3	-65.9	3.8	1.49e+00	0	40	104	0	72	21284
2026-01-05 23:30:13.10	62.57	64.81	-50.3	-65.9	3.8	1.49e+00	0	40	104	0	72	21305
2026-01-05 23:30:14.11	63.42	65.10	-50.3	-65.8	3.8	1.49e+00	0	40	104	0	72	21249
2026-01-05 23:30:15.11	64.28	65.39	-50.3	-65.9	3.8	1.49e+00	0	40	104	0	72	21331
2026-01-05 23:30:16.11	65.17	65.67	-50.3	-65.9	3.8	1.49e+00	0	40	104	0	72	21326
2026-01-05 23:30:17.12	66.09	65.95	-50.3	-65.9	3.8	1.49e+00	0	40	104	0	72	21278
2026-01-05 23:30:18.12	67.02	66.22	-50.3	-65.8	3.8	1.49e+00	0	40	104	0	72	21256
2026-01-05 23:30:19.13	67.98	66.49	-50.3	-65.8	3.8	1.49e+00	0	40	104	0	72	21226
2026-01-05 23:30:20.13	68.96	66.75	-50.3	-65.9	3.8	1.49e+00	0	40	104	0	72	21298
2026-01-05 23:30:21.14	69.98	67.01	-50.3	-65.9	3.8	1.49e+00	0	40	104	0	72	21333
2026-01-05 23:30:22.14	71.01	67.26	-50.3	-65.9	3.8	1.49e+00	0	40	104	0	72	21322
2026-01-05 23:30:23.15	72.07	67.50	-50.3	-65.9	3.8	1.49e+00	0	40	104	0	72	21321
2026-01-05 23:30:24.15	73.15	67.74	-50.3	-65.9	3.8	1.49e+00	0	40	104	0	72	21303
2026-01-05 23:30:25.15	74.25	67.97	-50.3	-65.8	3.8	1.49e+00	0	40	104	0	72	21240
2026-01-05 23:30:26.16	75.39	68.20	-50.3	-65.9	3.8	1.49e+00	0	40	104	0	72	21377
2026-01-05 23:30:27.16	76.54	68.41	-50.3	-65.9	3.8	1.49e+00	0	40	104	0	72	21314
2026-01-05 23:30:28.16	77.72	68.62	-50.3	-65.9	3.8	1.49e+00	0	40	104	0	72	21376
2026-01-05 23:30:29.17	78.93	68.83	-50.3	-65.9	3.8	1.49e+00	0	40	104	0	72	21285
2026-01-05 23:30:30.17	80.16	69.02	-50.3	-65.9	3.8	1.49e+00	0	40	104	0	72	21264
2026-01-05 23:30:31.18	81.42	69.20	-50.3	-65.9	3.8	1.49e+00	0	40	104	0	72	21266
2026-01-05 23:30:32.18	82.69	69.38	-50.3	-65.9	3.8	1.49e+00	0	40	104	0	72	21308
2026-01-05 23:30:33.19	84.00	69.54	-50.3	-65.9	3.8	1.49e+00	0	40	104	0	72	21340
2026-01-05 23:30:34.19	85.32	69.70	-50.3	-65.9	3.8	1.49e+00	0	40	104	0	72	21357
2026-01-05 23:30:35.19	86.66	69.85	-50.3	-65.9	3.8	1.49e+00	0	40	104	0	72	21289
2026-01-05 23:30:36.20	88.03	69.98	-50.3	-65.9	3.8	1.49e+00	0	40	104	0	72	21338
2026-01-05 23:30:37.20	89.41	70.11	-50.3	-65.9	3.8	1.49e+00	0	40	104	0	72	21292
2026-01-05 23:30:38.29	90.94	70.23	-50.3	-65.9	3.8	1.49e+00	0	40	104	0	72	21274
2026-01-05 23:30:39.20	92.22	70.33	-50.3	-65.9	3.8	1.49e+00	0	40	104	0	72	21300
2026-01-05 23:30:40.39	93.93	70.43	-50.3	-65.9	3.8	1.49e+00	0	40	104	0	72	21265
2026-01-05 23:30:41.27	95.20	70.50	-50.3	-65.9	3.8	1.49e+00	0	40	104	0	72	21344
2026-01-05 23:30:42.59	97.12	70.59	-50.3	-65.9	3.8	1.49e+00	0	40	104	0	72	21282
2026-01-05 23:30:43.31	98.17	70.63	-50.3	-65.9	3.8	1.49e+00	0	40	104	0	72	21398
2026-01-05 23:30:44.83	100.42	70.69	-50.3	-65.9	3.8	1.49e+00	0	40	104	0	72	21325
2026-01-05 23:30:45.54	101.47	70.71	-50.3	-65.9	3.8	1.49e+00	0	40	104	0	72	21285
2026-01-05 23:30:46.90	103.49	70.73	-50.3	-65.9	3.8	1.49e+00	0	40	104	0	72	21275
2026-01-05 23:30:47.62	104.56	70.74	-50.3	-65.9	3.8	1.49e+00	0	40	104	0	72	21422
2026-01-05 23:30:48.91	106.48	70.72	-50.3	-65.9	3.8	1.49e+00	0	40	104	0	72	21308
2026-01-05 23:30:49.62	107.53	70.71	-50.3	-65.9	3.8	1.49e+00	0	40	104	0	72	21347
2026-01-05 23:30:50.92	109.45	70.67	-50.3	-65.9	3.8	1.49e+00	0	40	104	0	72	21360
2026-01-05 23:30:51.63	110.50	70.63	-50.3	-65.9	3.8	1.49e+00	0	40	104	0	72	21352
2026-01-05 23:30:52.92	112.39	70.56	-50.3	-65.9	3.8	1.49e+00	0	40	104	0	72	21332
2026-01-05 23:30:53.64	113.44	70.51	-50.3	-65.9	3.8	1.49e+00	0	40	104	0	72	21316
2026-01-05 23:30:54.93	115.30	70.41	-50.3	-65.9	3.8	1.49e+00	0	40	104	0	72	21312
2026-01-05 23:30:55.65	116.33	70.34	-50.3	-65.9	3.8	1.49e+00	0	40	104	0	72	21310
2026-01-05 23:30:56.94	118.15	70.21	-50.3	-65.9	3.8	1.49e+00	0	40	104	0	72	21371
2026-01-05 23:30:57.65	119.14	70.12	-50.3	-65.9	3.8	1.49e+00	0	40	104	0	72	21315
2026-01-05 23:30:58.95	120.94	69.96	-50.3	-65.9	3.8	1.49e+00	0	40	104	0	72	21314
2026-01-05 23:30:59.67	121.92	69.86	-50.3	-65.9	3.8	1.49e+00	0	40	104	0	72	21279
2026-01-05 23:31:00.96	123.64	69.68	-50.3	-65.9	3.8	1.49e+00	0	40	104	0	72	21435
2026-01-05 23:31:01.67	124.58	69.56	-50.3	-65.9	3.8	1.49e+00	0	40	104	0	72	21309
2026-01-05 23:31:02.96	126.25	69.35	-50.3	-65.8	3.8	1.49e+00	0	40	104	0	72	21257
2026-01-05 23:31:03.68	127.17	69.23	-50.3	-65.8	3.8	1.49e+00	0	40	104	0	72	21232
2026-01-05 23:31:04.97	128.79	68.99	-50.3	-65.9	3.8	1.49e+00	0	40	104	0	72	21290
2026-01-05 23:31:05.69	129.67	68.85	-50.3	-65.8	3.8	1.49e+00	0	40	104	0	72	21242
2026-01-05 23:31:06.98	131.22	68.59	-50.3	-65.9	3.8	1.49e+00	0	40	104	0	72	21279
2026-01-05 23:31:07.70	132.07	68.44	-50.3	-65.9	3.8	1.49e+00	0	40	104	0	72	21283
2026-01-05 23:31:08.99	133.56	68.16	-50.3	-65.9	3.8	1.49e+00	0	40	104	0	72	21290
2026-01-05 23:31:09.71	134.37	68.00	-50.3	-65.9	3.8	1.49e+00	0	40	104	0	72	21317
2026-01-05 23:31:11.00	135.79	67.70	-50.3	-65.9	3.8	1.49e+00	0	40	104	0	72	21315
2026-01-05 23:31:11.72	136.57	67.53	-50.3	-65.9	3.8	1.49e+00	0	40	104	0	72	21327
2026-01-05 23:31:13.01	137.93	67.21	-50.3	-65.9	3.8	1.49e+00	0	40	104	0	72	21314
2026-01-05 23:31:13.72	138.66	67.04	-50.3	-65.9	3.8	1.49e+00	0	40	104	0	72	21399
2026-01-05 23:31:15.02	139.96	66.70	-50.3	-65.8	3.8	1.49e+00	0	40	104	0	72	21258
2026-01-05 23:31:15.73	140.66	66.52	-50.3	-65.9	3.8	1.49e+00	0	40	104	0	72	21374
2026-01-05 23:31:17.02	141.89	66.17	-50.3	-65.9	3.8	1.49e+00	0	40	104	0	72	21292
2026-01-05 23:31:17.74	142.56	65.98	-50.3	-65.9	3.8	1.49e+00	0	40	104	0	72	21329
2026-01-05 23:31:19.03	143.74	65.62	-50.3	-65.8	3.8	1.49e+00	0	40	104	0	72	21237
2026-01-05 23:31:19.75	144.37	65.42	-50.3	-65.9	3.8	1.49e+00	0	40	104	0	72	21376
2026-01-05 23:31:21.04	145.49	65.05	-50.3	-65.9	3.8	1.49e+00	0	40	104	0	72	21309
2026-01-05 23:31:21.76	146.10	64.84	-50.3	-65.9	3.8	1.49e+00	0	40	104	0	72	21359
2026-01-05 23:31:23.05	147.16	64.46	-50.3	-65.9	3.8	1.49e+00	0	40	104	0	72	21358
2026-01-05 23:31:23.77	147.73	64.25	-50.3	-65.9	3.8	1.49e+00	0	40	104	0	72	21408
2026-01-05 23:31:25.06	148.74	63.86	-50.3	-65.9	3.8	1.49e+00	0	40	104	0	72	21299
2026-01-05 23:31:25.78	149.28	63.65	-50.3	-65.9	3.8	1.49e+00	0	40	104	0	72	21310
2026-01-05 23:31:27.07	150.24	63.25	-50.3	-65.8	3.8	1.49e+00	0	40	104	0	72	21233
2026-01-05 23:31:27.78	150.75	63.04	-50.3	-65.9	3.8	1.49e+00	0	40	104	0	72	21293
2026-01-05 23:31:29.07	151.66	62.64	-50.3	-65.9	3.8	1.49e+00	0	40	104	0	72	21281
2026-01-05 23:31:29.79	152.15	62.41	-50.3	-65.9	3.8	1.49e+00	0	40	104	0	72	21303
2026-01-05 23:31:31.08	153.01	62.01	-50.3	-65.8	3.8	1.49e+00	0	40	104	0	72	21254
2026-01-05 23:31:31.80	153.48	61.78	-50.3	-65.9	3.8	1.49e+00	0	40	104	0	72	21318
2026-01-05 23:31:33.09	154.30	61.37	-50.3	-65.9	3.8	1.49e+00	0	40	104	0	72	21304
2026-01-05 23:31:33.81	154.75	61.14	-50.3	-65.9	3.8	1.49e+00	0	40	104	0	72	21303
2026-01-05 23:31:35.10	155.53	60.73	-50.3	-65.9	3.8	1.49e+00	0	40	104	0	72	21387
2026-01-05 23:31:35.82	155.95	60.50	-50.3	-65.8	3.8	1.49e+00	0	40	104	0	72	21259
2026-01-05 23:31:37.11	156.69	60.08	-50.3	-65.9	3.8	1.49e+00	0	40	104	0	72	21303
2026-01-05 23:31:37.83	157.09	59.85	-50.3	-65.9	3.8	1.49e+00	0	40	104	0	72	21348
2026-01-05 23:31:39.12	157.80	59.43	-50.3	-65.9	3.8	1.49e+00	0	40	104	0	72	21278
2026-01-05 23:31:39.84	158.18	59.20	-50.3	-65.8	3.8	1.49e+00	0	40	104	0	72	21242
2026-01-05 23:31:41.13	158.85	58.78	-50.3	-65.8	3.8	1.49e+00	0	40	104	0	72	21258
2026-01-05 23:31:41.85	159.21	58.55	-50.3	-65.9	3.8	1.49e+00	0	40	104	0	72	21380
2026-01-05 23:31:43.14	159.85	58.13	-50.3	-65.9	3.8	1.49e+00	0	40	104	0	72	21345
2026-01-05 23:31:43.85	160.19	57.90	-50.3	-65.9	3.8	1.49e+00	0	40	104	0	72	21395
2026-01-05 23:31:45.15	160.81	57.48	-50.3	-65.9	3.8	1.49e+00	0	40	104	0	72	21336
2026-01-05 23:31:45.86	161.13	57.24	-50.3	-65.9	3.8	1.49e+00	0	40	104	0	72	21483
2026-01-05 23:31:47.16	161.72	56.82	-50.3	-65.9	3.8	1.49e+00	0	40	104	0	72	21363
2026-01-05 23:31:47.87	162.03	56.59	-50.3	-65.9	3.8	1.49e+00	0	40	104	0	72	21336
2026-01-05 23:31:49.16	162.58	56.17	-50.3	-65.9	3.8	1.49e+00	0	40	104	0	72	21326
2026-01-05 23:31:49.88	162.88	55.94	-50.3	-65.9	3.8	1.49e+00	0	40	104	0	72	21336
2026-01-05 23:31:51.17	163.41	55.52	-50.3	-65.9	3.8	1.49e+00	0	40	104	0	72	21272
2026-01-05 23:31:51.89	163.70	55.29	-50.3	-65.9	3.8	1.49e+00	0	40	104	0	72	21298
2026-01-05 23:31:53.18	164.20	54.87	-50.3	-65.9	3.8	1.49e+00	0	40	104	0	72	21412
2026-01-05 23:31:53.90	164.48	54.64	-50.3	-65.9	3.8	1.49e+00	0	40	104	0	72	21396
2026-01-05 23:31:55.19	164.96	54.23	-50.3	-65.9	3.8	1.49e+00	0	40	104	0	72	21333
2026-01-05 23:31:55.91	165.23	54.00	-50.3	-65.8	3.8	1.49e+00	0	40	104	0	72	21245
2026-01-05 23:31:57.20	165.69	53.59	-50.3	-65.9	3.8	1.49e+00	0	40	104	0	72	21343
2026-01-05 23:31:57.91	165.94	53.36	-50.3	-65.9	3.8	1.49e+00	0	40	104	0	72	21375
2026-01-05 23:31:59.21	166.38	52.95	-50.3	-65.9	3.8	1.49e+00	0	40	104	0	72	21266
2026-01-05 23:31:59.92	166.62	52.72	-50.3	-65.9	3.8	1.49e+00	0	40	104	0	72	21316
2026-01-05 23:32:01.22	167.05	52.31	-50.3	-65.8	3.8	1.49e+00	0	40	104	0	72	21260
2026-01-05 23:32:01.93	167.27	52.09	-50.3	-65.9	3.8	1.49e+00	0	40	104	0	72	21278
2026-01-05 23:32:03.23	167.68	51.68	-50.3	-65.8	3.8	1.49e+00	0	40	104	0	72	21242
2026-01-05 23:32:03.94	167.90	51.46	-50.3	-65.9	3.8	1.49e+00	0	40	104	0	72	21311
2026-01-05 23:32:05.23	168.29	51.06	-50.3	-65.9	3.8	1.49e+00	0	40	104	0	72	21306
2026-01-05 23:32:05.95	168.50	50.84	-50.3	-65.9	3.8	1.49e+00	0	40	104	0	72	21312
2026-01-05 23:32:07.24	168.88	50.44	-50.3	-65.9	3.8	1.49e+00	0	40	104	0	72	21328
2026-01-05 23:32:07.96	169.08	50.22	-50.3	-65.9	3.8	1.49e+00	0	40	104	0	72	21358
2026-01-05 23:32:09.25	169.44	49.83	-50.3	-65.9	3.8	1.49e+00	0	40	104	0	72	21364
2026-01-05 23:32:09.97	169.64	49.61	-50.3	-65.9	3.8	1.49e+00	0	40	104	0	72	21312
2026-01-05 23:32:11.26	169.98	49.22	-50.3	-65.9	3.8	1.49e+00	0	40	104	0	72	21305
2026-01-05 23:32:11.98	170.17	49.00	-50.3	-65.9	3.8	1.49e+00	0	40	104	0	72	21303
2026-01-05 23:32:13.27	170.51	48.62	-50.3	-65.8	3.8	1.49e+00	0	40	104	0	72	21233
2026-01-05 23:32:13.98	170.69	48.40	-50.3	-65.9	3.8	1.49e+00	0	40	104	0	72	21387
2026-01-05 23:32:15.27	171.01	48.02	-50.3	-65.9	3.8	1.49e+00	0	40	104	0	72	21342
2026-01-05 23:32:15.99	171.18	47.81	-50.3	-65.9	3.8	1.49e+00	0	40	104	0	72	21271
2026-01-05 23:32:17.28	171.49	47.43	-50.3	-65.9	3.8	1.49e+00	0	40	104	0	72	21351
2026-01-05 23:32:18.00	171.66	47.22	-50.3	-65.9	3.8	1.49e+00	0	40	104	0	72	21330
2026-01-05 23:32:19.29	171.95	46.84	-50.3	-65.9	3.8	1.49e+00	0	40	104	0	72	21316
2026-01-05 23:32:20.01	172.12	46.64	-50.3	-65.9	3.8	1.49e+00	0	40	104	0	72	21351
2026-01-05 23:32:21.30	172.40	46.26	-50.3	-65.9	3.8	1.49e+00	0	40	104	0	72	21297
2026-01-05 23:32:22.03	172.56	46.06	-50.3	-65.9	3.8	1.49e+00	0	40	104	0	72	21352
2026-01-05 23:32:23.32	172.84	45.69	-50.3	-65.9	3.8	1.49e+00	0	40	104	0	72	21373
2026-01-05 23:32:24.12	173.01	45.46	-50.3	-65.9	3.8	1.49e+00	0	40	104	0	72	21289
2026-01-05 23:32:25.27	173.24	45.14	-50.3	-65.9	3.8	1.49e+00	0	40	104	0	72	21342
2026-01-05 23:32:26.13	173.42	44.90	-50.3	-65.9	3.8	1.49e+00	0	40	104	0	72	21394
2026-01-05 23:32:27.28	173.65	44.58	-50.3	-65.9	3.8	1.49e+00	0	40	104	0	72	21296
2026-01-05 23:32:28.14	173.82	44.34	-50.3	-65.8	3.8	1.49e+00	0	40	104	0	72	21218
2026-01-05 23:32:29.28	174.04	44.03	-50.3	-65.9	3.8	1.49e+00	0	40	104	0	72	21271
2026-01-05 23:32:30.15	174.20	43.79	-50.3	-65.9	3.8	1.49e+00	0	40	104	0	72	21349
2026-01-05 23:32:31.29	174.41	43.48	-50.3	-65.9	3.8	1.49e+00	0	40	104	0	72	21294
2026-01-05 23:32:32.15	174.57	43.25	-50.3	-65.9	3.8	1.49e+00	0	40	104	0	72	21311
2026-01-05 23:32:33.30	174.78	42.94	-50.3	-65.9	3.8	1.49e+00	0	40	104	0	72	21330
2026-01-05 23:32:34.16	174.93	42.71	-50.3	-65.9	3.8	1.49e+00	0	40	104	0	72	21365
2026-01-05 23:32:35.31	175.13	42.40	-50.3	-65.9	3.8	1.49e+00	0	40	104	0	72	21309
2026-01-05 23:32:36.17	175.28	42.17	-50.3	-65.9	3.8	1.49e+00	0	40	104	0	72	21288
2026-01-05 23:32:37.32	175.47	41.87	-50.3	-65.8	3.8	1.49e+00	0	40	104	0	72	21240
2026-01-05 23:32:38.18	175.62	41.65	-50.3	-65.9	3.8	1.49e+00	0	40	104	0	72	21300
2026-01-05 23:32:39.33	175.80	41.35	-50.3	-65.8	3.8	1.49e+00	0	40	104	0	72	21203
2026-01-05 23:32:40.19	175.94	41.13	-50.3	-65.9	3.8	1.49e+00	0	40	104	0	72	21298
2026-01-05 23:32:41.34	176.13	40.84	-50.3	-65.9	3.8	1.49e+00	0	40	104	0	72	21287
2026-01-05 23:32:42.20	176.26	40.62	-50.3	-65.9	3.8	1.49e+00	0	40	104	0	72	21308
2026-01-05 23:32:43.34	176.44	40.33	-50.3	-65.8	3.8	1.49e+00	0	40	104	0	72	21248
2026-01-05 23:32:44.21	176.57	40.11	-50.3	-65.9	3.8	1.49e+00	0	40	104	0	72	21298
2026-01-05 23:32:45.37	176.74	39.82	-50.3	-65.9	3.8	1.49e+00	0	40	104	0	72	21303
2026-01-05 23:32:46.23	176.87	39.61	-50.3	-65.9	3.8	1.49e+00	0	40	104	0	72	21264
2026-01-05 23:32:47.48	177.05	39.30	-50.3	-65.9	3.8	1.49e+00	0	40	104	0	72	21290
2026-01-05 23:32:48.33	177.17	39.09	-50.3	-65.8	3.8	1.49e+00	0	40	104	0	72	21239
2026-01-05 23:32:49.54	177.34	38.80	-50.3	-65.9	3.8	1.49e+00	0	40	104	0	72	21309
2026-01-05 23:32:50.40	177.46	38.59	-50.3	-65.9	3.8	1.49e+00	0	40	104	0	72	21293
2026-01-05 23:32:51.63	177.63	38.30	-50.3	-65.9	3.8	1.49e+00	0	40	104	0	72	21264
2026-01-05 23:32:52.49	177.74	38.09	-50.3	-65.9	3.8	1.49e+00	0	40	104	0	72	21324
2026-01-05 23:32:53.70	177.90	37.80	-50.3	-65.9	3.8	1.49e+00	0	40	104	0	72	21304
2026-01-05 23:32:54.56	178.01	37.60	-50.3	-65.9	3.8	1.49e+00	0	40	104	0	72	21299
2026-01-05 23:32:55.77	178.17	37.32	-50.3	-65.9	3.8	1.49e+00	0	40	104	0	72	21318
2026-01-05 23:32:56.63	178.28	37.12	-50.3	-65.9	3.8	1.49e+00	0	40	104	0	72	21293
2026-01-05 23:32:57.78	178.42	36.85	-50.3	-65.8	3.8	1.49e+00	0	40	104	0	72	21220
2026-01-05 23:32:58.64	178.53	36.66	-50.3	-65.9	3.8	1.49e+00	0	40	104	0	72	21329
2026-01-05 23:32:59.79	178.67	36.39	-50.3	-65.9	3.8	1.49e+00	0	40	104	0	72	21312
2026-01-05 23:33:00.65	178.77	36.20	-50.3	-65.8	3.8	1.49e+00	0	40	104	0	72	21211
2026-01-05 23:33:01.80	178.91	35.94	-50.3	-65.8	3.8	1.49e+00	0	40	104	0	72	21238
2026-01-05 23:33:02.66	179.01	35.75	-50.3	-65.9	3.8	1.49e+00	0	40	104	0	72	21308
2026-01-05 23:33:03.81	179.14	35.49	-50.3	-65.9	3.8	1.49e+00	0	40	104	0	72	21267
2026-01-05 23:33:04.67	179.24	35.30	-50.3	-65.9	3.8	1.49e+00	0	40	104	0	72	21354
2026-01-05 23:33:05.82	179.37	35.05	-50.3	-65.9	3.8	1.49e+00	0	40	104	0	72	21264
2026-01-05 23:33:06.68	179.46	34.87	-50.3	-65.9	3.8	1.49e+00	0	40	104	0	72	21316
2026-01-05 23:33:07.82	179.59	34.62	-50.3	-65.9	3.8	1.49e+00	0	40	104	0	72	21314
2026-01-05 23:33:08.69	179.68	34.43	-50.3	-65.9	3.8	1.49e+00	0	40	104	0	72	21315
2026-01-05 23:33:09.83	179.80	34.19	-50.3	-65.9	3.8	1.49e+00	0	40	104	0	72	21372
2026-01-05 23:33:10.69	179.89	34.01	-50.3	-65.8	3.8	1.49e+00	0	40	104	0	72	21221
2026-01-05 23:33:11.84	180.01	33.76	-50.3	-65.9	3.8	1.49e+00	0	40	104	0	72	21317
2026-01-05 23:33:12.70	180.10	33.58	-50.3	-65.9	3.8	1.49e+00	0	40	104	0	72	21312
2026-01-05 23:33:13.85	180.22	33.34	-50.3	-65.9	3.8	1.49e+00	0	40	104	0	72	21416
2026-01-05 23:33:14.71	180.30	33.17	-50.3	-65.9	3.8	1.49e+00	0	40	104	0	72	21330
2026-01-05 23:33:15.86	180.42	32.93	-50.3	-65.9	3.8	1.49e+00	0	40	104	0	72	21298
2026-01-05 23:33:16.72	180.50	32.75	-50.3	-65.9	3.8	1.49e+00	0	40	104	0	72	21272
2026-01-05 23:33:17.87	180.61	32.52	-50.3	-65.9	3.8	1.49e+00	0	40	104	0	72	21323
2026-01-05 23:33:18.73	180.69	32.35	-50.3	-65.9	3.8	1.49e+00	0	40	104	0	72	21298
2026-01-05 23:33:19.87	180.80	32.12	-50.3	-65.9	3.8	1.49e+00	0	40	104	0	72	21310
2026-01-05 23:33:20.73	180.88	31.95	-50.3	-65.9	3.8	1.49e+00	0	40	104	0	72	21285
2026-01-05 23:33:21.88	180.99	31.72	-50.3	-65.8	3.8	1.49e+00	0	40	104	0	72	21213
2026-01-05 23:33:22.74	181.06	31.55	-50.3	-65.9	3.8	1.49e+00	0	40	104	0	72	21326
2026-01-05 23:33:23.89	181.17	31.33	-50.3	-65.9	3.8	1.49e+00	0	40	104	0	72	21318
2026-01-05 23:33:24.75	181.24	31.16	-50.3	-65.9	3.8	1.49e+00	0	40	104	0	72	21370
2026-01-05 23:33:25.90	181.35	30.94	-50.3	-65.8	3.8	1.49e+00	0	40	104	0	72	21238
2026-01-05 23:33:26.76	181.42	30.77	-50.3	-65.9	3.8	1.49e+00	0	40	104	0	72	21323
2026-01-05 23:33:27.91	181.52	30.55	-50.3	-65.8	3.8	1.49e+00	0	40	104	0	72	21200
2026-01-05 23:33:28.77	181.59	30.39	-50.3	-65.9	3.8	1.49e+00	0	40	104	0	72	21311
2026-01-05 23:33:29.92	181.69	30.17	-50.3	-65.8	3.8	1.49e+00	0	40	104	0	72	21224
2026-01-05 23:33:30.78	181.76	30.01	-50.3	-65.9	3.8	1.49e+00	0	40	104	0	72	21289
2026-01-05 23:33:31.92	181.85	29.80	-50.3	-65.9	3.8	1.49e+00	0	40	104	0	72	21336
2026-01-05 23:33:32.79	181.92	29.64	-50.3	-65.9	3.8	1.49e+00	0	40	104	0	72	21295
2026-01-05 23:33:33.94	182.02	29.43	-50.3	-65.9	3.8	1.49e+00	0	40	104	0	72	21323
2026-01-05 23:33:34.79	182.08	29.28	-50.3	-65.9	3.8	1.49e+00	0	40	104	0	72	21283
2026-01-05 23:33:35.94	182.17	29.07	-50.3	-65.9	3.8	1.49e+00	0	40	104	0	72	21270
2026-01-05 23:33:36.80	182.24	28.91	-50.3	-65.8	3.8	1.49e+00	0	40	104	0	72	21216
2026-01-05 23:33:37.95	182.33	28.71	-50.3	-65.9	3.8	1.49e+00	0	40	104	0	72	21390
2026-01-05 23:33:38.81	182.40	28.55	-50.3	-65.9	3.8	1.49e+00	0	40	104	0	72	21306
2026-01-05 23:33:40.04	182.49	28.34	-50.3	-65.9	3.8	1.49e+00	0	40	104	0	72	21291
2026-01-05 23:33:40.90	182.55	28.18	-50.3	-65.9	3.8	1.49e+00	0	40	104	0	72	21291
2026-01-05 23:33:42.05	182.64	27.98	-50.3	-65.9	3.8	1.49e+00	0	40	104	0	72	21310
2026-01-05 23:33:42.91	182.70	27.83	-50.3	-65.9	3.8	1.49e+00	0	40	104	0	72	21379
2026-01-05 23:33:44.06	182.78	27.64	-50.3	-65.9	3.8	1.49e+00	0	40	104	0	72	21320
2026-01-05 23:33:44.92	182.84	27.49	-50.3	-65.8	3.8	1.49e+00	0	40	104	0	72	21226
2026-01-05 23:33:46.07	182.92	27.29	-50.3	-65.9	3.8	1.49e+00	0	40	104	0	72	21284
2026-01-05 23:33:46.92	182.98	27.15	-50.3	-65.9	3.8	1.49e+00	0	40	104	0	72	21290
2026-01-05 23:33:48.07	183.06	26.95	-50.3	-65.9	3.8	1.49e+00	0	40	104	0	72	21341
2026-01-05 23:33:48.93	183.12	26.81	-50.3	-65.9	3.8	1.49e+00	0	40	104	0	72	21278
2026-01-05 23:33:50.08	183.20	26.62	-50.3	-65.9	3.8	1.49e+00	0	40	104	0	72	21315
2026-01-05 23:33:50.94	183.26	26.48	-50.3	-65.9	3.8	1.49e+00	0	40	104	0	72	21301
2026-01-05 23:33:52.09	183.34	26.29	-50.3	-65.9	3.8	1.49e+00	0	40	104	0	72	21304
2026-01-05 23:33:52.95	183.39	26.15	-50.3	-65.9	3.8	1.49e+00	0	40	104	0	72	21295
2026-01-05 23:33:54.10	183.47	25.96	-50.3	-65.9	3.8	1.49e+00	0	40	104	0	72	21386
2026-01-05 23:33:54.96	183.52	25.82	-50.3	-65.9	3.8	1.49e+00	0	40	104	0	72	21277
2026-01-05 23:33:56.11	183.60	25.64	-50.3	-65.8	3.8	1.49e+00	0	40	104	0	72	21234
2026-01-05 23:33:56.97	183.65	25.50	-50.3	-65.9	3.8	1.49e+00	0	40	104	0	72	21341
2026-01-05 23:33:58.12	183.72	25.32	-50.3	-65.9	3.8	1.49e+00	0	40	104	0	72	21308
2026-01-05 23:33:58.97	183.78	25.18	-50.3	-65.9	3.8	1.49e+00	0	40	104	0	72	21393
2026-01-05 23:34:00.12	183.85	25.00	-50.3	-65.9	3.8	1.49e+00	0	40	104	0	72	21267
2026-01-05 23:34:00.99	183.90	24.87	-50.3	-65.9	3.8	1.49e+00	0	40	104	0	72	21346
2026-01-05 23:34:02.13	183.97	24.69	-50.3	-65.8	3.8	1.49e+00	0	40	104	0	72	21257
2026-01-05 23:34:02.99	184.02	24.56	-50.3	-65.9	3.8	1.49e+00	0	40	104	0	72	21332
2026-01-05 23:34:04.14	184.09	24.38	-50.3	-65.8	3.8	1.49e+00	0	40	104	0	72	21222
2026-01-05 23:34:05.00	184.14	24.25	-50.3	-65.9	3.8	1.49e+00	0	40	104	0	72	21306
2026-01-05 23:34:06.15	184.21	24.07	-50.3	-65.9	3.8	1.49e+00	0	40	104	0	72	21281
2026-01-05 23:34:07.01	184.26	23.94	-50.3	-65.9	3.8	1.49e+00	0	40	104	0	72	21307
2026-01-05 23:34:08.16	184.32	23.77	-50.3	-65.9	3.8	1.49e+00	0	40	104	0	72	21318
2026-01-05 23:34:09.02	184.37	23.64	-50.3	-65.9	3.8	1.49e+00	0	40	104	0	72	21296
2026-01-05 23:34:10.17	184.44	23.47	-50.3	-65.9	3.8	1.49e+00	0	40	104	0	72	21351
2026-01-05 23:34:11.03	184.48	23.35	-50.3	-65.9	3.8	1.49e+00	0	40	104	0	72	21288
2026-01-05 23:34:12.18	184.55	23.18	-50.3	-65.9	3.8	1.49e+00	0	40	104	0	72	21321
2026-01-05 23:34:13.04	184.59	23.05	-50.3	-65.9	3.8	1.49e+00	0	40	104	0	72	21268
2026-01-05 23:34:14.19	184.66	22.89	-50.3	-65.9	3.8	1.49e+00	0	40	104	0	72	21297
2026-01-05 23:34:15.05	184.70	22.76	-50.3	-65.9	3.8	1.49e+00	0	40	104	0	72	21320
2026-01-05 23:34:16.20	184.76	22.60	-50.3	-65.9	3.8	1.49e+00	0	40	104	0	72	21406
2026-01-05 23:34:17.06	184.81	22.47	-50.3	-65.9	3.8	1.49e+00	0	40	104	0	72	21280
2026-01-05 23:34:18.20	184.87	22.31	-50.3	-65.8	3.8	1.49e+00	0	40	104	0	72	21193
2026-01-05 23:34:19.06	184.91	22.19	-50.3	-65.9	3.8	1.49e+00	0	40	104	0	72	21308
2026-01-05 23:34:20.21	184.97	22.03	-50.3	-65.9	3.8	1.49e+00	0	40	104	0	72	21303
2026-01-05 23:34:21.07	185.02	21.91	-50.3	-65.9	3.8	1.49e+00	0	40	104	0	72	21301
2026-01-05 23:34:22.22	185.08	21.75	-50.3	-65.9	3.8	1.49e+00	0	40	104	0	72	21328
2026-01-05 23:34:23.08	185.12	21.63	-50.3	-65.9	3.8	1.49e+00	0	40	104	0	72	21340
2026-01-05 23:34:24.23	185.18	21.47	-50.3	-65.9	3.8	1.49e+00	0	40	104	0	72	21338
2026-01-05 23:34:25.09	185.22	21.35	-50.3	-65.9	3.8	1.49e+00	0	40	104	0	72	21283
2026-01-05 23:34:26.24	185.27	21.20	-50.3	-65.9	3.8	1.49e+00	0	40	104	0	72	21363
2026-01-05 23:34:27.10	185.32	21.08	-50.3	-65.9	3.8	1.49e+00	0	40	104	0	72	21297
2026-01-05 23:34:28.25	185.37	20.93	-50.3	-65.9	3.8	1.49e+00	0	40	104	0	72	21263
2026-01-05 23:34:29.17	185.42	20.80	-50.3	-65.9	3.8	1.49e+00	0	40	104	0	72	21346
2026-01-05 23:34:30.18	185.46	20.67	-50.3	-65.8	3.8	1.49e+00	0	40	104	0	72	21235
2026-01-05 23:34:31.18	185.51	20.54	-50.3	-65.9	3.8	1.49e+00	0	40	104	0	72	21287
2026-01-05 23:34:32.19	185.56	20.40	-50.3	-65.9	3.8	1.49e+00	0	40	104	0	72	21281
2026-01-05 23:34:33.19	185.60	20.27	-50.3	-65.9	3.8	1.49e+00	0	40	104	0	72	21329
2026-01-05 23:34:34.19	185.65	20.14	-50.3	-65.9	3.8	1.49e+00	0	40	104	0	72	21296
2026-01-05 23:34:35.19	185.70	20.01	-50.3	-65.9	3.8	1.49e+00	0	39	104	0	72	21295
2026-01-05 23:34:36.20	185.74	19.88	-50.3	-65.9	3.8	1.49e+00	0	40	104	0	72	21294
2026-01-05 23:34:37.20	185.79	19.75	-50.3	-65.9	3.8	1.49e+00	0	40	104	0	72	21317
2026-01-05 23:34:38.21	185.83	19.62	-50.3	-65.9	3.8	1.49e+00	0	40	104	0	72	21372
2026-01-05 23:34:39.21	185.88	19.50	-50.3	-65.9	3.8	1.49e+00	0	40	104	0	72	21305
2026-01-05 23:34:40.22	185.92	19.37	-50.3	-65.8	3.8	1.49e+00	0	40	104	0	72	21256
2026-01-05 23:34:41.22	185.96	19.24	-50.3	-65.9	3.8	1.49e+00	0	40	104	0	72	21418
2026-01-05 23:34:42.23	186.01	19.12	-50.3	-65.9	3.8	1.49e+00	0	40	104	0	72	21311
2026-01-05 23:34:43.23	186.05	18.99	-50.3	-65.8	3.8	1.49e+00	0	40	104	0	72	21245
2026-01-05 23:34:44.23	186.09	18.87	-50.3	-65.9	3.8	1.49e+00	0	40	104	0	72	21317
2026-01-05 23:34:45.24	186.13	18.74	-50.3	-65.9	3.8	1.49e+00	0	40	104	0	72	21294
2026-01-05 23:34:46.24	186.18	18.62	-50.3	-65.9	3.8	1.49e+00	0	40	104	0	72	21343
2026-01-05 23:34:47.25	186.22	18.50	-50.3	-65.9	3.8	1.49e+00	0	40	104	0	72	21314
2026-01-05 23:34:48.25	186.26	18.37	-50.3	-65.9	3.8	1.49e+00	0	40	104	0	72	21308
2026-01-05 23:34:49.26	186.30	18.25	-50.3	-65.9	3.8	1.49e+00	0	40	104	0	72	21339
2026-01-05 23:34:50.26	186.34	18.13	-50.3	-65.9	3.8	1.49e+00	0	40	104	0	72	21348
2026-01-05 23:34:51.26	186.38	18.01	-50.3	-65.9	3.8	1.49e+00	0	40	104	0	72	21345
2026-01-05 23:34:52.27	186.42	17.89	-50.3	-65.9	3.8	1.49e+00	0	40	104	0	72	21287
2026-01-05 23:34:53.27	186.46	17.77	-50.3	-65.9	3.8	1.49e+00	0	40	104	0	72	21300
2026-01-05 23:34:54.31	186.50	17.65	-50.3	-65.9	3.8	1.49e+00	0	40	104	0	72	21288
2026-01-05 23:34:55.35	186.54	17.53	-50.3	-65.9	3.8	1.49e+00	0	40	104	0	72	21314
2026-01-05 23:34:56.27	186.58	17.42	-50.3	-65.9	3.8	1.49e+00	0	40	104	0	72	21268
2026-01-05 23:34:57.42	186.62	17.29	-50.3	-65.9	3.8	1.49e+00	0	40	104	0	72	21360
2026-01-05 23:34:58.32	186.66	17.18	-50.3	-65.9	3.8	1.49e+00	0	40	104	0	72	21337
2026-01-05 23:34:59.53	186.70	17.04	-50.3	-65.9	3.8	1.49e+00	0	40	104	0	72	21357
2026-01-05 23:35:00.39	186.74	16.94	-50.3	-65.9	3.8	1.49e+00	0	40	104	0	72	21328
2026-01-05 23:35:01.71	186.79	16.79	-50.3	-65.9	3.8	1.49e+00	0	40	104	0	72	21265
2026-01-05 23:35:02.43	186.81	16.71	-50.3	-65.9	3.8	1.49e+00	0	40	104	0	72	21317
2026-01-05 23:35:03.72	186.86	16.56	-50.3	-65.9	3.8	1.49e+00	0	40	104	0	72	21306
2026-01-05 23:35:04.44	186.89	16.48	-50.3	-65.8	3.8	1.49e+00	0	40	104	0	72	21224
2026-01-05 23:35:05.73	186.93	16.34	-50.3	-65.9	3.8	1.49e+00	0	40	104	0	72	21311
2026-01-05 23:35:06.45	186.96	16.26	-50.3	-65.9	3.8	1.49e+00	0	40	104	0	72	21298
2026-01-05 23:35:07.74	187.01	16.11	-50.3	-65.8	3.8	1.49e+00	0	40	104	0	72	21255
2026-01-05 23:35:08.45	187.03	16.04	-50.3	-65.8	3.8	1.49e+00	0	40	104	0	72	21198
2026-01-05 23:35:09.75	187.08	15.89	-50.3	-65.9	3.8	1.49e+00	0	40	104	0	72	21417
2026-01-05 23:35:10.47	187.10	15.81	-50.3	-65.9	3.8	1.49e+00	0	40	104	0	72	21270
2026-01-05 23:35:11.76	187.15	15.67	-50.3	-65.9	3.8	1.49e+00	0	40	104	0	72	21298
2026-01-05 23:35:12.47	187.17	15.60	-50.3	-65.8	3.8	1.49e+00	0	40	104	0	72	21242
2026-01-05 23:35:13.77	187.22	15.46	-50.3	-65.9	3.8	1.49e+00	0	40	104	0	72	21275
2026-01-05 23:35:14.48	187.24	15.38	-50.3	-65.8	3.8	1.49e+00	0	40	104	0	72	21251
2026-01-05 23:35:15.77	187.29	15.24	-50.3	-65.9	3.8	1.49e+00	0	40	104	0	72	21289
2026-01-05 23:35:16.49	187.31	15.16	-50.3	-65.9	3.8	1.49e+00	0	40	104	0	72	21346
2026-01-05 23:35:17.78	187.36	15.03	-50.3	-65.9	3.8	1.49e+00	0	40	104	0	72	21374
2026-01-05 23:35:18.50	187.38	14.95	-50.3	-65.9	3.8	1.49e+00	0	40	104	0	72	21306
2026-01-05 23:35:19.79	187.42	14.81	-50.3	-65.9	3.8	1.49e+00	0	40	104	0	72	21336
2026-01-05 23:35:20.51	187.45	14.74	-50.3	-65.9	3.8	1.49e+00	0	40	104	0	72	21272
2026-01-05 23:35:21.80	187.49	14.60	-50.3	-65.9	3.8	1.49e+00	0	40	104	0	72	21294
2026-01-05 23:35:22.52	187.51	14.53	-50.3	-65.9	3.8	1.49e+00	0	40	104	0	72	21272
2026-01-05 23:35:23.81	187.55	14.39	-50.3	-65.9	3.8	1.49e+00	0	40	104	0	72	21335
2026-01-05 23:35:24.53	187.58	14.32	-50.3	-65.8	3.8	1.49e+00	0	40	104	0	72	21179
2026-01-05 23:35:25.88	187.62	14.18	-50.3	-65.9	3.8	1.49e+00	0	40	104	0	72	21320
2026-01-05 23:35:26.60	187.64	14.11	-50.3	-65.9	3.8	1.49e+00	0	40	104	0	72	21285
2026-01-05 23:35:27.89	187.68	13.98	-50.3	-65.8	3.8	1.49e+00	0	40	104	0	72	21242
2026-01-05 23:35:28.61	187.71	13.90	-50.3	-65.9	3.8	1.49e+00	0	40	104	0	72	21325
2026-01-05 23:35:29.90	187.75	13.77	-50.3	-65.9	3.8	1.49e+00	0	40	104	0	72	21293
2026-01-05 23:35:30.62	187.77	13.70	-50.3	-65.9	3.8	1.49e+00	0	40	104	0	72	21288
2026-01-05 23:35:31.91	187.81	13.57	-50.3	-65.8	3.8	1.49e+00	0	40	104	0	72	21242
2026-01-05 23:35:32.62	187.83	13.50	-50.3	-65.8	3.8	1.49e+00	0	40	104	0	72	21224
2026-01-05 23:35:33.91	187.87	13.37	-50.3	-65.9	3.8	1.49e+00	0	40	104	0	72	21268
2026-01-05 23:35:34.63	187.89	13.30	-50.3	-65.8	3.8	1.49e+00	0	40	104	0	72	21223
2026-01-05 23:35:35.92	187.93	13.17	-50.3	-65.9	3.8	1.49e+00	0	40	104	0	72	21324
2026-01-05 23:35:36.64	187.95	13.10	-50.3	-65.9	3.8	1.49e+00	0	40	104	0	72	21321
2026-01-05 23:35:37.93	187.99	12.98	-50.3	-65.9	3.8	1.49e+00	0	40	104	0	72	21274
2026-01-05 23:35:38.65	188.01	12.91	-50.3	-65.9	3.8	1.49e+00	0	40	104	0	72	21282
2026-01-05 23:35:39.94	188.05	12.78	-50.3	-65.9	3.8	1.49e+00	0	40	104	0	72	21277
2026-01-05 23:35:40.66	188.07	12.71	-50.3	-65.9	3.8	1.49e+00	0	40	104	0	72	21338
2026-01-05 23:35:41.95	188.11	12.59	-50.3	-65.8	3.8	1.49e+00	0	40	104	0	72	21216
2026-01-05 23:35:42.67	188.13	12.52	-50.3	-65.8	3.8	1.49e+00	0	40	104	0	72	21181
2026-01-05 23:35:43.96	188.16	12.39	-50.3	-65.9	3.8	1.49e+00	0	40	104	0	72	21313
2026-01-05 23:35:44.67	188.18	12.33	-50.3	-65.9	3.8	1.49e+00	0	40	104	0	72	21281
2026-01-05 23:35:45.97	188.22	12.20	-50.3	-65.9	3.8	1.49e+00	0	40	104	0	72	21334
2026-01-05 23:35:46.69	188.24	12.14	-50.3	-65.9	3.8	1.49e+00	0	40	104	0	72	21287
2026-01-05 23:35:47.98	188.28	12.01	-50.3	-65.9	3.8	1.49e+00	0	40	104	0	72	21297
2026-01-05 23:35:48.69	188.30	11.95	-50.3	-65.8	3.8	1.49e+00	0	40	104	0	72	21253
2026-01-05 23:35:49.99	188.33	11.83	-50.3	-65.8	3.8	1.49e+00	0	40	104	0	72	21201
2026-01-05 23:35:50.70	188.35	11.76	-50.3	-65.8	3.8	1.49e+00	0	40	104	0	72	21218
2026-01-05 23:35:51.99	188.39	11.64	-50.3	-65.8	3.8	1.49e+00	0	40	104	0	72	21231
2026-01-05 23:35:52.71	188.41	11.57	-50.3	-65.9	3.8	1.49e+00	0	40	104	0	72	21345
2026-01-05 23:35:54.00	188.44	11.46	-50.3	-65.8	3.8	1.49e+00	0	40	104	0	72	21260
2026-01-05 23:35:54.72	188.46	11.39	-50.3	-65.8	3.8	1.49e+00	0	40	104	0	72	21258
2026-01-05 23:35:56.01	188.50	11.27	-50.3	-65.8	3.8	1.49e+00	0	40	104	0	72	21203
2026-01-05 23:35:56.73	188.52	11.21	-50.3	-65.9	3.8	1.49e+00	0	40	104	0	72	21281
2026-01-05 23:35:58.02	188.55	11.09	-50.3	-65.9	3.8	1.49e+00	0	40	104	0	72	21284
2026-01-05 23:35:58.74	188.57	11.02	-50.3	-65.8	3.8	1.49e+00	0	40	104	0	72	21217
2026-01-05 23:36:00.03	188.60	10.91	-50.3	-65.9	3.8	1.49e+00	0	40	104	0	72	21299
2026-01-05 23:36:00.74	188.62	10.84	-50.3	-65.9	3.8	1.49e+00	0	40	104	0	72	21298
2026-01-05 23:36:02.04	188.65	10.73	-50.3	-65.9	3.8	1.49e+00	0	40	104	0	72	21269
2026-01-05 23:36:02.75	188.67	10.66	-50.3	-65.8	3.8	1.49e+00	0	40	104	0	72	21182
2026-01-05 23:36:04.04	188.71	10.55	-50.3	-65.9	3.8	1.49e+00	0	40	104	0	72	21282
2026-01-05 23:36:04.76	188.72	10.49	-50.3	-65.9	3.8	1.49e+00	0	40	104	0	72	21279
2026-01-05 23:36:06.05	188.76	10.37	-50.3	-65.9	3.8	1.49e+00	0	40	104	0	72	21279
2026-01-05 23:36:06.77	188.78	10.31	-50.3	-65.8	3.8	1.49e+00	0	40	104	0	72	21259
2026-01-05 23:36:08.06	188.81	10.20	-50.3	-65.9	3.8	1.49e+00	0	40	104	0	72	21281
2026-01-05 23:36:08.78	188.83	10.13	-50.3	-65.9	3.8	1.49e+00	0	40	104	0	72	21360
2026-01-05 23:36:10.07	188.86	10.02	-50.3	-65.8	3.8	1.49e+00	0	40	104	0	72	21241
2026-01-05 23:36:10.79	188.88	9.96	-50.3	-65.8	3.8	1.49e+00	0	40	104	0	72	21190
2026-01-05 23:36:12.08	188.91	9.85	-50.3	-65.9	3.8	1.49e+00	0	40	104	0	72	21286
2026-01-05 23:36:12.80	188.92	9.79	-50.3	-65.9	3.8	1.49e+00	0	40	104	0	72	21363
2026-01-05 23:36:14.09	188.96	9.68	-50.3	-65.9	3.8	1.49e+00	0	40	104	0	72	21284
2026-01-05 23:36:14.80	188.97	9.62	-50.3	-65.9	3.8	1.49e+00	0	40	104	0	72	21296
2026-01-05 23:36:16.10	189.00	9.51	-50.3	-65.9	3.8	1.49e+00	0	40	104	0	72	21266
2026-01-05 23:36:16.81	189.02	9.45	-50.3	-65.9	3.8	1.49e+00	0	40	104	0	72	21315
2026-01-05 23:36:18.10	189.05	9.34	-50.3	-65.9	3.8	1.49e+00	0	40	104	0	72	21270
2026-01-05 23:36:18.82	189.07	9.28	-50.3	-65.9	3.8	1.49e+00	0	40	104	0	72	21314
2026-01-05 23:36:20.12	189.10	9.17	-50.3	-65.9	3.8	1.49e+00	0	40	104	0	72	21304
2026-01-05 23:36:20.83	189.12	9.11	-50.3	-65.9	3.8	1.49e+00	0	40	104	0	72	21282
2026-01-05 23:36:22.12	189.15	9.00	-50.3	-65.9	3.8	1.49e+00	0	40	104	0	72	21292
2026-01-05 23:36:22.84	189.16	8.94	-50.3	-65.9	3.8	1.49e+00	0	40	104	0	72	21331
2026-01-05 23:36:24.13	189.19	8.83	-50.3	-65.9	3.8	1.49e+00	0	40	104	0	72	21274
2026-01-05 23:36:24.85	189.21	8.77	-50.3	-65.9	3.8	1.49e+00	0	40	104	0	72	21287
2026-01-05 23:36:26.14	189.24	8.67	-50.3	-65.9	3.8	1.49e+00	0	40	104	0	72	21272
2026-01-05 23:36:26.86	189.25	8.61	-50.3	-65.8	3.8	1.49e+00	0	40	104	0	72	21215
2026-01-05 23:36:28.15	189.28	8.50	-50.3	-65.9	3.8	1.49e+00	0	40	104	0	72	21383
2026-01-05 23:36:28.87	189.30	8.44	-50.3	-65.9	3.8	1.49e+00	0	40	104	0	72	21285
2026-01-05 23:36:30.16	189.33	8.34	-50.3	-65.9	3.8	1.49e+00	0	40	104	0	72	21308
2026-01-05 23:36:30.87	189.35	8.28	-50.3	-65.8	3.8	1.49e+00	0	40	104	0	72	21229
2026-01-05 23:36:32.16	189.37	8.18	-50.3	-65.8	3.8	1.49e+00	0	40	104	0	72	21243
2026-01-05 23:36:32.88	189.39	8.12	-50.3	-65.8	3.8	1.49e+00	0	40	104	0	72	21233
2026-01-05 23:36:34.17	189.42	8.02	-50.3	-65.8	3.8	1.49e+00	0	40	104	0	72	21256
2026-01-05 23:36:34.89	189.43	7.96	-50.3	-65.9	3.8	1.49e+00	0	40	104	0	72	21279
2026-01-05 23:36:36.18	189.46	7.86	-50.3	-65.9	3.8	1.49e+00	0	40	104	0	72	21336
2026-01-05 23:36:36.90	189.48	7.80	-50.3	-65.8	3.8	1.49e+00	0	40	104	0	72	21205
2026-01-05 23:36:38.19	189.51	7.70	-50.3	-65.9	3.8	1.49e+00	0	40	104	0	72	21289
2026-01-05 23:36:38.90	189.52	7.64	-50.3	-65.9	3.8	1.49e+00	0	40	104	0	72	21304
2026-01-05 23:36:40.20	189.55	7.54	-50.3	-65.8	3.8	1.49e+00	0	40	104	0	72	21237
2026-01-05 23:36:40.92	189.56	7.48	-50.3	-65.9	3.8	1.49e+00	0	40	104	0	72	21333
2026-01-05 23:36:42.20	189.59	7.38	-50.3	-65.9	3.8	1.49e+00	0	40	104	0	72	21288
2026-01-05 23:36:42.92	189.61	7.33	-50.3	-65.8	3.8	1.49e+00	0	39	104	0	72	21238
2026-01-05 23:36:44.21	189.63	7.23	-50.3	-65.9	3.8	1.49e+00	0	40	104	0	72	21338
2026-01-05 23:36:44.93	189.65	7.17	-50.3	-65.9	3.8	1.49e+00	0	40	104	0	72	21342
