passes_logs/2026/01/05/T1/T1__20260105_052026_FENGYUN_3G_rec.log

#Pass ID: 20260105_052026_FENGYUN 3G
#Satellite: FENGYUN 3G
#Configuration: FENGYUN 3G
#almurnet v.1.7.20251203
#Start time: 2026-01-05 05:20:26

#Version: 2.0.20230620
#Station: T1
#Location: 37.570604 lon 55.790049 lat
#TLE: 1 56232U 23055A   26004.30545203  .00036688  00000+0  58358-3 0  9999
#TLE: 2 56232  49.9937 111.0848 0004219 337.3423  22.7358 15.52882769154533

#Time	Az	El	Level	Level2	SNR	BER	BlckErr	Temp	State	Recorded	gain1	gain2
2026-01-05 05:20:26.23	259.46	4.86	-51.1	-70.0	3.8	8.46e-01	0	38	0	0	73	32352
2026-01-05 05:20:27.23	259.35	4.93	-51.1	-70.1	3.8	8.37e-01	0	38	104	0	74	30929
2026-01-05 05:20:28.23	259.22	5.00	-51.1	-70.2	3.8	8.48e-01	0	38	104	0	74	31152
2026-01-05 05:20:29.24	259.10	5.07	-51.1	-70.2	3.8	8.46e-01	0	38	104	0	74	31197
2026-01-05 05:20:30.24	258.98	5.14	-51.0	-70.1	3.8	8.46e-01	0	38	104	0	74	31057
2026-01-05 05:20:31.24	258.86	5.20	-51.0	-70.1	3.8	8.46e-01	0	38	104	0	74	31006
2026-01-05 05:20:32.25	258.73	5.27	-51.0	-70.1	3.8	8.47e-01	0	38	104	0	74	31018
2026-01-05 05:20:33.25	258.61	5.34	-51.0	-70.2	3.8	8.47e-01	0	38	104	0	74	31102
2026-01-05 05:20:34.26	258.48	5.41	-51.1	-70.1	3.8	8.46e-01	0	38	104	0	74	30995
2026-01-05 05:20:35.26	258.36	5.48	-51.0	-70.1	3.8	8.48e-01	0	38	104	0	74	30889
2026-01-05 05:20:36.26	258.23	5.55	-51.1	-70.1	3.8	8.48e-01	0	38	104	0	74	30919
2026-01-05 05:20:37.27	258.10	5.62	-51.0	-70.1	3.8	8.46e-01	0	38	104	0	74	30771
2026-01-05 05:20:38.27	257.97	5.69	-51.1	-70.1	3.8	8.47e-01	0	38	104	0	74	30751
2026-01-05 05:20:39.27	257.84	5.76	-51.0	-70.1	3.8	8.47e-01	0	38	104	0	74	30771
2026-01-05 05:20:40.28	257.71	5.84	-51.0	-70.0	3.8	8.46e-01	0	38	104	0	74	30668
2026-01-05 05:20:41.29	257.58	5.91	-51.1	-70.1	3.8	8.46e-01	0	38	104	0	74	30754
2026-01-05 05:20:42.29	257.45	5.98	-51.0	-70.1	3.8	8.46e-01	0	39	104	0	74	30951
2026-01-05 05:20:43.29	257.31	6.05	-51.0	-70.1	3.8	8.46e-01	0	39	104	0	74	30904
2026-01-05 05:20:44.29	257.18	6.12	-51.0	-70.2	3.8	8.47e-01	0	39	104	0	74	31097
2026-01-05 05:20:45.30	257.04	6.19	-51.0	-70.2	3.8	8.47e-01	0	39	104	0	74	31177
2026-01-05 05:20:46.30	256.91	6.26	-51.0	-70.1	3.8	8.47e-01	0	39	104	0	74	31017
2026-01-05 05:20:47.31	256.77	6.34	-51.1	-70.1	3.8	8.47e-01	0	39	104	0	74	31010
2026-01-05 05:20:48.31	256.63	6.41	-51.1	-70.1	3.8	8.47e-01	0	39	104	0	74	30882
2026-01-05 05:20:49.31	256.49	6.48	-51.1	-70.1	3.8	8.47e-01	0	39	104	0	74	30802
2026-01-05 05:20:50.32	256.35	6.55	-51.0	-70.0	3.8	8.46e-01	0	39	104	0	74	30591
2026-01-05 05:20:51.32	256.21	6.63	-51.1	-70.0	3.8	8.47e-01	0	39	104	0	74	30684
2026-01-05 05:20:52.32	256.07	6.70	-51.0	-70.0	3.8	8.47e-01	0	39	104	0	74	30621
2026-01-05 05:20:53.33	255.92	6.77	-51.0	-70.0	3.8	8.47e-01	0	39	104	0	74	30598
2026-01-05 05:20:54.33	255.78	6.85	-51.0	-70.1	3.8	8.45e-01	0	39	104	0	74	30736
2026-01-05 05:20:55.33	255.64	6.92	-51.0	-70.1	3.8	8.46e-01	0	39	104	0	74	30816
2026-01-05 05:20:56.34	255.49	6.99	-51.0	-70.1	3.8	8.46e-01	0	39	104	0	74	30928
2026-01-05 05:20:57.34	255.34	7.07	-51.0	-70.1	3.8	8.47e-01	0	39	104	0	74	31010
2026-01-05 05:20:58.34	255.19	7.14	-51.0	-70.1	3.8	8.48e-01	0	39	104	0	74	30912
2026-01-05 05:20:59.34	255.05	7.22	-51.0	-70.1	3.8	8.48e-01	0	39	104	0	74	30936
2026-01-05 05:21:00.34	254.90	7.29	-51.0	-70.1	3.8	8.46e-01	0	39	104	0	74	30987
2026-01-05 05:21:01.35	254.74	7.37	-51.0	-70.1	3.8	8.46e-01	0	39	104	0	74	31038
2026-01-05 05:21:02.35	254.59	7.44	-51.1	-70.1	3.8	8.46e-01	0	39	104	0	74	30951
2026-01-05 05:21:03.35	254.44	7.51	-51.0	-70.1	3.8	8.48e-01	0	39	104	0	74	30825
2026-01-05 05:21:04.35	254.28	7.59	-51.0	-70.1	3.8	8.48e-01	0	39	104	0	74	30768
2026-01-05 05:21:05.36	254.13	7.67	-51.0	-70.0	3.8	8.48e-01	0	39	104	0	74	30574
2026-01-05 05:21:06.36	253.97	7.74	-51.0	-70.0	3.8	8.47e-01	0	39	104	0	74	30450
2026-01-05 05:21:07.36	253.81	7.82	-51.0	-69.9	3.8	8.47e-01	0	39	104	0	73	31980
2026-01-05 05:21:08.36	253.65	7.89	-51.0	-70.0	3.8	8.47e-01	0	39	104	0	73	32315
2026-01-05 05:21:09.37	253.49	7.97	-51.0	-70.1	3.8	8.46e-01	0	39	104	0	73	32765
2026-01-05 05:21:10.37	253.33	8.04	-51.0	-70.0	3.8	8.47e-01	0	39	104	0	73	32400
2026-01-05 05:21:11.37	253.17	8.12	-51.0	-69.6	3.8	8.47e-01	0	40	104	0	73	30868
2026-01-05 05:21:12.37	253.00	8.20	-51.0	-69.0	3.8	8.47e-01	0	39	104	0	73	28908
2026-01-05 05:21:13.38	252.84	8.27	-51.0	-68.8	3.8	8.48e-01	0	39	104	0	73	28302
2026-01-05 05:21:14.38	252.67	8.35	-50.9	-69.2	3.8	8.45e-01	0	40	104	0	73	29424
2026-01-05 05:21:15.38	252.50	8.43	-51.0	-69.8	3.8	8.45e-01	0	39	104	0	73	31666
2026-01-05 05:21:16.39	252.33	8.51	-51.0	-69.9	3.8	8.47e-01	0	40	104	0	73	32117
2026-01-05 05:21:17.39	252.16	8.58	-51.0	-68.9	3.8	8.47e-01	0	40	104	0	73	28639
2026-01-05 05:21:18.39	251.99	8.66	-50.9	-67.3	3.9	8.47e-01	0	39	104	0	73	23629
2026-01-05 05:21:19.39	251.82	8.74	-50.8	-64.9	4.8	8.45e-01	0	39	0	0	73	17890
2026-01-05 05:21:20.39	251.65	8.82	-50.7	-62.7	6.1	7.74e-01	0	39	0	0	73	13983
2026-01-05 05:21:21.40	251.47	8.90	-50.5	-60.8	7.9	7.74e-01	0	40	0	0	72	11823
2026-01-05 05:21:22.40	251.30	8.97	-50.1	-58.8	9.9	1.91e-01	0	40	0	0	72	9452
2026-01-05 05:21:23.41	251.12	9.05	-49.5	-56.5	12.2	1.42e-02	0	40	0	0	71	7641
2026-01-05 05:21:24.41	250.94	9.13	-49.5	-56.1	12.8	1.42e-02	0	40	0	0	71	7309
2026-01-05 05:21:25.41	250.76	9.21	-49.1	-55.0	14.5	5.64e-04	0	40	0	0	69	7280
2026-01-05 05:21:26.41	250.58	9.29	-50.3	-59.9	8.4	1.73e-02	0	40	0	0	71	11368
2026-01-05 05:21:27.41	250.39	9.37	-49.6	-56.3	12.2	7.71e-02	0	40	0	0	71	7503
2026-01-05 05:21:28.41	250.21	9.45	-46.0	-49.3	19.4	7.71e-02	0	40	0	0	64	5041
2026-01-05 05:21:29.41	250.03	9.53	-45.8	-49.0	19.7	4.50e-06	0	40	0	0	63	5127
2026-01-05 05:21:30.41	249.84	9.61	-45.8	-49.0	20.0	0.00e+00	0	40	0	0	62	5404
2026-01-05 05:21:31.41	249.65	9.68	-45.8	-49.0	19.7	0.00e+00	0	40	0	0	62	5439
2026-01-05 05:21:32.41	249.46	9.76	-45.7	-48.9	19.8	0.00e+00	0	40	0	0	62	5398
2026-01-05 05:21:33.42	249.27	9.84	-45.4	-48.6	20.3	0.00e+00	0	40	0	0	62	5175
2026-01-05 05:21:34.42	249.08	9.92	-45.6	-48.8	20.1	0.00e+00	0	40	0	0	62	5333
2026-01-05 05:21:35.42	248.88	10.01	-45.1	-48.2	20.4	0.00e+00	0	40	0	0	62	4966
2026-01-05 05:21:36.42	248.69	10.09	-45.1	-48.2	20.6	0.00e+00	0	40	0	0	61	5269
2026-01-05 05:21:37.43	248.49	10.17	-45.4	-48.7	20.1	0.00e+00	0	40	0	0	61	5592
2026-01-05 05:21:38.43	248.29	10.25	-45.3	-48.6	20.1	0.00e+00	0	40	0	0	61	5482
2026-01-05 05:21:39.42	248.09	10.33	-45.2	-48.4	20.4	0.00e+00	0	40	0	0	61	5361
2026-01-05 05:21:40.43	247.89	10.41	-45.5	-48.8	20.3	0.00e+00	0	40	0	0	61	5650
2026-01-05 05:21:41.43	247.69	10.49	-45.5	-48.7	19.8	0.00e+00	0	40	0	0	62	5276
2026-01-05 05:21:42.43	247.48	10.57	-45.4	-48.5	20.6	0.00e+00	0	40	0	0	62	5141
2026-01-05 05:21:43.44	247.28	10.65	-45.2	-48.2	20.7	0.00e+00	0	40	0	0	61	5222
2026-01-05 05:21:44.43	247.07	10.73	-44.9	-47.7	21.0	0.00e+00	0	40	0	0	61	4969
2026-01-05 05:21:45.44	246.86	10.82	-44.3	-46.9	21.8	0.00e+00	0	40	0	0	60	4808
2026-01-05 05:21:46.44	246.65	10.90	-44.3	-46.9	21.8	0.00e+00	0	40	0	0	60	4806
2026-01-05 05:21:47.45	246.44	10.98	-44.0	-46.6	22.2	0.00e+00	0	40	0	0	59	4890
2026-01-05 05:21:48.45	246.22	11.06	-43.8	-46.4	22.4	0.00e+00	0	40	0	0	59	4764
2026-01-05 05:21:49.45	246.01	11.14	-43.4	-45.9	22.7	0.00e+00	0	40	0	0	58	4807
2026-01-05 05:21:50.45	245.79	11.22	-43.2	-45.7	23.0	0.00e+00	0	40	0	0	58	4689
2026-01-05 05:21:51.45	245.57	11.31	-43.7	-46.2	22.6	0.00e+00	0	40	0	0	58	4966
2026-01-05 05:21:52.45	245.35	11.39	-43.5	-46.0	22.7	0.00e+00	0	40	0	0	58	4840
2026-01-05 05:21:53.45	245.13	11.47	-43.1	-45.5	23.2	0.00e+00	0	40	0	0	58	4556
2026-01-05 05:21:54.45	244.91	11.55	-43.1	-45.5	23.2	0.00e+00	0	40	0	0	58	4564
2026-01-05 05:21:55.45	244.68	11.64	-42.5	-44.7	23.8	0.00e+00	0	40	0	0	57	4439
2026-01-05 05:21:56.45	244.46	11.72	-42.4	-44.7	23.8	0.00e+00	0	40	0	0	56	4683
2026-01-05 05:21:57.45	244.23	11.80	-42.5	-44.8	23.8	0.00e+00	0	40	0	0	56	4733
2026-01-05 05:21:58.45	244.00	11.88	-42.5	-44.8	23.8	0.00e+00	0	40	0	0	56	4732
2026-01-05 05:21:59.46	243.76	11.97	-42.7	-44.9	23.6	0.00e+00	0	40	0	0	56	4812
2026-01-05 05:22:00.46	243.53	12.05	-42.6	-44.9	23.7	0.00e+00	0	40	0	0	56	4765
2026-01-05 05:22:01.46	243.30	12.13	-42.6	-44.9	23.7	0.00e+00	0	40	0	0	56	4801
2026-01-05 05:22:02.46	243.06	12.21	-42.6	-44.9	23.7	0.00e+00	0	40	0	0	56	4761
2026-01-05 05:22:03.46	242.82	12.30	-42.7	-45.0	23.7	0.00e+00	0	40	0	0	56	4829
2026-01-05 05:22:04.46	242.58	12.38	-42.6	-44.9	23.7	0.00e+00	0	40	0	0	56	4801
2026-01-05 05:22:05.46	242.34	12.46	-42.5	-44.8	23.8	0.00e+00	0	40	0	0	56	4725
2026-01-05 05:22:06.46	242.09	12.54	-42.3	-44.6	23.9	0.00e+00	0	40	0	0	56	4629
2026-01-05 05:22:07.46	241.85	12.63	-42.4	-44.7	23.9	0.00e+00	0	40	0	0	56	4678
2026-01-05 05:22:08.47	241.60	12.71	-42.5	-44.8	23.8	0.00e+00	0	40	0	0	56	4756
2026-01-05 05:22:09.47	241.35	12.79	-42.3	-44.5	24.0	0.00e+00	0	40	0	0	56	4589
2026-01-05 05:22:10.47	241.10	12.88	-42.5	-44.8	23.9	0.00e+00	0	40	0	0	56	4722
2026-01-05 05:22:11.48	240.84	12.96	-42.7	-45.0	23.6	0.00e+00	0	40	0	0	56	4862
2026-01-05 05:22:12.47	240.59	13.04	-42.3	-44.5	24.0	0.00e+00	0	40	0	0	56	4598
2026-01-05 05:22:13.48	240.33	13.12	-42.0	-44.2	24.2	0.00e+00	0	40	0	0	56	4414
2026-01-05 05:22:14.48	240.07	13.21	-41.8	-44.0	24.4	0.00e+00	0	40	0	0	55	4546
2026-01-05 05:22:15.48	239.81	13.29	-41.8	-44.0	24.4	0.00e+00	0	40	0	0	55	4577
2026-01-05 05:22:16.49	239.55	13.37	-41.6	-43.7	24.6	0.00e+00	0	40	0	0	55	4423
2026-01-05 05:22:17.49	239.28	13.46	-41.6	-43.7	24.6	0.00e+00	0	40	0	0	55	4435
2026-01-05 05:22:18.49	239.02	13.54	-41.9	-44.1	24.3	0.00e+00	0	40	0	0	55	4634
2026-01-05 05:22:19.49	238.75	13.62	-42.2	-44.4	24.1	0.00e+00	0	40	0	0	55	4773
2026-01-05 05:22:20.50	238.47	13.70	-42.1	-44.3	24.2	0.00e+00	0	40	0	0	55	4732
2026-01-05 05:22:21.50	238.20	13.78	-42.5	-44.8	23.7	0.00e+00	0	40	0	0	55	4993
2026-01-05 05:22:22.50	237.93	13.87	-42.0	-44.2	24.2	0.00e+00	0	40	0	0	55	4693
2026-01-05 05:22:23.50	237.65	13.95	-41.9	-44.1	24.3	0.00e+00	0	40	0	0	55	4616
2026-01-05 05:22:24.50	237.37	14.03	-41.7	-43.9	24.5	0.00e+00	0	40	0	0	55	4500
2026-01-05 05:22:25.50	237.09	14.11	-41.7	-43.8	24.5	0.00e+00	0	40	0	0	55	4481
2026-01-05 05:22:26.50	236.81	14.19	-41.5	-43.6	24.7	0.00e+00	0	40	0	0	54	4633
2026-01-05 05:22:27.51	236.53	14.27	-41.5	-43.6	24.7	0.00e+00	0	40	0	0	54	4645
2026-01-05 05:22:28.50	236.24	14.35	-41.6	-43.8	24.6	0.00e+00	0	40	0	0	54	4735
2026-01-05 05:22:29.50	235.95	14.44	-41.6	-43.8	24.6	0.00e+00	0	40	0	0	54	4733
2026-01-05 05:22:30.50	235.66	14.52	-41.7	-43.9	24.5	0.00e+00	0	40	0	0	54	4792
2026-01-05 05:22:31.50	235.37	14.60	-41.7	-43.9	24.5	0.00e+00	0	40	0	0	54	4771
2026-01-05 05:22:32.51	235.08	14.68	-41.8	-44.0	24.5	0.00e+00	0	40	0	0	54	4826
2026-01-05 05:22:33.50	234.78	14.76	-41.8	-44.0	24.4	0.00e+00	0	40	0	0	54	4851
2026-01-05 05:22:34.50	234.48	14.84	-41.6	-43.7	24.6	0.00e+00	0	40	0	0	54	4699
2026-01-05 05:22:35.51	234.18	14.92	-41.5	-43.7	24.7	0.00e+00	0	40	0	0	54	4660
2026-01-05 05:22:36.51	233.88	14.99	-41.2	-43.3	24.9	0.00e+00	0	40	0	0	54	4491
2026-01-05 05:22:37.51	233.58	15.07	-41.2	-43.3	24.9	0.00e+00	0	40	0	0	54	4478
2026-01-05 05:22:38.51	233.27	15.15	-41.1	-43.2	25.0	0.00e+00	0	40	0	0	54	4409
2026-01-05 05:22:39.51	232.96	15.23	-41.1	-43.2	25.1	0.00e+00	0	40	0	0	54	4399
2026-01-05 05:22:40.51	232.65	15.31	-41.2	-43.3	25.0	0.00e+00	0	40	0	0	54	4445
2026-01-05 05:22:41.51	232.34	15.38	-41.4	-43.5	24.8	0.00e+00	0	41	0	0	54	4562
2026-01-05 05:22:42.51	232.02	15.46	-41.6	-43.8	24.6	0.00e+00	0	41	0	0	54	4710
2026-01-05 05:22:43.51	231.71	15.54	-41.7	-43.8	24.6	0.00e+00	0	40	0	0	54	4740
2026-01-05 05:22:44.52	231.39	15.62	-41.4	-43.6	24.8	0.00e+00	0	40	0	0	54	4614
2026-01-05 05:22:45.52	231.06	15.69	-41.4	-43.5	24.9	0.00e+00	0	41	0	0	54	4570
2026-01-05 05:22:46.52	230.74	15.77	-41.2	-43.3	25.0	0.00e+00	0	40	0	0	54	4488
2026-01-05 05:22:47.52	230.42	15.84	-41.2	-43.2	25.1	0.00e+00	0	40	0	0	54	4429
2026-01-05 05:22:48.52	230.09	15.92	-40.9	-43.0	25.2	0.00e+00	0	40	0	0	53	4568
2026-01-05 05:22:49.53	229.76	15.99	-40.7	-42.7	25.4	0.00e+00	0	41	0	0	53	4414
2026-01-05 05:22:50.53	229.43	16.07	-40.8	-42.9	25.3	0.00e+00	0	40	0	0	53	4510
2026-01-05 05:22:51.53	229.09	16.14	-40.9	-43.0	25.2	0.00e+00	0	40	0	0	53	4578
2026-01-05 05:22:52.54	228.76	16.21	-41.0	-43.1	25.1	0.00e+00	0	40	0	0	53	4636
2026-01-05 05:22:53.54	228.42	16.28	-40.9	-43.0	25.2	0.00e+00	0	41	0	0	53	4577
2026-01-05 05:22:54.54	228.08	16.36	-40.5	-42.5	25.6	0.00e+00	0	40	0	0	53	4331
2026-01-05 05:22:55.54	227.74	16.43	-40.6	-42.6	25.5	0.00e+00	0	41	0	0	52	4649
2026-01-05 05:22:56.54	227.39	16.50	-40.5	-42.5	25.6	0.00e+00	0	40	0	0	52	4577
2026-01-05 05:22:57.54	227.05	16.57	-40.6	-42.6	25.5	0.00e+00	0	40	0	0	52	4631
2026-01-05 05:22:58.54	226.70	16.64	-40.5	-42.5	25.6	0.00e+00	0	40	0	0	52	4575
2026-01-05 05:22:59.54	226.35	16.71	-40.6	-42.6	25.6	0.00e+00	0	40	0	0	52	4608
2026-01-05 05:23:00.54	226.00	16.77	-40.7	-42.8	25.4	0.00e+00	0	40	0	0	52	4722
2026-01-05 05:23:01.54	225.65	16.84	-41.0	-43.0	25.2	0.00e+00	0	40	0	0	52	4865
2026-01-05 05:23:02.54	225.29	16.91	-40.9	-43.0	25.3	0.00e+00	0	40	0	0	52	4846
2026-01-05 05:23:03.54	224.94	16.98	-41.0	-43.0	25.3	0.00e+00	0	41	0	0	52	4853
2026-01-05 05:23:04.54	224.58	17.04	-40.8	-42.9	25.4	0.00e+00	0	40	0	0	52	4785
2026-01-05 05:23:05.54	224.22	17.11	-40.6	-42.6	25.6	0.00e+00	0	41	0	0	52	4616
2026-01-05 05:23:06.55	223.85	17.17	-40.7	-42.7	25.5	0.00e+00	0	40	0	0	52	4678
2026-01-05 05:23:07.55	223.48	17.23	-40.8	-42.8	25.5	0.00e+00	0	41	0	0	52	4725
2026-01-05 05:23:08.55	223.12	17.30	-40.8	-42.8	25.5	0.00e+00	0	40	0	0	52	4734
2026-01-05 05:23:09.55	222.75	17.36	-40.6	-42.6	25.6	0.00e+00	0	40	0	0	52	4628
2026-01-05 05:23:10.56	222.38	17.42	-40.8	-42.8	25.5	0.00e+00	0	40	0	0	52	4746
2026-01-05 05:23:11.56	222.00	17.48	-41.0	-43.0	25.3	0.00e+00	0	41	0	0	52	4868
2026-01-05 05:23:12.56	221.63	17.54	-41.1	-43.2	25.2	0.00e+00	0	41	0	0	52	4949
2026-01-05 05:23:13.57	221.25	17.60	-41.1	-43.2	25.2	0.00e+00	0	40	0	0	53	4690
2026-01-05 05:23:14.56	220.87	17.65	-40.9	-42.9	25.4	0.00e+00	0	41	0	0	53	4523
2026-01-05 05:23:15.57	220.49	17.71	-40.9	-42.9	25.4	0.00e+00	0	41	0	0	53	4520
2026-01-05 05:23:16.57	220.11	17.77	-40.9	-43.0	25.4	0.00e+00	0	40	0	0	53	4550
2026-01-05 05:23:17.57	219.73	17.82	-41.0	-43.1	25.4	0.00e+00	0	41	0	0	53	4601
2026-01-05 05:23:18.57	219.34	17.88	-40.8	-42.8	25.5	0.00e+00	0	41	0	0	53	4478
2026-01-05 05:23:19.57	218.96	17.93	-40.7	-42.7	25.7	0.00e+00	0	41	0	0	53	4426
2026-01-05 05:23:20.58	218.56	17.98	-40.6	-42.7	25.7	0.00e+00	0	41	0	0	53	4394
2026-01-05 05:23:21.58	218.17	18.03	-40.7	-42.7	25.7	0.00e+00	0	41	0	0	53	4420
2026-01-05 05:23:22.58	217.78	18.08	-40.7	-42.7	25.7	0.00e+00	0	41	0	0	53	4400
2026-01-05 05:23:23.58	217.39	18.13	-40.7	-42.7	25.7	0.00e+00	0	41	0	0	53	4408
2026-01-05 05:23:24.58	216.99	18.18	-40.7	-42.7	25.7	0.00e+00	0	41	0	0	53	4424
2026-01-05 05:23:25.59	216.59	18.23	-40.8	-42.8	25.7	0.00e+00	0	40	0	0	53	4477
2026-01-05 05:23:26.59	216.20	18.27	-40.8	-42.9	25.6	0.00e+00	0	41	0	0	53	4501
2026-01-05 05:23:27.59	215.80	18.32	-40.7	-42.8	25.7	0.00e+00	0	41	0	0	53	4454
2026-01-05 05:23:28.59	215.40	18.36	-40.8	-42.8	25.6	0.00e+00	0	41	0	0	53	4482
2026-01-05 05:23:29.59	215.00	18.40	-40.6	-42.6	25.6	0.00e+00	0	41	0	0	53	4374
2026-01-05 05:23:30.59	214.59	18.45	-40.5	-42.5	25.8	0.00e+00	0	41	0	0	52	4570
2026-01-05 05:23:31.60	214.18	18.49	-40.7	-42.7	25.8	0.00e+00	0	41	0	0	52	4683
2026-01-05 05:23:32.60	213.78	18.53	-40.7	-42.7	25.8	0.00e+00	0	41	0	0	52	4680
2026-01-05 05:23:33.60	213.37	18.56	-40.6	-42.6	25.8	0.00e+00	0	41	0	0	52	4624
2026-01-05 05:23:34.60	212.96	18.60	-40.7	-42.7	25.9	0.00e+00	0	41	0	0	52	4665
2026-01-05 05:23:35.60	212.55	18.64	-40.6	-42.6	25.9	0.00e+00	0	41	0	0	52	4638
2026-01-05 05:23:36.60	212.14	18.67	-40.6	-42.6	25.9	0.00e+00	0	40	0	0	52	4614
2026-01-05 05:23:37.61	211.73	18.70	-40.4	-42.4	26.1	0.00e+00	0	40	0	0	52	4514
2026-01-05 05:23:38.61	211.31	18.74	-40.5	-42.5	26.1	0.00e+00	0	40	0	0	52	4581
2026-01-05 05:23:39.61	210.90	18.77	-40.5	-42.5	26.1	0.00e+00	0	41	0	0	52	4580
2026-01-05 05:23:40.61	210.48	18.80	-40.4	-42.4	26.1	0.00e+00	0	40	0	0	52	4515
2026-01-05 05:23:41.61	210.07	18.82	-40.5	-42.4	26.2	0.00e+00	0	41	0	0	52	4529
2026-01-05 05:23:42.62	209.65	18.85	-40.4	-42.4	26.2	0.00e+00	0	41	0	0	52	4516
2026-01-05 05:23:43.62	209.23	18.88	-40.5	-42.5	26.1	0.00e+00	0	40	0	0	52	4560
2026-01-05 05:23:44.62	208.81	18.90	-40.6	-42.6	26.0	0.00e+00	0	41	0	0	52	4633
2026-01-05 05:23:45.62	208.39	18.92	-40.6	-42.6	26.0	0.00e+00	0	41	0	0	52	4627
2026-01-05 05:23:46.63	207.97	18.95	-41.0	-43.0	25.8	0.00e+00	0	41	0	0	52	4827
2026-01-05 05:23:47.63	207.55	18.97	-41.2	-43.2	25.7	0.00e+00	0	40	0	0	52	4950
2026-01-05 05:23:48.63	207.12	18.99	-41.2	-43.2	25.6	0.00e+00	0	41	0	0	53	4667
2026-01-05 05:23:49.63	206.70	19.00	-41.3	-43.3	25.6	0.00e+00	0	41	0	0	53	4746
2026-01-05 05:23:50.63	206.28	19.02	-41.2	-43.3	25.6	0.00e+00	0	41	0	0	53	4723
2026-01-05 05:23:51.63	205.86	19.03	-41.3	-43.4	25.6	0.00e+00	0	41	0	0	53	4764
2026-01-05 05:23:52.63	205.43	19.05	-41.3	-43.4	25.5	0.00e+00	0	41	0	0	53	4766
2026-01-05 05:23:53.64	205.00	19.06	-41.4	-43.4	25.5	0.00e+00	0	41	0	0	53	4807
2026-01-05 05:23:54.64	204.58	19.07	-41.4	-43.4	25.6	0.00e+00	0	41	0	0	53	4793
2026-01-05 05:23:55.64	204.15	19.08	-41.3	-43.4	25.7	0.00e+00	0	41	0	0	53	4763
2026-01-05 05:23:56.65	203.73	19.09	-41.1	-43.1	25.8	0.00e+00	0	41	0	0	53	4631
2026-01-05 05:23:57.64	203.30	19.10	-41.1	-43.1	25.8	0.00e+00	0	41	0	0	53	4606
2026-01-05 05:23:58.65	202.87	19.10	-41.1	-43.1	25.9	0.00e+00	0	41	0	0	53	4604
2026-01-05 05:23:59.65	202.45	19.10	-40.9	-42.9	26.0	0.00e+00	0	41	0	0	53	4508
2026-01-05 05:24:00.65	202.02	19.11	-40.9	-42.9	26.1	0.00e+00	0	41	0	0	53	4497
2026-01-05 05:24:01.65	201.60	19.11	-41.2	-43.2	25.9	0.00e+00	0	41	0	0	53	4654
2026-01-05 05:24:02.65	201.17	19.11	-41.2	-43.1	25.9	0.00e+00	0	41	0	0	53	4646
2026-01-05 05:24:03.65	200.74	19.11	-40.9	-42.9	26.0	0.00e+00	0	41	0	0	53	4524
2026-01-05 05:24:04.66	200.31	19.10	-40.9	-42.9	26.1	0.00e+00	0	41	0	0	53	4500
2026-01-05 05:24:05.66	199.89	19.10	-41.0	-43.0	26.0	0.00e+00	0	41	0	0	53	4551
2026-01-05 05:24:06.65	199.47	19.09	-41.1	-43.1	26.0	0.00e+00	0	41	0	0	53	4609
2026-01-05 05:24:07.65	199.04	19.09	-41.0	-42.9	26.1	0.00e+00	0	41	0	0	53	4540
2026-01-05 05:24:08.65	198.62	19.08	-41.2	-43.1	25.9	0.00e+00	0	40	0	0	53	4651
2026-01-05 05:24:09.65	198.19	19.07	-41.5	-43.6	25.8	0.00e+00	0	41	0	0	53	4875
2026-01-05 05:24:10.66	197.76	19.06	-41.7	-43.8	25.6	0.00e+00	0	41	0	0	54	4708
2026-01-05 05:24:11.66	197.34	19.04	-41.7	-43.8	25.6	0.00e+00	0	40	0	0	54	4712
2026-01-05 05:24:12.66	196.91	19.03	-41.8	-43.8	25.6	0.00e+00	0	41	0	0	54	4746
2026-01-05 05:24:13.66	196.49	19.01	-41.8	-43.8	25.6	0.00e+00	0	41	0	0	54	4750
2026-01-05 05:24:14.67	196.06	19.00	-41.7	-43.7	25.7	0.00e+00	0	40	0	0	54	4661
2026-01-05 05:24:15.67	195.64	18.98	-41.7	-43.7	25.7	0.00e+00	0	41	0	0	54	4695
2026-01-05 05:24:16.67	195.22	18.96	-41.6	-43.6	25.8	0.00e+00	0	41	0	0	54	4628
2026-01-05 05:24:17.67	194.80	18.94	-41.9	-43.9	25.6	0.00e+00	0	41	0	0	54	4778
2026-01-05 05:24:18.67	194.38	18.92	-41.8	-43.8	25.7	0.00e+00	0	41	0	0	54	4730
2026-01-05 05:24:19.67	193.96	18.89	-41.8	-43.9	25.6	0.00e+00	0	41	0	0	54	4773
2026-01-05 05:24:20.67	193.54	18.87	-41.7	-43.7	25.8	0.00e+00	0	41	0	0	54	4683
2026-01-05 05:24:21.67	193.12	18.84	-41.7	-43.7	25.8	0.00e+00	0	41	0	0	54	4664
2026-01-05 05:24:22.67	192.71	18.82	-41.2	-43.2	26.1	0.00e+00	0	41	0	0	54	4408
2026-01-05 05:24:23.67	192.29	18.79	-41.3	-43.3	26.0	0.00e+00	0	41	0	0	54	4465
2026-01-05 05:24:24.67	191.88	18.76	-41.4	-43.3	26.0	0.00e+00	0	41	0	0	54	4493
2026-01-05 05:24:25.68	191.46	18.73	-41.3	-43.2	26.0	0.00e+00	0	41	0	0	54	4439
2026-01-05 05:24:26.68	191.05	18.69	-41.1	-43.1	26.1	0.00e+00	0	41	0	0	54	4369
2026-01-05 05:24:27.68	190.63	18.66	-41.2	-43.2	26.1	0.00e+00	0	41	0	0	54	4418
2026-01-05 05:24:28.69	190.22	18.63	-41.3	-43.2	26.1	0.00e+00	0	41	0	0	54	4434
2026-01-05 05:24:29.69	189.81	18.59	-41.4	-43.4	25.9	0.00e+00	0	41	0	0	54	4511
2026-01-05 05:24:30.69	189.40	18.55	-41.5	-43.5	25.9	0.00e+00	0	41	0	0	54	4550
2026-01-05 05:24:31.70	188.99	18.51	-41.7	-43.7	25.8	0.00e+00	0	41	0	0	54	4655
2026-01-05 05:24:32.70	188.58	18.47	-41.6	-43.6	25.9	0.00e+00	0	41	0	0	54	4607
2026-01-05 05:24:33.70	188.18	18.43	-41.4	-43.4	25.9	0.00e+00	0	41	0	0	54	4521
2026-01-05 05:24:34.70	187.78	18.39	-41.2	-43.2	26.0	0.00e+00	0	40	0	0	54	4431
2026-01-05 05:24:35.70	187.37	18.35	-41.2	-43.2	26.1	0.00e+00	0	41	0	0	54	4424
2026-01-05 05:24:36.71	186.97	18.30	-41.4	-43.3	26.0	0.00e+00	0	41	0	0	54	4481
2026-01-05 05:24:37.71	186.57	18.26	-41.6	-43.6	25.9	0.00e+00	0	41	0	0	54	4604
2026-01-05 05:24:38.71	186.17	18.21	-41.9	-43.9	25.6	0.00e+00	0	41	0	0	54	4786
2026-01-05 05:24:39.72	185.77	18.17	-42.1	-44.1	25.5	0.00e+00	0	41	0	0	54	4912
2026-01-05 05:24:40.72	185.38	18.12	-42.1	-44.1	25.5	0.00e+00	0	41	0	0	54	4910
2026-01-05 05:24:41.72	184.99	18.07	-42.1	-44.2	25.4	0.00e+00	0	41	0	0	54	4956
2026-01-05 05:24:42.72	184.60	18.02	-42.3	-44.3	25.3	0.00e+00	0	41	0	0	55	4755
2026-01-05 05:24:43.72	184.21	17.97	-42.2	-44.3	25.4	0.00e+00	0	41	0	0	55	4736
2026-01-05 05:24:44.72	183.82	17.91	-42.3	-44.4	25.3	0.00e+00	0	41	0	0	55	4805
2026-01-05 05:24:45.72	183.43	17.86	-42.2	-44.3	25.3	0.00e+00	0	41	0	0	55	4733
2026-01-05 05:24:46.72	183.05	17.81	-41.9	-43.9	25.6	0.00e+00	0	41	0	0	55	4528
2026-01-05 05:24:47.73	182.66	17.75	-41.6	-43.6	25.8	0.00e+00	0	41	0	0	55	4377
2026-01-05 05:24:48.73	182.28	17.69	-41.8	-43.8	25.7	0.00e+00	0	41	0	0	55	4490
2026-01-05 05:24:49.73	181.90	17.64	-41.8	-43.9	25.7	0.00e+00	0	41	0	0	55	4500
2026-01-05 05:24:50.73	181.52	17.58	-42.1	-44.1	25.5	0.00e+00	0	41	0	0	55	4610
2026-01-05 05:24:51.73	181.15	17.52	-42.1	-44.2	25.4	0.00e+00	0	41	0	0	55	4659
2026-01-05 05:24:52.73	180.77	17.46	-42.1	-44.1	25.5	0.00e+00	0	41	0	0	55	4615
2026-01-05 05:24:53.73	180.40	17.40	-41.9	-43.9	25.6	0.00e+00	0	41	0	0	55	4531
2026-01-05 05:24:54.73	180.03	17.34	-41.7	-43.7	25.8	1.10e-06	0	41	0	0	55	4393
2026-01-05 05:24:55.74	179.66	17.28	-41.9	-43.9	25.6	0.00e+00	0	41	0	0	55	4541
2026-01-05 05:24:56.74	179.29	17.21	-42.3	-44.4	25.3	0.00e+00	0	41	0	0	55	4775
2026-01-05 05:24:57.74	178.93	17.15	-42.3	-44.4	25.2	0.00e+00	0	41	0	0	55	4780
2026-01-05 05:24:58.74	178.56	17.09	-42.6	-44.7	25.0	0.00e+00	0	41	0	0	55	4981
2026-01-05 05:24:59.74	178.20	17.02	-42.8	-44.9	25.0	0.00e+00	0	41	0	0	56	4771
2026-01-05 05:25:00.74	177.84	16.96	-42.6	-44.7	25.2	0.00e+00	0	41	0	0	56	4669
2026-01-05 05:25:01.74	177.49	16.89	-42.1	-44.1	25.6	0.00e+00	0	41	0	0	56	4373
2026-01-05 05:25:02.75	177.13	16.82	-41.6	-43.6	25.9	0.00e+00	0	41	0	0	55	4355
2026-01-05 05:25:03.75	176.77	16.75	-42.0	-44.0	25.5	0.00e+00	0	41	0	0	55	4565
2026-01-05 05:25:04.75	176.42	16.69	-42.4	-44.5	25.2	0.00e+00	0	41	0	0	55	4847
2026-01-05 05:25:05.75	176.07	16.62	-42.5	-44.6	25.1	0.00e+00	0	41	0	0	55	4878
2026-01-05 05:25:06.75	175.73	16.55	-42.6	-44.6	25.1	0.00e+00	0	41	0	0	55	4918
2026-01-05 05:25:07.76	175.38	16.48	-42.4	-44.5	25.2	0.00e+00	0	41	0	0	55	4838
2026-01-05 05:25:08.76	175.04	16.40	-42.4	-44.5	25.2	0.00e+00	0	41	0	0	55	4850
2026-01-05 05:25:09.76	174.69	16.33	-42.5	-44.6	25.0	0.00e+00	0	41	0	0	55	4924
2026-01-05 05:25:10.77	174.35	16.26	-43.0	-45.1	24.8	0.00e+00	0	41	0	0	56	4916
2026-01-05 05:25:11.77	174.02	16.19	-43.1	-45.3	24.6	0.00e+00	0	41	0	0	56	5005
2026-01-05 05:25:12.77	173.68	16.12	-43.0	-45.2	24.7	0.00e+00	0	41	0	0	56	4947
2026-01-05 05:25:13.77	173.35	16.04	-42.8	-44.9	24.9	0.00e+00	0	41	0	0	56	4785
2026-01-05 05:25:14.78	173.01	15.97	-42.4	-44.4	25.3	0.00e+00	0	41	0	0	56	4544
2026-01-05 05:25:15.78	172.69	15.89	-42.2	-44.2	25.5	0.00e+00	0	41	0	0	56	4422
2026-01-05 05:25:16.78	172.36	15.82	-42.3	-44.4	25.3	0.00e+00	0	41	0	0	56	4502
2026-01-05 05:25:17.78	172.03	15.74	-42.4	-44.4	25.3	0.00e+00	0	41	0	0	56	4532
2026-01-05 05:25:18.78	171.71	15.67	-42.7	-44.8	25.1	0.00e+00	0	41	0	0	56	4706
2026-01-05 05:25:19.78	171.39	15.59	-42.7	-44.8	25.0	0.00e+00	0	41	0	0	56	4709
2026-01-05 05:25:20.78	171.07	15.51	-42.8	-44.9	24.9	0.00e+00	0	41	0	0	56	4810
2026-01-05 05:25:21.78	170.76	15.44	-42.8	-44.9	24.9	0.00e+00	0	41	0	0	56	4800
2026-01-05 05:25:22.79	170.44	15.36	-42.9	-45.0	24.8	0.00e+00	0	41	0	0	56	4863
2026-01-05 05:25:23.79	170.13	15.28	-42.6	-44.7	25.0	0.00e+00	0	41	0	0	56	4678
2026-01-05 05:25:24.79	169.82	15.20	-42.9	-45.0	23.7	0.00e+00	0	41	0	0	56	4845
2026-01-05 05:25:25.79	169.51	15.13	-43.2	-45.3	24.6	0.00e+00	0	41	0	0	57	4752
2026-01-05 05:25:26.79	169.20	15.05	-43.3	-45.5	24.5	0.00e+00	0	41	0	0	57	4838
2026-01-05 05:25:27.79	168.90	14.97	-43.3	-45.5	24.5	1.10e-06	0	41	0	0	57	4819
2026-01-05 05:25:28.79	168.60	14.89	-43.1	-45.3	24.6	1.10e-06	0	41	0	0	57	4736
2026-01-05 05:25:29.79	168.30	14.81	-43.1	-45.2	24.7	0.00e+00	0	41	0	0	57	4693
2026-01-05 05:25:30.79	168.00	14.73	-43.1	-45.3	24.6	0.00e+00	0	41	0	0	57	4718
2026-01-05 05:25:31.80	167.70	14.65	-43.3	-45.5	24.4	0.00e+00	0	41	0	0	57	4853
2026-01-05 05:25:32.80	167.41	14.57	-43.4	-45.6	24.4	0.00e+00	0	41	0	0	57	4909
2026-01-05 05:25:33.80	167.11	14.49	-43.3	-45.5	24.5	0.00e+00	0	41	0	0	57	4846
2026-01-05 05:25:34.80	166.82	14.41	-43.0	-45.1	24.7	0.00e+00	0	41	0	0	57	4649
2026-01-05 05:25:35.81	166.53	14.33	-42.9	-45.0	24.9	0.00e+00	0	41	0	0	57	4550
2026-01-05 05:25:36.81	166.25	14.24	-42.8	-44.9	24.8	0.00e+00	0	41	0	0	57	4542
2026-01-05 05:25:37.81	165.96	14.16	-42.6	-44.7	25.0	0.00e+00	0	41	0	0	57	4395
2026-01-05 05:25:38.81	165.68	14.08	-42.7	-44.8	24.9	0.00e+00	0	41	0	0	57	4442
2026-01-05 05:25:39.81	165.40	14.00	-43.0	-45.2	24.7	0.00e+00	0	41	0	0	56	4931
2026-01-05 05:25:40.82	165.12	13.92	-43.2	-45.4	24.5	0.00e+00	0	41	0	0	57	4770
2026-01-05 05:25:41.82	164.85	13.84	-43.7	-45.9	24.1	0.00e+00	0	41	0	0	58	4804
2026-01-05 05:25:42.82	164.57	13.75	-43.9	-46.2	23.9	0.00e+00	0	41	0	0	58	4946
2026-01-05 05:25:43.82	164.30	13.67	-44.0	-46.3	23.8	0.00e+00	0	41	0	0	58	5013
2026-01-05 05:25:44.83	164.03	13.59	-43.7	-45.9	24.1	0.00e+00	0	41	0	0	58	4814
2026-01-05 05:25:45.83	163.76	13.51	-43.6	-45.7	24.2	0.00e+00	0	41	0	0	58	4705
2026-01-05 05:25:46.83	163.49	13.42	-43.4	-45.5	24.4	0.00e+00	0	41	0	0	58	4593
2026-01-05 05:25:47.83	163.23	13.34	-43.5	-45.7	23.9	0.00e+00	0	41	0	0	58	4685
2026-01-05 05:25:48.83	162.97	13.26	-43.7	-45.9	24.1	0.00e+00	0	41	0	0	58	4779
2026-01-05 05:25:49.83	162.71	13.18	-43.8	-46.0	24.0	0.00e+00	0	41	0	0	58	4865
2026-01-05 05:25:50.83	162.45	13.09	-43.8	-46.0	24.0	0.00e+00	0	41	0	0	58	4853
2026-01-05 05:25:51.83	162.19	13.01	-43.7	-45.9	24.1	0.00e+00	0	41	0	0	58	4789
2026-01-05 05:25:52.83	161.94	12.93	-43.7	-46.0	24.1	0.00e+00	0	41	0	0	58	4818
2026-01-05 05:25:53.83	161.68	12.85	-43.7	-45.9	24.1	0.00e+00	0	41	0	0	58	4804
2026-01-05 05:25:54.83	161.43	12.76	-43.6	-45.8	24.2	0.00e+00	0	41	0	0	58	4739
2026-01-05 05:25:55.83	161.18	12.68	-43.5	-45.7	24.2	0.00e+00	0	41	0	0	58	4691
2026-01-05 05:25:56.84	160.93	12.60	-43.5	-45.7	24.2	0.00e+00	0	41	0	0	58	4701
2026-01-05 05:25:57.84	160.69	12.51	-43.7	-45.9	24.1	0.00e+00	0	41	0	0	58	4801
2026-01-05 05:25:58.84	160.44	12.43	-43.8	-46.0	24.0	0.00e+00	0	41	0	0	58	4852
2026-01-05 05:25:59.85	160.20	12.35	-43.9	-46.2	23.9	0.00e+00	0	41	0	0	58	4950
2026-01-05 05:26:00.84	159.96	12.26	-43.9	-46.2	23.8	0.00e+00	0	41	0	0	58	4958
2026-01-05 05:26:01.84	159.72	12.18	-44.1	-46.4	23.7	0.00e+00	0	41	0	0	58	5056
2026-01-05 05:26:02.84	159.49	12.10	-44.0	-46.3	23.8	0.00e+00	0	41	0	0	58	5010
2026-01-05 05:26:03.85	159.25	12.02	-44.2	-46.5	23.6	0.00e+00	0	41	0	0	59	4829
2026-01-05 05:26:04.85	159.01	11.93	-44.2	-46.5	23.5	0.00e+00	0	41	0	0	59	4825
2026-01-05 05:26:05.85	158.78	11.85	-44.3	-46.6	23.5	1.13e-03	0	41	0	0	59	4898
2026-01-05 05:26:06.85	158.55	11.77	-44.5	-46.8	23.3	1.13e-03	0	41	0	0	59	5010
2026-01-05 05:26:07.85	158.33	11.69	-44.5	-46.8	23.3	0.00e+00	0	41	0	0	59	5010
2026-01-05 05:26:08.85	158.10	11.60	-44.5	-46.8	23.3	4.37e-03	0	41	0	0	60	4732
2026-01-05 05:26:09.86	157.87	11.52	-44.3	-46.6	23.4	4.37e-03	0	41	0	0	60	4634
2026-01-05 05:26:10.86	157.65	11.44	-44.4	-46.7	14.7	0.00e+00	0	41	0	0	60	4672
2026-01-05 05:26:11.86	157.43	11.36	-44.6	-46.9	23.2	4.29e-03	0	41	0	0	60	4793
2026-01-05 05:26:12.86	157.21	11.27	-44.6	-46.9	23.2	4.29e-03	0	41	0	0	60	4789
2026-01-05 05:26:13.87	156.99	11.19	-44.8	-47.1	23.0	0.00e+00	0	41	0	0	60	4926
2026-01-05 05:26:14.87	156.77	11.11	-44.9	-47.3	22.9	2.20e-03	0	41	0	0	60	4994
2026-01-05 05:26:15.87	156.56	11.03	-44.9	-47.3	22.9	2.20e-03	0	41	0	0	60	4992
2026-01-05 05:26:16.88	156.34	10.94	-44.8	-47.2	23.0	0.00e+00	0	41	0	0	60	4942
2026-01-05 05:26:17.88	156.13	10.86	-44.3	-46.6	23.4	5.21e-04	0	41	0	0	60	4630
2026-01-05 05:26:18.88	155.92	10.78	-44.1	-46.4	23.6	0.00e+00	0	41	0	0	60	4516
2026-01-05 05:26:19.88	155.71	10.70	-44.1	-46.4	23.6	0.00e+00	0	41	0	0	60	4527
2026-01-05 05:26:20.89	155.50	10.62	-44.1	-46.4	23.7	4.23e-05	0	41	0	0	60	4495
2026-01-05 05:26:21.88	155.30	10.54	-44.3	-46.7	23.3	0.00e+00	0	41	0	0	60	4656
2026-01-05 05:26:22.89	155.09	10.45	-44.5	-46.8	23.2	0.00e+00	0	41	0	0	60	4724
2026-01-05 05:26:23.89	154.89	10.37	-44.7	-47.1	23.0	5.89e-04	0	41	0	0	60	4908
2026-01-05 05:26:24.89	154.69	10.29	-44.9	-47.3	22.8	0.00e+00	0	41	0	0	60	5024
2026-01-05 05:26:25.90	154.49	10.21	-44.9	-47.3	22.7	0.00e+00	0	41	0	0	60	5030
2026-01-05 05:26:26.90	154.29	10.13	-44.8	-47.2	22.9	0.00e+00	0	41	0	0	60	4939
2026-01-05 05:26:27.90	154.09	10.05	-44.8	-47.2	22.9	0.00e+00	0	41	0	0	60	4948
2026-01-05 05:26:28.91	153.89	9.97	-44.9	-47.4	22.7	0.00e+00	0	41	0	0	60	5062
2026-01-05 05:26:29.91	153.70	9.89	-45.2	-47.7	22.4	0.00e+00	0	41	0	0	61	4955
2026-01-05 05:26:30.91	153.51	9.81	-45.1	-47.7	22.5	0.00e+00	0	41	0	0	61	4940
2026-01-05 05:26:31.92	153.32	9.73	-45.4	-48.0	22.2	0.00e+00	0	41	0	0	61	5117
2026-01-05 05:26:32.91	153.13	9.65	-45.4	-48.0	22.2	0.00e+00	0	41	0	0	61	5127
2026-01-05 05:26:33.92	152.94	9.57	-45.1	-47.6	22.3	0.00e+00	0	41	0	0	61	4886
2026-01-05 05:26:34.91	152.75	9.49	-45.1	-47.5	22.6	0.00e+00	0	41	0	0	61	4862
2026-01-05 05:26:35.92	152.57	9.41	-45.0	-47.5	22.6	0.00e+00	0	41	0	0	61	4839
2026-01-05 05:26:36.92	152.38	9.33	-45.2	-47.7	22.4	0.00e+00	0	41	0	0	61	4976
2026-01-05 05:26:37.92	152.20	9.25	-45.4	-47.9	22.2	0.00e+00	0	41	0	0	61	5095
2026-01-05 05:26:38.92	152.02	9.17	-45.5	-48.0	22.1	0.00e+00	0	41	0	0	61	5145
2026-01-05 05:26:39.92	151.84	9.09	-45.5	-48.0	22.1	0.00e+00	0	41	0	0	61	5151
2026-01-05 05:26:40.92	151.66	9.02	-45.6	-48.3	21.9	4.46e-05	0	41	0	0	61	5283
2026-01-05 05:26:41.93	151.48	8.94	-51.9	-60.0	12.7	4.46e-05	0	41	0	0	74	9708
2026-01-05 05:26:42.93	151.30	8.86	-53.1	-71.8	3.7	5.80e-02	0	41	104	0	76	33361
2026-01-05 05:26:43.93	151.13	8.78	-53.0	-71.8	3.8	8.45e-01	0	41	104	0	77	31493
2026-01-05 05:26:44.93	150.96	8.70	-53.1	-72.0	3.8	8.45e-01	0	41	104	0	77	32445
2026-01-05 05:26:45.94	150.78	8.62	-53.3	-72.1	3.8	8.47e-01	0	41	104	0	77	32794
2026-01-05 05:26:46.94	150.61	8.55	-53.3	-72.2	3.8	8.47e-01	0	41	104	0	77	33103
2026-01-05 05:26:47.94	150.44	8.47	-53.5	-72.2	3.8	8.46e-01	0	41	104	0	77	33284
2026-01-05 05:26:48.95	150.27	8.39	-53.5	-72.3	3.8	8.46e-01	0	41	104	0	77	33338
2026-01-05 05:26:49.95	150.11	8.31	-53.5	-72.3	3.8	8.46e-01	0	41	104	0	77	33340
2026-01-05 05:26:50.95	149.94	8.24	-53.5	-72.3	3.8	8.46e-01	0	41	104	0	77	33353
2026-01-05 05:26:51.95	149.77	8.16	-53.6	-72.3	3.8	8.46e-01	0	41	104	0	77	33441
2026-01-05 05:26:52.96	149.61	8.08	-53.5	-72.3	3.8	8.47e-01	0	41	104	0	77	33639
2026-01-05 05:26:53.96	149.45	8.01	-53.6	-72.4	3.8	8.47e-01	0	41	104	0	77	33721
2026-01-05 05:26:54.96	149.29	7.93	-53.6	-72.4	3.8	8.47e-01	0	41	104	0	77	33888
2026-01-05 05:26:55.97	149.12	7.85	-53.3	-72.4	3.8	8.46e-01	0	41	104	0	77	33852
2026-01-05 05:26:56.97	148.96	7.78	-53.3	-72.4	3.8	8.46e-01	0	41	104	0	77	33867
2026-01-05 05:26:57.97	148.81	7.70	-53.6	-72.4	3.8	8.46e-01	0	41	104	0	77	33906
2026-01-05 05:26:58.97	148.65	7.63	-53.4	-72.4	3.8	8.47e-01	0	41	104	0	77	33849
2026-01-05 05:26:59.97	148.49	7.55	-53.6	-72.4	3.8	8.48e-01	0	41	104	0	77	33837
2026-01-05 05:27:00.97	148.34	7.48	-53.5	-72.4	3.8	8.48e-01	0	41	104	0	77	33781
2026-01-05 05:27:01.98	148.19	7.40	-53.4	-72.4	3.8	8.47e-01	0	41	104	0	77	33727
2026-01-05 05:27:02.98	148.03	7.33	-53.3	-72.4	3.8	8.47e-01	0	41	104	0	77	33721
2026-01-05 05:27:03.98	147.88	7.25	-53.1	-72.3	3.8	8.46e-01	0	41	104	0	77	33624
2026-01-05 05:27:04.98	147.73	7.18	-53.3	-72.3	3.8	8.46e-01	0	41	104	0	77	33609
2026-01-05 05:27:05.98	147.58	7.11	-53.3	-72.3	3.8	8.47e-01	0	41	104	0	77	33581
2026-01-05 05:27:06.98	147.44	7.03	-53.3	-72.3	3.8	8.47e-01	0	41	104	0	77	33663
2026-01-05 05:27:07.98	147.29	6.96	-53.3	-72.3	3.8	8.47e-01	0	41	104	0	77	33485
2026-01-05 05:27:08.99	147.14	6.88	-53.3	-72.3	3.8	8.48e-01	0	41	104	0	77	33543
2026-01-05 05:27:09.99	147.00	6.81	-53.3	-72.3	3.8	8.47e-01	0	41	104	0	77	33572
2026-01-05 05:27:10.99	146.85	6.74	-53.3	-72.3	3.8	8.47e-01	0	41	104	0	77	33630
2026-01-05 05:27:11.99	146.71	6.66	-53.3	-72.3	3.8	8.47e-01	0	41	104	0	77	33558
2026-01-05 05:27:12.99	146.57	6.59	-53.3	-72.3	3.8	8.47e-01	0	41	104	0	77	33537
2026-01-05 05:27:13.99	146.43	6.52	-53.3	-72.3	3.8	8.47e-01	0	41	104	0	77	33539
2026-01-05 05:27:14.99	146.29	6.45	-53.3	-72.3	3.8	8.47e-01	0	41	104	0	77	33580
2026-01-05 05:27:15.99	146.15	6.37	-53.3	-72.3	3.8	8.47e-01	0	41	104	0	77	33505
2026-01-05 05:27:17.00	146.01	6.30	-53.3	-72.3	3.8	8.47e-01	0	41	104	0	77	33592
2026-01-05 05:27:18.00	145.87	6.23	-53.3	-72.3	3.8	8.48e-01	0	41	104	0	77	33639
2026-01-05 05:27:19.00	145.74	6.16	-53.3	-72.3	3.8	8.47e-01	0	41	104	0	77	33412
2026-01-05 05:27:20.00	145.60	6.09	-53.3	-72.3	3.8	8.48e-01	0	41	104	0	77	33510
2026-01-05 05:27:21.00	145.47	6.01	-53.3	-72.3	3.8	8.48e-01	0	41	104	0	77	33568
2026-01-05 05:27:22.00	145.33	5.94	-53.3	-72.3	3.8	8.48e-01	0	41	104	0	77	33484
2026-01-05 05:27:23.00	145.20	5.87	-53.3	-72.3	3.8	8.46e-01	0	41	104	0	77	33505
2026-01-05 05:27:24.00	145.07	5.80	-53.3	-72.3	3.8	8.46e-01	0	41	104	0	77	33507
2026-01-05 05:27:25.00	144.94	5.73	-53.3	-72.3	3.8	8.47e-01	0	41	104	0	77	33480
2026-01-05 05:27:26.01	144.81	5.66	-53.3	-72.3	3.8	8.49e-01	0	41	104	0	77	33508
2026-01-05 05:27:27.01	144.68	5.59	-53.3	-72.3	3.8	8.49e-01	0	41	104	0	77	33581
2026-01-05 05:27:28.01	144.55	5.52	-53.3	-72.3	3.8	8.47e-01	0	41	104	0	77	33573
2026-01-05 05:27:29.01	144.42	5.45	-53.3	-72.3	3.8	8.47e-01	0	41	104	0	77	33545
2026-01-05 05:27:30.01	144.30	5.38	-53.3	-72.3	3.8	8.47e-01	0	41	104	0	77	33443
2026-01-05 05:27:31.01	144.17	5.31	-53.3	-72.3	3.8	8.46e-01	0	41	104	0	77	33568
2026-01-05 05:27:32.01	144.05	5.24	-53.3	-72.3	3.8	8.47e-01	0	41	104	0	77	33565
2026-01-05 05:27:33.01	143.92	5.17	-53.3	-72.3	3.8	8.47e-01	0	41	104	0	77	33584
2026-01-05 05:27:34.01	143.80	5.10	-53.3	-72.3	3.8	8.47e-01	0	41	104	0	77	33556

#Closed at: 2026-01-05 05:27:35
#Recorded file [0 MB]: D:/Data/31040_260105_082026.dat