passes_logs/2026/01/05/T1/T1__20260105_085710_AQUA_rec.log

#Pass ID: 20260105_085710_AQUA
#Satellite: AQUA
#Configuration: AQUA
#almurnet v.1.7.20251203
#Start time: 2026-01-05 08:57:11

#Version: 2.0.20230620
#Station: T1
#Location: 37.570604 lon 55.790049 lat
#TLE: 1 27424U 02022A   26003.93831470  .00001925  00000+0  39553-3 0  9995
#TLE: 2 27424  98.4067 330.1809 0002003  92.1713 343.8415 14.61796291259276

#Time	Az	El	Level	Level2	SNR	BER	BlckErr	Temp	State	Recorded	gain1	gain2
2026-01-05 08:57:11.11	60.11	5.01	-51.6	-72.3	3.8	7.48e-01	0	38	0	0	74	39625
2026-01-05 08:57:12.11	59.96	5.04	-51.7	-72.3	3.8	7.47e-01	0	38	104	0	74	39697
2026-01-05 08:57:13.11	59.80	5.07	-51.7	-72.3	3.8	7.45e-01	0	38	104	0	74	39699
2026-01-05 08:57:14.12	59.64	5.10	-51.7	-72.2	3.8	7.46e-01	0	38	104	0	74	39576
2026-01-05 08:57:15.12	59.48	5.13	-51.7	-72.3	3.8	7.46e-01	0	37	104	0	74	39737
2026-01-05 08:57:16.12	59.32	5.16	-51.7	-72.3	3.8	7.44e-01	0	38	104	0	74	39692
2026-01-05 08:57:17.13	59.16	5.19	-51.7	-72.3	3.8	7.49e-01	0	38	104	0	74	39649
2026-01-05 08:57:18.13	59.00	5.22	-51.7	-72.3	3.8	7.47e-01	0	38	104	0	74	39763
2026-01-05 08:57:19.14	58.84	5.24	-51.7	-72.3	3.8	7.42e-01	0	38	104	0	74	39645
2026-01-05 08:57:20.14	58.68	5.27	-51.7	-72.3	3.8	7.48e-01	0	38	104	0	74	39657
2026-01-05 08:57:21.15	58.52	5.30	-51.7	-72.3	3.8	7.43e-01	0	38	104	0	74	39730
2026-01-05 08:57:22.15	58.36	5.33	-51.7	-72.3	3.8	7.47e-01	0	38	104	0	74	39659
2026-01-05 08:57:23.16	58.20	5.36	-51.7	-72.3	3.8	7.46e-01	0	38	104	0	74	39696
2026-01-05 08:57:24.16	58.04	5.39	-51.7	-72.3	3.8	7.48e-01	0	38	104	0	74	39666
2026-01-05 08:57:25.16	57.87	5.41	-51.7	-72.3	3.8	7.44e-01	0	38	104	0	74	39818
2026-01-05 08:57:26.17	57.71	5.44	-51.7	-72.3	3.8	7.45e-01	0	38	104	0	74	39690
2026-01-05 08:57:27.17	57.55	5.47	-51.7	-72.3	3.8	7.46e-01	0	38	104	0	74	39648
2026-01-05 08:57:28.18	57.38	5.50	-51.6	-72.3	3.8	7.44e-01	0	38	104	0	74	39641
2026-01-05 08:57:29.18	57.22	5.52	-51.7	-72.3	3.8	7.44e-01	0	38	104	0	74	39680
2026-01-05 08:57:30.18	57.06	5.55	-51.7	-72.3	3.8	7.47e-01	0	38	104	0	74	39684
2026-01-05 08:57:31.19	56.89	5.58	-51.7	-72.3	3.8	7.47e-01	0	38	104	0	74	39652
2026-01-05 08:57:32.19	56.73	5.60	-51.7	-72.3	3.8	7.45e-01	0	38	104	0	74	39607
2026-01-05 08:57:33.20	56.56	5.63	-51.7	-72.3	3.8	7.45e-01	0	38	104	0	74	39684
2026-01-05 08:57:34.20	56.40	5.66	-51.7	-72.3	3.8	7.46e-01	0	38	104	0	74	39735
2026-01-05 08:57:35.21	56.23	5.68	-51.7	-72.3	3.8	7.48e-01	0	38	104	0	74	39632
2026-01-05 08:57:36.21	56.07	5.71	-51.7	-72.2	3.8	7.46e-01	0	38	104	0	74	39557
2026-01-05 08:57:37.21	55.90	5.73	-51.7	-72.3	3.8	7.46e-01	0	38	104	0	74	39708
2026-01-05 08:57:38.22	55.73	5.76	-51.7	-72.3	3.8	7.46e-01	0	38	104	0	74	39670
2026-01-05 08:57:39.22	55.57	5.79	-51.7	-72.3	3.8	7.46e-01	0	38	104	0	74	39647
2026-01-05 08:57:40.23	55.40	5.81	-51.7	-72.3	3.8	7.47e-01	0	38	104	0	74	39659
2026-01-05 08:57:41.23	55.23	5.84	-51.7	-72.3	3.8	7.47e-01	0	38	104	0	74	39691
2026-01-05 08:57:42.24	55.06	5.86	-51.7	-72.3	3.8	7.47e-01	0	38	104	0	74	39590
2026-01-05 08:57:43.24	54.90	5.88	-51.7	-72.3	3.8	7.46e-01	0	38	104	0	74	39609
2026-01-05 08:57:44.24	54.73	5.91	-51.7	-72.3	3.8	7.46e-01	0	38	104	0	74	39670
2026-01-05 08:57:45.25	54.56	5.93	-51.7	-72.3	3.8	7.44e-01	0	38	104	0	74	39723
2026-01-05 08:57:46.25	54.39	5.96	-51.7	-72.3	3.8	7.46e-01	0	38	104	0	74	39679
2026-01-05 08:57:47.26	54.22	5.98	-51.7	-72.3	3.8	7.47e-01	0	38	104	0	74	39672
2026-01-05 08:57:48.26	54.05	6.01	-51.7	-72.3	3.8	7.46e-01	0	38	104	0	74	39675
2026-01-05 08:57:49.26	53.88	6.03	-51.7	-72.3	3.8	7.46e-01	0	38	104	0	74	39693
2026-01-05 08:57:50.27	53.71	6.05	-51.7	-72.3	3.8	7.44e-01	0	38	104	0	74	39756
2026-01-05 08:57:51.27	53.54	6.08	-51.7	-72.3	3.8	7.48e-01	0	38	104	0	74	39723
2026-01-05 08:57:52.28	53.37	6.10	-51.7	-72.3	3.8	7.52e-01	0	38	104	0	74	39668
2026-01-05 08:57:53.28	53.20	6.12	-51.7	-72.3	3.8	7.43e-01	0	38	104	0	74	39692
2026-01-05 08:57:54.28	53.03	6.14	-51.7	-72.3	3.8	7.47e-01	0	38	104	0	74	39746
2026-01-05 08:57:55.28	52.86	6.17	-51.7	-72.3	3.8	7.47e-01	0	38	104	0	74	39785
2026-01-05 08:57:56.29	52.68	6.19	-51.8	-72.3	3.8	7.45e-01	0	38	104	0	74	39727
2026-01-05 08:57:57.29	52.51	6.21	-51.8	-72.3	3.8	7.46e-01	0	39	104	0	74	39813
2026-01-05 08:57:58.30	52.34	6.23	-51.7	-72.3	3.8	7.44e-01	0	39	104	0	74	39754
2026-01-05 08:57:59.30	52.17	6.25	-51.7	-72.3	3.8	7.47e-01	0	39	104	0	74	39793
2026-01-05 08:58:00.30	51.99	6.27	-51.7	-72.3	3.8	7.42e-01	0	38	104	0	74	39656
2026-01-05 08:58:01.31	51.82	6.30	-51.8	-72.3	3.8	7.45e-01	0	38	104	0	74	39617
2026-01-05 08:58:02.31	51.65	6.32	-51.8	-72.3	3.8	7.47e-01	0	39	104	0	74	39800
2026-01-05 08:58:03.32	51.47	6.34	-51.8	-72.3	3.8	7.48e-01	0	38	104	0	74	39652
2026-01-05 08:58:04.32	51.30	6.36	-51.8	-72.3	3.8	7.48e-01	0	38	104	0	74	39743
2026-01-05 08:58:05.33	51.12	6.38	-51.8	-72.3	3.8	7.46e-01	0	38	104	0	74	39721
2026-01-05 08:58:06.33	50.95	6.40	-51.7	-72.3	3.8	7.47e-01	0	38	104	0	74	39744
2026-01-05 08:58:07.33	50.77	6.42	-51.8	-72.3	3.8	7.45e-01	0	39	104	0	74	39740
2026-01-05 08:58:08.34	50.60	6.44	-51.8	-72.3	3.8	7.44e-01	0	39	104	0	74	39858
2026-01-05 08:58:09.34	50.42	6.46	-51.8	-72.3	3.8	7.43e-01	0	38	104	0	74	39725
2026-01-05 08:58:10.35	50.25	6.48	-51.7	-72.3	3.8	7.49e-01	0	38	104	0	74	39767
2026-01-05 08:58:11.35	50.07	6.49	-51.8	-72.3	3.8	7.43e-01	0	39	104	0	74	39761
2026-01-05 08:58:12.35	49.89	6.51	-51.7	-72.3	3.8	7.44e-01	0	39	104	0	74	39752
2026-01-05 08:58:13.36	49.72	6.53	-51.8	-72.3	3.8	7.48e-01	0	39	104	0	74	39738
2026-01-05 08:58:14.36	49.54	6.55	-51.8	-72.3	3.8	7.46e-01	0	39	104	0	74	39730
2026-01-05 08:58:15.37	49.36	6.57	-51.8	-72.3	3.8	7.49e-01	0	39	104	0	74	39799
2026-01-05 08:58:16.37	49.19	6.59	-51.8	-72.3	3.8	7.44e-01	0	39	104	0	74	39749
2026-01-05 08:58:17.38	49.01	6.60	-51.7	-72.3	3.8	7.49e-01	0	39	104	0	74	39656
2026-01-05 08:58:18.38	48.83	6.62	-51.7	-72.3	3.8	7.45e-01	0	39	104	0	74	39686
2026-01-05 08:58:19.38	48.65	6.64	-51.8	-72.3	3.8	7.44e-01	0	39	104	0	74	39768
2026-01-05 08:58:20.39	48.47	6.65	-51.8	-72.3	3.8	7.43e-01	0	39	104	0	74	39725
2026-01-05 08:58:21.39	48.30	6.67	-51.7	-72.3	3.8	7.45e-01	0	39	104	0	74	39739
2026-01-05 08:58:22.40	48.12	6.69	-51.7	-72.3	3.8	7.47e-01	0	39	104	0	74	39670
2026-01-05 08:58:23.40	47.94	6.70	-51.7	-72.3	3.8	7.43e-01	0	39	104	0	74	39797
2026-01-05 08:58:24.41	47.76	6.72	-51.7	-72.3	3.8	7.45e-01	0	39	104	0	74	39717
2026-01-05 08:58:25.41	47.58	6.74	-51.7	-72.3	3.8	7.45e-01	0	39	104	0	74	39712
2026-01-05 08:58:26.42	47.40	6.75	-51.7	-72.3	3.8	7.47e-01	0	39	104	0	74	39723
2026-01-05 08:58:27.42	47.22	6.77	-51.8	-72.3	3.8	7.44e-01	0	39	104	0	74	39742
2026-01-05 08:58:28.42	47.04	6.78	-51.7	-72.3	3.8	7.50e-01	0	39	104	0	74	39704
2026-01-05 08:58:29.43	46.86	6.80	-51.7	-72.3	3.8	7.45e-01	0	39	104	0	74	39679
2026-01-05 08:58:30.43	46.68	6.81	-51.7	-72.3	3.8	7.46e-01	0	39	104	0	74	39713
2026-01-05 08:58:31.44	46.50	6.83	-51.7	-72.3	3.8	7.48e-01	0	39	104	0	74	39689
2026-01-05 08:58:32.44	46.32	6.84	-51.7	-72.3	3.8	7.47e-01	0	39	104	0	74	39692
2026-01-05 08:58:33.45	46.14	6.85	-51.7	-72.3	3.8	7.45e-01	0	39	104	0	74	39725
2026-01-05 08:58:34.45	45.96	6.87	-51.7	-72.3	3.8	7.47e-01	0	39	104	0	74	39705
2026-01-05 08:58:35.46	45.77	6.88	-51.7	-72.3	3.8	7.45e-01	0	39	104	0	74	39688
2026-01-05 08:58:36.46	45.59	6.89	-51.7	-72.3	3.8	7.49e-01	0	39	104	0	74	39687
2026-01-05 08:58:37.46	45.41	6.91	-51.7	-72.3	3.8	7.42e-01	0	39	104	0	74	39722
2026-01-05 08:58:38.47	45.23	6.92	-51.7	-72.3	3.8	7.49e-01	0	39	104	0	74	39658
2026-01-05 08:58:39.47	45.05	6.93	-51.7	-72.3	3.8	7.47e-01	0	39	104	0	74	39657
2026-01-05 08:58:40.48	44.87	6.94	-51.7	-72.3	3.8	7.44e-01	0	39	104	0	74	39647
2026-01-05 08:58:41.48	44.68	6.96	-51.7	-72.3	3.8	7.45e-01	0	39	104	0	74	39636
2026-01-05 08:58:42.48	44.50	6.97	-51.7	-72.3	3.8	7.47e-01	0	39	104	0	74	39601
2026-01-05 08:58:43.49	44.32	6.98	-51.7	-72.3	3.8	7.45e-01	0	39	104	0	74	39666
2026-01-05 08:58:44.49	44.14	6.99	-51.7	-72.3	3.8	7.49e-01	0	39	104	0	74	39654
2026-01-05 08:58:45.50	43.95	7.00	-51.7	-72.3	3.8	7.46e-01	0	39	104	0	74	39659
2026-01-05 08:58:46.50	43.77	7.01	-51.7	-72.3	3.8	7.45e-01	0	39	104	0	74	39646
2026-01-05 08:58:47.51	43.59	7.02	-51.7	-72.3	3.8	7.42e-01	0	39	104	0	74	39677
2026-01-05 08:58:48.51	43.40	7.03	-51.7	-72.3	3.8	7.47e-01	0	39	104	0	74	39700
2026-01-05 08:58:49.51	43.22	7.04	-51.7	-72.3	3.8	7.43e-01	0	39	104	0	74	39618
2026-01-05 08:58:50.52	43.04	7.05	-51.7	-72.3	3.8	7.44e-01	0	39	104	0	74	39596
2026-01-05 08:58:51.52	42.85	7.06	-51.7	-72.3	3.8	7.42e-01	0	39	104	0	74	39642
2026-01-05 08:58:52.53	42.67	7.07	-51.7	-72.3	3.8	7.44e-01	0	39	104	0	74	39676
2026-01-05 08:58:53.53	42.48	7.08	-51.7	-72.3	3.8	7.49e-01	0	39	104	0	74	39673
2026-01-05 08:58:54.53	42.30	7.09	-51.7	-72.3	3.8	7.44e-01	0	39	104	0	74	39681
2026-01-05 08:58:55.54	42.12	7.10	-51.7	-72.2	3.8	7.46e-01	0	39	104	0	74	39560
2026-01-05 08:58:56.54	41.93	7.10	-51.7	-72.3	3.8	7.44e-01	0	39	104	0	74	39690
2026-01-05 08:58:57.55	41.75	7.11	-51.7	-72.3	3.8	7.48e-01	0	39	104	0	74	39591
2026-01-05 08:58:58.55	41.56	7.12	-51.7	-72.3	3.8	7.45e-01	0	39	104	0	74	39613
2026-01-05 08:58:59.56	41.38	7.13	-51.7	-72.3	3.8	7.45e-01	0	39	104	0	74	39650
2026-01-05 08:59:00.56	41.19	7.13	-51.7	-72.3	3.8	7.48e-01	0	39	104	0	74	39629
2026-01-05 08:59:01.56	41.01	7.14	-51.7	-72.3	3.8	7.48e-01	0	39	104	0	74	39624
2026-01-05 08:59:02.57	40.82	7.15	-51.7	-72.3	3.8	7.49e-01	0	39	104	0	74	39626
2026-01-05 08:59:03.57	40.64	7.15	-51.7	-72.3	3.8	7.45e-01	0	39	104	0	74	39596
2026-01-05 08:59:04.58	40.45	7.16	-51.7	-72.3	3.8	7.44e-01	0	39	104	0	74	39615
2026-01-05 08:59:05.58	40.27	7.17	-51.7	-72.3	3.8	7.45e-01	0	39	104	0	74	39637
2026-01-05 08:59:06.58	40.08	7.17	-51.7	-72.3	3.8	7.45e-01	0	39	104	0	74	39653
2026-01-05 08:59:07.59	39.90	7.18	-51.7	-72.3	3.8	7.47e-01	0	39	104	0	74	39689
2026-01-05 08:59:08.59	39.71	7.18	-51.7	-72.3	3.8	7.43e-01	0	39	104	0	74	39680
2026-01-05 08:59:09.59	39.53	7.19	-51.7	-72.3	3.8	7.50e-01	0	39	104	0	74	39637
2026-01-05 08:59:10.60	39.34	7.19	-51.7	-72.2	3.8	7.48e-01	0	39	104	0	74	39584
2026-01-05 08:59:11.60	39.16	7.19	-51.7	-72.3	3.8	7.45e-01	0	39	104	0	74	39690
2026-01-05 08:59:12.61	38.97	7.20	-51.7	-72.3	3.8	7.48e-01	0	39	104	0	74	39619
2026-01-05 08:59:13.61	38.78	7.20	-51.7	-72.3	3.8	7.44e-01	0	39	104	0	74	39672
2026-01-05 08:59:14.61	38.60	7.21	-51.7	-72.3	3.8	7.47e-01	0	39	104	0	74	39616
2026-01-05 08:59:15.62	38.41	7.21	-51.7	-72.3	3.8	7.45e-01	0	39	104	0	74	39637
2026-01-05 08:59:16.62	38.23	7.21	-51.7	-72.3	3.8	7.46e-01	0	39	104	0	74	39663
2026-01-05 08:59:17.63	38.04	7.21	-51.7	-72.3	3.8	7.45e-01	0	39	104	0	74	39599
2026-01-05 08:59:18.63	37.86	7.22	-51.7	-72.3	3.8	7.45e-01	0	39	104	0	74	39668
2026-01-05 08:59:19.63	37.67	7.22	-51.7	-72.3	3.8	7.47e-01	0	39	104	0	74	39638
2026-01-05 08:59:20.64	37.48	7.22	-51.7	-72.3	3.8	7.48e-01	0	39	104	0	74	39622
2026-01-05 08:59:21.64	37.30	7.22	-51.7	-72.2	3.8	7.46e-01	0	39	104	0	74	39579
2026-01-05 08:59:22.65	37.11	7.22	-51.7	-72.3	3.8	7.46e-01	0	39	104	0	74	39610
2026-01-05 08:59:23.65	36.93	7.23	-51.7	-72.3	3.8	7.45e-01	0	39	104	0	74	39698
2026-01-05 08:59:24.66	36.74	7.23	-51.7	-72.3	3.8	7.45e-01	0	39	104	0	74	39696
2026-01-05 08:59:25.66	36.55	7.23	-51.7	-72.3	3.8	7.49e-01	0	39	104	0	74	39717
2026-01-05 08:59:26.67	36.37	7.23	-51.7	-72.2	3.8	7.45e-01	0	39	104	0	74	39552
2026-01-05 08:59:27.67	36.18	7.23	-51.7	-72.3	3.8	7.47e-01	0	39	104	0	74	39603
2026-01-05 08:59:28.67	36.00	7.23	-51.7	-72.2	3.8	7.44e-01	0	39	104	0	74	39576
2026-01-05 08:59:29.68	35.81	7.23	-51.7	-72.3	3.8	7.46e-01	0	39	104	0	74	39644
2026-01-05 08:59:30.68	35.62	7.23	-51.7	-72.3	3.8	7.47e-01	0	39	104	0	74	39656
2026-01-05 08:59:31.68	35.44	7.22	-51.7	-72.3	3.8	7.45e-01	0	39	104	0	74	39635
2026-01-05 08:59:32.69	35.25	7.22	-51.7	-72.3	3.8	7.47e-01	0	39	104	0	74	39617
2026-01-05 08:59:33.69	35.07	7.22	-51.7	-72.2	3.8	7.44e-01	0	39	104	0	74	39582
2026-01-05 08:59:34.70	34.88	7.22	-51.7	-72.3	3.8	7.48e-01	0	39	104	0	74	39627
2026-01-05 08:59:35.70	34.69	7.22	-51.7	-72.3	3.8	7.46e-01	0	39	104	0	74	39618
2026-01-05 08:59:36.70	34.51	7.21	-51.7	-72.3	3.8	7.48e-01	0	39	104	0	74	39616
2026-01-05 08:59:37.71	34.32	7.21	-51.7	-72.2	3.8	7.43e-01	0	39	104	0	74	39533
2026-01-05 08:59:38.71	34.14	7.21	-51.7	-72.3	3.8	7.48e-01	0	39	104	0	74	39623
2026-01-05 08:59:39.72	33.95	7.21	-51.7	-72.3	3.8	7.42e-01	0	39	104	0	74	39734
2026-01-05 08:59:40.72	33.76	7.20	-51.7	-72.2	3.8	7.44e-01	0	39	104	0	74	39589
2026-01-05 08:59:41.72	33.58	7.20	-51.7	-72.2	3.8	7.46e-01	0	39	104	0	74	39561
2026-01-05 08:59:42.73	33.39	7.20	-51.7	-72.3	3.8	7.46e-01	0	39	104	0	74	39617
2026-01-05 08:59:43.73	33.21	7.19	-51.7	-72.3	3.8	7.47e-01	0	39	104	0	74	39635
2026-01-05 08:59:44.74	33.02	7.19	-51.7	-72.3	3.8	7.46e-01	0	39	104	0	74	39642
2026-01-05 08:59:45.74	32.84	7.18	-51.7	-72.3	3.8	7.42e-01	0	39	104	0	74	39593
2026-01-05 08:59:46.75	32.65	7.18	-51.7	-72.3	3.8	7.46e-01	0	39	104	0	74	39620
2026-01-05 08:59:47.75	32.47	7.17	-51.7	-72.3	3.8	7.44e-01	0	39	104	0	74	39700
2026-01-05 08:59:48.75	32.28	7.17	-51.7	-72.3	3.8	7.47e-01	0	39	104	0	74	39678
2026-01-05 08:59:49.76	32.10	7.16	-51.7	-72.3	3.8	7.43e-01	0	39	104	0	74	39610
2026-01-05 08:59:50.76	31.91	7.15	-51.7	-72.3	3.8	7.46e-01	0	39	104	0	74	39666
2026-01-05 08:59:51.77	31.73	7.15	-51.7	-72.3	3.8	7.48e-01	0	39	104	0	74	39650
2026-01-05 08:59:52.77	31.54	7.14	-51.7	-72.3	3.8	7.45e-01	0	39	104	0	74	39641
2026-01-05 08:59:53.78	31.36	7.13	-51.7	-72.3	3.8	7.44e-01	0	39	104	0	74	39678
2026-01-05 08:59:54.78	31.17	7.13	-51.7	-72.3	3.8	7.48e-01	0	39	104	0	74	39695
2026-01-05 08:59:55.79	30.99	7.12	-51.7	-72.3	3.8	7.45e-01	0	39	104	0	74	39670
2026-01-05 08:59:56.79	30.80	7.11	-51.7	-72.3	3.8	7.46e-01	0	39	104	0	74	39678
2026-01-05 08:59:57.79	30.62	7.10	-51.7	-72.3	3.8	7.46e-01	0	39	104	0	74	39645
2026-01-05 08:59:58.80	30.43	7.10	-51.7	-72.3	3.8	7.47e-01	0	39	104	0	74	39649
2026-01-05 08:59:59.80	30.25	7.09	-51.7	-72.3	3.8	7.49e-01	0	39	104	0	74	39653
2026-01-05 09:00:00.81	30.07	7.08	-51.7	-72.3	3.8	7.47e-01	0	39	104	0	74	39706
2026-01-05 09:00:01.81	29.88	7.07	-51.7	-72.3	3.8	7.43e-01	0	39	104	0	74	39593
2026-01-05 09:00:02.82	29.70	7.06	-51.7	-72.3	3.8	7.46e-01	0	39	104	0	74	39685
2026-01-05 09:00:03.82	29.51	7.05	-51.7	-72.3	3.8	7.41e-01	0	39	104	0	74	39611
2026-01-05 09:00:04.83	29.33	7.04	-51.7	-72.3	3.8	7.43e-01	0	39	104	0	74	39776
2026-01-05 09:00:05.83	29.15	7.03	-51.7	-72.3	3.8	7.44e-01	0	39	104	0	74	39759
2026-01-05 09:00:06.83	28.97	7.02	-51.7	-72.2	3.8	7.47e-01	0	39	104	0	74	39569
2026-01-05 09:00:07.84	28.78	7.01	-51.7	-72.3	3.8	7.47e-01	0	39	104	0	74	39611
2026-01-05 09:00:08.84	28.60	7.00	-51.7	-72.3	3.8	7.42e-01	0	39	104	0	74	39668
2026-01-05 09:00:09.85	28.42	6.99	-51.7	-72.3	3.8	7.45e-01	0	39	104	0	74	39653
2026-01-05 09:00:10.85	28.23	6.98	-51.7	-72.3	3.8	7.46e-01	0	39	104	0	74	39648
2026-01-05 09:00:11.85	28.05	6.97	-51.7	-72.3	3.8	7.45e-01	0	39	104	0	74	39643
2026-01-05 09:00:12.86	27.87	6.96	-51.7	-72.3	3.8	7.50e-01	0	39	104	0	74	39698
2026-01-05 09:00:13.86	27.69	6.94	-51.7	-72.3	3.8	7.46e-01	0	39	104	0	74	39707
2026-01-05 09:00:14.87	27.50	6.93	-51.7	-72.2	3.8	7.45e-01	0	39	104	0	74	39587
2026-01-05 09:00:15.87	27.32	6.92	-51.7	-72.3	3.8	7.47e-01	0	39	104	0	74	39692
2026-01-05 09:00:16.88	27.14	6.91	-51.7	-72.3	3.8	7.44e-01	0	39	104	0	74	39681
2026-01-05 09:00:17.88	26.96	6.89	-51.7	-72.3	3.8	7.49e-01	0	39	104	0	74	39644
2026-01-05 09:00:18.88	26.78	6.88	-51.7	-72.3	3.8	7.44e-01	0	39	104	0	74	39730
2026-01-05 09:00:19.89	26.60	6.87	-51.7	-72.3	3.8	7.45e-01	0	39	104	0	74	39680
2026-01-05 09:00:20.89	26.42	6.85	-51.7	-72.3	3.8	7.44e-01	0	39	104	0	74	39730
2026-01-05 09:00:21.90	26.24	6.84	-51.7	-72.3	3.8	7.46e-01	0	39	104	0	74	39672
2026-01-05 09:00:22.90	26.06	6.83	-51.7	-72.3	3.8	7.49e-01	0	39	104	0	74	39727
2026-01-05 09:00:23.91	25.87	6.81	-51.7	-72.3	3.8	7.44e-01	0	39	104	0	74	39778
2026-01-05 09:00:24.91	25.70	6.80	-51.7	-72.3	3.8	7.46e-01	0	40	104	0	74	39734
2026-01-05 09:00:25.91	25.52	6.78	-51.7	-72.3	3.8	7.47e-01	0	39	104	0	74	39657
2026-01-05 09:00:26.92	25.34	6.77	-51.7	-72.3	3.8	7.48e-01	0	39	104	0	74	39679
2026-01-05 09:00:27.92	25.16	6.75	-51.7	-72.3	3.8	7.44e-01	0	39	104	0	74	39713
2026-01-05 09:00:28.93	24.98	6.74	-51.7	-72.3	3.8	7.44e-01	0	39	104	0	74	39725
2026-01-05 09:00:29.93	24.80	6.72	-51.7	-72.3	3.8	7.51e-01	0	39	104	0	74	39676
2026-01-05 09:00:30.93	24.62	6.71	-51.7	-72.3	3.8	7.45e-01	0	39	104	0	74	39700
2026-01-05 09:00:31.94	24.44	6.69	-51.7	-72.3	3.8	7.48e-01	0	39	104	0	74	39729
2026-01-05 09:00:32.94	24.26	6.67	-51.7	-72.3	3.8	7.45e-01	0	39	104	0	74	39689
2026-01-05 09:00:33.95	24.08	6.66	-51.7	-72.3	3.8	7.46e-01	0	39	104	0	74	39731
2026-01-05 09:00:34.95	23.91	6.64	-51.7	-72.3	3.8	7.45e-01	0	39	104	0	74	39778
2026-01-05 09:00:35.95	23.73	6.62	-51.7	-72.3	3.8	7.47e-01	0	39	104	0	74	39699
2026-01-05 09:00:36.96	23.55	6.60	-51.7	-72.3	3.8	7.47e-01	0	39	104	0	74	39685
2026-01-05 09:00:37.96	23.38	6.59	-51.7	-72.3	3.8	7.47e-01	0	39	104	0	74	39722
2026-01-05 09:00:38.97	23.20	6.57	-51.7	-72.3	3.8	7.46e-01	0	39	104	0	74	39688
2026-01-05 09:00:39.97	23.02	6.55	-51.7	-72.3	3.8	7.44e-01	0	39	104	0	74	39725
2026-01-05 09:00:40.97	22.85	6.53	-51.7	-72.3	3.8	7.44e-01	0	39	104	0	74	39721
2026-01-05 09:00:41.98	22.67	6.51	-51.8	-72.3	3.8	7.49e-01	0	39	104	0	74	39774
2026-01-05 09:00:42.98	22.49	6.50	-51.7	-72.3	3.8	7.46e-01	0	39	104	0	74	39850
2026-01-05 09:00:43.99	22.32	6.48	-51.7	-72.3	3.8	7.48e-01	0	39	104	0	74	39765
2026-01-05 09:00:44.99	22.14	6.46	-51.7	-72.3	3.8	7.48e-01	0	39	104	0	74	39756
2026-01-05 09:00:46.00	21.97	6.44	-51.7	-72.3	3.8	7.47e-01	0	39	104	0	74	39849
2026-01-05 09:00:47.00	21.79	6.42	-51.7	-72.3	3.8	7.44e-01	0	39	104	0	74	39809
2026-01-05 09:00:48.00	21.62	6.40	-51.7	-72.3	3.8	7.50e-01	0	39	104	0	74	39785
2026-01-05 09:00:49.01	21.44	6.38	-51.8	-72.3	3.8	7.48e-01	0	39	104	0	74	39797
2026-01-05 09:00:50.01	21.27	6.36	-51.7	-72.3	3.8	7.42e-01	0	39	104	0	74	39740
2026-01-05 09:00:51.02	21.09	6.34	-51.7	-72.3	3.8	7.47e-01	0	39	104	0	74	39693
2026-01-05 09:00:52.02	20.92	6.32	-51.7	-72.3	3.8	7.45e-01	0	39	104	0	74	39793
2026-01-05 09:00:53.03	20.75	6.30	-51.7	-72.3	3.8	7.48e-01	0	39	104	0	74	39769
2026-01-05 09:00:54.03	20.57	6.28	-51.7	-72.3	3.8	7.47e-01	0	39	104	0	74	39784
2026-01-05 09:00:55.03	20.40	6.25	-51.7	-72.3	3.8	7.43e-01	0	39	104	0	74	39798
2026-01-05 09:00:56.04	20.23	6.23	-51.7	-72.3	3.8	7.45e-01	0	40	104	0	74	39760
2026-01-05 09:00:57.05	20.06	6.21	-51.8	-72.3	3.8	7.47e-01	0	39	104	0	74	39815
2026-01-05 09:00:58.05	19.88	6.19	-51.6	-72.3	3.8	7.46e-01	0	39	104	0	74	39807
2026-01-05 09:00:59.05	19.71	6.17	-51.7	-72.3	3.8	7.47e-01	0	39	104	0	74	39826
2026-01-05 09:01:00.06	19.54	6.15	-51.7	-72.3	3.8	7.46e-01	0	39	104	0	74	39842
2026-01-05 09:01:01.06	19.37	6.12	-51.7	-72.3	3.8	7.46e-01	0	39	104	0	74	39914
2026-01-05 09:01:02.06	19.20	6.10	-51.7	-72.3	3.8	7.47e-01	0	39	104	0	74	39860
2026-01-05 09:01:03.07	19.03	6.08	-51.7	-72.3	3.8	7.46e-01	0	39	104	0	74	39846
2026-01-05 09:01:04.07	18.86	6.05	-51.8	-72.3	3.8	7.45e-01	0	39	104	0	74	39807
2026-01-05 09:01:05.08	18.69	6.03	-51.8	-72.3	3.8	7.46e-01	0	39	104	0	74	39914
2026-01-05 09:01:06.08	18.52	6.01	-51.8	-72.3	3.8	7.45e-01	0	39	104	0	74	39923
2026-01-05 09:01:07.09	18.35	5.98	-51.8	-72.3	3.8	7.47e-01	0	39	104	0	74	39759
2026-01-05 09:01:08.09	18.18	5.96	-51.7	-72.3	3.8	7.47e-01	0	39	104	0	74	39919
2026-01-05 09:01:09.09	18.01	5.94	-51.7	-72.3	3.8	7.46e-01	0	40	104	0	74	39862
2026-01-05 09:01:10.10	17.85	5.91	-51.7	-72.3	3.8	7.46e-01	0	39	104	0	74	39901
2026-01-05 09:01:11.10	17.68	5.89	-51.7	-72.3	3.8	7.47e-01	0	39	104	0	74	39894
2026-01-05 09:01:12.11	17.51	5.86	-51.7	-72.3	3.8	7.44e-01	0	39	104	0	74	39809
2026-01-05 09:01:13.11	17.34	5.84	-51.7	-72.3	3.8	7.42e-01	0	39	104	0	74	39872
2026-01-05 09:01:14.11	17.18	5.81	-51.8	-72.3	3.8	7.47e-01	0	39	104	0	74	39849
2026-01-05 09:01:15.12	17.01	5.79	-51.7	-72.3	3.8	7.48e-01	0	39	104	0	74	39885
2026-01-05 09:01:16.12	16.84	5.76	-51.7	-72.3	3.8	7.42e-01	0	39	104	0	74	39919
2026-01-05 09:01:17.12	16.68	5.74	-51.8	-72.3	3.8	7.44e-01	0	39	104	0	74	39869
2026-01-05 09:01:18.13	16.51	5.71	-51.8	-72.3	3.8	7.49e-01	0	40	104	0	74	39865
2026-01-05 09:01:19.13	16.35	5.69	-51.7	-72.3	3.8	7.44e-01	0	39	104	0	74	39860
2026-01-05 09:01:20.14	16.18	5.66	-51.7	-72.3	3.8	7.44e-01	0	39	104	0	74	39895
2026-01-05 09:01:21.14	16.02	5.63	-51.8	-72.3	3.8	7.46e-01	0	39	104	0	74	39870
2026-01-05 09:01:22.14	15.85	5.61	-51.8	-72.3	3.8	7.47e-01	0	39	104	0	74	39850
2026-01-05 09:01:23.15	15.69	5.58	-51.8	-72.3	3.8	7.48e-01	0	39	104	0	74	39840
2026-01-05 09:01:24.15	15.52	5.55	-51.8	-72.3	3.8	7.47e-01	0	39	104	0	74	39920
2026-01-05 09:01:25.15	15.36	5.53	-51.8	-72.3	3.8	7.44e-01	0	40	104	0	74	39923
2026-01-05 09:01:26.16	15.20	5.50	-51.8	-72.3	3.8	7.44e-01	0	39	104	0	74	39861
2026-01-05 09:01:27.16	15.04	5.47	-51.8	-72.3	3.8	7.44e-01	0	39	104	0	74	39878
2026-01-05 09:01:28.17	14.87	5.44	-51.8	-72.3	3.8	7.47e-01	0	40	104	0	74	39850
2026-01-05 09:01:29.17	14.71	5.42	-51.8	-72.3	3.8	7.44e-01	0	40	104	0	74	39935
2026-01-05 09:01:30.18	14.55	5.39	-51.8	-72.3	3.8	7.43e-01	0	40	104	0	74	39841
2026-01-05 09:01:31.18	14.39	5.36	-51.8	-72.3	3.8	7.45e-01	0	39	104	0	74	39870
2026-01-05 09:01:32.19	14.23	5.33	-51.8	-72.3	3.8	7.47e-01	0	39	104	0	74	39892
2026-01-05 09:01:33.19	14.07	5.30	-51.8	-72.3	3.8	7.49e-01	0	39	104	0	74	39848
2026-01-05 09:01:34.19	13.91	5.28	-51.8	-72.3	3.8	7.47e-01	0	39	104	0	74	39847
2026-01-05 09:01:35.20	13.75	5.25	-51.8	-72.3	3.8	7.48e-01	0	39	104	0	74	39863
2026-01-05 09:01:36.20	13.59	5.22	-51.8	-72.3	3.8	7.45e-01	0	39	104	0	74	39831
2026-01-05 09:01:37.21	13.43	5.19	-51.8	-72.3	3.8	7.47e-01	0	40	104	0	74	39909
2026-01-05 09:01:38.21	13.27	5.16	-51.8	-72.3	3.8	7.44e-01	0	39	104	0	74	39908
2026-01-05 09:01:39.22	13.11	5.13	-51.8	-72.3	3.8	7.47e-01	0	40	104	0	74	39935
2026-01-05 09:01:40.22	12.95	5.10	-51.7	-72.3	3.8	7.48e-01	0	39	104	0	74	39846
2026-01-05 09:01:41.23	12.79	5.07	-51.8	-72.3	3.8	7.48e-01	0	39	104	0	74	39902
2026-01-05 09:01:42.23	12.64	5.04	-51.7	-72.3	3.8	7.44e-01	0	39	104	0	74	39817
2026-01-05 09:01:43.23	12.48	5.01	-51.8	-72.3	3.8	7.44e-01	0	40	104	0	74	39871
2026-01-05 09:01:44.24	12.32	4.98	-51.8	-72.3	3.8	7.45e-01	0	40	104	0	74	39898

#Closed at: 2026-01-05 09:01:45
#Recorded file [0 MB]: D:/Data/31040_260105_115711.dat