passes_logs/2026/01/05/T1/T1__20260105_091319_SUOMI_NPP_rec.log

#Pass ID: 20260105_091319_SUOMI NPP
#Satellite: SUOMI NPP
#Configuration: NPP
#almurnet v.1.7.20251203
#Start time: 2026-01-05 09:13:19

#Version: 2.0.20230620
#Station: T1
#Location: 37.570604 lon 55.790049 lat
#TLE: 1 37849U 11061A   26003.96724563  .00000164  00000+0  98899-4 0  9990
#TLE: 2 37849  98.7800 306.1116 0002573  82.3190 277.8279 14.19522066735141

#Time	Az	El	Level	Level2	SNR	BER	BlckErr	Temp	State	Recorded	gain1	gain2
2026-01-05 09:13:19.54	135.95	5.01	-50.1	-65.4	3.8	1.49e+00	0	38	0	0	72	20148
2026-01-05 09:13:20.54	135.91	5.08	-50.1	-65.4	3.8	1.49e+00	0	38	104	0	72	20170
2026-01-05 09:13:21.55	135.87	5.15	-50.1	-65.3	3.8	1.49e+00	0	38	104	0	72	20039
2026-01-05 09:13:22.55	135.83	5.22	-50.0	-65.3	3.8	1.49e+00	0	38	104	0	72	20021
2026-01-05 09:13:23.55	135.79	5.29	-50.0	-65.3	3.8	1.49e+00	0	38	104	0	72	19940
2026-01-05 09:13:24.56	135.75	5.36	-50.1	-65.2	3.8	1.49e+00	0	38	104	0	72	19787
2026-01-05 09:13:25.56	135.70	5.43	-50.0	-65.2	3.8	1.49e+00	0	38	104	0	72	19764
2026-01-05 09:13:26.56	135.66	5.50	-50.0	-65.2	3.8	1.49e+00	0	38	104	0	72	19626
2026-01-05 09:13:27.57	135.62	5.57	-50.1	-65.1	3.8	1.49e+00	0	38	104	0	72	19445
2026-01-05 09:13:28.58	135.58	5.64	-50.0	-64.9	3.8	1.49e+00	0	38	104	0	72	19094
2026-01-05 09:13:29.58	135.54	5.72	-50.0	-64.8	3.8	1.49e+00	0	38	104	0	72	18794
2026-01-05 09:13:30.58	135.50	5.79	-50.0	-64.6	3.8	1.49e+00	0	38	104	0	72	18397
2026-01-05 09:13:31.59	135.45	5.86	-50.0	-64.4	3.8	1.49e+00	0	38	104	0	72	18039
2026-01-05 09:13:32.59	135.41	5.93	-50.1	-64.2	3.8	1.49e+00	0	38	104	0	71	18717
2026-01-05 09:13:33.60	135.37	6.00	-50.1	-64.1	3.8	1.49e+00	0	38	104	0	71	18470
2026-01-05 09:13:34.60	135.32	6.07	-50.0	-64.1	3.8	1.49e+00	0	38	104	0	71	18406
2026-01-05 09:13:35.60	135.28	6.15	-50.0	-64.0	3.8	1.49e+00	0	39	104	0	71	18265
2026-01-05 09:13:36.61	135.24	6.22	-50.1	-64.1	3.8	1.49e+00	0	39	104	0	71	18373
2026-01-05 09:13:37.61	135.19	6.29	-50.0	-64.2	3.8	1.49e+00	0	39	104	0	71	18725
2026-01-05 09:13:38.62	135.15	6.37	-50.1	-64.3	3.8	1.49e+00	0	39	104	0	71	18882
2026-01-05 09:13:39.62	135.11	6.44	-50.1	-64.6	3.8	1.49e+00	0	39	104	0	71	19478
2026-01-05 09:13:40.62	135.06	6.51	-50.0	-64.8	3.8	1.49e+00	0	39	104	0	71	19901
2026-01-05 09:13:41.62	135.02	6.58	-50.1	-65.0	3.8	1.49e+00	0	39	104	0	71	20415
2026-01-05 09:13:42.63	134.97	6.66	-50.1	-65.2	3.8	1.49e+00	0	39	104	0	71	20872
2026-01-05 09:13:43.63	134.93	6.73	-50.1	-65.3	3.8	1.49e+00	0	39	104	0	71	21246
2026-01-05 09:13:44.64	134.88	6.81	-50.1	-65.4	3.8	1.49e+00	0	39	104	0	71	21330
2026-01-05 09:13:45.64	134.84	6.88	-50.1	-65.2	3.8	1.49e+00	0	39	104	0	71	21013
2026-01-05 09:13:46.65	134.79	6.96	-50.0	-64.8	3.8	1.49e+00	0	39	104	0	71	20050
2026-01-05 09:13:47.65	134.74	7.03	-50.0	-64.0	3.8	1.49e+00	0	39	104	0	71	18159
2026-01-05 09:13:48.65	134.70	7.10	-50.0	-63.0	3.9	1.49e+00	0	39	104	0	71	16152
2026-01-05 09:13:49.66	134.65	7.18	-49.8	-61.8	4.2	1.47e+00	0	39	0	0	71	14134
2026-01-05 09:13:50.66	134.60	7.25	-49.8	-60.8	4.5	1.12e+00	0	39	0	1048576	71	12596
2026-01-05 09:13:51.66	134.56	7.33	-49.7	-59.6	5.1	7.95e-01	0	39	0	2097152	71	11002
2026-01-05 09:13:52.67	134.51	7.41	-49.5	-58.8	5.6	5.68e-01	0	39	0	4194304	71	9987
2026-01-05 09:13:53.67	134.46	7.48	-49.4	-57.9	6.2	3.95e-01	0	39	0	6291456	70	9573
2026-01-05 09:13:54.68	134.41	7.56	-49.2	-57.1	6.9	2.08e-01	0	39	0	8388608	70	8695
2026-01-05 09:13:55.68	134.36	7.63	-49.0	-56.4	7.5	1.32e-01	0	39	0	9437184	70	8043
2026-01-05 09:13:56.68	134.32	7.71	-48.9	-55.9	8.0	8.71e-02	0	39	0	11534336	69	8031
2026-01-05 09:13:57.69	134.27	7.79	-48.7	-55.6	8.3	5.34e-02	0	39	0	13631488	69	7735
2026-01-05 09:13:58.69	134.22	7.86	-48.6	-55.3	8.6	4.06e-02	0	39	0	15728640	69	7517
2026-01-05 09:13:59.70	134.17	7.94	-48.5	-54.9	9.1	3.50e-02	0	39	0	17825792	69	7198
2026-01-05 09:14:00.70	134.12	8.02	-48.3	-54.5	9.5	1.79e-02	0	39	0	19922944	68	7244
2026-01-05 09:14:01.70	134.07	8.10	-48.0	-53.6	10.4	7.74e-03	0	39	0	20971520	68	6558
2026-01-05 09:14:02.71	134.02	8.17	-47.4	-52.2	11.6	1.86e-03	0	39	0	23068672	66	6257
2026-01-05 09:14:03.71	133.97	8.25	-47.0	-51.4	12.5	4.07e-04	0	39	0	25165824	66	5686
2026-01-05 09:14:04.71	133.92	8.33	-46.5	-50.4	13.5	1.60e-05	0	40	0	27262976	64	5659
2026-01-05 09:14:05.72	133.87	8.41	-46.2	-49.8	14.0	3.80e-06	0	39	0	28311552	64	5326
2026-01-05 09:14:06.72	133.82	8.49	-46.2	-49.9	14.0	3.80e-06	0	40	0	30408704	64	5353
2026-01-05 09:14:07.73	133.76	8.57	-46.4	-50.2	13.7	8.30e-06	0	40	0	32505856	64	5567
2026-01-05 09:14:08.73	133.71	8.64	-46.9	-51.0	13.0	1.98e-05	0	40	0	34603008	64	6093
2026-01-05 09:14:09.73	133.66	8.72	-47.4	-52.2	11.7	1.66e-04	0	40	0	36700160	65	6577
2026-01-05 09:14:10.74	133.61	8.80	-48.1	-53.8	10.1	1.58e-03	0	40	0	37748736	66	7474
2026-01-05 09:14:11.74	133.56	8.88	-48.9	-56.0	8.0	3.54e-02	0	40	0	39845888	68	8563
2026-01-05 09:14:12.74	133.50	8.96	-49.4	-58.4	5.9	1.96e-01	0	40	0	41943040	69	10659
2026-01-05 09:14:13.75	133.45	9.04	-49.7	-60.7	4.5	5.79e-01	0	40	0	44040192	70	13183
2026-01-05 09:14:14.75	133.40	9.12	-48.1	-53.9	10.0	5.16e-01	0	40	0	45088768	68	6767
2026-01-05 09:14:15.95	133.33	9.22	-48.6	-55.8	8.1	4.29e-02	0	40	0	47185920	67	8945
2026-01-05 09:14:16.84	133.28	9.29	-50.1	-64.6	3.8	2.04e-01	0	40	104	48234496	70	20732
2026-01-05 09:14:17.99	133.22	9.39	-49.6	-59.7	5.1	1.41e+00	0	40	0	48234496	70	11763
2026-01-05 09:14:18.85	133.17	9.46	-48.6	-55.3	8.7	2.19e-01	0	40	0	49283072	69	7486
2026-01-05 09:14:19.99	133.11	9.55	-48.4	-54.4	9.6	1.82e-02	0	40	0	51380224	68	7154
2026-01-05 09:14:20.85	133.06	9.62	-48.2	-53.8	10.2	5.99e-03	0	40	0	53477376	68	6651
2026-01-05 09:14:22.00	133.00	9.71	-47.2	-51.6	12.3	1.49e-03	0	40	0	55574528	66	5809
2026-01-05 09:14:22.86	132.95	9.78	-46.0	-50.1	13.7	4.95e-05	0	40	0	57671680	64	5466
2026-01-05 09:14:24.00	132.89	9.88	-45.5	-48.6	15.5	7.00e-07	0	40	0	59768832	63	4908
2026-01-05 09:14:24.87	132.84	9.95	-45.7	-48.9	15.2	0.00e+00	0	40	0	60817408	62	5351
2026-01-05 09:14:26.01	132.77	10.04	-45.8	-49.1	15.0	0.00e+00	0	40	0	62914560	62	5476
2026-01-05 09:14:26.87	132.72	10.11	-45.8	-49.2	14.9	0.00e+00	0	40	0	65011712	62	5547
2026-01-05 09:14:28.02	132.66	10.21	-46.6	-50.4	13.7	7.00e-07	0	40	0	67108864	63	6047
2026-01-05 09:14:28.88	132.61	10.28	-47.0	-51.4	12.5	1.67e-05	0	40	0	68157440	64	6419
2026-01-05 09:14:30.09	132.54	10.38	-47.6	-52.8	11.2	7.78e-04	0	40	0	70254592	65	7042
2026-01-05 09:14:30.95	132.49	10.46	-47.8	-53.2	10.8	1.66e-03	0	40	0	72351744	66	7019
2026-01-05 09:14:32.09	132.42	10.55	-47.8	-53.6	10.4	2.46e-03	0	40	0	74448896	66	7312
2026-01-05 09:14:33.43	132.34	10.67	-47.3	-52.2	11.8	1.56e-03	0	40	0	76546048	66	6204
2026-01-05 09:14:34.15	132.29	10.73	-46.6	-50.7	13.3	1.84e-04	0	40	0	78643200	65	5564
2026-01-05 09:14:35.43	132.22	10.84	-45.7	-49.1	15.0	1.50e-06	0	40	0	80740352	63	5167
2026-01-05 09:14:36.15	132.17	10.90	-45.2	-48.2	15.9	0.00e+00	0	40	0	81788928	62	4953
2026-01-05 09:14:37.43	132.10	11.01	-44.4	-47.1	16.9	0.00e+00	0	40	0	84934656	60	4905
2026-01-05 09:14:38.15	132.05	11.07	-44.3	-46.9	17.1	0.00e+00	0	40	0	85983232	60	4813
2026-01-05 09:14:39.57	131.96	11.19	-44.4	-47.2	16.9	0.00e+00	0	40	0	88080384	60	4936
2026-01-05 09:14:40.28	131.92	11.25	-44.3	-47.0	17.1	0.00e+00	0	40	0	90177536	60	4837
2026-01-05 09:14:41.57	131.84	11.37	-44.7	-47.6	16.5	0.00e+00	0	40	0	92274688	60	5204
2026-01-05 09:14:42.29	131.79	11.43	-45.1	-48.2	16.0	0.00e+00	0	40	0	93323264	60	5560
2026-01-05 09:14:43.58	131.71	11.54	-45.7	-49.1	15.1	0.00e+00	0	40	0	96468992	62	5523
2026-01-05 09:14:44.29	131.67	11.60	-45.9	-49.5	14.8	0.00e+00	0	40	0	97517568	62	5745
2026-01-05 09:14:45.58	131.58	11.72	-46.3	-50.1	14.2	3.80e-06	0	40	0	99614720	63	5791
2026-01-05 09:14:46.30	131.54	11.78	-46.0	-49.5	14.7	0.00e+00	0	40	0	100663296	63	5440
2026-01-05 09:14:47.59	131.45	11.90	-45.2	-48.3	15.9	0.00e+00	0	40	0	103809024	62	5018
2026-01-05 09:14:48.31	131.41	11.96	-44.9	-47.8	16.4	0.00e+00	0	40	0	104857600	61	5024
2026-01-05 09:14:49.59	131.32	12.07	-44.5	-47.3	16.9	0.00e+00	0	40	0	106954752	61	4739
2026-01-05 09:14:50.31	131.27	12.14	-44.4	-47.1	17.1	0.00e+00	0	40	0	109051904	60	4889
2026-01-05 09:14:51.59	131.19	12.25	-44.0	-46.6	17.5	0.00e+00	0	40	0	111149056	59	4882
2026-01-05 09:14:52.31	131.14	12.32	-44.2	-46.8	17.3	0.00e+00	0	40	0	112197632	59	5016
2026-01-05 09:14:53.60	131.05	12.44	-44.5	-47.2	16.8	0.00e+00	0	40	0	114294784	59	5278
2026-01-05 09:14:54.31	131.00	12.50	-44.8	-47.7	16.4	0.00e+00	0	40	0	116391936	60	5271
2026-01-05 09:14:55.68	130.91	12.62	-45.5	-48.9	15.4	0.00e+00	0	40	0	118489088	61	5660
2026-01-05 09:14:56.65	130.84	12.71	-45.9	-49.4	14.9	0.00e+00	0	40	0	120586240	62	5712
2026-01-05 09:14:58.00	130.75	12.84	-46.0	-49.6	14.7	0.00e+00	0	40	0	122683392	63	5517
2026-01-05 09:14:58.72	130.70	12.90	-45.9	-49.4	14.8	0.00e+00	0	40	0	124780544	63	5375
2026-01-05 09:15:00.01	130.61	13.02	-45.2	-48.2	16.0	0.00e+00	0	40	0	126877696	62	4954
2026-01-05 09:15:00.73	130.56	13.09	-44.8	-47.6	16.6	0.00e+00	0	40	0	127926272	61	4910
2026-01-05 09:15:02.02	130.47	13.21	-44.1	-46.8	17.4	0.00e+00	0	40	0	131072000	60	4707
2026-01-05 09:15:02.73	130.42	13.27	-44.0	-46.6	17.6	0.00e+00	0	40	0	132120576	60	4600
2026-01-05 09:15:04.02	130.32	13.40	-43.9	-46.4	17.7	0.00e+00	0	40	0	134217728	59	4783
2026-01-05 09:15:04.74	130.27	13.46	-43.9	-46.4	17.7	0.00e+00	0	40	0	135266304	59	4799
2026-01-05 09:15:06.09	130.17	13.59	-44.2	-46.8	17.3	0.00e+00	0	40	0	138412032	59	5020
2026-01-05 09:15:07.08	130.10	13.68	-44.6	-47.4	16.7	0.00e+00	0	40	0	140509184	59	5389
2026-01-05 09:15:08.40	130.00	13.81	-44.9	-47.9	16.4	0.00e+00	0	40	0	142606336	60	5341
2026-01-05 09:15:09.11	129.95	13.88	-45.2	-48.4	15.9	0.00e+00	0	40	0	143654912	61	5385
2026-01-05 09:15:10.75	129.82	14.03	-45.0	-48.0	16.3	0.00e+00	0	40	0	146800640	61	5124
2026-01-05 09:15:11.32	129.78	14.09	-44.8	-47.7	16.5	0.00e+00	0	40	0	147849216	61	4962
2026-01-05 09:15:12.90	129.66	14.24	-44.3	-47.0	17.2	0.00e+00	0	40	0	150994944	60	4852
2026-01-05 09:15:13.48	129.61	14.30	-44.3	-47.1	17.1	0.00e+00	0	40	0	152043520	60	4886
2026-01-05 09:15:15.06	129.49	14.45	-44.2	-46.9	17.4	0.00e+00	0	40	0	155189248	60	4761
2026-01-05 09:15:15.67	129.44	14.51	-44.2	-46.9	17.3	0.00e+00	0	40	0	156237824	60	4812
2026-01-05 09:15:17.24	129.32	14.66	-44.8	-47.8	16.5	0.00e+00	0	40	0	159383552	60	5317
2026-01-05 09:15:17.83	129.27	14.72	-44.7	-47.7	16.6	0.00e+00	0	40	0	160432128	60	5233
2026-01-05 09:15:19.40	129.15	14.88	-44.9	-48.0	16.3	0.00e+00	0	40	0	163577856	60	5451
2026-01-05 09:15:19.98	129.10	14.93	-45.1	-48.3	15.9	0.00e+00	0	40	0	164626432	61	5337
2026-01-05 09:15:21.57	128.97	15.09	-44.9	-47.9	16.4	0.00e+00	0	40	0	166723584	61	5052
2026-01-05 09:15:22.14	128.93	15.15	-44.8	-47.7	16.5	0.00e+00	0	40	0	167772160	61	4963
2026-01-05 09:15:24.05	128.77	15.34	-44.6	-47.3	17.0	0.00e+00	0	40	0	171966464	61	4736
2026-01-05 09:15:24.62	128.72	15.40	-44.5	-47.2	17.0	0.00e+00	0	40	0	173015040	60	4966
2026-01-05 09:15:26.23	128.59	15.56	-44.4	-47.2	17.1	0.00e+00	0	40	0	176160768	60	4960
2026-01-05 09:15:26.81	128.54	15.62	-44.6	-47.5	16.8	0.00e+00	0	40	0	177209344	60	5128
2026-01-05 09:15:28.38	128.40	15.78	-44.7	-47.6	16.7	0.00e+00	0	41	0	180355072	60	5185
2026-01-05 09:15:28.97	128.35	15.84	-44.6	-47.4	16.9	0.00e+00	0	40	0	181403648	60	5072
2026-01-05 09:15:30.55	128.22	16.00	-44.8	-47.7	16.6	0.00e+00	0	40	0	184549376	60	5238
2026-01-05 09:15:31.15	128.16	16.06	-44.6	-47.4	16.9	0.00e+00	0	41	0	185597952	60	5049
2026-01-05 09:15:32.87	128.01	16.24	-44.4	-47.0	17.2	0.00e+00	0	40	0	188743680	60	4868
2026-01-05 09:15:33.44	127.96	16.30	-44.4	-47.1	17.2	0.00e+00	0	40	0	189792256	60	4889
2026-01-05 09:15:35.05	127.82	16.47	-44.5	-47.2	17.1	0.00e+00	0	41	0	192937984	60	4941
2026-01-05 09:15:35.64	127.77	16.53	-44.4	-47.2	17.2	0.00e+00	0	40	0	193986560	60	4930
2026-01-05 09:15:37.57	127.59	16.73	-44.9	-47.7	16.6	0.00e+00	0	40	0	197132288	60	5264
2026-01-05 09:15:38.14	127.54	16.79	-44.9	-47.9	16.4	0.00e+00	0	41	0	198180864	60	5351
2026-01-05 09:15:39.73	127.39	16.96	-45.2	-48.2	16.1	0.00e+00	0	41	0	201326592	60	5553
2026-01-05 09:15:40.31	127.34	17.02	-45.1	-48.0	16.3	0.00e+00	0	41	0	202375168	61	5134
2026-01-05 09:15:41.90	127.19	17.19	-44.8	-47.7	16.7	0.00e+00	0	40	0	205520896	61	4933
2026-01-05 09:15:42.47	127.14	17.25	-44.7	-47.4	16.9	0.00e+00	0	41	0	206569472	61	4786
2026-01-05 09:15:44.05	126.99	17.42	-44.5	-47.1	17.2	0.00e+00	0	40	0	209715200	60	4907
2026-01-05 09:15:44.65	126.93	17.49	-44.4	-47.0	17.2	0.00e+00	0	41	0	210763776	60	4858
2026-01-05 09:15:46.45	126.75	17.68	-44.5	-47.2	17.1	0.00e+00	0	40	0	213909504	60	4981
2026-01-05 09:15:47.02	126.70	17.74	-44.5	-47.2	17.1	0.00e+00	0	40	0	214958080	60	4978
2026-01-05 09:15:48.60	126.54	17.92	-44.9	-47.8	16.6	0.00e+00	0	40	0	218103808	60	5302
2026-01-05 09:15:49.17	126.49	17.98	-44.8	-47.6	16.7	0.00e+00	0	40	0	219152384	60	5217
2026-01-05 09:15:51.11	126.29	18.19	-44.6	-47.3	17.0	0.00e+00	0	40	0	222298112	60	5010
2026-01-05 09:15:51.69	126.23	18.26	-44.5	-47.1	17.2	0.00e+00	0	40	0	223346688	60	4916
2026-01-05 09:15:53.28	126.07	18.43	-44.2	-46.8	17.6	0.00e+00	0	40	0	226492416	60	4712
2026-01-05 09:15:53.85	126.01	18.50	-44.2	-46.8	17.5	0.00e+00	0	41	0	227540992	60	4758
2026-01-05 09:15:55.43	125.85	18.67	-44.7	-47.6	16.8	0.00e+00	0	41	0	230686720	60	5174
2026-01-05 09:15:56.02	125.79	18.74	-44.8	-47.7	16.6	0.00e+00	0	40	0	231735296	60	5276
2026-01-05 09:15:57.59	125.62	18.92	-45.0	-48.0	16.4	0.00e+00	0	41	0	234881024	60	5406
2026-01-05 09:15:58.18	125.56	18.98	-44.9	-47.8	16.6	0.00e+00	0	40	0	235929600	60	5327
2026-01-05 09:15:59.94	125.37	19.19	-44.6	-47.3	17.0	0.00e+00	0	41	0	239075328	60	5039
2026-01-05 09:16:00.52	125.31	19.25	-44.5	-47.2	17.1	0.00e+00	0	41	0	240123904	60	4952
2026-01-05 09:16:02.09	125.14	19.43	-44.5	-47.4	17.0	0.00e+00	0	40	0	243269632	60	5055
2026-01-05 09:16:02.70	125.07	19.50	-44.4	-47.2	17.1	0.00e+00	0	41	0	244318208	60	4977
2026-01-05 09:16:04.27	124.90	19.68	-44.6	-47.3	17.0	0.00e+00	0	40	0	247463936	60	5031
2026-01-05 09:16:04.88	124.83	19.76	-44.9	-47.9	16.5	0.00e+00	0	41	0	248512512	60	5370
2026-01-05 09:16:06.45	124.65	19.94	-44.7	-47.7	16.7	0.00e+00	0	41	0	251658240	60	5223
2026-01-05 09:16:07.04	124.59	20.01	-44.7	-47.6	16.8	0.00e+00	0	41	0	252706816	60	5166
2026-01-05 09:16:08.61	124.41	20.19	-44.3	-47.0	17.4	0.00e+00	0	41	0	255852544	60	4820
2026-01-05 09:16:09.18	124.34	20.26	-44.1	-46.7	17.6	0.00e+00	0	41	0	256901120	60	4686
2026-01-05 09:16:10.90	124.14	20.46	-44.1	-46.7	17.6	0.00e+00	0	41	0	260046848	60	4681
2026-01-05 09:16:11.48	124.07	20.53	-44.1	-46.7	17.6	0.00e+00	0	41	0	261095424	60	4705
2026-01-05 09:16:13.05	123.89	20.72	-44.5	-47.3	17.1	0.00e+00	0	41	0	264241152	60	4987
2026-01-05 09:16:13.66	123.81	20.79	-44.7	-47.4	16.9	0.00e+00	0	41	0	265289728	60	5093
2026-01-05 09:16:15.53	123.59	21.02	-44.8	-47.7	16.7	0.00e+00	0	40	0	268435456	60	5248
2026-01-05 09:16:16.11	123.52	21.09	-44.7	-47.5	16.9	0.00e+00	0	41	0	269484032	60	5106
2026-01-05 09:16:17.68	123.32	21.28	-44.6	-47.4	16.9	0.00e+00	0	41	0	272629760	60	5071
2026-01-05 09:16:18.27	123.25	21.35	-44.6	-47.4	16.9	0.00e+00	0	41	0	273678336	60	5052
2026-01-05 09:16:19.85	123.05	21.55	-45.1	-48.1	16.3	0.00e+00	0	40	0	276824064	60	5513
2026-01-05 09:16:20.49	122.97	21.63	-45.3	-48.4	16.0	0.00e+00	0	40	0	277872640	61	5370
2026-01-05 09:16:21.93	122.79	21.80	-45.4	-48.5	15.9	0.00e+00	0	41	0	279969792	61	5415
2026-01-05 09:16:22.64	122.70	21.89	-45.6	-48.7	15.7	0.00e+00	0	41	0	282066944	61	5565
2026-01-05 09:16:23.92	122.53	22.05	-45.2	-48.1	16.3	0.00e+00	0	40	0	284164096	61	5212
2026-01-05 09:16:24.64	122.44	22.14	-45.1	-48.0	16.4	0.00e+00	0	41	0	285212672	61	5138
2026-01-05 09:16:26.17	122.24	22.33	-44.9	-47.7	16.7	0.00e+00	0	41	0	288358400	61	4967
2026-01-05 09:16:26.88	122.14	22.42	-44.8	-47.6	16.8	0.00e+00	0	41	0	289406976	61	4878
2026-01-05 09:16:28.24	121.96	22.59	-44.9	-47.8	16.6	0.00e+00	0	41	0	292552704	61	5010
2026-01-05 09:16:28.96	121.86	22.69	-45.0	-47.9	16.4	0.00e+00	0	40	0	293601280	61	5098
2026-01-05 09:16:30.24	121.69	22.85	-45.2	-48.2	16.2	0.00e+00	0	41	0	295698432	61	5246
2026-01-05 09:16:30.96	121.59	22.94	-45.1	-48.1	16.4	0.00e+00	0	40	0	297795584	61	5177
2026-01-05 09:16:32.25	121.41	23.11	-45.0	-47.8	16.6	0.00e+00	0	41	0	299892736	61	5025
2026-01-05 09:16:32.96	121.31	23.20	-44.9	-47.8	16.6	0.00e+00	0	41	0	300941312	61	4998
2026-01-05 09:16:34.25	121.13	23.37	-44.9	-47.7	16.6	0.00e+00	0	41	0	303038464	61	4977
2026-01-05 09:16:34.97	121.03	23.46	-45.3	-48.3	16.1	0.00e+00	0	41	0	305135616	61	5339
2026-01-05 09:16:36.26	120.84	23.63	-45.7	-48.9	15.6	0.00e+00	0	41	0	307232768	62	5375
2026-01-05 09:16:37.07	120.72	23.73	-45.5	-48.6	15.9	0.00e+00	0	40	0	308281344	62	5191
2026-01-05 09:16:38.53	120.51	23.92	-45.7	-48.9	15.6	0.00e+00	0	41	0	311427072	62	5358
2026-01-05 09:16:39.25	120.40	24.02	-45.5	-48.6	15.9	0.00e+00	0	41	0	312475648	62	5164
2026-01-05 09:16:40.54	120.21	24.19	-45.2	-48.1	16.3	0.00e+00	0	41	0	315621376	61	5198
2026-01-05 09:16:41.26	120.10	24.28	-45.1	-48.0	16.5	0.00e+00	0	41	0	316669952	61	5104
2026-01-05 09:16:42.55	119.91	24.46	-45.0	-47.9	16.6	0.00e+00	0	40	0	318767104	61	5042
2026-01-05 09:16:43.26	119.80	24.55	-45.4	-48.5	16.0	0.00e+00	0	40	0	320864256	61	5406
2026-01-05 09:16:44.55	119.60	24.72	-45.2	-48.3	16.2	0.00e+00	0	40	0	322961408	61	5281
2026-01-05 09:16:45.26	119.49	24.82	-45.0	-47.9	16.5	0.00e+00	0	41	0	324009984	61	5100
2026-01-05 09:16:46.53	119.29	24.99	-44.8	-47.6	16.8	0.00e+00	0	40	0	326107136	61	4901
2026-01-05 09:16:47.29	119.17	25.09	-44.7	-47.4	16.9	0.00e+00	0	41	0	328204288	61	4802
2026-01-05 09:16:48.58	118.97	25.27	-44.8	-47.6	16.8	0.00e+00	0	41	0	330301440	60	5166
2026-01-05 09:16:49.29	118.85	25.37	-44.9	-47.7	16.7	0.00e+00	0	41	0	331350016	60	5274
2026-01-05 09:16:50.58	118.64	25.54	-45.2	-48.3	16.2	0.00e+00	0	41	0	334495744	61	5292
2026-01-05 09:16:51.29	118.53	25.64	-45.6	-48.8	15.6	0.00e+00	0	41	0	335544320	61	5643
2026-01-05 09:16:52.58	118.31	25.82	-45.5	-48.6	15.8	0.00e+00	0	40	0	337641472	61	5508
2026-01-05 09:16:53.30	118.19	25.92	-45.6	-48.7	15.7	0.00e+00	0	41	0	339738624	61	5567
2026-01-05 09:16:54.61	117.97	26.10	-44.9	-47.7	16.7	0.00e+00	0	41	0	341835776	61	4963
2026-01-05 09:16:55.32	117.85	26.20	-44.7	-47.4	17.0	0.00e+00	0	41	0	342884352	61	4787
2026-01-05 09:16:56.61	117.63	26.38	-44.9	-47.7	16.7	0.00e+00	0	41	0	344981504	61	4962
2026-01-05 09:16:57.70	117.44	26.53	-45.2	-48.1	16.4	0.00e+00	0	41	0	347078656	61	5183
2026-01-05 09:16:58.56	117.29	26.65	-45.4	-48.4	16.1	0.00e+00	0	41	0	349175808	61	5347
2026-01-05 09:16:59.70	117.09	26.81	-45.3	-48.2	16.3	0.00e+00	0	41	0	351272960	61	5243
2026-01-05 09:17:00.56	116.94	26.93	-45.2	-48.0	16.4	0.00e+00	0	41	0	352321536	61	5136
2026-01-05 09:17:01.71	116.73	27.09	-45.1	-48.0	16.5	0.00e+00	0	41	0	355467264	61	5124
2026-01-05 09:17:02.56	116.58	27.21	-45.3	-48.2	16.2	0.00e+00	0	41	0	356515840	61	5254
2026-01-05 09:17:03.71	116.37	27.38	-45.7	-48.8	15.7	0.00e+00	0	41	0	358612992	62	5317
2026-01-05 09:17:04.57	116.21	27.50	-45.7	-48.9	15.7	0.00e+00	0	41	0	360710144	62	5363
2026-01-05 09:17:05.71	116.00	27.66	-45.7	-48.8	15.7	0.00e+00	0	41	0	362807296	62	5327
2026-01-05 09:17:06.57	115.84	27.79	-45.7	-48.8	15.7	0.00e+00	0	41	0	363855872	62	5323
2026-01-05 09:17:07.72	115.62	27.95	-45.5	-48.5	16.0	0.00e+00	0	41	0	365953024	62	5132
2026-01-05 09:17:08.58	115.46	28.08	-45.2	-48.1	16.3	0.00e+00	0	41	0	368050176	62	4924
2026-01-05 09:17:09.73	115.24	28.24	-45.1	-48.0	16.5	0.00e+00	0	41	0	370147328	62	4825
2026-01-05 09:17:10.59	115.07	28.37	-45.2	-48.2	16.3	0.00e+00	0	41	0	371195904	62	4931
2026-01-05 09:17:11.73	114.84	28.54	-45.6	-48.7	15.8	0.00e+00	0	41	0	374341632	62	5273
2026-01-05 09:17:12.59	114.67	28.66	-45.5	-48.6	15.9	0.00e+00	0	41	0	375390208	62	5216
2026-01-05 09:17:13.74	114.44	28.83	-45.7	-48.9	15.7	0.00e+00	0	41	0	377487360	62	5368
2026-01-05 09:17:14.60	114.27	28.96	-45.7	-48.9	15.6	0.00e+00	0	41	0	379584512	62	5367
2026-01-05 09:17:15.74	114.04	29.12	-45.7	-48.9	15.7	0.00e+00	0	41	0	381681664	62	5371
2026-01-05 09:17:16.60	113.86	29.25	-45.8	-49.0	15.6	0.00e+00	0	41	0	382730240	62	5408
2026-01-05 09:17:17.78	113.62	29.42	-46.1	-49.5	15.1	7.00e-07	0	41	0	384827392	63	5446
2026-01-05 09:17:18.64	113.44	29.55	-46.4	-50.0	14.5	0.00e+00	0	41	0	386924544	63	5785
2026-01-05 09:17:19.78	113.20	29.72	-46.6	-50.2	14.4	0.00e+00	0	41	0	389021696	63	5902
2026-01-05 09:17:20.64	113.01	29.85	-46.2	-49.6	14.9	0.00e+00	0	41	0	390070272	63	5499
2026-01-05 09:17:21.78	112.77	30.02	-46.3	-49.7	14.8	7.00e-07	0	41	0	392167424	63	5559
2026-01-05 09:17:22.65	112.58	30.15	-46.6	-50.3	14.1	1.50e-06	0	41	0	394264576	64	5636
2026-01-05 09:17:23.79	112.33	30.32	-46.9	-51.0	13.5	7.60e-06	0	41	0	396361728	64	6091
2026-01-05 09:17:24.78	112.11	30.47	-47.1	-51.3	13.1	2.44e-05	0	41	0	398458880	65	5926
2026-01-05 09:17:25.96	111.84	30.65	-47.0	-51.1	13.4	2.21e-05	0	41	0	400556032	65	5808
2026-01-05 09:17:26.81	111.65	30.77	-46.6	-50.3	14.2	3.00e-06	0	41	0	401604608	65	5293
2026-01-05 09:17:27.96	111.39	30.95	-46.6	-50.4	14.0	5.30e-06	0	41	0	403701760	64	5667
2026-01-05 09:17:28.82	111.19	31.08	-46.8	-50.6	13.9	1.50e-06	0	41	0	405798912	64	5853
2026-01-05 09:17:29.97	110.92	31.25	-47.0	-50.9	13.6	3.00e-06	0	41	0	407896064	64	6031
2026-01-05 09:17:30.83	110.72	31.38	-46.7	-50.4	14.1	1.14e-05	0	41	0	409993216	65	5386
2026-01-05 09:17:31.97	110.45	31.56	-46.7	-50.2	14.3	3.80e-06	0	41	0	412090368	65	5275
2026-01-05 09:17:32.83	110.25	31.69	-46.9	-50.6	14.1	7.00e-07	0	41	0	413138944	65	5481
2026-01-05 09:17:33.98	109.97	31.86	-47.2	-51.3	13.3	6.80e-06	0	41	0	415236096	65	5961
2026-01-05 09:17:34.84	109.76	31.99	-47.2	-51.2	13.3	3.81e-05	0	41	0	417333248	65	5880
2026-01-05 09:17:35.98	109.48	32.17	-46.8	-50.5	14.0	2.13e-05	0	41	0	419430400	65	5435
2026-01-05 09:17:36.84	109.26	32.30	-46.4	-49.8	14.7	7.00e-07	0	41	0	420478976	64	5330
2026-01-05 09:17:37.99	108.98	32.48	-46.3	-49.8	14.7	7.00e-07	0	41	0	422576128	64	5295
2026-01-05 09:17:38.84	108.76	32.61	-46.3	-49.9	14.6	7.00e-07	0	41	0	424673280	64	5345
2026-01-05 09:17:40.10	108.44	32.80	-47.3	-51.5	12.9	3.20e-05	0	41	0	426770432	65	6127
2026-01-05 09:17:40.86	108.24	32.92	-47.6	-52.2	12.4	8.08e-05	0	41	0	428867584	65	6595
2026-01-05 09:17:42.15	107.90	33.12	-47.6	-52.2	12.3	1.05e-04	0	41	0	430964736	66	6253
2026-01-05 09:17:42.87	107.71	33.23	-47.4	-51.8	12.7	1.94e-04	0	41	0	432013312	66	5972
2026-01-05 09:17:44.16	107.37	33.43	-46.8	-50.7	13.8	6.80e-06	0	41	0	434110464	65	5552
2026-01-05 09:17:44.89	107.18	33.54	-46.3	-49.7	14.7	0.00e+00	0	41	0	436207616	64	5279
2026-01-05 09:17:46.18	106.83	33.74	-45.8	-49.0	15.6	7.00e-07	0	41	0	438304768	63	5104
2026-01-05 09:17:46.89	106.63	33.85	-45.5	-48.5	16.0	0.00e+00	0	41	0	439353344	62	5133
2026-01-05 09:17:48.18	106.28	34.04	-45.1	-47.9	16.6	0.00e+00	0	41	0	442499072	62	4789
2026-01-05 09:17:49.05	106.03	34.18	-44.9	-47.6	16.9	0.00e+00	0	41	0	443547648	61	4871
2026-01-05 09:17:50.51	105.62	34.40	-45.2	-48.0	16.4	0.00e+00	0	41	0	446693376	61	5145
2026-01-05 09:17:51.23	105.42	34.51	-45.2	-48.0	16.5	0.00e+00	0	41	0	447741952	61	5146
2026-01-05 09:17:52.71	104.99	34.74	-45.2	-48.1	16.5	0.00e+00	0	41	0	450887680	61	5169
2026-01-05 09:17:53.43	104.78	34.85	-45.7	-48.8	15.7	0.00e+00	0	41	0	451936256	62	5316
2026-01-05 09:17:54.77	104.38	35.06	-46.2	-49.6	15.0	0.00e+00	0	41	0	454033408	63	5482
2026-01-05 09:17:55.48	104.17	35.17	-46.4	-49.9	14.7	7.00e-07	0	41	0	456130560	63	5685
2026-01-05 09:17:56.77	103.79	35.37	-46.0	-49.2	15.4	0.00e+00	0	41	0	458227712	63	5231
2026-01-05 09:17:57.48	103.57	35.48	-45.8	-48.9	15.6	0.00e+00	0	41	0	459276288	63	5086
2026-01-05 09:17:58.77	103.18	35.67	-45.8	-48.9	15.6	0.00e+00	0	41	0	462422016	63	5097
2026-01-05 09:17:59.49	102.96	35.78	-45.9	-49.1	15.5	0.00e+00	0	41	0	463470592	63	5162
2026-01-05 09:18:00.78	102.55	35.98	-46.0	-49.2	15.3	0.00e+00	0	41	0	465567744	63	5279
2026-01-05 09:18:01.49	102.33	36.09	-46.1	-49.6	15.0	0.00e+00	0	41	0	466616320	63	5489
2026-01-05 09:18:02.78	101.92	36.28	-46.0	-49.4	15.3	0.00e+00	0	41	0	469762048	63	5368
2026-01-05 09:18:03.59	101.66	36.41	-46.0	-49.4	15.2	0.00e+00	0	41	0	470810624	63	5373
2026-01-05 09:18:05.06	101.19	36.63	-46.1	-49.4	15.2	0.00e+00	0	41	0	473956352	63	5358
2026-01-05 09:18:05.77	100.95	36.74	-46.0	-49.3	15.4	0.00e+00	0	41	0	475004928	63	5282
2026-01-05 09:18:07.27	100.46	36.96	-46.2	-49.6	15.0	0.00e+00	0	41	0	478150656	63	5483
2026-01-05 09:18:07.99	100.22	37.07	-46.3	-49.7	14.9	0.00e+00	0	41	0	479199232	63	5592
2026-01-05 09:18:09.28	99.78	37.27	-46.9	-50.7	13.9	4.50e-06	0	41	0	481296384	64	5917
2026-01-05 09:18:09.99	99.54	37.37	-47.1	-51.1	13.5	6.80e-06	0	41	0	483393536	64	6134
2026-01-05 09:18:11.28	99.10	37.56	-47.3	-51.5	13.1	2.44e-05	0	41	0	485490688	65	6068
2026-01-05 09:18:12.00	98.85	37.67	-47.1	-51.1	13.5	1.83e-05	0	41	0	486539264	65	5797
2026-01-05 09:18:13.29	98.40	37.86	-47.2	-51.2	13.3	6.80e-06	0	41	0	489684992	65	5918
2026-01-05 09:18:14.01	98.14	37.97	-46.9	-50.8	13.7	6.10e-06	0	41	0	490733568	65	5597
2026-01-05 09:18:15.29	97.69	38.15	-46.9	-50.8	13.8	5.30e-06	0	41	0	492830720	65	5605
2026-01-05 09:18:16.09	97.40	38.27	-46.9	-50.8	13.8	3.00e-06	0	41	0	494927872	64	5924
2026-01-05 09:18:17.57	96.86	38.49	-46.3	-49.7	14.8	0.00e+00	0	41	0	497025024	64	5240
2026-01-05 09:18:18.28	96.60	38.59	-46.2	-49.5	14.9	7.00e-07	0	41	0	499122176	64	5142
2026-01-05 09:18:19.58	96.12	38.77	-46.0	-49.8	14.5	7.00e-07	0	41	0	501219328	63	5630
2026-01-05 09:18:20.29	95.86	38.88	-45.7	-49.3	15.0	7.00e-07	0	41	0	502267904	63	5334
2026-01-05 09:18:21.58	95.37	39.06	-45.3	-48.6	15.7	0.00e+00	0	41	0	504365056	62	5182
2026-01-05 09:18:22.30	95.10	39.16	-45.4	-48.7	15.6	0.00e+00	0	41	0	506462208	62	5253
2026-01-05 09:18:23.59	94.60	39.34	-45.3	-48.6	15.7	0.00e+00	0	41	0	508559360	62	5209
2026-01-05 09:18:24.35	94.31	39.45	-44.8	-48.0	16.3	0.00e+00	0	41	0	509607936	61	5110
2026-01-05 09:18:25.64	93.81	39.63	-44.8	-47.9	16.4	0.00e+00	0	41	0	512753664	61	5092
2026-01-05 09:18:26.36	93.52	39.73	-45.1	-48.4	16.0	0.00e+00	0	41	0	513802240	61	5363
2026-01-05 09:18:27.65	93.01	39.90	-45.4	-48.9	15.5	0.00e+00	0	41	0	515899392	61	5717
2026-01-05 09:18:28.37	92.72	40.00	-45.1	-48.5	15.9	0.00e+00	0	41	0	516947968	61	5417
2026-01-05 09:18:29.65	92.21	40.17	-45.4	-48.9	15.5	0.00e+00	0	41	0	520093696	61	5686
2026-01-05 09:18:30.37	91.91	40.27	-45.0	-48.4	15.9	0.00e+00	0	41	0	521142272	61	5343
2026-01-05 09:18:31.66	91.39	40.44	-44.3	-47.2	17.0	0.00e+00	0	41	0	523239424	60	4949
2026-01-05 09:18:32.38	91.09	40.53	-43.9	-46.7	17.4	0.00e+00	0	41	0	525336576	59	4954
2026-01-05 09:18:33.73	90.53	40.71	-44.1	-46.9	17.3	0.00e+00	0	41	0	527433728	59	5047
2026-01-05 09:18:34.72	90.11	40.83	-44.5	-47.5	16.7	0.00e+00	0	41	0	529530880	59	5439
2026-01-05 09:18:36.02	89.56	41.00	-43.9	-46.7	17.5	0.00e+00	0	41	0	531628032	59	4962
2026-01-05 09:18:36.74	89.25	41.09	-43.7	-46.5	17.7	0.00e+00	0	41	0	533725184	59	4824
2026-01-05 09:18:38.02	88.70	41.25	-43.6	-46.3	17.8	0.00e+00	0	41	0	535822336	59	4751
2026-01-05 09:18:38.74	88.38	41.33	-43.8	-46.7	17.5	0.00e+00	0	41	0	536870912	59	4961
2026-01-05 09:18:40.03	87.82	41.49	-43.6	-46.4	17.8	0.00e+00	0	41	0	538968064	59	4761
2026-01-05 09:18:40.74	87.51	41.57	-43.9	-46.9	17.3	0.00e+00	0	41	0	541065216	59	5051
2026-01-05 09:18:42.05	86.92	41.73	-44.5	-47.9	16.3	0.00e+00	0	41	0	543162368	60	5352
2026-01-05 09:18:43.04	86.48	41.84	-45.3	-49.2	15.1	0.00e+00	0	41	0	545259520	61	5875
2026-01-05 09:18:44.36	85.88	41.99	-44.9	-48.5	15.7	0.00e+00	0	41	0	547356672	61	5440
2026-01-05 09:18:45.08	85.56	42.07	-44.3	-47.5	16.7	0.00e+00	0	41	0	548405248	60	5146
2026-01-05 09:18:46.37	84.96	42.22	-43.9	-46.9	17.2	0.00e+00	0	41	0	551550976	59	5058
2026-01-05 09:18:47.09	84.63	42.29	-43.8	-46.8	17.3	0.00e+00	0	41	0	552599552	59	4995
2026-01-05 09:18:48.38	84.03	42.43	-43.6	-46.4	17.7	0.00e+00	0	41	0	554696704	59	4766
2026-01-05 09:18:49.09	83.70	42.51	-43.7	-46.5	17.6	0.00e+00	0	41	0	556793856	59	4826
2026-01-05 09:18:50.39	83.09	42.64	-43.5	-46.3	17.8	0.00e+00	0	41	0	558891008	58	5020
2026-01-05 09:18:51.10	82.75	42.71	-43.6	-46.4	17.8	0.00e+00	0	41	0	559939584	58	5042
2026-01-05 09:18:52.46	82.10	42.85	-43.8	-46.7	17.4	0.00e+00	0	41	0	563085312	58	5225
2026-01-05 09:18:53.17	81.76	42.92	-43.8	-46.6	17.6	0.00e+00	0	41	0	564133888	58	5200
2026-01-05 09:18:54.46	81.14	43.04	-44.0	-46.9	17.3	0.00e+00	0	41	0	566231040	58	5384
2026-01-05 09:18:55.18	80.79	43.11	-44.5	-47.6	16.5	0.00e+00	0	41	0	568328192	59	5510
2026-01-05 09:18:56.47	80.16	43.22	-44.9	-48.2	16.1	0.00e+00	0	41	0	570425344	60	5585
2026-01-05 09:18:57.19	79.81	43.29	-45.0	-48.3	16.0	0.00e+00	0	41	0	571473920	60	5645
2026-01-05 09:18:58.48	79.17	43.40	-44.9	-48.1	16.2	0.00e+00	0	41	0	573571072	60	5508
2026-01-05 09:18:59.19	78.82	43.46	-44.6	-47.6	16.7	0.00e+00	0	41	0	575668224	60	5200
2026-01-05 09:19:00.48	78.17	43.57	-44.4	-47.4	16.9	0.00e+00	0	41	0	577765376	60	5067
2026-01-05 09:19:01.20	77.81	43.62	-44.6	-47.7	16.7	0.00e+00	0	41	0	578813952	60	5222
2026-01-05 09:19:02.49	77.16	43.72	-45.1	-48.4	16.0	0.00e+00	0	41	0	581959680	60	5660
2026-01-05 09:19:03.25	76.78	43.78	-45.2	-48.4	15.9	0.00e+00	0	41	0	583008256	61	5382
2026-01-05 09:19:04.54	76.12	43.88	-44.7	-47.6	16.7	0.00e+00	0	41	0	585105408	61	4925
2026-01-05 09:19:05.26	75.75	43.93	-44.7	-47.8	16.5	0.00e+00	0	41	0	586153984	61	4994
2026-01-05 09:19:06.55	75.09	44.01	-45.3	-48.6	15.8	0.00e+00	0	41	0	589299712	61	5488
2026-01-05 09:19:07.26	74.72	44.06	-45.8	-49.4	14.9	0.00e+00	0	41	0	590348288	62	5702
2026-01-05 09:19:08.55	74.06	44.14	-45.3	-48.7	15.6	0.00e+00	0	41	0	592445440	62	5252
2026-01-05 09:19:09.27	73.68	44.18	-45.2	-48.6	15.7	0.00e+00	0	41	0	594542592	62	5198
2026-01-05 09:19:10.56	73.01	44.26	-45.3	-48.7	15.6	0.00e+00	0	41	0	596639744	62	5229
2026-01-05 09:19:11.28	72.63	44.30	-45.1	-48.3	16.1	0.00e+00	0	41	0	597688320	62	4998
2026-01-05 09:19:12.61	71.93	44.37	-44.1	-46.8	17.4	0.00e+00	0	41	0	600834048	60	4753
2026-01-05 09:19:13.33	71.55	44.40	-43.9	-46.6	17.5	0.00e+00	0	41	0	601882624	59	4904
2026-01-05 09:19:14.62	70.87	44.47	-44.9	-48.1	16.3	0.00e+00	0	41	0	603979776	60	5497
2026-01-05 09:19:15.67	70.31	44.51	-45.7	-49.4	15.0	0.00e+00	0	41	0	606076928	62	5703
2026-01-05 09:19:16.55	69.85	44.55	-45.8	-49.5	15.0	0.00e+00	0	41	0	608174080	62	5747
2026-01-05 09:19:17.70	69.23	44.59	-45.4	-48.9	15.5	0.00e+00	0	41	0	610271232	62	5341
2026-01-05 09:19:18.56	68.77	44.62	-45.8	-49.7	14.8	0.00e+00	0	41	0	611319808	62	5860
2026-01-05 09:19:19.71	68.16	44.66	-46.1	-50.3	14.1	2.20e-06	0	41	0	613416960	63	5965
2026-01-05 09:19:20.57	67.70	44.69	-46.1	-50.1	14.2	9.10e-06	0	41	0	615514112	63	5854
2026-01-05 09:19:21.71	67.08	44.72	-46.1	-50.1	14.4	7.00e-07	0	41	0	617611264	63	5847
2026-01-05 09:19:22.59	66.61	44.74	-45.9	-49.8	14.5	0.00e+00	0	41	0	619708416	63	5652
2026-01-05 09:19:23.91	65.90	44.77	-45.4	-49.0	15.2	0.00e+00	0	41	0	621805568	62	5449
2026-01-05 09:19:24.62	65.51	44.78	-45.2	-48.8	15.5	0.00e+00	0	41	0	622854144	62	5282
2026-01-05 09:19:25.92	64.81	44.80	-45.1	-48.6	15.7	0.00e+00	0	41	0	624951296	61	5499
2026-01-05 09:19:26.63	64.43	44.81	-45.4	-49.1	15.2	0.00e+00	0	41	0	627048448	61	5833
2026-01-05 09:19:27.92	63.73	44.83	-45.9	-49.8	14.5	0.00e+00	0	41	0	629145600	62	5990
2026-01-05 09:19:28.64	63.34	44.83	-45.5	-49.1	15.2	0.00e+00	0	41	0	630194176	62	5493
2026-01-05 09:19:29.93	62.64	44.84	-44.2	-47.2	17.1	0.00e+00	0	41	0	633339904	60	4929
2026-01-05 09:19:30.64	62.25	44.84	-44.3	-47.2	17.0	0.00e+00	0	41	0	634388480	59	5240
2026-01-05 09:19:31.93	61.56	44.84	-45.4	-48.9	15.5	0.00e+00	0	41	0	636485632	61	5677
2026-01-05 09:19:32.65	61.17	44.83	-45.7	-49.4	15.0	0.00e+00	0	41	0	637534208	62	5697
2026-01-05 09:19:33.94	60.47	44.83	-45.7	-49.4	15.0	1.50e-06	0	41	0	640679936	62	5688
2026-01-05 09:19:34.65	60.08	44.82	-46.2	-50.4	13.9	1.50e-06	0	41	0	641728512	63	6024
2026-01-05 09:19:36.01	59.35	44.80	-45.9	-49.9	14.5	4.50e-06	0	41	0	643825664	63	5693
2026-01-05 09:19:36.73	58.96	44.79	-45.9	-50.0	14.4	7.00e-07	0	41	0	645922816	63	5743
2026-01-05 09:19:38.08	58.23	44.77	-45.9	-50.0	14.3	7.00e-07	0	41	0	648019968	63	5742
2026-01-05 09:19:38.80	57.84	44.75	-46.0	-50.0	14.3	2.20e-06	0	41	0	649068544	63	5785
2026-01-05 09:19:40.17	57.10	44.72	-45.4	-49.0	15.3	0.00e+00	0	41	0	652214272	62	5431
2026-01-05 09:19:41.14	56.58	44.69	-44.8	-48.0	16.3	0.00e+00	0	41	0	654311424	61	5131
2026-01-05 09:19:42.46	55.87	44.65	-45.5	-49.1	15.3	0.00e+00	0	41	0	656408576	61	5817
2026-01-05 09:19:43.17	55.49	44.62	-45.8	-49.7	14.6	0.00e+00	0	41	0	657457152	62	5894
2026-01-05 09:19:44.82	54.61	44.56	-45.8	-49.7	14.7	7.00e-07	0	41	0	660602880	62	5865
2026-01-05 09:19:45.39	54.31	44.54	-45.9	-49.8	14.6	0.00e+00	0	41	0	661651456	62	5930
2026-01-05 09:19:47.00	53.46	44.47	-45.3	-48.8	15.5	0.00e+00	0	41	0	664797184	62	5327
2026-01-05 09:19:47.57	53.15	44.45	-45.4	-49.0	15.4	0.00e+00	0	41	0	665845760	62	5425
2026-01-05 09:19:49.16	52.32	44.37	-45.2	-48.7	15.6	0.00e+00	0	41	0	668991488	61	5557
2026-01-05 09:19:49.83	51.96	44.33	-45.2	-48.7	15.6	0.00e+00	0	41	0	670040064	61	5581
2026-01-05 09:19:51.26	51.22	44.26	-45.7	-49.6	14.8	0.00e+00	0	41	0	673185792	62	5791
2026-01-05 09:19:51.98	50.84	44.22	-45.4	-49.1	15.3	0.00e+00	0	41	0	674234368	62	5471
2026-01-05 09:19:53.27	50.17	44.14	-45.4	-49.2	15.0	0.00e+00	0	41	0	676331520	62	5578
2026-01-05 09:19:54.14	49.72	44.08	-45.2	-48.8	15.5	0.00e+00	0	41	0	678428672	62	5305
2026-01-05 09:19:55.61	48.96	43.99	-44.9	-48.3	15.9	0.00e+00	0	41	0	681574400	61	5337
2026-01-05 09:19:56.32	48.60	43.94	-44.6	-48.0	16.2	0.00e+00	0	41	0	682622976	61	5120
2026-01-05 09:19:57.61	47.94	43.85	-44.6	-47.9	16.3	0.00e+00	0	41	0	684720128	60	5381
2026-01-05 09:19:58.33	47.57	43.80	-44.4	-47.6	16.6	0.00e+00	0	41	0	685768704	60	5198
2026-01-05 09:19:59.61	46.93	43.70	-44.4	-47.6	16.6	0.00e+00	0	41	0	688914432	60	5160
2026-01-05 09:20:00.33	46.56	43.64	-44.8	-48.2	16.0	0.00e+00	0	41	0	689963008	60	5584
2026-01-05 09:20:01.62	45.92	43.54	-44.7	-47.9	16.4	0.00e+00	0	41	0	692060160	60	5400
2026-01-05 09:20:02.44	45.51	43.47	-44.9	-48.2	16.0	0.00e+00	0	41	0	694157312	60	5572
2026-01-05 09:20:03.58	44.95	43.38	-44.3	-47.4	16.9	0.00e+00	0	41	0	696254464	60	5052
2026-01-05 09:20:04.62	44.43	43.29	-44.5	-47.7	16.6	0.00e+00	0	41	0	698351616	60	5235
2026-01-05 09:20:05.61	43.95	43.20	-44.5	-47.6	16.7	0.00e+00	0	41	0	699400192	60	5180
2026-01-05 09:20:06.62	43.46	43.11	-44.1	-47.0	17.2	0.00e+00	0	41	0	701497344	60	4842
2026-01-05 09:20:07.62	42.97	43.01	-43.7	-46.4	17.8	0.00e+00	0	41	0	703594496	59	4793
2026-01-05 09:20:08.93	42.34	42.89	-43.6	-46.4	17.7	0.00e+00	0	41	0	705691648	58	5068
2026-01-05 09:20:09.66	41.99	42.82	-43.9	-46.7	17.5	0.00e+00	0	41	0	707788800	58	5271
2026-01-05 09:20:11.25	41.24	42.66	-44.6	-47.8	16.4	0.00e+00	0	41	0	709885952	59	5621
2026-01-05 09:20:12.11	40.83	42.57	-45.0	-48.5	15.8	0.00e+00	0	41	0	711983104	60	5743
2026-01-05 09:20:13.25	40.30	42.45	-44.7	-48.0	16.3	0.00e+00	0	41	0	714080256	60	5435
2026-01-05 09:20:14.11	39.90	42.36	-44.1	-47.0	17.3	0.00e+00	0	41	0	716177408	60	4840
2026-01-05 09:20:15.26	39.37	42.24	-43.6	-46.3	17.9	0.00e+00	0	41	0	718274560	59	4722
2026-01-05 09:20:16.12	38.98	42.14	-43.6	-46.2	18.0	0.00e+00	0	41	0	719323136	58	4982
2026-01-05 09:20:17.27	38.45	42.01	-43.9	-46.7	17.5	0.00e+00	0	41	0	721420288	58	5259
2026-01-05 09:20:18.13	38.06	41.92	-43.4	-46.1	18.2	0.00e+00	0	41	0	723517440	58	4880
2026-01-05 09:20:19.28	37.55	41.78	-42.7	-45.1	19.0	0.00e+00	0	41	0	725614592	57	4646
2026-01-05 09:20:20.13	37.17	41.69	-42.5	-44.9	19.1	0.00e+00	0	41	0	726663168	57	4535
2026-01-05 09:20:21.28	36.66	41.55	-42.8	-45.2	18.8	0.00e+00	0	41	0	728760320	57	4700
2026-01-05 09:20:22.21	36.25	41.44	-42.5	-44.8	19.2	0.00e+00	0	41	0	730857472	57	4492
2026-01-05 09:20:23.21	35.82	41.32	-41.8	-44.0	19.8	0.00e+00	0	41	0	732954624	55	4561
2026-01-05 09:20:24.21	35.38	41.20	-41.4	-43.5	20.2	0.00e+00	0	41	0	735051776	54	4588
2026-01-05 09:20:25.22	34.95	41.07	-41.5	-43.7	20.1	0.00e+00	0	41	0	736100352	54	4667
2026-01-05 09:20:26.51	34.40	40.91	-41.5	-43.7	20.1	0.00e+00	0	41	0	739246080	54	4656
2026-01-05 09:20:27.26	34.08	40.81	-41.6	-43.8	20.0	0.00e+00	0	41	0	740294656	54	4725
2026-01-05 09:20:28.54	33.55	40.65	-42.3	-44.6	19.3	0.00e+00	0	41	0	742391808	55	4910
2026-01-05 09:20:29.26	33.25	40.56	-42.6	-45.0	18.9	0.00e+00	0	41	0	744488960	55	5137
2026-01-05 09:20:30.55	32.72	40.39	-42.2	-44.5	19.5	0.00e+00	0	41	0	746586112	56	4574
2026-01-05 09:20:31.27	32.42	40.29	-41.7	-43.9	19.8	0.00e+00	0	41	0	747634688	55	4543
2026-01-05 09:20:32.56	31.90	40.12	-42.1	-44.5	19.4	0.00e+00	0	41	0	750780416	55	4818
2026-01-05 09:20:33.48	31.53	40.00	-42.3	-44.7	19.2	0.00e+00	0	41	0	751828992	55	4932
2026-01-05 09:20:34.49	31.13	39.86	-42.5	-44.9	19.1	0.00e+00	0	41	0	753926144	55	5061
2026-01-05 09:20:35.49	30.73	39.73	-42.6	-45.0	19.1	0.00e+00	0	41	0	756023296	56	4832
2026-01-05 09:20:36.49	30.34	39.59	-43.5	-46.1	18.2	0.00e+00	0	41	0	758120448	57	5213
2026-01-05 09:20:37.50	29.95	39.45	-44.1	-46.9	17.5	0.00e+00	0	41	0	759169024	58	5343
2026-01-05 09:20:38.50	29.57	39.31	-44.1	-46.9	17.4	0.00e+00	0	41	0	761266176	59	5048
2026-01-05 09:20:39.50	29.18	39.17	-43.7	-46.3	17.9	0.00e+00	0	41	0	763363328	59	4756
2026-01-05 09:20:40.56	28.78	39.02	-43.6	-46.2	18.2	0.00e+00	0	41	0	765460480	58	4951
2026-01-05 09:20:41.42	28.46	38.90	-43.8	-46.4	17.9	0.00e+00	0	41	0	766509056	58	5099
2026-01-05 09:20:42.56	28.04	38.74	-44.2	-47.0	17.4	0.00e+00	0	41	0	768606208	59	5133
2026-01-05 09:20:43.43	27.72	38.61	-44.0	-46.7	17.6	0.00e+00	0	41	0	770703360	59	4976
2026-01-05 09:20:44.57	27.30	38.45	-44.1	-46.8	17.5	0.00e+00	0	41	0	772800512	59	5021
2026-01-05 09:20:45.43	26.99	38.32	-44.2	-46.9	17.5	0.00e+00	0	41	0	774897664	59	5057
2026-01-05 09:20:46.58	26.58	38.16	-44.7	-47.7	16.8	0.00e+00	0	41	0	776994816	60	5268
2026-01-05 09:20:47.69	26.18	38.00	-44.1	-46.9	17.5	0.00e+00	0	41	0	779091968	60	4776
2026-01-05 09:20:48.71	25.82	37.85	-43.8	-46.4	17.9	0.00e+00	0	41	0	780140544	59	4770
2026-01-05 09:20:49.89	25.41	37.67	-44.0	-46.7	17.7	0.00e+00	0	41	0	783286272	59	4934
2026-01-05 09:20:50.75	25.12	37.54	-44.5	-47.3	17.1	0.00e+00	0	41	0	784334848	59	5332
2026-01-05 09:20:52.10	24.66	37.34	-43.8	-46.5	17.9	0.00e+00	0	41	0	787480576	59	4820
2026-01-05 09:20:53.21	24.28	37.18	-43.3	-45.8	18.6	0.00e+00	0	41	0	789577728	58	4707
2026-01-05 09:20:54.41	23.88	37.00	-43.3	-45.8	18.5	0.00e+00	0	41	0	791674880	58	4723
2026-01-05 09:20:55.27	23.60	36.87	-43.7	-46.3	18.1	0.00e+00	0	41	0	792723456	58	4987
2026-01-05 09:20:56.42	23.22	36.70	-43.9	-46.6	17.8	0.00e+00	0	41	0	794820608	58	5176
2026-01-05 09:20:57.28	22.94	36.57	-44.2	-46.9	17.5	0.00e+00	0	41	0	796917760	59	5068
2026-01-05 09:20:58.42	22.58	36.40	-44.7	-47.6	16.8	0.00e+00	0	41	0	799014912	60	5192
2026-01-05 09:20:59.28	22.30	36.27	-45.2	-48.3	16.2	0.00e+00	0	41	0	800063488	61	5300
2026-01-05 09:21:00.43	21.94	36.09	-45.8	-49.2	15.3	0.00e+00	0	41	0	802160640	62	5566
2026-01-05 09:21:01.29	21.67	35.96	-45.6	-49.0	15.5	0.00e+00	0	41	0	804257792	62	5461
2026-01-05 09:21:02.43	21.32	35.79	-44.9	-48.1	16.4	0.00e+00	0	41	0	806354944	61	5199
2026-01-05 09:21:03.29	21.05	35.66	-44.7	-47.9	16.6	0.00e+00	0	41	0	808452096	61	5058
2026-01-05 09:21:04.44	20.70	35.48	-45.4	-49.1	15.5	0.00e+00	0	41	0	810549248	61	5794
2026-01-05 09:21:05.30	20.44	35.35	-45.8	-49.7	14.8	0.00e+00	0	41	0	811597824	62	5876
2026-01-05 09:21:06.44	20.10	35.18	-45.9	-49.7	14.9	0.00e+00	0	41	0	813694976	62	5866
2026-01-05 09:21:07.30	19.85	35.04	-46.1	-49.8	14.6	0.00e+00	0	41	0	815792128	62	5982
2026-01-05 09:21:08.45	19.51	34.87	-46.3	-50.2	14.4	0.00e+00	0	41	0	817889280	63	5923
2026-01-05 09:21:09.31	19.27	34.74	-46.7	-50.9	13.5	1.50e-06	0	41	0	818937856	64	6048
2026-01-05 09:21:10.46	18.94	34.56	-47.2	-51.8	12.7	5.64e-05	0	41	0	821035008	64	6712
2026-01-05 09:21:11.32	18.69	34.43	-46.6	-50.7	13.8	2.74e-05	0	41	0	823132160	64	5919
2026-01-05 09:21:12.46	18.37	34.25	-45.9	-49.3	15.2	3.80e-06	0	41	0	825229312	63	5312
2026-01-05 09:21:13.32	18.13	34.12	-45.9	-49.3	15.3	0.00e+00	0	41	0	827326464	63	5291
2026-01-05 09:21:14.47	17.81	33.94	-46.5	-50.3	14.3	0.00e+00	0	41	0	829423616	63	5945
2026-01-05 09:21:15.33	17.58	33.81	-47.2	-51.8	12.8	6.10e-06	0	41	0	830472192	65	6287
2026-01-05 09:21:16.48	17.27	33.64	-47.7	-52.6	12.0	5.94e-04	0	41	0	832569344	66	6524
2026-01-05 09:21:17.34	17.03	33.50	-47.6	-52.5	12.0	2.44e-04	0	41	0	834666496	66	6445
2026-01-05 09:21:18.48	16.73	33.33	-47.3	-51.9	12.6	2.57e-04	0	41	0	836763648	66	6024
2026-01-05 09:21:19.34	16.51	33.20	-47.1	-51.4	13.1	9.15e-05	0	41	0	837812224	66	5720
2026-01-05 09:21:20.49	16.21	33.02	-47.1	-51.5	12.9	4.19e-05	0	41	0	839909376	66	5747
2026-01-05 09:21:21.35	15.98	32.89	-46.9	-51.1	13.4	1.06e-05	0	41	0	842006528	65	5796
2026-01-05 09:21:22.49	15.69	32.71	-46.5	-50.3	14.2	9.10e-06	0	41	0	844103680	64	5612
2026-01-05 09:21:23.35	15.47	32.58	-46.7	-50.8	13.8	1.50e-06	0	41	0	845152256	64	5937
2026-01-05 09:21:24.50	15.18	32.41	-46.6	-50.5	14.1	9.10e-06	0	41	0	847249408	64	5766
2026-01-05 09:21:25.36	14.97	32.28	-46.4	-50.3	14.2	1.50e-06	0	41	0	849346560	64	5640
2026-01-05 09:21:26.51	14.69	32.10	-46.1	-49.9	14.6	3.00e-06	0	41	0	851443712	64	5349
2026-01-05 09:21:27.37	14.48	31.97	-45.9	-49.4	15.2	0.00e+00	0	41	0	853540864	63	5359
2026-01-05 09:21:28.51	14.20	31.80	-45.5	-48.8	15.8	0.00e+00	0	41	0	855638016	62	5304
2026-01-05 09:21:29.37	14.00	31.67	-45.3	-48.5	16.0	0.00e+00	0	41	0	856686592	62	5118
2026-01-05 09:21:30.52	13.72	31.49	-45.3	-48.6	15.9	0.00e+00	0	41	0	858783744	62	5208
2026-01-05 09:21:31.38	13.52	31.36	-45.7	-49.3	15.3	0.00e+00	0	41	0	860880896	62	5603
2026-01-05 09:21:32.52	13.26	31.19	-46.1	-49.9	14.6	0.00e+00	0	41	0	862978048	63	5693
2026-01-05 09:21:33.38	13.06	31.06	-46.1	-49.9	14.6	0.00e+00	0	41	0	864026624	63	5705
2026-01-05 09:21:34.53	12.80	30.89	-46.6	-50.6	13.9	2.20e-06	0	41	0	866123776	63	6172
2026-01-05 09:21:35.39	12.60	30.76	-46.2	-50.0	14.5	1.50e-06	0	41	0	868220928	63	5765
2026-01-05 09:21:36.54	12.34	30.59	-46.1	-49.8	14.7	0.00e+00	0	42	0	870318080	63	5639
2026-01-05 09:21:37.40	12.15	30.46	-45.9	-49.4	15.2	0.00e+00	0	41	0	872415232	63	5358
2026-01-05 09:21:38.54	11.90	30.29	-46.1	-49.7	14.8	0.00e+00	0	42	0	874512384	63	5591
2026-01-05 09:21:39.40	11.72	30.16	-45.9	-49.4	15.2	0.00e+00	0	41	0	875560960	63	5365
2026-01-05 09:21:40.55	11.47	29.99	-45.7	-49.1	15.5	0.00e+00	0	41	0	877658112	63	5175
2026-01-05 09:21:41.41	11.28	29.86	-45.4	-48.6	16.0	0.00e+00	0	41	0	879755264	62	5173
2026-01-05 09:21:42.56	11.04	29.69	-45.2	-48.3	16.2	0.00e+00	0	41	0	881852416	62	5011
2026-01-05 09:21:43.42	10.86	29.56	-45.1	-48.2	16.3	0.00e+00	0	41	0	882900992	62	4974
2026-01-05 09:21:44.56	10.62	29.40	-45.2	-48.3	16.2	0.00e+00	0	41	0	884998144	61	5323
2026-01-05 09:21:45.43	10.44	29.27	-45.2	-48.4	16.2	0.00e+00	0	41	0	887095296	61	5354
2026-01-05 09:21:46.57	10.21	29.10	-45.7	-49.2	15.4	0.00e+00	0	41	0	889192448	61	5904
2026-01-05 09:21:47.43	10.04	28.97	-45.6	-49.2	15.4	0.00e+00	0	41	0	891289600	62	5552
2026-01-05 09:21:48.58	9.81	28.81	-45.6	-49.1	15.5	0.00e+00	0	41	0	893386752	62	5487
2026-01-05 09:21:49.44	9.64	28.68	-45.4	-48.8	15.8	0.00e+00	0	41	0	894435328	62	5291
2026-01-05 09:21:50.59	9.41	28.51	-45.3	-48.5	16.0	0.00e+00	0	41	0	896532480	62	5132
2026-01-05 09:21:51.45	9.24	28.39	-45.1	-48.2	16.3	0.00e+00	0	41	0	898629632	62	4934
2026-01-05 09:21:52.59	9.02	28.22	-44.4	-47.3	17.2	0.00e+00	0	41	0	900726784	60	4994
2026-01-05 09:21:53.45	8.86	28.10	-44.6	-47.4	17.2	0.00e+00	0	41	0	901775360	60	5093
2026-01-05 09:21:54.60	8.64	27.94	-44.1	-46.8	17.6	0.00e+00	0	41	0	903872512	60	4738
2026-01-05 09:21:55.46	8.48	27.81	-44.3	-47.1	17.3	0.00e+00	0	41	0	905969664	60	4907
2026-01-05 09:21:56.60	8.27	27.65	-44.9	-48.0	16.5	0.00e+00	0	41	0	908066816	60	5410
2026-01-05 09:21:57.78	8.05	27.48	-45.8	-49.2	15.4	0.00e+00	0	41	0	910163968	62	5543
2026-01-05 09:21:58.82	7.86	27.33	-46.3	-49.9	14.7	0.00e+00	0	41	0	912261120	63	5693
2026-01-05 09:22:00.00	7.65	27.17	-47.0	-51.3	13.2	6.10e-06	0	41	0	914358272	64	6310
2026-01-05 09:22:00.85	7.50	27.05	-46.9	-51.0	13.4	6.10e-06	0	41	0	915406848	64	6108
2026-01-05 09:22:02.00	7.29	26.88	-46.7	-50.7	13.8	7.00e-07	0	41	0	918552576	64	5876
2026-01-05 09:22:02.86	7.14	26.76	-45.9	-49.3	15.2	0.00e+00	0	41	0	919601152	63	5336
2026-01-05 09:22:04.01	6.94	26.60	-45.6	-48.9	15.6	0.00e+00	0	41	0	921698304	63	5067
2026-01-05 09:22:04.87	6.80	26.48	-45.3	-48.4	16.0	0.00e+00	0	41	0	923795456	62	5045
2026-01-05 09:22:06.02	6.60	26.32	-44.9	-47.8	16.7	0.00e+00	0	41	0	925892608	61	5015
2026-01-05 09:22:06.87	6.46	26.21	-45.0	-48.0	16.5	0.00e+00	0	41	0	926941184	61	5124
2026-01-05 09:22:08.02	6.26	26.05	-44.9	-47.9	16.6	0.00e+00	0	41	0	929038336	61	5070
2026-01-05 09:22:08.88	6.12	25.93	-45.1	-48.2	16.4	0.00e+00	0	41	0	931135488	61	5219
2026-01-05 09:22:10.02	5.93	25.77	-44.9	-48.0	16.5	0.00e+00	0	41	0	933232640	61	5129
2026-01-05 09:22:10.88	5.79	25.66	-45.4	-48.7	15.8	0.00e+00	0	41	0	934281216	61	5555
2026-01-05 09:22:12.11	5.59	25.49	-45.4	-48.7	15.8	0.00e+00	0	41	0	937426944	61	5570
2026-01-05 09:22:12.97	5.45	25.37	-45.3	-48.7	15.8	0.00e+00	0	41	0	938475520	61	5538
2026-01-05 09:22:14.12	5.27	25.22	-45.3	-48.5	15.9	0.00e+00	0	41	0	940572672	61	5449
2026-01-05 09:22:14.97	5.14	25.10	-45.4	-48.7	15.7	0.00e+00	0	41	0	942669824	61	5580
2026-01-05 09:22:16.11	4.96	24.95	-45.3	-48.6	15.9	0.00e+00	0	41	0	944766976	61	5484
2026-01-05 09:22:16.97	4.83	24.83	-45.7	-49.2	15.3	0.00e+00	0	41	0	945815552	62	5566
2026-01-05 09:22:18.12	4.65	24.68	-45.9	-49.6	14.9	0.00e+00	0	41	0	947912704	62	5821
2026-01-05 09:22:18.97	4.52	24.57	-46.1	-50.0	14.5	0.00e+00	0	41	0	950009856	63	5758
2026-01-05 09:22:20.12	4.35	24.41	-46.3	-50.3	14.2	3.00e-06	0	41	0	952107008	63	5992
2026-01-05 09:22:20.98	4.22	24.30	-46.4	-50.7	13.8	2.20e-06	0	41	0	954204160	63	6231
2026-01-05 09:22:22.13	4.05	24.15	-46.2	-50.4	14.2	2.20e-06	0	41	0	956301312	63	5996
2026-01-05 09:22:22.98	3.92	24.04	-46.0	-49.9	14.6	0.00e+00	0	41	0	957349888	63	5718
2026-01-05 09:22:24.13	3.75	23.89	-45.4	-49.0	15.5	0.00e+00	0	41	0	959447040	62	5414
2026-01-05 09:22:24.98	3.63	23.77	-45.0	-48.3	16.2	0.00e+00	0	41	0	961544192	62	4992
2026-01-05 09:22:26.12	3.47	23.63	-45.0	-48.1	16.2	0.00e+00	0	41	0	963641344	61	5200
2026-01-05 09:22:26.98	3.34	23.52	-44.8	-47.9	16.6	0.00e+00	0	41	0	964689920	61	5049
2026-01-05 09:22:28.12	3.18	23.37	-45.0	-48.1	16.4	0.00e+00	0	41	0	966787072	61	5164
2026-01-05 09:22:28.98	3.06	23.26	-44.9	-47.9	16.5	0.00e+00	0	41	0	968884224	61	5091
2026-01-05 09:22:30.13	2.90	23.11	-45.0	-48.1	16.3	0.00e+00	0	41	0	970981376	61	5216
2026-01-05 09:22:30.99	2.79	23.00	-45.2	-48.3	16.2	0.00e+00	0	41	0	972029952	61	5331
2026-01-05 09:22:32.13	2.63	22.86	-45.1	-48.3	16.2	0.00e+00	0	41	0	974127104	61	5315
2026-01-05 09:22:33.15	2.49	22.73	-45.1	-48.4	16.0	0.00e+00	0	41	0	976224256	61	5366
2026-01-05 09:22:34.16	2.36	22.60	-45.0	-48.3	16.2	0.00e+00	0	41	0	978321408	61	5320
2026-01-05 09:22:35.16	2.23	22.47	-45.1	-48.6	15.9	0.00e+00	0	41	0	980418560	61	5465
2026-01-05 09:22:36.16	2.09	22.35	-45.0	-48.5	16.0	0.00e+00	0	41	0	982515712	61	5441
2026-01-05 09:22:37.16	1.96	22.22	-45.1	-48.6	15.8	0.00e+00	0	41	0	983564288	61	5512
2026-01-05 09:22:38.53	1.79	22.05	-45.1	-48.6	15.9	0.00e+00	0	41	0	986710016	61	5490
2026-01-05 09:22:39.27	1.69	21.96	-44.9	-48.2	16.3	0.00e+00	0	41	0	987758592	61	5221
2026-01-05 09:22:40.55	1.53	21.80	-44.9	-47.9	16.5	0.00e+00	0	41	0	989855744	61	5095
2026-01-05 09:22:41.27	1.44	21.71	-44.8	-47.9	16.6	0.00e+00	0	41	0	991952896	61	5044
2026-01-05 09:22:42.56	1.28	21.56	-44.7	-47.6	16.8	0.00e+00	0	41	0	994050048	61	4899
2026-01-05 09:22:43.28	1.19	21.47	-44.5	-47.4	17.0	0.00e+00	0	41	0	995098624	60	5081
2026-01-05 09:22:44.57	1.03	21.31	-44.6	-47.6	16.8	0.00e+00	0	41	0	998244352	60	5179
2026-01-05 09:22:45.28	0.94	21.23	-44.8	-47.9	16.5	0.00e+00	0	41	0	999292928	60	5374
2026-01-05 09:22:46.57	0.78	21.07	-45.0	-48.3	16.2	0.00e+00	0	41	0	1001390080	60	5595
2026-01-05 09:22:47.29	0.70	20.98	-45.3	-48.8	15.7	0.00e+00	0	41	0	1003487232	61	5639
2026-01-05 09:22:48.66	0.53	20.82	-46.0	-49.9	14.6	0.00e+00	0	41	0	1005584384	62	6002
2026-01-05 09:22:49.37	0.45	20.73	-46.4	-50.5	14.0	3.80e-06	0	41	0	1006632960	63	6085
2026-01-05 09:22:50.72	0.29	20.57	-46.7	-51.0	13.4	1.44e-05	0	41	0	1009778688	64	6129
2026-01-05 09:22:51.44	0.21	20.49	-46.8	-51.3	13.2	3.81e-05	0	41	0	1010827264	64	6287
2026-01-05 09:22:52.73	0.06	20.34	-46.7	-51.2	13.3	1.90e-05	0	41	0	1012924416	64	6212
2026-01-05 09:22:53.44	359.98	20.25	-46.4	-50.7	13.7	1.06e-05	0	41	0	1015021568	64	5871
2026-01-05 09:22:54.73	359.83	20.10	-46.4	-50.6	13.8	4.50e-06	0	41	0	1017118720	64	5849
2026-01-05 09:22:55.45	359.75	20.02	-46.3	-50.5	14.1	3.00e-06	0	41	0	1018167296	64	5724
2026-01-05 09:22:56.74	359.61	19.87	-45.9	-49.9	14.6	7.00e-07	0	41	0	1020264448	63	5663
2026-01-05 09:22:57.46	359.53	19.78	-45.7	-49.6	14.9	0.00e+00	0	41	0	1022361600	63	5466
2026-01-05 09:22:58.74	359.39	19.64	-45.7	-49.4	15.1	0.00e+00	0	41	0	1024458752	63	5345
2026-01-05 09:22:59.49	359.30	19.55	-45.7	-49.3	15.3	0.00e+00	0	41	0	1025507328	63	5297
2026-01-05 09:23:00.78	359.16	19.40	-45.5	-48.9	15.5	0.00e+00	0	41	0	1028653056	63	5067
2026-01-05 09:23:01.55	359.08	19.31	-45.6	-49.1	15.4	0.00e+00	0	41	0	1029701632	62	5467
2026-01-05 09:23:02.84	358.94	19.17	-45.5	-48.9	15.6	0.00e+00	0	41	0	1031798784	62	5348
2026-01-05 09:23:03.55	358.87	19.09	-45.5	-48.9	15.6	0.00e+00	0	41	0	1033895936	62	5353
2026-01-05 09:23:04.84	358.73	18.94	-45.4	-48.8	15.6	0.00e+00	0	41	0	1035993088	62	5312
2026-01-05 09:23:05.56	358.66	18.86	-45.3	-48.8	15.7	0.00e+00	0	41	0	1037041664	62	5285
2026-01-05 09:23:06.84	358.53	18.72	-45.1	-48.7	15.8	0.00e+00	0	41	0	1039138816	62	5238
2026-01-05 09:23:07.56	358.45	18.64	-45.2	-48.8	15.7	0.00e+00	0	41	0	1041235968	62	5315
2026-01-05 09:23:08.85	358.32	18.49	-45.1	-48.9	15.7	0.00e+00	0	41	0	1043333120	62	5343
2026-01-05 09:23:09.56	358.25	18.41	-45.0	-48.7	15.8	0.00e+00	0	41	0	1044381696	61	5547
2026-01-05 09:23:10.85	358.12	18.27	-44.9	-48.6	15.9	0.00e+00	0	41	0	1047527424	61	5485
2026-01-05 09:23:11.57	358.05	18.19	-45.1	-48.8	15.5	0.00e+00	0	41	0	1048576000	61	5639
2026-01-05 09:23:12.86	357.92	18.05	-45.1	-48.7	15.7	0.00e+00	0	41	0	1050673152	61	5529
2026-01-05 09:23:13.57	357.85	17.97	-45.1	-48.6	15.9	0.00e+00	0	41	0	1052770304	61	5518
2026-01-05 09:23:14.86	357.73	17.83	-45.1	-48.5	15.9	0.00e+00	0	41	0	1054867456	61	5427
2026-01-05 09:23:15.58	357.66	17.75	-45.0	-48.3	16.1	0.00e+00	0	41	0	1055916032	61	5335
2026-01-05 09:23:17.23	357.50	17.58	-45.1	-48.7	15.5	0.00e+00	0	42	0	1059061760	61	5578
2026-01-05 09:23:17.80	357.44	17.52	-45.0	-48.7	15.7	0.00e+00	0	41	0	1060110336	61	5564
2026-01-05 09:23:19.39	357.29	17.34	-44.9	-48.8	15.7	0.00e+00	0	41	0	1063256064	61	5621
2026-01-05 09:23:19.97	357.24	17.28	-45.1	-49.3	15.2	0.00e+00	0	41	0	1064304640	61	5927
2026-01-05 09:23:21.54	357.09	17.12	-45.1	-49.2	15.3	0.00e+00	0	41	0	1067450368	61	5866
2026-01-05 09:23:22.18	357.04	17.05	-45.1	-49.1	15.4	0.00e+00	0	41	0	1068498944	61	5804
2026-01-05 09:23:23.62	356.90	16.90	-45.2	-49.1	15.3	0.00e+00	0	41	0	1071644672	61	5823
2026-01-05 09:23:24.45	356.83	16.81	-45.3	-49.1	15.3	0.00e+00	0	41	0	1072693248	61	5839
2026-01-05 09:23:25.60	356.73	16.69	-45.4	-49.1	15.4	0.00e+00	0	41	0	1074790400	61	5802
2026-01-05 09:23:26.46	356.65	16.60	-45.7	-49.5	15.0	0.00e+00	0	41	0	1076887552	62	5731
2026-01-05 09:23:27.61	356.55	16.48	-45.5	-48.9	15.5	0.00e+00	0	41	0	1078984704	62	5366
2026-01-05 09:23:28.47	356.47	16.39	-45.4	-48.8	15.7	0.00e+00	0	41	0	1080033280	62	5289
2026-01-05 09:23:29.61	356.37	16.27	-45.5	-48.8	15.6	0.00e+00	0	41	0	1082130432	62	5282
2026-01-05 09:23:30.47	356.30	16.18	-45.2	-48.4	16.0	0.00e+00	0	41	0	1084227584	62	5082
2026-01-05 09:23:31.62	356.20	16.07	-45.1	-48.3	16.0	0.00e+00	0	42	0	1086324736	62	5010
2026-01-05 09:23:32.47	356.13	15.98	-44.9	-48.1	16.2	0.00e+00	0	41	0	1087373312	61	5186
2026-01-05 09:23:33.62	356.03	15.86	-44.8	-48.0	16.4	0.00e+00	0	42	0	1089470464	61	5123
2026-01-05 09:23:34.48	355.96	15.78	-44.7	-47.9	16.5	0.00e+00	0	42	0	1091567616	61	5100
2026-01-05 09:23:35.62	355.86	15.66	-44.7	-47.9	16.4	0.00e+00	0	42	0	1093664768	61	5076
2026-01-05 09:23:36.48	355.79	15.57	-44.6	-47.7	16.6	0.00e+00	0	41	0	1095761920	61	4971
2026-01-05 09:23:37.62	355.70	15.46	-44.6	-47.7	16.6	0.00e+00	0	41	0	1097859072	61	4976
2026-01-05 09:23:38.48	355.62	15.37	-44.6	-47.7	16.6	0.00e+00	0	41	0	1098907648	61	4973
2026-01-05 09:23:39.62	355.53	15.26	-44.7	-47.8	16.6	0.00e+00	0	41	0	1101004800	61	4997
2026-01-05 09:23:40.71	355.44	15.15	-44.7	-47.8	16.5	0.00e+00	0	41	0	1103101952	61	5008
2026-01-05 09:23:41.72	355.36	15.05	-45.1	-48.3	16.1	0.00e+00	0	41	0	1105199104	61	5316
2026-01-05 09:23:42.89	355.27	14.94	-45.0	-48.2	16.2	0.00e+00	0	41	0	1107296256	61	5242
2026-01-05 09:23:43.74	355.20	14.85	-45.2	-48.5	15.9	0.00e+00	0	41	0	1108344832	61	5439
2026-01-05 09:23:45.10	355.10	14.72	-45.3	-48.7	15.6	0.00e+00	0	41	0	1111490560	61	5585
2026-01-05 09:23:45.82	355.04	14.65	-45.3	-48.7	15.7	0.00e+00	0	41	0	1112539136	61	5559
2026-01-05 09:23:47.10	354.94	14.53	-45.6	-49.1	15.3	0.00e+00	0	41	0	1114636288	61	5825
2026-01-05 09:23:47.82	354.89	14.46	-45.7	-49.3	15.1	0.00e+00	0	41	0	1116733440	61	5936
2026-01-05 09:23:49.11	354.79	14.33	-45.7	-49.3	15.2	0.00e+00	0	41	0	1118830592	62	5597
2026-01-05 09:23:49.83	354.73	14.26	-45.8	-49.4	15.1	0.00e+00	0	41	0	1119879168	62	5682
2026-01-05 09:23:51.12	354.64	14.14	-45.9	-49.5	14.9	0.00e+00	0	41	0	1123024896	62	5732
2026-01-05 09:23:51.83	354.58	14.07	-46.0	-49.6	14.9	0.00e+00	0	41	0	1124073472	62	5814
2026-01-05 09:23:53.12	354.49	13.95	-46.0	-49.7	14.7	7.00e-07	0	41	0	1126170624	62	5869
2026-01-05 09:23:54.09	354.42	13.86	-46.1	-49.9	14.5	0.00e+00	0	41	0	1128267776	62	6015
2026-01-05 09:23:55.10	354.34	13.76	-45.9	-49.6	14.9	7.00e-07	0	41	0	1130364928	62	5854
2026-01-05 09:23:56.10	354.27	13.67	-45.9	-49.7	14.7	0.00e+00	0	41	0	1132462080	62	5912
2026-01-05 09:23:57.10	354.20	13.57	-45.7	-49.4	14.9	0.00e+00	0	41	0	1133510656	62	5702
2026-01-05 09:23:58.10	354.13	13.48	-45.8	-49.6	14.8	0.00e+00	0	41	0	1135607808	62	5838
2026-01-05 09:23:59.10	354.05	13.39	-45.7	-49.7	14.7	0.00e+00	0	41	0	1137704960	62	5916
2026-01-05 09:24:00.10	353.98	13.29	-45.4	-49.6	14.8	1.50e-06	0	41	0	1139802112	62	5811
2026-01-05 09:24:01.14	353.91	13.20	-45.3	-49.8	14.6	0.00e+00	0	42	0	1141899264	62	5956
2026-01-05 09:24:02.17	353.84	13.10	-45.3	-49.9	14.4	0.00e+00	0	41	0	1142947840	62	6041
2026-01-05 09:24:03.17	353.77	13.01	-45.2	-50.2	14.2	7.00e-07	0	41	0	1145044992	62	6265
2026-01-05 09:24:04.23	353.70	12.91	-45.1	-50.0	14.3	2.20e-06	0	41	0	1147142144	62	6131
2026-01-05 09:24:05.11	353.64	12.83	-45.2	-50.3	14.1	2.20e-06	0	41	0	1149239296	62	6326
2026-01-05 09:24:06.43	353.55	12.71	-45.3	-50.1	14.3	1.50e-06	0	41	0	1151336448	62	6166
2026-01-05 09:24:07.15	353.50	12.65	-45.4	-50.2	14.2	7.00e-07	0	41	0	1152385024	62	6245
2026-01-05 09:24:08.66	353.40	12.51	-45.9	-50.7	13.7	2.20e-06	0	41	0	1155530752	62	6642
2026-01-05 09:24:09.65	353.33	12.42	-45.9	-50.7	13.7	6.10e-06	0	41	0	1157627904	62	6640
2026-01-05 09:24:10.95	353.25	12.31	-46.1	-51.1	13.3	1.29e-05	0	41	0	1159725056	62	6940
2026-01-05 09:24:11.70	353.20	12.24	-46.0	-50.8	13.6	1.60e-05	0	41	0	1160773632	62	6661
2026-01-05 09:24:12.99	353.11	12.12	-46.0	-50.5	14.0	1.22e-05	0	41	0	1163919360	62	6443
2026-01-05 09:24:13.70	353.07	12.06	-46.2	-51.0	13.4	9.10e-06	0	41	0	1164967936	63	6485
2026-01-05 09:24:14.99	352.98	11.95	-46.2	-50.8	13.6	1.52e-05	0	41	0	1167065088	63	6325
2026-01-05 09:24:15.71	352.94	11.88	-46.1	-50.7	13.7	6.80e-06	0	42	0	1169162240	63	6256
2026-01-05 09:24:17.00	352.86	11.77	-46.1	-50.9	13.6	8.30e-06	0	42	0	1171259392	63	6364
2026-01-05 09:24:17.71	352.81	11.71	-46.0	-50.7	13.7	7.60e-06	0	41	0	1172307968	63	6245
2026-01-05 09:24:19.05	352.73	11.59	-45.8	-50.5	13.9	4.50e-06	0	41	0	1175453696	63	6118
2026-01-05 09:24:19.77	352.68	11.53	-45.7	-50.4	14.0	7.60e-06	0	41	0	1176502272	63	6052
2026-01-05 09:24:21.12	352.60	11.41	-45.4	-50.1	14.2	4.50e-06	0	41	0	1178599424	62	6165
2026-01-05 09:24:21.84	352.55	11.35	-45.2	-50.0	14.4	2.20e-06	0	41	0	1180696576	62	6064
2026-01-05 09:24:23.12	352.48	11.24	-45.1	-50.1	14.3	1.50e-06	0	41	0	1182793728	62	6175
2026-01-05 09:24:23.84	352.43	11.18	-44.7	-49.5	14.8	1.50e-06	0	41	0	1183842304	61	6117
2026-01-05 09:24:25.26	352.35	11.05	-44.6	-49.5	14.8	0.00e+00	0	42	0	1186988032	61	6102
2026-01-05 09:24:26.24	352.29	10.97	-44.3	-49.1	15.2	0.00e+00	0	41	0	1188036608	60	6177
2026-01-05 09:24:27.25	352.23	10.88	-44.3	-49.2	15.0	0.00e+00	0	41	0	1190133760	60	6273
2026-01-05 09:24:28.25	352.17	10.80	-44.4	-49.4	14.9	0.00e+00	0	41	0	1192230912	60	6353
2026-01-05 09:24:29.25	352.11	10.71	-44.3	-49.2	15.1	7.00e-07	0	42	0	1194328064	60	6225
2026-01-05 09:24:30.25	352.05	10.63	-44.3	-49.3	14.9	7.00e-07	0	41	0	1196425216	60	6313
2026-01-05 09:24:31.25	351.99	10.55	-44.3	-49.2	15.1	0.00e+00	0	42	0	1197473792	60	6220
2026-01-05 09:24:32.25	351.94	10.46	-44.4	-49.3	15.0	0.00e+00	0	41	0	1199570944	60	6298
2026-01-05 09:24:33.26	351.88	10.38	-44.6	-49.6	14.7	0.00e+00	0	41	0	1201668096	60	6524
2026-01-05 09:24:34.34	351.82	10.29	-44.7	-49.4	14.9	0.00e+00	0	42	0	1203765248	60	6398
2026-01-05 09:24:35.23	351.77	10.21	-44.9	-49.4	14.9	0.00e+00	0	42	0	1205862400	60	6396
2026-01-05 09:24:36.37	351.70	10.12	-45.2	-49.7	14.6	7.00e-07	0	42	0	1207959552	60	6615
2026-01-05 09:24:37.29	351.65	10.04	-45.4	-49.9	14.4	7.00e-07	0	41	0	1209008128	61	6379
2026-01-05 09:24:38.47	351.59	9.95	-45.4	-49.7	14.6	0.00e+00	0	41	0	1211105280	61	6225
2026-01-05 09:24:39.33	351.54	9.88	-45.6	-49.9	14.4	0.00e+00	0	41	0	1213202432	61	6403
2026-01-05 09:24:40.68	351.46	9.77	-45.7	-50.1	14.2	2.20e-06	0	42	0	1215299584	62	6170
2026-01-05 09:24:41.40	351.42	9.71	-45.8	-50.2	14.1	1.50e-06	0	41	0	1217396736	62	6250
2026-01-05 09:24:42.69	351.35	9.60	-46.0	-50.5	13.8	4.50e-06	0	42	0	1219493888	62	6427
2026-01-05 09:24:43.40	351.32	9.54	-46.1	-50.6	13.7	6.80e-06	0	42	0	1220542464	62	6569
2026-01-05 09:24:44.69	351.25	9.44	-46.1	-50.4	13.9	5.30e-06	0	41	0	1222639616	63	6046
2026-01-05 09:24:45.46	351.21	9.38	-46.4	-50.9	13.4	7.60e-06	0	42	0	1224736768	63	6357
2026-01-05 09:24:46.74	351.14	9.28	-46.4	-50.9	13.4	1.44e-05	0	41	0	1226833920	63	6358
2026-01-05 09:24:47.46	351.10	9.22	-46.4	-50.9	13.3	1.14e-05	0	42	0	1227882496	63	6387
2026-01-05 09:24:48.74	351.03	9.12	-46.4	-50.9	13.3	1.98e-05	0	42	0	1231028224	63	6417
2026-01-05 09:24:49.56	350.99	9.05	-46.3	-51.0	13.2	2.13e-05	0	42	0	1232076800	63	6464
2026-01-05 09:24:50.71	350.93	8.96	-47.5	-53.5	11.0	9.53e-05	0	42	0	1234173952	65	7632
2026-01-05 09:24:51.57	350.89	8.89	-48.0	-65.4	3.8	1.49e+00	0	42	104	1235222528	66	28647
2026-01-05 09:24:52.72	350.83	8.80	-50.0	-65.9	3.8	1.49e+00	0	42	104	1235222528	70	23963
2026-01-05 09:24:53.58	350.79	8.73	-49.1	-65.9	3.8	1.49e+00	0	42	104	1235222528	70	24066
2026-01-05 09:24:54.73	350.73	8.64	-50.4	-66.1	3.8	1.49e+00	0	41	104	1235222528	71	23081
2026-01-05 09:24:55.59	350.68	8.58	-49.4	-66.0	3.8	1.49e+00	0	42	104	1235222528	70	24374
2026-01-05 09:24:56.73	350.63	8.49	-50.7	-66.2	3.8	1.49e+00	0	41	104	1235222528	71	23318
2026-01-05 09:24:57.59	350.59	8.42	-50.7	-66.1	3.8	1.49e+00	0	42	104	1235222528	72	21830
2026-01-05 09:24:58.74	350.53	8.33	-50.3	-66.1	3.8	1.49e+00	0	42	104	1235222528	72	21920
2026-01-05 09:24:59.60	350.49	8.26	-50.5	-66.1	3.8	1.49e+00	0	42	104	1235222528	72	21860
2026-01-05 09:25:00.74	350.43	8.18	-50.5	-66.1	3.8	1.49e+00	0	41	104	1235222528	72	21922
2026-01-05 09:25:01.60	350.39	8.11	-50.8	-66.1	3.8	1.49e+00	0	42	104	1235222528	72	21886
2026-01-05 09:25:02.75	350.33	8.02	-50.7	-66.2	3.8	1.49e+00	0	41	104	1235222528	72	22017
2026-01-05 09:25:03.61	350.29	7.96	-50.6	-66.2	3.8	1.49e+00	0	42	104	1235222528	72	22011
2026-01-05 09:25:04.76	350.24	7.87	-50.8	-66.1	3.8	1.49e+00	0	41	104	1235222528	72	22003
2026-01-05 09:25:05.62	350.20	7.80	-50.5	-66.2	3.8	1.49e+00	0	42	104	1235222528	72	22038
2026-01-05 09:25:06.77	350.14	7.72	-50.8	-66.2	3.8	1.49e+00	0	42	104	1235222528	72	22103
2026-01-05 09:25:07.63	350.10	7.65	-50.6	-66.2	3.8	1.49e+00	0	42	104	1235222528	72	22165
2026-01-05 09:25:08.78	350.05	7.56	-50.9	-66.2	3.8	1.49e+00	0	42	104	1235222528	72	22100
2026-01-05 09:25:09.64	350.01	7.50	-51.0	-66.2	3.8	1.49e+00	0	42	104	1235222528	72	22083
