passes_logs/2026/01/05/T1/T1__20260105_012347_NOAA_20_JPSS-1_rec.log

#Pass ID: 20260105_012347_NOAA 20 (JPSS-1)
#Satellite: NOAA 20 (JPSS-1)
#Configuration: NOAA 20
#almurnet v.1.7.20251203
#Start time: 2026-01-05 01:23:49

#Version: 2.0.20230620
#Station: T1
#Location: 37.570604 lon 55.790049 lat
#TLE: 1 43013U 17073A   26004.47528369  .00000132  00000+0  83671-4 0  9999
#TLE: 2 43013  98.7626 305.5264 0001854  54.5883 305.5466 14.19533142421242

#Time	Az	El	Level	Level2	SNR	BER	BlckErr	Temp	State	Recorded	gain1	gain2
2026-01-05 01:23:49.21	6.20	5.12	-53.6	-68.8	3.8	1.49e+00	0	37	0	0	77	22350
2026-01-05 01:23:50.21	6.12	5.18	-53.6	-68.8	3.8	1.49e+00	0	37	104	0	79	19862
2026-01-05 01:23:51.22	6.04	5.24	-53.6	-68.8	3.8	1.49e+00	0	37	104	0	79	19854
2026-01-05 01:23:52.22	5.95	5.30	-53.6	-68.7	3.8	1.49e+00	0	37	104	0	79	19839
2026-01-05 01:23:53.22	5.87	5.36	-53.5	-68.8	3.8	1.49e+00	0	37	104	0	79	19896
2026-01-05 01:23:54.23	5.79	5.42	-53.6	-68.8	3.8	1.49e+00	0	37	104	0	79	19849
2026-01-05 01:23:55.23	5.70	5.48	-53.5	-68.7	3.8	1.49e+00	0	37	104	0	79	19799
2026-01-05 01:23:56.24	5.62	5.54	-53.5	-68.7	3.8	1.49e+00	0	37	104	0	79	19785
2026-01-05 01:23:57.24	5.53	5.60	-53.5	-68.7	3.8	1.49e+00	0	37	104	0	79	19738
2026-01-05 01:23:58.24	5.45	5.66	-53.5	-68.8	3.8	1.49e+00	0	37	104	0	79	19864
2026-01-05 01:23:59.25	5.36	5.73	-53.5	-68.8	3.8	1.49e+00	0	37	104	0	79	19902
2026-01-05 01:24:00.25	5.28	5.79	-53.5	-68.8	3.8	1.49e+00	0	37	104	0	79	19854
2026-01-05 01:24:01.26	5.19	5.85	-53.5	-68.8	3.8	1.49e+00	0	37	104	0	79	19847
2026-01-05 01:24:02.26	5.10	5.91	-53.5	-68.7	3.8	1.49e+00	0	37	104	0	79	19756
2026-01-05 01:24:03.26	5.02	5.97	-53.5	-68.7	3.8	1.49e+00	0	37	104	0	79	19809
2026-01-05 01:24:04.27	4.93	6.03	-53.5	-68.7	3.8	1.49e+00	0	37	104	0	79	19837
2026-01-05 01:24:05.27	4.84	6.09	-53.5	-68.7	3.8	1.49e+00	0	37	104	0	79	19759
2026-01-05 01:24:06.28	4.75	6.16	-53.5	-68.7	3.8	1.49e+00	0	37	104	0	78	20961
2026-01-05 01:24:07.28	4.66	6.22	-53.5	-68.7	3.8	1.49e+00	0	37	104	0	78	20949
2026-01-05 01:24:08.28	4.57	6.28	-53.5	-68.7	3.8	1.49e+00	0	37	104	0	78	20997
2026-01-05 01:24:09.29	4.48	6.34	-53.5	-68.7	3.8	1.49e+00	0	37	104	0	78	20961
2026-01-05 01:24:10.29	4.40	6.40	-53.5	-68.8	3.8	1.49e+00	0	38	104	0	78	21040
2026-01-05 01:24:11.30	4.30	6.47	-53.5	-68.8	3.8	1.49e+00	0	38	104	0	78	21045
2026-01-05 01:24:12.30	4.21	6.53	-53.5	-68.8	3.8	1.49e+00	0	38	104	0	78	21049
2026-01-05 01:24:13.30	4.12	6.59	-53.5	-68.7	3.8	1.49e+00	0	38	104	0	78	20992
2026-01-05 01:24:14.31	4.03	6.65	-53.5	-68.8	3.8	1.49e+00	0	37	104	0	78	21061
2026-01-05 01:24:15.31	3.94	6.71	-53.5	-68.8	3.8	1.49e+00	0	38	104	0	78	21077
2026-01-05 01:24:16.32	3.85	6.78	-53.5	-68.7	3.8	1.49e+00	0	38	104	0	78	20961
2026-01-05 01:24:17.32	3.75	6.84	-53.5	-68.8	3.8	1.49e+00	0	38	104	0	78	21091
2026-01-05 01:24:18.32	3.66	6.90	-53.5	-68.7	3.8	1.49e+00	0	38	104	0	78	20964
2026-01-05 01:24:19.33	3.57	6.97	-53.5	-68.7	3.8	1.49e+00	0	38	104	0	78	20948
2026-01-05 01:24:20.33	3.47	7.03	-53.5	-68.8	3.8	1.49e+00	0	38	104	0	78	21148
2026-01-05 01:24:21.34	3.38	7.09	-53.5	-68.8	3.8	1.49e+00	0	38	104	0	78	21183
2026-01-05 01:24:22.34	3.29	7.15	-53.5	-68.8	3.8	1.49e+00	0	38	104	0	78	21038
2026-01-05 01:24:23.34	3.19	7.22	-53.5	-68.8	3.8	1.49e+00	0	38	104	0	78	21027
2026-01-05 01:24:24.35	3.09	7.28	-53.4	-68.8	3.8	1.49e+00	0	38	104	0	78	21103
2026-01-05 01:24:25.35	3.00	7.34	-53.5	-68.8	3.8	1.49e+00	0	38	104	0	78	21052
2026-01-05 01:24:26.35	2.90	7.41	-53.5	-68.8	3.8	1.49e+00	0	38	104	0	78	21052
2026-01-05 01:24:27.36	2.80	7.47	-53.5	-68.8	3.8	1.49e+00	0	38	104	0	78	21111
2026-01-05 01:24:28.36	2.71	7.53	-53.5	-68.8	3.8	1.49e+00	0	38	104	0	78	21056
2026-01-05 01:24:29.37	2.61	7.60	-53.5	-68.8	3.8	1.49e+00	0	38	104	0	78	21071
2026-01-05 01:24:30.37	2.51	7.66	-53.5	-68.8	3.8	1.49e+00	0	38	104	0	78	21060
2026-01-05 01:24:31.38	2.41	7.72	-53.5	-68.8	3.8	1.49e+00	0	38	104	0	78	21064
2026-01-05 01:24:32.38	2.31	7.79	-53.5	-68.8	3.8	1.49e+00	0	38	104	0	78	21056
2026-01-05 01:24:33.39	2.21	7.85	-53.5	-68.8	3.8	1.49e+00	0	38	104	0	78	21047
2026-01-05 01:24:34.39	2.11	7.92	-53.6	-68.8	3.8	1.49e+00	0	38	104	0	78	21066
2026-01-05 01:24:35.39	2.01	7.98	-53.6	-68.8	3.8	1.49e+00	0	38	104	0	78	21106
2026-01-05 01:24:36.40	1.91	8.04	-53.5	-68.8	3.8	1.49e+00	0	38	104	0	78	21175
2026-01-05 01:24:37.40	1.81	8.11	-53.6	-68.8	3.8	1.49e+00	0	38	104	0	78	21090
2026-01-05 01:24:38.41	1.71	8.17	-53.6	-68.8	3.8	1.49e+00	0	38	104	0	78	21039
2026-01-05 01:24:39.41	1.61	8.24	-53.5	-68.8	3.8	1.49e+00	0	38	104	0	78	21125
2026-01-05 01:24:40.42	1.50	8.30	-53.6	-68.7	3.8	1.49e+00	0	38	104	0	78	21005
2026-01-05 01:24:41.42	1.40	8.37	-53.6	-68.8	3.8	1.49e+00	0	38	104	0	78	21063
2026-01-05 01:24:42.42	1.30	8.43	-53.6	-68.8	3.8	1.49e+00	0	38	104	0	78	21043
2026-01-05 01:24:43.43	1.19	8.49	-53.6	-68.8	3.8	1.49e+00	0	38	104	0	78	21228
2026-01-05 01:24:44.43	1.09	8.56	-53.6	-68.8	3.8	1.49e+00	0	38	104	0	78	21225
2026-01-05 01:24:45.44	0.98	8.62	-53.6	-68.8	3.8	1.49e+00	0	38	104	0	78	21136
2026-01-05 01:24:46.44	0.88	8.69	-53.6	-68.8	3.8	1.49e+00	0	38	104	0	78	21116
2026-01-05 01:24:47.44	0.77	8.75	-53.6	-68.8	3.8	1.49e+00	0	38	104	0	78	21071
2026-01-05 01:24:48.45	0.66	8.82	-53.6	-68.8	3.8	1.49e+00	0	38	104	0	78	21148
2026-01-05 01:24:49.45	0.56	8.88	-53.7	-68.8	3.8	1.49e+00	0	38	104	0	78	21196
2026-01-05 01:24:50.45	0.45	8.95	-53.7	-68.8	3.8	1.49e+00	0	38	104	0	78	21074
2026-01-05 01:24:51.46	0.34	9.01	-53.7	-68.8	3.8	1.49e+00	0	38	104	0	78	21119
2026-01-05 01:24:52.47	0.23	9.08	-53.6	-68.8	3.8	1.49e+00	0	38	104	0	78	21091
2026-01-05 01:24:53.47	0.12	9.14	-53.7	-68.8	3.8	1.49e+00	0	39	104	0	78	21165
2026-01-05 01:24:54.47	0.01	9.21	-53.7	-68.8	3.8	1.49e+00	0	38	104	0	78	21097
2026-01-05 01:24:55.48	359.90	9.28	-53.7	-68.8	3.8	1.49e+00	0	39	104	0	78	21131
2026-01-05 01:24:56.48	359.79	9.34	-53.7	-68.8	3.8	1.49e+00	0	39	104	0	78	21210
2026-01-05 01:24:57.49	359.68	9.41	-53.7	-68.8	3.8	1.49e+00	0	38	104	0	78	21221
2026-01-05 01:24:58.49	359.57	9.47	-53.7	-68.8	3.8	1.49e+00	0	39	104	0	78	21233
2026-01-05 01:24:59.49	359.46	9.54	-53.7	-68.8	3.8	1.49e+00	0	39	104	0	78	21144
2026-01-05 01:25:00.50	359.34	9.60	-53.7	-68.8	3.8	1.49e+00	0	39	104	0	78	21203
2026-01-05 01:25:01.50	359.23	9.67	-53.7	-68.8	3.8	1.49e+00	0	39	104	0	78	21227
2026-01-05 01:25:02.50	359.12	9.73	-53.7	-68.8	3.8	1.49e+00	0	39	104	0	78	21150
2026-01-05 01:25:03.51	359.00	9.80	-53.7	-68.8	3.8	1.49e+00	0	39	104	0	78	21153
2026-01-05 01:25:04.52	358.89	9.87	-53.7	-68.8	3.8	1.49e+00	0	39	104	0	78	21120
2026-01-05 01:25:05.52	358.77	9.93	-53.7	-68.8	3.8	1.49e+00	0	39	104	0	78	21164
2026-01-05 01:25:06.52	358.66	10.00	-53.7	-68.8	3.8	1.49e+00	0	39	104	0	78	21140
2026-01-05 01:25:07.53	358.54	10.07	-53.7	-68.8	3.8	1.49e+00	0	39	104	0	78	21181
2026-01-05 01:25:08.53	358.42	10.13	-53.7	-68.8	3.8	1.49e+00	0	39	104	0	78	21180
2026-01-05 01:25:09.54	358.30	10.20	-53.7	-68.8	3.8	1.49e+00	0	39	104	0	78	21204
2026-01-05 01:25:10.54	358.19	10.27	-53.7	-68.8	3.8	1.49e+00	0	39	104	0	78	21167
2026-01-05 01:25:11.54	358.07	10.33	-53.7	-68.9	3.8	1.49e+00	0	39	104	0	78	21308
2026-01-05 01:25:12.55	357.95	10.40	-53.7	-68.9	3.8	1.49e+00	0	39	104	0	78	21310
2026-01-05 01:25:13.55	357.83	10.46	-53.7	-68.8	3.8	1.49e+00	0	39	104	0	78	21245
2026-01-05 01:25:14.56	357.71	10.53	-53.7	-68.9	3.8	1.49e+00	0	39	104	0	78	21315
2026-01-05 01:25:15.56	357.59	10.60	-53.7	-68.9	3.8	1.49e+00	0	39	104	0	78	21336
2026-01-05 01:25:16.57	357.47	10.67	-53.7	-68.9	3.8	1.49e+00	0	39	104	0	78	21303
2026-01-05 01:25:17.57	357.34	10.73	-53.7	-68.9	3.8	1.49e+00	0	39	104	0	78	21323
2026-01-05 01:25:18.57	357.22	10.80	-53.7	-68.9	3.8	1.49e+00	0	39	104	0	78	21315
2026-01-05 01:25:19.58	357.10	10.87	-53.7	-68.9	3.8	1.49e+00	0	39	104	0	78	21299
2026-01-05 01:25:20.58	356.97	10.93	-53.7	-68.9	3.8	1.49e+00	0	39	104	0	78	21319
2026-01-05 01:25:21.59	356.85	11.00	-53.7	-68.8	3.8	1.49e+00	0	39	104	0	78	21242
2026-01-05 01:25:22.59	356.72	11.07	-53.7	-68.9	3.8	1.49e+00	0	39	104	0	78	21329
2026-01-05 01:25:23.59	356.60	11.13	-53.7	-68.9	3.8	1.49e+00	0	39	104	0	78	21439
2026-01-05 01:25:24.60	356.47	11.20	-53.7	-68.9	3.8	1.49e+00	0	39	104	0	78	21363
2026-01-05 01:25:25.60	356.35	11.27	-53.7	-68.9	3.8	1.49e+00	0	39	104	0	78	21332
2026-01-05 01:25:26.61	356.22	11.34	-53.7	-68.9	3.8	1.49e+00	0	39	104	0	78	21303
2026-01-05 01:25:27.61	356.09	11.40	-53.7	-68.9	3.8	1.49e+00	0	39	104	0	78	21284
2026-01-05 01:25:28.62	355.96	11.47	-53.7	-68.9	3.8	1.49e+00	0	39	104	0	78	21315
2026-01-05 01:25:29.62	355.83	11.54	-53.7	-68.9	3.8	1.49e+00	0	39	104	0	78	21277
2026-01-05 01:25:30.62	355.70	11.60	-53.7	-68.9	3.8	1.49e+00	0	39	104	0	78	21301
2026-01-05 01:25:31.63	355.57	11.67	-53.7	-68.9	3.8	1.49e+00	0	39	104	0	78	21345
2026-01-05 01:25:32.63	355.44	11.74	-53.7	-68.9	3.8	1.49e+00	0	39	104	0	78	21305
2026-01-05 01:25:33.63	355.31	11.81	-53.7	-68.9	3.8	1.49e+00	0	39	104	0	78	21272
2026-01-05 01:25:34.64	355.18	11.87	-53.7	-68.9	3.8	1.49e+00	0	39	104	0	78	21277
2026-01-05 01:25:35.64	355.04	11.94	-53.7	-68.9	3.8	1.49e+00	0	39	104	0	78	21300
2026-01-05 01:25:36.65	354.91	12.01	-53.7	-68.9	3.8	1.49e+00	0	39	104	0	78	21369
2026-01-05 01:25:37.65	354.78	12.08	-53.7	-68.9	3.8	1.49e+00	0	39	104	0	78	21264
2026-01-05 01:25:38.66	354.64	12.15	-53.7	-68.9	3.8	1.49e+00	0	39	104	0	78	21327
2026-01-05 01:25:39.66	354.51	12.21	-53.7	-68.9	3.8	1.49e+00	0	39	104	0	78	21305
2026-01-05 01:25:40.66	354.37	12.28	-53.7	-68.9	3.8	1.49e+00	0	39	104	0	78	21368
2026-01-05 01:25:41.67	354.23	12.35	-53.7	-68.9	3.8	1.49e+00	0	39	104	0	78	21328
2026-01-05 01:25:42.67	354.10	12.42	-53.7	-68.9	3.8	1.49e+00	0	39	104	0	78	21283
2026-01-05 01:25:43.68	353.96	12.48	-53.7	-68.9	3.8	1.49e+00	0	39	104	0	78	21375
2026-01-05 01:25:44.68	353.82	12.55	-53.7	-68.9	3.8	1.49e+00	0	39	104	0	78	21359
2026-01-05 01:25:45.69	353.68	12.62	-53.7	-68.9	3.8	1.49e+00	0	39	104	0	78	21322
2026-01-05 01:25:46.69	353.54	12.69	-53.7	-68.9	3.8	1.49e+00	0	39	104	0	78	21371
2026-01-05 01:25:47.69	353.40	12.76	-53.7	-68.9	3.8	1.49e+00	0	39	104	0	78	21326
2026-01-05 01:25:48.70	353.26	12.82	-53.7	-68.9	3.8	1.49e+00	0	39	104	0	78	21355
2026-01-05 01:25:49.70	353.12	12.89	-53.7	-68.9	3.8	1.49e+00	0	39	104	0	78	21456
2026-01-05 01:25:50.71	352.97	12.96	-53.7	-68.9	3.8	1.49e+00	0	39	104	0	78	21309
2026-01-05 01:25:51.71	352.83	13.03	-53.7	-68.9	3.8	1.49e+00	0	39	104	0	78	21348
2026-01-05 01:25:52.72	352.68	13.10	-53.7	-68.9	3.8	1.49e+00	0	39	104	0	78	21302
2026-01-05 01:25:53.72	352.54	13.16	-53.8	-68.9	3.8	1.49e+00	0	39	104	0	78	21398
2026-01-05 01:25:54.72	352.40	13.23	-53.7	-68.9	3.8	1.49e+00	0	39	104	0	78	21377
2026-01-05 01:25:55.73	352.25	13.30	-53.7	-68.9	3.8	1.49e+00	0	39	104	0	78	21349
2026-01-05 01:25:56.73	352.10	13.37	-53.8	-68.9	3.8	1.49e+00	0	39	104	0	78	21411
2026-01-05 01:25:57.74	351.95	13.44	-53.8	-68.9	3.8	1.49e+00	0	39	104	0	78	21358
2026-01-05 01:25:58.74	351.81	13.50	-53.8	-68.9	3.8	1.49e+00	0	39	104	0	78	21367
2026-01-05 01:25:59.75	351.66	13.57	-53.8	-68.9	3.8	1.49e+00	0	39	104	0	78	21398
2026-01-05 01:26:00.75	351.51	13.64	-53.8	-68.9	3.8	1.49e+00	0	39	104	0	78	21359
2026-01-05 01:26:01.75	351.36	13.71	-53.8	-68.9	3.8	1.49e+00	0	39	104	0	78	21445
2026-01-05 01:26:02.76	351.21	13.78	-53.8	-68.9	3.8	1.49e+00	0	39	104	0	78	21422
2026-01-05 01:26:03.76	351.06	13.84	-53.8	-68.9	3.8	1.49e+00	0	39	104	0	78	21483
2026-01-05 01:26:04.76	350.90	13.91	-53.8	-68.9	3.8	1.49e+00	0	39	104	0	78	21439
2026-01-05 01:26:05.77	350.75	13.98	-53.8	-68.9	3.8	1.49e+00	0	39	104	0	78	21495
2026-01-05 01:26:06.77	350.60	14.05	-53.8	-68.9	3.8	1.49e+00	0	39	104	0	78	21359
2026-01-05 01:26:07.78	350.44	14.12	-53.8	-68.9	3.8	1.49e+00	0	39	104	0	78	21348
2026-01-05 01:26:08.78	350.29	14.18	-53.8	-68.9	3.8	1.49e+00	0	39	104	0	78	21486
2026-01-05 01:26:09.79	350.13	14.25	-53.8	-68.9	3.8	1.49e+00	0	39	104	0	78	21426
2026-01-05 01:26:10.79	349.97	14.32	-53.8	-68.9	3.8	1.49e+00	0	39	104	0	78	21354
2026-01-05 01:26:11.80	349.82	14.39	-53.8	-68.9	3.8	1.49e+00	0	39	104	0	78	21379
2026-01-05 01:26:12.80	349.66	14.46	-53.8	-68.9	3.8	1.49e+00	0	40	104	0	78	21499
2026-01-05 01:26:13.80	349.50	14.52	-53.8	-69.0	3.8	1.49e+00	0	39	104	0	78	21523
2026-01-05 01:26:14.81	349.34	14.59	-53.8	-68.9	3.8	1.49e+00	0	40	104	0	78	21464
2026-01-05 01:26:15.81	349.18	14.66	-53.8	-68.9	3.8	1.49e+00	0	39	104	0	78	21420
2026-01-05 01:26:16.82	349.02	14.73	-53.8	-68.9	3.8	1.49e+00	0	39	104	0	78	21431
2026-01-05 01:26:17.82	348.86	14.79	-53.8	-68.9	3.8	1.49e+00	0	39	104	0	78	21445
2026-01-05 01:26:18.82	348.69	14.86	-53.8	-68.9	3.8	1.49e+00	0	39	104	0	78	21486
2026-01-05 01:26:19.83	348.53	14.93	-53.9	-69.0	3.8	1.49e+00	0	40	104	0	78	21523
2026-01-05 01:26:20.83	348.37	15.00	-53.8	-68.9	3.8	1.49e+00	0	39	104	0	78	21420
2026-01-05 01:26:21.84	348.20	15.06	-53.9	-69.0	3.8	1.49e+00	0	40	104	0	78	21523
2026-01-05 01:26:22.84	348.03	15.13	-53.8	-68.9	3.8	1.49e+00	0	40	104	0	78	21431
2026-01-05 01:26:23.85	347.87	15.20	-53.8	-68.9	3.8	1.49e+00	0	39	104	0	78	21494
2026-01-05 01:26:24.85	347.70	15.27	-53.8	-69.0	3.8	1.49e+00	0	40	104	0	78	21535
2026-01-05 01:26:25.86	347.53	15.33	-53.8	-68.9	3.8	1.49e+00	0	39	104	0	78	21469
2026-01-05 01:26:26.86	347.36	15.40	-53.8	-68.9	3.8	1.49e+00	0	39	104	0	78	21444
2026-01-05 01:26:27.86	347.19	15.47	-53.8	-68.9	3.8	1.49e+00	0	40	104	0	78	21381
2026-01-05 01:26:28.87	347.02	15.53	-53.8	-68.9	3.8	1.49e+00	0	39	104	0	78	21457
2026-01-05 01:26:29.87	346.85	15.60	-53.8	-68.9	3.8	1.49e+00	0	39	104	0	78	21424
2026-01-05 01:26:30.88	346.68	15.67	-53.9	-68.9	3.8	1.49e+00	0	40	104	0	78	21454
2026-01-05 01:26:31.88	346.51	15.74	-53.8	-69.0	3.8	1.49e+00	0	40	104	0	78	21516
2026-01-05 01:26:32.89	346.33	15.80	-53.8	-68.9	3.8	1.49e+00	0	40	104	0	78	21376
2026-01-05 01:26:33.89	346.16	15.87	-53.9	-69.0	3.8	1.49e+00	0	40	104	0	78	21527
2026-01-05 01:26:34.90	345.98	15.94	-53.9	-69.0	3.8	1.49e+00	0	40	104	0	78	21569
2026-01-05 01:26:35.90	345.81	16.00	-53.9	-68.9	3.8	1.49e+00	0	40	104	0	78	21433
2026-01-05 01:26:36.90	345.63	16.07	-53.8	-69.0	3.8	1.49e+00	0	39	104	0	78	21544
2026-01-05 01:26:37.91	345.45	16.13	-53.9	-68.9	3.8	1.49e+00	0	40	104	0	78	21490
2026-01-05 01:26:38.91	345.28	16.20	-53.9	-69.0	3.8	1.49e+00	0	40	104	0	78	21571
2026-01-05 01:26:39.92	345.10	16.27	-53.9	-68.9	3.8	1.49e+00	0	39	104	0	78	21440
2026-01-05 01:26:40.92	344.92	16.33	-53.8	-69.0	3.8	1.49e+00	0	39	104	0	78	21623
2026-01-05 01:26:41.92	344.74	16.40	-53.8	-68.9	3.8	1.49e+00	0	40	104	0	78	21483
2026-01-05 01:26:42.93	344.56	16.46	-53.8	-69.0	3.8	1.49e+00	0	40	104	0	78	21534
2026-01-05 01:26:43.93	344.37	16.53	-53.7	-68.9	3.8	1.49e+00	0	40	104	0	78	21504
2026-01-05 01:26:44.94	344.19	16.59	-53.8	-68.9	3.8	1.49e+00	0	40	104	0	78	21488
2026-01-05 01:26:45.94	344.01	16.66	-53.7	-69.0	3.8	1.49e+00	0	40	104	0	78	21533
2026-01-05 01:26:46.95	343.82	16.73	-53.7	-68.9	3.8	1.49e+00	0	40	104	0	78	21485
2026-01-05 01:26:47.95	343.64	16.79	-53.8	-68.9	3.8	1.49e+00	0	40	104	0	78	21481
2026-01-05 01:26:48.96	343.45	16.86	-53.8	-69.0	3.8	1.49e+00	0	40	104	0	78	21565
2026-01-05 01:26:49.96	343.26	16.92	-53.9	-69.0	3.8	1.49e+00	0	40	104	0	78	21687
2026-01-05 01:26:50.96	343.07	16.98	-53.8	-69.0	3.8	1.49e+00	0	40	104	0	78	21515
2026-01-05 01:26:51.97	342.88	17.05	-53.8	-68.9	3.8	1.49e+00	0	39	104	0	78	21480
2026-01-05 01:26:52.97	342.70	17.11	-53.8	-69.0	3.8	1.49e+00	0	40	104	0	78	21515
2026-01-05 01:26:53.98	342.50	17.18	-53.8	-69.0	3.8	1.49e+00	0	40	104	0	78	21521
2026-01-05 01:26:54.98	342.31	17.24	-53.8	-68.9	3.8	1.49e+00	0	40	104	0	78	21506
2026-01-05 01:26:55.99	342.12	17.31	-53.7	-68.9	3.8	1.49e+00	0	40	104	0	78	21412
2026-01-05 01:26:56.99	341.93	17.37	-53.8	-69.0	3.8	1.49e+00	0	40	104	0	78	21536
2026-01-05 01:26:58.00	341.73	17.43	-53.7	-68.9	3.8	1.49e+00	0	40	104	0	78	21504
2026-01-05 01:26:59.00	341.54	17.50	-53.7	-68.9	3.8	1.49e+00	0	40	104	0	78	21476
2026-01-05 01:27:00.00	341.35	17.56	-53.8	-68.9	3.8	1.49e+00	0	40	104	0	78	21447
2026-01-05 01:27:01.01	341.15	17.62	-53.7	-69.0	3.8	1.49e+00	0	40	104	0	78	21693
2026-01-05 01:27:02.01	340.95	17.68	-53.8	-69.0	3.8	1.49e+00	0	40	104	0	78	21740
2026-01-05 01:27:03.01	340.75	17.75	-53.9	-69.1	3.8	1.49e+00	0	40	104	0	78	21760
2026-01-05 01:27:04.02	340.55	17.81	-53.9	-69.0	3.8	1.49e+00	0	40	104	0	78	21666
2026-01-05 01:27:05.02	340.36	17.87	-53.8	-69.0	3.8	1.49e+00	0	40	104	0	78	21747
2026-01-05 01:27:06.02	340.16	17.93	-53.9	-69.0	3.8	1.49e+00	0	39	104	0	78	21678
2026-01-05 01:27:07.03	339.95	18.00	-53.9	-69.1	3.8	1.49e+00	0	40	104	0	78	21759
2026-01-05 01:27:08.03	339.75	18.06	-53.8	-69.0	3.8	1.49e+00	0	40	104	0	78	21731
2026-01-05 01:27:09.04	339.55	18.12	-53.9	-69.0	3.8	1.49e+00	0	40	104	0	78	21726
2026-01-05 01:27:10.04	339.35	18.18	-53.9	-69.0	3.8	1.49e+00	0	39	104	0	78	21752
2026-01-05 01:27:11.05	339.14	18.24	-53.8	-69.1	3.8	1.49e+00	0	39	104	0	78	21779
2026-01-05 01:27:12.05	338.94	18.30	-53.9	-69.0	3.8	1.49e+00	0	40	104	0	78	21700
2026-01-05 01:27:13.05	338.73	18.36	-53.8	-69.1	3.8	1.49e+00	0	40	104	0	78	21938
2026-01-05 01:27:14.06	338.52	18.42	-53.9	-69.1	3.8	1.49e+00	0	40	104	0	78	21939
2026-01-05 01:27:15.06	338.31	18.48	-53.9	-69.1	3.8	1.49e+00	0	40	104	0	78	21782
2026-01-05 01:27:16.07	338.10	18.54	-53.9	-69.1	3.8	1.49e+00	0	40	104	0	78	21807
2026-01-05 01:27:17.07	337.90	18.60	-53.8	-69.1	3.8	1.49e+00	0	40	104	0	78	21844
2026-01-05 01:27:18.08	337.68	18.66	-53.9	-69.1	3.8	1.49e+00	0	40	104	0	78	21764
2026-01-05 01:27:19.08	337.47	18.72	-53.9	-69.1	3.8	1.49e+00	0	40	104	0	78	21958
2026-01-05 01:27:20.09	337.26	18.78	-53.9	-69.1	3.8	1.49e+00	0	40	104	0	78	21927
2026-01-05 01:27:21.09	337.05	18.84	-53.9	-69.1	3.8	1.49e+00	0	40	104	0	78	21837
2026-01-05 01:27:22.10	336.83	18.90	-53.9	-69.1	3.8	1.49e+00	0	40	104	0	78	21772
2026-01-05 01:27:23.10	336.62	18.95	-53.9	-69.1	3.8	1.49e+00	0	40	104	0	78	21879
2026-01-05 01:27:24.10	336.40	19.01	-53.9	-69.1	3.8	1.49e+00	0	40	104	0	78	22002
2026-01-05 01:27:25.11	336.19	19.07	-54.0	-69.1	3.8	1.49e+00	0	40	104	0	78	21962
2026-01-05 01:27:26.11	335.97	19.12	-54.0	-69.1	3.8	1.49e+00	0	40	104	0	78	21949
2026-01-05 01:27:27.11	335.75	19.18	-53.9	-69.1	3.8	1.49e+00	0	40	104	0	78	21924
2026-01-05 01:27:28.12	335.53	19.24	-53.9	-69.2	3.8	1.49e+00	0	40	104	0	78	22077
2026-01-05 01:27:29.12	335.32	19.29	-54.0	-69.2	3.8	1.49e+00	0	40	104	0	78	22019
2026-01-05 01:27:30.13	335.09	19.35	-53.9	-69.2	3.8	1.49e+00	0	40	104	0	78	22087
2026-01-05 01:27:31.13	334.87	19.40	-53.9	-69.1	3.8	1.49e+00	0	40	104	0	78	22001
2026-01-05 01:27:32.14	334.65	19.46	-53.9	-69.1	3.8	1.49e+00	0	40	104	0	78	21985
2026-01-05 01:27:33.14	334.43	19.51	-53.9	-69.2	3.8	1.49e+00	0	40	104	0	78	22144
2026-01-05 01:27:34.14	334.21	19.57	-54.0	-69.2	3.8	1.49e+00	0	40	104	0	78	22167
2026-01-05 01:27:35.15	333.98	19.62	-54.0	-69.2	3.8	1.49e+00	0	40	104	0	78	22079
2026-01-05 01:27:36.15	333.76	19.68	-53.9	-69.2	3.8	1.49e+00	0	40	104	0	78	22037
2026-01-05 01:27:37.16	333.53	19.73	-54.0	-69.2	3.8	1.49e+00	0	40	104	0	78	22140
2026-01-05 01:27:38.16	333.30	19.78	-53.9	-69.2	3.8	1.49e+00	0	40	104	0	78	22149
2026-01-05 01:27:39.16	333.08	19.84	-53.9	-69.2	3.8	1.49e+00	0	40	104	0	78	22063
2026-01-05 01:27:40.17	332.85	19.89	-53.9	-69.2	3.8	1.49e+00	0	40	104	0	78	22050
2026-01-05 01:27:41.17	332.62	19.94	-53.9	-69.2	3.8	1.49e+00	0	39	104	0	78	22054
2026-01-05 01:27:42.18	332.39	19.99	-53.9	-69.2	3.8	1.49e+00	0	40	104	0	78	22127
2026-01-05 01:27:43.18	332.16	20.04	-54.0	-69.2	3.8	1.49e+00	0	40	104	0	78	22037
2026-01-05 01:27:44.19	331.92	20.09	-54.0	-69.2	3.8	1.49e+00	0	40	104	0	78	22179
2026-01-05 01:27:45.19	331.69	20.14	-54.0	-69.2	3.8	1.49e+00	0	40	104	0	78	22060
2026-01-05 01:27:46.19	331.46	20.19	-53.9	-69.2	3.8	1.49e+00	0	40	104	0	78	22107
2026-01-05 01:27:47.20	331.23	20.24	-54.0	-69.2	3.8	1.49e+00	0	40	104	0	78	22193
2026-01-05 01:27:48.20	330.99	20.29	-54.1	-69.2	3.8	1.49e+00	0	40	104	0	78	22111
2026-01-05 01:27:49.21	330.75	20.34	-54.0	-69.2	3.8	1.49e+00	0	40	104	0	78	22145
2026-01-05 01:27:50.21	330.52	20.39	-54.0	-69.2	3.8	1.49e+00	0	40	104	0	78	22062
2026-01-05 01:27:51.21	330.28	20.44	-54.0	-69.2	3.8	1.49e+00	0	40	104	0	78	22106
2026-01-05 01:27:52.22	330.04	20.49	-54.1	-69.2	3.8	1.49e+00	0	40	104	0	78	22198
2026-01-05 01:27:53.22	329.81	20.53	-54.0	-69.2	3.8	1.49e+00	0	40	104	0	78	22234
2026-01-05 01:27:54.23	329.57	20.58	-54.1	-69.2	3.8	1.49e+00	0	40	104	0	78	22186
2026-01-05 01:27:55.23	329.33	20.63	-54.1	-69.3	3.8	1.49e+00	0	40	104	0	78	22276
2026-01-05 01:27:56.24	329.09	20.67	-54.1	-69.2	3.8	1.49e+00	0	40	104	0	78	22249
2026-01-05 01:27:57.24	328.85	20.72	-54.1	-69.3	3.8	1.49e+00	0	40	104	0	78	22270
2026-01-05 01:27:58.24	328.60	20.76	-54.0	-69.3	3.8	1.49e+00	0	40	104	0	78	22271
2026-01-05 01:27:59.25	328.36	20.81	-54.1	-69.3	3.8	1.49e+00	0	40	104	0	78	22326
2026-01-05 01:28:00.25	328.12	20.85	-54.1	-69.3	3.8	1.49e+00	0	40	104	0	78	22275
2026-01-05 01:28:01.26	327.87	20.89	-54.1	-69.3	3.8	1.49e+00	0	40	104	0	78	22338
2026-01-05 01:28:02.26	327.63	20.94	-54.1	-69.3	3.8	1.49e+00	0	40	104	0	78	22409
2026-01-05 01:28:03.26	327.38	20.98	-54.2	-69.3	3.8	1.49e+00	0	40	104	0	78	22384
2026-01-05 01:28:04.27	327.14	21.02	-54.2	-69.3	3.8	1.49e+00	0	40	104	0	78	22394
2026-01-05 01:28:05.27	326.89	21.06	-54.2	-69.3	3.8	1.49e+00	0	40	104	0	79	21222
2026-01-05 01:28:06.28	326.64	21.10	-54.2	-69.3	3.8	1.49e+00	0	40	104	0	79	21251
2026-01-05 01:28:07.28	326.39	21.14	-54.2	-69.4	3.8	1.49e+00	0	40	104	0	79	21270
2026-01-05 01:28:08.29	326.14	21.19	-54.2	-69.4	3.8	1.49e+00	0	40	104	0	79	21375
2026-01-05 01:28:09.29	325.89	21.22	-54.3	-69.4	3.8	1.49e+00	0	40	104	0	79	21401
2026-01-05 01:28:10.29	325.65	21.26	-54.3	-69.4	3.8	1.49e+00	0	40	104	0	79	21480
2026-01-05 01:28:11.30	325.39	21.30	-54.3	-69.4	3.8	1.49e+00	0	40	104	0	79	21416
2026-01-05 01:28:12.30	325.14	21.34	-54.3	-69.4	3.8	1.49e+00	0	40	104	0	79	21486
2026-01-05 01:28:13.31	324.89	21.38	-54.3	-69.4	3.8	1.49e+00	0	40	104	0	79	21449
2026-01-05 01:28:14.31	324.64	21.41	-54.3	-69.5	3.8	1.49e+00	0	40	104	0	79	21522
2026-01-05 01:28:15.31	324.39	21.45	-54.3	-69.5	3.8	1.49e+00	0	40	104	0	79	21512
2026-01-05 01:28:16.32	324.13	21.49	-54.3	-69.5	3.8	1.49e+00	0	40	104	0	79	21519
2026-01-05 01:28:17.32	323.88	21.52	-54.3	-69.5	3.8	1.49e+00	0	40	104	0	79	21525
2026-01-05 01:28:18.33	323.62	21.56	-54.3	-69.4	3.8	1.49e+00	0	40	104	0	79	21504
2026-01-05 01:28:19.33	323.37	21.59	-54.4	-69.5	3.8	1.49e+00	0	40	104	0	79	21602
2026-01-05 01:28:20.34	323.11	21.62	-54.4	-69.5	3.8	1.49e+00	0	40	104	0	79	21541
2026-01-05 01:28:21.34	322.85	21.66	-54.4	-69.4	3.8	1.49e+00	0	40	104	0	79	21504
2026-01-05 01:28:22.34	322.60	21.69	-54.4	-69.5	3.8	1.49e+00	0	40	104	0	79	21716
2026-01-05 01:28:23.35	322.34	21.72	-54.4	-69.5	3.8	1.49e+00	0	40	104	0	79	21510
2026-01-05 01:28:24.35	322.08	21.75	-54.4	-69.5	3.8	1.49e+00	0	40	104	0	79	21560
2026-01-05 01:28:25.36	321.82	21.78	-54.4	-69.5	3.8	1.49e+00	0	40	104	0	79	21672
2026-01-05 01:28:26.36	321.56	21.81	-54.4	-69.5	3.8	1.49e+00	0	40	104	0	79	21636
2026-01-05 01:28:27.37	321.30	21.84	-54.4	-69.5	3.8	1.49e+00	0	40	104	0	79	21529
2026-01-05 01:28:28.37	321.04	21.87	-54.4	-69.5	3.8	1.49e+00	0	40	104	0	79	21596
2026-01-05 01:28:29.37	320.78	21.90	-54.4	-69.4	3.8	1.49e+00	0	40	104	0	79	21503
2026-01-05 01:28:30.38	320.52	21.93	-53.5	-68.6	3.8	1.49e+00	0	40	104	0	78	20633
2026-01-05 01:28:31.38	320.25	21.96	-53.5	-68.6	3.8	1.49e+00	0	40	104	0	78	20587
2026-01-05 01:28:32.39	319.99	21.98	-53.5	-68.5	3.8	1.49e+00	0	40	104	0	78	20522
2026-01-05 01:28:33.39	319.73	22.01	-53.5	-68.6	3.8	1.49e+00	0	40	104	0	78	20594
2026-01-05 01:28:34.40	319.46	22.03	-53.5	-68.6	3.8	1.49e+00	0	40	104	0	78	20653
2026-01-05 01:28:35.40	319.20	22.06	-53.5	-68.5	3.8	1.49e+00	0	40	104	0	78	20521
2026-01-05 01:28:36.40	318.94	22.08	-53.5	-68.5	3.8	1.49e+00	0	40	104	0	78	20500
2026-01-05 01:28:37.41	318.67	22.11	-53.5	-68.5	3.8	1.49e+00	0	40	104	0	78	20478
2026-01-05 01:28:38.41	318.41	22.13	-53.5	-68.5	3.8	1.49e+00	0	40	104	0	78	20520
2026-01-05 01:28:39.42	318.14	22.15	-53.5	-68.6	3.8	1.49e+00	0	40	104	0	78	20562
2026-01-05 01:28:40.42	317.88	22.17	-53.5	-68.6	3.8	1.49e+00	0	40	104	0	78	20609
2026-01-05 01:28:41.43	317.61	22.19	-53.5	-68.5	3.8	1.49e+00	0	40	104	0	78	20525
2026-01-05 01:28:42.43	317.34	22.21	-53.5	-68.5	3.8	1.49e+00	0	40	104	0	78	20432
2026-01-05 01:28:43.44	317.08	22.23	-53.5	-68.6	3.8	1.49e+00	0	40	104	0	78	20560
2026-01-05 01:28:44.44	316.81	22.25	-53.5	-68.5	3.8	1.49e+00	0	40	104	0	78	20491
2026-01-05 01:28:45.44	316.54	22.27	-53.5	-68.6	3.8	1.49e+00	0	40	104	0	78	20549
2026-01-05 01:28:46.45	316.27	22.29	-53.5	-68.6	3.8	1.49e+00	0	40	104	0	78	20576
2026-01-05 01:28:47.45	316.01	22.30	-53.5	-68.5	3.8	1.49e+00	0	40	104	0	78	20484
2026-01-05 01:28:48.46	315.74	22.32	-53.5	-68.6	3.8	1.49e+00	0	40	104	0	78	20544
2026-01-05 01:28:49.46	315.47	22.34	-53.5	-68.5	3.8	1.49e+00	0	40	104	0	78	20460
2026-01-05 01:28:50.47	315.20	22.35	-53.5	-68.5	3.8	1.49e+00	0	40	104	0	78	20517
2026-01-05 01:28:51.47	314.93	22.37	-53.5	-68.5	3.8	1.49e+00	0	40	104	0	78	20472
2026-01-05 01:28:52.47	314.66	22.38	-53.5	-68.5	3.8	1.49e+00	0	40	104	0	78	20520
2026-01-05 01:28:53.48	314.39	22.39	-53.5	-68.6	3.8	1.49e+00	0	40	104	0	78	20590
2026-01-05 01:28:54.48	314.12	22.40	-53.5	-68.6	3.8	1.49e+00	0	40	104	0	78	20576
2026-01-05 01:28:55.49	313.85	22.42	-53.5	-68.5	3.8	1.49e+00	0	40	104	0	78	20469
2026-01-05 01:28:56.49	313.58	22.43	-53.5	-68.6	3.8	1.49e+00	0	40	104	0	78	20557
2026-01-05 01:28:57.50	313.31	22.44	-53.5	-68.5	3.8	1.49e+00	0	40	104	0	78	20525
2026-01-05 01:28:58.50	313.04	22.45	-53.5	-68.6	3.8	1.49e+00	0	40	104	0	78	20606
2026-01-05 01:28:59.50	312.77	22.46	-53.5	-68.5	3.8	1.49e+00	0	40	104	0	78	20463
2026-01-05 01:29:00.51	312.50	22.46	-53.5	-68.5	3.8	1.49e+00	0	40	104	0	78	20505
2026-01-05 01:29:01.51	312.23	22.47	-53.5	-68.6	3.8	1.49e+00	0	40	104	0	78	20581
2026-01-05 01:29:02.51	311.96	22.48	-53.4	-68.6	3.8	1.49e+00	0	40	104	0	78	20572
2026-01-05 01:29:03.52	311.68	22.48	-53.5	-68.5	3.8	1.49e+00	0	40	104	0	78	20480
2026-01-05 01:29:04.52	311.41	22.49	-53.5	-68.6	3.8	1.49e+00	0	40	104	0	78	20629
2026-01-05 01:29:05.53	311.14	22.49	-53.4	-68.5	3.8	1.49e+00	0	40	104	0	78	20438
2026-01-05 01:29:06.53	310.87	22.50	-53.4	-68.5	3.8	1.49e+00	0	40	104	0	78	20504
2026-01-05 01:29:07.53	310.60	22.50	-53.4	-68.6	3.8	1.49e+00	0	40	104	0	78	20545
2026-01-05 01:29:08.54	310.32	22.51	-53.4	-68.5	3.8	1.49e+00	0	40	104	0	78	20429
2026-01-05 01:29:09.54	310.05	22.51	-53.4	-68.5	3.8	1.49e+00	0	40	104	0	78	20451
2026-01-05 01:29:10.55	309.78	22.51	-53.4	-68.5	3.8	1.49e+00	0	40	104	0	78	20482
2026-01-05 01:29:11.55	309.51	22.51	-53.4	-68.5	3.8	1.49e+00	0	40	104	0	78	20464
2026-01-05 01:29:12.55	309.24	22.51	-53.4	-68.5	3.8	1.49e+00	0	40	104	0	78	20463
2026-01-05 01:29:13.56	308.97	22.51	-53.4	-68.5	3.8	1.49e+00	0	40	104	0	78	20453
2026-01-05 01:29:14.56	308.69	22.51	-53.4	-68.5	3.8	1.49e+00	0	40	104	0	78	20495
2026-01-05 01:29:15.57	308.42	22.50	-53.4	-68.5	3.8	1.49e+00	0	40	104	0	78	20435
2026-01-05 01:29:16.57	308.15	22.50	-53.4	-68.5	3.8	1.49e+00	0	40	104	0	78	20475
2026-01-05 01:29:17.58	307.88	22.50	-53.4	-68.5	3.8	1.49e+00	0	40	104	0	78	20420
2026-01-05 01:29:18.58	307.61	22.49	-53.4	-68.5	3.8	1.49e+00	0	40	104	0	78	20396
2026-01-05 01:29:19.59	307.33	22.49	-53.4	-68.5	3.8	1.49e+00	0	40	104	0	78	20421
2026-01-05 01:29:20.59	307.06	22.48	-53.3	-68.5	3.8	1.49e+00	0	40	104	0	78	20402
2026-01-05 01:29:21.59	306.79	22.48	-53.4	-68.5	3.8	1.49e+00	0	40	104	0	78	20414
2026-01-05 01:29:22.60	306.52	22.47	-53.4	-68.5	3.8	1.49e+00	0	40	104	0	78	20392
2026-01-05 01:29:23.60	306.25	22.46	-53.4	-68.5	3.8	1.49e+00	0	40	104	0	78	20435
2026-01-05 01:29:24.61	305.98	22.45	-53.4	-68.5	3.8	1.49e+00	0	40	104	0	78	20525
2026-01-05 01:29:25.61	305.71	22.45	-53.4	-68.5	3.8	1.49e+00	0	40	104	0	78	20435
2026-01-05 01:29:26.62	305.43	22.44	-53.4	-68.5	3.8	1.49e+00	0	40	104	0	78	20391
2026-01-05 01:29:27.62	305.16	22.43	-53.3	-68.5	3.8	1.49e+00	0	40	104	0	78	20417
2026-01-05 01:29:28.63	304.89	22.41	-53.4	-68.5	3.8	1.49e+00	0	40	104	0	78	20432
2026-01-05 01:29:29.63	304.62	22.40	-53.4	-68.5	3.8	1.49e+00	0	40	104	0	78	20508
2026-01-05 01:29:30.63	304.35	22.39	-53.3	-68.5	3.8	1.49e+00	0	40	104	0	78	20486
2026-01-05 01:29:31.64	304.08	22.38	-53.4	-68.5	3.8	1.49e+00	0	40	104	0	78	20489
2026-01-05 01:29:32.64	303.81	22.36	-53.4	-68.5	3.8	1.49e+00	0	40	104	0	78	20400
2026-01-05 01:29:33.65	303.54	22.35	-53.4	-68.5	3.8	1.49e+00	0	40	104	0	78	20459
2026-01-05 01:29:34.65	303.27	22.33	-53.4	-68.5	3.8	1.49e+00	0	40	104	0	78	20437
2026-01-05 01:29:35.65	303.01	22.32	-53.4	-68.5	3.8	1.49e+00	0	40	104	0	78	20480
2026-01-05 01:29:36.65	302.74	22.30	-53.4	-68.5	3.8	1.49e+00	0	40	104	0	78	20502
2026-01-05 01:29:37.66	302.47	22.29	-53.4	-68.5	3.8	1.49e+00	0	40	104	0	78	20433
2026-01-05 01:29:38.66	302.20	22.27	-53.4	-68.5	3.8	1.49e+00	0	40	104	0	78	20445
2026-01-05 01:29:39.67	301.93	22.25	-53.4	-68.5	3.8	1.49e+00	0	40	104	0	78	20442
2026-01-05 01:29:40.67	301.67	22.23	-53.4	-68.5	3.8	1.49e+00	0	40	104	0	78	20449
2026-01-05 01:29:41.68	301.40	22.21	-53.4	-68.5	3.8	1.49e+00	0	40	104	0	78	20401
2026-01-05 01:29:42.68	301.13	22.19	-53.4	-68.5	3.8	1.49e+00	0	40	104	0	78	20452
2026-01-05 01:29:43.69	300.86	22.17	-53.4	-68.5	3.8	1.49e+00	0	40	104	0	78	20408
2026-01-05 01:29:44.69	300.60	22.15	-53.4	-68.5	3.8	1.49e+00	0	40	104	0	78	20382
2026-01-05 01:29:45.69	300.33	22.13	-53.4	-68.5	3.8	1.49e+00	0	40	104	0	78	20450
2026-01-05 01:29:46.70	300.07	22.10	-53.4	-68.5	3.8	1.49e+00	0	40	104	0	78	20417
2026-01-05 01:29:47.71	299.80	22.08	-53.4	-68.5	3.8	1.49e+00	0	40	104	0	78	20361
2026-01-05 01:29:48.71	299.54	22.06	-53.4	-68.5	3.8	1.49e+00	0	40	104	0	78	20401
2026-01-05 01:29:49.71	299.28	22.03	-53.4	-68.5	3.8	1.49e+00	0	40	104	0	78	20433
2026-01-05 01:29:50.72	299.01	22.01	-53.4	-68.5	3.8	1.49e+00	0	40	104	0	78	20420
2026-01-05 01:29:51.72	298.75	21.98	-53.4	-68.5	3.8	1.49e+00	0	40	104	0	78	20428
2026-01-05 01:29:52.73	298.48	21.95	-53.4	-68.5	3.8	1.49e+00	0	40	104	0	78	20354
2026-01-05 01:29:53.73	298.22	21.93	-53.4	-68.5	3.8	1.49e+00	0	40	104	0	78	20471
2026-01-05 01:29:54.73	297.96	21.90	-53.4	-68.5	3.8	1.49e+00	0	40	104	0	78	20433
2026-01-05 01:29:55.74	297.70	21.87	-53.4	-68.5	3.8	1.49e+00	0	40	104	0	78	20340
2026-01-05 01:29:56.74	297.44	21.84	-53.4	-68.5	3.8	1.49e+00	0	40	104	0	78	20446
2026-01-05 01:29:57.75	297.18	21.81	-53.4	-68.5	3.8	1.49e+00	0	40	104	0	78	20419
2026-01-05 01:29:58.75	296.92	21.78	-53.4	-68.5	3.8	1.49e+00	0	40	104	0	78	20416
2026-01-05 01:29:59.75	296.66	21.75	-53.4	-68.5	3.8	1.49e+00	0	40	104	0	78	20354
2026-01-05 01:30:00.76	296.40	21.72	-53.4	-68.5	3.8	1.49e+00	0	40	104	0	78	20456
2026-01-05 01:30:01.76	296.14	21.69	-53.4	-68.5	3.8	1.49e+00	0	40	104	0	78	20391
2026-01-05 01:30:02.77	295.88	21.65	-53.4	-68.5	3.8	1.49e+00	0	40	104	0	78	20313
2026-01-05 01:30:03.77	295.63	21.62	-53.4	-68.5	3.8	1.49e+00	0	40	104	0	78	20331
2026-01-05 01:30:04.77	295.37	21.59	-53.4	-68.5	3.8	1.49e+00	0	40	104	0	78	20365
2026-01-05 01:30:05.78	295.11	21.55	-53.4	-68.5	3.8	1.49e+00	0	40	104	0	78	20325
2026-01-05 01:30:06.78	294.86	21.52	-53.4	-68.4	3.8	1.49e+00	0	40	104	0	78	20289
2026-01-05 01:30:07.79	294.60	21.48	-53.4	-68.5	3.8	1.49e+00	0	40	104	0	78	20384
2026-01-05 01:30:08.79	294.35	21.45	-53.4	-68.5	3.8	1.49e+00	0	40	104	0	78	20460
2026-01-05 01:30:09.80	294.09	21.41	-53.4	-68.5	3.8	1.49e+00	0	40	104	0	78	20410
2026-01-05 01:30:10.80	293.84	21.37	-53.4	-68.5	3.8	1.49e+00	0	40	104	0	78	20349
2026-01-05 01:30:11.80	293.59	21.34	-53.4	-68.5	3.8	1.49e+00	0	40	104	0	78	20414
2026-01-05 01:30:12.81	293.34	21.30	-53.4	-68.5	3.8	1.49e+00	0	40	104	0	78	20366
2026-01-05 01:30:13.81	293.09	21.26	-53.4	-68.4	3.8	1.49e+00	0	40	104	0	78	20286
2026-01-05 01:30:14.82	292.83	21.22	-53.4	-68.5	3.8	1.49e+00	0	40	104	0	78	20374
2026-01-05 01:30:15.82	292.58	21.18	-53.3	-68.5	3.8	1.49e+00	0	40	104	0	78	20413
2026-01-05 01:30:16.83	292.33	21.14	-53.4	-68.5	3.8	1.49e+00	0	40	104	0	78	20367
2026-01-05 01:30:17.83	292.09	21.10	-53.4	-68.5	3.8	1.49e+00	0	40	104	0	78	20400
2026-01-05 01:30:18.83	291.84	21.06	-53.4	-68.5	3.8	1.49e+00	0	40	104	0	78	20399
2026-01-05 01:30:19.84	291.59	21.02	-53.4	-68.5	3.8	1.49e+00	0	40	104	0	78	20355
2026-01-05 01:30:20.85	291.34	20.97	-53.4	-68.5	3.8	1.49e+00	0	40	104	0	78	20472
2026-01-05 01:30:21.85	291.10	20.93	-53.4	-68.5	3.8	1.49e+00	0	40	104	0	78	20346
2026-01-05 01:30:22.85	290.85	20.89	-53.4	-68.5	3.8	1.49e+00	0	40	104	0	78	20310
2026-01-05 01:30:23.86	290.61	20.84	-53.4	-68.5	3.8	1.49e+00	0	40	104	0	78	20417
2026-01-05 01:30:24.86	290.36	20.80	-53.4	-68.5	3.8	1.49e+00	0	40	104	0	78	20330
2026-01-05 01:30:25.86	290.12	20.76	-53.4	-68.5	3.8	1.49e+00	0	40	104	0	78	20366
2026-01-05 01:30:26.87	289.88	20.71	-53.4	-68.5	3.8	1.49e+00	0	40	104	0	78	20362
2026-01-05 01:30:27.87	289.64	20.67	-53.4	-68.5	3.8	1.49e+00	0	40	104	0	78	20318
2026-01-05 01:30:28.87	289.40	20.62	-53.4	-68.5	3.8	1.49e+00	0	40	104	0	78	20435
2026-01-05 01:30:29.88	289.15	20.57	-53.4	-68.5	3.8	1.49e+00	0	40	104	0	78	20374
2026-01-05 01:30:30.88	288.91	20.53	-53.4	-68.5	3.8	1.49e+00	0	40	104	0	78	20425
2026-01-05 01:30:31.89	288.67	20.48	-53.4	-68.5	3.8	1.49e+00	0	40	104	0	78	20427
2026-01-05 01:30:32.89	288.44	20.43	-53.4	-68.5	3.8	1.49e+00	0	40	104	0	78	20320
2026-01-05 01:30:33.89	288.20	20.38	-53.4	-68.4	3.8	1.49e+00	0	40	104	0	78	20294
2026-01-05 01:30:34.90	287.96	20.33	-53.4	-68.5	3.8	1.49e+00	0	40	104	0	78	20316
2026-01-05 01:30:35.90	287.73	20.29	-53.4	-68.5	3.8	1.49e+00	0	40	104	0	78	20360
2026-01-05 01:30:36.91	287.49	20.24	-53.4	-68.5	3.8	1.49e+00	0	40	104	0	78	20374
2026-01-05 01:30:37.91	287.26	20.19	-53.4	-68.5	3.8	1.49e+00	0	40	104	0	78	20390
2026-01-05 01:30:38.92	287.02	20.14	-53.4	-68.5	3.8	1.49e+00	0	40	104	0	78	20417
2026-01-05 01:30:39.92	286.79	20.09	-53.4	-68.4	3.8	1.49e+00	0	40	104	0	78	20260
2026-01-05 01:30:40.92	286.56	20.03	-53.4	-68.5	3.8	1.49e+00	0	40	104	0	78	20380
2026-01-05 01:30:41.93	286.33	19.98	-53.4	-68.5	3.8	1.49e+00	0	40	104	0	78	20304
2026-01-05 01:30:42.93	286.10	19.93	-53.4	-68.5	3.8	1.49e+00	0	40	104	0	78	20358
2026-01-05 01:30:43.94	285.87	19.88	-53.4	-68.5	3.8	1.49e+00	0	40	104	0	78	20325
2026-01-05 01:30:44.94	285.64	19.83	-53.4	-68.4	3.8	1.49e+00	0	40	104	0	78	20294
2026-01-05 01:30:45.95	285.41	19.77	-53.4	-68.5	3.8	1.49e+00	0	40	104	0	78	20359
2026-01-05 01:30:46.95	285.18	19.72	-53.4	-68.4	3.8	1.49e+00	0	40	104	0	78	20298
2026-01-05 01:30:47.96	284.95	19.67	-53.4	-68.5	3.8	1.49e+00	0	40	104	0	78	20307
2026-01-05 01:30:48.96	284.73	19.61	-53.4	-68.4	3.8	1.49e+00	0	40	104	0	78	20276
2026-01-05 01:30:49.96	284.50	19.56	-53.4	-68.5	3.8	1.49e+00	0	41	104	0	78	20336
2026-01-05 01:30:50.97	284.28	19.50	-53.4	-68.5	3.8	1.49e+00	0	40	104	0	78	20350
2026-01-05 01:30:51.97	284.06	19.45	-53.4	-68.5	3.8	1.49e+00	0	40	104	0	78	20359
2026-01-05 01:30:52.98	283.83	19.39	-53.4	-68.5	3.8	1.49e+00	0	40	104	0	78	20329
2026-01-05 01:30:53.98	283.61	19.34	-53.4	-68.5	3.8	1.49e+00	0	40	104	0	78	20319
2026-01-05 01:30:54.98	283.39	19.28	-53.4	-68.4	3.8	1.49e+00	0	40	104	0	78	20256
2026-01-05 01:30:55.99	283.17	19.23	-53.4	-68.5	3.8	1.49e+00	0	40	104	0	78	20386
2026-01-05 01:30:56.99	282.95	19.17	-53.4	-68.5	3.8	1.49e+00	0	40	104	0	78	20353
2026-01-05 01:30:58.00	282.73	19.11	-53.4	-68.5	3.8	1.49e+00	0	40	104	0	78	20379
2026-01-05 01:30:59.00	282.51	19.06	-53.4	-68.5	3.8	1.49e+00	0	40	104	0	78	20415
2026-01-05 01:31:00.01	282.30	19.00	-53.4	-68.5	3.8	1.49e+00	0	40	104	0	78	20425
2026-01-05 01:31:01.01	282.08	18.94	-53.4	-68.4	3.8	1.49e+00	0	40	104	0	78	20284
2026-01-05 01:31:02.02	281.86	18.88	-53.4	-68.5	3.8	1.49e+00	0	40	104	0	78	20415
2026-01-05 01:31:03.02	281.65	18.82	-53.4	-68.4	3.8	1.49e+00	0	40	104	0	78	20267
2026-01-05 01:31:04.02	281.44	18.76	-53.4	-68.5	3.8	1.49e+00	0	40	104	0	78	20378
2026-01-05 01:31:05.03	281.22	18.71	-53.4	-68.5	3.8	1.49e+00	0	40	104	0	78	20311
2026-01-05 01:31:06.03	281.01	18.65	-53.4	-68.5	3.8	1.49e+00	0	40	104	0	78	20333
2026-01-05 01:31:07.04	280.80	18.59	-53.4	-68.5	3.8	1.49e+00	0	40	104	0	78	20385
2026-01-05 01:31:08.04	280.59	18.53	-53.4	-68.5	3.8	1.49e+00	0	40	104	0	78	20319
2026-01-05 01:31:09.05	280.38	18.47	-53.4	-68.5	3.8	1.49e+00	0	41	104	0	78	20328
2026-01-05 01:31:10.05	280.17	18.41	-53.4	-68.5	3.8	1.49e+00	0	41	104	0	78	20395
2026-01-05 01:31:11.05	279.96	18.35	-53.4	-68.5	3.8	1.49e+00	0	40	104	0	78	20355
2026-01-05 01:31:12.06	279.76	18.29	-53.4	-68.5	3.8	1.49e+00	0	41	104	0	78	20370
2026-01-05 01:31:13.06	279.55	18.23	-53.4	-68.5	3.8	1.49e+00	0	41	104	0	78	20320
2026-01-05 01:31:14.07	279.34	18.16	-53.4	-68.5	3.8	1.49e+00	0	40	104	0	78	20374
2026-01-05 01:31:15.07	279.14	18.10	-53.4	-68.5	3.8	1.49e+00	0	40	104	0	78	20329
2026-01-05 01:31:16.08	278.94	18.04	-53.3	-68.5	3.8	1.49e+00	0	40	104	0	78	20395
2026-01-05 01:31:17.08	278.73	17.98	-53.4	-68.5	3.8	1.49e+00	0	40	104	0	78	20365
2026-01-05 01:31:18.09	278.53	17.92	-53.3	-68.5	3.8	1.49e+00	0	41	104	0	78	20369
2026-01-05 01:31:19.09	278.33	17.86	-53.3	-68.4	3.8	1.49e+00	0	40	104	0	78	20281
2026-01-05 01:31:20.10	278.13	17.79	-53.3	-68.4	3.8	1.49e+00	0	40	104	0	78	20283
2026-01-05 01:31:21.10	277.93	17.73	-53.3	-68.5	3.8	1.49e+00	0	40	104	0	78	20317
2026-01-05 01:31:22.10	277.73	17.67	-53.3	-68.5	3.8	1.49e+00	0	41	104	0	78	20366
2026-01-05 01:31:23.11	277.53	17.60	-53.3	-68.5	3.8	1.49e+00	0	40	104	0	78	20330
2026-01-05 01:31:24.11	277.34	17.54	-53.3	-68.5	3.8	1.49e+00	0	40	104	0	78	20405
2026-01-05 01:31:25.12	277.14	17.48	-53.3	-68.5	3.8	1.49e+00	0	40	104	0	78	20328
2026-01-05 01:31:26.12	276.94	17.41	-53.3	-68.5	3.8	1.49e+00	0	41	104	0	78	20340
2026-01-05 01:31:27.13	276.75	17.35	-53.3	-68.5	3.8	1.49e+00	0	41	104	0	78	20336
2026-01-05 01:31:28.13	276.56	17.29	-53.3	-68.4	3.8	1.49e+00	0	41	104	0	78	20279
2026-01-05 01:31:29.13	276.36	17.22	-53.3	-68.5	3.8	1.49e+00	0	40	104	0	78	20419
2026-01-05 01:31:30.14	276.17	17.16	-53.3	-68.5	3.8	1.49e+00	0	40	104	0	78	20321
2026-01-05 01:31:31.14	275.98	17.09	-53.3	-68.5	3.8	1.49e+00	0	40	104	0	78	20354
2026-01-05 01:31:32.15	275.79	17.03	-53.3	-68.4	3.8	1.49e+00	0	41	104	0	78	20287
2026-01-05 01:31:33.15	275.60	16.96	-53.3	-68.5	3.8	1.49e+00	0	40	104	0	78	20340
2026-01-05 01:31:34.15	275.41	16.90	-53.3	-68.5	3.8	1.49e+00	0	40	104	0	78	20326
2026-01-05 01:31:35.16	275.22	16.83	-53.3	-68.4	3.8	1.49e+00	0	40	104	0	78	20276
2026-01-05 01:31:36.16	275.04	16.77	-53.3	-68.5	3.8	1.49e+00	0	40	104	0	78	20348
2026-01-05 01:31:37.16	274.85	16.70	-53.3	-68.5	3.8	1.49e+00	0	40	104	0	78	20307
2026-01-05 01:31:38.17	274.66	16.64	-53.3	-68.5	3.8	1.49e+00	0	41	104	0	78	20319
2026-01-05 01:31:39.17	274.48	16.57	-53.3	-68.4	3.8	1.49e+00	0	41	104	0	78	20288
2026-01-05 01:31:40.18	274.30	16.51	-53.3	-68.5	3.8	1.49e+00	0	40	104	0	78	20432
2026-01-05 01:31:41.18	274.11	16.44	-53.3	-68.4	3.8	1.49e+00	0	40	104	0	78	20295
2026-01-05 01:31:42.19	273.93	16.38	-53.3	-68.5	3.8	1.49e+00	0	40	104	0	78	20354
2026-01-05 01:31:43.19	273.75	16.31	-53.3	-68.5	3.8	1.49e+00	0	40	104	0	78	20330
2026-01-05 01:31:44.20	273.57	16.24	-53.3	-68.5	3.8	1.49e+00	0	41	104	0	78	20363
2026-01-05 01:31:45.20	273.39	16.18	-53.3	-68.4	3.8	1.49e+00	0	40	104	0	78	20284
2026-01-05 01:31:46.20	273.21	16.11	-53.3	-68.5	3.8	1.49e+00	0	40	104	0	78	20356
2026-01-05 01:31:47.21	273.03	16.04	-53.3	-68.5	3.8	1.49e+00	0	41	104	0	78	20338
2026-01-05 01:31:48.21	272.85	15.98	-53.3	-68.4	3.8	1.49e+00	0	40	104	0	78	20276
2026-01-05 01:31:49.22	272.68	15.91	-53.3	-68.4	3.8	1.49e+00	0	41	104	0	78	20267
2026-01-05 01:31:50.22	272.50	15.84	-53.3	-68.4	3.8	1.49e+00	0	40	104	0	78	20290
2026-01-05 01:31:51.23	272.32	15.78	-53.3	-68.5	3.8	1.49e+00	0	40	104	0	78	20395
2026-01-05 01:31:52.23	272.15	15.71	-53.3	-68.5	3.8	1.49e+00	0	40	104	0	78	20317
2026-01-05 01:31:53.23	271.98	15.64	-53.3	-68.4	3.8	1.49e+00	0	41	104	0	78	20292
2026-01-05 01:31:54.24	271.80	15.58	-53.3	-68.5	3.8	1.49e+00	0	40	104	0	78	20326
2026-01-05 01:31:55.24	271.63	15.51	-53.3	-68.5	3.8	1.49e+00	0	40	104	0	78	20444
2026-01-05 01:31:56.25	271.46	15.44	-53.3	-68.5	3.8	1.49e+00	0	41	104	0	78	20307
2026-01-05 01:31:57.25	271.29	15.37	-53.4	-68.4	3.8	1.49e+00	0	40	104	0	78	20251
2026-01-05 01:31:58.26	271.12	15.31	-53.4	-68.4	3.8	1.49e+00	0	40	104	0	78	20299
2026-01-05 01:31:59.26	270.95	15.24	-53.4	-68.4	3.8	1.49e+00	0	40	104	0	78	20258
2026-01-05 01:32:00.26	270.78	15.17	-53.4	-68.5	3.8	1.49e+00	0	40	104	0	78	20417
2026-01-05 01:32:01.27	270.62	15.10	-53.4	-68.5	3.8	1.49e+00	0	40	104	0	78	20331
2026-01-05 01:32:02.27	270.45	15.04	-53.4	-68.5	3.8	1.49e+00	0	40	104	0	78	20370
2026-01-05 01:32:03.28	270.28	14.97	-53.4	-68.4	3.8	1.49e+00	0	40	104	0	78	20299
2026-01-05 01:32:04.28	270.12	14.90	-53.4	-68.4	3.8	1.49e+00	0	41	104	0	78	20217
2026-01-05 01:32:05.28	269.96	14.83	-53.4	-68.4	3.8	1.49e+00	0	40	104	0	78	20234
2026-01-05 01:32:06.29	269.79	14.77	-53.4	-68.5	3.8	1.49e+00	0	40	104	0	78	20307
2026-01-05 01:32:07.29	269.63	14.70	-53.4	-68.5	3.8	1.49e+00	0	41	104	0	78	20309
2026-01-05 01:32:08.30	269.47	14.63	-53.4	-68.4	3.8	1.49e+00	0	40	104	0	78	20280
2026-01-05 01:32:09.30	269.31	14.56	-53.4	-68.4	3.8	1.49e+00	0	41	104	0	78	20266
2026-01-05 01:32:10.31	269.14	14.49	-53.4	-68.5	3.8	1.49e+00	0	41	104	0	78	20412
2026-01-05 01:32:11.31	268.98	14.43	-53.4	-68.4	3.8	1.49e+00	0	40	104	0	78	20287
2026-01-05 01:32:12.32	268.82	14.36	-53.4	-68.4	3.8	1.49e+00	0	40	104	0	78	20199
2026-01-05 01:32:13.32	268.67	14.29	-53.4	-68.4	3.8	1.49e+00	0	41	104	0	78	20179
2026-01-05 01:32:14.32	268.51	14.22	-53.4	-68.4	3.8	1.49e+00	0	41	104	0	78	20240
2026-01-05 01:32:15.33	268.35	14.15	-53.4	-68.4	3.8	1.49e+00	0	40	104	0	78	20194
2026-01-05 01:32:16.33	268.20	14.09	-53.4	-68.4	3.8	1.49e+00	0	41	104	0	78	20303
2026-01-05 01:32:17.34	268.04	14.02	-53.4	-68.5	3.8	1.49e+00	0	41	104	0	78	20318
2026-01-05 01:32:18.34	267.89	13.95	-53.4	-68.5	3.8	1.49e+00	0	40	104	0	78	20308
2026-01-05 01:32:19.35	267.73	13.88	-53.4	-68.5	3.8	1.49e+00	0	40	104	0	78	20320
2026-01-05 01:32:20.35	267.58	13.81	-53.4	-68.5	3.8	1.49e+00	0	40	104	0	78	20364
2026-01-05 01:32:21.36	267.43	13.74	-53.4	-68.5	3.8	1.49e+00	0	40	104	0	78	20354
2026-01-05 01:32:22.36	267.27	13.68	-53.3	-68.4	3.8	1.49e+00	0	40	104	0	78	20227
2026-01-05 01:32:23.36	267.12	13.61	-53.4	-68.5	3.8	1.49e+00	0	41	104	0	78	20341
2026-01-05 01:32:24.37	266.97	13.54	-53.3	-68.5	3.8	1.49e+00	0	40	104	0	78	20319
2026-01-05 01:32:25.37	266.82	13.47	-53.3	-68.5	3.8	1.49e+00	0	41	104	0	78	20318
2026-01-05 01:32:26.38	266.67	13.40	-53.3	-68.4	3.8	1.49e+00	0	40	104	0	78	20223
2026-01-05 01:32:27.38	266.53	13.34	-53.3	-68.5	3.8	1.49e+00	0	40	104	0	78	20324
2026-01-05 01:32:28.39	266.38	13.27	-53.3	-68.4	3.8	1.49e+00	0	40	104	0	78	20234
2026-01-05 01:32:29.39	266.23	13.20	-53.3	-68.4	3.8	1.49e+00	0	41	104	0	78	20289
2026-01-05 01:32:30.40	266.08	13.13	-53.3	-68.5	3.8	1.49e+00	0	41	104	0	78	20356
2026-01-05 01:32:31.40	265.94	13.06	-53.3	-68.5	3.8	1.49e+00	0	40	104	0	78	20435
2026-01-05 01:32:32.41	265.79	12.99	-53.3	-68.4	3.8	1.49e+00	0	40	104	0	78	20277
2026-01-05 01:32:33.41	265.65	12.93	-53.3	-68.4	3.8	1.49e+00	0	41	104	0	78	20250
2026-01-05 01:32:34.41	265.51	12.86	-53.3	-68.5	3.8	1.49e+00	0	40	104	0	78	20312
2026-01-05 01:32:35.42	265.36	12.79	-53.3	-68.4	3.8	1.49e+00	0	41	104	0	78	20248
2026-01-05 01:32:36.42	265.22	12.72	-53.3	-68.4	3.8	1.49e+00	0	40	104	0	78	20286
2026-01-05 01:32:37.43	265.08	12.65	-53.3	-68.4	3.8	1.49e+00	0	41	104	0	78	20227
2026-01-05 01:32:38.43	264.94	12.58	-53.3	-68.4	3.8	1.49e+00	0	40	104	0	78	20215
2026-01-05 01:32:39.44	264.80	12.52	-53.3	-68.4	3.8	1.49e+00	0	41	104	0	78	20271
2026-01-05 01:32:40.44	264.66	12.45	-53.3	-68.4	3.8	1.49e+00	0	41	104	0	78	20301
2026-01-05 01:32:41.45	264.52	12.38	-53.3	-68.4	3.8	1.49e+00	0	40	104	0	78	20238
2026-01-05 01:32:42.45	264.38	12.31	-53.3	-68.4	3.8	1.49e+00	0	40	104	0	78	20239
2026-01-05 01:32:43.45	264.24	12.24	-53.3	-68.5	3.8	1.49e+00	0	41	104	0	78	20389
2026-01-05 01:32:44.46	264.11	12.18	-53.3	-68.5	3.8	1.49e+00	0	40	104	0	78	20339
2026-01-05 01:32:45.46	263.97	12.11	-53.3	-68.5	3.8	1.49e+00	0	41	104	0	78	20353
2026-01-05 01:32:46.47	263.83	12.04	-53.3	-68.4	3.8	1.49e+00	0	41	104	0	78	20278
2026-01-05 01:32:47.47	263.70	11.97	-53.3	-68.4	3.8	1.49e+00	0	40	104	0	78	20263
2026-01-05 01:32:48.48	263.56	11.90	-53.3	-68.4	3.8	1.49e+00	0	40	104	0	78	20276
2026-01-05 01:32:49.48	263.43	11.84	-53.3	-68.5	3.8	1.49e+00	0	41	104	0	78	20431
2026-01-05 01:32:50.48	263.30	11.77	-53.3	-68.5	3.8	1.49e+00	0	41	104	0	78	20374
2026-01-05 01:32:51.49	263.16	11.70	-53.3	-68.4	3.8	1.49e+00	0	40	104	0	78	20296
2026-01-05 01:32:52.49	263.03	11.63	-53.3	-68.5	3.8	1.49e+00	0	40	104	0	78	20361
2026-01-05 01:32:53.50	262.90	11.57	-53.3	-68.5	3.8	1.49e+00	0	41	104	0	78	20311
2026-01-05 01:32:54.50	262.77	11.50	-53.3	-68.4	3.8	1.49e+00	0	40	104	0	78	20239
2026-01-05 01:32:55.50	262.64	11.43	-53.3	-68.4	3.8	1.49e+00	0	41	104	0	78	20284
2026-01-05 01:32:56.51	262.51	11.36	-53.3	-68.5	3.8	1.49e+00	0	40	104	0	78	20321
2026-01-05 01:32:57.52	262.38	11.29	-53.3	-68.4	3.8	1.49e+00	0	41	104	0	78	20261
2026-01-05 01:32:58.52	262.25	11.23	-53.3	-68.5	3.8	1.49e+00	0	41	104	0	78	20390
2026-01-05 01:32:59.52	262.13	11.16	-53.3	-68.4	3.8	1.49e+00	0	41	104	0	78	20248
2026-01-05 01:33:00.53	262.00	11.09	-53.3	-68.4	3.8	1.49e+00	0	41	104	0	78	20279
2026-01-05 01:33:01.53	261.87	11.03	-53.3	-68.5	3.8	1.49e+00	0	40	104	0	78	20314
2026-01-05 01:33:02.54	261.75	10.96	-53.3	-68.5	3.8	1.49e+00	0	41	104	0	78	20328
2026-01-05 01:33:03.54	261.62	10.89	-53.3	-68.5	3.8	1.49e+00	0	41	104	0	78	20306
2026-01-05 01:33:04.55	261.50	10.82	-53.3	-68.5	3.8	1.49e+00	0	41	104	0	78	20342
2026-01-05 01:33:05.55	261.37	10.76	-53.3	-68.4	3.8	1.49e+00	0	41	104	0	78	20300
2026-01-05 01:33:06.56	261.25	10.69	-53.3	-68.5	3.8	1.49e+00	0	41	104	0	78	20408
2026-01-05 01:33:07.56	261.13	10.62	-53.3	-68.5	3.8	1.49e+00	0	41	104	0	78	20407
2026-01-05 01:33:08.56	261.00	10.56	-53.3	-68.5	3.8	1.49e+00	0	41	104	0	78	20384
2026-01-05 01:33:09.57	260.88	10.49	-53.3	-68.5	3.8	1.49e+00	0	41	104	0	78	20311
2026-01-05 01:33:10.57	260.76	10.42	-53.3	-68.4	3.8	1.49e+00	0	41	104	0	78	20296
2026-01-05 01:33:11.58	260.64	10.35	-53.3	-68.4	3.8	1.49e+00	0	41	104	0	78	20286
2026-01-05 01:33:12.58	260.52	10.29	-53.3	-68.5	3.8	1.49e+00	0	41	104	0	78	20429
2026-01-05 01:33:13.59	260.40	10.22	-53.3	-68.5	3.8	1.49e+00	0	40	104	0	78	20378
2026-01-05 01:33:14.59	260.28	10.15	-53.3	-68.4	3.8	1.49e+00	0	41	104	0	78	20240
2026-01-05 01:33:15.59	260.16	10.09	-53.3	-68.4	3.8	1.49e+00	0	41	104	0	78	20262
2026-01-05 01:33:16.60	260.04	10.02	-53.3	-68.5	3.8	1.49e+00	0	41	104	0	78	20312
2026-01-05 01:33:17.60	259.93	9.96	-53.3	-68.5	3.8	1.49e+00	0	41	104	0	78	20314
2026-01-05 01:33:18.61	259.81	9.89	-53.3	-68.5	3.8	1.49e+00	0	41	104	0	78	20405
2026-01-05 01:33:19.61	259.69	9.82	-53.3	-68.5	3.8	1.49e+00	0	41	104	0	78	20400
2026-01-05 01:33:20.62	259.58	9.76	-53.3	-68.4	3.8	1.49e+00	0	40	104	0	78	20240
2026-01-05 01:33:21.62	259.46	9.69	-53.3	-68.5	3.8	1.49e+00	0	41	104	0	78	20360
2026-01-05 01:33:22.62	259.35	9.62	-53.3	-68.5	3.8	1.49e+00	0	41	104	0	78	20342
2026-01-05 01:33:23.63	259.23	9.56	-53.3	-68.4	3.8	1.49e+00	0	41	104	0	78	20245
2026-01-05 01:33:24.63	259.12	9.49	-53.3	-68.5	3.8	1.49e+00	0	41	104	0	78	20371
2026-01-05 01:33:25.64	259.00	9.43	-53.3	-68.4	3.8	1.49e+00	0	41	104	0	78	20282
2026-01-05 01:33:26.64	258.89	9.36	-53.3	-68.5	3.8	1.49e+00	0	41	104	0	78	20312
2026-01-05 01:33:27.65	258.78	9.29	-53.3	-68.5	3.8	1.49e+00	0	41	104	0	78	20318
2026-01-05 01:33:28.65	258.67	9.23	-53.4	-68.5	3.8	1.49e+00	0	41	104	0	78	20314
2026-01-05 01:33:29.66	258.56	9.16	-53.4	-68.5	3.8	1.49e+00	0	41	104	0	78	20354
2026-01-05 01:33:30.66	258.45	9.10	-53.4	-68.5	3.8	1.49e+00	0	41	104	0	78	20367
2026-01-05 01:33:31.67	258.34	9.03	-53.3	-68.5	3.8	1.49e+00	0	41	104	0	78	20382
2026-01-05 01:33:32.67	258.23	8.97	-53.4	-68.4	3.8	1.49e+00	0	41	104	0	78	20280
2026-01-05 01:33:33.68	258.12	8.90	-53.4	-68.5	3.8	1.49e+00	0	40	104	0	78	20434
2026-01-05 01:33:34.68	258.01	8.84	-53.4	-68.4	3.8	1.49e+00	0	40	104	0	78	20292
2026-01-05 01:33:35.68	257.90	8.77	-53.4	-68.5	3.8	1.49e+00	0	41	104	0	78	20405
2026-01-05 01:33:36.69	257.79	8.71	-53.3	-68.5	3.8	1.49e+00	0	41	104	0	78	20406
2026-01-05 01:33:37.69	257.69	8.64	-53.3	-68.5	3.8	1.49e+00	0	41	104	0	78	20363
2026-01-05 01:33:38.70	257.58	8.57	-53.4	-68.4	3.8	1.49e+00	0	41	104	0	78	20263
2026-01-05 01:33:39.70	257.47	8.51	-53.3	-68.5	3.8	1.49e+00	0	40	104	0	78	20349
2026-01-05 01:33:40.70	257.37	8.45	-53.3	-68.5	3.8	1.49e+00	0	41	104	0	78	20382
2026-01-05 01:33:41.71	257.26	8.38	-53.4	-68.5	3.8	1.49e+00	0	41	104	0	78	20400
2026-01-05 01:33:42.71	257.16	8.32	-53.3	-68.5	3.8	1.49e+00	0	41	104	0	78	20334
2026-01-05 01:33:43.72	257.05	8.25	-53.3	-68.4	3.8	1.49e+00	0	41	104	0	78	20280
2026-01-05 01:33:44.72	256.95	8.19	-53.4	-68.5	3.8	1.49e+00	0	41	104	0	78	20363
2026-01-05 01:33:45.73	256.85	8.12	-53.4	-68.5	3.8	1.49e+00	0	41	104	0	78	20374
2026-01-05 01:33:46.73	256.74	8.06	-53.3	-68.5	3.8	1.49e+00	0	41	104	0	78	20357
2026-01-05 01:33:47.74	256.64	7.99	-53.4	-68.5	3.8	1.49e+00	0	40	104	0	78	20342
2026-01-05 01:33:48.74	256.54	7.93	-53.3	-68.5	3.8	1.49e+00	0	41	104	0	78	20336
2026-01-05 01:33:49.74	256.44	7.87	-53.3	-68.5	3.8	1.49e+00	0	40	104	0	78	20331
2026-01-05 01:33:50.75	256.34	7.80	-53.4	-68.5	3.8	1.49e+00	0	41	104	0	78	20409
2026-01-05 01:33:51.75	256.24	7.74	-53.3	-68.5	3.8	1.49e+00	0	41	104	0	78	20383
2026-01-05 01:33:52.76	256.14	7.67	-53.3	-68.5	3.8	1.49e+00	0	40	104	0	78	20446
2026-01-05 01:33:53.76	256.04	7.61	-53.4	-68.5	3.8	1.49e+00	0	41	104	0	78	20326
2026-01-05 01:33:54.76	255.94	7.55	-53.4	-68.5	3.8	1.49e+00	0	41	104	0	78	20353
2026-01-05 01:33:55.77	255.84	7.48	-53.4	-68.5	3.8	1.49e+00	0	41	104	0	78	20418
2026-01-05 01:33:56.77	255.74	7.42	-53.4	-68.5	3.8	1.49e+00	0	41	104	0	78	20388
2026-01-05 01:33:57.78	255.64	7.35	-53.4	-68.5	3.8	1.49e+00	0	41	104	0	78	20383
2026-01-05 01:33:58.78	255.54	7.29	-53.4	-68.4	3.8	1.49e+00	0	41	104	0	78	20303
2026-01-05 01:33:59.79	255.45	7.23	-53.4	-68.5	3.8	1.49e+00	0	41	104	0	78	20420
2026-01-05 01:34:00.79	255.35	7.16	-53.4	-68.5	3.8	1.49e+00	0	41	104	0	78	20391
2026-01-05 01:34:01.79	255.25	7.10	-53.4	-68.5	3.8	1.49e+00	0	41	104	0	78	20373
2026-01-05 01:34:02.80	255.16	7.04	-53.4	-68.5	3.8	1.49e+00	0	41	104	0	78	20404
2026-01-05 01:34:03.80	255.06	6.98	-53.4	-68.5	3.8	1.49e+00	0	41	104	0	78	20417
2026-01-05 01:34:04.81	254.97	6.91	-53.4	-68.5	3.8	1.49e+00	0	41	104	0	78	20353
2026-01-05 01:34:05.81	254.87	6.85	-53.4	-68.5	3.8	1.49e+00	0	41	104	0	78	20440
2026-01-05 01:34:06.82	254.78	6.79	-53.4	-68.5	3.8	1.49e+00	0	41	104	0	78	20337
2026-01-05 01:34:07.82	254.69	6.72	-53.4	-68.5	3.8	1.49e+00	0	41	104	0	78	20388
2026-01-05 01:34:08.82	254.59	6.66	-53.4	-68.5	3.8	1.49e+00	0	41	104	0	78	20377
2026-01-05 01:34:09.83	254.50	6.60	-53.4	-68.5	3.8	1.49e+00	0	41	104	0	78	20427
2026-01-05 01:34:10.83	254.41	6.54	-53.4	-68.5	3.8	1.49e+00	0	41	104	0	78	20421
2026-01-05 01:34:11.84	254.32	6.47	-53.4	-68.5	3.8	1.49e+00	0	40	104	0	78	20411
2026-01-05 01:34:12.84	254.22	6.41	-53.4	-68.5	3.8	1.49e+00	0	41	104	0	78	20404
2026-01-05 01:34:13.85	254.13	6.35	-53.4	-68.5	3.8	1.49e+00	0	41	104	0	78	20451
2026-01-05 01:34:14.85	254.04	6.29	-53.4	-68.5	3.8	1.49e+00	0	41	104	0	78	20483
2026-01-05 01:34:15.85	253.95	6.22	-53.4	-68.5	3.8	1.49e+00	0	41	104	0	78	20473
2026-01-05 01:34:16.86	253.86	6.16	-53.4	-68.5	3.8	1.49e+00	0	41	104	0	78	20383
2026-01-05 01:34:17.86	253.77	6.10	-53.4	-68.5	3.8	1.49e+00	0	41	104	0	78	20366
2026-01-05 01:34:18.87	253.68	6.04	-53.4	-68.5	3.8	1.49e+00	0	41	104	0	78	20376
2026-01-05 01:34:19.87	253.59	5.98	-53.3	-68.5	3.8	1.49e+00	0	41	104	0	78	20362
2026-01-05 01:34:20.87	253.51	5.92	-53.4	-68.5	3.8	1.49e+00	0	41	104	0	78	20399
2026-01-05 01:34:21.87	253.42	5.85	-53.4	-68.5	3.8	1.49e+00	0	41	104	0	78	20395
2026-01-05 01:34:22.88	253.33	5.79	-53.4	-68.5	3.8	1.49e+00	0	41	104	0	78	20400
2026-01-05 01:34:23.88	253.24	5.73	-53.3	-68.5	3.8	1.49e+00	0	41	104	0	78	20414
2026-01-05 01:34:24.89	253.16	5.67	-53.4	-68.5	3.8	1.49e+00	0	41	104	0	78	20388
2026-01-05 01:34:25.89	253.07	5.61	-53.4	-68.5	3.8	1.49e+00	0	41	104	0	78	20367
2026-01-05 01:34:26.90	252.98	5.55	-53.4	-68.5	3.8	1.49e+00	0	41	104	0	78	20476
2026-01-05 01:34:27.90	252.90	5.49	-53.4	-68.5	3.8	1.49e+00	0	41	104	0	78	20381
2026-01-05 01:34:28.91	252.81	5.42	-53.3	-68.5	3.8	1.49e+00	0	41	104	0	78	20395
2026-01-05 01:34:29.91	252.73	5.36	-53.4	-68.5	3.8	1.49e+00	0	41	104	0	78	20403
2026-01-05 01:34:30.92	252.64	5.30	-53.4	-68.5	3.8	1.49e+00	0	41	104	0	78	20419
2026-01-05 01:34:31.92	252.56	5.24	-53.4	-68.5	3.8	1.49e+00	0	41	104	0	78	20466
2026-01-05 01:34:32.92	252.47	5.18	-53.4	-68.5	3.8	1.49e+00	0	41	104	0	78	20337
2026-01-05 01:34:33.93	252.39	5.12	-53.4	-68.5	3.8	1.49e+00	0	41	104	0	78	20352
2026-01-05 01:34:34.93	252.31	5.06	-53.4	-68.5	3.8	1.49e+00	0	41	104	0	78	20460
2026-01-05 01:34:35.94	252.22	5.00	-53.4	-68.5	3.8	1.49e+00	0	41	104	0	78	20481

#Closed at: 2026-01-05 01:34:36
#Recorded file [0 MB]: D:/Data/31040_260105_042349.dat