passes_logs/2026/01/05/T1/T1__20260105_035011_FENGYUN_3E_rec.log

#Pass ID: 20260105_035011_FENGYUN 3E
#Satellite: FENGYUN 3E
#Configuration: FENGYUN 3E
#almurnet v.1.7.20251203
#Start time: 2026-01-05 03:50:11

#Version: 2.0.20230620
#Station: T1
#Location: 37.570604 lon 55.790049 lat
#TLE: 1 49008U 21062A   26004.29457719  .00000106  00000+0  70678-4 0  9996
#TLE: 2 49008  98.7471   9.5487 0001503 159.9821 200.1414 14.19883545233329

#Time	Az	El	Level	Level2	SNR	BER	BlckErr	Temp	State	Recorded	gain1	gain2
2026-01-05 03:50:11.78	17.21	5.04	-52.3	-63.9	3.8	8.47e-01	0	40	0	0	74	14108
2026-01-05 03:50:12.78	17.22	5.11	-52.3	-63.9	3.8	8.48e-01	0	40	104	0	74	14185
2026-01-05 03:50:13.78	17.23	5.18	-52.3	-63.9	3.8	8.47e-01	0	40	104	0	74	14209
2026-01-05 03:50:14.79	17.24	5.25	-52.3	-63.9	3.8	8.47e-01	0	40	104	0	74	14062
2026-01-05 03:50:15.79	17.25	5.32	-52.3	-63.8	3.8	8.47e-01	0	40	104	0	74	14028
2026-01-05 03:50:16.80	17.26	5.39	-52.2	-63.7	3.8	8.47e-01	0	40	104	0	74	13877
2026-01-05 03:50:17.80	17.27	5.47	-52.3	-63.7	3.8	8.47e-01	0	40	104	0	74	13827
2026-01-05 03:50:18.81	17.29	5.54	-52.3	-63.6	3.8	8.46e-01	0	40	104	0	74	13706
2026-01-05 03:50:19.81	17.30	5.61	-52.2	-63.5	3.8	8.47e-01	0	40	104	0	74	13537
2026-01-05 03:50:20.82	17.31	5.69	-52.3	-63.4	3.8	8.46e-01	0	40	104	0	74	13365
2026-01-05 03:50:21.82	17.32	5.76	-52.2	-63.3	3.8	8.49e-01	0	40	104	0	74	13240
2026-01-05 03:50:22.82	17.33	5.83	-52.2	-63.2	3.8	8.48e-01	0	40	104	0	74	13079
2026-01-05 03:50:23.83	17.34	5.91	-52.2	-63.2	3.8	8.46e-01	0	40	104	0	74	13028
2026-01-05 03:50:24.83	17.35	5.98	-52.2	-63.2	3.8	8.45e-01	0	40	104	0	74	13004
2026-01-05 03:50:25.84	17.37	6.05	-52.2	-63.1	3.8	8.47e-01	0	40	104	0	74	12869
2026-01-05 03:50:26.84	17.38	6.13	-52.2	-63.1	3.8	8.46e-01	0	40	104	0	74	12958
2026-01-05 03:50:27.84	17.39	6.20	-52.2	-63.3	3.8	8.46e-01	0	40	104	0	74	13115
2026-01-05 03:50:28.85	17.40	6.28	-52.2	-63.3	3.8	8.46e-01	0	40	104	0	74	13225
2026-01-05 03:50:29.85	17.41	6.35	-52.2	-63.5	3.8	8.46e-01	0	40	104	0	74	13446
2026-01-05 03:50:30.86	17.42	6.43	-52.2	-63.5	3.8	8.46e-01	0	40	104	0	74	13536
2026-01-05 03:50:31.86	17.43	6.50	-52.3	-63.7	3.8	8.48e-01	0	40	104	0	74	13792
2026-01-05 03:50:32.87	17.45	6.58	-52.2	-63.7	3.8	8.46e-01	0	41	104	0	74	13815
2026-01-05 03:50:33.87	17.46	6.65	-52.3	-63.8	3.8	8.47e-01	0	40	104	0	74	13898
2026-01-05 03:50:34.87	17.47	6.73	-52.3	-63.7	3.8	8.47e-01	0	41	104	0	74	13780
2026-01-05 03:50:35.88	17.48	6.80	-52.2	-63.4	3.8	8.46e-01	0	40	104	0	74	13362
2026-01-05 03:50:36.88	17.49	6.88	-52.2	-63.1	3.8	8.47e-01	0	40	104	0	74	12948
2026-01-05 03:50:37.89	17.51	6.96	-52.2	-62.6	3.8	8.47e-01	0	41	104	0	74	12147
2026-01-05 03:50:38.89	17.52	7.03	-52.1	-62.3	3.8	8.46e-01	0	41	104	0	74	11715
2026-01-05 03:50:39.89	17.53	7.11	-52.0	-61.8	3.8	8.45e-01	0	41	104	0	74	11056
2026-01-05 03:50:40.90	17.54	7.19	-52.0	-61.4	3.8	8.45e-01	0	41	104	0	74	10583
2026-01-05 03:50:41.90	17.55	7.27	-51.9	-60.8	4.1	8.42e-01	0	41	0	0	74	9870
2026-01-05 03:50:42.90	17.57	7.34	-51.9	-60.5	4.2	8.40e-01	0	41	0	0	74	9509
2026-01-05 03:50:43.91	17.58	7.42	-51.8	-60.1	4.3	8.34e-01	0	41	0	0	74	9071
2026-01-05 03:50:44.92	17.59	7.50	-51.7	-59.7	4.4	8.32e-01	0	41	0	0	74	8740
2026-01-05 03:50:45.92	17.60	7.58	-51.7	-59.7	4.4	8.25e-01	0	41	0	0	74	8668
2026-01-05 03:50:46.92	17.62	7.66	-51.6	-59.4	4.5	8.07e-01	0	41	0	0	73	8865
2026-01-05 03:50:47.93	17.63	7.74	-51.6	-59.1	4.7	8.17e-01	0	41	0	0	73	8612
2026-01-05 03:50:48.93	17.64	7.82	-51.6	-59.0	4.7	8.03e-01	0	41	0	0	73	8551
2026-01-05 03:50:49.94	17.65	7.90	-51.5	-58.7	4.8	7.92e-01	0	41	0	0	73	8205
2026-01-05 03:50:50.94	17.67	7.98	-51.5	-58.5	4.9	7.86e-01	0	41	0	0	73	8040
2026-01-05 03:50:51.94	17.68	8.06	-51.5	-58.4	5.0	7.70e-01	0	41	0	0	73	7906
2026-01-05 03:50:52.95	17.69	8.14	-51.4	-58.1	5.2	7.53e-01	0	41	0	0	73	7690
2026-01-05 03:50:53.95	17.70	8.22	-51.2	-57.6	5.5	7.26e-01	0	41	0	0	73	7208
2026-01-05 03:50:54.95	17.72	8.30	-51.3	-57.5	5.5	7.06e-01	0	41	0	0	73	7197
2026-01-05 03:50:55.96	17.73	8.38	-51.2	-57.3	5.7	4.71e-01	0	41	0	2097152	73	6971
2026-01-05 03:50:56.96	17.74	8.46	-51.0	-56.8	6.1	3.19e-01	0	41	0	9437184	72	6971
2026-01-05 03:50:57.97	17.75	8.54	-50.8	-56.2	6.5	2.50e-01	0	41	0	16777216	72	6540
2026-01-05 03:50:58.97	17.77	8.62	-50.7	-55.6	7.1	1.69e-01	0	41	0	24117248	72	6092
2026-01-05 03:50:59.98	17.78	8.71	-50.5	-55.1	7.5	1.19e-01	0	41	0	31457280	71	6130
2026-01-05 03:51:00.98	17.79	8.79	-50.2	-54.5	8.2	6.90e-02	0	41	0	38797312	71	5680
2026-01-05 03:51:01.99	17.81	8.87	-50.0	-54.0	8.6	4.24e-02	0	41	0	46137344	70	5699
2026-01-05 03:51:02.99	17.82	8.95	-49.8	-53.6	9.1	2.07e-02	0	41	0	53477376	70	5434
2026-01-05 03:51:03.99	17.83	9.04	-49.5	-52.9	9.8	1.34e-02	0	41	0	60817408	69	5299
2026-01-05 03:51:05.00	17.84	9.12	-49.7	-53.0	9.9	8.78e-03	0	41	0	67108864	68	5685
2026-01-05 03:51:06.31	17.86	9.23	-51.2	-57.8	5.3	8.22e-01	0	41	0	72351744	72	7895
2026-01-05 03:51:07.08	17.87	9.29	-45.6	-47.1	15.8	0.00e+00	0	41	0	77594624	62	4075
2026-01-05 03:51:08.37	17.89	9.40	-46.9	-48.7	14.0	7.93e-04	0	41	0	87031808	64	4390
2026-01-05 03:51:09.08	17.90	9.46	-45.5	-47.0	15.8	0.00e+00	0	41	0	92274688	61	4261
2026-01-05 03:51:10.37	17.92	9.57	-45.0	-46.4	16.4	0.00e+00	0	41	0	101711872	60	4241
2026-01-05 03:51:11.09	17.93	9.63	-44.5	-45.8	16.9	0.00e+00	0	41	0	106954752	59	4188
2026-01-05 03:51:12.38	17.94	9.74	-43.7	-44.9	17.8	0.00e+00	0	41	0	116391936	58	3975
2026-01-05 03:51:13.09	17.95	9.80	-43.4	-44.5	18.2	0.00e+00	0	41	0	121634816	57	4032
2026-01-05 03:51:14.43	17.97	9.92	-43.3	-44.5	18.2	0.00e+00	0	41	0	131072000	57	4027
2026-01-05 03:51:15.15	17.98	9.98	-43.4	-44.6	18.1	0.00e+00	0	41	0	136314880	57	4074
2026-01-05 03:51:16.44	18.00	10.09	-43.3	-44.4	18.3	0.00e+00	0	41	0	145752064	57	3990
2026-01-05 03:51:17.15	18.01	10.15	-43.4	-44.5	18.2	0.00e+00	0	41	0	150994944	57	4036
2026-01-05 03:51:18.56	18.03	10.28	-43.3	-44.4	18.3	0.00e+00	0	41	0	160432128	56	4219
2026-01-05 03:51:19.28	18.04	10.34	-43.1	-44.2	18.5	0.00e+00	0	41	0	166723584	56	4122
2026-01-05 03:51:20.64	18.06	10.46	-42.8	-43.9	18.8	0.00e+00	0	41	0	176160768	56	3976
2026-01-05 03:51:21.35	18.07	10.52	-42.6	-43.7	18.9	0.00e+00	0	41	0	181403648	56	3894
2026-01-05 03:51:22.64	18.08	10.63	-42.7	-43.8	18.8	0.00e+00	0	41	0	190840832	56	3942
2026-01-05 03:51:23.36	18.09	10.70	-42.6	-43.6	19.0	0.00e+00	0	41	0	196083712	56	3866
2026-01-05 03:51:24.79	18.12	10.83	-42.5	-43.5	19.0	0.00e+00	0	41	0	206569472	55	4040
2026-01-05 03:51:25.51	18.13	10.89	-42.3	-43.4	19.1	0.00e+00	0	41	0	210763776	55	3971
2026-01-05 03:51:26.80	18.14	11.01	-42.3	-43.3	19.2	0.00e+00	0	42	0	220200960	55	3949
2026-01-05 03:51:27.51	18.15	11.07	-42.3	-43.4	19.2	0.00e+00	0	42	0	225443840	55	3961
2026-01-05 03:51:28.80	18.17	11.19	-42.3	-43.4	19.1	0.00e+00	0	41	0	234881024	55	3967
2026-01-05 03:51:29.52	18.18	11.25	-42.2	-43.3	19.2	0.00e+00	0	41	0	240123904	55	3918
2026-01-05 03:51:30.81	18.20	11.37	-42.4	-43.5	19.1	0.00e+00	0	41	0	249561088	55	4009
2026-01-05 03:51:31.52	18.21	11.43	-42.3	-43.3	19.2	0.00e+00	0	41	0	254803968	55	3934
2026-01-05 03:51:32.81	18.23	11.55	-42.1	-43.1	19.4	0.00e+00	0	42	0	264241152	55	3868
2026-01-05 03:51:33.53	18.24	11.62	-42.1	-43.1	19.4	0.00e+00	0	41	0	268435456	55	3854
2026-01-05 03:51:34.81	18.26	11.74	-42.2	-43.3	19.3	0.00e+00	0	42	0	277872640	54	4149
2026-01-05 03:51:35.53	18.27	11.80	-42.2	-43.3	19.2	0.00e+00	0	41	0	284164096	54	4164
2026-01-05 03:51:36.82	18.29	11.92	-42.1	-43.1	19.4	0.00e+00	0	42	0	292552704	54	4097
2026-01-05 03:51:37.54	18.30	11.99	-42.1	-43.1	19.4	0.00e+00	0	42	0	297795584	54	4091
2026-01-05 03:51:38.83	18.32	12.11	-41.9	-42.9	19.6	0.00e+00	0	42	0	307232768	54	3992
2026-01-05 03:51:39.54	18.33	12.18	-41.9	-42.9	19.6	0.00e+00	0	42	0	312475648	54	3991
2026-01-05 03:51:40.84	18.35	12.30	-42.0	-43.0	19.5	0.00e+00	0	42	0	321912832	54	4041
2026-01-05 03:51:41.55	18.36	12.37	-41.9	-42.9	19.6	0.00e+00	0	42	0	327155712	54	3983
2026-01-05 03:51:42.84	18.38	12.49	-41.9	-43.0	19.6	0.00e+00	0	41	0	336592896	54	4011
2026-01-05 03:51:43.56	18.39	12.56	-41.9	-42.9	19.6	0.00e+00	0	42	0	341835776	54	3973
2026-01-05 03:51:44.84	18.41	12.68	-41.9	-42.9	19.6	0.00e+00	0	42	0	351272960	54	3977
2026-01-05 03:51:45.56	18.42	12.75	-41.9	-43.0	19.6	0.00e+00	0	42	0	355467264	54	4008
2026-01-05 03:51:46.85	18.44	12.88	-41.8	-42.8	19.8	0.00e+00	0	42	0	364904448	54	3922
2026-01-05 03:51:47.56	18.46	12.95	-41.8	-42.8	19.7	0.00e+00	0	42	0	370147328	54	3948
2026-01-05 03:51:48.85	18.48	13.07	-41.8	-42.8	19.7	0.00e+00	0	42	0	379584512	54	3950
2026-01-05 03:51:49.69	18.49	13.15	-41.7	-42.7	19.8	0.00e+00	0	41	0	385875968	54	3884
2026-01-05 03:51:50.84	18.51	13.27	-41.6	-42.6	19.9	0.00e+00	0	41	0	394264576	53	4092
2026-01-05 03:51:51.70	18.52	13.35	-41.6	-42.6	20.0	0.00e+00	0	42	0	400556032	53	4061
2026-01-05 03:51:52.85	18.54	13.47	-41.7	-42.7	19.8	0.00e+00	0	42	0	408944640	53	4135
2026-01-05 03:51:53.71	18.55	13.55	-41.5	-42.4	20.1	0.00e+00	0	42	0	414187520	53	4004
2026-01-05 03:51:54.85	18.57	13.67	-41.5	-42.5	20.0	0.00e+00	0	42	0	422576128	53	4037
2026-01-05 03:51:55.71	18.59	13.75	-41.5	-42.5	20.1	0.00e+00	0	42	0	428867584	53	4020
2026-01-05 03:51:56.86	18.61	13.87	-41.5	-42.5	20.0	0.00e+00	0	42	0	437256192	53	4021
2026-01-05 03:51:57.72	18.62	13.96	-41.5	-42.5	20.0	0.00e+00	0	42	0	443547648	53	4030
2026-01-05 03:51:59.01	18.64	14.09	-41.4	-42.4	20.1	0.00e+00	0	42	0	452984832	53	3980
2026-01-05 03:51:59.72	18.65	14.16	-41.4	-42.4	20.1	0.00e+00	0	42	0	458227712	53	3984
2026-01-05 03:52:01.01	18.68	14.29	-41.4	-42.3	20.2	0.00e+00	0	42	0	467664896	53	3949
2026-01-05 03:52:01.73	18.69	14.37	-41.4	-42.4	20.1	0.00e+00	0	42	0	472907776	53	3982
2026-01-05 03:52:03.02	18.71	14.50	-41.3	-42.2	20.3	0.00e+00	0	42	0	481296384	53	3896
2026-01-05 03:52:03.73	18.72	14.57	-41.2	-42.1	20.4	0.00e+00	0	42	0	487587840	53	3849
2026-01-05 03:52:05.03	18.74	14.71	-41.2	-42.2	20.3	0.00e+00	0	42	0	495976448	53	3876
2026-01-05 03:52:05.74	18.76	14.78	-41.2	-42.2	20.3	0.00e+00	0	42	0	501219328	52	4114
2026-01-05 03:52:07.03	18.78	14.92	-41.2	-42.2	20.3	0.00e+00	0	42	0	510656512	52	4130
2026-01-05 03:52:07.75	18.79	15.00	-41.2	-42.1	20.4	0.00e+00	0	42	0	515899392	52	4091
2026-01-05 03:52:09.09	18.81	15.14	-41.1	-42.1	20.4	0.00e+00	0	42	0	525336576	52	4074
2026-01-05 03:52:09.80	18.83	15.21	-41.0	-42.0	20.5	0.00e+00	0	41	0	530579456	52	4031
2026-01-05 03:52:11.16	18.85	15.36	-41.0	-41.9	20.6	0.00e+00	0	41	0	541065216	52	3997
2026-01-05 03:52:12.13	18.87	15.46	-41.1	-42.0	20.5	0.00e+00	0	42	0	547356672	52	4049
2026-01-05 03:52:13.13	18.89	15.57	-41.1	-42.1	20.5	0.00e+00	0	42	0	554696704	52	4059
2026-01-05 03:52:14.13	18.90	15.68	-40.9	-41.8	20.7	0.00e+00	0	42	0	562036736	52	3958
2026-01-05 03:52:15.13	18.92	15.79	-40.9	-41.9	20.6	0.00e+00	0	42	0	569376768	52	3962
2026-01-05 03:52:16.14	18.94	15.90	-40.8	-41.7	20.8	0.00e+00	0	42	0	576716800	52	3890
2026-01-05 03:52:17.14	18.96	16.01	-41.0	-42.0	20.5	0.00e+00	0	42	0	584056832	52	4014
2026-01-05 03:52:18.15	18.98	16.12	-40.8	-41.8	20.7	0.00e+00	0	42	0	591396864	52	3928
2026-01-05 03:52:19.15	19.00	16.23	-40.8	-41.7	20.8	0.00e+00	0	42	0	598736896	52	3887
2026-01-05 03:52:20.15	19.02	16.35	-40.8	-41.8	20.7	0.00e+00	0	42	0	606076928	52	3918
2026-01-05 03:52:21.16	19.03	16.46	-40.6	-41.6	20.9	0.00e+00	0	42	0	612368384	51	4054
2026-01-05 03:52:22.16	19.05	16.57	-40.8	-41.7	20.9	0.00e+00	0	42	0	619708416	51	4123
2026-01-05 03:52:23.16	19.07	16.69	-40.7	-41.6	20.9	0.00e+00	0	42	0	627048448	51	4079
2026-01-05 03:52:24.16	19.09	16.80	-40.6	-41.6	21.0	0.00e+00	0	42	0	634388480	51	4059
2026-01-05 03:52:25.17	19.11	16.91	-40.7	-41.6	20.9	0.00e+00	0	42	0	641728512	51	4087
2026-01-05 03:52:26.17	19.13	17.03	-40.6	-41.5	21.0	0.00e+00	0	42	0	649068544	51	4045
2026-01-05 03:52:27.17	19.15	17.14	-40.6	-41.5	21.0	0.00e+00	0	42	0	656408576	51	4036
2026-01-05 03:52:28.17	19.17	17.26	-40.5	-41.4	21.1	0.00e+00	0	42	0	663748608	51	3977
2026-01-05 03:52:29.18	19.19	17.38	-40.6	-41.5	21.1	0.00e+00	0	42	0	671088640	51	4021
2026-01-05 03:52:30.18	19.21	17.50	-40.6	-41.5	21.0	0.00e+00	0	42	0	678428672	51	4035
2026-01-05 03:52:31.18	19.23	17.61	-40.5	-41.4	21.1	0.00e+00	0	42	0	685768704	51	3980
2026-01-05 03:52:32.19	19.25	17.73	-40.5	-41.4	21.2	0.00e+00	0	42	0	693108736	51	3974
2026-01-05 03:52:33.19	19.27	17.85	-40.5	-41.4	21.1	0.00e+00	0	42	0	699400192	51	4003
2026-01-05 03:52:34.20	19.29	17.97	-40.7	-41.6	21.0	0.00e+00	0	42	0	706740224	51	4077
2026-01-05 03:52:35.20	19.31	18.09	-40.5	-41.4	21.2	0.00e+00	0	42	0	714080256	51	3959
2026-01-05 03:52:36.20	19.33	18.21	-40.4	-41.3	21.2	0.00e+00	0	42	0	721420288	51	3918
2026-01-05 03:52:37.27	19.35	18.34	-40.3	-41.2	21.3	0.00e+00	0	42	0	728760320	51	3902
2026-01-05 03:52:38.16	19.37	18.45	-40.5	-41.4	21.1	0.00e+00	0	42	0	735051776	51	3989
2026-01-05 03:52:39.36	19.40	18.60	-40.3	-41.2	21.3	0.00e+00	0	42	0	744488960	51	3899
2026-01-05 03:52:40.22	19.42	18.70	-40.5	-41.4	21.2	0.00e+00	0	42	0	750780416	51	3962
2026-01-05 03:52:41.61	19.45	18.87	-40.3	-41.2	21.3	0.00e+00	0	42	0	760217600	51	3883
2026-01-05 03:52:42.33	19.46	18.96	-40.4	-41.3	21.2	0.00e+00	0	42	0	765460480	51	3946
2026-01-05 03:52:43.61	19.49	19.12	-40.4	-41.3	21.2	0.00e+00	0	42	0	774897664	51	3934
2026-01-05 03:52:44.33	19.50	19.21	-40.4	-41.3	21.2	0.00e+00	0	42	0	780140544	51	3946
2026-01-05 03:52:45.62	19.53	19.38	-40.5	-41.4	21.2	0.00e+00	0	42	0	789577728	51	3961
2026-01-05 03:52:46.39	19.55	19.48	-40.5	-41.4	21.2	0.00e+00	0	42	0	794820608	51	3982
2026-01-05 03:52:47.68	19.58	19.64	-40.5	-41.4	21.1	0.00e+00	0	42	0	804257792	51	3988
2026-01-05 03:52:48.45	19.60	19.74	-40.3	-41.2	21.3	0.00e+00	0	42	0	809500672	51	3892
2026-01-05 03:52:49.75	19.63	19.91	-40.2	-41.1	21.5	0.00e+00	0	42	0	818937856	51	3828
2026-01-05 03:52:50.46	19.64	20.00	-40.1	-41.0	21.5	0.00e+00	0	42	0	824180736	51	3812
2026-01-05 03:52:51.75	19.67	20.17	-40.2	-41.1	21.3	0.00e+00	0	42	0	833617920	51	3852
2026-01-05 03:52:52.60	19.69	20.28	-40.3	-41.2	21.3	0.00e+00	0	42	0	839909376	51	3875
2026-01-05 03:52:53.75	19.72	20.43	-40.2	-41.1	21.4	0.00e+00	0	42	0	848297984	50	4083
2026-01-05 03:52:54.61	19.74	20.54	-40.1	-41.0	21.5	0.00e+00	0	42	0	854589440	50	4024
2026-01-05 03:52:55.75	19.76	20.70	-40.1	-40.9	21.6	0.00e+00	0	42	0	862978048	50	3996
2026-01-05 03:52:56.61	19.78	20.81	-40.0	-40.9	21.6	0.00e+00	0	42	0	868220928	50	3959
2026-01-05 03:52:57.76	19.81	20.96	-39.9	-40.8	21.7	0.00e+00	0	42	0	876609536	50	3928
2026-01-05 03:52:58.62	19.83	21.08	-39.9	-40.8	21.7	0.00e+00	0	42	0	882900992	50	3923
2026-01-05 03:52:59.77	19.86	21.24	-40.0	-40.9	21.6	0.00e+00	0	42	0	891289600	50	3966
2026-01-05 03:53:00.62	19.88	21.35	-39.9	-40.7	21.7	0.00e+00	0	42	0	897581056	50	3908
2026-01-05 03:53:01.77	19.91	21.51	-40.0	-40.8	21.7	0.00e+00	0	42	0	905969664	50	3946
2026-01-05 03:53:02.63	19.93	21.63	-39.9	-40.8	21.7	0.00e+00	0	42	0	912261120	50	3917
2026-01-05 03:53:03.93	19.96	21.81	-39.8	-40.7	21.8	0.00e+00	0	42	0	921698304	50	3896
2026-01-05 03:53:04.65	19.98	21.91	-39.9	-40.7	21.8	0.00e+00	0	42	0	926941184	50	3904
2026-01-05 03:53:06.15	20.02	22.12	-39.9	-40.7	21.7	0.00e+00	0	42	0	937426944	50	3907
2026-01-05 03:53:06.86	20.04	22.22	-39.8	-40.7	21.8	0.00e+00	0	42	0	942669824	50	3894
2026-01-05 03:53:08.15	20.07	22.41	-39.8	-40.6	21.9	0.00e+00	0	42	0	952107008	50	3859
2026-01-05 03:53:09.20	20.10	22.56	-39.9	-40.8	21.7	0.00e+00	0	42	0	959447040	50	3926
2026-01-05 03:53:10.06	20.12	22.68	-39.7	-40.6	21.9	0.00e+00	0	42	0	965738496	50	3854
2026-01-05 03:53:11.21	20.15	22.85	-39.8	-40.7	21.8	0.00e+00	0	42	0	974127104	50	3886
2026-01-05 03:53:12.07	20.17	22.97	-39.8	-40.6	21.9	0.00e+00	0	42	0	980418560	50	3867
2026-01-05 03:53:13.29	20.21	23.15	-39.8	-40.6	21.9	0.00e+00	0	42	0	988807168	50	3864
2026-01-05 03:53:14.15	20.23	23.28	-39.9	-40.7	21.8	0.00e+00	0	42	0	995098624	50	3902
2026-01-05 03:53:15.34	20.26	23.46	-39.8	-40.7	21.8	0.00e+00	0	42	0	1004535808	50	3878
2026-01-05 03:53:16.20	20.29	23.58	-39.7	-40.5	22.0	0.00e+00	0	42	0	1009778688	50	3811
2026-01-05 03:53:17.35	20.32	23.76	-39.8	-40.7	21.9	0.00e+00	0	42	0	1018167296	50	3874
2026-01-05 03:53:18.21	20.34	23.89	-39.7	-40.6	21.9	0.00e+00	0	42	0	1024458752	50	3831
2026-01-05 03:53:19.52	20.38	24.09	-39.8	-40.6	21.9	0.00e+00	0	42	0	1033895936	50	3849
2026-01-05 03:53:20.24	20.40	24.20	-39.6	-40.5	22.0	0.00e+00	0	42	0	1039138816	50	3785
2026-01-05 03:53:21.53	20.44	24.39	-39.8	-40.7	21.8	0.00e+00	0	42	0	1048576000	50	3877
2026-01-05 03:53:22.24	20.46	24.50	-39.8	-40.6	21.8	0.00e+00	0	42	0	1053818880	50	3866
2026-01-05 03:53:23.53	20.49	24.70	-39.7	-40.6	21.9	0.00e+00	0	42	0	1063256064	50	3834
2026-01-05 03:53:24.25	20.52	24.82	-39.8	-40.7	21.7	0.00e+00	0	42	0	1068498944	50	3900
2026-01-05 03:53:25.54	20.55	25.02	-39.8	-40.7	21.8	0.00e+00	0	42	0	1077936128	50	3875
2026-01-05 03:53:26.26	20.58	25.13	-39.8	-40.7	21.8	0.00e+00	0	42	0	1083179008	50	3886
2026-01-05 03:53:27.55	20.61	25.34	-39.8	-40.6	21.8	0.00e+00	0	42	0	1092616192	50	3864
2026-01-05 03:53:28.27	20.64	25.46	-39.8	-40.7	21.8	0.00e+00	0	42	0	1096810496	50	3885
2026-01-05 03:53:29.56	20.68	25.66	-39.8	-40.7	21.8	0.00e+00	0	42	0	1106247680	50	3893
2026-01-05 03:53:30.27	20.70	25.78	-39.9	-40.8	21.8	0.00e+00	0	42	0	1111490560	50	3918
2026-01-05 03:53:31.56	20.74	25.99	-39.9	-40.8	21.7	0.00e+00	0	42	0	1120927744	50	3922
2026-01-05 03:53:32.28	20.76	26.11	-39.9	-40.7	21.8	0.00e+00	0	42	0	1126170624	50	3912
2026-01-05 03:53:33.57	20.80	26.32	-39.6	-40.5	22.0	0.00e+00	0	42	0	1135607808	50	3807
2026-01-05 03:53:34.28	20.83	26.44	-39.5	-40.4	22.1	0.00e+00	0	42	0	1140850688	49	3961
2026-01-05 03:53:35.73	20.87	26.68	-39.4	-40.3	22.2	0.00e+00	0	42	0	1151336448	49	3937
2026-01-05 03:53:36.45	20.90	26.80	-39.5	-40.3	22.1	0.00e+00	0	42	0	1156579328	49	3945
2026-01-05 03:53:37.74	20.94	27.02	-39.5	-40.3	22.1	0.00e+00	0	42	0	1166016512	49	3950
2026-01-05 03:53:38.46	20.96	27.14	-39.4	-40.3	22.2	0.00e+00	0	42	0	1171259392	49	3933
2026-01-05 03:53:39.74	21.01	27.36	-39.4	-40.3	22.1	0.00e+00	0	42	0	1180696576	49	3935
2026-01-05 03:53:40.46	21.03	27.49	-39.4	-40.2	22.2	0.00e+00	0	42	0	1184890880	49	3895
2026-01-05 03:53:41.75	21.08	27.71	-39.3	-40.1	22.3	0.00e+00	0	42	0	1194328064	49	3852
2026-01-05 03:53:42.47	21.10	27.84	-39.2	-40.1	22.4	0.00e+00	0	42	0	1199570944	49	3829
2026-01-05 03:53:43.76	21.15	28.07	-39.1	-40.0	22.4	0.00e+00	0	42	0	1209008128	49	3785
2026-01-05 03:53:44.47	21.17	28.19	-39.1	-40.0	22.4	0.00e+00	0	42	0	1214251008	48	4014
2026-01-05 03:53:45.76	21.22	28.42	-39.0	-39.9	22.5	0.00e+00	0	42	0	1223688192	48	3961
2026-01-05 03:53:46.62	21.25	28.58	-39.0	-39.8	22.6	0.00e+00	0	42	0	1229979648	48	3954
2026-01-05 03:53:48.11	21.30	28.85	-38.9	-39.7	22.6	0.00e+00	0	42	0	1240465408	48	3902
2026-01-05 03:53:48.82	21.33	28.98	-38.9	-39.7	22.7	0.00e+00	0	41	0	1245708288	48	3896
2026-01-05 03:53:50.11	21.38	29.21	-38.8	-39.7	22.7	0.00e+00	0	42	0	1255145472	48	3871
2026-01-05 03:53:50.83	21.41	29.35	-38.8	-39.7	22.7	0.00e+00	0	42	0	1260388352	48	3872
2026-01-05 03:53:52.12	21.45	29.58	-39.0	-39.8	22.6	0.00e+00	0	42	0	1269825536	48	3923
2026-01-05 03:53:52.84	21.48	29.72	-38.9	-39.8	22.6	0.00e+00	0	42	0	1275068416	48	3916
2026-01-05 03:53:54.12	21.53	29.96	-38.8	-39.6	22.7	0.00e+00	0	42	0	1283457024	48	3856
2026-01-05 03:53:54.93	21.56	30.11	-38.9	-39.7	22.7	0.00e+00	0	42	0	1289748480	48	3879
2026-01-05 03:53:56.08	21.61	30.33	-39.0	-39.8	22.6	0.00e+00	0	42	0	1298137088	48	3930
2026-01-05 03:53:57.18	21.65	30.55	-39.0	-39.8	22.6	0.00e+00	0	42	0	1305477120	48	3925
2026-01-05 03:53:58.23	21.70	30.75	-39.0	-39.8	22.6	0.00e+00	0	41	0	1313865728	48	3955
2026-01-05 03:53:59.28	21.74	30.95	-39.0	-39.8	22.6	0.00e+00	0	42	0	1321205760	48	3939
2026-01-05 03:54:00.14	21.78	31.12	-38.9	-39.7	22.6	0.00e+00	0	42	0	1327497216	48	3913
2026-01-05 03:54:01.61	21.84	31.41	-39.0	-39.9	22.5	0.00e+00	0	42	0	1337982976	48	3962
2026-01-05 03:54:02.74	21.89	31.64	-39.2	-40.0	22.4	0.00e+00	0	42	0	1346371584	48	4026
2026-01-05 03:54:03.59	21.92	31.81	-39.3	-40.1	22.4	0.00e+00	0	42	0	1352663040	48	4075
2026-01-05 03:54:04.74	21.97	32.04	-39.3	-40.2	22.3	0.00e+00	0	42	0	1361051648	48	4105
2026-01-05 03:54:05.60	22.01	32.22	-39.5	-40.3	22.2	0.00e+00	0	42	0	1367343104	48	4175
2026-01-05 03:54:06.79	22.07	32.46	-39.5	-40.4	22.2	0.00e+00	0	42	0	1375731712	48	4203
2026-01-05 03:54:07.65	22.11	32.64	-39.4	-40.3	22.2	0.00e+00	0	42	0	1382023168	48	4152
2026-01-05 03:54:08.80	22.16	32.88	-39.4	-40.2	22.3	0.00e+00	0	42	0	1390411776	48	4138
2026-01-05 03:54:09.66	22.20	33.06	-39.3	-40.2	22.3	0.00e+00	0	41	0	1395654656	48	4113
2026-01-05 03:54:10.81	22.25	33.30	-39.3	-40.1	22.4	0.00e+00	0	42	0	1404043264	48	4082
2026-01-05 03:54:11.70	22.29	33.49	-39.4	-40.2	22.3	0.00e+00	0	42	0	1411383296	48	4139
2026-01-05 03:54:12.76	22.35	33.72	-39.4	-40.3	22.2	0.00e+00	0	42	0	1418723328	48	4149
2026-01-05 03:54:13.62	22.39	33.90	-39.2	-40.1	22.4	0.00e+00	0	42	0	1425014784	48	4060
2026-01-05 03:54:14.77	22.44	34.15	-39.2	-40.0	22.4	0.00e+00	0	42	0	1433403392	48	4028
2026-01-05 03:54:15.63	22.49	34.34	-39.2	-40.1	22.4	0.00e+00	0	42	0	1438646272	48	4056
2026-01-05 03:54:16.77	22.55	34.59	-39.2	-40.1	22.4	0.00e+00	0	42	0	1447034880	48	4059
2026-01-05 03:54:17.63	22.59	34.78	-39.1	-39.9	22.6	0.00e+00	0	42	0	1453326336	48	3985
2026-01-05 03:54:18.78	22.65	35.04	-39.0	-39.8	22.6	0.00e+00	0	42	0	1461714944	48	3953
2026-01-05 03:54:19.64	22.69	35.23	-39.0	-39.9	22.6	0.00e+00	0	42	0	1468006400	48	3960
2026-01-05 03:54:20.78	22.75	35.49	-38.9	-39.7	22.7	0.00e+00	0	42	0	1476395008	48	3912
2026-01-05 03:54:21.64	22.80	35.68	-38.8	-39.6	22.7	0.00e+00	0	42	0	1482686464	48	3865
2026-01-05 03:54:22.79	22.86	35.95	-38.9	-39.7	22.6	0.00e+00	0	42	0	1491075072	48	3900
2026-01-05 03:54:23.65	22.91	36.14	-38.9	-39.8	22.7	0.00e+00	0	42	0	1497366528	48	3920
2026-01-05 03:54:25.00	22.99	36.46	-39.1	-39.9	22.5	0.00e+00	0	42	0	1506803712	48	3993
2026-01-05 03:54:25.72	23.03	36.63	-39.1	-39.9	22.5	0.00e+00	0	42	0	1512046592	48	4001
2026-01-05 03:54:27.23	23.12	36.98	-39.2	-40.0	22.5	0.00e+00	0	42	0	1523580928	48	4037
2026-01-05 03:54:27.94	23.16	37.15	-39.2	-40.0	22.4	0.00e+00	0	42	0	1527775232	48	4029
2026-01-05 03:54:29.24	23.24	37.46	-39.3	-40.2	22.3	0.00e+00	0	42	0	1537212416	48	4108
2026-01-05 03:54:29.96	23.28	37.64	-39.3	-40.2	22.3	0.00e+00	0	42	0	1542455296	48	4107
2026-01-05 03:54:31.24	23.36	37.95	-39.4	-40.2	22.2	0.00e+00	0	42	0	1551892480	48	4128
2026-01-05 03:54:31.96	23.40	38.13	-39.3	-40.2	22.3	0.00e+00	0	42	0	1557135360	48	4100
2026-01-05 03:54:33.25	23.48	38.45	-39.2	-40.1	22.4	0.00e+00	0	42	0	1566572544	48	4068
2026-01-05 03:54:33.96	23.53	38.62	-39.0	-39.9	22.6	0.00e+00	0	42	0	1571815424	48	3963
2026-01-05 03:54:35.25	23.61	38.95	-39.1	-39.9	22.5	0.00e+00	0	42	0	1581252608	48	3988
2026-01-05 03:54:35.97	23.66	39.13	-39.0	-39.9	22.6	0.00e+00	0	42	0	1585446912	48	3960
2026-01-05 03:54:37.26	23.75	39.46	-39.2	-40.0	22.5	0.00e+00	0	42	0	1594884096	48	4025
2026-01-05 03:54:37.98	23.79	39.64	-39.0	-39.9	22.6	0.00e+00	0	42	0	1600126976	48	3967
2026-01-05 03:54:39.27	23.88	39.97	-39.5	-40.3	22.2	0.00e+00	0	42	0	1609564160	48	4181
2026-01-05 03:54:39.98	23.93	40.16	-39.4	-40.3	22.3	0.00e+00	0	42	0	1614807040	48	4150
2026-01-05 03:54:41.27	24.02	40.49	-39.5	-40.3	22.2	0.00e+00	0	42	0	1624244224	48	4191
2026-01-05 03:54:41.99	24.08	40.68	-39.4	-40.3	22.2	0.00e+00	0	42	0	1629487104	48	4159
2026-01-05 03:54:43.28	24.17	41.03	-39.6	-40.4	22.1	0.00e+00	0	42	0	1638924288	49	3984
2026-01-05 03:54:44.00	24.22	41.22	-39.7	-40.5	22.1	0.00e+00	0	42	0	1644167168	49	4038
2026-01-05 03:54:45.29	24.32	41.57	-39.6	-40.5	22.1	0.00e+00	0	42	0	1653604352	49	4017
2026-01-05 03:54:46.00	24.38	41.76	-39.7	-40.6	22.0	0.00e+00	0	42	0	1658847232	49	4065
2026-01-05 03:54:47.29	24.48	42.11	-39.7	-40.5	22.0	0.00e+00	0	42	0	1668284416	49	4029
2026-01-05 03:54:48.01	24.53	42.31	-39.6	-40.4	22.1	0.00e+00	0	42	0	1672478720	49	3992
2026-01-05 03:54:49.30	24.64	42.67	-39.6	-40.4	22.0	0.00e+00	0	42	0	1681915904	49	3980
2026-01-05 03:54:50.01	24.69	42.87	-39.5	-40.3	22.1	0.00e+00	0	42	0	1687158784	49	3952
2026-01-05 03:54:51.31	24.80	43.23	-39.6	-40.4	22.1	0.00e+00	0	42	0	1696595968	49	3980
2026-01-05 03:54:52.02	24.86	43.43	-39.5	-40.3	22.1	0.00e+00	0	42	0	1701838848	49	3933
2026-01-05 03:54:53.31	24.97	43.80	-39.3	-40.2	22.2	0.00e+00	0	42	0	1711276032	49	3870
2026-01-05 03:54:54.03	25.04	44.01	-39.4	-40.2	22.1	0.00e+00	0	42	0	1716518912	49	3894
2026-01-05 03:54:55.32	25.15	44.38	-39.4	-40.3	22.1	0.00e+00	0	42	0	1725956096	49	3915
2026-01-05 03:54:56.22	25.23	44.65	-39.5	-40.3	22.1	0.00e+00	0	42	0	1732247552	49	3942
2026-01-05 03:54:57.58	25.36	45.05	-39.7	-40.5	21.9	0.00e+00	0	42	0	1741684736	49	4051
2026-01-05 03:54:58.29	25.43	45.26	-39.8	-40.7	21.8	0.00e+00	0	42	0	1746927616	49	4107
2026-01-05 03:54:59.58	25.55	45.64	-40.1	-40.9	21.6	0.00e+00	0	42	0	1756364800	49	4241
2026-01-05 03:55:00.30	25.62	45.86	-39.9	-40.8	21.6	0.00e+00	0	42	0	1761607680	49	4170
2026-01-05 03:55:01.59	25.75	46.25	-39.8	-40.7	21.7	0.00e+00	0	42	0	1771044864	49	4109
2026-01-05 03:55:02.48	25.84	46.52	-39.8	-40.6	21.8	0.00e+00	0	42	0	1777336320	49	4088
2026-01-05 03:55:03.63	25.96	46.88	-39.9	-40.7	21.7	0.00e+00	0	42	0	1785724928	49	4136
2026-01-05 03:55:04.49	26.05	47.14	-39.9	-40.8	21.7	0.00e+00	0	42	0	1792016384	49	4168
2026-01-05 03:55:05.63	26.17	47.50	-39.9	-40.7	21.6	0.00e+00	0	42	0	1800404992	49	4144
2026-01-05 03:55:06.49	26.27	47.77	-40.1	-41.0	21.4	0.00e+00	0	42	0	1806696448	49	4261
2026-01-05 03:55:07.64	26.40	48.13	-40.1	-40.9	21.5	0.00e+00	0	42	0	1815085056	49	4239
2026-01-05 03:55:08.82	26.53	48.51	-40.2	-41.1	21.3	0.00e+00	0	42	0	1823473664	49	4303
2026-01-05 03:55:09.86	26.66	48.85	-40.7	-41.6	20.9	0.00e+00	0	42	0	1830813696	50	4317
2026-01-05 03:55:10.85	26.77	49.17	-40.4	-41.3	21.2	0.00e+00	0	41	0	1838153728	50	4177
2026-01-05 03:55:11.86	26.90	49.50	-40.5	-41.4	21.0	0.00e+00	0	42	0	1845493760	50	4239
2026-01-05 03:55:12.86	27.02	49.82	-40.4	-41.2	21.2	0.00e+00	0	42	0	1851785216	50	4144
2026-01-05 03:55:13.86	27.15	50.16	-40.2	-41.1	21.4	0.00e+00	0	42	0	1859125248	50	4062
2026-01-05 03:55:14.86	27.28	50.49	-40.4	-41.2	21.3	0.00e+00	0	42	0	1866465280	50	4140
2026-01-05 03:55:15.87	27.41	50.83	-40.4	-41.2	21.2	0.00e+00	0	42	0	1873805312	50	4145
2026-01-05 03:55:16.87	27.55	51.17	-40.5	-41.4	21.1	0.00e+00	0	42	0	1881145344	50	4226
2026-01-05 03:55:17.88	27.69	51.51	-40.5	-41.4	21.1	0.00e+00	0	42	0	1888485376	50	4213
2026-01-05 03:55:18.96	27.84	51.88	-40.6	-41.5	21.0	0.00e+00	0	42	0	1895825408	50	4270
2026-01-05 03:55:19.85	27.97	52.19	-40.5	-41.4	21.0	0.00e+00	0	42	0	1903165440	50	4228
2026-01-05 03:55:20.99	28.14	52.58	-40.5	-41.4	20.9	0.00e+00	0	42	0	1911554048	51	3984
2026-01-05 03:55:21.85	28.28	52.88	-40.3	-41.2	21.3	0.00e+00	0	42	0	1916796928	51	3870
2026-01-05 03:55:23.00	28.46	53.29	-40.4	-41.3	21.2	0.00e+00	0	42	0	1925185536	51	3929
2026-01-05 03:55:23.86	28.59	53.59	-40.6	-41.5	21.0	0.00e+00	0	42	0	1931476992	51	4007
2026-01-05 03:55:25.00	28.78	54.00	-40.6	-41.5	21.0	0.00e+00	0	42	0	1939865600	51	4016
2026-01-05 03:55:25.86	28.92	54.30	-40.3	-41.1	21.2	0.00e+00	0	42	0	1946157056	51	3857
2026-01-05 03:55:27.01	29.12	54.72	-40.3	-41.1	21.3	0.00e+00	0	42	0	1954545664	50	4089
2026-01-05 03:55:27.87	29.27	55.03	-40.3	-41.1	21.3	0.00e+00	0	42	0	1960837120	50	4086
2026-01-05 03:55:29.01	29.48	55.45	-40.4	-41.3	21.1	0.00e+00	0	42	0	1969225728	50	4178
2026-01-05 03:55:29.87	29.64	55.76	-40.4	-41.3	21.2	0.00e+00	0	42	0	1975517184	50	4147
2026-01-05 03:55:31.12	29.88	56.23	-40.7	-41.6	20.7	0.00e+00	0	42	0	1983905792	50	4337
2026-01-05 03:55:31.97	30.04	56.54	-40.2	-41.1	21.3	0.00e+00	0	42	0	1990197248	50	4058
2026-01-05 03:55:33.11	30.27	56.97	-40.3	-41.2	21.2	0.00e+00	0	42	0	1998585856	50	4105
2026-01-05 03:55:33.98	30.45	57.30	-40.4	-41.3	21.0	0.00e+00	0	42	0	2004877312	50	4186
2026-01-05 03:55:35.12	30.69	57.73	-40.7	-41.6	20.7	0.00e+00	0	42	0	2013265920	51	4089
2026-01-05 03:55:35.98	30.88	58.06	-40.7	-41.6	20.9	0.00e+00	0	42	0	2019557376	51	4062
2026-01-05 03:55:37.13	31.14	58.50	-40.3	-41.1	21.1	0.00e+00	0	42	0	2026897408	51	3866
2026-01-05 03:55:38.08	31.36	58.86	-40.3	-41.2	21.1	0.00e+00	0	42	0	2034237440	51	3896
2026-01-05 03:55:39.27	31.64	59.32	-40.3	-41.1	21.2	0.00e+00	0	42	0	2042626048	51	3861
2026-01-05 03:55:40.16	31.86	59.67	-40.3	-41.2	21.2	0.00e+00	0	42	0	2048917504	51	3882
2026-01-05 03:55:41.31	32.15	60.12	-39.9	-40.8	21.7	0.00e+00	0	42	0	2057306112	50	3916
2026-01-05 03:55:42.17	32.38	60.46	-40.4	-41.2	21.3	0.00e+00	0	42	0	2063597568	50	4136
2026-01-05 03:55:43.32	32.69	60.91	-40.4	-41.3	21.3	0.00e+00	0	42	0	2071986176	50	4151
2026-01-05 03:55:44.31	32.97	61.31	-40.7	-41.5	21.1	0.00e+00	0	42	0	2079326208	50	4287
2026-01-05 03:55:45.48	33.30	61.77	-40.8	-41.7	21.0	0.00e+00	0	42	0	2087714816	51	4113
2026-01-05 03:55:46.34	33.56	62.12	-40.4	-41.2	21.5	0.00e+00	0	42	0	2094006272	51	3913
2026-01-05 03:55:47.49	33.91	62.58	-40.6	-41.5	21.3	0.00e+00	0	42	0	2102394880	50	4250
2026-01-05 03:55:48.35	34.19	62.93	-40.4	-41.2	21.5	0.00e+00	0	42	0	2108686336	50	4144
2026-01-05 03:55:49.49	34.56	63.39	-40.2	-41.1	21.7	0.00e+00	0	42	0	2117074944	50	4058
2026-01-05 03:55:50.35	34.85	63.75	-40.1	-40.9	21.9	0.00e+00	0	42	0	2123366400	50	3986
2026-01-05 03:55:51.50	35.26	64.22	-39.7	-40.5	22.2	0.00e+00	0	41	0	2131755008	50	3789
2026-01-05 03:55:52.36	35.57	64.57	-39.9	-40.7	22.1	0.00e+00	0	42	0	2136997888	49	4130
2026-01-05 03:55:53.51	36.01	65.04	-40.2	-41.1	21.8	0.00e+00	0	42	0	2145386496	49	4308
2026-01-05 03:55:54.37	36.35	65.40	-40.3	-41.1	21.8	0.00e+00	0	42	0	2151677952	50	4078
2026-01-05 03:55:55.51	36.81	65.87	-39.7	-40.5	22.4	0.00e+00	0	42	0	2160066560	50	3789
2026-01-05 03:55:56.37	37.18	66.23	-39.5	-40.3	22.5	0.00e+00	0	42	0	2166358016	49	3915
2026-01-05 03:55:57.52	37.68	66.71	-39.9	-40.7	22.1	0.00e+00	0	42	0	2174746624	50	3898
2026-01-05 03:55:58.38	38.08	67.07	-40.4	-41.2	21.8	0.00e+00	0	42	0	2181038080	50	4131
2026-01-05 03:55:59.64	38.68	67.59	-40.3	-41.2	21.9	0.00e+00	0	42	0	2190475264	50	4121
2026-01-05 03:56:00.37	39.04	67.90	-40.1	-40.9	22.1	0.00e+00	0	42	0	2194669568	50	3992
2026-01-05 03:56:01.85	39.81	68.52	-39.6	-40.4	22.6	0.00e+00	0	42	0	2206203904	50	3757
2026-01-05 03:56:02.57	40.20	68.82	-39.3	-40.0	22.8	0.00e+00	0	42	0	2211446784	49	3822
2026-01-05 03:56:03.86	40.93	69.36	-39.9	-40.7	22.2	0.00e+00	0	42	0	2220883968	49	4141
2026-01-05 03:56:04.57	41.35	69.66	-40.4	-41.3	21.8	0.00e+00	0	42	0	2225078272	50	4169
2026-01-05 03:56:05.86	42.15	70.20	-40.5	-41.4	21.7	0.00e+00	0	42	0	2234515456	50	4206
2026-01-05 03:56:06.58	42.62	70.50	-40.5	-41.4	21.7	0.00e+00	0	42	0	2239758336	50	4209
2026-01-05 03:56:07.86	43.49	71.04	-40.4	-41.3	21.7	0.00e+00	0	42	0	2249195520	51	3927
2026-01-05 03:56:08.58	44.00	71.34	-39.9	-40.7	22.2	0.00e+00	0	42	0	2254438400	50	3884
2026-01-05 03:56:09.87	44.96	71.88	-39.9	-40.7	22.3	0.00e+00	0	42	0	2263875584	50	3879
2026-01-05 03:56:10.58	45.52	72.17	-40.0	-40.8	22.2	0.00e+00	0	42	0	2269118464	50	3945
2026-01-05 03:56:11.88	46.59	72.71	-39.7	-40.5	22.4	0.00e+00	0	42	0	2278555648	50	3810
2026-01-05 03:56:12.59	47.20	73.00	-39.8	-40.6	22.3	0.00e+00	0	41	0	2283798528	50	3826
2026-01-05 03:56:14.31	48.78	73.70	-39.7	-40.5	22.5	0.00e+00	0	42	0	2296381440	50	3793
2026-01-05 03:56:14.88	49.34	73.93	-39.5	-40.3	22.6	0.00e+00	0	42	0	2300575744	49	3930
2026-01-05 03:56:16.51	51.02	74.59	-39.4	-40.2	22.7	0.00e+00	0	42	0	2312110080	49	3895
2026-01-05 03:56:17.08	51.65	74.81	-39.5	-40.4	22.6	0.00e+00	0	42	0	2315255808	49	3968
2026-01-05 03:56:18.71	53.54	75.45	-39.2	-40.0	22.8	0.00e+00	0	42	0	2327838720	49	3817
2026-01-05 03:56:19.29	54.26	75.68	-39.1	-39.9	22.9	0.00e+00	0	42	0	2332033024	48	3965
2026-01-05 03:56:20.90	56.38	76.29	-38.6	-39.4	23.3	0.00e+00	0	42	0	2343567360	48	3763
2026-01-05 03:56:21.47	57.17	76.50	-38.7	-39.5	23.2	0.00e+00	0	42	0	2347761664	48	3796
2026-01-05 03:56:23.09	59.58	77.10	-38.7	-39.5	23.2	0.00e+00	0	42	0	2359296000	48	3794
2026-01-05 03:56:23.95	60.95	77.40	-38.6	-39.4	22.9	0.00e+00	0	42	0	2365587456	47	3992
2026-01-05 03:56:25.10	62.90	77.80	-38.5	-39.4	23.0	0.00e+00	0	42	0	2373976064	47	3964
2026-01-05 03:56:25.95	64.42	78.09	-38.4	-39.2	23.1	0.00e+00	0	42	0	2380267520	47	3892
2026-01-05 03:56:27.13	66.66	78.47	-38.6	-39.4	22.9	0.00e+00	0	42	0	2388656128	47	3991
2026-01-05 03:56:28.00	68.41	78.74	-38.5	-39.3	23.0	0.00e+00	0	41	0	2394947584	47	3944
2026-01-05 03:56:29.14	70.83	79.08	-38.5	-39.3	23.0	0.00e+00	0	42	0	2403336192	47	3935
2026-01-05 03:56:30.00	72.76	79.32	-38.0	-38.8	23.4	0.00e+00	0	42	0	2409627648	46	3947
2026-01-05 03:56:31.15	75.47	79.63	-38.1	-38.8	23.4	0.00e+00	0	42	0	2418016256	46	3953
2026-01-05 03:56:32.02	77.64	79.85	-38.3	-39.1	23.2	0.00e+00	0	42	0	2423259136	46	4082
2026-01-05 03:56:33.17	80.64	80.11	-38.1	-38.9	23.3	0.00e+00	0	42	0	2431647744	46	3965
2026-01-05 03:56:34.11	83.21	80.31	-37.9	-38.7	23.5	0.00e+00	0	41	0	2438987776	46	3869
2026-01-05 03:56:35.32	86.67	80.53	-38.2	-39.0	23.3	0.00e+00	0	42	0	2447376384	46	4010
2026-01-05 03:56:36.23	89.38	80.67	-38.3	-39.1	23.1	0.00e+00	0	42	0	2453667840	46	4087
2026-01-05 03:56:37.43	93.06	80.83	-38.3	-39.1	23.2	0.00e+00	0	41	0	2463105024	46	4075
2026-01-05 03:56:38.29	95.78	80.92	-38.4	-39.2	23.1	0.00e+00	0	42	0	2469396480	46	4120
2026-01-05 03:56:39.61	100.03	81.01	-38.5	-39.3	23.0	0.00e+00	0	42	0	2478833664	46	4160
2026-01-05 03:56:40.33	102.38	81.04	-38.3	-39.1	23.2	0.00e+00	0	42	0	2484076544	46	4080
2026-01-05 03:56:41.62	106.63	81.06	-38.1	-38.9	23.3	0.00e+00	0	42	0	2492465152	46	3996
2026-01-05 03:56:42.34	108.99	81.05	-38.3	-39.1	23.2	0.00e+00	0	42	0	2498756608	46	4092
2026-01-05 03:56:43.62	113.18	81.00	-38.2	-39.0	23.3	0.00e+00	0	42	0	2507145216	46	4010
2026-01-05 03:56:44.34	115.50	80.95	-37.9	-38.7	23.5	0.00e+00	0	42	0	2512388096	46	3876
2026-01-05 03:56:45.63	119.59	80.82	-38.3	-39.1	23.2	0.00e+00	0	42	0	2521825280	46	4087
2026-01-05 03:56:46.35	121.81	80.73	-38.4	-39.2	23.1	0.00e+00	0	42	0	2527068160	46	4108
2026-01-05 03:56:47.64	125.67	80.53	-38.0	-38.7	23.4	0.00e+00	0	41	0	2536505344	46	3908
2026-01-05 03:56:48.35	127.73	80.41	-38.0	-38.8	23.4	0.00e+00	0	41	0	2541748224	46	3932
2026-01-05 03:56:49.64	131.31	80.15	-38.2	-39.1	23.2	0.00e+00	0	41	0	2551185408	46	4055
2026-01-05 03:56:50.36	133.23	79.99	-38.4	-39.2	23.2	0.00e+00	0	41	0	2556428288	46	4100
2026-01-05 03:56:51.64	136.48	79.68	-38.4	-39.3	22.7	0.00e+00	0	41	0	2565865472	46	4148
2026-01-05 03:56:52.69	139.00	79.41	-38.5	-39.3	23.0	0.00e+00	0	42	0	2573205504	46	4174
2026-01-05 03:56:53.56	140.98	79.17	-38.4	-39.2	23.1	0.00e+00	0	42	0	2579496960	46	4138
2026-01-05 03:56:54.70	143.45	78.83	-38.5	-39.3	23.0	0.00e+00	0	42	0	2587885568	46	4165
2026-01-05 03:56:55.56	145.20	78.57	-38.3	-39.1	23.1	0.00e+00	0	42	0	2594177024	46	4060
2026-01-05 03:56:56.71	147.43	78.20	-38.6	-39.4	22.9	0.00e+00	0	42	0	2601517056	46	4238
2026-01-05 03:56:57.57	149.00	77.91	-38.4	-39.2	23.1	0.00e+00	0	42	0	2607808512	46	4106
2026-01-05 03:56:58.71	150.96	77.52	-38.4	-39.2	23.1	0.00e+00	0	42	0	2616197120	46	4115
2026-01-05 03:56:59.57	152.36	77.21	-38.2	-39.0	23.2	0.00e+00	0	42	0	2622488576	46	4027
2026-01-05 03:57:00.72	154.13	76.80	-38.4	-39.2	23.1	0.00e+00	0	42	0	2630877184	46	4131
2026-01-05 03:57:01.66	155.49	76.45	-38.5	-39.3	23.0	0.00e+00	0	42	0	2637168640	46	4157
2026-01-05 03:57:02.84	157.10	76.01	-38.5	-39.3	23.0	0.00e+00	0	42	0	2646605824	46	4183
2026-01-05 03:57:03.70	158.21	75.68	-38.8	-39.6	22.7	0.00e+00	0	42	0	2652897280	47	4086
2026-01-05 03:57:04.84	159.60	75.23	-38.9	-39.7	22.6	0.00e+00	0	42	0	2661285888	47	4141
2026-01-05 03:57:05.82	160.73	74.85	-39.0	-39.8	22.4	0.00e+00	0	42	0	2667577344	47	4177
2026-01-05 03:57:06.99	162.00	74.38	-39.4	-40.2	22.6	0.00e+00	0	42	0	2675965952	48	4143
2026-01-05 03:57:07.85	162.88	74.03	-39.9	-40.7	22.3	0.00e+00	0	42	0	2682257408	49	4126
2026-01-05 03:57:08.99	163.99	73.57	-40.1	-40.9	22.1	0.00e+00	0	42	0	2690646016	50	3976
2026-01-05 03:57:09.85	164.79	73.22	-40.2	-41.1	22.1	0.00e+00	0	41	0	2696937472	50	4054
2026-01-05 03:57:11.00	165.80	72.75	-40.1	-41.0	21.9	0.00e+00	0	41	0	2705326080	50	4009
2026-01-05 03:57:11.86	166.52	72.39	-40.1	-41.0	22.1	0.00e+00	0	42	0	2711617536	50	4005
2026-01-05 03:57:13.00	167.42	71.92	-40.2	-41.1	22.0	0.00e+00	0	42	0	2720006144	50	4068
2026-01-05 03:57:13.86	168.08	71.56	-40.1	-41.0	22.1	0.00e+00	0	42	0	2725249024	50	4012
2026-01-05 03:57:15.01	168.91	71.08	-39.9	-40.8	22.3	0.00e+00	0	42	0	2733637632	50	3917
2026-01-05 03:57:15.86	169.49	70.72	-39.9	-40.7	22.2	0.00e+00	0	42	0	2739929088	50	3889
2026-01-05 03:57:17.01	170.25	70.24	-40.0	-40.9	22.1	0.00e+00	0	42	0	2748317696	50	3960
2026-01-05 03:57:17.87	170.79	69.88	-40.1	-40.9	22.2	0.00e+00	0	42	0	2754609152	50	3984
2026-01-05 03:57:19.10	171.53	69.36	-40.3	-41.2	21.9	0.00e+00	0	42	0	2764046336	50	4102
2026-01-05 03:57:19.95	172.02	69.00	-40.4	-41.3	21.9	0.00e+00	0	41	0	2769289216	50	4148
2026-01-05 03:57:21.10	172.65	68.52	-40.4	-41.3	21.8	0.00e+00	0	42	0	2777677824	50	4177
2026-01-05 03:57:22.43	173.35	67.96	-40.2	-41.0	22.1	0.00e+00	0	41	0	2788163584	50	4030
2026-01-05 03:57:23.15	173.71	67.66	-39.9	-40.8	22.1	0.00e+00	0	42	0	2793406464	50	3928
2026-01-05 03:57:24.44	174.33	67.12	-40.0	-40.8	22.2	0.00e+00	0	42	0	2801795072	50	3945
2026-01-05 03:57:25.16	174.66	66.81	-40.1	-40.9	22.2	0.00e+00	0	42	0	2807037952	50	4003
2026-01-05 03:57:26.48	175.25	66.26	-40.3	-41.2	21.8	0.00e+00	0	42	0	2816475136	50	4125
2026-01-05 03:57:27.19	175.55	65.97	-40.1	-41.0	22.1	0.00e+00	0	41	0	2821718016	50	4009
2026-01-05 03:57:28.48	176.08	65.43	-39.8	-40.6	22.3	0.00e+00	0	42	0	2831155200	50	3861
2026-01-05 03:57:29.20	176.37	65.13	-40.1	-40.9	22.2	0.00e+00	0	42	0	2836398080	50	3977
2026-01-05 03:57:30.49	176.86	64.60	-40.3	-41.1	22.0	0.00e+00	0	42	0	2845835264	50	4079
2026-01-05 03:57:31.20	177.12	64.31	-40.4	-41.3	21.9	0.00e+00	0	42	0	2851078144	50	4147
2026-01-05 03:57:32.49	177.58	63.78	-40.4	-41.3	21.8	0.00e+00	0	41	0	2860515328	50	4156
2026-01-05 03:57:33.21	177.83	63.48	-40.4	-41.2	21.9	0.00e+00	0	41	0	2865758208	50	4134
2026-01-05 03:57:34.50	178.25	62.95	-40.3	-41.1	22.0	0.00e+00	0	42	0	2875195392	50	4072
2026-01-05 03:57:35.22	178.49	62.66	-40.5	-41.4	21.8	0.00e+00	0	41	0	2879389696	50	4203
2026-01-05 03:57:36.51	178.89	62.14	-40.8	-41.6	21.5	0.00e+00	0	42	0	2888826880	51	4092
2026-01-05 03:57:37.23	179.10	61.85	-40.9	-41.8	21.2	0.00e+00	0	41	0	2894069760	51	4180
2026-01-05 03:57:38.51	179.47	61.34	-41.1	-42.0	21.2	0.00e+00	0	42	0	2903506944	51	4256
2026-01-05 03:57:39.23	179.68	61.05	-41.2	-42.1	21.0	0.00e+00	0	42	0	2908749824	51	4304
2026-01-05 03:57:40.52	180.03	60.54	-41.0	-41.9	21.2	0.00e+00	0	41	0	2918187008	51	4195
2026-01-05 03:57:41.23	180.22	60.26	-41.0	-41.9	21.3	0.00e+00	0	42	0	2923429888	51	4209
2026-01-05 03:57:42.58	180.56	59.72	-41.1	-42.0	21.2	0.00e+00	0	41	0	2932867072	51	4253
2026-01-05 03:57:43.30	180.74	59.44	-41.3	-42.1	21.1	0.00e+00	0	41	0	2938109952	51	4329
2026-01-05 03:57:44.68	181.07	58.91	-41.4	-42.3	20.8	0.00e+00	0	41	0	2948595712	52	4156
2026-01-05 03:57:45.40	181.24	58.63	-41.5	-42.3	20.9	0.00e+00	0	42	0	2953838592	52	4191
2026-01-05 03:57:46.75	181.55	58.11	-41.4	-42.3	21.0	0.00e+00	0	42	0	2963275776	52	4148
2026-01-05 03:57:47.47	181.71	57.83	-41.4	-42.3	20.9	0.00e+00	0	42	0	2968518656	52	4189
2026-01-05 03:57:48.86	182.00	57.30	-41.5	-42.4	20.9	0.00e+00	0	42	0	2977955840	52	4199
2026-01-05 03:57:49.57	182.15	57.03	-41.6	-42.6	20.6	0.00e+00	0	42	0	2983198720	52	4298
2026-01-05 03:57:50.86	182.41	56.55	-41.6	-42.5	20.6	0.00e+00	0	42	0	2992635904	52	4278
2026-01-05 03:57:51.57	182.55	56.28	-41.5	-42.5	20.7	0.00e+00	0	42	0	2997878784	52	4243
2026-01-05 03:57:52.86	182.80	55.80	-41.2	-42.1	21.0	0.00e+00	0	42	0	3007315968	52	4063
2026-01-05 03:57:53.58	182.93	55.54	-41.0	-41.9	21.2	0.00e+00	0	41	0	3012558848	52	3961
2026-01-05 03:57:54.87	183.17	55.06	-41.2	-42.1	20.9	0.00e+00	0	42	0	3021996032	52	4079
2026-01-05 03:57:55.59	183.30	54.80	-41.0	-41.9	21.3	0.00e+00	0	41	0	3027238912	52	3970
2026-01-05 03:57:56.87	183.52	54.34	-41.1	-42.0	21.1	0.00e+00	0	42	0	3036676096	52	4028
2026-01-05 03:57:57.67	183.65	54.05	-41.2	-42.1	21.0	0.00e+00	0	42	0	3041918976	52	4064
2026-01-05 03:57:59.13	183.89	53.52	-41.4	-42.3	20.9	0.00e+00	0	42	0	3052404736	52	4177
2026-01-05 03:58:00.26	184.07	53.12	-41.2	-42.1	21.1	0.00e+00	0	42	0	3060793344	52	4083
2026-01-05 03:58:01.12	184.21	52.82	-41.3	-42.2	21.0	0.00e+00	0	41	0	3067084800	52	4118
2026-01-05 03:58:02.27	184.38	52.42	-41.3	-42.1	21.1	0.00e+00	0	41	0	3075473408	52	4096
2026-01-05 03:58:03.13	184.51	52.12	-41.3	-42.2	20.9	0.00e+00	0	42	0	3081764864	52	4133
2026-01-05 03:58:04.28	184.68	51.72	-41.3	-42.2	20.9	0.00e+00	0	41	0	3089104896	52	4121
2026-01-05 03:58:05.14	184.80	51.42	-41.4	-42.3	20.9	0.00e+00	0	42	0	3096444928	52	4168
2026-01-05 03:58:06.28	184.96	51.04	-41.4	-42.3	20.9	0.00e+00	0	41	0	3104833536	52	4152
2026-01-05 03:58:07.14	185.07	50.74	-41.2	-42.1	21.0	0.00e+00	0	41	0	3110076416	52	4082
2026-01-05 03:58:08.51	185.25	50.28	-41.3	-42.2	21.0	0.00e+00	0	42	0	3120562176	52	4114
2026-01-05 03:58:09.23	185.35	50.04	-41.4	-42.3	20.9	0.00e+00	0	41	0	3125805056	52	4154
2026-01-05 03:58:10.74	185.54	49.54	-41.2	-42.1	21.0	0.00e+00	0	42	0	3136290816	52	4075
2026-01-05 03:58:11.46	185.63	49.31	-41.0	-41.9	21.2	0.00e+00	0	42	0	3141533696	52	3989
2026-01-05 03:58:12.75	185.78	48.88	-41.0	-41.8	21.3	0.00e+00	0	41	0	3150970880	52	3952
2026-01-05 03:58:13.47	185.87	48.65	-40.9	-41.7	21.3	0.00e+00	0	42	0	3156213760	52	3909
2026-01-05 03:58:14.76	186.02	48.24	-40.8	-41.6	21.5	0.00e+00	0	42	0	3165650944	52	3859
2026-01-05 03:58:15.48	186.10	48.01	-40.8	-41.6	21.4	0.00e+00	0	41	0	3170893824	52	3854
2026-01-05 03:58:16.77	186.24	47.60	-40.7	-41.6	21.5	0.00e+00	0	42	0	3179282432	52	3832
2026-01-05 03:58:17.48	186.32	47.37	-40.7	-41.6	21.6	0.00e+00	0	41	0	3185573888	51	4070
2026-01-05 03:58:18.77	186.46	46.97	-40.8	-41.6	21.6	0.00e+00	0	41	0	3193962496	51	4087
2026-01-05 03:58:19.49	186.53	46.74	-40.7	-41.6	21.6	0.00e+00	0	42	0	3199205376	51	4057
2026-01-05 03:58:20.78	186.67	46.35	-40.6	-41.4	21.7	0.00e+00	0	42	0	3208642560	51	4000
2026-01-05 03:58:21.59	186.75	46.10	-40.5	-41.4	21.7	0.00e+00	0	41	0	3214934016	51	3960
2026-01-05 03:58:23.05	186.89	45.65	-40.4	-41.3	21.8	0.00e+00	0	42	0	3225419776	51	3930
2026-01-05 03:58:23.77	186.96	45.44	-40.4	-41.3	21.7	0.00e+00	0	41	0	3230662656	51	3928
2026-01-05 03:58:25.27	187.11	44.99	-40.1	-40.9	22.2	0.00e+00	0	41	0	3241148416	51	3757
2026-01-05 03:58:25.98	187.17	44.78	-40.1	-40.9	22.1	0.00e+00	0	42	0	3246391296	50	4003
2026-01-05 03:58:27.34	187.30	44.38	-39.8	-40.6	22.4	0.00e+00	0	41	0	3255828480	50	3864
2026-01-05 03:58:28.05	187.36	44.17	-39.8	-40.6	22.4	0.00e+00	0	41	0	3261071360	50	3859
2026-01-05 03:58:29.34	187.47	43.80	-39.9	-40.7	22.3	0.00e+00	0	42	0	3270508544	50	3910
2026-01-05 03:58:30.05	187.54	43.59	-40.0	-40.8	22.2	0.00e+00	0	42	0	3275751424	50	3945
2026-01-05 03:58:31.34	187.65	43.22	-40.1	-41.0	22.1	0.00e+00	0	42	0	3285188608	50	4013
2026-01-05 03:58:32.05	187.71	43.02	-40.2	-41.0	22.0	0.00e+00	0	42	0	3290431488	50	4027
2026-01-05 03:58:33.34	187.81	42.66	-40.2	-41.0	22.1	0.00e+00	0	41	0	3299868672	50	4038
2026-01-05 03:58:34.06	187.87	42.46	-40.3	-41.1	21.9	0.00e+00	0	42	0	3305111552	50	4072
2026-01-05 03:58:35.35	187.97	42.10	-40.2	-41.1	21.6	0.00e+00	0	42	0	3314548736	50	4065
2026-01-05 03:58:36.06	188.03	41.90	-40.1	-41.0	22.1	0.00e+00	0	41	0	3318743040	50	4019
2026-01-05 03:58:37.36	188.13	41.55	-40.1	-40.9	22.2	0.00e+00	0	41	0	3328180224	50	3987
2026-01-05 03:58:38.07	188.18	41.35	-40.1	-40.9	22.1	0.00e+00	0	42	0	3333423104	50	3995
2026-01-05 03:58:39.36	188.28	41.00	-39.9	-40.8	22.3	0.00e+00	0	41	0	3342860288	50	3919
2026-01-05 03:58:40.08	188.33	40.81	-40.0	-40.9	21.8	0.00e+00	0	41	0	3348103168	50	3967
2026-01-05 03:58:41.44	188.43	40.45	-40.1	-40.9	22.1	0.00e+00	0	42	0	3358588928	50	3981
2026-01-05 03:58:42.16	188.48	40.26	-40.2	-41.1	22.0	0.00e+00	0	42	0	3362783232	50	4063
2026-01-05 03:58:43.45	188.57	39.92	-40.2	-41.0	22.1	0.00e+00	0	42	0	3372220416	50	4036
2026-01-05 03:58:44.17	188.62	39.74	-40.2	-41.0	22.0	0.00e+00	0	41	0	3377463296	50	4039
2026-01-05 03:58:45.46	188.71	39.40	-40.2	-41.1	22.0	0.00e+00	0	41	0	3386900480	50	4056
2026-01-05 03:58:46.17	188.76	39.22	-40.1	-40.9	22.1	0.00e+00	0	41	0	3392143360	50	3992
2026-01-05 03:58:47.68	188.86	38.84	-40.0	-40.8	22.3	0.00e+00	0	41	0	3403677696	50	3924
2026-01-05 03:58:48.40	188.90	38.65	-39.9	-40.8	22.1	0.00e+00	0	42	0	3407872000	50	3914
2026-01-05 03:58:49.75	188.99	38.32	-39.9	-40.7	22.3	0.00e+00	0	42	0	3418357760	50	3909
2026-01-05 03:58:50.47	189.03	38.14	-39.8	-40.6	22.3	0.00e+00	0	41	0	3422552064	50	3848
2026-01-05 03:58:51.76	189.11	37.82	-39.6	-40.4	22.5	0.00e+00	0	42	0	3431989248	50	3780
2026-01-05 03:58:52.48	189.16	37.64	-39.6	-40.4	22.5	0.00e+00	0	42	0	3437232128	50	3775
2026-01-05 03:58:53.76	189.24	37.33	-39.7	-40.5	22.5	0.00e+00	0	42	0	3446669312	50	3796
2026-01-05 03:58:54.48	189.28	37.16	-39.7	-40.5	22.4	0.00e+00	0	42	0	3451912192	50	3791
2026-01-05 03:58:55.77	189.35	36.85	-39.7	-40.5	22.2	0.00e+00	0	42	0	3461349376	50	3800
2026-01-05 03:58:56.53	189.40	36.67	-39.8	-40.6	22.1	0.00e+00	0	41	0	3466592256	50	3839
2026-01-05 03:58:57.83	189.47	36.36	-39.9	-40.7	22.3	0.00e+00	0	42	0	3476029440	50	3893
2026-01-05 03:58:58.59	189.51	36.18	-39.9	-40.8	22.3	0.00e+00	0	42	0	3482320896	50	3924
2026-01-05 03:59:00.20	189.60	35.81	-39.9	-40.8	22.2	0.00e+00	0	42	0	3493855232	50	3926
2026-01-05 03:59:01.02	189.65	35.62	-40.0	-40.9	22.2	0.00e+00	0	42	0	3499098112	50	3973
2026-01-05 03:59:02.17	189.71	35.36	-40.0	-40.8	22.2	0.00e+00	0	42	0	3507486720	50	3936
2026-01-05 03:59:03.03	189.75	35.16	-40.0	-40.8	22.2	0.00e+00	0	41	0	3513778176	50	3951
2026-01-05 03:59:04.18	189.82	34.90	-39.7	-40.5	22.4	0.00e+00	0	41	0	3522166784	50	3814
2026-01-05 03:59:05.04	189.86	34.71	-39.7	-40.6	22.4	0.00e+00	0	41	0	3528458240	50	3837
2026-01-05 03:59:06.18	189.92	34.46	-39.5	-40.4	22.5	0.00e+00	0	42	0	3536846848	49	3960
2026-01-05 03:59:07.04	189.96	34.27	-39.4	-40.2	22.6	0.00e+00	0	42	0	3543138304	49	3909
2026-01-05 03:59:08.19	190.02	34.01	-39.4	-40.2	22.6	0.00e+00	0	42	0	3551526912	49	3910
2026-01-05 03:59:09.05	190.06	33.83	-39.4	-40.2	22.6	0.00e+00	0	41	0	3557818368	49	3892
2026-01-05 03:59:10.20	190.12	33.58	-39.3	-40.1	22.8	0.00e+00	0	41	0	3565158400	49	3854
2026-01-05 03:59:11.06	190.16	33.39	-39.4	-40.2	22.7	0.00e+00	0	42	0	3571449856	49	3889
2026-01-05 03:59:12.20	190.21	33.15	-39.2	-40.0	22.8	0.00e+00	0	41	0	3579838464	49	3785
2026-01-05 03:59:13.07	190.25	32.97	-39.3	-40.1	22.8	0.00e+00	0	41	0	3586129920	49	3849
2026-01-05 03:59:14.21	190.30	32.73	-39.4	-40.3	22.6	0.00e+00	0	41	0	3594518528	49	3914
2026-01-05 03:59:15.07	190.34	32.55	-39.5	-40.3	22.7	0.00e+00	0	42	0	3600809984	49	3919
2026-01-05 03:59:16.22	190.39	32.31	-39.7	-40.5	22.5	0.00e+00	0	41	0	3609198592	49	4016
2026-01-05 03:59:17.08	190.43	32.13	-39.7	-40.5	22.4	0.00e+00	0	42	0	3615490048	49	4031
2026-01-05 03:59:18.23	190.48	31.89	-39.9	-40.7	22.2	0.00e+00	0	41	0	3623878656	49	4132
2026-01-05 03:59:19.09	190.52	31.72	-39.9	-40.7	22.2	0.00e+00	0	42	0	3630170112	49	4124
2026-01-05 03:59:20.31	190.57	31.47	-39.9	-40.7	22.3	0.00e+00	0	42	0	3638558720	49	4129
2026-01-05 03:59:21.17	190.61	31.30	-39.9	-40.8	22.2	0.00e+00	0	41	0	3644850176	49	4163
2026-01-05 03:59:22.32	190.66	31.07	-39.8	-40.7	22.3	0.00e+00	0	41	0	3653238784	49	4105
2026-01-05 03:59:23.18	190.69	30.90	-39.9	-40.7	22.2	0.00e+00	0	41	0	3659530240	49	4122
2026-01-05 03:59:24.32	190.74	30.68	-39.8	-40.7	22.3	0.00e+00	0	41	0	3667918848	49	4102
2026-01-05 03:59:25.19	190.78	30.51	-39.9	-40.8	22.2	0.00e+00	0	41	0	3674210304	49	4149
2026-01-05 03:59:26.55	190.83	30.25	-40.0	-40.8	22.1	0.00e+00	0	41	0	3683647488	49	4169
2026-01-05 03:59:27.27	190.86	30.11	-39.9	-40.7	22.1	0.00e+00	0	41	0	3688890368	49	4114
2026-01-05 03:59:28.56	190.91	29.86	-39.7	-40.6	22.4	0.00e+00	0	41	0	3698327552	49	4052
2026-01-05 03:59:29.28	190.94	29.72	-39.8	-40.6	22.3	0.00e+00	0	41	0	3703570432	49	4072
2026-01-05 03:59:30.56	190.99	29.48	-39.9	-40.7	22.3	0.00e+00	0	41	0	3713007616	49	4134
2026-01-05 03:59:31.28	191.01	29.35	-39.7	-40.6	22.4	0.00e+00	0	41	0	3718250496	49	4053
2026-01-05 03:59:32.57	191.06	29.11	-39.8	-40.7	22.3	0.00e+00	0	42	0	3726639104	49	4109
2026-01-05 03:59:33.29	191.09	28.97	-39.9	-40.7	22.3	0.00e+00	0	42	0	3731881984	49	4117
2026-01-05 03:59:34.58	191.14	28.74	-40.0	-40.8	22.2	0.00e+00	0	41	0	3741319168	49	4175
2026-01-05 03:59:35.29	191.16	28.61	-39.9	-40.8	22.2	0.00e+00	0	41	0	3746562048	49	4151
2026-01-05 03:59:36.58	191.21	28.37	-40.0	-40.8	21.8	0.00e+00	0	41	0	3755999232	49	4172
2026-01-05 03:59:37.30	191.23	28.24	-40.0	-40.9	22.1	0.00e+00	0	41	0	3761242112	49	4203
2026-01-05 03:59:38.59	191.28	28.01	-40.1	-41.0	22.0	0.00e+00	0	41	0	3770679296	49	4250
2026-01-05 03:59:39.31	191.30	27.89	-40.1	-40.9	22.0	0.00e+00	0	42	0	3775922176	49	4242
2026-01-05 03:59:40.67	191.35	27.65	-40.2	-41.1	22.0	0.00e+00	0	41	0	3785359360	49	4299
2026-01-05 03:59:41.39	191.38	27.52	-40.4	-41.3	21.8	0.00e+00	0	41	0	3790602240	50	4158
2026-01-05 03:59:42.74	191.42	27.28	-40.2	-41.1	21.8	0.00e+00	0	41	0	3801088000	50	4068
2026-01-05 03:59:43.46	191.45	27.16	-40.4	-41.2	21.8	0.00e+00	0	41	0	3805282304	50	4141
2026-01-05 03:59:44.75	191.49	26.94	-40.4	-41.2	21.9	0.00e+00	0	41	0	3814719488	50	4131
2026-01-05 03:59:45.47	191.51	26.81	-40.4	-41.3	21.8	0.00e+00	0	41	0	3819962368	50	4149
2026-01-05 03:59:46.75	191.55	26.60	-40.5	-41.4	21.7	0.00e+00	0	41	0	3829399552	50	4203
2026-01-05 03:59:47.47	191.58	26.48	-40.5	-41.4	21.6	0.00e+00	0	41	0	3834642432	50	4198
2026-01-05 03:59:48.76	191.62	26.26	-40.5	-41.4	21.7	0.00e+00	0	42	0	3844079616	50	4205
2026-01-05 03:59:49.47	191.64	26.14	-40.5	-41.4	21.7	0.00e+00	0	41	0	3849322496	50	4218
2026-01-05 03:59:50.76	191.68	25.93	-40.6	-41.4	21.7	0.00e+00	0	41	0	3858759680	50	4230
2026-01-05 03:59:51.48	191.70	25.81	-40.6	-41.5	21.7	0.00e+00	0	41	0	3862953984	50	4262
2026-01-05 03:59:52.77	191.74	25.60	-40.5	-41.4	21.7	0.00e+00	0	41	0	3872391168	50	4224
2026-01-05 03:59:53.61	191.77	25.46	-40.5	-41.4	21.7	0.00e+00	0	41	0	3878682624	50	4195
2026-01-05 03:59:55.10	191.81	25.22	-40.5	-41.4	21.8	0.00e+00	0	41	0	3890216960	50	4220
2026-01-05 03:59:55.81	191.84	25.11	-40.6	-41.4	21.6	0.00e+00	0	41	0	3894411264	50	4240
2026-01-05 03:59:57.27	191.88	24.87	-40.5	-41.4	21.6	0.00e+00	0	41	0	3904897024	50	4226
2026-01-05 03:59:58.28	191.91	24.71	-40.5	-41.4	21.7	0.00e+00	0	41	0	3912237056	50	4219
2026-01-05 03:59:59.28	191.94	24.56	-40.5	-41.4	21.6	0.00e+00	0	41	0	3919577088	50	4228
2026-01-05 04:00:00.29	191.97	24.40	-40.5	-41.3	21.8	0.00e+00	0	41	0	3926917120	50	4180
2026-01-05 04:00:01.29	191.99	24.24	-40.6	-41.4	21.7	0.00e+00	0	41	0	3934257152	50	4227
2026-01-05 04:00:02.29	192.02	24.09	-40.5	-41.3	21.8	0.00e+00	0	41	0	3941597184	50	4192
2026-01-05 04:00:03.29	192.05	23.93	-40.5	-41.4	21.8	0.00e+00	0	41	0	3948937216	50	4195
2026-01-05 04:00:04.30	192.08	23.78	-40.5	-41.4	21.7	0.00e+00	0	41	0	3956277248	50	4196
2026-01-05 04:00:05.30	192.11	23.63	-40.5	-41.3	21.8	0.00e+00	0	41	0	3963617280	50	4193
2026-01-05 04:00:06.30	192.13	23.48	-40.5	-41.3	21.8	0.00e+00	0	41	0	3970957312	50	4183
2026-01-05 04:00:07.37	192.16	23.32	-40.5	-41.4	21.8	0.00e+00	0	41	0	3978297344	50	4210
2026-01-05 04:00:08.24	192.19	23.19	-40.4	-41.3	21.8	0.00e+00	0	41	0	3984588800	50	4162
2026-01-05 04:00:09.39	192.22	23.02	-40.4	-41.3	21.8	0.00e+00	0	41	0	3992977408	50	4156
2026-01-05 04:00:10.31	192.24	22.88	-40.4	-41.3	21.8	0.00e+00	0	41	0	3999268864	50	4160
2026-01-05 04:00:11.49	192.27	22.71	-40.5	-41.3	21.8	0.00e+00	0	42	0	4007657472	50	4191
2026-01-05 04:00:12.35	192.29	22.58	-40.5	-41.3	21.8	0.00e+00	0	41	0	4013948928	50	4174
2026-01-05 04:00:13.50	192.32	22.42	-40.5	-41.3	21.7	0.00e+00	0	41	0	4022337536	50	4190
2026-01-05 04:00:14.36	192.34	22.29	-40.5	-41.3	21.7	0.00e+00	0	42	0	4028628992	50	4176
2026-01-05 04:00:15.51	192.37	22.13	-40.5	-41.3	21.8	0.00e+00	0	41	0	4037017600	50	4181
2026-01-05 04:00:16.36	192.39	22.01	-40.5	-41.4	21.7	0.00e+00	0	41	0	4043309056	50	4214
2026-01-05 04:00:17.51	192.42	21.84	-40.6	-41.4	21.7	0.00e+00	0	41	0	4051697664	50	4232
2026-01-05 04:00:18.37	192.44	21.72	-40.7	-41.5	21.5	0.00e+00	0	41	0	4057989120	50	4289
2026-01-05 04:00:19.52	192.47	21.56	-40.6	-41.5	21.6	0.00e+00	0	41	0	4066377728	50	4247
2026-01-05 04:00:20.38	192.49	21.44	-40.5	-41.3	21.6	0.00e+00	0	41	0	4071620608	50	4193
2026-01-05 04:00:21.52	192.52	21.28	-40.5	-41.4	21.7	0.00e+00	0	41	0	4080009216	50	4223
2026-01-05 04:00:22.38	192.54	21.16	-40.5	-41.4	21.7	0.00e+00	0	41	0	4086300672	50	4216
2026-01-05 04:00:23.53	192.57	21.01	-40.5	-41.4	21.7	0.00e+00	0	41	0	4094689280	50	4196
2026-01-05 04:00:24.39	192.59	20.89	-40.5	-41.3	21.8	0.00e+00	0	41	0	4100980736	50	4179
2026-01-05 04:00:25.54	192.62	20.73	-40.5	-41.4	21.7	0.00e+00	0	41	0	4109369344	50	4199
2026-01-05 04:00:26.39	192.63	20.62	-40.6	-41.5	21.6	0.00e+00	0	42	0	4115660800	50	4252
2026-01-05 04:00:27.54	192.66	20.46	-40.7	-41.6	21.6	0.00e+00	0	41	0	4124049408	50	4303
2026-01-05 04:00:28.40	192.68	20.35	-40.7	-41.5	21.6	0.00e+00	0	41	0	4130340864	50	4291
2026-01-05 04:00:29.54	192.71	20.20	-40.5	-41.4	21.7	0.00e+00	0	41	0	4138729472	50	4216
2026-01-05 04:00:30.41	192.73	20.08	-40.7	-41.6	21.6	0.00e+00	0	41	0	4145020928	50	4297
2026-01-05 04:00:31.55	192.75	19.93	-40.6	-41.5	21.6	0.00e+00	0	41	0	4152360960	50	4269
2026-01-05 04:00:32.41	192.77	19.82	-40.7	-41.5	21.6	0.00e+00	0	41	0	4158652416	50	4287
2026-01-05 04:00:33.56	192.80	19.67	-40.7	-41.6	21.5	0.00e+00	0	41	0	4167041024	50	4330
2026-01-05 04:00:34.42	192.81	19.56	-40.7	-41.6	21.5	0.00e+00	0	41	0	4173332480	50	4328
2026-01-05 04:00:35.56	192.84	19.41	-40.8	-41.7	21.5	0.00e+00	0	41	0	4181721088	51	4099
2026-01-05 04:00:36.42	192.86	19.30	-40.8	-41.7	21.5	0.00e+00	0	41	0	4188012544	51	4106
2026-01-05 04:00:37.57	192.88	19.16	-40.9	-41.7	21.4	0.00e+00	0	41	0	4196401152	51	4135
2026-01-05 04:00:38.42	192.90	19.05	-40.8	-41.7	21.4	0.00e+00	0	41	0	4202692608	51	4125
2026-01-05 04:00:39.62	192.93	18.90	-40.9	-41.8	21.3	0.00e+00	0	41	0	4211081216	51	4175
2026-01-05 04:00:40.48	192.94	18.79	-41.0	-41.9	21.2	0.00e+00	0	41	0	4217372672	51	4202
2026-01-05 04:00:41.62	192.97	18.65	-41.0	-41.9	21.2	0.00e+00	0	41	0	4225761280	51	4237
2026-01-05 04:00:42.48	192.98	18.54	-41.2	-42.0	21.1	0.00e+00	0	41	0	4232052736	51	4291
2026-01-05 04:00:43.63	193.01	18.40	-41.3	-42.2	21.0	0.00e+00	0	41	0	4239392768	51	4363
2026-01-05 04:00:44.48	193.03	18.30	-41.1	-42.0	21.1	0.00e+00	0	41	0	4246732800	52	4007
2026-01-05 04:00:45.63	193.05	18.15	-41.1	-42.0	21.1	0.00e+00	0	41	0	4254072832	52	4031
2026-01-05 04:00:46.62	193.07	18.03	-41.2	-42.1	21.0	0.00e+00	0	41	0	4261412864	52	4056
2026-01-05 04:00:47.79	193.09	17.89	-41.2	-42.2	20.9	0.00e+00	0	41	0	4269801472	52	4100
2026-01-05 04:00:48.69	193.11	17.78	-41.3	-42.2	20.9	0.00e+00	0	41	0	4277141504	52	4120
2026-01-05 04:00:49.72	193.13	17.66	-41.3	-42.3	20.9	0.00e+00	0	41	0	4283432960	52	4149
2026-01-05 04:00:50.72	193.15	17.54	-41.4	-42.3	20.8	0.00e+00	0	41	0	4290772992	52	4165
2026-01-05 04:00:51.72	193.17	17.42	-41.5	-42.4	20.8	0.00e+00	0	41	0	4298113024	52	4211
2026-01-05 04:00:52.72	193.19	17.31	-41.4	-42.3	20.8	0.00e+00	0	41	0	4305453056	52	4172
2026-01-05 04:00:53.72	193.21	17.19	-41.5	-42.4	20.7	0.00e+00	0	41	0	4312793088	52	4216
2026-01-05 04:00:54.73	193.23	17.07	-41.5	-42.5	20.7	0.00e+00	0	42	0	4320133120	52	4244
2026-01-05 04:00:55.73	193.24	16.95	-41.7	-42.6	20.5	0.00e+00	0	41	0	4327473152	52	4319
2026-01-05 04:00:56.73	193.26	16.84	-41.8	-42.7	20.4	0.00e+00	0	41	0	4334813184	53	4124
2026-01-05 04:00:57.73	193.28	16.72	-41.6	-42.6	20.6	0.00e+00	0	41	0	4342153216	53	4052
2026-01-05 04:00:58.73	193.30	16.61	-41.6	-42.6	20.5	0.00e+00	0	42	0	4349493248	53	4059
2026-01-05 04:00:59.73	193.32	16.49	-41.7	-42.7	20.5	0.00e+00	0	41	0	4356833280	53	4099
2026-01-05 04:01:00.73	193.34	16.38	-41.8	-42.7	20.4	0.00e+00	0	41	0	4363124736	53	4137
2026-01-05 04:01:01.74	193.36	16.27	-41.9	-42.8	20.4	0.00e+00	0	41	0	4370464768	53	4169
2026-01-05 04:01:02.74	193.37	16.15	-41.8	-42.7	20.5	0.00e+00	0	41	0	4377804800	53	4122
2026-01-05 04:01:03.96	193.40	16.02	-41.8	-42.8	20.4	0.00e+00	0	41	0	4387241984	53	4147
2026-01-05 04:01:04.82	193.41	15.92	-41.9	-42.8	20.4	0.00e+00	0	41	0	4392484864	53	4167
2026-01-05 04:01:05.97	193.43	15.79	-42.0	-43.0	20.2	0.00e+00	0	41	0	4400873472	53	4243
2026-01-05 04:01:06.82	193.45	15.70	-41.9	-42.8	20.3	0.00e+00	0	41	0	4407164928	53	4190
2026-01-05 04:01:07.97	193.47	15.57	-41.9	-42.8	20.3	0.00e+00	0	41	0	4415553536	53	4186
2026-01-05 04:01:08.83	193.48	15.48	-42.0	-43.0	20.2	0.00e+00	0	41	0	4421844992	53	4252
2026-01-05 04:01:09.98	193.50	15.35	-42.0	-42.9	20.2	0.00e+00	0	41	0	4430233600	53	4239
2026-01-05 04:01:10.84	193.52	15.26	-42.0	-43.0	20.1	0.00e+00	0	41	0	4436525056	53	4270
2026-01-05 04:01:11.98	193.53	15.14	-42.2	-43.2	20.0	0.00e+00	0	41	0	4444913664	53	4344
2026-01-05 04:01:12.84	193.55	15.04	-42.0	-43.0	20.2	0.00e+00	0	41	0	4451205120	53	4250
2026-01-05 04:01:14.02	193.57	14.92	-42.2	-43.2	20.0	0.00e+00	0	41	0	4459593728	53	4352
2026-01-05 04:01:14.88	193.58	14.83	-42.2	-43.1	20.1	0.00e+00	0	41	0	4465885184	53	4324
2026-01-05 04:01:16.03	193.60	14.70	-42.2	-43.2	20.0	0.00e+00	0	41	0	4473225216	53	4358
2026-01-05 04:01:16.89	193.62	14.61	-42.1	-43.1	20.0	0.00e+00	0	41	0	4480565248	53	4321
2026-01-05 04:01:18.16	193.64	14.48	-42.0	-43.0	20.2	0.00e+00	0	41	0	4488953856	53	4259
2026-01-05 04:01:18.87	193.65	14.41	-42.2	-43.2	20.0	0.00e+00	0	41	0	4494196736	53	4346
2026-01-05 04:01:20.17	193.67	14.27	-42.2	-43.2	19.9	0.00e+00	0	41	0	4503633920	53	4372
2026-01-05 04:01:20.88	193.68	14.20	-42.1	-43.1	20.1	0.00e+00	0	41	0	4508876800	53	4321
2026-01-05 04:01:22.17	193.70	14.06	-42.3	-43.2	19.9	0.00e+00	0	41	0	4518313984	53	4384
2026-01-05 04:01:22.97	193.72	13.98	-42.2	-43.2	20.0	0.00e+00	0	41	0	4523556864	53	4381
2026-01-05 04:01:24.11	193.73	13.86	-42.3	-43.3	19.9	0.00e+00	0	41	0	4531945472	54	4169
2026-01-05 04:01:24.97	193.75	13.78	-42.3	-43.3	19.9	0.00e+00	0	41	0	4538236928	54	4171
2026-01-05 04:01:26.12	193.76	13.66	-42.3	-43.3	20.0	0.00e+00	0	41	0	4546625536	54	4149
2026-01-05 04:01:26.98	193.78	13.57	-42.4	-43.4	19.8	0.00e+00	0	41	0	4552916992	54	4201
2026-01-05 04:01:28.12	193.80	13.46	-42.4	-43.4	19.8	0.00e+00	0	41	0	4561305600	54	4227
2026-01-05 04:01:28.98	193.81	13.37	-42.4	-43.4	19.8	0.00e+00	0	41	0	4567597056	54	4224
2026-01-05 04:01:30.13	193.83	13.26	-42.4	-43.5	19.8	0.00e+00	0	41	0	4575985664	54	4244
2026-01-05 04:01:30.99	193.84	13.17	-42.4	-43.4	19.8	0.00e+00	0	41	0	4582277120	54	4233
2026-01-05 04:01:32.13	193.86	13.06	-42.6	-43.6	19.7	0.00e+00	0	41	0	4590665728	54	4317
2026-01-05 04:01:33.02	193.87	12.97	-42.6	-43.6	19.6	0.00e+00	0	41	0	4595908608	54	4303
2026-01-05 04:01:34.17	193.89	12.86	-42.7	-43.7	19.5	0.00e+00	0	41	0	4604297216	54	4377
2026-01-05 04:01:35.12	193.90	12.76	-42.5	-43.6	19.6	0.00e+00	0	41	0	4611637248	54	4294
2026-01-05 04:01:36.30	193.92	12.65	-42.5	-43.5	19.7	0.00e+00	0	41	0	4620025856	54	4284
2026-01-05 04:01:37.16	193.93	12.56	-42.7	-43.7	19.6	0.00e+00	0	41	0	4626317312	54	4352
2026-01-05 04:01:38.51	193.95	12.43	-42.6	-43.6	19.6	0.00e+00	0	41	0	4635754496	54	4325
2026-01-05 04:01:39.23	193.96	12.36	-42.6	-43.6	19.6	0.00e+00	0	41	0	4640997376	54	4333
2026-01-05 04:01:40.52	193.98	12.24	-42.7	-43.7	19.5	0.00e+00	0	41	0	4650434560	54	4386
2026-01-05 04:01:41.24	193.99	12.17	-42.8	-43.8	19.4	0.00e+00	0	41	0	4655677440	55	4180
2026-01-05 04:01:42.53	194.01	12.05	-42.8	-43.8	19.4	0.00e+00	0	41	0	4665114624	55	4176
2026-01-05 04:01:43.24	194.02	11.98	-42.8	-43.9	19.3	0.00e+00	0	41	0	4670357504	55	4201
2026-01-05 04:01:44.86	194.04	11.83	-42.8	-43.8	19.3	0.00e+00	0	41	0	4681891840	55	4188
2026-01-05 04:01:45.44	194.05	11.78	-42.9	-43.9	19.3	0.00e+00	0	41	0	4686086144	55	4224
2026-01-05 04:01:47.02	194.07	11.63	-42.9	-44.0	19.2	0.00e+00	0	41	0	4697620480	55	4255
2026-01-05 04:01:47.65	194.08	11.57	-43.0	-44.0	19.2	0.00e+00	0	41	0	4701814784	55	4290
2026-01-05 04:01:49.08	194.10	11.44	-43.0	-44.1	19.2	0.00e+00	0	41	0	4712300544	55	4295
2026-01-05 04:01:49.80	194.11	11.37	-43.0	-44.1	19.2	0.00e+00	0	41	0	4717543424	55	4299
2026-01-05 04:01:51.10	194.13	11.25	-43.1	-44.2	19.1	0.00e+00	0	41	0	4726980608	55	4348
2026-01-05 04:01:51.82	194.14	11.18	-43.1	-44.2	19.0	0.00e+00	0	41	0	4732223488	55	4363
