passes_logs/2026/01/05/T1/T1__20260105_115357_FENGYUN_3D_rec.log

#Pass ID: 20260105_115357_FENGYUN 3D
#Satellite: FENGYUN 3D
#Configuration: FENGYUN 3D
#almurnet v.1.7.20251203
#Start time: 2026-01-05 11:53:56

#Version: 2.0.20230620
#Station: T1
#Location: 37.570604 lon 55.790049 lat
#TLE: 1 43010U 17072A   26004.50247883 -.00000063  00000+0 -78815-5 0  9998
#TLE: 2 43010  98.9915 336.1565 0001968 126.3752 233.7605 14.19691805421760

#Time	Az	El	Level	Level2	SNR	BER	BlckErr	Temp	State	Recorded	gain1	gain2
2026-01-05 11:53:56.74	158.43	4.96	-50.0	-62.3	3.8	8.48e-01	0	37	0	0	71	14904
2026-01-05 11:53:57.73	158.43	5.03	-49.9	-61.8	3.8	8.47e-01	0	37	104	0	71	14179
2026-01-05 11:53:58.73	158.42	5.10	-49.9	-61.7	3.8	8.47e-01	0	37	104	0	71	14002
2026-01-05 11:53:59.74	158.42	5.18	-49.9	-61.7	3.8	8.47e-01	0	37	104	0	71	13952
2026-01-05 11:54:00.74	158.42	5.25	-49.9	-61.6	3.8	8.48e-01	0	37	104	0	71	13805
2026-01-05 11:54:01.74	158.42	5.32	-49.8	-61.6	3.8	8.46e-01	0	38	104	0	71	13869
2026-01-05 11:54:02.75	158.42	5.39	-49.8	-61.6	3.8	8.47e-01	0	37	104	0	71	13839
2026-01-05 11:54:03.75	158.42	5.47	-49.9	-61.7	3.8	8.47e-01	0	38	104	0	71	13994
2026-01-05 11:54:04.75	158.42	5.54	-49.9	-61.8	3.8	8.47e-01	0	38	104	0	71	14051
2026-01-05 11:54:05.75	158.42	5.61	-49.9	-61.8	3.8	8.48e-01	0	38	104	0	71	14089
2026-01-05 11:54:06.75	158.42	5.69	-49.9	-61.8	3.8	8.47e-01	0	38	104	0	71	14071
2026-01-05 11:54:07.75	158.42	5.76	-49.8	-61.6	3.8	8.47e-01	0	38	104	0	71	13829
2026-01-05 11:54:08.75	158.41	5.84	-49.8	-61.4	3.8	8.47e-01	0	38	104	0	71	13480
2026-01-05 11:54:09.75	158.41	5.91	-49.8	-61.0	3.8	8.46e-01	0	38	104	0	71	12865
2026-01-05 11:54:10.76	158.41	5.99	-49.7	-60.8	3.8	8.47e-01	0	38	104	0	71	12542
2026-01-05 11:54:11.76	158.41	6.06	-49.7	-60.2	3.8	8.46e-01	0	38	104	0	71	11814
2026-01-05 11:54:12.76	158.41	6.13	-49.6	-60.1	3.8	8.45e-01	0	38	104	0	71	11595
2026-01-05 11:54:13.76	158.41	6.21	-49.6	-59.9	3.8	8.47e-01	0	38	104	0	71	11322
2026-01-05 11:54:14.76	158.41	6.29	-49.6	-59.7	4.0	8.45e-01	0	38	104	0	71	11139
2026-01-05 11:54:15.76	158.41	6.36	-49.6	-59.8	4.0	8.45e-01	0	38	104	0	71	11220
2026-01-05 11:54:16.77	158.41	6.44	-49.6	-59.9	3.9	8.47e-01	0	38	104	0	71	11411
2026-01-05 11:54:17.77	158.40	6.51	-49.7	-60.2	3.8	8.46e-01	0	38	104	0	71	11804
2026-01-05 11:54:18.77	158.40	6.59	-49.7	-60.5	3.8	8.46e-01	0	38	104	0	71	12224
2026-01-05 11:54:19.78	158.40	6.67	-49.8	-61.0	3.8	8.45e-01	0	38	104	0	71	12836
2026-01-05 11:54:20.78	158.40	6.74	-49.8	-61.4	3.8	8.46e-01	0	38	104	0	71	13460
2026-01-05 11:54:21.78	158.40	6.82	-49.9	-61.7	3.8	8.47e-01	0	38	104	0	71	13925
2026-01-05 11:54:22.78	158.40	6.90	-49.9	-61.7	3.8	8.47e-01	0	38	104	0	71	14039
2026-01-05 11:54:23.78	158.40	6.97	-49.9	-61.7	3.8	8.47e-01	0	38	104	0	71	14041
2026-01-05 11:54:24.78	158.40	7.05	-49.8	-61.5	3.8	8.48e-01	0	38	104	0	71	13574
2026-01-05 11:54:25.78	158.39	7.13	-49.8	-61.1	3.8	8.47e-01	0	38	104	0	71	12992
2026-01-05 11:54:26.79	158.39	7.21	-49.7	-60.4	3.8	8.47e-01	0	39	104	0	71	12054
2026-01-05 11:54:27.79	158.39	7.29	-49.6	-59.8	3.9	8.46e-01	0	38	104	0	71	11225
2026-01-05 11:54:28.79	158.39	7.37	-49.5	-58.9	4.1	8.43e-01	0	38	0	0	71	10153
2026-01-05 11:54:29.79	158.39	7.44	-49.3	-57.9	4.4	8.34e-01	0	39	0	0	70	9602
2026-01-05 11:54:30.79	158.39	7.52	-49.1	-56.9	4.8	8.01e-01	0	38	0	0	70	8518
2026-01-05 11:54:31.79	158.39	7.60	-48.9	-56.0	5.4	7.45e-01	0	39	0	0	69	8118
2026-01-05 11:54:32.79	158.38	7.68	-48.6	-55.2	5.9	4.21e-01	0	39	0	3145728	69	7407
2026-01-05 11:54:33.79	158.38	7.76	-48.3	-54.2	6.7	2.37e-01	0	39	0	8388608	68	7009
2026-01-05 11:54:34.79	158.38	7.84	-48.0	-53.3	7.5	1.67e-01	0	39	0	13631488	68	6342
2026-01-05 11:54:35.79	158.38	7.92	-47.6	-52.6	8.1	8.40e-02	0	39	0	19922944	67	6170
2026-01-05 11:54:36.79	158.38	8.00	-47.2	-51.8	8.9	4.86e-02	0	39	0	25165824	66	5971
2026-01-05 11:54:37.80	158.38	8.08	-47.0	-51.4	9.3	2.40e-02	0	39	0	30408704	66	5681
2026-01-05 11:54:38.79	158.37	8.17	-46.8	-51.1	9.6	1.73e-02	0	39	0	36700160	65	5809
2026-01-05 11:54:39.79	158.37	8.25	-46.7	-50.9	9.8	1.46e-02	0	39	0	41943040	65	5701
2026-01-05 11:54:40.80	158.37	8.33	-46.7	-50.9	9.8	1.25e-02	0	39	0	47185920	65	5668
2026-01-05 11:54:41.80	158.37	8.41	-46.8	-51.1	9.6	1.44e-02	0	39	0	53477376	65	5806
2026-01-05 11:54:42.80	158.37	8.49	-47.0	-51.4	9.3	2.10e-02	0	39	0	58720256	65	6054
2026-01-05 11:54:43.80	158.37	8.58	-47.2	-51.9	8.8	3.23e-02	0	39	0	65011712	65	6376
2026-01-05 11:54:44.80	158.36	8.66	-47.5	-52.5	8.2	5.29e-02	0	39	0	69206016	65	6805
2026-01-05 11:54:45.93	158.36	8.75	-48.0	-53.7	7.0	1.58e-01	0	39	0	76546048	66	7449
2026-01-05 11:54:46.90	158.36	8.83	-48.4	-54.6	6.2	2.71e-01	0	39	0	81788928	67	7805
2026-01-05 11:54:47.90	158.36	8.92	-48.9	-56.0	5.4	4.90e-01	0	39	0	87031808	68	8581
2026-01-05 11:54:48.90	158.36	9.00	-49.1	-57.2	4.7	7.88e-01	0	39	0	87031808	68	9836
2026-01-05 11:54:49.91	158.35	9.08	-49.0	-56.6	5.0	7.96e-01	0	39	0	87031808	69	8692
2026-01-05 11:54:50.91	158.35	9.17	-49.5	-59.0	4.1	8.38e-01	0	39	0	87031808	69	11477
2026-01-05 11:54:51.91	158.35	9.25	-47.5	-52.3	8.4	6.24e-01	0	39	0	89128960	67	5974
2026-01-05 11:54:52.91	158.35	9.34	-43.4	-45.9	15.0	2.20e-06	0	39	0	94371840	58	4794
2026-01-05 11:54:53.91	158.35	9.42	-49.6	-59.9	3.8	4.55e-01	0	39	104	98566144	69	12764
2026-01-05 11:54:54.91	158.34	9.51	-43.6	-46.1	14.8	2.72e-01	0	39	0	100663296	59	4648
2026-01-05 11:54:55.92	158.34	9.60	-42.9	-45.3	15.6	0.00e+00	0	39	0	105906176	57	4717
2026-01-05 11:54:56.92	158.34	9.68	-42.8	-45.2	15.8	0.00e+00	0	39	0	112197632	56	4971
2026-01-05 11:54:57.92	158.34	9.77	-42.8	-45.3	15.7	0.00e+00	0	39	0	117440512	56	4997
2026-01-05 11:54:58.94	158.34	9.86	-43.0	-45.4	15.5	0.00e+00	0	39	0	123731968	57	4790
2026-01-05 11:54:59.95	158.33	9.95	-42.5	-44.9	16.1	0.00e+00	0	39	0	128974848	56	4771
2026-01-05 11:55:00.95	158.33	10.03	-42.8	-45.3	15.7	0.00e+00	0	39	0	135266304	56	4999
2026-01-05 11:55:01.95	158.33	10.12	-42.4	-44.7	16.2	0.00e+00	0	39	0	140509184	56	4672
2026-01-05 11:55:02.95	158.33	10.21	-42.4	-44.7	16.2	0.00e+00	0	39	0	145752064	56	4696
2026-01-05 11:55:03.95	158.32	10.30	-42.2	-44.6	16.4	0.00e+00	0	39	0	152043520	56	4600
2026-01-05 11:55:04.96	158.32	10.39	-41.6	-43.9	16.8	0.00e+00	0	39	0	157286400	55	4510
2026-01-05 11:55:05.96	158.32	10.48	-41.8	-44.1	16.7	0.00e+00	0	39	0	162529280	55	4618
2026-01-05 11:55:06.96	158.32	10.56	-41.5	-43.7	12.5	0.00e+00	0	39	0	168820736	54	4686
2026-01-05 11:55:07.96	158.31	10.65	-41.4	-43.6	17.2	0.00e+00	0	39	0	174063616	54	4600
2026-01-05 11:55:08.97	158.31	10.75	-41.5	-43.7	17.0	0.00e+00	0	39	0	179306496	54	4674
2026-01-05 11:55:09.97	158.31	10.84	-41.0	-43.1	17.6	2.49e-03	0	39	0	185597952	54	4391
2026-01-05 11:55:10.97	158.31	10.93	-41.1	-43.2	17.5	0.00e+00	0	39	0	190840832	54	4438
2026-01-05 11:55:11.97	158.30	11.02	-40.7	-42.8	17.9	0.00e+00	0	39	0	197132288	53	4454
2026-01-05 11:55:12.97	158.30	11.11	-40.4	-42.5	18.2	9.90e-03	0	39	0	202375168	52	4562
2026-01-05 11:55:13.97	158.30	11.20	-40.2	-42.2	18.4	0.00e+00	0	39	0	207618048	52	4436
2026-01-05 11:55:14.97	158.30	11.29	-40.0	-42.0	18.6	0.00e+00	0	39	0	213909504	52	4310
2026-01-05 11:55:15.97	158.29	11.38	-40.1	-42.1	18.5	0.00e+00	0	39	0	219152384	52	4351
2026-01-05 11:55:16.98	158.29	11.48	-40.0	-42.0	18.6	0.00e+00	0	39	0	224395264	52	4324
2026-01-05 11:55:17.98	158.29	11.57	-40.1	-42.0	18.6	0.00e+00	0	39	0	230686720	51	4598
2026-01-05 11:55:18.98	158.29	11.66	-40.1	-42.0	18.7	0.00e+00	0	39	0	235929600	51	4595
2026-01-05 11:55:19.97	158.28	11.76	-40.1	-42.1	18.6	0.00e+00	0	39	0	241172480	51	4613
2026-01-05 11:55:20.98	158.28	11.85	-40.0	-42.0	18.7	0.00e+00	0	39	0	247463936	51	4567
2026-01-05 11:55:21.97	158.28	11.95	-40.1	-42.1	18.6	0.00e+00	0	39	0	252706816	51	4607
2026-01-05 11:55:22.99	158.27	12.04	-40.0	-42.0	18.7	0.00e+00	0	39	0	258998272	51	4559
2026-01-05 11:55:23.99	158.27	12.14	-40.0	-42.0	18.7	0.00e+00	0	39	0	264241152	51	4567
2026-01-05 11:55:24.99	158.27	12.23	-40.0	-41.9	18.8	0.00e+00	0	39	0	270532608	51	4533
2026-01-05 11:55:25.99	158.26	12.33	-39.9	-41.9	18.8	0.00e+00	0	39	0	275775488	51	4495
2026-01-05 11:55:26.99	158.26	12.43	-39.9	-41.9	18.8	0.00e+00	0	40	0	281018368	51	4505
2026-01-05 11:55:28.00	158.26	12.52	-39.8	-41.8	18.9	0.00e+00	0	39	0	287309824	51	4465
2026-01-05 11:55:29.00	158.25	12.62	-39.8	-41.8	19.0	0.00e+00	0	39	0	292552704	51	4448
2026-01-05 11:55:30.00	158.25	12.72	-39.7	-41.6	19.1	0.00e+00	0	40	0	297795584	51	4381
2026-01-05 11:55:31.00	158.25	12.82	-39.6	-41.6	19.1	0.00e+00	0	40	0	304087040	51	4363
2026-01-05 11:55:32.00	158.25	12.91	-39.6	-41.6	19.1	0.00e+00	0	39	0	309329920	51	4347
2026-01-05 11:55:33.01	158.24	13.01	-39.5	-41.5	19.2	0.00e+00	0	39	0	314572800	51	4305
2026-01-05 11:55:34.01	158.24	13.11	-39.5	-41.4	19.3	0.00e+00	0	39	0	320864256	51	4283
2026-01-05 11:55:35.01	158.23	13.21	-39.6	-41.6	19.1	0.00e+00	0	39	0	326107136	51	4343
2026-01-05 11:55:36.01	158.23	13.31	-39.4	-41.3	19.3	7.03e-03	0	39	0	332398592	50	4483
2026-01-05 11:55:37.01	158.23	13.41	-39.4	-41.3	19.4	0.00e+00	0	39	0	337641472	50	4459
2026-01-05 11:55:38.01	158.22	13.51	-39.3	-41.2	19.5	0.00e+00	0	39	0	342884352	50	4414
2026-01-05 11:55:39.02	158.22	13.61	-39.4	-41.3	19.4	0.00e+00	0	39	0	349175808	50	4489
2026-01-05 11:55:40.02	158.22	13.72	-39.3	-41.2	19.5	0.00e+00	0	39	0	354418688	50	4427
2026-01-05 11:55:41.02	158.21	13.82	-39.2	-41.1	19.6	0.00e+00	0	39	0	359661568	50	4381
2026-01-05 11:55:42.03	158.21	13.92	-39.2	-41.0	19.7	0.00e+00	0	40	0	365953024	50	4332
2026-01-05 11:55:43.03	158.21	14.02	-39.1	-41.0	19.7	0.00e+00	0	40	0	371195904	50	4326
2026-01-05 11:55:44.03	158.20	14.13	-39.1	-41.0	19.7	0.00e+00	0	40	0	376438784	50	4309
2026-01-05 11:55:45.03	158.20	14.23	-39.1	-40.9	19.7	0.00e+00	0	39	0	382730240	50	4283
2026-01-05 11:55:46.03	158.19	14.34	-39.0	-40.9	19.8	0.00e+00	0	40	0	387973120	50	4252
2026-01-05 11:55:47.03	158.19	14.44	-39.0	-40.8	19.8	0.00e+00	0	39	0	394264576	49	4486
2026-01-05 11:55:48.03	158.19	14.55	-38.8	-40.7	20.0	0.00e+00	0	39	0	399507456	49	4404
2026-01-05 11:55:49.04	158.18	14.65	-38.8	-40.7	19.9	0.00e+00	0	40	0	404750336	49	4425
2026-01-05 11:55:50.04	158.18	14.76	-38.7	-40.6	20.1	0.00e+00	0	40	0	411041792	49	4368
2026-01-05 11:55:51.04	158.17	14.87	-38.8	-40.6	20.0	0.00e+00	0	40	0	416284672	49	4387
2026-01-05 11:55:52.04	158.17	14.97	-38.7	-40.6	20.1	0.00e+00	0	39	0	422576128	49	4359
2026-01-05 11:55:53.05	158.17	15.08	-38.8	-40.7	20.0	0.00e+00	0	40	0	427819008	49	4393
2026-01-05 11:55:54.05	158.16	15.19	-38.8	-40.6	20.0	0.00e+00	0	39	0	433061888	49	4380
2026-01-05 11:55:55.05	158.16	15.30	-38.7	-40.6	20.1	0.00e+00	0	40	0	439353344	49	4362
2026-01-05 11:55:56.05	158.15	15.41	-38.8	-40.6	20.0	0.00e+00	0	39	0	444596224	49	4378
2026-01-05 11:55:57.45	158.15	15.56	-38.8	-40.7	20.0	0.00e+00	0	40	0	452984832	49	4400
2026-01-05 11:55:58.20	158.14	15.64	-38.7	-40.6	20.1	0.00e+00	0	40	0	457179136	49	4344
2026-01-05 11:55:59.49	158.14	15.78	-38.8	-40.7	20.0	0.00e+00	0	40	0	464519168	49	4392
2026-01-05 11:56:00.28	158.13	15.87	-38.8	-40.6	20.0	0.00e+00	0	39	0	468713472	49	4384
2026-01-05 11:56:01.44	158.13	16.00	-38.6	-40.5	20.2	0.00e+00	0	40	0	475004928	49	4319
2026-01-05 11:56:02.30	158.12	16.10	-38.7	-40.6	20.1	0.00e+00	0	40	0	480247808	49	4351
2026-01-05 11:56:03.44	158.12	16.23	-38.6	-40.5	20.2	0.00e+00	0	40	0	486539264	49	4325
2026-01-05 11:56:04.30	158.11	16.32	-38.7	-40.6	20.1	0.00e+00	0	40	0	490733568	49	4349
2026-01-05 11:56:05.45	158.11	16.45	-38.7	-40.6	20.1	0.00e+00	0	40	0	498073600	49	4369
2026-01-05 11:56:06.31	158.10	16.55	-38.8	-40.6	20.0	0.00e+00	0	40	0	502267904	49	4390
2026-01-05 11:56:07.46	158.10	16.68	-38.6	-40.5	20.2	0.00e+00	0	40	0	508559360	49	4302
2026-01-05 11:56:08.32	158.09	16.78	-38.5	-40.4	20.3	0.00e+00	0	40	0	513802240	49	4274
2026-01-05 11:56:09.54	158.09	16.92	-38.4	-40.3	20.4	0.00e+00	0	39	0	521142272	48	4459
2026-01-05 11:56:10.40	158.08	17.02	-38.4	-40.3	20.4	2.20e-04	0	40	0	525336576	48	4449
2026-01-05 11:56:11.55	158.08	17.16	-38.4	-40.3	20.4	0.00e+00	0	40	0	531628032	48	4454
2026-01-05 11:56:12.40	158.07	17.26	-38.4	-40.2	20.4	0.00e+00	0	40	0	536870912	48	4417
2026-01-05 11:56:13.69	158.07	17.41	-38.4	-40.2	20.4	0.00e+00	0	40	0	544210944	48	4431
2026-01-05 11:56:14.41	158.06	17.50	-38.2	-40.1	20.5	0.00e+00	0	40	0	548405248	48	4354
2026-01-05 11:56:15.70	158.05	17.65	-38.1	-39.9	20.7	0.00e+00	0	40	0	554696704	48	4283
2026-01-05 11:56:16.41	158.05	17.74	-37.8	-39.6	20.7	0.00e+00	0	40	0	558891008	47	4390
2026-01-05 11:56:17.70	158.04	17.89	-37.8	-39.7	20.7	0.00e+00	0	40	0	566231040	47	4396
2026-01-05 11:56:18.41	158.04	17.98	-37.7	-39.6	20.8	0.00e+00	0	40	0	570425344	47	4348
2026-01-05 11:56:19.70	158.03	18.13	-37.6	-39.4	20.9	0.00e+00	0	40	0	577765376	47	4283
2026-01-05 11:56:20.42	158.03	18.22	-37.6	-39.4	20.9	0.00e+00	0	40	0	581959680	47	4262
2026-01-05 11:56:21.70	158.02	18.38	-37.6	-39.4	20.9	0.00e+00	0	40	0	589299712	47	4264
2026-01-05 11:56:22.42	158.01	18.47	-37.6	-39.4	20.9	0.00e+00	0	40	0	592445440	47	4279
2026-01-05 11:56:23.70	158.01	18.63	-37.5	-39.4	20.9	0.00e+00	0	40	0	599785472	47	4243
2026-01-05 11:56:24.64	158.00	18.74	-37.5	-39.3	21.0	0.00e+00	0	39	0	605028352	47	4216
2026-01-05 11:56:25.99	157.99	18.91	-37.5	-39.3	21.0	0.00e+00	0	40	0	612368384	46	4469
2026-01-05 11:56:26.70	157.99	19.00	-37.5	-39.4	20.9	0.00e+00	0	40	0	617611264	46	4496
2026-01-05 11:56:27.99	157.98	19.17	-37.4	-39.2	21.0	0.00e+00	0	40	0	623902720	46	4434
2026-01-05 11:56:28.70	157.98	19.26	-37.4	-39.3	21.0	0.00e+00	0	40	0	628097024	46	4442
2026-01-05 11:56:29.98	157.97	19.42	-37.6	-39.4	20.9	0.00e+00	0	40	0	635437056	46	4522
2026-01-05 11:56:30.70	157.96	19.51	-37.6	-39.4	20.9	0.00e+00	0	40	0	639631360	46	4520
2026-01-05 11:56:31.99	157.95	19.68	-37.5	-39.3	20.9	0.00e+00	0	40	0	646971392	46	4481
2026-01-05 11:56:32.70	157.95	19.77	-37.6	-39.4	20.9	0.00e+00	0	40	0	651165696	46	4506
2026-01-05 11:56:34.02	157.94	19.95	-37.6	-39.5	20.8	0.00e+00	0	40	0	658505728	46	4557
2026-01-05 11:56:34.74	157.93	20.04	-37.6	-39.4	20.9	0.00e+00	0	40	0	661651456	46	4512
2026-01-05 11:56:36.03	157.93	20.21	-37.7	-39.5	20.8	0.00e+00	0	40	0	668991488	46	4562
2026-01-05 11:56:36.74	157.92	20.31	-37.7	-39.5	20.7	0.00e+00	0	40	0	673185792	46	4597
2026-01-05 11:56:38.17	157.91	20.50	-37.7	-39.5	20.8	0.00e+00	0	40	0	681574400	46	4585
2026-01-05 11:56:39.18	157.90	20.63	-37.8	-39.6	20.7	0.00e+00	0	40	0	686817280	46	4637
2026-01-05 11:56:40.50	157.89	20.81	-37.8	-39.7	20.6	0.00e+00	0	40	0	695205888	46	4660
2026-01-05 11:56:41.21	157.89	20.91	-37.7	-39.6	20.7	0.00e+00	0	40	0	698351616	46	4602
2026-01-05 11:56:42.85	157.87	21.13	-37.6	-39.5	20.8	0.00e+00	0	40	0	707788800	46	4561
2026-01-05 11:56:43.42	157.87	21.21	-37.7	-39.5	20.7	0.00e+00	0	40	0	710934528	46	4588
2026-01-05 11:56:45.07	157.86	21.44	-37.7	-39.5	20.8	0.00e+00	0	40	0	720371712	46	4585
2026-01-05 11:56:45.64	157.85	21.52	-37.7	-39.6	20.7	0.00e+00	0	40	0	723517440	46	4613
2026-01-05 11:56:47.28	157.84	21.75	-37.6	-39.5	20.8	0.00e+00	0	40	0	732954624	46	4570
2026-01-05 11:56:47.85	157.83	21.83	-37.6	-39.4	20.8	0.00e+00	0	40	0	736100352	46	4534
2026-01-05 11:56:49.45	157.82	22.06	-37.5	-39.4	20.9	0.00e+00	0	40	0	745537536	46	4502
2026-01-05 11:56:50.03	157.82	22.14	-37.5	-39.3	21.0	0.00e+00	0	40	0	748683264	46	4465
2026-01-05 11:56:51.65	157.80	22.37	-37.4	-39.3	21.0	0.00e+00	0	40	0	757071872	46	4444
2026-01-05 11:56:52.22	157.80	22.46	-37.4	-39.2	21.0	0.00e+00	0	40	0	760217600	46	4414
2026-01-05 11:56:53.88	157.78	22.70	-37.5	-39.3	21.0	0.00e+00	0	40	0	769654784	46	4477
2026-01-05 11:56:54.46	157.78	22.78	-37.4	-39.2	21.1	0.00e+00	0	40	0	772800512	46	4424
2026-01-05 11:56:56.09	157.76	23.02	-37.4	-39.2	21.1	0.00e+00	0	40	0	782237696	46	4415
2026-01-05 11:56:56.66	157.76	23.11	-37.4	-39.2	21.0	0.00e+00	0	40	0	785383424	46	4436
2026-01-05 11:56:58.28	157.74	23.35	-37.2	-39.1	21.2	0.00e+00	0	40	0	794820608	46	4346
2026-01-05 11:56:58.85	157.74	23.44	-37.2	-39.0	21.2	0.00e+00	0	40	0	797966336	46	4329
2026-01-05 11:57:00.46	157.72	23.68	-37.2	-39.0	21.2	0.00e+00	0	40	0	807403520	46	4304
2026-01-05 11:57:01.03	157.72	23.77	-37.2	-38.9	21.3	0.00e+00	0	40	0	810549248	46	4291
2026-01-05 11:57:02.66	157.70	24.02	-37.0	-38.8	21.4	0.00e+00	0	40	0	818937856	46	4218
2026-01-05 11:57:03.36	157.69	24.13	-37.0	-38.8	21.4	0.00e+00	0	40	0	823132160	46	4232
2026-01-05 11:57:04.68	157.68	24.33	-37.0	-38.8	21.5	0.00e+00	0	40	0	830472192	46	4198
2026-01-05 11:57:05.55	157.67	24.47	-37.1	-38.8	21.4	0.00e+00	0	40	0	835715072	46	4239
2026-01-05 11:57:06.70	157.66	24.65	-37.0	-38.8	21.4	0.00e+00	0	40	0	842006528	46	4226
2026-01-05 11:57:07.56	157.65	24.78	-37.0	-38.8	21.4	0.00e+00	0	40	0	847249408	46	4209
2026-01-05 11:57:08.70	157.64	24.97	-37.0	-38.7	21.5	0.00e+00	0	39	0	853540864	46	4187
2026-01-05 11:57:09.79	157.63	25.14	-37.1	-38.8	21.4	0.00e+00	0	39	0	859832320	45	4493
2026-01-05 11:57:10.84	157.61	25.31	-37.1	-38.9	21.3	0.00e+00	0	40	0	865075200	45	4533
2026-01-05 11:57:11.93	157.60	25.49	-37.0	-38.8	21.4	0.00e+00	0	40	0	871366656	45	4463
2026-01-05 11:57:12.79	157.59	25.63	-37.0	-38.8	21.4	0.00e+00	0	40	0	876609536	45	4472
2026-01-05 11:57:13.93	157.58	25.81	-37.0	-38.8	21.4	0.00e+00	0	40	0	882900992	45	4480
2026-01-05 11:57:14.78	157.57	25.95	-37.0	-38.8	21.5	0.00e+00	0	40	0	887095296	45	4442
2026-01-05 11:57:15.92	157.56	26.14	-36.8	-38.5	21.7	0.00e+00	0	40	0	893386752	45	4332
2026-01-05 11:57:16.78	157.55	26.29	-36.8	-38.5	21.7	0.00e+00	0	40	0	898629632	45	4328
2026-01-05 11:57:17.92	157.53	26.48	-36.7	-38.4	21.8	0.00e+00	0	40	0	904921088	45	4271
2026-01-05 11:57:18.78	157.52	26.63	-36.5	-38.3	21.9	0.00e+00	0	40	0	910163968	45	4204
2026-01-05 11:57:19.93	157.51	26.82	-36.5	-38.2	21.9	0.00e+00	0	40	0	916455424	45	4179
2026-01-05 11:57:20.79	157.50	26.97	-36.5	-38.2	21.9	0.00e+00	0	40	0	920649728	45	4184
2026-01-05 11:57:21.93	157.48	27.17	-36.6	-38.4	21.8	0.00e+00	0	40	0	927989760	45	4251
2026-01-05 11:57:22.78	157.47	27.32	-36.5	-38.3	21.8	0.00e+00	0	40	0	932184064	45	4202
2026-01-05 11:57:23.93	157.46	27.52	-36.7	-38.5	21.7	0.00e+00	0	40	0	938475520	45	4297
2026-01-05 11:57:24.78	157.45	27.67	-36.7	-38.4	21.7	0.00e+00	0	40	0	943718400	45	4274
2026-01-05 11:57:25.93	157.43	27.87	-36.7	-38.4	21.7	0.00e+00	0	40	0	950009856	45	4273
2026-01-05 11:57:26.79	157.42	28.02	-36.6	-38.4	21.7	0.00e+00	0	40	0	955252736	45	4250
2026-01-05 11:57:28.12	157.40	28.26	-36.7	-38.5	21.6	0.00e+00	0	40	0	962592768	45	4328
2026-01-05 11:57:28.84	157.39	28.39	-36.7	-38.5	21.6	0.00e+00	0	40	0	966787072	45	4327
2026-01-05 11:57:30.12	157.37	28.63	-36.7	-38.5	21.6	0.00e+00	0	40	0	974127104	45	4324
2026-01-05 11:57:30.83	157.36	28.76	-36.8	-38.6	21.6	0.00e+00	0	40	0	977272832	45	4351
2026-01-05 11:57:32.14	157.34	29.00	-36.8	-38.6	21.5	0.00e+00	0	40	0	985661440	45	4383
2026-01-05 11:57:32.90	157.33	29.14	-36.8	-38.6	21.5	0.00e+00	0	39	0	989855744	45	4371
2026-01-05 11:57:34.18	157.31	29.38	-36.8	-38.6	21.5	0.00e+00	0	40	0	996147200	45	4370
2026-01-05 11:57:34.96	157.30	29.52	-36.8	-38.6	21.5	0.00e+00	0	40	0	1001390080	45	4374
2026-01-05 11:57:36.24	157.28	29.77	-36.8	-38.6	21.6	0.00e+00	0	40	0	1008730112	45	4359
2026-01-05 11:57:36.96	157.27	29.90	-36.7	-38.5	21.7	0.00e+00	0	40	0	1011875840	45	4298
2026-01-05 11:57:38.24	157.25	30.15	-36.7	-38.5	21.6	0.00e+00	0	40	0	1019215872	45	4321
2026-01-05 11:57:38.96	157.24	30.29	-36.7	-38.5	21.6	0.00e+00	0	40	0	1023410176	45	4331
2026-01-05 11:57:40.24	157.22	30.54	-36.6	-38.4	21.7	0.00e+00	0	40	0	1030750208	45	4285
2026-01-05 11:57:40.96	157.21	30.68	-36.5	-38.3	21.8	0.00e+00	0	40	0	1034944512	45	4220
2026-01-05 11:57:42.25	157.18	30.93	-36.4	-38.2	21.9	0.00e+00	0	40	0	1042284544	44	4403
2026-01-05 11:57:42.97	157.17	31.08	-36.5	-38.3	21.9	0.00e+00	0	40	0	1046478848	44	4444
2026-01-05 11:57:44.25	157.15	31.33	-36.2	-38.0	22.0	0.00e+00	0	40	0	1053818880	44	4315
2026-01-05 11:57:44.96	157.14	31.48	-36.2	-38.0	22.1	0.00e+00	0	40	0	1056964608	44	4312
2026-01-05 11:57:46.25	157.12	31.74	-36.3	-38.1	22.0	0.00e+00	0	40	0	1064304640	44	4350
2026-01-05 11:57:46.96	157.10	31.88	-36.2	-38.0	22.1	0.00e+00	0	40	0	1068498944	44	4319
2026-01-05 11:57:48.25	157.08	32.15	-36.3	-38.1	22.0	0.00e+00	0	40	0	1075838976	44	4353
2026-01-05 11:57:49.02	157.06	32.31	-36.4	-38.2	22.0	0.00e+00	0	40	0	1080033280	44	4396
2026-01-05 11:57:50.30	157.04	32.57	-36.3	-38.1	22.0	0.00e+00	0	40	0	1087373312	44	4363
2026-01-05 11:57:51.02	157.03	32.73	-36.4	-38.2	21.9	0.00e+00	0	40	0	1091567616	44	4421
2026-01-05 11:57:52.31	157.00	33.00	-36.6	-38.4	21.7	0.00e+00	0	40	0	1098907648	44	4504
2026-01-05 11:57:53.02	156.99	33.15	-36.5	-38.3	21.8	0.00e+00	0	40	0	1102053376	44	4477
2026-01-05 11:57:54.31	156.96	33.43	-36.6	-38.3	21.8	0.00e+00	0	40	0	1109393408	44	4491
2026-01-05 11:57:55.02	156.95	33.58	-36.4	-38.2	21.9	0.00e+00	0	40	0	1113587712	44	4406
2026-01-05 11:57:56.31	156.92	33.86	-36.4	-38.1	22.0	0.00e+00	0	40	0	1120927744	44	4389
2026-01-05 11:57:57.03	156.91	34.02	-36.3	-38.0	22.1	0.00e+00	0	40	0	1125122048	44	4335
2026-01-05 11:57:58.31	156.88	34.30	-36.2	-38.0	22.1	0.00e+00	0	40	0	1132462080	44	4311
2026-01-05 11:57:59.02	156.86	34.46	-36.1	-37.9	22.2	0.00e+00	0	40	0	1136656384	44	4254
2026-01-05 11:58:00.31	156.83	34.75	-36.1	-37.8	22.2	0.00e+00	0	40	0	1143996416	44	4229
2026-01-05 11:58:01.03	156.82	34.91	-36.2	-37.9	22.2	0.00e+00	0	40	0	1147142144	44	4273
2026-01-05 11:58:02.32	156.79	35.20	-36.1	-37.8	22.2	0.00e+00	0	40	0	1154482176	44	4228
2026-01-05 11:58:03.03	156.77	35.36	-36.1	-37.8	22.2	0.00e+00	0	40	0	1158676480	44	4238
2026-01-05 11:58:04.32	156.74	35.66	-36.1	-37.8	22.2	0.00e+00	0	40	0	1166016512	44	4225
2026-01-05 11:58:05.03	156.73	35.83	-36.1	-37.8	22.2	0.00e+00	0	40	0	1170210816	44	4228
2026-01-05 11:58:06.32	156.70	36.13	-36.1	-37.8	22.2	0.00e+00	0	40	0	1177550848	44	4227
2026-01-05 11:58:07.03	156.68	36.30	-36.1	-37.8	22.2	0.00e+00	0	40	0	1181745152	44	4218
2026-01-05 11:58:08.32	156.65	36.60	-36.2	-37.9	22.1	0.00e+00	0	40	0	1189085184	44	4276
2026-01-05 11:58:09.16	156.62	36.80	-36.2	-37.9	22.2	0.00e+00	0	40	0	1193279488	44	4265
2026-01-05 11:58:10.31	156.59	37.08	-36.1	-37.9	22.2	0.00e+00	0	40	0	1199570944	44	4254
2026-01-05 11:58:11.16	156.57	37.28	-36.2	-37.9	22.2	0.00e+00	0	40	0	1204813824	44	4281
2026-01-05 11:58:12.30	156.54	37.56	-36.0	-37.7	22.3	0.00e+00	0	40	0	1211105280	44	4193
2026-01-05 11:58:13.16	156.52	37.77	-35.8	-37.5	22.3	0.00e+00	0	40	0	1216348160	43	4323
2026-01-05 11:58:14.31	156.49	38.06	-35.9	-37.6	22.3	0.00e+00	0	40	0	1222639616	43	4376
2026-01-05 11:58:15.16	156.46	38.27	-35.9	-37.6	22.3	0.00e+00	0	40	0	1226833920	43	4369
2026-01-05 11:58:16.30	156.43	38.56	-36.0	-37.7	22.2	0.00e+00	0	40	0	1233125376	43	4432
2026-01-05 11:58:17.16	156.41	38.78	-36.0	-37.8	22.2	0.00e+00	0	40	0	1238368256	43	4445
2026-01-05 11:58:18.30	156.37	39.07	-36.2	-37.9	22.0	0.00e+00	0	40	0	1244659712	43	4538
2026-01-05 11:58:19.15	156.35	39.29	-36.3	-38.1	21.9	0.00e+00	0	40	0	1249902592	43	4634
2026-01-05 11:58:20.43	156.31	39.62	-36.6	-38.3	21.7	0.00e+00	0	40	0	1256194048	43	4755
2026-01-05 11:58:21.15	156.29	39.81	-36.7	-38.4	21.6	0.00e+00	0	40	0	1260388352	43	4814
2026-01-05 11:58:22.44	156.24	40.14	-37.0	-38.8	21.5	0.00e+00	0	40	0	1267728384	44	4713
2026-01-05 11:58:23.16	156.22	40.34	-36.9	-38.7	21.5	0.00e+00	0	40	0	1271922688	44	4678
2026-01-05 11:58:24.45	156.18	40.68	-36.9	-38.7	21.5	0.00e+00	0	40	0	1279262720	44	4697
2026-01-05 11:58:25.17	156.16	40.87	-36.9	-38.7	21.5	0.00e+00	0	39	0	1283457024	44	4667
2026-01-05 11:58:26.79	156.10	41.31	-36.9	-38.7	21.5	0.00e+00	0	40	0	1292894208	44	4690
2026-01-05 11:58:27.36	156.08	41.47	-36.8	-38.6	21.6	0.00e+00	0	40	0	1296039936	44	4625
2026-01-05 11:58:29.18	156.02	41.97	-36.8	-38.6	21.6	0.00e+00	0	40	0	1305477120	44	4630
2026-01-05 11:58:29.76	155.99	42.13	-36.8	-38.6	21.7	0.00e+00	0	40	0	1309671424	44	4600
2026-01-05 11:58:31.41	155.93	42.60	-36.5	-38.3	21.9	0.00e+00	0	40	0	1318060032	44	4459
2026-01-05 11:58:31.98	155.91	42.76	-36.5	-38.2	22.0	0.00e+00	0	40	0	1321205760	44	4404
2026-01-05 11:58:33.57	155.85	43.21	-36.3	-38.0	22.2	0.00e+00	0	40	0	1330642944	44	4292
2026-01-05 11:58:34.14	155.83	43.38	-36.4	-38.1	22.1	0.00e+00	0	40	0	1333788672	44	4354
2026-01-05 11:58:35.81	155.76	43.86	-36.5	-38.2	22.0	0.00e+00	0	40	0	1343225856	44	4429
2026-01-05 11:58:36.41	155.73	44.04	-36.6	-38.3	22.0	0.00e+00	0	40	0	1346371584	44	4456
2026-01-05 11:58:37.99	155.67	44.50	-36.6	-38.3	22.0	0.00e+00	0	40	0	1355808768	44	4471
2026-01-05 11:58:38.60	155.64	44.68	-36.6	-38.3	22.0	0.00e+00	0	40	0	1358954496	44	4484
2026-01-05 11:58:40.51	155.56	45.26	-36.6	-38.4	22.0	0.00e+00	0	40	0	1369440256	44	4497
2026-01-05 11:58:41.08	155.53	45.43	-36.7	-38.4	21.9	0.00e+00	0	40	0	1372585984	44	4520
2026-01-05 11:58:42.73	155.45	45.93	-36.7	-38.5	21.8	0.00e+00	0	40	0	1382023168	44	4551
2026-01-05 11:58:43.30	155.43	46.11	-36.6	-38.4	21.9	0.00e+00	0	40	0	1385168896	44	4499
2026-01-05 11:58:44.89	155.35	46.60	-36.2	-37.9	22.3	0.00e+00	0	40	0	1394606080	44	4257
2026-01-05 11:58:45.47	155.32	46.79	-36.1	-37.8	22.4	0.00e+00	0	40	0	1397751808	44	4222
2026-01-05 11:58:47.07	155.24	47.29	-36.2	-37.9	22.3	0.00e+00	0	40	0	1406140416	44	4283
2026-01-05 11:58:47.87	155.20	47.55	-36.4	-38.1	22.1	0.00e+00	0	40	0	1411383296	44	4380
2026-01-05 11:58:49.01	155.14	47.91	-36.7	-38.5	21.9	0.00e+00	0	40	0	1417674752	44	4546
2026-01-05 11:58:49.87	155.09	48.19	-36.9	-38.7	21.7	0.00e+00	0	39	0	1421869056	44	4661
2026-01-05 11:58:51.02	155.03	48.56	-37.0	-38.7	21.7	0.00e+00	0	40	0	1429209088	44	4698
2026-01-05 11:58:51.88	154.98	48.85	-36.9	-38.6	21.8	0.00e+00	0	40	0	1433403392	44	4626
2026-01-05 11:58:53.08	154.91	49.24	-36.9	-38.7	21.7	0.00e+00	0	40	0	1440743424	44	4666
2026-01-05 11:58:53.94	154.85	49.53	-37.3	-39.0	21.4	0.00e+00	0	40	0	1444937728	45	4594
2026-01-05 11:58:55.12	154.78	49.93	-37.6	-39.4	21.1	0.00e+00	0	40	0	1452277760	45	4784
2026-01-05 11:58:55.98	154.73	50.22	-37.6	-39.4	21.1	0.00e+00	0	40	0	1456472064	45	4768
2026-01-05 11:58:57.12	154.66	50.60	-37.5	-39.2	21.3	0.00e+00	0	40	0	1462763520	45	4686
2026-01-05 11:58:57.98	154.60	50.90	-37.3	-39.0	21.4	0.00e+00	0	40	0	1468006400	45	4580
2026-01-05 11:58:59.13	154.52	51.30	-37.5	-39.2	21.3	0.00e+00	0	40	0	1474297856	45	4705
2026-01-05 11:59:00.02	154.46	51.61	-38.2	-39.6	21.1	0.00e+00	0	40	0	1479540736	46	4617
2026-01-05 11:59:01.17	154.38	52.01	-38.2	-40.1	20.5	0.00e+00	0	40	0	1485832192	47	4620
2026-01-05 11:59:02.12	154.31	52.34	-38.2	-40.1	20.5	0.00e+00	0	40	0	1491075072	47	4604
2026-01-05 11:59:03.30	154.22	52.76	-37.8	-39.6	20.8	0.00e+00	0	40	0	1498415104	47	4368
2026-01-05 11:59:04.16	154.16	53.07	-37.7	-39.5	21.0	0.00e+00	0	40	0	1502609408	47	4297
2026-01-05 11:59:05.30	154.07	53.48	-37.8	-39.5	20.9	0.00e+00	0	40	0	1508900864	47	4338
2026-01-05 11:59:06.16	154.00	53.80	-38.1	-39.9	20.6	0.00e+00	0	40	0	1514143744	47	4519
2026-01-05 11:59:07.31	153.90	54.22	-38.4	-40.2	20.3	0.00e+00	0	40	0	1520435200	47	4702
2026-01-05 11:59:08.16	153.83	54.53	-38.3	-40.1	20.4	0.00e+00	0	40	0	1525678080	47	4642
2026-01-05 11:59:09.31	153.73	54.96	-37.8	-39.6	20.9	0.00e+00	0	40	0	1531969536	47	4349
2026-01-05 11:59:10.38	153.63	55.36	-37.7	-39.5	21.0	0.00e+00	0	40	0	1537212416	47	4330
2026-01-05 11:59:11.24	153.55	55.68	-37.8	-39.6	20.9	0.00e+00	0	40	0	1542455296	47	4373
2026-01-05 11:59:12.38	153.45	56.11	-37.6	-39.4	21.1	0.00e+00	0	40	0	1548746752	47	4282
2026-01-05 11:59:13.24	153.36	56.44	-37.5	-39.3	21.1	0.00e+00	0	40	0	1553989632	47	4229
2026-01-05 11:59:14.39	153.25	56.88	-37.4	-39.2	21.3	0.00e+00	0	40	0	1560281088	46	4425
2026-01-05 11:59:15.25	153.16	57.22	-37.1	-38.9	21.6	0.00e+00	0	40	0	1565523968	46	4260
2026-01-05 11:59:16.39	153.04	57.66	-36.7	-38.4	21.9	0.00e+00	0	40	0	1571815424	45	4284
2026-01-05 11:59:17.26	152.94	58.00	-36.5	-38.2	22.1	0.00e+00	0	40	0	1576009728	45	4181
2026-01-05 11:59:18.53	152.80	58.50	-36.6	-38.4	22.0	0.00e+00	0	40	0	1583349760	45	4243
2026-01-05 11:59:19.24	152.71	58.78	-36.7	-38.4	21.9	0.00e+00	0	40	0	1587544064	45	4286
2026-01-05 11:59:20.53	152.56	59.30	-36.8	-38.5	21.8	0.00e+00	0	40	0	1594884096	45	4338
2026-01-05 11:59:21.25	152.47	59.59	-36.6	-38.4	21.9	0.00e+00	0	40	0	1599078400	45	4244
2026-01-05 11:59:22.84	152.26	60.23	-36.5	-38.3	22.0	0.00e+00	0	40	0	1607467008	45	4203
2026-01-05 11:59:23.41	152.19	60.46	-36.5	-38.2	22.0	0.00e+00	0	40	0	1610612736	45	4177
2026-01-05 11:59:24.99	151.97	61.11	-36.6	-38.3	22.0	0.00e+00	0	40	0	1620049920	44	4465
2026-01-05 11:59:25.58	151.88	61.36	-36.6	-38.3	22.0	0.00e+00	0	40	0	1623195648	44	4492
2026-01-05 11:59:27.16	151.65	62.01	-36.9	-38.7	21.6	0.00e+00	0	40	0	1632632832	44	4696
2026-01-05 11:59:27.81	151.55	62.28	-36.8	-38.6	21.7	0.00e+00	0	40	0	1635778560	44	4611
2026-01-05 11:59:29.24	151.32	62.89	-36.1	-37.8	22.4	0.00e+00	0	40	0	1644167168	44	4224
2026-01-05 11:59:30.02	151.19	63.22	-36.1	-37.8	22.4	0.00e+00	0	40	0	1648361472	44	4228
2026-01-05 11:59:31.31	150.96	63.76	-36.4	-38.1	22.1	0.00e+00	0	40	0	1655701504	44	4391
2026-01-05 11:59:32.02	150.84	64.07	-36.3	-38.1	22.1	0.00e+00	0	40	0	1659895808	44	4366
2026-01-05 11:59:33.32	150.59	64.63	-35.7	-37.4	22.5	0.00e+00	0	40	0	1667235840	43	4291
2026-01-05 11:59:34.03	150.46	64.93	-35.7	-37.4	22.5	0.00e+00	0	40	0	1670381568	43	4271
2026-01-05 11:59:35.32	150.20	65.49	-35.9	-37.6	22.3	0.00e+00	0	40	0	1677721600	43	4389
2026-01-05 11:59:36.03	150.05	65.80	-35.8	-37.6	22.4	0.00e+00	0	40	0	1681915904	43	4342
2026-01-05 11:59:37.32	149.76	66.37	-35.5	-37.2	22.7	0.00e+00	0	40	0	1689255936	43	4173
2026-01-05 11:59:38.04	149.60	66.69	-35.6	-37.3	22.6	0.00e+00	0	40	0	1693450240	43	4222
2026-01-05 11:59:39.33	149.29	67.26	-35.5	-37.2	22.7	0.00e+00	0	40	0	1700790272	42	4397
2026-01-05 11:59:40.04	149.11	67.57	-35.5	-37.2	22.7	0.00e+00	0	40	0	1704984576	42	4419
2026-01-05 11:59:41.33	148.78	68.15	-35.4	-37.1	22.8	0.00e+00	0	40	0	1711276032	42	4365
2026-01-05 11:59:42.05	148.58	68.47	-35.4	-37.1	22.7	0.00e+00	0	40	0	1715470336	42	4374
2026-01-05 11:59:43.33	148.22	69.05	-35.3	-37.1	22.8	0.00e+00	0	40	0	1722810368	42	4349
2026-01-05 11:59:44.05	148.00	69.37	-35.0	-36.7	23.0	0.00e+00	0	40	0	1727004672	42	4170
2026-01-05 11:59:45.33	147.60	69.95	-34.9	-36.6	23.1	0.00e+00	0	40	0	1734344704	41	4369
2026-01-05 11:59:46.05	147.37	70.28	-35.0	-36.7	23.1	0.00e+00	0	40	0	1738539008	41	4405
2026-01-05 11:59:47.34	146.92	70.87	-35.0	-36.7	23.0	0.00e+00	0	40	0	1745879040	41	4434
2026-01-05 11:59:48.16	146.62	71.25	-34.9	-36.6	23.2	0.00e+00	0	40	0	1750073344	41	4372
2026-01-05 11:59:49.63	146.05	71.92	-34.8	-36.5	23.3	0.00e+00	0	40	0	1758461952	41	4314
2026-01-05 11:59:50.35	145.76	72.25	-34.9	-36.5	23.2	0.00e+00	0	40	0	1762656256	41	4339
2026-01-05 11:59:51.64	145.20	72.85	-34.8	-36.5	23.2	0.00e+00	0	40	0	1769996288	41	4330
2026-01-05 11:59:52.35	144.87	73.18	-34.9	-36.6	23.1	0.00e+00	0	40	0	1774190592	41	4350
2026-01-05 11:59:53.64	144.24	73.77	-34.7	-36.4	23.2	0.00e+00	0	40	0	1780482048	41	4284
2026-01-05 11:59:54.36	143.87	74.11	-34.8	-36.5	23.1	0.00e+00	0	40	0	1784676352	41	4332
2026-01-05 11:59:55.64	143.17	74.70	-34.8	-36.5	23.1	0.00e+00	0	40	0	1792016384	41	4333
2026-01-05 11:59:56.36	142.74	75.04	-35.0	-36.7	23.0	0.00e+00	0	40	0	1796210688	41	4399
2026-01-05 11:59:57.65	141.94	75.63	-35.1	-36.7	22.9	0.00e+00	0	40	0	1803550720	41	4440
2026-01-05 11:59:58.57	141.32	76.06	-34.9	-36.6	23.0	0.00e+00	0	40	0	1808793600	41	4385
2026-01-05 11:59:59.57	140.60	76.52	-34.7	-36.4	23.1	0.00e+00	0	40	0	1814036480	41	4289
2026-01-05 12:00:00.58	139.81	76.99	-34.2	-35.8	23.6	0.00e+00	0	40	0	1820327936	40	4229
2026-01-05 12:00:01.58	138.98	77.45	-34.0	-35.6	23.8	0.00e+00	0	40	0	1825570816	40	4139
2026-01-05 12:00:02.58	138.08	77.91	-34.3	-36.0	23.6	0.00e+00	0	40	0	1830813696	39	4563
2026-01-05 12:00:03.59	137.10	78.38	-34.1	-35.8	23.6	0.00e+00	0	40	0	1837105152	39	4478
2026-01-05 12:00:04.58	136.06	78.83	-33.6	-35.2	24.1	0.00e+00	0	40	0	1842348032	39	4172
2026-01-05 12:00:05.58	134.91	79.28	-33.6	-35.2	24.0	0.00e+00	0	40	0	1848639488	39	4184
2026-01-05 12:00:06.59	133.65	79.74	-33.8	-35.4	23.9	0.00e+00	0	40	0	1853882368	39	4281
2026-01-05 12:00:07.59	132.29	80.18	-33.4	-35.0	24.2	0.00e+00	0	40	0	1860173824	38	4318
2026-01-05 12:00:08.59	130.79	80.62	-33.1	-34.8	24.3	0.00e+00	0	40	0	1865416704	38	4208
2026-01-05 12:00:09.76	128.85	81.13	-33.1	-34.8	24.3	0.00e+00	0	40	0	1871708160	38	4204
2026-01-05 12:00:10.62	127.27	81.50	-33.2	-34.8	24.3	0.00e+00	0	40	0	1876951040	38	4227
2026-01-05 12:00:11.76	124.96	81.97	-33.4	-35.1	24.2	0.00e+00	0	40	0	1883242496	38	4370
2026-01-05 12:00:12.62	123.03	82.32	-33.2	-34.9	24.3	0.00e+00	0	40	0	1887436800	38	4252
2026-01-05 12:00:14.07	119.34	82.89	-33.5	-35.1	24.2	0.00e+00	0	40	0	1895825408	38	4371
2026-01-05 12:00:14.78	117.31	83.16	-33.3	-35.0	24.3	0.00e+00	0	40	0	1900019712	38	4305
2026-01-05 12:00:16.07	113.19	83.62	-33.5	-35.1	24.2	0.00e+00	0	40	0	1907359744	38	4362
2026-01-05 12:00:16.78	110.67	83.86	-33.7	-35.4	23.9	0.00e+00	0	40	0	1911554048	38	4520
2026-01-05 12:00:18.07	105.57	84.26	-33.8	-35.4	23.9	0.00e+00	0	40	0	1918894080	38	4523
2026-01-05 12:00:18.79	102.41	84.46	-34.0	-35.6	23.8	0.00e+00	0	40	0	1923088384	38	4642
2026-01-05 12:00:20.08	96.19	84.77	-34.2	-35.8	23.6	0.00e+00	0	40	0	1929379840	39	4489
2026-01-05 12:00:20.79	92.45	84.92	-34.1	-35.8	23.6	0.00e+00	0	40	0	1933574144	39	4467
2026-01-05 12:00:22.08	85.17	85.12	-34.3	-36.0	23.4	0.00e+00	0	40	0	1940914176	39	4597
2026-01-05 12:00:22.80	80.87	85.20	-34.2	-35.9	23.5	0.00e+00	0	40	0	1945108480	39	4500
2026-01-05 12:00:24.14	72.59	85.27	-34.2	-35.9	23.6	0.00e+00	0	40	0	1952448512	39	4507
2026-01-05 12:00:24.85	68.16	85.27	-34.3	-35.9	23.5	0.00e+00	0	40	0	1956642816	39	4538
2026-01-05 12:00:26.14	60.22	85.19	-34.4	-36.1	23.4	0.00e+00	0	40	0	1963982848	39	4604
2026-01-05 12:00:26.86	55.95	85.11	-34.6	-36.3	23.2	0.00e+00	0	40	0	1968177152	39	4729
2026-01-05 12:00:28.28	48.03	84.87	-34.2	-35.9	23.5	0.00e+00	0	40	0	1975517184	40	4283
2026-01-05 12:00:28.99	44.37	84.72	-34.4	-36.1	23.4	0.00e+00	0	40	0	1979711488	40	4360
2026-01-05 12:00:30.29	38.24	84.39	-34.1	-35.8	23.6	0.00e+00	0	40	0	1987051520	40	4211
2026-01-05 12:00:31.00	35.21	84.18	-34.1	-35.8	23.5	0.00e+00	0	40	0	1991245824	40	4228
2026-01-05 12:00:32.29	30.25	83.77	-33.9	-35.5	23.8	0.00e+00	0	40	0	1998585856	39	4326
2026-01-05 12:00:33.01	27.76	83.53	-33.5	-35.2	24.1	0.00e+00	0	40	0	2002780160	39	4148
2026-01-05 12:00:34.29	23.80	83.06	-33.5	-35.2	24.1	0.00e+00	0	40	0	2010120192	38	4393
2026-01-05 12:00:35.07	21.64	82.77	-33.4	-35.1	24.2	0.00e+00	0	40	0	2014314496	38	4360
2026-01-05 12:00:36.67	17.74	82.13	-33.5	-35.2	24.1	0.00e+00	0	40	0	2022703104	38	4409
2026-01-05 12:00:37.24	16.50	81.90	-33.6	-35.3	24.0	0.00e+00	0	40	0	2026897408	38	4460
2026-01-05 12:00:39.15	12.84	81.09	-33.3	-34.9	24.3	0.00e+00	0	40	0	2037383168	38	4262
2026-01-05 12:00:40.12	11.23	80.67	-33.7	-35.4	24.0	0.00e+00	0	40	0	2042626048	38	4501
2026-01-05 12:00:41.12	9.72	80.23	-33.8	-35.4	23.9	0.00e+00	0	40	0	2047868928	38	4545
2026-01-05 12:00:42.13	8.33	79.78	-33.7	-35.4	24.0	0.00e+00	0	40	0	2054160384	38	4502
2026-01-05 12:00:43.18	7.01	79.31	-33.7	-35.3	24.0	0.00e+00	0	40	0	2059403264	38	4479
2026-01-05 12:00:44.09	5.96	78.90	-33.7	-35.3	24.0	0.00e+00	0	40	0	2064646144	38	4492
2026-01-05 12:00:45.24	4.74	78.38	-33.6	-35.2	24.1	0.00e+00	0	40	0	2070937600	38	4404
2026-01-05 12:00:46.13	3.87	77.97	-33.6	-35.2	24.1	0.00e+00	0	40	0	2076180480	38	4419
2026-01-05 12:00:47.28	2.83	77.44	-33.9	-35.6	23.9	0.00e+00	0	40	0	2082471936	38	4610
2026-01-05 12:00:48.14	2.12	77.04	-34.1	-35.7	23.8	0.00e+00	0	40	0	2087714816	38	4704
2026-01-05 12:00:49.28	1.23	76.52	-34.1	-35.8	23.8	0.00e+00	0	40	0	2094006272	38	4707
2026-01-05 12:00:50.14	0.61	76.12	-34.3	-35.9	23.7	0.00e+00	0	40	0	2099249152	39	4544
2026-01-05 12:00:51.60	359.64	75.44	-34.6	-36.2	23.5	0.00e+00	0	40	0	2107637760	39	4695
2026-01-05 12:00:52.31	359.20	75.11	-34.7	-36.4	23.4	0.00e+00	0	40	0	2110783488	39	4766
2026-01-05 12:00:53.60	358.45	74.51	-34.5	-36.2	23.4	0.00e+00	0	40	0	2118123520	40	4398
2026-01-05 12:00:54.32	358.06	74.18	-34.7	-36.3	23.3	0.00e+00	0	40	0	2122317824	40	4477
2026-01-05 12:00:55.61	357.40	73.58	-35.0	-36.7	23.1	0.00e+00	0	40	0	2129657856	40	4661
2026-01-05 12:00:56.32	357.05	73.26	-35.2	-36.9	22.9	0.00e+00	0	40	0	2133852160	41	4536
2026-01-05 12:00:57.62	356.46	72.66	-34.7	-36.4	23.2	0.00e+00	0	40	0	2141192192	41	4281
2026-01-05 12:00:58.46	356.10	72.27	-34.7	-36.4	23.3	0.00e+00	0	40	0	2145386496	41	4245
2026-01-05 12:00:59.60	355.64	71.75	-35.1	-36.8	22.9	0.00e+00	0	40	0	2151677952	41	4483
2026-01-05 12:01:00.46	355.31	71.35	-35.1	-36.8	23.0	0.00e+00	0	40	0	2156920832	41	4448
2026-01-05 12:01:01.61	354.89	70.83	-34.9	-36.5	23.2	0.00e+00	0	40	0	2163212288	41	4333
2026-01-05 12:01:02.47	354.59	70.43	-35.0	-36.7	23.1	0.00e+00	0	40	0	2168455168	41	4397
2026-01-05 12:01:03.62	354.21	69.91	-35.4	-37.1	22.8	0.00e+00	0	40	0	2174746624	41	4619
2026-01-05 12:01:04.48	353.94	69.52	-35.5	-37.3	22.6	0.00e+00	0	40	0	2178940928	41	4719
2026-01-05 12:01:05.63	353.60	69.00	-35.5	-37.2	22.7	0.00e+00	0	40	0	2186280960	41	4658
2026-01-05 12:01:06.49	353.35	68.62	-35.5	-37.2	22.7	0.00e+00	0	40	0	2190475264	41	4679
2026-01-05 12:01:07.70	353.02	68.08	-35.7	-37.4	22.5	0.00e+00	0	40	0	2197815296	41	4795
2026-01-05 12:01:08.56	352.80	67.69	-35.9	-37.6	22.4	0.00e+00	0	40	0	2202009600	42	4633
2026-01-05 12:01:09.71	352.51	67.18	-35.5	-37.2	22.5	0.00e+00	0	40	0	2209349632	42	4409
2026-01-05 12:01:10.57	352.31	66.80	-35.4	-37.1	22.8	0.00e+00	0	40	0	2213543936	42	4368
2026-01-05 12:01:11.71	352.05	66.30	-35.5	-37.2	22.7	0.00e+00	0	40	0	2219835392	42	4402
2026-01-05 12:01:12.57	351.86	65.93	-35.3	-37.0	22.8	0.00e+00	0	40	0	2225078272	42	4332
2026-01-05 12:01:13.72	351.62	65.43	-35.4	-37.1	22.7	0.00e+00	0	40	0	2231369728	42	4376
2026-01-05 12:01:14.58	351.44	65.05	-35.5	-37.2	22.7	0.00e+00	0	40	0	2236612608	42	4404
2026-01-05 12:01:15.72	351.22	64.56	-35.5	-37.2	22.8	0.00e+00	0	40	0	2242904064	42	4422
2026-01-05 12:01:16.85	351.01	64.08	-35.5	-37.1	22.9	0.00e+00	0	40	0	2249195520	42	4390
2026-01-05 12:01:17.71	350.86	63.71	-35.4	-37.0	23.0	0.00e+00	0	40	0	2254438400	42	4336
2026-01-05 12:01:18.86	350.66	63.22	-35.2	-36.9	23.1	0.00e+00	0	40	0	2260729856	42	4265
2026-01-05 12:01:19.72	350.52	62.86	-35.2	-36.9	23.1	0.00e+00	0	40	0	2264924160	42	4253
2026-01-05 12:01:20.86	350.33	62.38	-35.4	-37.1	22.9	0.00e+00	0	40	0	2271215616	42	4356
2026-01-05 12:01:21.72	350.20	62.02	-35.6	-37.3	22.8	0.00e+00	0	40	0	2276458496	42	4453
2026-01-05 12:01:22.87	350.03	61.55	-35.8	-37.5	22.6	0.00e+00	0	40	0	2282749952	42	4550
2026-01-05 12:01:23.73	349.90	61.19	-35.8	-37.5	22.5	0.00e+00	0	40	0	2287992832	42	4592
2026-01-05 12:01:24.92	349.74	60.70	-36.0	-37.8	22.3	0.00e+00	0	40	0	2294284288	42	4719
2026-01-05 12:01:25.78	349.62	60.35	-36.0	-37.7	22.3	0.00e+00	0	40	0	2299527168	42	4688
2026-01-05 12:01:26.99	349.46	59.86	-36.3	-38.0	22.1	0.00e+00	0	40	0	2305818624	43	4574
2026-01-05 12:01:27.85	349.36	59.52	-36.6	-38.4	21.9	0.00e+00	0	40	0	2311061504	43	4773
2026-01-05 12:01:28.99	349.22	59.06	-36.9	-38.7	21.7	0.00e+00	0	40	0	2317352960	44	4681
2026-01-05 12:01:29.85	349.12	58.72	-36.7	-38.4	21.9	0.00e+00	0	40	0	2322595840	44	4539
2026-01-05 12:01:31.00	348.98	58.27	-36.6	-38.4	22.0	0.00e+00	0	40	0	2328887296	44	4504
2026-01-05 12:01:31.86	348.89	57.93	-36.9	-38.7	21.7	0.00e+00	0	40	0	2333081600	44	4660
2026-01-05 12:01:33.01	348.76	57.48	-37.5	-39.3	21.2	0.00e+00	0	39	0	2340421632	45	4732
2026-01-05 12:01:33.86	348.67	57.15	-37.4	-39.2	21.2	0.00e+00	0	40	0	2344615936	45	4703
2026-01-05 12:01:35.01	348.56	56.71	-37.3	-39.1	21.4	0.00e+00	0	40	0	2350907392	45	4617
2026-01-05 12:01:35.87	348.47	56.38	-37.5	-39.3	21.2	0.00e+00	0	40	0	2356150272	45	4717
2026-01-05 12:01:37.02	348.36	55.95	-37.8	-39.7	20.9	0.00e+00	0	40	0	2362441728	46	4675
2026-01-05 12:01:37.87	348.28	55.63	-38.0	-39.9	20.7	0.00e+00	0	40	0	2367684608	46	4810
2026-01-05 12:01:39.02	348.18	55.20	-38.0	-39.9	20.7	0.00e+00	0	40	0	2373976064	46	4764
2026-01-05 12:01:39.88	348.10	54.88	-37.8	-39.6	21.0	0.00e+00	0	40	0	2378170368	46	4643
2026-01-05 12:01:41.03	348.00	54.45	-37.6	-39.4	21.2	0.00e+00	0	39	0	2385510400	46	4514
2026-01-05 12:01:41.89	347.93	54.14	-37.6	-39.4	21.1	0.00e+00	0	40	0	2389704704	46	4526
2026-01-05 12:01:43.03	347.84	53.72	-37.6	-39.4	21.1	0.00e+00	0	40	0	2395996160	46	4508
2026-01-05 12:01:43.89	347.77	53.41	-37.6	-39.4	21.1	0.00e+00	0	39	0	2401239040	46	4534
2026-01-05 12:01:45.04	347.68	53.00	-37.6	-39.4	21.5	0.00e+00	0	40	0	2407530496	46	4515
2026-01-05 12:01:45.90	347.61	52.69	-37.5	-39.2	21.6	0.00e+00	0	40	0	2412773376	46	4414
2026-01-05 12:01:47.05	347.53	52.28	-37.2	-38.9	21.9	0.00e+00	0	40	0	2419064832	46	4275
2026-01-05 12:01:47.91	347.47	51.98	-37.1	-38.8	21.9	0.00e+00	0	40	0	2424307712	46	4229
2026-01-05 12:01:49.06	347.39	51.58	-36.9	-38.5	22.2	0.00e+00	0	40	0	2430599168	45	4337
2026-01-05 12:01:49.92	347.33	51.28	-37.0	-38.7	22.1	0.00e+00	0	40	0	2434793472	45	4409
2026-01-05 12:01:51.06	347.25	50.89	-37.2	-38.9	21.9	0.00e+00	0	40	0	2441084928	45	4519
2026-01-05 12:01:51.92	347.20	50.60	-37.0	-38.7	22.1	0.00e+00	0	40	0	2446327808	45	4416
2026-01-05 12:01:53.07	347.12	50.21	-36.9	-38.6	22.1	0.00e+00	0	40	0	2452619264	45	4373
2026-01-05 12:01:53.93	347.07	49.92	-36.9	-38.6	22.2	0.00e+00	0	40	0	2457862144	45	4358
2026-01-05 12:01:55.08	347.00	49.53	-36.7	-38.3	22.4	0.00e+00	0	40	0	2464153600	45	4241
2026-01-05 12:01:55.93	346.95	49.25	-36.8	-38.5	22.3	0.00e+00	0	40	0	2468347904	45	4314
2026-01-05 12:01:57.08	346.88	48.87	-36.7	-38.5	22.2	0.00e+00	0	40	0	2475687936	45	4297
2026-01-05 12:01:57.94	346.83	48.59	-36.6	-38.3	22.4	0.00e+00	0	40	0	2479882240	45	4213
2026-01-05 12:01:59.09	346.77	48.22	-36.6	-38.3	22.4	0.00e+00	0	40	0	2486173696	45	4197
2026-01-05 12:01:59.95	346.72	47.94	-36.3	-37.9	22.7	0.00e+00	0	40	0	2491416576	44	4271
2026-01-05 12:02:01.09	346.66	47.58	-36.2	-37.8	22.8	0.00e+00	0	39	0	2497708032	44	4196
2026-01-05 12:02:01.95	346.62	47.31	-36.1	-37.8	22.8	0.00e+00	0	40	0	2502950912	44	4195
2026-01-05 12:02:03.10	346.56	46.94	-36.3	-38.0	22.7	0.00e+00	0	40	0	2509242368	44	4312
2026-01-05 12:02:03.96	346.52	46.68	-36.4	-38.1	22.6	0.00e+00	0	40	0	2514485248	44	4349
2026-01-05 12:02:05.10	346.46	46.32	-36.5	-38.2	22.5	0.00e+00	0	40	0	2520776704	44	4433
2026-01-05 12:02:05.96	346.42	46.06	-36.5	-38.2	22.5	0.00e+00	0	40	0	2524971008	44	4439
2026-01-05 12:02:07.11	346.37	45.71	-36.5	-38.2	22.5	0.00e+00	0	40	0	2532311040	44	4412
2026-01-05 12:02:08.02	346.33	45.43	-36.6	-38.3	22.4	0.00e+00	0	40	0	2536505344	44	4445
2026-01-05 12:02:09.02	346.28	45.13	-36.3	-37.9	22.7	0.00e+00	0	40	0	2542796800	44	4289
2026-01-05 12:02:10.03	346.24	44.83	-36.3	-37.9	22.7	0.00e+00	0	40	0	2548039680	44	4274
2026-01-05 12:02:11.03	346.20	44.53	-36.3	-37.9	22.7	0.00e+00	0	39	0	2553282560	44	4286
2026-01-05 12:02:12.03	346.15	44.24	-36.3	-37.9	22.7	0.00e+00	0	40	0	2559574016	44	4290
2026-01-05 12:02:13.03	346.11	43.94	-36.4	-38.1	22.6	0.00e+00	0	40	0	2564816896	44	4352
2026-01-05 12:02:14.03	346.07	43.65	-36.6	-38.3	22.4	0.00e+00	0	40	0	2571108352	44	4470
2026-01-05 12:02:15.04	346.03	43.36	-36.7	-38.4	22.3	0.00e+00	0	40	0	2576351232	44	4528
2026-01-05 12:02:16.04	345.99	43.08	-36.7	-38.4	22.3	0.00e+00	0	40	0	2582642688	44	4540
2026-01-05 12:02:17.04	345.96	42.79	-36.7	-38.4	22.3	0.00e+00	0	40	0	2587885568	44	4537
2026-01-05 12:02:18.05	345.92	42.51	-36.6	-38.3	22.4	0.00e+00	0	40	0	2593128448	44	4447
2026-01-05 12:02:19.05	345.88	42.23	-36.5	-38.2	22.4	0.00e+00	0	40	0	2599419904	44	4428
2026-01-05 12:02:20.05	345.85	41.95	-36.5	-38.1	22.5	0.00e+00	0	40	0	2604662784	44	4378
2026-01-05 12:02:21.06	345.81	41.68	-36.5	-38.1	22.5	0.00e+00	0	40	0	2609905664	44	4370
2026-01-05 12:02:22.06	345.78	41.40	-36.4	-38.0	22.6	0.00e+00	0	40	0	2616197120	44	4320
2026-01-05 12:02:23.06	345.74	41.13	-36.2	-37.8	22.8	0.00e+00	0	40	0	2621440000	44	4238
2026-01-05 12:02:24.06	345.71	40.86	-36.2	-37.9	22.7	0.00e+00	0	40	0	2626682880	44	4243
2026-01-05 12:02:25.07	345.68	40.59	-36.0	-37.6	22.9	0.00e+00	0	40	0	2632974336	44	4133
2026-01-05 12:02:26.07	345.64	40.33	-35.8	-37.4	23.0	0.00e+00	0	40	0	2638217216	43	4284
2026-01-05 12:02:27.07	345.61	40.06	-35.7	-37.4	23.0	0.00e+00	0	40	0	2644508672	43	4262
2026-01-05 12:02:28.07	345.58	39.80	-35.8	-37.5	22.9	0.00e+00	0	40	0	2649751552	43	4314
2026-01-05 12:02:29.07	345.55	39.54	-35.6	-37.3	23.1	0.00e+00	0	40	0	2654994432	43	4216
2026-01-05 12:02:30.07	345.52	39.29	-35.5	-37.2	23.2	0.00e+00	0	40	0	2661285888	43	4153
2026-01-05 12:02:31.52	345.48	38.92	-35.5	-37.1	23.2	0.00e+00	0	40	0	2668625920	42	4366
2026-01-05 12:02:32.23	345.46	38.74	-35.5	-37.1	23.2	0.00e+00	0	40	0	2672820224	42	4371
2026-01-05 12:02:33.52	345.42	38.41	-35.5	-37.1	23.2	0.00e+00	0	40	0	2680160256	42	4380
2026-01-05 12:02:34.24	345.40	38.23	-35.3	-37.0	23.3	0.00e+00	0	40	0	2684354560	42	4297
2026-01-05 12:02:35.53	345.37	37.91	-35.5	-37.1	23.2	0.00e+00	0	40	0	2691694592	42	4351
2026-01-05 12:02:36.24	345.35	37.74	-35.5	-37.1	23.2	0.00e+00	0	40	0	2695888896	42	4360
2026-01-05 12:02:37.52	345.31	37.43	-35.6	-37.3	23.1	0.00e+00	0	40	0	2703228928	42	4476
2026-01-05 12:02:38.24	345.29	37.25	-35.8	-37.4	23.0	0.00e+00	0	40	0	2707423232	42	4535
2026-01-05 12:02:39.53	345.26	36.94	-36.0	-37.7	22.8	0.00e+00	0	40	0	2713714688	42	4663
2026-01-05 12:02:40.25	345.24	36.77	-36.1	-37.8	22.7	0.00e+00	0	40	0	2717908992	42	4714
2026-01-05 12:02:41.54	345.21	36.47	-36.1	-37.8	22.7	0.00e+00	0	40	0	2725249024	42	4718
2026-01-05 12:02:42.25	345.20	36.30	-36.1	-37.8	22.6	0.00e+00	0	40	0	2729443328	42	4757
2026-01-05 12:02:43.54	345.16	36.00	-36.1	-37.8	22.6	0.00e+00	0	40	0	2736783360	43	4477
2026-01-05 12:02:44.25	345.15	35.83	-36.0	-37.7	22.7	0.00e+00	0	40	0	2740977664	43	4419
2026-01-05 12:02:45.83	345.11	35.47	-35.8	-37.5	22.9	0.00e+00	0	39	0	2749366272	43	4316
2026-01-05 12:02:46.45	345.10	35.33	-35.9	-37.5	22.8	0.00e+00	0	40	0	2753560576	43	4336
2026-01-05 12:02:48.02	345.06	34.98	-35.8	-37.4	22.9	0.00e+00	0	40	0	2761949184	43	4283
2026-01-05 12:02:48.59	345.05	34.85	-35.7	-37.4	23.0	0.00e+00	0	40	0	2765094912	43	4255
2026-01-05 12:02:50.20	345.02	34.49	-35.7	-37.3	23.0	0.00e+00	0	40	0	2774532096	43	4241
2026-01-05 12:02:50.77	345.00	34.36	-35.8	-37.5	22.9	0.00e+00	0	40	0	2777677824	43	4312
2026-01-05 12:02:52.36	344.97	34.01	-35.9	-37.6	22.8	0.00e+00	0	40	0	2786066432	43	4346
2026-01-05 12:02:52.93	344.96	33.89	-36.0	-37.6	22.8	0.00e+00	0	40	0	2789212160	43	4385
2026-01-05 12:02:54.52	344.93	33.55	-36.1	-37.8	22.6	0.00e+00	0	40	0	2798649344	43	4476
2026-01-05 12:02:55.10	344.92	33.42	-36.2	-37.9	22.6	0.00e+00	0	40	0	2801795072	43	4501
2026-01-05 12:02:56.96	344.88	33.03	-36.3	-38.0	22.4	0.00e+00	0	40	0	2812280832	43	4593
2026-01-05 12:02:57.53	344.87	32.91	-36.4	-38.1	22.4	0.00e+00	0	40	0	2815426560	43	4640
2026-01-05 12:02:59.15	344.84	32.57	-36.5	-38.2	22.3	0.00e+00	0	40	0	2824863744	43	4686
2026-01-05 12:02:59.72	344.83	32.45	-36.6	-38.3	22.2	0.00e+00	0	40	0	2828009472	43	4725
2026-01-05 12:03:01.62	344.80	32.06	-36.6	-38.3	22.2	0.00e+00	0	40	0	2838495232	43	4726
2026-01-05 12:03:02.19	344.79	31.94	-36.6	-38.3	22.2	0.00e+00	0	39	0	2841640960	43	4725
2026-01-05 12:03:03.77	344.76	31.62	-36.6	-38.3	22.2	0.00e+00	0	40	0	2850029568	43	4728
2026-01-05 12:03:04.34	344.75	31.51	-36.5	-38.2	22.3	0.00e+00	0	40	0	2854223872	43	4680
2026-01-05 12:03:05.94	344.72	31.19	-36.5	-38.2	22.3	0.00e+00	0	40	0	2862612480	43	4696
2026-01-05 12:03:06.52	344.71	31.07	-36.5	-38.2	22.3	0.00e+00	0	40	0	2865758208	43	4698
2026-01-05 12:03:08.18	344.68	30.75	-36.4	-38.1	22.4	0.00e+00	0	40	0	2875195392	43	4635
2026-01-05 12:03:08.85	344.67	30.62	-36.4	-38.0	22.5	0.00e+00	0	40	0	2879389696	43	4591
2026-01-05 12:03:10.28	344.65	30.34	-36.4	-38.1	22.4	0.00e+00	0	40	0	2886729728	43	4611
2026-01-05 12:03:11.06	344.64	30.19	-36.5	-38.2	22.3	0.00e+00	0	40	0	2891972608	43	4657
2026-01-05 12:03:12.35	344.62	29.94	-36.4	-38.1	22.4	0.00e+00	0	40	0	2899312640	43	4601
2026-01-05 12:03:13.14	344.61	29.79	-36.4	-38.0	22.4	0.00e+00	0	40	0	2903506944	43	4591
2026-01-05 12:03:14.62	344.59	29.52	-36.4	-38.0	22.4	0.00e+00	0	40	0	2911895552	43	4592
2026-01-05 12:03:15.34	344.58	29.38	-36.3	-38.0	22.5	0.00e+00	0	40	0	2915041280	43	4574
2026-01-05 12:03:16.63	344.56	29.14	-36.3	-38.0	22.5	0.00e+00	0	40	0	2922381312	43	4568
2026-01-05 12:03:17.34	344.55	29.01	-36.3	-38.0	22.5	0.00e+00	0	39	0	2926575616	43	4553
2026-01-05 12:03:18.63	344.53	28.77	-36.2	-37.9	22.5	0.00e+00	0	40	0	2933915648	43	4518
2026-01-05 12:03:19.35	344.52	28.64	-36.3	-37.9	22.5	0.00e+00	0	39	0	2938109952	43	4542
2026-01-05 12:03:20.63	344.50	28.41	-36.2	-37.9	22.5	0.00e+00	0	39	0	2945449984	43	4515
2026-01-05 12:03:21.35	344.49	28.28	-36.3	-38.0	22.4	0.00e+00	0	40	0	2949644288	43	4578
2026-01-05 12:03:22.64	344.48	28.05	-36.1	-37.8	22.6	0.00e+00	0	40	0	2956984320	43	4470
2026-01-05 12:03:23.61	344.46	27.88	-36.1	-37.7	22.7	0.00e+00	0	39	0	2962227200	43	4436
2026-01-05 12:03:24.61	344.45	27.70	-36.1	-37.8	22.6	0.00e+00	0	40	0	2967470080	43	4455
2026-01-05 12:03:25.97	344.43	27.47	-36.2	-37.8	22.6	0.00e+00	0	40	0	2975858688	43	4479
2026-01-05 12:03:26.68	344.43	27.34	-36.1	-37.8	22.6	0.00e+00	0	39	0	2979004416	43	4446
2026-01-05 12:03:27.97	344.41	27.12	-36.2	-37.8	22.6	0.00e+00	0	40	0	2986344448	43	4493
2026-01-05 12:03:28.69	344.40	27.00	-36.2	-37.9	22.5	0.00e+00	0	39	0	2990538752	43	4510
2026-01-05 12:03:29.98	344.39	26.78	-36.2	-37.9	22.5	0.00e+00	0	40	0	2997878784	43	4526
2026-01-05 12:03:30.69	344.38	26.66	-36.3	-38.0	22.5	0.00e+00	0	40	0	3002073088	43	4548
2026-01-05 12:03:32.04	344.36	26.43	-36.4	-38.1	22.4	0.00e+00	0	40	0	3009413120	43	4604
2026-01-05 12:03:32.76	344.35	26.31	-36.5	-38.2	22.3	0.00e+00	0	40	0	3013607424	43	4665
2026-01-05 12:03:34.08	344.34	26.09	-36.5	-38.2	22.3	0.00e+00	0	40	0	3020947456	43	4702
2026-01-05 12:03:34.80	344.33	25.97	-36.6	-38.3	22.2	0.00e+00	0	39	0	3025141760	43	4713
2026-01-05 12:03:36.17	344.32	25.75	-36.6	-38.3	22.2	0.00e+00	0	40	0	3032481792	43	4752
2026-01-05 12:03:36.89	344.31	25.63	-36.7	-38.4	22.1	0.00e+00	0	40	0	3036676096	43	4780
2026-01-05 12:03:38.23	344.30	25.41	-36.7	-38.4	22.1	0.00e+00	0	40	0	3044016128	43	4769
2026-01-05 12:03:38.95	344.29	25.30	-36.8	-38.6	22.1	0.00e+00	0	40	0	3048210432	44	4610
2026-01-05 12:03:40.24	344.27	25.09	-36.9	-38.6	22.1	0.00e+00	0	40	0	3055550464	44	4640
2026-01-05 12:03:40.96	344.27	24.98	-36.9	-38.6	22.1	0.00e+00	0	40	0	3059744768	44	4624
2026-01-05 12:03:42.24	344.25	24.78	-37.0	-38.7	22.0	0.00e+00	0	40	0	3067084800	44	4699
2026-01-05 12:03:42.96	344.25	24.66	-37.0	-38.7	22.0	0.00e+00	0	40	0	3071279104	44	4690
2026-01-05 12:03:44.24	344.24	24.46	-36.9	-38.7	22.0	0.00e+00	0	40	0	3078619136	44	4656
2026-01-05 12:03:44.96	344.23	24.35	-36.9	-38.6	22.1	0.00e+00	0	40	0	3081764864	44	4645
2026-01-05 12:03:46.25	344.22	24.15	-36.9	-38.6	22.0	0.00e+00	0	40	0	3089104896	44	4644
2026-01-05 12:03:47.06	344.21	24.03	-36.9	-38.7	22.0	0.00e+00	0	40	0	3094347776	44	4656
2026-01-05 12:03:48.21	344.20	23.85	-36.9	-38.6	22.0	0.00e+00	0	40	0	3100639232	44	4647
2026-01-05 12:03:49.31	344.19	23.69	-36.9	-38.7	22.0	0.00e+00	0	40	0	3106930688	44	4653
2026-01-05 12:03:50.34	344.18	23.53	-37.0	-38.7	22.0	0.00e+00	0	40	0	3112173568	44	4668
2026-01-05 12:03:51.34	344.17	23.38	-37.1	-38.8	21.9	0.00e+00	0	40	0	3118465024	44	4724
2026-01-05 12:03:52.34	344.16	23.23	-37.1	-38.8	21.9	0.00e+00	0	40	0	3123707904	44	4723
2026-01-05 12:03:53.35	344.15	23.08	-37.2	-38.9	21.8	0.00e+00	0	39	0	3129999360	44	4782
2026-01-05 12:03:54.35	344.15	22.94	-37.2	-38.9	21.8	0.00e+00	0	40	0	3135242240	45	4542
2026-01-05 12:03:55.35	344.14	22.79	-37.2	-38.9	21.8	0.00e+00	0	40	0	3140485120	45	4530
2026-01-05 12:03:56.35	344.13	22.65	-37.2	-39.0	21.8	0.00e+00	0	40	0	3146776576	45	4552
2026-01-05 12:03:57.36	344.12	22.50	-37.3	-39.1	21.6	0.00e+00	0	40	0	3152019456	45	4631
2026-01-05 12:03:58.36	344.11	22.36	-37.2	-39.0	21.7	0.00e+00	0	40	0	3157262336	45	4590
2026-01-05 12:03:59.36	344.11	22.21	-37.3	-39.2	21.6	0.00e+00	0	40	0	3163553792	45	4652
2026-01-05 12:04:00.36	344.10	22.07	-37.3	-39.1	21.6	0.00e+00	0	40	0	3168796672	45	4643
2026-01-05 12:04:01.37	344.09	21.93	-37.5	-39.2	21.5	0.00e+00	0	40	0	3174039552	45	4701
2026-01-05 12:04:02.37	344.08	21.79	-37.5	-39.3	21.5	0.00e+00	0	40	0	3180331008	45	4707
2026-01-05 12:04:03.47	344.07	21.64	-37.5	-39.2	21.5	0.00e+00	0	40	0	3186622464	45	4690
2026-01-05 12:04:04.36	344.07	21.51	-37.6	-39.3	21.4	0.00e+00	0	39	0	3191865344	45	4744
2026-01-05 12:04:05.50	344.06	21.35	-37.6	-39.3	21.4	0.00e+00	0	40	0	3198156800	45	4738
2026-01-05 12:04:06.40	344.05	21.23	-37.6	-39.3	21.4	0.00e+00	0	40	0	3203399680	45	4722
2026-01-05 12:04:07.41	344.05	21.09	-37.5	-39.2	21.5	0.00e+00	0	40	0	3208642560	45	4704
2026-01-05 12:04:08.41	344.04	20.96	-37.6	-39.3	21.4	0.00e+00	0	40	0	3213885440	45	4736
2026-01-05 12:04:09.41	344.03	20.82	-37.6	-39.3	21.4	0.00e+00	0	40	0	3220176896	45	4742
2026-01-05 12:04:10.42	344.03	20.69	-37.5	-39.3	21.5	0.00e+00	0	40	0	3225419776	45	4706
2026-01-05 12:04:11.42	344.02	20.55	-37.5	-39.3	21.5	0.00e+00	0	40	0	3230662656	45	4712
2026-01-05 12:04:12.42	344.01	20.42	-37.6	-39.4	21.4	0.00e+00	0	40	0	3236954112	45	4780
2026-01-05 12:04:13.43	344.01	20.29	-37.6	-39.3	21.4	0.00e+00	0	40	0	3242196992	45	4737
2026-01-05 12:04:14.43	344.00	20.15	-37.6	-39.3	21.4	0.00e+00	0	40	0	3247439872	45	4738
2026-01-05 12:04:15.43	343.99	20.02	-37.7	-39.5	21.3	0.00e+00	0	40	0	3253731328	46	4550
2026-01-05 12:04:16.45	343.99	19.89	-37.7	-39.4	21.3	0.00e+00	0	40	0	3258974208	46	4517
2026-01-05 12:04:17.48	343.98	19.76	-37.7	-39.4	21.3	0.00e+00	0	40	0	3265265664	46	4545
2026-01-05 12:04:18.48	343.97	19.63	-37.8	-39.5	21.3	0.00e+00	0	40	0	3270508544	46	4560
2026-01-05 12:04:19.54	343.97	19.49	-37.7	-39.5	21.3	0.00e+00	0	40	0	3276800000	46	4552
2026-01-05 12:04:20.39	343.96	19.38	-37.8	-39.6	21.2	0.00e+00	0	40	0	3282042880	46	4605
2026-01-05 12:04:21.54	343.96	19.24	-37.9	-39.6	21.2	0.00e+00	0	40	0	3288334336	46	4631
2026-01-05 12:04:22.41	343.95	19.13	-37.9	-39.6	21.1	0.00e+00	0	40	0	3292528640	46	4646
2026-01-05 12:04:23.55	343.95	18.99	-37.9	-39.7	21.1	0.00e+00	0	40	0	3299868672	46	4657
2026-01-05 12:04:24.41	343.94	18.88	-37.9	-39.7	21.1	0.00e+00	0	40	0	3304062976	46	4661
2026-01-05 12:04:25.56	343.93	18.73	-38.1	-39.8	21.0	0.00e+00	0	40	0	3310354432	46	4735
2026-01-05 12:04:26.42	343.93	18.63	-38.1	-39.9	20.9	0.00e+00	0	40	0	3315597312	46	4782
2026-01-05 12:04:27.56	343.92	18.49	-38.0	-39.8	21.0	0.00e+00	0	40	0	3321888768	46	4741
2026-01-05 12:04:28.42	343.92	18.38	-38.1	-39.9	20.9	0.00e+00	0	40	0	3327131648	46	4775
2026-01-05 12:04:29.56	343.91	18.24	-38.1	-39.9	20.9	0.00e+00	0	40	0	3333423104	46	4782
2026-01-05 12:04:30.42	343.91	18.14	-38.1	-40.0	20.8	0.00e+00	0	40	0	3337617408	46	4831
2026-01-05 12:04:31.57	343.90	18.00	-38.2	-40.1	20.7	0.00e+00	0	40	0	3343908864	47	4611
2026-01-05 12:04:32.42	343.90	17.90	-38.2	-40.0	20.8	0.00e+00	0	40	0	3349151744	47	4574
2026-01-05 12:04:33.57	343.89	17.76	-38.2	-40.0	20.8	0.00e+00	0	40	0	3355443200	47	4581
2026-01-05 12:04:34.43	343.89	17.66	-38.2	-40.1	20.7	0.00e+00	0	40	0	3360686080	47	4615
2026-01-05 12:04:35.57	343.88	17.52	-38.3	-40.1	20.7	0.00e+00	0	40	0	3366977536	47	4629
2026-01-05 12:04:36.43	343.88	17.42	-38.3	-40.1	20.7	0.00e+00	0	40	0	3371171840	47	4648
2026-01-05 12:04:37.58	343.88	17.29	-38.5	-40.3	20.6	0.00e+00	0	40	0	3378511872	47	4711
2026-01-05 12:04:38.44	343.87	17.19	-38.5	-40.3	20.5	0.00e+00	0	40	0	3382706176	47	4725
2026-01-05 12:04:39.59	343.87	17.05	-38.6	-40.4	20.4	0.00e+00	0	40	0	3388997632	47	4773
2026-01-05 12:04:40.45	343.86	16.96	-38.6	-40.4	20.4	0.00e+00	0	40	0	3394240512	47	4775
2026-01-05 12:04:41.59	343.86	16.82	-38.6	-40.4	20.5	0.00e+00	0	40	0	3400531968	47	4776
2026-01-05 12:04:42.45	343.85	16.73	-38.5	-40.4	20.5	0.00e+00	0	40	0	3405774848	47	4766
2026-01-05 12:04:43.60	343.85	16.60	-38.6	-40.4	20.4	0.00e+00	0	40	0	3412066304	47	4808
2026-01-05 12:04:44.46	343.85	16.50	-38.6	-40.5	20.3	0.00e+00	0	40	0	3417309184	47	4837
2026-01-05 12:04:45.62	343.84	16.37	-38.6	-40.5	20.3	0.00e+00	0	40	0	3423600640	47	4870
2026-01-05 12:04:46.48	343.84	16.27	-38.7	-40.7	20.4	0.00e+00	0	40	0	3427794944	48	4666
2026-01-05 12:04:47.63	343.83	16.14	-38.6	-40.6	20.5	0.00e+00	0	40	0	3435134976	48	4604
2026-01-05 12:04:48.49	343.83	16.05	-38.7	-40.7	20.4	0.00e+00	0	40	0	3439329280	48	4663
2026-01-05 12:04:49.64	343.83	15.92	-38.7	-40.6	20.4	0.00e+00	0	40	0	3445620736	48	4635
2026-01-05 12:04:50.49	343.82	15.83	-38.7	-40.7	20.4	0.00e+00	0	40	0	3450863616	48	4680
2026-01-05 12:04:51.64	343.82	15.70	-38.8	-40.7	20.3	0.00e+00	0	40	0	3457155072	48	4685
2026-01-05 12:04:52.50	343.81	15.61	-38.8	-40.8	20.3	0.00e+00	0	40	0	3462397952	48	4716
2026-01-05 12:04:53.65	343.81	15.48	-38.9	-40.8	20.3	0.00e+00	0	40	0	3468689408	48	4725
2026-01-05 12:04:54.51	343.81	15.39	-38.8	-40.7	20.3	0.00e+00	0	40	0	3473932288	48	4695
2026-01-05 12:04:55.66	343.80	15.26	-39.0	-40.9	20.2	0.00e+00	0	40	0	3480223744	48	4783
2026-01-05 12:04:56.52	343.80	15.17	-39.0	-40.9	20.2	0.00e+00	0	40	0	3484418048	48	4766
2026-01-05 12:04:57.67	343.80	15.05	-39.0	-40.8	20.2	0.00e+00	0	40	0	3490709504	48	4759
2026-01-05 12:04:58.84	343.79	14.92	-39.0	-40.8	20.2	0.00e+00	0	40	0	3498049536	48	4745
2026-01-05 12:04:59.70	343.79	14.83	-39.0	-40.8	20.2	0.00e+00	0	40	0	3502243840	48	4752
2026-01-05 12:05:00.85	343.79	14.71	-39.1	-41.0	20.1	0.00e+00	0	40	0	3509583872	48	4817
2026-01-05 12:05:01.70	343.78	14.62	-39.2	-41.0	20.0	0.00e+00	0	40	0	3513778176	48	4869
2026-01-05 12:05:02.85	343.78	14.50	-39.1	-41.0	20.1	0.00e+00	0	40	0	3520069632	49	4566
2026-01-05 12:05:03.71	343.78	14.41	-39.0	-41.0	20.1	0.00e+00	0	40	0	3525312512	49	4548
2026-01-05 12:05:04.85	343.77	14.29	-39.1	-41.0	20.0	0.00e+00	0	40	0	3531603968	49	4586
2026-01-05 12:05:05.71	343.77	14.21	-39.1	-41.0	20.0	0.00e+00	0	40	0	3536846848	49	4567
2026-01-05 12:05:06.91	343.77	14.08	-39.1	-41.0	20.0	0.00e+00	0	40	0	3543138304	49	4595
2026-01-05 12:05:07.76	343.77	14.00	-39.1	-41.1	19.9	0.00e+00	0	40	0	3548381184	49	4613
2026-01-05 12:05:08.94	343.76	13.88	-39.1	-41.1	20.0	0.00e+00	0	40	0	3554672640	49	4599
2026-01-05 12:05:09.80	343.76	13.79	-39.1	-41.1	20.0	0.00e+00	0	40	0	3559915520	49	4604
2026-01-05 12:05:11.01	343.76	13.67	-39.2	-41.1	19.9	0.00e+00	0	40	0	3566206976	49	4636
2026-01-05 12:05:11.87	343.75	13.58	-39.2	-41.2	19.9	0.00e+00	0	40	0	3571449856	49	4677
2026-01-05 12:05:13.10	343.75	13.46	-39.3	-41.2	19.8	0.00e+00	0	40	0	3577741312	49	4702
2026-01-05 12:05:13.96	343.75	13.37	-39.3	-41.2	19.8	0.00e+00	0	40	0	3582984192	49	4674
2026-01-05 12:05:15.14	343.75	13.25	-39.3	-41.2	19.8	0.00e+00	0	40	0	3589275648	49	4681
2026-01-05 12:05:16.00	343.74	13.17	-39.3	-41.3	19.8	0.00e+00	0	40	0	3594518528	49	4714
2026-01-05 12:05:17.14	343.74	13.06	-39.5	-41.4	19.7	0.00e+00	0	40	0	3600809984	49	4794
2026-01-05 12:05:18.01	343.74	12.97	-39.6	-41.6	19.5	0.00e+00	0	40	0	3606052864	49	4879
2026-01-05 12:05:19.15	343.74	12.86	-39.4	-41.4	19.7	0.00e+00	0	40	0	3612344320	49	4765
2026-01-05 12:05:20.04	343.73	12.77	-39.5	-41.4	19.6	0.00e+00	0	40	0	3616538624	49	4814
2026-01-05 12:05:21.18	343.73	12.66	-39.4	-41.4	19.6	0.00e+00	0	40	0	3623878656	49	4772
2026-01-05 12:05:22.14	343.73	12.57	-39.4	-41.4	19.6	0.00e+00	0	40	0	3629121536	49	4785
2026-01-05 12:05:23.31	343.73	12.46	-39.5	-41.4	19.6	0.00e+00	0	40	0	3635412992	49	4795
2026-01-05 12:05:24.17	343.73	12.38	-39.5	-41.5	19.5	0.00e+00	0	40	0	3640655872	49	4846
2026-01-05 12:05:25.51	343.72	12.25	-39.5	-41.5	19.5	0.00e+00	0	40	0	3647995904	49	4862
2026-01-05 12:05:26.23	343.72	12.18	-39.5	-41.5	19.5	0.00e+00	0	40	0	3652190208	49	4824
2026-01-05 12:05:27.74	343.72	12.04	-39.5	-41.6	19.5	0.00e+00	0	40	0	3660578816	49	4883
2026-01-05 12:05:28.46	343.72	11.97	-39.5	-41.5	19.5	0.00e+00	0	40	0	3664773120	49	4865
2026-01-05 12:05:29.74	343.71	11.85	-39.6	-41.7	19.3	0.00e+00	0	40	0	3672113152	49	4949
2026-01-05 12:05:30.46	343.71	11.78	-39.6	-41.7	19.3	0.00e+00	0	40	0	3675258880	50	4674
2026-01-05 12:05:31.75	343.71	11.66	-39.6	-41.7	19.4	0.00e+00	0	40	0	3682598912	50	4654
2026-01-05 12:05:32.46	343.71	11.60	-39.7	-41.7	19.3	0.00e+00	0	40	0	3686793216	50	4694
2026-01-05 12:05:33.75	343.71	11.48	-39.7	-41.8	19.3	0.00e+00	0	40	0	3694133248	50	4721
2026-01-05 12:05:34.47	343.71	11.41	-39.7	-41.8	19.2	0.00e+00	0	40	0	3698327552	50	4730
2026-01-05 12:05:35.75	343.70	11.30	-39.8	-41.9	19.2	0.00e+00	0	40	0	3705667584	50	4762
