passes_logs/2026/01/05/T1/T1__20260105_120713_NOAA_21_JPSS-2_rec.log

#Pass ID: 20260105_120713_NOAA 21 (JPSS-2)
#Satellite: NOAA 21 (JPSS-2)
#Configuration: NOAA 21
#almurnet v.1.7.20251203
#Start time: 2026-01-05 12:07:15

#Version: 2.0.20230620
#Station: T1
#Location: 37.570604 lon 55.790049 lat
#TLE: 1 54234U 22150A   26004.22845673  .00000174  00000+0  10347-3 0  9996
#TLE: 2 54234  98.7489 305.2591 0001115 345.0884  15.0259 14.19531906163281

#Time	Az	El	Level	Level2	SNR	BER	BlckErr	Temp	State	Recorded	gain1	gain2
2026-01-05 12:07:15.86	236.80	5.10	-50.7	-63.9	3.8	1.49e+00	0	40	0	0	72	17050
2026-01-05 12:07:16.85	236.92	5.14	-50.7	-63.8	3.8	1.49e+00	0	39	104	0	73	15918
2026-01-05 12:07:17.86	237.04	5.19	-50.0	-63.9	3.8	1.49e+00	0	40	104	0	71	17889
2026-01-05 12:07:18.86	237.16	5.23	-50.4	-63.8	3.8	1.49e+00	0	40	104	0	71	17705
2026-01-05 12:07:19.87	237.29	5.28	-50.3	-63.7	3.8	1.49e+00	0	40	104	0	71	17522
2026-01-05 12:07:20.87	237.41	5.32	-50.2	-63.5	3.8	1.49e+00	0	39	104	0	71	17151
2026-01-05 12:07:21.88	237.53	5.37	-50.2	-63.4	3.8	1.49e+00	0	40	104	0	71	17075
2026-01-05 12:07:22.88	237.66	5.41	-50.2	-63.4	3.8	1.49e+00	0	40	104	0	71	17026
2026-01-05 12:07:23.88	237.78	5.45	-50.1	-63.4	3.8	1.49e+00	0	40	104	0	71	16992
2026-01-05 12:07:24.89	237.90	5.50	-50.1	-63.4	3.8	1.49e+00	0	39	104	0	71	16938
2026-01-05 12:07:25.89	238.03	5.54	-50.1	-63.4	3.8	1.49e+00	0	39	104	0	71	16968
2026-01-05 12:07:26.90	238.15	5.59	-50.1	-63.4	3.8	1.49e+00	0	40	104	0	71	16941
2026-01-05 12:07:27.90	238.28	5.63	-50.1	-63.4	3.8	1.49e+00	0	40	104	0	71	16956
2026-01-05 12:07:28.90	238.40	5.67	-50.1	-63.4	3.8	1.49e+00	0	40	104	0	71	16894
2026-01-05 12:07:29.91	238.53	5.72	-50.1	-63.4	3.8	1.49e+00	0	40	104	0	71	16971
2026-01-05 12:07:30.91	238.65	5.76	-50.1	-63.4	3.8	1.49e+00	0	40	104	0	71	16899
2026-01-05 12:07:31.92	238.78	5.81	-50.1	-63.4	3.8	1.49e+00	0	40	104	0	71	16942
2026-01-05 12:07:32.92	238.91	5.85	-50.1	-63.4	3.8	1.49e+00	0	40	104	0	71	16923
2026-01-05 12:07:33.93	239.03	5.89	-50.1	-63.3	3.8	1.49e+00	0	40	104	0	71	16864
2026-01-05 12:07:34.93	239.16	5.94	-50.1	-63.3	3.8	1.49e+00	0	39	104	0	71	16840
2026-01-05 12:07:35.94	239.29	5.98	-50.2	-63.4	3.8	1.49e+00	0	40	104	0	71	16943
2026-01-05 12:07:36.94	239.42	6.03	-50.1	-63.4	3.8	1.49e+00	0	40	104	0	71	16893
2026-01-05 12:07:37.94	239.55	6.07	-50.0	-63.3	3.8	1.49e+00	0	40	104	0	71	16842
2026-01-05 12:07:38.95	239.68	6.11	-50.1	-63.3	3.8	1.49e+00	0	39	104	0	71	16870
2026-01-05 12:07:39.95	239.80	6.16	-50.1	-63.3	3.8	1.49e+00	0	40	104	0	71	16823
2026-01-05 12:07:40.96	239.93	6.20	-50.1	-63.3	3.8	1.49e+00	0	40	104	0	71	16829
2026-01-05 12:07:41.96	240.06	6.24	-50.1	-63.3	3.8	1.49e+00	0	40	104	0	71	16830
2026-01-05 12:07:42.97	240.20	6.29	-50.1	-63.3	3.8	1.49e+00	0	40	104	0	71	16871
2026-01-05 12:07:43.97	240.33	6.33	-50.1	-63.3	3.8	1.49e+00	0	40	104	0	71	16810
2026-01-05 12:07:44.97	240.46	6.37	-50.1	-63.4	3.8	1.49e+00	0	40	104	0	71	16895
2026-01-05 12:07:45.98	240.59	6.42	-50.1	-63.3	3.8	1.49e+00	0	40	104	0	71	16873
2026-01-05 12:07:46.98	240.72	6.46	-50.1	-63.3	3.8	1.49e+00	0	40	104	0	71	16864
2026-01-05 12:07:47.99	240.85	6.50	-50.1	-63.3	3.8	1.49e+00	0	40	104	0	71	16853
2026-01-05 12:07:48.99	240.99	6.55	-50.1	-63.3	3.8	1.49e+00	0	40	104	0	71	16838
2026-01-05 12:07:49.99	241.12	6.59	-50.1	-63.3	3.8	1.49e+00	0	40	104	0	71	16849
2026-01-05 12:07:51.00	241.25	6.63	-50.1	-63.3	3.8	1.49e+00	0	40	104	0	71	16884
2026-01-05 12:07:52.01	241.39	6.68	-50.1	-63.3	3.8	1.49e+00	0	40	104	0	71	16828
2026-01-05 12:07:53.01	241.52	6.72	-50.1	-63.3	3.8	1.49e+00	0	40	104	0	71	16771
2026-01-05 12:07:54.01	241.65	6.76	-50.1	-63.3	3.8	1.49e+00	0	40	104	0	71	16761
2026-01-05 12:07:55.02	241.79	6.80	-50.1	-63.2	3.8	1.49e+00	0	40	104	0	71	16627
2026-01-05 12:07:56.02	241.93	6.85	-50.1	-63.2	3.8	1.49e+00	0	40	104	0	71	16690
2026-01-05 12:07:57.03	242.06	6.89	-50.1	-63.2	3.8	1.49e+00	0	39	104	0	71	16649
2026-01-05 12:07:58.03	242.20	6.93	-50.0	-63.2	3.8	1.49e+00	0	40	104	0	71	16640
2026-01-05 12:07:59.03	242.33	6.97	-50.1	-63.2	3.8	1.49e+00	0	40	104	0	71	16678
2026-01-05 12:08:00.04	242.47	7.02	-50.1	-63.2	3.8	1.49e+00	0	40	104	0	71	16673
2026-01-05 12:08:01.04	242.61	7.06	-50.1	-63.2	3.8	1.49e+00	0	40	104	0	71	16629
2026-01-05 12:08:02.05	242.75	7.10	-50.1	-63.2	3.8	1.49e+00	0	40	104	0	71	16621
2026-01-05 12:08:03.05	242.88	7.14	-50.0	-63.2	3.8	1.49e+00	0	40	104	0	71	16644
2026-01-05 12:08:04.06	243.02	7.19	-50.0	-63.2	3.8	1.49e+00	0	40	104	0	71	16568
2026-01-05 12:08:05.06	243.16	7.23	-50.0	-63.2	3.8	1.49e+00	0	40	104	0	71	16664
2026-01-05 12:08:06.06	243.30	7.27	-50.0	-63.2	3.8	1.49e+00	0	40	104	0	71	16649
2026-01-05 12:08:07.07	243.44	7.31	-50.0	-63.3	3.8	1.49e+00	0	40	104	0	71	16769
2026-01-05 12:08:08.07	243.58	7.35	-50.0	-63.3	3.8	1.49e+00	0	40	104	0	71	16751
2026-01-05 12:08:09.08	243.72	7.39	-50.0	-63.3	3.8	1.49e+00	0	39	104	0	71	16741
2026-01-05 12:08:10.08	243.86	7.44	-50.0	-63.3	3.8	1.49e+00	0	39	104	0	71	16737
2026-01-05 12:08:11.09	244.00	7.48	-50.0	-63.3	3.8	1.49e+00	0	40	104	0	71	16707
2026-01-05 12:08:12.09	244.14	7.52	-50.0	-63.3	3.8	1.49e+00	0	39	104	0	71	16740
2026-01-05 12:08:13.09	244.29	7.56	-50.0	-63.3	3.8	1.49e+00	0	39	104	0	71	16780
2026-01-05 12:08:14.10	244.43	7.60	-50.1	-63.2	3.8	1.49e+00	0	39	104	0	71	16664
2026-01-05 12:08:15.10	244.57	7.64	-50.0	-63.2	3.8	1.49e+00	0	39	104	0	71	16662
2026-01-05 12:08:16.11	244.71	7.68	-50.0	-63.3	3.8	1.49e+00	0	39	104	0	71	16753
2026-01-05 12:08:17.11	244.86	7.73	-50.0	-63.3	3.8	1.49e+00	0	39	104	0	71	16776
2026-01-05 12:08:18.11	245.00	7.77	-50.0	-63.3	3.8	1.49e+00	0	40	104	0	71	16786
2026-01-05 12:08:19.12	245.15	7.81	-50.0	-63.3	3.8	1.49e+00	0	39	104	0	71	16723
2026-01-05 12:08:20.12	245.29	7.85	-50.0	-63.2	3.8	1.49e+00	0	40	104	0	71	16644
2026-01-05 12:08:21.13	245.44	7.89	-50.0	-63.2	3.8	1.49e+00	0	40	104	0	71	16537
2026-01-05 12:08:22.13	245.58	7.93	-50.0	-63.2	3.8	1.49e+00	0	40	104	0	71	16551
2026-01-05 12:08:23.14	245.73	7.97	-50.0	-63.2	3.8	1.49e+00	0	39	104	0	71	16676
2026-01-05 12:08:24.14	245.87	8.01	-50.0	-63.2	3.8	1.49e+00	0	40	104	0	71	16625
2026-01-05 12:08:25.15	246.02	8.05	-50.0	-63.2	3.8	1.49e+00	0	39	104	0	71	16590
2026-01-05 12:08:26.15	246.17	8.09	-50.0	-63.1	3.8	1.49e+00	0	39	104	0	71	16374
2026-01-05 12:08:27.15	246.31	8.13	-50.0	-63.0	3.8	1.49e+00	0	39	104	0	71	16251
2026-01-05 12:08:28.16	246.46	8.17	-50.0	-62.9	3.8	1.49e+00	0	40	104	0	71	16107
2026-01-05 12:08:29.16	246.61	8.21	-50.0	-63.1	3.8	1.49e+00	0	40	104	0	71	16363
2026-01-05 12:08:30.17	246.76	8.25	-50.1	-63.2	3.8	1.49e+00	0	39	104	0	71	16625
2026-01-05 12:08:31.17	246.91	8.29	-50.1	-63.3	3.8	1.49e+00	0	40	104	0	71	16708
2026-01-05 12:08:32.17	247.06	8.33	-50.0	-62.7	3.8	1.49e+00	0	40	104	0	71	15614
2026-01-05 12:08:33.18	247.21	8.37	-50.0	-62.1	3.8	1.49e+00	0	39	104	0	71	14555
2026-01-05 12:08:34.18	247.36	8.41	-49.9	-61.0	3.9	1.49e+00	0	40	104	0	71	12843
2026-01-05 12:08:35.19	247.51	8.45	-49.9	-60.7	4.0	1.48e+00	0	39	104	0	71	12483
2026-01-05 12:08:36.19	247.66	8.49	-49.9	-61.8	3.8	1.49e+00	0	39	104	0	71	14169
2026-01-05 12:08:37.19	247.81	8.53	-50.0	-62.4	3.8	1.49e+00	0	39	104	0	71	15191
2026-01-05 12:08:38.20	247.96	8.57	-49.8	-60.5	3.9	1.49e+00	0	39	104	0	71	12210
2026-01-05 12:08:39.20	248.11	8.60	-48.9	-55.5	6.5	5.64e-01	0	39	0	0	69	7693
2026-01-05 12:08:40.21	248.27	8.64	-47.3	-51.8	10.0	2.83e-02	0	39	0	0	66	5968
2026-01-05 12:08:41.21	248.42	8.68	-46.0	-49.4	12.5	3.23e-04	0	40	0	0	63	5353
2026-01-05 12:08:42.21	248.57	8.72	-45.1	-48.0	14.0	7.60e-06	0	39	0	0	62	4841
2026-01-05 12:08:43.22	248.73	8.76	-44.5	-47.2	14.8	0.00e+00	0	39	0	0	61	4665
2026-01-05 12:08:44.22	248.88	8.80	-44.5	-47.1	14.9	0.00e+00	0	39	0	0	60	4882
2026-01-05 12:08:45.23	249.04	8.84	-44.8	-47.6	14.4	0.00e+00	0	39	0	0	60	5176
2026-01-05 12:08:46.23	249.19	8.87	-45.8	-49.0	13.0	7.60e-06	0	39	0	0	62	5445
2026-01-05 12:08:47.23	249.34	8.91	-46.8	-50.7	11.2	5.68e-04	0	40	0	0	64	5898
2026-01-05 12:08:48.24	249.50	8.95	-47.7	-52.7	9.1	1.26e-02	0	40	0	0	66	6612
2026-01-05 12:08:49.25	249.66	8.99	-48.5	-54.7	7.1	1.05e-01	0	39	0	0	67	7859
2026-01-05 12:08:50.25	249.81	9.02	-49.1	-56.1	6.0	3.69e-01	0	39	0	0	68	8704
2026-01-05 12:08:51.38	249.99	9.07	-49.1	-57.6	4.2	1.43e+00	0	39	104	0	70	9192
2026-01-05 12:08:52.24	250.12	9.10	-49.4	-59.5	4.2	1.33e+00	0	39	104	0	69	12216
2026-01-05 12:08:53.59	250.34	9.15	-47.1	-51.1	10.7	1.86e-01	0	39	0	0	66	5516
2026-01-05 12:08:54.31	250.45	9.17	-47.4	-51.7	10.3	2.13e-04	0	39	0	0	65	6256
2026-01-05 12:08:55.79	250.68	9.23	-49.2	-56.3	5.9	6.50e-01	0	40	0	0	70	7913
2026-01-05 12:08:56.51	250.80	9.26	-48.9	-55.4	6.7	1.91e-01	0	39	0	0	69	7603
2026-01-05 12:08:57.79	251.00	9.30	-48.3	-53.9	8.1	1.65e-01	0	40	0	0	68	6779
2026-01-05 12:08:58.51	251.11	9.33	-48.6	-54.7	7.2	1.18e-01	0	40	0	0	68	7430
2026-01-05 12:08:59.80	251.32	9.37	-48.2	-53.8	8.1	4.56e-02	0	39	0	0	68	6707
2026-01-05 12:09:00.51	251.43	9.40	-48.4	-54.4	7.7	6.64e-02	0	39	0	0	68	7163
2026-01-05 12:09:01.80	251.64	9.45	-47.7	-53.0	8.9	4.21e-02	0	40	0	0	67	6421
2026-01-05 12:09:02.52	251.76	9.47	-47.5	-52.3	9.5	1.80e-02	0	40	0	0	66	6340
2026-01-05 12:09:03.81	251.96	9.52	-47.4	-52.2	9.7	1.68e-02	0	39	0	0	66	6221
2026-01-05 12:09:04.53	252.08	9.54	-47.2	-51.6	10.3	4.77e-03	0	40	0	0	66	5847
2026-01-05 12:09:05.81	252.29	9.59	-46.7	-50.6	11.3	1.25e-03	0	39	0	0	65	5526
2026-01-05 12:09:06.66	252.42	9.62	-46.5	-50.2	11.8	1.35e-03	0	39	0	0	64	5559
2026-01-05 12:09:08.13	252.66	9.67	-45.5	-48.5	13.6	2.51e-05	0	39	0	0	63	4844
2026-01-05 12:09:09.26	252.85	9.71	-45.0	-47.7	14.4	7.00e-07	0	39	0	0	62	4703
2026-01-05 12:09:10.12	252.99	9.74	-45.2	-48.0	14.1	7.60e-06	0	39	0	0	62	4851
2026-01-05 12:09:11.26	253.17	9.78	-44.3	-46.8	15.2	0.00e+00	0	39	0	0	60	4746
2026-01-05 12:09:12.12	253.31	9.81	-44.0	-46.3	15.6	0.00e+00	0	40	0	0	59	4744
2026-01-05 12:09:13.30	253.51	9.85	-43.9	-46.2	15.8	0.00e+00	0	40	0	0	59	4676
2026-01-05 12:09:14.16	253.65	9.88	-44.1	-46.5	15.5	0.00e+00	0	40	0	0	59	4839
2026-01-05 12:09:15.39	253.85	9.92	-43.9	-46.2	15.7	0.00e+00	0	40	0	0	59	4697
2026-01-05 12:09:16.25	254.00	9.95	-43.5	-45.8	16.2	0.00e+00	0	40	0	0	59	4458
2026-01-05 12:09:17.49	254.20	9.99	-43.3	-45.5	16.5	0.00e+00	0	39	0	0	58	4577
2026-01-05 12:09:18.35	254.35	10.02	-43.3	-45.5	16.5	0.00e+00	0	39	0	0	58	4577
2026-01-05 12:09:19.50	254.54	10.06	-43.1	-45.3	16.7	0.00e+00	0	39	0	0	58	4471
2026-01-05 12:09:20.36	254.68	10.08	-42.8	-45.1	16.9	0.00e+00	0	39	0	0	57	4606
2026-01-05 12:09:21.63	254.89	10.13	-42.7	-44.9	17.1	0.00e+00	0	39	0	0	57	4505
2026-01-05 12:09:22.35	255.01	10.15	-42.6	-44.8	17.1	0.00e+00	0	39	0	0	57	4488
2026-01-05 12:09:23.63	255.23	10.19	-42.7	-44.8	17.1	0.00e+00	0	40	0	0	57	4486
2026-01-05 12:09:24.35	255.35	10.21	-42.8	-44.9	17.1	0.00e+00	0	39	0	0	57	4538
2026-01-05 12:09:25.64	255.57	10.25	-42.7	-44.8	17.2	0.00e+00	0	40	0	0	57	4455
2026-01-05 12:09:26.36	255.69	10.28	-42.7	-44.8	17.1	0.00e+00	0	40	0	0	57	4460
2026-01-05 12:09:27.65	255.91	10.32	-42.6	-44.7	17.2	0.00e+00	0	39	0	0	57	4430
2026-01-05 12:09:28.37	256.03	10.34	-42.6	-44.7	17.2	0.00e+00	0	39	0	0	57	4422
2026-01-05 12:09:29.66	256.25	10.38	-42.7	-44.8	17.1	0.00e+00	0	40	0	0	57	4456
2026-01-05 12:09:30.37	256.37	10.40	-42.7	-44.8	17.2	0.00e+00	0	39	0	0	57	4449
2026-01-05 12:09:31.66	256.59	10.44	-42.5	-44.6	17.3	0.00e+00	0	39	0	0	57	4391
2026-01-05 12:09:32.38	256.72	10.47	-42.6	-44.7	17.2	0.00e+00	0	40	0	0	57	4416
2026-01-05 12:09:33.68	256.94	10.50	-42.5	-44.6	17.3	0.00e+00	0	39	0	0	57	4378
2026-01-05 12:09:34.65	257.11	10.53	-42.6	-44.7	17.3	0.00e+00	0	39	0	0	57	4402
2026-01-05 12:09:35.97	257.33	10.57	-42.6	-44.7	17.3	0.00e+00	0	40	0	0	57	4392
2026-01-05 12:09:36.72	257.46	10.60	-42.5	-44.6	17.4	0.00e+00	0	39	0	0	57	4355
2026-01-05 12:09:38.01	257.69	10.63	-42.5	-44.6	17.3	0.00e+00	0	39	0	0	57	4354
2026-01-05 12:09:38.72	257.81	10.66	-42.5	-44.6	17.4	0.00e+00	0	40	0	0	57	4347
2026-01-05 12:09:40.01	258.04	10.69	-42.5	-44.6	17.3	0.00e+00	0	39	0	0	57	4380
2026-01-05 12:09:40.73	258.16	10.71	-42.6	-44.7	17.2	0.00e+00	0	39	0	0	57	4440
2026-01-05 12:09:42.01	258.38	10.75	-42.7	-44.8	17.2	0.00e+00	0	39	0	0	57	4448
2026-01-05 12:09:42.73	258.51	10.77	-42.7	-44.9	17.1	0.00e+00	0	39	0	0	57	4511
2026-01-05 12:09:44.06	258.74	10.81	-42.7	-44.9	17.0	0.00e+00	0	39	0	0	57	4520
2026-01-05 12:09:44.78	258.87	10.83	-42.7	-44.9	17.0	0.00e+00	0	40	0	0	57	4533
2026-01-05 12:09:46.16	259.11	10.87	-42.8	-44.9	17.0	0.00e+00	0	40	0	0	57	4540
2026-01-05 12:09:46.88	259.24	10.89	-42.7	-44.9	17.1	0.00e+00	0	40	0	0	57	4512
2026-01-05 12:09:48.23	259.48	10.93	-42.8	-45.0	17.0	0.00e+00	0	40	0	0	57	4559
2026-01-05 12:09:48.95	259.60	10.95	-42.8	-44.9	17.0	0.00e+00	0	39	0	0	57	4543
2026-01-05 12:09:50.24	259.83	10.98	-42.7	-44.8	17.1	0.00e+00	0	39	0	0	57	4463
2026-01-05 12:09:50.96	259.96	11.00	-42.7	-44.8	17.1	0.00e+00	0	39	0	0	57	4459
2026-01-05 12:09:52.25	260.19	11.03	-42.6	-44.7	17.3	0.00e+00	0	39	0	0	57	4412
2026-01-05 12:09:52.96	260.32	11.05	-42.7	-44.8	17.2	0.00e+00	0	39	0	0	57	4456
2026-01-05 12:09:54.25	260.55	11.09	-42.6	-44.6	17.3	0.00e+00	0	39	0	0	57	4372
2026-01-05 12:09:54.97	260.68	11.11	-42.6	-44.7	17.2	0.00e+00	0	39	0	0	57	4430
2026-01-05 12:09:56.25	260.91	11.14	-42.6	-44.7	17.3	0.00e+00	0	39	0	0	57	4428
2026-01-05 12:09:57.07	261.05	11.16	-42.7	-44.8	17.2	0.00e+00	0	39	0	0	57	4462
2026-01-05 12:09:58.21	261.26	11.19	-42.8	-44.9	17.1	0.00e+00	0	39	0	0	57	4535
2026-01-05 12:09:59.31	261.46	11.22	-42.9	-45.0	17.0	0.00e+00	0	39	0	0	57	4570
2026-01-05 12:10:00.35	261.64	11.24	-42.7	-44.8	17.3	0.00e+00	0	39	0	0	57	4445
2026-01-05 12:10:01.35	261.82	11.27	-42.7	-44.8	17.2	0.00e+00	0	39	0	0	57	4473
2026-01-05 12:10:02.57	262.04	11.30	-42.6	-44.6	17.4	0.00e+00	0	39	0	0	57	4379
2026-01-05 12:10:03.43	262.20	11.32	-42.6	-44.6	17.4	0.00e+00	0	39	0	0	57	4368
2026-01-05 12:10:04.58	262.41	11.35	-42.6	-44.6	17.4	0.00e+00	0	39	0	0	57	4369
2026-01-05 12:10:05.44	262.57	11.37	-42.7	-44.7	17.2	0.00e+00	0	39	0	0	57	4438
2026-01-05 12:10:06.58	262.77	11.39	-42.7	-44.8	17.2	0.00e+00	0	39	0	0	57	4476
2026-01-05 12:10:07.62	262.96	11.42	-42.7	-44.8	17.2	0.00e+00	0	39	0	0	57	4466
2026-01-05 12:10:08.80	263.18	11.44	-42.7	-44.8	17.1	0.00e+00	0	39	0	0	57	4491
2026-01-05 12:10:09.66	263.34	11.46	-42.6	-44.7	17.3	0.00e+00	0	40	0	0	57	4408
2026-01-05 12:10:10.99	263.58	11.49	-42.4	-44.4	17.5	0.00e+00	0	39	0	0	56	4545
2026-01-05 12:10:11.71	263.71	11.51	-42.5	-44.5	17.4	0.00e+00	0	39	0	0	56	4573
2026-01-05 12:10:13.00	263.95	11.54	-42.5	-44.5	17.5	0.00e+00	0	39	0	0	56	4563
2026-01-05 12:10:13.71	264.08	11.55	-42.5	-44.5	17.5	0.00e+00	0	39	0	0	56	4584
2026-01-05 12:10:15.00	264.32	11.58	-42.4	-44.4	17.6	0.00e+00	0	39	0	0	56	4530
2026-01-05 12:10:15.72	264.45	11.60	-42.5	-44.5	17.5	0.00e+00	0	39	0	0	56	4567
2026-01-05 12:10:17.01	264.69	11.62	-42.4	-44.4	17.6	0.00e+00	0	39	0	0	56	4533
2026-01-05 12:10:17.72	264.82	11.64	-42.5	-44.4	17.5	0.00e+00	0	39	0	0	56	4543
2026-01-05 12:10:19.01	265.06	11.66	-42.5	-44.5	17.4	0.00e+00	0	39	0	0	56	4583
2026-01-05 12:10:19.73	265.19	11.68	-43.2	-45.3	16.8	0.00e+00	0	39	0	0	57	4750
2026-01-05 12:10:21.07	265.44	11.71	-42.6	-44.7	17.3	0.00e+00	0	39	0	0	57	4423
2026-01-05 12:10:21.78	265.57	11.72	-42.7	-44.8	17.2	0.00e+00	0	39	0	0	57	4467
2026-01-05 12:10:23.15	265.83	11.75	-42.7	-44.8	17.2	0.00e+00	0	39	0	0	57	4448
2026-01-05 12:10:23.87	265.96	11.76	-42.7	-44.8	17.3	0.00e+00	0	39	0	0	57	4443
2026-01-05 12:10:25.24	266.22	11.79	-42.5	-44.6	17.4	0.00e+00	0	39	0	0	57	4372
2026-01-05 12:10:25.96	266.35	11.80	-42.5	-44.5	17.4	0.00e+00	0	39	0	0	56	4596
2026-01-05 12:10:27.25	266.60	11.82	-42.5	-44.5	17.5	0.00e+00	0	39	0	0	56	4559
2026-01-05 12:10:27.96	266.73	11.84	-42.5	-44.5	17.5	0.00e+00	0	39	0	0	56	4571
2026-01-05 12:10:29.25	266.97	11.86	-42.4	-44.4	17.6	0.00e+00	0	39	0	0	56	4502
2026-01-05 12:10:29.97	267.11	11.87	-42.4	-44.4	17.5	0.00e+00	0	39	0	0	56	4528
2026-01-05 12:10:31.26	267.35	11.89	-42.4	-44.4	17.5	0.00e+00	0	40	0	0	56	4542
2026-01-05 12:10:31.97	267.48	11.91	-42.4	-44.4	17.5	0.00e+00	0	39	0	0	56	4529
2026-01-05 12:10:33.26	267.73	11.93	-42.5	-44.5	17.4	0.00e+00	0	39	0	0	56	4586
2026-01-05 12:10:34.07	267.88	11.94	-42.5	-44.5	17.4	0.00e+00	0	39	0	0	56	4594
2026-01-05 12:10:35.54	268.16	11.96	-42.5	-44.6	17.4	0.00e+00	0	39	0	0	56	4606
2026-01-05 12:10:36.25	268.29	11.98	-42.4	-44.5	17.6	0.00e+00	0	39	0	0	56	4549
2026-01-05 12:10:37.73	268.57	12.00	-42.5	-44.5	17.5	0.00e+00	0	39	0	0	56	4572
2026-01-05 12:10:38.45	268.71	12.01	-42.5	-44.5	17.5	0.00e+00	0	39	0	0	56	4589
2026-01-05 12:10:39.79	268.96	12.03	-42.5	-44.6	17.5	0.00e+00	0	39	0	0	56	4606
2026-01-05 12:10:40.50	269.10	12.04	-42.6	-44.6	17.4	0.00e+00	0	39	0	0	56	4625
2026-01-05 12:10:41.79	269.34	12.06	-42.4	-44.5	17.5	0.00e+00	0	39	0	0	56	4551
2026-01-05 12:10:42.50	269.48	12.07	-42.4	-44.5	17.5	0.00e+00	0	39	0	0	56	4548
2026-01-05 12:10:43.79	269.72	12.09	-42.6	-44.6	17.3	0.00e+00	0	39	0	0	56	4644
2026-01-05 12:10:44.51	269.86	12.10	-42.6	-44.7	17.3	0.00e+00	0	39	0	0	56	4658
2026-01-05 12:10:45.80	270.11	12.11	-42.7	-44.8	17.2	0.00e+00	0	39	0	0	56	4725
2026-01-05 12:10:46.52	270.25	12.12	-42.7	-44.8	17.2	0.00e+00	0	39	0	0	56	4713
2026-01-05 12:10:47.80	270.49	12.14	-42.5	-44.5	17.5	0.00e+00	0	39	0	0	56	4569
2026-01-05 12:10:48.58	270.64	12.15	-42.4	-44.4	17.6	0.00e+00	0	39	0	0	56	4512
2026-01-05 12:10:50.19	270.95	12.17	-42.3	-44.3	17.6	0.00e+00	0	39	0	0	56	4490
2026-01-05 12:10:51.02	271.11	12.18	-42.2	-44.2	17.7	0.00e+00	0	39	0	0	56	4430
2026-01-05 12:10:52.16	271.33	12.19	-42.2	-44.2	17.8	0.00e+00	0	39	0	0	56	4398
2026-01-05 12:10:53.02	271.49	12.20	-42.1	-44.1	17.8	0.00e+00	0	39	0	0	56	4349
2026-01-05 12:10:54.17	271.71	12.21	-42.2	-44.2	17.8	0.00e+00	0	39	0	0	56	4408
2026-01-05 12:10:55.03	271.88	12.22	-42.2	-44.2	17.7	0.00e+00	0	39	0	0	56	4430
2026-01-05 12:10:56.17	272.10	12.23	-42.3	-44.3	17.6	0.00e+00	0	39	0	0	56	4469
2026-01-05 12:10:57.05	272.27	12.24	-42.3	-44.3	17.6	0.00e+00	0	39	0	0	56	4484
2026-01-05 12:10:58.19	272.49	12.25	-42.4	-44.4	17.6	0.00e+00	0	39	0	0	56	4499
2026-01-05 12:10:59.05	272.65	12.26	-42.4	-44.4	17.6	0.00e+00	0	39	0	0	56	4521
2026-01-05 12:11:00.20	272.87	12.27	-42.4	-44.4	17.6	0.00e+00	0	39	0	0	56	4494
2026-01-05 12:11:01.06	273.04	12.28	-42.3	-44.4	17.6	0.00e+00	0	39	0	0	56	4494
2026-01-05 12:11:02.21	273.26	12.29	-42.4	-44.4	17.6	0.00e+00	0	39	0	0	56	4529
2026-01-05 12:11:03.07	273.43	12.30	-42.4	-44.4	17.6	0.00e+00	0	39	0	0	56	4524
2026-01-05 12:11:04.60	273.72	12.31	-42.4	-44.4	17.5	0.00e+00	0	39	0	0	56	4531
2026-01-05 12:11:05.31	273.86	12.32	-42.4	-44.4	17.6	0.00e+00	0	39	0	0	56	4542
2026-01-05 12:11:06.60	274.11	12.33	-42.5	-44.6	17.5	0.00e+00	0	39	0	0	56	4605
2026-01-05 12:11:07.32	274.25	12.33	-42.5	-44.6	17.4	0.00e+00	0	39	0	0	56	4612
2026-01-05 12:11:08.61	274.50	12.34	-42.5	-44.6	17.5	0.00e+00	0	39	0	0	56	4603
2026-01-05 12:11:09.32	274.64	12.34	-42.6	-44.7	17.3	0.00e+00	0	39	0	0	56	4655
2026-01-05 12:11:10.61	274.89	12.35	-42.6	-44.6	17.3	0.00e+00	0	39	0	0	56	4645
2026-01-05 12:11:11.33	275.03	12.36	-42.6	-44.7	17.3	0.00e+00	0	39	0	0	56	4657
2026-01-05 12:11:12.61	275.28	12.36	-42.4	-44.4	17.5	0.00e+00	0	39	0	0	56	4542
2026-01-05 12:11:13.33	275.42	12.37	-42.3	-44.4	17.6	0.00e+00	0	39	0	0	56	4506
2026-01-05 12:11:14.62	275.67	12.37	-42.3	-44.4	17.6	0.00e+00	0	39	0	0	56	4495
2026-01-05 12:11:15.51	275.84	12.38	-42.2	-44.2	17.8	0.00e+00	0	39	0	0	56	4394
2026-01-05 12:11:16.66	276.06	12.38	-42.1	-44.1	17.8	0.00e+00	0	39	0	0	56	4374
2026-01-05 12:11:17.52	276.23	12.39	-42.2	-44.1	17.8	0.00e+00	0	39	0	0	56	4379
2026-01-05 12:11:18.66	276.45	12.39	-42.2	-44.1	17.8	0.00e+00	0	39	0	0	56	4390
2026-01-05 12:11:19.52	276.62	12.39	-42.1	-44.0	17.9	0.00e+00	0	39	0	0	56	4340
2026-01-05 12:11:20.67	276.84	12.40	-42.1	-44.0	17.9	0.00e+00	0	39	0	0	56	4314
2026-01-05 12:11:21.52	277.01	12.40	-42.1	-44.1	17.9	0.00e+00	0	39	0	0	56	4350
2026-01-05 12:11:22.67	277.23	12.40	-42.0	-44.0	18.0	0.00e+00	0	39	0	0	56	4313
2026-01-05 12:11:23.53	277.40	12.40	-42.0	-43.9	18.0	0.00e+00	0	39	0	0	56	4279
2026-01-05 12:11:24.67	277.62	12.41	-41.9	-43.9	17.9	0.00e+00	0	39	0	0	55	4515
2026-01-05 12:11:25.53	277.79	12.41	-41.9	-43.9	17.9	0.00e+00	0	39	0	0	55	4506
2026-01-05 12:11:26.68	278.01	12.41	-41.9	-43.9	18.0	0.00e+00	0	39	0	0	55	4494
2026-01-05 12:11:27.54	278.18	12.41	-42.0	-44.0	17.9	0.00e+00	0	39	0	0	55	4556
2026-01-05 12:11:28.69	278.40	12.41	-42.0	-44.0	17.8	0.00e+00	0	39	0	0	55	4577
2026-01-05 12:11:29.55	278.57	12.41	-42.1	-44.0	17.8	0.00e+00	0	39	0	0	55	4590
2026-01-05 12:11:30.69	278.79	12.41	-42.1	-44.1	17.7	0.00e+00	0	39	0	0	55	4607
2026-01-05 12:11:31.55	278.96	12.41	-42.2	-44.2	17.6	0.00e+00	0	39	0	0	55	4652
2026-01-05 12:11:32.70	279.18	12.41	-42.2	-44.2	17.6	0.00e+00	0	39	0	0	55	4679
2026-01-05 12:11:33.56	279.35	12.41	-42.2	-44.2	17.6	0.00e+00	0	39	0	0	55	4666
2026-01-05 12:11:34.71	279.57	12.41	-42.1	-44.0	17.7	0.00e+00	0	39	0	0	55	4596
2026-01-05 12:11:35.56	279.74	12.41	-42.1	-44.1	17.6	0.00e+00	0	39	0	0	55	4640
2026-01-05 12:11:36.71	279.96	12.41	-42.2	-44.2	17.6	0.00e+00	0	39	0	0	55	4671
2026-01-05 12:11:37.57	280.13	12.40	-42.1	-44.1	17.7	0.00e+00	0	39	0	0	55	4612
2026-01-05 12:11:38.72	280.35	12.40	-42.1	-44.0	17.7	0.00e+00	0	39	0	0	55	4592
2026-01-05 12:11:39.58	280.52	12.40	-42.2	-44.2	17.6	0.00e+00	0	39	0	0	55	4664
2026-01-05 12:11:40.73	280.74	12.40	-42.0	-43.9	17.9	0.00e+00	0	39	0	0	55	4541
2026-01-05 12:11:41.59	280.91	12.39	-42.0	-43.9	17.9	0.00e+00	0	39	0	0	55	4526
2026-01-05 12:11:42.73	281.13	12.39	-42.0	-44.0	17.8	0.00e+00	0	39	0	0	55	4546
2026-01-05 12:11:43.59	281.30	12.39	-42.0	-43.9	17.8	0.00e+00	0	39	0	0	55	4541
2026-01-05 12:11:44.95	281.56	12.38	-42.1	-44.0	17.7	0.00e+00	0	39	0	0	55	4595
2026-01-05 12:11:45.66	281.70	12.38	-42.1	-44.1	17.7	0.00e+00	0	39	0	0	55	4624
2026-01-05 12:11:46.95	281.95	12.37	-42.1	-44.0	17.7	0.00e+00	0	39	0	0	55	4591
2026-01-05 12:11:47.67	282.09	12.37	-42.1	-44.0	17.7	0.00e+00	0	39	0	0	55	4596
2026-01-05 12:11:48.96	282.34	12.36	-42.1	-44.1	17.7	0.00e+00	0	39	0	0	55	4611
2026-01-05 12:11:49.67	282.48	12.36	-42.2	-44.1	17.7	0.00e+00	0	39	0	0	55	4639
2026-01-05 12:11:50.96	282.73	12.35	-42.2	-44.2	17.6	0.00e+00	0	39	0	0	55	4682
2026-01-05 12:11:51.68	282.87	12.35	-42.1	-44.1	17.7	0.00e+00	0	39	0	0	55	4615
2026-01-05 12:11:52.97	283.12	12.34	-42.1	-44.1	17.7	0.00e+00	0	39	0	0	55	4624
2026-01-05 12:11:53.68	283.26	12.33	-42.2	-44.1	17.6	0.00e+00	0	39	0	0	55	4637
2026-01-05 12:11:54.97	283.51	12.32	-42.2	-44.2	17.7	0.00e+00	0	39	0	0	55	4653
2026-01-05 12:11:55.69	283.65	12.32	-42.2	-44.1	17.7	0.00e+00	0	39	0	0	55	4631
2026-01-05 12:11:56.98	283.89	12.31	-42.3	-44.3	17.5	0.00e+00	0	39	0	0	55	4715
2026-01-05 12:11:57.69	284.03	12.30	-42.2	-44.2	17.6	0.00e+00	0	39	0	0	55	4684
2026-01-05 12:11:58.98	284.28	12.29	-42.2	-44.2	17.6	0.00e+00	0	39	0	0	55	4688
2026-01-05 12:11:59.70	284.42	12.29	-42.3	-44.3	17.5	0.00e+00	0	39	0	0	55	4732
2026-01-05 12:12:00.99	284.67	12.28	-42.2	-44.2	17.6	0.00e+00	0	39	0	0	55	4662
2026-01-05 12:12:01.70	284.80	12.27	-42.3	-44.3	17.6	0.00e+00	0	39	0	0	55	4710
2026-01-05 12:12:02.99	285.05	12.26	-42.4	-44.5	17.4	0.00e+00	0	39	0	0	55	4825
2026-01-05 12:12:03.71	285.19	12.25	-42.3	-44.4	17.4	0.00e+00	0	39	0	0	55	4784
2026-01-05 12:12:05.00	285.44	12.24	-42.4	-44.4	17.4	0.00e+00	0	39	0	0	55	4804
2026-01-05 12:12:05.72	285.58	12.23	-42.5	-44.5	17.3	0.00e+00	0	39	0	0	55	4868
2026-01-05 12:12:07.01	285.83	12.22	-42.5	-44.5	17.4	0.00e+00	0	39	0	0	55	4845
2026-01-05 12:12:07.72	285.96	12.21	-42.4	-44.5	17.4	0.00e+00	0	39	0	0	55	4837
2026-01-05 12:12:09.08	286.22	12.19	-42.3	-44.4	17.5	0.00e+00	0	39	0	0	55	4769
2026-01-05 12:12:10.05	286.41	12.18	-42.3	-44.3	17.5	0.00e+00	0	39	0	0	55	4754
2026-01-05 12:12:11.05	286.60	12.17	-42.3	-44.3	17.6	0.00e+00	0	39	0	0	55	4720
2026-01-05 12:12:12.05	286.79	12.16	-42.2	-44.2	17.6	0.00e+00	0	39	0	0	55	4689
2026-01-05 12:12:13.05	286.98	12.15	-42.3	-44.3	17.6	0.00e+00	0	39	0	0	55	4722
2026-01-05 12:12:14.06	287.18	12.13	-42.4	-44.4	17.5	0.00e+00	0	39	0	0	55	4776
2026-01-05 12:12:15.06	287.37	12.12	-42.4	-44.4	17.4	0.00e+00	0	39	0	0	55	4812
2026-01-05 12:12:16.06	287.56	12.11	-42.3	-44.3	17.5	0.00e+00	0	39	0	0	55	4725
2026-01-05 12:12:17.16	287.77	12.09	-42.3	-44.3	17.5	0.00e+00	0	39	0	0	55	4751
2026-01-05 12:12:18.03	287.93	12.08	-42.4	-44.4	17.5	0.00e+00	0	39	0	0	55	4777
2026-01-05 12:12:19.18	288.15	12.07	-42.4	-44.4	17.5	0.00e+00	0	39	0	0	55	4761
2026-01-05 12:12:20.12	288.33	12.05	-42.4	-44.4	17.4	0.00e+00	0	39	0	0	55	4798
2026-01-05 12:12:21.30	288.55	12.04	-42.5	-44.5	17.3	0.00e+00	0	39	0	0	55	4848
2026-01-05 12:12:22.16	288.72	12.02	-42.5	-44.5	17.4	0.00e+00	0	39	0	0	55	4843
2026-01-05 12:12:23.51	288.97	12.00	-42.4	-44.4	17.4	0.00e+00	0	39	0	0	55	4814
2026-01-05 12:12:24.23	289.11	11.99	-42.4	-44.4	17.4	0.00e+00	0	39	0	0	55	4788
2026-01-05 12:12:25.52	289.35	11.97	-42.3	-44.3	17.5	0.00e+00	0	39	0	0	55	4731
2026-01-05 12:12:26.23	289.48	11.96	-42.3	-44.2	17.6	0.00e+00	0	39	0	0	55	4705
2026-01-05 12:12:27.52	289.73	11.94	-42.2	-44.2	17.6	0.00e+00	0	39	0	0	55	4683
2026-01-05 12:12:28.23	289.86	11.93	-42.3	-44.3	17.5	0.00e+00	0	39	0	0	55	4741
2026-01-05 12:12:29.52	290.10	11.91	-42.4	-44.5	17.4	0.00e+00	0	39	0	0	55	4818
2026-01-05 12:12:30.24	290.24	11.89	-42.4	-44.4	17.4	0.00e+00	0	39	0	0	55	4814
2026-01-05 12:12:31.53	290.48	11.87	-42.6	-44.7	17.2	0.00e+00	0	39	0	0	55	4952
2026-01-05 12:12:32.24	290.61	11.86	-42.6	-44.7	17.2	0.00e+00	0	39	0	0	55	4952
2026-01-05 12:12:33.53	290.86	11.84	-42.8	-44.8	17.2	0.00e+00	0	39	0	0	56	4758
2026-01-05 12:12:34.25	290.99	11.82	-42.8	-44.8	17.2	0.00e+00	0	39	0	0	56	4736
2026-01-05 12:12:35.54	291.23	11.80	-42.8	-44.8	17.2	0.00e+00	0	39	0	0	56	4742
2026-01-05 12:12:36.26	291.37	11.79	-42.8	-44.9	17.2	0.00e+00	0	39	0	0	56	4766
2026-01-05 12:12:37.54	291.60	11.76	-42.7	-44.7	17.2	0.00e+00	0	39	0	0	56	4692
2026-01-05 12:12:38.26	291.74	11.75	-42.7	-44.7	17.2	0.00e+00	0	39	0	0	56	4686
2026-01-05 12:12:39.55	291.98	11.72	-42.8	-44.8	17.2	0.00e+00	0	39	0	0	56	4738
2026-01-05 12:12:40.26	292.11	11.71	-42.8	-44.8	17.2	0.00e+00	0	39	0	0	56	4752
2026-01-05 12:12:41.55	292.35	11.68	-42.8	-44.8	17.2	0.00e+00	0	39	0	0	56	4748
2026-01-05 12:12:42.27	292.48	11.67	-42.9	-44.9	17.1	0.00e+00	0	39	0	0	56	4814
2026-01-05 12:12:43.56	292.72	11.64	-42.8	-44.9	17.1	0.00e+00	0	39	0	0	56	4766
2026-01-05 12:12:44.28	292.85	11.63	-42.8	-44.9	17.1	0.00e+00	0	39	0	0	56	4803
2026-01-05 12:12:45.57	293.09	11.60	-42.8	-44.8	17.1	0.00e+00	0	39	0	0	56	4744
2026-01-05 12:12:46.28	293.22	11.59	-42.8	-44.8	17.1	0.00e+00	0	39	0	0	56	4758
2026-01-05 12:12:47.57	293.46	11.56	-42.8	-44.9	17.0	0.00e+00	0	39	0	0	56	4796
2026-01-05 12:12:48.29	293.59	11.54	-42.8	-44.9	17.1	0.00e+00	0	39	0	0	56	4787
2026-01-05 12:12:49.69	293.85	11.51	-42.9	-45.0	17.0	0.00e+00	0	39	0	0	56	4828
2026-01-05 12:12:50.41	293.98	11.50	-42.9	-45.0	17.0	0.00e+00	0	39	0	0	56	4830
2026-01-05 12:12:51.76	294.23	11.47	-42.8	-44.9	17.1	0.00e+00	0	39	0	0	56	4782
2026-01-05 12:12:52.48	294.36	11.45	-42.8	-44.9	17.1	0.00e+00	0	39	0	0	56	4796
2026-01-05 12:12:53.77	294.59	11.42	-42.8	-44.9	17.1	0.00e+00	0	39	0	0	56	4778
2026-01-05 12:12:54.49	294.72	11.40	-42.9	-44.9	17.0	0.00e+00	0	39	0	0	56	4811
2026-01-05 12:12:55.78	294.96	11.37	-42.9	-45.0	17.0	0.00e+00	0	39	0	0	56	4842
2026-01-05 12:12:56.49	295.09	11.36	-42.9	-45.0	16.9	0.00e+00	0	39	0	0	56	4854
2026-01-05 12:12:57.78	295.32	11.33	-43.0	-45.1	16.8	0.00e+00	0	39	0	0	56	4912
2026-01-05 12:12:58.49	295.45	11.31	-43.0	-45.1	16.8	0.00e+00	0	39	0	0	56	4915
2026-01-05 12:12:59.78	295.68	11.28	-43.0	-45.1	16.8	0.00e+00	0	39	0	0	56	4924
2026-01-05 12:13:00.50	295.81	11.26	-43.0	-45.1	16.9	0.00e+00	0	39	0	0	56	4891
2026-01-05 12:13:01.79	296.04	11.23	-43.0	-45.1	16.9	0.00e+00	0	39	0	0	56	4901
2026-01-05 12:13:02.51	296.17	11.21	-43.0	-45.1	16.9	0.00e+00	0	39	0	0	56	4894
2026-01-05 12:13:03.79	296.40	11.18	-42.8	-44.9	17.1	0.00e+00	0	39	0	0	56	4812
2026-01-05 12:13:04.51	296.53	11.16	-42.8	-44.9	17.1	0.00e+00	0	39	0	0	56	4775
2026-01-05 12:13:05.80	296.76	11.13	-42.9	-45.0	17.0	0.00e+00	0	39	0	0	56	4832
2026-01-05 12:13:06.51	296.89	11.11	-43.0	-45.1	16.9	0.00e+00	0	39	0	0	56	4872
2026-01-05 12:13:07.80	297.11	11.08	-42.9	-45.0	17.0	0.00e+00	0	39	0	0	56	4832
2026-01-05 12:13:08.52	297.24	11.06	-42.9	-45.0	16.9	0.00e+00	0	39	0	0	56	4854
2026-01-05 12:13:09.81	297.47	11.02	-42.9	-44.9	17.0	0.00e+00	0	39	0	0	56	4813
2026-01-05 12:13:10.52	297.60	11.01	-42.9	-45.0	17.0	0.00e+00	0	39	0	0	56	4846
2026-01-05 12:13:11.81	297.82	10.97	-43.0	-45.1	16.9	0.00e+00	0	39	0	0	56	4886
2026-01-05 12:13:12.56	297.96	10.95	-43.0	-45.1	16.8	0.00e+00	0	39	0	0	56	4918
2026-01-05 12:13:13.85	298.18	10.92	-43.0	-45.1	16.9	0.00e+00	0	39	0	0	56	4920
2026-01-05 12:13:14.57	298.31	10.90	-43.1	-45.2	16.8	0.00e+00	0	39	0	0	56	4948
2026-01-05 12:13:15.86	298.54	10.86	-43.1	-45.3	16.7	0.00e+00	0	39	0	0	56	4990
2026-01-05 12:13:16.70	298.68	10.84	-43.1	-45.2	16.8	0.00e+00	0	39	0	0	56	4963
2026-01-05 12:13:17.85	298.88	10.80	-43.2	-45.4	16.6	0.00e+00	0	39	0	0	56	5052
2026-01-05 12:13:18.71	299.03	10.78	-43.1	-45.3	16.7	0.00e+00	0	39	0	0	57	4718
2026-01-05 12:13:19.85	299.23	10.75	-43.1	-45.3	16.7	0.00e+00	0	39	0	0	57	4716
2026-01-05 12:13:20.72	299.38	10.72	-43.1	-45.3	16.7	0.00e+00	0	39	0	0	57	4715
2026-01-05 12:13:21.86	299.58	10.69	-43.0	-45.2	16.8	0.00e+00	0	39	0	0	57	4665
2026-01-05 12:13:22.72	299.73	10.66	-43.1	-45.2	16.8	0.00e+00	0	39	0	0	57	4677
2026-01-05 12:13:23.86	299.93	10.63	-43.0	-45.2	16.8	0.00e+00	0	39	0	0	57	4653
2026-01-05 12:13:24.72	300.08	10.61	-43.0	-45.1	16.9	0.00e+00	0	39	0	0	57	4604
2026-01-05 12:13:25.95	300.29	10.57	-43.1	-45.2	16.7	0.00e+00	0	39	0	0	57	4696
2026-01-05 12:13:26.80	300.43	10.54	-43.1	-45.2	16.8	0.00e+00	0	39	0	0	57	4671
2026-01-05 12:13:27.95	300.63	10.51	-43.0	-45.2	16.8	0.00e+00	0	39	0	0	57	4656
2026-01-05 12:13:28.81	300.78	10.48	-43.1	-45.2	16.8	0.00e+00	0	39	0	0	57	4665
2026-01-05 12:13:29.95	300.97	10.45	-43.2	-45.3	16.6	0.00e+00	0	39	0	0	57	4751
2026-01-05 12:13:30.88	301.13	10.42	-43.3	-45.5	16.5	0.00e+00	0	39	0	0	57	4824
2026-01-05 12:13:31.88	301.30	10.39	-43.2	-45.4	16.6	0.00e+00	0	39	0	0	57	4789
2026-01-05 12:13:32.88	301.47	10.36	-43.2	-45.3	16.7	0.00e+00	0	39	0	0	57	4729
2026-01-05 12:13:33.88	301.64	10.33	-43.3	-45.5	16.5	0.00e+00	0	39	0	0	57	4818
2026-01-05 12:13:34.89	301.81	10.29	-43.4	-45.6	16.4	0.00e+00	0	39	0	0	57	4909
2026-01-05 12:13:35.89	301.98	10.26	-43.3	-45.4	16.5	0.00e+00	0	39	0	0	57	4810
2026-01-05 12:13:36.89	302.15	10.23	-43.2	-45.4	16.5	0.00e+00	0	39	0	0	57	4795
2026-01-05 12:13:37.90	302.32	10.20	-43.3	-45.5	16.4	0.00e+00	0	39	0	0	57	4869
2026-01-05 12:13:38.90	302.48	10.17	-43.3	-45.5	16.4	0.00e+00	0	39	0	0	57	4831
2026-01-05 12:13:39.90	302.65	10.14	-43.3	-45.5	16.4	0.00e+00	0	39	0	0	57	4868
2026-01-05 12:13:40.95	302.82	10.10	-43.4	-45.6	16.3	0.00e+00	0	39	0	0	57	4924
2026-01-05 12:13:41.92	302.99	10.07	-43.4	-45.6	16.3	0.00e+00	0	39	0	0	57	4924
2026-01-05 12:13:42.92	303.15	10.04	-43.4	-45.7	16.3	0.00e+00	0	39	0	0	57	4943
2026-01-05 12:13:43.93	303.32	10.00	-43.3	-45.5	16.5	0.00e+00	0	39	0	0	57	4821
2026-01-05 12:13:44.93	303.48	9.97	-43.4	-45.6	16.3	0.00e+00	0	39	0	0	57	4921
2026-01-05 12:13:45.93	303.65	9.94	-43.3	-45.5	16.4	0.00e+00	0	39	0	0	57	4843
2026-01-05 12:13:46.93	303.81	9.90	-43.3	-45.5	16.4	0.00e+00	0	39	0	0	57	4852
2026-01-05 12:13:47.93	303.98	9.87	-43.3	-45.6	16.3	0.00e+00	0	39	0	0	57	4888
2026-01-05 12:13:48.94	304.14	9.84	-43.3	-45.5	16.4	0.00e+00	0	39	0	0	57	4863
2026-01-05 12:13:49.94	304.31	9.80	-43.3	-45.5	16.4	0.00e+00	0	39	0	0	57	4861
2026-01-05 12:13:50.94	304.47	9.77	-43.3	-45.5	16.4	0.00e+00	0	39	0	0	57	4868
2026-01-05 12:13:51.94	304.63	9.73	-43.2	-45.4	16.5	0.00e+00	0	39	0	0	57	4811
2026-01-05 12:13:52.95	304.80	9.70	-43.2	-45.4	16.5	0.00e+00	0	39	0	0	57	4791
2026-01-05 12:13:53.94	304.96	9.67	-43.3	-45.4	16.4	0.00e+00	0	39	0	0	57	4812
2026-01-05 12:13:54.95	305.12	9.63	-43.3	-45.5	16.3	0.00e+00	0	39	0	0	57	4868
2026-01-05 12:13:55.95	305.28	9.60	-43.3	-45.5	16.4	0.00e+00	0	39	0	0	57	4824
2026-01-05 12:13:56.95	305.44	9.56	-43.2	-45.3	16.5	0.00e+00	0	39	0	0	57	4753
2026-01-05 12:13:57.96	305.60	9.53	-43.3	-45.5	16.5	0.00e+00	0	39	0	0	57	4827
2026-01-05 12:13:58.96	305.76	9.49	-43.2	-45.4	16.5	0.00e+00	0	39	0	0	57	4786
2026-01-05 12:13:59.96	305.92	9.46	-43.3	-45.5	16.4	0.00e+00	0	39	0	0	57	4844
2026-01-05 12:14:00.96	306.08	9.42	-43.3	-45.6	16.4	0.00e+00	0	39	0	0	57	4883
2026-01-05 12:14:01.97	306.24	9.38	-43.3	-45.6	16.4	0.00e+00	0	39	0	0	57	4888
2026-01-05 12:14:02.97	306.40	9.35	-43.5	-45.8	16.2	0.00e+00	0	39	0	0	57	4996
2026-01-05 12:14:03.97	306.56	9.31	-43.5	-45.8	16.2	0.00e+00	0	39	0	0	57	5012
2026-01-05 12:14:04.98	306.72	9.28	-43.7	-46.0	16.0	0.00e+00	0	39	0	0	58	4854
2026-01-05 12:14:05.98	306.88	9.24	-43.6	-45.9	16.1	0.00e+00	0	39	0	0	58	4780
2026-01-05 12:14:06.98	307.03	9.20	-43.6	-45.9	16.1	0.00e+00	0	39	0	0	58	4814
2026-01-05 12:14:07.98	307.19	9.17	-43.7	-46.0	16.0	0.00e+00	0	39	0	0	58	4831
2026-01-05 12:14:08.98	307.35	9.13	-43.6	-45.9	16.1	0.00e+00	0	39	0	0	58	4795
2026-01-05 12:14:09.98	307.50	9.09	-43.6	-45.9	16.0	0.00e+00	0	39	0	0	58	4808
2026-01-05 12:14:10.99	307.66	9.06	-43.6	-46.0	16.0	0.00e+00	0	39	0	0	58	4817
2026-01-05 12:14:11.99	307.81	9.02	-43.7	-46.0	16.0	0.00e+00	0	39	0	0	58	4837
2026-01-05 12:14:13.00	307.97	8.98	-50.1	-62.5	3.8	4.82e-02	0	39	104	0	70	16305
2026-01-05 12:14:14.00	308.12	8.94	-50.4	-63.6	3.8	1.49e+00	0	39	104	0	71	17324
2026-01-05 12:14:15.00	308.28	8.91	-50.7	-63.7	3.8	1.49e+00	0	39	104	0	71	17671
2026-01-05 12:14:16.01	308.43	8.87	-50.7	-63.8	3.8	1.49e+00	0	39	104	0	72	16812
2026-01-05 12:14:17.01	308.59	8.83	-50.7	-63.9	3.8	1.49e+00	0	39	104	0	72	16946
2026-01-05 12:14:18.01	308.74	8.79	-50.8	-63.9	3.8	1.49e+00	0	39	104	0	72	16983
2026-01-05 12:14:19.02	308.89	8.76	-50.7	-63.9	3.8	1.49e+00	0	39	104	0	72	17036
2026-01-05 12:14:20.02	309.04	8.72	-50.6	-63.9	3.8	1.49e+00	0	39	104	0	72	17052
2026-01-05 12:14:21.03	309.20	8.68	-50.9	-64.0	3.8	1.49e+00	0	39	104	0	72	17122
2026-01-05 12:14:22.03	309.35	8.64	-51.0	-63.9	3.8	1.49e+00	0	39	104	0	72	17046
2026-01-05 12:14:23.04	309.50	8.60	-50.9	-64.0	3.8	1.49e+00	0	39	104	0	72	17102
2026-01-05 12:14:24.04	309.65	8.56	-50.8	-64.0	3.8	1.49e+00	0	39	104	0	72	17158
2026-01-05 12:14:25.05	309.80	8.53	-50.9	-64.0	3.8	1.49e+00	0	39	104	0	72	17248
2026-01-05 12:14:26.05	309.95	8.49	-51.0	-64.0	3.8	1.49e+00	0	39	104	0	72	17211
2026-01-05 12:14:27.05	310.10	8.45	-50.8	-64.0	3.8	1.49e+00	0	39	104	0	72	17136
2026-01-05 12:14:28.06	310.25	8.41	-50.9	-64.0	3.8	1.49e+00	0	39	104	0	72	17211
2026-01-05 12:14:29.06	310.40	8.37	-50.9	-64.0	3.8	1.49e+00	0	39	104	0	72	17170
2026-01-05 12:14:30.07	310.55	8.33	-51.0	-64.0	3.8	1.49e+00	0	39	104	0	72	17123
2026-01-05 12:14:31.07	310.70	8.29	-50.9	-64.0	3.8	1.49e+00	0	39	104	0	72	17136
2026-01-05 12:14:32.08	310.85	8.25	-50.8	-63.9	3.8	1.49e+00	0	39	104	0	72	17045
2026-01-05 12:14:33.08	310.99	8.21	-50.7	-63.9	3.8	1.49e+00	0	39	104	0	72	17046
2026-01-05 12:14:34.08	311.14	8.17	-50.7	-63.9	3.8	1.49e+00	0	39	104	0	72	16993
2026-01-05 12:14:35.09	311.29	8.13	-50.6	-63.9	3.8	1.49e+00	0	39	104	0	72	17010
2026-01-05 12:14:36.09	311.43	8.09	-50.6	-63.9	3.8	1.49e+00	0	39	104	0	72	17003
2026-01-05 12:14:37.10	311.58	8.05	-50.6	-63.9	3.8	1.49e+00	0	39	104	0	72	16997
2026-01-05 12:14:38.10	311.73	8.01	-50.6	-63.9	3.8	1.49e+00	0	39	104	0	72	17003
2026-01-05 12:14:39.10	311.87	7.97	-50.6	-63.9	3.8	1.49e+00	0	39	104	0	72	17009
2026-01-05 12:14:40.11	312.02	7.93	-50.6	-63.9	3.8	1.49e+00	0	39	104	0	72	16974
2026-01-05 12:14:41.11	312.16	7.89	-50.6	-63.9	3.8	1.49e+00	0	39	104	0	72	17022
2026-01-05 12:14:42.12	312.30	7.85	-50.6	-63.9	3.8	1.49e+00	0	39	104	0	72	16981
2026-01-05 12:14:43.12	312.45	7.81	-50.6	-63.9	3.8	1.49e+00	0	39	104	0	72	16981
2026-01-05 12:14:44.13	312.59	7.77	-50.6	-63.9	3.8	1.49e+00	0	39	104	0	72	16948
2026-01-05 12:14:45.13	312.73	7.73	-50.6	-63.9	3.8	1.49e+00	0	39	104	0	72	16963
2026-01-05 12:14:46.14	312.88	7.69	-50.6	-63.9	3.8	1.49e+00	0	39	104	0	72	17016
2026-01-05 12:14:47.14	313.02	7.65	-50.6	-63.9	3.8	1.49e+00	0	39	104	0	72	16908
2026-01-05 12:14:48.14	313.16	7.61	-50.6	-63.9	3.8	1.49e+00	0	39	104	0	72	16906
2026-01-05 12:14:49.15	313.30	7.57	-50.6	-63.9	3.8	1.49e+00	0	39	104	0	72	16969
2026-01-05 12:14:50.15	313.44	7.53	-50.6	-63.9	3.8	1.49e+00	0	39	104	0	72	16896
2026-01-05 12:14:51.16	313.58	7.49	-50.6	-63.9	3.8	1.49e+00	0	39	104	0	72	16896
2026-01-05 12:14:52.16	313.72	7.45	-50.6	-63.9	3.8	1.49e+00	0	39	104	0	72	16892
2026-01-05 12:14:53.16	313.86	7.40	-50.6	-63.9	3.8	1.49e+00	0	40	104	0	72	16915
2026-01-05 12:14:54.17	314.00	7.36	-50.6	-63.9	3.8	1.49e+00	0	39	104	0	72	16952
2026-01-05 12:14:55.17	314.14	7.32	-50.6	-63.9	3.8	1.49e+00	0	39	104	0	72	16921
2026-01-05 12:14:56.18	314.28	7.28	-50.6	-63.9	3.8	1.49e+00	0	39	104	0	72	16975
2026-01-05 12:14:57.18	314.42	7.24	-50.6	-63.9	3.8	1.49e+00	0	39	104	0	72	16971
2026-01-05 12:14:58.18	314.56	7.20	-50.6	-63.9	3.8	1.49e+00	0	39	104	0	72	16924
2026-01-05 12:14:59.19	314.69	7.16	-50.6	-63.9	3.8	1.49e+00	0	39	104	0	72	16910
2026-01-05 12:15:00.19	314.83	7.11	-50.6	-63.9	3.8	1.49e+00	0	39	104	0	72	16949
2026-01-05 12:15:01.20	314.97	7.07	-50.6	-63.9	3.8	1.49e+00	0	39	104	0	72	16925
2026-01-05 12:15:02.20	315.10	7.03	-50.6	-63.9	3.8	1.49e+00	0	39	104	0	72	16933
2026-01-05 12:15:03.21	315.24	6.99	-50.6	-63.9	3.8	1.49e+00	0	39	104	0	72	16896
2026-01-05 12:15:04.21	315.38	6.95	-50.6	-63.9	3.8	1.49e+00	0	39	104	0	72	16945
2026-01-05 12:15:05.22	315.51	6.90	-50.6	-63.9	3.8	1.49e+00	0	39	104	0	72	16908
2026-01-05 12:15:06.22	315.65	6.86	-50.6	-63.9	3.8	1.49e+00	0	39	104	0	72	16889
2026-01-05 12:15:07.22	315.78	6.82	-50.6	-63.8	3.8	1.49e+00	0	39	104	0	72	16881
2026-01-05 12:15:08.22	315.91	6.78	-50.6	-63.9	3.8	1.49e+00	0	39	104	0	72	16893
2026-01-05 12:15:09.23	316.05	6.74	-50.6	-63.8	3.8	1.49e+00	0	39	104	0	72	16857
2026-01-05 12:15:10.23	316.18	6.69	-50.6	-63.9	3.8	1.49e+00	0	39	104	0	72	16929
2026-01-05 12:15:11.24	316.32	6.65	-50.6	-63.8	3.8	1.49e+00	0	39	104	0	72	16884
2026-01-05 12:15:12.24	316.45	6.61	-50.6	-63.8	3.8	1.49e+00	0	39	104	0	72	16886
2026-01-05 12:15:13.25	316.58	6.57	-50.6	-63.9	3.8	1.49e+00	0	39	104	0	72	16894
2026-01-05 12:15:14.25	316.71	6.52	-50.6	-63.9	3.8	1.49e+00	0	39	104	0	72	16980
2026-01-05 12:15:15.25	316.84	6.48	-50.6	-63.9	3.8	1.49e+00	0	39	104	0	72	16942
2026-01-05 12:15:16.26	316.97	6.44	-50.6	-63.8	3.8	1.49e+00	0	39	104	0	72	16887
2026-01-05 12:15:17.26	317.10	6.40	-50.6	-63.9	3.8	1.49e+00	0	39	104	0	72	16894
2026-01-05 12:15:18.27	317.24	6.35	-50.6	-63.9	3.8	1.49e+00	0	39	104	0	72	16914
2026-01-05 12:15:19.27	317.37	6.31	-50.6	-63.8	3.8	1.49e+00	0	39	104	0	72	16871
2026-01-05 12:15:20.28	317.50	6.27	-50.6	-63.9	3.8	1.49e+00	0	39	104	0	72	16961
2026-01-05 12:15:21.28	317.62	6.22	-50.6	-63.9	3.8	1.49e+00	0	39	104	0	72	16910
2026-01-05 12:15:22.29	317.75	6.18	-50.6	-63.9	3.8	1.49e+00	0	39	104	0	72	16955
2026-01-05 12:15:23.29	317.88	6.14	-50.6	-63.9	3.8	1.49e+00	0	39	104	0	72	16908
2026-01-05 12:15:24.29	318.01	6.09	-50.6	-63.8	3.8	1.49e+00	0	39	104	0	72	16887
2026-01-05 12:15:25.30	318.14	6.05	-50.6	-63.8	3.8	1.49e+00	0	39	104	0	72	16886
2026-01-05 12:15:26.30	318.27	6.01	-50.6	-63.9	3.8	1.49e+00	0	39	104	0	72	16908
2026-01-05 12:15:27.31	318.39	5.96	-50.6	-63.9	3.8	1.49e+00	0	39	104	0	72	16909
2026-01-05 12:15:28.31	318.52	5.92	-50.6	-63.9	3.8	1.49e+00	0	39	104	0	72	16930
2026-01-05 12:15:29.32	318.65	5.88	-50.6	-63.9	3.8	1.49e+00	0	39	104	0	72	16933
2026-01-05 12:15:30.32	318.77	5.83	-50.6	-63.9	3.8	1.49e+00	0	39	104	0	72	16909
2026-01-05 12:15:31.32	318.90	5.79	-50.6	-63.9	3.8	1.49e+00	0	39	104	0	72	16930
2026-01-05 12:15:32.33	319.02	5.75	-50.6	-63.8	3.8	1.49e+00	0	39	104	0	72	16878
2026-01-05 12:15:33.33	319.15	5.70	-50.6	-63.9	3.8	1.49e+00	0	39	104	0	72	16896
2026-01-05 12:15:34.34	319.27	5.66	-50.6	-63.9	3.8	1.49e+00	0	39	104	0	72	16938
2026-01-05 12:15:35.34	319.40	5.62	-50.6	-63.9	3.8	1.49e+00	0	39	104	0	72	16896
2026-01-05 12:15:36.35	319.52	5.57	-50.6	-63.9	3.8	1.49e+00	0	39	104	0	72	16909
2026-01-05 12:15:37.35	319.64	5.53	-50.6	-63.9	3.8	1.49e+00	0	39	104	0	72	16914
2026-01-05 12:15:38.36	319.77	5.49	-50.6	-63.9	3.8	1.49e+00	0	39	104	0	72	16931
2026-01-05 12:15:39.36	319.89	5.44	-50.6	-63.8	3.8	1.49e+00	0	39	104	0	72	16869
2026-01-05 12:15:40.36	320.01	5.40	-50.6	-63.9	3.8	1.49e+00	0	39	104	0	72	16996
2026-01-05 12:15:41.37	320.13	5.36	-50.6	-63.9	3.8	1.49e+00	0	39	104	0	72	16946
2026-01-05 12:15:42.37	320.26	5.31	-50.6	-63.9	3.8	1.49e+00	0	39	104	0	72	16958
2026-01-05 12:15:43.38	320.38	5.27	-50.6	-63.9	3.8	1.49e+00	0	39	104	0	72	16929
2026-01-05 12:15:44.38	320.50	5.22	-50.6	-63.9	3.8	1.49e+00	0	39	104	0	72	16911
2026-01-05 12:15:45.38	320.62	5.18	-50.6	-63.9	3.8	1.49e+00	0	39	104	0	72	16905
2026-01-05 12:15:46.39	320.74	5.14	-50.6	-63.8	3.8	1.49e+00	0	39	104	0	72	16882
2026-01-05 12:15:47.39	320.86	5.09	-50.6	-63.9	3.8	1.49e+00	0	39	104	0	72	16932
2026-01-05 12:15:48.40	320.98	5.05	-50.6	-63.9	3.8	1.49e+00	0	39	104	0	72	16985
2026-01-05 12:15:49.40	321.10	5.00	-50.6	-63.9	3.8	1.49e+00	0	39	104	0	72	16892

#Closed at: 2026-01-05 12:15:50
#Recorded file [0 MB]: D:/Data/31040_260105_150715.dat