passes_logs/2026/01/05/T1/T1__20260105_102343_NOAA_21_JPSS-2_rec.log

#Pass ID: 20260105_102343_NOAA 21 (JPSS-2)
#Satellite: NOAA 21 (JPSS-2)
#Configuration: NOAA 21
#almurnet v.1.7.20251203
#Start time: 2026-01-05 10:23:45

#Version: 2.0.20230620
#Station: T1
#Location: 37.570604 lon 55.790049 lat
#TLE: 1 54234U 22150A   26004.22845673  .00000174  00000+0  10347-3 0  9996
#TLE: 2 54234  98.7489 305.2591 0001115 345.0884  15.0259 14.19531906163281

#Time	Az	El	Level	Level2	SNR	BER	BlckErr	Temp	State	Recorded	gain1	gain2
2026-01-05 10:23:45.61	175.14	5.13	-48.7	-63.4	3.8	1.49e+00	0	40	0	0	69	18962
2026-01-05 10:23:46.61	175.17	5.20	-47.5	-63.1	3.8	1.49e+00	0	40	104	0	65	23239
2026-01-05 10:23:47.61	175.20	5.27	-47.5	-63.2	3.8	1.49e+00	0	40	104	0	65	23316
2026-01-05 10:23:48.61	175.22	5.35	-47.5	-63.1	3.8	1.49e+00	0	40	104	0	65	23237
2026-01-05 10:23:49.61	175.25	5.42	-47.5	-63.1	3.8	1.49e+00	0	40	104	0	65	23106
2026-01-05 10:23:50.62	175.28	5.49	-47.4	-63.0	3.8	1.49e+00	0	41	104	0	65	22914
2026-01-05 10:23:51.62	175.31	5.56	-47.5	-63.0	3.8	1.49e+00	0	41	104	0	65	22872
2026-01-05 10:23:52.62	175.34	5.63	-47.5	-62.9	3.8	1.49e+00	0	41	104	0	65	22650
2026-01-05 10:23:53.62	175.37	5.71	-47.5	-62.9	3.8	1.49e+00	0	41	104	0	65	22528
2026-01-05 10:23:54.62	175.40	5.78	-47.4	-62.8	3.8	1.49e+00	0	41	104	0	65	22368
2026-01-05 10:23:55.62	175.42	5.85	-47.4	-62.8	3.8	1.49e+00	0	41	104	0	65	22344
2026-01-05 10:23:56.62	175.45	5.93	-47.4	-62.8	3.8	1.49e+00	0	41	104	0	65	22268
2026-01-05 10:23:57.63	175.48	6.00	-47.4	-62.8	3.8	1.49e+00	0	41	104	0	65	22312
2026-01-05 10:23:58.63	175.51	6.07	-47.4	-62.8	3.8	1.49e+00	0	41	104	0	65	22436
2026-01-05 10:23:59.63	175.54	6.15	-47.5	-62.8	3.8	1.49e+00	0	41	104	0	65	22400
2026-01-05 10:24:00.64	175.57	6.22	-47.3	-62.8	3.8	1.49e+00	0	41	104	0	65	22494
2026-01-05 10:24:01.63	175.60	6.29	-47.4	-62.9	3.8	1.49e+00	0	41	104	0	65	22538
2026-01-05 10:24:02.64	175.63	6.37	-47.4	-62.8	3.8	1.49e+00	0	41	104	0	65	22341
2026-01-05 10:24:03.64	175.66	6.44	-47.3	-62.7	3.8	1.49e+00	0	41	104	0	65	22126
2026-01-05 10:24:04.64	175.69	6.52	-47.3	-62.5	3.8	1.49e+00	0	41	104	0	65	21746
2026-01-05 10:24:05.65	175.72	6.59	-47.3	-62.4	3.8	1.49e+00	0	41	104	0	65	21316
2026-01-05 10:24:06.65	175.75	6.67	-47.4	-62.1	3.8	1.49e+00	0	41	104	0	65	20744
2026-01-05 10:24:07.65	175.78	6.74	-47.2	-61.9	3.8	1.49e+00	0	41	104	0	65	20100
2026-01-05 10:24:08.66	175.81	6.82	-47.3	-61.1	3.9	1.49e+00	0	41	104	0	65	18384
2026-01-05 10:24:09.66	175.84	6.90	-47.2	-61.1	3.8	1.49e+00	0	41	104	0	65	18336
2026-01-05 10:24:10.66	175.88	6.97	-47.1	-60.2	3.9	1.48e+00	0	41	104	0	65	16560
2026-01-05 10:24:11.67	175.91	7.05	-47.1	-59.8	3.9	1.46e+00	0	41	104	0	65	15910
2026-01-05 10:24:12.67	175.94	7.13	-47.1	-59.0	4.0	1.26e+00	0	41	104	0	65	14442
2026-01-05 10:24:13.67	175.97	7.20	-47.0	-57.3	5.1	7.03e-01	0	41	0	0	65	11845
2026-01-05 10:24:14.67	176.00	7.28	-46.8	-56.2	5.8	4.14e-01	0	41	0	0	65	10500
2026-01-05 10:24:15.68	176.03	7.36	-46.6	-55.0	6.8	2.46e-01	0	42	0	0	65	9153
2026-01-05 10:24:16.68	176.07	7.43	-46.3	-53.8	7.9	9.91e-02	0	41	0	0	64	8424
2026-01-05 10:24:17.68	176.10	7.51	-46.1	-52.8	9.0	3.65e-02	0	42	0	0	64	7475
2026-01-05 10:24:18.69	176.13	7.59	-45.9	-51.8	10.0	1.04e-02	0	41	0	0	63	7121
2026-01-05 10:24:19.69	176.16	7.67	-45.7	-51.4	10.5	4.57e-03	0	42	0	0	63	6731
2026-01-05 10:24:20.69	176.20	7.75	-45.5	-50.7	11.1	1.73e-03	0	41	0	0	62	6640
2026-01-05 10:24:21.69	176.23	7.83	-45.2	-50.2	11.6	8.99e-04	0	42	0	0	62	6257
2026-01-05 10:24:22.69	176.26	7.90	-45.1	-50.0	12.0	3.94e-04	0	42	0	0	62	6083
2026-01-05 10:24:23.70	176.29	7.98	-45.1	-50.0	11.9	3.67e-04	0	42	0	0	62	6115
2026-01-05 10:24:24.70	176.33	8.06	-45.1	-50.1	11.9	3.74e-04	0	41	0	0	62	6132
2026-01-05 10:24:25.70	176.36	8.14	-45.2	-50.3	11.6	6.06e-04	0	42	0	0	62	6323
2026-01-05 10:24:26.70	176.39	8.22	-45.4	-50.7	11.2	9.81e-04	0	42	0	0	62	6619
2026-01-05 10:24:27.71	176.43	8.30	-45.6	-51.3	10.6	2.46e-03	0	42	0	0	62	7087
2026-01-05 10:24:28.71	176.46	8.38	-45.8	-51.9	10.0	7.13e-03	0	42	0	0	62	7578
2026-01-05 10:24:29.71	176.50	8.46	-46.0	-52.8	9.1	1.75e-02	0	42	0	0	62	8403
2026-01-05 10:24:30.72	176.53	8.55	-46.3	-54.0	7.9	6.32e-02	0	42	0	0	63	9104
2026-01-05 10:24:31.72	176.57	8.63	-46.6	-55.0	6.9	1.54e-01	0	42	0	0	63	10291
2026-01-05 10:24:32.72	176.60	8.71	-46.8	-56.2	5.9	2.88e-01	0	42	0	0	64	11086
2026-01-05 10:24:33.72	176.64	8.79	-47.0	-57.4	5.1	5.79e-01	0	42	0	0	64	12770
2026-01-05 10:24:34.72	176.67	8.87	-47.1	-59.3	4.0	1.24e+00	0	42	104	0	64	15803
2026-01-05 10:24:35.73	176.71	8.95	-47.2	-59.6	4.2	1.47e+00	0	42	104	0	65	15439
2026-01-05 10:24:36.73	176.74	9.04	-47.3	-60.2	4.1	1.48e+00	0	42	104	0	65	16601
2026-01-05 10:24:37.73	176.78	9.12	-47.6	-57.1	5.2	1.47e+00	0	42	104	0	65	11671
2026-01-05 10:24:38.73	176.81	9.20	-47.5	-59.9	4.1	1.26e+00	0	42	104	0	66	15133
2026-01-05 10:24:39.73	176.85	9.28	-47.8	-60.6	3.9	1.48e+00	0	42	104	0	66	16476
2026-01-05 10:24:40.73	176.88	9.37	-46.9	-52.2	9.5	6.92e-01	0	42	0	0	65	6585
2026-01-05 10:24:41.73	176.92	9.45	-47.7	-60.9	3.9	1.22e+00	0	42	104	0	66	16959
2026-01-05 10:24:42.73	176.96	9.53	-47.7	-54.3	7.3	8.35e-01	0	42	104	0	67	7466
2026-01-05 10:24:43.73	176.99	9.62	-45.5	-49.0	13.0	4.14e-04	0	42	0	0	63	5124
2026-01-05 10:24:44.73	177.03	9.70	-43.7	-46.4	15.5	0.00e+00	0	42	0	0	59	4772
2026-01-05 10:24:45.73	177.07	9.79	-43.1	-45.5	16.3	0.00e+00	0	42	0	0	58	4590
2026-01-05 10:24:46.73	177.10	9.87	-42.7	-45.1	16.7	0.00e+00	0	42	0	0	57	4648
2026-01-05 10:24:47.73	177.14	9.96	-42.7	-45.1	16.8	0.00e+00	0	42	0	0	57	4613
2026-01-05 10:24:48.74	177.18	10.04	-42.7	-45.2	16.7	0.00e+00	0	42	0	0	57	4660
2026-01-05 10:24:49.74	177.22	10.13	-42.5	-44.9	17.0	0.00e+00	0	42	0	0	57	4526
2026-01-05 10:24:50.74	177.26	10.22	-42.5	-44.9	17.0	0.00e+00	0	42	0	0	57	4511
2026-01-05 10:24:51.75	177.29	10.30	-42.3	-44.6	17.3	0.00e+00	0	42	0	0	56	4618
2026-01-05 10:24:52.75	177.33	10.39	-42.2	-44.4	17.4	0.00e+00	0	42	0	0	56	4532
2026-01-05 10:24:53.75	177.37	10.48	-42.1	-44.4	17.4	0.00e+00	0	42	0	0	56	4515
2026-01-05 10:24:54.75	177.41	10.56	-42.2	-44.5	17.4	0.00e+00	0	42	0	0	56	4558
2026-01-05 10:24:55.75	177.45	10.65	-42.1	-44.3	17.5	0.00e+00	0	42	0	0	56	4474
2026-01-05 10:24:56.76	177.49	10.74	-42.2	-44.3	17.5	0.00e+00	0	42	0	0	56	4477
2026-01-05 10:24:57.76	177.53	10.83	-42.1	-44.2	17.6	0.00e+00	0	42	0	0	56	4423
2026-01-05 10:24:58.76	177.57	10.92	-42.0	-44.1	17.7	0.00e+00	0	42	0	0	56	4376
2026-01-05 10:24:59.76	177.61	11.01	-42.2	-44.3	17.6	0.00e+00	0	42	0	0	56	4458
2026-01-05 10:25:00.76	177.65	11.10	-42.0	-44.1	17.8	0.00e+00	0	42	0	0	56	4341
2026-01-05 10:25:01.76	177.69	11.19	-41.8	-43.8	17.8	0.00e+00	0	42	0	0	55	4486
2026-01-05 10:25:02.76	177.73	11.28	-41.9	-43.9	17.8	0.00e+00	0	42	0	0	55	4510
2026-01-05 10:25:03.76	177.77	11.37	-41.8	-43.8	17.8	0.00e+00	0	42	0	0	55	4472
2026-01-05 10:25:04.76	177.81	11.46	-41.8	-43.9	17.8	0.00e+00	0	42	0	0	55	4495
2026-01-05 10:25:05.77	177.85	11.55	-41.9	-43.9	17.8	0.00e+00	0	42	0	0	55	4537
2026-01-05 10:25:06.76	177.90	11.64	-42.0	-44.0	17.7	0.00e+00	0	42	0	0	55	4556
2026-01-05 10:25:07.76	177.94	11.73	-41.7	-43.7	17.9	0.00e+00	0	42	0	0	55	4415
2026-01-05 10:25:08.77	177.98	11.82	-41.7	-43.7	18.0	0.00e+00	0	42	0	0	55	4413
2026-01-05 10:25:09.77	178.02	11.91	-41.8	-43.8	17.9	0.00e+00	0	42	0	0	55	4449
2026-01-05 10:25:10.77	178.06	12.01	-41.8	-43.7	18.0	0.00e+00	0	42	0	0	55	4428
2026-01-05 10:25:11.77	178.11	12.10	-41.6	-43.6	18.1	0.00e+00	0	42	0	0	55	4342
2026-01-05 10:25:12.77	178.15	12.19	-41.6	-43.5	18.1	0.00e+00	0	42	0	0	55	4324
2026-01-05 10:25:13.77	178.19	12.29	-41.5	-43.5	18.2	0.00e+00	0	43	0	0	55	4303
2026-01-05 10:25:14.77	178.24	12.38	-41.6	-43.5	18.1	0.00e+00	0	42	0	0	55	4326
2026-01-05 10:25:15.78	178.28	12.47	-41.6	-43.6	18.1	0.00e+00	0	42	0	0	55	4341
2026-01-05 10:25:16.78	178.33	12.57	-41.4	-43.4	18.3	0.00e+00	0	42	0	0	54	4508
2026-01-05 10:25:17.78	178.37	12.66	-41.5	-43.4	18.2	0.00e+00	0	43	0	0	54	4535
2026-01-05 10:25:18.78	178.42	12.76	-41.5	-43.4	18.3	0.00e+00	0	42	0	0	54	4522
2026-01-05 10:25:19.78	178.46	12.85	-41.5	-43.4	18.2	0.00e+00	0	42	0	0	54	4537
2026-01-05 10:25:20.78	178.51	12.95	-41.5	-43.4	18.3	0.00e+00	0	42	0	0	54	4504
2026-01-05 10:25:21.78	178.55	13.05	-41.4	-43.3	18.3	0.00e+00	0	43	0	0	54	4481
2026-01-05 10:25:22.78	178.60	13.14	-41.6	-43.5	18.2	0.00e+00	0	42	0	0	54	4580
2026-01-05 10:25:23.78	178.64	13.24	-41.5	-43.4	18.3	0.00e+00	0	42	0	0	54	4535
2026-01-05 10:25:24.79	178.69	13.34	-41.5	-43.4	18.3	0.00e+00	0	42	0	0	54	4519
2026-01-05 10:25:25.79	178.74	13.44	-41.4	-43.3	18.4	0.00e+00	0	42	0	0	54	4478
2026-01-05 10:25:26.78	178.78	13.53	-41.3	-43.2	18.5	0.00e+00	0	42	0	0	54	4402
2026-01-05 10:25:27.78	178.83	13.63	-41.4	-43.3	18.5	0.00e+00	0	43	0	0	54	4453
2026-01-05 10:25:28.79	178.88	13.73	-41.4	-43.3	18.4	0.00e+00	0	42	0	0	54	4459
2026-01-05 10:25:29.79	178.93	13.83	-41.3	-43.2	18.5	0.00e+00	0	42	0	0	54	4400
2026-01-05 10:25:30.79	178.97	13.93	-41.3	-43.2	18.5	0.00e+00	0	43	0	0	54	4410
2026-01-05 10:25:31.78	179.02	14.03	-41.4	-43.3	18.4	0.00e+00	0	43	0	0	54	4492
2026-01-05 10:25:32.79	179.07	14.13	-41.3	-43.2	18.6	0.00e+00	0	43	0	0	54	4399
2026-01-05 10:25:33.79	179.12	14.23	-41.3	-43.2	18.5	0.00e+00	0	42	0	0	54	4432
2026-01-05 10:25:34.79	179.17	14.33	-41.4	-43.3	18.5	0.00e+00	0	42	0	0	54	4458
2026-01-05 10:25:35.78	179.22	14.43	-41.4	-43.3	18.5	0.00e+00	0	43	0	0	54	4447
2026-01-05 10:25:36.79	179.27	14.54	-41.3	-43.2	18.6	0.00e+00	0	43	0	0	54	4404
2026-01-05 10:25:37.79	179.32	14.64	-41.3	-43.2	18.5	0.00e+00	0	42	0	0	54	4400
2026-01-05 10:25:38.79	179.37	14.74	-41.3	-43.2	18.5	0.00e+00	0	43	0	0	54	4434
2026-01-05 10:25:39.79	179.42	14.85	-41.3	-43.2	18.4	0.00e+00	0	42	0	0	54	4431
2026-01-05 10:25:40.79	179.47	14.95	-41.4	-43.2	18.5	0.00e+00	0	42	0	0	54	4441
2026-01-05 10:25:41.79	179.52	15.05	-41.4	-43.3	18.4	0.00e+00	0	43	0	0	54	4491
2026-01-05 10:25:42.86	179.58	15.17	-41.3	-43.2	18.5	0.00e+00	0	43	0	0	54	4434
2026-01-05 10:25:43.77	179.63	15.26	-41.3	-43.2	18.5	0.00e+00	0	42	0	0	54	4426
2026-01-05 10:25:44.77	179.68	15.37	-41.3	-43.2	18.5	0.00e+00	0	42	0	0	54	4427
2026-01-05 10:25:45.77	179.73	15.47	-41.3	-43.2	18.6	0.00e+00	0	42	0	0	54	4393
2026-01-05 10:25:46.77	179.79	15.58	-41.3	-43.1	18.6	0.00e+00	0	42	0	0	54	4383
2026-01-05 10:25:47.78	179.84	15.69	-41.3	-43.2	18.5	0.00e+00	0	42	0	0	54	4418
2026-01-05 10:25:48.78	179.89	15.79	-41.4	-43.2	18.5	0.00e+00	0	43	0	0	54	4430
2026-01-05 10:25:49.78	179.95	15.90	-41.3	-43.2	18.5	0.00e+00	0	43	0	0	54	4418
2026-01-05 10:25:50.78	180.00	16.01	-41.3	-43.2	18.6	0.00e+00	0	43	0	0	54	4403
2026-01-05 10:25:51.79	180.06	16.12	-41.4	-43.2	18.5	0.00e+00	0	43	0	0	54	4429
2026-01-05 10:25:52.79	180.11	16.23	-41.3	-43.2	18.6	0.00e+00	0	43	0	0	54	4407
2026-01-05 10:25:53.79	180.17	16.34	-41.4	-43.3	18.5	0.00e+00	0	43	0	0	54	4450
2026-01-05 10:25:54.84	180.23	16.45	-41.3	-43.2	18.5	0.00e+00	0	42	0	0	54	4411
2026-01-05 10:25:55.76	180.28	16.56	-41.5	-43.3	18.4	0.00e+00	0	42	0	0	54	4485
2026-01-05 10:25:56.77	180.34	16.67	-41.4	-43.3	18.5	0.00e+00	0	43	0	0	54	4466
2026-01-05 10:25:57.93	180.41	16.80	-41.4	-43.3	18.5	0.00e+00	0	42	0	0	54	4470
2026-01-05 10:25:58.79	180.46	16.89	-41.4	-43.3	18.4	0.00e+00	0	42	0	0	54	4484
2026-01-05 10:25:59.94	180.52	17.02	-41.6	-43.4	17.3	0.00e+00	0	43	0	0	54	4540
2026-01-05 10:26:00.80	180.57	17.12	-41.6	-43.5	18.3	0.00e+00	0	42	0	0	54	4550
2026-01-05 10:26:01.94	180.64	17.25	-41.8	-43.7	18.1	0.00e+00	0	43	0	0	54	4680
2026-01-05 10:26:02.80	180.69	17.35	-41.7	-43.7	16.8	0.00e+00	0	43	0	0	54	4674
2026-01-05 10:26:03.95	180.76	17.48	-41.8	-43.7	18.1	0.00e+00	0	43	0	0	54	4672
2026-01-05 10:26:04.81	180.81	17.58	-41.7	-43.7	18.2	0.00e+00	0	42	0	0	54	4659
2026-01-05 10:26:05.95	180.88	17.71	-41.7	-43.6	18.2	1.71e-03	0	43	0	0	54	4619
2026-01-05 10:26:06.81	180.94	17.81	-41.7	-43.6	18.2	0.00e+00	0	43	0	0	54	4610
2026-01-05 10:26:08.01	181.01	17.95	-41.7	-43.7	18.1	0.00e+00	0	43	0	0	54	4653
2026-01-05 10:26:08.87	181.06	18.05	-41.7	-43.6	18.2	0.00e+00	0	43	0	0	54	4612
2026-01-05 10:26:10.11	181.14	18.20	-41.7	-43.6	18.2	0.00e+00	0	43	0	0	54	4634
2026-01-05 10:26:10.96	181.19	18.30	-41.6	-43.6	18.2	0.00e+00	0	43	0	0	54	4599
2026-01-05 10:26:12.11	181.27	18.43	-41.7	-43.6	18.2	0.00e+00	0	43	0	0	54	4618
2026-01-05 10:26:12.96	181.32	18.53	-41.7	-43.6	18.3	0.00e+00	0	42	0	0	54	4606
2026-01-05 10:26:14.11	181.40	18.67	-41.5	-43.4	18.4	0.00e+00	0	43	0	0	54	4517
2026-01-05 10:26:14.97	181.45	18.78	-41.4	-43.3	18.5	0.00e+00	0	43	0	0	54	4475
2026-01-05 10:26:16.11	181.53	18.91	-41.5	-43.4	18.5	0.00e+00	0	43	0	0	54	4495
2026-01-05 10:26:17.06	181.59	19.03	-41.4	-43.3	18.5	0.00e+00	0	43	0	0	54	4468
2026-01-05 10:26:18.07	181.66	19.15	-41.5	-43.4	18.4	0.00e+00	0	43	0	0	54	4533
2026-01-05 10:26:19.07	181.72	19.28	-41.3	-43.2	18.7	0.00e+00	0	43	0	0	54	4396
2026-01-05 10:26:20.07	181.79	19.40	-41.3	-43.1	18.7	0.00e+00	0	43	0	0	54	4381
2026-01-05 10:26:21.35	181.88	19.56	-41.2	-43.0	18.8	0.00e+00	0	43	0	0	54	4336
2026-01-05 10:26:22.06	181.93	19.65	-41.2	-43.1	18.8	0.00e+00	0	43	0	0	54	4343
2026-01-05 10:26:23.35	182.02	19.81	-41.1	-42.9	18.9	0.00e+00	0	43	0	0	54	4272
2026-01-05 10:26:24.16	182.07	19.91	-41.0	-42.9	19.0	0.00e+00	0	43	0	0	54	4244
2026-01-05 10:26:25.62	182.18	20.09	-41.0	-42.8	19.0	0.00e+00	0	43	0	0	54	4235
2026-01-05 10:26:26.34	182.23	20.19	-41.0	-42.8	19.0	0.00e+00	0	43	0	0	54	4237
2026-01-05 10:26:27.63	182.32	20.35	-41.0	-42.7	19.0	0.00e+00	0	43	0	0	53	4441
2026-01-05 10:26:28.34	182.37	20.44	-40.9	-42.7	19.2	0.00e+00	0	43	0	0	53	4393
2026-01-05 10:26:29.63	182.47	20.61	-40.8	-42.6	19.2	0.00e+00	0	43	0	0	53	4378
2026-01-05 10:26:30.35	182.52	20.70	-40.8	-42.5	19.2	0.00e+00	0	43	0	0	53	4339
2026-01-05 10:26:31.64	182.62	20.87	-40.8	-42.5	19.2	0.00e+00	0	43	0	0	53	4339
2026-01-05 10:26:32.36	182.67	20.96	-40.8	-42.5	19.2	0.00e+00	0	43	0	0	53	4334
2026-01-05 10:26:33.64	182.77	21.13	-40.6	-42.4	19.4	0.00e+00	0	43	0	0	53	4252
2026-01-05 10:26:34.36	182.82	21.23	-40.6	-42.4	19.4	0.00e+00	0	43	0	0	53	4249
2026-01-05 10:26:35.65	182.92	21.40	-40.5	-42.2	19.5	0.00e+00	0	43	0	0	52	4422
2026-01-05 10:26:36.37	182.97	21.49	-40.4	-42.2	19.5	0.00e+00	0	43	0	0	52	4411
2026-01-05 10:26:37.67	183.08	21.67	-40.4	-42.1	19.6	0.00e+00	0	43	0	0	52	4391
2026-01-05 10:26:38.38	183.13	21.76	-40.3	-42.1	19.6	0.00e+00	0	43	0	0	52	4354
2026-01-05 10:26:39.74	183.24	21.95	-40.4	-42.1	19.6	0.00e+00	0	43	0	0	52	4363
2026-01-05 10:26:40.45	183.30	22.04	-40.4	-42.2	19.6	0.00e+00	0	43	0	0	52	4405
2026-01-05 10:26:41.74	183.40	22.22	-40.3	-42.1	19.7	0.00e+00	0	43	0	0	52	4346
2026-01-05 10:26:42.46	183.46	22.32	-40.2	-41.9	19.8	0.00e+00	0	43	0	0	52	4279
2026-01-05 10:26:43.75	183.56	22.50	-40.2	-41.9	19.8	0.00e+00	0	43	0	0	52	4285
2026-01-05 10:26:44.47	183.62	22.60	-40.2	-41.9	19.8	0.00e+00	0	43	0	0	52	4250
2026-01-05 10:26:45.76	183.73	22.78	-40.2	-41.9	19.9	0.00e+00	0	43	0	0	52	4253
2026-01-05 10:26:46.47	183.79	22.88	-40.2	-42.0	19.8	0.00e+00	0	43	0	0	52	4293
2026-01-05 10:26:47.76	183.90	23.06	-40.1	-41.8	20.0	0.00e+00	0	43	0	0	52	4200
2026-01-05 10:26:48.48	183.96	23.16	-40.1	-41.8	19.9	0.00e+00	0	43	0	0	52	4213
2026-01-05 10:26:49.77	184.07	23.34	-40.2	-41.9	19.9	0.00e+00	0	43	0	0	52	4262
2026-01-05 10:26:50.48	184.13	23.45	-40.1	-41.8	20.0	0.00e+00	0	43	0	0	52	4213
2026-01-05 10:26:51.78	184.25	23.63	-40.0	-41.7	20.1	0.00e+00	0	43	0	0	52	4178
2026-01-05 10:26:52.62	184.32	23.75	-40.0	-41.7	20.0	0.00e+00	0	43	0	0	52	4182
2026-01-05 10:26:54.09	184.45	23.97	-40.1	-41.8	20.0	0.00e+00	0	43	0	0	52	4208
2026-01-05 10:26:54.80	184.52	24.07	-40.2	-41.8	19.9	0.00e+00	0	43	0	0	52	4242
2026-01-05 10:26:56.09	184.63	24.26	-40.1	-41.8	20.0	0.00e+00	0	43	0	0	52	4214
2026-01-05 10:26:56.81	184.70	24.37	-40.1	-41.8	19.9	0.00e+00	0	43	0	0	52	4224
2026-01-05 10:26:58.09	184.82	24.56	-40.1	-41.8	20.0	0.00e+00	0	43	0	0	52	4220
2026-01-05 10:26:58.80	184.89	24.66	-40.2	-41.9	19.9	0.00e+00	0	43	0	0	52	4249
2026-01-05 10:27:00.09	185.01	24.86	-40.1	-41.7	20.0	0.00e+00	0	43	0	0	52	4193
2026-01-05 10:27:00.81	185.08	24.97	-40.1	-41.8	20.0	0.00e+00	0	43	0	0	52	4210
2026-01-05 10:27:02.10	185.20	25.16	-40.3	-42.0	19.8	0.00e+00	0	43	0	0	52	4328
2026-01-05 10:27:02.81	185.27	25.27	-40.4	-42.1	19.7	0.00e+00	0	43	0	0	52	4374
2026-01-05 10:27:04.12	185.40	25.47	-40.4	-42.2	19.7	0.00e+00	0	43	0	0	52	4397
2026-01-05 10:27:05.14	185.50	25.63	-40.5	-42.3	19.6	0.00e+00	0	43	0	0	52	4453
2026-01-05 10:27:06.48	185.63	25.84	-40.6	-42.4	19.5	0.00e+00	0	43	0	0	52	4501
2026-01-05 10:27:07.19	185.71	25.95	-40.7	-42.4	19.5	0.00e+00	0	43	0	0	52	4538
2026-01-05 10:27:08.48	185.84	26.15	-40.7	-42.4	19.5	0.00e+00	0	43	0	0	52	4543
2026-01-05 10:27:09.20	185.91	26.26	-40.8	-42.6	19.3	0.00e+00	0	43	0	0	52	4615
2026-01-05 10:27:10.49	186.05	26.47	-41.0	-42.8	19.2	0.00e+00	0	43	0	0	52	4732
2026-01-05 10:27:11.20	186.12	26.58	-41.1	-42.9	19.1	0.00e+00	0	43	0	0	52	4797
2026-01-05 10:27:12.49	186.26	26.79	-41.1	-43.0	19.0	0.00e+00	0	43	0	0	52	4816
2026-01-05 10:27:13.21	186.34	26.90	-41.2	-43.0	19.0	0.00e+00	0	43	0	0	52	4843
2026-01-05 10:27:14.57	186.48	27.12	-41.3	-43.2	18.8	0.00e+00	0	43	0	0	53	4664
2026-01-05 10:27:15.29	186.56	27.24	-41.3	-43.1	18.8	0.00e+00	0	43	0	0	53	4650
2026-01-05 10:27:16.64	186.71	27.46	-41.3	-43.2	18.8	0.00e+00	0	43	0	0	53	4667
2026-01-05 10:27:17.36	186.79	27.58	-41.4	-43.3	18.7	0.00e+00	0	43	0	0	53	4712
2026-01-05 10:27:18.65	186.94	27.79	-41.6	-43.4	18.6	0.00e+00	0	43	0	0	53	4804
2026-01-05 10:27:19.37	187.02	27.91	-41.6	-43.4	18.6	0.00e+00	0	43	0	0	53	4810
2026-01-05 10:27:20.78	187.18	28.15	-41.5	-43.4	18.6	0.00e+00	0	43	0	0	53	4778
2026-01-05 10:27:21.50	187.27	28.27	-41.5	-43.3	18.6	0.00e+00	0	43	0	0	53	4752
2026-01-05 10:27:22.85	187.42	28.50	-41.5	-43.3	18.7	0.00e+00	0	43	0	0	53	4750
2026-01-05 10:27:23.57	187.51	28.62	-41.4	-43.3	18.7	0.00e+00	0	43	0	0	53	4727
2026-01-05 10:27:24.86	187.67	28.84	-41.5	-43.4	18.6	0.00e+00	0	43	0	0	53	4760
2026-01-05 10:27:25.57	187.75	28.96	-41.4	-43.3	18.7	0.00e+00	0	43	0	0	53	4729
2026-01-05 10:27:26.86	187.91	29.19	-41.6	-43.4	18.6	0.00e+00	0	43	0	0	53	4814
2026-01-05 10:27:27.57	188.00	29.31	-41.5	-43.3	18.7	0.00e+00	0	43	0	0	53	4739
2026-01-05 10:27:28.86	188.16	29.54	-41.4	-43.3	18.7	0.00e+00	0	43	0	0	53	4718
2026-01-05 10:27:29.58	188.25	29.66	-41.5	-43.3	18.7	0.00e+00	0	43	0	0	53	4730
2026-01-05 10:27:30.87	188.42	29.89	-41.4	-43.2	18.8	0.00e+00	0	43	0	0	53	4674
2026-01-05 10:27:31.58	188.51	30.02	-41.4	-43.3	18.7	0.00e+00	0	43	0	0	53	4720
2026-01-05 10:27:32.87	188.68	30.25	-41.3	-43.2	18.9	0.00e+00	0	43	0	0	53	4656
2026-01-05 10:27:33.70	188.79	30.40	-41.2	-43.0	19.0	0.00e+00	0	43	0	0	53	4580
2026-01-05 10:27:34.84	188.94	30.60	-41.1	-42.9	19.1	0.00e+00	0	43	0	0	53	4511
2026-01-05 10:27:35.70	189.06	30.76	-41.0	-42.8	19.2	0.00e+00	0	43	0	0	53	4473
2026-01-05 10:27:36.85	189.21	30.97	-41.0	-42.8	19.2	0.00e+00	0	43	0	0	53	4468
2026-01-05 10:27:37.71	189.33	31.13	-40.9	-42.7	19.3	0.00e+00	0	43	0	0	53	4412
2026-01-05 10:27:38.86	189.49	31.34	-40.9	-42.6	19.3	0.00e+00	0	43	0	0	53	4371
2026-01-05 10:27:39.72	189.61	31.50	-41.0	-42.7	19.2	0.00e+00	0	43	0	0	53	4431
2026-01-05 10:27:40.86	189.78	31.71	-41.0	-42.7	19.2	0.00e+00	0	43	0	0	53	4430
2026-01-05 10:27:41.72	189.90	31.87	-40.9	-42.6	19.2	0.00e+00	0	43	0	0	53	4391
2026-01-05 10:27:43.01	190.09	32.12	-41.0	-42.7	19.2	0.00e+00	0	43	0	0	53	4431
2026-01-05 10:27:43.72	190.19	32.25	-41.0	-42.7	19.1	0.00e+00	0	43	0	0	53	4439
2026-01-05 10:27:45.01	190.39	32.50	-41.1	-42.9	19.1	0.00e+00	0	43	0	0	53	4508
2026-01-05 10:27:45.73	190.50	32.63	-41.1	-42.9	19.0	0.00e+00	0	43	0	0	53	4527
2026-01-05 10:27:47.02	190.69	32.88	-41.1	-42.9	19.0	0.00e+00	0	43	0	0	53	4527
2026-01-05 10:27:47.73	190.80	33.02	-41.1	-42.9	19.0	0.00e+00	0	43	0	0	53	4532
2026-01-05 10:27:49.02	191.01	33.27	-41.1	-42.9	19.0	0.00e+00	0	43	0	0	53	4531
2026-01-05 10:27:49.74	191.12	33.41	-41.2	-43.0	18.9	0.00e+00	0	43	0	0	53	4588
2026-01-05 10:27:51.03	191.33	33.67	-41.3	-43.1	18.9	0.00e+00	0	43	0	0	53	4609
2026-01-05 10:27:51.74	191.44	33.81	-41.3	-43.2	18.8	0.00e+00	0	43	0	0	53	4657
2026-01-05 10:27:53.08	191.66	34.07	-41.4	-43.3	18.7	0.00e+00	0	43	0	0	53	4714
2026-01-05 10:27:53.79	191.78	34.21	-41.5	-43.3	18.7	0.00e+00	0	43	0	0	53	4741
2026-01-05 10:27:55.15	192.01	34.49	-41.6	-43.5	18.6	0.00e+00	0	43	0	0	53	4836
2026-01-05 10:27:55.86	192.13	34.63	-41.8	-43.7	18.4	0.00e+00	0	43	0	0	54	4677
2026-01-05 10:27:57.15	192.35	34.89	-42.1	-44.1	18.1	0.00e+00	0	43	0	0	54	4885
2026-01-05 10:27:58.19	192.54	35.10	-42.4	-44.3	17.8	0.00e+00	0	43	0	0	55	4755
2026-01-05 10:27:59.50	192.77	35.37	-42.9	-45.0	17.4	0.00e+00	0	43	0	0	56	4816
2026-01-05 10:28:00.22	192.90	35.52	-43.1	-45.1	17.2	0.00e+00	0	43	0	0	56	4918
2026-01-05 10:28:01.84	193.19	35.86	-43.2	-45.3	17.1	0.00e+00	0	43	0	0	57	4721
2026-01-05 10:28:02.41	193.30	35.98	-43.3	-45.4	17.0	0.00e+00	0	43	0	0	57	4776
2026-01-05 10:28:04.02	193.60	36.32	-43.3	-45.4	17.0	0.00e+00	0	43	0	0	57	4778
2026-01-05 10:28:04.59	193.71	36.44	-43.3	-45.4	17.0	0.00e+00	0	43	0	0	57	4788
2026-01-05 10:28:06.19	194.02	36.77	-43.4	-45.6	16.8	0.00e+00	0	43	0	0	57	4873
2026-01-05 10:28:06.76	194.13	36.90	-43.5	-45.7	16.7	0.00e+00	0	43	0	0	57	4927
2026-01-05 10:28:08.39	194.45	37.25	-43.3	-45.4	16.9	0.00e+00	0	43	0	0	57	4801
2026-01-05 10:28:08.96	194.57	37.37	-43.3	-45.4	16.9	0.00e+00	0	43	0	0	57	4807
2026-01-05 10:28:10.54	194.89	37.71	-43.2	-45.3	17.0	0.00e+00	0	43	0	0	57	4737
2026-01-05 10:28:11.16	195.02	37.85	-43.2	-45.2	17.1	0.00e+00	0	43	0	0	57	4689
2026-01-05 10:28:13.06	195.42	38.26	-43.2	-45.3	17.0	0.00e+00	0	43	0	0	57	4747
2026-01-05 10:28:13.63	195.54	38.39	-43.1	-45.2	17.0	0.00e+00	0	43	0	0	57	4694
2026-01-05 10:28:15.24	195.89	38.74	-43.1	-45.2	17.1	0.00e+00	0	43	0	0	57	4694
2026-01-05 10:28:15.81	196.01	38.87	-43.1	-45.2	17.1	0.00e+00	0	43	0	0	57	4660
2026-01-05 10:28:17.47	196.39	39.24	-42.9	-45.0	17.3	0.00e+00	0	43	0	0	57	4557
2026-01-05 10:28:18.05	196.52	39.37	-42.9	-44.9	17.4	0.00e+00	0	43	0	0	57	4502
2026-01-05 10:28:19.66	196.89	39.73	-42.6	-44.5	17.7	0.00e+00	0	43	0	0	57	4322
2026-01-05 10:28:20.23	197.02	39.86	-42.5	-44.5	17.8	0.00e+00	0	43	0	0	57	4317
2026-01-05 10:28:21.81	197.40	40.22	-42.7	-44.6	17.7	0.00e+00	0	43	0	0	57	4372
2026-01-05 10:28:22.56	197.58	40.39	-42.8	-44.7	17.5	0.00e+00	0	43	0	0	57	4438
2026-01-05 10:28:23.84	197.89	40.69	-43.1	-45.2	17.2	0.00e+00	0	43	0	0	57	4661
2026-01-05 10:28:24.56	198.07	40.85	-43.2	-45.3	17.1	0.00e+00	0	43	0	0	57	4719
2026-01-05 10:28:25.85	198.39	41.15	-43.3	-45.3	17.1	0.00e+00	0	43	0	0	57	4748
2026-01-05 10:28:26.56	198.57	41.32	-43.1	-45.2	17.2	0.00e+00	0	43	0	0	57	4678
2026-01-05 10:28:27.85	198.91	41.62	-43.0	-45.0	17.3	0.00e+00	0	43	0	0	57	4558
2026-01-05 10:28:28.57	199.10	41.79	-42.9	-44.9	17.4	0.00e+00	0	43	0	0	57	4520
2026-01-05 10:28:29.86	199.44	42.09	-43.0	-45.0	17.3	0.00e+00	0	43	0	0	57	4584
2026-01-05 10:28:30.57	199.63	42.26	-43.1	-45.2	17.1	0.00e+00	0	43	0	0	57	4670
2026-01-05 10:28:31.86	199.98	42.56	-43.5	-45.7	16.7	0.00e+00	0	43	0	0	57	4942
2026-01-05 10:28:32.58	200.18	42.73	-43.7	-45.8	16.5	0.00e+00	0	43	0	0	58	4758
2026-01-05 10:28:33.87	200.55	43.04	-44.0	-46.2	16.3	0.00e+00	0	43	0	0	58	4953
2026-01-05 10:28:34.59	200.75	43.21	-44.1	-46.5	16.0	0.00e+00	0	43	0	0	58	5111
2026-01-05 10:28:35.88	201.13	43.52	-44.6	-47.0	15.4	0.00e+00	0	43	0	0	59	5137
2026-01-05 10:28:36.59	201.34	43.69	-44.7	-47.1	15.4	0.00e+00	0	43	0	0	60	4906
2026-01-05 10:28:37.88	201.72	44.00	-44.6	-47.0	15.5	0.00e+00	0	43	0	0	60	4828
2026-01-05 10:28:38.60	201.94	44.18	-44.4	-46.8	15.7	0.00e+00	0	43	0	0	60	4725
2026-01-05 10:28:40.05	202.39	44.53	-44.3	-46.6	15.8	0.00e+00	0	43	0	0	60	4648
2026-01-05 10:28:40.76	202.61	44.70	-44.3	-46.7	15.7	0.00e+00	0	43	0	0	60	4662
2026-01-05 10:28:42.13	203.05	45.03	-44.6	-47.2	15.4	0.00e+00	0	43	0	0	60	4933
2026-01-05 10:28:42.85	203.28	45.21	-44.7	-47.3	15.3	0.00e+00	0	43	0	0	60	4997
2026-01-05 10:28:44.14	203.70	45.52	-44.8	-47.3	15.2	0.00e+00	0	43	0	0	60	4999
2026-01-05 10:28:44.86	203.94	45.70	-44.6	-47.1	15.3	0.00e+00	0	43	0	0	60	4897
2026-01-05 10:28:46.28	204.43	46.05	-44.0	-46.3	16.0	0.00e+00	0	43	0	0	60	4487
2026-01-05 10:28:46.99	204.67	46.22	-43.8	-46.1	16.3	0.00e+00	0	43	0	0	59	4613
2026-01-05 10:28:48.28	205.12	46.54	-43.5	-45.7	16.7	0.00e+00	0	43	0	0	59	4405
2026-01-05 10:28:48.99	205.38	46.71	-43.5	-45.7	16.7	0.00e+00	0	43	0	0	58	4654
2026-01-05 10:28:50.28	205.84	47.03	-43.4	-45.5	16.8	0.00e+00	0	43	0	0	58	4581
2026-01-05 10:28:51.00	206.11	47.21	-43.3	-45.4	16.9	0.00e+00	0	43	0	0	58	4527
2026-01-05 10:28:52.29	206.59	47.53	-42.9	-44.9	17.4	0.00e+00	0	43	0	0	57	4512
2026-01-05 10:28:53.02	206.86	47.71	-42.8	-44.8	17.5	0.00e+00	0	43	0	0	57	4452
2026-01-05 10:28:54.31	207.36	48.03	-42.9	-44.9	17.3	0.00e+00	0	43	0	0	57	4531
2026-01-05 10:28:55.02	207.64	48.20	-43.1	-45.1	17.2	0.00e+00	0	43	0	0	57	4635
2026-01-05 10:28:56.31	208.15	48.52	-43.4	-45.5	16.9	0.00e+00	0	43	0	0	57	4822
2026-01-05 10:28:57.03	208.44	48.70	-43.4	-45.6	16.8	0.00e+00	0	43	0	0	57	4877
2026-01-05 10:28:58.32	208.97	49.02	-43.4	-45.5	16.9	0.00e+00	0	43	0	0	57	4863
2026-01-05 10:28:59.27	209.36	49.25	-43.5	-45.7	16.6	0.00e+00	0	43	0	0	57	4956
2026-01-05 10:29:00.27	209.79	49.50	-43.6	-45.8	16.6	0.00e+00	0	43	0	0	57	4995
2026-01-05 10:29:01.28	210.22	49.75	-43.2	-45.3	17.0	0.00e+00	0	43	0	0	57	4737
2026-01-05 10:29:02.28	210.66	49.99	-43.1	-45.2	17.1	0.00e+00	0	43	0	0	57	4683
2026-01-05 10:29:03.28	211.10	50.24	-43.0	-45.1	17.3	0.00e+00	0	43	0	0	57	4608
2026-01-05 10:29:04.28	211.56	50.48	-43.0	-45.1	17.2	0.00e+00	0	43	0	0	57	4611
2026-01-05 10:29:05.29	212.02	50.73	-43.0	-45.1	17.2	0.00e+00	0	43	0	0	57	4625
2026-01-05 10:29:06.32	212.50	50.98	-43.0	-45.1	17.2	0.00e+00	0	43	0	0	57	4601
2026-01-05 10:29:07.37	213.00	51.24	-43.0	-45.1	17.2	0.00e+00	0	43	0	0	57	4613
2026-01-05 10:29:08.29	213.44	51.46	-43.0	-45.0	17.3	0.00e+00	0	43	0	0	57	4595
2026-01-05 10:29:09.29	213.93	51.70	-43.1	-45.2	17.1	0.00e+00	0	43	0	0	57	4666
2026-01-05 10:29:10.30	214.43	51.94	-42.9	-44.9	17.4	0.00e+00	0	43	0	0	57	4526
2026-01-05 10:29:11.30	214.94	52.18	-42.9	-45.0	17.4	0.00e+00	0	43	0	0	57	4556
2026-01-05 10:29:12.30	215.45	52.42	-42.8	-44.8	17.6	0.00e+00	0	43	0	0	57	4463
2026-01-05 10:29:13.31	215.98	52.66	-42.6	-44.5	17.9	0.00e+00	0	43	0	0	57	4326
2026-01-05 10:29:14.31	216.51	52.89	-42.7	-44.7	17.7	0.00e+00	0	43	0	0	57	4402
2026-01-05 10:29:15.31	217.05	53.13	-42.5	-44.5	17.9	0.00e+00	0	43	0	0	57	4306
2026-01-05 10:29:16.32	217.60	53.36	-42.7	-44.7	17.7	0.00e+00	0	43	0	0	57	4403
2026-01-05 10:29:17.32	218.16	53.59	-42.4	-44.4	18.0	0.00e+00	0	43	0	0	56	4501
2026-01-05 10:29:18.32	218.72	53.82	-42.1	-44.1	18.3	0.00e+00	0	43	0	0	56	4341
2026-01-05 10:29:19.33	219.30	54.05	-41.6	-43.5	18.7	0.00e+00	0	43	0	0	55	4295
2026-01-05 10:29:20.33	219.88	54.28	-41.6	-43.4	18.8	0.00e+00	0	43	0	0	54	4511
2026-01-05 10:29:21.40	220.52	54.52	-41.4	-43.2	18.9	0.00e+00	0	43	0	0	54	4420
2026-01-05 10:29:22.30	221.06	54.72	-41.6	-43.5	18.6	0.00e+00	0	43	0	0	54	4558
2026-01-05 10:29:23.48	221.78	54.98	-41.9	-43.9	18.3	0.00e+00	0	43	0	0	54	4768
2026-01-05 10:29:24.34	222.31	55.16	-41.8	-43.8	18.4	0.00e+00	0	43	0	0	54	4718
2026-01-05 10:29:25.48	223.03	55.41	-41.7	-43.5	18.5	0.00e+00	0	43	0	0	54	4582
2026-01-05 10:29:26.34	223.58	55.59	-41.6	-43.5	18.4	0.00e+00	0	43	0	0	54	4562
2026-01-05 10:29:27.49	224.33	55.83	-41.6	-43.4	18.6	0.00e+00	0	43	0	0	54	4528
2026-01-05 10:29:28.35	224.90	56.01	-41.5	-43.3	18.8	0.00e+00	0	43	0	0	54	4467
2026-01-05 10:29:29.50	225.66	56.24	-41.3	-43.1	19.0	0.00e+00	0	43	0	0	54	4370
2026-01-05 10:29:30.36	226.25	56.41	-41.4	-43.2	18.8	0.00e+00	0	43	0	0	54	4419
2026-01-05 10:29:31.50	227.03	56.64	-41.7	-43.6	18.5	0.00e+00	0	43	0	0	54	4628
2026-01-05 10:29:32.36	227.63	56.80	-41.6	-43.4	18.7	0.00e+00	0	43	0	0	54	4513
2026-01-05 10:29:33.51	228.45	57.02	-41.0	-42.8	19.2	0.00e+00	0	43	0	0	54	4200
2026-01-05 10:29:34.37	229.06	57.18	-40.7	-42.4	19.5	0.00e+00	0	43	0	0	53	4289
2026-01-05 10:29:35.51	229.89	57.39	-40.5	-42.2	19.6	0.00e+00	0	43	0	0	52	4414
2026-01-05 10:29:36.38	230.53	57.55	-40.6	-42.4	19.4	0.00e+00	0	43	0	0	52	4505
2026-01-05 10:29:37.52	231.38	57.75	-41.0	-42.8	19.0	0.00e+00	0	43	0	0	52	4715
2026-01-05 10:29:38.38	232.03	57.89	-41.0	-42.8	19.1	0.00e+00	0	43	0	0	52	4730
2026-01-05 10:29:39.53	232.91	58.09	-41.1	-42.9	19.0	0.00e+00	0	43	0	0	53	4510
2026-01-05 10:29:40.40	233.59	58.23	-40.9	-42.7	19.1	0.00e+00	0	43	0	0	53	4397
2026-01-05 10:29:41.72	234.62	58.44	-41.1	-42.9	18.9	0.00e+00	0	43	0	0	53	4511
2026-01-05 10:29:42.44	235.20	58.55	-40.9	-42.7	19.1	0.00e+00	0	43	0	0	53	4433
2026-01-05 10:29:43.73	236.23	58.74	-40.9	-42.6	19.4	0.00e+00	0	43	0	0	53	4375
2026-01-05 10:29:44.45	236.82	58.84	-40.8	-42.5	19.5	0.00e+00	0	43	0	0	53	4311
2026-01-05 10:29:45.74	237.88	59.02	-40.6	-42.4	19.6	0.00e+00	0	43	0	0	53	4244
2026-01-05 10:29:46.46	238.47	59.11	-40.8	-42.6	19.5	0.00e+00	0	43	0	0	53	4354
2026-01-05 10:29:47.75	239.56	59.28	-41.1	-42.9	19.2	0.00e+00	0	43	0	0	53	4499
2026-01-05 10:29:48.56	240.24	59.38	-40.9	-42.6	19.4	0.00e+00	0	43	0	0	53	4380
2026-01-05 10:29:49.70	241.21	59.51	-40.6	-42.3	19.6	0.00e+00	0	43	0	0	53	4216
2026-01-05 10:29:50.56	241.95	59.61	-40.7	-42.4	19.4	0.00e+00	0	43	0	0	53	4289
2026-01-05 10:29:51.71	242.95	59.73	-40.8	-42.6	19.3	0.00e+00	0	43	0	0	53	4371
2026-01-05 10:29:52.57	243.71	59.82	-40.7	-42.5	19.5	0.00e+00	0	43	0	0	53	4298
2026-01-05 10:29:53.71	244.71	59.92	-40.7	-42.4	19.5	0.00e+00	0	43	0	0	53	4269
2026-01-05 10:29:54.57	245.48	60.00	-40.6	-42.4	19.6	0.00e+00	0	43	0	0	53	4246
2026-01-05 10:29:55.71	246.49	60.09	-40.7	-42.4	19.6	0.00e+00	0	43	0	0	53	4270
2026-01-05 10:29:56.56	247.26	60.16	-40.5	-42.2	19.8	0.00e+00	0	43	0	0	53	4168
2026-01-05 10:29:57.71	248.30	60.24	-40.7	-42.4	19.6	0.00e+00	0	43	0	0	52	4535
2026-01-05 10:29:58.57	249.08	60.29	-41.0	-42.8	19.2	0.00e+00	0	43	0	0	52	4730
2026-01-05 10:29:59.72	250.13	60.36	-40.9	-42.7	19.2	0.00e+00	0	43	0	0	52	4680
2026-01-05 10:30:00.66	250.99	60.41	-40.8	-42.5	19.3	0.00e+00	0	43	0	0	52	4585
2026-01-05 10:30:01.66	251.91	60.45	-40.8	-42.6	19.3	0.00e+00	0	43	0	0	52	4620
2026-01-05 10:30:02.66	252.84	60.49	-40.9	-42.7	19.3	0.00e+00	0	43	0	0	52	4677
2026-01-05 10:30:03.66	253.76	60.52	-40.8	-42.6	19.3	0.00e+00	0	43	0	0	52	4612
2026-01-05 10:30:04.67	254.70	60.54	-40.7	-42.5	19.3	0.00e+00	0	43	0	0	52	4563
2026-01-05 10:30:05.67	255.63	60.56	-41.0	-42.8	19.1	0.00e+00	0	43	0	0	52	4715
2026-01-05 10:30:06.67	256.56	60.57	-40.6	-42.3	19.6	0.00e+00	0	43	0	0	52	4472
2026-01-05 10:30:07.67	257.49	60.58	-40.4	-42.1	19.8	0.00e+00	0	43	0	0	52	4377
2026-01-05 10:30:08.68	258.43	60.58	-40.4	-42.1	19.8	0.00e+00	0	43	0	0	52	4389
2026-01-05 10:30:09.68	259.37	60.57	-40.8	-42.6	19.5	0.00e+00	0	43	0	0	52	4607
2026-01-05 10:30:10.68	260.30	60.55	-41.1	-42.9	19.2	0.00e+00	0	43	0	0	52	4768
2026-01-05 10:30:11.68	261.22	60.53	-40.6	-42.3	19.7	0.00e+00	0	43	0	0	52	4476
2026-01-05 10:30:12.69	262.16	60.50	-40.5	-42.2	19.6	0.00e+00	0	43	0	0	52	4430
2026-01-05 10:30:13.69	263.08	60.47	-40.3	-42.0	19.8	0.00e+00	0	43	0	0	52	4323
2026-01-05 10:30:14.69	264.01	60.43	-40.2	-41.9	20.1	0.00e+00	0	43	0	0	52	4255
2026-01-05 10:30:15.87	265.09	60.37	-40.1	-41.7	20.2	0.00e+00	0	43	0	0	52	4186
2026-01-05 10:30:16.76	265.90	60.32	-40.1	-41.7	20.1	0.00e+00	0	43	0	0	52	4172
2026-01-05 10:30:17.80	266.85	60.26	-40.2	-41.9	19.9	0.00e+00	0	43	0	0	52	4246
2026-01-05 10:30:18.79	267.75	60.19	-40.2	-41.9	20.1	0.00e+00	0	43	0	0	52	4248
2026-01-05 10:30:19.79	268.65	60.11	-40.1	-41.7	20.2	0.00e+00	0	43	0	0	52	4187
2026-01-05 10:30:20.79	269.54	60.03	-40.2	-41.9	19.9	0.00e+00	0	43	0	0	52	4259
2026-01-05 10:30:21.80	270.44	59.95	-40.9	-42.6	19.3	0.00e+00	0	43	0	0	52	4646
2026-01-05 10:30:22.80	271.32	59.86	-41.2	-42.9	19.1	0.00e+00	0	43	0	0	53	4536
2026-01-05 10:30:23.80	272.20	59.76	-41.3	-43.1	18.8	0.00e+00	0	43	0	0	53	4650
2026-01-05 10:30:24.81	273.08	59.65	-41.3	-43.1	19.0	0.00e+00	0	43	0	0	53	4606
2026-01-05 10:30:25.81	273.94	59.54	-40.7	-42.5	19.5	0.00e+00	0	43	0	0	53	4299
2026-01-05 10:30:26.81	274.80	59.43	-40.7	-42.5	19.5	0.00e+00	0	43	0	0	53	4301
2026-01-05 10:30:27.81	275.64	59.31	-40.5	-42.2	19.9	0.00e+00	0	43	0	0	53	4162
2026-01-05 10:30:28.85	276.52	59.18	-40.8	-42.6	19.6	0.00e+00	0	43	0	0	52	4603
2026-01-05 10:30:29.89	277.38	59.04	-41.1	-42.9	19.3	0.00e+00	0	43	0	0	52	4761
2026-01-05 10:30:30.78	278.11	58.92	-41.1	-42.8	19.3	0.00e+00	0	43	0	0	52	4753
2026-01-05 10:30:32.10	279.19	58.73	-40.9	-42.7	19.4	0.00e+00	0	43	0	0	52	4655
2026-01-05 10:30:32.82	279.77	58.63	-40.8	-42.6	19.4	0.00e+00	0	43	0	0	52	4615
2026-01-05 10:30:34.11	280.79	58.43	-41.0	-42.7	19.4	0.00e+00	0	43	0	0	52	4680
2026-01-05 10:30:34.82	281.35	58.32	-41.1	-42.9	19.3	0.00e+00	0	43	0	0	52	4771
2026-01-05 10:30:36.10	282.35	58.11	-41.3	-43.1	19.1	0.00e+00	0	43	0	0	53	4634
2026-01-05 10:30:36.87	282.94	57.99	-41.5	-43.3	18.9	0.00e+00	0	43	0	0	53	4748
2026-01-05 10:30:38.16	283.91	57.77	-41.4	-43.2	18.9	0.00e+00	0	43	0	0	53	4695
2026-01-05 10:30:38.97	284.52	57.63	-41.1	-42.9	19.2	0.00e+00	0	43	0	0	53	4515
2026-01-05 10:30:40.12	285.37	57.42	-40.9	-42.7	19.2	0.00e+00	0	43	0	0	53	4406
2026-01-05 10:30:41.21	286.16	57.23	-41.4	-43.2	18.8	0.00e+00	0	43	0	0	53	4687
2026-01-05 10:30:42.25	286.91	57.03	-41.9	-43.8	18.4	0.00e+00	0	43	0	0	54	4745
2026-01-05 10:30:43.25	287.62	56.84	-41.9	-43.8	18.5	0.00e+00	0	43	0	0	54	4713
2026-01-05 10:30:44.25	288.31	56.65	-42.0	-43.9	18.2	0.00e+00	0	43	0	0	54	4768
2026-01-05 10:30:45.25	289.00	56.45	-41.9	-43.8	18.1	0.00e+00	0	43	0	0	54	4732
2026-01-05 10:30:46.26	289.69	56.25	-41.6	-43.4	18.6	0.00e+00	0	43	0	0	54	4521
2026-01-05 10:30:47.26	290.35	56.05	-41.1	-42.9	19.2	0.00e+00	0	43	0	0	54	4245
2026-01-05 10:30:48.26	291.01	55.84	-41.4	-43.1	18.9	0.00e+00	0	43	0	0	54	4388
2026-01-05 10:30:49.26	291.66	55.64	-41.7	-43.6	18.6	0.00e+00	0	43	0	0	54	4600
2026-01-05 10:30:50.26	292.30	55.43	-41.7	-43.6	18.7	0.00e+00	0	43	0	0	54	4606
2026-01-05 10:30:51.27	292.94	55.21	-41.5	-43.3	18.9	0.00e+00	0	43	0	0	54	4470
2026-01-05 10:30:52.27	293.56	55.00	-41.7	-43.5	18.5	0.00e+00	0	43	0	0	54	4560
2026-01-05 10:30:53.27	294.17	54.78	-41.6	-43.5	18.5	0.00e+00	0	43	0	0	54	4548
2026-01-05 10:30:54.30	294.79	54.55	-41.4	-43.2	18.8	0.00e+00	0	43	0	0	54	4432
2026-01-05 10:30:55.31	295.39	54.33	-41.4	-43.1	19.0	0.00e+00	0	43	0	0	54	4378
2026-01-05 10:30:56.39	296.02	54.08	-41.4	-43.2	18.9	0.00e+00	0	43	0	0	54	4394
2026-01-05 10:30:57.25	296.51	53.89	-41.7	-43.6	18.6	0.00e+00	0	43	0	0	54	4618
2026-01-05 10:30:58.39	297.15	53.63	-41.8	-43.7	18.6	0.00e+00	0	43	0	0	54	4668
2026-01-05 10:30:59.25	297.63	53.43	-42.0	-43.8	18.4	0.00e+00	0	43	0	0	54	4757
2026-01-05 10:31:00.40	298.26	53.16	-42.9	-44.9	17.5	0.00e+00	0	43	0	0	56	4791
2026-01-05 10:31:01.26	298.72	52.96	-43.0	-45.0	17.5	0.00e+00	0	43	0	0	56	4836
2026-01-05 10:31:02.40	299.33	52.70	-42.6	-44.5	17.8	0.00e+00	0	43	0	0	56	4584
2026-01-05 10:31:03.26	299.78	52.49	-42.5	-44.4	18.0	0.00e+00	0	43	0	0	56	4495
2026-01-05 10:31:04.41	300.37	52.22	-42.4	-44.3	17.8	0.00e+00	0	43	0	0	56	4474
2026-01-05 10:31:05.27	300.80	52.02	-42.4	-44.3	17.9	0.00e+00	0	43	0	0	56	4470
2026-01-05 10:31:06.41	301.37	51.75	-42.2	-44.1	18.3	0.00e+00	0	43	0	0	56	4364
2026-01-05 10:31:07.27	301.79	51.54	-42.1	-44.0	18.3	0.00e+00	0	43	0	0	56	4307
2026-01-05 10:31:08.50	302.38	51.24	-42.5	-44.5	17.9	0.00e+00	0	43	0	0	56	4557
2026-01-05 10:31:09.36	302.79	51.03	-42.6	-44.5	17.9	0.00e+00	0	43	0	0	56	4588
2026-01-05 10:31:10.51	303.33	50.76	-42.7	-44.7	17.7	0.00e+00	0	43	0	0	56	4682
2026-01-05 10:31:11.36	303.72	50.55	-42.5	-44.5	17.9	0.00e+00	0	43	0	0	56	4556
2026-01-05 10:31:12.64	304.29	50.24	-42.5	-44.5	17.7	0.00e+00	0	43	0	0	56	4555
2026-01-05 10:31:13.35	304.61	50.06	-42.6	-44.6	17.6	0.00e+00	0	43	0	0	56	4618
2026-01-05 10:31:14.83	305.25	49.70	-42.7	-44.7	17.7	0.00e+00	0	43	0	0	56	4692
2026-01-05 10:31:15.55	305.56	49.53	-42.9	-44.8	17.6	0.00e+00	0	43	0	0	56	4759
2026-01-05 10:31:16.84	306.11	49.21	-43.2	-45.2	17.3	0.00e+00	0	43	0	0	56	4977
2026-01-05 10:31:17.55	306.40	49.03	-43.5	-45.6	17.0	0.00e+00	0	43	0	0	57	4917
2026-01-05 10:31:18.84	306.93	48.72	-44.0	-46.2	16.4	0.00e+00	0	43	0	0	58	4968
2026-01-05 10:31:19.56	307.22	48.54	-44.2	-46.5	16.1	0.00e+00	0	43	0	0	59	4860
2026-01-05 10:31:20.85	307.73	48.22	-44.6	-47.0	15.5	0.00e+00	0	43	0	0	59	5110
2026-01-05 10:31:21.56	308.01	48.05	-44.5	-46.9	15.6	0.00e+00	0	43	0	0	59	5083
2026-01-05 10:31:22.85	308.50	47.73	-44.1	-46.4	16.1	0.00e+00	0	43	0	0	59	4796
2026-01-05 10:31:23.57	308.77	47.55	-43.7	-45.9	16.6	0.00e+00	0	43	0	0	59	4533
2026-01-05 10:31:24.86	309.25	47.24	-43.3	-45.4	17.2	0.00e+00	0	43	0	0	58	4510
2026-01-05 10:31:25.58	309.51	47.06	-43.3	-45.4	17.2	0.00e+00	0	43	0	0	58	4526
2026-01-05 10:31:26.86	309.98	46.75	-43.6	-45.7	16.9	0.00e+00	0	43	0	0	58	4689
2026-01-05 10:31:27.58	310.23	46.57	-43.8	-46.0	16.6	0.00e+00	0	43	0	0	58	4864
2026-01-05 10:31:28.87	310.68	46.25	-44.1	-46.4	16.3	0.00e+00	0	43	0	0	58	5045
2026-01-05 10:31:29.59	310.93	46.08	-44.2	-46.5	16.1	0.00e+00	0	43	0	0	59	4821
2026-01-05 10:31:30.88	311.37	45.76	-44.0	-46.2	16.4	0.00e+00	0	43	0	0	59	4681
2026-01-05 10:31:31.59	311.60	45.59	-44.0	-46.2	16.3	0.00e+00	0	43	0	0	59	4685
2026-01-05 10:31:32.88	312.03	45.28	-43.7	-45.8	16.6	0.00e+00	0	43	0	0	59	4473
2026-01-05 10:31:33.60	312.26	45.10	-43.3	-45.3	17.1	0.00e+00	0	43	0	0	58	4485
2026-01-05 10:31:35.15	312.75	44.73	-42.9	-44.8	17.4	0.00e+00	0	43	0	0	57	4492
2026-01-05 10:31:35.85	312.97	44.56	-43.0	-45.0	17.2	0.00e+00	0	43	0	0	57	4588
2026-01-05 10:31:37.15	313.37	44.25	-43.4	-45.5	17.1	0.00e+00	0	43	0	0	57	4828
2026-01-05 10:31:38.20	313.69	43.99	-43.4	-45.5	17.1	0.00e+00	0	43	0	0	57	4833
2026-01-05 10:31:39.07	313.95	43.79	-43.5	-45.6	17.0	0.00e+00	0	43	0	0	57	4884
2026-01-05 10:31:40.22	314.29	43.51	-43.8	-46.0	16.6	0.00e+00	0	43	0	0	58	4847
2026-01-05 10:31:41.08	314.53	43.31	-44.2	-46.4	16.1	0.00e+00	0	43	0	0	58	5090
2026-01-05 10:31:42.22	314.86	43.04	-44.4	-46.7	15.7	0.00e+00	0	43	0	0	59	4978
2026-01-05 10:31:43.09	315.10	42.83	-44.3	-46.6	15.8	0.00e+00	0	43	0	0	59	4888
2026-01-05 10:31:44.34	315.45	42.53	-44.0	-46.2	16.1	0.00e+00	0	43	0	0	59	4676
2026-01-05 10:31:45.06	315.65	42.37	-43.7	-45.9	16.3	0.00e+00	0	43	0	0	59	4498
2026-01-05 10:31:46.35	315.99	42.06	-43.8	-46.0	16.4	0.00e+00	0	43	0	0	59	4552
2026-01-05 10:31:47.06	316.18	41.90	-43.7	-45.8	16.6	0.00e+00	0	43	0	0	59	4491
2026-01-05 10:31:48.35	316.52	41.60	-43.6	-45.7	16.8	0.00e+00	0	43	0	0	59	4415
2026-01-05 10:31:49.07	316.71	41.43	-43.6	-45.7	16.8	0.00e+00	0	43	0	0	59	4413
2026-01-05 10:31:50.69	317.12	41.06	-44.1	-46.4	16.2	0.00e+00	0	43	0	0	59	4767
2026-01-05 10:31:51.52	317.32	40.87	-44.5	-46.9	15.7	0.00e+00	0	43	0	0	59	5058
2026-01-05 10:31:52.67	317.61	40.60	-44.8	-47.4	15.3	7.00e-07	0	43	0	0	60	5074
2026-01-05 10:31:53.86	317.89	40.33	-44.9	-47.4	15.3	0.00e+00	0	43	0	0	60	5086
2026-01-05 10:31:54.72	318.10	40.14	-44.4	-46.7	16.0	0.00e+00	0	43	0	0	60	4696
2026-01-05 10:31:55.87	318.37	39.88	-43.9	-46.1	16.4	0.00e+00	0	43	0	0	59	4634
2026-01-05 10:31:56.72	318.57	39.69	-43.4	-45.5	17.0	0.00e+00	0	43	0	0	58	4593
2026-01-05 10:31:57.87	318.83	39.43	-43.2	-45.3	17.2	0.00e+00	0	43	0	0	58	4472
2026-01-05 10:31:58.72	319.02	39.24	-43.2	-45.2	17.3	0.00e+00	0	43	0	0	58	4436
2026-01-05 10:31:59.87	319.28	38.98	-43.1	-45.1	17.4	0.00e+00	0	43	0	0	58	4368
2026-01-05 10:32:00.72	319.47	38.80	-43.2	-45.2	17.3	0.00e+00	0	43	0	0	58	4419
2026-01-05 10:32:01.95	319.73	38.52	-43.2	-45.2	17.3	0.00e+00	0	43	0	0	58	4441
2026-01-05 10:32:02.81	319.92	38.34	-43.0	-45.0	17.5	0.00e+00	0	43	0	0	58	4335
2026-01-05 10:32:03.96	320.16	38.09	-42.9	-44.9	17.5	0.00e+00	0	43	0	0	57	4537
2026-01-05 10:32:04.81	320.34	37.90	-43.0	-45.1	17.4	0.00e+00	0	43	0	0	57	4603
2026-01-05 10:32:06.10	320.60	37.62	-43.1	-45.2	17.3	0.00e+00	0	43	0	0	57	4672
2026-01-05 10:32:06.82	320.75	37.47	-42.9	-45.0	17.5	0.00e+00	0	43	0	0	57	4549
2026-01-05 10:32:08.11	321.01	37.19	-42.7	-44.8	17.8	0.00e+00	0	43	0	0	57	4443
2026-01-05 10:32:08.83	321.15	37.04	-42.8	-44.9	17.6	0.00e+00	0	43	0	0	57	4533
2026-01-05 10:32:10.12	321.40	36.76	-42.8	-45.0	17.5	0.00e+00	0	43	0	0	57	4553
2026-01-05 10:32:10.84	321.54	36.61	-42.6	-44.8	17.7	0.00e+00	0	43	0	0	57	4475
2026-01-05 10:32:12.12	321.78	36.34	-42.3	-44.4	18.1	0.00e+00	0	43	0	0	56	4511
2026-01-05 10:32:12.84	321.92	36.19	-42.0	-44.1	18.4	0.00e+00	0	43	0	0	56	4347
2026-01-05 10:32:14.14	322.16	35.92	-41.8	-43.7	18.6	0.00e+00	0	43	0	0	55	4431
2026-01-05 10:32:14.86	322.29	35.78	-41.9	-43.8	18.5	0.00e+00	0	43	0	0	55	4460
2026-01-05 10:32:16.15	322.52	35.51	-41.9	-43.8	18.5	0.00e+00	0	43	0	0	55	4453
2026-01-05 10:32:16.87	322.65	35.36	-42.1	-44.0	18.3	0.00e+00	0	43	0	0	55	4557
2026-01-05 10:32:18.28	322.90	35.08	-42.4	-44.4	17.8	0.00e+00	0	43	0	0	55	4799
2026-01-05 10:32:19.00	323.03	34.93	-42.5	-44.5	17.7	0.00e+00	0	43	0	0	55	4829
2026-01-05 10:32:20.29	323.25	34.67	-42.8	-44.9	17.4	0.00e+00	0	43	0	0	56	4793
2026-01-05 10:32:21.00	323.37	34.53	-43.0	-45.1	17.2	0.00e+00	0	43	0	0	56	4899
2026-01-05 10:32:22.29	323.59	34.27	-42.8	-44.9	17.3	0.00e+00	0	43	0	0	56	4814
2026-01-05 10:32:23.00	323.70	34.13	-42.8	-44.9	17.4	0.00e+00	0	43	0	0	56	4767
2026-01-05 10:32:24.29	323.92	33.87	-42.6	-44.7	17.7	0.00e+00	0	43	0	0	56	4658
2026-01-05 10:32:25.01	324.03	33.73	-42.4	-44.4	18.0	0.00e+00	0	43	0	0	56	4512
2026-01-05 10:32:26.30	324.24	33.48	-42.3	-44.4	18.1	0.00e+00	0	43	0	0	56	4506
2026-01-05 10:32:27.01	324.35	33.34	-42.5	-44.6	17.9	0.00e+00	0	43	0	0	56	4599
2026-01-05 10:32:28.30	324.55	33.09	-42.5	-44.6	18.0	0.00e+00	0	43	0	0	56	4620
2026-01-05 10:32:29.02	324.66	32.96	-42.4	-44.5	18.1	0.00e+00	0	43	0	0	56	4552
2026-01-05 10:32:30.30	324.86	32.71	-42.4	-44.5	18.1	0.00e+00	0	43	0	0	56	4571
2026-01-05 10:32:31.02	324.97	32.57	-42.5	-44.6	18.0	0.00e+00	0	43	0	0	56	4601
2026-01-05 10:32:32.30	325.16	32.33	-42.8	-44.8	17.8	0.00e+00	0	43	0	0	56	4758
2026-01-05 10:32:33.01	325.26	32.20	-42.8	-44.9	17.7	0.00e+00	0	43	0	0	56	4796
2026-01-05 10:32:34.31	325.45	31.95	-42.7	-44.7	17.9	0.00e+00	0	43	0	0	56	4688
2026-01-05 10:32:35.02	325.56	31.82	-42.7	-44.7	18.0	0.00e+00	0	43	0	0	56	4663
2026-01-05 10:32:36.31	325.74	31.58	-42.6	-44.5	18.0	0.00e+00	0	43	0	0	56	4580
2026-01-05 10:32:37.02	325.84	31.45	-42.2	-44.1	18.3	0.00e+00	0	43	0	0	56	4385
2026-01-05 10:32:38.31	326.02	31.21	-42.0	-43.8	18.6	0.00e+00	0	43	0	0	56	4232
2026-01-05 10:32:39.03	326.12	31.08	-42.1	-43.9	18.5	0.00e+00	0	43	0	0	56	4284
2026-01-05 10:32:40.32	326.30	30.85	-41.7	-43.5	18.7	0.00e+00	0	43	0	0	55	4331
2026-01-05 10:32:41.03	326.39	30.72	-41.5	-43.3	18.9	0.00e+00	0	43	0	0	54	4485
2026-01-05 10:32:42.32	326.57	30.49	-41.2	-43.1	19.0	0.00e+00	0	43	0	0	54	4356
2026-01-05 10:32:43.21	326.68	30.33	-41.3	-43.1	19.0	0.00e+00	0	43	0	0	54	4379
2026-01-05 10:32:44.36	326.83	30.13	-41.3	-43.1	18.9	0.00e+00	0	43	0	0	54	4385
2026-01-05 10:32:45.22	326.95	29.98	-41.3	-43.2	18.8	0.00e+00	0	43	0	0	54	4418
2026-01-05 10:32:46.36	327.09	29.77	-41.3	-43.2	18.8	0.00e+00	0	43	0	0	54	4436
2026-01-05 10:32:47.22	327.20	29.62	-41.3	-43.3	18.8	0.00e+00	0	43	0	0	54	4446
2026-01-05 10:32:48.36	327.34	29.43	-41.0	-42.9	19.2	0.00e+00	0	43	0	0	54	4258
2026-01-05 10:32:49.22	327.45	29.28	-40.9	-42.7	19.3	0.00e+00	0	43	0	0	53	4419
2026-01-05 10:32:50.37	327.59	29.08	-40.9	-42.7	19.3	0.00e+00	0	43	0	0	53	4427
2026-01-05 10:32:51.23	327.70	28.93	-40.9	-42.8	19.2	0.00e+00	0	43	0	0	53	4476
2026-01-05 10:32:52.54	327.85	28.71	-41.0	-42.9	19.1	0.00e+00	0	43	0	0	53	4498
2026-01-05 10:32:53.25	327.94	28.59	-41.1	-43.0	19.0	0.00e+00	0	43	0	0	53	4546
2026-01-05 10:32:54.75	328.11	28.34	-41.2	-43.0	19.0	0.00e+00	0	43	0	0	53	4596
2026-01-05 10:32:55.46	328.20	28.22	-41.2	-43.1	19.0	0.00e+00	0	43	0	0	53	4605
2026-01-05 10:32:56.75	328.35	28.01	-41.2	-43.0	19.1	0.00e+00	0	43	0	0	53	4561
2026-01-05 10:32:57.47	328.43	27.89	-41.2	-43.0	19.1	0.00e+00	0	43	0	0	53	4553
2026-01-05 10:32:58.76	328.57	27.67	-41.3	-43.1	19.0	0.00e+00	0	43	0	0	53	4641
2026-01-05 10:32:59.48	328.65	27.56	-41.3	-43.1	19.1	0.00e+00	0	43	0	0	53	4625
2026-01-05 10:33:00.77	328.80	27.35	-41.3	-43.2	19.1	0.00e+00	0	43	0	0	53	4659
2026-01-05 10:33:01.48	328.87	27.23	-41.4	-43.2	19.1	0.00e+00	0	44	0	0	53	4668
2026-01-05 10:33:02.77	329.01	27.02	-41.1	-42.9	19.3	0.00e+00	0	43	0	0	53	4523
2026-01-05 10:33:03.49	329.09	26.91	-41.1	-42.9	19.4	0.00e+00	0	43	0	0	53	4508
2026-01-05 10:33:04.78	329.23	26.70	-41.0	-42.8	19.4	0.00e+00	0	43	0	0	53	4459
2026-01-05 10:33:05.50	329.31	26.59	-40.9	-42.7	19.5	0.00e+00	0	43	0	0	53	4440
2026-01-05 10:33:06.79	329.44	26.39	-40.9	-42.8	19.4	0.00e+00	0	43	0	0	53	4453
2026-01-05 10:33:07.50	329.51	26.28	-40.9	-42.7	19.5	0.00e+00	0	43	0	0	53	4431
2026-01-05 10:33:08.79	329.65	26.07	-40.8	-42.7	19.5	0.00e+00	0	43	0	0	53	4412
2026-01-05 10:33:09.70	329.74	25.93	-40.8	-42.7	19.5	0.00e+00	0	43	0	0	53	4406
2026-01-05 10:33:10.70	329.84	25.78	-40.9	-42.7	19.5	0.00e+00	0	43	0	0	53	4432
2026-01-05 10:33:11.70	329.94	25.63	-41.0	-42.9	19.4	0.00e+00	0	43	0	0	53	4500
2026-01-05 10:33:12.70	330.04	25.47	-40.9	-42.8	19.4	0.00e+00	0	43	0	0	53	4473
2026-01-05 10:33:13.71	330.14	25.32	-40.9	-42.8	19.5	0.00e+00	0	43	0	0	53	4455
2026-01-05 10:33:14.71	330.23	25.17	-41.1	-42.9	19.4	0.00e+00	0	43	0	0	53	4511
2026-01-05 10:33:15.72	330.33	25.02	-40.9	-42.7	19.5	0.00e+00	0	43	0	0	53	4426
2026-01-05 10:33:16.76	330.43	24.86	-40.9	-42.7	19.5	0.00e+00	0	43	0	0	53	4426
2026-01-05 10:33:17.79	330.53	24.71	-40.8	-42.6	19.6	0.00e+00	0	43	0	0	53	4356
2026-01-05 10:33:18.79	330.62	24.56	-40.8	-42.6	19.6	0.00e+00	0	43	0	0	53	4352
2026-01-05 10:33:19.86	330.72	24.40	-40.7	-42.5	19.7	0.00e+00	0	43	0	0	53	4296
2026-01-05 10:33:20.71	330.80	24.28	-40.6	-42.4	19.8	0.00e+00	0	43	0	0	53	4244
2026-01-05 10:33:22.09	330.92	24.08	-40.6	-42.4	19.7	0.00e+00	0	43	0	0	53	4252
2026-01-05 10:33:22.81	330.99	23.97	-40.7	-42.4	19.7	0.00e+00	0	43	0	0	53	4280
2026-01-05 10:33:24.10	331.10	23.79	-40.8	-42.6	19.5	0.00e+00	0	43	0	0	53	4350
2026-01-05 10:33:24.81	331.16	23.69	-40.9	-42.7	19.4	0.00e+00	0	43	0	0	53	4394
2026-01-05 10:33:26.10	331.28	23.50	-40.9	-42.7	19.4	0.00e+00	0	43	0	0	53	4422
2026-01-05 10:33:26.82	331.34	23.40	-41.0	-42.8	19.3	0.00e+00	0	43	0	0	53	4474
2026-01-05 10:33:28.10	331.45	23.22	-40.9	-42.7	19.4	0.00e+00	0	43	0	0	53	4438
2026-01-05 10:33:28.82	331.51	23.12	-40.9	-42.8	19.4	0.00e+00	0	43	0	0	53	4456
2026-01-05 10:33:30.11	331.62	22.94	-40.9	-42.8	19.3	0.00e+00	0	43	0	0	53	4493
2026-01-05 10:33:30.82	331.68	22.84	-40.9	-42.8	19.4	0.00e+00	0	43	0	0	53	4450
2026-01-05 10:33:32.11	331.79	22.66	-40.9	-42.8	19.4	0.00e+00	0	43	0	0	53	4473
2026-01-05 10:33:32.83	331.85	22.56	-40.9	-42.9	19.3	0.00e+00	0	43	0	0	53	4499
2026-01-05 10:33:34.18	331.96	22.38	-40.9	-42.7	19.4	0.00e+00	0	43	0	0	53	4438
2026-01-05 10:33:35.17	332.04	22.24	-40.9	-42.8	19.4	0.00e+00	0	43	0	0	53	4464
2026-01-05 10:33:36.17	332.12	22.11	-41.0	-42.9	19.3	0.00e+00	0	43	0	0	53	4529
2026-01-05 10:33:37.17	332.20	21.97	-41.0	-42.9	19.3	0.00e+00	0	43	0	0	53	4523
2026-01-05 10:33:38.18	332.28	21.84	-41.1	-42.9	19.3	0.00e+00	0	43	0	0	53	4539
2026-01-05 10:33:39.18	332.36	21.70	-41.1	-42.9	19.3	0.00e+00	0	43	0	0	53	4513
2026-01-05 10:33:40.18	332.43	21.57	-41.1	-43.0	19.3	0.00e+00	0	43	0	0	53	4549
2026-01-05 10:33:41.18	332.51	21.44	-41.1	-42.9	19.3	0.00e+00	0	43	0	0	53	4543
2026-01-05 10:33:42.22	332.59	21.30	-41.1	-42.9	19.3	0.00e+00	0	43	0	0	53	4542
2026-01-05 10:33:43.22	332.67	21.17	-41.1	-42.9	19.3	0.00e+00	0	43	0	0	53	4533
2026-01-05 10:33:44.28	332.75	21.03	-41.1	-42.9	19.3	0.00e+00	0	43	0	0	53	4539
2026-01-05 10:33:45.17	332.81	20.92	-41.2	-43.0	19.2	0.00e+00	0	43	0	0	53	4573
2026-01-05 10:33:46.32	332.90	20.77	-41.2	-43.0	19.2	0.00e+00	0	43	0	0	53	4586
2026-01-05 10:33:47.18	332.96	20.66	-41.2	-43.0	19.1	0.00e+00	0	43	0	0	53	4592
2026-01-05 10:33:48.33	333.04	20.51	-41.2	-43.0	19.2	0.00e+00	0	43	0	0	53	4560
2026-01-05 10:33:49.31	333.11	20.39	-41.1	-43.0	19.2	0.00e+00	0	43	0	0	53	4552
2026-01-05 10:33:50.49	333.20	20.24	-41.2	-43.1	19.1	0.00e+00	0	43	0	0	53	4619
2026-01-05 10:33:51.35	333.26	20.13	-41.2	-43.1	19.1	0.00e+00	0	43	0	0	53	4616
2026-01-05 10:33:52.50	333.34	19.98	-41.1	-43.0	19.1	0.00e+00	0	43	0	0	53	4560
2026-01-05 10:33:53.36	333.40	19.88	-41.1	-42.9	19.1	0.00e+00	0	43	0	0	53	4540
2026-01-05 10:33:54.50	333.48	19.74	-41.1	-43.1	19.0	0.00e+00	0	43	0	0	53	4605
2026-01-05 10:33:55.36	333.54	19.63	-41.1	-43.0	19.0	0.00e+00	0	43	0	0	53	4591
2026-01-05 10:33:56.51	333.62	19.49	-41.1	-43.1	19.0	0.00e+00	0	43	0	0	53	4599
2026-01-05 10:33:57.37	333.68	19.38	-41.2	-43.2	18.9	0.00e+00	0	43	0	0	53	4654
2026-01-05 10:33:58.52	333.76	19.24	-41.2	-43.1	19.0	0.00e+00	0	43	0	0	53	4637
2026-01-05 10:33:59.37	333.81	19.14	-41.2	-43.2	18.9	0.00e+00	0	43	0	0	53	4652
2026-01-05 10:34:00.52	333.89	19.00	-41.1	-43.1	19.0	0.00e+00	0	43	0	0	53	4603
2026-01-05 10:34:01.38	333.95	18.90	-41.3	-43.2	18.9	0.00e+00	0	43	0	0	53	4659
2026-01-05 10:34:02.53	334.02	18.76	-41.3	-43.2	18.9	0.00e+00	0	43	0	0	53	4685
2026-01-05 10:34:03.38	334.08	18.66	-41.3	-43.2	18.9	0.00e+00	0	43	0	0	53	4684
2026-01-05 10:34:04.53	334.15	18.52	-41.4	-43.3	18.8	0.00e+00	0	43	0	0	53	4716
2026-01-05 10:34:05.39	334.21	18.42	-41.3	-43.2	18.9	0.00e+00	0	43	0	0	53	4684
2026-01-05 10:34:06.60	334.28	18.28	-41.4	-43.3	18.8	0.00e+00	0	43	0	0	53	4731
2026-01-05 10:34:07.46	334.34	18.18	-41.3	-43.3	18.8	0.00e+00	0	43	0	0	53	4722
2026-01-05 10:34:08.66	334.41	18.04	-41.3	-43.3	18.8	0.00e+00	0	43	0	0	53	4743
2026-01-05 10:34:09.52	334.47	17.94	-41.4	-43.4	18.8	0.00e+00	0	43	0	0	53	4775
2026-01-05 10:34:10.66	334.54	17.81	-41.3	-43.4	18.8	0.00e+00	0	43	0	0	53	4761
2026-01-05 10:34:11.52	334.59	17.71	-41.3	-43.3	18.9	0.00e+00	0	43	0	0	53	4716
2026-01-05 10:34:12.67	334.66	17.58	-41.4	-43.5	18.7	0.00e+00	0	43	0	0	53	4815
2026-01-05 10:34:13.52	334.71	17.48	-41.4	-43.5	18.7	0.00e+00	0	43	0	0	53	4815
2026-01-05 10:34:14.67	334.78	17.35	-41.4	-43.4	18.7	0.00e+00	0	43	0	0	53	4814
2026-01-05 10:34:15.53	334.83	17.26	-41.5	-43.5	18.6	0.00e+00	0	43	0	0	53	4841
2026-01-05 10:34:16.67	334.90	17.13	-41.6	-43.5	18.6	0.00e+00	0	43	0	0	53	4859
2026-01-05 10:34:17.54	334.95	17.03	-41.6	-43.5	18.6	0.00e+00	0	43	0	0	53	4858
2026-01-05 10:34:18.68	335.02	16.90	-41.7	-43.6	18.5	0.00e+00	0	43	0	0	54	4640
2026-01-05 10:34:19.54	335.07	16.81	-41.7	-43.6	18.5	0.00e+00	0	43	0	0	54	4646
2026-01-05 10:34:20.69	335.13	16.68	-41.8	-43.8	18.4	0.00e+00	0	43	0	0	54	4711
2026-01-05 10:34:21.54	335.18	16.59	-41.8	-43.7	18.4	0.00e+00	0	43	0	0	54	4700
2026-01-05 10:34:22.69	335.25	16.46	-41.9	-43.8	18.4	0.00e+00	0	43	0	0	54	4736
2026-01-05 10:34:23.55	335.29	16.37	-42.0	-43.9	18.3	0.00e+00	0	43	0	0	54	4811
2026-01-05 10:34:24.70	335.36	16.25	-42.1	-44.1	18.1	0.00e+00	0	43	0	0	54	4887
2026-01-05 10:34:25.56	335.41	16.15	-42.0	-43.9	18.3	0.00e+00	0	43	0	0	54	4804
2026-01-05 10:34:26.70	335.47	16.03	-41.9	-43.9	18.3	0.00e+00	0	43	0	0	54	4771
2026-01-05 10:34:27.69	335.52	15.92	-42.0	-43.9	18.3	0.00e+00	0	43	0	0	54	4806
2026-01-05 10:34:28.87	335.59	15.80	-41.9	-43.8	18.4	0.00e+00	0	43	0	0	54	4734
2026-01-05 10:34:29.73	335.64	15.71	-41.9	-43.9	18.3	0.00e+00	0	43	0	0	54	4785
2026-01-05 10:34:31.10	335.71	15.56	-42.0	-43.9	18.2	0.00e+00	0	43	0	0	54	4804
2026-01-05 10:34:31.81	335.75	15.49	-42.0	-43.9	18.3	0.00e+00	0	43	0	0	54	4808
2026-01-05 10:34:33.10	335.82	15.35	-41.9	-43.9	18.3	0.00e+00	0	43	0	0	54	4794
2026-01-05 10:34:33.83	335.85	15.28	-41.9	-43.9	18.3	0.00e+00	0	43	0	0	54	4807
2026-01-05 10:34:35.12	335.92	15.14	-42.0	-44.0	18.2	0.00e+00	0	43	0	0	54	4853
2026-01-05 10:34:35.89	335.96	15.06	-42.1	-44.1	18.1	0.00e+00	0	43	0	0	54	4873
2026-01-05 10:34:37.18	336.03	14.93	-42.1	-44.0	18.2	0.00e+00	0	43	0	0	54	4864
2026-01-05 10:34:37.99	336.07	14.85	-42.2	-44.2	18.1	0.00e+00	0	43	0	0	54	4937
2026-01-05 10:34:39.13	336.13	14.73	-42.2	-44.2	18.1	0.00e+00	0	43	0	0	54	4928
2026-01-05 10:34:40.22	336.18	14.62	-42.2	-44.1	18.1	0.00e+00	0	43	0	0	55	4651
2026-01-05 10:34:41.28	336.24	14.51	-42.1	-44.1	18.1	0.00e+00	0	43	0	0	55	4605
2026-01-05 10:34:42.34	336.29	14.41	-42.1	-44.1	18.1	0.00e+00	0	43	0	0	55	4625
2026-01-05 10:34:43.36	336.34	14.30	-42.1	-44.1	18.1	0.00e+00	0	43	0	0	55	4622
2026-01-05 10:34:44.36	336.39	14.20	-42.2	-44.2	18.0	0.00e+00	0	43	0	0	55	4676
2026-01-05 10:34:45.36	336.44	14.10	-42.2	-44.2	18.0	0.00e+00	0	43	0	0	55	4682
2026-01-05 10:34:46.36	336.49	14.01	-42.1	-44.2	18.1	0.00e+00	0	43	0	0	55	4655
2026-01-05 10:34:47.36	336.54	13.91	-42.0	-44.1	18.1	0.00e+00	0	43	0	0	55	4617
2026-01-05 10:34:48.37	336.59	13.81	-42.0	-44.1	18.1	0.00e+00	0	43	0	0	55	4628
2026-01-05 10:34:49.37	336.63	13.71	-42.0	-44.2	18.0	0.00e+00	0	43	0	0	55	4671
2026-01-05 10:34:50.37	336.68	13.61	-42.1	-44.2	18.0	0.00e+00	0	43	0	0	55	4686
2026-01-05 10:34:51.37	336.73	13.51	-42.1	-44.2	18.0	0.00e+00	0	43	0	0	55	4691
2026-01-05 10:34:52.38	336.78	13.42	-42.0	-44.1	18.0	0.00e+00	0	43	0	0	55	4650
2026-01-05 10:34:53.38	336.82	13.32	-42.0	-44.2	18.0	0.00e+00	0	43	0	0	55	4684
2026-01-05 10:34:54.48	336.87	13.21	-42.1	-44.3	17.9	0.00e+00	0	43	0	0	55	4722
2026-01-05 10:34:55.34	336.91	13.13	-42.0	-44.2	18.0	0.00e+00	0	43	0	0	55	4661
2026-01-05 10:34:56.48	336.97	13.02	-42.1	-44.2	17.9	0.00e+00	0	43	0	0	55	4697
2026-01-05 10:34:57.34	337.01	12.94	-42.1	-44.3	17.9	0.00e+00	0	43	0	0	55	4736
2026-01-05 10:34:58.49	337.06	12.83	-42.1	-44.3	17.9	0.00e+00	0	43	0	0	55	4706
2026-01-05 10:34:59.35	337.10	12.75	-42.1	-44.3	17.9	0.00e+00	0	43	0	0	55	4709
2026-01-05 10:35:00.49	337.15	12.64	-42.1	-44.2	18.0	0.00e+00	0	43	0	0	55	4687
2026-01-05 10:35:01.35	337.19	12.56	-42.0	-44.2	18.0	0.00e+00	0	43	0	0	55	4680
2026-01-05 10:35:02.50	337.24	12.46	-42.1	-44.3	17.8	0.00e+00	0	43	0	0	55	4745
2026-01-05 10:35:03.36	337.27	12.38	-42.1	-44.3	17.8	0.00e+00	0	43	0	0	55	4747
2026-01-05 10:35:04.50	337.32	12.27	-42.2	-44.5	17.7	0.00e+00	0	43	0	0	55	4844
2026-01-05 10:35:05.37	337.36	12.19	-42.1	-44.5	17.6	0.00e+00	0	43	0	0	55	4839
2026-01-05 10:35:06.61	337.42	12.08	-42.0	-44.4	17.8	0.00e+00	0	43	0	0	55	4765
2026-01-05 10:35:07.46	337.45	12.00	-42.0	-44.4	17.7	0.00e+00	0	43	0	0	55	4799
2026-01-05 10:35:08.60	337.50	11.90	-42.1	-44.4	17.7	0.00e+00	0	43	0	0	55	4812
2026-01-05 10:35:09.46	337.54	11.82	-42.1	-44.5	17.6	0.00e+00	0	43	0	0	55	4860
2026-01-05 10:35:10.61	337.59	11.71	-42.2	-44.6	17.6	0.00e+00	0	43	0	0	55	4878
2026-01-05 10:35:11.47	337.62	11.64	-42.3	-44.8	17.4	0.00e+00	0	43	0	0	55	4992
2026-01-05 10:35:12.62	337.67	11.53	-42.3	-44.6	17.5	0.00e+00	0	43	0	0	55	4922
2026-01-05 10:35:13.48	337.71	11.45	-42.3	-44.7	17.4	0.00e+00	0	43	0	0	55	4962
2026-01-05 10:35:14.63	337.76	11.35	-42.5	-44.8	17.4	0.00e+00	0	43	0	0	55	5003
2026-01-05 10:35:15.61	337.80	11.27	-42.5	-44.8	17.3	0.00e+00	0	43	0	0	55	5029
2026-01-05 10:35:16.61	337.84	11.18	-42.6	-45.0	17.2	0.00e+00	0	43	0	0	55	5119
2026-01-05 10:35:17.87	337.89	11.07	-42.7	-45.0	17.4	0.00e+00	0	43	0	0	56	4835
2026-01-05 10:35:18.68	337.92	10.99	-42.8	-45.1	17.2	0.00e+00	0	43	0	0	56	4897
2026-01-05 10:35:19.82	337.97	10.89	-42.8	-45.1	17.2	0.00e+00	0	43	0	0	56	4906
2026-01-05 10:35:20.68	338.00	10.82	-42.7	-44.9	17.4	0.00e+00	0	43	0	0	56	4811
2026-01-05 10:35:21.83	338.05	10.72	-42.7	-44.9	17.4	0.00e+00	0	43	0	0	56	4794
2026-01-05 10:35:22.69	338.08	10.64	-42.8	-45.1	17.2	0.00e+00	0	43	0	0	56	4922
2026-01-05 10:35:23.83	338.13	10.55	-42.7	-44.9	17.3	0.00e+00	0	43	0	0	56	4811
2026-01-05 10:35:24.69	338.16	10.47	-42.8	-45.1	17.2	0.00e+00	0	43	0	0	56	4883
2026-01-05 10:35:25.84	338.21	10.37	-42.7	-45.0	17.3	0.00e+00	0	43	0	0	56	4850
2026-01-05 10:35:26.70	338.24	10.30	-42.7	-45.0	17.2	0.00e+00	0	43	0	0	56	4858
2026-01-05 10:35:27.84	338.28	10.20	-42.7	-45.1	17.2	0.00e+00	0	43	0	0	56	4882
2026-01-05 10:35:28.70	338.32	10.13	-42.7	-45.0	17.2	0.00e+00	0	43	0	0	56	4856
2026-01-05 10:35:30.00	338.37	10.02	-42.8	-45.2	17.1	0.00e+00	0	43	0	0	56	4940
2026-01-05 10:35:30.72	338.39	9.96	-42.9	-45.3	16.9	0.00e+00	0	43	0	0	56	5024
2026-01-05 10:35:32.01	338.44	9.85	-42.8	-45.1	17.1	0.00e+00	0	43	0	0	56	4922
2026-01-05 10:35:32.72	338.47	9.79	-42.8	-45.1	17.2	0.00e+00	0	43	0	0	56	4885
2026-01-05 10:35:34.01	338.52	9.68	-43.1	-45.4	16.8	0.00e+00	0	43	0	0	56	5067
2026-01-05 10:35:34.73	338.54	9.62	-43.0	-45.3	16.9	0.00e+00	0	43	0	0	56	5018
2026-01-05 10:35:36.02	338.59	9.51	-43.0	-45.3	16.9	0.00e+00	0	43	0	0	56	5006
2026-01-05 10:35:36.73	338.62	9.46	-43.2	-45.5	16.7	0.00e+00	0	43	0	0	57	4834
2026-01-05 10:35:38.02	338.67	9.35	-43.1	-45.4	16.8	0.00e+00	0	43	0	0	57	4795
2026-01-05 10:35:38.74	338.69	9.29	-43.3	-45.6	16.6	0.00e+00	0	43	0	0	57	4879
2026-01-05 10:35:40.02	338.74	9.19	-43.2	-45.5	16.7	0.00e+00	0	43	0	0	57	4856
2026-01-05 10:35:40.74	338.77	9.13	-43.3	-45.6	16.6	0.00e+00	0	43	0	0	57	4913
2026-01-05 10:35:42.03	338.81	9.02	-43.3	-45.6	16.5	0.00e+00	0	43	0	0	57	4903
2026-01-05 10:35:42.74	338.84	8.96	-45.9	-49.3	13.3	0.00e+00	0	43	0	0	62	5646
2026-01-05 10:35:44.04	338.88	8.86	-49.5	-63.8	3.8	1.49e+00	0	43	104	0	69	19945
2026-01-05 10:35:44.75	338.91	8.80	-50.2	-63.9	3.8	1.49e+00	0	43	104	0	71	17893
2026-01-05 10:35:46.04	338.95	8.70	-49.8	-64.0	3.8	1.49e+00	0	43	104	0	71	18236
2026-01-05 10:35:46.76	338.98	8.64	-50.7	-64.0	3.8	1.49e+00	0	43	104	0	72	17175
2026-01-05 10:35:48.05	339.02	8.54	-50.8	-64.1	3.8	1.49e+00	0	43	104	0	72	17430
2026-01-05 10:35:48.77	339.05	8.48	-49.9	-64.2	3.8	1.49e+00	0	43	104	0	71	18592
2026-01-05 10:35:50.06	339.09	8.38	-50.0	-64.2	3.8	1.49e+00	0	43	104	0	72	17544
2026-01-05 10:35:50.78	339.12	8.32	-51.0	-64.2	3.8	1.49e+00	0	43	104	0	72	17577
2026-01-05 10:35:52.07	339.16	8.22	-50.6	-64.2	3.8	1.49e+00	0	43	104	0	72	17633
2026-01-05 10:35:52.79	339.19	8.16	-50.2	-64.2	3.8	1.49e+00	0	43	104	0	72	17667
2026-01-05 10:35:54.08	339.23	8.06	-51.0	-64.2	3.8	1.49e+00	0	43	104	0	72	17600
2026-01-05 10:35:54.79	339.26	8.00	-50.7	-64.2	3.8	1.49e+00	0	43	104	0	72	17646
2026-01-05 10:35:56.09	339.30	7.90	-50.9	-64.2	3.8	1.49e+00	0	43	104	0	73	16647
2026-01-05 10:35:56.80	339.32	7.85	-50.8	-64.2	3.8	1.49e+00	0	43	104	0	73	16685
2026-01-05 10:35:58.09	339.37	7.75	-51.1	-64.2	3.8	1.49e+00	0	43	104	0	73	16661
2026-01-05 10:35:58.81	339.39	7.69	-51.2	-64.2	3.8	1.49e+00	0	43	104	0	73	16675
2026-01-05 10:36:00.11	339.43	7.59	-51.2	-64.2	3.8	1.49e+00	0	43	104	0	73	16662
2026-01-05 10:36:00.88	339.46	7.53	-51.1	-64.2	3.8	1.49e+00	0	43	104	0	73	16596
2026-01-05 10:36:02.17	339.50	7.43	-51.2	-64.2	3.8	1.49e+00	0	43	104	0	73	16657
2026-01-05 10:36:02.91	339.53	7.38	-51.1	-64.2	3.8	1.49e+00	0	43	104	0	73	16538
2026-01-05 10:36:04.20	339.57	7.28	-51.1	-64.2	3.8	1.49e+00	0	43	104	0	73	16533
2026-01-05 10:36:05.01	339.59	7.22	-51.1	-64.2	3.8	1.49e+00	0	43	104	0	73	16536
2026-01-05 10:36:06.16	339.63	7.13	-51.1	-64.2	3.8	1.49e+00	0	43	104	0	73	16506
2026-01-05 10:36:07.23	339.67	7.05	-51.0	-64.2	3.8	1.49e+00	0	44	104	0	73	16516
2026-01-05 10:36:08.26	339.70	6.97	-50.9	-64.2	3.8	1.49e+00	0	43	104	0	73	16532
2026-01-05 10:36:09.43	339.74	6.88	-50.9	-64.2	3.8	1.49e+00	0	43	104	0	73	16522
2026-01-05 10:36:10.33	339.76	6.82	-50.8	-64.1	3.8	1.49e+00	0	43	104	0	73	16447
2026-01-05 10:36:11.35	339.80	6.74	-50.8	-64.1	3.8	1.49e+00	0	43	104	0	73	16434
2026-01-05 10:36:12.35	339.83	6.67	-50.8	-64.1	3.8	1.49e+00	0	43	104	0	73	16441
2026-01-05 10:36:13.35	339.86	6.59	-50.8	-64.1	3.8	1.49e+00	0	43	104	0	73	16406
2026-01-05 10:36:14.36	339.89	6.52	-50.8	-64.1	3.8	1.49e+00	0	43	104	0	73	16422
2026-01-05 10:36:15.36	339.92	6.44	-50.7	-64.1	3.8	1.49e+00	0	43	104	0	73	16417
2026-01-05 10:36:16.37	339.95	6.37	-50.8	-64.1	3.8	1.49e+00	0	43	104	0	73	16445
2026-01-05 10:36:17.37	339.98	6.30	-50.7	-64.1	3.8	1.49e+00	0	43	104	0	73	16381
2026-01-05 10:36:18.37	340.01	6.22	-50.8	-64.1	3.8	1.49e+00	0	43	104	0	73	16436
2026-01-05 10:36:19.38	340.04	6.15	-50.8	-64.1	3.8	1.49e+00	0	43	104	0	73	16437
2026-01-05 10:36:20.38	340.07	6.08	-50.8	-64.1	3.8	1.49e+00	0	43	104	0	73	16439
2026-01-05 10:36:21.39	340.10	6.00	-50.8	-64.1	3.8	1.49e+00	0	44	104	0	73	16420
2026-01-05 10:36:22.39	340.13	5.93	-50.8	-64.1	3.8	1.49e+00	0	43	104	0	73	16416
2026-01-05 10:36:23.39	340.16	5.86	-50.8	-64.1	3.8	1.49e+00	0	43	104	0	73	16418
2026-01-05 10:36:24.40	340.19	5.79	-50.8	-64.1	3.8	1.49e+00	0	43	104	0	73	16402
2026-01-05 10:36:25.40	340.22	5.72	-50.8	-64.1	3.8	1.49e+00	0	43	104	0	73	16376
2026-01-05 10:36:26.41	340.25	5.64	-50.8	-64.1	3.8	1.49e+00	0	44	104	0	73	16435
2026-01-05 10:36:27.41	340.28	5.57	-50.8	-64.1	3.8	1.49e+00	0	43	104	0	73	16347
2026-01-05 10:36:28.41	340.31	5.50	-50.8	-64.1	3.8	1.49e+00	0	43	104	0	73	16361
2026-01-05 10:36:29.42	340.34	5.43	-50.8	-64.1	3.8	1.49e+00	0	43	104	0	73	16394
