passes_logs/2026/01/05/T1/T1__20260105_111500_NOAA_20_JPSS-1_rec.log

#Pass ID: 20260105_111500_NOAA 20 (JPSS-1)
#Satellite: NOAA 20 (JPSS-1)
#Configuration: NOAA 20
#almurnet v.1.7.20251203
#Start time: 2026-01-05 11:14:59

#Version: 2.0.20230620
#Station: T1
#Location: 37.570604 lon 55.790049 lat
#TLE: 1 43013U 17073A   26004.47528369  .00000132  00000+0  83671-4 0  9999
#TLE: 2 43013  98.7626 305.5264 0001854  54.5883 305.5466 14.19533142421242

#Time	Az	El	Level	Level2	SNR	BER	BlckErr	Temp	State	Recorded	gain1	gain2
2026-01-05 11:14:59.78	203.25	4.99	-49.7	-65.2	3.8	1.49e+00	0	40	0	0	71	20912
2026-01-05 11:15:00.78	203.32	5.05	-49.7	-65.1	3.8	1.49e+00	0	41	104	0	71	20619
2026-01-05 11:15:01.78	203.40	5.11	-49.7	-65.1	3.8	1.49e+00	0	41	104	0	71	20590
2026-01-05 11:15:02.79	203.47	5.18	-49.7	-65.1	3.8	1.49e+00	0	41	104	0	71	20653
2026-01-05 11:15:03.79	203.55	5.24	-49.7	-65.1	3.8	1.49e+00	0	41	104	0	71	20614
2026-01-05 11:15:04.80	203.63	5.30	-49.7	-65.1	3.8	1.49e+00	0	41	104	0	71	20657
2026-01-05 11:15:05.80	203.70	5.37	-49.7	-65.1	3.8	1.49e+00	0	41	104	0	71	20740
2026-01-05 11:15:06.80	203.78	5.43	-49.7	-65.2	3.8	1.49e+00	0	41	104	0	71	20874
2026-01-05 11:15:07.81	203.86	5.49	-49.7	-65.2	3.8	1.49e+00	0	41	104	0	71	20827
2026-01-05 11:15:08.81	203.93	5.56	-49.7	-65.2	3.8	1.49e+00	0	41	104	0	71	20799
2026-01-05 11:15:09.81	204.01	5.62	-49.7	-65.2	3.8	1.49e+00	0	41	104	0	71	20843
2026-01-05 11:15:10.82	204.09	5.69	-49.7	-65.1	3.8	1.49e+00	0	41	104	0	71	20769
2026-01-05 11:15:11.82	204.17	5.75	-49.7	-65.1	3.8	1.49e+00	0	41	104	0	71	20749
2026-01-05 11:15:12.82	204.25	5.81	-49.7	-65.1	3.8	1.49e+00	0	41	104	0	71	20755
2026-01-05 11:15:13.83	204.33	5.88	-49.7	-65.2	3.8	1.49e+00	0	42	104	0	71	20828
2026-01-05 11:15:14.83	204.41	5.94	-49.7	-65.1	3.8	1.49e+00	0	42	104	0	71	20624
2026-01-05 11:15:15.84	204.49	6.01	-49.7	-65.0	3.8	1.49e+00	0	42	104	0	71	20374
2026-01-05 11:15:16.84	204.57	6.07	-49.7	-64.9	3.8	1.49e+00	0	41	104	0	71	20217
2026-01-05 11:15:17.85	204.65	6.14	-49.7	-64.8	3.8	1.49e+00	0	42	104	0	71	19983
2026-01-05 11:15:18.85	204.73	6.20	-49.7	-64.7	3.8	1.49e+00	0	42	104	0	71	19680
2026-01-05 11:15:19.86	204.81	6.27	-49.7	-64.6	3.8	1.49e+00	0	41	104	0	71	19549
2026-01-05 11:15:20.86	204.89	6.33	-49.7	-64.6	3.8	1.49e+00	0	42	104	0	71	19557
2026-01-05 11:15:21.86	204.97	6.40	-49.7	-64.7	3.8	1.49e+00	0	42	104	0	71	19669
2026-01-05 11:15:22.87	205.05	6.46	-49.7	-64.6	3.8	1.49e+00	0	42	104	0	71	19571
2026-01-05 11:15:23.87	205.14	6.53	-49.7	-64.6	3.8	1.49e+00	0	42	104	0	71	19548
2026-01-05 11:15:24.88	205.22	6.59	-49.7	-64.6	3.8	1.49e+00	0	42	104	0	71	19404
2026-01-05 11:15:25.88	205.30	6.66	-49.7	-64.5	3.8	1.49e+00	0	42	104	0	71	19188
2026-01-05 11:15:26.89	205.39	6.73	-49.6	-64.3	3.8	1.49e+00	0	42	104	0	71	18795
2026-01-05 11:15:27.89	205.47	6.79	-49.6	-64.1	3.8	1.49e+00	0	42	104	0	71	18504
2026-01-05 11:15:28.89	205.56	6.86	-49.6	-64.1	3.8	1.49e+00	0	42	104	0	71	18357
2026-01-05 11:15:29.90	205.64	6.92	-49.6	-64.0	3.8	1.49e+00	0	42	104	0	71	18251
2026-01-05 11:15:30.90	205.73	6.99	-49.7	-64.2	3.8	1.49e+00	0	42	104	0	71	18531
2026-01-05 11:15:31.91	205.81	7.06	-49.6	-64.3	3.8	1.49e+00	0	42	104	0	71	18906
2026-01-05 11:15:32.91	205.90	7.12	-49.7	-64.6	3.8	1.49e+00	0	42	104	0	71	19581
2026-01-05 11:15:33.92	205.98	7.19	-49.7	-64.7	3.8	1.49e+00	0	42	104	0	71	19677
2026-01-05 11:15:34.92	206.07	7.26	-49.6	-64.6	3.8	1.49e+00	0	42	104	0	71	19451
2026-01-05 11:15:35.92	206.16	7.33	-49.6	-64.2	3.8	1.49e+00	0	42	104	0	71	18724
2026-01-05 11:15:36.92	206.24	7.39	-49.6	-63.8	3.8	1.49e+00	0	42	104	0	71	17734
2026-01-05 11:15:37.93	206.33	7.46	-49.6	-63.3	3.8	1.49e+00	0	42	104	0	71	16867
2026-01-05 11:15:38.94	206.42	7.53	-49.6	-63.4	3.8	1.49e+00	0	42	104	0	71	17073
2026-01-05 11:15:39.94	206.51	7.59	-49.6	-64.1	3.8	1.49e+00	0	42	104	0	71	18383
2026-01-05 11:15:40.94	206.60	7.66	-49.7	-64.8	3.8	1.49e+00	0	42	104	0	71	20023
2026-01-05 11:15:41.95	206.69	7.73	-49.6	-64.7	3.8	1.49e+00	0	42	104	0	71	19621
2026-01-05 11:15:42.95	206.78	7.80	-49.5	-62.4	3.9	1.49e+00	0	42	104	0	71	15113
2026-01-05 11:15:43.96	206.87	7.87	-49.2	-59.2	5.2	7.98e-01	0	42	0	1048576	70	11057
2026-01-05 11:15:44.96	206.96	7.93	-48.6	-56.0	7.8	1.84e-01	0	42	0	2097152	69	8113
2026-01-05 11:15:45.96	207.05	8.00	-47.8	-53.7	9.9	2.55e-02	0	42	0	4194304	67	6996
2026-01-05 11:15:46.97	207.14	8.07	-47.0	-51.8	11.9	2.77e-03	0	42	0	6291456	66	5924
2026-01-05 11:15:47.97	207.23	8.14	-46.3	-50.5	13.3	5.49e-05	0	42	0	8388608	64	5738
2026-01-05 11:15:48.98	207.32	8.21	-45.8	-49.6	14.3	1.50e-06	0	42	0	9437184	63	5474
2026-01-05 11:15:49.98	207.42	8.28	-45.4	-48.9	15.0	0.00e+00	0	42	0	11534336	62	5345
2026-01-05 11:15:50.99	207.51	8.35	-45.3	-48.6	15.2	0.00e+00	0	43	0	13631488	62	5209
2026-01-05 11:15:51.99	207.60	8.41	-45.4	-48.8	15.1	0.00e+00	0	43	0	15728640	62	5293
2026-01-05 11:15:52.99	207.70	8.48	-45.6	-49.2	14.6	7.00e-07	0	42	0	17825792	62	5581
2026-01-05 11:15:54.00	207.79	8.55	-46.2	-50.1	13.8	5.30e-06	0	43	0	18874368	62	6185
2026-01-05 11:15:55.00	207.89	8.62	-46.4	-50.6	13.2	2.05e-05	0	42	0	20971520	63	6150
2026-01-05 11:15:56.01	207.98	8.69	-47.4	-52.6	11.2	2.99e-04	0	42	0	23068672	65	6916
2026-01-05 11:15:57.01	208.08	8.76	-47.8	-53.7	10.0	3.04e-03	0	43	0	25165824	66	7419
2026-01-05 11:15:58.01	208.17	8.83	-48.3	-55.4	8.2	3.82e-02	0	43	0	27262976	67	8536
2026-01-05 11:15:59.02	208.27	8.90	-48.9	-57.4	6.5	1.59e-01	0	43	0	28311552	68	10145
2026-01-05 11:16:00.02	208.37	8.97	-49.2	-59.1	5.2	3.96e-01	0	43	0	30408704	68	12355
2026-01-05 11:16:01.03	208.47	9.04	-49.3	-60.3	4.7	8.32e-01	0	43	0	32505856	69	13289
2026-01-05 11:16:02.03	208.56	9.11	-47.2	-52.0	11.9	8.08e-02	0	43	0	34603008	66	6072
2026-01-05 11:16:03.03	208.66	9.18	-49.6	-63.3	3.8	5.00e-01	0	43	104	35651584	69	18734
2026-01-05 11:16:04.03	208.76	9.25	-49.4	-60.4	4.6	8.09e-01	0	43	0	35651584	69	13534
2026-01-05 11:16:05.03	208.86	9.32	-49.6	-61.1	4.4	5.09e-01	0	43	0	37748736	69	14650
2026-01-05 11:16:06.04	208.96	9.39	-49.6	-63.4	3.8	1.49e+00	0	43	104	37748736	70	17945
2026-01-05 11:16:07.04	209.06	9.46	-49.7	-61.0	4.5	1.49e+00	0	43	104	37748736	70	13695
2026-01-05 11:16:08.05	209.16	9.54	-49.6	-59.6	5.1	7.65e-01	0	43	0	38797312	70	11665
2026-01-05 11:16:09.05	209.26	9.61	-49.3	-57.8	6.4	3.99e-01	0	43	0	40894464	70	9417
2026-01-05 11:16:10.05	209.36	9.68	-49.1	-57.0	7.0	2.59e-01	0	43	0	42991616	70	8645
2026-01-05 11:16:11.05	209.46	9.75	-48.5	-55.2	8.8	2.53e-02	0	43	0	45088768	68	7847
2026-01-05 11:16:12.06	209.57	9.82	-48.4	-54.7	9.5	1.08e-02	0	43	0	46137344	68	7391
2026-01-05 11:16:13.35	209.70	9.91	-49.8	-61.9	4.2	1.42e+00	0	43	0	48234496	70	15083
2026-01-05 11:16:14.10	209.78	9.97	-49.8	-62.3	4.1	1.41e+00	0	43	0	48234496	70	15836
2026-01-05 11:16:15.70	209.94	10.08	-49.3	-58.3	6.1	1.06e-01	0	43	0	50331648	69	10624
2026-01-05 11:16:16.53	210.03	10.14	-49.5	-60.0	5.0	7.81e-01	0	43	0	52428800	69	12890
2026-01-05 11:16:17.68	210.15	10.22	-49.4	-59.4	5.2	6.96e-01	0	43	0	54525952	69	12032
2026-01-05 11:16:18.54	210.24	10.28	-49.4	-59.1	5.4	5.99e-01	0	43	0	55574528	69	11633
2026-01-05 11:16:19.69	210.36	10.37	-50.0	-64.6	3.8	5.46e-01	0	43	104	57671680	70	20755
2026-01-05 11:16:20.55	210.45	10.43	-49.6	-60.4	4.1	1.49e+00	0	43	104	57671680	70	12778
2026-01-05 11:16:21.69	210.58	10.51	-49.7	-61.0	4.5	1.90e-01	0	43	0	58720256	69	14442
2026-01-05 11:16:22.55	210.67	10.57	-49.8	-61.3	4.4	1.37e+00	0	43	0	59768832	70	14076
2026-01-05 11:16:23.70	210.79	10.66	-48.4	-54.2	10.0	1.18e+00	0	43	0	60817408	68	7023
2026-01-05 11:16:24.55	210.88	10.72	-48.5	-54.5	9.7	1.16e-02	0	43	0	62914560	68	7221
2026-01-05 11:16:25.70	211.01	10.80	-48.5	-54.4	9.8	9.42e-03	0	43	0	65011712	68	7137
2026-01-05 11:16:26.56	211.10	10.87	-48.4	-54.2	10.1	7.65e-03	0	43	0	66060288	68	6975
2026-01-05 11:16:27.70	211.23	10.95	-48.4	-54.2	10.1	8.12e-03	0	43	0	69206016	68	7004
2026-01-05 11:16:28.57	211.33	11.01	-48.5	-54.5	9.8	8.44e-03	0	43	0	70254592	68	7231
2026-01-05 11:16:29.71	211.45	11.10	-48.4	-54.4	9.9	9.30e-03	0	43	0	72351744	68	7143
2026-01-05 11:16:30.57	211.55	11.16	-47.8	-53.0	11.1	5.18e-03	0	43	0	74448896	67	6475
2026-01-05 11:16:31.72	211.68	11.25	-47.0	-51.4	12.8	1.61e-04	0	43	0	76546048	66	5674
2026-01-05 11:16:32.58	211.77	11.31	-46.5	-50.5	13.7	8.30e-06	0	43	0	77594624	65	5414
2026-01-05 11:16:33.73	211.91	11.39	-46.1	-49.8	14.4	7.00e-07	0	43	0	79691776	64	5289
2026-01-05 11:16:34.59	212.00	11.46	-45.7	-49.0	15.3	7.00e-07	0	43	0	81788928	63	5129
2026-01-05 11:16:35.73	212.13	11.54	-45.4	-48.5	15.9	0.00e+00	0	43	0	83886080	62	5114
2026-01-05 11:16:36.59	212.23	11.61	-45.4	-48.6	15.8	0.00e+00	0	43	0	84934656	62	5178
2026-01-05 11:16:37.73	212.36	11.69	-45.3	-48.3	16.0	0.00e+00	0	43	0	88080384	62	5034
2026-01-05 11:16:38.59	212.46	11.76	-45.5	-48.7	15.7	0.00e+00	0	43	0	89128960	62	5230
2026-01-05 11:16:39.74	212.60	11.84	-45.4	-48.5	15.8	7.00e-07	0	43	0	91226112	62	5145
2026-01-05 11:16:40.60	212.70	11.91	-45.4	-48.5	15.8	0.00e+00	0	43	0	93323264	62	5134
2026-01-05 11:16:41.75	212.83	11.99	-45.0	-48.0	16.3	0.00e+00	0	43	0	95420416	62	4826
2026-01-05 11:16:42.79	212.96	12.07	-45.0	-47.9	16.4	0.00e+00	0	43	0	97517568	61	5085
2026-01-05 11:16:43.87	213.09	12.15	-45.0	-48.0	16.3	0.00e+00	0	43	0	98566144	61	5126
2026-01-05 11:16:44.86	213.21	12.23	-44.9	-47.9	16.5	0.00e+00	0	43	0	100663296	61	5043
2026-01-05 11:16:45.87	213.33	12.30	-44.8	-47.7	16.6	0.00e+00	0	43	0	102760448	61	4952
2026-01-05 11:16:46.85	213.45	12.38	-44.8	-47.7	16.6	0.00e+00	0	43	0	104857600	61	4960
2026-01-05 11:16:47.86	213.57	12.45	-44.7	-47.5	16.8	0.00e+00	0	43	0	106954752	61	4870
2026-01-05 11:16:48.86	213.69	12.53	-44.6	-47.4	16.9	0.00e+00	0	43	0	108003328	61	4801
2026-01-05 11:16:49.86	213.81	12.61	-44.7	-47.5	16.9	0.00e+00	0	43	0	110100480	61	4834
2026-01-05 11:16:50.86	213.94	12.68	-44.6	-47.5	16.9	0.00e+00	0	43	0	112197632	61	4820
2026-01-05 11:16:51.87	214.06	12.76	-44.7	-47.5	16.8	0.00e+00	0	43	0	114294784	61	4859
2026-01-05 11:16:52.87	214.19	12.83	-44.6	-47.4	17.0	0.00e+00	0	43	0	116391936	61	4791
2026-01-05 11:16:53.87	214.31	12.91	-44.6	-47.4	17.0	0.00e+00	0	43	0	117440512	61	4775
2026-01-05 11:16:54.87	214.44	12.99	-44.6	-47.3	17.0	0.00e+00	0	43	0	119537664	61	4728
2026-01-05 11:16:55.87	214.56	13.06	-44.6	-47.4	17.0	0.00e+00	0	43	0	121634816	61	4764
2026-01-05 11:16:56.94	214.70	13.15	-44.6	-47.4	17.0	0.00e+00	0	43	0	123731968	61	4761
2026-01-05 11:16:57.83	214.81	13.21	-44.5	-47.3	17.1	0.00e+00	0	43	0	124780544	61	4713
2026-01-05 11:16:58.97	214.96	13.30	-44.6	-47.4	17.0	0.00e+00	0	43	0	127926272	61	4771
2026-01-05 11:16:59.83	215.07	13.37	-44.6	-47.4	17.0	0.00e+00	0	43	0	128974848	61	4760
2026-01-05 11:17:00.98	215.22	13.46	-44.6	-47.4	17.0	0.00e+00	0	43	0	131072000	61	4777
2026-01-05 11:17:01.83	215.33	13.52	-44.6	-47.3	17.0	0.00e+00	0	43	0	133169152	61	4758
2026-01-05 11:17:02.98	215.48	13.61	-44.5	-47.3	17.1	0.00e+00	0	43	0	135266304	61	4715
2026-01-05 11:17:03.84	215.60	13.68	-44.4	-47.2	17.2	0.00e+00	0	43	0	136314880	60	4939
2026-01-05 11:17:04.99	215.75	13.77	-44.5	-47.3	17.1	0.00e+00	0	43	0	138412032	60	4996
2026-01-05 11:17:05.85	215.86	13.84	-44.5	-47.3	17.1	0.00e+00	0	43	0	140509184	60	4996
2026-01-05 11:17:06.99	216.01	13.92	-44.5	-47.2	17.1	0.00e+00	0	43	0	142606336	60	4975
2026-01-05 11:17:07.85	216.13	13.99	-44.5	-47.3	17.1	0.00e+00	0	43	0	143654912	60	5028
2026-01-05 11:17:09.00	216.29	14.08	-44.6	-47.5	16.9	0.00e+00	0	43	0	145752064	60	5112
2026-01-05 11:17:09.86	216.40	14.15	-44.6	-47.5	16.9	0.00e+00	0	43	0	147849216	60	5109
2026-01-05 11:17:11.00	216.56	14.24	-44.7	-47.6	16.8	0.00e+00	0	43	0	149946368	60	5171
2026-01-05 11:17:11.86	216.68	14.31	-44.8	-47.7	16.7	0.00e+00	0	43	0	150994944	60	5248
2026-01-05 11:17:13.01	216.83	14.40	-44.8	-47.7	16.8	0.00e+00	0	43	0	154140672	60	5229
2026-01-05 11:17:13.87	216.95	14.46	-44.7	-47.6	16.8	0.00e+00	0	43	0	155189248	60	5198
2026-01-05 11:17:15.01	217.11	14.55	-44.7	-47.5	16.9	0.00e+00	0	43	0	157286400	60	5125
2026-01-05 11:17:15.87	217.23	14.62	-44.7	-47.6	16.9	0.00e+00	0	43	0	159383552	60	5171
2026-01-05 11:17:17.02	217.40	14.71	-44.7	-47.5	16.9	0.00e+00	0	43	0	161480704	60	5149
2026-01-05 11:17:17.88	217.52	14.78	-44.7	-47.5	16.9	0.00e+00	0	43	0	162529280	60	5154
2026-01-05 11:17:19.03	217.68	14.87	-44.6	-47.4	17.0	0.00e+00	0	43	0	164626432	60	5063
2026-01-05 11:17:19.89	217.80	14.94	-44.6	-47.3	17.1	0.00e+00	0	43	0	166723584	60	5036
2026-01-05 11:17:21.13	217.98	15.04	-44.6	-47.4	17.1	0.00e+00	0	43	0	168820736	60	5046
2026-01-05 11:17:21.98	218.10	15.10	-44.6	-47.4	17.1	0.00e+00	0	43	0	170917888	60	5052
2026-01-05 11:17:23.13	218.27	15.20	-44.6	-47.4	17.0	0.00e+00	0	43	0	173015040	60	5084
2026-01-05 11:17:23.99	218.40	15.26	-44.7	-47.5	16.9	0.00e+00	0	43	0	174063616	60	5131
2026-01-05 11:17:25.13	218.56	15.36	-44.7	-47.4	17.0	0.00e+00	0	43	0	176160768	60	5085
2026-01-05 11:17:25.99	218.69	15.42	-44.6	-47.4	17.1	0.00e+00	0	43	0	178257920	60	5072
2026-01-05 11:17:27.14	218.86	15.52	-44.7	-47.5	17.0	0.00e+00	0	43	0	180355072	60	5102
2026-01-05 11:17:28.10	219.01	15.59	-44.7	-47.5	17.0	0.00e+00	0	44	0	182452224	60	5117
2026-01-05 11:17:29.27	219.18	15.69	-44.6	-47.4	17.1	0.00e+00	0	44	0	184549376	60	5058
2026-01-05 11:17:30.13	219.31	15.75	-44.6	-47.3	17.1	0.00e+00	0	43	0	185597952	60	5017
2026-01-05 11:17:31.49	219.52	15.86	-44.6	-47.4	17.1	0.00e+00	0	43	0	188743680	60	5058
2026-01-05 11:17:32.20	219.63	15.92	-44.5	-47.2	17.3	0.00e+00	0	43	0	189792256	60	4956
2026-01-05 11:17:33.49	219.82	16.02	-44.5	-47.2	17.2	0.00e+00	0	43	0	191889408	60	4971
2026-01-05 11:17:34.21	219.93	16.08	-44.5	-47.2	17.2	0.00e+00	0	43	0	192937984	60	4979
2026-01-05 11:17:35.50	220.13	16.19	-44.5	-47.3	17.2	0.00e+00	0	43	0	196083712	60	5008
2026-01-05 11:17:36.21	220.24	16.24	-44.6	-47.4	17.0	0.00e+00	0	43	0	197132288	60	5075
2026-01-05 11:17:37.82	220.50	16.37	-44.4	-47.1	17.3	0.00e+00	0	43	0	200278016	60	4888
2026-01-05 11:17:38.39	220.59	16.42	-44.4	-47.1	17.4	0.00e+00	0	43	0	201326592	60	4907
2026-01-05 11:17:40.00	220.84	16.55	-44.3	-47.0	17.5	0.00e+00	0	43	0	204472320	60	4838
2026-01-05 11:17:40.57	220.93	16.60	-44.2	-46.9	17.6	0.00e+00	0	43	0	205520896	60	4792
2026-01-05 11:17:42.15	221.19	16.72	-44.3	-47.0	17.5	0.00e+00	0	43	0	208666624	60	4834
2026-01-05 11:17:42.92	221.31	16.79	-44.2	-46.9	17.6	0.00e+00	0	43	0	209715200	60	4785
2026-01-05 11:17:44.21	221.52	16.89	-44.2	-46.8	17.7	0.00e+00	0	43	0	211812352	60	4711
2026-01-05 11:17:45.06	221.66	16.96	-44.2	-46.8	17.7	0.00e+00	0	43	0	213909504	60	4731
2026-01-05 11:17:46.52	221.90	17.08	-44.1	-46.7	17.8	0.00e+00	0	43	0	217055232	60	4673
2026-01-05 11:17:47.24	222.02	17.14	-44.0	-46.6	17.9	0.00e+00	0	43	0	218103808	60	4623
2026-01-05 11:17:48.53	222.23	17.24	-44.0	-46.6	17.9	0.00e+00	0	43	0	220200960	60	4603
2026-01-05 11:17:49.25	222.35	17.30	-43.9	-46.4	18.0	0.00e+00	0	44	0	221249536	59	4797
2026-01-05 11:17:50.79	222.61	17.42	-43.9	-46.5	17.9	0.00e+00	0	43	0	224395264	59	4819
2026-01-05 11:17:51.50	222.73	17.48	-44.0	-46.5	17.8	0.00e+00	0	43	0	225443840	59	4862
2026-01-05 11:17:52.80	222.95	17.59	-43.9	-46.4	18.0	0.00e+00	0	43	0	228589568	59	4773
2026-01-05 11:17:53.52	223.07	17.65	-44.0	-46.5	17.8	0.00e+00	0	43	0	229638144	59	4870
2026-01-05 11:17:54.81	223.29	17.75	-44.0	-46.6	17.8	0.00e+00	0	43	0	231735296	59	4875
2026-01-05 11:17:55.53	223.42	17.81	-43.9	-46.5	17.9	0.00e+00	0	43	0	233832448	59	4821
2026-01-05 11:17:56.82	223.64	17.91	-44.0	-46.5	17.9	0.00e+00	0	43	0	235929600	59	4816
2026-01-05 11:17:57.54	223.77	17.97	-44.0	-46.4	17.9	0.00e+00	0	43	0	236978176	59	4814
2026-01-05 11:17:58.83	223.99	18.08	-43.8	-46.3	18.1	0.00e+00	0	43	0	240123904	59	4736
2026-01-05 11:17:59.57	224.12	18.14	-43.9	-46.4	18.0	0.00e+00	0	43	0	241172480	59	4781
2026-01-05 11:18:00.86	224.35	18.24	-43.9	-46.4	18.0	0.00e+00	0	43	0	243269632	59	4807
2026-01-05 11:18:01.65	224.49	18.31	-43.9	-46.4	18.0	0.00e+00	0	43	0	245366784	59	4777
2026-01-05 11:18:02.85	224.70	18.41	-43.9	-46.4	18.0	0.00e+00	0	44	0	247463936	59	4806
2026-01-05 11:18:03.71	224.86	18.48	-43.9	-46.4	18.0	0.00e+00	0	43	0	248512512	59	4784
2026-01-05 11:18:04.86	225.07	18.57	-43.9	-46.5	18.0	0.00e+00	0	43	0	250609664	59	4822
2026-01-05 11:18:05.72	225.22	18.64	-43.9	-46.4	18.1	0.00e+00	0	43	0	252706816	59	4771
2026-01-05 11:18:06.86	225.43	18.73	-43.8	-46.3	18.1	0.00e+00	0	43	0	254803968	59	4742
2026-01-05 11:18:07.72	225.59	18.80	-43.8	-46.3	18.1	0.00e+00	0	43	0	255852544	59	4722
2026-01-05 11:18:08.87	225.80	18.90	-43.9	-46.4	18.0	0.00e+00	0	43	0	258998272	59	4799
2026-01-05 11:18:09.73	225.96	18.97	-43.8	-46.3	18.1	0.00e+00	0	43	0	260046848	59	4726
2026-01-05 11:18:10.87	226.17	19.06	-43.7	-46.1	18.3	0.00e+00	0	43	0	262144000	59	4647
2026-01-05 11:18:11.73	226.33	19.13	-43.6	-46.0	18.4	0.00e+00	0	44	0	264241152	59	4580
2026-01-05 11:18:13.10	226.59	19.24	-43.7	-46.2	18.3	0.00e+00	0	43	0	266338304	59	4654
2026-01-05 11:18:13.82	226.73	19.30	-43.7	-46.1	18.3	0.00e+00	0	43	0	267386880	59	4650
2026-01-05 11:18:15.11	226.97	19.40	-43.6	-46.0	18.4	0.00e+00	0	44	0	270532608	59	4556
2026-01-05 11:18:15.82	227.11	19.46	-43.6	-46.0	18.4	0.00e+00	0	43	0	271581184	59	4591
2026-01-05 11:18:17.11	227.36	19.57	-43.5	-46.0	18.5	0.00e+00	0	43	0	273678336	59	4549
2026-01-05 11:18:17.86	227.50	19.63	-43.5	-45.9	18.5	0.00e+00	0	43	0	275775488	59	4542
2026-01-05 11:18:19.15	227.76	19.73	-43.5	-45.8	18.6	0.00e+00	0	43	0	277872640	58	4756
2026-01-05 11:18:19.96	227.91	19.80	-43.5	-45.9	18.6	0.00e+00	0	43	0	278921216	58	4760
2026-01-05 11:18:21.11	228.14	19.89	-43.4	-45.8	18.6	0.00e+00	0	44	0	281018368	58	4728
2026-01-05 11:18:22.21	228.36	19.98	-43.5	-45.9	18.5	0.00e+00	0	43	0	283115520	58	4791
2026-01-05 11:18:23.24	228.56	20.06	-43.5	-45.9	18.5	0.00e+00	0	44	0	285212672	58	4795
2026-01-05 11:18:24.24	228.76	20.14	-43.4	-45.7	18.7	0.00e+00	0	44	0	287309824	58	4693
2026-01-05 11:18:25.45	229.01	20.24	-43.3	-45.7	18.7	0.00e+00	0	44	0	289406976	58	4669
2026-01-05 11:18:26.34	229.18	20.31	-43.3	-45.6	18.8	0.00e+00	0	44	0	291504128	58	4646
2026-01-05 11:18:27.49	229.42	20.41	-43.2	-45.6	18.8	0.00e+00	0	43	0	293601280	58	4611
2026-01-05 11:18:28.35	229.59	20.47	-43.3	-45.7	18.7	0.00e+00	0	43	0	294649856	58	4675
2026-01-05 11:18:29.49	229.83	20.57	-43.3	-45.6	18.8	0.00e+00	0	43	0	296747008	58	4629
2026-01-05 11:18:30.35	230.01	20.63	-43.3	-45.6	18.8	0.00e+00	0	43	0	298844160	58	4633
2026-01-05 11:18:31.50	230.24	20.73	-43.3	-45.7	18.8	0.00e+00	0	44	0	300941312	58	4661
2026-01-05 11:18:32.36	230.42	20.80	-43.2	-45.5	18.9	0.00e+00	0	43	0	301989888	58	4566
2026-01-05 11:18:33.50	230.66	20.89	-43.3	-45.6	18.8	0.00e+00	0	43	0	305135616	58	4616
2026-01-05 11:18:34.35	230.84	20.95	-43.2	-45.5	18.9	0.00e+00	0	43	0	306184192	58	4581
2026-01-05 11:18:35.56	231.10	21.05	-43.3	-45.6	18.8	0.00e+00	0	43	0	308281344	58	4645
2026-01-05 11:18:36.42	231.28	21.12	-43.3	-45.7	18.7	0.00e+00	0	43	0	310378496	58	4669
2026-01-05 11:18:37.56	231.52	21.21	-43.5	-45.8	18.4	0.00e+00	0	43	0	312475648	58	4744
2026-01-05 11:18:38.42	231.71	21.28	-43.5	-45.8	18.6	0.00e+00	0	43	0	313524224	58	4758
2026-01-05 11:18:39.56	231.95	21.37	-43.4	-45.8	18.7	0.00e+00	0	44	0	315621376	58	4737
2026-01-05 11:18:40.41	232.14	21.43	-43.5	-45.9	18.6	0.00e+00	0	44	0	317718528	58	4762
2026-01-05 11:18:41.56	232.39	21.52	-43.5	-45.8	18.6	0.00e+00	0	44	0	319815680	58	4756
2026-01-05 11:18:42.41	232.58	21.59	-43.5	-45.9	18.5	0.00e+00	0	43	0	320864256	58	4811
2026-01-05 11:18:43.55	232.83	21.68	-43.5	-45.9	18.6	0.00e+00	0	44	0	322961408	58	4762
2026-01-05 11:18:44.40	233.01	21.75	-43.4	-45.8	18.7	0.00e+00	0	44	0	325058560	58	4737
2026-01-05 11:18:45.54	233.27	21.83	-43.4	-45.8	18.6	0.00e+00	0	43	0	327155712	58	4732
2026-01-05 11:18:46.39	233.46	21.90	-43.4	-45.7	18.7	0.00e+00	0	43	0	329252864	58	4704
2026-01-05 11:18:47.54	233.72	21.99	-43.4	-45.7	18.7	0.00e+00	0	44	0	331350016	58	4697
2026-01-05 11:18:48.39	233.91	22.05	-43.4	-45.7	18.7	0.00e+00	0	43	0	332398592	58	4694
2026-01-05 11:18:49.53	234.17	22.14	-43.3	-45.7	18.8	0.00e+00	0	43	0	334495744	58	4659
2026-01-05 11:18:50.39	234.36	22.21	-43.4	-45.8	18.7	0.00e+00	0	43	0	336592896	58	4710
2026-01-05 11:18:51.53	234.62	22.30	-43.4	-45.7	18.8	0.00e+00	0	43	0	338690048	58	4684
2026-01-05 11:18:52.39	234.82	22.36	-43.3	-45.7	18.8	0.00e+00	0	43	0	339738624	58	4684
2026-01-05 11:18:53.53	235.08	22.45	-43.3	-45.7	18.8	0.00e+00	0	43	0	341835776	58	4667
2026-01-05 11:18:54.38	235.28	22.51	-43.2	-45.5	18.9	0.00e+00	0	43	0	343932928	58	4563
2026-01-05 11:18:55.52	235.55	22.60	-43.0	-45.3	19.1	0.00e+00	0	43	0	346030080	58	4478
2026-01-05 11:18:56.37	235.75	22.66	-43.1	-45.4	19.1	0.00e+00	0	43	0	347078656	58	4504
2026-01-05 11:18:57.51	236.02	22.75	-43.2	-45.5	19.0	0.00e+00	0	43	0	349175808	58	4554
2026-01-05 11:18:58.37	236.22	22.81	-43.2	-45.5	19.0	0.00e+00	0	44	0	351272960	58	4562
2026-01-05 11:18:59.51	236.49	22.90	-43.3	-45.6	18.9	0.00e+00	0	44	0	353370112	58	4647
2026-01-05 11:19:00.37	236.69	22.96	-43.4	-45.8	18.7	0.00e+00	0	43	0	355467264	58	4713
2026-01-05 11:19:01.51	236.97	23.04	-43.4	-45.8	18.6	0.00e+00	0	43	0	357564416	58	4759
2026-01-05 11:19:02.37	237.18	23.11	-43.4	-45.8	18.7	0.00e+00	0	43	0	358612992	58	4734
2026-01-05 11:19:03.51	237.45	23.19	-43.5	-45.9	18.7	0.00e+00	0	44	0	360710144	58	4762
2026-01-05 11:19:04.37	237.66	23.25	-43.5	-45.9	18.6	0.00e+00	0	43	0	362807296	58	4793
2026-01-05 11:19:05.51	237.94	23.34	-43.6	-46.0	18.4	0.00e+00	0	44	0	364904448	58	4868
2026-01-05 11:19:06.37	238.15	23.40	-43.6	-46.1	18.5	0.00e+00	0	44	0	365953024	58	4873
2026-01-05 11:19:07.50	238.43	23.48	-43.7	-46.1	18.4	0.00e+00	0	43	0	368050176	58	4906
2026-01-05 11:19:08.36	238.64	23.54	-43.8	-46.3	18.2	0.00e+00	0	43	0	370147328	58	5007
2026-01-05 11:19:09.50	238.93	23.62	-44.0	-46.5	18.0	0.00e+00	0	44	0	372244480	58	5120
2026-01-05 11:19:10.35	239.14	23.68	-44.1	-46.6	17.9	0.00e+00	0	43	0	373293056	58	5217
2026-01-05 11:19:11.49	239.42	23.76	-44.1	-46.7	17.9	0.00e+00	0	44	0	375390208	58	5237
2026-01-05 11:19:12.35	239.64	23.82	-44.2	-46.8	17.8	0.00e+00	0	43	0	377487360	59	5004
2026-01-05 11:19:13.49	239.93	23.90	-44.2	-46.7	17.8	0.00e+00	0	43	0	379584512	59	4968
2026-01-05 11:19:14.34	240.15	23.96	-44.2	-46.7	17.8	0.00e+00	0	43	0	381681664	59	4963
2026-01-05 11:19:15.49	240.44	24.04	-44.2	-46.7	17.9	0.00e+00	0	43	0	383778816	59	4950
2026-01-05 11:19:16.34	240.66	24.10	-44.2	-46.7	17.9	0.00e+00	0	43	0	384827392	59	4941
2026-01-05 11:19:17.47	240.95	24.18	-44.1	-46.6	17.9	0.00e+00	0	43	0	386924544	59	4909
2026-01-05 11:19:18.33	241.17	24.24	-44.0	-46.5	18.1	0.00e+00	0	43	0	389021696	59	4820
2026-01-05 11:19:19.47	241.47	24.31	-44.0	-46.5	18.0	0.00e+00	0	44	0	391118848	59	4850
2026-01-05 11:19:20.32	241.69	24.37	-44.0	-46.5	18.1	0.00e+00	0	43	0	392167424	59	4819
2026-01-05 11:19:21.45	241.98	24.44	-44.1	-46.6	18.0	0.00e+00	0	44	0	394264576	59	4902
2026-01-05 11:19:22.31	242.21	24.50	-44.2	-46.8	17.8	0.00e+00	0	44	0	396361728	59	4985
2026-01-05 11:19:23.45	242.51	24.58	-44.2	-46.7	17.8	0.00e+00	0	43	0	398458880	59	4978
2026-01-05 11:19:24.30	242.74	24.63	-44.3	-46.8	17.7	0.00e+00	0	43	0	399507456	59	5039
2026-01-05 11:19:25.44	243.04	24.70	-44.4	-46.9	17.6	0.00e+00	0	44	0	401604608	59	5100
2026-01-05 11:19:26.29	243.27	24.76	-44.4	-47.0	17.6	0.00e+00	0	44	0	403701760	59	5107
2026-01-05 11:19:27.43	243.57	24.83	-44.4	-47.0	17.6	0.00e+00	0	43	0	405798912	59	5109
2026-01-05 11:19:28.28	243.80	24.89	-44.3	-46.9	17.7	0.00e+00	0	44	0	406847488	59	5099
2026-01-05 11:19:29.42	244.11	24.96	-44.3	-46.9	17.7	0.00e+00	0	43	0	409993216	59	5070
2026-01-05 11:19:30.28	244.34	25.01	-44.3	-46.9	17.7	0.00e+00	0	43	0	411041792	59	5057
2026-01-05 11:19:31.42	244.65	25.08	-44.4	-47.0	17.6	0.00e+00	0	43	0	413138944	59	5101
2026-01-05 11:19:32.28	244.89	25.13	-44.4	-47.0	17.6	0.00e+00	0	43	0	415236096	59	5141
2026-01-05 11:19:33.41	245.20	25.20	-44.6	-47.2	17.4	0.00e+00	0	44	0	417333248	59	5273
2026-01-05 11:19:34.26	245.43	25.25	-44.7	-47.4	17.3	0.00e+00	0	43	0	418381824	60	5100
2026-01-05 11:19:35.40	245.75	25.32	-44.8	-47.6	17.1	0.00e+00	0	44	0	420478976	60	5183
2026-01-05 11:19:36.26	245.99	25.37	-44.9	-47.7	17.0	0.00e+00	0	43	0	422576128	60	5265
2026-01-05 11:19:37.40	246.30	25.44	-45.0	-47.9	16.8	0.00e+00	0	43	0	424673280	60	5362
2026-01-05 11:19:38.25	246.54	25.49	-45.1	-47.9	16.8	0.00e+00	0	44	0	425721856	60	5372
2026-01-05 11:19:39.39	246.86	25.55	-45.1	-47.9	16.8	0.00e+00	0	44	0	427819008	61	5057
2026-01-05 11:19:40.24	247.10	25.60	-45.0	-47.8	16.9	0.00e+00	0	44	0	429916160	61	5021
2026-01-05 11:19:41.38	247.42	25.66	-45.1	-47.9	16.8	0.00e+00	0	44	0	432013312	61	5060
2026-01-05 11:19:42.24	247.67	25.71	-45.0	-47.8	16.9	0.00e+00	0	44	0	433061888	61	5031
2026-01-05 11:19:43.37	247.99	25.77	-45.1	-47.9	16.8	0.00e+00	0	44	0	435159040	61	5070
2026-01-05 11:19:44.23	248.23	25.82	-45.2	-48.1	16.6	0.00e+00	0	43	0	437256192	61	5192
2026-01-05 11:19:45.36	248.56	25.88	-45.4	-48.3	16.4	0.00e+00	0	44	0	439353344	61	5327
2026-01-05 11:19:46.21	248.80	25.92	-45.5	-48.5	16.2	0.00e+00	0	43	0	441450496	61	5417
2026-01-05 11:19:47.35	249.13	25.98	-45.5	-48.6	16.1	0.00e+00	0	44	0	443547648	61	5483
2026-01-05 11:19:48.21	249.38	26.03	-45.6	-48.8	15.9	0.00e+00	0	43	0	444596224	61	5625
2026-01-05 11:19:49.35	249.71	26.09	-45.8	-49.0	15.7	0.00e+00	0	43	0	446693376	62	5452
2026-01-05 11:19:50.20	249.96	26.13	-45.8	-48.9	15.9	0.00e+00	0	44	0	448790528	62	5352
2026-01-05 11:19:51.34	250.29	26.18	-45.9	-49.0	15.7	0.00e+00	0	44	0	450887680	62	5435
2026-01-05 11:19:52.19	250.54	26.23	-45.9	-49.1	15.6	0.00e+00	0	44	0	451936256	62	5519
2026-01-05 11:19:53.32	250.87	26.28	-46.0	-49.3	15.5	0.00e+00	0	43	0	454033408	62	5624
2026-01-05 11:19:54.18	251.12	26.32	-46.1	-49.5	15.3	0.00e+00	0	44	0	456130560	62	5727
2026-01-05 11:19:55.32	251.46	26.37	-46.1	-49.6	15.2	7.00e-07	0	44	0	458227712	62	5794
2026-01-05 11:19:56.18	251.71	26.41	-46.2	-49.7	15.1	0.00e+00	0	44	0	459276288	63	5550
2026-01-05 11:19:57.32	252.05	26.46	-46.2	-49.7	15.0	0.00e+00	0	44	0	461373440	63	5569
2026-01-05 11:19:58.17	252.30	26.50	-46.1	-49.6	15.1	0.00e+00	0	44	0	463470592	63	5477
2026-01-05 11:19:59.31	252.64	26.55	-45.9	-49.4	15.3	0.00e+00	0	44	0	465567744	63	5374
2026-01-05 11:20:00.16	252.90	26.59	-45.9	-49.4	15.4	0.00e+00	0	43	0	466616320	63	5347
2026-01-05 11:20:01.30	253.24	26.64	-45.7	-49.2	15.6	0.00e+00	0	44	0	469762048	63	5239
2026-01-05 11:20:02.16	253.50	26.67	-45.7	-49.1	15.6	0.00e+00	0	44	0	470810624	63	5183
2026-01-05 11:20:03.30	253.84	26.72	-45.7	-49.1	15.6	0.00e+00	0	44	0	472907776	63	5195
2026-01-05 11:20:04.15	254.10	26.75	-45.9	-49.2	15.5	0.00e+00	0	44	0	475004928	63	5257
2026-01-05 11:20:05.30	254.45	26.80	-46.1	-49.5	15.2	0.00e+00	0	44	0	477102080	63	5417
2026-01-05 11:20:06.15	254.71	26.83	-46.2	-49.6	15.1	0.00e+00	0	43	0	478150656	63	5512
2026-01-05 11:20:07.29	255.05	26.87	-46.3	-49.8	15.0	0.00e+00	0	44	0	480247808	63	5610
2026-01-05 11:20:08.15	255.32	26.90	-46.3	-49.7	15.0	0.00e+00	0	44	0	482344960	63	5590
2026-01-05 11:20:09.29	255.66	26.95	-46.4	-49.9	14.8	0.00e+00	0	44	0	484442112	63	5672
2026-01-05 11:20:10.15	255.93	26.98	-46.4	-49.8	14.9	7.00e-07	0	44	0	485490688	63	5648
2026-01-05 11:20:11.29	256.28	27.02	-46.3	-49.8	15.0	0.00e+00	0	44	0	487587840	63	5593
2026-01-05 11:20:12.14	256.54	27.04	-46.4	-49.9	14.8	0.00e+00	0	44	0	489684992	63	5701
2026-01-05 11:20:13.28	256.89	27.08	-46.4	-49.9	14.8	0.00e+00	0	44	0	491782144	63	5710
2026-01-05 11:20:14.13	257.15	27.11	-46.3	-49.9	14.9	0.00e+00	0	44	0	492830720	63	5663
2026-01-05 11:20:15.28	257.51	27.14	-46.3	-49.9	14.9	0.00e+00	0	44	0	495976448	63	5673
2026-01-05 11:20:16.13	257.77	27.17	-46.2	-49.7	15.1	0.00e+00	0	44	0	497025024	63	5559
2026-01-05 11:20:17.26	258.12	27.20	-46.1	-49.5	15.2	0.00e+00	0	44	0	499122176	63	5450
2026-01-05 11:20:18.12	258.39	27.23	-46.0	-49.4	15.3	0.00e+00	0	44	0	501219328	63	5369
2026-01-05 11:20:19.26	258.75	27.26	-45.7	-48.9	15.8	0.00e+00	0	44	0	503316480	63	5053
2026-01-05 11:20:20.11	259.01	27.28	-45.7	-48.8	15.9	0.00e+00	0	44	0	504365056	63	5031
2026-01-05 11:20:21.26	259.37	27.31	-45.6	-48.7	16.1	0.00e+00	0	44	0	506462208	63	4942
2026-01-05 11:20:22.12	259.64	27.33	-45.5	-48.6	16.1	0.00e+00	0	44	0	508559360	63	4883
2026-01-05 11:20:23.26	260.00	27.36	-45.4	-48.4	16.4	0.00e+00	0	44	0	510656512	62	5056
2026-01-05 11:20:24.11	260.27	27.38	-45.4	-48.3	16.4	0.00e+00	0	44	0	511705088	62	5034
2026-01-05 11:20:25.25	260.62	27.40	-45.5	-48.6	16.2	0.00e+00	0	44	0	513802240	62	5172
2026-01-05 11:20:26.10	260.89	27.42	-45.7	-48.9	15.8	0.00e+00	0	44	0	515899392	62	5360
2026-01-05 11:20:27.24	261.25	27.45	-46.0	-49.2	15.5	0.00e+00	0	44	0	517996544	62	5592
2026-01-05 11:20:28.09	261.52	27.46	-46.2	-49.6	15.1	0.00e+00	0	43	0	519045120	63	5527
2026-01-05 11:20:29.23	261.88	27.48	-46.3	-49.7	15.0	0.00e+00	0	44	0	521142272	63	5571
2026-01-05 11:20:30.08	262.15	27.50	-46.3	-49.7	15.0	0.00e+00	0	44	0	523239424	63	5592
2026-01-05 11:20:31.23	262.51	27.52	-46.2	-49.6	15.1	0.00e+00	0	44	0	525336576	63	5503
2026-01-05 11:20:32.09	262.79	27.53	-46.2	-49.6	15.2	0.00e+00	0	44	0	527433728	63	5490
2026-01-05 11:20:33.24	263.15	27.55	-46.1	-49.4	15.3	0.00e+00	0	44	0	529530880	63	5379
2026-01-05 11:20:34.09	263.42	27.56	-45.8	-49.1	15.7	0.00e+00	0	44	0	530579456	63	5178
2026-01-05 11:20:35.24	263.79	27.58	-45.9	-49.1	15.6	0.00e+00	0	44	0	532676608	63	5212
2026-01-05 11:20:36.10	264.06	27.59	-45.9	-49.2	15.6	0.00e+00	0	44	0	534773760	63	5222
2026-01-05 11:20:37.24	264.42	27.60	-46.1	-49.3	15.5	0.00e+00	0	44	0	536870912	63	5302
2026-01-05 11:20:38.10	264.70	27.61	-46.1	-49.3	15.5	0.00e+00	0	44	0	537919488	63	5317
2026-01-05 11:20:39.24	265.06	27.62	-46.0	-49.1	15.7	0.00e+00	0	44	0	540016640	63	5204
2026-01-05 11:20:40.10	265.34	27.63	-45.9	-49.1	15.7	0.00e+00	0	44	0	542113792	63	5182
2026-01-05 11:20:41.24	265.70	27.64	-45.8	-48.9	15.8	0.00e+00	0	44	0	544210944	63	5088
2026-01-05 11:20:42.11	265.98	27.64	-45.7	-48.7	16.0	0.00e+00	0	44	0	545259520	63	4964
2026-01-05 11:20:43.25	266.34	27.65	-45.6	-48.6	16.1	0.00e+00	0	44	0	548405248	63	4897
2026-01-05 11:20:44.10	266.61	27.65	-45.5	-48.5	16.2	0.00e+00	0	44	0	549453824	63	4861
2026-01-05 11:20:45.24	266.98	27.66	-45.3	-48.2	16.6	0.00e+00	0	43	0	551550976	62	4938
2026-01-05 11:20:46.10	267.25	27.66	-45.1	-47.9	16.9	0.00e+00	0	44	0	553648128	62	4762
2026-01-05 11:20:47.24	267.62	27.66	-45.1	-47.9	16.8	0.00e+00	0	44	0	555745280	62	4802
2026-01-05 11:20:48.09	267.89	27.66	-45.0	-47.8	17.0	0.00e+00	0	44	0	556793856	62	4720
2026-01-05 11:20:49.23	268.25	27.66	-45.0	-47.8	16.9	0.00e+00	0	44	0	558891008	61	5020
2026-01-05 11:20:50.08	268.52	27.66	-45.1	-48.0	16.8	0.00e+00	0	44	0	560988160	61	5120
2026-01-05 11:20:51.23	268.89	27.66	-45.3	-48.2	16.5	0.00e+00	0	44	0	563085312	61	5245
2026-01-05 11:20:52.08	269.16	27.66	-45.3	-48.3	16.4	0.00e+00	0	44	0	564133888	61	5311
2026-01-05 11:20:53.23	269.53	27.65	-45.3	-48.3	16.4	0.00e+00	0	44	0	566231040	61	5331
2026-01-05 11:20:54.08	269.80	27.65	-45.2	-48.2	16.6	0.00e+00	0	44	0	568328192	61	5222
2026-01-05 11:20:55.22	270.17	27.64	-44.8	-47.6	17.1	0.00e+00	0	44	0	570425344	61	4898
2026-01-05 11:20:56.07	270.44	27.64	-44.6	-47.3	17.4	0.00e+00	0	44	0	571473920	61	4730
2026-01-05 11:20:57.21	270.80	27.63	-44.5	-47.2	17.5	0.00e+00	0	44	0	573571072	61	4685
2026-01-05 11:20:58.06	271.07	27.62	-44.6	-47.2	17.5	0.00e+00	0	44	0	575668224	61	4699
2026-01-05 11:20:59.21	271.44	27.61	-44.7	-47.4	17.3	0.00e+00	0	44	0	577765376	61	4785
2026-01-05 11:21:00.06	271.71	27.60	-44.9	-47.6	17.1	0.00e+00	0	43	0	579862528	61	4908
2026-01-05 11:21:01.20	272.07	27.59	-45.0	-47.8	16.9	0.00e+00	0	44	0	581959680	61	5021
2026-01-05 11:21:02.06	272.34	27.58	-45.1	-48.0	16.7	0.00e+00	0	44	0	583008256	61	5131
2026-01-05 11:21:03.20	272.71	27.56	-45.1	-48.0	16.8	0.00e+00	0	44	0	585105408	61	5113
2026-01-05 11:21:04.06	272.98	27.55	-45.2	-48.1	16.7	0.00e+00	0	44	0	587202560	61	5177
2026-01-05 11:21:05.21	273.34	27.53	-45.2	-48.1	16.6	0.00e+00	0	44	0	589299712	61	5208
2026-01-05 11:21:06.06	273.61	27.52	-45.2	-48.1	16.7	0.00e+00	0	44	0	590348288	61	5174
2026-01-05 11:21:07.21	273.98	27.50	-45.2	-48.1	16.6	0.00e+00	0	44	0	592445440	61	5209
2026-01-05 11:21:08.06	274.25	27.49	-45.2	-48.1	16.6	0.00e+00	0	44	0	594542592	61	5196
2026-01-05 11:21:09.21	274.61	27.46	-45.3	-48.2	16.6	0.00e+00	0	44	0	596639744	61	5248
2026-01-05 11:21:10.07	274.88	27.45	-45.4	-48.3	16.5	0.00e+00	0	44	0	598736896	61	5299
2026-01-05 11:21:11.21	275.24	27.42	-45.5	-48.5	16.3	0.00e+00	0	44	0	599785472	61	5445
2026-01-05 11:21:12.07	275.51	27.41	-45.6	-48.7	16.1	0.00e+00	0	44	0	601882624	61	5550
2026-01-05 11:21:13.22	275.87	27.38	-45.7	-48.8	16.0	0.00e+00	0	43	0	603979776	62	5312
2026-01-05 11:21:14.07	276.14	27.36	-45.7	-48.8	15.9	0.00e+00	0	44	0	606076928	62	5330
2026-01-05 11:21:15.22	276.50	27.33	-45.6	-48.6	16.2	0.00e+00	0	44	0	608174080	62	5171
2026-01-05 11:21:16.08	276.77	27.31	-45.5	-48.5	16.3	0.00e+00	0	44	0	609222656	62	5132
2026-01-05 11:21:17.22	277.12	27.28	-45.3	-48.3	16.5	0.00e+00	0	44	0	611319808	62	4993
2026-01-05 11:21:18.08	277.39	27.26	-45.1	-48.0	16.8	0.00e+00	0	44	0	613416960	62	4833
2026-01-05 11:21:19.22	277.75	27.23	-44.8	-47.5	17.2	0.00e+00	0	44	0	615514112	61	4849
2026-01-05 11:21:20.08	278.01	27.20	-44.7	-47.4	17.3	0.00e+00	0	43	0	616562688	61	4809
2026-01-05 11:21:21.22	278.37	27.17	-44.9	-47.7	17.1	0.00e+00	0	44	0	618659840	61	4927
2026-01-05 11:21:22.08	278.63	27.14	-45.1	-47.9	16.8	0.00e+00	0	44	0	620756992	61	5073
2026-01-05 11:21:23.22	278.98	27.11	-45.3	-48.3	16.5	0.00e+00	0	44	0	622854144	61	5311
2026-01-05 11:21:24.08	279.25	27.08	-45.4	-48.4	16.3	0.00e+00	0	44	0	624951296	61	5366
2026-01-05 11:21:25.22	279.60	27.05	-45.4	-48.4	16.4	0.00e+00	0	44	0	627048448	61	5366
2026-01-05 11:21:26.08	279.86	27.02	-45.5	-48.4	16.3	0.00e+00	0	44	0	628097024	61	5397
2026-01-05 11:21:27.23	280.22	26.98	-45.3	-48.2	16.6	0.00e+00	0	44	0	630194176	61	5231
2026-01-05 11:21:28.08	280.48	26.95	-45.3	-48.2	16.6	0.00e+00	0	44	0	632291328	61	5228
2026-01-05 11:21:29.23	280.83	26.91	-45.1	-47.9	16.8	0.00e+00	0	44	0	634388480	61	5060
2026-01-05 11:21:30.09	281.09	26.87	-45.0	-47.8	16.9	0.00e+00	0	44	0	635437056	61	5003
2026-01-05 11:21:31.23	281.44	26.83	-45.0	-47.8	17.0	0.00e+00	0	44	0	637534208	61	4991
2026-01-05 11:21:32.09	281.70	26.80	-45.0	-47.8	17.0	0.00e+00	0	44	0	639631360	61	4999
2026-01-05 11:21:33.23	282.04	26.75	-45.1	-47.9	16.8	0.00e+00	0	44	0	641728512	61	5088
2026-01-05 11:21:34.09	282.30	26.72	-45.1	-47.9	16.8	0.00e+00	0	44	0	642777088	61	5086
2026-01-05 11:21:35.23	282.64	26.67	-45.2	-48.0	16.7	0.00e+00	0	44	0	644874240	61	5132
2026-01-05 11:21:36.09	282.90	26.64	-45.2	-48.1	16.6	0.00e+00	0	44	0	646971392	61	5194
2026-01-05 11:21:37.24	283.25	26.59	-45.2	-48.1	16.6	0.00e+00	0	44	0	649068544	61	5200
2026-01-05 11:21:38.10	283.50	26.55	-45.3	-48.2	16.5	0.00e+00	0	44	0	651165696	61	5233
2026-01-05 11:21:39.24	283.84	26.50	-44.9	-47.7	17.0	0.00e+00	0	44	0	653262848	61	4970
2026-01-05 11:21:40.09	284.09	26.47	-44.9	-47.7	17.0	0.00e+00	0	44	0	654311424	61	4952
2026-01-05 11:21:41.24	284.43	26.41	-44.7	-47.4	17.3	0.00e+00	0	44	0	656408576	61	4780
2026-01-05 11:21:42.10	284.69	26.37	-44.8	-47.5	17.3	0.00e+00	0	44	0	658505728	61	4815
2026-01-05 11:21:43.24	285.02	26.32	-44.9	-47.6	17.1	0.00e+00	0	44	0	660602880	61	4879
2026-01-05 11:21:44.10	285.28	26.28	-44.9	-47.7	17.0	0.00e+00	0	44	0	661651456	61	4948
2026-01-05 11:21:45.24	285.61	26.23	-44.6	-47.3	17.4	0.00e+00	0	44	0	663748608	61	4708
2026-01-05 11:21:46.10	285.86	26.19	-44.3	-46.8	17.8	0.00e+00	0	44	0	665845760	60	4758
2026-01-05 11:21:47.24	286.19	26.13	-44.1	-46.6	18.1	0.00e+00	0	44	0	667942912	60	4604
2026-01-05 11:21:48.10	286.44	26.09	-44.0	-46.5	18.2	0.00e+00	0	44	0	668991488	60	4550
2026-01-05 11:21:49.25	286.77	26.03	-44.1	-46.5	18.1	0.00e+00	0	44	0	672137216	59	4865
2026-01-05 11:21:50.10	287.02	25.98	-44.1	-46.5	18.0	0.00e+00	0	44	0	673185792	59	4868
2026-01-05 11:21:51.25	287.35	25.92	-43.9	-46.4	18.2	0.00e+00	0	44	0	675282944	59	4771
2026-01-05 11:21:52.11	287.59	25.88	-43.8	-46.3	18.4	0.00e+00	0	44	0	677380096	59	4706
2026-01-05 11:21:53.25	287.92	25.82	-43.7	-46.1	18.5	0.00e+00	0	44	0	679477248	59	4631
2026-01-05 11:21:54.11	288.16	25.77	-43.6	-46.0	18.5	0.00e+00	0	44	0	680525824	59	4590
2026-01-05 11:21:55.25	288.49	25.71	-43.7	-46.1	18.5	0.00e+00	0	43	0	682622976	59	4609
2026-01-05 11:21:56.11	288.73	25.66	-43.8	-46.2	18.3	0.00e+00	0	44	0	684720128	59	4703
2026-01-05 11:21:57.26	289.05	25.60	-44.0	-46.4	18.2	0.00e+00	0	44	0	686817280	59	4809
2026-01-05 11:21:58.11	289.29	25.55	-43.9	-46.3	18.3	0.00e+00	0	44	0	687865856	59	4740
2026-01-05 11:21:59.26	289.61	25.49	-43.8	-46.3	18.3	0.00e+00	0	44	0	689963008	59	4731
2026-01-05 11:22:00.12	289.85	25.44	-43.8	-46.3	18.3	0.00e+00	0	44	0	692060160	59	4735
2026-01-05 11:22:01.26	290.17	25.37	-43.6	-46.0	18.5	0.00e+00	0	44	0	694157312	59	4596
2026-01-05 11:22:02.11	290.40	25.32	-43.3	-45.7	18.8	0.00e+00	0	43	0	696254464	58	4670
2026-01-05 11:22:03.26	290.72	25.25	-43.2	-45.5	19.0	0.00e+00	0	44	0	698351616	58	4592
2026-01-05 11:22:04.12	290.96	25.20	-43.3	-45.7	18.9	0.00e+00	0	44	0	699400192	58	4678
2026-01-05 11:22:05.26	291.27	25.13	-43.6	-46.0	18.6	0.00e+00	0	44	0	701497344	58	4848
2026-01-05 11:22:06.12	291.50	25.08	-43.8	-46.3	18.3	0.00e+00	0	44	0	703594496	58	5020
2026-01-05 11:22:07.26	291.81	25.01	-43.9	-46.4	18.2	0.00e+00	0	44	0	705691648	58	5096
2026-01-05 11:22:08.12	292.04	24.96	-43.9	-46.4	18.2	0.00e+00	0	44	0	706740224	58	5050
2026-01-05 11:22:09.26	292.35	24.89	-43.9	-46.3	18.3	0.00e+00	0	44	0	708837376	58	5027
2026-01-05 11:22:10.12	292.58	24.83	-43.6	-46.0	18.6	0.00e+00	0	44	0	710934528	58	4849
2026-01-05 11:22:11.27	292.89	24.76	-43.7	-46.0	18.5	0.00e+00	0	44	0	713031680	58	4864
2026-01-05 11:22:12.12	293.11	24.71	-43.4	-45.8	18.8	0.00e+00	0	44	0	714080256	58	4709
2026-01-05 11:22:13.27	293.42	24.63	-43.4	-45.7	18.8	0.00e+00	0	44	0	717225984	58	4681
2026-01-05 11:22:14.13	293.65	24.58	-43.3	-45.7	18.9	0.00e+00	0	44	0	718274560	58	4659
2026-01-05 11:22:15.27	293.94	24.50	-43.5	-45.8	18.7	0.00e+00	0	44	0	720371712	58	4745
2026-01-05 11:22:16.13	294.17	24.45	-43.6	-46.0	18.6	0.00e+00	0	44	0	722468864	58	4822
2026-01-05 11:22:17.27	294.47	24.37	-43.8	-46.2	18.4	0.00e+00	0	44	0	724566016	58	4946
2026-01-05 11:22:18.13	294.69	24.31	-43.9	-46.3	18.3	0.00e+00	0	43	0	725614592	58	5015
2026-01-05 11:22:19.28	294.99	24.24	-44.1	-46.6	18.0	0.00e+00	0	44	0	727711744	58	5200
2026-01-05 11:22:20.14	295.21	24.18	-44.3	-46.8	17.8	0.00e+00	0	44	0	729808896	59	5016
2026-01-05 11:22:21.28	295.50	24.10	-44.4	-47.0	17.6	0.00e+00	0	44	0	731906048	59	5130
2026-01-05 11:22:22.14	295.72	24.04	-44.5	-47.1	17.6	0.00e+00	0	44	0	732954624	59	5164
2026-01-05 11:22:23.28	296.01	23.96	-44.6	-47.2	17.5	0.00e+00	0	43	0	735051776	59	5231
2026-01-05 11:22:24.14	296.23	23.90	-44.4	-47.0	17.6	0.00e+00	0	44	0	737148928	59	5127
2026-01-05 11:22:25.28	296.51	23.83	-44.2	-46.7	17.9	0.00e+00	0	43	0	739246080	59	4934
2026-01-05 11:22:26.13	296.73	23.77	-44.1	-46.5	18.1	0.00e+00	0	44	0	741343232	59	4860
2026-01-05 11:22:27.27	297.01	23.69	-44.0	-46.5	18.1	0.00e+00	0	44	0	743440384	59	4856
2026-01-05 11:22:28.13	297.23	23.63	-44.1	-46.6	18.0	0.00e+00	0	44	0	744488960	59	4894
2026-01-05 11:22:29.27	297.51	23.54	-44.2	-46.7	18.0	0.00e+00	0	44	0	746586112	59	4946
2026-01-05 11:22:30.13	297.72	23.48	-44.3	-46.8	17.8	0.00e+00	0	43	0	748683264	59	5018
2026-01-05 11:22:31.28	298.00	23.40	-44.3	-46.9	17.7	0.00e+00	0	44	0	750780416	59	5068
2026-01-05 11:22:32.13	298.21	23.34	-44.4	-47.0	17.7	0.00e+00	0	44	0	751828992	59	5104
2026-01-05 11:22:33.27	298.49	23.26	-44.4	-47.0	17.6	0.00e+00	0	44	0	753926144	59	5155
2026-01-05 11:22:34.13	298.69	23.20	-44.4	-47.0	17.6	0.00e+00	0	44	0	756023296	59	5154
2026-01-05 11:22:35.27	298.97	23.11	-44.5	-47.2	17.4	0.00e+00	0	43	0	758120448	59	5253
2026-01-05 11:22:36.13	299.18	23.05	-44.5	-47.2	17.5	0.00e+00	0	44	0	759169024	59	5224
2026-01-05 11:22:37.28	299.45	22.97	-44.4	-47.0	17.6	0.00e+00	0	44	0	761266176	59	5125
2026-01-05 11:22:38.13	299.65	22.90	-44.3	-46.9	17.7	0.00e+00	0	44	0	763363328	59	5047
2026-01-05 11:22:39.28	299.92	22.82	-44.2	-46.7	17.9	0.00e+00	0	44	0	765460480	59	4930
2026-01-05 11:22:40.14	300.13	22.75	-44.1	-46.6	18.0	0.00e+00	0	43	0	767557632	59	4881
2026-01-05 11:22:41.28	300.39	22.67	-44.2	-46.8	17.8	0.00e+00	0	44	0	769654784	59	5016
2026-01-05 11:22:42.14	300.59	22.61	-44.1	-46.7	17.9	0.00e+00	0	43	0	770703360	59	4937
2026-01-05 11:22:43.28	300.86	22.52	-44.3	-46.9	17.7	0.00e+00	0	43	0	772800512	59	5085
2026-01-05 11:22:44.13	301.05	22.46	-44.4	-47.0	17.6	0.00e+00	0	43	0	774897664	59	5142
2026-01-05 11:22:45.28	301.32	22.37	-44.4	-47.0	17.6	0.00e+00	0	44	0	776994816	59	5150
2026-01-05 11:22:46.14	301.52	22.30	-44.3	-46.9	17.7	0.00e+00	0	44	0	778043392	59	5070
2026-01-05 11:22:47.28	301.78	22.22	-44.4	-47.0	17.6	0.00e+00	0	44	0	780140544	59	5135
2026-01-05 11:22:48.14	301.97	22.15	-44.2	-46.7	17.9	0.00e+00	0	44	0	782237696	59	4945
2026-01-05 11:22:49.29	302.23	22.06	-44.2	-46.7	17.8	0.00e+00	0	44	0	784334848	59	4978
2026-01-05 11:22:50.14	302.42	22.00	-44.3	-46.9	17.7	0.00e+00	0	43	0	785383424	59	5054
2026-01-05 11:22:51.29	302.68	21.91	-44.4	-47.0	17.6	0.00e+00	0	44	0	787480576	59	5119
2026-01-05 11:22:52.15	302.87	21.84	-44.5	-47.1	17.4	0.00e+00	0	43	0	789577728	59	5195
2026-01-05 11:22:53.29	303.12	21.76	-44.4	-47.1	17.5	0.00e+00	0	44	0	791674880	59	5162
2026-01-05 11:22:54.15	303.31	21.69	-44.4	-46.9	17.6	0.00e+00	0	44	0	793772032	59	5096
2026-01-05 11:22:55.30	303.56	21.60	-44.2	-46.7	17.9	0.00e+00	0	44	0	795869184	59	4945
2026-01-05 11:22:56.15	303.75	21.53	-44.1	-46.6	18.0	0.00e+00	0	44	0	796917760	59	4878
2026-01-05 11:22:57.29	303.99	21.45	-44.1	-46.6	17.9	0.00e+00	0	44	0	799014912	59	4899
2026-01-05 11:22:58.15	304.18	21.38	-44.0	-46.5	18.1	0.00e+00	0	43	0	801112064	59	4849
2026-01-05 11:22:59.29	304.42	21.29	-44.2	-46.8	17.8	0.00e+00	0	44	0	803209216	59	5003
2026-01-05 11:23:00.15	304.61	21.22	-44.3	-46.9	17.7	0.00e+00	0	43	0	804257792	59	5061
2026-01-05 11:23:01.30	304.85	21.13	-44.4	-47.0	17.6	0.00e+00	0	44	0	806354944	59	5145
2026-01-05 11:23:02.15	305.03	21.06	-44.4	-47.0	17.5	0.00e+00	0	43	0	808452096	59	5133
2026-01-05 11:23:03.29	305.27	20.97	-44.3	-46.9	17.7	0.00e+00	0	44	0	810549248	59	5067
2026-01-05 11:23:04.15	305.45	20.91	-44.3	-46.9	17.7	0.00e+00	0	44	0	811597824	59	5061
2026-01-05 11:23:05.29	305.69	20.82	-44.4	-47.0	17.5	0.00e+00	0	43	0	814743552	59	5152
2026-01-05 11:23:06.15	305.87	20.75	-44.7	-47.5	17.2	0.00e+00	0	44	0	815792128	60	5127
2026-01-05 11:23:07.30	306.10	20.66	-45.0	-47.9	16.7	0.00e+00	0	44	0	817889280	60	5385
2026-01-05 11:23:08.15	306.28	20.59	-45.4	-48.4	16.3	0.00e+00	0	44	0	819986432	61	5364
2026-01-05 11:23:09.30	306.51	20.50	-45.7	-48.8	15.8	0.00e+00	0	44	0	822083584	61	5645
2026-01-05 11:23:10.15	306.69	20.43	-45.6	-48.8	15.9	0.00e+00	0	44	0	823132160	62	5292
2026-01-05 11:23:11.29	306.92	20.34	-45.5	-48.6	16.1	0.00e+00	0	44	0	825229312	62	5172
2026-01-05 11:23:12.15	307.09	20.27	-45.3	-48.3	16.4	0.00e+00	0	44	0	827326464	62	5002
2026-01-05 11:23:13.30	307.32	20.18	-45.2	-48.2	16.5	0.00e+00	0	43	0	829423616	62	4927
2026-01-05 11:23:14.15	307.49	20.11	-45.2	-48.1	16.5	0.00e+00	0	44	0	830472192	62	4910
2026-01-05 11:23:15.29	307.71	20.02	-44.9	-47.7	16.9	0.00e+00	0	43	0	832569344	61	4981
2026-01-05 11:23:16.15	307.88	19.95	-44.9	-47.8	16.9	0.00e+00	0	44	0	834666496	61	4995
2026-01-05 11:23:17.29	308.11	19.86	-45.3	-48.2	16.4	0.00e+00	0	44	0	836763648	61	5263
2026-01-05 11:23:18.15	308.27	19.79	-45.4	-48.4	16.2	0.00e+00	0	44	0	837812224	61	5385
2026-01-05 11:23:19.29	308.50	19.70	-45.4	-48.3	16.3	0.00e+00	0	44	0	840957952	61	5333
2026-01-05 11:23:20.15	308.66	19.63	-45.1	-48.0	16.7	0.00e+00	0	44	0	842006528	61	5108
2026-01-05 11:23:21.30	308.88	19.54	-44.9	-47.7	16.9	0.00e+00	0	44	0	844103680	61	4933
2026-01-05 11:23:22.15	309.04	19.47	-44.8	-47.5	17.0	0.00e+00	0	44	0	846200832	61	4866
2026-01-05 11:23:23.29	309.26	19.38	-44.6	-47.3	17.3	0.00e+00	0	44	0	848297984	61	4739
2026-01-05 11:23:24.15	309.42	19.31	-44.4	-47.2	17.5	0.00e+00	0	44	0	849346560	60	4927
2026-01-05 11:23:25.29	309.64	19.22	-44.5	-47.2	17.4	0.00e+00	0	44	0	851443712	60	4982
2026-01-05 11:23:26.15	309.80	19.15	-44.7	-47.6	17.0	0.00e+00	0	43	0	853540864	60	5179
2026-01-05 11:23:27.30	310.01	19.05	-44.9	-47.9	16.7	0.00e+00	0	43	0	855638016	60	5388
2026-01-05 11:23:28.16	310.17	18.98	-45.0	-48.1	16.6	0.00e+00	0	43	0	856686592	60	5491
2026-01-05 11:23:29.30	310.38	18.89	-44.8	-47.8	16.8	0.00e+00	0	44	0	858783744	60	5313
2026-01-05 11:23:30.16	310.54	18.82	-44.7	-47.5	17.1	0.00e+00	0	44	0	860880896	60	5150
2026-01-05 11:23:31.31	310.75	18.73	-44.6	-47.5	17.1	0.00e+00	0	43	0	862978048	60	5116
2026-01-05 11:23:32.16	310.90	18.66	-44.6	-47.3	17.3	0.00e+00	0	44	0	865075200	60	5022
2026-01-05 11:23:33.31	311.11	18.57	-44.6	-47.4	17.2	0.00e+00	0	43	0	867172352	60	5072
2026-01-05 11:23:34.17	311.27	18.50	-44.8	-47.7	16.9	0.00e+00	0	44	0	868220928	60	5249
2026-01-05 11:23:35.31	311.47	18.41	-45.1	-48.1	16.5	0.00e+00	0	43	0	870318080	60	5480
2026-01-05 11:23:36.17	311.62	18.34	-45.3	-48.4	16.2	0.00e+00	0	43	0	872415232	61	5374
2026-01-05 11:23:37.31	311.82	18.25	-45.5	-48.6	16.0	0.00e+00	0	43	0	874512384	61	5495
2026-01-05 11:23:38.17	311.98	18.18	-45.4	-48.4	16.2	0.00e+00	0	43	0	875560960	61	5386
2026-01-05 11:23:39.32	312.18	18.08	-45.1	-48.1	16.5	0.00e+00	0	44	0	877658112	61	5172
2026-01-05 11:23:40.17	312.32	18.02	-45.0	-47.9	16.7	0.00e+00	0	43	0	879755264	61	5052
2026-01-05 11:23:41.32	312.52	17.92	-44.9	-47.8	16.8	0.00e+00	0	43	0	881852416	61	4997
2026-01-05 11:23:42.17	312.67	17.85	-44.8	-47.6	16.9	0.00e+00	0	43	0	883949568	61	4910
2026-01-05 11:23:43.32	312.87	17.76	-44.4	-47.0	17.6	0.00e+00	0	43	0	886046720	60	4847
2026-01-05 11:23:44.17	313.01	17.69	-44.3	-47.0	17.5	0.00e+00	0	43	0	887095296	60	4846
2026-01-05 11:23:45.31	313.20	17.60	-44.6	-47.4	17.2	0.00e+00	0	43	0	889192448	60	5052
2026-01-05 11:23:46.17	313.35	17.53	-45.1	-48.1	16.6	0.00e+00	0	44	0	891289600	60	5475
2026-01-05 11:23:47.30	313.54	17.44	-45.5	-48.7	15.9	0.00e+00	0	43	0	893386752	61	5556
2026-01-05 11:23:48.16	313.68	17.37	-45.6	-48.9	15.7	0.00e+00	0	43	0	894435328	61	5677
2026-01-05 11:23:49.30	313.87	17.28	-45.7	-49.1	15.5	0.00e+00	0	44	0	896532480	62	5486
2026-01-05 11:23:50.16	314.01	17.21	-45.4	-48.8	15.8	0.00e+00	0	44	0	898629632	62	5296
2026-01-05 11:23:51.30	314.20	17.12	-45.3	-48.5	16.1	0.00e+00	0	43	0	900726784	62	5152
2026-01-05 11:23:52.16	314.34	17.05	-45.0	-48.2	16.4	0.00e+00	0	43	0	901775360	62	4932
2026-01-05 11:23:53.30	314.53	16.96	-44.7	-47.7	16.9	0.00e+00	0	44	0	903872512	61	4946
2026-01-05 11:23:54.15	314.67	16.89	-44.6	-47.6	17.0	0.00e+00	0	43	0	905969664	61	4872
2026-01-05 11:23:55.29	314.85	16.80	-44.7	-47.6	16.9	0.00e+00	0	44	0	908066816	61	4923
2026-01-05 11:23:56.14	314.98	16.73	-44.7	-47.6	16.9	0.00e+00	0	44	0	909115392	61	4923
2026-01-05 11:23:57.28	315.17	16.64	-45.0	-48.0	16.6	0.00e+00	0	43	0	912261120	61	5112
2026-01-05 11:23:58.14	315.30	16.57	-45.0	-48.0	16.5	0.00e+00	0	43	0	913309696	61	5148
2026-01-05 11:23:59.28	315.48	16.48	-45.0	-47.9	16.7	0.00e+00	0	43	0	915406848	61	5076
2026-01-05 11:24:00.14	315.62	16.41	-44.9	-47.8	16.7	0.00e+00	0	43	0	917504000	61	5036
2026-01-05 11:24:01.27	315.79	16.32	-44.8	-47.6	16.9	0.00e+00	0	43	0	919601152	61	4892
2026-01-05 11:24:02.13	315.93	16.25	-44.7	-47.5	17.0	0.00e+00	0	43	0	920649728	61	4867
2026-01-05 11:24:03.27	316.10	16.16	-44.6	-47.4	17.1	0.00e+00	0	43	0	922746880	61	4769
2026-01-05 11:24:04.12	316.23	16.09	-44.6	-47.4	17.1	0.00e+00	0	43	0	924844032	61	4790
2026-01-05 11:24:05.26	316.41	16.00	-44.5	-47.3	17.2	0.00e+00	0	43	0	926941184	61	4729
2026-01-05 11:24:06.11	316.54	15.93	-44.6	-47.4	17.1	0.00e+00	0	43	0	927989760	60	5062
2026-01-05 11:24:07.25	316.71	15.84	-44.8	-47.7	16.8	0.00e+00	0	43	0	930086912	60	5265
2026-01-05 11:24:08.11	316.84	15.78	-44.9	-47.9	16.7	0.00e+00	0	43	0	932184064	60	5361
2026-01-05 11:24:09.25	317.01	15.68	-45.1	-48.1	16.4	0.00e+00	0	43	0	934281216	60	5505
2026-01-05 11:24:10.10	317.14	15.62	-45.0	-48.1	16.5	0.00e+00	0	43	0	935329792	60	5469
2026-01-05 11:24:11.25	317.31	15.53	-45.1	-48.1	16.4	0.00e+00	0	43	0	937426944	60	5499
2026-01-05 11:24:12.10	317.43	15.46	-45.1	-48.2	16.4	0.00e+00	0	43	0	939524096	60	5531
2026-01-05 11:24:13.25	317.60	15.37	-44.9	-47.7	16.8	0.00e+00	0	43	0	941621248	60	5278
2026-01-05 11:24:14.10	317.73	15.30	-44.8	-47.6	16.9	0.00e+00	0	43	0	943718400	60	5207
2026-01-05 11:24:15.24	317.89	15.21	-44.7	-47.5	17.0	0.00e+00	0	43	0	945815552	60	5134
2026-01-05 11:24:16.10	318.02	15.14	-44.7	-47.6	16.9	0.00e+00	0	43	0	946864128	60	5173
2026-01-05 11:24:17.24	318.18	15.05	-44.6	-47.5	17.1	0.00e+00	0	43	0	948961280	60	5122
2026-01-05 11:24:18.11	318.30	14.99	-44.6	-47.5	17.0	0.00e+00	0	43	0	951058432	60	5127
2026-01-05 11:24:19.25	318.47	14.90	-44.7	-47.5	17.0	0.00e+00	0	43	0	953155584	60	5139
2026-01-05 11:24:20.11	318.59	14.83	-44.7	-47.6	16.9	0.00e+00	0	43	0	954204160	60	5178
2026-01-05 11:24:21.26	318.75	14.74	-44.8	-47.8	16.7	0.00e+00	0	44	0	956301312	60	5296
2026-01-05 11:24:22.11	318.87	14.67	-44.8	-47.8	16.8	0.00e+00	0	43	0	958398464	60	5295
2026-01-05 11:24:23.26	319.03	14.58	-44.8	-47.8	16.7	0.00e+00	0	43	0	960495616	60	5306
2026-01-05 11:24:24.12	319.15	14.52	-44.7	-47.7	16.8	0.00e+00	0	43	0	962592768	60	5273
2026-01-05 11:24:25.26	319.31	14.43	-44.6	-47.6	16.9	0.00e+00	0	43	0	963641344	60	5178
2026-01-05 11:24:26.12	319.42	14.36	-44.6	-47.6	16.9	0.00e+00	0	43	0	965738496	60	5210
2026-01-05 11:24:27.26	319.58	14.27	-44.5	-47.5	17.0	0.00e+00	0	43	0	967835648	60	5139
2026-01-05 11:24:28.12	319.70	14.21	-44.5	-47.5	16.9	0.00e+00	0	43	0	969932800	60	5148
2026-01-05 11:24:29.26	319.85	14.12	-44.5	-47.4	17.0	0.00e+00	0	43	0	972029952	60	5100
2026-01-05 11:24:30.12	319.97	14.05	-44.5	-47.5	17.0	0.00e+00	0	43	0	973078528	60	5118
2026-01-05 11:24:31.27	320.12	13.96	-44.5	-47.4	17.0	0.00e+00	0	43	0	975175680	60	5098
2026-01-05 11:24:32.12	320.23	13.90	-44.5	-47.4	17.1	0.00e+00	0	43	0	977272832	60	5092
2026-01-05 11:24:33.27	320.39	13.81	-44.6	-47.6	16.9	0.00e+00	0	43	0	979369984	60	5178
2026-01-05 11:24:34.12	320.50	13.74	-44.6	-47.6	16.9	0.00e+00	0	43	0	980418560	60	5212
2026-01-05 11:24:35.26	320.65	13.66	-44.7	-47.7	16.8	0.00e+00	0	43	0	982515712	60	5259
2026-01-05 11:24:36.12	320.76	13.59	-44.7	-47.8	16.7	0.00e+00	0	43	0	984612864	60	5298
2026-01-05 11:24:37.25	320.91	13.50	-44.8	-47.9	16.6	0.00e+00	0	43	0	986710016	60	5385
2026-01-05 11:24:38.10	321.02	13.44	-44.8	-47.9	16.6	0.00e+00	0	43	0	987758592	60	5398
2026-01-05 11:24:39.24	321.16	13.35	-44.9	-48.1	16.4	0.00e+00	0	43	0	990904320	60	5511
2026-01-05 11:24:40.09	321.27	13.29	-44.9	-48.2	16.3	0.00e+00	0	43	0	991952896	60	5537
2026-01-05 11:24:41.23	321.42	13.20	-44.9	-48.1	16.3	0.00e+00	0	43	0	994050048	60	5525
2026-01-05 11:24:42.08	321.52	13.13	-45.0	-48.3	16.2	0.00e+00	0	43	0	996147200	60	5621
2026-01-05 11:24:43.22	321.67	13.05	-44.9	-48.1	16.4	0.00e+00	0	43	0	998244352	60	5510
2026-01-05 11:24:44.08	321.78	12.98	-44.8	-48.0	16.5	0.00e+00	0	43	0	999292928	60	5430
2026-01-05 11:24:45.22	321.92	12.90	-45.1	-48.3	16.2	0.00e+00	0	43	0	1001390080	60	5608
2026-01-05 11:24:46.08	322.03	12.83	-45.2	-48.3	16.2	0.00e+00	0	43	0	1003487232	60	5639
2026-01-05 11:24:47.22	322.17	12.75	-45.2	-48.3	16.2	0.00e+00	0	43	0	1005584384	61	5297
2026-01-05 11:24:48.08	322.27	12.68	-45.2	-48.3	16.2	0.00e+00	0	43	0	1006632960	61	5295
2026-01-05 11:24:49.22	322.41	12.60	-45.2	-48.2	16.2	0.00e+00	0	43	0	1008730112	61	5271
2026-01-05 11:24:50.08	322.52	12.53	-45.2	-48.3	16.2	0.00e+00	0	43	0	1010827264	61	5282
2026-01-05 11:24:51.21	322.65	12.45	-45.3	-48.4	16.1	0.00e+00	0	43	0	1012924416	61	5356
2026-01-05 11:24:52.07	322.76	12.38	-45.2	-48.2	16.2	0.00e+00	0	43	0	1013972992	61	5272
2026-01-05 11:24:53.22	322.90	12.30	-45.1	-48.2	16.3	0.00e+00	0	43	0	1017118720	61	5220
2026-01-05 11:24:54.07	323.00	12.23	-45.0	-48.2	16.3	0.00e+00	0	43	0	1018167296	61	5225
2026-01-05 11:24:55.22	323.13	12.15	-45.0	-48.2	16.3	0.00e+00	0	43	0	1020264448	61	5238
2026-01-05 11:24:56.07	323.23	12.08	-45.0	-48.2	16.3	0.00e+00	0	43	0	1022361600	61	5232
2026-01-05 11:24:57.22	323.37	12.00	-44.9	-48.1	16.3	0.00e+00	0	43	0	1024458752	61	5199
2026-01-05 11:24:58.08	323.47	11.93	-44.9	-48.2	16.3	0.00e+00	0	43	0	1025507328	61	5229
2026-01-05 11:24:59.22	323.60	11.85	-44.9	-48.2	16.2	0.00e+00	0	43	0	1027604480	61	5274
2026-01-05 11:25:00.08	323.70	11.79	-44.8	-48.2	16.2	0.00e+00	0	43	0	1029701632	61	5262
2026-01-05 11:25:01.22	323.84	11.70	-44.9	-48.4	16.0	0.00e+00	0	43	0	1031798784	61	5348
2026-01-05 11:25:02.08	323.93	11.64	-44.9	-48.3	16.1	0.00e+00	0	43	0	1032847360	61	5304
2026-01-05 11:25:03.22	324.06	11.56	-44.8	-48.3	16.1	0.00e+00	0	43	0	1034944512	61	5308
2026-01-05 11:25:04.08	324.16	11.49	-45.0	-48.5	16.0	0.00e+00	0	43	0	1037041664	61	5432
2026-01-05 11:25:05.22	324.29	11.41	-45.0	-48.6	15.8	0.00e+00	0	43	0	1039138816	61	5517
2026-01-05 11:25:06.08	324.39	11.35	-45.0	-48.7	15.8	0.00e+00	0	43	0	1041235968	61	5542
2026-01-05 11:25:07.23	324.52	11.26	-45.2	-48.9	15.5	0.00e+00	0	43	0	1043333120	61	5700
2026-01-05 11:25:08.09	324.61	11.20	-45.2	-49.1	15.3	0.00e+00	0	43	0	1044381696	61	5824
2026-01-05 11:25:09.23	324.74	11.12	-45.4	-49.3	15.1	0.00e+00	0	43	0	1046478848	61	5959
2026-01-05 11:25:10.09	324.84	11.05	-45.5	-49.5	15.0	0.00e+00	0	43	0	1048576000	61	6063
2026-01-05 11:25:11.23	324.96	10.97	-45.6	-49.6	14.8	0.00e+00	0	44	0	1050673152	61	6190
2026-01-05 11:25:12.09	325.05	10.91	-45.7	-49.8	14.6	0.00e+00	0	43	0	1051721728	61	6318
2026-01-05 11:25:13.23	325.18	10.83	-45.7	-49.9	14.6	1.50e-06	0	43	0	1053818880	62	6000
2026-01-05 11:25:14.09	325.27	10.76	-45.7	-49.9	14.5	0.00e+00	0	43	0	1055916032	62	6039
2026-01-05 11:25:15.24	325.40	10.68	-45.8	-50.1	14.4	0.00e+00	0	43	0	1058013184	62	6144
2026-01-05 11:25:16.10	325.49	10.62	-45.8	-50.0	14.4	1.50e-06	0	43	0	1059061760	62	6087
2026-01-05 11:25:17.24	325.61	10.54	-45.8	-50.0	14.4	0.00e+00	0	43	0	1061158912	62	6067
2026-01-05 11:25:18.10	325.70	10.48	-45.8	-50.0	14.4	0.00e+00	0	43	0	1063256064	62	6106
2026-01-05 11:25:19.24	325.82	10.40	-45.8	-49.8	14.6	0.00e+00	0	44	0	1065353216	62	5988
2026-01-05 11:25:20.10	325.91	10.33	-45.8	-49.9	14.5	7.00e-07	0	43	0	1067450368	62	6007
2026-01-05 11:25:21.24	326.03	10.25	-45.8	-49.9	14.4	7.00e-07	0	43	0	1069547520	62	6042
2026-01-05 11:25:22.10	326.12	10.19	-45.8	-49.9	14.5	0.00e+00	0	43	0	1070596096	62	6006
2026-01-05 11:25:23.24	326.24	10.11	-45.8	-49.9	14.5	0.00e+00	0	43	0	1072693248	62	6024
2026-01-05 11:25:24.10	326.33	10.05	-45.8	-49.7	14.7	0.00e+00	0	43	0	1074790400	62	5897
2026-01-05 11:25:25.24	326.45	9.97	-45.9	-49.9	14.5	0.00e+00	0	43	0	1076887552	62	6020
2026-01-05 11:25:26.10	326.54	9.91	-46.0	-49.9	14.5	1.50e-06	0	43	0	1077936128	62	6001
2026-01-05 11:25:27.25	326.65	9.83	-46.0	-49.7	14.7	0.00e+00	0	43	0	1080033280	62	5883
2026-01-05 11:25:28.11	326.74	9.77	-46.1	-49.7	14.6	0.00e+00	0	43	0	1082130432	62	5916
2026-01-05 11:25:29.25	326.86	9.69	-46.0	-49.6	14.7	0.00e+00	0	43	0	1084227584	62	5841
2026-01-05 11:25:30.11	326.94	9.63	-46.1	-49.8	14.6	7.00e-07	0	43	0	1085276160	62	5932
2026-01-05 11:25:31.25	327.06	9.55	-46.1	-49.8	14.6	0.00e+00	0	43	0	1087373312	62	5925
2026-01-05 11:25:32.11	327.14	9.49	-46.0	-49.7	14.6	7.00e-07	0	43	0	1089470464	62	5919
2026-01-05 11:25:33.25	327.26	9.41	-45.8	-49.4	15.0	7.00e-07	0	43	0	1091567616	62	5681
2026-01-05 11:25:34.11	327.34	9.35	-45.8	-49.4	14.9	0.00e+00	0	43	0	1093664768	62	5702
2026-01-05 11:25:35.25	327.45	9.27	-45.8	-49.4	14.9	0.00e+00	0	43	0	1095761920	62	5681
2026-01-05 11:25:36.11	327.54	9.21	-45.8	-49.4	14.9	0.00e+00	0	43	0	1096810496	62	5703
2026-01-05 11:25:37.25	327.65	9.13	-45.7	-49.4	15.0	0.00e+00	0	43	0	1098907648	62	5661
2026-01-05 11:25:38.11	327.73	9.07	-45.8	-49.5	14.9	0.00e+00	0	43	0	1101004800	62	5726
2026-01-05 11:25:39.26	327.85	8.99	-45.8	-49.5	14.8	0.00e+00	0	43	0	1103101952	62	5757
2026-01-05 11:25:40.12	327.93	8.93	-49.9	-64.8	3.8	9.84e-05	0	43	104	1104150528	70	21231
2026-01-05 11:25:41.27	328.04	8.85	-49.5	-65.8	3.8	1.49e+00	0	43	104	1104150528	69	25178
2026-01-05 11:25:42.13	328.12	8.79	-50.2	-65.9	3.8	1.49e+00	0	43	104	1104150528	71	22733
2026-01-05 11:25:43.27	328.23	8.72	-49.8	-66.1	3.8	1.49e+00	0	43	104	1104150528	71	23084
2026-01-05 11:25:44.13	328.31	8.66	-50.3	-66.1	3.8	1.49e+00	0	43	104	1104150528	71	23186
2026-01-05 11:25:45.28	328.42	8.58	-50.2	-66.2	3.8	1.49e+00	0	43	104	1104150528	71	23329
2026-01-05 11:25:46.14	328.50	8.52	-50.4	-66.1	3.8	1.49e+00	0	43	104	1104150528	72	21953
2026-01-05 11:25:47.29	328.61	8.44	-50.9	-66.2	3.8	1.49e+00	0	43	104	1104150528	72	22047
2026-01-05 11:25:48.15	328.69	8.38	-50.7	-66.2	3.8	1.49e+00	0	43	104	1104150528	72	22096
2026-01-05 11:25:49.30	328.79	8.30	-50.7	-66.2	3.8	1.49e+00	0	43	104	1104150528	72	22225
2026-01-05 11:25:50.16	328.87	8.25	-50.7	-66.2	3.8	1.49e+00	0	43	104	1104150528	72	22097
2026-01-05 11:25:51.30	328.98	8.17	-50.8	-66.2	3.8	1.49e+00	0	43	104	1104150528	72	22148
2026-01-05 11:25:52.16	329.05	8.11	-50.9	-66.3	3.8	1.49e+00	0	43	104	1104150528	72	22281
2026-01-05 11:25:53.31	329.16	8.03	-50.8	-66.2	3.8	1.49e+00	0	43	104	1104150528	72	22152
2026-01-05 11:25:54.17	329.24	7.98	-51.0	-66.2	3.8	1.49e+00	0	43	104	1104150528	72	22154
2026-01-05 11:25:55.32	329.34	7.90	-51.0	-66.3	3.8	1.49e+00	0	43	104	1104150528	72	22291
2026-01-05 11:25:56.18	329.42	7.84	-51.1	-66.2	3.8	1.49e+00	0	43	104	1104150528	72	22242
2026-01-05 11:25:57.32	329.52	7.77	-50.9	-66.2	3.8	1.49e+00	0	43	104	1104150528	72	22163
2026-01-05 11:25:58.18	329.60	7.71	-50.9	-66.2	3.8	1.49e+00	0	43	104	1104150528	72	22128
2026-01-05 11:25:59.33	329.70	7.63	-50.9	-66.2	3.8	1.49e+00	0	43	104	1104150528	72	22072
2026-01-05 11:26:00.19	329.77	7.57	-50.8	-66.2	3.8	1.49e+00	0	43	104	1104150528	72	22096
2026-01-05 11:26:01.34	329.87	7.50	-50.9	-66.2	3.8	1.49e+00	0	43	104	1104150528	72	22089
2026-01-05 11:26:02.19	329.95	7.44	-50.7	-66.1	3.8	1.49e+00	0	43	104	1104150528	72	21999
2026-01-05 11:26:03.34	330.05	7.37	-50.7	-66.2	3.8	1.49e+00	0	43	104	1104150528	72	22038
2026-01-05 11:26:04.20	330.12	7.31	-50.7	-66.1	3.8	1.49e+00	0	43	104	1104150528	72	21989
2026-01-05 11:26:05.35	330.22	7.23	-50.7	-66.1	3.8	1.49e+00	0	43	104	1104150528	72	21986
2026-01-05 11:26:06.21	330.30	7.18	-50.7	-66.2	3.8	1.49e+00	0	43	104	1104150528	72	22057
2026-01-05 11:26:07.36	330.39	7.10	-50.7	-66.2	3.8	1.49e+00	0	43	104	1104150528	72	22043
2026-01-05 11:26:08.21	330.47	7.05	-50.7	-66.2	3.8	1.49e+00	0	43	104	1104150528	72	22083
2026-01-05 11:26:09.36	330.56	6.97	-50.7	-66.2	3.8	1.49e+00	0	43	104	1104150528	72	22049
2026-01-05 11:26:10.22	330.64	6.91	-50.7	-66.2	3.8	1.49e+00	0	43	104	1104150528	72	22021
2026-01-05 11:26:11.37	330.73	6.84	-50.7	-66.1	3.8	1.49e+00	0	43	104	1104150528	72	21981
2026-01-05 11:26:12.22	330.80	6.78	-50.7	-66.1	3.8	1.49e+00	0	43	104	1104150528	72	21944
2026-01-05 11:26:13.37	330.90	6.71	-50.7	-66.1	3.8	1.49e+00	0	43	104	1104150528	72	22006
2026-01-05 11:26:14.23	330.97	6.65	-50.7	-66.2	3.8	1.49e+00	0	43	104	1104150528	72	22033
2026-01-05 11:26:15.38	331.07	6.58	-50.7	-66.2	3.8	1.49e+00	0	43	104	1104150528	72	22054
2026-01-05 11:26:16.24	331.14	6.52	-50.7	-66.2	3.8	1.49e+00	0	43	104	1104150528	72	22095
2026-01-05 11:26:17.38	331.23	6.45	-50.7	-66.2	3.8	1.49e+00	0	43	104	1104150528	72	22041
2026-01-05 11:26:18.24	331.30	6.40	-50.7	-66.2	3.8	1.49e+00	0	43	104	1104150528	72	22033
2026-01-05 11:26:19.39	331.39	6.32	-50.7	-66.2	3.8	1.49e+00	0	43	104	1104150528	72	22088
2026-01-05 11:26:20.25	331.46	6.27	-50.7	-66.2	3.8	1.49e+00	0	43	104	1104150528	72	22087
2026-01-05 11:26:21.40	331.56	6.19	-50.7	-66.2	3.8	1.49e+00	0	43	104	1104150528	72	22011
2026-01-05 11:26:22.26	331.63	6.14	-50.7	-66.1	3.8	1.49e+00	0	43	104	1104150528	72	21979
2026-01-05 11:26:23.40	331.72	6.07	-50.7	-66.1	3.8	1.49e+00	0	43	104	1104150528	72	21996
2026-01-05 11:26:24.26	331.78	6.01	-50.7	-66.2	3.8	1.49e+00	0	43	104	1104150528	72	22073
2026-01-05 11:26:25.41	331.88	5.94	-50.7	-66.2	3.8	1.49e+00	0	43	104	1104150528	72	22044
2026-01-05 11:26:26.27	331.94	5.88	-50.7	-66.2	3.8	1.49e+00	0	43	104	1104150528	72	22137
2026-01-05 11:26:27.42	332.03	5.81	-50.7	-66.2	3.8	1.49e+00	0	43	104	1104150528	72	22048
2026-01-05 11:26:28.28	332.10	5.76	-50.7	-66.2	3.8	1.49e+00	0	43	104	1104150528	72	22031
2026-01-05 11:26:29.43	332.19	5.68	-50.7	-66.2	3.8	1.49e+00	0	43	104	1104150528	72	22033
