passes_logs/2026/01/05/T1/T1__20260105_203012_KHAYYAM_rec.log

#Pass ID: 20260105_203012_KHAYYAM
#Satellite: KHAYYAM
#Configuration: KHAYYAM_480M
#almurnet v.1.7.20251203
#Start time: 2026-01-05 20:30:13

#Version: 2.0.20230620
#Station: T1
#Location: 37.570604 lon 55.790049 lat
#TLE: 1 53370U 22096A   26004.98139009  .00006788  00000+0  27713-3 0  9999
#TLE: 2 53370  97.3567 272.1699 0001220  86.7448 273.3929 15.24719201189718

#Time	Az	El	Level	Level2	SNR	BER	BlckErr	Temp	State	Recorded	gain1	gain2
2026-01-05 20:30:13.97	26.48	5.02	-50.9	-54.2	3.5	0.00e+00	0	43	0	0	72	22310
2026-01-05 20:30:14.96	26.57	5.09	-50.9	-54.3	3.7	0.00e+00	0	43	104	0	72	22422
2026-01-05 20:30:15.97	26.65	5.16	-50.9	-54.3	3.7	0.00e+00	0	43	104	0	72	22390
2026-01-05 20:30:16.97	26.74	5.24	-50.9	-54.3	3.7	0.00e+00	0	43	104	0	72	22367
2026-01-05 20:30:17.97	26.83	5.31	-50.9	-54.3	3.7	0.00e+00	0	44	104	0	72	22450
2026-01-05 20:30:18.98	26.92	5.39	-50.9	-54.2	3.7	0.00e+00	0	44	104	0	72	22357
2026-01-05 20:30:19.98	27.01	5.46	-50.9	-54.3	3.7	0.00e+00	0	44	104	0	72	22470
2026-01-05 20:30:20.99	27.10	5.54	-50.9	-54.2	3.7	0.00e+00	0	44	104	0	72	22338
2026-01-05 20:30:21.99	27.19	5.61	-50.9	-54.2	3.7	0.00e+00	0	44	104	0	72	22261
2026-01-05 20:30:23.00	27.29	5.69	-50.9	-54.2	3.7	0.00e+00	0	44	104	0	72	22291
2026-01-05 20:30:24.00	27.38	5.77	-50.9	-54.3	3.7	0.00e+00	0	44	104	0	72	22401
2026-01-05 20:30:25.01	27.47	5.84	-50.9	-54.3	3.7	0.00e+00	0	44	104	0	72	22373
2026-01-05 20:30:26.01	27.57	5.92	-50.9	-54.2	3.7	0.00e+00	0	44	104	0	72	22354
2026-01-05 20:30:27.01	27.66	6.00	-50.9	-54.3	3.7	0.00e+00	0	45	104	0	72	22462
2026-01-05 20:30:28.02	27.76	6.07	-50.9	-54.2	3.7	0.00e+00	0	45	104	0	72	22269
2026-01-05 20:30:29.03	27.85	6.15	-50.9	-54.2	3.7	0.00e+00	0	45	104	0	72	22331
2026-01-05 20:30:30.03	27.95	6.23	-50.9	-54.2	3.7	0.00e+00	0	45	104	0	72	22311
2026-01-05 20:30:31.03	28.04	6.31	-50.9	-54.2	3.7	0.00e+00	0	45	104	0	72	22307
2026-01-05 20:30:32.04	28.14	6.39	-50.9	-54.2	3.7	0.00e+00	0	45	104	0	72	22363
2026-01-05 20:30:33.04	28.24	6.46	-50.9	-54.2	3.7	0.00e+00	0	45	104	0	72	22355
2026-01-05 20:30:34.04	28.34	6.54	-50.9	-54.2	3.7	0.00e+00	0	45	104	0	72	22308
2026-01-05 20:30:35.05	28.44	6.62	-50.9	-54.3	3.7	0.00e+00	0	45	104	0	72	22386
2026-01-05 20:30:36.05	28.54	6.70	-50.9	-54.2	3.7	0.00e+00	0	45	104	0	72	22261
2026-01-05 20:30:37.06	28.64	6.78	-50.9	-54.3	3.7	0.00e+00	0	45	104	0	72	22375
2026-01-05 20:30:38.06	28.74	6.86	-50.9	-54.2	3.7	0.00e+00	0	45	104	0	72	22307
2026-01-05 20:30:39.07	28.84	6.94	-50.9	-54.2	3.7	0.00e+00	0	45	104	0	72	22335
2026-01-05 20:30:40.07	28.95	7.02	-50.9	-54.3	3.7	0.00e+00	0	45	104	0	72	22386
2026-01-05 20:30:41.07	29.05	7.10	-50.9	-54.2	3.7	0.00e+00	0	45	104	0	72	22289
2026-01-05 20:30:42.08	29.15	7.18	-50.9	-54.2	3.7	0.00e+00	0	46	104	0	72	22329
2026-01-05 20:30:43.08	29.26	7.27	-50.9	-54.2	3.7	0.00e+00	0	45	104	0	72	22344
2026-01-05 20:30:44.08	29.36	7.35	-50.9	-54.2	3.7	0.00e+00	0	46	104	0	72	22270
2026-01-05 20:30:45.09	29.47	7.43	-50.9	-54.2	3.7	0.00e+00	0	45	104	0	72	22335
2026-01-05 20:30:46.09	29.58	7.51	-50.9	-54.2	3.7	0.00e+00	0	46	104	0	72	22321
2026-01-05 20:30:47.10	29.69	7.59	-50.9	-54.2	3.7	0.00e+00	0	46	104	0	72	22242
2026-01-05 20:30:48.10	29.79	7.68	-50.9	-54.2	3.7	0.00e+00	0	46	104	0	72	22285
2026-01-05 20:30:49.10	29.90	7.76	-50.9	-54.2	3.7	0.00e+00	0	46	104	0	72	22241
2026-01-05 20:30:50.11	30.01	7.84	-50.9	-54.2	3.7	0.00e+00	0	46	104	0	72	22292
2026-01-05 20:30:51.11	30.12	7.93	-50.9	-54.2	3.7	0.00e+00	0	46	104	0	72	22341
2026-01-05 20:30:52.12	30.24	8.01	-50.9	-54.3	3.7	0.00e+00	0	46	104	0	72	22379
2026-01-05 20:30:53.12	30.35	8.09	-50.9	-54.3	3.7	0.00e+00	0	46	104	0	72	22394
2026-01-05 20:30:54.12	30.46	8.18	-50.9	-54.2	3.7	0.00e+00	0	46	104	0	72	22358
2026-01-05 20:30:55.13	30.58	8.26	-50.9	-54.2	3.7	0.00e+00	0	46	104	0	72	22365
2026-01-05 20:30:56.13	30.69	8.35	-50.9	-54.3	3.7	0.00e+00	0	46	104	0	72	22403
2026-01-05 20:30:57.14	30.81	8.44	-50.9	-54.3	3.7	0.00e+00	0	46	104	0	72	22377
2026-01-05 20:30:58.14	30.92	8.52	-50.9	-54.2	3.7	0.00e+00	0	46	104	0	72	22334
2026-01-05 20:30:59.15	31.04	8.61	-50.9	-54.2	3.7	0.00e+00	0	46	104	0	72	22294
2026-01-05 20:31:00.39	31.19	8.71	-50.9	-54.2	3.7	0.00e+00	0	46	104	0	72	22343
2026-01-05 20:31:01.28	31.29	8.79	-50.9	-54.2	3.7	0.00e+00	0	46	104	0	72	22305
2026-01-05 20:31:02.60	31.45	8.91	-50.9	-54.2	3.7	0.00e+00	0	46	104	0	72	22272
2026-01-05 20:31:03.31	31.53	8.97	-50.9	-54.2	3.7	0.00e+00	0	46	104	0	72	22337
2026-01-05 20:31:04.81	31.72	9.10	-50.6	-53.9	3.8	0.00e+00	0	47	104	0	72	21378
2026-01-05 20:31:05.53	31.81	9.16	-49.8	-53.0	3.7	0.00e+00	0	47	104	0	71	20628
2026-01-05 20:31:06.88	31.97	9.28	-50.7	-53.9	3.7	0.00e+00	0	47	104	0	71	22848
2026-01-05 20:31:07.60	32.06	9.34	-50.1	-53.6	3.7	0.00e+00	0	47	104	0	72	20681
2026-01-05 20:31:08.88	32.22	9.46	-51.7	-56.7	3.7	0.00e+00	0	47	104	0	73	28106
2026-01-05 20:31:09.60	32.31	9.52	-51.2	-55.3	3.7	0.00e+00	0	47	104	0	74	22429
2026-01-05 20:31:10.89	32.48	9.64	-49.7	-52.6	3.6	0.00e+00	0	47	104	0	71	19631
2026-01-05 20:31:11.61	32.57	9.70	-50.1	-53.1	3.7	0.00e+00	0	47	104	0	71	20733
2026-01-05 20:31:12.90	32.73	9.82	-50.0	-52.8	3.7	0.00e+00	0	47	104	0	71	20010
2026-01-05 20:31:13.62	32.83	9.88	-48.6	-50.7	3.7	0.00e+00	0	47	104	0	69	17753
2026-01-05 20:31:14.91	33.00	10.00	-51.4	-54.8	3.7	0.00e+00	0	47	104	0	73	22502
2026-01-05 20:31:15.62	33.09	10.07	-50.6	-53.5	3.7	0.00e+00	0	47	104	0	73	19322
2026-01-05 20:31:16.91	33.26	10.18	-52.5	-57.1	3.7	0.00e+00	0	47	104	0	75	26073
2026-01-05 20:31:17.63	33.36	10.25	-51.8	-55.3	3.7	0.00e+00	0	47	104	0	75	21318
2026-01-05 20:31:18.92	33.53	10.37	-51.4	-54.7	3.7	0.00e+00	0	47	104	0	73	22289
2026-01-05 20:31:19.63	33.63	10.44	-52.0	-55.8	3.7	0.00e+00	0	47	104	0	74	23833
2026-01-05 20:31:20.92	33.80	10.56	-52.7	-57.3	3.7	0.00e+00	0	47	104	0	75	26735
2026-01-05 20:31:21.64	33.90	10.62	-52.5	-57.2	3.7	0.00e+00	0	47	104	0	75	26322
2026-01-05 20:31:22.93	34.08	10.74	-50.7	-53.9	3.8	0.00e+00	0	47	104	0	73	20218
2026-01-05 20:31:23.65	34.18	10.81	-50.0	-52.6	4.0	0.00e+00	0	47	104	0	71	19547
2026-01-05 20:31:24.94	34.37	10.93	-53.0	-57.4	3.7	0.00e+00	0	47	104	0	76	25443
2026-01-05 20:31:25.65	34.47	11.00	-51.2	-54.3	3.7	0.00e+00	0	47	104	0	74	20000
2026-01-05 20:31:26.94	34.65	11.12	-52.5	-56.2	3.7	0.00e+00	0	47	104	0	75	23424
2026-01-05 20:31:27.65	34.76	11.19	-52.6	-56.5	3.7	0.00e+00	0	47	104	0	76	23119
2026-01-05 20:31:28.95	34.94	11.32	-51.0	-54.0	3.8	0.00e+00	0	47	104	0	74	19282
2026-01-05 20:31:29.66	35.05	11.38	-50.3	-53.0	3.7	0.00e+00	0	47	104	0	72	19406
2026-01-05 20:31:30.96	35.24	11.51	-49.6	-52.1	3.6	0.00e+00	0	47	104	0	71	18455
2026-01-05 20:31:31.67	35.35	11.58	-47.7	-49.7	3.5	0.00e+00	0	47	104	0	67	17742
2026-01-05 20:31:32.96	35.54	11.70	-49.3	-51.9	3.6	0.00e+00	0	47	104	0	69	20226
2026-01-05 20:31:33.68	35.65	11.77	-52.4	-56.7	3.7	0.00e+00	0	47	104	0	75	25007
2026-01-05 20:31:34.97	35.85	11.90	-50.3	-52.9	3.9	0.00e+00	0	47	104	0	72	19125
2026-01-05 20:31:35.68	35.96	11.97	-51.2	-54.6	3.7	0.00e+00	0	47	104	0	74	20755
2026-01-05 20:31:36.97	36.16	12.10	-46.8	-48.5	4.0	0.00e+00	0	47	104	0	65	17209
2026-01-05 20:31:37.69	36.27	12.17	-45.8	-47.3	4.1	0.00e+00	0	47	104	0	63	16892
2026-01-05 20:31:38.97	36.47	12.30	-45.6	-47.1	3.8	0.00e+00	0	47	104	0	62	17449
2026-01-05 20:31:39.69	36.58	12.37	-45.4	-47.0	3.8	0.00e+00	0	48	104	0	62	17215
2026-01-05 20:31:40.98	36.79	12.50	-47.2	-49.0	3.6	0.00e+00	0	47	104	0	65	18358
2026-01-05 20:31:41.69	36.91	12.57	-46.7	-48.4	3.5	0.00e+00	0	47	104	0	65	17070
2026-01-05 20:31:42.98	37.12	12.70	-46.9	-48.7	3.7	0.00e+00	0	47	104	0	64	18648
2026-01-05 20:31:43.70	37.23	12.77	-46.3	-48.0	3.5	0.00e+00	0	48	104	0	64	17298
2026-01-05 20:31:44.99	37.45	12.91	-50.2	-52.6	3.6	0.00e+00	0	48	104	0	70	20637
2026-01-05 20:31:45.71	37.57	12.98	-47.8	-49.6	3.6	0.00e+00	0	47	104	0	67	17481
2026-01-05 20:31:47.00	37.79	13.11	-48.5	-50.5	3.6	0.00e+00	0	48	104	0	67	19413
2026-01-05 20:31:47.71	37.91	13.18	-48.9	-50.9	3.6	0.00e+00	0	48	104	0	68	19108
2026-01-05 20:31:49.00	38.13	13.32	-48.6	-50.5	3.6	0.00e+00	0	48	104	0	68	18225
2026-01-05 20:31:49.72	38.25	13.39	-48.8	-50.8	3.7	0.00e+00	0	48	104	0	68	18921
2026-01-05 20:31:51.01	38.48	13.53	-48.8	-50.8	3.6	0.00e+00	0	48	104	0	68	18994
2026-01-05 20:31:51.72	38.60	13.60	-49.2	-51.2	3.7	0.00e+00	0	48	104	0	68	19737
2026-01-05 20:31:53.02	38.83	13.74	-49.2	-51.3	3.7	0.00e+00	0	48	104	0	69	18924
2026-01-05 20:31:53.73	38.96	13.81	-48.4	-50.2	3.6	0.00e+00	0	48	104	0	68	17738
2026-01-05 20:31:55.02	39.19	13.95	-48.4	-50.3	3.6	0.00e+00	0	48	104	0	68	17919
2026-01-05 20:31:55.74	39.32	14.03	-48.7	-50.7	3.7	0.00e+00	0	48	104	0	68	18634
2026-01-05 20:31:57.03	39.55	14.16	-49.3	-51.4	3.7	0.00e+00	0	48	104	0	69	19122
2026-01-05 20:31:57.75	39.69	14.24	-49.6	-51.8	3.7	0.00e+00	0	48	104	0	69	20058
2026-01-05 20:31:59.04	39.93	14.38	-51.0	-53.8	3.7	0.00e+00	0	48	104	0	72	21151
2026-01-05 20:31:59.76	40.06	14.46	-51.0	-53.7	3.7	0.00e+00	0	48	104	0	72	21014
2026-01-05 20:32:01.05	40.31	14.60	-51.7	-54.6	3.6	0.00e+00	0	48	104	0	74	20855
2026-01-05 20:32:01.77	40.44	14.67	-52.0	-55.1	3.7	0.00e+00	0	48	104	0	74	22071
2026-01-05 20:32:03.05	40.69	14.81	-52.8	-56.4	3.7	0.00e+00	0	48	104	0	76	22681
2026-01-05 20:32:03.77	40.83	14.89	-52.1	-55.1	3.7	0.00e+00	0	48	104	0	76	19643
2026-01-05 20:32:05.06	41.08	15.03	-52.5	-55.7	3.7	0.00e+00	0	48	104	0	75	22364
2026-01-05 20:32:05.78	41.23	15.11	-52.7	-56.1	3.7	0.00e+00	0	48	104	0	76	22016
2026-01-05 20:32:07.06	41.48	15.25	-53.0	-56.7	3.7	0.00e+00	0	48	104	0	76	23471
2026-01-05 20:32:07.78	41.63	15.33	-53.0	-56.7	3.7	0.00e+00	0	48	104	0	76	23561
2026-01-05 20:32:09.07	41.89	15.48	-53.3	-57.2	3.7	0.00e+00	0	48	104	0	77	23609
2026-01-05 20:32:09.79	42.03	15.56	-53.2	-57.1	3.7	0.00e+00	0	48	104	0	77	23232
2026-01-05 20:32:11.08	42.30	15.70	-53.4	-57.5	3.7	0.00e+00	0	48	104	0	77	24435
2026-01-05 20:32:11.79	42.45	15.78	-53.7	-58.2	3.7	0.00e+00	0	48	104	0	78	24894
2026-01-05 20:32:13.08	42.72	15.93	-53.5	-57.7	3.7	0.00e+00	0	48	104	0	78	23479
2026-01-05 20:32:13.80	42.87	16.01	-53.5	-57.8	3.7	0.00e+00	0	48	104	0	78	23804
2026-01-05 20:32:15.09	43.15	16.15	-53.5	-57.9	3.7	0.00e+00	0	48	104	0	78	24051
2026-01-05 20:32:15.81	43.30	16.24	-53.4	-57.6	3.7	0.00e+00	0	48	104	0	78	23285
2026-01-05 20:32:17.09	43.58	16.38	-51.9	-55.2	3.7	0.00e+00	0	48	104	0	75	20885
2026-01-05 20:32:17.81	43.74	16.46	-52.3	-55.8	3.7	0.00e+00	0	48	104	0	75	22571
2026-01-05 20:32:19.19	44.04	16.62	-52.4	-56.0	3.7	0.00e+00	0	48	104	0	75	22993
2026-01-05 20:32:19.91	44.21	16.71	-52.1	-55.3	3.7	0.00e+00	0	48	104	0	75	21180
2026-01-05 20:32:21.20	44.50	16.85	-53.5	-57.9	3.7	0.00e+00	0	48	104	0	77	25480
2026-01-05 20:32:21.92	44.66	16.94	-52.6	-56.2	3.7	0.00e+00	0	48	104	0	77	20940
2026-01-05 20:32:23.21	44.96	17.09	-53.3	-57.2	3.7	0.00e+00	0	48	104	0	77	23615
2026-01-05 20:32:23.92	45.12	17.17	-53.4	-57.5	3.7	0.00e+00	0	48	104	0	77	24505
2026-01-05 20:32:25.21	45.42	17.32	-53.4	-57.4	3.7	0.00e+00	0	48	104	0	77	24160
2026-01-05 20:32:25.93	45.59	17.41	-53.4	-57.4	3.7	0.00e+00	0	48	104	0	77	24139
2026-01-05 20:32:27.22	45.90	17.56	-53.4	-57.4	3.7	0.00e+00	0	48	104	0	77	23965
2026-01-05 20:32:27.93	46.07	17.64	-53.7	-58.0	3.7	0.00e+00	0	48	104	0	78	24385
2026-01-05 20:32:29.23	46.38	17.79	-53.9	-58.3	3.7	0.00e+00	0	48	104	0	78	25261
2026-01-05 20:32:29.94	46.56	17.88	-53.8	-58.0	3.7	0.00e+00	0	48	104	0	78	24507
2026-01-05 20:32:31.23	46.88	18.03	-53.8	-58.2	3.7	0.00e+00	0	48	104	0	78	24945
2026-01-05 20:32:31.95	47.06	18.12	-53.7	-58.0	3.7	0.00e+00	0	48	104	0	78	24427
2026-01-05 20:32:33.24	47.38	18.27	-53.6	-57.7	3.7	0.00e+00	0	48	104	0	78	23687
2026-01-05 20:32:33.95	47.56	18.36	-53.6	-57.8	3.7	0.00e+00	0	48	104	0	78	23792
2026-01-05 20:32:35.25	47.89	18.51	-53.5	-57.6	3.7	0.00e+00	0	48	104	0	78	23320
2026-01-05 20:32:35.96	48.08	18.60	-53.5	-57.7	3.7	0.00e+00	0	48	104	0	78	23633
2026-01-05 20:32:37.25	48.41	18.75	-53.5	-57.8	3.7	0.00e+00	0	48	104	0	78	23759
2026-01-05 20:32:37.97	48.60	18.84	-53.1	-57.0	3.7	0.00e+00	0	48	104	0	78	21765
2026-01-05 20:32:39.26	48.94	18.99	-53.3	-57.3	3.7	0.00e+00	0	48	104	0	78	22521
2026-01-05 20:32:39.98	49.14	19.08	-53.1	-57.0	3.7	0.00e+00	0	48	104	0	78	21756
2026-01-05 20:32:41.26	49.48	19.24	-53.1	-57.0	3.7	0.00e+00	0	48	104	0	77	22921
2026-01-05 20:32:41.98	49.68	19.32	-53.3	-57.4	3.7	0.00e+00	0	49	104	0	77	23998
2026-01-05 20:32:43.27	50.03	19.48	-53.0	-56.8	3.7	0.00e+00	0	48	104	0	77	22453
2026-01-05 20:32:43.98	50.23	19.57	-53.2	-57.1	3.7	0.00e+00	0	48	104	0	77	23354
2026-01-05 20:32:45.27	50.59	19.72	-53.3	-57.5	3.7	0.00e+00	0	48	104	0	77	24259
2026-01-05 20:32:45.99	50.79	19.81	-53.3	-57.5	3.7	0.00e+00	0	48	104	0	77	24488
2026-01-05 20:32:47.28	51.16	19.97	-53.3	-57.6	3.7	0.00e+00	0	48	104	0	77	24605
2026-01-05 20:32:48.00	51.37	20.06	-53.4	-57.9	3.7	0.00e+00	0	48	104	0	77	25663
2026-01-05 20:32:49.29	51.74	20.21	-53.5	-58.1	3.7	0.00e+00	0	48	104	0	77	26220
2026-01-05 20:32:50.26	52.03	20.33	-53.6	-58.2	3.7	0.00e+00	0	48	104	0	77	26307
2026-01-05 20:32:51.59	52.42	20.50	-53.6	-58.1	3.7	0.00e+00	0	48	104	0	77	26165
2026-01-05 20:32:52.34	52.65	20.59	-53.6	-58.0	3.7	0.00e+00	0	48	104	0	77	25710
2026-01-05 20:32:53.94	53.13	20.79	-53.5	-57.7	3.7	0.00e+00	0	48	104	0	77	24926
2026-01-05 20:32:54.52	53.31	20.86	-53.5	-57.5	3.7	0.00e+00	0	48	104	0	77	24374
2026-01-05 20:32:56.10	53.80	21.05	-53.5	-58.1	3.7	0.00e+00	0	48	104	0	77	26029
2026-01-05 20:32:56.71	53.99	21.13	-53.4	-57.9	3.7	0.00e+00	0	49	104	0	77	25476
2026-01-05 20:32:58.29	54.48	21.32	-53.3	-57.7	3.7	0.00e+00	0	48	104	0	77	24902
2026-01-05 20:32:58.88	54.67	21.39	-53.4	-57.6	3.7	0.00e+00	0	48	104	0	77	24743
2026-01-05 20:33:00.45	55.18	21.59	-53.8	-58.1	3.7	0.00e+00	0	49	104	0	78	24584
2026-01-05 20:33:01.03	55.36	21.66	-53.8	-58.3	3.7	0.00e+00	0	48	104	0	78	25139
2026-01-05 20:33:02.62	55.88	21.85	-53.7	-58.4	3.7	0.00e+00	0	49	104	0	78	25386
2026-01-05 20:33:03.19	56.07	21.92	-53.6	-58.2	3.7	0.00e+00	0	48	104	0	78	24913
2026-01-05 20:33:04.80	56.61	22.12	-53.6	-58.2	3.7	0.00e+00	0	49	104	0	78	24982
2026-01-05 20:33:05.38	56.80	22.19	-53.6	-58.2	3.7	0.00e+00	0	48	104	0	78	24984
2026-01-05 20:33:06.98	57.35	22.38	-53.3	-57.3	3.7	0.00e+00	0	49	104	0	78	22392
2026-01-05 20:33:07.56	57.55	22.45	-53.3	-57.3	3.7	0.00e+00	0	48	104	0	78	22565
2026-01-05 20:33:09.15	58.10	22.65	-53.3	-57.3	3.6	0.00e+00	0	49	104	0	78	22407
2026-01-05 20:33:09.72	58.30	22.72	-53.3	-57.5	3.7	0.00e+00	0	48	104	0	78	22888
2026-01-05 20:33:11.30	58.85	22.91	-53.4	-57.7	3.7	0.00e+00	0	48	104	0	78	23638
2026-01-05 20:33:11.89	59.06	22.98	-53.4	-57.8	3.7	0.00e+00	0	48	104	0	78	23839
2026-01-05 20:33:13.47	59.63	23.17	-54.0	-58.5	3.7	0.00e+00	0	49	104	0	78	25723
2026-01-05 20:33:14.04	59.84	23.24	-53.8	-58.3	3.7	0.00e+00	0	49	104	0	78	25116
2026-01-05 20:33:15.62	60.42	23.43	-53.9	-58.4	3.7	0.00e+00	0	49	104	0	78	25436
2026-01-05 20:33:16.24	60.65	23.50	-53.7	-58.4	3.7	0.00e+00	0	49	104	0	78	25441
2026-01-05 20:33:17.89	61.26	23.69	-53.7	-58.2	3.7	0.00e+00	0	48	104	0	78	25061
2026-01-05 20:33:18.47	61.48	23.76	-53.6	-58.2	3.7	0.00e+00	0	48	104	0	78	25055
2026-01-05 20:33:20.05	62.08	23.95	-53.7	-58.1	3.7	0.00e+00	0	49	104	0	78	24669
2026-01-05 20:33:20.63	62.31	24.02	-53.8	-58.2	3.7	0.00e+00	0	49	104	0	78	24890
2026-01-05 20:33:22.21	62.92	24.20	-53.7	-58.1	3.7	0.00e+00	0	49	104	0	78	24652
2026-01-05 20:33:22.79	63.14	24.27	-53.8	-58.2	3.7	0.00e+00	0	48	104	0	78	25027
2026-01-05 20:33:24.36	63.76	24.45	-54.1	-58.4	3.7	0.00e+00	0	49	104	0	78	25482
2026-01-05 20:33:25.14	64.07	24.54	-53.9	-58.3	3.7	0.00e+00	0	49	104	0	78	25235
2026-01-05 20:33:26.43	64.59	24.68	-54.0	-58.4	3.7	0.00e+00	0	49	104	0	78	25530
2026-01-05 20:33:27.31	64.95	24.78	-53.9	-58.4	3.7	0.00e+00	0	49	104	0	78	25563
2026-01-05 20:33:28.45	65.41	24.91	-54.0	-58.5	3.7	0.00e+00	0	49	104	0	78	25841
2026-01-05 20:33:29.49	65.84	25.02	-54.0	-58.4	3.7	0.00e+00	0	49	104	0	78	25620
2026-01-05 20:33:30.65	66.32	25.15	-53.9	-58.4	3.7	0.00e+00	0	49	104	0	78	25459
2026-01-05 20:33:31.51	66.68	25.24	-53.9	-58.4	3.7	0.00e+00	0	49	104	0	78	25424
2026-01-05 20:33:32.65	67.16	25.37	-54.0	-58.4	3.7	0.00e+00	0	49	104	0	78	25667
2026-01-05 20:33:33.51	67.53	25.46	-54.0	-58.4	3.7	0.00e+00	0	49	104	0	78	25501
2026-01-05 20:33:34.66	68.02	25.58	-54.0	-58.3	3.7	0.00e+00	0	49	104	0	78	25168
2026-01-05 20:33:35.52	68.39	25.67	-53.9	-58.3	3.7	0.00e+00	0	49	104	0	78	25186
2026-01-05 20:33:36.67	68.89	25.79	-54.1	-58.6	3.7	0.00e+00	0	49	104	0	78	26087
2026-01-05 20:33:37.53	69.26	25.88	-54.0	-58.6	3.7	0.00e+00	0	49	104	0	78	26020
2026-01-05 20:33:38.67	69.76	25.99	-54.0	-58.5	3.7	0.00e+00	0	49	104	0	78	25950
2026-01-05 20:33:39.53	70.15	26.08	-54.0	-58.5	3.7	0.00e+00	0	49	104	0	78	25844
2026-01-05 20:33:40.68	70.66	26.20	-54.0	-58.5	3.7	0.00e+00	0	49	104	0	78	25764
2026-01-05 20:33:41.54	71.05	26.28	-54.0	-58.5	3.7	0.00e+00	0	49	104	0	78	25767
2026-01-05 20:33:42.68	71.56	26.39	-54.0	-58.5	3.7	0.00e+00	0	49	104	0	78	25771
2026-01-05 20:33:43.55	71.96	26.47	-54.1	-58.6	3.7	0.00e+00	0	49	104	0	78	26120
2026-01-05 20:33:44.69	72.48	26.58	-54.1	-58.5	3.7	0.00e+00	0	49	104	0	78	25780
2026-01-05 20:33:45.55	72.88	26.66	-54.1	-58.5	3.7	0.00e+00	0	48	104	0	78	25805
2026-01-05 20:33:46.70	73.41	26.76	-54.0	-58.5	3.7	0.00e+00	0	49	104	0	78	25752
2026-01-05 20:33:47.56	73.81	26.84	-54.0	-58.4	3.7	0.00e+00	0	49	104	0	78	25597
2026-01-05 20:33:48.72	74.36	26.94	-53.9	-58.5	3.7	0.00e+00	0	48	104	0	78	25741
2026-01-05 20:33:49.58	74.77	27.02	-54.0	-58.5	3.7	0.00e+00	0	49	104	0	78	25747
2026-01-05 20:33:50.79	75.34	27.12	-53.8	-58.4	3.7	0.00e+00	0	49	104	0	78	25427
2026-01-05 20:33:51.65	75.75	27.19	-53.6	-58.2	3.7	0.00e+00	0	49	104	0	78	25018
2026-01-05 20:33:52.80	76.31	27.29	-54.0	-58.5	3.7	0.00e+00	0	49	104	0	78	25762
2026-01-05 20:33:53.66	76.73	27.35	-54.0	-58.4	3.7	0.00e+00	0	49	104	0	78	25628
2026-01-05 20:33:54.80	77.28	27.44	-54.0	-58.5	3.7	0.00e+00	0	49	104	0	78	25801
2026-01-05 20:33:55.66	77.70	27.51	-53.7	-58.4	3.7	0.00e+00	0	49	104	0	78	25486
2026-01-05 20:33:56.81	78.27	27.59	-54.0	-58.6	3.7	0.00e+00	0	49	104	0	78	26003
2026-01-05 20:33:57.67	78.69	27.66	-53.9	-58.5	3.7	0.00e+00	0	49	104	0	78	25961
2026-01-05 20:33:58.81	79.26	27.74	-53.9	-58.5	3.7	0.00e+00	0	49	104	0	78	25758
2026-01-05 20:33:59.67	79.69	27.80	-53.8	-58.4	3.7	0.00e+00	0	49	104	0	78	25448
2026-01-05 20:34:00.82	80.27	27.87	-53.6	-58.4	3.7	0.00e+00	0	49	104	0	78	25423
2026-01-05 20:34:01.68	80.70	27.93	-53.7	-58.3	3.7	0.00e+00	0	49	104	0	78	25342
2026-01-05 20:34:02.83	81.28	28.00	-53.4	-58.3	3.7	0.00e+00	0	49	104	0	78	25196
2026-01-05 20:34:03.68	81.71	28.05	-53.5	-58.3	3.7	0.00e+00	0	49	104	0	78	25339
2026-01-05 20:34:04.83	82.30	28.12	-52.9	-58.0	3.7	0.00e+00	0	49	104	0	77	25810
2026-01-05 20:34:05.69	82.74	28.17	-53.0	-58.1	3.7	0.00e+00	0	49	104	0	77	25977
2026-01-05 20:34:06.83	83.33	28.23	-52.9	-58.0	3.7	0.00e+00	0	49	104	0	77	25724
2026-01-05 20:34:07.70	83.78	28.27	-53.1	-58.0	3.7	0.00e+00	0	49	104	0	77	25718
2026-01-05 20:34:08.84	84.37	28.33	-53.6	-58.3	3.7	0.00e+00	0	49	104	0	77	26658
2026-01-05 20:34:09.70	84.82	28.37	-53.5	-58.2	3.7	0.00e+00	0	49	104	0	77	26400
2026-01-05 20:34:10.85	85.42	28.42	-53.5	-58.3	3.7	0.00e+00	0	49	104	0	77	26727
2026-01-05 20:34:11.70	85.86	28.46	-53.1	-58.1	3.7	0.00e+00	0	49	104	0	77	26124
2026-01-05 20:34:12.85	86.47	28.51	-53.3	-58.0	3.7	0.00e+00	0	49	104	0	77	25847
2026-01-05 20:34:13.71	86.92	28.54	-53.0	-57.9	3.7	0.00e+00	0	49	104	0	77	25536
2026-01-05 20:34:14.86	87.52	28.58	-53.7	-58.3	3.7	0.00e+00	0	49	104	0	77	26689
2026-01-05 20:34:15.71	87.97	28.61	-53.7	-58.3	3.7	0.00e+00	0	49	104	0	78	25346
2026-01-05 20:34:16.86	88.58	28.65	-53.5	-58.2	3.7	0.00e+00	0	49	104	0	78	25086
2026-01-05 20:34:17.72	89.04	28.67	-53.4	-58.2	3.7	0.00e+00	0	49	104	0	78	24975
2026-01-05 20:34:18.87	89.65	28.70	-53.7	-58.2	3.7	0.00e+00	0	49	104	0	78	25032
2026-01-05 20:34:19.73	90.11	28.72	-53.7	-58.4	3.7	0.00e+00	0	49	104	0	78	25403
2026-01-05 20:34:20.88	90.73	28.75	-53.8	-58.5	3.7	0.00e+00	0	49	104	0	78	25681
2026-01-05 20:34:21.73	91.18	28.76	-53.8	-58.5	3.7	0.00e+00	0	49	104	0	78	25756
2026-01-05 20:34:22.88	91.80	28.78	-53.6	-58.2	3.7	0.00e+00	0	49	104	0	78	25051
2026-01-05 20:34:23.74	92.26	28.79	-53.2	-57.8	3.7	0.00e+00	0	49	104	0	78	23788
2026-01-05 20:34:24.89	92.87	28.81	-53.9	-58.3	3.7	0.00e+00	0	49	104	0	78	25364
2026-01-05 20:34:25.75	93.33	28.81	-53.8	-58.2	3.7	0.00e+00	0	49	104	0	78	24959
2026-01-05 20:34:26.90	93.95	28.82	-54.0	-58.5	3.7	0.00e+00	0	49	104	0	78	25683
2026-01-05 20:34:27.75	94.41	28.83	-53.8	-58.2	3.7	0.00e+00	0	49	104	0	78	25057
2026-01-05 20:34:28.90	95.03	28.83	-53.7	-58.0	3.7	0.00e+00	0	49	104	0	78	24498
2026-01-05 20:34:29.76	95.49	28.83	-53.6	-58.0	3.7	0.00e+00	0	49	104	0	78	24337
2026-01-05 20:34:30.91	96.11	28.82	-53.7	-58.1	3.7	0.00e+00	0	49	104	0	78	24653
2026-01-05 20:34:31.77	96.57	28.82	-53.9	-58.4	3.7	0.00e+00	0	49	104	0	78	25471
2026-01-05 20:34:32.91	97.18	28.81	-53.8	-58.0	3.7	0.00e+00	0	49	104	0	78	24451
2026-01-05 20:34:33.77	97.64	28.80	-53.8	-58.2	3.7	0.00e+00	0	49	104	0	78	24850
2026-01-05 20:34:34.92	98.26	28.78	-53.3	-57.6	3.7	0.00e+00	0	49	104	0	78	23226
2026-01-05 20:34:35.78	98.72	28.77	-53.5	-57.9	3.7	0.00e+00	0	49	104	0	78	24043
2026-01-05 20:34:36.92	99.33	28.74	-53.7	-58.2	3.7	0.00e+00	0	49	104	0	78	25072
2026-01-05 20:34:37.78	99.79	28.73	-53.6	-58.0	3.7	0.00e+00	0	49	104	0	78	24495
2026-01-05 20:34:38.93	100.40	28.70	-53.9	-58.4	3.7	0.00e+00	0	49	104	0	78	25455
2026-01-05 20:34:39.79	100.86	28.68	-54.0	-58.4	3.7	0.00e+00	0	49	104	0	78	25565
2026-01-05 20:34:40.93	101.47	28.64	-53.9	-58.4	3.7	0.00e+00	0	49	104	0	78	25414
2026-01-05 20:34:41.79	101.92	28.62	-53.9	-58.3	3.7	0.00e+00	0	49	104	0	78	25369
2026-01-05 20:34:42.94	102.53	28.58	-53.9	-58.3	3.7	0.00e+00	0	49	104	0	78	25243
2026-01-05 20:34:43.80	102.99	28.55	-54.0	-58.3	3.7	0.00e+00	0	49	104	0	78	25292
2026-01-05 20:34:44.94	103.59	28.50	-53.9	-58.4	3.7	0.00e+00	0	49	104	0	78	25640
2026-01-05 20:34:45.80	104.04	28.47	-53.9	-58.4	3.7	0.00e+00	0	49	104	0	78	25390
2026-01-05 20:34:46.94	104.64	28.42	-53.9	-58.5	3.7	0.00e+00	0	49	104	0	78	25714
2026-01-05 20:34:47.81	105.09	28.38	-53.9	-58.4	3.7	0.00e+00	0	49	104	0	78	25488
2026-01-05 20:34:48.95	105.69	28.33	-53.8	-58.4	3.7	0.00e+00	0	49	104	0	78	25452
2026-01-05 20:34:49.81	106.13	28.28	-53.8	-58.4	3.7	0.00e+00	0	49	104	0	78	25439
2026-01-05 20:34:50.96	106.73	28.22	-53.7	-58.3	3.7	0.00e+00	0	49	104	0	78	25127
2026-01-05 20:34:51.82	107.17	28.18	-53.8	-58.3	3.7	0.00e+00	0	49	104	0	78	25266
2026-01-05 20:34:52.97	107.76	28.11	-54.0	-58.2	3.7	0.00e+00	0	49	104	0	78	25078
2026-01-05 20:34:53.83	108.20	28.06	-54.0	-58.3	3.7	0.00e+00	0	49	104	0	78	25296
2026-01-05 20:34:54.97	108.79	27.99	-53.8	-58.2	3.7	0.00e+00	0	49	104	0	78	24955
2026-01-05 20:34:55.83	109.22	27.94	-53.7	-58.2	3.7	0.00e+00	0	49	104	0	78	24881
2026-01-05 20:34:56.98	109.80	27.86	-53.6	-58.2	3.7	0.00e+00	0	49	104	0	78	24834
2026-01-05 20:34:57.84	110.24	27.80	-53.6	-58.1	3.7	0.00e+00	0	49	104	0	78	24712
2026-01-05 20:34:58.99	110.81	27.73	-53.8	-58.2	3.7	0.00e+00	0	49	104	0	78	25091
2026-01-05 20:34:59.85	111.24	27.66	-53.6	-58.3	3.7	0.00e+00	0	49	104	0	78	25146
2026-01-05 20:35:00.99	111.81	27.58	-53.4	-58.1	3.7	0.00e+00	0	49	104	0	78	24580
2026-01-05 20:35:01.85	112.23	27.52	-53.4	-58.2	3.7	0.00e+00	0	49	104	0	78	24858
2026-01-05 20:35:03.00	112.80	27.43	-53.6	-58.2	3.7	0.00e+00	0	49	104	0	78	24903
2026-01-05 20:35:03.86	113.22	27.36	-53.6	-58.1	3.7	0.00e+00	0	49	104	0	78	24548
2026-01-05 20:35:05.01	113.78	27.27	-53.6	-58.1	3.7	0.00e+00	0	49	104	0	78	24741
2026-01-05 20:35:05.87	114.19	27.20	-53.5	-58.1	3.7	0.00e+00	0	49	104	0	78	24557
2026-01-05 20:35:07.01	114.74	27.10	-53.7	-58.2	3.7	0.00e+00	0	49	104	0	78	25079
2026-01-05 20:35:07.87	115.15	27.03	-53.8	-58.4	3.7	0.00e+00	0	49	104	0	78	25438
2026-01-05 20:35:09.02	115.70	26.93	-54.0	-58.4	3.7	0.00e+00	0	49	104	0	78	25501
2026-01-05 20:35:09.88	116.10	26.85	-54.0	-58.4	3.7	0.00e+00	0	49	104	0	78	25634
2026-01-05 20:35:11.03	116.64	26.75	-53.9	-58.3	3.7	0.00e+00	0	49	104	0	78	25309
2026-01-05 20:35:11.88	117.04	26.67	-53.8	-58.3	3.6	0.00e+00	0	49	104	0	78	25235
2026-01-05 20:35:13.03	117.57	26.57	-53.7	-58.3	3.7	0.00e+00	0	49	104	0	78	25131
2026-01-05 20:35:13.89	117.97	26.49	-53.3	-57.4	3.7	0.00e+00	0	49	104	0	78	22803
2026-01-05 20:35:15.04	118.49	26.38	-53.6	-58.1	3.7	0.00e+00	0	49	104	0	77	26246
2026-01-05 20:35:15.90	118.88	26.29	-53.7	-58.1	3.7	0.00e+00	0	49	104	0	77	26157
2026-01-05 20:35:17.04	119.40	26.18	-53.8	-58.1	3.7	0.00e+00	0	49	104	0	78	24738
2026-01-05 20:35:17.90	119.79	26.09	-53.9	-58.3	3.7	0.00e+00	0	49	104	0	78	25230
2026-01-05 20:35:19.05	120.30	25.98	-54.0	-58.5	3.7	0.00e+00	0	49	104	0	78	25755
2026-01-05 20:35:19.91	120.68	25.89	-54.0	-58.4	3.7	0.00e+00	0	49	104	0	78	25560
2026-01-05 20:35:21.06	121.18	25.77	-54.0	-58.4	3.7	0.00e+00	0	49	104	0	78	25485
2026-01-05 20:35:21.92	121.56	25.68	-53.9	-58.3	3.7	0.00e+00	0	49	104	0	78	25332
2026-01-05 20:35:23.07	122.06	25.56	-54.1	-58.4	3.7	0.00e+00	0	49	104	0	78	25576
2026-01-05 20:35:23.93	122.43	25.47	-53.9	-58.3	3.7	0.00e+00	0	49	104	0	78	25236
2026-01-05 20:35:25.08	122.92	25.34	-53.9	-58.3	3.7	0.00e+00	0	49	104	0	78	25259
2026-01-05 20:35:25.94	123.28	25.25	-53.7	-58.0	3.7	0.00e+00	0	49	104	0	78	24492
2026-01-05 20:35:27.08	123.76	25.13	-53.4	-57.8	3.7	0.00e+00	0	49	104	0	78	23709
2026-01-05 20:35:27.94	124.12	25.03	-53.6	-57.8	3.7	0.00e+00	0	49	104	0	78	23857
2026-01-05 20:35:29.09	124.59	24.90	-53.4	-57.7	3.7	0.00e+00	0	49	104	0	78	23472
2026-01-05 20:35:29.95	124.95	24.81	-53.7	-58.1	3.7	0.00e+00	0	49	104	0	78	24590
2026-01-05 20:35:31.10	125.41	24.68	-53.8	-58.1	3.7	0.00e+00	0	49	104	0	78	24801
2026-01-05 20:35:31.96	125.76	24.58	-53.6	-58.2	3.7	0.00e+00	0	49	104	0	78	24816
2026-01-05 20:35:33.11	126.22	24.45	-53.7	-58.0	3.7	0.00e+00	0	49	104	0	78	24497
2026-01-05 20:35:33.97	126.56	24.35	-53.4	-58.0	3.7	0.00e+00	0	49	104	0	78	24389
2026-01-05 20:35:35.11	127.01	24.22	-53.3	-57.9	3.7	0.00e+00	0	49	104	0	78	23994
2026-01-05 20:35:35.97	127.35	24.12	-53.7	-58.2	3.7	0.00e+00	0	49	104	0	78	24895
2026-01-05 20:35:37.12	127.80	23.98	-53.5	-58.0	3.7	0.00e+00	0	49	104	0	78	24436
2026-01-05 20:35:37.98	128.13	23.88	-53.8	-58.2	3.7	0.00e+00	0	49	104	0	78	25084
2026-01-05 20:35:39.13	128.57	23.74	-53.8	-58.3	3.7	0.00e+00	0	49	104	0	78	25167
2026-01-05 20:35:39.99	128.89	23.64	-53.9	-58.2	3.7	0.00e+00	0	49	104	0	78	25057
2026-01-05 20:35:41.14	129.32	23.50	-53.9	-58.3	3.7	0.00e+00	0	49	104	0	78	25101
2026-01-05 20:35:42.00	129.64	23.40	-53.8	-58.2	3.7	0.00e+00	0	49	104	0	78	24884
2026-01-05 20:35:43.14	130.06	23.26	-53.7	-58.1	3.7	0.00e+00	0	49	104	0	78	24692
2026-01-05 20:35:44.00	130.38	23.16	-53.6	-58.1	3.7	0.00e+00	0	49	104	0	78	24677
2026-01-05 20:35:45.15	130.80	23.02	-53.6	-58.1	3.7	0.00e+00	0	49	104	0	78	24549
2026-01-05 20:35:46.00	131.10	22.92	-53.4	-58.0	3.7	0.00e+00	0	49	104	0	78	24294
2026-01-05 20:35:47.15	131.51	22.78	-53.5	-58.2	3.7	0.00e+00	0	49	104	0	78	24894
2026-01-05 20:35:48.01	131.82	22.67	-53.6	-58.0	3.7	0.00e+00	0	49	104	0	78	24318
2026-01-05 20:35:49.16	132.22	22.53	-53.5	-58.0	3.7	0.00e+00	0	49	104	0	78	24371
2026-01-05 20:35:50.01	132.51	22.43	-53.7	-58.0	3.7	0.00e+00	0	49	104	0	78	24414
2026-01-05 20:35:51.16	132.91	22.29	-53.7	-58.1	3.7	0.00e+00	0	49	104	0	78	24527
2026-01-05 20:35:52.02	133.20	22.18	-53.5	-57.9	3.7	0.00e+00	0	49	104	0	78	24134
2026-01-05 20:35:53.17	133.59	22.04	-53.6	-58.0	3.7	0.00e+00	0	49	104	0	78	24345
2026-01-05 20:35:54.03	133.88	21.93	-53.5	-57.9	3.7	0.00e+00	0	49	104	0	78	24178
2026-01-05 20:35:55.17	134.26	21.79	-53.4	-57.9	3.7	0.00e+00	0	49	104	0	78	24082
2026-01-05 20:35:56.33	134.64	21.65	-53.5	-57.9	3.7	0.00e+00	0	49	104	0	78	24214
2026-01-05 20:35:57.35	134.97	21.52	-53.5	-57.9	3.7	0.00e+00	0	49	104	0	78	24222
2026-01-05 20:35:58.55	135.36	21.38	-53.7	-58.1	3.7	0.00e+00	0	49	104	0	78	24589
2026-01-05 20:35:59.44	135.64	21.26	-53.8	-58.2	3.7	0.00e+00	0	49	104	0	78	24938
2026-01-05 20:36:00.76	136.06	21.10	-53.8	-58.2	3.7	0.00e+00	0	49	104	0	78	24973
2026-01-05 20:36:01.47	136.28	21.01	-53.8	-58.2	3.7	0.00e+00	0	49	104	0	78	24978
2026-01-05 20:36:02.76	136.68	20.85	-53.7	-58.1	3.7	0.00e+00	0	49	104	0	78	24752
2026-01-05 20:36:03.48	136.91	20.76	-53.7	-58.1	3.7	0.00e+00	0	49	104	0	78	24572
2026-01-05 20:36:04.77	137.30	20.60	-53.7	-58.0	3.7	0.00e+00	0	49	104	0	78	24518
2026-01-05 20:36:05.49	137.52	20.52	-53.5	-58.0	3.7	0.00e+00	0	49	104	0	78	24333
2026-01-05 20:36:06.78	137.90	20.36	-53.4	-57.9	3.7	0.00e+00	0	49	104	0	78	23966
2026-01-05 20:36:07.49	138.11	20.27	-53.5	-58.0	3.7	0.00e+00	0	49	104	0	78	24266
2026-01-05 20:36:08.78	138.49	20.11	-53.5	-58.0	3.7	0.00e+00	0	49	104	0	78	24446
2026-01-05 20:36:09.50	138.70	20.02	-53.5	-58.1	3.7	0.00e+00	0	49	104	0	78	24682
2026-01-05 20:36:10.79	139.08	19.86	-53.6	-58.1	3.7	0.00e+00	0	49	104	0	78	24643
2026-01-05 20:36:11.50	139.28	19.77	-53.5	-58.0	3.7	0.00e+00	0	49	104	0	78	24339
2026-01-05 20:36:12.79	139.64	19.61	-53.6	-57.9	3.7	0.00e+00	0	49	104	0	78	24206
2026-01-05 20:36:13.51	139.85	19.53	-53.5	-57.9	3.7	0.00e+00	0	49	104	0	78	24042
2026-01-05 20:36:14.88	140.23	19.36	-53.6	-58.1	3.7	0.00e+00	0	49	104	0	78	24632
2026-01-05 20:36:15.60	140.43	19.27	-53.7	-58.2	3.7	0.00e+00	0	49	104	0	78	24816
2026-01-05 20:36:16.95	140.80	19.10	-53.7	-58.1	3.7	0.00e+00	0	49	104	0	78	24623
2026-01-05 20:36:17.67	140.99	19.02	-53.7	-58.1	3.7	0.00e+00	0	49	104	0	78	24798
2026-01-05 20:36:18.96	141.34	18.86	-53.4	-57.9	3.7	0.00e+00	0	49	104	0	78	24068
2026-01-05 20:36:19.67	141.53	18.77	-53.0	-57.8	3.7	0.00e+00	0	49	104	0	78	23709
2026-01-05 20:36:20.97	141.87	18.62	-53.2	-57.9	3.7	0.00e+00	0	49	104	0	78	24032
2026-01-05 20:36:21.68	142.05	18.53	-53.0	-57.7	3.7	0.00e+00	0	49	104	0	78	23651
2026-01-05 20:36:22.97	142.39	18.37	-52.9	-57.8	3.7	0.00e+00	0	49	104	0	77	25119
2026-01-05 20:36:23.69	142.57	18.29	-53.0	-57.8	3.7	0.00e+00	0	49	104	0	77	25368
2026-01-05 20:36:24.97	142.90	18.13	-53.0	-57.8	3.7	0.00e+00	0	49	104	0	77	25232
2026-01-05 20:36:25.69	143.08	18.05	-53.1	-57.9	3.7	0.00e+00	0	49	104	0	77	25417
2026-01-05 20:36:26.98	143.40	17.89	-52.9	-57.7	3.7	0.00e+00	0	49	104	0	77	24902
2026-01-05 20:36:27.70	143.58	17.80	-53.4	-58.0	3.7	0.00e+00	0	49	104	0	77	25851
2026-01-05 20:36:28.98	143.89	17.65	-53.3	-58.0	3.7	0.00e+00	0	49	104	0	77	25746
2026-01-05 20:36:29.70	144.07	17.57	-53.4	-58.1	3.7	0.00e+00	0	49	104	0	77	26058
2026-01-05 20:36:30.99	144.38	17.41	-53.5	-58.1	3.7	0.00e+00	0	49	104	0	77	26071
2026-01-05 20:36:31.71	144.55	17.33	-53.6	-58.1	3.7	0.00e+00	0	49	104	0	77	26109
2026-01-05 20:36:33.00	144.85	17.18	-53.6	-58.2	3.6	0.00e+00	0	49	104	0	77	26281
2026-01-05 20:36:33.71	145.02	17.09	-53.5	-58.1	3.7	0.00e+00	0	49	104	0	77	26008
2026-01-05 20:36:35.00	145.32	16.94	-53.4	-57.9	3.7	0.00e+00	0	49	104	0	77	25635
2026-01-05 20:36:35.71	145.48	16.86	-53.4	-58.0	3.7	0.00e+00	0	49	104	0	77	25936
2026-01-05 20:36:37.00	145.77	16.71	-53.4	-58.0	3.7	0.00e+00	0	49	104	0	77	25895
2026-01-05 20:36:37.72	145.94	16.62	-53.4	-58.0	3.7	0.00e+00	0	49	104	0	77	25950
2026-01-05 20:36:39.01	146.23	16.47	-53.3	-58.0	3.7	0.00e+00	0	49	104	0	77	25703
2026-01-05 20:36:39.73	146.39	16.39	-52.9	-57.6	3.7	0.00e+00	0	49	104	0	77	24563
2026-01-05 20:36:41.02	146.67	16.24	-53.2	-57.9	3.7	0.00e+00	0	49	104	0	77	25406
2026-01-05 20:36:41.74	146.83	16.16	-52.9	-57.5	3.7	0.00e+00	0	49	104	0	77	24349
2026-01-05 20:36:43.03	147.11	16.01	-53.0	-57.7	3.7	0.00e+00	0	49	104	0	77	24921
2026-01-05 20:36:43.74	147.26	15.93	-53.6	-58.0	3.7	0.00e+00	0	49	104	0	77	25952
2026-01-05 20:36:45.04	147.53	15.78	-53.1	-57.6	3.7	0.00e+00	0	49	104	0	77	24762
2026-01-05 20:36:45.75	147.68	15.70	-53.7	-58.1	3.7	0.00e+00	0	49	104	0	77	26099
2026-01-05 20:36:47.04	147.95	15.56	-53.6	-58.1	3.7	0.00e+00	0	49	104	0	77	26275
2026-01-05 20:36:47.76	148.10	15.47	-53.1	-57.6	3.7	0.00e+00	0	49	104	0	77	24766
2026-01-05 20:36:49.05	148.36	15.33	-53.5	-58.0	3.7	0.00e+00	0	49	104	0	77	25894
2026-01-05 20:36:49.77	148.51	15.25	-53.0	-57.7	3.7	0.00e+00	0	49	104	0	77	24872
2026-01-05 20:36:51.06	148.77	15.10	-53.0	-57.5	3.7	0.00e+00	0	49	104	0	77	24340
2026-01-05 20:36:51.77	148.91	15.03	-53.3	-57.6	3.7	0.00e+00	0	49	104	0	77	24612
2026-01-05 20:36:53.06	149.17	14.88	-53.1	-57.5	3.7	0.00e+00	0	50	104	0	77	24333
2026-01-05 20:36:53.78	149.31	14.80	-53.4	-57.7	3.7	0.00e+00	0	49	104	0	77	24812
2026-01-05 20:36:55.07	149.56	14.66	-53.3	-57.9	3.7	0.00e+00	0	49	104	0	77	25540
2026-01-05 20:36:55.79	149.70	14.58	-52.7	-57.4	3.7	0.00e+00	0	49	104	0	77	24230
2026-01-05 20:36:57.08	149.94	14.44	-53.1	-57.7	3.7	0.00e+00	0	49	104	0	77	24937
2026-01-05 20:36:57.79	150.08	14.36	-52.7	-57.4	3.7	0.00e+00	0	49	104	0	77	24096
2026-01-05 20:36:59.08	150.32	14.22	-52.7	-57.5	3.7	0.00e+00	0	49	104	0	77	24457
2026-01-05 20:36:59.80	150.46	14.15	-52.8	-57.6	3.7	0.00e+00	0	49	104	0	77	24624
2026-01-05 20:37:01.11	150.70	14.01	-52.6	-57.5	3.7	0.00e+00	0	49	104	0	77	24283
2026-01-05 20:37:01.83	150.83	13.93	-52.7	-57.5	3.7	0.00e+00	0	49	104	0	77	24393
2026-01-05 20:37:03.12	151.06	13.79	-53.0	-57.7	3.7	0.00e+00	0	49	104	0	77	24900
2026-01-05 20:37:03.83	151.19	13.71	-52.9	-57.6	3.6	0.00e+00	0	49	104	0	77	24749
2026-01-05 20:37:05.12	151.42	13.58	-53.0	-57.7	3.7	0.00e+00	0	49	104	0	77	24986
2026-01-05 20:37:05.84	151.55	13.50	-52.8	-57.6	3.7	0.00e+00	0	49	104	0	77	24524
2026-01-05 20:37:07.13	151.78	13.37	-52.9	-57.7	3.7	0.00e+00	0	49	104	0	77	24920
2026-01-05 20:37:07.85	151.90	13.29	-52.7	-57.6	3.7	0.00e+00	0	49	104	0	77	24582
2026-01-05 20:37:09.14	152.12	13.15	-52.7	-57.5	3.7	0.00e+00	0	49	104	0	77	24472
2026-01-05 20:37:09.85	152.25	13.08	-52.8	-57.6	3.7	0.00e+00	0	49	104	0	77	24778
2026-01-05 20:37:11.14	152.46	12.95	-52.7	-57.6	3.7	0.00e+00	0	49	104	0	77	24766
2026-01-05 20:37:11.86	152.59	12.87	-52.8	-57.6	3.7	0.00e+00	0	49	104	0	77	24775
2026-01-05 20:37:13.15	152.80	12.74	-52.9	-57.7	3.7	0.00e+00	0	49	104	0	77	25069
2026-01-05 20:37:13.87	152.92	12.67	-52.7	-57.5	3.7	0.00e+00	0	49	104	0	77	24459
2026-01-05 20:37:15.16	153.13	12.53	-52.6	-57.4	3.7	0.00e+00	0	49	104	0	77	24134
2026-01-05 20:37:15.87	153.25	12.46	-52.4	-57.3	3.7	0.00e+00	0	49	104	0	76	25160
2026-01-05 20:37:17.16	153.46	12.33	-52.8	-57.5	3.7	0.00e+00	0	49	104	0	76	25972
2026-01-05 20:37:17.88	153.57	12.26	-52.5	-57.4	3.7	0.00e+00	0	49	104	0	76	25671
2026-01-05 20:37:19.17	153.78	12.13	-52.6	-57.4	3.7	0.00e+00	0	49	104	0	76	25479
2026-01-05 20:37:19.89	153.89	12.06	-52.9	-57.7	3.7	0.00e+00	0	50	104	0	76	26290
2026-01-05 20:37:21.18	154.09	11.93	-52.4	-57.3	3.7	0.00e+00	0	49	104	0	76	25210
2026-01-05 20:37:21.89	154.20	11.86	-53.2	-57.8	3.7	0.00e+00	0	49	104	0	76	26835
2026-01-05 20:37:23.18	154.40	11.73	-53.3	-57.8	3.7	0.00e+00	0	49	104	0	77	25378
2026-01-05 20:37:23.90	154.51	11.66	-53.1	-57.7	3.7	0.00e+00	0	49	104	0	77	25034
2026-01-05 20:37:25.18	154.70	11.53	-53.1	-57.8	3.7	0.00e+00	0	49	104	0	77	25191
2026-01-05 20:37:25.90	154.81	11.46	-53.1	-57.7	3.7	0.00e+00	0	49	104	0	77	25034
2026-01-05 20:37:27.19	155.00	11.34	-53.2	-57.7	3.7	0.00e+00	0	49	104	0	77	24859
2026-01-05 20:37:27.90	155.11	11.27	-52.9	-57.5	3.7	0.00e+00	0	49	104	0	77	24496
2026-01-05 20:37:29.19	155.30	11.14	-53.0	-57.6	3.7	0.00e+00	0	49	104	0	77	24749
2026-01-05 20:37:29.91	155.40	11.07	-52.9	-57.7	3.7	0.00e+00	0	50	104	0	77	24859
2026-01-05 20:37:31.20	155.59	10.95	-53.1	-57.7	3.7	0.00e+00	0	49	104	0	77	25053
2026-01-05 20:37:31.91	155.69	10.88	-53.2	-57.8	3.7	0.00e+00	0	49	104	0	77	25344
2026-01-05 20:37:33.20	155.87	10.76	-53.0	-57.7	3.7	0.00e+00	0	50	104	0	77	24970
2026-01-05 20:37:33.92	155.98	10.69	-53.3	-57.9	3.7	0.00e+00	0	49	104	0	77	25569
2026-01-05 20:37:35.20	156.15	10.57	-53.3	-57.9	3.7	0.00e+00	0	49	104	0	77	25647
2026-01-05 20:37:35.91	156.25	10.50	-53.2	-57.7	3.7	0.00e+00	0	49	104	0	77	24933
2026-01-05 20:37:37.20	156.43	10.38	-53.2	-57.8	3.7	0.00e+00	0	49	104	0	77	25358
2026-01-05 20:37:37.91	156.53	10.31	-53.0	-57.6	3.7	0.00e+00	0	49	104	0	77	24779
2026-01-05 20:37:39.20	156.70	10.19	-53.1	-57.7	3.7	0.00e+00	0	49	104	0	77	24893
2026-01-05 20:37:39.92	156.80	10.13	-52.9	-57.6	3.7	0.00e+00	0	49	104	0	77	24647
2026-01-05 20:37:41.21	156.97	10.01	-53.1	-57.6	3.7	0.00e+00	0	50	104	0	77	24778
2026-01-05 20:37:41.92	157.07	9.94	-53.0	-57.6	3.7	0.00e+00	0	49	104	0	77	24632
2026-01-05 20:37:43.20	157.24	9.82	-52.9	-57.6	3.7	0.00e+00	0	49	104	0	77	24620
2026-01-05 20:37:43.94	157.33	9.75	-53.0	-57.6	3.7	0.00e+00	0	50	104	0	77	24743
2026-01-05 20:37:45.23	157.50	9.64	-52.9	-57.6	3.7	0.00e+00	0	49	104	0	77	24559
2026-01-05 20:37:45.94	157.59	9.57	-52.8	-57.5	3.7	0.00e+00	0	49	104	0	77	24347
2026-01-05 20:37:47.22	157.75	9.46	-53.0	-57.6	3.7	0.00e+00	0	49	104	0	77	24622
2026-01-05 20:37:47.94	157.84	9.39	-53.1	-57.7	3.7	0.00e+00	0	49	104	0	77	25064
2026-01-05 20:37:49.22	158.01	9.28	-53.0	-57.7	3.7	0.00e+00	0	49	104	0	77	24938
2026-01-05 20:37:49.93	158.09	9.21	-52.9	-57.5	3.7	0.00e+00	0	49	104	0	77	24425
2026-01-05 20:37:51.22	158.25	9.10	-52.9	-57.5	3.7	0.00e+00	0	49	104	0	77	24403
2026-01-05 20:37:51.93	158.34	9.04	-52.9	-57.5	3.7	0.00e+00	0	50	104	0	77	24485
2026-01-05 20:37:53.22	158.50	8.92	-52.9	-57.5	3.7	0.00e+00	0	49	104	0	77	24494
2026-01-05 20:37:53.93	158.59	8.86	-53.2	-57.8	3.7	0.00e+00	0	50	104	0	77	25338
2026-01-05 20:37:55.21	158.74	8.75	-52.5	-57.4	3.7	0.00e+00	0	49	104	0	77	24162
2026-01-05 20:37:55.92	158.82	8.68	-53.0	-57.7	3.7	0.00e+00	0	49	104	0	76	26500
2026-01-05 20:37:57.21	158.98	8.57	-53.4	-58.0	3.7	0.00e+00	0	50	104	0	77	25852
2026-01-05 20:37:57.92	159.06	8.51	-53.5	-58.2	3.7	0.00e+00	0	49	104	0	78	24990
2026-01-05 20:37:59.21	159.21	8.40	-52.7	-57.7	3.7	0.00e+00	0	50	104	0	76	26492
2026-01-05 20:37:59.92	159.29	8.34	-53.6	-58.3	3.7	0.00e+00	0	49	104	0	78	25232
2026-01-05 20:38:01.20	159.44	8.23	-53.7	-58.4	3.7	0.00e+00	0	49	104	0	78	25469
2026-01-05 20:38:01.92	159.52	8.17	-54.1	-58.5	3.7	0.00e+00	0	49	104	0	78	25696
2026-01-05 20:38:03.21	159.67	8.06	-54.0	-58.6	3.7	0.00e+00	0	49	104	0	78	26229
2026-01-05 20:38:03.92	159.75	8.00	-54.1	-58.7	3.7	0.00e+00	0	50	104	0	79	24834
2026-01-05 20:38:05.20	159.89	7.89	-54.3	-58.6	3.7	0.00e+00	0	50	104	0	79	24688
2026-01-05 20:38:05.92	159.97	7.83	-54.1	-58.5	3.7	0.00e+00	0	49	104	0	79	24468
2026-01-05 20:38:07.20	160.12	7.72	-54.3	-58.8	3.7	0.00e+00	0	50	104	0	79	25125
2026-01-05 20:38:07.92	160.20	7.66	-53.9	-58.6	3.7	0.00e+00	0	49	104	0	79	24543
2026-01-05 20:38:09.21	160.34	7.55	-53.3	-58.2	3.7	0.00e+00	0	50	104	0	78	24962
2026-01-05 20:38:09.92	160.41	7.49	-54.0	-58.5	3.7	0.00e+00	0	49	104	0	78	25890
2026-01-05 20:38:11.20	160.55	7.39	-54.2	-58.6	3.7	0.00e+00	0	49	104	0	79	24635
2026-01-05 20:38:11.92	160.63	7.33	-54.0	-58.3	3.7	0.00e+00	0	49	104	0	79	23899
2026-01-05 20:38:13.20	160.76	7.22	-53.5	-58.0	3.7	0.00e+00	0	50	104	0	78	24367
2026-01-05 20:38:13.91	160.84	7.16	-53.9	-58.2	3.7	0.00e+00	0	50	104	0	78	25074
2026-01-05 20:38:15.20	160.97	7.06	-53.9	-58.2	3.7	0.00e+00	0	50	104	0	78	24850
2026-01-05 20:38:15.91	161.05	7.00	-53.9	-58.4	3.6	0.00e+00	0	50	104	0	78	25413
2026-01-05 20:38:17.21	161.18	6.89	-53.6	-58.3	3.7	0.00e+00	0	50	104	0	78	25263
2026-01-05 20:38:17.92	161.25	6.84	-53.1	-57.8	3.7	0.00e+00	0	50	104	0	77	25136
2026-01-05 20:38:19.21	161.38	6.73	-53.2	-57.9	3.7	0.00e+00	0	49	104	0	77	25409
2026-01-05 20:38:19.92	161.46	6.68	-53.2	-57.8	3.7	0.00e+00	0	50	104	0	77	25367
2026-01-05 20:38:21.20	161.58	6.57	-53.2	-57.9	3.7	0.00e+00	0	49	104	0	77	25413
2026-01-05 20:38:21.92	161.66	6.52	-53.2	-57.8	3.7	0.00e+00	0	50	104	0	77	25380
2026-01-05 20:38:23.20	161.78	6.41	-53.2	-57.8	3.7	0.00e+00	0	49	104	0	77	25250
2026-01-05 20:38:23.91	161.85	6.36	-53.2	-57.8	3.7	0.00e+00	0	49	104	0	77	25346
2026-01-05 20:38:25.19	161.98	6.26	-53.2	-57.9	3.7	0.00e+00	0	49	104	0	77	25414
2026-01-05 20:38:25.91	162.05	6.20	-53.2	-57.9	3.7	0.00e+00	0	49	104	0	77	25415
2026-01-05 20:38:27.19	162.17	6.10	-53.2	-57.8	3.7	0.00e+00	0	50	104	0	77	25359
2026-01-05 20:38:27.92	162.24	6.04	-53.2	-57.8	3.7	0.00e+00	0	49	104	0	77	25314
2026-01-05 20:38:29.20	162.36	5.94	-53.2	-57.8	3.7	0.00e+00	0	49	104	0	77	25258
2026-01-05 20:38:29.92	162.43	5.89	-53.2	-57.8	3.7	0.00e+00	0	49	104	0	77	25283
2026-01-05 20:38:31.19	162.55	5.79	-53.2	-57.8	3.7	0.00e+00	0	49	104	0	77	25332
2026-01-05 20:38:31.94	162.62	5.73	-53.2	-57.8	3.7	0.00e+00	0	49	104	0	77	25276
2026-01-05 20:38:33.22	162.74	5.63	-53.2	-57.8	3.7	0.00e+00	0	49	104	0	77	25289
2026-01-05 20:38:33.97	162.81	5.58	-53.2	-57.8	3.7	0.00e+00	0	50	104	0	77	25265
2026-01-05 20:38:35.26	162.93	5.48	-53.2	-57.8	3.7	0.00e+00	0	50	104	0	77	25308
2026-01-05 20:38:35.97	162.99	5.42	-53.2	-57.8	3.7	0.00e+00	0	50	104	0	77	25274
2026-01-05 20:38:37.27	163.11	5.32	-53.2	-57.8	3.7	0.00e+00	0	50	104	0	77	25215
2026-01-05 20:38:37.98	163.17	5.27	-53.2	-57.8	3.7	0.00e+00	0	50	104	0	77	25216
2026-01-05 20:38:39.26	163.29	5.17	-53.2	-57.8	3.7	0.00e+00	0	49	104	0	77	25289
2026-01-05 20:38:39.97	163.35	5.12	-53.2	-57.8	3.7	0.00e+00	0	49	104	0	77	25157
2026-01-05 20:38:41.26	163.46	5.02	-53.1	-57.8	3.7	0.00e+00	0	50	104	0	77	25133

#Closed at: 2026-01-05 20:38:41
#Recorded file [0 MB]: D:/Data/31040_260105_233013.dat