passes_logs/2026/01/05/T1/T1__20260105_075553_NOAA_20_JPSS-1_rec.log

#Pass ID: 20260105_075553_NOAA 20 (JPSS-1)
#Satellite: NOAA 20 (JPSS-1)
#Configuration: NOAA 20
#almurnet v.1.7.20251203
#Start time: 2026-01-05 07:55:53

#Version: 2.0.20230620
#Station: T1
#Location: 37.570604 lon 55.790049 lat
#TLE: 1 43013U 17073A   26004.47528369  .00000132  00000+0  83671-4 0  9999
#TLE: 2 43013  98.7626 305.5264 0001854  54.5883 305.5466 14.19533142421242

#Time	Az	El	Level	Level2	SNR	BER	BlckErr	Temp	State	Recorded	gain1	gain2
2026-01-05 07:55:53.96	96.25	5.03	-50.1	-65.4	3.8	1.49e+00	0	38	0	0	72	20138
2026-01-05 07:55:54.95	96.15	5.08	-50.0	-65.4	3.8	1.49e+00	0	38	104	0	72	20114
2026-01-05 07:55:55.96	96.05	5.14	-50.0	-65.4	3.8	1.49e+00	0	38	104	0	72	20148
2026-01-05 07:55:56.96	95.95	5.19	-50.0	-65.4	3.8	1.49e+00	0	38	104	0	72	20121
2026-01-05 07:55:57.97	95.85	5.25	-50.0	-65.4	3.8	1.49e+00	0	38	104	0	72	20089
2026-01-05 07:55:58.97	95.75	5.30	-50.0	-65.4	3.8	1.49e+00	0	38	104	0	72	20112
2026-01-05 07:55:59.98	95.65	5.36	-50.0	-65.3	3.8	1.49e+00	0	38	104	0	72	19978
2026-01-05 07:56:00.98	95.55	5.41	-50.0	-65.3	3.8	1.49e+00	0	39	104	0	72	19963
2026-01-05 07:56:01.98	95.45	5.47	-50.0	-65.3	3.8	1.49e+00	0	39	104	0	72	19984
2026-01-05 07:56:02.99	95.35	5.53	-50.0	-65.3	3.8	1.49e+00	0	39	104	0	72	20031
2026-01-05 07:56:03.99	95.25	5.58	-50.0	-65.3	3.8	1.49e+00	0	39	104	0	72	19953
2026-01-05 07:56:05.00	95.14	5.64	-50.0	-65.3	3.8	1.49e+00	0	39	104	0	72	19928
2026-01-05 07:56:06.00	95.04	5.69	-50.0	-65.3	3.8	1.49e+00	0	39	104	0	72	20014
2026-01-05 07:56:07.01	94.94	5.75	-50.0	-65.3	3.8	1.49e+00	0	39	104	0	72	19983
2026-01-05 07:56:08.01	94.83	5.80	-50.0	-65.3	3.8	1.49e+00	0	39	104	0	72	19995
2026-01-05 07:56:09.02	94.73	5.86	-50.0	-65.3	3.8	1.49e+00	0	39	104	0	71	21213
2026-01-05 07:56:10.02	94.63	5.91	-50.0	-65.3	3.8	1.49e+00	0	39	104	0	71	21258
2026-01-05 07:56:11.02	94.52	5.97	-50.0	-65.4	3.8	1.49e+00	0	39	104	0	71	21320
2026-01-05 07:56:12.03	94.42	6.03	-50.0	-65.4	3.8	1.49e+00	0	39	104	0	71	21308
2026-01-05 07:56:13.03	94.31	6.08	-50.0	-65.4	3.8	1.49e+00	0	39	104	0	71	21307
2026-01-05 07:56:14.04	94.21	6.14	-50.0	-65.4	3.8	1.49e+00	0	39	104	0	71	21333
2026-01-05 07:56:15.04	94.10	6.19	-50.1	-65.4	3.8	1.49e+00	0	39	104	0	71	21264
2026-01-05 07:56:16.05	93.99	6.25	-50.0	-65.4	3.8	1.49e+00	0	39	104	0	71	21426
2026-01-05 07:56:17.05	93.89	6.31	-50.0	-65.4	3.8	1.49e+00	0	39	104	0	71	21410
2026-01-05 07:56:18.06	93.78	6.36	-50.1	-65.4	3.8	1.49e+00	0	39	104	0	71	21350
2026-01-05 07:56:19.06	93.67	6.42	-50.1	-65.3	3.8	1.49e+00	0	39	104	0	71	21239
2026-01-05 07:56:20.06	93.56	6.47	-50.1	-65.4	3.8	1.49e+00	0	39	104	0	71	21335
2026-01-05 07:56:21.07	93.45	6.53	-50.1	-65.3	3.8	1.49e+00	0	39	104	0	71	21259
2026-01-05 07:56:22.07	93.34	6.59	-50.1	-65.3	3.8	1.49e+00	0	39	104	0	71	21083
2026-01-05 07:56:23.08	93.23	6.64	-50.0	-65.2	3.8	1.49e+00	0	39	104	0	71	20883
2026-01-05 07:56:24.08	93.12	6.70	-50.1	-65.1	3.8	1.49e+00	0	39	104	0	71	20669
2026-01-05 07:56:25.08	93.01	6.75	-50.0	-65.0	3.8	1.49e+00	0	39	104	0	71	20424
2026-01-05 07:56:26.09	92.90	6.81	-50.0	-65.0	3.8	1.49e+00	0	39	104	0	71	20405
2026-01-05 07:56:27.09	92.79	6.87	-50.1	-65.0	3.8	1.49e+00	0	39	104	0	71	20409
2026-01-05 07:56:28.10	92.68	6.92	-50.0	-65.1	3.8	1.49e+00	0	39	104	0	71	20623
2026-01-05 07:56:29.10	92.57	6.98	-50.0	-65.2	3.8	1.49e+00	0	39	104	0	71	20818
2026-01-05 07:56:30.11	92.45	7.03	-50.1	-65.2	3.8	1.49e+00	0	39	104	0	71	20911
2026-01-05 07:56:31.11	92.34	7.09	-50.1	-65.3	3.8	1.49e+00	0	39	104	0	71	21091
2026-01-05 07:56:32.12	92.23	7.15	-50.0	-65.3	3.8	1.49e+00	0	39	104	0	71	21077
2026-01-05 07:56:33.12	92.11	7.20	-50.1	-65.3	3.8	1.49e+00	0	39	104	0	71	21111
2026-01-05 07:56:34.12	92.00	7.26	-50.1	-65.2	3.8	1.49e+00	0	39	104	0	71	20913
2026-01-05 07:56:35.13	91.88	7.32	-50.0	-65.2	3.8	1.49e+00	0	39	104	0	71	20787
2026-01-05 07:56:36.13	91.77	7.37	-50.1	-65.0	3.8	1.49e+00	0	40	104	0	71	20461
2026-01-05 07:56:37.14	91.65	7.43	-50.0	-64.9	3.8	1.49e+00	0	39	104	0	71	20281
2026-01-05 07:56:38.14	91.54	7.48	-50.0	-64.9	3.8	1.49e+00	0	39	104	0	71	20137
2026-01-05 07:56:39.15	91.42	7.54	-50.0	-64.8	3.8	1.49e+00	0	40	104	0	71	20018
2026-01-05 07:56:40.15	91.30	7.60	-50.0	-64.9	3.8	1.49e+00	0	39	104	0	71	20229
2026-01-05 07:56:41.15	91.19	7.65	-50.1	-65.0	3.8	1.49e+00	0	40	104	0	71	20499
2026-01-05 07:56:42.16	91.07	7.71	-50.1	-65.2	3.8	1.49e+00	0	40	104	0	71	20831
2026-01-05 07:56:43.16	90.95	7.77	-50.1	-65.2	3.8	1.49e+00	0	40	104	0	71	20838
2026-01-05 07:56:44.17	90.83	7.82	-50.1	-65.1	3.8	1.49e+00	0	40	104	0	71	20694
2026-01-05 07:56:45.17	90.71	7.88	-50.0	-64.9	3.8	1.49e+00	0	40	104	0	71	20267
2026-01-05 07:56:46.18	90.59	7.94	-50.0	-64.5	3.8	1.49e+00	0	40	104	0	71	19318
2026-01-05 07:56:47.18	90.47	7.99	-50.0	-64.1	3.8	1.49e+00	0	40	104	0	71	18402
2026-01-05 07:56:48.18	90.35	8.05	-50.0	-63.8	3.8	1.49e+00	0	40	104	0	71	17742
2026-01-05 07:56:49.19	90.23	8.11	-50.0	-63.9	3.8	1.49e+00	0	40	104	0	71	17981
2026-01-05 07:56:50.19	90.10	8.16	-50.0	-64.3	3.8	1.49e+00	0	40	104	0	71	18948
2026-01-05 07:56:51.20	89.98	8.22	-50.0	-64.8	3.8	1.49e+00	0	40	104	0	71	20055
2026-01-05 07:56:52.20	89.86	8.27	-50.0	-63.9	3.8	1.49e+00	0	40	104	0	71	17892
2026-01-05 07:56:53.21	89.74	8.33	-49.7	-60.7	4.6	1.41e+00	0	40	0	0	71	12397
2026-01-05 07:56:54.21	89.61	8.39	-49.2	-57.2	6.9	5.07e-01	0	40	0	2097152	70	8792
2026-01-05 07:56:55.21	89.49	8.44	-48.4	-54.6	9.4	3.33e-02	0	40	0	4194304	68	7350
2026-01-05 07:56:56.22	89.36	8.50	-47.6	-52.7	11.2	3.68e-03	0	40	0	5242880	67	6246
2026-01-05 07:56:57.22	89.24	8.56	-47.0	-51.4	12.6	3.56e-04	0	40	0	7340032	66	5690
2026-01-05 07:56:58.23	89.11	8.61	-46.5	-50.5	13.5	1.90e-05	0	40	0	9437184	65	5428
2026-01-05 07:56:59.23	88.99	8.67	-46.3	-50.2	13.9	2.20e-06	0	40	0	11534336	64	5529
2026-01-05 07:57:00.24	88.86	8.73	-46.4	-50.4	13.7	7.00e-07	0	40	0	12582912	64	5670
2026-01-05 07:57:01.24	88.73	8.78	-46.8	-51.0	13.0	1.37e-05	0	40	0	14680064	64	6096
2026-01-05 07:57:02.24	88.60	8.84	-47.4	-52.3	11.7	2.97e-04	0	40	0	16777216	65	6660
2026-01-05 07:57:03.25	88.47	8.90	-48.2	-54.2	9.8	3.37e-03	0	40	0	18874368	67	7413
2026-01-05 07:57:04.25	88.35	8.95	-49.0	-56.5	7.6	3.54e-02	0	40	0	20971520	68	9141
2026-01-05 07:57:05.26	88.22	9.01	-49.6	-59.3	5.3	4.21e-01	0	40	0	22020096	69	11896
2026-01-05 07:57:06.26	88.09	9.06	-49.8	-61.4	4.3	1.13e+00	0	40	0	24117248	70	14249
2026-01-05 07:57:07.26	87.96	9.12	-48.2	-53.9	10.3	3.29e-02	0	40	0	26214400	68	6745
2026-01-05 07:57:08.27	87.83	9.18	-49.0	-56.2	8.2	1.07e-02	0	40	0	27262976	68	8839
2026-01-05 07:57:09.27	87.69	9.23	-50.0	-64.0	3.8	1.49e+00	0	40	104	28311552	70	19293
2026-01-05 07:57:10.27	87.56	9.29	-48.3	-54.3	9.8	2.52e-01	0	40	0	28311552	68	7068
2026-01-05 07:57:11.28	87.43	9.35	-49.6	-59.5	5.1	2.17e-01	0	40	0	30408704	70	11437
2026-01-05 07:57:12.28	87.30	9.40	-48.3	-54.3	9.8	9.57e-03	0	40	0	32505856	68	7065
2026-01-05 07:57:13.28	87.16	9.46	-48.5	-54.8	9.3	1.52e-02	0	40	0	34603008	68	7498
2026-01-05 07:57:14.36	87.02	9.52	-48.1	-53.6	10.6	8.31e-03	0	40	0	36700160	68	6533
2026-01-05 07:57:15.25	86.90	9.57	-47.5	-52.6	11.4	2.86e-03	0	40	0	37748736	67	6170
2026-01-05 07:57:16.40	86.75	9.63	-47.3	-52.1	12.0	3.17e-04	0	40	0	39845888	66	6145
2026-01-05 07:57:17.26	86.63	9.68	-47.5	-52.3	11.8	3.13e-04	0	40	0	41943040	66	6325
2026-01-05 07:57:18.63	86.45	9.76	-47.6	-52.7	11.4	9.19e-04	0	40	0	44040192	66	6602
2026-01-05 07:57:19.35	86.35	9.80	-47.6	-52.6	11.6	8.02e-04	0	40	0	45088768	66	6523
2026-01-05 07:57:20.64	86.17	9.87	-47.1	-51.6	12.5	2.72e-04	0	40	0	48234496	66	5828
2026-01-05 07:57:21.35	86.07	9.91	-46.8	-51.0	13.1	1.08e-04	0	40	0	49283072	65	5757
2026-01-05 07:57:22.64	85.90	9.98	-46.4	-50.3	13.9	5.30e-06	0	40	0	51380224	64	5625
2026-01-05 07:57:23.36	85.80	10.02	-46.2	-50.1	14.1	3.80e-06	0	40	0	53477376	64	5478
2026-01-05 07:57:24.64	85.62	10.09	-46.2	-50.0	14.1	1.50e-06	0	40	0	55574528	64	5459
2026-01-05 07:57:25.49	85.50	10.14	-46.0	-49.7	14.5	7.00e-07	0	40	0	56623104	64	5248
2026-01-05 07:57:26.63	85.34	10.20	-46.0	-49.7	14.5	7.00e-07	0	40	0	58720256	64	5228
2026-01-05 07:57:27.70	85.19	10.26	-46.1	-49.7	14.6	7.00e-07	0	40	0	60817408	63	5549
2026-01-05 07:57:28.73	85.04	10.32	-46.1	-49.8	14.5	0.00e+00	0	40	0	62914560	63	5651
2026-01-05 07:57:29.73	84.90	10.38	-46.0	-49.6	14.6	7.00e-07	0	40	0	65011712	63	5521
2026-01-05 07:57:30.94	84.73	10.44	-46.0	-49.6	14.7	2.20e-06	0	40	0	67108864	63	5484
2026-01-05 07:57:31.83	84.60	10.49	-45.9	-49.5	14.8	7.00e-07	0	40	0	69206016	63	5426
2026-01-05 07:57:32.98	84.44	10.56	-45.8	-49.2	15.0	0.00e+00	0	40	0	71303168	63	5276
2026-01-05 07:57:33.84	84.32	10.60	-45.8	-49.3	15.0	0.00e+00	0	40	0	72351744	63	5321
2026-01-05 07:57:34.98	84.15	10.67	-45.8	-49.3	15.0	0.00e+00	0	40	0	74448896	63	5306
2026-01-05 07:57:35.85	84.02	10.71	-45.8	-49.3	15.0	0.00e+00	0	40	0	76546048	63	5315
2026-01-05 07:57:36.99	83.86	10.78	-45.9	-49.4	14.9	0.00e+00	0	40	0	78643200	63	5357
2026-01-05 07:57:37.85	83.73	10.82	-45.8	-49.3	15.0	0.00e+00	0	40	0	79691776	63	5294
2026-01-05 07:57:39.00	83.56	10.89	-45.9	-49.4	14.9	0.00e+00	0	40	0	82837504	63	5369
2026-01-05 07:57:39.86	83.44	10.93	-45.9	-49.4	14.9	0.00e+00	0	40	0	83886080	63	5360
2026-01-05 07:57:41.00	83.27	11.00	-46.0	-49.5	14.8	0.00e+00	0	40	0	85983232	63	5443
2026-01-05 07:57:41.87	83.14	11.05	-46.0	-49.5	14.8	0.00e+00	0	40	0	88080384	63	5420
2026-01-05 07:57:43.01	82.97	11.11	-45.9	-49.4	14.9	0.00e+00	0	40	0	90177536	63	5364
2026-01-05 07:57:43.87	82.84	11.15	-45.9	-49.3	15.0	0.00e+00	0	40	0	91226112	63	5339
2026-01-05 07:57:45.02	82.67	11.22	-45.8	-49.2	15.1	0.00e+00	0	40	0	93323264	63	5269
2026-01-05 07:57:45.88	82.54	11.26	-45.8	-49.2	15.1	0.00e+00	0	40	0	95420416	63	5263
2026-01-05 07:57:47.02	82.37	11.33	-45.8	-49.2	15.1	0.00e+00	0	40	0	97517568	63	5250
2026-01-05 07:57:47.88	82.24	11.37	-45.7	-49.0	15.3	0.00e+00	0	40	0	98566144	63	5138
2026-01-05 07:57:49.03	82.06	11.44	-45.7	-49.0	15.3	0.00e+00	0	40	0	100663296	63	5143
2026-01-05 07:57:49.89	81.93	11.48	-45.7	-49.1	15.2	0.00e+00	0	41	0	102760448	63	5169
2026-01-05 07:57:51.03	81.75	11.54	-45.6	-48.9	15.4	0.00e+00	0	40	0	104857600	63	5063
2026-01-05 07:57:51.89	81.62	11.59	-45.6	-49.0	15.3	0.00e+00	0	40	0	106954752	63	5126
2026-01-05 07:57:53.04	81.44	11.65	-45.5	-48.9	15.5	0.00e+00	0	41	0	109051904	63	5042
2026-01-05 07:57:53.90	81.31	11.70	-45.5	-48.8	15.6	0.00e+00	0	40	0	110100480	63	4984
2026-01-05 07:57:55.04	81.13	11.76	-45.3	-48.4	15.9	0.00e+00	0	41	0	112197632	62	5064
2026-01-05 07:57:55.90	81.00	11.81	-45.3	-48.4	15.9	0.00e+00	0	41	0	114294784	62	5095
2026-01-05 07:57:57.05	80.82	11.87	-45.3	-48.4	15.9	0.00e+00	0	40	0	116391936	62	5090
2026-01-05 07:57:57.91	80.68	11.91	-45.3	-48.4	15.9	0.00e+00	0	41	0	117440512	62	5061
2026-01-05 07:57:59.05	80.50	11.98	-45.2	-48.3	16.0	0.00e+00	0	40	0	119537664	62	4998
2026-01-05 07:57:59.91	80.37	12.02	-45.2	-48.3	16.0	0.00e+00	0	40	0	121634816	62	5018
2026-01-05 07:58:01.12	80.17	12.09	-45.3	-48.4	15.9	0.00e+00	0	40	0	123731968	62	5068
2026-01-05 07:58:01.98	80.04	12.13	-45.1	-48.1	16.2	0.00e+00	0	40	0	125829120	62	4906
2026-01-05 07:58:03.13	79.85	12.19	-44.8	-47.7	16.6	0.00e+00	0	40	0	127926272	61	4961
2026-01-05 07:58:03.99	79.71	12.24	-44.7	-47.6	16.7	0.00e+00	0	40	0	128974848	61	4891
2026-01-05 07:58:05.13	79.53	12.30	-44.8	-47.7	16.7	0.00e+00	0	40	0	131072000	61	4931
2026-01-05 07:58:05.99	79.39	12.34	-44.7	-47.6	16.7	0.00e+00	0	40	0	133169152	61	4894
2026-01-05 07:58:07.14	79.20	12.40	-44.8	-47.7	16.6	0.00e+00	0	40	0	135266304	61	4959
2026-01-05 07:58:08.00	79.06	12.45	-44.8	-47.7	16.6	0.00e+00	0	40	0	136314880	61	4947
2026-01-05 07:58:09.15	78.87	12.51	-44.7	-47.5	16.8	0.00e+00	0	40	0	138412032	61	4868
2026-01-05 07:58:10.01	78.73	12.55	-44.7	-47.5	16.8	0.00e+00	0	41	0	140509184	61	4841
2026-01-05 07:58:11.15	78.54	12.61	-44.7	-47.5	16.8	0.00e+00	0	40	0	142606336	61	4856
2026-01-05 07:58:12.01	78.40	12.66	-44.7	-47.6	16.7	0.00e+00	0	40	0	144703488	61	4888
2026-01-05 07:58:13.16	78.21	12.72	-44.7	-47.6	16.7	0.00e+00	0	40	0	146800640	61	4889
2026-01-05 07:58:14.02	78.06	12.76	-44.7	-47.6	16.7	0.00e+00	0	40	0	147849216	61	4877
2026-01-05 07:58:15.16	77.87	12.82	-44.7	-47.6	16.7	0.00e+00	0	40	0	149946368	61	4904
2026-01-05 07:58:16.02	77.73	12.87	-44.6	-47.5	16.8	0.00e+00	0	40	0	152043520	61	4823
2026-01-05 07:58:17.17	77.53	12.93	-44.7	-47.5	16.8	0.00e+00	0	40	0	154140672	61	4852
2026-01-05 07:58:18.04	77.39	12.97	-44.6	-47.5	16.8	0.00e+00	0	40	0	155189248	61	4836
2026-01-05 07:58:19.18	77.19	13.03	-44.7	-47.5	16.8	0.00e+00	0	40	0	157286400	61	4866
2026-01-05 07:58:20.04	77.05	13.07	-44.5	-47.3	17.1	0.00e+00	0	40	0	159383552	61	4707
2026-01-05 07:58:21.19	76.85	13.13	-44.4	-47.2	17.1	0.00e+00	0	40	0	161480704	60	4968
2026-01-05 07:58:22.05	76.70	13.17	-44.6	-47.4	17.0	0.00e+00	0	41	0	162529280	60	5053
2026-01-05 07:58:23.19	76.51	13.23	-44.4	-47.1	17.2	0.00e+00	0	40	0	165675008	60	4924
2026-01-05 07:58:24.05	76.36	13.28	-44.3	-47.1	17.2	0.00e+00	0	41	0	166723584	60	4887
2026-01-05 07:58:25.20	76.16	13.33	-44.3	-47.0	17.3	0.00e+00	0	41	0	168820736	60	4830
2026-01-05 07:58:26.05	76.01	13.38	-44.2	-46.9	17.3	0.00e+00	0	40	0	170917888	60	4814
2026-01-05 07:58:27.20	75.81	13.43	-44.3	-47.0	17.3	0.00e+00	0	40	0	173015040	60	4836
2026-01-05 07:58:28.37	75.60	13.49	-44.3	-47.0	17.3	0.00e+00	0	40	0	175112192	60	4824
2026-01-05 07:58:29.23	75.45	13.53	-44.1	-46.8	17.5	0.00e+00	0	40	0	176160768	60	4712
2026-01-05 07:58:30.37	75.25	13.59	-44.1	-46.7	17.6	0.00e+00	0	40	0	178257920	60	4702
2026-01-05 07:58:31.23	75.10	13.63	-44.1	-46.7	17.6	0.00e+00	0	40	0	180355072	60	4678
2026-01-05 07:58:32.38	74.89	13.69	-44.2	-46.9	17.4	0.00e+00	0	40	0	182452224	60	4773
2026-01-05 07:58:33.23	74.74	13.73	-44.1	-46.7	17.5	0.00e+00	0	40	0	184549376	60	4703
2026-01-05 07:58:34.38	74.54	13.79	-44.1	-46.7	17.6	0.00e+00	0	40	0	186646528	60	4704
2026-01-05 07:58:35.23	74.38	13.83	-43.9	-46.5	17.8	0.00e+00	0	40	0	187695104	59	4823
2026-01-05 07:58:36.38	74.18	13.88	-44.0	-46.6	17.7	0.00e+00	0	40	0	189792256	59	4880
2026-01-05 07:58:37.24	74.02	13.92	-44.0	-46.7	17.6	0.00e+00	0	40	0	191889408	59	4933
2026-01-05 07:58:38.52	73.79	13.99	-44.1	-46.7	17.6	0.00e+00	0	40	0	193986560	59	4962
2026-01-05 07:58:39.24	73.66	14.02	-44.1	-46.8	17.5	0.00e+00	0	40	0	195035136	59	4997
2026-01-05 07:58:40.73	73.39	14.09	-44.2	-46.8	17.4	0.00e+00	0	40	0	198180864	59	5041
2026-01-05 07:58:41.45	73.25	14.12	-44.2	-46.9	17.4	0.00e+00	0	40	0	199229440	59	5059
2026-01-05 07:58:42.74	73.02	14.19	-44.3	-47.0	17.3	0.00e+00	0	41	0	202375168	59	5110
2026-01-05 07:58:43.45	72.88	14.22	-44.4	-47.1	17.2	0.00e+00	0	41	0	203423744	59	5192
2026-01-05 07:58:44.74	72.65	14.28	-44.5	-47.3	17.0	0.00e+00	0	40	0	205520896	59	5282
2026-01-05 07:58:45.46	72.51	14.31	-44.5	-47.2	17.1	0.00e+00	0	40	0	206569472	59	5251
2026-01-05 07:58:46.74	72.27	14.37	-44.5	-47.2	17.1	0.00e+00	0	41	0	209715200	59	5259
2026-01-05 07:58:47.46	72.14	14.40	-44.5	-47.2	17.1	0.00e+00	0	40	0	210763776	59	5263
2026-01-05 07:58:48.74	71.90	14.46	-44.5	-47.3	17.0	0.00e+00	0	40	0	212860928	59	5308
2026-01-05 07:58:49.45	71.77	14.50	-44.6	-47.3	17.0	0.00e+00	0	40	0	213909504	59	5313
2026-01-05 07:58:50.74	71.52	14.55	-44.5	-47.3	17.0	0.00e+00	0	41	0	217055232	59	5298
2026-01-05 07:58:51.57	71.37	14.59	-44.4	-47.1	17.2	0.00e+00	0	40	0	218103808	59	5214
2026-01-05 07:58:52.71	71.15	14.64	-44.4	-47.1	17.2	0.00e+00	0	40	0	220200960	59	5168
2026-01-05 07:58:53.57	70.99	14.68	-44.4	-47.1	17.2	0.00e+00	0	41	0	222298112	59	5175
2026-01-05 07:58:54.72	70.77	14.73	-44.4	-47.2	17.2	0.00e+00	0	40	0	224395264	59	5231
2026-01-05 07:58:55.58	70.60	14.77	-44.4	-47.1	17.2	0.00e+00	0	40	0	225443840	59	5208
2026-01-05 07:58:56.72	70.38	14.82	-44.5	-47.3	17.1	0.00e+00	0	40	0	228589568	59	5289
2026-01-05 07:58:57.58	70.22	14.86	-44.5	-47.2	17.0	0.00e+00	0	40	0	229638144	59	5278
2026-01-05 07:58:58.73	69.99	14.91	-44.5	-47.2	17.1	0.00e+00	0	41	0	231735296	59	5255
2026-01-05 07:58:59.59	69.83	14.95	-44.4	-47.1	17.2	0.00e+00	0	41	0	233832448	59	5208
2026-01-05 07:59:00.73	69.61	14.99	-44.3	-47.0	17.3	0.00e+00	0	41	0	235929600	59	5142
2026-01-05 07:59:01.59	69.44	15.03	-44.3	-46.9	17.4	0.00e+00	0	40	0	236978176	59	5072
2026-01-05 07:59:02.73	69.22	15.08	-44.3	-46.9	17.4	0.00e+00	0	41	0	239075328	59	5098
2026-01-05 07:59:03.60	69.05	15.12	-44.4	-47.0	17.3	0.00e+00	0	41	0	241172480	59	5159
2026-01-05 07:59:04.74	68.82	15.16	-44.2	-46.8	17.5	0.00e+00	0	40	0	243269632	59	5028
2026-01-05 07:59:05.60	68.65	15.20	-44.1	-46.7	17.7	0.00e+00	0	40	0	244318208	59	4928
2026-01-05 07:59:06.74	68.43	15.25	-44.1	-46.7	17.6	0.00e+00	0	41	0	246415360	59	4933
2026-01-05 07:59:07.60	68.26	15.28	-44.0	-46.6	17.7	0.00e+00	0	40	0	248512512	59	4888
2026-01-05 07:59:08.75	68.03	15.33	-44.1	-46.7	17.7	0.00e+00	0	41	0	250609664	59	4927
2026-01-05 07:59:09.61	67.86	15.36	-44.1	-46.7	17.7	0.00e+00	0	40	0	252706816	59	4928
2026-01-05 07:59:10.75	67.63	15.41	-44.0	-46.5	17.8	0.00e+00	0	40	0	254803968	59	4863
2026-01-05 07:59:11.61	67.46	15.44	-44.0	-46.6	17.7	0.00e+00	0	40	0	255852544	59	4873
2026-01-05 07:59:12.79	67.22	15.49	-43.9	-46.5	17.8	0.00e+00	0	40	0	257949696	59	4823
2026-01-05 07:59:13.64	67.05	15.52	-43.9	-46.4	17.9	0.00e+00	0	40	0	260046848	59	4786
2026-01-05 07:59:14.79	66.82	15.57	-43.9	-46.4	17.9	0.00e+00	0	40	0	262144000	59	4795
2026-01-05 07:59:15.64	66.64	15.60	-43.9	-46.5	17.8	0.00e+00	0	40	0	263192576	59	4839
2026-01-05 07:59:16.78	66.41	15.65	-44.0	-46.5	17.8	0.00e+00	0	40	0	265289728	59	4859
2026-01-05 07:59:17.70	66.22	15.68	-44.0	-46.5	17.8	0.00e+00	0	40	0	267386880	59	4837
2026-01-05 07:59:18.88	65.98	15.73	-43.9	-46.4	17.9	0.00e+00	0	41	0	269484032	59	4789
2026-01-05 07:59:19.75	65.81	15.76	-43.9	-46.4	17.9	0.00e+00	0	40	0	271581184	59	4773
2026-01-05 07:59:20.90	65.57	15.80	-43.9	-46.4	17.9	0.00e+00	0	40	0	273678336	59	4803
2026-01-05 07:59:21.76	65.39	15.83	-43.9	-46.5	17.9	0.00e+00	0	41	0	274726912	59	4819
2026-01-05 07:59:22.90	65.16	15.88	-43.8	-46.3	18.0	0.00e+00	0	40	0	276824064	59	4717
2026-01-05 07:59:23.75	64.98	15.91	-43.8	-46.3	18.0	0.00e+00	0	40	0	278921216	59	4754
2026-01-05 07:59:24.90	64.74	15.95	-43.8	-46.3	18.1	0.00e+00	0	40	0	281018368	59	4713
2026-01-05 07:59:25.76	64.56	15.98	-43.8	-46.3	18.0	0.00e+00	0	41	0	282066944	59	4739
2026-01-05 07:59:26.90	64.33	16.02	-43.9	-46.4	17.9	0.00e+00	0	41	0	284164096	59	4793
2026-01-05 07:59:27.76	64.15	16.05	-43.8	-46.3	18.0	0.00e+00	0	41	0	286261248	59	4759
2026-01-05 07:59:28.90	63.91	16.09	-43.9	-46.4	17.9	0.00e+00	0	41	0	288358400	59	4804
2026-01-05 07:59:29.75	63.73	16.12	-43.9	-46.4	17.9	0.00e+00	0	40	0	290455552	59	4787
2026-01-05 07:59:30.91	63.49	16.16	-44.0	-46.6	17.8	0.00e+00	0	41	0	292552704	59	4876
2026-01-05 07:59:31.77	63.31	16.19	-44.0	-46.6	17.7	0.00e+00	0	40	0	293601280	59	4907
2026-01-05 07:59:32.92	63.06	16.22	-44.1	-46.7	17.6	0.00e+00	0	40	0	295698432	59	4955
2026-01-05 07:59:33.78	62.88	16.25	-44.0	-46.6	17.8	0.00e+00	0	40	0	297795584	59	4883
2026-01-05 07:59:34.92	62.64	16.29	-43.9	-46.5	17.9	0.00e+00	0	40	0	299892736	59	4820
2026-01-05 07:59:35.78	62.46	16.32	-43.9	-46.4	17.9	0.00e+00	0	40	0	300941312	59	4782
2026-01-05 07:59:36.92	62.21	16.35	-43.8	-46.4	18.0	0.00e+00	0	40	0	303038464	59	4761
2026-01-05 07:59:37.78	62.03	16.38	-43.9	-46.4	17.9	0.00e+00	0	40	0	305135616	59	4785
2026-01-05 07:59:38.93	61.78	16.42	-43.9	-46.4	17.9	0.00e+00	0	40	0	307232768	59	4801
2026-01-05 07:59:39.79	61.60	16.44	-43.9	-46.5	17.9	0.00e+00	0	41	0	309329920	59	4816
2026-01-05 07:59:40.93	61.36	16.48	-43.9	-46.4	17.9	0.00e+00	0	40	0	311427072	59	4806
2026-01-05 07:59:41.79	61.17	16.50	-43.8	-46.3	18.0	0.00e+00	0	40	0	312475648	59	4732
2026-01-05 07:59:42.94	60.92	16.54	-43.9	-46.3	18.0	0.00e+00	0	40	0	314572800	59	4754
2026-01-05 07:59:43.79	60.74	16.56	-43.8	-46.3	18.0	0.00e+00	0	41	0	316669952	59	4743
2026-01-05 07:59:44.94	60.49	16.59	-43.9	-46.4	18.0	0.00e+00	0	40	0	318767104	59	4766
2026-01-05 07:59:45.80	60.30	16.62	-43.8	-46.3	18.0	0.00e+00	0	41	0	319815680	59	4743
2026-01-05 07:59:47.02	60.04	16.65	-43.8	-46.3	18.0	0.00e+00	0	40	0	321912832	59	4735
2026-01-05 07:59:47.88	59.85	16.68	-44.0	-46.5	17.8	0.00e+00	0	41	0	324009984	59	4856
2026-01-05 07:59:49.02	59.60	16.71	-44.1	-46.7	17.7	0.00e+00	0	40	0	326107136	59	4934
2026-01-05 07:59:49.88	59.41	16.73	-44.1	-46.7	17.6	0.00e+00	0	41	0	328204288	59	4965
2026-01-05 07:59:51.02	59.16	16.76	-44.3	-46.9	17.5	0.00e+00	0	40	0	330301440	59	5047
2026-01-05 07:59:51.88	58.98	16.78	-44.3	-46.9	17.4	0.00e+00	0	41	0	331350016	59	5093
2026-01-05 07:59:53.02	58.73	16.81	-44.5	-47.2	17.2	0.00e+00	0	40	0	333447168	59	5224
2026-01-05 07:59:53.88	58.54	16.83	-44.6	-47.3	17.1	0.00e+00	0	41	0	335544320	59	5319
2026-01-05 07:59:55.02	58.29	16.86	-44.6	-47.4	17.0	0.00e+00	0	40	0	337641472	59	5343
2026-01-05 07:59:55.89	58.09	16.88	-44.6	-47.4	17.0	0.00e+00	0	40	0	338690048	59	5389
2026-01-05 07:59:57.03	57.84	16.91	-44.6	-47.4	17.0	0.00e+00	0	40	0	340787200	59	5385
2026-01-05 07:59:57.89	57.65	16.93	-44.6	-47.4	17.1	0.00e+00	0	40	0	342884352	60	5060
2026-01-05 07:59:59.04	57.40	16.96	-44.4	-47.1	17.3	0.00e+00	0	40	0	344981504	60	4891
2026-01-05 07:59:59.90	57.20	16.98	-44.3	-47.0	17.4	0.00e+00	0	41	0	346030080	60	4845
2026-01-05 08:00:01.04	56.95	17.00	-44.3	-47.0	17.4	0.00e+00	0	41	0	349175808	60	4834
2026-01-05 08:00:01.90	56.76	17.02	-44.2	-46.8	17.6	0.00e+00	0	40	0	350224384	60	4721
2026-01-05 08:00:03.05	56.50	17.05	-44.1	-46.7	17.7	0.00e+00	0	41	0	352321536	60	4677
2026-01-05 08:00:03.91	56.31	17.07	-44.1	-46.7	17.7	0.00e+00	0	40	0	354418688	60	4703
2026-01-05 08:00:05.05	56.06	17.09	-44.2	-46.8	17.6	0.00e+00	0	41	0	356515840	60	4739
2026-01-05 08:00:05.91	55.86	17.11	-44.3	-46.9	17.5	0.00e+00	0	40	0	357564416	60	4801
2026-01-05 08:00:07.06	55.61	17.13	-44.3	-47.0	17.5	0.00e+00	0	40	0	359661568	60	4822
2026-01-05 08:00:07.91	55.41	17.15	-44.3	-47.0	17.4	0.00e+00	0	40	0	361758720	60	4856
2026-01-05 08:00:09.06	55.16	17.17	-44.5	-47.2	17.2	0.00e+00	0	40	0	363855872	60	4952
2026-01-05 08:00:09.92	54.96	17.18	-44.5	-47.2	17.2	0.00e+00	0	40	0	364904448	60	4960
2026-01-05 08:00:11.07	54.70	17.21	-44.7	-47.4	17.0	0.00e+00	0	40	0	367001600	60	5091
2026-01-05 08:00:11.92	54.51	17.22	-44.6	-47.4	17.0	0.00e+00	0	41	0	369098752	60	5070
2026-01-05 08:00:13.07	54.25	17.24	-44.7	-47.5	17.0	0.00e+00	0	40	0	371195904	60	5113
2026-01-05 08:00:13.92	54.06	17.25	-44.6	-47.3	17.1	0.00e+00	0	40	0	373293056	60	5028
2026-01-05 08:00:15.07	53.80	17.27	-44.7	-47.4	17.0	0.00e+00	0	40	0	375390208	60	5087
2026-01-05 08:00:15.93	53.60	17.29	-44.8	-47.6	16.9	0.00e+00	0	40	0	376438784	60	5191
2026-01-05 08:00:17.09	53.34	17.30	-44.8	-47.6	16.9	0.00e+00	0	40	0	378535936	60	5180
2026-01-05 08:00:17.95	53.14	17.32	-44.7	-47.5	16.9	0.00e+00	0	40	0	380633088	60	5138
2026-01-05 08:00:19.09	52.89	17.33	-44.7	-47.5	17.0	0.00e+00	0	41	0	382730240	60	5119
2026-01-05 08:00:19.95	52.69	17.35	-44.7	-47.5	17.0	0.00e+00	0	40	0	383778816	60	5109
2026-01-05 08:00:21.10	52.43	17.36	-44.7	-47.5	17.0	0.00e+00	0	41	0	385875968	60	5112
2026-01-05 08:00:21.96	52.23	17.37	-44.8	-47.7	16.8	0.00e+00	0	41	0	387973120	60	5221
2026-01-05 08:00:23.10	51.97	17.39	-44.7	-47.6	16.9	0.00e+00	0	40	0	390070272	60	5163
2026-01-05 08:00:23.96	51.77	17.40	-44.7	-47.5	16.9	0.00e+00	0	40	0	392167424	60	5143
2026-01-05 08:00:25.11	51.51	17.41	-44.7	-47.4	17.0	0.00e+00	0	40	0	394264576	60	5086
2026-01-05 08:00:25.97	51.31	17.42	-44.7	-47.4	17.1	0.00e+00	0	40	0	395313152	60	5072
2026-01-05 08:00:27.11	51.05	17.43	-44.7	-47.4	17.1	0.00e+00	0	40	0	397410304	60	5080
2026-01-05 08:00:28.24	50.80	17.44	-44.7	-47.5	17.0	0.00e+00	0	41	0	399507456	60	5134
2026-01-05 08:00:29.10	50.60	17.45	-44.8	-47.6	16.9	0.00e+00	0	40	0	401604608	60	5162
2026-01-05 08:00:30.25	50.33	17.46	-44.8	-47.6	16.8	0.00e+00	0	40	0	403701760	60	5190
2026-01-05 08:00:31.10	50.14	17.47	-44.8	-47.6	16.9	0.00e+00	0	40	0	404750336	60	5178
2026-01-05 08:00:32.25	49.87	17.48	-44.7	-47.4	17.0	0.00e+00	0	40	0	406847488	60	5090
2026-01-05 08:00:33.11	49.68	17.49	-44.6	-47.4	17.1	0.00e+00	0	40	0	408944640	60	5051
2026-01-05 08:00:34.25	49.42	17.50	-44.5	-47.2	17.2	0.00e+00	0	40	0	411041792	60	4978
2026-01-05 08:00:35.39	49.15	17.50	-44.6	-47.4	17.1	0.00e+00	0	40	0	413138944	60	5049
2026-01-05 08:00:36.25	48.96	17.51	-44.6	-47.3	17.1	0.00e+00	0	41	0	414187520	60	5037
2026-01-05 08:00:37.39	48.69	17.52	-44.6	-47.4	17.1	0.00e+00	0	40	0	417333248	60	5057
2026-01-05 08:00:38.25	48.49	17.52	-44.7	-47.4	17.1	0.00e+00	0	40	0	418381824	60	5077
2026-01-05 08:00:39.39	48.23	17.53	-44.7	-47.5	17.0	0.00e+00	0	41	0	420478976	60	5125
2026-01-05 08:00:40.25	48.03	17.53	-44.7	-47.4	17.0	0.00e+00	0	40	0	422576128	60	5067
2026-01-05 08:00:41.40	47.77	17.54	-44.8	-47.6	16.9	0.00e+00	0	41	0	424673280	60	5208
2026-01-05 08:00:42.26	47.57	17.54	-44.9	-47.7	16.7	0.00e+00	0	40	0	425721856	60	5271
2026-01-05 08:00:43.44	47.30	17.54	-44.9	-47.7	16.8	0.00e+00	0	40	0	427819008	60	5247
2026-01-05 08:00:44.29	47.10	17.55	-44.8	-47.5	16.9	0.00e+00	0	40	0	429916160	60	5159
2026-01-05 08:00:45.44	46.84	17.55	-44.7	-47.4	17.0	0.00e+00	0	40	0	432013312	60	5087
2026-01-05 08:00:46.30	46.64	17.55	-44.6	-47.3	17.1	0.00e+00	0	40	0	433061888	60	5036
2026-01-05 08:00:47.59	46.34	17.55	-44.5	-47.2	17.3	0.00e+00	0	40	0	436207616	60	4927
2026-01-05 08:00:48.30	46.18	17.55	-44.4	-47.1	17.4	0.00e+00	0	40	0	437256192	60	4880
2026-01-05 08:00:49.59	45.88	17.55	-44.5	-47.2	17.2	0.00e+00	0	40	0	439353344	60	4959
2026-01-05 08:00:50.31	45.71	17.55	-44.6	-47.3	17.2	0.00e+00	0	41	0	441450496	60	5008
2026-01-05 08:00:51.60	45.42	17.55	-44.5	-47.2	17.3	0.00e+00	0	40	0	443547648	60	4956
2026-01-05 08:00:52.32	45.25	17.55	-44.5	-47.2	17.2	0.00e+00	0	40	0	444596224	60	4961
2026-01-05 08:00:53.60	44.95	17.55	-44.5	-47.3	17.2	0.00e+00	0	40	0	446693376	60	4987
2026-01-05 08:00:54.32	44.79	17.55	-44.5	-47.2	17.3	0.00e+00	0	40	0	448790528	60	4935
2026-01-05 08:00:55.61	44.49	17.54	-44.3	-47.0	17.5	0.00e+00	0	40	0	450887680	60	4819
2026-01-05 08:00:56.47	44.29	17.54	-44.4	-47.0	17.4	0.00e+00	0	40	0	452984832	60	4869
2026-01-05 08:00:57.61	44.03	17.54	-44.5	-47.2	17.3	0.00e+00	0	40	0	455081984	60	4933
2026-01-05 08:00:58.70	43.78	17.53	-44.5	-47.2	17.3	0.00e+00	0	40	0	457179136	60	4938
2026-01-05 08:00:59.55	43.58	17.53	-44.5	-47.2	17.3	0.00e+00	0	40	0	458227712	60	4927
2026-01-05 08:01:00.70	43.32	17.52	-44.3	-46.9	17.5	0.00e+00	0	40	0	460324864	60	4789
2026-01-05 08:01:01.85	43.05	17.52	-44.2	-46.8	17.7	0.00e+00	0	40	0	462422016	60	4722
2026-01-05 08:01:02.71	42.86	17.51	-44.1	-46.7	17.7	0.00e+00	0	40	0	464519168	60	4673
2026-01-05 08:01:03.85	42.59	17.50	-44.1	-46.7	17.8	0.00e+00	0	41	0	466616320	60	4671
2026-01-05 08:01:04.71	42.40	17.50	-44.1	-46.7	17.8	0.00e+00	0	41	0	467664896	60	4653
2026-01-05 08:01:05.86	42.13	17.49	-44.1	-46.6	17.8	0.00e+00	0	40	0	469762048	60	4637
2026-01-05 08:01:06.72	41.93	17.48	-44.1	-46.6	17.8	0.00e+00	0	40	0	471859200	60	4631
2026-01-05 08:01:07.86	41.67	17.47	-44.1	-46.7	17.7	0.00e+00	0	40	0	473956352	60	4677
2026-01-05 08:01:08.72	41.47	17.46	-44.1	-46.6	17.8	0.00e+00	0	41	0	476053504	60	4646
2026-01-05 08:01:09.86	41.21	17.45	-44.0	-46.5	17.9	0.00e+00	0	41	0	478150656	59	4843
2026-01-05 08:01:10.72	41.02	17.44	-44.0	-46.5	17.9	0.00e+00	0	41	0	479199232	59	4859
2026-01-05 08:01:12.00	40.72	17.43	-44.0	-46.5	17.8	0.00e+00	0	40	0	481296384	59	4866
2026-01-05 08:01:12.71	40.56	17.42	-44.0	-46.5	17.9	0.00e+00	0	40	0	483393536	59	4848
2026-01-05 08:01:14.19	40.22	17.41	-44.1	-46.6	17.8	0.00e+00	0	41	0	485490688	59	4908
2026-01-05 08:01:15.16	40.00	17.40	-43.9	-46.4	17.9	0.00e+00	0	41	0	487587840	59	4814
2026-01-05 08:01:16.48	39.70	17.38	-43.8	-46.2	18.1	0.00e+00	0	40	0	489684992	59	4693
2026-01-05 08:01:17.20	39.54	17.37	-43.7	-46.2	18.1	0.00e+00	0	40	0	491782144	59	4686
2026-01-05 08:01:18.49	39.24	17.35	-43.7	-46.2	18.1	0.00e+00	0	40	0	493879296	59	4683
2026-01-05 08:01:19.20	39.08	17.34	-43.7	-46.1	18.2	0.00e+00	0	40	0	494927872	59	4640
2026-01-05 08:01:20.49	38.79	17.32	-43.6	-46.1	18.3	0.00e+00	0	41	0	498073600	59	4604
2026-01-05 08:01:21.21	38.62	17.31	-43.6	-46.1	18.3	0.00e+00	0	41	0	499122176	59	4622
2026-01-05 08:01:22.50	38.33	17.29	-43.7	-46.2	18.2	0.00e+00	0	41	0	501219328	59	4665
2026-01-05 08:01:23.21	38.17	17.28	-43.7	-46.2	18.2	0.00e+00	0	40	0	503316480	59	4670
2026-01-05 08:01:24.54	37.87	17.26	-43.7	-46.2	18.2	0.00e+00	0	41	0	505413632	59	4669
2026-01-05 08:01:25.25	37.71	17.25	-43.6	-46.1	18.3	0.00e+00	0	40	0	506462208	59	4624
2026-01-05 08:01:26.54	37.42	17.23	-43.7	-46.1	18.2	0.00e+00	0	40	0	508559360	59	4643
2026-01-05 08:01:27.25	37.26	17.22	-43.7	-46.2	18.2	0.00e+00	0	40	0	510656512	59	4675
2026-01-05 08:01:28.66	36.94	17.19	-43.8	-46.3	18.2	0.00e+00	0	40	0	512753664	59	4706
2026-01-05 08:01:29.66	36.72	17.17	-43.8	-46.3	18.1	0.00e+00	0	40	0	514850816	59	4706
2026-01-05 08:01:30.98	36.42	17.15	-43.9	-46.4	17.9	0.00e+00	0	40	0	516947968	59	4778
2026-01-05 08:01:31.70	36.26	17.13	-43.9	-46.5	17.9	0.00e+00	0	40	0	519045120	59	4824
2026-01-05 08:01:32.99	35.97	17.11	-44.1	-46.6	17.8	0.00e+00	0	40	0	521142272	59	4919
2026-01-05 08:01:33.70	35.81	17.09	-44.0	-46.5	17.8	0.00e+00	0	40	0	522190848	59	4869
2026-01-05 08:01:34.99	35.52	17.07	-44.0	-46.6	17.8	0.00e+00	0	40	0	525336576	59	4897
2026-01-05 08:01:35.70	35.36	17.05	-44.0	-46.7	17.7	0.00e+00	0	41	0	526385152	59	4932
2026-01-05 08:01:36.99	35.08	17.02	-43.9	-46.6	17.8	0.00e+00	0	41	0	528482304	59	4876
2026-01-05 08:01:37.70	34.92	17.01	-43.9	-46.6	17.8	0.00e+00	0	41	0	529530880	59	4878
2026-01-05 08:01:38.99	34.63	16.98	-43.9	-46.6	17.8	0.00e+00	0	41	0	532676608	59	4873
2026-01-05 08:01:39.71	34.47	16.96	-43.9	-46.5	17.9	0.00e+00	0	40	0	533725184	59	4857
2026-01-05 08:01:41.00	34.19	16.93	-43.9	-46.5	17.8	0.00e+00	0	40	0	535822336	59	4865
2026-01-05 08:01:41.71	34.03	16.92	-44.0	-46.6	17.8	0.00e+00	0	40	0	537919488	59	4886
2026-01-05 08:01:43.00	33.74	16.89	-44.0	-46.6	17.8	0.00e+00	0	41	0	540016640	59	4912
2026-01-05 08:01:43.72	33.59	16.87	-44.2	-46.8	17.6	0.00e+00	0	40	0	541065216	59	4996
2026-01-05 08:01:45.00	33.30	16.84	-44.3	-46.9	17.5	0.00e+00	0	40	0	543162368	59	5074
2026-01-05 08:01:45.72	33.15	16.82	-44.4	-47.0	17.4	0.00e+00	0	40	0	545259520	59	5152
2026-01-05 08:01:47.00	32.87	16.79	-44.5	-47.2	17.2	0.00e+00	0	40	0	547356672	59	5245
2026-01-05 08:01:47.72	32.71	16.77	-44.5	-47.2	17.2	0.00e+00	0	40	0	548405248	59	5246
2026-01-05 08:01:49.00	32.43	16.73	-44.5	-47.2	17.2	0.00e+00	0	41	0	551550976	59	5273
2026-01-05 08:01:49.72	32.27	16.71	-44.4	-47.1	17.3	0.00e+00	0	40	0	552599552	59	5204
2026-01-05 08:01:51.01	31.99	16.68	-44.3	-47.0	17.4	0.00e+00	0	40	0	554696704	59	5118
2026-01-05 08:01:51.73	31.83	16.66	-44.3	-47.0	17.4	0.00e+00	0	40	0	555745280	59	5122
2026-01-05 08:01:53.17	31.52	16.62	-44.4	-47.1	17.3	0.00e+00	0	40	0	558891008	59	5191
2026-01-05 08:01:53.89	31.37	16.60	-44.4	-47.1	17.3	0.00e+00	0	41	0	559939584	59	5215
2026-01-05 08:01:55.24	31.07	16.56	-44.4	-47.2	17.2	0.00e+00	0	40	0	563085312	59	5252
2026-01-05 08:01:55.96	30.92	16.54	-44.5	-47.3	17.1	0.00e+00	0	40	0	564133888	59	5328
2026-01-05 08:01:57.25	30.64	16.50	-44.6	-47.3	17.1	0.00e+00	0	40	0	566231040	59	5331
2026-01-05 08:01:57.96	30.49	16.48	-44.5	-47.3	17.1	0.00e+00	0	40	0	568328192	59	5305
2026-01-05 08:01:59.25	30.21	16.44	-44.6	-47.4	17.1	0.00e+00	0	40	0	570425344	59	5345
2026-01-05 08:01:59.97	30.06	16.42	-44.4	-47.1	17.3	0.00e+00	0	40	0	571473920	59	5173
2026-01-05 08:02:01.26	29.78	16.38	-44.2	-46.9	17.5	0.00e+00	0	40	0	573571072	59	5050
2026-01-05 08:02:01.99	29.63	16.36	-44.2	-46.8	17.6	0.00e+00	0	40	0	575668224	59	5012
2026-01-05 08:02:03.28	29.35	16.31	-44.1	-46.7	17.7	0.00e+00	0	40	0	577765376	59	4944
2026-01-05 08:02:03.99	29.20	16.29	-44.0	-46.6	17.8	0.00e+00	0	40	0	578813952	59	4893
2026-01-05 08:02:05.28	28.93	16.25	-44.1	-46.7	17.7	0.00e+00	0	40	0	581959680	59	4943
2026-01-05 08:02:06.17	28.74	16.22	-44.2	-46.8	17.5	0.00e+00	0	40	0	583008256	59	5038
2026-01-05 08:02:07.58	28.45	16.17	-44.2	-46.9	17.5	0.00e+00	0	40	0	586153984	59	5062
2026-01-05 08:02:08.30	28.30	16.15	-44.1	-46.9	17.4	0.00e+00	0	41	0	587202560	59	5098
2026-01-05 08:02:09.84	27.97	16.10	-44.1	-46.9	17.4	0.00e+00	0	40	0	590348288	59	5096
2026-01-05 08:02:10.55	27.83	16.07	-44.0	-46.9	17.5	0.00e+00	0	40	0	591396864	59	5069
2026-01-05 08:02:11.84	27.56	16.03	-44.0	-46.9	17.5	0.00e+00	0	40	0	593494016	59	5058
2026-01-05 08:02:12.56	27.41	16.00	-43.9	-46.8	17.6	0.00e+00	0	40	0	595591168	59	5012
2026-01-05 08:02:13.85	27.14	15.96	-44.0	-46.8	17.5	0.00e+00	0	40	0	597688320	59	5024
2026-01-05 08:02:14.56	26.99	15.93	-44.1	-46.9	17.5	0.00e+00	0	40	0	598736896	59	5073
2026-01-05 08:02:15.85	26.73	15.88	-44.1	-46.9	17.4	0.00e+00	0	40	0	601882624	59	5089
2026-01-05 08:02:16.56	26.58	15.86	-44.2	-47.0	17.4	0.00e+00	0	40	0	602931200	59	5132
2026-01-05 08:02:17.85	26.32	15.81	-44.3	-47.1	17.3	0.00e+00	0	40	0	605028352	59	5169
2026-01-05 08:02:18.58	26.17	15.78	-44.2	-47.0	17.4	0.00e+00	0	40	0	606076928	59	5131
2026-01-05 08:02:19.87	25.90	15.74	-44.1	-46.9	17.5	0.00e+00	0	40	0	609222656	59	5053
2026-01-05 08:02:20.58	25.76	15.71	-44.2	-46.9	17.5	0.00e+00	0	40	0	610271232	59	5054
2026-01-05 08:02:21.87	25.50	15.66	-44.2	-46.9	17.4	0.00e+00	0	40	0	612368384	59	5099
2026-01-05 08:02:22.59	25.35	15.63	-44.2	-46.9	17.5	0.00e+00	0	40	0	614465536	59	5074
2026-01-05 08:02:23.88	25.09	15.58	-44.3	-47.0	17.4	0.00e+00	0	40	0	616562688	59	5127
2026-01-05 08:02:24.59	24.95	15.56	-44.3	-47.0	17.3	0.00e+00	0	40	0	617611264	59	5155
2026-01-05 08:02:25.88	24.69	15.51	-44.4	-47.2	17.2	0.00e+00	0	40	0	620756992	59	5219
2026-01-05 08:02:26.60	24.54	15.48	-44.4	-47.3	17.1	0.00e+00	0	40	0	621805568	59	5286
2026-01-05 08:02:27.88	24.29	15.43	-44.5	-47.4	17.0	0.00e+00	0	40	0	623902720	59	5344
2026-01-05 08:02:28.60	24.14	15.40	-44.6	-47.5	16.9	0.00e+00	0	40	0	624951296	59	5442
2026-01-05 08:02:29.89	23.89	15.35	-44.6	-47.5	16.9	0.00e+00	0	40	0	628097024	59	5412
2026-01-05 08:02:30.60	23.75	15.32	-44.6	-47.5	16.9	0.00e+00	0	40	0	629145600	59	5442
2026-01-05 08:02:31.89	23.49	15.26	-44.6	-47.5	16.8	0.00e+00	0	40	0	631242752	59	5427
2026-01-05 08:02:32.61	23.35	15.23	-44.6	-47.5	16.9	0.00e+00	0	40	0	633339904	59	5422
2026-01-05 08:02:34.25	23.03	15.17	-44.4	-47.2	17.2	0.00e+00	0	40	0	635437056	59	5257
2026-01-05 08:02:34.82	22.92	15.14	-44.4	-47.1	17.2	0.00e+00	0	40	0	637534208	59	5198
2026-01-05 08:02:36.43	22.60	15.07	-44.5	-47.3	17.1	0.00e+00	0	40	0	639631360	59	5307
2026-01-05 08:02:37.00	22.49	15.05	-44.6	-47.4	17.0	0.00e+00	0	40	0	640679936	59	5365
2026-01-05 08:02:38.59	22.18	14.98	-44.8	-47.6	16.8	0.00e+00	0	40	0	643825664	60	5210
2026-01-05 08:02:39.17	22.07	14.96	-44.8	-47.7	16.7	0.00e+00	0	40	0	644874240	60	5279
2026-01-05 08:02:40.83	21.75	14.89	-44.9	-47.9	16.5	0.00e+00	0	40	0	648019968	60	5368
2026-01-05 08:02:41.41	21.64	14.86	-44.9	-47.9	16.5	0.00e+00	0	40	0	649068544	60	5388
2026-01-05 08:02:42.99	21.33	14.79	-44.9	-47.8	16.6	0.00e+00	0	40	0	652214272	60	5329
2026-01-05 08:02:43.59	21.22	14.77	-44.8	-47.8	16.6	0.00e+00	0	40	0	653262848	60	5296
2026-01-05 08:02:45.46	20.86	14.68	-44.8	-47.8	16.6	0.00e+00	0	40	0	656408576	60	5309
2026-01-05 08:02:46.03	20.76	14.66	-44.7	-47.8	16.6	0.00e+00	0	40	0	658505728	60	5306
2026-01-05 08:02:47.63	20.45	14.59	-44.6	-47.8	16.6	0.00e+00	0	40	0	660602880	60	5305
2026-01-05 08:02:48.58	20.27	14.54	-44.6	-47.9	16.5	0.00e+00	0	40	0	662700032	60	5373
2026-01-05 08:02:49.58	20.09	14.50	-44.5	-47.9	16.5	0.00e+00	0	40	0	664797184	60	5383
2026-01-05 08:02:50.58	19.90	14.45	-44.5	-48.0	16.4	0.00e+00	0	40	0	666894336	60	5463
2026-01-05 08:02:51.58	19.71	14.41	-44.6	-48.1	16.2	0.00e+00	0	40	0	667942912	60	5512
2026-01-05 08:02:52.59	19.53	14.36	-44.7	-48.2	16.2	0.00e+00	0	40	0	670040064	60	5540
2026-01-05 08:02:53.67	19.33	14.31	-44.7	-48.1	16.3	0.00e+00	0	40	0	672137216	60	5491
2026-01-05 08:02:54.56	19.16	14.27	-44.9	-48.3	16.1	0.00e+00	0	40	0	674234368	60	5609
2026-01-05 08:02:55.63	18.96	14.22	-45.0	-48.4	16.1	0.00e+00	0	40	0	676331520	60	5671
2026-01-05 08:02:56.65	18.78	14.17	-45.2	-48.6	15.9	0.00e+00	0	40	0	678428672	60	5794
2026-01-05 08:02:57.81	18.57	14.12	-45.3	-48.5	15.9	0.00e+00	0	40	0	680525824	61	5463
2026-01-05 08:02:58.67	18.41	14.08	-45.4	-48.6	15.7	0.00e+00	0	40	0	681574400	61	5528
2026-01-05 08:03:00.01	18.17	14.01	-45.5	-48.7	15.7	0.00e+00	0	40	0	684720128	61	5591
2026-01-05 08:03:00.72	18.04	13.98	-45.5	-48.8	15.7	0.00e+00	0	40	0	685768704	61	5617
2026-01-05 08:03:02.23	17.76	13.91	-45.4	-48.7	15.7	0.00e+00	0	40	0	688914432	61	5542
2026-01-05 08:03:02.95	17.64	13.87	-45.3	-48.5	15.9	0.00e+00	0	40	0	689963008	61	5451
2026-01-05 08:03:04.24	17.40	13.81	-45.3	-48.4	16.0	0.00e+00	0	40	0	692060160	61	5386
2026-01-05 08:03:04.95	17.28	13.78	-45.3	-48.4	16.0	0.00e+00	0	40	0	693108736	61	5380
2026-01-05 08:03:06.24	17.05	13.71	-45.3	-48.4	16.0	0.00e+00	0	40	0	696254464	61	5388
2026-01-05 08:03:06.96	16.92	13.68	-45.3	-48.4	16.0	0.00e+00	0	40	0	697303040	61	5353
2026-01-05 08:03:08.25	16.69	13.61	-45.4	-48.7	15.7	0.00e+00	0	40	0	699400192	61	5556
2026-01-05 08:03:08.96	16.57	13.58	-45.5	-48.8	15.6	0.00e+00	0	40	0	701497344	61	5643
2026-01-05 08:03:10.25	16.34	13.52	-45.5	-49.1	15.2	0.00e+00	0	40	0	703594496	61	5833
2026-01-05 08:03:10.97	16.22	13.48	-45.5	-49.3	15.1	0.00e+00	0	40	0	704643072	61	5959
2026-01-05 08:03:12.26	15.99	13.42	-45.5	-49.3	15.1	0.00e+00	0	40	0	706740224	61	5979
2026-01-05 08:03:13.11	15.84	13.37	-45.4	-49.3	15.1	0.00e+00	0	40	0	708837376	61	5947
2026-01-05 08:03:14.26	15.64	13.32	-45.3	-49.2	15.1	0.00e+00	0	41	0	710934528	61	5871
2026-01-05 08:03:15.12	15.50	13.27	-45.3	-49.2	15.2	0.00e+00	0	40	0	713031680	61	5904
2026-01-05 08:03:16.27	15.30	13.22	-45.2	-49.2	15.2	0.00e+00	0	40	0	715128832	61	5856
2026-01-05 08:03:17.13	15.15	13.17	-45.2	-49.2	15.2	0.00e+00	0	40	0	716177408	61	5877
2026-01-05 08:03:18.27	14.96	13.12	-45.2	-49.2	15.2	0.00e+00	0	40	0	718274560	61	5882
2026-01-05 08:03:19.13	14.81	13.07	-45.2	-49.3	15.1	0.00e+00	0	40	0	720371712	61	5990
2026-01-05 08:03:20.31	14.61	13.01	-45.1	-49.3	15.1	0.00e+00	0	40	0	722468864	61	5931
2026-01-05 08:03:21.17	14.46	12.97	-45.1	-49.3	15.1	0.00e+00	0	41	0	723517440	61	5941
2026-01-05 08:03:22.41	14.26	12.90	-45.2	-49.3	15.0	7.00e-07	0	40	0	726663168	61	5990
2026-01-05 08:03:23.27	14.11	12.86	-45.2	-49.3	15.0	0.00e+00	0	40	0	727711744	61	5939
2026-01-05 08:03:24.42	13.92	12.80	-45.3	-49.3	15.1	0.00e+00	0	40	0	729808896	61	5927
2026-01-05 08:03:25.28	13.78	12.76	-45.5	-49.4	15.0	0.00e+00	0	40	0	731906048	61	6012
2026-01-05 08:03:26.42	13.59	12.70	-45.6	-49.3	15.0	0.00e+00	0	40	0	734003200	61	5951
2026-01-05 08:03:27.33	13.44	12.65	-45.6	-49.2	15.1	0.00e+00	0	40	0	735051776	61	5916
2026-01-05 08:03:28.51	13.24	12.59	-45.7	-49.2	15.2	0.00e+00	0	40	0	738197504	62	5552
2026-01-05 08:03:29.37	13.10	12.54	-45.7	-49.1	15.2	0.00e+00	0	40	0	739246080	62	5518
2026-01-05 08:03:30.72	12.88	12.47	-45.7	-49.3	15.0	0.00e+00	0	40	0	741343232	62	5639
2026-01-05 08:03:31.44	12.76	12.44	-45.7	-49.3	15.1	0.00e+00	0	40	0	743440384	62	5593
2026-01-05 08:03:32.72	12.56	12.37	-45.7	-49.3	15.0	0.00e+00	0	40	0	745537536	62	5649
2026-01-05 08:03:33.44	12.44	12.33	-45.7	-49.4	15.0	7.00e-07	0	40	0	746586112	62	5658
2026-01-05 08:03:34.73	12.23	12.26	-45.7	-49.3	15.1	7.00e-07	0	40	0	749731840	62	5647
2026-01-05 08:03:35.49	12.11	12.22	-45.7	-49.3	15.1	0.00e+00	0	40	0	750780416	62	5634
2026-01-05 08:03:36.78	11.91	12.16	-45.6	-49.2	15.1	0.00e+00	0	40	0	752877568	62	5566
2026-01-05 08:03:37.58	11.78	12.11	-45.5	-49.1	15.2	0.00e+00	0	40	0	754974720	62	5493
2026-01-05 08:03:38.72	11.60	12.05	-45.3	-48.9	15.5	0.00e+00	0	40	0	757071872	62	5359
2026-01-05 08:03:39.81	11.43	11.99	-45.1	-48.7	15.6	0.00e+00	0	40	0	759169024	62	5238
2026-01-05 08:03:40.84	11.26	11.94	-44.9	-48.6	15.7	0.00e+00	0	40	0	761266176	61	5504
2026-01-05 08:03:41.84	11.11	11.89	-44.8	-48.6	15.7	0.00e+00	0	40	0	762314752	61	5485
2026-01-05 08:03:42.85	10.95	11.83	-44.7	-48.8	15.5	0.00e+00	0	40	0	764411904	61	5627
2026-01-05 08:03:43.85	10.79	11.78	-44.6	-48.6	15.7	0.00e+00	0	40	0	766509056	61	5513
2026-01-05 08:03:44.85	10.64	11.73	-44.5	-48.6	15.7	0.00e+00	0	40	0	768606208	61	5508
2026-01-05 08:03:45.85	10.48	11.67	-44.5	-48.5	15.7	0.00e+00	0	40	0	769654784	61	5463
2026-01-05 08:03:46.86	10.33	11.62	-44.5	-48.4	15.8	0.00e+00	0	40	0	771751936	60	5720
2026-01-05 08:03:47.86	10.18	11.56	-44.4	-48.3	15.9	0.00e+00	0	40	0	773849088	60	5647
2026-01-05 08:03:48.86	10.02	11.51	-44.4	-48.3	16.1	0.00e+00	0	40	0	775946240	60	5609
2026-01-05 08:03:49.86	9.87	11.46	-44.3	-48.2	16.0	0.00e+00	0	40	0	778043392	60	5586
2026-01-05 08:03:50.87	9.72	11.40	-44.2	-48.2	16.0	0.00e+00	0	40	0	780140544	60	5574
2026-01-05 08:03:51.87	9.57	11.35	-44.0	-48.2	16.1	0.00e+00	0	40	0	781189120	60	5530
2026-01-05 08:03:52.87	9.42	11.29	-44.0	-48.2	16.0	0.00e+00	0	40	0	783286272	59	5885
2026-01-05 08:03:53.87	9.27	11.24	-43.9	-48.1	16.1	0.00e+00	0	40	0	785383424	59	5839
2026-01-05 08:03:54.88	9.12	11.18	-43.9	-48.1	16.2	0.00e+00	0	40	0	787480576	59	5820
2026-01-05 08:03:55.88	8.97	11.13	-44.0	-48.1	16.1	0.00e+00	0	40	0	788529152	59	5848
2026-01-05 08:03:56.88	8.82	11.07	-44.1	-48.2	16.0	0.00e+00	0	40	0	790626304	59	5904
2026-01-05 08:03:57.88	8.67	11.02	-44.1	-48.0	16.2	0.00e+00	0	41	0	792723456	59	5758
2026-01-05 08:03:58.88	8.52	10.96	-44.2	-47.9	16.3	0.00e+00	0	40	0	794820608	59	5669
2026-01-05 08:03:59.88	8.38	10.91	-44.3	-47.8	16.4	0.00e+00	0	40	0	796917760	59	5656
2026-01-05 08:04:00.89	8.23	10.85	-44.3	-47.8	16.4	0.00e+00	0	40	0	797966336	59	5620
2026-01-05 08:04:01.89	8.09	10.80	-44.3	-47.7	16.5	0.00e+00	0	40	0	800063488	59	5571
2026-01-05 08:04:02.89	7.94	10.74	-44.3	-47.7	16.5	0.00e+00	0	40	0	802160640	59	5547
2026-01-05 08:04:03.89	7.80	10.69	-44.2	-47.5	16.7	0.00e+00	0	40	0	804257792	59	5435
2026-01-05 08:04:04.90	7.65	10.63	-44.2	-47.5	16.7	0.00e+00	0	40	0	806354944	59	5435
2026-01-05 08:04:05.90	7.51	10.58	-44.2	-47.5	16.7	0.00e+00	0	40	0	807403520	59	5422
2026-01-05 08:04:06.90	7.37	10.52	-44.1	-47.3	16.9	0.00e+00	0	40	0	809500672	59	5280
2026-01-05 08:04:07.90	7.22	10.47	-44.1	-47.3	16.9	0.00e+00	0	40	0	811597824	59	5300
2026-01-05 08:04:08.91	7.08	10.41	-44.2	-47.4	16.8	0.00e+00	0	40	0	813694976	59	5349
2026-01-05 08:04:09.91	6.94	10.36	-44.1	-47.2	17.0	0.00e+00	0	40	0	815792128	59	5248
2026-01-05 08:04:10.91	6.80	10.30	-44.2	-47.3	16.9	0.00e+00	0	40	0	816840704	59	5298
2026-01-05 08:04:11.91	6.66	10.25	-44.2	-47.3	16.9	0.00e+00	0	40	0	818937856	59	5286
2026-01-05 08:04:12.91	6.52	10.19	-44.1	-47.1	17.0	0.00e+00	0	40	0	821035008	59	5203
2026-01-05 08:04:13.96	6.38	10.13	-44.1	-47.1	17.0	0.00e+00	0	40	0	823132160	59	5218
2026-01-05 08:04:14.89	6.25	10.08	-44.0	-47.2	17.0	0.00e+00	0	40	0	824180736	59	5219
2026-01-05 08:04:15.89	6.11	10.03	-43.8	-47.1	17.0	0.00e+00	0	40	0	826277888	59	5195
2026-01-05 08:04:16.89	5.97	9.97	-43.6	-46.9	17.3	0.00e+00	0	40	0	828375040	59	5060
2026-01-05 08:04:17.90	5.84	9.91	-43.6	-47.0	17.2	0.00e+00	0	40	0	830472192	59	5111
2026-01-05 08:04:18.90	5.70	9.86	-43.6	-46.9	17.2	0.00e+00	0	40	0	832569344	59	5096
2026-01-05 08:04:19.90	5.56	9.80	-43.7	-47.0	17.1	0.00e+00	0	40	0	833617920	59	5159
2026-01-05 08:04:20.90	5.43	9.75	-43.6	-46.9	17.2	0.00e+00	0	40	0	835715072	59	5077
2026-01-05 08:04:21.90	5.29	9.69	-43.8	-47.1	17.1	0.00e+00	0	40	0	837812224	59	5187
2026-01-05 08:04:22.91	5.16	9.64	-43.7	-47.0	17.2	0.00e+00	0	40	0	839909376	59	5115
2026-01-05 08:04:23.96	5.02	9.58	-43.9	-47.1	17.0	0.00e+00	0	40	0	842006528	59	5181
2026-01-05 08:04:24.95	4.89	9.52	-43.9	-47.2	16.9	0.00e+00	0	40	0	843055104	59	5235
2026-01-05 08:04:25.96	4.75	9.47	-44.0	-47.3	16.8	0.00e+00	0	40	0	845152256	59	5325
2026-01-05 08:04:26.96	4.62	9.41	-44.0	-47.2	16.9	0.00e+00	0	40	0	847249408	59	5242
2026-01-05 08:04:27.96	4.49	9.35	-44.1	-47.3	16.9	0.00e+00	0	40	0	849346560	59	5305
2026-01-05 08:04:28.96	4.36	9.30	-44.1	-47.3	16.8	0.00e+00	0	40	0	851443712	59	5324
2026-01-05 08:04:29.97	4.23	9.24	-44.1	-47.3	16.9	0.00e+00	0	40	0	852492288	59	5296
2026-01-05 08:04:30.97	4.10	9.19	-44.2	-47.3	16.8	0.00e+00	0	40	0	854589440	59	5339
2026-01-05 08:04:31.97	3.97	9.13	-44.2	-47.5	16.7	0.00e+00	0	40	0	856686592	59	5426
2026-01-05 08:04:32.98	3.84	9.07	-44.0	-47.4	16.6	0.00e+00	0	40	0	858783744	59	5387
2026-01-05 08:04:33.98	3.71	9.02	-43.9	-47.6	16.5	0.00e+00	0	40	0	860880896	59	5482
2026-01-05 08:04:34.98	3.58	8.96	-48.3	-58.2	6.7	0.00e+00	0	40	0	861929472	67	11727
2026-01-05 08:04:35.99	3.46	8.90	-48.4	-65.3	3.8	1.49e+00	0	40	104	862978048	67	26654
2026-01-05 08:04:36.99	3.33	8.85	-49.1	-65.8	3.8	1.49e+00	0	40	104	862978048	69	24984
2026-01-05 08:04:37.99	3.20	8.79	-50.1	-65.9	3.8	1.49e+00	0	40	104	862978048	70	23869
2026-01-05 08:04:39.00	3.08	8.74	-50.1	-65.9	3.8	1.49e+00	0	40	104	862978048	70	24046
2026-01-05 08:04:40.00	2.95	8.68	-50.3	-66.0	3.8	1.49e+00	0	40	104	862978048	71	22786
2026-01-05 08:04:41.00	2.83	8.62	-50.5	-65.9	3.8	1.49e+00	0	40	104	862978048	72	21454
2026-01-05 08:04:42.01	2.70	8.57	-50.3	-66.0	3.8	1.49e+00	0	40	104	862978048	72	21570
2026-01-05 08:04:43.01	2.58	8.51	-50.5	-66.0	3.8	1.49e+00	0	40	104	862978048	72	21620
2026-01-05 08:04:44.02	2.45	8.45	-50.0	-66.1	3.8	1.49e+00	0	40	104	862978048	71	23108
2026-01-05 08:04:45.02	2.33	8.40	-50.7	-66.0	3.8	1.49e+00	0	40	104	862978048	72	21724
2026-01-05 08:04:46.03	2.21	8.34	-50.5	-66.0	3.8	1.49e+00	0	40	104	862978048	72	21716
2026-01-05 08:04:47.03	2.09	8.29	-50.5	-66.1	3.8	1.49e+00	0	40	104	862978048	72	21792
2026-01-05 08:04:48.03	1.96	8.23	-50.7	-66.1	3.8	1.49e+00	0	40	104	862978048	72	21838
2026-01-05 08:04:49.04	1.84	8.17	-50.5	-66.1	3.8	1.49e+00	0	40	104	862978048	72	21837
2026-01-05 08:04:50.04	1.72	8.12	-50.7	-66.1	3.8	1.49e+00	0	40	104	862978048	72	21763
2026-01-05 08:04:51.04	1.60	8.06	-50.6	-66.1	3.8	1.49e+00	0	40	104	862978048	72	21850
2026-01-05 08:04:52.05	1.48	8.00	-50.6	-66.1	3.8	1.49e+00	0	40	104	862978048	72	21795
2026-01-05 08:04:53.05	1.36	7.95	-50.7	-66.0	3.8	1.49e+00	0	40	104	862978048	72	21666
2026-01-05 08:04:54.06	1.24	7.89	-50.7	-66.1	3.8	1.49e+00	0	40	104	862978048	72	21876
2026-01-05 08:04:55.06	1.13	7.84	-50.9	-66.1	3.8	1.49e+00	0	40	104	862978048	72	21860
2026-01-05 08:04:56.06	1.01	7.78	-50.9	-66.0	3.8	1.49e+00	0	40	104	862978048	72	21754
2026-01-05 08:04:57.07	0.89	7.72	-50.9	-66.0	3.8	1.49e+00	0	40	104	862978048	72	21717
2026-01-05 08:04:58.08	0.77	7.67	-50.7	-66.0	3.8	1.49e+00	0	40	104	862978048	72	21712
2026-01-05 08:04:59.08	0.66	7.61	-50.8	-66.0	3.8	1.49e+00	0	40	104	862978048	72	21712
2026-01-05 08:05:00.08	0.54	7.56	-50.7	-66.0	3.8	1.49e+00	0	40	104	862978048	72	21715
2026-01-05 08:05:01.09	0.42	7.50	-50.8	-66.0	3.8	1.49e+00	0	40	104	862978048	72	21628
2026-01-05 08:05:02.09	0.31	7.44	-50.7	-66.0	3.8	1.49e+00	0	40	104	862978048	72	21726
2026-01-05 08:05:03.09	0.20	7.39	-50.6	-66.0	3.8	1.49e+00	0	40	104	862978048	72	21579
2026-01-05 08:05:04.10	0.08	7.33	-50.5	-66.0	3.8	1.49e+00	0	40	104	862978048	72	21598
2026-01-05 08:05:05.10	359.97	7.27	-50.5	-66.0	3.8	1.49e+00	0	40	104	862978048	72	21576
2026-01-05 08:05:06.11	359.85	7.22	-50.5	-66.0	3.8	1.49e+00	0	40	104	862978048	72	21578
2026-01-05 08:05:07.11	359.74	7.16	-50.5	-65.9	3.8	1.49e+00	0	40	104	862978048	72	21503
2026-01-05 08:05:08.12	359.63	7.11	-50.6	-66.0	3.8	1.49e+00	0	40	104	862978048	72	21533
2026-01-05 08:05:09.12	359.52	7.05	-50.6	-66.0	3.8	1.49e+00	0	40	104	862978048	72	21578
2026-01-05 08:05:10.12	359.40	6.99	-50.5	-66.0	3.8	1.49e+00	0	40	104	862978048	72	21557
2026-01-05 08:05:11.13	359.29	6.94	-50.5	-66.0	3.8	1.49e+00	0	40	104	862978048	72	21525
2026-01-05 08:05:12.13	359.18	6.88	-50.5	-66.0	3.8	1.49e+00	0	40	104	862978048	72	21544
2026-01-05 08:05:13.14	359.07	6.83	-50.5	-65.9	3.8	1.49e+00	0	40	104	862978048	72	21489
2026-01-05 08:05:14.14	358.96	6.77	-50.5	-66.0	3.8	1.49e+00	0	40	104	862978048	72	21585
2026-01-05 08:05:15.15	358.85	6.71	-50.5	-66.0	3.8	1.49e+00	0	40	104	862978048	72	21591
2026-01-05 08:05:16.15	358.74	6.66	-50.5	-66.0	3.8	1.49e+00	0	40	104	862978048	72	21581
2026-01-05 08:05:17.15	358.64	6.60	-50.5	-66.0	3.8	1.49e+00	0	40	104	862978048	72	21556
2026-01-05 08:05:18.16	358.53	6.55	-50.5	-66.0	3.8	1.49e+00	0	40	104	862978048	72	21521
2026-01-05 08:05:19.16	358.42	6.49	-50.5	-65.9	3.8	1.49e+00	0	40	104	862978048	72	21484
2026-01-05 08:05:20.16	358.31	6.44	-50.5	-66.0	3.8	1.49e+00	0	40	104	862978048	72	21549
2026-01-05 08:05:21.17	358.21	6.38	-50.5	-66.0	3.8	1.49e+00	0	40	104	862978048	72	21540
2026-01-05 08:05:22.17	358.10	6.32	-50.5	-66.0	3.8	1.49e+00	0	40	104	862978048	72	21568
2026-01-05 08:05:23.18	357.99	6.27	-50.5	-66.0	3.8	1.49e+00	0	40	104	862978048	72	21508
2026-01-05 08:05:24.18	357.89	6.21	-50.5	-65.9	3.8	1.49e+00	0	40	104	862978048	72	21480
2026-01-05 08:05:25.19	357.78	6.16	-50.5	-66.0	3.8	1.49e+00	0	40	104	862978048	72	21587
2026-01-05 08:05:26.19	357.68	6.10	-50.5	-65.9	3.8	1.49e+00	0	40	104	862978048	72	21455
2026-01-05 08:05:27.19	357.57	6.05	-50.5	-66.0	3.8	1.49e+00	0	40	104	862978048	72	21565
2026-01-05 08:05:28.20	357.47	5.99	-50.5	-66.0	3.8	1.49e+00	0	40	104	862978048	72	21558
2026-01-05 08:05:29.20	357.37	5.93	-50.5	-65.9	3.8	1.49e+00	0	40	104	862978048	72	21415
2026-01-05 08:05:30.21	357.26	5.88	-50.5	-65.9	3.8	1.49e+00	0	40	104	862978048	72	21480
2026-01-05 08:05:31.21	357.16	5.82	-50.5	-66.0	3.8	1.49e+00	0	40	104	862978048	72	21518
2026-01-05 08:05:32.21	357.06	5.77	-50.5	-65.9	3.8	1.49e+00	0	40	104	862978048	72	21413
2026-01-05 08:05:33.22	356.96	5.71	-50.5	-66.0	3.8	1.49e+00	0	40	104	862978048	72	21535
2026-01-05 08:05:34.22	356.86	5.66	-50.5	-65.9	3.8	1.49e+00	0	40	104	862978048	72	21419
2026-01-05 08:05:35.23	356.75	5.60	-50.5	-65.9	3.8	1.49e+00	0	40	104	862978048	72	21486
2026-01-05 08:05:36.23	356.65	5.55	-50.5	-65.9	3.8	1.49e+00	0	40	104	862978048	72	21495
2026-01-05 08:05:37.24	356.55	5.49	-50.5	-65.9	3.8	1.49e+00	0	40	104	862978048	72	21500
2026-01-05 08:05:38.24	356.45	5.44	-50.5	-65.9	3.8	1.49e+00	0	40	104	862978048	72	21505
2026-01-05 08:05:39.25	356.35	5.38	-50.5	-65.9	3.8	1.49e+00	0	40	104	862978048	72	21352
2026-01-05 08:05:40.25	356.26	5.33	-50.5	-66.0	3.8	1.49e+00	0	40	104	862978048	72	21530
2026-01-05 08:05:41.25	356.16	5.27	-50.5	-65.9	3.8	1.49e+00	0	41	104	862978048	72	21440
2026-01-05 08:05:42.26	356.06	5.21	-50.5	-66.0	3.8	1.49e+00	0	40	104	862978048	72	21548
2026-01-05 08:05:43.26	355.96	5.16	-50.5	-65.9	3.8	1.49e+00	0	40	104	862978048	72	21400
2026-01-05 08:05:44.27	355.86	5.10	-50.5	-65.9	3.8	1.49e+00	0	40	104	862978048	72	21494
2026-01-05 08:05:45.27	355.77	5.05	-50.5	-66.0	3.8	1.49e+00	0	40	104	862978048	72	21511
2026-01-05 08:05:46.28	355.67	4.99	-50.5	-66.0	3.8	1.49e+00	0	40	104	862978048	72	21514

#Closed at: 2026-01-05 08:05:47
#Recorded file [862 MB]: D:/Data/31040_260105_105553.dat