passes_logs/2026/01/05/T1/T1__20260105_084416_NOAA_21_JPSS-2_rec.log

#Pass ID: 20260105_084416_NOAA 21 (JPSS-2)
#Satellite: NOAA 21 (JPSS-2)
#Configuration: NOAA 21
#almurnet v.1.7.20251203
#Start time: 2026-01-05 08:44:15

#Version: 2.0.20230620
#Station: T1
#Location: 37.570604 lon 55.790049 lat
#TLE: 1 54234U 22150A   26004.22845673  .00000174  00000+0  10347-3 0  9996
#TLE: 2 54234  98.7489 305.2591 0001115 345.0884  15.0259 14.19531906163281

#Time	Az	El	Level	Level2	SNR	BER	BlckErr	Temp	State	Recorded	gain1	gain2
2026-01-05 08:44:15.87	122.92	4.99	-49.4	-63.0	3.8	1.49e+00	0	36	0	0	70	17225
2026-01-05 08:44:16.86	122.86	5.05	-49.9	-63.0	3.8	1.49e+00	0	36	104	0	70	17140
2026-01-05 08:44:17.87	122.79	5.12	-49.3	-63.0	3.8	1.49e+00	0	36	104	0	70	17128
2026-01-05 08:44:18.87	122.73	5.18	-49.3	-63.0	3.8	1.49e+00	0	36	104	0	70	17108
2026-01-05 08:44:19.88	122.67	5.25	-49.9	-62.9	3.8	1.49e+00	0	36	104	0	70	16980
2026-01-05 08:44:20.88	122.61	5.32	-49.3	-62.9	3.8	1.49e+00	0	36	104	0	70	17007
2026-01-05 08:44:21.89	122.55	5.38	-49.9	-62.9	3.8	1.49e+00	0	36	104	0	70	16953
2026-01-05 08:44:22.89	122.48	5.45	-49.3	-62.9	3.8	1.49e+00	0	36	104	0	70	16922
2026-01-05 08:44:23.89	122.42	5.52	-49.3	-62.8	3.8	1.49e+00	0	36	104	0	70	16863
2026-01-05 08:44:24.90	122.36	5.59	-49.9	-62.8	3.8	1.49e+00	0	36	104	0	70	16836
2026-01-05 08:44:25.90	122.30	5.65	-49.9	-62.8	3.8	1.49e+00	0	36	104	0	70	16863
2026-01-05 08:44:26.91	122.23	5.72	-49.9	-62.8	3.8	1.49e+00	0	36	104	0	70	16854
2026-01-05 08:44:27.91	122.17	5.79	-49.3	-62.9	3.8	1.49e+00	0	36	104	0	70	16900
2026-01-05 08:44:28.92	122.10	5.86	-49.9	-62.9	3.8	1.49e+00	0	36	104	0	70	16959
2026-01-05 08:44:29.92	122.04	5.92	-49.9	-62.9	3.8	1.49e+00	0	36	104	0	70	17063
2026-01-05 08:44:30.93	121.97	5.99	-49.3	-63.0	3.8	1.49e+00	0	37	104	0	70	17157
2026-01-05 08:44:31.93	121.91	6.06	-49.3	-63.0	3.8	1.49e+00	0	37	104	0	70	17262
2026-01-05 08:44:32.93	121.84	6.13	-49.9	-63.0	3.8	1.49e+00	0	37	104	0	70	17208
2026-01-05 08:44:33.94	121.78	6.20	-49.3	-63.0	3.8	1.49e+00	0	37	104	0	70	17173
2026-01-05 08:44:34.94	121.71	6.27	-49.9	-62.9	3.8	1.49e+00	0	37	104	0	70	17051
2026-01-05 08:44:35.95	121.64	6.33	-49.9	-62.9	3.8	1.49e+00	0	37	104	0	70	16906
2026-01-05 08:44:36.95	121.58	6.40	-49.3	-62.7	3.8	1.49e+00	0	37	104	0	70	16594
2026-01-05 08:44:37.96	121.51	6.47	-49.9	-62.6	3.8	1.49e+00	0	37	104	0	70	16352
2026-01-05 08:44:38.96	121.44	6.54	-49.9	-62.5	3.8	1.49e+00	0	37	104	0	70	16150
2026-01-05 08:44:39.97	121.37	6.61	-49.3	-62.3	3.8	1.49e+00	0	37	104	0	70	15868
2026-01-05 08:44:40.97	121.30	6.68	-49.2	-62.3	3.8	1.49e+00	0	37	104	0	70	15835
2026-01-05 08:44:41.97	121.24	6.75	-49.8	-62.3	3.8	1.49e+00	0	37	104	0	70	15774
2026-01-05 08:44:42.98	121.17	6.82	-49.3	-62.4	3.8	1.49e+00	0	37	104	0	70	15966
2026-01-05 08:44:43.98	121.10	6.89	-49.3	-62.5	3.8	1.49e+00	0	37	104	0	70	16155
2026-01-05 08:44:44.99	121.03	6.96	-49.9	-62.7	3.8	1.49e+00	0	37	104	0	70	16523
2026-01-05 08:44:45.99	120.96	7.03	-49.3	-62.8	3.8	1.49e+00	0	37	104	0	70	16877
2026-01-05 08:44:47.00	120.89	7.10	-49.9	-62.9	3.8	1.49e+00	0	37	104	0	70	16985
2026-01-05 08:44:48.00	120.82	7.17	-49.9	-62.8	3.8	1.49e+00	0	37	104	0	70	16780
2026-01-05 08:44:49.01	120.74	7.24	-49.3	-62.5	3.8	1.49e+00	0	37	104	0	70	16166
2026-01-05 08:44:50.01	120.67	7.31	-49.8	-62.1	3.8	1.49e+00	0	37	104	0	70	15466
2026-01-05 08:44:51.02	120.60	7.38	-49.8	-61.6	3.8	1.49e+00	0	37	104	0	70	14635
2026-01-05 08:44:52.02	120.53	7.46	-49.2	-60.8	3.9	1.49e+00	0	37	104	0	70	13308
2026-01-05 08:44:53.02	120.46	7.53	-49.1	-60.5	3.9	1.48e+00	0	37	104	0	70	12884
2026-01-05 08:44:54.03	120.38	7.60	-49.5	-59.7	3.9	1.47e+00	0	37	104	0	70	11735
2026-01-05 08:44:55.03	120.31	7.67	-48.7	-57.6	4.9	1.17e+00	0	37	104	0	69	9777
2026-01-05 08:44:56.04	120.24	7.74	-48.4	-55.6	6.2	3.70e-01	0	37	0	0	68	8243
2026-01-05 08:44:57.04	120.16	7.81	-48.0	-53.5	8.0	8.95e-02	0	37	0	0	67	6804
2026-01-05 08:44:58.05	120.09	7.89	-46.8	-51.5	10.0	1.07e-02	0	37	0	0	65	6126
2026-01-05 08:44:59.05	120.01	7.96	-46.3	-49.9	11.7	1.51e-03	0	37	0	0	64	5394
2026-01-05 08:45:00.06	119.94	8.03	-45.4	-48.4	13.3	4.88e-05	0	37	0	0	62	5068
2026-01-05 08:45:01.06	119.86	8.10	-44.4	-47.4	14.4	3.80e-06	0	37	0	0	60	5043
2026-01-05 08:45:02.06	119.79	8.18	-44.0	-46.5	15.2	0.00e+00	0	37	0	0	59	4815
2026-01-05 08:45:03.07	119.71	8.25	-43.5	-45.8	15.9	0.00e+00	0	38	0	0	58	4725
2026-01-05 08:45:04.07	119.63	8.32	-43.1	-45.5	16.1	0.00e+00	0	37	0	0	58	4592
2026-01-05 08:45:05.07	119.56	8.40	-43.1	-45.5	16.2	0.00e+00	0	37	0	0	58	4550
2026-01-05 08:45:06.08	119.48	8.47	-43.4	-45.7	16.0	0.00e+00	0	37	0	0	58	4654
2026-01-05 08:45:07.08	119.40	8.54	-43.7	-46.2	15.4	0.00e+00	0	38	0	0	58	4983
2026-01-05 08:45:08.09	119.32	8.62	-44.4	-47.0	14.7	0.00e+00	0	38	0	0	59	5129
2026-01-05 08:45:09.09	119.24	8.69	-45.2	-48.2	13.6	3.80e-06	0	37	0	0	60	5530
2026-01-05 08:45:10.09	119.16	8.76	-46.1	-49.5	12.2	8.01e-05	0	38	0	0	62	5757
2026-01-05 08:45:11.10	119.08	8.84	-46.6	-51.1	10.5	1.80e-03	0	38	0	0	64	6163
2026-01-05 08:45:12.10	119.01	8.91	-47.5	-53.1	8.4	2.56e-02	0	38	0	0	66	6905
2026-01-05 08:45:13.11	118.92	8.99	-48.1	-55.2	6.4	1.77e-01	0	38	0	0	67	8332
2026-01-05 08:45:14.11	118.84	9.06	-48.7	-57.4	5.0	5.82e-01	0	38	0	0	68	10125
2026-01-05 08:45:15.11	118.76	9.14	-49.0	-56.7	5.5	4.37e-01	0	38	0	0	69	8768
2026-01-05 08:45:16.46	118.65	9.24	-48.9	-57.6	4.8	1.47e+00	0	38	104	0	69	9788
2026-01-05 08:45:17.21	118.59	9.29	-49.5	-59.5	4.2	1.48e+00	0	38	104	0	69	12163
2026-01-05 08:45:18.50	118.49	9.39	-48.6	-55.0	7.0	4.35e-04	0	38	0	0	67	8088
2026-01-05 08:45:19.22	118.43	9.45	-49.4	-61.5	3.8	1.49e+00	0	38	104	0	70	14381
2026-01-05 08:45:20.51	118.32	9.54	-45.9	-49.3	12.4	4.74e-04	0	38	0	0	63	5313
2026-01-05 08:45:21.22	118.26	9.60	-44.8	-47.5	14.3	9.10e-06	0	38	0	0	61	4843
2026-01-05 08:45:22.51	118.15	9.69	-43.2	-45.4	16.3	0.00e+00	0	38	0	0	58	4541
2026-01-05 08:45:23.23	118.09	9.75	-42.9	-45.0	16.7	0.00e+00	0	38	0	0	57	4589
2026-01-05 08:45:24.53	117.98	9.85	-42.8	-44.9	16.8	0.00e+00	0	38	0	0	57	4526
2026-01-05 08:45:25.25	117.92	9.90	-42.8	-45.0	16.8	0.00e+00	0	38	0	0	57	4554
2026-01-05 08:45:26.54	117.81	10.00	-42.6	-44.7	17.0	0.00e+00	0	38	0	0	57	4406
2026-01-05 08:45:27.26	117.74	10.06	-42.5	-44.6	17.1	0.00e+00	0	38	0	0	57	4364
2026-01-05 08:45:28.55	117.63	10.16	-42.3	-44.4	17.3	0.00e+00	0	38	0	0	56	4512
2026-01-05 08:45:29.26	117.57	10.21	-42.3	-44.3	17.4	0.00e+00	0	38	0	0	56	4472
2026-01-05 08:45:30.56	117.46	10.31	-42.2	-44.2	17.5	0.00e+00	0	38	0	0	56	4431
2026-01-05 08:45:31.27	117.39	10.37	-42.2	-44.3	17.5	0.00e+00	0	38	0	0	56	4442
2026-01-05 08:45:32.56	117.28	10.47	-42.2	-44.2	17.5	0.00e+00	0	38	0	0	56	4401
2026-01-05 08:45:33.28	117.21	10.52	-42.3	-44.3	17.4	0.00e+00	0	38	0	0	56	4469
2026-01-05 08:45:34.57	117.10	10.62	-42.3	-44.3	17.3	0.00e+00	0	38	0	0	56	4485
2026-01-05 08:45:35.28	117.03	10.68	-42.2	-44.3	17.4	0.00e+00	0	38	0	0	56	4453
2026-01-05 08:45:36.58	116.92	10.78	-42.2	-44.2	17.5	0.00e+00	0	38	0	0	56	4437
2026-01-05 08:45:37.29	116.85	10.84	-42.2	-44.3	17.4	0.00e+00	0	38	0	0	56	4468
2026-01-05 08:45:38.58	116.73	10.94	-42.4	-44.4	17.3	0.00e+00	0	38	0	0	56	4519
2026-01-05 08:45:39.29	116.67	10.99	-42.2	-44.2	17.5	0.00e+00	0	38	0	0	56	4422
2026-01-05 08:45:40.58	116.55	11.10	-42.2	-44.2	17.5	0.00e+00	0	38	0	0	56	4411
2026-01-05 08:45:41.57	116.46	11.17	-42.2	-44.2	17.5	0.00e+00	0	38	0	0	56	4419
2026-01-05 08:45:42.58	116.36	11.25	-42.0	-44.0	17.7	0.00e+00	0	38	0	0	56	4304
2026-01-05 08:45:43.58	116.27	11.33	-42.0	-44.0	17.7	0.00e+00	0	38	0	0	56	4335
2026-01-05 08:45:44.58	116.17	11.41	-42.0	-44.0	17.8	0.00e+00	0	38	0	0	56	4299
2026-01-05 08:45:46.00	116.04	11.53	-41.9	-43.9	17.7	0.00e+00	0	38	0	0	55	4511
2026-01-05 08:45:46.71	115.97	11.58	-41.8	-43.8	17.7	0.00e+00	0	38	0	0	55	4471
2026-01-05 08:45:48.00	115.84	11.69	-41.8	-43.8	17.8	0.00e+00	0	38	0	0	55	4453
2026-01-05 08:45:48.71	115.77	11.74	-41.8	-43.7	17.8	0.00e+00	0	38	0	0	55	4414
2026-01-05 08:45:50.00	115.65	11.85	-41.8	-43.7	17.8	0.00e+00	0	38	0	0	55	4441
2026-01-05 08:45:50.72	115.58	11.91	-41.8	-43.7	17.8	0.00e+00	0	38	0	0	55	4441
2026-01-05 08:45:52.06	115.44	12.02	-41.8	-43.8	17.8	0.00e+00	0	38	0	0	55	4442
2026-01-05 08:45:52.77	115.37	12.07	-41.8	-43.7	17.8	0.00e+00	0	38	0	0	55	4438
2026-01-05 08:45:54.13	115.24	12.18	-41.8	-43.7	17.8	0.00e+00	0	38	0	0	55	4432
2026-01-05 08:45:54.84	115.17	12.24	-41.7	-43.6	17.9	0.00e+00	0	38	0	0	55	4383
2026-01-05 08:45:56.13	115.04	12.35	-41.7	-43.7	17.9	0.00e+00	0	38	0	0	55	4406
2026-01-05 08:45:56.85	114.96	12.41	-41.7	-43.7	17.9	0.00e+00	0	38	0	0	55	4402
2026-01-05 08:45:58.14	114.83	12.51	-41.7	-43.6	18.0	0.00e+00	0	38	0	0	55	4366
2026-01-05 08:45:58.85	114.76	12.57	-41.5	-43.5	18.1	0.00e+00	0	38	0	0	55	4292
2026-01-05 08:46:00.14	114.62	12.68	-41.4	-43.3	18.3	0.00e+00	0	38	0	0	54	4456
2026-01-05 08:46:00.86	114.55	12.74	-41.4	-43.3	18.3	0.00e+00	0	38	0	0	54	4491
2026-01-05 08:46:02.15	114.41	12.85	-41.5	-43.4	18.2	0.00e+00	0	38	0	0	54	4499
2026-01-05 08:46:02.96	114.33	12.91	-41.4	-43.3	18.3	0.00e+00	0	38	0	0	54	4463
2026-01-05 08:46:04.11	114.21	13.01	-41.5	-43.4	18.2	0.00e+00	0	38	0	0	54	4517
2026-01-05 08:46:05.20	114.09	13.10	-41.3	-43.2	18.3	0.00e+00	0	38	0	0	54	4422
2026-01-05 08:46:06.24	113.98	13.19	-41.4	-43.3	18.3	0.00e+00	0	38	0	0	54	4452
2026-01-05 08:46:07.45	113.85	13.29	-41.5	-43.3	18.2	0.00e+00	0	38	0	0	54	4491
2026-01-05 08:46:08.34	113.75	13.36	-41.5	-43.3	18.2	0.00e+00	0	38	0	0	54	4493
2026-01-05 08:46:09.48	113.63	13.46	-41.5	-43.4	18.2	0.00e+00	0	38	0	0	54	4520
2026-01-05 08:46:10.34	113.53	13.53	-41.5	-43.5	18.1	0.00e+00	0	38	0	0	54	4551
2026-01-05 08:46:11.71	113.38	13.65	-41.4	-43.3	18.3	0.00e+00	0	38	0	0	54	4479
2026-01-05 08:46:12.43	113.30	13.71	-41.5	-43.4	18.2	0.00e+00	0	38	0	0	54	4506
2026-01-05 08:46:13.71	113.16	13.82	-41.3	-43.2	18.4	0.00e+00	0	38	0	0	54	4424
2026-01-05 08:46:14.43	113.08	13.88	-41.3	-43.1	18.5	0.00e+00	0	38	0	0	54	4386
2026-01-05 08:46:15.72	112.93	13.99	-41.3	-43.2	18.4	0.00e+00	0	38	0	0	54	4425
2026-01-05 08:46:16.49	112.84	14.06	-41.3	-43.2	18.4	0.00e+00	0	38	0	0	54	4429
2026-01-05 08:46:17.77	112.69	14.17	-41.2	-43.0	18.6	0.00e+00	0	38	0	0	54	4339
2026-01-05 08:46:18.49	112.61	14.23	-41.1	-43.0	18.6	0.00e+00	0	38	0	0	54	4307
2026-01-05 08:46:19.78	112.46	14.34	-41.2	-43.0	18.6	0.00e+00	0	38	0	0	54	4313
2026-01-05 08:46:20.64	112.36	14.41	-41.2	-43.0	18.6	0.00e+00	0	38	0	0	54	4331
2026-01-05 08:46:22.10	112.19	14.54	-41.2	-43.0	18.6	0.00e+00	0	38	0	0	54	4338
2026-01-05 08:46:22.81	112.11	14.60	-41.1	-43.0	18.6	0.00e+00	0	38	0	0	54	4311
2026-01-05 08:46:24.10	111.95	14.72	-41.2	-43.1	18.6	0.00e+00	0	38	0	0	54	4354
2026-01-05 08:46:24.81	111.87	14.78	-41.2	-43.1	18.5	0.00e+00	0	38	0	0	54	4371
2026-01-05 08:46:26.10	111.71	14.89	-41.1	-42.9	18.7	0.00e+00	0	38	0	0	54	4288
2026-01-05 08:46:26.82	111.62	14.95	-41.1	-43.0	18.7	0.00e+00	0	38	0	0	54	4299
2026-01-05 08:46:28.11	111.47	15.07	-41.3	-43.2	18.5	0.00e+00	0	38	0	0	54	4402
2026-01-05 08:46:28.82	111.38	15.13	-41.2	-43.1	18.5	0.00e+00	0	38	0	0	54	4370
2026-01-05 08:46:30.12	111.22	15.24	-41.2	-43.1	18.6	0.00e+00	0	38	0	0	54	4347
2026-01-05 08:46:30.83	111.13	15.31	-41.2	-43.0	18.6	0.00e+00	0	38	0	0	54	4335
2026-01-05 08:46:32.12	110.97	15.42	-41.3	-43.2	18.4	0.00e+00	0	38	0	0	54	4419
2026-01-05 08:46:32.84	110.88	15.48	-41.2	-43.1	18.6	0.00e+00	0	38	0	0	54	4343
2026-01-05 08:46:34.13	110.72	15.60	-41.2	-43.1	18.6	0.00e+00	0	38	0	0	54	4344
2026-01-05 08:46:35.19	110.58	15.69	-41.3	-43.2	18.5	0.00e+00	0	38	0	0	54	4406
2026-01-05 08:46:36.05	110.47	15.77	-41.4	-43.2	18.4	0.00e+00	0	38	0	0	54	4426
2026-01-05 08:46:37.20	110.32	15.87	-41.2	-43.1	18.5	0.00e+00	0	38	0	0	54	4361
2026-01-05 08:46:38.06	110.21	15.95	-41.3	-43.2	18.5	0.00e+00	0	38	0	0	54	4392
2026-01-05 08:46:39.20	110.06	16.05	-41.3	-43.1	18.6	0.00e+00	0	38	0	0	54	4386
2026-01-05 08:46:40.06	109.95	16.13	-41.3	-43.2	18.5	0.00e+00	0	38	0	0	54	4401
2026-01-05 08:46:41.29	109.79	16.24	-41.5	-43.3	18.4	0.00e+00	0	38	0	0	54	4477
2026-01-05 08:46:42.15	109.67	16.32	-41.3	-43.2	18.5	0.00e+00	0	38	0	0	54	4415
2026-01-05 08:46:43.30	109.52	16.42	-41.4	-43.3	18.4	0.00e+00	0	38	0	0	54	4459
2026-01-05 08:46:44.16	109.40	16.50	-41.5	-43.3	18.4	0.00e+00	0	39	0	0	54	4486
2026-01-05 08:46:45.31	109.25	16.61	-41.5	-43.4	18.3	0.00e+00	0	38	0	0	54	4500
2026-01-05 08:46:46.22	109.12	16.69	-41.4	-43.3	18.4	0.00e+00	0	38	0	0	54	4452
2026-01-05 08:46:47.40	108.96	16.80	-41.5	-43.4	18.3	0.00e+00	0	38	0	0	54	4500
2026-01-05 08:46:48.26	108.84	16.88	-41.3	-43.2	18.5	0.00e+00	0	38	0	0	54	4402
2026-01-05 08:46:49.61	108.66	17.00	-41.3	-43.1	18.6	0.00e+00	0	38	0	0	54	4377
2026-01-05 08:46:50.32	108.56	17.07	-41.3	-43.2	18.6	0.00e+00	0	38	0	0	54	4405
2026-01-05 08:46:51.61	108.37	17.18	-41.2	-43.0	18.7	0.00e+00	0	39	0	0	54	4321
2026-01-05 08:46:52.33	108.27	17.25	-41.2	-43.0	18.7	0.00e+00	0	38	0	0	54	4329
2026-01-05 08:46:53.62	108.09	17.37	-41.2	-43.0	18.7	0.00e+00	0	38	0	0	54	4327
2026-01-05 08:46:54.33	107.99	17.44	-41.2	-43.1	18.7	0.00e+00	0	38	0	0	54	4345
2026-01-05 08:46:55.63	107.80	17.56	-41.2	-43.0	18.7	0.00e+00	0	38	0	0	54	4316
2026-01-05 08:46:56.47	107.68	17.63	-41.2	-43.1	18.6	0.00e+00	0	38	0	0	54	4368
2026-01-05 08:46:57.61	107.51	17.74	-41.3	-43.1	18.6	0.00e+00	0	38	0	0	54	4372
2026-01-05 08:46:58.47	107.38	17.82	-41.3	-43.2	18.5	0.00e+00	0	38	0	0	54	4394
2026-01-05 08:46:59.62	107.21	17.93	-41.3	-43.1	18.6	0.00e+00	0	38	0	0	54	4379
2026-01-05 08:47:00.75	107.05	18.03	-41.2	-43.1	18.6	0.00e+00	0	38	0	0	54	4348
2026-01-05 08:47:01.61	106.92	18.11	-41.3	-43.1	18.5	0.00e+00	0	38	0	0	54	4372
2026-01-05 08:47:03.11	106.69	18.26	-41.1	-43.0	18.7	0.00e+00	0	38	0	0	54	4293
2026-01-05 08:47:03.82	106.58	18.32	-41.1	-42.9	18.7	0.00e+00	0	38	0	0	54	4289
2026-01-05 08:47:05.11	106.38	18.44	-41.0	-42.8	18.8	0.00e+00	0	38	0	0	54	4233
2026-01-05 08:47:05.83	106.27	18.51	-41.1	-42.9	18.8	0.00e+00	0	38	0	0	54	4269
2026-01-05 08:47:07.12	106.07	18.63	-41.1	-42.9	18.8	0.00e+00	0	38	0	0	54	4267
2026-01-05 08:47:07.83	105.96	18.70	-41.1	-42.9	18.7	0.00e+00	0	38	0	0	54	4290
2026-01-05 08:47:09.11	105.76	18.82	-41.0	-42.8	18.9	0.00e+00	0	38	0	0	54	4221
2026-01-05 08:47:09.84	105.65	18.89	-41.0	-42.8	18.9	0.00e+00	0	39	0	0	53	4450
2026-01-05 08:47:11.13	105.44	19.01	-41.0	-42.8	18.9	0.00e+00	0	38	0	0	53	4446
2026-01-05 08:47:11.85	105.33	19.08	-41.0	-42.8	18.8	0.00e+00	0	38	0	0	53	4486
2026-01-05 08:47:13.14	105.12	19.21	-40.9	-42.7	18.9	0.00e+00	0	38	0	0	53	4416
2026-01-05 08:47:13.85	105.00	19.27	-41.0	-42.8	18.8	0.00e+00	0	38	0	0	53	4468
2026-01-05 08:47:15.14	104.79	19.40	-40.8	-42.6	19.0	0.00e+00	0	38	0	0	53	4357
2026-01-05 08:47:16.21	104.62	19.50	-40.7	-42.5	19.1	0.00e+00	0	38	0	0	53	4333
2026-01-05 08:47:17.07	104.47	19.58	-40.8	-42.6	19.1	0.00e+00	0	39	0	0	53	4341
2026-01-05 08:47:18.22	104.28	19.69	-40.8	-42.5	19.1	0.00e+00	0	38	0	0	53	4331
2026-01-05 08:47:19.08	104.14	19.77	-40.8	-42.5	19.1	0.00e+00	0	39	0	0	53	4334
2026-01-05 08:47:20.22	103.95	19.88	-40.8	-42.5	19.1	0.00e+00	0	38	0	0	53	4332
2026-01-05 08:47:21.08	103.80	19.97	-40.7	-42.5	19.1	0.00e+00	0	38	0	0	53	4304
2026-01-05 08:47:22.33	103.59	20.09	-40.7	-42.4	19.2	0.00e+00	0	38	0	0	53	4278
2026-01-05 08:47:23.18	103.44	20.17	-40.6	-42.4	19.2	0.00e+00	0	38	0	0	53	4262
2026-01-05 08:47:24.41	103.23	20.29	-40.7	-42.4	19.2	0.00e+00	0	38	0	0	53	4281
2026-01-05 08:47:25.26	103.08	20.37	-40.7	-42.4	19.2	0.00e+00	0	38	0	0	53	4288
2026-01-05 08:47:26.41	102.88	20.48	-40.4	-42.2	19.4	0.00e+00	0	39	0	0	52	4404
2026-01-05 08:47:27.27	102.73	20.56	-40.4	-42.1	19.5	0.00e+00	0	38	0	0	52	4374
2026-01-05 08:47:28.58	102.50	20.69	-40.4	-42.1	19.4	0.00e+00	0	38	0	0	52	4383
2026-01-05 08:47:29.29	102.37	20.76	-40.5	-42.2	19.3	0.00e+00	0	38	0	0	52	4434
2026-01-05 08:47:30.58	102.14	20.89	-40.6	-42.4	19.2	0.00e+00	0	38	0	0	52	4518
2026-01-05 08:47:31.30	102.01	20.96	-40.6	-42.4	19.3	0.00e+00	0	38	0	0	52	4499
2026-01-05 08:47:32.58	101.77	21.08	-40.6	-42.3	19.3	0.00e+00	0	38	0	0	52	4487
2026-01-05 08:47:33.30	101.64	21.15	-40.5	-42.3	19.4	0.00e+00	0	38	0	0	52	4462
2026-01-05 08:47:34.59	101.40	21.28	-40.5	-42.2	19.4	0.00e+00	0	39	0	0	52	4417
2026-01-05 08:47:35.30	101.27	21.35	-40.5	-42.2	19.4	0.00e+00	0	38	0	0	52	4422
2026-01-05 08:47:36.60	101.03	21.47	-40.4	-42.1	19.5	0.00e+00	0	38	0	0	52	4388
2026-01-05 08:47:37.31	100.89	21.54	-40.4	-42.1	19.6	0.00e+00	0	38	0	0	52	4360
2026-01-05 08:47:38.60	100.65	21.67	-40.4	-42.1	19.5	0.00e+00	0	39	0	0	52	4382
2026-01-05 08:47:39.31	100.52	21.74	-40.5	-42.2	19.4	0.00e+00	0	38	0	0	52	4428
2026-01-05 08:47:40.68	100.25	21.87	-40.4	-42.2	19.5	0.00e+00	0	38	0	0	52	4400
2026-01-05 08:47:41.69	100.06	21.97	-40.5	-42.3	19.4	0.00e+00	0	38	0	0	52	4447
2026-01-05 08:47:42.69	99.86	22.07	-40.6	-42.3	19.3	0.00e+00	0	39	0	0	52	4471
2026-01-05 08:47:43.69	99.67	22.16	-40.6	-42.4	19.2	0.00e+00	0	38	0	0	52	4523
2026-01-05 08:47:44.69	99.47	22.26	-40.6	-42.4	19.2	0.00e+00	0	38	0	0	52	4534
2026-01-05 08:47:45.69	99.27	22.36	-40.5	-42.3	19.4	0.00e+00	0	38	0	0	52	4444
2026-01-05 08:47:46.70	99.07	22.46	-40.4	-42.2	19.5	0.00e+00	0	38	0	0	52	4410
2026-01-05 08:47:47.70	98.87	22.56	-40.3	-42.1	19.5	0.00e+00	0	38	0	0	52	4353
2026-01-05 08:47:48.78	98.65	22.66	-40.3	-42.0	19.6	0.00e+00	0	39	0	0	52	4320
2026-01-05 08:47:49.65	98.48	22.75	-40.3	-42.0	19.6	0.00e+00	0	39	0	0	52	4315
2026-01-05 08:47:50.80	98.24	22.86	-40.4	-42.1	19.4	0.00e+00	0	39	0	0	52	4385
2026-01-05 08:47:51.73	98.05	22.95	-40.5	-42.3	19.3	0.00e+00	0	38	0	0	52	4443
2026-01-05 08:47:52.73	97.84	23.05	-40.5	-42.3	19.4	0.00e+00	0	39	0	0	52	4453
2026-01-05 08:47:53.97	97.58	23.17	-40.5	-42.2	19.5	0.00e+00	0	38	0	0	52	4434
2026-01-05 08:47:54.85	97.40	23.26	-40.4	-42.1	19.5	0.00e+00	0	39	0	0	52	4391
2026-01-05 08:47:56.00	97.16	23.37	-40.2	-41.9	19.8	0.00e+00	0	38	0	0	52	4266
2026-01-05 08:47:56.86	96.97	23.45	-40.1	-41.8	19.9	0.00e+00	0	38	0	0	52	4221
2026-01-05 08:47:58.01	96.73	23.56	-40.1	-41.8	19.9	0.00e+00	0	38	0	0	52	4219
2026-01-05 08:47:58.87	96.54	23.65	-40.0	-41.7	19.9	0.00e+00	0	38	0	0	52	4152
2026-01-05 08:48:00.01	96.29	23.76	-40.0	-41.7	19.9	0.00e+00	0	38	0	0	51	4432
2026-01-05 08:48:00.87	96.11	23.84	-40.3	-42.0	19.7	0.00e+00	0	38	0	0	51	4552
2026-01-05 08:48:02.02	95.85	23.95	-40.2	-41.9	19.8	0.00e+00	0	39	0	0	51	4503
2026-01-05 08:48:02.88	95.66	24.04	-40.3	-42.0	19.7	0.00e+00	0	39	0	0	51	4561
2026-01-05 08:48:04.02	95.41	24.15	-40.3	-42.0	19.7	0.00e+00	0	38	0	0	51	4565
2026-01-05 08:48:04.88	95.22	24.23	-40.2	-41.9	19.8	0.00e+00	0	38	0	0	51	4517
2026-01-05 08:48:06.07	94.95	24.35	-40.3	-42.0	19.7	0.00e+00	0	38	0	0	51	4581
2026-01-05 08:48:07.33	94.66	24.47	-40.3	-42.0	19.7	0.00e+00	0	38	0	0	51	4586
2026-01-05 08:48:08.06	94.50	24.54	-40.4	-42.1	19.5	0.00e+00	0	39	0	0	51	4648
2026-01-05 08:48:09.35	94.20	24.66	-40.5	-42.2	19.4	0.00e+00	0	38	0	0	51	4697
2026-01-05 08:48:10.07	94.04	24.73	-40.5	-42.3	19.4	0.00e+00	0	38	0	0	51	4723
2026-01-05 08:48:11.36	93.74	24.85	-40.7	-42.5	19.2	0.00e+00	0	38	0	0	52	4549
2026-01-05 08:48:12.07	93.57	24.92	-40.8	-42.5	19.1	0.00e+00	0	38	0	0	52	4592
2026-01-05 08:48:13.48	93.24	25.06	-40.8	-42.6	19.2	0.00e+00	0	39	0	0	52	4614
2026-01-05 08:48:14.19	93.07	25.12	-40.8	-42.6	19.2	0.00e+00	0	38	0	0	52	4624
2026-01-05 08:48:15.55	92.75	25.25	-40.8	-42.6	19.2	0.00e+00	0	39	0	0	52	4607
2026-01-05 08:48:16.26	92.58	25.32	-40.7	-42.5	19.3	0.00e+00	0	39	0	0	52	4568
2026-01-05 08:48:17.55	92.26	25.44	-40.7	-42.5	19.3	0.00e+00	0	39	0	0	52	4551
2026-01-05 08:48:18.27	92.09	25.51	-40.6	-42.4	19.3	0.00e+00	0	39	0	0	52	4516
2026-01-05 08:48:19.68	91.75	25.64	-40.7	-42.5	19.3	0.00e+00	0	39	0	0	52	4571
2026-01-05 08:48:20.40	91.57	25.71	-40.7	-42.5	19.2	0.00e+00	0	38	0	0	52	4568
2026-01-05 08:48:21.75	91.23	25.84	-40.8	-42.6	19.2	0.00e+00	0	39	0	0	52	4607
2026-01-05 08:48:22.47	91.05	25.91	-40.6	-42.4	19.4	0.00e+00	0	38	0	0	52	4518
2026-01-05 08:48:23.75	90.73	26.02	-40.4	-42.1	19.6	0.00e+00	0	38	0	0	52	4389
2026-01-05 08:48:24.47	90.55	26.09	-40.4	-42.2	19.5	0.00e+00	0	39	0	0	52	4414
2026-01-05 08:48:25.76	90.23	26.21	-40.6	-42.4	19.3	0.00e+00	0	39	0	0	52	4517
2026-01-05 08:48:26.48	90.04	26.28	-40.7	-42.6	19.2	0.00e+00	0	39	0	0	52	4599
2026-01-05 08:48:27.77	89.71	26.40	-40.9	-42.7	19.0	0.00e+00	0	39	0	0	52	4697
2026-01-05 08:48:28.49	89.53	26.46	-41.0	-42.8	18.9	0.00e+00	0	38	0	0	52	4723
2026-01-05 08:48:29.78	89.19	26.58	-40.9	-42.8	19.0	0.00e+00	0	39	0	0	52	4709
2026-01-05 08:48:30.49	89.01	26.64	-40.9	-42.7	19.0	0.00e+00	0	38	0	0	52	4667
2026-01-05 08:48:31.78	88.67	26.76	-40.7	-42.5	19.2	0.00e+00	0	39	0	0	52	4595
2026-01-05 08:48:32.50	88.48	26.83	-40.8	-42.5	19.2	0.00e+00	0	38	0	0	52	4596
2026-01-05 08:48:33.79	88.14	26.94	-40.9	-42.7	19.1	0.00e+00	0	38	0	0	52	4662
2026-01-05 08:48:34.51	87.94	27.01	-40.9	-42.7	19.1	0.00e+00	0	38	0	0	52	4667
2026-01-05 08:48:35.79	87.60	27.12	-41.0	-42.8	19.0	0.00e+00	0	39	0	0	52	4733
2026-01-05 08:48:36.51	87.41	27.18	-41.0	-42.8	19.0	0.00e+00	0	39	0	0	52	4728
2026-01-05 08:48:37.80	87.06	27.30	-40.9	-42.7	19.0	0.00e+00	0	39	0	0	52	4703
2026-01-05 08:48:38.52	86.86	27.36	-41.0	-42.8	19.0	0.00e+00	0	39	0	0	52	4726
2026-01-05 08:48:39.81	86.51	27.47	-41.0	-42.8	18.9	0.00e+00	0	39	0	0	52	4757
2026-01-05 08:48:40.53	86.31	27.54	-40.9	-42.7	19.0	0.00e+00	0	39	0	0	52	4699
2026-01-05 08:48:41.81	85.95	27.65	-40.8	-42.6	19.2	0.00e+00	0	39	0	0	52	4601
2026-01-05 08:48:42.53	85.75	27.71	-40.7	-42.5	19.2	0.00e+00	0	39	0	0	52	4586
2026-01-05 08:48:43.81	85.39	27.82	-40.7	-42.5	19.2	0.00e+00	0	38	0	0	52	4580
2026-01-05 08:48:44.53	85.19	27.88	-40.8	-42.6	19.1	0.00e+00	0	38	0	0	52	4627
2026-01-05 08:48:45.81	84.83	27.99	-41.0	-42.8	19.0	0.00e+00	0	39	0	0	52	4728
2026-01-05 08:48:46.56	84.61	28.05	-40.9	-42.8	19.0	0.00e+00	0	39	0	0	52	4710
2026-01-05 08:48:47.85	84.24	28.16	-40.8	-42.7	19.1	0.00e+00	0	38	0	0	52	4669
2026-01-05 08:48:48.57	84.04	28.22	-40.8	-42.6	19.2	0.00e+00	0	39	0	0	52	4640
2026-01-05 08:48:49.86	83.66	28.32	-40.8	-42.6	19.1	0.00e+00	0	38	0	0	52	4642
2026-01-05 08:48:50.58	83.45	28.38	-40.9	-42.7	19.0	0.00e+00	0	38	0	0	52	4682
2026-01-05 08:48:51.86	83.08	28.49	-41.0	-42.9	18.9	0.00e+00	0	39	0	0	52	4778
2026-01-05 08:48:52.58	82.87	28.54	-41.2	-43.0	18.8	0.00e+00	0	39	0	0	52	4857
2026-01-05 08:48:53.87	82.49	28.65	-41.2	-43.1	18.8	0.00e+00	0	38	0	0	53	4614
2026-01-05 08:48:54.59	82.27	28.70	-41.0	-42.8	19.0	0.00e+00	0	39	0	0	53	4486
2026-01-05 08:48:55.88	81.89	28.81	-40.7	-42.5	19.3	0.00e+00	0	39	0	0	53	4327
2026-01-05 08:48:56.59	81.67	28.86	-40.7	-42.5	19.3	0.00e+00	0	39	0	0	53	4330
2026-01-05 08:48:58.09	81.22	28.98	-40.9	-42.7	19.0	0.00e+00	0	39	0	0	53	4403
2026-01-05 08:48:58.81	81.00	29.03	-40.9	-42.8	19.0	0.00e+00	0	39	0	0	53	4444
2026-01-05 08:49:00.16	80.59	29.13	-41.0	-42.8	19.0	0.00e+00	0	38	0	0	53	4464
2026-01-05 08:49:00.87	80.38	29.19	-40.9	-42.7	19.1	0.00e+00	0	38	0	0	53	4398
2026-01-05 08:49:02.16	79.98	29.28	-40.8	-42.6	19.2	0.00e+00	0	38	0	0	53	4352
2026-01-05 08:49:02.87	79.76	29.34	-40.8	-42.6	19.2	0.00e+00	0	39	0	0	53	4343
2026-01-05 08:49:04.26	79.33	29.44	-40.8	-42.6	19.2	0.00e+00	0	38	0	0	53	4346
2026-01-05 08:49:04.97	79.11	29.49	-41.0	-42.8	19.0	0.00e+00	0	39	0	0	53	4462
2026-01-05 08:49:06.29	78.69	29.58	-41.2	-43.0	18.8	0.00e+00	0	39	0	0	53	4561
2026-01-05 08:49:07.00	78.47	29.63	-41.2	-43.1	18.7	0.00e+00	0	39	0	0	53	4623
2026-01-05 08:49:08.30	78.06	29.72	-41.3	-43.2	18.7	0.00e+00	0	39	0	0	53	4652
2026-01-05 08:49:09.01	77.84	29.77	-41.3	-43.1	18.7	0.00e+00	0	39	0	0	53	4634
2026-01-05 08:49:10.30	77.42	29.86	-41.3	-43.1	18.8	0.00e+00	0	39	0	0	53	4617
2026-01-05 08:49:11.01	77.20	29.91	-41.3	-43.1	18.8	0.00e+00	0	39	0	0	53	4607
2026-01-05 08:49:12.30	76.78	29.99	-41.2	-43.1	18.8	0.00e+00	0	39	0	0	53	4606
2026-01-05 08:49:13.02	76.55	30.04	-41.3	-43.1	18.8	0.00e+00	0	39	0	0	53	4607
2026-01-05 08:49:14.31	76.13	30.12	-41.3	-43.1	18.8	0.00e+00	0	39	0	0	53	4639
2026-01-05 08:49:15.03	75.90	30.17	-41.4	-43.2	18.7	0.00e+00	0	39	0	0	53	4697
2026-01-05 08:49:16.32	75.48	30.25	-41.2	-43.1	18.9	0.00e+00	0	38	0	0	53	4603
2026-01-05 08:49:17.03	75.24	30.29	-41.1	-42.9	19.0	0.00e+00	0	39	0	0	53	4522
2026-01-05 08:49:18.32	74.82	30.37	-41.2	-43.0	18.9	0.00e+00	0	39	0	0	53	4553
2026-01-05 08:49:19.04	74.58	30.41	-41.2	-43.0	18.8	0.00e+00	0	39	0	0	53	4584
2026-01-05 08:49:20.33	74.15	30.49	-41.3	-43.1	18.8	0.00e+00	0	39	0	0	53	4614
2026-01-05 08:49:21.04	73.92	30.53	-41.4	-43.2	18.6	0.00e+00	0	38	0	0	53	4694
2026-01-05 08:49:22.33	73.49	30.60	-41.4	-43.2	18.7	0.00e+00	0	39	0	0	53	4676
2026-01-05 08:49:23.05	73.25	30.64	-41.4	-43.2	18.7	0.00e+00	0	38	0	0	53	4690
2026-01-05 08:49:24.35	72.81	30.72	-41.3	-43.1	18.7	0.00e+00	0	39	0	0	53	4649
2026-01-05 08:49:25.06	72.57	30.75	-41.3	-43.1	18.8	0.00e+00	0	39	0	0	53	4622
2026-01-05 08:49:26.35	72.13	30.82	-41.3	-43.2	18.7	0.00e+00	0	38	0	0	53	4664
2026-01-05 08:49:27.08	71.89	30.86	-41.4	-43.3	18.6	0.00e+00	0	38	0	0	53	4707
2026-01-05 08:49:28.37	71.45	30.93	-41.5	-43.4	18.5	0.00e+00	0	38	0	0	53	4766
2026-01-05 08:49:29.09	71.20	30.96	-41.7	-43.6	18.4	0.00e+00	0	38	0	0	54	4606
2026-01-05 08:49:30.38	70.76	31.02	-41.9	-43.8	18.2	0.00e+00	0	39	0	0	54	4734
2026-01-05 08:49:31.09	70.51	31.06	-41.9	-43.8	18.1	0.00e+00	0	38	0	0	54	4721
2026-01-05 08:49:32.38	70.07	31.12	-42.0	-43.9	18.0	0.00e+00	0	39	0	0	54	4775
2026-01-05 08:49:33.11	69.82	31.15	-42.1	-44.0	18.0	0.00e+00	0	38	0	0	54	4834
2026-01-05 08:49:34.40	69.37	31.21	-42.1	-44.0	18.0	0.00e+00	0	39	0	0	54	4841
2026-01-05 08:49:35.12	69.12	31.24	-42.0	-43.9	18.1	0.00e+00	0	39	0	0	54	4784
2026-01-05 08:49:36.46	68.65	31.30	-41.6	-43.5	18.5	0.00e+00	0	38	0	0	54	4549
2026-01-05 08:49:37.17	68.40	31.32	-41.6	-43.5	18.4	0.00e+00	0	38	0	0	54	4559
2026-01-05 08:49:38.47	67.95	31.38	-41.7	-43.6	18.4	0.00e+00	0	38	0	0	54	4623
2026-01-05 08:49:39.18	67.70	31.40	-41.6	-43.5	18.5	0.00e+00	0	39	0	0	54	4572
2026-01-05 08:49:40.58	67.21	31.46	-41.6	-43.4	18.5	0.00e+00	0	38	0	0	54	4524
2026-01-05 08:49:41.30	66.95	31.48	-41.5	-43.4	18.6	0.00e+00	0	38	0	0	54	4507
2026-01-05 08:49:42.70	66.46	31.53	-41.5	-43.3	18.6	0.00e+00	0	39	0	0	54	4469
2026-01-05 08:49:43.42	66.20	31.55	-41.5	-43.3	18.6	0.00e+00	0	38	0	0	54	4465
2026-01-05 08:49:44.77	65.72	31.60	-41.4	-43.2	18.7	0.00e+00	0	39	0	0	54	4429
2026-01-05 08:49:45.48	65.47	31.62	-41.4	-43.2	18.7	0.00e+00	0	39	0	0	54	4400
2026-01-05 08:49:46.77	65.01	31.66	-41.2	-43.0	18.9	0.00e+00	0	39	0	0	54	4326
2026-01-05 08:49:47.49	64.75	31.68	-41.3	-43.1	18.9	0.00e+00	0	38	0	0	54	4347
2026-01-05 08:49:48.77	64.29	31.71	-41.6	-43.5	18.5	0.00e+00	0	39	0	0	54	4550
2026-01-05 08:49:49.49	64.04	31.73	-41.7	-43.6	18.5	0.00e+00	0	39	0	0	54	4618
2026-01-05 08:49:50.78	63.57	31.76	-41.8	-43.6	18.4	0.00e+00	0	39	0	0	54	4643
2026-01-05 08:49:51.49	63.32	31.78	-41.8	-43.7	18.4	0.00e+00	0	39	0	0	54	4655
2026-01-05 08:49:52.78	62.85	31.81	-41.7	-43.6	18.4	0.00e+00	0	39	0	0	54	4605
2026-01-05 08:49:53.50	62.59	31.83	-41.8	-43.7	18.3	0.00e+00	0	39	0	0	54	4658
2026-01-05 08:49:54.78	62.13	31.85	-41.7	-43.6	18.4	0.00e+00	0	39	0	0	54	4604
2026-01-05 08:49:55.61	61.83	31.87	-41.8	-43.7	18.3	0.00e+00	0	39	0	0	54	4654
2026-01-05 08:49:56.76	61.42	31.89	-41.8	-43.7	18.2	0.00e+00	0	39	0	0	54	4685
2026-01-05 08:49:57.62	61.11	31.90	-41.9	-43.8	18.2	0.00e+00	0	38	0	0	54	4720
2026-01-05 08:49:58.76	60.69	31.92	-41.9	-43.8	18.2	0.00e+00	0	39	0	0	54	4717
2026-01-05 08:49:59.62	60.38	31.93	-41.9	-43.9	18.1	0.00e+00	0	38	0	0	54	4768
2026-01-05 08:50:00.77	59.96	31.94	-41.9	-43.8	18.1	0.00e+00	0	39	0	0	54	4746
2026-01-05 08:50:01.63	59.65	31.95	-41.9	-43.8	18.2	0.00e+00	0	38	0	0	54	4735
2026-01-05 08:50:02.78	59.23	31.96	-41.8	-43.7	18.3	0.00e+00	0	39	0	0	54	4692
2026-01-05 08:50:03.63	58.92	31.97	-41.7	-43.6	18.4	0.00e+00	0	38	0	0	54	4635
2026-01-05 08:50:04.78	58.50	31.98	-41.8	-43.7	18.4	0.00e+00	0	38	0	0	54	4666
2026-01-05 08:50:05.64	58.19	31.98	-41.8	-43.6	18.3	0.00e+00	0	39	0	0	54	4650
2026-01-05 08:50:06.94	57.72	31.99	-41.8	-43.7	18.3	0.00e+00	0	39	0	0	54	4658
2026-01-05 08:50:07.66	57.46	31.99	-41.8	-43.7	18.3	0.00e+00	0	38	0	0	54	4660
2026-01-05 08:50:09.16	56.91	31.99	-41.7	-43.6	18.4	0.00e+00	0	38	0	0	54	4604
2026-01-05 08:50:09.87	56.65	31.99	-41.7	-43.6	18.3	0.00e+00	0	39	0	0	54	4636
2026-01-05 08:50:11.26	56.14	31.99	-41.7	-43.5	18.3	0.00e+00	0	39	0	0	54	4588
2026-01-05 08:50:11.97	55.89	31.99	-41.7	-43.6	18.2	0.00e+00	0	39	0	0	54	4638
2026-01-05 08:50:13.26	55.42	31.98	-41.7	-43.6	18.3	0.00e+00	0	39	0	0	54	4631
2026-01-05 08:50:13.98	55.15	31.98	-41.7	-43.6	18.4	0.00e+00	0	38	0	0	54	4604
2026-01-05 08:50:15.27	54.69	31.97	-41.5	-43.4	18.5	0.00e+00	0	39	0	0	54	4509
2026-01-05 08:50:15.98	54.43	31.96	-41.6	-43.5	18.4	0.00e+00	0	38	0	0	54	4577
2026-01-05 08:50:17.27	53.96	31.95	-41.6	-43.4	18.6	0.00e+00	0	39	0	0	54	4531
2026-01-05 08:50:17.99	53.70	31.94	-41.3	-43.1	18.8	0.00e+00	0	39	0	0	54	4371
2026-01-05 08:50:19.28	53.23	31.93	-41.3	-43.1	18.8	0.00e+00	0	39	0	0	54	4348
2026-01-05 08:50:19.99	52.97	31.92	-41.3	-43.1	18.8	0.00e+00	0	39	0	0	54	4356
2026-01-05 08:50:21.28	52.50	31.90	-41.5	-43.3	18.6	0.00e+00	0	39	0	0	54	4459
2026-01-05 08:50:22.00	52.24	31.89	-41.6	-43.4	18.5	0.00e+00	0	38	0	0	54	4529
2026-01-05 08:50:23.29	51.78	31.86	-41.6	-43.5	18.4	0.00e+00	0	38	0	0	54	4565
2026-01-05 08:50:24.25	51.43	31.85	-41.5	-43.3	18.6	0.00e+00	0	39	0	0	54	4477
2026-01-05 08:50:25.25	51.07	31.83	-41.4	-43.2	18.7	0.00e+00	0	39	0	0	54	4433
2026-01-05 08:50:26.25	50.71	31.81	-41.4	-43.3	18.6	0.00e+00	0	38	0	0	54	4451
2026-01-05 08:50:27.26	50.35	31.78	-41.3	-43.1	18.8	0.00e+00	0	39	0	0	54	4358
2026-01-05 08:50:28.26	49.99	31.76	-41.4	-43.2	18.8	0.00e+00	0	38	0	0	54	4406
2026-01-05 08:50:29.26	49.63	31.73	-41.5	-43.3	18.6	0.00e+00	0	38	0	0	54	4468
2026-01-05 08:50:30.28	49.26	31.71	-41.6	-43.5	18.5	0.00e+00	0	39	0	0	54	4564
2026-01-05 08:50:31.28	48.91	31.68	-41.7	-43.6	18.5	0.00e+00	0	38	0	0	54	4603
2026-01-05 08:50:32.36	48.52	31.65	-41.5	-43.4	18.6	0.00e+00	0	39	0	0	54	4511
2026-01-05 08:50:33.21	48.22	31.62	-41.5	-43.3	18.6	0.00e+00	0	38	0	0	54	4477
2026-01-05 08:50:34.36	47.81	31.59	-41.3	-43.1	18.8	0.00e+00	0	39	0	0	54	4383
2026-01-05 08:50:35.22	47.50	31.56	-41.4	-43.2	18.7	0.00e+00	0	39	0	0	54	4422
2026-01-05 08:50:36.37	47.10	31.52	-41.4	-43.2	18.8	0.00e+00	0	38	0	0	54	4413
2026-01-05 08:50:37.23	46.79	31.49	-41.4	-43.3	18.7	0.00e+00	0	38	0	0	54	4445
2026-01-05 08:50:38.37	46.39	31.45	-41.4	-43.2	18.8	0.00e+00	0	38	0	0	54	4403
2026-01-05 08:50:39.23	46.09	31.42	-41.4	-43.3	18.7	0.00e+00	0	38	0	0	54	4444
2026-01-05 08:50:40.37	45.69	31.38	-41.5	-43.3	18.6	0.00e+00	0	39	0	0	54	4476
2026-01-05 08:50:41.23	45.39	31.34	-41.7	-43.6	18.4	0.00e+00	0	39	0	0	54	4608
2026-01-05 08:50:42.38	44.99	31.30	-41.8	-43.8	18.2	0.00e+00	0	39	0	0	54	4708
2026-01-05 08:50:43.24	44.69	31.26	-41.9	-43.8	18.2	0.00e+00	0	39	0	0	54	4752
2026-01-05 08:50:44.42	44.28	31.21	-41.9	-43.8	18.2	0.00e+00	0	39	0	0	54	4721
2026-01-05 08:50:45.27	43.98	31.17	-41.8	-43.7	18.3	0.00e+00	0	38	0	0	54	4658
2026-01-05 08:50:46.42	43.59	31.12	-41.6	-43.4	18.5	0.00e+00	0	38	0	0	54	4531
2026-01-05 08:50:47.28	43.29	31.08	-41.2	-43.0	18.9	0.00e+00	0	39	0	0	54	4315
2026-01-05 08:50:48.43	42.90	31.03	-41.2	-42.9	19.0	0.00e+00	0	39	0	0	54	4291
2026-01-05 08:50:49.29	42.60	30.98	-41.2	-43.0	19.0	0.00e+00	0	39	0	0	54	4308
2026-01-05 08:50:50.63	42.14	30.92	-41.5	-43.3	18.7	0.00e+00	0	38	0	0	54	4479
2026-01-05 08:50:51.34	41.90	30.88	-41.7	-43.6	18.4	0.00e+00	0	38	0	0	54	4641
2026-01-05 08:50:52.63	41.47	30.82	-41.7	-43.6	18.4	0.00e+00	0	38	0	0	54	4628
2026-01-05 08:50:53.34	41.23	30.78	-41.8	-43.8	18.3	0.00e+00	0	39	0	0	54	4710
2026-01-05 08:50:54.63	40.79	30.71	-41.7	-43.7	18.3	0.00e+00	0	38	0	0	54	4653
2026-01-05 08:50:55.35	40.55	30.67	-41.6	-43.5	18.5	0.00e+00	0	39	0	0	54	4564
2026-01-05 08:50:56.64	40.12	30.60	-41.3	-43.1	18.7	0.00e+00	0	39	0	0	54	4378
2026-01-05 08:50:57.35	39.88	30.56	-41.0	-42.8	19.0	0.00e+00	0	39	0	0	54	4228
2026-01-05 08:50:58.64	39.45	30.48	-41.1	-42.9	18.9	0.00e+00	0	39	0	0	54	4264
2026-01-05 08:50:59.36	39.22	30.44	-41.2	-43.1	18.8	0.00e+00	0	39	0	0	54	4347
2026-01-05 08:51:00.65	38.79	30.36	-41.7	-43.5	18.4	0.00e+00	0	39	0	0	54	4597
2026-01-05 08:51:01.36	38.56	30.32	-41.8	-43.7	18.3	0.00e+00	0	38	0	0	54	4675
2026-01-05 08:51:02.68	38.13	30.24	-41.8	-43.8	18.2	0.00e+00	0	38	0	0	54	4716
2026-01-05 08:51:03.67	37.80	30.18	-41.7	-43.6	18.3	0.00e+00	0	39	0	0	54	4612
2026-01-05 08:51:05.01	37.37	30.09	-41.3	-43.2	18.6	0.00e+00	0	39	0	0	54	4401
2026-01-05 08:51:05.72	37.14	30.05	-41.1	-42.9	18.9	0.00e+00	0	38	0	0	54	4290
2026-01-05 08:51:07.01	36.73	29.96	-41.1	-42.9	18.9	0.00e+00	0	38	0	0	54	4284
2026-01-05 08:51:07.73	36.50	29.92	-41.1	-42.9	18.9	0.00e+00	0	38	0	0	54	4268
2026-01-05 08:51:09.01	36.09	29.83	-41.2	-43.1	18.8	0.00e+00	0	39	0	0	54	4352
2026-01-05 08:51:09.73	35.86	29.78	-41.3	-43.1	18.7	0.00e+00	0	38	0	0	54	4386
2026-01-05 08:51:11.06	35.44	29.69	-41.5	-43.4	18.5	0.00e+00	0	39	0	0	54	4494
2026-01-05 08:51:11.77	35.21	29.64	-41.4	-43.3	18.6	0.00e+00	0	38	0	0	54	4453
2026-01-05 08:51:13.06	34.81	29.55	-41.3	-43.1	18.8	0.00e+00	0	39	0	0	54	4351
2026-01-05 08:51:13.78	34.59	29.50	-41.1	-42.9	19.0	0.00e+00	0	38	0	0	54	4247
2026-01-05 08:51:15.07	34.19	29.41	-41.0	-42.8	19.0	0.00e+00	0	39	0	0	54	4230
2026-01-05 08:51:15.78	33.97	29.35	-41.2	-43.0	19.0	0.00e+00	0	39	0	0	54	4294
2026-01-05 08:51:17.07	33.57	29.26	-41.3	-43.1	18.8	0.00e+00	0	39	0	0	54	4379
2026-01-05 08:51:17.79	33.35	29.21	-41.3	-43.1	18.8	0.00e+00	0	38	0	0	54	4384
2026-01-05 08:51:19.08	32.96	29.11	-41.4	-43.3	18.6	0.00e+00	0	39	0	0	54	4470
2026-01-05 08:51:19.79	32.74	29.06	-41.3	-43.1	18.7	0.00e+00	0	38	0	0	54	4380
2026-01-05 08:51:21.08	32.35	28.96	-41.1	-43.0	18.8	0.00e+00	0	39	0	0	54	4308
2026-01-05 08:51:21.80	32.13	28.90	-41.2	-43.1	18.7	0.00e+00	0	39	0	0	54	4349
2026-01-05 08:51:23.09	31.75	28.80	-40.6	-42.4	19.3	0.00e+00	0	39	0	0	53	4278
2026-01-05 08:51:23.98	31.48	28.73	-40.4	-42.1	19.6	0.00e+00	0	38	0	0	52	4377
2026-01-05 08:51:25.12	31.15	28.64	-40.5	-42.3	19.5	0.00e+00	0	39	0	0	52	4470
2026-01-05 08:51:26.24	30.82	28.55	-41.0	-42.8	19.1	0.00e+00	0	39	0	0	52	4733
2026-01-05 08:51:27.27	30.52	28.47	-41.3	-43.2	18.7	0.00e+00	0	38	0	0	53	4679
2026-01-05 08:51:28.27	30.22	28.39	-41.6	-43.5	18.4	0.00e+00	0	38	0	0	53	4837
2026-01-05 08:51:29.27	29.94	28.31	-41.6	-43.5	18.4	0.00e+00	0	38	0	0	53	4837
2026-01-05 08:51:30.27	29.65	28.23	-41.4	-43.3	18.5	0.00e+00	0	39	0	0	53	4732
2026-01-05 08:51:31.28	29.36	28.14	-41.3	-43.2	18.6	0.00e+00	0	38	0	0	53	4691
2026-01-05 08:51:32.28	29.07	28.06	-41.3	-43.1	18.7	0.00e+00	0	39	0	0	53	4645
2026-01-05 08:51:33.28	28.79	27.98	-41.1	-42.9	18.9	0.00e+00	0	39	0	0	53	4520
2026-01-05 08:51:34.28	28.51	27.89	-41.1	-43.0	18.9	0.00e+00	0	38	0	0	53	4551
2026-01-05 08:51:35.29	28.22	27.81	-41.2	-43.1	18.9	0.00e+00	0	38	0	0	53	4612
2026-01-05 08:51:36.29	27.94	27.72	-41.3	-43.2	18.7	0.00e+00	0	39	0	0	53	4668
2026-01-05 08:51:37.29	27.67	27.64	-41.5	-43.3	18.5	0.00e+00	0	39	0	0	53	4755
2026-01-05 08:51:38.30	27.39	27.55	-41.1	-43.0	18.8	0.00e+00	0	39	0	0	53	4553
2026-01-05 08:51:39.30	27.11	27.46	-40.8	-42.6	19.1	0.00e+00	0	39	0	0	53	4366
2026-01-05 08:51:40.37	26.82	27.37	-40.5	-42.2	19.5	0.00e+00	0	39	0	0	53	4156
2026-01-05 08:51:41.26	26.58	27.29	-40.3	-42.0	19.7	0.00e+00	0	39	0	0	52	4294
2026-01-05 08:51:42.30	26.30	27.20	-40.1	-41.8	19.9	0.00e+00	0	39	0	0	52	4206
2026-01-05 08:51:43.29	26.03	27.11	-40.1	-41.8	19.9	0.00e+00	0	38	0	0	52	4236
2026-01-05 08:51:44.30	25.76	27.02	-40.4	-42.1	19.7	0.00e+00	0	39	0	0	52	4373
2026-01-05 08:51:45.30	25.50	26.94	-40.7	-42.5	19.4	0.00e+00	0	39	0	0	52	4565
2026-01-05 08:51:46.30	25.23	26.85	-40.9	-42.7	19.2	0.00e+00	0	39	0	0	52	4666
2026-01-05 08:51:47.31	24.97	26.75	-41.0	-42.9	19.0	0.00e+00	0	39	0	0	52	4760
2026-01-05 08:51:48.31	24.71	26.66	-41.0	-42.8	19.0	0.00e+00	0	38	0	0	52	4721
2026-01-05 08:51:49.31	24.45	26.57	-40.9	-42.7	19.1	0.00e+00	0	38	0	0	52	4669
2026-01-05 08:51:50.32	24.19	26.48	-40.9	-42.7	19.1	0.00e+00	0	39	0	0	52	4665
2026-01-05 08:51:51.32	23.93	26.39	-40.8	-42.6	19.2	0.00e+00	0	39	0	0	52	4607
2026-01-05 08:51:52.32	23.68	26.30	-40.7	-42.4	19.3	0.00e+00	0	39	0	0	52	4528
2026-01-05 08:51:53.32	23.42	26.21	-40.7	-42.5	19.3	0.00e+00	0	39	0	0	52	4546
2026-01-05 08:51:54.36	23.16	26.11	-40.8	-42.6	19.2	0.00e+00	0	39	0	0	52	4624
2026-01-05 08:51:55.36	22.91	26.02	-40.8	-42.6	19.2	0.00e+00	0	39	0	0	52	4624
2026-01-05 08:51:56.36	22.66	25.93	-40.7	-42.6	19.2	0.00e+00	0	39	0	0	52	4599
2026-01-05 08:51:57.36	22.41	25.83	-40.6	-42.4	19.3	0.00e+00	0	39	0	0	52	4541
2026-01-05 08:51:58.36	22.17	25.74	-40.7	-42.5	19.3	0.00e+00	0	38	0	0	52	4569
2026-01-05 08:51:59.37	21.92	25.65	-40.7	-42.5	19.3	0.00e+00	0	38	0	0	52	4578
2026-01-05 08:52:00.37	21.68	25.55	-40.8	-42.7	19.2	0.00e+00	0	38	0	0	52	4666
2026-01-05 08:52:01.38	21.43	25.46	-40.9	-42.8	19.1	0.00e+00	0	39	0	0	52	4717
2026-01-05 08:52:02.38	21.19	25.36	-41.0	-42.9	19.0	0.00e+00	0	38	0	0	52	4803
2026-01-05 08:52:03.38	20.95	25.27	-41.1	-43.1	18.8	0.00e+00	0	38	0	0	52	4873
2026-01-05 08:52:04.38	20.72	25.17	-41.2	-43.1	18.7	0.00e+00	0	39	0	0	53	4649
2026-01-05 08:52:05.38	20.48	25.08	-41.1	-43.1	18.7	0.00e+00	0	39	0	0	53	4603
2026-01-05 08:52:06.39	20.24	24.98	-41.0	-42.8	18.9	0.00e+00	0	38	0	0	53	4487
2026-01-05 08:52:07.39	20.01	24.89	-40.8	-42.7	19.0	0.00e+00	0	38	0	0	53	4400
2026-01-05 08:52:08.39	19.78	24.79	-40.9	-42.7	19.0	0.00e+00	0	39	0	0	53	4435
2026-01-05 08:52:09.39	19.55	24.70	-40.9	-42.8	19.0	0.00e+00	0	39	0	0	53	4443
2026-01-05 08:52:10.47	19.30	24.59	-40.9	-42.7	19.1	0.00e+00	0	38	0	0	53	4406
2026-01-05 08:52:11.36	19.10	24.51	-40.9	-42.6	19.2	0.00e+00	0	38	0	0	53	4388
2026-01-05 08:52:12.51	18.84	24.40	-40.9	-42.7	19.1	0.00e+00	0	39	0	0	53	4433
2026-01-05 08:52:13.37	18.65	24.31	-40.9	-42.7	19.2	0.00e+00	0	39	0	0	53	4404
2026-01-05 08:52:14.52	18.39	24.20	-40.9	-42.7	19.1	0.00e+00	0	38	0	0	53	4417
2026-01-05 08:52:15.37	18.20	24.12	-40.9	-42.7	19.0	0.00e+00	0	39	0	0	53	4435
2026-01-05 08:52:16.52	17.95	24.01	-40.8	-42.6	19.1	0.00e+00	0	39	0	0	53	4391
2026-01-05 08:52:17.38	17.76	23.93	-40.8	-42.6	19.1	0.00e+00	0	39	0	0	53	4391
2026-01-05 08:52:18.52	17.51	23.82	-40.6	-42.4	19.3	0.00e+00	0	39	0	0	53	4279
2026-01-05 08:52:19.38	17.33	23.73	-40.6	-42.4	19.3	0.00e+00	0	39	0	0	53	4257
2026-01-05 08:52:20.53	17.08	23.62	-40.6	-42.4	19.3	0.00e+00	0	39	0	0	53	4280
2026-01-05 08:52:21.39	16.90	23.54	-40.6	-42.4	19.3	0.00e+00	0	39	0	0	53	4266
2026-01-05 08:52:22.54	16.65	23.43	-40.7	-42.5	19.3	0.00e+00	0	39	0	0	53	4304
2026-01-05 08:52:23.40	16.47	23.35	-40.8	-42.7	19.1	0.00e+00	0	39	0	0	53	4406
2026-01-05 08:52:24.66	16.21	23.22	-41.0	-42.9	18.9	0.00e+00	0	39	0	0	53	4511
2026-01-05 08:52:25.39	16.05	23.15	-41.1	-42.9	18.9	0.00e+00	0	39	0	0	53	4536
2026-01-05 08:52:26.68	15.79	23.03	-41.2	-43.1	18.7	0.00e+00	0	39	0	0	53	4603
2026-01-05 08:52:27.39	15.64	22.96	-41.2	-43.0	18.8	0.00e+00	0	38	0	0	53	4581
2026-01-05 08:52:28.68	15.38	22.83	-41.2	-43.1	18.7	0.00e+00	0	39	0	0	53	4607
2026-01-05 08:52:29.40	15.23	22.76	-41.2	-43.1	18.7	0.00e+00	0	39	0	0	53	4641
2026-01-05 08:52:30.69	14.97	22.64	-41.3	-43.3	18.6	0.00e+00	0	39	0	0	53	4719
2026-01-05 08:52:31.41	14.83	22.57	-41.4	-43.3	18.5	0.00e+00	0	38	0	0	53	4731
2026-01-05 08:52:32.70	14.57	22.44	-41.4	-43.3	18.6	0.00e+00	0	39	0	0	53	4753
2026-01-05 08:52:33.41	14.43	22.37	-41.4	-43.3	18.6	0.00e+00	0	39	0	0	53	4731
2026-01-05 08:52:34.70	14.18	22.25	-41.5	-43.4	18.5	0.00e+00	0	39	0	0	53	4783
2026-01-05 08:52:35.42	14.04	22.18	-41.3	-43.2	18.7	0.00e+00	0	39	0	0	53	4674
2026-01-05 08:52:36.71	13.79	22.05	-41.0	-42.8	19.0	0.00e+00	0	39	0	0	53	4478
2026-01-05 08:52:37.70	13.60	21.95	-40.9	-42.7	19.1	0.00e+00	0	39	0	0	53	4440
2026-01-05 08:52:38.71	13.40	21.86	-40.8	-42.6	19.3	0.00e+00	0	39	0	0	53	4351
2026-01-05 08:52:39.71	13.21	21.76	-40.8	-42.5	19.3	0.00e+00	0	39	0	0	53	4329
2026-01-05 08:52:40.71	13.02	21.66	-40.8	-42.5	19.3	0.00e+00	0	39	0	0	53	4340
2026-01-05 08:52:41.71	12.84	21.57	-40.9	-42.6	19.2	0.00e+00	0	38	0	0	53	4390
2026-01-05 08:52:42.71	12.65	21.47	-41.0	-42.8	19.0	0.00e+00	0	39	0	0	53	4493
2026-01-05 08:52:43.72	12.46	21.37	-41.0	-42.8	19.1	0.00e+00	0	39	0	0	53	4473
2026-01-05 08:52:44.75	12.27	21.27	-41.0	-42.8	19.0	0.00e+00	0	39	0	0	53	4493
2026-01-05 08:52:45.80	12.08	21.17	-41.0	-42.9	19.0	0.00e+00	0	39	0	0	53	4494
2026-01-05 08:52:46.72	11.91	21.08	-40.8	-42.7	19.1	0.00e+00	0	39	0	0	53	4416
2026-01-05 08:52:47.72	11.73	20.98	-40.8	-42.6	19.1	0.00e+00	0	38	0	0	53	4368
2026-01-05 08:52:48.72	11.55	20.89	-40.8	-42.6	19.1	0.00e+00	0	39	0	0	53	4379
2026-01-05 08:52:49.96	11.33	20.77	-40.6	-42.4	19.2	0.00e+00	0	39	0	0	53	4288
2026-01-05 08:52:50.87	11.17	20.68	-40.6	-42.4	19.2	0.00e+00	0	39	0	0	53	4280
2026-01-05 08:52:51.87	10.99	20.58	-40.6	-42.5	19.2	0.00e+00	0	38	0	0	53	4294
2026-01-05 08:52:52.87	10.82	20.49	-40.5	-42.3	19.4	0.00e+00	0	39	0	0	53	4211
2026-01-05 08:52:53.88	10.64	20.39	-40.3	-42.1	19.6	0.00e+00	0	38	0	0	52	4378
2026-01-05 08:52:54.88	10.47	20.29	-40.4	-42.2	19.6	0.00e+00	0	39	0	0	52	4409
2026-01-05 08:52:55.88	10.30	20.20	-40.3	-42.2	19.6	0.00e+00	0	39	0	0	52	4411
2026-01-05 08:52:56.88	10.13	20.10	-40.4	-42.3	19.5	0.00e+00	0	39	0	0	52	4446
2026-01-05 08:52:57.89	9.96	20.00	-40.3	-42.3	19.5	0.00e+00	0	39	0	0	52	4448
2026-01-05 08:52:58.91	9.79	19.91	-40.4	-42.3	19.4	0.00e+00	0	39	0	0	52	4468
2026-01-05 08:52:59.91	9.62	19.81	-40.4	-42.3	19.4	0.00e+00	0	39	0	0	52	4470
2026-01-05 08:53:00.96	9.45	19.71	-40.5	-42.4	19.3	0.00e+00	0	39	0	0	52	4518
2026-01-05 08:53:01.88	9.29	19.62	-40.5	-42.4	19.3	0.00e+00	0	39	0	0	52	4530
2026-01-05 08:53:03.00	9.11	19.52	-40.5	-42.4	19.3	0.00e+00	0	39	0	0	52	4510
2026-01-05 08:53:03.89	8.97	19.43	-40.4	-42.2	19.4	0.00e+00	0	39	0	0	52	4430
2026-01-05 08:53:05.04	8.78	19.32	-40.3	-42.1	19.6	0.00e+00	0	39	0	0	52	4369
2026-01-05 08:53:05.90	8.64	19.24	-40.3	-42.0	19.6	0.00e+00	0	39	0	0	52	4340
2026-01-05 08:53:07.04	8.46	19.13	-40.3	-42.2	19.5	0.00e+00	0	39	0	0	52	4398
2026-01-05 08:53:07.90	8.32	19.05	-40.5	-42.4	19.4	0.00e+00	0	39	0	0	52	4497
2026-01-05 08:53:09.04	8.14	18.94	-40.6	-42.5	19.2	0.00e+00	0	39	0	0	52	4585
2026-01-05 08:53:09.90	8.01	18.86	-40.8	-42.7	19.0	0.00e+00	0	38	0	0	52	4684
2026-01-05 08:53:11.05	7.83	18.75	-40.9	-42.9	18.9	0.00e+00	0	39	0	0	52	4782
2026-01-05 08:53:11.91	7.69	18.67	-40.9	-42.9	18.8	0.00e+00	0	38	0	0	52	4809
2026-01-05 08:53:13.05	7.52	18.56	-41.0	-42.9	18.8	0.00e+00	0	39	0	0	52	4794
2026-01-05 08:53:13.91	7.39	18.48	-41.0	-42.9	18.8	0.00e+00	0	39	0	0	52	4765
2026-01-05 08:53:15.17	7.20	18.37	-40.9	-42.8	18.8	0.00e+00	0	38	0	0	52	4736
2026-01-05 08:53:15.90	7.09	18.30	-40.9	-42.8	18.8	0.00e+00	0	38	0	0	52	4710
2026-01-05 08:53:17.19	6.89	18.18	-40.9	-42.7	18.8	0.00e+00	0	39	0	0	52	4690
2026-01-05 08:53:17.91	6.79	18.11	-40.9	-42.8	18.8	0.00e+00	0	39	0	0	52	4709
2026-01-05 08:53:19.20	6.59	17.99	-40.7	-42.5	19.0	0.00e+00	0	39	0	0	52	4579
2026-01-05 08:53:19.96	6.48	17.92	-40.7	-42.6	19.0	0.00e+00	0	39	0	0	52	4602
2026-01-05 08:53:21.25	6.29	17.80	-40.8	-42.7	19.0	0.00e+00	0	39	0	0	52	4667
2026-01-05 08:53:22.08	6.17	17.72	-40.8	-42.8	19.0	0.00e+00	0	39	0	0	52	4708
2026-01-05 08:53:23.54	5.96	17.59	-41.0	-42.9	18.9	0.00e+00	0	38	0	0	52	4794
2026-01-05 08:53:24.26	5.86	17.52	-41.0	-43.0	18.8	0.00e+00	0	39	0	0	52	4835
2026-01-05 08:53:25.74	5.65	17.38	-41.1	-43.0	18.8	0.00e+00	0	39	0	0	52	4858
2026-01-05 08:53:26.45	5.55	17.32	-41.1	-43.1	18.8	0.00e+00	0	38	0	0	52	4887
2026-01-05 08:53:27.74	5.37	17.20	-41.3	-43.3	18.6	0.00e+00	0	39	0	0	53	4715
2026-01-05 08:53:28.46	5.27	17.13	-41.3	-43.2	18.6	0.00e+00	0	39	0	0	53	4701
2026-01-05 08:53:29.75	5.09	17.02	-41.2	-43.2	18.6	0.00e+00	0	39	0	0	53	4689
2026-01-05 08:53:30.46	4.99	16.95	-41.3	-43.3	18.5	0.00e+00	0	39	0	0	53	4735
2026-01-05 08:53:31.75	4.81	16.83	-41.2	-43.2	18.6	0.00e+00	0	39	0	0	53	4675
2026-01-05 08:53:32.48	4.72	16.77	-41.1	-43.1	18.7	0.00e+00	0	39	0	0	53	4612
2026-01-05 08:53:33.77	4.54	16.65	-41.1	-43.0	18.7	0.00e+00	0	39	0	0	53	4597
2026-01-05 08:53:34.48	4.45	16.59	-41.0	-43.0	18.7	0.00e+00	0	39	0	0	53	4566
2026-01-05 08:53:35.77	4.27	16.47	-41.1	-43.0	18.7	0.00e+00	0	39	0	0	53	4570
2026-01-05 08:53:36.49	4.18	16.41	-41.0	-42.9	18.8	0.00e+00	0	39	0	0	53	4523
2026-01-05 08:53:37.78	4.01	16.29	-41.0	-42.9	18.9	0.00e+00	0	39	0	0	53	4509
2026-01-05 08:53:38.49	3.91	16.23	-41.0	-42.9	18.8	0.00e+00	0	39	0	0	53	4533
2026-01-05 08:53:39.80	3.74	16.11	-41.2	-43.1	18.7	0.00e+00	0	39	0	0	53	4633
2026-01-05 08:53:40.51	3.65	16.04	-41.2	-43.2	18.6	0.00e+00	0	39	0	0	53	4692
2026-01-05 08:53:41.87	3.48	15.92	-41.4	-43.5	18.4	0.00e+00	0	38	0	0	53	4819
2026-01-05 08:53:42.58	3.39	15.86	-41.4	-43.4	18.4	0.00e+00	0	39	0	0	53	4784
2026-01-05 08:53:43.87	3.22	15.74	-41.5	-43.5	18.3	0.00e+00	0	38	0	0	53	4849
2026-01-05 08:53:44.59	3.13	15.68	-41.5	-43.5	18.3	0.00e+00	0	39	0	0	53	4845
2026-01-05 08:53:45.88	2.97	15.57	-41.5	-43.5	18.3	0.00e+00	0	39	0	0	53	4870
2026-01-05 08:53:46.59	2.88	15.50	-41.5	-43.5	18.3	0.00e+00	0	39	0	0	53	4838
2026-01-05 08:53:47.88	2.72	15.39	-41.4	-43.4	18.4	0.00e+00	0	39	0	0	53	4809
2026-01-05 08:53:48.60	2.63	15.33	-41.4	-43.4	18.4	0.00e+00	0	39	0	0	53	4780
2026-01-05 08:53:49.89	2.47	15.21	-41.4	-43.4	18.4	0.00e+00	0	39	0	0	53	4792
2026-01-05 08:53:50.61	2.39	15.15	-41.3	-43.4	18.4	0.00e+00	0	39	0	0	53	4793
2026-01-05 08:53:51.89	2.23	15.04	-41.3	-43.4	18.4	0.00e+00	0	39	0	0	53	4783
2026-01-05 08:53:52.75	2.13	14.96	-41.2	-43.3	18.5	0.00e+00	0	39	0	0	53	4744
2026-01-05 08:53:53.90	1.99	14.86	-41.3	-43.4	18.5	0.00e+00	0	39	0	0	53	4760
2026-01-05 08:53:54.76	1.89	14.79	-41.3	-43.4	18.4	0.00e+00	0	39	0	0	53	4799
2026-01-05 08:53:55.90	1.75	14.69	-41.4	-43.5	18.4	0.00e+00	0	39	0	0	53	4816
2026-01-05 08:53:56.76	1.65	14.61	-41.6	-43.6	18.2	0.00e+00	0	38	0	0	53	4896
2026-01-05 08:53:57.90	1.52	14.52	-41.6	-43.6	18.2	0.00e+00	0	38	0	0	53	4905
2026-01-05 08:53:58.76	1.42	14.44	-41.7	-43.7	18.2	0.00e+00	0	38	0	0	54	4655
2026-01-05 08:53:59.91	1.29	14.34	-41.7	-43.7	18.2	0.00e+00	0	39	0	0	54	4655
2026-01-05 08:54:00.77	1.19	14.27	-41.8	-43.8	18.1	0.00e+00	0	39	0	0	54	4731
2026-01-05 08:54:01.92	1.06	14.17	-41.9	-43.9	18.0	0.00e+00	0	38	0	0	54	4788
2026-01-05 08:54:02.78	0.96	14.10	-42.0	-44.0	17.9	0.00e+00	0	39	0	0	54	4848
2026-01-05 08:54:03.92	0.83	14.00	-41.9	-44.0	17.9	0.00e+00	0	38	0	0	54	4851
2026-01-05 08:54:04.78	0.74	13.93	-42.0	-44.1	17.8	0.00e+00	0	39	0	0	54	4909
2026-01-05 08:54:05.93	0.61	13.83	-42.0	-44.1	17.7	0.00e+00	0	39	0	0	54	4912
2026-01-05 08:54:06.79	0.51	13.76	-42.2	-44.3	17.6	0.00e+00	0	39	0	0	54	5021
2026-01-05 08:54:07.94	0.39	13.66	-42.1	-44.3	17.5	0.00e+00	0	38	0	0	55	4723
2026-01-05 08:54:08.80	0.29	13.59	-42.1	-44.2	17.6	0.00e+00	0	39	0	0	55	4701
2026-01-05 08:54:09.94	0.17	13.49	-42.1	-44.2	17.5	0.00e+00	0	39	0	0	55	4700
2026-01-05 08:54:10.80	0.08	13.42	-42.1	-44.3	17.4	0.00e+00	0	39	0	0	55	4718
2026-01-05 08:54:11.95	359.95	13.32	-42.2	-44.3	17.5	0.00e+00	0	39	0	0	55	4719
2026-01-05 08:54:12.82	359.86	13.25	-42.1	-44.2	17.4	0.00e+00	0	39	0	0	55	4680
2026-01-05 08:54:14.13	359.72	13.14	-42.0	-44.1	17.6	0.00e+00	0	39	0	0	55	4606
2026-01-05 08:54:14.85	359.64	13.08	-42.0	-44.0	17.6	0.00e+00	0	39	0	0	55	4593
2026-01-05 08:54:16.13	359.51	12.97	-41.9	-44.0	17.7	0.00e+00	0	39	0	0	55	4553
2026-01-05 08:54:16.85	359.44	12.92	-41.9	-44.0	17.7	0.00e+00	0	39	0	0	55	4567
2026-01-05 08:54:18.14	359.30	12.81	-41.7	-43.9	17.8	0.00e+00	0	39	0	0	55	4508
2026-01-05 08:54:18.88	359.23	12.75	-41.8	-43.9	17.8	0.00e+00	0	38	0	0	55	4538
2026-01-05 08:54:20.18	359.09	12.64	-41.9	-44.0	17.7	0.00e+00	0	39	0	0	55	4584
2026-01-05 08:54:21.00	359.01	12.57	-41.8	-43.9	17.8	0.00e+00	0	39	0	0	55	4506
2026-01-05 08:54:22.15	358.89	12.48	-41.8	-43.9	17.9	0.00e+00	0	39	0	0	55	4502
2026-01-05 08:54:23.25	358.78	12.39	-41.9	-43.9	17.8	0.00e+00	0	39	0	0	55	4530
2026-01-05 08:54:24.28	358.68	12.31	-42.0	-44.1	17.7	0.00e+00	0	39	0	0	55	4603
2026-01-05 08:54:25.28	358.58	12.22	-42.0	-44.1	17.7	0.00e+00	0	39	0	0	55	4628
2026-01-05 08:54:26.28	358.48	12.14	-42.2	-44.3	17.5	0.00e+00	0	39	0	0	55	4733
2026-01-05 08:54:27.29	358.38	12.06	-42.3	-44.5	17.3	0.00e+00	0	39	0	0	55	4822
2026-01-05 08:54:28.54	358.26	11.96	-42.3	-44.5	17.2	0.00e+00	0	39	0	0	55	4866
2026-01-05 08:54:29.28	358.19	11.90	-42.2	-44.4	17.3	0.00e+00	0	39	0	0	55	4807
2026-01-05 08:54:30.56	358.06	11.80	-42.3	-44.7	17.1	0.00e+00	0	39	0	0	55	4943
2026-01-05 08:54:31.28	357.99	11.74	-42.3	-44.7	17.0	0.00e+00	0	39	0	0	55	4970
2026-01-05 08:54:32.57	357.87	11.64	-42.4	-44.7	17.0	0.00e+00	0	38	0	0	55	4982
2026-01-05 08:54:33.29	357.80	11.58	-42.3	-44.7	17.0	0.00e+00	0	39	0	0	55	4930
2026-01-05 08:54:34.58	357.68	11.48	-42.3	-44.7	16.9	0.00e+00	0	39	0	0	55	4969
2026-01-05 08:54:35.29	357.62	11.42	-42.4	-44.7	16.9	0.00e+00	0	39	0	0	55	4969
2026-01-05 08:54:36.58	357.49	11.32	-42.3	-44.6	17.0	0.00e+00	0	39	0	0	55	4899
2026-01-05 08:54:37.30	357.43	11.26	-42.3	-44.7	16.9	0.00e+00	0	39	0	0	55	4949
2026-01-05 08:54:38.59	357.31	11.16	-42.3	-44.6	17.0	0.00e+00	0	39	0	0	55	4922
2026-01-05 08:54:39.30	357.24	11.10	-42.4	-44.7	16.9	0.00e+00	0	39	0	0	55	4954
2026-01-05 08:54:40.59	357.13	11.00	-42.1	-44.3	17.3	0.00e+00	0	39	0	0	55	4744
2026-01-05 08:54:41.31	357.06	10.95	-42.0	-44.2	17.4	0.00e+00	0	39	0	0	55	4696
2026-01-05 08:54:42.60	356.94	10.85	-42.0	-44.2	17.5	0.00e+00	0	39	0	0	55	4678
2026-01-05 08:54:43.31	356.88	10.79	-42.0	-44.2	17.5	0.00e+00	0	39	0	0	55	4662
2026-01-05 08:54:44.60	356.77	10.69	-41.8	-44.0	17.6	0.00e+00	0	38	0	0	55	4593
2026-01-05 08:54:45.32	356.70	10.63	-41.8	-44.0	17.7	0.00e+00	0	38	0	0	55	4566
2026-01-05 08:54:46.60	356.59	10.53	-41.9	-44.1	17.6	0.00e+00	0	39	0	0	55	4642
2026-01-05 08:54:47.43	356.52	10.47	-41.8	-44.1	17.7	0.00e+00	0	39	0	0	55	4611
2026-01-05 08:54:48.58	356.42	10.38	-41.8	-44.1	17.6	0.00e+00	0	39	0	0	55	4632
2026-01-05 08:54:49.44	356.34	10.32	-41.8	-44.1	17.7	0.00e+00	0	39	0	0	55	4624
2026-01-05 08:54:50.59	356.24	10.23	-41.9	-44.3	17.5	0.00e+00	0	39	0	0	55	4709
2026-01-05 08:54:51.44	356.17	10.16	-41.9	-44.3	17.5	0.00e+00	0	38	0	0	55	4735
2026-01-05 08:54:52.59	356.07	10.07	-42.0	-44.5	17.3	0.00e+00	0	39	0	0	55	4816
2026-01-05 08:54:53.45	356.00	10.01	-41.9	-44.5	17.3	0.00e+00	0	39	0	0	55	4821
2026-01-05 08:54:54.60	355.90	9.92	-42.0	-44.6	17.1	0.00e+00	0	39	0	0	55	4922
2026-01-05 08:54:55.46	355.83	9.86	-41.9	-44.6	17.1	0.00e+00	0	39	0	0	55	4912
2026-01-05 08:54:56.60	355.73	9.77	-42.0	-44.8	17.0	0.00e+00	0	39	0	0	55	5010
2026-01-05 08:54:57.46	355.66	9.70	-41.9	-44.7	17.1	0.00e+00	0	39	0	0	55	4953
2026-01-05 08:54:58.61	355.57	9.62	-41.7	-44.8	17.0	0.00e+00	0	39	0	0	55	5006
2026-01-05 08:54:59.47	355.50	9.55	-41.7	-44.8	16.9	0.00e+00	0	39	0	0	55	5035
2026-01-05 08:55:00.61	355.40	9.47	-41.6	-44.9	16.8	0.00e+00	0	39	0	0	55	5045
2026-01-05 08:55:01.66	355.32	9.39	-41.6	-44.9	16.8	0.00e+00	0	39	0	0	55	5097
2026-01-05 08:55:02.52	355.25	9.33	-41.7	-45.0	16.8	0.00e+00	0	39	0	0	55	5120
2026-01-05 08:55:03.66	355.16	9.24	-41.7	-44.9	16.8	0.00e+00	0	39	0	0	55	5087
2026-01-05 08:55:04.52	355.09	9.18	-41.7	-44.9	16.9	0.00e+00	0	39	0	0	55	5042
2026-01-05 08:55:05.67	355.00	9.09	-42.0	-44.9	16.8	0.00e+00	0	39	0	0	55	5073
2026-01-05 08:55:06.83	354.91	9.01	-44.5	-50.3	11.9	7.00e-07	0	39	0	0	59	7526
2026-01-05 08:55:07.69	354.84	8.94	-48.8	-63.3	3.8	1.49e+00	0	39	104	0	68	20068
2026-01-05 08:55:08.84	354.75	8.86	-50.0	-63.5	3.8	1.49e+00	0	39	104	0	71	17253
2026-01-05 08:55:09.70	354.68	8.79	-49.1	-63.7	3.8	1.49e+00	0	39	104	0	70	18549
2026-01-05 08:55:10.85	354.59	8.71	-50.4	-63.7	3.8	1.49e+00	0	39	104	0	71	17562
2026-01-05 08:55:11.71	354.53	8.65	-50.1	-63.8	3.8	1.49e+00	0	39	104	0	71	17704
2026-01-05 08:55:12.85	354.44	8.56	-50.3	-63.8	3.8	1.49e+00	0	39	104	0	71	17763
2026-01-05 08:55:13.71	354.37	8.50	-50.6	-63.9	3.8	1.49e+00	0	39	104	0	72	17069
2026-01-05 08:55:14.86	354.29	8.42	-50.5	-63.8	3.8	1.49e+00	0	39	104	0	72	16751
2026-01-05 08:55:15.72	354.22	8.35	-50.3	-63.8	3.8	1.49e+00	0	39	104	0	72	16825
2026-01-05 08:55:16.87	354.13	8.27	-50.0	-63.8	3.8	1.49e+00	0	39	104	0	72	16808
2026-01-05 08:55:17.73	354.07	8.21	-50.5	-63.8	3.8	1.49e+00	0	39	104	0	72	16885
2026-01-05 08:55:18.88	353.99	8.13	-50.6	-63.9	3.8	1.49e+00	0	39	104	0	72	16941
2026-01-05 08:55:19.74	353.92	8.06	-50.5	-63.8	3.8	1.49e+00	0	39	104	0	72	16854
2026-01-05 08:55:20.89	353.84	7.98	-50.8	-63.8	3.8	1.49e+00	0	39	104	0	72	16884
2026-01-05 08:55:21.75	353.77	7.92	-50.7	-63.9	3.8	1.49e+00	0	39	104	0	72	16946
2026-01-05 08:55:22.90	353.69	7.84	-50.7	-63.9	3.8	1.49e+00	0	39	104	0	72	16945
2026-01-05 08:55:23.76	353.63	7.78	-50.7	-63.9	3.8	1.49e+00	0	39	104	0	72	17013
2026-01-05 08:55:24.91	353.55	7.70	-50.6	-63.9	3.8	1.49e+00	0	39	104	0	72	16988
2026-01-05 08:55:25.77	353.48	7.63	-50.7	-63.9	3.8	1.49e+00	0	39	104	0	72	17012
2026-01-05 08:55:26.91	353.40	7.55	-50.7	-63.9	3.8	1.49e+00	0	39	104	0	72	16969
2026-01-05 08:55:27.77	353.34	7.49	-50.9	-63.9	3.8	1.49e+00	0	39	104	0	72	16986
2026-01-05 08:55:28.92	353.26	7.41	-50.9	-63.9	3.8	1.49e+00	0	39	104	0	72	16987
2026-01-05 08:55:29.78	353.20	7.35	-50.8	-63.9	3.8	1.49e+00	0	39	104	0	72	16978
2026-01-05 08:55:30.93	353.12	7.27	-50.8	-63.9	3.8	1.49e+00	0	39	104	0	72	16920
2026-01-05 08:55:31.79	353.06	7.21	-50.8	-63.9	3.8	1.49e+00	0	39	104	0	72	16898
2026-01-05 08:55:32.94	352.98	7.13	-50.7	-63.9	3.8	1.49e+00	0	39	104	0	72	16938
2026-01-05 08:55:33.80	352.92	7.07	-50.8	-63.8	3.8	1.49e+00	0	39	104	0	72	16878
2026-01-05 08:55:34.94	352.85	6.99	-50.8	-63.9	3.8	1.49e+00	0	39	104	0	72	16900
2026-01-05 08:55:35.81	352.79	6.93	-50.7	-63.9	3.8	1.49e+00	0	39	104	0	72	16910
2026-01-05 08:55:36.95	352.71	6.85	-50.6	-63.8	3.8	1.49e+00	0	39	104	0	72	16873
2026-01-05 08:55:37.81	352.65	6.79	-50.6	-63.8	3.8	1.49e+00	0	39	104	0	72	16874
2026-01-05 08:55:38.96	352.57	6.71	-50.6	-63.8	3.8	1.49e+00	0	39	104	0	72	16883
2026-01-05 08:55:39.82	352.52	6.65	-50.6	-63.8	3.8	1.49e+00	0	39	104	0	72	16874
2026-01-05 08:55:40.97	352.44	6.57	-50.6	-63.8	3.8	1.49e+00	0	39	104	0	72	16781
2026-01-05 08:55:41.83	352.38	6.51	-50.6	-63.8	3.8	1.49e+00	0	39	104	0	72	16864
2026-01-05 08:55:42.98	352.31	6.44	-50.6	-63.8	3.8	1.49e+00	0	39	104	0	72	16863
2026-01-05 08:55:43.84	352.25	6.38	-50.6	-63.8	3.8	1.49e+00	0	39	104	0	72	16816
2026-01-05 08:55:44.99	352.18	6.30	-50.6	-63.8	3.8	1.49e+00	0	39	104	0	72	16815
2026-01-05 08:55:45.85	352.12	6.24	-50.6	-63.8	3.8	1.49e+00	0	39	104	0	72	16783
2026-01-05 08:55:46.99	352.05	6.16	-50.6	-63.8	3.8	1.49e+00	0	39	104	0	72	16824
2026-01-05 08:55:47.86	351.99	6.10	-50.6	-63.8	3.8	1.49e+00	0	39	104	0	72	16823
2026-01-05 08:55:49.00	351.92	6.03	-50.6	-63.8	3.8	1.49e+00	0	39	104	0	72	16783
2026-01-05 08:55:49.86	351.87	5.97	-50.5	-63.8	3.8	1.49e+00	0	39	104	0	72	16784
2026-01-05 08:55:51.01	351.79	5.89	-50.6	-63.8	3.8	1.49e+00	0	39	104	0	72	16839
2026-01-05 08:55:51.87	351.74	5.83	-50.6	-63.8	3.8	1.49e+00	0	39	104	0	72	16796
2026-01-05 08:55:53.02	351.67	5.76	-50.5	-63.8	3.8	1.49e+00	0	39	104	0	72	16778
2026-01-05 08:55:53.88	351.61	5.70	-50.6	-63.8	3.8	1.49e+00	0	39	104	0	72	16755
2026-01-05 08:55:55.03	351.54	5.62	-50.6	-63.8	3.8	1.49e+00	0	39	104	0	72	16749
2026-01-05 08:55:55.89	351.49	5.57	-50.5	-63.8	3.8	1.49e+00	0	39	104	0	72	16744
2026-01-05 08:55:57.04	351.42	5.49	-50.5	-63.8	3.8	1.49e+00	0	39	104	0	72	16768
2026-01-05 08:55:57.90	351.37	5.43	-50.5	-63.8	3.8	1.49e+00	0	39	104	0	72	16764
2026-01-05 08:55:59.05	351.30	5.36	-50.6	-63.8	3.8	1.49e+00	0	39	104	0	72	16800
2026-01-05 08:55:59.91	351.25	5.30	-50.6	-63.8	3.8	1.49e+00	0	39	104	0	72	16781
2026-01-05 08:56:01.05	351.18	5.22	-50.5	-63.8	3.8	1.49e+00	0	39	104	0	72	16756
2026-01-05 08:56:01.91	351.13	5.17	-50.5	-63.8	3.8	1.49e+00	0	39	104	0	72	16766
2026-01-05 08:56:03.06	351.06	5.09	-50.5	-63.8	3.8	1.49e+00	0	39	104	0	72	16736
2026-01-05 08:56:03.92	351.01	5.04	-50.5	-63.8	3.8	1.49e+00	0	39	104	0	72	16780
2026-01-05 08:56:05.07	350.94	4.96	-50.5	-63.8	3.8	1.49e+00	0	39	104	0	72	16700

#Closed at: 2026-01-05 08:56:05
#Recorded file [0 MB]: D:/Data/31040_260105_114415.dat