passes_logs/2026/01/05/T1/T1__20260105_003311_NOAA_21_JPSS-2_rec.log

#Pass ID: 20260105_003311_NOAA 21 (JPSS-2)
#Satellite: NOAA 21 (JPSS-2)
#Configuration: NOAA 21
#almurnet v.1.7.20251203
#Start time: 2026-01-05 00:33:13

#Version: 2.0.20230620
#Station: T1
#Location: 37.570604 lon 55.790049 lat
#TLE: 1 54234U 22150A   26004.22845673  .00000174  00000+0  10347-3 0  9996
#TLE: 2 54234  98.7489 305.2591 0001115 345.0884  15.0259 14.19531906163281

#Time	Az	El	Level	Level2	SNR	BER	BlckErr	Temp	State	Recorded	gain1	gain2
2026-01-05 00:33:13.03	10.97	5.12	-49.9	-65.7	3.8	1.49e+00	0	37	0	0	70	23575
2026-01-05 00:33:14.03	10.93	5.19	-49.9	-65.7	3.8	1.49e+00	0	37	104	0	70	23473
2026-01-05 00:33:15.03	10.89	5.26	-49.9	-65.7	3.8	1.49e+00	0	37	104	0	70	23531
2026-01-05 00:33:16.04	10.84	5.33	-49.9	-65.7	3.8	1.49e+00	0	37	104	0	70	23558
2026-01-05 00:33:17.04	10.80	5.40	-49.9	-65.7	3.8	1.49e+00	0	37	104	0	70	23406
2026-01-05 00:33:18.05	10.76	5.47	-49.9	-65.7	3.8	1.49e+00	0	37	104	0	70	23445
2026-01-05 00:33:19.05	10.71	5.54	-49.9	-65.7	3.8	1.49e+00	0	37	104	0	70	23325
2026-01-05 00:33:20.06	10.67	5.61	-49.9	-65.6	3.8	1.49e+00	0	37	104	0	70	23221
2026-01-05 00:33:21.06	10.63	5.68	-49.9	-65.6	3.8	1.49e+00	0	37	104	0	70	23203
2026-01-05 00:33:22.07	10.58	5.75	-49.9	-65.6	3.8	1.49e+00	0	37	104	0	70	23094
2026-01-05 00:33:23.07	10.54	5.82	-49.9	-65.6	3.8	1.49e+00	0	38	104	0	70	23071
2026-01-05 00:33:24.07	10.49	5.89	-49.9	-65.6	3.8	1.49e+00	0	37	104	0	70	23075
2026-01-05 00:33:25.08	10.45	5.96	-49.9	-65.6	3.8	1.49e+00	0	38	104	0	70	23091
2026-01-05 00:33:26.08	10.41	6.03	-49.9	-65.6	3.8	1.49e+00	0	38	104	0	70	23125
2026-01-05 00:33:27.09	10.36	6.10	-49.9	-65.5	3.8	1.49e+00	0	37	104	0	70	22998
2026-01-05 00:33:28.09	10.31	6.17	-49.9	-65.6	3.8	1.49e+00	0	38	104	0	70	23139
2026-01-05 00:33:29.10	10.27	6.24	-49.9	-65.6	3.8	1.49e+00	0	38	104	0	70	23126
2026-01-05 00:33:30.10	10.22	6.31	-49.8	-65.6	3.8	1.49e+00	0	38	104	0	70	23087
2026-01-05 00:33:31.11	10.18	6.39	-49.9	-65.5	3.8	1.49e+00	0	38	104	0	70	23038
2026-01-05 00:33:32.11	10.13	6.46	-49.9	-65.5	3.8	1.49e+00	0	38	104	0	70	22856
2026-01-05 00:33:33.11	10.09	6.53	-49.9	-65.4	3.8	1.49e+00	0	38	104	0	70	22589
2026-01-05 00:33:34.12	10.04	6.60	-49.9	-65.2	3.8	1.49e+00	0	38	104	0	70	22092
2026-01-05 00:33:35.12	9.99	6.68	-49.9	-65.0	3.8	1.49e+00	0	38	104	0	70	21678
2026-01-05 00:33:36.13	9.94	6.75	-49.8	-64.7	3.8	1.49e+00	0	38	104	0	70	20961
2026-01-05 00:33:37.13	9.90	6.82	-49.9	-64.5	3.8	1.49e+00	0	38	104	0	70	20331
2026-01-05 00:33:38.13	9.85	6.89	-49.9	-64.1	3.8	1.49e+00	0	38	104	0	70	19503
2026-01-05 00:33:39.14	9.80	6.97	-49.8	-63.6	3.9	1.48e+00	0	38	104	0	70	18507
2026-01-05 00:33:40.14	9.75	7.04	-49.7	-63.4	3.9	1.48e+00	0	38	104	0	70	17916
2026-01-05 00:33:41.14	9.70	7.12	-49.8	-63.3	3.9	1.48e+00	0	38	104	0	70	17783
2026-01-05 00:33:42.15	9.66	7.19	-49.7	-63.4	3.9	1.48e+00	0	38	104	0	70	18055
2026-01-05 00:33:43.15	9.61	7.26	-49.7	-63.6	3.9	1.48e+00	0	38	104	0	70	18419
2026-01-05 00:33:44.16	9.56	7.34	-49.8	-63.6	3.9	1.49e+00	0	38	104	0	70	18470
2026-01-05 00:33:45.16	9.51	7.41	-49.8	-64.1	3.9	1.49e+00	0	38	104	0	70	19404
2026-01-05 00:33:46.17	9.46	7.49	-49.9	-64.8	3.8	1.49e+00	0	38	104	0	70	21093
2026-01-05 00:33:47.17	9.41	7.56	-49.9	-65.2	3.8	1.49e+00	0	38	104	0	70	22082
2026-01-05 00:33:48.17	9.36	7.64	-49.9	-65.4	3.8	1.49e+00	0	38	104	0	70	22736
2026-01-05 00:33:49.18	9.31	7.71	-49.9	-65.4	3.8	1.49e+00	0	38	104	0	70	22556
2026-01-05 00:33:50.18	9.25	7.79	-49.9	-65.0	3.8	1.49e+00	0	38	104	0	70	21621
2026-01-05 00:33:51.19	9.20	7.86	-49.8	-64.2	3.8	1.49e+00	0	38	104	0	70	19759
2026-01-05 00:33:52.19	9.15	7.94	-49.7	-62.8	4.0	1.48e+00	0	38	104	0	70	16818
2026-01-05 00:33:53.19	9.10	8.02	-49.7	-61.4	4.4	1.46e+00	0	38	104	0	70	14305
2026-01-05 00:33:54.20	9.05	8.09	-49.5	-60.1	5.0	7.41e-01	0	38	0	0	70	12315
2026-01-05 00:33:55.20	9.00	8.17	-49.3	-58.9	5.8	4.21e-01	0	38	0	0	70	10677
2026-01-05 00:33:56.21	8.94	8.25	-49.2	-57.7	6.8	2.40e-01	0	39	0	0	70	9360
2026-01-05 00:33:57.21	8.89	8.32	-48.9	-56.7	7.7	1.08e-01	0	38	0	0	69	8762
2026-01-05 00:33:58.22	8.84	8.40	-48.6	-55.5	8.9	3.84e-02	0	38	0	0	69	7651
2026-01-05 00:33:59.22	8.78	8.48	-48.4	-54.7	9.7	1.29e-02	0	39	0	0	68	7427
2026-01-05 00:34:00.22	8.73	8.55	-48.2	-54.2	10.2	6.35e-03	0	38	0	0	68	6973
2026-01-05 00:34:01.23	8.67	8.63	-48.1	-53.8	10.6	3.93e-03	0	39	0	0	68	6708
2026-01-05 00:34:02.23	8.62	8.71	-48.0	-53.7	10.8	2.62e-03	0	39	0	0	68	6577
2026-01-05 00:34:03.23	8.56	8.79	-47.8	-53.4	10.9	2.20e-03	0	39	0	0	67	6794
2026-01-05 00:34:04.23	8.51	8.87	-47.9	-53.6	10.7	2.52e-03	0	38	0	0	67	6898
2026-01-05 00:34:05.24	8.45	8.95	-48.1	-54.0	10.2	4.64e-03	0	38	0	0	67	7249
2026-01-05 00:34:06.24	8.40	9.02	-48.3	-54.7	9.5	1.05e-02	0	39	0	0	67	7852
2026-01-05 00:34:07.24	8.34	9.10	-48.5	-55.2	9.0	3.35e-02	0	39	0	0	67	8305
2026-01-05 00:34:08.25	8.29	9.18	-48.2	-53.5	10.8	2.85e-03	0	39	0	0	67	6832
2026-01-05 00:34:09.25	8.23	9.26	-49.2	-58.4	6.2	3.04e-01	0	39	0	0	69	10724
2026-01-05 00:34:10.29	8.17	9.35	-49.4	-59.0	4.3	1.11e+00	0	39	104	0	70	10804
2026-01-05 00:34:11.29	8.11	9.42	-45.3	-48.1	16.2	0.00e+00	0	39	0	0	62	4905
2026-01-05 00:34:12.35	8.05	9.51	-45.3	-48.0	16.4	0.00e+00	0	39	0	0	62	4818
2026-01-05 00:34:13.25	8.00	9.58	-44.8	-47.3	16.9	0.00e+00	0	39	0	0	61	4737
2026-01-05 00:34:14.27	7.94	9.66	-44.7	-47.2	17.1	0.00e+00	0	39	0	0	61	4665
2026-01-05 00:34:15.27	7.88	9.74	-44.6	-47.0	17.2	0.00e+00	0	39	0	0	60	4850
2026-01-05 00:34:16.27	7.82	9.83	-44.4	-46.7	17.5	0.00e+00	0	39	0	0	60	4660
2026-01-05 00:34:17.27	7.76	9.91	-44.4	-46.8	17.5	0.00e+00	0	39	0	0	60	4712
2026-01-05 00:34:18.28	7.70	9.99	-44.3	-46.6	17.6	0.00e+00	0	39	0	0	60	4619
2026-01-05 00:34:19.28	7.64	10.07	-44.3	-46.6	17.7	0.00e+00	0	39	0	0	60	4609
2026-01-05 00:34:20.28	7.58	10.15	-44.2	-46.4	17.8	0.00e+00	0	39	0	0	60	4514
2026-01-05 00:34:21.29	7.52	10.23	-44.3	-46.5	17.7	0.00e+00	0	39	0	0	60	4582
2026-01-05 00:34:22.29	7.46	10.32	-44.2	-46.4	17.8	0.00e+00	0	39	0	0	60	4544
2026-01-05 00:34:23.29	7.40	10.40	-44.2	-46.4	17.8	0.00e+00	0	39	0	0	60	4537
2026-01-05 00:34:24.29	7.34	10.48	-44.2	-46.4	17.9	0.00e+00	0	39	0	0	60	4501
2026-01-05 00:34:25.30	7.27	10.57	-44.2	-46.4	17.9	0.00e+00	0	39	0	0	60	4497
2026-01-05 00:34:26.30	7.21	10.65	-44.1	-46.3	17.9	0.00e+00	0	39	0	0	60	4484
2026-01-05 00:34:27.37	7.14	10.74	-44.2	-46.4	17.8	0.00e+00	0	39	0	0	60	4538
2026-01-05 00:34:28.26	7.09	10.81	-44.2	-46.4	17.9	0.00e+00	0	39	0	0	60	4508
2026-01-05 00:34:29.31	7.02	10.90	-44.2	-46.3	17.9	0.00e+00	0	39	0	0	60	4490
2026-01-05 00:34:30.22	6.96	10.98	-44.1	-46.2	18.0	0.00e+00	0	39	0	0	60	4441
2026-01-05 00:34:31.23	6.90	11.06	-44.1	-46.2	18.0	0.00e+00	0	39	0	0	60	4422
2026-01-05 00:34:32.57	6.81	11.18	-44.2	-46.3	17.9	0.00e+00	0	39	0	0	60	4490
2026-01-05 00:34:33.28	6.76	11.24	-44.2	-46.4	17.9	0.00e+00	0	39	0	0	60	4498
2026-01-05 00:34:34.57	6.68	11.35	-44.2	-46.4	17.9	0.00e+00	0	39	0	0	60	4512
2026-01-05 00:34:35.29	6.63	11.41	-44.2	-46.4	17.9	0.00e+00	0	39	0	0	60	4504
2026-01-05 00:34:36.58	6.54	11.52	-44.0	-46.2	18.0	0.00e+00	0	39	0	0	60	4406
2026-01-05 00:34:37.30	6.50	11.58	-44.1	-46.3	18.0	0.00e+00	0	39	0	0	60	4456
2026-01-05 00:34:38.58	6.41	11.69	-44.1	-46.2	18.0	0.00e+00	0	39	0	0	60	4434
2026-01-05 00:34:39.56	6.34	11.78	-44.0	-46.1	18.1	0.00e+00	0	39	0	0	60	4381
2026-01-05 00:34:40.56	6.27	11.86	-44.0	-46.2	18.1	0.00e+00	0	39	0	0	60	4419
2026-01-05 00:34:41.56	6.21	11.95	-44.1	-46.3	18.0	0.00e+00	0	39	0	0	60	4471
2026-01-05 00:34:42.56	6.14	12.04	-44.1	-46.2	18.1	0.00e+00	0	39	0	0	60	4428
2026-01-05 00:34:43.56	6.07	12.13	-44.0	-46.2	18.1	0.00e+00	0	39	0	0	59	4663
2026-01-05 00:34:44.57	6.00	12.21	-44.0	-46.1	18.1	0.00e+00	0	39	0	0	59	4637
2026-01-05 00:34:45.57	5.92	12.30	-44.0	-46.2	18.0	0.00e+00	0	39	0	0	59	4664
2026-01-05 00:34:46.57	5.85	12.39	-44.0	-46.2	18.0	0.00e+00	0	39	0	0	59	4653
2026-01-05 00:34:47.57	5.78	12.48	-43.9	-46.1	18.1	0.00e+00	0	39	0	0	59	4616
2026-01-05 00:34:48.58	5.71	12.57	-44.0	-46.2	18.1	0.00e+00	0	39	0	0	59	4658
2026-01-05 00:34:49.58	5.64	12.66	-44.0	-46.1	18.1	0.00e+00	0	39	0	0	59	4611
2026-01-05 00:34:50.58	5.56	12.75	-44.0	-46.1	18.2	0.00e+00	0	39	0	0	59	4623
2026-01-05 00:34:51.59	5.49	12.84	-43.8	-45.9	18.3	0.00e+00	0	39	0	0	59	4525
2026-01-05 00:34:52.59	5.42	12.93	-43.8	-45.9	18.3	0.00e+00	0	39	0	0	59	4526
2026-01-05 00:34:53.59	5.34	13.02	-43.8	-45.9	18.4	0.00e+00	0	39	0	0	59	4498
2026-01-05 00:34:54.85	5.25	13.14	-43.9	-45.9	18.3	0.00e+00	0	39	0	0	59	4527
2026-01-05 00:34:55.60	5.19	13.20	-43.8	-45.9	18.4	0.00e+00	0	39	0	0	59	4499
2026-01-05 00:34:57.19	5.07	13.35	-43.8	-45.8	18.4	0.00e+00	0	39	0	0	59	4488
2026-01-05 00:34:58.04	5.01	13.43	-43.7	-45.7	18.5	0.00e+00	0	39	0	0	59	4426
2026-01-05 00:34:59.18	4.92	13.53	-43.8	-45.8	18.5	0.00e+00	0	39	0	0	59	4457
2026-01-05 00:35:00.43	4.82	13.65	-43.7	-45.7	18.5	0.00e+00	0	39	0	0	59	4438
2026-01-05 00:35:01.28	4.76	13.73	-43.7	-45.7	18.5	0.00e+00	0	39	0	0	59	4423
2026-01-05 00:35:02.42	4.67	13.83	-43.7	-45.7	18.5	0.00e+00	0	39	0	0	59	4435
2026-01-05 00:35:03.28	4.60	13.91	-43.7	-45.8	18.5	0.00e+00	0	39	0	0	59	4442
2026-01-05 00:35:04.43	4.51	14.02	-43.7	-45.7	18.6	0.00e+00	0	39	0	0	59	4394
2026-01-05 00:35:05.29	4.44	14.10	-43.8	-45.8	18.5	0.00e+00	0	39	0	0	59	4469
2026-01-05 00:35:06.44	4.34	14.21	-43.8	-45.8	18.5	0.00e+00	0	39	0	0	59	4471
2026-01-05 00:35:07.30	4.27	14.29	-43.8	-45.7	18.5	0.00e+00	0	39	0	0	59	4439
2026-01-05 00:35:08.44	4.18	14.40	-43.8	-45.9	18.4	0.00e+00	0	39	0	0	59	4495
2026-01-05 00:35:09.30	4.11	14.48	-43.9	-46.0	18.3	0.00e+00	0	39	0	0	59	4549
2026-01-05 00:35:10.53	4.01	14.60	-44.0	-46.0	18.3	0.00e+00	0	39	0	0	59	4575
2026-01-05 00:35:11.39	3.94	14.68	-44.0	-46.1	18.3	0.00e+00	0	39	0	0	59	4605
2026-01-05 00:35:12.53	3.84	14.79	-44.0	-46.1	18.3	0.00e+00	0	39	0	0	59	4603
2026-01-05 00:35:13.39	3.77	14.87	-44.0	-46.1	18.2	0.00e+00	0	39	0	0	59	4621
2026-01-05 00:35:14.54	3.67	14.98	-43.9	-46.0	18.4	0.00e+00	0	39	0	0	59	4549
2026-01-05 00:35:15.40	3.60	15.07	-44.0	-46.0	18.3	0.00e+00	0	39	0	0	59	4591
2026-01-05 00:35:16.54	3.50	15.18	-44.0	-46.0	18.3	0.00e+00	0	39	0	0	59	4576
2026-01-05 00:35:17.40	3.42	15.26	-44.0	-46.0	18.3	0.00e+00	0	39	0	0	59	4573
2026-01-05 00:35:18.55	3.32	15.38	-44.0	-46.1	18.3	0.00e+00	0	39	0	0	59	4604
2026-01-05 00:35:19.41	3.25	15.46	-43.9	-45.9	18.5	7.60e-06	0	39	0	0	59	4523
2026-01-05 00:35:20.55	3.14	15.57	-44.0	-45.9	18.4	0.00e+00	0	39	0	0	59	4545
2026-01-05 00:35:21.42	3.07	15.66	-43.9	-45.9	18.5	0.00e+00	0	39	0	0	59	4519
2026-01-05 00:35:22.56	2.96	15.77	-43.9	-45.8	18.5	0.00e+00	0	39	0	0	59	4492
2026-01-05 00:35:23.42	2.89	15.86	-43.9	-45.9	18.5	0.00e+00	0	39	0	0	59	4497
2026-01-05 00:35:24.56	2.78	15.97	-43.9	-45.8	18.5	0.00e+00	0	39	0	0	59	4489
2026-01-05 00:35:25.42	2.70	16.06	-43.9	-45.8	18.6	0.00e+00	0	39	0	0	59	4475
2026-01-05 00:35:26.60	2.59	16.18	-43.8	-45.8	18.5	0.00e+00	0	39	0	0	59	4463
2026-01-05 00:35:27.46	2.51	16.27	-43.7	-45.7	18.6	0.00e+00	0	39	0	0	59	4423
2026-01-05 00:35:28.61	2.41	16.38	-43.8	-45.7	18.6	0.00e+00	0	39	0	0	59	4432
2026-01-05 00:35:29.47	2.32	16.47	-43.8	-45.8	18.6	9.10e-06	0	39	0	0	59	4458
2026-01-05 00:35:30.61	2.22	16.59	-43.7	-45.7	18.6	0.00e+00	0	39	0	0	59	4414
2026-01-05 00:35:31.47	2.13	16.67	-43.8	-45.7	18.6	0.00e+00	0	39	0	0	59	4433
2026-01-05 00:35:32.62	2.02	16.79	-43.9	-45.9	18.4	0.00e+00	0	39	0	0	59	4532
2026-01-05 00:35:33.48	1.94	16.88	-43.9	-45.9	18.4	0.00e+00	0	39	0	0	59	4500
2026-01-05 00:35:34.62	1.83	17.00	-44.0	-46.1	18.3	0.00e+00	0	39	0	0	59	4603
2026-01-05 00:35:35.48	1.74	17.09	-44.0	-46.0	18.3	0.00e+00	0	39	0	0	59	4576
2026-01-05 00:35:36.63	1.63	17.21	-44.1	-46.1	18.3	0.00e+00	0	39	0	0	59	4606
2026-01-05 00:35:37.49	1.54	17.30	-44.1	-46.1	18.2	0.00e+00	0	39	0	0	59	4647
2026-01-05 00:35:38.64	1.43	17.42	-44.1	-46.1	18.3	0.00e+00	0	39	0	0	59	4631
2026-01-05 00:35:39.82	1.31	17.54	-44.2	-46.3	18.1	0.00e+00	0	39	0	0	59	4715
2026-01-05 00:35:40.85	1.20	17.65	-44.3	-46.3	18.1	0.00e+00	0	39	0	0	59	4742
2026-01-05 00:35:41.85	1.10	17.76	-44.2	-46.3	18.1	0.00e+00	0	39	0	0	59	4710
2026-01-05 00:35:43.07	0.97	17.89	-44.2	-46.2	18.2	0.00e+00	0	39	0	0	59	4688
2026-01-05 00:35:43.94	0.88	17.98	-44.2	-46.2	18.2	0.00e+00	0	39	0	0	59	4673
2026-01-05 00:35:45.08	0.76	18.10	-44.3	-46.2	18.2	0.00e+00	0	39	0	0	59	4684
2026-01-05 00:35:45.94	0.67	18.20	-44.2	-46.2	18.2	0.00e+00	0	39	0	0	59	4673
2026-01-05 00:35:47.09	0.54	18.32	-44.2	-46.1	18.3	0.00e+00	0	39	0	0	59	4611
2026-01-05 00:35:47.95	0.45	18.41	-44.1	-46.1	18.3	0.00e+00	0	39	0	0	59	4602
2026-01-05 00:35:49.09	0.33	18.54	-44.2	-46.1	18.3	0.00e+00	0	39	0	0	59	4611
2026-01-05 00:35:49.95	0.23	18.63	-44.2	-46.1	18.3	0.00e+00	0	39	0	0	59	4603
2026-01-05 00:35:51.10	0.10	18.76	-44.2	-46.1	18.3	0.00e+00	0	39	0	0	59	4609
2026-01-05 00:35:51.96	0.01	18.85	-44.3	-46.2	18.2	0.00e+00	0	39	0	0	59	4653
2026-01-05 00:35:53.10	359.88	18.98	-44.1	-46.0	18.4	0.00e+00	0	39	0	0	59	4561
2026-01-05 00:35:53.96	359.78	19.07	-44.1	-46.1	18.3	7.32e-05	0	39	0	0	59	4599
2026-01-05 00:35:55.11	359.65	19.20	-44.2	-46.1	18.3	0.00e+00	0	39	0	0	59	4624
2026-01-05 00:35:56.03	359.55	19.30	-44.1	-46.0	18.4	9.99e-05	0	39	0	0	59	4574
2026-01-05 00:35:57.03	359.43	19.41	-44.1	-46.0	18.3	0.00e+00	0	39	0	0	59	4588
2026-01-05 00:35:58.04	359.31	19.53	-44.1	-46.0	18.3	0.00e+00	0	39	0	0	59	4584
2026-01-05 00:35:59.04	359.20	19.64	-44.0	-46.0	18.4	0.00e+00	0	39	0	0	59	4556
2026-01-05 00:36:00.04	359.08	19.75	-44.1	-46.1	18.3	0.00e+00	0	40	0	0	59	4609
2026-01-05 00:36:01.02	358.96	19.86	-44.0	-46.0	18.4	0.00e+00	0	39	0	0	59	4551
2026-01-05 00:36:02.03	358.84	19.98	-44.0	-45.9	18.5	0.00e+00	0	40	0	0	59	4512
2026-01-05 00:36:03.03	358.72	20.09	-43.8	-45.7	18.6	0.00e+00	0	40	0	0	59	4438
2026-01-05 00:36:04.03	358.60	20.21	-43.9	-45.8	18.6	0.00e+00	0	39	0	0	59	4466
2026-01-05 00:36:05.04	358.47	20.32	-43.7	-45.6	18.8	0.00e+00	0	39	0	0	59	4355
2026-01-05 00:36:06.04	358.35	20.44	-43.5	-45.3	19.1	7.40e-05	0	39	0	0	59	4226
2026-01-05 00:36:07.04	358.23	20.55	-43.4	-45.2	19.2	0.00e+00	0	39	0	0	58	4395
2026-01-05 00:36:08.04	358.10	20.67	-43.3	-45.1	19.2	0.00e+00	0	39	0	0	58	4367
2026-01-05 00:36:09.05	357.97	20.79	-43.2	-44.9	19.4	0.00e+00	0	40	0	0	58	4284
2026-01-05 00:36:10.05	357.84	20.90	-43.1	-44.9	19.5	0.00e+00	0	40	0	0	58	4251
2026-01-05 00:36:11.05	357.72	21.02	-42.9	-44.6	19.6	0.00e+00	0	39	0	0	57	4369
2026-01-05 00:36:12.05	357.59	21.14	-42.9	-44.7	19.6	0.00e+00	0	39	0	0	57	4409
2026-01-05 00:36:13.06	357.45	21.26	-42.9	-44.6	19.6	0.00e+00	0	39	0	0	57	4384
2026-01-05 00:36:14.44	357.27	21.42	-42.8	-44.6	19.6	0.00e+00	0	39	0	0	57	4361
2026-01-05 00:36:15.19	357.17	21.51	-42.9	-44.6	19.5	0.00e+00	0	40	0	0	57	4389
2026-01-05 00:36:16.48	357.00	21.67	-42.9	-44.7	19.6	0.00e+00	0	39	0	0	57	4405
2026-01-05 00:36:17.20	356.90	21.75	-42.7	-44.5	19.7	0.00e+00	0	39	0	0	57	4326
2026-01-05 00:36:18.48	356.73	21.90	-42.7	-44.5	19.8	0.00e+00	0	39	0	0	57	4317
2026-01-05 00:36:19.20	356.63	21.99	-42.8	-44.6	19.7	0.00e+00	0	39	0	0	57	4366
2026-01-05 00:36:20.49	356.45	22.15	-42.8	-44.6	19.7	0.00e+00	0	39	0	0	57	4348
2026-01-05 00:36:21.21	356.35	22.23	-42.7	-44.5	19.8	0.00e+00	0	39	0	0	57	4318
2026-01-05 00:36:22.50	356.17	22.39	-42.7	-44.4	19.9	0.00e+00	0	39	0	0	57	4271
2026-01-05 00:36:23.21	356.07	22.48	-42.6	-44.4	20.0	0.00e+00	0	39	0	0	57	4243
2026-01-05 00:36:24.50	355.88	22.64	-42.7	-44.5	19.9	0.00e+00	0	39	0	0	57	4302
2026-01-05 00:36:25.22	355.78	22.72	-42.6	-44.3	20.0	0.00e+00	0	39	0	0	57	4213
2026-01-05 00:36:26.51	355.59	22.88	-42.5	-44.2	20.1	0.00e+00	0	39	0	0	57	4181
2026-01-05 00:36:27.22	355.49	22.97	-42.6	-44.3	20.0	0.00e+00	0	39	0	0	57	4199
2026-01-05 00:36:28.51	355.30	23.13	-42.5	-44.2	20.1	0.00e+00	0	39	0	0	56	4401
2026-01-05 00:36:29.23	355.19	23.22	-42.5	-44.2	20.1	0.00e+00	0	39	0	0	56	4410
2026-01-05 00:36:30.52	355.00	23.38	-42.5	-44.3	20.0	0.00e+00	0	39	0	0	56	4453
2026-01-05 00:36:31.24	354.89	23.47	-42.4	-44.2	20.1	0.00e+00	0	39	0	0	56	4396
2026-01-05 00:36:32.53	354.69	23.63	-42.5	-44.3	20.0	9.46e-05	0	39	0	0	56	4442
2026-01-05 00:36:33.24	354.58	23.72	-42.4	-44.2	20.1	0.00e+00	0	39	0	0	56	4421
2026-01-05 00:36:34.54	354.38	23.89	-42.4	-44.2	20.1	0.00e+00	0	39	0	0	56	4398
2026-01-05 00:36:35.26	354.27	23.98	-42.5	-44.3	19.9	0.00e+00	0	39	0	0	56	4478
2026-01-05 00:36:36.54	354.07	24.14	-42.5	-44.4	19.9	0.00e+00	0	39	0	0	56	4497
2026-01-05 00:36:37.26	353.95	24.23	-42.7	-44.5	19.8	0.00e+00	0	39	0	0	56	4566
2026-01-05 00:36:38.54	353.75	24.40	-42.7	-44.6	19.8	0.00e+00	0	39	0	0	56	4602
2026-01-05 00:36:39.26	353.63	24.49	-42.7	-44.5	19.8	0.00e+00	0	39	0	0	56	4558
2026-01-05 00:36:40.55	353.42	24.65	-42.8	-44.6	19.8	0.00e+00	0	39	0	0	56	4601
2026-01-05 00:36:41.27	353.30	24.75	-42.8	-44.5	19.8	0.00e+00	0	39	0	0	56	4595
2026-01-05 00:36:42.55	353.09	24.91	-42.7	-44.4	20.0	0.00e+00	0	39	0	0	56	4501
2026-01-05 00:36:43.27	352.97	25.01	-42.7	-44.5	19.9	0.00e+00	0	39	0	0	56	4552
2026-01-05 00:36:44.56	352.75	25.17	-42.8	-44.4	19.9	0.00e+00	0	39	0	0	56	4545
2026-01-05 00:36:45.28	352.63	25.27	-42.8	-44.5	19.9	0.00e+00	0	39	0	0	56	4577
2026-01-05 00:36:46.57	352.41	25.44	-42.8	-44.5	19.8	0.00e+00	0	39	0	0	56	4588
2026-01-05 00:36:47.29	352.28	25.53	-42.9	-44.6	19.7	0.00e+00	0	39	0	0	56	4638
2026-01-05 00:36:48.78	352.02	25.73	-43.1	-44.8	19.6	0.00e+00	0	39	0	0	56	4727
2026-01-05 00:36:49.50	351.90	25.82	-43.1	-44.8	19.6	0.00e+00	0	39	0	0	56	4731
2026-01-05 00:36:50.79	351.67	25.99	-43.1	-44.9	19.5	0.00e+00	0	40	0	0	56	4767
2026-01-05 00:36:51.50	351.54	26.09	-43.2	-45.0	19.4	0.00e+00	0	40	0	0	57	4561
2026-01-05 00:36:52.79	351.31	26.26	-43.2	-45.0	19.4	0.00e+00	0	39	0	0	57	4588
2026-01-05 00:36:53.51	351.18	26.35	-43.3	-45.1	19.3	0.00e+00	0	39	0	0	57	4643
2026-01-05 00:36:54.80	350.94	26.53	-43.4	-45.3	19.2	6.10e-06	0	39	0	0	57	4707
2026-01-05 00:36:55.51	350.81	26.62	-43.4	-45.2	19.3	0.00e+00	0	39	0	0	57	4662
2026-01-05 00:36:56.80	350.57	26.79	-43.5	-45.3	19.2	3.43e-05	0	39	0	0	57	4719
2026-01-05 00:36:57.59	350.42	26.90	-43.4	-45.2	19.2	0.00e+00	0	39	0	0	57	4685
2026-01-05 00:36:58.74	350.20	27.06	-43.5	-45.3	19.1	0.00e+00	0	39	0	0	57	4739
2026-01-05 00:36:59.81	349.99	27.20	-43.4	-45.2	19.2	0.00e+00	0	39	0	0	57	4670
2026-01-05 00:37:00.84	349.79	27.34	-43.5	-45.3	19.0	0.00e+00	0	39	0	0	57	4743
2026-01-05 00:37:01.84	349.60	27.48	-43.6	-45.4	18.9	0.00e+00	0	39	0	0	57	4793
2026-01-05 00:37:02.84	349.40	27.61	-43.8	-45.7	18.7	0.00e+00	0	40	0	0	58	4652
2026-01-05 00:37:03.85	349.20	27.75	-44.0	-45.9	18.5	0.00e+00	0	39	0	0	58	4780
2026-01-05 00:37:04.85	349.00	27.89	-44.1	-46.0	18.5	0.00e+00	0	40	0	0	58	4854
2026-01-05 00:37:05.85	348.79	28.02	-44.2	-46.1	18.4	0.00e+00	0	39	0	0	59	4634
2026-01-05 00:37:06.85	348.59	28.16	-44.1	-46.0	18.5	0.00e+00	0	39	0	0	59	4579
2026-01-05 00:37:07.86	348.38	28.30	-43.9	-45.8	18.8	0.00e+00	0	39	0	0	59	4466
2026-01-05 00:37:08.86	348.17	28.44	-43.9	-45.7	18.8	0.00e+00	0	39	0	0	59	4437
2026-01-05 00:37:09.86	347.96	28.58	-43.7	-45.6	19.0	0.00e+00	0	39	0	0	59	4347
2026-01-05 00:37:10.87	347.75	28.72	-43.7	-45.5	19.0	0.00e+00	0	39	0	0	59	4333
2026-01-05 00:37:11.87	347.54	28.85	-43.7	-45.5	19.0	0.00e+00	0	39	0	0	59	4316
2026-01-05 00:37:12.87	347.32	28.99	-43.7	-45.5	18.9	0.00e+00	0	39	0	0	59	4338
2026-01-05 00:37:13.87	347.11	29.13	-43.9	-45.7	18.7	0.00e+00	0	39	0	0	59	4413
2026-01-05 00:37:14.88	346.88	29.27	-43.9	-45.8	18.6	0.00e+00	0	39	0	0	59	4459
2026-01-05 00:37:15.88	346.66	29.41	-44.0	-45.9	18.5	0.00e+00	0	39	0	0	59	4532
2026-01-05 00:37:16.89	346.44	29.55	-44.0	-45.9	18.6	0.00e+00	0	39	0	0	59	4496
2026-01-05 00:37:17.89	346.21	29.69	-43.8	-45.7	18.8	0.00e+00	0	39	0	0	59	4414
2026-01-05 00:37:18.88	345.99	29.83	-43.7	-45.6	18.9	8.30e-06	0	39	0	0	59	4357
2026-01-05 00:37:19.89	345.76	29.97	-43.6	-45.4	19.1	0.00e+00	0	39	0	0	59	4274
2026-01-05 00:37:20.89	345.53	30.11	-43.5	-45.2	19.3	0.00e+00	0	39	0	0	58	4431
2026-01-05 00:37:21.90	345.29	30.26	-43.6	-45.4	19.1	0.00e+00	0	40	0	0	58	4509
2026-01-05 00:37:22.90	345.05	30.40	-43.6	-45.4	19.1	0.00e+00	0	39	0	0	58	4505
2026-01-05 00:37:23.90	344.82	30.54	-43.7	-45.5	18.9	0.00e+00	0	40	0	0	58	4597
2026-01-05 00:37:24.90	344.58	30.68	-43.7	-45.6	18.9	0.00e+00	0	40	0	0	58	4604
2026-01-05 00:37:25.95	344.32	30.83	-43.8	-45.6	18.9	0.00e+00	0	39	0	0	58	4619
2026-01-05 00:37:26.91	344.09	30.96	-43.8	-45.7	18.8	0.00e+00	0	39	0	0	58	4659
2026-01-05 00:37:27.91	343.84	31.11	-43.6	-45.5	19.0	0.00e+00	0	39	0	0	58	4555
2026-01-05 00:37:28.91	343.60	31.25	-43.6	-45.5	19.0	0.00e+00	0	39	0	0	58	4548
2026-01-05 00:37:29.91	343.35	31.39	-43.5	-45.3	19.2	0.00e+00	0	40	0	0	58	4491
2026-01-05 00:37:30.91	343.09	31.53	-43.4	-45.3	19.3	0.00e+00	0	39	0	0	58	4443
2026-01-05 00:37:31.91	342.84	31.67	-43.5	-45.3	19.2	0.00e+00	0	40	0	0	58	4474
2026-01-05 00:37:32.91	342.58	31.81	-43.5	-45.3	19.1	0.00e+00	0	39	0	0	58	4489
2026-01-05 00:37:33.92	342.32	31.96	-43.5	-45.4	19.1	0.00e+00	0	39	0	0	58	4506
2026-01-05 00:37:34.92	342.06	32.10	-43.5	-45.4	19.1	0.00e+00	0	39	0	0	58	4508
2026-01-05 00:37:35.92	341.79	32.24	-43.4	-45.3	19.1	0.00e+00	0	39	0	0	58	4484
2026-01-05 00:37:36.92	341.53	32.38	-43.4	-45.3	19.1	0.00e+00	0	39	0	0	58	4477
2026-01-05 00:37:37.93	341.26	32.52	-43.5	-45.4	19.1	0.00e+00	0	39	0	0	58	4505
2026-01-05 00:37:38.93	340.99	32.67	-43.6	-45.5	19.0	0.00e+00	0	39	0	0	58	4571
2026-01-05 00:37:39.93	340.71	32.81	-43.6	-45.5	19.0	0.00e+00	0	39	0	0	58	4563
2026-01-05 00:37:40.93	340.44	32.95	-43.6	-45.5	19.1	0.00e+00	0	39	0	0	58	4550
2026-01-05 00:37:41.93	340.16	33.09	-43.6	-45.4	19.1	0.00e+00	0	39	0	0	58	4509
2026-01-05 00:37:42.93	339.88	33.23	-43.6	-45.4	19.1	0.00e+00	0	40	0	0	58	4509
2026-01-05 00:37:43.94	339.59	33.37	-43.7	-45.5	19.0	0.00e+00	0	39	0	0	58	4571
2026-01-05 00:37:44.94	339.31	33.51	-43.9	-45.8	18.7	0.00e+00	0	40	0	0	58	4738
2026-01-05 00:37:45.94	339.02	33.66	-44.0	-45.9	18.6	0.00e+00	0	39	0	0	58	4776
2026-01-05 00:37:46.94	338.73	33.80	-44.2	-46.1	18.4	0.00e+00	0	39	0	0	59	4621
2026-01-05 00:37:47.95	338.43	33.94	-44.3	-46.2	18.3	0.00e+00	0	39	0	0	59	4695
2026-01-05 00:37:48.95	338.13	34.08	-44.5	-46.5	18.1	0.00e+00	0	39	0	0	59	4818
2026-01-05 00:37:49.95	337.84	34.22	-44.6	-46.5	18.1	0.00e+00	0	39	0	0	59	4854
2026-01-05 00:37:50.97	337.53	34.36	-44.6	-46.6	18.0	0.00e+00	0	39	0	0	59	4877
2026-01-05 00:37:52.00	337.22	34.50	-44.6	-46.6	18.0	0.00e+00	0	39	0	0	59	4912
2026-01-05 00:37:53.00	336.91	34.64	-44.6	-46.6	18.0	0.00e+00	0	39	0	0	59	4922
2026-01-05 00:37:54.00	336.60	34.78	-44.6	-46.8	17.9	0.00e+00	0	40	0	0	60	4721
2026-01-05 00:37:55.00	336.29	34.92	-44.5	-46.6	18.1	0.00e+00	0	39	0	0	60	4647
2026-01-05 00:37:56.00	335.97	35.06	-44.4	-46.6	18.2	0.00e+00	0	39	0	0	60	4599
2026-01-05 00:37:57.01	335.65	35.20	-44.5	-46.6	18.1	0.00e+00	0	39	0	0	60	4632
2026-01-05 00:37:58.01	335.33	35.33	-44.7	-46.7	18.0	0.00e+00	0	40	0	0	60	4700
2026-01-05 00:37:59.01	335.01	35.47	-44.8	-46.9	17.9	0.00e+00	0	39	0	0	60	4773
2026-01-05 00:38:00.01	334.68	35.61	-44.9	-46.9	17.8	0.00e+00	0	39	0	0	60	4814
2026-01-05 00:38:01.00	334.36	35.74	-44.9	-46.9	17.9	0.00e+00	0	39	0	0	60	4778
2026-01-05 00:38:02.01	334.03	35.88	-45.1	-47.1	17.7	0.00e+00	0	39	0	0	60	4879
2026-01-05 00:38:03.01	333.69	36.01	-45.2	-47.3	17.5	0.00e+00	0	39	0	0	61	4721
2026-01-05 00:38:04.01	333.36	36.15	-45.4	-47.4	17.3	0.00e+00	0	39	0	0	61	4792
2026-01-05 00:38:05.02	333.01	36.28	-45.5	-47.6	17.2	0.00e+00	0	40	0	0	61	4884
2026-01-05 00:38:06.02	332.67	36.42	-45.5	-47.6	17.2	0.00e+00	0	39	0	0	61	4898
2026-01-05 00:38:07.02	332.33	36.55	-45.4	-47.5	17.3	0.00e+00	0	40	0	0	61	4819
2026-01-05 00:38:08.03	331.97	36.68	-45.1	-47.2	17.5	0.00e+00	0	39	0	0	61	4692
2026-01-05 00:38:09.03	331.62	36.81	-45.0	-47.1	17.5	0.00e+00	0	40	0	0	61	4629
2026-01-05 00:38:10.03	331.27	36.94	-45.0	-47.1	17.5	0.00e+00	0	39	0	0	61	4638
2026-01-05 00:38:11.04	330.91	37.07	-45.2	-47.4	17.4	0.00e+00	0	39	0	0	61	4761
2026-01-05 00:38:12.04	330.55	37.20	-45.1	-47.2	17.5	0.00e+00	0	39	0	0	61	4704
2026-01-05 00:38:13.04	330.19	37.33	-45.1	-47.2	17.5	0.00e+00	0	39	0	0	61	4663
2026-01-05 00:38:14.04	329.82	37.46	-45.1	-47.1	17.5	0.00e+00	0	39	0	0	61	4651
2026-01-05 00:38:15.04	329.46	37.58	-45.1	-47.1	17.5	0.00e+00	0	39	0	0	61	4630
2026-01-05 00:38:16.04	329.09	37.71	-45.2	-47.2	17.5	0.00e+00	0	39	0	0	61	4678
2026-01-05 00:38:17.05	328.71	37.83	-45.3	-47.4	17.3	0.00e+00	0	39	0	0	61	4788
2026-01-05 00:38:18.05	328.33	37.96	-45.3	-47.4	17.3	0.00e+00	0	39	0	0	61	4785
2026-01-05 00:38:19.05	327.95	38.08	-45.2	-47.3	17.4	0.00e+00	0	39	0	0	61	4722
2026-01-05 00:38:20.05	327.57	38.20	-45.1	-47.1	17.5	0.00e+00	0	39	0	0	61	4651
2026-01-05 00:38:21.06	327.18	38.32	-44.8	-46.9	17.7	0.00e+00	0	39	0	0	61	4527
2026-01-05 00:38:22.06	326.79	38.44	-44.9	-47.0	17.6	0.00e+00	0	39	0	0	61	4567
2026-01-05 00:38:23.16	326.36	38.57	-45.0	-47.3	17.4	0.00e+00	0	39	0	0	61	4706
2026-01-05 00:38:24.03	326.02	38.68	-45.0	-47.3	17.3	0.00e+00	0	40	0	0	61	4728
2026-01-05 00:38:25.18	325.56	38.81	-45.3	-47.5	17.2	0.00e+00	0	39	0	0	61	4860
2026-01-05 00:38:26.13	325.18	38.92	-45.3	-47.5	17.3	0.00e+00	0	39	0	0	61	4831
2026-01-05 00:38:27.31	324.71	39.05	-45.4	-47.6	17.2	0.00e+00	0	40	0	0	61	4872
2026-01-05 00:38:28.17	324.36	39.15	-45.5	-47.7	17.0	0.00e+00	0	40	0	0	61	4946
2026-01-05 00:38:29.54	323.80	39.30	-45.8	-48.0	16.6	0.00e+00	0	39	0	0	62	4859
2026-01-05 00:38:30.25	323.51	39.38	-45.9	-48.1	16.5	0.00e+00	0	39	0	0	62	4917
2026-01-05 00:38:31.54	322.97	39.52	-46.3	-48.6	16.2	0.00e+00	0	39	0	0	63	4878
2026-01-05 00:38:32.26	322.67	39.59	-46.1	-48.4	16.4	0.00e+00	0	40	0	0	63	4786
2026-01-05 00:38:33.54	322.13	39.73	-46.0	-48.2	16.6	9.07e-05	0	40	0	0	63	4697
2026-01-05 00:38:34.26	321.83	39.80	-46.1	-48.4	16.4	0.00e+00	0	40	0	0	63	4767
2026-01-05 00:38:35.55	321.28	39.94	-46.2	-48.6	16.2	0.00e+00	0	39	0	0	63	4872
2026-01-05 00:38:36.27	320.97	40.01	-46.3	-48.8	16.1	0.00e+00	0	39	0	0	63	4985
2026-01-05 00:38:37.56	320.42	40.14	-46.4	-48.8	16.1	0.00e+00	0	39	0	0	63	4987
2026-01-05 00:38:38.27	320.11	40.21	-46.3	-48.7	16.2	0.00e+00	0	39	0	0	63	4940
2026-01-05 00:38:39.56	319.54	40.33	-46.2	-48.5	16.3	0.00e+00	0	39	0	0	63	4838
2026-01-05 00:38:40.28	319.23	40.40	-46.4	-48.7	16.1	0.00e+00	0	39	0	0	63	4977
2026-01-05 00:38:41.57	318.66	40.52	-46.4	-48.6	16.2	0.00e+00	0	39	0	0	63	4916
2026-01-05 00:38:42.28	318.34	40.58	-46.1	-48.4	16.5	0.00e+00	0	40	0	0	63	4766
2026-01-05 00:38:43.57	317.77	40.70	-46.0	-48.1	16.7	0.00e+00	0	39	0	0	63	4648
2026-01-05 00:38:44.29	317.44	40.76	-45.8	-47.9	16.9	0.00e+00	0	39	0	0	63	4510
2026-01-05 00:38:45.58	316.86	40.87	-45.7	-47.8	17.0	0.00e+00	0	40	0	0	63	4444
2026-01-05 00:38:46.30	316.54	40.93	-45.7	-47.9	16.9	0.00e+00	0	40	0	0	63	4494
2026-01-05 00:38:47.59	315.95	41.04	-45.8	-47.9	16.9	0.00e+00	0	39	0	0	63	4502
2026-01-05 00:38:48.30	315.62	41.10	-45.8	-47.9	16.8	0.00e+00	0	39	0	0	63	4509
2026-01-05 00:38:49.59	315.03	41.20	-45.9	-48.1	16.7	0.00e+00	0	39	0	0	63	4616
2026-01-05 00:38:50.30	314.70	41.25	-45.9	-48.1	16.7	0.00e+00	0	39	0	0	63	4609
2026-01-05 00:38:51.59	314.10	41.35	-45.7	-47.9	16.9	0.00e+00	0	40	0	0	63	4515
2026-01-05 00:38:52.31	313.76	41.40	-45.6	-47.7	17.0	0.00e+00	0	40	0	0	63	4437
2026-01-05 00:38:53.60	313.16	41.49	-45.3	-47.3	17.5	0.00e+00	0	40	0	0	62	4472
2026-01-05 00:38:54.31	312.82	41.54	-45.2	-47.2	17.5	0.00e+00	0	39	0	0	62	4439
2026-01-05 00:38:55.68	312.17	41.63	-45.3	-47.4	17.3	0.00e+00	0	39	0	0	62	4506
2026-01-05 00:38:56.40	311.83	41.67	-45.4	-47.4	17.3	0.00e+00	0	39	0	0	62	4543
2026-01-05 00:38:57.75	311.19	41.76	-45.4	-47.4	17.3	2.21e-05	0	39	0	0	62	4518
2026-01-05 00:38:58.47	310.84	41.80	-45.3	-47.3	17.4	0.00e+00	0	39	0	0	62	4484
2026-01-05 00:38:59.75	310.22	41.87	-45.3	-47.3	17.4	0.00e+00	0	40	0	0	62	4459
2026-01-05 00:39:00.47	309.88	41.91	-45.4	-47.5	17.1	0.00e+00	0	39	0	0	62	4554
2026-01-05 00:39:01.76	309.25	41.98	-45.7	-47.9	16.6	0.00e+00	0	39	0	0	62	4787
2026-01-05 00:39:02.47	308.91	42.02	-45.9	-48.1	16.5	0.00e+00	0	39	0	0	62	4926
2026-01-05 00:39:03.76	308.28	42.08	-46.0	-48.1	16.5	0.00e+00	0	40	0	0	62	4919
2026-01-05 00:39:04.48	307.93	42.11	-46.0	-48.2	16.4	0.00e+00	0	39	0	0	62	4971
2026-01-05 00:39:05.77	307.29	42.17	-46.0	-48.2	16.4	0.00e+00	0	39	0	0	62	4961
2026-01-05 00:39:06.56	306.90	42.20	-46.3	-48.6	16.1	0.00e+00	0	39	0	0	63	4891
2026-01-05 00:39:07.71	306.34	42.25	-46.5	-48.8	15.9	0.00e+00	0	39	0	0	63	5011
2026-01-05 00:39:08.57	305.91	42.28	-46.5	-48.8	15.9	0.00e+00	0	39	0	0	63	5028
2026-01-05 00:39:09.71	305.35	42.32	-46.6	-48.9	15.8	1.75e-05	0	39	0	0	63	5097
2026-01-05 00:39:10.84	304.79	42.35	-46.6	-49.0	15.8	0.00e+00	0	40	0	0	63	5134
2026-01-05 00:39:11.70	304.36	42.38	-46.6	-48.9	15.9	0.00e+00	0	39	0	0	63	5074
2026-01-05 00:39:12.85	303.79	42.41	-46.5	-48.8	16.0	0.00e+00	0	39	0	0	63	5035
2026-01-05 00:39:13.71	303.36	42.43	-46.2	-48.4	16.4	0.00e+00	0	39	0	0	63	4809
2026-01-05 00:39:14.86	302.78	42.45	-45.9	-48.0	16.7	0.00e+00	0	40	0	0	63	4591
2026-01-05 00:39:15.72	302.35	42.47	-46.1	-48.3	16.4	0.00e+00	0	39	0	0	63	4731
2026-01-05 00:39:16.89	301.76	42.49	-46.2	-48.4	16.3	0.00e+00	0	39	0	0	63	4779
2026-01-05 00:39:17.75	301.33	42.50	-46.1	-48.3	16.4	0.00e+00	0	39	0	0	63	4738
2026-01-05 00:39:18.90	300.76	42.52	-46.2	-48.4	16.2	0.00e+00	0	40	0	0	63	4806
2026-01-05 00:39:19.76	300.32	42.52	-46.2	-48.4	16.3	0.00e+00	0	39	0	0	63	4770
2026-01-05 00:39:21.03	299.69	42.53	-46.0	-48.2	16.5	0.00e+00	0	40	0	0	63	4691
2026-01-05 00:39:21.76	299.32	42.54	-45.9	-48.1	16.6	0.00e+00	0	39	0	0	63	4637
2026-01-05 00:39:23.24	298.57	42.54	-45.8	-47.9	16.8	0.00e+00	0	39	0	0	63	4524
2026-01-05 00:39:23.96	298.21	42.54	-45.7	-47.9	16.8	0.00e+00	0	39	0	0	63	4516
2026-01-05 00:39:25.25	297.56	42.53	-46.1	-48.3	16.5	0.00e+00	0	40	0	0	63	4746
2026-01-05 00:39:25.96	297.21	42.53	-46.3	-48.6	16.2	0.00e+00	0	40	0	0	63	4920
2026-01-05 00:39:27.25	296.56	42.52	-46.4	-48.7	16.1	0.00e+00	0	40	0	0	63	4961
2026-01-05 00:39:27.97	296.20	42.51	-46.3	-48.5	16.3	0.00e+00	0	39	0	0	63	4839
2026-01-05 00:39:29.26	295.55	42.49	-45.7	-47.7	17.0	0.00e+00	0	39	0	0	63	4433
2026-01-05 00:39:29.97	295.19	42.48	-45.5	-47.5	17.1	0.00e+00	0	40	0	0	63	4338
2026-01-05 00:39:31.26	294.55	42.46	-45.6	-47.7	17.0	0.00e+00	0	39	0	0	62	4682
2026-01-05 00:39:31.98	294.19	42.44	-45.6	-47.7	17.1	0.00e+00	0	39	0	0	62	4657
2026-01-05 00:39:33.27	293.54	42.41	-45.6	-47.7	17.1	0.00e+00	0	39	0	0	62	4662
2026-01-05 00:39:34.08	293.14	42.39	-45.8	-47.9	16.9	0.00e+00	0	39	0	0	62	4772
2026-01-05 00:39:35.55	292.41	42.35	-46.3	-48.5	16.3	0.00e+00	0	39	0	0	63	4840
2026-01-05 00:39:36.26	292.05	42.33	-46.1	-48.4	16.5	0.00e+00	0	40	0	0	63	4760
2026-01-05 00:39:37.55	291.41	42.28	-45.8	-47.9	17.0	0.00e+00	0	40	0	0	63	4501
2026-01-05 00:39:38.26	291.06	42.26	-45.8	-47.9	16.9	0.00e+00	0	39	0	0	63	4506
2026-01-05 00:39:39.55	290.43	42.21	-46.0	-48.1	16.7	0.00e+00	0	39	0	0	63	4645
2026-01-05 00:39:40.26	290.08	42.18	-46.1	-48.3	16.6	0.00e+00	0	40	0	0	63	4715
2026-01-05 00:39:41.55	289.44	42.12	-46.1	-48.4	16.5	0.00e+00	0	39	0	0	63	4766
2026-01-05 00:39:42.27	289.09	42.09	-46.0	-48.2	16.7	0.00e+00	0	39	0	0	63	4674
2026-01-05 00:39:43.55	288.46	42.03	-45.9	-48.1	16.7	0.00e+00	0	39	0	0	63	4615
2026-01-05 00:39:44.27	288.11	41.99	-45.8	-47.9	16.9	0.00e+00	0	39	0	0	63	4518
2026-01-05 00:39:45.56	287.49	41.92	-46.0	-48.2	16.6	0.00e+00	0	39	0	0	63	4695
2026-01-05 00:39:46.27	287.14	41.88	-46.0	-48.2	16.6	0.00e+00	0	39	0	0	63	4675
2026-01-05 00:39:47.57	286.52	41.81	-46.1	-48.2	16.5	0.00e+00	0	39	0	0	63	4699
2026-01-05 00:39:48.28	286.18	41.77	-46.0	-48.2	16.6	0.00e+00	0	39	0	0	63	4677
2026-01-05 00:39:49.57	285.56	41.69	-46.3	-48.6	16.2	0.00e+00	0	39	0	0	63	4875
2026-01-05 00:39:50.29	285.22	41.64	-46.3	-48.6	16.2	0.00e+00	0	40	0	0	63	4875
2026-01-05 00:39:51.57	284.61	41.56	-46.3	-48.6	16.1	0.00e+00	0	40	0	0	63	4910
2026-01-05 00:39:52.29	284.27	41.51	-46.2	-48.5	16.2	0.00e+00	0	39	0	0	63	4816
2026-01-05 00:39:53.58	283.66	41.42	-46.5	-48.9	15.8	0.00e+00	0	39	0	0	63	5042
2026-01-05 00:39:54.29	283.33	41.37	-46.6	-49.0	15.7	0.00e+00	0	40	0	0	63	5116
2026-01-05 00:39:55.58	282.73	41.27	-46.6	-48.9	15.9	0.00e+00	0	39	0	0	63	5077
2026-01-05 00:39:56.30	282.39	41.22	-46.5	-48.7	16.1	0.00e+00	0	39	0	0	63	4981
2026-01-05 00:39:57.59	281.79	41.12	-46.1	-48.3	16.6	0.00e+00	0	39	0	0	63	4747
2026-01-05 00:39:58.48	281.39	41.05	-45.9	-48.0	16.8	0.00e+00	0	39	0	0	63	4596
2026-01-05 00:39:59.53	280.90	40.96	-45.4	-47.5	17.3	0.00e+00	0	40	0	0	62	4555
2026-01-05 00:40:00.45	280.49	40.89	-45.2	-47.2	17.6	0.00e+00	0	40	0	0	62	4411
2026-01-05 00:40:01.45	280.03	40.80	-45.2	-47.2	17.5	0.00e+00	0	39	0	0	62	4431
2026-01-05 00:40:02.45	279.58	40.71	-45.3	-47.4	17.3	0.00e+00	0	40	0	0	62	4519
2026-01-05 00:40:03.46	279.13	40.62	-45.7	-47.8	16.8	0.00e+00	0	39	0	0	62	4729
2026-01-05 00:40:04.46	278.68	40.53	-46.0	-48.1	16.5	0.00e+00	0	39	0	0	62	4912
2026-01-05 00:40:05.46	278.24	40.44	-45.7	-47.8	17.0	0.00e+00	0	39	0	0	62	4706
2026-01-05 00:40:06.46	277.80	40.35	-45.2	-47.3	17.3	0.00e+00	0	39	0	0	62	4448
2026-01-05 00:40:07.46	277.36	40.25	-44.8	-46.8	17.7	0.00e+00	0	40	0	0	61	4460
2026-01-05 00:40:08.47	276.92	40.15	-44.7	-46.6	17.9	0.00e+00	0	40	0	0	61	4372
2026-01-05 00:40:09.47	276.49	40.05	-44.9	-46.8	17.7	0.00e+00	0	39	0	0	61	4488
2026-01-05 00:40:10.47	276.06	39.95	-45.3	-47.4	17.2	0.00e+00	0	39	0	0	61	4761
2026-01-05 00:40:11.48	275.63	39.85	-45.9	-48.1	16.4	0.00e+00	0	40	0	0	62	4921
2026-01-05 00:40:12.48	275.20	39.75	-46.5	-48.8	15.6	0.00e+00	0	39	0	0	63	5034
2026-01-05 00:40:13.49	274.78	39.64	-46.6	-49.1	15.3	0.00e+00	0	40	0	0	63	5168
2026-01-05 00:40:14.49	274.36	39.53	-46.1	-48.4	15.9	0.00e+00	0	40	0	0	63	4809
2026-01-05 00:40:15.49	273.94	39.43	-45.8	-48.0	16.4	0.00e+00	0	39	0	0	63	4557
2026-01-05 00:40:16.49	273.53	39.32	-45.6	-47.8	16.7	0.00e+00	0	40	0	0	63	4447
2026-01-05 00:40:17.50	273.11	39.20	-45.5	-47.6	17.0	0.00e+00	0	39	0	0	63	4384
2026-01-05 00:40:18.50	272.70	39.09	-45.5	-47.7	17.1	0.00e+00	0	40	0	0	63	4409
2026-01-05 00:40:19.50	272.30	38.98	-45.8	-48.0	16.9	0.00e+00	0	39	0	0	63	4549
2026-01-05 00:40:20.50	271.89	38.86	-45.9	-48.2	16.7	0.00e+00	0	39	0	0	63	4664
2026-01-05 00:40:21.58	271.46	38.74	-45.8	-48.0	16.8	0.00e+00	0	39	0	0	63	4574
2026-01-05 00:40:22.44	271.12	38.64	-45.8	-48.0	16.7	5.56e-05	0	39	0	0	63	4567
2026-01-05 00:40:23.59	270.67	38.50	-45.5	-47.7	17.0	0.00e+00	0	40	0	0	62	4661
2026-01-05 00:40:24.45	270.33	38.40	-45.4	-47.6	17.1	0.00e+00	0	40	0	0	62	4645
2026-01-05 00:40:25.60	269.89	38.26	-45.7	-47.9	16.9	0.00e+00	0	39	0	0	62	4787
2026-01-05 00:40:26.62	269.49	38.14	-46.1	-48.4	16.4	0.00e+00	0	39	0	0	62	5051
2026-01-05 00:40:27.79	269.05	38.00	-46.5	-49.0	15.9	0.00e+00	0	40	0	0	63	5108
2026-01-05 00:40:28.65	268.72	37.89	-46.5	-48.9	16.0	0.00e+00	0	40	0	0	63	5094
2026-01-05 00:40:30.01	268.21	37.72	-46.2	-48.6	16.2	0.00e+00	0	40	0	0	63	4883
2026-01-05 00:40:30.73	267.94	37.63	-45.7	-48.0	16.8	0.00e+00	0	39	0	0	63	4566
2026-01-05 00:40:32.22	267.39	37.44	-45.0	-47.1	17.6	0.00e+00	0	40	0	0	62	4350
2026-01-05 00:40:32.94	267.13	37.35	-45.0	-47.0	17.6	0.00e+00	0	39	0	0	61	4589
2026-01-05 00:40:34.22	266.66	37.18	-45.4	-47.5	17.3	0.00e+00	0	40	0	0	61	4837
2026-01-05 00:40:34.94	266.40	37.09	-45.9	-48.1	16.7	0.00e+00	0	39	0	0	62	4898
2026-01-05 00:40:36.23	265.94	36.92	-46.4	-48.8	16.0	0.00e+00	0	39	0	0	63	5008
2026-01-05 00:40:36.94	265.69	36.83	-46.4	-48.8	16.0	0.00e+00	0	40	0	0	63	5029
2026-01-05 00:40:38.23	265.23	36.66	-45.5	-47.6	17.1	0.00e+00	0	39	0	0	63	4375
2026-01-05 00:40:38.96	264.98	36.56	-44.8	-46.8	17.8	0.00e+00	0	39	0	0	61	4484
2026-01-05 00:40:40.25	264.53	36.39	-44.1	-46.1	18.5	0.00e+00	0	39	0	0	60	4362
2026-01-05 00:40:41.09	264.24	36.28	-44.0	-46.0	18.6	0.00e+00	0	39	0	0	59	4547
2026-01-05 00:40:42.56	263.74	36.08	-44.1	-46.1	18.6	0.00e+00	0	39	0	0	59	4602
2026-01-05 00:40:43.27	263.51	35.99	-44.5	-46.5	18.1	0.00e+00	0	39	0	0	59	4850
2026-01-05 00:40:44.56	263.07	35.81	-45.2	-47.4	17.4	0.00e+00	0	39	0	0	61	4763
2026-01-05 00:40:45.28	262.84	35.72	-45.5	-47.7	17.1	1.44e-04	0	39	0	0	61	4938
2026-01-05 00:40:46.57	262.41	35.54	-44.8	-46.8	17.7	0.00e+00	0	39	0	0	61	4466
2026-01-05 00:40:47.30	262.17	35.44	-44.4	-46.4	18.1	0.00e+00	0	39	0	0	60	4496
2026-01-05 00:40:48.59	261.76	35.26	-44.0	-45.9	18.6	0.00e+00	0	39	0	0	60	4248
2026-01-05 00:40:49.31	261.53	35.16	-43.8	-45.6	18.8	0.00e+00	0	39	0	0	59	4372
2026-01-05 00:40:50.60	261.12	34.98	-43.7	-45.6	18.9	0.00e+00	0	40	0	0	59	4345
2026-01-05 00:40:51.31	260.89	34.89	-44.3	-46.2	18.4	0.00e+00	0	40	0	0	59	4685
2026-01-05 00:40:52.60	260.49	34.71	-45.2	-47.4	17.5	0.00e+00	0	40	0	0	61	4762
2026-01-05 00:40:53.32	260.27	34.61	-45.7	-47.9	16.9	0.00e+00	0	39	0	0	61	5089
2026-01-05 00:40:54.64	259.86	34.42	-45.7	-48.0	16.8	0.00e+00	0	40	0	0	62	4844
2026-01-05 00:40:55.36	259.64	34.32	-45.6	-47.8	17.0	0.00e+00	0	39	0	0	62	4715
2026-01-05 00:40:56.65	259.25	34.14	-45.2	-47.3	17.3	0.00e+00	0	39	0	0	62	4480
2026-01-05 00:40:57.70	258.94	33.99	-44.8	-46.9	17.7	0.00e+00	0	40	0	0	61	4515
2026-01-05 00:40:58.59	258.68	33.87	-44.4	-46.4	18.2	0.00e+00	0	40	0	0	60	4543
2026-01-05 00:40:59.74	258.34	33.71	-44.0	-46.0	18.6	0.00e+00	0	39	0	0	60	4295
2026-01-05 00:41:00.59	258.09	33.59	-43.9	-45.8	18.8	0.00e+00	0	40	0	0	59	4464
2026-01-05 00:41:01.74	257.76	33.42	-44.2	-46.1	18.5	0.00e+00	0	39	0	0	59	4637
2026-01-05 00:41:02.60	257.51	33.30	-44.5	-46.5	18.1	0.00e+00	0	39	0	0	59	4870
2026-01-05 00:41:03.88	257.15	33.12	-45.0	-47.1	17.6	0.00e+00	0	40	0	0	60	4910
2026-01-05 00:41:04.60	256.95	33.02	-45.1	-47.2	17.5	0.00e+00	0	39	0	0	60	4966
2026-01-05 00:41:06.06	256.54	32.81	-44.7	-46.7	17.8	0.00e+00	0	40	0	0	60	4674
2026-01-05 00:41:06.78	256.35	32.71	-44.4	-46.4	18.1	0.00e+00	0	40	0	0	60	4509
2026-01-05 00:41:08.15	255.97	32.51	-44.0	-45.9	18.6	0.00e+00	0	40	0	0	60	4276
2026-01-05 00:41:08.87	255.78	32.41	-44.0	-45.9	18.7	0.00e+00	0	40	0	0	60	4254
2026-01-05 00:41:10.23	255.41	32.22	-43.6	-45.4	19.1	0.00e+00	0	40	0	0	59	4258
2026-01-05 00:41:10.95	255.22	32.11	-43.7	-45.5	19.0	0.00e+00	0	39	0	0	59	4321
2026-01-05 00:41:12.27	254.87	31.93	-44.1	-46.0	18.4	0.00e+00	0	40	0	0	59	4576
2026-01-05 00:41:12.99	254.69	31.82	-44.2	-46.1	18.3	0.00e+00	0	40	0	0	59	4599
2026-01-05 00:41:14.28	254.35	31.64	-44.5	-46.4	17.9	0.00e+00	0	39	0	0	59	4799
2026-01-05 00:41:15.00	254.17	31.54	-44.4	-46.3	18.0	0.00e+00	0	39	0	0	59	4732
2026-01-05 00:41:16.28	253.84	31.36	-43.9	-45.8	18.7	0.00e+00	0	39	0	0	59	4455
2026-01-05 00:41:17.00	253.66	31.25	-43.7	-45.5	19.0	0.00e+00	0	39	0	0	59	4320
2026-01-05 00:41:18.29	253.34	31.07	-43.8	-45.6	18.9	0.00e+00	0	39	0	0	59	4347
2026-01-05 00:41:19.01	253.16	30.97	-43.9	-45.7	18.8	0.00e+00	0	39	0	0	59	4402
2026-01-05 00:41:20.30	252.85	30.79	-44.3	-46.2	18.4	0.00e+00	0	39	0	0	59	4678
2026-01-05 00:41:21.10	252.65	30.67	-44.3	-46.2	18.4	0.00e+00	0	39	0	0	59	4693
2026-01-05 00:41:22.26	252.37	30.51	-44.0	-45.9	18.7	0.00e+00	0	40	0	0	59	4502
2026-01-05 00:41:23.12	252.17	30.39	-43.7	-45.5	19.0	0.00e+00	0	40	0	0	59	4311
2026-01-05 00:41:24.26	251.90	30.22	-43.5	-45.3	19.2	0.00e+00	0	40	0	0	59	4195
2026-01-05 00:41:25.12	251.70	30.10	-43.5	-45.2	19.2	0.00e+00	0	39	0	0	58	4435
2026-01-05 00:41:26.27	251.43	29.94	-43.3	-45.1	19.2	0.00e+00	0	39	0	0	58	4379
2026-01-05 00:41:27.13	251.23	29.82	-43.5	-45.3	19.1	0.00e+00	0	39	0	0	58	4460
2026-01-05 00:41:28.28	250.97	29.66	-43.4	-45.2	19.2	0.00e+00	0	39	0	0	58	4421
2026-01-05 00:41:29.14	250.77	29.54	-43.2	-45.0	19.4	0.00e+00	0	39	0	0	58	4317
2026-01-05 00:41:30.28	250.52	29.38	-43.2	-44.9	19.4	0.00e+00	0	39	0	0	58	4279
2026-01-05 00:41:31.14	250.33	29.26	-43.3	-45.0	19.4	0.00e+00	0	39	0	0	58	4320
2026-01-05 00:41:32.43	250.04	29.08	-43.9	-45.8	18.7	0.00e+00	0	39	0	0	58	4722
2026-01-05 00:41:33.14	249.89	28.98	-44.4	-46.3	18.2	0.00e+00	0	39	0	0	59	4730
2026-01-05 00:41:34.43	249.61	28.80	-44.7	-46.7	17.8	0.00e+00	0	39	0	0	60	4700
2026-01-05 00:41:35.15	249.45	28.70	-44.6	-46.6	17.9	0.00e+00	0	39	0	0	60	4633
2026-01-05 00:41:36.43	249.18	28.52	-44.3	-46.2	18.3	0.00e+00	0	40	0	0	60	4403
2026-01-05 00:41:37.14	249.03	28.42	-44.1	-46.0	18.5	0.00e+00	0	39	0	0	60	4313
2026-01-05 00:41:38.44	248.76	28.24	-43.5	-45.3	18.9	0.00e+00	0	39	0	0	59	4229
2026-01-05 00:41:39.15	248.61	28.14	-43.4	-45.2	19.1	0.00e+00	0	39	0	0	58	4413
2026-01-05 00:41:40.44	248.35	27.96	-43.3	-45.1	19.2	0.00e+00	0	39	0	0	58	4354
2026-01-05 00:41:41.16	248.20	27.86	-43.5	-45.3	19.0	0.00e+00	0	40	0	0	58	4464
2026-01-05 00:41:42.44	247.94	27.69	-43.5	-45.3	19.1	0.00e+00	0	39	0	0	58	4469
2026-01-05 00:41:43.16	247.80	27.59	-43.5	-45.3	19.2	0.00e+00	0	39	0	0	58	4451
2026-01-05 00:41:44.47	247.54	27.41	-43.6	-45.4	19.0	0.00e+00	0	40	0	0	58	4545
2026-01-05 00:41:45.18	247.40	27.31	-43.6	-45.4	19.0	0.00e+00	0	39	0	0	58	4529
2026-01-05 00:41:46.55	247.13	27.13	-43.7	-45.5	18.9	0.00e+00	0	40	0	0	58	4595
2026-01-05 00:41:47.27	246.99	27.03	-43.8	-45.6	18.8	0.00e+00	0	39	0	0	58	4623
2026-01-05 00:41:48.56	246.75	26.85	-43.9	-45.7	18.7	0.00e+00	0	39	0	0	58	4681
2026-01-05 00:41:49.27	246.61	26.76	-43.8	-45.6	18.8	0.00e+00	0	40	0	0	58	4645
2026-01-05 00:41:50.56	246.37	26.58	-43.8	-45.6	18.8	0.00e+00	0	39	0	0	58	4629
2026-01-05 00:41:51.28	246.24	26.49	-43.8	-45.6	18.8	0.00e+00	0	40	0	0	58	4616
2026-01-05 00:41:52.79	245.96	26.28	-43.7	-45.5	18.8	0.00e+00	0	40	0	0	58	4589
2026-01-05 00:41:53.51	245.83	26.19	-43.6	-45.4	19.0	0.00e+00	0	39	0	0	58	4503
2026-01-05 00:41:54.80	245.59	26.02	-43.4	-45.2	19.1	0.00e+00	0	39	0	0	58	4421
2026-01-05 00:41:55.51	245.46	25.92	-43.5	-45.2	19.1	0.00e+00	0	39	0	0	58	4433
2026-01-05 00:41:56.80	245.23	25.75	-43.4	-45.1	19.2	0.00e+00	0	39	0	0	58	4375
2026-01-05 00:41:57.52	245.11	25.65	-43.3	-45.1	19.2	0.00e+00	0	39	0	0	58	4364
2026-01-05 00:41:58.81	244.88	25.48	-43.6	-45.3	18.9	0.00e+00	0	39	0	0	58	4484
2026-01-05 00:41:59.52	244.76	25.39	-43.7	-45.5	18.8	0.00e+00	0	39	0	0	58	4559
2026-01-05 00:42:00.81	244.53	25.22	-43.9	-45.7	18.6	0.00e+00	0	39	0	0	58	4689
2026-01-05 00:42:01.53	244.41	25.13	-43.9	-45.8	18.6	0.00e+00	0	39	0	0	58	4721
2026-01-05 00:42:02.82	244.19	24.96	-44.0	-45.8	18.6	0.00e+00	0	40	0	0	58	4734
2026-01-05 00:42:03.54	244.07	24.86	-43.8	-45.7	18.8	0.00e+00	0	39	0	0	58	4659
2026-01-05 00:42:04.83	243.85	24.70	-43.7	-45.5	18.9	0.00e+00	0	40	0	0	58	4594
2026-01-05 00:42:05.54	243.74	24.60	-43.4	-45.1	19.3	0.00e+00	0	39	0	0	58	4384
2026-01-05 00:42:06.83	243.53	24.44	-43.2	-45.0	19.4	0.00e+00	0	39	0	0	58	4300
2026-01-05 00:42:07.55	243.41	24.34	-43.4	-45.1	19.3	0.00e+00	0	39	0	0	58	4380
2026-01-05 00:42:08.84	243.20	24.18	-43.4	-45.2	19.2	0.00e+00	0	39	0	0	58	4405
2026-01-05 00:42:09.55	243.09	24.09	-43.5	-45.3	19.2	0.00e+00	0	39	0	0	58	4462
2026-01-05 00:42:10.84	242.88	23.92	-43.5	-45.3	19.1	0.00e+00	0	39	0	0	58	4468
2026-01-05 00:42:11.56	242.77	23.83	-43.5	-45.3	19.1	0.00e+00	0	39	0	0	58	4475
2026-01-05 00:42:12.84	242.57	23.67	-43.4	-45.2	19.2	0.00e+00	0	39	0	0	58	4431
2026-01-05 00:42:13.58	242.45	23.58	-43.4	-45.2	19.3	0.00e+00	0	39	0	0	58	4408
2026-01-05 00:42:14.87	242.26	23.41	-43.4	-45.2	19.2	0.00e+00	0	39	0	0	58	4427
2026-01-05 00:42:15.58	242.15	23.32	-43.4	-45.1	19.2	0.00e+00	0	39	0	0	58	4390
2026-01-05 00:42:16.87	241.95	23.16	-43.3	-45.1	19.2	0.00e+00	0	39	0	0	58	4364
2026-01-05 00:42:17.59	241.84	23.07	-43.4	-45.2	19.1	0.00e+00	0	39	0	0	58	4438
2026-01-05 00:42:18.88	241.65	22.91	-43.4	-45.2	19.1	0.00e+00	0	40	0	0	58	4394
2026-01-05 00:42:19.59	241.55	22.82	-43.4	-45.2	19.1	0.00e+00	0	39	0	0	58	4420
2026-01-05 00:42:20.88	241.36	22.66	-43.4	-45.2	19.1	0.00e+00	0	39	0	0	58	4419
2026-01-05 00:42:21.60	241.26	22.58	-43.5	-45.3	19.1	0.00e+00	0	39	0	0	58	4446
2026-01-05 00:42:22.89	241.07	22.42	-43.4	-45.2	19.2	0.00e+00	0	40	0	0	58	4420
2026-01-05 00:42:23.60	240.97	22.33	-43.4	-45.2	19.2	0.00e+00	0	39	0	0	58	4403
2026-01-05 00:42:24.89	240.79	22.17	-43.4	-45.2	19.2	0.00e+00	0	39	0	0	58	4402
2026-01-05 00:42:25.60	240.69	22.09	-43.5	-45.3	19.1	0.00e+00	0	39	0	0	58	4454
2026-01-05 00:42:26.89	240.51	21.93	-43.6	-45.3	19.0	0.00e+00	0	39	0	0	58	4490
2026-01-05 00:42:27.61	240.41	21.84	-43.6	-45.4	19.0	0.00e+00	0	39	0	0	58	4527
2026-01-05 00:42:29.20	240.19	21.65	-43.7	-45.5	18.9	0.00e+00	0	39	0	0	58	4566
2026-01-05 00:42:30.03	240.08	21.55	-43.7	-45.6	18.8	0.00e+00	0	39	0	0	58	4603
2026-01-05 00:42:31.17	239.92	21.41	-43.6	-45.4	19.0	0.00e+00	0	40	0	0	58	4528
2026-01-05 00:42:32.03	239.81	21.31	-43.6	-45.4	18.9	0.00e+00	0	39	0	0	58	4545
2026-01-05 00:42:33.18	239.65	21.18	-43.6	-45.4	19.0	0.00e+00	0	40	0	0	58	4516
2026-01-05 00:42:34.04	239.54	21.07	-43.6	-45.4	19.0	0.00e+00	0	39	0	0	58	4506
2026-01-05 00:42:35.19	239.39	20.94	-43.3	-45.1	19.2	0.00e+00	0	40	0	0	58	4384
2026-01-05 00:42:36.11	239.27	20.83	-43.2	-44.9	19.3	0.00e+00	0	39	0	0	58	4289
2026-01-05 00:42:37.29	239.12	20.69	-43.1	-44.9	19.4	0.00e+00	0	40	0	0	58	4268
2026-01-05 00:42:38.15	239.01	20.59	-43.1	-44.9	19.4	0.00e+00	0	39	0	0	58	4258
2026-01-05 00:42:39.50	238.84	20.43	-43.2	-44.9	19.4	0.00e+00	0	39	0	0	58	4289
2026-01-05 00:42:40.22	238.75	20.35	-43.1	-44.9	19.4	0.00e+00	0	39	0	0	58	4271
2026-01-05 00:42:41.51	238.59	20.20	-43.2	-45.0	19.2	0.00e+00	0	39	0	0	58	4336
2026-01-05 00:42:42.22	238.50	20.12	-43.3	-45.1	19.2	0.00e+00	0	39	0	0	58	4375
2026-01-05 00:42:43.51	238.34	19.97	-43.4	-45.2	19.1	0.00e+00	0	39	0	0	58	4408
2026-01-05 00:42:44.23	238.26	19.89	-43.3	-45.2	19.1	0.00e+00	0	39	0	0	58	4395
2026-01-05 00:42:45.52	238.10	19.74	-43.3	-45.2	19.1	0.00e+00	0	40	0	0	58	4395
2026-01-05 00:42:46.24	238.01	19.66	-43.3	-45.1	19.2	0.00e+00	0	39	0	0	58	4349
2026-01-05 00:42:47.53	237.86	19.51	-43.4	-45.2	19.0	0.00e+00	0	39	0	0	58	4426
2026-01-05 00:42:48.25	237.78	19.43	-43.3	-45.1	19.1	3.20e-05	0	39	0	0	58	4388
2026-01-05 00:42:49.53	237.63	19.29	-43.3	-45.1	19.1	0.00e+00	0	39	0	0	58	4379
2026-01-05 00:42:50.25	237.54	19.21	-43.3	-45.1	19.1	0.00e+00	0	39	0	0	58	4382
2026-01-05 00:42:51.54	237.39	19.06	-43.2	-45.0	19.3	0.00e+00	0	39	0	0	58	4309
2026-01-05 00:42:52.26	237.31	18.98	-43.3	-45.1	19.2	0.00e+00	0	39	0	0	58	4369
2026-01-05 00:42:53.69	237.15	18.82	-43.3	-45.1	19.2	0.00e+00	0	39	0	0	58	4368
2026-01-05 00:42:54.41	237.07	18.75	-43.3	-45.1	19.2	0.00e+00	0	39	0	0	58	4380
2026-01-05 00:42:55.76	236.92	18.60	-43.4	-45.2	19.1	0.00e+00	0	39	0	0	58	4416
2026-01-05 00:42:56.48	236.84	18.52	-43.4	-45.2	19.1	0.00e+00	0	39	0	0	58	4432
2026-01-05 00:42:57.76	236.70	18.38	-43.5	-45.3	19.0	0.00e+00	0	39	0	0	58	4479
2026-01-05 00:42:58.48	236.62	18.30	-43.5	-45.3	19.1	0.00e+00	0	39	0	0	58	4451
2026-01-05 00:42:59.77	236.48	18.16	-43.6	-45.5	18.9	0.00e+00	0	40	0	0	58	4553
2026-01-05 00:43:00.48	236.40	18.08	-43.6	-45.5	18.9	6.79e-05	0	39	0	0	58	4559
2026-01-05 00:43:01.77	236.26	17.94	-43.8	-45.7	18.7	0.00e+00	0	39	0	0	58	4681
2026-01-05 00:43:02.49	236.19	17.87	-43.7	-45.6	18.7	0.00e+00	0	39	0	0	58	4622
2026-01-05 00:43:03.78	236.05	17.73	-43.8	-45.6	18.7	0.00e+00	0	39	0	0	58	4638
2026-01-05 00:43:04.49	235.98	17.65	-43.8	-45.7	18.7	0.00e+00	0	39	0	0	58	4659
2026-01-05 00:43:05.78	235.84	17.51	-43.9	-45.8	18.6	0.00e+00	0	39	0	0	58	4721
2026-01-05 00:43:06.63	235.75	17.42	-43.9	-45.8	18.6	0.00e+00	0	39	0	0	58	4735
2026-01-05 00:43:07.77	235.64	17.30	-44.1	-45.9	18.4	0.00e+00	0	40	0	0	58	4813
2026-01-05 00:43:08.63	235.55	17.21	-44.0	-45.9	18.4	0.00e+00	0	39	0	0	58	4790
2026-01-05 00:43:09.77	235.43	17.09	-44.1	-46.0	18.4	0.00e+00	0	40	0	0	58	4831
2026-01-05 00:43:10.63	235.35	17.00	-44.0	-45.9	18.4	0.00e+00	0	39	0	0	58	4795
2026-01-05 00:43:11.78	235.23	16.88	-44.0	-45.9	18.4	0.00e+00	0	39	0	0	58	4764
2026-01-05 00:43:12.64	235.15	16.79	-44.0	-45.9	18.4	0.00e+00	0	39	0	0	58	4770
2026-01-05 00:43:13.78	235.04	16.68	-43.9	-45.8	18.4	0.00e+00	0	39	0	0	58	4736
2026-01-05 00:43:14.64	234.95	16.59	-43.9	-45.8	18.4	0.00e+00	0	39	0	0	58	4706
2026-01-05 00:43:15.79	234.84	16.47	-43.8	-45.7	18.5	0.00e+00	0	39	0	0	58	4681
2026-01-05 00:43:16.64	234.76	16.38	-43.7	-45.6	18.6	0.00e+00	0	39	0	0	58	4604
2026-01-05 00:43:17.93	234.64	16.25	-43.5	-45.3	18.8	0.00e+00	0	39	0	0	58	4467
2026-01-05 00:43:18.65	234.57	16.18	-43.4	-45.2	19.0	0.00e+00	0	39	0	0	58	4407
2026-01-05 00:43:19.93	234.45	16.05	-43.5	-45.3	18.8	0.00e+00	0	40	0	0	58	4486
2026-01-05 00:43:20.65	234.38	15.97	-43.4	-45.2	19.0	0.00e+00	0	40	0	0	58	4417
2026-01-05 00:43:21.94	234.26	15.84	-43.3	-45.1	19.1	0.00e+00	0	39	0	0	58	4378
2026-01-05 00:43:22.66	234.19	15.77	-43.3	-45.1	19.1	0.00e+00	0	39	0	0	58	4364
2026-01-05 00:43:23.95	234.08	15.64	-43.4	-45.2	19.1	0.00e+00	0	39	0	0	58	4413
2026-01-05 00:43:24.66	234.01	15.57	-43.4	-45.2	19.0	0.00e+00	0	39	0	0	58	4421
2026-01-05 00:43:25.95	233.90	15.44	-43.5	-45.3	19.0	0.00e+00	0	39	0	0	58	4443
2026-01-05 00:43:26.67	233.83	15.37	-43.5	-45.3	19.0	0.00e+00	0	39	0	0	58	4443
2026-01-05 00:43:27.97	233.72	15.24	-43.6	-45.4	18.9	0.00e+00	0	39	0	0	58	4528
2026-01-05 00:43:28.69	233.65	15.17	-43.6	-45.4	18.9	0.00e+00	0	39	0	0	58	4538
2026-01-05 00:43:30.04	233.53	15.04	-43.7	-45.6	18.7	0.00e+00	0	39	0	0	58	4608
2026-01-05 00:43:30.76	233.47	14.97	-43.8	-45.6	18.7	0.00e+00	0	39	0	0	58	4641
2026-01-05 00:43:32.09	233.36	14.84	-43.9	-45.8	18.5	0.00e+00	0	39	0	0	58	4729
2026-01-05 00:43:32.81	233.29	14.77	-43.9	-45.8	18.5	0.00e+00	0	39	0	0	58	4729
2026-01-05 00:43:34.15	233.18	14.64	-44.0	-45.8	18.4	0.00e+00	0	39	0	0	58	4755
2026-01-05 00:43:34.86	233.12	14.57	-44.1	-45.9	18.3	0.00e+00	0	39	0	0	58	4811
2026-01-05 00:43:36.20	233.01	14.44	-44.0	-45.9	18.3	0.00e+00	0	39	0	0	58	4799
2026-01-05 00:43:37.17	232.92	14.35	-44.1	-46.0	18.3	0.00e+00	0	39	0	0	58	4820
2026-01-05 00:43:38.49	232.81	14.22	-44.1	-46.0	18.1	0.00e+00	0	39	0	0	59	4598
2026-01-05 00:43:39.21	232.76	14.16	-44.1	-46.0	18.2	0.00e+00	0	39	0	0	59	4560
2026-01-05 00:43:40.49	232.65	14.04	-44.1	-46.0	18.1	0.00e+00	0	39	0	0	59	4558
2026-01-05 00:43:41.21	232.59	13.97	-44.0	-45.9	18.2	0.00e+00	0	39	0	0	59	4507
2026-01-05 00:43:42.50	232.49	13.85	-44.0	-45.9	18.1	0.00e+00	0	39	0	0	59	4526
2026-01-05 00:43:43.22	232.43	13.78	-44.0	-45.9	18.2	0.00e+00	0	39	0	0	59	4508
2026-01-05 00:43:44.51	232.33	13.66	-44.0	-45.8	18.2	0.00e+00	0	39	0	0	59	4485
2026-01-05 00:43:45.23	232.27	13.59	-44.0	-45.9	18.2	0.00e+00	0	39	0	0	59	4527
2026-01-05 00:43:46.58	232.16	13.46	-43.9	-45.8	18.2	0.00e+00	0	39	0	0	59	4465
2026-01-05 00:43:47.30	232.11	13.40	-44.0	-45.9	18.2	0.00e+00	0	39	0	0	59	4500
2026-01-05 00:43:48.59	232.01	13.28	-43.9	-45.8	18.2	6.10e-05	0	39	0	0	59	4475
2026-01-05 00:43:49.30	231.95	13.21	-43.9	-45.8	18.3	0.00e+00	0	39	0	0	59	4474
2026-01-05 00:43:50.59	231.85	13.10	-43.9	-45.8	18.3	0.00e+00	0	40	0	0	59	4446
2026-01-05 00:43:51.31	231.80	13.03	-44.0	-45.8	18.3	0.00e+00	0	39	0	0	59	4487
2026-01-05 00:43:52.60	231.70	12.91	-44.0	-45.9	18.2	0.00e+00	0	39	0	0	59	4496
2026-01-05 00:43:53.31	231.65	12.85	-44.0	-45.9	18.2	0.00e+00	0	39	0	0	59	4524
2026-01-05 00:43:54.60	231.55	12.73	-44.0	-45.9	18.2	0.00e+00	0	39	0	0	59	4528
2026-01-05 00:43:55.32	231.50	12.67	-44.1	-46.0	18.2	0.00e+00	0	39	0	0	59	4546
2026-01-05 00:43:56.61	231.40	12.55	-44.0	-45.8	18.3	0.00e+00	0	39	0	0	59	4493
2026-01-05 00:43:57.32	231.35	12.49	-44.0	-45.9	18.3	0.00e+00	0	40	0	0	59	4500
2026-01-05 00:43:58.61	231.26	12.37	-44.2	-46.1	18.1	0.00e+00	0	39	0	0	59	4626
2026-01-05 00:43:59.49	231.19	12.29	-44.2	-46.1	18.1	0.00e+00	0	39	0	0	59	4642
2026-01-05 00:44:00.63	231.11	12.19	-44.2	-46.2	18.1	2.67e-05	0	39	0	0	59	4653
2026-01-05 00:44:01.71	231.03	12.10	-44.3	-46.2	18.0	0.00e+00	0	39	0	0	59	4668
2026-01-05 00:44:02.73	230.96	12.01	-44.3	-46.3	18.0	0.00e+00	0	39	0	0	59	4723
2026-01-05 00:44:03.89	230.88	11.90	-44.4	-46.4	17.9	0.00e+00	0	39	0	0	59	4770
2026-01-05 00:44:04.76	230.82	11.83	-44.4	-46.4	17.9	0.00e+00	0	39	0	0	59	4779
2026-01-05 00:44:05.91	230.74	11.73	-44.5	-46.5	17.8	0.00e+00	0	39	0	0	59	4822
2026-01-05 00:44:06.82	230.67	11.65	-44.5	-46.5	17.7	0.00e+00	0	40	0	0	59	4854
2026-01-05 00:44:07.98	230.59	11.55	-44.6	-46.6	17.6	0.00e+00	0	39	0	0	59	4884
2026-01-05 00:44:08.87	230.53	11.47	-44.6	-46.6	17.6	0.00e+00	0	40	0	0	59	4901
2026-01-05 00:44:10.02	230.46	11.37	-44.7	-46.7	17.6	0.00e+00	0	39	0	0	60	4698
2026-01-05 00:44:10.88	230.40	11.30	-44.7	-46.7	17.6	0.00e+00	0	39	0	0	60	4686
2026-01-05 00:44:12.03	230.32	11.20	-44.7	-46.7	17.6	0.00e+00	0	39	0	0	60	4688
2026-01-05 00:44:12.89	230.26	11.12	-44.9	-46.9	17.4	2.74e-05	0	40	0	0	60	4809
2026-01-05 00:44:14.03	230.19	11.03	-44.8	-46.9	17.4	0.00e+00	0	39	0	0	60	4772
2026-01-05 00:44:14.89	230.13	10.95	-44.9	-46.9	17.4	0.00e+00	0	39	0	0	60	4809
2026-01-05 00:44:16.04	230.06	10.86	-44.9	-47.0	17.3	0.00e+00	0	39	0	0	60	4832
2026-01-05 00:44:16.90	230.00	10.78	-44.9	-47.0	17.3	0.00e+00	0	39	0	0	60	4856
2026-01-05 00:44:18.04	229.93	10.69	-44.9	-47.0	17.3	0.00e+00	0	39	0	0	60	4855
2026-01-05 00:44:18.90	229.87	10.62	-44.9	-47.0	17.2	0.00e+00	0	39	0	0	60	4854
2026-01-05 00:44:20.04	229.80	10.52	-45.0	-47.1	17.1	0.00e+00	0	39	0	0	60	4905
2026-01-05 00:44:20.90	229.74	10.45	-45.1	-47.3	17.0	0.00e+00	0	39	0	0	60	4986
2026-01-05 00:44:22.05	229.67	10.35	-45.0	-47.2	17.1	0.00e+00	0	39	0	0	60	4946
2026-01-05 00:44:22.91	229.62	10.28	-45.1	-47.3	17.0	0.00e+00	0	39	0	0	60	4995
2026-01-05 00:44:24.05	229.54	10.19	-45.0	-47.2	17.0	0.00e+00	0	39	0	0	60	4972
2026-01-05 00:44:24.91	229.49	10.12	-45.1	-47.3	16.9	0.00e+00	0	39	0	0	60	5013
2026-01-05 00:44:26.05	229.42	10.02	-45.3	-47.4	16.8	0.00e+00	0	39	0	0	61	4802
2026-01-05 00:44:26.91	229.37	9.95	-45.3	-47.4	16.8	0.00e+00	0	39	0	0	61	4799
2026-01-05 00:44:28.06	229.30	9.86	-45.3	-47.5	16.7	0.00e+00	0	39	0	0	61	4848
2026-01-05 00:44:28.92	229.25	9.79	-45.4	-47.5	16.7	0.00e+00	0	39	0	0	61	4863
2026-01-05 00:44:30.06	229.18	9.70	-45.4	-47.6	16.7	0.00e+00	0	39	0	0	61	4891
2026-01-05 00:44:30.92	229.13	9.63	-45.5	-47.7	16.6	0.00e+00	0	39	0	0	61	4940
2026-01-05 00:44:32.07	229.06	9.53	-45.6	-47.8	16.5	0.00e+00	0	39	0	0	61	5010
2026-01-05 00:44:32.93	229.01	9.46	-45.6	-47.8	16.5	0.00e+00	0	39	0	0	61	5032
2026-01-05 00:44:34.07	228.94	9.37	-45.5	-47.7	16.5	0.00e+00	0	39	0	0	61	4969
2026-01-05 00:44:34.93	228.89	9.30	-45.6	-47.8	16.5	0.00e+00	0	39	0	0	61	4999
2026-01-05 00:44:36.08	228.82	9.21	-45.6	-47.8	16.4	0.00e+00	0	39	0	0	61	5040
2026-01-05 00:44:37.03	228.77	9.14	-45.5	-47.8	16.5	3.80e-06	0	39	0	0	61	5011
2026-01-05 00:44:38.03	228.71	9.06	-45.7	-48.0	16.3	0.00e+00	0	39	0	0	62	4820
2026-01-05 00:44:39.04	228.65	8.98	-52.2	-64.0	3.8	6.22e-03	0	39	104	0	75	14526
2026-01-05 00:44:40.04	228.59	8.90	-52.7	-65.8	3.8	1.49e+00	0	39	104	0	76	16831
2026-01-05 00:44:41.05	228.54	8.82	-52.8	-66.0	3.8	1.49e+00	0	40	104	0	76	17248
2026-01-05 00:44:42.05	228.48	8.74	-53.0	-66.1	3.8	1.49e+00	0	39	104	0	76	17405
2026-01-05 00:44:43.05	228.42	8.66	-52.9	-66.1	3.8	1.49e+00	0	39	104	0	76	17406
2026-01-05 00:44:44.06	228.37	8.58	-53.2	-66.2	3.8	1.49e+00	0	39	104	0	77	16630
2026-01-05 00:44:45.06	228.31	8.50	-53.2	-66.2	3.8	1.49e+00	0	39	104	0	77	16636
2026-01-05 00:44:46.07	228.26	8.43	-53.3	-66.3	3.8	1.49e+00	0	39	104	0	77	16737
2026-01-05 00:44:47.07	228.20	8.35	-53.2	-66.2	3.8	1.49e+00	0	39	104	0	77	16664
2026-01-05 00:44:48.08	228.15	8.27	-53.1	-66.3	3.8	1.49e+00	0	40	104	0	77	16703
2026-01-05 00:44:49.08	228.09	8.19	-53.1	-66.2	3.8	1.49e+00	0	39	104	0	77	16661
2026-01-05 00:44:50.08	228.04	8.12	-53.2	-66.2	3.8	1.49e+00	0	39	104	0	77	16687
2026-01-05 00:44:51.09	227.98	8.04	-53.3	-66.3	3.8	1.49e+00	0	39	104	0	77	16729
2026-01-05 00:44:52.09	227.93	7.96	-53.1	-66.3	3.8	1.49e+00	0	39	104	0	77	16726
2026-01-05 00:44:53.10	227.88	7.88	-53.2	-66.3	3.8	1.49e+00	0	39	104	0	77	16762
2026-01-05 00:44:54.10	227.83	7.81	-53.2	-66.3	3.8	1.49e+00	0	39	104	0	77	16759
2026-01-05 00:44:55.10	227.77	7.73	-53.3	-66.3	3.8	1.49e+00	0	40	104	0	77	16735
2026-01-05 00:44:56.11	227.72	7.66	-53.3	-66.3	3.8	1.49e+00	0	39	104	0	77	16719
2026-01-05 00:44:57.11	227.67	7.58	-53.2	-66.3	3.8	1.49e+00	0	39	104	0	77	16740
2026-01-05 00:44:58.47	227.60	7.48	-53.0	-66.2	3.8	1.49e+00	0	39	104	0	77	16607
2026-01-05 00:44:59.25	227.56	7.42	-52.9	-66.2	3.8	1.49e+00	0	39	104	0	77	16582
2026-01-05 00:45:00.86	227.48	7.30	-52.9	-66.2	3.8	1.49e+00	0	39	104	0	77	16570
2026-01-05 00:45:01.43	227.45	7.26	-52.9	-66.2	3.8	1.49e+00	0	39	104	0	77	16632
2026-01-05 00:45:03.02	227.37	7.14	-52.9	-66.2	3.8	1.49e+00	0	39	104	0	77	16605
2026-01-05 00:45:03.60	227.34	7.10	-52.9	-66.2	3.8	1.49e+00	0	39	104	0	77	16644
2026-01-05 00:45:05.17	227.26	6.98	-52.9	-66.2	3.8	1.49e+00	0	39	104	0	77	16572
2026-01-05 00:45:05.75	227.23	6.94	-52.9	-66.2	3.8	1.49e+00	0	39	104	0	77	16595
2026-01-05 00:45:07.34	227.15	6.82	-52.8	-66.2	3.8	1.49e+00	0	40	104	0	77	16595
2026-01-05 00:45:07.92	227.13	6.78	-52.8	-66.2	3.8	1.49e+00	0	39	104	0	77	16597
2026-01-05 00:45:09.49	227.05	6.66	-52.9	-66.2	3.8	1.49e+00	0	39	104	0	77	16607
2026-01-05 00:45:10.08	227.02	6.62	-52.8	-66.2	3.8	1.49e+00	0	39	104	0	77	16549
2026-01-05 00:45:11.66	226.94	6.51	-52.8	-66.2	3.8	1.49e+00	0	39	104	0	77	16526
2026-01-05 00:45:12.25	226.92	6.46	-52.8	-66.2	3.8	1.49e+00	0	39	104	0	77	16539
2026-01-05 00:45:13.83	226.84	6.35	-52.8	-66.2	3.8	1.49e+00	0	39	104	0	77	16546
2026-01-05 00:45:14.40	226.81	6.31	-52.8	-66.2	3.8	1.49e+00	0	39	104	0	77	16615
2026-01-05 00:45:15.99	226.74	6.19	-52.9	-66.2	3.8	1.49e+00	0	39	104	0	77	16636
2026-01-05 00:45:16.57	226.71	6.15	-52.9	-66.2	3.8	1.49e+00	0	39	104	0	77	16559
2026-01-05 00:45:18.15	226.64	6.04	-52.9	-66.2	3.8	1.49e+00	0	39	104	0	77	16540
2026-01-05 00:45:18.72	226.61	6.00	-52.9	-66.2	3.8	1.49e+00	0	39	104	0	77	16590
2026-01-05 00:45:20.32	226.54	5.89	-52.9	-66.2	3.8	1.49e+00	0	39	104	0	77	16577
2026-01-05 00:45:20.89	226.51	5.85	-52.8	-66.2	3.8	1.49e+00	0	39	104	0	77	16617
2026-01-05 00:45:22.47	226.44	5.73	-52.9	-66.2	3.8	1.49e+00	0	39	104	0	77	16625
2026-01-05 00:45:23.04	226.42	5.69	-52.8	-66.2	3.8	1.49e+00	0	40	104	0	77	16542
2026-01-05 00:45:24.62	226.34	5.58	-52.8	-66.2	3.8	1.49e+00	0	40	104	0	77	16625
2026-01-05 00:45:25.22	226.32	5.54	-52.8	-66.2	3.8	1.49e+00	0	39	104	0	77	16589
2026-01-05 00:45:26.80	226.25	5.43	-52.9	-66.2	3.8	1.49e+00	0	39	104	0	77	16600
2026-01-05 00:45:27.39	226.22	5.39	-52.9	-66.2	3.8	1.49e+00	0	39	104	0	77	16589
2026-01-05 00:45:28.97	226.15	5.28	-52.8	-66.2	3.8	1.49e+00	0	39	104	0	77	16547
2026-01-05 00:45:29.54	226.13	5.24	-52.8	-66.2	3.8	1.49e+00	0	39	104	0	77	16595
2026-01-05 00:45:31.12	226.06	5.13	-52.8	-66.2	3.8	1.49e+00	0	39	104	0	77	16564
2026-01-05 00:45:31.72	226.03	5.09	-52.8	-66.2	3.8	1.49e+00	0	39	104	0	77	16563
2026-01-05 00:45:33.30	225.96	4.98	-52.8	-66.2	3.8	1.49e+00	0	39	104	0	77	16554

#Closed at: 2026-01-05 00:45:33
#Recorded file [0 MB]: D:/Data/31040_260105_033313.dat