passes_logs/2026/01/05/T1/T1__20260105_235647_AQUA_rec.log

#Pass ID: 20260105_235647_AQUA
#Satellite: AQUA
#Configuration: AQUA
#almurnet v.1.7.20251203
#Start time: 2026-01-05 23:56:47

#Version: 2.0.20230620
#Station: T1
#Location: 37.570604 lon 55.790049 lat
#TLE: 1 27424U 02022A   26004.96787593  .00001598  00000+0  32997-3 0  9996
#TLE: 2 27424  98.4069 331.2279 0002002  90.2377   0.6092 14.61798176259425

#Time	Az	El	Level	Level2	SNR	BER	BlckErr	Temp	State	Recorded	gain1	gain2
2026-01-05 23:56:47.91	31.58	5.00	-51.2	-72.1	3.8	7.45e-01	0	36	0	0	73	41160
2026-01-05 23:56:48.91	31.68	5.06	-51.2	-72.1	3.8	7.46e-01	0	36	104	0	73	41214
2026-01-05 23:56:49.91	31.78	5.13	-51.2	-72.1	3.8	7.47e-01	0	36	104	0	73	41165
2026-01-05 23:56:50.92	31.88	5.19	-51.2	-72.1	3.8	7.43e-01	0	36	104	0	73	41187
2026-01-05 23:56:51.92	31.98	5.25	-51.2	-72.1	3.8	7.46e-01	0	36	104	0	73	41164
2026-01-05 23:56:52.93	32.09	5.31	-51.2	-72.1	3.8	7.44e-01	0	36	104	0	73	41276
2026-01-05 23:56:53.93	32.19	5.37	-51.2	-72.1	3.8	7.44e-01	0	36	104	0	73	41174
2026-01-05 23:56:54.93	32.29	5.43	-51.2	-72.1	3.8	7.46e-01	0	36	104	0	73	41211
2026-01-05 23:56:55.94	32.40	5.49	-51.2	-72.1	3.8	7.46e-01	0	36	104	0	73	41213
2026-01-05 23:56:56.94	32.50	5.55	-51.2	-72.1	3.8	7.47e-01	0	36	104	0	73	41147
2026-01-05 23:56:57.94	32.60	5.62	-51.2	-72.1	3.8	7.46e-01	0	36	104	0	73	41231
2026-01-05 23:56:58.95	32.71	5.68	-51.2	-72.1	3.8	7.49e-01	0	36	104	0	73	41298
2026-01-05 23:56:59.96	32.81	5.74	-51.2	-72.1	3.8	7.44e-01	0	36	104	0	73	41229
2026-01-05 23:57:00.96	32.92	5.80	-51.2	-72.1	3.8	7.45e-01	0	36	104	0	73	41214
2026-01-05 23:57:01.96	33.03	5.86	-51.2	-72.1	3.8	7.48e-01	0	36	104	0	73	41260
2026-01-05 23:57:02.97	33.13	5.93	-51.2	-72.1	3.8	7.45e-01	0	37	104	0	73	41247
2026-01-05 23:57:03.97	33.24	5.99	-51.2	-72.1	3.8	7.48e-01	0	37	104	0	73	41220
2026-01-05 23:57:04.98	33.35	6.05	-51.2	-72.1	3.8	7.45e-01	0	36	104	0	73	41204
2026-01-05 23:57:05.98	33.46	6.11	-51.2	-72.1	3.8	7.46e-01	0	37	104	0	73	41189
2026-01-05 23:57:06.98	33.56	6.17	-51.2	-72.1	3.8	7.46e-01	0	37	104	0	73	41265
2026-01-05 23:57:07.99	33.67	6.24	-51.2	-72.1	3.8	7.48e-01	0	37	104	0	73	41328
2026-01-05 23:57:08.99	33.78	6.30	-51.2	-72.1	3.8	7.48e-01	0	37	104	0	73	41270
2026-01-05 23:57:10.00	33.89	6.36	-51.2	-72.1	3.8	7.44e-01	0	37	104	0	73	41238
2026-01-05 23:57:11.00	34.00	6.42	-51.2	-72.1	3.8	7.47e-01	0	37	104	0	73	41256
2026-01-05 23:57:12.01	34.11	6.49	-51.2	-72.1	3.8	7.47e-01	0	37	104	0	73	41241
2026-01-05 23:57:13.01	34.23	6.55	-51.2	-72.1	3.8	7.43e-01	0	37	104	0	73	41260
2026-01-05 23:57:14.02	34.34	6.61	-51.2	-72.1	3.8	7.47e-01	0	37	104	0	73	41218
2026-01-05 23:57:15.02	34.45	6.68	-51.2	-72.1	3.8	7.47e-01	0	37	104	0	73	41230
2026-01-05 23:57:16.02	34.56	6.74	-51.2	-72.1	3.8	7.47e-01	0	37	104	0	73	41290
2026-01-05 23:57:17.02	34.68	6.80	-51.2	-72.1	3.8	7.48e-01	0	37	104	0	73	41226
2026-01-05 23:57:18.03	34.79	6.87	-51.2	-72.1	3.8	7.43e-01	0	37	104	0	73	41311
2026-01-05 23:57:19.03	34.91	6.93	-51.2	-72.1	3.8	7.43e-01	0	37	104	0	73	41272
2026-01-05 23:57:20.04	35.02	6.99	-51.2	-72.1	3.8	7.48e-01	0	37	104	0	73	41226
2026-01-05 23:57:21.04	35.14	7.06	-51.2	-72.1	3.8	7.46e-01	0	37	104	0	73	41235
2026-01-05 23:57:22.04	35.25	7.12	-51.2	-72.1	3.8	7.45e-01	0	37	104	0	73	41301
2026-01-05 23:57:23.05	35.37	7.18	-51.2	-72.1	3.8	7.45e-01	0	37	104	0	73	41268
2026-01-05 23:57:24.05	35.49	7.25	-51.2	-72.1	3.8	7.48e-01	0	37	104	0	73	41316
2026-01-05 23:57:25.06	35.60	7.31	-51.2	-72.1	3.8	7.40e-01	0	37	104	0	73	41359
2026-01-05 23:57:26.06	35.72	7.38	-51.2	-72.1	3.8	7.46e-01	0	37	104	0	73	41377
2026-01-05 23:57:27.07	35.84	7.44	-51.2	-72.1	3.8	7.47e-01	0	37	104	0	73	41322
2026-01-05 23:57:28.07	35.96	7.50	-51.2	-72.1	3.8	7.48e-01	0	37	104	0	73	41267
2026-01-05 23:57:29.07	36.08	7.57	-51.2	-72.1	3.8	7.46e-01	0	37	104	0	73	41325
2026-01-05 23:57:30.08	36.20	7.63	-51.2	-72.1	3.8	7.48e-01	0	37	104	0	73	41266
2026-01-05 23:57:31.08	36.32	7.70	-51.2	-72.1	3.8	7.43e-01	0	37	104	0	73	41265
2026-01-05 23:57:32.09	36.45	7.76	-51.2	-72.1	3.8	7.47e-01	0	37	104	0	73	41391
2026-01-05 23:57:33.09	36.57	7.83	-51.2	-72.1	3.8	7.46e-01	0	37	104	0	73	41340
2026-01-05 23:57:34.10	36.69	7.89	-51.2	-72.1	3.8	7.45e-01	0	37	104	0	73	41307
2026-01-05 23:57:35.10	36.81	7.96	-51.2	-72.1	3.8	7.48e-01	0	37	104	0	73	41365
2026-01-05 23:57:36.11	36.94	8.02	-51.2	-72.1	3.8	7.49e-01	0	37	104	0	73	41276
2026-01-05 23:57:37.11	37.06	8.09	-51.2	-72.1	3.8	7.47e-01	0	37	104	0	73	41377
2026-01-05 23:57:38.11	37.19	8.15	-51.2	-72.1	3.8	7.47e-01	0	37	104	0	73	41350
2026-01-05 23:57:39.12	37.31	8.22	-51.2	-72.1	3.8	7.47e-01	0	38	104	0	73	41398
2026-01-05 23:57:40.12	37.44	8.28	-51.2	-72.1	3.8	7.43e-01	0	38	104	0	73	41263
2026-01-05 23:57:41.12	37.57	8.35	-51.2	-72.1	3.8	7.45e-01	0	37	104	0	73	41357
2026-01-05 23:57:42.13	37.69	8.41	-51.2	-72.1	3.8	7.46e-01	0	37	104	0	73	41361
2026-01-05 23:57:43.13	37.82	8.48	-51.2	-72.1	3.8	7.44e-01	0	38	104	0	73	41163
2026-01-05 23:57:44.14	37.95	8.54	-51.2	-72.1	3.8	7.46e-01	0	37	104	0	73	41371
2026-01-05 23:57:45.14	38.08	8.61	-51.2	-72.1	3.8	7.45e-01	0	38	104	0	73	41264
2026-01-05 23:57:46.15	38.21	8.67	-51.2	-72.1	3.8	7.49e-01	0	38	104	0	73	41329
2026-01-05 23:57:47.15	38.34	8.74	-51.2	-72.1	3.8	7.47e-01	0	38	104	0	73	41307
2026-01-05 23:57:48.16	38.47	8.81	-51.2	-72.1	3.8	7.47e-01	0	38	104	0	73	41329
2026-01-05 23:57:49.16	38.60	8.87	-51.2	-72.1	3.8	7.43e-01	0	38	104	0	73	41329
2026-01-05 23:57:50.16	38.74	8.94	-51.2	-72.1	3.8	7.44e-01	0	38	104	0	73	41366
2026-01-05 23:57:51.17	38.87	9.00	-51.2	-72.1	3.8	7.46e-01	0	38	104	0	73	41254
2026-01-05 23:57:52.17	39.00	9.07	-51.2	-72.1	3.8	7.46e-01	0	38	104	0	73	41289
2026-01-05 23:57:53.18	39.14	9.14	-51.2	-72.1	3.8	7.44e-01	0	38	104	0	73	41303
2026-01-05 23:57:54.18	39.27	9.20	-51.2	-72.1	3.8	7.47e-01	0	38	104	0	73	41272
2026-01-05 23:57:55.18	39.41	9.27	-51.2	-72.1	3.8	7.47e-01	0	38	104	0	73	41318
2026-01-05 23:57:56.19	39.54	9.33	-51.2	-72.1	3.8	7.41e-01	0	38	104	0	73	41330
2026-01-05 23:57:57.19	39.68	9.40	-51.2	-72.1	3.8	7.45e-01	0	38	104	0	73	41231
2026-01-05 23:57:58.20	39.82	9.47	-51.2	-72.1	3.8	7.46e-01	0	38	104	0	73	41344
2026-01-05 23:57:59.20	39.96	9.53	-51.2	-72.1	3.8	7.46e-01	0	38	104	0	73	41171
2026-01-05 23:58:00.20	40.09	9.60	-51.2	-72.1	3.8	7.45e-01	0	38	104	0	73	41296
2026-01-05 23:58:01.21	40.23	9.67	-51.2	-72.1	3.8	7.46e-01	0	38	104	0	73	41263
2026-01-05 23:58:02.21	40.37	9.73	-51.2	-72.1	3.8	7.44e-01	0	38	104	0	73	41319
2026-01-05 23:58:03.21	40.51	9.80	-51.2	-72.1	3.8	7.46e-01	0	38	104	0	73	41265
2026-01-05 23:58:04.22	40.66	9.87	-51.2	-72.1	3.8	7.49e-01	0	38	104	0	73	41296
2026-01-05 23:58:05.22	40.80	9.93	-51.2	-72.1	3.8	7.49e-01	0	38	104	0	73	41215
2026-01-05 23:58:06.23	40.94	10.00	-51.2	-72.1	3.8	7.47e-01	0	38	104	0	73	41252
2026-01-05 23:58:07.25	41.09	10.07	-51.2	-72.1	3.8	7.45e-01	0	38	104	0	73	41300
2026-01-05 23:58:08.30	41.24	10.14	-51.2	-72.1	3.8	7.45e-01	0	38	104	0	73	41353
2026-01-05 23:58:09.18	41.37	10.20	-51.2	-72.1	3.8	7.47e-01	0	38	104	0	73	41213
2026-01-05 23:58:10.32	41.53	10.27	-51.2	-72.1	3.8	7.48e-01	0	38	104	0	73	41265
2026-01-05 23:58:11.18	41.66	10.33	-51.2	-72.1	3.8	7.45e-01	0	38	104	0	73	41249
2026-01-05 23:58:12.33	41.83	10.41	-51.2	-72.1	3.8	7.46e-01	0	38	104	0	73	41191
2026-01-05 23:58:13.19	41.95	10.47	-51.2	-72.1	3.8	7.46e-01	0	38	104	0	73	41275
2026-01-05 23:58:14.34	42.12	10.54	-51.2	-72.1	3.8	7.48e-01	0	38	104	0	73	41334
2026-01-05 23:58:15.20	42.25	10.60	-51.2	-72.1	3.8	7.47e-01	0	38	104	0	73	41189
2026-01-05 23:58:16.34	42.42	10.68	-51.2	-72.1	3.8	7.45e-01	0	38	104	0	73	41234
2026-01-05 23:58:17.20	42.55	10.74	-51.2	-72.1	3.8	7.46e-01	0	38	104	0	73	41310
2026-01-05 23:58:18.35	42.72	10.81	-51.2	-72.1	3.8	7.50e-01	0	38	104	0	73	41187
2026-01-05 23:58:19.21	42.85	10.87	-51.2	-72.1	3.8	7.47e-01	0	38	104	0	73	41211
2026-01-05 23:58:20.35	43.03	10.95	-51.2	-72.1	3.8	7.46e-01	0	38	104	0	73	41230
2026-01-05 23:58:21.22	43.16	11.01	-51.2	-72.1	3.8	7.44e-01	0	38	104	0	73	41228
2026-01-05 23:58:22.36	43.33	11.08	-51.2	-72.1	3.8	7.45e-01	0	38	104	0	73	41250
2026-01-05 23:58:23.22	43.47	11.14	-51.2	-72.1	3.8	7.46e-01	0	38	104	0	73	41233
2026-01-05 23:58:24.37	43.65	11.22	-51.2	-72.1	3.8	7.49e-01	0	38	104	0	73	41211
2026-01-05 23:58:25.23	43.78	11.28	-51.2	-72.1	3.8	7.42e-01	0	38	104	0	73	41323
2026-01-05 23:58:26.38	43.96	11.35	-51.2	-72.1	3.8	7.43e-01	0	38	104	0	73	41186
2026-01-05 23:58:27.24	44.10	11.41	-51.2	-72.1	3.8	7.44e-01	0	38	104	0	73	41278
2026-01-05 23:58:28.38	44.28	11.49	-51.2	-72.1	3.8	7.48e-01	0	38	104	0	73	41292
2026-01-05 23:58:29.24	44.41	11.55	-51.2	-72.1	3.8	7.43e-01	0	38	104	0	73	41245
2026-01-05 23:58:30.39	44.60	11.63	-51.2	-72.1	3.8	7.47e-01	0	38	104	0	73	41250
2026-01-05 23:58:31.25	44.74	11.68	-51.2	-72.1	3.8	7.42e-01	0	38	104	0	73	41220
2026-01-05 23:58:32.41	44.92	11.76	-51.2	-72.1	3.8	7.47e-01	0	38	104	0	73	41344
2026-01-05 23:58:33.28	45.06	11.82	-51.2	-72.1	3.8	7.48e-01	0	38	104	0	73	41242
2026-01-05 23:58:34.50	45.26	11.90	-51.2	-72.1	3.8	7.49e-01	0	38	104	0	73	41238
2026-01-05 23:58:35.36	45.40	11.96	-51.2	-72.1	3.8	7.45e-01	0	38	104	0	73	41226
2026-01-05 23:58:36.55	45.60	12.04	-51.2	-72.1	3.8	7.46e-01	0	38	104	0	73	41221
2026-01-05 23:58:37.42	45.74	12.10	-51.2	-72.1	3.8	7.50e-01	0	38	104	0	73	41278
2026-01-05 23:58:38.56	45.93	12.18	-51.2	-72.1	3.8	7.48e-01	0	38	104	0	73	41264
2026-01-05 23:58:39.42	46.08	12.24	-51.2	-72.1	3.8	7.43e-01	0	38	104	0	73	41301
2026-01-05 23:58:40.76	46.30	12.33	-51.2	-72.1	3.8	7.42e-01	0	38	104	0	73	41304
2026-01-05 23:58:41.48	46.42	12.38	-51.2	-72.1	3.8	7.47e-01	0	38	104	0	73	41212
2026-01-05 23:58:42.77	46.64	12.46	-51.2	-72.1	3.8	7.44e-01	0	38	104	0	73	41245
2026-01-05 23:58:43.49	46.76	12.51	-51.2	-72.1	3.8	7.43e-01	0	38	104	0	73	41264
2026-01-05 23:58:44.78	46.99	12.60	-51.2	-72.1	3.8	7.44e-01	0	38	104	0	73	41267
2026-01-05 23:58:45.49	47.11	12.65	-51.2	-72.1	3.8	7.47e-01	0	38	104	0	73	41270
2026-01-05 23:58:46.79	47.33	12.74	-51.2	-72.1	3.8	7.48e-01	0	38	104	0	73	41241
2026-01-05 23:58:47.50	47.46	12.78	-51.2	-72.1	3.8	7.45e-01	0	38	104	0	73	41239
2026-01-05 23:58:48.79	47.68	12.87	-51.2	-72.1	3.8	7.45e-01	0	38	104	0	73	41188
2026-01-05 23:58:49.51	47.81	12.92	-51.2	-72.1	3.8	7.47e-01	0	38	104	0	73	41251
2026-01-05 23:58:50.80	48.03	13.01	-51.2	-72.1	3.8	7.46e-01	0	38	104	0	73	41308
2026-01-05 23:58:51.52	48.16	13.06	-51.2	-72.1	3.8	7.43e-01	0	38	104	0	73	41258
2026-01-05 23:58:52.81	48.39	13.14	-51.2	-72.1	3.8	7.50e-01	0	38	104	0	73	41275
2026-01-05 23:58:53.53	48.52	13.19	-51.2	-72.1	3.8	7.43e-01	0	38	104	0	73	41324
2026-01-05 23:58:54.82	48.75	13.28	-51.2	-72.1	3.8	7.45e-01	0	38	104	0	73	41297
2026-01-05 23:58:55.53	48.88	13.33	-51.2	-72.1	3.8	7.47e-01	0	38	104	0	73	41283
2026-01-05 23:58:56.83	49.12	13.42	-51.2	-72.1	3.8	7.45e-01	0	38	104	0	73	41233
2026-01-05 23:58:57.54	49.25	13.46	-51.2	-72.1	3.8	7.44e-01	0	38	104	0	73	41232
2026-01-05 23:58:58.83	49.48	13.55	-51.2	-72.1	3.8	7.47e-01	0	38	104	0	73	41204
2026-01-05 23:58:59.55	49.62	13.60	-51.2	-72.1	3.8	7.45e-01	0	38	104	0	73	41276
2026-01-05 23:59:00.84	49.85	13.69	-51.2	-72.1	3.8	7.44e-01	0	38	104	0	73	41287
2026-01-05 23:59:01.55	49.99	13.73	-51.2	-72.1	3.8	7.47e-01	0	38	104	0	73	41268
2026-01-05 23:59:02.84	50.23	13.82	-51.2	-72.1	3.8	7.48e-01	0	39	104	0	73	41362
2026-01-05 23:59:03.69	50.39	13.88	-51.2	-72.1	3.8	7.46e-01	0	38	104	0	73	41210
2026-01-05 23:59:04.84	50.60	13.95	-51.2	-72.1	3.8	7.49e-01	0	38	104	0	73	41284
2026-01-05 23:59:05.70	50.77	14.01	-51.2	-72.1	3.8	7.42e-01	0	38	104	0	73	41259
2026-01-05 23:59:06.84	50.98	14.09	-51.2	-72.1	3.8	7.42e-01	0	38	104	0	73	41302
2026-01-05 23:59:07.71	51.15	14.15	-51.2	-72.1	3.8	7.45e-01	0	38	104	0	73	41168
2026-01-05 23:59:08.85	51.37	14.22	-51.2	-72.1	3.8	7.48e-01	0	38	104	0	73	41343
2026-01-05 23:59:09.71	51.53	14.28	-51.2	-72.1	3.8	7.47e-01	0	39	104	0	73	41290
2026-01-05 23:59:10.86	51.76	14.36	-51.2	-72.1	3.8	7.47e-01	0	38	104	0	73	41266
2026-01-05 23:59:11.72	51.93	14.41	-51.2	-72.1	3.8	7.46e-01	0	38	104	0	73	41287
2026-01-05 23:59:12.87	52.15	14.49	-51.2	-72.1	3.8	7.47e-01	0	38	104	0	73	41198
2026-01-05 23:59:13.73	52.32	14.55	-51.2	-72.1	3.8	7.47e-01	0	39	104	0	73	41263
2026-01-05 23:59:14.88	52.55	14.62	-51.2	-72.1	3.8	7.47e-01	0	39	104	0	73	41244
2026-01-05 23:59:15.74	52.72	14.68	-51.2	-72.1	3.8	7.46e-01	0	38	104	0	73	41305
2026-01-05 23:59:16.89	52.95	14.76	-51.2	-72.1	3.8	7.43e-01	0	38	104	0	73	41217
2026-01-05 23:59:17.75	53.12	14.81	-51.2	-72.1	3.8	7.49e-01	0	38	104	0	73	41219
2026-01-05 23:59:18.89	53.35	14.89	-51.2	-72.1	3.8	7.47e-01	0	38	104	0	73	41262
2026-01-05 23:59:19.75	53.52	14.94	-51.2	-72.1	3.8	7.46e-01	0	39	104	0	73	41370
2026-01-05 23:59:20.90	53.76	15.02	-51.2	-72.1	3.8	7.45e-01	0	39	104	0	73	41287
2026-01-05 23:59:21.76	53.93	15.08	-51.2	-72.1	3.8	7.47e-01	0	38	104	0	73	41305
2026-01-05 23:59:22.91	54.17	15.15	-51.2	-72.1	3.8	7.45e-01	0	39	104	0	73	41287
2026-01-05 23:59:23.77	54.35	15.21	-51.2	-72.1	3.8	7.44e-01	0	38	104	0	73	41216
2026-01-05 23:59:24.92	54.58	15.28	-51.2	-72.1	3.8	7.47e-01	0	39	104	0	73	41323
2026-01-05 23:59:25.78	54.76	15.34	-51.2	-72.1	3.8	7.44e-01	0	39	104	0	73	41269
2026-01-05 23:59:26.93	55.00	15.41	-51.2	-72.1	3.8	7.46e-01	0	38	104	0	73	41285
2026-01-05 23:59:27.79	55.18	15.47	-51.2	-72.1	3.8	7.49e-01	0	39	104	0	73	41274
2026-01-05 23:59:28.94	55.43	15.54	-51.2	-72.1	3.8	7.45e-01	0	39	104	0	73	41210
2026-01-05 23:59:29.80	55.61	15.60	-51.2	-72.1	3.8	7.47e-01	0	39	104	0	73	41210
2026-01-05 23:59:30.95	55.85	15.67	-51.2	-72.1	3.8	7.47e-01	0	38	104	0	73	41267
2026-01-05 23:59:31.81	56.04	15.73	-51.2	-72.1	3.8	7.46e-01	0	38	104	0	73	41306
2026-01-05 23:59:32.95	56.28	15.80	-51.2	-72.1	3.8	7.44e-01	0	38	104	0	73	41272
2026-01-05 23:59:34.00	56.51	15.87	-51.2	-72.1	3.8	7.44e-01	0	38	104	0	73	41328
2026-01-05 23:59:34.88	56.70	15.92	-51.2	-72.1	3.8	7.44e-01	0	38	104	0	73	41167
2026-01-05 23:59:36.03	56.95	16.00	-51.2	-72.1	3.8	7.46e-01	0	39	104	0	73	41298
2026-01-05 23:59:36.89	57.14	16.05	-51.2	-72.1	3.8	7.44e-01	0	39	104	0	73	41278
2026-01-05 23:59:38.03	57.39	16.12	-51.2	-72.1	3.8	7.47e-01	0	39	104	0	73	41299
2026-01-05 23:59:38.90	57.58	16.18	-51.2	-72.1	3.8	7.49e-01	0	39	104	0	73	41369
2026-01-05 23:59:40.04	57.83	16.25	-51.2	-72.1	3.8	7.46e-01	0	39	104	0	73	41297
2026-01-05 23:59:40.90	58.02	16.30	-51.2	-72.1	3.8	7.48e-01	0	39	104	0	73	41311
2026-01-05 23:59:42.05	58.28	16.37	-51.2	-72.1	3.8	7.45e-01	0	39	104	0	73	41232
2026-01-05 23:59:42.91	58.47	16.42	-51.2	-72.1	3.8	7.45e-01	0	39	104	0	73	41321
2026-01-05 23:59:44.06	58.73	16.50	-51.2	-72.1	3.8	7.44e-01	0	39	104	0	73	41291
2026-01-05 23:59:44.92	58.93	16.55	-51.2	-72.1	3.8	7.45e-01	0	39	104	0	73	41385
2026-01-05 23:59:46.07	59.19	16.62	-51.2	-72.1	3.8	7.43e-01	0	39	104	0	73	41364
2026-01-05 23:59:46.93	59.39	16.67	-51.2	-72.1	3.8	7.48e-01	0	39	104	0	73	41314
2026-01-05 23:59:48.08	59.65	16.74	-51.2	-72.1	3.8	7.47e-01	0	39	104	0	73	41276
2026-01-05 23:59:48.93	59.85	16.79	-51.2	-72.1	3.8	7.45e-01	0	39	104	0	73	41305
2026-01-05 23:59:50.08	60.11	16.86	-51.2	-72.1	3.8	7.47e-01	0	39	104	0	73	41228
2026-01-05 23:59:50.94	60.31	16.91	-51.2	-72.1	3.8	7.50e-01	0	39	104	0	73	41324
2026-01-05 23:59:52.09	60.58	16.98	-51.2	-72.1	3.8	7.43e-01	0	39	104	0	73	41304
2026-01-05 23:59:52.95	60.78	17.03	-51.2	-72.1	3.8	7.43e-01	0	39	104	0	73	41313
2026-01-05 23:59:54.09	61.05	17.10	-51.2	-72.1	3.8	7.47e-01	0	39	104	0	73	41299
2026-01-05 23:59:54.95	61.25	17.15	-51.2	-72.1	3.8	7.48e-01	0	39	104	0	73	41345
2026-01-05 23:59:56.10	61.53	17.22	-51.2	-72.1	3.8	7.45e-01	0	39	104	0	73	41347
2026-01-05 23:59:56.96	61.73	17.27	-51.2	-72.1	3.8	7.45e-01	0	39	104	0	73	41276
2026-01-05 23:59:58.11	62.00	17.33	-51.2	-72.1	3.8	7.44e-01	0	39	104	0	73	41308
2026-01-05 23:59:58.97	62.21	17.38	-51.2	-72.1	3.8	7.48e-01	0	38	104	0	73	41313
2026-01-06 00:00:00.12	62.49	17.45	-51.2	-72.1	3.8	7.47e-01	0	39	104	0	73	41342
2026-01-06 00:00:00.98	62.70	17.50	-51.2	-72.1	3.8	7.45e-01	0	39	104	0	73	41335
2026-01-06 00:00:02.13	62.98	17.56	-51.2	-72.1	3.8	7.44e-01	0	38	104	0	73	41343
2026-01-06 00:00:02.99	63.18	17.61	-51.2	-72.1	3.8	7.43e-01	0	39	104	0	73	41349
2026-01-06 00:00:04.13	63.46	17.67	-51.2	-72.1	3.8	7.48e-01	0	38	104	0	73	41368
2026-01-06 00:00:04.99	63.68	17.72	-51.2	-72.1	3.8	7.45e-01	0	38	104	0	73	41303
2026-01-06 00:00:06.14	63.96	17.79	-51.2	-72.1	3.8	7.46e-01	0	38	104	0	73	41320
2026-01-06 00:00:07.00	64.17	17.83	-51.2	-72.1	3.8	7.46e-01	0	39	104	0	73	41319
2026-01-06 00:00:08.15	64.46	17.90	-51.2	-72.1	3.8	7.44e-01	0	39	104	0	73	41328
2026-01-06 00:00:09.01	64.67	17.94	-51.2	-72.1	3.8	7.48e-01	0	39	104	0	73	41363
2026-01-06 00:00:10.16	64.96	18.00	-51.2	-72.1	3.8	7.44e-01	0	39	104	0	73	41361
2026-01-06 00:00:11.02	65.18	18.05	-51.2	-72.1	3.8	7.42e-01	0	39	104	0	73	41350
2026-01-06 00:00:12.17	65.47	18.11	-51.2	-72.1	3.8	7.46e-01	0	39	104	0	73	41335
2026-01-06 00:00:13.03	65.68	18.16	-51.2	-72.1	3.8	7.47e-01	0	39	104	0	73	41380
2026-01-06 00:00:14.18	65.98	18.22	-51.2	-72.1	3.8	7.44e-01	0	39	104	0	73	41351
2026-01-06 00:00:15.13	66.22	18.27	-51.2	-72.1	3.8	7.44e-01	0	39	104	0	73	41301
2026-01-06 00:00:16.14	66.48	18.32	-51.2	-72.1	3.8	7.45e-01	0	39	104	0	73	41353
2026-01-06 00:00:17.14	66.73	18.37	-51.2	-72.1	3.8	7.45e-01	0	39	104	0	73	41397
2026-01-06 00:00:18.15	66.99	18.42	-51.2	-72.1	3.8	7.43e-01	0	39	104	0	73	41381
2026-01-06 00:00:19.15	67.25	18.47	-51.2	-72.1	3.8	7.48e-01	0	39	104	0	73	41349
2026-01-06 00:00:20.16	67.52	18.52	-51.2	-72.1	3.8	7.44e-01	0	39	104	0	73	41318
2026-01-06 00:00:21.16	67.78	18.57	-51.2	-72.2	3.8	7.47e-01	0	39	104	0	73	41510
2026-01-06 00:00:22.16	68.04	18.62	-51.2	-72.1	3.8	7.46e-01	0	39	104	0	73	41355
2026-01-06 00:00:23.17	68.30	18.67	-51.2	-72.1	3.8	7.48e-01	0	39	104	0	73	41352
2026-01-06 00:00:24.17	68.56	18.71	-51.2	-72.1	3.8	7.46e-01	0	39	104	0	73	41297
2026-01-06 00:00:25.18	68.83	18.76	-51.2	-72.1	3.8	7.49e-01	0	39	104	0	73	41358
2026-01-06 00:00:26.18	69.10	18.81	-51.2	-72.1	3.8	7.44e-01	0	39	104	0	73	41432
2026-01-06 00:00:27.19	69.36	18.86	-51.2	-72.1	3.8	7.45e-01	0	39	104	0	73	41394
2026-01-06 00:00:28.19	69.63	18.90	-51.2	-72.1	3.8	7.44e-01	0	39	104	0	73	41365
2026-01-06 00:00:29.19	69.90	18.95	-51.2	-72.1	3.8	7.49e-01	0	39	104	0	73	41346
2026-01-06 00:00:30.20	70.17	18.99	-51.2	-72.1	3.8	7.46e-01	0	39	104	0	73	41340
2026-01-06 00:00:31.20	70.44	19.04	-51.2	-72.1	3.8	7.44e-01	0	39	104	0	73	41314
2026-01-06 00:00:32.21	70.71	19.08	-51.2	-72.1	3.8	7.46e-01	0	39	104	0	73	41328
2026-01-06 00:00:33.21	70.98	19.12	-51.2	-72.1	3.8	7.45e-01	0	38	104	0	73	41407
2026-01-06 00:00:34.21	71.25	19.17	-51.2	-72.1	3.8	7.48e-01	0	39	104	0	73	41370
2026-01-06 00:00:35.21	71.52	19.21	-51.2	-72.1	3.8	7.47e-01	0	39	104	0	73	41310
2026-01-06 00:00:36.22	71.80	19.25	-51.2	-72.1	3.8	7.47e-01	0	39	104	0	73	41337
2026-01-06 00:00:37.22	72.07	19.29	-51.2	-72.1	3.8	7.46e-01	0	39	104	0	73	41409
2026-01-06 00:00:38.22	72.35	19.33	-51.2	-72.1	3.8	7.46e-01	0	39	104	0	73	41404
2026-01-06 00:00:39.23	72.63	19.37	-51.2	-72.1	3.8	7.46e-01	0	39	104	0	73	41297
2026-01-06 00:00:40.26	72.91	19.42	-51.2	-72.1	3.8	7.43e-01	0	39	104	0	73	41360
2026-01-06 00:00:41.29	73.20	19.46	-51.2	-72.1	3.8	7.48e-01	0	39	104	0	73	41397
2026-01-06 00:00:42.35	73.49	19.50	-51.2	-72.1	3.8	7.48e-01	0	39	104	0	73	41357
2026-01-06 00:00:43.24	73.74	19.53	-51.2	-72.1	3.8	7.45e-01	0	39	104	0	73	41335
2026-01-06 00:00:44.56	74.11	19.58	-51.2	-72.1	3.8	7.44e-01	0	39	104	0	73	41380
2026-01-06 00:00:45.27	74.31	19.61	-51.2	-72.1	3.8	7.45e-01	0	39	104	0	73	41334
2026-01-06 00:00:46.77	74.73	19.66	-51.2	-72.1	3.8	7.43e-01	0	39	104	0	73	41288
2026-01-06 00:00:47.49	74.93	19.69	-51.2	-72.1	3.8	7.42e-01	0	39	104	0	73	41391
2026-01-06 00:00:48.83	75.31	19.73	-51.2	-72.1	3.8	7.46e-01	0	39	104	0	73	41355
2026-01-06 00:00:49.54	75.51	19.76	-51.2	-72.1	3.8	7.47e-01	0	39	104	0	73	41369
2026-01-06 00:00:50.91	75.90	19.80	-51.2	-72.1	3.8	7.46e-01	0	39	104	0	73	41375
2026-01-06 00:00:51.63	76.10	19.83	-51.2	-72.1	3.8	7.48e-01	0	39	104	0	73	41405
2026-01-06 00:00:52.92	76.47	19.87	-51.2	-72.1	3.8	7.43e-01	0	39	104	0	73	41364
2026-01-06 00:00:53.64	76.67	19.89	-51.2	-72.1	3.8	7.44e-01	0	39	104	0	73	41365
2026-01-06 00:00:54.93	77.04	19.93	-51.2	-72.1	3.8	7.45e-01	0	39	104	0	73	41347
2026-01-06 00:00:55.65	77.25	19.95	-51.2	-72.1	3.8	7.45e-01	0	39	104	0	73	41345
2026-01-06 00:00:56.94	77.62	19.99	-51.2	-72.1	3.8	7.47e-01	0	39	104	0	73	41379
2026-01-06 00:00:57.66	77.83	20.01	-51.2	-72.1	3.8	7.48e-01	0	39	104	0	73	41422
2026-01-06 00:00:58.95	78.20	20.05	-51.2	-72.1	3.8	7.48e-01	0	39	104	0	73	41410
2026-01-06 00:00:59.66	78.40	20.07	-51.2	-72.1	3.8	7.48e-01	0	39	104	0	73	41439
2026-01-06 00:01:00.96	78.78	20.10	-51.2	-72.1	3.8	7.43e-01	0	39	104	0	73	41359
2026-01-06 00:01:01.67	78.99	20.12	-51.2	-72.1	3.8	7.45e-01	0	39	104	0	73	41309
2026-01-06 00:01:02.96	79.36	20.15	-51.2	-72.1	3.8	7.46e-01	0	39	104	0	73	41269
2026-01-06 00:01:03.68	79.57	20.17	-51.2	-72.1	3.8	7.45e-01	0	38	104	0	73	41424
2026-01-06 00:01:04.97	79.95	20.20	-51.2	-72.1	3.8	7.48e-01	0	39	104	0	73	41424
2026-01-06 00:01:05.69	80.16	20.22	-51.2	-72.1	3.8	7.44e-01	0	39	104	0	73	41412
2026-01-06 00:01:06.98	80.53	20.25	-51.2	-72.1	3.8	7.46e-01	0	38	104	0	73	41392
2026-01-06 00:01:07.70	80.75	20.27	-51.2	-72.1	3.8	7.49e-01	0	39	104	0	73	41340
2026-01-06 00:01:08.99	81.12	20.29	-51.2	-72.1	3.8	7.48e-01	0	39	104	0	73	41380
2026-01-06 00:01:09.70	81.33	20.31	-51.2	-72.1	3.8	7.44e-01	0	39	104	0	73	41434
2026-01-06 00:01:10.99	81.71	20.33	-51.2	-72.1	3.8	7.47e-01	0	39	104	0	73	41419
2026-01-06 00:01:11.71	81.92	20.35	-51.2	-72.1	3.8	7.47e-01	0	39	104	0	73	41413
2026-01-06 00:01:13.00	82.30	20.37	-51.2	-72.1	3.8	7.48e-01	0	39	104	0	73	41362
2026-01-06 00:01:13.72	82.52	20.39	-51.2	-72.1	3.8	7.48e-01	0	39	104	0	73	41338
2026-01-06 00:01:15.01	82.90	20.41	-51.2	-72.1	3.8	7.48e-01	0	39	104	0	73	41437
2026-01-06 00:01:15.73	83.11	20.42	-51.2	-72.1	3.8	7.44e-01	0	39	104	0	73	41341
2026-01-06 00:01:17.02	83.49	20.44	-51.2	-72.1	3.8	7.45e-01	0	39	104	0	73	41430
2026-01-06 00:01:17.74	83.71	20.45	-51.2	-72.1	3.8	7.49e-01	0	39	104	0	73	41354
2026-01-06 00:01:19.03	84.09	20.47	-51.2	-72.1	3.8	7.46e-01	0	39	104	0	73	41356
2026-01-06 00:01:19.75	84.31	20.48	-51.2	-72.1	3.8	7.46e-01	0	39	104	0	73	41423
2026-01-06 00:01:21.04	84.69	20.50	-51.2	-72.2	3.8	7.47e-01	0	39	104	0	73	41475
2026-01-06 00:01:21.76	84.90	20.50	-51.2	-72.1	3.8	7.43e-01	0	39	104	0	73	41384
2026-01-06 00:01:23.05	85.29	20.52	-51.2	-72.1	3.8	7.46e-01	0	39	104	0	73	41386
2026-01-06 00:01:23.76	85.50	20.53	-51.2	-72.1	3.8	7.47e-01	0	39	104	0	73	41448
2026-01-06 00:01:25.05	85.89	20.54	-51.2	-72.1	3.8	7.44e-01	0	39	104	0	73	41388
2026-01-06 00:01:25.77	86.10	20.55	-51.2	-72.1	3.8	7.44e-01	0	39	104	0	73	41365
2026-01-06 00:01:27.06	86.49	20.56	-51.2	-72.1	3.8	7.47e-01	0	39	104	0	73	41396
2026-01-06 00:01:27.78	86.70	20.56	-51.2	-72.1	3.8	7.46e-01	0	39	104	0	73	41428
2026-01-06 00:01:29.07	87.09	20.57	-51.2	-72.1	3.8	7.46e-01	0	39	104	0	73	41437
2026-01-06 00:01:29.79	87.30	20.58	-51.2	-72.1	3.8	7.47e-01	0	39	104	0	73	41420
2026-01-06 00:01:31.08	87.69	20.58	-51.2	-72.1	3.8	7.50e-01	0	39	104	0	73	41347
2026-01-06 00:01:31.80	87.91	20.59	-51.2	-72.1	3.8	7.45e-01	0	39	104	0	73	41362
2026-01-06 00:01:33.09	88.29	20.59	-51.2	-72.2	3.8	7.49e-01	0	39	104	0	73	41504
2026-01-06 00:01:33.81	88.51	20.59	-51.2	-72.1	3.8	7.47e-01	0	39	104	0	73	41369
2026-01-06 00:01:35.10	88.90	20.60	-51.2	-72.1	3.8	7.43e-01	0	39	104	0	73	41406
2026-01-06 00:01:35.81	89.11	20.60	-51.2	-72.1	3.8	7.47e-01	0	39	104	0	73	41380
2026-01-06 00:01:37.11	89.50	20.60	-51.2	-72.1	3.8	7.48e-01	0	39	104	0	73	41366
2026-01-06 00:01:37.82	89.71	20.60	-51.2	-72.1	3.8	7.45e-01	0	39	104	0	73	41419
2026-01-06 00:01:39.12	90.10	20.60	-51.2	-72.1	3.8	7.45e-01	0	39	104	0	73	41384
2026-01-06 00:01:39.83	90.31	20.60	-51.2	-72.1	3.8	7.45e-01	0	39	104	0	73	41350
2026-01-06 00:01:41.12	90.70	20.59	-51.2	-72.1	3.8	7.47e-01	0	39	104	0	73	41293
2026-01-06 00:01:41.84	90.92	20.59	-51.2	-72.1	3.8	7.45e-01	0	39	104	0	73	41371
2026-01-06 00:01:43.13	91.30	20.59	-51.2	-72.1	3.8	7.46e-01	0	39	104	0	73	41381
2026-01-06 00:01:43.85	91.52	20.58	-51.2	-72.1	3.8	7.46e-01	0	39	104	0	73	41358
2026-01-06 00:01:45.14	91.91	20.58	-51.2	-72.1	3.8	7.42e-01	0	39	104	0	73	41348
2026-01-06 00:01:45.86	92.12	20.57	-51.2	-72.1	3.8	7.47e-01	0	39	104	0	73	41320
2026-01-06 00:01:47.14	92.51	20.57	-51.2	-72.1	3.8	7.47e-01	0	39	104	0	73	41320
2026-01-06 00:01:47.86	92.72	20.56	-51.2	-72.1	3.8	7.48e-01	0	39	104	0	73	41420
2026-01-06 00:01:49.15	93.11	20.55	-51.2	-72.1	3.8	7.45e-01	0	39	104	0	73	41377
2026-01-06 00:01:49.87	93.32	20.54	-51.2	-72.1	3.8	7.43e-01	0	39	104	0	73	41367
2026-01-06 00:01:51.16	93.71	20.53	-51.2	-72.1	3.8	7.49e-01	0	39	104	0	73	41368
2026-01-06 00:01:51.88	93.92	20.52	-51.2	-72.1	3.8	7.44e-01	0	39	104	0	73	41447
2026-01-06 00:01:53.17	94.31	20.51	-51.2	-72.2	3.8	7.44e-01	0	39	104	0	73	41471
2026-01-06 00:01:53.89	94.52	20.50	-51.2	-72.1	3.8	7.45e-01	0	39	104	0	73	41308
2026-01-06 00:01:55.18	94.91	20.48	-51.2	-72.1	3.8	7.44e-01	0	39	104	0	73	41380
2026-01-06 00:01:55.89	95.12	20.47	-51.2	-72.1	3.8	7.46e-01	0	39	104	0	73	41366
2026-01-06 00:01:57.19	95.51	20.46	-51.2	-72.1	3.8	7.46e-01	0	39	104	0	73	41369
2026-01-06 00:01:57.98	95.74	20.44	-51.2	-72.1	3.8	7.46e-01	0	39	104	0	73	41321
2026-01-06 00:01:59.13	96.08	20.43	-51.2	-72.1	3.8	7.47e-01	0	39	104	0	73	41407
2026-01-06 00:01:59.99	96.34	20.41	-51.2	-72.1	3.8	7.48e-01	0	39	104	0	73	41331
2026-01-06 00:02:01.14	96.68	20.39	-51.2	-72.1	3.8	7.42e-01	0	39	104	0	73	41336
2026-01-06 00:02:02.00	96.93	20.38	-51.2	-72.1	3.8	7.48e-01	0	39	104	0	73	41391
2026-01-06 00:02:03.15	97.27	20.36	-51.2	-72.1	3.8	7.47e-01	0	39	104	0	73	41326
2026-01-06 00:02:04.01	97.53	20.34	-51.2	-72.1	3.8	7.47e-01	0	39	104	0	73	41266
2026-01-06 00:02:05.15	97.86	20.32	-51.2	-72.1	3.8	7.44e-01	0	39	104	0	73	41411
2026-01-06 00:02:06.01	98.12	20.30	-51.2	-72.1	3.8	7.43e-01	0	39	104	0	73	41340
2026-01-06 00:02:07.16	98.45	20.27	-51.2	-72.1	3.8	7.49e-01	0	39	104	0	73	41251
2026-01-06 00:02:08.02	98.71	20.26	-51.2	-72.1	3.8	7.48e-01	0	39	104	0	73	41380
2026-01-06 00:02:09.17	99.04	20.23	-51.2	-72.1	3.8	7.47e-01	0	39	104	0	73	41380
2026-01-06 00:02:10.03	99.30	20.21	-51.2	-72.1	3.8	7.47e-01	0	39	104	0	73	41281
2026-01-06 00:02:11.17	99.63	20.18	-51.2	-72.1	3.8	7.47e-01	0	39	104	0	73	41401
2026-01-06 00:02:12.04	99.88	20.16	-51.2	-72.1	3.8	7.47e-01	0	39	104	0	73	41378
2026-01-06 00:02:13.19	100.22	20.13	-51.2	-72.1	3.8	7.46e-01	0	39	104	0	73	41413
2026-01-06 00:02:14.05	100.47	20.11	-51.2	-72.2	3.8	7.46e-01	0	39	104	0	73	41475
2026-01-06 00:02:15.19	100.80	20.08	-51.2	-72.1	3.8	7.46e-01	0	39	104	0	73	41419
2026-01-06 00:02:16.05	101.05	20.05	-51.2	-72.1	3.8	7.47e-01	0	39	104	0	73	41399
2026-01-06 00:02:17.20	101.38	20.02	-51.2	-72.1	3.8	7.45e-01	0	39	104	0	73	41318
2026-01-06 00:02:18.06	101.63	20.00	-51.2	-72.1	3.8	7.44e-01	0	39	104	0	73	41236
2026-01-06 00:02:19.21	101.96	19.96	-51.2	-72.1	3.8	7.43e-01	0	39	104	0	73	41359
2026-01-06 00:02:20.07	102.21	19.94	-51.2	-72.1	3.8	7.46e-01	0	39	104	0	73	41316
2026-01-06 00:02:21.22	102.54	19.90	-51.2	-72.1	3.8	7.45e-01	0	39	104	0	73	41357
2026-01-06 00:02:22.49	102.90	19.86	-51.2	-72.1	3.8	7.48e-01	0	39	104	0	73	41362
2026-01-06 00:02:23.21	103.11	19.84	-51.2	-72.1	3.8	7.44e-01	0	39	104	0	73	41343
2026-01-06 00:02:24.50	103.47	19.80	-51.2	-72.1	3.8	7.46e-01	0	39	104	0	73	41400
2026-01-06 00:02:25.22	103.68	19.77	-51.2	-72.1	3.8	7.46e-01	0	39	104	0	73	41428
2026-01-06 00:02:26.51	104.05	19.73	-51.2	-72.2	3.8	7.48e-01	0	39	104	0	73	41500
2026-01-06 00:02:27.23	104.25	19.70	-51.2	-72.2	3.8	7.46e-01	0	39	104	0	73	41465
2026-01-06 00:02:28.52	104.61	19.66	-51.2	-72.1	3.8	7.43e-01	0	39	104	0	73	41385
2026-01-06 00:02:29.24	104.82	19.63	-51.2	-72.2	3.8	7.47e-01	0	39	104	0	73	41473
2026-01-06 00:02:30.53	105.18	19.58	-51.2	-72.1	3.8	7.43e-01	0	39	104	0	73	41335
2026-01-06 00:02:31.25	105.38	19.56	-51.2	-72.1	3.8	7.45e-01	0	39	104	0	73	41252
2026-01-06 00:02:32.53	105.74	19.51	-51.2	-72.1	3.8	7.48e-01	0	39	104	0	73	41372
2026-01-06 00:02:33.25	105.94	19.48	-51.2	-72.1	3.8	7.49e-01	0	39	104	0	73	41246
2026-01-06 00:02:34.54	106.30	19.43	-51.2	-72.1	3.8	7.43e-01	0	39	104	0	73	41294
2026-01-06 00:02:35.31	106.51	19.40	-51.2	-72.1	3.8	7.46e-01	0	39	104	0	73	41445
2026-01-06 00:02:36.60	106.87	19.35	-51.2	-72.1	3.8	7.47e-01	0	39	104	0	73	41250
2026-01-06 00:02:37.32	107.07	19.32	-51.2	-72.1	3.8	7.47e-01	0	39	104	0	73	41311
2026-01-06 00:02:38.61	107.42	19.27	-51.2	-72.1	3.8	7.45e-01	0	39	104	0	73	41229
2026-01-06 00:02:39.32	107.62	19.24	-51.2	-72.1	3.8	7.48e-01	0	39	104	0	73	41289
2026-01-06 00:02:40.61	107.97	19.18	-51.2	-72.1	3.8	7.43e-01	0	39	104	0	73	41402
2026-01-06 00:02:41.33	108.17	19.15	-51.2	-72.1	3.8	7.43e-01	0	39	104	0	73	41399
2026-01-06 00:02:42.63	108.52	19.10	-51.2	-72.1	3.8	7.44e-01	0	39	104	0	73	41356
2026-01-06 00:02:43.34	108.71	19.06	-51.2	-72.1	3.8	7.45e-01	0	39	104	0	73	41441
2026-01-06 00:02:44.63	109.06	19.01	-51.2	-72.1	3.8	7.47e-01	0	39	104	0	73	41385
2026-01-06 00:02:45.35	109.26	18.98	-51.2	-72.1	3.8	7.48e-01	0	39	104	0	73	41267
2026-01-06 00:02:46.64	109.60	18.92	-51.2	-72.2	3.8	7.45e-01	0	39	104	0	73	41501
2026-01-06 00:02:47.36	109.80	18.88	-51.2	-72.1	3.8	7.45e-01	0	39	104	0	73	41273
2026-01-06 00:02:48.83	110.19	18.82	-51.2	-72.1	3.8	7.40e-01	0	39	104	0	73	41324
2026-01-06 00:02:49.54	110.38	18.78	-51.2	-72.1	3.8	7.44e-01	0	39	104	0	73	41344
2026-01-06 00:02:50.83	110.72	18.72	-51.2	-72.1	3.8	7.46e-01	0	39	104	0	73	41315
2026-01-06 00:02:51.55	110.91	18.69	-51.2	-72.1	3.8	7.44e-01	0	39	104	0	73	41428
2026-01-06 00:02:52.84	111.25	18.62	-51.2	-72.1	3.8	7.45e-01	0	39	104	0	73	41399
2026-01-06 00:02:53.56	111.44	18.59	-51.2	-72.1	3.8	7.48e-01	0	39	104	0	73	41420
2026-01-06 00:02:54.85	111.78	18.52	-51.2	-72.1	3.8	7.47e-01	0	39	104	0	73	41335
2026-01-06 00:02:55.57	111.97	18.49	-51.2	-72.1	3.8	7.47e-01	0	39	104	0	73	41371
2026-01-06 00:02:56.86	112.30	18.42	-51.2	-72.1	3.8	7.46e-01	0	39	104	0	73	41452
2026-01-06 00:02:57.58	112.49	18.39	-51.2	-72.1	3.8	7.46e-01	0	39	104	0	73	41424
2026-01-06 00:02:58.87	112.82	18.32	-51.2	-72.2	3.8	7.45e-01	0	39	104	0	73	41507
2026-01-06 00:02:59.59	113.01	18.28	-51.2	-72.2	3.8	7.43e-01	0	39	104	0	73	41534
2026-01-06 00:03:00.88	113.34	18.22	-51.2	-72.2	3.8	7.40e-01	0	39	104	0	73	41473
2026-01-06 00:03:01.60	113.52	18.18	-51.2	-72.2	3.8	7.44e-01	0	39	104	0	73	41533
2026-01-06 00:03:02.88	113.85	18.11	-51.2	-72.1	3.8	7.46e-01	0	39	104	0	73	41439
2026-01-06 00:03:03.60	114.03	18.07	-51.2	-72.2	3.8	7.44e-01	0	39	104	0	73	41491
2026-01-06 00:03:04.89	114.36	18.01	-51.2	-72.2	3.8	7.47e-01	0	39	104	0	73	41469
2026-01-06 00:03:05.61	114.54	17.97	-51.2	-72.1	3.8	7.42e-01	0	39	104	0	73	41418
2026-01-06 00:03:06.90	114.86	17.90	-51.2	-72.1	3.8	7.45e-01	0	39	104	0	73	41401
2026-01-06 00:03:07.62	115.04	17.86	-51.2	-72.1	3.8	7.45e-01	0	39	104	0	73	41454
2026-01-06 00:03:08.91	115.36	17.79	-51.2	-72.2	3.8	7.46e-01	0	39	104	0	73	41462
2026-01-06 00:03:09.63	115.54	17.75	-51.2	-72.2	3.8	7.44e-01	0	39	104	0	73	41525
2026-01-06 00:03:10.92	115.86	17.67	-51.2	-72.2	3.8	7.44e-01	0	39	104	0	73	41521
2026-01-06 00:03:11.64	116.04	17.63	-51.3	-72.2	3.8	7.45e-01	0	39	104	0	73	41478
2026-01-06 00:03:12.93	116.35	17.56	-51.2	-72.1	3.8	7.47e-01	0	39	104	0	73	41393
2026-01-06 00:03:13.65	116.53	17.52	-51.3	-72.1	3.8	7.49e-01	0	39	104	0	73	41435
2026-01-06 00:03:14.94	116.84	17.45	-51.2	-72.2	3.8	7.45e-01	0	39	104	0	73	41461
2026-01-06 00:03:15.65	117.02	17.40	-51.3	-72.1	3.8	7.47e-01	0	39	104	0	73	41418
2026-01-06 00:03:16.94	117.33	17.33	-51.2	-72.2	3.8	7.44e-01	0	39	104	0	73	41483
2026-01-06 00:03:17.66	117.50	17.29	-51.2	-72.2	3.8	7.48e-01	0	39	104	0	73	41455
2026-01-06 00:03:18.95	117.81	17.21	-51.2	-72.2	3.8	7.49e-01	0	39	104	0	73	41564
2026-01-06 00:03:19.67	117.98	17.17	-51.2	-72.2	3.8	7.46e-01	0	39	104	0	73	41480
2026-01-06 00:03:20.96	118.29	17.09	-51.2	-72.1	3.8	7.42e-01	0	39	104	0	73	41413
2026-01-06 00:03:21.68	118.46	17.05	-51.2	-72.1	3.8	7.46e-01	0	39	104	0	73	41362
2026-01-06 00:03:22.97	118.76	16.97	-51.2	-72.2	3.8	7.42e-01	0	39	104	0	73	41516
2026-01-06 00:03:23.69	118.93	16.93	-51.2	-72.1	3.8	7.44e-01	0	39	104	0	73	41435
2026-01-06 00:03:24.98	119.23	16.85	-51.2	-72.2	3.8	7.44e-01	0	39	104	0	73	41488
2026-01-06 00:03:25.70	119.40	16.81	-51.2	-72.1	3.8	7.47e-01	0	39	104	0	73	41450
2026-01-06 00:03:26.99	119.70	16.73	-51.2	-72.1	3.8	7.44e-01	0	39	104	0	73	41430
2026-01-06 00:03:27.70	119.86	16.69	-51.2	-72.2	3.8	7.46e-01	0	39	104	0	73	41496
2026-01-06 00:03:28.99	120.16	16.61	-51.2	-72.1	3.8	7.47e-01	0	39	104	0	73	41441
2026-01-06 00:03:29.71	120.32	16.57	-51.2	-72.1	3.8	7.46e-01	0	39	104	0	73	41387
2026-01-06 00:03:31.00	120.62	16.49	-51.2	-72.1	3.8	7.46e-01	0	39	104	0	73	41434
2026-01-06 00:03:31.72	120.78	16.44	-51.2	-72.1	3.8	7.48e-01	0	39	104	0	73	41353
2026-01-06 00:03:33.01	121.07	16.36	-51.2	-72.2	3.8	7.45e-01	0	39	104	0	73	41461
2026-01-06 00:03:33.73	121.23	16.32	-51.2	-72.1	3.8	7.44e-01	0	39	104	0	73	41439
2026-01-06 00:03:35.02	121.52	16.23	-51.2	-72.1	3.8	7.47e-01	0	39	104	0	73	41379
2026-01-06 00:03:35.74	121.68	16.19	-51.2	-72.1	3.8	7.48e-01	0	39	104	0	73	41389
2026-01-06 00:03:37.03	121.97	16.11	-51.2	-72.1	3.8	7.48e-01	0	39	104	0	73	41411
2026-01-06 00:03:37.74	122.13	16.06	-51.2	-72.1	3.8	7.47e-01	0	39	104	0	73	41435
2026-01-06 00:03:39.03	122.41	15.98	-51.2	-72.2	3.8	7.46e-01	0	39	104	0	73	41528
2026-01-06 00:03:39.75	122.57	15.94	-51.2	-72.2	3.8	7.46e-01	0	39	104	0	73	41499
2026-01-06 00:03:41.04	122.85	15.85	-51.2	-72.1	3.8	7.48e-01	0	39	104	0	73	41446
2026-01-06 00:03:41.76	123.01	15.81	-51.2	-72.1	3.8	7.45e-01	0	39	104	0	73	41361
2026-01-06 00:03:43.05	123.29	15.72	-51.2	-72.1	3.8	7.43e-01	0	39	104	0	73	41442
2026-01-06 00:03:43.77	123.44	15.68	-51.2	-72.2	3.8	7.47e-01	0	39	104	0	73	41529
2026-01-06 00:03:45.06	123.72	15.59	-51.2	-72.2	3.8	7.46e-01	0	39	104	0	73	41506
2026-01-06 00:03:45.78	123.87	15.55	-51.2	-72.2	3.8	7.49e-01	0	39	104	0	73	41502
2026-01-06 00:03:47.07	124.15	15.46	-51.2	-72.2	3.8	7.49e-01	0	39	104	0	73	41502
2026-01-06 00:03:47.79	124.30	15.42	-51.2	-72.2	3.8	7.45e-01	0	39	104	0	73	41483
2026-01-06 00:03:49.08	124.57	15.33	-51.2	-72.2	3.8	7.47e-01	0	39	104	0	73	41594
2026-01-06 00:03:49.80	124.72	15.29	-51.2	-72.1	3.8	7.49e-01	0	39	104	0	73	41398
2026-01-06 00:03:51.08	124.99	15.20	-51.2	-72.2	3.8	7.45e-01	0	39	104	0	73	41567
2026-01-06 00:03:51.80	125.14	15.15	-51.2	-72.2	3.8	7.49e-01	0	39	104	0	73	41511
2026-01-06 00:03:53.09	125.40	15.07	-51.2	-72.2	3.8	7.48e-01	0	39	104	0	73	41522
2026-01-06 00:03:53.81	125.55	15.02	-51.2	-72.2	3.8	7.47e-01	0	39	104	0	73	41483
2026-01-06 00:03:55.10	125.81	14.94	-51.2	-72.2	3.8	7.44e-01	0	39	104	0	73	41589
2026-01-06 00:03:55.82	125.96	14.89	-51.2	-72.2	3.8	7.45e-01	0	39	104	0	73	41526
2026-01-06 00:03:57.11	126.22	14.80	-51.2	-72.2	3.8	7.46e-01	0	39	104	0	73	41500
2026-01-06 00:03:57.83	126.37	14.75	-51.3	-72.2	3.8	7.44e-01	0	39	104	0	73	41508
2026-01-06 00:03:59.12	126.63	14.67	-51.2	-72.2	3.8	7.45e-01	0	39	104	0	73	41562
2026-01-06 00:03:59.84	126.77	14.62	-51.3	-72.2	3.8	7.45e-01	0	39	104	0	73	41502
2026-01-06 00:04:01.13	127.03	14.53	-51.2	-72.2	3.8	7.46e-01	0	39	104	0	73	41500
2026-01-06 00:04:01.85	127.17	14.49	-51.3	-72.2	3.8	7.44e-01	0	39	104	0	73	41492
2026-01-06 00:04:03.14	127.43	14.40	-51.3	-72.2	3.8	7.46e-01	0	39	104	0	73	41662
2026-01-06 00:04:03.85	127.56	14.35	-51.3	-72.2	3.8	7.48e-01	0	39	104	0	73	41538
2026-01-06 00:04:05.14	127.82	14.27	-51.3	-72.2	3.8	7.48e-01	0	38	104	0	73	41476
2026-01-06 00:04:05.86	127.96	14.22	-51.3	-72.2	3.8	7.46e-01	0	39	104	0	73	41569
2026-01-06 00:04:07.15	128.21	14.13	-51.2	-72.2	3.8	7.47e-01	0	39	104	0	73	41483
2026-01-06 00:04:07.87	128.34	14.08	-51.2	-72.2	3.8	7.47e-01	0	39	104	0	73	41520
2026-01-06 00:04:09.16	128.59	13.99	-51.2	-72.2	3.8	7.46e-01	0	39	104	0	73	41491
2026-01-06 00:04:09.88	128.73	13.95	-51.2	-72.1	3.8	7.45e-01	0	39	104	0	73	41448
2026-01-06 00:04:11.17	128.97	13.86	-51.3	-72.2	3.8	7.48e-01	0	39	104	0	73	41528
2026-01-06 00:04:11.89	129.11	13.81	-51.2	-72.2	3.8	7.45e-01	0	39	104	0	73	41487
2026-01-06 00:04:13.18	129.35	13.72	-51.2	-72.2	3.8	7.50e-01	0	39	104	0	73	41467
2026-01-06 00:04:13.90	129.49	13.67	-51.2	-72.1	3.8	7.45e-01	0	39	104	0	73	41410
2026-01-06 00:04:15.19	129.73	13.59	-51.2	-72.2	3.8	7.46e-01	0	39	104	0	73	41541
2026-01-06 00:04:15.90	129.86	13.54	-51.2	-72.2	3.8	7.43e-01	0	39	104	0	73	41602
2026-01-06 00:04:17.19	130.10	13.45	-51.2	-72.2	3.8	7.46e-01	0	39	104	0	73	41482
2026-01-06 00:04:17.91	130.23	13.40	-51.2	-72.2	3.8	7.46e-01	0	39	104	0	73	41529
2026-01-06 00:04:19.20	130.47	13.31	-51.2	-72.2	3.8	7.47e-01	0	39	104	0	73	41549
2026-01-06 00:04:19.92	130.60	13.26	-51.3	-72.2	3.8	7.46e-01	0	39	104	0	73	41467
2026-01-06 00:04:21.21	130.83	13.18	-51.2	-72.2	3.8	7.45e-01	0	39	104	0	73	41475
2026-01-06 00:04:21.93	130.96	13.13	-51.3	-72.1	3.8	7.47e-01	0	39	104	0	73	41330
2026-01-06 00:04:23.22	131.19	13.04	-51.2	-72.1	3.8	7.50e-01	0	38	104	0	73	41408
2026-01-06 00:04:23.94	131.32	12.99	-51.2	-72.1	3.8	7.47e-01	0	39	104	0	73	41414
2026-01-06 00:04:25.23	131.55	12.90	-51.2	-72.2	3.8	7.44e-01	0	39	104	0	73	41511
2026-01-06 00:04:25.95	131.67	12.85	-51.2	-72.2	3.8	7.43e-01	0	39	104	0	73	41492
2026-01-06 00:04:27.24	131.90	12.76	-51.2	-72.2	3.8	7.47e-01	0	39	104	0	73	41530
2026-01-06 00:04:27.95	132.03	12.72	-51.2	-72.2	3.8	7.47e-01	0	39	104	0	73	41548
2026-01-06 00:04:29.24	132.25	12.63	-51.2	-72.2	3.8	7.47e-01	0	39	104	0	73	41470
2026-01-06 00:04:30.21	132.42	12.56	-51.2	-72.2	3.8	7.49e-01	0	39	104	0	73	41674
2026-01-06 00:04:31.54	132.65	12.47	-51.3	-72.2	3.8	7.45e-01	0	39	104	0	73	41529
2026-01-06 00:04:32.29	132.78	12.42	-51.2	-72.2	3.8	7.46e-01	0	39	104	0	73	41458
2026-01-06 00:04:33.90	133.05	12.31	-51.2	-72.1	3.8	7.45e-01	0	39	104	0	73	41323
2026-01-06 00:04:34.47	133.15	12.27	-51.2	-72.1	3.8	7.48e-01	0	39	104	0	73	41354
2026-01-06 00:04:36.05	133.41	12.16	-51.2	-72.1	3.8	7.47e-01	0	39	104	0	73	41409
2026-01-06 00:04:36.62	133.51	12.12	-51.2	-72.1	3.8	7.47e-01	0	39	104	0	73	41105
2026-01-06 00:04:38.20	133.77	12.01	-51.2	-72.1	3.8	7.46e-01	0	39	104	0	73	41370
2026-01-06 00:04:38.79	133.87	11.97	-51.2	-72.0	3.8	7.44e-01	0	39	104	0	73	40782
2026-01-06 00:04:40.37	134.13	11.87	-51.2	-72.1	3.8	7.48e-01	0	39	104	0	73	41389
2026-01-06 00:04:40.94	134.22	11.83	-51.2	-72.1	3.8	7.43e-01	0	39	104	0	73	41350
2026-01-06 00:04:42.53	134.48	11.72	-51.2	-72.1	3.8	7.48e-01	0	39	104	0	73	41047
2026-01-06 00:04:43.11	134.58	11.68	-51.2	-72.1	3.8	7.43e-01	0	39	104	0	73	41108
2026-01-06 00:04:44.72	134.84	11.57	-51.2	-72.0	3.8	7.47e-01	0	39	104	0	73	40873
2026-01-06 00:04:45.29	134.93	11.53	-51.2	-72.1	3.8	7.46e-01	0	39	104	0	73	41082
2026-01-06 00:04:46.88	135.18	11.42	-51.2	-72.1	3.8	7.51e-01	0	39	104	0	73	41417
2026-01-06 00:04:47.46	135.28	11.38	-51.2	-72.1	3.8	7.45e-01	0	39	104	0	73	41418
2026-01-06 00:04:49.03	135.52	11.27	-51.2	-72.0	3.8	7.42e-01	0	39	104	0	73	40588
2026-01-06 00:04:49.61	135.62	11.23	-51.2	-72.1	3.8	7.44e-01	0	39	104	0	73	41111
2026-01-06 00:04:51.18	135.86	11.13	-51.2	-72.1	3.8	7.47e-01	0	39	104	0	73	41451
2026-01-06 00:04:51.76	135.95	11.09	-51.2	-72.2	3.8	7.46e-01	0	39	104	0	73	41509
2026-01-06 00:04:53.35	136.20	10.98	-51.3	-72.1	3.8	7.45e-01	0	39	104	0	73	41395
2026-01-06 00:04:53.97	136.29	10.94	-51.2	-72.2	3.8	7.50e-01	0	39	104	0	73	41551
2026-01-06 00:04:55.55	136.53	10.83	-51.2	-72.2	3.8	7.48e-01	0	39	104	0	73	41555
2026-01-06 00:04:56.14	136.62	10.79	-51.2	-72.2	3.8	7.47e-01	0	39	104	0	73	41464
2026-01-06 00:04:57.72	136.86	10.68	-51.2	-72.1	3.8	7.45e-01	0	39	104	0	73	41306
2026-01-06 00:04:58.30	136.95	10.64	-51.2	-72.2	3.8	7.47e-01	0	39	104	0	73	41572
2026-01-06 00:05:00.16	137.23	10.52	-51.2	-72.2	3.8	7.47e-01	0	39	104	0	73	41514
2026-01-06 00:05:00.73	137.32	10.48	-51.2	-72.1	3.8	7.45e-01	0	39	104	0	73	41408
2026-01-06 00:05:02.31	137.55	10.37	-51.2	-72.2	3.8	7.48e-01	0	39	104	0	73	41457
2026-01-06 00:05:02.93	137.64	10.33	-51.2	-72.1	3.8	7.46e-01	0	39	104	0	73	41423
2026-01-06 00:05:04.51	137.87	10.22	-51.2	-72.1	3.8	7.41e-01	0	39	104	0	73	41428
2026-01-06 00:05:05.10	137.96	10.18	-51.2	-72.1	3.8	7.43e-01	0	39	104	0	73	41445
2026-01-06 00:05:06.67	138.19	10.08	-51.2	-72.2	3.8	7.48e-01	0	39	104	0	73	41456
2026-01-06 00:05:07.25	138.27	10.04	-51.2	-72.2	3.8	7.50e-01	0	39	104	0	73	41522
2026-01-06 00:05:08.83	138.50	9.93	-51.2	-72.2	3.8	7.44e-01	0	39	104	0	73	41522
2026-01-06 00:05:09.40	138.58	9.89	-51.2	-72.1	3.8	7.45e-01	0	39	104	0	73	41418
2026-01-06 00:05:10.98	138.80	9.79	-51.3	-72.2	3.8	7.46e-01	0	39	104	0	73	41575
2026-01-06 00:05:11.57	138.89	9.75	-51.2	-72.1	3.8	7.40e-01	0	39	104	0	73	41430
2026-01-06 00:05:13.20	139.12	9.64	-51.2	-72.1	3.8	7.46e-01	0	39	104	0	73	41445
2026-01-06 00:05:13.77	139.20	9.60	-51.2	-72.2	3.8	7.47e-01	0	39	104	0	73	41517
2026-01-06 00:05:15.36	139.42	9.49	-51.2	-72.1	3.8	7.44e-01	0	39	104	0	73	41445
2026-01-06 00:05:15.93	139.50	9.45	-51.2	-72.1	3.8	7.45e-01	0	39	104	0	73	41398
2026-01-06 00:05:17.51	139.71	9.35	-51.2	-72.1	3.8	7.45e-01	0	39	104	0	73	41449
2026-01-06 00:05:18.10	139.80	9.31	-51.3	-72.2	3.8	7.48e-01	0	39	104	0	73	41507
2026-01-06 00:05:19.68	140.01	9.20	-51.2	-72.2	3.8	7.44e-01	0	39	104	0	73	41486
2026-01-06 00:05:20.27	140.09	9.16	-51.2	-72.2	3.8	7.46e-01	0	39	104	0	73	41482
2026-01-06 00:05:22.04	140.33	9.05	-51.2	-72.2	3.8	7.45e-01	0	39	104	0	73	41547
2026-01-06 00:05:22.61	140.41	9.01	-51.3	-72.1	3.8	7.47e-01	0	39	104	0	73	41442
2026-01-06 00:05:24.20	140.62	8.90	-51.2	-72.2	3.8	7.43e-01	0	39	104	0	73	41514
2026-01-06 00:05:24.78	140.70	8.86	-51.3	-72.2	3.8	7.43e-01	0	39	104	0	73	41468
2026-01-06 00:05:26.35	140.90	8.76	-51.2	-72.2	3.8	7.41e-01	0	39	104	0	73	41493
2026-01-06 00:05:26.94	140.98	8.72	-51.3	-72.2	3.8	7.44e-01	0	39	104	0	73	41455
2026-01-06 00:05:28.52	141.19	8.62	-51.2	-72.2	3.8	7.48e-01	0	39	104	0	73	41482
2026-01-06 00:05:29.11	141.26	8.58	-51.2	-72.2	3.8	7.47e-01	0	39	104	0	73	41511
2026-01-06 00:05:30.69	141.47	8.47	-51.3	-72.2	3.8	7.47e-01	0	39	104	0	73	41476
2026-01-06 00:05:31.26	141.54	8.43	-51.3	-72.1	3.8	7.45e-01	0	39	104	0	73	41420
2026-01-06 00:05:32.86	141.75	8.33	-51.3	-72.2	3.8	7.47e-01	0	39	104	0	73	41530
2026-01-06 00:05:33.43	141.82	8.29	-51.3	-72.2	3.8	7.43e-01	0	39	104	0	73	41487
2026-01-06 00:05:35.01	142.02	8.19	-51.3	-72.2	3.8	7.47e-01	0	39	104	0	73	41458
2026-01-06 00:05:35.60	142.09	8.15	-51.2	-72.2	3.8	7.45e-01	0	39	104	0	73	41541
2026-01-06 00:05:37.18	142.29	8.05	-51.2	-72.2	3.8	7.45e-01	0	39	104	0	73	41467
2026-01-06 00:05:37.75	142.36	8.01	-51.2	-72.1	3.8	7.44e-01	0	39	104	0	73	41419
2026-01-06 00:05:39.34	142.56	7.90	-51.2	-72.2	3.8	7.43e-01	0	39	104	0	73	41495
2026-01-06 00:05:39.92	142.63	7.87	-51.2	-72.2	3.8	7.46e-01	0	39	104	0	73	41495
2026-01-06 00:05:41.51	142.83	7.76	-51.2	-72.2	3.8	7.45e-01	0	39	104	0	73	41523
2026-01-06 00:05:42.08	142.90	7.73	-51.2	-72.2	3.8	7.43e-01	0	39	104	0	73	41515
2026-01-06 00:05:43.66	143.09	7.62	-51.2	-72.2	3.8	7.48e-01	0	39	104	0	73	41497
2026-01-06 00:05:44.24	143.16	7.59	-51.2	-72.2	3.8	7.44e-01	0	39	104	0	73	41486
2026-01-06 00:05:45.82	143.35	7.48	-51.2	-72.2	3.8	7.46e-01	0	39	104	0	73	41536
2026-01-06 00:05:46.39	143.42	7.45	-51.3	-72.2	3.8	7.43e-01	0	39	104	0	73	41492
2026-01-06 00:05:47.97	143.61	7.34	-51.3	-72.2	3.8	7.42e-01	0	39	104	0	73	41512
2026-01-06 00:05:48.54	143.67	7.31	-51.3	-72.1	3.8	7.48e-01	0	39	104	0	73	41427
2026-01-06 00:05:50.12	143.86	7.21	-51.2	-72.2	3.8	7.47e-01	0	39	104	0	73	41489
2026-01-06 00:05:50.73	143.93	7.17	-51.3	-72.2	3.8	7.48e-01	0	39	104	0	73	41525
2026-01-06 00:05:52.30	144.12	7.07	-51.3	-72.2	3.8	7.45e-01	0	39	104	0	73	41462
2026-01-06 00:05:52.88	144.18	7.03	-51.3	-72.2	3.8	7.46e-01	0	39	104	0	73	41530
2026-01-06 00:05:54.46	144.37	6.93	-51.3	-72.2	3.8	7.45e-01	0	39	104	0	73	41519
2026-01-06 00:05:55.06	144.43	6.89	-51.3	-72.2	3.8	7.46e-01	0	39	104	0	73	41517
2026-01-06 00:05:56.63	144.61	6.79	-51.3	-72.2	3.8	7.46e-01	0	39	104	0	73	41494
2026-01-06 00:05:57