passes_logs/2026/01/05/T1/T1__20260105_030516_NOAA_20_JPSS-1_rec.log

#Pass ID: 20260105_030516_NOAA 20 (JPSS-1)
#Satellite: NOAA 20 (JPSS-1)
#Configuration: NOAA 20
#almurnet v.1.7.20251203
#Start time: 2026-01-05 03:05:16

#Version: 2.0.20230620
#Station: T1
#Location: 37.570604 lon 55.790049 lat
#TLE: 1 43013U 17073A   26004.47528369  .00000132  00000+0  83671-4 0  9999
#TLE: 2 43013  98.7626 305.5264 0001854  54.5883 305.5466 14.19533142421242

#Time	Az	El	Level	Level2	SNR	BER	BlckErr	Temp	State	Recorded	gain1	gain2
2026-01-05 03:05:16.35	353.93	5.01	-52.9	-68.3	3.8	1.49e+00	0	40	0	0	77	21242
2026-01-05 03:05:17.35	353.79	5.03	-52.9	-68.4	3.8	1.49e+00	0	40	104	0	77	21262
2026-01-05 03:05:18.36	353.64	5.06	-52.9	-68.4	3.8	1.49e+00	0	40	104	0	77	21269
2026-01-05 03:05:19.36	353.50	5.08	-52.9	-68.4	3.8	1.49e+00	0	40	104	0	77	21267
2026-01-05 03:05:20.36	353.36	5.11	-52.9	-68.3	3.8	1.49e+00	0	41	104	0	77	21198
2026-01-05 03:05:21.37	353.22	5.13	-52.9	-68.4	3.8	1.49e+00	0	40	104	0	77	21268
2026-01-05 03:05:22.37	353.07	5.16	-52.9	-68.4	3.8	1.49e+00	0	41	104	0	77	21307
2026-01-05 03:05:23.38	352.93	5.18	-52.9	-68.4	3.8	1.49e+00	0	40	104	0	77	21352
2026-01-05 03:05:24.38	352.79	5.21	-52.9	-68.3	3.8	1.49e+00	0	41	104	0	77	21248
2026-01-05 03:05:25.39	352.64	5.23	-52.9	-68.3	3.8	1.49e+00	0	41	104	0	77	21214
2026-01-05 03:05:26.39	352.50	5.26	-52.9	-68.3	3.8	1.49e+00	0	41	104	0	77	21247
2026-01-05 03:05:27.39	352.36	5.28	-52.9	-68.4	3.8	1.49e+00	0	41	104	0	77	21305
2026-01-05 03:05:28.40	352.21	5.30	-52.9	-68.3	3.8	1.49e+00	0	41	104	0	77	21209
2026-01-05 03:05:29.40	352.07	5.33	-52.9	-68.3	3.8	1.49e+00	0	41	104	0	77	21225
2026-01-05 03:05:30.41	351.92	5.35	-52.9	-68.3	3.8	1.49e+00	0	41	104	0	77	21122
2026-01-05 03:05:31.41	351.78	5.38	-52.9	-68.3	3.8	1.49e+00	0	41	104	0	77	21236
2026-01-05 03:05:32.42	351.63	5.40	-52.9	-68.3	3.8	1.49e+00	0	41	104	0	77	21238
2026-01-05 03:05:33.42	351.49	5.42	-52.9	-68.4	3.8	1.49e+00	0	41	104	0	77	21301
2026-01-05 03:05:34.43	351.34	5.45	-52.9	-68.4	3.8	1.49e+00	0	41	104	0	77	21322
2026-01-05 03:05:35.43	351.20	5.47	-52.9	-68.4	3.8	1.49e+00	0	41	104	0	77	21266
2026-01-05 03:05:36.44	351.05	5.49	-52.9	-68.4	3.8	1.49e+00	0	41	104	0	77	21347
2026-01-05 03:05:37.44	350.90	5.51	-52.9	-68.3	3.8	1.49e+00	0	41	104	0	77	21256
2026-01-05 03:05:38.44	350.76	5.54	-52.9	-68.4	3.8	1.49e+00	0	41	104	0	77	21333
2026-01-05 03:05:39.45	350.61	5.56	-52.9	-68.4	3.8	1.49e+00	0	41	104	0	77	21294
2026-01-05 03:05:40.45	350.46	5.58	-52.9	-68.4	3.8	1.49e+00	0	41	104	0	77	21388
2026-01-05 03:05:41.46	350.32	5.60	-52.9	-68.4	3.8	1.49e+00	0	41	104	0	77	21267
2026-01-05 03:05:42.46	350.17	5.63	-52.9	-68.4	3.8	1.49e+00	0	41	104	0	77	21276
2026-01-05 03:05:43.47	350.02	5.65	-52.9	-68.3	3.8	1.49e+00	0	41	104	0	77	21246
2026-01-05 03:05:44.47	349.87	5.67	-52.9	-68.4	3.8	1.49e+00	0	41	104	0	77	21286
2026-01-05 03:05:45.47	349.73	5.69	-52.9	-68.4	3.8	1.49e+00	0	41	104	0	77	21341
2026-01-05 03:05:46.48	349.58	5.71	-52.9	-68.4	3.8	1.49e+00	0	41	104	0	77	21276
2026-01-05 03:05:47.48	349.43	5.73	-52.9	-68.4	3.8	1.49e+00	0	41	104	0	77	21317
2026-01-05 03:05:48.48	349.28	5.76	-52.9	-68.4	3.8	1.49e+00	0	42	104	0	77	21387
2026-01-05 03:05:49.49	349.13	5.78	-52.9	-68.3	3.8	1.49e+00	0	42	104	0	77	21196
2026-01-05 03:05:50.49	348.98	5.80	-52.9	-68.3	3.8	1.49e+00	0	42	104	0	77	21206
2026-01-05 03:05:51.50	348.83	5.82	-52.9	-68.4	3.8	1.49e+00	0	42	104	0	77	21306
2026-01-05 03:05:52.50	348.68	5.84	-52.9	-68.4	3.8	1.49e+00	0	42	104	0	77	21275
2026-01-05 03:05:53.51	348.53	5.86	-52.9	-68.3	3.8	1.49e+00	0	42	104	0	77	21247
2026-01-05 03:05:54.51	348.38	5.88	-52.9	-68.3	3.8	1.49e+00	0	42	104	0	77	21182
2026-01-05 03:05:55.51	348.23	5.90	-52.9	-68.4	3.8	1.49e+00	0	42	104	0	77	21342
2026-01-05 03:05:56.52	348.08	5.92	-52.9	-68.3	3.8	1.49e+00	0	42	104	0	77	21253
2026-01-05 03:05:57.52	347.93	5.94	-52.9	-68.4	3.8	1.49e+00	0	42	104	0	77	21294
2026-01-05 03:05:58.52	347.78	5.96	-52.9	-68.3	3.8	1.49e+00	0	42	104	0	77	21248
2026-01-05 03:05:59.53	347.63	5.98	-52.9	-68.3	3.8	1.49e+00	0	42	104	0	77	21141
2026-01-05 03:06:00.53	347.48	5.99	-52.9	-68.4	3.8	1.49e+00	0	42	104	0	77	21349
2026-01-05 03:06:01.53	347.33	6.01	-52.9	-68.3	3.8	1.49e+00	0	42	104	0	77	21174
2026-01-05 03:06:02.54	347.18	6.03	-52.9	-68.4	3.8	1.49e+00	0	42	104	0	77	21392
2026-01-05 03:06:03.54	347.02	6.05	-52.9	-68.4	3.8	1.49e+00	0	42	104	0	77	21384
2026-01-05 03:06:04.55	346.87	6.07	-52.9	-68.3	3.8	1.49e+00	0	42	104	0	77	21231
2026-01-05 03:06:05.55	346.72	6.09	-52.9	-68.4	3.8	1.49e+00	0	42	104	0	77	21305
2026-01-05 03:06:06.55	346.57	6.11	-52.9	-68.4	3.8	1.49e+00	0	42	104	0	77	21318
2026-01-05 03:06:07.56	346.41	6.12	-52.9	-68.3	3.8	1.49e+00	0	42	104	0	77	21174
2026-01-05 03:06:08.56	346.26	6.14	-52.9	-68.4	3.8	1.49e+00	0	42	104	0	77	21280
2026-01-05 03:06:09.57	346.11	6.16	-52.9	-68.4	3.8	1.49e+00	0	42	104	0	77	21311
2026-01-05 03:06:10.57	345.96	6.18	-52.9	-68.4	3.8	1.49e+00	0	42	104	0	77	21293
2026-01-05 03:06:11.57	345.80	6.19	-52.9	-68.4	3.8	1.49e+00	0	42	104	0	77	21263
2026-01-05 03:06:12.58	345.65	6.21	-52.9	-68.4	3.8	1.49e+00	0	42	104	0	77	21378
2026-01-05 03:06:13.58	345.50	6.23	-52.9	-68.4	3.8	1.49e+00	0	42	104	0	77	21340
2026-01-05 03:06:14.59	345.34	6.24	-52.9	-68.4	3.8	1.49e+00	0	42	104	0	77	21385
2026-01-05 03:06:15.59	345.19	6.26	-52.9	-68.4	3.8	1.49e+00	0	42	104	0	77	21261
2026-01-05 03:06:16.60	345.03	6.28	-52.9	-68.4	3.8	1.49e+00	0	42	104	0	77	21310
2026-01-05 03:06:17.60	344.88	6.29	-52.9	-68.4	3.8	1.49e+00	0	42	104	0	77	21269
2026-01-05 03:06:18.61	344.72	6.31	-52.9	-68.4	3.8	1.49e+00	0	42	104	0	77	21289
2026-01-05 03:06:19.61	344.57	6.32	-52.9	-68.4	3.8	1.49e+00	0	42	104	0	77	21268
2026-01-05 03:06:20.61	344.41	6.34	-52.9	-68.4	3.8	1.49e+00	0	42	104	0	77	21307
2026-01-05 03:06:21.62	344.26	6.35	-52.9	-68.4	3.8	1.49e+00	0	42	104	0	77	21282
2026-01-05 03:06:22.62	344.10	6.37	-52.9	-68.4	3.8	1.49e+00	0	42	104	0	77	21439
2026-01-05 03:06:23.63	343.95	6.38	-52.9	-68.4	3.8	1.49e+00	0	42	104	0	77	21298
2026-01-05 03:06:24.63	343.79	6.40	-52.9	-68.4	3.8	1.49e+00	0	42	104	0	77	21278
2026-01-05 03:06:25.64	343.63	6.41	-52.9	-68.4	3.8	1.49e+00	0	42	104	0	77	21269
2026-01-05 03:06:26.64	343.48	6.43	-52.9	-68.4	3.8	1.49e+00	0	42	104	0	77	21308
2026-01-05 03:06:27.65	343.32	6.44	-52.9	-68.4	3.8	1.49e+00	0	42	104	0	77	21266
2026-01-05 03:06:28.65	343.17	6.46	-52.9	-68.4	3.8	1.49e+00	0	42	104	0	77	21270
2026-01-05 03:06:29.65	343.01	6.47	-52.9	-68.4	3.8	1.49e+00	0	42	104	0	77	21365
2026-01-05 03:06:30.66	342.85	6.48	-52.9	-68.3	3.8	1.49e+00	0	43	104	0	77	21254
2026-01-05 03:06:31.66	342.70	6.50	-52.9	-68.3	3.8	1.49e+00	0	42	104	0	77	21223
2026-01-05 03:06:32.67	342.54	6.51	-52.9	-68.4	3.8	1.49e+00	0	42	104	0	77	21355
2026-01-05 03:06:33.67	342.38	6.52	-52.9	-68.4	3.8	1.49e+00	0	42	104	0	77	21322
2026-01-05 03:06:34.68	342.22	6.54	-52.9	-68.4	3.8	1.49e+00	0	42	104	0	77	21328
2026-01-05 03:06:35.68	342.07	6.55	-52.9	-68.4	3.8	1.49e+00	0	42	104	0	77	21425
2026-01-05 03:06:36.69	341.91	6.56	-52.9	-68.4	3.8	1.49e+00	0	42	104	0	77	21289
2026-01-05 03:06:37.69	341.75	6.57	-52.9	-68.4	3.8	1.49e+00	0	42	104	0	77	21326
2026-01-05 03:06:38.69	341.60	6.59	-52.9	-68.4	3.8	1.49e+00	0	42	104	0	77	21329
2026-01-05 03:06:39.70	341.44	6.60	-52.9	-68.4	3.8	1.49e+00	0	42	104	0	77	21317
2026-01-05 03:06:40.70	341.28	6.61	-52.9	-68.4	3.8	1.49e+00	0	42	104	0	77	21361
2026-01-05 03:06:41.70	341.12	6.62	-52.9	-68.4	3.8	1.49e+00	0	42	104	0	77	21358
2026-01-05 03:06:42.70	340.96	6.63	-52.9	-68.3	3.8	1.49e+00	0	43	104	0	77	21255
2026-01-05 03:06:43.71	340.80	6.64	-52.9	-68.4	3.8	1.49e+00	0	43	104	0	77	21338
2026-01-05 03:06:44.71	340.65	6.65	-52.9	-68.4	3.8	1.49e+00	0	43	104	0	77	21317
2026-01-05 03:06:45.72	340.49	6.66	-52.9	-68.4	3.8	1.49e+00	0	42	104	0	77	21357
2026-01-05 03:06:46.72	340.33	6.67	-52.9	-68.4	3.8	1.49e+00	0	43	104	0	77	21325
2026-01-05 03:06:47.73	340.17	6.68	-52.9	-68.4	3.8	1.49e+00	0	43	104	0	77	21316
2026-01-05 03:06:48.73	340.01	6.69	-52.9	-68.4	3.8	1.49e+00	0	42	104	0	77	21342
2026-01-05 03:06:49.74	339.85	6.70	-52.9	-68.4	3.8	1.49e+00	0	42	104	0	77	21313
2026-01-05 03:06:50.74	339.69	6.71	-52.9	-68.4	3.8	1.49e+00	0	43	104	0	77	21355
2026-01-05 03:06:51.74	339.53	6.72	-52.9	-68.3	3.8	1.49e+00	0	43	104	0	77	21235
2026-01-05 03:06:52.75	339.37	6.73	-52.9	-68.4	3.8	1.49e+00	0	43	104	0	77	21392
2026-01-05 03:06:53.75	339.21	6.74	-52.9	-68.4	3.8	1.49e+00	0	43	104	0	77	21313
2026-01-05 03:06:54.76	339.05	6.75	-52.9	-68.4	3.8	1.49e+00	0	42	104	0	77	21354
2026-01-05 03:06:55.76	338.89	6.76	-52.9	-68.4	3.8	1.49e+00	0	43	104	0	77	21333
2026-01-05 03:06:56.77	338.73	6.77	-52.9	-68.4	3.8	1.49e+00	0	43	104	0	77	21339
2026-01-05 03:06:57.77	338.57	6.78	-52.9	-68.4	3.8	1.49e+00	0	43	104	0	77	21299
2026-01-05 03:06:58.78	338.41	6.78	-52.9	-68.4	3.8	1.49e+00	0	43	104	0	77	21445
2026-01-05 03:06:59.78	338.25	6.79	-52.9	-68.4	3.8	1.49e+00	0	43	104	0	77	21339
2026-01-05 03:07:00.78	338.10	6.80	-52.9	-68.4	3.8	1.49e+00	0	43	104	0	77	21304
2026-01-05 03:07:01.79	337.93	6.81	-52.9	-68.4	3.8	1.49e+00	0	43	104	0	77	21377
2026-01-05 03:07:02.79	337.77	6.81	-52.9	-68.4	3.8	1.49e+00	0	43	104	0	77	21323
2026-01-05 03:07:03.79	337.61	6.82	-52.9	-68.4	3.8	1.49e+00	0	43	104	0	77	21344
2026-01-05 03:07:04.80	337.45	6.83	-52.9	-68.4	3.8	1.49e+00	0	43	104	0	77	21357
2026-01-05 03:07:05.80	337.29	6.83	-52.9	-68.4	3.8	1.49e+00	0	43	104	0	77	21383
2026-01-05 03:07:06.81	337.13	6.84	-52.9	-68.4	3.8	1.49e+00	0	43	104	0	77	21372
2026-01-05 03:07:07.81	336.97	6.85	-52.9	-68.4	3.8	1.49e+00	0	43	104	0	77	21321
2026-01-05 03:07:08.81	336.81	6.85	-52.9	-68.4	3.8	1.49e+00	0	43	104	0	77	21344
2026-01-05 03:07:09.82	336.65	6.86	-52.9	-68.4	3.8	1.49e+00	0	43	104	0	77	21275
2026-01-05 03:07:10.82	336.49	6.86	-52.9	-68.4	3.8	1.49e+00	0	42	104	0	77	21372
2026-01-05 03:07:11.83	336.33	6.87	-52.9	-68.4	3.8	1.49e+00	0	43	104	0	77	21358
2026-01-05 03:07:12.83	336.17	6.87	-52.9	-68.4	3.8	1.49e+00	0	43	104	0	77	21350
2026-01-05 03:07:13.84	336.00	6.88	-52.9	-68.4	3.8	1.49e+00	0	43	104	0	77	21314
2026-01-05 03:07:14.84	335.84	6.88	-53.0	-68.4	3.8	1.49e+00	0	43	104	0	77	21395
2026-01-05 03:07:15.84	335.68	6.89	-52.9	-68.4	3.8	1.49e+00	0	43	104	0	77	21372
2026-01-05 03:07:16.85	335.52	6.89	-52.9	-68.4	3.8	1.49e+00	0	43	104	0	77	21360
2026-01-05 03:07:17.85	335.36	6.90	-53.0	-68.4	3.8	1.49e+00	0	43	104	0	77	21300
2026-01-05 03:07:18.86	335.20	6.90	-53.0	-68.4	3.8	1.49e+00	0	43	104	0	77	21397
2026-01-05 03:07:19.86	335.04	6.90	-53.0	-68.4	3.8	1.49e+00	0	43	104	0	77	21361
2026-01-05 03:07:20.86	334.88	6.91	-52.9	-68.4	3.8	1.49e+00	0	43	104	0	77	21457
2026-01-05 03:07:21.87	334.71	6.91	-52.9	-68.4	3.8	1.49e+00	0	43	104	0	77	21353
2026-01-05 03:07:22.87	334.55	6.91	-53.0	-68.4	3.8	1.49e+00	0	43	104	0	77	21378
2026-01-05 03:07:23.88	334.39	6.92	-52.9	-68.4	3.8	1.49e+00	0	43	104	0	77	21402
2026-01-05 03:07:24.88	334.23	6.92	-53.0	-68.4	3.8	1.49e+00	0	43	104	0	77	21437
2026-01-05 03:07:25.89	334.07	6.92	-53.0	-68.4	3.8	1.49e+00	0	43	104	0	77	21420
2026-01-05 03:07:26.89	333.91	6.92	-52.9	-68.4	3.8	1.49e+00	0	43	104	0	77	21443
2026-01-05 03:07:27.90	333.74	6.92	-52.9	-68.4	3.8	1.49e+00	0	43	104	0	77	21366
2026-01-05 03:07:28.90	333.58	6.93	-53.0	-68.4	3.8	1.49e+00	0	43	104	0	77	21344
2026-01-05 03:07:29.90	333.42	6.93	-52.9	-68.4	3.8	1.49e+00	0	43	104	0	77	21447
2026-01-05 03:07:30.91	333.26	6.93	-53.0	-68.4	3.8	1.49e+00	0	43	104	0	77	21305
2026-01-05 03:07:31.91	333.10	6.93	-52.9	-68.3	3.8	1.49e+00	0	43	104	0	77	21242
2026-01-05 03:07:32.92	332.94	6.93	-53.0	-68.4	3.8	1.49e+00	0	43	104	0	77	21374
2026-01-05 03:07:33.92	332.77	6.93	-53.0	-68.4	3.8	1.49e+00	0	43	104	0	77	21366
2026-01-05 03:07:34.92	332.61	6.93	-53.0	-68.4	3.8	1.49e+00	0	43	104	0	77	21379
2026-01-05 03:07:35.93	332.45	6.93	-53.0	-68.4	3.8	1.49e+00	0	43	104	0	77	21352
2026-01-05 03:07:36.93	332.29	6.93	-53.0	-68.4	3.8	1.49e+00	0	43	104	0	77	21414
2026-01-05 03:07:37.94	332.13	6.93	-53.0	-68.4	3.8	1.49e+00	0	43	104	0	77	21345
2026-01-05 03:07:38.94	331.97	6.93	-53.0	-68.4	3.8	1.49e+00	0	43	104	0	77	21404
2026-01-05 03:07:39.94	331.80	6.93	-53.0	-68.4	3.8	1.49e+00	0	43	104	0	77	21384
2026-01-05 03:07:40.95	331.64	6.93	-53.0	-68.4	3.8	1.49e+00	0	43	104	0	77	21401
2026-01-05 03:07:41.95	331.48	6.93	-53.0	-68.4	3.8	1.49e+00	0	43	104	0	77	21462
2026-01-05 03:07:42.96	331.32	6.93	-53.0	-68.4	3.8	1.49e+00	0	43	104	0	77	21453
2026-01-05 03:07:43.96	331.16	6.93	-53.0	-68.4	3.8	1.49e+00	0	43	104	0	77	21374
2026-01-05 03:07:44.97	330.99	6.92	-53.0	-68.4	3.8	1.49e+00	0	43	104	0	77	21405
2026-01-05 03:07:45.97	330.83	6.92	-53.0	-68.4	3.8	1.49e+00	0	43	104	0	77	21387
2026-01-05 03:07:46.98	330.67	6.92	-53.0	-68.4	3.8	1.49e+00	0	43	104	0	77	21306
2026-01-05 03:07:47.98	330.51	6.92	-53.0	-68.4	3.8	1.49e+00	0	43	104	0	77	21442
2026-01-05 03:07:48.98	330.35	6.92	-53.0	-68.4	3.8	1.49e+00	0	43	104	0	77	21439
2026-01-05 03:07:49.99	330.19	6.91	-53.0	-68.4	3.8	1.49e+00	0	43	104	0	77	21383
2026-01-05 03:07:50.99	330.03	6.91	-53.0	-68.4	3.8	1.49e+00	0	43	104	0	77	21455
2026-01-05 03:07:51.99	329.86	6.91	-53.0	-68.4	3.8	1.49e+00	0	43	104	0	77	21422
2026-01-05 03:07:53.00	329.70	6.90	-53.0	-68.5	3.8	1.49e+00	0	43	104	0	77	21509
2026-01-05 03:07:54.00	329.54	6.90	-53.0	-68.4	3.8	1.49e+00	0	43	104	0	77	21494
2026-01-05 03:07:55.01	329.38	6.90	-53.0	-68.5	3.8	1.49e+00	0	43	104	0	77	21522
2026-01-05 03:07:56.01	329.22	6.89	-53.0	-68.4	3.8	1.49e+00	0	43	104	0	77	21306
2026-01-05 03:07:57.01	329.06	6.89	-53.0	-68.4	3.8	1.49e+00	0	43	104	0	77	21504
2026-01-05 03:07:58.02	328.90	6.88	-53.0	-68.4	3.8	1.49e+00	0	43	104	0	77	21437
2026-01-05 03:07:59.02	328.73	6.88	-53.0	-68.4	3.8	1.49e+00	0	43	104	0	77	21439
2026-01-05 03:08:00.03	328.57	6.87	-53.0	-68.4	3.8	1.49e+00	0	43	104	0	77	21416
2026-01-05 03:08:01.03	328.41	6.87	-53.0	-68.4	3.8	1.49e+00	0	43	104	0	77	21307
2026-01-05 03:08:02.04	328.25	6.86	-53.0	-68.4	3.8	1.49e+00	0	43	104	0	77	21497
2026-01-05 03:08:03.04	328.09	6.86	-53.0	-68.5	3.8	1.49e+00	0	43	104	0	77	21522
2026-01-05 03:08:04.05	327.93	6.85	-53.0	-68.4	3.8	1.49e+00	0	43	104	0	77	21483
2026-01-05 03:08:05.05	327.77	6.85	-53.0	-68.4	3.8	1.49e+00	0	43	104	0	77	21420
2026-01-05 03:08:06.05	327.61	6.84	-53.0	-68.4	3.8	1.49e+00	0	43	104	0	77	21454
2026-01-05 03:08:07.06	327.45	6.83	-53.0	-68.4	3.8	1.49e+00	0	43	104	0	77	21416
2026-01-05 03:08:08.06	327.29	6.83	-53.0	-68.4	3.8	1.49e+00	0	43	104	0	77	21481
2026-01-05 03:08:09.07	327.12	6.82	-53.0	-68.4	3.8	1.49e+00	0	43	104	0	77	21422
2026-01-05 03:08:10.07	326.96	6.81	-53.0	-68.5	3.8	1.49e+00	0	43	104	0	77	21637
2026-01-05 03:08:11.08	326.80	6.81	-53.0	-68.5	3.8	1.49e+00	0	43	104	0	77	21522
2026-01-05 03:08:12.08	326.64	6.80	-53.0	-68.4	3.8	1.49e+00	0	43	104	0	77	21402
2026-01-05 03:08:13.08	326.48	6.79	-53.0	-68.4	3.8	1.49e+00	0	43	104	0	77	21417
2026-01-05 03:08:14.09	326.32	6.78	-53.0	-68.4	3.8	1.49e+00	0	43	104	0	77	21460
2026-01-05 03:08:15.09	326.16	6.78	-53.0	-68.4	3.8	1.49e+00	0	43	104	0	77	21419
2026-01-05 03:08:16.10	326.00	6.77	-53.0	-68.4	3.8	1.49e+00	0	43	104	0	77	21368
2026-01-05 03:08:17.10	325.84	6.76	-53.0	-68.4	3.8	1.49e+00	0	43	104	0	77	21416
2026-01-05 03:08:18.10	325.68	6.75	-53.0	-68.4	3.8	1.49e+00	0	43	104	0	77	21348
2026-01-05 03:08:19.11	325.52	6.74	-53.0	-68.4	3.8	1.49e+00	0	43	104	0	77	21451
2026-01-05 03:08:20.11	325.36	6.73	-53.0	-68.4	3.8	1.49e+00	0	43	104	0	77	21482
2026-01-05 03:08:21.11	325.21	6.72	-53.0	-68.5	3.8	1.49e+00	0	43	104	0	77	21512
2026-01-05 03:08:22.12	325.04	6.71	-53.0	-68.4	3.8	1.49e+00	0	43	104	0	77	21481
2026-01-05 03:08:23.12	324.89	6.70	-53.0	-68.4	3.8	1.49e+00	0	43	104	0	77	21414
2026-01-05 03:08:24.13	324.73	6.69	-53.0	-68.4	3.8	1.49e+00	0	43	104	0	77	21456
2026-01-05 03:08:25.13	324.57	6.68	-53.0	-68.4	3.8	1.49e+00	0	43	104	0	77	21428
2026-01-05 03:08:26.14	324.41	6.67	-53.0	-68.4	3.8	1.49e+00	0	43	104	0	77	21428
2026-01-05 03:08:27.14	324.25	6.66	-53.0	-68.4	3.8	1.49e+00	0	43	104	0	77	21391
2026-01-05 03:08:28.14	324.09	6.65	-53.0	-68.5	3.8	1.49e+00	0	43	104	0	77	21547
2026-01-05 03:08:29.15	323.93	6.64	-53.0	-68.4	3.8	1.49e+00	0	43	104	0	77	21439
2026-01-05 03:08:30.15	323.77	6.63	-53.0	-68.4	3.8	1.49e+00	0	43	104	0	77	21486
2026-01-05 03:08:31.16	323.61	6.62	-53.0	-68.4	3.8	1.49e+00	0	43	104	0	77	21443
2026-01-05 03:08:32.16	323.46	6.61	-53.0	-68.4	3.8	1.49e+00	0	43	104	0	77	21481
2026-01-05 03:08:33.16	323.30	6.60	-53.0	-68.4	3.8	1.49e+00	0	43	104	0	77	21418
2026-01-05 03:08:34.17	323.14	6.58	-53.0	-68.4	3.8	1.49e+00	0	43	104	0	77	21424
2026-01-05 03:08:35.17	322.98	6.57	-53.0	-68.4	3.8	1.49e+00	0	43	104	0	77	21467
2026-01-05 03:08:36.18	322.82	6.56	-53.0	-68.4	3.8	1.49e+00	0	43	104	0	77	21487
2026-01-05 03:08:37.18	322.67	6.55	-53.0	-68.4	3.8	1.49e+00	0	43	104	0	77	21450
2026-01-05 03:08:38.19	322.51	6.53	-53.0	-68.4	3.8	1.49e+00	0	43	104	0	77	21419
2026-01-05 03:08:39.19	322.35	6.52	-53.0	-68.4	3.8	1.49e+00	0	43	104	0	77	21442
2026-01-05 03:08:40.19	322.20	6.51	-53.0	-68.4	3.8	1.49e+00	0	43	104	0	77	21349
2026-01-05 03:08:41.20	322.04	6.50	-53.0	-68.4	3.8	1.49e+00	0	43	104	0	77	21494
2026-01-05 03:08:42.20	321.88	6.48	-53.0	-68.4	3.8	1.49e+00	0	43	104	0	77	21504
2026-01-05 03:08:43.21	321.72	6.47	-53.0	-68.4	3.8	1.49e+00	0	43	104	0	77	21474
2026-01-05 03:08:44.21	321.57	6.46	-53.0	-68.4	3.8	1.49e+00	0	43	104	0	77	21480
2026-01-05 03:08:45.22	321.41	6.44	-53.0	-68.4	3.8	1.49e+00	0	43	104	0	77	21404
2026-01-05 03:08:46.22	321.25	6.43	-53.0	-68.4	3.8	1.49e+00	0	43	104	0	77	21439
2026-01-05 03:08:47.23	321.10	6.41	-53.0	-68.4	3.8	1.49e+00	0	43	104	0	77	21442
2026-01-05 03:08:48.23	320.94	6.40	-53.0	-68.4	3.8	1.49e+00	0	43	104	0	77	21486
2026-01-05 03:08:49.23	320.79	6.38	-53.0	-68.4	3.8	1.49e+00	0	43	104	0	77	21480
2026-01-05 03:08:50.24	320.63	6.37	-53.0	-68.4	3.8	1.49e+00	0	43	104	0	77	21441
2026-01-05 03:08:51.24	320.48	6.35	-53.0	-68.4	3.8	1.49e+00	0	43	104	0	77	21403
2026-01-05 03:08:52.25	320.32	6.34	-53.0	-68.4	3.8	1.49e+00	0	43	104	0	77	21490
2026-01-05 03:08:53.25	320.16	6.32	-53.0	-68.4	3.8	1.49e+00	0	43	104	0	77	21451
2026-01-05 03:08:54.26	320.01	6.31	-53.0	-68.4	3.8	1.49e+00	0	43	104	0	77	21463
2026-01-05 03:08:55.26	319.85	6.29	-53.0	-68.4	3.8	1.49e+00	0	43	104	0	77	21470
2026-01-05 03:08:56.27	319.70	6.27	-53.0	-68.4	3.8	1.49e+00	0	43	104	0	77	21504
2026-01-05 03:08:57.27	319.54	6.26	-53.0	-68.4	3.8	1.49e+00	0	43	104	0	77	21493
2026-01-05 03:08:58.27	319.39	6.24	-53.0	-68.5	3.8	1.49e+00	0	43	104	0	77	21532
2026-01-05 03:08:59.28	319.24	6.23	-53.0	-68.5	3.8	1.49e+00	0	43	104	0	77	21566
2026-01-05 03:09:00.28	319.08	6.21	-53.0	-68.4	3.8	1.49e+00	0	43	104	0	77	21384
2026-01-05 03:09:01.29	318.93	6.19	-53.0	-68.4	3.8	1.49e+00	0	43	104	0	77	21496
2026-01-05 03:09:02.29	318.77	6.17	-53.0	-68.5	3.8	1.49e+00	0	43	104	0	77	21516
2026-01-05 03:09:03.29	318.62	6.16	-53.0	-68.5	3.8	1.49e+00	0	43	104	0	77	21520
2026-01-05 03:09:04.30	318.47	6.14	-53.0	-68.4	3.8	1.49e+00	0	43	104	0	77	21447
2026-01-05 03:09:05.30	318.32	6.12	-53.0	-68.5	3.8	1.49e+00	0	43	104	0	77	21540
2026-01-05 03:09:06.30	318.16	6.10	-53.0	-68.4	3.8	1.49e+00	0	43	104	0	77	21442
2026-01-05 03:09:07.31	318.01	6.09	-53.0	-68.4	3.8	1.49e+00	0	43	104	0	77	21473
2026-01-05 03:09:08.32	317.86	6.07	-53.0	-68.5	3.8	1.49e+00	0	43	104	0	77	21508
2026-01-05 03:09:09.32	317.70	6.05	-53.0	-68.5	3.8	1.49e+00	0	43	104	0	77	21524
2026-01-05 03:09:10.32	317.55	6.03	-53.0	-68.5	3.8	1.49e+00	0	43	104	0	77	21530
2026-01-05 03:09:11.33	317.40	6.01	-53.0	-68.4	3.8	1.49e+00	0	43	104	0	77	21442
2026-01-05 03:09:12.33	317.25	5.99	-53.0	-68.5	3.8	1.49e+00	0	43	104	0	77	21570
2026-01-05 03:09:13.34	317.10	5.97	-53.0	-68.5	3.8	1.49e+00	0	43	104	0	77	21620
2026-01-05 03:09:14.34	316.95	5.96	-53.0	-68.4	3.8	1.49e+00	0	43	104	0	77	21502
2026-01-05 03:09:15.34	316.80	5.94	-53.0	-68.4	3.8	1.49e+00	0	43	104	0	77	21461
2026-01-05 03:09:16.35	316.64	5.92	-53.0	-68.5	3.8	1.49e+00	0	43	104	0	77	21533
2026-01-05 03:09:17.35	316.49	5.90	-53.0	-68.5	3.8	1.49e+00	0	43	104	0	77	21543
2026-01-05 03:09:18.35	316.34	5.88	-53.0	-68.4	3.8	1.49e+00	0	43	104	0	77	21446
2026-01-05 03:09:19.36	316.19	5.86	-53.0	-68.4	3.8	1.49e+00	0	43	104	0	77	21443
2026-01-05 03:09:20.37	316.04	5.84	-53.0	-68.5	3.8	1.49e+00	0	43	104	0	77	21579
2026-01-05 03:09:21.37	315.89	5.82	-53.0	-68.4	3.8	1.49e+00	0	43	104	0	77	21492
2026-01-05 03:09:22.37	315.74	5.80	-53.0	-68.4	3.8	1.49e+00	0	43	104	0	77	21481
2026-01-05 03:09:23.38	315.59	5.77	-53.0	-68.5	3.8	1.49e+00	0	43	104	0	77	21525
2026-01-05 03:09:24.38	315.44	5.75	-53.0	-68.4	3.8	1.49e+00	0	43	104	0	77	21462
2026-01-05 03:09:25.38	315.30	5.73	-53.0	-68.4	3.8	1.49e+00	0	43	104	0	77	21454
2026-01-05 03:09:26.39	315.15	5.71	-53.0	-68.4	3.8	1.49e+00	0	43	104	0	77	21434
2026-01-05 03:09:27.39	315.00	5.69	-53.0	-68.4	3.8	1.49e+00	0	43	104	0	77	21490
2026-01-05 03:09:28.40	314.85	5.67	-53.0	-68.4	3.8	1.49e+00	0	43	104	0	77	21456
2026-01-05 03:09:29.40	314.70	5.65	-53.0	-68.4	3.8	1.49e+00	0	43	104	0	77	21440
2026-01-05 03:09:30.40	314.55	5.62	-53.0	-68.4	3.8	1.49e+00	0	43	104	0	77	21450
2026-01-05 03:09:31.41	314.41	5.60	-53.0	-68.4	3.8	1.49e+00	0	43	104	0	77	21424
2026-01-05 03:09:32.42	314.26	5.58	-53.0	-68.5	3.8	1.49e+00	0	43	104	0	77	21535
2026-01-05 03:09:33.42	314.11	5.56	-53.0	-68.4	3.8	1.49e+00	0	43	104	0	77	21461
2026-01-05 03:09:34.42	313.96	5.54	-53.0	-68.4	3.8	1.49e+00	0	43	104	0	77	21443
2026-01-05 03:09:35.43	313.82	5.51	-53.0	-68.4	3.8	1.49e+00	0	43	104	0	77	21408
2026-01-05 03:09:36.43	313.67	5.49	-53.0	-68.4	3.8	1.49e+00	0	43	104	0	77	21453
2026-01-05 03:09:37.44	313.52	5.47	-53.0	-68.4	3.8	1.49e+00	0	43	104	0	77	21474
2026-01-05 03:09:38.44	313.38	5.44	-53.0	-68.4	3.8	1.49e+00	0	43	104	0	77	21373
2026-01-05 03:09:39.45	313.23	5.42	-53.0	-68.4	3.8	1.49e+00	0	43	104	0	77	21433
2026-01-05 03:09:40.45	313.09	5.40	-53.0	-68.4	3.8	1.49e+00	0	43	104	0	77	21427
2026-01-05 03:09:41.45	312.94	5.37	-53.0	-68.4	3.8	1.49e+00	0	43	104	0	77	21448
2026-01-05 03:09:42.46	312.80	5.35	-53.0	-68.4	3.8	1.49e+00	0	43	104	0	77	21296
2026-01-05 03:09:43.46	312.65	5.33	-53.0	-68.5	3.8	1.49e+00	0	43	104	0	77	21516
2026-01-05 03:09:44.47	312.51	5.30	-53.0	-68.4	3.8	1.49e+00	0	43	104	0	77	21446
2026-01-05 03:09:45.47	312.36	5.28	-53.0	-68.4	3.8	1.49e+00	0	43	104	0	77	21475
2026-01-05 03:09:46.48	312.22	5.25	-53.0	-68.4	3.8	1.49e+00	0	43	104	0	77	21452
2026-01-05 03:09:47.48	312.07	5.23	-53.0	-68.4	3.8	1.49e+00	0	43	104	0	77	21427
2026-01-05 03:09:48.48	311.93	5.20	-53.0	-68.4	3.8	1.49e+00	0	43	104	0	77	21499
2026-01-05 03:09:49.49	311.79	5.18	-53.0	-68.4	3.8	1.49e+00	0	43	104	0	77	21477
2026-01-05 03:09:50.49	311.64	5.16	-53.0	-68.4	3.8	1.49e+00	0	44	104	0	77	21383
2026-01-05 03:09:51.50	311.50	5.13	-53.0	-68.4	3.8	1.49e+00	0	43	104	0	77	21446
2026-01-05 03:09:52.50	311.36	5.11	-53.0	-68.4	3.8	1.49e+00	0	43	104	0	77	21487
2026-01-05 03:09:53.50	311.22	5.08	-53.0	-68.4	3.8	1.49e+00	0	43	104	0	77	21345
2026-01-05 03:09:54.51	311.07	5.05	-53.0	-68.4	3.8	1.49e+00	0	43	104	0	77	21497
2026-01-05 03:09:55.51	310.93	5.03	-53.0	-68.4	3.8	1.49e+00	0	43	104	0	77	21441
2026-01-05 03:09:56.52	310.79	5.00	-53.0	-68.5	3.8	1.49e+00	0	43	104	0	77	21524

#Closed at: 2026-01-05 03:09:57
#Recorded file [0 MB]: D:/Data/31040_260105_060516.dat