passes_logs/2026/01/05/T1/T1__20260105_230335_SUOMI_NPP_rec.log

#Pass ID: 20260105_230335_SUOMI NPP
#Satellite: SUOMI NPP
#Configuration: NPP
#almurnet v.1.7.20251203
#Start time: 2026-01-05 23:03:36

#Version: 2.0.20230620
#Station: T1
#Location: 37.570604 lon 55.790049 lat
#TLE: 1 37849U 11061A   26004.95404768  .00000136  00000+0  85334-4 0  9991
#TLE: 2 37849  98.7801 307.0898 0002575  80.6707 279.4760 14.19522289735281

#Time	Az	El	Level	Level2	SNR	BER	BlckErr	Temp	State	Recorded	gain1	gain2
2026-01-05 23:03:36.83	21.63	5.11	-49.2	-65.6	3.8	1.49e+00	0	39	0	0	70	23180
2026-01-05 23:03:37.83	21.67	5.18	-49.2	-65.5	3.8	1.49e+00	0	40	104	0	69	24378
2026-01-05 23:03:38.83	21.71	5.25	-49.2	-65.6	3.8	1.49e+00	0	40	104	0	69	24425
2026-01-05 23:03:39.84	21.76	5.31	-49.2	-65.5	3.8	1.49e+00	0	40	104	0	69	24254
2026-01-05 23:03:40.84	21.80	5.38	-49.2	-65.5	3.8	1.49e+00	0	40	104	0	69	24307
2026-01-05 23:03:41.85	21.85	5.45	-49.2	-65.5	3.8	1.49e+00	0	40	104	0	69	24342
2026-01-05 23:03:42.85	21.89	5.52	-49.2	-65.5	3.8	1.49e+00	0	40	104	0	69	24359
2026-01-05 23:03:43.86	21.93	5.59	-49.2	-65.6	3.8	1.49e+00	0	40	104	0	69	24433
2026-01-05 23:03:44.86	21.98	5.66	-49.2	-65.6	3.8	1.49e+00	0	40	104	0	69	24425
2026-01-05 23:03:45.87	22.02	5.73	-49.2	-65.6	3.8	1.49e+00	0	40	104	0	69	24449
2026-01-05 23:03:46.87	22.07	5.80	-49.2	-65.5	3.8	1.49e+00	0	40	104	0	69	24357
2026-01-05 23:03:47.88	22.11	5.88	-49.2	-65.6	3.8	1.49e+00	0	40	104	0	69	24469
2026-01-05 23:03:48.88	22.16	5.95	-49.2	-65.6	3.8	1.49e+00	0	40	104	0	69	24493
2026-01-05 23:03:49.88	22.20	6.02	-49.2	-65.6	3.8	1.49e+00	0	40	104	0	69	24435
2026-01-05 23:03:50.89	22.25	6.09	-49.2	-65.6	3.8	1.49e+00	0	40	104	0	69	24467
2026-01-05 23:03:51.89	22.29	6.16	-49.2	-65.5	3.8	1.49e+00	0	40	104	0	69	24332
2026-01-05 23:03:52.90	22.34	6.23	-49.2	-65.6	3.8	1.49e+00	0	40	104	0	69	24547
2026-01-05 23:03:53.90	22.39	6.30	-49.2	-65.5	3.8	1.49e+00	0	40	104	0	69	24408
2026-01-05 23:03:54.91	22.43	6.37	-49.2	-65.5	3.8	1.49e+00	0	40	104	0	69	24248
2026-01-05 23:03:55.91	22.48	6.45	-49.2	-65.4	3.8	1.49e+00	0	40	104	0	69	24076
2026-01-05 23:03:56.92	22.53	6.52	-49.2	-65.4	3.8	1.49e+00	0	40	104	0	69	23902
2026-01-05 23:03:57.92	22.57	6.59	-49.2	-65.3	3.8	1.49e+00	0	40	104	0	69	23745
2026-01-05 23:03:58.92	22.62	6.66	-49.2	-65.3	3.8	1.49e+00	0	40	104	0	69	23694
2026-01-05 23:03:59.93	22.67	6.74	-49.2	-65.3	3.8	1.49e+00	0	40	104	0	69	23638
2026-01-05 23:04:00.93	22.71	6.81	-49.2	-65.3	3.8	1.49e+00	0	40	104	0	69	23748
2026-01-05 23:04:01.94	22.76	6.88	-49.2	-65.4	3.8	1.49e+00	0	40	104	0	69	24014
2026-01-05 23:04:02.94	22.81	6.96	-49.2	-65.4	3.8	1.49e+00	0	40	104	0	69	24072
2026-01-05 23:04:03.95	22.86	7.03	-49.2	-65.5	3.8	1.49e+00	0	40	104	0	69	24338
2026-01-05 23:04:04.95	22.91	7.10	-49.2	-65.5	3.8	1.49e+00	0	41	104	0	69	24377
2026-01-05 23:04:05.95	22.96	7.18	-49.2	-65.4	3.8	1.49e+00	0	41	104	0	69	24091
2026-01-05 23:04:06.96	23.00	7.25	-49.2	-65.3	3.8	1.49e+00	0	41	104	0	69	23653
2026-01-05 23:04:07.96	23.05	7.33	-49.2	-65.0	3.8	1.49e+00	0	41	104	0	69	22884
2026-01-05 23:04:08.97	23.10	7.40	-49.1	-64.7	3.8	1.49e+00	0	41	104	0	69	22196
2026-01-05 23:04:09.97	23.15	7.48	-49.1	-64.4	3.8	1.49e+00	0	41	104	0	69	21365
2026-01-05 23:04:10.97	23.20	7.55	-49.1	-64.2	3.8	1.49e+00	0	41	104	0	69	20904
2026-01-05 23:04:11.98	23.25	7.63	-49.1	-64.1	3.8	1.49e+00	0	41	104	0	69	20547
2026-01-05 23:04:12.98	23.30	7.70	-49.1	-64.0	3.8	1.49e+00	0	41	104	0	69	20488
2026-01-05 23:04:13.98	23.35	7.78	-49.2	-64.2	3.8	1.49e+00	0	41	104	0	69	20850
2026-01-05 23:04:14.99	23.40	7.85	-49.1	-64.4	3.8	1.49e+00	0	41	104	0	69	21273
2026-01-05 23:04:15.99	23.45	7.93	-49.1	-64.4	3.8	1.49e+00	0	41	104	0	69	21444
2026-01-05 23:04:17.00	23.51	8.01	-49.1	-64.5	3.8	1.49e+00	0	41	104	0	69	21632
2026-01-05 23:04:18.00	23.56	8.08	-49.1	-64.6	3.8	1.49e+00	0	41	104	0	69	21814
2026-01-05 23:04:19.01	23.61	8.16	-49.1	-64.6	3.8	1.49e+00	0	41	104	0	69	21762
2026-01-05 23:04:20.01	23.66	8.24	-49.1	-64.4	3.8	1.49e+00	0	41	104	0	69	21291
2026-01-05 23:04:21.01	23.71	8.31	-49.1	-64.1	3.8	1.49e+00	0	41	104	0	69	20661
2026-01-05 23:04:22.02	23.77	8.39	-49.1	-63.9	3.8	1.49e+00	0	41	104	0	69	20283
2026-01-05 23:04:23.02	23.82	8.47	-49.1	-63.7	3.8	1.49e+00	0	41	104	0	69	19702
2026-01-05 23:04:24.03	23.87	8.55	-49.1	-63.5	3.8	1.49e+00	0	41	104	0	69	19301
2026-01-05 23:04:25.03	23.92	8.62	-49.1	-63.0	4.0	1.48e+00	0	41	104	0	69	18140
2026-01-05 23:04:26.03	23.98	8.70	-49.0	-62.2	4.1	1.45e+00	0	41	0	0	69	16529
2026-01-05 23:04:27.04	24.03	8.78	-49.0	-61.5	4.3	1.38e+00	0	41	0	0	69	15286
2026-01-05 23:04:28.04	24.09	8.86	-48.9	-60.4	4.8	9.45e-01	0	41	0	1048576	69	13458
2026-01-05 23:04:29.05	24.14	8.94	-48.7	-59.3	5.4	6.18e-01	0	41	0	3145728	69	11911
2026-01-05 23:04:30.05	24.19	9.02	-48.6	-58.3	6.1	4.37e-01	0	41	0	5242880	69	10536
2026-01-05 23:04:31.29	24.26	9.12	-48.8	-59.6	5.3	4.28e-01	0	41	0	7340032	69	12347
2026-01-05 23:04:32.20	24.31	9.19	-49.2	-62.1	4.2	1.33e+00	0	41	0	8388608	69	16462
2026-01-05 23:04:33.38	24.38	9.28	-48.5	-57.7	6.8	4.73e-02	0	41	0	10485760	68	10452
2026-01-05 23:04:34.24	24.43	9.35	-49.0	-63.5	3.8	1.48e+00	0	41	104	10485760	68	20381
2026-01-05 23:04:35.61	24.50	9.46	-49.1	-62.2	4.2	3.18e-01	0	41	0	11534336	68	17559
2026-01-05 23:04:36.32	24.54	9.52	-49.0	-63.7	3.8	1.49e+00	0	41	104	11534336	68	20981
2026-01-05 23:04:37.85	24.63	9.64	-49.0	-63.6	3.8	1.49e+00	0	41	104	11534336	68	20745
2026-01-05 23:04:38.57	24.67	9.70	-49.0	-63.8	3.8	1.49e+00	0	41	104	11534336	68	21126
2026-01-05 23:04:39.86	24.74	9.80	-49.2	-63.6	3.8	1.49e+00	0	41	104	11534336	68	20765
2026-01-05 23:04:40.58	24.78	9.86	-49.1	-63.3	3.8	1.49e+00	0	41	104	11534336	68	20058
2026-01-05 23:04:41.86	24.86	9.97	-47.7	-54.5	9.4	1.10e+00	0	41	0	11534336	67	7702
2026-01-05 23:04:42.58	24.90	10.03	-48.5	-57.7	6.7	1.67e-02	0	41	0	12582912	67	11087
2026-01-05 23:04:43.87	24.97	10.13	-46.0	-50.4	13.8	7.70e-02	0	41	0	15728640	63	6038
2026-01-05 23:04:44.58	25.02	10.19	-45.8	-50.0	14.2	7.00e-07	0	41	0	16777216	63	5773
2026-01-05 23:04:45.87	25.09	10.30	-45.4	-49.3	14.9	7.00e-07	0	41	0	18874368	62	5650
2026-01-05 23:04:46.59	25.13	10.36	-45.4	-49.4	14.8	7.00e-07	0	41	0	20971520	62	5720
2026-01-05 23:04:47.88	25.21	10.46	-45.4	-49.3	14.9	0.00e+00	0	41	0	23068672	62	5649
2026-01-05 23:04:48.63	25.26	10.53	-45.4	-49.3	14.9	0.00e+00	0	41	0	24117248	62	5646
2026-01-05 23:04:49.91	25.33	10.63	-45.3	-49.2	15.0	0.00e+00	0	41	0	26214400	62	5571
2026-01-05 23:04:50.63	25.38	10.69	-45.3	-49.1	15.1	0.00e+00	0	41	0	28311552	62	5517
2026-01-05 23:04:51.92	25.46	10.80	-45.1	-48.7	15.5	0.00e+00	0	41	0	30408704	62	5278
2026-01-05 23:04:52.63	25.50	10.86	-45.2	-48.8	15.4	0.00e+00	0	41	0	31457280	62	5326
2026-01-05 23:04:53.92	25.58	10.97	-45.0	-48.5	15.6	0.00e+00	0	41	0	34603008	61	5456
2026-01-05 23:04:54.64	25.62	11.03	-44.7	-48.0	16.2	0.00e+00	0	41	0	35651584	61	5157
2026-01-05 23:04:56.02	25.71	11.15	-44.6	-47.9	16.3	0.00e+00	0	41	0	37748736	61	5095
2026-01-05 23:04:56.74	25.75	11.21	-44.7	-48.0	16.2	0.00e+00	0	41	0	39845888	61	5126
2026-01-05 23:04:58.09	25.84	11.33	-44.5	-47.7	16.4	0.00e+00	0	41	0	41943040	61	4979
2026-01-05 23:04:58.80	25.88	11.39	-44.6	-47.8	16.3	0.00e+00	0	41	0	42991616	61	5029
2026-01-05 23:05:00.16	25.97	11.51	-44.3	-47.5	16.7	0.00e+00	0	41	0	46137344	60	5125
2026-01-05 23:05:00.88	26.02	11.57	-44.4	-47.6	16.7	0.00e+00	0	41	0	47185920	60	5174
2026-01-05 23:05:02.16	26.10	11.68	-44.8	-48.0	16.2	0.00e+00	0	42	0	49283072	60	5455
2026-01-05 23:05:02.88	26.14	11.74	-44.6	-47.7	16.5	0.00e+00	0	42	0	51380224	60	5251
2026-01-05 23:05:04.17	26.23	11.86	-44.7	-47.8	16.4	0.00e+00	0	41	0	53477376	60	5315
2026-01-05 23:05:04.88	26.27	11.92	-44.4	-47.4	16.8	0.00e+00	0	41	0	54525952	60	5066
2026-01-05 23:05:06.18	26.36	12.03	-44.4	-47.3	16.8	0.00e+00	0	41	0	56623104	60	5036
2026-01-05 23:05:06.89	26.41	12.10	-44.4	-47.3	16.9	0.00e+00	0	41	0	58720256	60	5040
2026-01-05 23:05:08.18	26.49	12.21	-44.2	-47.1	17.1	0.00e+00	0	41	0	60817408	60	4923
2026-01-05 23:05:08.89	26.54	12.27	-44.3	-47.3	16.9	0.00e+00	0	41	0	61865984	60	4999
2026-01-05 23:05:10.18	26.63	12.39	-44.3	-47.2	17.0	0.00e+00	0	41	0	65011712	60	4965
2026-01-05 23:05:10.90	26.67	12.45	-44.3	-47.1	17.1	0.00e+00	0	41	0	66060288	60	4901
2026-01-05 23:05:12.19	26.76	12.57	-44.3	-47.1	17.1	0.00e+00	0	41	0	68157440	60	4913
2026-01-05 23:05:12.90	26.81	12.63	-44.2	-47.1	17.2	0.00e+00	0	41	0	70254592	60	4871
2026-01-05 23:05:14.19	26.90	12.75	-44.2	-47.0	17.2	0.00e+00	0	41	0	72351744	60	4835
2026-01-05 23:05:14.91	26.95	12.82	-44.1	-46.9	17.3	0.00e+00	0	41	0	73400320	60	4761
2026-01-05 23:05:16.20	27.04	12.93	-44.0	-46.8	17.4	0.00e+00	0	41	0	75497472	59	4986
2026-01-05 23:05:16.92	27.09	13.00	-44.0	-46.7	17.4	0.00e+00	0	41	0	77594624	59	4948
2026-01-05 23:05:18.24	27.18	13.12	-43.9	-46.6	17.6	0.00e+00	0	41	0	79691776	59	4881
2026-01-05 23:05:18.95	27.23	13.19	-43.8	-46.5	17.6	0.00e+00	0	41	0	80740352	59	4827
2026-01-05 23:05:20.29	27.33	13.31	-43.8	-46.5	17.6	0.00e+00	0	41	0	83886080	59	4854
2026-01-05 23:05:21.00	27.38	13.38	-43.8	-46.5	17.6	0.00e+00	0	41	0	84934656	59	4859
2026-01-05 23:05:22.36	27.48	13.50	-43.6	-46.2	17.9	0.00e+00	0	42	0	87031808	59	4700
2026-01-05 23:05:23.07	27.53	13.57	-43.6	-46.3	17.8	0.00e+00	0	41	0	89128960	59	4723
2026-01-05 23:05:24.43	27.63	13.70	-43.7	-46.3	17.8	0.00e+00	0	42	0	91226112	59	4745
2026-01-05 23:05:25.14	27.68	13.76	-43.6	-46.2	17.9	0.00e+00	0	41	0	92274688	59	4689
2026-01-05 23:05:26.43	27.78	13.88	-43.7	-46.4	17.7	0.00e+00	0	41	0	95420416	58	5057
2026-01-05 23:05:27.15	27.83	13.95	-43.6	-46.3	17.8	0.00e+00	0	41	0	96468992	58	5024
2026-01-05 23:05:28.57	27.94	14.09	-43.5	-46.3	17.9	0.00e+00	0	41	0	99614720	58	5009
2026-01-05 23:05:29.28	27.99	14.15	-43.6	-46.4	17.7	0.00e+00	0	42	0	100663296	58	5077
2026-01-05 23:05:30.57	28.09	14.28	-43.6	-46.3	17.8	0.00e+00	0	41	0	102760448	58	5031
2026-01-05 23:05:31.29	28.14	14.35	-43.7	-46.4	17.7	0.00e+00	0	41	0	103809024	58	5094
2026-01-05 23:05:32.58	28.24	14.47	-43.5	-46.3	17.9	0.00e+00	0	41	0	106954752	58	4996
2026-01-05 23:05:33.30	28.30	14.54	-43.6	-46.3	17.8	0.00e+00	0	42	0	108003328	58	5032
2026-01-05 23:05:34.58	28.40	14.67	-43.5	-46.2	17.9	0.00e+00	0	41	0	110100480	58	4947
2026-01-05 23:05:35.30	28.45	14.74	-43.6	-46.3	17.9	0.00e+00	0	42	0	112197632	58	5002
2026-01-05 23:05:36.59	28.55	14.86	-43.6	-46.2	17.9	0.00e+00	0	42	0	114294784	58	4974
2026-01-05 23:05:37.31	28.61	14.93	-43.6	-46.2	17.9	0.00e+00	0	41	0	115343360	58	4964
2026-01-05 23:05:38.59	28.71	15.06	-43.5	-46.2	17.9	0.00e+00	0	42	0	117440512	58	4932
2026-01-05 23:05:39.31	28.77	15.13	-43.7	-46.4	17.8	0.00e+00	0	41	0	119537664	58	5042
2026-01-05 23:05:40.60	28.87	15.26	-43.7	-46.4	17.7	0.00e+00	0	41	0	121634816	58	5077
2026-01-05 23:05:41.32	28.93	15.33	-43.8	-46.4	17.7	0.00e+00	0	42	0	122683392	58	5096
2026-01-05 23:05:42.69	29.04	15.47	-43.9	-46.6	17.6	0.00e+00	0	42	0	125829120	58	5194
2026-01-05 23:05:43.40	29.10	15.54	-43.8	-46.5	17.7	0.00e+00	0	41	0	126877696	58	5106
2026-01-05 23:05:44.69	29.21	15.67	-43.8	-46.5	17.7	0.00e+00	0	42	0	128974848	58	5126
2026-01-05 23:05:45.41	29.27	15.74	-43.8	-46.4	17.8	0.00e+00	0	42	0	131072000	58	5085
2026-01-05 23:05:46.70	29.38	15.87	-44.0	-46.7	17.6	0.00e+00	0	42	0	133169152	58	5231
2026-01-05 23:05:47.41	29.44	15.94	-43.9	-46.6	17.6	0.00e+00	0	42	0	134217728	58	5202
2026-01-05 23:05:48.70	29.55	16.08	-44.0	-46.7	17.5	0.00e+00	0	42	0	137363456	58	5258
2026-01-05 23:05:49.42	29.61	16.15	-44.0	-46.7	17.5	0.00e+00	0	41	0	138412032	58	5263
2026-01-05 23:05:51.05	29.75	16.32	-44.1	-46.8	17.4	0.00e+00	0	42	0	141557760	58	5313
2026-01-05 23:05:51.62	29.80	16.38	-44.2	-46.9	17.3	0.00e+00	0	41	0	142606336	59	5097
2026-01-05 23:05:53.22	29.94	16.54	-44.1	-46.8	17.5	0.00e+00	0	41	0	145752064	59	5012
2026-01-05 23:05:53.80	29.99	16.60	-44.0	-46.7	17.5	0.00e+00	0	41	0	146800640	59	4935
2026-01-05 23:05:55.48	30.14	16.78	-44.1	-46.9	17.3	0.00e+00	0	41	0	149946368	59	5054
2026-01-05 23:05:56.06	30.19	16.84	-44.1	-46.8	17.4	0.00e+00	0	42	0	150994944	59	5027
2026-01-05 23:05:57.63	30.33	17.01	-43.9	-46.7	17.5	0.00e+00	0	41	0	154140672	59	4956
2026-01-05 23:05:58.22	30.38	17.07	-44.1	-46.9	17.3	0.00e+00	0	41	0	155189248	59	5071
2026-01-05 23:05:59.80	30.53	17.24	-44.0	-46.8	17.4	0.00e+00	0	42	0	157286400	59	5031
2026-01-05 23:06:00.42	30.58	17.30	-43.9	-46.7	17.5	0.00e+00	0	42	0	158334976	59	4933
2026-01-05 23:06:01.99	30.73	17.47	-44.2	-47.1	17.1	0.00e+00	0	41	0	161480704	59	5209
2026-01-05 23:06:02.56	30.78	17.53	-44.0	-46.9	17.3	0.00e+00	0	41	0	162529280	59	5053
2026-01-05 23:06:04.14	30.93	17.70	-44.2	-47.0	17.2	0.00e+00	0	42	0	165675008	59	5143
2026-01-05 23:06:04.90	31.00	17.79	-44.2	-47.0	17.2	0.00e+00	0	42	0	167772160	59	5152
2026-01-05 23:06:06.19	31.13	17.93	-44.0	-46.8	17.4	0.00e+00	0	42	0	169869312	59	5031
2026-01-05 23:06:06.90	31.19	18.00	-44.1	-46.9	17.3	0.00e+00	0	41	0	170917888	59	5054
2026-01-05 23:06:08.19	31.32	18.15	-44.4	-47.3	17.0	0.00e+00	0	41	0	173015040	59	5302
2026-01-05 23:06:08.91	31.39	18.23	-44.1	-46.9	17.3	0.00e+00	0	42	0	175112192	59	5053
2026-01-05 23:06:10.23	31.52	18.37	-44.2	-47.0	17.3	0.00e+00	0	41	0	177209344	59	5102
2026-01-05 23:06:10.94	31.59	18.45	-44.2	-47.0	17.3	0.00e+00	0	42	0	178257920	59	5112
2026-01-05 23:06:12.23	31.72	18.59	-44.2	-47.0	17.2	0.00e+00	0	42	0	181403648	59	5158
2026-01-05 23:06:12.95	31.79	18.68	-44.1	-46.9	17.3	0.00e+00	0	42	0	182452224	59	5061
2026-01-05 23:06:14.23	31.92	18.82	-44.3	-47.1	17.1	0.00e+00	0	41	0	184549376	59	5201
2026-01-05 23:06:14.95	31.99	18.90	-44.4	-47.3	17.0	0.00e+00	0	41	0	185597952	59	5299
2026-01-05 23:06:16.43	32.14	19.07	-44.5	-47.5	16.8	0.00e+00	0	41	0	188743680	59	5434
2026-01-05 23:06:17.15	32.22	19.15	-44.5	-47.4	16.8	0.00e+00	0	41	0	189792256	59	5369
2026-01-05 23:06:18.44	32.35	19.30	-44.6	-47.6	16.7	0.00e+00	0	41	0	192937984	60	5213
2026-01-05 23:06:19.15	32.43	19.38	-44.7	-47.9	16.4	0.00e+00	0	42	0	193986560	60	5377
2026-01-05 23:06:20.57	32.57	19.54	-44.7	-47.9	16.5	0.00e+00	0	42	0	197132288	60	5341
2026-01-05 23:06:21.29	32.65	19.63	-44.5	-47.6	16.7	0.00e+00	0	42	0	198180864	60	5193
2026-01-05 23:06:22.64	32.80	19.78	-44.5	-47.7	16.7	0.00e+00	0	42	0	200278016	60	5233
2026-01-05 23:06:23.35	32.87	19.87	-44.5	-47.6	16.8	0.00e+00	0	41	0	202375168	60	5176
2026-01-05 23:06:24.65	33.01	20.02	-44.3	-47.3	17.0	0.00e+00	0	42	0	204472320	60	5026
2026-01-05 23:06:25.36	33.09	20.10	-44.3	-47.3	17.0	0.00e+00	0	42	0	205520896	60	4991
2026-01-05 23:06:26.65	33.23	20.25	-44.2	-47.1	17.2	0.00e+00	0	42	0	207618048	60	4920
2026-01-05 23:06:27.36	33.31	20.34	-44.2	-47.1	17.2	0.00e+00	0	41	0	209715200	60	4916
2026-01-05 23:06:28.65	33.46	20.49	-44.4	-47.4	17.0	0.00e+00	0	42	0	211812352	60	5070
2026-01-05 23:06:29.79	33.59	20.63	-44.2	-47.1	17.2	0.00e+00	0	42	0	213909504	60	4887
2026-01-05 23:06:30.64	33.68	20.73	-44.2	-47.1	17.2	0.00e+00	0	41	0	216006656	60	4909
2026-01-05 23:06:31.79	33.81	20.87	-44.3	-47.1	17.2	0.00e+00	0	42	0	218103808	60	4913
2026-01-05 23:06:32.65	33.91	20.97	-44.5	-47.4	16.9	0.00e+00	0	42	0	219152384	60	5089
2026-01-05 23:06:33.79	34.05	21.11	-44.4	-47.3	17.1	0.00e+00	0	41	0	221249536	60	4990
2026-01-05 23:06:34.65	34.15	21.22	-44.4	-47.3	17.1	0.00e+00	0	42	0	223346688	60	4985
2026-01-05 23:06:35.91	34.30	21.37	-44.5	-47.5	16.9	0.00e+00	0	42	0	225443840	60	5107
2026-01-05 23:06:36.63	34.38	21.46	-44.5	-47.4	17.0	0.00e+00	0	42	0	226492416	60	5076
2026-01-05 23:06:37.92	34.54	21.62	-44.5	-47.4	16.9	0.00e+00	0	42	0	229638144	60	5093
2026-01-05 23:06:38.63	34.62	21.71	-44.6	-47.5	16.9	0.00e+00	0	41	0	230686720	60	5144
2026-01-05 23:06:39.93	34.78	21.87	-44.5	-47.4	16.8	0.00e+00	0	42	0	232783872	60	5096
2026-01-05 23:06:40.75	34.88	21.97	-44.4	-47.4	17.0	0.00e+00	0	42	0	234881024	60	5068
2026-01-05 23:06:41.90	35.03	22.11	-44.6	-47.6	16.8	0.00e+00	0	42	0	236978176	60	5162
2026-01-05 23:06:42.98	35.16	22.25	-44.4	-47.3	17.0	0.00e+00	0	42	0	239075328	60	5039
2026-01-05 23:06:44.03	35.29	22.38	-44.5	-47.5	16.9	0.00e+00	0	42	0	241172480	60	5127
2026-01-05 23:06:44.92	35.41	22.50	-44.7	-47.8	16.6	0.00e+00	0	42	0	242221056	60	5282
2026-01-05 23:06:46.39	35.59	22.68	-44.5	-47.5	16.8	0.00e+00	0	42	0	245366784	60	5127
2026-01-05 23:06:47.10	35.69	22.77	-44.4	-47.4	16.9	0.00e+00	0	42	0	246415360	60	5074
2026-01-05 23:06:48.60	35.88	22.97	-44.4	-47.3	17.1	0.00e+00	0	42	0	249561088	60	5002
2026-01-05 23:06:49.31	35.98	23.06	-44.3	-47.2	17.1	0.00e+00	0	41	0	250609664	60	4977
2026-01-05 23:06:50.68	36.16	23.24	-44.3	-47.2	17.2	0.00e+00	0	42	0	252706816	60	4942
2026-01-05 23:06:51.67	36.29	23.37	-44.2	-47.1	17.2	0.00e+00	0	42	0	254803968	60	4908
2026-01-05 23:06:52.67	36.43	23.50	-44.3	-47.2	17.2	0.00e+00	0	42	0	256901120	60	4945
2026-01-05 23:06:53.67	36.56	23.63	-44.5	-47.4	16.9	0.00e+00	0	41	0	258998272	60	5085
2026-01-05 23:06:54.68	36.70	23.76	-44.2	-47.1	17.3	0.00e+00	0	42	0	260046848	60	4872
2026-01-05 23:06:55.68	36.84	23.89	-44.2	-47.0	17.3	0.00e+00	0	42	0	262144000	60	4842
2026-01-05 23:06:56.68	36.98	24.03	-44.4	-47.2	17.2	0.00e+00	0	42	0	264241152	60	4979
2026-01-05 23:06:57.68	37.12	24.16	-44.4	-47.3	17.1	0.00e+00	0	42	0	266338304	60	4988
2026-01-05 23:06:58.69	37.26	24.29	-44.5	-47.4	17.0	0.00e+00	0	41	0	268435456	60	5061
2026-01-05 23:06:59.77	37.42	24.44	-44.5	-47.4	17.0	0.00e+00	0	42	0	270532608	60	5079
2026-01-05 23:07:00.66	37.55	24.56	-44.4	-47.3	17.1	0.00e+00	0	42	0	271581184	60	4994
2026-01-05 23:07:01.81	37.71	24.71	-44.2	-47.0	17.3	0.00e+00	0	42	0	273678336	60	4826
2026-01-05 23:07:02.67	37.84	24.83	-44.3	-47.1	17.2	0.00e+00	0	42	0	275775488	60	4926
2026-01-05 23:07:03.81	38.01	24.99	-44.4	-47.3	17.1	0.00e+00	0	41	0	277872640	60	5023
2026-01-05 23:07:04.67	38.14	25.10	-44.1	-46.8	17.5	0.00e+00	0	42	0	278921216	59	5012
2026-01-05 23:07:05.81	38.31	25.26	-44.1	-46.8	17.4	0.00e+00	0	42	0	281018368	59	5039
2026-01-05 23:07:06.67	38.44	25.38	-44.1	-46.9	17.5	0.00e+00	0	42	0	283115520	59	5045
2026-01-05 23:07:07.82	38.61	25.54	-44.0	-46.6	17.7	0.00e+00	0	41	0	285212672	59	4919
2026-01-05 23:07:09.01	38.80	25.70	-44.1	-46.7	17.6	0.00e+00	0	42	0	287309824	59	4977
2026-01-05 23:07:10.05	38.96	25.85	-44.2	-46.9	17.4	0.00e+00	0	42	0	289406976	59	5085
2026-01-05 23:07:11.24	39.15	26.02	-44.3	-47.0	17.3	0.00e+00	0	42	0	291504128	59	5145
2026-01-05 23:07:12.13	39.29	26.14	-44.2	-46.9	17.5	0.00e+00	0	41	0	293601280	59	5043
2026-01-05 23:07:13.45	39.50	26.33	-44.3	-47.1	17.3	0.00e+00	0	42	0	295698432	59	5181
2026-01-05 23:07:14.17	39.62	26.43	-44.4	-47.1	17.2	0.00e+00	0	42	0	296747008	59	5208
2026-01-05 23:07:15.45	39.83	26.61	-44.4	-47.2	17.2	0.00e+00	0	42	0	299892736	59	5224
2026-01-05 23:07:16.17	39.95	26.72	-44.4	-47.1	17.2	0.00e+00	0	42	0	300941312	59	5209
2026-01-05 23:07:17.78	40.21	26.95	-44.3	-47.0	17.3	0.00e+00	0	41	0	304087040	59	5130
2026-01-05 23:07:18.35	40.31	27.03	-44.3	-47.0	17.4	0.00e+00	0	41	0	305135616	59	5127
2026-01-05 23:07:19.94	40.58	27.26	-44.1	-46.8	17.6	0.00e+00	0	41	0	308281344	59	5005
2026-01-05 23:07:20.51	40.68	27.34	-44.0	-46.7	17.7	0.00e+00	0	42	0	309329920	59	4943
2026-01-05 23:07:22.12	40.96	27.58	-44.1	-46.8	17.5	0.00e+00	0	42	0	312475648	59	5017
2026-01-05 23:07:22.82	41.08	27.68	-44.1	-46.7	17.6	0.00e+00	0	42	0	313524224	59	4960
2026-01-05 23:07:24.16	41.32	27.88	-44.5	-47.3	17.1	0.00e+00	0	42	0	315621376	59	5329
2026-01-05 23:07:25.05	41.47	28.01	-44.7	-47.7	16.8	0.00e+00	0	41	0	317718528	60	5233
2026-01-05 23:07:26.10	41.66	28.16	-44.9	-48.0	16.6	0.00e+00	0	42	0	319815680	60	5417
2026-01-05 23:07:27.28	41.88	28.34	-45.1	-48.2	16.3	0.00e+00	0	41	0	321912832	61	5249
2026-01-05 23:07:28.31	42.07	28.49	-45.5	-48.7	15.9	0.00e+00	0	42	0	324009984	61	5551
2026-01-05 23:07:29.49	42.28	28.67	-45.7	-49.0	15.6	0.00e+00	0	42	0	326107136	62	5437
2026-01-05 23:07:30.35	42.45	28.80	-45.5	-48.7	15.8	0.00e+00	0	42	0	327155712	62	5249
2026-01-05 23:07:31.68	42.70	29.00	-45.7	-49.0	15.6	0.00e+00	0	42	0	330301440	62	5424
2026-01-05 23:07:32.83	42.92	29.17	-45.6	-48.9	15.7	0.00e+00	0	42	0	332398592	62	5349
2026-01-05 23:07:33.69	43.08	29.30	-45.7	-49.0	15.6	0.00e+00	0	42	0	333447168	62	5406
2026-01-05 23:07:34.83	43.30	29.47	-45.7	-49.1	15.4	0.00e+00	0	42	0	335544320	62	5499
2026-01-05 23:07:35.69	43.47	29.61	-45.8	-49.2	15.3	0.00e+00	0	41	0	337641472	62	5579
2026-01-05 23:07:36.90	43.71	29.79	-45.7	-49.0	15.6	0.00e+00	0	42	0	339738624	62	5429
2026-01-05 23:07:37.76	43.89	29.92	-45.8	-49.2	15.3	0.00e+00	0	42	0	341835776	62	5587
2026-01-05 23:07:38.91	44.12	30.10	-45.9	-49.4	15.1	7.00e-07	0	42	0	343932928	62	5706
2026-01-05 23:07:39.77	44.29	30.23	-45.9	-49.4	15.2	0.00e+00	0	41	0	344981504	62	5667
2026-01-05 23:07:40.91	44.53	30.41	-45.8	-49.2	15.3	0.00e+00	0	42	0	347078656	62	5583
2026-01-05 23:07:41.87	44.73	30.56	-45.6	-48.9	15.6	0.00e+00	0	42	0	349175808	62	5387
2026-01-05 23:07:43.03	44.97	30.74	-45.3	-48.6	16.0	0.00e+00	0	42	0	351272960	62	5160
2026-01-05 23:07:43.95	45.17	30.88	-45.3	-48.5	16.1	0.00e+00	0	42	0	353370112	62	5108
2026-01-05 23:07:44.96	45.38	31.04	-45.4	-48.5	16.1	0.00e+00	0	41	0	354418688	62	5140
2026-01-05 23:07:45.96	45.60	31.20	-45.2	-48.3	16.2	0.00e+00	0	41	0	356515840	62	5041
2026-01-05 23:07:46.97	45.82	31.36	-45.3	-48.5	16.1	0.00e+00	0	41	0	358612992	62	5122
2026-01-05 23:07:47.97	46.04	31.52	-45.0	-48.0	16.6	0.00e+00	0	42	0	360710144	62	4834
2026-01-05 23:07:48.97	46.26	31.68	-45.3	-48.4	16.1	0.00e+00	0	42	0	362807296	62	5074
2026-01-05 23:07:49.97	46.49	31.83	-45.3	-48.5	16.1	0.00e+00	0	42	0	363855872	62	5134
2026-01-05 23:07:50.98	46.72	32.00	-45.7	-49.1	15.6	0.00e+00	0	42	0	365953024	62	5503
2026-01-05 23:07:51.98	46.95	32.15	-45.9	-49.4	15.3	0.00e+00	0	42	0	368050176	62	5665
2026-01-05 23:07:52.98	47.18	32.31	-46.1	-49.6	14.9	0.00e+00	0	42	0	370147328	62	5855
2026-01-05 23:07:53.98	47.41	32.47	-46.1	-49.7	14.8	0.00e+00	0	42	0	372244480	63	5592
2026-01-05 23:07:55.07	47.67	32.65	-46.0	-49.7	14.9	0.00e+00	0	42	0	373293056	63	5542
2026-01-05 23:07:55.99	47.89	32.80	-45.8	-49.4	15.2	0.00e+00	0	41	0	375390208	63	5349
2026-01-05 23:07:57.16	48.17	32.99	-45.6	-49.1	15.5	0.00e+00	0	42	0	377487360	62	5476
2026-01-05 23:07:58.02	48.38	33.13	-45.5	-48.8	15.7	0.00e+00	0	41	0	379584512	62	5320
2026-01-05 23:07:59.16	48.66	33.31	-45.2	-48.4	16.1	0.00e+00	0	42	0	381681664	62	5069
2026-01-05 23:08:00.02	48.87	33.45	-45.1	-48.2	16.3	0.00e+00	0	42	0	382730240	62	4953
2026-01-05 23:08:01.17	49.16	33.64	-45.0	-48.1	16.4	0.00e+00	0	42	0	384827392	62	4902
2026-01-05 23:08:02.03	49.38	33.78	-44.9	-47.9	16.6	0.00e+00	0	42	0	386924544	61	5062
2026-01-05 23:08:03.18	49.67	33.96	-44.9	-48.0	16.6	0.00e+00	0	42	0	389021696	61	5107
2026-01-05 23:08:04.04	49.89	34.11	-45.1	-48.2	16.3	0.00e+00	0	42	0	391118848	61	5260
2026-01-05 23:08:05.19	50.19	34.29	-45.1	-48.3	16.2	0.00e+00	0	42	0	393216000	61	5314
2026-01-05 23:08:06.31	50.49	34.48	-45.2	-48.5	16.0	0.00e+00	0	42	0	395313152	61	5415
2026-01-05 23:08:07.37	50.77	34.65	-45.5	-48.9	15.6	0.00e+00	0	42	0	396361728	61	5719
2026-01-05 23:08:08.43	51.05	34.82	-45.8	-49.4	15.1	0.00e+00	0	42	0	398458880	62	5706
2026-01-05 23:08:09.29	51.29	34.97	-45.7	-49.2	15.4	0.00e+00	0	41	0	400556032	62	5532
2026-01-05 23:08:10.44	51.60	35.16	-45.3	-48.6	15.9	0.00e+00	0	42	0	402653184	62	5174
2026-01-05 23:08:11.29	51.84	35.30	-45.0	-48.2	16.3	0.00e+00	0	42	0	404750336	62	4959
2026-01-05 23:08:12.44	52.16	35.48	-44.4	-47.3	17.2	0.00e+00	0	42	0	406847488	60	5008
2026-01-05 23:08:13.30	52.40	35.63	-44.0	-46.8	17.6	0.00e+00	0	42	0	407896064	60	4733
2026-01-05 23:08:14.45	52.73	35.82	-44.2	-47.1	17.3	0.00e+00	0	42	0	409993216	59	5190
2026-01-05 23:08:15.31	52.98	35.96	-44.3	-47.1	17.2	0.00e+00	0	42	0	412090368	59	5206
2026-01-05 23:08:16.45	53.31	36.15	-44.3	-47.2	17.2	0.00e+00	0	42	0	414187520	59	5266
2026-01-05 23:08:17.31	53.57	36.29	-44.7	-47.7	16.7	0.00e+00	0	42	0	415236096	59	5579
2026-01-05 23:08:18.53	53.93	36.49	-44.9	-48.1	16.4	0.00e+00	0	42	0	418381824	60	5478
2026-01-05 23:08:19.39	54.19	36.63	-44.6	-47.7	16.7	0.00e+00	0	41	0	419430400	60	5247
2026-01-05 23:08:20.54	54.54	36.82	-44.3	-47.3	17.1	0.00e+00	0	42	0	421527552	60	5010
2026-01-05 23:08:21.39	54.80	36.96	-44.2	-47.0	17.3	0.00e+00	0	42	0	423624704	59	5138
2026-01-05 23:08:22.54	55.15	37.15	-44.0	-46.8	17.5	0.00e+00	0	41	0	425721856	59	4996
2026-01-05 23:08:23.40	55.42	37.29	-43.8	-46.6	17.7	0.00e+00	0	41	0	426770432	59	4873
2026-01-05 23:08:24.55	55.78	37.48	-43.8	-46.5	17.7	0.00e+00	0	42	0	428867584	59	4866
2026-01-05 23:08:25.41	56.06	37.63	-43.9	-46.7	17.7	0.00e+00	0	41	0	430964736	59	4938
2026-01-05 23:08:26.55	56.43	37.81	-44.3	-47.3	17.0	0.00e+00	0	42	0	433061888	59	5313
2026-01-05 23:08:27.41	56.71	37.95	-44.3	-47.2	17.1	0.00e+00	0	42	0	434110464	59	5277
2026-01-05 23:08:28.56	57.08	38.14	-44.4	-47.4	16.9	0.00e+00	0	41	0	436207616	59	5372
2026-01-05 23:08:29.42	57.37	38.28	-44.4	-47.4	16.9	0.00e+00	0	41	0	438304768	59	5373
2026-01-05 23:08:30.57	57.76	38.47	-44.2	-47.2	17.2	0.00e+00	0	41	0	440401920	59	5221
2026-01-05 23:08:31.43	58.05	38.61	-44.5	-47.5	16.8	0.00e+00	0	42	0	442499072	59	5454
2026-01-05 23:08:32.58	58.44	38.80	-44.6	-47.8	16.6	0.00e+00	0	41	0	444596224	60	5295
2026-01-05 23:08:33.44	58.74	38.94	-44.6	-47.6	16.8	0.00e+00	0	41	0	445644800	60	5209
2026-01-05 23:08:34.69	59.17	39.14	-44.2	-47.0	17.3	0.00e+00	0	41	0	447741952	60	4854
2026-01-05 23:08:35.54	59.47	39.28	-43.8	-46.5	17.8	0.00e+00	0	41	0	449839104	59	4832
2026-01-05 23:08:36.75	59.91	39.48	-43.7	-46.4	17.8	0.00e+00	0	42	0	451936256	59	4772
2026-01-05 23:08:37.61	60.22	39.61	-43.8	-46.5	17.8	0.00e+00	0	42	0	454033408	59	4853
2026-01-05 23:08:38.76	60.63	39.80	-44.2	-47.0	17.3	0.00e+00	0	42	0	456130560	59	5158
2026-01-05 23:08:39.62	60.95	39.94	-44.6	-47.6	16.9	0.00e+00	0	42	0	457179136	59	5491
2026-01-05 23:08:40.77	61.38	40.12	-44.4	-47.4	17.2	0.00e+00	0	42	0	459276288	60	5044
2026-01-05 23:08:41.63	61.70	40.26	-44.1	-46.9	17.5	0.00e+00	0	42	0	461373440	60	4805
2026-01-05 23:08:42.78	62.13	40.44	-44.1	-46.9	17.6	0.00e+00	0	41	0	463470592	60	4769
2026-01-05 23:08:43.64	62.46	40.57	-44.3	-47.2	17.3	0.00e+00	0	42	0	464519168	60	4939
2026-01-05 23:08:44.79	62.91	40.75	-44.9	-47.9	16.5	0.00e+00	0	41	0	466616320	60	5397
2026-01-05 23:08:45.65	63.24	40.89	-45.0	-48.0	16.5	0.00e+00	0	41	0	468713472	60	5438
2026-01-05 23:08:46.80	63.69	41.06	-44.7	-47.7	16.8	0.00e+00	0	41	0	470810624	60	5263
2026-01-05 23:08:47.66	64.03	41.20	-44.5	-47.4	17.2	0.00e+00	0	41	0	472907776	60	5085
2026-01-05 23:08:48.80	64.49	41.37	-44.1	-46.9	17.6	0.00e+00	0	41	0	475004928	60	4772
2026-01-05 23:08:49.66	64.84	41.50	-43.9	-46.5	17.8	0.00e+00	0	41	0	476053504	59	4848
2026-01-05 23:08:50.81	65.31	41.68	-44.2	-46.9	17.5	0.00e+00	0	42	0	478150656	59	5094
2026-01-05 23:08:51.67	65.66	41.81	-44.7	-47.5	17.0	0.00e+00	0	41	0	480247808	59	5459
2026-01-05 23:08:52.82	66.14	41.98	-45.1	-48.1	16.4	0.00e+00	0	41	0	482344960	60	5525
2026-01-05 23:08:53.68	66.50	42.11	-45.2	-48.3	16.3	0.00e+00	0	41	0	483393536	61	5291
2026-01-05 23:08:54.83	66.99	42.28	-45.6	-48.8	15.8	0.00e+00	0	41	0	485490688	61	5632
2026-01-05 23:08:55.69	67.35	42.40	-45.5	-48.8	15.8	0.00e+00	0	41	0	487587840	62	5295
2026-01-05 23:08:56.84	67.85	42.57	-44.9	-47.9	16.7	0.00e+00	0	41	0	489684992	61	5084
2026-01-05 23:08:57.69	68.22	42.69	-44.8	-47.7	16.8	0.00e+00	0	41	0	491782144	61	4975
2026-01-05 23:08:58.84	68.72	42.85	-44.7	-47.6	17.0	0.00e+00	0	41	0	493879296	61	4893
2026-01-05 23:08:59.70	69.11	42.98	-44.8	-47.7	16.9	0.00e+00	0	41	0	494927872	61	4946
2026-01-05 23:09:00.85	69.62	43.14	-44.8	-47.6	16.7	0.00e+00	0	42	0	497025024	61	4924
2026-01-05 23:09:01.71	70.01	43.26	-44.8	-47.8	16.8	0.00e+00	0	41	0	499122176	61	4994
2026-01-05 23:09:02.86	70.53	43.41	-45.4	-48.6	16.0	0.00e+00	0	41	0	501219328	61	5470
2026-01-05 23:09:03.72	70.92	43.53	-45.8	-49.2	15.4	0.00e+00	0	41	0	502267904	62	5558
2026-01-05 23:09:04.87	71.45	43.68	-45.6	-49.0	15.6	0.00e+00	0	41	0	504365056	62	5407
2026-01-05 23:09:05.73	71.86	43.80	-45.6	-48.9	15.7	0.00e+00	0	41	0	506462208	62	5360
2026-01-05 23:09:06.88	72.40	43.95	-45.3	-48.4	16.2	0.00e+00	0	41	0	508559360	62	5088
2026-01-05 23:09:07.73	72.80	44.06	-45.1	-48.1	16.4	0.00e+00	0	42	0	509607936	61	5201
2026-01-05 23:09:08.88	73.35	44.20	-45.5	-48.8	15.9	0.00e+00	0	41	0	512753664	61	5608
2026-01-05 23:09:09.74	73.76	44.31	-46.2	-50.1	14.5	0.00e+00	0	42	0	513802240	63	5821
2026-01-05 23:09:10.89	74.32	44.45	-46.6	-50.8	13.9	6.80e-06	0	41	0	515899392	63	6278
2026-01-05 23:09:11.75	74.74	44.56	-46.2	-50.2	14.3	5.30e-06	0	41	0	517996544	64	5540
2026-01-05 23:09:12.90	75.31	44.70	-46.2	-50.0	14.4	0.00e+00	0	42	0	520093696	64	5450
2026-01-05 23:09:13.76	75.73	44.80	-46.3	-50.1	14.5	0.00e+00	0	41	0	521142272	64	5512
2026-01-05 23:09:14.91	76.31	44.93	-47.2	-52.0	12.5	2.97e-05	0	42	0	523239424	65	6476
2026-01-05 23:09:15.77	76.74	45.03	-47.3	-52.1	12.5	2.30e-04	0	41	0	525336576	65	6536
2026-01-05 23:09:16.92	77.32	45.16	-46.5	-50.5	14.0	2.59e-05	0	41	0	527433728	64	5738
2026-01-05 23:09:17.78	77.76	45.25	-46.0	-49.6	15.0	0.00e+00	0	41	0	528482304	63	5509
2026-01-05 23:09:18.92	78.35	45.38	-46.6	-50.7	13.8	0.00e+00	0	42	0	530579456	64	5869
2026-01-05 23:09:19.79	78.80	45.47	-47.1	-51.8	12.7	3.80e-06	0	42	0	532676608	65	6323
2026-01-05 23:09:20.93	79.39	45.58	-47.4	-52.4	12.2	3.86e-04	0	41	0	534773760	65	6736
2026-01-05 23:09:21.79	79.84	45.67	-46.7	-51.0	13.5	2.74e-05	0	41	0	536870912	65	5750
2026-01-05 23:09:22.94	80.45	45.78	-46.3	-50.2	14.3	1.50e-06	0	41	0	538968064	64	5574
2026-01-05 23:09:23.80	80.91	45.87	-46.6	-50.8	13.8	1.50e-06	0	42	0	540016640	64	5944
2026-01-05 23:09:24.95	81.52	45.97	-47.7	-53.1	11.4	8.23e-05	0	41	0	542113792	66	6914
2026-01-05 23:09:25.81	81.98	46.05	-47.2	-52.1	12.5	4.14e-04	0	41	0	544210944	66	6156
2026-01-05 23:09:26.96	82.61	46.15	-47.1	-52.0	12.5	1.80e-04	0	41	0	546308096	66	6076
2026-01-05 23:09:27.82	83.07	46.23	-46.9	-51.5	13.0	5.64e-05	0	41	0	547356672	65	6123
2026-01-05 23:09:28.97	83.70	46.32	-46.8	-51.3	13.1	4.19e-05	0	41	0	549453824	65	5951
2026-01-05 23:09:29.83	84.17	46.39	-46.2	-50.2	14.2	6.80e-06	0	41	0	551550976	64	5576
2026-01-05 23:09:30.98	84.81	46.48	-45.9	-49.5	15.1	7.00e-07	0	41	0	553648128	63	5440
2026-01-05 23:09:31.84	85.29	46.55	-45.6	-49.1	15.5	0.00e+00	0	42	0	555745280	63	5190
2026-01-05 23:09:32.98	85.92	46.63	-46.1	-50.0	14.7	0.00e+00	0	41	0	557842432	63	5724
2026-01-05 23:09:33.84	86.40	46.69	-46.1	-50.0	14.7	7.00e-07	0	41	0	558891008	63	5724
2026-01-05 23:09:34.99	87.05	46.77	-46.3	-50.3	14.4	1.50e-06	0	41	0	560988160	63	5943
2026-01-05 23:09:35.85	87.53	46.82	-46.0	-49.9	14.8	0.00e+00	0	42	0	563085312	63	5670
2026-01-05 23:09:37.00	88.19	46.89	-45.7	-49.2	15.4	0.00e+00	0	41	0	565182464	63	5258
2026-01-05 23:09:37.86	88.68	46.94	-45.2	-48.5	16.0	0.00e+00	0	41	0	566231040	62	5122
2026-01-05 23:09:39.01	89.33	47.00	-44.9	-48.0	16.6	0.00e+00	0	41	0	568328192	61	5103
2026-01-05 23:09:39.87	89.82	47.05	-44.5	-47.5	17.0	0.00e+00	0	41	0	570425344	61	4824
2026-01-05 23:09:41.01	90.48	47.11	-45.0	-48.1	16.4	0.00e+00	0	41	0	572522496	61	5214
2026-01-05 23:09:41.87	90.98	47.15	-45.3	-48.4	16.1	0.00e+00	0	42	0	573571072	61	5401
2026-01-05 23:09:43.02	91.64	47.19	-45.8	-49.3	15.3	0.00e+00	0	41	0	576716800	62	5613
2026-01-05 23:09:43.88	92.14	47.23	-46.4	-50.3	14.3	0.00e+00	0	42	0	577765376	63	5979
2026-01-05 23:09:45.03	92.81	47.27	-46.8	-51.2	13.4	1.29e-05	0	41	0	579862528	64	6254
2026-01-05 23:09:45.89	93.31	47.30	-46.4	-50.5	14.1	5.30e-06	0	41	0	581959680	64	5772
2026-01-05 23:09:47.04	93.98	47.33	-45.6	-49.0	15.5	0.00e+00	0	42	0	584056832	63	5136
2026-01-05 23:09:47.90	94.48	47.36	-45.4	-48.7	15.9	0.00e+00	0	41	0	585105408	62	5274
2026-01-05 23:09:49.05	95.16	47.39	-46.3	-50.1	14.5	0.00e+00	0	41	0	587202560	63	5836
2026-01-05 23:09:49.91	95.66	47.40	-47.1	-51.7	12.8	5.30e-06	0	41	0	589299712	64	6635
2026-01-05 23:09:51.06	96.34	47.42	-46.7	-50.9	13.6	1.67e-05	0	41	0	591396864	64	6059
2026-01-05 23:09:51.92	96.84	47.44	-46.0	-49.7	14.8	7.00e-07	0	42	0	592445440	64	5259
2026-01-05 23:09:53.07	97.52	47.45	-46.0	-49.6	15.1	0.00e+00	0	41	0	594542592	63	5490
2026-01-05 23:09:53.93	98.03	47.46	-46.1	-49.9	14.8	7.00e-07	0	41	0	596639744	63	5683
2026-01-05 23:09:55.07	98.70	47.46	-46.5	-50.4	14.2	0.00e+00	0	41	0	598736896	63	6032
2026-01-05 23:09:55.94	99.21	47.46	-46.4	-50.2	14.5	0.00e+00	0	42	0	600834048	63	5922
2026-01-05 23:09:57.08	99.88	47.46	-46.0	-49.6	15.1	0.00e+00	0	41	0	602931200	63	5492
2026-01-05 23:09:57.94	100.39	47.46	-46.3	-50.1	14.4	0.00e+00	0	42	0	603979776	63	5840
2026-01-05 23:09:59.09	101.07	47.45	-45.8	-49.3	15.3	0.00e+00	0	41	0	606076928	63	5333
2026-01-05 23:09:59.95	101.57	47.44	-45.1	-48.3	16.3	0.00e+00	0	42	0	608174080	62	4987
2026-01-05 23:10:01.10	102.25	47.42	-44.5	-47.1	17.5	0.00e+00	0	42	0	610271232	61	4619
2026-01-05 23:10:01.96	102.76	47.40	-44.8	-47.5	17.1	0.00e+00	0	41	0	611319808	60	5134
2026-01-05 23:10:03.11	103.43	47.38	-45.3	-48.2	16.4	0.00e+00	0	41	0	613416960	61	5275
2026-01-05 23:10:03.97	103.93	47.36	-46.0	-49.2	15.5	0.00e+00	0	41	0	615514112	62	5545
2026-01-05 23:10:05.11	104.60	47.33	-46.1	-49.3	15.5	0.00e+00	0	41	0	617611264	62	5601
2026-01-05 23:10:05.97	105.10	47.30	-45.7	-48.7	16.0	0.00e+00	0	41	0	619708416	62	5257
2026-01-05 23:10:07.11	105.77	47.26	-46.6	-50.2	14.6	0.00e+00	0	41	0	621805568	63	5919
2026-01-05 23:10:07.98	106.27	47.23	-46.8	-50.7	13.9	1.50e-06	0	41	0	622854144	64	5905
2026-01-05 23:10:09.12	106.94	47.18	-46.4	-50.0	14.6	0.00e+00	0	41	0	624951296	64	5445
2026-01-05 23:10:09.98	107.43	47.15	-46.0	-49.2	15.5	0.00e+00	0	41	0	627048448	63	5269
2026-01-05 23:10:11.13	108.10	47.09	-46.4	-49.9	14.9	0.00e+00	0	41	0	629145600	63	5679
2026-01-05 23:10:11.98	108.59	47.05	-46.9	-50.7	13.9	1.50e-06	0	41	0	630194176	64	5861
2026-01-05 23:10:13.13	109.25	46.99	-47.6	-52.0	12.7	5.72e-05	0	41	0	632291328	66	6092
2026-01-05 23:10:13.99	109.74	46.94	-46.9	-50.7	14.0	5.03e-05	0	41	0	634388480	65	5547
2026-01-05 23:10:15.13	110.39	46.88	-45.6	-48.6	16.1	0.00e+00	0	41	0	636485632	63	4891
2026-01-05 23:10:15.99	110.87	46.83	-45.4	-48.3	16.4	0.00e+00	0	41	0	638582784	62	4995
2026-01-05 23:10:17.14	111.52	46.75	-45.3	-48.1	16.5	0.00e+00	0	41	0	640679936	62	4923
2026-01-05 23:10:17.99	112.00	46.69	-45.2	-48.0	16.6	0.00e+00	0	41	0	641728512	62	4869
2026-01-05 23:10:19.14	112.65	46.61	-44.6	-47.3	17.2	0.00e+00	0	41	0	643825664	61	4714
2026-01-05 23:10:20.00	113.13	46.55	-44.0	-46.4	18.0	0.00e+00	0	41	0	645922816	60	4529
2026-01-05 23:10:21.15	113.76	46.46	-45.1	-47.9	16.7	0.00e+00	0	41	0	648019968	60	5400
2026-01-05 23:10:22.00	114.23	46.40	-46.5	-49.9	14.9	0.00e+00	0	41	0	649068544	63	5670
2026-01-05 23:10:23.15	114.87	46.30	-46.4	-49.7	14.9	0.00e+00	0	41	0	651165696	64	5254
2026-01-05 23:10:24.00	115.33	46.23	-45.2	-48.0	16.6	0.00e+00	0	41	0	653262848	62	4852
2026-01-05 23:10:25.15	115.96	46.13	-44.7	-47.3	17.3	0.00e+00	0	41	0	655360000	61	4749
2026-01-05 23:10:26.01	116.42	46.06	-44.6	-47.2	17.3	0.00e+00	0	41	0	656408576	61	4682
2026-01-05 23:10:27.15	117.03	45.95	-45.0	-47.8	16.8	0.00e+00	0	41	0	658505728	61	5002
2026-01-05 23:10:28.01	117.49	45.87	-45.0	-47.7	16.9	0.00e+00	0	41	0	660602880	61	4939
2026-01-05 23:10:29.15	118.10	45.76	-45.3	-48.2	16.4	0.00e+00	0	41	0	662700032	61	5265
2026-01-05 23:10:30.01	118.56	45.68	-45.6	-48.6	16.1	0.00e+00	0	41	0	664797184	61	5521
2026-01-05 23:10:31.15	119.15	45.56	-46.1	-49.4	15.3	0.00e+00	0	41	0	666894336	62	5701
2026-01-05 23:10:32.01	119.60	45.47	-46.9	-50.9	13.9	0.00e+00	0	41	0	667942912	64	6008
2026-01-05 23:10:33.15	120.19	45.35	-47.1	-51.1	13.4	1.60e-05	0	41	0	670040064	65	5847
2026-01-05 23:10:34.01	120.64	45.26	-46.5	-50.1	14.5	6.80e-06	0	41	0	672137216	65	5188
2026-01-05 23:10:35.15	121.22	45.14	-44.6	-47.3	17.3	0.00e+00	0	41	0	674234368	61	4712
2026-01-05 23:10:36.00	121.65	45.04	-44.4	-46.9	17.6	0.00e+00	0	41	0	675282944	60	4812
2026-01-05 23:10:37.15	122.23	44.91	-45.3	-48.2	16.4	0.00e+00	0	41	0	677380096	61	5252
2026-01-05 23:10:38.01	122.66	44.81	-45.4	-48.4	16.2	0.00e+00	0	41	0	679477248	61	5356
2026-01-05 23:10:39.15	123.23	44.67	-44.4	-47.0	17.5	0.00e+00	0	42	0	681574400	60	4844
2026-01-05 23:10:40.01	123.65	44.57	-43.6	-46.0	18.4	0.00e+00	0	41	0	682622976	59	4590
2026-01-05 23:10:41.16	124.22	44.43	-43.5	-45.9	18.5	0.00e+00	0	41	0	684720128	58	4788
2026-01-05 23:10:42.01	124.63	44.32	-44.1	-46.5	17.9	0.00e+00	0	41	0	686817280	58	5156
2026-01-05 23:10:43.16	125.18	44.18	-44.6	-47.3	17.4	0.00e+00	0	41	0	688914432	60	4993
2026-01-05 23:10:44.02	125.60	44.07	-44.3	-46.9	17.7	0.00e+00	0	41	0	691011584	60	4762
2026-01-05 23:10:45.16	126.14	43.92	-43.2	-45.4	18.9	0.00e+00	0	41	0	693108736	58	4537
2026-01-05 23:10:46.02	126.54	43.81	-42.6	-44.8	19.5	0.00e+00	0	41	0	694157312	56	4706
2026-01-05 23:10:47.16	127.07	43.66	-43.4	-45.8	18.6	0.00e+00	0	41	0	696254464	57	4993
2026-01-05 23:10:48.02	127.47	43.54	-44.0	-46.6	17.9	0.00e+00	0	41	0	698351616	58	5161
2026-01-05 23:10:49.17	128.00	43.39	-43.6	-46.0	18.4	0.00e+00	0	41	0	700448768	59	4567
2026-01-05 23:10:50.03	128.39	43.27	-42.7	-45.0	19.3	0.00e+00	0	41	0	701497344	57	4550
2026-01-05 23:10:51.16	128.90	43.11	-42.3	-44.4	19.8	0.00e+00	0	41	0	703594496	56	4533
2026-01-05 23:10:52.02	129.29	42.99	-43.0	-45.3	19.1	0.00e+00	0	41	0	705691648	56	4990
2026-01-05 23:10:53.17	129.80	42.83	-43.9	-46.4	18.0	0.00e+00	0	41	0	707788800	58	5069
2026-01-05 23:10:54.03	130.18	42.70	-43.7	-46.1	18.2	0.00e+00	0	41	0	708837376	58	4918
2026-01-05 23:10:55.17	130.67	42.54	-43.0	-45.2	19.1	0.00e+00	0	41	0	711983104	57	4682
2026-01-05 23:10:56.02	131.04	42.42	-42.2	-44.3	19.9	0.00e+00	0	41	0	713031680	56	4446
2026-01-05 23:10:57.16	131.53	42.25	-42.0	-44.0	19.9	0.00e+00	0	41	0	715128832	55	4589
2026-01-05 23:10:58.02	131.90	42.12	-42.5	-44.7	19.4	0.00e+00	0	41	0	717225984	55	4928
2026-01-05 23:10:59.16	132.38	41.95	-43.3	-45.6	18.7	0.00e+00	0	41	0	719323136	57	4909
2026-01-05 23:11:00.02	132.73	41.82	-43.0	-45.3	19.0	0.00e+00	0	41	0	720371712	57	4737
2026-01-05 23:11:01.17	133.21	41.65	-42.5	-44.7	19.5	0.00e+00	0	41	0	722468864	56	4670
2026-01-05 23:11:02.03	133.56	41.52	-42.4	-44.6	19.6	0.00e+00	0	41	0	724566016	56	4607
2026-01-05 23:11:03.17	134.02	41.34	-43.5	-45.8	18.6	0.00e+00	0	41	0	726663168	57	5011
2026-01-05 23:11:04.03	134.37	41.21	-44.1	-46.6	17.8	0.00e+00	0	41	0	727711744	59	4889
2026-01-05 23:11:05.18	134.83	41.03	-43.3	-45.5	18.8	0.00e+00	0	41	0	729808896	58	4596
2026-01-05 23:11:06.03	135.16	40.90	-42.3	-44.4	19.7	0.00e+00	0	41	0	731906048	56	4499
2026-01-05 23:11:07.17	135.61	40.72	-41.8	-43.9	20.1	0.00e+00	0	41	0	734003200	55	4533
2026-01-05 23:11:08.03	135.94	40.59	-43.1	-45.3	19.0	0.00e+00	0	41	0	736100352	56	5034
2026-01-05 23:11:09.33	136.44	40.38	-45.3	-48.2	16.4	0.00e+00	0	41	0	738197504	61	5256
2026-01-05 23:11:10.05	136.71	40.27	-45.8	-48.9	15.6	0.00e+00	0	41	0	739246080	62	5381
2026-01-05 23:11:11.33	137.19	40.06	-44.7	-47.4	17.1	0.00e+00	0	41	0	741343232	61	4813
2026-01-05 23:11:12.05	137.46	39.95	-44.2	-46.7	17.8	0.00e+00	0	41	0	743440384	60	4692
2026-01-05 23:11:13.33	137.93	39.74	-43.9	-46.3	18.1	0.00e+00	0	41	0	745537536	59	4755
2026-01-05 23:11:14.10	138.21	39.62	-44.9	-47.6	16.9	0.00e+00	0	41	0	746586112	60	5216
2026-01-05 23:11:15.39	138.68	39.41	-47.5	-51.7	12.9	2.36e-05	0	41	0	749731840	65	6254
2026-01-05 23:11:16.17	138.95	39.28	-48.2	-53.4	11.1	5.16e-04	0	41	0	750780416	67	6760
2026-01-05 23:11:17.45	139.41	39.07	-47.5	-51.7	12.9	1.56e-03	0	41	0	752877568	67	5575
2026-01-05 23:11:18.25	139.69	38.94	-46.0	-49.2	15.4	4.50e-06	0	41	0	754974720	63	5248
2026-01-05 23:11:19.39	140.08	38.76	-45.6	-48.7	16.1	0.00e+00	0	42	0	757071872	62	5233
2026-01-05 23:11:20.46	140.45	38.58	-46.3	-49.6	15.0	0.00e+00	0	41	0	759169024	63	5518
2026-01-05 23:11:21.35	140.75	38.44	-47.7	-52.2	12.4	1.50e-06	0	41	0	760217600	66	6224
2026-01-05 23:11:22.49	141.13	38.25	-48.7	-54.1	10.5	4.86e-03	0	41	0	762314752	68	6955
2026-01-05 23:11:23.35	141.42	38.11	-48.0	-52.7	12.0	1.82e-03	0	41	0	764411904	68	5869
2026-01-05 23:11:24.49	141.80	37.92	-46.8	-50.5	14.0	6.71e-05	0	41	0	766509056	65	5410
2026-01-05 23:11:25.35	142.08	37.78	-46.4	-49.9	14.7	3.00e-06	0	41	0	768606208	64	5343
2026-01-05 23:11:26.49	142.44	37.59	-46.2	-49.5	15.1	0.00e+00	0	41	0	770703360	64	5101
2026-01-05 23:11:27.35	142.72	37.45	-46.5	-50.0	14.7	2.20e-06	0	41	0	771751936	64	5434
2026-01-05 23:11:28.49	143.08	37.26	-48.0	-52.7	11.9	2.13e-04	0	41	0	773849088	66	6620
2026-01-05 23:11:29.35	143.35	37.11	-48.9	-54.8	9.9	1.79e-03	0	41	0	775946240	68	7532
2026-01-05 23:11:30.49	143.70	36.92	-48.8	-54.6	10.1	1.16e-02	0	41	0	778043392	68	7338
2026-01-05 23:11:31.35	143.97	36.78	-48.1	-52.9	11.8	3.60e-03	0	41	0	779091968	68	6028
2026-01-05 23:11:32.49	144.31	36.59	-47.2	-51.3	13.4	3.58e-05	0	41	0	781189120	66	5606
2026-01-05 23:11:33.35	144.57	36.45	-47.1	-51.1	13.6	1.37e-05	0	41	0	783286272	66	5492
2026-01-05 23:11:34.49	144.91	36.26	-48.0	-52.8	11.8	5.87e-05	0	41	0	785383424	66	6665
2026-01-05 23:11:35.35	145.17	36.12	-49.0	-55.0	9.7	1.79e-03	0	41	0	786432000	68	7644
2026-01-05 23:11:36.49	145.50	35.93	-49.6	-56.7	7.9	8.12e-02	0	41	0	788529152	70	8356
2026-01-05 23:11:37.35	145.75	35.79	-49.5	-56.6	7.9	1.13e-01	0	41	0	790626304	70	8191
2026-01-05 23:11:38.49	146.08	35.60	-49.0	-54.9	9.7	5.22e-02	0	41	0	792723456	70	6758
2026-01-05 23:11:39.35	146.32	35.45	-48.6	-53.8	10.8	8.17e-03	0	41	0	794820608	69	6319
2026-01-05 23:11:40.49	146.64	35.26	-47.8	-52.2	12.4	4.45e-04	0	41	0	796917760	67	5875
2026-01-05 23:11:41.36	146.88	35.12	-47.3	-51.4	13.3	6.48e-05	0	41	0	797966336	66	5669
2026-01-05 23:11:42.50	147.20	34.93	-47.3	-51.3	13.3	1.44e-05	0	41	0	800063488	66	5595
2026-01-05 23:11:43.35	147.43	34.79	-47.6	-52.0	12.7	1.06e-05	0	41	0	802160640	66	6065
2026-01-05 23:11:44.51	147.74	34.60	-48.3	-53.6	11.0	1.07e-03	0	41	0	804257792	67	6923
2026-01-05 23:11:45.37	147.97	34.46	-48.7	-54.4	10.4	5.89e-03	0	41	0	805306368	68	7172
2026-01-05 23:11:46.59	148.29	34.26	-47.4	-51.7	12.8	3.61e-04	0	41	0	808452096	66	5915
2026-01-05 23:11:47.45	148.52	34.11	-46.3	-49.9	14.7	1.50e-06	0	41	0	809500672	64	5342
2026-01-05 23:11:48.65	148.83	33.92	-44.9	-47.7	16.9	0.00e+00	0	41	0	811597824	61	4945
2026-01-05 23:11:49.51	149.05	33.78	-44.5	-47.1	17.4	0.00e+00	0	41	0	813694976	60	4914
2026-01-05 23:11:50.73	149.36	33.58	-44.6	-47.2	17.3	0.00e+00	0	41	0	815792128	60	4973
2026-01-05 23:11:51.59	149.57	33.44	-45.4	-48.4	16.3	0.00e+00	0	41	0	816840704	61	5344
2026-01-05 23:11:52.74	149.86	33.25	-47.1	-51.1	13.6	7.00e-07	0	41	0	819986432	64	6170
2026-01-05 23:11:53.60	150.07	33.11	-48.0	-52.8	11.8	1.20e-04	0	41	0	821035008	66	6664
2026-01-05 23:11:54.75	150.35	32.92	-48.3	-53.4	11.2	1.12e-03	0	41	0	823132160	67	6795
2026-01-05 23:11:55.61	150.56	32.78	-47.9	-52.5	12.1	4.52e-04	0	41	0	825229312	67	6117
2026-01-05 23:11:56.75	150.83	32.60	-46.3	-49.7	14.8	1.14e-05	0	41	0	827326464	64	5249
2026-01-05 23:11:57.61	151.04	32.46	-45.8	-48.9	15.8	7.00e-07	0	41	0	828375040	63	5065
2026-01-05 23:11:58.76	151.31	32.27	-45.1	-47.9	16.7	0.00e+00	0	41	0	830472192	62	4777
2026-01-05 23:11:59.61	151.50	32.14	-45.0	-47.8	16.8	0.00e+00	0	41	0	832569344	61	5011
2026-01-05 23:12:00.76	151.77	31.95	-45.5	-48.6	16.1	0.00e+00	0	41	0	834666496	61	5475
2026-01-05 23:12:01.62	151.96	31.81	-46.0	-49.4	15.3	0.00e+00	0	41	0	835715072	62	5659
2026-01-05 23:12:02.77	152.22	31.63	-46.7	-50.5	14.1	0.00e+00	0	41	0	837812224	64	5787
2026-01-05 23:12:03.63	152.41	31.49	-46.7	-50.5	14.1	6.80e-06	0	41	0	839909376	64	5751
2026-01-05 23:12:04.77	152.67	31.31	-46.0	-49.3	15.3	7.00e-07	0	41	0	842006528	63	5331
2026-01-05 23:12:05.63	152.85	31.17	-45.8	-48.9	15.7	0.00e+00	0	41	0	844103680	63	5074
2026-01-05 23:12:06.78	153.10	30.99	-45.1	-47.9	16.6	0.00e+00	0	41	0	846200832	62	4792
2026-01-05 23:12:07.64	153.29	30.86	-44.6	-47.3	17.2	0.00e+00	0	41	0	847249408	61	4730
2026-01-05 23:12:08.78	153.53	30.68	-44.3	-46.9	17.6	0.00e+00	0	41	0	849346560	60	4777
2026-01-05 23:12:09.65	153.71	30.54	-44.8	-47.6	17.0	0.00e+00	0	41	0	851443712	60	5190
2026-01-05 23:12:10.79	153.95	30.36	-45.3	-48.4	16.2	0.00e+00	0	41	0	853540864	61	5396
2026-01-05 23:12:11.65	154.13	30.23	-45.9	-49.4	15.3	0.00e+00	0	41	0	854589440	62	5676
2026-01-05 23:12:12.79	154.36	30.05	-46.5	-50.4	14.3	0.00e+00	0	41	0	856686592	63	6024
2026-01-05 23:12:13.65	154.54	29.92	-46.5	-50.3	14.3	2.20e-06	0	41	0	858783744	63	5985
2026-01-05 23:12:14.80	154.77	29.74	-46.3	-50.1	14.5	0.00e+00	0	41	0	860880896	63	5846
2026-01-05 23:12:15.66	154.94	29.61	-46.0	-49.6	15.0	0.00e+00	0	41	0	861929472	63	5518
2026-01-05 23:12:16.80	155.17	29.43	-45.6	-49.0	15.6	0.00e+00	0	41	0	865075200	63	5118
2026-01-05 23:12:17.66	155.33	29.30	-45.9	-49.2	15.4	0.00e+00	0	41	0	866123776	63	5274
2026-01-05 23:12:18.81	155.56	29.12	-45.4	-48.4	16.2	0.00e+00	0	41	0	868220928	62	5069
2026-01-05 23:12:19.67	155.72	28.99	-45.0	-47.9	16.7	0.00e+00	0	41	0	870318080	62	4779
2026-01-05 23:12:20.81	155.94	28.82	-45.1	-47.9	16.6	0.00e+00	0	41	0	872415232	62	4793
2026-01-05 23:12:21.67	156.10	28.69	-45.2	-48.1	16.5	0.00e+00	0	41	0	873463808	62	4905
2026-01-05 23:12:22.82	156.32	28.52	-45.6	-48.6	15.9	0.00e+00	0	41	0	875560960	62	5216
2026-01-05 23:12:23.68	156.47	28.39	-45.6	-48.7	15.8	0.00e+00	0	41	0	877658112	62	5262
2026-01-05 23:12:24.82	156.68	28.22	-46.1	-49.5	15.2	0.00e+00	0	41	0	879755264	62	5735
2026-01-05 23:12:25.68	156.84	28.09	-46.3	-49.8	14.9	0.00e+00	0	41	0	880803840	63	5616
2026-01-05 23:12:26.83	157.05	27.92	-46.4	-49.9	14.7	0.00e+00	0	41	0	882900992	63	5682
2026-01-05 23:12:27.69	157.20	27.79	-46.0	-49.2	15.4	0.00e+00	0	41	0	884998144	63	5257
2026-01-05 23:12:28.83	157.40	27.62	-45.5	-48.4	16.2	0.00e+00	0	41	0	887095296	62	5088
2026-01-05 23:12:29.69	157.55	27.49	-45.3	-48.3	16.2	0.00e+00	0	41	0	889192448	62	4991
2026-01-05 23:12:30.84	157.75	27.33	-44.6	-47.2	17.2	0.00e+00	0	41	0	891289600	61	4688
2026-01-05 23:12:31.70	157.90	27.20	-44.3	-46.9	17.6	0.00e+00	0	41	0	892338176	60	4774
2026-01-05 23:12:32.84	158.09	27.03	-44.3	-46.8	17.6	0.00e+00	0	41	0	894435328	60	4743
2026-01-05 23:12:33.70	158.24	26.91	-44.1	-46.6	17.9	0.00e+00	0	41	0	896532480	60	4600
2026-01-05 23:12:34.85	158.43	26.74	-44.5	-47.1	17.3	0.00e+00	0	41	0	898629632	60	4919
2026-01-05 23:12:35.71	158.57	26.62	-44.4	-47.0	17.4	0.00e+00	0	41	0	899678208	60	4868
2026-01-05 23:12:36.85	158.76	26.45	-44.9	-47.6	17.0	0.00e+00	0	41	0	901775360	60	5201
2026-01-05 23:12:37.72	158.90	26.33	-45.4	-48.3	16.2	0.00e+00	0	41	0	903872512	61	5331
2026-01-05 23:12:38.86	159.09	26.17	-45.5	-48.5	16.1	0.00e+00	0	41	0	905969664	61	5453
2026-01-05 23:12:39.77	159.23	26.04	-45.9	-49.1	15.5	0.00e+00	0	41	0	908066816	62	5477
2026-01-05 23:12:40.77	159.39	25.90	-46.0	-49.2	15.4	0.00e+00	0	41	0	909115392	62	5587
2026-01-05 23:12:41.78	159.55	25.75	-45.9	-49.1	15.5	0.00e+00	0	41	0	911212544	62	5515
2026-01-05 23:12:42.78	159.71	25.61	-45.9	-49.2	15.4	0.00e+00	0	41	0	913309696	62	5550
2026-01-05 23:12:43.78	159.86	25.47	-45.5	-48.5	16.0	0.00e+00	0	41	0	915406848	62	5141
2026-01-05 23:12:44.78	160.02	25.33	-45.2	-48.1	16.5	0.00e+00	0	41	0	917504000	62	4899
2026-01-05 23:12:45.78	160.17	25.20	-45.0	-47.8	16.7	0.00e+00	0	41	0	918552576	62	4754
2026-01-05 23:12:46.79	160.32	25.06	-44.6	-47.3	17.2	0.00e+00	0	41	0	920649728	61	4721
2026-01-05 23:12:47.79	160.47	24.92	-44.8	-47.5	16.9	0.00e+00	0	41	0	922746880	61	4863
2026-01-05 23:12:48.79	160.62	24.78	-45.0	-47.8	16.7	0.00e+00	0	41	0	924844032	61	4986
2026-01-05 23:12:49.80	160.77	24.64	-45.0	-47.9	16.7	0.00e+00	0	41	0	926941184	61	5044
2026-01-05 23:12:50.80	160.91	24.51	-45.0	-47.8	16.7	0.00e+00	0	41	0	927989760	61	5026
2026-01-05 23:12:51.80	161.06	24.37	-45.3	-48.2	16.4	0.00e+00	0	41	0	930086912	61	5231
2026-01-05 23:12:52.80	161.20	24.23	-45.4	-48.4	16.1	0.00e+00	0	41	0	932184064	61	5359
2026-01-05 23:12:53.80	161.34	24.10	-45.5	-48.6	15.9	0.00e+00	0	41	0	934281216	61	5471
2026-01-05 23:12:54.91	161.50	23.95	-45.2	-48.2	16.3	0.00e+00	0	41	0	936378368	61	5251
2026-01-05 23:12:55.77	161.62	23.84	-45.0	-47.9	16.5	0.00e+00	0	41	0	937426944	61	5078
2026-01-05 23:12:56.92	161.78	23.68	-45.0	-47.9	16.6	0.00e+00	0	41	0	939524096	61	5048
2026-01-05 23:12:57.78	161.90	23.57	-45.0	-47.9	16.5	0.00e+00	0	41	0	941621248	61	5061
2026-01-05 23:12:58.92	162.05	23.42	-45.1	-48.0	16.5	0.00e+00	0	41	0	943718400	61	5109
2026-01-05 23:12:59.78	162.17	23.30	-45.0	-47.9	16.5	0.00e+00	0	41	0	944766976	61	5087
2026-01-05 23:13:00.93	162.32	23.15	-45.0	-47.9	16.5	0.00e+00	0	41	0	946864128	61	5091
2026-01-05 23:13:01.79	162.44	23.04	-45.0	-47.9	16.5	0.00e+00	0	41	0	948961280	61	5088
2026-01-05 23:13:02.94	162.59	22.89	-45.6	-48.7	15.8	0.00e+00	0	41	0	951058432	61	5540
2026-01-05 23:13:03.80	162.70	22.78	-45.4	-48.5	15.9	0.00e+00	0	41	0	953155584	62	5149
2026-01-05 23:13:04.95	162.85	22.63	-45.6	-48.8	15.7	0.00e+00	0	41	0	955252736	62	5284
2026-01-05 23:13:05.80	162.96	22.52	-45.7	-48.9	15.6	0.00e+00	0	41	0	956301312	62	5389
2026-01-05 23:13:06.95	163.11	22.38	-45.4	-48.5	16.0	0.00e+00	0	41	0	958398464	62	5148
2026-01-05 23:13:07.81	163.22	22.27	-45.7	-48.8	15.7	0.00e+00	0	41	0	960495616	62	5336
2026-01-05 23:13:08.96	163.36	22.12	-45.8	-49.0	15.5	0.00e+00	0	41	0	962592768	62	5456
2026-01-05 23:13:09.82	163.47	22.01	-45.6	-48.7	15.8	0.00e+00	0	41	0	963641344	62	5234
2026-01-05 23:13:10.96	163.61	21.87	-45.7	-48.8	15.7	0.00e+00	0	41	0	965738496	62	5339
2026-01-05 23:13:11.82	163.72	21.76	-45.4	-48.5	16.0	0.00e+00	0	41	0	967835648	62	5116
2026-01-05 23:13:12.97	163.86	21.62	-45.5	-48.6	15.8	7.00e-07	0	41	0	969932800	62	5186
2026-01-05 23:13:13.83	163.96	21.51	-45.5	-48.5	16.0	0.00e+00	0	41	0	970981376	62	5127
2026-01-05 23:13:14.97	164.10	21.37	-45.1	-48.0	16.4	0.00e+00	0	41	0	974127104	62	4867
2026-01-05 23:13:15.83	164.20	21.26	-45.3	-48.2	15.8	0.00e+00	0	41	0	975175680	62	4976
2026-01-05 23:13:16.98	164.33	21.12	-45.1	-48.1	16.4	0.00e+00	0	41	0	977272832	62	4883
2026-01-05 23:13:17.84	164.44	21.01	-45.1	-48.1	16.4	0.00e+00	0	41	0	979369984	62	4897
2026-01-05 23:13:18.99	164.57	20.87	-45.3	-48.4	16.1	0.00e+00	0	41	0	981467136	62	5057
2026-01-05 23:13:19.85	164.67	20.77	-45.3	-48.4	16.1	0.00e+00	0	41	0	982515712	62	5067
2026-01-05 23:13:21.00	164.80	20.63	-45.5	-48.7	15.8	0.00e+00	0	41	0	984612864	62	5228
2026-01-05 23:13:21.86	164.90	20.52	-45.7	-49.0	15.4	0.00e+00	0	41	0	986710016	62	5461
2026-01-05 23:13:23.00	165.03	20.39	-46.0	-49.4	15.1	0.00e+00	0	41	0	988807168	62	5699
2026-01-05 23:13:23.86	165.12	20.28	-46.1	-49.7	14.8	0.00e+00	0	41	0	989855744	63	5556
2026-01-05 23:13:25.00	165.25	20.15	-46.3	-50.0	14.5	0.00e+00	0	41	0	991952896	63	5750
2026-01-05 23:13:25.86	165.34	20.05	-46.3	-49.9	14.6	1.50e-06	0	41	0	994050048	63	5693
2026-01-05 23:13:27.01	165.47	19.91	-46.6	-50.3	14.2	2.20e-06	0	41	0	996147200	63	5984
2026-01-05 23:13:27.87	165.56	19.81	-46.4	-50.0	14.4	2.20e-06	0	41	0	998244352	64	5432
2026-01-05 23:13:29.01	165.69	19.67	-46.5	-50.3	14.3	3.80e-06	0	41	0	1000341504	64	5601
2026-01-05 23:13:29.87	165.78	19.57	-46.4	-50.0	14.4	1.50e-06	0	41	0	1001390080	64	5444
2026-01-05 23:13:31.02	165.90	19.44	-46.2	-49.7	14.8	0.00e+00	0	41	0	1003487232	64	5227
2026-01-05 23:13:31.88	165.99	19.34	-46.0	-49.4	15.1	7.00e-07	0	41	0	1005584384	63	5354
2026-01-05 23:13:33.02	166.11	19.21	-45.7	-49.0	15.5	0.00e+00	0	41	0	1007681536	63	5138
2026-01-05 23:13:33.88	166.20	19.11	-45.6	-48.7	15.7	0.00e+00	0	41	0	1008730112	62	5273
2026-01-05 23:13:35.03	166.32	18.98	-45.5	-48.6	15.8	0.00e+00	0	41	0	1010827264	62	5203
2026-01-05 23:13:35.89	166.41	18.88	-45.4	-48.6	15.9	0.00e+00	0	41	0	1012924416	62	5167
2026-01-05 23:13:37.03	166.52	18.75	-45.2	-48.3	16.1	0.00e+00	0	41	0	1015021568	62	4988
2026-01-05 23:13:37.89	166.61	18.65	-45.2	-48.2	16.2	0.00e+00	0	41	0	1017118720	62	4944
2026-01-05 23:13:39.04	166.72	18.52	-45.1	-48.1	16.3	0.00e+00	0	41	0	1019215872	62	4905
2026-01-05 23:13:39.90	166.81	18.42	-45.3	-48.3	16.1	0.00e+00	0	41	0	1020264448	62	5007
2026-01-05 23:13:41.04	166.92	18.30	-45.2	-48.2	16.1	0.00e+00	0	41	0	1022361600	62	4980
2026-01-05 23:13:41.90	167.01	18.20	-45.3	-48.3	16.1	0.00e+00	0	41	0	1024458752	62	5014
2026-01-05 23:13:43.04	167.12	18.07	-45.5	-48.6	15.9	0.00e+00	0	41	0	1026555904	62	5183
2026-01-05 23:13:43.90	167.20	17.98	-45.6	-48.8	15.6	0.00e+00	0	41	0	1027604480	62	5329
2026-01-05 23:13:45.05	167.31	17.85	-45.6	-48.8	15.5	0.00e+00	0	41	0	1029701632	62	5317
2026-01-05 23:13:45.91	167.39	17.76	-45.6	-48.8	15.6	0.00e+00	0	41	0	1031798784	62	5325
2026-01-05 23:13:47.05	167.50	17.63	-45.8	-49.1	15.4	0.00e+00	0	41	0	1033895936	62	5480
2026-01-05 23:13:47.91	167.58	17.54	-45.6	-48.9	15.6	0.00e+00	0	41	0	1034944512	62	5343
2026-01-05 23:13:49.06	167.69	17.41	-45.7	-48.9	15.5	0.00e+00	0	41	0	1037041664	62	5386
2026-01-05 23:13:49.92	167.77	17.32	-45.7	-48.9	15.5	0.00e+00	0	41	0	1039138816	62	5373
2026-01-05 23:13:51.06	167.88	17.20	-45.7	-48.9	15.5	0.00e+00	0	41	0	1041235968	62	5369
2026-01-05 23:13:51.92	167.95	17.10	-45.8	-49.0	15.4	0.00e+00	0	41	0	1043333120	62	5455
2026-01-05 23:13:53.07	168.06	16.98	-45.5	-48.6	15.8	0.00e+00	0	41	0	1045430272	62	5212
2026-01-05 23:13:53.92	168.14	16.89	-45.3	-48.4	16.0	0.00e+00	0	41	0	1046478848	62	5044
2026-01-05 23:13:55.06	168.24	16.77	-45.2	-48.3	16.1	0.00e+00	0	41	0	1048576000	62	4984
2026-01-05 23:13:55.92	168.31	16.68	-45.1	-48.0	16.3	0.00e+00	0	41	0	1050673152	62	4866
2026-01-05 23:13:57.07	168.42	16.56	-45.1	-48.1	16.3	0.00e+00	0	41	0	1052770304	62	4893
2026-01-05 23:13:57.93	168.49	16.47	-45.1	-48.0	16.4	0.00e+00	0	41	0	1053818880	62	4857
2026-01-05 23:13:59.07	168.59	16.35	-44.7	-47.6	16.8	0.00e+00	0	41	0	1055916032	61	4890
2026-01-05 23:13:59.93	168.67	16.26	-44.6	-47.4	16.8	0.00e+00	0	41	0	1058013184	61	4803
2026-01-05 23:14:01.08	168.76	16.14	-44.4	-47.2	17.1	0.00e+00	0	41	0	1060110336	60	4956
2026-01-05 23:14:01.94	168.84	16.05	-44.6	-47.4	16.9	0.00e+00	0	41	0	1062207488	60	5069
2026-01-05 23:14:03.09	168.94	15.93	-44.5	-47.3	16.9	0.00e+00	0	41	0	1064304640	60	5031
2026-01-05 23:14:03.95	169.01	15.84	-44.7	-47.5	16.8	0.00e+00	0	41	0	1065353216	60	5142
2026-01-05 23:14:05.10	169.10	15.72	-44.7	-47.6	16.7	0.00e+00	0	41	0	1067450368	60	5193
2026-01-05 23:14:05.95	169.18	15.64	-44.7	-47.5	16.8	0.00e+00	0	41	0	1069547520	60	5144
2026-01-05 23:14:07.10	169.27	15.52	-44.4	-47.2	17.0	0.00e+00	0	41	0	1071644672	60	4974
2026-01-05 23:14:07.96	169.34	15.43	-44.5	-47.3	16.9	0.00e+00	0	41	0	1072693248	60	5038
2026-01-05 23:14:09.11	169.44	15.32	-44.6	-47.5	16.8	0.00e+00	0	41	0	1074790400	60	5103
2026-01-05 23:14:09.97	169.51	15.23	-44.8	-47.7	16.6	0.00e+00	0	41	0	1076887552	60	5233
2026-01-05 23:14:11.11	169.60	15.12	-45.1	-48.1	16.2	4.32e-04	0	41	0	1078984704	60	5515
2026-01-05 23:14:11.97	169.67	15.03	-45.2	-48.3	16.0	0.00e+00	0	41	0	1080033280	61	5303
2026-01-05 23:14:13.12	169.76	14.92	-45.3	-48.5	15.8	0.00e+00	0	41	0	1082130432	61	5415
2026-01-05 23:14:13.98	169.83	14.83	-45.3	-48.4	15.9	1.89e-03	0	41	0	1084227584	61	5372
2026-01-05 23:14:15.12	169.92	14.72	-45.3	-48.5	15.8	0.00e+00	0	41	0	1086324736	61	5443
2026-01-05 23:14:15.98	169.98	14.63	-45.5	-48.8	15.5	0.00e+00	0	41	0	1088421888	61	5643
2026-01-05 23:14:17.13	170.07	14.52	-45.7	-49.0	15.3	0.00e+00	0	41	0	1090519040	62	5458
2026-01-05 23:14:17.98	170.14	14.44	-45.8	-49.4	15.0	0.00e+00	0	41	0	1091567616	62	5671
2026-01-05 23:14:19.13	170.23	14.33	-46.1	-49.8	14.6	0.00e+00	0	41	0	1093664768	62	5951
2026-01-05 23:14:19.98	170.29	14.24	-46.1	-49.9	14.5	7.00e-07	0	41	0	1095761920	63	5675
2026-01-05 23:14:21.13	170.38	14.13	-46.3	-50.2	14.2	1.50e-06	0	41	0	1097859072	63	5875
2026-01-05 23:14:21.99	170.44	14.05	-46.3	-50.2	14.2	7.00e-07	0	41	0	1098907648	63	5884
2026-01-05 23:14:23.14	170.53	13.94	-46.4	-50.2	14.2	1.50e-06	0	41	0	1101004800	63	5861
2026-01-05 23:14:24.01	170.59	13.85	-46.4	-50.2	14.2	0.00e+00	0	41	0	1103101952	63	5872
2026-01-05 23:14:25.16	170.68	13.75	-46.4	-50.1	14.2	0.00e+00	0	41	0	1105199104	63	5841
2026-01-05 23:14:26.02	170.74	13.66	-46.5	-50.2	14.1	0.00e+00	0	41	0	1107296256	63	5921
2026-01-05 23:14:27.16	170.82	13.56	-46.4	-50.1	14.2	1.50e-06	0	41	0	1109393408	63	5847
2026-01-05 23:14:28.02	170.89	13.47	-46.4	-50.1	14.2	2.20e-06	0	41	0	1110441984	63	5811
2026-01-05 23:14:29.17	170.97	13.37	-46.2	-49.9	14.5	2.20e-06	0	41	0	1112539136	63	5667
2026-01-05 23:14:30.03	171.03	13.29	-45.9	-49.4	14.9	7.00e-07	0	41	0	1114636288	63	5377
2026-01-05 23:14:31.17	171.11	13.18	-45.8	-49.3	15.1	7.00e-07	0	41	0	1116733440	63	5286
2026-01-05 23:14:32.04	171.17	13.10	-45.6	-49.0	15.3	0.00e+00	0	41	0	1117782016	63	5104
2026-01-05 23:14:33.18	171.25	12.99	-45.5	-48.9	15.4	0.00e+00	0	41	0	1119879168	63	5097
2026-01-05 23:14:34.04	171.31	12.91	-45.5	-49.0	15.3	0.00e+00	0	41	0	1121976320	62	5425
2026-01-05 23:14:35.19	171.39	12.81	-45.4	-48.8	15.4	0.00e+00	0	41	0	1124073472	62	5323
2026-01-05 23:14:36.04	171.45	12.73	-45.3	-48.7	15.5	0.00e+00	0	41	0	1126170624	62	5272
2026-01-05 23:14:37.19	171.53	12.62	-45.0	-48.4	15.9	6.19e-04	0	41	0	1128267776	62	5051
2026-01-05 23:14:38.05	171.59	12.55	-44.8	-47.9	16.3	0.00e+00	0	41	0	1129316352	61	5100
2026-01-05 23:14:39.20	171.67	12.44	-44.6	-47.8	16.4	0.00e+00	0	41	0	1131413504	61	5008
2026-01-05 23:14:40.06	171.73	12.36	-44.7	-47.9	16.3	0.00e+00	0	41	0	1133510656	61	5059
2026-01-05 23:14:41.20	171.80	12.26	-44.6	-47.9	16.3	0.00e+00	0	41	0	1135607808	61	5047
2026-01-05 23:14:42.06	171.86	12.18	-44.7	-47.9	16.3	0.00e+00	0	41	0	1136656384	61	5094
2026-01-05 23:14:43.21	171.94	12.08	-44.6	-48.0	16.2	0.00e+00	0	41	0	1138753536	61	5129
2026-01-05 23:14:44.07	171.99	12.00	-44.5	-47.9	16.3	0.00e+00	0	41	0	1140850688	61	5079
2026-01-05 23:14:45.21	172.07	11.90	-44.5	-47.9	16.3	7.00e-07	0	41	0	1142947840	61	5079
2026-01-05 23:14:46.07	172.12	11.83	-44.3	-47.8	16.4	0.00e+00	0	41	0	1143996416	60	5287
2026-01-05 23:14:47.22	172.20	11.72	-44.2	-47.7	16.5	0.00e+00	0	41	0	1146093568	60	5250
2026-01-05 23:14:48.08	172.25	11.65	-44.3	-47.9	16.3	0.00e+00	0	41	0	1148190720	60	5364
2026-01-05 23:14:49.22	172.33	11.55	-44.4	-48.2	16.0	0.00e+00	0	41	0	1150287872	60	5533
2026-01-05 23:14:50.08	172.38	11.47	-44.4	-48.1	16.1	0.00e+00	0	41	0	1152385024	60	5506
2026-01-05 23:14:51.23	172.45	11.37	-44.5	-48.4	15.8	0.00e+00	0	41	0	1154482176	60	5669
2026-01-05 23:14:52.09	172.51	11.30	-44.5	-48.3	15.8	0.00e+00	0	41	0	1155530752	60	5615
2026-01-05 23:14:53.24	172.58	11.20	-44.6	-48.5	15.7	0.00e+00	0	41	0	1157627904	60	5755
2026-01-05 23:14:54.16	172.64	11.12	-44.6	-48.5	15.7	0.00e+00	0	41	0	1159725056	60	5742
2026-01-05 23:14:55.16	172.70	11.03	-44.7	-48.6	15.6	0.00e+00	0	41	0	1161822208	60	5792
2026-01-05 23:14:56.17	172.76	10.94	-44.8	-48.6	15.6	0.00e+00	0	41	0	1162870784	60	5803
2026-01-05 23:14:57.17	172.82	10.86	-44.8	-48.5	15.6	0.00e+00	0	41	0	1164967936	60	5773
2026-01-05 23:14:58.17	172.88	10.77	-44.8	-48.7	15.4	0.00e+00	0	41	0	1167065088	60	5915
2026-01-05 23:14:59.18	172.94	10.69	-44.9	-48.9	15.3	0.00e+00	0	41	0	1169162240	60	6039
2026-01-05 23:15:00.18	173.00	10.60	-44.9	-48.8	15.3	0.00e+00	0	41	0	1171259392	60	5983
2026-01-05 23:15:01.19	173.06	10.52	-45.0	-49.1	15.1	0.00e+00	0	41	0	1172307968	60	6158
2026-01-05 23:15:02.19	173.12	10.43	-44.9	-49.0	15.2	0.00e+00	0	41	0	1174405120	60	6071
2026-01-05 23:15:03.20	173.18	10.35	-44.8	-48.9	15.3	0.00e+00	0	41	0	1176502272	60	6001
2026-01-05 23:15:04.20	173.24	10.26	-44.8	-48.9	15.3	0.00e+00	0	41	0	1178599424	60	6015
2026-01-05 23:15:05.21	173.30	10.18	-44.8	-48.9	15.2	0.00e+00	0	41	0	1180696576	60	6060
2026-01-05 23:15:06.21	173.36	10.10	-44.8	-49.0	15.1	0.00e+00	0	41	0	1181745152	60	6086
2026-01-05 23:15:07.21	173.42	10.01	-44.9	-49.1	15.1	0.00e+00	0	41	0	1183842304	60	6146
2026-01-05 23:15:08.22	173.48	9.93	-44.9	-49.1	15.0	0.00e+00	0	41	0	1185939456	60	6165
2026-01-05 23:15:09.22	173.53	9.85	-44.9	-49.1	15.0	0.00e+00	0	41	0	1188036608	60	6167
2026-01-05 23:15:10.22	173.59	9.77	-44.9	-49.1	15.0	0.00e+00	0	41	0	1190133760	60	6189
2026-01-05 23:15:11.23	173.65	9.68	-45.1	-49.3	14.9	0.00e+00	0	41	0	1191182336	60	6279
2026-01-05 23:15:12.23	173.70	9.60	-45.0	-49.2	15.0	0.00e+00	0	41	0	1193279488	60	6229
2026-01-05 23:15:13.23	173.76	9.52	-45.0	-49.2	14.9	0.00e+00	0	41	0	1195376640	60	6262
2026-01-05 23:15:14.24	173.82	9.44	-45.0	-49.2	14.9	0.00e+00	0	41	0	1197473792	60	6211
2026-01-05 23:15:15.24	173.87	9.36	-45.0	-49.3	14.8	0.00e+00	0	41	0	1199570944	60	6291
2026-01-05 23:15:16.24	173.93	9.28	-44.7	-49.0	15.1	0.00e+00	0	41	0	1200619520	60	6064
2026-01-05 23:15:17.24	173.98	9.19	-44.7	-49.1	15.0	0.00e+00	0	41	0	1202716672	60	6140
