passes_logs/2026/01/05/T1/T1__20260105_053048_FENGYUN_3E_rec.log

#Pass ID: 20260105_053048_FENGYUN 3E
#Satellite: FENGYUN 3E
#Configuration: FENGYUN 3E
#almurnet v.1.7.20251203
#Start time: 2026-01-05 05:30:50

#Version: 2.0.20230620
#Station: T1
#Location: 37.570604 lon 55.790049 lat
#TLE: 1 49008U 21062A   26004.29457719  .00000106  00000+0  70678-4 0  9996
#TLE: 2 49008  98.7471   9.5487 0001503 159.9821 200.1414 14.19883545233329

#Time	Az	El	Level	Level2	SNR	BER	BlckErr	Temp	State	Recorded	gain1	gain2
2026-01-05 05:30:50.18	7.06	5.12	-52.1	-63.9	3.8	8.48e-01	0	40	0	0	73	15039
2026-01-05 05:30:51.17	6.99	5.18	-52.3	-64.0	3.8	8.46e-01	0	40	104	0	75	13435
2026-01-05 05:30:52.18	6.91	5.25	-52.3	-64.0	3.8	8.47e-01	0	40	104	0	75	13544
2026-01-05 05:30:53.18	6.84	5.31	-52.3	-64.0	3.8	8.47e-01	0	40	104	0	75	13440
2026-01-05 05:30:54.19	6.76	5.37	-52.3	-64.1	3.8	8.46e-01	0	40	104	0	75	13624
2026-01-05 05:30:55.19	6.69	5.43	-52.3	-64.0	3.8	8.47e-01	0	40	104	0	75	13433
2026-01-05 05:30:56.20	6.61	5.50	-52.3	-64.0	3.8	8.46e-01	0	40	104	0	75	13549
2026-01-05 05:30:57.20	6.53	5.56	-52.3	-64.0	3.8	8.46e-01	0	40	104	0	75	13493
2026-01-05 05:30:58.20	6.45	5.62	-52.3	-64.0	3.8	8.46e-01	0	40	104	0	75	13488
2026-01-05 05:30:59.21	6.38	5.69	-52.3	-64.0	3.8	8.48e-01	0	40	104	0	75	13546
2026-01-05 05:31:00.21	6.30	5.75	-52.3	-64.0	3.8	8.47e-01	0	40	104	0	75	13516
2026-01-05 05:31:01.22	6.22	5.81	-52.1	-63.9	3.8	8.47e-01	0	40	104	0	74	14054
2026-01-05 05:31:02.22	6.14	5.88	-52.0	-63.7	3.8	8.45e-01	0	40	104	0	74	13734
2026-01-05 05:31:03.23	6.06	5.94	-51.9	-63.6	3.8	8.47e-01	0	40	104	0	74	13589
2026-01-05 05:31:04.23	5.98	6.00	-51.8	-63.5	3.8	8.47e-01	0	40	104	0	74	13564
2026-01-05 05:31:05.23	5.90	6.07	-51.8	-63.5	3.8	8.48e-01	0	40	104	0	74	13568
2026-01-05 05:31:06.24	5.82	6.13	-51.8	-63.4	3.8	8.47e-01	0	40	104	0	74	13352
2026-01-05 05:31:07.24	5.74	6.20	-51.8	-63.5	3.8	8.47e-01	0	40	104	0	74	13420
2026-01-05 05:31:08.25	5.66	6.26	-51.8	-63.4	3.8	8.47e-01	0	40	104	0	74	13290
2026-01-05 05:31:09.25	5.58	6.32	-51.8	-63.4	3.8	8.47e-01	0	40	104	0	74	13381
2026-01-05 05:31:10.25	5.50	6.39	-51.8	-63.4	3.8	8.47e-01	0	40	104	0	74	13372
2026-01-05 05:31:11.26	5.41	6.45	-51.8	-63.5	3.8	8.48e-01	0	40	104	0	74	13473
2026-01-05 05:31:12.26	5.33	6.52	-51.8	-63.5	3.8	8.47e-01	0	40	104	0	74	13425
2026-01-05 05:31:13.27	5.25	6.58	-51.8	-63.4	3.8	8.47e-01	0	41	104	0	74	13398
2026-01-05 05:31:14.27	5.16	6.65	-51.8	-63.5	3.8	8.46e-01	0	41	104	0	74	13441
2026-01-05 05:31:15.27	5.08	6.71	-51.8	-63.3	3.8	8.46e-01	0	41	104	0	74	13229
2026-01-05 05:31:16.28	5.00	6.78	-51.8	-63.2	3.8	8.46e-01	0	41	104	0	74	13098
2026-01-05 05:31:17.28	4.91	6.84	-51.8	-63.1	3.8	8.47e-01	0	41	104	0	74	12952
2026-01-05 05:31:18.29	4.83	6.91	-51.8	-63.1	3.8	8.47e-01	0	41	104	0	74	12953
2026-01-05 05:31:19.29	4.74	6.97	-51.8	-63.1	3.8	8.48e-01	0	41	104	0	74	12882
2026-01-05 05:31:20.29	4.66	7.04	-51.8	-63.2	3.8	8.47e-01	0	41	104	0	74	13014
2026-01-05 05:31:21.30	4.57	7.10	-51.8	-63.2	3.8	8.47e-01	0	41	104	0	74	13069
2026-01-05 05:31:22.30	4.48	7.17	-51.8	-63.2	3.8	8.48e-01	0	41	104	0	74	13089
2026-01-05 05:31:23.31	4.40	7.24	-51.8	-63.3	3.8	8.46e-01	0	41	104	0	74	13229
2026-01-05 05:31:24.31	4.31	7.30	-51.7	-63.2	3.8	8.47e-01	0	41	104	0	74	13031
2026-01-05 05:31:25.31	4.22	7.37	-51.7	-63.0	3.8	8.46e-01	0	41	104	0	74	12775
2026-01-05 05:31:26.32	4.13	7.43	-51.7	-62.7	3.8	8.47e-01	0	41	104	0	74	12309
2026-01-05 05:31:27.32	4.04	7.50	-51.7	-62.3	3.8	8.46e-01	0	41	104	0	74	11706
2026-01-05 05:31:28.33	3.95	7.57	-51.6	-61.7	3.8	8.47e-01	0	41	104	0	74	10924
2026-01-05 05:31:29.33	3.86	7.63	-51.5	-61.1	4.0	8.45e-01	0	41	104	0	73	10836
2026-01-05 05:31:30.33	3.77	7.70	-51.4	-60.5	4.1	8.44e-01	0	41	104	0	73	10090
2026-01-05 05:31:31.34	3.68	7.77	-51.4	-60.2	4.2	8.39e-01	0	41	0	0	73	9767
2026-01-05 05:31:32.34	3.59	7.83	-51.4	-60.2	4.2	8.38e-01	0	41	0	0	73	9818
2026-01-05 05:31:33.34	3.50	7.90	-51.4	-60.6	4.1	8.39e-01	0	41	0	0	73	10187
2026-01-05 05:31:34.35	3.41	7.97	-51.5	-61.3	3.8	8.46e-01	0	41	104	0	73	11111
2026-01-05 05:31:35.35	3.32	8.03	-51.6	-62.2	3.8	8.46e-01	0	41	104	0	73	12249
2026-01-05 05:31:36.35	3.23	8.10	-51.7	-62.9	3.8	8.47e-01	0	41	104	0	73	13313
2026-01-05 05:31:37.36	3.13	8.17	-51.7	-63.0	3.8	8.47e-01	0	41	104	0	73	13529
2026-01-05 05:31:38.36	3.04	8.23	-51.7	-62.3	3.8	8.46e-01	0	41	104	0	73	12457
2026-01-05 05:31:39.37	2.94	8.30	-51.5	-60.7	3.9	8.43e-01	0	41	104	0	73	10389
2026-01-05 05:31:40.37	2.85	8.37	-51.1	-58.7	4.7	8.23e-01	0	41	0	0	73	8251
2026-01-05 05:31:41.37	2.76	8.44	-50.7	-56.8	5.8	5.71e-01	0	41	0	0	72	7022
2026-01-05 05:31:42.38	2.66	8.50	-50.1	-55.0	7.4	1.57e-01	0	41	0	7340032	71	6042
2026-01-05 05:31:43.38	2.57	8.57	-49.5	-53.4	9.0	3.47e-02	0	41	0	14680064	69	5621
2026-01-05 05:31:44.38	2.47	8.64	-48.8	-52.0	10.4	7.02e-03	0	41	0	22020096	68	5095
2026-01-05 05:31:45.39	2.37	8.71	-48.1	-51.0	11.4	1.60e-03	0	41	0	29360128	66	5064
2026-01-05 05:31:46.39	2.28	8.78	-47.5	-50.1	12.3	2.52e-04	0	41	0	36700160	65	4828
2026-01-05 05:31:47.40	2.18	8.84	-47.2	-49.5	12.9	6.98e-05	0	41	0	44040192	65	4545
2026-01-05 05:31:48.40	2.08	8.91	-47.0	-49.3	13.1	2.86e-05	0	41	0	51380224	64	4705
2026-01-05 05:31:49.40	1.98	8.98	-47.3	-49.7	12.7	1.14e-04	0	41	0	58720256	64	4879
2026-01-05 05:31:50.41	1.88	9.05	-48.1	-51.0	11.4	1.54e-04	0	41	0	65011712	65	5385
2026-01-05 05:31:51.53	1.77	9.13	-50.4	-56.5	6.1	6.13e-02	0	41	0	73400320	70	7613
2026-01-05 05:31:52.39	1.68	9.19	-49.0	-53.4	8.7	7.58e-01	0	41	0	75497472	69	5631
2026-01-05 05:31:53.54	1.57	9.26	-42.9	-44.2	18.0	0.00e+00	0	41	0	83886080	56	4131
2026-01-05 05:31:54.40	1.48	9.32	-42.8	-44.1	18.2	0.00e+00	0	41	0	90177536	56	4075
2026-01-05 05:31:55.54	1.37	9.40	-43.8	-45.3	16.9	0.00e+00	0	41	0	98566144	58	4181
2026-01-05 05:31:56.40	1.28	9.46	-42.9	-44.3	18.0	0.00e+00	0	42	0	104857600	56	4170
2026-01-05 05:31:57.55	1.16	9.54	-42.6	-44.0	18.3	0.00e+00	0	41	0	113246208	56	4009
2026-01-05 05:31:58.40	1.08	9.60	-42.4	-43.7	18.4	0.00e+00	0	41	0	119537664	55	4145
2026-01-05 05:31:59.55	0.96	9.68	-42.2	-43.5	18.6	0.00e+00	0	41	0	127926272	55	4028
2026-01-05 05:32:00.41	0.87	9.74	-42.4	-43.7	18.4	0.00e+00	0	41	0	133169152	54	4368
2026-01-05 05:32:01.55	0.75	9.82	-42.2	-43.5	18.6	0.00e+00	0	41	0	141557760	54	4275
2026-01-05 05:32:02.41	0.66	9.88	-42.4	-43.6	18.5	0.00e+00	0	41	0	147849216	54	4333
2026-01-05 05:32:03.56	0.54	9.96	-42.3	-43.5	18.6	0.00e+00	0	42	0	156237824	54	4277
2026-01-05 05:32:04.42	0.45	10.02	-42.1	-43.3	18.8	0.00e+00	0	42	0	162529280	54	4177
2026-01-05 05:32:05.64	0.32	10.10	-42.2	-43.3	18.8	0.00e+00	0	41	0	171966464	54	4192
2026-01-05 05:32:06.92	0.18	10.19	-42.1	-43.2	18.9	0.00e+00	0	42	0	180355072	54	4144
2026-01-05 05:32:07.63	0.10	10.24	-42.1	-43.3	18.8	0.00e+00	0	42	0	185597952	54	4172
2026-01-05 05:32:08.92	359.96	10.33	-42.1	-43.2	19.0	0.00e+00	0	42	0	195035136	54	4118
2026-01-05 05:32:09.64	359.89	10.38	-42.1	-43.3	18.9	0.00e+00	0	42	0	200278016	54	4150
2026-01-05 05:32:10.93	359.75	10.47	-42.2	-43.4	18.8	0.00e+00	0	42	0	209715200	54	4201
2026-01-05 05:32:11.64	359.67	10.52	-42.2	-43.3	18.9	0.00e+00	0	42	0	214958080	54	4169
2026-01-05 05:32:13.09	359.51	10.63	-42.1	-43.3	18.9	0.00e+00	0	42	0	225443840	54	4147
2026-01-05 05:32:13.81	359.43	10.68	-42.2	-43.3	18.9	0.00e+00	0	42	0	230686720	54	4172
2026-01-05 05:32:15.17	359.28	10.77	-42.1	-43.3	19.0	0.00e+00	0	42	0	240123904	54	4148
2026-01-05 05:32:15.89	359.20	10.82	-42.2	-43.4	18.8	0.00e+00	0	42	0	245366784	54	4215
2026-01-05 05:32:17.26	359.04	10.92	-42.2	-43.4	18.8	0.00e+00	0	42	0	254803968	54	4213
2026-01-05 05:32:17.98	358.96	10.97	-42.2	-43.4	18.8	0.00e+00	0	42	0	260046848	54	4223
2026-01-05 05:32:19.27	358.81	11.06	-42.3	-43.6	18.6	0.00e+00	0	42	0	269484032	54	4293
2026-01-05 05:32:19.98	358.73	11.12	-42.3	-43.5	18.7	0.00e+00	0	42	0	274726912	54	4248
2026-01-05 05:32:21.27	358.58	11.21	-42.2	-43.4	18.8	0.00e+00	0	42	0	284164096	54	4209
2026-01-05 05:32:21.99	358.50	11.26	-42.3	-43.5	18.8	0.00e+00	0	42	0	289406976	54	4243
2026-01-05 05:32:23.28	358.35	11.35	-42.1	-43.3	18.9	0.00e+00	0	42	0	298844160	54	4189
2026-01-05 05:32:23.99	358.27	11.40	-42.2	-43.3	18.9	0.00e+00	0	42	0	304087040	54	4187
2026-01-05 05:32:25.29	358.12	11.50	-42.2	-43.4	18.9	0.00e+00	0	42	0	313524224	54	4195
2026-01-05 05:32:26.00	358.03	11.55	-42.3	-43.5	18.8	0.00e+00	0	42	0	318767104	54	4253
2026-01-05 05:32:27.28	357.88	11.64	-42.1	-43.3	19.0	0.00e+00	0	42	0	328204288	54	4188
2026-01-05 05:32:28.18	357.77	11.70	-42.0	-43.2	19.1	0.00e+00	0	42	0	334495744	54	4102
2026-01-05 05:32:29.18	357.65	11.78	-42.0	-43.1	19.1	0.00e+00	0	42	0	341835776	54	4094
2026-01-05 05:32:30.19	357.53	11.85	-41.9	-43.1	19.2	0.00e+00	0	42	0	349175808	54	4076
2026-01-05 05:32:31.19	357.41	11.92	-41.9	-43.0	19.2	0.00e+00	0	42	0	356515840	54	4044
2026-01-05 05:32:32.19	357.29	11.99	-41.8	-43.0	19.3	0.00e+00	0	42	0	362807296	54	4014
2026-01-05 05:32:33.20	357.17	12.07	-41.8	-43.0	19.3	0.00e+00	0	42	0	370147328	54	4030
2026-01-05 05:32:34.20	357.04	12.14	-41.9	-43.1	19.2	0.00e+00	0	42	0	377487360	54	4057
2026-01-05 05:32:35.21	356.92	12.21	-41.8	-43.0	19.3	0.00e+00	0	42	0	384827392	54	4016
2026-01-05 05:32:36.27	356.79	12.29	-41.6	-42.7	19.5	0.00e+00	0	42	0	392167424	54	3901
2026-01-05 05:32:37.17	356.68	12.35	-41.7	-42.9	19.4	0.00e+00	0	42	0	398458880	53	4231
2026-01-05 05:32:38.18	356.55	12.43	-41.7	-42.9	19.4	0.00e+00	0	42	0	406847488	53	4215
2026-01-05 05:32:39.18	356.42	12.50	-41.7	-42.9	19.5	0.00e+00	0	42	0	414187520	53	4199
2026-01-05 05:32:40.18	356.30	12.57	-41.8	-43.0	19.3	0.00e+00	0	42	0	420478976	53	4257
2026-01-05 05:32:41.19	356.17	12.65	-41.7	-42.9	19.4	0.00e+00	0	42	0	427819008	53	4235
2026-01-05 05:32:42.52	356.00	12.75	-41.7	-42.9	19.4	0.00e+00	0	42	0	437256192	53	4241
2026-01-05 05:32:43.27	355.90	12.80	-41.7	-42.9	19.5	0.00e+00	0	42	0	442499072	53	4198
2026-01-05 05:32:44.56	355.74	12.89	-41.8	-43.0	19.4	0.00e+00	0	42	0	451936256	53	4255
2026-01-05 05:32:45.28	355.64	12.95	-41.7	-42.9	19.5	0.00e+00	0	42	0	457179136	53	4203
2026-01-05 05:32:46.57	355.47	13.04	-41.8	-43.0	19.4	0.00e+00	0	42	0	466616320	53	4252
2026-01-05 05:32:47.28	355.38	13.09	-41.7	-42.8	19.6	0.00e+00	0	42	0	471859200	53	4158
2026-01-05 05:32:48.57	355.21	13.19	-41.8	-42.9	19.4	0.00e+00	0	42	0	481296384	53	4237
2026-01-05 05:32:49.29	355.11	13.24	-41.7	-42.8	19.5	0.00e+00	0	42	0	486539264	53	4174
2026-01-05 05:32:50.58	354.94	13.34	-41.7	-42.8	19.6	0.00e+00	0	42	0	495976448	53	4164
2026-01-05 05:32:51.29	354.85	13.39	-41.7	-42.7	19.6	0.00e+00	0	42	0	501219328	53	4141
2026-01-05 05:32:52.58	354.67	13.49	-41.8	-42.8	19.5	0.00e+00	0	42	0	510656512	53	4176
2026-01-05 05:32:53.30	354.58	13.54	-41.7	-42.8	19.6	0.00e+00	0	42	0	515899392	53	4152
2026-01-05 05:32:54.76	354.38	13.65	-41.8	-42.8	19.6	0.00e+00	0	42	0	526385152	53	4190
2026-01-05 05:32:55.48	354.28	13.70	-41.7	-42.7	19.6	0.00e+00	0	42	0	531628032	53	4141
2026-01-05 05:32:56.77	354.10	13.80	-41.8	-42.8	19.6	0.00e+00	0	42	0	540016640	53	4167
2026-01-05 05:32:57.49	354.00	13.85	-41.8	-42.8	19.6	0.00e+00	0	42	0	546308096	53	4191
2026-01-05 05:32:58.78	353.82	13.95	-41.9	-42.9	19.5	0.00e+00	0	42	0	555745280	53	4225
2026-01-05 05:32:59.49	353.72	14.00	-41.7	-42.7	19.7	0.00e+00	0	42	0	559939584	53	4126
2026-01-05 05:33:00.78	353.54	14.09	-41.8	-42.8	19.7	0.00e+00	0	42	0	569376768	53	4152
2026-01-05 05:33:01.50	353.44	14.15	-41.7	-42.7	19.7	0.00e+00	0	42	0	574619648	53	4120
2026-01-05 05:33:02.78	353.26	14.24	-41.6	-42.6	19.8	0.00e+00	0	42	0	584056832	53	4086
2026-01-05 05:33:03.50	353.15	14.30	-41.7	-42.7	19.7	0.00e+00	0	42	0	589299712	53	4127
2026-01-05 05:33:04.79	352.97	14.39	-41.5	-42.5	19.9	0.00e+00	0	42	0	598736896	53	4049
2026-01-05 05:33:05.67	352.84	14.46	-41.5	-42.5	19.9	0.00e+00	0	42	0	605028352	53	4026
2026-01-05 05:33:06.81	352.68	14.54	-41.4	-42.4	20.1	0.00e+00	0	42	0	613416960	53	3973
2026-01-05 05:33:07.67	352.55	14.61	-41.2	-42.2	20.2	0.00e+00	0	42	0	618659840	53	3910
2026-01-05 05:33:08.82	352.38	14.69	-41.2	-42.2	20.2	0.00e+00	0	42	0	627048448	53	3899
2026-01-05 05:33:09.68	352.26	14.76	-41.2	-42.2	20.2	0.00e+00	0	42	0	634388480	53	3905
2026-01-05 05:33:10.83	352.09	14.85	-41.2	-42.2	20.3	0.00e+00	0	42	0	641728512	53	3887
2026-01-05 05:33:11.69	351.96	14.91	-41.4	-42.4	20.1	0.00e+00	0	42	0	648019968	53	3966
2026-01-05 05:33:12.89	351.78	15.00	-41.2	-42.2	20.3	0.00e+00	0	42	0	657457152	53	3869
2026-01-05 05:33:13.75	351.65	15.06	-41.2	-42.2	20.3	0.00e+00	0	42	0	662700032	52	4130
2026-01-05 05:33:14.93	351.47	15.15	-41.2	-42.2	20.3	0.00e+00	0	42	0	672137216	52	4128
2026-01-05 05:33:15.79	351.34	15.22	-41.3	-42.3	20.2	0.00e+00	0	42	0	678428672	52	4150
2026-01-05 05:33:16.93	351.17	15.30	-41.4	-42.4	20.1	0.00e+00	0	42	0	685768704	52	4207
2026-01-05 05:33:17.79	351.03	15.37	-41.3	-42.3	20.2	0.00e+00	0	42	0	692060160	52	4191
2026-01-05 05:33:18.94	350.86	15.45	-41.4	-42.4	20.2	0.00e+00	0	42	0	700448768	52	4201
2026-01-05 05:33:19.80	350.72	15.52	-41.4	-42.4	20.1	0.00e+00	0	42	0	706740224	52	4209
2026-01-05 05:33:20.94	350.55	15.60	-41.3	-42.3	20.2	0.00e+00	0	42	0	715128832	52	4177
2026-01-05 05:33:21.80	350.41	15.67	-41.3	-42.3	20.2	0.00e+00	0	42	0	721420288	52	4183
2026-01-05 05:33:22.95	350.23	15.76	-41.3	-42.3	20.3	0.00e+00	0	42	0	729808896	52	4157
2026-01-05 05:33:23.81	350.09	15.82	-41.2	-42.2	20.3	0.00e+00	0	42	0	736100352	52	4132
2026-01-05 05:33:24.96	349.91	15.91	-41.2	-42.2	20.3	0.00e+00	0	42	0	744488960	52	4117
2026-01-05 05:33:25.82	349.77	15.97	-41.3	-42.3	20.3	0.00e+00	0	42	0	749731840	52	4152
2026-01-05 05:33:26.96	349.59	16.06	-41.2	-42.2	20.4	0.00e+00	0	42	0	758120448	52	4116
2026-01-05 05:33:27.82	349.45	16.12	-41.2	-42.2	20.3	0.00e+00	0	42	0	764411904	52	4136
2026-01-05 05:33:28.96	349.27	16.21	-41.2	-42.3	20.3	0.00e+00	0	42	0	772800512	52	4147
2026-01-05 05:33:29.82	349.13	16.27	-41.2	-42.2	20.3	0.00e+00	0	42	0	779091968	52	4135
2026-01-05 05:33:30.97	348.94	16.36	-41.2	-42.2	20.3	0.00e+00	0	42	0	787480576	52	4129
2026-01-05 05:33:31.83	348.79	16.42	-41.2	-42.2	20.3	0.00e+00	0	42	0	793772032	52	4126
2026-01-05 05:33:32.98	348.60	16.51	-41.2	-42.2	20.4	0.00e+00	0	42	0	802160640	52	4113
2026-01-05 05:33:33.84	348.46	16.57	-41.1	-42.1	20.4	0.00e+00	0	42	0	808452096	52	4080
2026-01-05 05:33:34.98	348.27	16.66	-41.3	-42.3	20.2	0.00e+00	0	42	0	816840704	52	4182
2026-01-05 05:33:35.84	348.12	16.72	-41.1	-42.1	20.4	0.00e+00	0	42	0	823132160	52	4063
2026-01-05 05:33:36.99	347.93	16.81	-41.1	-42.0	20.5	0.00e+00	0	42	0	831520768	52	4049
2026-01-05 05:33:37.85	347.78	16.88	-41.0	-42.0	20.5	0.00e+00	0	42	0	836763648	52	4015
2026-01-05 05:33:38.99	347.59	16.96	-40.9	-41.9	20.6	0.00e+00	0	42	0	845152256	52	3971
2026-01-05 05:33:39.85	347.44	17.03	-40.7	-41.7	20.7	0.00e+00	0	42	0	851443712	52	3901
2026-01-05 05:33:41.05	347.23	17.12	-40.7	-41.7	20.8	0.00e+00	0	42	0	859832320	52	3894
2026-01-05 05:33:41.91	347.08	17.18	-40.6	-41.7	20.8	0.00e+00	0	42	0	866123776	52	3886
2026-01-05 05:33:43.14	346.87	17.27	-40.6	-41.6	20.8	0.00e+00	0	42	0	875560960	51	4093
2026-01-05 05:33:44.00	346.72	17.34	-40.4	-41.4	21.0	0.00e+00	0	42	0	881852416	51	3996
2026-01-05 05:33:45.14	346.52	17.42	-40.5	-41.6	20.9	0.00e+00	0	42	0	890241024	51	4055
2026-01-05 05:33:46.00	346.36	17.49	-40.5	-41.5	21.0	0.00e+00	0	42	0	895483904	51	4026
2026-01-05 05:33:47.14	346.16	17.57	-40.6	-41.5	20.9	0.00e+00	0	42	0	903872512	51	4043
2026-01-05 05:33:48.00	346.01	17.64	-40.5	-41.4	21.0	0.00e+00	0	42	0	910163968	51	3994
2026-01-05 05:33:49.15	345.80	17.72	-40.5	-41.4	21.0	0.00e+00	0	42	0	918552576	51	3992
2026-01-05 05:33:50.15	345.62	17.80	-40.5	-41.4	21.0	0.00e+00	0	42	0	925892608	51	4004
2026-01-05 05:33:51.15	345.44	17.87	-40.5	-41.5	21.0	0.00e+00	0	42	0	933232640	51	4007
2026-01-05 05:33:52.15	345.25	17.94	-40.5	-41.4	21.0	0.00e+00	0	42	0	940572672	51	3980
2026-01-05 05:33:53.16	345.07	18.02	-40.6	-41.5	20.9	0.00e+00	0	42	0	947912704	51	4019
2026-01-05 05:33:54.45	344.83	18.12	-40.5	-41.5	21.0	0.00e+00	0	42	0	957349888	51	4011
2026-01-05 05:33:55.20	344.69	18.17	-40.6	-41.6	20.8	0.00e+00	0	42	0	962592768	51	4058
2026-01-05 05:33:56.49	344.45	18.27	-40.6	-41.5	20.9	0.00e+00	0	42	0	972029952	51	4045
2026-01-05 05:33:57.20	344.32	18.32	-40.5	-41.5	20.9	0.00e+00	0	42	0	977272832	51	4027
2026-01-05 05:33:58.49	344.07	18.41	-40.6	-41.6	20.9	0.00e+00	0	42	0	986710016	51	4054
2026-01-05 05:33:59.21	343.94	18.47	-40.6	-41.5	20.9	0.00e+00	0	42	0	990904320	51	4026
2026-01-05 05:34:00.50	343.69	18.56	-40.8	-41.7	20.8	0.00e+00	0	43	0	1000341504	51	4120
2026-01-05 05:34:01.22	343.55	18.61	-40.7	-41.6	20.8	0.00e+00	0	42	0	1005584384	51	4088
2026-01-05 05:34:02.51	343.31	18.71	-40.6	-41.5	20.9	0.00e+00	0	42	0	1015021568	51	4024
2026-01-05 05:34:03.22	343.17	18.76	-40.6	-41.6	20.9	0.00e+00	0	42	0	1020264448	51	4054
2026-01-05 05:34:04.67	342.89	18.87	-40.7	-41.6	20.8	0.00e+00	0	42	0	1030750208	51	4094
2026-01-05 05:34:05.38	342.75	18.92	-40.6	-41.5	20.9	0.00e+00	0	42	0	1035993088	51	4050
2026-01-05 05:34:06.74	342.48	19.02	-40.4	-41.3	21.1	0.00e+00	0	42	0	1045430272	51	3941
2026-01-05 05:34:07.46	342.34	19.07	-40.3	-41.3	21.2	0.00e+00	0	42	0	1050673152	51	3920
2026-01-05 05:34:08.74	342.08	19.16	-40.2	-41.1	21.3	0.00e+00	0	42	0	1060110336	51	3857
2026-01-05 05:34:09.46	341.94	19.22	-40.2	-41.2	21.2	0.00e+00	0	42	0	1065353216	51	3869
2026-01-05 05:34:10.75	341.68	19.31	-40.4	-41.3	21.2	0.00e+00	0	42	0	1074790400	51	3916
2026-01-05 05:34:11.47	341.54	19.36	-40.4	-41.3	21.2	0.00e+00	0	42	0	1080033280	51	3926
2026-01-05 05:34:12.75	341.28	19.45	-40.4	-41.3	21.1	0.00e+00	0	42	0	1089470464	51	3935
2026-01-05 05:34:13.47	341.13	19.50	-40.4	-41.3	21.1	0.00e+00	0	42	0	1093664768	51	3943
2026-01-05 05:34:14.76	340.87	19.60	-40.6	-41.5	20.9	0.00e+00	0	42	0	1103101952	51	4046
2026-01-05 05:34:15.47	340.72	19.65	-40.6	-41.5	20.9	0.00e+00	0	42	0	1108344832	51	4036
2026-01-05 05:34:16.76	340.46	19.74	-40.5	-41.4	21.0	0.00e+00	0	42	0	1117782016	51	3998
2026-01-05 05:34:17.58	340.29	19.80	-40.6	-41.5	20.9	0.00e+00	0	42	0	1124073472	51	4034
2026-01-05 05:34:18.72	340.05	19.88	-40.6	-41.6	20.9	0.00e+00	0	42	0	1132462080	51	4064
2026-01-05 05:34:19.58	339.87	19.94	-40.6	-41.5	20.9	0.00e+00	0	42	0	1138753536	51	4027
2026-01-05 05:34:20.73	339.63	20.02	-40.6	-41.6	20.9	0.00e+00	0	42	0	1147142144	51	4056
2026-01-05 05:34:21.59	339.45	20.08	-40.5	-41.5	21.0	0.00e+00	0	42	0	1153433600	51	4012
2026-01-05 05:34:22.73	339.21	20.16	-40.4	-41.3	21.1	0.00e+00	0	42	0	1160773632	51	3955
2026-01-05 05:34:23.59	339.02	20.22	-40.3	-41.2	21.2	0.00e+00	0	42	0	1167065088	51	3896
2026-01-05 05:34:24.74	338.78	20.30	-40.2	-41.1	21.2	0.00e+00	0	42	0	1175453696	51	3859
2026-01-05 05:34:25.60	338.59	20.36	-40.2	-41.1	21.3	0.00e+00	0	42	0	1181745152	51	3833
2026-01-05 05:34:26.74	338.35	20.44	-40.1	-41.1	21.3	0.00e+00	0	42	0	1190133760	51	3833
2026-01-05 05:34:27.60	338.16	20.50	-40.1	-41.1	21.2	0.00e+00	0	42	0	1196425216	50	4072
2026-01-05 05:34:28.93	337.87	20.59	-40.2	-41.1	21.2	0.00e+00	0	42	0	1205862400	50	4094
2026-01-05 05:34:29.64	337.71	20.64	-40.0	-41.0	21.4	0.00e+00	0	42	0	1211105280	50	4035
2026-01-05 05:34:30.93	337.43	20.73	-40.0	-41.0	21.3	0.00e+00	0	42	0	1220542464	50	4027
2026-01-05 05:34:31.64	337.27	20.77	-40.1	-41.1	21.2	0.00e+00	0	42	0	1225785344	50	4069
2026-01-05 05:34:32.93	336.99	20.86	-40.1	-41.0	21.3	0.00e+00	0	42	0	1235222528	50	4033
2026-01-05 05:34:33.66	336.82	20.91	-40.1	-41.0	21.3	0.00e+00	0	42	0	1239416832	50	4049
2026-01-05 05:34:35.27	336.46	21.02	-40.2	-41.1	21.2	0.00e+00	0	42	0	1251999744	50	4080
2026-01-05 05:34:35.84	336.34	21.06	-40.2	-41.1	21.2	0.00e+00	0	42	0	1256194048	50	4094
2026-01-05 05:34:37.43	335.98	21.16	-40.1	-41.0	21.3	0.00e+00	0	42	0	1267728384	50	4036
2026-01-05 05:34:38.01	335.84	21.20	-40.1	-41.1	21.2	0.00e+00	0	42	0	1270874112	50	4054
2026-01-05 05:34:39.61	335.48	21.30	-40.1	-41.0	21.3	0.00e+00	0	42	0	1282408448	50	4040
2026-01-05 05:34:40.20	335.34	21.34	-40.2	-41.2	21.1	0.00e+00	0	42	0	1287651328	50	4105
2026-01-05 05:34:41.83	334.97	21.45	-40.0	-41.0	21.3	0.00e+00	0	42	0	1299185664	50	4016
2026-01-05 05:34:42.40	334.84	21.48	-40.1	-41.0	21.3	0.00e+00	0	42	0	1303379968	50	4031
2026-01-05 05:34:43.98	334.47	21.59	-39.9	-40.8	21.4	0.00e+00	0	42	0	1313865728	50	3934
2026-01-05 05:34:44.58	334.33	21.62	-39.9	-40.8	21.4	0.00e+00	0	42	0	1319108608	50	3947
2026-01-05 05:34:46.16	333.96	21.72	-39.8	-40.7	21.5	0.00e+00	0	42	0	1330642944	50	3890
2026-01-05 05:34:47.08	333.74	21.78	-39.7	-40.6	21.6	0.00e+00	0	42	0	1336934400	50	3835
2026-01-05 05:34:48.08	333.50	21.85	-39.7	-40.6	21.7	0.00e+00	0	42	0	1344274432	50	3830
2026-01-05 05:34:49.09	333.26	21.91	-39.5	-40.4	21.7	0.00e+00	0	42	0	1351614464	49	3983
2026-01-05 05:34:50.09	333.02	21.97	-39.4	-40.3	21.9	0.00e+00	0	42	0	1358954496	49	3930
2026-01-05 05:34:51.16	332.77	22.04	-39.3	-40.1	22.0	0.00e+00	0	42	0	1366294528	49	3866
2026-01-05 05:34:52.06	332.55	22.09	-39.4	-40.2	21.9	0.00e+00	0	42	0	1372585984	49	3909
2026-01-05 05:34:53.06	332.31	22.15	-39.5	-40.3	21.8	0.00e+00	0	42	0	1379926016	49	3955
2026-01-05 05:34:54.07	332.06	22.21	-39.4	-40.3	21.9	0.00e+00	0	42	0	1387266048	49	3931
2026-01-05 05:34:55.07	331.82	22.27	-39.4	-40.3	21.9	0.00e+00	0	42	0	1394606080	49	3915
2026-01-05 05:34:56.07	331.57	22.33	-39.5	-40.4	21.8	0.00e+00	0	42	0	1401946112	49	3984
2026-01-05 05:34:57.08	331.33	22.39	-39.6	-40.5	21.7	0.00e+00	0	42	0	1409286144	49	4018
2026-01-05 05:34:58.08	331.08	22.45	-39.7	-40.6	21.6	0.00e+00	0	42	0	1416626176	49	4074
2026-01-05 05:34:59.47	330.73	22.53	-39.8	-40.7	21.6	0.00e+00	0	42	0	1426063360	49	4119
2026-01-05 05:35:00.21	330.55	22.57	-39.9	-40.8	21.4	0.00e+00	0	42	0	1431306240	49	4158
2026-01-05 05:35:01.50	330.23	22.65	-39.9	-40.8	21.4	0.00e+00	0	42	0	1440743424	49	4179
2026-01-05 05:35:02.22	330.05	22.69	-39.9	-40.8	21.4	0.00e+00	0	42	0	1445986304	49	4187
2026-01-05 05:35:03.51	329.72	22.76	-40.0	-40.9	21.3	0.00e+00	0	42	0	1455423488	49	4209
2026-01-05 05:35:04.22	329.54	22.80	-39.9	-40.8	21.4	0.00e+00	0	42	0	1460666368	49	4174
2026-01-05 05:35:05.51	329.22	22.87	-39.8	-40.7	21.5	0.00e+00	0	42	0	1470103552	49	4133
2026-01-05 05:35:06.23	329.03	22.91	-39.8	-40.7	21.5	0.00e+00	0	42	0	1475346432	49	4119
2026-01-05 05:35:07.52	328.71	22.98	-39.7	-40.6	21.6	0.00e+00	0	42	0	1484783616	49	4067
2026-01-05 05:35:08.23	328.52	23.02	-39.7	-40.6	21.6	0.00e+00	0	42	0	1490026496	49	4065
2026-01-05 05:35:09.68	328.15	23.10	-39.5	-40.4	21.8	0.00e+00	0	42	0	1500512256	49	3976
2026-01-05 05:35:10.67	327.89	23.15	-39.5	-40.4	21.8	0.00e+00	0	42	0	1506803712	49	3968
2026-01-05 05:35:11.99	327.55	23.22	-39.6	-40.5	21.7	0.00e+00	0	42	0	1517289472	49	4036
2026-01-05 05:35:12.70	327.37	23.25	-39.6	-40.5	21.7	0.00e+00	0	42	0	1521483776	49	4045
2026-01-05 05:35:13.99	327.03	23.32	-39.6	-40.5	21.6	0.00e+00	0	42	0	1530920960	49	4048
2026-01-05 05:35:14.71	326.84	23.36	-39.6	-40.5	21.7	0.00e+00	0	42	0	1536163840	49	4040
2026-01-05 05:35:16.00	326.50	23.42	-39.7	-40.6	21.6	0.00e+00	0	42	0	1545601024	49	4074
2026-01-05 05:35:16.71	326.32	23.46	-39.6	-40.5	21.7	0.00e+00	0	42	0	1550843904	49	4040
2026-01-05 05:35:18.00	325.98	23.52	-39.5	-40.4	21.8	0.00e+00	0	42	0	1560281088	49	3986
2026-01-05 05:35:18.73	325.78	23.55	-39.3	-40.2	21.9	0.00e+00	0	42	0	1565523968	49	3896
2026-01-05 05:35:20.02	325.44	23.61	-39.4	-40.2	21.9	0.00e+00	0	42	0	1574961152	49	3904
2026-01-05 05:35:20.73	325.25	23.65	-39.3	-40.1	22.0	0.00e+00	0	42	0	1580204032	49	3859
2026-01-05 05:35:22.02	324.90	23.71	-39.2	-40.1	22.0	0.00e+00	0	42	0	1588592640	49	3848
2026-01-05 05:35:22.73	324.71	23.74	-39.3	-40.2	22.0	0.00e+00	0	42	0	1594884096	49	3871
2026-01-05 05:35:24.25	324.30	23.81	-39.2	-40.1	22.0	0.00e+00	0	42	0	1605369856	49	3848
2026-01-05 05:35:24.96	324.11	23.84	-39.2	-40.1	22.0	0.00e+00	0	42	0	1610612736	49	3844
2026-01-05 05:35:26.25	323.76	23.90	-39.2	-40.1	22.0	0.00e+00	0	42	0	1620049920	49	3847
2026-01-05 05:35:26.97	323.57	23.93	-39.4	-40.3	21.8	0.00e+00	0	42	0	1624244224	49	3926
2026-01-05 05:35:28.25	323.22	23.98	-39.3	-40.1	22.0	0.00e+00	0	42	0	1633681408	49	3868
2026-01-05 05:35:28.97	323.02	24.01	-39.4	-40.3	21.9	0.00e+00	0	42	0	1638924288	49	3916
2026-01-05 05:35:30.26	322.67	24.07	-39.4	-40.3	21.8	0.00e+00	0	42	0	1648361472	49	3949
2026-01-05 05:35:30.97	322.47	24.10	-39.5	-40.4	21.7	0.00e+00	0	42	0	1653604352	49	4004
2026-01-05 05:35:32.26	322.12	24.15	-39.4	-40.3	21.8	0.00e+00	0	42	0	1663041536	49	3926
2026-01-05 05:35:32.97	321.92	24.18	-39.5	-40.4	21.7	0.00e+00	0	42	0	1668284416	49	3963
2026-01-05 05:35:34.26	321.57	24.22	-39.4	-40.3	21.8	0.00e+00	0	42	0	1677721600	49	3948
2026-01-05 05:35:34.98	321.37	24.25	-39.5	-40.4	21.7	0.00e+00	0	42	0	1682964480	49	3966
2026-01-05 05:35:36.27	321.01	24.30	-39.6	-40.5	21.7	0.00e+00	0	42	0	1691353088	49	4009
2026-01-05 05:35:37.10	320.78	24.33	-39.5	-40.4	21.7	0.00e+00	0	42	0	1697644544	49	3961
2026-01-05 05:35:38.25	320.45	24.37	-39.4	-40.3	21.7	0.00e+00	0	42	0	1706033152	49	3938
2026-01-05 05:35:39.10	320.22	24.40	-39.4	-40.3	21.8	0.00e+00	0	42	0	1712324608	49	3945
2026-01-05 05:35:40.25	319.89	24.44	-39.5	-40.4	21.7	0.00e+00	0	42	0	1720713216	49	3959
2026-01-05 05:35:41.10	319.65	24.47	-39.4	-40.3	21.8	0.00e+00	0	42	0	1727004672	49	3927
2026-01-05 05:35:42.25	319.33	24.51	-39.3	-40.1	21.9	0.00e+00	0	42	0	1735393280	49	3868
2026-01-05 05:35:43.11	319.09	24.54	-39.4	-40.3	21.8	0.00e+00	0	42	0	1741684736	49	3920
2026-01-05 05:35:44.26	318.76	24.57	-39.3	-40.2	21.9	0.00e+00	0	42	0	1750073344	49	3879
2026-01-05 05:35:45.11	318.52	24.60	-39.3	-40.2	21.9	0.00e+00	0	42	0	1755316224	49	3873
2026-01-05 05:35:46.26	318.19	24.63	-39.4	-40.3	21.8	0.00e+00	0	42	0	1763704832	49	3933
2026-01-05 05:35:47.11	317.95	24.66	-39.2	-40.1	21.9	0.00e+00	0	42	0	1769996288	49	3857
2026-01-05 05:35:48.26	317.62	24.69	-39.3	-40.2	21.8	0.00e+00	0	42	0	1778384896	49	3903
2026-01-05 05:35:49.12	317.38	24.72	-39.3	-40.2	21.9	0.00e+00	0	42	0	1784676352	49	3888
2026-01-05 05:35:50.26	317.05	24.75	-39.4	-40.3	21.8	0.00e+00	0	42	0	1793064960	49	3924
2026-01-05 05:35:51.12	316.80	24.77	-39.4	-40.3	21.8	0.00e+00	0	42	0	1799356416	49	3921
2026-01-05 05:35:52.26	316.47	24.80	-39.3	-40.2	21.9	0.00e+00	0	42	0	1807745024	49	3893
2026-01-05 05:35:53.31	316.17	24.83	-39.2	-40.1	21.9	0.00e+00	0	42	0	1815085056	49	3847
2026-01-05 05:35:54.25	315.90	24.85	-39.2	-40.1	21.9	0.00e+00	0	42	0	1821376512	49	3846
2026-01-05 05:35:55.55	315.52	24.88	-39.3	-40.1	21.9	0.00e+00	0	42	0	1830813696	49	3847
2026-01-05 05:35:56.26	315.32	24.90	-39.2	-40.1	21.9	0.00e+00	0	42	0	1836056576	49	3844
2026-01-05 05:35:57.55	314.94	24.92	-39.2	-40.1	22.0	0.00e+00	0	42	0	1845493760	49	3827
2026-01-05 05:35:58.26	314.74	24.94	-39.2	-40.1	21.9	0.00e+00	0	42	0	1850736640	49	3842
2026-01-05 05:35:59.55	314.36	24.96	-39.3	-40.1	21.9	0.00e+00	0	42	0	1860173824	49	3850
2026-01-05 05:36:00.30	314.15	24.98	-39.3	-40.1	21.9	0.00e+00	0	42	0	1865416704	49	3849
2026-01-05 05:36:01.57	313.78	25.00	-39.3	-40.2	21.9	0.00e+00	0	42	0	1874853888	49	3876
2026-01-05 05:36:02.30	313.56	25.02	-39.2	-40.1	21.9	0.00e+00	0	42	0	1880096768	49	3843
2026-01-05 05:36:03.59	313.19	25.04	-39.2	-40.1	21.9	0.00e+00	0	42	0	1889533952	49	3860
2026-01-05 05:36:04.58	312.90	25.05	-39.2	-40.1	21.9	0.00e+00	0	42	0	1896873984	49	3861
2026-01-05 05:36:05.58	312.60	25.07	-39.1	-40.0	22.0	0.00e+00	0	42	0	1904214016	49	3813
2026-01-05 05:36:06.58	312.31	25.08	-39.1	-40.0	22.0	0.00e+00	0	42	0	1910505472	49	3784
2026-01-05 05:36:07.59	312.01	25.10	-39.0	-39.9	22.1	0.00e+00	0	42	0	1917845504	48	3974
2026-01-05 05:36:09.00	311.60	25.11	-38.9	-39.8	22.2	0.00e+00	0	42	0	1928331264	48	3936
2026-01-05 05:36:09.72	311.39	25.12	-39.0	-39.8	22.2	0.00e+00	0	42	0	1933574144	48	3939
2026-01-05 05:36:11.01	311.01	25.14	-38.9	-39.8	22.2	0.00e+00	0	42	0	1943011328	48	3933
2026-01-05 05:36:11.73	310.80	25.14	-39.0	-39.9	22.1	0.00e+00	0	42	0	1947205632	48	3981
2026-01-05 05:36:13.01	310.42	25.16	-39.0	-39.8	22.2	0.00e+00	0	42	0	1956642816	48	3935
2026-01-05 05:36:13.73	310.21	25.16	-39.0	-39.9	22.1	0.00e+00	0	42	0	1962934272	48	3972
2026-01-05 05:36:15.02	309.83	25.17	-39.0	-39.8	22.2	0.00e+00	0	42	0	1971322880	48	3946
2026-01-05 05:36:15.73	309.62	25.18	-39.0	-39.9	22.1	0.00e+00	0	43	0	1976565760	48	3974
2026-01-05 05:36:17.07	309.22	25.19	-39.0	-39.8	22.1	0.00e+00	0	42	0	1986002944	48	3954
2026-01-05 05:36:17.78	309.01	25.19	-39.1	-40.0	22.0	0.00e+00	0	42	0	1991245824	48	4016
2026-01-05 05:36:19.14	308.61	25.19	-39.2	-40.0	21.9	0.00e+00	0	42	0	2001731584	48	4045
2026-01-05 05:36:19.86	308.40	25.20	-39.2	-40.1	21.9	0.00e+00	0	42	0	2006974464	48	4068
2026-01-05 05:36:21.15	308.02	25.20	-39.3	-40.1	21.9	0.00e+00	0	42	0	2016411648	48	4080
2026-01-05 05:36:22.20	307.71	25.20	-39.3	-40.1	21.9	0.00e+00	0	42	0	2023751680	48	4076
2026-01-05 05:36:23.10	307.44	25.20	-39.2	-40.1	21.9	0.00e+00	0	43	0	2030043136	48	4060
2026-01-05 05:36:24.12	307.14	25.20	-39.2	-40.0	21.9	0.00e+00	0	42	0	2037383168	48	4036
2026-01-05 05:36:25.12	306.85	25.20	-39.1	-40.0	22.0	0.00e+00	0	42	0	2044723200	48	4021
2026-01-05 05:36:26.12	306.55	25.20	-39.2	-40.0	21.9	0.00e+00	0	42	0	2052063232	48	4051
2026-01-05 05:36:27.13	306.25	25.20	-39.1	-40.0	22.0	0.00e+00	0	42	0	2059403264	48	4009
2026-01-05 05:36:28.18	305.94	25.19	-39.2	-40.1	21.9	0.00e+00	0	42	0	2066743296	48	4066
2026-01-05 05:36:29.08	305.68	25.19	-39.2	-40.1	21.9	0.00e+00	0	42	0	2073034752	48	4056
2026-01-05 05:36:30.25	305.33	25.19	-39.2	-40.0	21.9	0.00e+00	0	42	0	2081423360	48	4030
2026-01-05 05:36:31.17	305.06	25.18	-39.1	-39.9	22.0	0.00e+00	0	42	0	2087714816	48	3990
2026-01-05 05:36:32.36	304.71	25.17	-39.2	-40.0	21.9	0.00e+00	0	42	0	2097152000	48	4033
2026-01-05 05:36:33.22	304.45	25.17	-39.0	-39.9	22.0	0.00e+00	0	42	0	2103443456	48	3974
2026-01-05 05:36:34.60	304.05	25.15	-39.0	-39.9	22.1	0.00e+00	0	42	0	2112880640	48	3966
2026-01-05 05:36:35.32	303.83	25.15	-39.1	-39.9	22.0	0.00e+00	0	42	0	2118123520	48	3995
2026-01-05 05:36:36.61	303.45	25.13	-39.1	-39.9	22.0	0.00e+00	0	42	0	2127560704	48	3990
2026-01-05 05:36:37.32	303.25	25.13	-39.1	-40.0	21.9	0.00e+00	0	42	0	2132803584	48	4025
2026-01-05 05:36:38.61	302.87	25.11	-39.1	-40.0	22.0	0.00e+00	0	42	0	2142240768	48	4005
2026-01-05 05:36:39.33	302.65	25.10	-39.1	-39.9	22.0	0.00e+00	0	42	0	2147483648	48	3985
2026-01-05 05:36:40.62	302.28	25.08	-39.1	-40.0	21.9	0.00e+00	0	42	0	2155872256	48	4009
2026-01-05 05:36:41.33	302.07	25.07	-39.1	-40.0	22.0	0.00e+00	0	42	0	2162163712	48	4005
2026-01-05 05:36:42.62	301.69	25.05	-39.1	-40.0	21.9	0.00e+00	0	42	0	2170552320	48	4017
2026-01-05 05:36:43.33	301.48	25.04	-39.2	-40.0	21.9	0.00e+00	0	43	0	2175795200	48	4030
2026-01-05 05:36:44.62	301.10	25.02	-39.2	-40.0	21.9	0.00e+00	0	42	0	2185232384	48	4033
2026-01-05 05:36:45.34	300.89	25.01	-39.1	-39.9	22.0	0.00e+00	0	42	0	2190475264	48	3985
2026-01-05 05:36:46.63	300.52	24.99	-38.9	-39.7	22.1	0.00e+00	0	42	0	2199912448	48	3906
2026-01-05 05:36:47.60	300.23	24.97	-38.9	-39.7	22.2	0.00e+00	0	42	0	2207252480	48	3887
2026-01-05 05:36:48.60	299.94	24.95	-38.8	-39.7	22.2	0.00e+00	0	42	0	2214592512	48	3870
2026-01-05 05:36:49.95	299.55	24.92	-38.9	-39.7	22.2	0.00e+00	0	43	0	2224029696	48	3896
2026-01-05 05:36:50.70	299.33	24.90	-38.9	-39.7	22.1	0.00e+00	0	42	0	2229272576	48	3904
2026-01-05 05:36:51.99	298.96	24.87	-38.9	-39.7	22.2	0.00e+00	0	42	0	2238709760	48	3888
2026-01-05 05:36:52.70	298.75	24.86	-38.9	-39.7	22.1	0.00e+00	0	42	0	2243952640	48	3895
2026-01-05 05:36:53.99	298.38	24.83	-39.0	-39.8	22.1	0.00e+00	0	42	0	2253389824	48	3943
2026-01-05 05:36:54.71	298.17	24.81	-38.9	-39.7	22.2	0.00e+00	0	42	0	2258632704	48	3903
2026-01-05 05:36:56.00	297.80	24.77	-38.9	-39.8	22.1	0.00e+00	0	42	0	2267021312	48	3927
2026-01-05 05:36:56.71	297.60	24.76	-38.8	-39.7	22.2	0.00e+00	0	42	0	2272264192	48	3877
2026-01-05 05:36:58.00	297.23	24.72	-38.9	-39.7	22.2	0.00e+00	0	42	0	2281701376	48	3892
2026-01-05 05:36:58.72	297.02	24.70	-38.7	-39.5	22.3	0.00e+00	0	42	0	2286944256	48	3819
2026-01-05 05:37:00.07	296.63	24.66	-38.8	-39.6	22.3	0.00e+00	0	43	0	2296381440	48	3843
2026-01-05 05:37:00.78	296.43	24.64	-38.8	-39.6	22.3	0.00e+00	0	42	0	2302672896	48	3843
2026-01-05 05:37:02.14	296.04	24.60	-39.0	-39.8	22.1	0.00e+00	0	42	0	2312110080	48	3930
2026-01-05 05:37:02.86	295.84	24.58	-38.9	-39.7	22.1	0.00e+00	0	42	0	2317352960	48	3910
2026-01-05 05:37:04.14	295.48	24.54	-39.1	-39.9	21.9	0.00e+00	0	42	0	2326790144	48	4003
2026-01-05 05:37:05.21	295.17	24.50	-39.1	-40.0	21.9	0.00e+00	0	42	0	2334130176	48	4015
2026-01-05 05:37:06.07	294.93	24.47	-39.2	-40.1	21.8	0.00e+00	0	42	0	2340421632	48	4059
2026-01-05 05:37:07.21	294.61	24.43	-39.1	-40.0	21.9	0.00e+00	0	42	0	2348810240	48	4019
2026-01-05 05:37:08.07	294.37	24.41	-39.0	-39.8	22.0	0.00e+00	0	42	0	2354053120	48	3948
2026-01-05 05:37:09.22	294.04	24.36	-38.9	-39.7	22.1	0.00e+00	0	42	0	2362441728	48	3887
2026-01-05 05:37:10.08	293.80	24.33	-38.8	-39.6	22.2	0.00e+00	0	42	0	2368733184	48	3863
2026-01-05 05:37:11.32	293.46	24.29	-38.9	-39.7	22.1	0.00e+00	0	42	0	2378170368	48	3898
2026-01-05 05:37:12.17	293.22	24.26	-38.9	-39.8	22.1	0.00e+00	0	42	0	2384461824	48	3916
2026-01-05 05:37:13.32	292.90	24.21	-39.0	-39.8	22.0	0.00e+00	0	42	0	2392850432	48	3948
2026-01-05 05:37:14.18	292.66	24.18	-39.0	-39.8	22.1	0.00e+00	0	42	0	2398093312	48	3932
2026-01-05 05:37:15.45	292.31	24.13	-39.0	-39.9	22.0	0.00e+00	0	42	0	2407530496	48	3969
2026-01-05 05:37:16.17	292.11	24.10	-39.0	-39.8	22.0	0.00e+00	0	42	0	2412773376	48	3957
2026-01-05 05:37:17.66	291.70	24.04	-38.9	-39.8	22.0	0.00e+00	0	42	0	2424307712	48	3927
2026-01-05 05:37:18.38	291.50	24.01	-39.0	-39.8	22.0	0.00e+00	0	42	0	2429550592	48	3944
2026-01-05 05:37:19.67	291.15	23.95	-39.0	-39.8	22.0	0.00e+00	0	42	0	2437939200	48	3948
2026-01-05 05:37:20.39	290.95	23.92	-39.0	-39.8	22.0	0.00e+00	0	42	0	2443182080	48	3942
2026-01-05 05:37:21.83	290.56	23.86	-39.0	-39.8	22.0	0.00e+00	0	43	0	2453667840	48	3944
2026-01-05 05:37:22.55	290.37	23.83	-39.0	-39.8	22.0	0.00e+00	0	42	0	2458910720	48	3948
2026-01-05 05:37:23.84	290.02	23.77	-39.1	-39.9	21.9	0.00e+00	0	42	0	2468347904	48	3987
2026-01-05 05:37:24.56	289.82	23.74	-39.1	-39.9	21.9	0.00e+00	0	42	0	2473590784	48	3995
2026-01-05 05:37:25.84	289.48	23.68	-39.0	-39.9	21.9	0.00e+00	0	42	0	2483027968	48	3965
2026-01-05 05:37:26.56	289.29	23.64	-39.1	-40.0	21.9	0.00e+00	0	43	0	2488270848	48	4005
2026-01-05 05:37:27.84	288.94	23.58	-39.1	-39.9	21.9	0.00e+00	0	42	0	2497708032	48	3990
2026-01-05 05:37:28.56	288.75	23.55	-39.1	-39.9	21.9	0.00e+00	0	42	0	2502950912	48	3985
2026-01-05 05:37:29.84	288.41	23.49	-39.0	-39.8	22.0	0.00e+00	0	42	0	2511339520	48	3955
2026-01-05 05:37:30.56	288.22	23.45	-38.9	-39.8	22.0	0.00e+00	0	42	0	2516582400	48	3928
2026-01-05 05:37:31.84	287.88	23.39	-38.8	-39.7	22.1	0.00e+00	0	42	0	2526019584	48	3880
2026-01-05 05:37:32.56	287.69	23.35	-38.9	-39.7	22.0	0.00e+00	0	42	0	2531262464	48	3912
2026-01-05 05:37:33.85	287.35	23.29	-38.9	-39.8	22.0	0.00e+00	0	42	0	2540699648	48	3929
2026-01-05 05:37:34.57	287.17	23.25	-38.9	-39.8	22.0	0.00e+00	0	42	0	2545942528	48	3918
2026-01-05 05:37:35.86	286.83	23.18	-39.0	-39.9	21.9	0.00e+00	0	42	0	2555379712	48	3969
2026-01-05 05:37:36.58	286.64	23.15	-39.0	-39.8	21.9	0.00e+00	0	42	0	2560622592	48	3951
2026-01-05 05:37:37.86	286.31	23.08	-39.0	-39.8	21.9	0.00e+00	0	43	0	2570059776	48	3950
2026-01-05 05:37:38.58	286.13	23.04	-38.9	-39.7	22.0	0.00e+00	0	43	0	2574254080	48	3912
2026-01-05 05:37:39.86	285.80	22.97	-38.8	-39.6	22.1	0.00e+00	0	42	0	2583691264	48	3850
2026-01-05 05:37:40.58	285.61	22.93	-38.8	-39.7	22.1	0.00e+00	0	42	0	2589982720	48	3883
2026-01-05 05:37:41.87	285.28	22.86	-38.8	-39.6	22.0	0.00e+00	0	42	0	2598371328	48	3867
2026-01-05 05:37:42.59	285.10	22.82	-39.0	-39.8	21.9	0.00e+00	0	42	0	2603614208	48	3947
2026-01-05 05:37:43.87	284.78	22.75	-39.0	-39.9	21.9	0.00e+00	0	43	0	2613051392	48	3967
2026-01-05 05:37:44.59	284.59	22.71	-39.1	-40.0	21.8	0.00e+00	0	43	0	2618294272	48	4013
2026-01-05 05:37:45.87	284.27	22.64	-39.1	-40.0	21.8	0.00e+00	0	43	0	2627731456	48	4027
2026-01-05 05:37:46.59	284.09	22.59	-39.1	-40.0	21.8	0.00e+00	0	43	0	2632974336	48	4010
2026-01-05 05:37:47.88	283.77	22.52	-39.2	-40.0	21.7	0.00e+00	0	43	0	2642411520	48	4034
2026-01-05 05:37:48.60	283.59	22.48	-39.2	-40.1	21.7	0.00e+00	0	42	0	2647654400	48	4071
2026-01-05 05:37:49.89	283.27	22.40	-39.0	-39.8	21.9	0.00e+00	0	42	0	2657091584	48	3952
2026-01-05 05:37:50.60	283.09	22.36	-38.8	-39.7	22.1	0.00e+00	0	42	0	2661285888	48	3876
2026-01-05 05:37:51.89	282.78	22.28	-38.8	-39.6	22.0	0.00e+00	0	42	0	2670723072	48	3868
2026-01-05 05:37:52.60	282.60	22.24	-38.8	-39.7	22.0	0.00e+00	0	42	0	2675965952	48	3887
2026-01-05 05:37:53.89	282.29	22.16	-38.8	-39.7	22.0	0.00e+00	0	42	0	2685403136	48	3883
2026-01-05 05:37:54.61	282.11	22.12	-38.8	-39.7	22.0	0.00e+00	0	42	0	2690646016	48	3889
2026-01-05 05:37:56.07	281.76	22.03	-38.9	-39.7	21.9	0.00e+00	0	42	0	2701131776	48	3906
2026-01-05 05:37:56.78	281.59	21.99	-39.0	-39.8	21.9	0.00e+00	0	42	0	2706374656	48	3957
2026-01-05 05:37:58.13	281.26	21.90	-39.0	-39.8	21.9	0.00e+00	0	43	0	2715811840	48	3949
2026-01-05 05:37:58.85	281.09	21.86	-38.9	-39.8	21.9	0.00e+00	0	42	0	2721054720	48	3932
2026-01-05 05:38:00.14	280.78	21.78	-39.0	-39.9	21.9	0.00e+00	0	43	0	2730491904	48	3960
2026-01-05 05:38:00.87	280.61	21.73	-39.1	-39.9	21.8	0.00e+00	0	42	0	2735734784	48	3997
2026-01-05 05:38:02.16	280.31	21.65	-39.2	-40.0	21.7	0.00e+00	0	42	0	2745171968	48	4048
2026-01-05 05:38:02.88	280.14	21.60	-39.2	-40.1	21.7	0.00e+00	0	42	0	2750414848	48	4056
2026-01-05 05:38:04.17	279.83	21.52	-39.0	-39.9	21.8	0.00e+00	0	42	0	2759852032	48	3959
2026-01-05 05:38:04.88	279.67	21.47	-39.0	-39.9	21.8	0.00e+00	0	42	0	2765094912	48	3959
2026-01-05 05:38:06.17	279.37	21.39	-39.1	-39.9	21.7	0.00e+00	0	42	0	2773483520	48	4004
2026-01-05 05:38:06.96	279.19	21.34	-39.1	-40.0	21.7	0.00e+00	0	42	0	2779774976	48	4007
2026-01-05 05:38:08.12	278.92	21.26	-39.0	-39.8	21.9	0.00e+00	0	42	0	2788163584	48	3958
2026-01-05 05:38:08.98	278.72	21.21	-38.9	-39.8	21.9	0.00e+00	0	42	0	2794455040	48	3914
2026-01-05 05:38:10.13	278.46	21.13	-39.1	-39.9	21.8	0.00e+00	0	43	0	2802843648	48	4000
2026-01-05 05:38:10.99	278.26	21.07	-39.1	-39.9	21.7	0.00e+00	0	42	0	2809135104	48	4000
2026-01-05 05:38:12.13	278.01	21.00	-39.0	-39.9	21.8	0.00e+00	0	43	0	2817523712	48	3979
2026-01-05 05:38:12.99	277.81	20.94	-39.0	-39.9	21.8	0.00e+00	0	42	0	2823815168	48	3961
2026-01-05 05:38:14.13	277.56	20.86	-39.1	-40.0	21.7	0.00e+00	0	42	0	2831155200	48	4033
2026-01-05 05:38:15.00	277.36	20.80	-39.1	-40.0	21.7	0.00e+00	0	43	0	2837446656	48	4008
2026-01-05 05:38:16.14	277.11	20.73	-39.0	-39.9	21.8	0.00e+00	0	42	0	2845835264	48	3979
2026-01-05 05:38:17.02	276.91	20.67	-39.1	-39.9	21.8	0.00e+00	0	42	0	2852126720	48	3997
2026-01-05 05:38:18.17	276.66	20.59	-39.2	-40.0	21.7	0.00e+00	0	42	0	2860515328	48	4037
2026-01-05 05:38:19.12	276.45	20.52	-39.2	-40.1	21.7	0.00e+00	0	42	0	2867855360	48	4055
2026-01-05 05:38:20.30	276.19	20.44	-39.3	-40.1	21.6	0.00e+00	0	43	0	2876243968	48	4095
2026-01-05 05:38:21.16	276.01	20.38	-39.3	-40.1	21.6	0.00e+00	0	43	0	2882535424	48	4086
2026-01-05 05:38:22.51	275.71	20.29	-39.3	-40.2	21.6	0.00e+00	0	42	0	2891972608	48	4116
2026-01-05 05:38:23.23	275.56	20.24	-39.4	-40.3	21.5	0.00e+00	0	43	0	2897215488	48	4153
2026-01-05 05:38:24.52	275.28	20.15	-39.3	-40.1	21.6	0.00e+00	0	43	0	2906652672	48	4090
2026-01-05 05:38:25.23	275.13	20.10	-39.2	-40.1	21.6	0.00e+00	0	42	0	2911895552	48	4069
2026-01-05 05:38:26.79	274.80	19.99	-39.3	-40.2	21.5	0.00e+00	0	42	0	2923429888	48	4119
2026-01-05 05:38:27.50	274.65	19.94	-39.3	-40.1	21.6	0.00e+00	0	42	0	2927624192	48	4094
2026-01-05 05:38:28.79	274.38	19.84	-39.4	-40.3	21.5	0.00e+00	0	42	0	2937061376	48	4148
2026-01-05 05:38:29.51	274.23	19.79	-39.4	-40.3	21.5	0.00e+00	0	42	0	2942304256	48	4162
2026-01-05 05:38:30.80	273.96	19.70	-39.4	-40.3	21.4	0.00e+00	0	43	0	2951741440	48	4180
2026-01-05 05:38:31.51	273.81	19.65	-39.5	-40.4	21.3	0.00e+00	0	42	0	2956984320	48	4230
2026-01-05 05:38:32.80	273.55	19.56	-39.5	-40.4	21.4	0.00e+00	0	42	0	2966421504	48	4214
2026-01-05 05:38:33.52	273.40	19.51	-39.6	-40.5	21.3	0.00e+00	0	43	0	2971664384	48	4257
2026-01-05 05:38:34.81	273.14	19.41	-39.5	-40.4	21.4	0.00e+00	0	42	0	2981101568	48	4221
2026-01-05 05:38:35.52	272.99	19.36	-39.6	-40.5	21.3	0.00e+00	0	42	0	2985295872	48	4273
2026-01-05 05:38:36.81	272.73	19.27	-39.6	-40.5	21.2	0.00e+00	0	43	0	2994733056	48	4283
2026-01-05 05:38:37.53	272.59	19.22	-39.5	-40.4	21.3	0.00e+00	0	43	0	2999975936	48	4229
2026-01-05 05:38:38.82	272.33	19.12	-39.7	-40.6	21.2	0.00e+00	0	43	0	3009413120	48	4301
2026-01-05 05:38:39.53	272.19	19.07	-39.6	-40.5	21.3	0.00e+00	0	42	0	3014656000	48	4268
2026-01-05 05:38:40.82	271.93	18.98	-39.6	-40.5	21.3	0.00e+00	0	42	0	3024093184	48	4261
2026-01-05 05:38:41.54	271.79	18.92	-39.6	-40.4	21.3	0.00e+00	0	42	0	3029336064	48	4236
2026-01-05 05:38:42.83	271.54	18.83	-39.7	-40.5	21.3	0.00e+00	0	42	0	3038773248	48	4290
2026-01-05 05:38:43.54	271.40	18.78	-39.7	-40.6	21.3	0.00e+00	0	42	0	3044016128	48	4292
2026-01-05 05:38:44.84	271.14	18.68	-39.6	-40.5	21.3	0.00e+00	0	42	0	3053453312	49	4036
2026-01-05 05:38:45.55	271.01	18.63	-39.6	-40.5	21.3	0.00e+00	0	42	0	3058696192	49	4021
2026-01-05 05:38:46.84	270.76	18.53	-39.7	-40.5	21.3	0.00e+00	0	43	0	3068133376	49	4041
2026-01-05 05:38:47.56	270.62	18.48	-39.7	-40.6	21.2	0.00e+00	0	43	0	3072327680	49	4085
2026-01-05 05:38:48.85	270.37	18.39	-39.8	-40.7	21.1	0.00e+00	0	42	0	3081764864	49	4120
2026-01-05 05:38:49.56	270.24	18.33	-39.9	-40.8	21.1	0.00e+00	0	42	0	3087007744	49	4148
2026-01-05 05:38:50.86	269.99	18.24	-40.0	-40.9	21.0	0.00e+00	0	42	0	3096444928	49	4208
2026-01-05 05:38:51.60	269.85	18.18	-39.9	-40.8	21.1	0.00e+00	0	42	0	3101687808	49	4169
2026-01-05 05:38:53.19	269.56	18.06	-39.9	-40.8	21.1	0.00e+00	0	42	0	3113222144	49	4178
2026-01-05 05:38:53.76	269.45	18.02	-39.9	-40.8	21.1	0.00e+00	0	42	0	3117416448	49	4172
2026-01-05 05:38:55.55	269.12	17.89	-39.8	-40.7	21.1	0.00e+00	0	42	0	3129999360	49	4133
2026-01-05 05:38:56.12	269.02	17.84	-39.7	-40.6	21.2	0.00e+00	0	43	0	3134193664	49	4077
2026-01-05 05:38:57.71	268.72	17.73	-39.8	-40.7	21.1	0.00e+00	0	43	0	3145728000	49	4126
2026-01-05 05:38:58.28	268.62	17.68	-39.8	-40.7	21.1	0.00e+00	0	43	0	3149922304	49	4127
2026-01-05 05:38:59.87	268.33	17.56	-39.9	-40.8	21.1	0.00e+00	0	42	0	3161456640	49	4159
2026-01-05 05:39:00.44	268.23	17.52	-40.0	-40.9	21.0	0.00e+00	0	42	0	3165650944	49	4211
2026-01-05 05:39:02.04	267.94	17.40	-40.2	-41.1	20.8	0.00e+00	0	42	0	3177185280	49	4330
2026-01-05 05:39:02.61	267.84	17.36	-40.3	-41.2	20.7	0.00e+00	0	43	0	3181379584	49	4354
2026-01-05 05:39:04.28	267.55	17.23	-40.3	-41.2	20.7	0.00e+00	0	43	0	3192913920	50	4141
2026-01-05 05:39:04.85	267.45	17.19	-40.3	-41.3	20.7	0.00e+00	0	42	0	3197108224	50	4158
2026-01-05 05:39:06.43	267.17	17.07	-40.4	-41.3	20.7	0.00e+00	0	43	0	3208642560	50	4156
2026-01-05 05:39:07.04	267.07	17.02	-40.3	-41.2	20.7	0.00e+00	0	43	0	3213885440	50	4135
2026-01-05 05:39:08.62	266.79	16.91	-40.3	-41.2	20.7	0.00e+00	0	42	0	3224371200	50	4130
2026-01-05 05:39:09.23	266.69	16.86	-40.4	-41.3	20.6	0.00e+00	0	43	0	3229614080	50	4162
2026-01-05 05:39:10.81	266.42	16.74	-40.5	-41.5	20.5	0.00e+00	0	42	0	3240099840	50	4248
2026-01-05 05:39:11.41	266.31	16.69	-40.6	-41.6	20.4	0.00e+00	0	42	0	3245342720	50	4299
2026-01-05 05:39:12.99	266.05	16.58	-40.8	-41.7	20.3	0.00e+00	0	42	0	3256877056	50	4368
2026-01-05 05:39:13.62	265.94	16.53	-40.8	-41.7	20.2	0.00e+00	0	43	0	3261071360	50	4376
2026-01-05 05:39:15.05	265.70	16.42	-40.7	-41.7	20.3	0.00e+00	0	43	0	3271557120	51	4115
2026-01-05 05:39:15.77	265.58	16.37	-40.7	-41.6	20.3	0.00e+00	0	42	0	3276800000	51	4084
2026-01-05 05:39:17.06	265.37	16.27	-40.7	-41.6	20.4	0.00e+00	0	42	0	3285188608	51	4072
2026-01-05 05:39:17.77	265.25	16.21	-40.6	-41.5	20.4	0.00e+00	0	42	0	3290431488	51	4042
2026-01-05 05:39:19.06	265.04	16.12	-40.5	-41.5	20.5	0.00e+00	0	43	0	3299868672	51	4014
2026-01-05 05:39:19.78	264.92	16.06	-40.5	-41.4	20.5	0.00e+00	0	43	0	3305111552	51	3969
2026-01-05 05:39:21.07	264.71	15.96	-40.6	-41.5	20.4	0.00e+00	0	42	0	3314548736	51	4046
2026-01-05 05:39:21.79	264.60	15.91	-40.7	-41.6	20.3	0.00e+00	0	42	0	3319791616	51	4081
2026-01-05 05:39:23.07	264.39	15.81	-40.7	-41.6	20.3	0.00e+00	0	43	0	3329228800	51	4085
2026-01-05 05:39:23.79	264.28	15.76	-40.6	-41.5	20.4	0.00e+00	0	42	0	3334471680	51	4043
2026-01-05 05:39:25.08	264.07	15.66	-40.7	-41.7	20.3	0.00e+00	0	42	0	3343908864	51	4100
2026-01-05 05:39:25.79	263.96	15.61	-40.8	-41.8	20.2	0.00e+00	0	42	0	3349151744	51	4157
2026-01-05 05:39:27.08	263.75	15.51	-40.8	-41.8	20.2	0.00e+00	0	42	0	3358588928	51	4168
2026-01-05 05:39:27.80	263.64	15.46	-40.8	-41.8	20.2	0.00e+00	0	42	0	3362783232	51	4152
2026-01-05 05:39:29.09	263.44	15.36	-40.8	-41.8	20.2	0.00e+00	0	43	0	3372220416	51	4151
2026-01-05 05:39:29.81	263.33	15.30	-40.7	-41.7	20.3	0.00e+00	0	42	0	3377463296	51	4121
2026-01-05 05:39:31.10	263.13	15.21	-40.8	-41.8	20.2	0.00e+00	0	43	0	3386900480	51	4166
2026-01-05 05:39:32.08	262.98	15.13	-40.9	-41.8	20.2	0.00e+00	0	42	0	3394240512	51	4169
2026-01-05 05:39:33.41	262.78	15.03	-41.0	-42.0	20.0	0.00e+00	0	42	0	3403677696	51	4252
2026-01-05 05:39:34.12	262.67	14.98	-40.9	-41.9	20.1	0.00e+00	0	43	0	3408920576	51	4197
2026-01-05 05:39:35.76	262.42	14.86	-41.1	-42.1	19.9	0.00e+00	0	43	0	3420454912	51	4295
2026-01-05 05:39:36.33	262.34	14.81	-41.2	-42.2	19.8	0.00e+00	0	42	0	3424649216	51	4372
2026-01-05 05:39:37.95	262.10	14.69	-41.1	-42.1	19.9	0.00e+00	0	43	0	3436183552	51	4308
2026-01-05 05:39:38.53	262.01	14.65	-41.2	-42.2	19.8	0.00e+00	0	43	0	3440377856	51	4358
2026-01-05 05:39:40.11	261.78	14.53	-41.2	-42.2	19.8	0.00e+00	0	43	0	3451912192	52	4106
2026-01-05 05:39:40.74	261.68	14.48	-41.2	-42.1	19.8	0.00e+00	0	42	0	3457155072	52	4096
2026-01-05 05:39:42.18	261.48	14.37	-41.2	-42.2	19.7	0.00e+00	0	43	0	3467640832	52	4132
2026-01-05 05:39:42.97	261.36	14.31	-41.2	-42.2	19.7	0.00e+00	0	43	0	3472883712	52	4126
2026-01-05 05:39:44.25	261.18	14.22	-41.3	-42.3	19.7	0.00e+00	0	43	0	3482320896	52	4146
2026-01-05 05:39:45.07	261.06	14.16	-41.2	-42.2	19.8	0.00e+00	0	42	0	3487563776	52	4109
2026-01-05 05:39:46.53	260.85	14.05	-41.2	-42.2	19.7	0.00e+00	0	43	0	3499098112	52	4116
2026-01-05 05:39:47.25	260.75	13.99	-41.1	-42.2	19.8	0.00e+00	0	43	0	3503292416	52	4102
2026-01-05 05:39:48.75	260.54	13.88	-41.2	-42.2	19.7	0.00e+00	0	43	0	3514826752	52	4108
2026-01-05 05:39:49.46	260.44	13.83	-41.1	-42.1	19.8	0.00e+00	0	43	0	3520069632	52	4080
2026-01-05 05:39:50.75	260.26	13.73	-41.2	-42.2	19.8	0.00e+00	0	42	0	3528458240	52	4110
2026-01-05 05:39:51.47	260.16	13.68	-41.1	-42.1	19.8	0.00e+00	0	43	0	3533701120	52	4086
2026-01-05 05:39:52.75	259.98	13.58	-41.2	-42.2	19.7	0.00e+00	0	42	0	3543138304	52	4135
2026-01-05 05:39:53.47	259.88	13.53	-41.2	-42.2	19.7	0.00e+00	0	43	0	3548381184	52	4138
2026-01-05 05:39:54.76	259.71	13.43	-41.3	-42.3	19.6	0.00e+00	0	42	0	3557818368	52	4166
2026-01-05 05:39:55.48	259.61	13.38	-41.3	-42.4	19.6	0.00e+00	0	43	0	3563061248	52	4195
2026-01-05 05:39:56.76	259.43	13.29	-41.3	-42.4	19.6	0.00e+00	0	43	0	3572498432	52	4198
2026-01-05 05:39:57.58	259.32	13.22	-41.4	-42.4	19.6	0.00e+00	0	43	0	3577741312	52	4211
2026-01-05 05:39:58.72	259.17	13.14	-41.5	-42.5	19.4	0.00e+00	0	42	0	3586129920	52	4285
2026-01-05 05:39:59.58	259.06	13.08	-41.6	-42.6	19.3	0.00e+00	0	42	0	3592421376	52	4306
2026-01-05 05:40:00.73	258.90	12.99	-41.5	-42.5	19.4	0.00e+00	0	42	0	3600809984	52	4280
2026-01-05 05:40:01.83	258.76	12.91	-41.6	-42.6	19.3	0.00e+00	0	42	0	3609198592	52	4324
2026-01-05 05:40:02.85	258.63	12.84	-41.7	-42.7	19.2	0.00e+00	0	42	0	3616538624	52	4369
2026-01-05 05:40:03.85	258.50	12.76	-41.9	-42.9	19.0	0.00e+00	0	42	0	3623878656	53	4228
2026-01-05 05:40:04.85	258.37	12.69	-41.8	-42.9	19.1	0.00e+00	0	43	0	3631218688	53	4219
2026-01-05 05:40:05.86	258.24	12.61	-42.0	-43.1	18.9	0.00e+00	0	43	0	3637510144	53	4315
2026-01-05 05:40:06.86	258.11	12.54	-42.0	-43.1	18.9	0.00e+00	0	43	0	3644850176	53	4298
2026-01-05 05:40:07.86	257.98	12.47	-42.2	-43.2	18.7	0.00e+00	0	43	0	3652190208	53	4384
2026-01-05 05:40:08.86	257.85	12.39	-41.9	-42.9	19.0	0.00e+00	0	42	0	3659530240	53	4221
2026-01-05 05:40:09.87	257.72	12.32	-41.8	-42.8	19.1	0.00e+00	0	43	0	3666870272	53	4176
2026-01-05 05:40:10.87	257.60	12.25	-41.7	-42.7	19.2	0.00e+00	0	42	0	3674210304	53	4136
2026-01-05 05:40:11.87	257.47	12.17	-41.6	-42.6	19.3	0.00e+00	0	43	0	3681550336	53	4082
2026-01-05 05:40:12.87	257.35	12.10	-41.5	-42.5	19.4	0.00e+00	0	43	0	3688890368	53	4027
2026-01-05 05:40:13.87	257.23	12.03	-41.5	-42.5	19.4	0.00e+00	0	43	0	3695181824	53	4041
2026-01-05 05:40:14.95	257.09	11.95	-41.7	-42.7	19.2	0.00e+00	0	42	0	3703570432	53	4136
2026-01-05 05:40:15.85	256.98	11.88	-41.6	-42.6	19.3	0.00e+00	0	43	0	3709861888	53	4066
2026-01-05 05:40:16.99	256.84	11.80	-41.7	-42.7	19.3	0.00e+00	0	43	0	3718250496	53	4110
2026-01-05 05:40:17.85	256.74	11.74	-41.7	-42.8	19.2	0.00e+00	0	42	0	3724541952	53	4147
2026-01-05 05:40:19.00	256.60	11.66	-41.8	-42.9	19.0	0.00e+00	0	43	0	3732930560	53	4216
2026-01-05 05:40:19.85	256.50	11.59	-42.2	-43.3	18.7	0.00e+00	0	42	0	3739222016	53	4405
2026-01-05 05:40:21.00	256.36	11.51	-42.2	-43.3	18.7	0.00e+00	0	43	0	3747610624	53	4399
2026-01-05 05:40:21.86	256.26	11.45	-42.2	-43.3	18.7	0.00e+00	0	43	0	3753902080	53	4412
2026-01-05 05:40:23.00	256.12	11.37	-42.3	-43.4	18.6	0.00e+00	0	43	0	3761242112	54	4208
2026-01-05 05:40:23.86	256.02	11.30	-42.2	-43.3	18.6	0.00e+00	0	43	0	3767533568	54	4179
2026-01-05 05:40:25.01	255.89	11.22	-42.2	-43.3	18.6	0.00e+00	0	42	0	3775922176	54	4182
2026-01-05 05:40:25.86	255.79	11.16	-42.2	-43.3	18.7	0.00e+00	0	42	0	3782213632	54	4151
2026-01-05 05:40:27.11	255.64	11.07	-42.0	-43.1	18.9	0.00e+00	0	43	0	3791650816	54	4068
2026-01-05 05:40:27.96	255.54	11.01	-41.9	-42.9	19.0	0.00e+00	0	42	0	3797942272	54	4001
2026-01-05 05:40:29.11	255.41	10.93	-41.9	-42.9	19.0	0.00e+00	0	43	0	3805282304	54	3981
2026-01-05 05:40:29.97	255.31	10.87	-42.0	-43.1	18.8	0.00e+00	0	43	0	3811573760	54	4068
2026-01-05 05:40:31.11	255.18	10.79	-41.9	-43.0	19.0	0.00e+00	0	43	0	3819962368	54	4005
2026-01-05 05:40:31.97	255.09	10.72	-41.7	-42.8	19.1	0.00e+00	0	43	0	3826253824	54	3933
2026-01-05 05:40:33.12	254.96	10.64	-41.9	-43.0	18.9	0.00e+00	0	43	0	3834642432	54	4020
2026-01-05 05:40:33.98	254.86	10.58	-41.8	-42.9	19.0	0.00e+00	0	42	0	3840933888	54	3994
2026-01-05 05:40:35.13	254.73	10.50	-41.8	-42.9	19.0	0.00e+00	0	42	0	3849322496	54	3998
2026-01-05 05:40:35.99	254.64	10.44	-41.9	-42.9	19.0	0.00e+00	0	42	0	3855613952	54	3997
2026-01-05 05:40:37.13	254.51	10.36	-41.9	-43.0	18.9	0.00e+00	0	42	0	3864002560	54	4027
2026-01-05 05:40:37.99	254.42	10.30	-41.8	-42.8	19.1	0.00e+00	0	43	0	3870294016	54	3954
2026-01-05 05:40:39.14	254.29	10.22	-41.9	-43.0	18.9	0.00e+00	0	42	0	3878682624	54	4014
2026-01-05 05:40:40.00	254.20	10.16	-41.8	-42.9	19.0	0.00e+00	0	42	0	3884974080	54	3982
2026-01-05 05:40:41.15	254.07	10.08	-42.0	-43.0	18.9	0.00e+00	0	43	0	3892314112	54	4050
2026-01-05 05:40:42.00	253.98	10.02	-42.1	-43.1	18.8	0.00e+00	0	43	0	3898605568	54	4091
2026-01-05 05:40:43.15	253.86	9.93	-42.0	-43.0	18.9	0.00e+00	0	42	0	3906994176	54	4038
2026-01-05 05:40:44.01	253.77	9.87	-42.0	-43.0	18.9	0.00e+00	0	42	0	3913285632	54	4044
2026-01-05 05:40:45.16	253.64	9.79	-42.1	-43.2	18.8	0.00e+00	0	42	0	3921674240	54	4107
2026-01-05 05:40:46.05	253.55	9.73	-42.1	-43.1	18.8	0.00e+00	0	43	0	3927965696	54	4079
2026-01-05 05:40:47.19	253.43	9.65	-42.0	-43.1	18.9	0.00e+00	0	42	0	3936354304	54	4072
2026-01-05 05:40:48.12	253.33	9.59	-42.1	-43.2	18.8	0.00e+00	0	42	0	3942645760	54	4111
2026-01-05 05:40:49.29	253.21	9.51	-42.3	-43.4	18.6	0.00e+00	0	43	0	3952082944	54	4194
2026-01-05 05:40:50.15	253.12	9.45	-42.4	-43.5	18.5	0.00e+00	0	42	0	3957325824	54	4246
2026-01-05 05:40:51.51	252.98	9.35	-42.4	-43.5	18.5	0.00e+00	0	43	0	3967811584	54	4274
2026-01-05 05:40:52.23	252.91	9.30	-42.5	-43.6	18.4	0.00e+00	0	42	0	3972005888	54	4315
2026-01-05 05:40:53.51	252.78	9.21	-42.7	-43.8	18.2	0.00e+00	0	42	0	3981443072	54	4411
2026-01-05 05:40:54.23	252.70	9.17	-42.7	-43.9	18.1	0.00e+00	0	42	0	3987734528	54	4455
2026-01-05 05:40:55.52	252.57	9.08	-42.7	-43.9	18.1	0.00e+00	0	43	0	3996123136	55	4205
2026-01-05 05:40:56.25	252.50	9.03	-42.6	-43.8	18.2	0.00e+00	0	43	0	4001366016	55	4157
2026-01-05 05:40:57.54	252.37	8.94	-52.2	-63.5	3.8	8.46e-01	0	43	104	4005560320	74	13517
2026-01-05 05:40:58.26	252.30	8.89	-52.8	-63.7	3.9	8.46e-01	0	42	104	4005560320	75	13061
2026-01-05 05:40:59.55	252.17	8.80	-52.9	-63.9	3.8	8.48e-01	0	43	104	4005560320	75	13382
2026-01-05 05:41:00.27	252.10	8.75	-53.1	-64.0	3.8	8.45e-01	0	43	104	4005560320	75	13478
2026-01-05 05:41:01.56	251.98	8.66	-53.3	-64.0	3.8	8.46e-01	0	43	104	4005560320	76	12756
2026-01-05 05:41:02.28	251.90	8.61	-53.1	-64.1	3.8	8.46e-01	0	43	104	4005560320	76	12902
2026-01-05 05:41:03.58	251.78	8.53	-53.1	-64.2	3.8	8.46e-01	0	43	104	4005560320	76	13035
2026-01-05 05:41:04.30	251.71	8.48	-53.2	-64.1	3.8	8.48e-01	0	43	104	4005560320	76	12948
2026-01-05 05:41:05.69	251.58	8.38	-53.4	-64.2	3.8	8.45e-01	0	43	104	4005560320	76	13060
2026-01-05 05:41:06.40	251.51	8.33	-53.4	-64.2	3.8	8.46e-01	0	42	104	4005560320	76	13031
2026-01-05 05:41:07.74	251.38	8.24	-53.4	-64.2	3.8	8.47e-01	0	42	104	4005560320	76	13063
2026-01-05 05:41:08.46	251.31	8.20	-53.4	-64.2	3.8	8.48e-01	0	43	104	4005560320	76	13049
2026-01-05 05:41:09.81	251.18	8.10	-53.3	-64.2	3.8	8.47e-01	0	43	104	4005560320	76	13006
2026-01-05 05:41:10.53	251.12	8.06	-53.3	-64.2	3.8	8.47e-01	0	43	104	4005560320	76	13100
2026-01-05 05:41:11.82	251.00	7.97	-53.3	-64.2	3.8	8.47e-01	0	43	104	4005560320	76	13080
2026-01-05 05:41:12.54	250.93	7.92	-53.4	-64.2	3.8	8.47e-01	0	43	104	4005560320	76	13075
2026-01-05 05:41:13.83	250.81	7.83	-53.5	-64.2	3.8	8.47e-01	0	43	104	4005560320	76	13059
2026-01-05 05:41:14.55	250.74	7.79	-53.5	-64.2	3.8	8.47e-01	0	43	104	4005560320	76	13043
2026-01-05 05:41:15.84	250.62	7.70	-53.4	-64.2	3.8	8.47e-01	0	43	104	4005560320	76	13075
2026-01-05 05:41:16.55	250.56	7.65	-53.4	-64.2	3.8	8.46e-01	0	43	104	4005560320	76	13024
2026-01-05 05:41:17.85	250.44	7.57	-53.3	-64.3	3.8	8.46e-01	0	43	104	4005560320	76	13163
2026-01-05 05:41:18.56	250.38	7.52	-53.2	-64.2	3.8	8.47e-01	0	43	104	4005560320	76	12975
2026-01-05 05:41:19.85	250.26	7.43	-53.2	-64.2	3.8	8.47e-01	0	43	104	4005560320	76	13021
2026-01-05 05:41:20.57	250.20	7.39	-53.2	-64.2	3.8	8.46e-01	0	43	104	4005560320	76	13009
2026-01-05 05:41:21.86	250.08	7.30	-53.2	-64.2	3.8	8.48e-01	0	43	104	4005560320	76	13014
2026-01-05 05:41:22.58	250.02	7.25	-53.2	-64.2	3.8	8.46e-01	0	43	104	4005560320	76	13035
2026-01-05 05:41:23.87	249.90	7.17	-53.2	-64.3	3.8	8.46e-01	0	43	104	4005560320	76	13182
2026-01-05 05:41:24.59	249.84	7.12	-53.2	-64.3	3.8	8.47e-01	0	43	104	4005560320	76	13216
2026-01-05 05:41:25.88	249.73	7.04	-53.2	-64.3	3.8	8.48e-01	0	43	104	4005560320	76	13128
2026-01-05 05:41:26.60	249.67	6.99	-53.2	-64.2	3.8	8.46e-01	0	43	104	4005560320	76	13024
2026-01-05 05:41:27.89	249.55	6.91	-53.2	-64.3	3.8	8.46e-01	0	43	104	4005560320	76	13135
2026-01-05 05:41:28.61	249.49	6.86	-53.2	-64.3	3.8	8.47e-01	0	43	104	4005560320	76	13148
2026-01-05 05:41:29.90	249.38	6.77	-53.2	-64.3	3.8	8.46e-01	0	43	104	4005560320	76	13120
2026-01-05 05:41:30.62	249.32	6.73	-53.2	-64.2	3.8	8.47e-01	0	43	104	4005560320	76	13059
2026-01-05 05:41:31.91	249.21	6.64	-53.2	-64.3	3.8	8.47e-01	0	43	104	4005560320	76	13157
2026-01-05 05:41:32.62	249.15	6.60	-53.2	-64.3	3.8	8.47e-01	0	43	104	4005560320	76	13133
2026-01-05 05:41:33.92	249.04	6.51	-53.2	-64.3	3.8	8.47e-01	0	43	104	4005560320	76	13167
2026-01-05 05:41:34.63	248.98	6.47	-53.2	-64.3	3.8	8.46e-01	0	43	104	4005560320	76	13115
2026-01-05 05:41:35.92	248.87	6.38	-53.3	-64.3	3.8	8.47e-01	0	43	104	4005560320	76	13244
2026-01-05 05:41:36.64	248.81	6.34	-53.3	-64.2	3.8	8.46e-01	0	43	104	4005560320	76	13105
2026-01-05 05:41:37.93	248.71	6.25	-53.3	-64.3	3.8	8.47e-01	0	43	104	4005560320	76	13147
2026-01-05 05:41:38.65	248.65	6.21	-53.3	-64.3	3.8	8.46e-01	0	43	104	4005560320	76	13186
2026-01-05 05:41:39.94	248.54	6.13	-53.3	-64.3	3.8	8.47e-01	0	43	104	4005560320	76	13201
2026-01-05 05:41:40.66	248.48	6.08	-53.3	-64.3	3.8	8.47e-01	0	43	104	4005560320	76	13143
2026-01-05 05:41:41.95	248.38	6.00	-53.3	-64.3	3.8	8.47e-01	0	43	104	4005560320	76	13226
2026-01-05 05:41:42.67	248.32	5.95	-53.3	-64.3	3.8	8.47e-01	0	43	104	4005560320	76	13239
2026-01-05 05:41:43.96	248.21	5.87	-53.3	-64.3	3.8	8.46e-01	0	43	104	4005560320	76	13257
2026-01-05 05:41:44.68	248.16	5.82	-53.3	-64.3	3.8	8.46e-01	0	43	104	4005560320	76	13252
2026-01-05 05:41:45.97	248.05	5.74	-53.3	-64.3	3.8	8.47e-01	0	43	104	4005560320	76	13247
2026-01-05 05:41:46.69	248.00	5.70	-53.3	-64.4	3.8	8.47e-01	0	43	104	4005560320	76	13354
2026-01-05 05:41:47.98	247.89	5.61	-53.4	-64.4	3.8	8.47e-01	0	43	104	4005560320	76	13343
2026-01-05 05:41:48.69	247.84	5.57	-53.3	-64.4	3.8	8.46e-01	0	43	104	4005560320	76	13330
2026-01-05 05:41:49.98	247.74	5.49	-53.4	-64.4	3.8	8.47e-01	0	43	104	4005560320	76	13261
2026-01-05 05:41:50.70	247.68	5.44	-53.4	-64.4	3.8	8.47e-01	0	43	104	4005560320	76	13290
2026-01-05 05:41:51.99	247.58	5.36	-53.4	-64.4	3.8	8.46e-01	0	43	104	4005560320	76	13314
2026-01-05 05:41:52.71	247.53	5.32	-53.4	-64.4	3.8	8.47e-01	0	43	104	4005560320	76	13375
2026-01-05 05:41:54.00	247.43	5.23	-53.4	-64.4	3.8	8.48e-01	0	43	104	4005560320	76	13404
2026-01-05 05:41:54.72	247.37	5.19	-53.4	-64.5	3.8	8.47e-01	0	43	104	4005560320	76	13428
2026-01-05 05:41:56.01	247.27	5.11	-53.4	-64.5	3.8	8.47e-01	0	43	104	4005560320	76	13497
2026-01-05 05:41:56.73	247.22	5.06	-53.4	-64.5	3.8	8.47e-01	0	43	104	4005560320	76	13453
2026-01-05 05:41:58.02	247.12	4.98	-53.4	-64.4	3.8	8.46e-01	0	43	104	4005560320	76	13400

#Closed at: 2026-01-05 05:41:58
#Recorded file [4005 MB]: D:/Data/31040_260105_083050.dat