passes_logs/2026/01/05/T1/T1__20260105_073612_SUOMI_NPP_rec.log

#Pass ID: 20260105_073612_SUOMI NPP
#Satellite: SUOMI NPP
#Configuration: NPP
#almurnet v.1.7.20251203
#Start time: 2026-01-05 07:36:14

#Version: 2.0.20230620
#Station: T1
#Location: 37.570604 lon 55.790049 lat
#TLE: 1 37849U 11061A   26003.96724563  .00000164  00000+0  98899-4 0  9990
#TLE: 2 37849  98.7800 306.1116 0002573  82.3190 277.8279 14.19522066735141

#Time	Az	El	Level	Level2	SNR	BER	BlckErr	Temp	State	Recorded	gain1	gain2
2026-01-05 07:36:14.76	82.10	5.11	-50.0	-65.3	3.8	1.49e+00	0	41	0	0	72	20039
2026-01-05 07:36:15.75	81.98	5.16	-50.0	-65.4	3.8	1.49e+00	0	41	104	0	72	20088
2026-01-05 07:36:16.76	81.87	5.21	-50.0	-65.3	3.8	1.49e+00	0	41	104	0	72	19932
2026-01-05 07:36:17.77	81.75	5.26	-50.0	-65.3	3.8	1.49e+00	0	41	104	0	72	20027
2026-01-05 07:36:18.77	81.63	5.30	-50.0	-65.3	3.8	1.49e+00	0	41	104	0	72	20003
2026-01-05 07:36:19.77	81.52	5.35	-50.0	-65.3	3.8	1.49e+00	0	41	104	0	72	20003
2026-01-05 07:36:20.78	81.40	5.40	-50.0	-65.3	3.8	1.49e+00	0	41	104	0	72	19976
2026-01-05 07:36:21.78	81.28	5.45	-50.0	-65.3	3.8	1.49e+00	0	41	104	0	72	19975
2026-01-05 07:36:22.79	81.17	5.49	-50.0	-65.3	3.8	1.49e+00	0	41	104	0	72	20062
2026-01-05 07:36:23.79	81.05	5.54	-50.0	-65.4	3.8	1.49e+00	0	41	104	0	72	20085
2026-01-05 07:36:24.79	80.93	5.59	-50.0	-65.3	3.8	1.49e+00	0	41	104	0	72	19917
2026-01-05 07:36:25.80	80.81	5.64	-50.0	-65.3	3.8	1.49e+00	0	41	104	0	72	19983
2026-01-05 07:36:26.80	80.69	5.68	-50.0	-65.3	3.8	1.49e+00	0	41	104	0	72	19964
2026-01-05 07:36:27.81	80.57	5.73	-50.0	-65.3	3.8	1.49e+00	0	41	104	0	72	19913
2026-01-05 07:36:28.81	80.45	5.78	-50.0	-65.3	3.8	1.49e+00	0	41	104	0	72	19958
2026-01-05 07:36:29.82	80.33	5.82	-50.0	-65.3	3.8	1.49e+00	0	42	104	0	72	19895
2026-01-05 07:36:30.82	80.21	5.87	-50.0	-65.3	3.8	1.49e+00	0	41	104	0	72	20038
2026-01-05 07:36:31.83	80.09	5.92	-50.0	-65.3	3.8	1.49e+00	0	41	104	0	72	19964
2026-01-05 07:36:32.83	79.97	5.97	-50.0	-65.3	3.8	1.49e+00	0	42	104	0	72	19968
2026-01-05 07:36:33.83	79.85	6.01	-50.0	-65.3	3.8	1.49e+00	0	42	104	0	72	19938
2026-01-05 07:36:34.84	79.72	6.06	-50.0	-65.3	3.8	1.49e+00	0	42	104	0	72	19958
2026-01-05 07:36:35.84	79.60	6.11	-50.0	-65.3	3.8	1.49e+00	0	42	104	0	72	20023
2026-01-05 07:36:36.85	79.48	6.15	-50.0	-65.3	3.8	1.49e+00	0	42	104	0	72	19982
2026-01-05 07:36:37.85	79.35	6.20	-50.0	-65.3	3.8	1.49e+00	0	42	104	0	72	19968
2026-01-05 07:36:38.86	79.23	6.25	-50.0	-65.3	3.8	1.49e+00	0	42	104	0	72	19978
2026-01-05 07:36:39.86	79.10	6.30	-50.0	-65.3	3.8	1.49e+00	0	42	104	0	72	19964
2026-01-05 07:36:40.86	78.98	6.34	-50.0	-65.3	3.8	1.49e+00	0	42	104	0	72	19918
2026-01-05 07:36:41.87	78.85	6.39	-50.0	-65.3	3.8	1.49e+00	0	42	104	0	72	19922
2026-01-05 07:36:42.87	78.73	6.44	-50.0	-65.2	3.8	1.49e+00	0	42	104	0	72	19835
2026-01-05 07:36:43.88	78.60	6.48	-50.0	-65.2	3.8	1.49e+00	0	42	104	0	72	19833
2026-01-05 07:36:44.88	78.48	6.53	-50.0	-65.3	3.8	1.49e+00	0	42	104	0	71	21137
2026-01-05 07:36:45.89	78.35	6.58	-50.0	-65.3	3.8	1.49e+00	0	42	104	0	71	21130
2026-01-05 07:36:46.89	78.22	6.62	-50.0	-65.3	3.8	1.49e+00	0	42	104	0	71	21044
2026-01-05 07:36:47.89	78.09	6.67	-50.0	-65.3	3.8	1.49e+00	0	42	104	0	71	21067
2026-01-05 07:36:48.90	77.96	6.72	-50.0	-65.3	3.8	1.49e+00	0	42	104	0	71	21105
2026-01-05 07:36:49.90	77.84	6.76	-50.0	-65.3	3.8	1.49e+00	0	42	104	0	71	21090
2026-01-05 07:36:50.91	77.71	6.81	-50.0	-65.3	3.8	1.49e+00	0	42	104	0	71	21042
2026-01-05 07:36:51.91	77.58	6.86	-50.0	-65.3	3.8	1.49e+00	0	42	104	0	71	21063
2026-01-05 07:36:52.91	77.45	6.90	-50.0	-65.2	3.8	1.49e+00	0	42	104	0	71	21009
2026-01-05 07:36:53.92	77.32	6.95	-50.0	-65.2	3.8	1.49e+00	0	42	104	0	71	21010
2026-01-05 07:36:54.92	77.19	6.99	-50.0	-65.3	3.8	1.49e+00	0	42	104	0	71	21100
2026-01-05 07:36:55.93	77.06	7.04	-50.0	-65.3	3.8	1.49e+00	0	42	104	0	71	21088
2026-01-05 07:36:56.93	76.92	7.09	-50.0	-65.3	3.8	1.49e+00	0	42	104	0	71	21154
2026-01-05 07:36:57.93	76.79	7.13	-50.0	-65.3	3.8	1.49e+00	0	42	104	0	71	21201
2026-01-05 07:36:58.94	76.66	7.18	-50.0	-65.3	3.8	1.49e+00	0	42	104	0	71	21149
2026-01-05 07:36:59.94	76.53	7.22	-50.0	-65.3	3.8	1.49e+00	0	42	104	0	71	21243
2026-01-05 07:37:00.95	76.39	7.27	-50.0	-65.3	3.8	1.49e+00	0	42	104	0	71	21114
2026-01-05 07:37:01.95	76.26	7.32	-50.0	-65.2	3.8	1.49e+00	0	42	104	0	71	20985
2026-01-05 07:37:02.96	76.13	7.36	-50.0	-65.1	3.8	1.49e+00	0	42	104	0	71	20718
2026-01-05 07:37:03.96	75.99	7.41	-50.0	-64.9	3.8	1.49e+00	0	43	104	0	71	20296
2026-01-05 07:37:04.96	75.86	7.45	-50.0	-64.8	3.8	1.49e+00	0	42	104	0	71	20017
2026-01-05 07:37:05.97	75.72	7.50	-50.0	-64.8	3.8	1.49e+00	0	42	104	0	71	19946
2026-01-05 07:37:06.97	75.59	7.54	-50.0	-64.8	3.8	1.49e+00	0	42	104	0	71	19884
2026-01-05 07:37:07.97	75.45	7.59	-50.0	-64.9	3.8	1.49e+00	0	43	104	0	71	20220
2026-01-05 07:37:08.98	75.31	7.63	-50.0	-65.0	3.8	1.49e+00	0	42	104	0	71	20496
2026-01-05 07:37:09.98	75.18	7.68	-50.0	-65.1	3.8	1.49e+00	0	43	104	0	71	20691
2026-01-05 07:37:10.99	75.04	7.72	-50.0	-65.1	3.8	1.49e+00	0	43	104	0	71	20731
2026-01-05 07:37:11.99	74.90	7.77	-50.0	-65.1	3.8	1.49e+00	0	43	104	0	71	20733
2026-01-05 07:37:13.00	74.76	7.81	-50.0	-65.0	3.8	1.49e+00	0	43	104	0	71	20344
2026-01-05 07:37:14.00	74.62	7.86	-50.0	-64.7	3.8	1.49e+00	0	43	104	0	71	19752
2026-01-05 07:37:15.01	74.48	7.90	-50.0	-64.4	3.8	1.49e+00	0	43	104	0	71	18988
2026-01-05 07:37:16.01	74.34	7.95	-50.0	-64.3	3.8	1.49e+00	0	43	104	0	71	18781
2026-01-05 07:37:17.01	74.20	7.99	-50.0	-64.3	3.8	1.49e+00	0	43	104	0	71	18802
2026-01-05 07:37:18.02	74.06	8.04	-50.0	-64.5	3.8	1.49e+00	0	43	104	0	71	19342
2026-01-05 07:37:19.02	73.92	8.08	-50.0	-64.8	3.8	1.49e+00	0	43	104	0	71	19903
2026-01-05 07:37:20.03	73.78	8.13	-50.0	-65.1	3.8	1.49e+00	0	43	104	0	71	20602
2026-01-05 07:37:21.03	73.64	8.17	-50.0	-65.2	3.8	1.49e+00	0	43	104	0	71	20902
2026-01-05 07:37:22.03	73.50	8.22	-50.0	-65.1	3.8	1.49e+00	0	43	104	0	71	20771
2026-01-05 07:37:23.04	73.35	8.26	-50.0	-64.8	3.8	1.49e+00	0	43	104	0	71	20031
2026-01-05 07:37:24.04	73.21	8.30	-50.0	-64.2	3.8	1.49e+00	0	43	104	0	71	18665
2026-01-05 07:37:25.05	73.07	8.35	-49.9	-63.6	3.8	1.49e+00	0	43	104	0	71	17417
2026-01-05 07:37:26.05	72.92	8.39	-49.9	-63.5	3.8	1.49e+00	0	43	104	0	71	17180
2026-01-05 07:37:27.06	72.78	8.44	-49.9	-64.0	3.8	1.49e+00	0	43	104	0	71	18107
2026-01-05 07:37:28.06	72.63	8.48	-50.0	-64.6	3.8	1.49e+00	0	43	104	0	71	19513
2026-01-05 07:37:29.06	72.49	8.52	-49.9	-62.9	3.8	1.49e+00	0	43	104	0	71	15993
2026-01-05 07:37:30.07	72.34	8.57	-49.4	-58.4	5.8	7.66e-01	0	43	0	1048576	70	10163
2026-01-05 07:37:31.07	72.19	8.61	-48.4	-54.6	9.3	9.32e-02	0	43	0	2097152	68	7363
2026-01-05 07:37:32.08	72.05	8.65	-47.3	-52.0	11.9	5.50e-03	0	43	0	4194304	66	6079
2026-01-05 07:37:33.08	71.90	8.70	-46.2	-50.0	13.9	1.90e-05	0	43	0	6291456	64	5423
2026-01-05 07:37:34.09	71.75	8.74	-45.5	-48.9	15.1	0.00e+00	0	43	0	8388608	63	5062
2026-01-05 07:37:35.09	71.60	8.78	-45.1	-48.2	15.8	0.00e+00	0	43	0	10485760	62	4942
2026-01-05 07:37:36.10	71.46	8.83	-45.1	-48.2	15.8	0.00e+00	0	43	0	11534336	61	5234
2026-01-05 07:37:37.10	71.31	8.87	-45.8	-49.3	14.7	7.00e-07	0	43	0	13631488	62	5624
2026-01-05 07:37:38.10	71.16	8.91	-46.6	-50.7	13.2	1.50e-06	0	43	0	15728640	64	5917
2026-01-05 07:37:39.11	71.01	8.95	-47.7	-53.0	10.9	1.02e-03	0	43	0	17825792	66	6846
2026-01-05 07:37:40.11	70.86	9.00	-48.9	-56.1	7.9	3.01e-02	0	43	0	19922944	68	8720
2026-01-05 07:37:41.12	70.71	9.04	-49.5	-59.3	5.3	2.83e-01	0	43	0	20971520	69	11910
2026-01-05 07:37:42.12	70.56	9.08	-46.9	-51.2	12.8	1.15e-01	0	43	0	23068672	65	5856
2026-01-05 07:37:43.12	70.40	9.12	-49.5	-59.0	5.5	2.12e-01	0	43	0	25165824	69	11431
2026-01-05 07:37:44.12	70.25	9.16	-50.0	-63.6	3.8	1.25e+00	0	43	104	26214400	70	18398
2026-01-05 07:37:45.12	70.10	9.21	-47.6	-52.5	11.5	1.49e-01	0	43	0	27262976	66	6449
2026-01-05 07:37:46.12	69.95	9.25	-49.9	-62.5	4.0	1.42e+00	0	43	0	28311552	70	16167
2026-01-05 07:37:47.13	69.79	9.29	-47.7	-52.7	11.2	4.11e-02	0	43	0	29360128	67	6257
2026-01-05 07:37:48.19	69.63	9.33	-46.5	-50.5	13.5	2.01e-04	0	43	0	31457280	65	5415
2026-01-05 07:37:49.05	69.50	9.37	-45.7	-49.2	14.9	5.30e-06	0	43	0	32505856	63	5225
2026-01-05 07:37:50.20	69.32	9.41	-45.6	-49.0	15.1	0.00e+00	0	43	0	34603008	63	5106
2026-01-05 07:37:51.15	69.18	9.45	-45.7	-49.1	14.9	7.00e-07	0	43	0	36700160	63	5207
2026-01-05 07:37:52.15	69.02	9.49	-45.4	-48.9	15.1	7.00e-07	0	43	0	38797312	62	5361
2026-01-05 07:37:53.16	68.86	9.54	-45.5	-49.0	15.0	7.00e-07	0	43	0	40894464	62	5417
2026-01-05 07:37:54.16	68.71	9.58	-45.2	-48.5	15.6	0.00e+00	0	43	0	42991616	62	5123
2026-01-05 07:37:55.17	68.55	9.62	-45.1	-48.3	15.7	0.00e+00	0	43	0	44040192	62	5000
2026-01-05 07:37:56.17	68.39	9.66	-45.3	-48.6	15.4	0.00e+00	0	43	0	46137344	62	5167
2026-01-05 07:37:57.17	68.24	9.70	-45.3	-48.7	15.3	0.00e+00	0	43	0	48234496	62	5233
2026-01-05 07:37:58.17	68.08	9.74	-45.6	-49.1	14.9	0.00e+00	0	43	0	50331648	62	5511
2026-01-05 07:37:59.17	67.92	9.78	-45.9	-49.6	14.5	7.00e-07	0	43	0	52428800	62	5840
2026-01-05 07:38:00.17	67.76	9.82	-45.8	-49.5	14.5	1.50e-06	0	43	0	53477376	62	5731
2026-01-05 07:38:01.16	67.61	9.86	-45.6	-49.3	14.8	7.00e-07	0	43	0	55574528	62	5605
2026-01-05 07:38:02.18	67.44	9.90	-45.6	-49.2	14.8	0.00e+00	0	43	0	57671680	62	5566
2026-01-05 07:38:03.22	67.28	9.94	-45.5	-49.1	15.0	0.00e+00	0	43	0	59768832	62	5487
2026-01-05 07:38:04.26	67.11	9.98	-45.4	-49.0	15.1	0.00e+00	0	43	0	61865984	62	5413
2026-01-05 07:38:05.23	66.95	10.01	-45.3	-48.7	15.4	0.00e+00	0	43	0	62914560	62	5229
2026-01-05 07:38:06.23	66.79	10.05	-45.2	-48.6	15.5	0.00e+00	0	43	0	65011712	62	5179
2026-01-05 07:38:07.23	66.63	10.09	-45.2	-48.4	15.6	0.00e+00	0	43	0	67108864	62	5098
2026-01-05 07:38:08.23	66.47	10.13	-44.8	-47.9	16.1	0.00e+00	0	43	0	69206016	61	5094
2026-01-05 07:38:09.24	66.31	10.17	-44.9	-47.9	16.1	0.00e+00	0	43	0	71303168	61	5086
2026-01-05 07:38:10.24	66.14	10.21	-44.6	-47.5	16.5	0.00e+00	0	43	0	72351744	61	4858
2026-01-05 07:38:11.53	65.93	10.26	-44.6	-47.6	16.3	0.00e+00	0	43	0	75497472	61	4917
2026-01-05 07:38:12.24	65.82	10.28	-44.6	-47.6	16.4	0.00e+00	0	43	0	76546048	61	4911
2026-01-05 07:38:13.53	65.60	10.33	-44.7	-47.7	16.3	0.00e+00	0	43	0	78643200	61	4963
2026-01-05 07:38:14.24	65.49	10.36	-44.8	-47.9	16.2	0.00e+00	0	43	0	79691776	61	5050
2026-01-05 07:38:15.53	65.27	10.41	-44.9	-48.1	15.9	0.00e+00	0	43	0	82837504	61	5198
2026-01-05 07:38:16.25	65.16	10.43	-45.0	-48.2	15.9	0.00e+00	0	43	0	83886080	61	5224
2026-01-05 07:38:17.58	64.93	10.48	-44.8	-47.9	16.1	0.00e+00	0	43	0	85983232	61	5092
2026-01-05 07:38:18.29	64.82	10.51	-44.6	-47.7	16.3	0.00e+00	0	43	0	88080384	61	4959
2026-01-05 07:38:19.58	64.60	10.55	-44.8	-47.9	16.1	0.00e+00	0	43	0	90177536	61	5081
2026-01-05 07:38:20.30	64.48	10.58	-44.8	-48.0	16.1	0.00e+00	0	43	0	91226112	61	5102
2026-01-05 07:38:21.58	64.27	10.63	-44.5	-47.5	16.5	0.00e+00	0	43	0	94371840	61	4821
2026-01-05 07:38:22.70	64.08	10.67	-44.6	-47.5	16.5	0.00e+00	0	43	0	96468992	61	4857
2026-01-05 07:38:23.56	63.93	10.70	-44.5	-47.4	16.6	0.00e+00	0	43	0	97517568	61	4814
2026-01-05 07:38:24.70	63.74	10.74	-44.4	-47.2	16.7	0.00e+00	0	43	0	99614720	60	4983
2026-01-05 07:38:25.57	63.59	10.77	-44.4	-47.3	16.7	0.00e+00	0	43	0	101711872	60	4998
2026-01-05 07:38:26.71	63.40	10.81	-44.3	-47.2	16.8	0.00e+00	0	43	0	103809024	60	4932
2026-01-05 07:38:27.57	63.25	10.84	-44.5	-47.5	16.5	0.00e+00	0	43	0	104857600	60	5113
2026-01-05 07:38:28.71	63.06	10.88	-44.6	-47.6	16.4	0.00e+00	0	43	0	106954752	60	5198
2026-01-05 07:38:29.57	62.91	10.91	-44.7	-47.8	16.2	0.00e+00	0	43	0	109051904	60	5329
2026-01-05 07:38:30.72	62.72	10.95	-44.9	-48.2	15.9	0.00e+00	0	43	0	111149056	60	5539
2026-01-05 07:38:31.66	62.55	10.98	-44.9	-48.2	15.8	0.00e+00	0	43	0	113246208	60	5581
2026-01-05 07:38:32.66	62.38	11.01	-44.9	-48.2	15.9	0.00e+00	0	43	0	114294784	60	5543
2026-01-05 07:38:33.66	62.21	11.05	-45.0	-48.3	15.7	0.00e+00	0	43	0	116391936	60	5630
2026-01-05 07:38:34.67	62.04	11.08	-45.2	-48.5	15.5	0.00e+00	0	43	0	118489088	61	5456
2026-01-05 07:38:35.94	61.81	11.12	-45.1	-48.3	15.7	0.00e+00	0	43	0	120586240	61	5328
2026-01-05 07:38:36.72	61.68	11.15	-44.9	-48.1	15.9	0.00e+00	0	43	0	122683392	61	5211
2026-01-05 07:38:38.29	61.41	11.20	-44.9	-48.0	16.0	0.00e+00	0	43	0	124780544	61	5153
2026-01-05 07:38:38.88	61.30	11.22	-44.9	-48.1	16.0	0.00e+00	0	43	0	126877696	61	5168
2026-01-05 07:38:40.65	60.99	11.28	-45.1	-48.4	15.6	0.00e+00	0	43	0	130023424	61	5385
2026-01-05 07:38:41.22	60.89	11.30	-45.1	-48.5	15.6	0.00e+00	0	43	0	131072000	61	5411
2026-01-05 07:38:42.81	60.61	11.35	-45.3	-48.8	15.3	0.00e+00	0	43	0	134217728	61	5601
2026-01-05 07:38:43.38	60.51	11.36	-45.4	-48.8	15.3	0.00e+00	0	43	0	135266304	61	5644
2026-01-05 07:38:44.97	60.23	11.41	-45.5	-49.0	15.1	0.00e+00	0	43	0	137363456	61	5773
2026-01-05 07:38:45.56	60.13	11.43	-45.6	-49.2	14.9	0.00e+00	0	43	0	139460608	61	5884
2026-01-05 07:38:47.14	59.85	11.48	-45.4	-48.8	15.3	0.00e+00	0	43	0	141557760	62	5286
2026-01-05 07:38:47.77	59.73	11.50	-45.2	-48.4	15.7	0.00e+00	0	43	0	142606336	62	5070
2026-01-05 07:38:49.44	59.44	11.55	-44.7	-47.8	16.3	0.00e+00	0	43	0	145752064	61	4999
2026-01-05 07:38:50.02	59.33	11.57	-44.7	-47.7	16.3	0.00e+00	0	43	0	146800640	61	4975
2026-01-05 07:38:51.62	59.04	11.62	-44.6	-47.5	16.5	0.00e+00	0	43	0	149946368	60	5148
2026-01-05 07:38:52.21	58.94	11.63	-44.4	-47.3	16.7	0.00e+00	0	43	0	150994944	60	5019
2026-01-05 07:38:53.78	58.66	11.68	-44.2	-47.1	17.0	0.00e+00	0	43	0	154140672	60	4890
2026-01-05 07:38:54.37	58.55	11.70	-44.1	-46.9	17.1	0.00e+00	0	43	0	155189248	60	4788
2026-01-05 07:38:55.95	58.26	11.74	-43.9	-46.6	17.3	0.00e+00	0	43	0	158334976	59	4917
2026-01-05 07:38:56.57	58.15	11.76	-43.9	-46.5	17.4	0.00e+00	0	43	0	159383552	59	4870
2026-01-05 07:38:58.14	57.87	11.81	-44.0	-46.7	17.3	0.00e+00	0	43	0	162529280	59	4947
2026-01-05 07:38:58.73	57.76	11.82	-44.1	-46.9	17.1	0.00e+00	0	43	0	163577856	59	5064
2026-01-05 07:39:00.51	57.43	11.87	-44.2	-47.0	17.0	0.00e+00	0	43	0	166723584	59	5109
2026-01-05 07:39:01.09	57.33	11.89	-44.0	-46.7	17.2	0.00e+00	0	43	0	167772160	59	4982
2026-01-05 07:39:02.66	57.04	11.93	-44.2	-46.9	17.1	0.00e+00	0	43	0	170917888	59	5094
2026-01-05 07:39:03.31	56.92	11.95	-44.0	-46.7	17.3	0.00e+00	0	43	0	171966464	59	4962
2026-01-05 07:39:04.74	56.66	11.99	-44.0	-46.7	17.2	0.00e+00	0	43	0	175112192	59	4975
2026-01-05 07:39:05.45	56.53	12.00	-44.0	-46.8	17.2	0.00e+00	0	43	0	176160768	59	5001
2026-01-05 07:39:06.74	56.29	12.04	-44.1	-46.8	17.1	0.00e+00	0	43	0	178257920	59	5037
2026-01-05 07:39:07.46	56.16	12.06	-44.3	-47.2	16.9	0.00e+00	0	43	0	180355072	59	5224
2026-01-05 07:39:08.75	55.92	12.09	-44.6	-47.6	16.4	0.00e+00	0	43	0	182452224	59	5523
2026-01-05 07:39:09.48	55.78	12.11	-44.7	-47.7	16.4	0.00e+00	0	43	0	183500800	60	5257
2026-01-05 07:39:10.77	55.54	12.14	-44.8	-47.9	16.2	0.00e+00	0	43	0	186646528	60	5394
2026-01-05 07:39:11.58	55.39	12.16	-44.8	-47.8	16.2	0.00e+00	0	43	0	187695104	60	5338
2026-01-05 07:39:13.05	55.12	12.20	-44.9	-48.0	16.1	0.00e+00	0	43	0	190840832	60	5460
2026-01-05 07:39:13.76	54.98	12.21	-44.9	-48.0	16.1	0.00e+00	0	43	0	191889408	60	5441
2026-01-05 07:39:15.26	54.70	12.25	-45.0	-48.2	15.9	0.00e+00	0	43	0	195035136	60	5586
2026-01-05 07:39:15.97	54.57	12.27	-45.0	-48.3	15.8	0.00e+00	0	43	0	196083712	60	5599
2026-01-05 07:39:17.26	54.33	12.30	-45.1	-48.3	15.8	0.00e+00	0	43	0	198180864	61	5310
2026-01-05 07:39:17.98	54.19	12.31	-45.0	-48.2	16.0	0.00e+00	0	43	0	199229440	61	5225
2026-01-05 07:39:19.27	53.95	12.34	-45.0	-48.2	16.0	0.00e+00	0	43	0	202375168	61	5219
2026-01-05 07:39:19.98	53.81	12.36	-45.0	-48.2	15.9	0.00e+00	0	43	0	203423744	61	5258
2026-01-05 07:39:21.27	53.57	12.39	-45.0	-48.3	15.8	0.00e+00	0	43	0	205520896	61	5322
2026-01-05 07:39:21.99	53.43	12.40	-45.0	-48.3	15.8	0.00e+00	0	43	0	207618048	61	5310
2026-01-05 07:39:23.28	53.19	12.43	-45.0	-48.1	16.0	0.00e+00	0	43	0	209715200	61	5218
2026-01-05 07:39:24.00	53.05	12.44	-44.9	-48.1	16.0	0.00e+00	0	43	0	210763776	61	5176
2026-01-05 07:39:25.29	52.81	12.47	-44.7	-47.8	16.3	0.00e+00	0	43	0	213909504	61	5021
2026-01-05 07:39:26.16	52.64	12.49	-44.7	-47.7	16.4	0.00e+00	0	43	0	214958080	61	4955
2026-01-05 07:39:27.62	52.36	12.52	-44.7	-47.7	16.4	0.00e+00	0	43	0	218103808	61	4960
2026-01-05 07:39:28.34	52.22	12.53	-44.7	-47.7	16.4	0.00e+00	0	43	0	219152384	61	4958
2026-01-05 07:39:29.84	51.94	12.56	-44.6	-47.6	16.5	0.00e+00	0	43	0	222298112	61	4876
2026-01-05 07:39:30.55	51.80	12.58	-44.4	-47.4	16.7	0.00e+00	0	43	0	223346688	60	5044
2026-01-05 07:39:31.84	51.55	12.60	-44.2	-47.1	16.9	0.00e+00	0	43	0	225443840	60	4900
2026-01-05 07:39:32.56	51.41	12.61	-44.2	-47.1	17.0	0.00e+00	0	43	0	227540992	60	4891
2026-01-05 07:39:33.85	51.17	12.64	-44.5	-47.4	16.7	0.00e+00	0	43	0	229638144	60	5077
2026-01-05 07:39:34.56	51.03	12.65	-44.4	-47.3	16.7	0.00e+00	0	43	0	230686720	60	5034
2026-01-05 07:39:35.86	50.78	12.67	-44.3	-47.2	16.8	0.00e+00	0	43	0	232783872	60	4968
2026-01-05 07:39:36.57	50.64	12.69	-44.4	-47.3	16.8	0.00e+00	0	43	0	234881024	60	5018
2026-01-05 07:39:37.86	50.39	12.71	-44.3	-47.2	16.8	0.00e+00	0	43	0	236978176	60	4953
2026-01-05 07:39:38.58	50.25	12.72	-44.2	-47.0	17.1	0.00e+00	0	43	0	238026752	60	4820
2026-01-05 07:39:39.87	50.00	12.74	-44.5	-47.4	16.6	0.00e+00	0	43	0	241172480	60	5091
2026-01-05 07:39:40.58	49.86	12.75	-44.5	-47.4	16.6	0.00e+00	0	43	0	242221056	60	5091
2026-01-05 07:39:42.26	49.54	12.78	-44.8	-47.8	16.3	0.00e+00	0	43	0	245366784	60	5324
2026-01-05 07:39:42.83	49.43	12.79	-44.7	-47.8	16.3	0.00e+00	0	43	0	246415360	60	5307
2026-01-05 07:39:44.42	49.12	12.81	-44.6	-47.6	16.5	0.00e+00	0	43	0	249561088	60	5176
2026-01-05 07:39:45.00	49.00	12.82	-44.6	-47.6	16.5	0.00e+00	0	43	0	250609664	60	5179
2026-01-05 07:39:46.59	48.69	12.84	-44.5	-47.5	16.6	0.00e+00	0	43	0	253755392	60	5142
2026-01-05 07:39:47.16	48.58	12.85	-44.4	-47.3	16.7	0.00e+00	0	43	0	254803968	60	5006
2026-01-05 07:39:48.87	48.25	12.88	-44.3	-47.1	16.9	0.00e+00	0	43	0	257949696	60	4926
2026-01-05 07:39:49.44	48.14	12.88	-44.3	-47.2	16.9	0.00e+00	0	43	0	258998272	60	4954
2026-01-05 07:39:51.05	47.82	12.91	-44.4	-47.3	16.8	0.00e+00	0	43	0	262144000	60	4986
2026-01-05 07:39:51.63	47.71	12.91	-44.4	-47.3	16.8	0.00e+00	0	43	0	263192576	60	5007
2026-01-05 07:39:53.21	47.40	12.93	-44.4	-47.4	16.7	0.00e+00	0	43	0	265289728	60	5044
2026-01-05 07:39:53.79	47.28	12.94	-44.5	-47.4	16.6	0.00e+00	0	43	0	266338304	60	5098
2026-01-05 07:39:55.39	46.97	12.96	-44.6	-47.6	16.5	0.00e+00	0	43	0	269484032	60	5185
2026-01-05 07:39:55.98	46.85	12.96	-44.6	-47.6	16.5	0.00e+00	0	43	0	270532608	60	5198
2026-01-05 07:39:57.56	46.54	12.98	-44.6	-47.6	16.5	0.00e+00	0	43	0	273678336	60	5184
2026-01-05 07:39:58.17	46.42	12.99	-44.6	-47.6	16.4	0.00e+00	0	43	0	274726912	60	5212
2026-01-05 07:39:59.75	46.11	13.00	-44.3	-47.3	16.8	0.00e+00	0	43	0	277872640	60	5015
2026-01-05 07:40:00.34	45.99	13.01	-44.4	-47.3	16.8	0.00e+00	0	43	0	278921216	60	5023
2026-01-05 07:40:01.92	45.68	13.03	-44.3	-47.2	16.9	0.00e+00	0	43	0	282066944	60	4954
2026-01-05 07:40:02.51	45.56	13.03	-44.3	-47.3	16.8	0.00e+00	0	43	0	283115520	60	5012
2026-01-05 07:40:04.08	45.25	13.04	-44.1	-47.0	17.1	0.00e+00	0	43	0	286261248	60	4830
2026-01-05 07:40:05.10	45.05	13.05	-44.1	-46.9	17.1	0.00e+00	0	43	0	288358400	59	5092
2026-01-05 07:40:06.10	44.85	13.06	-43.9	-46.6	17.3	0.00e+00	0	43	0	289406976	59	4925
2026-01-05 07:40:07.10	44.66	13.07	-43.9	-46.7	17.3	0.00e+00	0	43	0	291504128	59	4951
2026-01-05 07:40:08.11	44.45	13.08	-44.1	-46.9	17.1	0.00e+00	0	43	0	293601280	59	5048
2026-01-05 07:40:09.11	44.26	13.08	-44.0	-46.8	17.2	0.00e+00	0	43	0	295698432	59	5025
2026-01-05 07:40:10.16	44.05	13.09	-44.1	-46.9	17.1	0.00e+00	0	43	0	297795584	59	5091
2026-01-05 07:40:11.10	43.86	13.10	-44.0	-46.8	17.2	0.00e+00	0	43	0	298844160	59	5013
2026-01-05 07:40:12.10	43.66	13.10	-44.1	-46.9	17.1	0.00e+00	0	43	0	300941312	59	5080
2026-01-05 07:40:13.10	43.46	13.11	-44.1	-46.9	17.1	0.00e+00	0	43	0	303038464	59	5064
2026-01-05 07:40:14.10	43.27	13.11	-44.1	-46.9	17.1	0.00e+00	0	43	0	305135616	59	5081
2026-01-05 07:40:15.11	43.06	13.12	-44.1	-47.0	17.1	0.00e+00	0	43	0	307232768	59	5104
2026-01-05 07:40:16.37	42.81	13.12	-44.3	-47.2	16.8	0.00e+00	0	43	0	309329920	59	5249
2026-01-05 07:40:17.11	42.67	13.13	-44.4	-47.3	16.7	0.00e+00	0	43	0	310378496	59	5308
2026-01-05 07:40:18.75	42.34	13.13	-44.4	-47.3	16.7	0.00e+00	0	43	0	313524224	59	5306
2026-01-05 07:40:19.32	42.23	13.14	-44.3	-47.2	16.8	0.00e+00	0	43	0	314572800	59	5222
2026-01-05 07:40:20.90	41.91	13.14	-44.0	-46.7	17.3	0.00e+00	0	43	0	317718528	59	4956
2026-01-05 07:40:21.52	41.79	13.14	-43.8	-46.5	17.5	0.00e+00	0	43	0	318767104	59	4822
2026-01-05 07:40:23.09	41.48	13.15	-43.8	-46.4	17.5	0.00e+00	0	43	0	321912832	59	4813
2026-01-05 07:40:23.76	41.34	13.15	-43.8	-46.4	17.5	0.00e+00	0	43	0	322961408	59	4808
2026-01-05 07:40:25.19	41.06	13.15	-43.9	-46.6	17.3	0.00e+00	0	43	0	326107136	59	4926
2026-01-05 07:40:25.99	40.90	13.15	-43.9	-46.7	17.2	0.00e+00	0	43	0	327155712	59	4980
2026-01-05 07:40:27.14	40.67	13.15	-44.1	-47.0	17.0	0.00e+00	0	43	0	329252864	59	5121
2026-01-05 07:40:28.00	40.50	13.15	-44.1	-47.0	17.0	0.00e+00	0	43	0	331350016	59	5144
2026-01-05 07:40:29.14	40.27	13.15	-44.3	-47.2	16.8	0.00e+00	0	43	0	333447168	59	5253
2026-01-05 07:40:30.00	40.10	13.15	-44.3	-47.2	16.7	0.00e+00	0	43	0	334495744	59	5266
2026-01-05 07:40:31.15	39.87	13.15	-44.4	-47.4	16.7	0.00e+00	0	43	0	336592896	59	5345
2026-01-05 07:40:32.36	39.63	13.15	-44.3	-47.3	16.7	0.00e+00	0	43	0	338690048	59	5303
2026-01-05 07:40:33.22	39.46	13.15	-44.3	-47.3	16.7	0.00e+00	0	43	0	340787200	59	5285
2026-01-05 07:40:34.37	39.23	13.15	-44.5	-47.5	16.5	0.00e+00	0	43	0	342884352	59	5439
2026-01-05 07:40:35.22	39.06	13.15	-44.4	-47.4	16.6	0.00e+00	0	43	0	344981504	59	5355
2026-01-05 07:40:36.37	38.83	13.14	-44.4	-47.5	16.5	0.00e+00	0	43	0	347078656	59	5414
2026-01-05 07:40:37.23	38.66	13.14	-44.4	-47.5	16.5	0.00e+00	0	43	0	348127232	59	5438
2026-01-05 07:40:38.37	38.43	13.14	-44.6	-47.7	16.2	0.00e+00	0	43	0	350224384	59	5592
2026-01-05 07:40:39.24	38.26	13.14	-44.6	-47.9	16.1	0.00e+00	0	43	0	352321536	60	5384
2026-01-05 07:40:40.38	38.03	13.13	-44.6	-47.9	16.1	0.00e+00	0	43	0	354418688	60	5400
2026-01-05 07:40:41.24	37.86	13.13	-44.6	-48.0	16.1	0.00e+00	0	43	0	355467264	60	5412
2026-01-05 07:40:42.38	37.63	13.12	-44.5	-47.8	16.2	0.00e+00	0	43	0	357564416	60	5313
2026-01-05 07:40:43.24	37.46	13.12	-44.4	-47.6	16.4	0.00e+00	0	43	0	359661568	60	5179
2026-01-05 07:40:44.39	37.23	13.11	-44.1	-47.2	16.8	0.00e+00	0	43	0	361758720	60	4950
2026-01-05 07:40:45.25	37.06	13.11	-44.2	-47.3	16.8	0.00e+00	0	43	0	362807296	60	4988
2026-01-05 07:40:46.40	36.83	13.10	-44.0	-46.9	17.0	0.00e+00	0	43	0	365953024	59	5083
2026-01-05 07:40:47.26	36.66	13.10	-44.0	-46.9	17.0	0.00e+00	0	43	0	367001600	59	5079
2026-01-05 07:40:48.71	36.37	13.09	-44.1	-47.1	16.9	0.00e+00	0	43	0	370147328	59	5179
2026-01-05 07:40:49.42	36.23	13.08	-44.1	-47.1	16.9	0.00e+00	0	43	0	371195904	59	5182
2026-01-05 07:40:50.71	35.98	13.07	-44.2	-47.4	16.6	0.00e+00	0	43	0	373293056	59	5342
2026-01-05 07:40:51.43	35.84	13.07	-44.4	-47.6	16.4	0.00e+00	0	43	0	375390208	59	5478
2026-01-05 07:40:52.71	35.58	13.06	-44.3	-47.5	16.5	0.00e+00	0	43	0	377487360	59	5415
2026-01-05 07:40:53.43	35.44	13.05	-44.3	-47.5	16.6	0.00e+00	0	43	0	378535936	59	5415
2026-01-05 07:40:54.72	35.18	13.04	-44.3	-47.4	16.7	0.00e+00	0	43	0	380633088	59	5350
2026-01-05 07:40:55.53	35.02	13.04	-44.3	-47.3	16.7	0.00e+00	0	43	0	382730240	59	5318
2026-01-05 07:40:56.68	34.80	13.02	-44.5	-47.4	16.6	0.00e+00	0	43	0	384827392	59	5388
2026-01-05 07:40:57.53	34.63	13.02	-44.5	-47.4	16.7	0.00e+00	0	43	0	385875968	59	5394
2026-01-05 07:40:58.68	34.40	13.01	-44.5	-47.5	16.6	0.00e+00	0	43	0	389021696	59	5418
2026-01-05 07:40:59.81	34.18	12.99	-44.4	-47.4	16.7	0.00e+00	0	43	0	391118848	59	5347
2026-01-05 07:41:00.84	33.98	12.98	-44.5	-47.4	16.6	0.00e+00	0	43	0	392167424	59	5397
2026-01-05 07:41:01.84	33.78	12.97	-44.4	-47.3	16.8	0.00e+00	0	43	0	394264576	59	5287
2026-01-05 07:41:02.85	33.58	12.96	-44.4	-47.3	16.7	0.00e+00	0	43	0	396361728	59	5336
2026-01-05 07:41:03.85	33.38	12.95	-44.4	-47.3	16.8	0.00e+00	0	43	0	398458880	59	5305
2026-01-05 07:41:04.85	33.19	12.94	-44.4	-47.3	16.8	0.00e+00	0	43	0	400556032	59	5329
2026-01-05 07:41:05.85	32.99	12.93	-44.4	-47.3	16.8	0.00e+00	0	43	0	401604608	59	5308
2026-01-05 07:41:06.85	32.80	12.91	-44.3	-47.2	16.8	0.00e+00	0	43	0	403701760	59	5262
2026-01-05 07:41:07.85	32.60	12.90	-44.4	-47.3	16.8	0.00e+00	0	43	0	405798912	59	5313
2026-01-05 07:41:08.85	32.40	12.89	-44.3	-47.2	16.8	0.00e+00	0	43	0	407896064	59	5249
2026-01-05 07:41:09.86	32.21	12.87	-44.3	-47.3	16.8	0.00e+00	0	43	0	408944640	59	5303
2026-01-05 07:41:10.95	31.99	12.86	-44.5	-47.5	16.6	0.00e+00	0	43	0	411041792	59	5429
2026-01-05 07:41:11.84	31.82	12.85	-44.5	-47.5	16.6	0.00e+00	0	43	0	413138944	59	5414
2026-01-05 07:41:12.99	31.60	12.83	-44.7	-47.8	16.4	0.00e+00	0	43	0	415236096	60	5312
2026-01-05 07:41:13.85	31.43	12.82	-44.7	-47.7	16.4	0.00e+00	0	43	0	417333248	60	5271
2026-01-05 07:41:15.00	31.20	12.80	-44.6	-47.6	16.6	0.00e+00	0	43	0	419430400	60	5180
2026-01-05 07:41:15.86	31.04	12.79	-44.5	-47.5	16.6	0.00e+00	0	43	0	420478976	60	5129
2026-01-05 07:41:17.00	30.82	12.77	-44.6	-47.7	16.5	0.00e+00	0	43	0	422576128	60	5225
2026-01-05 07:41:17.86	30.65	12.76	-44.4	-47.4	16.8	0.00e+00	0	43	0	424673280	60	5057
2026-01-05 07:41:19.00	30.43	12.74	-44.5	-47.5	16.7	0.00e+00	0	43	0	426770432	60	5116
2026-01-05 07:41:19.86	30.26	12.72	-44.6	-47.6	16.6	0.00e+00	0	43	0	427819008	60	5165
2026-01-05 07:41:21.01	30.04	12.70	-44.5	-47.4	16.7	0.00e+00	0	43	0	429916160	60	5093
2026-01-05 07:41:21.87	29.87	12.69	-44.4	-47.3	16.8	0.00e+00	0	43	0	432013312	60	5032
2026-01-05 07:41:23.11	29.63	12.67	-44.3	-47.1	17.0	0.00e+00	0	43	0	434110464	60	4905
2026-01-05 07:41:23.96	29.47	12.65	-44.2	-47.0	17.1	0.00e+00	0	43	0	436207616	60	4868
2026-01-05 07:41:25.11	29.25	12.63	-43.9	-46.7	17.3	0.00e+00	0	43	0	438304768	59	4958
2026-01-05 07:41:25.97	29.08	12.62	-44.0	-46.8	17.2	0.00e+00	0	43	0	439353344	59	5023
2026-01-05 07:41:27.11	28.87	12.59	-44.2	-47.1	16.9	0.00e+00	0	43	0	441450496	59	5209
2026-01-05 07:41:27.97	28.70	12.58	-44.2	-47.1	16.9	0.00e+00	0	43	0	443547648	59	5211
2026-01-05 07:41:29.12	28.48	12.56	-44.4	-47.4	16.8	0.00e+00	0	43	0	445644800	59	5347
2026-01-05 07:41:29.98	28.32	12.54	-44.4	-47.4	16.7	0.00e+00	0	43	0	446693376	59	5368
2026-01-05 07:41:31.13	28.10	12.52	-44.3	-47.3	16.8	0.00e+00	0	43	0	449839104	59	5284
2026-01-05 07:41:31.99	27.93	12.50	-44.2	-47.1	17.1	0.00e+00	0	43	0	450887680	59	5160
2026-01-05 07:41:33.13	27.72	12.47	-44.3	-47.2	16.9	0.00e+00	0	43	0	452984832	59	5232
2026-01-05 07:41:33.99	27.55	12.46	-44.0	-46.8	17.3	0.00e+00	0	43	0	455081984	59	5008
2026-01-05 07:41:35.13	27.34	12.43	-43.9	-46.6	17.4	0.00e+00	0	43	0	457179136	59	4922
2026-01-05 07:41:36.00	27.17	12.41	-44.1	-47.0	17.1	0.00e+00	0	43	0	458227712	59	5121
2026-01-05 07:41:37.14	26.96	12.39	-44.3	-47.2	16.9	0.00e+00	0	43	0	460324864	59	5226
2026-01-05 07:41:38.00	26.79	12.37	-44.4	-47.4	16.8	0.00e+00	0	43	0	462422016	59	5346
2026-01-05 07:41:39.15	26.58	12.34	-44.6	-47.6	16.5	0.00e+00	0	43	0	464519168	59	5494
2026-01-05 07:41:40.01	26.42	12.33	-44.5	-47.6	16.5	0.00e+00	0	43	0	465567744	59	5493
2026-01-05 07:41:41.15	26.20	12.30	-44.4	-47.5	16.6	0.00e+00	0	43	0	467664896	59	5453
2026-01-05 07:41:42.01	26.04	12.28	-44.4	-47.5	16.6	0.00e+00	0	43	0	469762048	59	5416
2026-01-05 07:41:43.15	25.83	12.25	-44.4	-47.6	16.5	0.00e+00	0	43	0	471859200	59	5510
2026-01-05 07:41:44.11	25.65	12.23	-44.4	-47.7	16.4	0.00e+00	0	43	0	473956352	59	5546
2026-01-05 07:41:45.29	25.43	12.20	-44.3	-47.5	16.6	0.00e+00	0	43	0	476053504	59	5440
2026-01-05 07:41:46.15	25.27	12.18	-44.3	-47.5	16.6	0.00e+00	0	43	0	477102080	59	5438
2026-01-05 07:41:47.50	25.01	12.15	-44.2	-47.4	16.7	0.00e+00	0	43	0	480247808	59	5349
2026-01-05 07:41:48.21	24.88	12.13	-44.4	-47.6	16.6	0.00e+00	0	43	0	481296384	59	5472
2026-01-05 07:41:49.50	24.64	12.10	-44.3	-47.4	16.7	0.00e+00	0	43	0	483393536	59	5397
2026-01-05 07:41:50.22	24.51	12.08	-44.4	-47.5	16.6	0.00e+00	0	43	0	485490688	59	5418
2026-01-05 07:41:51.51	24.27	12.05	-44.3	-47.4	16.7	0.00e+00	0	43	0	487587840	59	5349
2026-01-05 07:41:52.22	24.14	12.03	-44.3	-47.3	16.8	0.00e+00	0	43	0	488636416	59	5319
2026-01-05 07:41:53.51	23.90	11.99	-44.3	-47.2	16.8	0.00e+00	0	43	0	491782144	59	5254
2026-01-05 07:41:54.28	23.76	11.97	-44.2	-47.1	17.1	0.00e+00	0	43	0	492830720	59	5190
2026-01-05 07:41:55.57	23.53	11.94	-44.1	-46.9	17.2	0.00e+00	0	43	0	494927872	59	5062
2026-01-05 07:41:56.28	23.40	11.92	-44.2	-47.0	17.1	0.00e+00	0	43	0	497025024	59	5115
2026-01-05 07:41:57.57	23.16	11.89	-44.2	-47.0	17.1	0.00e+00	0	43	0	499122176	59	5121
2026-01-05 07:41:58.29	23.03	11.87	-44.3	-47.1	17.0	0.00e+00	0	43	0	500170752	59	5168
2026-01-05 07:41:59.58	22.79	11.83	-44.1	-46.9	17.2	0.00e+00	0	43	0	502267904	59	5053
2026-01-05 07:42:00.29	22.67	11.81	-44.1	-46.9	17.2	0.00e+00	0	43	0	504365056	59	5053
2026-01-05 07:42:01.58	22.43	11.77	-44.1	-46.9	17.1	0.00e+00	0	43	0	506462208	59	5096
2026-01-05 07:42:02.54	22.26	11.75	-44.2	-47.1	17.0	0.00e+00	0	43	0	508559360	59	5161
2026-01-05 07:42:03.54	22.08	11.72	-44.1	-47.0	17.1	0.00e+00	0	43	0	509607936	59	5122
2026-01-05 07:42:04.54	21.90	11.69	-44.0	-46.9	17.1	0.00e+00	0	43	0	511705088	59	5092
2026-01-05 07:42:05.55	21.72	11.66	-44.0	-47.1	17.0	0.00e+00	0	43	0	513802240	59	5169
2026-01-05 07:42:06.55	21.54	11.63	-43.8	-47.0	17.1	0.00e+00	0	43	0	515899392	59	5115
2026-01-05 07:42:07.55	21.36	11.60	-43.7	-46.9	17.3	0.00e+00	0	43	0	517996544	59	5049
2026-01-05 07:42:08.55	21.18	11.57	-43.6	-46.8	17.3	0.00e+00	0	43	0	519045120	59	4984
2026-01-05 07:42:09.56	21.00	11.54	-43.6	-46.8	17.2	0.00e+00	0	43	0	521142272	59	5035
2026-01-05 07:42:10.56	20.82	11.51	-43.5	-46.7	17.4	0.00e+00	0	43	0	523239424	59	4930
2026-01-05 07:42:11.56	20.64	11.48	-43.4	-46.6	17.5	0.00e+00	0	43	0	525336576	58	5164
2026-01-05 07:42:12.57	20.46	11.45	-43.5	-46.7	17.4	0.00e+00	0	43	0	527433728	58	5231
2026-01-05 07:42:13.57	20.29	11.42	-43.6	-46.8	17.2	0.00e+00	0	43	0	528482304	58	5312
2026-01-05 07:42:14.57	20.11	11.39	-43.6	-46.8	17.2	0.00e+00	0	43	0	530579456	58	5326
2026-01-05 07:42:15.57	19.93	11.35	-43.8	-47.0	17.0	0.00e+00	0	43	0	532676608	58	5430
2026-01-05 07:42:16.58	19.76	11.32	-44.1	-47.4	16.7	0.00e+00	0	43	0	534773760	58	5692
2026-01-05 07:42:17.58	19.58	11.29	-44.3	-47.5	16.6	0.00e+00	0	43	0	536870912	59	5453
2026-01-05 07:42:18.58	19.41	11.26	-44.5	-47.8	16.3	0.00e+00	0	43	0	537919488	59	5617
2026-01-05 07:42:19.58	19.23	11.23	-44.5	-47.8	16.4	0.00e+00	0	43	0	540016640	59	5606
2026-01-05 07:42:20.59	19.06	11.19	-44.7	-48.0	16.1	0.00e+00	0	43	0	542113792	59	5758
2026-01-05 07:42:21.59	18.88	11.16	-44.5	-47.9	16.3	0.00e+00	0	43	0	544210944	60	5374
2026-01-05 07:42:22.60	18.71	11.13	-44.5	-47.9	16.3	0.00e+00	0	43	0	546308096	60	5362
2026-01-05 07:42:23.60	18.54	11.09	-44.7	-48.0	16.2	0.00e+00	0	43	0	547356672	60	5454
2026-01-05 07:42:24.60	18.36	11.06	-44.7	-47.9	16.2	0.00e+00	0	43	0	549453824	60	5401
2026-01-05 07:42:25.60	18.19	11.03	-44.6	-47.8	16.3	0.00e+00	0	43	0	551550976	60	5318
2026-01-05 07:42:26.60	18.02	10.99	-44.6	-47.7	16.4	0.00e+00	0	43	0	553648128	60	5262
2026-01-05 07:42:27.70	17.83	10.95	-44.8	-47.9	16.2	0.00e+00	0	43	0	555745280	60	5386
2026-01-05 07:42:28.56	17.68	10.93	-44.7	-47.8	16.4	0.00e+00	0	43	0	556793856	60	5320
2026-01-05 07:42:29.71	17.49	10.89	-44.7	-47.7	16.4	0.00e+00	0	42	0	558891008	60	5279
2026-01-05 07:42:30.64	17.33	10.85	-44.8	-47.9	16.3	0.00e+00	0	43	0	560988160	60	5390
2026-01-05 07:42:31.81	17.13	10.81	-44.6	-47.8	16.3	0.00e+00	0	43	0	563085312	60	5329
2026-01-05 07:42:32.67	16.99	10.78	-44.6	-47.8	16.3	0.00e+00	0	43	0	565182464	60	5318
2026-01-05 07:42:34.02	16.76	10.74	-44.6	-47.9	16.2	0.00e+00	0	43	0	567279616	60	5386
2026-01-05 07:42:34.74	16.64	10.71	-44.7	-48.1	16.0	0.00e+00	0	43	0	568328192	60	5510
2026-01-05 07:42:36.02	16.42	10.66	-44.6	-48.1	16.1	0.00e+00	0	43	0	571473920	60	5507
2026-01-05 07:42:36.74	16.30	10.64	-44.5	-48.0	16.2	0.00e+00	0	43	0	572522496	60	5419
2026-01-05 07:42:38.03	16.09	10.59	-44.5	-48.0	16.2	0.00e+00	0	43	0	574619648	60	5413
2026-01-05 07:42:38.74	15.97	10.57	-44.5	-47.9	16.2	0.00e+00	0	43	0	575668224	60	5394
2026-01-05 07:42:40.04	15.75	10.52	-44.4	-47.9	16.3	0.00e+00	0	43	0	578813952	60	5391
2026-01-05 07:42:40.75	15.63	10.49	-44.5	-48.1	16.1	0.00e+00	0	43	0	579862528	60	5506
2026-01-05 07:42:42.04	15.42	10.45	-44.5	-48.3	15.9	0.00e+00	0	43	0	581959680	60	5599
2026-01-05 07:42:42.75	15.30	10.42	-44.5	-48.3	15.9	0.00e+00	0	43	0	584056832	60	5641
2026-01-05 07:42:44.04	15.09	10.37	-44.7	-48.7	15.5	0.00e+00	0	43	0	586153984	60	5898
2026-01-05 07:42:44.76	14.97	10.34	-44.8	-48.9	15.3	0.00e+00	0	43	0	587202560	60	6009
2026-01-05 07:42:46.13	14.75	10.29	-45.0	-49.0	15.2	0.00e+00	0	43	0	590348288	60	6073
2026-01-05 07:42:46.84	14.63	10.27	-45.0	-49.0	15.2	0.00e+00	0	43	0	591396864	60	6090
2026-01-05 07:42:48.20	14.41	10.22	-44.9	-48.6	15.5	0.00e+00	0	43	0	593494016	60	5839
2026-01-05 07:42:48.92	14.30	10.19	-44.8	-48.3	15.8	0.00e+00	0	43	0	595591168	60	5629
2026-01-05 07:42:50.29	14.07	10.14	-44.8	-48.1	16.1	0.00e+00	0	43	0	597688320	60	5499
2026-01-05 07:42:51.00	13.96	10.11	-44.8	-48.1	16.0	0.00e+00	0	43	0	598736896	60	5519
2026-01-05 07:42:52.29	13.75	10.06	-44.9	-48.2	16.1	0.00e+00	0	43	0	601882624	60	5530
2026-01-05 07:42:53.01	13.64	10.03	-44.9	-48.3	15.9	0.00e+00	0	43	0	602931200	60	5597
2026-01-05 07:42:54.30	13.43	9.98	-45.1	-48.6	15.5	0.00e+00	0	43	0	605028352	60	5815
2026-01-05 07:42:55.01	13.32	9.95	-45.3	-48.8	15.3	0.00e+00	0	43	0	607125504	61	5655
2026-01-05 07:42:56.30	13.11	9.90	-45.5	-49.3	14.9	0.00e+00	0	43	0	609222656	61	5949
2026-01-05 07:42:57.02	13.00	9.87	-45.8	-49.7	14.4	7.00e-07	0	43	0	610271232	62	5914
2026-01-05 07:42:58.31	12.79	9.82	-45.8	-49.8	14.4	7.00e-07	0	43	0	612368384	62	5975
2026-01-05 07:42:59.02	12.68	9.80	-45.9	-50.2	14.0	2.20e-06	0	43	0	614465536	62	6262
2026-01-05 07:43:00.31	12.48	9.74	-46.0	-50.4	13.9	7.60e-06	0	43	0	616562688	62	6368
2026-01-05 07:43:01.03	12.36	9.72	-45.8	-50.1	14.1	3.00e-06	0	43	0	617611264	62	6153
2026-01-05 07:43:02.32	12.16	9.66	-45.8	-50.3	14.0	1.50e-06	0	43	0	620756992	62	6278
2026-01-05 07:43:03.03	12.05	9.64	-45.6	-50.0	14.2	2.20e-06	0	43	0	621805568	62	6099
2026-01-05 07:43:04.32	11.85	9.58	-45.3	-49.6	14.6	0.00e+00	0	43	0	623902720	62	5809
2026-01-05 07:43:05.04	11.74	9.56	-45.1	-49.4	14.8	0.00e+00	0	43	0	624951296	62	5699
2026-01-05 07:43:06.33	11.54	9.50	-45.0	-49.3	14.7	0.00e+00	0	43	0	628097024	61	5981
2026-01-05 07:43:07.05	11.43	9.47	-44.9	-49.2	14.9	7.00e-07	0	43	0	629145600	61	5912
2026-01-05 07:43:08.33	11.23	9.42	-44.8	-49.3	14.9	0.00e+00	0	43	0	631242752	61	5981
2026-01-05 07:43:09.05	11.12	9.39	-45.0	-49.8	14.3	0.00e+00	0	43	0	633339904	61	6329
2026-01-05 07:43:10.34	10.92	9.34	-45.1	-50.3	13.8	0.00e+00	0	43	0	635437056	61	6708
2026-01-05 07:43:11.05	10.82	9.31	-45.1	-50.6	13.5	5.30e-06	0	43	0	636485632	61	6959
2026-01-05 07:43:12.34	10.62	9.26	-45.2	-51.3	12.9	2.67e-05	0	43	0	639631360	61	7474
2026-01-05 07:43:13.09	10.51	9.23	-45.1	-51.5	12.7	3.20e-05	0	43	0	640679936	61	7658
2026-01-05 07:43:14.70	10.26	9.16	-45.3	-52.3	11.8	3.91e-04	0	43	0	643825664	61	8438
2026-01-05 07:43:15.27	10.18	9.14	-45.3	-52.5	11.7	7.45e-04	0	43	0	644874240	61	8628
2026-01-05 07:43:17.05	9.91	9.06	-45.0	-51.7	12.4	1.65e-04	0	43	0	648019968	61	7862
2026-01-05 07:43:17.63	9.82	9.04	-45.0	-51.7	12.4	1.13e-04	0	43	0	649068544	61	7882
2026-01-05 07:43:19.21	9.59	8.97	-47.6	-64.5	3.8	8.68e-03	0	43	104	651165696	65	27304
2026-01-05 07:43:19.80	9.50	8.95	-49.5	-65.7	3.8	1.49e+00	0	43	104	651165696	69	24798
2026-01-05 07:43:21.38	9.26	8.88	-49.4	-65.9	3.8	1.49e+00	0	43	104	651165696	69	25447
2026-01-05 07:43:21.95	9.18	8.85	-50.3	-66.0	3.8	1.49e+00	0	43	104	651165696	71	22935
2026-01-05 07:43:23.54	8.95	8.79	-50.4	-66.0	3.8	1.49e+00	0	43	104	651165696	72	21530
2026-01-05 07:43:24.12	8.86	8.76	-50.2	-66.0	3.8	1.49e+00	0	43	104	651165696	72	21628
2026-01-05 07:43:25.70	8.63	8.69	-50.4	-66.1	3.8	1.49e+00	0	43	104	651165696	72	21794
2026-01-05 07:43:26.28	8.54	8.67	-50.8	-66.1	3.8	1.49e+00	0	43	104	651165696	72	21802
2026-01-05 07:43:27.94	8.30	8.60	-50.2	-66.1	3.8	1.49e+00	0	43	104	651165696	72	21856
2026-01-05 07:43:28.52	8.22	8.57	-50.7	-66.1	3.8	1.49e+00	0	43	104	651165696	72	21938
2026-01-05 07:43:30.10	7.99	8.50	-50.8	-66.2	3.8	1.49e+00	0	43	104	651165696	72	22093
2026-01-05 07:43:30.67	7.91	8.48	-50.9	-66.1	3.8	1.49e+00	0	42	104	651165696	72	21978
2026-01-05 07:43:32.26	7.68	8.41	-50.8	-66.1	3.8	1.49e+00	0	43	104	651165696	72	21995
2026-01-05 07:43:32.84	7.60	8.39	-50.6	-66.1	3.8	1.49e+00	0	43	104	651165696	72	21988
2026-01-05 07:43:34.42	7.37	8.32	-50.7	-66.1	3.8	1.49e+00	0	43	104	651165696	72	21996
2026-01-05 07:43:35.00	7.29	8.29	-50.8	-66.1	3.8	1.49e+00	0	43	104	651165696	72	22005
2026-01-05 07:43:36.58	7.07	8.22	-50.8	-66.1	3.8	1.49e+00	0	43	104	651165696	72	21901
2026-01-05 07:43:37.16	6.99	8.20	-50.9	-66.1	3.8	1.49e+00	0	43	104	651165696	72	21881
2026-01-05 07:43:38.88	6.74	8.12	-50.8	-66.1	3.8	1.49e+00	0	43	104	651165696	72	21869
2026-01-05 07:43:39.46	6.66	8.09	-50.9	-66.1	3.8	1.49e+00	0	43	104	651165696	72	21900
2026-01-05 07:43:41.03	6.44	8.03	-50.8	-66.1	3.8	1.49e+00	0	43	104	651165696	72	21810
2026-01-05 07:43:41.62	6.36	8.00	-50.8	-66.1	3.8	1.49e+00	0	43	104	651165696	72	21839
2026-01-05 07:43:43.20	6.14	7.93	-50.8	-66.1	3.8	1.49e+00	0	43	104	651165696	72	21820
2026-01-05 07:43:43.79	6.06	7.90	-50.7	-66.1	3.8	1.49e+00	0	43	104	651165696	72	21824
2026-01-05 07:43:45.37	5.84	7.83	-50.7	-66.1	3.8	1.49e+00	0	43	104	651165696	72	21759
2026-01-05 07:43:45.94	5.77	7.81	-50.6	-66.1	3.8	1.49e+00	0	43	104	651165696	72	21816
2026-01-05 07:43:47.52	5.55	7.74	-50.6	-66.0	3.8	1.49e+00	0	43	104	651165696	72	21736
2026-01-05 07:43:48.11	5.47	7.71	-50.6	-66.0	3.8	1.49e+00	0	43	104	651165696	72	21754
2026-01-05 07:43:49.69	5.25	7.64	-50.6	-66.0	3.8	1.49e+00	0	43	104	651165696	72	21750
2026-01-05 07:43:50.28	5.17	7.61	-50.6	-66.1	3.8	1.49e+00	0	43	104	651165696	72	21774
2026-01-05 07:43:51.85	4.96	7.54	-50.6	-66.0	3.8	1.49e+00	0	43	104	651165696	72	21663
2026-01-05 07:43:52.43	4.88	7.52	-50.6	-66.0	3.8	1.49e+00	0	42	104	651165696	72	21689
2026-01-05 07:43:54.01	4.67	7.44	-50.6	-66.0	3.8	1.49e+00	0	43	104	651165696	72	21583
2026-01-05 07:43:54.58	4.60	7.42	-50.6	-66.1	3.8	1.49e+00	0	43	104	651165696	72	21766
2026-01-05 07:43:56.19	4.38	7.34	-50.6	-66.0	3.8	1.49e+00	0	43	104	651165696	72	21713
2026-01-05 07:43:56.76	4.31	7.32	-50.6	-66.0	3.8	1.49e+00	0	43	104	651165696	72	21721
2026-01-05 07:43:58.34	4.10	7.25	-50.6	-66.0	3.8	1.49e+00	0	43	104	651165696	72	21746
2026-01-05 07:43:58.93	4.02	7.22	-50.6	-66.0	3.8	1.49e+00	0	43	104	651165696	72	21739
2026-01-05 07:44:00.51	3.81	7.15	-50.6	-66.0	3.8	1.49e+00	0	43	104	651165696	72	21604
2026-01-05 07:44:01.08	3.74	7.12	-50.6	-66.0	3.8	1.49e+00	0	43	104	651165696	72	21641
2026-01-05 07:44:02.66	3.53	7.05	-50.6	-66.0	3.8	1.49e+00	0	43	104	651165696	72	21751
2026-01-05 07:44:03.23	3.46	7.02	-50.6	-66.0	3.8	1.49e+00	0	43	104	651165696	72	21650
2026-01-05 07:44:04.83	3.25	6.95	-50.6	-66.0	3.8	1.49e+00	0	43	104	651165696	72	21628
2026-01-05 07:44:05.40	3.18	6.92	-50.6	-66.0	3.8	1.49e+00	0	43	104	651165696	72	21687
2026-01-05 07:44:06.98	2.97	6.85	-50.6	-66.0	3.8	1.49e+00	0	43	104	651165696	72	21637
2026-01-05 07:44:07.56	2.90	6.82	-50.6	-66.0	3.8	1.49e+00	0	43	104	651165696	72	21641
2026-01-05 07:44:09.13	2.70	6.75	-50.6	-66.0	3.8	1.49e+00	0	43	104	651165696	72	21610
2026-01-05 07:44:09.71	2.63	6.73	-50.6	-66.0	3.8	1.49e+00	0	43	104	651165696	72	21682
2026-01-05 07:44:11.29	2.43	6.65	-50.6	-66.0	3.8	1.49e+00	0	43	104	651165696	72	21668
2026-01-05 07:44:11.90	2.35	6.62	-50.6	-66.0	3.8	1.49e+00	0	43	104	651165696	72	21603
2026-01-05 07:44:13.48	2.15	6.55	-50.6	-66.0	3.8	1.49e+00	0	43	104	651165696	72	21719
2026-01-05 07:44:14.07	2.08	6.52	-50.6	-66.0	3.8	1.49e+00	0	43	104	651165696	72	21672
2026-01-05 07:44:15.65	1.88	6.45	-50.6	-66.0	3.8	1.49e+00	0	43	104	651165696	72	21613
2026-01-05 07:44:16.22	1.81	6.42	-50.6	-66.0	3.8	1.49e+00	0	43	104	651165696	72	21621
2026-01-05 07:44:17.81	1.61	6.35	-50.6	-66.0	3.8	1.49e+00	0	43	104	651165696	72	21593
2026-01-05 07:44:18.39	1.54	6.32	-50.6	-66.0	3.8	1.49e+00	0	43	104	651165696	72	21624
2026-01-05 07:44:19.97	1.34	6.25	-50.6	-66.0	3.8	1.49e+00	0	43	104	651165696	72	21612
2026-01-05 07:44:20.55	1.27	6.22	-50.6	-66.0	3.8	1.49e+00	0	43	104	651165696	72	21645
2026-01-05 07:44:22.13	1.08	6.15	-50.6	-66.0	3.8	1.49e+00	0	43	104	651165696	72	21607
2026-01-05 07:44:22.72	1.01	6.12	-50.6	-66.0	3.8	1.49e+00	0	43	104	651165696	72	21624
2026-01-05 07:44:24.30	0.82	6.05	-50.6	-66.0	3.8	1.49e+00	0	43	104	651165696	72	21697
2026-01-05 07:44:24.87	0.75	6.02	-50.6	-66.0	3.8	1.49e+00	0	43	104	651165696	72	21696
2026-01-05 07:44:26.47	0.55	5.94	-50.6	-66.0	3.8	1.49e+00	0	43	104	651165696	72	21674
2026-01-05 07:44:27.04	0.49	5.92	-50.6	-66.0	3.8	1.49e+00	0	43	104	651165696	72	21633
2026-01-05 07:44:28.62	0.30	5.84	-50.6	-66.0	3.8	1.49e+00	0	43	104	651165696	72	21624
2026-01-05 07:44:29.21	0.23	5.82	-50.6	-66.0	3.8	1.49e+00	0	43	104	651165696	72	21655
2026-01-05 07:44:30.79	0.04	5.74	-50.6	-66.0	3.8	1.49e+00	0	43	104	651165696	72	21580
2026-01-05 07:44:31.36	359.97	5.72	-50.6	-66.0	3.8	1.49e+00	0	43	104	651165696	72	21726
2026-01-05 07:44:32.97	359.78	5.64	-50.6	-66.0	3.8	1.49e+00	0	43	104	651165696	72	21657
2026-01-05 07:44:33.55	359.71	5.61	-50.6	-66.0	3.8	1.49e+00	0	43	104	651165696	72	21720
2026-01-05 07:44:35.14	359.53	5.54	-50.6	-66.0	3.8	1.49e+00	0	43	104	651165696	72	21649
2026-01-05 07:44:35.71	359.46	5.51	-50.6	-66.0	3.8	1.49e+00	0	43	104	651165696	72	21553
2026-01-05 07:44:37.29	359.28	5.44	-50.6	-66.0	3.8	1.49e+00	0	42	104	651165696	72	21624
2026-01-05 07:44:37.90	359.21	5.41	-50.6	-66.0	3.8	1.49e+00	0	42	104	651165696	72	21647
2026-01-05 07:44:39.47	359.02	5.33	-50.6	-66.0	3.8	1.49e+00	0	43	104	651165696	72	21685
2026-01-05 07:44:40.06	358.96	5.30	-50.6	-66.0	3.8	1.49e+00	0	42	104	651165696	72	21681
2026-01-05 07:44:41.64	358.78	5.23	-50.5	-66.0	3.8	1.49e+00	0	43	104	651165696	72	21534
2026-01-05 07:44:42.21	358.71	5.20	-50.6	-66.0	3.8	1.49e+00	0	43	104	651165696	72	21677
2026-01-05 07:44:43.79	358.53	5.13	-50.6	-66.0	3.8	1.49e+00	0	43	104	651165696	72	21585
2026-01-05 07:44:44.38	358.46	5.10	-50.6	-66.0	3.8	1.49e+00	0	43	104	651165696	72	21629
2026-01-05 07:44:45.96	358.29	5.03	-50.6	-66.0	3.8	1.49e+00	0	43	104	651165696	72	21609
2026-01-05 07:44:46.55	358.22	5.00	-50.6	-66.0	3.8	1.49e+00	0	43	104	651165696	72	21545

#Closed at: 2026-01-05 07:44:48
#Recorded file [651 MB]: D:/Data/31040_260105_103614.dat