passes_logs/2026/01/05/T1/T1__20260105_105338_SUOMI_NPP_rec.log

#Pass ID: 20260105_105338_SUOMI NPP
#Satellite: SUOMI NPP
#Configuration: NPP
#almurnet v.1.7.20251203
#Start time: 2026-01-05 10:53:38

#Version: 2.0.20230620
#Station: T1
#Location: 37.570604 lon 55.790049 lat
#TLE: 1 37849U 11061A   26003.96724563  .00000164  00000+0  98899-4 0  9990
#TLE: 2 37849  98.7800 306.1116 0002573  82.3190 277.8279 14.19522066735141

#Time	Az	El	Level	Level2	SNR	BER	BlckErr	Temp	State	Recorded	gain1	gain2
2026-01-05 10:53:38.66	188.87	5.04	-49.8	-65.6	3.8	1.49e+00	0	41	0	0	70	23267
2026-01-05 10:53:39.66	188.92	5.11	-49.2	-65.4	3.8	1.49e+00	0	40	104	0	69	24076
2026-01-05 10:53:40.67	188.98	5.18	-49.2	-65.3	3.8	1.49e+00	0	40	104	0	69	23731
2026-01-05 10:53:41.67	189.03	5.25	-49.2	-65.2	3.8	1.49e+00	0	41	104	0	69	23412
2026-01-05 10:53:42.67	189.08	5.32	-49.3	-65.2	3.8	1.49e+00	0	41	104	0	69	23393
2026-01-05 10:53:43.68	189.13	5.39	-49.2	-65.1	3.8	1.49e+00	0	41	104	0	69	23213
2026-01-05 10:53:44.68	189.19	5.45	-49.3	-64.9	3.8	1.49e+00	0	41	104	0	69	22750
2026-01-05 10:53:45.69	189.24	5.52	-49.2	-65.1	3.8	1.49e+00	0	41	104	0	69	23155
2026-01-05 10:53:46.69	189.29	5.59	-49.2	-65.1	3.8	1.49e+00	0	41	104	0	69	23069
2026-01-05 10:53:47.70	189.35	5.66	-49.2	-65.0	3.8	1.49e+00	0	41	104	0	69	23014
2026-01-05 10:53:48.70	189.40	5.73	-49.2	-65.2	3.8	1.49e+00	0	41	104	0	69	23467
2026-01-05 10:53:49.70	189.45	5.80	-49.2	-65.2	3.8	1.49e+00	0	41	104	0	69	23354
2026-01-05 10:53:50.71	189.51	5.87	-49.3	-65.1	3.8	1.49e+00	0	41	104	0	69	23132
2026-01-05 10:53:51.71	189.56	5.94	-49.2	-65.1	3.8	1.49e+00	0	41	104	0	69	23069
2026-01-05 10:53:52.72	189.62	6.01	-49.2	-64.8	3.8	1.49e+00	0	41	104	0	69	22445
2026-01-05 10:53:53.72	189.67	6.08	-49.2	-64.9	3.8	1.49e+00	0	41	104	0	69	22682
2026-01-05 10:53:54.72	189.73	6.15	-49.2	-64.7	3.8	1.49e+00	0	41	104	0	69	22140
2026-01-05 10:53:55.73	189.78	6.22	-49.2	-64.9	3.8	1.49e+00	0	41	104	0	69	22534
2026-01-05 10:53:56.73	189.84	6.29	-49.2	-64.5	3.8	1.49e+00	0	41	104	0	69	21672
2026-01-05 10:53:57.74	189.90	6.37	-49.3	-65.0	3.8	1.49e+00	0	41	104	0	69	22958
2026-01-05 10:53:58.74	189.95	6.44	-49.2	-64.9	3.8	1.49e+00	0	41	104	0	69	22661
2026-01-05 10:53:59.74	190.01	6.51	-49.2	-65.0	3.8	1.49e+00	0	41	104	0	69	22908
2026-01-05 10:54:00.75	190.07	6.58	-49.3	-65.3	3.8	1.49e+00	0	41	104	0	69	23592
2026-01-05 10:54:01.75	190.12	6.65	-49.3	-65.2	3.8	1.49e+00	0	41	104	0	69	23544
2026-01-05 10:54:02.76	190.18	6.72	-49.3	-65.0	3.8	1.49e+00	0	41	104	0	69	23032
2026-01-05 10:54:03.76	190.24	6.80	-49.3	-64.9	3.8	1.49e+00	0	42	104	0	69	22564
2026-01-05 10:54:04.76	190.29	6.87	-49.3	-64.6	3.8	1.49e+00	0	42	104	0	69	21958
2026-01-05 10:54:05.77	190.35	6.94	-49.2	-64.3	3.8	1.49e+00	0	42	104	0	69	21173
2026-01-05 10:54:06.77	190.41	7.01	-49.2	-64.2	3.8	1.49e+00	0	42	104	0	69	20928
2026-01-05 10:54:07.77	190.47	7.09	-49.2	-64.5	3.8	1.49e+00	0	42	104	0	69	21558
2026-01-05 10:54:08.78	190.53	7.16	-49.2	-65.0	3.8	1.49e+00	0	42	104	0	69	22956
2026-01-05 10:54:09.78	190.59	7.23	-49.3	-65.3	3.8	1.49e+00	0	42	104	0	69	23650
2026-01-05 10:54:10.78	190.65	7.31	-49.3	-65.4	3.8	1.49e+00	0	42	104	0	69	23909
2026-01-05 10:54:11.79	190.71	7.38	-49.2	-64.5	3.8	1.49e+00	0	42	104	0	69	21753
2026-01-05 10:54:12.79	190.77	7.45	-49.1	-61.9	4.2	1.44e+00	0	42	0	0	69	16050
2026-01-05 10:54:13.80	190.83	7.53	-48.7	-58.8	5.7	6.26e-01	0	42	0	1048576	69	11229
2026-01-05 10:54:14.80	190.89	7.60	-48.4	-56.6	7.6	2.10e-01	0	42	0	3145728	68	9211
2026-01-05 10:54:15.80	190.95	7.68	-47.6	-54.2	9.8	5.89e-02	0	42	0	5242880	67	7416
2026-01-05 10:54:16.81	191.01	7.75	-47.1	-52.9	11.2	2.57e-03	0	42	0	6291456	66	6744
2026-01-05 10:54:17.81	191.07	7.83	-46.7	-51.9	12.2	4.20e-04	0	42	0	8388608	65	6378
2026-01-05 10:54:18.82	191.14	7.90	-46.1	-50.6	13.5	3.12e-05	0	42	0	10485760	64	5810
2026-01-05 10:54:19.82	191.20	7.98	-45.9	-50.0	14.1	5.30e-06	0	42	0	12582912	63	5770
2026-01-05 10:54:20.82	191.26	8.05	-45.6	-49.6	14.6	7.00e-07	0	42	0	14680064	63	5500
2026-01-05 10:54:21.83	191.32	8.13	-45.5	-49.4	14.7	7.00e-07	0	42	0	15728640	63	5389
2026-01-05 10:54:22.83	191.39	8.20	-45.7	-49.7	14.4	0.00e+00	0	42	0	17825792	63	5587
2026-01-05 10:54:23.84	191.45	8.28	-45.8	-50.0	14.2	7.00e-07	0	42	0	19922944	63	5726
2026-01-05 10:54:24.84	191.51	8.35	-46.1	-50.4	13.7	3.00e-06	0	42	0	22020096	63	6044
2026-01-05 10:54:25.84	191.58	8.43	-46.3	-50.8	13.4	3.00e-06	0	42	0	24117248	63	6314
2026-01-05 10:54:26.84	191.64	8.51	-46.8	-52.1	12.0	9.30e-05	0	42	0	25165824	64	6906
2026-01-05 10:54:27.85	191.71	8.58	-47.2	-52.9	11.1	6.71e-04	0	42	0	27262976	64	7620
2026-01-05 10:54:28.85	191.77	8.66	-47.7	-54.4	9.6	3.57e-03	0	42	0	29360128	65	8521
2026-01-05 10:54:29.86	191.84	8.74	-48.1	-55.9	8.1	4.98e-02	0	42	0	31457280	66	9525
2026-01-05 10:54:30.86	191.90	8.82	-48.4	-57.4	6.7	1.44e-01	0	42	0	33554432	67	10712
2026-01-05 10:54:31.86	191.97	8.89	-48.6	-58.7	5.7	3.37e-01	0	42	0	34603008	67	12494
2026-01-05 10:54:32.87	192.03	8.97	-48.9	-60.3	4.8	7.20e-01	0	42	0	36700160	68	14197
2026-01-05 10:54:33.87	192.10	9.05	-49.0	-61.0	4.5	9.24e-01	0	42	0	38797312	68	15378
2026-01-05 10:54:34.87	192.17	9.13	-47.4	-53.2	10.9	5.39e-01	0	42	0	40894464	66	7012
2026-01-05 10:54:35.88	192.24	9.21	-49.1	-63.1	3.8	5.07e-02	0	42	104	41943040	68	19531
2026-01-05 10:54:36.88	192.30	9.28	-49.2	-61.7	4.3	1.14e+00	0	42	0	41943040	69	15689
2026-01-05 10:54:37.88	192.37	9.36	-48.1	-55.2	8.9	5.68e-01	0	42	0	42991616	68	7873
2026-01-05 10:54:38.88	192.44	9.44	-49.2	-63.4	3.8	4.41e-01	0	42	104	44040192	69	19090
2026-01-05 10:54:39.89	192.51	9.52	-48.5	-56.7	7.4	6.86e-01	0	42	0	44040192	69	8821
2026-01-05 10:54:40.89	192.58	9.60	-47.6	-53.7	10.3	1.73e-02	0	42	0	46137344	67	6995
2026-01-05 10:54:41.89	192.65	9.68	-46.9	-51.8	12.2	8.22e-04	0	42	0	47185920	65	6329
2026-01-05 10:54:42.89	192.72	9.76	-46.8	-51.5	12.6	6.86e-05	0	42	0	49283072	65	6074
2026-01-05 10:54:43.89	192.79	9.84	-46.9	-51.6	12.6	1.88e-04	0	42	0	51380224	65	6184
2026-01-05 10:54:44.89	192.86	9.92	-46.9	-51.6	12.5	7.55e-05	0	42	0	53477376	65	6168
2026-01-05 10:54:45.89	192.93	10.00	-46.8	-51.5	12.7	1.48e-04	0	42	0	55574528	65	6101
2026-01-05 10:54:46.89	193.00	10.08	-46.7	-51.1	13.0	6.79e-05	0	43	0	56623104	65	5850
2026-01-05 10:54:47.98	193.08	10.17	-46.5	-50.7	13.5	2.82e-05	0	43	0	58720256	64	5913
2026-01-05 10:54:48.87	193.14	10.24	-46.4	-50.7	13.4	1.22e-05	0	42	0	60817408	64	5882
2026-01-05 10:54:50.01	193.22	10.33	-46.2	-50.4	13.9	1.50e-06	0	43	0	62914560	64	5669
2026-01-05 10:54:50.87	193.29	10.40	-45.8	-49.5	14.7	7.00e-07	0	42	0	65011712	63	5449
2026-01-05 10:54:52.01	193.37	10.50	-45.9	-49.6	14.7	1.50e-06	0	42	0	66060288	63	5522
2026-01-05 10:54:52.87	193.43	10.57	-45.7	-49.3	15.0	0.00e+00	0	42	0	68157440	63	5305
2026-01-05 10:54:54.01	193.52	10.66	-45.4	-48.9	15.4	0.00e+00	0	43	0	70254592	62	5358
2026-01-05 10:54:54.87	193.58	10.73	-45.2	-48.5	15.8	0.00e+00	0	43	0	72351744	62	5102
2026-01-05 10:54:56.02	193.67	10.83	-45.0	-48.2	16.0	0.00e+00	0	43	0	74448896	62	4961
2026-01-05 10:54:56.88	193.73	10.90	-45.0	-48.2	16.0	0.00e+00	0	43	0	75497472	61	5261
2026-01-05 10:54:58.02	193.82	10.99	-45.1	-48.3	16.0	0.00e+00	0	43	0	77594624	61	5336
2026-01-05 10:54:58.89	193.88	11.07	-45.1	-48.4	15.9	0.00e+00	0	43	0	79691776	61	5345
2026-01-05 10:55:00.08	193.97	11.16	-45.0	-48.1	16.1	0.00e+00	0	42	0	81788928	61	5215
2026-01-05 10:55:00.94	194.04	11.24	-44.9	-48.0	16.2	0.00e+00	0	43	0	82837504	61	5159
2026-01-05 10:55:02.09	194.13	11.33	-45.0	-48.2	16.0	0.00e+00	0	43	0	85983232	61	5276
2026-01-05 10:55:02.95	194.19	11.41	-45.0	-48.2	16.1	0.00e+00	0	43	0	87031808	61	5245
2026-01-05 10:55:04.09	194.28	11.50	-44.9	-48.0	16.3	0.00e+00	0	42	0	89128960	61	5128
2026-01-05 10:55:04.99	194.35	11.58	-44.9	-48.0	16.3	0.00e+00	0	43	0	91226112	61	5126
2026-01-05 10:55:06.00	194.43	11.66	-44.7	-47.7	16.5	0.00e+00	0	43	0	93323264	61	4975
2026-01-05 10:55:06.99	194.51	11.75	-44.8	-47.9	16.4	0.00e+00	0	43	0	94371840	61	5052
2026-01-05 10:55:08.00	194.59	11.84	-44.6	-47.7	16.6	0.00e+00	0	43	0	96468992	61	4929
2026-01-05 10:55:09.00	194.67	11.92	-44.5	-47.5	16.7	0.00e+00	0	43	0	98566144	61	4862
2026-01-05 10:55:10.00	194.75	12.01	-44.5	-47.4	16.8	0.00e+00	0	43	0	100663296	60	5084
2026-01-05 10:55:11.01	194.83	12.09	-44.4	-47.3	16.9	0.00e+00	0	43	0	101711872	60	5040
2026-01-05 10:55:12.01	194.92	12.18	-44.5	-47.5	16.7	0.00e+00	0	43	0	103809024	60	5106
2026-01-05 10:55:13.01	195.00	12.27	-44.4	-47.3	16.9	0.00e+00	0	43	0	105906176	60	5028
2026-01-05 10:55:14.02	195.08	12.36	-44.3	-47.1	17.1	0.00e+00	0	43	0	108003328	60	4915
2026-01-05 10:55:15.02	195.16	12.44	-44.4	-47.2	17.0	0.00e+00	0	43	0	110100480	60	4958
2026-01-05 10:55:16.02	195.25	12.53	-44.3	-47.1	17.2	0.00e+00	0	43	0	111149056	60	4871
2026-01-05 10:55:17.02	195.33	12.62	-44.3	-47.0	17.2	0.00e+00	0	43	0	113246208	60	4857
2026-01-05 10:55:18.02	195.42	12.71	-44.1	-46.8	17.4	0.00e+00	0	43	0	115343360	60	4729
2026-01-05 10:55:19.02	195.50	12.80	-44.1	-46.8	17.4	0.00e+00	0	43	0	117440512	60	4725
2026-01-05 10:55:20.03	195.59	12.89	-44.0	-46.7	17.5	0.00e+00	0	43	0	119537664	60	4693
2026-01-05 10:55:21.03	195.67	12.97	-44.0	-46.6	17.5	0.00e+00	0	43	0	120586240	59	4915
2026-01-05 10:55:22.03	195.76	13.06	-44.0	-46.6	17.5	0.00e+00	0	43	0	122683392	59	4915
2026-01-05 10:55:23.03	195.85	13.15	-43.8	-46.3	17.8	0.00e+00	0	43	0	124780544	59	4747
2026-01-05 10:55:24.04	195.93	13.24	-43.9	-46.5	17.7	0.00e+00	0	43	0	126877696	59	4840
2026-01-05 10:55:25.04	196.02	13.33	-43.8	-46.3	17.8	0.00e+00	0	43	0	128974848	59	4752
2026-01-05 10:55:26.04	196.11	13.42	-43.9	-46.5	17.7	0.00e+00	0	43	0	130023424	59	4844
2026-01-05 10:55:27.04	196.20	13.52	-43.8	-46.4	17.7	0.00e+00	0	43	0	132120576	59	4810
2026-01-05 10:55:28.04	196.29	13.61	-43.9	-46.5	17.6	0.00e+00	0	43	0	134217728	59	4826
2026-01-05 10:55:29.05	196.38	13.70	-44.0	-46.7	17.5	0.00e+00	0	43	0	136314880	59	4944
2026-01-05 10:55:30.05	196.47	13.79	-44.1	-46.8	17.4	0.00e+00	0	43	0	138412032	59	5002
2026-01-05 10:55:31.05	196.56	13.88	-44.0	-46.7	17.4	0.00e+00	0	43	0	139460608	59	4931
2026-01-05 10:55:32.44	196.69	14.01	-44.1	-46.9	17.2	0.00e+00	0	43	0	142606336	59	5049
2026-01-05 10:55:33.18	196.76	14.08	-44.0	-46.7	17.4	0.00e+00	0	43	0	143654912	59	4961
2026-01-05 10:55:34.47	196.88	14.20	-44.0	-46.7	17.4	0.00e+00	0	43	0	145752064	59	4971
2026-01-05 10:55:35.19	196.94	14.27	-44.1	-46.8	17.3	0.00e+00	0	43	0	147849216	59	5031
2026-01-05 10:55:36.48	197.07	14.39	-44.0	-46.7	17.4	0.00e+00	0	43	0	149946368	59	4966
2026-01-05 10:55:37.20	197.13	14.45	-44.0	-46.7	17.4	0.00e+00	0	43	0	150994944	59	4959
2026-01-05 10:55:38.49	197.26	14.57	-44.0	-46.7	17.5	0.00e+00	0	43	0	154140672	59	4929
2026-01-05 10:55:39.20	197.32	14.64	-44.0	-46.7	17.5	0.00e+00	0	43	0	155189248	59	4927
2026-01-05 10:55:40.52	197.45	14.77	-44.0	-46.6	17.5	0.00e+00	0	43	0	157286400	59	4915
2026-01-05 10:55:41.24	197.52	14.83	-44.1	-46.7	17.4	0.00e+00	0	43	0	159383552	59	4980
2026-01-05 10:55:42.53	197.65	14.96	-44.1	-46.7	17.5	0.00e+00	0	43	0	161480704	59	4981
2026-01-05 10:55:43.25	197.72	15.02	-44.1	-46.8	17.3	0.00e+00	0	43	0	162529280	59	5026
2026-01-05 10:55:44.67	197.86	15.16	-44.1	-46.8	17.4	0.00e+00	0	43	0	165675008	59	4992
2026-01-05 10:55:45.38	197.93	15.23	-44.3	-47.0	17.2	0.00e+00	0	43	0	166723584	59	5120
2026-01-05 10:55:46.74	198.06	15.36	-44.2	-47.0	17.3	0.00e+00	0	43	0	168820736	59	5105
2026-01-05 10:55:47.45	198.14	15.43	-44.3	-47.0	17.3	0.00e+00	0	43	0	170917888	59	5109
2026-01-05 10:55:48.74	198.27	15.55	-44.4	-47.1	17.1	0.00e+00	0	43	0	173015040	59	5207
2026-01-05 10:55:49.46	198.34	15.62	-44.5	-47.2	17.0	0.00e+00	0	43	0	174063616	59	5260
2026-01-05 10:55:50.75	198.47	15.75	-44.5	-47.2	17.1	0.00e+00	0	43	0	177209344	59	5260
2026-01-05 10:55:51.46	198.55	15.82	-44.6	-47.3	17.1	0.00e+00	0	43	0	178257920	59	5315
2026-01-05 10:55:52.75	198.68	15.95	-44.5	-47.2	17.2	0.00e+00	0	43	0	180355072	59	5230
2026-01-05 10:55:53.46	198.75	16.02	-44.5	-47.1	17.2	0.00e+00	0	43	0	181403648	59	5208
2026-01-05 10:55:54.75	198.89	16.14	-44.5	-47.2	17.1	0.00e+00	0	43	0	184549376	59	5276
2026-01-05 10:55:55.47	198.97	16.21	-44.4	-47.0	17.3	0.00e+00	0	43	0	185597952	59	5152
2026-01-05 10:55:56.76	199.10	16.34	-44.3	-46.9	17.4	0.00e+00	0	43	0	187695104	59	5087
2026-01-05 10:55:57.57	199.19	16.42	-44.7	-47.5	16.9	0.00e+00	0	43	0	189792256	59	5407
2026-01-05 10:55:58.72	199.31	16.54	-44.4	-47.1	17.3	0.00e+00	0	43	0	191889408	60	4915
2026-01-05 10:55:59.58	199.41	16.62	-44.5	-47.2	17.2	0.00e+00	0	43	0	192937984	60	4976
2026-01-05 10:56:00.72	199.53	16.74	-44.7	-47.4	17.0	0.00e+00	0	43	0	195035136	60	5100
2026-01-05 10:56:01.82	199.65	16.85	-44.7	-47.4	16.9	0.00e+00	0	43	0	197132288	60	5094
2026-01-05 10:56:02.86	199.77	16.96	-44.7	-47.5	16.9	0.00e+00	0	43	0	199229440	60	5145
2026-01-05 10:56:03.86	199.88	17.06	-44.7	-47.5	16.9	0.00e+00	0	43	0	201326592	60	5150
2026-01-05 10:56:04.86	199.99	17.16	-44.9	-47.7	16.7	0.00e+00	0	43	0	203423744	60	5272
2026-01-05 10:56:05.87	200.11	17.26	-44.8	-47.6	16.8	0.00e+00	0	43	0	205520896	60	5214
2026-01-05 10:56:06.86	200.22	17.37	-44.7	-47.5	16.9	0.00e+00	0	43	0	206569472	60	5117
2026-01-05 10:56:07.87	200.34	17.47	-44.9	-47.8	16.7	0.00e+00	0	43	0	208666624	60	5296
2026-01-05 10:56:08.87	200.45	17.57	-44.7	-47.6	16.9	0.00e+00	0	43	0	210763776	60	5175
2026-01-05 10:56:09.87	200.57	17.68	-44.8	-47.7	16.8	0.00e+00	0	43	0	212860928	60	5225
2026-01-05 10:56:10.88	200.69	17.78	-44.7	-47.5	17.0	0.00e+00	0	43	0	214958080	60	5106
2026-01-05 10:56:11.88	200.80	17.89	-44.6	-47.3	17.1	0.00e+00	0	43	0	216006656	60	5019
2026-01-05 10:56:12.88	200.92	17.99	-44.7	-47.5	16.9	0.00e+00	0	43	0	218103808	60	5126
2026-01-05 10:56:13.95	201.05	18.10	-44.6	-47.3	17.1	0.00e+00	0	43	0	220200960	60	5019
2026-01-05 10:56:14.84	201.16	18.20	-44.7	-47.4	17.0	0.00e+00	0	43	0	222298112	60	5083
2026-01-05 10:56:15.89	201.28	18.31	-44.6	-47.3	17.1	0.00e+00	0	43	0	223346688	60	5013
2026-01-05 10:56:16.78	201.39	18.40	-44.7	-47.4	17.0	0.00e+00	0	43	0	225443840	60	5071
2026-01-05 10:56:17.93	201.53	18.52	-44.6	-47.3	17.1	0.00e+00	0	43	0	227540992	60	5012
2026-01-05 10:56:18.78	201.64	18.61	-44.6	-47.3	17.2	0.00e+00	0	43	0	229638144	60	5018
2026-01-05 10:56:19.93	201.78	18.74	-44.6	-47.3	17.2	0.00e+00	0	43	0	231735296	60	4984
2026-01-05 10:56:20.79	201.89	18.83	-44.4	-47.0	17.4	0.00e+00	0	43	0	232783872	60	4867
2026-01-05 10:56:21.94	202.03	18.95	-44.5	-47.1	17.3	0.00e+00	0	43	0	234881024	60	4908
2026-01-05 10:56:22.80	202.14	19.05	-44.4	-47.0	17.5	0.00e+00	0	43	0	236978176	60	4853
2026-01-05 10:56:24.02	202.30	19.18	-44.2	-46.8	17.6	0.00e+00	0	43	0	239075328	60	4756
2026-01-05 10:56:24.88	202.41	19.27	-44.5	-47.2	17.2	0.00e+00	0	43	0	241172480	60	4954
2026-01-05 10:56:26.03	202.56	19.40	-44.5	-47.1	17.3	0.00e+00	0	43	0	243269632	60	4915
2026-01-05 10:56:26.89	202.67	19.49	-44.7	-47.5	17.0	0.00e+00	0	43	0	244318208	60	5128
2026-01-05 10:56:28.03	202.82	19.62	-44.6	-47.3	17.1	0.00e+00	0	43	0	246415360	60	5041
2026-01-05 10:56:28.89	202.94	19.71	-44.7	-47.4	17.0	0.00e+00	0	43	0	248512512	60	5077
2026-01-05 10:56:30.04	203.09	19.84	-44.6	-47.3	17.2	0.00e+00	0	43	0	250609664	60	5028
2026-01-05 10:56:30.89	203.20	19.93	-44.6	-47.3	17.2	0.00e+00	0	43	0	251658240	60	5014
2026-01-05 10:56:32.04	203.36	20.06	-44.7	-47.4	17.1	0.00e+00	0	43	0	253755392	60	5049
2026-01-05 10:56:32.90	203.48	20.16	-44.6	-47.3	17.2	0.00e+00	0	43	0	255852544	60	5030
2026-01-05 10:56:34.04	203.63	20.28	-44.7	-47.4	17.1	0.00e+00	0	43	0	257949696	60	5059
2026-01-05 10:56:34.90	203.75	20.38	-44.6	-47.3	17.2	0.00e+00	0	43	0	258998272	60	5019
2026-01-05 10:56:36.05	203.91	20.51	-44.5	-47.2	17.2	0.00e+00	0	43	0	262144000	60	4979
2026-01-05 10:56:36.91	204.03	20.61	-44.7	-47.5	17.1	0.00e+00	0	43	0	263192576	60	5111
2026-01-05 10:56:38.05	204.19	20.74	-44.7	-47.4	17.1	0.00e+00	0	43	0	265289728	60	5086
2026-01-05 10:56:38.91	204.31	20.83	-44.8	-47.5	17.0	0.00e+00	0	43	0	267386880	60	5126
2026-01-05 10:56:40.05	204.48	20.96	-44.8	-47.5	17.0	0.00e+00	0	43	0	269484032	60	5134
2026-01-05 10:56:40.91	204.60	21.06	-45.0	-47.8	16.7	0.00e+00	0	43	0	270532608	60	5309
2026-01-05 10:56:42.06	204.77	21.19	-44.7	-47.5	17.0	0.00e+00	0	43	0	272629760	60	5130
2026-01-05 10:56:42.92	204.89	21.29	-44.8	-47.7	16.9	0.00e+00	0	43	0	274726912	60	5219
2026-01-05 10:56:44.06	205.06	21.42	-45.0	-47.9	16.7	0.00e+00	0	43	0	276824064	60	5341
2026-01-05 10:56:44.92	205.19	21.52	-44.6	-47.4	17.1	0.00e+00	0	43	0	277872640	60	5054
2026-01-05 10:56:46.07	205.36	21.66	-44.8	-47.5	17.0	0.00e+00	0	43	0	281018368	60	5149
2026-01-05 10:56:46.93	205.49	21.76	-44.9	-47.7	16.8	0.00e+00	0	43	0	282066944	60	5246
2026-01-05 10:56:48.07	205.66	21.89	-44.9	-47.7	16.8	0.00e+00	0	43	0	284164096	60	5255
2026-01-05 10:56:49.30	205.85	22.03	-45.1	-47.9	16.6	0.00e+00	0	43	0	286261248	60	5400
2026-01-05 10:56:50.33	206.01	22.15	-45.2	-48.0	16.5	0.00e+00	0	43	0	288358400	61	5152
2026-01-05 10:56:51.33	206.17	22.27	-45.0	-47.8	16.7	0.00e+00	0	43	0	290455552	61	5040
2026-01-05 10:56:52.33	206.32	22.39	-45.1	-48.0	16.5	0.00e+00	0	43	0	292552704	61	5131
2026-01-05 10:56:53.33	206.48	22.51	-45.2	-48.1	16.4	0.00e+00	0	43	0	293601280	61	5193
2026-01-05 10:56:54.34	206.64	22.63	-45.2	-48.0	16.6	0.00e+00	0	43	0	295698432	61	5140
2026-01-05 10:56:55.34	206.80	22.75	-45.2	-48.1	16.5	0.00e+00	0	43	0	297795584	61	5187
2026-01-05 10:56:56.34	206.96	22.87	-45.2	-48.1	16.5	0.00e+00	0	43	0	299892736	61	5194
2026-01-05 10:56:57.35	207.13	22.99	-45.1	-48.0	16.6	0.00e+00	0	43	0	301989888	61	5108
2026-01-05 10:56:58.35	207.29	23.11	-45.0	-47.8	16.7	0.00e+00	0	43	0	303038464	61	5032
2026-01-05 10:56:59.35	207.45	23.23	-45.1	-48.0	16.6	0.00e+00	0	43	0	305135616	61	5122
2026-01-05 10:57:00.35	207.62	23.35	-45.1	-48.0	16.6	0.00e+00	0	43	0	307232768	61	5117
2026-01-05 10:57:01.35	207.79	23.47	-45.0	-47.7	16.8	0.00e+00	0	43	0	309329920	61	4983
2026-01-05 10:57:02.36	207.96	23.59	-45.0	-47.8	16.8	0.00e+00	0	43	0	311427072	61	4996
2026-01-05 10:57:03.36	208.13	23.71	-44.7	-47.4	17.1	0.00e+00	0	43	0	312475648	61	4800
2026-01-05 10:57:04.46	208.32	23.85	-44.4	-46.9	17.6	0.00e+00	0	43	0	314572800	60	4810
2026-01-05 10:57:05.35	208.47	23.96	-44.3	-46.9	17.6	0.00e+00	0	43	0	316669952	60	4773
2026-01-05 10:57:06.49	208.67	24.09	-44.2	-46.7	17.7	0.00e+00	0	43	0	318767104	60	4701
2026-01-05 10:57:07.35	208.82	24.20	-44.1	-46.7	17.7	0.00e+00	0	43	0	319815680	59	4941
2026-01-05 10:57:08.50	209.02	24.34	-43.9	-46.4	18.0	0.00e+00	0	43	0	322961408	59	4787
2026-01-05 10:57:09.36	209.18	24.45	-44.0	-46.5	17.9	0.00e+00	0	43	0	324009984	59	4820
2026-01-05 10:57:10.51	209.38	24.59	-44.1	-46.7	17.7	0.00e+00	0	43	0	326107136	59	4944
2026-01-05 10:57:11.36	209.54	24.70	-44.1	-46.6	17.8	0.00e+00	0	43	0	328204288	59	4919
2026-01-05 10:57:12.51	209.74	24.84	-44.5	-47.1	17.4	0.00e+00	0	43	0	330301440	59	5192
2026-01-05 10:57:13.36	209.90	24.94	-44.8	-47.6	17.0	0.00e+00	0	43	0	331350016	60	5175
2026-01-05 10:57:14.51	210.11	25.09	-44.8	-47.5	17.1	0.00e+00	0	43	0	333447168	60	5132
2026-01-05 10:57:15.37	210.27	25.20	-45.0	-47.8	16.8	0.00e+00	0	43	0	335544320	60	5322
2026-01-05 10:57:16.51	210.49	25.34	-45.1	-47.9	16.7	0.00e+00	0	43	0	337641472	61	5077
2026-01-05 10:57:17.37	210.65	25.45	-44.9	-47.7	16.9	0.00e+00	0	43	0	338690048	61	4961
2026-01-05 10:57:18.57	210.88	25.60	-44.8	-47.5	17.0	0.00e+00	0	43	0	341835776	61	4863
2026-01-05 10:57:19.42	211.04	25.71	-44.8	-47.5	17.1	0.00e+00	0	43	0	342884352	61	4835
2026-01-05 10:57:20.66	211.28	25.86	-44.4	-47.0	17.6	0.00e+00	0	43	0	344981504	60	4823
2026-01-05 10:57:21.52	211.45	25.97	-44.4	-47.0	17.6	0.00e+00	0	43	0	347078656	60	4847
2026-01-05 10:57:22.66	211.68	26.12	-44.4	-47.1	17.5	0.00e+00	0	43	0	349175808	60	4878
2026-01-05 10:57:23.52	211.85	26.23	-44.5	-47.1	17.5	0.00e+00	0	43	0	350224384	60	4893
2026-01-05 10:57:24.67	212.08	26.37	-44.9	-47.6	16.9	0.00e+00	0	43	0	353370112	60	5216
2026-01-05 10:57:25.53	212.25	26.48	-44.9	-47.8	16.8	0.00e+00	0	43	0	354418688	60	5280
2026-01-05 10:57:26.68	212.49	26.63	-45.4	-48.3	16.3	0.00e+00	0	43	0	356515840	61	5320
2026-01-05 10:57:27.54	212.66	26.74	-45.5	-48.5	16.1	0.00e+00	0	43	0	358612992	61	5429
2026-01-05 10:57:28.69	212.90	26.89	-45.5	-48.5	16.1	0.00e+00	0	43	0	360710144	61	5450
2026-01-05 10:57:29.74	213.12	27.02	-45.2	-48.1	16.5	0.00e+00	0	43	0	362807296	61	5208
2026-01-05 10:57:30.61	213.30	27.14	-45.4	-48.4	16.3	0.00e+00	0	43	0	363855872	61	5350
2026-01-05 10:57:32.10	213.62	27.33	-45.2	-48.0	16.6	0.00e+00	0	43	0	367001600	61	5149
2026-01-05 10:57:32.81	213.77	27.42	-45.2	-48.0	16.6	0.00e+00	0	43	0	368050176	61	5147
2026-01-05 10:57:34.10	214.05	27.59	-45.1	-47.9	16.7	0.00e+00	0	43	0	370147328	61	5089
2026-01-05 10:57:34.82	214.20	27.68	-45.3	-48.2	16.4	0.00e+00	0	43	0	372244480	61	5274
2026-01-05 10:57:36.11	214.49	27.85	-45.4	-48.4	16.2	0.00e+00	0	43	0	374341632	61	5386
2026-01-05 10:57:36.82	214.64	27.94	-45.6	-48.7	16.0	0.00e+00	0	43	0	375390208	61	5531
2026-01-05 10:57:38.11	214.93	28.11	-45.8	-48.9	15.8	0.00e+00	0	43	0	377487360	62	5386
2026-01-05 10:57:38.82	215.09	28.20	-45.9	-49.1	15.6	0.00e+00	0	43	0	379584512	62	5493
2026-01-05 10:57:40.11	215.38	28.37	-46.2	-49.5	15.3	0.00e+00	0	43	0	381681664	63	5416
2026-01-05 10:57:41.00	215.58	28.49	-46.1	-49.3	15.4	0.00e+00	0	43	0	383778816	63	5340
2026-01-05 10:57:42.14	215.85	28.64	-46.1	-49.3	15.4	0.00e+00	0	43	0	385875968	63	5324
2026-01-05 10:57:43.00	216.05	28.75	-45.8	-48.9	15.8	0.00e+00	0	43	0	386924544	63	5082
2026-01-05 10:57:44.14	216.31	28.90	-45.5	-48.5	16.1	0.00e+00	0	43	0	389021696	62	5137
2026-01-05 10:57:45.32	216.59	29.05	-45.2	-48.1	16.5	0.00e+00	0	43	0	391118848	62	4899
2026-01-05 10:57:46.36	216.84	29.19	-45.1	-47.9	16.7	0.00e+00	0	43	0	393216000	62	4797
2026-01-05 10:57:47.36	217.08	29.32	-45.5	-48.5	16.2	0.00e+00	0	43	0	395313152	62	5117
2026-01-05 10:57:48.36	217.32	29.45	-45.5	-48.6	16.1	0.00e+00	0	43	0	397410304	62	5162
2026-01-05 10:57:49.36	217.56	29.58	-45.6	-48.7	16.0	0.00e+00	0	43	0	399507456	62	5272
2026-01-05 10:57:50.36	217.81	29.72	-45.6	-48.6	16.1	0.00e+00	0	43	0	400556032	62	5196
2026-01-05 10:57:51.36	218.06	29.85	-45.4	-48.3	16.3	0.00e+00	0	43	0	402653184	62	5035
2026-01-05 10:57:52.36	218.31	29.98	-45.4	-48.3	16.3	0.00e+00	0	43	0	404750336	62	5038
2026-01-05 10:57:53.37	218.56	30.11	-45.1	-47.9	16.8	0.00e+00	0	43	0	406847488	62	4788
2026-01-05 10:57:54.37	218.82	30.24	-44.9	-47.7	17.0	0.00e+00	0	43	0	408944640	61	4940
2026-01-05 10:57:55.37	219.07	30.37	-44.9	-47.6	17.0	0.00e+00	0	43	0	409993216	61	4918
2026-01-05 10:57:56.37	219.33	30.51	-45.1	-47.9	16.7	0.00e+00	0	43	0	412090368	61	5071
2026-01-05 10:57:57.44	219.61	30.65	-45.0	-47.9	16.7	0.00e+00	0	43	0	414187520	61	5066
2026-01-05 10:57:58.32	219.84	30.76	-45.4	-48.4	16.3	0.00e+00	0	43	0	416284672	61	5388
2026-01-05 10:57:59.46	220.14	30.91	-45.6	-48.7	15.9	0.00e+00	0	43	0	418381824	62	5265
2026-01-05 10:58:00.32	220.37	31.03	-45.8	-48.9	15.8	0.00e+00	0	43	0	419430400	62	5391
2026-01-05 10:58:01.47	220.68	31.18	-45.9	-49.1	15.6	0.00e+00	0	43	0	421527552	62	5495
2026-01-05 10:58:02.33	220.91	31.29	-45.7	-48.7	16.0	0.00e+00	0	43	0	423624704	62	5257
2026-01-05 10:58:03.48	221.22	31.44	-45.5	-48.5	16.2	0.00e+00	0	43	0	425721856	62	5122
2026-01-05 10:58:04.34	221.46	31.55	-45.6	-48.6	16.1	0.00e+00	0	43	0	426770432	62	5205
2026-01-05 10:58:05.48	221.78	31.70	-45.8	-48.9	15.9	0.00e+00	0	43	0	428867584	62	5380
2026-01-05 10:58:06.33	222.01	31.81	-45.8	-48.8	15.9	0.00e+00	0	44	0	430964736	62	5339
2026-01-05 10:58:07.48	222.34	31.96	-46.1	-49.3	15.6	0.00e+00	0	43	0	433061888	63	5295
2026-01-05 10:58:08.34	222.58	32.08	-46.1	-49.2	15.5	0.00e+00	0	43	0	435159040	63	5276
2026-01-05 10:58:09.48	222.91	32.23	-46.5	-49.8	14.9	0.00e+00	0	43	0	437256192	63	5644
2026-01-05 10:58:10.34	223.15	32.34	-47.0	-50.8	13.9	0.00e+00	0	43	0	438304768	64	5944
2026-01-05 10:58:11.48	223.49	32.49	-47.3	-51.3	13.5	4.50e-06	0	43	0	440401920	65	5933
2026-01-05 10:58:12.34	223.74	32.60	-47.6	-52.0	12.8	9.46e-05	0	43	0	442499072	66	6064
2026-01-05 10:58:13.49	224.08	32.75	-48.1	-53.1	11.7	6.32e-04	0	43	0	444596224	67	6522
2026-01-05 10:58:14.35	224.33	32.86	-48.0	-52.8	11.9	7.22e-04	0	43	0	445644800	67	6280
2026-01-05 10:58:15.49	224.68	33.00	-47.6	-52.0	12.7	9.99e-05	0	43	0	447741952	66	6129
2026-01-05 10:58:16.35	224.94	33.11	-47.2	-51.3	13.4	2.97e-05	0	43	0	449839104	66	5634
2026-01-05 10:58:17.50	225.29	33.26	-46.6	-50.3	14.5	0.00e+00	0	43	0	451936256	65	5304
2026-01-05 10:58:18.36	225.55	33.37	-46.6	-50.2	14.4	1.50e-06	0	43	0	452984832	64	5577
2026-01-05 10:58:19.50	225.90	33.52	-46.6	-50.3	14.5	7.00e-07	0	43	0	456130560	64	5596
2026-01-05 10:58:20.36	226.17	33.63	-47.2	-51.1	13.6	2.20e-06	0	43	0	457179136	64	6199
2026-01-05 10:58:21.51	226.53	33.77	-47.1	-50.9	13.8	2.21e-05	0	43	0	459276288	65	5721
2026-01-05 10:58:22.36	226.80	33.88	-47.3	-51.3	13.4	1.37e-05	0	44	0	461373440	65	5979
2026-01-05 10:58:23.51	227.17	34.02	-47.0	-50.8	13.7	2.20e-06	0	43	0	463470592	65	5615
2026-01-05 10:58:24.37	227.44	34.13	-47.0	-50.8	13.9	3.80e-06	0	43	0	464519168	65	5604
2026-01-05 10:58:25.51	227.81	34.27	-46.8	-50.4	14.3	7.00e-07	0	43	0	466616320	65	5397
2026-01-05 10:58:26.37	228.09	34.38	-46.9	-50.6	14.1	4.50e-06	0	43	0	468713472	65	5490
2026-01-05 10:58:27.68	228.52	34.54	-46.9	-50.6	14.0	1.50e-06	0	43	0	470810624	65	5511
2026-01-05 10:58:28.39	228.76	34.63	-46.7	-50.4	14.2	3.00e-06	0	43	0	471859200	65	5378
2026-01-05 10:58:29.68	229.19	34.79	-46.9	-50.6	14.1	1.50e-06	0	43	0	475004928	65	5513
2026-01-05 10:58:30.40	229.43	34.87	-47.1	-51.0	13.7	2.20e-06	0	43	0	476053504	65	5760
2026-01-05 10:58:31.69	229.87	35.03	-47.4	-51.5	13.2	2.21e-05	0	43	0	478150656	65	6116
2026-01-05 10:58:32.40	230.11	35.12	-47.4	-51.6	13.1	2.74e-05	0	43	0	480247808	65	6167
2026-01-05 10:58:33.69	230.55	35.27	-47.3	-51.4	13.2	5.26e-05	0	43	0	482344960	65	6010
2026-01-05 10:58:34.41	230.80	35.36	-47.3	-51.3	13.4	3.35e-05	0	43	0	483393536	65	5944
2026-01-05 10:58:35.69	231.25	35.51	-47.4	-51.4	13.1	1.67e-05	0	43	0	485490688	65	6052
2026-01-05 10:58:36.67	231.59	35.62	-47.3	-51.3	13.4	6.10e-06	0	43	0	487587840	65	5948
2026-01-05 10:58:37.99	232.06	35.78	-47.3	-51.2	13.5	1.22e-05	0	43	0	490733568	65	5899
2026-01-05 10:58:38.70	232.32	35.86	-47.2	-51.1	13.6	1.29e-05	0	43	0	491782144	65	5831
2026-01-05 10:58:39.99	232.78	36.01	-47.3	-51.4	13.2	1.75e-05	0	43	0	493879296	65	6051
2026-01-05 10:58:40.71	233.04	36.09	-47.1	-50.9	13.7	1.67e-05	0	43	0	494927872	65	5721
2026-01-05 10:58:42.00	233.51	36.24	-47.4	-51.5	13.2	1.37e-05	0	43	0	498073600	65	6127
2026-01-05 10:58:42.71	233.77	36.32	-47.3	-51.2	13.5	9.10e-06	0	43	0	499122176	65	5913
2026-01-05 10:58:44.00	234.25	36.46	-46.9	-50.6	14.0	9.90e-06	0	43	0	501219328	65	5520
2026-01-05 10:58:44.72	234.51	36.54	-46.7	-50.3	14.3	1.50e-06	0	43	0	503316480	65	5316
2026-01-05 10:58:46.06	235.02	36.69	-46.7	-50.3	14.4	7.00e-07	0	44	0	505413632	65	5282
2026-01-05 10:58:46.78	235.29	36.77	-46.9	-50.5	14.1	0.00e+00	0	43	0	506462208	65	5454
2026-01-05 10:58:48.10	235.79	36.91	-47.3	-51.3	13.4	5.30e-06	0	43	0	509607936	65	5927
2026-01-05 10:58:49.09	236.17	37.02	-47.4	-51.3	13.5	9.10e-06	0	43	0	510656512	65	5937
2026-01-05 10:58:50.39	236.67	37.15	-47.2	-51.1	13.7	1.75e-05	0	43	0	513802240	65	5805
2026-01-05 10:58:51.11	236.95	37.23	-47.4	-51.4	13.3	4.50e-06	0	44	0	514850816	65	6007
2026-01-05 10:58:52.75	237.59	37.40	-46.4	-49.7	15.0	1.50e-06	0	43	0	517996544	64	5243
2026-01-05 10:58:53.32	237.81	37.45	-46.0	-49.1	15.6	7.00e-07	0	43	0	519045120	64	4902
2026-01-05 10:58:54.99	238.47	37.62	-46.1	-49.3	15.6	0.00e+00	0	43	0	522190848	63	5280
2026-01-05 10:58:55.64	238.73	37.69	-46.2	-49.4	15.3	0.00e+00	0	43	0	523239424	63	5402
2026-01-05 10:58:57.08	239.31	37.83	-46.3	-49.5	15.3	0.00e+00	0	43	0	526385152	63	5425
2026-01-05 10:58:57.89	239.64	37.90	-46.2	-49.4	15.4	0.00e+00	0	43	0	527433728	63	5372
2026-01-05 10:58:59.04	240.10	38.01	-46.4	-49.8	15.0	0.00e+00	0	43	0	529530880	63	5597
2026-01-05 10:58:59.90	240.46	38.09	-46.2	-49.4	15.4	0.00e+00	0	43	0	531628032	63	5397
2026-01-05 10:59:01.04	240.92	38.20	-45.9	-49.0	15.8	0.00e+00	0	43	0	533725184	63	5129
2026-01-05 10:59:01.90	241.28	38.28	-46.0	-49.1	15.7	0.00e+00	0	43	0	534773760	63	5189
2026-01-05 10:59:03.04	241.75	38.38	-46.1	-49.3	15.4	0.00e+00	0	43	0	536870912	63	5330
2026-01-05 10:59:03.90	242.11	38.45	-46.1	-49.2	15.5	0.00e+00	0	43	0	538968064	63	5268
2026-01-05 10:59:05.05	242.59	38.55	-46.3	-49.7	15.2	0.00e+00	0	43	0	541065216	63	5529
2026-01-05 10:59:05.91	242.96	38.63	-46.4	-49.9	14.8	0.00e+00	0	43	0	542113792	63	5722
2026-01-05 10:59:07.13	243.47	38.73	-46.4	-49.9	14.8	0.00e+00	0	43	0	545259520	64	5384
2026-01-05 10:59:07.99	243.84	38.80	-46.2	-49.5	15.1	0.00e+00	0	43	0	546308096	64	5140
2026-01-05 10:59:09.13	244.33	38.89	-45.6	-48.6	16.1	0.00e+00	0	43	0	548405248	63	4902
2026-01-05 10:59:09.99	244.70	38.96	-45.3	-48.2	16.6	0.00e+00	0	43	0	550502400	62	4929
2026-01-05 10:59:11.14	245.20	39.05	-45.3	-48.2	16.7	0.00e+00	0	43	0	552599552	62	4969
2026-01-05 10:59:12.01	245.57	39.11	-45.7	-48.7	16.1	0.00e+00	0	43	0	553648128	62	5227
2026-01-05 10:59:13.16	246.08	39.20	-45.8	-49.0	15.8	0.00e+00	0	43	0	555745280	62	5412
2026-01-05 10:59:14.11	246.49	39.26	-46.7	-50.2	14.5	0.00e+00	0	43	0	557842432	64	5583
2026-01-05 10:59:15.29	247.01	39.35	-47.5	-51.7	12.9	3.35e-05	0	43	0	559939584	65	6271
2026-01-05 10:59:16.15	247.39	39.40	-47.4	-51.4	13.2	5.34e-05	0	43	0	562036736	66	5689
2026-01-05 10:59:17.50	247.99	39.49	-46.7	-50.3	14.3	2.20e-06	0	43	0	564133888	65	5331
2026-01-05 10:59:18.22	248.31	39.54	-46.4	-49.8	14.8	7.00e-07	0	43	0	566231040	64	5338
2026-01-05 10:59:19.51	248.89	39.62	-46.4	-49.7	15.1	0.00e+00	0	43	0	568328192	63	5565
2026-01-05 10:59:20.22	249.21	39.66	-45.9	-49.1	15.7	0.00e+00	0	43	0	569376768	63	5175
2026-01-05 10:59:21.78	249.92	39.76	-45.7	-48.7	16.1	0.00e+00	0	43	0	572522496	63	4979
2026-01-05 10:59:22.49	250.24	39.80	-45.8	-48.9	15.8	0.00e+00	0	43	0	573571072	63	5053
2026-01-05 10:59:23.78	250.82	39.87	-46.6	-50.1	14.7	0.00e+00	0	43	0	575668224	63	5834
2026-01-05 10:59:24.50	251.15	39.90	-47.0	-50.8	14.1	0.00e+00	0	43	0	577765376	64	5940
2026-01-05 10:59:25.79	251.74	39.97	-47.0	-50.8	13.9	1.14e-05	0	43	0	579862528	65	5615
2026-01-05 10:59:26.50	252.07	40.00	-46.9	-50.6	14.1	1.50e-06	0	43	0	580911104	65	5499
2026-01-05 10:59:27.79	252.66	40.07	-46.9	-50.5	14.2	7.00e-07	0	43	0	584056832	65	5413
2026-01-05 10:59:28.51	253.00	40.10	-46.9	-50.6	14.1	0.00e+00	0	43	0	585105408	65	5494
2026-01-05 10:59:29.80	253.59	40.15	-46.5	-49.9	14.7	7.00e-07	0	43	0	587202560	65	5044
2026-01-05 10:59:30.56	253.95	40.18	-46.1	-49.3	15.3	0.00e+00	0	43	0	589299712	64	5038
2026-01-05 10:59:31.85	254.55	40.23	-45.6	-48.6	16.2	0.00e+00	0	43	0	591396864	63	4895
2026-01-05 10:59:32.56	254.88	40.26	-45.8	-48.9	15.9	0.00e+00	0	43	0	592445440	63	5087
2026-01-05 10:59:33.85	255.48	40.30	-47.0	-50.8	14.0	0.00e+00	0	43	0	594542592	64	5973
2026-01-05 10:59:34.57	255.82	40.33	-47.7	-52.1	12.7	3.66e-05	0	43	0	596639744	66	6132
2026-01-05 10:59:35.85	256.42	40.37	-48.1	-52.6	12.1	3.83e-04	0	43	0	598736896	67	6159
2026-01-05 10:59:36.57	256.76	40.39	-47.6	-51.7	13.0	1.40e-04	0	43	0	599785472	67	5570
2026-01-05 10:59:37.86	257.36	40.42	-47.2	-51.1	13.8	1.37e-05	0	43	0	602931200	66	5478
2026-01-05 10:59:38.57	257.70	40.44	-46.7	-50.2	14.5	3.00e-06	0	43	0	603979776	65	5257
2026-01-05 10:59:39.86	258.31	40.47	-46.7	-50.2	14.5	7.00e-07	0	44	0	606076928	65	5268
2026-01-05 10:59:40.58	258.65	40.48	-46.9	-50.4	14.3	0.00e+00	0	43	0	608174080	65	5388
2026-01-05 10:59:41.87	259.26	40.50	-47.0	-50.8	13.9	2.20e-06	0	43	0	610271232	65	5596
2026-01-05 10:59:42.58	259.59	40.51	-47.5	-51.6	13.1	1.60e-05	0	44	0	611319808	65	6176
2026-01-05 10:59:43.87	260.21	40.53	-48.3	-53.2	11.5	2.39e-04	0	43	0	613416960	67	6631
2026-01-05 10:59:44.59	260.55	40.54	-48.9	-54.5	10.4	2.46e-03	0	43	0	615514112	68	7231
2026-01-05 10:59:46.23	261.33	40.55	-48.9	-54.5	10.4	1.45e-02	0	43	0	618659840	69	6815
2026-01-05 10:59:46.81	261.60	40.56	-48.4	-53.3	11.6	1.45e-03	0	43	0	619708416	68	6301
2026-01-05 10:59:48.64	262.47	40.56	-46.7	-50.2	14.5	3.00e-06	0	43	0	622854144	65	5245
2026-01-05 10:59:49.21	262.74	40.57	-46.2	-49.5	15.2	0.00e+00	0	44	0	623902720	64	5135
2026-01-05 10:59:50.82	263.51	40.56	-45.9	-49.0	15.8	0.00e+00	0	43	0	627048448	63	5156
2026-01-05 10:59:51.39	263.78	40.56	-46.2	-49.5	15.3	0.00e+00	0	43	0	628097024	63	5405
2026-01-05 10:59:53.00	264.54	40.55	-47.8	-52.3	12.4	7.32e-05	0	44	0	631242752	66	6296
2026-01-05 10:59:53.57	264.81	40.55	-48.5	-53.7	10.8	4.12e-04	0	43	0	632291328	67	7025
2026-01-05 10:59:55.16	265.57	40.53	-48.0	-52.4	12.4	1.03e-03	0	43	0	635437056	68	5718
2026-01-05 10:59:55.75	265.85	40.52	-47.4	-51.5	13.3	1.38e-04	0	43	0	636485632	66	5747
2026-01-05 10:59:57.42	266.64	40.50	-46.5	-50.1	14.7	7.00e-07	0	43	0	639631360	65	5162
2026-01-05 10:59:57.99	266.91	40.49	-46.3	-49.8	15.1	0.00e+00	0	43	0	640679936	64	5283
2026-01-05 10:59:59.57	267.65	40.45	-46.0	-49.2	15.7	0.00e+00	0	43	0	643825664	63	5265
2026-01-05 11:00:00.16	267.93	40.44	-45.9	-49.0	15.7	0.00e+00	0	43	0	643825664	63	5151
2026-01-05 11:00:01.73	268.67	40.40	-45.9	-49.0	15.8	0.00e+00	0	43	0	646971392	63	5116
2026-01-05 11:00:02.64	269.10	40.38	-45.6	-48.6	16.1	0.00e+00	0	43	0	649068544	63	4918
2026-01-05 11:00:03.64	269.57	40.35	-45.2	-48.0	16.8	0.00e+00	0	43	0	651165696	62	4826
2026-01-05 11:00:04.64	270.04	40.32	-45.1	-47.9	16.8	0.00e+00	0	43	0	653262848	61	5088
2026-01-05 11:00:05.64	270.50	40.28	-45.8	-48.9	15.9	0.00e+00	0	43	0	654311424	62	5357
2026-01-05 11:00:06.65	270.97	40.25	-46.7	-50.4	14.5	0.00e+00	0	43	0	656408576	63	5996
2026-01-05 11:00:07.65	271.44	40.21	-46.9	-50.9	13.9	1.50e-06	0	43	0	658505728	64	6014
2026-01-05 11:00:08.65	271.90	40.17	-46.3	-49.8	14.9	0.00e+00	0	44	0	660602880	64	5302
2026-01-05 11:00:09.65	272.37	40.13	-46.1	-49.4	15.4	0.00e+00	0	43	0	661651456	63	5346
2026-01-05 11:00:10.65	272.83	40.08	-46.2	-49.6	15.2	0.00e+00	0	43	0	663748608	63	5499
2026-01-05 11:00:11.66	273.29	40.04	-46.7	-50.5	14.3	0.00e+00	0	43	0	665845760	64	5734
2026-01-05 11:00:12.66	273.75	39.99	-46.5	-50.2	14.5	7.00e-07	0	43	0	667942912	64	5570
2026-01-05 11:00:13.66	274.21	39.94	-46.1	-49.3	15.5	0.00e+00	0	43	0	670040064	63	5334
2026-01-05 11:00:14.67	274.67	39.89	-45.8	-48.8	15.9	0.00e+00	0	43	0	672137216	63	5041
2026-01-05 11:00:15.67	275.13	39.83	-46.0	-49.2	15.6	0.00e+00	0	43	0	673185792	63	5249
2026-01-05 11:00:16.67	275.58	39.78	-46.4	-49.8	15.1	0.00e+00	0	43	0	675282944	63	5628
2026-01-05 11:00:17.67	276.03	39.72	-46.4	-49.9	14.9	0.00e+00	0	44	0	677380096	63	5705
2026-01-05 11:00:18.67	276.48	39.66	-45.5	-48.5	16.2	0.00e+00	0	43	0	679477248	63	4835
2026-01-05 11:00:19.68	276.94	39.60	-44.8	-47.5	17.2	0.00e+00	0	43	0	680525824	61	4854
2026-01-05 11:00:20.68	277.38	39.54	-44.8	-47.6	17.1	0.00e+00	0	43	0	682622976	61	4883
2026-01-05 11:00:21.68	277.83	39.47	-45.4	-48.4	16.4	0.00e+00	0	43	0	684720128	61	5388
2026-01-05 11:00:22.68	278.27	39.41	-45.6	-48.6	16.1	0.00e+00	0	43	0	686817280	62	5198
2026-01-05 11:00:23.68	278.71	39.34	-45.4	-48.4	16.4	0.00e+00	0	43	0	688914432	62	5055
2026-01-05 11:00:24.76	279.19	39.26	-44.9	-47.7	17.1	0.00e+00	0	43	0	689963008	61	4927
2026-01-05 11:00:25.65	279.58	39.20	-44.0	-46.8	17.5	0.00e+00	0	43	0	692060160	60	4749
2026-01-05 11:00:26.80	280.08	39.12	-44.6	-47.3	17.4	0.00e+00	0	43	0	694157312	60	4990
2026-01-05 11:00:27.69	280.46	39.05	-44.6	-47.4	17.3	0.00e+00	0	43	0	696254464	60	5058
2026-01-05 11:00:28.83	280.96	38.96	-44.4	-47.0	17.7	0.00e+00	0	43	0	698351616	60	4851
2026-01-05 11:00:29.69	281.33	38.89	-44.1	-46.6	18.0	0.00e+00	0	43	0	699400192	60	4600
2026-01-05 11:00:31.09	281.92	38.78	-43.7	-46.1	18.3	0.00e+00	0	43	0	702545920	59	4626
2026-01-05 11:00:31.81	282.23	38.72	-43.6	-46.0	18.5	0.00e+00	0	43	0	703594496	59	4548
2026-01-05 11:00:33.29	282.86	38.60	-43.6	-45.9	18.6	0.00e+00	0	43	0	706740224	59	4513
2026-01-05 11:00:34.00	283.15	38.54	-43.6	-46.0	18.5	0.00e+00	0	43	0	707788800	58	4823
2026-01-05 11:00:35.29	283.69	38.43	-43.8	-46.1	18.4	0.00e+00	0	43	0	709885952	58	4923
2026-01-05 11:00:36.00	283.99	38.37	-43.8	-46.2	18.3	0.00e+00	0	43	0	711983104	58	4980
2026-01-05 11:00:37.29	284.52	38.25	-44.5	-47.1	17.5	0.00e+00	0	43	0	714080256	59	5171
2026-01-05 11:00:38.00	284.81	38.19	-44.7	-47.5	17.2	0.00e+00	0	43	0	715128832	60	5110
2026-01-05 11:00:39.29	285.34	38.07	-45.0	-47.8	16.9	0.00e+00	0	43	0	717225984	60	5300
2026-01-05 11:00:40.01	285.63	38.00	-44.7	-47.4	17.3	0.00e+00	0	43	0	719323136	60	5078
2026-01-05 11:00:41.30	286.16	37.88	-44.2	-46.8	17.9	0.00e+00	0	44	0	721420288	60	4721
2026-01-05 11:00:42.02	286.45	37.81	-44.0	-46.6	18.0	0.00e+00	0	43	0	722468864	60	4610
2026-01-05 11:00:43.31	286.96	37.68	-43.5	-45.9	18.6	0.00e+00	0	44	0	725614592	59	4516
2026-01-05 11:00:44.02	287.24	37.61	-42.9	-45.2	19.2	0.00e+00	0	43	0	726663168	57	4654
2026-01-05 11:00:45.31	287.75	37.48	-42.9	-45.1	19.3	0.00e+00	0	43	0	728760320	57	4639
2026-01-05 11:00:46.02	288.03	37.41	-43.3	-45.6	18.9	0.00e+00	0	43	0	730857472	57	4875
2026-01-05 11:00:47.31	288.54	37.28	-44.2	-46.7	17.9	0.00e+00	0	44	0	732954624	59	4931
2026-01-05 11:00:48.29	288.92	37.18	-44.5	-47.1	17.5	0.00e+00	0	43	0	735051776	59	5171
2026-01-05 11:00:49.29	289.30	37.08	-44.4	-47.0	17.6	0.00e+00	0	43	0	736100352	59	5152
2026-01-05 11:00:50.29	289.68	36.97	-43.7	-46.1	18.4	0.00e+00	0	43	0	738197504	59	4620
2026-01-05 11:00:51.30	290.07	36.86	-43.3	-45.6	18.9	0.00e+00	0	43	0	740294656	58	4601
2026-01-05 11:00:52.30	290.44	36.75	-43.0	-45.3	19.1	0.00e+00	0	44	0	742391808	58	4456
2026-01-05 11:00:53.30	290.82	36.65	-42.5	-44.6	19.7	0.00e+00	0	43	0	744488960	56	4620
2026-01-05 11:00:54.30	291.19	36.54	-41.5	-43.5	20.5	0.00e+00	0	43	0	745537536	55	4339
2026-01-05 11:00:55.35	291.58	36.42	-40.9	-42.8	21.1	0.00e+00	0	43	0	747634688	53	4470
2026-01-05 11:00:56.26	291.91	36.32	-40.7	-42.7	21.2	0.00e+00	0	43	0	749731840	53	4400
2026-01-05 11:00:57.28	292.29	36.20	-41.4	-43.4	20.6	0.00e+00	0	43	0	751828992	53	4780
2026-01-05 11:00:58.28	292.65	36.09	-42.4	-44.6	19.6	0.00e+00	0	43	0	752877568	55	4877
2026-01-05 11:00:59.28	293.01	35.98	-43.2	-45.5	19.0	0.00e+00	0	43	0	754974720	57	4836
2026-01-05 11:01:00.28	293.37	35.86	-43.5	-45.8	18.7	0.00e+00	0	43	0	757071872	57	5022
2026-01-05 11:01:01.28	293.72	35.75	-43.3	-45.7	18.8	0.00e+00	0	44	0	759169024	57	4933
2026-01-05 11:01:02.28	294.08	35.63	-43.5	-45.8	18.7	0.00e+00	0	44	0	761266176	57	5036
2026-01-05 11:01:03.28	294.43	35.51	-43.9	-46.4	18.2	0.00e+00	0	43	0	762314752	58	5073
2026-01-05 11:01:04.29	294.78	35.39	-44.6	-47.3	17.4	0.00e+00	0	43	0	764411904	59	5320
2026-01-05 11:01:05.28	295.12	35.28	-45.1	-48.0	16.8	0.00e+00	0	43	0	766509056	60	5440
2026-01-05 11:01:06.29	295.47	35.16	-44.9	-47.8	16.9	0.00e+00	0	43	0	768606208	61	4985
2026-01-05 11:01:07.29	295.81	35.04	-44.4	-47.1	17.6	0.00e+00	0	43	0	770703360	60	4897
2026-01-05 11:01:08.29	296.14	34.92	-43.8	-46.3	18.2	0.00e+00	0	44	0	771751936	59	4714
2026-01-05 11:01:09.29	296.48	34.79	-44.3	-46.8	17.7	0.00e+00	0	43	0	773849088	59	5039
2026-01-05 11:01:10.37	296.84	34.66	-45.3	-48.2	16.6	0.00e+00	0	43	0	775946240	61	5225
2026-01-05 11:01:11.27	297.14	34.55	-45.8	-48.8	16.0	0.00e+00	0	43	0	778043392	62	5333
2026-01-05 11:01:12.48	297.53	34.40	-46.6	-50.0	14.8	7.00e-07	0	43	0	780140544	63	5749
2026-01-05 11:01:13.34	297.81	34.30	-46.3	-49.6	15.2	0.00e+00	0	43	0	781189120	63	5527
2026-01-05 11:01:14.48	298.18	34.16	-46.1	-49.3	15.5	0.00e+00	0	43	0	783286272	63	5311
2026-01-05 11:01:15.34	298.46	34.05	-46.4	-49.7	15.1	0.00e+00	0	43	0	785383424	63	5592
2026-01-05 11:01:16.49	298.82	33.91	-46.9	-50.6	14.1	7.00e-07	0	43	0	787480576	64	5810
2026-01-05 11:01:17.34	299.09	33.80	-47.5	-51.8	12.9	1.98e-05	0	44	0	789577728	65	6328
2026-01-05 11:01:18.49	299.45	33.65	-48.1	-53.1	11.7	2.91e-04	0	43	0	791674880	66	6929
2026-01-05 11:01:19.35	299.72	33.55	-47.7	-52.3	12.4	5.96e-04	0	43	0	792723456	66	6281
2026-01-05 11:01:20.49	300.07	33.40	-47.2	-51.3	13.4	2.05e-05	0	43	0	794820608	66	5630
2026-01-05 11:01:21.35	300.33	33.29	-46.5	-50.2	14.6	2.20e-06	0	43	0	796917760	65	5227
2026-01-05 11:01:22.49	300.68	33.15	-46.2	-49.6	15.2	0.00e+00	0	43	0	799014912	63	5465
2026-01-05 11:01:23.35	300.94	33.04	-46.3	-49.6	15.2	0.00e+00	0	43	0	800063488	63	5489
2026-01-05 11:01:24.49	301.28	32.89	-46.6	-50.1	14.7	0.00e+00	0	44	0	802160640	64	5499
2026-01-05 11:01:25.35	301.53	32.78	-47.3	-51.5	13.3	6.80e-06	0	43	0	804257792	65	6093
2026-01-05 11:01:26.62	301.91	32.62	-47.7	-52.4	12.2	8.23e-05	0	43	0	806354944	66	6406
2026-01-05 11:01:27.34	302.12	32.52	-47.5	-52.2	12.5	1.14e-04	0	43	0	807403520	66	6237
2026-01-05 11:01:28.63	302.49	32.36	-47.5	-52.3	12.5	9.68e-05	0	43	0	810549248	66	6320
2026-01-05 11:01:29.34	302.69	32.27	-47.6	-52.4	12.4	1.65e-04	0	43	0	811597824	66	6368
2026-01-05 11:01:30.63	303.06	32.10	-47.5	-52.0	12.7	1.14e-04	0	43	0	813694976	66	6109
2026-01-05 11:01:31.34	303.26	32.01	-47.5	-51.9	12.9	1.06e-04	0	43	0	815792128	66	6005
2026-01-05 11:01:32.63	303.62	31.84	-47.5	-51.7	13.0	5.03e-05	0	43	0	817889280	66	5921
2026-01-05 11:01:33.48	303.86	31.73	-46.7	-50.4	14.3	4.50e-06	0	44	0	818937856	65	5359
2026-01-05 11:01:34.62	304.18	31.58	-45.8	-49.0	15.8	0.00e+00	0	43	0	821035008	63	5103
2026-01-05 11:01:35.48	304.41	31.47	-45.3	-48.2	16.5	0.00e+00	0	43	0	823132160	62	4940
2026-01-05 11:01:36.62	304.72	31.32	-45.7	-48.8	16.0	0.00e+00	0	44	0	825229312	62	5333
2026-01-05 11:01:37.75	305.03	31.17	-45.8	-48.9	15.9	0.00e+00	0	43	0	827326464	62	5366
2026-01-05 11:01:38.61	305.26	31.06	-46.4	-49.9	15.0	0.00e+00	0	43	0	829423616	63	5665
2026-01-05 11:01:39.75	305.56	30.91	-46.9	-50.7	14.0	1.50e-06	0	43	0	831520768	64	5897
2026-01-05 11:01:40.61	305.78	30.80	-46.6	-50.2	14.5	7.00e-07	0	43	0	832569344	64	5564
2026-01-05 11:01:41.75	306.08	30.65	-46.3	-49.7	14.9	0.00e+00	0	43	0	834666496	64	5250
2026-01-05 11:01:42.60	306.30	30.54	-45.9	-49.0	15.8	0.00e+00	0	44	0	836763648	63	5142
2026-01-05 11:01:43.74	306.59	30.39	-45.5	-48.4	16.3	0.00e+00	0	44	0	838860800	62	5096
2026-01-05 11:01:44.60	306.81	30.28	-45.5	-48.5	16.3	0.00e+00	0	44	0	839909376	62	5129
2026-01-05 11:01:45.74	307.10	30.13	-46.0	-49.2	15.6	0.00e+00	0	44	0	842006528	62	5537
2026-01-05 11:01:46.60	307.32	30.02	-46.3	-49.6	15.1	0.00e+00	0	43	0	844103680	63	5519
2026-01-05 11:01:47.75	307.60	29.87	-46.3	-49.7	15.0	7.00e-07	0	44	0	846200832	63	5582
2026-01-05 11:01:48.70	307.84	29.74	-45.5	-48.5	16.2	0.00e+00	0	43	0	848297984	63	4855
2026-01-05 11:01:49.87	308.12	29.59	-44.3	-47.0	17.6	0.00e+00	0	43	0	850395136	60	4823
2026-01-05 11:01:50.78	308.34	29.47	-44.0	-46.5	18.0	0.00e+00	0	43	0	851443712	59	4860
2026-01-05 11:01:51.79	308.59	29.34	-43.6	-46.0	18.5	0.00e+00	0	44	0	853540864	59	4548
2026-01-05 11:01:52.79	308.83	29.21	-44.0	-46.5	18.0	0.00e+00	0	43	0	855638016	59	4843
2026-01-05 11:01:53.79	309.06	29.08	-44.5	-47.2	17.3	0.00e+00	0	43	0	857735168	59	5238
2026-01-05 11:01:54.79	309.30	28.95	-44.8	-47.6	17.0	0.00e+00	0	44	0	858783744	60	5205
2026-01-05 11:01:55.79	309.53	28.82	-44.7	-47.5	17.2	0.00e+00	0	44	0	860880896	60	5107
2026-01-05 11:01:56.79	309.76	28.69	-44.2	-46.8	17.7	0.00e+00	0	43	0	862978048	60	4739
2026-01-05 11:01:57.79	309.99	28.56	-43.7	-46.1	18.4	0.00e+00	0	43	0	865075200	59	4601
2026-01-05 11:01:58.79	310.22	28.43	-43.1	-45.4	19.1	0.00e+00	0	43	0	867172352	58	4495
2026-01-05 11:01:59.79	310.45	28.30	-43.0	-45.2	19.2	0.00e+00	0	43	0	868220928	57	4671
2026-01-05 11:02:00.79	310.67	28.17	-43.6	-46.0	18.5	0.00e+00	0	43	0	870318080	57	5108
2026-01-05 11:02:01.79	310.89	28.04	-44.2	-46.8	17.7	0.00e+00	0	43	0	872415232	59	5024
2026-01-05 11:02:02.86	311.13	27.90	-45.0	-47.8	16.9	0.00e+00	0	43	0	874512384	60	5330
2026-01-05 11:02:03.76	311.32	27.78	-45.1	-48.1	16.6	0.00e+00	0	43	0	875560960	61	5170
2026-01-05 11:02:04.95	311.58	27.63	-44.8	-47.6	17.0	0.00e+00	0	43	0	878706688	61	4880
2026-01-05 11:02:05.84	311.77	27.52	-44.0	-46.6	17.9	0.00e+00	0	44	0	879755264	60	4637
2026-01-05 11:02:06.99	312.02	27.37	-43.4	-45.8	18.7	0.00e+00	0	43	0	881852416	58	4707
2026-01-05 11:02:07.84	312.20	27.26	-43.0	-45.3	19.1	0.00e+00	0	43	0	883949568	57	4726
2026-01-05 11:02:08.99	312.44	27.11	-42.5	-44.8	19.5	0.00e+00	0	44	0	886046720	57	4459
2026-01-05 11:02:09.85	312.62	27.00	-42.5	-44.7	19.5	0.00e+00	0	44	0	887095296	56	4694
2026-01-05 11:02:10.99	312.86	26.86	-42.7	-45.0	19.4	0.00e+00	0	43	0	889192448	56	4842
2026-01-05 11:02:11.84	313.03	26.75	-42.8	-45.3	19.1	0.00e+00	0	43	0	891289600	56	4989
2026-01-05 11:02:12.99	313.27	26.60	-43.2	-45.8	18.6	0.00e+00	0	43	0	893386752	57	5009
2026-01-05 11:02:13.85	313.44	26.49	-43.1	-45.6	18.8	0.00e+00	0	44	0	895483904	57	4902
2026-01-05 11:02:14.99	313.67	26.35	-42.9	-45.3	19.1	0.00e+00	0	43	0	897581056	57	4748
2026-01-05 11:02:15.85	313.84	26.24	-42.7	-45.1	19.2	0.00e+00	0	43	0	898629632	57	4626
2026-01-05 11:02:17.00	314.07	26.09	-42.4	-44.7	19.6	0.00e+00	0	44	0	900726784	56	4669
2026-01-05 11:02:17.85	314.23	25.99	-42.4	-44.6	19.6	0.00e+00	0	43	0	902823936	56	4644
2026-01-05 11:02:19.00	314.46	25.84	-42.7	-45.0	19.4	0.00e+00	0	43	0	904921088	56	4821
2026-01-05 11:02:19.86	314.62	25.73	-43.0	-45.3	19.1	0.00e+00	0	44	0	905969664	56	4997
2026-01-05 11:02:21.00	314.84	25.59	-43.6	-46.0	18.4	0.00e+00	0	43	0	908066816	57	5150
2026-01-05 11:02:21.86	315.00	25.48	-43.9	-46.5	18.0	0.00e+00	0	43	0	910163968	58	5108
2026-01-05 11:02:23.00	315.22	25.34	-44.1	-46.6	17.9	0.00e+00	0	44	0	912261120	58	5204
2026-01-05 11:02:23.86	315.38	25.23	-43.8	-46.3	18.2	0.00e+00	0	43	0	913309696	58	5033
2026-01-05 11:02:25.00	315.59	25.09	-43.5	-45.9	18.5	0.00e+00	0	43	0	915406848	58	4768
2026-01-05 11:02:25.86	315.75	24.99	-43.1	-45.4	19.0	0.00e+00	0	43	0	917504000	57	4775
2026-01-05 11:02:27.02	315.96	24.84	-42.7	-44.9	19.4	0.00e+00	0	43	0	919601152	57	4514
2026-01-05 11:02:27.88	316.12	24.74	-42.5	-44.7	19.6	0.00e+00	0	44	0	921698304	56	4678
2026-01-05 11:02:29.09	316.33	24.59	-42.4	-44.6	19.7	0.00e+00	0	43	0	923795456	56	4614
2026-01-05 11:02:29.95	316.49	24.48	-42.4	-44.6	19.6	0.00e+00	0	43	0	924844032	56	4622
2026-01-05 11:02:31.09	316.69	24.34	-42.6	-44.8	19.5	0.00e+00	0	44	0	926941184	56	4746
2026-01-05 11:02:31.95	316.84	24.24	-42.8	-45.1	19.3	0.00e+00	0	44	0	929038336	56	4894
2026-01-05 11:02:33.09	317.04	24.10	-42.9	-45.2	19.1	0.00e+00	0	44	0	931135488	56	4950
2026-01-05 11:02:33.95	317.19	23.99	-43.0	-45.4	19.0	0.00e+00	0	43	0	932184064	56	5044
2026-01-05 11:02:35.10	317.38	23.85	-42.9	-45.2	19.1	0.00e+00	0	43	0	935329792	56	4972
2026-01-05 11:02:35.96	317.53	23.75	-42.9	-45.2	19.1	0.00e+00	0	44	0	936378368	56	4969
2026-01-05 11:02:37.11	317.73	23.61	-42.6	-44.8	19.4	0.00e+00	0	44	0	938475520	56	4756
2026-01-05 11:02:37.97	317.87	23.51	-42.4	-44.6	19.6	0.00e+00	0	44	0	940572672	56	4628
2026-01-05 11:02:39.11	318.06	23.37	-42.4	-44.6	19.7	0.00e+00	0	43	0	942669824	56	4623
2026-01-05 11:02:39.97	318.20	23.27	-42.3	-44.5	19.7	0.00e+00	0	44	0	943718400	56	4558
2026-01-05 11:02:41.12	318.39	23.13	-42.4	-44.6	19.6	0.00e+00	0	43	0	945815552	56	4610
2026-01-05 11:02:41.98	318.53	23.03	-42.6	-44.9	19.4	0.00e+00	0	43	0	947912704	56	4762
2026-01-05 11:02:43.14	318.72	22.89	-42.7	-45.0	19.3	0.00e+00	0	43	0	950009856	56	4819
2026-01-05 11:02:43.99	318.86	22.79	-42.9	-45.3	19.1	0.00e+00	0	44	0	951058432	56	4987
2026-01-05 11:02:45.14	319.04	22.66	-43.1	-45.5	18.8	0.00e+00	0	43	0	954204160	56	5142
2026-01-05 11:02:46.00	319.17	22.55	-43.1	-45.5	18.8	0.00e+00	0	44	0	955252736	56	5145
2026-01-05 11:02:47.14	319.35	22.42	-43.3	-45.7	18.6	0.00e+00	0	43	0	957349888	57	4965
2026-01-05 11:02:48.03	319.49	22.32	-43.3	-45.8	18.6	0.00e+00	0	43	0	959447040	57	5006
2026-01-05 11:02:49.17	319.67	22.18	-43.3	-45.8	18.6	0.00e+00	0	44	0	961544192	57	5003
2026-01-05 11:02:50.13	319.82	22.07	-43.2	-45.6	18.7	0.00e+00	0	43	0	962592768	57	4905
2026-01-05 11:02:51.31	320.00	21.93	-43.2	-45.6	18.7	0.00e+00	0	43	0	965738496	57	4922
2026-01-05 11:02:52.16	320.12	21.84	-43.1	-45.5	18.8	0.00e+00	0	43	0	966787072	57	4853
2026-01-05 11:02:53.52	320.33	21.68	-43.3	-45.7	18.7	0.00e+00	0	44	0	969932800	57	4937
2026-01-05 11:02:54.23	320.43	21.60	-43.3	-45.7	18.6	0.00e+00	0	44	0	970981376	57	4968
2026-01-05 11:02:55.52	320.63	21.45	-43.3	-45.8	18.5	0.00e+00	0	43	0	973078528	57	5027
2026-01-05 11:02:56.23	320.73	21.37	-43.3	-45.8	18.5	0.00e+00	0	44	0	974127104	57	5008
2026-01-05 11:02:57.52	320.92	21.22	-43.2	-45.8	18.6	0.00e+00	0	43	0	977272832	57	4994
2026-01-05 11:02:58.24	321.02	21.14	-43.2	-45.8	18.6	0.00e+00	0	43	0	978321408	57	5019
2026-01-05 11:02:59.52	321.21	21.00	-43.3	-45.9	18.4	0.00e+00	0	43	0	980418560	57	5092
2026-01-05 11:03:00.24	321.31	20.91	-43.2	-45.8	18.5	0.00e+00	0	43	0	982515712	57	5010
2026-01-05 11:03:01.52	321.49	20.77	-43.3	-45.8	18.5	0.00e+00	0	44	0	984612864	57	5032
2026-01-05 11:03:02.24	321.59	20.69	-43.4	-46.0	18.4	0.00e+00	0	44	0	985661440	57	5123
2026-01-05 11:03:03.53	321.77	20.54	-43.5	-46.0	18.4	0.00e+00	0	44	0	987758592	57	5134
2026-01-05 11:03:04.24	321.87	20.47	-43.7	-46.3	18.1	0.00e+00	0	43	0	989855744	58	5014
2026-01-05 11:03:05.52	322.05	20.32	-43.7	-46.3	18.1	0.00e+00	0	44	0	991952896	58	5025
2026-01-05 11:03:06.24	322.14	20.24	-43.9	-46.5	18.0	0.00e+00	0	44	0	993001472	58	5135
2026-01-05 11:03:07.64	322.33	20.09	-43.8	-46.4	18.0	0.00e+00	0	43	0	996147200	58	5074
2026-01-05 11:03:08.35	322.43	20.01	-43.7	-46.3	18.1	0.00e+00	0	44	0	997195776	58	5005
2026-01-05 11:03:09.64	322.60	19.87	-43.9	-46.5	17.9	0.00e+00	0	44	0	999292928	58	5117
2026-01-05 11:03:10.36	322.70	19.79	-43.9	-46.5	17.9	0.00e+00	0	43	0	1001390080	58	5128
2026-01-05 11:03:11.77	322.88	19.64	-44.1	-46.7	17.8	0.00e+00	0	43	0	1003487232	58	5226
2026-01-05 11:03:12.49	322.98	19.56	-44.3	-47.0	17.4	0.00e+00	0	44	0	1004535808	59	5117
2026-01-05 11:03:13.84	323.15	19.41	-44.6	-47.4	17.1	0.00e+00	0	43	0	1007681536	59	5348
2026-01-05 11:03:14.56	323.25	19.33	-44.9	-47.9	16.7	0.00e+00	0	43	0	1008730112	60	5377
2026-01-05 11:03:15.84	323.41	19.20	-45.4	-48.6	16.0	0.00e+00	0	43	0	1010827264	61	5472
2026-01-05 11:03:16.56	323.50	19.12	-45.5	-48.8	15.8	0.00e+00	0	44	0	1012924416	61	5644
2026-01-05 11:03:17.84	323.67	18.98	-46.1	-49.9	14.7	0.00e+00	0	43	0	1015021568	62	6010
2026-01-05 11:03:18.55	323.75	18.91	-46.0	-49.7	15.0	0.00e+00	0	44	0	1016070144	63	5533
2026-01-05 11:03:19.84	323.92	18.77	-46.0	-49.7	15.0	7.00e-07	0	44	0	1019215872	63	5540
2026-01-05 11:03:20.56	324.00	18.69	-46.2	-50.0	14.6	0.00e+00	0	44	0	1020264448	63	5745
2026-01-05 11:03:21.85	324.16	18.56	-45.6	-48.9	15.6	0.00e+00	0	43	0	1022361600	63	5082
2026-01-05 11:03:22.56	324.25	18.48	-45.6	-48.9	15.7	0.00e+00	0	43	0	1023410176	63	5074
2026-01-05 11:03:23.85	324.41	18.34	-44.9	-47.8	16.7	0.00e+00	0	43	0	1026555904	61	5010
2026-01-05 11:03:24.66	324.50	18.26	-44.8	-47.6	16.9	0.00e+00	0	43	0	1027604480	61	4912
2026-01-05 11:03:26.12	324.68	18.11	-44.4	-47.1	17.4	0.00e+00	0	43	0	1030750208	60	4882
2026-01-05 11:03:26.84	324.77	18.03	-44.1	-46.8	17.7	0.00e+00	0	43	0	1031798784	60	4710
2026-01-05 11:03:28.12	324.92	17.90	-44.4	-47.1	17.4	0.00e+00	0	43	0	1033895936	60	4886
2026-01-05 11:03:28.84	325.00	17.83	-44.4	-47.1	17.4	0.00e+00	0	43	0	1035993088	60	4904
2026-01-05 11:03:30.12	325.15	17.69	-44.2	-46.9	17.5	0.00e+00	0	43	0	1038090240	60	4814
2026-01-05 11:03:30.84	325.23	17.62	-44.5	-47.5	17.0	0.00e+00	0	44	0	1039138816	60	5104
2026-01-05 11:03:32.12	325.38	17.49	-44.3	-47.2	17.2	0.00e+00	0	43	0	1042284544	60	4975
2026-01-05 11:03:32.91	325.47	17.41	-44.5	-47.5	17.1	0.00e+00	0	43	0	1043333120	60	5142
2026-01-05 11:03:34.13	325.61	17.28	-44.8	-47.9	16.6	0.00e+00	0	43	0	1045430272	60	5386
2026-01-05 11:03:34.99	325.71	17.20	-44.6	-47.8	16.7	0.00e+00	0	43	0	1047527424	60	5299
2026-01-05 11:03:36.13	325.83	17.08	-44.6	-47.8	16.7	0.00e+00	0	44	0	1049624576	60	5316
2026-01-05 11:03:36.99	325.93	17.00	-44.6	-47.9	16.7	0.00e+00	0	43	0	1050673152	60	5347
2026-01-05 11:03:38.13	326.06	16.88	-44.5	-47.8	16.7	0.00e+00	0	43	0	1052770304	60	5282
2026-01-05 11:03:38.99	326.15	16.79	-44.6	-47.8	16.7	0.00e+00	0	43	0	1054867456	60	5334
2026-01-05 11:03:40.13	326.27	16.68	-44.5	-47.6	16.9	0.00e+00	0	43	0	1056964608	60	5211
2026-01-05 11:03:40.99	326.37	16.60	-44.3	-47.5	17.0	0.00e+00	0	43	0	1058013184	60	5128
2026-01-05 11:03:42.15	326.49	16.48	-44.4	-47.7	16.8	0.00e+00	0	44	0	1060110336	60	5240
2026-01-05 11:03:43.01	326.59	16.40	-44.2	-47.3	17.1	0.00e+00	0	43	0	1062207488	60	5039
2026-01-05 11:03:44.16	326.71	16.28	-44.2	-47.2	17.2	0.00e+00	0	44	0	1064304640	59	5258
2026-01-05 11:03:45.02	326.80	16.20	-44.0	-47.0	17.3	0.00e+00	0	43	0	1066401792	59	5151
2026-01-05 11:03:46.16	326.92	16.09	-44.1	-47.1	17.3	0.00e+00	0	43	0	1068498944	59	5190
2026-01-05 11:03:47.12	327.02	15.99	-44.1	-47.1	17.2	0.00e+00	0	44	0	1069547520	59	5214
2026-01-05 11:03:48.29	327.14	15.88	-44.0	-47.0	17.4	0.00e+00	0	43	0	1071644672	59	5117
2026-01-05 11:03:49.14	327.23	15.80	-44.1	-47.1	17.3	0.00e+00	0	44	0	1073741824	59	5186
2026-01-05 11:03:50.29	327.35	15.68	-44.2	-47.3	17.2	0.00e+00	0	44	0	1075838976	59	5283
2026-01-05 11:03:51.14	327.43	15.60	-44.3	-47.3	17.1	0.00e+00	0	43	0	1077936128	59	5298
2026-01-05 11:03:52.29	327.55	15.49	-44.3	-47.3	17.1	0.00e+00	0	43	0	1080033280	59	5327
2026-01-05 11:03:53.15	327.64	15.41	-44.4	-47.3	17.1	0.00e+00	0	43	0	1081081856	59	5311
2026-01-05 11:03:54.29	327.75	15.30	-44.4	-47.2	17.1	0.00e+00	0	44	0	1083179008	59	5272
2026-01-05 11:03:55.15	327.83	15.22	-44.5	-47.4	17.0	0.00e+00	0	43	0	1085276160	59	5359
2026-01-05 11:03:56.69	327.99	15.07	-44.4	-47.3	17.1	0.00e+00	0	44	0	1087373312	59	5297
2026-01-05 11:03:57.40	328.06	15.01	-44.5	-47.3	17.1	0.00e+00	0	43	0	1089470464	59	5321
2026-01-05 11:03:58.69	328.18	14.88	-44.5	-47.3	17.1	0.00e+00	0	44	0	1091567616	59	5305
2026-01-05 11:03:59.40	328.25	14.82	-44.4	-47.2	17.1	0.00e+00	0	44	0	1092616192	59	5278
2026-01-05 11:04:00.69	328.37	14.70	-44.3	-47.0	17.4	0.00e+00	0	44	0	1095761920	59	5112
2026-01-05 11:04:01.48	328.45	14.62	-44.3	-47.0	17.3	0.00e+00	0	44	0	1096810496	59	5152
2026-01-05 11:04:02.63	328.56	14.52	-44.2	-46.9	17.4	0.00e+00	0	44	0	1098907648	59	5071
2026-01-05 11:04:03.71	328.66	14.42	-44.3	-47.0	17.4	0.00e+00	0	43	0	1101004800	59	5114
2026-01-05 11:04:04.74	328.76	14.32	-44.4	-47.1	17.3	0.00e+00	0	43	0	1103101952	59	5183
2026-01-05 11:04:05.74	328.85	14.23	-44.5	-47.3	17.1	0.00e+00	0	43	0	1105199104	59	5293
2026-01-05 11:04:06.74	328.94	14.14	-44.7	-47.6	16.9	0.00e+00	0	43	0	1106247680	60	5186
2026-01-05 11:04:07.96	329.06	14.03	-44.7	-47.5	16.9	0.00e+00	0	43	0	1109393408	60	5156
2026-01-05 11:04:08.85	329.14	13.94	-44.8	-47.8	16.4	0.00e+00	0	44	0	1110441984	60	5321
2026-01-05 11:04:09.99	329.24	13.84	-45.1	-48.2	16.3	0.00e+00	0	43	0	1112539136	60	5533
2026-01-05 11:04:10.85	329.32	13.76	-45.2	-48.3	16.2	0.00e+00	0	43	0	1114636288	60	5637
2026-01-05 11:04:11.99	329.42	13.66	-45.3	-48.5	15.8	0.00e+00	0	43	0	1116733440	61	5463
2026-01-05 11:04:12.85	329.50	13.58	-45.6	-48.9	15.6	0.00e+00	0	43	0	1117782016	61	5708
2026-01-05 11:04:13.99	329.60	13.48	-45.6	-49.0	15.5	0.00e+00	0	43	0	1119879168	61	5742
2026-01-05 11:04:14.86	329.68	13.40	-45.9	-49.3	15.2	0.00e+00	0	43	0	1121976320	62	5637
2026-01-05 11:04:16.00	329.78	13.30	-45.8	-49.1	15.4	0.00e+00	0	43	0	1124073472	62	5527
2026-01-05 11:04:16.85	329.85	13.23	-45.9	-49.4	15.1	0.00e+00	0	44	0	1125122048	62	5718
2026-01-05 11:04:18.00	329.95	13.12	-46.0	-49.5	15.0	0.00e+00	0	43	0	1128267776	62	5730
2026-01-05 11:04:18.85	330.03	13.05	-45.9	-49.4	15.1	0.00e+00	0	44	0	1129316352	62	5708
2026-01-05 11:04:20.09	330.13	12.94	-45.9	-49.4	15.0	0.00e+00	0	44	0	1131413504	62	5707
2026-01-05 11:04:20.94	330.20	12.86	-45.8	-49.3	15.0	0.00e+00	0	44	0	1133510656	62	5644
2026-01-05 11:04:22.15	330.31	12.76	-45.7	-49.1	15.4	0.00e+00	0	44	0	1135607808	62	5489
2026-01-05 11:04:23.01	330.38	12.68	-45.6	-49.0	15.5	0.00e+00	0	44	0	1136656384	62	5435
2026-01-05 11:04:24.16	330.48	12.58	-45.5	-48.8	15.6	7.00e-07	0	44	0	1139802112	62	5309
2026-01-05 11:04:25.02	330.55	12.51	-45.4	-48.7	15.8	0.00e+00	0	43	0	1140850688	62	5238
2026-01-05 11:04:26.16	330.64	12.41	-45.3	-48.5	15.9	0.00e+00	0	43	0	1142947840	62	5143
2026-01-05 11:04:27.04	330.72	12.33	-45.3	-48.4	16.0	0.00e+00	0	44	0	1145044992	62	5076
2026-01-05 11:04:28.19	330.81	12.23	-45.2	-48.2	16.2	0.00e+00	0	44	0	1147142144	62	4969
2026-01-05 11:04:29.04	330.88	12.16	-44.9	-47.9	16.5	0.00e+00	0	44	0	1148190720	61	5090
2026-01-05 11:04:30.19	330.97	12.06	-44.9	-47.9	16.5	0.00e+00	0	43	0	1150287872	61	5084
2026-01-05 11:04:31.04	331.04	11.99	-44.8	-47.7	16.7	0.00e+00	0	44	0	1152385024	61	4972
2026-01-05 11:04:32.18	331.13	11.89	-44.7	-47.5	16.8	0.00e+00	0	43	0	1154482176	61	4870
2026-01-05 11:04:33.22	331.22	11.81	-44.7	-47.6	16.8	0.00e+00	0	43	0	1156579328	61	4892
2026-01-05 11:04:34.22	331.29	11.72	-44.7	-47.5	16.9	0.00e+00	0	43	0	1158676480	61	4849
2026-01-05 11:04:35.22	331.37	11.64	-44.6	-47.5	16.9	0.00e+00	0	44	0	1159725056	61	4821
2026-01-05 11:04:36.23	331.45	11.55	-44.5	-47.4	17.0	0.00e+00	0	44	0	1161822208	61	4763
2026-01-05 11:04:37.54	331.56	11.44	-44.6	-47.5	16.9	0.00e+00	0	44	0	1164967936	60	5117
2026-01-05 11:04:38.29	331.61	11.38	-44.5	-47.4	17.0	0.00e+00	0	43	0	1166016512	60	5045
2026-01-05 11:04:39.58	331.71	11.27	-44.3	-47.2	17.2	0.00e+00	0	44	0	1168113664	60	4947
2026-01-05 11:04:40.29	331.77	11.21	-44.5	-47.4	16.9	0.00e+00	0	43	0	1169162240	60	5091
2026-01-05 11:04:41.58	331.87	11.11	-44.5	-47.4	16.9	0.00e+00	0	43	0	1172307968	60	5091
2026-01-05 11:04:42.29	331.92	11.05	-44.4	-47.2	17.1	0.00e+00	0	43	0	1173356544	60	4957
2026-01-05 11:04:43.57	332.02	10.94	-44.5	-47.5	16.9	0.00e+00	0	44	0	1175453696	60	5109
2026-01-05 11:04:44.29	332.07	10.88	-44.5	-47.4	16.9	0.00e+00	0	43	0	1177550848	60	5071
2026-01-05 11:04:45.57	332.17	10.78	-44.6	-47.5	16.8	0.00e+00	0	44	0	1179648000	60	5137
2026-01-05 11:04:46.29	332.22	10.72	-44.5	-47.4	16.9	0.00e+00	0	43	0	1180696576	60	5088
2026-01-05 11:04:47.58	332.32	10.61	-44.5	-47.4	16.9	0.00e+00	0	44	0	1182793728	60	5075
2026-01-05 11:04:48.30	332.37	10.56	-44.7	-47.7	16.6	0.00e+00	0	44	0	1184890880	60	5257
2026-01-05 11:04:49.59	332.46	10.45	-44.7	-47.7	16.6	0.00e+00	0	44	0	1186988032	60	5235
2026-01-05 11:04:50.30	332.51	10.39	-44.7	-47.7	16.6	0.00e+00	0	43	0	1188036608	60	5256
2026-01-05 11:04:51.59	332.61	10.29	-44.8	-47.9	16.5	0.00e+00	0	43	0	1191182336	60	5342
2026-01-05 11:04:52.30	332.66	10.23	-44.8	-47.8	16.5	0.00e+00	0	43	0	1192230912	60	5318
2026-01-05 11:04:53.59	332.75	10.13	-44.9	-48.0	16.3	0.00e+00	0	44	0	1194328064	60	5411
2026-01-05 11:04:54.31	332.80	10.07	-45.0	-48.1	16.2	0.00e+00	0	43	0	1195376640	60	5517
2026-01-05 11:04:55.60	332.89	9.97	-45.0	-48.1	16.2	0.00e+00	0	43	0	1198522368	60	5524
2026-01-05 11:04:56.31	332.95	9.91	-45.1	-48.2	16.1	0.00e+00	0	43	0	1199570944	60	5588
2026-01-05 11:04:57.60	333.04	9.81	-45.2	-48.5	15.9	0.00e+00	0	44	0	1201668096	61	5408
2026-01-05 11:04:58.41	333.09	9.75	-45.1	-48.2	16.1	0.00e+00	0	43	0	1203765248	61	5266
2026-01-05 11:04:59.56	333.17	9.66	-45.2	-48.4	15.9	0.00e+00	0	44	0	1205862400	61	5375
2026-01-05 11:05:00.42	333.23	9.59	-45.3	-48.7	15.7	0.00e+00	0	44	0	1206910976	61	5546
2026-01-05 11:05:01.56	333.31	9.50	-45.4	-48.7	15.6	0.00e+00	0	44	0	1209008128	61	5560
2026-01-05 11:05:02.42	333.37	9.43	-45.4	-48.7	15.7	0.00e+00	0	43	0	1211105280	61	5568
2026-01-05 11:05:03.57	333.45	9.34	-45.5	-48.9	15.4	0.00e+00	0	43	0	1213202432	61	5722
2026-01-05 11:05:04.43	333.51	9.28	-45.6	-49.0	15.3	0.00e+00	0	43	0	1215299584	61	5784
2026-01-05 11:05:05.57	333.58	9.19	-45.5	-49.0	15.4	0.00e+00	0	43	0	1217396736	62	5440
2026-01-05 11:05:06.43	333.64	9.12	-45.6	-49.1	15.2	0.00e+00	0	43	0	1218445312	62	5496
2026-01-05 11:05:07.65	333.72	9.03	-45.7	-49.3	15.0	0.00e+00	0	43	0	1220542464	62	5597
2026-01-05 11:05:08.51	333.78	8.96	-46.1	-49.8	14.6	0.00e+00	0	44	0	1222639616	62	5965
2026-01-05 11:05:09.66	333.86	8.88	-50.1	-65.8	3.8	1.45e+00	0	43	104	1223688192	70	23792
2026-01-05 11:05:10.52	333.91	8.81	-50.2	-65.8	3.8	1.49e+00	0	43	104	1223688192	71	22507
2026-01-05 11:05:11.66	333.99	8.72	-49.5	-66.0	3.8	1.49e+00	0	44	104	1223688192	71	22882
2026-01-05 11:05:12.53	334.04	8.66	-50.3	-66.1	3.8	1.49e+00	0	43	104	1223688192	71	23153
2026-01-05 11:05:13.67	334.12	8.57	-50.6	-66.2	3.8	1.49e+00	0	43	104	1223688192	71	23456
2026-01-05 11:05:14.53	334.17	8.51	-50.0	-66.2	3.8	1.49e+00	0	43	104	1223688192	71	23468
2026-01-05 11:05:15.68	334.25	8.42	-50.3	-66.2	3.8	1.49e+00	0	43	104	1223688192	72	22260
