passes_logs/2026/01/05/T1/T1__20260105_212452_SUOMI_NPP_rec.log

#Pass ID: 20260105_212452_SUOMI NPP
#Satellite: SUOMI NPP
#Configuration: NPP
#almurnet v.1.7.20251203
#Start time: 2026-01-05 21:24:52

#Version: 2.0.20230620
#Station: T1
#Location: 37.570604 lon 55.790049 lat
#TLE: 1 37849U 11061A   26004.95404768  .00000136  00000+0  85334-4 0  9991
#TLE: 2 37849  98.7801 307.0898 0002575  80.6707 279.4760 14.19522289735281

#Time	Az	El	Level	Level2	SNR	BER	BlckErr	Temp	State	Recorded	gain1	gain2
2026-01-05 21:24:52.54	45.14	5.00	-50.0	-65.4	3.8	1.49e+00	0	40	0	0	72	20131
2026-01-05 21:24:53.53	45.27	5.03	-50.0	-65.3	3.8	1.49e+00	0	41	104	0	72	20055
2026-01-05 21:24:54.53	45.41	5.06	-50.0	-65.3	3.8	1.49e+00	0	40	104	0	72	19986
2026-01-05 21:24:55.53	45.54	5.10	-50.0	-65.4	3.8	1.49e+00	0	40	104	0	72	20113
2026-01-05 21:24:56.53	45.67	5.13	-50.0	-65.3	3.8	1.49e+00	0	40	104	0	72	20038
2026-01-05 21:24:57.54	45.81	5.17	-50.0	-65.4	3.8	1.49e+00	0	40	104	0	72	20112
2026-01-05 21:24:58.54	45.94	5.20	-50.0	-65.4	3.8	1.49e+00	0	40	104	0	71	21356
2026-01-05 21:24:59.54	46.07	5.24	-50.0	-65.4	3.8	1.49e+00	0	41	104	0	71	21300
2026-01-05 21:25:00.54	46.21	5.27	-50.0	-65.4	3.8	1.49e+00	0	41	104	0	71	21327
2026-01-05 21:25:01.54	46.34	5.30	-50.0	-65.4	3.8	1.49e+00	0	41	104	0	71	21323
2026-01-05 21:25:02.54	46.48	5.34	-50.0	-65.4	3.8	1.49e+00	0	41	104	0	71	21315
2026-01-05 21:25:03.54	46.61	5.37	-50.0	-65.3	3.8	1.49e+00	0	41	104	0	71	21260
2026-01-05 21:25:04.54	46.75	5.41	-50.0	-65.4	3.8	1.49e+00	0	41	104	0	71	21279
2026-01-05 21:25:05.54	46.88	5.44	-50.0	-65.4	3.8	1.49e+00	0	41	104	0	71	21346
2026-01-05 21:25:06.55	47.02	5.47	-50.0	-65.4	3.8	1.49e+00	0	41	104	0	71	21353
2026-01-05 21:25:07.55	47.16	5.51	-50.0	-65.4	3.8	1.49e+00	0	41	104	0	71	21303
2026-01-05 21:25:08.55	47.29	5.54	-50.0	-65.4	3.8	1.49e+00	0	41	104	0	71	21331
2026-01-05 21:25:09.56	47.43	5.57	-50.0	-65.4	3.8	1.49e+00	0	41	104	0	71	21288
2026-01-05 21:25:10.56	47.57	5.61	-50.0	-65.4	3.8	1.49e+00	0	41	104	0	71	21341
2026-01-05 21:25:11.56	47.70	5.64	-50.0	-65.4	3.8	1.49e+00	0	41	104	0	71	21326
2026-01-05 21:25:12.56	47.84	5.67	-50.0	-65.4	3.8	1.49e+00	0	41	104	0	71	21392
2026-01-05 21:25:13.57	47.98	5.71	-50.0	-65.4	3.8	1.49e+00	0	41	104	0	71	21317
2026-01-05 21:25:14.57	48.12	5.74	-50.0	-65.4	3.8	1.49e+00	0	41	104	0	71	21375
2026-01-05 21:25:15.57	48.26	5.77	-50.0	-65.4	3.8	1.49e+00	0	41	104	0	71	21348
2026-01-05 21:25:16.57	48.40	5.80	-50.0	-65.4	3.8	1.49e+00	0	41	104	0	71	21285
2026-01-05 21:25:17.56	48.54	5.84	-50.0	-65.4	3.8	1.49e+00	0	41	104	0	71	21430
2026-01-05 21:25:18.56	48.68	5.87	-50.0	-65.4	3.8	1.49e+00	0	41	104	0	71	21334
2026-01-05 21:25:19.57	48.82	5.90	-50.0	-65.4	3.8	1.49e+00	0	41	104	0	71	21414
2026-01-05 21:25:20.56	48.95	5.93	-50.0	-65.4	3.8	1.49e+00	0	41	104	0	71	21405
2026-01-05 21:25:21.56	49.10	5.96	-50.0	-65.3	3.8	1.49e+00	0	41	104	0	71	21228
2026-01-05 21:25:22.57	49.24	6.00	-50.0	-65.4	3.8	1.49e+00	0	42	104	0	71	21324
2026-01-05 21:25:23.57	49.38	6.03	-50.0	-65.4	3.8	1.49e+00	0	41	104	0	71	21368
2026-01-05 21:25:24.57	49.52	6.06	-50.0	-65.4	3.8	1.49e+00	0	41	104	0	71	21327
2026-01-05 21:25:25.57	49.66	6.09	-50.0	-65.4	3.8	1.49e+00	0	42	104	0	71	21285
2026-01-05 21:25:26.57	49.80	6.12	-50.0	-65.4	3.8	1.49e+00	0	42	104	0	71	21337
2026-01-05 21:25:27.57	49.95	6.16	-50.0	-65.4	3.8	1.49e+00	0	42	104	0	71	21405
2026-01-05 21:25:28.57	50.09	6.19	-50.0	-65.4	3.8	1.49e+00	0	42	104	0	71	21290
2026-01-05 21:25:29.56	50.23	6.22	-50.0	-65.4	3.8	1.49e+00	0	41	104	0	71	21362
2026-01-05 21:25:30.56	50.37	6.25	-50.0	-65.4	3.8	1.49e+00	0	42	104	0	71	21313
2026-01-05 21:25:31.56	50.52	6.28	-50.0	-65.4	3.8	1.49e+00	0	42	104	0	71	21310
2026-01-05 21:25:32.56	50.66	6.31	-50.0	-65.4	3.8	1.49e+00	0	42	104	0	71	21293
2026-01-05 21:25:33.56	50.80	6.34	-50.0	-65.4	3.8	1.49e+00	0	41	104	0	71	21346
2026-01-05 21:25:34.56	50.95	6.37	-50.0	-65.4	3.8	1.49e+00	0	42	104	0	71	21334
2026-01-05 21:25:35.56	51.09	6.40	-50.0	-65.4	3.8	1.49e+00	0	42	104	0	71	21284
2026-01-05 21:25:36.56	51.24	6.43	-50.0	-65.4	3.8	1.49e+00	0	42	104	0	71	21295
2026-01-05 21:25:37.56	51.38	6.46	-50.0	-65.4	3.8	1.49e+00	0	42	104	0	71	21263
2026-01-05 21:25:38.55	51.53	6.49	-50.0	-65.4	3.8	1.49e+00	0	42	104	0	71	21285
2026-01-05 21:25:39.55	51.67	6.52	-50.0	-65.4	3.8	1.49e+00	0	42	104	0	71	21371
2026-01-05 21:25:40.55	51.82	6.55	-50.0	-65.3	3.8	1.49e+00	0	42	104	0	71	21215
2026-01-05 21:25:41.55	51.96	6.58	-50.0	-65.4	3.8	1.49e+00	0	42	104	0	71	21328
2026-01-05 21:25:42.55	52.11	6.61	-50.0	-65.4	3.8	1.49e+00	0	42	104	0	71	21382
2026-01-05 21:25:43.55	52.26	6.64	-50.0	-65.4	3.8	1.49e+00	0	42	104	0	71	21280
2026-01-05 21:25:44.54	52.40	6.67	-50.0	-65.3	3.8	1.49e+00	0	42	104	0	71	21247
2026-01-05 21:25:45.55	52.55	6.70	-50.0	-65.3	3.8	1.49e+00	0	42	104	0	71	21226
2026-01-05 21:25:46.55	52.70	6.73	-50.0	-65.4	3.8	1.49e+00	0	42	104	0	71	21275
2026-01-05 21:25:47.55	52.85	6.76	-50.0	-65.4	3.8	1.49e+00	0	42	104	0	71	21264
2026-01-05 21:25:48.55	53.00	6.79	-50.0	-65.4	3.8	1.49e+00	0	42	104	0	71	21310
2026-01-05 21:25:49.55	53.15	6.82	-50.0	-65.3	3.8	1.49e+00	0	42	104	0	71	21233
2026-01-05 21:25:50.55	53.30	6.85	-50.0	-65.4	3.8	1.49e+00	0	42	104	0	71	21315
2026-01-05 21:25:51.55	53.44	6.88	-50.0	-65.4	3.8	1.49e+00	0	42	104	0	71	21346
2026-01-05 21:25:52.55	53.59	6.90	-50.0	-65.4	3.8	1.49e+00	0	42	104	0	71	21328
2026-01-05 21:25:53.55	53.74	6.93	-50.0	-65.3	3.8	1.49e+00	0	42	104	0	71	21254
2026-01-05 21:25:54.54	53.89	6.96	-50.0	-65.3	3.8	1.49e+00	0	42	104	0	71	21256
2026-01-05 21:25:55.54	54.04	6.99	-50.0	-65.4	3.8	1.49e+00	0	42	104	0	71	21317
2026-01-05 21:25:56.54	54.19	7.02	-50.0	-65.4	3.8	1.49e+00	0	42	104	0	71	21311
2026-01-05 21:25:57.53	54.34	7.04	-50.0	-65.4	3.8	1.49e+00	0	42	104	0	71	21302
2026-01-05 21:25:58.53	54.49	7.07	-50.0	-65.4	3.8	1.49e+00	0	42	104	0	71	21316
2026-01-05 21:25:59.53	54.65	7.10	-50.0	-65.4	3.8	1.49e+00	0	42	104	0	71	21288
2026-01-05 21:26:00.53	54.80	7.13	-50.0	-65.4	3.8	1.49e+00	0	42	104	0	71	21349
2026-01-05 21:26:01.53	54.95	7.15	-50.0	-65.4	3.8	1.49e+00	0	42	104	0	71	21351
2026-01-05 21:26:02.53	55.10	7.18	-50.0	-65.4	3.8	1.49e+00	0	42	104	0	71	21355
2026-01-05 21:26:03.53	55.25	7.21	-50.0	-65.4	3.8	1.49e+00	0	42	104	0	71	21302
2026-01-05 21:26:04.53	55.41	7.23	-50.0	-65.3	3.8	1.49e+00	0	42	104	0	71	21214
2026-01-05 21:26:05.52	55.56	7.26	-50.0	-65.3	3.8	1.49e+00	0	42	104	0	71	21215
2026-01-05 21:26:06.52	55.71	7.29	-50.0	-65.4	3.8	1.49e+00	0	42	104	0	71	21277
2026-01-05 21:26:07.52	55.87	7.31	-50.0	-65.4	3.8	1.49e+00	0	42	104	0	71	21327
2026-01-05 21:26:08.52	56.02	7.34	-50.0	-65.4	3.8	1.49e+00	0	42	104	0	71	21344
2026-01-05 21:26:09.51	56.17	7.37	-50.0	-65.4	3.8	1.49e+00	0	42	104	0	71	21320
2026-01-05 21:26:10.51	56.33	7.39	-50.0	-65.4	3.8	1.49e+00	0	43	104	0	71	21272
2026-01-05 21:26:11.50	56.48	7.42	-50.0	-65.4	3.8	1.49e+00	0	42	104	0	71	21261
2026-01-05 21:26:12.50	56.63	7.44	-50.0	-65.4	3.8	1.49e+00	0	42	104	0	71	21345
2026-01-05 21:26:13.50	56.79	7.47	-50.0	-65.4	3.8	1.49e+00	0	42	104	0	71	21303
2026-01-05 21:26:14.50	56.95	7.49	-50.0	-65.4	3.8	1.49e+00	0	42	104	0	71	21265
2026-01-05 21:26:15.50	57.10	7.52	-50.0	-65.3	3.8	1.49e+00	0	42	104	0	71	21253
2026-01-05 21:26:16.49	57.26	7.54	-50.0	-65.3	3.8	1.49e+00	0	42	104	0	71	21250
2026-01-05 21:26:17.49	57.41	7.57	-50.0	-65.4	3.8	1.49e+00	0	42	104	0	71	21402
2026-01-05 21:26:18.49	57.57	7.59	-50.0	-65.4	3.8	1.49e+00	0	42	104	0	71	21357
2026-01-05 21:26:19.49	57.73	7.62	-50.0	-65.4	3.8	1.49e+00	0	42	104	0	71	21331
2026-01-05 21:26:20.49	57.88	7.64	-50.0	-65.4	3.8	1.49e+00	0	43	104	0	71	21337
2026-01-05 21:26:21.49	58.04	7.67	-50.0	-65.4	3.8	1.49e+00	0	43	104	0	71	21333
2026-01-05 21:26:22.49	58.20	7.69	-50.0	-65.4	3.8	1.49e+00	0	42	104	0	71	21288
2026-01-05 21:26:23.49	58.36	7.71	-50.0	-65.3	3.8	1.49e+00	0	42	104	0	71	21216
2026-01-05 21:26:24.49	58.51	7.74	-50.0	-65.4	3.8	1.49e+00	0	42	104	0	71	21337
2026-01-05 21:26:25.50	58.67	7.76	-50.0	-65.4	3.8	1.49e+00	0	43	104	0	71	21304
2026-01-05 21:26:26.50	58.83	7.79	-50.0	-65.3	3.8	1.49e+00	0	43	104	0	71	21256
2026-01-05 21:26:27.50	58.99	7.81	-50.0	-65.4	3.8	1.49e+00	0	43	104	0	71	21350
2026-01-05 21:26:28.50	59.15	7.83	-50.0	-65.4	3.8	1.49e+00	0	42	104	0	71	21283
2026-01-05 21:26:29.50	59.31	7.85	-50.0	-65.4	3.8	1.49e+00	0	43	104	0	71	21262
2026-01-05 21:26:30.50	59.47	7.88	-50.0	-65.4	3.8	1.49e+00	0	43	104	0	71	21321
2026-01-05 21:26:31.50	59.63	7.90	-50.0	-65.4	3.8	1.49e+00	0	42	104	0	71	21340
2026-01-05 21:26:32.49	59.79	7.92	-50.0	-65.4	3.8	1.49e+00	0	43	104	0	71	21390
2026-01-05 21:26:33.50	59.95	7.94	-50.0	-65.4	3.8	1.49e+00	0	43	104	0	71	21342
2026-01-05 21:26:34.50	60.11	7.97	-50.0	-65.4	3.8	1.49e+00	0	43	104	0	71	21287
2026-01-05 21:26:35.50	60.27	7.99	-50.0	-65.4	3.8	1.49e+00	0	42	104	0	71	21340
2026-01-05 21:26:36.50	60.43	8.01	-50.0	-65.4	3.8	1.49e+00	0	43	104	0	71	21348
2026-01-05 21:26:37.50	60.59	8.03	-50.0	-65.4	3.8	1.49e+00	0	43	104	0	71	21272
2026-01-05 21:26:38.50	60.76	8.05	-50.0	-65.4	3.8	1.49e+00	0	42	104	0	71	21286
2026-01-05 21:26:39.50	60.92	8.07	-50.0	-65.4	3.8	1.49e+00	0	43	104	0	71	21333
2026-01-05 21:26:40.51	61.08	8.10	-50.0	-65.4	3.8	1.49e+00	0	43	104	0	71	21376
2026-01-05 21:26:41.51	61.24	8.12	-50.0	-65.4	3.8	1.49e+00	0	43	104	0	71	21295
2026-01-05 21:26:42.51	61.41	8.14	-50.0	-65.4	3.8	1.49e+00	0	43	104	0	71	21274
2026-01-05 21:26:43.51	61.57	8.16	-50.0	-65.4	3.8	1.49e+00	0	43	104	0	71	21364
2026-01-05 21:26:44.51	61.73	8.18	-50.0	-65.4	3.8	1.49e+00	0	43	104	0	71	21313
2026-01-05 21:26:45.51	61.89	8.20	-50.0	-65.3	3.8	1.49e+00	0	43	104	0	71	21255
2026-01-05 21:26:46.51	62.06	8.22	-50.0	-65.4	3.8	1.49e+00	0	43	104	0	71	21325
2026-01-05 21:26:47.51	62.22	8.24	-50.0	-65.4	3.8	1.49e+00	0	43	104	0	71	21287
2026-01-05 21:26:48.50	62.38	8.26	-50.0	-65.4	3.8	1.49e+00	0	43	104	0	71	21282
2026-01-05 21:26:49.51	62.55	8.28	-50.0	-65.4	3.8	1.49e+00	0	43	104	0	71	21348
2026-01-05 21:26:50.50	62.71	8.30	-50.0	-65.4	3.8	1.49e+00	0	43	104	0	71	21412
2026-01-05 21:26:51.50	62.88	8.32	-50.0	-65.3	3.8	1.49e+00	0	43	104	0	71	21173
2026-01-05 21:26:52.50	63.04	8.33	-50.0	-65.4	3.8	1.49e+00	0	43	104	0	71	21329
2026-01-05 21:26:53.50	63.21	8.35	-50.0	-65.4	3.8	1.49e+00	0	43	104	0	71	21305
2026-01-05 21:26:54.50	63.37	8.37	-50.0	-65.4	3.8	1.49e+00	0	43	104	0	71	21281
2026-01-05 21:26:55.51	63.54	8.39	-50.0	-65.4	3.8	1.49e+00	0	43	104	0	71	21287
2026-01-05 21:26:56.51	63.70	8.41	-50.0	-65.4	3.8	1.49e+00	0	43	104	0	71	21330
2026-01-05 21:26:57.51	63.87	8.43	-50.0	-65.4	3.8	1.49e+00	0	43	104	0	71	21277
2026-01-05 21:26:58.51	64.03	8.44	-50.0	-65.4	3.8	1.49e+00	0	43	104	0	71	21283
2026-01-05 21:26:59.51	64.20	8.46	-50.0	-65.4	3.8	1.49e+00	0	43	104	0	71	21261
2026-01-05 21:27:00.51	64.37	8.48	-50.0	-65.3	3.8	1.49e+00	0	43	104	0	71	21154
2026-01-05 21:27:01.51	64.53	8.50	-50.0	-65.3	3.8	1.49e+00	0	43	104	0	71	21090
2026-01-05 21:27:02.50	64.70	8.51	-50.0	-65.3	3.8	1.49e+00	0	43	104	0	71	21198
2026-01-05 21:27:03.49	64.86	8.53	-50.0	-65.3	3.8	1.49e+00	0	43	104	0	71	21098
2026-01-05 21:27:04.50	65.03	8.54	-50.0	-65.3	3.8	1.49e+00	0	43	104	0	71	21108
2026-01-05 21:27:05.49	65.20	8.56	-50.0	-65.3	3.8	1.49e+00	0	43	104	0	71	21122
2026-01-05 21:27:06.49	65.37	8.58	-50.0	-65.3	3.8	1.49e+00	0	43	104	0	71	21196
2026-01-05 21:27:07.49	65.53	8.59	-50.0	-65.4	3.8	1.49e+00	0	43	104	0	71	21271
2026-01-05 21:27:08.49	65.70	8.61	-50.0	-65.4	3.8	1.49e+00	0	43	104	0	71	21332
2026-01-05 21:27:09.49	65.87	8.62	-50.0	-65.3	3.8	1.49e+00	0	43	104	0	71	21200
2026-01-05 21:27:10.49	66.04	8.64	-50.0	-65.4	3.8	1.49e+00	0	43	104	0	71	21334
2026-01-05 21:27:11.49	66.20	8.65	-50.0	-65.4	3.8	1.49e+00	0	43	104	0	71	21347
2026-01-05 21:27:12.49	66.37	8.67	-50.0	-65.4	3.8	1.49e+00	0	43	104	0	71	21315
2026-01-05 21:27:13.49	66.54	8.68	-50.0	-65.4	3.8	1.49e+00	0	43	104	0	71	21319
2026-01-05 21:27:14.49	66.71	8.70	-50.0	-65.4	3.8	1.49e+00	0	43	104	0	71	21265
2026-01-05 21:27:15.48	66.88	8.71	-50.0	-65.4	3.8	1.49e+00	0	43	104	0	71	21289
2026-01-05 21:27:16.48	67.05	8.73	-50.0	-65.4	3.8	1.49e+00	0	43	104	0	71	21277
2026-01-05 21:27:17.48	67.22	8.74	-50.0	-65.3	3.8	1.49e+00	0	43	104	0	71	21257
2026-01-05 21:27:18.48	67.39	8.75	-50.0	-65.3	3.8	1.49e+00	0	43	104	0	71	21204
2026-01-05 21:27:19.48	67.56	8.77	-50.0	-65.3	3.8	1.49e+00	0	43	104	0	71	21147
2026-01-05 21:27:20.48	67.73	8.78	-50.0	-65.3	3.8	1.49e+00	0	43	104	0	71	21121
2026-01-05 21:27:21.48	67.90	8.79	-50.0	-65.3	3.8	1.49e+00	0	43	104	0	71	21105
2026-01-05 21:27:22.47	68.06	8.81	-50.0	-65.3	3.8	1.49e+00	0	43	104	0	71	21092
2026-01-05 21:27:23.47	68.23	8.82	-50.0	-65.3	3.8	1.49e+00	0	43	104	0	71	21213
2026-01-05 21:27:24.47	68.40	8.83	-50.0	-65.3	3.8	1.49e+00	0	43	104	0	71	21216
2026-01-05 21:27:25.48	68.58	8.84	-50.0	-65.3	3.8	1.49e+00	0	43	104	0	71	21247
2026-01-05 21:27:26.47	68.74	8.86	-50.0	-65.4	3.8	1.49e+00	0	43	104	0	71	21344
2026-01-05 21:27:27.47	68.92	8.87	-50.0	-65.4	3.8	1.49e+00	0	43	104	0	71	21316
2026-01-05 21:27:28.47	69.09	8.88	-50.0	-65.3	3.8	1.49e+00	0	43	104	0	71	21228
2026-01-05 21:27:29.46	69.26	8.89	-50.0	-65.3	3.8	1.49e+00	0	43	104	0	71	21064
2026-01-05 21:27:30.46	69.43	8.90	-50.0	-65.2	3.8	1.49e+00	0	43	104	0	71	20935
2026-01-05 21:27:31.46	69.60	8.91	-50.0	-65.2	3.8	1.49e+00	0	43	104	0	71	20838
2026-01-05 21:27:32.46	69.77	8.92	-50.0	-65.2	3.8	1.49e+00	0	43	104	0	71	20961
2026-01-05 21:27:33.46	69.94	8.93	-50.0	-65.3	3.8	1.49e+00	0	43	104	0	71	21139
2026-01-05 21:27:34.46	70.11	8.94	-50.0	-65.3	3.8	1.49e+00	0	43	104	0	71	21109
2026-01-05 21:27:35.45	70.28	8.95	-50.0	-65.1	3.8	1.49e+00	0	43	104	0	71	20639
2026-01-05 21:27:36.45	70.45	8.96	-50.0	-64.8	3.8	1.49e+00	0	43	104	0	71	20013
2026-01-05 21:27:37.45	70.63	8.97	-50.0	-64.5	3.8	1.49e+00	0	43	104	0	71	19350
2026-01-05 21:27:38.45	70.80	8.98	-49.9	-64.4	3.8	1.49e+00	0	43	104	0	71	19049
2026-01-05 21:27:39.45	70.97	8.99	-49.9	-64.1	3.8	1.49e+00	0	43	104	0	71	18358
2026-01-05 21:27:40.45	71.14	9.00	-49.8	-62.8	3.9	1.49e+00	0	43	104	0	71	15807
2026-01-05 21:27:41.45	71.32	9.01	-49.7	-61.1	4.5	1.29e+00	0	43	0	0	71	13013
2026-01-05 21:27:42.44	71.49	9.02	-50.0	-62.7	4.0	1.47e+00	0	43	0	0	71	15688
2026-01-05 21:27:43.45	71.66	9.03	-49.9	-62.6	3.9	1.49e+00	0	43	104	0	71	15579
2026-01-05 21:27:44.44	71.83	9.04	-49.3	-58.0	6.3	9.77e-02	0	43	0	0	69	10271
2026-01-05 21:27:45.44	72.01	9.04	-49.4	-58.7	4.4	1.48e+00	0	43	104	1048576	70	10454
2026-01-05 21:27:46.43	72.18	9.05	-48.1	-53.6	10.6	6.44e-03	0	43	0	2097152	68	6530
2026-01-05 21:27:47.43	72.35	9.06	-48.3	-53.9	10.2	5.28e-03	0	43	0	3145728	68	6742
2026-01-05 21:27:48.43	72.52	9.07	-48.2	-53.7	10.4	3.95e-03	0	43	0	5242880	68	6630
2026-01-05 21:27:49.43	72.70	9.07	-48.0	-53.1	11.0	3.81e-03	0	43	0	7340032	68	6169
2026-01-05 21:27:50.42	72.87	9.08	-47.4	-52.0	11.9	1.07e-03	0	43	0	9437184	66	6115
2026-01-05 21:27:51.42	73.04	9.09	-47.1	-51.4	12.6	1.04e-04	0	43	0	10485760	66	5679
2026-01-05 21:27:52.42	73.21	9.09	-46.9	-51.0	13.0	4.27e-05	0	43	0	12582912	65	5779
2026-01-05 21:27:53.42	73.39	9.10	-46.7	-50.7	13.3	3.20e-05	0	43	0	14680064	65	5585
2026-01-05 21:27:54.42	73.56	9.10	-46.6	-50.7	13.3	9.10e-06	0	43	0	16777216	65	5534
2026-01-05 21:27:55.42	73.73	9.11	-46.7	-50.7	13.3	1.98e-05	0	43	0	18874368	65	5555
2026-01-05 21:27:56.41	73.91	9.11	-46.8	-50.9	13.1	3.66e-05	0	43	0	19922944	65	5696
2026-01-05 21:27:57.40	74.08	9.12	-46.8	-51.0	13.0	2.97e-05	0	43	0	22020096	65	5745
2026-01-05 21:27:58.40	74.25	9.12	-46.7	-50.7	13.3	1.98e-05	0	43	0	24117248	65	5571
2026-01-05 21:27:59.40	74.43	9.13	-46.6	-50.5	13.4	1.14e-05	0	43	0	26214400	65	5464
2026-01-05 21:28:00.40	74.60	9.13	-46.5	-50.4	13.6	1.22e-05	0	43	0	28311552	65	5377
2026-01-05 21:28:01.40	74.77	9.14	-46.2	-49.8	14.1	1.50e-06	0	43	0	29360128	64	5334
2026-01-05 21:28:02.40	74.95	9.14	-46.1	-49.8	14.2	0.00e+00	0	43	0	31457280	64	5300
2026-01-05 21:28:03.39	75.12	9.15	-46.0	-49.6	14.4	7.00e-07	0	43	0	33554432	64	5164
2026-01-05 21:28:04.39	75.30	9.15	-46.0	-49.5	14.6	0.00e+00	0	43	0	35651584	63	5443
2026-01-05 21:28:05.39	75.47	9.15	-46.0	-49.5	14.6	0.00e+00	0	43	0	36700160	63	5437
2026-01-05 21:28:06.39	75.64	9.16	-46.1	-49.7	14.4	7.00e-07	0	43	0	38797312	63	5569
2026-01-05 21:28:07.38	75.82	9.16	-46.1	-49.6	14.4	0.00e+00	0	43	0	40894464	63	5505
2026-01-05 21:28:08.38	75.99	9.16	-46.0	-49.6	14.5	7.00e-07	0	43	0	42991616	63	5497
2026-01-05 21:28:09.38	76.16	9.16	-46.0	-49.5	14.6	0.00e+00	0	43	0	45088768	63	5435
2026-01-05 21:28:10.38	76.34	9.17	-45.9	-49.4	14.6	0.00e+00	0	43	0	46137344	63	5369
2026-01-05 21:28:11.37	76.51	9.17	-45.6	-48.9	15.2	0.00e+00	0	43	0	48234496	63	5061
2026-01-05 21:28:12.37	76.69	9.17	-45.5	-48.8	15.2	0.00e+00	0	43	0	50331648	62	5336
2026-01-05 21:28:13.37	76.86	9.17	-45.4	-48.7	15.4	0.00e+00	0	43	0	52428800	62	5229
2026-01-05 21:28:14.36	77.03	9.17	-45.4	-48.6	15.4	0.00e+00	0	43	0	54525952	62	5202
2026-01-05 21:28:15.36	77.21	9.17	-45.5	-48.8	15.2	0.00e+00	0	43	0	55574528	62	5313
2026-01-05 21:28:16.35	77.38	9.17	-45.6	-49.1	15.0	0.00e+00	0	43	0	57671680	62	5465
2026-01-05 21:28:17.35	77.56	9.17	-45.9	-49.4	14.7	0.00e+00	0	43	0	59768832	62	5697
2026-01-05 21:28:18.35	77.73	9.17	-45.9	-49.4	14.7	0.00e+00	0	43	0	61865984	62	5662
2026-01-05 21:28:19.35	77.90	9.17	-46.1	-49.7	14.4	0.00e+00	0	43	0	62914560	62	5856
2026-01-05 21:28:20.34	78.08	9.17	-46.2	-49.8	14.3	7.00e-07	0	43	0	65011712	62	5955
2026-01-05 21:28:21.34	78.25	9.17	-46.0	-49.5	14.6	1.50e-06	0	43	0	67108864	63	5454
2026-01-05 21:28:22.34	78.43	9.17	-45.9	-49.4	14.6	0.00e+00	0	43	0	69206016	63	5392
2026-01-05 21:28:23.34	78.60	9.17	-45.8	-49.3	14.8	7.00e-07	0	43	0	71303168	63	5310
2026-01-05 21:28:24.34	78.77	9.17	-45.6	-49.0	15.1	0.00e+00	0	43	0	72351744	63	5129
2026-01-05 21:28:25.33	78.95	9.17	-45.8	-49.2	14.8	0.00e+00	0	43	0	74448896	63	5265
2026-01-05 21:28:26.33	79.12	9.17	-45.8	-49.3	14.8	0.00e+00	0	43	0	76546048	63	5330
2026-01-05 21:28:27.33	79.30	9.17	-45.7	-49.2	14.9	7.00e-07	0	43	0	78643200	63	5263
2026-01-05 21:28:28.33	79.47	9.17	-45.9	-49.4	14.7	0.00e+00	0	43	0	79691776	63	5384
2026-01-05 21:28:29.32	79.64	9.16	-45.9	-49.4	14.7	0.00e+00	0	43	0	81788928	63	5359
2026-01-05 21:28:30.32	79.82	9.16	-45.9	-49.4	14.6	0.00e+00	0	43	0	83886080	63	5386
2026-01-05 21:28:31.32	79.99	9.16	-45.9	-49.4	14.7	7.00e-07	0	43	0	85983232	63	5374
2026-01-05 21:28:32.31	80.17	9.16	-45.9	-49.4	14.7	1.50e-06	0	43	0	88080384	63	5359
2026-01-05 21:28:33.31	80.34	9.15	-45.8	-49.2	14.8	7.00e-07	0	43	0	89128960	63	5268
2026-01-05 21:28:34.31	80.51	9.15	-45.7	-49.1	14.9	0.00e+00	0	43	0	91226112	63	5205
2026-01-05 21:28:35.31	80.69	9.15	-45.5	-48.8	15.3	0.00e+00	0	43	0	93323264	63	5014
2026-01-05 21:28:36.30	80.86	9.14	-45.5	-48.8	15.4	0.00e+00	0	43	0	95420416	63	4987
2026-01-05 21:28:37.30	81.03	9.14	-45.6	-48.9	15.2	0.00e+00	0	43	0	97517568	63	5062
2026-01-05 21:28:38.30	81.21	9.13	-45.6	-49.0	15.1	0.00e+00	0	43	0	98566144	63	5132
2026-01-05 21:28:39.30	81.38	9.13	-45.5	-48.8	15.2	0.00e+00	0	43	0	100663296	63	5030
2026-01-05 21:28:40.30	81.56	9.12	-45.6	-49.0	15.1	0.00e+00	0	43	0	102760448	63	5114
2026-01-05 21:28:41.30	81.73	9.12	-45.6	-49.1	15.0	0.00e+00	0	43	0	104857600	63	5162
2026-01-05 21:28:42.29	81.90	9.11	-45.5	-48.8	15.3	0.00e+00	0	43	0	106954752	62	5303
2026-01-05 21:28:43.29	82.08	9.11	-45.4	-48.7	15.3	0.00e+00	0	43	0	108003328	62	5241
2026-01-05 21:28:44.29	82.25	9.10	-45.4	-48.6	15.4	0.00e+00	0	43	0	110100480	62	5215
2026-01-05 21:28:45.29	82.42	9.10	-45.0	-48.2	15.9	0.00e+00	0	43	0	112197632	62	4935
2026-01-05 21:28:46.29	82.60	9.09	-45.0	-48.1	16.0	0.00e+00	0	43	0	114294784	62	4887
2026-01-05 21:28:47.28	82.77	9.09	-44.8	-47.8	16.2	0.00e+00	0	43	0	115343360	61	5017
2026-01-05 21:28:48.28	82.94	9.08	-44.8	-47.8	16.2	0.00e+00	0	43	0	117440512	61	4991
2026-01-05 21:28:49.28	83.12	9.07	-44.7	-47.6	16.4	0.00e+00	0	43	0	119537664	61	4891
2026-01-05 21:28:50.28	83.29	9.06	-44.7	-47.6	16.4	0.00e+00	0	43	0	121634816	61	4881
2026-01-05 21:28:51.28	83.46	9.06	-44.5	-47.4	16.6	0.00e+00	0	43	0	123731968	61	4784
2026-01-05 21:28:52.28	83.64	9.05	-44.9	-47.9	16.1	0.00e+00	0	43	0	124780544	61	5070
2026-01-05 21:28:53.28	83.81	9.04	-45.0	-48.2	15.8	0.00e+00	0	43	0	126877696	61	5236
2026-01-05 21:28:54.28	83.98	9.03	-45.0	-48.2	15.8	7.00e-07	0	43	0	128974848	61	5242
2026-01-05 21:28:55.28	84.16	9.03	-45.0	-48.2	15.8	0.00e+00	0	43	0	131072000	61	5235
2026-01-05 21:28:56.28	84.33	9.02	-45.0	-48.2	15.8	0.00e+00	0	43	0	132120576	61	5259
2026-01-05 21:28:57.28	84.50	9.01	-45.2	-48.5	15.6	0.00e+00	0	43	0	134217728	61	5420
2026-01-05 21:28:58.29	84.68	9.00	-45.2	-48.4	15.6	0.00e+00	0	43	0	136314880	61	5401
2026-01-05 21:28:59.28	84.85	8.99	-50.2	-65.3	3.8	7.50e-01	0	43	104	137363456	71	21208
2026-01-05 21:29:00.28	85.02	8.98	-50.4	-65.7	3.8	1.49e+00	0	43	104	137363456	71	22103
2026-01-05 21:29:01.28	85.19	8.97	-50.3	-65.8	3.8	1.49e+00	0	43	104	137363456	71	22399
2026-01-05 21:29:02.28	85.36	8.96	-50.4	-65.9	3.8	1.49e+00	0	43	104	137363456	71	22684
2026-01-05 21:29:03.28	85.54	8.95	-50.4	-66.0	3.8	1.49e+00	0	43	104	137363456	71	22816
2026-01-05 21:29:04.28	85.71	8.94	-50.4	-66.0	3.8	1.49e+00	0	43	104	137363456	71	22952
2026-01-05 21:29:05.27	85.88	8.93	-50.3	-66.1	3.8	1.49e+00	0	43	104	137363456	71	23134
2026-01-05 21:29:06.27	86.05	8.92	-50.5	-66.1	3.8	1.49e+00	0	43	104	137363456	71	23100
2026-01-05 21:29:07.27	86.22	8.91	-50.6	-66.1	3.8	1.49e+00	0	43	104	137363456	71	23227
2026-01-05 21:29:08.27	86.39	8.90	-50.5	-66.1	3.8	1.49e+00	0	43	104	137363456	71	23178
2026-01-05 21:29:09.27	86.57	8.89	-50.6	-66.1	3.8	1.49e+00	0	43	104	137363456	71	23156
2026-01-05 21:29:10.27	86.74	8.88	-50.6	-66.1	3.8	1.49e+00	0	43	104	137363456	72	21816
2026-01-05 21:29:11.27	86.91	8.87	-50.6	-66.1	3.8	1.49e+00	0	43	104	137363456	72	21808
2026-01-05 21:29:12.27	87.08	8.86	-50.6	-66.1	3.8	1.49e+00	0	43	104	137363456	72	21870
2026-01-05 21:29:13.27	87.25	8.84	-50.6	-66.1	3.8	1.49e+00	0	43	104	137363456	72	21840
2026-01-05 21:29:14.26	87.42	8.83	-50.7	-66.1	3.8	1.49e+00	0	43	104	137363456	72	21904
2026-01-05 21:29:15.26	87.59	8.82	-50.6	-66.1	3.8	1.49e+00	0	43	104	137363456	72	21927
2026-01-05 21:29:16.26	87.76	8.81	-50.5	-66.1	3.8	1.49e+00	0	43	104	137363456	72	21910
2026-01-05 21:29:17.26	87.93	8.79	-50.4	-66.1	3.8	1.49e+00	0	43	104	137363456	72	21938
2026-01-05 21:29:18.26	88.10	8.78	-50.5	-66.1	3.8	1.49e+00	0	43	104	137363456	72	21924
2026-01-05 21:29:19.26	88.27	8.77	-50.5	-66.1	3.8	1.49e+00	0	43	104	137363456	72	21909
2026-01-05 21:29:20.27	88.44	8.75	-50.6	-66.1	3.8	1.49e+00	0	43	104	137363456	72	21857
2026-01-05 21:29:21.27	88.61	8.74	-50.6	-66.1	3.8	1.49e+00	0	43	104	137363456	72	21827
2026-01-05 21:29:22.27	88.78	8.72	-50.6	-66.1	3.8	1.49e+00	0	43	104	137363456	72	21840
2026-01-05 21:29:23.27	88.95	8.71	-50.6	-66.1	3.8	1.49e+00	0	43	104	137363456	72	21843
2026-01-05 21:29:24.27	89.12	8.70	-50.6	-66.1	3.8	1.49e+00	0	43	104	137363456	72	21798
2026-01-05 21:29:25.27	89.29	8.68	-50.6	-66.1	3.8	1.49e+00	0	43	104	137363456	72	21810
2026-01-05 21:29:26.27	89.46	8.67	-50.6	-66.0	3.8	1.49e+00	0	43	104	137363456	72	21726
2026-01-05 21:29:27.27	89.63	8.65	-50.6	-66.0	3.8	1.49e+00	0	43	104	137363456	72	21729
2026-01-05 21:29:28.28	89.80	8.64	-50.5	-66.0	3.8	1.49e+00	0	43	104	137363456	72	21739
2026-01-05 21:29:29.28	89.97	8.62	-50.6	-66.1	3.8	1.49e+00	0	43	104	137363456	72	21788
2026-01-05 21:29:30.28	90.14	8.61	-50.5	-66.0	3.8	1.49e+00	0	43	104	137363456	72	21733
2026-01-05 21:29:31.29	90.31	8.59	-50.5	-66.1	3.8	1.49e+00	0	43	104	137363456	72	21789
2026-01-05 21:29:32.28	90.47	8.57	-50.6	-66.1	3.8	1.49e+00	0	43	104	137363456	72	21832
2026-01-05 21:29:33.28	90.64	8.56	-50.5	-66.1	3.8	1.49e+00	0	43	104	137363456	72	21771
2026-01-05 21:29:34.28	90.81	8.54	-50.5	-66.0	3.8	1.49e+00	0	43	104	137363456	72	21671
2026-01-05 21:29:35.28	90.97	8.52	-50.5	-66.1	3.8	1.49e+00	0	43	104	137363456	72	21780
2026-01-05 21:29:36.28	91.14	8.51	-50.5	-66.0	3.8	1.49e+00	0	43	104	137363456	72	21754
2026-01-05 21:29:37.28	91.31	8.49	-50.5	-66.1	3.8	1.49e+00	0	43	104	137363456	72	21757
2026-01-05 21:29:38.28	91.48	8.47	-50.5	-66.0	3.8	1.49e+00	0	43	104	137363456	72	21734
2026-01-05 21:29:39.28	91.64	8.46	-50.5	-66.1	3.8	1.49e+00	0	43	104	137363456	72	21825
2026-01-05 21:29:40.29	91.81	8.44	-50.5	-66.1	3.8	1.49e+00	0	43	104	137363456	72	21763
2026-01-05 21:29:41.29	91.98	8.42	-50.5	-66.0	3.8	1.49e+00	0	43	104	137363456	72	21743
2026-01-05 21:29:42.29	92.14	8.40	-50.5	-66.1	3.8	1.49e+00	0	43	104	137363456	72	21834
2026-01-05 21:29:43.29	92.31	8.38	-50.5	-66.1	3.8	1.49e+00	0	43	104	137363456	72	21795
2026-01-05 21:29:44.28	92.47	8.37	-50.5	-66.1	3.8	1.49e+00	0	43	104	137363456	72	21781
2026-01-05 21:29:45.28	92.64	8.35	-50.5	-66.1	3.8	1.49e+00	0	43	104	137363456	72	21887
2026-01-05 21:29:46.28	92.80	8.33	-50.5	-66.1	3.8	1.49e+00	0	43	104	137363456	72	21899
2026-01-05 21:29:47.28	92.97	8.31	-50.5	-66.1	3.8	1.49e+00	0	43	104	137363456	72	21800
2026-01-05 21:29:48.28	93.13	8.29	-50.5	-66.1	3.8	1.49e+00	0	43	104	137363456	72	21769
2026-01-05 21:29:49.28	93.30	8.27	-50.5	-66.0	3.8	1.49e+00	0	43	104	137363456	72	21750
2026-01-05 21:29:50.28	93.46	8.25	-50.5	-66.0	3.8	1.49e+00	0	43	104	137363456	72	21735
2026-01-05 21:29:51.29	93.63	8.23	-50.5	-66.0	3.8	1.49e+00	0	43	104	137363456	72	21717
2026-01-05 21:29:52.28	93.79	8.21	-50.5	-66.0	3.8	1.49e+00	0	43	104	137363456	72	21746
2026-01-05 21:29:53.28	93.96	8.19	-50.5	-66.0	3.8	1.49e+00	0	43	104	137363456	72	21737
2026-01-05 21:29:54.28	94.12	8.17	-50.5	-66.0	3.8	1.49e+00	0	43	104	137363456	72	21740
2026-01-05 21:29:55.28	94.28	8.15	-50.5	-66.0	3.8	1.49e+00	0	43	104	137363456	72	21712
2026-01-05 21:29:56.28	94.45	8.13	-50.5	-66.1	3.8	1.49e+00	0	43	104	137363456	72	21769
2026-01-05 21:29:57.28	94.61	8.11	-50.5	-66.1	3.8	1.49e+00	0	43	104	137363456	72	21772
2026-01-05 21:29:58.28	94.77	8.09	-50.5	-66.0	3.8	1.49e+00	0	43	104	137363456	72	21654
2026-01-05 21:29:59.28	94.93	8.07	-50.5	-66.1	3.8	1.49e+00	0	43	104	137363456	72	21771
2026-01-05 21:30:00.28	95.10	8.05	-50.5	-66.0	3.8	1.49e+00	0	43	104	137363456	72	21702
2026-01-05 21:30:01.28	95.26	8.02	-50.5	-66.0	3.8	1.49e+00	0	43	104	137363456	72	21746
2026-01-05 21:30:02.28	95.42	8.00	-50.5	-66.0	3.8	1.49e+00	0	43	104	137363456	72	21648
2026-01-05 21:30:03.28	95.58	7.98	-50.5	-66.1	3.8	1.49e+00	0	43	104	137363456	72	21809
2026-01-05 21:30:04.28	95.74	7.96	-50.5	-66.0	3.8	1.49e+00	0	43	104	137363456	72	21754
2026-01-05 21:30:05.28	95.90	7.94	-50.5	-66.1	3.8	1.49e+00	0	43	104	137363456	72	21793
2026-01-05 21:30:06.28	96.07	7.91	-50.5	-66.0	3.8	1.49e+00	0	43	104	137363456	72	21735
2026-01-05 21:30:07.27	96.22	7.89	-50.5	-66.0	3.8	1.49e+00	0	43	104	137363456	72	21724
2026-01-05 21:30:08.28	96.39	7.87	-50.5	-66.0	3.8	1.49e+00	0	43	104	137363456	72	21753
2026-01-05 21:30:09.28	96.55	7.85	-50.5	-66.0	3.8	1.49e+00	0	43	104	137363456	72	21715
2026-01-05 21:30:10.28	96.71	7.82	-50.5	-66.0	3.8	1.49e+00	0	43	104	137363456	72	21668
2026-01-05 21:30:11.28	96.87	7.80	-50.5	-66.0	3.8	1.49e+00	0	43	104	137363456	72	21727
2026-01-05 21:30:12.28	97.03	7.78	-50.5	-66.1	3.8	1.49e+00	0	43	104	137363456	72	21781
2026-01-05 21:30:13.28	97.18	7.75	-50.5	-66.0	3.8	1.49e+00	0	43	104	137363456	72	21751
2026-01-05 21:30:14.29	97.35	7.73	-50.5	-66.0	3.8	1.49e+00	0	43	104	137363456	72	21694
2026-01-05 21:30:15.29	97.50	7.70	-50.5	-66.0	3.8	1.49e+00	0	43	104	137363456	72	21736
2026-01-05 21:30:16.29	97.66	7.68	-50.5	-66.0	3.8	1.49e+00	0	43	104	137363456	72	21702
2026-01-05 21:30:17.30	97.82	7.66	-50.5	-66.1	3.8	1.49e+00	0	43	104	137363456	72	21808
2026-01-05 21:30:18.30	97.98	7.63	-50.5	-66.1	3.8	1.49e+00	0	43	104	137363456	72	21807
2026-01-05 21:30:19.30	98.14	7.61	-50.5	-66.1	3.8	1.49e+00	0	43	104	137363456	72	21796
2026-01-05 21:30:20.31	98.30	7.58	-50.5	-66.0	3.8	1.49e+00	0	43	104	137363456	72	21644
2026-01-05 21:30:21.31	98.45	7.56	-50.5	-66.0	3.8	1.49e+00	0	43	104	137363456	72	21727
2026-01-05 21:30:22.32	98.61	7.53	-50.5	-66.0	3.8	1.49e+00	0	43	104	137363456	72	21714
2026-01-05 21:30:23.32	98.77	7.51	-50.5	-66.0	3.8	1.49e+00	0	43	104	137363456	72	21726
2026-01-05 21:30:24.32	98.93	7.48	-50.5	-66.0	3.8	1.49e+00	0	43	104	137363456	72	21755
2026-01-05 21:30:25.32	99.08	7.45	-50.5	-66.0	3.8	1.49e+00	0	43	104	137363456	72	21704
2026-01-05 21:30:26.33	99.24	7.43	-50.5	-66.0	3.8	1.49e+00	0	43	104	137363456	72	21739
2026-01-05 21:30:27.33	99.39	7.40	-50.5	-66.0	3.8	1.49e+00	0	43	104	137363456	72	21739
2026-01-05 21:30:28.33	99.55	7.38	-50.5	-66.0	3.8	1.49e+00	0	43	104	137363456	72	21741
2026-01-05 21:30:29.33	99.70	7.35	-50.5	-66.0	3.8	1.49e+00	0	43	104	137363456	72	21748
2026-01-05 21:30:30.34	99.86	7.32	-50.5	-66.0	3.8	1.49e+00	0	43	104	137363456	72	21739
2026-01-05 21:30:31.34	100.02	7.30	-50.5	-66.0	3.8	1.49e+00	0	43	104	137363456	72	21731
2026-01-05 21:30:32.34	100.17	7.27	-50.5	-66.1	3.8	1.49e+00	0	43	104	137363456	72	21824
2026-01-05 21:30:33.34	100.32	7.24	-50.5	-66.0	3.8	1.49e+00	0	43	104	137363456	72	21683
2026-01-05 21:30:34.35	100.48	7.22	-50.5	-66.0	3.8	1.49e+00	0	43	104	137363456	72	21721
2026-01-05 21:30:35.35	100.63	7.19	-50.5	-66.1	3.8	1.49e+00	0	43	104	137363456	72	21794
2026-01-05 21:30:36.35	100.79	7.16	-50.5	-66.0	3.8	1.49e+00	0	43	104	137363456	72	21679
2026-01-05 21:30:37.36	100.94	7.13	-50.5	-66.1	3.8	1.49e+00	0	43	104	137363456	72	21773
2026-01-05 21:30:38.36	101.09	7.11	-50.5	-66.0	3.8	1.49e+00	0	43	104	137363456	72	21681
2026-01-05 21:30:39.36	101.24	7.08	-50.5	-66.0	3.8	1.49e+00	0	43	104	137363456	72	21705
2026-01-05 21:30:40.36	101.40	7.05	-50.5	-66.0	3.8	1.49e+00	0	43	104	137363456	72	21674
2026-01-05 21:30:41.36	101.55	7.02	-50.5	-66.0	3.8	1.49e+00	0	43	104	137363456	72	21710
2026-01-05 21:30:42.36	101.70	7.00	-50.5	-66.1	3.8	1.49e+00	0	43	104	137363456	72	21770
2026-01-05 21:30:43.37	101.85	6.97	-50.5	-66.0	3.8	1.49e+00	0	43	104	137363456	72	21743
2026-01-05 21:30:44.37	102.00	6.94	-50.5	-66.0	3.8	1.49e+00	0	43	104	137363456	72	21749
2026-01-05 21:30:45.37	102.15	6.91	-50.5	-66.0	3.8	1.49e+00	0	43	104	137363456	72	21719
2026-01-05 21:30:46.37	102.30	6.88	-50.5	-66.0	3.8	1.49e+00	0	43	104	137363456	72	21686
2026-01-05 21:30:47.37	102.45	6.85	-50.5	-66.1	3.8	1.49e+00	0	43	104	137363456	72	21764
2026-01-05 21:30:48.37	102.60	6.82	-50.5	-66.1	3.8	1.49e+00	0	43	104	137363456	72	21761
2026-01-05 21:30:49.37	102.75	6.80	-50.5	-66.1	3.8	1.49e+00	0	43	104	137363456	72	21790
2026-01-05 21:30:50.37	102.90	6.77	-50.5	-66.0	3.8	1.49e+00	0	43	104	137363456	72	21738
2026-01-05 21:30:51.37	103.05	6.74	-50.5	-66.0	3.8	1.49e+00	0	43	104	137363456	72	21754
2026-01-05 21:30:52.38	103.20	6.71	-50.5	-66.1	3.8	1.49e+00	0	43	104	137363456	72	21786
2026-01-05 21:30:53.38	103.35	6.68	-50.5	-66.1	3.8	1.49e+00	0	43	104	137363456	72	21786
2026-01-05 21:30:54.38	103.50	6.65	-50.5	-66.0	3.8	1.49e+00	0	43	104	137363456	72	21753
2026-01-05 21:30:55.38	103.65	6.62	-50.5	-66.0	3.8	1.49e+00	0	43	104	137363456	72	21745
2026-01-05 21:30:56.39	103.79	6.59	-50.5	-66.0	3.8	1.49e+00	0	43	104	137363456	72	21666
2026-01-05 21:30:57.39	103.94	6.56	-50.5	-66.0	3.8	1.49e+00	0	43	104	137363456	72	21715
2026-01-05 21:30:58.39	104.09	6.53	-50.5	-66.1	3.8	1.49e+00	0	43	104	137363456	72	21761
2026-01-05 21:30:59.39	104.24	6.50	-50.5	-66.0	3.8	1.49e+00	0	44	104	137363456	72	21682
2026-01-05 21:31:00.39	104.38	6.47	-50.5	-66.0	3.8	1.49e+00	0	43	104	137363456	72	21692
2026-01-05 21:31:01.40	104.53	6.44	-50.5	-66.0	3.8	1.49e+00	0	43	104	137363456	72	21755
2026-01-05 21:31:02.40	104.67	6.41	-50.5	-66.0	3.8	1.49e+00	0	43	104	137363456	72	21725
2026-01-05 21:31:03.40	104.82	6.37	-50.5	-66.0	3.8	1.49e+00	0	43	104	137363456	72	21709
2026-01-05 21:31:04.40	104.97	6.34	-50.5	-66.0	3.8	1.49e+00	0	43	104	137363456	72	21644
2026-01-05 21:31:05.40	105.11	6.31	-50.5	-66.0	3.8	1.49e+00	0	43	104	137363456	72	21644
2026-01-05 21:31:06.40	105.25	6.28	-50.5	-66.0	3.8	1.49e+00	0	43	104	137363456	72	21712
2026-01-05 21:31:07.41	105.40	6.25	-50.5	-66.0	3.8	1.49e+00	0	43	104	137363456	72	21688
2026-01-05 21:31:08.41	105.54	6.22	-50.5	-66.0	3.8	1.49e+00	0	43	104	137363456	72	21729
2026-01-05 21:31:09.40	105.69	6.19	-50.5	-66.0	3.8	1.49e+00	0	43	104	137363456	72	21741
2026-01-05 21:31:10.41	105.83	6.16	-50.5	-66.0	3.8	1.49e+00	0	43	104	137363456	72	21694
2026-01-05 21:31:11.41	105.97	6.12	-50.5	-66.0	3.8	1.49e+00	0	43	104	137363456	72	21667
2026-01-05 21:31:12.41	106.12	6.09	-50.5	-66.0	3.8	1.49e+00	0	43	104	137363456	72	21707
2026-01-05 21:31:13.41	106.26	6.06	-50.5	-66.0	3.8	1.49e+00	0	43	104	137363456	72	21687
2026-01-05 21:31:14.42	106.40	6.03	-50.5	-66.0	3.8	1.49e+00	0	43	104	137363456	72	21713
2026-01-05 21:31:15.42	106.54	6.00	-50.5	-66.0	3.8	1.49e+00	0	43	104	137363456	72	21601
2026-01-05 21:31:16.42	106.69	5.96	-50.5	-66.0	3.8	1.49e+00	0	43	104	137363456	72	21705
2026-01-05 21:31:17.42	106.83	5.93	-50.5	-66.0	3.8	1.49e+00	0	43	104	137363456	72	21706
2026-01-05 21:31:18.42	106.97	5.90	-50.5	-66.0	3.8	1.49e+00	0	43	104	137363456	72	21739
2026-01-05 21:31:19.43	107.11	5.87	-50.5	-66.1	3.8	1.49e+00	0	43	104	137363456	72	21774
2026-01-05 21:31:20.43	107.25	5.83	-50.5	-66.0	3.8	1.49e+00	0	43	104	137363456	72	21603
2026-01-05 21:31:21.43	107.39	5.80	-50.5	-66.1	3.8	1.49e+00	0	43	104	137363456	72	21764
2026-01-05 21:31:22.43	107.53	5.77	-50.5	-66.0	3.8	1.49e+00	0	43	104	137363456	72	21711
2026-01-05 21:31:23.43	107.67	5.73	-50.5	-66.1	3.8	1.49e+00	0	43	104	137363456	72	21765
2026-01-05 21:31:24.43	107.81	5.70	-50.5	-66.0	3.8	1.49e+00	0	43	104	137363456	72	21563
2026-01-05 21:31:25.43	107.95	5.67	-50.5	-66.0	3.8	1.49e+00	0	43	104	137363456	72	21622
2026-01-05 21:31:26.43	108.09	5.63	-50.5	-66.0	3.8	1.49e+00	0	43	104	137363456	72	21674
2026-01-05 21:31:27.44	108.22	5.60	-50.5	-66.0	3.8	1.49e+00	0	43	104	137363456	72	21733
2026-01-05 21:31:28.44	108.36	5.57	-50.5	-66.0	3.8	1.49e+00	0	43	104	137363456	72	21663
2026-01-05 21:31:29.44	108.50	5.53	-50.5	-66.0	3.8	1.49e+00	0	43	104	137363456	72	21742
2026-01-05 21:31:30.44	108.64	5.50	-50.5	-66.0	3.8	1.49e+00	0	43	104	137363456	72	21681
2026-01-05 21:31:31.44	108.77	5.47	-50.5	-66.0	3.8	1.49e+00	0	43	104	137363456	72	21613
2026-01-05 21:31:32.44	108.91	5.43	-50.5	-66.0	3.8	1.49e+00	0	43	104	137363456	72	21727
2026-01-05 21:31:33.44	109.05	5.40	-50.5	-66.0	3.8	1.49e+00	0	43	104	137363456	72	21698
2026-01-05 21:31:34.45	109.18	5.36	-50.5	-66.0	3.8	1.49e+00	0	43	104	137363456	72	21742
2026-01-05 21:31:35.45	109.32	5.33	-50.5	-66.0	3.8	1.49e+00	0	43	104	137363456	72	21638
2026-01-05 21:31:36.45	109.46	5.30	-50.5	-66.0	3.8	1.49e+00	0	43	104	137363456	72	21701
2026-01-05 21:31:37.45	109.59	5.26	-50.5	-66.1	3.8	1.49e+00	0	43	104	137363456	72	21767
2026-01-05 21:31:38.45	109.73	5.23	-50.5	-66.0	3.8	1.49e+00	0	43	104	137363456	72	21702
2026-01-05 21:31:39.46	109.86	5.19	-50.5	-66.0	3.8	1.49e+00	0	43	104	137363456	72	21614
2026-01-05 21:31:40.46	110.00	5.16	-50.5	-66.0	3.8	1.49e+00	0	43	104	137363456	72	21705
2026-01-05 21:31:41.47	110.13	5.12	-50.5	-66.0	3.8	1.49e+00	0	43	104	137363456	72	21747
2026-01-05 21:31:42.47	110.26	5.09	-50.5	-66.0	3.8	1.49e+00	0	43	104	137363456	72	21701
2026-01-05 21:31:43.47	110.40	5.05	-50.5	-66.0	3.8	1.49e+00	0	43	104	137363456	72	21709
2026-01-05 21:31:44.48	110.53	5.02	-50.5	-66.0	3.8	1.49e+00	0	43	104	137363456	72	21608
2026-01-05 21:31:45.48	110.66	4.98	-50.5	-66.0	3.8	1.49e+00	0	43	104	137363456	72	21674

#Closed at: 2026-01-05 21:31:46
#Recorded file [137 MB]: D:/Data/31040_260106_002452.dat