passes_logs/2025/01/01/X_MFTI_01/X_MFTI_01__20250101_095158_NOAA_20_rec.log

#Pass ID: 20250101_095158_NOAA 20
#Satellite: NOAA 20
#Configuration: NOAA 20
#Start time: 2025-01-01 09:51:54

#Version: 1.5.20200625
#Station: X_MFTI_01
#Location: 37.5186 lon 55.9291 lat
#TLE: 1 43013U 17073A   23362.44808611  .00000160  00000+0  96626-4 0  9996
#TLE: 2 43013  98.7331 297.9536 0000783  57.5916 302.5335 14.19555620316533

#Time	Az	El	Level	Level2	SNR	BER	Gain	Gain2
2025-01-01 09:51:54.02	125.42	68.27	-71.4	-95.3	3.7	14953285	99	56226
2025-01-01 09:51:54.23	125.26	68.35	-71.5	-95.4	3.8	14904350	99	56619
2025-01-01 09:51:54.44	125.11	68.42	-71.4	-95.3	3.8	14904350	99	56393
2025-01-01 09:51:54.65	124.95	68.50	-71.4	-95.3	3.8	14912101	99	56334
2025-01-01 09:51:54.86	124.79	68.58	-71.4	-95.3	3.8	14912101	99	56542
2025-01-01 09:51:55.07	124.63	68.66	-71.5	-95.4	3.8	14911087	99	56488
2025-01-01 09:51:55.27	124.48	68.74	-71.4	-95.3	3.8	14911087	99	56484
2025-01-01 09:51:55.48	124.31	68.82	-71.4	-95.5	3.8	14909667	99	57667
2025-01-01 09:51:55.69	124.15	68.90	-71.5	-95.5	3.8	14909667	99	57304
2025-01-01 09:51:55.90	123.98	68.97	-71.5	-95.5	3.9	14909667	99	57474
2025-01-01 09:51:56.11	123.82	69.05	-71.4	-95.5	3.9	14899848	99	57555
2025-01-01 09:51:56.32	123.65	69.13	-71.4	-95.5	3.8	14899848	99	57493
2025-01-01 09:51:56.52	123.49	69.21	-71.5	-95.6	3.8	14902481	99	57724
2025-01-01 09:51:56.73	123.32	69.28	-71.5	-95.5	3.8	14902481	99	57381
2025-01-01 09:51:56.94	123.14	69.36	-71.5	-95.6	3.8	14900619	99	57669
2025-01-01 09:51:57.15	122.97	69.44	-71.5	-95.6	3.8	14900619	99	57592
2025-01-01 09:51:57.36	122.79	69.52	-71.5	-95.6	3.8	14919296	99	57702
2025-01-01 09:51:57.57	122.62	69.60	-71.5	-95.6	3.9	14919296	99	57558
2025-01-01 09:51:57.78	122.44	69.67	-71.5	-95.5	3.9	14910194	99	57494
2025-01-01 09:51:57.99	122.26	69.75	-71.4	-95.4	3.8	14910194	99	56607
2025-01-01 09:51:58.19	122.09	69.83	-71.4	-95.3	3.8	14904815	99	56550
2025-01-01 09:51:58.40	121.91	69.90	-71.4	-95.4	3.8	14904815	99	56829
2025-01-01 09:51:58.61	121.72	69.98	-71.4	-95.3	3.8	14907409	99	56820
2025-01-01 09:51:58.82	121.54	70.06	-71.4	-95.4	3.8	14907409	99	56874
2025-01-01 09:51:59.03	121.35	70.13	-71.5	-95.5	3.9	14921707	99	56719
2025-01-01 09:51:59.24	121.16	70.21	-71.4	-95.4	3.9	14921707	99	56667
2025-01-01 09:51:59.45	120.97	70.29	-71.4	-95.4	3.9	14899597	99	56587
2025-01-01 09:51:59.66	120.78	70.36	-71.5	-95.4	3.8	14899597	99	56581
2025-01-01 09:51:59.86	120.59	70.44	-71.3	-95.2	3.8	14899597	99	56194
2025-01-01 09:52:00.07	120.40	70.51	-71.4	-95.3	3.8	14893768	99	56408
2025-01-01 09:52:00.28	120.20	70.59	-71.4	-95.4	3.8	14902450	99	56746
2025-01-01 09:52:00.49	120.00	70.67	-71.5	-95.4	3.8	14902450	99	56759
2025-01-01 09:52:00.70	119.80	70.74	-71.4	-95.4	3.8	14902450	99	56662
2025-01-01 09:52:00.90	119.61	70.81	-71.4	-95.4	3.8	14906249	99	56878
2025-01-01 09:52:01.11	119.41	70.89	-71.4	-95.4	3.8	14906249	99	56835
2025-01-01 09:52:01.32	119.21	70.96	-71.4	-95.3	3.8	14897453	99	56247
2025-01-01 09:52:01.53	119.00	71.04	-71.4	-95.4	3.8	14897453	99	56816
2025-01-01 09:52:01.74	118.79	71.11	-71.4	-95.4	3.8	14900436	99	56834
2025-01-01 09:52:01.95	118.58	71.19	-71.4	-95.4	3.8	14900436	99	56841
2025-01-01 09:52:02.16	118.37	71.26	-71.4	-95.4	3.8	14911880	99	56817
2025-01-01 09:52:02.37	118.15	71.34	-71.4	-95.4	3.9	14911880	99	56696
2025-01-01 09:52:02.57	117.95	71.41	-71.4	-95.4	3.8	14910232	99	56888
2025-01-01 09:52:02.78	117.73	71.48	-71.4	-95.4	3.8	14910232	99	56738
2025-01-01 09:52:02.99	117.51	71.56	-71.4	-95.4	3.8	14894996	99	56818
2025-01-01 09:52:03.20	117.29	71.63	-71.4	-95.4	3.8	14894996	99	56881
2025-01-01 09:52:03.41	117.07	71.70	-71.4	-95.4	3.8	14913757	99	56826
2025-01-01 09:52:03.62	116.84	71.78	-71.4	-95.4	3.8	14913757	99	56880
2025-01-01 09:52:03.83	116.62	71.85	-71.4	-95.4	3.8	14907630	99	56691
2025-01-01 09:52:04.03	116.40	71.92	-71.5	-95.4	3.9	14907630	99	56536
2025-01-01 09:52:04.24	116.17	71.99	-71.4	-95.4	3.9	14905937	99	56552
2025-01-01 09:52:04.45	115.94	72.06	-71.4	-95.4	3.8	14905937	99	56625
2025-01-01 09:52:04.66	115.70	72.13	-71.4	-95.3	3.8	14905937	99	56359
2025-01-01 09:52:04.87	115.47	72.21	-71.4	-95.4	3.8	14915100	99	56967
2025-01-01 09:52:05.07	115.24	72.27	-71.4	-95.4	3.8	14914512	99	56897
2025-01-01 09:52:05.28	115.00	72.35	-71.4	-95.4	3.8	14914512	99	56700
2025-01-01 09:52:05.49	114.76	72.42	-71.4	-95.4	3.8	14914512	99	56816
2025-01-01 09:52:05.70	114.51	72.49	-71.4	-95.4	3.8	14917190	99	56920
2025-01-01 09:52:05.91	114.27	72.56	-71.4	-95.4	3.8	14917190	99	56773
2025-01-01 09:52:06.12	114.02	72.63	-71.4	-95.3	3.8	14913711	99	56248
2025-01-01 09:52:06.33	113.77	72.70	-71.4	-95.4	3.8	14913711	99	56602
2025-01-01 09:52:06.54	113.51	72.77	-71.5	-95.4	3.8	14903129	99	56579
2025-01-01 09:52:06.74	113.27	72.83	-71.5	-95.4	3.8	14903129	99	56612
2025-01-01 09:52:06.95	113.01	72.90	-71.5	-95.4	3.9	14906867	99	56690
2025-01-01 09:52:07.16	112.75	72.97	-71.5	-95.4	3.8	14906867	99	56705
2025-01-01 09:52:07.37	112.49	73.04	-71.5	-95.5	3.8	14909591	99	57002
2025-01-01 09:52:07.58	112.23	73.11	-71.5	-95.4	3.8	14909591	99	56808
2025-01-01 09:52:07.79	111.96	73.18	-71.5	-95.5	3.8	14907913	99	56975
2025-01-01 09:52:08.00	111.69	73.24	-71.4	-95.3	3.8	14907913	99	56575
2025-01-01 09:52:08.21	111.42	73.31	-71.4	-95.4	3.8	14907440	99	56929
2025-01-01 09:52:08.41	111.16	73.38	-71.4	-95.4	3.8	14907440	99	56813
2025-01-01 09:52:08.62	110.89	73.44	-71.5	-95.4	3.8	14907348	99	56851
2025-01-01 09:52:08.83	110.61	73.51	-71.5	-95.5	3.8	14907348	99	57034
2025-01-01 09:52:09.04	110.33	73.57	-71.4	-95.4	3.8	14908767	99	56521
2025-01-01 09:52:09.25	110.05	73.64	-71.4	-95.4	3.8	14908767	99	56894
2025-01-01 09:52:09.46	109.76	73.71	-71.4	-95.4	3.8	14908767	99	56698
2025-01-01 09:52:09.67	109.48	73.77	-71.4	-95.4	3.8	14917259	99	56670
2025-01-01 09:52:09.87	109.20	73.83	-71.4	-95.4	3.8	14917259	99	56660
2025-01-01 09:52:10.08	108.91	73.90	-71.4	-95.4	3.9	14922584	99	56621
2025-01-01 09:52:10.29	108.62	73.96	-71.4	-95.4	3.9	14922584	99	56659
2025-01-01 09:52:10.50	108.32	74.02	-71.4	-95.4	3.8	14908203	99	56449
2025-01-01 09:52:10.71	108.02	74.09	-71.5	-95.4	3.9	14908203	99	56533
2025-01-01 09:52:10.92	107.72	74.15	-71.4	-95.4	3.8	14903663	99	56961
2025-01-01 09:52:11.13	107.41	74.21	-71.4	-95.4	3.8	14903663	99	56886
2025-01-01 09:52:11.34	107.11	74.27	-71.5	-95.4	3.8	14903442	99	56783
2025-01-01 09:52:11.55	106.80	74.34	-71.4	-95.4	3.8	14903442	99	56904
2025-01-01 09:52:11.75	106.50	74.39	-71.5	-95.4	3.8	14918640	99	56460
2025-01-01 09:52:11.96	106.19	74.45	-71.4	-95.3	3.8	14918640	99	56531
2025-01-01 09:52:12.17	105.87	74.52	-71.4	-95.3	3.9	14913841	99	56086
2025-01-01 09:52:12.38	105.55	74.58	-71.4	-95.2	3.8	14913841	99	55949
2025-01-01 09:52:12.58	105.25	74.63	-71.3	-95.1	3.8	14898536	99	55659
2025-01-01 09:52:12.79	104.92	74.69	-71.4	-95.3	3.8	14898536	99	56585
2025-01-01 09:52:13.00	104.60	74.75	-71.4	-95.3	3.8	14917869	99	56391
2025-01-01 09:52:13.21	104.27	74.81	-71.4	-95.3	3.8	14917869	99	56377
2025-01-01 09:52:13.42	103.93	74.87	-71.4	-95.3	3.9	14916549	99	56196
2025-01-01 09:52:13.62	103.62	74.92	-71.4	-95.3	3.8	14916549	99	56609
2025-01-01 09:52:13.83	103.28	74.98	-71.4	-95.3	3.8	14911247	99	56502
2025-01-01 09:52:14.04	102.94	75.03	-71.4	-95.3	3.8	14911247	99	56479
2025-01-01 09:52:14.25	102.60	75.09	-71.4	-95.4	3.8	14911247	99	56468
2025-01-01 09:52:14.46	102.25	75.14	-71.4	-95.3	3.8	14904708	99	56541
2025-01-01 09:52:14.67	101.90	75.20	-71.4	-95.3	3.8	14904708	99	56411
2025-01-01 09:52:14.88	101.55	75.25	-71.5	-95.5	3.8	14908950	99	57037
2025-01-01 09:52:15.09	101.20	75.31	-71.5	-95.5	3.9	14908950	99	57018
2025-01-01 09:52:15.29	100.86	75.36	-71.5	-95.5	3.9	14916488	99	56950
2025-01-01 09:52:15.50	100.50	75.41	-71.4	-95.4	3.9	14916488	99	56818
2025-01-01 09:52:15.71	100.14	75.46	-71.4	-95.4	3.8	14903350	99	56759
2025-01-01 09:52:15.92	99.78	75.51	-71.4	-95.5	3.8	14903350	99	57338
2025-01-01 09:52:16.13	99.41	75.56	-71.4	-95.5	3.8	14908920	99	57580
2025-01-01 09:52:16.34	99.04	75.62	-71.5	-95.5	3.8	14908920	99	57330
2025-01-01 09:52:16.54	98.69	75.66	-71.5	-95.5	3.8	14910903	99	57293
2025-01-01 09:52:16.75	98.31	75.71	-71.4	-95.5	3.8	14910903	99	57258
2025-01-01 09:52:16.96	97.94	75.76	-71.5	-95.5	3.8	14896049	99	57302
2025-01-01 09:52:17.17	97.56	75.81	-71.5	-95.5	3.8	14896049	99	57020
2025-01-01 09:52:17.38	97.17	75.86	-72.0	-95.9	3.8	14908950	99	56479
2025-01-01 09:52:17.59	96.79	75.90	-71.4	-95.5	3.8	14908950	99	57248
2025-01-01 09:52:17.79	96.42	75.95	-71.5	-95.5	3.8	14903381	99	57375
2025-01-01 09:52:18.00	96.03	75.99	-71.5	-95.4	3.8	14903381	99	56878
2025-01-01 09:52:18.21	95.64	76.04	-71.4	-95.4	3.8	14903381	99	56765
2025-01-01 09:52:18.42	95.24	76.08	-71.4	-95.4	3.8	14917892	99	56764
2025-01-01 09:52:18.63	94.84	76.13	-71.5	-95.4	3.8	14907081	99	56757
2025-01-01 09:52:18.84	94.44	76.17	-71.4	-95.4	3.8	14907081	99	56913
2025-01-01 09:52:19.05	94.04	76.21	-71.4	-95.3	3.8	14907081	99	56831
2025-01-01 09:52:19.26	93.63	76.26	-71.4	-95.4	3.8	14905784	99	56910
2025-01-01 09:52:19.46	93.24	76.30	-71.4	-95.4	3.8	14905784	99	56964
2025-01-01 09:52:19.67	92.83	76.34	-71.4	-95.4	3.9	14915840	99	56675
2025-01-01 09:52:19.88	92.42	76.38	-71.4	-95.4	3.9	14915840	99	56619
2025-01-01 09:52:20.09	92.00	76.42	-71.4	-95.3	3.9	14902816	99	56476
2025-01-01 09:52:20.30	91.59	76.45	-71.4	-95.3	3.9	14902816	99	56556
2025-01-01 09:52:20.51	91.17	76.49	-71.4	-95.3	3.8	14904449	99	56312
2025-01-01 09:52:20.72	90.74	76.53	-71.4	-95.4	3.8	14904449	99	56812
2025-01-01 09:52:20.93	90.32	76.57	-71.4	-95.4	3.8	14903457	99	56716
2025-01-01 09:52:21.13	89.91	76.60	-71.4	-95.4	3.8	14903457	99	56811
2025-01-01 09:52:21.34	89.48	76.64	-71.4	-95.3	3.8	14914619	99	56508
2025-01-01 09:52:21.55	89.05	76.67	-71.4	-95.4	3.8	14914619	99	56931
2025-01-01 09:52:21.76	88.61	76.70	-71.4	-95.4	3.8	14912864	99	56747
2025-01-01 09:52:21.97	88.18	76.74	-71.4	-95.3	3.8	14912864	99	56480
2025-01-01 09:52:22.18	87.74	76.77	-73.9	-97.7	3.8	14903976	99	56286
2025-01-01 09:52:22.39	87.29	76.80	-71.4	-95.3	3.8	14903976	99	56496
2025-01-01 09:52:22.60	86.85	76.83	-71.4	-95.4	3.8	14902206	99	56734
2025-01-01 09:52:22.81	86.41	76.86	-71.4	-95.4	3.8	14902206	99	56877
2025-01-01 09:52:23.01	85.98	76.89	-71.4	-95.5	3.9	14902206	99	57579
2025-01-01 09:52:23.22	85.53	76.92	-71.5	-95.6	3.8	14898452	99	57734
2025-01-01 09:52:23.43	85.08	76.95	-71.4	-95.5	3.8	14891593	99	57673
2025-01-01 09:52:23.64	84.62	76.97	-71.5	-95.6	3.8	14891593	99	57819
2025-01-01 09:52:23.85	84.17	77.00	-71.5	-95.5	3.8	14891593	99	57683
2025-01-01 09:52:24.06	83.71	77.02	-71.4	-95.5	3.8	14899841	99	57771
2025-01-01 09:52:24.27	83.25	77.05	-71.4	-95.6	3.8	14899841	99	57772
2025-01-01 09:52:24.48	82.79	77.07	-71.5	-95.6	3.8	14902496	99	57598
2025-01-01 09:52:24.69	82.33	77.09	-71.5	-95.6	3.9	14902496	99	57502
2025-01-01 09:52:24.89	81.89	77.12	-71.5	-95.6	3.9	14908195	99	57488
2025-01-01 09:52:25.10	81.42	77.14	-71.4	-95.5	3.8	14908195	99	57321
2025-01-01 09:52:25.31	80.95	77.16	-71.5	-95.5	3.8	14910636	99	57129
2025-01-01 09:52:25.52	80.48	77.18	-71.5	-95.6	3.8	14910636	99	57594
2025-01-01 09:52:25.72	80.04	77.19	-71.5	-95.6	3.8	14899261	99	57719
2025-01-01 09:52:25.93	79.56	77.21	-71.4	-95.5	3.8	14899261	99	57709
2025-01-01 09:52:26.14	79.09	77.23	-71.5	-95.6	3.8	14911415	99	57747
2025-01-01 09:52:26.35	78.62	77.25	-71.5	-95.6	3.8	14911415	99	57732
2025-01-01 09:52:26.56	78.14	77.26	-71.4	-95.5	3.8	14905921	99	57715
2025-01-01 09:52:26.77	77.66	77.28	-71.5	-95.5	3.9	14905921	99	57247
2025-01-01 09:52:26.98	77.19	77.29	-71.4	-95.4	3.8	14895446	99	57084
2025-01-01 09:52:27.18	76.73	77.30	-71.4	-95.5	3.8	14895446	99	57501
2025-01-01 09:52:27.39	76.25	77.31	-71.4	-95.5	3.8	14897003	99	57458
2025-01-01 09:52:27.60	75.77	77.32	-71.4	-95.5	3.8	14897003	99	57533
2025-01-01 09:52:27.81	75.29	77.33	-71.4	-95.5	3.9	14897003	99	57542
2025-01-01 09:52:28.02	74.81	77.34	-71.5	-95.6	3.8	14903518	99	57757
2025-01-01 09:52:28.23	74.32	77.35	-71.4	-95.4	3.8	14903518	99	56750
2025-01-01 09:52:28.44	73.84	77.36	-71.4	-95.4	3.8	14900146	99	56881
2025-01-01 09:52:28.65	73.36	77.37	-71.4	-95.4	3.8	14900146	99	56728
2025-01-01 09:52:28.85	72.90	77.37	-71.4	-95.4	3.8	14902473	99	56981
2025-01-01 09:52:29.06	72.41	77.38	-71.4	-95.4	3.8	14902473	99	56927
2025-01-01 09:52:29.27	71.93	77.38	-71.4	-95.4	3.8	14915725	99	56805
2025-01-01 09:52:29.48	71.44	77.39	-71.5	-95.4	3.9	14915725	99	56794
2025-01-01 09:52:29.69	70.95	77.39	-71.4	-95.4	3.9	14902389	99	56598
2025-01-01 09:52:29.90	70.47	77.39	-71.4	-95.3	3.8	14902389	99	56637
2025-01-01 09:52:30.11	69.98	77.39	-71.5	-95.4	3.8	14899887	99	56560
2025-01-01 09:52:30.32	69.50	77.39	-71.4	-95.4	3.8	14899887	99	56836
2025-01-01 09:52:30.52	69.03	77.39	-71.4	-95.4	3.8	14908355	99	56874
2025-01-01 09:52:30.73	68.55	77.39	-71.5	-95.4	3.8	14908355	99	56827
2025-01-01 09:52:30.94	68.06	77.38	-71.5	-95.4	3.8	14911483	99	56834
2025-01-01 09:52:31.15	67.58	77.38	-71.4	-95.4	3.8	14911483	99	56837
2025-01-01 09:52:31.36	67.09	77.37	-71.4	-95.4	3.8	14901672	99	56671
2025-01-01 09:52:31.57	66.61	77.37	-71.4	-95.4	3.8	14901672	99	56734
2025-01-01 09:52:31.77	66.15	77.36	-73.7	-97.6	3.8	14904899	99	56161
2025-01-01 09:52:31.98	65.66	77.36	-71.4	-95.3	3.8	14904899	99	56852
2025-01-01 09:52:32.19	65.18	77.35	-71.4	-95.4	3.8	14907608	99	56927
2025-01-01 09:52:32.40	64.70	77.34	-71.4	-95.4	3.8	14907608	99	56936
2025-01-01 09:52:32.61	64.21	77.33	-71.4	-95.4	3.8	14907608	99	56790
2025-01-01 09:52:32.81	63.76	77.32	-71.4	-95.3	3.9	14920700	99	56580
2025-01-01 09:52:33.02	63.28	77.31	-71.4	-95.5	3.8	14920700	99	57664
2025-01-01 09:52:33.23	62.80	77.29	-71.5	-95.6	3.8	14896736	99	57755
2025-01-01 09:52:33.44	62.32	77.28	-71.4	-95.5	3.8	14896736	99	57527
2025-01-01 09:52:33.65	61.84	77.27	-71.4	-95.5	3.8	14896736	99	57561
2025-01-01 09:52:33.86	61.37	77.25	-71.4	-95.5	3.8	14896736	99	57646
2025-01-01 09:52:34.07	60.89	77.24	-71.5	-95.6	3.8	14902496	99	57725
2025-01-01 09:52:34.28	60.42	77.22	-71.5	-95.6	3.9	14902496	99	57531
2025-01-01 09:52:34.48	59.97	77.20	-71.5	-95.5	3.9	14905364	99	57476
2025-01-01 09:52:34.69	59.50	77.18	-71.4	-95.4	3.8	14905364	99	57158
2025-01-01 09:52:34.90	59.03	77.17	-71.5	-95.5	3.8	14907531	99	57250
2025-01-01 09:52:35.11	58.56	77.15	-71.5	-95.6	3.8	14907531	99	57880
2025-01-01 09:52:35.32	58.09	77.12	-71.4	-95.5	3.8	14907310	99	57772
2025-01-01 09:52:35.53	57.63	77.10	-71.4	-95.5	3.8	14907310	99	57771
2025-01-01 09:52:35.74	57.17	77.08	-71.5	-95.5	3.8	14912719	99	57263
2025-01-01 09:52:35.95	56.71	77.06	-71.5	-95.6	3.8	14912719	99	57778
2025-01-01 09:52:36.16	56.25	77.03	-71.5	-95.6	3.8	14898590	99	57636
2025-01-01 09:52:36.36	55.81	77.01	-71.5	-95.6	3.8	14898590	99	57614
2025-01-01 09:52:36.57	55.35	76.98	-73.3	-97.3	3.8	14907485	99	56991
2025-01-01 09:52:36.78	54.90	76.96	-71.4	-95.5	3.8	14907485	99	57389
2025-01-01 09:52:36.99	54.45	76.93	-71.4	-95.5	3.8	14916893	99	57557
2025-01-01 09:52:37.20	54.00	76.90	-71.5	-95.5	3.8	14916893	99	57533
2025-01-01 09:52:37.41	53.55	76.87	-71.4	-95.5	3.8	14916893	99	57479
2025-01-01 09:52:37.62	53.10	76.84	-71.5	-95.6	3.8	14904403	99	57700
2025-01-01 09:52:37.83	52.66	76.81	-71.5	-95.6	3.8	14904403	99	57760
2025-01-01 09:52:38.03	52.24	76.78	-71.4	-95.3	3.8	14914459	99	56620
2025-01-01 09:52:38.24	51.80	76.75	-71.4	-95.3	3.8	14914459	99	56120
2025-01-01 09:52:38.45	51.36	76.72	-71.4	-95.3	3.8	14915771	99	56285
2025-01-01 09:52:38.66	50.92	76.68	-71.4	-95.3	3.8	14915771	99	56159
2025-01-01 09:52:38.87	50.49	76.65	-71.4	-95.3	3.8	14909263	99	56329
2025-01-01 09:52:39.08	50.06	76.62	-71.4	-95.3	3.9	14909263	99	56357
2025-01-01 09:52:39.29	49.63	76.58	-71.4	-95.3	3.9	14908645	99	56237
2025-01-01 09:52:39.49	49.23	76.55	-71.4	-95.3	3.8	14908645	99	56189
2025-01-01 09:52:39.70	48.80	76.51	-71.4	-95.2	3.8	14911865	99	56027
2025-01-01 09:52:39.91	48.38	76.47	-71.4	-95.3	3.8	14911865	99	56576
2025-01-01 09:52:40.12	47.96	76.43	-71.4	-95.3	3.8	14911743	99	56656
2025-01-01 09:52:40.33	47.54	76.39	-71.4	-95.3	3.8	14911743	99	56586
2025-01-01 09:52:40.54	47.13	76.35	-71.4	-95.3	3.8	14913070	99	56496
2025-01-01 09:52:40.75	46.72	76.31	-71.4	-95.3	3.8	14913070	99	56609
2025-01-01 09:52:40.96	46.31	76.27	-71.4	-95.3	3.8	14892501	99	56552
2025-01-01 09:52:41.17	45.90	76.23	-71.4	-95.3	3.8	14892501	99	56626
2025-01-01 09:52:41.37	45.52	76.19	-74.6	-98.4	3.8	14902801	99	55793
2025-01-01 09:52:41.58	45.12	76.15	-71.4	-95.3	3.8	14902801	99	56244
2025-01-01 09:52:41.79	44.72	76.10	-71.4	-95.3	3.8	14907814	99	56239
2025-01-01 09:52:42.00	44.32	76.06	-71.5	-95.3	3.8	14907814	99	56215
2025-01-01 09:52:42.21	43.93	76.01	-71.5	-95.4	3.8	14907814	99	56389
2025-01-01 09:52:42.42	43.54	75.97	-71.4	-95.3	3.8	14903846	99	56487
2025-01-01 09:52:42.63	43.15	75.92	-71.5	-95.4	3.8	14903846	99	56576
2025-01-01 09:52:42.84	42.76	75.87	-71.5	-95.4	3.8	14890579	99	56548
2025-01-01 09:52:43.04	42.40	75.83	-71.4	-95.4	3.8	14890579	99	57109
2025-01-01 09:52:43.25	42.02	75.78	-71.4	-95.4	3.8	14911537	99	57142
2025-01-01 09:52:43.46	41.64	75.73	-71.4	-95.5	3.8	14911537	99	57216
2025-01-01 09:52:43.67	41.26	75.68	-71.4	-95.4	3.8	14914955	99	56959
2025-01-01 09:52:43.88	40.89	75.63	-71.5	-95.4	3.9	14914955	99	57030
2025-01-01 09:52:44.09	40.52	75.58	-71.4	-95.4	3.9	14897979	99	56782
2025-01-01 09:52:44.30	40.15	75.53	-71.5	-95.4	3.9	14897979	99	56717
2025-01-01 09:52:44.50	39.81	75.48	-71.4	-95.3	3.8	14902824	99	56270
2025-01-01 09:52:44.71	39.45	75.43	-71.4	-95.4	3.8	14902824	99	56957
2025-01-01 09:52:44.92	39.09	75.38	-71.4	-95.4	3.8	14906967	99	56906
2025-01-01 09:52:45.13	38.73	75.33	-71.4	-95.4	3.8	14906967	99	56833
2025-01-01 09:52:45.34	38.38	75.27	-71.5	-95.4	3.8	14917343	99	56830
2025-01-01 09:52:45.55	38.02	75.22	-71.4	-95.4	3.8	14917343	99	56948
2025-01-01 09:52:45.75	37.69	75.17	-71.4	-95.4	3.8	14907135	99	56977
2025-01-01 09:52:45.96	37.35	75.11	-71.4	-95.4	3.8	14907135	99	56750
2025-01-01 09:52:46.17	37.00	75.06	-74.5	-98.3	3.8	14903289	99	55634
2025-01-01 09:52:46.38	36.66	75.00	-71.4	-95.2	3.8	14903289	99	56265
2025-01-01 09:52:46.59	36.32	74.94	-71.4	-95.3	3.8	14903289	99	56440
2025-01-01 09:52:46.80	35.99	74.89	-71.4	-95.3	3.8	14915107	99	56410
2025-01-01 09:52:47.01	35.66	74.83	-71.4	-95.3	3.9	14915107	99	56373
2025-01-01 09:52:47.21	35.34	74.78	-71.4	-95.3	3.9	14910530	99	56351
2025-01-01 09:52:47.42	35.01	74.72	-71.4	-95.3	3.8	14910530	99	56586
2025-01-01 09:52:47.63	34.69	74.66	-71.4	-95.3	3.8	14902778	99	56410
2025-01-01 09:52:47.84	34.37	74.60	-71.4	-95.3	3.8	14902778	99	56393
2025-01-01 09:52:48.05	34.05	74.54	-71.3	-95.3	3.8	14909378	99	56655
2025-01-01 09:52:48.25	33.75	74.48	-71.4	-95.4	3.8	14909378	99	56855
2025-01-01 09:52:48.46	33.43	74.42	-71.4	-95.4	3.8	14921493	99	56905
2025-01-01 09:52:48.67	33.12	74.36	-71.5	-95.4	3.9	14921493	99	56736
2025-01-01 09:52:48.88	32.81	74.30	-71.4	-95.4	3.9	14904060	99	56716
2025-01-01 09:52:49.09	32.50	74.24	-71.4	-95.3	3.8	14904060	99	56101
2025-01-01 09:52:49.30	32.20	74.18	-71.4	-95.3	3.8	14900382	99	56233
2025-01-01 09:52:49.50	31.91	74.12	-71.5	-95.4	3.8	14900382	99	56902
2025-01-01 09:52:49.71	31.61	74.05	-71.5	-95.5	3.8	14898033	99	57094
2025-01-01 09:52:49.92	31.31	73.99	-71.4	-95.4	3.8	14898033	99	56867
2025-01-01 09:52:50.13	31.02	73.93	-71.4	-95.4	3.8	14912269	99	56832
2025-01-01 09:52:50.34	30.72	73.86	-71.4	-95.4	3.8	14912269	99	56949
2025-01-01 09:52:50.55	30.43	73.80	-71.4	-95.4	3.8	14908027	99	57073
2025-01-01 09:52:50.76	30.15	73.73	-71.4	-95.4	3.8	14908027	99	56874
2025-01-01 09:52:50.97	29.86	73.67	-71.4	-95.4	3.8	14908027	99	56875
2025-01-01 09:52:51.17	29.59	73.61	-71.4	-95.3	3.7	14907608	99	56402
2025-01-01 09:52:51.38	29.31	73.54	-71.4	-95.3	3.8	14907608	99	56830
2025-01-01 09:52:51.59	29.03	73.47	-71.4	-95.4	3.8	14903266	99	56760
2025-01-01 09:52:51.80	28.76	73.41	-71.4	-95.4	3.8	14903266	99	56803
2025-01-01 09:52:52.01	28.48	73.34	-71.4	-95.4	3.9	14911132	99	56623
2025-01-01 09:52:52.22	28.21	73.27	-71.4	-95.3	3.9	14911132	99	56441
2025-01-01 09:52:52.43	27.94	73.21	-71.4	-95.4	3.8	14902893	99	56856
2025-01-01 09:52:52.63	27.69	73.14	-71.4	-95.3	3.8	14902893	99	56867
2025-01-01 09:52:52.84	27.43	73.07	-71.4	-95.4	3.8	14898178	99	56853
2025-01-01 09:52:53.05	27.16	73.01	-71.4	-95.5	3.8	14898178	99	57286
2025-01-01 09:52:53.26	26.90	72.94	-71.5	-95.5	3.8	14920425	99	57130
2025-01-01 09:52:53.47	26.65	72.87	-71.5	-95.5	3.9	14920425	99	57043
2025-01-01 09:52:53.68	26.39	72.80	-71.5	-95.5	3.9	14910446	99	56944
2025-01-01 09:52:53.89	26.14	72.73	-71.5	-95.4	3.8	14910446	99	56763
2025-01-01 09:52:54.10	25.88	72.66	-71.5	-95.4	3.9	14906242	99	56686
2025-01-01 09:52:54.30	25.65	72.59	-71.5	-95.5	3.8	14906242	99	56991
2025-01-01 09:52:54.51	25.40	72.52	-71.4	-95.4	3.8	14904731	99	57129
2025-01-01 09:52:54.72	25.15	72.45	-71.4	-95.4	3.8	14904731	99	57200
2025-01-01 09:52:54.93	24.91	72.38	-71.5	-95.5	3.9	14902290	99	56967
2025-01-01 09:52:55.14	24.67	72.31	-71.5	-95.4	3.9	14902290	99	56982
2025-01-01 09:52:55.35	24.43	72.24	-71.4	-95.4	3.9	14902496	99	56784
2025-01-01 09:52:55.56	24.19	72.17	-71.5	-95.4	3.8	14902496	99	56679
2025-01-01 09:52:55.77	23.96	72.10	-71.4	-95.4	3.8	14906585	99	57133
2025-01-01 09:52:55.98	23.73	72.02	-71.4	-95.4	3.8	14906585	99	57077
2025-01-01 09:52:56.18	23.51	71.95	-71.5	-95.5	3.8	14906585	99	57235
2025-01-01 09:52:56.39	23.28	71.88	-71.5	-95.5	3.8	14916923	99	57251
2025-01-01 09:52:56.60	23.05	71.81	-71.5	-95.5	3.8	14916923	99	57167
2025-01-01 09:52:56.81	22.83	71.74	-71.5	-95.5	3.8	14905570	99	57126
2025-01-01 09:52:57.02	22.60	71.66	-71.5	-95.4	3.9	14905570	99	56766
2025-01-01 09:52:57.23	22.38	71.59	-71.5	-95.4	3.8	14908096	99	56636
2025-01-01 09:52:57.44	22.16	71.52	-71.4	-95.4	3.8	14908096	99	56994
2025-01-01 09:52:57.65	21.94	71.44	-71.5	-95.5	3.8	14911476	99	56952
2025-01-01 09:52:57.85	21.74	71.37	-71.5	-95.5	3.8	14911476	99	56993
2025-01-01 09:52:58.06	21.52	71.30	-71.5	-95.6	3.9	14921821	99	57830
2025-01-01 09:52:58.27	21.31	71.22	-71.5	-95.7	3.8	14921821	99	57951
2025-01-01 09:52:58.48	21.10	71.15	-71.5	-95.6	3.8	14908569	99	57665
2025-01-01 09:52:58.69	20.89	71.07	-71.5	-95.6	3.8	14908569	99	57929
2025-01-01 09:52:58.90	20.68	71.00	-71.5	-95.6	3.8	14891471	99	57819
2025-01-01 09:52:59.11	20.48	70.92	-71.5	-95.6	3.8	14891471	99	57949
2025-01-01 09:52:59.32	20.28	70.85	-71.4	-95.5	3.8	14907226	99	57798
2025-01-01 09:52:59.53	20.07	70.77	-71.5	-95.6	3.8	14907226	99	57663
2025-01-01 09:52:59.74	19.87	70.70	-71.5	-95.6	3.8	14908584	99	57700
2025-01-01 09:52:59.94	19.68	70.63	-71.5	-95.6	3.8	14908584	99	57644
2025-01-01 09:53:00.15	19.49	70.55	-71.5	-95.5	3.9	14904373	99	56918
2025-01-01 09:53:00.36	19.29	70.47	-71.5	-95.4	3.8	14904373	99	56842
2025-01-01 09:53:00.57	19.10	70.40	-71.4	-95.4	3.8	14895637	99	57018
2025-01-01 09:53:00.78	18.91	70.32	-71.4	-95.3	3.8	14895637	99	56514

#Closed at: 2025-01-01 09:53:00