passes_logs/2025/01/01/X_MFTI_01/X_MFTI_01__20250101_234222_NOAA_20_rec.log

#Pass ID: 20250101_234222_NOAA 20
#Satellite: NOAA 20
#Configuration: NOAA 20
#Start time: 2025-01-01 23:42:16

#Version: 1.5.20200625
#Station: X_MFTI_01
#Location: 37.5186 lon 55.9291 lat
#TLE: 1 43013U 17073A   23362.44808611  .00000160  00000+0  96626-4 0  9996
#TLE: 2 43013  98.7331 297.9536 0000783  57.5916 302.5335 14.19555620316533

#Time	Az	El	Level	Level2	SNR	BER	Gain	Gain2
2025-01-01 23:42:16.71	31.06	67.65	-71.4	-95.3	3.7	14947845	99	56491
2025-01-01 23:42:16.92	31.13	67.74	-71.3	-95.2	3.8	14914154	99	56340
2025-01-01 23:42:17.12	31.20	67.83	-71.5	-95.3	3.8	14914154	99	56374
2025-01-01 23:42:17.32	31.26	67.92	-71.5	-95.4	3.8	14908279	99	56105
2025-01-01 23:42:17.52	31.33	68.00	-71.5	-95.4	3.8	14908279	99	56266
2025-01-01 23:42:17.72	31.39	68.09	-71.5	-95.4	3.8	14911445	99	56317
2025-01-01 23:42:17.92	31.46	68.18	-71.4	-95.3	3.8	14911445	99	56353
2025-01-01 23:42:18.14	31.53	68.28	-71.5	-95.5	3.8	14911445	99	56928
2025-01-01 23:42:18.34	31.60	68.36	-71.5	-95.5	3.8	14910957	99	56869
2025-01-01 23:42:18.54	31.67	68.45	-71.5	-95.5	3.8	14910957	99	56912
2025-01-01 23:42:18.76	31.75	68.55	-71.5	-95.4	3.9	14909713	99	56753
2025-01-01 23:42:18.97	31.82	68.64	-71.6	-95.5	3.9	14909713	99	56752
2025-01-01 23:42:19.17	31.89	68.73	-71.5	-95.4	3.9	14906257	99	56630
2025-01-01 23:42:19.39	31.97	68.83	-71.5	-95.4	3.8	14906257	99	56354
2025-01-01 23:42:19.59	32.04	68.92	-71.4	-95.4	3.8	14908676	99	56940
2025-01-01 23:42:19.79	32.11	69.01	-71.5	-95.5	3.8	14908676	99	56983
2025-01-01 23:42:20.01	32.19	69.10	-71.5	-95.5	3.8	14904563	99	56824
2025-01-01 23:42:20.21	32.27	69.19	-71.5	-95.5	3.9	14904563	99	56770
2025-01-01 23:42:20.42	32.35	69.29	-71.5	-95.4	3.9	14900207	99	56594
2025-01-01 23:42:20.62	32.42	69.37	-71.5	-95.4	3.9	14900207	99	56632
2025-01-01 23:42:20.82	32.50	69.46	-71.5	-95.4	3.9	14900413	99	56398
2025-01-01 23:42:21.03	32.58	69.56	-71.5	-95.5	3.8	14900413	99	57033
2025-01-01 23:42:21.24	32.66	69.65	-71.5	-95.5	3.8	14909599	99	56906
2025-01-01 23:42:21.44	32.74	69.74	-71.5	-95.5	3.8	14909599	99	56968
2025-01-01 23:42:21.65	32.82	69.83	-71.5	-95.5	3.8	14909599	99	56937
2025-01-01 23:42:21.86	32.91	69.93	-71.5	-95.5	3.9	14913078	99	56744
2025-01-01 23:42:22.08	32.99	70.03	-71.5	-95.4	3.9	14913078	99	56679
2025-01-01 23:42:22.29	33.08	70.12	-71.5	-95.4	3.9	14904617	99	56505
2025-01-01 23:42:22.49	33.16	70.21	-71.5	-95.4	3.8	14904617	99	56341
2025-01-01 23:42:22.69	33.25	70.30	-71.5	-95.5	3.8	14891769	99	57046
2025-01-01 23:42:22.89	33.33	70.39	-71.5	-95.5	3.8	14891769	99	57063
2025-01-01 23:42:23.11	33.42	70.49	-71.5	-95.5	3.8	14910568	99	56924
2025-01-01 23:42:23.33	33.52	70.58	-71.5	-95.4	3.8	14910568	99	56863
2025-01-01 23:42:23.53	33.60	70.67	-71.5	-95.4	3.9	14907005	99	56693
2025-01-01 23:42:23.74	33.69	70.77	-71.5	-95.4	3.9	14907005	99	56773
2025-01-01 23:42:23.96	33.79	70.87	-71.5	-95.5	3.8	14898925	99	56892
2025-01-01 23:42:24.16	33.88	70.96	-71.4	-95.4	3.8	14898925	99	56787
2025-01-01 23:42:24.36	33.97	71.05	-71.5	-95.4	3.8	14911949	99	56718
2025-01-01 23:42:24.56	34.06	71.14	-71.5	-95.5	3.8	14911949	99	56775
2025-01-01 23:42:24.78	34.16	71.23	-71.5	-95.5	3.8	14923927	99	56956
2025-01-01 23:42:24.99	34.26	71.33	-71.5	-95.5	3.9	14923927	99	56750
2025-01-01 23:42:25.21	34.36	71.43	-71.5	-95.5	3.8	14900085	99	56936
2025-01-01 23:42:25.42	34.46	71.52	-71.5	-95.5	3.8	14900085	99	56987
2025-01-01 23:42:25.62	34.56	71.61	-71.4	-95.4	3.8	14897613	99	56602
2025-01-01 23:42:25.82	34.66	71.70	-71.4	-95.3	3.8	14897613	99	56393
2025-01-01 23:42:26.04	34.77	71.80	-71.4	-95.3	3.8	14897613	99	56294
2025-01-01 23:42:26.24	34.86	71.89	-71.5	-95.4	3.8	14912475	99	56323
2025-01-01 23:42:26.44	34.96	71.98	-71.5	-95.3	3.9	14912475	99	56321
2025-01-01 23:42:26.64	35.07	72.07	-71.4	-95.3	3.9	14912399	99	56129
2025-01-01 23:42:26.84	35.17	72.16	-71.4	-95.3	3.9	14912399	99	56009
2025-01-01 23:42:27.06	35.28	72.26	-71.5	-95.4	3.8	14899726	99	56351
2025-01-01 23:42:27.26	35.39	72.35	-71.5	-95.4	3.8	14899726	99	56415
2025-01-01 23:42:27.48	35.50	72.45	-71.4	-95.3	3.8	14915611	99	56447
2025-01-01 23:42:27.68	35.61	72.54	-71.4	-95.3	3.8	14915611	99	56441
2025-01-01 23:42:27.88	35.72	72.63	-71.4	-95.3	3.8	14918571	99	56185
2025-01-01 23:42:28.09	35.83	72.73	-71.5	-95.4	3.9	14918571	99	56106
2025-01-01 23:42:28.31	35.96	72.82	-71.4	-95.3	3.8	14907501	99	56401
2025-01-01 23:42:28.53	36.08	72.92	-71.5	-95.4	3.8	14907501	99	56408
2025-01-01 23:42:28.73	36.19	73.01	-71.4	-95.3	3.8	14903266	99	56304
2025-01-01 23:42:28.93	36.31	73.10	-71.5	-95.3	3.8	14903266	99	56334
2025-01-01 23:42:29.13	36.42	73.19	-71.4	-95.3	3.8	14904075	99	56457
2025-01-01 23:42:29.35	36.55	73.29	-71.4	-95.3	3.8	14904075	99	56295
2025-01-01 23:42:29.56	36.68	73.39	-71.5	-95.4	3.8	14916740	99	56421
2025-01-01 23:42:29.76	36.80	73.48	-71.5	-95.4	3.8	14916740	99	56422
2025-01-01 23:42:29.96	36.92	73.57	-71.4	-95.3	3.8	14905303	99	56409
2025-01-01 23:42:30.16	37.04	73.66	-71.5	-95.4	3.8	14905303	99	56365
2025-01-01 23:42:30.37	37.17	73.75	-71.4	-95.3	3.8	14905303	99	56375
2025-01-01 23:42:30.58	37.30	73.85	-71.4	-95.3	3.8	14904907	99	56468
2025-01-01 23:42:30.78	37.43	73.94	-71.4	-95.5	3.8	14904907	99	57284
2025-01-01 23:42:30.98	37.56	74.03	-71.4	-95.5	3.9	14912590	99	57193
2025-01-01 23:42:31.20	37.70	74.13	-71.4	-95.4	3.9	14912590	99	57101
2025-01-01 23:42:31.40	37.84	74.22	-71.5	-95.5	3.9	14907478	99	57013
2025-01-01 23:42:31.60	37.97	74.31	-71.5	-95.4	3.9	14907478	99	56944
2025-01-01 23:42:31.80	38.10	74.40	-71.4	-95.3	3.8	14908988	99	56551
2025-01-01 23:42:32.01	38.25	74.49	-71.4	-95.4	3.8	14908988	99	57214
2025-01-01 23:42:32.21	38.39	74.58	-71.4	-95.5	3.8	14914459	99	57153
2025-01-01 23:42:32.41	38.53	74.67	-71.4	-95.5	3.8	14914459	99	57232
2025-01-01 23:42:32.61	38.67	74.76	-71.4	-95.4	3.8	14918746	99	57199
2025-01-01 23:42:32.81	38.81	74.85	-71.5	-95.5	3.9	14918746	99	57150
2025-01-01 23:42:33.03	38.97	74.95	-71.5	-95.5	3.9	14907760	99	57009
2025-01-01 23:42:33.24	39.13	75.05	-71.4	-95.4	3.8	14907760	99	56993
2025-01-01 23:42:33.46	39.29	75.15	-71.4	-95.5	3.8	14906982	99	57250
2025-01-01 23:42:33.66	39.44	75.24	-71.5	-95.5	3.8	14906982	99	57427
2025-01-01 23:42:33.86	39.60	75.33	-71.4	-95.4	3.8	14906982	99	57016
2025-01-01 23:42:34.06	39.75	75.42	-71.5	-95.5	3.8	14923034	99	57200
2025-01-01 23:42:34.26	39.91	75.51	-71.5	-95.5	3.9	14923034	99	57206
2025-01-01 23:42:34.46	40.07	75.60	-71.5	-95.6	3.9	14909179	99	57875
2025-01-01 23:42:34.66	40.23	75.69	-71.5	-95.6	3.9	14909179	99	57875
2025-01-01 23:42:34.86	40.40	75.78	-71.5	-95.5	3.8	14904319	99	57550
2025-01-01 23:42:35.08	40.58	75.87	-71.5	-95.6	3.8	14904319	99	58125
2025-01-01 23:42:35.29	40.75	75.97	-71.5	-95.6	3.8	14907806	99	58085
2025-01-01 23:42:35.51	40.94	76.07	-71.5	-95.6	3.8	14907806	99	57952
2025-01-01 23:42:35.71	41.12	76.16	-71.5	-95.6	3.9	14912979	99	57336
2025-01-01 23:42:35.91	41.29	76.25	-71.5	-95.6	3.9	14912979	99	57832
2025-01-01 23:42:36.13	41.49	76.34	-71.5	-95.6	3.8	14907745	99	57776
2025-01-01 23:42:36.33	41.67	76.43	-71.5	-95.6	3.8	14907745	99	57749
2025-01-01 23:42:36.54	41.86	76.53	-71.5	-95.7	3.8	14909385	99	58202
2025-01-01 23:42:36.75	42.05	76.62	-71.5	-95.6	3.8	14909385	99	58200
2025-01-01 23:42:36.95	42.24	76.71	-71.5	-95.6	3.8	14909385	99	58119
2025-01-01 23:42:37.17	42.45	76.81	-71.5	-95.7	3.8	14901885	99	58122
2025-01-01 23:42:37.37	42.65	76.90	-71.5	-95.7	3.8	14901885	99	58109
2025-01-01 23:42:37.58	42.85	76.99	-71.5	-95.6	3.8	14907989	99	58079
2025-01-01 23:42:37.78	43.05	77.08	-71.5	-95.7	3.8	14907989	99	58222
2025-01-01 23:42:38.00	43.27	77.18	-71.5	-95.7	3.8	14893394	99	58043
2025-01-01 23:42:38.20	43.48	77.26	-71.5	-95.6	3.8	14893394	99	57770
2025-01-01 23:42:38.41	43.70	77.36	-71.5	-95.6	3.8	14897270	99	57847
2025-01-01 23:42:38.62	43.92	77.45	-71.5	-95.6	3.8	14897270	99	57988
2025-01-01 23:42:38.83	44.14	77.54	-71.5	-95.6	3.8	14910339	99	58174
2025-01-01 23:42:39.03	44.36	77.63	-71.5	-95.7	3.8	14910339	99	58136
2025-01-01 23:42:39.25	44.61	77.73	-71.5	-95.6	3.8	14902809	99	58069
2025-01-01 23:42:39.46	44.84	77.82	-71.5	-95.6	3.8	14902809	99	57774
2025-01-01 23:42:39.68	45.09	77.91	-71.5	-95.6	3.8	14896858	99	58080
2025-01-01 23:42:39.88	45.32	78.00	-71.5	-95.6	3.8	14896858	99	58103
2025-01-01 23:42:40.08	45.56	78.09	-71.5	-95.7	3.8	14903594	99	58115
2025-01-01 23:42:40.30	45.82	78.18	-71.5	-95.5	3.8	14903594	99	57229
2025-01-01 23:42:40.51	46.08	78.28	-71.5	-95.4	3.9	14918014	99	56737
2025-01-01 23:42:40.71	46.32	78.36	-71.5	-95.5	3.9	14918014	99	56853
2025-01-01 23:42:40.93	46.60	78.46	-71.5	-95.4	3.9	14917655	99	56596
2025-01-01 23:42:41.13	46.85	78.54	-71.4	-95.3	3.8	14917655	99	56436
2025-01-01 23:42:41.35	47.14	78.64	-71.5	-95.5	3.8	14912086	99	57022
2025-01-01 23:42:41.55	47.40	78.72	-71.5	-95.5	3.8	14912086	99	57077
2025-01-01 23:42:41.75	47.67	78.81	-71.5	-95.4	3.8	14912086	99	56897
2025-01-01 23:42:41.96	47.95	78.90	-71.5	-95.5	3.9	14909828	99	56859
2025-01-01 23:42:42.18	48.26	78.99	-71.5	-95.4	3.9	14909828	99	56812
2025-01-01 23:42:42.40	48.57	79.09	-71.5	-95.4	3.9	14912635	99	56817
2025-01-01 23:42:42.60	48.85	79.17	-71.5	-95.4	3.8	14912635	99	56567
2025-01-01 23:42:42.81	49.16	79.26	-71.4	-95.4	3.8	14896194	99	57116
2025-01-01 23:42:43.01	49.45	79.35	-71.4	-95.4	3.8	14896194	99	56888
2025-01-01 23:42:43.23	49.78	79.44	-71.5	-95.5	3.8	14913574	99	57069
2025-01-01 23:42:43.43	50.09	79.52	-71.5	-95.5	3.8	14913574	99	57029
2025-01-01 23:42:43.63	50.40	79.61	-71.5	-95.5	3.8	14921333	99	56963
2025-01-01 23:42:43.83	50.71	79.69	-71.5	-95.5	3.8	14921333	99	57010
2025-01-01 23:42:44.03	51.04	79.77	-71.5	-95.5	3.8	14900901	99	56976
2025-01-01 23:42:44.23	51.36	79.86	-71.5	-95.5	3.8	14900901	99	57026
2025-01-01 23:42:44.44	51.71	79.94	-71.5	-95.5	3.8	14908546	99	56886
2025-01-01 23:42:44.64	52.05	80.02	-71.4	-95.4	3.8	14908546	99	56942
2025-01-01 23:42:44.84	52.39	80.11	-71.4	-95.4	3.8	14912582	99	56900
2025-01-01 23:42:45.06	52.77	80.20	-71.5	-95.5	3.8	14912582	99	56810
2025-01-01 23:42:45.27	53.15	80.28	-71.5	-95.3	3.8	14907951	99	55898
2025-01-01 23:42:45.47	53.51	80.36	-71.5	-95.5	3.8	14907951	99	56992
2025-01-01 23:42:45.69	53.91	80.45	-71.5	-95.6	3.8	14907951	99	58039
2025-01-01 23:42:45.90	54.31	80.53	-71.5	-95.6	3.8	14898666	99	58102
2025-01-01 23:42:46.10	54.69	80.61	-71.5	-95.6	3.8	14898666	99	58126
2025-01-01 23:42:46.31	55.10	80.70	-71.2	-94.9	3.8	14908462	99	54953
2025-01-01 23:42:46.52	55.51	80.78	-71.5	-95.6	3.8	14908462	99	58026
2025-01-01 23:42:46.72	55.92	80.86	-71.5	-95.6	3.9	14919464	99	57923
2025-01-01 23:42:46.92	56.33	80.94	-71.5	-95.6	3.9	14919464	99	57866
2025-01-01 23:42:47.14	56.78	81.02	-71.5	-95.6	3.9	14898872	99	57695
2025-01-01 23:42:47.36	57.25	81.11	-71.5	-95.6	3.8	14898872	99	58091
2025-01-01 23:42:47.56	57.69	81.18	-71.5	-95.6	3.8	14912780	99	58036
2025-01-01 23:42:47.77	58.15	81.26	-71.5	-95.6	3.8	14912780	99	57966
2025-01-01 23:42:47.97	58.60	81.34	-71.5	-95.7	3.8	14911209	99	58114
2025-01-01 23:42:48.19	59.10	81.42	-71.4	-95.5	3.8	14911209	99	57661
2025-01-01 23:42:48.39	59.57	81.50	-71.5	-95.6	3.8	14898925	99	58088
2025-01-01 23:42:48.59	60.04	81.57	-71.5	-95.7	3.8	14898925	99	58065
2025-01-01 23:42:48.79	60.52	81.64	-71.5	-95.7	3.8	14901046	99	58112
2025-01-01 23:42:48.99	61.02	81.72	-71.5	-95.6	3.8	14901046	99	58116
2025-01-01 23:42:49.19	61.52	81.79	-71.4	-95.5	3.8	14901046	99	57760
2025-01-01 23:42:49.40	62.05	81.86	-71.4	-95.5	3.8	14901084	99	57709
2025-01-01 23:42:49.61	62.60	81.94	-71.5	-95.7	3.8	14919822	99	58019
2025-01-01 23:42:49.83	63.18	82.02	-71.5	-95.6	3.8	14919822	99	58069
2025-01-01 23:42:50.04	63.74	82.09	-71.5	-95.7	3.8	14919822	99	58371
2025-01-01 23:42:50.24	64.29	82.16	-71.5	-95.6	3.8	14903900	99	57804
2025-01-01 23:42:50.44	64.85	82.23	-71.5	-95.6	3.8	14903900	99	57975
2025-01-01 23:42:50.66	65.48	82.30	-71.4	-95.5	3.8	14915176	99	57392
2025-01-01 23:42:50.86	66.06	82.37	-71.4	-95.4	3.8	14915176	99	56822
2025-01-01 23:42:51.06	66.65	82.43	-71.4	-95.4	3.8	14913383	99	56984
2025-01-01 23:42:51.26	67.25	82.50	-71.5	-95.5	3.8	14913383	99	57107
2025-01-01 23:42:51.48	67.92	82.57	-71.5	-95.5	3.8	14910919	99	57285
2025-01-01 23:42:51.68	68.54	82.63	-71.5	-95.5	3.9	14910919	99	57164
2025-01-01 23:42:51.88	69.18	82.70	-71.5	-95.5	3.8	14911376	99	57031
2025-01-01 23:42:52.08	69.82	82.76	-71.5	-95.4	3.9	14911376	99	56814
2025-01-01 23:42:52.28	70.48	82.82	-71.4	-95.4	3.8	14909858	99	57244
2025-01-01 23:42:52.48	71.14	82.88	-71.4	-95.5	3.8	14909858	99	57399
2025-01-01 23:42:52.70	71.89	82.94	-71.4	-95.5	3.8	14909858	99	57397
2025-01-01 23:42:52.91	72.61	83.00	-71.4	-95.4	3.9	14919395	99	57192
2025-01-01 23:42:53.11	73.32	83.06	-71.4	-95.5	3.9	14904495	99	57150
2025-01-01 23:42:53.31	74.03	83.12	-71.4	-95.4	3.9	14904495	99	56696
2025-01-01 23:42:53.52	74.79	83.17	-71.4	-95.4	3.9	14904495	99	56885
2025-01-01 23:42:53.72	75.53	83.23	-71.4	-95.3	3.8	14900939	99	56727
2025-01-01 23:42:53.93	76.32	83.28	-71.4	-95.5	3.8	14900939	99	57417
2025-01-01 23:42:54.13	77.08	83.33	-71.4	-95.5	3.8	14904228	99	57425
2025-01-01 23:42:54.33	77.85	83.38	-71.5	-95.5	3.8	14904228	99	57389
2025-01-01 23:42:54.55	78.72	83.44	-71.4	-95.5	3.8	14917671	99	57411
2025-01-01 23:42:54.75	79.52	83.48	-71.4	-95.4	3.8	14917671	99	57349
2025-01-01 23:42:54.95	80.33	83.53	-71.4	-95.5	3.8	14904563	99	57303
2025-01-01 23:42:55.15	81.15	83.57	-71.5	-95.5	3.8	14904563	99	57343
2025-01-01 23:42:55.35	81.98	83.62	-71.4	-95.4	3.8	14897407	99	57049
2025-01-01 23:42:55.55	82.83	83.66	-71.4	-95.4	3.8	14897407	99	57142
2025-01-01 23:42:55.76	83.72	83.70	-71.4	-95.5	3.8	14908683	99	57679
2025-01-01 23:42:55.96	84.59	83.74	-71.5	-95.6	3.8	14908683	99	58190
2025-01-01 23:42:56.16	85.47	83.78	-71.5	-95.6	3.8	14901748	99	58082
2025-01-01 23:42:56.38	86.45	83.82	-71.5	-95.7	3.8	14901748	99	58170
2025-01-01 23:42:56.60	87.44	83.86	-71.5	-95.6	3.8	14901748	99	58083
2025-01-01 23:42:56.80	88.35	83.89	-71.5	-95.7	3.8	14902389	99	58235
2025-01-01 23:42:57.01	89.31	83.92	-71.5	-95.5	3.8	14902389	99	57631
2025-01-01 23:42:57.21	90.24	83.95	-71.5	-95.6	3.8	14904121	99	57745
2025-01-01 23:42:57.42	91.23	83.98	-71.4	-95.4	3.8	14904121	99	57428
2025-01-01 23:42:57.62	92.18	84.01	-71.5	-95.6	3.8	14902732	99	57953
2025-01-01 23:42:57.83	93.19	84.04	-71.5	-95.6	3.9	14902732	99	57981
2025-01-01 23:42:58.05	94.25	84.06	-71.5	-95.6	3.9	14913658	99	57957
2025-01-01 23:42:58.27	95.32	84.09	-71.5	-95.7	3.8	14913658	99	58068
2025-01-01 23:42:58.47	96.30	84.10	-71.4	-95.4	3.8	14908241	99	57357
2025-01-01 23:42:58.68	97.34	84.12	-71.4	-95.6	3.8	14908241	99	57854
2025-01-01 23:42:58.88	98.33	84.14	-71.5	-95.6	3.8	14910133	99	57846
2025-01-01 23:42:59.09	99.38	84.15	-71.5	-95.6	3.8	14910133	99	58030
2025-01-01 23:42:59.30	100.43	84.17	-71.5	-95.7	3.9	14913314	99	58001
2025-01-01 23:42:59.50	101.44	84.18	-71.5	-95.6	3.9	14913314	99	57782
2025-01-01 23:42:59.72	102.55	84.19	-71.5	-95.7	3.8	14906562	99	58113
2025-01-01 23:42:59.93	103.61	84.19	-71.5	-95.7	3.8	14906562	99	58197
2025-01-01 23:43:00.14	104.68	84.20	-71.5	-95.5	3.8	14904235	99	57380
2025-01-01 23:43:00.34	105.69	84.20	-71.5	-95.5	3.8	14904235	99	57224
2025-01-01 23:43:00.54	106.71	84.20	-71.3	-95.2	3.8	14904235	99	56680
2025-01-01 23:43:00.75	107.78	84.20	-71.5	-95.7	3.8	14910705	99	58064
2025-01-01 23:43:00.97	108.90	84.20	-71.5	-95.6	3.9	14910705	99	57842
2025-01-01 23:43:01.19	110.02	84.19	-71.5	-95.6	3.9	14916137	99	57844
2025-01-01 23:43:01.39	111.03	84.19	-71.5	-95.6	3.9	14916137	99	57656
2025-01-01 23:43:01.59	112.04	84.18	-71.4	-95.4	3.9	14902694	99	57177
2025-01-01 23:43:01.80	113.10	84.17	-71.5	-95.6	3.8	14902694	99	58243
2025-01-01 23:43:02.00	114.10	84.16	-71.5	-95.6	3.8	14900932	99	58117
2025-01-01 23:43:02.21	115.15	84.14	-71.5	-95.7	3.8	14900932	99	58155
2025-01-01 23:43:02.42	116.19	84.12	-71.5	-95.6	3.9	14906799	99	58018
2025-01-01 23:43:02.62	117.18	84.11	-71.5	-95.7	3.9	14906799	99	57861
2025-01-01 23:43:02.82	118.16	84.09	-71.5	-95.6	3.9	14906295	99	57842
2025-01-01 23:43:03.02	119.14	84.07	-71.5	-95.6	3.8	14906295	99	57794
2025-01-01 23:43:03.23	120.15	84.04	-71.5	-95.6	3.8	14903144	99	57800
2025-01-01 23:43:03.44	121.16	84.02	-71.4	-95.5	3.8	14903144	99	57843
2025-01-01 23:43:03.64	122.11	83.99	-71.5	-95.5	3.8	14902404	99	57371
2025-01-01 23:43:03.86	123.15	83.96	-71.5	-95.6	3.8	14902404	99	57886
2025-01-01 23:43:04.06	124.08	83.93	-71.5	-95.6	3.9	14903579	99	57823
2025-01-01 23:43:04.27	125.05	83.90	-71.5	-95.6	3.8	14903579	99	57948
2025-01-01 23:43:04.49	126.06	83.86	-71.5	-95.4	3.9	14897079	99	56451
2025-01-01 23:43:04.69	126.96	83.83	-71.4	-95.2	3.8	14897079	99	56019
2025-01-01 23:43:04.89	127.85	83.79	-71.4	-95.4	3.8	14897079	99	56787
2025-01-01 23:43:05.11	128.82	83.75	-71.4	-95.4	3.8	14903053	99	56789
2025-01-01 23:43:05.32	129.73	83.71	-71.4	-95.4	3.8	14903053	99	56893
2025-01-01 23:43:05.52	130.59	83.67	-71.5	-95.4	3.8	14916030	99	56789
2025-01-01 23:43:05.73	131.48	83.63	-71.5	-95.5	3.8	14916030	99	56818
2025-01-01 23:43:05.93	132.31	83.58	-71.5	-95.5	3.8	14907859	99	56826
2025-01-01 23:43:06.13	133.14	83.54	-71.5	-95.4	3.8	14907859	99	56831
2025-01-01 23:43:06.34	133.99	83.49	-71.4	-95.4	3.8	14901428	99	56757
2025-01-01 23:43:06.56	134.87	83.44	-71.4	-95.4	3.8	14901428	99	56820
2025-01-01 23:43:06.76	135.66	83.39	-71.4	-95.4	3.8	14911422	99	56789
2025-01-01 23:43:06.98	136.51	83.33	-71.4	-95.4	3.8	14911422	99	56762
2025-01-01 23:43:07.18	137.27	83.28	-71.5	-95.5	3.8	14920982	99	56991
2025-01-01 23:43:07.38	138.02	83.23	-71.5	-95.5	3.8	14920982	99	57090
2025-01-01 23:43:07.58	138.76	83.18	-71.5	-95.5	3.8	14891983	99	57074
2025-01-01 23:43:07.78	139.49	83.12	-71.5	-95.4	3.8	14891983	99	56943
2025-01-01 23:43:07.98	140.21	83.07	-71.4	-95.4	3.8	14897140	99	57114
2025-01-01 23:43:08.20	140.98	83.00	-71.4	-95.4	3.8	14897140	99	57025
2025-01-01 23:43:08.40	141.67	82.95	-71.4	-95.4	3.8	14897140	99	57144
2025-01-01 23:43:08.61	142.39	82.89	-71.5	-95.5	3.8	14924736	99	57024
2025-01-01 23:43:08.81	143.05	82.83	-71.5	-95.4	3.8	14924736	99	56885
2025-01-01 23:43:09.03	143.78	82.76	-71.5	-95.5	3.8	14901351	99	57019
2025-01-01 23:43:09.25	144.49	82.69	-71.5	-95.5	3.8	14901351	99	57012
2025-01-01 23:43:09.46	145.15	82.63	-71.4	-95.4	3.8	14905586	99	57069
2025-01-01 23:43:09.66	145.77	82.56	-71.5	-95.5	3.8	14905586	99	57137
2025-01-01 23:43:09.86	146.38	82.50	-71.5	-95.5	3.8	14911827	99	57072
2025-01-01 23:43:10.08	147.04	82.43	-71.5	-95.5	3.9	14911827	99	56963
2025-01-01 23:43:10.28	147.63	82.36	-71.5	-95.5	3.8	14910247	99	56877
2025-01-01 23:43:10.48	148.21	82.29	-71.5	-95.4	3.9	14910247	99	56913
2025-01-01 23:43:10.70	148.83	82.22	-71.5	-95.4	3.9	14903160	99	56858
2025-01-01 23:43:10.90	149.39	82.15	-71.5	-95.4	3.8	14903160	99	56645
2025-01-01 23:43:11.10	149.94	82.08	-71.5	-95.4	3.8	14910095	99	56957
2025-01-01 23:43:11.32	150.53	82.00	-71.5	-95.5	3.8	14910095	99	56942
2025-01-01 23:43:11.53	151.09	81.93	-71.4	-95.4	3.8	14921630	99	57043
2025-01-01 23:43:11.73	151.60	81.86	-71.5	-95.5	3.8	14921630	99	56999
2025-01-01 23:43:11.94	152.14	81.78	-71.5	-95.5	3.8	14909027	99	56992
2025-01-01 23:43:12.14	152.64	81.71	-71.4	-95.4	3.9	14909027	99	56799
2025-01-01 23:43:12.34	153.13	81.64	-71.5	-95.4	3.9	14909027	99	56664
2025-01-01 23:43:12.54	153.61	81.56	-71.5	-95.4	3.8	14908164	99	56461
2025-01-01 23:43:12.74	154.09	81.49	-71.4	-95.4	3.8	14908164	99	57092
2025-01-01 23:43:12.95	154.57	81.41	-71.5	-95.4	3.8	14904609	99	56855
2025-01-01 23:43:13.15	155.03	81.34	-71.4	-95.5	3.8	14904609	99	57148
2025-01-01 23:43:13.35	155.48	81.26	-71.5	-95.5	3.8	14910140	99	57161
2025-01-01 23:43:13.55	155.92	81.18	-71.5	-95.5	3.8	14910140	99	57043
2025-01-01 23:43:13.76	156.38	81.10	-71.5	-95.5	3.8	14900444	99	56857
2025-01-01 23:43:13.96	156.80	81.03	-71.5	-95.4	3.9	14900444	99	56462
2025-01-01 23:43:14.18	157.26	80.94	-71.5	-95.5	3.8	14899612	99	57134
2025-01-01 23:43:14.38	157.67	80.86	-71.5	-95.5	3.8	14899612	99	57231
2025-01-01 23:43:14.58	158.08	80.78	-71.5	-95.5	3.8	14915397	99	57074
2025-01-01 23:43:14.78	158.47	80.71	-71.5	-95.5	3.8	14915397	99	57009
2025-01-01 23:43:14.98	158.86	80.63	-71.5	-95.4	3.8	14902381	99	56671
2025-01-01 23:43:15.20	159.28	80.54	-71.5	-95.5	3.8	14902381	99	57034
2025-01-01 23:43:15.40	159.66	80.46	-71.5	-95.5	3.8	14902381	99	57239
2025-01-01 23:43:15.62	160.06	80.37	-71.4	-95.4	3.8	14904067	99	56594
2025-01-01 23:43:15.82	160.43	80.29	-71.4	-95.4	3.8	14904067	99	57164
2025-01-01 23:43:16.02	160.78	80.21	-71.4	-95.4	3.8	14909362	99	56879
2025-01-01 23:43:16.23	161.15	80.12	-71.5	-95.5	3.8	14909362	99	57156
2025-01-01 23:43:16.43	161.50	80.04	-71.5	-95.5	3.8	14913436	99	57179
2025-01-01 23:43:16.64	161.85	79.95	-71.5	-95.5	3.8	14913436	99	57155
2025-01-01 23:43:16.85	162.20	79.87	-71.4	-95.5	3.8	14905158	99	57187
2025-01-01 23:43:17.05	162.53	79.78	-71.5	-95.5	3.8	14905158	99	57159
2025-01-01 23:43:17.25	162.85	79.70	-71.5	-95.4	3.8	14900222	99	56892
2025-01-01 23:43:17.47	163.20	79.61	-71.5	-95.4	3.8	14900222	99	56878
2025-01-01 23:43:17.67	163.51	79.53	-71.5	-95.4	3.8	14911972	99	56816
2025-01-01 23:43:17.87	163.82	79.44	-71.4	-95.4	3.8	14911972	99	56996
2025-01-01 23:43:18.07	164.12	79.36	-71.5	-95.4	3.8	14915969	99	56591
2025-01-01 23:43:18.29	164.44	79.26	-71.5	-95.5	3.9	14915969	99	56921
2025-01-01 23:43:18.49	164.73	79.18	-71.5	-95.4	4.0	14900260	99	56275
2025-01-01 23:43:18.69	165.02	79.09	-71.5	-95.4	3.8	14900260	99	56653
2025-01-01 23:43:18.91	165.33	79.00	-71.5	-95.5	3.8	14909706	99	57239
2025-01-01 23:43:19.11	165.61	78.92	-71.5	-95.5	3.8	14909706	99	56892
2025-01-01 23:43:19.32	165.89	78.83	-71.5	-95.5	3.8	14909706	99	57245
2025-01-01 23:43:19.54	166.19	78.73	-71.5	-95.5	3.9	14917076	99	56957
2025-01-01 23:43:19.76	166.48	78.64	-71.5	-95.5	3.8	14905021	99	57179
2025-01-01 23:43:19.96	166.74	78.55	-71.5	-95.5	3.8	14905021	99	56992
2025-01-01 23:43:20.16	166.99	78.46	-71.5	-95.5	3.8	14905021	99	57125
2025-01-01 23:43:20.36	167.24	78.38	-71.5	-95.5	3.8	14906295	99	57264
2025-01-01 23:43:20.56	167.49	78.29	-71.5	-95.5	3.8	14906295	99	57197
2025-01-01 23:43:20.76	167.73	78.20	-71.5	-95.6	3.8	14904563	99	58036
2025-01-01 23:43:20.96	167.97	78.12	-71.5	-95.6	3.8	14904563	99	58079
2025-01-01 23:43:21.18	168.23	78.02	-71.5	-95.6	3.9	14923339	99	57825
2025-01-01 23:43:21.38	168.47	77.93	-71.5	-95.7	3.9	14923339	99	57961
2025-01-01 23:43:21.60	168.72	77.84	-71.5	-95.6	3.8	14903549	99	57817
2025-01-01 23:43:21.80	168.95	77.75	-71.5	-95.6	3.8	14903549	99	57654
2025-01-01 23:43:22.00	169.17	77.66	-71.4	-95.6	3.8	14909202	99	58404
2025-01-01 23:43:22.21	169.40	77.57	-71.5	-95.6	3.8	14909202	99	58148
2025-01-01 23:43:22.43	169.64	77.47	-71.4	-95.6	3.8	14892204	99	58326
2025-01-01 23:43:22.63	169.85	77.38	-71.5	-95.6	3.9	14892204	99	58164
2025-01-01 23:43:22.83	170.06	77.30	-71.5	-95.6	3.9	14897705	99	57932
2025-01-01 23:43:23.03	170.26	77.21	-71.5	-95.6	3.8	14897705	99	57839
2025-01-01 23:43:23.23	170.47	77.12	-71.5	-95.6	3.9	14897705	99	57532
2025-01-01 23:43:23.43	170.67	77.03	-71.4	-95.4	3.8	14910072	99	57140
2025-01-01 23:43:23.63	170.87	76.94	-71.4	-95.4	3.8	14910072	99	57325
2025-01-01 23:43:23.84	171.07	76.85	-71.4	-95.5	3.8	14907897	99	57269
2025-01-01 23:43:24.05	171.27	76.75	-71.5	-95.5	3.8	14907897	99	57566
2025-01-01 23:43:24.25	171.46	76.66	-71.4	-95.5	3.8	14909797	99	57149
2025-01-01 23:43:24.47	171.67	76.57	-71.5	-95.5	3.9	14909797	99	57247
2025-01-01 23:43:24.67	171.85	76.48	-71.5	-95.5	3.9	14904037	99	57006
2025-01-01 23:43:24.87	172.03	76.39	-71.4	-95.4	3.8	14904037	99	57046
2025-01-01 23:43:25.07	172.21	76.30	-71.4	-95.4	3.8	14902046	99	57249
2025-01-01 23:43:25.27	172.39	76.21	-71.4	-95.4	3.8	14902046	99	57137
2025-01-01 23:43:25.48	172.57	76.12	-71.4	-95.5	3.8	14912422	99	57386
2025-01-01 23:43:25.69	172.76	76.02	-71.5	-95.5	3.8	14912422	99	57309
2025-01-01 23:43:25.91	172.94	75.92	-71.5	-95.6	3.8	14910995	99	57498
2025-01-01 23:43:26.12	173.12	75.83	-71.4	-95.5	3.8	14910995	99	57505
2025-01-01 23:43:26.32	173.28	75.74	-71.4	-95.5	3.8	14907592	99	57313
2025-01-01 23:43:26.52	173.45	75.65	-71.5	-95.5	3.8	14907592	99	57439
2025-01-01 23:43:26.74	173.62	75.55	-71.4	-95.5	3.8	14907592	99	57516
2025-01-01 23:43:26.94	173.78	75.46	-71.4	-95.5	3.8	14901870	99	57522
2025-01-01 23:43:27.14	173.94	75.37	-71.4	-95.4	3.8	14901870	99	57348
2025-01-01 23:43:27.34	174.09	75.28	-71.5	-95.4	3.9	14907524	99	56810
2025-01-01 23:43:27.55	174.25	75.19	-71.4	-95.5	3.9	14907524	99	57185
2025-01-01 23:43:27.76	174.41	75.09	-71.5	-95.5	3.8	14910140	99	57487
2025-01-01 23:43:27.98	174.57	74.99	-71.4	-95.5	3.8	14910140	99	57599
2025-01-01 23:43:28.18	174.72	74.90	-71.5	-95.5	3.8	14910270	99	57453
2025-01-01 23:43:28.38	174.87	74.81	-71.5	-95.5	3.8	14910270	99	57240
2025-01-01 23:43:28.59	175.02	74.72	-71.5	-95.5	3.8	14900596	99	57605
2025-01-01 23:43:28.80	175.17	74.62	-71.4	-95.5	3.9	14900596	99	57432
2025-01-01 23:43:29.00	175.30	74.53	-71.4	-95.4	3.8	14912223	99	57236
2025-01-01 23:43:29.20	175.44	74.44	-71.5	-95.5	3.9	14912223	99	57198
2025-01-01 23:43:29.41	175.59	74.35	-71.4	-95.5	3.8	14911735	99	57483
2025-01-01 23:43:29.61	175.72	74.26	-71.4	-95.5	3.8	14911735	99	57419
2025-01-01 23:43:29.82	175.86	74.16	-71.4	-95.5	3.8	14895042	99	57452
2025-01-01 23:43:30.03	176.00	74.07	-71.4	-95.5	3.8	14895042	99	57515
2025-01-01 23:43:30.25	176.14	73.97	-71.4	-95.5	3.8	14895042	99	57441
2025-01-01 23:43:30.46	176.27	73.87	-71.4	-95.5	3.8	14910148	99	57634
2025-01-01 23:43:30.68	176.41	73.77	-71.5	-95.5	3.8	14910148	99	57494
2025-01-01 23:43:30.89	176.54	73.68	-71.4	-95.4	3.8	14904525	99	56576
2025-01-01 23:43:31.10	176.67	73.58	-71.5	-95.4	3.8	14904525	99	56419
2025-01-01 23:43:31.30	176.80	73.49	-71.4	-95.4	3.8	14896125	99	56536
2025-01-01 23:43:31.50	176.92	73.40	-71.4	-95.3	3.8	14896125	99	56219
2025-01-01 23:43:31.71	177.04	73.31	-71.4	-95.3	3.8	14904846	99	56421
2025-01-01 23:43:31.91	177.16	73.22	-71.5	-95.4	3.8	14904846	99	56645
2025-01-01 23:43:32.12	177.28	73.12	-71.5	-95.4	3.8	14908241	99	56736
2025-01-01 23:43:32.32	177.40	73.03	-71.5	-95.4	3.8	14908241	99	56591
2025-01-01 23:43:32.52	177.51	72.94	-71.4	-95.3	3.8	14912696	99	56398
2025-01-01 23:43:32.73	177.63	72.84	-71.4	-95.4	3.8	14912696	99	56562
2025-01-01 23:43:32.95	177.75	72.75	-71.4	-95.3	3.8	14899909	99	56537
2025-01-01 23:43:33.16	177.87	72.65	-71.4	-95.3	3.8	14899909	99	56464
2025-01-01 23:43:33.37	177.98	72.56	-71.4	-95.3	3.8	14908203	99	56440
2025-01-01 23:43:33.57	178.09	72.46	-71.5	-95.4	3.8	14908203	99	56299
2025-01-01 23:43:33.77	178.19	72.37	-71.4	-95.3	3.9	14899353	99	56429
2025-01-01 23:43:33.97	178.30	72.28	-71.4	-95.3	3.9	14899353	99	56141
2025-01-01 23:43:34.17	178.40	72.19	-71.4	-95.3	3.8	14899353	99	56162
2025-01-01 23:43:34.38	178.51	72.10	-71.4	-95.2	3.8	14909912	99	55861
2025-01-01 23:43:34.59	178.62	72.00	-71.4	-95.3	3.8	14909912	99	56230
2025-01-01 23:43:34.80	178.72	71.91	-71.4	-95.4	3.8	14910995	99	56586
2025-01-01 23:43:35.00	178.82	71.82	-71.4	-95.3	3.8	14910995	99	56548
2025-01-01 23:43:35.20	178.92	71.73	-71.4	-95.3	3.8	14915107	99	56464
2025-01-01 23:43:35.42	179.03	71.63	-71.5	-95.4	3.8	14915107	99	56565
2025-01-01 23:43:35.62	179.13	71.54	-71.5	-95.4	3.8	14909698	99	56412
2025-01-01 23:43:35.82	179.22	71.45	-71.4	-95.4	3.8	14909698	99	56519
2025-01-01 23:43:36.02	179.32	71.36	-71.4	-95.3	3.8	14910812	99	56517
2025-01-01 23:43:36.24	179.42	71.26	-71.5	-95.4	3.8	14910812	99	56566
2025-01-01 23:43:36.44	179.51	71.17	-71.4	-95.4	3.8	14903816	99	56620
2025-01-01 23:43:36.64	179.60	71.08	-71.4	-95.3	3.8	14903816	99	56085
2025-01-01 23:43:36.86	179.70	70.98	-71.4	-95.3	3.9	14905303	99	56428
2025-01-01 23:43:37.07	179.80	70.89	-71.5	-95.4	3.8	14905303	99	56500
2025-01-01 23:43:37.29	179.89	70.79	-71.4	-95.3	3.8	14909492	99	56556
2025-01-01 23:43:37.49	179.98	70.70	-71.4	-95.3	3.8	14909492	99	56581
2025-01-01 23:43:37.70	180.07	70.60	-71.4	-95.3	3.8	14909492	99	56250
2025-01-01 23:43:37.91	180.16	70.51	-71.4	-95.4	3.8	14909584	99	56581
2025-01-01 23:43:38.12	180.25	70.42	-71.5	-95.4	3.8	14913131	99	56570
2025-01-01 23:43:38.32	180.34	70.33	-71.5	-95.4	3.8	14913131	99	56513

#Closed at: 2025-01-01 23:43:38