passes_logs/2025/01/03/LEX_Murmansk/LEX_Murmansk__20250103_181113_NOAA_19_rec.log

#Pass ID: 20250103_181113_NOAA 19
#Satellite: NOAA 19
#Configuration: NOAA 19
#Start time: 2025-01-03 18:11:08.689154

#LorettStation: 1.0.0 05.05.2024
#Station: LEX_Murmansk
#Location: 33.156738 lon 68.926811 lat
#TLE: 1 33591U 09005A   25002.89767470  .00000571  00000+0  32860-3 0  9996
#TLE: 2 33591  99.0216  66.5655 0014695  89.7532 270.5323 14.13248849819837

#Time	Az	El	Level	SNR
2025-01-03 18:11:20.988538	167.7	16.3	-87.8	3.6
2025-01-03 18:11:22.137987	167.8	16.4	-87.7	4.3
2025-01-03 18:11:23.289637	167.8	16.6	-87.8	1.4
2025-01-03 18:11:24.446854	167.9	16.7	-87.5	2.9
2025-01-03 18:11:25.601919	167.9	16.8	-87.5	3.9
2025-01-03 18:11:26.765378	167.9	17.0	-87.6	3.9
2025-01-03 18:11:27.917778	168.0	17.1	-87.3	3.1
2025-01-03 18:11:29.068466	168.0	17.2	-87.9	1.4
2025-01-03 18:11:30.224231	168.1	17.4	-87.8	4.2
2025-01-03 18:11:31.376365	168.1	17.5	-87.6	2.0
2025-01-03 18:11:32.526307	168.2	17.6	-87.8	2.0
2025-01-03 18:11:33.676437	168.2	17.8	-87.6	4.4
2025-01-03 18:11:34.828205	168.3	17.9	-87.7	4.2
2025-01-03 18:11:35.977073	168.3	18.0	-87.5	4.0
2025-01-03 18:11:37.130618	168.4	18.2	-87.3	4.2
2025-01-03 18:11:38.285870	168.4	18.3	-87.4	2.1
2025-01-03 18:11:39.443329	168.5	18.4	-87.6	3.1
2025-01-03 18:11:40.587909	168.5	18.6	-87.6	1.7
2025-01-03 18:11:41.736550	168.6	18.7	-87.8	4.2
2025-01-03 18:11:42.892717	168.6	18.9	-87.5	4.2
2025-01-03 18:11:44.044118	168.7	19.0	-87.7	3.8
2025-01-03 18:11:45.201879	168.7	19.1	-87.6	4.4
2025-01-03 18:11:46.351270	168.8	19.3	-87.2	3.8
2025-01-03 18:11:47.506823	168.8	19.4	-87.3	3.1
2025-01-03 18:11:48.666696	168.9	19.6	-87.5	4.6
2025-01-03 18:11:49.826116	168.9	19.7	-87.6	5.2
2025-01-03 18:11:50.985081	169.0	19.9	-87.3	5.7
2025-01-03 18:11:52.133621	169.1	20.0	-87.5	3.1
2025-01-03 18:11:53.293174	169.1	20.2	-87.7	4.1
2025-01-03 18:11:54.444783	169.2	20.3	-87.8	3.5
2025-01-03 18:11:55.592615	169.2	20.5	-87.5	1.9
2025-01-03 18:11:56.736258	169.3	20.6	-87.8	2.3
2025-01-03 18:11:57.864711	169.3	20.8	-87.9	3.7
2025-01-03 18:11:58.985807	169.4	20.9	-87.8	3.4
2025-01-03 18:12:00.106524	169.5	21.0	-87.5	2.6
2025-01-03 18:12:01.227187	169.5	21.2	-87.5	4.0
2025-01-03 18:12:02.347298	169.6	21.3	-87.7	4.0
2025-01-03 18:12:03.469075	169.6	21.5	-87.6	3.8
2025-01-03 18:12:04.590837	169.7	21.7	-87.8	4.1
2025-01-03 18:12:05.712015	169.7	21.8	-87.5	5.0
2025-01-03 18:12:06.862594	169.8	22.0	-87.6	2.2
2025-01-03 18:12:08.012199	169.9	22.1	-87.0	4.4
2025-01-03 18:12:09.155774	169.9	22.3	-87.3	4.1
2025-01-03 18:12:10.296446	170.0	22.4	-87.4	1.3
2025-01-03 18:12:11.446257	170.1	22.6	-87.5	3.0
2025-01-03 18:12:12.598241	170.1	22.8	-87.3	0.8
2025-01-03 18:12:13.759564	170.2	22.9	-87.3	3.4
2025-01-03 18:12:14.917898	170.3	23.1	-87.2	4.7
2025-01-03 18:12:16.077318	170.3	23.3	-87.6	5.2
2025-01-03 18:12:17.230351	170.4	23.4	-87.7	7.0
2025-01-03 18:12:18.382188	170.5	23.6	-87.7	7.5
2025-01-03 18:12:19.535776	170.5	23.8	-87.5	7.4
2025-01-03 18:12:20.691054	170.6	23.9	-87.9	5.4
2025-01-03 18:12:21.842237	170.7	24.1	-87.6	5.1
2025-01-03 18:12:23.002027	170.7	24.3	-87.4	9.5
2025-01-03 18:12:24.152464	170.8	24.5	-87.3	9.3
2025-01-03 18:12:25.310576	170.9	24.6	-87.4	5.4
2025-01-03 18:12:26.470965	171.0	24.8	-87.2	5.2
2025-01-03 18:12:27.624862	171.0	25.0	-87.6	4.3
2025-01-03 18:12:28.784513	171.1	25.2	-87.4	2.8
2025-01-03 18:12:29.939446	171.2	25.3	-87.3	3.0
2025-01-03 18:12:31.096645	171.3	25.5	-86.8	4.7
2025-01-03 18:12:32.252654	171.3	25.7	-87.4	7.8
2025-01-03 18:12:33.410633	171.4	25.9	-87.7	6.1
2025-01-03 18:12:34.566885	171.5	26.1	-87.9	7.9
2025-01-03 18:12:35.716941	171.6	26.3	-87.8	5.1
2025-01-03 18:12:36.865572	171.7	26.4	-87.9	3.7
2025-01-03 18:12:38.433374	171.8	26.7	-87.7	6.4
2025-01-03 18:12:39.555054	171.8	26.9	-87.8	5.4
2025-01-03 18:12:40.699411	171.9	27.1	-87.6	5.4
2025-01-03 18:12:41.850444	172.0	27.3	-87.6	5.3
2025-01-03 18:12:42.999329	172.1	27.4	-87.6	2.5
2025-01-03 18:12:44.149654	172.2	27.6	-87.8	4.2
2025-01-03 18:12:45.297183	172.3	27.8	-87.6	3.3
2025-01-03 18:12:46.440347	172.4	28.0	-87.9	2.3
2025-01-03 18:12:47.595280	172.5	28.2	-87.9	2.0
2025-01-03 18:12:48.745513	172.5	28.4	-88.1	3.0
2025-01-03 18:12:49.898792	172.6	28.6	-88.3	4.2
2025-01-03 18:12:51.055859	172.7	28.8	-87.7	7.1
2025-01-03 18:12:52.205098	172.8	29.0	-88.2	4.1
2025-01-03 18:12:53.357482	172.9	29.2	-88.1	3.4
2025-01-03 18:12:54.510512	173.0	29.4	-88.3	4.6
2025-01-03 18:12:55.660828	173.1	29.7	-87.4	5.3
2025-01-03 18:12:56.817802	173.2	29.9	-88.0	7.4
2025-01-03 18:12:57.974260	173.3	30.1	-87.8	5.1
2025-01-03 18:12:59.133287	173.4	30.3	-87.5	6.1
2025-01-03 18:13:00.279854	173.5	30.5	-87.9	4.7
2025-01-03 18:13:01.430583	173.6	30.7	-87.7	4.7
2025-01-03 18:13:02.587800	173.7	30.9	-87.8	2.8
2025-01-03 18:13:03.738331	173.8	31.1	-87.7	4.3
2025-01-03 18:13:04.891610	173.9	31.4	-87.8	5.7
2025-01-03 18:13:06.044943	174.0	31.6	-87.9	6.3
2025-01-03 18:13:07.205774	174.2	31.8	-88.2	6.6
2025-01-03 18:13:08.358043	174.3	32.0	-88.0	9.3
2025-01-03 18:13:09.513257	174.4	32.3	-88.3	9.1
2025-01-03 18:13:10.659688	174.5	32.5	-88.3	6.3
2025-01-03 18:13:11.815242	174.6	32.7	-88.2	4.8
2025-01-03 18:13:12.961794	174.7	32.9	-87.9	6.0
2025-01-03 18:13:14.114790	174.9	33.2	-87.5	6.4
2025-01-03 18:13:15.268183	175.0	33.4	-87.6	6.2
2025-01-03 18:13:16.418395	175.1	33.7	-88.0	7.4
2025-01-03 18:13:17.577879	175.2	33.9	-88.2	7.4
2025-01-03 18:13:18.732776	175.4	34.1	-88.3	4.6
2025-01-03 18:13:19.885932	175.5	34.4	-87.9	5.7
2025-01-03 18:13:21.033701	175.6	34.6	-87.6	3.5
2025-01-03 18:13:22.193622	175.7	34.9	-87.4	2.4
2025-01-03 18:13:23.344741	175.9	35.1	-87.7	5.2
2025-01-03 18:13:24.496367	176.0	35.3	-87.7	7.0
2025-01-03 18:13:25.651853	176.2	35.6	-87.7	9.7
2025-01-03 18:13:26.809106	176.3	35.9	-87.6	7.7
2025-01-03 18:13:27.960314	176.4	36.1	-88.4	8.3
2025-01-03 18:13:29.116548	176.6	36.4	-87.5	6.4
2025-01-03 18:13:30.269101	176.7	36.6	-87.5	5.3
2025-01-03 18:13:31.419778	176.9	36.9	-87.7	5.2
2025-01-03 18:13:32.580398	177.0	37.1	-87.4	5.6
2025-01-03 18:13:33.739638	177.2	37.4	-87.8	8.1
2025-01-03 18:13:34.893013	177.3	37.7	-87.6	5.6
2025-01-03 18:13:36.043153	177.5	37.9	-87.7	4.3
2025-01-03 18:13:37.201790	177.7	38.2	-87.2	2.5
2025-01-03 18:13:38.355226	177.8	38.5	-87.5	4.4
2025-01-03 18:13:39.516656	178.0	38.7	-88.1	3.7
2025-01-03 18:13:40.660913	178.2	39.0	-87.7	3.2
2025-01-03 18:13:41.814235	178.3	39.3	-88.0	5.7
2025-01-03 18:13:42.967655	178.5	39.6	-87.6	3.5
2025-01-03 18:13:44.124391	178.7	39.8	-87.6	5.2
2025-01-03 18:13:45.272727	178.9	40.1	-87.6	7.6
2025-01-03 18:13:46.422003	179.0	40.4	-87.6	6.4
2025-01-03 18:13:47.578330	179.2	40.7	-87.4	7.2
2025-01-03 18:13:48.732068	179.4	41.0	-87.1	5.5
2025-01-03 18:13:49.882915	179.6	41.3	-86.9	7.1
2025-01-03 18:13:51.030926	179.8	41.6	-87.3	11.1
2025-01-03 18:13:52.182686	180.0	41.8	-87.1	13.0
2025-01-03 18:13:53.338924	180.2	42.1	-87.2	12.9
2025-01-03 18:13:54.495112	180.4	42.4	-87.8	9.2
2025-01-03 18:13:55.644951	180.6	42.7	-87.8	6.1
2025-01-03 18:13:56.801173	180.9	43.0	-86.1	5.6
2025-01-03 18:13:57.960553	181.1	43.3	-87.2	4.5
2025-01-03 18:13:59.120599	181.3	43.6	-87.6	6.5
2025-01-03 18:14:00.265571	181.5	44.0	-87.8	3.2
2025-01-03 18:14:01.419990	181.8	44.3	-87.6	7.5
2025-01-03 18:14:02.576906	182.0	44.6	-87.5	10.1
2025-01-03 18:14:03.732306	182.2	44.9	-87.6	12.9
2025-01-03 18:14:04.885674	182.5	45.2	-85.9	10.0
2025-01-03 18:14:06.037928	182.7	45.5	-87.5	11.6
2025-01-03 18:14:07.189350	183.0	45.8	-87.8	9.6
2025-01-03 18:14:08.342168	183.3	46.2	-87.6	5.7
2025-01-03 18:14:09.492777	183.5	46.5	-87.7	8.4
2025-01-03 18:14:10.641423	183.8	46.8	-87.6	10.1
2025-01-03 18:14:11.797970	184.1	47.1	-87.6	9.8
2025-01-03 18:14:12.949621	184.3	47.4	-87.5	13.0
2025-01-03 18:14:14.103351	184.6	47.8	-87.8	12.2
2025-01-03 18:14:15.259510	184.9	48.1	-87.5	10.4
2025-01-03 18:14:16.410160	185.2	48.4	-87.5	6.6
2025-01-03 18:14:17.566809	185.5	48.8	-87.4	4.9
2025-01-03 18:14:18.714391	185.9	49.1	-87.8	2.7
2025-01-03 18:14:19.875452	186.2	49.4	-88.0	5.0
2025-01-03 18:14:21.028108	186.5	49.8	-88.3	5.0
2025-01-03 18:14:22.182464	186.8	50.1	-88.4	3.3
2025-01-03 18:14:23.337510	187.2	50.5	-87.3	5.7
2025-01-03 18:14:24.492598	187.5	50.8	-87.8	8.6
2025-01-03 18:14:25.639929	187.9	51.2	-88.3	11.4
2025-01-03 18:14:26.791082	188.3	51.5	-88.4	11.3
2025-01-03 18:14:27.941577	188.6	51.8	-88.5	10.2
2025-01-03 18:14:29.105580	189.0	52.2	-88.0	10.3
2025-01-03 18:14:30.258555	189.4	52.6	-87.7	5.7
2025-01-03 18:14:31.406385	189.8	52.9	-88.4	8.2
2025-01-03 18:14:32.562479	190.2	53.3	-87.8	8.3
2025-01-03 18:14:33.718078	190.6	53.6	-88.3	7.3
2025-01-03 18:14:34.872424	191.1	54.0	-88.0	8.7
2025-01-03 18:14:36.021332	191.5	54.3	-88.1	10.6
2025-01-03 18:14:37.178923	192.0	54.7	-88.1	9.4
2025-01-03 18:14:38.331838	192.4	55.0	-88.4	8.0
2025-01-03 18:14:39.484180	192.9	55.4	-88.1	6.4
2025-01-03 18:14:40.630978	193.4	55.7	-88.2	7.9
2025-01-03 18:14:41.781584	193.9	56.1	-88.2	3.6
2025-01-03 18:14:42.930044	194.4	56.5	-88.0	5.5
2025-01-03 18:14:44.085098	194.9	56.8	-87.8	4.1
2025-01-03 18:14:45.254623	195.5	57.2	-88.1	4.7
2025-01-03 18:14:46.409300	196.0	57.5	-88.4	4.4
2025-01-03 18:14:47.563147	196.6	57.9	-87.9	4.8
2025-01-03 18:14:48.716285	197.2	58.2	-88.0	5.9
2025-01-03 18:14:49.867062	197.8	58.6	-88.1	10.2
2025-01-03 18:14:51.017297	198.4	59.0	-88.1	11.9
2025-01-03 18:14:52.175953	199.0	59.3	-87.9	10.0
2025-01-03 18:14:53.325687	199.7	59.7	-88.2	10.4
2025-01-03 18:14:54.484153	200.4	60.0	-87.7	9.8
2025-01-03 18:14:55.637434	201.1	60.4	-88.3	10.8
2025-01-03 18:14:56.801629	201.8	60.7	-88.2	4.4
2025-01-03 18:14:57.950475	202.5	61.1	-87.4	6.9
2025-01-03 18:14:59.106848	203.2	61.4	-87.8	6.3
2025-01-03 18:15:00.253824	204.0	61.7	-87.8	5.7
2025-01-03 18:15:01.402800	204.8	62.1	-88.2	8.4
2025-01-03 18:15:02.557382	205.6	62.4	-87.6	7.0
2025-01-03 18:15:03.718458	206.4	62.7	-88.0	11.1
2025-01-03 18:15:04.865094	207.3	63.1	-87.6	12.9
2025-01-03 18:15:06.019921	208.2	63.4	-88.4	13.9
2025-01-03 18:15:07.173816	209.1	63.7	-88.1	12.8
2025-01-03 18:15:08.329876	210.0	64.0	-87.9	10.4
2025-01-03 18:15:09.484326	210.9	64.3	-87.7	10.2
2025-01-03 18:15:10.634030	211.9	64.6	-88.0	10.4
2025-01-03 18:15:11.788410	212.9	65.0	-87.9	8.3
2025-01-03 18:15:12.938980	214.0	65.2	-87.6	7.6
2025-01-03 18:15:14.100202	215.0	65.5	-87.5	7.1
2025-01-03 18:15:15.250708	216.1	65.8	-87.7	4.3
2025-01-03 18:15:16.404715	217.2	66.1	-87.9	4.8
2025-01-03 18:15:17.565799	218.4	66.4	-88.0	6.6
2025-01-03 18:15:18.729019	219.5	66.6	-87.7	4.3
2025-01-03 18:15:19.881685	220.7	66.9	-88.1	6.6
2025-01-03 18:15:21.020199	222.0	67.1	-87.8	7.7
2025-01-03 18:15:22.147553	223.2	67.3	-88.0	10.7
2025-01-03 18:15:23.268969	224.4	67.6	-88.2	8.9
2025-01-03 18:15:24.389953	225.7	67.8	-88.4	10.6
2025-01-03 18:15:25.510500	227.0	68.0	-88.5	11.5
2025-01-03 18:15:26.631934	228.3	68.2	-88.1	12.3
2025-01-03 18:15:27.753198	229.7	68.3	-88.0	12.3
2025-01-03 18:15:28.878936	231.0	68.5	-88.6	15.0
2025-01-03 18:15:30.020710	232.4	68.7	-88.5	16.9
2025-01-03 18:15:31.141709	233.9	68.8	-88.3	16.1
2025-01-03 18:15:32.264653	235.3	68.9	-88.0	11.1
2025-01-03 18:15:33.386656	236.7	69.1	-88.5	10.5
2025-01-03 18:15:34.517977	238.2	69.2	-88.6	9.9
2025-01-03 18:15:35.665645	239.8	69.3	-88.5	8.1
2025-01-03 18:15:36.815086	241.3	69.3	-88.6	8.1
2025-01-03 18:15:37.968717	242.8	69.4	-87.8	12.0
2025-01-03 18:15:39.119084	244.4	69.5	-88.5	10.5
2025-01-03 18:15:40.266144	246.0	69.5	-88.1	6.2
2025-01-03 18:15:41.418879	247.5	69.5	-88.2	8.8
2025-01-03 18:15:42.574051	249.1	69.6	-88.2	9.5
2025-01-03 18:15:43.727177	250.7	69.6	-88.4	7.9
2025-01-03 18:15:44.881267	252.3	69.5	-88.2	7.2
2025-01-03 18:15:46.039403	253.9	69.5	-88.5	10.7
2025-01-03 18:15:47.193608	255.4	69.5	-88.5	7.6
2025-01-03 18:15:48.344584	257.0	69.4	-88.1	7.2
2025-01-03 18:15:49.493721	258.6	69.3	-88.1	12.4
2025-01-03 18:15:50.640595	260.1	69.3	-88.4	11.9
2025-01-03 18:15:51.802877	261.6	69.2	-88.3	12.2
2025-01-03 18:15:52.962370	263.1	69.0	-88.4	14.9
2025-01-03 18:15:54.122021	264.6	68.9	-88.5	16.1
2025-01-03 18:15:55.267050	266.1	68.8	-87.9	13.3
2025-01-03 18:15:56.413892	267.5	68.6	-88.1	14.1
2025-01-03 18:15:57.534348	268.9	68.5	-88.2	16.7
2025-01-03 18:15:58.675706	270.3	68.3	-88.2	16.1
2025-01-03 18:15:59.811384	271.7	68.1	-88.3	16.8
2025-01-03 18:16:00.946509	273.0	67.9	-88.2	19.0
2025-01-03 18:16:02.090799	274.3	67.7	-87.9	18.4
2025-01-03 18:16:03.241616	275.6	67.5	-88.1	18.2
2025-01-03 18:16:04.393555	276.9	67.3	-88.1	15.7
2025-01-03 18:16:05.547390	278.1	67.0	-88.3	15.8
2025-01-03 18:16:06.711086	279.4	66.8	-88.4	15.7
2025-01-03 18:16:07.854462	280.5	66.5	-88.1	16.0
2025-01-03 18:16:09.010947	281.7	66.3	-88.0	14.3
2025-01-03 18:16:10.161269	282.8	66.0	-87.6	14.2
2025-01-03 18:16:11.310967	283.9	65.7	-87.9	10.9
2025-01-03 18:16:12.461903	285.0	65.5	-88.1	9.7
2025-01-03 18:16:13.610582	286.1	65.2	-88.2	12.0
2025-01-03 18:16:14.762871	287.1	64.9	-88.1	12.1
2025-01-03 18:16:15.911751	288.1	64.6	-88.3	8.5
2025-01-03 18:16:17.064359	289.0	64.3	-88.7	0.3
2025-01-03 18:16:18.218988	290.0	63.9	-88.8	4.7
2025-01-03 18:16:19.365072	290.9	63.6	-87.7	4.3
2025-01-03 18:16:20.523573	291.8	63.3	-88.0	9.8
2025-01-03 18:16:21.673598	292.7	63.0	-88.1	7.9
2025-01-03 18:16:22.825171	293.5	62.7	-88.1	11.5
2025-01-03 18:16:23.978801	294.3	62.3	-88.4	12.9
2025-01-03 18:16:25.127509	295.1	62.0	-88.0	9.0
2025-01-03 18:16:26.286563	295.9	61.7	-88.2	10.7
2025-01-03 18:16:27.434656	296.7	61.3	-88.2	11.5
2025-01-03 18:16:28.582520	297.4	61.0	-88.3	9.3
2025-01-03 18:16:29.737482	298.1	60.6	-88.2	7.7
2025-01-03 18:16:30.881490	298.8	60.3	-88.2	11.3
2025-01-03 18:16:32.044245	299.5	59.9	-87.9	10.1
2025-01-03 18:16:33.173386	300.2	59.6	-88.5	4.6
2025-01-03 18:16:34.317142	300.8	59.2	-88.1	6.9
2025-01-03 18:16:35.469955	301.4	58.9	-88.4	7.0
2025-01-03 18:16:36.621797	302.0	58.5	-88.8	11.3
2025-01-03 18:16:37.768245	302.6	58.2	-88.7	6.0
2025-01-03 18:16:38.922089	303.2	57.8	-88.2	11.2
2025-01-03 18:16:40.077784	303.8	57.5	-88.2	7.0
2025-01-03 18:16:41.236966	304.3	57.1	-88.6	4.2
2025-01-03 18:16:42.391302	304.9	56.7	-88.6	4.7
2025-01-03 18:16:43.544794	305.4	56.4	-88.8	6.0
2025-01-03 18:16:44.708258	305.9	56.0	-88.5	4.3
2025-01-03 18:16:45.865164	306.4	55.7	-88.3	3.9
2025-01-03 18:16:47.019332	306.9	55.3	-89.0	7.8
2025-01-03 18:16:48.167982	307.4	55.0	-88.3	4.8
2025-01-03 18:16:49.323776	307.8	54.6	-88.7	5.6
2025-01-03 18:16:50.460063	308.3	54.3	-88.5	6.4
2025-01-03 18:16:51.580810	308.7	53.9	-87.9	6.7
2025-01-03 18:16:52.701423	309.1	53.6	-87.9	3.5
2025-01-03 18:16:53.821498	309.5	53.2	-88.0	4.4
2025-01-03 18:16:54.942409	309.9	52.9	-88.5	4.8
2025-01-03 18:16:56.062105	310.3	52.5	-88.6	3.1
2025-01-03 18:16:57.183105	310.7	52.2	-88.2	4.7
2025-01-03 18:16:58.308784	311.1	51.9	-88.2	5.0
2025-01-03 18:16:59.434524	311.4	51.5	-88.2	4.3
2025-01-03 18:17:00.571983	311.8	51.2	-88.7	3.4
2025-01-03 18:17:01.701125	312.2	50.8	-88.5	5.5
2025-01-03 18:17:02.822935	312.5	50.5	-88.1	5.4
2025-01-03 18:17:03.943323	312.8	50.2	-88.4	4.8
2025-01-03 18:17:05.063765	313.2	49.9	-88.1	5.5
2025-01-03 18:17:06.214455	313.5	49.5	-88.9	14.2
2025-01-03 18:17:07.368339	313.8	49.2	-88.7	6.7
2025-01-03 18:17:08.535477	314.1	48.8	-88.6	3.1
2025-01-03 18:17:09.684636	314.4	48.5	-88.5	8.3
2025-01-03 18:17:10.844343	314.7	48.2	-88.3	7.6
2025-01-03 18:17:11.992162	315.0	47.8	-88.5	2.9
2025-01-03 18:17:13.153904	315.3	47.5	-89.0	5.7
2025-01-03 18:17:14.303766	315.6	47.2	-89.1	3.7
2025-01-03 18:17:15.455700	315.9	46.9	-89.1	1.9
2025-01-03 18:17:16.607048	316.2	46.5	-89.2	4.6
2025-01-03 18:17:17.744263	316.4	46.2	-88.9	1.8
2025-01-03 18:17:18.890664	316.7	45.9	-88.9	8.2
2025-01-03 18:17:20.036217	316.9	45.6	-89.1	5.1
2025-01-03 18:17:21.189347	317.2	45.3	-88.6	4.6
2025-01-03 18:17:22.343389	317.4	45.0	-88.8	4.1
2025-01-03 18:17:23.504057	317.7	44.7	-88.3	7.0
2025-01-03 18:17:24.658889	317.9	44.3	-88.9	6.4
2025-01-03 18:17:25.815292	318.1	44.0	-89.0	12.6
2025-01-03 18:17:26.970316	318.4	43.7	-88.8	11.4
2025-01-03 18:17:28.121155	318.6	43.4	-88.8	10.8
2025-01-03 18:17:29.268212	318.8	43.1	-88.8	9.4
2025-01-03 18:17:30.416966	319.0	42.8	-88.9	8.0
2025-01-03 18:17:31.569475	319.2	42.5	-89.2	7.6
2025-01-03 18:17:32.730037	319.5	42.2	-89.5	10.2
2025-01-03 18:17:33.881764	319.7	41.9	-89.3	7.9
2025-01-03 18:17:35.037999	319.9	41.6	-89.3	3.7
2025-01-03 18:17:36.181887	320.1	41.4	-89.0	7.4
2025-01-03 18:17:37.344105	320.3	41.1	-87.1	3.2
2025-01-03 18:17:38.493681	320.4	40.8	-89.2	8.3
2025-01-03 18:17:39.650377	320.6	40.5	-88.9	5.5
2025-01-03 18:17:40.807027	320.8	40.2	-88.9	4.9
2025-01-03 18:17:41.967982	321.0	39.9	-89.0	8.3
2025-01-03 18:17:43.123703	321.2	39.6	-89.2	3.5
2025-01-03 18:17:44.278622	321.4	39.4	-88.9	10.4
2025-01-03 18:17:45.420569	321.5	39.1	-89.1	5.6
2025-01-03 18:17:46.568225	321.7	38.8	-89.0	6.8
2025-01-03 18:17:47.697781	321.9	38.6	-89.0	5.8
2025-01-03 18:17:48.818979	322.0	38.3	-88.9	14.2
2025-01-03 18:17:49.939563	322.2	38.0	-88.8	5.8
2025-01-03 18:17:51.059091	322.3	37.8	-89.0	4.6
2025-01-03 18:17:52.180922	322.5	37.5	-89.1	7.4
2025-01-03 18:17:53.309435	322.6	37.3	-89.1	7.5
2025-01-03 18:17:54.433513	322.8	37.0	-89.3	3.9
2025-01-03 18:17:55.558410	322.9	36.8	-89.4	5.7
2025-01-03 18:17:56.709851	323.1	36.5	-89.1	5.2
2025-01-03 18:17:57.864584	323.2	36.2	-89.3	3.1
2025-01-03 18:17:59.025466	323.4	36.0	-89.2	3.5
2025-01-03 18:18:00.167748	323.5	35.7	-89.1	4.6
2025-01-03 18:18:01.308705	323.6	35.5	-88.9	3.7
2025-01-03 18:18:02.465112	323.8	35.2	-88.8	7.3
2025-01-03 18:18:03.618567	323.9	35.0	-88.9	4.8
2025-01-03 18:18:04.769574	324.0	34.8	-88.9	9.1
2025-01-03 18:18:05.920443	324.2	34.5	-89.3	10.6
2025-01-03 18:18:07.066058	324.3	34.3	-89.0	5.3
2025-01-03 18:18:08.221179	324.4	34.0	-89.3	3.4
2025-01-03 18:18:09.375747	324.6	33.8	-89.0	9.7
2025-01-03 18:18:10.532924	324.7	33.6	-89.0	3.9
2025-01-03 18:18:11.674712	324.8	33.3	-89.3	7.6
2025-01-03 18:18:12.828928	324.9	33.1	-89.1	4.1
2025-01-03 18:18:13.977020	325.0	32.9	-88.7	6.3
2025-01-03 18:18:15.117970	325.2	32.6	-89.0	4.1
2025-01-03 18:18:16.240180	325.3	32.4	-89.0	2.8
2025-01-03 18:18:17.389033	325.4	32.2	-89.0	3.4
2025-01-03 18:18:18.537503	325.5	32.0	-88.7	2.8
2025-01-03 18:18:19.697165	325.6	31.7	-88.3	3.8
2025-01-03 18:18:20.848132	325.7	31.5	-88.8	6.1
2025-01-03 18:18:22.004606	325.8	31.3	-88.8	7.2
2025-01-03 18:18:23.156728	325.9	31.1	-88.0	10.8
2025-01-03 18:18:24.304829	326.1	30.9	-87.9	6.8
2025-01-03 18:18:25.446248	326.2	30.7	-88.5	7.1
2025-01-03 18:18:26.600091	326.3	30.4	-87.9	6.8
2025-01-03 18:18:27.747239	326.4	30.2	-89.2	4.6
2025-01-03 18:18:28.904057	326.5	30.0	-88.8	6.7
2025-01-03 18:18:30.049105	326.6	29.8	-88.7	4.6
2025-01-03 18:18:31.196051	326.7	29.6	-88.6	2.7
2025-01-03 18:18:32.346124	326.8	29.4	-88.7	2.9
2025-01-03 18:18:33.474282	326.8	29.2	-88.4	3.2
2025-01-03 18:18:34.594066	326.9	29.0	-88.9	3.3
2025-01-03 18:18:35.714364	327.0	28.8	-87.2	2.4
2025-01-03 18:18:36.836710	327.1	28.6	-88.4	6.3
2025-01-03 18:18:37.957226	327.2	28.4	-88.5	4.2
2025-01-03 18:18:39.077447	327.3	28.2	-86.7	4.7
2025-01-03 18:18:40.197976	327.4	28.0	-87.1	5.1
2025-01-03 18:18:41.317779	327.5	27.8	-88.6	8.2
2025-01-03 18:18:42.461676	327.6	27.7	-87.7	2.1
2025-01-03 18:18:43.608236	327.6	27.5	-88.6	2.3
2025-01-03 18:18:44.744683	327.7	27.3	-88.5	3.8
2025-01-03 18:18:45.879290	327.8	27.1	-89.0	5.0
2025-01-03 18:18:47.006134	327.9	26.9	-88.7	3.6
2025-01-03 18:18:48.161794	328.0	26.7	-89.1	2.2
2025-01-03 18:18:49.300721	328.1	26.5	-89.1	4.3
2025-01-03 18:18:50.454454	328.1	26.3	-88.6	5.7
2025-01-03 18:18:51.589828	328.2	26.2	-88.6	6.3
2025-01-03 18:18:52.740162	328.3	26.0	-88.4	4.1
2025-01-03 18:18:53.883494	328.4	25.8	-88.6	10.7
2025-01-03 18:18:55.054960	328.5	25.6	-88.8	10.0
2025-01-03 18:18:56.203970	328.5	25.4	-89.2	6.2
2025-01-03 18:18:57.352448	328.6	25.3	-88.8	6.5
2025-01-03 18:18:58.500503	328.7	25.1	-88.8	5.5
2025-01-03 18:18:59.648110	328.8	24.9	-88.6	8.0
2025-01-03 18:19:00.793549	328.8	24.7	-88.8	2.0
2025-01-03 18:19:01.938260	328.9	24.6	-88.8	6.8
2025-01-03 18:19:03.094064	329.0	24.4	-89.1	2.6
2025-01-03 18:19:04.251530	329.0	24.2	-88.9	3.9
2025-01-03 18:19:05.407101	329.1	24.0	-88.8	4.9
2025-01-03 18:19:06.554438	329.2	23.9	-88.8	3.7
2025-01-03 18:19:07.709959	329.3	23.7	-89.2	3.5
2025-01-03 18:19:08.858199	329.3	23.5	-88.6	6.0
2025-01-03 18:19:10.015720	329.4	23.4	-88.8	4.2
2025-01-03 18:19:11.166580	329.5	23.2	-88.6	8.5
2025-01-03 18:19:12.317006	329.5	23.0	-89.1	1.5
2025-01-03 18:19:13.475586	329.6	22.9	-88.9	5.7
2025-01-03 18:19:14.626763	329.7	22.7	-88.9	3.0
2025-01-03 18:19:15.769389	329.7	22.5	-88.8	1.2
2025-01-03 18:19:16.909730	329.8	22.4	-88.8	3.9
2025-01-03 18:19:18.035463	329.9	22.2	-88.8	2.8
2025-01-03 18:19:19.179864	329.9	22.1	-89.2	4.2
2025-01-03 18:19:20.323722	330.0	21.9	-89.2	2.7
2025-01-03 18:19:21.474327	330.0	21.8	-89.2	9.6
2025-01-03 18:19:22.624825	330.1	21.6	-88.9	4.1
2025-01-03 18:19:23.771150	330.2	21.4	-89.1	9.2
2025-01-03 18:19:24.925194	330.2	21.3	-89.2	7.3
2025-01-03 18:19:26.071841	330.3	21.1	-89.0	7.6
2025-01-03 18:19:27.226849	330.3	21.0	-88.7	8.3
2025-01-03 18:19:28.378614	330.4	20.8	-89.0	2.8
2025-01-03 18:19:29.536356	330.5	20.7	-88.7	5.1
2025-01-03 18:19:30.684126	330.5	20.5	-89.0	2.6
2025-01-03 18:19:31.824971	330.6	20.4	-89.3	0.3
2025-01-03 18:19:32.976546	330.6	20.2	-88.9	2.8
2025-01-03 18:19:34.127426	330.7	20.1	-88.3	4.9
2025-01-03 18:19:35.284595	330.7	19.9	-88.5	3.7
2025-01-03 18:19:36.432153	330.8	19.8	-88.8	2.4
2025-01-03 18:19:37.588263	330.8	19.7	-89.0	3.9
2025-01-03 18:19:38.736914	330.9	19.5	-88.8	1.5
2025-01-03 18:19:39.884512	331.0	19.4	-88.8	2.2
2025-01-03 18:19:41.036596	331.0	19.2	-89.0	2.5
2025-01-03 18:19:42.186681	331.1	19.1	-88.7	1.3
2025-01-03 18:19:43.337612	331.1	18.9	-89.2	2.8
2025-01-03 18:19:44.488168	331.2	18.8	-89.2	1.0
2025-01-03 18:19:45.634616	331.2	18.7	-88.7	1.7
2025-01-03 18:19:46.780562	331.3	18.5	-88.7	1.5
2025-01-03 18:19:47.933346	331.3	18.4	-89.1	2.8
2025-01-03 18:19:49.090639	331.4	18.3	-88.8	3.0
2025-01-03 18:19:50.232674	331.4	18.1	-88.7	2.7
2025-01-03 18:19:51.383647	331.5	18.0	-88.8	3.5
2025-01-03 18:19:52.534348	331.5	17.9	-89.0	2.9
2025-01-03 18:19:53.693355	331.6	17.7	-88.8	3.0
2025-01-03 18:19:54.838283	331.6	17.6	-88.7	2.3
2025-01-03 18:19:55.990335	331.7	17.5	-88.9	3.7
2025-01-03 18:19:57.121402	331.7	17.3	-88.8	3.7
2025-01-03 18:19:58.242258	331.8	17.2	-88.7	2.5
2025-01-03 18:19:59.363214	331.8	17.1	-88.7	2.7
2025-01-03 18:20:00.483480	331.8	16.9	-88.5	3.3
2025-01-03 18:20:01.604133	331.9	16.8	-88.9	3.5
2025-01-03 18:20:02.724963	331.9	16.7	-88.8	1.3
2025-01-03 18:20:03.852290	332.0	16.6	-88.9	2.6
2025-01-03 18:20:04.977639	332.0	16.4	-88.9	4.7
2025-01-03 18:20:06.130200	332.1	16.3	-89.0	3.6
2025-01-03 18:20:07.281891	332.1	16.2	-88.7	2.2
2025-01-03 18:20:08.430258	332.2	16.1	-88.8	4.2
2025-01-03 18:20:09.579813	332.2	15.9	-88.7	3.0
2025-01-03 18:20:11.690534	332.3	15.7	-88.5	1.2
2025-01-03 18:20:12.848879	332.3	15.6	-88.9	2.3
2025-01-03 18:20:13.997432	332.4	15.5	-88.9	1.4
2025-01-03 18:20:15.153327	332.4	15.3	-88.6	1.5
2025-01-03 18:20:16.313360	332.5	15.2	-88.9	2.9
2025-01-03 18:20:17.462369	332.5	15.1	-88.7	2.8
2025-01-03 18:20:18.626019	332.5	15.0	-88.9	3.7
2025-01-03 18:20:19.782079	332.6	14.9	-88.6	4.5
2025-01-03 18:20:20.942935	332.6	14.7	-88.8	3.8
2025-01-03 18:20:22.096571	332.7	14.6	-89.1	4.8
2025-01-03 18:20:23.258358	332.7	14.5	-89.0	2.9
#Closed at: 2025-01-03 18:11:13.782949