passes_logs/2025/01/03/LEX_Murmansk/LEX_Murmansk__20250103_183848_NOAA_18_rec.log

#Pass ID: 20250103_183848_NOAA 18
#Satellite: NOAA 18
#Configuration: NOAA 18
#Start time: 2025-01-03 18:38:43.234597

#LorettStation: 1.0.0 05.05.2024
#Station: LEX_Murmansk
#Location: 33.156738 lon 68.926811 lat
#TLE: 1 28654U 05018A   25002.84587038  .00000654  00000+0  37076-3 0  9991
#TLE: 2 28654  98.8584  84.0197 0013777 213.7552 146.2745 14.13474254 11464

#Time	Az	El	Level	SNR
2025-01-03 18:38:55.454304	145.1	16.3	-88.9	5.6
2025-01-03 18:38:56.604407	145.1	16.4	-89.3	5.0
2025-01-03 18:38:57.752611	145.1	16.6	-89.3	4.2
2025-01-03 18:38:58.896831	145.1	16.7	-89.6	5.3
2025-01-03 18:39:00.044281	145.1	16.8	-89.3	4.8
2025-01-03 18:39:01.183803	145.1	17.0	-89.7	6.0
2025-01-03 18:39:02.336034	145.0	17.1	-89.5	5.9
2025-01-03 18:39:03.481188	145.0	17.2	-89.2	5.2
2025-01-03 18:39:04.633013	145.0	17.3	-89.4	5.4
2025-01-03 18:39:05.783952	145.0	17.5	-88.7	5.3
2025-01-03 18:39:06.928674	145.0	17.6	-86.8	5.7
2025-01-03 18:39:08.084035	145.0	17.7	-88.6	5.1
2025-01-03 18:39:09.243450	145.0	17.9	-88.6	6.1
2025-01-03 18:39:10.400986	144.9	18.0	-88.3	5.5
2025-01-03 18:39:11.547175	144.9	18.2	-88.7	6.2
2025-01-03 18:39:12.693957	144.9	18.3	-89.3	6.5
2025-01-03 18:39:13.846574	144.9	18.4	-89.2	8.6
2025-01-03 18:39:14.995385	144.9	18.6	-89.5	5.8
2025-01-03 18:39:16.146029	144.9	18.7	-88.9	8.7
2025-01-03 18:39:17.294456	144.8	18.9	-88.9	10.5
2025-01-03 18:39:18.457263	144.8	19.0	-88.5	8.8
2025-01-03 18:39:19.601557	144.8	19.1	-89.0	8.5
2025-01-03 18:39:20.748968	144.8	19.3	-88.9	10.1
2025-01-03 18:39:21.894317	144.8	19.4	-89.2	11.0
2025-01-03 18:39:23.059706	144.7	19.6	-89.0	9.1
2025-01-03 18:39:24.211498	144.7	19.7	-88.8	9.0
2025-01-03 18:39:25.358274	144.7	19.9	-88.7	8.9
2025-01-03 18:39:26.507877	144.7	20.0	-88.6	7.1
2025-01-03 18:39:27.663690	144.7	20.2	-88.6	6.2
2025-01-03 18:39:28.812420	144.7	20.3	-88.6	10.3
2025-01-03 18:39:29.956903	144.6	20.4	-88.6	6.2
2025-01-03 18:39:31.112033	144.6	20.6	-88.5	7.2
2025-01-03 18:39:32.256682	144.6	20.7	-88.9	9.1
2025-01-03 18:39:33.409146	144.6	20.9	-88.6	9.8
2025-01-03 18:39:34.559103	144.6	21.1	-88.3	11.3
2025-01-03 18:39:35.710639	144.5	21.2	-87.0	9.9
2025-01-03 18:39:36.863066	144.5	21.4	-87.1	11.5
2025-01-03 18:39:38.010424	144.5	21.5	-89.3	10.4
2025-01-03 18:39:39.160423	144.5	21.7	-88.3	10.8
2025-01-03 18:39:40.309908	144.5	21.8	-87.6	8.7
2025-01-03 18:39:41.458338	144.4	22.0	-88.1	10.1
2025-01-03 18:39:42.610790	144.4	22.1	-88.1	8.3
2025-01-03 18:39:43.757427	144.4	22.3	-88.2	10.0
2025-01-03 18:39:44.911172	144.4	22.5	-88.6	9.0
2025-01-03 18:39:46.061338	144.3	22.6	-89.1	5.6
2025-01-03 18:39:47.214848	144.3	22.8	-88.9	9.6
2025-01-03 18:39:48.372764	144.3	23.0	-88.9	8.1
2025-01-03 18:39:49.522828	144.3	23.1	-88.6	8.5
2025-01-03 18:39:50.666890	144.3	23.3	-88.4	7.7
2025-01-03 18:39:51.811939	144.2	23.5	-89.0	10.8
2025-01-03 18:39:52.960912	144.2	23.6	-88.6	9.2
2025-01-03 18:39:54.111775	144.2	23.8	-88.2	8.2
2025-01-03 18:39:55.259744	144.2	24.0	-88.6	7.6
2025-01-03 18:39:56.414422	144.1	24.1	-88.7	9.9
2025-01-03 18:39:57.565464	144.1	24.3	-89.3	9.9
2025-01-03 18:39:58.710728	144.1	24.5	-89.8	8.7
2025-01-03 18:39:59.855192	144.0	24.7	-90.0	10.1
2025-01-03 18:40:01.002188	144.0	24.8	-89.9	5.9
2025-01-03 18:40:02.147104	144.0	25.0	-89.0	4.8
2025-01-03 18:40:03.301226	144.0	25.2	-89.3	9.5
2025-01-03 18:40:04.441618	143.9	25.4	-89.3	7.7
2025-01-03 18:40:05.590636	143.9	25.6	-89.4	10.5
2025-01-03 18:40:06.736677	143.9	25.7	-89.8	10.1
2025-01-03 18:40:07.883936	143.9	25.9	-89.8	10.9
2025-01-03 18:40:09.036011	143.8	26.1	-89.6	9.7
2025-01-03 18:40:10.182671	143.8	26.3	-89.3	8.8
2025-01-03 18:40:11.336217	143.8	26.5	-89.0	10.8
2025-01-03 18:40:12.486260	143.7	26.7	-89.8	10.1
2025-01-03 18:40:13.635748	143.7	26.9	-89.4	8.8
2025-01-03 18:40:14.788406	143.7	27.0	-89.4	8.0
2025-01-03 18:40:15.929652	143.6	27.2	-89.4	7.5
2025-01-03 18:40:17.067388	143.6	27.4	-89.1	4.6
2025-01-03 18:40:18.198146	143.6	27.6	-89.3	6.0
2025-01-03 18:40:19.319027	143.5	27.8	-89.2	8.3
2025-01-03 18:40:20.439642	143.5	28.0	-89.2	7.5
2025-01-03 18:40:21.560727	143.5	28.2	-89.4	7.3
2025-01-03 18:40:22.681522	143.5	28.4	-89.2	8.9
2025-01-03 18:40:23.801531	143.4	28.6	-89.4	7.0
2025-01-03 18:40:24.921529	143.4	28.8	-89.7	6.3
2025-01-03 18:40:26.044715	143.3	29.0	-89.2	4.4
2025-01-03 18:40:27.191063	143.3	29.2	-88.9	4.1
2025-01-03 18:40:28.336514	143.3	29.4	-89.1	4.5
2025-01-03 18:40:29.489491	143.2	29.6	-89.6	7.9
2025-01-03 18:40:30.625540	143.2	29.8	-89.4	7.4
2025-01-03 18:40:31.775129	143.2	30.0	-89.4	5.5
2025-01-03 18:40:32.925369	143.1	30.2	-89.4	5.2
2025-01-03 18:40:34.074571	143.1	30.5	-89.5	4.6
2025-01-03 18:40:35.226378	143.0	30.7	-88.9	4.4
2025-01-03 18:40:36.373828	143.0	30.9	-89.1	5.4
2025-01-03 18:40:37.522150	143.0	31.1	-89.1	6.2
2025-01-03 18:40:38.665538	142.9	31.3	-88.3	3.6
2025-01-03 18:40:39.822899	142.9	31.6	-88.3	4.7
2025-01-03 18:40:40.972485	142.8	31.8	-88.5	4.5
2025-01-03 18:40:42.117389	142.8	32.0	-88.7	4.7
2025-01-03 18:40:43.263890	142.7	32.2	-88.7	6.8
2025-01-03 18:40:44.411660	142.7	32.5	-88.7	9.5
2025-01-03 18:40:45.560524	142.7	32.7	-88.9	8.9
2025-01-03 18:40:46.706713	142.6	32.9	-88.9	7.8
2025-01-03 18:40:47.859790	142.6	33.2	-88.6	5.6
2025-01-03 18:40:49.005932	142.5	33.4	-88.7	6.6
2025-01-03 18:40:50.129731	142.5	33.6	-88.5	5.0
2025-01-03 18:40:51.250236	142.4	33.9	-88.7	6.4
2025-01-03 18:40:52.387426	142.4	34.1	-88.5	7.7
2025-01-03 18:40:53.524245	142.3	34.3	-89.5	5.3
2025-01-03 18:40:54.671088	142.3	34.6	-89.8	5.8
2025-01-03 18:40:55.816678	142.2	34.8	-89.6	7.6
2025-01-03 18:40:56.963107	142.2	35.1	-90.0	12.2
2025-01-03 18:40:58.114388	142.1	35.3	-89.5	13.6
2025-01-03 18:40:59.260019	142.1	35.6	-89.3	11.2
2025-01-03 18:41:00.415238	142.0	35.9	-89.3	13.5
2025-01-03 18:41:01.560665	141.9	36.1	-89.7	11.1
2025-01-03 18:41:02.709112	141.9	36.4	-89.7	15.3
2025-01-03 18:41:03.863743	141.8	36.6	-89.8	13.4
2025-01-03 18:41:05.014482	141.8	36.9	-89.6	15.0
2025-01-03 18:41:06.162683	141.7	37.2	-89.5	11.0
2025-01-03 18:41:07.307702	141.6	37.4	-89.7	10.7
2025-01-03 18:41:08.456935	141.6	37.7	-89.4	7.6
2025-01-03 18:41:09.607350	141.5	38.0	-89.7	6.3
2025-01-03 18:41:10.752587	141.4	38.2	-90.1	9.7
2025-01-03 18:41:11.914052	141.4	38.5	-90.3	9.4
2025-01-03 18:41:13.059585	141.3	38.8	-89.4	9.4
2025-01-03 18:41:14.206132	141.2	39.1	-89.8	14.0
2025-01-03 18:41:15.354661	141.2	39.4	-89.6	14.6
2025-01-03 18:41:16.503618	141.1	39.6	-89.3	13.8
2025-01-03 18:41:17.659996	141.0	39.9	-89.6	11.6
2025-01-03 18:41:18.813322	141.0	40.2	-89.5	15.1
2025-01-03 18:41:19.957402	140.9	40.5	-89.9	12.4
2025-01-03 18:41:21.109389	140.8	40.8	-89.4	13.3
2025-01-03 18:41:22.265876	140.7	41.1	-89.5	14.6
2025-01-03 18:41:23.415820	140.6	41.4	-89.2	15.9
2025-01-03 18:41:24.563240	140.6	41.7	-89.3	13.5
2025-01-03 18:41:25.709994	140.5	42.0	-89.5	13.0
2025-01-03 18:41:26.857078	140.4	42.3	-89.5	10.8
2025-01-03 18:41:28.000693	140.3	42.6	-89.3	6.0
2025-01-03 18:41:29.150732	140.2	42.9	-89.6	7.8
2025-01-03 18:41:30.305463	140.1	43.3	-89.6	11.6
2025-01-03 18:41:31.455315	140.0	43.6	-89.3	8.1
2025-01-03 18:41:32.608532	139.9	43.9	-89.1	8.6
2025-01-03 18:41:33.754805	139.8	44.2	-89.4	13.3
2025-01-03 18:41:34.900750	139.7	44.5	-89.6	13.0
2025-01-03 18:41:36.051606	139.6	44.9	-89.7	13.8
2025-01-03 18:41:37.213294	139.5	45.2	-89.6	15.0
2025-01-03 18:41:38.363734	139.4	45.5	-89.1	12.8
2025-01-03 18:41:39.513908	139.3	45.9	-89.7	9.0
2025-01-03 18:41:40.666226	139.2	46.2	-89.6	7.5
2025-01-03 18:41:41.813132	139.1	46.5	-89.4	10.2
2025-01-03 18:41:42.965253	139.0	46.9	-89.5	6.9
2025-01-03 18:41:44.110306	138.9	47.2	-89.7	7.8
2025-01-03 18:41:45.261023	138.8	47.6	-89.6	9.0
2025-01-03 18:41:46.410501	138.6	47.9	-89.7	10.3
2025-01-03 18:41:47.553922	138.5	48.3	-89.5	6.1
2025-01-03 18:41:48.696580	138.4	48.6	-89.6	8.3
2025-01-03 18:41:49.844860	138.2	49.0	-89.2	10.8
2025-01-03 18:41:50.994824	138.1	49.3	-89.5	6.0
2025-01-03 18:41:52.142250	138.0	49.7	-89.4	6.6
2025-01-03 18:41:53.287972	137.8	50.1	-89.4	10.3
2025-01-03 18:41:54.437850	137.7	50.4	-89.3	12.2
2025-01-03 18:41:55.583566	137.5	50.8	-89.6	11.6
2025-01-03 18:41:56.729777	137.4	51.2	-89.6	13.7
2025-01-03 18:41:57.882049	137.2	51.6	-89.5	11.3
2025-01-03 18:41:59.026721	137.1	51.9	-89.6	9.3
2025-01-03 18:42:00.175642	136.9	52.3	-89.9	8.3
2025-01-03 18:42:01.319621	136.7	52.7	-89.6	9.5
2025-01-03 18:42:02.464162	136.6	53.1	-89.6	11.3
2025-01-03 18:42:03.614324	136.4	53.5	-90.1	17.3
2025-01-03 18:42:04.756666	136.2	53.9	-89.5	17.8
2025-01-03 18:42:05.902991	136.0	54.3	-89.5	17.5
2025-01-03 18:42:07.055014	135.8	54.7	-89.6	13.2
2025-01-03 18:42:08.200105	135.6	55.1	-89.4	13.1
2025-01-03 18:42:09.349007	135.4	55.5	-89.2	14.1
2025-01-03 18:42:10.494590	135.2	55.9	-89.7	7.6
2025-01-03 18:42:11.644279	135.0	56.3	-89.8	9.3
2025-01-03 18:42:12.787560	134.8	56.7	-89.7	16.8
2025-01-03 18:42:13.934254	134.5	57.1	-89.9	13.6
2025-01-03 18:42:15.081888	134.3	57.5	-89.6	15.8
2025-01-03 18:42:16.227616	134.0	58.0	-89.2	14.8
2025-01-03 18:42:17.376629	133.8	58.4	-89.6	15.5
2025-01-03 18:42:18.523776	133.5	58.8	-89.9	14.3
2025-01-03 18:42:19.675231	133.2	59.2	-89.8	11.1
2025-01-03 18:42:20.826780	133.0	59.7	-89.8	15.5
2025-01-03 18:42:21.973819	132.7	60.1	-89.6	14.1
2025-01-03 18:42:23.123596	132.4	60.5	-89.5	12.6
2025-01-03 18:42:24.265415	132.1	61.0	-89.4	17.3
2025-01-03 18:42:25.427962	131.7	61.4	-89.3	17.0
2025-01-03 18:42:26.553177	131.4	61.8	-89.2	12.1
2025-01-03 18:42:27.673377	131.1	62.3	-89.3	15.2
2025-01-03 18:42:28.794602	130.7	62.7	-89.4	16.5
2025-01-03 18:42:29.914795	130.4	63.1	-89.4	16.4
2025-01-03 18:42:31.035185	130.0	63.6	-89.4	19.2
2025-01-03 18:42:32.155967	129.6	64.0	-88.9	16.9
2025-01-03 18:42:33.277703	129.2	64.4	-88.7	16.0
2025-01-03 18:42:34.405062	128.8	64.9	-89.3	15.5
2025-01-03 18:42:35.546795	128.3	65.3	-89.1	9.3
2025-01-03 18:42:36.684960	127.8	65.8	-88.9	14.1
2025-01-03 18:42:37.825402	127.4	66.2	-89.1	16.1
2025-01-03 18:42:38.949185	126.9	66.7	-89.4	9.6
2025-01-03 18:42:40.083796	126.3	67.1	-89.9	11.7
2025-01-03 18:42:41.225542	125.8	67.6	-89.5	18.7
2025-01-03 18:42:42.360053	125.2	68.0	-89.9	19.9
2025-01-03 18:42:43.508973	124.6	68.5	-89.9	15.2
2025-01-03 18:42:44.652316	124.0	69.0	-90.1	20.5
2025-01-03 18:42:45.796838	123.3	69.4	-90.0	17.0
2025-01-03 18:42:46.942579	122.6	69.9	-90.1	18.0
2025-01-03 18:42:48.090236	121.8	70.3	-89.9	15.7
2025-01-03 18:42:49.237982	121.1	70.8	-89.9	16.7
2025-01-03 18:42:50.383306	120.3	71.2	-90.0	15.5
2025-01-03 18:42:51.528815	119.4	71.7	-90.2	9.8
2025-01-03 18:42:52.674585	118.5	72.1	-89.8	10.1
2025-01-03 18:42:53.818991	117.6	72.6	-89.9	17.3
2025-01-03 18:42:54.966435	116.6	73.0	-90.4	10.0
2025-01-03 18:42:56.113839	115.5	73.5	-89.7	8.8
2025-01-03 18:42:57.259470	114.4	73.9	-90.0	14.7
2025-01-03 18:42:58.408181	113.2	74.3	-89.8	17.8
2025-01-03 18:42:59.558252	111.9	74.8	-89.9	13.6
2025-01-03 18:43:00.694590	110.6	75.2	-89.9	19.0
2025-01-03 18:43:01.844902	109.2	75.6	-89.9	17.2
2025-01-03 18:43:02.979623	107.7	76.0	-90.2	11.2
2025-01-03 18:43:04.117034	106.1	76.4	-89.6	19.1
2025-01-03 18:43:05.267084	104.5	76.8	-89.4	19.3
2025-01-03 18:43:06.408964	102.7	77.1	-89.5	16.7
2025-01-03 18:43:07.556401	100.8	77.5	-90.0	13.3
2025-01-03 18:43:08.696368	98.8	77.9	-90.4	16.0
2025-01-03 18:43:09.842161	96.7	78.2	-90.1	17.3
2025-01-03 18:43:10.987718	94.4	78.5	-89.6	9.9
2025-01-03 18:43:12.154505	92.0	78.8	-89.8	7.4
2025-01-03 18:43:13.302421	89.5	79.1	-89.4	15.7
2025-01-03 18:43:14.461583	86.8	79.4	-89.9	9.8
2025-01-03 18:43:15.612094	84.0	79.6	-90.0	11.4
2025-01-03 18:43:16.761646	81.1	79.8	-89.8	17.3
2025-01-03 18:43:17.918569	78.1	80.0	-89.7	15.0
2025-01-03 18:43:19.068351	74.9	80.2	-89.5	11.5
2025-01-03 18:43:20.216203	71.7	80.3	-89.6	17.1
2025-01-03 18:43:21.368767	68.4	80.4	-89.5	17.4
2025-01-03 18:43:22.516342	65.1	80.4	-90.3	12.0
2025-01-03 18:43:23.666742	61.7	80.5	-90.1	13.0
2025-01-03 18:43:24.813616	58.3	80.5	-90.0	20.9
2025-01-03 18:43:25.959537	54.9	80.4	-90.0	12.8
2025-01-03 18:43:27.103549	51.6	80.4	-89.8	12.6
2025-01-03 18:43:28.252950	48.3	80.3	-89.5	19.4
2025-01-03 18:43:29.407791	45.0	80.1	-89.9	17.3
2025-01-03 18:43:30.551897	41.9	80.0	-90.1	14.8
2025-01-03 18:43:31.707970	38.9	79.8	-90.3	19.3
2025-01-03 18:43:32.860798	36.0	79.6	-89.7	18.5
2025-01-03 18:43:34.011414	33.2	79.3	-90.1	15.4
2025-01-03 18:43:35.157853	30.6	79.1	-89.4	18.0
2025-01-03 18:43:36.305781	28.1	78.8	-89.5	18.1
2025-01-03 18:43:37.453680	25.7	78.5	-90.0	18.7
2025-01-03 18:43:38.602717	23.5	78.2	-90.0	14.9
2025-01-03 18:43:39.753764	21.4	77.8	-89.9	18.2
2025-01-03 18:43:40.906107	19.4	77.5	-89.5	16.5
2025-01-03 18:43:42.055872	17.5	77.1	-89.6	18.2
2025-01-03 18:43:43.207577	15.7	76.7	-89.0	18.1
2025-01-03 18:43:44.355544	14.0	76.3	-89.7	15.9
2025-01-03 18:43:45.507147	12.4	75.9	-90.2	19.0
2025-01-03 18:43:46.654596	10.9	75.5	-89.9	16.0
2025-01-03 18:43:47.802615	9.5	75.1	-89.9	16.6
2025-01-03 18:43:48.958797	8.2	74.7	-90.0	16.9
2025-01-03 18:43:50.104962	7.0	74.3	-89.8	18.2
2025-01-03 18:43:51.243082	5.8	73.8	-89.4	18.8
2025-01-03 18:43:52.368160	4.7	73.4	-89.8	18.5
2025-01-03 18:43:53.488174	3.7	73.0	-89.8	17.1
2025-01-03 18:43:54.608934	2.7	72.6	-89.7	17.9
2025-01-03 18:43:55.730194	1.8	72.1	-90.1	17.9
2025-01-03 18:43:56.850266	0.9	71.7	-90.0	17.8
2025-01-03 18:43:57.970670	0.0	71.2	-89.8	17.3
2025-01-03 18:43:59.093402	359.3	70.8	-89.9	16.9
2025-01-03 18:44:00.217941	358.5	70.4	-89.9	19.1
2025-01-03 18:44:01.360300	357.8	69.9	-89.7	17.9
2025-01-03 18:44:02.504615	357.1	69.4	-90.1	18.0
2025-01-03 18:44:03.653060	356.4	69.0	-89.6	19.0
2025-01-03 18:44:04.789757	355.8	68.5	-90.3	21.3
2025-01-03 18:44:05.936722	355.1	68.1	-89.9	21.7
2025-01-03 18:44:07.084828	354.6	67.6	-90.0	18.7
2025-01-03 18:44:08.230953	354.0	67.2	-90.0	19.7
2025-01-03 18:44:09.380178	353.5	66.7	-89.9	21.8
2025-01-03 18:44:10.526142	353.0	66.3	-90.0	23.5
2025-01-03 18:44:11.676176	352.5	65.8	-90.3	23.3
2025-01-03 18:44:12.826416	352.0	65.3	-90.1	20.2
2025-01-03 18:44:13.975214	351.5	64.9	-90.2	21.8
2025-01-03 18:44:15.141473	351.1	64.4	-90.1	23.8
2025-01-03 18:44:16.287461	350.7	64.0	-89.5	23.7
2025-01-03 18:44:17.441462	350.3	63.5	-89.6	22.3
2025-01-03 18:44:18.586498	349.9	63.1	-90.3	20.8
2025-01-03 18:44:19.734182	349.5	62.6	-89.9	21.0
2025-01-03 18:44:20.885563	349.2	62.2	-90.0	22.9
2025-01-03 18:44:22.031272	348.8	61.8	-90.2	22.7
2025-01-03 18:44:23.162270	348.5	61.3	-89.8	19.2
2025-01-03 18:44:24.294762	348.2	60.9	-89.5	22.9
2025-01-03 18:44:25.425363	347.9	60.5	-89.8	21.2
2025-01-03 18:44:26.559589	347.6	60.0	-89.8	17.7
2025-01-03 18:44:27.714111	347.3	59.6	-90.2	20.8
2025-01-03 18:44:28.850642	347.0	59.2	-89.9	20.8
2025-01-03 18:44:29.988453	346.8	58.8	-90.0	15.2
2025-01-03 18:44:31.130659	346.5	58.3	-89.6	13.1
2025-01-03 18:44:32.281368	346.2	57.9	-89.5	20.3
2025-01-03 18:44:33.433501	346.0	57.5	-89.5	16.5
2025-01-03 18:44:34.578416	345.8	57.1	-89.2	13.3
2025-01-03 18:44:35.728100	345.5	56.7	-89.6	16.7
2025-01-03 18:44:36.880406	345.3	56.2	-89.4	18.3
2025-01-03 18:44:38.024144	345.1	55.8	-89.7	12.6
2025-01-03 18:44:39.179697	344.9	55.4	-89.8	15.6
2025-01-03 18:44:40.324251	344.7	55.0	-89.5	13.4
2025-01-03 18:44:41.462394	344.5	54.6	-90.0	12.2
2025-01-03 18:44:42.593751	344.3	54.2	-89.7	12.0
2025-01-03 18:44:43.738513	344.1	53.8	-89.9	12.2
2025-01-03 18:44:44.881597	343.9	53.5	-89.8	13.4
2025-01-03 18:44:46.029184	343.7	53.1	-89.9	13.8
2025-01-03 18:44:47.173954	343.6	52.7	-89.8	12.8
2025-01-03 18:44:48.317440	343.4	52.3	-89.7	11.6
2025-01-03 18:44:49.467692	343.2	51.9	-90.2	12.3
2025-01-03 18:44:50.626242	343.1	51.5	-90.3	7.8
2025-01-03 18:44:51.773089	342.9	51.2	-89.9	9.2
2025-01-03 18:44:52.921619	342.8	50.8	-89.9	11.4
2025-01-03 18:44:54.068485	342.6	50.4	-90.0	12.6
2025-01-03 18:44:55.216864	342.5	50.0	-90.0	10.4
2025-01-03 18:44:56.366293	342.3	49.7	-89.5	5.6
2025-01-03 18:44:57.511927	342.2	49.3	-89.7	4.7
2025-01-03 18:44:58.662631	342.1	49.0	-90.1	6.7
2025-01-03 18:44:59.809944	341.9	48.6	-89.8	10.3
2025-01-03 18:45:00.958057	341.8	48.2	-89.8	7.6
2025-01-03 18:45:02.103244	341.7	47.9	-89.9	5.2
2025-01-03 18:45:03.252452	341.5	47.5	-89.9	12.0
2025-01-03 18:45:04.402681	341.4	47.2	-89.8	14.5
2025-01-03 18:45:05.552907	341.3	46.9	-89.8	9.7
2025-01-03 18:45:06.702056	341.2	46.5	-90.0	13.3
2025-01-03 18:45:07.861142	341.1	46.2	-90.3	15.6
2025-01-03 18:45:09.011273	341.0	45.8	-90.2	13.5
2025-01-03 18:45:10.161912	340.9	45.5	-89.8	14.8
2025-01-03 18:45:11.314105	340.8	45.2	-89.6	18.0
2025-01-03 18:45:12.463790	340.7	44.8	-90.2	19.6
2025-01-03 18:45:13.612620	340.6	44.5	-90.1	19.9
2025-01-03 18:45:14.771625	340.5	44.2	-90.1	19.8
2025-01-03 18:45:15.917455	340.4	43.9	-89.9	21.5
2025-01-03 18:45:17.065954	340.3	43.5	-89.9	20.2
2025-01-03 18:45:18.206831	340.2	43.2	-90.1	18.3
2025-01-03 18:45:19.355622	340.1	42.9	-89.7	18.4
2025-01-03 18:45:20.493717	340.0	42.6	-90.2	14.5
2025-01-03 18:45:21.624371	339.9	42.3	-90.2	13.5
2025-01-03 18:45:22.744468	339.8	42.0	-90.6	18.7
2025-01-03 18:45:23.866854	339.8	41.7	-90.5	20.8
2025-01-03 18:45:24.987880	339.7	41.4	-90.2	12.2
2025-01-03 18:45:26.108254	339.6	41.1	-90.2	12.1
2025-01-03 18:45:27.233286	339.5	40.8	-90.1	17.6
2025-01-03 18:45:28.353767	339.4	40.6	-90.1	18.1
2025-01-03 18:45:29.479752	339.4	40.3	-90.0	14.1
2025-01-03 18:45:30.613910	339.3	40.0	-90.5	16.7
2025-01-03 18:45:31.760277	339.2	39.7	-90.1	15.8
2025-01-03 18:45:32.907445	339.2	39.4	-90.5	16.0
2025-01-03 18:45:34.050541	339.1	39.1	-90.5	16.2
2025-01-03 18:45:35.184141	339.0	38.8	-90.0	14.5
2025-01-03 18:45:36.311664	338.9	38.6	-90.3	16.3
2025-01-03 18:45:37.448695	338.9	38.3	-90.2	11.9
2025-01-03 18:45:38.582890	338.8	38.0	-90.1	9.2
2025-01-03 18:45:39.722284	338.8	37.8	-90.3	12.0
2025-01-03 18:45:40.869164	338.7	37.5	-90.4	12.0
2025-01-03 18:45:42.010035	338.6	37.2	-90.7	8.1
2025-01-03 18:45:43.141570	338.6	37.0	-90.2	6.5
2025-01-03 18:45:44.269321	338.5	36.7	-90.1	10.3
2025-01-03 18:45:45.413538	338.5	36.4	-90.1	13.0
2025-01-03 18:45:46.550472	338.4	36.2	-89.6	9.2
2025-01-03 18:45:47.688057	338.3	35.9	-90.4	10.0
2025-01-03 18:45:48.831046	338.3	35.7	-90.8	15.1
2025-01-03 18:45:49.977046	338.2	35.4	-90.8	14.7
2025-01-03 18:45:51.101860	338.2	35.2	-90.1	13.7
2025-01-03 18:45:52.246442	338.1	34.9	-90.2	14.5
2025-01-03 18:45:53.394272	338.1	34.7	-90.1	11.9
2025-01-03 18:45:54.532676	338.0	34.4	-90.8	10.3
2025-01-03 18:45:55.672169	338.0	34.2	-90.6	11.6
2025-01-03 18:45:56.816479	337.9	34.0	-91.0	13.2
2025-01-03 18:45:57.962543	337.9	33.7	-90.6	9.2
2025-01-03 18:45:59.104672	337.8	33.5	-90.3	7.7
2025-01-03 18:46:00.244757	337.8	33.2	-90.6	14.2
2025-01-03 18:46:01.391105	337.7	33.0	-90.5	10.9
2025-01-03 18:46:02.536491	337.7	32.8	-90.7	11.5
2025-01-03 18:46:03.684539	337.6	32.5	-90.6	11.3
2025-01-03 18:46:04.830032	337.6	32.3	-90.4	12.2
2025-01-03 18:46:05.974454	337.5	32.1	-90.3	11.2
2025-01-03 18:46:07.123921	337.5	31.9	-89.9	12.9
2025-01-03 18:46:08.269039	337.5	31.6	-90.2	14.9
2025-01-03 18:46:09.418270	337.4	31.4	-90.6	13.2
2025-01-03 18:46:10.568915	337.4	31.2	-90.8	12.6
2025-01-03 18:46:11.719188	337.3	31.0	-90.3	11.2
2025-01-03 18:46:12.873196	337.3	30.7	-90.5	11.7
2025-01-03 18:46:14.020273	337.3	30.5	-90.5	5.9
2025-01-03 18:46:15.167788	337.2	30.3	-90.1	6.2
2025-01-03 18:46:16.323836	337.2	30.1	-90.6	11.8
2025-01-03 18:46:17.473983	337.1	29.9	-90.4	7.5
2025-01-03 18:46:18.624091	337.1	29.7	-90.6	5.9
2025-01-03 18:46:19.773633	337.1	29.5	-90.4	11.8
2025-01-03 18:46:20.919706	337.0	29.3	-90.3	10.4
2025-01-03 18:46:22.071335	337.0	29.1	-90.2	9.8
2025-01-03 18:46:23.225678	337.0	28.9	-90.3	9.1
2025-01-03 18:46:24.370351	336.9	28.6	-90.1	7.1
2025-01-03 18:46:25.517175	336.9	28.4	-90.6	10.2
2025-01-03 18:46:26.662653	336.9	28.2	-90.5	10.2
2025-01-03 18:46:27.808596	336.8	28.0	-90.1	8.1
2025-01-03 18:46:28.945026	336.8	27.9	-90.8	6.0
2025-01-03 18:46:30.065553	336.8	27.7	-89.5	5.8
2025-01-03 18:46:31.186079	336.7	27.5	-90.1	7.9
2025-01-03 18:46:32.307017	336.7	27.3	-89.9	10.3
2025-01-03 18:46:33.427996	336.7	27.1	-89.8	11.5
2025-01-03 18:46:34.548936	336.6	26.9	-90.3	8.0
2025-01-03 18:46:35.672671	336.6	26.7	-90.1	9.1
2025-01-03 18:46:36.795253	336.6	26.5	-90.6	11.8
2025-01-03 18:46:37.915804	336.5	26.4	-90.2	10.2
2025-01-03 18:46:39.049321	336.5	26.2	-90.7	8.0
2025-01-03 18:46:40.187212	336.5	26.0	-89.5	5.7
2025-01-03 18:46:41.310280	336.5	25.8	-89.3	5.1
2025-01-03 18:46:42.448941	336.4	25.6	-90.4	7.3
2025-01-03 18:46:43.592044	336.4	25.5	-90.1	5.5
2025-01-03 18:46:44.731161	336.4	25.3	-90.5	6.7
2025-01-03 18:46:45.868143	336.4	25.1	-90.4	9.7
2025-01-03 18:46:47.018988	336.3	24.9	-90.4	5.2
2025-01-03 18:46:48.157775	336.3	24.7	-89.7	7.5
2025-01-03 18:46:49.301242	336.3	24.6	-89.9	10.1
2025-01-03 18:46:50.424447	336.3	24.4	-90.0	8.0
2025-01-03 18:46:51.566359	336.2	24.2	-90.2	11.5
2025-01-03 18:46:52.711565	336.2	24.1	-90.1	13.7
2025-01-03 18:46:53.851339	336.2	23.9	-90.1	8.4
2025-01-03 18:46:54.991151	336.2	23.7	-90.3	12.8
2025-01-03 18:46:56.136032	336.1	23.5	-89.8	9.0
2025-01-03 18:46:57.279021	336.1	23.4	-90.2	10.0
2025-01-03 18:46:58.413966	336.1	23.2	-90.3	9.5
2025-01-03 18:46:59.548929	336.1	23.1	-90.1	7.1
2025-01-03 18:47:00.686116	336.0	22.9	-89.9	12.6
2025-01-03 18:47:01.823211	336.0	22.7	-90.4	13.4
2025-01-03 18:47:02.959655	336.0	22.6	-90.3	11.1
2025-01-03 18:47:04.107107	336.0	22.4	-90.0	10.7
2025-01-03 18:47:05.257220	335.9	22.2	-89.9	13.5
2025-01-03 18:47:06.404724	335.9	22.1	-89.9	4.5
2025-01-03 18:47:07.555970	335.9	21.9	-89.6	6.5
2025-01-03 18:47:08.707752	335.9	21.8	-90.6	9.1
2025-01-03 18:47:09.866597	335.9	21.6	-90.3	7.2
2025-01-03 18:47:11.013662	335.8	21.5	-90.4	9.2
2025-01-03 18:47:12.160160	335.8	21.3	-90.0	8.9
2025-01-03 18:47:13.313741	335.8	21.1	-89.9	10.6
2025-01-03 18:47:14.470967	335.8	21.0	-90.2	5.9
2025-01-03 18:47:15.616230	335.8	20.8	-90.5	4.5
2025-01-03 18:47:16.762345	335.7	20.7	-90.6	9.0
2025-01-03 18:47:17.909425	335.7	20.5	-90.1	12.8
2025-01-03 18:47:19.037633	335.7	20.4	-90.5	7.4
2025-01-03 18:47:20.176381	335.7	20.2	-90.3	11.4
2025-01-03 18:47:21.318007	335.7	20.1	-90.3	6.8
2025-01-03 18:47:22.461535	335.7	20.0	-90.7	5.1
2025-01-03 18:47:23.597369	335.6	19.8	-91.0	5.6
2025-01-03 18:47:24.735308	335.6	19.7	-90.6	7.0
2025-01-03 18:47:25.885552	335.6	19.5	-90.9	6.4
2025-01-03 18:47:27.041470	335.6	19.4	-90.7	5.6
2025-01-03 18:47:28.184315	335.6	19.2	-89.7	4.4
2025-01-03 18:47:29.322917	335.5	19.1	-90.1	6.6
2025-01-03 18:47:30.451594	335.5	19.0	-90.8	6.7
2025-01-03 18:47:31.598700	335.5	18.8	-90.6	10.0
2025-01-03 18:47:32.733441	335.5	18.7	-90.4	10.1
2025-01-03 18:47:33.861024	335.5	18.5	-90.8	11.6
2025-01-03 18:47:34.999676	335.5	18.4	-90.7	5.7
2025-01-03 18:47:36.132230	335.5	18.3	-90.4	11.7
2025-01-03 18:47:37.274019	335.4	18.1	-90.5	5.5
2025-01-03 18:47:38.415243	335.4	18.0	-90.5	7.7
2025-01-03 18:47:39.548568	335.4	17.9	-90.7	5.1
2025-01-03 18:47:40.671357	335.4	17.7	-90.3	5.1
2025-01-03 18:47:41.814262	335.4	17.6	-90.5	8.5
2025-01-03 18:47:42.969469	335.4	17.5	-90.8	5.0
2025-01-03 18:47:44.107681	335.3	17.3	-90.2	6.3
2025-01-03 18:47:45.250479	335.3	17.2	-90.4	3.5
2025-01-03 18:47:46.393559	335.3	17.1	-90.6	5.3
2025-01-03 18:47:47.544300	335.3	16.9	-90.3	7.9
2025-01-03 18:47:48.685943	335.3	16.8	-91.0	5.4
2025-01-03 18:47:49.826925	335.3	16.7	-90.7	6.3
2025-01-03 18:47:50.971484	335.3	16.6	-90.4	4.8
2025-01-03 18:47:52.118446	335.3	16.4	-90.5	7.3
2025-01-03 18:47:53.265264	335.2	16.3	-90.0	2.9
2025-01-03 18:47:54.417289	335.2	16.2	-90.6	5.2
2025-01-03 18:47:55.566139	335.2	16.1	-90.9	4.5
2025-01-03 18:47:56.715957	335.2	15.9	-90.6	6.3
2025-01-03 18:47:57.862154	335.2	15.8	-90.4	5.1
2025-01-03 18:47:59.011340	335.2	15.7	-90.5	4.9
2025-01-03 18:48:00.158832	335.2	15.6	-90.3	6.4
2025-01-03 18:48:01.300040	335.1	15.4	-90.3	7.1
2025-01-03 18:48:02.447510	335.1	15.3	-90.7	5.6
2025-01-03 18:48:03.587221	335.1	15.2	-90.5	5.3
2025-01-03 18:48:04.717128	335.1	15.1	-90.6	6.4
2025-01-03 18:48:05.862245	335.1	15.0	-90.4	5.7
2025-01-03 18:48:07.002133	335.1	14.8	-90.8	4.9
2025-01-03 18:48:08.143314	335.1	14.7	-90.0	3.8
2025-01-03 18:48:09.283913	335.1	14.6	-90.5	3.2
2025-01-03 18:48:10.419746	335.1	14.5	-90.2	5.4
#Closed at: 2025-01-03 18:38:48.261122