passes_logs/2026/01/10/PlanumMoscow/PlanumMoscow__20260110_000435_METEOR-M2_4_rec.log

#Pass ID: 20260110_000435_METEOR-M2 4
#Satellite: METEOR-M2 4
#Configuration: METEOR-M2 4
#Start time: 2026-01-10 00:04:40.503936

#LorettStation: 1.0.0 05.05.2024
#Station: PlanumMoscow
#Location: 37.6253844 lon 55.6713361 lat
#TLE: 1 59051U 24039A   25293.94737965  .00000087  00000+0  58459-4 0  9998
#TLE: 2 59051  98.6671 251.7071 0007726 135.4772 224.7028 14.22388966 85257

#Time	Az	El	Level	SNR
2026-01-10 00:08:21.151574	47.2	24.5	-64.3	9.3
2026-01-10 00:08:22.274332	47.4	24.6	-65.1	10.3
2026-01-10 00:08:23.396585	47.6	24.7	-64.9	10.0
2026-01-10 00:08:24.518343	47.8	24.9	-65.2	10.1
2026-01-10 00:08:25.640101	48.1	25.0	-64.6	10.4
2026-01-10 00:08:26.762354	48.3	25.1	-64.9	10.4
2026-01-10 00:08:27.883617	48.5	25.3	-64.8	10.1
2026-01-10 00:08:29.005375	48.8	25.4	-64.7	10.8
2026-01-10 00:08:30.127639	49.0	25.5	-64.8	10.9
2026-01-10 00:08:31.250396	49.2	25.6	-64.3	10.8
2026-01-10 00:08:32.376651	49.5	25.8	-64.9	10.7
2026-01-10 00:08:33.498408	49.7	25.9	-65.3	11.3
2026-01-10 00:08:34.620662	50.0	26.0	-65.2	11.2
2026-01-10 00:08:35.742419	50.2	26.2	-65.5	11.6
2026-01-10 00:08:36.864177	50.5	26.3	-65.3	12.3
2026-01-10 00:08:37.986430	50.7	26.4	-65.3	12.3
2026-01-10 00:08:39.108684	51.0	26.6	-65.2	12.4
2026-01-10 00:08:40.229947	51.2	26.7	-65.4	12.7
2026-01-10 00:08:41.350712	51.5	26.8	-65.3	11.7
2026-01-10 00:08:42.471975	51.7	26.9	-65.2	11.4
2026-01-10 00:08:43.594228	52.0	27.1	-64.3	9.5
2026-01-10 00:08:44.716481	52.2	27.2	-63.8	9.7
2026-01-10 00:08:45.838743	52.5	27.3	-65.6	12.9
2026-01-10 00:08:46.960005	52.8	27.5	-63.6	8.9
2026-01-10 00:08:48.082268	53.0	27.6	-65.1	13.1
2026-01-10 00:08:49.204521	53.3	27.7	-65.4	13.6
2026-01-10 00:08:50.326280	53.6	27.9	-64.8	13.3
2026-01-10 00:08:51.448533	53.8	28.0	-64.1	14.5
2026-01-10 00:08:52.570786	54.1	28.1	-61.6	8.6
2026-01-10 00:08:53.693039	54.4	28.2	-65.1	13.6
2026-01-10 00:08:54.815293	54.7	28.4	-65.7	13.6
2026-01-10 00:08:55.935565	55.0	28.5	-65.2	13.3
2026-01-10 00:08:57.057818	55.2	28.6	-65.5	13.3
2026-01-10 00:08:58.178585	55.5	28.8	-64.9	12.6
2026-01-10 00:08:59.300838	55.8	28.9	-65.2	13.3
2026-01-10 00:09:00.422596	56.1	29.0	-64.9	11.7
2026-01-10 00:09:01.543859	56.4	29.2	-64.9	13.8
2026-01-10 00:09:02.665121	56.7	29.3	-65.0	14.0
2026-01-10 00:09:03.785887	57.0	29.4	-65.0	12.9
2026-01-10 00:09:04.909140	57.3	29.5	-65.2	13.4
2026-01-10 00:09:06.031394	57.6	29.7	-65.3	14.4
2026-01-10 00:09:07.153152	57.9	29.8	-65.1	11.9
2026-01-10 00:09:08.275405	58.2	29.9	-65.0	14.0
2026-01-10 00:09:09.396666	58.5	30.0	-64.9	12.7
2026-01-10 00:09:10.518920	58.8	30.2	-64.7	12.6
2026-01-10 00:09:11.639686	59.2	30.3	-64.7	12.3
2026-01-10 00:09:12.762443	59.5	30.4	-64.5	12.8
2026-01-10 00:09:13.883706	59.8	30.6	-64.5	13.8
2026-01-10 00:09:15.005960	60.1	30.7	-64.0	11.1
2026-01-10 00:09:16.128213	60.5	30.8	-64.7	13.8
2026-01-10 00:09:17.249971	60.8	30.9	-64.8	12.8
2026-01-10 00:09:18.371233	61.1	31.1	-63.2	11.4
2026-01-10 00:09:19.492495	61.4	31.2	-65.0	13.0
2026-01-10 00:09:20.616262	61.8	31.3	-63.8	12.4
2026-01-10 00:09:21.737028	62.1	31.4	-62.9	9.5
2026-01-10 00:09:22.859281	62.5	31.5	-63.4	12.0
2026-01-10 00:09:23.980543	62.8	31.7	-63.5	11.9
2026-01-10 00:09:25.102300	63.1	31.8	-63.8	12.7
2026-01-10 00:09:26.224554	63.5	31.9	-64.1	12.8
2026-01-10 00:09:27.345321	63.8	32.0	-64.2	12.9
2026-01-10 00:09:28.467078	64.2	32.1	-62.7	10.0
2026-01-10 00:09:29.588836	64.6	32.3	-61.9	11.4
2026-01-10 00:09:30.711090	64.9	32.4	-62.6	11.1
2026-01-10 00:09:31.832848	65.3	32.5	-62.3	11.5
2026-01-10 00:09:32.954605	65.6	32.6	-62.6	12.1
2026-01-10 00:09:34.076859	66.0	32.7	-62.3	12.1
2026-01-10 00:09:35.199616	66.4	32.8	-63.1	12.5
2026-01-10 00:09:36.320385	66.7	33.0	-63.1	12.7
2026-01-10 00:09:37.441151	67.1	33.1	-63.4	12.6
2026-01-10 00:09:38.562413	67.5	33.2	-61.4	10.5
2026-01-10 00:09:39.683179	67.9	33.3	-59.9	7.9
2026-01-10 00:09:40.804441	68.3	33.4	-61.9	8.5
2026-01-10 00:09:41.925703	68.6	33.5	-62.4	10.6
2026-01-10 00:09:43.046470	69.0	33.6	-60.2	8.2
2026-01-10 00:09:44.168733	69.4	33.7	-63.8	12.3
2026-01-10 00:09:45.291986	69.8	33.8	-63.2	10.3
2026-01-10 00:09:46.414240	70.2	33.9	-62.6	10.2
2026-01-10 00:09:47.536493	70.6	34.0	-63.4	10.8
2026-01-10 00:09:48.658251	71.0	34.1	-62.3	9.1
2026-01-10 00:09:49.780008	71.4	34.2	-62.9	10.9
2026-01-10 00:09:50.902262	71.8	34.3	-61.1	6.3
2026-01-10 00:09:52.024020	72.2	34.4	-63.0	11.5
2026-01-10 00:09:53.146273	72.6	34.5	-62.9	9.6
2026-01-10 00:09:54.268031	73.0	34.6	-62.6	7.4
2026-01-10 00:09:55.388797	73.4	34.7	-62.7	9.1
2026-01-10 00:09:56.509563	73.9	34.8	-61.2	9.4
2026-01-10 00:09:57.630825	74.3	34.9	-63.0	10.7
2026-01-10 00:09:58.752085	74.7	35.0	-61.0	10.4
2026-01-10 00:09:59.873348	75.1	35.1	-61.7	10.7
2026-01-10 00:10:00.996602	75.5	35.2	-61.2	8.2
2026-01-10 00:10:02.117864	76.0	35.3	-61.7	11.2
2026-01-10 00:10:03.240118	76.4	35.3	-60.7	5.6
2026-01-10 00:10:04.362371	76.8	35.4	-62.5	11.4
2026-01-10 00:10:05.484129	77.3	35.5	-62.2	11.1
2026-01-10 00:10:06.606383	77.7	35.6	-61.8	10.5
2026-01-10 00:10:07.727644	78.1	35.7	-63.0	10.4
2026-01-10 00:10:08.850908	78.6	35.7	-62.4	10.3
2026-01-10 00:10:09.972666	79.0	35.8	-63.0	10.9
2026-01-10 00:10:11.094920	79.5	35.9	-62.7	9.1
2026-01-10 00:10:12.216678	79.9	35.9	-63.7	11.9
2026-01-10 00:10:13.338931	80.4	36.0	-64.0	10.9
2026-01-10 00:10:14.460690	80.8	36.1	-63.3	9.8
2026-01-10 00:10:15.582448	81.3	36.2	-64.2	11.2
2026-01-10 00:10:16.707702	81.7	36.2	-63.6	10.7
2026-01-10 00:10:17.829965	82.2	36.3	-64.1	11.7
2026-01-10 00:10:18.951732	82.6	36.3	-63.1	10.1
2026-01-10 00:10:20.073490	83.1	36.4	-63.6	9.2
2026-01-10 00:10:21.195743	83.6	36.5	-63.6	10.6
2026-01-10 00:10:22.317996	84.0	36.5	-64.0	11.8
2026-01-10 00:10:23.439755	84.5	36.6	-63.3	11.5
2026-01-10 00:10:24.562513	84.9	36.6	-64.3	11.9
2026-01-10 00:10:25.683774	85.4	36.7	-60.7	5.2
2026-01-10 00:10:26.806028	85.9	36.7	-64.2	12.4
2026-01-10 00:10:27.927785	86.3	36.7	-63.7	11.5
2026-01-10 00:10:29.049047	86.8	36.8	-64.2	12.2
2026-01-10 00:10:30.171301	87.3	36.8	-64.1	12.6
2026-01-10 00:10:31.292562	87.8	36.9	-63.8	10.9
2026-01-10 00:10:32.414816	88.2	36.9	-64.3	10.8
2026-01-10 00:10:33.536573	88.7	36.9	-64.5	11.7
2026-01-10 00:10:34.658331	89.2	37.0	-64.2	12.2
2026-01-10 00:10:35.780584	89.7	37.0	-64.9	13.3
2026-01-10 00:10:36.901846	90.1	37.0	-64.9	12.7
2026-01-10 00:10:38.023603	90.6	37.1	-64.9	12.9
2026-01-10 00:10:39.144369	91.1	37.1	-64.5	13.0
2026-01-10 00:10:40.266135	91.6	37.1	-64.2	11.8
2026-01-10 00:10:41.386414	92.1	37.1	-64.9	12.9
2026-01-10 00:10:42.507676	92.5	37.1	-63.5	10.1
2026-01-10 00:10:43.628938	93.0	37.1	-65.4	13.7
2026-01-10 00:10:44.750200	93.5	37.2	-66.0	11.6
2026-01-10 00:10:45.871967	94.0	37.2	-65.4	12.2
2026-01-10 00:10:46.993724	94.5	37.2	-65.1	12.4
2026-01-10 00:10:48.114986	94.9	37.2	-65.3	12.8
2026-01-10 00:10:49.236247	95.4	37.2	-65.2	12.0
2026-01-10 00:10:50.360005	95.9	37.2	-65.5	13.4
2026-01-10 00:10:51.481763	96.4	37.2	-65.4	13.2
2026-01-10 00:10:52.604016	96.9	37.2	-65.6	13.8
2026-01-10 00:10:53.725774	97.4	37.2	-66.1	12.7
2026-01-10 00:10:54.847532	97.8	37.2	-65.8	13.4
2026-01-10 00:10:55.969785	98.3	37.2	-66.0	14.2
2026-01-10 00:10:57.091047	98.8	37.1	-65.3	13.1
2026-01-10 00:10:58.212309	99.3	37.1	-65.7	12.7
2026-01-10 00:10:59.334563	99.8	37.1	-66.2	14.1
2026-01-10 00:11:00.454834	100.3	37.1	-66.0	12.5
2026-01-10 00:11:01.576096	100.7	37.1	-66.5	14.1
2026-01-10 00:11:02.696862	101.2	37.0	-66.3	14.0
2026-01-10 00:11:03.818124	101.7	37.0	-66.4	14.0
2026-01-10 00:11:04.939386	102.2	37.0	-66.3	12.6
2026-01-10 00:11:06.062158	102.6	37.0	-66.6	14.4
2026-01-10 00:11:07.184411	103.1	36.9	-66.7	13.8
2026-01-10 00:11:08.306169	103.6	36.9	-66.6	13.9
2026-01-10 00:11:09.427926	104.1	36.9	-66.8	14.0
2026-01-10 00:11:10.550188	104.5	36.8	-66.8	14.4
2026-01-10 00:11:11.672442	105.0	36.8	-66.3	14.3
2026-01-10 00:11:12.794200	105.5	36.7	-66.7	13.9
2026-01-10 00:11:13.916957	106.0	36.7	-66.4	13.0
2026-01-10 00:11:15.039211	106.4	36.6	-66.8	13.6
2026-01-10 00:11:16.160968	106.9	36.6	-66.7	15.0
2026-01-10 00:11:17.282725	107.4	36.5	-66.2	13.7
2026-01-10 00:11:18.404988	107.8	36.5	-66.5	14.3
2026-01-10 00:11:19.527241	108.3	36.4	-66.9	14.3
2026-01-10 00:11:20.649504	108.7	36.4	-66.8	15.4
2026-01-10 00:11:21.771262	109.2	36.3	-66.6	14.6
2026-01-10 00:11:22.893020	109.7	36.3	-66.6	14.3
2026-01-10 00:11:24.014282	110.1	36.2	-66.8	15.4
2026-01-10 00:11:25.135543	110.6	36.1	-66.6	14.8
2026-01-10 00:11:26.257301	111.0	36.1	-66.5	15.5
2026-01-10 00:11:27.379554	111.5	36.0	-66.5	14.8
2026-01-10 00:11:28.501816	111.9	35.9	-66.5	14.3
2026-01-10 00:11:29.624070	112.4	35.8	-64.6	10.2
2026-01-10 00:11:30.745341	112.8	35.8	-66.7	14.6
2026-01-10 00:11:31.867595	113.3	35.7	-66.5	14.3
2026-01-10 00:11:32.989353	113.7	35.6	-66.9	12.4
2026-01-10 00:11:34.111110	114.1	35.5	-66.3	14.2
2026-01-10 00:11:35.232373	114.6	35.5	-66.2	13.7
2026-01-10 00:11:36.354131	115.0	35.4	-66.8	14.7
2026-01-10 00:11:37.476384	115.4	35.3	-66.7	14.5
2026-01-10 00:11:38.597656	115.9	35.2	-66.0	13.8
2026-01-10 00:11:39.719909	116.3	35.1	-66.6	14.3
2026-01-10 00:11:40.842163	116.7	35.0	-66.8	13.8
2026-01-10 00:11:41.963920	117.1	34.9	-66.6	13.5
2026-01-10 00:11:43.085182	117.6	34.9	-66.3	13.7
2026-01-10 00:11:44.206444	118.0	34.8	-66.7	13.6
2026-01-10 00:11:45.328698	118.4	34.7	-66.7	13.0
2026-01-10 00:11:46.450951	118.8	34.6	-67.0	14.1
2026-01-10 00:11:47.572709	119.2	34.5	-66.3	11.8
2026-01-10 00:11:48.694963	119.6	34.4	-66.9	13.3
2026-01-10 00:11:49.816224	120.0	34.3	-66.7	13.7
2026-01-10 00:11:50.937981	120.5	34.2	-66.7	13.9
2026-01-10 00:11:52.060235	120.9	34.1	-66.3	13.5
2026-01-10 00:11:53.181993	121.3	34.0	-66.4	14.4
2026-01-10 00:11:54.303254	121.7	33.9	-66.4	13.6
2026-01-10 00:11:55.425012	122.0	33.8	-66.5	14.4
2026-01-10 00:11:56.547265	122.4	33.7	-66.3	14.1
2026-01-10 00:11:57.669023	122.8	33.6	-65.8	13.2
2026-01-10 00:11:58.790780	123.2	33.4	-65.9	12.9
2026-01-10 00:11:59.912042	123.6	33.3	-65.7	13.7
2026-01-10 00:12:01.033800	124.0	33.2	-66.6	14.4
2026-01-10 00:12:02.154566	124.4	33.1	-66.2	14.1
2026-01-10 00:12:03.277324	124.7	33.0	-65.7	13.2
2026-01-10 00:12:04.399082	125.1	32.9	-66.4	14.0
2026-01-10 00:12:05.521335	125.5	32.8	-66.5	14.2
2026-01-10 00:12:06.643093	125.9	32.7	-66.7	15.0
2026-01-10 00:12:07.765346	126.2	32.5	-66.4	15.1
2026-01-10 00:12:08.887600	126.6	32.4	-66.1	12.6
2026-01-10 00:12:10.009358	126.9	32.3	-66.7	14.9
2026-01-10 00:12:11.131612	127.3	32.2	-66.8	14.7
2026-01-10 00:12:12.253874	127.7	32.1	-66.6	14.7
2026-01-10 00:12:13.375135	128.0	31.9	-67.0	15.0
2026-01-10 00:12:14.496894	128.4	31.8	-66.5	13.8
2026-01-10 00:12:15.618651	128.7	31.7	-66.3	13.6
2026-01-10 00:12:16.740409	129.1	31.6	-66.6	14.4
2026-01-10 00:12:17.862167	129.4	31.5	-66.8	14.8
2026-01-10 00:12:18.983924	129.7	31.3	-66.7	14.0
2026-01-10 00:12:20.105683	130.1	31.2	-66.6	14.5
2026-01-10 00:12:21.227936	130.4	31.1	-66.1	15.2
2026-01-10 00:12:22.349694	130.8	31.0	-66.1	12.4
2026-01-10 00:12:23.471947	131.1	30.8	-66.4	15.1
2026-01-10 00:12:24.594201	131.4	30.7	-66.1	13.4
2026-01-10 00:12:25.715958	131.7	30.6	-65.9	14.3
2026-01-10 00:12:26.838212	132.1	30.5	-66.7	15.1
2026-01-10 00:12:27.960474	132.4	30.3	-66.4	14.8
2026-01-10 00:12:29.082728	132.7	30.2	-66.7	14.9
2026-01-10 00:12:30.204981	133.0	30.1	-66.5	15.3
2026-01-10 00:12:31.326738	133.3	30.0	-66.8	15.2
2026-01-10 00:12:32.448992	133.6	29.8	-66.9	14.8
2026-01-10 00:12:33.569758	134.0	29.7	-66.3	14.7
2026-01-10 00:12:34.690037	134.3	29.6	-66.5	14.4
2026-01-10 00:12:35.810812	134.6	29.4	-66.5	12.7
2026-01-10 00:12:36.932074	134.9	29.3	-66.2	14.1
2026-01-10 00:12:38.052840	135.2	29.2	-66.6	14.5
2026-01-10 00:12:39.175093	135.5	29.0	-66.2	14.3
2026-01-10 00:12:40.296357	135.8	28.9	-66.7	14.4
2026-01-10 00:12:41.417123	136.0	28.8	-66.8	14.5
2026-01-10 00:12:42.538393	136.3	28.7	-66.6	14.2
2026-01-10 00:12:43.663170	136.6	28.5	-66.6	14.9
2026-01-10 00:12:44.785928	136.9	28.4	-66.5	15.0
2026-01-10 00:12:45.907686	137.2	28.3	-66.4	14.0
2026-01-10 00:12:47.029939	137.5	28.1	-66.2	14.7
2026-01-10 00:12:48.152193	137.8	28.0	-66.6	14.6
2026-01-10 00:12:49.273951	138.0	27.9	-66.4	14.7
2026-01-10 00:12:50.397205	138.3	27.7	-66.6	14.3
2026-01-10 00:12:51.517970	138.6	27.6	-66.8	14.4
2026-01-10 00:12:52.640232	138.8	27.5	-66.7	14.8
2026-01-10 00:12:53.762485	139.1	27.3	-66.8	14.5
2026-01-10 00:12:54.883747	139.4	27.2	-66.7	14.5
2026-01-10 00:12:56.006000	139.6	27.1	-66.6	14.6
2026-01-10 00:12:57.127757	139.9	26.9	-66.5	14.6
2026-01-10 00:12:58.250011	140.2	26.8	-66.5	14.9
2026-01-10 00:12:59.371272	140.4	26.7	-66.6	14.6
2026-01-10 00:13:00.492534	140.7	26.6	-66.4	14.4
2026-01-10 00:13:01.614291	140.9	26.4	-66.2	14.0
2026-01-10 00:13:02.736049	141.2	26.3	-66.6	14.5
2026-01-10 00:13:03.858302	141.4	26.2	-66.5	14.7
2026-01-10 00:13:04.980060	141.7	26.0	-66.6	14.1
2026-01-10 00:13:06.101818	141.9	25.9	-66.7	14.8
2026-01-10 00:13:07.223080	142.2	25.8	-66.7	15.0
2026-01-10 00:13:08.344837	142.4	25.6	-66.1	13.6
2026-01-10 00:13:09.467091	142.6	25.5	-66.3	14.6
2026-01-10 00:13:10.588849	142.9	25.4	-66.4	14.9
2026-01-10 00:13:11.710111	143.1	25.2	-66.6	14.7
2026-01-10 00:13:12.832365	143.3	25.1	-66.4	15.4
2026-01-10 00:13:13.954123	143.6	25.0	-65.9	14.3
2026-01-10 00:13:15.075385	143.8	24.9	-66.0	13.9
2026-01-10 00:13:16.196151	144.0	24.7	-66.4	14.6
2026-01-10 00:13:17.316917	144.3	24.6	-65.9	13.8
2026-01-10 00:13:18.438179	144.5	24.5	-66.4	14.0
2026-01-10 00:13:19.560936	144.7	24.3	-66.5	14.7
2026-01-10 00:13:20.681703	144.9	24.2	-66.1	14.8
2026-01-10 00:13:21.803470	145.1	24.1	-66.1	14.5
2026-01-10 00:13:22.924236	145.4	23.9	-66.4	14.3
2026-01-10 00:13:24.046507	145.6	23.8	-66.5	15.3
2026-01-10 00:13:25.168761	145.8	23.7	-66.5	14.7
2026-01-10 00:13:26.290023	146.0	23.6	-66.6	14.7
2026-01-10 00:13:27.412276	146.2	23.4	-66.5	14.7
2026-01-10 00:13:28.534033	146.4	23.3	-66.7	14.2
2026-01-10 00:13:29.656287	146.6	23.2	-66.3	14.2
2026-01-10 00:13:30.778540	146.8	23.1	-66.6	14.2
2026-01-10 00:13:31.899802	147.0	22.9	-66.4	13.6
2026-01-10 00:13:33.021559	147.2	22.8	-66.7	14.4
2026-01-10 00:13:34.142821	147.4	22.7	-66.4	14.0
2026-01-10 00:13:35.264579	147.6	22.5	-66.7	14.1
2026-01-10 00:13:36.385840	147.8	22.4	-66.6	13.6
2026-01-10 00:13:37.507597	148.0	22.3	-66.9	13.9
2026-01-10 00:13:38.629860	148.2	22.2	-66.8	14.4
2026-01-10 00:13:39.750626	148.4	22.0	-66.9	14.3
2026-01-10 00:13:40.873889	148.6	21.9	-66.8	14.4
2026-01-10 00:13:41.995152	148.8	21.8	-67.3	14.6
2026-01-10 00:13:43.117405	149.0	21.7	-67.0	14.4
2026-01-10 00:13:44.239162	149.2	21.6	-66.5	13.2
2026-01-10 00:13:45.361416	149.4	21.4	-66.8	13.9
2026-01-10 00:13:46.483173	149.5	21.3	-66.9	14.5
2026-01-10 00:13:47.604443	149.7	21.2	-67.2	13.9
2026-01-10 00:13:48.727697	149.9	21.1	-67.4	14.1
2026-01-10 00:13:49.849960	150.1	20.9	-67.2	14.0
2026-01-10 00:13:50.972213	150.3	20.8	-67.2	14.2
2026-01-10 00:13:52.093971	150.4	20.7	-67.2	14.0
2026-01-10 00:13:53.216225	150.6	20.6	-67.3	14.1
2026-01-10 00:13:54.337982	150.8	20.5	-67.2	14.0
2026-01-10 00:13:55.460235	151.0	20.3	-67.0	12.7
2026-01-10 00:13:56.582497	151.1	20.2	-67.2	13.1
2026-01-10 00:13:57.704751	151.3	20.1	-67.1	13.6
2026-01-10 00:13:58.826013	151.5	20.0	-67.0	13.9
2026-01-10 00:13:59.948267	151.6	19.9	-67.1	13.7
2026-01-10 00:14:01.070520	151.8	19.7	-66.9	12.9
2026-01-10 00:14:02.192278	152.0	19.6	-67.2	13.4
2026-01-10 00:14:03.314531	152.1	19.5	-66.8	13.3
2026-01-10 00:14:04.437298	152.3	19.4	-67.0	13.5
2026-01-10 00:14:05.558561	152.5	19.3	-67.2	14.3
2026-01-10 00:14:06.680320	152.6	19.1	-67.0	13.6
2026-01-10 00:14:07.801581	152.8	19.0	-67.4	14.3
2026-01-10 00:14:08.922852	152.9	18.9	-67.3	14.2
2026-01-10 00:14:10.044617	153.1	18.8	-67.2	13.4
2026-01-10 00:14:11.166375	153.2	18.7	-67.3	13.8
2026-01-10 00:14:12.289133	153.4	18.6	-67.4	13.9
2026-01-10 00:14:13.410890	153.6	18.4	-66.8	13.1
2026-01-10 00:14:14.532649	153.7	18.3	-67.1	13.4
2026-01-10 00:14:15.654902	153.9	18.2	-67.0	13.6
2026-01-10 00:14:16.776660	154.0	18.1	-66.7	13.4
2026-01-10 00:14:17.898913	154.2	18.0	-67.3	13.7
2026-01-10 00:14:19.020671	154.3	17.9	-67.0	13.8
2026-01-10 00:14:20.143925	154.5	17.8	-66.9	13.7
2026-01-10 00:14:21.265187	154.6	17.7	-67.2	13.6
2026-01-10 00:14:22.387440	154.7	17.5	-66.9	13.1
2026-01-10 00:14:23.509197	154.9	17.4	-66.5	12.8
2026-01-10 00:14:24.630954	155.0	17.3	-66.6	12.2
2026-01-10 00:14:25.753216	155.2	17.2	-66.9	13.6
2026-01-10 00:14:26.874478	155.3	17.1	-67.2	13.4
2026-01-10 00:14:27.996236	155.5	17.0	-66.9	13.3
2026-01-10 00:14:29.117994	155.6	16.9	-67.1	12.9
2026-01-10 00:14:30.240247	155.7	16.8	-66.9	12.8
2026-01-10 00:14:31.362500	155.9	16.7	-66.2	11.9
2026-01-10 00:14:32.484754	156.0	16.5	-66.6	13.7
2026-01-10 00:14:33.607015	156.1	16.4	-66.8	13.3
2026-01-10 00:14:34.728773	156.3	16.3	-66.7	12.4
2026-01-10 00:14:35.850530	156.4	16.2	-66.3	12.8
2026-01-10 00:14:36.972296	156.5	16.1	-66.4	12.7
2026-01-10 00:14:38.094054	156.7	16.0	-67.1	12.9
2026-01-10 00:14:39.216307	156.8	15.9	-66.8	13.2
2026-01-10 00:14:40.338561	156.9	15.8	-66.9	12.6
2026-01-10 00:14:41.459823	157.1	15.7	-66.6	13.0
2026-01-10 00:14:42.581085	157.2	15.6	-66.4	12.5
2026-01-10 00:14:43.701851	157.3	15.5	-66.9	12.6
2026-01-10 00:14:44.823617	157.4	15.4	-66.3	11.0
2026-01-10 00:14:45.945375	157.6	15.3	-66.2	10.7
2026-01-10 00:14:47.067140	157.7	15.2	-66.3	11.3
2026-01-10 00:14:48.187906	157.8	15.0	-66.4	10.7
2026-01-10 00:14:49.308672	157.9	14.9	-66.4	10.8
2026-01-10 00:14:50.429438	158.0	14.8	-66.5	10.8
2026-01-10 00:14:51.551692	158.2	14.7	-66.1	10.7
2026-01-10 00:14:52.676459	158.3	14.6	-66.6	11.1
2026-01-10 00:14:53.797720	158.4	14.5	-66.5	11.1
2026-01-10 00:14:54.918983	158.5	14.4	-66.7	11.6
2026-01-10 00:14:56.040749	158.6	14.3	-66.7	11.8
2026-01-10 00:14:57.162012	158.8	14.2	-66.4	9.9
2026-01-10 00:14:58.283274	158.9	14.1	-66.4	10.7
2026-01-10 00:14:59.404535	159.0	14.0	-66.7	11.9
2026-01-10 00:15:00.526293	159.1	13.9	-66.7	10.6
2026-01-10 00:15:01.647059	159.2	13.8	-66.1	9.3
2026-01-10 00:15:02.769312	159.3	13.7	-66.2	10.2
2026-01-10 00:15:03.890574	159.4	13.6	-66.1	10.0
2026-01-10 00:15:05.012332	159.6	13.5	-66.7	10.7
2026-01-10 00:15:06.134585	159.7	13.4	-65.9	9.4
2026-01-10 00:15:07.256343	159.8	13.3	-66.5	9.2
2026-01-10 00:15:08.378596	159.9	13.2	-66.5	11.1
2026-01-10 00:15:09.499362	160.0	13.1	-66.6	10.9
2026-01-10 00:15:10.621120	160.1	13.0	-66.4	10.6
2026-01-10 00:15:11.742878	160.2	12.9	-66.2	9.7
2026-01-10 00:15:12.863643	160.3	12.8	-66.8	10.1
2026-01-10 00:15:13.984906	160.4	12.7	-66.1	10.3
2026-01-10 00:15:15.105671	160.5	12.6	-66.4	10.0
2026-01-10 00:15:16.227430	160.6	12.5	-66.5	10.3
2026-01-10 00:15:17.348692	160.7	12.4	-66.3	10.5
2026-01-10 00:15:18.469954	160.8	12.3	-66.6	10.0
2026-01-10 00:15:19.592207	160.9	12.3	-66.7	10.5
2026-01-10 00:15:20.713965	161.0	12.2	-66.2	10.7
2026-01-10 00:15:21.835227	161.1	12.1	-66.3	9.3
2026-01-10 00:15:22.956497	161.2	12.0	-66.3	10.4
2026-01-10 00:15:24.077264	161.3	11.9	-66.0	10.0
2026-01-10 00:15:25.198526	161.4	11.8	-66.5	10.0
2026-01-10 00:15:26.319788	161.5	11.7	-66.5	9.3
2026-01-10 00:15:27.442041	161.6	11.6	-66.0	9.8
2026-01-10 00:15:28.564295	161.7	11.5	-66.5	10.3
2026-01-10 00:15:29.686548	161.8	11.4	-66.2	10.2
2026-01-10 00:15:30.809307	161.9	11.3	-66.2	8.8
2026-01-10 00:15:31.931560	162.0	11.2	-66.1	9.9
2026-01-10 00:15:33.052822	162.1	11.1	-66.2	9.0
2026-01-10 00:15:34.180084	162.2	11.0	-66.2	9.8
2026-01-10 00:15:35.302338	162.3	10.9	-65.9	9.9
2026-01-10 00:15:36.423600	162.4	10.8	-66.2	8.8
2026-01-10 00:15:37.545357	162.5	10.8	-66.1	8.7
2026-01-10 00:15:38.667115	162.6	10.7	-66.1	9.8
2026-01-10 00:15:39.788873	162.7	10.6	-66.2	9.5
2026-01-10 00:15:40.911126	162.8	10.5	-66.1	9.0
2026-01-10 00:15:42.032883	162.9	10.4	-66.0	8.0
2026-01-10 00:15:43.154642	163.0	10.3	-66.1	9.6
2026-01-10 00:15:44.276895	163.0	10.2	-66.1	9.4
2026-01-10 00:15:45.398652	163.1	10.1	-65.1	7.8
2026-01-10 00:15:46.519914	163.2	10.0	-65.9	8.8
2026-01-10 00:15:47.642167	163.3	9.9	-65.5	7.8
2026-01-10 00:15:48.763924	163.4	9.9	-65.6	9.3
2026-01-10 00:15:49.885682	163.5	9.8	-65.7	9.2
2026-01-10 00:15:51.007439	163.6	9.7	-65.8	9.4
2026-01-10 00:15:52.128701	163.7	9.6	-65.9	9.1
2026-01-10 00:15:53.249963	163.7	9.5	-65.8	9.2
2026-01-10 00:15:54.371225	163.8	9.4	-65.5	8.6
2026-01-10 00:15:55.492982	163.9	9.3	-65.6	9.0
2026-01-10 00:15:56.614244	164.0	9.2	-66.2	9.1
2026-01-10 00:15:57.735505	164.1	9.2	-66.1	8.2
2026-01-10 00:15:58.857264	164.2	9.1	-65.8	8.2
2026-01-10 00:15:59.978030	164.2	9.0	-65.5	8.6
2026-01-10 00:16:01.099292	164.3	8.9	-65.7	8.8
2026-01-10 00:16:02.221059	164.4	8.8	-65.8	8.9
2026-01-10 00:16:03.342321	164.5	8.7	-65.0	6.2
2026-01-10 00:16:04.464574	164.6	8.6	-65.8	8.2
2026-01-10 00:16:05.585341	164.7	8.6	-65.7	8.7
2026-01-10 00:16:06.707595	164.7	8.5	-65.6	8.8
2026-01-10 00:16:07.829352	164.8	8.4	-65.6	7.8
2026-01-10 00:16:08.951110	164.9	8.3	-65.6	7.7
2026-01-10 00:16:10.072868	165.0	8.2	-65.2	6.3
2026-01-10 00:16:11.194625	165.1	8.1	-65.6	7.4
2026-01-10 00:16:12.316382	165.1	8.1	-65.4	7.5
2026-01-10 00:16:13.438148	165.2	8.0	-65.1	6.8
2026-01-10 00:16:14.560401	165.3	7.9	-65.9	8.4
2026-01-10 00:16:15.682160	165.4	7.8	-65.4	7.3
2026-01-10 00:16:16.804413	165.4	7.7	-65.5	7.5
2026-01-10 00:16:17.926170	165.5	7.6	-65.9	7.6
2026-01-10 00:16:19.048424	165.6	7.6	-65.4	6.8
2026-01-10 00:16:20.170678	165.7	7.5	-65.4	7.2
2026-01-10 00:16:21.293436	165.7	7.4	-65.4	6.1
2026-01-10 00:16:22.415193	165.8	7.3	-65.2	7.8
2026-01-10 00:16:23.536951	165.9	7.2	-65.6	7.6
2026-01-10 00:16:24.658709	166.0	7.2	-65.5	5.8
2026-01-10 00:16:25.780467	166.0	7.1	-65.8	6.5
2026-01-10 00:16:26.902225	166.1	7.0	-65.9	6.9
2026-01-10 00:16:28.024984	166.2	6.9	-65.4	7.5
2026-01-10 00:16:29.146246	166.3	6.8	-65.7	7.3
2026-01-10 00:16:30.268003	166.3	6.8	-65.7	6.1
2026-01-10 00:16:31.393762	166.4	6.7	-65.3	7.3
2026-01-10 00:16:32.515519	166.5	6.6	-65.6	7.5
2026-01-10 00:16:33.637773	166.5	6.5	-64.6	5.4
2026-01-10 00:16:34.759530	166.6	6.4	-65.4	6.8
2026-01-10 00:16:35.881288	166.7	6.4	-65.4	6.3
2026-01-10 00:16:37.002550	166.7	6.3	-65.9	5.7
2026-01-10 00:16:38.123318	166.8	6.2	-65.9	5.7
2026-01-10 00:16:39.246084	166.9	6.1	-65.8	6.4
2026-01-10 00:16:40.367347	166.9	6.0	-65.7	7.5
2026-01-10 00:16:41.489600	167.0	6.0	-67.7	7.3
2026-01-10 00:16:42.611358	167.1	5.9	-71.2	0.0
2026-01-10 00:16:43.733115	167.2	5.8	-71.5	0.0
2026-01-10 00:16:44.855369	167.2	5.7	-71.2	0.0
2026-01-10 00:16:45.976631	167.3	5.7	-71.0	0.0
2026-01-10 00:16:47.098389	167.4	5.6	-71.4	0.0
2026-01-10 00:16:48.222643	167.4	5.5	-72.0	0.0
2026-01-10 00:16:49.344896	167.5	5.4	-72.5	0.0
2026-01-10 00:16:50.466654	167.5	5.4	-72.9	0.0
2026-01-10 00:16:51.588907	167.6	5.3	-72.9	0.0
2026-01-10 00:16:52.710169	167.7	5.2	-73.1	0.0
2026-01-10 00:16:53.832422	167.7	5.1	-72.2	0.0
2026-01-10 00:16:54.954676	167.8	5.1	-71.9	0.0
2026-01-10 00:16:56.079938	167.9	5.0	-72.0	0.0
#Closed at: 2026-01-10 00:04:35.506295