passes_logs/2025/01/02/LEX_Murmansk/LEX_Murmansk__20250102_164314_NOAA_19_rec.log

#Pass ID: 20250102_164314_NOAA 19
#Satellite: NOAA 19
#Configuration: NOAA 19
#Start time: 2025-01-02 16:43:09.776677

#LorettStation: 1.0.0 05.05.2024
#Station: LEX_Murmansk
#Location: 33.156738 lon 68.926811 lat
#TLE: 1 33591U 09005A   25001.83569820  .00001454  00000+0  79919-3 0  9995
#TLE: 2 33591  99.0217  65.4951 0014707  92.5482 267.7374 14.13252981819684

#Time	Az	El	Level	SNR
2025-01-02 16:43:22.025715	122.7	16.3	-92.2	3.5
2025-01-02 16:43:23.178009	122.6	16.4	-91.7	3.7
2025-01-02 16:43:24.329969	122.6	16.5	-91.8	6.6
2025-01-02 16:43:25.482219	122.5	16.7	-92.4	5.6
2025-01-02 16:43:26.639276	122.4	16.8	-92.2	15.6
2025-01-02 16:43:27.796360	122.4	16.9	-92.5	7.0
2025-01-02 16:43:28.958198	122.3	17.0	-92.3	7.5
2025-01-02 16:43:30.123999	122.2	17.2	-92.1	4.9
2025-01-02 16:43:31.285495	122.1	17.3	-91.8	6.7
2025-01-02 16:43:32.451074	122.1	17.4	-92.2	5.9
2025-01-02 16:43:33.614629	122.0	17.6	-92.2	6.2
2025-01-02 16:43:34.784409	121.9	17.7	-92.6	5.9
2025-01-02 16:43:35.948458	121.8	17.8	-92.7	1.9
2025-01-02 16:43:37.111110	121.8	18.0	-92.1	3.0
2025-01-02 16:43:38.274638	121.7	18.1	-92.2	2.0
2025-01-02 16:43:39.434272	121.6	18.2	-92.1	2.2
2025-01-02 16:43:40.599924	121.5	18.4	-91.9	5.0
2025-01-02 16:43:41.762310	121.5	18.5	-92.6	6.3
2025-01-02 16:43:42.924834	121.4	18.6	-92.5	10.8
2025-01-02 16:43:44.085840	121.3	18.8	-92.3	10.8
2025-01-02 16:43:45.250016	121.2	18.9	-92.2	6.9
2025-01-02 16:43:46.410904	121.1	19.1	-91.3	6.4
2025-01-02 16:43:47.582423	121.1	19.2	-92.4	12.1
2025-01-02 16:43:48.745471	121.0	19.3	-92.3	9.0
2025-01-02 16:43:49.917701	120.9	19.5	-92.1	9.3
2025-01-02 16:43:51.075347	120.8	19.6	-92.0	2.4
2025-01-02 16:43:52.240018	120.7	19.8	-91.9	3.3
2025-01-02 16:43:53.403329	120.6	19.9	-91.9	3.7
2025-01-02 16:43:54.563121	120.5	20.0	-92.6	2.8
2025-01-02 16:43:55.727964	120.5	20.2	-92.5	1.7
2025-01-02 16:43:56.891696	120.4	20.3	-92.2	9.1
2025-01-02 16:43:58.050486	120.3	20.5	-92.2	3.8
2025-01-02 16:43:59.218519	120.2	20.6	-91.9	8.2
2025-01-02 16:44:00.370282	120.1	20.8	-92.1	9.5
2025-01-02 16:44:01.530481	120.0	20.9	-92.1	10.1
2025-01-02 16:44:02.692145	119.9	21.1	-92.0	9.7
2025-01-02 16:44:03.860139	119.8	21.2	-91.8	8.5
2025-01-02 16:44:05.016133	119.7	21.4	-91.7	15.5
2025-01-02 16:44:06.181174	119.6	21.5	-91.3	9.0
2025-01-02 16:44:07.342999	119.5	21.7	-91.2	6.1
2025-01-02 16:44:08.506781	119.4	21.8	-91.4	2.2
2025-01-02 16:44:09.664058	119.3	22.0	-91.7	5.0
2025-01-02 16:44:10.822561	119.2	22.1	-92.2	2.4
2025-01-02 16:44:11.982891	119.1	22.3	-91.0	2.1
2025-01-02 16:44:13.145275	119.0	22.4	-91.8	8.0
2025-01-02 16:44:14.307217	118.9	22.6	-91.8	10.7
2025-01-02 16:44:15.470967	118.8	22.8	-92.4	7.4
2025-01-02 16:44:16.631254	118.7	22.9	-92.3	10.1
2025-01-02 16:44:17.793069	118.6	23.1	-92.2	5.4
2025-01-02 16:44:18.951849	118.5	23.2	-92.3	5.4
2025-01-02 16:44:20.118316	118.4	23.4	-92.0	14.5
2025-01-02 16:44:21.282500	118.3	23.6	-91.8	10.1
2025-01-02 16:44:22.444418	118.2	23.7	-92.1	16.6
2025-01-02 16:44:23.609613	118.1	23.9	-91.0	11.3
2025-01-02 16:44:24.768121	117.9	24.1	-92.2	2.8
2025-01-02 16:44:25.923380	117.8	24.2	-92.3	4.7
2025-01-02 16:44:27.083364	117.7	24.4	-91.9	1.3
2025-01-02 16:44:28.249272	117.6	24.6	-91.8	1.1
2025-01-02 16:44:29.407605	117.5	24.7	-91.8	3.7
2025-01-02 16:44:30.569035	117.4	24.9	-91.8	8.8
2025-01-02 16:44:31.719621	117.2	25.1	-91.8	5.8
2025-01-02 16:44:32.839774	117.1	25.2	-92.0	8.3
2025-01-02 16:44:33.959821	117.0	25.4	-91.7	7.3
2025-01-02 16:44:35.081549	116.9	25.6	-91.9	5.2
2025-01-02 16:44:36.202906	116.8	25.7	-91.9	4.3
2025-01-02 16:44:37.323325	116.6	25.9	-91.7	7.2
2025-01-02 16:44:38.443568	116.5	26.1	-91.8	3.1
2025-01-02 16:44:39.566201	116.4	26.2	-92.2	5.9
2025-01-02 16:44:40.704692	116.2	26.4	-92.5	2.5
2025-01-02 16:44:41.835870	116.1	26.6	-92.4	1.9
2025-01-02 16:44:42.971639	116.0	26.8	-92.4	2.2
2025-01-02 16:44:44.245138	115.8	27.0	-91.7	1.7
2025-01-02 16:44:45.471863	115.7	27.2	-92.3	1.1
2025-01-02 16:44:46.614824	115.6	27.3	-92.2	2.0
2025-01-02 16:44:47.769319	115.4	27.5	-91.9	3.5
2025-01-02 16:44:48.913090	115.3	27.7	-91.1	2.7
2025-01-02 16:44:50.077861	115.1	27.9	-91.9	3.6
2025-01-02 16:44:51.220653	115.0	28.1	-91.9	5.4
2025-01-02 16:44:52.376382	114.8	28.3	-90.7	2.9
2025-01-02 16:44:53.536366	114.7	28.5	-92.3	2.9
2025-01-02 16:44:54.701774	114.5	28.6	-92.4	5.3
2025-01-02 16:44:55.858169	114.4	28.8	-92.0	5.2
2025-01-02 16:44:57.023925	114.2	29.0	-92.2	4.5
2025-01-02 16:44:58.185340	114.1	29.2	-92.1	2.9
2025-01-02 16:44:59.346763	113.9	29.4	-91.6	2.5
2025-01-02 16:45:00.493243	113.7	29.6	-92.4	1.7
2025-01-02 16:45:01.637201	113.6	29.8	-92.6	3.6
2025-01-02 16:45:02.801810	113.4	30.0	-92.8	0.4
2025-01-02 16:45:03.962506	113.2	30.2	-92.7	3.1
2025-01-02 16:45:05.125786	113.1	30.4	-92.5	4.3
2025-01-02 16:45:06.284634	112.9	30.6	-92.1	7.4
2025-01-02 16:45:07.442754	112.7	30.8	-92.5	10.0
2025-01-02 16:45:08.599807	112.5	31.0	-92.4	15.4
2025-01-02 16:45:09.768020	112.4	31.2	-92.5	14.3
2025-01-02 16:45:10.926420	112.2	31.4	-92.5	8.7
2025-01-02 16:45:12.093218	112.0	31.6	-92.3	11.1
2025-01-02 16:45:13.256121	111.8	31.8	-91.9	11.9
2025-01-02 16:45:14.420055	111.6	32.0	-92.2	13.8
2025-01-02 16:45:15.575538	111.4	32.3	-92.5	16.7
2025-01-02 16:45:16.739088	111.2	32.5	-92.3	10.9
2025-01-02 16:45:17.903157	111.0	32.7	-92.3	9.0
2025-01-02 16:45:19.067094	110.8	32.9	-92.5	6.9
2025-01-02 16:45:20.223794	110.6	33.1	-92.1	1.3
2025-01-02 16:45:21.390399	110.4	33.3	-92.2	3.7
2025-01-02 16:45:22.554002	110.2	33.5	-92.7	5.8
2025-01-02 16:45:23.717801	110.0	33.8	-92.7	8.2
2025-01-02 16:45:24.886090	109.8	34.0	-92.6	12.8
2025-01-02 16:45:26.049892	109.6	34.2	-92.2	15.0
2025-01-02 16:45:27.216996	109.4	34.4	-91.9	17.7
2025-01-02 16:45:28.381719	109.1	34.6	-92.0	11.2
2025-01-02 16:45:29.548477	108.9	34.9	-92.6	14.3
2025-01-02 16:45:30.706500	108.7	35.1	-92.0	8.1
2025-01-02 16:45:31.867808	108.5	35.3	-92.0	13.4
2025-01-02 16:45:33.040532	108.2	35.5	-91.3	18.7
2025-01-02 16:45:34.199965	108.0	35.8	-91.6	21.9
2025-01-02 16:45:35.368344	107.7	36.0	-91.6	10.0
2025-01-02 16:45:36.527593	107.5	36.2	-91.9	9.9
2025-01-02 16:45:37.689635	107.2	36.5	-91.7	9.0
2025-01-02 16:45:38.852489	107.0	36.7	-91.6	2.3
2025-01-02 16:45:40.014063	106.7	36.9	-92.0	3.6
2025-01-02 16:45:41.175401	106.5	37.2	-91.6	2.9
2025-01-02 16:45:42.338385	106.2	37.4	-91.4	1.2
2025-01-02 16:45:43.500855	105.9	37.6	-91.6	6.3
2025-01-02 16:45:44.672815	105.7	37.9	-91.5	9.6
2025-01-02 16:45:45.825879	105.4	38.1	-92.1	11.7
2025-01-02 16:45:46.979545	105.1	38.3	-91.9	11.9
2025-01-02 16:45:48.117689	104.8	38.6	-91.6	9.9
2025-01-02 16:45:49.238680	104.6	38.8	-91.4	4.8
2025-01-02 16:45:50.359219	104.3	39.0	-91.6	2.1
2025-01-02 16:45:51.479820	104.0	39.3	-91.7	8.3
2025-01-02 16:45:52.600232	103.7	39.5	-92.4	9.1
2025-01-02 16:45:53.721066	103.4	39.7	-92.4	5.7
2025-01-02 16:45:54.841505	103.1	40.0	-92.4	8.7
2025-01-02 16:45:55.965641	102.8	40.2	-92.7	12.9
2025-01-02 16:45:57.106580	102.5	40.4	-92.6	10.7
2025-01-02 16:45:58.261522	102.2	40.7	-92.4	9.9
2025-01-02 16:45:59.421574	101.8	40.9	-92.4	3.8
2025-01-02 16:46:00.574557	101.5	41.2	-92.9	2.8
2025-01-02 16:46:01.727453	101.2	41.4	-92.4	3.4
2025-01-02 16:46:02.888762	100.8	41.7	-92.7	2.9
2025-01-02 16:46:04.042791	100.5	41.9	-92.8	3.5
2025-01-02 16:46:05.198430	100.1	42.2	-92.2	4.7
2025-01-02 16:46:06.329949	99.8	42.4	-92.4	8.2
2025-01-02 16:46:07.476743	99.4	42.7	-92.3	9.7
2025-01-02 16:46:08.632056	99.1	42.9	-92.4	16.8
2025-01-02 16:46:09.777550	98.7	43.2	-92.7	16.8
2025-01-02 16:46:10.925977	98.3	43.4	-92.9	11.8
2025-01-02 16:46:12.085682	97.9	43.6	-92.4	10.7
2025-01-02 16:46:13.245359	97.5	43.9	-92.1	5.7
2025-01-02 16:46:14.406200	97.1	44.1	-91.4	10.8
2025-01-02 16:46:15.566107	96.7	44.4	-91.3	13.5
2025-01-02 16:46:16.723288	96.3	44.6	-91.3	14.3
2025-01-02 16:46:17.852615	95.9	44.9	-91.8	16.3
2025-01-02 16:46:18.988588	95.5	45.1	-91.5	16.5
2025-01-02 16:46:20.133764	95.0	45.4	-91.6	13.9
2025-01-02 16:46:21.278582	94.6	45.6	-91.5	7.8
2025-01-02 16:46:22.438663	94.2	45.9	-91.4	5.7
2025-01-02 16:46:23.594475	93.7	46.1	-91.7	5.0
2025-01-02 16:46:24.752865	93.2	46.4	-92.1	3.4
2025-01-02 16:46:25.907620	92.8	46.6	-92.4	2.9
2025-01-02 16:46:27.067442	92.3	46.9	-92.2	3.3
2025-01-02 16:46:28.227788	91.8	47.1	-91.8	5.5
2025-01-02 16:46:29.393641	91.3	47.4	-92.1	2.7
2025-01-02 16:46:30.552763	90.8	47.6	-92.4	8.4
2025-01-02 16:46:31.714014	90.3	47.8	-92.5	12.5
2025-01-02 16:46:32.881861	89.8	48.1	-92.5	9.3
2025-01-02 16:46:34.046092	89.3	48.3	-92.5	8.9
2025-01-02 16:46:35.210607	88.7	48.6	-91.9	8.7
2025-01-02 16:46:36.370480	88.2	48.8	-92.1	4.2
2025-01-02 16:46:37.534384	87.6	49.0	-92.1	9.9
2025-01-02 16:46:38.691759	87.1	49.3	-92.5	5.2
2025-01-02 16:46:39.853161	86.5	49.5	-92.4	4.5
2025-01-02 16:46:41.016567	86.0	49.7	-92.3	3.6
2025-01-02 16:46:42.177202	85.4	50.0	-92.0	5.3
2025-01-02 16:46:43.339651	84.8	50.2	-92.1	9.2
2025-01-02 16:46:44.502732	84.2	50.4	-92.1	9.1
2025-01-02 16:46:45.669742	83.6	50.6	-92.2	7.3
2025-01-02 16:46:46.843745	82.9	50.9	-92.5	9.9
2025-01-02 16:46:48.005296	82.3	51.1	-92.5	9.9
2025-01-02 16:46:49.163747	81.7	51.3	-92.5	7.6
2025-01-02 16:46:50.303597	81.0	51.5	-92.2	6.8
2025-01-02 16:46:51.425437	80.4	51.7	-92.7	6.0
2025-01-02 16:46:52.545179	79.8	51.9	-92.5	6.2
2025-01-02 16:46:53.665182	79.1	52.1	-92.0	5.0
2025-01-02 16:46:54.786106	78.4	52.3	-92.5	2.6
2025-01-02 16:46:55.907093	77.8	52.5	-91.9	4.7
2025-01-02 16:46:57.029920	77.1	52.7	-92.4	5.0
2025-01-02 16:46:58.156706	76.4	52.9	-91.9	4.5
2025-01-02 16:46:59.294917	75.7	53.0	-92.0	6.6
2025-01-02 16:47:00.443146	75.0	53.2	-92.2	6.2
2025-01-02 16:47:01.599009	74.2	53.4	-92.7	9.8
2025-01-02 16:47:02.755685	73.5	53.6	-92.6	15.8
2025-01-02 16:47:03.907876	72.8	53.7	-92.4	15.5
2025-01-02 16:47:05.056255	72.0	53.9	-92.5	14.9
2025-01-02 16:47:06.187389	71.3	54.1	-92.4	15.0
2025-01-02 16:47:07.345253	70.5	54.2	-92.2	9.2
2025-01-02 16:47:08.490356	69.7	54.4	-92.3	13.8
2025-01-02 16:47:09.643115	68.9	54.5	-92.7	9.4
2025-01-02 16:47:10.788988	68.1	54.6	-92.4	5.9
2025-01-02 16:47:11.949697	67.3	54.8	-92.8	6.0
2025-01-02 16:47:13.108207	66.5	54.9	-92.7	8.3
2025-01-02 16:47:14.268552	65.7	55.0	-92.5	6.2
2025-01-02 16:47:15.432237	64.8	55.1	-92.3	10.9
2025-01-02 16:47:16.591857	64.0	55.2	-92.4	8.7
2025-01-02 16:47:17.759574	63.1	55.4	-92.5	8.6
2025-01-02 16:47:18.914803	62.3	55.5	-92.5	9.4
2025-01-02 16:47:20.075576	61.4	55.5	-92.5	14.1
2025-01-02 16:47:21.233726	60.6	55.6	-92.1	14.1
2025-01-02 16:47:22.408642	59.7	55.7	-92.5	13.8
2025-01-02 16:47:23.564732	58.8	55.8	-92.3	13.8
2025-01-02 16:47:24.727593	57.9	55.9	-92.2	15.6
2025-01-02 16:47:25.891965	57.0	55.9	-92.2	15.4
2025-01-02 16:47:27.050232	56.2	56.0	-92.6	11.6
2025-01-02 16:47:28.206718	55.3	56.0	-92.3	11.3
2025-01-02 16:47:29.371142	54.4	56.1	-92.3	13.1
2025-01-02 16:47:30.538971	53.5	56.1	-92.1	13.7
2025-01-02 16:47:31.698254	52.6	56.1	-92.6	10.0
2025-01-02 16:47:32.861189	51.7	56.1	-92.4	13.0
2025-01-02 16:47:34.024943	50.8	56.2	-92.2	12.2
2025-01-02 16:47:35.191569	49.9	56.2	-92.3	7.3
2025-01-02 16:47:36.346740	49.0	56.2	-92.5	5.9
2025-01-02 16:47:37.503634	48.1	56.2	-92.6	8.8
2025-01-02 16:47:38.657217	47.2	56.1	-92.4	6.4
2025-01-02 16:47:39.824696	46.3	56.1	-92.4	2.2
2025-01-02 16:47:40.989069	45.4	56.1	-92.3	5.0
2025-01-02 16:47:42.157081	44.5	56.1	-92.3	6.2
2025-01-02 16:47:43.321093	43.6	56.0	-92.3	5.4
2025-01-02 16:47:44.481756	42.7	56.0	-92.4	4.9
2025-01-02 16:47:45.653515	41.8	55.9	-92.5	6.0
2025-01-02 16:47:46.810902	40.9	55.9	-92.5	2.3
2025-01-02 16:47:47.970784	40.0	55.8	-91.9	5.8
2025-01-02 16:47:49.132938	39.2	55.7	-91.7	6.0
2025-01-02 16:47:50.301150	38.3	55.6	-91.7	3.2
2025-01-02 16:47:51.470163	37.4	55.5	-91.2	5.9
2025-01-02 16:47:52.632197	36.6	55.4	-90.5	6.0
2025-01-02 16:47:53.796169	35.7	55.3	-91.7	2.3
2025-01-02 16:47:54.954376	34.9	55.2	-92.1	4.3
2025-01-02 16:47:56.117581	34.0	55.1	-92.2	4.4
2025-01-02 16:47:57.282149	33.2	55.0	-92.0	5.2
2025-01-02 16:47:58.446575	32.4	54.9	-91.9	9.9
2025-01-02 16:47:59.599280	31.6	54.8	-92.2	11.6
2025-01-02 16:48:00.739880	30.8	54.6	-91.9	8.5
2025-01-02 16:48:01.860396	30.0	54.5	-92.3	9.3
2025-01-02 16:48:02.982408	29.2	54.4	-91.8	10.8
2025-01-02 16:48:04.102637	28.5	54.2	-91.7	10.4
2025-01-02 16:48:05.223190	27.7	54.1	-91.7	8.8
2025-01-02 16:48:06.343695	27.0	53.9	-91.6	9.7
2025-01-02 16:48:07.464514	26.2	53.7	-92.0	11.2
2025-01-02 16:48:08.594229	25.5	53.6	-92.1	10.3
2025-01-02 16:48:09.733078	24.8	53.4	-92.0	9.9
2025-01-02 16:48:10.876657	24.0	53.2	-92.1	10.5
2025-01-02 16:48:12.006835	23.3	53.1	-91.8	10.2
2025-01-02 16:48:13.156162	22.6	52.9	-91.8	9.5
2025-01-02 16:48:14.300391	21.9	52.7	-91.5	8.8
2025-01-02 16:48:15.451898	21.2	52.5	-92.2	6.4
2025-01-02 16:48:16.614556	20.5	52.3	-92.2	8.4
2025-01-02 16:48:17.761123	19.8	52.1	-92.2	5.1
2025-01-02 16:48:18.922967	19.2	51.9	-92.4	9.0
2025-01-02 16:48:20.084706	18.5	51.7	-91.6	7.4
2025-01-02 16:48:21.247338	17.8	51.5	-92.0	5.4
2025-01-02 16:48:22.411102	17.2	51.3	-91.0	2.5
2025-01-02 16:48:23.571086	16.6	51.1	-91.1	5.0
2025-01-02 16:48:24.743178	15.9	50.8	-91.1	3.0
2025-01-02 16:48:25.906287	15.3	50.6	-91.5	5.5
2025-01-02 16:48:27.062912	14.7	50.4	-91.4	8.2
2025-01-02 16:48:28.228014	14.1	50.2	-91.0	2.5
2025-01-02 16:48:29.392307	13.5	50.0	-90.9	5.8
2025-01-02 16:48:30.559376	12.9	49.7	-91.1	8.8
2025-01-02 16:48:31.716792	12.3	49.5	-91.8	5.2
2025-01-02 16:48:32.862277	11.8	49.3	-92.7	6.3
2025-01-02 16:48:33.994363	11.2	49.0	-92.7	8.8
2025-01-02 16:48:35.139830	10.7	48.8	-92.5	7.7
2025-01-02 16:48:36.289025	10.2	48.6	-91.8	4.8
2025-01-02 16:48:37.409964	9.7	48.3	-91.9	5.3
2025-01-02 16:48:38.566172	9.1	48.1	-91.9	9.4
2025-01-02 16:48:39.714369	8.6	47.9	-92.5	3.9
2025-01-02 16:48:40.862169	8.1	47.6	-92.5	5.0
2025-01-02 16:48:42.014215	7.6	47.4	-92.1	9.1
2025-01-02 16:48:43.164136	7.1	47.1	-92.1	10.3
2025-01-02 16:48:44.338616	6.7	46.9	-92.1	6.2
2025-01-02 16:48:45.482812	6.2	46.6	-91.8	12.1
2025-01-02 16:48:46.621961	5.7	46.4	-92.0	13.1
2025-01-02 16:48:47.751764	5.3	46.2	-91.9	10.3
2025-01-02 16:48:48.907783	4.8	45.9	-92.0	10.0
2025-01-02 16:48:50.057388	4.4	45.7	-91.8	14.0
2025-01-02 16:48:51.211138	3.9	45.4	-91.8	14.4
2025-01-02 16:48:52.367038	3.5	45.2	-91.7	12.7
2025-01-02 16:48:53.524685	3.1	44.9	-91.6	16.8
2025-01-02 16:48:54.688636	2.7	44.7	-91.9	16.8
2025-01-02 16:48:55.851197	2.2	44.4	-91.9	16.7
2025-01-02 16:48:57.005576	1.8	44.2	-92.1	16.8
2025-01-02 16:48:58.163459	1.4	43.9	-92.0	15.2
2025-01-02 16:48:59.325519	1.0	43.7	-91.9	21.0
2025-01-02 16:49:00.477396	0.7	43.4	-92.3	20.0
2025-01-02 16:49:01.637804	0.3	43.2	-92.1	19.6
2025-01-02 16:49:02.797941	359.9	42.9	-91.8	15.9
2025-01-02 16:49:03.965261	359.5	42.7	-92.2	14.7
2025-01-02 16:49:05.131351	359.2	42.4	-92.0	16.0
2025-01-02 16:49:06.288632	358.8	42.2	-91.7	7.4
2025-01-02 16:49:07.441077	358.5	41.9	-91.4	7.5
2025-01-02 16:49:08.600363	358.1	41.7	-91.6	10.3
2025-01-02 16:49:09.763603	357.8	41.4	-91.9	4.6
2025-01-02 16:49:10.927079	357.4	41.2	-92.0	6.6
2025-01-02 16:49:12.080475	357.1	40.9	-91.5	8.6
2025-01-02 16:49:13.227935	356.8	40.7	-91.6	5.8
2025-01-02 16:49:14.354382	356.5	40.5	-91.1	4.5
2025-01-02 16:49:15.507070	356.1	40.2	-91.6	9.5
2025-01-02 16:49:16.644865	355.8	40.0	-91.7	7.0
2025-01-02 16:49:17.796468	355.5	39.7	-90.4	6.8
2025-01-02 16:49:18.943943	355.2	39.5	-91.6	8.9
2025-01-02 16:49:20.091398	354.9	39.3	-91.3	11.0
2025-01-02 16:49:21.253298	354.6	39.0	-90.9	8.4
2025-01-02 16:49:22.413685	354.3	38.8	-91.4	12.3
2025-01-02 16:49:23.570697	354.1	38.5	-91.8	17.9
2025-01-02 16:49:24.735021	353.8	38.3	-92.3	19.0
2025-01-02 16:49:25.900378	353.5	38.1	-92.1	16.0
2025-01-02 16:49:27.049274	353.2	37.8	-92.3	14.8
2025-01-02 16:49:28.192989	353.0	37.6	-92.1	12.0
2025-01-02 16:49:29.320899	352.7	37.4	-92.3	8.4
2025-01-02 16:49:30.477095	352.4	37.1	-91.8	9.4
2025-01-02 16:49:31.628789	352.2	36.9	-91.9	6.2
2025-01-02 16:49:32.787619	351.9	36.7	-92.4	5.8
2025-01-02 16:49:33.939019	351.7	36.4	-92.5	3.4
2025-01-02 16:49:35.091637	351.4	36.2	-92.0	6.9
2025-01-02 16:49:36.250939	351.2	36.0	-92.2	1.4
2025-01-02 16:49:37.400617	350.9	35.8	-92.4	5.4
2025-01-02 16:49:38.564060	350.7	35.5	-92.4	3.1
2025-01-02 16:49:39.727642	350.5	35.3	-92.6	5.5
2025-01-02 16:49:40.894891	350.2	35.1	-92.2	6.6
2025-01-02 16:49:42.060309	350.0	34.9	-92.4	9.3
2025-01-02 16:49:43.220210	349.8	34.6	-91.8	10.5
2025-01-02 16:49:44.381505	349.6	34.4	-91.9	10.6
2025-01-02 16:49:45.540832	349.4	34.2	-92.3	12.4
2025-01-02 16:49:46.700089	349.1	34.0	-92.2	13.7
2025-01-02 16:49:47.862864	348.9	33.8	-92.1	7.4
2025-01-02 16:49:49.022920	348.7	33.5	-92.3	7.8
2025-01-02 16:49:50.187497	348.5	33.3	-92.1	4.4
2025-01-02 16:49:51.354524	348.3	33.1	-92.0	1.5
2025-01-02 16:49:52.508111	348.1	32.9	-92.2	3.4
2025-01-02 16:49:53.639984	347.9	32.7	-92.0	1.8
2025-01-02 16:49:54.796423	347.7	32.5	-92.1	3.5
2025-01-02 16:49:55.938545	347.5	32.3	-91.8	3.2
2025-01-02 16:49:57.082681	347.3	32.1	-91.7	2.3
2025-01-02 16:49:58.244860	347.1	31.9	-91.7	2.8
2025-01-02 16:49:59.400659	347.0	31.7	-91.5	5.0
2025-01-02 16:50:00.552057	346.8	31.4	-91.9	9.6
2025-01-02 16:50:01.714453	346.6	31.2	-91.8	6.1
2025-01-02 16:50:02.878997	346.4	31.0	-91.9	10.2
2025-01-02 16:50:04.047036	346.2	30.8	-91.7	10.6
2025-01-02 16:50:05.211863	346.1	30.6	-91.7	7.8
2025-01-02 16:50:06.372431	345.9	30.4	-91.6	9.1
2025-01-02 16:50:07.533012	345.7	30.2	-92.6	9.5
2025-01-02 16:50:08.697083	345.6	30.0	-92.6	7.0
2025-01-02 16:50:09.860934	345.4	29.8	-92.4	5.4
2025-01-02 16:50:11.025211	345.2	29.6	-92.6	5.5
2025-01-02 16:50:12.192220	345.1	29.4	-92.2	5.6
2025-01-02 16:50:13.356366	344.9	29.2	-92.0	0.5
2025-01-02 16:50:14.513886	344.7	29.0	-92.3	5.5
2025-01-02 16:50:15.682559	344.6	28.9	-92.3	3.9
2025-01-02 16:50:16.836348	344.4	28.7	-92.0	3.5
2025-01-02 16:50:17.999533	344.3	28.5	-92.4	2.8
2025-01-02 16:50:19.160905	344.1	28.3	-92.1	1.8
2025-01-02 16:50:20.320043	344.0	28.1	-92.1	4.2
2025-01-02 16:50:21.495693	343.8	27.9	-92.4	4.9
2025-01-02 16:50:22.658699	343.7	27.7	-92.5	3.4
2025-01-02 16:50:23.815618	343.5	27.5	-92.4	7.7
2025-01-02 16:50:24.944831	343.4	27.4	-91.8	8.2
2025-01-02 16:50:26.092049	343.3	27.2	-91.7	5.2
2025-01-02 16:50:27.230541	343.1	27.0	-91.3	3.1
2025-01-02 16:50:28.378438	343.0	26.8	-91.6	2.3
2025-01-02 16:50:29.507376	342.9	26.6	-91.8	2.7
2025-01-02 16:50:30.644276	342.7	26.5	-91.6	2.8
2025-01-02 16:50:31.813224	342.6	26.3	-91.7	2.1
2025-01-02 16:50:32.957016	342.5	26.1	-91.6	2.7
2025-01-02 16:50:34.112476	342.3	25.9	-91.4	5.4
2025-01-02 16:50:35.259242	342.2	25.8	-91.5	7.7
2025-01-02 16:50:36.407610	342.1	25.6	-91.6	10.6
2025-01-02 16:50:37.562383	342.0	25.4	-91.9	10.0
2025-01-02 16:50:38.718534	341.8	25.3	-91.7	13.9
2025-01-02 16:50:39.880383	341.7	25.1	-91.9	11.5
2025-01-02 16:50:41.042714	341.6	24.9	-92.2	6.2
2025-01-02 16:50:42.202316	341.5	24.7	-91.6	6.1
2025-01-02 16:50:43.362365	341.4	24.6	-91.5	5.4
2025-01-02 16:50:44.525532	341.2	24.4	-92.0	5.9
2025-01-02 16:50:45.684435	341.1	24.2	-91.7	7.2
2025-01-02 16:50:46.841839	341.0	24.1	-91.9	3.6
2025-01-02 16:50:47.997816	340.9	23.9	-91.5	8.0
2025-01-02 16:50:49.139166	340.8	23.8	-91.6	10.8
2025-01-02 16:50:50.282497	340.7	23.6	-91.6	4.9
2025-01-02 16:50:51.431762	340.6	23.4	-91.8	8.1
2025-01-02 16:50:52.566333	340.5	23.3	-92.0	10.5
2025-01-02 16:50:53.690836	340.4	23.1	-92.6	9.4
2025-01-02 16:50:54.839162	340.3	23.0	-92.7	11.9
2025-01-02 16:50:55.982506	340.2	22.8	-92.5	6.9
2025-01-02 16:50:57.137359	340.1	22.7	-92.2	14.5
2025-01-02 16:50:58.290086	340.0	22.5	-92.2	4.9
2025-01-02 16:50:59.454276	339.9	22.3	-92.1	4.2
2025-01-02 16:51:00.594823	339.8	22.2	-92.4	8.5
2025-01-02 16:51:01.752060	339.7	22.0	-92.8	2.1
2025-01-02 16:51:02.911300	339.6	21.9	-92.7	2.4
2025-01-02 16:51:04.064210	339.5	21.7	-92.2	2.4
2025-01-02 16:51:05.212532	339.4	21.6	-92.1	2.4
2025-01-02 16:51:06.343812	339.3	21.4	-92.1	5.4
2025-01-02 16:51:07.484045	339.2	21.3	-92.4	10.8
2025-01-02 16:51:08.636105	339.1	21.1	-92.8	7.6
2025-01-02 16:51:09.783761	339.0	21.0	-92.4	2.1
2025-01-02 16:51:10.942956	338.9	20.8	-92.2	6.1
2025-01-02 16:51:12.106497	338.8	20.7	-92.4	6.7
2025-01-02 16:51:13.266038	338.7	20.5	-92.3	3.9
2025-01-02 16:51:14.429362	338.6	20.4	-92.5	6.0
2025-01-02 16:51:15.593287	338.5	20.3	-92.5	3.6
2025-01-02 16:51:16.759598	338.5	20.1	-92.4	2.8
2025-01-02 16:51:17.902691	338.4	20.0	-92.6	0.3
2025-01-02 16:51:19.066590	338.3	19.8	-92.5	3.3
2025-01-02 16:51:20.225016	338.2	19.7	-92.3	1.2
2025-01-02 16:51:21.380664	338.1	19.5	-92.4	2.9
2025-01-02 16:51:22.528334	338.0	19.4	-92.2	3.5
2025-01-02 16:51:23.659921	337.9	19.3	-92.2	4.9
2025-01-02 16:51:24.827784	337.9	19.1	-92.4	1.5
2025-01-02 16:51:25.975252	337.8	19.0	-92.6	2.6
2025-01-02 16:51:27.126291	337.7	18.9	-91.9	2.4
2025-01-02 16:51:28.285705	337.6	18.7	-92.1	1.7
2025-01-02 16:51:29.446375	337.5	18.6	-92.4	3.1
2025-01-02 16:51:30.607234	337.5	18.4	-92.3	3.1
2025-01-02 16:51:31.764375	337.4	18.3	-92.7	2.0
2025-01-02 16:51:32.932699	337.3	18.2	-92.2	2.3
2025-01-02 16:51:34.104840	337.2	18.0	-92.2	3.6
2025-01-02 16:51:35.260767	337.2	17.9	-92.4	2.9
2025-01-02 16:51:36.425921	337.1	17.8	-92.6	3.2
2025-01-02 16:51:37.577379	337.0	17.6	-92.7	2.8
2025-01-02 16:51:38.741670	336.9	17.5	-92.6	2.6
2025-01-02 16:51:39.882501	336.9	17.4	-92.4	2.3
2025-01-02 16:51:41.016711	336.8	17.3	-92.6	2.1
2025-01-02 16:51:42.166039	336.7	17.1	-92.4	1.8
2025-01-02 16:51:43.306033	336.7	17.0	-92.2	1.4
2025-01-02 16:51:44.467790	336.6	16.9	-92.3	2.3
2025-01-02 16:51:45.619119	336.5	16.8	-92.6	2.1
2025-01-02 16:51:46.773207	336.5	16.6	-92.2	1.5
2025-01-02 16:51:47.896287	336.4	16.5	-92.6	4.0
2025-01-02 16:51:49.048927	336.3	16.4	-92.6	6.9
2025-01-02 16:51:50.198599	336.3	16.3	-90.9	4.7
2025-01-02 16:51:51.353387	336.2	16.1	-91.7	3.5
2025-01-02 16:51:52.509417	336.1	16.0	-91.7	4.5
2025-01-02 16:51:53.670127	336.1	15.9	-91.5	1.9
2025-01-02 16:51:54.833560	336.0	15.8	-91.6	3.6
2025-01-02 16:51:55.986652	335.9	15.6	-91.7	1.9
2025-01-02 16:51:57.246175	335.9	15.5	-91.3	2.3
2025-01-02 16:51:58.413346	335.8	15.4	-91.8	2.8
2025-01-02 16:51:59.573944	335.7	15.3	-91.5	2.3
2025-01-02 16:52:00.727994	335.7	15.2	-92.4	3.6
2025-01-02 16:52:01.891682	335.6	15.0	-92.5	2.1
2025-01-02 16:52:03.057446	335.5	14.9	-92.2	4.4
2025-01-02 16:52:04.216914	335.5	14.8	-91.8	5.9
2025-01-02 16:52:05.373915	335.4	14.7	-92.4	1.0
2025-01-02 16:52:06.527755	335.4	14.6	-92.7	5.6
2025-01-02 16:52:07.656985	335.3	14.4	-92.8	1.5
#Closed at: 2025-01-02 16:43:14.827448