passes_logs/2025/01/02/LEX_Murmansk/LEX_Murmansk__20250102_085144_NOAA_18_rec.log

#Pass ID: 20250102_085144_NOAA 18
#Satellite: NOAA 18
#Configuration: NOAA 18
#Start time: 2025-01-02 08:51:39.684607

#LorettStation: 1.0.0 05.05.2024
#Station: LEX_Murmansk
#Location: 33.156738 lon 68.926811 lat
#TLE: 1 28654U 05018A   25001.78406204  .00000701  00000+0  39590-3 0  9994
#TLE: 2 28654  98.8586  82.9683 0013729 216.8395 143.1835 14.13472842 11310

#Time	Az	El	Level	SNR
2025-01-02 08:51:51.865289	31.0	16.2	-92.2	5.4
2025-01-02 08:51:53.029611	31.1	16.3	-92.3	5.0
2025-01-02 08:51:54.190634	31.2	16.4	-92.5	5.7
2025-01-02 08:51:55.353289	31.3	16.5	-93.0	5.5
2025-01-02 08:51:56.513297	31.4	16.7	-93.0	4.1
2025-01-02 08:51:57.681907	31.5	16.8	-92.7	3.3
2025-01-02 08:51:58.847119	31.6	16.9	-92.7	5.9
2025-01-02 08:51:59.998705	31.7	17.0	-92.8	5.0
2025-01-02 08:52:01.140208	31.8	17.1	-92.2	3.9
2025-01-02 08:52:02.269051	31.9	17.3	-92.5	5.0
2025-01-02 08:52:03.389767	32.0	17.4	-92.3	4.6
2025-01-02 08:52:04.510816	32.1	17.5	-92.8	7.9
2025-01-02 08:52:05.631901	32.2	17.6	-92.8	5.5
2025-01-02 08:52:06.751492	32.4	17.7	-92.7	6.9
2025-01-02 08:52:07.872913	32.5	17.8	-92.9	14.2
2025-01-02 08:52:08.997866	32.6	18.0	-92.9	9.1
2025-01-02 08:52:10.123083	32.7	18.1	-92.6	8.4
2025-01-02 08:52:11.283467	32.8	18.2	-92.5	5.3
2025-01-02 08:52:12.445440	32.9	18.3	-93.0	5.0
2025-01-02 08:52:13.604313	33.0	18.5	-92.8	5.7
2025-01-02 08:52:14.761288	33.1	18.6	-92.9	10.5
2025-01-02 08:52:15.922488	33.2	18.7	-93.0	7.6
2025-01-02 08:52:17.088516	33.4	18.8	-92.3	5.6
2025-01-02 08:52:18.245629	33.5	19.0	-92.5	9.6
2025-01-02 08:52:19.410253	33.6	19.1	-92.8	14.1
2025-01-02 08:52:20.571141	33.7	19.2	-92.5	15.9
2025-01-02 08:52:21.727957	33.8	19.4	-92.5	13.4
2025-01-02 08:52:22.892661	34.0	19.5	-92.5	12.5
2025-01-02 08:52:24.061702	34.1	19.6	-92.3	9.7
2025-01-02 08:52:25.230385	34.2	19.7	-92.6	9.1
2025-01-02 08:52:26.389966	34.3	19.9	-93.0	11.1
2025-01-02 08:52:27.556320	34.5	20.0	-92.7	13.1
2025-01-02 08:52:28.720863	34.6	20.1	-91.6	8.4
2025-01-02 08:52:29.880578	34.7	20.3	-92.8	12.9
2025-01-02 08:52:31.039469	34.9	20.4	-92.4	5.6
2025-01-02 08:52:32.205456	35.0	20.5	-92.4	8.0
2025-01-02 08:52:33.366177	35.1	20.7	-92.6	9.9
2025-01-02 08:52:34.530259	35.3	20.8	-92.7	7.8
2025-01-02 08:52:35.695055	35.4	21.0	-92.7	11.9
2025-01-02 08:52:36.858430	35.5	21.1	-92.9	11.7
2025-01-02 08:52:38.021693	35.7	21.2	-92.2	13.1
2025-01-02 08:52:39.183479	35.8	21.4	-92.5	13.5
2025-01-02 08:52:40.341066	35.9	21.5	-92.4	11.3
2025-01-02 08:52:41.508621	36.1	21.6	-92.7	10.2
2025-01-02 08:52:42.672908	36.2	21.8	-92.7	11.0
2025-01-02 08:52:43.838481	36.4	21.9	-92.7	12.7
2025-01-02 08:52:45.001458	36.5	22.1	-92.5	14.6
2025-01-02 08:52:46.171234	36.6	22.2	-92.5	13.3
2025-01-02 08:52:47.330030	36.8	22.3	-92.8	12.4
2025-01-02 08:52:48.493405	36.9	22.5	-92.8	5.1
2025-01-02 08:52:49.651709	37.1	22.6	-92.6	5.3
2025-01-02 08:52:50.815239	37.2	22.8	-92.7	11.6
2025-01-02 08:52:51.978466	37.4	22.9	-92.6	6.3
2025-01-02 08:52:53.145913	37.5	23.1	-92.2	11.0
2025-01-02 08:52:54.313299	37.7	23.2	-92.1	15.1
2025-01-02 08:52:55.474069	37.9	23.4	-92.1	15.8
2025-01-02 08:52:56.645843	38.0	23.5	-92.3	13.0
2025-01-02 08:52:57.802804	38.2	23.7	-92.3	11.4
2025-01-02 08:52:58.970092	38.3	23.8	-92.3	9.1
2025-01-02 08:53:00.125396	38.5	23.9	-92.1	9.4
2025-01-02 08:53:01.280797	38.7	24.1	-92.3	14.6
2025-01-02 08:53:02.438488	38.8	24.2	-92.4	14.5
2025-01-02 08:53:03.602331	39.0	24.4	-92.4	16.7
2025-01-02 08:53:04.766777	39.2	24.5	-92.5	13.6
2025-01-02 08:53:05.933649	39.3	24.7	-92.6	11.8
2025-01-02 08:53:07.094484	39.5	24.9	-92.5	5.9
2025-01-02 08:53:08.259687	39.7	25.0	-92.4	11.3
2025-01-02 08:53:09.415668	39.8	25.2	-92.9	9.0
2025-01-02 08:53:10.573534	40.0	25.3	-92.7	9.3
2025-01-02 08:53:11.732967	40.2	25.5	-92.5	10.1
2025-01-02 08:53:12.894132	40.4	25.6	-92.9	12.0
2025-01-02 08:53:14.061165	40.5	25.8	-92.3	14.0
2025-01-02 08:53:15.221400	40.7	25.9	-92.0	10.8
2025-01-02 08:53:16.388357	40.9	26.1	-92.8	12.4
2025-01-02 08:53:17.548629	41.1	26.3	-92.8	8.8
2025-01-02 08:53:18.712824	41.3	26.4	-92.7	11.1
2025-01-02 08:53:19.872176	41.5	26.6	-92.3	11.0
2025-01-02 08:53:21.041256	41.7	26.7	-91.9	11.7
2025-01-02 08:53:22.211155	41.9	26.9	-91.8	11.5
2025-01-02 08:53:23.369922	42.1	27.1	-92.2	10.9
2025-01-02 08:53:24.535258	42.3	27.2	-92.5	7.8
2025-01-02 08:53:25.691513	42.4	27.4	-92.9	11.7
2025-01-02 08:53:26.861122	42.6	27.5	-93.0	15.0
2025-01-02 08:53:28.020604	42.9	27.7	-92.8	6.9
2025-01-02 08:53:29.182947	43.1	27.9	-92.4	12.3
2025-01-02 08:53:30.344205	43.3	28.0	-92.8	14.8
2025-01-02 08:53:31.504667	43.5	28.2	-93.0	15.6
2025-01-02 08:53:32.663657	43.7	28.4	-93.1	14.3
2025-01-02 08:53:33.824012	43.9	28.5	-92.9	13.6
2025-01-02 08:53:34.984145	44.1	28.7	-93.0	10.1
2025-01-02 08:53:36.148038	44.3	28.9	-92.4	8.1
2025-01-02 08:53:37.317643	44.5	29.0	-92.6	14.7
2025-01-02 08:53:38.484725	44.8	29.2	-92.5	10.2
2025-01-02 08:53:39.647268	45.0	29.4	-91.9	12.2
2025-01-02 08:53:40.803064	45.2	29.5	-92.7	10.9
2025-01-02 08:53:41.965192	45.4	29.7	-92.6	12.5
2025-01-02 08:53:43.126448	45.7	29.9	-91.5	9.9
2025-01-02 08:53:44.294678	45.9	30.1	-92.6	10.4
2025-01-02 08:53:45.459782	46.1	30.2	-92.1	6.5
2025-01-02 08:53:46.627801	46.4	30.4	-92.4	4.2
2025-01-02 08:53:47.784455	46.6	30.6	-92.4	10.8
2025-01-02 08:53:48.946473	46.9	30.7	-92.8	6.7
2025-01-02 08:53:50.107944	47.1	30.9	-92.4	9.6
2025-01-02 08:53:51.272796	47.4	31.1	-92.5	13.0
2025-01-02 08:53:52.435495	47.6	31.3	-92.9	13.8
2025-01-02 08:53:53.599861	47.9	31.4	-92.3	15.1
2025-01-02 08:53:54.767454	48.1	31.6	-92.5	17.8
2025-01-02 08:53:55.930040	48.4	31.8	-92.5	15.7
2025-01-02 08:53:57.094770	48.7	32.0	-91.9	12.8
2025-01-02 08:53:58.264895	48.9	32.2	-92.5	18.8
2025-01-02 08:53:59.418812	49.2	32.3	-92.8	18.2
2025-01-02 08:54:00.563442	49.5	32.5	-92.9	18.8
2025-01-02 08:54:01.715493	49.7	32.7	-92.8	18.8
2025-01-02 08:54:02.843124	50.0	32.9	-92.5	17.1
2025-01-02 08:54:03.963209	50.3	33.0	-91.8	13.6
2025-01-02 08:54:05.084057	50.5	33.2	-91.6	12.3
2025-01-02 08:54:06.203889	50.8	33.4	-91.1	14.1
2025-01-02 08:54:07.325816	51.1	33.5	-90.3	14.2
2025-01-02 08:54:08.446230	51.4	33.7	-90.8	10.7
2025-01-02 08:54:09.572079	51.6	33.9	-89.9	9.6
2025-01-02 08:54:10.700850	51.9	34.1	-91.6	16.7
2025-01-02 08:54:11.865065	52.2	34.2	-92.4	18.1
2025-01-02 08:54:13.022079	52.5	34.4	-92.3	18.5
2025-01-02 08:54:14.182695	52.8	34.6	-92.3	18.8
2025-01-02 08:54:15.332624	53.2	34.8	-92.9	17.9
2025-01-02 08:54:16.493793	53.5	35.0	-92.6	16.0
2025-01-02 08:54:17.656129	53.8	35.1	-92.6	15.4
2025-01-02 08:54:18.831344	54.1	35.3	-92.6	19.1
2025-01-02 08:54:19.990098	54.4	35.5	-93.0	13.0
2025-01-02 08:54:21.150178	54.8	35.7	-92.3	15.7
2025-01-02 08:54:22.318819	55.1	35.9	-92.6	22.1
2025-01-02 08:54:23.480753	55.4	36.1	-92.7	21.0
2025-01-02 08:54:24.648759	55.8	36.2	-92.4	19.5
2025-01-02 08:54:25.826788	56.1	36.4	-92.9	20.6
2025-01-02 08:54:27.001637	56.5	36.6	-91.7	14.0
2025-01-02 08:54:28.165497	56.8	36.8	-91.9	11.3
2025-01-02 08:54:29.331300	57.2	37.0	-91.5	16.4
2025-01-02 08:54:30.498723	57.5	37.2	-91.3	9.5
2025-01-02 08:54:31.657978	57.9	37.3	-92.5	8.2
2025-01-02 08:54:32.823009	58.3	37.5	-92.4	17.9
2025-01-02 08:54:33.989736	58.6	37.7	-92.3	13.4
2025-01-02 08:54:35.143086	59.0	37.9	-92.2	14.5
2025-01-02 08:54:36.304687	59.4	38.0	-92.2	19.5
2025-01-02 08:54:37.464704	59.8	38.2	-92.6	21.0
2025-01-02 08:54:38.632803	60.1	38.4	-92.7	20.7
2025-01-02 08:54:39.783583	60.5	38.6	-92.6	20.6
2025-01-02 08:54:40.951124	60.9	38.8	-92.4	17.1
2025-01-02 08:54:42.113085	61.3	38.9	-92.2	14.5
2025-01-02 08:54:43.269193	61.7	39.1	-92.2	19.7
2025-01-02 08:54:44.428857	62.1	39.3	-92.4	16.1
2025-01-02 08:54:45.585782	62.5	39.5	-92.6	16.4
2025-01-02 08:54:46.745806	63.0	39.6	-92.3	20.7
2025-01-02 08:54:47.912377	63.4	39.8	-92.0	19.6
2025-01-02 08:54:49.069371	63.8	40.0	-92.3	18.1
2025-01-02 08:54:50.224070	64.2	40.1	-92.1	18.3
2025-01-02 08:54:51.388598	64.7	40.3	-92.3	19.0
2025-01-02 08:54:52.552813	65.1	40.5	-92.3	17.2
2025-01-02 08:54:53.717652	65.5	40.7	-92.3	18.9
2025-01-02 08:54:54.881095	66.0	40.8	-92.4	19.4
2025-01-02 08:54:56.041876	66.4	41.0	-92.4	9.7
2025-01-02 08:54:57.201957	66.9	41.1	-92.0	14.0
2025-01-02 08:54:58.364546	67.4	41.3	-92.0	18.3
2025-01-02 08:54:59.527853	67.8	41.5	-92.5	11.8
2025-01-02 08:55:00.677601	68.3	41.6	-92.3	14.9
2025-01-02 08:55:01.838786	68.8	41.8	-92.3	18.1
2025-01-02 08:55:03.004883	69.2	41.9	-92.4	17.3
2025-01-02 08:55:04.165326	69.7	42.1	-91.7	15.8
2025-01-02 08:55:05.327769	70.2	42.3	-92.0	16.6
2025-01-02 08:55:06.490493	70.7	42.4	-92.1	15.5
2025-01-02 08:55:07.654708	71.2	42.6	-92.1	13.6
2025-01-02 08:55:08.807797	71.7	42.7	-92.3	15.7
2025-01-02 08:55:09.968841	72.2	42.9	-92.3	13.0
2025-01-02 08:55:11.134212	72.7	43.0	-92.2	10.4
2025-01-02 08:55:12.292762	73.2	43.1	-92.0	17.0
2025-01-02 08:55:13.453256	73.8	43.3	-92.6	12.5
2025-01-02 08:55:14.616362	74.3	43.4	-92.4	12.9
2025-01-02 08:55:15.783259	74.8	43.6	-92.5	18.7
2025-01-02 08:55:16.946513	75.4	43.7	-92.6	16.4
2025-01-02 08:55:18.112757	75.9	43.8	-92.7	15.1
2025-01-02 08:55:19.268408	76.4	44.0	-92.3	16.2
2025-01-02 08:55:20.424285	77.0	44.1	-92.7	17.8
2025-01-02 08:55:21.587981	77.5	44.2	-93.0	16.9
2025-01-02 08:55:22.744378	78.1	44.3	-92.7	15.9
2025-01-02 08:55:23.904699	78.6	44.5	-92.8	14.5
2025-01-02 08:55:25.044224	79.2	44.6	-92.4	12.1
2025-01-02 08:55:26.165874	79.7	44.7	-92.0	9.8
2025-01-02 08:55:27.288604	80.3	44.8	-92.2	14.6
2025-01-02 08:55:28.409302	80.9	44.9	-92.2	11.3
2025-01-02 08:55:29.531083	81.4	45.0	-92.6	5.7
2025-01-02 08:55:30.652735	82.0	45.1	-92.6	6.3
2025-01-02 08:55:31.779030	82.5	45.2	-92.6	11.7
2025-01-02 08:55:32.900033	83.1	45.3	-92.8	11.2
2025-01-02 08:55:34.070263	83.7	45.4	-92.5	8.4
2025-01-02 08:55:35.218255	84.3	45.5	-92.1	11.9
2025-01-02 08:55:36.383446	84.9	45.6	-92.4	10.7
2025-01-02 08:55:37.533561	85.5	45.7	-92.7	9.8
2025-01-02 08:55:38.699343	86.1	45.7	-92.7	7.7
2025-01-02 08:55:39.859022	86.7	45.8	-92.8	8.7
2025-01-02 08:55:41.020381	87.3	45.9	-92.3	9.0
2025-01-02 08:55:42.182563	88.0	46.0	-92.4	13.1
2025-01-02 08:55:43.345068	88.6	46.0	-92.3	15.5
2025-01-02 08:55:44.505509	89.2	46.1	-93.0	12.9
2025-01-02 08:55:45.661893	89.8	46.2	-92.8	14.8
2025-01-02 08:55:46.825991	90.4	46.2	-93.0	16.1
2025-01-02 08:55:47.987294	91.1	46.3	-93.0	13.6
2025-01-02 08:55:49.149591	91.7	46.3	-92.6	12.0
2025-01-02 08:55:50.300969	92.3	46.4	-92.7	14.6
2025-01-02 08:55:51.455531	93.0	46.4	-93.0	10.8
2025-01-02 08:55:52.579520	93.6	46.5	-93.1	9.7
2025-01-02 08:55:53.732928	94.2	46.5	-92.4	12.7
2025-01-02 08:55:54.881770	94.9	46.5	-92.7	10.9
2025-01-02 08:55:56.033375	95.5	46.6	-92.7	7.6
2025-01-02 08:55:57.185051	96.1	46.6	-92.3	10.2
2025-01-02 08:55:58.335946	96.8	46.6	-92.3	14.5
2025-01-02 08:55:59.480186	97.4	46.6	-92.6	8.7
2025-01-02 08:56:00.636882	98.0	46.6	-92.7	7.5
2025-01-02 08:56:01.792774	98.7	46.7	-93.2	12.2
2025-01-02 08:56:02.953846	99.3	46.7	-93.2	9.0
2025-01-02 08:56:04.114889	100.0	46.7	-92.4	9.2
2025-01-02 08:56:05.277883	100.6	46.7	-92.4	13.0
2025-01-02 08:56:06.440211	101.3	46.7	-92.9	14.7
2025-01-02 08:56:07.607682	101.9	46.6	-93.0	10.5
2025-01-02 08:56:08.767432	102.6	46.6	-93.3	15.7
2025-01-02 08:56:09.930464	103.2	46.6	-93.1	16.2
2025-01-02 08:56:11.089167	103.8	46.6	-92.2	17.5
2025-01-02 08:56:12.257085	104.5	46.6	-92.2	18.3
2025-01-02 08:56:13.417893	105.1	46.5	-92.5	18.5
2025-01-02 08:56:14.584619	105.8	46.5	-92.5	14.6
2025-01-02 08:56:15.744788	106.4	46.5	-92.3	17.1
2025-01-02 08:56:16.908690	107.1	46.4	-92.3	17.1
2025-01-02 08:56:18.077291	107.7	46.4	-92.3	17.1
2025-01-02 08:56:19.234528	108.3	46.3	-92.3	16.2
2025-01-02 08:56:20.393393	109.0	46.3	-92.3	16.4
2025-01-02 08:56:21.555650	109.6	46.2	-92.3	15.7
2025-01-02 08:56:22.721462	110.2	46.2	-92.7	17.6
2025-01-02 08:56:23.878718	110.8	46.1	-92.9	19.0
2025-01-02 08:56:25.038815	111.5	46.0	-92.7	18.8
2025-01-02 08:56:26.197537	112.1	46.0	-92.2	18.9
2025-01-02 08:56:27.366169	112.7	45.9	-92.6	19.8
2025-01-02 08:56:28.530395	113.3	45.8	-92.7	16.0
2025-01-02 08:56:29.693077	113.9	45.7	-92.8	17.1
2025-01-02 08:56:30.854518	114.5	45.7	-92.5	18.9
2025-01-02 08:56:32.011566	115.1	45.6	-92.9	13.6
2025-01-02 08:56:33.176766	115.7	45.5	-92.1	15.5
2025-01-02 08:56:34.326672	116.3	45.4	-92.6	16.7
2025-01-02 08:56:35.453495	116.9	45.3	-92.8	13.3
2025-01-02 08:56:36.574259	117.5	45.2	-93.0	11.1
2025-01-02 08:56:37.694765	118.1	45.1	-92.9	12.8
2025-01-02 08:56:38.816218	118.6	45.0	-92.7	13.0
2025-01-02 08:56:39.936584	119.2	44.9	-93.2	8.0
2025-01-02 08:56:41.056967	119.7	44.8	-92.2	5.5
2025-01-02 08:56:42.181803	120.3	44.7	-92.3	6.5
2025-01-02 08:56:43.315613	120.9	44.6	-92.4	11.0
2025-01-02 08:56:44.472173	121.4	44.4	-92.8	7.7
2025-01-02 08:56:45.635502	122.0	44.3	-92.8	9.0
2025-01-02 08:56:46.798925	122.5	44.2	-92.7	13.3
2025-01-02 08:56:47.945913	123.1	44.1	-92.6	13.0
2025-01-02 08:56:49.109512	123.6	43.9	-92.4	12.1
2025-01-02 08:56:50.278200	124.2	43.8	-92.3	15.0
2025-01-02 08:56:51.436157	124.7	43.7	-92.6	14.3
2025-01-02 08:56:52.604022	125.3	43.5	-92.7	13.4
2025-01-02 08:56:53.763782	125.8	43.4	-92.8	16.0
2025-01-02 08:56:54.929072	126.3	43.3	-92.6	11.6
2025-01-02 08:56:56.085913	126.8	43.1	-92.1	13.7
2025-01-02 08:56:57.250324	127.4	43.0	-92.0	16.2
2025-01-02 08:56:58.413211	127.9	42.8	-92.4	16.7
2025-01-02 08:56:59.577578	128.4	42.7	-92.8	14.7
2025-01-02 08:57:00.734044	128.9	42.5	-92.7	15.1
2025-01-02 08:57:01.893973	129.4	42.4	-92.7	16.0
2025-01-02 08:57:03.054693	129.9	42.2	-92.1	13.6
2025-01-02 08:57:04.216193	130.4	42.1	-92.4	17.5
2025-01-02 08:57:05.384907	130.8	41.9	-92.9	18.0
2025-01-02 08:57:06.545408	131.3	41.8	-92.9	17.9
2025-01-02 08:57:07.707739	131.8	41.6	-92.7	20.1
2025-01-02 08:57:08.868681	132.3	41.4	-93.0	21.3
2025-01-02 08:57:10.031348	132.7	41.3	-92.8	19.3
2025-01-02 08:57:11.182640	133.2	41.1	-92.8	18.6
2025-01-02 08:57:12.346428	133.7	40.9	-92.8	17.5
2025-01-02 08:57:13.508484	134.1	40.8	-92.9	19.6
2025-01-02 08:57:14.666685	134.6	40.6	-92.9	17.7
2025-01-02 08:57:15.826813	135.0	40.4	-92.7	19.1
2025-01-02 08:57:16.989156	135.4	40.3	-92.8	18.7
2025-01-02 08:57:18.147909	135.9	40.1	-92.3	17.4
2025-01-02 08:57:19.313454	136.3	39.9	-92.3	16.9
2025-01-02 08:57:20.478610	136.7	39.8	-92.7	15.4
2025-01-02 08:57:21.632845	137.2	39.6	-92.6	15.9
2025-01-02 08:57:22.794073	137.6	39.4	-92.8	17.7
2025-01-02 08:57:23.955142	138.0	39.2	-92.7	11.7
2025-01-02 08:57:25.112513	138.4	39.1	-92.5	6.0
2025-01-02 08:57:26.268084	138.8	38.9	-92.5	11.1
2025-01-02 08:57:27.432552	139.2	38.7	-92.6	13.2
2025-01-02 08:57:28.594277	139.6	38.5	-92.6	8.0
2025-01-02 08:57:29.758565	140.0	38.3	-92.8	13.5
2025-01-02 08:57:30.915439	140.4	38.2	-93.3	10.9
2025-01-02 08:57:32.076888	140.7	38.0	-92.8	6.7
2025-01-02 08:57:33.240352	141.1	37.8	-92.7	12.6
2025-01-02 08:57:34.402496	141.5	37.6	-92.8	12.9
2025-01-02 08:57:35.564249	141.9	37.4	-93.0	7.8
2025-01-02 08:57:36.732394	142.2	37.3	-92.8	14.8
2025-01-02 08:57:37.893385	142.6	37.1	-92.6	16.7
2025-01-02 08:57:39.062492	143.0	36.9	-92.3	10.1
2025-01-02 08:57:40.228319	143.3	36.7	-91.8	16.4
2025-01-02 08:57:41.390734	143.7	36.5	-92.6	16.0
2025-01-02 08:57:42.555111	144.0	36.3	-92.9	12.3
2025-01-02 08:57:43.716863	144.4	36.2	-92.8	16.3
2025-01-02 08:57:44.888411	144.7	36.0	-92.8	18.0
2025-01-02 08:57:46.052514	145.0	35.8	-92.2	15.1
2025-01-02 08:57:47.216581	145.4	35.6	-92.2	15.0
2025-01-02 08:57:48.378618	145.7	35.4	-92.4	15.3
2025-01-02 08:57:49.544682	146.0	35.3	-92.9	14.8
2025-01-02 08:57:50.702266	146.4	35.1	-92.7	14.7
2025-01-02 08:57:51.863801	146.7	34.9	-92.6	12.9
2025-01-02 08:57:53.028865	147.0	34.7	-92.8	11.2
2025-01-02 08:57:54.192632	147.3	34.5	-92.2	12.4
2025-01-02 08:57:55.356298	147.6	34.3	-92.5	14.0
2025-01-02 08:57:56.518411	147.9	34.2	-92.7	11.2
2025-01-02 08:57:57.677342	148.2	34.0	-92.7	12.3
2025-01-02 08:57:58.843392	148.5	33.8	-92.8	14.7
2025-01-02 08:58:00.003449	148.8	33.6	-93.2	8.1
2025-01-02 08:58:01.156126	149.1	33.4	-92.5	10.5
2025-01-02 08:58:02.314411	149.4	33.2	-92.2	11.2
2025-01-02 08:58:03.473039	149.7	33.1	-92.8	9.2
2025-01-02 08:58:04.637314	149.9	32.9	-92.9	8.0
2025-01-02 08:58:05.809534	150.2	32.7	-92.5	12.7
2025-01-02 08:58:06.970656	150.5	32.5	-92.7	9.0
2025-01-02 08:58:08.149192	150.8	32.3	-92.7	9.2
2025-01-02 08:58:09.314051	151.1	32.2	-92.5	10.1
2025-01-02 08:58:10.476336	151.3	32.0	-93.0	7.9
2025-01-02 08:58:11.647685	151.6	31.8	-93.2	8.6
2025-01-02 08:58:12.809862	151.9	31.6	-93.2	7.8
2025-01-02 08:58:13.975110	152.1	31.5	-93.0	8.0
2025-01-02 08:58:15.134492	152.4	31.3	-92.4	8.6
2025-01-02 08:58:16.301674	152.6	31.1	-92.3	10.6
2025-01-02 08:58:17.464226	152.9	30.9	-92.8	10.2
2025-01-02 08:58:18.628120	153.1	30.7	-92.5	9.5
2025-01-02 08:58:19.792575	153.4	30.6	-92.1	8.8
2025-01-02 08:58:20.948523	153.6	30.4	-92.5	8.3
2025-01-02 08:58:22.118057	153.9	30.2	-92.3	4.4
2025-01-02 08:58:23.281892	154.1	30.0	-92.4	8.1
2025-01-02 08:58:24.443361	154.3	29.9	-92.8	7.9
2025-01-02 08:58:25.607631	154.6	29.7	-92.9	5.8
2025-01-02 08:58:26.768647	154.8	29.5	-93.0	9.7
2025-01-02 08:58:27.936370	155.0	29.4	-92.3	4.6
2025-01-02 08:58:29.097991	155.2	29.2	-92.2	5.9
2025-01-02 08:58:30.260585	155.5	29.0	-91.9	9.3
2025-01-02 08:58:31.417726	155.7	28.8	-92.4	10.4
2025-01-02 08:58:32.584475	155.9	28.7	-92.6	8.2
2025-01-02 08:58:33.744478	156.1	28.5	-92.7	14.7
2025-01-02 08:58:34.903119	156.3	28.3	-92.8	13.1
2025-01-02 08:58:36.066113	156.6	28.2	-92.4	11.7
2025-01-02 08:58:37.235398	156.8	28.0	-92.8	11.7
2025-01-02 08:58:38.400300	157.0	27.8	-92.5	12.7
2025-01-02 08:58:39.564232	157.2	27.7	-93.2	9.9
2025-01-02 08:58:40.731060	157.4	27.5	-92.9	8.5
2025-01-02 08:58:41.889499	157.6	27.3	-93.1	6.7
2025-01-02 08:58:43.053759	157.8	27.2	-92.7	3.8
2025-01-02 08:58:44.216669	158.0	27.0	-92.7	7.4
2025-01-02 08:58:45.375943	158.2	26.8	-92.5	7.7
2025-01-02 08:58:46.540390	158.4	26.7	-92.9	6.0
2025-01-02 08:58:47.707212	158.6	26.5	-93.1	6.8
2025-01-02 08:58:48.868992	158.8	26.4	-93.2	8.7
2025-01-02 08:58:50.029223	159.0	26.2	-93.2	9.7
2025-01-02 08:58:51.192220	159.1	26.0	-92.8	11.7
2025-01-02 08:58:52.353932	159.3	25.9	-92.7	13.6
2025-01-02 08:58:53.516919	159.5	25.7	-93.1	12.7
2025-01-02 08:58:54.680512	159.7	25.6	-92.9	16.1
2025-01-02 08:58:55.834473	159.9	25.4	-92.9	15.9
2025-01-02 08:58:56.997468	160.0	25.3	-92.4	14.1
2025-01-02 08:58:58.164109	160.2	25.1	-92.1	12.2
2025-01-02 08:58:59.324200	160.4	24.9	-92.2	10.3
2025-01-02 08:59:00.480052	160.6	24.8	-92.7	9.5
2025-01-02 08:59:01.636544	160.7	24.6	-92.7	6.5
2025-01-02 08:59:02.799225	160.9	24.5	-92.7	10.7
2025-01-02 08:59:03.957436	161.1	24.3	-93.0	7.5
2025-01-02 08:59:05.122600	161.2	24.2	-93.0	6.5
2025-01-02 08:59:06.282386	161.4	24.0	-92.6	9.5
2025-01-02 08:59:07.446092	161.6	23.9	-92.8	8.8
2025-01-02 08:59:08.605545	161.7	23.7	-93.0	7.9
2025-01-02 08:59:09.775679	161.9	23.6	-93.0	12.6
2025-01-02 08:59:10.934972	162.1	23.4	-93.2	12.6
2025-01-02 08:59:12.086256	162.2	23.3	-93.0	11.1
2025-01-02 08:59:13.253462	162.4	23.1	-92.8	14.8
2025-01-02 08:59:14.416855	162.5	23.0	-92.9	15.9
2025-01-02 08:59:15.582753	162.7	22.8	-92.9	15.0
2025-01-02 08:59:16.746192	162.8	22.7	-93.1	16.3
2025-01-02 08:59:17.911760	163.0	22.5	-92.8	15.8
2025-01-02 08:59:19.071923	163.1	22.4	-92.7	10.9
2025-01-02 08:59:20.231194	163.3	22.3	-92.6	12.6
2025-01-02 08:59:21.390147	163.4	22.1	-92.9	9.7
2025-01-02 08:59:22.553510	163.6	22.0	-92.7	7.2
2025-01-02 08:59:23.713399	163.7	21.8	-92.9	7.0
2025-01-02 08:59:24.875132	163.9	21.7	-92.6	8.4
2025-01-02 08:59:26.046534	164.0	21.5	-93.0	5.7
2025-01-02 08:59:27.208101	164.1	21.4	-92.9	9.4
2025-01-02 08:59:28.385593	164.3	21.3	-92.7	10.2
2025-01-02 08:59:29.548409	164.4	21.1	-93.0	12.2
2025-01-02 08:59:30.713626	164.6	21.0	-92.9	11.4
2025-01-02 08:59:31.872115	164.7	20.8	-93.2	9.0
2025-01-02 08:59:33.045888	164.8	20.7	-93.0	7.2
2025-01-02 08:59:34.210228	165.0	20.6	-92.7	7.6
2025-01-02 08:59:35.369041	165.1	20.4	-92.7	7.2
2025-01-02 08:59:36.532778	165.2	20.3	-92.8	6.3
2025-01-02 08:59:37.692552	165.4	20.2	-93.1	4.7
2025-01-02 08:59:38.861037	165.5	20.0	-93.3	6.1
2025-01-02 08:59:40.027609	165.6	19.9	-93.2	4.0
2025-01-02 08:59:41.183857	165.8	19.8	-92.4	7.1
2025-01-02 08:59:42.347066	165.9	19.6	-92.3	8.2
2025-01-02 08:59:43.505607	166.0	19.5	-93.1	6.6
2025-01-02 08:59:44.668601	166.1	19.4	-93.2	9.1
2025-01-02 08:59:45.831439	166.2	19.2	-93.2	10.9
2025-01-02 08:59:46.990393	166.4	19.1	-93.2	7.5
2025-01-02 08:59:48.152552	166.5	19.0	-92.5	8.2
2025-01-02 08:59:49.310280	166.6	18.8	-92.7	8.4
2025-01-02 08:59:50.477440	166.7	18.7	-92.7	5.4
2025-01-02 08:59:51.635797	166.8	18.6	-93.2	6.7
2025-01-02 08:59:52.796617	167.0	18.5	-93.1	7.3
2025-01-02 08:59:53.960725	167.1	18.3	-92.8	4.5
2025-01-02 08:59:55.124650	167.2	18.2	-92.2	5.3
2025-01-02 08:59:56.289850	167.3	18.1	-92.3	3.9
2025-01-02 08:59:57.453844	167.4	17.9	-93.0	5.0
2025-01-02 08:59:58.616357	167.5	17.8	-93.4	5.1
2025-01-02 08:59:59.778336	167.7	17.7	-92.9	4.8
2025-01-02 09:00:00.930744	167.8	17.6	-93.4	7.0
2025-01-02 09:00:02.090384	167.9	17.4	-92.9	1.7
2025-01-02 09:00:03.250628	168.0	17.3	-92.9	4.5
2025-01-02 09:00:04.412147	168.1	17.2	-93.2	5.0
2025-01-02 09:00:05.571614	168.2	17.1	-93.0	3.9
2025-01-02 09:00:06.739308	168.3	17.0	-93.2	4.8
2025-01-02 09:00:07.903950	168.4	16.8	-93.0	5.4
2025-01-02 09:00:09.066391	168.5	16.7	-92.6	3.9
2025-01-02 09:00:10.231698	168.6	16.6	-92.4	4.2
2025-01-02 09:00:11.389140	168.7	16.5	-92.9	3.2
2025-01-02 09:00:12.557239	168.8	16.4	-93.0	4.1
2025-01-02 09:00:13.717349	168.9	16.2	-93.1	5.3
2025-01-02 09:00:14.881084	169.0	16.1	-93.3	5.3
2025-01-02 09:00:16.041003	169.1	16.0	-93.2	7.4
2025-01-02 09:00:17.203296	169.2	15.9	-92.8	5.2
2025-01-02 09:00:18.367044	169.3	15.8	-92.7	6.3
2025-01-02 09:00:19.527164	169.4	15.6	-92.8	8.4
2025-01-02 09:00:20.682012	169.5	15.5	-93.1	6.6
2025-01-02 09:00:21.805445	169.6	15.4	-93.2	7.9
2025-01-02 09:00:22.926199	169.7	15.3	-93.5	9.3
2025-01-02 09:00:24.051449	169.8	15.2	-93.0	6.7
2025-01-02 09:00:25.172060	169.9	15.1	-92.9	5.8
2025-01-02 09:00:26.292495	170.0	15.0	-92.7	6.2
2025-01-02 09:00:27.413620	170.1	14.9	-93.0	7.6
2025-01-02 09:00:28.534811	170.2	14.8	-92.3	5.1
2025-01-02 09:00:29.671593	170.3	14.7	-93.0	5.8
2025-01-02 09:00:30.820797	170.3	14.5	-93.0	6.3
#Closed at: 2025-01-02 08:51:44.679425