passes_logs/2025/01/02/LEX_Murmansk/LEX_Murmansk__20250102_182352_NOAA_19_rec.log

#Pass ID: 20250102_182352_NOAA 19
#Satellite: NOAA 19
#Configuration: NOAA 19
#Start time: 2025-01-02 18:23:47.436318

#LorettStation: 1.0.0 05.05.2024
#Station: LEX_Murmansk
#Location: 33.156738 lon 68.926811 lat
#TLE: 1 33591U 09005A   25001.83569820  .00001454  00000+0  79919-3 0  9995
#TLE: 2 33591  99.0217  65.4951 0014707  92.5482 267.7374 14.13252981819684

#Time	Az	El	Level	SNR
2025-01-02 18:23:59.651610	174.6	16.3	-92.5	4.3
2025-01-02 18:24:00.799585	174.6	16.4	-92.2	3.2
2025-01-02 18:24:01.952972	174.7	16.5	-91.8	2.1
2025-01-02 18:24:03.113451	174.8	16.7	-91.9	0.4
2025-01-02 18:24:04.273026	174.8	16.8	-92.2	1.6
2025-01-02 18:24:05.427181	174.9	16.9	-92.2	0.7
2025-01-02 18:24:06.579305	175.0	17.1	-92.3	2.6
2025-01-02 18:24:07.740747	175.0	17.2	-92.2	2.6
2025-01-02 18:24:08.897333	175.1	17.3	-92.2	4.0
2025-01-02 18:24:10.048496	175.1	17.4	-92.2	5.0
2025-01-02 18:24:11.208502	175.2	17.6	-90.6	6.0
2025-01-02 18:24:12.362734	175.3	17.7	-92.3	4.3
2025-01-02 18:24:13.513184	175.4	17.8	-92.3	3.4
2025-01-02 18:24:14.674470	175.4	18.0	-92.1	4.7
2025-01-02 18:24:15.834756	175.5	18.1	-92.4	9.0
2025-01-02 18:24:16.987294	175.6	18.2	-92.2	5.6
2025-01-02 18:24:18.144103	175.6	18.4	-92.1	3.7
2025-01-02 18:24:19.300121	175.7	18.5	-92.3	3.2
2025-01-02 18:24:20.464056	175.8	18.7	-92.5	2.9
2025-01-02 18:24:21.619441	175.8	18.8	-92.3	0.7
2025-01-02 18:24:22.775040	175.9	18.9	-92.2	1.9
2025-01-02 18:24:23.935089	176.0	19.1	-92.6	5.2
2025-01-02 18:24:25.086740	176.1	19.2	-92.4	6.1
2025-01-02 18:24:26.238153	176.1	19.3	-92.5	8.2
2025-01-02 18:24:27.396339	176.2	19.5	-92.7	6.8
2025-01-02 18:24:28.554372	176.3	19.6	-92.5	4.7
2025-01-02 18:24:29.715540	176.4	19.8	-93.1	2.6
2025-01-02 18:24:30.878407	176.4	19.9	-91.7	3.7
2025-01-02 18:24:32.036874	176.5	20.1	-92.8	6.1
2025-01-02 18:24:33.197953	176.6	20.2	-92.6	5.0
2025-01-02 18:24:34.350161	176.7	20.4	-92.5	3.8
2025-01-02 18:24:35.504509	176.8	20.5	-92.8	2.4
2025-01-02 18:24:36.657006	176.8	20.7	-92.3	1.8
2025-01-02 18:24:37.815395	176.9	20.8	-92.6	2.7
2025-01-02 18:24:38.983711	177.0	21.0	-92.9	3.6
2025-01-02 18:24:40.135907	177.1	21.1	-92.1	5.7
2025-01-02 18:24:41.293558	177.2	21.3	-92.2	8.3
2025-01-02 18:24:42.454835	177.3	21.4	-92.4	9.4
2025-01-02 18:24:43.613253	177.3	21.6	-92.6	6.3
2025-01-02 18:24:44.773365	177.4	21.7	-92.5	5.5
2025-01-02 18:24:45.938519	177.5	21.9	-92.2	5.7
2025-01-02 18:24:47.098116	177.6	22.0	-92.1	7.8
2025-01-02 18:24:48.255515	177.7	22.2	-92.3	11.6
2025-01-02 18:24:49.410998	177.8	22.3	-92.1	12.2
2025-01-02 18:24:50.563819	177.9	22.5	-92.3	11.1
2025-01-02 18:24:51.720962	178.0	22.7	-92.6	5.3
2025-01-02 18:24:52.879034	178.1	22.8	-92.6	1.9
2025-01-02 18:24:54.035190	178.1	23.0	-92.5	3.9
2025-01-02 18:24:55.191334	178.2	23.1	-92.5	2.9
2025-01-02 18:24:56.357502	178.3	23.3	-92.4	4.7
2025-01-02 18:24:57.506178	178.4	23.5	-92.8	7.8
2025-01-02 18:24:58.662125	178.5	23.6	-92.8	10.0
2025-01-02 18:24:59.818082	178.6	23.8	-91.8	12.8
2025-01-02 18:25:00.958844	178.7	24.0	-92.4	9.3
2025-01-02 18:25:02.115826	178.8	24.1	-92.0	10.4
2025-01-02 18:25:03.268739	178.9	24.3	-92.4	6.8
2025-01-02 18:25:04.425653	179.0	24.5	-92.4	10.2
2025-01-02 18:25:05.577502	179.1	24.6	-91.8	10.2
2025-01-02 18:25:06.724126	179.2	24.8	-92.5	11.7
2025-01-02 18:25:07.884121	179.3	25.0	-92.7	5.5
2025-01-02 18:25:09.044219	179.4	25.1	-92.0	3.9
2025-01-02 18:25:10.194669	179.5	25.3	-92.4	0.7
2025-01-02 18:25:11.347394	179.7	25.5	-92.4	2.5
2025-01-02 18:25:12.501618	179.8	25.7	-92.5	6.8
2025-01-02 18:25:13.658575	179.9	25.9	-92.9	9.6
2025-01-02 18:25:14.818861	180.0	26.0	-92.6	8.6
2025-01-02 18:25:15.977106	180.1	26.2	-92.5	12.3
2025-01-02 18:25:17.130574	180.2	26.4	-92.3	8.3
2025-01-02 18:25:18.283579	180.3	26.6	-92.5	4.5
2025-01-02 18:25:19.437363	180.4	26.8	-92.4	4.2
2025-01-02 18:25:20.596347	180.6	26.9	-92.6	12.7
2025-01-02 18:25:21.754837	180.7	27.1	-92.6	11.0
2025-01-02 18:25:22.904180	180.8	27.3	-92.4	13.8
2025-01-02 18:25:24.065389	180.9	27.5	-92.4	5.0
2025-01-02 18:25:25.221960	181.0	27.7	-92.3	3.7
2025-01-02 18:25:26.369608	181.2	27.9	-92.6	2.5
2025-01-02 18:25:27.522605	181.3	28.1	-92.7	4.0
2025-01-02 18:25:28.677504	181.4	28.3	-92.9	2.2
2025-01-02 18:25:29.828242	181.6	28.5	-92.6	3.5
2025-01-02 18:25:30.985179	181.7	28.6	-92.3	5.5
2025-01-02 18:25:32.140165	181.8	28.8	-92.4	8.9
2025-01-02 18:25:33.297845	182.0	29.0	-92.0	16.1
2025-01-02 18:25:34.458410	182.1	29.2	-92.3	7.6
2025-01-02 18:25:35.614044	182.2	29.4	-92.7	2.8
2025-01-02 18:25:36.765762	182.4	29.6	-92.7	5.9
2025-01-02 18:25:37.921727	182.5	29.8	-93.1	6.5
2025-01-02 18:25:39.073259	182.6	30.0	-92.3	6.1
2025-01-02 18:25:40.221768	182.8	30.2	-92.3	9.7
2025-01-02 18:25:41.379370	182.9	30.5	-92.4	10.6
2025-01-02 18:25:42.528368	183.1	30.7	-92.7	7.4
2025-01-02 18:25:43.686842	183.2	30.9	-92.5	2.8
2025-01-02 18:25:44.842295	183.4	31.1	-92.6	2.7
2025-01-02 18:25:46.002915	183.5	31.3	-92.8	5.0
2025-01-02 18:25:47.157554	183.7	31.5	-92.6	3.7
2025-01-02 18:25:48.315416	183.8	31.7	-92.6	6.0
2025-01-02 18:25:49.473471	184.0	31.9	-92.9	7.7
2025-01-02 18:25:50.629552	184.2	32.1	-92.7	6.4
2025-01-02 18:25:51.768966	184.3	32.4	-92.7	8.5
2025-01-02 18:25:52.919940	184.5	32.6	-92.5	10.9
2025-01-02 18:25:54.046652	184.6	32.8	-92.5	7.3
2025-01-02 18:25:55.167236	184.8	33.0	-92.4	7.4
2025-01-02 18:25:56.288509	185.0	33.2	-92.5	7.7
2025-01-02 18:25:57.408960	185.1	33.4	-92.6	7.8
2025-01-02 18:25:58.529825	185.3	33.7	-92.6	12.6
2025-01-02 18:25:59.650375	185.5	33.9	-92.7	8.4
2025-01-02 18:26:00.771683	185.7	34.1	-92.6	7.6
2025-01-02 18:26:01.906421	185.8	34.3	-92.6	6.8
2025-01-02 18:26:03.055618	186.0	34.6	-92.8	5.5
2025-01-02 18:26:04.206107	186.2	34.8	-92.7	1.8
2025-01-02 18:26:05.357707	186.4	35.0	-92.8	2.1
2025-01-02 18:26:06.506896	186.6	35.3	-93.0	5.5
2025-01-02 18:26:07.657748	186.8	35.5	-92.4	10.6
2025-01-02 18:26:08.815349	187.0	35.7	-92.3	13.6
2025-01-02 18:26:09.975531	187.2	36.0	-92.7	12.3
2025-01-02 18:26:11.133432	187.4	36.2	-92.6	9.1
2025-01-02 18:26:12.283389	187.6	36.4	-92.2	7.0
2025-01-02 18:26:13.433872	187.8	36.7	-92.6	7.9
2025-01-02 18:26:14.586396	188.0	36.9	-92.7	11.8
2025-01-02 18:26:15.746559	188.2	37.2	-92.9	5.2
2025-01-02 18:26:16.899900	188.5	37.4	-92.5	11.9
2025-01-02 18:26:18.049062	188.7	37.7	-92.4	14.9
2025-01-02 18:26:19.202168	188.9	37.9	-92.0	8.0
2025-01-02 18:26:20.358336	189.1	38.2	-92.2	6.4
2025-01-02 18:26:21.514215	189.4	38.4	-92.7	2.3
2025-01-02 18:26:22.658284	189.6	38.7	-92.8	3.2
2025-01-02 18:26:23.797834	189.8	38.9	-92.7	2.2
2025-01-02 18:26:24.948568	190.1	39.2	-92.9	2.7
2025-01-02 18:26:26.091257	190.3	39.4	-92.1	8.9
2025-01-02 18:26:27.215355	190.6	39.7	-92.6	9.5
2025-01-02 18:26:28.363650	190.8	40.0	-92.4	13.5
2025-01-02 18:26:29.507713	191.1	40.2	-92.8	15.8
2025-01-02 18:26:30.656493	191.4	40.5	-93.2	11.4
2025-01-02 18:26:31.801390	191.6	40.7	-92.7	8.5
2025-01-02 18:26:32.950801	191.9	41.0	-92.8	7.8
2025-01-02 18:26:34.107781	192.2	41.3	-92.5	13.6
2025-01-02 18:26:35.264849	192.5	41.5	-91.9	9.2
2025-01-02 18:26:36.415347	192.7	41.8	-92.7	16.3
2025-01-02 18:26:37.571363	193.0	42.1	-92.7	15.2
2025-01-02 18:26:38.723047	193.3	42.4	-92.5	17.2
2025-01-02 18:26:39.871398	193.6	42.6	-92.9	13.4
2025-01-02 18:26:41.021961	193.9	42.9	-92.7	9.8
2025-01-02 18:26:42.176278	194.2	43.2	-92.2	5.9
2025-01-02 18:26:43.327011	194.6	43.4	-92.2	3.0
2025-01-02 18:26:44.483146	194.9	43.7	-92.4	6.3
2025-01-02 18:26:45.637276	195.2	44.0	-92.7	6.8
2025-01-02 18:26:46.798042	195.5	44.3	-92.4	8.2
2025-01-02 18:26:47.954842	195.9	44.6	-92.6	12.9
2025-01-02 18:26:49.113183	196.2	44.8	-92.4	14.8
2025-01-02 18:26:50.263438	196.6	45.1	-92.4	17.9
2025-01-02 18:26:51.416653	196.9	45.4	-92.7	17.3
2025-01-02 18:26:52.564942	197.3	45.7	-92.4	14.1
2025-01-02 18:26:53.720503	197.7	46.0	-92.8	8.8
2025-01-02 18:26:54.878970	198.0	46.3	-92.8	10.5
2025-01-02 18:26:56.028722	198.4	46.5	-92.9	10.0
2025-01-02 18:26:57.181779	198.8	46.8	-92.7	7.9
2025-01-02 18:26:58.341188	199.2	47.1	-92.8	12.5
2025-01-02 18:26:59.498398	199.6	47.4	-92.9	19.3
2025-01-02 18:27:00.642033	200.0	47.7	-92.9	15.7
2025-01-02 18:27:01.797230	200.4	48.0	-92.9	12.5
2025-01-02 18:27:02.945709	200.9	48.3	-92.6	11.9
2025-01-02 18:27:04.101616	201.3	48.6	-92.5	8.8
2025-01-02 18:27:05.263690	201.7	48.8	-92.3	1.9
2025-01-02 18:27:06.418635	202.2	49.1	-92.7	4.9
2025-01-02 18:27:07.577242	202.6	49.4	-92.8	2.8
2025-01-02 18:27:08.728671	203.1	49.7	-92.9	2.6
2025-01-02 18:27:09.883288	203.6	50.0	-93.1	3.7
2025-01-02 18:27:11.034896	204.1	50.3	-92.6	3.1
2025-01-02 18:27:12.189798	204.6	50.6	-92.3	10.7
2025-01-02 18:27:13.339237	205.1	50.9	-92.2	7.1
2025-01-02 18:27:14.499158	205.6	51.1	-92.4	13.9
2025-01-02 18:27:15.656582	206.1	51.4	-92.9	14.7
2025-01-02 18:27:16.808017	206.6	51.7	-92.6	12.3
2025-01-02 18:27:17.969778	207.2	52.0	-92.6	9.4
2025-01-02 18:27:19.131287	207.7	52.3	-92.6	7.6
2025-01-02 18:27:20.285527	208.3	52.6	-92.5	5.9
2025-01-02 18:27:21.444124	208.9	52.9	-92.9	7.2
2025-01-02 18:27:22.593573	209.5	53.1	-92.8	10.9
2025-01-02 18:27:23.747321	210.1	53.4	-92.5	8.7
2025-01-02 18:27:24.903604	210.7	53.7	-92.5	13.5
2025-01-02 18:27:26.055902	211.3	54.0	-92.5	14.8
2025-01-02 18:27:27.211085	211.9	54.2	-92.2	14.2
2025-01-02 18:27:28.372109	212.6	54.5	-92.5	16.0
2025-01-02 18:27:29.530119	213.2	54.8	-92.7	9.6
2025-01-02 18:27:30.674526	213.9	55.0	-93.0	7.2
2025-01-02 18:27:31.835096	214.6	55.3	-92.6	7.0
2025-01-02 18:27:32.991766	215.3	55.6	-93.0	9.6
2025-01-02 18:27:34.140822	216.0	55.8	-92.7	4.1
2025-01-02 18:27:35.294101	216.7	56.1	-92.0	1.8
2025-01-02 18:27:36.449868	217.4	56.3	-92.6	8.9
2025-01-02 18:27:37.604252	218.2	56.6	-92.8	12.9
2025-01-02 18:27:38.764686	218.9	56.8	-92.5	9.4
2025-01-02 18:27:39.922655	219.7	57.1	-92.8	15.7
2025-01-02 18:27:41.072233	220.5	57.3	-92.4	16.6
2025-01-02 18:27:42.230991	221.3	57.5	-92.5	15.6
2025-01-02 18:27:43.382260	222.1	57.8	-92.5	22.0
2025-01-02 18:27:44.539458	222.9	58.0	-92.3	20.7
2025-01-02 18:27:45.689825	223.8	58.2	-92.5	19.8
2025-01-02 18:27:46.841795	224.6	58.4	-92.5	18.3
2025-01-02 18:27:47.993275	225.5	58.6	-92.7	18.9
2025-01-02 18:27:49.151548	226.4	58.8	-92.4	14.1
2025-01-02 18:27:50.304648	227.3	59.0	-92.7	12.8
2025-01-02 18:27:51.460528	228.2	59.2	-92.9	11.3
2025-01-02 18:27:52.612613	229.1	59.4	-92.7	14.7
2025-01-02 18:27:53.762388	230.0	59.6	-92.7	8.7
2025-01-02 18:27:54.917474	231.0	59.8	-92.7	13.9
2025-01-02 18:27:56.073739	231.9	59.9	-92.7	10.2
2025-01-02 18:27:57.227436	232.9	60.1	-92.5	9.5
2025-01-02 18:27:58.379388	233.9	60.2	-92.5	13.9
2025-01-02 18:27:59.533601	234.9	60.4	-92.4	18.8
2025-01-02 18:28:00.682142	235.9	60.5	-92.8	16.8
2025-01-02 18:28:01.836377	236.9	60.6	-92.8	17.1
2025-01-02 18:28:02.996038	237.9	60.8	-92.5	16.2
2025-01-02 18:28:04.146531	239.0	60.9	-92.4	15.8
2025-01-02 18:28:05.293586	240.0	61.0	-93.0	19.3
2025-01-02 18:28:06.430134	241.0	61.1	-93.0	18.3
2025-01-02 18:28:07.556556	242.1	61.2	-92.7	17.0
2025-01-02 18:28:08.677157	243.1	61.3	-92.8	16.2
2025-01-02 18:28:09.797878	244.2	61.3	-91.8	12.2
2025-01-02 18:28:10.918890	245.2	61.4	-91.9	13.0
2025-01-02 18:28:12.038783	246.3	61.5	-91.4	9.3
2025-01-02 18:28:13.163048	247.3	61.5	-92.1	9.4
2025-01-02 18:28:14.284196	248.4	61.5	-92.2	7.9
2025-01-02 18:28:15.429381	249.5	61.6	-92.6	12.0
2025-01-02 18:28:16.575714	250.6	61.6	-92.7	6.8
2025-01-02 18:28:17.721437	251.7	61.6	-92.6	5.6
2025-01-02 18:28:18.843558	252.7	61.6	-92.8	4.7
2025-01-02 18:28:19.991011	253.8	61.6	-92.6	9.1
2025-01-02 18:28:21.136509	254.9	61.6	-92.7	7.0
2025-01-02 18:28:22.281247	256.0	61.6	-92.0	4.3
2025-01-02 18:28:23.433401	257.1	61.5	-89.8	5.5
2025-01-02 18:28:24.578005	258.2	61.5	-93.0	8.2
2025-01-02 18:28:25.738822	259.3	61.5	-92.7	4.0
2025-01-02 18:28:26.891620	260.4	61.4	-92.7	5.1
2025-01-02 18:28:28.052850	261.4	61.3	-92.7	8.6
2025-01-02 18:28:29.204257	262.5	61.3	-92.5	8.1
2025-01-02 18:28:30.352893	263.6	61.2	-92.4	5.0
2025-01-02 18:28:31.500952	264.6	61.1	-92.8	6.1
2025-01-02 18:28:32.659162	265.7	61.0	-93.1	6.8
2025-01-02 18:28:33.816623	266.7	60.9	-93.1	8.6
2025-01-02 18:28:34.972851	267.8	60.8	-92.8	8.4
2025-01-02 18:28:36.132112	268.8	60.6	-92.5	13.4
2025-01-02 18:28:37.288733	269.8	60.5	-92.6	7.5
2025-01-02 18:28:38.449096	270.8	60.4	-92.9	4.9
2025-01-02 18:28:39.602062	271.8	60.2	-92.8	7.4
2025-01-02 18:28:40.752341	272.8	60.1	-92.0	9.0
2025-01-02 18:28:41.916214	273.8	59.9	-92.1	10.3
2025-01-02 18:28:43.075547	274.7	59.7	-91.5	2.9
2025-01-02 18:28:44.232124	275.7	59.6	-92.1	4.5
2025-01-02 18:28:45.390942	276.6	59.4	-91.8	8.5
2025-01-02 18:28:46.543367	277.5	59.2	-91.9	14.2
2025-01-02 18:28:47.699523	278.4	59.0	-92.0	16.7
2025-01-02 18:28:48.851067	279.3	58.8	-92.4	10.1
2025-01-02 18:28:50.006758	280.2	58.6	-91.9	10.4
2025-01-02 18:28:51.152123	281.1	58.4	-91.3	11.0
2025-01-02 18:28:52.308351	281.9	58.2	-92.3	10.3
2025-01-02 18:28:53.463399	282.7	58.0	-92.7	16.8
2025-01-02 18:28:54.631855	283.6	57.7	-92.4	13.9
2025-01-02 18:28:55.791379	284.4	57.5	-92.3	14.1
2025-01-02 18:28:56.952496	285.2	57.3	-92.7	13.7
2025-01-02 18:28:58.108972	286.0	57.0	-92.8	18.1
2025-01-02 18:28:59.268456	286.8	56.8	-92.1	17.9
2025-01-02 18:29:00.413125	287.5	56.5	-92.5	18.0
2025-01-02 18:29:01.564596	288.2	56.3	-92.9	11.9
2025-01-02 18:29:02.720180	289.0	56.0	-92.7	10.8
2025-01-02 18:29:03.879207	289.7	55.8	-92.5	15.4
2025-01-02 18:29:05.017581	290.4	55.5	-91.8	11.4
2025-01-02 18:29:06.169611	291.1	55.3	-91.5	7.5
2025-01-02 18:29:07.290225	291.7	55.0	-91.8	7.1
2025-01-02 18:29:08.410829	292.4	54.8	-91.4	10.5
2025-01-02 18:29:09.532005	293.0	54.5	-91.7	13.0
2025-01-02 18:29:10.651962	293.6	54.2	-92.0	14.4
2025-01-02 18:29:11.772436	294.3	54.0	-92.0	10.5
2025-01-02 18:29:12.894631	294.9	53.7	-91.7	11.3
2025-01-02 18:29:14.021428	295.5	53.4	-91.4	10.9
2025-01-02 18:29:15.159962	296.0	53.2	-91.7	10.9
2025-01-02 18:29:16.312765	296.6	52.9	-91.7	6.5
2025-01-02 18:29:17.463950	297.2	52.6	-92.3	6.8
2025-01-02 18:29:18.620853	297.8	52.3	-92.6	9.9
2025-01-02 18:29:19.767514	298.3	52.0	-92.8	3.8
2025-01-02 18:29:20.921989	298.9	51.8	-92.7	6.3
2025-01-02 18:29:22.077830	299.4	51.5	-92.5	5.6
2025-01-02 18:29:23.232175	299.9	51.2	-92.6	4.3
2025-01-02 18:29:24.387833	300.4	50.9	-92.5	5.3
2025-01-02 18:29:25.540359	300.9	50.6	-92.2	7.3
2025-01-02 18:29:26.694474	301.4	50.3	-92.8	4.9
2025-01-02 18:29:27.841000	301.9	50.0	-92.9	4.1
2025-01-02 18:29:28.992885	302.4	49.8	-92.5	7.8
2025-01-02 18:29:30.147147	302.9	49.5	-92.6	3.7
2025-01-02 18:29:31.300287	303.3	49.2	-92.4	5.8
2025-01-02 18:29:32.457108	303.8	48.9	-92.6	10.8
2025-01-02 18:29:33.613901	304.2	48.6	-92.5	8.0
2025-01-02 18:29:34.770983	304.7	48.3	-92.0	6.4
2025-01-02 18:29:35.918949	305.1	48.0	-92.8	9.5
2025-01-02 18:29:37.075609	305.5	47.7	-92.4	9.7
2025-01-02 18:29:38.230951	305.9	47.4	-92.4	11.7
2025-01-02 18:29:39.385834	306.3	47.2	-92.9	12.4
2025-01-02 18:29:40.537332	306.7	46.9	-91.4	11.2
2025-01-02 18:29:41.695239	307.1	46.6	-92.7	14.2
2025-01-02 18:29:42.850952	307.5	46.3	-92.5	17.8
2025-01-02 18:29:44.001285	307.9	46.0	-92.4	16.0
2025-01-02 18:29:45.151495	308.2	45.7	-92.4	9.6
2025-01-02 18:29:46.311733	308.6	45.5	-91.9	19.4
2025-01-02 18:29:47.466946	308.9	45.2	-92.6	10.7
2025-01-02 18:29:48.622754	309.3	44.9	-92.6	12.3
2025-01-02 18:29:49.776324	309.6	44.6	-92.5	11.2
2025-01-02 18:29:50.921072	310.0	44.3	-92.5	9.2
2025-01-02 18:29:52.080675	310.3	44.1	-92.0	7.6
2025-01-02 18:29:53.236970	310.6	43.8	-92.0	5.5
2025-01-02 18:29:54.391810	311.0	43.5	-92.0	6.6
2025-01-02 18:29:55.540083	311.3	43.2	-91.2	4.8
2025-01-02 18:29:56.696808	311.6	42.9	-92.2	2.5
2025-01-02 18:29:57.860393	311.9	42.7	-92.0	6.5
2025-01-02 18:29:59.014225	312.2	42.4	-92.2	6.1
2025-01-02 18:30:00.163228	312.5	42.1	-90.8	7.7
2025-01-02 18:30:01.306855	312.8	41.9	-90.4	6.7
2025-01-02 18:30:02.464525	313.1	41.6	-91.6	11.4
2025-01-02 18:30:03.619035	313.3	41.3	-91.0	11.7
2025-01-02 18:30:04.774700	313.6	41.1	-91.4	9.9
2025-01-02 18:30:05.932772	313.9	40.8	-91.4	16.3
2025-01-02 18:30:07.079220	314.2	40.5	-91.5	13.9
2025-01-02 18:30:08.237898	314.4	40.3	-92.2	19.2
2025-01-02 18:30:09.402367	314.7	40.0	-92.5	15.4
2025-01-02 18:30:10.555572	314.9	39.7	-92.8	16.4
2025-01-02 18:30:11.703989	315.2	39.5	-92.9	13.7
2025-01-02 18:30:12.851985	315.4	39.2	-92.6	6.5
2025-01-02 18:30:14.011296	315.7	39.0	-93.2	8.7
2025-01-02 18:30:15.166467	315.9	38.7	-92.9	5.1
2025-01-02 18:30:16.324019	316.2	38.5	-92.2	5.1
2025-01-02 18:30:17.481512	316.4	38.2	-92.7	7.9
2025-01-02 18:30:18.645416	316.6	38.0	-92.8	6.6
2025-01-02 18:30:19.799649	316.9	37.7	-92.7	4.8
2025-01-02 18:30:20.953609	317.1	37.5	-92.7	6.2
2025-01-02 18:30:22.110905	317.3	37.2	-92.4	7.2
2025-01-02 18:30:23.270084	317.5	37.0	-92.5	5.1
2025-01-02 18:30:24.427733	317.7	36.7	-92.7	5.6
2025-01-02 18:30:25.585100	317.9	36.5	-92.5	5.0
2025-01-02 18:30:26.740049	318.1	36.2	-92.9	11.9
2025-01-02 18:30:27.898493	318.4	36.0	-92.6	8.5
2025-01-02 18:30:29.054732	318.6	35.8	-92.5	11.9
2025-01-02 18:30:30.213769	318.8	35.5	-92.4	14.7
2025-01-02 18:30:31.374973	319.0	35.3	-92.6	11.2
2025-01-02 18:30:32.531309	319.1	35.1	-92.5	12.3
2025-01-02 18:30:33.680429	319.3	34.8	-92.8	8.5
2025-01-02 18:30:34.834776	319.5	34.6	-92.5	6.4
2025-01-02 18:30:35.985239	319.7	34.4	-92.6	6.7
2025-01-02 18:30:37.140035	319.9	34.1	-92.2	5.5
2025-01-02 18:30:38.290674	320.1	33.9	-92.4	3.7
2025-01-02 18:30:39.448883	320.2	33.7	-92.5	4.5
2025-01-02 18:30:40.599193	320.4	33.5	-92.7	7.9
2025-01-02 18:30:41.758493	320.6	33.2	-92.7	3.2
2025-01-02 18:30:42.911880	320.8	33.0	-92.9	7.9
2025-01-02 18:30:44.069750	320.9	32.8	-92.3	8.6
2025-01-02 18:30:45.233146	321.1	32.6	-92.6	10.4
2025-01-02 18:30:46.386718	321.3	32.4	-92.2	12.8
2025-01-02 18:30:47.544201	321.4	32.1	-92.6	14.4
2025-01-02 18:30:48.696753	321.6	31.9	-92.3	9.9
2025-01-02 18:30:49.857086	321.7	31.7	-92.2	11.9
2025-01-02 18:30:51.007085	321.9	31.5	-92.8	9.9
2025-01-02 18:30:52.170171	322.1	31.3	-92.2	12.9
2025-01-02 18:30:53.305015	322.2	31.1	-92.2	8.0
2025-01-02 18:30:54.443779	322.4	30.9	-92.7	9.7
2025-01-02 18:30:55.594721	322.5	30.7	-92.9	8.8
2025-01-02 18:30:56.751137	322.7	30.5	-92.8	4.2
2025-01-02 18:30:57.903448	322.8	30.3	-92.6	8.7
2025-01-02 18:30:59.052764	322.9	30.0	-92.4	6.6
2025-01-02 18:31:00.198295	323.1	29.8	-92.4	3.6
2025-01-02 18:31:01.349126	323.2	29.6	-92.6	7.8
2025-01-02 18:31:02.500136	323.4	29.4	-93.2	6.5
2025-01-02 18:31:03.655949	323.5	29.2	-92.8	8.5
2025-01-02 18:31:04.812796	323.6	29.1	-92.8	14.0
2025-01-02 18:31:05.975324	323.8	28.9	-92.9	10.7
2025-01-02 18:31:07.134958	323.9	28.7	-92.2	7.9
2025-01-02 18:31:08.308458	324.0	28.5	-92.6	8.7
2025-01-02 18:31:09.462737	324.2	28.3	-92.9	7.8
2025-01-02 18:31:10.626140	324.3	28.1	-92.9	5.9
2025-01-02 18:31:11.778822	324.4	27.9	-92.8	2.6
2025-01-02 18:31:12.925533	324.5	27.7	-92.7	4.5
2025-01-02 18:31:14.080629	324.7	27.5	-92.5	3.6
2025-01-02 18:31:15.234055	324.8	27.3	-92.3	0.7
2025-01-02 18:31:16.389516	324.9	27.1	-93.1	5.2
2025-01-02 18:31:17.546572	325.0	27.0	-92.8	7.4
2025-01-02 18:31:18.696342	325.1	26.8	-92.9	12.4
2025-01-02 18:31:19.844931	325.3	26.6	-92.6	5.3
2025-01-02 18:31:20.992009	325.4	26.4	-93.0	8.5
2025-01-02 18:31:22.150209	325.5	26.2	-92.4	7.1
2025-01-02 18:31:23.301193	325.6	26.1	-92.8	4.3
2025-01-02 18:31:24.456775	325.7	25.9	-92.9	6.0
2025-01-02 18:31:25.607900	325.8	25.7	-92.0	6.8
2025-01-02 18:31:26.771071	325.9	25.5	-92.8	4.2
2025-01-02 18:31:27.928688	326.0	25.3	-92.7	4.2
2025-01-02 18:31:29.083798	326.1	25.2	-92.7	5.2
2025-01-02 18:31:30.235375	326.2	25.0	-92.7	2.1
2025-01-02 18:31:31.382103	326.4	24.8	-92.5	0.2
2025-01-02 18:31:32.542904	326.5	24.7	-92.5	1.0
2025-01-02 18:31:33.693615	326.6	24.5	-92.7	4.2
2025-01-02 18:31:34.850151	326.7	24.3	-92.8	2.6
2025-01-02 18:31:36.014257	326.8	24.1	-92.7	12.2
2025-01-02 18:31:37.168323	326.9	24.0	-92.7	4.9
2025-01-02 18:31:38.332442	327.0	23.8	-92.2	3.1
2025-01-02 18:31:39.495243	327.1	23.7	-92.9	8.5
2025-01-02 18:31:40.656303	327.2	23.5	-93.0	3.2
2025-01-02 18:31:41.804962	327.2	23.3	-92.5	3.6
2025-01-02 18:31:42.959311	327.3	23.2	-92.8	1.9
2025-01-02 18:31:44.113018	327.4	23.0	-92.6	3.0
2025-01-02 18:31:45.268375	327.5	22.8	-92.6	1.3
2025-01-02 18:31:46.425178	327.6	22.7	-92.9	4.9
2025-01-02 18:31:47.579177	327.7	22.5	-92.3	4.0
2025-01-02 18:31:48.738596	327.8	22.4	-92.5	5.2
2025-01-02 18:31:49.893719	327.9	22.2	-92.6	5.3
2025-01-02 18:31:51.054333	328.0	22.1	-92.4	2.7
2025-01-02 18:31:52.206776	328.1	21.9	-92.0	7.7
2025-01-02 18:31:53.370194	328.2	21.7	-92.2	9.3
2025-01-02 18:31:54.527714	328.2	21.6	-92.2	4.0
2025-01-02 18:31:55.684199	328.3	21.4	-92.5	1.3
2025-01-02 18:31:56.832008	328.4	21.3	-92.6	2.0
2025-01-02 18:31:57.986939	328.5	21.1	-92.6	4.7
2025-01-02 18:31:59.145009	328.6	21.0	-92.5	3.5
2025-01-02 18:32:00.297296	328.7	20.8	-92.5	0.7
2025-01-02 18:32:01.451536	328.7	20.7	-92.7	1.2
2025-01-02 18:32:02.613630	328.8	20.5	-92.3	5.1
2025-01-02 18:32:03.763239	328.9	20.4	-92.7	1.4
2025-01-02 18:32:04.920797	329.0	20.3	-92.5	3.4
2025-01-02 18:32:06.071067	329.1	20.1	-92.5	1.1
2025-01-02 18:32:07.225095	329.1	20.0	-92.4	3.1
2025-01-02 18:32:08.375738	329.2	19.8	-92.6	0.1
2025-01-02 18:32:09.523205	329.3	19.7	-92.7	3.0
2025-01-02 18:32:10.669389	329.4	19.5	-92.8	4.9
2025-01-02 18:32:11.790041	329.4	19.4	-92.4	3.6
2025-01-02 18:32:12.910373	329.5	19.3	-92.7	0.9
2025-01-02 18:32:14.030402	329.6	19.1	-92.5	2.1
2025-01-02 18:32:15.150721	329.7	19.0	-92.2	3.5
2025-01-02 18:32:16.271232	329.7	18.9	-92.3	3.2
2025-01-02 18:32:17.391730	329.8	18.7	-92.5	2.8
2025-01-02 18:32:18.517055	329.9	18.6	-92.5	5.3
2025-01-02 18:32:19.656005	329.9	18.5	-92.9	3.4
2025-01-02 18:32:20.812355	330.0	18.3	-92.4	5.4
2025-01-02 18:32:21.959288	330.1	18.2	-92.4	2.4
2025-01-02 18:32:23.114372	330.2	18.1	-92.2	3.1
2025-01-02 18:32:24.257819	330.2	17.9	-92.6	4.5
2025-01-02 18:32:25.422673	330.3	17.8	-92.7	2.2
2025-01-02 18:32:26.577838	330.4	17.7	-93.0	2.4
2025-01-02 18:32:27.731479	330.4	17.5	-93.0	1.1
2025-01-02 18:32:28.879866	330.5	17.4	-92.5	2.5
2025-01-02 18:32:30.026542	330.6	17.3	-92.5	2.4
2025-01-02 18:32:31.185482	330.6	17.1	-91.5	3.5
2025-01-02 18:32:32.337161	330.7	17.0	-92.2	3.4
2025-01-02 18:32:33.493081	330.8	16.9	-92.7	2.9
2025-01-02 18:32:34.643645	330.8	16.8	-93.0	6.0
2025-01-02 18:32:35.799327	330.9	16.6	-92.5	1.7
2025-01-02 18:32:36.951880	330.9	16.5	-92.6	6.5
2025-01-02 18:32:38.107511	331.0	16.4	-92.3	1.9
2025-01-02 18:32:39.266241	331.1	16.3	-92.2	2.6
2025-01-02 18:32:40.422453	331.1	16.1	-92.7	3.4
2025-01-02 18:32:41.576797	331.2	16.0	-92.9	4.2
2025-01-02 18:32:42.738297	331.3	15.9	-92.8	4.0
2025-01-02 18:32:43.892181	331.3	15.8	-93.0	1.6
2025-01-02 18:32:45.043115	331.4	15.6	-92.4	3.4
2025-01-02 18:32:46.200486	331.4	15.5	-92.3	4.1
2025-01-02 18:32:47.361734	331.5	15.4	-92.5	3.0
2025-01-02 18:32:48.513057	331.6	15.3	-92.7	8.6
2025-01-02 18:32:49.670380	331.6	15.2	-92.6	6.5
2025-01-02 18:32:50.824506	331.7	15.0	-92.7	0.9
2025-01-02 18:32:51.978426	331.7	14.9	-92.7	1.1
2025-01-02 18:32:53.133366	331.8	14.8	-92.7	1.0
2025-01-02 18:32:54.389892	331.8	14.7	-92.9	1.7
2025-01-02 18:32:55.547523	331.9	14.6	-92.9	2.8
#Closed at: 2025-01-02 18:23:52.447022