passes_logs/2025/01/02/LEX_Murmansk/LEX_Murmansk__20250102_100431_NOAA_19_rec.log

#Pass ID: 20250102_100431_NOAA 19
#Satellite: NOAA 19
#Configuration: NOAA 19
#Start time: 2025-01-02 10:04:26.611857

#LorettStation: 1.0.0 05.05.2024
#Station: LEX_Murmansk
#Location: 33.156738 lon 68.926811 lat
#TLE: 1 33591U 09005A   25001.83569820  .00001454  00000+0  79919-3 0  9995
#TLE: 2 33591  99.0217  65.4951 0014707  92.5482 267.7374 14.13252981819684

#Time	Az	El	Level	SNR
2025-01-02 10:04:38.840597	23.5	16.3	-92.4	3.5
2025-01-02 10:04:39.988891	23.5	16.4	-92.7	3.4
2025-01-02 10:04:41.136250	23.4	16.5	-92.1	5.5
2025-01-02 10:04:42.282656	23.3	16.6	-91.8	3.6
2025-01-02 10:04:43.428799	23.2	16.8	-92.3	1.9
2025-01-02 10:04:44.577409	23.1	16.9	-91.4	4.4
2025-01-02 10:04:45.724324	23.1	17.0	-91.4	6.4
2025-01-02 10:04:46.872984	23.0	17.1	-91.5	4.3
2025-01-02 10:04:48.019604	22.9	17.2	-91.6	3.0
2025-01-02 10:04:49.165998	22.8	17.4	-90.8	3.0
2025-01-02 10:04:50.316739	22.7	17.5	-91.0	3.0
2025-01-02 10:04:51.464280	22.6	17.6	-92.5	12.1
2025-01-02 10:04:52.614160	22.6	17.8	-91.5	8.1
2025-01-02 10:04:53.761407	22.5	17.9	-90.9	1.6
2025-01-02 10:04:54.907671	22.4	18.0	-91.6	4.6
2025-01-02 10:04:56.059417	22.3	18.1	-91.5	5.5
2025-01-02 10:04:57.203308	22.2	18.3	-91.0	3.0
2025-01-02 10:04:58.350185	22.1	18.4	-90.8	1.7
2025-01-02 10:04:59.498498	22.0	18.5	-91.6	3.1
2025-01-02 10:05:00.641820	21.9	18.7	-91.5	5.9
2025-01-02 10:05:01.791344	21.8	18.8	-91.7	2.6
2025-01-02 10:05:02.940307	21.7	18.9	-91.4	4.4
2025-01-02 10:05:04.088904	21.6	19.1	-92.1	9.1
2025-01-02 10:05:05.232677	21.5	19.2	-92.1	4.4
2025-01-02 10:05:06.380393	21.4	19.3	-92.2	5.2
2025-01-02 10:05:07.525967	21.4	19.5	-92.6	6.4
2025-01-02 10:05:08.670144	21.3	19.6	-92.3	5.2
2025-01-02 10:05:09.819750	21.2	19.7	-92.4	9.1
2025-01-02 10:05:10.966965	21.1	19.9	-92.4	7.3
2025-01-02 10:05:12.109750	21.0	20.0	-91.8	5.9
2025-01-02 10:05:13.255389	20.9	20.2	-92.0	2.2
2025-01-02 10:05:14.403107	20.7	20.3	-92.8	3.2
2025-01-02 10:05:15.552071	20.6	20.4	-92.2	1.6
2025-01-02 10:05:16.702718	20.5	20.6	-92.5	4.5
2025-01-02 10:05:17.845853	20.4	20.7	-92.8	7.8
2025-01-02 10:05:18.994274	20.3	20.9	-91.4	6.9
2025-01-02 10:05:20.139619	20.2	21.0	-92.2	8.2
2025-01-02 10:05:21.285240	20.1	21.1	-92.2	6.9
2025-01-02 10:05:22.429367	20.0	21.3	-92.4	2.6
2025-01-02 10:05:23.576523	19.9	21.4	-92.9	5.0
2025-01-02 10:05:24.722670	19.8	21.6	-92.7	3.9
2025-01-02 10:05:25.868417	19.7	21.7	-92.8	2.4
2025-01-02 10:05:27.024082	19.5	21.9	-92.9	11.9
2025-01-02 10:05:28.166423	19.4	22.0	-92.8	8.0
2025-01-02 10:05:29.319618	19.3	22.2	-92.7	3.2
2025-01-02 10:05:30.463519	19.2	22.3	-92.8	0.7
2025-01-02 10:05:31.611077	19.1	22.5	-92.9	2.6
2025-01-02 10:05:32.772082	19.0	22.6	-92.7	1.3
2025-01-02 10:05:33.919887	18.8	22.8	-92.9	5.3
2025-01-02 10:05:35.066604	18.7	22.9	-92.6	9.6
2025-01-02 10:05:36.211200	18.6	23.1	-92.4	11.5
2025-01-02 10:05:37.358508	18.5	23.2	-92.7	14.6
2025-01-02 10:05:38.501408	18.3	23.4	-91.9	4.2
2025-01-02 10:05:39.645851	18.2	23.5	-92.0	8.8
2025-01-02 10:05:40.797794	18.1	23.7	-92.1	2.8
2025-01-02 10:05:41.946512	17.9	23.9	-91.6	7.6
2025-01-02 10:05:43.092348	17.8	24.0	-91.5	15.5
2025-01-02 10:05:44.239906	17.7	24.2	-91.6	12.3
2025-01-02 10:05:45.386119	17.5	24.3	-92.4	9.8
2025-01-02 10:05:46.535749	17.4	24.5	-92.8	5.8
2025-01-02 10:05:47.679207	17.3	24.7	-92.7	3.5
2025-01-02 10:05:48.830789	17.1	24.8	-91.9	2.7
2025-01-02 10:05:49.978561	17.0	25.0	-91.9	3.7
2025-01-02 10:05:51.125810	16.9	25.1	-91.9	7.0
2025-01-02 10:05:52.277304	16.7	25.3	-91.8	6.2
2025-01-02 10:05:53.425889	16.6	25.5	-91.5	14.6
2025-01-02 10:05:54.575898	16.4	25.6	-91.9	10.7
2025-01-02 10:05:55.722918	16.3	25.8	-92.1	10.5
2025-01-02 10:05:56.866382	16.1	26.0	-92.0	6.1
2025-01-02 10:05:58.014929	16.0	26.1	-92.2	10.5
2025-01-02 10:05:59.163990	15.8	26.3	-91.7	10.6
2025-01-02 10:06:00.314814	15.7	26.5	-91.8	10.6
2025-01-02 10:06:01.460597	15.5	26.7	-91.5	10.7
2025-01-02 10:06:02.584884	15.3	26.8	-91.7	11.4
2025-01-02 10:06:03.736174	15.2	27.0	-91.6	5.6
2025-01-02 10:06:04.882560	15.0	27.2	-91.5	3.8
2025-01-02 10:06:06.033391	14.9	27.3	-91.6	2.6
2025-01-02 10:06:07.178035	14.7	27.5	-90.9	2.2
2025-01-02 10:06:08.325092	14.5	27.7	-91.7	2.8
2025-01-02 10:06:09.476441	14.4	27.9	-92.1	5.0
2025-01-02 10:06:10.624624	14.2	28.0	-92.4	8.0
2025-01-02 10:06:11.776643	14.0	28.2	-92.6	10.7
2025-01-02 10:06:12.926482	13.8	28.4	-92.3	10.2
2025-01-02 10:06:14.074715	13.7	28.6	-92.2	7.9
2025-01-02 10:06:15.223556	13.5	28.8	-92.1	4.3
2025-01-02 10:06:16.372826	13.3	28.9	-92.0	7.3
2025-01-02 10:06:17.520961	13.1	29.1	-92.4	5.6
2025-01-02 10:06:18.665583	12.9	29.3	-92.3	8.1
2025-01-02 10:06:19.817704	12.7	29.5	-92.1	11.0
2025-01-02 10:06:20.961693	12.6	29.7	-92.2	9.3
2025-01-02 10:06:22.106089	12.4	29.9	-92.1	8.8
2025-01-02 10:06:23.253439	12.2	30.1	-92.6	5.0
2025-01-02 10:06:24.401027	12.0	30.2	-92.8	2.6
2025-01-02 10:06:25.547670	11.8	30.4	-93.3	6.0
2025-01-02 10:06:26.704877	11.6	30.6	-93.0	3.8
2025-01-02 10:06:27.858009	11.4	30.8	-93.0	5.4
2025-01-02 10:06:29.003512	11.2	31.0	-92.8	9.7
2025-01-02 10:06:30.150671	11.0	31.2	-92.4	12.2
2025-01-02 10:06:31.300434	10.7	31.4	-92.4	12.7
2025-01-02 10:06:32.446224	10.5	31.6	-92.8	10.9
2025-01-02 10:06:33.594358	10.3	31.8	-93.1	11.4
2025-01-02 10:06:34.742130	10.1	32.0	-92.8	5.0
2025-01-02 10:06:35.890105	9.9	32.2	-92.7	11.0
2025-01-02 10:06:37.038728	9.7	32.4	-93.0	12.9
2025-01-02 10:06:38.182762	9.4	32.6	-92.6	16.2
2025-01-02 10:06:39.335249	9.2	32.8	-92.2	16.0
2025-01-02 10:06:40.484067	9.0	33.0	-92.3	13.7
2025-01-02 10:06:41.630612	8.7	33.2	-92.8	10.0
2025-01-02 10:06:42.778003	8.5	33.4	-92.4	5.9
2025-01-02 10:06:43.932846	8.2	33.6	-92.7	5.1
2025-01-02 10:06:45.082654	8.0	33.8	-92.9	4.2
2025-01-02 10:06:46.231332	7.7	34.0	-92.9	3.1
2025-01-02 10:06:47.377933	7.5	34.2	-92.5	8.8
2025-01-02 10:06:48.525553	7.2	34.4	-92.6	12.4
2025-01-02 10:06:49.673630	7.0	34.6	-93.0	14.3
2025-01-02 10:06:50.818033	6.7	34.8	-92.7	16.7
2025-01-02 10:06:51.968746	6.5	35.0	-92.4	15.7
2025-01-02 10:06:53.119982	6.2	35.2	-92.2	15.2
2025-01-02 10:06:54.263429	5.9	35.4	-92.5	9.3
2025-01-02 10:06:55.412956	5.6	35.6	-92.7	10.3
2025-01-02 10:06:56.556984	5.4	35.8	-92.7	15.3
2025-01-02 10:06:57.705668	5.1	36.0	-92.4	14.9
2025-01-02 10:06:58.854469	4.8	36.2	-92.4	17.2
2025-01-02 10:07:00.002890	4.5	36.4	-92.3	15.1
2025-01-02 10:07:01.145167	4.2	36.7	-92.4	13.7
2025-01-02 10:07:02.291470	3.9	36.9	-91.9	8.0
2025-01-02 10:07:03.453071	3.6	37.1	-92.2	6.8
2025-01-02 10:07:04.597893	3.3	37.3	-92.4	7.0
2025-01-02 10:07:05.747228	3.0	37.5	-92.6	4.0
2025-01-02 10:07:06.889367	2.7	37.7	-92.3	7.3
2025-01-02 10:07:08.036821	2.4	37.9	-92.6	9.8
2025-01-02 10:07:09.187035	2.1	38.1	-92.3	11.4
2025-01-02 10:07:10.336469	1.7	38.4	-92.2	14.6
2025-01-02 10:07:11.487239	1.4	38.6	-92.8	18.0
2025-01-02 10:07:12.637669	1.1	38.8	-92.6	16.6
2025-01-02 10:07:13.787202	0.7	39.0	-92.7	14.7
2025-01-02 10:07:14.933087	0.4	39.2	-93.0	15.3
2025-01-02 10:07:16.077245	0.0	39.4	-92.1	12.7
2025-01-02 10:07:17.226916	359.7	39.6	-92.3	8.3
2025-01-02 10:07:18.372009	359.3	39.9	-92.8	9.7
2025-01-02 10:07:19.516754	359.0	40.1	-92.6	14.5
2025-01-02 10:07:20.670735	358.6	40.3	-92.7	18.7
2025-01-02 10:07:21.816089	358.2	40.5	-92.7	17.3
2025-01-02 10:07:22.963117	357.9	40.7	-91.5	15.9
2025-01-02 10:07:24.110010	357.5	40.9	-91.4	15.5
2025-01-02 10:07:25.252396	357.1	41.1	-91.4	7.4
2025-01-02 10:07:26.401808	356.7	41.4	-91.4	7.9
2025-01-02 10:07:27.524517	356.3	41.6	-91.8	6.8
2025-01-02 10:07:28.645438	355.9	41.8	-92.2	5.7
2025-01-02 10:07:29.765469	355.5	42.0	-91.6	2.2
2025-01-02 10:07:30.887711	355.1	42.2	-93.2	8.1
2025-01-02 10:07:32.008257	354.7	42.4	-92.7	11.7
2025-01-02 10:07:33.129746	354.3	42.6	-92.8	15.7
2025-01-02 10:07:34.250857	353.9	42.8	-92.5	16.6
2025-01-02 10:07:35.379588	353.4	43.0	-92.9	19.5
2025-01-02 10:07:36.526743	353.0	43.2	-92.7	19.3
2025-01-02 10:07:37.672317	352.6	43.4	-92.9	16.9
2025-01-02 10:07:38.821727	352.1	43.6	-92.8	14.7
2025-01-02 10:07:39.967755	351.6	43.9	-92.5	12.6
2025-01-02 10:07:41.115941	351.2	44.1	-92.3	12.3
2025-01-02 10:07:42.267365	350.7	44.3	-92.6	7.8
2025-01-02 10:07:43.416663	350.2	44.5	-92.5	12.7
2025-01-02 10:07:44.562818	349.7	44.7	-92.6	16.5
2025-01-02 10:07:45.709165	349.3	44.9	-92.7	15.4
2025-01-02 10:07:46.860002	348.8	45.1	-92.8	15.7
2025-01-02 10:07:48.007973	348.3	45.3	-93.0	18.3
2025-01-02 10:07:49.151545	347.8	45.5	-92.1	17.8
2025-01-02 10:07:50.299902	347.2	45.7	-92.4	13.4
2025-01-02 10:07:51.444046	346.7	45.9	-92.6	11.6
2025-01-02 10:07:52.594739	346.2	46.0	-92.7	9.1
2025-01-02 10:07:53.742586	345.7	46.2	-92.7	5.2
2025-01-02 10:07:54.885035	345.1	46.4	-92.5	6.9
2025-01-02 10:07:56.016092	344.6	46.6	-92.8	7.1
2025-01-02 10:07:57.153583	344.0	46.8	-92.2	7.2
2025-01-02 10:07:58.295286	343.5	47.0	-92.7	4.6
2025-01-02 10:07:59.435569	342.9	47.1	-92.4	7.7
2025-01-02 10:08:00.573390	342.3	47.3	-93.0	9.4
2025-01-02 10:08:01.709614	341.8	47.5	-93.0	13.2
2025-01-02 10:08:02.859955	341.2	47.7	-93.0	14.5
2025-01-02 10:08:04.012422	340.6	47.8	-92.9	17.1
2025-01-02 10:08:05.153763	340.0	48.0	-92.4	17.0
2025-01-02 10:08:06.303016	339.4	48.2	-92.7	17.5
2025-01-02 10:08:07.450578	338.8	48.3	-92.8	15.3
2025-01-02 10:08:08.599203	338.2	48.5	-92.7	13.1
2025-01-02 10:08:09.744715	337.5	48.6	-93.0	8.3
2025-01-02 10:08:10.890070	336.9	48.8	-93.2	9.2
2025-01-02 10:08:12.040691	336.3	48.9	-93.5	9.2
2025-01-02 10:08:13.192936	335.6	49.1	-92.7	5.5
2025-01-02 10:08:14.339718	335.0	49.2	-92.8	4.5
2025-01-02 10:08:15.488551	334.3	49.4	-93.3	3.1
2025-01-02 10:08:16.636927	333.7	49.5	-93.0	6.0
2025-01-02 10:08:17.784992	333.0	49.6	-93.2	6.6
2025-01-02 10:08:18.934331	332.3	49.8	-93.2	7.6
2025-01-02 10:08:20.082908	331.6	49.9	-92.7	14.6
2025-01-02 10:08:21.229472	331.0	50.0	-92.7	16.1
2025-01-02 10:08:22.382356	330.3	50.1	-91.8	14.0
2025-01-02 10:08:23.527985	329.6	50.2	-93.0	16.7
2025-01-02 10:08:24.673584	328.9	50.3	-93.2	14.8
2025-01-02 10:08:25.824655	328.2	50.4	-93.1	11.1
2025-01-02 10:08:26.974344	327.5	50.5	-93.6	8.0
2025-01-02 10:08:28.127008	326.7	50.6	-93.2	1.8
2025-01-02 10:08:29.270603	326.0	50.7	-92.8	2.7
2025-01-02 10:08:30.410536	325.3	50.8	-93.0	5.4
2025-01-02 10:08:31.558791	324.6	50.9	-93.4	6.7
2025-01-02 10:08:32.688255	323.9	51.0	-93.0	5.6
2025-01-02 10:08:33.808731	323.1	51.0	-93.4	4.1
2025-01-02 10:08:34.929332	322.4	51.1	-93.3	6.7
2025-01-02 10:08:36.050516	321.7	51.2	-93.1	6.1
2025-01-02 10:08:37.174160	321.0	51.2	-92.8	3.6
2025-01-02 10:08:38.295293	320.3	51.3	-92.8	1.4
2025-01-02 10:08:39.416339	319.5	51.3	-93.3	4.2
2025-01-02 10:08:40.537621	318.8	51.3	-93.2	6.2
2025-01-02 10:08:41.683446	318.0	51.4	-93.2	7.6
2025-01-02 10:08:42.831178	317.3	51.4	-92.8	8.0
2025-01-02 10:08:43.973614	316.5	51.4	-93.2	9.1
2025-01-02 10:08:45.115857	315.8	51.5	-92.7	9.6
2025-01-02 10:08:46.265704	315.0	51.5	-92.7	10.3
2025-01-02 10:08:47.425052	314.3	51.5	-92.8	5.6
2025-01-02 10:08:48.573690	313.5	51.5	-92.6	13.8
2025-01-02 10:08:49.721366	312.7	51.5	-92.4	11.7
2025-01-02 10:08:50.869593	312.0	51.5	-92.3	11.6
2025-01-02 10:08:52.017080	311.2	51.5	-91.9	13.1
2025-01-02 10:08:53.166392	310.5	51.5	-92.3	12.1
2025-01-02 10:08:54.313483	309.7	51.4	-91.9	8.4
2025-01-02 10:08:55.467124	309.0	51.4	-93.0	3.2
2025-01-02 10:08:56.608969	308.2	51.4	-93.4	4.2
2025-01-02 10:08:57.757622	307.5	51.3	-93.6	7.4
2025-01-02 10:08:58.900127	306.7	51.3	-93.2	10.5
2025-01-02 10:09:00.049656	306.0	51.2	-93.3	10.1
2025-01-02 10:09:01.190426	305.2	51.2	-93.0	9.6
2025-01-02 10:09:02.338201	304.5	51.1	-92.9	9.4
2025-01-02 10:09:03.487748	303.8	51.1	-92.6	9.3
2025-01-02 10:09:04.639493	303.0	51.0	-92.0	10.2
2025-01-02 10:09:05.788560	302.3	50.9	-91.7	8.9
2025-01-02 10:09:06.941688	301.5	50.9	-92.2	8.4
2025-01-02 10:09:08.093001	300.8	50.8	-92.0	7.4
2025-01-02 10:09:09.239984	300.1	50.7	-91.7	5.7
2025-01-02 10:09:10.383456	299.4	50.6	-92.9	9.1
2025-01-02 10:09:11.532918	298.7	50.5	-93.2	10.6
2025-01-02 10:09:12.676382	298.0	50.4	-93.5	8.8
2025-01-02 10:09:13.821760	297.3	50.3	-93.5	5.4
2025-01-02 10:09:14.970546	296.6	50.2	-93.5	8.9
2025-01-02 10:09:16.114234	295.9	50.1	-92.9	8.8
2025-01-02 10:09:17.265766	295.2	50.0	-93.1	4.7
2025-01-02 10:09:18.414667	294.5	49.8	-92.6	8.4
2025-01-02 10:09:19.558980	293.8	49.7	-93.3	7.9
2025-01-02 10:09:20.710612	293.2	49.6	-93.2	5.2
2025-01-02 10:09:21.855447	292.5	49.5	-92.9	3.7
2025-01-02 10:09:23.000358	291.8	49.3	-93.1	7.3
2025-01-02 10:09:24.149974	291.2	49.2	-93.0	5.5
2025-01-02 10:09:25.297285	290.5	49.0	-92.5	6.1
2025-01-02 10:09:26.446962	289.9	48.9	-93.0	5.7
2025-01-02 10:09:27.593391	289.3	48.7	-93.3	8.3
2025-01-02 10:09:28.742009	288.6	48.6	-93.1	3.3
2025-01-02 10:09:29.894003	288.0	48.4	-93.1	5.1
2025-01-02 10:09:31.037642	287.4	48.3	-93.4	5.6
2025-01-02 10:09:32.188405	286.8	48.1	-93.0	6.0
2025-01-02 10:09:33.335746	286.2	47.9	-92.7	6.5
2025-01-02 10:09:34.483664	285.6	47.8	-93.2	7.6
2025-01-02 10:09:35.637618	285.0	47.6	-93.4	9.8
2025-01-02 10:09:36.785165	284.4	47.4	-93.0	5.6
2025-01-02 10:09:37.934224	283.8	47.3	-92.7	7.0
2025-01-02 10:09:39.074562	283.3	47.1	-93.0	8.5
2025-01-02 10:09:40.229147	282.7	46.9	-93.0	7.9
2025-01-02 10:09:41.383332	282.1	46.7	-92.7	9.9
2025-01-02 10:09:42.534897	281.6	46.5	-93.1	11.1
2025-01-02 10:09:43.682435	281.0	46.3	-93.2	9.8
2025-01-02 10:09:44.832047	280.5	46.1	-93.2	11.1
2025-01-02 10:09:45.982758	280.0	46.0	-93.3	12.1
2025-01-02 10:09:47.131132	279.4	45.8	-92.9	14.9
2025-01-02 10:09:48.279128	278.9	45.6	-92.9	14.0
2025-01-02 10:09:49.421810	278.4	45.4	-92.9	14.5
2025-01-02 10:09:50.574907	277.9	45.2	-92.8	14.0
2025-01-02 10:09:51.724493	277.4	45.0	-92.8	13.9
2025-01-02 10:09:52.865612	276.9	44.8	-93.3	16.5
2025-01-02 10:09:54.014533	276.4	44.6	-93.1	15.9
2025-01-02 10:09:55.158759	276.0	44.4	-93.2	18.4
2025-01-02 10:09:56.308954	275.5	44.2	-92.9	18.7
2025-01-02 10:09:57.453197	275.0	44.0	-92.8	16.2
2025-01-02 10:09:58.602418	274.5	43.7	-92.9	17.2
2025-01-02 10:09:59.746464	274.1	43.5	-93.5	16.8
2025-01-02 10:10:00.883308	273.6	43.3	-93.2	15.8
2025-01-02 10:10:02.031008	273.2	43.1	-92.9	17.3
2025-01-02 10:10:03.178596	272.8	42.9	-93.0	15.3
2025-01-02 10:10:04.325499	272.3	42.7	-92.3	12.5
2025-01-02 10:10:05.477018	271.9	42.5	-92.9	15.1
2025-01-02 10:10:06.625128	271.5	42.3	-93.2	16.4
2025-01-02 10:10:07.774542	271.1	42.1	-92.5	12.9
2025-01-02 10:10:08.921994	270.7	41.9	-93.1	13.0
2025-01-02 10:10:10.074722	270.2	41.6	-93.0	10.6
2025-01-02 10:10:11.222117	269.8	41.4	-92.6	8.6
2025-01-02 10:10:12.374958	269.4	41.2	-92.6	7.3
2025-01-02 10:10:13.529480	269.1	41.0	-93.1	8.4
2025-01-02 10:10:14.676339	268.7	40.8	-92.6	8.6
2025-01-02 10:10:15.830951	268.3	40.6	-93.4	5.8
2025-01-02 10:10:16.975031	267.9	40.4	-93.2	9.4
2025-01-02 10:10:18.126926	267.5	40.1	-92.6	8.8
2025-01-02 10:10:19.272387	267.2	39.9	-92.5	6.3
2025-01-02 10:10:20.418258	266.8	39.7	-92.9	8.3
2025-01-02 10:10:21.568578	266.5	39.5	-92.4	9.7
2025-01-02 10:10:22.715993	266.1	39.3	-93.0	7.1
2025-01-02 10:10:23.863004	265.8	39.1	-92.2	8.0
2025-01-02 10:10:25.005234	265.4	38.8	-91.9	8.6
2025-01-02 10:10:26.151963	265.1	38.6	-91.7	7.6
2025-01-02 10:10:27.299994	264.8	38.4	-91.9	7.5
2025-01-02 10:10:28.442713	264.4	38.2	-91.8	8.2
2025-01-02 10:10:29.586269	264.1	38.0	-92.1	9.6
2025-01-02 10:10:30.733593	263.8	37.8	-92.0	7.9
2025-01-02 10:10:31.881043	263.5	37.6	-92.0	12.1
2025-01-02 10:10:33.029862	263.2	37.4	-91.9	10.2
2025-01-02 10:10:34.177418	262.9	37.1	-91.9	9.3
2025-01-02 10:10:35.330969	262.6	36.9	-92.6	5.7
2025-01-02 10:10:36.475114	262.3	36.7	-92.5	7.6
2025-01-02 10:10:37.622683	262.0	36.5	-93.0	9.3
2025-01-02 10:10:38.771038	261.7	36.3	-93.2	5.3
2025-01-02 10:10:39.921286	261.4	36.1	-93.0	7.9
2025-01-02 10:10:41.069031	261.1	35.9	-92.5	5.4
2025-01-02 10:10:42.217911	260.8	35.7	-92.4	3.3
2025-01-02 10:10:43.367814	260.6	35.5	-92.4	4.4
2025-01-02 10:10:44.519380	260.3	35.2	-92.5	5.7
2025-01-02 10:10:45.667536	260.0	35.0	-92.9	7.3
2025-01-02 10:10:46.820096	259.7	34.8	-92.8	5.7
2025-01-02 10:10:47.970175	259.5	34.6	-92.6	10.5
2025-01-02 10:10:49.118427	259.2	34.4	-92.4	12.1
2025-01-02 10:10:50.266652	259.0	34.2	-92.0	13.0
2025-01-02 10:10:51.410253	258.7	34.0	-92.2	16.4
2025-01-02 10:10:52.563161	258.5	33.8	-92.7	17.3
2025-01-02 10:10:53.707062	258.2	33.6	-92.4	19.3
2025-01-02 10:10:54.878529	258.0	33.4	-92.4	18.2
2025-01-02 10:10:56.028869	257.7	33.2	-92.2	18.8
2025-01-02 10:10:57.179960	257.5	33.0	-89.6	16.3
2025-01-02 10:10:58.330214	257.3	32.8	-92.9	16.2
2025-01-02 10:10:59.480366	257.0	32.6	-92.7	17.0
2025-01-02 10:11:00.618175	256.8	32.4	-92.4	15.9
2025-01-02 10:11:01.765587	256.6	32.2	-92.6	10.8
2025-01-02 10:11:02.913860	256.3	32.0	-92.4	10.6
2025-01-02 10:11:04.056053	256.1	31.8	-92.7	10.7
2025-01-02 10:11:05.205835	255.9	31.6	-92.3	20.7
2025-01-02 10:11:06.333198	255.7	31.4	-92.3	19.9
2025-01-02 10:11:07.453598	255.5	31.2	-91.4	12.9
2025-01-02 10:11:08.572704	255.3	31.1	-89.7	12.7
2025-01-02 10:11:09.691614	255.1	30.9	-92.6	19.9
2025-01-02 10:11:10.811710	254.9	30.7	-92.5	19.5
2025-01-02 10:11:11.932139	254.7	30.5	-92.9	18.9
2025-01-02 10:11:13.056973	254.5	30.3	-92.5	20.5
2025-01-02 10:11:14.182192	254.3	30.1	-92.3	18.9
2025-01-02 10:11:15.328025	254.1	29.9	-91.9	18.5
2025-01-02 10:11:16.476566	253.9	29.8	-92.3	18.9
2025-01-02 10:11:17.623846	253.7	29.6	-92.2	16.1
2025-01-02 10:11:18.766307	253.5	29.4	-91.8	19.3
2025-01-02 10:11:19.920078	253.3	29.2	-88.4	11.0
2025-01-02 10:11:21.066576	253.2	29.0	-91.9	10.0
2025-01-02 10:11:22.220920	253.0	28.8	-92.4	17.7
2025-01-02 10:11:23.367237	252.8	28.6	-92.4	15.6
2025-01-02 10:11:24.520857	252.6	28.5	-92.4	7.7
2025-01-02 10:11:25.673037	252.4	28.3	-92.4	14.4
2025-01-02 10:11:26.822398	252.3	28.1	-92.4	16.3
2025-01-02 10:11:27.972313	252.1	27.9	-92.5	11.1
2025-01-02 10:11:29.132685	251.9	27.8	-92.1	12.7
2025-01-02 10:11:30.289682	251.7	27.6	-92.2	15.1
2025-01-02 10:11:31.431758	251.6	27.4	-92.2	17.8
2025-01-02 10:11:32.580185	251.4	27.2	-92.6	17.5
2025-01-02 10:11:33.718263	251.3	27.0	-92.8	17.4
2025-01-02 10:11:34.859365	251.1	26.9	-92.4	19.7
2025-01-02 10:11:35.985811	250.9	26.7	-92.5	13.9
2025-01-02 10:11:37.124241	250.8	26.5	-92.1	13.7
2025-01-02 10:11:38.259285	250.6	26.4	-92.1	15.4
2025-01-02 10:11:39.402714	250.5	26.2	-92.7	11.7
2025-01-02 10:11:40.545535	250.3	26.0	-92.6	9.5
2025-01-02 10:11:41.684114	250.2	25.9	-92.8	13.1
2025-01-02 10:11:42.833721	250.0	25.7	-92.4	13.0
2025-01-02 10:11:43.974895	249.9	25.5	-92.1	7.6
2025-01-02 10:11:45.125272	249.7	25.4	-92.2	9.2
2025-01-02 10:11:46.278557	249.6	25.2	-92.2	11.1
2025-01-02 10:11:47.429978	249.4	25.0	-92.8	11.1
2025-01-02 10:11:48.580635	249.3	24.9	-92.4	12.5
2025-01-02 10:11:49.724392	249.2	24.7	-92.7	10.5
2025-01-02 10:11:50.875840	249.0	24.5	-92.7	8.9
2025-01-02 10:11:52.034700	248.9	24.4	-92.7	8.2
2025-01-02 10:11:53.185725	248.7	24.2	-92.1	7.7
2025-01-02 10:11:54.332711	248.6	24.1	-92.4	5.7
2025-01-02 10:11:55.483802	248.5	23.9	-92.8	3.1
2025-01-02 10:11:56.625087	248.3	23.7	-92.4	4.3
2025-01-02 10:11:57.772675	248.2	23.6	-92.4	7.8
2025-01-02 10:11:58.920651	248.1	23.4	-92.6	3.8
2025-01-02 10:12:00.067494	248.0	23.3	-92.6	3.1
2025-01-02 10:12:01.202654	247.8	23.1	-92.4	3.2
2025-01-02 10:12:02.355137	247.7	23.0	-92.6	3.7
2025-01-02 10:12:03.498417	247.6	22.8	-92.6	2.6
2025-01-02 10:12:04.648906	247.5	22.7	-92.5	2.8
2025-01-02 10:12:05.795768	247.3	22.5	-92.9	2.7
2025-01-02 10:12:06.942141	247.2	22.4	-92.9	7.0
2025-01-02 10:12:08.090893	247.1	22.2	-92.3	6.0
2025-01-02 10:12:09.236860	247.0	22.1	-92.6	5.1
2025-01-02 10:12:10.385486	246.9	21.9	-92.7	4.5
2025-01-02 10:12:11.531791	246.7	21.8	-92.6	3.0
2025-01-02 10:12:12.676383	246.6	21.6	-92.9	4.5
2025-01-02 10:12:13.824235	246.5	21.5	-92.9	1.9
2025-01-02 10:12:14.972570	246.4	21.3	-92.7	3.2
2025-01-02 10:12:16.124030	246.3	21.2	-92.4	4.7
2025-01-02 10:12:17.268374	246.2	21.0	-92.9	2.3
2025-01-02 10:12:18.420552	246.1	20.9	-92.2	1.4
2025-01-02 10:12:19.574284	246.0	20.8	-92.7	7.0
2025-01-02 10:12:20.720906	245.9	20.6	-92.7	6.4
2025-01-02 10:12:21.870356	245.8	20.5	-92.7	2.4
2025-01-02 10:12:23.021266	245.7	20.3	-92.8	2.9
2025-01-02 10:12:24.171045	245.5	20.2	-90.9	4.6
2025-01-02 10:12:25.316021	245.4	20.0	-92.8	4.8
2025-01-02 10:12:26.463729	245.3	19.9	-93.0	3.1
2025-01-02 10:12:27.610850	245.2	19.8	-92.7	1.4
2025-01-02 10:12:28.757367	245.1	19.6	-92.2	5.3
2025-01-02 10:12:29.905198	245.0	19.5	-92.8	3.4
2025-01-02 10:12:31.049734	244.9	19.4	-92.4	4.6
2025-01-02 10:12:32.199993	244.8	19.2	-92.3	9.4
2025-01-02 10:12:33.346519	244.7	19.1	-92.5	9.1
2025-01-02 10:12:34.490769	244.7	19.0	-92.6	12.2
2025-01-02 10:12:35.638435	244.6	18.8	-92.5	10.4
2025-01-02 10:12:36.784872	244.5	18.7	-92.2	11.1
2025-01-02 10:12:37.938389	244.4	18.6	-92.4	12.1
2025-01-02 10:12:39.087998	244.3	18.4	-92.0	11.3
2025-01-02 10:12:40.241111	244.2	18.3	-91.4	11.7
2025-01-02 10:12:41.389924	244.1	18.2	-91.8	14.8
2025-01-02 10:12:42.538877	244.0	18.0	-92.2	6.2
2025-01-02 10:12:43.692087	243.9	17.9	-92.1	10.3
2025-01-02 10:12:44.838370	243.8	17.8	-91.8	15.9
2025-01-02 10:12:45.988472	243.7	17.6	-92.0	5.6
2025-01-02 10:12:47.136810	243.7	17.5	-91.8	11.3
2025-01-02 10:12:48.282778	243.6	17.4	-92.0	6.7
2025-01-02 10:12:49.427276	243.5	17.3	-92.2	6.5
2025-01-02 10:12:50.576849	243.4	17.1	-92.9	2.0
2025-01-02 10:12:51.725889	243.3	17.0	-92.2	7.3
2025-01-02 10:12:52.872387	243.2	16.9	-92.4	4.6
2025-01-02 10:12:54.023205	243.1	16.8	-92.5	6.3
2025-01-02 10:12:55.173930	243.1	16.6	-91.8	8.8
2025-01-02 10:12:56.319342	243.0	16.5	-92.2	7.1
2025-01-02 10:12:57.466109	242.9	16.4	-92.7	4.0
2025-01-02 10:12:58.614911	242.8	16.3	-92.4	4.9
2025-01-02 10:12:59.762805	242.7	16.2	-92.7	6.5
2025-01-02 10:13:00.898135	242.7	16.0	-92.5	11.0
2025-01-02 10:13:02.052225	242.6	15.9	-92.4	6.9
2025-01-02 10:13:03.201765	242.5	15.8	-92.1	13.4
2025-01-02 10:13:04.358479	242.4	15.7	-92.2	10.3
2025-01-02 10:13:05.504839	242.4	15.6	-92.9	4.1
2025-01-02 10:13:06.652666	242.3	15.4	-92.8	15.3
2025-01-02 10:13:07.799793	242.2	15.3	-92.6	6.6
2025-01-02 10:13:08.953622	242.1	15.2	-92.5	8.4
2025-01-02 10:13:10.104729	242.1	15.1	-92.2	3.2
2025-01-02 10:13:11.256566	242.0	15.0	-92.7	7.8
2025-01-02 10:13:12.404922	241.9	14.9	-92.5	3.8
2025-01-02 10:13:13.558025	241.8	14.7	-93.0	8.5
2025-01-02 10:13:14.701507	241.8	14.6	-93.0	9.2
2025-01-02 10:13:15.852071	241.7	14.5	-92.8	12.0
#Closed at: 2025-01-02 10:04:31.674367