passes_logs/2025/01/02/LEX_Murmansk/LEX_Murmansk__20250102_185133_NOAA_18_rec.log

#Pass ID: 20250102_185133_NOAA 18
#Satellite: NOAA 18
#Configuration: NOAA 18
#Start time: 2025-01-02 18:51:28.775692

#LorettStation: 1.0.0 05.05.2024
#Station: LEX_Murmansk
#Location: 33.156738 lon 68.926811 lat
#TLE: 1 28654U 05018A   25001.78406204  .00000701  00000+0  39590-3 0  9994
#TLE: 2 28654  98.8586  82.9683 0013729 216.8395 143.1835 14.13472842 11310

#Time	Az	El	Level	SNR
2025-01-02 18:51:40.899772	151.7	16.3	-92.6	3.9
2025-01-02 18:51:42.021180	151.7	16.4	-92.4	4.5
2025-01-02 18:51:43.141469	151.7	16.6	-92.3	2.9
2025-01-02 18:51:44.282383	151.7	16.7	-92.3	2.3
2025-01-02 18:51:45.431586	151.7	16.8	-92.5	3.8
2025-01-02 18:51:46.579759	151.7	16.9	-92.4	4.6
2025-01-02 18:51:47.725457	151.7	17.1	-92.6	4.6
2025-01-02 18:51:48.865121	151.7	17.2	-92.7	4.3
2025-01-02 18:51:50.016293	151.7	17.3	-92.5	3.5
2025-01-02 18:51:51.162307	151.7	17.5	-92.3	4.6
2025-01-02 18:51:52.306828	151.7	17.6	-92.5	4.8
2025-01-02 18:51:53.455021	151.7	17.7	-92.4	1.4
2025-01-02 18:51:54.600656	151.7	17.9	-92.7	5.4
2025-01-02 18:51:55.750943	151.7	18.0	-92.5	5.9
2025-01-02 18:51:56.903451	151.7	18.1	-92.4	6.5
2025-01-02 18:51:58.046167	151.7	18.3	-92.5	3.7
2025-01-02 18:51:59.189885	151.7	18.4	-92.4	3.6
2025-01-02 18:52:00.326238	151.7	18.6	-92.4	4.4
2025-01-02 18:52:01.458135	151.7	18.7	-92.5	3.4
2025-01-02 18:52:02.598581	151.7	18.8	-92.7	5.2
2025-01-02 18:52:03.738223	151.7	19.0	-92.7	5.2
2025-01-02 18:52:04.888343	151.7	19.1	-92.8	7.9
2025-01-02 18:52:06.028928	151.7	19.3	-92.3	7.3
2025-01-02 18:52:07.177733	151.7	19.4	-92.1	4.6
2025-01-02 18:52:08.318678	151.7	19.5	-92.3	3.6
2025-01-02 18:52:09.464935	151.7	19.7	-92.5	7.1
2025-01-02 18:52:10.610801	151.7	19.8	-92.7	8.6
2025-01-02 18:52:11.756102	151.7	20.0	-92.9	8.9
2025-01-02 18:52:12.901327	151.7	20.1	-92.8	6.1
2025-01-02 18:52:14.046561	151.7	20.3	-92.7	6.7
2025-01-02 18:52:15.198456	151.7	20.4	-92.3	5.1
2025-01-02 18:52:16.344510	151.7	20.6	-92.4	8.2
2025-01-02 18:52:17.485064	151.7	20.7	-92.8	2.9
2025-01-02 18:52:18.633409	151.7	20.9	-92.7	6.0
2025-01-02 18:52:19.784720	151.7	21.0	-92.1	8.6
2025-01-02 18:52:20.926122	151.7	21.2	-92.7	9.5
2025-01-02 18:52:22.073533	151.7	21.3	-92.5	5.1
2025-01-02 18:52:23.224801	151.7	21.5	-92.5	5.6
2025-01-02 18:52:24.370352	151.7	21.6	-92.2	6.6
2025-01-02 18:52:25.518275	151.7	21.8	-92.7	2.7
2025-01-02 18:52:26.662730	151.7	22.0	-92.3	10.0
2025-01-02 18:52:27.816413	151.7	22.1	-92.4	11.7
2025-01-02 18:52:28.959187	151.7	22.3	-92.5	10.5
2025-01-02 18:52:30.108281	151.7	22.4	-92.6	7.3
2025-01-02 18:52:31.263484	151.7	22.6	-92.0	9.1
2025-01-02 18:52:32.410887	151.7	22.8	-92.4	13.0
2025-01-02 18:52:33.562314	151.8	22.9	-92.6	3.8
2025-01-02 18:52:34.714367	151.8	23.1	-92.8	9.0
2025-01-02 18:52:35.860635	151.8	23.3	-92.7	6.0
2025-01-02 18:52:37.004186	151.8	23.4	-92.5	8.1
2025-01-02 18:52:38.158118	151.8	23.6	-92.4	7.6
2025-01-02 18:52:39.311199	151.8	23.8	-92.6	10.3
2025-01-02 18:52:40.458903	151.8	23.9	-92.5	10.1
2025-01-02 18:52:41.609448	151.8	24.1	-92.2	9.4
2025-01-02 18:52:42.751231	151.8	24.3	-92.8	12.6
2025-01-02 18:52:43.898853	151.8	24.5	-92.4	8.2
2025-01-02 18:52:45.039717	151.8	24.6	-92.4	10.5
2025-01-02 18:52:46.182227	151.8	24.8	-92.2	7.5
2025-01-02 18:52:47.329650	151.8	25.0	-91.7	7.0
2025-01-02 18:52:48.477500	151.8	25.2	-92.0	4.4
2025-01-02 18:52:49.626543	151.8	25.3	-92.7	5.3
2025-01-02 18:52:50.773097	151.8	25.5	-92.2	9.0
2025-01-02 18:52:51.918272	151.8	25.7	-93.0	7.4
2025-01-02 18:52:53.066480	151.8	25.9	-92.5	13.5
2025-01-02 18:52:54.216501	151.8	26.1	-91.7	11.6
2025-01-02 18:52:55.370889	151.8	26.3	-92.3	12.1
2025-01-02 18:52:56.517651	151.8	26.5	-92.8	9.0
2025-01-02 18:52:57.665270	151.8	26.6	-93.0	6.1
2025-01-02 18:52:58.811444	151.8	26.8	-92.9	9.7
2025-01-02 18:52:59.956901	151.8	27.0	-92.7	5.4
2025-01-02 18:53:01.096551	151.8	27.2	-92.5	6.6
2025-01-02 18:53:02.247803	151.8	27.4	-92.5	4.9
2025-01-02 18:53:03.390726	151.8	27.6	-92.5	11.6
2025-01-02 18:53:04.539097	151.8	27.8	-92.8	4.8
2025-01-02 18:53:05.684196	151.8	28.0	-92.8	10.0
2025-01-02 18:53:06.825156	151.8	28.2	-93.0	6.2
2025-01-02 18:53:07.966527	151.8	28.4	-92.7	9.9
2025-01-02 18:53:09.091218	151.8	28.6	-92.3	5.5
2025-01-02 18:53:10.212549	151.8	28.8	-92.7	5.1
2025-01-02 18:53:11.332540	151.8	29.0	-92.7	11.1
2025-01-02 18:53:12.452701	151.8	29.2	-92.7	6.8
2025-01-02 18:53:13.573672	151.8	29.4	-93.1	4.3
2025-01-02 18:53:14.696240	151.8	29.6	-92.6	16.0
2025-01-02 18:53:15.822061	151.8	29.8	-93.1	14.7
2025-01-02 18:53:16.948164	151.8	30.0	-92.7	15.5
2025-01-02 18:53:18.099408	151.8	30.2	-92.9	4.5
2025-01-02 18:53:19.246640	151.8	30.4	-92.8	7.9
2025-01-02 18:53:20.392111	151.8	30.7	-92.8	1.9
2025-01-02 18:53:21.534863	151.8	30.9	-93.5	6.6
2025-01-02 18:53:22.681459	151.8	31.1	-93.2	5.3
2025-01-02 18:53:23.832061	151.8	31.3	-93.0	5.6
2025-01-02 18:53:24.982603	151.8	31.6	-93.3	7.0
2025-01-02 18:53:26.128875	151.8	31.8	-92.3	5.5
2025-01-02 18:53:27.277019	151.8	32.0	-92.3	6.6
2025-01-02 18:53:28.423690	151.8	32.2	-92.5	10.2
2025-01-02 18:53:29.569497	151.8	32.5	-92.7	10.8
2025-01-02 18:53:30.717201	151.8	32.7	-93.1	8.4
2025-01-02 18:53:31.871779	151.8	32.9	-93.0	8.9
2025-01-02 18:53:33.025924	151.8	33.2	-92.8	12.3
2025-01-02 18:53:34.169277	151.8	33.4	-92.7	7.5
2025-01-02 18:53:35.317405	151.8	33.6	-92.3	9.4
2025-01-02 18:53:36.461630	151.8	33.9	-93.0	7.1
2025-01-02 18:53:37.613270	151.8	34.1	-93.1	3.2
2025-01-02 18:53:38.763351	151.8	34.4	-92.7	7.0
2025-01-02 18:53:39.909000	151.8	34.6	-92.7	8.2
2025-01-02 18:53:41.052398	151.8	34.9	-92.6	5.1
2025-01-02 18:53:42.199368	151.8	35.1	-92.0	4.2
2025-01-02 18:53:43.347508	151.8	35.4	-84.3	8.0
2025-01-02 18:53:44.495868	151.7	35.6	-93.1	11.2
2025-01-02 18:53:45.643784	151.7	35.9	-92.4	13.8
2025-01-02 18:53:46.792580	151.7	36.2	-93.0	4.6
2025-01-02 18:53:47.942830	151.7	36.4	-93.1	9.0
2025-01-02 18:53:49.089266	151.7	36.7	-92.4	12.3
2025-01-02 18:53:50.240303	151.7	36.9	-92.4	19.1
2025-01-02 18:53:51.386812	151.7	37.2	-92.7	13.7
2025-01-02 18:53:52.533293	151.7	37.5	-92.7	19.0
2025-01-02 18:53:53.675705	151.7	37.8	-92.9	12.9
2025-01-02 18:53:54.818720	151.7	38.0	-93.0	17.1
2025-01-02 18:53:55.966799	151.7	38.3	-92.8	10.8
2025-01-02 18:53:57.094382	151.7	38.6	-92.8	5.4
2025-01-02 18:53:58.213745	151.7	38.9	-92.6	10.9
2025-01-02 18:53:59.334457	151.7	39.1	-92.7	14.9
2025-01-02 18:54:00.456751	151.7	39.4	-92.9	12.6
2025-01-02 18:54:01.577735	151.7	39.7	-91.1	13.6
2025-01-02 18:54:02.698688	151.7	40.0	-93.0	13.7
2025-01-02 18:54:03.819503	151.7	40.3	-92.9	18.8
2025-01-02 18:54:04.943110	151.7	40.5	-92.8	16.7
2025-01-02 18:54:06.087602	151.7	40.8	-92.4	11.4
2025-01-02 18:54:07.225485	151.7	41.1	-92.4	20.6
2025-01-02 18:54:08.369773	151.7	41.4	-92.5	12.0
2025-01-02 18:54:09.505777	151.7	41.7	-93.0	11.5
2025-01-02 18:54:10.653723	151.7	42.1	-92.6	15.8
2025-01-02 18:54:11.799852	151.7	42.4	-92.6	16.7
2025-01-02 18:54:12.943520	151.7	42.7	-93.0	9.6
2025-01-02 18:54:14.089314	151.7	43.0	-92.0	9.5
2025-01-02 18:54:15.237943	151.6	43.3	-92.0	9.2
2025-01-02 18:54:16.386932	151.6	43.6	-92.2	14.3
2025-01-02 18:54:17.532662	151.6	44.0	-92.9	8.0
2025-01-02 18:54:18.682849	151.6	44.3	-92.4	17.0
2025-01-02 18:54:19.832292	151.6	44.6	-92.8	16.2
2025-01-02 18:54:20.981346	151.6	44.9	-92.6	15.2
2025-01-02 18:54:22.132873	151.6	45.3	-92.6	15.8
2025-01-02 18:54:23.274969	151.6	45.6	-91.0	11.4
2025-01-02 18:54:24.433668	151.6	46.0	-92.7	12.7
2025-01-02 18:54:25.578488	151.6	46.3	-92.3	11.3
2025-01-02 18:54:26.727658	151.6	46.6	-93.0	13.1
2025-01-02 18:54:27.874696	151.6	47.0	-92.7	16.7
2025-01-02 18:54:29.024892	151.6	47.3	-91.0	10.8
2025-01-02 18:54:30.175048	151.6	47.7	-92.3	16.7
2025-01-02 18:54:31.321995	151.5	48.0	-92.1	13.7
2025-01-02 18:54:32.470289	151.5	48.4	-92.9	10.0
2025-01-02 18:54:33.616363	151.5	48.8	-93.0	9.4
2025-01-02 18:54:34.757218	151.5	49.1	-92.8	14.2
2025-01-02 18:54:35.907408	151.5	49.5	-92.6	7.8
2025-01-02 18:54:37.050994	151.5	49.9	-92.6	2.3
2025-01-02 18:54:38.200950	151.5	50.2	-92.1	11.6
2025-01-02 18:54:39.347468	151.5	50.6	-92.4	12.5
2025-01-02 18:54:40.498401	151.5	51.0	-93.0	7.4
2025-01-02 18:54:41.650821	151.4	51.4	-93.2	9.9
2025-01-02 18:54:42.801746	151.4	51.8	-93.2	11.9
2025-01-02 18:54:43.948301	151.4	52.2	-92.6	6.0
2025-01-02 18:54:45.102030	151.4	52.6	-92.0	7.2
2025-01-02 18:54:46.248476	151.4	53.0	-92.4	17.1
2025-01-02 18:54:47.393894	151.4	53.4	-92.0	18.6
2025-01-02 18:54:48.541124	151.4	53.8	-92.9	12.1
2025-01-02 18:54:49.688306	151.3	54.2	-93.1	15.3
2025-01-02 18:54:50.835390	151.3	54.6	-92.9	13.7
2025-01-02 18:54:51.975514	151.3	55.0	-92.8	8.8
2025-01-02 18:54:53.121819	151.3	55.4	-92.3	5.8
2025-01-02 18:54:54.268286	151.3	55.8	-92.5	14.7
2025-01-02 18:54:55.414168	151.3	56.2	-92.6	12.3
2025-01-02 18:54:56.559894	151.2	56.7	-92.6	7.8
2025-01-02 18:54:57.713252	151.2	57.1	-92.3	14.8
2025-01-02 18:54:58.857529	151.2	57.5	-92.8	16.9
2025-01-02 18:55:00.006550	151.2	58.0	-91.0	7.8
2025-01-02 18:55:01.147008	151.1	58.4	-90.8	8.3
2025-01-02 18:55:02.294213	151.1	58.8	-92.0	14.0
2025-01-02 18:55:03.450391	151.1	59.3	-92.6	15.6
2025-01-02 18:55:04.599219	151.1	59.7	-92.8	16.2
2025-01-02 18:55:05.743918	151.0	60.2	-92.7	19.0
2025-01-02 18:55:06.882746	151.0	60.6	-93.0	19.0
2025-01-02 18:55:08.042497	151.0	61.1	-92.9	15.7
2025-01-02 18:55:09.196395	151.0	61.6	-92.7	13.9
2025-01-02 18:55:10.342395	150.9	62.0	-92.1	16.9
2025-01-02 18:55:11.493360	150.9	62.5	-92.8	12.4
2025-01-02 18:55:12.642491	150.9	63.0	-93.2	5.0
2025-01-02 18:55:13.791897	150.8	63.4	-92.7	20.5
2025-01-02 18:55:14.928012	150.8	63.9	-92.2	14.3
2025-01-02 18:55:16.078101	150.7	64.4	-92.0	19.5
2025-01-02 18:55:17.222977	150.7	64.9	-92.2	19.6
2025-01-02 18:55:18.370455	150.7	65.4	-92.2	15.6
2025-01-02 18:55:19.517757	150.6	65.8	-91.6	15.8
2025-01-02 18:55:20.660878	150.6	66.3	-92.4	7.6
2025-01-02 18:55:21.809367	150.5	66.8	-92.7	16.6
2025-01-02 18:55:22.956880	150.5	67.3	-92.7	9.1
2025-01-02 18:55:24.107959	150.4	67.8	-92.5	7.3
2025-01-02 18:55:25.258961	150.3	68.3	-92.1	18.1
2025-01-02 18:55:26.402162	150.3	68.8	-92.4	11.6
2025-01-02 18:55:27.547966	150.2	69.3	-93.3	9.3
2025-01-02 18:55:28.692185	150.1	69.9	-92.8	16.2
2025-01-02 18:55:29.838677	150.1	70.4	-92.8	16.9
2025-01-02 18:55:30.986794	150.0	70.9	-92.9	13.2
2025-01-02 18:55:32.133078	149.9	71.4	-91.7	7.0
2025-01-02 18:55:33.286722	149.8	71.9	-92.1	13.4
2025-01-02 18:55:34.433149	149.7	72.5	-92.6	19.9
2025-01-02 18:55:35.576618	149.6	73.0	-92.8	17.9
2025-01-02 18:55:36.730085	149.5	73.5	-92.7	21.3
2025-01-02 18:55:37.875243	149.4	74.0	-93.0	20.3
2025-01-02 18:55:39.025647	149.3	74.6	-92.8	17.7
2025-01-02 18:55:40.172959	149.1	75.1	-91.0	12.2
2025-01-02 18:55:41.317991	149.0	75.6	-92.5	17.6
2025-01-02 18:55:42.463697	148.8	76.2	-92.4	11.4
2025-01-02 18:55:43.610431	148.7	76.7	-92.6	13.7
2025-01-02 18:55:44.760162	148.5	77.3	-93.1	22.8
2025-01-02 18:55:45.910822	148.3	77.8	-92.9	23.6
2025-01-02 18:55:47.061005	148.0	78.4	-92.7	19.4
2025-01-02 18:55:48.205611	147.8	78.9	-92.4	20.2
2025-01-02 18:55:49.347332	147.5	79.5	-92.5	20.4
2025-01-02 18:55:50.497504	147.2	80.0	-92.5	20.3
2025-01-02 18:55:51.644566	146.9	80.6	-93.3	21.7
2025-01-02 18:55:52.793531	146.5	81.1	-93.2	25.1
2025-01-02 18:55:53.960276	146.0	81.7	-93.2	24.0
2025-01-02 18:55:55.107535	145.5	82.2	-92.9	16.6
2025-01-02 18:55:56.250714	145.0	82.8	-92.9	25.4
2025-01-02 18:55:57.400822	144.3	83.4	-92.6	27.6
2025-01-02 18:55:58.549393	143.5	83.9	-92.9	17.7
2025-01-02 18:55:59.694526	142.5	84.5	-92.8	21.9
2025-01-02 18:56:00.840154	141.3	85.0	-93.1	23.0
2025-01-02 18:56:01.984654	139.8	85.6	-93.2	14.6
2025-01-02 18:56:03.135121	137.9	86.1	-92.8	11.5
2025-01-02 18:56:04.282698	135.3	86.7	-92.3	23.4
2025-01-02 18:56:05.425698	131.8	87.2	-92.7	16.1
2025-01-02 18:56:06.568605	126.7	87.7	-92.8	12.0
2025-01-02 18:56:07.716891	118.5	88.2	-93.1	21.3
2025-01-02 18:56:08.870927	104.8	88.6	-93.2	26.0
2025-01-02 18:56:10.018448	81.5	88.9	-93.3	16.2
2025-01-02 18:56:11.166111	50.3	89.0	-92.2	19.0
2025-01-02 18:56:12.313630	25.0	88.7	-92.4	22.9
2025-01-02 18:56:13.462348	9.7	88.3	-93.0	20.1
2025-01-02 18:56:14.604567	0.9	87.8	-92.8	20.0
2025-01-02 18:56:15.752318	355.2	87.3	-93.0	25.1
2025-01-02 18:56:16.904113	351.4	86.8	-93.1	24.2
2025-01-02 18:56:18.046671	348.8	86.2	-92.2	23.5
2025-01-02 18:56:19.196278	346.7	85.7	-92.2	25.2
2025-01-02 18:56:20.341694	345.2	85.1	-92.5	24.4
2025-01-02 18:56:21.487466	343.9	84.6	-92.6	21.1
2025-01-02 18:56:22.633804	342.9	84.0	-92.8	22.5
2025-01-02 18:56:23.771423	342.1	83.5	-92.5	25.5
2025-01-02 18:56:24.914242	341.4	82.9	-92.8	23.5
2025-01-02 18:56:26.057730	340.8	82.4	-92.7	23.6
2025-01-02 18:56:27.208672	340.3	81.8	-91.9	21.7
2025-01-02 18:56:28.359473	339.8	81.2	-92.1	24.6
2025-01-02 18:56:29.508745	339.4	80.7	-92.8	24.9
2025-01-02 18:56:30.656569	339.1	80.1	-92.8	25.6
2025-01-02 18:56:31.807496	338.7	79.6	-93.1	17.2
2025-01-02 18:56:32.953832	338.5	79.0	-92.5	21.9
2025-01-02 18:56:34.101935	338.2	78.5	-92.4	22.9
2025-01-02 18:56:35.248854	338.0	77.9	-92.4	21.2
2025-01-02 18:56:36.408305	337.8	77.4	-92.8	24.3
2025-01-02 18:56:37.557060	337.6	76.8	-92.7	22.9
2025-01-02 18:56:38.706669	337.4	76.3	-92.7	18.7
2025-01-02 18:56:39.850803	337.2	75.8	-92.8	21.1
2025-01-02 18:56:41.001306	337.1	75.2	-92.8	19.2
2025-01-02 18:56:42.145601	337.0	74.7	-92.4	14.5
2025-01-02 18:56:43.292883	336.8	74.2	-92.3	11.0
2025-01-02 18:56:44.439068	336.7	73.6	-92.8	12.6
2025-01-02 18:56:45.585338	336.6	73.1	-93.0	8.5
2025-01-02 18:56:46.718685	336.5	72.6	-92.5	14.0
2025-01-02 18:56:47.839286	336.4	72.1	-92.8	17.6
2025-01-02 18:56:48.961170	336.3	71.5	-92.9	15.6
2025-01-02 18:56:50.082258	336.2	71.0	-92.0	16.5
2025-01-02 18:56:51.202257	336.2	70.5	-92.3	16.9
2025-01-02 18:56:52.321929	336.1	70.0	-91.8	15.9
2025-01-02 18:56:53.441928	336.0	69.5	-92.2	15.7
2025-01-02 18:56:54.566746	336.0	69.0	-92.8	14.0
2025-01-02 18:56:55.702602	335.9	68.5	-93.1	15.5
2025-01-02 18:56:56.849811	335.8	68.0	-92.6	17.1
2025-01-02 18:56:57.993348	335.8	67.5	-92.5	19.0
2025-01-02 18:56:59.140154	335.7	67.0	-92.1	20.0
2025-01-02 18:57:00.283094	335.7	66.5	-92.1	20.1
2025-01-02 18:57:01.422952	335.6	66.0	-92.3	20.8
2025-01-02 18:57:02.563173	335.6	65.6	-92.5	19.8
2025-01-02 18:57:03.692529	335.5	65.1	-92.9	21.5
2025-01-02 18:57:04.812937	335.5	64.6	-92.9	23.0
2025-01-02 18:57:05.953565	335.4	64.1	-92.7	21.0
2025-01-02 18:57:07.097545	335.4	63.7	-92.4	17.1
2025-01-02 18:57:08.233050	335.4	63.2	-91.9	20.2
2025-01-02 18:57:09.375663	335.3	62.7	-92.3	23.5
2025-01-02 18:57:10.522994	335.3	62.3	-92.7	20.3
2025-01-02 18:57:11.670335	335.3	61.8	-92.3	17.9
2025-01-02 18:57:12.821399	335.2	61.3	-92.7	23.3
2025-01-02 18:57:13.970293	335.2	60.9	-92.7	16.7
2025-01-02 18:57:15.115953	335.2	60.4	-92.2	15.1
2025-01-02 18:57:16.263285	335.2	60.0	-92.5	21.2
2025-01-02 18:57:17.408664	335.1	59.5	-92.3	20.5
2025-01-02 18:57:18.558118	335.1	59.1	-92.3	12.7
2025-01-02 18:57:19.703500	335.1	58.6	-92.8	19.2
2025-01-02 18:57:20.847045	335.1	58.2	-93.0	21.9
2025-01-02 18:57:21.994249	335.0	57.7	-92.7	13.9
2025-01-02 18:57:23.140836	335.0	57.3	-92.4	12.9
2025-01-02 18:57:24.283399	335.0	56.9	-92.5	20.0
2025-01-02 18:57:25.430567	335.0	56.5	-92.4	18.0
2025-01-02 18:57:26.588992	335.0	56.0	-92.5	14.4
2025-01-02 18:57:27.734603	334.9	55.6	-92.5	21.3
2025-01-02 18:57:28.883841	334.9	55.2	-92.8	20.6
2025-01-02 18:57:30.025431	334.9	54.8	-92.9	19.9
2025-01-02 18:57:31.176353	334.9	54.4	-92.5	19.8
2025-01-02 18:57:32.321075	334.9	54.0	-92.2	20.4
2025-01-02 18:57:33.468245	334.8	53.6	-92.8	18.3
2025-01-02 18:57:34.619887	334.8	53.2	-93.2	15.9
2025-01-02 18:57:35.764337	334.8	52.8	-92.9	14.5
2025-01-02 18:57:36.908571	334.8	52.4	-92.9	15.4
2025-01-02 18:57:38.053093	334.8	52.0	-92.7	11.0
2025-01-02 18:57:39.196296	334.8	51.6	-92.2	10.5
2025-01-02 18:57:40.339412	334.8	51.2	-92.3	13.2
2025-01-02 18:57:41.483402	334.8	50.8	-92.7	10.6
2025-01-02 18:57:42.629218	334.7	50.5	-92.8	7.7
2025-01-02 18:57:43.775304	334.7	50.1	-93.3	6.1
2025-01-02 18:57:44.918831	334.7	49.7	-92.7	4.3
2025-01-02 18:57:46.063543	334.7	49.3	-92.5	6.0
2025-01-02 18:57:47.211088	334.7	49.0	-92.6	4.5
2025-01-02 18:57:48.358976	334.7	48.6	-92.3	9.2
2025-01-02 18:57:49.511212	334.7	48.2	-92.9	7.5
2025-01-02 18:57:50.655519	334.7	47.9	-92.9	6.8
2025-01-02 18:57:51.801685	334.7	47.5	-92.8	18.4
2025-01-02 18:57:52.945507	334.7	47.2	-92.9	13.2
2025-01-02 18:57:54.095589	334.6	46.8	-92.6	15.5
2025-01-02 18:57:55.244398	334.6	46.5	-92.3	17.1
2025-01-02 18:57:56.392226	334.6	46.1	-92.2	17.8
2025-01-02 18:57:57.537436	334.6	45.8	-92.9	16.9
2025-01-02 18:57:58.682468	334.6	45.5	-93.3	16.6
2025-01-02 18:57:59.831258	334.6	45.1	-92.9	17.0
2025-01-02 18:58:00.972749	334.6	44.8	-92.9	20.0
2025-01-02 18:58:02.120233	334.6	44.5	-92.4	19.3
2025-01-02 18:58:03.267232	334.6	44.1	-92.3	20.6
2025-01-02 18:58:04.410200	334.6	43.8	-92.4	21.4
2025-01-02 18:58:05.556305	334.6	43.5	-93.0	14.5
2025-01-02 18:58:06.704771	334.6	43.2	-92.5	18.4
2025-01-02 18:58:07.855186	334.6	42.9	-92.6	18.4
2025-01-02 18:58:09.000439	334.6	42.6	-93.0	13.0
2025-01-02 18:58:10.146121	334.6	42.2	-92.2	14.5
2025-01-02 18:58:11.293676	334.6	41.9	-92.3	21.8
2025-01-02 18:58:12.444957	334.5	41.6	-92.6	17.6
2025-01-02 18:58:13.598433	334.5	41.3	-92.6	17.8
2025-01-02 18:58:14.748118	334.5	41.0	-92.8	21.5
2025-01-02 18:58:15.895311	334.5	40.7	-92.9	18.0
2025-01-02 18:58:17.045077	334.5	40.4	-92.8	16.3
2025-01-02 18:58:18.188000	334.5	40.1	-92.8	16.0
2025-01-02 18:58:19.334395	334.5	39.8	-92.1	13.5
2025-01-02 18:58:20.476076	334.5	39.6	-92.8	16.8
2025-01-02 18:58:21.617097	334.5	39.3	-92.8	14.8
2025-01-02 18:58:22.743322	334.5	39.0	-92.7	19.4
2025-01-02 18:58:23.864369	334.5	38.7	-92.7	17.0
2025-01-02 18:58:24.986078	334.5	38.4	-92.9	8.1
2025-01-02 18:58:26.105774	334.5	38.2	-92.3	4.4
2025-01-02 18:58:27.226813	334.5	37.9	-92.1	10.1
2025-01-02 18:58:28.346913	334.5	37.6	-91.8	13.1
2025-01-02 18:58:29.469931	334.5	37.4	-92.6	8.9
2025-01-02 18:58:30.592163	334.5	37.1	-93.0	9.4
2025-01-02 18:58:31.741383	334.5	36.8	-92.4	12.8
2025-01-02 18:58:32.884789	334.5	36.6	-91.9	8.1
2025-01-02 18:58:34.031410	334.5	36.3	-91.9	7.7
2025-01-02 18:58:35.174270	334.5	36.1	-91.2	13.0
2025-01-02 18:58:36.318724	334.5	35.8	-91.3	10.1
2025-01-02 18:58:37.466616	334.5	35.5	-91.7	12.1
2025-01-02 18:58:38.615499	334.5	35.3	-92.2	14.1
2025-01-02 18:58:39.764719	334.5	35.0	-91.8	16.7
2025-01-02 18:58:40.915749	334.5	34.8	-93.2	16.2
2025-01-02 18:58:42.061032	334.5	34.5	-92.4	10.5
2025-01-02 18:58:43.203357	334.5	34.3	-92.6	16.9
2025-01-02 18:58:44.348116	334.5	34.0	-91.4	14.3
2025-01-02 18:58:45.494024	334.5	33.8	-91.5	7.2
2025-01-02 18:58:46.642174	334.5	33.6	-91.7	9.2
2025-01-02 18:58:47.786375	334.5	33.3	-91.6	12.6
2025-01-02 18:58:48.934824	334.5	33.1	-91.9	16.9
2025-01-02 18:58:50.079272	334.5	32.9	-91.2	9.1
2025-01-02 18:58:51.230065	334.5	32.6	-90.8	7.1
2025-01-02 18:58:52.374584	334.5	32.4	-92.3	12.4
2025-01-02 18:58:53.518481	334.5	32.2	-92.9	12.3
2025-01-02 18:58:54.664460	334.5	31.9	-92.6	12.3
2025-01-02 18:58:55.807377	334.5	31.7	-93.2	12.8
2025-01-02 18:58:56.951203	334.5	31.5	-92.9	9.6
2025-01-02 18:58:58.102162	334.5	31.3	-92.2	7.3
2025-01-02 18:58:59.247943	334.5	31.0	-92.4	12.5
2025-01-02 18:59:00.393036	334.5	30.8	-92.5	16.1
2025-01-02 18:59:01.536329	334.5	30.6	-93.3	6.9
2025-01-02 18:59:02.683372	334.5	30.4	-93.2	13.2
2025-01-02 18:59:03.828777	334.5	30.2	-92.8	15.1
2025-01-02 18:59:04.971617	334.5	30.0	-93.1	12.3
2025-01-02 18:59:06.124547	334.5	29.7	-92.7	17.1
2025-01-02 18:59:07.270958	334.5	29.5	-92.4	11.6
2025-01-02 18:59:08.415247	334.5	29.3	-92.4	10.1
2025-01-02 18:59:09.561776	334.5	29.1	-93.1	14.6
2025-01-02 18:59:10.711544	334.5	28.9	-93.2	13.6
2025-01-02 18:59:11.855714	334.5	28.7	-93.0	16.1
2025-01-02 18:59:13.005987	334.5	28.5	-93.3	6.8
2025-01-02 18:59:14.150510	334.5	28.3	-92.5	10.3
2025-01-02 18:59:15.295775	334.5	28.1	-92.3	13.6
2025-01-02 18:59:16.437452	334.5	27.9	-92.8	3.8
2025-01-02 18:59:17.585430	334.5	27.7	-93.1	11.0
2025-01-02 18:59:18.736034	334.5	27.5	-92.7	11.3
2025-01-02 18:59:19.878214	334.5	27.3	-92.9	11.0
2025-01-02 18:59:21.025822	334.5	27.1	-93.2	12.8
2025-01-02 18:59:22.176488	334.5	26.9	-92.2	7.3
2025-01-02 18:59:23.328738	334.5	26.7	-92.4	8.8
2025-01-02 18:59:24.473617	334.5	26.6	-93.1	7.6
2025-01-02 18:59:25.619097	334.5	26.4	-92.8	9.8
2025-01-02 18:59:26.762318	334.5	26.2	-93.0	7.1
2025-01-02 18:59:27.903355	334.5	26.0	-93.2	7.7
2025-01-02 18:59:29.052372	334.5	25.8	-92.6	4.9
2025-01-02 18:59:30.201426	334.5	25.6	-92.7	10.8
2025-01-02 18:59:31.356858	334.5	25.4	-92.7	8.6
2025-01-02 18:59:32.497460	334.5	25.3	-92.7	8.4
2025-01-02 18:59:33.642257	334.5	25.1	-93.0	9.6
2025-01-02 18:59:34.787196	334.5	24.9	-93.2	13.3
2025-01-02 18:59:35.932393	334.5	24.7	-92.8	18.7
2025-01-02 18:59:37.079287	334.5	24.6	-92.7	7.1
2025-01-02 18:59:38.228565	334.5	24.4	-92.7	10.9
2025-01-02 18:59:39.378780	334.5	24.2	-92.5	12.5
2025-01-02 18:59:40.524847	334.5	24.0	-93.2	5.7
2025-01-02 18:59:41.671324	334.5	23.9	-93.3	5.3
2025-01-02 18:59:42.818007	334.5	23.7	-93.2	5.0
2025-01-02 18:59:43.973633	334.5	23.5	-93.0	7.0
2025-01-02 18:59:45.122420	334.5	23.4	-92.4	8.7
2025-01-02 18:59:46.276440	334.5	23.2	-92.5	7.5
2025-01-02 18:59:47.420670	334.5	23.0	-92.8	12.1
2025-01-02 18:59:48.561995	334.5	22.9	-92.8	7.3
2025-01-02 18:59:49.713616	334.5	22.7	-93.1	14.8
2025-01-02 18:59:50.856774	334.5	22.5	-93.2	11.0
2025-01-02 18:59:52.008951	334.5	22.4	-92.8	10.9
2025-01-02 18:59:53.153516	334.5	22.2	-92.4	7.0
2025-01-02 18:59:54.304599	334.5	22.1	-92.6	5.1
2025-01-02 18:59:55.451388	334.5	21.9	-92.9	4.8
2025-01-02 18:59:56.594960	334.5	21.7	-93.0	5.0
2025-01-02 18:59:57.745334	334.5	21.6	-93.7	9.0
2025-01-02 18:59:58.885935	334.5	21.4	-93.2	8.1
2025-01-02 19:00:00.031885	334.5	21.3	-93.2	4.6
2025-01-02 19:00:01.178681	334.5	21.1	-92.9	5.4
2025-01-02 19:00:02.322749	334.5	21.0	-92.7	12.7
2025-01-02 19:00:03.469244	334.5	20.8	-93.4	4.0
2025-01-02 19:00:04.614710	334.5	20.7	-93.1	11.1
2025-01-02 19:00:05.766549	334.5	20.5	-93.5	3.0
2025-01-02 19:00:06.920682	334.5	20.4	-92.9	9.0
2025-01-02 19:00:08.066372	334.5	20.2	-92.7	4.6
2025-01-02 19:00:09.214885	334.5	20.1	-92.5	8.7
2025-01-02 19:00:10.362898	334.5	19.9	-92.5	8.4
2025-01-02 19:00:11.506959	334.5	19.8	-93.1	6.3
2025-01-02 19:00:12.650305	334.6	19.6	-93.4	5.8
2025-01-02 19:00:13.802054	334.6	19.5	-93.4	4.5
2025-01-02 19:00:14.949394	334.6	19.3	-93.2	5.7
2025-01-02 19:00:16.097597	334.6	19.2	-93.0	3.7
2025-01-02 19:00:17.244049	334.6	19.1	-92.4	3.9
2025-01-02 19:00:18.388231	334.6	18.9	-92.7	6.2
2025-01-02 19:00:19.535057	334.6	18.8	-93.3	10.7
2025-01-02 19:00:20.680647	334.6	18.6	-93.1	8.3
2025-01-02 19:00:21.833464	334.6	18.5	-93.0	6.3
2025-01-02 19:00:22.983821	334.6	18.4	-93.1	5.5
2025-01-02 19:00:24.129190	334.6	18.2	-92.5	4.3
2025-01-02 19:00:25.273176	334.6	18.1	-92.4	3.2
2025-01-02 19:00:26.424702	334.6	18.0	-92.9	4.5
2025-01-02 19:00:27.576207	334.6	17.8	-93.2	4.3
2025-01-02 19:00:28.718361	334.6	17.7	-92.9	7.9
2025-01-02 19:00:29.871766	334.6	17.6	-92.9	4.3
2025-01-02 19:00:31.022846	334.6	17.4	-93.1	7.1
2025-01-02 19:00:32.171422	334.6	17.3	-92.8	3.7
2025-01-02 19:00:33.312452	334.6	17.2	-92.3	4.4
2025-01-02 19:00:34.461078	334.6	17.0	-93.0	4.3
2025-01-02 19:00:35.607782	334.6	16.9	-93.3	4.6
2025-01-02 19:00:36.750421	334.6	16.8	-92.9	8.4
2025-01-02 19:00:37.902159	334.6	16.6	-93.2	5.7
2025-01-02 19:00:39.049045	334.6	16.5	-92.9	5.9
2025-01-02 19:00:40.199123	334.6	16.4	-92.6	5.9
2025-01-02 19:00:41.347038	334.6	16.3	-92.2	7.8
2025-01-02 19:00:42.497972	334.6	16.1	-93.1	5.9
2025-01-02 19:00:43.647589	334.6	16.0	-93.1	5.5
2025-01-02 19:00:44.797555	334.6	15.9	-93.2	5.2
2025-01-02 19:00:45.942947	334.6	15.8	-93.0	5.0
2025-01-02 19:00:47.090618	334.6	15.6	-92.7	5.0
2025-01-02 19:00:48.237359	334.6	15.5	-92.7	6.5
2025-01-02 19:00:49.389353	334.6	15.4	-92.4	4.7
2025-01-02 19:00:50.533418	334.6	15.3	-93.2	5.2
2025-01-02 19:00:51.682839	334.6	15.1	-93.3	7.0
2025-01-02 19:00:52.831290	334.6	15.0	-92.8	4.0
2025-01-02 19:00:53.962005	334.6	14.9	-93.3	4.6
2025-01-02 19:00:55.103499	334.7	14.8	-92.4	2.3
2025-01-02 19:00:56.249015	334.7	14.7	-92.6	4.4
2025-01-02 19:00:57.396584	334.7	14.6	-92.8	4.5
2025-01-02 19:00:58.535286	334.7	14.4	-92.8	1.0
#Closed at: 2025-01-02 18:51:33.723290