passes_logs/2025/01/02/LEX_Murmansk/LEX_Murmansk__20250102_082341_NOAA_19_rec.log

#Pass ID: 20250102_082341_NOAA 19
#Satellite: NOAA 19
#Configuration: NOAA 19
#Start time: 2025-01-02 08:23:36.700449

#LorettStation: 1.0.0 05.05.2024
#Station: LEX_Murmansk
#Location: 33.156738 lon 68.926811 lat
#TLE: 1 33591U 09005A   25001.83569820  .00001454  00000+0  79919-3 0  9995
#TLE: 2 33591  99.0217  65.4951 0014707  92.5482 267.7374 14.13252981819684

#Time	Az	El	Level	SNR
2025-01-02 08:23:48.831285	28.0	16.3	-92.5	3.9
2025-01-02 08:23:49.994088	28.1	16.4	-92.5	2.9
2025-01-02 08:23:51.159830	28.1	16.5	-91.7	2.6
2025-01-02 08:23:52.313946	28.2	16.7	-91.8	3.5
2025-01-02 08:23:53.478699	28.2	16.8	-92.1	4.7
2025-01-02 08:23:54.656862	28.3	16.9	-92.4	5.6
2025-01-02 08:23:55.824013	28.3	17.1	-92.2	7.5
2025-01-02 08:23:56.989273	28.4	17.2	-92.2	5.5
2025-01-02 08:23:58.151354	28.4	17.3	-91.7	5.7
2025-01-02 08:23:59.314499	28.5	17.5	-91.6	5.4
2025-01-02 08:24:00.463564	28.5	17.6	-92.2	6.0
2025-01-02 08:24:01.627326	28.6	17.7	-92.1	5.8
2025-01-02 08:24:02.786496	28.6	17.9	-92.3	3.8
2025-01-02 08:24:03.950158	28.7	18.0	-92.2	2.1
2025-01-02 08:24:05.113658	28.7	18.1	-91.9	4.3
2025-01-02 08:24:06.274078	28.8	18.3	-91.8	2.3
2025-01-02 08:24:07.437535	28.8	18.4	-92.0	2.8
2025-01-02 08:24:08.602461	28.9	18.6	-91.9	7.7
2025-01-02 08:24:09.765429	28.9	18.7	-92.1	9.4
2025-01-02 08:24:10.932727	29.0	18.8	-92.3	9.5
2025-01-02 08:24:12.091383	29.0	19.0	-92.1	8.5
2025-01-02 08:24:13.254939	29.1	19.1	-92.0	5.2
2025-01-02 08:24:14.416397	29.1	19.3	-92.2	7.7
2025-01-02 08:24:15.580310	29.2	19.4	-92.2	5.9
2025-01-02 08:24:16.744818	29.2	19.5	-92.1	10.3
2025-01-02 08:24:17.908190	29.3	19.7	-92.0	7.6
2025-01-02 08:24:19.071445	29.4	19.8	-92.0	4.2
2025-01-02 08:24:20.230365	29.4	20.0	-91.7	1.3
2025-01-02 08:24:21.393732	29.5	20.1	-92.3	4.8
2025-01-02 08:24:22.553603	29.5	20.3	-92.5	4.1
2025-01-02 08:24:23.720750	29.6	20.4	-92.4	6.9
2025-01-02 08:24:24.885105	29.7	20.6	-92.4	11.6
2025-01-02 08:24:26.052241	29.7	20.7	-92.0	11.7
2025-01-02 08:24:27.211649	29.8	20.9	-92.3	9.4
2025-01-02 08:24:28.374385	29.8	21.0	-92.2	7.9
2025-01-02 08:24:29.541196	29.9	21.2	-92.4	8.7
2025-01-02 08:24:30.704788	30.0	21.3	-92.3	8.4
2025-01-02 08:24:31.870557	30.0	21.5	-92.7	13.6
2025-01-02 08:24:33.033233	30.1	21.7	-92.4	12.2
2025-01-02 08:24:34.194258	30.2	21.8	-92.5	9.6
2025-01-02 08:24:35.357269	30.2	22.0	-92.1	3.1
2025-01-02 08:24:36.518070	30.3	22.1	-92.4	3.2
2025-01-02 08:24:37.688986	30.4	22.3	-92.6	1.8
2025-01-02 08:24:38.848060	30.4	22.5	-92.5	2.3
2025-01-02 08:24:40.012801	30.5	22.6	-92.4	6.6
2025-01-02 08:24:41.173939	30.6	22.8	-92.0	11.9
2025-01-02 08:24:42.333103	30.6	22.9	-91.9	13.7
2025-01-02 08:24:43.501990	30.7	23.1	-92.1	12.0
2025-01-02 08:24:44.672869	30.8	23.3	-92.4	5.9
2025-01-02 08:24:45.837764	30.8	23.4	-92.4	4.7
2025-01-02 08:24:47.003620	30.9	23.6	-92.4	10.8
2025-01-02 08:24:48.169472	31.0	23.8	-92.0	10.8
2025-01-02 08:24:49.334570	31.1	24.0	-91.9	9.2
2025-01-02 08:24:50.496972	31.1	24.1	-92.3	8.3
2025-01-02 08:24:51.662492	31.2	24.3	-92.2	3.6
2025-01-02 08:24:52.832618	31.3	24.5	-92.7	3.6
2025-01-02 08:24:54.000263	31.4	24.7	-92.5	3.3
2025-01-02 08:24:55.164149	31.4	24.8	-92.1	2.4
2025-01-02 08:24:56.328475	31.5	25.0	-92.4	7.2
2025-01-02 08:24:57.495860	31.6	25.2	-92.4	8.4
2025-01-02 08:24:58.659572	31.7	25.4	-92.2	10.5
2025-01-02 08:24:59.818361	31.8	25.5	-92.7	8.7
2025-01-02 08:25:00.964001	31.8	25.7	-92.6	8.5
2025-01-02 08:25:02.104685	31.9	25.9	-92.2	7.9
2025-01-02 08:25:03.225711	32.0	26.1	-92.5	4.5
2025-01-02 08:25:04.347471	32.1	26.3	-92.3	6.8
2025-01-02 08:25:05.468734	32.2	26.4	-92.5	7.2
2025-01-02 08:25:06.590280	32.2	26.6	-92.4	5.1
2025-01-02 08:25:07.711806	32.3	26.8	-92.6	1.6
2025-01-02 08:25:08.832468	32.4	27.0	-92.5	2.4
2025-01-02 08:25:09.958740	32.5	27.2	-92.5	1.8
2025-01-02 08:25:11.112159	32.6	27.4	-92.4	3.9
2025-01-02 08:25:12.269643	32.7	27.6	-92.5	2.4
2025-01-02 08:25:13.427486	32.8	27.7	-92.6	4.1
2025-01-02 08:25:14.584221	32.9	27.9	-92.5	7.6
2025-01-02 08:25:15.726242	32.9	28.1	-92.7	4.8
2025-01-02 08:25:16.859819	33.0	28.3	-92.3	4.7
2025-01-02 08:25:18.019348	33.1	28.5	-92.5	4.0
2025-01-02 08:25:19.174012	33.2	28.7	-92.2	5.1
2025-01-02 08:25:20.329933	33.3	28.9	-92.4	4.9
2025-01-02 08:25:21.482730	33.4	29.1	-92.7	7.8
2025-01-02 08:25:22.637614	33.5	29.3	-92.4	12.7
2025-01-02 08:25:23.800734	33.6	29.5	-92.5	7.2
2025-01-02 08:25:24.965200	33.7	29.8	-92.9	6.4
2025-01-02 08:25:26.125800	33.8	30.0	-92.2	2.8
2025-01-02 08:25:27.285139	33.9	30.2	-92.5	1.2
2025-01-02 08:25:28.441434	34.0	30.4	-92.2	2.0
2025-01-02 08:25:29.566649	34.1	30.6	-92.6	4.5
2025-01-02 08:25:30.717462	34.3	30.8	-92.3	6.9
2025-01-02 08:25:31.861234	34.4	31.0	-92.2	10.7
2025-01-02 08:25:33.011479	34.5	31.2	-92.4	11.9
2025-01-02 08:25:34.170152	34.6	31.5	-91.7	8.0
2025-01-02 08:25:35.324826	34.7	31.7	-92.3	6.2
2025-01-02 08:25:36.478006	34.8	31.9	-92.6	7.4
2025-01-02 08:25:37.638864	34.9	32.1	-92.5	6.6
2025-01-02 08:25:38.800463	35.1	32.4	-92.3	9.0
2025-01-02 08:25:39.966235	35.2	32.6	-92.4	11.3
2025-01-02 08:25:41.126611	35.3	32.8	-91.8	9.7
2025-01-02 08:25:42.287448	35.4	33.0	-92.0	5.7
2025-01-02 08:25:43.445941	35.6	33.3	-92.2	4.4
2025-01-02 08:25:44.611784	35.7	33.5	-88.6	1.9
2025-01-02 08:25:45.768496	35.8	33.7	-92.3	0.8
2025-01-02 08:25:46.940719	35.9	34.0	-92.3	5.6
2025-01-02 08:25:48.106685	36.1	34.2	-92.1	8.7
2025-01-02 08:25:49.272612	36.2	34.5	-92.0	12.0
2025-01-02 08:25:50.439424	36.4	34.7	-92.6	14.4
2025-01-02 08:25:51.604856	36.5	35.0	-92.5	12.4
2025-01-02 08:25:52.768311	36.6	35.2	-92.4	9.3
2025-01-02 08:25:53.934097	36.8	35.5	-92.2	8.5
2025-01-02 08:25:55.103538	36.9	35.7	-92.0	11.6
2025-01-02 08:25:56.258457	37.1	36.0	-92.1	10.3
2025-01-02 08:25:57.434230	37.2	36.2	-91.8	15.2
2025-01-02 08:25:58.554530	37.4	36.5	-92.2	16.0
2025-01-02 08:25:59.701397	37.5	36.7	-92.3	13.8
2025-01-02 08:26:00.848236	37.7	37.0	-92.0	8.0
2025-01-02 08:26:01.987571	37.8	37.2	-92.5	8.3
2025-01-02 08:26:03.145747	38.0	37.5	-91.7	4.2
2025-01-02 08:26:04.296280	38.2	37.7	-92.4	2.1
2025-01-02 08:26:05.456580	38.3	38.0	-92.6	7.8
2025-01-02 08:26:06.617426	38.5	38.3	-92.1	10.3
2025-01-02 08:26:07.776033	38.7	38.5	-92.5	13.6
2025-01-02 08:26:08.938859	38.8	38.8	-92.6	17.2
2025-01-02 08:26:10.103452	39.0	39.1	-92.0	14.2
2025-01-02 08:26:11.264783	39.2	39.4	-92.2	11.6
2025-01-02 08:26:12.428794	39.4	39.6	-92.7	10.6
2025-01-02 08:26:13.585807	39.6	39.9	-92.7	12.3
2025-01-02 08:26:14.749373	39.8	40.2	-92.1	8.8
2025-01-02 08:26:15.913029	40.0	40.5	-92.4	15.1
2025-01-02 08:26:17.069577	40.2	40.8	-92.6	18.2
2025-01-02 08:26:18.238662	40.4	41.1	-92.3	16.1
2025-01-02 08:26:19.403315	40.6	41.4	-92.9	11.7
2025-01-02 08:26:20.569424	40.8	41.6	-92.3	9.7
2025-01-02 08:26:21.732051	41.0	41.9	-92.4	4.6
2025-01-02 08:26:22.894678	41.2	42.2	-92.7	6.1
2025-01-02 08:26:24.055774	41.4	42.5	-92.6	6.4
2025-01-02 08:26:25.217318	41.6	42.8	-92.4	6.9
2025-01-02 08:26:26.383295	41.9	43.1	-92.5	12.2
2025-01-02 08:26:27.543629	42.1	43.4	-92.2	15.6
2025-01-02 08:26:28.710680	42.3	43.7	-92.3	17.7
2025-01-02 08:26:29.875890	42.6	44.0	-92.6	17.5
2025-01-02 08:26:31.043070	42.8	44.4	-93.0	14.1
2025-01-02 08:26:32.205561	43.1	44.7	-92.5	8.8
2025-01-02 08:26:33.366834	43.3	45.0	-92.6	11.7
2025-01-02 08:26:34.526692	43.6	45.3	-92.8	12.4
2025-01-02 08:26:35.690212	43.8	45.6	-92.6	9.2
2025-01-02 08:26:36.855261	44.1	45.9	-92.5	13.2
2025-01-02 08:26:38.030774	44.4	46.2	-92.7	16.6
2025-01-02 08:26:39.189858	44.7	46.6	-91.8	13.9
2025-01-02 08:26:40.354542	44.9	46.9	-92.1	10.3
2025-01-02 08:26:41.526011	45.2	47.2	-92.6	7.1
2025-01-02 08:26:42.692758	45.5	47.5	-92.8	5.0
2025-01-02 08:26:43.848890	45.8	47.9	-92.6	1.4
2025-01-02 08:26:45.015224	46.2	48.2	-92.3	2.7
2025-01-02 08:26:46.170761	46.5	48.5	-91.9	2.1
2025-01-02 08:26:47.339429	46.8	48.9	-92.1	2.4
2025-01-02 08:26:48.503618	47.1	49.2	-92.7	2.7
2025-01-02 08:26:49.670354	47.5	49.5	-92.0	6.1
2025-01-02 08:26:50.833905	47.8	49.9	-91.8	7.8
2025-01-02 08:26:52.002555	48.2	50.2	-92.0	11.8
2025-01-02 08:26:53.165848	48.5	50.6	-92.4	7.2
2025-01-02 08:26:54.325354	48.9	50.9	-92.5	5.5
2025-01-02 08:26:55.492091	49.3	51.2	-92.9	7.2
2025-01-02 08:26:56.655521	49.7	51.6	-92.7	1.9
2025-01-02 08:26:57.821992	50.1	51.9	-92.9	4.0
2025-01-02 08:26:58.985880	50.5	52.3	-92.8	10.8
2025-01-02 08:27:00.144083	50.9	52.6	-92.4	12.0
2025-01-02 08:27:01.295077	51.3	53.0	-92.7	13.5
2025-01-02 08:27:02.427567	51.7	53.3	-92.7	13.3
2025-01-02 08:27:03.548716	52.1	53.6	-93.0	10.6
2025-01-02 08:27:04.669363	52.6	54.0	-92.8	6.3
2025-01-02 08:27:05.789854	53.0	54.3	-92.8	6.0
2025-01-02 08:27:06.910789	53.5	54.7	-92.4	5.3
2025-01-02 08:27:08.031196	54.0	55.0	-92.8	5.0
2025-01-02 08:27:09.153295	54.4	55.3	-92.5	4.2
2025-01-02 08:27:10.275072	54.9	55.7	-92.4	2.8
2025-01-02 08:27:11.434793	55.4	56.0	-92.4	7.6
2025-01-02 08:27:12.592662	56.0	56.4	-92.6	10.8
2025-01-02 08:27:13.751716	56.5	56.7	-92.3	11.3
2025-01-02 08:27:14.897878	57.1	57.1	-93.1	13.8
2025-01-02 08:27:16.056921	57.7	57.4	-92.7	15.3
2025-01-02 08:27:17.220026	58.3	57.8	-92.6	14.6
2025-01-02 08:27:18.377468	58.9	58.1	-92.6	11.6
2025-01-02 08:27:19.550701	59.5	58.5	-92.9	12.7
2025-01-02 08:27:20.711249	60.1	58.8	-92.7	9.7
2025-01-02 08:27:21.874587	60.8	59.2	-92.8	11.5
2025-01-02 08:27:23.028161	61.5	59.5	-92.6	12.5
2025-01-02 08:27:24.196453	62.2	59.9	-92.4	6.7
2025-01-02 08:27:25.358977	62.9	60.2	-92.4	8.6
2025-01-02 08:27:26.512595	63.6	60.5	-92.5	18.4
2025-01-02 08:27:27.675062	64.3	60.9	-92.9	17.4
2025-01-02 08:27:28.830375	65.1	61.2	-92.5	16.8
2025-01-02 08:27:29.995670	65.9	61.5	-92.5	16.9
2025-01-02 08:27:31.157792	66.7	61.9	-92.4	16.7
2025-01-02 08:27:32.334000	67.5	62.2	-92.8	13.3
2025-01-02 08:27:33.489601	68.4	62.5	-92.8	10.6
2025-01-02 08:27:34.653349	69.3	62.8	-92.4	7.5
2025-01-02 08:27:35.815396	70.2	63.1	-92.8	4.0
2025-01-02 08:27:36.976567	71.1	63.4	-92.8	4.6
2025-01-02 08:27:38.141645	72.1	63.8	-92.2	5.8
2025-01-02 08:27:39.315107	73.0	64.1	-92.2	3.1
2025-01-02 08:27:40.482633	74.0	64.3	-92.8	8.6
2025-01-02 08:27:41.644463	75.1	64.6	-93.0	6.9
2025-01-02 08:27:42.807736	76.1	64.9	-93.1	6.0
2025-01-02 08:27:43.968508	77.2	65.2	-93.1	9.6
2025-01-02 08:27:45.135071	78.3	65.4	-92.7	10.0
2025-01-02 08:27:46.303039	79.4	65.7	-92.7	11.1
2025-01-02 08:27:47.471732	80.6	66.0	-92.9	15.9
2025-01-02 08:27:48.633599	81.8	66.2	-92.9	17.2
2025-01-02 08:27:49.791451	83.0	66.4	-92.9	14.8
2025-01-02 08:27:50.961424	84.2	66.7	-92.7	15.1
2025-01-02 08:27:52.125888	85.5	66.9	-92.5	14.8
2025-01-02 08:27:53.286941	86.8	67.1	-92.6	11.5
2025-01-02 08:27:54.449943	88.1	67.3	-92.5	10.0
2025-01-02 08:27:55.615271	89.4	67.5	-92.9	12.0
2025-01-02 08:27:56.782581	90.8	67.6	-92.8	6.9
2025-01-02 08:27:57.943070	92.2	67.8	-92.8	8.8
2025-01-02 08:27:59.107957	93.6	68.0	-93.0	10.0
2025-01-02 08:28:00.261162	95.0	68.1	-92.8	8.6
2025-01-02 08:28:01.420509	96.4	68.2	-92.4	8.4
2025-01-02 08:28:02.575940	97.9	68.3	-92.9	10.7
2025-01-02 08:28:03.733639	99.3	68.4	-93.0	7.8
2025-01-02 08:28:04.898793	100.8	68.5	-92.9	9.1
2025-01-02 08:28:06.062851	102.3	68.6	-92.6	11.3
2025-01-02 08:28:07.226085	103.8	68.7	-92.5	9.1
2025-01-02 08:28:08.394245	105.4	68.7	-92.3	12.2
2025-01-02 08:28:09.554754	106.9	68.7	-92.4	14.9
2025-01-02 08:28:10.715996	108.4	68.8	-92.6	11.2
2025-01-02 08:28:11.876022	109.9	68.8	-92.4	14.9
2025-01-02 08:28:13.037454	111.5	68.8	-92.8	18.5
2025-01-02 08:28:14.186705	113.0	68.7	-92.5	16.8
2025-01-02 08:28:15.332424	114.5	68.7	-92.6	17.8
2025-01-02 08:28:16.460458	115.9	68.7	-93.0	19.2
2025-01-02 08:28:17.580635	117.4	68.6	-93.0	20.2
2025-01-02 08:28:18.700852	118.8	68.5	-92.8	21.8
2025-01-02 08:28:19.820420	120.3	68.4	-92.9	23.0
2025-01-02 08:28:20.940814	121.7	68.3	-92.9	22.5
2025-01-02 08:28:22.063247	123.1	68.2	-92.7	20.9
2025-01-02 08:28:23.189384	124.5	68.1	-92.7	20.3
2025-01-02 08:28:24.320649	125.9	68.0	-92.7	18.7
2025-01-02 08:28:25.480309	127.3	67.8	-92.6	19.4
2025-01-02 08:28:26.635852	128.7	67.7	-92.8	18.2
2025-01-02 08:28:27.798644	130.0	67.5	-92.8	16.2
2025-01-02 08:28:28.959567	131.4	67.3	-92.6	16.0
2025-01-02 08:28:30.118588	132.7	67.1	-92.4	15.3
2025-01-02 08:28:31.279935	134.0	66.9	-92.0	10.4
2025-01-02 08:28:32.448804	135.2	66.7	-92.6	10.4
2025-01-02 08:28:33.604067	136.5	66.5	-92.7	13.8
2025-01-02 08:28:34.770241	137.7	66.3	-93.0	11.8
2025-01-02 08:28:35.927092	138.9	66.0	-92.5	10.4
2025-01-02 08:28:37.087794	140.0	65.8	-92.9	10.1
2025-01-02 08:28:38.254100	141.2	65.5	-92.5	8.2
2025-01-02 08:28:39.414565	142.3	65.2	-92.8	10.4
2025-01-02 08:28:40.582204	143.4	65.0	-92.6	11.7
2025-01-02 08:28:41.737694	144.4	64.7	-92.9	10.2
2025-01-02 08:28:42.897566	145.5	64.4	-92.8	8.0
2025-01-02 08:28:44.054959	146.5	64.1	-92.4	9.6
2025-01-02 08:28:45.224086	147.4	63.8	-92.4	7.9
2025-01-02 08:28:46.395167	148.4	63.5	-92.6	9.9
2025-01-02 08:28:47.554703	149.3	63.2	-93.0	9.3
2025-01-02 08:28:48.718751	150.2	62.9	-92.9	8.9
2025-01-02 08:28:49.883985	151.1	62.6	-93.3	9.9
2025-01-02 08:28:51.042822	152.0	62.3	-92.9	10.3
2025-01-02 08:28:52.202724	152.8	61.9	-92.5	8.9
2025-01-02 08:28:53.366825	153.6	61.6	-92.5	9.4
2025-01-02 08:28:54.529791	154.4	61.3	-92.7	10.5
2025-01-02 08:28:55.697387	155.2	60.9	-92.8	6.2
2025-01-02 08:28:56.858419	156.0	60.6	-92.7	5.7
2025-01-02 08:28:58.024843	156.7	60.3	-92.8	8.7
2025-01-02 08:28:59.192154	157.4	59.9	-92.8	6.0
2025-01-02 08:29:00.343987	158.1	59.6	-92.0	5.7
2025-01-02 08:29:01.508305	158.8	59.2	-93.0	7.6
2025-01-02 08:29:02.664767	159.5	58.9	-92.7	4.5
2025-01-02 08:29:03.822875	160.1	58.5	-92.9	4.6
2025-01-02 08:29:04.987286	160.7	58.2	-93.0	7.5
2025-01-02 08:29:06.156336	161.3	57.8	-92.5	3.8
2025-01-02 08:29:07.314328	161.9	57.5	-92.8	4.7
2025-01-02 08:29:08.489006	162.5	57.1	-92.7	6.0
2025-01-02 08:29:09.654713	163.1	56.8	-92.7	6.6
2025-01-02 08:29:10.815202	163.6	56.4	-92.9	5.8
2025-01-02 08:29:11.991478	164.2	56.1	-92.7	5.1
2025-01-02 08:29:13.148258	164.7	55.7	-92.6	6.5
2025-01-02 08:29:14.314091	165.2	55.4	-92.6	3.5
2025-01-02 08:29:15.477641	165.7	55.0	-92.8	7.6
2025-01-02 08:29:16.648563	166.2	54.7	-92.8	8.7
2025-01-02 08:29:17.815195	166.7	54.3	-92.9	6.3
2025-01-02 08:29:18.973224	167.2	54.0	-93.0	10.8
2025-01-02 08:29:20.134656	167.6	53.6	-92.6	13.1
2025-01-02 08:29:21.296583	168.1	53.3	-92.6	10.6
2025-01-02 08:29:22.463847	168.5	52.9	-92.6	7.2
2025-01-02 08:29:23.623746	168.9	52.6	-92.6	10.3
2025-01-02 08:29:24.790098	169.3	52.2	-92.5	11.0
2025-01-02 08:29:25.953280	169.7	51.9	-92.2	10.6
2025-01-02 08:29:27.121732	170.1	51.5	-92.2	9.0
2025-01-02 08:29:28.286091	170.5	51.2	-92.6	9.6
2025-01-02 08:29:29.451437	170.9	50.8	-92.9	7.0
2025-01-02 08:29:30.619635	171.3	50.5	-92.6	6.5
2025-01-02 08:29:31.783333	171.6	50.1	-92.8	5.0
2025-01-02 08:29:32.951276	172.0	49.8	-92.5	6.1
2025-01-02 08:29:34.106564	172.3	49.5	-92.2	6.8
2025-01-02 08:29:35.266641	172.6	49.1	-91.8	5.6
2025-01-02 08:29:36.430365	173.0	48.8	-91.9	6.4
2025-01-02 08:29:37.591352	173.3	48.5	-91.8	7.4
2025-01-02 08:29:38.757000	173.6	48.1	-92.6	4.9
2025-01-02 08:29:39.921775	173.9	47.8	-92.4	6.1
2025-01-02 08:29:41.085581	174.2	47.5	-92.3	5.7
2025-01-02 08:29:42.248456	174.5	47.1	-92.6	3.2
2025-01-02 08:29:43.413064	174.8	46.8	-92.8	7.0
2025-01-02 08:29:44.573969	175.1	46.5	-92.7	7.3
2025-01-02 08:29:45.739217	175.4	46.2	-92.2	14.6
2025-01-02 08:29:46.904901	175.7	45.9	-92.8	11.3
2025-01-02 08:29:48.068350	175.9	45.5	-92.1	9.3
2025-01-02 08:29:49.228292	176.2	45.2	-92.2	15.2
2025-01-02 08:29:50.386700	176.4	44.9	-92.7	13.1
2025-01-02 08:29:51.554469	176.7	44.6	-92.6	12.8
2025-01-02 08:29:52.718465	177.0	44.3	-92.4	15.4
2025-01-02 08:29:53.874285	177.2	44.0	-92.1	16.5
2025-01-02 08:29:55.031538	177.4	43.7	-92.2	16.4
2025-01-02 08:29:56.171688	177.7	43.4	-92.1	15.5
2025-01-02 08:29:57.295253	177.9	43.1	-92.2	15.0
2025-01-02 08:29:58.416751	178.1	42.8	-91.9	12.4
2025-01-02 08:29:59.536198	178.3	42.5	-92.7	11.0
2025-01-02 08:30:00.656169	178.5	42.2	-92.4	13.9
2025-01-02 08:30:01.776011	178.7	41.9	-92.5	17.4
2025-01-02 08:30:02.898348	178.9	41.6	-92.8	12.7
2025-01-02 08:30:04.020108	179.1	41.4	-92.7	10.0
2025-01-02 08:30:05.177386	179.3	41.1	-92.1	14.2
2025-01-02 08:30:06.340832	179.5	40.8	-92.4	14.6
2025-01-02 08:30:07.504295	179.7	40.5	-92.8	7.5
2025-01-02 08:30:08.655386	179.9	40.2	-92.4	9.1
2025-01-02 08:30:09.820779	180.1	39.9	-92.4	7.4
2025-01-02 08:30:10.996004	180.3	39.7	-92.6	9.8
2025-01-02 08:30:12.163684	180.5	39.4	-92.3	13.0
2025-01-02 08:30:13.326813	180.7	39.1	-92.3	14.4
2025-01-02 08:30:14.488840	180.9	38.8	-92.7	12.5
2025-01-02 08:30:15.653165	181.0	38.5	-92.7	12.4
2025-01-02 08:30:16.816811	181.2	38.3	-93.3	12.0
2025-01-02 08:30:17.978820	181.4	38.0	-93.4	12.9
2025-01-02 08:30:19.142007	181.5	37.7	-92.9	12.0
2025-01-02 08:30:20.306664	181.7	37.5	-92.6	13.2
2025-01-02 08:30:21.469176	181.9	37.2	-92.9	7.4
2025-01-02 08:30:22.628608	182.0	37.0	-92.8	7.7
2025-01-02 08:30:23.789564	182.2	36.7	-92.7	13.1
2025-01-02 08:30:24.942300	182.3	36.4	-93.1	6.1
2025-01-02 08:30:26.102600	182.5	36.2	-92.3	4.2
2025-01-02 08:30:27.246502	182.6	35.9	-92.7	12.0
2025-01-02 08:30:28.379888	182.8	35.7	-92.7	7.6
2025-01-02 08:30:29.536294	182.9	35.4	-93.0	5.3
2025-01-02 08:30:30.685797	183.1	35.2	-93.0	9.6
2025-01-02 08:30:31.832941	183.2	34.9	-92.8	9.1
2025-01-02 08:30:32.981120	183.4	34.7	-93.1	11.0
2025-01-02 08:30:34.118141	183.5	34.5	-92.6	11.5
2025-01-02 08:30:35.239424	183.6	34.2	-92.8	14.5
2025-01-02 08:30:36.396792	183.8	34.0	-92.7	12.5
2025-01-02 08:30:37.546031	183.9	33.8	-92.6	9.0
2025-01-02 08:30:38.697552	184.0	33.5	-93.1	10.4
2025-01-02 08:30:39.849740	184.1	33.3	-93.1	11.1
2025-01-02 08:30:41.010860	184.3	33.0	-93.2	6.3
2025-01-02 08:30:42.169656	184.4	32.8	-92.7	11.0
2025-01-02 08:30:43.329963	184.5	32.6	-93.0	11.1
2025-01-02 08:30:44.491879	184.6	32.4	-93.0	7.6
2025-01-02 08:30:45.655166	184.8	32.1	-93.0	9.1
2025-01-02 08:30:46.811046	184.9	31.9	-93.0	8.7
2025-01-02 08:30:47.977933	185.0	31.7	-93.0	6.8
2025-01-02 08:30:49.142161	185.1	31.5	-92.3	6.7
2025-01-02 08:30:50.309608	185.2	31.2	-92.3	10.0
2025-01-02 08:30:51.473906	185.3	31.0	-93.1	8.8
2025-01-02 08:30:52.637234	185.4	30.8	-92.9	10.4
2025-01-02 08:30:53.794434	185.6	30.6	-93.2	12.0
2025-01-02 08:30:54.949412	185.7	30.4	-93.2	6.5
2025-01-02 08:30:56.111532	185.8	30.2	-93.0	3.3
2025-01-02 08:30:57.276932	185.9	29.9	-92.7	5.7
2025-01-02 08:30:58.442059	186.0	29.7	-92.7	3.3
2025-01-02 08:30:59.609136	186.1	29.5	-92.9	4.3
2025-01-02 08:31:00.758853	186.2	29.3	-93.2	9.0
2025-01-02 08:31:01.919109	186.3	29.1	-93.1	6.6
2025-01-02 08:31:03.081995	186.4	28.9	-92.9	7.6
2025-01-02 08:31:04.239416	186.5	28.7	-92.7	11.6
2025-01-02 08:31:05.404385	186.6	28.5	-92.7	9.8
2025-01-02 08:31:06.565211	186.7	28.3	-92.8	9.9
2025-01-02 08:31:07.723074	186.8	28.1	-92.9	8.7
2025-01-02 08:31:08.888861	186.9	27.9	-93.1	9.2
2025-01-02 08:31:10.054259	186.9	27.7	-92.7	6.2
2025-01-02 08:31:11.215323	187.0	27.5	-92.4	9.3
2025-01-02 08:31:12.373831	187.1	27.3	-92.6	8.1
2025-01-02 08:31:13.533080	187.2	27.1	-92.5	8.4
2025-01-02 08:31:14.695429	187.3	26.9	-92.6	10.9
2025-01-02 08:31:15.851588	187.4	26.7	-92.6	11.1
2025-01-02 08:31:17.015978	187.5	26.6	-92.3	7.1
2025-01-02 08:31:18.178730	187.6	26.4	-92.4	9.9
2025-01-02 08:31:19.339400	187.6	26.2	-92.3	10.1
2025-01-02 08:31:20.503406	187.7	26.0	-92.8	10.7
2025-01-02 08:31:21.664357	187.8	25.8	-92.6	10.7
2025-01-02 08:31:22.829604	187.9	25.6	-92.9	10.6
2025-01-02 08:31:23.986756	188.0	25.4	-92.9	8.7
2025-01-02 08:31:25.146181	188.1	25.3	-92.8	9.8
2025-01-02 08:31:26.312287	188.1	25.1	-92.4	10.7
2025-01-02 08:31:27.476081	188.2	24.9	-92.7	5.8
2025-01-02 08:31:28.645174	188.3	24.7	-92.5	7.4
2025-01-02 08:31:29.802733	188.4	24.5	-92.4	8.0
2025-01-02 08:31:30.969537	188.4	24.4	-92.8	5.2
2025-01-02 08:31:32.131237	188.5	24.2	-92.6	6.0
2025-01-02 08:31:33.297732	188.6	24.0	-92.5	9.5
2025-01-02 08:31:34.454148	188.7	23.9	-92.6	7.4
2025-01-02 08:31:35.619737	188.7	23.7	-92.8	9.0
2025-01-02 08:31:36.784002	188.8	23.5	-92.1	10.1
2025-01-02 08:31:37.947144	188.9	23.3	-92.6	9.6
2025-01-02 08:31:39.107354	189.0	23.2	-92.4	9.2
2025-01-02 08:31:40.271197	189.0	23.0	-92.0	10.8
2025-01-02 08:31:41.436101	189.1	22.8	-92.5	8.8
2025-01-02 08:31:42.594248	189.2	22.7	-92.9	9.0
2025-01-02 08:31:43.762080	189.2	22.5	-93.1	14.4
2025-01-02 08:31:44.918431	189.3	22.4	-92.5	10.6
2025-01-02 08:31:46.090290	189.4	22.2	-92.4	8.9
2025-01-02 08:31:47.250782	189.4	22.0	-92.1	10.5
2025-01-02 08:31:48.414046	189.5	21.9	-92.4	7.4
2025-01-02 08:31:49.578903	189.6	21.7	-92.6	7.4
2025-01-02 08:31:50.749975	189.6	21.6	-92.8	4.2
2025-01-02 08:31:51.914403	189.7	21.4	-92.9	3.2
2025-01-02 08:31:53.077910	189.7	21.2	-92.9	2.2
2025-01-02 08:31:54.236599	189.8	21.1	-92.8	4.7
2025-01-02 08:31:55.399944	189.9	20.9	-93.2	5.6
2025-01-02 08:31:56.564971	189.9	20.8	-93.0	3.8
2025-01-02 08:31:57.729041	190.0	20.6	-93.0	9.3
2025-01-02 08:31:58.897364	190.1	20.5	-92.7	7.7
2025-01-02 08:32:00.062047	190.1	20.3	-92.9	5.9
2025-01-02 08:32:01.210524	190.2	20.2	-92.3	11.8
2025-01-02 08:32:02.375975	190.2	20.0	-92.6	10.5
2025-01-02 08:32:03.533455	190.3	19.9	-92.6	11.0
2025-01-02 08:32:04.696067	190.3	19.7	-92.7	12.6
2025-01-02 08:32:05.860891	190.4	19.6	-93.0	12.3
2025-01-02 08:32:07.024839	190.5	19.4	-93.0	11.3
2025-01-02 08:32:08.187651	190.5	19.3	-92.4	9.7
2025-01-02 08:32:09.347417	190.6	19.2	-92.4	10.6
2025-01-02 08:32:10.507818	190.6	19.0	-93.0	5.3
2025-01-02 08:32:11.672812	190.7	18.9	-92.8	8.8
2025-01-02 08:32:12.836620	190.7	18.7	-92.9	8.3
2025-01-02 08:32:14.000106	190.8	18.6	-91.6	3.9
2025-01-02 08:32:15.165731	190.8	18.5	-91.2	2.3
2025-01-02 08:32:16.327692	190.9	18.3	-91.3	2.9
2025-01-02 08:32:17.497003	190.9	18.2	-91.7	1.5
2025-01-02 08:32:18.661162	191.0	18.0	-92.0	2.2
2025-01-02 08:32:19.828925	191.0	17.9	-91.9	3.5
2025-01-02 08:32:20.977651	191.1	17.8	-91.9	1.8
2025-01-02 08:32:22.134189	191.1	17.6	-92.0	0.6
2025-01-02 08:32:23.264402	191.2	17.5	-91.6	4.5
2025-01-02 08:32:24.385556	191.2	17.4	-91.7	6.2
2025-01-02 08:32:25.506043	191.3	17.2	-91.7	2.1
2025-01-02 08:32:26.626609	191.3	17.1	-91.8	4.2
2025-01-02 08:32:27.747824	191.4	17.0	-91.6	5.7
2025-01-02 08:32:28.868651	191.4	16.9	-91.8	6.7
2025-01-02 08:32:29.996018	191.5	16.7	-91.8	7.8
2025-01-02 08:32:31.121076	191.5	16.6	-92.6	7.4
2025-01-02 08:32:32.285292	191.6	16.5	-92.7	8.1
2025-01-02 08:32:33.444112	191.6	16.4	-92.3	7.6
2025-01-02 08:32:34.601535	191.7	16.2	-92.5	5.5
2025-01-02 08:32:35.747807	191.7	16.1	-92.8	6.4
2025-01-02 08:32:36.916234	191.8	16.0	-92.5	4.3
2025-01-02 08:32:38.079757	191.8	15.8	-91.9	3.3
2025-01-02 08:32:39.246928	191.8	15.7	-92.1	3.9
2025-01-02 08:32:40.410950	191.9	15.6	-92.3	4.7
2025-01-02 08:32:41.572784	191.9	15.5	-92.7	5.1
2025-01-02 08:32:42.726067	192.0	15.3	-92.8	2.9
2025-01-02 08:32:43.890576	192.0	15.2	-92.9	3.9
2025-01-02 08:32:45.028975	192.1	15.1	-92.7	3.8
2025-01-02 08:32:46.151198	192.1	15.0	-92.1	3.1
2025-01-02 08:32:47.308277	192.1	14.9	-92.2	3.0
2025-01-02 08:32:48.456659	192.2	14.7	-92.7	2.9
2025-01-02 08:32:49.608527	192.2	14.6	-93.1	1.3
2025-01-02 08:32:50.765919	192.3	14.5	-92.3	2.3
#Closed at: 2025-01-02 08:23:41.619814