passes_logs/2025/01/02/LEX_Murmansk/LEX_Murmansk__20250102_103229_NOAA_18_rec.log

#Pass ID: 20250102_103229_NOAA 18
#Satellite: NOAA 18
#Configuration: NOAA 18
#Start time: 2025-01-02 10:32:24.626190

#LorettStation: 1.0.0 05.05.2024
#Station: LEX_Murmansk
#Location: 33.156738 lon 68.926811 lat
#TLE: 1 28654U 05018A   25001.78406204  .00000701  00000+0  39590-3 0  9994
#TLE: 2 28654  98.8586  82.9683 0013729 216.8395 143.1835 14.13472842 11310

#Time	Az	El	Level	SNR
2025-01-02 10:32:36.802971	24.1	16.3	-92.3	10.4
2025-01-02 10:32:37.951208	24.1	16.4	-92.7	11.9
2025-01-02 10:32:39.099409	24.1	16.5	-91.8	5.9
2025-01-02 10:32:40.244218	24.0	16.7	-92.1	8.7
2025-01-02 10:32:41.391424	24.0	16.8	-92.6	6.7
2025-01-02 10:32:42.538250	24.0	16.9	-92.5	6.0
2025-01-02 10:32:43.685879	23.9	17.1	-92.6	5.5
2025-01-02 10:32:44.831638	23.9	17.2	-92.6	10.1
2025-01-02 10:32:45.982538	23.9	17.3	-92.5	2.9
2025-01-02 10:32:47.133900	23.8	17.4	-92.0	10.9
2025-01-02 10:32:48.279992	23.8	17.6	-92.4	12.8
2025-01-02 10:32:49.435432	23.8	17.7	-92.6	5.1
2025-01-02 10:32:50.582258	23.7	17.8	-92.8	11.1
2025-01-02 10:32:51.731863	23.7	18.0	-92.4	14.5
2025-01-02 10:32:52.877916	23.7	18.1	-92.7	11.7
2025-01-02 10:32:54.025186	23.6	18.2	-92.8	17.8
2025-01-02 10:32:55.177129	23.6	18.4	-91.7	15.3
2025-01-02 10:32:56.326213	23.6	18.5	-92.1	8.7
2025-01-02 10:32:57.474620	23.5	18.7	-92.9	6.3
2025-01-02 10:32:58.622708	23.5	18.8	-92.4	8.1
2025-01-02 10:32:59.772959	23.4	18.9	-92.5	9.0
2025-01-02 10:33:00.915371	23.4	19.1	-93.0	9.4
2025-01-02 10:33:02.058775	23.4	19.2	-92.5	10.2
2025-01-02 10:33:03.208900	23.3	19.3	-92.2	16.9
2025-01-02 10:33:04.353941	23.3	19.5	-92.3	12.7
2025-01-02 10:33:05.498379	23.2	19.6	-92.7	13.4
2025-01-02 10:33:06.644250	23.2	19.8	-92.6	11.5
2025-01-02 10:33:07.787229	23.2	19.9	-92.8	17.8
2025-01-02 10:33:08.932196	23.1	20.1	-92.6	8.8
2025-01-02 10:33:10.083629	23.1	20.2	-92.0	9.7
2025-01-02 10:33:11.226918	23.0	20.4	-92.0	12.2
2025-01-02 10:33:12.361996	23.0	20.5	-92.2	4.3
2025-01-02 10:33:13.484074	23.0	20.6	-92.8	8.1
2025-01-02 10:33:14.604582	22.9	20.8	-90.6	4.4
2025-01-02 10:33:15.724689	22.9	20.9	-91.4	6.9
2025-01-02 10:33:16.846240	22.8	21.1	-90.8	5.5
2025-01-02 10:33:17.966151	22.8	21.2	-91.0	6.5
2025-01-02 10:33:19.088156	22.7	21.4	-92.0	8.4
2025-01-02 10:33:20.213308	22.7	21.5	-92.1	11.2
2025-01-02 10:33:21.354046	22.6	21.7	-92.3	13.8
2025-01-02 10:33:22.502177	22.6	21.8	-92.7	8.2
2025-01-02 10:33:23.644589	22.5	22.0	-92.4	7.8
2025-01-02 10:33:24.788482	22.5	22.1	-92.6	9.8
2025-01-02 10:33:25.931999	22.5	22.3	-92.6	16.3
2025-01-02 10:33:27.074263	22.4	22.5	-92.7	7.7
2025-01-02 10:33:28.222232	22.4	22.6	-92.6	14.6
2025-01-02 10:33:29.369546	22.3	22.8	-92.1	12.2
2025-01-02 10:33:30.516607	22.2	22.9	-92.6	8.9
2025-01-02 10:33:31.659135	22.2	23.1	-93.0	5.9
2025-01-02 10:33:32.801298	22.1	23.3	-92.4	12.2
2025-01-02 10:33:33.922864	22.1	23.4	-92.4	14.3
2025-01-02 10:33:35.061446	22.0	23.6	-91.9	17.8
2025-01-02 10:33:36.202921	22.0	23.8	-92.0	6.7
2025-01-02 10:33:37.345978	21.9	23.9	-92.0	12.2
2025-01-02 10:33:38.488141	21.9	24.1	-91.8	6.2
2025-01-02 10:33:39.629996	21.8	24.3	-92.5	13.4
2025-01-02 10:33:40.774757	21.8	24.4	-92.0	18.7
2025-01-02 10:33:41.919371	21.7	24.6	-92.5	9.7
2025-01-02 10:33:43.065469	21.7	24.8	-92.3	20.7
2025-01-02 10:33:44.208040	21.6	24.9	-91.5	15.9
2025-01-02 10:33:45.352830	21.5	25.1	-91.8	14.4
2025-01-02 10:33:46.500562	21.5	25.3	-92.7	8.8
2025-01-02 10:33:47.649716	21.4	25.5	-92.3	5.8
2025-01-02 10:33:48.797384	21.4	25.7	-92.5	16.1
2025-01-02 10:33:49.943671	21.3	25.8	-92.7	12.1
2025-01-02 10:33:51.091552	21.2	26.0	-92.2	7.8
2025-01-02 10:33:52.236988	21.2	26.2	-92.3	12.7
2025-01-02 10:33:53.387410	21.1	26.4	-92.3	9.4
2025-01-02 10:33:54.536345	21.0	26.6	-92.6	11.5
2025-01-02 10:33:55.687556	21.0	26.7	-92.6	11.2
2025-01-02 10:33:56.823909	20.9	26.9	-92.8	11.0
2025-01-02 10:33:57.971178	20.8	27.1	-92.7	10.6
2025-01-02 10:33:59.122174	20.8	27.3	-92.2	12.3
2025-01-02 10:34:00.262047	20.7	27.5	-92.3	10.8
2025-01-02 10:34:01.409853	20.6	27.7	-92.6	10.5
2025-01-02 10:34:02.563459	20.6	27.9	-92.9	4.0
2025-01-02 10:34:03.714005	20.5	28.1	-92.7	4.4
2025-01-02 10:34:04.863314	20.4	28.3	-93.2	6.5
2025-01-02 10:34:06.009685	20.3	28.5	-92.9	5.0
2025-01-02 10:34:07.152467	20.3	28.7	-92.0	7.9
2025-01-02 10:34:08.304379	20.2	28.9	-92.0	12.7
2025-01-02 10:34:09.456315	20.1	29.1	-92.6	11.4
2025-01-02 10:34:10.597288	20.0	29.3	-92.4	14.3
2025-01-02 10:34:11.745790	19.9	29.5	-92.6	17.0
2025-01-02 10:34:12.893034	19.9	29.7	-92.5	17.2
2025-01-02 10:34:14.044333	19.8	29.9	-92.4	10.7
2025-01-02 10:34:15.188679	19.7	30.1	-92.0	11.3
2025-01-02 10:34:16.340417	19.6	30.3	-92.2	9.5
2025-01-02 10:34:17.485051	19.5	30.5	-92.8	13.9
2025-01-02 10:34:18.627967	19.5	30.7	-92.7	9.4
2025-01-02 10:34:19.774909	19.4	30.9	-92.5	12.6
2025-01-02 10:34:20.924061	19.3	31.2	-92.6	10.9
2025-01-02 10:34:22.075132	19.2	31.4	-92.2	4.3
2025-01-02 10:34:23.224504	19.1	31.6	-92.3	8.6
2025-01-02 10:34:24.365449	19.0	31.8	-92.3	9.6
2025-01-02 10:34:25.504235	18.9	32.0	-92.7	12.9
2025-01-02 10:34:26.653035	18.8	32.2	-92.9	17.5
2025-01-02 10:34:27.789871	18.7	32.5	-92.5	14.4
2025-01-02 10:34:28.926788	18.6	32.7	-92.7	10.1
2025-01-02 10:34:30.047574	18.5	32.9	-93.0	11.2
2025-01-02 10:34:31.169717	18.4	33.1	-92.0	13.0
2025-01-02 10:34:32.291052	18.3	33.4	-92.3	12.6
2025-01-02 10:34:33.411364	18.2	33.6	-92.9	8.8
2025-01-02 10:34:34.531474	18.1	33.8	-93.1	14.7
2025-01-02 10:34:35.652019	18.0	34.1	-93.1	12.0
2025-01-02 10:34:36.775014	17.9	34.3	-92.9	10.3
2025-01-02 10:34:37.910762	17.8	34.5	-92.7	15.2
2025-01-02 10:34:39.055461	17.7	34.8	-92.8	6.2
2025-01-02 10:34:40.196791	17.6	35.0	-92.5	8.5
2025-01-02 10:34:41.348874	17.5	35.2	-92.2	12.2
2025-01-02 10:34:42.489383	17.4	35.5	-93.0	12.8
2025-01-02 10:34:43.639284	17.2	35.7	-92.9	13.4
2025-01-02 10:34:44.787354	17.1	36.0	-92.7	13.9
2025-01-02 10:34:45.933811	17.0	36.2	-93.2	14.5
2025-01-02 10:34:47.083344	16.9	36.5	-92.7	12.1
2025-01-02 10:34:48.233912	16.7	36.7	-92.4	15.9
2025-01-02 10:34:49.384798	16.6	37.0	-92.8	19.3
2025-01-02 10:34:50.529281	16.5	37.3	-91.5	14.5
2025-01-02 10:34:51.680722	16.4	37.5	-91.1	15.5
2025-01-02 10:34:52.828268	16.2	37.8	-91.3	15.1
2025-01-02 10:34:53.974928	16.1	38.0	-91.8	13.9
2025-01-02 10:34:55.123307	15.9	38.3	-91.7	10.6
2025-01-02 10:34:56.268143	15.8	38.6	-92.1	13.2
2025-01-02 10:34:57.416979	15.7	38.8	-92.7	13.0
2025-01-02 10:34:58.563292	15.5	39.1	-92.9	5.7
2025-01-02 10:34:59.712052	15.4	39.4	-92.5	16.9
2025-01-02 10:35:00.849821	15.2	39.7	-92.9	22.3
2025-01-02 10:35:02.000787	15.1	39.9	-92.7	19.1
2025-01-02 10:35:03.153699	14.9	40.2	-92.2	17.9
2025-01-02 10:35:04.296669	14.8	40.5	-92.3	18.5
2025-01-02 10:35:05.440527	14.6	40.8	-93.0	18.1
2025-01-02 10:35:06.589164	14.4	41.1	-92.8	15.3
2025-01-02 10:35:07.737890	14.3	41.3	-93.2	18.4
2025-01-02 10:35:08.884532	14.1	41.6	-93.2	19.9
2025-01-02 10:35:10.028795	13.9	41.9	-92.9	16.3
2025-01-02 10:35:11.177925	13.7	42.2	-92.6	19.1
2025-01-02 10:35:12.328878	13.6	42.5	-92.7	17.9
2025-01-02 10:35:13.473531	13.4	42.8	-92.9	16.3
2025-01-02 10:35:14.616305	13.2	43.1	-92.9	11.3
2025-01-02 10:35:15.757956	13.0	43.4	-93.0	17.2
2025-01-02 10:35:16.909790	12.8	43.7	-92.6	18.8
2025-01-02 10:35:18.061647	12.6	44.0	-92.7	9.8
2025-01-02 10:35:19.211327	12.4	44.3	-92.3	18.3
2025-01-02 10:35:20.361216	12.2	44.6	-92.4	19.8
2025-01-02 10:35:21.506037	12.0	44.9	-92.5	17.4
2025-01-02 10:35:22.656606	11.8	45.3	-92.6	17.6
2025-01-02 10:35:23.803094	11.5	45.6	-92.7	19.7
2025-01-02 10:35:24.951716	11.3	45.9	-92.7	17.8
2025-01-02 10:35:26.109730	11.1	46.2	-92.4	16.4
2025-01-02 10:35:27.263648	10.8	46.5	-91.9	18.3
2025-01-02 10:35:28.417198	10.6	46.8	-92.1	18.0
2025-01-02 10:35:29.563108	10.4	47.2	-92.8	14.0
2025-01-02 10:35:30.710667	10.1	47.5	-92.4	16.6
2025-01-02 10:35:31.859319	9.9	47.8	-92.7	19.9
2025-01-02 10:35:33.001141	9.6	48.2	-92.7	20.2
2025-01-02 10:35:34.150617	9.3	48.5	-92.0	16.8
2025-01-02 10:35:35.295247	9.1	48.8	-92.0	16.5
2025-01-02 10:35:36.444835	8.8	49.2	-92.7	15.5
2025-01-02 10:35:37.590673	8.5	49.5	-92.4	9.6
2025-01-02 10:35:38.738419	8.2	49.8	-92.6	11.0
2025-01-02 10:35:39.883501	7.9	50.2	-93.0	13.8
2025-01-02 10:35:41.028347	7.6	50.5	-92.5	7.1
2025-01-02 10:35:42.148544	7.3	50.8	-92.4	7.8
2025-01-02 10:35:43.269931	7.0	51.2	-92.5	10.0
2025-01-02 10:35:44.390008	6.7	51.5	-92.2	15.7
2025-01-02 10:35:45.510953	6.4	51.9	-93.0	15.0
2025-01-02 10:35:46.631209	6.0	52.2	-92.6	18.4
2025-01-02 10:35:47.751469	5.7	52.5	-93.2	18.8
2025-01-02 10:35:48.876869	5.3	52.9	-93.1	18.7
2025-01-02 10:35:50.011309	5.0	53.2	-93.2	11.7
2025-01-02 10:35:51.154811	4.6	53.6	-92.5	4.3
2025-01-02 10:35:52.297876	4.2	53.9	-92.5	12.7
2025-01-02 10:35:53.447268	3.8	54.3	-92.8	6.8
2025-01-02 10:35:54.592416	3.4	54.7	-91.3	13.4
2025-01-02 10:35:55.736256	3.0	55.0	-91.4	9.6
2025-01-02 10:35:56.883289	2.6	55.4	-91.5	8.3
2025-01-02 10:35:58.031522	2.2	55.7	-91.3	13.5
2025-01-02 10:35:59.181002	1.7	56.1	-92.1	12.3
2025-01-02 10:36:00.321424	1.2	56.5	-92.3	12.8
2025-01-02 10:36:01.468818	0.8	56.8	-92.9	7.8
2025-01-02 10:36:02.619430	0.3	57.2	-92.5	4.0
2025-01-02 10:36:03.758166	359.8	57.6	-92.8	9.5
2025-01-02 10:36:04.902493	359.3	57.9	-92.6	7.0
2025-01-02 10:36:06.045190	358.8	58.3	-92.9	7.9
2025-01-02 10:36:07.193963	358.2	58.6	-92.4	13.7
2025-01-02 10:36:08.341149	357.7	59.0	-92.1	18.3
2025-01-02 10:36:09.494659	357.1	59.4	-92.6	19.0
2025-01-02 10:36:10.644376	356.5	59.7	-92.7	20.5
2025-01-02 10:36:11.791876	355.9	60.1	-92.9	21.7
2025-01-02 10:36:12.945857	355.3	60.5	-92.2	19.6
2025-01-02 10:36:14.093430	354.6	60.8	-92.2	16.5
2025-01-02 10:36:15.241963	354.0	61.2	-92.3	11.3
2025-01-02 10:36:16.391551	353.3	61.5	-92.4	17.8
2025-01-02 10:36:17.542663	352.6	61.9	-92.9	10.3
2025-01-02 10:36:18.693282	351.9	62.2	-92.8	15.4
2025-01-02 10:36:19.839313	351.2	62.6	-92.7	23.4
2025-01-02 10:36:20.985053	350.4	62.9	-93.1	22.3
2025-01-02 10:36:22.130693	349.6	63.3	-92.0	21.8
2025-01-02 10:36:23.283133	348.8	63.6	-92.2	20.6
2025-01-02 10:36:24.428788	348.0	64.0	-92.8	25.1
2025-01-02 10:36:25.572950	347.1	64.3	-92.7	23.5
2025-01-02 10:36:26.719915	346.2	64.6	-93.0	12.0
2025-01-02 10:36:27.872025	345.3	65.0	-93.4	15.8
2025-01-02 10:36:29.020116	344.4	65.3	-92.8	11.4
2025-01-02 10:36:30.170203	343.4	65.6	-92.5	12.6
2025-01-02 10:36:31.319992	342.4	65.9	-92.6	19.1
2025-01-02 10:36:32.468090	341.4	66.2	-92.8	13.2
2025-01-02 10:36:33.617394	340.4	66.5	-92.9	11.3
2025-01-02 10:36:34.763460	339.3	66.8	-92.6	20.1
2025-01-02 10:36:35.910291	338.2	67.1	-92.8	17.9
2025-01-02 10:36:37.062592	337.0	67.4	-92.6	10.2
2025-01-02 10:36:38.207078	335.9	67.7	-92.0	14.2
2025-01-02 10:36:39.355064	334.7	68.0	-92.3	8.6
2025-01-02 10:36:40.500386	333.4	68.2	-93.1	7.8
2025-01-02 10:36:41.649814	332.2	68.5	-92.6	10.8
2025-01-02 10:36:42.794258	330.9	68.7	-92.9	14.4
2025-01-02 10:36:43.943063	329.6	68.9	-93.0	11.1
2025-01-02 10:36:45.091920	328.2	69.2	-92.3	12.5
2025-01-02 10:36:46.230926	326.8	69.4	-92.5	13.7
2025-01-02 10:36:47.378222	325.4	69.6	-92.7	8.9
2025-01-02 10:36:48.531126	323.9	69.8	-92.6	13.0
2025-01-02 10:36:49.678976	322.5	69.9	-93.1	10.5
2025-01-02 10:36:50.824951	321.0	70.1	-93.4	13.0
2025-01-02 10:36:51.972921	319.4	70.2	-92.8	11.9
2025-01-02 10:36:53.120773	317.9	70.4	-92.7	10.5
2025-01-02 10:36:54.268502	316.3	70.5	-92.8	11.2
2025-01-02 10:36:55.413070	314.7	70.6	-92.8	11.0
2025-01-02 10:36:56.561518	313.1	70.7	-93.2	10.3
2025-01-02 10:36:57.699525	311.5	70.8	-93.3	14.0
2025-01-02 10:36:58.821709	309.9	70.9	-91.8	10.2
2025-01-02 10:36:59.944494	308.2	70.9	-91.7	12.8
2025-01-02 10:37:01.065667	306.6	70.9	-91.4	12.0
2025-01-02 10:37:02.186150	305.0	71.0	-91.4	16.0
2025-01-02 10:37:03.307390	303.4	71.0	-92.8	22.6
2025-01-02 10:37:04.433288	301.7	71.0	-92.9	20.0
2025-01-02 10:37:05.560557	300.1	70.9	-93.2	14.8
2025-01-02 10:37:06.703840	298.4	70.9	-93.2	21.0
2025-01-02 10:37:07.849941	296.8	70.8	-92.8	22.6
2025-01-02 10:37:09.000966	295.1	70.8	-93.3	18.3
2025-01-02 10:37:10.148232	293.5	70.7	-92.6	18.2
2025-01-02 10:37:11.289723	291.9	70.6	-92.5	23.6
2025-01-02 10:37:12.429424	290.3	70.5	-93.0	24.7
2025-01-02 10:37:13.577512	288.7	70.4	-93.1	24.2
2025-01-02 10:37:14.721324	287.2	70.2	-92.3	23.1
2025-01-02 10:37:15.868636	285.7	70.1	-92.8	25.6
2025-01-02 10:37:17.021537	284.1	69.9	-93.0	22.5
2025-01-02 10:37:18.169352	282.7	69.7	-92.2	23.1
2025-01-02 10:37:19.312294	281.2	69.5	-92.6	24.4
2025-01-02 10:37:20.462637	279.8	69.3	-93.2	25.0
2025-01-02 10:37:21.608447	278.4	69.1	-92.9	27.1
2025-01-02 10:37:22.751860	277.1	68.9	-92.9	25.5
2025-01-02 10:37:23.900331	275.7	68.7	-92.8	25.4
2025-01-02 10:37:25.047962	274.5	68.4	-92.6	27.2
2025-01-02 10:37:26.191558	273.2	68.2	-92.3	27.9
2025-01-02 10:37:27.333274	272.0	67.9	-92.3	25.8
2025-01-02 10:37:28.480265	270.8	67.6	-92.3	27.8
2025-01-02 10:37:29.613317	269.6	67.4	-92.8	26.7
2025-01-02 10:37:30.747562	268.5	67.1	-93.0	26.7
2025-01-02 10:37:31.888944	267.4	66.8	-92.8	24.5
2025-01-02 10:37:33.025474	266.3	66.5	-92.9	26.5
2025-01-02 10:37:34.162124	265.3	66.2	-92.1	24.8
2025-01-02 10:37:35.301252	264.3	65.9	-92.4	25.3
2025-01-02 10:37:36.443549	263.3	65.6	-92.7	24.7
2025-01-02 10:37:37.597188	262.3	65.3	-92.5	26.1
2025-01-02 10:37:38.740832	261.4	64.9	-92.8	25.0
2025-01-02 10:37:39.886998	260.5	64.6	-92.2	24.6
2025-01-02 10:37:41.029930	259.6	64.3	-92.8	25.2
2025-01-02 10:37:42.176765	258.8	63.9	-92.3	21.2
2025-01-02 10:37:43.323452	257.9	63.6	-92.2	20.2
2025-01-02 10:37:44.474041	257.1	63.2	-92.7	21.8
2025-01-02 10:37:45.615134	256.4	62.9	-93.6	24.0
2025-01-02 10:37:46.758685	255.6	62.5	-92.9	23.1
2025-01-02 10:37:47.908868	254.9	62.2	-93.1	24.9
2025-01-02 10:37:49.052513	254.1	61.8	-93.3	21.6
2025-01-02 10:37:50.203630	253.4	61.5	-92.4	21.6
2025-01-02 10:37:51.347379	252.8	61.1	-92.8	22.9
2025-01-02 10:37:52.494430	252.1	60.8	-93.0	19.4
2025-01-02 10:37:53.638582	251.5	60.4	-92.6	19.8
2025-01-02 10:37:54.787715	250.9	60.0	-92.8	20.5
2025-01-02 10:37:55.938894	250.3	59.7	-93.3	18.6
2025-01-02 10:37:57.089141	249.7	59.3	-92.9	15.4
2025-01-02 10:37:58.234603	249.1	58.9	-92.7	18.2
2025-01-02 10:37:59.382358	248.5	58.6	-93.0	13.7
2025-01-02 10:38:00.523055	248.0	58.2	-92.8	9.1
2025-01-02 10:38:01.666901	247.5	57.9	-93.2	12.0
2025-01-02 10:38:02.822804	247.0	57.5	-93.1	15.1
2025-01-02 10:38:03.969579	246.5	57.1	-93.3	10.9
2025-01-02 10:38:05.123118	246.0	56.8	-92.7	12.0
2025-01-02 10:38:06.272523	245.5	56.4	-92.6	12.6
2025-01-02 10:38:07.417213	245.1	56.0	-92.9	20.0
2025-01-02 10:38:08.562423	244.6	55.7	-93.0	8.5
2025-01-02 10:38:09.707441	244.2	55.3	-92.7	18.4
2025-01-02 10:38:10.851412	243.7	54.9	-93.2	17.8
2025-01-02 10:38:11.993074	243.3	54.6	-93.2	9.6
2025-01-02 10:38:13.119349	242.9	54.2	-92.7	13.7
2025-01-02 10:38:14.240331	242.6	53.9	-92.3	16.5
2025-01-02 10:38:15.360763	242.2	53.5	-92.9	16.6
2025-01-02 10:38:16.482357	241.8	53.2	-92.7	11.3
2025-01-02 10:38:17.603436	241.5	52.8	-93.5	10.9
2025-01-02 10:38:18.724600	241.1	52.5	-93.1	16.3
2025-01-02 10:38:19.850061	240.8	52.1	-93.5	13.7
2025-01-02 10:38:20.981978	240.4	51.8	-93.2	9.8
2025-01-02 10:38:22.130323	240.1	51.4	-92.8	8.9
2025-01-02 10:38:23.275669	239.8	51.1	-92.4	7.3
2025-01-02 10:38:24.422124	239.5	50.7	-92.9	12.9
2025-01-02 10:38:25.562710	239.1	50.4	-93.1	11.0
2025-01-02 10:38:26.703827	238.8	50.1	-93.4	9.4
2025-01-02 10:38:27.855690	238.5	49.7	-93.5	11.2
2025-01-02 10:38:29.003356	238.3	49.4	-92.9	4.5
2025-01-02 10:38:30.148769	238.0	49.0	-92.8	4.6
2025-01-02 10:38:31.297277	237.7	48.7	-92.9	7.8
2025-01-02 10:38:32.446263	237.4	48.4	-92.4	6.8
2025-01-02 10:38:33.595019	237.2	48.0	-92.1	4.9
2025-01-02 10:38:34.739139	236.9	47.7	-92.2	6.6
2025-01-02 10:38:35.883738	236.6	47.4	-92.1	6.1
2025-01-02 10:38:37.031663	236.4	47.1	-93.0	7.6
2025-01-02 10:38:38.176954	236.1	46.7	-93.1	5.2
2025-01-02 10:38:39.328394	235.9	46.4	-92.7	12.2
2025-01-02 10:38:40.481442	235.7	46.1	-93.4	7.7
2025-01-02 10:38:41.628246	235.4	45.8	-93.0	8.5
2025-01-02 10:38:42.776959	235.2	45.4	-93.1	13.3
2025-01-02 10:38:43.925818	235.0	45.1	-93.3	11.7
2025-01-02 10:38:45.074925	234.8	44.8	-92.6	11.4
2025-01-02 10:38:46.215041	234.6	44.5	-92.7	13.1
2025-01-02 10:38:47.362165	234.4	44.2	-92.8	12.0
2025-01-02 10:38:48.508551	234.2	43.9	-92.6	13.6
2025-01-02 10:38:49.649963	234.0	43.6	-93.1	12.7
2025-01-02 10:38:50.790556	233.8	43.3	-93.0	8.3
2025-01-02 10:38:51.922125	233.6	43.0	-93.0	6.1
2025-01-02 10:38:53.058940	233.4	42.7	-92.2	9.0
2025-01-02 10:38:54.196307	233.2	42.4	-92.4	9.7
2025-01-02 10:38:55.335450	233.0	42.1	-92.5	13.6
2025-01-02 10:38:56.471974	232.9	41.8	-92.8	10.5
2025-01-02 10:38:57.612807	232.7	41.5	-93.2	8.6
2025-01-02 10:38:58.762405	232.5	41.2	-93.5	15.3
2025-01-02 10:38:59.909832	232.3	40.9	-93.1	16.6
2025-01-02 10:39:01.051523	232.2	40.6	-93.7	10.3
2025-01-02 10:39:02.198444	232.0	40.4	-92.6	11.5
2025-01-02 10:39:03.344063	231.9	40.1	-92.6	17.2
2025-01-02 10:39:04.493915	231.7	39.8	-93.2	10.0
2025-01-02 10:39:05.642665	231.5	39.5	-93.3	13.5
2025-01-02 10:39:06.800105	231.4	39.2	-93.2	19.4
2025-01-02 10:39:07.942175	231.2	39.0	-92.9	17.8
2025-01-02 10:39:09.091886	231.1	38.7	-92.9	18.2
2025-01-02 10:39:10.244853	231.0	38.4	-92.7	19.5
2025-01-02 10:39:11.403027	230.8	38.2	-92.8	19.5
2025-01-02 10:39:12.549160	230.7	37.9	-92.5	18.4
2025-01-02 10:39:13.698068	230.5	37.6	-93.2	19.9
2025-01-02 10:39:14.848202	230.4	37.4	-93.4	19.6
2025-01-02 10:39:15.996025	230.3	37.1	-93.4	16.2
2025-01-02 10:39:17.139110	230.1	36.8	-92.6	14.4
2025-01-02 10:39:18.290371	230.0	36.6	-92.6	19.1
2025-01-02 10:39:19.433465	229.9	36.3	-92.8	17.3
2025-01-02 10:39:20.584501	229.8	36.1	-93.3	13.4
2025-01-02 10:39:21.737156	229.6	35.8	-93.0	20.1
2025-01-02 10:39:22.880678	229.5	35.6	-93.4	20.8
2025-01-02 10:39:24.027724	229.4	35.3	-93.0	13.8
2025-01-02 10:39:25.173077	229.3	35.1	-92.6	16.4
2025-01-02 10:39:26.321191	229.2	34.8	-92.8	17.9
2025-01-02 10:39:27.469223	229.1	34.6	-93.6	18.2
2025-01-02 10:39:28.616324	228.9	34.3	-93.0	18.8
2025-01-02 10:39:29.773570	228.8	34.1	-93.0	21.0
2025-01-02 10:39:30.920725	228.7	33.9	-93.3	19.6
2025-01-02 10:39:32.067337	228.6	33.6	-92.8	16.0
2025-01-02 10:39:33.213218	228.5	33.4	-92.6	17.8
2025-01-02 10:39:34.356447	228.4	33.2	-92.8	19.6
2025-01-02 10:39:35.486767	228.3	32.9	-93.3	10.7
2025-01-02 10:39:36.607565	228.2	32.7	-93.2	8.0
2025-01-02 10:39:37.728288	228.1	32.5	-93.3	13.7
2025-01-02 10:39:38.848547	228.0	32.3	-93.1	17.0
2025-01-02 10:39:39.970261	227.9	32.0	-93.0	10.4
2025-01-02 10:39:41.090739	227.8	31.8	-92.5	11.0
2025-01-02 10:39:42.216028	227.7	31.6	-92.6	15.0
2025-01-02 10:39:43.339436	227.7	31.4	-92.8	15.5
2025-01-02 10:39:44.484082	227.6	31.2	-93.3	16.0
2025-01-02 10:39:45.630400	227.5	31.0	-93.1	16.5
2025-01-02 10:39:46.776023	227.4	30.7	-93.3	16.6
2025-01-02 10:39:47.916372	227.3	30.5	-93.2	15.7
2025-01-02 10:39:49.063102	227.2	30.3	-92.5	10.4
2025-01-02 10:39:50.205157	227.1	30.1	-92.8	8.4
2025-01-02 10:39:51.353360	227.0	29.9	-92.8	9.0
2025-01-02 10:39:52.509774	227.0	29.7	-93.0	8.3
2025-01-02 10:39:53.656956	226.9	29.5	-92.9	5.9
2025-01-02 10:39:54.805170	226.8	29.3	-93.2	11.3
2025-01-02 10:39:55.949731	226.7	29.1	-92.6	7.8
2025-01-02 10:39:57.096902	226.6	28.9	-92.3	3.2
2025-01-02 10:39:58.237196	226.6	28.7	-92.4	5.6
2025-01-02 10:39:59.384873	226.5	28.5	-92.4	3.6
2025-01-02 10:40:00.532738	226.4	28.3	-92.7	2.3
2025-01-02 10:40:01.677036	226.3	28.1	-93.1	3.1
2025-01-02 10:40:02.829721	226.3	27.9	-93.3	5.3
2025-01-02 10:40:03.976229	226.2	27.7	-93.2	3.2
2025-01-02 10:40:05.129111	226.1	27.5	-93.0	4.0
2025-01-02 10:40:06.272853	226.0	27.3	-93.1	3.8
2025-01-02 10:40:07.419834	226.0	27.1	-92.8	2.6
2025-01-02 10:40:08.567268	225.9	26.9	-93.2	4.2
2025-01-02 10:40:09.710735	225.8	26.7	-93.4	3.9
2025-01-02 10:40:10.863482	225.8	26.5	-91.3	3.8
2025-01-02 10:40:12.011613	225.7	26.3	-91.8	5.7
2025-01-02 10:40:13.152403	225.6	26.2	-91.2	3.7
2025-01-02 10:40:14.299502	225.6	26.0	-91.4	2.5
2025-01-02 10:40:15.448382	225.5	25.8	-92.9	4.7
2025-01-02 10:40:16.598608	225.4	25.6	-93.3	6.1
2025-01-02 10:40:17.742955	225.4	25.4	-92.8	6.0
2025-01-02 10:40:18.892843	225.3	25.3	-93.2	9.2
2025-01-02 10:40:20.035444	225.3	25.1	-93.2	7.6
2025-01-02 10:40:21.183887	225.2	24.9	-92.6	8.7
2025-01-02 10:40:22.330749	225.1	24.7	-92.4	9.0
2025-01-02 10:40:23.475233	225.1	24.6	-93.0	8.0
2025-01-02 10:40:24.625689	225.0	24.4	-93.3	6.9
2025-01-02 10:40:25.778149	225.0	24.2	-93.4	13.0
2025-01-02 10:40:26.925836	224.9	24.0	-92.9	15.1
2025-01-02 10:40:28.073546	224.9	23.9	-93.0	8.9
2025-01-02 10:40:29.221067	224.8	23.7	-93.0	12.8
2025-01-02 10:40:30.374183	224.7	23.5	-92.6	11.3
2025-01-02 10:40:31.514636	224.7	23.4	-93.2	13.4
2025-01-02 10:40:32.661615	224.6	23.2	-93.4	11.8
2025-01-02 10:40:33.813936	224.6	23.0	-93.0	11.5
2025-01-02 10:40:34.960818	224.5	22.9	-93.1	10.4
2025-01-02 10:40:36.108219	224.5	22.7	-93.0	7.0
2025-01-02 10:40:37.255371	224.4	22.5	-92.3	11.6
2025-01-02 10:40:38.404338	224.4	22.4	-92.7	11.0
2025-01-02 10:40:39.556470	224.3	22.2	-92.8	9.7
2025-01-02 10:40:40.703897	224.3	22.1	-93.1	10.6
2025-01-02 10:40:41.848400	224.2	21.9	-93.2	13.2
2025-01-02 10:40:42.994123	224.2	21.7	-93.5	13.6
2025-01-02 10:40:44.142806	224.1	21.6	-92.9	13.2
2025-01-02 10:40:45.292127	224.1	21.4	-92.8	12.7
2025-01-02 10:40:46.436215	224.0	21.3	-92.6	14.3
2025-01-02 10:40:47.580426	224.0	21.1	-93.3	12.5
2025-01-02 10:40:48.727434	223.9	21.0	-92.8	14.9
2025-01-02 10:40:49.877716	223.9	20.8	-92.9	11.5
2025-01-02 10:40:51.028537	223.8	20.7	-93.2	10.8
2025-01-02 10:40:52.172908	223.8	20.5	-93.0	11.9
2025-01-02 10:40:53.317360	223.8	20.4	-92.5	11.4
2025-01-02 10:40:54.464282	223.7	20.2	-93.0	12.7
2025-01-02 10:40:55.611904	223.7	20.1	-93.4	12.3
2025-01-02 10:40:56.758522	223.6	19.9	-92.8	15.3
2025-01-02 10:40:57.905519	223.6	19.8	-93.0	11.8
2025-01-02 10:40:59.056492	223.5	19.6	-92.7	14.2
2025-01-02 10:41:00.202040	223.5	19.5	-92.2	13.8
2025-01-02 10:41:01.349192	223.5	19.4	-92.7	13.1
2025-01-02 10:41:02.500670	223.4	19.2	-93.2	9.9
2025-01-02 10:41:03.645706	223.4	19.1	-93.0	7.3
2025-01-02 10:41:04.796631	223.3	18.9	-93.0	14.9
2025-01-02 10:41:05.940551	223.3	18.8	-93.3	8.6
2025-01-02 10:41:07.091239	223.3	18.6	-92.6	7.7
2025-01-02 10:41:08.238687	223.2	18.5	-92.6	7.6
2025-01-02 10:41:09.387000	223.2	18.4	-92.4	9.4
2025-01-02 10:41:10.534865	223.1	18.2	-93.0	9.0
2025-01-02 10:41:11.684495	223.1	18.1	-93.3	11.7
2025-01-02 10:41:12.837825	223.1	18.0	-92.7	11.8
2025-01-02 10:41:13.987428	223.0	17.8	-93.3	13.6
2025-01-02 10:41:15.139917	223.0	17.7	-90.9	8.5
2025-01-02 10:41:16.280368	223.0	17.6	-91.2	11.5
2025-01-02 10:41:17.432706	222.9	17.4	-92.3	9.1
2025-01-02 10:41:18.582633	222.9	17.3	-91.9	10.5
2025-01-02 10:41:19.726717	222.9	17.2	-93.1	12.7
2025-01-02 10:41:20.872862	222.8	17.0	-93.5	12.8
2025-01-02 10:41:22.010763	222.8	16.9	-93.6	11.5
2025-01-02 10:41:23.152647	222.8	16.8	-92.9	9.9
2025-01-02 10:41:24.295355	222.7	16.6	-93.0	16.5
2025-01-02 10:41:25.442034	222.7	16.5	-93.2	11.3
2025-01-02 10:41:26.588196	222.7	16.4	-93.4	11.5
2025-01-02 10:41:27.739589	222.6	16.3	-93.8	13.1
2025-01-02 10:41:28.889400	222.6	16.1	-93.5	13.0
2025-01-02 10:41:30.039597	222.6	16.0	-93.5	9.9
2025-01-02 10:41:31.185518	222.5	15.9	-92.9	6.3
2025-01-02 10:41:32.333253	222.5	15.8	-93.0	8.4
2025-01-02 10:41:33.478663	222.5	15.6	-93.5	5.2
2025-01-02 10:41:34.620463	222.4	15.5	-93.4	6.1
2025-01-02 10:41:35.769054	222.4	15.4	-93.2	7.8
2025-01-02 10:41:36.913605	222.4	15.3	-93.3	10.7
2025-01-02 10:41:38.065912	222.3	15.1	-92.9	7.5
2025-01-02 10:41:39.209431	222.3	15.0	-92.6	9.0
2025-01-02 10:41:40.357273	222.3	14.9	-93.1	10.6
2025-01-02 10:41:41.505533	222.2	14.8	-93.0	6.1
2025-01-02 10:41:42.656792	222.2	14.7	-93.2	7.7
2025-01-02 10:41:43.804909	222.2	14.5	-93.6	8.3
#Closed at: 2025-01-02 10:32:29.608982