passes_logs/2026/01/02/T1/T1__20260102_044743_FENGYUN_3E_rec.log

#Pass ID: 20260102_044743_FENGYUN 3E
#Satellite: FENGYUN 3E
#Configuration: FENGYUN 3E
#almurnet v.1.7.20251203
#Start time: 2026-01-02 04:47:44

#Version: 2.0.20230620
#Station: T1
#Location: 37.570604 lon 55.790049 lat
#TLE: 1 49008U 21062A   26001.26445318  .00000475  00000+0  24453-3 0  9990
#TLE: 2 49008  98.7480   6.5551 0001357 167.8415 192.2795 14.19884467232890

#Time	Az	El	Level	Level2	SNR	BER	BlckErr	Temp	State	Recorded	gain1	gain2
2026-01-02 04:47:44.53	11.19	5.10	-47.5	-60.6	3.8	8.47e-01	0	40	0	0	65	16271
2026-01-02 04:47:45.53	11.15	5.16	-47.5	-60.7	3.8	8.46e-01	0	40	104	0	64	17384
2026-01-02 04:47:46.54	11.11	5.23	-47.5	-60.7	3.8	8.47e-01	0	40	104	0	64	17343
2026-01-02 04:47:47.54	11.07	5.30	-47.5	-60.6	3.8	8.48e-01	0	40	104	0	64	17239
2026-01-02 04:47:48.55	11.03	5.37	-47.5	-60.7	3.8	8.47e-01	0	40	104	0	64	17285
2026-01-02 04:47:49.55	10.99	5.44	-47.5	-60.6	3.8	8.47e-01	0	40	104	0	64	17262
2026-01-02 04:47:50.56	10.94	5.51	-47.5	-60.7	3.8	8.47e-01	0	40	104	0	64	17386
2026-01-02 04:47:51.56	10.90	5.58	-47.5	-60.7	3.8	8.47e-01	0	40	104	0	64	17354
2026-01-02 04:47:52.56	10.86	5.65	-47.5	-60.6	3.8	8.48e-01	0	41	104	0	64	17212
2026-01-02 04:47:53.57	10.82	5.73	-47.5	-60.6	3.8	8.47e-01	0	40	104	0	64	17264
2026-01-02 04:47:54.57	10.78	5.80	-47.5	-60.5	3.8	8.47e-01	0	41	104	0	64	17005
2026-01-02 04:47:55.58	10.73	5.87	-47.5	-60.5	3.8	8.47e-01	0	40	104	0	64	16973
2026-01-02 04:47:56.58	10.69	5.94	-47.4	-60.4	3.8	8.48e-01	0	40	104	0	64	16768
2026-01-02 04:47:57.58	10.65	6.01	-47.5	-60.4	3.8	8.47e-01	0	40	104	0	64	16730
2026-01-02 04:47:58.59	10.61	6.08	-47.5	-60.4	3.8	8.47e-01	0	41	104	0	64	16725
2026-01-02 04:47:59.60	10.56	6.15	-47.4	-60.2	3.8	8.45e-01	0	41	104	0	64	16332
2026-01-02 04:48:00.60	10.52	6.22	-47.5	-60.1	3.8	8.46e-01	0	41	104	0	64	16231
2026-01-02 04:48:01.60	10.48	6.30	-47.4	-60.0	3.8	8.47e-01	0	41	104	0	64	16032
2026-01-02 04:48:02.61	10.43	6.37	-47.4	-59.9	3.8	8.46e-01	0	41	104	0	64	15798
2026-01-02 04:48:03.61	10.39	6.44	-47.4	-59.7	3.8	8.47e-01	0	41	104	0	64	15536
2026-01-02 04:48:04.62	10.34	6.51	-47.4	-59.7	3.8	8.47e-01	0	41	104	0	64	15555
2026-01-02 04:48:05.62	10.30	6.59	-47.4	-59.5	3.8	8.46e-01	0	41	104	0	64	15209
2026-01-02 04:48:06.62	10.25	6.66	-47.4	-59.4	3.8	8.47e-01	0	41	104	0	64	15039
2026-01-02 04:48:07.63	10.21	6.73	-47.4	-59.4	3.8	8.46e-01	0	41	104	0	64	15017
2026-01-02 04:48:08.63	10.16	6.80	-47.4	-59.4	3.8	8.47e-01	0	41	104	0	64	15022
2026-01-02 04:48:09.63	10.12	6.88	-47.4	-59.4	3.8	8.46e-01	0	41	104	0	64	15001
2026-01-02 04:48:10.64	10.07	6.95	-47.4	-59.6	3.8	8.47e-01	0	41	104	0	64	15364
2026-01-02 04:48:11.64	10.03	7.03	-47.4	-59.8	3.8	8.46e-01	0	41	104	0	64	15650
2026-01-02 04:48:12.65	9.98	7.10	-47.4	-60.1	3.8	8.47e-01	0	41	104	0	64	16296
2026-01-02 04:48:13.65	9.93	7.17	-47.5	-60.4	3.8	8.48e-01	0	41	104	0	64	16828
2026-01-02 04:48:14.65	9.89	7.25	-47.5	-60.7	3.8	8.47e-01	0	41	104	0	64	17364
2026-01-02 04:48:15.66	9.84	7.32	-47.5	-60.8	3.8	8.47e-01	0	41	104	0	64	17600
2026-01-02 04:48:16.66	9.79	7.40	-47.5	-60.7	3.8	8.47e-01	0	41	104	0	64	17349
2026-01-02 04:48:17.66	9.74	7.47	-47.5	-60.5	3.8	8.46e-01	0	41	104	0	64	16966
2026-01-02 04:48:18.67	9.70	7.55	-47.4	-59.8	3.8	8.46e-01	0	41	104	0	64	15743
2026-01-02 04:48:19.67	9.65	7.62	-47.4	-58.9	3.8	8.47e-01	0	41	104	0	64	14206
2026-01-02 04:48:20.68	9.60	7.70	-47.3	-58.1	3.9	8.43e-01	0	41	104	0	64	12811
2026-01-02 04:48:21.68	9.55	7.78	-47.1	-56.7	4.4	8.33e-01	0	41	0	0	64	10973
2026-01-02 04:48:22.68	9.50	7.85	-46.9	-55.3	5.0	7.91e-01	0	41	0	0	64	9303
2026-01-02 04:48:23.69	9.45	7.93	-46.7	-53.8	5.9	4.45e-01	0	42	0	1048576	64	7862
2026-01-02 04:48:24.69	9.40	8.00	-46.4	-52.4	7.2	1.67e-01	0	42	0	8388608	63	7101
2026-01-02 04:48:25.70	9.35	8.08	-46.0	-51.2	8.4	6.64e-02	0	41	0	15728640	62	6565
2026-01-02 04:48:26.70	9.30	8.16	-45.4	-49.7	10.0	1.16e-02	0	41	0	23068672	61	5812
2026-01-02 04:48:27.71	9.25	8.24	-45.0	-48.8	10.9	3.85e-03	0	42	0	30408704	60	5549
2026-01-02 04:48:28.71	9.20	8.31	-44.5	-47.6	12.1	4.20e-04	0	41	0	37748736	59	5116
2026-01-02 04:48:29.71	9.15	8.39	-44.0	-46.8	12.9	9.15e-05	0	42	0	44040192	58	4933
2026-01-02 04:48:30.72	9.10	8.47	-43.5	-46.1	13.6	1.48e-05	0	42	0	51380224	57	4825
2026-01-02 04:48:31.72	9.05	8.55	-43.2	-45.7	14.1	5.70e-06	0	42	0	58720256	57	4609
2026-01-02 04:48:32.72	9.00	8.62	-43.1	-45.5	14.2	1.10e-06	0	42	0	66060288	57	4509
2026-01-02 04:48:33.73	8.94	8.70	-43.2	-45.5	14.2	1.10e-06	0	42	0	73400320	57	4538
2026-01-02 04:48:34.73	8.89	8.78	-43.4	-45.8	13.9	2.20e-06	0	42	0	80740352	57	4697
2026-01-02 04:48:35.74	8.84	8.86	-43.8	-46.5	13.2	1.37e-05	0	42	0	88080384	57	5052
2026-01-02 04:48:36.74	8.78	8.94	-44.3	-47.4	12.3	1.38e-04	0	42	0	95420416	58	5285
2026-01-02 04:48:37.75	8.73	9.02	-45.0	-48.6	11.0	1.61e-03	0	42	0	102760448	59	5767
2026-01-02 04:48:38.75	8.68	9.10	-46.3	-52.4	7.3	4.90e-02	0	42	0	110100480	62	7520
2026-01-02 04:48:39.75	8.62	9.18	-43.9	-46.3	13.4	9.74e-03	0	42	0	117440512	58	4703
2026-01-02 04:48:40.76	8.57	9.26	-46.9	-54.8	5.5	7.40e-02	0	42	0	123731968	63	9285
2026-01-02 04:48:41.76	8.51	9.34	-46.2	-51.3	8.4	2.98e-01	0	42	0	126877696	63	6229
2026-01-02 04:48:42.76	8.46	9.42	-41.4	-43.0	16.5	0.00e+00	0	42	0	134217728	53	4259
2026-01-02 04:48:43.76	8.40	9.50	-40.6	-42.0	17.6	0.00e+00	0	42	0	141557760	51	4259
2026-01-02 04:48:44.76	8.35	9.58	-40.1	-41.5	18.1	0.00e+00	0	42	0	147849216	51	4013
2026-01-02 04:48:45.85	8.29	9.67	-39.7	-41.0	18.7	0.00e+00	0	42	0	156237824	50	4028
2026-01-02 04:48:46.74	8.24	9.74	-39.7	-41.0	18.6	0.00e+00	0	42	0	162529280	50	4028
2026-01-02 04:48:47.88	8.17	9.83	-39.6	-40.9	18.7	0.00e+00	0	42	0	170917888	50	3992
2026-01-02 04:48:48.74	8.12	9.90	-39.6	-40.9	18.8	0.00e+00	0	42	0	177209344	50	3977
2026-01-02 04:48:49.89	8.06	10.00	-39.6	-40.9	18.7	0.00e+00	0	42	0	185597952	50	4004
2026-01-02 04:48:50.75	8.01	10.07	-39.4	-40.7	18.9	0.00e+00	0	42	0	191889408	49	4114
2026-01-02 04:48:51.89	7.94	10.16	-39.4	-40.7	18.9	0.00e+00	0	42	0	200278016	49	4139
2026-01-02 04:48:52.75	7.89	10.23	-39.4	-40.7	18.9	0.00e+00	0	42	0	206569472	49	4118
2026-01-02 04:48:53.90	7.83	10.33	-39.4	-40.7	18.9	0.00e+00	0	42	0	213909504	49	4111
2026-01-02 04:48:54.76	7.78	10.40	-39.3	-40.6	19.0	0.00e+00	0	42	0	220200960	49	4088
2026-01-02 04:48:55.90	7.71	10.49	-39.3	-40.6	19.0	0.00e+00	0	42	0	228589568	49	4091
2026-01-02 04:48:56.76	7.66	10.56	-39.4	-40.7	19.0	0.00e+00	0	42	0	234881024	49	4112
2026-01-02 04:48:57.99	7.58	10.67	-39.3	-40.6	19.0	0.00e+00	0	42	0	244318208	49	4069
2026-01-02 04:48:58.85	7.53	10.74	-39.3	-40.5	19.1	0.00e+00	0	42	0	250609664	49	4050
2026-01-02 04:49:00.03	7.46	10.84	-39.3	-40.6	19.0	0.00e+00	0	42	0	257949696	49	4073
2026-01-02 04:49:00.88	7.41	10.91	-39.2	-40.5	19.2	0.00e+00	0	42	0	264241152	49	4014
2026-01-02 04:49:02.10	7.33	11.02	-39.3	-40.6	19.0	0.00e+00	0	42	0	273678336	49	4092
2026-01-02 04:49:02.96	7.28	11.09	-39.2	-40.5	19.1	0.00e+00	0	42	0	279969792	49	4035
2026-01-02 04:49:04.10	7.21	11.19	-39.2	-40.5	19.1	0.00e+00	0	42	0	288358400	49	4044
2026-01-02 04:49:04.96	7.15	11.26	-39.1	-40.4	19.2	0.00e+00	0	42	0	294649856	49	3983
2026-01-02 04:49:06.11	7.08	11.36	-39.3	-40.5	19.1	0.00e+00	0	42	0	301989888	49	4040
2026-01-02 04:49:07.00	7.02	11.43	-39.1	-40.4	19.3	0.00e+00	0	42	0	309329920	48	4199
2026-01-02 04:49:08.15	6.95	11.53	-38.9	-40.2	19.5	0.00e+00	0	42	0	317718528	48	4105
2026-01-02 04:49:09.12	6.89	11.62	-38.9	-40.2	19.5	0.00e+00	0	42	0	324009984	48	4106
2026-01-02 04:49:10.29	6.81	11.72	-39.0	-40.2	19.4	0.00e+00	0	42	0	332398592	48	4124
2026-01-02 04:49:11.15	6.76	11.80	-39.0	-40.2	19.5	0.00e+00	0	42	0	338690048	48	4109
2026-01-02 04:49:12.51	6.67	11.91	-39.0	-40.2	19.5	0.00e+00	0	42	0	349175808	48	4131
2026-01-02 04:49:13.22	6.62	11.98	-38.8	-40.0	19.7	0.00e+00	0	42	0	353370112	48	4010
2026-01-02 04:49:14.75	6.52	12.11	-38.9	-40.1	19.6	0.00e+00	0	42	0	364904448	48	4080
2026-01-02 04:49:15.47	6.47	12.18	-38.8	-40.0	19.6	0.00e+00	0	42	0	370147328	48	4039
2026-01-02 04:49:16.76	6.38	12.29	-38.8	-40.0	19.7	0.00e+00	0	42	0	379584512	48	4032
2026-01-02 04:49:17.48	6.33	12.35	-38.8	-40.0	19.7	0.00e+00	0	42	0	384827392	48	4030
2026-01-02 04:49:18.76	6.25	12.47	-38.7	-39.8	19.8	0.00e+00	0	42	0	394264576	48	3942
2026-01-02 04:49:19.48	6.20	12.53	-38.8	-40.0	19.7	0.00e+00	0	42	0	398458880	48	4011
2026-01-02 04:49:20.77	6.11	12.65	-38.7	-39.9	19.7	0.00e+00	0	42	0	407896064	48	3990
2026-01-02 04:49:21.49	6.06	12.71	-38.7	-39.9	19.8	0.00e+00	0	42	0	413138944	48	3983
2026-01-02 04:49:22.77	5.97	12.83	-38.6	-39.8	19.9	0.00e+00	0	42	0	422576128	48	3931
2026-01-02 04:49:23.49	5.92	12.90	-38.8	-40.0	19.7	0.00e+00	0	42	0	427819008	48	4024
2026-01-02 04:49:24.78	5.83	13.01	-38.8	-40.0	19.7	0.00e+00	0	42	0	437256192	48	4027
2026-01-02 04:49:25.49	5.78	13.08	-38.9	-40.1	19.6	0.00e+00	0	42	0	442499072	48	4075
2026-01-02 04:49:26.78	5.68	13.20	-38.8	-40.0	19.7	0.00e+00	0	42	0	451936256	48	4007
2026-01-02 04:49:27.50	5.63	13.26	-38.9	-40.0	19.7	0.00e+00	0	42	0	457179136	48	4041
2026-01-02 04:49:28.79	5.54	13.38	-38.8	-39.9	19.8	0.00e+00	0	42	0	466616320	48	3990
2026-01-02 04:49:29.50	5.48	13.45	-38.8	-40.0	19.7	0.00e+00	0	43	0	471859200	48	4039
2026-01-02 04:49:30.79	5.39	13.57	-38.6	-39.7	19.9	0.00e+00	0	42	0	481296384	48	3910
2026-01-02 04:49:31.51	5.34	13.63	-38.6	-39.7	20.0	0.00e+00	0	42	0	485490688	48	3902
2026-01-02 04:49:32.80	5.24	13.76	-38.6	-39.8	20.0	0.00e+00	0	42	0	494927872	48	3920
2026-01-02 04:49:33.52	5.18	13.82	-38.7	-39.8	19.9	0.00e+00	0	42	0	500170752	48	3948
2026-01-02 04:49:34.80	5.09	13.94	-38.5	-39.6	19.8	0.00e+00	0	42	0	509607936	47	4089
2026-01-02 04:49:35.52	5.03	14.01	-38.4	-39.6	19.9	0.00e+00	0	42	0	514850816	47	4069
2026-01-02 04:49:36.81	4.93	14.13	-38.4	-39.5	19.9	0.00e+00	0	42	0	524288000	47	4031
2026-01-02 04:49:37.53	4.88	14.20	-38.4	-39.5	19.9	0.00e+00	0	42	0	529530880	47	4039
2026-01-02 04:49:38.82	4.78	14.33	-38.3	-39.4	20.1	0.00e+00	0	42	0	538968064	47	3979
2026-01-02 04:49:39.58	4.72	14.40	-38.4	-39.5	19.9	0.00e+00	0	42	0	544210944	47	4048
2026-01-02 04:49:41.19	4.59	14.55	-38.3	-39.4	20.0	0.00e+00	0	42	0	555745280	46	4232
2026-01-02 04:49:41.76	4.54	14.61	-38.2	-39.4	20.1	0.00e+00	0	42	0	559939584	46	4195
2026-01-02 04:49:43.58	4.40	14.78	-38.4	-39.5	19.9	0.00e+00	0	42	0	572522496	46	4274
2026-01-02 04:49:44.15	4.35	14.84	-38.4	-39.5	19.9	0.00e+00	0	42	0	576716800	46	4272
2026-01-02 04:49:45.76	4.22	15.00	-38.2	-39.3	20.2	0.00e+00	0	43	0	588251136	46	4155
2026-01-02 04:49:46.33	4.17	15.05	-38.2	-39.3	20.2	0.00e+00	0	43	0	592445440	46	4168
2026-01-02 04:49:47.95	4.04	15.21	-38.1	-39.2	20.3	0.00e+00	0	42	0	605028352	46	4121
2026-01-02 04:49:48.53	3.99	15.27	-38.1	-39.2	20.3	0.00e+00	0	43	0	608174080	46	4112
2026-01-02 04:49:50.10	3.86	15.43	-37.9	-39.0	20.5	0.00e+00	0	43	0	619708416	46	4005
2026-01-02 04:49:50.72	3.81	15.49	-37.9	-39.0	20.5	0.00e+00	0	42	0	624951296	46	4019
2026-01-02 04:49:52.36	3.67	15.65	-37.8	-38.9	20.6	0.00e+00	0	42	0	636485632	46	3983
2026-01-02 04:49:52.93	3.62	15.71	-37.9	-38.9	20.5	0.00e+00	0	42	0	640679936	46	4001
2026-01-02 04:49:54.51	3.48	15.87	-37.7	-38.8	20.7	0.00e+00	0	42	0	652214272	46	3927
2026-01-02 04:49:55.11	3.43	15.93	-37.9	-39.0	20.4	0.00e+00	0	43	0	656408576	46	4028
2026-01-02 04:49:57.06	3.25	16.13	-37.8	-38.9	20.6	0.00e+00	0	43	0	670040064	46	3975
2026-01-02 04:49:57.63	3.20	16.18	-37.8	-38.9	20.6	0.00e+00	0	43	0	674234368	46	3971
2026-01-02 04:49:59.24	3.06	16.35	-37.9	-39.0	20.5	0.00e+00	0	42	0	685768704	46	4018
2026-01-02 04:49:59.81	3.01	16.41	-37.9	-39.0	20.5	0.00e+00	0	42	0	689963008	46	4006
2026-01-02 04:50:01.41	2.86	16.57	-37.9	-39.0	20.5	0.00e+00	0	43	0	701497344	46	4018
2026-01-02 04:50:01.98	2.81	16.63	-37.9	-39.0	20.5	0.00e+00	0	43	0	705691648	46	4026
2026-01-02 04:50:03.56	2.66	16.80	-37.9	-38.9	20.5	0.00e+00	0	43	0	717225984	46	4001
2026-01-02 04:50:04.14	2.61	16.86	-37.8	-38.9	20.6	0.00e+00	0	43	0	721420288	46	3981
2026-01-02 04:50:05.72	2.46	17.02	-37.7	-38.8	20.7	0.00e+00	0	43	0	732954624	46	3924
2026-01-02 04:50:06.32	2.40	17.08	-37.8	-38.9	20.6	0.00e+00	0	42	0	737148928	46	3975
2026-01-02 04:50:08.06	2.24	17.27	-37.9	-38.9	20.5	0.00e+00	0	43	0	749731840	46	4000
2026-01-02 04:50:08.63	2.18	17.33	-37.8	-38.9	20.6	0.00e+00	0	43	0	753926144	46	3963
2026-01-02 04:50:10.24	2.03	17.50	-37.7	-38.7	20.8	0.00e+00	0	43	0	765460480	46	3911
2026-01-02 04:50:10.81	1.97	17.56	-37.8	-38.7	20.8	0.00e+00	0	43	0	769654784	46	3912
2026-01-02 04:50:12.39	1.82	17.73	-37.8	-38.8	20.7	0.00e+00	0	43	0	781189120	45	4150
2026-01-02 04:50:12.98	1.76	17.79	-37.7	-38.7	20.8	0.00e+00	0	42	0	785383424	45	4117
2026-01-02 04:50:14.55	1.60	17.96	-37.6	-38.6	20.9	0.00e+00	0	43	0	796917760	45	4079
2026-01-02 04:50:15.15	1.54	18.03	-37.7	-38.6	20.8	0.00e+00	0	43	0	801112064	45	4098
2026-01-02 04:50:16.73	1.38	18.20	-37.4	-38.4	21.1	0.00e+00	0	43	0	811597824	45	3965
2026-01-02 04:50:17.48	1.30	18.28	-37.3	-38.2	21.2	0.00e+00	0	42	0	817889280	45	3906
2026-01-02 04:50:18.77	1.17	18.42	-37.3	-38.2	21.3	0.00e+00	0	43	0	827326464	45	3895
2026-01-02 04:50:19.48	1.09	18.50	-37.3	-38.2	21.2	0.00e+00	0	43	0	831520768	45	3900
2026-01-02 04:50:20.78	0.96	18.64	-37.1	-38.0	21.4	0.00e+00	0	43	0	840957952	45	3799
2026-01-02 04:50:21.49	0.88	18.72	-36.7	-37.6	21.8	0.00e+00	0	42	0	847249408	44	3847
2026-01-02 04:50:22.78	0.74	18.87	-36.8	-37.8	21.7	0.00e+00	0	43	0	855638016	44	3914
2026-01-02 04:50:23.50	0.67	18.95	-36.9	-37.8	21.7	0.00e+00	0	42	0	860880896	44	3924
2026-01-02 04:50:24.79	0.53	19.09	-36.9	-37.8	21.7	0.00e+00	0	43	0	870318080	44	3931
2026-01-02 04:50:25.50	0.45	19.17	-36.9	-37.8	21.6	0.00e+00	0	42	0	875560960	44	3950
2026-01-02 04:50:26.79	0.31	19.32	-36.9	-37.8	21.7	0.00e+00	0	43	0	884998144	44	3936
2026-01-02 04:50:27.51	0.23	19.40	-36.9	-37.8	21.6	0.00e+00	0	43	0	890241024	44	3936
2026-01-02 04:50:28.80	0.08	19.54	-36.9	-37.8	21.6	0.00e+00	0	43	0	899678208	44	3940
2026-01-02 04:50:29.51	0.00	19.63	-36.9	-37.8	21.6	0.00e+00	0	43	0	904921088	44	3945
2026-01-02 04:50:30.81	359.86	19.77	-36.8	-37.7	21.7	0.00e+00	0	43	0	914358272	44	3910
2026-01-02 04:50:31.70	359.75	19.88	-36.8	-37.7	21.7	0.00e+00	0	43	0	920649728	44	3897
2026-01-02 04:50:32.84	359.62	20.01	-36.6	-37.6	21.7	0.00e+00	0	43	0	929038336	43	4062
2026-01-02 04:50:33.70	359.52	20.11	-36.6	-37.5	21.8	0.00e+00	0	43	0	935329792	43	4051
2026-01-02 04:50:34.84	359.39	20.24	-36.6	-37.5	21.8	0.00e+00	0	43	0	942669824	43	4047
2026-01-02 04:50:35.70	359.29	20.34	-36.7	-37.6	21.7	0.00e+00	0	43	0	948961280	43	4088
2026-01-02 04:50:36.85	359.15	20.48	-36.6	-37.5	21.8	0.00e+00	0	43	0	957349888	43	4023
2026-01-02 04:50:37.71	359.05	20.58	-36.7	-37.6	21.7	0.00e+00	0	43	0	963641344	43	4091
2026-01-02 04:50:38.85	358.91	20.71	-36.7	-37.6	21.7	0.00e+00	0	43	0	972029952	43	4062
2026-01-02 04:50:39.71	358.80	20.81	-36.6	-37.5	21.8	0.00e+00	0	43	0	978321408	43	4035
2026-01-02 04:50:41.00	358.65	20.97	-36.7	-37.6	21.7	0.00e+00	0	43	0	987758592	43	4069
2026-01-02 04:50:41.71	358.56	21.05	-36.4	-37.2	22.1	0.00e+00	0	43	0	993001472	43	3906
2026-01-02 04:50:43.00	358.40	21.20	-36.2	-37.1	22.2	0.00e+00	0	43	0	1002438656	42	4063
2026-01-02 04:50:43.72	358.31	21.29	-36.1	-37.0	22.3	0.00e+00	0	43	0	1006632960	42	4006
2026-01-02 04:50:45.01	358.14	21.45	-36.1	-36.9	22.3	0.00e+00	0	43	0	1016070144	42	3999
2026-01-02 04:50:45.73	358.05	21.53	-36.1	-36.9	22.3	0.00e+00	0	43	0	1021313024	42	3981
2026-01-02 04:50:47.01	357.89	21.69	-36.1	-36.9	22.4	0.00e+00	0	43	0	1030750208	42	3982
2026-01-02 04:50:47.73	357.79	21.78	-36.2	-37.1	22.2	0.00e+00	0	43	0	1035993088	42	4053
2026-01-02 04:50:49.01	357.62	21.93	-36.2	-37.1	22.2	0.00e+00	0	43	0	1045430272	42	4070
2026-01-02 04:50:49.74	357.53	22.02	-36.1	-37.0	22.3	0.00e+00	0	42	0	1050673152	42	4015
2026-01-02 04:50:51.03	357.36	22.18	-36.0	-36.8	22.4	0.00e+00	0	43	0	1060110336	42	3947
2026-01-02 04:50:51.75	357.26	22.27	-36.0	-36.9	22.3	0.00e+00	0	43	0	1065353216	42	3972
2026-01-02 04:50:53.15	357.07	22.44	-36.0	-36.8	22.4	0.00e+00	0	43	0	1074790400	42	3949
2026-01-02 04:50:53.86	356.97	22.53	-36.2	-37.1	22.2	0.00e+00	0	43	0	1080033280	42	4059
2026-01-02 04:50:55.23	356.78	22.70	-36.3	-37.2	22.1	0.00e+00	0	43	0	1090519040	42	4121
2026-01-02 04:50:55.95	356.68	22.79	-36.3	-37.2	22.1	0.00e+00	0	43	0	1095761920	42	4132
2026-01-02 04:50:57.31	356.49	22.96	-36.5	-37.4	21.9	0.00e+00	0	43	0	1105199104	42	4218
2026-01-02 04:50:58.02	356.39	23.05	-36.7	-37.6	21.7	0.00e+00	0	43	0	1110441984	43	4075
2026-01-02 04:50:59.31	356.21	23.21	-36.5	-37.4	22.0	0.00e+00	0	43	0	1119879168	43	3964
2026-01-02 04:51:00.03	356.11	23.31	-36.5	-37.4	22.0	0.00e+00	0	43	0	1125122048	43	3959
2026-01-02 04:51:01.31	355.92	23.47	-36.4	-37.3	22.0	0.00e+00	0	43	0	1134559232	43	3932
2026-01-02 04:51:02.03	355.82	23.56	-36.5	-37.4	22.0	0.00e+00	0	43	0	1138753536	43	3972
2026-01-02 04:51:03.32	355.63	23.73	-36.4	-37.3	22.1	0.00e+00	0	42	0	1148190720	42	4152
2026-01-02 04:51:04.05	355.52	23.82	-36.5	-37.4	21.9	0.00e+00	0	43	0	1153433600	42	4208
2026-01-02 04:51:05.34	355.32	23.99	-36.4	-37.3	22.0	0.00e+00	0	43	0	1162870784	42	4171
2026-01-02 04:51:06.06	355.21	24.08	-36.4	-37.3	22.0	0.00e+00	0	43	0	1168113664	42	4173
2026-01-02 04:51:07.34	355.02	24.25	-36.5	-37.4	21.9	0.00e+00	0	43	0	1177550848	42	4213
2026-01-02 04:51:08.06	354.91	24.34	-36.6	-37.4	21.9	0.00e+00	0	43	0	1182793728	42	4242
2026-01-02 04:51:09.35	354.71	24.51	-36.7	-37.6	21.8	0.00e+00	0	43	0	1192230912	43	4055
2026-01-02 04:51:10.07	354.60	24.60	-36.8	-37.7	21.7	0.00e+00	0	43	0	1197473792	43	4105
2026-01-02 04:51:11.38	354.39	24.78	-36.7	-37.5	21.8	0.00e+00	0	43	0	1206910976	43	4047
2026-01-02 04:51:12.09	354.28	24.87	-36.6	-37.4	21.9	0.00e+00	0	43	0	1212153856	43	4004
2026-01-02 04:51:13.45	354.06	25.05	-36.8	-37.7	21.7	0.00e+00	0	43	0	1221591040	43	4107
2026-01-02 04:51:14.16	353.94	25.14	-36.6	-37.5	21.9	0.00e+00	0	43	0	1226833920	43	4005
2026-01-02 04:51:15.46	353.73	25.32	-36.6	-37.5	21.9	0.00e+00	0	43	0	1236271104	43	4036
2026-01-02 04:51:16.17	353.61	25.41	-36.6	-37.5	21.8	0.00e+00	0	43	0	1241513984	43	4045
2026-01-02 04:51:17.46	353.40	25.58	-36.8	-37.7	21.7	0.00e+00	0	43	0	1250951168	43	4120
2026-01-02 04:51:18.17	353.28	25.68	-36.7	-37.6	21.7	0.00e+00	0	43	0	1256194048	43	4097
2026-01-02 04:51:19.47	353.06	25.86	-36.7	-37.6	21.8	0.00e+00	0	42	0	1264582656	43	4071
2026-01-02 04:51:20.18	352.94	25.95	-36.8	-37.7	21.7	0.00e+00	0	43	0	1269825536	43	4116
2026-01-02 04:51:21.47	352.72	26.13	-36.8	-37.7	21.7	0.00e+00	0	43	0	1279262720	43	4135
2026-01-02 04:51:22.19	352.59	26.22	-36.8	-37.7	21.7	0.00e+00	0	43	0	1284505600	43	4121
2026-01-02 04:51:23.47	352.37	26.40	-36.9	-37.8	21.6	0.00e+00	0	43	0	1293942784	43	4169
2026-01-02 04:51:24.19	352.24	26.50	-36.5	-37.4	22.0	0.00e+00	0	43	0	1299185664	43	3968
2026-01-02 04:51:25.48	352.01	26.68	-36.9	-37.8	21.6	0.00e+00	0	43	0	1308622848	43	4157
2026-01-02 04:51:26.20	351.88	26.77	-36.9	-37.9	21.6	0.00e+00	0	43	0	1313865728	43	4205
2026-01-02 04:51:27.49	351.65	26.95	-36.9	-37.8	21.6	0.00e+00	0	43	0	1323302912	43	4158
2026-01-02 04:51:28.20	351.52	27.05	-37.0	-37.9	21.5	0.00e+00	0	43	0	1328545792	43	4207
2026-01-02 04:51:29.49	351.28	27.23	-36.8	-37.6	21.7	0.00e+00	0	43	0	1337982976	43	4096
2026-01-02 04:51:30.21	351.14	27.33	-36.7	-37.6	21.8	0.00e+00	0	43	0	1342177280	43	4091
2026-01-02 04:51:31.50	350.90	27.51	-36.6	-37.5	21.9	0.00e+00	0	43	0	1351614464	43	4045
2026-01-02 04:51:32.22	350.77	27.61	-36.6	-37.5	21.9	0.00e+00	0	43	0	1356857344	43	4030
2026-01-02 04:51:33.50	350.52	27.79	-36.4	-37.3	22.0	0.00e+00	0	43	0	1366294528	43	3958
2026-01-02 04:51:34.22	350.38	27.89	-36.6	-37.5	21.9	0.00e+00	0	43	0	1371537408	43	4026
2026-01-02 04:51:35.78	350.08	28.11	-36.4	-37.3	22.1	0.00e+00	0	43	0	1383071744	42	4158
2026-01-02 04:51:36.49	349.94	28.21	-36.2	-37.0	22.3	0.00e+00	0	43	0	1388314624	42	4047
2026-01-02 04:51:37.77	349.68	28.39	-36.1	-37.0	22.3	0.00e+00	0	43	0	1396703232	42	4028
2026-01-02 04:51:38.49	349.54	28.50	-36.1	-37.0	22.3	0.00e+00	0	43	0	1402994688	42	4031
2026-01-02 04:51:39.78	349.28	28.68	-35.5	-36.4	22.9	0.00e+00	0	43	0	1411383296	41	3963
2026-01-02 04:51:40.50	349.13	28.78	-35.8	-36.7	22.6	0.00e+00	0	43	0	1416626176	41	4116
2026-01-02 04:51:41.78	348.87	28.97	-35.9	-36.7	22.6	0.00e+00	0	43	0	1426063360	41	4141
2026-01-02 04:51:42.50	348.72	29.07	-35.9	-36.7	22.6	0.00e+00	0	43	0	1431306240	41	4125
2026-01-02 04:51:43.79	348.44	29.26	-35.8	-36.6	22.7	0.00e+00	0	43	0	1440743424	41	4077
2026-01-02 04:51:44.60	348.27	29.37	-35.9	-36.8	22.6	0.00e+00	0	43	0	1447034880	41	4159
2026-01-02 04:51:45.75	348.03	29.54	-35.7	-36.6	22.7	0.00e+00	0	43	0	1455423488	41	4073
2026-01-02 04:51:46.61	347.84	29.66	-35.8	-36.6	22.7	0.00e+00	0	43	0	1460666368	41	4082
2026-01-02 04:51:47.75	347.59	29.83	-35.8	-36.7	22.6	0.00e+00	0	43	0	1469054976	41	4112
2026-01-02 04:51:48.62	347.40	29.95	-35.9	-36.8	22.6	0.00e+00	0	43	0	1475346432	41	4156
2026-01-02 04:51:49.76	347.15	30.12	-35.9	-36.7	22.5	0.00e+00	0	43	0	1483735040	41	4140
2026-01-02 04:51:50.62	346.96	30.25	-35.9	-36.7	22.5	0.00e+00	0	43	0	1490026496	41	4142
2026-01-02 04:51:51.77	346.70	30.41	-35.8	-36.7	22.6	0.00e+00	0	43	0	1498415104	41	4103
2026-01-02 04:51:52.63	346.50	30.54	-35.8	-36.7	22.6	0.00e+00	0	43	0	1504706560	41	4112
2026-01-02 04:51:53.77	346.24	30.71	-35.9	-36.8	22.5	0.00e+00	0	43	0	1513095168	41	4168
2026-01-02 04:51:54.64	346.03	30.83	-36.0	-36.8	22.5	0.00e+00	0	43	0	1519386624	41	4186
2026-01-02 04:51:55.91	345.74	31.02	-35.9	-36.7	22.6	0.00e+00	0	43	0	1527775232	41	4138
2026-01-02 04:51:56.63	345.57	31.13	-36.0	-36.8	22.5	0.00e+00	0	43	0	1533018112	41	4190
2026-01-02 04:51:57.92	345.26	31.32	-35.9	-36.8	22.5	0.00e+00	0	43	0	1542455296	41	4160
2026-01-02 04:51:58.63	345.09	31.42	-35.9	-36.8	22.5	0.00e+00	0	43	0	1547698176	41	4166
2026-01-02 04:51:59.92	344.77	31.61	-36.0	-36.9	22.4	0.00e+00	0	43	0	1557135360	41	4221
2026-01-02 04:52:00.64	344.60	31.72	-36.4	-37.3	22.1	0.00e+00	0	43	0	1562378240	42	4147
2026-01-02 04:52:02.26	344.19	31.96	-36.0	-36.9	22.4	0.00e+00	0	43	0	1573912576	42	3992
2026-01-02 04:52:02.84	344.05	32.04	-36.1	-36.9	22.4	0.00e+00	0	43	0	1578106880	42	4003
2026-01-02 04:52:04.63	343.59	32.31	-36.0	-36.9	22.4	0.00e+00	0	43	0	1590689792	42	3971
2026-01-02 04:52:05.20	343.45	32.39	-36.1	-37.0	22.4	0.00e+00	0	43	0	1594884096	42	4014
2026-01-02 04:52:06.84	343.02	32.64	-36.2	-37.1	22.3	0.00e+00	0	43	0	1607467008	42	4054
2026-01-02 04:52:07.42	342.87	32.72	-36.0	-36.9	22.5	0.00e+00	0	43	0	1611661312	42	3972
2026-01-02 04:52:09.02	342.45	32.96	-35.9	-36.8	22.6	0.00e+00	0	43	0	1623195648	42	3924
2026-01-02 04:52:09.59	342.29	33.05	-36.0	-36.9	22.5	0.00e+00	0	43	0	1627389952	42	3968
2026-01-02 04:52:11.20	341.86	33.28	-35.9	-36.8	22.6	0.00e+00	0	43	0	1638924288	41	4147
2026-01-02 04:52:11.95	341.65	33.40	-36.0	-36.9	22.5	0.00e+00	0	43	0	1644167168	41	4196
2026-01-02 04:52:13.24	341.30	33.59	-35.8	-36.7	22.7	0.00e+00	0	43	0	1653604352	41	4104
2026-01-02 04:52:14.16	341.04	33.72	-35.6	-36.5	22.8	0.00e+00	0	43	0	1659895808	41	4010
2026-01-02 04:52:15.48	340.67	33.92	-35.6	-36.4	22.9	0.00e+00	0	43	0	1669332992	41	3992
2026-01-02 04:52:16.20	340.47	34.03	-35.7	-36.5	22.7	0.00e+00	0	43	0	1674575872	41	4040
2026-01-02 04:52:17.48	340.10	34.22	-35.6	-36.5	22.8	0.00e+00	0	43	0	1684013056	41	4024
2026-01-02 04:52:18.20	339.89	34.32	-35.6	-36.4	22.8	0.00e+00	0	43	0	1689255936	41	4002
2026-01-02 04:52:19.49	339.52	34.51	-35.4	-36.3	23.0	0.00e+00	0	43	0	1698693120	41	3929
2026-01-02 04:52:20.21	339.30	34.62	-35.5	-36.3	22.9	0.00e+00	0	43	0	1703936000	41	3948
2026-01-02 04:52:21.50	338.92	34.81	-35.4	-36.2	23.0	0.00e+00	0	43	0	1713373184	41	3888
2026-01-02 04:52:22.21	338.71	34.92	-35.3	-36.2	23.0	0.00e+00	0	43	0	1717567488	41	3885
2026-01-02 04:52:23.58	338.29	35.12	-35.4	-36.2	23.0	0.00e+00	0	43	0	1728053248	41	3906
2026-01-02 04:52:24.30	338.07	35.22	-35.3	-36.1	23.1	0.00e+00	0	43	0	1733296128	41	3849
2026-01-02 04:52:25.65	337.66	35.42	-35.2	-36.1	23.2	0.00e+00	0	43	0	1742733312	41	3836
2026-01-02 04:52:26.37	337.43	35.53	-35.3	-36.2	23.1	0.00e+00	0	43	0	1747976192	41	3894
2026-01-02 04:52:27.66	337.03	35.71	-35.4	-36.3	23.0	0.00e+00	0	43	0	1757413376	41	3914
2026-01-02 04:52:28.71	336.69	35.87	-35.5	-36.4	22.8	0.00e+00	0	43	0	1764753408	41	3990
2026-01-02 04:52:29.61	336.40	36.00	-35.7	-36.6	22.7	0.00e+00	0	43	0	1771044864	41	4071
2026-01-02 04:52:30.61	336.08	36.14	-35.9	-36.8	22.6	0.00e+00	0	43	0	1778384896	41	4153
2026-01-02 04:52:31.62	335.75	36.29	-36.0	-36.9	22.4	0.00e+00	0	43	0	1785724928	41	4221
2026-01-02 04:52:32.62	335.42	36.43	-36.1	-37.0	22.4	0.00e+00	0	43	0	1793064960	42	4033
2026-01-02 04:52:33.62	335.09	36.58	-36.1	-37.0	22.4	0.00e+00	0	43	0	1800404992	42	4034
2026-01-02 04:52:34.62	334.76	36.72	-36.2	-37.1	22.4	0.00e+00	0	43	0	1807745024	42	4054
2026-01-02 04:52:35.70	334.39	36.88	-36.2	-37.1	22.3	0.00e+00	0	43	0	1815085056	42	4056
2026-01-02 04:52:36.62	334.08	37.01	-36.1	-37.0	22.4	0.00e+00	0	43	0	1822425088	42	4032
2026-01-02 04:52:37.82	333.66	37.18	-36.2	-37.0	22.4	0.00e+00	0	43	0	1830813696	42	4049
2026-01-02 04:52:38.73	333.35	37.30	-36.2	-37.1	22.3	0.00e+00	0	43	0	1837105152	42	4080
2026-01-02 04:52:39.91	332.93	37.47	-36.3	-37.2	22.2	0.00e+00	0	43	0	1845493760	42	4138
2026-01-02 04:52:40.77	332.63	37.59	-36.2	-37.1	22.3	0.00e+00	0	43	0	1851785216	42	4086
2026-01-02 04:52:42.10	332.15	37.78	-36.4	-37.3	22.1	0.00e+00	0	43	0	1861222400	42	4169
2026-01-02 04:52:42.82	331.89	37.87	-36.3	-37.2	22.2	0.00e+00	0	43	0	1866465280	42	4130
2026-01-02 04:52:44.11	331.42	38.05	-36.2	-37.1	22.3	0.00e+00	0	43	0	1875902464	42	4065
2026-01-02 04:52:44.82	331.16	38.15	-36.2	-37.0	22.3	0.00e+00	0	43	0	1881145344	42	4047
2026-01-02 04:52:46.11	330.69	38.32	-36.0	-36.8	22.5	0.00e+00	0	43	0	1890582528	42	3953
2026-01-02 04:52:46.85	330.41	38.42	-36.1	-36.9	22.5	0.00e+00	0	43	0	1895825408	42	3985
2026-01-02 04:52:48.14	329.93	38.60	-36.1	-37.0	22.4	0.00e+00	0	43	0	1905262592	42	4026
2026-01-02 04:52:48.86	329.65	38.69	-36.2	-37.1	22.3	0.00e+00	0	43	0	1910505472	42	4085
2026-01-02 04:52:50.15	329.16	38.86	-36.2	-37.0	22.4	0.00e+00	0	43	0	1919942656	42	4044
2026-01-02 04:52:51.06	328.81	38.98	-36.0	-36.9	22.5	0.00e+00	0	43	0	1926234112	42	3962
2026-01-02 04:52:52.38	328.29	39.16	-35.8	-36.6	22.7	0.00e+00	0	43	0	1935671296	42	3867
2026-01-02 04:52:53.10	328.01	39.25	-35.8	-36.7	22.6	0.00e+00	0	43	0	1940914176	42	3883
2026-01-02 04:52:54.74	327.36	39.46	-35.9	-36.8	22.5	0.00e+00	0	43	0	1953497088	42	3944
2026-01-02 04:52:55.31	327.13	39.53	-36.1	-36.9	22.4	0.00e+00	0	43	0	1956642816	42	4002
2026-01-02 04:52:56.91	326.49	39.73	-36.2	-37.0	22.3	0.00e+00	0	43	0	1968177152	42	4048
2026-01-02 04:52:57.48	326.26	39.80	-36.5	-37.4	22.0	0.00e+00	0	43	0	1972371456	42	4221
2026-01-02 04:52:59.06	325.61	40.00	-36.6	-37.5	21.9	0.00e+00	0	43	0	1983905792	42	4273
2026-01-02 04:52:59.77	325.32	40.08	-36.6	-37.5	22.0	0.00e+00	0	43	0	1989148672	42	4260
2026-01-02 04:53:01.07	324.77	40.24	-36.3	-37.1	22.3	0.00e+00	0	43	0	1998585856	42	4098
2026-01-02 04:53:01.97	324.40	40.35	-36.1	-36.9	22.5	0.00e+00	0	43	0	2004877312	42	3990
2026-01-02 04:53:02.97	323.97	40.46	-36.0	-36.8	22.6	0.00e+00	0	43	0	2012217344	42	3939
2026-01-02 04:53:03.98	323.54	40.58	-35.8	-36.7	22.7	0.00e+00	0	43	0	2019557376	42	3887
2026-01-02 04:53:04.98	323.11	40.70	-35.8	-36.7	22.7	0.00e+00	0	43	0	2026897408	42	3873
2026-01-02 04:53:05.98	322.68	40.81	-35.8	-36.7	22.7	0.00e+00	0	43	0	2034237440	42	3872
2026-01-02 04:53:06.98	322.25	40.92	-35.7	-36.5	22.8	0.00e+00	0	43	0	2041577472	42	3806
2026-01-02 04:53:07.98	321.81	41.03	-35.9	-36.7	22.7	0.00e+00	0	43	0	2047868928	42	3903
2026-01-02 04:53:08.99	321.36	41.14	-35.8	-36.7	22.7	0.00e+00	0	43	0	2056257536	42	3869
2026-01-02 04:53:09.99	320.92	41.25	-36.0	-36.8	22.6	0.00e+00	0	43	0	2063597568	42	3952
2026-01-02 04:53:10.99	320.47	41.35	-36.0	-36.8	22.6	0.00e+00	0	43	0	2069889024	42	3947
2026-01-02 04:53:12.00	320.01	41.46	-36.1	-37.0	22.4	0.00e+00	0	43	0	2077229056	42	4024
2026-01-02 04:53:13.00	319.56	41.56	-36.2	-37.1	22.3	0.00e+00	0	43	0	2084569088	42	4059
2026-01-02 04:53:14.00	319.11	41.66	-36.5	-37.4	22.1	0.00e+00	0	43	0	2091909120	42	4226
2026-01-02 04:53:15.01	318.64	41.76	-36.4	-37.3	22.1	0.00e+00	0	43	0	2099249152	42	4184
2026-01-02 04:53:16.01	318.18	41.85	-36.5	-37.4	22.0	0.00e+00	0	43	0	2106589184	42	4217
2026-01-02 04:53:17.01	317.72	41.95	-36.5	-37.4	22.1	0.00e+00	0	43	0	2113929216	42	4198
2026-01-02 04:53:18.01	317.25	42.04	-36.2	-37.1	22.3	0.00e+00	0	43	0	2121269248	42	4076
2026-01-02 04:53:19.02	316.77	42.13	-36.0	-36.9	22.5	0.00e+00	0	43	0	2128609280	42	3962
2026-01-02 04:53:20.02	316.30	42.22	-35.9	-36.8	22.6	0.00e+00	0	43	0	2134900736	42	3937
2026-01-02 04:53:21.02	315.83	42.31	-35.9	-36.7	22.6	0.00e+00	0	43	0	2142240768	42	3910
2026-01-02 04:53:22.03	315.34	42.39	-35.9	-36.7	22.7	0.00e+00	0	43	0	2149580800	42	3904
2026-01-02 04:53:23.03	314.86	42.48	-35.9	-36.7	22.6	0.00e+00	0	43	0	2156920832	42	3895
2026-01-02 04:53:24.03	314.38	42.56	-36.0	-36.8	22.6	0.00e+00	0	43	0	2164260864	42	3941
2026-01-02 04:53:25.03	313.90	42.63	-36.1	-36.9	22.4	0.00e+00	0	43	0	2171600896	42	3987
2026-01-02 04:53:26.04	313.40	42.71	-36.2	-37.0	22.3	0.00e+00	0	43	0	2178940928	42	4048
2026-01-02 04:53:27.04	312.91	42.79	-36.2	-37.1	22.3	0.00e+00	0	43	0	2186280960	42	4072
2026-01-02 04:53:28.05	312.42	42.86	-36.3	-37.2	22.2	0.00e+00	0	43	0	2193620992	42	4099
2026-01-02 04:53:29.05	311.92	42.93	-36.3	-37.2	22.2	0.00e+00	0	43	0	2200961024	42	4115
2026-01-02 04:53:30.05	311.42	42.99	-36.3	-37.2	22.2	0.00e+00	0	43	0	2208301056	42	4137
2026-01-02 04:53:31.06	310.92	43.06	-36.2	-37.1	22.2	0.00e+00	0	43	0	2214592512	42	4078
2026-01-02 04:53:32.06	310.42	43.12	-36.3	-37.2	22.2	0.00e+00	0	43	0	2221932544	42	4104
2026-01-02 04:53:33.06	309.92	43.18	-36.3	-37.1	22.3	0.00e+00	0	43	0	2229272576	42	4087
2026-01-02 04:53:34.10	309.39	43.24	-36.2	-37.0	22.4	0.00e+00	0	43	0	2236612608	42	4044
2026-01-02 04:53:35.09	308.89	43.30	-36.2	-37.1	22.3	0.00e+00	0	43	0	2243952640	42	4077
2026-01-02 04:53:36.18	308.34	43.35	-36.3	-37.2	22.2	0.00e+00	0	43	0	2252341248	42	4125
2026-01-02 04:53:37.07	307.89	43.40	-36.4	-37.3	22.2	0.00e+00	0	43	0	2258632704	42	4148
2026-01-02 04:53:38.40	307.20	43.46	-36.3	-37.2	22.2	0.00e+00	0	43	0	2268069888	42	4119
2026-01-02 04:53:39.12	306.84	43.49	-36.1	-37.0	22.4	0.00e+00	0	43	0	2273312768	42	4019
2026-01-02 04:53:40.65	306.05	43.56	-36.0	-36.8	22.6	0.00e+00	0	43	0	2284847104	42	3951
2026-01-02 04:53:41.37	305.68	43.59	-35.8	-36.7	22.7	0.00e+00	0	43	0	2289041408	42	3870
2026-01-02 04:53:42.75	304.96	43.64	-35.8	-36.6	22.7	0.00e+00	0	43	0	2299527168	42	3862
2026-01-02 04:53:43.74	304.45	43.67	-35.9	-36.8	22.6	0.00e+00	0	43	0	2306867200	42	3919
2026-01-02 04:53:44.74	303.93	43.70	-36.1	-37.0	22.4	0.00e+00	0	43	0	2314207232	42	4005
2026-01-02 04:53:45.75	303.40	43.73	-36.2	-37.1	22.3	0.00e+00	0	43	0	2321547264	42	4066
2026-01-02 04:53:46.75	302.88	43.75	-36.3	-37.2	22.2	0.00e+00	0	43	0	2328887296	42	4129
2026-01-02 04:53:47.75	302.36	43.78	-36.3	-37.1	22.3	0.00e+00	0	43	0	2335178752	42	4098
2026-01-02 04:53:48.75	301.84	43.80	-36.2	-37.1	22.3	0.00e+00	0	43	0	2342518784	42	4069
2026-01-02 04:53:49.76	301.31	43.82	-36.0	-36.8	22.5	0.00e+00	0	43	0	2349858816	42	3938
2026-01-02 04:53:50.76	300.78	43.83	-35.9	-36.8	22.6	0.00e+00	0	43	0	2357198848	42	3917
2026-01-02 04:53:51.76	300.26	43.84	-35.9	-36.7	22.6	0.00e+00	0	43	0	2364538880	42	3900
2026-01-02 04:53:52.76	299.73	43.85	-36.0	-36.8	22.6	0.00e+00	0	43	0	2371878912	42	3944
2026-01-02 04:53:53.76	299.21	43.86	-36.2	-37.0	22.3	0.00e+00	0	43	0	2379218944	42	4046
2026-01-02 04:53:54.76	298.68	43.86	-36.2	-37.0	22.4	0.00e+00	0	43	0	2386558976	42	4045
2026-01-02 04:53:55.76	298.16	43.86	-36.1	-36.9	22.4	0.00e+00	0	43	0	2392850432	42	3988
2026-01-02 04:53:56.77	297.62	43.86	-36.0	-36.9	22.5	0.00e+00	0	43	0	2400190464	42	3972
2026-01-02 04:53:57.77	297.10	43.86	-36.0	-36.8	22.5	0.00e+00	0	43	0	2407530496	42	3943
2026-01-02 04:53:58.77	296.57	43.85	-36.0	-36.8	22.5	0.00e+00	0	43	0	2414870528	42	3944
2026-01-02 04:53:59.77	296.05	43.84	-36.2	-37.1	22.3	0.00e+00	0	43	0	2422210560	42	4065
2026-01-02 04:54:00.78	295.52	43.83	-36.3	-37.2	22.2	0.00e+00	0	43	0	2429550592	42	4114
2026-01-02 04:54:01.78	294.99	43.82	-36.2	-37.1	22.3	0.00e+00	0	43	0	2436890624	42	4069
2026-01-02 04:54:02.86	294.43	43.80	-36.4	-37.2	22.1	0.00e+00	0	43	0	2444230656	42	4130
2026-01-02 04:54:03.75	293.96	43.78	-36.3	-37.2	22.2	0.00e+00	0	43	0	2451570688	42	4107
2026-01-02 04:54:05.01	293.30	43.75	-36.3	-37.1	22.3	0.00e+00	0	43	0	2459959296	42	4077
2026-01-02 04:54:05.75	292.92	43.73	-36.3	-37.2	22.2	0.00e+00	0	43	0	2465202176	42	4100
2026-01-02 04:54:07.27	292.13	43.69	-36.2	-37.1	22.4	0.00e+00	0	43	0	2476736512	42	4060
2026-01-02 04:54:07.98	291.76	43.66	-36.1	-37.0	22.4	0.00e+00	0	43	0	2480930816	42	4007
2026-01-02 04:54:09.27	291.09	43.62	-36.0	-36.9	22.5	0.00e+00	0	43	0	2490368000	42	3969
2026-01-02 04:54:10.26	290.57	43.58	-35.9	-36.7	22.7	0.00e+00	0	43	0	2497708032	42	3893
2026-01-02 04:54:11.26	290.06	43.54	-35.7	-36.6	22.7	0.00e+00	0	43	0	2505048064	42	3835
2026-01-02 04:54:12.27	289.54	43.50	-35.9	-36.8	22.6	0.00e+00	0	43	0	2512388096	42	3917
2026-01-02 04:54:13.27	289.03	43.46	-36.0	-36.8	22.5	0.00e+00	0	43	0	2519728128	42	3954
2026-01-02 04:54:14.27	288.51	43.41	-35.9	-36.8	22.6	0.00e+00	0	43	0	2527068160	42	3917
2026-01-02 04:54:15.27	288.00	43.36	-35.9	-36.8	22.6	0.00e+00	0	43	0	2534408192	42	3917
2026-01-02 04:54:16.27	287.49	43.31	-35.9	-36.7	22.7	0.00e+00	0	43	0	2541748224	42	3889
2026-01-02 04:54:17.27	286.99	43.25	-35.9	-36.7	22.7	0.00e+00	0	43	0	2549088256	42	3893
2026-01-02 04:54:18.37	286.43	43.19	-35.8	-36.7	22.7	0.00e+00	0	43	0	2556428288	42	3878
2026-01-02 04:54:19.26	285.98	43.13	-35.8	-36.7	22.7	0.00e+00	0	43	0	2562719744	42	3870
2026-01-02 04:54:20.41	285.41	43.06	-35.8	-36.7	22.7	0.00e+00	0	43	0	2571108352	42	3881
2026-01-02 04:54:21.27	284.98	43.01	-35.7	-36.5	22.8	0.00e+00	0	43	0	2577399808	42	3802
2026-01-02 04:54:22.64	284.30	42.92	-35.6	-36.5	22.9	0.00e+00	0	43	0	2587885568	42	3788
2026-01-02 04:54:23.36	283.94	42.87	-35.5	-36.3	22.9	0.00e+00	0	43	0	2592079872	41	3947
2026-01-02 04:54:24.65	283.30	42.77	-35.4	-36.2	23.1	0.00e+00	0	43	0	2601517056	41	3897
2026-01-02 04:54:25.36	282.95	42.72	-35.5	-36.3	23.0	0.00e+00	0	43	0	2606759936	41	3948
2026-01-02 04:54:26.65	282.32	42.62	-35.5	-36.3	23.0	0.00e+00	0	43	0	2616197120	41	3946
2026-01-02 04:54:27.37	281.97	42.57	-35.6	-36.4	22.9	0.00e+00	0	43	0	2621440000	41	3976
2026-01-02 04:54:28.66	281.35	42.46	-35.8	-36.6	22.7	0.00e+00	0	43	0	2630877184	41	4095
2026-01-02 04:54:29.37	281.01	42.40	-35.9	-36.7	22.6	0.00e+00	0	43	0	2636120064	41	4119
2026-01-02 04:54:30.66	280.39	42.29	-36.0	-36.9	22.5	0.00e+00	0	43	0	2645557248	41	4201
2026-01-02 04:54:31.38	280.05	42.23	-36.0	-36.9	22.5	0.00e+00	0	43	0	2650800128	41	4196
2026-01-02 04:54:32.66	279.44	42.12	-35.9	-36.8	22.6	0.00e+00	0	43	0	2660237312	41	4152
2026-01-02 04:54:33.38	279.10	42.05	-35.8	-36.7	22.6	0.00e+00	0	43	0	2664431616	41	4099
2026-01-02 04:54:34.78	278.45	41.92	-35.8	-36.7	22.6	0.00e+00	0	43	0	2674917376	41	4125
2026-01-02 04:54:35.50	278.11	41.85	-35.7	-36.6	22.7	0.00e+00	0	43	0	2680160256	41	4077
2026-01-02 04:54:36.79	277.52	41.73	-35.6	-36.4	22.9	0.00e+00	0	43	0	2689597440	41	3977
2026-01-02 04:54:37.51	277.19	41.66	-35.6	-36.4	22.8	0.00e+00	0	43	0	2694840320	41	4003
2026-01-02 04:54:38.79	276.60	41.53	-35.6	-36.5	22.8	0.00e+00	0	43	0	2704277504	41	4019
2026-01-02 04:54:39.51	276.27	41.45	-35.7	-36.6	22.8	0.00e+00	0	43	0	2709520384	41	4064
2026-01-02 04:54:40.80	275.69	41.32	-35.7	-36.6	22.7	0.00e+00	0	43	0	2718957568	41	4065
2026-01-02 04:54:41.52	275.37	41.24	-35.7	-36.5	22.8	0.00e+00	0	43	0	2723151872	41	4025
2026-01-02 04:54:42.81	274.80	41.11	-35.7	-36.6	22.8	0.00e+00	0	43	0	2732589056	41	4063
2026-01-02 04:54:43.60	274.45	41.02	-35.6	-36.5	22.8	0.00e+00	0	43	0	2738880512	41	4017
2026-01-02 04:54:45.05	273.81	40.86	-35.7	-36.5	22.8	0.00e+00	0	43	0	2749366272	41	4035
2026-01-02 04:54:45.77	273.50	40.78	-35.7	-36.6	22.7	0.00e+00	0	43	0	2754609152	41	4067
2026-01-02 04:54:47.06	272.94	40.63	-35.9	-36.7	22.6	0.00e+00	0	43	0	2764046336	41	4137
2026-01-02 04:54:47.77	272.63	40.55	-36.0	-36.8	22.6	0.00e+00	0	43	0	2768240640	41	4183
2026-01-02 04:54:49.06	272.08	40.40	-35.9	-36.8	22.6	0.00e+00	0	43	0	2777677824	41	4161
2026-01-02 04:54:49.77	271.78	40.31	-35.9	-36.8	22.5	0.00e+00	0	43	0	2782920704	41	4176
2026-01-02 04:54:51.06	271.24	40.16	-35.9	-36.7	22.6	0.00e+00	0	43	0	2792357888	41	4133
2026-01-02 04:54:51.92	270.88	40.06	-35.9	-36.8	22.6	0.00e+00	0	43	0	2798649344	41	4154
2026-01-02 04:54:53.07	270.41	39.92	-36.0	-36.8	22.3	0.00e+00	0	43	0	2807037952	41	4175
2026-01-02 04:54:53.93	270.06	39.81	-36.2	-37.1	22.3	0.00e+00	0	43	0	2813329408	41	4300
2026-01-02 04:54:55.08	269.59	39.67	-36.2	-37.1	22.2	0.00e+00	0	43	0	2821718016	42	4085
2026-01-02 04:54:56.21	269.13	39.52	-36.1	-37.0	22.4	0.00e+00	0	43	0	2830106624	42	4028
2026-01-02 04:54:57.24	268.72	39.39	-36.0	-36.9	22.5	0.00e+00	0	43	0	2837446656	42	3972
2026-01-02 04:54:58.24	268.32	39.26	-35.8	-36.7	22.5	0.00e+00	0	43	0	2844786688	42	3872
2026-01-02 04:54:59.25	267.92	39.13	-35.8	-36.7	22.7	0.00e+00	0	43	0	2852126720	42	3892
2026-01-02 04:55:00.25	267.53	39.00	-35.8	-36.7	22.7	0.00e+00	0	43	0	2859466752	42	3881
2026-01-02 04:55:01.25	267.14	38.87	-35.9	-36.8	22.6	0.00e+00	0	43	0	2865758208	42	3930
2026-01-02 04:55:02.25	266.76	38.74	-36.0	-36.9	22.5	0.00e+00	0	43	0	2873098240	42	3978
2026-01-02 04:55:03.25	266.38	38.60	-35.9	-36.8	22.5	0.00e+00	0	43	0	2880438272	42	3923
2026-01-02 04:55:04.26	266.00	38.47	-35.8	-36.7	22.6	0.00e+00	0	43	0	2887778304	42	3887
2026-01-02 04:55:05.26	265.62	38.33	-35.8	-36.7	22.7	0.00e+00	0	43	0	2895118336	42	3871
2026-01-02 04:55:06.26	265.25	38.20	-35.6	-36.5	22.8	0.00e+00	0	43	0	2902458368	42	3798
2026-01-02 04:55:07.26	264.88	38.06	-35.8	-36.7	22.6	0.00e+00	0	43	0	2909798400	41	4109
2026-01-02 04:55:08.27	264.51	37.92	-35.7	-36.5	22.8	0.00e+00	0	43	0	2917138432	41	4030
2026-01-02 04:55:09.27	264.15	37.78	-35.7	-36.5	22.7	0.00e+00	0	43	0	2923429888	41	4050
2026-01-02 04:55:10.27	263.79	37.64	-35.9	-36.8	22.5	0.00e+00	0	43	0	2930769920	41	4168
2026-01-02 04:55:11.28	263.43	37.50	-36.0	-36.9	22.4	0.00e+00	0	43	0	2938109952	41	4204
2026-01-02 04:55:12.28	263.08	37.36	-36.0	-36.8	22.4	0.00e+00	0	43	0	2945449984	41	4180
2026-01-02 04:55:13.56	262.63	37.18	-35.9	-36.8	22.5	0.00e+00	0	43	0	2954887168	41	4172
2026-01-02 04:55:14.27	262.38	37.08	-35.8	-36.6	22.7	0.00e+00	0	43	0	2960130048	41	4089
2026-01-02 04:55:15.57	261.94	36.89	-35.7	-36.6	22.7	0.00e+00	0	43	0	2969567232	41	4057
2026-01-02 04:55:16.28	261.69	36.79	-35.6	-36.5	22.8	0.00e+00	0	43	0	2974810112	41	4012
2026-01-02 04:55:17.57	261.26	36.60	-35.6	-36.4	22.9	0.00e+00	0	43	0	2984247296	41	3985
2026-01-02 04:55:18.29	261.02	36.50	-35.5	-36.4	22.9	0.00e+00	0	43	0	2989490176	41	3984
2026-01-02 04:55:19.58	260.59	36.31	-35.4	-36.3	23.0	0.00e+00	0	43	0	2997878784	41	3922
2026-01-02 04:55:20.29	260.36	36.21	-35.4	-36.2	23.0	0.00e+00	0	43	0	3004170240	41	3912
2026-01-02 04:55:21.58	259.94	36.02	-35.5	-36.3	23.0	0.00e+00	0	43	0	3012558848	41	3932
2026-01-02 04:55:22.30	259.70	35.92	-35.5	-36.4	22.9	0.00e+00	0	43	0	3017801728	41	3968
2026-01-02 04:55:23.65	259.27	35.72	-35.5	-36.4	22.9	0.00e+00	0	43	0	3028287488	41	3978
2026-01-02 04:55:24.37	259.04	35.62	-35.5	-36.4	22.7	0.00e+00	0	43	0	3032481792	41	3961
2026-01-02 04:55:25.73	258.62	35.42	-35.7	-36.6	22.7	0.00e+00	0	43	0	3042967552	41	4062
2026-01-02 04:55:26.45	258.39	35.31	-35.8	-36.7	22.6	0.00e+00	0	43	0	3048210432	41	4099
2026-01-02 04:55:27.74	257.99	35.12	-35.8	-36.6	22.7	0.00e+00	0	43	0	3057647616	41	4079
2026-01-02 04:55:28.45	257.78	35.01	-35.6	-36.5	22.8	0.00e+00	0	43	0	3062890496	41	4007
2026-01-02 04:55:29.74	257.39	34.82	-35.4	-36.3	22.9	0.00e+00	0	43	0	3072327680	41	3921
2026-01-02 04:55:30.46	257.17	34.72	-35.3	-36.1	23.1	0.00e+00	0	43	0	3076521984	41	3864
2026-01-02 04:55:31.75	256.79	34.52	-35.3	-36.1	23.1	0.00e+00	0	43	0	3085959168	41	3863
2026-01-02 04:55:32.46	256.58	34.42	-35.2	-36.1	23.1	0.00e+00	0	43	0	3091202048	41	3828
2026-01-02 04:55:33.75	256.20	34.23	-35.4	-36.2	23.0	0.00e+00	0	43	0	3100639232	41	3902
2026-01-02 04:55:34.50	255.98	34.12	-35.5	-36.3	22.9	0.00e+00	0	43	0	3105882112	41	3948
2026-01-02 04:55:35.79	255.61	33.92	-35.7	-36.6	22.7	0.00e+00	0	43	0	3115319296	41	4067
2026-01-02 04:55:36.50	255.41	33.82	-35.7	-36.6	22.7	0.00e+00	0	43	0	3120562176	41	4075
2026-01-02 04:55:37.80	255.05	33.62	-35.8	-36.7	22.6	0.00e+00	0	43	0	3129999360	41	4107
2026-01-02 04:55:38.51	254.85	33.52	-35.8	-36.6	22.7	0.00e+00	0	43	0	3135242240	41	4089
2026-01-02 04:55:39.80	254.49	33.33	-35.7	-36.6	22.7	0.00e+00	0	43	0	3144679424	41	4063
2026-01-02 04:55:40.51	254.30	33.22	-35.6	-36.5	22.8	0.00e+00	0	43	0	3149922304	41	4017
2026-01-02 04:55:41.80	253.95	33.03	-35.8	-36.6	22.7	0.00e+00	0	43	0	3159359488	41	4075
2026-01-02 04:55:42.52	253.76	32.92	-35.8	-36.7	22.7	0.00e+00	0	43	0	3163553792	41	4112
2026-01-02 04:55:43.81	253.41	32.73	-35.6	-36.4	22.9	0.00e+00	0	43	0	3172990976	41	3973
2026-01-02 04:55:44.52	253.23	32.62	-35.7	-36.5	22.8	0.00e+00	0	43	0	3178233856	41	4019
2026-01-02 04:55:45.81	252.89	32.43	-35.8	-36.7	22.6	0.00e+00	0	43	0	3187671040	41	4118
2026-01-02 04:55:46.53	252.70	32.32	-35.8	-36.6	22.6	0.00e+00	0	43	0	3192913920	41	4097
2026-01-02 04:55:47.82	252.37	32.13	-35.8	-36.7	22.6	0.00e+00	0	43	0	3202351104	41	4117
2026-01-02 04:55:48.53	252.19	32.02	-35.6	-36.5	22.7	0.00e+00	0	43	0	3207593984	41	4011
2026-01-02 04:55:49.82	251.87	31.83	-35.4	-36.3	23.0	0.00e+00	0	43	0	3217031168	41	3924
2026-01-02 04:55:50.60	251.67	31.72	-35.3	-36.2	23.1	0.00e+00	0	43	0	3222274048	41	3872
2026-01-02 04:55:52.21	251.28	31.48	-35.1	-35.9	23.3	0.00e+00	0	43	0	3233808384	41	3777
2026-01-02 04:55:52.79	251.13	31.39	-35.1	-35.9	23.3	0.00e+00	0	43	0	3238002688	41	3760
2026-01-02 04:55:54.59	250.70	31.12	-35.2	-36.0	23.2	0.00e+00	0	43	0	3251634176	41	3801
2026-01-02 04:55:55.16	250.56	31.04	-35.3	-36.2	23.0	0.00e+00	0	43	0	3254779904	41	3878
2026-01-02 04:55:56.75	250.19	30.81	-35.5	-36.3	22.9	0.00e+00	0	43	0	3266314240	41	3953
2026-01-02 04:55:57.33	250.05	30.72	-35.6	-36.4	22.9	0.00e+00	0	43	0	3270508544	41	3986
2026-01-02 04:55:58.93	249.68	30.48	-35.8	-36.6	22.7	0.00e+00	0	43	0	3282042880	41	4073
2026-01-02 04:55:59.50	249.55	30.40	-35.8	-36.7	22.6	0.00e+00	0	43	0	3286237184	41	4113
2026-01-02 04:56:01.11	249.19	30.16	-35.9	-36.8	22.5	0.00e+00	0	43	0	3297771520	41	4155
2026-01-02 04:56:01.92	249.00	30.05	-36.0	-36.9	22.4	0.00e+00	0	43	0	3304062976	41	4206
2026-01-02 04:56:03.07	248.75	29.88	-36.2	-37.0	22.3	0.00e+00	0	43	0	3312451584	41	4277
2026-01-02 04:56:03.93	248.56	29.75	-36.3	-37.2	22.2	0.00e+00	0	43	0	3318743040	42	4108
2026-01-02 04:56:05.11	248.30	29.58	-36.4	-37.3	22.1	0.00e+00	0	43	0	3327131648	42	4153
2026-01-02 04:56:06.38	248.03	29.40	-36.2	-37.1	22.3	0.00e+00	0	43	0	3336568832	42	4076
2026-01-02 04:56:07.10	247.87	29.29	-36.2	-37.0	22.3	0.00e+00	0	43	0	3341811712	42	4035
2026-01-02 04:56:08.39	247.60	29.10	-36.1	-36.9	22.4	0.00e+00	0	43	0	3351248896	42	3998
2026-01-02 04:56:09.10	247.45	29.00	-36.1	-36.9	22.4	0.00e+00	0	43	0	3355443200	42	3996
2026-01-02 04:56:10.47	247.16	28.80	-35.8	-36.7	22.6	0.00e+00	0	43	0	3365928960	42	3871
2026-01-02 04:56:11.19	247.01	28.70	-35.8	-36.6	22.6	0.00e+00	0	43	0	3371171840	42	3850
2026-01-02 04:56:12.54	246.74	28.51	-35.8	-36.7	22.6	0.00e+00	0	43	0	3380609024	42	3887
2026-01-02 04:56:13.25	246.59	28.41	-35.9	-36.7	22.6	0.00e+00	0	43	0	3385851904	42	3892
2026-01-02 04:56:14.54	246.33	28.22	-35.9	-36.8	22.5	0.00e+00	0	43	0	3395289088	42	3935
2026-01-02 04:56:15.26	246.19	28.12	-36.0	-36.8	22.5	0.00e+00	0	43	0	3400531968	42	3945
2026-01-02 04:56:16.67	245.91	27.92	-36.0	-36.8	22.5	0.00e+00	0	43	0	3409969152	42	3954
2026-01-02 04:56:17.39	245.77	27.82	-36.0	-36.8	22.5	0.00e+00	0	43	0	3416260608	42	3947
2026-01-02 04:56:18.74	245.51	27.63	-36.0	-36.8	22.5	0.00e+00	0	43	0	3425697792	42	3947
2026-01-02 04:56:19.46	245.37	27.52	-36.0	-36.8	22.5	0.00e+00	0	43	0	3430940672	42	3940
2026-01-02 04:56:20.75	245.13	27.34	-35.9	-36.7	22.6	0.00e+00	0	43	0	3440377856	42	3905
2026-01-02 04:56:21.47	244.99	27.24	-35.9	-36.8	22.5	0.00e+00	0	43	0	3445620736	42	3923
2026-01-02 04:56:22.76	244.75	27.06	-35.8	-36.7	22.6	0.00e+00	0	43	0	3454009344	42	3878
2026-01-02 04:56:23.47	244.62	26.96	-35.7	-36.6	22.7	0.00e+00	0	43	0	3459252224	42	3831
2026-01-02 04:56:24.76	244.38	26.78	-35.9	-36.7	22.6	0.00e+00	0	43	0	3468689408	42	3899
2026-01-02 04:56:25.47	244.26	26.68	-35.8	-36.7	22.7	0.00e+00	0	43	0	3473932288	42	3870
2026-01-02 04:56:26.76	244.02	26.51	-35.9	-36.8	22.5	0.00e+00	0	43	0	3483369472	42	3925
2026-01-02 04:56:27.48	243.89	26.41	-36.0	-36.8	22.5	0.00e+00	0	43	0	3488612352	42	3938
2026-01-02 04:56:28.77	243.67	26.23	-36.0	-36.9	22.4	0.00e+00	0	43	0	3498049536	42	3981
2026-01-02 04:56:29.49	243.54	26.13	-36.1	-37.0	22.3	0.00e+00	0	43	0	3503292416	42	4028
2026-01-02 04:56:30.78	243.32	25.96	-36.1	-36.9	22.4	0.00e+00	0	43	0	3512729600	42	3991
2026-01-02 04:56:31.62	243.17	25.84	-36.0	-36.9	22.5	0.00e+00	0	43	0	3517972480	42	3965
2026-01-02 04:56:32.76	242.98	25.69	-36.0	-36.8	22.5	0.00e+00	0	43	0	3526361088	42	3942
2026-01-02 04:56:33.81	242.80	25.54	-35.9	-36.7	22.6	0.00e+00	0	43	0	3534749696	42	3901
2026-01-02 04:56:34.87	242.62	25.40	-36.0	-36.8	22.5	0.00e+00	0	43	0	3542089728	42	3939
2026-01-02 04:56:35.75	242.47	25.28	-36.0	-36.8	22.5	0.00e+00	0	43	0	3548381184	42	3956
2026-01-02 04:56:36.90	242.28	25.13	-36.0	-36.8	22.5	0.00e+00	0	43	0	3556769792	42	3946
2026-01-02 04:56:37.76	242.14	25.01	-35.9	-36.7	22.5	0.00e+00	0	43	0	3563061248	42	3908
2026-01-02 04:56:38.90	241.96	24.86	-35.9	-36.8	22.5	0.00e+00	0	43	0	3571449856	42	3915
2026-01-02 04:56:39.76	241.82	24.75	-35.9	-36.8	22.5	0.00e+00	0	43	0	3577741312	42	3925
2026-01-02 04:56:40.91	241.64	24.59	-36.0	-36.9	22.4	0.00e+00	0	43	0	3585081344	42	3978
2026-01-02 04:56:41.77	241.50	24.48	-36.0	-36.9	22.4	0.00e+00	0	43	0	3591372800	42	3980
2026-01-02 04:56:42.99	241.31	24.32	-36.0	-36.9	22.4	0.00e+00	0	43	0	3600809984	42	3969
2026-01-02 04:56:43.85	241.18	24.21	-36.1	-36.9	22.4	0.00e+00	0	43	0	3607101440	42	3983
2026-01-02 04:56:45.00	241.00	24.06	-36.2	-37.1	22.3	0.00e+00	0	43	0	3615490048	42	4052
2026-01-02 04:56:45.87	240.87	23.94	-36.2	-37.1	22.2	0.00e+00	0	43	0	3620732928	42	4066
2026-01-02 04:56:47.02	240.69	23.79	-36.4	-37.3	22.0	0.00e+00	0	43	0	3629121536	42	4172
2026-01-02 04:56:47.88	240.56	23.68	-36.3	-37.2	22.1	0.00e+00	0	43	0	3635412992	42	4117
2026-01-02 04:56:49.02	240.40	23.54	-36.3	-37.2	22.1	0.00e+00	0	43	0	3643801600	42	4117
2026-01-02 04:56:49.88	240.27	23.43	-36.3	-37.2	22.2	0.00e+00	0	43	0	3650093056	42	4107
2026-01-02 04:56:51.02	240.10	23.28	-36.2	-37.1	22.2	0.00e+00	0	43	0	3658481664	42	4072
2026-01-02 04:56:51.88	239.98	23.17	-36.1	-37.0	22.3	0.00e+00	0	43	0	3664773120	42	4012
2026-01-02 04:56:53.03	239.81	23.02	-35.9	-36.8	22.5	0.00e+00	0	43	0	3673161728	42	3922
2026-01-02 04:56:53.89	239.69	22.91	-36.0	-36.8	22.4	0.00e+00	0	43	0	3679453184	42	3956
2026-01-02 04:56:55.04	239.53	22.77	-35.9	-36.8	22.5	0.00e+00	0	43	0	3687841792	42	3927
2026-01-02 04:56:55.90	239.41	22.66	-36.1	-36.9	22.3	0.00e+00	0	43	0	3694133248	42	3990
2026-01-02 04:56:57.11	239.24	22.51	-36.3	-37.1	22.2	0.00e+00	0	43	0	3702521856	42	4095
2026-01-02 04:56:57.97	239.12	22.40	-36.2	-37.1	22.2	0.00e+00	0	43	0	3708813312	42	4081
2026-01-02 04:56:59.11	238.96	22.26	-36.3	-37.2	22.1	0.00e+00	0	43	0	3717201920	42	4130
2026-01-02 04:57:00.42	238.78	22.10	-36.4	-37.3	22.0	0.00e+00	0	43	0	3726639104	42	4175
2026-01-02 04:57:01.31	238.66	21.99	-36.5	-37.3	22.0	0.00e+00	0	43	0	3732930560	42	4187
2026-01-02 04:57:02.36	238.52	21.86	-36.5	-37.4	22.0	0.00e+00	0	43	0	3740270592	42	4201
2026-01-02 04:57:03.25	238.41	21.75	-36.4	-37.3	22.0	0.00e+00	0	43	0	3746562048	42	4172
2026-01-02 04:57:04.40	238.26	21.61	-36.4	-37.2	22.0	0.00e+00	0	43	0	3754950656	42	4142
2026-01-02 04:57:05.26	238.14	21.50	-36.5	-37.3	22.0	0.00e+00	0	43	0	3761242112	42	4188
2026-01-02 04:57:06.40	238.00	21.36	-36.4	-37.3	22.0	0.00e+00	0	43	0	3769630720	42	4185
2026-01-02 04:57:07.26	237.89	21.26	-36.5	-37.4	22.0	0.00e+00	0	43	0	3775922176	42	4210
2026-01-02 04:57:08.41	237.74	21.12	-36.6	-37.5	21.8	0.00e+00	0	43	0	3784310784	42	4267
2026-01-02 04:57:09.27	237.63	21.02	-36.7	-37.6	21.8	0.00e+00	0	43	0	3790602240	42	4320
2026-01-02 04:57:10.41	237.49	20.88	-36.8	-37.7	21.6	0.00e+00	0	43	0	3797942272	43	4131
2026-01-02 04:57:11.27	237.38	20.78	-36.8	-37.7	21.6	0.00e+00	0	43	0	3804233728	43	4134
2026-01-02 04:57:12.61	237.22	20.62	-36.9	-37.8	21.5	0.00e+00	0	43	0	3814719488	43	4190
2026-01-02 04:57:13.32	237.13	20.54	-36.9	-37.8	21.5	0.00e+00	0	43	0	3818913792	43	4182
2026-01-02 04:57:14.62	236.97	20.38	-36.7	-37.6	21.7	0.00e+00	0	43	0	3828350976	43	4097
2026-01-02 04:57:15.33	236.89	20.30	-36.7	-37.6	21.7	0.00e+00	0	43	0	3833593856	43	4071
2026-01-02 04:57:16.62	236.74	20.15	-36.8	-37.7	21.7	0.00e+00	0	43	0	3843031040	43	4099
2026-01-02 04:57:17.34	236.65	20.06	-36.7	-37.6	21.8	0.00e+00	0	43	0	3848273920	43	4056
2026-01-02 04:57:18.62	236.50	19.91	-36.8	-37.6	21.7	0.00e+00	0	43	0	3857711104	43	4090
2026-01-02 04:57:19.34	236.42	19.83	-36.8	-37.6	21.7	0.00e+00	0	43	0	3862953984	43	4092
2026-01-02 04:57:20.63	236.27	19.68	-36.7	-37.6	21.7	0.00e+00	0	43	0	3872391168	43	4084
2026-01-02 04:57:21.35	236.18	19.60	-36.9	-37.8	21.6	0.00e+00	0	43	0	3877634048	43	4161
2026-01-02 04:57:22.64	236.04	19.45	-37.0	-37.9	21.4	0.00e+00	0	43	0	3887071232	43	4241
2026-01-02 04:57:23.35	235.96	19.37	-37.1	-38.0	21.4	0.00e+00	0	43	0	3892314112	43	4254
2026-01-02 04:57:24.64	235.81	19.22	-37.4	-38.3	21.2	0.00e+00	0	43	0	3901751296	44	4192
2026-01-02 04:57:25.36	235.73	19.14	-37.4	-38.3	21.2	0.00e+00	0	43	0	3905945600	44	4176
2026-01-02 04:57:26.65	235.59	19.00	-37.5	-38.4	21.1	0.00e+00	0	43	0	3915382784	44	4233
2026-01-02 04:57:27.36	235.51	18.92	-37.5	-38.5	21.1	0.00e+00	0	43	0	3920625664	44	4251
2026-01-02 04:57:28.65	235.37	18.77	-37.5	-38.5	21.1	0.00e+00	0	43	0	3930062848	44	4249
2026-01-02 04:57:29.37	235.29	18.69	-37.5	-38.4	21.1	0.00e+00	0	43	0	3935305728	44	4209
2026-01-02 04:57:30.66	235.16	18.55	-37.5	-38.4	21.1	0.00e+00	0	43	0	3944742912	44	4241
2026-01-02 04:57:31.38	235.08	18.47	-37.4	-38.3	21.2	0.00e+00	0	43	0	3949985792	44	4172
2026-01-02 04:57:32.67	234.94	18.32	-37.4	-38.3	21.2	0.00e+00	0	43	0	3959422976	44	4167
2026-01-02 04:57:33.59	234.85	18.22	-37.4	-38.3	21.2	0.00e+00	0	43	0	3965714432	44	4166
2026-01-02 04:57:34.90	234.71	18.08	-37.4	-38.3	21.2	0.00e+00	0	43	0	3975151616	44	4163
2026-01-02 04:57:35.61	234.64	18.00	-37.4	-38.3	21.2	0.00e+00	0	43	0	3980394496	44	4186
2026-01-02 04:57:37.25	234.47	17.82	-37.5	-38.4	21.1	0.00e+00	0	43	0	3991928832	44	4216
2026-01-02 04:57:38.08	234.39	17.73	-37.5	-38.4	21.1	0.00e+00	0	43	0	3998220288	44	4236
2026-01-02 04:57:39.23	234.27	17.61	-37.6	-38.5	21.0	0.00e+00	0	43	0	4006608896	44	4267
2026-01-02 04:57:40.09	234.19	17.51	-37.6	-38.5	21.0	0.00e+00	0	43	0	4012900352	44	4276
2026-01-02 04:57:41.25	234.07	17.39	-37.6	-38.5	21.0	0.00e+00	0	43	0	4021288960	44	4274
2026-01-02 04:57:42.11	233.99	17.30	-37.6	-38.5	21.0	0.00e+00	0	43	0	4027580416	44	4289
2026-01-02 04:57:43.32	233.87	17.17	-37.7	-38.6	20.9	0.00e+00	0	43	0	4035969024	44	4321
2026-01-02 04:57:44.18	233.79	17.08	-37.7	-38.7	20.8	0.00e+00	0	43	0	4042260480	44	4349
2026-01-02 04:57:45.32	233.68	16.96	-37.7	-38.6	20.9	0.00e+00	0	43	0	4050649088	44	4332
2026-01-02 04:57:46.18	233.59	16.87	-37.8	-38.7	20.8	0.00e+00	0	43	0	4056940544	44	4379
2026-01-02 04:57:47.46	233.47	16.73	-37.8	-38.7	20.8	0.00e+00	0	43	0	4066377728	45	4123
2026-01-02 04:57:48.17	233.41	16.66	-37.8	-38.8	20.7	0.00e+00	0	43	0	4070572032	45	4172
2026-01-02 04:57:49.46	233.29	16.52	-37.8	-38.8	20.7	0.00e+00	0	43	0	4080009216	45	4159
2026-01-02 04:57:50.18	233.22	16.45	-37.9	-38.9	20.6	0.00e+00	0	43	0	4085252096	45	4206
2026-01-02 04:57:51.74	233.08	16.29	-38.0	-38.9	20.6	0.00e+00	0	43	0	4096786432	45	4236
2026-01-02 04:57:52.45	233.01	16.21	-37.9	-38.9	20.6	0.00e+00	0	43	0	4102029312	45	4197
2026-01-02 04:57:53.74	232.89	16.08	-38.0	-38.9	20.6	0.00e+00	0	43	0	4111466496	45	4221
2026-01-02 04:57:54.46	232.83	16.01	-38.1	-39.1	20.5	0.00e+00	0	43	0	4116709376	45	4299
2026-01-02 04:57:55.75	232.71	15.88	-38.1	-39.1	20.4	0.00e+00	0	43	0	4126146560	45	4313
2026-01-02 04:57:56.46	232.65	15.80	-38.2	-39.1	20.4	0.00e+00	0	43	0	4131389440	45	4322
2026-01-02 04:57:57.75	232.54	15.67	-38.3	-39.3	20.3	0.00e+00	0	43	0	4139778048	46	4158
2026-01-02 04:57:58.47	232.47	15.60	-38.3	-39.3	20.3	0.00e+00	0	43	0	4145020928	46	4157
2026-01-02 04:57:59.76	232.36	15.47	-38.4	-39.4	20.2	0.00e+00	0	43	0	4154458112	46	4208
2026-01-02 04:58:00.57	232.29	15.39	-38.5	-39.5	20.0	0.00e+00	0	43	0	4160749568	46	4274
2026-01-02 04:58:01.71	232.19	15.28	-38.5	-39.5	20.0	0.00e+00	0	43	0	4169138176	46	4271
2026-01-02 04:58:02.57	232.12	15.19	-38.4	-39.4	20.1	0.00e+00	0	43	0	4175429632	46	4227
2026-01-02 04:58:03.72	232.02	15.08	-38.4	-39.3	20.2	0.00e+00	0	43	0	4182769664	46	4190
2026-01-02 04:58:04.58	231.95	14.99	-38.5	-39.5	20.1	0.00e+00	0	43	0	4189061120	46	4260
2026-01-02 04:58:05.73	231.86	14.88	-38.6	-39.6	19.9	0.00e+00	0	43	0	4197449728	46	4307
2026-01-02 04:58:06.59	231.78	14.79	-38.5	-39.5	20.1	0.00e+00	0	43	0	4203741184	46	4243
2026-01-02 04:58:07.73	231.69	14.68	-38.3	-39.3	20.3	0.00e+00	0	43	0	4212129792	46	4148
2026-01-02 04:58:08.59	231.62	14.60	-38.3	-39.3	20.2	0.00e+00	0	43	0	4218421248	46	4164
2026-01-02 04:58:09.74	231.53	14.49	-38.3	-39.2	20.3	0.00e+00	0	43	0	4226809856	46	4133
2026-01-02 04:58:10.66	231.45	14.40	-38.4	-39.3	20.1	0.00e+00	0	43	0	4233101312	46	4183
2026-01-02 04:58:11.66	231.37	14.30	-38.3	-39.3	20.1	0.00e+00	0	43	0	4240441344	46	4177
2026-01-02 04:58:12.86	231.28	14.19	-38.4	-39.3	20.1	0.00e+00	0	43	0	4248829952	46	4185
2026-01-02 04:58:13.74	231.21	14.10	-38.3	-39.2	20.3	0.00e+00	0	43	0	4255121408	46	4130
2026-01-02 04:58:15.06	231.10	13.98	-38.3	-39.3	20.2	0.00e+00	0	43	0	4265607168	46	4146
2026-01-02 04:58:15.77	231.05	13.91	-38.2	-39.2	20.3	0.00e+00	0	43	0	4269801472	46	4121
2026-01-02 04:58:17.06	230.95	13.79	-38.3	-39.2	20.2	0.00e+00	0	43	0	4279238656	46	4130
2026-01-02 04:58:17.78	230.89	13.72	-38.3	-39.3	20.2	0.00e+00	0	43	0	4284481536	46	4148
2026-01-02 04:58:19.07	230.80	13.60	-38.3	-39.3	20.2	0.00e+00	0	43	0	4293918720	46	4164
2026-01-02 04:58:19.79	230.74	13.53	-38.4	-39.4	20.0	0.00e+00	0	43	0	4299161600	46	4224
2026-01-02 04:58:21.08	230.64	13.41	-38.4	-39.4	20.0	0.00e+00	0	43	0	4308598784	46	4213
2026-01-02 04:58:21.79	230.59	13.34	-38.5	-39.4	20.0	0.00e+00	0	43	0	4313841664	46	4238
2026-01-02 04:58:23.08	230.50	13.22	-38.5	-39.5	19.9	0.00e+00	0	43	0	4323278848	46	4271
2026-01-02 04:58:23.80	230.44	13.15	-38.6	-39.5	19.9	0.00e+00	0	43	0	4328521728	46	4284
2026-01-02 04:58:25.09	230.35	13.04	-38.6	-39.6	19.9	0.00e+00	0	43	0	4337958912	46	4293
2026-01-02 04:58:25.80	230.30	12.97	-38.7	-39.7	19.8	0.00e+00	0	43	0	4343201792	46	4352
2026-01-02 04:58:27.17	230.20	12.84	-38.7	-39.7	19.7	0.00e+00	0	43	0	4352638976	47	4140
2026-01-02 04:58:27.89	230.15	12.78	-38.7	-39.7	19.8	0.00e+00	0	43	0	4357881856	47	4129
2026-01-02 04:58:29.23	230.05	12.66	-38.8	-39.8	19.7	0.00e+00	0	43	0	4367319040	47	4159
2026-01-02 04:58:29.94	230.00	12.59	-38.8	-39.8	19.6	0.00e+00	0	43	0	4372561920	47	4177
2026-01-02 04:58:31.23	229.91	12.48	-38.8	-39.8	19.6	0.00e+00	0	43	0	4381999104	47	4190
2026-01-02 04:58:31.95	229.86	12.41	-38.8	-39.8	19.6	0.00e+00	0	43	0	4387241984	47	4191
2026-01-02 04:58:33.24	229.77	12.29	-38.8	-39.8	19.6	0.00e+00	0	43	0	4396679168	47	4180
2026-01-02 04:58:33.96	229.72	12.23	-38.9	-39.9	19.5	0.00e+00	0	43	0	4401922048	47	4240
2026-01-02 04:58:35.25	229.63	12.11	-39.0	-40.1	19.4	0.00e+00	0	43	0	4411359232	47	4294
2026-01-02 04:58:35.97	229.58	12.05	-39.0	-40.0	19.4	0.00e+00	0	43	0	4415553536	47	4284
2026-01-02 04:58:37.25	229.49	11.94	-39.0	-40.1	19.4	0.00e+00	0	43	0	4424990720	47	4296
2026-01-02 04:58:37.97	229.44	11.87	-39.0	-40.0	19.4	0.00e+00	0	43	0	4430233600	47	4275
2026-01-02 04:58:39.26	229.36	11.76	-39.1	-40.1	19.3	0.00e+00	0	43	0	4439670784	47	4332
2026-01-02 04:58:39.97	229.31	11.70	-39.0	-40.1	19.4	0.00e+00	0	43	0	4444913664	47	4298
2026-01-02 04:58:41.30	229.22	11.58	-39.1	-40.1	19.3	0.00e+00	0	43	0	4454350848	47	4335
2026-01-02 04:58:42.28	229.16	11.49	-39.2	-40.2	19.2	0.00e+00	0	43	0	4461690880	47	4366
2026-01-02 04:58:43.28	229.09	11.41	-39.2	-40.3	19.2	0.00e+00	0	43	0	4469030912	47	4400
2026-01-02 04:58:44.29	229.03	11.32	-39.3	-40.3	19.1	0.00e+00	0	43	0	4476370944	47	4419
2026-01-02 04:58:45.29	228.96	11.23	-39.5	-40.5	19.2	0.00e+00	0	43	0	4483710976	48	4285
2026-01-02 04:58:46.30	228.90	11.15	-39.5	-40.6	19.1	0.00e+00	0	43	0	4491051008	48	4309
2026-01-02 04:58:47.30	228.83	11.06	-39.6	-40.6	19.1	0.00e+00	0	43	0	4498391040	48	4319
2026-01-02 04:58:48.30	228.77	10.97	-39.5	-40.5	19.1	0.00e+00	0	43	0	4504682496	48	4289
2026-01-02 04:58:49.32	228.71	10.89	-39.6	-40.6	19.1	0.00e+00	0	43	0	4512022528	48	4324
2026-01-02 04:58:50.32	228.64	10.80	-39.6	-40.6	19.1	0.00e+00	0	43	0	4519362560	48	4317
2026-01-02 04:58:51.39	228.58	10.71	-39.5	-40.6	19.1	0.00e+00	0	43	0	4527751168	48	4314
2026-01-02 04:58:52.25	228.52	10.64	-39.6	-40.6	19.0	0.00e+00	0	43	0	4534042624	48	4321
2026-01-02 04:58:53.60	228.44	10.52	-39.6	-40.7	18.9	0.00e+00	0	43	0	4543479808	48	4358
2026-01-02 04:58:54.32	228.40	10.46	-39.8	-40.8	18.8	0.00e+00	0	43	0	4548722688	48	4440
2026-01-02 04:58:55.60	228.32	10.36	-39.7	-40.8	18.8	0.00e+00	0	43	0	4558159872	48	4431
2026-01-02 04:58:56.32	228.28	10.30	-39.7	-40.8	18.9	0.00e+00	0	43	0	4563402752	48	4417
2026-01-02 04:58:57.61	228.20	10.19	-39.7	-40.8	18.8	0.00e+00	0	43	0	4571791360	49	4170
2026-01-02 04:58:58.33	228.16	10.13	-39.8	-40.8	18.8	0.00e+00	0	43	0	4577034240	49	4189
2026-01-02 04:58:59.62	228.08	10.02	-39.9	-41.0	18.7	0.00e+00	0	43	0	4586471424	49	4255
2026-01-02 04:59:00.41	228.03	9.96	-39.9	-41.0	18.6	0.00e+00	0	43	0	4592762880	49	4270
2026-01-02 04:59:01.56	227.96	9.86	-39.9	-41.0	18.6	0.00e+00	0	43	0	4601151488	49	4279
2026-01-02 04:59:02.42	227.91	9.79	-39.9	-41.0	18.7	0.00e+00	0	43	0	4607442944	49	4246
2026-01-02 04:59:03.56	227.85	9.70	-39.8	-40.9	18.7	0.00e+00	0	43	0	4614782976	49	4221
2026-01-02 04:59:04.42	227.80	9.63	-39.8	-41.0	18.7	0.00e+00	0	43	0	4621074432	49	4248
2026-01-02 04:59:05.57	227.73	9.53	-39.7	-40.8	18.8	0.00e+00	0	43	0	4629463040	49	4179
2026-01-02 04:59:06.43	227.68	9.46	-39.7	-40.8	18.8	0.00e+00	0	43	0	4635754496	49	4157
2026-01-02 04:59:07.57	227.62	9.37	-39.8	-40.9	18.7	0.00e+00	0	43	0	4644143104	49	4236
2026-01-02 04:59:08.43	227.57	9.30	-39.7	-40.9	18.7	0.00e+00	0	43	0	4650434560	49	4205
2026-01-02 04:59:09.61	227.51	9.21	-39.7	-40.9	18.7	0.00e+00	0	43	0	4658823168	49	4203
2026-01-02 04:59:10.47	227.46	9.14	-39.8	-40.9	18.6	0.00e+00	0	43	0	4665114624	49	4239
2026-01-02 04:59:11.62	227.39	9.05	-39.8	-40.9	18.6	0.00e+00	0	43	0	4673503232	49	4236
2026-01-02 04:59:12.48	227.35	8.98	-39.8	-41.0	18.6	0.00e+00	0	43	0	4679794688	49	4264
2026-01-02 04:59:13.62	227.28	8.89	-50.4	-60.8	3.8	8.47e-01	0	43	104	4682940416	70	12487
2026-01-02 04:59:14.48	227.24	8.82	-50.3	-61.2	3.8	8.46e-01	0	43	104	4682940416	70	13075
2026-01-02 04:59:15.63	227.18	8.73	-50.4	-61.4	3.8	8.47e-01	0	43	104	4682940416	70	13361
2026-01-02 04:59:16.49	227.13	8.66	-50.3	-61.4	3.8	8.46e-01	0	43	104	4682940416	70	13402
2026-01-02 04:59:17.64	227.07	8.57	-50.6	-61.5	3.8	8.46e-01	0	43	104	4682940416	70	13468
2026-01-02 04:59:18.50	227.02	8.50	-50.7	-61.5	3.8	8.47e-01	0	43	104	4682940416	70	13541
2026-01-02 04:59:19.65	226.96	8.41	-50.7	-61.5	3.8	8.47e-01	0	43	104	4682940416	70	13550
2026-01-02 04:59:20.51	226.92	8.35	-50.9	-61.5	3.8	8.45e-01	0	43	104	4682940416	71	12791
2026-01-02 04:59:21.66	226.86	8.26	-50.5	-61.6	3.8	8.47e-01	0	43	104	4682940416	71	12891
2026-01-02 04:59:22.51	226.81	8.19	-50.8	-61.6	3.8	8.46e-01	0	43	104	4682940416	71	12887
2026-01-02 04:59:23.71	226.75	8.10	-50.7	-61.6	3.8	8.46e-01	0	43	104	4682940416	71	12825
2026-01-02 04:59:24.57	226.71	8.03	-50.7	-61.6	3.8	8.48e-01	0	43	104	4682940416	71	12858
2026-01-02 04:59:25.72	226.65	7.94	-50.8	-61.6	3.8	8.46e-01	0	43	104	4682940416	71	12824
