passes_logs/2026/01/02/T1/T1__20260102_162125_FENGYUN_3E_rec.log

#Pass ID: 20260102_162125_FENGYUN 3E
#Satellite: FENGYUN 3E
#Configuration: FENGYUN 3E
#almurnet v.1.7.20251203
#Start time: 2026-01-02 16:21:28

#Version: 2.0.20230620
#Station: T1
#Location: 37.570604 lon 55.790049 lat
#TLE: 1 49008U 21062A   26001.96913326  .00000001  00000+0  21174-4 0  9999
#TLE: 2 49008  98.7479   7.2511 0001416 166.5636 193.5578 14.19883387232993

#Time	Az	El	Level	Level2	SNR	BER	BlckErr	Temp	State	Recorded	gain1	gain2
2026-01-02 16:21:28.06	234.87	5.10	-47.8	-59.7	3.8	8.47e-01	0	40	0	0	66	13817
2026-01-02 16:21:29.06	234.99	5.14	-47.8	-59.7	3.8	8.48e-01	0	40	104	0	66	13736
2026-01-02 16:21:30.06	235.11	5.19	-47.8	-59.8	3.8	8.47e-01	0	40	104	0	66	14005
2026-01-02 16:21:31.07	235.23	5.24	-47.7	-59.7	3.8	8.47e-01	0	40	104	0	66	13784
2026-01-02 16:21:32.07	235.35	5.28	-47.7	-59.7	3.8	8.47e-01	0	40	104	0	66	13849
2026-01-02 16:21:33.08	235.47	5.33	-47.7	-59.7	3.8	8.47e-01	0	40	104	0	66	13730
2026-01-02 16:21:34.08	235.59	5.37	-47.8	-59.7	3.8	8.47e-01	0	40	104	0	66	13734
2026-01-02 16:21:35.08	235.71	5.42	-47.8	-59.7	3.8	8.46e-01	0	40	104	0	66	13774
2026-01-02 16:21:36.09	235.83	5.46	-47.7	-59.7	3.8	8.46e-01	0	41	104	0	66	13800
2026-01-02 16:21:37.09	235.96	5.51	-47.7	-59.7	3.8	8.46e-01	0	40	104	0	66	13756
2026-01-02 16:21:38.10	236.08	5.56	-47.7	-59.6	3.8	8.47e-01	0	40	104	0	66	13686
2026-01-02 16:21:39.10	236.20	5.60	-47.7	-59.7	3.8	8.47e-01	0	41	104	0	66	13738
2026-01-02 16:21:40.11	236.32	5.65	-47.7	-59.7	3.8	8.46e-01	0	41	104	0	66	13747
2026-01-02 16:21:41.11	236.45	5.69	-47.7	-59.7	3.8	8.47e-01	0	41	104	0	66	13752
2026-01-02 16:21:42.12	236.57	5.74	-47.7	-59.7	3.8	8.47e-01	0	40	104	0	66	13763
2026-01-02 16:21:43.12	236.69	5.78	-47.8	-59.6	3.8	8.47e-01	0	40	104	0	66	13636
2026-01-02 16:21:44.12	236.82	5.83	-47.8	-59.6	3.8	8.46e-01	0	41	104	0	66	13646
2026-01-02 16:21:45.13	236.94	5.87	-47.7	-59.6	3.8	8.47e-01	0	41	104	0	66	13632
2026-01-02 16:21:46.13	237.07	5.92	-47.8	-59.5	3.8	8.47e-01	0	41	104	0	66	13568
2026-01-02 16:21:47.14	237.19	5.96	-47.7	-59.6	3.8	8.49e-01	0	41	104	0	66	13640
2026-01-02 16:21:48.14	237.32	6.01	-47.8	-59.6	3.8	8.47e-01	0	40	104	0	66	13631
2026-01-02 16:21:49.15	237.45	6.05	-47.8	-59.7	3.8	8.47e-01	0	41	104	0	66	13744
2026-01-02 16:21:50.15	237.57	6.10	-47.7	-59.7	3.8	8.46e-01	0	41	104	0	66	13779
2026-01-02 16:21:51.16	237.70	6.14	-47.7	-59.6	3.8	8.47e-01	0	41	104	0	66	13683
2026-01-02 16:21:52.16	237.83	6.19	-47.7	-59.6	3.8	8.48e-01	0	41	104	0	66	13655
2026-01-02 16:21:53.16	237.95	6.23	-47.7	-59.7	3.8	8.47e-01	0	41	104	0	66	13729
2026-01-02 16:21:54.17	238.08	6.28	-47.7	-59.6	3.8	8.46e-01	0	41	104	0	66	13718
2026-01-02 16:21:55.17	238.21	6.32	-47.7	-59.6	3.8	8.47e-01	0	41	104	0	66	13657
2026-01-02 16:21:56.18	238.34	6.37	-47.7	-59.7	3.8	8.48e-01	0	41	104	0	66	13762
2026-01-02 16:21:57.18	238.47	6.41	-47.7	-59.6	3.8	8.47e-01	0	41	104	0	66	13639
2026-01-02 16:21:58.19	238.60	6.46	-47.7	-59.7	3.8	8.47e-01	0	41	104	0	66	13759
2026-01-02 16:21:59.19	238.73	6.50	-47.8	-59.7	3.8	8.46e-01	0	41	104	0	66	13783
2026-01-02 16:22:00.19	238.86	6.55	-47.7	-59.6	3.8	8.47e-01	0	41	104	0	66	13630
2026-01-02 16:22:01.20	238.99	6.59	-47.8	-59.6	3.8	8.47e-01	0	41	104	0	66	13591
2026-01-02 16:22:02.20	239.12	6.64	-47.7	-59.5	3.8	8.47e-01	0	41	104	0	66	13484
2026-01-02 16:22:03.21	239.25	6.68	-47.7	-59.4	3.8	8.48e-01	0	41	104	0	66	13371
2026-01-02 16:22:04.21	239.38	6.73	-47.7	-59.4	3.8	8.47e-01	0	41	104	0	66	13383
2026-01-02 16:22:05.21	239.52	6.77	-47.7	-59.4	3.8	8.48e-01	0	41	104	0	66	13393
2026-01-02 16:22:06.22	239.65	6.82	-47.7	-59.4	3.8	8.47e-01	0	41	104	0	66	13379
2026-01-02 16:22:07.23	239.78	6.86	-47.7	-59.4	3.8	8.47e-01	0	41	104	0	66	13314
2026-01-02 16:22:08.23	239.92	6.90	-47.7	-59.3	3.8	8.47e-01	0	41	104	0	66	13233
2026-01-02 16:22:09.23	240.05	6.95	-47.7	-59.4	3.8	8.48e-01	0	41	104	0	66	13340
2026-01-02 16:22:10.24	240.18	6.99	-47.7	-59.4	3.8	8.48e-01	0	41	104	0	66	13324
2026-01-02 16:22:11.24	240.32	7.04	-47.7	-59.5	3.8	8.47e-01	0	42	104	0	66	13475
2026-01-02 16:22:12.25	240.45	7.08	-47.7	-59.5	3.8	8.47e-01	0	42	104	0	66	13467
2026-01-02 16:22:13.25	240.59	7.13	-47.7	-59.5	3.8	8.47e-01	0	42	104	0	66	13565
2026-01-02 16:22:14.25	240.72	7.17	-47.8	-59.6	3.8	8.46e-01	0	42	104	0	66	13589
2026-01-02 16:22:15.26	240.86	7.21	-47.8	-59.5	3.8	8.48e-01	0	42	104	0	66	13529
2026-01-02 16:22:16.26	241.00	7.26	-47.7	-59.5	3.8	8.46e-01	0	42	104	0	66	13548
2026-01-02 16:22:17.27	241.13	7.30	-47.8	-59.5	3.8	8.48e-01	0	42	104	0	66	13480
2026-01-02 16:22:18.27	241.27	7.34	-47.8	-59.6	3.8	8.46e-01	0	42	104	0	66	13604
2026-01-02 16:22:19.28	241.41	7.39	-47.8	-59.7	3.8	8.46e-01	0	42	104	0	66	13756
2026-01-02 16:22:20.28	241.55	7.43	-47.7	-59.6	3.8	8.47e-01	0	42	104	0	66	13659
2026-01-02 16:22:21.28	241.69	7.47	-47.8	-59.5	3.8	8.47e-01	0	42	104	0	66	13489
2026-01-02 16:22:22.29	241.83	7.52	-47.8	-59.4	3.8	8.45e-01	0	42	104	0	66	13350
2026-01-02 16:22:23.29	241.96	7.56	-47.7	-59.3	3.8	8.48e-01	0	42	104	0	66	13127
2026-01-02 16:22:24.30	242.11	7.61	-47.8	-59.4	3.8	8.46e-01	0	42	104	0	66	13370
2026-01-02 16:22:25.30	242.24	7.65	-47.7	-59.5	3.8	8.47e-01	0	42	104	0	66	13471
2026-01-02 16:22:26.30	242.38	7.69	-47.8	-59.6	3.8	8.46e-01	0	42	104	0	66	13602
2026-01-02 16:22:27.31	242.53	7.73	-47.8	-59.5	3.8	8.46e-01	0	42	104	0	66	13537
2026-01-02 16:22:28.31	242.67	7.78	-47.8	-59.4	3.8	8.46e-01	0	42	104	0	66	13340
2026-01-02 16:22:29.32	242.81	7.82	-47.9	-59.3	3.8	8.47e-01	0	42	104	0	66	13183
2026-01-02 16:22:30.32	242.95	7.86	-47.9	-59.2	3.8	8.46e-01	0	42	104	0	66	13108
2026-01-02 16:22:31.33	243.10	7.91	-47.8	-59.3	3.8	8.47e-01	0	42	104	0	66	13170
2026-01-02 16:22:32.33	243.24	7.95	-47.9	-59.3	3.8	8.47e-01	0	42	104	0	66	13219
2026-01-02 16:22:33.34	243.38	7.99	-47.9	-59.4	3.8	8.46e-01	0	42	104	0	66	13344
2026-01-02 16:22:34.34	243.53	8.03	-48.0	-59.4	3.8	8.46e-01	0	42	104	0	66	13314
2026-01-02 16:22:35.34	243.67	8.08	-47.9	-59.2	3.8	8.47e-01	0	42	104	0	66	13039
2026-01-02 16:22:36.35	243.81	8.12	-47.9	-58.9	3.8	8.46e-01	0	42	104	0	66	12656
2026-01-02 16:22:37.35	243.96	8.16	-47.8	-58.8	3.8	8.47e-01	0	42	104	0	66	12403
2026-01-02 16:22:38.35	244.10	8.20	-47.8	-58.5	3.8	8.45e-01	0	42	104	0	66	12024
2026-01-02 16:22:39.36	244.25	8.25	-47.7	-57.8	3.8	8.45e-01	0	42	104	0	66	11127
2026-01-02 16:22:40.36	244.40	8.29	-47.4	-56.0	4.2	8.39e-01	0	42	0	0	65	9504
2026-01-02 16:22:41.37	244.54	8.33	-47.1	-54.0	5.1	7.90e-01	0	42	0	0	65	7571
2026-01-02 16:22:42.37	244.69	8.37	-46.7	-52.6	6.0	4.74e-01	0	42	0	2097152	64	6824
2026-01-02 16:22:43.38	244.84	8.41	-46.7	-52.5	6.2	2.88e-01	0	42	0	9437184	63	7128
2026-01-02 16:22:44.38	244.99	8.45	-47.1	-53.9	5.2	6.36e-01	0	42	0	14680064	63	8447
2026-01-02 16:22:45.38	245.13	8.50	-47.5	-57.3	3.9	8.41e-01	0	42	0	15728640	64	11758
2026-01-02 16:22:46.39	245.28	8.54	-47.7	-58.3	3.8	8.47e-01	0	42	104	15728640	65	12466
2026-01-02 16:22:47.39	245.43	8.58	-46.4	-51.8	6.7	7.48e-01	0	42	0	16777216	63	6597
2026-01-02 16:22:48.40	245.58	8.62	-44.1	-46.8	11.7	2.79e-03	0	42	0	24117248	59	4665
2026-01-02 16:22:49.40	245.73	8.66	-41.6	-43.3	15.2	1.10e-06	0	42	0	31457280	54	4183
2026-01-02 16:22:50.41	245.88	8.70	-40.4	-41.8	16.7	0.00e+00	0	42	0	38797312	51	4167
2026-01-02 16:22:51.41	246.03	8.74	-39.5	-40.8	17.7	0.00e+00	0	42	0	46137344	49	4162
2026-01-02 16:22:52.42	246.18	8.78	-39.5	-40.8	17.7	0.00e+00	0	42	0	53477376	49	4155
2026-01-02 16:22:53.42	246.34	8.82	-39.8	-41.2	17.4	0.00e+00	0	42	0	60817408	49	4341
2026-01-02 16:22:54.42	246.49	8.86	-40.3	-41.8	16.8	0.00e+00	0	42	0	67108864	50	4398
2026-01-02 16:22:55.43	246.64	8.91	-41.3	-42.9	15.5	0.00e+00	0	42	0	74448896	52	4484
2026-01-02 16:22:56.43	246.79	8.95	-42.5	-44.6	14.0	1.10e-06	0	42	0	81788928	54	4816
2026-01-02 16:22:57.43	246.95	8.99	-43.6	-46.1	12.5	8.35e-05	0	42	0	89128960	56	5124
2026-01-02 16:22:58.44	247.10	9.03	-44.6	-47.6	10.9	2.18e-03	0	42	0	96468992	58	5440
2026-01-02 16:22:59.44	247.25	9.07	-43.6	-46.0	12.5	1.02e-03	0	42	0	103809024	58	4523
2026-01-02 16:23:00.45	247.41	9.11	-43.3	-45.5	13.0	0.00e+00	0	42	0	111149056	55	5050
2026-01-02 16:23:01.45	247.56	9.15	-45.5	-49.0	9.4	4.16e-02	0	42	0	118489088	61	5399
2026-01-02 16:23:02.45	247.72	9.19	-43.2	-45.2	13.3	7.65e-03	0	42	0	125829120	57	4352
2026-01-02 16:23:03.46	247.87	9.23	-41.4	-43.1	15.4	0.00e+00	0	42	0	132120576	53	4308
2026-01-02 16:23:04.46	248.03	9.26	-40.9	-42.4	16.1	0.00e+00	0	42	0	139460608	52	4242
2026-01-02 16:23:05.46	248.19	9.30	-40.8	-42.3	16.2	0.00e+00	0	43	0	147849216	52	4187
2026-01-02 16:23:06.47	248.34	9.34	-40.5	-41.9	16.7	0.00e+00	0	42	0	154140672	51	4209
2026-01-02 16:23:07.47	248.50	9.38	-39.9	-41.2	17.4	0.00e+00	0	42	0	161480704	50	4122
2026-01-02 16:23:08.48	248.66	9.42	-39.3	-40.6	18.0	0.00e+00	0	42	0	168820736	49	4060
2026-01-02 16:23:09.48	248.82	9.46	-39.1	-40.3	18.2	0.00e+00	0	42	0	176160768	49	3952
2026-01-02 16:23:10.48	248.97	9.50	-39.0	-40.2	18.4	0.00e+00	0	42	0	183500800	48	4142
2026-01-02 16:23:11.48	249.13	9.54	-39.3	-40.5	18.1	0.00e+00	0	43	0	190840832	48	4251
2026-01-02 16:23:12.49	249.29	9.58	-39.0	-40.2	18.4	0.00e+00	0	42	0	198180864	48	4121
2026-01-02 16:23:13.49	249.45	9.61	-38.5	-39.6	18.8	0.00e+00	0	42	0	205520896	47	4074
2026-01-02 16:23:14.50	249.61	9.65	-38.4	-39.6	18.8	0.00e+00	0	42	0	212860928	47	4060
2026-01-02 16:23:15.50	249.77	9.69	-38.3	-39.4	18.9	0.00e+00	0	42	0	219152384	47	4000
2026-01-02 16:23:16.50	249.93	9.73	-38.4	-39.5	18.8	0.00e+00	0	42	0	226492416	47	4049
2026-01-02 16:23:17.50	250.09	9.76	-38.4	-39.5	18.8	0.00e+00	0	42	0	233832448	47	4047
2026-01-02 16:23:18.51	250.26	9.80	-38.2	-39.3	19.0	0.00e+00	0	42	0	241172480	47	3942
2026-01-02 16:23:19.51	250.42	9.84	-38.2	-39.3	19.1	0.00e+00	0	42	0	248512512	46	4154
2026-01-02 16:23:20.51	250.58	9.88	-38.2	-39.3	19.0	0.00e+00	0	42	0	255852544	46	4178
2026-01-02 16:23:21.52	250.74	9.91	-38.2	-39.3	19.0	0.00e+00	0	43	0	263192576	46	4189
2026-01-02 16:23:22.52	250.91	9.95	-38.2	-39.3	19.0	0.00e+00	0	42	0	270532608	46	4180
2026-01-02 16:23:23.52	251.07	9.99	-38.3	-39.4	18.9	0.00e+00	0	42	0	277872640	46	4216
2026-01-02 16:23:24.53	251.23	10.03	-38.2	-39.3	19.1	0.00e+00	0	42	0	285212672	46	4162
2026-01-02 16:23:25.53	251.40	10.06	-38.1	-39.2	19.2	0.00e+00	0	42	0	292552704	46	4114
2026-01-02 16:23:26.53	251.56	10.10	-38.2	-39.2	19.1	0.00e+00	0	43	0	298844160	46	4141
2026-01-02 16:23:27.54	251.73	10.13	-38.2	-39.3	19.1	0.00e+00	0	42	0	306184192	46	4156
2026-01-02 16:23:28.54	251.89	10.17	-38.1	-39.2	19.2	0.00e+00	0	43	0	313524224	46	4102
2026-01-02 16:23:29.54	252.06	10.21	-38.1	-39.1	19.2	0.00e+00	0	43	0	320864256	46	4095
2026-01-02 16:23:30.55	252.23	10.24	-38.3	-39.3	19.1	0.00e+00	0	43	0	328204288	46	4185
2026-01-02 16:23:31.55	252.39	10.28	-38.0	-39.0	19.3	0.00e+00	0	43	0	335544320	46	4049
2026-01-02 16:23:32.55	252.56	10.31	-37.9	-39.0	19.4	0.00e+00	0	42	0	342884352	46	4012
2026-01-02 16:23:33.55	252.73	10.35	-37.9	-39.0	19.4	0.00e+00	0	42	0	350224384	46	4009
2026-01-02 16:23:34.55	252.89	10.38	-37.9	-38.9	19.5	0.00e+00	0	42	0	357564416	46	3975
2026-01-02 16:23:35.56	253.06	10.42	-37.9	-38.9	19.5	0.00e+00	0	43	0	363855872	46	3991
2026-01-02 16:23:36.56	253.23	10.45	-37.9	-39.0	19.5	0.00e+00	0	42	0	372244480	46	4006
2026-01-02 16:23:37.56	253.40	10.49	-37.8	-38.8	19.6	0.00e+00	0	42	0	379584512	46	3947
2026-01-02 16:23:38.57	253.57	10.52	-37.9	-39.0	19.4	0.00e+00	0	43	0	385875968	46	4007
2026-01-02 16:23:39.57	253.74	10.56	-37.8	-38.9	19.5	0.00e+00	0	42	0	393216000	46	3978
2026-01-02 16:23:40.58	253.91	10.59	-37.9	-39.0	19.4	0.00e+00	0	42	0	400556032	46	4017
2026-01-02 16:23:41.58	254.08	10.62	-37.9	-39.0	19.4	0.00e+00	0	42	0	407896064	46	4044
2026-01-02 16:23:42.58	254.25	10.66	-37.9	-38.9	19.5	0.00e+00	0	42	0	415236096	46	3996
2026-01-02 16:23:43.58	254.42	10.69	-37.9	-39.0	19.4	0.00e+00	0	42	0	422576128	46	4030
2026-01-02 16:23:44.59	254.60	10.72	-38.0	-39.0	19.4	0.00e+00	0	43	0	429916160	46	4046
2026-01-02 16:23:45.59	254.77	10.76	-38.0	-39.1	19.3	0.00e+00	0	42	0	437256192	46	4055
2026-01-02 16:23:46.60	254.94	10.79	-37.7	-38.8	19.6	0.00e+00	0	42	0	443547648	46	3939
2026-01-02 16:23:47.60	255.11	10.82	-37.7	-38.7	19.6	0.00e+00	0	43	0	450887680	46	3912
2026-01-02 16:23:48.60	255.29	10.86	-37.7	-38.7	19.6	0.00e+00	0	42	0	458227712	46	3910
2026-01-02 16:23:49.60	255.46	10.89	-37.7	-38.7	19.7	0.00e+00	0	42	0	465567744	46	3895
2026-01-02 16:23:50.61	255.63	10.92	-37.8	-38.8	19.6	0.00e+00	0	43	0	472907776	46	3950
2026-01-02 16:23:51.61	255.81	10.95	-37.7	-38.7	19.7	0.00e+00	0	43	0	480247808	46	3881
2026-01-02 16:23:52.62	255.98	10.98	-37.8	-38.8	19.6	0.00e+00	0	42	0	487587840	46	3922
2026-01-02 16:23:53.62	256.16	11.02	-37.7	-38.8	19.7	0.00e+00	0	42	0	494927872	46	3914
2026-01-02 16:23:54.62	256.33	11.05	-37.7	-38.8	19.7	0.00e+00	0	43	0	502267904	46	3927
2026-01-02 16:23:55.63	256.51	11.08	-37.8	-38.8	19.6	0.00e+00	0	43	0	509607936	46	3935
2026-01-02 16:23:56.63	256.69	11.11	-37.7	-38.8	19.6	0.00e+00	0	43	0	516947968	46	3922
2026-01-02 16:23:57.63	256.86	11.14	-37.8	-38.9	19.5	0.00e+00	0	43	0	524288000	46	3972
2026-01-02 16:23:58.64	257.04	11.17	-37.7	-38.7	19.7	0.00e+00	0	43	0	530579456	46	3895
2026-01-02 16:23:59.64	257.22	11.20	-37.7	-38.7	19.7	0.00e+00	0	43	0	537919488	46	3882
2026-01-02 16:24:00.64	257.39	11.23	-37.8	-38.8	19.6	0.00e+00	0	43	0	545259520	46	3938
2026-01-02 16:24:01.64	257.57	11.26	-37.7	-38.7	19.7	0.00e+00	0	43	0	552599552	46	3877
2026-01-02 16:24:02.65	257.75	11.29	-37.8	-38.8	19.6	0.00e+00	0	43	0	559939584	46	3919
2026-01-02 16:24:03.65	257.93	11.32	-37.5	-38.5	19.9	0.00e+00	0	42	0	567279616	45	4014
2026-01-02 16:24:04.65	258.11	11.35	-37.5	-38.5	19.9	0.00e+00	0	42	0	574619648	45	4013
2026-01-02 16:24:05.65	258.29	11.38	-37.6	-38.6	19.8	0.00e+00	0	43	0	581959680	45	4054
2026-01-02 16:24:06.66	258.47	11.41	-37.6	-38.6	19.9	0.00e+00	0	43	0	589299712	45	4058
2026-01-02 16:24:07.66	258.65	11.44	-37.6	-38.6	19.8	0.00e+00	0	43	0	596639744	45	4058
2026-01-02 16:24:08.67	258.83	11.46	-37.7	-38.7	19.7	0.00e+00	0	43	0	603979776	45	4121
2026-01-02 16:24:09.67	259.01	11.49	-37.7	-38.8	19.6	0.00e+00	0	43	0	611319808	45	4147
2026-01-02 16:24:10.67	259.19	11.52	-37.7	-38.8	19.6	0.00e+00	0	43	0	617611264	45	4159
2026-01-02 16:24:11.68	259.37	11.55	-37.7	-38.8	19.6	0.00e+00	0	43	0	624951296	45	4166
2026-01-02 16:24:12.68	259.55	11.58	-37.6	-38.6	19.8	0.00e+00	0	43	0	632291328	45	4084
2026-01-02 16:24:13.69	259.74	11.60	-37.6	-38.7	19.7	0.00e+00	0	42	0	639631360	45	4103
2026-01-02 16:24:14.69	259.92	11.63	-37.5	-38.5	19.9	0.00e+00	0	43	0	646971392	45	4032
2026-01-02 16:24:15.69	260.10	11.66	-37.5	-38.5	19.9	0.00e+00	0	42	0	654311424	45	4039
2026-01-02 16:24:16.70	260.28	11.68	-37.5	-38.6	19.9	0.00e+00	0	43	0	661651456	45	4055
2026-01-02 16:24:17.70	260.47	11.71	-37.7	-38.7	19.7	0.00e+00	0	43	0	668991488	45	4138
2026-01-02 16:24:18.70	260.65	11.74	-37.5	-38.5	19.9	0.00e+00	0	43	0	675282944	45	4025
2026-01-02 16:24:19.70	260.83	11.76	-37.5	-38.5	19.9	0.00e+00	0	43	0	682622976	45	4042
2026-01-02 16:24:20.71	261.02	11.79	-37.6	-38.7	19.8	0.00e+00	0	43	0	689963008	45	4103
2026-01-02 16:24:21.71	261.20	11.81	-37.7	-38.8	19.7	0.00e+00	0	43	0	697303040	45	4155
2026-01-02 16:24:22.71	261.39	11.84	-37.7	-38.7	19.7	0.00e+00	0	42	0	704643072	45	4120
2026-01-02 16:24:23.71	261.57	11.86	-37.7	-38.7	19.7	0.00e+00	0	43	0	711983104	45	4137
2026-01-02 16:24:24.72	261.76	11.89	-37.8	-38.8	19.6	0.00e+00	0	43	0	719323136	45	4178
2026-01-02 16:24:25.72	261.94	11.91	-37.7	-38.8	19.6	0.00e+00	0	43	0	726663168	45	4161
2026-01-02 16:24:26.72	262.13	11.94	-37.6	-38.6	19.8	0.00e+00	0	43	0	734003200	45	4096
2026-01-02 16:24:27.73	262.32	11.96	-37.6	-38.6	19.8	0.00e+00	0	43	0	741343232	45	4087
2026-01-02 16:24:28.73	262.50	11.99	-37.6	-38.6	19.8	0.00e+00	0	43	0	748683264	45	4091
2026-01-02 16:24:29.73	262.69	12.01	-37.6	-38.6	19.8	0.00e+00	0	43	0	756023296	45	4073
2026-01-02 16:24:30.73	262.88	12.03	-37.6	-38.6	19.8	0.00e+00	0	43	0	762314752	45	4071
2026-01-02 16:24:31.74	263.06	12.06	-37.7	-38.7	19.8	0.00e+00	0	43	0	769654784	45	4109
2026-01-02 16:24:32.74	263.25	12.08	-37.6	-38.6	19.8	0.00e+00	0	43	0	776994816	45	4078
2026-01-02 16:24:33.74	263.44	12.10	-37.5	-38.6	19.9	0.00e+00	0	43	0	784334848	45	4061
2026-01-02 16:24:34.75	263.63	12.12	-37.5	-38.6	19.9	0.00e+00	0	43	0	791674880	45	4066
2026-01-02 16:24:35.75	263.82	12.14	-37.6	-38.6	19.8	0.00e+00	0	43	0	799014912	45	4067
2026-01-02 16:24:36.76	264.01	12.17	-37.5	-38.5	19.9	0.00e+00	0	43	0	806354944	45	4043
2026-01-02 16:24:37.76	264.19	12.19	-37.4	-38.4	20.1	0.00e+00	0	43	0	813694976	45	3966
2026-01-02 16:24:38.76	264.38	12.21	-37.4	-38.4	20.0	0.00e+00	0	43	0	821035008	45	4001
2026-01-02 16:24:39.77	264.57	12.23	-37.6	-38.7	19.7	0.00e+00	0	43	0	828375040	45	4102
2026-01-02 16:24:40.77	264.76	12.25	-37.4	-38.4	20.0	0.00e+00	0	43	0	835715072	45	3973
2026-01-02 16:24:41.78	264.96	12.27	-37.3	-38.3	20.1	0.00e+00	0	43	0	843055104	45	3938
2026-01-02 16:24:42.78	265.15	12.29	-37.4	-38.4	20.0	0.00e+00	0	43	0	849346560	45	3969
2026-01-02 16:24:43.78	265.34	12.31	-37.5	-38.4	20.0	0.00e+00	0	43	0	856686592	45	3997
2026-01-02 16:24:44.79	265.53	12.33	-37.5	-38.4	20.0	0.00e+00	0	43	0	864026624	45	4001
2026-01-02 16:24:45.79	265.72	12.35	-37.3	-38.2	20.2	0.00e+00	0	43	0	871366656	45	3910
2026-01-02 16:24:46.79	265.91	12.37	-37.3	-38.3	20.1	0.00e+00	0	43	0	878706688	45	3927
2026-01-02 16:24:47.80	266.10	12.39	-37.4	-38.3	20.1	0.00e+00	0	43	0	886046720	45	3955
2026-01-02 16:24:48.80	266.29	12.41	-37.4	-38.3	20.1	0.00e+00	0	43	0	893386752	45	3953
2026-01-02 16:24:49.80	266.48	12.42	-37.4	-38.3	20.1	0.00e+00	0	43	0	900726784	45	3958
2026-01-02 16:24:50.80	266.68	12.44	-37.3	-38.3	20.1	0.00e+00	0	43	0	907018240	45	3931
2026-01-02 16:24:51.81	266.87	12.46	-37.2	-38.2	20.2	0.00e+00	0	43	0	914358272	45	3903
2026-01-02 16:24:52.81	267.06	12.48	-37.3	-38.2	20.2	0.00e+00	0	43	0	922746880	45	3900
2026-01-02 16:24:53.81	267.25	12.49	-37.2	-38.2	20.2	0.00e+00	0	43	0	929038336	45	3895
2026-01-02 16:24:54.82	267.45	12.51	-37.1	-38.1	20.3	0.00e+00	0	43	0	936378368	45	3844
2026-01-02 16:24:55.82	267.64	12.53	-37.1	-38.1	20.4	0.00e+00	0	43	0	943718400	45	3829
2026-01-02 16:24:56.82	267.84	12.54	-37.1	-38.0	20.4	0.00e+00	0	43	0	951058432	44	4043
2026-01-02 16:24:57.83	268.03	12.56	-37.1	-38.0	20.4	0.00e+00	0	43	0	958398464	44	4050
2026-01-02 16:24:58.84	268.23	12.58	-37.0	-37.9	20.5	0.00e+00	0	43	0	965738496	44	3996
2026-01-02 16:24:59.84	268.42	12.59	-37.1	-38.1	20.4	0.00e+00	0	43	0	973078528	44	4056
2026-01-02 16:25:00.84	268.61	12.61	-37.1	-38.0	20.4	0.00e+00	0	43	0	980418560	44	4041
2026-01-02 16:25:01.84	268.81	12.62	-37.2	-38.1	20.3	0.00e+00	0	43	0	987758592	44	4089
2026-01-02 16:25:02.85	269.00	12.63	-37.1	-38.1	20.3	0.00e+00	0	43	0	994050048	44	4081
2026-01-02 16:25:03.85	269.20	12.65	-37.1	-38.1	20.3	0.00e+00	0	43	0	1001390080	44	4080
2026-01-02 16:25:04.85	269.39	12.66	-37.2	-38.2	20.2	0.00e+00	0	43	0	1008730112	44	4116
2026-01-02 16:25:05.85	269.59	12.68	-37.2	-38.2	20.2	0.00e+00	0	43	0	1016070144	44	4132
2026-01-02 16:25:06.86	269.78	12.69	-37.2	-38.2	20.2	0.00e+00	0	43	0	1023410176	44	4125
2026-01-02 16:25:07.86	269.98	12.70	-37.2	-38.2	20.3	0.00e+00	0	43	0	1030750208	44	4104
2026-01-02 16:25:08.86	270.17	12.72	-37.2	-38.2	20.2	0.00e+00	0	43	0	1038090240	44	4111
2026-01-02 16:25:09.87	270.37	12.73	-37.3	-38.3	20.1	0.00e+00	0	43	0	1045430272	44	4179
2026-01-02 16:25:10.87	270.57	12.74	-37.2	-38.2	20.2	0.00e+00	0	43	0	1052770304	44	4110
2026-01-02 16:25:11.87	270.76	12.75	-37.1	-38.1	20.3	0.00e+00	0	43	0	1060110336	44	4075
2026-01-02 16:25:12.88	270.96	12.76	-37.2	-38.1	20.3	0.00e+00	0	43	0	1067450368	44	4097
2026-01-02 16:25:13.88	271.16	12.77	-37.2	-38.1	20.3	0.00e+00	0	43	0	1073741824	44	4093
2026-01-02 16:25:14.88	271.35	12.79	-37.1	-38.1	20.3	0.00e+00	0	43	0	1081081856	44	4062
2026-01-02 16:25:15.88	271.55	12.80	-37.3	-38.3	20.2	0.00e+00	0	43	0	1088421888	44	4158
2026-01-02 16:25:16.89	271.75	12.81	-37.3	-38.3	20.2	0.00e+00	0	43	0	1095761920	44	4161
2026-01-02 16:25:17.89	271.94	12.82	-37.3	-38.3	20.2	0.00e+00	0	43	0	1103101952	44	4154
2026-01-02 16:25:18.89	272.14	12.83	-37.3	-38.3	20.1	0.00e+00	0	43	0	1110441984	44	4171
2026-01-02 16:25:19.90	272.34	12.84	-37.3	-38.3	20.2	0.00e+00	0	43	0	1117782016	44	4153
2026-01-02 16:25:20.90	272.53	12.84	-37.4	-38.4	20.1	0.00e+00	0	43	0	1125122048	44	4211
2026-01-02 16:25:21.90	272.73	12.85	-37.4	-38.4	20.1	0.00e+00	0	43	0	1132462080	44	4201
2026-01-02 16:25:22.91	272.93	12.86	-37.3	-38.3	20.1	0.00e+00	0	43	0	1138753536	44	4193
2026-01-02 16:25:23.91	273.13	12.87	-37.3	-38.3	20.1	0.00e+00	0	43	0	1146093568	44	4179
2026-01-02 16:25:24.91	273.33	12.88	-37.3	-38.4	20.1	0.00e+00	0	43	0	1154482176	44	4196
2026-01-02 16:25:25.92	273.52	12.89	-37.2	-38.2	20.2	0.00e+00	0	43	0	1160773632	44	4120
2026-01-02 16:25:26.91	273.72	12.89	-37.2	-38.2	20.2	0.00e+00	0	43	0	1168113664	44	4114
2026-01-02 16:25:27.92	273.92	12.90	-37.3	-38.3	20.1	0.00e+00	0	43	0	1175453696	44	4181
2026-01-02 16:25:28.92	274.12	12.91	-37.2	-38.1	20.3	0.00e+00	0	43	0	1182793728	44	4098
2026-01-02 16:25:29.92	274.31	12.91	-37.3	-38.2	20.2	0.00e+00	0	43	0	1190133760	44	4142
2026-01-02 16:25:30.93	274.51	12.92	-37.3	-38.3	20.2	0.00e+00	0	43	0	1197473792	44	4162
2026-01-02 16:25:31.93	274.71	12.92	-37.4	-38.4	20.1	0.00e+00	0	43	0	1204813824	44	4211
2026-01-02 16:25:32.93	274.91	12.93	-37.4	-38.4	20.1	0.00e+00	0	43	0	1212153856	44	4221
2026-01-02 16:25:33.94	275.11	12.93	-37.4	-38.4	20.1	0.00e+00	0	43	0	1219493888	44	4218
2026-01-02 16:25:34.94	275.31	12.94	-37.5	-38.5	20.0	0.00e+00	0	43	0	1225785344	44	4290
2026-01-02 16:25:35.94	275.51	12.94	-37.5	-38.5	19.9	0.00e+00	0	43	0	1233125376	44	4286
2026-01-02 16:25:36.95	275.71	12.95	-37.5	-38.5	20.0	0.00e+00	0	43	0	1240465408	44	4272
2026-01-02 16:25:37.95	275.90	12.95	-37.4	-38.4	20.1	0.00e+00	0	43	0	1247805440	44	4202
2026-01-02 16:25:38.95	276.10	12.96	-37.3	-38.3	20.2	0.00e+00	0	43	0	1255145472	44	4161
2026-01-02 16:25:39.96	276.30	12.96	-37.3	-38.3	20.2	0.00e+00	0	43	0	1262485504	44	4160
2026-01-02 16:25:40.96	276.50	12.96	-37.1	-38.1	20.3	0.00e+00	0	43	0	1269825536	44	4066
2026-01-02 16:25:41.96	276.70	12.96	-37.2	-38.2	20.3	0.00e+00	0	43	0	1277165568	44	4110
2026-01-02 16:25:42.97	276.90	12.97	-37.3	-38.2	20.2	0.00e+00	0	43	0	1284505600	44	4138
2026-01-02 16:25:43.97	277.10	12.97	-37.3	-38.3	20.2	0.00e+00	0	43	0	1291845632	44	4157
2026-01-02 16:25:44.97	277.30	12.97	-37.3	-38.3	20.1	0.00e+00	0	43	0	1299185664	44	4188
2026-01-02 16:25:45.98	277.50	12.97	-37.2	-38.3	20.2	0.00e+00	0	43	0	1305477120	44	4146
2026-01-02 16:25:46.98	277.70	12.97	-37.3	-38.3	20.2	0.00e+00	0	43	0	1312817152	44	4156
2026-01-02 16:25:47.98	277.89	12.97	-37.3	-38.3	20.2	0.00e+00	0	43	0	1320157184	44	4155
2026-01-02 16:25:48.98	278.09	12.97	-37.3	-38.3	20.2	0.00e+00	0	43	0	1327497216	44	4165
2026-01-02 16:25:49.99	278.29	12.97	-37.3	-38.3	20.2	0.00e+00	0	43	0	1334837248	44	4169
2026-01-02 16:25:50.99	278.49	12.97	-37.4	-38.4	20.1	0.00e+00	0	43	0	1342177280	44	4204
2026-01-02 16:25:51.99	278.69	12.97	-37.2	-38.2	20.2	0.00e+00	0	43	0	1349517312	44	4136
2026-01-02 16:25:53.00	278.89	12.97	-37.2	-38.2	20.2	0.00e+00	0	43	0	1356857344	44	4113
2026-01-02 16:25:54.00	279.09	12.97	-37.3	-38.2	20.2	0.00e+00	0	43	0	1364197376	44	4145
2026-01-02 16:25:55.00	279.29	12.97	-37.3	-38.2	20.2	0.00e+00	0	43	0	1370488832	44	4137
2026-01-02 16:25:56.01	279.49	12.97	-37.2	-38.1	20.3	0.00e+00	0	43	0	1377828864	44	4089
2026-01-02 16:25:57.01	279.69	12.96	-37.3	-38.3	20.2	0.00e+00	0	43	0	1386217472	44	4162
2026-01-02 16:25:58.02	279.89	12.96	-37.4	-38.4	20.0	0.00e+00	0	43	0	1392508928	44	4214
2026-01-02 16:25:59.02	280.08	12.96	-37.3	-38.3	20.2	0.00e+00	0	43	0	1399848960	44	4166
2026-01-02 16:26:00.02	280.28	12.96	-37.3	-38.3	20.1	0.00e+00	0	43	0	1407188992	44	4186
2026-01-02 16:26:01.02	280.48	12.95	-37.4	-38.4	20.1	0.00e+00	0	43	0	1414529024	44	4197
2026-01-02 16:26:02.03	280.68	12.95	-37.3	-38.3	20.1	0.00e+00	0	43	0	1421869056	44	4166
2026-01-02 16:26:03.03	280.88	12.94	-37.2	-38.2	20.3	0.00e+00	0	43	0	1429209088	44	4120
2026-01-02 16:26:04.03	281.08	12.94	-37.4	-38.4	20.1	0.00e+00	0	43	0	1436549120	44	4208
2026-01-02 16:26:05.04	281.28	12.94	-37.3	-38.3	20.1	0.00e+00	0	43	0	1443889152	44	4181
2026-01-02 16:26:06.04	281.47	12.93	-37.2	-38.2	20.2	0.00e+00	0	43	0	1451229184	44	4126
2026-01-02 16:26:07.05	281.67	12.93	-37.2	-38.2	20.2	0.00e+00	0	43	0	1457520640	44	4123
2026-01-02 16:26:08.05	281.87	12.92	-37.2	-38.2	20.3	0.00e+00	0	43	0	1464860672	44	4100
2026-01-02 16:26:09.05	282.07	12.91	-37.3	-38.3	20.2	0.00e+00	0	43	0	1472200704	44	4154
2026-01-02 16:26:10.05	282.27	12.91	-37.4	-38.4	20.1	0.00e+00	0	43	0	1479540736	44	4202
2026-01-02 16:26:11.06	282.47	12.90	-37.3	-38.3	20.2	0.00e+00	0	43	0	1486880768	44	4167
2026-01-02 16:26:12.06	282.66	12.89	-37.4	-38.4	20.1	0.00e+00	0	43	0	1494220800	44	4221
2026-01-02 16:26:13.06	282.86	12.89	-37.5	-38.5	20.0	0.00e+00	0	43	0	1501560832	44	4260
2026-01-02 16:26:14.07	283.06	12.88	-37.5	-38.4	20.1	0.00e+00	0	43	0	1508900864	44	4236
2026-01-02 16:26:15.07	283.26	12.87	-37.5	-38.5	19.9	0.00e+00	0	43	0	1516240896	44	4279
2026-01-02 16:26:16.08	283.46	12.86	-37.4	-38.4	20.0	0.00e+00	0	43	0	1523580928	44	4221
2026-01-02 16:26:17.08	283.65	12.86	-37.4	-38.4	20.0	0.00e+00	0	43	0	1530920960	44	4225
2026-01-02 16:26:18.08	283.85	12.85	-37.4	-38.3	20.1	0.00e+00	0	43	0	1537212416	44	4190
2026-01-02 16:26:19.09	284.05	12.84	-37.4	-38.4	20.1	0.00e+00	0	43	0	1544552448	44	4200
2026-01-02 16:26:20.09	284.24	12.83	-37.5	-38.5	20.0	0.00e+00	0	43	0	1551892480	44	4258
2026-01-02 16:26:21.10	284.44	12.82	-37.4	-38.4	20.0	0.00e+00	0	43	0	1559232512	44	4223
2026-01-02 16:26:22.10	284.64	12.81	-37.4	-38.4	20.0	0.00e+00	0	43	0	1566572544	44	4232
2026-01-02 16:26:23.10	284.84	12.80	-37.4	-38.4	20.1	0.00e+00	0	43	0	1573912576	44	4219
2026-01-02 16:26:24.11	285.03	12.79	-37.4	-38.3	20.1	0.00e+00	0	43	0	1581252608	44	4186
2026-01-02 16:26:25.11	285.23	12.78	-37.4	-38.4	20.1	0.00e+00	0	43	0	1588592640	44	4204
2026-01-02 16:26:26.12	285.43	12.77	-37.5	-38.5	20.0	0.00e+00	0	43	0	1595932672	44	4249
2026-01-02 16:26:27.12	285.62	12.75	-37.4	-38.4	20.0	0.00e+00	0	43	0	1603272704	44	4214
2026-01-02 16:26:28.12	285.82	12.74	-37.4	-38.4	20.0	0.00e+00	0	43	0	1610612736	44	4232
2026-01-02 16:26:29.13	286.01	12.73	-37.4	-38.4	20.1	0.00e+00	0	43	0	1617952768	44	4210
2026-01-02 16:26:30.13	286.21	12.72	-37.5	-38.5	20.0	0.00e+00	0	43	0	1624244224	44	4244
2026-01-02 16:26:31.13	286.40	12.71	-37.4	-38.3	20.1	0.00e+00	0	43	0	1631584256	44	4184
2026-01-02 16:26:32.13	286.60	12.69	-37.4	-38.4	20.0	0.00e+00	0	43	0	1638924288	44	4224
2026-01-02 16:26:33.14	286.80	12.68	-37.5	-38.5	20.0	0.00e+00	0	43	0	1646264320	44	4243
2026-01-02 16:26:34.14	286.99	12.67	-37.5	-38.5	20.0	0.00e+00	0	43	0	1653604352	44	4250
2026-01-02 16:26:35.14	287.18	12.65	-37.4	-38.4	20.0	0.00e+00	0	43	0	1660944384	44	4228
2026-01-02 16:26:36.15	287.38	12.64	-37.5	-38.5	19.9	0.00e+00	0	43	0	1668284416	44	4283
2026-01-02 16:26:37.15	287.57	12.62	-37.6	-38.6	19.9	0.00e+00	0	43	0	1675624448	44	4304
2026-01-02 16:26:38.16	287.77	12.61	-37.5	-38.5	19.9	0.00e+00	0	43	0	1681915904	44	4279
2026-01-02 16:26:39.16	287.96	12.59	-37.5	-38.5	19.9	0.00e+00	0	43	0	1689255936	44	4263
2026-01-02 16:26:40.16	288.16	12.58	-37.6	-38.6	19.9	0.00e+00	0	43	0	1697644544	44	4308
2026-01-02 16:26:41.17	288.35	12.56	-37.6	-38.6	19.8	0.00e+00	0	43	0	1703936000	44	4313
2026-01-02 16:26:42.17	288.54	12.55	-37.6	-38.5	19.9	0.00e+00	0	43	0	1711276032	44	4287
2026-01-02 16:26:43.17	288.74	12.53	-37.5	-38.5	20.0	0.00e+00	0	43	0	1718616064	44	4248
2026-01-02 16:26:44.18	288.93	12.52	-37.5	-38.4	20.0	0.00e+00	0	43	0	1725956096	44	4230
2026-01-02 16:26:45.18	289.12	12.50	-37.5	-38.5	20.0	0.00e+00	0	43	0	1733296128	44	4254
2026-01-02 16:26:46.18	289.32	12.48	-37.5	-38.5	19.9	0.00e+00	0	43	0	1740636160	44	4285
2026-01-02 16:26:47.19	289.51	12.46	-37.6	-38.6	19.9	0.00e+00	0	43	0	1747976192	44	4296
2026-01-02 16:26:48.19	289.70	12.45	-37.6	-38.6	19.8	0.00e+00	0	43	0	1755316224	44	4319
2026-01-02 16:26:49.19	289.89	12.43	-37.7	-38.7	19.6	0.00e+00	0	43	0	1762656256	44	4382
2026-01-02 16:26:50.20	290.08	12.41	-37.7	-38.7	19.7	0.00e+00	0	43	0	1768947712	45	4137
2026-01-02 16:26:51.20	290.28	12.39	-37.8	-38.8	19.6	0.00e+00	0	43	0	1776287744	45	4186
2026-01-02 16:26:52.20	290.47	12.37	-37.9	-38.9	19.5	0.00e+00	0	43	0	1783627776	45	4206
2026-01-02 16:26:53.21	290.66	12.36	-38.0	-39.0	19.4	0.00e+00	0	43	0	1790967808	45	4262
2026-01-02 16:26:54.21	290.85	12.34	-38.1	-39.1	19.3	0.00e+00	0	43	0	1798307840	45	4324
2026-01-02 16:26:55.21	291.04	12.32	-38.0	-39.1	19.4	0.00e+00	0	43	0	1805647872	45	4295
2026-01-02 16:26:56.22	291.23	12.30	-38.1	-39.1	19.3	0.00e+00	0	43	0	1812987904	45	4335
2026-01-02 16:26:57.22	291.42	12.28	-38.0	-39.0	19.4	0.00e+00	0	43	0	1820327936	45	4267
2026-01-02 16:26:58.22	291.61	12.26	-38.0	-39.0	19.4	0.00e+00	0	43	0	1827667968	45	4278
2026-01-02 16:26:59.23	291.80	12.24	-38.1	-39.1	19.3	0.00e+00	0	43	0	1835008000	45	4312
2026-01-02 16:27:00.23	291.99	12.22	-37.9	-38.9	19.5	0.00e+00	0	43	0	1842348032	45	4239
2026-01-02 16:27:01.23	292.18	12.20	-37.9	-39.0	19.5	0.00e+00	0	43	0	1849688064	45	4243
2026-01-02 16:27:02.24	292.37	12.17	-37.9	-38.9	19.6	0.00e+00	0	43	0	1855979520	45	4204
2026-01-02 16:27:03.24	292.55	12.15	-37.9	-38.9	19.5	0.00e+00	0	43	0	1863319552	45	4214
2026-01-02 16:27:04.24	292.74	12.13	-37.9	-39.0	19.5	0.00e+00	0	43	0	1870659584	45	4251
2026-01-02 16:27:05.25	292.93	12.11	-38.1	-39.1	19.4	0.00e+00	0	43	0	1877999616	45	4311
2026-01-02 16:27:06.25	293.12	12.09	-38.0	-39.1	19.4	0.00e+00	0	43	0	1885339648	45	4310
2026-01-02 16:27:07.25	293.30	12.06	-38.1	-39.1	19.3	0.00e+00	0	43	0	1892679680	45	4327
2026-01-02 16:27:08.26	293.49	12.04	-38.1	-39.1	19.4	0.00e+00	0	43	0	1900019712	45	4306
2026-01-02 16:27:09.26	293.68	12.02	-38.0	-39.0	19.4	0.00e+00	0	43	0	1907359744	45	4284
2026-01-02 16:27:10.26	293.86	11.99	-38.0	-39.0	19.4	0.00e+00	0	43	0	1914699776	45	4272
2026-01-02 16:27:11.27	294.05	11.97	-38.2	-39.3	19.1	0.00e+00	0	43	0	1922039808	45	4413
2026-01-02 16:27:12.27	294.24	11.95	-38.2	-39.3	19.2	0.00e+00	0	43	0	1929379840	46	4172
2026-01-02 16:27:13.27	294.42	11.92	-38.3	-39.3	19.1	0.00e+00	0	43	0	1935671296	46	4176
2026-01-02 16:27:14.27	294.61	11.90	-38.2	-39.2	19.2	0.00e+00	0	43	0	1943011328	46	4136
2026-01-02 16:27:15.28	294.79	11.87	-38.3	-39.3	19.1	0.00e+00	0	43	0	1950351360	46	4181
2026-01-02 16:27:16.28	294.98	11.85	-38.2	-39.2	19.2	0.00e+00	0	43	0	1957691392	46	4136
2026-01-02 16:27:17.29	295.16	11.82	-38.2	-39.3	19.2	0.00e+00	0	43	0	1965031424	46	4155
2026-01-02 16:27:18.29	295.35	11.80	-38.2	-39.2	19.2	0.00e+00	0	43	0	1972371456	46	4134
2026-01-02 16:27:19.29	295.53	11.77	-38.2	-39.2	19.2	0.00e+00	0	43	0	1979711488	46	4133
2026-01-02 16:27:20.30	295.71	11.75	-38.3	-39.3	19.1	0.00e+00	0	43	0	1987051520	46	4166
2026-01-02 16:27:21.30	295.90	11.72	-38.2	-39.3	19.1	0.00e+00	0	43	0	1994391552	46	4165
2026-01-02 16:27:22.30	296.08	11.70	-38.4	-39.4	19.0	0.00e+00	0	43	0	2000683008	46	4228
2026-01-02 16:27:23.31	296.26	11.67	-38.4	-39.5	19.0	0.00e+00	0	43	0	2008023040	46	4262
2026-01-02 16:27:24.31	296.44	11.64	-38.4	-39.4	19.0	0.00e+00	0	43	0	2015363072	46	4233
2026-01-02 16:27:25.31	296.62	11.62	-38.4	-39.5	19.0	0.00e+00	0	43	0	2022703104	46	4252
2026-01-02 16:27:26.32	296.81	11.59	-38.5	-39.6	18.8	0.00e+00	0	43	0	2030043136	46	4315
2026-01-02 16:27:27.32	296.99	11.56	-38.6	-39.7	18.7	0.00e+00	0	43	0	2037383168	46	4374
2026-01-02 16:27:28.33	297.17	11.53	-38.7	-39.8	18.7	0.00e+00	0	43	0	2044723200	46	4393
2026-01-02 16:27:29.33	297.35	11.51	-38.7	-39.8	18.7	0.00e+00	0	43	0	2052063232	46	4410
2026-01-02 16:27:30.33	297.53	11.48	-38.7	-39.8	18.6	0.00e+00	0	43	0	2059403264	46	4433
2026-01-02 16:27:31.34	297.71	11.45	-38.7	-39.8	18.6	0.00e+00	0	43	0	2066743296	47	4177
2026-01-02 16:27:32.34	297.89	11.42	-38.6	-39.7	18.7	0.00e+00	0	43	0	2074083328	47	4134
2026-01-02 16:27:33.34	298.07	11.39	-38.6	-39.7	18.7	0.00e+00	0	43	0	2080374784	47	4113
2026-01-02 16:27:34.35	298.25	11.36	-38.7	-39.8	18.7	0.00e+00	0	43	0	2087714816	47	4163
2026-01-02 16:27:35.35	298.43	11.34	-38.8	-39.9	18.6	0.00e+00	0	43	0	2095054848	47	4200
2026-01-02 16:27:36.35	298.60	11.31	-38.7	-39.8	18.6	0.00e+00	0	43	0	2102394880	47	4169
2026-01-02 16:27:37.36	298.78	11.28	-38.5	-39.6	18.8	0.00e+00	0	43	0	2109734912	47	4060
2026-01-02 16:27:38.36	298.96	11.25	-38.5	-39.6	18.8	0.00e+00	0	43	0	2117074944	47	4063
2026-01-02 16:27:39.37	299.14	11.22	-38.6	-39.7	18.7	0.00e+00	0	43	0	2124414976	47	4111
2026-01-02 16:27:40.37	299.31	11.19	-38.5	-39.6	18.8	0.00e+00	0	43	0	2131755008	47	4078
2026-01-02 16:27:41.38	299.49	11.16	-38.5	-39.6	18.8	0.00e+00	0	43	0	2139095040	47	4061
2026-01-02 16:27:42.38	299.67	11.13	-38.6	-39.7	18.6	0.00e+00	0	43	0	2146435072	47	4107
2026-01-02 16:27:43.38	299.84	11.09	-38.5	-39.6	18.8	0.00e+00	0	43	0	2153775104	47	4083
2026-01-02 16:27:44.39	300.02	11.06	-38.7	-39.8	18.6	0.00e+00	0	43	0	2161115136	47	4147
2026-01-02 16:27:45.39	300.19	11.03	-38.6	-39.7	18.7	0.00e+00	0	43	0	2167406592	47	4111
2026-01-02 16:27:46.39	300.37	11.00	-38.8	-39.9	18.5	0.00e+00	0	43	0	2174746624	47	4217
2026-01-02 16:27:47.40	300.54	10.97	-38.8	-39.9	18.5	0.00e+00	0	43	0	2182086656	47	4206
2026-01-02 16:27:48.40	300.71	10.94	-38.8	-39.9	18.4	0.00e+00	0	43	0	2189426688	47	4238
2026-01-02 16:27:49.41	300.89	10.91	-38.8	-39.9	18.5	0.00e+00	0	43	0	2196766720	47	4208
2026-01-02 16:27:50.41	301.06	10.87	-38.8	-40.0	18.4	0.00e+00	0	43	0	2204106752	47	4243
2026-01-02 16:27:51.41	301.23	10.84	-38.8	-39.9	18.5	0.00e+00	0	43	0	2211446784	47	4220
2026-01-02 16:27:52.42	301.41	10.81	-38.9	-40.0	18.4	0.00e+00	0	43	0	2218786816	47	4253
2026-01-02 16:27:53.42	301.58	10.78	-39.0	-40.1	18.3	0.00e+00	0	43	0	2226126848	47	4315
2026-01-02 16:27:54.43	301.75	10.74	-39.0	-40.1	18.3	0.00e+00	0	43	0	2233466880	47	4313
2026-01-02 16:27:55.43	301.92	10.71	-38.9	-40.1	18.3	0.00e+00	0	43	0	2240806912	47	4293
2026-01-02 16:27:56.44	302.09	10.68	-38.9	-40.0	18.4	0.00e+00	0	43	0	2248146944	47	4288
2026-01-02 16:27:57.44	302.26	10.64	-38.8	-39.9	18.4	0.00e+00	0	43	0	2254438400	47	4229
2026-01-02 16:27:58.44	302.43	10.61	-39.0	-40.1	18.3	0.00e+00	0	43	0	2261778432	47	4323
2026-01-02 16:27:59.44	302.60	10.58	-39.0	-40.1	18.3	0.00e+00	0	43	0	2269118464	47	4314
2026-01-02 16:28:00.45	302.77	10.54	-39.0	-40.2	18.2	0.00e+00	0	43	0	2276458496	47	4354
2026-01-02 16:28:01.45	302.94	10.51	-39.1	-40.2	18.2	0.00e+00	0	43	0	2283798528	47	4383
2026-01-02 16:28:02.45	303.11	10.47	-39.1	-40.2	18.1	0.00e+00	0	43	0	2291138560	47	4384
2026-01-02 16:28:03.45	303.28	10.44	-39.0	-40.2	18.2	0.00e+00	0	43	0	2298478592	47	4349
2026-01-02 16:28:04.46	303.44	10.41	-39.2	-40.4	18.0	0.00e+00	0	43	0	2305818624	47	4451
2026-01-02 16:28:05.46	303.61	10.37	-39.1	-40.2	18.2	0.00e+00	0	43	0	2313158656	47	4385
2026-01-02 16:28:06.47	303.78	10.34	-38.9	-40.1	18.3	0.00e+00	0	43	0	2320498688	47	4299
2026-01-02 16:28:07.47	303.95	10.30	-38.9	-40.0	18.4	0.00e+00	0	43	0	2327838720	47	4276
2026-01-02 16:28:08.47	304.11	10.27	-39.0	-40.1	18.3	0.00e+00	0	43	0	2334130176	47	4299
2026-01-02 16:28:09.47	304.28	10.23	-39.0	-40.1	18.3	0.00e+00	0	43	0	2341470208	47	4322
2026-01-02 16:28:10.48	304.44	10.20	-39.1	-40.2	18.1	0.00e+00	0	43	0	2348810240	47	4389
2026-01-02 16:28:11.48	304.61	10.16	-39.0	-40.1	18.3	0.00e+00	0	43	0	2356150272	47	4322
2026-01-02 16:28:12.49	304.77	10.12	-39.0	-40.1	18.3	0.00e+00	0	43	0	2363490304	47	4320
2026-01-02 16:28:13.49	304.94	10.09	-39.0	-40.2	18.2	0.00e+00	0	43	0	2370830336	47	4361
2026-01-02 16:28:14.49	305.10	10.05	-39.1	-40.2	18.2	0.00e+00	0	43	0	2378170368	47	4365
2026-01-02 16:28:15.50	305.26	10.02	-39.1	-40.3	18.1	0.00e+00	0	43	0	2385510400	47	4398
2026-01-02 16:28:16.50	305.43	9.98	-39.2	-40.3	18.1	0.00e+00	0	43	0	2392850432	47	4416
2026-01-02 16:28:17.50	305.59	9.94	-39.2	-40.4	18.0	0.00e+00	0	43	0	2399141888	47	4445
2026-01-02 16:28:18.50	305.75	9.91	-39.2	-40.4	18.0	0.00e+00	0	43	0	2406481920	47	4464
2026-01-02 16:28:19.51	305.91	9.87	-39.3	-40.4	17.9	0.00e+00	0	43	0	2413821952	47	4488
2026-01-02 16:28:20.51	306.07	9.83	-39.5	-40.6	18.0	0.00e+00	0	43	0	2421161984	48	4328
2026-01-02 16:28:21.51	306.23	9.79	-39.4	-40.6	18.0	0.00e+00	0	43	0	2428502016	48	4313
2026-01-02 16:28:22.52	306.40	9.76	-39.4	-40.6	18.0	0.00e+00	0	43	0	2435842048	48	4296
2026-01-02 16:28:23.52	306.56	9.72	-39.4	-40.5	18.1	0.00e+00	0	43	0	2443182080	48	4279
2026-01-02 16:28:24.52	306.72	9.68	-39.3	-40.5	18.2	0.00e+00	0	43	0	2450522112	48	4260
2026-01-02 16:28:25.52	306.87	9.64	-39.2	-40.4	18.3	0.00e+00	0	43	0	2457862144	48	4198
2026-01-02 16:28:26.53	307.03	9.61	-39.2	-40.3	18.3	0.00e+00	0	43	0	2465202176	48	4159
2026-01-02 16:28:27.53	307.19	9.57	-39.1	-40.3	18.3	0.00e+00	0	43	0	2472542208	48	4153
2026-01-02 16:28:28.54	307.35	9.53	-39.2	-40.3	18.3	0.00e+00	0	43	0	2478833664	48	4168
2026-01-02 16:28:29.54	307.51	9.49	-39.2	-40.3	18.3	0.00e+00	0	43	0	2486173696	48	4164
2026-01-02 16:28:30.54	307.67	9.45	-39.3	-40.4	18.2	0.00e+00	0	43	0	2493513728	48	4218
2026-01-02 16:28:31.55	307.82	9.42	-39.4	-40.6	18.0	0.00e+00	0	43	0	2500853760	48	4296
2026-01-02 16:28:32.55	307.98	9.38	-39.7	-40.9	17.7	0.00e+00	0	43	0	2508193792	48	4452
2026-01-02 16:28:33.55	308.14	9.34	-39.5	-40.7	17.9	0.00e+00	0	43	0	2515533824	48	4370
2026-01-02 16:28:34.56	308.29	9.30	-39.6	-40.8	17.8	0.00e+00	0	43	0	2522873856	48	4410
2026-01-02 16:28:35.56	308.45	9.26	-39.6	-40.8	17.7	0.00e+00	0	43	0	2530213888	48	4432
2026-01-02 16:28:36.56	308.60	9.22	-39.6	-40.8	17.8	0.00e+00	0	43	0	2537553920	48	4401
2026-01-02 16:28:37.57	308.76	9.18	-39.7	-40.9	17.7	0.00e+00	0	43	0	2544893952	48	4472
2026-01-02 16:28:38.57	308.91	9.14	-39.8	-41.1	17.5	0.00e+00	0	43	0	2552233984	49	4310
2026-01-02 16:28:39.58	309.07	9.10	-39.8	-41.0	17.6	0.00e+00	0	43	0	2559574016	49	4259
2026-01-02 16:28:40.58	309.22	9.06	-39.6	-40.9	17.7	0.00e+00	0	43	0	2565865472	49	4202
2026-01-02 16:28:41.59	309.37	9.02	-39.7	-41.0	17.6	0.00e+00	0	43	0	2573205504	49	4248
2026-01-02 16:28:42.59	309.52	8.98	-41.6	-43.2	15.5	0.00e+00	0	43	0	2580545536	52	4649
2026-01-02 16:28:43.59	309.68	8.94	-49.0	-59.5	3.8	8.46e-01	0	43	104	2582642688	67	12685
2026-01-02 16:28:44.60	309.83	8.90	-49.0	-60.1	3.8	8.48e-01	0	43	104	2582642688	67	13582
2026-01-02 16:28:45.60	309.98	8.86	-49.5	-60.3	3.8	8.47e-01	0	43	104	2582642688	68	13176
2026-01-02 16:28:46.61	310.13	8.82	-49.5	-60.4	3.8	8.47e-01	0	43	104	2582642688	68	13377
2026-01-02 16:28:47.61	310.28	8.78	-49.4	-60.4	3.8	8.47e-01	0	43	104	2582642688	68	13373
2026-01-02 16:28:48.62	310.43	8.74	-49.5	-60.5	3.8	8.48e-01	0	43	104	2582642688	68	13465
2026-01-02 16:28:49.62	310.58	8.70	-49.3	-60.6	3.8	8.46e-01	0	43	104	2582642688	68	13606
2026-01-02 16:28:50.63	310.73	8.66	-49.6	-60.6	3.8	8.46e-01	0	43	104	2582642688	68	13623
2026-01-02 16:28:51.63	310.88	8.62	-49.8	-60.6	3.8	8.47e-01	0	43	104	2582642688	69	12823
2026-01-02 16:28:52.63	311.03	8.58	-49.8	-60.5	3.8	8.47e-01	0	43	104	2582642688	69	12791
2026-01-02 16:28:53.64	311.18	8.54	-49.8	-60.5	3.8	8.47e-01	0	43	104	2582642688	69	12779
2026-01-02 16:28:54.64	311.33	8.50	-49.7	-60.5	3.8	8.47e-01	0	43	104	2582642688	69	12760
2026-01-02 16:28:55.65	311.47	8.46	-49.9	-60.6	3.8	8.48e-01	0	43	104	2582642688	69	12853
2026-01-02 16:28:56.65	311.62	8.42	-49.7	-60.6	3.8	8.47e-01	0	43	104	2582642688	69	12856
2026-01-02 16:28:57.66	311.77	8.37	-49.8	-60.6	3.8	8.48e-01	0	43	104	2582642688	69	12823
2026-01-02 16:28:58.66	311.91	8.33	-49.8	-60.6	3.8	8.47e-01	0	43	104	2582642688	69	12870
2026-01-02 16:28:59.67	312.06	8.29	-49.7	-60.6	3.8	8.47e-01	0	43	104	2582642688	69	12825
2026-01-02 16:29:00.67	312.20	8.25	-49.6	-60.5	3.8	8.47e-01	0	43	104	2582642688	69	12725
2026-01-02 16:29:01.67	312.35	8.21	-49.7	-60.5	3.8	8.47e-01	0	43	104	2582642688	69	12714
2026-01-02 16:29:02.68	312.49	8.17	-49.5	-60.5	3.8	8.47e-01	0	43	104	2582642688	69	12695
2026-01-02 16:29:03.68	312.64	8.12	-49.5	-60.5	3.8	8.46e-01	0	43	104	2582642688	69	12729
2026-01-02 16:29:04.69	312.78	8.08	-49.5	-60.5	3.8	8.46e-01	0	43	104	2582642688	69	12717
2026-01-02 16:29:05.69	312.93	8.04	-49.4	-60.4	3.8	8.46e-01	0	43	104	2582642688	69	12664
2026-01-02 16:29:06.70	313.07	8.00	-49.4	-60.4	3.8	8.46e-01	0	43	104	2582642688	69	12617
2026-01-02 16:29:07.70	313.21	7.96	-49.4	-60.5	3.8	8.48e-01	0	43	104	2582642688	69	12700
2026-01-02 16:29:08.71	313.35	7.91	-49.4	-60.4	3.8	8.47e-01	0	43	104	2582642688	69	12660
2026-01-02 16:29:09.71	313.50	7.87	-49.4	-60.5	3.8	8.45e-01	0	43	104	2582642688	69	12720
2026-01-02 16:29:10.72	313.64	7.83	-49.5	-60.5	3.8	8.47e-01	0	43	104	2582642688	69	12711
2026-01-02 16:29:11.72	313.78	7.79	-49.4	-60.5	3.8	8.47e-01	0	43	104	2582642688	69	12691
2026-01-02 16:29:12.72	313.92	7.74	-49.4	-60.4	3.8	8.46e-01	0	43	104	2582642688	69	12640
2026-01-02 16:29:13.73	314.06	7.70	-49.5	-60.5	3.8	8.47e-01	0	43	104	2582642688	69	12721
2026-01-02 16:29:14.73	314.20	7.66	-49.5	-60.5	3.8	8.47e-01	0	43	104	2582642688	69	12753
2026-01-02 16:29:15.74	314.34	7.62	-49.5	-60.5	3.8	8.46e-01	0	43	104	2582642688	69	12738
2026-01-02 16:29:16.74	314.48	7.57	-49.4	-60.5	3.8	8.46e-01	0	43	104	2582642688	69	12673
2026-01-02 16:29:17.75	314.62	7.53	-49.5	-60.5	3.8	8.47e-01	0	43	104	2582642688	69	12683
2026-01-02 16:29:18.75	314.75	7.49	-49.5	-60.4	3.8	8.49e-01	0	43	104	2582642688	69	12622
2026-01-02 16:29:19.76	314.89	7.44	-49.5	-60.4	3.8	8.47e-01	0	43	104	2582642688	69	12603
2026-01-02 16:29:20.76	315.03	7.40	-49.4	-60.4	3.8	8.48e-01	0	43	104	2582642688	69	12640
2026-01-02 16:29:21.76	315.17	7.36	-49.4	-60.5	3.8	8.47e-01	0	43	104	2582642688	69	12719
2026-01-02 16:29:22.77	315.30	7.31	-49.4	-60.4	3.8	8.48e-01	0	43	104	2582642688	69	12659
2026-01-02 16:29:23.78	315.44	7.27	-49.5	-60.5	3.8	8.46e-01	0	43	104	2582642688	69	12684
2026-01-02 16:29:24.78	315.58	7.23	-49.4	-60.4	3.8	8.46e-01	0	43	104	2582642688	69	12656
2026-01-02 16:29:25.78	315.71	7.18	-49.4	-60.4	3.8	8.47e-01	0	44	104	2582642688	69	12655
2026-01-02 16:29:26.79	315.85	7.14	-49.4	-60.5	3.8	8.47e-01	0	43	104	2582642688	69	12700
2026-01-02 16:29:27.79	315.98	7.10	-49.4	-60.4	3.8	8.46e-01	0	43	104	2582642688	69	12611
2026-01-02 16:29:28.80	316.12	7.05	-49.4	-60.4	3.8	8.46e-01	0	43	104	2582642688	69	12630
2026-01-02 16:29:29.80	316.25	7.01	-49.5	-60.5	3.8	8.45e-01	0	43	104	2582642688	69	12676
2026-01-02 16:29:30.80	316.38	6.97	-49.5	-60.5	3.8	8.47e-01	0	43	104	2582642688	69	12679
2026-01-02 16:29:31.81	316.52	6.92	-49.5	-60.4	3.8	8.48e-01	0	43	104	2582642688	69	12613
2026-01-02 16:29:32.81	316.65	6.88	-49.4	-60.4	3.8	8.47e-01	0	43	104	2582642688	69	12618
2026-01-02 16:29:33.82	316.78	6.83	-49.5	-60.4	3.8	8.47e-01	0	43	104	2582642688	69	12646
2026-01-02 16:29:34.82	316.91	6.79	-49.5	-60.4	3.8	8.47e-01	0	43	104	2582642688	69	12658
2026-01-02 16:29:35.83	317.04	6.75	-49.5	-60.5	3.8	8.47e-01	0	43	104	2582642688	69	12739
2026-01-02 16:29:36.83	317.18	6.70	-49.4	-60.5	3.8	8.47e-01	0	43	104	2582642688	69	12707
2026-01-02 16:29:37.84	317.31	6.66	-49.4	-60.5	3.8	8.47e-01	0	43	104	2582642688	69	12708
2026-01-02 16:29:38.84	317.44	6.61	-49.4	-60.5	3.8	8.46e-01	0	43	104	2582642688	69	12782
2026-01-02 16:29:39.84	317.57	6.57	-49.4	-60.5	3.8	8.48e-01	0	43	104	2582642688	69	12665
2026-01-02 16:29:40.85	317.70	6.53	-49.4	-60.4	3.8	8.47e-01	0	43	104	2582642688	69	12645
2026-01-02 16:29:41.86	317.83	6.48	-49.5	-60.5	3.8	8.49e-01	0	43	104	2582642688	69	12681
2026-01-02 16:29:42.86	317.96	6.44	-49.5	-60.4	3.8	8.46e-01	0	43	104	2582642688	69	12651
2026-01-02 16:29:43.86	318.08	6.39	-49.5	-60.4	3.8	8.47e-01	0	43	104	2582642688	69	12660
2026-01-02 16:29:44.87	318.21	6.35	-49.4	-60.5	3.8	8.47e-01	0	43	104	2582642688	69	12666
2026-01-02 16:29:45.87	318.34	6.30	-49.4	-60.4	3.8	8.47e-01	0	43	104	2582642688	69	12650
2026-01-02 16:29:46.88	318.47	6.26	-49.4	-60.5	3.8	8.47e-01	0	43	104	2582642688	69	12666
2026-01-02 16:29:47.88	318.59	6.21	-49.5	-60.4	3.8	8.47e-01	0	43	104	2582642688	69	12597
2026-01-02 16:29:48.89	318.72	6.17	-49.4	-60.5	3.8	8.47e-01	0	43	104	2582642688	69	12690
2026-01-02 16:29:49.89	318.85	6.13	-49.4	-60.5	3.8	8.47e-01	0	43	104	2582642688	69	12668
2026-01-02 16:29:50.90	318.97	6.08	-49.4	-60.4	3.8	8.46e-01	0	43	104	2582642688	69	12639
2026-01-02 16:29:51.90	319.10	6.04	-49.5	-60.5	3.8	8.46e-01	0	43	104	2582642688	69	12702
2026-01-02 16:29:52.90	319.22	5.99	-49.5	-60.4	3.8	8.47e-01	0	43	104	2582642688	69	12608
2026-01-02 16:29:53.91	319.35	5.95	-49.5	-60.5	3.8	8.47e-01	0	43	104	2582642688	69	12697
2026-01-02 16:29:54.91	319.47	5.90	-49.4	-60.5	3.8	8.48e-01	0	43	104	2582642688	69	12682
2026-01-02 16:29:55.92	319.60	5.86	-49.5	-60.4	3.8	8.47e-01	0	43	104	2582642688	69	12638
2026-01-02 16:29:56.92	319.72	5.81	-49.5	-60.5	3.8	8.48e-01	0	43	104	2582642688	69	12675
2026-01-02 16:29:57.93	319.85	5.77	-49.5	-60.4	3.8	8.47e-01	0	43	104	2582642688	69	12631
2026-01-02 16:29:58.93	319.97	5.72	-49.5	-60.5	3.8	8.46e-01	0	43	104	2582642688	69	12747
2026-01-02 16:29:59.94	320.09	5.68	-49.4	-60.4	3.8	8.47e-01	0	43	104	2582642688	69	12604
2026-01-02 16:30:00.94	320.21	5.63	-49.5	-60.5	3.8	8.47e-01	0	43	104	2582642688	69	12719
2026-01-02 16:30:01.94	320.33	5.59	-49.4	-60.4	3.8	8.47e-01	0	43	104	2582642688	69	12538
2026-01-02 16:30:02.95	320.46	5.54	-49.5	-60.4	3.8	8.47e-01	0	43	104	2582642688	69	12640
2026-01-02 16:30:03.95	320.58	5.50	-49.5	-60.4	3.8	8.48e-01	0	43	104	2582642688	69	12650
2026-01-02 16:30:04.96	320.70	5.45	-49.4	-60.5	3.8	8.48e-01	0	43	104	2582642688	69	12702
2026-01-02 16:30:05.96	320.82	5.41	-49.4	-60.4	3.8	8.46e-01	0	43	104	2582642688	69	12589
2026-01-02 16:30:06.96	320.94	5.36	-49.5	-60.4	3.8	8.47e-01	0	43	104	2582642688	69	12615
2026-01-02 16:30:07.97	321.06	5.32	-49.4	-60.4	3.8	8.46e-01	0	43	104	2582642688	69	12651
2026-01-02 16:30:08.97	321.18	5.27	-49.5	-60.4	3.8	8.47e-01	0	44	104	2582642688	69	12617
2026-01-02 16:30:09.98	321.30	5.23	-49.5	-60.5	3.8	8.47e-01	0	43	104	2582642688	69	12669
2026-01-02 16:30:10.98	321.42	5.18	-49.5	-60.5	3.8	8.47e-01	0	43	104	2582642688	69	12674
2026-01-02 16:30:11.99	321.53	5.14	-49.5	-60.4	3.8	8.48e-01	0	43	104	2582642688	69	12595
2026-01-02 16:30:12.99	321.65	5.09	-49.4	-60.4	3.8	8.47e-01	0	43	104	2582642688	69	12610
2026-01-02 16:30:14.00	321.77	5.05	-49.5	-60.4	3.8	8.46e-01	0	43	104	2582642688	69	12636
2026-01-02 16:30:15.00	321.89	5.00	-49.5	-60.5	3.8	8.47e-01	0	43	104	2582642688	69	12684

#Closed at: 2026-01-02 16:30:16
#Recorded file [2582 MB]: D:/Data/31040_260102_192128.dat