passes_logs/2026/01/02/T1/T1__20260102_224030_NOAA_20_JPSS-1_rec.log

#Pass ID: 20260102_224030_NOAA 20 (JPSS-1)
#Satellite: NOAA 20 (JPSS-1)
#Configuration: NOAA 20
#almurnet v.1.7.20251203
#Start time: 2026-01-02 22:40:32

#Version: 2.0.20230620
#Station: T1
#Location: 37.570604 lon 55.790049 lat
#TLE: 1 43013U 17073A   26002.21975278  .00000202  00000+0  11669-3 0  9999
#TLE: 2 43013  98.7622 303.2950 0001915  57.9213 302.2149 14.19532512420923

#Time	Az	El	Level	Level2	SNR	BER	BlckErr	Temp	State	Recorded	gain1	gain2
2026-01-02 22:40:32.13	24.36	5.13	-48.2	-63.8	3.8	1.49e+00	0	37	0	0	68	21184
2026-01-02 22:40:33.12	24.42	5.19	-48.1	-63.7	3.8	1.49e+00	0	37	104	0	66	23411
2026-01-02 22:40:34.13	24.48	5.26	-48.1	-63.7	3.8	1.49e+00	0	37	104	0	66	23407
2026-01-02 22:40:35.13	24.54	5.33	-48.1	-63.7	3.8	1.49e+00	0	37	104	0	66	23377
2026-01-02 22:40:36.13	24.60	5.39	-48.1	-63.6	3.8	1.49e+00	0	37	104	0	66	23292
2026-01-02 22:40:37.14	24.67	5.46	-48.1	-63.7	3.8	1.49e+00	0	37	104	0	66	23348
2026-01-02 22:40:38.14	24.73	5.52	-48.1	-63.7	3.8	1.49e+00	0	37	104	0	66	23346
2026-01-02 22:40:39.14	24.79	5.59	-48.1	-63.7	3.8	1.49e+00	0	37	104	0	66	23334
2026-01-02 22:40:40.15	24.85	5.66	-48.1	-63.7	3.8	1.49e+00	0	37	104	0	66	23342
2026-01-02 22:40:41.15	24.91	5.73	-48.1	-63.7	3.8	1.49e+00	0	37	104	0	66	23405
2026-01-02 22:40:42.15	24.98	5.79	-48.1	-63.7	3.8	1.49e+00	0	37	104	0	66	23375
2026-01-02 22:40:43.16	25.04	5.86	-48.1	-63.7	3.8	1.49e+00	0	37	104	0	66	23367
2026-01-02 22:40:44.16	25.10	5.93	-48.1	-63.6	3.8	1.49e+00	0	37	104	0	66	23291
2026-01-02 22:40:45.16	25.17	5.99	-48.1	-63.7	3.8	1.49e+00	0	38	104	0	66	23345
2026-01-02 22:40:46.17	25.23	6.06	-48.1	-63.7	3.8	1.49e+00	0	37	104	0	66	23371
2026-01-02 22:40:47.17	25.29	6.13	-48.1	-63.7	3.8	1.49e+00	0	37	104	0	66	23405
2026-01-02 22:40:48.18	25.36	6.20	-48.1	-63.6	3.8	1.49e+00	0	38	104	0	66	23296
2026-01-02 22:40:49.18	25.42	6.27	-48.1	-63.7	3.8	1.49e+00	0	38	104	0	66	23318
2026-01-02 22:40:50.18	25.49	6.34	-48.1	-63.6	3.8	1.49e+00	0	37	104	0	66	23105
2026-01-02 22:40:51.19	25.55	6.40	-48.1	-63.6	3.8	1.49e+00	0	37	104	0	66	23108
2026-01-02 22:40:52.19	25.62	6.47	-48.1	-63.5	3.8	1.49e+00	0	38	104	0	66	23014
2026-01-02 22:40:53.20	25.68	6.54	-48.0	-63.5	3.8	1.49e+00	0	38	104	0	66	23039
2026-01-02 22:40:54.20	25.75	6.61	-48.0	-63.5	3.8	1.49e+00	0	38	104	0	66	22946
2026-01-02 22:40:55.20	25.82	6.68	-48.0	-63.5	3.8	1.49e+00	0	38	104	0	66	22960
2026-01-02 22:40:56.21	25.88	6.75	-48.0	-63.5	3.8	1.49e+00	0	38	104	0	66	22975
2026-01-02 22:40:57.21	25.95	6.82	-48.1	-63.5	3.8	1.49e+00	0	38	104	0	66	22866
2026-01-02 22:40:58.21	26.02	6.89	-48.0	-63.4	3.8	1.49e+00	0	38	104	0	66	22694
2026-01-02 22:40:59.22	26.08	6.96	-48.0	-63.4	3.8	1.49e+00	0	38	104	0	66	22527
2026-01-02 22:41:00.22	26.15	7.03	-48.0	-63.2	3.8	1.49e+00	0	38	104	0	66	22253
2026-01-02 22:41:01.23	26.22	7.10	-48.0	-63.2	3.8	1.49e+00	0	38	104	0	66	22064
2026-01-02 22:41:02.23	26.29	7.17	-48.0	-63.1	3.8	1.49e+00	0	38	104	0	66	21964
2026-01-02 22:41:03.24	26.36	7.24	-48.0	-63.1	3.8	1.49e+00	0	38	104	0	66	21975
2026-01-02 22:41:04.24	26.43	7.31	-48.0	-63.2	3.8	1.49e+00	0	38	104	0	66	22183
2026-01-02 22:41:05.24	26.50	7.38	-48.0	-63.2	3.8	1.49e+00	0	38	104	0	66	22190
2026-01-02 22:41:06.25	26.57	7.45	-48.0	-63.3	3.8	1.49e+00	0	38	104	0	66	22422
2026-01-02 22:41:07.25	26.64	7.52	-48.0	-63.4	3.8	1.49e+00	0	38	104	0	66	22549
2026-01-02 22:41:08.26	26.71	7.59	-48.0	-63.4	3.8	1.49e+00	0	38	104	0	66	22701
2026-01-02 22:41:09.26	26.78	7.67	-48.0	-63.3	3.8	1.49e+00	0	38	104	0	66	22502
2026-01-02 22:41:10.26	26.85	7.74	-48.0	-63.2	3.8	1.49e+00	0	38	104	0	66	22249
2026-01-02 22:41:11.27	26.92	7.81	-48.0	-63.0	3.8	1.49e+00	0	38	104	0	66	21704
2026-01-02 22:41:12.27	26.99	7.88	-48.0	-62.8	3.8	1.49e+00	0	38	104	0	66	21093
2026-01-02 22:41:13.28	27.06	7.95	-48.0	-62.5	3.8	1.49e+00	0	38	104	0	66	20450
2026-01-02 22:41:14.28	27.13	8.03	-48.0	-62.2	3.8	1.49e+00	0	38	104	0	66	19684
2026-01-02 22:41:15.28	27.21	8.10	-48.0	-62.0	3.8	1.49e+00	0	38	104	0	66	19189
2026-01-02 22:41:16.29	27.28	8.17	-47.9	-61.7	3.8	1.49e+00	0	38	104	0	66	18699
2026-01-02 22:41:17.29	27.35	8.24	-47.9	-61.7	3.8	1.49e+00	0	38	104	0	66	18586
2026-01-02 22:41:18.30	27.43	8.32	-47.9	-61.7	3.8	1.48e+00	0	38	104	0	66	18617
2026-01-02 22:41:19.30	27.50	8.39	-48.0	-61.7	3.8	1.49e+00	0	38	104	0	66	18615
2026-01-02 22:41:20.31	27.58	8.46	-48.0	-61.8	3.8	1.49e+00	0	38	104	0	66	18877
2026-01-02 22:41:21.31	27.65	8.54	-48.0	-61.9	3.8	1.49e+00	0	38	104	0	66	19158
2026-01-02 22:41:22.32	27.73	8.61	-48.0	-61.8	3.8	1.49e+00	0	39	104	0	66	18741
2026-01-02 22:41:23.32	27.80	8.68	-47.9	-61.4	3.8	1.48e+00	0	38	104	0	66	18058
2026-01-02 22:41:24.32	27.88	8.76	-47.9	-60.8	4.0	1.49e+00	0	38	0	0	66	16833
2026-01-02 22:41:25.33	27.95	8.83	-47.8	-60.1	4.2	1.43e+00	0	38	0	0	66	15467
2026-01-02 22:41:26.34	28.03	8.91	-47.8	-59.1	4.5	1.20e+00	0	38	0	0	66	13835
2026-01-02 22:41:27.34	28.11	8.98	-47.6	-57.9	5.1	8.06e-01	0	38	0	2097152	66	12072
2026-01-02 22:41:28.34	28.18	9.06	-47.5	-57.3	5.5	5.30e-01	0	38	0	4194304	66	11186
2026-01-02 22:41:29.35	28.26	9.13	-47.7	-58.0	5.1	5.82e-01	0	39	0	6291456	66	12150
2026-01-02 22:41:30.35	28.34	9.21	-47.7	-58.7	4.7	1.42e+00	0	39	0	6291456	66	13198
2026-01-02 22:41:31.35	28.42	9.28	-47.6	-57.5	5.5	1.51e-01	0	39	0	8388608	66	11500
2026-01-02 22:41:32.36	28.50	9.36	-47.9	-60.6	3.9	1.49e+00	0	38	104	8388608	66	16389
2026-01-02 22:41:33.36	28.58	9.43	-44.2	-47.9	14.7	7.00e-07	0	39	0	8388608	60	5357
2026-01-02 22:41:34.36	28.65	9.51	-44.0	-47.6	15.0	0.00e+00	0	39	0	10485760	60	5164
2026-01-02 22:41:35.36	28.73	9.58	-43.6	-46.8	15.7	0.00e+00	0	39	0	12582912	59	5029
2026-01-02 22:41:36.36	28.81	9.66	-43.5	-46.6	16.0	7.00e-07	0	39	0	14680064	59	4918
2026-01-02 22:41:37.37	28.90	9.74	-43.3	-46.4	16.2	0.00e+00	0	38	0	15728640	58	5063
2026-01-02 22:41:38.37	28.98	9.81	-43.1	-46.1	16.5	0.00e+00	0	39	0	17825792	58	4892
2026-01-02 22:41:39.38	29.06	9.89	-43.0	-46.0	16.6	0.00e+00	0	39	0	19922944	58	4817
2026-01-02 22:41:40.38	29.14	9.97	-42.9	-45.9	16.7	0.00e+00	0	39	0	22020096	57	5072
2026-01-02 22:41:41.38	29.22	10.04	-42.9	-45.9	16.7	0.00e+00	0	39	0	24117248	57	5048
2026-01-02 22:41:42.38	29.30	10.12	-42.9	-45.9	16.6	0.00e+00	0	39	0	25165824	57	5084
2026-01-02 22:41:43.39	29.39	10.20	-42.9	-45.8	16.8	0.00e+00	0	39	0	27262976	57	4985
2026-01-02 22:41:44.44	29.48	10.28	-42.8	-45.6	17.0	0.00e+00	0	39	0	29360128	57	4902
2026-01-02 22:41:45.39	29.55	10.36	-42.8	-45.6	17.0	0.00e+00	0	39	0	31457280	57	4904
2026-01-02 22:41:46.39	29.64	10.43	-42.8	-45.6	17.0	0.00e+00	0	39	0	33554432	57	4917
2026-01-02 22:41:47.40	29.72	10.51	-42.8	-45.6	17.0	0.00e+00	0	39	0	34603008	57	4897
2026-01-02 22:41:48.39	29.81	10.59	-42.8	-45.6	17.0	0.00e+00	0	39	0	36700160	57	4914
2026-01-02 22:41:49.40	29.89	10.67	-42.8	-45.6	17.0	0.00e+00	0	39	0	38797312	57	4892
2026-01-02 22:41:50.40	29.98	10.75	-42.7	-45.6	17.0	0.00e+00	0	39	0	40894464	57	4907
2026-01-02 22:41:51.40	30.07	10.83	-42.7	-45.6	17.0	0.00e+00	0	39	0	42991616	57	4892
2026-01-02 22:41:52.40	30.15	10.91	-42.8	-45.6	17.0	0.00e+00	0	39	0	44040192	57	4920
2026-01-02 22:41:53.41	30.24	10.99	-42.7	-45.5	17.0	0.00e+00	0	39	0	46137344	57	4858
2026-01-02 22:41:54.41	30.33	11.06	-42.7	-45.4	17.2	0.00e+00	0	39	0	48234496	57	4808
2026-01-02 22:41:55.41	30.42	11.14	-42.7	-45.5	17.1	0.00e+00	0	39	0	50331648	57	4833
2026-01-02 22:41:56.42	30.51	11.23	-42.8	-45.5	17.1	0.00e+00	0	39	0	51380224	57	4868
2026-01-02 22:41:57.42	30.60	11.31	-42.7	-45.5	17.1	0.00e+00	0	39	0	53477376	57	4838
2026-01-02 22:41:58.46	30.69	11.39	-42.6	-45.3	17.3	0.00e+00	0	39	0	55574528	57	4735
2026-01-02 22:41:59.49	30.78	11.47	-42.7	-45.4	17.2	0.00e+00	0	39	0	57671680	57	4792
2026-01-02 22:42:00.49	30.87	11.55	-42.7	-45.5	17.2	0.00e+00	0	39	0	59768832	57	4820
2026-01-02 22:42:01.55	30.97	11.64	-42.7	-45.4	17.2	0.00e+00	0	39	0	61865984	57	4811
2026-01-02 22:42:02.42	31.05	11.71	-42.8	-45.5	17.1	0.00e+00	0	39	0	62914560	57	4853
2026-01-02 22:42:03.56	31.15	11.80	-42.7	-45.4	17.2	0.00e+00	0	39	0	65011712	57	4808
2026-01-02 22:42:04.42	31.23	11.87	-42.7	-45.4	17.3	0.00e+00	0	39	0	67108864	57	4785
2026-01-02 22:42:05.57	31.34	11.97	-42.7	-45.5	17.2	0.00e+00	0	39	0	69206016	57	4815
2026-01-02 22:42:06.42	31.42	12.04	-42.6	-45.3	17.4	0.00e+00	0	39	0	70254592	57	4726
2026-01-02 22:42:07.57	31.52	12.13	-42.6	-45.3	17.4	0.00e+00	0	39	0	72351744	57	4725
2026-01-02 22:42:08.43	31.61	12.20	-42.6	-45.3	17.3	0.00e+00	0	39	0	74448896	57	4750
2026-01-02 22:42:09.57	31.71	12.30	-42.5	-45.3	17.4	0.00e+00	0	39	0	76546048	57	4724
2026-01-02 22:42:10.43	31.80	12.37	-42.5	-45.2	17.4	0.00e+00	0	39	0	78643200	56	4980
2026-01-02 22:42:11.58	31.91	12.46	-42.5	-45.2	17.5	0.00e+00	0	39	0	80740352	56	4965
2026-01-02 22:42:12.43	31.99	12.53	-42.4	-45.2	17.5	0.00e+00	0	39	0	81788928	56	4935
2026-01-02 22:42:13.58	32.10	12.63	-42.4	-45.1	17.6	0.00e+00	0	39	0	83886080	56	4900
2026-01-02 22:42:14.44	32.18	12.70	-42.5	-45.2	17.5	0.00e+00	0	39	0	85983232	56	4961
2026-01-02 22:42:15.58	32.29	12.80	-42.5	-45.3	17.4	0.00e+00	0	39	0	88080384	56	5016
2026-01-02 22:42:16.44	32.38	12.87	-42.5	-45.2	17.6	0.00e+00	0	39	0	89128960	56	4937
2026-01-02 22:42:17.59	32.49	12.97	-42.4	-45.1	17.6	0.00e+00	0	39	0	91226112	56	4914
2026-01-02 22:42:18.45	32.58	13.04	-42.4	-45.1	17.6	0.00e+00	0	39	0	93323264	56	4908
2026-01-02 22:42:19.59	32.69	13.14	-42.4	-45.1	17.7	0.00e+00	0	39	0	95420416	56	4879
2026-01-02 22:42:20.45	32.78	13.21	-42.3	-45.0	17.7	0.00e+00	0	39	0	97517568	56	4834
2026-01-02 22:42:21.59	32.89	13.31	-42.3	-44.9	17.8	0.00e+00	0	39	0	98566144	56	4777
2026-01-02 22:42:22.45	32.98	13.38	-42.3	-44.9	17.8	0.00e+00	0	39	0	100663296	56	4802
2026-01-02 22:42:23.60	33.10	13.48	-42.3	-44.9	17.9	0.00e+00	0	39	0	102760448	56	4768
2026-01-02 22:42:24.46	33.19	13.55	-42.2	-44.8	18.0	0.00e+00	0	39	0	104857600	56	4706
2026-01-02 22:42:25.61	33.31	13.65	-42.1	-44.7	18.1	0.00e+00	0	39	0	106954752	56	4656
2026-01-02 22:42:26.85	33.44	13.76	-42.1	-44.6	18.2	0.00e+00	0	39	0	109051904	56	4613
2026-01-02 22:42:27.71	33.53	13.83	-42.1	-44.6	18.1	0.00e+00	0	39	0	110100480	56	4648
2026-01-02 22:42:28.85	33.65	13.93	-42.1	-44.6	18.2	0.00e+00	0	39	0	113246208	56	4617
2026-01-02 22:42:29.71	33.74	14.01	-42.1	-44.6	18.1	0.00e+00	0	39	0	114294784	56	4640
2026-01-02 22:42:30.86	33.86	14.11	-42.1	-44.6	18.1	0.00e+00	0	39	0	116391936	56	4621
2026-01-02 22:42:31.72	33.95	14.18	-42.1	-44.7	18.1	0.00e+00	0	39	0	118489088	56	4661
2026-01-02 22:42:32.90	34.08	14.29	-42.2	-44.8	17.9	0.00e+00	0	39	0	120586240	56	4755
2026-01-02 22:42:33.75	34.17	14.36	-42.2	-44.8	17.9	0.00e+00	0	39	0	121634816	56	4742
2026-01-02 22:42:34.95	34.30	14.47	-42.3	-44.9	17.8	0.00e+00	0	39	0	123731968	56	4807
2026-01-02 22:42:35.81	34.40	14.54	-42.4	-45.0	17.7	0.00e+00	0	39	0	125829120	56	4869
2026-01-02 22:42:36.95	34.52	14.64	-42.4	-45.1	17.7	0.00e+00	0	39	0	127926272	56	4883
2026-01-02 22:42:37.81	34.62	14.72	-42.4	-45.1	17.7	0.00e+00	0	39	0	130023424	56	4885
2026-01-02 22:42:38.96	34.75	14.82	-42.4	-45.1	17.7	0.00e+00	0	39	0	132120576	56	4888
2026-01-02 22:42:39.82	34.84	14.90	-42.5	-45.2	17.6	0.00e+00	0	39	0	133169152	56	4952
2026-01-02 22:42:40.96	34.97	15.00	-42.5	-45.1	17.7	0.00e+00	0	39	0	135266304	56	4912
2026-01-02 22:42:41.82	35.07	15.08	-42.6	-45.3	17.5	0.00e+00	0	39	0	137363456	56	4985
2026-01-02 22:42:42.97	35.20	15.18	-42.6	-45.3	17.5	0.00e+00	0	39	0	139460608	56	5018
2026-01-02 22:42:43.83	35.30	15.26	-42.6	-45.4	17.4	0.00e+00	0	39	0	140509184	56	5046
2026-01-02 22:42:44.97	35.43	15.36	-42.7	-45.5	17.3	0.00e+00	0	39	0	142606336	56	5107
2026-01-02 22:42:45.83	35.53	15.44	-42.7	-45.5	17.2	0.00e+00	0	39	0	144703488	56	5151
2026-01-02 22:42:46.98	35.67	15.55	-42.8	-45.6	17.2	0.00e+00	0	39	0	146800640	56	5199
2026-01-02 22:42:47.83	35.77	15.62	-42.8	-45.7	17.1	0.00e+00	0	39	0	147849216	56	5256
2026-01-02 22:42:48.98	35.90	15.73	-42.9	-45.7	17.0	0.00e+00	0	39	0	149946368	56	5276
2026-01-02 22:42:49.84	36.00	15.81	-42.9	-45.8	17.0	0.00e+00	0	39	0	152043520	56	5317
2026-01-02 22:42:50.99	36.14	15.91	-43.0	-45.9	16.9	0.00e+00	0	39	0	154140672	56	5375
2026-01-02 22:42:51.84	36.24	15.99	-43.1	-46.0	16.8	0.00e+00	0	39	0	156237824	56	5411
2026-01-02 22:42:52.99	36.38	16.10	-43.1	-45.9	16.9	0.00e+00	0	39	0	158334976	56	5385
2026-01-02 22:42:53.85	36.49	16.18	-43.1	-45.9	16.9	0.00e+00	0	39	0	159383552	57	5097
2026-01-02 22:42:55.00	36.63	16.29	-43.0	-45.8	17.0	0.00e+00	0	39	0	161480704	57	4992
2026-01-02 22:42:55.86	36.73	16.37	-43.1	-45.9	17.0	0.00e+00	0	39	0	163577856	57	5066
2026-01-02 22:42:57.00	36.88	16.47	-43.0	-45.8	17.1	0.00e+00	0	39	0	165675008	57	4991
2026-01-02 22:42:57.86	36.98	16.55	-43.0	-45.7	17.1	0.00e+00	0	39	0	166723584	57	4955
2026-01-02 22:42:59.00	37.13	16.66	-42.9	-45.6	17.2	0.00e+00	0	39	0	168820736	57	4876
2026-01-02 22:42:59.86	37.24	16.74	-42.9	-45.6	17.2	0.00e+00	0	39	0	170917888	57	4905
2026-01-02 22:43:01.01	37.38	16.85	-42.9	-45.7	17.2	0.00e+00	0	39	0	173015040	57	4941
2026-01-02 22:43:01.87	37.49	16.93	-43.0	-45.7	17.2	0.00e+00	0	39	0	175112192	57	4952
2026-01-02 22:43:03.01	37.64	17.04	-43.1	-45.9	16.9	0.00e+00	0	39	0	177209344	57	5058
2026-01-02 22:43:03.87	37.75	17.12	-43.0	-45.7	17.1	0.00e+00	0	39	0	178257920	57	4981
2026-01-02 22:43:05.02	37.90	17.23	-43.1	-45.9	17.0	0.00e+00	0	39	0	180355072	57	5049
2026-01-02 22:43:05.88	38.01	17.31	-43.2	-46.0	16.9	0.00e+00	0	39	0	182452224	57	5111
2026-01-02 22:43:07.03	38.16	17.42	-43.2	-46.0	16.8	0.00e+00	0	39	0	184549376	57	5148
2026-01-02 22:43:07.88	38.28	17.50	-43.2	-46.0	16.9	0.00e+00	0	39	0	185597952	57	5112
2026-01-02 22:43:09.03	38.43	17.61	-43.2	-46.0	16.8	0.00e+00	0	39	0	187695104	57	5138
2026-01-02 22:43:09.89	38.55	17.70	-43.3	-46.2	16.6	0.00e+00	0	39	0	189792256	57	5252
2026-01-02 22:43:11.04	38.70	17.81	-43.2	-46.0	16.9	0.00e+00	0	39	0	191889408	57	5119
2026-01-02 22:43:11.90	38.82	17.89	-43.1	-45.9	16.9	0.00e+00	0	39	0	193986560	57	5090
2026-01-02 22:43:13.04	38.97	18.00	-43.2	-46.0	16.8	0.00e+00	0	39	0	195035136	57	5133
2026-01-02 22:43:13.90	39.09	18.09	-43.2	-46.0	16.8	0.00e+00	0	39	0	197132288	57	5146
2026-01-02 22:43:15.14	39.26	18.21	-43.3	-46.1	16.8	0.00e+00	0	39	0	199229440	57	5195
2026-01-02 22:43:16.00	39.38	18.29	-43.2	-46.0	16.9	0.00e+00	0	39	0	201326592	57	5101
2026-01-02 22:43:17.15	39.55	18.40	-43.2	-46.0	16.9	0.00e+00	0	39	0	203423744	57	5155
2026-01-02 22:43:18.00	39.67	18.49	-43.2	-46.0	16.9	0.00e+00	0	39	0	204472320	57	5158
2026-01-02 22:43:19.15	39.83	18.60	-43.2	-45.9	16.9	0.00e+00	0	39	0	206569472	57	5100
2026-01-02 22:43:20.01	39.95	18.69	-43.1	-45.9	16.9	0.00e+00	0	39	0	208666624	57	5088
2026-01-02 22:43:21.16	40.12	18.80	-43.1	-45.9	17.0	0.00e+00	0	39	0	210763776	57	5068
2026-01-02 22:43:22.02	40.24	18.89	-43.2	-46.0	16.9	0.00e+00	0	39	0	212860928	57	5145
2026-01-02 22:43:23.16	40.41	19.00	-43.0	-45.8	17.1	0.00e+00	0	39	0	214958080	57	5004
2026-01-02 22:43:24.02	40.53	19.09	-43.0	-45.7	17.2	0.00e+00	0	39	0	216006656	57	4959
2026-01-02 22:43:25.17	40.70	19.20	-42.9	-45.7	17.2	0.00e+00	0	39	0	218103808	57	4927
2026-01-02 22:43:26.03	40.83	19.29	-42.8	-45.5	17.4	0.00e+00	0	39	0	220200960	57	4824
2026-01-02 22:43:27.17	41.00	19.40	-42.8	-45.5	17.4	0.00e+00	0	39	0	222298112	57	4829
2026-01-02 22:43:28.03	41.13	19.49	-42.8	-45.4	17.5	0.00e+00	0	39	0	223346688	57	4801
2026-01-02 22:43:29.17	41.30	19.60	-42.8	-45.5	17.4	0.00e+00	0	39	0	225443840	57	4824
2026-01-02 22:43:30.03	41.44	19.69	-42.8	-45.5	17.4	0.00e+00	0	39	0	227540992	57	4824
2026-01-02 22:43:31.17	41.61	19.81	-42.9	-45.5	17.4	0.00e+00	0	39	0	229638144	57	4850
2026-01-02 22:43:32.03	41.74	19.89	-42.9	-45.5	17.4	0.00e+00	0	39	0	230686720	57	4863
2026-01-02 22:43:33.18	41.92	20.01	-42.9	-45.5	17.4	0.00e+00	0	39	0	233832448	57	4864
2026-01-02 22:43:34.04	42.06	20.10	-42.9	-45.5	17.4	0.00e+00	0	39	0	234881024	57	4861
2026-01-02 22:43:35.19	42.24	20.21	-42.8	-45.4	17.5	0.00e+00	0	39	0	236978176	57	4769
2026-01-02 22:43:36.05	42.37	20.30	-42.7	-45.3	17.6	0.00e+00	0	39	0	239075328	57	4716
2026-01-02 22:43:37.19	42.56	20.42	-42.7	-45.2	17.7	0.00e+00	0	39	0	241172480	57	4696
2026-01-02 22:43:38.05	42.69	20.51	-42.6	-45.1	17.8	0.00e+00	0	39	0	242221056	57	4629
2026-01-02 22:43:39.20	42.88	20.63	-42.6	-45.2	17.7	0.00e+00	0	39	0	244318208	57	4656
2026-01-02 22:43:40.06	43.02	20.71	-42.6	-45.2	17.8	0.00e+00	0	39	0	246415360	57	4659
2026-01-02 22:43:41.20	43.21	20.83	-42.6	-45.2	17.8	0.00e+00	0	39	0	248512512	57	4663
2026-01-02 22:43:42.06	43.35	20.92	-42.5	-45.1	17.8	0.00e+00	0	39	0	249561088	57	4611
2026-01-02 22:43:43.30	43.55	21.05	-42.6	-45.1	17.8	0.00e+00	0	39	0	252706816	57	4641
2026-01-02 22:43:44.16	43.70	21.14	-42.5	-45.1	17.8	0.00e+00	0	39	0	253755392	57	4636
2026-01-02 22:43:45.30	43.89	21.26	-42.5	-45.0	17.9	0.00e+00	0	39	0	255852544	56	4854
2026-01-02 22:43:46.17	44.04	21.35	-42.5	-45.0	17.9	0.00e+00	0	39	0	257949696	56	4852
2026-01-02 22:43:47.31	44.23	21.47	-42.3	-44.7	18.2	0.00e+00	0	39	0	260046848	56	4703
2026-01-02 22:43:48.17	44.38	21.56	-42.1	-44.6	18.3	0.00e+00	0	39	0	261095424	56	4626
2026-01-02 22:43:49.52	44.61	21.70	-41.8	-44.2	18.5	0.00e+00	0	39	0	264241152	55	4686
2026-01-02 22:43:50.24	44.74	21.78	-41.8	-44.2	18.5	0.00e+00	0	39	0	265289728	55	4701
2026-01-02 22:43:51.53	44.96	21.91	-41.7	-44.1	18.6	0.00e+00	0	39	0	267386880	55	4640
2026-01-02 22:43:52.25	45.09	21.99	-41.6	-44.0	18.7	0.00e+00	0	39	0	269484032	55	4587
2026-01-02 22:43:53.54	45.32	22.12	-41.6	-44.0	18.7	0.00e+00	0	39	0	271581184	55	4590
2026-01-02 22:43:54.25	45.45	22.20	-41.7	-44.1	18.7	0.00e+00	0	39	0	272629760	55	4612
2026-01-02 22:43:55.54	45.68	22.34	-41.7	-44.0	18.6	0.00e+00	0	39	0	274726912	55	4597
2026-01-02 22:43:56.26	45.81	22.41	-41.7	-44.1	18.6	0.00e+00	0	39	0	276824064	55	4630
2026-01-02 22:43:57.54	46.04	22.55	-41.7	-44.1	18.6	0.00e+00	0	39	0	278921216	55	4636
2026-01-02 22:43:58.26	46.17	22.63	-41.6	-44.0	18.8	0.00e+00	0	39	0	279969792	55	4555
2026-01-02 22:43:59.55	46.41	22.76	-41.4	-43.8	19.0	0.00e+00	0	39	0	283115520	54	4713
2026-01-02 22:44:00.27	46.55	22.84	-41.3	-43.6	19.1	0.00e+00	0	39	0	284164096	54	4625
2026-01-02 22:44:01.56	46.79	22.98	-41.2	-43.5	19.3	0.00e+00	0	39	0	286261248	54	4562
2026-01-02 22:44:02.27	46.92	23.05	-41.1	-43.3	19.4	0.00e+00	0	39	0	288358400	54	4478
2026-01-02 22:44:03.67	47.19	23.20	-41.1	-43.3	19.4	0.00e+00	0	39	0	290455552	54	4488
2026-01-02 22:44:04.66	47.38	23.31	-41.0	-43.2	19.5	0.00e+00	0	39	0	292552704	54	4432
2026-01-02 22:44:05.98	47.63	23.45	-41.0	-43.2	19.5	0.00e+00	0	39	0	294649856	53	4686
2026-01-02 22:44:06.69	47.77	23.53	-41.0	-43.2	19.5	0.00e+00	0	39	0	295698432	53	4689
2026-01-02 22:44:07.98	48.02	23.67	-41.0	-43.2	19.5	0.00e+00	0	39	0	298844160	53	4672
2026-01-02 22:44:08.70	48.16	23.74	-40.8	-43.1	19.6	0.00e+00	0	39	0	299892736	53	4601
2026-01-02 22:44:09.99	48.42	23.88	-40.7	-42.9	19.8	0.00e+00	0	39	0	301989888	53	4516
2026-01-02 22:44:10.71	48.56	23.96	-40.6	-42.7	20.0	0.00e+00	0	39	0	304087040	53	4432
2026-01-02 22:44:12.00	48.82	24.10	-40.6	-42.8	19.9	0.00e+00	0	39	0	306184192	53	4449
2026-01-02 22:44:12.72	48.97	24.18	-40.7	-42.9	19.8	0.00e+00	0	39	0	307232768	53	4498
2026-01-02 22:44:14.01	49.23	24.32	-40.9	-43.1	19.6	0.00e+00	0	39	0	310378496	53	4629
2026-01-02 22:44:14.72	49.37	24.40	-40.9	-43.1	19.6	0.00e+00	0	39	0	311427072	53	4622
2026-01-02 22:44:16.01	49.64	24.54	-41.0	-43.2	19.5	0.00e+00	0	39	0	313524224	53	4686
2026-01-02 22:44:16.73	49.79	24.61	-41.1	-43.3	19.4	0.00e+00	0	39	0	314572800	53	4747
2026-01-02 22:44:18.01	50.06	24.75	-41.3	-43.5	19.2	0.00e+00	0	39	0	317718528	53	4867
2026-01-02 22:44:18.73	50.21	24.83	-41.3	-43.6	19.1	0.00e+00	0	39	0	318767104	53	4912
2026-01-02 22:44:20.02	50.48	24.97	-41.3	-43.6	19.1	0.00e+00	0	39	0	320864256	53	4894
2026-01-02 22:44:20.74	50.64	25.05	-41.3	-43.6	19.2	0.00e+00	0	39	0	322961408	53	4901
2026-01-02 22:44:22.03	50.91	25.19	-41.3	-43.5	19.2	0.00e+00	0	39	0	325058560	53	4870
2026-01-02 22:44:22.75	51.07	25.27	-41.2	-43.4	19.3	0.00e+00	0	39	0	326107136	53	4804
2026-01-02 22:44:24.05	51.35	25.41	-41.2	-43.4	19.4	0.00e+00	0	39	0	329252864	53	4794
2026-01-02 22:44:24.77	51.51	25.49	-41.2	-43.5	19.3	0.00e+00	0	39	0	330301440	53	4821
2026-01-02 22:44:26.06	51.80	25.63	-41.4	-43.7	19.1	0.00e+00	0	39	0	332398592	53	4934
2026-01-02 22:44:26.78	51.96	25.71	-41.4	-43.8	19.0	0.00e+00	0	39	0	333447168	53	4992
2026-01-02 22:44:28.06	52.24	25.85	-41.6	-43.9	18.8	0.00e+00	0	39	0	336592896	53	5099
2026-01-02 22:44:29.19	52.50	25.97	-41.8	-44.2	18.6	0.00e+00	0	39	0	338690048	54	4935
2026-01-02 22:44:30.05	52.69	26.06	-41.8	-44.3	18.5	0.00e+00	0	39	0	339738624	54	4991
2026-01-02 22:44:31.20	52.96	26.19	-41.9	-44.3	18.5	0.00e+00	0	39	0	341835776	54	5013
2026-01-02 22:44:32.06	53.15	26.28	-42.0	-44.4	18.4	0.00e+00	0	39	0	343932928	54	5087
2026-01-02 22:44:33.20	53.42	26.41	-42.2	-44.6	18.2	0.00e+00	0	39	0	346030080	54	5211
2026-01-02 22:44:34.06	53.62	26.50	-42.2	-44.7	18.1	0.00e+00	0	40	0	347078656	55	4958
2026-01-02 22:44:35.33	53.92	26.64	-42.4	-44.9	17.9	0.00e+00	0	39	0	350224384	55	5094
2026-01-02 22:44:36.06	54.09	26.72	-42.5	-45.1	17.8	0.00e+00	0	39	0	351272960	55	5161
2026-01-02 22:44:37.35	54.40	26.86	-42.8	-45.5	17.5	0.00e+00	0	39	0	353370112	56	5102
2026-01-02 22:44:38.07	54.57	26.94	-42.9	-45.5	17.5	0.00e+00	0	39	0	355467264	56	5147
2026-01-02 22:44:39.36	54.88	27.07	-43.0	-45.6	17.4	0.00e+00	0	39	0	357564416	56	5197
2026-01-02 22:44:40.08	55.06	27.15	-43.0	-45.7	17.3	0.00e+00	0	39	0	358612992	56	5250
2026-01-02 22:44:41.37	55.37	27.29	-43.2	-45.9	17.1	0.00e+00	0	39	0	360710144	57	5087
2026-01-02 22:44:42.08	55.55	27.37	-43.2	-46.0	17.0	0.00e+00	0	39	0	362807296	57	5109
2026-01-02 22:44:43.37	55.87	27.51	-43.3	-46.1	16.9	0.00e+00	0	39	0	364904448	57	5213
2026-01-02 22:44:44.09	56.05	27.59	-43.5	-46.4	16.7	0.00e+00	0	39	0	365953024	57	5366
2026-01-02 22:44:45.38	56.37	27.72	-43.7	-46.6	16.4	0.00e+00	0	39	0	369098752	58	5176
2026-01-02 22:44:46.09	56.55	27.80	-43.8	-46.7	16.3	0.00e+00	0	39	0	370147328	58	5276
2026-01-02 22:44:47.45	56.90	27.95	-43.8	-46.8	16.3	0.00e+00	0	39	0	372244480	58	5309
2026-01-02 22:44:48.16	57.08	28.02	-43.8	-46.7	16.3	0.00e+00	0	39	0	374341632	58	5250
2026-01-02 22:44:49.45	57.41	28.16	-43.6	-46.4	16.6	0.00e+00	0	39	0	376438784	58	5073
2026-01-02 22:44:50.17	57.60	28.24	-43.4	-46.2	16.8	0.00e+00	0	39	0	377487360	58	4967
2026-01-02 22:44:51.58	57.97	28.39	-43.5	-46.4	16.7	0.00e+00	0	39	0	380633088	58	5048
2026-01-02 22:44:52.30	58.16	28.46	-43.6	-46.5	16.6	0.00e+00	0	39	0	381681664	58	5115
2026-01-02 22:44:53.65	58.52	28.61	-43.9	-46.9	16.2	0.00e+00	0	39	0	383778816	58	5379
2026-01-02 22:44:54.36	58.71	28.68	-44.2	-47.3	15.8	0.00e+00	0	39	0	385875968	58	5615
2026-01-02 22:44:55.66	59.06	28.82	-44.5	-47.8	15.3	0.00e+00	0	39	0	387973120	59	5599
2026-01-02 22:44:56.37	59.25	28.89	-44.7	-48.0	15.1	0.00e+00	0	39	0	389021696	59	5733
2026-01-02 22:44:57.65	59.60	29.03	-44.9	-48.4	14.7	0.00e+00	0	39	0	392167424	60	5720
2026-01-02 22:44:58.39	59.80	29.11	-45.0	-48.6	14.4	0.00e+00	0	39	0	393216000	60	5824
2026-01-02 22:44:59.68	60.16	29.24	-45.3	-49.1	14.0	1.50e-06	0	39	0	395313152	61	5836
2026-01-02 22:45:00.39	60.35	29.31	-45.3	-49.2	13.9	5.30e-06	0	39	0	396361728	61	5869
2026-01-02 22:45:01.67	60.71	29.45	-45.4	-49.2	13.8	7.60e-06	0	39	0	399507456	61	5898
2026-01-02 22:45:02.39	60.92	29.52	-45.4	-49.3	13.7	2.20e-06	0	39	0	400556032	61	5971
2026-01-02 22:45:03.67	61.28	29.65	-45.4	-49.3	13.7	3.00e-06	0	39	0	402653184	61	5975
2026-01-02 22:45:04.40	61.49	29.73	-45.3	-49.1	13.9	2.20e-06	0	39	0	404750336	61	5846
2026-01-02 22:45:05.68	61.85	29.86	-45.3	-49.1	13.9	3.80e-06	0	39	0	406847488	61	5844
2026-01-02 22:45:06.39	62.06	29.93	-45.4	-49.2	13.8	5.30e-06	0	39	0	407896064	61	5912
2026-01-02 22:45:07.68	62.43	30.06	-45.7	-49.7	13.4	1.44e-05	0	39	0	409993216	62	5879
2026-01-02 22:45:08.42	62.65	30.13	-45.8	-49.9	13.2	1.98e-05	0	39	0	412090368	62	6013
2026-01-02 22:45:09.70	63.02	30.26	-45.9	-50.1	13.0	4.27e-05	0	39	0	414187520	62	6179
2026-01-02 22:45:10.42	63.24	30.34	-45.9	-50.1	12.9	5.26e-05	0	39	0	415236096	62	6172
2026-01-02 22:45:11.70	63.62	30.46	-46.1	-50.4	12.7	1.01e-04	0	39	0	418381824	62	6414
2026-01-02 22:45:12.43	63.84	30.53	-46.1	-50.4	12.7	8.31e-05	0	39	0	419430400	62	6388
2026-01-02 22:45:13.72	64.22	30.66	-45.9	-50.0	13.0	4.65e-05	0	39	0	421527552	62	6127
2026-01-02 22:45:14.43	64.44	30.73	-45.8	-49.8	13.3	3.05e-05	0	39	0	423624704	62	5962
2026-01-02 22:45:15.72	64.83	30.86	-45.5	-49.3	13.8	6.80e-06	0	39	0	425721856	62	5626
2026-01-02 22:45:16.43	65.05	30.93	-45.4	-49.2	13.9	4.50e-06	0	39	0	426770432	62	5535
2026-01-02 22:45:17.72	65.45	31.05	-45.1	-48.7	14.5	7.00e-07	0	39	0	428867584	62	5225
2026-01-02 22:45:18.43	65.67	31.12	-45.0	-48.6	14.5	1.50e-06	0	39	0	430964736	62	5180
2026-01-02 22:45:19.73	66.07	31.24	-45.3	-48.9	14.2	0.00e+00	0	39	0	433061888	62	5395
2026-01-02 22:45:20.44	66.30	31.31	-45.3	-49.0	14.2	1.50e-06	0	39	0	434110464	62	5411
2026-01-02 22:45:21.72	66.70	31.43	-45.1	-48.6	14.5	2.20e-06	0	39	0	437256192	62	5210
2026-01-02 22:45:22.46	66.94	31.50	-44.9	-48.4	14.7	7.00e-07	0	39	0	438304768	61	5396
2026-01-02 22:45:23.75	67.35	31.62	-44.6	-48.0	15.1	0.00e+00	0	39	0	440401920	61	5115
2026-01-02 22:45:24.46	67.58	31.68	-44.5	-47.7	15.4	0.00e+00	0	39	0	442499072	60	5252
2026-01-02 22:45:25.75	67.99	31.80	-44.2	-47.3	15.8	0.00e+00	0	39	0	444596224	60	5005
2026-01-02 22:45:26.46	68.22	31.86	-44.0	-47.0	16.1	0.00e+00	0	40	0	445644800	60	4841
2026-01-02 22:45:27.74	68.64	31.98	-43.8	-46.7	16.4	0.00e+00	0	39	0	447741952	59	4962
2026-01-02 22:45:28.48	68.88	32.04	-43.8	-46.7	16.4	0.00e+00	0	39	0	449839104	59	4944
2026-01-02 22:45:29.77	69.31	32.16	-43.9	-46.9	16.2	0.00e+00	0	39	0	451936256	59	5051
2026-01-02 22:45:30.48	69.54	32.22	-44.0	-47.0	16.1	0.00e+00	0	39	0	452984832	59	5122
2026-01-02 22:45:31.76	69.97	32.33	-44.0	-46.9	16.1	0.00e+00	0	39	0	456130560	59	5097
2026-01-02 22:45:32.52	70.23	32.40	-43.9	-46.9	16.2	0.00e+00	0	39	0	457179136	59	5053
2026-01-02 22:45:33.80	70.66	32.51	-43.9	-46.8	16.2	0.00e+00	0	39	0	459276288	59	5013
2026-01-02 22:45:34.54	70.91	32.57	-43.8	-46.7	16.3	0.00e+00	0	39	0	460324864	59	4981
2026-01-02 22:45:35.82	71.34	32.67	-43.7	-46.6	16.5	0.00e+00	0	39	0	463470592	59	4882
2026-01-02 22:45:36.55	71.59	32.73	-43.7	-46.5	16.6	0.00e+00	0	39	0	464519168	59	4846
2026-01-02 22:45:37.84	72.04	32.84	-43.6	-46.5	16.6	0.00e+00	0	39	0	466616320	59	4819
2026-01-02 22:45:38.55	72.28	32.90	-43.6	-46.5	16.6	0.00e+00	0	39	0	468713472	59	4818
2026-01-02 22:45:39.84	72.73	33.00	-43.5	-46.3	16.7	0.00e+00	0	39	0	470810624	59	4744
2026-01-02 22:45:40.55	72.98	33.06	-43.5	-46.3	16.8	0.00e+00	0	39	0	471859200	58	4986
2026-01-02 22:45:41.86	73.44	33.16	-43.4	-46.1	16.9	0.00e+00	0	39	0	475004928	58	4911
2026-01-02 22:45:42.57	73.69	33.21	-43.3	-46.1	17.0	0.00e+00	0	39	0	476053504	58	4893
2026-01-02 22:45:43.86	74.15	33.31	-43.4	-46.2	16.9	0.00e+00	0	39	0	478150656	58	4953
2026-01-02 22:45:44.57	74.40	33.36	-43.6	-46.4	16.7	0.00e+00	0	39	0	479199232	58	5095
2026-01-02 22:45:45.86	74.86	33.46	-43.9	-46.9	16.2	0.00e+00	0	39	0	482344960	58	5363
2026-01-02 22:45:46.57	75.12	33.51	-44.1	-47.1	16.0	0.00e+00	0	39	0	483393536	58	5517
2026-01-02 22:45:47.85	75.58	33.60	-44.4	-47.5	15.6	0.00e+00	0	39	0	485490688	59	5457
2026-01-02 22:45:48.59	75.85	33.65	-44.4	-47.6	15.4	0.00e+00	0	39	0	487587840	59	5517
2026-01-02 22:45:49.87	76.31	33.74	-44.6	-47.9	15.1	0.00e+00	0	39	0	489684992	59	5712
2026-01-02 22:45:50.61	76.58	33.79	-44.8	-48.2	14.9	0.00e+00	0	39	0	490733568	60	5592
2026-01-02 22:45:51.89	77.05	33.88	-45.1	-48.7	14.4	0.00e+00	0	39	0	493879296	60	5882
2026-01-02 22:45:52.63	77.32	33.93	-45.1	-48.8	14.3	1.50e-06	0	39	0	494927872	60	5942
2026-01-02 22:45:53.92	77.80	34.01	-45.5	-49.4	13.8	2.20e-06	0	39	0	497025024	61	5996
2026-01-02 22:45:54.63	78.06	34.06	-45.4	-49.3	13.8	5.30e-06	0	39	0	498073600	61	5934
2026-01-02 22:45:55.92	78.55	34.14	-45.5	-49.3	13.7	4.50e-06	0	39	0	501219328	61	5960
2026-01-02 22:45:56.64	78.81	34.18	-45.4	-49.3	13.8	6.10e-06	0	39	0	502267904	61	5928
2026-01-02 22:45:57.92	79.30	34.26	-45.2	-48.9	14.1	3.00e-06	0	39	0	504365056	61	5713
2026-01-02 22:45:58.65	79.57	34.30	-44.9	-48.4	14.7	1.50e-06	0	39	0	506462208	61	5376
2026-01-02 22:45:59.93	80.05	34.38	-44.7	-48.2	14.9	0.00e+00	0	39	0	508559360	61	5223
2026-01-02 22:46:00.64	80.32	34.42	-44.6	-48.0	15.1	0.00e+00	0	40	0	509607936	61	5154
2026-01-02 22:46:01.93	80.82	34.49	-44.7	-48.2	14.9	0.00e+00	0	39	0	511705088	61	5253
2026-01-02 22:46:02.65	81.09	34.52	-44.7	-48.2	14.9	0.00e+00	0	39	0	513802240	61	5258
2026-01-02 22:46:03.93	81.58	34.59	-44.6	-48.1	15.1	0.00e+00	0	39	0	515899392	61	5180
2026-01-02 22:46:04.65	81.86	34.63	-44.6	-48.0	15.1	0.00e+00	0	39	0	516947968	61	5140
2026-01-02 22:46:05.94	82.36	34.69	-44.2	-47.4	15.6	0.00e+00	0	39	0	520093696	60	5096
2026-01-02 22:46:06.65	82.63	34.73	-43.9	-47.0	16.1	0.00e+00	0	39	0	521142272	59	5105
2026-01-02 22:46:07.95	83.14	34.79	-43.5	-46.5	16.6	0.00e+00	0	39	0	523239424	59	4850
2026-01-02 22:46:08.66	83.41	34.82	-43.4	-46.2	16.8	0.00e+00	0	39	0	525336576	58	4978
2026-01-02 22:46:09.95	83.92	34.88	-43.4	-46.4	16.7	0.00e+00	0	39	0	527433728	58	5054
2026-01-02 22:46:10.68	84.20	34.91	-43.6	-46.6	16.6	0.00e+00	0	39	0	528482304	58	5179
2026-01-02 22:46:11.96	84.70	34.96	-44.1	-47.3	15.9	0.00e+00	0	39	0	530579456	58	5605
2026-01-02 22:46:12.67	84.98	34.99	-44.2	-47.5	15.6	0.00e+00	0	39	0	532676608	59	5417
2026-01-02 22:46:13.95	85.49	35.04	-44.3	-47.6	15.5	0.00e+00	0	39	0	534773760	59	5484
2026-01-02 22:46:14.69	85.78	35.07	-44.2	-47.4	15.7	7.00e-07	0	39	0	535822336	59	5368
2026-01-02 22:46:15.98	86.29	35.11	-44.2	-47.5	15.6	0.00e+00	0	39	0	538968064	59	5436
2026-01-02 22:46:16.69	86.57	35.14	-44.3	-47.6	15.5	0.00e+00	0	39	0	540016640	59	5503
2026-01-02 22:46:17.98	87.08	35.18	-44.5	-47.9	15.2	0.00e+00	0	39	0	542113792	59	5705
2026-01-02 22:46:18.71	87.38	35.20	-44.6	-48.0	15.1	7.00e-07	0	39	0	544210944	59	5763
2026-01-02 22:46:19.99	87.89	35.24	-44.6	-48.1	15.1	0.00e+00	0	39	0	546308096	60	5481
2026-01-02 22:46:20.70	88.17	35.26	-44.4	-47.8	15.3	0.00e+00	0	39	0	547356672	60	5315
2026-01-02 22:46:21.99	88.69	35.29	-44.4	-47.7	15.4	0.00e+00	0	39	0	549453824	60	5273
2026-01-02 22:46:22.70	88.97	35.31	-44.4	-47.7	15.5	0.00e+00	0	39	0	551550976	60	5225
2026-01-02 22:46:23.99	89.49	35.34	-44.6	-47.9	15.2	0.00e+00	0	39	0	553648128	60	5363
2026-01-02 22:46:24.70	89.78	35.36	-44.8	-48.2	15.0	0.00e+00	0	39	0	554696704	60	5546
2026-01-02 22:46:25.99	90.30	35.39	-45.2	-48.8	14.3	0.00e+00	0	39	0	557842432	61	5620
2026-01-02 22:46:26.70	90.58	35.40	-45.3	-49.0	14.1	7.00e-07	0	39	0	558891008	61	5744
2026-01-02 22:46:27.98	91.10	35.42	-45.2	-49.0	14.2	3.00e-06	0	39	0	560988160	61	5730
2026-01-02 22:46:28.70	91.39	35.43	-45.0	-48.7	14.3	0.00e+00	0	39	0	562036736	61	5562
2026-01-02 22:46:29.98	91.91	35.45	-44.7	-48.2	14.9	7.00e-07	0	39	0	565182464	61	5253
2026-01-02 22:46:30.71	92.21	35.46	-44.4	-47.7	15.4	0.00e+00	0	39	0	566231040	60	5253
2026-01-02 22:46:31.97	92.72	35.47	-44.3	-47.4	15.7	0.00e+00	0	39	0	568328192	60	5095
2026-01-02 22:46:32.76	93.04	35.48	-44.2	-47.3	15.9	0.00e+00	0	39	0	570425344	60	4984
2026-01-02 22:46:33.94	93.52	35.49	-44.0	-47.0	16.1	0.00e+00	0	39	0	572522496	60	4858
2026-01-02 22:46:34.80	93.86	35.50	-44.0	-47.0	16.1	0.00e+00	0	39	0	573571072	59	5147
2026-01-02 22:46:35.94	94.33	35.50	-44.0	-47.0	16.0	0.00e+00	0	39	0	575668224	59	5155
2026-01-02 22:46:36.80	94.68	35.51	-44.1	-47.1	16.0	0.00e+00	0	39	0	577765376	59	5182
2026-01-02 22:46:37.95	95.14	35.51	-44.1	-47.2	15.9	0.00e+00	0	39	0	579862528	59	5221
2026-01-02 22:46:38.80	95.49	35.51	-44.0	-47.1	16.0	0.00e+00	0	39	0	580911104	59	5164
2026-01-02 22:46:39.94	95.95	35.51	-43.7	-46.6	16.4	0.00e+00	0	39	0	584056832	59	4920
2026-01-02 22:46:40.80	96.30	35.50	-43.5	-46.3	16.7	0.00e+00	0	39	0	585105408	59	4751
2026-01-02 22:46:41.95	96.77	35.50	-43.3	-46.1	17.0	0.00e+00	0	39	0	587202560	58	4881
2026-01-02 22:46:42.80	97.12	35.49	-43.5	-46.3	16.8	0.00e+00	0	39	0	589299712	58	5002
2026-01-02 22:46:43.94	97.58	35.48	-44.1	-47.1	16.0	0.00e+00	0	39	0	591396864	58	5482
2026-01-02 22:46:44.80	97.93	35.48	-44.5	-47.7	15.4	0.00e+00	0	39	0	592445440	59	5551
2026-01-02 22:46:45.94	98.39	35.46	-44.6	-47.9	15.2	0.00e+00	0	39	0	594542592	59	5703
2026-01-02 22:46:46.80	98.74	35.45	-44.3	-47.4	15.7	0.00e+00	0	40	0	596639744	59	5393
2026-01-02 22:46:47.94	99.20	35.44	-43.7	-46.6	16.5	0.00e+00	0	39	0	598736896	59	4900
2026-01-02 22:46:48.80	99.55	35.42	-43.4	-46.2	16.9	0.00e+00	0	40	0	599785472	58	4944
2026-01-02 22:46:49.94	100.01	35.40	-43.4	-46.2	16.9	0.00e+00	0	39	0	601882624	58	4947
2026-01-02 22:46:50.80	100.36	35.39	-43.3	-46.0	17.1	0.00e+00	0	39	0	603979776	58	4837
2026-01-02 22:46:51.94	100.82	35.36	-43.9	-46.9	16.2	0.00e+00	0	39	0	606076928	58	5359
2026-01-02 22:46:52.80	101.16	35.34	-44.3	-47.4	15.7	0.00e+00	0	39	0	608174080	59	5355
2026-01-02 22:46:53.94	101.62	35.32	-44.7	-48.2	15.0	0.00e+00	0	39	0	610271232	60	5554
2026-01-02 22:46:54.80	101.97	35.30	-44.9	-48.5	14.6	0.00e+00	0	39	0	611319808	60	5767
2026-01-02 22:46:55.94	102.42	35.27	-45.1	-48.8	14.3	7.00e-07	0	39	0	613416960	60	5982
2026-01-02 22:46:56.80	102.77	35.24	-45.2	-49.0	14.1	1.50e-06	0	39	0	615514112	61	5754
2026-01-02 22:46:57.95	103.23	35.21	-45.7	-49.7	13.4	1.06e-05	0	39	0	617611264	62	5890
2026-01-02 22:46:58.80	103.57	35.18	-45.9	-50.1	13.1	2.74e-05	0	39	0	618659840	62	6163
2026-01-02 22:46:59.95	104.02	35.14	-45.9	-50.0	13.1	3.43e-05	0	39	0	620756992	62	6081
2026-01-02 22:47:00.81	104.37	35.11	-45.6	-49.5	13.6	1.83e-05	0	39	0	622854144	62	5764
2026-01-02 22:47:01.95	104.82	35.07	-45.1	-48.7	14.3	4.50e-06	0	39	0	624951296	62	5275
2026-01-02 22:47:02.81	105.16	35.04	-44.7	-48.1	14.9	1.50e-06	0	39	0	625999872	61	5188
2026-01-02 22:47:03.95	105.61	35.00	-44.7	-48.0	15.0	0.00e+00	0	39	0	628097024	61	5152
2026-01-02 22:47:04.81	105.95	34.96	-44.7	-48.1	15.0	0.00e+00	0	39	0	630194176	61	5162
2026-01-02 22:47:05.95	106.40	34.92	-44.6	-47.9	15.2	0.00e+00	0	39	0	632291328	61	5048
2026-01-02 22:47:06.81	106.73	34.88	-44.5	-47.7	15.4	0.00e+00	0	39	0	634388480	60	5233
2026-01-02 22:47:07.96	107.18	34.83	-44.1	-47.2	15.9	0.00e+00	0	39	0	636485632	60	4963
2026-01-02 22:47:08.82	107.52	34.79	-44.3	-47.4	15.7	0.00e+00	0	39	0	637534208	60	5077
2026-01-02 22:47:09.96	107.96	34.74	-44.5	-47.8	15.4	0.00e+00	0	39	0	639631360	60	5303
2026-01-02 22:47:10.82	108.30	34.70	-44.7	-48.1	15.1	0.00e+00	0	39	0	641728512	60	5477
2026-01-02 22:47:11.97	108.74	34.64	-44.8	-48.2	14.9	0.00e+00	0	39	0	643825664	60	5591
2026-01-02 22:47:12.83	109.07	34.59	-44.5	-47.7	15.4	0.00e+00	0	39	0	644874240	60	5245
2026-01-02 22:47:13.97	109.51	34.54	-44.2	-47.3	15.8	0.00e+00	0	39	0	646971392	60	5028
2026-01-02 22:47:14.83	109.84	34.49	-44.1	-47.1	16.0	0.00e+00	0	39	0	649068544	60	4919
2026-01-02 22:47:15.97	110.27	34.43	-44.0	-47.0	16.1	0.00e+00	0	39	0	651165696	59	5127
2026-01-02 22:47:16.83	110.60	34.38	-44.3	-47.4	15.6	0.00e+00	0	39	0	652214272	59	5374
2026-01-02 22:47:17.97	111.03	34.31	-44.6	-47.9	15.2	0.00e+00	0	39	0	654311424	59	5668
2026-01-02 22:47:18.83	111.36	34.26	-44.4	-47.6	15.5	0.00e+00	0	39	0	656408576	59	5498
2026-01-02 22:47:19.97	111.79	34.19	-44.2	-47.2	15.9	0.00e+00	0	40	0	658505728	59	5277
2026-01-02 22:47:20.83	112.11	34.14	-43.8	-46.7	16.3	0.00e+00	0	39	0	660602880	59	4980
2026-01-02 22:47:21.98	112.54	34.07	-43.7	-46.6	16.5	0.00e+00	0	39	0	662700032	59	4903
2026-01-02 22:47:22.83	112.86	34.01	-43.3	-46.2	16.9	0.00e+00	0	39	0	663748608	58	4940
2026-01-02 22:47:23.97	113.28	33.94	-43.1	-45.8	17.2	0.00e+00	0	39	0	665845760	58	4750
2026-01-02 22:47:24.83	113.60	33.88	-43.1	-45.9	17.2	0.00e+00	0	39	0	667942912	58	4775
2026-01-02 22:47:25.97	114.02	33.81	-43.1	-45.8	17.3	0.00e+00	0	39	0	670040064	58	4731
2026-01-02 22:47:26.83	114.33	33.75	-43.4	-46.1	16.9	0.00e+00	0	39	0	671088640	58	4926
2026-01-02 22:47:27.98	114.75	33.67	-43.7	-46.6	16.6	0.00e+00	0	39	0	673185792	58	5168
2026-01-02 22:47:28.84	115.06	33.61	-44.0	-47.0	16.1	0.00e+00	0	39	0	675282944	58	5429
2026-01-02 22:47:29.98	115.48	33.53	-44.2	-47.4	15.8	0.00e+00	0	39	0	677380096	59	5351
2026-01-02 22:47:30.84	115.79	33.46	-44.2	-47.4	15.7	0.00e+00	0	39	0	679477248	59	5376
2026-01-02 22:47:31.98	116.20	33.38	-44.0	-47.1	16.0	0.00e+00	0	39	0	681574400	59	5183
2026-01-02 22:47:32.84	116.50	33.32	-44.0	-47.0	16.0	0.00e+00	0	39	0	682622976	59	5144
2026-01-02 22:47:33.97	116.90	33.23	-43.9	-46.8	16.3	0.00e+00	0	39	0	684720128	59	5018
2026-01-02 22:47:34.83	117.21	33.16	-43.9	-46.9	16.2	0.00e+00	0	39	0	686817280	59	5055
2026-01-02 22:47:35.97	117.61	33.07	-43.9	-46.8	16.2	0.00e+00	0	39	0	688914432	59	5038
2026-01-02 22:47:36.83	117.91	33.01	-43.8	-46.7	16.3	0.00e+00	0	39	0	689963008	59	4978
2026-01-02 22:47:37.98	118.31	32.92	-43.6	-46.4	16.7	0.00e+00	0	39	0	692060160	59	4783
2026-01-02 22:47:38.83	118.61	32.85	-43.5	-46.3	16.8	0.00e+00	0	39	0	694157312	58	4995
2026-01-02 22:47:39.98	119.01	32.75	-43.8	-46.7	16.4	0.00e+00	0	39	0	696254464	58	5247
2026-01-02 22:47:40.83	119.30	32.68	-44.2	-47.2	15.9	0.00e+00	0	39	0	697303040	58	5571
2026-01-02 22:47:41.98	119.69	32.59	-44.6	-47.9	15.2	0.00e+00	0	40	0	699400192	59	5670
2026-01-02 22:47:42.84	119.98	32.51	-44.6	-47.8	15.3	0.00e+00	0	39	0	701497344	60	5322
2026-01-02 22:47:43.98	120.37	32.42	-44.5	-47.7	15.4	0.00e+00	0	39	0	703594496	60	5274
2026-01-02 22:47:44.84	120.66	32.34	-44.3	-47.4	15.7	0.00e+00	0	39	0	705691648	60	5099
2026-01-02 22:47:45.98	121.04	32.24	-44.6	-47.9	15.2	0.00e+00	0	39	0	707788800	60	5352
2026-01-02 22:47:46.84	121.33	32.17	-45.0	-48.5	14.5	7.00e-07	0	39	0	708837376	60	5785
2026-01-02 22:47:47.98	121.71	32.07	-45.5	-49.5	13.6	5.30e-06	0	39	0	710934528	61	6083
2026-01-02 22:47:48.84	121.99	31.99	-45.7	-49.8	13.3	1.67e-05	0	39	0	713031680	62	5972
2026-01-02 22:47:49.98	122.36	31.89	-45.0	-48.5	14.6	7.60e-06	0	39	0	715128832	62	5157
2026-01-02 22:47:50.84	122.64	31.81	-44.4	-47.7	15.4	0.00e+00	0	39	0	716177408	60	5223
2026-01-02 22:47:51.98	123.01	31.71	-44.0	-47.0	16.1	0.00e+00	0	39	0	718274560	60	4857
2026-01-02 22:47:52.84	123.29	31.63	-44.2	-47.3	15.8	0.00e+00	0	39	0	720371712	60	5008
2026-01-02 22:47:53.98	123.66	31.52	-44.8	-48.2	14.9	0.00e+00	0	39	0	722468864	60	5551
2026-01-02 22:47:54.84	123.93	31.44	-45.0	-48.5	14.7	7.00e-07	0	39	0	723517440	60	5775
2026-01-02 22:47:55.99	124.30	31.33	-44.9	-48.3	14.8	0.00e+00	0	39	0	726663168	60	5650
2026-01-02 22:47:56.84	124.56	31.25	-44.5	-47.8	15.3	0.00e+00	0	39	0	727711744	60	5292
2026-01-02 22:47:57.98	124.92	31.14	-44.3	-47.4	15.7	0.00e+00	0	39	0	729808896	60	5097
2026-01-02 22:47:58.85	125.19	31.06	-44.2	-47.3	15.7	0.00e+00	0	39	0	731906048	60	5039
2026-01-02 22:47:59.99	125.55	30.95	-44.7	-48.1	15.1	0.00e+00	0	39	0	734003200	60	5466
2026-01-02 22:48:00.85	125.81	30.87	-45.1	-48.7	14.4	7.00e-07	0	39	0	735051776	60	5894
2026-01-02 22:48:02.00	126.16	30.75	-45.5	-49.4	13.8	6.80e-06	0	39	0	737148928	61	6028
2026-01-02 22:48:02.86	126.43	30.67	-45.4	-49.3	13.7	1.60e-05	0	39	0	739246080	61	5962
2026-01-02 22:48:04.00	126.77	30.56	-44.7	-48.1	15.0	0.00e+00	0	39	0	741343232	61	5209
2026-01-02 22:48:04.86	127.03	30.47	-44.3	-47.6	15.5	0.00e+00	0	39	0	742391808	60	5167
2026-01-02 22:48:06.00	127.37	30.36	-44.5	-47.8	15.3	0.00e+00	0	39	0	744488960	60	5298
2026-01-02 22:48:06.86	127.63	30.27	-45.1	-48.8	14.3	0.00e+00	0	39	0	746586112	60	5944
2026-01-02 22:48:08.00	127.96	30.16	-45.6	-49.7	13.3	2.20e-06	0	39	0	748683264	61	6244
2026-01-02 22:48:08.86	128.22	30.07	-45.6	-49.6	13.4	1.44e-05	0	39	0	749731840	62	5847
2026-01-02 22:48:10.00	128.55	29.95	-44.6	-48.0	15.1	0.00e+00	0	39	0	752877568	61	5126
2026-01-02 22:48:10.86	128.80	29.86	-44.0	-47.1	16.1	0.00e+00	0	39	0	753926144	60	4881
2026-01-02 22:48:12.00	129.13	29.75	-44.0	-47.0	16.0	0.00e+00	0	39	0	756023296	60	4870
2026-01-02 22:48:12.86	129.37	29.66	-44.3	-47.4	15.6	0.00e+00	0	39	0	758120448	59	5398
2026-01-02 22:48:14.01	129.70	29.54	-44.8	-48.4	14.7	0.00e+00	0	39	0	760217600	60	5664
2026-01-02 22:48:14.86	129.94	29.45	-45.1	-48.9	14.2	0.00e+00	0	39	0	761266176	60	6009
2026-01-02 22:48:16.01	130.26	29.33	-44.7	-48.2	14.8	0.00e+00	0	39	0	763363328	61	5273
2026-01-02 22:48:16.86	130.50	29.24	-43.9	-46.9	16.1	0.00e+00	0	39	0	765460480	59	5086
2026-01-02 22:48:18.00	130.82	29.12	-43.2	-46.0	17.1	0.00e+00	0	39	0	767557632	58	4826
2026-01-02 22:48:18.86	131.05	29.03	-43.3	-46.1	16.9	0.00e+00	0	39	0	768606208	58	4892
2026-01-02 22:48:20.01	131.37	28.91	-44.1	-47.3	15.8	0.00e+00	0	39	0	770703360	58	5597
2026-01-02 22:48:20.87	131.60	28.82	-44.9	-48.5	14.6	0.00e+00	0	39	0	772800512	60	5734
2026-01-02 22:48:22.01	131.91	28.70	-45.6	-49.6	13.5	6.80e-06	0	39	0	774897664	61	6178
2026-01-02 22:48:22.87	132.14	28.61	-45.4	-49.2	13.9	9.90e-06	0	39	0	776994816	61	5890
2026-01-02 22:48:24.02	132.45	28.49	-44.6	-47.9	15.2	7.00e-07	0	39	0	779091968	61	5056
2026-01-02 22:48:24.87	132.67	28.40	-44.3	-47.4	15.7	0.00e+00	0	39	0	780140544	60	5089
2026-01-02 22:48:26.02	132.98	28.27	-44.0	-47.1	16.0	0.00e+00	0	39	0	782237696	60	4883
2026-01-02 22:48:26.87	133.20	28.18	-43.9	-46.9	16.2	0.00e+00	0	39	0	784334848	59	5047
2026-01-02 22:48:28.02	133.50	28.06	-44.5	-47.8	15.2	0.00e+00	0	39	0	786432000	59	5626
2026-01-02 22:48:28.88	133.72	27.97	-44.8	-48.3	14.4	0.00e+00	0	39	0	787480576	60	5612
2026-01-02 22:48:30.02	134.01	27.84	-44.5	-47.9	15.2	0.00e+00	0	39	0	789577728	60	5351
2026-01-02 22:48:30.88	134.23	27.75	-44.0	-47.0	16.0	0.00e+00	0	39	0	791674880	59	5140
2026-01-02 22:48:32.03	134.52	27.63	-43.6	-46.5	16.5	0.00e+00	0	39	0	793772032	59	4855
2026-01-02 22:48:32.88	134.74	27.53	-43.6	-46.4	16.6	0.00e+00	0	39	0	795869184	59	4799
2026-01-02 22:48:34.02	135.02	27.41	-43.8	-46.7	16.3	0.00e+00	0	39	0	796917760	59	4964
2026-01-02 22:48:34.88	135.24	27.32	-44.2	-47.4	15.7	0.00e+00	0	39	0	799014912	59	5352
2026-01-02 22:48:36.03	135.52	27.19	-44.8	-48.2	14.9	0.00e+00	0	39	0	801112064	60	5555
2026-01-02 22:48:36.89	135.73	27.10	-44.9	-48.5	14.6	0.00e+00	0	39	0	803209216	60	5753
2026-01-02 22:48:38.03	136.01	26.97	-44.0	-47.1	16.0	0.00e+00	0	39	0	805306368	60	4873
2026-01-02 22:48:38.89	136.22	26.88	-43.4	-46.2	16.8	0.00e+00	0	39	0	806354944	58	4934
2026-01-02 22:48:40.04	136.49	26.75	-43.0	-45.7	17.4	0.00e+00	0	39	0	808452096	58	4656
2026-01-02 22:48:40.89	136.69	26.66	-42.5	-45.0	17.9	0.00e+00	0	39	0	810549248	57	4592
2026-01-02 22:48:42.03	136.96	26.54	-42.6	-45.2	17.8	0.00e+00	0	39	0	812646400	56	4933
2026-01-02 22:48:42.88	137.16	26.44	-43.0	-45.7	17.3	0.00e+00	0	39	0	813694976	56	5221
2026-01-02 22:48:44.02	137.43	26.32	-43.2	-46.0	17.0	0.00e+00	0	39	0	815792128	57	5109
2026-01-02 22:48:44.88	137.63	26.22	-43.2	-46.0	17.1	0.00e+00	0	39	0	817889280	57	5106
2026-01-02 22:48:46.03	137.90	26.10	-42.9	-45.5	17.5	0.00e+00	0	39	0	819986432	57	4838
2026-01-02 22:48:46.88	138.09	26.00	-42.8	-45.4	17.5	0.00e+00	0	40	0	822083584	57	4809
2026-01-02 22:48:48.03	138.35	25.88	-42.3	-44.7	18.3	0.00e+00	0	39	0	824180736	56	4688
2026-01-02 22:48:48.89	138.55	25.78	-42.2	-44.6	18.4	0.00e+00	0	39	0	825229312	56	4619
2026-01-02 22:48:50.03	138.80	25.66	-41.6	-44.0	18.8	0.00e+00	0	39	0	827326464	55	4554
2026-01-02 22:48:50.89	138.99	25.56	-41.9	-44.3	18.6	0.00e+00	0	39	0	829423616	55	4712
2026-01-02 22:48:52.04	139.25	25.44	-42.3	-44.8	18.0	0.00e+00	0	40	0	831520768	55	5010
2026-01-02 22:48:52.89	139.44	25.35	-42.1	-44.6	18.2	0.00e+00	0	39	0	832569344	55	4894
2026-01-02 22:48:54.04	139.69	25.22	-41.7	-44.1	18.7	0.00e+00	0	39	0	834666496	55	4614
2026-01-02 22:48:54.90	139.87	25.12	-41.4	-43.7	19.1	0.00e+00	0	39	0	836763648	54	4662
2026-01-02 22:48:56.04	140.12	25.00	-41.2	-43.4	19.3	0.00e+00	0	39	0	838860800	54	4542
2026-01-02 22:48:56.90	140.30	24.91	-41.0	-43.3	19.4	0.00e+00	0	39	0	839909376	54	4472
2026-01-02 22:48:58.04	140.54	24.78	-40.9	-43.2	19.6	0.00e+00	0	39	0	842006528	53	4652
2026-01-02 22:48:58.90	140.73	24.69	-41.0	-43.3	19.5	0.00e+00	0	39	0	844103680	53	4734
2026-01-02 22:49:00.04	140.97	24.56	-41.4	-43.8	19.0	0.00e+00	0	39	0	846200832	53	4987
2026-01-02 22:49:00.90	141.14	24.47	-41.5	-43.9	18.9	0.00e+00	0	39	0	848297984	53	5058
2026-01-02 22:49:02.04	141.38	24.34	-41.4	-43.7	19.0	0.00e+00	0	39	0	850395136	53	4971
2026-01-02 22:49:02.90	141.56	24.25	-41.1	-43.4	19.4	0.00e+00	0	39	0	851443712	53	4765
2026-01-02 22:49:04.05	141.79	24.12	-40.7	-42.9	19.8	0.00e+00	0	39	0	853540864	53	4545
2026-01-02 22:49:04.90	141.96	24.03	-40.7	-42.9	19.8	0.00e+00	0	40	0	855638016	53	4540
2026-01-02 22:49:06.04	142.19	23.91	-40.4	-42.5	20.1	0.00e+00	0	39	0	857735168	52	4590
2026-01-02 22:49:06.90	142.37	23.81	-40.4	-42.5	20.2	0.00e+00	0	39	0	858783744	52	4570
2026-01-02 22:49:08.04	142.59	23.69	-40.5	-42.7	20.0	0.00e+00	0	39	0	860880896	52	4682
2026-01-02 22:49:08.90	142.76	23.60	-40.7	-42.9	19.8	0.00e+00	0	39	0	862978048	52	4788
2026-01-02 22:49:10.04	142.98	23.47	-40.9	-43.2	19.6	0.00e+00	0	39	0	865075200	52	4948
2026-01-02 22:49:10.90	143.15	23.38	-41.0	-43.3	19.5	0.00e+00	0	39	0	866123776	52	4988
2026-01-02 22:49:12.04	143.37	23.26	-41.0	-43.3	19.3	0.00e+00	0	39	0	869269504	52	4990
2026-01-02 22:49:12.89	143.54	23.16	-40.8	-43.0	19.7	0.00e+00	0	39	0	870318080	52	4866
2026-01-02 22:49:14.03	143.75	23.04	-40.7	-42.9	19.8	0.00e+00	0	39	0	872415232	52	4776
2026-01-02 22:49:14.89	143.92	22.95	-40.5	-42.6	20.1	0.00e+00	0	39	0	874512384	52	4614
2026-01-02 22:49:16.02	144.13	22.83	-40.2	-42.3	20.3	0.00e+00	0	39	0	876609536	52	4469
2026-01-02 22:49:16.88	144.29	22.73	-40.4	-42.5	20.2	0.00e+00	0	39	0	877658112	52	4573
2026-01-02 22:49:18.02	144.50	22.61	-40.7	-42.8	19.9	0.00e+00	0	39	0	879755264	52	4742
2026-01-02 22:49:18.87	144.66	22.52	-40.9	-43.2	19.5	0.00e+00	0	39	0	881852416	52	4940
2026-01-02 22:49:20.01	144.87	22.40	-41.3	-43.6	19.1	0.00e+00	0	39	0	883949568	53	4894
2026-01-02 22:49:20.87	145.02	22.31	-41.4	-43.8	18.9	0.00e+00	0	39	0	884998144	53	5020
2026-01-02 22:49:22.00	145.23	22.19	-41.4	-43.8	18.9	0.00e+00	0	39	0	887095296	53	5012
2026-01-02 22:49:22.86	145.38	22.09	-41.3	-43.6	19.1	0.00e+00	0	39	0	889192448	53	4922
2026-01-02 22:49:24.00	145.59	21.97	-41.0	-43.4	19.3	0.00e+00	0	39	0	891289600	53	4777
2026-01-02 22:49:24.85	145.74	21.88	-41.0	-43.3	19.4	0.00e+00	0	39	0	892338176	53	4746
2026-01-02 22:49:26.00	145.94	21.76	-40.8	-43.1	19.6	0.00e+00	0	39	0	894435328	53	4643
2026-01-02 22:49:26.84	146.09	21.67	-40.8	-43.2	19.5	0.00e+00	0	39	0	896532480	53	4659
2026-01-02 22:49:27.98	146.28	21.55	-40.8	-43.1	19.6	0.00e+00	0	39	0	898629632	53	4614
2026-01-02 22:49:28.84	146.43	21.46	-41.0	-43.3	19.4	0.00e+00	0	39	0	900726784	53	4754
2026-01-02 22:49:29.98	146.63	21.34	-41.1	-43.5	19.2	0.00e+00	0	39	0	902823936	53	4829
2026-01-02 22:49:30.83	146.77	21.25	-41.2	-43.6	19.2	0.00e+00	0	39	0	903872512	53	4871
2026-01-02 22:49:31.97	146.96	21.13	-41.3	-43.6	19.1	0.00e+00	0	39	0	905969664	53	4912
2026-01-02 22:49:32.82	147.11	21.04	-41.1	-43.4	19.2	0.00e+00	0	39	0	908066816	53	4814
2026-01-02 22:49:33.96	147.30	20.92	-41.2	-43.5	19.2	0.00e+00	0	39	0	910163968	53	4829
2026-01-02 22:49:34.82	147.44	20.83	-41.2	-43.5	19.2	0.00e+00	0	39	0	911212544	53	4841
2026-01-02 22:49:35.96	147.63	20.71	-41.2	-43.5	19.2	0.00e+00	0	39	0	913309696	53	4816
2026-01-02 22:49:36.81	147.77	20.62	-41.1	-43.4	19.3	0.00e+00	0	39	0	915406848	53	4791
2026-01-02 22:49:37.95	147.95	20.51	-41.3	-43.6	19.0	0.00e+00	0	39	0	917504000	53	4905
2026-01-02 22:49:38.80	148.09	20.42	-41.4	-43.7	19.0	0.00e+00	0	39	0	918552576	53	4982
2026-01-02 22:49:39.94	148.27	20.30	-41.8	-44.2	18.5	0.00e+00	0	39	0	920649728	54	4953
2026-01-02 22:49:40.79	148.41	20.21	-41.7	-44.1	18.6	0.00e+00	0	39	0	922746880	54	4907
2026-01-02 22:49:41.93	148.59	20.09	-41.8	-44.2	18.5	0.00e+00	0	39	0	924844032	54	4942
2026-01-02 22:49:42.79	148.72	20.01	-41.8	-44.2	18.5	0.00e+00	0	39	0	925892608	54	4971
2026-01-02 22:49:43.93	148.90	19.89	-41.8	-44.2	18.5	0.00e+00	0	40	0	927989760	54	4951
2026-01-02 22:49:44.78	149.03	19.80	-41.8	-44.2	18.5	0.00e+00	0	39	0	930086912	54	4945
2026-01-02 22:49:45.92	149.21	19.68	-41.3	-43.6	19.1	0.00e+00	0	39	0	932184064	54	4637
2026-01-02 22:49:46.77	149.34	19.60	-41.3	-43.6	19.1	0.00e+00	0	39	0	934281216	54	4622
2026-01-02 22:49:47.90	149.51	19.48	-41.5	-43.8	18.9	0.00e+00	0	39	0	936378368	54	4726
2026-01-02 22:49:48.76	149.64	19.40	-41.7	-44.1	18.7	0.00e+00	0	39	0	937426944	54	4882
2026-01-02 22:49:49.90	149.82	19.28	-41.9	-44.4	18.4	0.00e+00	0	39	0	939524096	54	5054
2026-01-02 22:49:50.75	149.94	19.19	-42.1	-44.7	18.0	0.00e+00	0	39	0	941621248	55	4956
2026-01-02 22:49:51.89	150.11	19.08	-42.3	-44.9	17.8	0.00e+00	0	39	0	943718400	55	5088
2026-01-02 22:49:52.74	150.24	18.99	-42.4	-45.1	17.7	0.00e+00	0	39	0	944766976	55	5180
2026-01-02 22:49:53.89	150.41	18.88	-42.5	-45.2	17.6	0.00e+00	0	39	0	946864128	55	5221
2026-01-02 22:49:54.74	150.53	18.79	-42.4	-45.0	17.7	0.00e+00	0	39	0	948961280	55	5136
2026-01-02 22:49:55.88	150.69	18.68	-42.3	-44.9	17.8	0.00e+00	0	39	0	951058432	55	5050
2026-01-02 22:49:56.74	150.82	18.59	-42.2	-44.7	18.0	0.00e+00	0	39	0	952107008	55	4958
2026-01-02 22:49:57.88	150.98	18.48	-42.2	-44.7	18.0	0.00e+00	0	39	0	954204160	55	4967
2026-01-02 22:49:58.73	151.10	18.40	-42.1	-44.6	18.1	0.00e+00	0	39	0	956301312	55	4917
2026-01-02 22:49:59.87	151.26	18.28	-42.3	-44.9	17.8	0.00e+00	0	39	0	958398464	55	5080
2026-01-02 22:50:00.73	151.38	18.20	-42.4	-45.1	17.7	0.00e+00	0	39	0	960495616	55	5170
2026-01-02 22:50:01.86	151.54	18.09	-42.9	-45.7	17.3	0.00e+00	0	39	0	962592768	56	5226
2026-01-02 22:50:02.72	151.66	18.00	-43.1	-46.0	16.9	0.00e+00	0	39	0	963641344	56	5438
2026-01-02 22:50:03.86	151.82	17.89	-43.3	-46.3	16.3	0.00e+00	0	39	0	965738496	57	5291
2026-01-02 22:50:04.71	151.93	17.81	-43.4	-46.4	16.5	0.00e+00	0	39	0	967835648	57	5360
2026-01-02 22:50:05.85	152.09	17.69	-43.3	-46.2	16.7	0.00e+00	0	39	0	969932800	57	5279
2026-01-02 22:50:06.71	152.20	17.61	-43.3	-46.2	16.7	0.00e+00	0	39	0	970981376	57	5255
2026-01-02 22:50:07.85	152.36	17.50	-43.0	-45.8	17.1	0.00e+00	0	39	0	973078528	57	4990
2026-01-02 22:50:08.70	152.47	17.42	-42.7	-45.4	17.4	0.00e+00	0	39	0	975175680	57	4805
2026-01-02 22:50:09.85	152.62	17.31	-42.6	-45.3	17.6	0.00e+00	0	39	0	977272832	57	4723
2026-01-02 22:50:10.70	152.74	17.22	-42.4	-45.0	17.8	0.00e+00	0	39	0	978321408	56	4861
2026-01-02 22:50:11.84	152.88	17.11	-42.4	-45.0	17.9	0.00e+00	0	39	0	980418560	56	4831
2026-01-02 22:50:12.69	153.00	17.03	-42.5	-45.1	17.8	4.34e-05	0	39	0	982515712	56	4892
2026-01-02 22:50:13.83	153.14	16.92	-42.4	-45.0	17.8	0.00e+00	0	39	0	984612864	56	4842
2026-01-02 22:50:14.69	153.25	16.84	-42.4	-45.1	17.8	0.00e+00	0	39	0	986710016	56	4874
2026-01-02 22:50:15.82	153.40	16.73	-42.7	-45.4	17.5	0.00e+00	0	39	0	988807168	56	5082
2026-01-02 22:50:16.68	153.51	16.65	-42.7	-45.4	17.4	0.00e+00	0	39	0	989855744	56	5094
2026-01-02 22:50:17.82	153.65	16.54	-42.9	-45.7	17.2	0.00e+00	0	39	0	991952896	56	5249
2026-01-02 22:50:18.67	153.76	16.46	-43.0	-45.9	17.0	0.00e+00	0	39	0	994050048	56	5347
2026-01-02 22:50:19.81	153.90	16.36	-43.0	-45.8	17.0	0.00e+00	0	39	0	996147200	56	5335
2026-01-02 22:50:20.67	154.01	16.28	-42.9	-45.7	17.1	0.00e+00	0	39	0	997195776	56	5253
2026-01-02 22:50:21.82	154.15	16.17	-42.8	-45.5	17.3	0.00e+00	0	39	0	999292928	56	5139
2026-01-02 22:50:22.67	154.25	16.09	-42.7	-45.5	17.4	0.00e+00	0	39	0	1001390080	56	5113
2026-01-02 22:50:23.81	154.39	15.98	-42.8	-45.6	17.3	0.00e+00	0	39	0	1003487232	56	5161
2026-01-02 22:50:24.68	154.50	15.90	-42.5	-45.2	17.6	0.00e+00	0	39	0	1004535808	56	4960
2026-01-02 22:50:25.82	154.63	15.79	-42.4	-45.1	17.7	0.00e+00	0	39	0	1006632960	56	4895
2026-01-02 22:50:26.68	154.74	15.71	-42.4	-45.1	17.7	0.00e+00	0	39	0	1008730112	56	4896
2026-01-02 22:50:27.82	154.87	15.61	-42.3	-45.0	17.8	0.00e+00	0	39	0	1010827264	56	4819
2026-01-02 22:50:28.68	154.97	15.53	-42.4	-45.0	17.8	0.00e+00	0	39	0	1012924416	56	4862
2026-01-02 22:50:29.82	155.11	15.42	-42.4	-45.0	17.8	0.00e+00	0	39	0	1015021568	56	4854
2026-01-02 22:50:30.68	155.21	15.35	-42.4	-45.1	17.7	0.00e+00	0	39	0	1016070144	56	4883
2026-01-02 22:50:31.82	155.34	15.24	-42.5	-45.3	17.6	0.00e+00	0	40	0	1018167296	56	4988
2026-01-02 22:50:32.68	155.44	15.16	-42.5	-45.2	17.6	0.00e+00	0	39	0	1020264448	56	4958
2026-01-02 22:50:33.82	155.57	15.06	-42.6	-45.4	17.4	0.00e+00	0	39	0	1022361600	56	5057
2026-01-02 22:50:34.67	155.67	14.98	-42.8	-45.5	17.3	0.00e+00	0	39	0	1023410176	56	5152
2026-01-02 22:50:35.81	155.80	14.88	-42.8	-45.6	17.2	0.00e+00	0	39	0	1025507328	56	5172
2026-01-02 22:50:36.67	155.89	14.80	-42.9	-45.8	17.1	0.00e+00	0	39	0	1027604480	56	5281
2026-01-02 22:50:37.80	156.02	14.70	-42.9	-45.7	17.1	0.00e+00	0	39	0	1029701632	56	5250
2026-01-02 22:50:38.66	156.11	14.62	-42.8	-45.7	17.1	0.00e+00	0	39	0	1030750208	56	5245
2026-01-02 22:50:39.80	156.24	14.52	-42.8	-45.6	17.2	0.00e+00	0	39	0	1032847360	56	5210
2026-01-02 22:50:40.65	156.33	14.44	-42.6	-45.4	17.4	0.00e+00	0	39	0	1034944512	56	5082
2026-01-02 22:50:41.79	156.46	14.34	-42.7	-45.4	17.4	2.20e-06	0	39	0	1037041664	56	5087
2026-01-02 22:50:42.65	156.55	14.27	-42.6	-45.4	17.4	0.00e+00	0	39	0	1039138816	56	5079
2026-01-02 22:50:43.79	156.68	14.16	-42.6	-45.3	17.5	0.00e+00	0	39	0	1041235968	56	5001
2026-01-02 22:50:44.64	156.77	14.09	-42.5	-45.2	17.6	1.11e-03	0	39	0	1042284544	56	4937
2026-01-02 22:50:45.78	156.89	13.99	-42.5	-45.1	17.6	0.00e+00	0	39	0	1044381696	56	4919
2026-01-02 22:50:46.64	156.98	13.91	-42.5	-45.1	17.6	0.00e+00	0	39	0	1046478848	56	4917
2026-01-02 22:50:47.78	157.10	13.81	-42.5	-45.1	17.6	0.00e+00	0	39	0	1048576000	56	4926
2026-01-02 22:50:48.63	157.19	13.74	-42.6	-45.2	17.5	0.00e+00	0	39	0	1049624576	56	4977
2026-01-02 22:50:49.77	157.31	13.64	-42.7	-45.4	17.3	0.00e+00	0	40	0	1051721728	56	5090
2026-01-02 22:50:50.63	157.40	13.56	-42.8	-45.6	17.2	0.00e+00	0	39	0	1053818880	56	5160
2026-01-02 22:50:51.77	157.52	13.47	-42.9	-45.7	17.1	0.00e+00	0	39	0	1055916032	56	5222
2026-01-02 22:50:52.63	157.61	13.39	-43.0	-45.8	17.0	0.00e+00	0	39	0	1056964608	56	5290
2026-01-02 22:50:53.77	157.72	13.29	-43.1	-45.9	16.9	0.00e+00	0	39	0	1059061760	57	5064
2026-01-02 22:50:54.63	157.81	13.22	-43.1	-45.9	16.9	0.00e+00	0	39	0	1061158912	57	5060
2026-01-02 22:50:55.77	157.92	13.12	-43.2	-46.0	16.7	0.00e+00	0	39	0	1063256064	57	5145
2026-01-02 22:50:56.63	158.01	13.05	-43.2	-46.1	16.7	0.00e+00	0	40	0	1064304640	57	5168
2026-01-02 22:50:57.77	158.13	12.95	-43.3	-46.2	16.6	0.00e+00	0	39	0	1067450368	57	5240
2026-01-02 22:50:58.62	158.21	12.88	-43.3	-46.2	16.6	0.00e+00	0	39	0	1068498944	57	5227
2026-01-02 22:50:59.76	158.32	12.78	-43.2	-46.0	16.7	0.00e+00	0	39	0	1070596096	57	5150
2026-01-02 22:51:00.61	158.41	12.71	-43.2	-46.0	16.7	0.00e+00	0	39	0	1072693248	57	5137
2026-01-02 22:51:01.75	158.52	12.61	-43.2	-46.0	16.7	6.77e-03	0	39	0	1074790400	57	5151
2026-01-02 22:51:02.61	158.60	12.54	-43.1	-46.0	16.7	0.00e+00	0	39	0	1075838976	57	5113
2026-01-02 22:51:03.74	158.71	12.44	-43.1	-45.9	16.8	0.00e+00	0	39	0	1077936128	57	5067
2026-01-02 22:51:04.60	158.79	12.37	-43.0	-45.8	16.9	1.01e-02	0	39	0	1080033280	57	5012
2026-01-02 22:51:05.74	158.90	12.28	-43.0	-45.8	17.0	0.00e+00	0	39	0	1082130432	57	4995
2026-01-02 22:51:06.60	158.98	12.20	-43.0	-45.8	16.9	0.00e+00	0	39	0	1083179008	57	5017
2026-01-02 22:51:07.73	159.09	12.11	-42.9	-45.7	17.0	0.00e+00	0	39	0	1085276160	57	4953
2026-01-02 22:51:08.59	159.17	12.04	-43.0	-45.7	17.0	0.00e+00	0	39	0	1087373312	57	4966
2026-01-02 22:51:09.73	159.28	11.94	-42.9	-45.7	17.0	0.00e+00	0	39	0	1089470464	57	4938
2026-01-02 22:51:10.58	159.36	11.87	-43.1	-45.9	16.8	1.09e-02	0	39	0	1090519040	57	5052
2026-01-02 22:51:11.73	159.46	11.78	-43.1	-45.9	16.8	0.00e+00	0	39	0	1092616192	57	5053
2026-01-02 22:51:12.58	159.54	11.71	-43.0	-45.8	16.9	0.00e+00	0	39	0	1094713344	57	4989
2026-01-02 22:51:13.72	159.65	11.61	-43.1	-45.9	16.7	7.58e-03	0	39	0	1096810496	57	5090
2026-01-02 22:51:14.57	159.72	11.55	-43.1	-46.0	16.7	0.00e+00	0	39	0	1098907648	57	5112
2026-01-02 22:51:15.71	159.83	11.45	-43.1	-46.0	16.7	0.00e+00	0	39	0	1101004800	57	5106
2026-01-02 22:51:16.57	159.90	11.38	-43.1	-46.0	16.7	0.00e+00	0	39	0	1102053376	57	5112
2026-01-02 22:51:17.70	160.01	11.29	-43.1	-46.0	16.7	0.00e+00	0	39	0	1104150528	57	5124
2026-01-02 22:51:18.56	160.08	11.22	-43.2	-46.0	16.6	0.00e+00	0	39	0	1106247680	57	5158
2026-01-02 22:51:19.70	160.18	11.13	-43.3	-46.2	16.5	0.00e+00	0	39	0	1108344832	57	5242
2026-01-02 22:51:20.55	160.26	11.06	-43.3	-46.2	16.5	0.00e+00	0	39	0	1109393408	57	5239
2026-01-02 22:51:21.69	160.36	10.97	-43.3	-46.2	16.4	7.00e-07	0	39	0	1111490560	57	5261
2026-01-02 22:51:22.55	160.43	10.90	-43.4	-46.3	16.3	0.00e+00	0	39	0	1113587712	57	5336
2026-01-02 22:51:23.69	160.53	10.81	-43.4	-46.4	16.3	0.00e+00	0	39	0	1115684864	57	5358
2026-01-02 22:51:24.55	160.61	10.74	-43.4	-46.4	16.2	0.00e+00	0	39	0	1116733440	57	5379
2026-01-02 22:51:25.69	160.71	10.65	-43.6	-46.7	16.0	0.00e+00	0	39	0	1118830592	57	5544
2026-01-02 22:51:26.54	160.78	10.58	-43.6	-46.6	16.0	0.00e+00	0	39	0	1120927744	57	5509
2026-01-02 22:51:27.68	160.88	10.49	-43.5	-46.6	16.0	0.00e+00	0	39	0	1123024896	57	5500
2026-01-02 22:51:28.53	160.95	10.42	-43.6	-46.6	16.0	0.00e+00	0	39	0	1125122048	57	5509
2026-01-02 22:51:29.67	161.04	10.33	-43.5	-46.6	16.0	0.00e+00	0	40	0	1127219200	57	5487
2026-01-02 22:51:30.53	161.12	10.27	-43.6	-46.7	16.0	0.00e+00	0	39	0	1128267776	57	5537
2026-01-02 22:51:31.67	161.21	10.18	-43.6	-46.7	15.9	0.00e+00	0	39	0	1130364928	57	5575
2026-01-02 22:51:32.52	161.28	10.11	-43.7	-46.9	15.8	0.00e+00	0	39	0	1132462080	58	5359
2026-01-02 22:51:33.66	161.37	10.02	-43.7	-46.9	15.8	0.00e+00	0	39	0	1134559232	58	5354
2026-01-02 22:51:34.52	161.45	9.96	-43.8	-47.0	15.7	0.00e+00	0	39	0	1135607808	58	5422
2026-01-02 22:51:35.66	161.54	9.87	-43.7	-46.8	15.8	0.00e+00	0	39	0	1137704960	58	5323
2026-01-02 22:51:36.51	161.61	9.80	-43.6	-46.8	15.9	0.00e+00	0	39	0	1139802112	58	5294
2026-01-02 22:51:37.66	161.70	9.71	-43.7	-46.9	15.7	0.00e+00	0	39	0	1141899264	58	5376
2026-01-02 22:51:38.51	161.77	9.65	-43.8	-47.0	15.6	0.00e+00	0	39	0	1142947840	58	5427
2026-01-02 22:51:39.65	161.86	9.56	-43.9	-47.1	15.5	0.00e+00	0	39	0	1145044992	58	5495
2026-01-02 22:51:40.51	161.93	9.49	-43.9	-47.1	15.5	0.00e+00	0	39	0	1147142144	58	5484
2026-01-02 22:51:41.65	162.02	9.41	-43.8	-47.0	15.6	0.00e+00	0	39	0	1149239296	58	5461
2026-01-02 22:51:42.51	162.09	9.34	-43.8	-47.1	15.6	0.00e+00	0	39	0	1151336448	58	5476
2026-01-02 22:51:43.65	162.18	9.25	-43.9	-47.2	15.4	0.00e+00	0	39	0	1153433600	58	5569
2026-01-02 22:51:44.50	162.24	9.19	-44.0	-47.3	15.3	0.00e+00	0	39	0	1154482176	58	5617
2026-01-02 22:51:45.65	162.33	9.10	-44.0	-47.4	15.2	0.00e+00	0	39	0	1156579328	58	5690
2026-01-02 22:51:46.50	162.40	9.04	-44.1	-47.5	15.1	0.00e+00	0	39	0	1158676480	58	5733
2026-01-02 22:51:47.64	162.48	8.95	-45.7	-50.3	12.7	5.16e-03	0	39	0	1160773632	61	6708
2026-01-02 22:51:48.49	162.55	8.89	-48.4	-61.6	3.9	1.48e+00	0	39	104	1160773632	67	17320
2026-01-02 22:51:49.63	162.64	8.80	-48.6	-63.8	3.8	1.49e+00	0	39	104	1160773632	67	22432
2026-01-02 22:51:50.49	162.70	8.74	-48.3	-64.0	3.8	1.49e+00	0	39	104	1160773632	67	22794
2026-01-02 22:51:51.62	162.79	8.65	-48.8	-64.2	3.8	1.49e+00	0	39	104	1160773632	68	22191
2026-01-02 22:51:52.47	162.85	8.59	-49.0	-64.3	3.8	1.49e+00	0	39	104	1160773632	68	22492
2026-01-02 22:51:53.61	162.94	8.51	-49.0	-64.4	3.8	1.49e+00	0	39	104	1160773632	68	22583
2026-01-02 22:51:54.46	163.00	8.44	-48.6	-64.4	3.8	1.49e+00	0	39	104	1160773632	68	22683
2026-01-02 22:51:55.60	163.08	8.36	-49.1	-64.4	3.8	1.49e+00	0	39	104	1160773632	69	21458
2026-01-02 22:51:56.46	163.15	8.30	-49.1	-64.4	3.8	1.49e+00	0	39	104	1160773632	69	21449
2026-01-02 22:51:57.60	163.23	8.21	-49.3	-64.4	3.8	1.49e+00	0	39	104	1160773632	69	21505
2026-01-02 22:51:58.45	163.29	8.15	-49.3	-64.5	3.8	1.49e+00	0	39	104	1160773632	69	21545
2026-01-02 22:51:59.59	163.37	8.07	-49.3	-64.5	3.8	1.49e+00	0	39	104	1160773632	69	21580
2026-01-02 22:52:00.44	163.44	8.00	-49.3	-64.5	3.8	1.49e+00	0	39	104	1160773632	69	21554
2026-01-02 22:52:01.58	163.52	7.92	-49.1	-64.5	3.8	1.49e+00	0	39	104	1160773632	69	21595
2026-01-02 22:52:02.44	163.58	7.86	-49.3	-64.5	3.8	1.49e+00	0	39	104	1160773632	69	21586
2026-01-02 22:52:03.59	163.66	7.78	-49.3	-64.5	3.8	1.49e+00	0	39	104	1160773632	69	21525
2026-01-02 22:52:04.44	163.72	7.71	-49.3	-64.5	3.8	1.49e+00	0	39	104	1160773632	69	21599
2026-01-02 22:52:05.59	163.80	7.63	-49.2	-64.5	3.8	1.49e+00	0	39	104	1160773632	69	21538
