passes_logs/2026/01/02/T1/T1__20260102_103011_NOAA_20_JPSS-1_rec.log

#Pass ID: 20260102_103011_NOAA 20 (JPSS-1)
#Satellite: NOAA 20 (JPSS-1)
#Configuration: NOAA 20
#almurnet v.1.7.20251203
#Start time: 2026-01-02 10:30:13

#Version: 2.0.20230620
#Station: T1
#Location: 37.570604 lon 55.790049 lat
#TLE: 1 43013U 17073A   26001.30344297  .00000183  00000+0  10758-3 0  9995
#TLE: 2 43013  98.7621 302.3885 0001938  59.1624 300.9742 14.19532032420790

#Time	Az	El	Level	Level2	SNR	BER	BlckErr	Temp	State	Recorded	gain1	gain2
2026-01-02 10:30:13.10	178.57	5.08	-48.8	-64.7	3.8	1.49e+00	0	39	0	0	69	22202
2026-01-02 10:30:14.09	178.60	5.15	-45.5	-64.1	3.8	1.49e+00	0	40	104	0	61	32874
2026-01-02 10:30:15.10	178.63	5.23	-45.4	-64.1	3.8	1.49e+00	0	39	104	0	61	32684
2026-01-02 10:30:16.10	178.67	5.30	-45.5	-64.1	3.8	1.49e+00	0	40	104	0	61	32673
2026-01-02 10:30:17.11	178.70	5.37	-45.3	-64.0	3.8	1.49e+00	0	40	104	0	61	32527
2026-01-02 10:30:18.11	178.74	5.44	-45.4	-64.1	3.8	1.49e+00	0	40	104	0	61	32642
2026-01-02 10:30:19.11	178.77	5.51	-45.4	-64.1	3.8	1.49e+00	0	40	104	0	61	32553
2026-01-02 10:30:20.12	178.81	5.58	-45.4	-64.1	3.8	1.49e+00	0	40	104	0	61	32657
2026-01-02 10:30:21.12	178.84	5.65	-45.5	-64.1	3.8	1.49e+00	0	39	104	0	61	32554
2026-01-02 10:30:22.13	178.88	5.73	-45.4	-64.0	3.8	1.49e+00	0	40	104	0	61	32302
2026-01-02 10:30:23.13	178.91	5.80	-45.3	-64.0	3.8	1.49e+00	0	40	104	0	61	32182
2026-01-02 10:30:24.13	178.95	5.87	-45.4	-63.8	3.8	1.49e+00	0	40	104	0	61	31453
2026-01-02 10:30:25.14	178.98	5.94	-45.3	-63.6	3.8	1.49e+00	0	40	104	0	61	30833
2026-01-02 10:30:26.14	179.02	6.02	-45.2	-63.2	3.8	1.49e+00	0	40	104	0	61	29518
2026-01-02 10:30:27.15	179.06	6.09	-45.3	-62.6	3.8	1.49e+00	0	40	104	0	61	27567
2026-01-02 10:30:28.15	179.09	6.16	-45.3	-62.2	3.8	1.49e+00	0	40	104	0	61	26281
2026-01-02 10:30:29.15	179.13	6.24	-45.4	-61.5	4.1	1.47e+00	0	40	104	0	61	24162
2026-01-02 10:30:30.16	179.17	6.31	-45.3	-60.7	4.2	1.39e+00	0	40	0	0	61	22120
2026-01-02 10:30:31.16	179.20	6.39	-45.3	-60.0	4.5	1.25e+00	0	40	0	1048576	61	20470
2026-01-02 10:30:32.16	179.24	6.46	-45.2	-59.4	4.7	9.28e-01	0	40	0	2097152	61	19117
2026-01-02 10:30:33.17	179.28	6.53	-45.3	-59.0	4.9	8.05e-01	0	40	0	4194304	61	18101
2026-01-02 10:30:34.17	179.31	6.61	-45.1	-58.7	5.1	6.73e-01	0	40	0	6291456	61	17669
2026-01-02 10:30:35.17	179.35	6.68	-44.9	-58.8	5.0	6.60e-01	0	40	0	8388608	61	17720
2026-01-02 10:30:36.18	179.39	6.76	-45.1	-59.1	4.9	7.11e-01	0	40	0	10485760	61	18453
2026-01-02 10:30:37.18	179.43	6.83	-45.1	-59.6	4.7	8.58e-01	0	40	0	11534336	61	19503
2026-01-02 10:30:38.19	179.46	6.91	-45.2	-61.1	4.2	1.31e+00	0	40	0	12582912	61	23096
2026-01-02 10:30:39.19	179.50	6.98	-45.2	-62.9	3.8	1.48e+00	0	40	104	12582912	61	28636
2026-01-02 10:30:40.19	179.54	7.06	-45.2	-64.1	3.8	1.49e+00	0	40	104	12582912	61	32779
2026-01-02 10:30:41.20	179.58	7.14	-45.2	-63.3	3.8	1.49e+00	0	40	104	12582912	61	29900
2026-01-02 10:30:42.20	179.62	7.21	-45.2	-60.6	4.2	1.49e+00	0	40	104	12582912	61	21915
2026-01-02 10:30:43.20	179.66	7.29	-44.9	-57.3	5.9	8.55e-01	0	41	0	13631488	61	15042
2026-01-02 10:30:44.20	179.69	7.36	-44.8	-55.0	8.0	1.19e-01	0	41	0	15728640	61	11422
2026-01-02 10:30:45.21	179.73	7.44	-44.4	-53.0	10.1	1.94e-02	0	40	0	17825792	60	9633
2026-01-02 10:30:46.21	179.77	7.52	-44.0	-51.4	11.7	2.22e-03	0	41	0	19922944	60	8044
2026-01-02 10:30:47.21	179.81	7.60	-43.8	-50.1	13.0	6.86e-05	0	41	0	20971520	59	7357
2026-01-02 10:30:48.22	179.85	7.67	-43.5	-49.2	14.0	5.30e-06	0	40	0	23068672	59	6590
2026-01-02 10:30:49.22	179.89	7.75	-43.2	-48.5	14.7	0.00e+00	0	40	0	25165824	58	6448
2026-01-02 10:30:50.22	179.93	7.83	-42.9	-47.9	15.2	0.00e+00	0	40	0	27262976	57	6408
2026-01-02 10:30:51.23	179.97	7.91	-42.8	-47.7	15.5	0.00e+00	0	40	0	29360128	57	6227
2026-01-02 10:30:52.23	180.01	7.99	-42.8	-47.6	15.6	0.00e+00	0	40	0	30408704	57	6147
2026-01-02 10:30:53.23	180.05	8.06	-42.9	-47.7	15.5	0.00e+00	0	40	0	32505856	57	6219
2026-01-02 10:30:54.23	180.09	8.14	-43.0	-48.1	15.1	0.00e+00	0	41	0	34603008	57	6504
2026-01-02 10:30:55.24	180.14	8.22	-43.2	-48.5	14.6	0.00e+00	0	41	0	36700160	57	6865
2026-01-02 10:30:56.24	180.18	8.30	-43.5	-49.2	14.0	2.20e-06	0	41	0	38797312	57	7402
2026-01-02 10:30:57.24	180.22	8.38	-43.7	-50.0	13.2	8.30e-06	0	41	0	39845888	58	7664
2026-01-02 10:30:58.25	180.26	8.46	-44.1	-51.0	12.2	1.39e-04	0	40	0	41943040	58	8571
2026-01-02 10:30:59.25	180.30	8.54	-44.3	-51.9	11.2	6.93e-04	0	41	0	44040192	59	8986
2026-01-02 10:31:00.25	180.35	8.62	-44.6	-53.1	9.9	2.85e-03	0	41	0	46137344	59	10384
2026-01-02 10:31:01.26	180.39	8.70	-44.6	-54.3	8.7	2.06e-02	0	41	0	48234496	60	11260
2026-01-02 10:31:02.26	180.43	8.78	-44.9	-55.5	7.5	7.16e-02	0	41	0	49283072	60	12941
2026-01-02 10:31:03.26	180.47	8.86	-44.8	-56.5	6.6	1.46e-01	0	41	0	51380224	60	14509
2026-01-02 10:31:04.27	180.52	8.95	-44.9	-57.6	5.8	3.37e-01	0	41	0	53477376	60	16397
2026-01-02 10:31:05.27	180.56	9.03	-45.0	-58.3	5.3	4.97e-01	0	41	0	55574528	60	17760
2026-01-02 10:31:06.27	180.60	9.11	-45.3	-57.8	5.6	5.28e-01	0	41	0	56623104	61	15822
2026-01-02 10:31:07.28	180.65	9.19	-45.7	-54.2	9.1	6.54e-02	0	41	0	58720256	61	10419
2026-01-02 10:31:08.28	180.69	9.27	-45.0	-60.1	4.4	1.29e+00	0	41	0	60817408	62	19414
2026-01-02 10:31:09.28	180.74	9.36	-46.3	-54.3	8.7	1.01e-01	0	41	0	61865984	63	9420
2026-01-02 10:31:10.28	180.78	9.44	-46.1	-53.1	10.2	3.63e-03	0	41	0	63963136	63	8223
2026-01-02 10:31:11.28	180.82	9.52	-46.1	-52.6	10.6	3.18e-03	0	41	0	66060288	63	7753
2026-01-02 10:31:12.28	180.87	9.61	-46.1	-52.3	10.9	3.24e-03	0	41	0	68157440	63	7490
2026-01-02 10:31:13.29	180.91	9.69	-45.9	-51.8	11.4	7.29e-04	0	41	0	70254592	63	7078
2026-01-02 10:31:14.29	180.96	9.77	-45.6	-50.8	12.5	6.81e-04	0	41	0	71303168	63	6293
2026-01-02 10:31:15.29	181.01	9.86	-45.6	-50.8	12.5	1.19e-04	0	41	0	73400320	63	6325
2026-01-02 10:31:16.30	181.05	9.94	-45.3	-50.1	13.3	1.40e-04	0	41	0	75497472	62	6140
2026-01-02 10:31:17.30	181.10	10.03	-45.7	-51.0	12.2	1.23e-04	0	41	0	77594624	62	6848
2026-01-02 10:31:18.30	181.14	10.11	-45.5	-50.2	13.1	8.01e-05	0	41	0	79691776	62	6266
2026-01-02 10:31:19.30	181.19	10.20	-44.9	-48.9	14.4	2.20e-06	0	41	0	80740352	61	5679
2026-01-02 10:31:20.30	181.24	10.28	-44.4	-47.8	15.5	0.00e+00	0	41	0	82837504	60	5323
2026-01-02 10:31:21.31	181.29	10.37	-44.0	-47.2	16.2	0.00e+00	0	41	0	84934656	60	4955
2026-01-02 10:31:22.31	181.33	10.45	-43.7	-46.7	16.6	0.00e+00	0	41	0	87031808	59	4974
2026-01-02 10:31:23.31	181.38	10.54	-43.7	-46.7	16.7	0.00e+00	0	41	0	89128960	59	4943
2026-01-02 10:31:24.31	181.43	10.63	-43.5	-46.5	16.9	0.00e+00	0	41	0	90177536	59	4833
2026-01-02 10:31:25.31	181.48	10.71	-43.5	-46.4	16.9	0.00e+00	0	41	0	92274688	59	4808
2026-01-02 10:31:26.31	181.52	10.80	-43.4	-46.4	17.0	0.00e+00	0	41	0	94371840	58	5073
2026-01-02 10:31:27.31	181.57	10.89	-43.4	-46.3	17.0	0.00e+00	0	41	0	96468992	58	5024
2026-01-02 10:31:28.32	181.62	10.98	-43.3	-46.3	17.1	0.00e+00	0	41	0	97517568	58	4995
2026-01-02 10:31:29.32	181.67	11.07	-43.5	-46.5	16.9	0.00e+00	0	41	0	99614720	58	5106
2026-01-02 10:31:30.32	181.72	11.15	-43.4	-46.4	17.0	0.00e+00	0	41	0	101711872	58	5044
2026-01-02 10:31:31.33	181.77	11.24	-43.3	-46.2	17.2	0.00e+00	0	41	0	103809024	58	4952
2026-01-02 10:31:32.33	181.82	11.33	-43.4	-46.3	17.1	0.00e+00	0	41	0	105906176	58	4989
2026-01-02 10:31:33.33	181.87	11.42	-43.4	-46.3	17.0	0.00e+00	0	41	0	106954752	58	5039
2026-01-02 10:31:34.33	181.92	11.51	-43.3	-46.1	17.2	0.00e+00	0	41	0	109051904	58	4924
2026-01-02 10:31:35.33	181.97	11.60	-43.4	-46.3	17.1	0.00e+00	0	41	0	111149056	58	4998
2026-01-02 10:31:36.33	182.02	11.69	-43.3	-46.2	14.6	0.00e+00	0	41	0	113246208	58	4961
2026-01-02 10:31:37.34	182.08	11.78	-43.3	-46.2	17.1	0.00e+00	0	41	0	115343360	58	4972
2026-01-02 10:31:38.34	182.13	11.87	-43.4	-46.3	17.1	0.00e+00	0	41	0	116391936	58	4992
2026-01-02 10:31:39.34	182.18	11.96	-43.3	-46.2	17.2	0.00e+00	0	41	0	118489088	58	4956
2026-01-02 10:31:40.34	182.23	12.06	-43.3	-46.2	17.2	0.00e+00	0	41	0	120586240	58	4948
2026-01-02 10:31:41.34	182.29	12.15	-43.3	-46.2	17.1	0.00e+00	0	41	0	122683392	58	4957
2026-01-02 10:31:42.35	182.34	12.24	-43.2	-46.1	17.3	0.00e+00	0	41	0	123731968	58	4897
2026-01-02 10:31:43.35	182.39	12.33	-43.3	-46.2	17.2	0.00e+00	0	41	0	125829120	58	4930
2026-01-02 10:31:44.34	182.45	12.42	-43.3	-46.2	17.2	0.00e+00	0	41	0	127926272	58	4930
2026-01-02 10:31:45.35	182.50	12.52	-43.3	-46.1	17.3	0.00e+00	0	41	0	130023424	58	4920
2026-01-02 10:31:46.35	182.56	12.61	-43.2	-46.1	17.3	0.00e+00	0	41	0	132120576	58	4899
2026-01-02 10:31:47.35	182.61	12.71	-43.2	-46.1	17.3	0.00e+00	0	41	0	134217728	58	4901
2026-01-02 10:31:48.35	182.66	12.80	-43.3	-46.2	17.3	0.00e+00	0	41	0	135266304	58	4928
2026-01-02 10:31:49.36	182.72	12.89	-43.2	-46.1	17.4	0.00e+00	0	41	0	137363456	58	4885
2026-01-02 10:31:50.36	182.78	12.99	-43.2	-46.1	17.3	0.00e+00	0	41	0	139460608	58	4886
2026-01-02 10:31:51.36	182.83	13.08	-43.3	-46.2	17.3	0.00e+00	0	41	0	141557760	58	4940
2026-01-02 10:31:52.36	182.89	13.18	-43.3	-46.2	17.3	0.00e+00	0	41	0	142606336	58	4937
2026-01-02 10:31:53.36	182.95	13.28	-43.3	-46.1	17.3	0.00e+00	0	41	0	144703488	58	4921
2026-01-02 10:31:54.37	183.00	13.37	-43.3	-46.1	17.3	0.00e+00	0	41	0	146800640	58	4913
2026-01-02 10:31:55.37	183.06	13.47	-43.3	-46.1	17.3	0.00e+00	0	41	0	148897792	58	4923
2026-01-02 10:31:56.37	183.12	13.57	-43.3	-46.1	17.3	0.00e+00	0	41	0	150994944	58	4922
2026-01-02 10:31:57.37	183.18	13.66	-43.3	-46.2	17.3	0.00e+00	0	41	0	152043520	58	4928
2026-01-02 10:31:58.37	183.23	13.76	-43.3	-46.2	17.3	0.00e+00	0	41	0	154140672	58	4937
2026-01-02 10:31:59.37	183.29	13.86	-43.3	-46.2	17.2	0.00e+00	0	41	0	156237824	58	4943
2026-01-02 10:32:00.38	183.35	13.96	-43.4	-46.3	17.2	0.00e+00	0	41	0	158334976	58	5025
2026-01-02 10:32:01.38	183.41	14.06	-43.3	-46.2	17.3	0.00e+00	0	41	0	160432128	58	4933
2026-01-02 10:32:02.38	183.47	14.16	-43.3	-46.1	17.3	0.00e+00	0	41	0	161480704	58	4917
2026-01-02 10:32:03.38	183.53	14.26	-43.3	-46.1	17.4	0.00e+00	0	41	0	163577856	58	4908
2026-01-02 10:32:04.38	183.59	14.36	-43.4	-46.2	17.2	0.00e+00	0	41	0	165675008	58	4982
2026-01-02 10:32:05.38	183.66	14.46	-43.4	-46.2	17.3	0.00e+00	0	41	0	167772160	58	4929
2026-01-02 10:32:06.39	183.72	14.56	-43.4	-46.2	17.3	0.00e+00	0	41	0	168820736	58	4941
2026-01-02 10:32:07.39	183.78	14.66	-43.4	-46.2	17.3	0.00e+00	0	41	0	170917888	58	4935
2026-01-02 10:32:08.39	183.84	14.76	-43.3	-46.1	17.4	0.00e+00	0	41	0	173015040	58	4881
2026-01-02 10:32:09.39	183.90	14.86	-43.4	-46.1	17.3	0.00e+00	0	41	0	175112192	58	4909
2026-01-02 10:32:10.39	183.97	14.96	-43.4	-46.2	17.3	0.00e+00	0	41	0	177209344	58	4930
2026-01-02 10:32:11.40	184.03	15.07	-43.4	-46.1	17.3	0.00e+00	0	41	0	178257920	58	4912
2026-01-02 10:32:12.40	184.10	15.17	-43.4	-46.2	17.3	0.00e+00	0	41	0	180355072	58	4930
2026-01-02 10:32:13.40	184.16	15.27	-43.4	-46.2	17.3	0.00e+00	0	41	0	182452224	58	4934
2026-01-02 10:32:14.40	184.22	15.38	-43.5	-46.3	17.2	0.00e+00	0	41	0	184549376	58	4985
2026-01-02 10:32:15.40	184.29	15.48	-43.4	-46.2	17.3	0.00e+00	0	41	0	186646528	58	4940
2026-01-02 10:32:16.41	184.36	15.59	-43.5	-46.2	17.3	0.00e+00	0	41	0	187695104	58	4966
2026-01-02 10:32:17.41	184.42	15.69	-43.5	-46.3	17.2	0.00e+00	0	41	0	189792256	58	4989
2026-01-02 10:32:18.41	184.49	15.80	-43.4	-46.2	17.3	0.00e+00	0	41	0	191889408	58	4936
2026-01-02 10:32:19.41	184.56	15.90	-43.4	-46.1	17.4	0.00e+00	0	41	0	193986560	58	4909
2026-01-02 10:32:20.41	184.62	16.01	-43.4	-46.1	17.4	0.00e+00	0	41	0	196083712	58	4913
2026-01-02 10:32:21.42	184.69	16.12	-43.3	-46.1	17.4	0.00e+00	0	41	0	197132288	58	4873
2026-01-02 10:32:22.42	184.76	16.23	-43.3	-46.0	17.4	0.00e+00	0	41	0	199229440	58	4869
2026-01-02 10:32:23.42	184.83	16.33	-43.3	-46.0	17.5	0.00e+00	0	41	0	201326592	58	4849
2026-01-02 10:32:24.43	184.90	16.44	-43.2	-45.9	17.5	0.00e+00	0	41	0	203423744	58	4814
2026-01-02 10:32:25.43	184.97	16.55	-43.2	-46.0	17.5	0.00e+00	0	41	0	205520896	58	4842
2026-01-02 10:32:26.43	185.04	16.66	-43.2	-46.0	17.5	0.00e+00	0	41	0	206569472	58	4827
2026-01-02 10:32:27.43	185.11	16.77	-43.1	-45.9	17.6	0.00e+00	0	41	0	208666624	58	4768
2026-01-02 10:32:28.44	185.18	16.88	-43.0	-45.8	17.7	0.00e+00	0	41	0	210763776	58	4724
2026-01-02 10:32:29.44	185.25	16.99	-43.1	-45.8	17.6	0.00e+00	0	41	0	212860928	58	4756
2026-01-02 10:32:30.44	185.33	17.10	-43.0	-45.8	17.7	0.00e+00	0	41	0	214958080	58	4733
2026-01-02 10:32:31.45	185.40	17.22	-43.1	-45.9	17.6	0.00e+00	0	41	0	216006656	58	4776
2026-01-02 10:32:32.45	185.47	17.33	-43.2	-45.9	17.6	0.00e+00	0	41	0	218103808	58	4792
2026-01-02 10:32:33.45	185.55	17.44	-43.2	-45.9	17.6	0.00e+00	0	41	0	220200960	58	4787
2026-01-02 10:32:34.46	185.62	17.55	-43.1	-45.8	17.7	0.00e+00	0	41	0	222298112	58	4747
2026-01-02 10:32:35.46	185.70	17.67	-43.2	-45.9	17.6	0.00e+00	0	41	0	224395264	58	4807
2026-01-02 10:32:36.46	185.77	17.78	-43.2	-45.9	17.6	0.00e+00	0	41	0	225443840	58	4760
2026-01-02 10:32:37.46	185.85	17.89	-43.1	-45.8	17.7	0.00e+00	0	41	0	227540992	58	4751
2026-01-02 10:32:38.46	185.92	18.01	-43.1	-45.8	17.7	0.00e+00	0	41	0	229638144	58	4752
2026-01-02 10:32:39.46	186.00	18.12	-43.2	-45.9	17.7	0.00e+00	0	41	0	231735296	58	4769
2026-01-02 10:32:40.47	186.08	18.24	-43.2	-45.9	17.6	0.00e+00	0	41	0	232783872	58	4769
2026-01-02 10:32:41.47	186.16	18.36	-43.1	-45.8	17.8	0.00e+00	0	41	0	234881024	58	4715
2026-01-02 10:32:42.47	186.24	18.47	-43.1	-45.8	17.7	0.00e+00	0	41	0	236978176	58	4732
2026-01-02 10:32:43.47	186.32	18.59	-43.1	-45.8	17.7	0.00e+00	0	41	0	239075328	58	4736
2026-01-02 10:32:44.48	186.40	18.71	-43.1	-45.7	17.8	0.00e+00	0	41	0	241172480	58	4698
2026-01-02 10:32:45.48	186.48	18.83	-43.0	-45.7	17.9	0.00e+00	0	41	0	242221056	58	4666
2026-01-02 10:32:46.48	186.56	18.95	-42.9	-45.6	17.9	0.00e+00	0	41	0	244318208	57	4901
2026-01-02 10:32:47.48	186.64	19.07	-42.9	-45.5	18.0	0.00e+00	0	41	0	246415360	57	4840
2026-01-02 10:32:48.49	186.72	19.19	-42.8	-45.4	18.1	0.00e+00	0	41	0	248512512	57	4780
2026-01-02 10:32:49.49	186.81	19.31	-42.8	-45.4	18.1	0.00e+00	0	41	0	250609664	57	4788
2026-01-02 10:32:50.49	186.89	19.43	-42.6	-45.2	18.2	0.00e+00	0	41	0	251658240	57	4703
2026-01-02 10:32:51.49	186.98	19.55	-42.5	-45.2	18.4	0.00e+00	0	41	0	253755392	57	4652
2026-01-02 10:32:52.50	187.06	19.67	-42.5	-45.1	18.4	0.00e+00	0	41	0	255852544	57	4632
2026-01-02 10:32:53.50	187.15	19.79	-42.5	-45.1	18.4	0.00e+00	0	41	0	257949696	57	4642
2026-01-02 10:32:54.50	187.23	19.92	-42.6	-45.2	18.3	0.00e+00	0	41	0	260046848	57	4687
2026-01-02 10:32:55.50	187.32	20.04	-42.4	-44.9	18.6	0.00e+00	0	41	0	261095424	56	4810
2026-01-02 10:32:56.50	187.41	20.17	-42.4	-44.9	18.7	0.00e+00	0	41	0	263192576	56	4764
2026-01-02 10:32:57.50	187.50	20.29	-42.3	-44.8	18.7	0.00e+00	0	41	0	265289728	56	4748
2026-01-02 10:32:58.51	187.59	20.42	-42.2	-44.7	18.8	0.00e+00	0	42	0	267386880	56	4677
2026-01-02 10:32:59.51	187.67	20.54	-42.3	-44.7	18.8	0.00e+00	0	41	0	269484032	56	4685
2026-01-02 10:33:00.51	187.77	20.67	-42.1	-44.5	19.0	0.00e+00	0	41	0	270532608	56	4598
2026-01-02 10:33:01.51	187.86	20.80	-42.1	-44.5	19.0	0.00e+00	0	41	0	272629760	56	4577
2026-01-02 10:33:02.51	187.95	20.92	-42.1	-44.5	19.1	0.00e+00	0	41	0	274726912	56	4558
2026-01-02 10:33:03.51	188.04	21.05	-42.0	-44.4	19.1	0.00e+00	0	41	0	276824064	56	4532
2026-01-02 10:33:04.52	188.14	21.18	-42.0	-44.4	19.1	0.00e+00	0	41	0	277872640	56	4540
2026-01-02 10:33:05.52	188.23	21.31	-42.1	-44.5	19.1	0.00e+00	0	41	0	279969792	56	4555
2026-01-02 10:33:06.52	188.32	21.44	-41.8	-44.2	19.2	0.00e+00	0	41	0	282066944	55	4662
2026-01-02 10:33:07.52	188.42	21.57	-41.7	-44.1	19.3	0.00e+00	0	42	0	284164096	55	4623
2026-01-02 10:33:08.52	188.52	21.70	-41.7	-44.1	19.3	0.00e+00	0	41	0	286261248	55	4611
2026-01-02 10:33:09.53	188.61	21.83	-41.9	-44.3	19.1	0.00e+00	0	41	0	287309824	55	4719
2026-01-02 10:33:10.53	188.71	21.97	-42.0	-44.4	19.0	0.00e+00	0	41	0	289406976	55	4784
2026-01-02 10:33:11.53	188.81	22.10	-41.9	-44.3	19.1	0.00e+00	0	41	0	291504128	55	4721
2026-01-02 10:33:12.54	188.91	22.23	-41.8	-44.2	19.2	0.00e+00	0	41	0	293601280	55	4669
2026-01-02 10:33:13.54	189.01	22.37	-41.9	-44.3	19.1	0.00e+00	0	41	0	295698432	55	4726
2026-01-02 10:33:14.54	189.11	22.50	-41.9	-44.3	19.1	0.00e+00	0	41	0	296747008	55	4730
2026-01-02 10:33:15.54	189.22	22.64	-41.9	-44.3	19.1	0.00e+00	0	42	0	298844160	55	4724
2026-01-02 10:33:16.54	189.32	22.77	-41.8	-44.1	19.3	0.00e+00	0	41	0	300941312	55	4635
2026-01-02 10:33:17.54	189.42	22.91	-41.8	-44.0	19.3	0.00e+00	0	41	0	303038464	55	4597
2026-01-02 10:33:18.55	189.53	23.05	-41.8	-44.0	19.3	0.00e+00	0	41	0	305135616	55	4598
2026-01-02 10:33:19.55	189.63	23.19	-41.7	-44.0	19.4	0.00e+00	0	41	0	306184192	55	4557
2026-01-02 10:33:20.55	189.74	23.33	-41.7	-44.0	19.4	0.00e+00	0	41	0	308281344	55	4567
2026-01-02 10:33:21.55	189.85	23.46	-41.6	-43.9	19.5	0.00e+00	0	41	0	310378496	55	4527
2026-01-02 10:33:22.56	189.96	23.61	-41.7	-43.9	19.5	0.00e+00	0	41	0	312475648	55	4533
2026-01-02 10:33:23.56	190.07	23.75	-41.5	-43.8	19.6	0.00e+00	0	41	0	314572800	55	4456
2026-01-02 10:33:24.56	190.18	23.89	-41.5	-43.8	19.6	0.00e+00	0	41	0	315621376	55	4453
2026-01-02 10:33:25.57	190.29	24.03	-41.5	-43.7	19.7	0.00e+00	0	41	0	317718528	54	4686
2026-01-02 10:33:26.57	190.40	24.17	-41.5	-43.8	19.6	0.00e+00	0	41	0	319815680	54	4712
2026-01-02 10:33:27.57	190.51	24.32	-41.4	-43.7	19.7	0.00e+00	0	41	0	321912832	54	4656
2026-01-02 10:33:28.57	190.63	24.46	-41.4	-43.6	19.8	0.00e+00	0	41	0	322961408	54	4634
2026-01-02 10:33:29.57	190.74	24.60	-41.5	-43.8	19.7	0.00e+00	0	41	0	325058560	54	4709
2026-01-02 10:33:30.57	190.86	24.75	-41.3	-43.6	19.8	0.00e+00	0	41	0	327155712	54	4622
2026-01-02 10:33:31.57	190.98	24.90	-41.4	-43.7	19.6	0.00e+00	0	41	0	329252864	54	4698
2026-01-02 10:33:32.57	191.10	25.04	-41.4	-43.7	19.7	0.00e+00	0	41	0	331350016	54	4682
2026-01-02 10:33:33.57	191.22	25.19	-41.5	-43.7	19.6	0.00e+00	0	41	0	332398592	54	4698
2026-01-02 10:33:34.58	191.34	25.34	-41.5	-43.8	19.6	0.00e+00	0	41	0	334495744	54	4716
2026-01-02 10:33:35.58	191.46	25.49	-41.5	-43.8	19.6	0.00e+00	0	41	0	336592896	54	4706
2026-01-02 10:33:36.58	191.58	25.64	-41.6	-43.9	19.6	0.00e+00	0	42	0	338690048	54	4778
2026-01-02 10:33:37.58	191.71	25.79	-41.5	-43.8	19.6	0.00e+00	0	41	0	340787200	54	4726
2026-01-02 10:33:38.58	191.83	25.94	-41.6	-43.8	19.6	0.00e+00	0	41	0	341835776	54	4744
2026-01-02 10:33:39.59	191.96	26.09	-41.7	-43.9	19.5	0.00e+00	0	41	0	343932928	54	4795
2026-01-02 10:33:40.59	192.09	26.24	-41.7	-44.0	19.4	0.00e+00	0	41	0	346030080	54	4846
2026-01-02 10:33:41.59	192.21	26.40	-41.7	-44.0	19.4	0.00e+00	0	41	0	348127232	54	4863
2026-01-02 10:33:42.59	192.34	26.55	-41.9	-44.2	19.3	0.00e+00	0	42	0	350224384	54	4932
2026-01-02 10:33:43.59	192.47	26.70	-41.9	-44.3	19.2	0.00e+00	0	41	0	351272960	54	4991
2026-01-02 10:33:44.59	192.61	26.86	-41.9	-44.2	19.2	0.00e+00	0	42	0	353370112	54	4982
2026-01-02 10:33:45.60	192.74	27.02	-42.0	-44.3	19.1	0.00e+00	0	41	0	355467264	54	5037
2026-01-02 10:33:46.60	192.88	27.17	-42.1	-44.5	19.0	0.00e+00	0	41	0	357564416	54	5109
2026-01-02 10:33:47.60	193.01	27.33	-42.1	-44.4	19.0	0.00e+00	0	41	0	359661568	54	5093
2026-01-02 10:33:48.60	193.15	27.49	-42.3	-44.6	18.8	0.00e+00	0	41	0	360710144	55	4903
2026-01-02 10:33:49.61	193.29	27.65	-42.4	-44.8	18.7	0.00e+00	0	42	0	362807296	55	5014
2026-01-02 10:33:50.61	193.43	27.81	-42.6	-45.0	18.4	0.00e+00	0	41	0	364904448	55	5145
2026-01-02 10:33:51.61	193.57	27.97	-42.9	-45.4	18.2	0.00e+00	0	41	0	367001600	56	5072
2026-01-02 10:33:52.62	193.72	28.13	-43.1	-45.7	18.0	0.00e+00	0	41	0	368050176	56	5241
2026-01-02 10:33:53.62	193.86	28.29	-43.3	-45.9	17.8	0.00e+00	0	41	0	370147328	57	5064
2026-01-02 10:33:54.62	194.01	28.46	-43.4	-46.0	17.7	0.00e+00	0	41	0	372244480	57	5133
2026-01-02 10:33:55.62	194.15	28.62	-43.5	-46.2	17.5	0.00e+00	0	41	0	374341632	57	5237
2026-01-02 10:33:56.63	194.30	28.78	-43.7	-46.4	17.3	0.00e+00	0	41	0	376438784	58	5054
2026-01-02 10:33:57.63	194.45	28.95	-43.8	-46.5	17.2	0.00e+00	0	41	0	377487360	58	5134
2026-01-02 10:33:58.63	194.61	29.11	-43.9	-46.6	17.1	0.00e+00	0	41	0	379584512	58	5212
2026-01-02 10:33:59.63	194.76	29.28	-44.0	-46.8	16.9	0.00e+00	0	41	0	381681664	58	5314
2026-01-02 10:34:00.63	194.91	29.45	-44.1	-46.9	16.8	0.00e+00	0	41	0	383778816	58	5375
2026-01-02 10:34:01.63	195.07	29.62	-44.1	-47.0	16.7	0.00e+00	0	41	0	385875968	58	5446
2026-01-02 10:34:02.63	195.23	29.78	-44.2	-47.0	16.7	0.00e+00	0	41	0	386924544	59	5157
2026-01-02 10:34:03.63	195.39	29.95	-44.1	-47.0	16.7	0.00e+00	0	41	0	389021696	59	5155
2026-01-02 10:34:04.63	195.55	30.12	-44.4	-47.4	16.3	0.00e+00	0	41	0	391118848	59	5365
2026-01-02 10:34:05.64	195.71	30.30	-44.5	-47.5	16.1	0.00e+00	0	41	0	393216000	59	5464
2026-01-02 10:34:06.64	195.88	30.47	-44.6	-47.7	16.0	0.00e+00	0	41	0	395313152	59	5569
2026-01-02 10:34:07.64	196.04	30.64	-44.7	-47.9	15.9	0.00e+00	0	41	0	396361728	60	5353
2026-01-02 10:34:08.64	196.21	30.82	-44.7	-47.9	15.8	0.00e+00	0	41	0	398458880	60	5378
2026-01-02 10:34:09.64	196.38	30.99	-44.9	-48.1	15.7	0.00e+00	0	41	0	400556032	60	5486
2026-01-02 10:34:10.64	196.55	31.16	-44.8	-48.1	15.7	0.00e+00	0	41	0	402653184	60	5467
2026-01-02 10:34:11.64	196.73	31.34	-45.0	-48.3	15.5	0.00e+00	0	41	0	403701760	60	5616
2026-01-02 10:34:12.64	196.90	31.52	-45.1	-48.5	15.3	0.00e+00	0	41	0	405798912	60	5737
2026-01-02 10:34:13.64	197.08	31.69	-45.1	-48.6	15.2	0.00e+00	0	41	0	407896064	61	5474
2026-01-02 10:34:14.64	197.26	31.87	-45.1	-48.5	15.3	0.00e+00	0	41	0	409993216	61	5405
2026-01-02 10:34:15.65	197.44	32.05	-44.9	-48.2	15.6	0.00e+00	0	41	0	412090368	61	5225
2026-01-02 10:34:16.65	197.62	32.23	-44.9	-48.2	15.6	0.00e+00	0	41	0	413138944	61	5221
2026-01-02 10:34:17.65	197.81	32.41	-44.7	-47.8	16.0	0.00e+00	0	41	0	415236096	61	5009
2026-01-02 10:34:18.65	198.00	32.59	-44.7	-47.7	16.1	0.00e+00	0	41	0	417333248	61	4961
2026-01-02 10:34:19.66	198.19	32.78	-44.6	-47.6	16.1	0.00e+00	0	42	0	419430400	61	4926
2026-01-02 10:34:20.66	198.38	32.96	-44.7	-47.8	16.0	0.00e+00	0	41	0	421527552	61	4989
2026-01-02 10:34:21.66	198.57	33.14	-44.6	-47.7	16.1	0.00e+00	0	41	0	422576128	61	4939
2026-01-02 10:34:22.66	198.77	33.33	-44.7	-47.7	16.1	0.00e+00	0	41	0	424673280	61	4963
2026-01-02 10:34:23.66	198.96	33.51	-44.6	-47.7	16.1	0.00e+00	0	41	0	426770432	61	4952
2026-01-02 10:34:24.67	199.17	33.70	-44.6	-47.6	16.2	0.00e+00	0	41	0	428867584	61	4885
2026-01-02 10:34:25.67	199.37	33.89	-44.6	-47.6	16.2	0.00e+00	0	41	0	430964736	61	4902
2026-01-02 10:34:26.67	199.57	34.07	-44.5	-47.5	16.3	0.00e+00	0	41	0	432013312	61	4831
2026-01-02 10:34:27.67	199.78	34.26	-44.5	-47.4	16.4	0.00e+00	0	41	0	434110464	60	5090
2026-01-02 10:34:28.68	199.99	34.45	-44.3	-47.3	16.5	0.00e+00	0	41	0	436207616	60	4998
2026-01-02 10:34:29.67	200.20	34.64	-44.4	-47.4	16.4	0.00e+00	0	41	0	438304768	60	5047
2026-01-02 10:34:30.68	200.41	34.83	-44.4	-47.3	16.5	0.00e+00	0	41	0	440401920	60	5034
2026-01-02 10:34:31.68	200.63	35.02	-44.2	-47.1	16.7	0.00e+00	0	41	0	441450496	60	4893
2026-01-02 10:34:32.68	200.85	35.21	-44.2	-47.0	16.8	0.00e+00	0	41	0	443547648	60	4860
2026-01-02 10:34:33.68	201.07	35.40	-44.1	-46.9	16.9	0.00e+00	0	41	0	445644800	60	4777
2026-01-02 10:34:34.69	201.30	35.60	-44.1	-46.8	16.9	0.00e+00	0	41	0	447741952	60	4756
2026-01-02 10:34:35.69	201.52	35.79	-43.9	-46.6	17.2	0.00e+00	0	41	0	448790528	59	4895
2026-01-02 10:34:36.69	201.75	35.99	-43.8	-46.5	17.3	0.00e+00	0	41	0	450887680	59	4817
2026-01-02 10:34:37.69	201.98	36.18	-43.7	-46.4	17.3	0.00e+00	0	41	0	452984832	59	4795
2026-01-02 10:34:38.70	202.22	36.38	-43.7	-46.3	17.4	0.00e+00	0	41	0	455081984	59	4738
2026-01-02 10:34:39.70	202.46	36.58	-43.7	-46.3	17.5	0.00e+00	0	41	0	457179136	59	4748
2026-01-02 10:34:40.70	202.70	36.77	-43.8	-46.4	17.3	0.00e+00	0	41	0	459276288	59	4801
2026-01-02 10:34:41.70	202.94	36.97	-43.6	-46.3	17.5	0.00e+00	0	41	0	460324864	59	4717
2026-01-02 10:34:42.71	203.19	37.17	-43.5	-46.0	17.7	0.00e+00	0	42	0	462422016	58	4863
2026-01-02 10:34:43.71	203.44	37.37	-43.4	-45.9	17.8	0.00e+00	0	41	0	464519168	58	4799
2026-01-02 10:34:44.71	203.69	37.57	-43.3	-45.8	18.0	0.00e+00	0	41	0	466616320	58	4711
2026-01-02 10:34:45.71	203.95	37.77	-43.2	-45.7	18.1	0.00e+00	0	41	0	467664896	58	4655
2026-01-02 10:34:46.72	204.21	37.97	-43.2	-45.6	18.1	0.00e+00	0	41	0	469762048	58	4650
2026-01-02 10:34:47.71	204.47	38.17	-43.2	-45.7	18.0	0.00e+00	0	41	0	471859200	58	4689
2026-01-02 10:34:48.72	204.73	38.37	-43.1	-45.6	18.1	0.00e+00	0	41	0	473956352	58	4615
2026-01-02 10:34:49.72	205.00	38.58	-43.2	-45.7	18.0	0.00e+00	0	41	0	476053504	58	4673
2026-01-02 10:34:50.72	205.27	38.78	-43.2	-45.7	18.0	0.00e+00	0	41	0	477102080	58	4705
2026-01-02 10:34:51.72	205.55	38.98	-43.3	-45.9	17.8	0.00e+00	0	41	0	479199232	58	4779
2026-01-02 10:34:52.73	205.83	39.19	-43.3	-45.8	17.9	0.00e+00	0	41	0	481296384	58	4746
2026-01-02 10:34:53.73	206.11	39.39	-43.2	-45.7	18.0	0.00e+00	0	41	0	483393536	58	4702
2026-01-02 10:34:54.73	206.39	39.60	-43.0	-45.5	18.3	0.00e+00	0	41	0	485490688	58	4556
2026-01-02 10:34:55.73	206.68	39.80	-43.0	-45.4	18.3	0.00e+00	0	41	0	486539264	57	4809
2026-01-02 10:34:56.73	206.97	40.01	-42.8	-45.2	18.5	0.00e+00	0	41	0	488636416	57	4682
2026-01-02 10:34:57.73	207.27	40.21	-42.8	-45.2	18.5	0.00e+00	0	41	0	490733568	57	4670
2026-01-02 10:34:58.74	207.57	40.42	-42.7	-45.1	18.6	0.00e+00	0	41	0	492830720	57	4645
2026-01-02 10:34:59.73	207.87	40.62	-42.8	-45.2	18.5	0.00e+00	0	41	0	493879296	57	4680
2026-01-02 10:35:00.71	208.17	40.83	-42.9	-45.3	18.4	0.00e+00	0	41	0	495976448	57	4731
2026-01-02 10:35:01.71	208.48	41.03	-43.0	-45.4	18.3	0.00e+00	0	41	0	498073600	57	4797
2026-01-02 10:35:02.71	208.80	41.24	-43.0	-45.5	18.3	0.00e+00	0	41	0	500170752	57	4825
2026-01-02 10:35:03.71	209.12	41.45	-43.2	-45.7	18.1	0.00e+00	0	41	0	502267904	57	4943
2026-01-02 10:35:04.72	209.44	41.66	-43.2	-45.7	18.1	0.00e+00	0	41	0	503316480	57	4944
2026-01-02 10:35:05.72	209.77	41.87	-43.1	-45.6	18.1	0.00e+00	0	41	0	505413632	57	4892
2026-01-02 10:35:06.72	210.10	42.07	-43.2	-45.7	18.0	0.00e+00	0	41	0	507510784	57	4976
2026-01-02 10:35:07.72	210.44	42.28	-43.2	-45.7	18.1	0.00e+00	0	41	0	509607936	57	4953
2026-01-02 10:35:08.72	210.78	42.49	-43.4	-46.0	17.7	0.00e+00	0	41	0	511705088	57	5149
2026-01-02 10:35:09.73	211.12	42.70	-43.6	-46.3	17.5	0.00e+00	0	41	0	512753664	57	5308
2026-01-02 10:35:10.73	211.47	42.91	-43.7	-46.4	17.4	0.00e+00	0	41	0	514850816	58	5094
2026-01-02 10:35:11.73	211.82	43.12	-43.7	-46.4	17.4	0.00e+00	0	41	0	516947968	58	5075
2026-01-02 10:35:12.74	212.19	43.33	-43.6	-46.3	17.6	0.00e+00	0	41	0	519045120	58	4985
2026-01-02 10:35:13.74	212.55	43.54	-43.4	-46.0	17.7	0.00e+00	0	41	0	521142272	58	4866
2026-01-02 10:35:14.74	212.91	43.74	-43.5	-46.1	17.7	0.00e+00	0	41	0	522190848	58	4916
2026-01-02 10:35:15.74	213.29	43.95	-43.7	-46.4	17.4	0.00e+00	0	41	0	524288000	58	5043
2026-01-02 10:35:16.74	213.66	44.16	-44.1	-46.9	16.9	0.00e+00	0	41	0	526385152	58	5363
2026-01-02 10:35:17.74	214.04	44.37	-44.6	-47.6	16.2	0.00e+00	0	41	0	528482304	59	5479
2026-01-02 10:35:18.75	214.43	44.57	-45.0	-48.2	15.7	0.00e+00	0	41	0	529530880	60	5531
2026-01-02 10:35:19.75	214.82	44.78	-44.9	-48.0	15.8	0.00e+00	0	41	0	531628032	60	5430
2026-01-02 10:35:20.75	215.22	44.99	-44.6	-47.6	16.3	0.00e+00	0	41	0	533725184	60	5188
2026-01-02 10:35:21.75	215.62	45.19	-44.4	-47.2	16.6	0.00e+00	0	41	0	535822336	60	4954
2026-01-02 10:35:22.75	216.03	45.40	-44.4	-47.3	16.6	0.00e+00	0	41	0	537919488	60	4995
2026-01-02 10:35:23.75	216.44	45.60	-44.4	-47.3	16.6	0.00e+00	0	41	0	538968064	60	5013
2026-01-02 10:35:24.76	216.86	45.81	-44.9	-47.9	16.0	0.00e+00	0	41	0	541065216	60	5380
2026-01-02 10:35:25.76	217.28	46.01	-45.2	-48.4	15.4	0.00e+00	0	41	0	543162368	61	5364
2026-01-02 10:35:26.76	217.71	46.22	-45.7	-49.3	14.5	0.00e+00	0	41	0	545259520	62	5647
2026-01-02 10:35:27.76	218.14	46.42	-46.0	-49.7	14.2	7.00e-07	0	41	0	547356672	62	5862
2026-01-02 10:35:28.76	218.58	46.62	-45.9	-49.5	14.4	0.00e+00	0	41	0	548405248	62	5739
2026-01-02 10:35:29.76	219.03	46.82	-45.7	-49.2	14.6	7.00e-07	0	41	0	550502400	62	5559
2026-01-02 10:35:30.76	219.48	47.02	-45.5	-48.8	15.0	7.00e-07	0	41	0	552599552	62	5331
2026-01-02 10:35:31.76	219.93	47.22	-45.5	-48.8	15.0	0.00e+00	0	41	0	554696704	62	5316
2026-01-02 10:35:32.76	220.40	47.42	-45.7	-49.3	14.6	0.00e+00	0	41	0	556793856	62	5593
2026-01-02 10:35:33.76	220.86	47.61	-45.9	-49.5	14.4	0.00e+00	0	41	0	557842432	62	5764
2026-01-02 10:35:34.76	221.34	47.81	-45.9	-49.6	14.3	1.50e-06	0	41	0	559939584	62	5789
2026-01-02 10:35:35.76	221.81	48.00	-45.8	-49.3	14.6	0.00e+00	0	41	0	562036736	62	5605
2026-01-02 10:35:36.76	222.30	48.19	-45.3	-48.6	15.3	7.00e-07	0	41	0	564133888	62	5184
2026-01-02 10:35:37.77	222.80	48.39	-45.2	-48.5	15.4	0.00e+00	0	41	0	566231040	62	5116
2026-01-02 10:35:38.77	223.29	48.58	-45.2	-48.4	15.4	0.00e+00	0	41	0	567279616	62	5065
2026-01-02 10:35:39.77	223.80	48.77	-45.5	-48.8	15.1	0.00e+00	0	41	0	569376768	62	5301
2026-01-02 10:35:40.77	224.31	48.95	-45.5	-48.9	14.9	0.00e+00	0	41	0	571473920	62	5401
2026-01-02 10:35:41.77	224.82	49.14	-45.5	-49.0	14.8	0.00e+00	0	41	0	573571072	62	5453
2026-01-02 10:35:42.78	225.35	49.32	-45.4	-49.0	15.0	7.00e-07	0	41	0	574619648	62	5403
2026-01-02 10:35:43.78	225.88	49.51	-44.9	-48.2	15.6	0.00e+00	0	41	0	576716800	61	5258
2026-01-02 10:35:44.78	226.41	49.69	-44.7	-47.9	16.0	0.00e+00	0	41	0	578813952	61	5052
2026-01-02 10:35:45.78	226.95	49.86	-44.2	-47.2	16.6	0.00e+00	0	41	0	580911104	60	4977
2026-01-02 10:35:46.78	227.50	50.04	-43.9	-46.8	17.0	0.00e+00	0	41	0	583008256	59	4985
2026-01-02 10:35:47.78	228.05	50.21	-44.0	-46.8	17.0	0.00e+00	0	41	0	584056832	59	5033
2026-01-02 10:35:48.79	228.61	50.39	-44.4	-47.3	16.5	0.00e+00	0	41	0	586153984	59	5317
2026-01-02 10:35:49.79	229.18	50.56	-44.9	-48.0	15.9	0.00e+00	0	41	0	588251136	60	5413
2026-01-02 10:35:50.79	229.75	50.73	-44.7	-47.8	16.1	0.00e+00	0	41	0	590348288	60	5285
2026-01-02 10:35:51.79	230.33	50.89	-44.0	-46.7	17.1	0.00e+00	0	41	0	592445440	59	4974
2026-01-02 10:35:52.80	230.92	51.05	-43.4	-45.9	17.8	0.00e+00	0	41	0	593494016	58	4805
2026-01-02 10:35:53.80	231.51	51.21	-43.1	-45.5	18.3	0.00e+00	0	41	0	595591168	58	4582
2026-01-02 10:35:54.80	232.11	51.37	-42.9	-45.3	18.4	0.00e+00	0	41	0	597688320	57	4742
2026-01-02 10:35:55.80	232.71	51.53	-42.8	-45.2	18.6	0.00e+00	0	41	0	599785472	57	4671
2026-01-02 10:35:56.81	233.33	51.68	-43.0	-45.5	18.3	0.00e+00	0	41	0	601882624	57	4851
2026-01-02 10:35:57.81	233.94	51.83	-42.9	-45.4	18.4	0.00e+00	0	41	0	602931200	57	4764
2026-01-02 10:35:58.81	234.56	51.97	-42.4	-44.8	19.0	0.00e+00	0	41	0	605028352	56	4706
2026-01-02 10:35:59.81	235.19	52.12	-42.0	-44.2	19.5	0.00e+00	0	41	0	607125504	56	4417
2026-01-02 10:36:00.82	235.83	52.26	-41.8	-44.0	19.6	0.00e+00	0	41	0	609222656	55	4566
2026-01-02 10:36:01.82	236.47	52.39	-42.1	-44.4	19.1	0.00e+00	0	41	0	611319808	55	4813
2026-01-02 10:36:02.82	237.12	52.53	-42.7	-45.1	18.5	0.00e+00	0	41	0	612368384	55	5191
2026-01-02 10:36:03.82	237.77	52.66	-42.7	-45.1	18.7	0.00e+00	0	41	0	614465536	56	4890
2026-01-02 10:36:04.83	238.43	52.79	-42.4	-44.7	19.1	0.00e+00	0	41	0	616562688	56	4676
2026-01-02 10:36:05.83	239.09	52.91	-42.1	-44.4	19.3	0.00e+00	0	41	0	618659840	56	4509
2026-01-02 10:36:06.83	239.76	53.03	-41.8	-44.0	19.6	0.00e+00	0	41	0	619708416	55	4578
2026-01-02 10:36:07.84	240.44	53.14	-41.9	-44.2	19.4	0.00e+00	0	41	0	621805568	55	4681
2026-01-02 10:36:08.84	241.12	53.26	-42.2	-44.5	19.1	0.00e+00	0	41	0	623902720	55	4858
2026-01-02 10:36:09.84	241.80	53.36	-42.0	-44.3	19.3	0.00e+00	0	41	0	625999872	55	4749
2026-01-02 10:36:10.84	242.49	53.47	-42.1	-44.4	19.1	0.00e+00	0	41	0	628097024	55	4790
2026-01-02 10:36:11.85	243.19	53.57	-41.9	-44.2	19.4	0.00e+00	0	41	0	629145600	55	4655
2026-01-02 10:36:12.85	243.89	53.67	-41.6	-43.8	19.7	0.00e+00	0	41	0	631242752	55	4480
2026-01-02 10:36:13.85	244.59	53.76	-41.8	-44.0	19.6	0.00e+00	0	41	0	633339904	55	4570
2026-01-02 10:36:14.85	245.30	53.85	-42.3	-44.6	19.0	0.00e+00	0	41	0	635437056	55	4906
2026-01-02 10:36:15.86	246.01	53.93	-42.5	-44.9	18.7	0.00e+00	0	41	0	637534208	55	5087
2026-01-02 10:36:16.86	246.73	54.01	-42.5	-44.9	18.7	0.00e+00	0	41	0	638582784	55	5070
2026-01-02 10:36:17.86	247.45	54.08	-42.9	-45.3	18.5	0.00e+00	0	41	0	640679936	56	4995
2026-01-02 10:36:18.86	248.17	54.16	-42.9	-45.3	18.5	0.00e+00	0	41	0	642777088	56	5012
2026-01-02 10:36:19.87	248.90	54.22	-42.8	-45.2	18.7	0.00e+00	0	41	0	644874240	56	4929
2026-01-02 10:36:20.87	249.63	54.28	-42.6	-45.0	18.8	0.00e+00	0	41	0	646971392	56	4830
2026-01-02 10:36:21.87	250.36	54.34	-42.9	-45.4	18.4	0.00e+00	0	41	0	648019968	56	5047
2026-01-02 10:36:22.88	251.10	54.39	-43.0	-45.5	18.3	0.00e+00	0	41	0	650117120	56	5126
2026-01-02 10:36:23.88	251.84	54.44	-42.9	-45.4	18.4	0.00e+00	0	41	0	652214272	56	5046
2026-01-02 10:36:24.88	252.58	54.49	-42.8	-45.2	18.6	0.00e+00	0	41	0	654311424	56	4963
2026-01-02 10:36:25.88	253.32	54.52	-42.7	-45.1	18.6	0.00e+00	0	41	0	656408576	56	4911
2026-01-02 10:36:26.89	254.07	54.56	-42.8	-45.2	18.5	0.00e+00	0	41	0	657457152	56	4963
2026-01-02 10:36:27.89	254.82	54.59	-42.9	-45.3	18.4	0.00e+00	0	41	0	659554304	56	5033
2026-01-02 10:36:28.89	255.56	54.61	-42.9	-45.3	18.5	0.00e+00	0	41	0	661651456	56	5025
2026-01-02 10:36:29.89	256.31	54.63	-42.8	-45.2	18.5	0.00e+00	0	41	0	663748608	56	4981
2026-01-02 10:36:30.90	257.07	54.65	-42.7	-45.1	18.7	0.00e+00	0	41	0	664797184	56	4901
2026-01-02 10:36:31.90	257.82	54.66	-42.6	-45.0	18.8	0.00e+00	0	41	0	666894336	56	4849
2026-01-02 10:36:32.90	258.57	54.66	-43.1	-45.6	18.2	0.00e+00	0	41	0	668991488	56	5206
2026-01-02 10:36:33.90	259.32	54.66	-43.0	-45.4	18.3	0.00e+00	0	41	0	671088640	57	4809
2026-01-02 10:36:34.91	260.07	54.66	-42.7	-45.1	18.7	0.00e+00	0	41	0	673185792	57	4630
2026-01-02 10:36:35.91	260.82	54.65	-42.7	-45.1	18.7	0.00e+00	0	41	0	674234368	57	4613
2026-01-02 10:36:36.91	261.57	54.63	-42.8	-45.2	18.6	0.00e+00	0	41	0	676331520	57	4697
2026-01-02 10:36:37.91	262.32	54.61	-43.0	-45.4	18.3	0.00e+00	0	41	0	678428672	57	4809
2026-01-02 10:36:38.91	263.06	54.59	-43.1	-45.5	18.3	0.00e+00	0	41	0	680525824	57	4863
2026-01-02 10:36:39.92	263.82	54.56	-43.1	-45.6	18.2	0.00e+00	0	41	0	682622976	57	4911
2026-01-02 10:36:40.92	264.56	54.53	-42.9	-45.4	18.4	0.00e+00	0	41	0	683671552	57	4766
2026-01-02 10:36:41.92	265.30	54.49	-42.4	-44.7	19.0	0.00e+00	0	41	0	685768704	56	4675
2026-01-02 10:36:42.93	266.05	54.45	-42.0	-44.3	19.5	0.00e+00	0	41	0	687865856	56	4444
2026-01-02 10:36:43.93	266.78	54.40	-41.5	-43.7	19.9	0.00e+00	0	41	0	689963008	55	4430
2026-01-02 10:36:44.93	267.52	54.35	-41.4	-43.5	20.1	0.00e+00	0	41	0	692060160	54	4580
2026-01-02 10:36:45.93	268.25	54.29	-41.3	-43.4	20.2	0.00e+00	0	41	0	693108736	54	4510
2026-01-02 10:36:46.94	268.99	54.23	-41.3	-43.4	20.2	0.00e+00	0	41	0	695205888	54	4509
2026-01-02 10:36:47.94	269.71	54.16	-41.5	-43.6	19.9	0.00e+00	0	41	0	697303040	54	4640
2026-01-02 10:36:48.94	270.43	54.09	-41.3	-43.4	20.1	0.00e+00	0	41	0	699400192	54	4536
2026-01-02 10:36:49.94	271.15	54.02	-41.0	-43.1	20.4	0.00e+00	0	41	0	701497344	54	4362
2026-01-02 10:36:50.94	271.87	53.94	-41.1	-43.2	20.4	0.00e+00	0	41	0	702545920	53	4662
2026-01-02 10:36:51.95	272.58	53.86	-41.2	-43.4	20.2	0.00e+00	0	41	0	704643072	53	4763
2026-01-02 10:36:52.95	273.29	53.77	-41.2	-43.4	20.2	0.00e+00	0	41	0	706740224	53	4766
2026-01-02 10:36:53.95	273.99	53.68	-41.3	-43.5	20.1	0.00e+00	0	41	0	708837376	53	4838
2026-01-02 10:36:54.95	274.69	53.58	-41.8	-43.9	19.6	0.00e+00	0	41	0	710934528	54	4811
2026-01-02 10:36:55.96	275.39	53.48	-42.0	-44.3	19.3	0.00e+00	0	41	0	711983104	54	4998
2026-01-02 10:36:56.95	276.07	53.38	-42.2	-44.5	19.1	0.00e+00	0	41	0	714080256	55	4818
2026-01-02 10:36:57.96	276.76	53.27	-42.2	-44.5	19.1	0.00e+00	0	41	0	716177408	55	4818
2026-01-02 10:36:58.96	277.44	53.16	-42.4	-44.7	18.8	0.00e+00	0	41	0	718274560	55	4982
2026-01-02 10:36:59.96	278.11	53.05	-42.3	-44.6	19.0	0.00e+00	0	41	0	720371712	55	4888
2026-01-02 10:37:00.96	278.78	52.93	-42.0	-44.3	19.3	0.00e+00	0	41	0	721420288	55	4726
2026-01-02 10:37:01.96	279.44	52.81	-41.9	-44.1	19.5	0.00e+00	0	41	0	723517440	55	4641
2026-01-02 10:37:02.96	280.10	52.68	-42.2	-44.5	19.2	0.00e+00	0	41	0	725614592	55	4818
2026-01-02 10:37:03.96	280.75	52.55	-42.2	-44.5	19.1	0.00e+00	0	41	0	727711744	55	4844
2026-01-02 10:37:04.96	281.39	52.42	-42.2	-44.5	19.1	0.00e+00	0	41	0	728760320	55	4834
2026-01-02 10:37:05.96	282.03	52.28	-42.2	-44.5	19.1	0.00e+00	0	41	0	730857472	55	4860
2026-01-02 10:37:06.97	282.67	52.14	-42.2	-44.5	19.1	0.00e+00	0	41	0	732954624	55	4836
2026-01-02 10:37:07.97	283.30	52.00	-42.0	-44.2	19.4	0.00e+00	0	41	0	735051776	55	4691
2026-01-02 10:37:08.97	283.92	51.86	-42.2	-44.4	19.1	0.00e+00	0	41	0	737148928	55	4813
2026-01-02 10:37:09.97	284.54	51.71	-42.8	-45.2	18.6	0.00e+00	0	41	0	738197504	56	4963
2026-01-02 10:37:10.97	285.15	51.56	-43.0	-45.5	18.3	0.00e+00	0	41	0	740294656	56	5131
2026-01-02 10:37:11.98	285.75	51.40	-43.1	-45.6	18.3	0.00e+00	0	41	0	742391808	57	4872
2026-01-02 10:37:12.98	286.35	51.25	-42.8	-45.2	18.6	0.00e+00	0	41	0	744488960	57	4658
2026-01-02 10:37:13.98	286.94	51.09	-42.9	-45.3	18.5	0.00e+00	0	41	0	746586112	57	4732
2026-01-02 10:37:14.99	287.53	50.92	-43.2	-45.7	18.1	0.00e+00	0	41	0	747634688	57	4950
2026-01-02 10:37:15.99	288.11	50.76	-43.6	-46.2	17.7	0.00e+00	0	41	0	749731840	57	5220
2026-01-02 10:37:16.99	288.68	50.59	-43.7	-46.3	17.5	0.00e+00	0	41	0	751828992	58	5025
2026-01-02 10:37:17.99	289.25	50.43	-44.1	-46.8	17.0	0.00e+00	0	41	0	753926144	58	5339
2026-01-02 10:37:19.00	289.81	50.25	-44.7	-47.7	16.2	0.00e+00	0	41	0	756023296	60	5273
2026-01-02 10:37:20.00	290.36	50.08	-45.4	-48.7	15.2	0.00e+00	0	41	0	757071872	61	5539
2026-01-02 10:37:21.01	290.92	49.90	-45.7	-49.3	14.6	0.00e+00	0	41	0	759169024	62	5595
2026-01-02 10:37:22.01	291.46	49.73	-46.0	-49.7	14.2	1.50e-06	0	41	0	761266176	62	5923
2026-01-02 10:37:23.01	291.99	49.55	-46.0	-49.8	14.1	3.80e-06	0	41	0	763363328	62	5986
2026-01-02 10:37:24.02	292.52	49.36	-45.9	-49.6	14.4	2.20e-06	0	41	0	765460480	62	5811
2026-01-02 10:37:25.02	293.04	49.18	-45.9	-49.6	14.3	7.00e-07	0	41	0	766509056	62	5848
2026-01-02 10:37:26.02	293.56	49.00	-46.5	-50.6	13.4	3.80e-06	0	41	0	768606208	63	6140
2026-01-02 10:37:27.02	294.07	48.81	-47.0	-51.8	12.0	1.23e-04	0	41	0	770703360	64	6653
2026-01-02 10:37:28.02	294.57	48.62	-47.1	-51.7	12.0	4.57e-04	0	41	0	772800512	64	6628
2026-01-02 10:37:29.02	295.07	48.43	-46.7	-51.0	12.8	1.49e-04	0	41	0	773849088	64	6065
2026-01-02 10:37:30.02	295.56	48.24	-46.3	-50.2	13.6	1.44e-05	0	41	0	775946240	64	5558
2026-01-02 10:37:31.03	296.05	48.05	-46.0	-49.8	14.0	6.80e-06	0	41	0	778043392	64	5283
2026-01-02 10:37:32.03	296.53	47.86	-46.5	-50.5	13.4	9.10e-06	0	41	0	780140544	63	6065
2026-01-02 10:37:33.03	297.00	47.66	-47.1	-51.8	11.9	1.29e-04	0	41	0	782237696	64	6688
2026-01-02 10:37:34.04	297.47	47.47	-47.0	-51.8	11.9	7.12e-04	0	41	0	783286272	65	6286
2026-01-02 10:37:35.04	297.93	47.27	-46.0	-49.8	14.1	6.80e-06	0	41	0	785383424	63	5604
2026-01-02 10:37:36.04	298.39	47.07	-45.2	-48.5	15.4	0.00e+00	0	41	0	787480576	62	5115
2026-01-02 10:37:37.04	298.84	46.87	-45.1	-48.2	15.6	0.00e+00	0	41	0	789577728	62	4978
2026-01-02 10:37:38.04	299.28	46.67	-45.7	-49.2	14.7	0.00e+00	0	41	0	791674880	62	5554
2026-01-02 10:37:39.05	299.73	46.47	-46.0	-49.7	14.1	1.50e-06	0	41	0	792723456	62	5917
2026-01-02 10:37:40.05	300.16	46.27	-44.8	-47.9	16.0	0.00e+00	0	41	0	794820608	61	5044
2026-01-02 10:37:41.05	300.59	46.07	-44.0	-46.8	17.0	0.00e+00	0	41	0	796917760	60	4743
2026-01-02 10:37:42.05	301.01	45.87	-43.6	-46.3	17.5	0.00e+00	0	41	0	799014912	59	4718
2026-01-02 10:37:43.06	301.43	45.66	-43.9	-46.6	17.2	0.00e+00	0	41	0	801112064	59	4895
2026-01-02 10:37:44.06	301.84	45.46	-44.0	-46.8	17.0	0.00e+00	0	41	0	802160640	59	5041
2026-01-02 10:37:45.06	302.25	45.25	-44.5	-47.5	16.3	0.00e+00	0	41	0	804257792	59	5449
2026-01-02 10:37:46.06	302.65	45.05	-45.0	-48.2	15.6	0.00e+00	0	41	0	806354944	60	5570
2026-01-02 10:37:47.07	303.05	44.84	-45.0	-48.3	15.6	0.00e+00	0	41	0	808452096	60	5596
2026-01-02 10:37:48.07	303.44	44.64	-44.6	-47.7	16.2	0.00e+00	0	41	0	810549248	60	5222
2026-01-02 10:37:49.07	303.83	44.43	-44.3	-47.2	16.7	0.00e+00	0	41	0	811597824	60	4932
2026-01-02 10:37:50.07	304.21	44.22	-44.0	-46.8	17.1	0.00e+00	0	41	0	813694976	60	4743
2026-01-02 10:37:51.08	304.59	44.01	-44.2	-47.1	16.7	0.00e+00	0	41	0	815792128	59	5208
2026-01-02 10:37:52.08	304.96	43.81	-44.7	-47.9	16.0	0.00e+00	0	41	0	817889280	60	5351
2026-01-02 10:37:53.08	305.33	43.60	-45.3	-48.7	15.2	0.00e+00	0	41	0	818937856	61	5546
2026-01-02 10:37:54.09	305.69	43.39	-45.5	-49.0	14.9	0.00e+00	0	41	0	821035008	61	5755
2026-01-02 10:37:55.09	306.05	43.19	-45.1	-48.5	15.4	0.00e+00	0	41	0	823132160	61	5424
2026-01-02 10:37:56.09	306.40	42.98	-44.6	-47.7	16.1	0.00e+00	0	41	0	825229312	61	4972
2026-01-02 10:37:57.09	306.75	42.77	-43.9	-46.6	17.2	0.00e+00	0	41	0	827326464	59	4919
2026-01-02 10:37:58.10	307.10	42.56	-43.8	-46.6	17.2	0.00e+00	0	41	0	828375040	59	4887
2026-01-02 10:37:59.10	307.44	42.35	-44.3	-47.3	16.6	0.00e+00	0	41	0	830472192	59	5302
2026-01-02 10:38:00.10	307.77	42.15	-45.6	-49.2	14.6	0.00e+00	0	41	0	832569344	61	5916
2026-01-02 10:38:01.11	308.11	41.94	-46.6	-51.1	12.7	9.10e-06	0	41	0	834666496	63	6568
2026-01-02 10:38:02.11	308.43	41.73	-46.9	-52.1	11.6	7.48e-04	0	41	0	836763648	64	6911
2026-01-02 10:38:03.11	308.76	41.53	-46.4	-51.2	12.5	3.58e-04	0	41	0	837812224	64	6234
2026-01-02 10:38:04.11	309.07	41.32	-46.0	-50.3	13.5	2.74e-05	0	41	0	839909376	64	5617
2026-01-02 10:38:05.11	309.39	41.11	-45.8	-49.9	13.9	1.06e-05	0	41	0	842006528	63	5665
2026-01-02 10:38:06.11	309.70	40.91	-45.6	-49.4	14.4	3.00e-06	0	41	0	844103680	63	5385
2026-01-02 10:38:07.12	310.01	40.70	-46.2	-50.4	13.4	1.14e-05	0	41	0	846200832	63	6025
2026-01-02 10:38:08.12	310.31	40.49	-47.0	-52.2	11.4	3.43e-04	0	41	0	847249408	64	6971
2026-01-02 10:38:09.12	310.61	40.29	-47.4	-53.3	10.2	1.19e-02	0	41	0	849346560	65	7476
2026-01-02 10:38:10.12	310.91	40.08	-46.5	-51.0	12.6	2.24e-03	0	41	0	851443712	65	5731
2026-01-02 10:38:11.13	311.20	39.88	-45.6	-49.2	14.5	9.90e-06	0	41	0	853540864	63	5254
2026-01-02 10:38:12.12	311.49	39.68	-45.0	-48.3	15.3	7.56e-04	0	41	0	855638016	62	5009
2026-01-02 10:38:13.13	311.77	39.47	-44.8	-48.0	15.7	5.72e-05	0	41	0	856686592	61	5129
2026-01-02 10:38:14.13	312.06	39.27	-45.8	-49.4	14.5	7.60e-06	0	41	0	858783744	62	5704
2026-01-02 10:38:15.13	312.33	39.07	-47.0	-51.8	11.8	2.13e-05	0	41	0	860880896	64	6707
2026-01-02 10:38:16.13	312.61	38.86	-48.2	-55.4	8.1	3.96e-02	0	41	0	862978048	67	8500
2026-01-02 10:38:17.13	312.88	38.66	-47.9	-54.5	8.9	7.27e-02	0	41	0	864026624	67	7667
2026-01-02 10:38:18.14	313.15	38.46	-46.4	-50.9	12.5	1.20e-02	0	41	0	866123776	64	6023
2026-01-02 10:38:19.14	313.41	38.26	-45.2	-48.7	14.9	5.30e-03	0	41	0	868220928	62	5267
2026-01-02 10:38:20.14	313.68	38.06	-44.7	-47.9	15.9	0.00e+00	0	41	0	870318080	61	5044
2026-01-02 10:38:21.14	313.93	37.86	-44.4	-47.5	16.3	0.00e+00	0	41	0	872415232	60	5125
2026-01-02 10:38:22.15	314.19	37.66	-44.8	-48.0	15.8	0.00e+00	0	41	0	873463808	60	5459
2026-01-02 10:38:23.15	314.44	37.46	-45.5	-49.2	14.7	7.00e-07	0	41	0	875560960	61	5869
2026-01-02 10:38:24.15	314.69	37.26	-46.5	-50.9	12.9	1.14e-05	0	41	0	877658112	63	6402
2026-01-02 10:38:25.15	314.94	37.07	-46.9	-52.0	11.8	3.63e-04	0	41	0	879755264	64	6817
2026-01-02 10:38:26.15	315.18	36.87	-46.3	-50.7	13.0	1.04e-04	0	41	0	881852416	64	5884
2026-01-02 10:38:27.15	315.42	36.67	-45.5	-49.2	14.6	2.20e-06	0	41	0	882900992	63	5231
2026-01-02 10:38:28.16	315.66	36.48	-44.6	-47.8	16.0	0.00e+00	0	41	0	884998144	61	5001
2026-01-02 10:38:29.16	315.90	36.28	-44.2	-47.2	16.7	0.00e+00	0	41	0	887095296	60	4933
2026-01-02 10:38:30.16	316.13	36.09	-43.7	-46.5	17.3	0.00e+00	0	41	0	889192448	59	4831
2026-01-02 10:38:31.16	316.36	35.89	-43.9	-46.7	17.1	0.00e+00	0	41	0	891289600	59	4971
2026-01-02 10:38:32.17	316.59	35.70	-44.7	-47.9	16.0	0.00e+00	0	41	0	892338176	60	5342
2026-01-02 10:38:33.17	316.81	35.51	-45.7	-49.3	14.6	0.00e+00	0	41	0	894435328	61	5954
2026-01-02 10:38:34.17	317.03	35.32	-46.2	-50.2	13.6	3.80e-06	0	41	0	896532480	63	5908
2026-01-02 10:38:35.18	317.25	35.12	-46.1	-50.0	13.9	1.14e-05	0	41	0	898629632	63	5727
2026-01-02 10:38:36.18	317.47	34.93	-45.5	-49.0	14.9	7.00e-07	0	41	0	900726784	63	5112
2026-01-02 10:38:37.18	317.68	34.75	-44.9	-48.1	15.8	0.00e+00	0	41	0	901775360	61	5175
2026-01-02 10:38:38.18	317.89	34.56	-44.4	-47.4	16.5	0.00e+00	0	41	0	903872512	60	5052
2026-01-02 10:38:39.18	318.10	34.37	-44.2	-47.1	16.7	0.00e+00	0	41	0	905969664	60	4923
2026-01-02 10:38:40.19	318.31	34.18	-44.3	-47.4	16.5	0.00e+00	0	41	0	908066816	60	5048
2026-01-02 10:38:41.19	318.52	33.99	-44.6	-47.9	15.9	0.00e+00	0	41	0	909115392	60	5400
2026-01-02 10:38:42.19	318.72	33.81	-44.9	-48.5	15.4	0.00e+00	0	41	0	911212544	60	5760
2026-01-02 10:38:43.20	318.92	33.62	-45.1	-49.1	14.7	0.00e+00	0	41	0	913309696	60	6158
2026-01-02 10:38:44.20	319.12	33.44	-45.4	-49.6	14.2	1.50e-06	0	41	0	915406848	61	6176
2026-01-02 10:38:45.20	319.31	33.26	-45.4	-49.7	14.1	1.50e-06	0	41	0	917504000	61	6239
2026-01-02 10:38:46.21	319.51	33.07	-45.3	-49.4	14.4	1.50e-06	0	41	0	918552576	61	6005
2026-01-02 10:38:47.21	319.70	32.89	-45.0	-48.7	15.1	0.00e+00	0	41	0	920649728	61	5538
2026-01-02 10:38:48.21	319.89	32.71	-44.8	-48.2	15.6	0.00e+00	0	41	0	922746880	61	5259
2026-01-02 10:38:49.21	320.08	32.53	-44.6	-47.8	16.0	7.00e-07	0	41	0	924844032	61	5032
2026-01-02 10:38:50.21	320.26	32.35	-44.4	-47.5	16.3	0.00e+00	0	41	0	926941184	60	5147
2026-01-02 10:38:51.21	320.44	32.17	-44.4	-47.6	16.2	0.00e+00	0	41	0	927989760	60	5161
2026-01-02 10:38:52.21	320.63	31.99	-44.5	-47.7	16.2	0.00e+00	0	41	0	930086912	60	5226
2026-01-02 10:38:53.22	320.81	31.81	-44.7	-48.0	15.8	0.00e+00	0	41	0	932184064	60	5430
2026-01-02 10:38:54.22	320.98	31.64	-45.0	-48.4	15.5	0.00e+00	0	41	0	934281216	60	5662
2026-01-02 10:38:55.22	321.16	31.46	-45.4	-49.1	14.7	0.00e+00	0	41	0	936378368	61	5822
2026-01-02 10:38:56.22	321.33	31.29	-45.7	-49.7	14.1	0.00e+00	0	41	0	937426944	62	5913
2026-01-02 10:38:57.22	321.51	31.11	-46.0	-50.4	13.4	1.75e-05	0	41	0	939524096	62	6404
2026-01-02 10:38:58.23	321.68	30.94	-46.0	-50.6	13.2	2.74e-05	0	41	0	941621248	62	6547
2026-01-02 10:38:59.23	321.84	30.77	-45.9	-50.5	13.2	2.05e-05	0	41	0	943718400	62	6483
2026-01-02 10:39:00.23	322.01	30.59	-45.7	-50.3	13.5	1.14e-05	0	41	0	945815552	62	6308
2026-01-02 10:39:01.23	322.18	30.42	-45.4	-49.5	14.2	3.80e-06	0	41	0	946864128	62	5778
2026-01-02 10:39:02.24	322.34	30.25	-45.2	-49.1	14.7	7.00e-07	0	41	0	948961280	62	5495
2026-01-02 10:39:03.24	322.50	30.08	-44.8	-48.3	15.5	0.00e+00	0	41	0	951058432	61	5308
2026-01-02 10:39:04.24	322.66	29.91	-44.6	-48.0	15.8	0.00e+00	0	41	0	953155584	61	5121
2026-01-02 10:39:05.24	322.82	29.75	-44.7	-47.9	15.8	0.00e+00	0	41	0	954204160	61	5099
2026-01-02 10:39:06.24	322.98	29.58	-44.7	-47.9	15.9	0.00e+00	0	41	0	956301312	61	5093
2026-01-02 10:39:07.25	323.13	29.41	-44.8	-48.1	15.7	0.00e+00	0	41	0	958398464	61	5168
2026-01-02 10:39:08.25	323.29	29.25	-45.1	-48.4	15.4	0.00e+00	0	41	0	960495616	61	5401
2026-01-02 10:39:09.25	323.44	29.08	-45.2	-48.7	15.2	0.00e+00	0	41	0	962592768	61	5535
2026-01-02 10:39:10.25	323.59	28.92	-45.3	-48.7	15.1	0.00e+00	0	41	0	963641344	61	5582
2026-01-02 10:39:11.25	323.74	28.75	-45.3	-48.8	15.1	0.00e+00	0	41	0	965738496	61	5593
2026-01-02 10:39:12.25	323.89	28.59	-45.0	-48.3	15.4	7.00e-07	0	41	0	967835648	61	5330
2026-01-02 10:39:13.26	324.03	28.43	-44.8	-48.0	15.8	0.00e+00	0	41	0	969932800	61	5125
2026-01-02 10:39:14.26	324.18	28.27	-44.7	-48.0	15.9	0.00e+00	0	41	0	972029952	61	5103
2026-01-02 10:39:15.26	324.32	28.11	-44.5	-47.6	16.2	0.00e+00	0	41	0	973078528	61	4920
2026-01-02 10:39:16.26	324.46	27.95	-44.2	-47.2	16.6	0.00e+00	0	41	0	975175680	60	4958
2026-01-02 10:39:17.26	324.60	27.79	-43.9	-46.8	16.9	0.00e+00	0	41	0	977272832	59	5014
2026-01-02 10:39:18.26	324.74	27.63	-43.5	-46.4	17.3	0.00e+00	0	41	0	979369984	59	4790
2026-01-02 10:39:19.27	324.88	27.47	-43.5	-46.4	17.3	0.00e+00	0	41	0	981467136	59	4796
2026-01-02 10:39:20.27	325.02	27.31	-43.4	-46.3	17.4	0.00e+00	0	41	0	982515712	58	5033
2026-01-02 10:39:21.27	325.15	27.16	-43.3	-46.3	17.5	0.00e+00	0	41	0	984612864	58	4990
2026-01-02 10:39:22.28	325.29	27.00	-43.4	-46.4	17.4	0.00e+00	0	41	0	986710016	58	5064
2026-01-02 10:39:23.28	325.42	26.85	-43.5	-46.6	17.1	0.00e+00	0	41	0	988807168	58	5171
2026-01-02 10:39:24.28	325.55	26.69	-43.7	-46.8	16.9	0.00e+00	0	41	0	990904320	58	5332
2026-01-02 10:39:25.28	325.68	26.54	-43.9	-47.1	16.7	0.00e+00	0	41	0	991952896	58	5479
2026-01-02 10:39:26.28	325.81	26.39	-44.1	-47.3	16.5	0.00e+00	0	41	0	994050048	58	5608
2026-01-02 10:39:27.29	325.94	26.24	-44.4	-47.5	16.2	0.00e+00	0	41	0	996147200	59	5454
2026-01-02 10:39:28.29	326.07	26.09	-44.5	-47.7	16.0	0.00e+00	0	41	0	998244352	59	5571
2026-01-02 10:39:29.29	326.19	25.94	-44.7	-47.9	15.9	0.00e+00	0	41	0	999292928	60	5362
2026-01-02 10:39:30.29	326.32	25.79	-44.5	-47.7	16.1	0.00e+00	0	41	0	1001390080	60	5241
2026-01-02 10:39:31.30	326.44	25.64	-44.5	-47.5	16.2	0.00e+00	0	41	0	1003487232	60	5156
2026-01-02 10:39:32.30	326.56	25.49	-44.2	-47.2	16.5	0.00e+00	0	41	0	1005584384	60	4983
2026-01-02 10:39:33.30	326.68	25.34	-44.1	-47.1	16.7	0.00e+00	0	41	0	1007681536	60	4899
2026-01-02 10:39:34.30	326.80	25.19	-43.9	-46.8	16.9	0.00e+00	0	41	0	1008730112	59	4986
2026-01-02 10:39:35.30	326.92	25.05	-43.8	-46.6	17.1	0.00e+00	0	41	0	1010827264	59	4872
2026-01-02 10:39:36.31	327.04	24.90	-43.6	-46.3	17.4	0.00e+00	0	41	0	1012924416	59	4739
2026-01-02 10:39:37.31	327.16	24.76	-43.5	-46.3	17.4	0.00e+00	0	41	0	1015021568	58	5013
2026-01-02 10:39:38.31	327.27	24.61	-43.4	-46.2	17.5	0.00e+00	0	41	0	1017118720	58	4964
2026-01-02 10:39:39.31	327.39	24.47	-43.4	-46.2	17.5	0.00e+00	0	41	0	1018167296	58	4975
2026-01-02 10:39:40.32	327.50	24.33	-43.3	-46.3	17.4	0.00e+00	0	41	0	1020264448	58	5013
2026-01-02 10:39:41.32	327.62	24.18	-43.2	-46.2	17.5	0.00e+00	0	41	0	1022361600	58	4943
2026-01-02 10:39:42.32	327.73	24.04	-43.3	-46.4	17.3	0.00e+00	0	41	0	1024458752	58	5087
2026-01-02 10:39:43.32	327.84	23.90	-43.4	-46.6	17.1	0.00e+00	0	41	0	1026555904	58	5182
2026-01-02 10:39:44.33	327.95	23.76	-43.5	-46.6	17.1	0.00e+00	0	41	0	1027604480	58	5212
2026-01-02 10:39:45.33	328.06	23.62	-43.7	-46.8	16.9	0.00e+00	0	41	0	1029701632	58	5318
2026-01-02 10:39:46.33	328.17	23.48	-43.8	-46.9	16.8	0.00e+00	0	41	0	1031798784	58	5385
2026-01-02 10:39:47.33	328.27	23.35	-43.8	-46.9	16.8	0.00e+00	0	41	0	1033895936	58	5357
2026-01-02 10:39:48.34	328.38	23.21	-43.9	-46.8	16.9	0.00e+00	0	41	0	1035993088	58	5283
2026-01-02 10:39:49.34	328.49	23.07	-43.9	-46.7	17.0	0.00e+00	0	41	0	1037041664	58	5272
2026-01-02 10:39:50.34	328.59	22.94	-44.0	-46.8	16.9	0.00e+00	0	41	0	1039138816	58	5305
2026-01-02 10:39:51.34	328.69	22.80	-43.8	-46.6	17.2	0.00e+00	0	41	0	1041235968	58	5163
2026-01-02 10:39:52.35	328.80	22.66	-43.7	-46.4	17.2	0.00e+00	0	41	0	1043333120	58	5096
2026-01-02 10:39:53.35	328.90	22.53	-43.6	-46.3	17.3	0.00e+00	0	41	0	1045430272	58	5037
2026-01-02 10:39:54.35	329.00	22.40	-43.6	-46.3	17.4	0.00e+00	0	41	0	1046478848	58	5035
2026-01-02 10:39:55.35	329.10	22.26	-43.7	-46.4	17.3	0.00e+00	0	41	0	1048576000	58	5073
2026-01-02 10:39:56.36	329.20	22.13	-43.6	-46.2	17.5	0.00e+00	0	41	0	1050673152	58	4968
2026-01-02 10:39:57.36	329.30	22.00	-43.5	-46.2	17.5	0.00e+00	0	41	0	1052770304	58	4943
2026-01-02 10:39:58.36	329.40	21.87	-43.5	-46.1	17.6	0.00e+00	0	41	0	1054867456	58	4906
2026-01-02 10:39:59.37	329.49	21.74	-43.6	-46.3	17.4	0.00e+00	0	41	0	1055916032	58	5019
2026-01-02 10:40:00.37	329.59	21.61	-43.6	-46.3	17.3	0.00e+00	0	41	0	1058013184	58	5033
2026-01-02 10:40:01.37	329.69	21.48	-43.7	-46.6	17.1	0.00e+00	0	41	0	1060110336	58	5161
2026-01-02 10:40:02.37	329.78	21.35	-43.7	-46.7	17.0	0.00e+00	0	41	0	1062207488	58	5254
2026-01-02 10:40:03.37	329.87	21.22	-43.7	-46.8	16.9	0.00e+00	0	41	0	1063256064	58	5302
2026-01-02 10:40:04.38	329.97	21.09	-43.9	-47.1	16.6	0.00e+00	0	41	0	1065353216	58	5517
2026-01-02 10:40:05.38	330.06	20.96	-44.0	-47.3	16.4	0.00e+00	0	41	0	1067450368	58	5629
2026-01-02 10:40:06.38	330.15	20.84	-44.0	-47.5	16.2	0.00e+00	0	41	0	1069547520	58	5723
2026-01-02 10:40:07.38	330.24	20.71	-44.2	-47.7	16.0	0.00e+00	0	41	0	1071644672	59	5548
2026-01-02 10:40:08.39	330.34	20.59	-44.2	-47.7	15.9	0.00e+00	0	41	0	1072693248	59	5553
2026-01-02 10:40:09.39	330.42	20.46	-44.3	-47.7	16.0	0.00e+00	0	41	0	1074790400	59	5559
2026-01-02 10:40:10.40	330.51	20.34	-44.3	-47.7	15.9	0.00e+00	0	41	0	1076887552	59	5586
2026-01-02 10:40:11.40	330.60	20.21	-44.2	-47.6	16.1	0.00e+00	0	41	0	1078984704	59	5472
2026-01-02 10:40:12.40	330.69	20.09	-44.1	-47.4	16.3	0.00e+00	0	41	0	1081081856	59	5345
2026-01-02 10:40:13.40	330.78	19.97	-44.0	-47.2	16.4	0.00e+00	0	41	0	1082130432	59	5240
2026-01-02 10:40:14.41	330.86	19.84	-44.1	-47.1	16.5	0.00e+00	0	41	0	1084227584	59	5211
2026-01-02 10:40:15.41	330.95	19.72	-43.9	-46.8	16.9	0.00e+00	0	41	0	1086324736	59	4992
2026-01-02 10:40:16.41	331.03	19.60	-43.6	-46.4	17.2	0.00e+00	0	41	0	1088421888	59	4814
2026-01-02 10:40:17.41	331.12	19.48	-43.7	-46.4	17.2	0.00e+00	0	41	0	1090519040	59	4805
2026-01-02 10:40:18.41	331.20	19.36	-43.7	-46.5	17.2	0.00e+00	0	41	0	1091567616	59	4832
2026-01-02 10:40:19.42	331.29	19.24	-43.7	-46.5	17.2	0.00e+00	0	41	0	1093664768	59	4816
2026-01-02 10:40:20.42	331.37	19.12	-43.5	-46.1	17.5	0.00e+00	0	41	0	1095761920	59	4651
2026-01-02 10:40:21.42	331.45	19.01	-43.4	-46.1	17.5	0.00e+00	0	41	0	1097859072	58	4908
2026-01-02 10:40:22.43	331.53	18.89	-43.3	-45.9	17.7	0.00e+00	0	41	0	1099956224	58	4776
2026-01-02 10:40:23.43	331.61	18.77	-43.4	-46.1	17.5	0.00e+00	0	41	0	1101004800	58	4885
2026-01-02 10:40:24.43	331.69	18.65	-43.2	-45.9	17.7	0.00e+00	0	41	0	1103101952	58	4784
2026-01-02 10:40:25.43	331.77	18.54	-43.1	-45.8	17.8	0.00e+00	0	41	0	1105199104	58	4726
2026-01-02 10:40:26.43	331.85	18.42	-43.2	-45.9	17.7	0.00e+00	0	41	0	1107296256	58	4788
2026-01-02 10:40:27.44	331.93	18.30	-43.2	-46.0	17.6	0.00e+00	0	41	0	1108344832	58	4818
2026-01-02 10:40:28.44	332.01	18.19	-43.2	-46.1	17.6	0.00e+00	0	41	0	1110441984	58	4889
2026-01-02 10:40:29.44	332.09	18.08	-43.1	-46.0	17.6	0.00e+00	0	41	0	1112539136	58	4838
2026-01-02 10:40:30.45	332.16	17.96	-43.1	-46.1	17.5	0.00e+00	0	41	0	1114636288	58	4889
2026-01-02 10:40:31.45	332.24	17.85	-43.2	-46.3	17.3	0.00e+00	0	41	0	1116733440	58	5000
2026-01-02 10:40:32.45	332.31	17.73	-43.2	-46.3	17.3	0.00e+00	0	41	0	1117782016	58	5026
2026-01-02 10:40:33.45	332.39	17.62	-43.2	-46.3	17.3	0.00e+00	0	41	0	1119879168	58	5025
2026-01-02 10:40:34.45	332.46	17.51	-43.3	-46.4	17.2	0.00e+00	0	41	0	1121976320	58	5091
2026-01-02 10:40:35.46	332.54	17.40	-43.3	-46.3	17.3	0.00e+00	0	41	0	1124073472	58	5023
2026-01-02 10:40:36.46	332.61	17.29	-43.4	-46.4	17.2	0.00e+00	0	41	0	1126170624	58	5070
2026-01-02 10:40:37.46	332.69	17.18	-43.4	-46.5	17.1	0.00e+00	0	41	0	1127219200	58	5110
2026-01-02 10:40:38.46	332.76	17.07	-43.3	-46.3	17.3	0.00e+00	0	41	0	1129316352	58	5018
2026-01-02 10:40:39.46	332.83	16.96	-43.3	-46.3	17.3	0.00e+00	0	41	0	1131413504	58	4987
2026-01-02 10:40:40.47	332.90	16.85	-43.4	-46.3	17.3	0.00e+00	0	41	0	1133510656	58	5012
2026-01-02 10:40:41.47	332.97	16.74	-43.3	-46.2	17.4	0.00e+00	0	41	0	1135607808	58	4927
2026-01-02 10:40:42.47	333.04	16.63	-43.3	-46.1	17.5	0.00e+00	0	41	0	1136656384	58	4898
2026-01-02 10:40:43.48	333.11	16.52	-43.1	-45.9	17.7	0.00e+00	0	41	0	1138753536	58	4793
2026-01-02 10:40:44.48	333.18	16.41	-43.1	-45.9	17.7	0.00e+00	0	41	0	1140850688	58	4774
2026-01-02 10:40:45.48	333.25	16.31	-43.2	-46.0	17.6	0.00e+00	0	41	0	1142947840	58	4834
2026-01-02 10:40:46.48	333.32	16.20	-43.1	-46.0	17.6	0.00e+00	0	41	0	1145044992	58	4816
2026-01-02 10:40:47.48	333.39	16.10	-43.0	-45.8	17.8	0.00e+00	0	41	0	1146093568	58	4713
2026-01-02 10:40:48.48	333.46	15.99	-42.9	-45.6	17.9	0.00e+00	0	41	0	1148190720	57	4921
2026-01-02 10:40:49.48	333.52	15.89	-42.9	-45.7	17.9	0.00e+00	0	41	0	1150287872	57	4928
2026-01-02 10:40:50.48	333.59	15.78	-42.9	-45.6	17.9	0.00e+00	0	41	0	1152385024	57	4910
2026-01-02 10:40:51.48	333.66	15.68	-43.0	-45.7	17.8	0.00e+00	0	41	0	1153433600	57	4972
2026-01-02 10:40:52.49	333.72	15.57	-43.1	-45.7	17.8	0.00e+00	0	41	0	1155530752	57	4977
2026-01-02 10:40:53.49	333.79	15.47	-43.1	-45.8	17.7	0.00e+00	0	41	0	1157627904	57	5016
2026-01-02 10:40:54.49	333.86	15.37	-43.2	-45.9	17.6	0.00e+00	0	41	0	1159725056	57	5062
2026-01-02 10:40:55.50	333.92	15.26	-43.3	-46.0	17.5	0.00e+00	0	41	0	1161822208	57	5108
2026-01-02 10:40:56.50	333.99	15.16	-43.4	-46.1	17.4	0.00e+00	0	41	0	1162870784	57	5215
2026-01-02 10:40:57.50	334.05	15.06	-43.4	-46.1	17.4	0.00e+00	0	41	0	1164967936	57	5194
2026-01-02 10:40:58.50	334.11	14.96	-43.4	-46.1	17.4	0.00e+00	0	41	0	1167065088	57	5204
2026-01-02 10:40:59.51	334.18	14.85	-43.5	-46.3	17.3	0.00e+00	0	41	0	1169162240	57	5299
2026-01-02 10:41:00.51	334.24	14.75	-43.6	-46.4	17.1	0.00e+00	0	41	0	1171259392	57	5361
2026-01-02 10:41:01.51	334.30	14.65	-43.7	-46.5	17.0	0.00e+00	0	41	0	1172307968	57	5448
2026-01-02 10:41:02.51	334.36	14.55	-43.7	-46.7	16.9	0.00e+00	0	41	0	1174405120	58	5222
2026-01-02 10:41:03.51	334.42	14.45	-43.8	-46.7	16.8	0.00e+00	0	41	0	1176502272	58	5259
2026-01-02 10:41:04.51	334.49	14.35	-43.8	-46.8	16.7	0.00e+00	0	41	0	1178599424	58	5329
2026-01-02 10:41:05.52	334.55	14.26	-43.8	-46.9	16.7	0.00e+00	0	41	0	1180696576	58	5358
2026-01-02 10:41:06.52	334.61	14.16	-43.9	-47.0	16.6	0.00e+00	0	41	0	1181745152	58	5419
2026-01-02 10:41:07.52	334.67	14.06	-43.9	-47.1	16.4	0.00e+00	0	41	0	1183842304	58	5496
2026-01-02 10:41:08.52	334.73	13.96	-44.0	-47.1	16.4	0.00e+00	0	41	0	1185939456	58	5524
2026-01-02 10:41:09.52	334.79	13.86	-44.0	-47.2	16.4	0.00e+00	0	41	0	1188036608	58	5536
2026-01-02 10:41:10.53	334.85	13.77	-44.0	-47.2	16.3	0.00e+00	0	41	0	1190133760	58	5559
2026-01-02 10:41:11.53	334.90	13.67	-44.0	-47.2	16.3	0.00e+00	0	41	0	1191182336	58	5569
2026-01-02 10:41:12.53	334.96	13.57	-44.0	-47.2	16.3	0.00e+00	0	41	0	1193279488	58	5540
2026-01-02 10:41:13.54	335.02	13.48	-44.0	-47.1	16.4	0.00e+00	0	41	0	1195376640	58	5507
2026-01-02 10:41:14.54	335.08	13.38	-44.0	-47.1	16.4	0.00e+00	0	41	0	1197473792	58	5498
2026-01-02 10:41:15.54	335.14	13.29	-44.0	-47.0	16.4	0.00e+00	0	41	0	1198522368	58	5463
2026-01-02 10:41:16.54	335.19	13.19	-44.0	-47.1	16.4	0.00e+00	0	41	0	1200619520	58	5471
2026-01-02 10:41:17.55	335.25	13.10	-44.0	-47.0	16.5	0.00e+00	0	41	0	1202716672	58	5463
2026-01-02 10:41:18.55	335.31	13.00	-44.0	-47.0	16.5	0.00e+00	0	41	0	1204813824	58	5415
2026-01-02 10:41:19.55	335.36	12.91	-44.0	-47.0	16.5	0.00e+00	0	41	0	1206910976	58	5437
2026-01-02 10:41:20.55	335.42	12.82	-43.9	-46.9	16.6	0.00e+00	0	41	0	1207959552	58	5392
2026-01-02 10:41:21.55	335.47	12.72	-43.8	-46.8	16.7	0.00e+00	0	41	0	1210056704	58	5316
2026-01-02 10:41:22.56	335.53	12.63	-43.8	-46.8	16.7	0.00e+00	0	41	0	1212153856	58	5283
2026-01-02 10:41:23.56	335.58	12.54	-43.7	-46.8	16.7	0.00e+00	0	41	0	1214251008	58	5290
2026-01-02 10:41:24.56	335.64	12.44	-43.6	-46.7	16.7	0.00e+00	0	41	0	1216348160	58	5261
2026-01-02 10:41:25.56	335.69	12.35	-43.6	-46.7	16.8	0.00e+00	0	41	0	1217396736	58	5259
2026-01-02 10:41:26.56	335.74	12.26	-43.6	-46.8	16.7	0.00e+00	0	41	0	1219493888	58	5293
2026-01-02 10:41:27.56	335.80	12.17	-43.5	-46.7	16.8	0.00e+00	0	41	0	1221591040	58	5231
2026-01-02 10:41:28.57	335.85	12.08	-43.5	-46.7	16.8	0.00e+00	0	41	0	1223688192	58	5253
2026-01-02 10:41:29.57	335.90	11.99	-43.4	-46.6	16.9	0.00e+00	0	41	0	1225785344	58	5191
2026-01-02 10:41:30.57	335.96	11.90	-43.4	-46.6	16.9	0.00e+00	0	41	0	1226833920	58	5199
2026-01-02 10:41:31.57	336.01	11.81	-43.3	-46.7	16.8	0.00e+00	0	41	0	1228931072	58	5220
2026-01-02 10:41:32.57	336.06	11.72	-43.4	-46.7	16.7	0.00e+00	0	41	0	1231028224	58	5273
2026-01-02 10:41:33.57	336.11	11.63	-43.3	-46.7	16.8	0.00e+00	0	41	0	1233125376	58	5256
2026-01-02 10:41:34.57	336.16	11.54	-43.3	-46.7	16.7	0.00e+00	0	41	0	1235222528	58	5265
2026-01-02 10:41:35.58	336.22	11.45	-43.3	-46.6	16.8	0.00e+00	0	41	0	1236271104	58	5217
2026-01-02 10:41:36.58	336.27	11.36	-43.4	-46.7	16.7	0.00e+00	0	41	0	1238368256	58	5253
2026-01-02 10:41:37.58	336.32	11.28	-43.4	-46.8	16.6	0.00e+00	0	41	0	1240465408	58	5297
2026-01-02 10:41:38.59	336.37	11.19	-43.5	-46.9	16.6	0.00e+00	0	41	0	1242562560	58	5346
