passes_logs/2026/01/02/T1/T1__20260102_125114_FENGYUN_3D_rec.log

#Pass ID: 20260102_125114_FENGYUN 3D
#Satellite: FENGYUN 3D
#Configuration: FENGYUN 3D
#almurnet v.1.7.20251203
#Start time: 2026-01-02 12:51:16

#Version: 2.0.20230620
#Station: T1
#Location: 37.570604 lon 55.790049 lat
#TLE: 1 43010U 17072A   26001.96529979  .00000409  00000+0  21503-3 0  9996
#TLE: 2 43010  98.9910 333.5811 0001886 133.0441 227.0893 14.19692048421405

#Time	Az	El	Level	Level2	SNR	BER	BlckErr	Temp	State	Recorded	gain1	gain2
2026-01-02 12:51:16.10	189.11	5.10	-47.3	-60.1	3.8	8.48e-01	0	40	0	0	66	15465
2026-01-02 12:51:17.10	189.16	5.17	-47.2	-59.5	3.8	8.47e-01	0	41	104	0	65	15276
2026-01-02 12:51:18.10	189.21	5.24	-47.2	-59.3	3.8	8.46e-01	0	41	104	0	65	14904
2026-01-02 12:51:19.11	189.26	5.30	-47.2	-59.2	3.8	8.46e-01	0	41	104	0	65	14863
2026-01-02 12:51:20.11	189.32	5.37	-47.2	-59.3	3.8	8.46e-01	0	41	104	0	65	14997
2026-01-02 12:51:21.11	189.37	5.44	-47.2	-59.2	3.8	8.46e-01	0	41	104	0	65	14837
2026-01-02 12:51:22.12	189.42	5.51	-47.2	-59.5	3.8	8.46e-01	0	41	104	0	65	15262
2026-01-02 12:51:23.12	189.48	5.58	-47.3	-59.7	3.8	8.47e-01	0	41	104	0	65	15659
2026-01-02 12:51:24.13	189.53	5.65	-47.2	-59.8	3.8	8.47e-01	0	41	104	0	65	15939
2026-01-02 12:51:25.13	189.59	5.72	-47.2	-59.9	3.8	8.46e-01	0	41	104	0	65	16070
2026-01-02 12:51:26.14	189.64	5.79	-47.3	-59.9	3.8	8.48e-01	0	41	104	0	65	16041
2026-01-02 12:51:27.14	189.70	5.86	-47.2	-59.8	3.8	8.46e-01	0	41	104	0	65	15856
2026-01-02 12:51:28.15	189.75	5.93	-47.2	-59.7	3.8	8.46e-01	0	41	104	0	65	15628
2026-01-02 12:51:29.15	189.81	6.00	-47.2	-59.5	3.8	8.48e-01	0	41	104	0	65	15275
2026-01-02 12:51:30.15	189.87	6.07	-47.2	-59.3	3.8	8.46e-01	0	41	104	0	65	15047
2026-01-02 12:51:31.16	189.92	6.14	-47.2	-59.2	3.8	8.46e-01	0	41	104	0	65	14821
2026-01-02 12:51:32.16	189.98	6.21	-47.2	-59.1	3.8	8.47e-01	0	41	104	0	65	14705
2026-01-02 12:51:33.17	190.04	6.28	-47.2	-59.5	3.8	8.47e-01	0	41	104	0	65	15357
2026-01-02 12:51:34.17	190.09	6.35	-47.2	-59.4	3.8	8.46e-01	0	41	104	0	65	15124
2026-01-02 12:51:35.18	190.15	6.42	-47.2	-59.5	3.8	8.47e-01	0	41	104	0	65	15361
2026-01-02 12:51:36.18	190.21	6.49	-47.3	-60.0	3.8	8.46e-01	0	41	104	0	65	16145
2026-01-02 12:51:37.19	190.26	6.56	-47.3	-60.1	3.8	8.46e-01	0	41	104	0	65	16366
2026-01-02 12:51:38.19	190.32	6.64	-47.2	-59.9	3.8	8.47e-01	0	42	104	0	65	16061
2026-01-02 12:51:39.20	190.38	6.71	-47.2	-59.5	3.8	8.48e-01	0	41	104	0	65	15342
2026-01-02 12:51:40.20	190.44	6.78	-47.1	-58.5	3.8	8.48e-01	0	41	104	0	65	13645
2026-01-02 12:51:41.20	190.50	6.85	-46.9	-57.0	4.1	8.46e-01	0	42	104	0	65	11475
2026-01-02 12:51:42.21	190.56	6.92	-46.7	-55.8	4.4	8.34e-01	0	41	0	0	65	10014
2026-01-02 12:51:43.21	190.62	7.00	-46.6	-55.0	4.8	8.04e-01	0	42	0	0	65	9159
2026-01-02 12:51:44.22	190.68	7.07	-46.5	-54.7	4.9	7.86e-01	0	42	0	0	65	8780
2026-01-02 12:51:45.22	190.74	7.14	-46.5	-54.7	4.9	7.77e-01	0	42	0	0	65	8814
2026-01-02 12:51:46.23	190.80	7.21	-46.6	-55.4	4.6	8.02e-01	0	42	0	0	65	9502
2026-01-02 12:51:47.23	190.86	7.29	-46.8	-56.6	4.2	8.35e-01	0	42	0	0	65	10968
2026-01-02 12:51:48.24	190.92	7.36	-47.0	-58.2	3.8	8.45e-01	0	42	104	0	65	13111
2026-01-02 12:51:49.24	190.98	7.43	-47.0	-57.5	4.0	8.46e-01	0	42	104	0	65	12151
2026-01-02 12:51:50.25	191.04	7.51	-46.4	-54.2	5.2	8.04e-01	0	42	0	0	64	8827
2026-01-02 12:51:51.25	191.10	7.58	-45.4	-50.7	8.2	9.87e-02	0	42	0	4194304	62	6594
2026-01-02 12:51:52.26	191.17	7.66	-44.0	-47.9	11.0	6.94e-03	0	42	0	10485760	60	5391
2026-01-02 12:51:53.26	191.23	7.73	-42.6	-45.7	13.3	2.04e-04	0	42	0	15728640	57	4967
2026-01-02 12:51:54.26	191.29	7.81	-41.1	-43.8	15.1	0.00e+00	0	42	0	20971520	54	4714
2026-01-02 12:51:55.27	191.35	7.88	-40.1	-42.5	16.4	0.00e+00	0	42	0	27262976	52	4556
2026-01-02 12:51:56.27	191.42	7.96	-39.4	-41.6	17.3	0.00e+00	0	42	0	32505856	50	4642
2026-01-02 12:51:57.28	191.48	8.03	-38.7	-40.9	18.0	0.00e+00	0	42	0	37748736	49	4495
2026-01-02 12:51:58.28	191.54	8.11	-38.5	-40.6	18.3	0.00e+00	0	42	0	44040192	48	4610
2026-01-02 12:51:59.29	191.61	8.18	-38.3	-40.4	18.4	0.00e+00	0	42	0	49283072	48	4519
2026-01-02 12:52:00.29	191.67	8.26	-38.4	-40.5	18.3	0.00e+00	0	42	0	54525952	48	4598
2026-01-02 12:52:01.29	191.74	8.33	-38.8	-40.9	17.9	0.00e+00	0	42	0	60817408	48	4790
2026-01-02 12:52:02.30	191.80	8.41	-39.2	-41.4	17.4	0.00e+00	0	42	0	66060288	49	4810
2026-01-02 12:52:03.30	191.87	8.48	-39.8	-42.1	16.8	0.00e+00	0	42	0	72351744	50	4912
2026-01-02 12:52:04.31	191.93	8.56	-40.6	-43.1	15.9	0.00e+00	0	42	0	77594624	51	5182
2026-01-02 12:52:05.31	192.00	8.64	-41.2	-43.9	14.9	0.00e+00	0	42	0	83886080	53	5082
2026-01-02 12:52:06.32	192.07	8.72	-42.1	-45.0	13.9	1.10e-06	0	42	0	89128960	54	5433
2026-01-02 12:52:07.32	192.13	8.79	-43.0	-46.4	12.7	6.75e-05	0	42	0	94371840	56	5661
2026-01-02 12:52:08.32	192.20	8.87	-43.8	-47.5	11.6	6.44e-04	0	42	0	100663296	58	5723
2026-01-02 12:52:09.33	192.27	8.95	-44.4	-48.5	10.4	3.22e-03	0	42	0	105906176	59	6116
2026-01-02 12:52:10.33	192.34	9.02	-44.3	-48.6	10.4	1.34e-02	0	42	0	111149056	60	5790
2026-01-02 12:52:11.33	192.40	9.10	-41.7	-44.6	14.4	0.00e+00	0	42	0	117440512	55	4871
2026-01-02 12:52:12.33	192.47	9.18	-43.1	-46.5	12.6	1.37e-05	0	42	0	122683392	56	5751
2026-01-02 12:52:13.34	192.54	9.26	-45.5	-51.0	7.8	1.61e-01	0	42	0	127926272	62	6877
2026-01-02 12:52:14.34	192.61	9.34	-43.3	-46.7	12.3	3.37e-03	0	42	0	134217728	58	5260
2026-01-02 12:52:15.34	192.68	9.42	-42.9	-46.1	13.0	7.20e-05	0	42	0	139460608	56	5513
2026-01-02 12:52:16.35	192.75	9.49	-41.6	-44.4	14.6	0.00e+00	0	42	0	145752064	55	4781
2026-01-02 12:52:17.35	192.82	9.57	-41.4	-44.0	15.0	0.00e+00	0	42	0	150994944	54	4858
2026-01-02 12:52:18.35	192.89	9.65	-41.2	-43.8	15.2	0.00e+00	0	42	0	157286400	53	4987
2026-01-02 12:52:19.36	192.96	9.73	-40.8	-43.2	15.8	0.00e+00	0	42	0	162529280	53	4700
2026-01-02 12:52:20.36	193.03	9.81	-40.7	-43.1	15.9	0.00e+00	0	42	0	167772160	53	4627
2026-01-02 12:52:21.37	193.10	9.89	-40.4	-42.7	16.2	0.00e+00	0	43	0	174063616	52	4686
2026-01-02 12:52:22.37	193.18	9.97	-40.2	-42.5	16.5	0.00e+00	0	42	0	179306496	52	4570
2026-01-02 12:52:23.37	193.25	10.05	-39.4	-41.6	17.5	0.00e+00	0	43	0	184549376	50	4613
2026-01-02 12:52:24.38	193.32	10.13	-38.8	-40.9	18.1	0.00e+00	0	42	0	190840832	49	4526
2026-01-02 12:52:25.38	193.39	10.22	-38.5	-40.6	18.4	0.00e+00	0	42	0	196083712	49	4369
2026-01-02 12:52:26.38	193.47	10.30	-38.2	-40.2	18.7	0.00e+00	0	43	0	201326592	48	4429
2026-01-02 12:52:27.39	193.54	10.38	-38.0	-40.0	19.0	0.00e+00	0	42	0	207618048	48	4323
2026-01-02 12:52:28.39	193.62	10.46	-37.9	-39.9	18.9	0.00e+00	0	43	0	212860928	47	4512
2026-01-02 12:52:29.39	193.69	10.54	-37.8	-39.8	18.9	0.00e+00	0	43	0	219152384	47	4481
2026-01-02 12:52:30.39	193.77	10.62	-37.7	-39.8	19.0	0.00e+00	0	42	0	224395264	47	4442
2026-01-02 12:52:31.40	193.84	10.71	-37.9	-40.0	18.8	0.00e+00	0	43	0	230686720	47	4551
2026-01-02 12:52:32.40	193.92	10.79	-37.8	-39.8	18.9	0.00e+00	0	43	0	235929600	47	4492
2026-01-02 12:52:33.40	193.99	10.87	-37.8	-39.8	18.9	0.00e+00	0	42	0	241172480	47	4473
2026-01-02 12:52:34.41	194.07	10.95	-37.8	-39.8	18.9	0.00e+00	0	43	0	247463936	47	4461
2026-01-02 12:52:35.41	194.15	11.04	-37.9	-39.9	18.8	0.00e+00	0	42	0	252706816	47	4544
2026-01-02 12:52:36.41	194.23	11.12	-37.8	-39.8	18.9	0.00e+00	0	43	0	257949696	47	4459
2026-01-02 12:52:37.42	194.30	11.20	-37.7	-39.7	19.0	0.00e+00	0	43	0	264241152	47	4402
2026-01-02 12:52:38.42	194.38	11.29	-37.6	-39.7	19.0	0.00e+00	0	42	0	269484032	47	4394
2026-01-02 12:52:39.42	194.46	11.37	-37.7	-39.7	19.1	0.00e+00	0	42	0	274726912	47	4394
2026-01-02 12:52:40.42	194.54	11.46	-37.6	-39.6	19.1	0.00e+00	0	43	0	281018368	47	4382
2026-01-02 12:52:41.43	194.62	11.54	-37.6	-39.6	19.1	0.00e+00	0	42	0	286261248	47	4376
2026-01-02 12:52:42.43	194.70	11.63	-37.6	-39.6	19.2	0.00e+00	0	42	0	292552704	47	4360
2026-01-02 12:52:43.44	194.78	11.71	-37.7	-39.7	19.1	0.00e+00	0	43	0	297795584	47	4402
2026-01-02 12:52:44.44	194.86	11.80	-37.5	-39.5	19.2	0.00e+00	0	43	0	303038464	47	4333
2026-01-02 12:52:45.44	194.94	11.88	-37.6	-39.6	19.1	0.00e+00	0	43	0	309329920	47	4357
2026-01-02 12:52:46.45	195.03	11.97	-37.5	-39.5	19.2	0.00e+00	0	43	0	314572800	47	4330
2026-01-02 12:52:47.45	195.11	12.05	-37.5	-39.5	19.3	0.00e+00	0	43	0	320864256	47	4305
2026-01-02 12:52:48.45	195.19	12.14	-37.6	-39.6	19.2	0.00e+00	0	43	0	326107136	46	4607
2026-01-02 12:52:49.46	195.28	12.23	-37.5	-39.5	19.3	0.00e+00	0	43	0	331350016	46	4571
2026-01-02 12:52:50.46	195.36	12.31	-37.5	-39.4	19.3	0.00e+00	0	43	0	337641472	46	4545
2026-01-02 12:52:51.47	195.45	12.40	-37.4	-39.4	19.3	0.00e+00	0	42	0	342884352	46	4538
2026-01-02 12:52:52.47	195.53	12.49	-37.5	-39.4	19.3	0.00e+00	0	43	0	348127232	46	4544
2026-01-02 12:52:53.47	195.61	12.58	-37.4	-39.3	19.5	0.00e+00	0	43	0	354418688	46	4487
2026-01-02 12:52:54.48	195.70	12.67	-37.3	-39.3	19.5	0.00e+00	0	43	0	359661568	46	4484
2026-01-02 12:52:55.48	195.79	12.75	-37.3	-39.3	19.5	0.00e+00	0	43	0	365953024	46	4481
2026-01-02 12:52:56.48	195.87	12.84	-37.3	-39.3	19.5	0.00e+00	0	43	0	371195904	46	4484
2026-01-02 12:52:57.49	195.96	12.93	-37.3	-39.3	19.5	0.00e+00	0	43	0	376438784	46	4470
2026-01-02 12:52:58.49	196.05	13.02	-37.3	-39.3	19.5	0.00e+00	0	43	0	382730240	46	4456
2026-01-02 12:52:59.49	196.14	13.11	-37.1	-39.1	19.7	0.00e+00	0	43	0	387973120	46	4369
2026-01-02 12:53:00.50	196.23	13.20	-37.1	-39.1	19.7	0.00e+00	0	43	0	394264576	46	4362
2026-01-02 12:53:01.50	196.32	13.29	-37.1	-39.1	19.7	0.00e+00	0	43	0	399507456	46	4342
2026-01-02 12:53:02.51	196.41	13.38	-37.0	-39.0	19.8	0.00e+00	0	43	0	404750336	46	4323
2026-01-02 12:53:03.51	196.50	13.47	-37.1	-39.1	19.7	0.00e+00	0	43	0	411041792	46	4366
2026-01-02 12:53:04.51	196.59	13.56	-37.1	-39.1	19.7	0.00e+00	0	43	0	416284672	46	4341
2026-01-02 12:53:05.52	196.68	13.65	-37.1	-39.1	19.7	0.00e+00	0	43	0	421527552	46	4355
2026-01-02 12:53:06.52	196.77	13.74	-37.1	-39.0	19.7	0.00e+00	0	43	0	427819008	46	4333
2026-01-02 12:53:07.52	196.86	13.83	-37.1	-39.0	19.7	0.00e+00	0	43	0	433061888	46	4334
2026-01-02 12:53:08.52	196.96	13.92	-37.0	-39.0	19.8	0.00e+00	0	42	0	439353344	46	4317
2026-01-02 12:53:09.52	197.05	14.02	-37.0	-39.0	19.8	0.00e+00	0	43	0	444596224	46	4303
2026-01-02 12:53:10.53	197.15	14.11	-36.9	-38.8	19.9	0.00e+00	0	43	0	449839104	45	4476
2026-01-02 12:53:11.53	197.24	14.20	-36.9	-38.8	19.9	0.00e+00	0	43	0	456130560	45	4492
2026-01-02 12:53:12.54	197.34	14.29	-36.8	-38.7	20.0	0.00e+00	0	43	0	461373440	45	4426
2026-01-02 12:53:13.54	197.43	14.39	-36.8	-38.7	20.0	0.00e+00	0	43	0	466616320	45	4437
2026-01-02 12:53:14.54	197.53	14.48	-36.8	-38.8	20.0	0.00e+00	0	43	0	472907776	45	4442
2026-01-02 12:53:15.55	197.63	14.58	-36.8	-38.7	20.1	0.00e+00	0	43	0	478150656	45	4404
2026-01-02 12:53:16.55	197.72	14.67	-36.8	-38.7	20.0	0.00e+00	0	43	0	484442112	45	4435
2026-01-02 12:53:17.55	197.82	14.76	-36.7	-38.7	20.1	0.00e+00	0	43	0	489684992	45	4392
2026-01-02 12:53:18.56	197.92	14.86	-36.8	-38.7	20.0	0.00e+00	0	43	0	494927872	45	4436
2026-01-02 12:53:19.56	198.02	14.95	-36.7	-38.7	20.1	0.00e+00	0	43	0	501219328	45	4396
2026-01-02 12:53:20.56	198.12	15.05	-36.7	-38.6	20.1	0.00e+00	0	43	0	506462208	45	4377
2026-01-02 12:53:21.57	198.22	15.14	-36.8	-38.7	20.0	0.00e+00	0	43	0	512753664	45	4424
2026-01-02 12:53:22.57	198.32	15.24	-36.7	-38.7	20.1	0.00e+00	0	43	0	517996544	45	4395
2026-01-02 12:53:23.58	198.43	15.34	-36.6	-38.5	20.2	0.00e+00	0	43	0	523239424	45	4329
2026-01-02 12:53:24.58	198.53	15.43	-36.6	-38.5	20.2	0.00e+00	0	43	0	529530880	45	4318
2026-01-02 12:53:25.59	198.63	15.53	-36.5	-38.4	20.3	0.00e+00	0	43	0	534773760	45	4274
2026-01-02 12:53:26.59	198.74	15.63	-36.4	-38.3	20.4	0.00e+00	0	43	0	540016640	44	4478
2026-01-02 12:53:27.59	198.84	15.72	-36.3	-38.1	20.6	0.00e+00	0	43	0	546308096	44	4368
2026-01-02 12:53:28.60	198.95	15.82	-36.2	-38.1	20.7	0.00e+00	0	43	0	551550976	44	4358
2026-01-02 12:53:29.60	199.05	15.92	-36.2	-38.1	20.7	0.00e+00	0	43	0	557842432	44	4343
2026-01-02 12:53:30.60	199.16	16.02	-36.2	-38.0	20.7	0.00e+00	0	43	0	563085312	44	4328
2026-01-02 12:53:31.61	199.27	16.12	-36.2	-38.0	20.7	0.00e+00	0	43	0	569376768	44	4327
2026-01-02 12:53:32.61	199.38	16.21	-36.3	-38.2	20.6	0.00e+00	0	43	0	574619648	44	4398
2026-01-02 12:53:33.61	199.48	16.31	-36.3	-38.1	20.6	0.00e+00	0	43	0	579862528	44	4384
2026-01-02 12:53:34.62	199.59	16.41	-36.3	-38.2	20.6	0.00e+00	0	43	0	586153984	44	4404
2026-01-02 12:53:35.62	199.70	16.51	-36.3	-38.2	20.6	0.00e+00	0	43	0	591396864	44	4396
2026-01-02 12:53:36.63	199.82	16.61	-36.3	-38.2	20.6	0.00e+00	0	43	0	596639744	44	4425
2026-01-02 12:53:37.63	199.93	16.71	-36.4	-38.2	20.5	0.00e+00	0	43	0	602931200	44	4435
2026-01-02 12:53:38.63	200.04	16.81	-36.1	-38.0	20.8	0.00e+00	0	43	0	608174080	44	4311
2026-01-02 12:53:39.64	200.15	16.92	-36.1	-37.9	20.8	0.00e+00	0	43	0	613416960	44	4291
2026-01-02 12:53:40.64	200.27	17.02	-36.1	-37.9	20.8	0.00e+00	0	43	0	619708416	44	4288
2026-01-02 12:53:41.64	200.38	17.12	-36.1	-37.9	20.8	0.00e+00	0	43	0	624951296	44	4282
2026-01-02 12:53:42.65	200.50	17.22	-36.1	-37.9	20.8	0.00e+00	0	43	0	631242752	44	4291
2026-01-02 12:53:43.65	200.61	17.32	-36.1	-37.9	20.8	0.00e+00	0	43	0	636485632	44	4288
2026-01-02 12:53:44.65	200.73	17.42	-36.0	-37.9	20.9	0.00e+00	0	43	0	642777088	44	4247
2026-01-02 12:53:45.66	200.85	17.53	-35.8	-37.7	20.9	0.00e+00	0	43	0	648019968	43	4404
2026-01-02 12:53:46.66	200.96	17.63	-35.9	-37.7	20.8	0.00e+00	0	43	0	653262848	43	4436
2026-01-02 12:53:47.66	201.08	17.73	-35.7	-37.5	21.1	0.00e+00	0	43	0	659554304	43	4316
2026-01-02 12:53:48.67	201.20	17.84	-35.6	-37.4	21.2	0.00e+00	0	43	0	664797184	43	4256
2026-01-02 12:53:49.67	201.32	17.94	-35.7	-37.5	21.1	0.00e+00	0	43	0	670040064	43	4294
2026-01-02 12:53:50.67	201.44	18.05	-35.7	-37.5	21.1	0.00e+00	0	43	0	676331520	43	4314
2026-01-02 12:53:51.67	201.57	18.15	-35.7	-37.5	21.1	0.00e+00	0	43	0	681574400	43	4300
2026-01-02 12:53:52.68	201.69	18.26	-35.5	-37.3	21.2	0.00e+00	0	43	0	686817280	43	4227
2026-01-02 12:53:53.68	201.81	18.36	-35.5	-37.3	21.3	0.00e+00	0	43	0	693108736	43	4212
2026-01-02 12:53:54.68	201.94	18.47	-35.5	-37.3	21.3	0.00e+00	0	43	0	698351616	43	4205
2026-01-02 12:53:55.69	202.07	18.57	-35.4	-37.2	21.4	0.00e+00	0	43	0	704643072	42	4397
2026-01-02 12:53:56.69	202.19	18.68	-35.3	-37.1	21.5	0.00e+00	0	43	0	709885952	42	4344
2026-01-02 12:53:57.69	202.32	18.79	-35.4	-37.1	21.4	0.00e+00	0	43	0	715128832	42	4388
2026-01-02 12:53:58.70	202.45	18.89	-35.3	-37.1	21.5	0.00e+00	0	43	0	721420288	42	4353
2026-01-02 12:53:59.70	202.58	19.00	-35.4	-37.2	21.4	0.00e+00	0	43	0	726663168	42	4398
2026-01-02 12:54:00.71	202.71	19.11	-35.4	-37.2	21.3	0.00e+00	0	43	0	732954624	42	4436
2026-01-02 12:54:01.71	202.84	19.22	-35.5	-37.3	21.3	0.00e+00	0	43	0	738197504	42	4456
2026-01-02 12:54:02.71	202.97	19.32	-35.5	-37.3	21.2	0.00e+00	0	43	0	743440384	42	4487
2026-01-02 12:54:03.72	203.10	19.43	-35.6	-37.5	21.1	0.00e+00	0	43	0	749731840	42	4558
2026-01-02 12:54:04.72	203.24	19.54	-35.7	-37.6	21.0	0.00e+00	0	43	0	754974720	42	4600
2026-01-02 12:54:05.72	203.37	19.65	-35.6	-37.4	21.2	0.00e+00	0	43	0	760217600	42	4520
2026-01-02 12:54:06.73	203.51	19.76	-35.5	-37.4	21.2	0.00e+00	0	43	0	766509056	42	4515
2026-01-02 12:54:07.73	203.64	19.87	-35.4	-37.2	21.3	0.00e+00	0	43	0	771751936	42	4431
2026-01-02 12:54:08.73	203.78	19.98	-35.4	-37.3	21.3	0.00e+00	0	43	0	778043392	42	4446
2026-01-02 12:54:09.73	203.92	20.09	-35.3	-37.1	21.4	0.00e+00	0	43	0	783286272	42	4375
2026-01-02 12:54:10.74	204.06	20.20	-35.3	-37.1	21.4	0.00e+00	0	43	0	788529152	42	4381
2026-01-02 12:54:11.74	204.20	20.32	-35.2	-37.0	21.5	0.00e+00	0	43	0	794820608	42	4330
2026-01-02 12:54:12.75	204.34	20.43	-35.2	-37.0	21.5	0.00e+00	0	43	0	800063488	42	4303
2026-01-02 12:54:13.75	204.48	20.54	-35.1	-36.9	21.6	0.00e+00	0	43	0	806354944	42	4259
2026-01-02 12:54:14.75	204.62	20.65	-35.1	-36.9	21.6	0.00e+00	0	43	0	811597824	42	4281
2026-01-02 12:54:15.76	204.77	20.76	-35.1	-36.9	21.6	0.00e+00	0	43	0	816840704	42	4252
2026-01-02 12:54:16.76	204.91	20.88	-35.0	-36.8	21.7	0.00e+00	0	43	0	823132160	42	4222
2026-01-02 12:54:17.76	205.06	20.99	-35.1	-36.9	21.7	0.00e+00	0	43	0	828375040	42	4244
2026-01-02 12:54:18.76	205.21	21.10	-34.9	-36.7	21.8	0.00e+00	0	43	0	833617920	41	4414
2026-01-02 12:54:19.77	205.36	21.22	-35.0	-36.8	21.7	0.00e+00	0	43	0	839909376	41	4465
2026-01-02 12:54:20.77	205.51	21.33	-35.0	-36.8	21.7	0.00e+00	0	43	0	845152256	41	4469
2026-01-02 12:54:21.78	205.66	21.45	-35.1	-36.9	21.6	0.00e+00	0	43	0	851443712	41	4503
2026-01-02 12:54:22.78	205.81	21.56	-35.2	-37.0	21.5	0.00e+00	0	43	0	856686592	41	4551
2026-01-02 12:54:23.78	205.96	21.68	-35.2	-37.0	21.5	0.00e+00	0	43	0	861929472	41	4595
2026-01-02 12:54:24.79	206.12	21.79	-35.2	-37.0	21.4	0.00e+00	0	43	0	868220928	41	4593
2026-01-02 12:54:25.79	206.27	21.91	-35.2	-37.0	21.5	0.00e+00	0	43	0	873463808	41	4584
2026-01-02 12:54:26.79	206.43	22.02	-35.3	-37.1	21.4	0.00e+00	0	43	0	878706688	41	4616
2026-01-02 12:54:27.80	206.59	22.14	-35.4	-37.2	21.4	0.00e+00	0	43	0	884998144	41	4659
2026-01-02 12:54:28.80	206.74	22.26	-35.1	-36.9	21.6	0.00e+00	0	43	0	890241024	41	4531
2026-01-02 12:54:29.80	206.90	22.37	-35.0	-36.7	21.7	0.00e+00	0	43	0	896532480	41	4429
2026-01-02 12:54:30.81	207.06	22.49	-34.9	-36.7	21.8	0.00e+00	0	43	0	901775360	41	4420
2026-01-02 12:54:31.81	207.23	22.61	-34.9	-36.7	21.8	0.00e+00	0	43	0	907018240	41	4422
2026-01-02 12:54:32.81	207.39	22.73	-34.8	-36.5	21.9	0.00e+00	0	43	0	913309696	41	4337
2026-01-02 12:54:33.82	207.55	22.85	-34.8	-36.5	21.9	0.00e+00	0	43	0	918552576	41	4339
2026-01-02 12:54:34.82	207.72	22.97	-34.7	-36.5	22.0	0.00e+00	0	43	0	924844032	41	4322
2026-01-02 12:54:35.82	207.89	23.08	-34.7	-36.5	22.0	0.00e+00	0	43	0	930086912	41	4308
2026-01-02 12:54:36.82	208.05	23.20	-34.7	-36.5	22.0	0.00e+00	0	43	0	935329792	41	4296
2026-01-02 12:54:37.83	208.22	23.32	-34.5	-36.3	22.1	0.00e+00	0	43	0	941621248	41	4211
2026-01-02 12:54:38.83	208.39	23.44	-34.5	-36.2	22.2	0.00e+00	0	43	0	946864128	41	4189
2026-01-02 12:54:39.83	208.57	23.56	-34.5	-36.2	22.2	0.00e+00	0	43	0	952107008	40	4423
2026-01-02 12:54:40.84	208.74	23.68	-34.5	-36.2	22.2	0.00e+00	0	43	0	958398464	40	4436
2026-01-02 12:54:41.84	208.91	23.80	-34.5	-36.2	22.2	0.00e+00	0	43	0	963641344	40	4439
2026-01-02 12:54:42.85	209.09	23.93	-34.5	-36.2	22.2	0.00e+00	0	43	0	968884224	40	4435
2026-01-02 12:54:43.85	209.27	24.05	-34.5	-36.3	22.1	0.00e+00	0	43	0	975175680	40	4454
2026-01-02 12:54:44.85	209.45	24.17	-34.6	-36.3	22.2	0.00e+00	0	43	0	980418560	40	4471
2026-01-02 12:54:45.85	209.63	24.29	-34.6	-36.4	22.1	0.00e+00	0	43	0	986710016	40	4509
2026-01-02 12:54:46.86	209.81	24.41	-34.6	-36.3	22.1	0.00e+00	0	43	0	991952896	40	4471
2026-01-02 12:54:47.86	209.99	24.54	-34.6	-36.4	22.1	0.00e+00	0	43	0	998244352	40	4502
2026-01-02 12:54:48.86	210.17	24.66	-34.7	-36.5	22.0	0.00e+00	0	43	0	1003487232	40	4553
2026-01-02 12:54:49.87	210.36	24.78	-34.7	-36.5	21.9	0.00e+00	0	43	0	1008730112	40	4584
2026-01-02 12:54:50.87	210.55	24.91	-34.8	-36.5	21.9	0.00e+00	0	43	0	1015021568	40	4589
2026-01-02 12:54:51.87	210.73	25.03	-34.9	-36.6	21.9	0.00e+00	0	43	0	1020264448	40	4631
2026-01-02 12:54:52.88	210.93	25.15	-34.5	-36.3	22.2	0.00e+00	0	43	0	1025507328	40	4443
2026-01-02 12:54:53.88	211.12	25.28	-34.3	-36.0	22.4	0.00e+00	0	43	0	1031798784	40	4301
2026-01-02 12:54:54.89	211.31	25.40	-34.3	-36.0	22.4	0.00e+00	0	43	0	1037041664	40	4331
2026-01-02 12:54:55.89	211.50	25.53	-34.3	-36.0	22.4	0.00e+00	0	43	0	1042284544	40	4326
2026-01-02 12:54:56.89	211.70	25.65	-34.3	-36.1	22.4	0.00e+00	0	43	0	1048576000	40	4346
2026-01-02 12:54:57.90	211.90	25.78	-34.2	-35.9	22.5	0.00e+00	0	43	0	1053818880	40	4274
2026-01-02 12:54:58.90	212.10	25.90	-34.2	-36.0	22.4	0.00e+00	0	43	0	1060110336	40	4309
2026-01-02 12:54:59.90	212.29	26.03	-34.1	-35.9	22.5	0.00e+00	0	43	0	1065353216	40	4251
2026-01-02 12:55:00.91	212.50	26.15	-34.2	-36.0	22.5	0.00e+00	0	43	0	1071644672	40	4299
2026-01-02 12:55:01.91	212.70	26.28	-34.3	-36.0	22.4	0.00e+00	0	43	0	1076887552	40	4330
2026-01-02 12:55:02.91	212.91	26.40	-34.3	-36.1	22.4	0.00e+00	0	43	0	1082130432	40	4351
2026-01-02 12:55:03.91	213.11	26.53	-34.3	-36.1	22.3	0.00e+00	0	43	0	1088421888	40	4346
2026-01-02 12:55:04.92	213.32	26.66	-34.3	-36.1	22.3	0.00e+00	0	43	0	1093664768	40	4350
2026-01-02 12:55:05.92	213.53	26.78	-34.3	-36.0	22.4	0.00e+00	0	43	0	1098907648	40	4327
2026-01-02 12:55:06.92	213.74	26.91	-34.3	-36.0	22.4	0.00e+00	0	43	0	1105199104	40	4320
2026-01-02 12:55:07.93	213.96	27.04	-34.1	-35.8	22.5	0.00e+00	0	43	0	1110441984	40	4227
2026-01-02 12:55:08.93	214.17	27.17	-34.1	-35.8	22.6	0.00e+00	0	43	0	1115684864	40	4231
2026-01-02 12:55:09.93	214.39	27.29	-34.1	-35.8	22.6	0.00e+00	0	43	0	1121976320	40	4214
2026-01-02 12:55:10.94	214.60	27.42	-34.0	-35.8	22.6	0.00e+00	0	43	0	1127219200	40	4203
2026-01-02 12:55:11.94	214.82	27.55	-34.2	-35.9	22.5	0.00e+00	0	43	0	1133510656	40	4267
2026-01-02 12:55:12.94	215.04	27.68	-34.0	-35.7	22.6	0.00e+00	0	43	0	1138753536	40	4171
2026-01-02 12:55:13.95	215.27	27.81	-34.1	-35.8	22.6	0.00e+00	0	43	0	1145044992	40	4209
2026-01-02 12:55:14.95	215.49	27.93	-34.1	-35.8	22.6	0.00e+00	0	43	0	1150287872	40	4210
2026-01-02 12:55:15.96	215.72	28.06	-34.0	-35.8	22.6	0.00e+00	0	43	0	1155530752	40	4202
2026-01-02 12:55:16.96	215.95	28.19	-34.1	-35.8	22.5	0.00e+00	0	43	0	1161822208	40	4235
2026-01-02 12:55:17.96	216.18	28.32	-34.0	-35.8	22.6	0.00e+00	0	43	0	1167065088	40	4204
2026-01-02 12:55:18.97	216.41	28.45	-34.0	-35.8	22.6	0.00e+00	0	43	0	1172307968	39	4447
2026-01-02 12:55:19.97	216.65	28.58	-34.0	-35.7	22.7	0.00e+00	0	43	0	1178599424	39	4421
2026-01-02 12:55:20.97	216.88	28.71	-34.1	-35.8	22.6	0.00e+00	0	43	0	1183842304	39	4470
2026-01-02 12:55:21.98	217.12	28.83	-34.0	-35.7	22.7	0.00e+00	0	43	0	1189085184	39	4430
2026-01-02 12:55:22.98	217.36	28.96	-33.9	-35.7	22.8	0.00e+00	0	43	0	1195376640	39	4402
2026-01-02 12:55:23.99	217.60	29.09	-34.0	-35.7	22.7	0.00e+00	0	43	0	1200619520	39	4419
2026-01-02 12:55:24.99	217.85	29.22	-34.1	-35.8	22.7	0.00e+00	0	43	0	1206910976	39	4453
2026-01-02 12:55:25.99	218.09	29.35	-33.9	-35.6	22.8	0.00e+00	0	43	0	1212153856	39	4357
2026-01-02 12:55:27.00	218.34	29.48	-33.9	-35.6	22.8	0.00e+00	0	43	0	1217396736	39	4365
2026-01-02 12:55:28.00	218.59	29.61	-34.0	-35.7	22.8	0.00e+00	0	43	0	1223688192	39	4402
2026-01-02 12:55:29.00	218.84	29.74	-33.9	-35.6	22.8	0.00e+00	0	43	0	1228931072	39	4373
2026-01-02 12:55:30.00	219.09	29.87	-34.0	-35.7	22.7	0.00e+00	0	43	0	1235222528	39	4410
2026-01-02 12:55:31.01	219.35	30.00	-34.0	-35.7	22.7	0.00e+00	0	43	0	1240465408	39	4438
2026-01-02 12:55:32.01	219.61	30.13	-33.9	-35.6	22.8	0.00e+00	0	43	0	1245708288	39	4353
2026-01-02 12:55:33.01	219.86	30.25	-33.8	-35.5	22.9	0.00e+00	0	43	0	1251999744	39	4329
2026-01-02 12:55:34.02	220.13	30.38	-33.9	-35.6	22.9	0.00e+00	0	43	0	1257242624	39	4357
2026-01-02 12:55:35.02	220.39	30.51	-33.8	-35.5	22.8	0.00e+00	0	43	0	1262485504	39	4340
2026-01-02 12:55:36.03	220.66	30.64	-33.9	-35.6	22.8	0.00e+00	0	43	0	1268776960	39	4374
2026-01-02 12:55:37.03	220.92	30.77	-33.8	-35.6	22.9	0.00e+00	0	43	0	1274019840	39	4345
2026-01-02 12:55:38.03	221.19	30.90	-33.9	-35.7	22.8	0.00e+00	0	43	0	1280311296	39	4393
2026-01-02 12:55:39.04	221.47	31.03	-33.9	-35.6	22.9	0.00e+00	0	43	0	1285554176	39	4350
2026-01-02 12:55:40.04	221.74	31.16	-33.9	-35.6	22.8	0.00e+00	0	43	0	1290797056	39	4387
2026-01-02 12:55:41.05	222.02	31.29	-33.9	-35.6	22.9	0.00e+00	0	43	0	1297088512	39	4379
2026-01-02 12:55:42.04	222.29	31.41	-33.8	-35.6	22.9	0.00e+00	0	43	0	1302331392	39	4342
2026-01-02 12:55:43.05	222.58	31.54	-33.9	-35.6	22.9	0.00e+00	0	43	0	1308622848	39	4363
2026-01-02 12:55:44.05	222.86	31.67	-33.8	-35.5	23.0	0.00e+00	0	43	0	1313865728	39	4328
2026-01-02 12:55:45.06	223.14	31.80	-33.7	-35.4	23.1	0.00e+00	0	43	0	1319108608	39	4261
2026-01-02 12:55:46.06	223.43	31.92	-33.8	-35.5	23.0	0.00e+00	0	43	0	1325400064	39	4313
2026-01-02 12:55:47.06	223.72	32.05	-33.8	-35.5	22.9	0.00e+00	0	43	0	1330642944	39	4336
2026-01-02 12:55:48.07	224.01	32.18	-33.8	-35.5	23.0	0.00e+00	0	43	0	1335885824	39	4299
2026-01-02 12:55:49.07	224.30	32.30	-33.8	-35.6	22.9	0.00e+00	0	43	0	1342177280	39	4348
2026-01-02 12:55:50.08	224.60	32.43	-34.0	-35.8	22.8	0.00e+00	0	43	0	1347420160	39	4446
2026-01-02 12:55:51.08	224.90	32.56	-34.0	-35.8	22.7	0.00e+00	0	43	0	1353711616	39	4452
2026-01-02 12:55:52.09	225.20	32.68	-33.9	-35.6	22.8	0.00e+00	0	43	0	1358954496	39	4384
2026-01-02 12:55:53.09	225.50	32.81	-33.7	-35.4	22.9	0.00e+00	0	43	0	1364197376	39	4286
2026-01-02 12:55:54.09	225.81	32.93	-33.7	-35.4	23.0	0.00e+00	0	43	0	1370488832	39	4284
2026-01-02 12:55:55.10	226.12	33.06	-33.6	-35.3	23.0	0.00e+00	0	43	0	1375731712	39	4239
2026-01-02 12:55:56.10	226.43	33.18	-33.6	-35.3	23.1	0.00e+00	0	43	0	1382023168	39	4212
2026-01-02 12:55:57.10	226.74	33.31	-33.6	-35.3	23.0	0.00e+00	0	43	0	1387266048	39	4219
2026-01-02 12:55:58.11	227.05	33.43	-33.7	-35.4	22.9	0.00e+00	0	43	0	1392508928	39	4282
2026-01-02 12:55:59.11	227.37	33.55	-33.8	-35.6	22.8	0.00e+00	0	43	0	1398800384	39	4351
2026-01-02 12:56:00.12	227.69	33.68	-33.9	-35.6	22.7	0.00e+00	0	43	0	1404043264	39	4382
2026-01-02 12:56:01.12	228.01	33.80	-33.9	-35.6	22.7	0.00e+00	0	43	0	1409286144	39	4389
2026-01-02 12:56:02.13	228.34	33.92	-34.0	-35.7	22.7	0.00e+00	0	43	0	1415577600	39	4422
2026-01-02 12:56:03.13	228.66	34.04	-34.0	-35.7	22.7	0.00e+00	0	43	0	1420820480	39	4424
2026-01-02 12:56:04.13	228.99	34.16	-33.9	-35.7	22.7	0.00e+00	0	43	0	1427111936	39	4399
2026-01-02 12:56:05.14	229.32	34.28	-33.8	-35.5	22.8	0.00e+00	0	43	0	1432354816	39	4324
2026-01-02 12:56:06.14	229.65	34.40	-33.8	-35.5	22.9	0.00e+00	0	43	0	1437597696	39	4314
2026-01-02 12:56:07.14	229.99	34.52	-33.7	-35.4	22.9	0.00e+00	0	43	0	1443889152	39	4279
2026-01-02 12:56:08.14	230.33	34.63	-33.8	-35.5	22.9	0.00e+00	0	43	0	1449132032	39	4306
2026-01-02 12:56:09.15	230.67	34.75	-33.8	-35.5	22.9	0.00e+00	0	43	0	1454374912	39	4318
2026-01-02 12:56:10.15	231.01	34.87	-33.8	-35.5	22.8	0.00e+00	0	43	0	1460666368	39	4330
2026-01-02 12:56:11.15	231.36	34.98	-33.8	-35.5	22.8	0.00e+00	0	43	0	1465909248	39	4331
2026-01-02 12:56:12.16	231.71	35.10	-33.8	-35.6	22.8	0.00e+00	0	43	0	1472200704	39	4353
2026-01-02 12:56:13.16	232.05	35.21	-33.8	-35.5	23.0	0.00e+00	0	43	0	1477443584	39	4300
2026-01-02 12:56:14.16	232.41	35.33	-33.6	-35.4	23.1	0.00e+00	0	43	0	1483735040	39	4243
2026-01-02 12:56:15.16	232.76	35.44	-33.5	-35.2	23.2	0.00e+00	0	43	0	1488977920	39	4163
2026-01-02 12:56:16.17	233.12	35.55	-33.4	-35.1	23.3	0.00e+00	0	44	0	1494220800	38	4376
2026-01-02 12:56:17.17	233.48	35.66	-33.5	-35.2	23.2	0.00e+00	0	43	0	1500512256	38	4401
2026-01-02 12:56:18.18	233.84	35.77	-33.6	-35.3	23.2	0.00e+00	0	43	0	1505755136	38	4461
2026-01-02 12:56:19.18	234.21	35.88	-33.6	-35.3	23.1	0.00e+00	0	43	0	1510998016	38	4486
2026-01-02 12:56:20.18	234.57	35.99	-33.7	-35.5	23.0	0.00e+00	0	43	0	1517289472	38	4560
2026-01-02 12:56:21.18	234.94	36.10	-33.7	-35.5	22.9	0.00e+00	0	43	0	1522532352	38	4546
2026-01-02 12:56:22.19	235.32	36.21	-33.6	-35.3	23.1	0.00e+00	0	43	0	1527775232	38	4465
2026-01-02 12:56:23.19	235.69	36.31	-33.7	-35.4	23.0	0.00e+00	0	43	0	1534066688	38	4497
2026-01-02 12:56:24.19	236.06	36.42	-33.7	-35.5	23.0	0.00e+00	0	43	0	1539309568	38	4549
2026-01-02 12:56:25.20	236.45	36.52	-33.8	-35.5	22.9	0.00e+00	0	43	0	1545601024	38	4568
2026-01-02 12:56:26.20	236.83	36.62	-33.7	-35.4	23.0	0.00e+00	0	43	0	1550843904	38	4525
2026-01-02 12:56:27.20	237.21	36.72	-33.6	-35.3	23.1	0.00e+00	0	43	0	1557135360	38	4452
2026-01-02 12:56:28.20	237.59	36.82	-33.4	-35.1	23.2	0.00e+00	0	43	0	1562378240	38	4367
2026-01-02 12:56:29.21	237.98	36.92	-33.4	-35.1	23.2	0.00e+00	0	43	0	1567621120	38	4389
2026-01-02 12:56:30.21	238.37	37.02	-33.5	-35.2	23.2	0.00e+00	0	43	0	1573912576	38	4393
2026-01-02 12:56:31.21	238.76	37.12	-33.5	-35.2	23.2	0.00e+00	0	43	0	1579155456	38	4416
2026-01-02 12:56:32.22	239.16	37.21	-33.6	-35.3	23.1	0.00e+00	0	43	0	1584398336	38	4466
2026-01-02 12:56:33.22	239.56	37.31	-33.6	-35.3	23.1	0.00e+00	0	43	0	1590689792	38	4458
2026-01-02 12:56:34.23	239.96	37.40	-33.7	-35.3	23.1	0.00e+00	0	43	0	1595932672	38	4486
2026-01-02 12:56:35.23	240.36	37.49	-33.5	-35.2	23.2	0.00e+00	0	43	0	1601175552	38	4410
2026-01-02 12:56:36.23	240.77	37.58	-33.5	-35.1	23.3	0.00e+00	0	43	0	1607467008	38	4378
2026-01-02 12:56:37.24	241.17	37.67	-33.3	-35.0	23.4	0.00e+00	0	43	0	1612709888	38	4325
2026-01-02 12:56:38.24	241.58	37.76	-33.3	-35.0	23.4	0.00e+00	0	43	0	1619001344	38	4319
2026-01-02 12:56:39.24	241.99	37.85	-33.3	-34.9	23.4	0.00e+00	0	43	0	1624244224	38	4290
2026-01-02 12:56:40.25	242.41	37.93	-33.4	-35.1	23.3	0.00e+00	0	43	0	1630535680	38	4371
2026-01-02 12:56:41.25	242.82	38.01	-33.3	-35.0	23.3	0.00e+00	0	43	0	1635778560	38	4323
2026-01-02 12:56:42.25	243.24	38.10	-33.3	-35.0	23.3	0.00e+00	0	43	0	1641021440	38	4334
2026-01-02 12:56:43.26	243.66	38.18	-33.4	-35.0	23.3	0.00e+00	0	43	0	1647312896	38	4340
2026-01-02 12:56:44.26	244.08	38.26	-33.3	-35.0	23.3	0.00e+00	0	43	0	1652555776	38	4329
2026-01-02 12:56:45.27	244.50	38.33	-33.5	-35.1	23.2	0.00e+00	0	43	0	1657798656	38	4386
2026-01-02 12:56:46.27	244.93	38.41	-33.5	-35.2	23.2	0.00e+00	0	43	0	1664090112	38	4408
2026-01-02 12:56:47.27	245.35	38.48	-33.5	-35.3	23.1	0.00e+00	0	43	0	1669332992	38	4443
2026-01-02 12:56:48.28	245.79	38.56	-33.6	-35.3	23.1	0.00e+00	0	43	0	1674575872	38	4481
2026-01-02 12:56:49.28	246.22	38.63	-33.3	-35.0	23.3	0.00e+00	0	43	0	1680867328	38	4330
2026-01-02 12:56:50.29	246.65	38.70	-33.2	-34.9	23.4	0.00e+00	0	43	0	1686110208	38	4282
2026-01-02 12:56:51.29	247.08	38.77	-33.3	-35.0	23.3	0.00e+00	0	43	0	1692401664	38	4298
2026-01-02 12:56:52.29	247.52	38.83	-33.5	-35.2	23.1	0.00e+00	0	43	0	1697644544	38	4400
2026-01-02 12:56:53.30	247.96	38.90	-33.4	-35.0	23.3	0.00e+00	0	43	0	1703936000	38	4340
2026-01-02 12:56:54.30	248.40	38.96	-33.3	-35.0	23.4	0.00e+00	0	43	0	1709178880	38	4293
2026-01-02 12:56:55.30	248.84	39.02	-33.3	-35.0	23.3	0.00e+00	0	43	0	1714421760	38	4314
2026-01-02 12:56:56.31	249.28	39.08	-33.4	-35.1	23.2	0.00e+00	0	43	0	1720713216	38	4386
2026-01-02 12:56:57.31	249.73	39.14	-33.5	-35.3	23.1	0.00e+00	0	43	0	1725956096	38	4450
2026-01-02 12:56:58.31	250.17	39.19	-33.6	-35.3	23.1	0.00e+00	0	43	0	1731198976	38	4480
2026-01-02 12:56:59.32	250.62	39.25	-33.5	-35.3	23.1	0.00e+00	0	43	0	1737490432	38	4446
2026-01-02 12:57:00.32	251.07	39.30	-33.6	-35.3	23.2	0.00e+00	0	43	0	1742733312	38	4458
2026-01-02 12:57:01.32	251.52	39.35	-33.5	-35.2	23.2	0.00e+00	0	43	0	1747976192	38	4432
2026-01-02 12:57:02.33	251.97	39.40	-33.3	-35.0	23.4	0.00e+00	0	43	0	1754267648	38	4323
2026-01-02 12:57:03.33	252.42	39.44	-33.6	-35.3	23.2	0.00e+00	0	43	0	1759510528	38	4457
2026-01-02 12:57:04.33	252.88	39.49	-33.5	-35.2	23.1	0.00e+00	0	43	0	1765801984	38	4439
2026-01-02 12:57:05.33	253.33	39.53	-33.3	-35.0	23.4	0.00e+00	0	43	0	1771044864	38	4326
2026-01-02 12:57:06.34	253.79	39.57	-33.3	-35.0	23.4	0.00e+00	0	43	0	1776287744	38	4316
2026-01-02 12:57:07.34	254.25	39.61	-33.4	-35.1	23.3	0.00e+00	0	43	0	1782579200	38	4343
2026-01-02 12:57:08.34	254.70	39.64	-33.4	-35.2	23.2	0.00e+00	0	43	0	1787822080	38	4395
2026-01-02 12:57:09.35	255.17	39.68	-33.3	-35.0	23.3	0.00e+00	0	43	0	1794113536	38	4325
2026-01-02 12:57:10.35	255.62	39.71	-33.2	-34.9	23.4	0.00e+00	0	43	0	1799356416	38	4285
2026-01-02 12:57:11.36	256.09	39.74	-33.2	-34.9	23.4	0.00e+00	0	43	0	1804599296	38	4249
2026-01-02 12:57:12.36	256.55	39.77	-33.3	-34.9	23.4	0.00e+00	0	43	0	1810890752	38	4284
2026-01-02 12:57:13.36	257.01	39.79	-33.5	-35.2	23.2	0.00e+00	0	43	0	1816133632	38	4410
2026-01-02 12:57:14.37	257.48	39.82	-33.7	-35.4	23.0	0.00e+00	0	43	0	1821376512	38	4526
2026-01-02 12:57:15.37	257.94	39.84	-33.7	-35.4	23.0	0.00e+00	0	43	0	1827667968	38	4542
2026-01-02 12:57:16.37	258.40	39.86	-33.6	-35.3	23.1	0.00e+00	0	43	0	1832910848	38	4471
2026-01-02 12:57:17.38	258.87	39.88	-33.6	-35.4	23.0	0.00e+00	0	43	0	1839202304	38	4495
2026-01-02 12:57:18.38	259.34	39.90	-33.8	-35.5	22.9	0.00e+00	0	43	0	1844445184	38	4577
2026-01-02 12:57:19.38	259.80	39.91	-33.7	-35.4	23.0	0.00e+00	0	43	0	1849688064	38	4507
2026-01-02 12:57:20.39	260.27	39.92	-33.5	-35.3	23.1	0.00e+00	0	43	0	1855979520	38	4442
2026-01-02 12:57:21.39	260.74	39.93	-33.7	-35.4	23.0	0.00e+00	0	43	0	1861222400	38	4512
2026-01-02 12:57:22.39	261.20	39.94	-33.6	-35.4	23.0	0.00e+00	0	43	0	1866465280	38	4495
2026-01-02 12:57:23.40	261.67	39.94	-33.6	-35.4	23.0	0.00e+00	0	43	0	1872756736	38	4505
2026-01-02 12:57:24.40	262.14	39.95	-33.5	-35.2	23.1	0.00e+00	0	43	0	1877999616	38	4418
2026-01-02 12:57:25.40	262.60	39.95	-33.5	-35.2	23.1	0.00e+00	0	43	0	1884291072	38	4404
2026-01-02 12:57:26.41	263.07	39.95	-33.6	-35.3	23.1	0.00e+00	0	43	0	1889533952	38	4446
2026-01-02 12:57:27.41	263.54	39.95	-33.6	-35.4	23.0	0.00e+00	0	43	0	1894776832	38	4500
2026-01-02 12:57:28.41	264.01	39.94	-33.6	-35.3	23.1	0.00e+00	0	43	0	1901068288	38	4493
2026-01-02 12:57:29.41	264.47	39.93	-33.7	-35.4	23.0	0.00e+00	0	43	0	1906311168	38	4543
2026-01-02 12:57:30.42	264.94	39.92	-33.7	-35.4	23.1	0.00e+00	0	43	0	1912602624	38	4502
2026-01-02 12:57:31.42	265.41	39.91	-33.5	-35.2	23.2	0.00e+00	0	43	0	1917845504	38	4408
2026-01-02 12:57:32.43	265.88	39.90	-33.4	-35.1	23.2	0.00e+00	0	43	0	1923088384	38	4368
2026-01-02 12:57:33.43	266.34	39.88	-33.4	-35.1	23.3	0.00e+00	0	43	0	1929379840	38	4352
2026-01-02 12:57:34.43	266.80	39.87	-33.4	-35.2	23.2	0.00e+00	0	43	0	1934622720	38	4412
2026-01-02 12:57:35.44	267.27	39.85	-33.5	-35.1	23.8	0.00e+00	0	43	0	1939865600	38	4385
2026-01-02 12:57:36.44	267.73	39.83	-33.5	-35.2	23.7	0.00e+00	0	43	0	1946157056	38	4394
2026-01-02 12:57:37.44	268.20	39.80	-33.6	-35.2	23.7	0.00e+00	0	43	0	1951399936	38	4430
2026-01-02 12:57:38.45	268.66	39.78	-33.8	-35.4	23.5	0.00e+00	0	43	0	1956642816	38	4510
2026-01-02 12:57:39.45	269.12	39.75	-33.7	-35.4	23.6	0.00e+00	0	43	0	1962934272	38	4501
2026-01-02 12:57:40.45	269.58	39.72	-33.7	-35.4	23.6	0.00e+00	0	43	0	1968177152	38	4505
2026-01-02 12:57:41.46	270.05	39.69	-33.7	-35.3	23.6	0.00e+00	0	44	0	1974468608	38	4465
2026-01-02 12:57:42.46	270.50	39.65	-33.6	-35.3	23.7	0.00e+00	0	43	0	1979711488	38	4445
2026-01-02 12:57:43.46	270.96	39.62	-33.5	-35.1	23.8	0.00e+00	0	43	0	1986002944	38	4383
2026-01-02 12:57:44.47	271.42	39.58	-33.5	-35.1	23.8	0.00e+00	0	43	0	1991245824	38	4369
2026-01-02 12:57:45.47	271.88	39.54	-33.6	-35.2	23.7	0.00e+00	0	43	0	1996488704	38	4439
2026-01-02 12:57:46.47	272.33	39.50	-33.7	-35.3	23.6	0.00e+00	0	43	0	2002780160	38	4488
2026-01-02 12:57:47.48	272.79	39.46	-33.6	-35.3	23.7	0.00e+00	0	44	0	2008023040	38	4449
2026-01-02 12:57:48.48	273.24	39.41	-33.6	-35.3	23.7	0.00e+00	0	43	0	2013265920	38	4455
2026-01-02 12:57:49.48	273.69	39.36	-33.8	-35.4	23.6	0.00e+00	0	43	0	2019557376	38	4524
2026-01-02 12:57:50.48	274.14	39.31	-33.8	-35.4	23.6	0.00e+00	0	43	0	2024800256	38	4530
2026-01-02 12:57:51.49	274.59	39.26	-33.5	-35.2	23.8	0.00e+00	0	43	0	2030043136	38	4405
2026-01-02 12:57:52.49	275.03	39.21	-33.5	-35.1	23.8	0.00e+00	0	43	0	2036334592	38	4365
2026-01-02 12:57:53.49	275.48	39.15	-33.5	-35.1	23.8	0.00e+00	0	43	0	2041577472	38	4376
2026-01-02 12:57:54.50	275.93	39.10	-33.5	-35.1	23.8	0.00e+00	0	43	0	2047868928	38	4360
2026-01-02 12:57:55.50	276.37	39.04	-33.4	-35.0	23.9	0.00e+00	0	43	0	2053111808	38	4322
2026-01-02 12:57:56.51	276.81	38.98	-33.4	-35.0	23.9	0.00e+00	0	43	0	2059403264	38	4339
2026-01-02 12:57:57.51	277.25	38.92	-33.6	-35.2	23.7	0.00e+00	0	43	0	2064646144	38	4433
2026-01-02 12:57:58.51	277.69	38.85	-33.5	-35.2	23.8	0.00e+00	0	43	0	2069889024	38	4397
2026-01-02 12:57:59.51	278.12	38.79	-33.5	-35.1	23.8	0.00e+00	0	43	0	2076180480	38	4354
2026-01-02 12:58:00.52	278.56	38.72	-33.3	-34.9	24.0	0.00e+00	0	43	0	2081423360	38	4283
2026-01-02 12:58:01.52	278.99	38.65	-33.3	-34.9	24.0	0.00e+00	0	43	0	2086666240	38	4275
2026-01-02 12:58:02.53	279.42	38.58	-33.4	-35.0	23.9	0.00e+00	0	43	0	2092957696	38	4314
2026-01-02 12:58:03.53	279.85	38.51	-33.4	-35.1	23.8	0.00e+00	0	43	0	2098200576	38	4350
2026-01-02 12:58:04.53	280.27	38.44	-33.6	-35.2	23.7	0.00e+00	0	43	0	2103443456	38	4426
2026-01-02 12:58:05.54	280.70	38.36	-33.6	-35.2	23.7	0.00e+00	0	43	0	2109734912	38	4417
2026-01-02 12:58:06.54	281.12	38.28	-33.5	-35.1	23.8	0.00e+00	0	43	0	2114977792	38	4360
2026-01-02 12:58:07.54	281.54	38.21	-33.5	-35.2	23.7	0.00e+00	0	43	0	2121269248	38	4396
2026-01-02 12:58:08.55	281.97	38.13	-33.4	-35.0	23.9	0.00e+00	0	43	0	2126512128	38	4306
2026-01-02 12:58:09.55	282.38	38.04	-33.5	-35.1	23.9	0.00e+00	0	43	0	2132803584	38	4352
2026-01-02 12:58:10.55	282.79	37.96	-33.5	-35.2	23.8	0.00e+00	0	43	0	2138046464	38	4399
2026-01-02 12:58:11.56	283.21	37.88	-33.6	-35.3	23.6	0.00e+00	0	43	0	2143289344	38	4459
2026-01-02 12:58:12.56	283.62	37.79	-33.6	-35.2	23.7	0.00e+00	0	43	0	2149580800	38	4432
2026-01-02 12:58:13.57	284.03	37.70	-33.4	-35.0	23.9	0.00e+00	0	43	0	2154823680	38	4307
2026-01-02 12:58:14.57	284.44	37.62	-33.3	-34.9	24.0	0.00e+00	0	43	0	2160066560	38	4243
2026-01-02 12:58:15.57	284.84	37.53	-33.3	-34.8	24.0	0.00e+00	0	43	0	2166358016	38	4233
2026-01-02 12:58:16.58	285.24	37.43	-33.2	-34.8	24.1	0.00e+00	0	43	0	2171600896	38	4238
2026-01-02 12:58:17.58	285.64	37.34	-33.4	-35.0	23.9	0.00e+00	0	44	0	2176843776	38	4305
2026-01-02 12:58:18.58	286.04	37.25	-33.5	-35.2	23.8	0.00e+00	0	43	0	2183135232	38	4401
2026-01-02 12:58:19.59	286.43	37.15	-33.5	-35.1	23.8	0.00e+00	0	44	0	2188378112	38	4381
2026-01-02 12:58:20.59	286.83	37.06	-33.5	-35.2	23.7	0.00e+00	0	43	0	2194669568	38	4400
2026-01-02 12:58:21.60	287.22	36.96	-33.8	-35.4	23.5	0.00e+00	0	43	0	2199912448	38	4533
2026-01-02 12:58:22.60	287.61	36.86	-33.8	-35.4	23.5	0.00e+00	0	43	0	2206203904	38	4540
2026-01-02 12:58:23.61	287.99	36.76	-33.8	-35.4	23.6	0.00e+00	0	43	0	2211446784	38	4532
2026-01-02 12:58:24.61	288.38	36.66	-33.8	-35.4	23.5	0.00e+00	0	43	0	2216689664	38	4536
2026-01-02 12:58:25.61	288.76	36.56	-33.7	-35.3	23.6	0.00e+00	0	43	0	2222981120	38	4477
2026-01-02 12:58:26.62	289.14	36.46	-33.7	-35.3	23.6	0.00e+00	0	43	0	2228224000	38	4492
2026-01-02 12:58:27.62	289.51	36.35	-33.6	-35.2	23.7	0.00e+00	0	43	0	2233466880	38	4434
2026-01-02 12:58:28.62	289.89	36.25	-33.6	-35.2	23.7	0.00e+00	0	43	0	2239758336	38	4439
2026-01-02 12:58:29.63	290.26	36.14	-33.6	-35.2	23.7	0.00e+00	0	43	0	2245001216	38	4423
2026-01-02 12:58:30.63	290.63	36.04	-33.6	-35.2	23.7	0.00e+00	0	43	0	2250244096	38	4422
2026-01-02 12:58:31.63	290.99	35.93	-33.5	-35.1	23.7	0.00e+00	0	43	0	2256535552	38	4391
2026-01-02 12:58:32.63	291.36	35.82	-33.6	-35.2	23.7	0.00e+00	0	44	0	2261778432	38	4430
2026-01-02 12:58:33.63	291.72	35.71	-33.8	-35.4	23.5	0.00e+00	0	43	0	2268069888	38	4520
2026-01-02 12:58:34.64	292.08	35.60	-33.8	-35.5	23.5	0.00e+00	0	43	0	2273312768	38	4547
2026-01-02 12:58:35.64	292.44	35.49	-33.7	-35.4	23.5	0.00e+00	0	43	0	2278555648	38	4511
2026-01-02 12:58:36.64	292.79	35.38	-33.7	-35.3	23.6	0.00e+00	0	43	0	2284847104	38	4471
2026-01-02 12:58:37.65	293.14	35.27	-33.8	-35.4	23.6	0.00e+00	0	43	0	2290089984	38	4508
2026-01-02 12:58:38.65	293.49	35.15	-33.4	-35.0	23.9	0.00e+00	0	43	0	2296381440	38	4313
2026-01-02 12:58:39.65	293.84	35.04	-33.5	-35.1	23.8	0.00e+00	0	43	0	2301624320	38	4344
2026-01-02 12:58:40.66	294.19	34.92	-33.7	-35.3	23.6	0.00e+00	0	43	0	2306867200	38	4477
2026-01-02 12:58:41.66	294.53	34.81	-33.7	-35.3	23.6	0.00e+00	0	43	0	2313158656	38	4493
2026-01-02 12:58:42.66	294.87	34.69	-33.8	-35.5	23.5	0.00e+00	0	43	0	2318401536	38	4550
2026-01-02 12:58:43.67	295.21	34.57	-33.8	-35.4	23.5	0.00e+00	0	43	0	2323644416	38	4538
2026-01-02 12:58:44.67	295.54	34.46	-33.7	-35.4	23.5	0.00e+00	0	43	0	2329935872	38	4498
2026-01-02 12:58:45.67	295.87	34.34	-33.6	-35.3	23.6	0.00e+00	0	43	0	2335178752	38	4451
2026-01-02 12:58:46.68	296.21	34.22	-33.6	-35.2	23.7	0.00e+00	0	43	0	2341470208	38	4437
2026-01-02 12:58:47.68	296.54	34.10	-33.8	-35.4	23.6	0.00e+00	0	43	0	2346713088	38	4516
2026-01-02 12:58:48.68	296.86	33.98	-33.8	-35.5	23.5	0.00e+00	0	44	0	2351955968	38	4547
2026-01-02 12:58:49.69	297.19	33.86	-33.8	-35.5	23.5	0.00e+00	0	43	0	2358247424	38	4555
2026-01-02 12:58:50.69	297.51	33.74	-33.9	-35.5	23.4	0.00e+00	0	43	0	2363490304	38	4574
2026-01-02 12:58:51.69	297.82	33.62	-33.9	-35.5	23.4	0.00e+00	0	43	0	2368733184	38	4578
2026-01-02 12:58:52.69	298.14	33.49	-33.8	-35.4	23.5	0.00e+00	0	43	0	2375024640	38	4540
2026-01-02 12:58:53.70	298.46	33.37	-33.9	-35.5	23.4	0.00e+00	0	44	0	2380267520	38	4595
2026-01-02 12:58:54.70	298.77	33.25	-33.8	-35.4	23.5	0.00e+00	0	43	0	2386558976	38	4527
2026-01-02 12:58:55.71	299.08	33.12	-33.9	-35.5	23.4	0.00e+00	0	43	0	2391801856	38	4574
2026-01-02 12:58:56.71	299.38	33.00	-34.0	-35.6	23.4	0.00e+00	0	43	0	2397044736	38	4639
2026-01-02 12:58:57.71	299.69	32.88	-34.0	-35.7	23.3	0.00e+00	0	43	0	2403336192	38	4681
2026-01-02 12:58:58.72	299.99	32.75	-34.1	-35.7	23.2	0.00e+00	0	43	0	2408579072	38	4695
2026-01-02 12:58:59.72	300.29	32.63	-34.0	-35.6	23.3	0.00e+00	0	44	0	2414870528	38	4638
2026-01-02 12:59:00.72	300.59	32.50	-34.0	-35.7	23.2	0.00e+00	0	44	0	2420113408	38	4679
2026-01-02 12:59:01.72	300.88	32.38	-33.9	-35.5	23.4	0.00e+00	0	44	0	2425356288	38	4596
2026-01-02 12:59:02.73	301.18	32.25	-33.9	-35.6	23.4	0.00e+00	0	43	0	2431647744	38	4605
2026-01-02 12:59:03.73	301.47	32.13	-33.8	-35.5	23.5	0.00e+00	0	43	0	2436890624	38	4553
2026-01-02 12:59:04.74	301.76	32.00	-33.9	-35.5	23.4	0.00e+00	0	43	0	2442133504	38	4587
2026-01-02 12:59:05.74	302.05	31.87	-33.9	-35.5	23.4	0.00e+00	0	43	0	2448424960	38	4581
2026-01-02 12:59:06.74	302.33	31.75	-34.0	-35.7	23.3	0.00e+00	0	43	0	2453667840	38	4676
2026-01-02 12:59:07.74	302.61	31.62	-34.1	-35.8	23.2	0.00e+00	0	43	0	2458910720	38	4722
2026-01-02 12:59:08.75	302.90	31.49	-34.1	-35.8	23.2	0.00e+00	0	43	0	2465202176	38	4716
2026-01-02 12:59:09.75	303.17	31.37	-34.2	-35.9	23.1	0.00e+00	0	43	0	2470445056	39	4514
2026-01-02 12:59:10.75	303.45	31.24	-34.2	-35.9	23.1	0.00e+00	0	43	0	2476736512	39	4513
2026-01-02 12:59:11.76	303.72	31.11	-34.2	-35.9	23.1	0.00e+00	0	43	0	2481979392	39	4504
2026-01-02 12:59:12.76	303.99	30.98	-34.3	-36.0	23.0	0.00e+00	0	43	0	2488270848	39	4574
2026-01-02 12:59:13.76	304.26	30.85	-34.3	-36.0	23.0	0.00e+00	0	43	0	2493513728	39	4551
2026-01-02 12:59:14.77	304.53	30.73	-34.2	-35.9	23.1	0.00e+00	0	43	0	2498756608	39	4504
2026-01-02 12:59:15.77	304.80	30.60	-34.2	-35.8	23.2	0.00e+00	0	43	0	2505048064	39	4476
2026-01-02 12:59:16.78	305.06	30.47	-34.1	-35.8	23.2	0.00e+00	0	43	0	2510290944	39	4453
2026-01-02 12:59:17.78	305.32	30.34	-34.0	-35.7	23.3	0.00e+00	0	43	0	2515533824	39	4398
2026-01-02 12:59:18.78	305.58	30.21	-34.0	-35.7	23.3	0.00e+00	0	43	0	2521825280	39	4394
2026-01-02 12:59:19.79	305.84	30.08	-34.2	-35.8	23.2	0.00e+00	0	43	0	2527068160	39	4491
2026-01-02 12:59:20.79	306.10	29.96	-34.2	-35.9	23.1	0.00e+00	0	43	0	2532311040	39	4529
2026-01-02 12:59:21.79	306.35	29.83	-34.4	-36.1	22.9	0.00e+00	0	43	0	2538602496	39	4605
2026-01-02 12:59:22.80	306.60	29.70	-34.3	-36.0	23.0	0.00e+00	0	43	0	2543845376	39	4563
2026-01-02 12:59:23.80	306.85	29.57	-34.4	-36.1	22.9	0.00e+00	0	43	0	2550136832	39	4609
2026-01-02 12:59:24.80	307.10	29.44	-34.2	-35.9	23.1	0.00e+00	0	43	0	2555379712	39	4507
2026-01-02 12:59:25.81	307.34	29.31	-34.2	-35.8	23.1	0.00e+00	0	43	0	2561671168	39	4467
2026-01-02 12:59:26.81	307.59	29.19	-34.3	-35.9	23.1	0.00e+00	0	43	0	2566914048	39	4518
2026-01-02 12:59:27.81	307.83	29.06	-34.4	-36.0	22.9	0.00e+00	0	43	0	2572156928	39	4595
2026-01-02 12:59:28.82	308.07	28.93	-34.6	-36.3	22.8	0.00e+00	0	43	0	2578448384	39	4711
2026-01-02 12:59:29.82	308.31	28.80	-34.6	-36.3	22.6	0.00e+00	0	43	0	2583691264	40	4490
2026-01-02 12:59:30.82	308.54	28.67	-34.7	-36.4	22.6	0.00e+00	0	43	0	2588934144	40	4543
2026-01-02 12:59:31.83	308.78	28.55	-34.6	-36.3	22.7	0.00e+00	0	43	0	2595225600	40	4465
2026-01-02 12:59:32.83	309.01	28.42	-34.5	-36.2	22.7	0.00e+00	0	43	0	2600468480	40	4430
2026-01-02 12:59:33.84	309.24	28.29	-34.4	-36.0	22.9	0.00e+00	0	43	0	2606759936	40	4327
2026-01-02 12:59:34.84	309.47	28.16	-34.1	-35.8	23.1	0.00e+00	0	43	0	2612002816	40	4212
2026-01-02 12:59:35.84	309.70	28.03	-34.0	-35.7	23.2	0.00e+00	0	43	0	2617245696	40	4168
2026-01-02 12:59:36.85	309.92	27.91	-34.1	-35.7	23.2	0.00e+00	0	43	0	2623537152	40	4175
2026-01-02 12:59:37.85	310.14	27.78	-34.1	-35.8	23.1	0.00e+00	0	43	0	2628780032	40	4206
2026-01-02 12:59:38.85	310.37	27.65	-34.2	-35.9	23.1	0.00e+00	0	43	0	2635071488	40	4247
2026-01-02 12:59:39.86	310.59	27.52	-34.3	-36.0	23.0	0.00e+00	0	43	0	2640314368	40	4295
2026-01-02 12:59:40.86	310.80	27.40	-34.2	-35.9	23.0	0.00e+00	0	43	0	2645557248	40	4275
2026-01-02 12:59:41.86	311.02	27.27	-34.2	-35.9	23.0	0.00e+00	0	44	0	2651848704	40	4267
2026-01-02 12:59:42.87	311.24	27.14	-34.3	-36.0	23.0	0.00e+00	0	44	0	2657091584	40	4305
2026-01-02 12:59:43.87	311.45	27.02	-34.3	-36.0	23.0	0.00e+00	0	43	0	2662334464	40	4295
2026-01-02 12:59:44.87	311.66	26.89	-34.2	-35.9	23.1	0.00e+00	0	43	0	2668625920	40	4243
2026-01-02 12:59:45.88	311.87	26.77	-34.3	-36.0	22.9	0.00e+00	0	43	0	2673868800	40	4313
2026-01-02 12:59:46.88	312.08	26.64	-34.2	-35.9	23.0	0.00e+00	0	43	0	2680160256	40	4262
2026-01-02 12:59:47.88	312.29	26.52	-34.0	-35.7	23.2	0.00e+00	0	44	0	2685403136	40	4162
2026-01-02 12:59:48.88	312.49	26.39	-34.1	-35.8	23.1	0.00e+00	0	43	0	2690646016	40	4201
2026-01-02 12:59:49.89	312.70	26.26	-34.2	-35.8	23.1	0.00e+00	0	43	0	2696937472	40	4233
2026-01-02 12:59:50.89	312.90	26.14	-34.1	-35.8	23.1	0.00e+00	0	43	0	2702180352	40	4226
2026-01-02 12:59:51.90	313.10	26.01	-34.3	-35.9	22.9	0.00e+00	0	43	0	2707423232	40	4290
2026-01-02 12:59:52.90	313.30	25.89	-34.3	-36.1	22.8	0.00e+00	0	43	0	2713714688	40	4346
2026-01-02 12:59:53.90	313.49	25.77	-34.5	-36.2	22.7	0.00e+00	0	44	0	2718957568	40	4413
2026-01-02 12:59:54.90	313.69	25.64	-34.4	-36.1	22.8	0.00e+00	0	43	0	2725249024	40	4350
2026-01-02 12:59:55.91	313.88	25.52	-34.3	-36.0	22.9	0.00e+00	0	43	0	2730491904	40	4331
2026-01-02 12:59:56.91	314.08	25.39	-34.3	-36.0	22.9	0.00e+00	0	43	0	2735734784	40	4333
2026-01-02 12:59:57.91	314.27	25.27	-34.3	-36.0	22.9	0.00e+00	0	43	0	2742026240	40	4297
2026-01-02 12:59:58.92	314.46	25.15	-34.4	-36.1	22.8	0.00e+00	0	43	0	2747269120	40	4355
2026-01-02 12:59:59.92	314.65	25.03	-34.5	-36.2	22.7	0.00e+00	0	43	0	2753560576	40	4393
2026-01-02 13:00:00.92	314.83	24.90	-34.6	-36.3	22.7	0.00e+00	0	43	0	2758803456	40	4466
2026-01-02 13:00:02.19	315.07	24.75	-34.6	-36.3	22.7	0.00e+00	0	43	0	2766143488	40	4444
2026-01-02 13:00:02.93	315.20	24.66	-34.6	-36.3	22.6	0.00e+00	0	43	0	2770337792	40	4482
2026-01-02 13:00:04.21	315.44	24.50	-34.7	-36.4	22.5	0.00e+00	0	43	0	2775580672	40	4541
2026-01-02 13:00:05.05	315.59	24.40	-34.8	-36.5	22.4	0.00e+00	0	43	0	2781872128	40	4598
2026-01-02 13:00:06.20	315.80	24.26	-34.6	-36.3	22.6	0.00e+00	0	43	0	2788163584	40	4482
2026-01-02 13:00:07.06	315.95	24.16	-34.7	-36.3	22.6	0.00e+00	0	44	0	2793406464	40	4477
2026-01-02 13:00:08.21	316.15	24.02	-34.6	-36.3	22.6	0.00e+00	0	44	0	2799697920	40	4460
2026-01-02 13:00:09.07	316.30	23.92	-34.7	-36.3	22.6	0.00e+00	0	43	0	2804940800	40	4485
2026-01-02 13:00:10.21	316.50	23.78	-34.6	-36.2	22.7	0.00e+00	0	44	0	2811232256	40	4434
2026-01-02 13:00:11.07	316.65	23.68	-34.5	-36.2	22.6	0.00e+00	0	43	0	2815426560	40	4431
2026-01-02 13:00:12.22	316.85	23.54	-34.5	-36.2	22.7	0.00e+00	0	43	0	2821718016	40	4425
2026-01-02 13:00:13.08	316.99	23.44	-34.7	-36.4	22.5	0.00e+00	0	43	0	2826960896	40	4522
2026-01-02 13:00:14.22	317.19	23.30	-34.8	-36.5	22.4	0.00e+00	0	44	0	2833252352	40	4573
2026-01-02 13:00:15.09	317.33	23.20	-34.7	-36.4	22.5	0.00e+00	0	44	0	2838495232	40	4534
2026-01-02 13:00:16.23	317.52	23.07	-34.7	-36.5	22.4	0.00e+00	0	43	0	2844786688	40	4549
2026-01-02 13:00:17.09	317.66	22.97	-34.8	-36.5	22.4	0.00e+00	0	43	0	2850029568	40	4552
2026-01-02 13:00:18.24	317.85	22.83	-34.9	-36.6	22.3	0.00e+00	0	43	0	2856321024	40	4612
2026-01-02 13:00:19.10	317.99	22.73	-34.8	-36.5	22.4	0.00e+00	0	43	0	2861563904	40	4582
2026-01-02 13:00:20.24	318.18	22.60	-34.8	-36.5	21.4	0.00e+00	0	43	0	2866806784	40	4586
2026-01-02 13:00:21.11	318.32	22.50	-34.8	-36.5	22.3	0.00e+00	0	43	0	2872049664	40	4595
2026-01-02 13:00:22.25	318.50	22.36	-34.9	-36.6	22.3	0.00e+00	0	43	0	2878341120	40	4600
2026-01-02 13:00:23.11	318.63	22.26	-34.8	-36.5	22.4	0.00e+00	0	44	0	2883584000	40	4578
2026-01-02 13:00:24.26	318.82	22.13	-34.8	-36.5	22.4	0.00e+00	0	44	0	2889875456	40	4555
2026-01-02 13:00:25.12	318.95	22.03	-34.8	-36.5	22.4	0.00e+00	0	43	0	2895118336	40	4573
2026-01-02 13:00:26.27	319.13	21.90	-34.9	-36.6	22.3	0.00e+00	0	43	0	2901409792	40	4612
2026-01-02 13:00:27.13	319.26	21.80	-35.0	-36.7	22.2	0.00e+00	0	43	0	2905604096	40	4657
2026-01-02 13:00:28.28	319.44	21.67	-34.9	-36.6	22.3	0.00e+00	0	43	0	2912944128	40	4645
2026-01-02 13:00:29.14	319.57	21.57	-35.1	-36.8	22.1	0.00e+00	0	43	0	2917138432	40	4706
2026-01-02 13:00:30.29	319.74	21.44	-35.1	-36.8	22.0	0.00e+00	0	43	0	2923429888	40	4758
2026-01-02 13:00:31.14	319.87	21.35	-35.3	-37.0	21.9	0.00e+00	0	44	0	2928672768	41	4557
2026-01-02 13:00:32.29	320.04	21.22	-35.3	-37.0	21.9	0.00e+00	0	44	0	2934964224	41	4598
2026-01-02 13:00:33.15	320.16	21.12	-35.5	-37.2	21.7	0.00e+00	0	43	0	2940207104	41	4694
2026-01-02 13:00:34.30	320.33	20.99	-35.5	-37.2	21.7	0.00e+00	0	43	0	2946498560	41	4697
2026-01-02 13:00:35.16	320.46	20.89	-35.5	-37.2	21.7	0.00e+00	0	44	0	2951741440	41	4684
2026-01-02 13:00:36.31	320.62	20.77	-35.5	-37.2	21.7	0.00e+00	0	43	0	2958032896	41	4698
2026-01-02 13:00:37.17	320.74	20.67	-35.4	-37.2	21.7	0.00e+00	0	43	0	2962227200	41	4681
2026-01-02 13:00:38.31	320.91	20.54	-35.4	-37.2	21.7	0.00e+00	0	43	0	2969567232	41	4671
2026-01-02 13:00:39.17	321.03	20.45	-35.5	-37.2	21.7	0.00e+00	0	44	0	2973761536	41	4689
2026-01-02 13:00:40.32	321.19	20.32	-35.5	-37.3	21.7	0.00e+00	0	43	0	2980052992	41	4713
2026-01-02 13:00:41.18	321.31	20.23	-35.5	-37.2	21.6	0.00e+00	0	43	0	2985295872	41	4704
2026-01-02 13:00:42.33	321.47	20.10	-35.4	-37.2	21.7	0.00e+00	0	43	0	2991587328	41	4668
2026-01-02 13:00:43.18	321.58	20.01	-35.6	-37.3	21.6	0.00e+00	0	43	0	2996830208	41	4741
2026-01-02 13:00:44.33	321.74	19.88	-35.7	-37.4	21.5	0.00e+00	0	43	0	3003121664	41	4808
2026-01-02 13:00:45.19	321.86	19.79	-35.8	-37.5	21.4	0.00e+00	0	43	0	3007315968	42	4580
2026-01-02 13:00:46.34	322.01	19.66	-35.9	-37.7	21.3	0.00e+00	0	43	0	3013607424	42	4660
2026-01-02 13:00:47.20	322.13	19.57	-36.0	-37.8	21.2	0.00e+00	0	44	0	3018850304	42	4753
2026-01-02 13:00:48.35	322.28	19.45	-36.0	-37.8	21.2	0.00e+00	0	43	0	3025141760	42	4744
2026-01-02 13:00:49.21	322.39	19.36	-36.1	-37.9	21.1	0.00e+00	0	43	0	3030384640	42	4791
2026-01-02 13:00:50.35	322.54	19.23	-36.0	-37.8	21.2	0.00e+00	0	43	0	3036676096	42	4741
2026-01-02 13:00:51.21	322.65	19.14	-36.0	-37.8	21.2	0.00e+00	0	44	0	3041918976	42	4721
2026-01-02 13:00:52.36	322.80	19.02	-36.1	-37.8	21.1	0.00e+00	0	43	0	3048210432	42	4755
2026-01-02 13:00:53.22	322.91	18.93	-35.9	-37.6	21.3	0.00e+00	0	43	0	3052404736	42	4651
2026-01-02 13:00:54.37	323.06	18.81	-35.8	-37.6	21.4	0.00e+00	0	43	0	3059744768	42	4621
2026-01-02 13:00:55.23	323.17	18.72	-35.9	-37.7	21.3	0.00e+00	0	44	0	3063939072	42	4678
2026-01-02 13:00:56.38	323.31	18.60	-35.8	-37.5	21.4	0.00e+00	0	43	0	3070230528	42	4594
2026-01-02 13:00:57.24	323.42	18.50	-35.8	-37.6	21.4	0.00e+00	0	43	0	3075473408	42	4602
2026-01-02 13:00:58.38	323.56	18.39	-35.9	-37.7	21.3	0.00e+00	0	43	0	3081764864	42	4658
2026-01-02 13:00:59.24	323.67	18.30	-35.9	-37.7	21.2	0.00e+00	0	43	0	3087007744	42	4676
2026-01-02 13:01:00.39	323.81	18.18	-36.0	-37.8	21.2	0.00e+00	0	43	0	3093299200	42	4712
2026-01-02 13:01:01.25	323.91	18.09	-36.0	-37.8	21.2	0.00e+00	0	43	0	3098542080	42	4736
2026-01-02 13:01:02.40	324.05	17.97	-36.0	-37.8	21.1	0.00e+00	0	43	0	3104833536	42	4754
2026-01-02 13:01:03.26	324.15	17.88	-36.0	-37.8	21.1	0.00e+00	0	43	0	3109027840	42	4728
2026-01-02 13:01:04.40	324.29	17.76	-36.1	-37.8	21.1	0.00e+00	0	43	0	3116367872	42	4745
2026-01-02 13:01:05.26	324.39	17.68	-36.2	-37.9	21.0	0.00e+00	0	43	0	3120562176	42	4812
2026-01-02 13:01:06.41	324.53	17.56	-36.1	-37.8	21.1	0.00e+00	0	43	0	3126853632	43	4483
2026-01-02 13:01:07.27	324.63	17.47	-36.0	-37.8	21.2	0.00e+00	0	43	0	3132096512	43	4451
2026-01-02 13:01:08.41	324.76	17.36	-36.1	-37.9	21.1	0.00e+00	0	43	0	3138387968	43	4496
2026-01-02 13:01:09.27	324.86	17.27	-36.1	-37.8	21.1	0.00e+00	0	43	0	3143630848	43	4488
2026-01-02 13:01:10.42	324.99	17.15	-36.1	-37.9	21.0	0.00e+00	0	43	0	3149922304	43	4532
2026-01-02 13:01:11.28	325.09	17.07	-36.1	-37.9	21.1	0.00e+00	0	43	0	3154116608	43	4494
2026-01-02 13:01:12.43	325.22	16.95	-36.1	-37.9	21.1	0.00e+00	0	43	0	3160408064	43	4511
2026-01-02 13:01:13.29	325.31	16.87	-36.2	-38.0	20.9	0.00e+00	0	43	0	3165650944	43	4580
2026-01-02 13:01:14.44	325.44	16.75	-36.1	-38.0	20.9	0.00e+00	0	43	0	3171942400	43	4563
2026-01-02 13:01:15.30	325.54	16.67	-36.2	-38.0	20.9	0.00e+00	0	43	0	3177185280	43	4578
2026-01-02 13:01:16.44	325.66	16.55	-36.2	-38.1	20.8	0.00e+00	0	44	0	3183476736	43	4631
2026-01-02 13:01:17.30	325.76	16.47	-36.2	-38.1	20.8	0.00e+00	0	44	0	3188719616	43	4608
2026-01-02 13:01:18.45	325.88	16.36	-36.3	-38.2	20.8	0.00e+00	0	44	0	3195011072	43	4654
2026-01-02 13:01:19.31	325.98	16.27	-36.4	-38.3	20.6	0.00e+00	0	43	0	3199205376	43	4724
2026-01-02 13:01:20.46	326.10	16.16	-36.3	-38.2	20.7	0.00e+00	0	43	0	3206545408	43	4671
2026-01-02 13:01:21.32	326.19	16.08	-36.4	-38.3	20.7	0.00e+00	0	43	0	3210739712	43	4707
2026-01-02 13:01:22.46	326.31	15.97	-36.4	-38.2	20.7	0.00e+00	0	43	0	3217031168	43	4683
2026-01-02 13:01:23.32	326.40	15.88	-36.4	-38.3	20.6	0.00e+00	0	44	0	3222274048	43	4729
2026-01-02 13:01:24.47	326.52	15.77	-36.4	-38.3	20.6	0.00e+00	0	44	0	3228565504	43	4725
2026-01-02 13:01:25.33	326.61	15.69	-36.4	-38.2	20.7	0.00e+00	0	43	0	3233808384	43	4686
2026-01-02 13:01:26.48	326.73	15.58	-36.4	-38.3	20.6	0.00e+00	0	43	0	3240099840	43	4717
2026-01-02 13:01:27.34	326.82	15.50	-36.4	-38.2	20.7	0.00e+00	0	43	0	3244294144	43	4695
2026-01-02 13:01:28.48	326.94	15.39	-36.4	-38.3	20.6	0.00e+00	0	44	0	3251634176	43	4713
2026-01-02 13:01:29.34	327.03	15.31	-36.4	-38.2	20.7	0.00e+00	0	44	0	3255828480	43	4696
2026-01-02 13:01:30.49	327.14	15.20	-36.4	-38.3	20.6	0.00e+00	0	43	0	3262119936	43	4716
2026-01-02 13:01:31.35	327.23	15.12	-36.4	-38.3	20.6	0.00e+00	0	44	0	3267362816	43	4715
2026-01-02 13:01:32.50	327.34	15.01	-36.5	-38.3	20.6	0.00e+00	0	43	0	3273654272	43	4748
2026-01-02 13:01:33.36	327.43	14.93	-36.5	-38.3	20.6	0.00e+00	0	44	0	3278897152	43	4754
2026-01-02 13:01:34.50	327.54	14.82	-36.6	-38.5	20.4	0.00e+00	0	43	0	3285188608	43	4824
2026-01-02 13:01:35.36	327.63	14.74	-36.6	-38.5	20.5	0.00e+00	0	43	0	3290431488	43	4818
2026-01-02 13:01:36.51	327.74	14.63	-36.9	-38.7	20.4	0.00e+00	0	43	0	3296722944	44	4690
2026-01-02 13:01:37.37	327.82	14.55	-36.9	-38.7	20.3	0.00e+00	0	43	0	3300917248	44	4695
2026-01-02 13:01:38.52	327.93	14.45	-37.0	-38.8	20.2	0.00e+00	0	44	0	3307208704	44	4756
2026-01-02 13:01:39.38	328.01	14.37	-37.1	-39.0	20.1	0.00e+00	0	44	0	3312451584	44	4831
2026-01-02 13:01:40.53	328.12	14.26	-37.1	-39.0	20.1	0.00e+00	0	43	0	3318743040	45	4569
2026-01-02 13:01:41.39	328.21	14.18	-37.2	-39.1	20.0	0.00e+00	0	43	0	3323985920	45	4616
2026-01-02 13:01:42.53	328.31	14.08	-37.2	-39.1	20.0	0.00e+00	0	43	0	3330277376	45	4620
2026-01-02 13:01:43.39	328.39	14.00	-37.4	-39.3	19.8	0.00e+00	0	43	0	3334471680	45	4722
2026-01-02 13:01:44.54	328.50	13.90	-37.4	-39.3	19.8	0.00e+00	0	43	0	3341811712	45	4712
2026-01-02 13:01:45.40	328.58	13.82	-37.4	-39.2	19.8	0.00e+00	0	43	0	3346006016	45	4698
2026-01-02 13:01:46.55	328.69	13.72	-37.4	-39.3	18.7	0.00e+00	0	43	0	3352297472	45	4722
2026-01-02 13:01:47.41	328.76	13.64	-37.4	-39.3	19.7	0.00e+00	0	43	0	3357540352	45	4758
2026-01-02 13:01:48.55	328.87	13.54	-37.4	-39.3	19.8	0.00e+00	0	43	0	3363831808	45	4733
2026-01-02 13:01:49.41	328.95	13.46	-37.4	-39.3	19.8	0.00e+00	0	44	0	3369074688	45	4713
2026-01-02 13:01:50.56	329.05	13.36	-37.4	-39.3	19.8	0.00e+00	0	43	0	3375366144	45	4730
2026-01-02 13:01:51.42	329.13	13.28	-37.5	-39.4	19.6	0.00e+00	0	43	0	3380609024	45	4803
2026-01-02 13:01:52.56	329.23	13.18	-37.4	-39.3	19.8	0.00e+00	0	43	0	3386900480	45	4734
2026-01-02 13:01:53.43	329.30	13.10	-37.4	-39.3	19.8	0.00e+00	0	43	0	3391094784	45	4716
2026-01-02 13:01:54.57	329.40	13.00	-37.5	-39.4	19.7	0.00e+00	0	43	0	3398434816	45	4767
2026-01-02 13:01:55.43	329.48	12.93	-37.4	-39.3	19.8	0.00e+00	0	43	0	3402629120	45	4707
2026-01-02 13:01:56.58	329.58	12.83	-37.5	-39.3	19.7	0.00e+00	0	43	0	3408920576	45	4757
2026-01-02 13:01:57.44	329.65	12.75	-37.4	-39.3	19.7	0.00e+00	0	43	0	3414163456	45	4752
2026-01-02 13:01:58.58	329.75	12.65	-37.5	-39.4	19.7	0.00e+00	0	43	0	3420454912	45	4775
2026-01-02 13:01:59.44	329.82	12.58	-37.4	-39.3	19.7	0.00e+00	0	43	0	3425697792	45	4750
2026-01-02 13:02:00.59	329.92	12.48	-37.5	-39.4	19.6	0.00e+00	0	43	0	3431989248	45	4797
2026-01-02 13:02:01.45	329.99	12.41	-37.5	-39.4	19.6	0.00e+00	0	43	0	3437232128	45	4787
2026-01-02 13:02:02.60	330.09	12.31	-37.5	-39.5	19.5	0.00e+00	0	43	0	3442475008	45	4826
2026-01-02 13:02:03.46	330.16	12.23	-37.6	-39.6	19.5	0.00e+00	0	43	0	3447717888	45	4889
2026-01-02 13:02:04.60	330.26	12.14	-37.5	-39.5	19.5	0.00e+00	0	43	0	3454009344	45	4831
2026-01-02 13:02:05.47	330.33	12.06	-37.6	-39.6	19.4	0.00e+00	0	43	0	3459252224	45	4893
2026-01-02 13:02:06.61	330.42	11.96	-37.6	-39.6	19.5	0.00e+00	0	43	0	3465543680	46	4605
2026-01-02 13:02:07.47	330.49	11.89	-37.7	-39.6	19.4	0.00e+00	0	43	0	3470786560	46	4646
2026-01-02 13:02:08.62	330.59	11.79	-37.6	-39.6	19.5	0.00e+00	0	43	0	3477078016	46	4603
2026-01-02 13:02:09.48	330.66	11.72	-37.7	-39.6	19.4	0.00e+00	0	43	0	3481272320	46	4650
2026-01-02 13:02:10.62	330.75	11.63	-37.8	-39.7	19.4	0.00e+00	0	44	0	3488612352	46	4669
2026-01-02 13:02:11.48	330.82	11.55	-37.9	-39.8	19.3	0.00e+00	0	43	0	3492806656	46	4724
2026-01-02 13:02:12.63	330.91	11.46	-37.7	-39.6	19.4	0.00e+00	0	43	0	3499098112	46	4649
2026-01-02 13:02:13.49	330.98	11.39	-37.7	-39.6	19.4	0.00e+00	0	43	0	3504340992	46	4620
2026-01-02 13:02:14.64	331.07	11.29	-37.8	-39.8	19.3	0.00e+00	0	43	0	3510632448	46	4715
2026-01-02 13:02:15.50	331.13	11.22	-37.7	-39.6	19.4	0.00e+00	0	43	0	3515875328	46	4640
2026-01-02 13:02:16.65	331.22	11.13	-37.7	-39.7	19.3	0.00e+00	0	43	0	3522166784	46	4675
2026-01-02 13:02:17.51	331.29	11.06	-37.7	-39.7	19.3	0.00e+00	0	43	0	3527409664	46	4681
2026-01-02 13:02:18.66	331.38	10.96	-37.7	-39.7	19.3	0.00e+00	0	43	0	3533701120	46	4666
2026-01-02 13:02:19.52	331.44	10.89	-37.8	-39.8	19.2	0.00e+00	0	43	0	3537895424	46	4707
2026-01-02 13:02:20.66	331.53	10.80	-37.8	-39.8	19.2	0.00e+00	0	43	0	3545235456	46	4725
2026-01-02 13:02:21.52	331.60	10.73	-37.8	-39.8	19.2	0.00e+00	0	44	0	3549429760	46	4720
2026-01-02 13:02:22.67	331.68	10.63	-37.9	-39.8	19.2	0.00e+00	0	43	0	3555721216	46	4759
2026-01-02 13:02:23.53	331.75	10.56	-37.8	-39.7	19.2	0.00e+00	0	43	0	3560964096	46	4701
2026-01-02 13:02:24.67	331.83	10.47	-37.9	-39.9	19.1	0.00e+00	0	44	0	3567255552	46	4773
2026-01-02 13:02:25.53	331.90	10.40	-38.0	-40.0	19.0	0.00e+00	0	43	0	3572498432	46	4841
2026-01-02 13:02:26.68	331.98	10.31	-37.8	-39.7	19.2	0.00e+00	0	43	0	3578789888	46	4697
2026-01-02 13:02:27.54	332.04	10.24	-37.8	-39.8	19.2	0.00e+00	0	43	0	3582984192	46	4732
2026-01-02 13:02:28.68	332.13	10.15	-37.9	-39.8	19.2	0.00e+00	0	44	0	3589275648	46	4749
2026-01-02 13:02:29.55	332.19	10.08	-37.8	-39.8	19.2	0.00e+00	0	43	0	3594518528	46	4731
2026-01-02 13:02:30.69	332.27	9.99	-38.0	-39.9	19.1	0.00e+00	0	43	0	3600809984	46	4805
2026-01-02 13:02:31.55	332.34	9.92	-38.0	-40.0	19.0	0.00e+00	0	44	0	3606052864	46	4833
2026-01-02 13:02:32.70	332.42	9.83	-37.9	-39.9	19.1	0.00e+00	0	44	0	3612344320	46	4767
2026-01-02 13:02:33.56	332.48	9.77	-38.0	-39.9	19.0	0.00e+00	0	43	0	3617587200	46	4797
2026-01-02 13:02:34.71	332.56	9.68	-38.0	-40.0	18.9	0.00e+00	0	43	0	3623878656	46	4849
2026-01-02 13:02:35.57	332.62	9.61	-38.1	-40.0	18.9	0.00e+00	0	44	0	3628072960	46	4864
2026-01-02 13:02:36.71	332.70	9.52	-38.0	-40.0	18.9	0.00e+00	0	44	0	3635412992	46	4855
2026-01-02 13:02:37.57	332.76	9.45	-38.1	-40.1	18.8	0.00e+00	0	43	0	3639607296	46	4893
2026-01-02 13:02:38.72	332.84	9.36	-38.1	-40.1	18.9	0.00e+00	0	44	0	3645898752	46	4882
2026-01-02 13:02:39.58	332.90	9.30	-38.2	-40.2	18.7	0.00e+00	0	43	0	3651141632	47	4665
