passes_logs/2026/01/02/T1/T1__20260102_233020_NOAA_21_JPSS-2_rec.log

#Pass ID: 20260102_233020_NOAA 21 (JPSS-2)
#Satellite: NOAA 21 (JPSS-2)
#Configuration: NOAA 21
#almurnet v.1.7.20251203
#Start time: 2026-01-02 23:30:21

#Version: 2.0.20230620
#Station: T1
#Location: 37.570604 lon 55.790049 lat
#TLE: 1 54234U 22150A   26002.25486487  .00000200  00000+0  11573-3 0  9993
#TLE: 2 54234  98.7485 303.3096 0001220 350.9074   9.2080 14.19531212163006

#Time	Az	El	Level	Level2	SNR	BER	BlckErr	Temp	State	Recorded	gain1	gain2
2026-01-02 23:30:21.24	17.55	5.09	-47.5	-61.5	3.8	1.49e+00	0	39	0	0	65	19316
2026-01-02 23:30:22.24	17.57	5.16	-47.5	-61.4	3.8	1.49e+00	0	39	104	0	65	19035
2026-01-02 23:30:23.25	17.58	5.23	-47.4	-61.3	3.8	1.49e+00	0	39	104	0	65	18907
2026-01-02 23:30:24.25	17.59	5.30	-47.4	-61.3	3.8	1.49e+00	0	39	104	0	65	18822
2026-01-02 23:30:25.25	17.61	5.37	-47.4	-61.2	3.8	1.49e+00	0	39	104	0	65	18633
2026-01-02 23:30:26.26	17.62	5.44	-47.4	-61.2	3.8	1.49e+00	0	39	104	0	65	18529
2026-01-02 23:30:27.26	17.64	5.52	-47.4	-61.1	3.8	1.49e+00	0	39	104	0	65	18390
2026-01-02 23:30:28.26	17.65	5.59	-47.4	-61.1	3.8	1.49e+00	0	39	104	0	65	18333
2026-01-02 23:30:29.27	17.66	5.66	-47.4	-61.0	3.8	1.49e+00	0	39	104	0	65	18215
2026-01-02 23:30:30.27	17.68	5.73	-47.4	-61.0	3.8	1.49e+00	0	39	104	0	65	18249
2026-01-02 23:30:31.28	17.69	5.81	-47.4	-61.1	3.8	1.49e+00	0	39	104	0	65	18332
2026-01-02 23:30:32.28	17.71	5.88	-47.4	-61.1	3.8	1.49e+00	0	39	104	0	65	18500
2026-01-02 23:30:33.28	17.72	5.95	-47.4	-61.2	3.8	1.49e+00	0	39	104	0	65	18601
2026-01-02 23:30:34.29	17.73	6.03	-47.4	-61.3	3.8	1.49e+00	0	39	104	0	65	18804
2026-01-02 23:30:35.29	17.75	6.10	-47.4	-61.4	3.8	1.49e+00	0	39	104	0	65	19001
2026-01-02 23:30:36.29	17.76	6.18	-47.4	-61.4	3.8	1.49e+00	0	39	104	0	65	19129
2026-01-02 23:30:37.30	17.78	6.25	-47.5	-61.4	3.8	1.49e+00	0	39	104	0	65	19120
2026-01-02 23:30:38.30	17.79	6.33	-47.4	-61.5	3.8	1.49e+00	0	39	104	0	65	19181
2026-01-02 23:30:39.31	17.81	6.40	-47.5	-61.4	3.8	1.49e+00	0	39	104	0	65	18956
2026-01-02 23:30:40.31	17.82	6.48	-47.5	-61.4	3.8	1.49e+00	0	39	104	0	65	18952
2026-01-02 23:30:41.31	17.84	6.55	-47.4	-61.3	3.8	1.49e+00	0	39	104	0	65	18868
2026-01-02 23:30:42.32	17.85	6.63	-47.4	-61.2	3.8	1.49e+00	0	39	104	0	65	18724
2026-01-02 23:30:43.32	17.87	6.70	-47.4	-61.2	3.8	1.49e+00	0	39	104	0	65	18676
2026-01-02 23:30:44.33	17.88	6.78	-47.4	-61.2	3.8	1.49e+00	0	39	104	0	65	18642
2026-01-02 23:30:45.33	17.90	6.85	-47.4	-61.2	3.8	1.49e+00	0	40	104	0	65	18539
2026-01-02 23:30:46.33	17.91	6.93	-47.4	-61.2	3.8	1.49e+00	0	39	104	0	65	18601
2026-01-02 23:30:47.34	17.93	7.01	-47.4	-61.2	3.8	1.49e+00	0	40	104	0	65	18557
2026-01-02 23:30:48.34	17.94	7.08	-47.4	-61.0	3.8	1.49e+00	0	39	104	0	65	18289
2026-01-02 23:30:49.34	17.96	7.16	-47.4	-60.8	3.8	1.49e+00	0	40	104	0	65	17770
2026-01-02 23:30:50.35	17.97	7.24	-47.4	-60.4	3.8	1.49e+00	0	40	104	0	65	16922
2026-01-02 23:30:51.35	17.99	7.32	-47.3	-59.6	3.9	1.49e+00	0	39	104	0	65	15496
2026-01-02 23:30:52.36	18.00	7.39	-47.2	-58.7	4.0	1.48e+00	0	40	104	0	65	13888
2026-01-02 23:30:53.36	18.02	7.47	-47.2	-57.8	4.2	1.46e+00	0	40	104	0	65	12585
2026-01-02 23:30:54.37	18.03	7.55	-47.1	-57.4	4.0	1.38e+00	0	40	104	0	65	11973
2026-01-02 23:30:55.37	18.05	7.63	-46.9	-56.3	4.8	9.39e-01	0	40	0	0	65	10551
2026-01-02 23:30:56.37	18.06	7.71	-46.8	-55.5	5.3	6.03e-01	0	40	0	0	65	9618
2026-01-02 23:30:57.38	18.08	7.79	-46.7	-55.0	5.6	5.00e-01	0	40	0	0	65	9120
2026-01-02 23:30:58.38	18.09	7.87	-46.7	-54.6	5.9	3.96e-01	0	40	0	0	65	8663
2026-01-02 23:30:59.39	18.11	7.95	-46.6	-54.2	6.1	3.09e-01	0	40	0	0	65	8306
2026-01-02 23:31:00.39	18.13	8.02	-46.5	-54.0	6.3	2.66e-01	0	40	0	0	65	8128
2026-01-02 23:31:01.40	18.14	8.10	-46.5	-53.7	6.5	2.32e-01	0	40	0	0	64	8359
2026-01-02 23:31:02.40	18.16	8.18	-46.4	-53.4	6.8	1.88e-01	0	40	0	0	64	8070
2026-01-02 23:31:03.40	18.17	8.27	-46.4	-53.3	6.9	1.73e-01	0	40	0	0	64	7939
2026-01-02 23:31:04.41	18.19	8.35	-46.3	-53.2	7.0	1.57e-01	0	40	0	0	64	7840
2026-01-02 23:31:05.41	18.21	8.43	-46.3	-52.9	7.2	1.39e-01	0	40	0	0	64	7622
2026-01-02 23:31:06.42	18.22	8.51	-46.2	-52.7	7.4	1.09e-01	0	40	0	0	64	7435
2026-01-02 23:31:07.42	18.24	8.59	-46.1	-52.5	7.7	9.32e-02	0	40	0	0	64	7236
2026-01-02 23:31:08.43	18.25	8.67	-46.1	-52.4	7.7	8.44e-02	0	40	0	0	64	7169
2026-01-02 23:31:09.43	18.27	8.75	-46.0	-52.2	7.9	7.61e-02	0	40	0	0	64	7013
2026-01-02 23:31:10.43	18.29	8.84	-46.0	-52.2	7.9	7.30e-02	0	40	0	0	64	7012
2026-01-02 23:31:11.44	18.30	8.92	-46.1	-52.4	7.8	7.23e-02	0	40	0	0	64	7164
2026-01-02 23:31:12.44	18.32	9.00	-46.1	-52.4	7.8	8.20e-02	0	40	0	0	64	7133
2026-01-02 23:31:13.45	18.34	9.09	-46.0	-51.9	8.2	9.07e-02	0	40	0	0	64	6774
2026-01-02 23:31:14.45	18.35	9.17	-46.8	-55.0	5.8	7.40e-02	0	40	0	0	64	9632
2026-01-02 23:31:15.45	18.37	9.25	-46.7	-55.5	4.2	1.49e+00	0	40	104	0	65	9710
2026-01-02 23:31:16.45	18.39	9.34	-43.1	-46.0	14.4	7.00e-07	0	40	0	0	57	5157
2026-01-02 23:31:17.45	18.40	9.42	-42.9	-45.7	14.6	9.00e-05	0	40	0	0	57	4941
2026-01-02 23:31:18.46	18.42	9.50	-43.3	-46.2	14.2	3.12e-05	0	40	0	0	58	4943
2026-01-02 23:31:19.46	18.44	9.59	-42.6	-45.3	15.0	0.00e+00	0	40	0	0	57	4741
2026-01-02 23:31:20.46	18.45	9.67	-42.0	-44.5	15.8	0.00e+00	0	40	0	0	56	4584
2026-01-02 23:31:21.47	18.47	9.76	-41.3	-43.6	16.6	0.00e+00	0	40	0	0	54	4599
2026-01-02 23:31:22.47	18.49	9.85	-41.0	-43.2	17.0	0.00e+00	0	40	0	0	54	4420
2026-01-02 23:31:23.47	18.51	9.93	-40.6	-42.7	17.4	0.00e+00	0	40	0	0	53	4419
2026-01-02 23:31:24.47	18.52	10.02	-40.5	-42.6	17.6	0.00e+00	0	40	0	0	53	4367
2026-01-02 23:31:25.48	18.54	10.10	-40.6	-42.6	17.5	0.00e+00	0	40	0	0	53	4391
2026-01-02 23:31:26.56	18.56	10.20	-40.6	-42.7	17.5	0.00e+00	0	40	0	0	53	4414
2026-01-02 23:31:27.42	18.58	10.27	-40.6	-42.8	17.4	0.00e+00	0	40	0	0	53	4458
2026-01-02 23:31:28.56	18.60	10.37	-40.4	-42.5	17.6	0.00e+00	0	40	0	0	52	4592
2026-01-02 23:31:29.42	18.61	10.45	-40.5	-42.6	17.5	0.00e+00	0	40	0	0	52	4643
2026-01-02 23:31:30.57	18.63	10.55	-40.2	-42.2	17.9	0.00e+00	0	40	0	0	52	4434
2026-01-02 23:31:31.43	18.65	10.62	-40.2	-42.3	17.9	0.00e+00	0	40	0	0	52	4455
2026-01-02 23:31:32.58	18.67	10.73	-40.2	-42.2	17.9	0.00e+00	0	40	0	0	52	4441
2026-01-02 23:31:33.64	18.69	10.82	-40.2	-42.3	17.9	0.00e+00	0	40	0	0	52	4469
2026-01-02 23:31:34.50	18.70	10.90	-40.2	-42.2	17.9	0.00e+00	0	40	0	0	52	4410
2026-01-02 23:31:35.65	18.72	11.00	-40.3	-42.4	17.8	0.00e+00	0	40	0	0	52	4504
2026-01-02 23:31:36.51	18.74	11.08	-40.1	-42.2	18.0	0.00e+00	0	40	0	0	52	4400
2026-01-02 23:31:37.65	18.76	11.18	-40.1	-42.1	18.1	0.00e+00	0	40	0	0	52	4361
2026-01-02 23:31:38.82	18.78	11.28	-40.1	-42.1	18.1	0.00e+00	0	40	0	0	52	4367
2026-01-02 23:31:39.87	18.80	11.38	-40.1	-42.0	18.2	0.00e+00	0	40	0	0	52	4335
2026-01-02 23:31:40.74	18.82	11.46	-40.0	-41.9	18.3	0.00e+00	0	40	0	0	52	4278
2026-01-02 23:31:41.89	18.84	11.56	-40.1	-42.0	18.3	0.00e+00	0	40	0	0	51	4580
2026-01-02 23:31:42.75	18.86	11.64	-40.1	-42.0	18.2	0.00e+00	0	40	0	0	51	4581
2026-01-02 23:31:43.89	18.88	11.75	-40.0	-42.0	18.3	0.00e+00	0	40	0	0	51	4563
2026-01-02 23:31:44.75	18.89	11.83	-40.0	-42.0	18.2	0.00e+00	0	40	0	0	51	4568
2026-01-02 23:31:45.90	18.92	11.94	-40.0	-41.9	18.3	0.00e+00	0	40	0	0	51	4538
2026-01-02 23:31:46.76	18.93	12.02	-40.0	-41.9	18.4	0.00e+00	0	40	0	0	51	4513
2026-01-02 23:31:48.01	18.96	12.13	-40.0	-41.9	18.4	0.00e+00	0	40	0	0	51	4535
2026-01-02 23:31:48.77	18.97	12.20	-40.0	-41.9	18.4	0.00e+00	0	40	0	0	51	4513
2026-01-02 23:31:50.22	19.00	12.34	-39.9	-41.9	18.4	0.00e+00	0	40	0	0	51	4509
2026-01-02 23:31:50.94	19.01	12.41	-39.9	-41.8	18.5	0.00e+00	0	40	0	0	51	4479
2026-01-02 23:31:52.23	19.04	12.53	-39.9	-41.8	18.5	0.00e+00	0	40	0	0	51	4490
2026-01-02 23:31:52.94	19.05	12.60	-39.8	-41.8	18.5	0.00e+00	0	40	0	0	51	4449
2026-01-02 23:31:54.24	19.08	12.72	-40.0	-41.9	18.4	0.00e+00	0	40	0	0	51	4539
2026-01-02 23:31:54.95	19.09	12.79	-39.9	-41.9	18.4	0.00e+00	0	40	0	0	51	4512
2026-01-02 23:31:56.24	19.12	12.92	-39.8	-41.7	18.6	0.00e+00	0	40	0	0	51	4420
2026-01-02 23:31:56.96	19.13	12.99	-39.9	-41.8	18.5	0.00e+00	0	40	0	0	51	4470
2026-01-02 23:31:58.25	19.16	13.11	-39.8	-41.7	18.6	0.00e+00	0	40	0	0	51	4429
2026-01-02 23:31:59.06	19.18	13.19	-39.7	-41.6	18.7	0.00e+00	0	40	0	0	51	4375
2026-01-02 23:32:00.52	19.21	13.34	-39.8	-41.7	18.6	0.00e+00	0	40	0	0	51	4428
2026-01-02 23:32:01.24	19.22	13.41	-39.7	-41.7	18.7	0.00e+00	0	40	0	0	51	4393
2026-01-02 23:32:02.72	19.25	13.55	-39.6	-41.6	18.8	0.00e+00	0	40	0	0	51	4346
2026-01-02 23:32:03.44	19.27	13.63	-39.6	-41.5	18.8	0.00e+00	0	40	0	0	51	4329
2026-01-02 23:32:04.82	19.30	13.76	-39.5	-41.5	18.9	0.00e+00	0	40	0	0	51	4315
2026-01-02 23:32:05.54	19.31	13.84	-39.6	-41.5	18.8	0.00e+00	0	40	0	0	51	4339
2026-01-02 23:32:06.83	19.34	13.97	-39.5	-41.5	18.8	0.00e+00	0	40	0	0	51	4326
2026-01-02 23:32:07.54	19.36	14.04	-39.6	-41.6	18.7	0.00e+00	0	40	0	0	51	4375
2026-01-02 23:32:08.83	19.38	14.17	-39.5	-41.5	18.8	0.00e+00	0	40	0	0	51	4334
2026-01-02 23:32:09.55	19.40	14.24	-39.5	-41.5	18.8	0.00e+00	0	40	0	0	51	4323
2026-01-02 23:32:10.83	19.43	14.37	-39.6	-41.6	18.8	0.00e+00	0	40	0	0	51	4350
2026-01-02 23:32:11.55	19.44	14.45	-39.5	-41.5	18.8	0.00e+00	0	40	0	0	51	4321
2026-01-02 23:32:12.84	19.47	14.58	-39.5	-41.5	18.9	0.00e+00	0	40	0	0	50	4557
2026-01-02 23:32:13.58	19.49	14.66	-39.5	-41.5	18.9	0.00e+00	0	40	0	0	50	4565
2026-01-02 23:32:14.87	19.52	14.79	-39.6	-41.6	18.8	0.00e+00	0	40	0	0	50	4606
2026-01-02 23:32:15.59	19.53	14.87	-39.5	-41.6	18.8	0.00e+00	0	40	0	0	50	4604
2026-01-02 23:32:16.88	19.56	15.00	-39.5	-41.5	18.8	0.00e+00	0	40	0	0	50	4571
2026-01-02 23:32:17.59	19.58	15.08	-39.5	-41.5	18.8	0.00e+00	0	40	0	0	50	4567
2026-01-02 23:32:18.88	19.61	15.22	-39.3	-41.3	19.0	0.00e+00	0	40	0	0	50	4477
2026-01-02 23:32:19.60	19.62	15.29	-39.4	-41.4	18.9	0.00e+00	0	40	0	0	50	4516
2026-01-02 23:32:20.89	19.65	15.43	-39.4	-41.3	19.1	0.00e+00	0	40	0	0	50	4475
2026-01-02 23:32:21.61	19.67	15.51	-39.4	-41.4	19.0	0.00e+00	0	40	0	0	50	4503
2026-01-02 23:32:22.90	19.70	15.65	-39.3	-41.3	19.1	0.00e+00	0	40	0	0	50	4450
2026-01-02 23:32:23.61	19.72	15.73	-39.4	-41.3	19.1	0.00e+00	0	40	0	0	50	4472
2026-01-02 23:32:24.90	19.75	15.87	-39.5	-41.4	19.0	0.00e+00	0	40	0	0	50	4498
2026-01-02 23:32:25.62	19.77	15.95	-39.4	-41.3	19.1	0.00e+00	0	40	0	0	50	4456
2026-01-02 23:32:27.17	19.80	16.12	-39.5	-41.4	19.0	0.00e+00	0	40	0	0	50	4514
2026-01-02 23:32:28.15	19.83	16.22	-39.4	-41.3	19.1	0.00e+00	0	40	0	0	50	4472
2026-01-02 23:32:29.49	19.86	16.37	-39.5	-41.3	19.0	0.00e+00	0	40	0	0	50	4490
2026-01-02 23:32:30.20	19.88	16.45	-39.5	-41.4	19.0	0.00e+00	0	40	0	0	50	4526
2026-01-02 23:32:31.49	19.91	16.60	-39.5	-41.3	19.0	0.00e+00	0	40	0	0	50	4490
2026-01-02 23:32:32.21	19.93	16.68	-39.4	-41.2	19.2	0.00e+00	0	40	0	0	50	4425
2026-01-02 23:32:33.50	19.96	16.83	-39.4	-41.2	19.2	0.00e+00	0	40	0	0	50	4418
2026-01-02 23:32:34.21	19.98	16.91	-39.4	-41.2	19.2	0.00e+00	0	40	0	0	50	4422
2026-01-02 23:32:35.50	20.01	17.05	-39.3	-41.1	19.3	0.00e+00	0	40	0	0	50	4347
2026-01-02 23:32:36.22	20.03	17.14	-39.4	-41.2	19.3	0.00e+00	0	40	0	0	50	4396
2026-01-02 23:32:37.54	20.06	17.29	-39.4	-41.2	19.2	0.00e+00	0	40	0	0	50	4420
2026-01-02 23:32:38.26	20.08	17.37	-39.4	-41.2	19.2	0.00e+00	0	40	0	0	50	4414
2026-01-02 23:32:39.55	20.11	17.52	-39.4	-41.2	19.2	0.00e+00	0	40	0	0	50	4396
2026-01-02 23:32:40.26	20.13	17.61	-39.4	-41.2	19.2	0.00e+00	0	40	0	0	50	4413
2026-01-02 23:32:41.55	20.17	17.76	-39.4	-41.2	19.2	0.00e+00	0	40	0	0	50	4424
2026-01-02 23:32:42.27	20.18	17.84	-39.4	-41.2	19.2	0.00e+00	0	40	0	0	50	4428
2026-01-02 23:32:43.78	20.22	18.02	-39.4	-41.2	19.2	0.00e+00	0	40	0	0	50	4419
2026-01-02 23:32:44.50	20.24	18.11	-39.4	-41.2	19.2	0.00e+00	0	40	0	0	50	4409
2026-01-02 23:32:45.78	20.28	18.26	-39.5	-41.4	19.1	0.00e+00	0	40	0	0	50	4495
2026-01-02 23:32:46.51	20.30	18.35	-39.4	-41.3	19.2	0.00e+00	0	40	0	0	50	4453
2026-01-02 23:32:47.80	20.33	18.51	-39.4	-41.3	19.2	0.00e+00	0	40	0	0	50	4449
2026-01-02 23:32:48.52	20.35	18.60	-39.5	-41.3	19.1	0.00e+00	0	40	0	0	50	4481
2026-01-02 23:32:49.80	20.39	18.75	-39.5	-41.3	19.1	0.00e+00	0	40	0	0	50	4489
2026-01-02 23:32:50.52	20.41	18.84	-39.4	-41.3	19.1	0.00e+00	0	40	0	0	50	4467
2026-01-02 23:32:51.81	20.45	19.00	-39.4	-41.3	19.1	0.00e+00	0	40	0	0	50	4458
2026-01-02 23:32:52.52	20.47	19.09	-39.5	-41.3	19.1	0.00e+00	0	40	0	0	50	4472
2026-01-02 23:32:53.81	20.50	19.25	-39.5	-41.4	19.0	0.00e+00	0	40	0	0	50	4501
2026-01-02 23:32:54.53	20.52	19.34	-39.6	-41.5	19.0	0.00e+00	0	40	0	0	50	4552
2026-01-02 23:32:55.82	20.56	19.50	-39.5	-41.4	19.1	0.00e+00	0	40	0	0	50	4501
2026-01-02 23:32:56.69	20.59	19.61	-39.5	-41.3	19.1	0.00e+00	0	40	0	0	50	4467
2026-01-02 23:32:57.84	20.62	19.76	-39.4	-41.2	19.2	0.00e+00	0	40	0	0	50	4418
2026-01-02 23:32:58.70	20.65	19.87	-39.4	-41.3	19.2	0.00e+00	0	40	0	0	50	4444
2026-01-02 23:32:59.84	20.68	20.02	-39.3	-41.1	19.3	0.00e+00	0	40	0	0	50	4367
2026-01-02 23:33:00.70	20.71	20.13	-39.4	-41.2	19.2	0.00e+00	0	40	0	0	50	4398
2026-01-02 23:33:01.84	20.74	20.28	-39.4	-41.1	19.3	0.00e+00	0	40	0	0	50	4374
2026-01-02 23:33:02.70	20.77	20.39	-39.3	-41.1	19.3	0.00e+00	0	40	0	0	50	4348
2026-01-02 23:33:03.93	20.80	20.55	-39.2	-41.0	19.4	0.00e+00	0	40	0	0	50	4320
2026-01-02 23:33:04.79	20.83	20.67	-39.2	-41.0	19.4	0.00e+00	0	40	0	0	50	4316
2026-01-02 23:33:05.93	20.87	20.82	-39.0	-40.7	19.6	0.00e+00	0	40	0	0	50	4187
2026-01-02 23:33:06.80	20.89	20.94	-38.9	-40.7	19.7	0.00e+00	0	40	0	0	49	4393
2026-01-02 23:33:07.94	20.93	21.09	-38.8	-40.5	19.8	0.00e+00	0	40	0	0	49	4321
2026-01-02 23:33:08.80	20.96	21.21	-38.8	-40.5	19.8	0.00e+00	0	40	0	0	49	4335
2026-01-02 23:33:09.95	20.99	21.36	-38.7	-40.4	19.8	0.00e+00	0	40	0	0	49	4279
2026-01-02 23:33:10.81	21.02	21.48	-38.6	-40.3	19.9	0.00e+00	0	40	0	0	49	4232
2026-01-02 23:33:11.96	21.06	21.64	-38.6	-40.3	19.9	0.00e+00	0	40	0	0	49	4233
2026-01-02 23:33:12.82	21.09	21.76	-38.6	-40.3	20.0	0.00e+00	0	40	0	0	49	4220
2026-01-02 23:33:13.96	21.13	21.92	-38.4	-40.1	20.1	0.00e+00	0	40	0	0	48	4371
2026-01-02 23:33:14.82	21.15	22.04	-38.5	-40.2	20.1	0.00e+00	0	40	0	0	48	4397
2026-01-02 23:33:15.96	21.19	22.20	-38.5	-40.2	20.0	0.00e+00	0	40	0	0	48	4429
2026-01-02 23:33:16.82	21.22	22.32	-38.5	-40.2	20.1	0.00e+00	0	40	0	0	48	4403
2026-01-02 23:33:18.00	21.26	22.49	-38.4	-40.1	20.2	0.00e+00	0	40	0	0	48	4354
2026-01-02 23:33:18.86	21.29	22.61	-38.4	-40.1	20.2	0.00e+00	0	40	0	0	48	4349
2026-01-02 23:33:20.08	21.34	22.78	-38.4	-40.1	20.2	0.00e+00	0	40	0	0	48	4343
2026-01-02 23:33:20.94	21.37	22.91	-38.3	-40.0	20.3	0.00e+00	0	40	0	0	48	4323
2026-01-02 23:33:22.08	21.41	23.07	-38.3	-40.0	20.3	0.00e+00	0	40	0	0	48	4308
2026-01-02 23:33:22.94	21.44	23.20	-38.3	-40.0	20.3	0.00e+00	0	40	0	0	48	4292
2026-01-02 23:33:24.09	21.48	23.37	-38.3	-40.0	20.2	0.00e+00	0	40	0	0	48	4337
2026-01-02 23:33:24.94	21.51	23.49	-38.3	-40.0	20.3	0.00e+00	0	40	0	0	48	4334
2026-01-02 23:33:26.09	21.55	23.66	-38.4	-40.1	20.2	0.00e+00	0	40	0	0	48	4388
2026-01-02 23:33:26.95	21.58	23.79	-38.3	-40.1	20.2	0.00e+00	0	40	0	0	48	4347
2026-01-02 23:33:28.09	21.63	23.97	-38.3	-40.0	20.3	0.00e+00	0	40	0	0	48	4308
2026-01-02 23:33:28.95	21.66	24.10	-38.3	-40.0	20.3	0.00e+00	0	40	0	0	48	4315
2026-01-02 23:33:30.10	21.70	24.27	-38.2	-39.9	20.5	0.00e+00	0	40	0	0	48	4270
2026-01-02 23:33:30.96	21.73	24.40	-38.2	-39.9	20.4	0.00e+00	0	40	0	0	48	4290
2026-01-02 23:33:32.11	21.78	24.58	-38.3	-40.0	20.4	0.00e+00	0	40	0	0	48	4310
2026-01-02 23:33:32.97	21.81	24.71	-38.2	-39.9	20.5	0.00e+00	0	40	0	0	48	4278
2026-01-02 23:33:34.11	21.86	24.89	-38.3	-40.0	20.4	0.00e+00	0	40	0	0	48	4330
2026-01-02 23:33:34.97	21.89	25.02	-38.4	-40.1	20.3	0.00e+00	0	40	0	0	48	4348
2026-01-02 23:33:36.11	21.94	25.20	-38.5	-40.2	20.2	0.00e+00	0	40	0	0	48	4415
2026-01-02 23:33:37.00	21.97	25.35	-38.5	-40.2	20.2	0.00e+00	0	40	0	0	48	4431
2026-01-02 23:33:38.15	22.02	25.53	-38.5	-40.2	20.2	0.00e+00	0	40	0	0	48	4407
2026-01-02 23:33:39.10	22.06	25.68	-38.6	-40.3	20.1	0.00e+00	0	40	0	0	48	4485
2026-01-02 23:33:40.27	22.11	25.87	-38.7	-40.4	20.0	0.00e+00	0	40	0	0	48	4544
2026-01-02 23:33:41.13	22.14	26.01	-38.8	-40.6	19.9	0.00e+00	0	40	0	0	48	4624
2026-01-02 23:33:42.49	22.20	26.23	-39.0	-40.7	19.7	0.00e+00	0	40	0	0	48	4695
2026-01-02 23:33:43.21	22.23	26.35	-39.1	-40.8	19.7	0.00e+00	0	40	0	0	48	4741
2026-01-02 23:33:44.50	22.29	26.56	-39.2	-40.9	19.5	0.00e+00	0	40	0	0	49	4542
2026-01-02 23:33:45.21	22.32	26.68	-39.3	-41.1	19.4	0.00e+00	0	40	0	0	49	4601
2026-01-02 23:33:46.77	22.39	26.95	-39.4	-41.2	19.3	0.00e+00	0	40	0	0	49	4666
2026-01-02 23:33:47.49	22.42	27.07	-39.5	-41.3	19.2	0.00e+00	0	40	0	0	49	4709
2026-01-02 23:33:48.84	22.48	27.30	-39.5	-41.3	19.1	0.00e+00	0	40	0	0	49	4755
2026-01-02 23:33:49.56	22.51	27.42	-39.6	-41.5	19.0	0.00e+00	0	40	0	0	49	4816
2026-01-02 23:33:50.85	22.57	27.64	-39.8	-41.7	18.8	0.00e+00	0	40	0	0	50	4659
2026-01-02 23:33:51.57	22.61	27.77	-39.8	-41.6	18.9	0.00e+00	0	40	0	0	50	4613
2026-01-02 23:33:52.85	22.67	27.99	-39.8	-41.6	18.9	0.00e+00	0	40	0	0	50	4625
2026-01-02 23:33:53.57	22.70	28.12	-39.8	-41.6	18.9	0.00e+00	0	40	0	0	50	4626
2026-01-02 23:33:54.86	22.76	28.34	-39.6	-41.4	19.0	0.00e+00	0	40	0	0	50	4527
2026-01-02 23:33:55.57	22.80	28.47	-39.6	-41.3	19.1	0.00e+00	0	40	0	0	50	4484
2026-01-02 23:33:56.86	22.86	28.70	-39.4	-41.1	19.3	0.00e+00	0	40	0	0	50	4390
2026-01-02 23:33:57.58	22.89	28.83	-39.4	-41.2	19.3	0.00e+00	0	40	0	0	50	4413
2026-01-02 23:33:58.87	22.96	29.06	-39.4	-41.2	19.3	0.00e+00	0	40	0	0	50	4421
2026-01-02 23:33:59.59	22.99	29.20	-39.4	-41.2	19.3	0.00e+00	0	40	0	0	50	4414
2026-01-02 23:34:01.24	23.08	29.50	-39.4	-41.2	19.3	0.00e+00	0	40	0	0	50	4413
2026-01-02 23:34:01.81	23.11	29.60	-39.4	-41.2	19.3	0.00e+00	0	40	0	0	50	4428
2026-01-02 23:34:03.42	23.19	29.90	-39.3	-41.1	19.3	0.00e+00	0	40	0	0	50	4363
2026-01-02 23:34:03.99	23.22	30.01	-39.4	-41.2	19.2	0.00e+00	0	40	0	0	50	4400
2026-01-02 23:34:05.60	23.31	30.32	-39.3	-41.1	19.4	0.00e+00	0	40	0	0	50	4342
2026-01-02 23:34:06.17	23.34	30.42	-39.3	-41.0	19.4	0.00e+00	0	40	0	0	50	4336
2026-01-02 23:34:07.78	23.43	30.73	-39.3	-41.1	19.3	0.00e+00	0	40	0	0	50	4351
2026-01-02 23:34:08.35	23.46	30.84	-39.2	-41.0	19.4	0.00e+00	0	40	0	0	50	4323
2026-01-02 23:34:09.99	23.55	31.16	-39.2	-41.0	19.4	0.00e+00	0	40	0	0	50	4293
2026-01-02 23:34:10.56	23.58	31.27	-39.3	-41.0	19.3	0.00e+00	0	40	0	0	50	4340
2026-01-02 23:34:12.20	23.68	31.60	-39.3	-41.1	19.3	0.00e+00	0	40	0	0	50	4350
2026-01-02 23:34:12.78	23.71	31.71	-39.3	-41.1	19.3	0.00e+00	0	40	0	0	50	4350
2026-01-02 23:34:14.59	23.82	32.08	-39.2	-41.0	19.3	0.00e+00	0	40	0	0	50	4310
2026-01-02 23:34:15.16	23.85	32.19	-39.2	-41.0	19.4	0.00e+00	0	40	0	0	50	4304
2026-01-02 23:34:16.75	23.95	32.51	-39.2	-40.9	19.4	0.00e+00	0	40	0	0	50	4289
2026-01-02 23:34:17.33	23.98	32.63	-39.2	-40.9	19.4	0.00e+00	0	40	0	0	50	4291
2026-01-02 23:34:18.92	24.08	32.96	-39.2	-41.1	19.4	0.00e+00	0	40	0	0	50	4347
2026-01-02 23:34:19.49	24.12	33.08	-39.4	-41.2	19.3	0.00e+00	0	40	0	0	50	4399
2026-01-02 23:34:21.11	24.22	33.42	-39.4	-41.2	19.3	0.00e+00	0	40	0	0	50	4425
2026-01-02 23:34:21.86	24.27	33.58	-39.5	-41.3	19.2	0.00e+00	0	40	0	0	50	4491
2026-01-02 23:34:23.15	24.35	33.85	-39.6	-41.5	19.1	0.00e+00	0	40	0	0	50	4557
2026-01-02 23:34:24.07	24.41	34.05	-39.7	-41.6	19.1	0.00e+00	0	40	0	0	50	4604
2026-01-02 23:34:25.40	24.50	34.34	-39.8	-41.7	18.9	0.00e+00	0	40	0	0	50	4673
2026-01-02 23:34:26.11	24.55	34.49	-39.9	-41.8	18.8	0.00e+00	0	40	0	0	50	4737
2026-01-02 23:34:27.40	24.64	34.77	-40.2	-42.1	18.6	0.00e+00	0	40	0	0	50	4903
2026-01-02 23:34:28.12	24.69	34.93	-40.3	-42.2	18.4	0.00e+00	0	41	0	0	51	4692
2026-01-02 23:34:29.41	24.78	35.22	-40.5	-42.5	18.2	0.00e+00	0	40	0	0	51	4821
2026-01-02 23:34:30.12	24.83	35.38	-40.6	-42.6	18.1	0.00e+00	0	40	0	0	51	4900
2026-01-02 23:34:31.41	24.93	35.67	-40.7	-42.7	17.9	0.00e+00	0	40	0	0	52	4698
2026-01-02 23:34:32.13	24.98	35.83	-40.9	-43.0	17.7	0.00e+00	0	40	0	0	52	4816
2026-01-02 23:34:33.48	25.08	36.14	-41.2	-43.3	17.3	0.00e+00	0	40	0	0	53	4733
2026-01-02 23:34:34.20	25.14	36.30	-41.5	-43.7	16.9	0.00e+00	0	40	0	0	53	4935
2026-01-02 23:34:35.49	25.24	36.60	-41.9	-44.1	16.6	0.00e+00	0	40	0	0	54	4919
2026-01-02 23:34:36.20	25.29	36.77	-42.2	-44.5	16.2	0.00e+00	0	40	0	0	54	5129
2026-01-02 23:34:37.49	25.39	37.07	-42.2	-44.6	16.1	0.00e+00	0	40	0	0	55	4907
2026-01-02 23:34:38.22	25.45	37.24	-42.3	-44.8	16.0	0.00e+00	0	40	0	0	55	4985
2026-01-02 23:34:39.51	25.56	37.55	-42.3	-44.7	16.0	0.00e+00	0	40	0	0	55	4944
2026-01-02 23:34:40.22	25.61	37.72	-42.2	-44.6	16.1	0.00e+00	0	40	0	0	55	4886
2026-01-02 23:34:41.51	25.72	38.03	-42.1	-44.5	16.2	0.00e+00	0	40	0	0	55	4817
2026-01-02 23:34:42.23	25.78	38.20	-42.0	-44.2	16.4	0.00e+00	0	40	0	0	55	4704
2026-01-02 23:34:43.52	25.89	38.52	-41.7	-43.8	16.7	0.00e+00	0	40	0	0	55	4484
2026-01-02 23:34:44.23	25.95	38.70	-41.6	-43.7	16.8	0.00e+00	0	40	0	0	55	4414
2026-01-02 23:34:45.52	26.07	39.02	-41.5	-43.6	17.0	0.00e+00	0	41	0	0	54	4628
2026-01-02 23:34:46.24	26.13	39.20	-41.4	-43.5	17.1	0.00e+00	0	40	0	0	54	4595
2026-01-02 23:34:47.53	26.25	39.52	-41.4	-43.5	17.2	0.00e+00	0	40	0	0	54	4564
2026-01-02 23:34:48.24	26.32	39.70	-41.4	-43.5	17.2	0.00e+00	0	40	0	0	54	4584
2026-01-02 23:34:49.53	26.44	40.03	-41.6	-43.7	17.0	0.00e+00	0	40	0	0	54	4676
2026-01-02 23:34:50.25	26.51	40.21	-41.5	-43.6	17.1	0.00e+00	0	40	0	0	54	4603
2026-01-02 23:34:51.54	26.63	40.55	-41.6	-43.7	16.9	0.00e+00	0	40	0	0	54	4702
2026-01-02 23:34:52.26	26.70	40.74	-41.6	-43.7	17.0	0.00e+00	0	40	0	0	54	4659
2026-01-02 23:34:53.55	26.83	41.07	-41.5	-43.5	17.1	0.00e+00	0	40	0	0	54	4596
2026-01-02 23:34:54.26	26.90	41.26	-41.4	-43.5	17.1	0.00e+00	0	40	0	0	54	4554
2026-01-02 23:34:55.55	27.03	41.61	-41.5	-43.7	17.0	0.00e+00	0	40	0	0	54	4665
2026-01-02 23:34:56.27	27.11	41.80	-41.6	-43.7	16.9	0.00e+00	0	41	0	0	54	4699
2026-01-02 23:34:57.56	27.25	42.15	-41.7	-43.9	16.8	0.00e+00	0	40	0	0	54	4775
2026-01-02 23:34:58.28	27.32	42.34	-41.7	-43.9	16.8	0.00e+00	0	40	0	0	54	4787
2026-01-02 23:34:59.57	27.47	42.70	-41.7	-43.9	16.8	0.00e+00	0	40	0	0	54	4780
2026-01-02 23:35:00.31	27.55	42.90	-41.6	-43.7	17.0	0.00e+00	0	40	0	0	54	4678
2026-01-02 23:35:01.59	27.69	43.25	-41.4	-43.4	17.3	0.00e+00	0	41	0	0	54	4542
2026-01-02 23:35:02.53	27.80	43.52	-41.4	-43.5	17.3	0.00e+00	0	40	0	0	54	4554
2026-01-02 23:35:03.53	27.92	43.80	-41.3	-43.4	17.3	0.00e+00	0	40	0	0	54	4506
2026-01-02 23:35:04.52	28.04	44.08	-41.2	-43.3	17.4	0.00e+00	0	41	0	0	54	4460
2026-01-02 23:35:05.52	28.16	44.37	-41.2	-43.2	17.5	0.00e+00	0	41	0	0	54	4440
2026-01-02 23:35:06.52	28.28	44.65	-41.3	-43.3	17.4	0.00e+00	0	41	0	0	54	4476
2026-01-02 23:35:07.53	28.41	44.95	-41.4	-43.4	17.3	0.00e+00	0	40	0	0	54	4527
2026-01-02 23:35:08.53	28.54	45.24	-41.3	-43.3	17.4	0.00e+00	0	40	0	0	54	4489
2026-01-02 23:35:09.53	28.67	45.53	-41.2	-43.2	17.5	0.00e+00	0	40	0	0	54	4414
2026-01-02 23:35:10.53	28.80	45.83	-41.2	-43.2	17.5	0.00e+00	0	40	0	0	54	4418
2026-01-02 23:35:11.53	28.94	46.12	-41.2	-43.1	17.6	0.00e+00	0	40	0	0	54	4383
2026-01-02 23:35:12.54	29.08	46.43	-41.3	-43.3	17.5	0.00e+00	0	41	0	0	54	4446
2026-01-02 23:35:13.54	29.22	46.73	-41.1	-43.1	17.7	0.00e+00	0	41	0	0	54	4355
2026-01-02 23:35:14.55	29.36	47.03	-41.1	-43.1	17.7	0.00e+00	0	40	0	0	54	4351
2026-01-02 23:35:15.55	29.51	47.34	-41.0	-42.9	17.7	0.00e+00	0	41	0	0	53	4527
2026-01-02 23:35:16.55	29.66	47.65	-40.8	-42.8	17.8	0.00e+00	0	41	0	0	53	4462
2026-01-02 23:35:17.56	29.81	47.96	-40.5	-42.5	18.1	0.00e+00	0	41	0	0	53	4299
2026-01-02 23:35:18.56	29.96	48.27	-40.5	-42.5	18.1	0.00e+00	0	41	0	0	53	4298
2026-01-02 23:35:19.56	30.12	48.59	-40.4	-42.4	18.2	0.00e+00	0	41	0	0	52	4494
2026-01-02 23:35:20.57	30.29	48.90	-40.2	-42.2	18.4	0.00e+00	0	41	0	0	52	4392
2026-01-02 23:35:21.57	30.45	49.22	-40.2	-42.1	18.4	0.00e+00	0	40	0	0	52	4386
2026-01-02 23:35:22.57	30.62	49.54	-40.3	-42.2	18.3	0.00e+00	0	41	0	0	52	4407
2026-01-02 23:35:23.58	30.79	49.87	-40.3	-42.3	18.3	0.00e+00	0	40	0	0	52	4454
2026-01-02 23:35:24.58	30.96	50.19	-40.4	-42.3	18.2	0.00e+00	0	41	0	0	52	4467
2026-01-02 23:35:25.58	31.14	50.52	-40.8	-42.8	17.9	0.00e+00	0	40	0	0	52	4718
2026-01-02 23:35:26.59	31.33	50.85	-41.1	-43.2	17.5	0.00e+00	0	41	0	0	52	4954
2026-01-02 23:35:27.59	31.51	51.18	-41.4	-43.5	17.3	0.00e+00	0	40	0	0	53	4839
2026-01-02 23:35:28.67	31.72	51.54	-41.6	-43.7	17.0	0.00e+00	0	40	0	0	53	4957
2026-01-02 23:35:29.55	31.89	51.83	-41.5	-43.7	17.0	0.00e+00	0	40	0	0	53	4930
2026-01-02 23:35:30.70	32.12	52.22	-41.6	-43.8	16.9	0.00e+00	0	41	0	0	53	4985
2026-01-02 23:35:31.65	32.31	52.54	-41.4	-43.6	17.1	0.00e+00	0	41	0	0	53	4877
2026-01-02 23:35:32.85	32.56	52.95	-41.1	-43.2	17.5	0.00e+00	0	40	0	0	53	4670
2026-01-02 23:35:33.72	32.75	53.25	-40.6	-42.6	18.0	0.00e+00	0	41	0	0	53	4380
2026-01-02 23:35:35.03	33.04	53.70	-40.3	-42.3	18.3	0.00e+00	0	40	0	0	52	4442
2026-01-02 23:35:35.75	33.20	53.95	-40.1	-42.0	18.6	0.00e+00	0	41	0	0	52	4333
2026-01-02 23:35:37.26	33.55	54.48	-39.7	-41.5	19.2	0.00e+00	0	41	0	0	51	4309
2026-01-02 23:35:38.23	33.78	54.82	-39.3	-41.1	19.6	0.00e+00	0	41	0	0	50	4363
2026-01-02 23:35:39.55	34.10	55.28	-39.5	-41.3	19.5	0.00e+00	0	40	0	0	50	4446
2026-01-02 23:35:40.27	34.28	55.54	-39.5	-41.3	19.4	0.00e+00	0	40	0	0	50	4459
2026-01-02 23:35:41.56	34.61	56.00	-39.5	-41.3	19.4	0.00e+00	0	41	0	0	50	4471
2026-01-02 23:35:42.28	34.80	56.26	-39.6	-41.4	19.3	0.00e+00	0	40	0	0	50	4515
2026-01-02 23:35:43.56	35.15	56.72	-39.7	-41.5	19.3	0.00e+00	0	40	0	0	50	4579
2026-01-02 23:35:44.28	35.35	56.98	-39.7	-41.5	19.2	0.00e+00	0	41	0	0	50	4565
2026-01-02 23:35:45.57	35.72	57.45	-39.5	-41.3	19.3	0.00e+00	0	40	0	0	50	4476
2026-01-02 23:35:46.28	35.92	57.71	-39.3	-41.1	19.6	0.00e+00	0	41	0	0	50	4368
2026-01-02 23:35:47.57	36.31	58.18	-38.9	-40.6	20.0	0.00e+00	0	41	0	0	49	4366
2026-01-02 23:35:48.29	36.54	58.45	-38.6	-40.3	20.3	0.00e+00	0	41	0	0	49	4213
2026-01-02 23:35:49.58	36.94	58.93	-38.5	-40.2	20.4	0.00e+00	0	41	0	0	49	4151
2026-01-02 23:35:50.29	37.18	59.19	-38.5	-40.2	20.4	0.00e+00	0	41	0	0	49	4155
2026-01-02 23:35:51.58	37.61	59.67	-38.6	-40.3	20.3	0.00e+00	0	41	0	0	49	4206
2026-01-02 23:35:52.29	37.86	59.94	-38.6	-40.2	20.2	0.00e+00	0	40	0	0	49	4180
2026-01-02 23:35:53.58	38.31	60.43	-38.6	-40.3	20.2	0.00e+00	0	41	0	0	49	4215
2026-01-02 23:35:54.30	38.58	60.70	-38.7	-40.4	20.2	0.00e+00	0	41	0	0	49	4249
2026-01-02 23:35:55.59	39.07	61.19	-38.7	-40.3	20.2	0.00e+00	0	40	0	0	49	4240
2026-01-02 23:35:56.46	39.40	61.52	-38.6	-40.3	20.2	0.00e+00	0	40	0	0	49	4224
2026-01-02 23:35:57.61	39.87	61.95	-38.5	-40.1	20.3	0.00e+00	0	40	0	0	49	4123
2026-01-02 23:35:58.47	40.22	62.28	-38.1	-39.7	20.7	0.00e+00	0	40	0	0	48	4156
2026-01-02 23:35:59.62	40.72	62.72	-37.7	-39.3	20.8	0.00e+00	0	40	0	0	47	4210
2026-01-02 23:36:00.48	41.10	63.05	-37.6	-39.2	20.9	0.00e+00	0	41	0	0	47	4151
2026-01-02 23:36:01.62	41.62	63.49	-37.5	-39.1	21.0	0.00e+00	0	41	0	0	46	4360
2026-01-02 23:36:02.82	42.18	63.95	-37.5	-39.1	21.2	0.00e+00	0	41	0	0	46	4351
2026-01-02 23:36:03.85	42.69	64.35	-37.4	-39.0	21.2	0.00e+00	0	41	0	0	46	4329
2026-01-02 23:36:04.85	43.20	64.74	-37.6	-39.2	21.2	0.00e+00	0	41	0	0	46	4402
2026-01-02 23:36:05.86	43.73	65.12	-37.7	-39.3	21.0	0.00e+00	0	40	0	0	46	4492
2026-01-02 23:36:06.86	44.27	65.51	-37.9	-39.6	20.8	0.00e+00	0	41	0	0	46	4602
2026-01-02 23:36:07.86	44.84	65.90	-38.0	-39.6	20.7	0.00e+00	0	41	0	0	46	4636
2026-01-02 23:36:08.86	45.42	66.28	-37.8	-39.5	20.8	0.00e+00	0	40	0	0	46	4561
2026-01-02 23:36:09.87	46.03	66.67	-37.7	-39.3	20.9	0.00e+00	0	41	0	0	46	4456
2026-01-02 23:36:10.87	46.66	67.05	-37.7	-39.3	20.8	0.00e+00	0	41	0	0	46	4480
2026-01-02 23:36:11.87	47.31	67.44	-37.7	-39.4	20.8	0.00e+00	0	41	0	0	46	4499
2026-01-02 23:36:12.87	47.99	67.82	-37.7	-39.3	20.8	0.00e+00	0	41	0	0	46	4465
2026-01-02 23:36:13.87	48.69	68.20	-37.5	-39.1	21.0	0.00e+00	0	41	0	0	46	4388
2026-01-02 23:36:14.94	49.47	68.61	-37.4	-39.0	21.1	0.00e+00	0	41	0	0	46	4315
2026-01-02 23:36:15.83	50.14	68.95	-37.5	-39.2	21.0	0.00e+00	0	41	0	0	46	4393
2026-01-02 23:36:16.98	51.04	69.38	-37.6	-39.2	20.9	0.00e+00	0	41	0	0	46	4435
2026-01-02 23:36:17.84	51.75	69.70	-37.8	-39.4	20.8	0.00e+00	0	41	0	0	46	4528
2026-01-02 23:36:18.98	52.72	70.12	-37.8	-39.4	20.9	0.00e+00	0	41	0	0	46	4513
2026-01-02 23:36:19.84	53.48	70.44	-37.7	-39.3	20.9	0.00e+00	0	41	0	0	46	4470
2026-01-02 23:36:20.99	54.54	70.86	-37.5	-39.1	21.1	0.00e+00	0	41	0	0	46	4354
2026-01-02 23:36:21.85	55.36	71.17	-37.4	-39.0	21.0	0.00e+00	0	41	0	0	46	4313
2026-01-02 23:36:22.99	56.50	71.58	-37.4	-39.0	21.0	0.00e+00	0	41	0	0	46	4332
2026-01-02 23:36:23.85	57.39	71.88	-37.5	-39.1	21.0	0.00e+00	0	41	0	0	46	4356
2026-01-02 23:36:25.00	58.64	72.29	-37.5	-39.1	21.0	0.00e+00	0	41	0	0	46	4354
2026-01-02 23:36:25.86	59.61	72.58	-37.5	-39.1	21.1	0.00e+00	0	41	0	0	46	4366
2026-01-02 23:36:27.02	60.98	72.97	-37.4	-39.0	21.2	0.00e+00	0	41	0	0	46	4312
2026-01-02 23:36:27.88	62.04	73.26	-37.5	-39.1	21.1	0.00e+00	0	41	0	0	46	4366
2026-01-02 23:36:29.09	63.59	73.65	-37.7	-39.4	20.9	0.00e+00	0	41	0	0	46	4502
2026-01-02 23:36:29.94	64.72	73.92	-37.7	-39.3	20.9	0.00e+00	0	41	0	0	46	4476
2026-01-02 23:36:31.15	66.41	74.30	-37.7	-39.3	20.9	0.00e+00	0	41	0	0	46	4487
2026-01-02 23:36:32.01	67.66	74.56	-37.6	-39.3	20.9	0.00e+00	0	41	0	0	46	4444
2026-01-02 23:36:33.16	69.40	74.89	-37.8	-39.4	20.8	0.00e+00	0	41	0	0	46	4539
2026-01-02 23:36:34.02	70.75	75.14	-37.8	-39.4	20.8	0.00e+00	0	40	0	0	46	4521
2026-01-02 23:36:35.17	72.64	75.45	-37.6	-39.2	20.9	0.00e+00	0	40	0	0	46	4437
2026-01-02 23:36:36.03	74.10	75.67	-37.5	-39.1	21.1	0.00e+00	0	40	0	0	46	4342
2026-01-02 23:36:37.17	76.11	75.95	-37.6	-39.2	20.8	0.00e+00	0	41	0	0	46	4405
2026-01-02 23:36:38.11	77.83	76.17	-37.8	-39.4	20.6	0.00e+00	0	41	0	0	46	4526
2026-01-02 23:36:39.29	80.07	76.43	-37.9	-39.5	20.3	0.00e+00	0	41	0	0	46	4583
2026-01-02 23:36:40.15	81.75	76.61	-38.2	-39.9	20.0	0.00e+00	0	41	0	0	47	4519
2026-01-02 23:36:41.50	84.49	76.86	-38.5	-40.3	19.7	0.00e+00	0	41	0	0	47	4711
2026-01-02 23:36:42.22	85.99	76.99	-38.5	-40.2	20.0	0.00e+00	0	41	0	0	47	4693
2026-01-02 23:36:43.51	88.75	77.19	-38.3	-40.0	20.4	0.00e+00	0	41	0	0	47	4552
2026-01-02 23:36:44.22	90.31	77.28	-38.2	-39.9	20.4	0.00e+00	0	41	0	0	47	4523
2026-01-02 23:36:45.78	93.81	77.46	-37.9	-39.6	20.7	0.00e+00	0	41	0	0	47	4354
2026-01-02 23:36:46.49	95.43	77.53	-37.6	-39.3	21.0	0.00e+00	0	41	0	0	47	4197
2026-01-02 23:36:47.85	98.59	77.63	-37.4	-39.0	21.3	0.00e+00	0	40	0	0	46	4314
2026-01-02 23:36:48.56	100.25	77.67	-37.7	-39.3	20.9	0.00e+00	0	40	0	0	46	4478
2026-01-02 23:36:49.85	103.30	77.71	-37.9	-39.6	20.8	0.00e+00	0	41	0	0	46	4605
2026-01-02 23:36:50.56	104.99	77.72	-37.9	-39.6	20.7	0.00e+00	0	40	0	0	46	4628
2026-01-02 23:36:51.86	108.07	77.71	-38.0	-39.7	20.6	0.00e+00	0	41	0	0	46	4679
2026-01-02 23:36:52.57	109.75	77.69	-37.9	-39.5	20.8	0.00e+00	0	41	0	0	46	4596
2026-01-02 23:36:53.86	112.78	77.63	-37.5	-39.1	21.2	0.00e+00	0	41	0	0	46	4375
2026-01-02 23:36:54.58	114.46	77.58	-37.2	-38.8	21.3	0.00e+00	0	40	0	0	46	4229
2026-01-02 23:36:55.86	117.40	77.47	-37.2	-38.7	21.3	0.00e+00	0	41	0	0	46	4192
2026-01-02 23:36:56.66	119.21	77.38	-37.0	-38.5	21.4	0.00e+00	0	41	0	0	46	4093
2026-01-02 23:36:58.11	122.42	77.19	-37.2	-38.7	21.0	0.00e+00	0	41	0	0	45	4432
2026-01-02 23:36:58.83	123.97	77.09	-37.4	-39.0	20.8	0.00e+00	0	40	0	0	45	4558
2026-01-02 23:37:00.11	126.67	76.87	-37.9	-39.6	20.6	0.00e+00	0	41	0	0	46	4629
2026-01-02 23:37:00.88	128.25	76.73	-37.7	-39.3	20.9	0.00e+00	0	41	0	0	46	4492
2026-01-02 23:37:02.17	130.81	76.48	-38.0	-39.6	20.5	0.00e+00	0	41	0	0	46	4640
2026-01-02 23:37:02.97	132.35	76.30	-38.1	-39.8	20.5	0.00e+00	0	41	0	0	47	4475
2026-01-02 23:37:04.12	134.49	76.04	-37.7	-39.4	21.0	0.00e+00	0	41	0	0	47	4255
2026-01-02 23:37:04.97	136.02	75.84	-37.4	-39.0	21.2	0.00e+00	0	41	0	0	46	4320
2026-01-02 23:37:06.12	138.01	75.55	-37.6	-39.2	20.8	0.00e+00	0	41	0	0	46	4422
2026-01-02 23:37:06.98	139.45	75.32	-37.8	-39.5	20.7	0.00e+00	0	41	0	0	46	4546
2026-01-02 23:37:08.12	141.28	75.00	-37.9	-39.6	20.5	0.00e+00	0	40	0	0	46	4617
2026-01-02 23:37:08.98	142.61	74.75	-38.2	-39.9	20.2	0.00e+00	0	41	0	0	47	4527
2026-01-02 23:37:10.15	144.35	74.41	-38.1	-39.8	20.5	0.00e+00	0	41	0	0	47	4459
2026-01-02 23:37:11.01	145.57	74.14	-37.4	-39.0	21.2	0.00e+00	0	40	0	0	46	4309
2026-01-02 23:37:12.15	147.14	73.79	-37.7	-39.4	20.8	0.00e+00	0	41	0	0	46	4502
2026-01-02 23:37:13.01	148.27	73.51	-38.0	-39.7	20.6	0.00e+00	0	41	0	0	46	4655
2026-01-02 23:37:14.16	149.72	73.13	-38.1	-39.7	20.4	0.00e+00	0	41	0	0	46	4689
2026-01-02 23:37:15.02	150.76	72.84	-37.5	-39.1	21.1	0.00e+00	0	41	0	0	46	4347
2026-01-02 23:37:16.16	152.08	72.45	-37.4	-39.0	21.2	0.00e+00	0	41	0	0	46	4296
2026-01-02 23:37:17.02	153.04	72.16	-36.8	-38.3	21.7	0.00e+00	0	41	0	0	45	4204
2026-01-02 23:37:18.17	154.27	71.75	-36.9	-38.5	21.1	0.00e+00	0	41	0	0	45	4317
2026-01-02 23:37:19.03	155.15	71.45	-37.7	-39.3	20.8	0.00e+00	0	41	0	0	45	4719
2026-01-02 23:37:20.17	156.27	71.03	-38.0	-39.7	20.6	0.00e+00	0	40	0	0	46	4670
2026-01-02 23:37:21.30	157.34	70.62	-38.0	-39.7	20.5	0.00e+00	0	41	0	0	46	4664
2026-01-02 23:37:22.16	158.12	70.31	-37.8	-39.5	20.6	0.00e+00	0	41	0	0	46	4555
2026-01-02 23:37:23.30	159.11	69.88	-37.5	-39.2	21.0	0.00e+00	0	41	0	0	46	4402
2026-01-02 23:37:24.16	159.83	69.56	-37.2	-38.8	21.5	0.00e+00	0	41	0	0	46	4218
2026-01-02 23:37:25.31	160.75	69.13	-37.4	-39.0	21.3	0.00e+00	0	41	0	0	46	4295
2026-01-02 23:37:26.17	161.41	68.80	-37.9	-39.5	20.8	0.00e+00	0	41	0	0	46	4565
2026-01-02 23:37:27.33	162.28	68.36	-38.1	-39.8	20.5	0.00e+00	0	41	0	0	46	4730
2026-01-02 23:37:28.18	162.88	68.04	-38.1	-39.8	20.3	0.00e+00	0	41	0	0	47	4481
2026-01-02 23:37:29.33	163.68	67.60	-37.8	-39.4	20.4	0.00e+00	0	40	0	0	47	4290
2026-01-02 23:37:30.19	164.25	67.27	-37.6	-39.2	20.9	0.00e+00	0	40	0	0	47	4164
2026-01-02 23:37:31.34	164.98	66.83	-37.2	-38.8	21.4	0.00e+00	0	40	0	0	46	4203
2026-01-02 23:37:32.20	165.51	66.50	-37.4	-38.9	21.2	0.00e+00	0	40	0	0	46	4285
2026-01-02 23:37:33.34	166.19	66.06	-38.1	-39.8	20.2	0.00e+00	0	41	0	0	46	4719
2026-01-02 23:37:34.20	166.69	65.72	-38.7	-40.3	20.0	0.00e+00	0	41	0	0	48	4493
2026-01-02 23:37:35.34	167.32	65.28	-38.3	-39.9	20.5	0.00e+00	0	41	0	0	48	4273
2026-01-02 23:37:36.21	167.78	64.95	-37.8	-39.4	20.6	0.00e+00	0	41	0	0	47	4290
2026-01-02 23:37:37.35	168.37	64.50	-37.4	-39.0	21.2	0.00e+00	0	41	0	0	46	4321
2026-01-02 23:37:38.21	168.80	64.17	-37.2	-38.7	21.5	0.00e+00	0	40	0	0	46	4183
2026-01-02 23:37:39.35	169.36	63.73	-37.4	-39.0	21.2	0.00e+00	0	40	0	0	46	4335
2026-01-02 23:37:40.21	169.76	63.40	-38.3	-39.9	20.3	0.00e+00	0	41	0	0	47	4527
2026-01-02 23:37:41.36	170.28	62.96	-39.1	-40.8	19.4	0.00e+00	0	41	0	0	48	4758
2026-01-02 23:37:42.22	170.66	62.63	-38.9	-40.6	19.5	0.00e+00	0	41	0	0	49	4387
2026-01-02 23:37:43.44	171.18	62.16	-38.0	-39.6	20.3	0.00e+00	0	41	0	0	48	4135
2026-01-02 23:37:44.30	171.53	61.83	-37.8	-39.4	20.5	0.00e+00	0	41	0	0	47	4273
2026-01-02 23:37:45.45	171.99	61.39	-37.5	-39.1	21.0	0.00e+00	0	40	0	0	47	4132
2026-01-02 23:37:46.31	172.32	61.06	-37.5	-39.1	21.1	0.00e+00	0	41	0	0	46	4388
2026-01-02 23:37:47.46	172.76	60.63	-38.1	-39.7	20.6	0.00e+00	0	41	0	0	46	4681
2026-01-02 23:37:48.31	173.07	60.30	-38.8	-40.5	20.1	0.00e+00	0	41	0	0	48	4577
2026-01-02 23:37:49.65	173.54	59.80	-39.6	-41.4	19.2	0.00e+00	0	40	0	0	49	4787
2026-01-02 23:37:50.37	173.79	59.53	-39.6	-41.4	19.1	0.00e+00	0	41	0	0	50	4495
2026-01-02 23:37:51.66	174.22	59.05	-38.7	-40.4	19.7	0.00e+00	0	41	0	0	49	4250
2026-01-02 23:37:52.37	174.45	58.78	-38.2	-39.7	19.9	0.00e+00	0	41	0	0	48	4191
2026-01-02 23:37:53.66	174.85	58.30	-37.7	-39.2	20.8	0.00e+00	0	41	0	0	47	4191
2026-01-02 23:37:54.38	175.07	58.04	-37.9	-39.5	20.6	0.00e+00	0	41	0	0	47	4312
2026-01-02 23:37:55.67	175.46	57.56	-39.3	-41.0	19.6	0.00e+00	0	41	0	0	49	4563
2026-01-02 23:37:56.38	175.67	57.30	-40.0	-41.8	18.8	0.00e+00	0	41	0	0	50	4755
2026-01-02 23:37:57.67	176.03	56.83	-40.8	-42.8	17.8	0.00e+00	0	40	0	0	52	4728
2026-01-02 23:37:58.39	176.23	56.57	-41.1	-43.1	17.5	0.00e+00	0	41	0	0	52	4915
2026-01-02 23:37:59.68	176.57	56.10	-41.2	-43.3	17.0	0.00e+00	0	41	0	0	53	4744
2026-01-02 23:38:00.40	176.76	55.84	-40.8	-42.8	17.1	0.00e+00	0	41	0	0	53	4487
2026-01-02 23:38:01.74	177.10	55.36	-39.8	-41.7	18.4	0.00e+00	0	41	0	0	51	4395
2026-01-02 23:38:02.45	177.28	55.11	-39.5	-41.3	19.0	0.00e+00	0	41	0	0	50	4445
2026-01-02 23:38:03.74	177.59	54.65	-39.3	-41.1	19.5	0.00e+00	0	41	0	0	50	4351
2026-01-02 23:38:04.46	177.76	54.40	-39.6	-41.4	19.3	0.00e+00	0	41	0	0	50	4501
2026-01-02 23:38:05.75	178.06	53.95	-40.3	-42.1	18.6	0.00e+00	0	40	0	0	51	4622
2026-01-02 23:38:06.46	178.22	53.70	-40.5	-42.4	18.3	0.00e+00	0	40	0	0	51	4790
2026-01-02 23:38:07.75	178.51	53.25	-40.9	-42.9	17.9	0.00e+00	0	41	0	0	52	4768
2026-01-02 23:38:08.47	178.66	53.01	-41.2	-43.2	17.6	0.00e+00	0	41	0	0	52	4935
2026-01-02 23:38:09.76	178.93	52.56	-41.5	-43.6	17.2	0.00e+00	0	40	0	0	53	4889
2026-01-02 23:38:10.48	179.08	52.32	-41.5	-43.6	17.1	0.00e+00	0	41	0	0	53	4895
2026-01-02 23:38:11.77	179.34	51.88	-41.7	-43.8	16.8	0.00e+00	0	41	0	0	54	4723
2026-01-02 23:38:12.48	179.48	51.64	-41.3	-43.4	17.2	0.00e+00	0	41	0	0	54	4499
2026-01-02 23:38:13.77	179.73	51.21	-40.5	-42.4	18.1	0.00e+00	0	41	0	0	53	4269
2026-01-02 23:38:14.48	179.86	50.98	-40.2	-42.0	18.5	0.00e+00	0	41	0	0	52	4332
2026-01-02 23:38:15.78	180.10	50.55	-40.3	-42.1	18.5	0.00e+00	0	41	0	0	52	4370
2026-01-02 23:38:16.49	180.23	50.31	-40.4	-42.3	18.3	0.00e+00	0	41	0	0	52	4452
2026-01-02 23:38:17.78	180.45	49.89	-41.1	-43.0	17.7	0.00e+00	0	41	0	0	52	4863
2026-01-02 23:38:18.50	180.58	49.66	-41.1	-43.1	17.6	0.00e+00	0	41	0	0	52	4917
2026-01-02 23:38:19.78	180.79	49.25	-41.1	-43.1	17.4	0.00e+00	0	40	0	0	53	4633
2026-01-02 23:38:20.49	180.91	49.02	-41.0	-42.9	17.5	0.00e+00	0	41	0	0	53	4543
2026-01-02 23:38:21.78	181.12	48.61	-41.0	-42.9	17.4	0.00e+00	0	41	0	0	53	4535
2026-01-02 23:38:22.50	181.24	48.38	-41.2	-43.2	17.3	0.00e+00	0	41	0	0	53	4655
2026-01-02 23:38:23.78	181.44	47.98	-41.1	-43.1	17.4	0.00e+00	0	41	0	0	53	4643
2026-01-02 23:38:24.58	181.56	47.73	-41.1	-43.1	17.4	0.00e+00	0	41	0	0	53	4605
2026-01-02 23:38:25.72	181.73	47.38	-40.9	-42.8	17.6	0.00e+00	0	41	0	0	53	4460
2026-01-02 23:38:26.58	181.86	47.11	-40.8	-42.8	17.6	0.00e+00	0	41	0	0	53	4447
2026-01-02 23:38:27.73	182.02	46.76	-40.5	-42.4	18.1	0.00e+00	0	41	0	0	53	4265
2026-01-02 23:38:28.83	182.18	46.43	-40.6	-42.5	18.1	0.00e+00	0	41	0	0	52	4562
2026-01-02 23:38:29.86	182.32	46.12	-41.0	-43.0	17.6	0.00e+00	0	41	0	0	52	4840
2026-01-02 23:38:30.86	182.45	45.82	-41.6	-43.7	16.9	0.00e+00	0	41	0	0	53	4955
2026-01-02 23:38:31.87	182.59	45.52	-42.2	-44.5	16.2	0.00e+00	0	41	0	0	55	4841
2026-01-02 23:38:32.86	182.72	45.23	-43.0	-45.5	15.3	0.00e+00	0	41	0	0	56	5150
2026-01-02 23:38:33.87	182.85	44.93	-43.3	-45.8	14.9	0.00e+00	0	41	0	0	57	5019
2026-01-02 23:38:34.87	182.98	44.64	-43.1	-45.6	15.1	0.00e+00	0	41	0	0	57	4886
2026-01-02 23:38:35.87	183.10	44.35	-42.8	-45.1	15.6	0.00e+00	0	40	0	0	57	4645
2026-01-02 23:38:36.87	183.22	44.06	-42.4	-44.6	16.3	0.00e+00	0	41	0	0	56	4615
2026-01-02 23:38:37.88	183.34	43.78	-42.0	-44.2	16.7	0.00e+00	0	41	0	0	56	4413
2026-01-02 23:38:38.88	183.46	43.49	-41.8	-43.9	16.8	0.00e+00	0	41	0	0	55	4543
2026-01-02 23:38:39.88	183.58	43.21	-41.8	-43.9	16.8	0.00e+00	0	41	0	0	55	4519
2026-01-02 23:38:40.89	183.69	42.93	-41.9	-44.1	16.6	0.00e+00	0	41	0	0	55	4633
2026-01-02 23:38:41.97	183.81	42.63	-42.1	-44.3	16.4	0.00e+00	0	41	0	0	55	4747
2026-01-02 23:38:42.86	183.91	42.39	-41.8	-44.0	16.6	0.00e+00	0	41	0	0	55	4576
2026-01-02 23:38:44.00	184.03	42.07	-41.1	-43.2	17.2	0.00e+00	0	41	0	0	54	4402
2026-01-02 23:38:44.86	184.12	41.84	-41.0	-43.0	17.3	0.00e+00	0	41	0	0	54	4296
2026-01-02 23:38:46.01	184.24	41.53	-41.0	-42.9	17.4	0.00e+00	0	41	0	0	53	4538
2026-01-02 23:38:46.87	184.33	41.30	-40.9	-42.8	17.6	0.00e+00	0	40	0	0	53	4493
2026-01-02 23:38:48.01	184.45	41.00	-41.2	-43.2	17.4	0.00e+00	0	41	0	0	53	4655
2026-01-02 23:38:48.88	184.54	40.77	-41.6	-43.7	17.0	0.00e+00	0	41	0	0	53	4938
2026-01-02 23:38:50.02	184.65	40.47	-41.9	-44.0	16.7	0.00e+00	0	41	0	0	54	4853
2026-01-02 23:38:50.88	184.73	40.24	-41.8	-44.0	16.7	0.00e+00	0	41	0	0	54	4815
2026-01-02 23:38:52.02	184.84	39.95	-41.8	-44.0	16.7	0.00e+00	0	41	0	0	54	4840
2026-01-02 23:38:52.88	184.92	39.73	-41.8	-44.0	16.6	0.00e+00	0	41	0	0	54	4836
2026-01-02 23:38:54.03	185.03	39.44	-41.7	-43.9	16.7	0.00e+00	0	41	0	0	54	4766
2026-01-02 23:38:54.89	185.11	39.22	-41.5	-43.6	16.9	0.00e+00	0	41	0	0	54	4641
2026-01-02 23:38:56.03	185.21	38.93	-41.3	-43.3	17.3	0.00e+00	0	41	0	0	54	4458
2026-01-02 23:38:56.89	185.28	38.72	-41.0	-43.0	17.6	0.00e+00	0	41	0	0	54	4307
2026-01-02 23:38:58.04	185.38	38.43	-40.8	-42.8	17.8	0.00e+00	0	41	0	0	53	4443
2026-01-02 23:38:58.90	185.46	38.22	-40.7	-42.6	18.1	0.00e+00	0	41	0	0	53	4351
2026-01-02 23:39:00.04	185.55	37.94	-40.6	-42.5	18.1	0.00e+00	0	41	0	0	53	4303
2026-01-02 23:39:00.90	185.63	37.73	-40.9	-42.8	17.8	0.00e+00	0	41	0	0	53	4489
2026-01-02 23:39:02.04	185.72	37.46	-40.9	-43.0	17.7	0.00e+00	0	41	0	0	53	4549
2026-01-02 23:39:02.90	185.79	37.25	-40.9	-43.0	17.7	0.00e+00	0	41	0	0	53	4560
2026-01-02 23:39:04.05	185.88	36.98	-40.8	-42.8	17.8	0.00e+00	0	41	0	0	53	4486
2026-01-02 23:39:04.91	185.95	36.78	-40.8	-42.8	17.7	0.00e+00	0	41	0	0	53	4481
2026-01-02 23:39:06.05	186.04	36.51	-40.4	-42.3	18.2	0.00e+00	0	41	0	0	52	4451
2026-01-02 23:39:06.91	186.10	36.31	-40.2	-42.1	18.2	0.00e+00	0	41	0	0	52	4389
2026-01-02 23:39:08.06	186.19	36.04	-40.3	-42.2	18.1	0.00e+00	0	41	0	0	52	4408
2026-01-02 23:39:09.01	186.26	35.82	-40.3	-42.2	18.0	0.00e+00	0	41	0	0	52	4436
2026-01-02 23:39:10.02	186.34	35.59	-40.4	-42.3	18.0	0.00e+00	0	41	0	0	52	4484
2026-01-02 23:39:11.02	186.41	35.37	-40.4	-42.3	18.1	0.00e+00	0	41	0	0	52	4490
2026-01-02 23:39:12.02	186.48	35.14	-40.3	-42.2	18.3	0.00e+00	0	41	0	0	52	4407
2026-01-02 23:39:13.02	186.55	34.92	-40.3	-42.3	18.1	0.00e+00	0	41	0	0	52	4456
2026-01-02 23:39:14.03	186.62	34.70	-40.6	-42.5	17.9	0.00e+00	0	41	0	0	52	4576
2026-01-02 23:39:15.03	186.69	34.48	-40.6	-42.6	17.9	0.00e+00	0	41	0	0	52	4602
2026-01-02 23:39:16.03	186.76	34.26	-40.7	-42.6	17.8	0.00e+00	0	41	0	0	52	4650
2026-01-02 23:39:17.03	186.83	34.04	-40.6	-42.5	17.9	0.00e+00	0	41	0	0	52	4571
2026-01-02 23:39:18.03	186.89	33.82	-40.6	-42.5	18.0	0.00e+00	0	41	0	0	52	4570
2026-01-02 23:39:19.03	186.96	33.61	-40.5	-42.4	18.1	0.00e+00	0	41	0	0	52	4529
2026-01-02 23:39:20.04	187.02	33.39	-40.1	-42.0	18.5	0.00e+00	0	41	0	0	52	4306
2026-01-02 23:39:21.04	187.09	33.18	-39.7	-41.5	19.0	0.00e+00	0	41	0	0	51	4318
2026-01-02 23:39:22.04	187.15	32.97	-39.4	-41.1	19.3	0.00e+00	0	41	0	0	50	4388
2026-01-02 23:39:23.04	187.21	32.76	-39.3	-41.1	19.4	0.00e+00	0	41	0	0	50	4357
2026-01-02 23:39:24.04	187.27	32.56	-39.2	-40.9	19.6	0.00e+00	0	41	0	0	50	4281
2026-01-02 23:39:25.05	187.34	32.35	-39.0	-40.7	19.8	0.00e+00	0	41	0	0	50	4147
2026-01-02 23:39:26.05	187.40	32.15	-38.8	-40.5	19.9	0.00e+00	0	41	0	0	49	4305
2026-01-02 23:39:27.05	187.45	31.94	-38.9	-40.6	19.8	0.00e+00	0	41	0	0	49	4358
2026-01-02 23:39:28.05	187.51	31.74	-38.8	-40.5	19.8	0.00e+00	0	41	0	0	49	4327
2026-01-02 23:39:29.05	187.57	31.54	-39.0	-40.7	19.7	0.00e+00	0	41	0	0	49	4427
2026-01-02 23:39:30.06	187.63	31.34	-39.2	-40.9	19.5	0.00e+00	0	41	0	0	49	4519
2026-01-02 23:39:31.06	187.69	31.14	-39.2	-40.9	19.5	0.00e+00	0	41	0	0	49	4529
2026-01-02 23:39:32.06	187.74	30.95	-39.1	-40.8	19.6	0.00e+00	0	41	0	0	49	4491
2026-01-02 23:39:33.06	187.80	30.75	-39.2	-40.9	19.6	0.00e+00	0	41	0	0	49	4538
2026-01-02 23:39:34.06	187.85	30.56	-39.1	-40.8	19.7	0.00e+00	0	41	0	0	49	4463
2026-01-02 23:39:35.07	187.91	30.36	-39.1	-40.8	19.7	0.00e+00	0	41	0	0	49	4466
2026-01-02 23:39:36.07	187.96	30.17	-39.2	-40.9	19.6	0.00e+00	0	41	0	0	49	4518
2026-01-02 23:39:37.07	188.01	29.98	-39.4	-41.2	19.4	0.00e+00	0	41	0	0	49	4657
2026-01-02 23:39:38.07	188.07	29.79	-39.6	-41.4	19.2	0.00e+00	0	41	0	0	49	4779
2026-01-02 23:39:39.08	188.12	29.60	-39.6	-41.4	19.2	0.00e+00	0	41	0	0	49	4784
2026-01-02 23:39:40.45	188.19	29.35	-39.7	-41.5	19.0	0.00e+00	0	41	0	0	49	4855
2026-01-02 23:39:41.19	188.23	29.21	-39.7	-41.6	19.0	0.00e+00	0	41	0	0	50	4613
2026-01-02 23:39:42.48	188.29	28.97	-39.9	-41.7	18.8	0.00e+00	0	41	0	0	50	4691
2026-01-02 23:39:43.20	188.33	28.84	-40.0	-41.9	18.7	0.00e+00	0	41	0	0	50	4760
2026-01-02 23:39:44.49	188.39	28.61	-40.1	-42.0	18.6	0.00e+00	0	41	0	0	50	4817
2026-01-02 23:39:45.20	188.42	28.48	-40.1	-42.1	18.4	0.00e+00	0	41	0	0	50	4886
2026-01-02 23:39:46.49	188.49	28.25	-40.3	-42.2	18.2	0.00e+00	0	41	0	0	51	4684
2026-01-02 23:39:47.21	188.52	28.12	-40.3	-42.3	18.2	0.00e+00	0	41	0	0	51	4722
2026-01-02 23:39:48.50	188.58	27.89	-40.3	-42.3	18.1	0.00e+00	0	41	0	0	51	4721
2026-01-02 23:39:49.22	188.62	27.77	-40.3	-42.3	18.2	0.00e+00	0	41	0	0	51	4719
2026-01-02 23:39:50.50	188.67	27.54	-40.4	-42.4	18.1	0.00e+00	0	41	0	0	51	4766
2026-01-02 23:39:51.22	188.71	27.42	-40.3	-42.2	18.1	0.00e+00	0	41	0	0	51	4690
2026-01-02 23:39:52.51	188.77	27.20	-40.1	-42.1	18.3	0.00e+00	0	41	0	0	51	4603
2026-01-02 23:39:53.22	188.80	27.07	-40.0	-41.9	18.4	0.00e+00	0	41	0	0	51	4537
2026-01-02 23:39:54.51	188.85	26.85	-39.9	-41.8	18.6	0.00e+00	0	41	0	0	51	4442
2026-01-02 23:39:55.23	188.89	26.73	-39.9	-41.8	18.6	0.00e+00	0	41	0	0	51	4450
2026-01-02 23:39:56.52	188.94	26.52	-39.7	-41.6	18.8	0.00e+00	0	41	0	0	51	4344
2026-01-02 23:39:57.23	188.97	26.40	-39.5	-41.4	18.9	0.00e+00	0	41	0	0	51	4243
2026-01-02 23:39:58.52	189.03	26.18	-39.2	-41.1	19.2	0.00e+00	0	41	0	0	50	4347
2026-01-02 23:39:59.24	189.06	26.06	-39.2	-41.0	19.3	0.00e+00	0	41	0	0	50	4337
2026-01-02 23:40:00.52	189.11	25.85	-39.1	-40.9	19.4	0.00e+00	0	41	0	0	50	4256
2026-01-02 23:40:01.24	189.14	25.74	-39.0	-40.8	19.5	0.00e+00	0	41	0	0	50	4221
2026-01-02 23:40:02.54	189.19	25.53	-38.9	-40.7	19.5	0.00e+00	0	41	0	0	49	4412
2026-01-02 23:40:03.26	189.22	25.41	-38.7	-40.5	19.8	0.00e+00	0	41	0	0	49	4305
2026-01-02 23:40:04.55	189.28	25.20	-38.6	-40.3	19.9	0.00e+00	0	41	0	0	49	4211
2026-01-02 23:40:05.27	189.30	25.09	-38.6	-40.3	19.9	0.00e+00	0	41	0	0	49	4219
2026-01-02 23:40:06.56	189.36	24.88	-38.7	-40.4	19.7	0.00e+00	0	41	0	0	49	4282
2026-01-02 23:40:07.27	189.38	24.77	-38.5	-40.2	19.9	0.00e+00	0	41	0	0	49	4180
2026-01-02 23:40:08.55	189.43	24.57	-38.5	-40.2	19.9	0.00e+00	0	41	0	0	49	4192
2026-01-02 23:40:09.27	189.46	24.46	-38.6	-40.3	19.8	0.00e+00	0	41	0	0	49	4235
2026-01-02 23:40:10.56	189.51	24.26	-38.7	-40.4	19.7	0.00e+00	0	41	0	0	49	4256
2026-01-02 23:40:11.28	189.54	24.15	-38.7	-40.4	19.7	0.00e+00	0	41	0	0	49	4287
2026-01-02 23:40:12.57	189.58	23.95	-38.8	-40.6	19.6	0.00e+00	0	41	0	0	49	4345
2026-01-02 23:40:13.28	189.61	23.84	-38.9	-40.7	19.5	0.00e+00	0	41	0	0	49	4409
2026-01-02 23:40:14.58	189.66	23.65	-39.0	-40.8	19.5	0.00e+00	0	41	0	0	49	4443
2026-01-02 23:40:15.29	189.68	23.54	-39.1	-40.9	19.5	0.00e+00	0	41	0	0	49	4497
2026-01-02 23:40:16.58	189.73	23.35	-39.1	-40.9	19.5	0.00e+00	0	41	0	0	49	4495
2026-01-02 23:40:17.30	189.76	23.24	-39.1	-40.8	19.6	0.00e+00	0	41	0	0	49	4479
2026-01-02 23:40:18.58	189.80	23.05	-39.1	-40.8	19.6	0.00e+00	0	41	0	0	49	4476
2026-01-02 23:40:19.30	189.83	22.95	-39.0	-40.7	19.7	0.00e+00	0	41	0	0	49	4423
2026-01-02 23:40:20.71	189.88	22.74	-38.9	-40.6	19.8	0.00e+00	0	41	0	0	49	4361
2026-01-02 23:40:21.43	189.90	22.64	-38.9	-40.6	19.8	0.00e+00	0	41	0	0	49	4379
2026-01-02 23:40:22.72	189.95	22.45	-38.8	-40.5	19.9	0.00e+00	0	41	0	0	49	4307
2026-01-02 23:40:23.44	189.97	22.35	-38.8	-40.5	19.9	0.00e+00	0	41	0	0	49	4306
2026-01-02 23:40:24.72	190.01	22.16	-38.8	-40.5	19.9	0.00e+00	0	41	0	0	49	4317
2026-01-02 23:40:25.44	190.04	22.06	-38.8	-40.5	19.9	0.00e+00	0	41	0	0	49	4305
2026-01-02 23:40:26.73	190.08	21.88	-38.6	-40.3	20.1	0.00e+00	0	41	0	0	49	4235
2026-01-02 23:40:27.45	190.10	21.78	-38.7	-40.4	20.0	0.00e+00	0	41	0	0	49	4266
2026-01-02 23:40:28.74	190.15	21.60	-38.7	-40.4	20.0	0.00e+00	0	41	0	0	49	4258
2026-01-02 23:40:29.45	190.17	21.50	-38.8	-40.5	20.0	0.00e+00	0	41	0	0	49	4308
2026-01-02 23:40:30.74	190.21	21.32	-38.9	-40.6	19.8	0.00e+00	0	41	0	0	49	4367
2026-01-02 23:40:31.45	190.23	21.23	-38.9	-40.7	19.7	0.00e+00	0	41	0	0	49	4421
2026-01-02 23:40:32.74	190.27	21.05	-39.0	-40.7	19.7	0.00e+00	0	41	0	0	49	4432
2026-01-02 23:40:33.46	190.30	20.95	-38.9	-40.7	19.7	0.00e+00	0	41	0	0	49	4406
2026-01-02 23:40:34.78	190.34	20.77	-39.0	-40.8	19.7	0.00e+00	0	41	0	0	49	4453
2026-01-02 23:40:35.50	190.36	20.68	-39.1	-40.9	19.5	0.00e+00	0	41	0	0	49	4525
2026-01-02 23:40:36.85	190.40	20.50	-39.1	-40.9	19.5	0.00e+00	0	41	0	0	49	4521
2026-01-02 23:40:37.57	190.42	20.40	-39.2	-41.0	19.4	0.00e+00	0	41	0	0	49	4596
2026-01-02 23:40:38.86	190.46	20.23	-39.2	-41.0	19.4	0.00e+00	0	41	0	0	49	4577
2026-01-02 23:40:39.57	190.48	20.14	-39.2	-41.0	19.4	0.00e+00	0	41	0	0	49	4597
2026-01-02 23:40:40.86	190.52	19.97	-39.3	-41.1	19.3	0.00e+00	0	41	0	0	49	4627
2026-01-02 23:40:41.58	190.54	19.87	-39.3	-41.1	19.3	0.00e+00	0	41	0	0	49	4637
2026-01-02 23:40:42.87	190.58	19.71	-39.4	-41.2	19.2	0.00e+00	0	41	0	0	49	4666
2026-01-02 23:40:43.59	190.60	19.61	-39.4	-41.2	19.2	0.00e+00	0	41	0	0	49	4677
2026-01-02 23:40:44.88	190.64	19.45	-39.4	-41.2	19.2	0.00e+00	0	41	0	0	49	4695
2026-01-02 23:40:45.63	190.66	19.35	-39.5	-41.3	19.1	0.00e+00	0	41	0	0	49	4728
2026-01-02 23:40:46.91	190.69	19.19	-39.5	-41.3	19.1	0.00e+00	0	41	0	0	49	4746
2026-01-02 23:40:47.63	190.71	19.10	-39.4	-41.2	19.2	0.00e+00	0	41	0	0	49	4680
2026-01-02 23:40:48.92	190.75	18.94	-39.4	-41.3	19.2	0.00e+00	0	41	0	0	49	4706
2026-01-02 23:40:49.80	190.78	18.83	-39.4	-41.2	19.2	0.00e+00	0	41	0	0	49	4692
2026-01-02 23:40:50.94	190.81	18.69	-39.3	-41.1	19.3	0.00e+00	0	41	0	0	49	4647
2026-01-02 23:40:51.80	190.83	18.58	-39.3	-41.2	19.3	0.00e+00	0	41	0	0	49	4662
2026-01-02 23:40:52.94	190.86	18.44	-39.4	-41.2	19.2	0.00e+00	0	41	0	0	49	4690
2026-01-02 23:40:53.80	190.88	18.33	-39.4	-41.3	19.2	0.00e+00	0	41	0	0	49	4712
2026-01-02 23:40:54.95	190.91	18.19	-39.3	-41.2	19.2	0.00e+00	0	41	0	0	49	4658
2026-01-02 23:40:55.81	190.94	18.09	-39.4	-41.3	19.1	0.00e+00	0	41	0	0	49	4714
2026-01-02 23:40:56.95	190.97	17.95	-39.4	-41.2	19.1	0.00e+00	0	41	0	0	49	4685
2026-01-02 23:40:57.81	190.99	17.85	-39.3	-41.2	19.2	0.00e+00	0	41	0	0	49	4659
2026-01-02 23:40:58.95	191.02	17.71	-39.3	-41.2	19.2	0.00e+00	0	41	0	0	49	4666
2026-01-02 23:40:59.81	191.04	17.61	-39.3	-41.2	19.2	0.00e+00	0	41	0	0	49	4652
2026-01-02 23:41:00.96	191.07	17.47	-39.4	-41.3	19.1	0.00e+00	0	41	0	0	49	4708
2026-01-02 23:41:01.82	191.09	17.37	-39.4	-41.2	19.1	0.00e+00	0	41	0	0	49	4686
2026-01-02 23:41:02.96	191.12	17.24	-39.4	-41.3	19.1	0.00e+00	0	41	0	0	49	4720
2026-01-02 23:41:03.82	191.14	17.14	-39.4	-41.2	19.1	0.00e+00	0	41	0	0	49	4684
2026-01-02 23:41:04.97	191.17	17.01	-39.4	-41.3	19.1	0.00e+00	0	41	0	0	49	4725
2026-01-02 23:41:05.83	191.19	16.91	-39.5	-41.3	19.0	0.00e+00	0	41	0	0	49	4745
2026-01-02 23:41:06.97	191.22	16.78	-39.5	-41.4	19.0	0.00e+00	0	41	0	0	49	4765
2026-01-02 23:41:07.83	191.24	16.68	-39.4	-41.3	19.1	0.00e+00	0	41	0	0	49	4708
2026-01-02 23:41:08.97	191.27	16.55	-39.6	-41.5	18.9	0.00e+00	0	41	0	0	49	4821
2026-01-02 23:41:09.83	191.29	16.45	-39.5	-41.4	18.9	0.00e+00	0	41	0	0	49	4783
2026-01-02 23:41:11.11	191.32	16.31	-39.6	-41.5	18.9	0.00e+00	0	41	0	0	49	4821
2026-01-02 23:41:11.82	191.34	16.23	-39.6	-41.4	18.9	0.00e+00	0	41	0	0	49	4814
2026-01-02 23:41:13.11	191.37	16.08	-39.7	-41.6	18.7	0.00e+00	0	41	0	0	49	4874
2026-01-02 23:41:13.83	191.38	16.00	-39.8	-41.7	18.7	0.00e+00	0	41	0	0	50	4662
2026-01-02 23:41:15.11	191.41	15.86	-39.7	-41.6	18.7	0.00e+00	0	41	0	0	50	4634
2026-01-02 23:41:15.88	191.43	15.77	-39.7	-41.6	18.7	0.00e+00	0	41	0	0	50	4619
2026-01-02 23:41:17.17	191.46	15.63	-39.7	-41.6	18.7	0.00e+00	0	41	0	0	50	4645
2026-01-02 23:41:17.88	191.48	15.56	-39.7	-41.6	18.7	0.00e+00	0	41	0	0	50	4644
2026-01-02 23:41:19.17	191.51	15.41	-39.7	-41.7	18.6	0.00e+00	0	41	0	0	50	4656
2026-01-02 23:41:19.89	191.52	15.34	-39.8	-41.7	18.6	0.00e+00	0	41	0	0	50	4680
2026-01-02 23:41:21.18	191.55	15.20	-39.8	-41.7	18.6	0.00e+00	0	41	0	0	50	4696
2026-01-02 23:41:22.14	191.57	15.09	-39.8	-41.8	18.5	0.00e+00	0	41	0	0	50	4728
2026-01-02 23:41:23.48	191.60	14.95	-39.9	-41.8	18.5	0.00e+00	0	41	0	0	50	4740
2026-01-02 23:41:24.22	191.62	14.87	-39.9	-41.9	18.4	0.00e+00	0	41	0	0	50	4779
2026-01-02 23:41:25.51	191.65	14.74	-39.9	-41.9	18.4	0.00e+00	0	41	0	0	50	4787
2026-01-02 23:41:26.23	191.66	14.66	-39.9	-41.8	18.5	0.00e+00	0	41	0	0	50	4734
2026-01-02 23:41:27.52	191.69	14.53	-39.9	-41.9	18.4	0.00e+00	0	41	0	0	50	4770
2026-01-02 23:41:28.23	191.71	14.45	-39.9	-41.8	18.5	0.00e+00	0	41	0	0	50	4749
2026-01-02 23:41:29.53	191.73	14.32	-39.9	-41.8	18.4	0.00e+00	0	41	0	0	50	4754
2026-01-02 23:41:30.24	191.75	14.24	-39.9	-41.8	18.4	0.00e+00	0	41	0	0	50	4758
2026-01-02 23:41:31.53	191.78	14.11	-39.9	-41.9	18.4	0.00e+00	0	41	0	0	50	4769
2026-01-02 23:41:32.25	191.79	14.04	-39.9	-41.9	18.3	0.00e+00	0	41	0	0	50	4775
2026-01-02 23:41:33.65	191.82	13.89	-40.0	-41.9	18.4	0.00e+00	0	41	0	0	50	4786
2026-01-02 23:41:34.36	191.84	13.82	-40.1	-42.0	18.3	0.00e+00	0	41	0	0	50	4849
2026-01-02 23:41:35.65	191.86	13.69	-40.0	-41.9	18.3	0.00e+00	0	41	0	0	50	4805
2026-01-02 23:41:36.36	191.88	13.62	-40.0	-41.9	18.3	0.00e+00	0	41	0	0	50	4790
2026-01-02 23:41:37.66	191.90	13.49	-40.0	-42.0	18.3	0.00e+00	0	41	0	0	50	4823
2026-01-02 23:41:38.37	191.92	13.42	-40.0	-42.0	18.3	0.00e+00	0	41	0	0	50	4838
2026-01-02 23:41:39.66	191.94	13.29	-40.1	-42.1	18.2	0.00e+00	0	41	0	0	50	4898
2026-01-02 23:41:40.37	191.96	13.22	-40.0	-42.0	18.3	0.00e+00	0	41	0	0	50	4835
2026-01-02 23:41:41.66	191.98	13.09	-40.1	-42.0	18.3	0.00e+00	0	41	0	0	50	4853
2026-01-02 23:41:42.44	192.00	13.01	-40.1	-42.0	18.2	0.00e+00	0	41	0	0	50	4863
2026-01-02 23:41:43.73	192.02	12.89	-40.0	-41.9	18.3	0.00e+00	0	41	0	0	50	4814
2026-01-02 23:41:44.49	192.04	12.81	-40.0	-41.9	18.4	0.00e+00	0	41	0	0	50	4800
2026-01-02 23:41:45.78	192.06	12.69	-39.9	-41.9	18.3	0.00e+00	0	41	0	0	50	4795
2026-01-02 23:41:46.58	192.08	12.61	-40.0	-41.9	18.3	0.00e+00	0	41	0	0	50	4804
2026-01-02 23:41:47.73	192.10	12.50	-40.0	-42.0	18.3	0.00e+00	0	41	0	0	50	4820
2026-01-02 23:41:48.81	192.12	12.39	-40.0	-42.0	18.2	0.00e+00	0	41	0	0	50	4846
2026-01-02 23:41:49.83	192.14	12.30	-40.1	-42.1	18.2	0.00e+00	0	41	0	0	50	4889
2026-01-02 23:41:51.01	192.16	12.18	-40.0	-42.0	18.2	0.00e+00	0	41	0	0	50	4844
2026-01-02 23:41:51.87	192.18	12.10	-39.9	-41.9	18.4	0.00e+00	0	41	0	0	50	4768
2026-01-02 23:41:53.02	192.20	11.99	-39.9	-41.9	18.3	0.00e+00	0	41	0	0	50	4788
2026-01-02 23:41:53.87	192.22	11.91	-39.9	-41.9	18.3	0.00e+00	0	41	0	0	50	4790
2026-01-02 23:41:55.01	192.24	11.81	-40.0	-41.9	18.3	0.00e+00	0	41	0	0	50	4791
2026-01-02 23:41:55.88	192.25	11.73	-40.1	-42.0	18.2	0.00e+00	0	41	0	0	50	4848
2026-01-02 23:41:57.02	192.27	11.62	-39.9	-41.8	18.4	0.00e+00	0	41	0	0	50	4753
2026-01-02 23:41:57.88	192.29	11.54	-39.9	-41.8	18.4	0.00e+00	0	41	0	0	50	4759
2026-01-02 23:41:59.03	192.31	11.43	-39.9	-41.9	18.3	0.00e+00	0	41	0	0	50	4771
2026-01-02 23:41:59.89	192.32	11.35	-40.0	-42.0	18.2	0.00e+00	0	41	0	0	50	4836
2026-01-02 23:42:01.04	192.35	11.25	-39.9	-41.9	18.3	0.00e+00	0	41	0	0	50	4787
2026-01-02 23:42:01.90	192.36	11.17	-40.0	-41.9	18.3	0.00e+00	0	41	0	0	50	4793
2026-01-02 23:42:03.05	192.38	11.06	-40.0	-41.9	18.3	0.00e+00	0	41	0	0	50	4810
2026-01-02 23:42:03.90	192.40	10.99	-40.0	-41.9	18.3	0.00e+00	0	41	0	0	50	4788
2026-01-02 23:42:05.05	192.42	10.88	-39.9	-41.9	18.3	0.00e+00	0	41	0	0	50	4773
2026-01-02 23:42:05.91	192.43	10.81	-40.0	-42.0	18.2	0.00e+00	0	41	0	0	50	4835
2026-01-02 23:42:07.06	192.45	10.70	-40.1	-42.0	18.2	0.00e+00	0	41	0	0	50	4862
2026-01-02 23:42:07.92	192.47	10.63	-40.0	-42.0	18.2	0.00e+00	0	41	0	0	50	4834
2026-01-02 23:42:09.06	192.48	10.53	-39.9	-41.9	18.3	0.00e+00	0	41	0	0	50	4779
2026-01-02 23:42:09.92	192.50	10.45	-40.0	-42.0	18.2	0.00e+00	0	41	0	0	50	4816
2026-01-02 23:42:11.07	192.52	10.35	-40.0	-42.0	18.2	0.00e+00	0	41	0	0	50	4816
2026-01-02 23:42:12.21	192.54	10.25	-40.0	-42.0	18.2	0.00e+00	0	41	0	0	50	4833
2026-01-02 23:42:13.25	192.56	10.16	-40.1	-42.1	18.1	0.00e+00	0	41	0	0	50	4878
2026-01-02 23:42:14.25	192.57	10.07	-40.2	-42.2	18.0	0.00e+00	0	41	0	0	50	4930
2026-01-02 23:42:15.46	192.59	9.96	-40.2	-42.2	18.0	0.00e+00	0	41	0	0	51	4674
2026-01-02 23:42:16.35	192.61	9.89	-40.2	-42.2	18.0	0.00e+00	0	41	0	0	51	4655
2026-01-02 23:42:17.38	192.62	9.80	-40.1	-42.0	18.1	0.00e+00	0	41	0	0	51	4598
2026-01-02 23:42:18.56	192.64	9.69	-40.2	-42.2	18.0	0.00e+00	0	41	0	0	51	4672
2026-01-02 23:42:19.42	192.66	9.62	-40.3	-42.3	17.9	0.00e+00	0	41	0	0	51	4712
2026-01-02 23:42:20.56	192.68	9.52	-40.3	-42.2	17.9	0.00e+00	0	41	0	0	51	4703
2026-01-02 23:42:21.42	192.69	9.45	-40.3	-42.3	17.9	0.00e+00	0	41	0	0	51	4707
2026-01-02 23:42:22.57	192.71	9.35	-40.4	-42.4	17.8	0.00e+00	0	41	0	0	51	4787
2026-01-02 23:42:23.43	192.72	9.28	-40.4	-42.4	17.8	0.00e+00	0	41	0	0	51	4765
2026-01-02 23:42:24.57	192.74	9.18	-40.4	-42.4	17.7	0.00e+00	0	41	0	0	51	4799
2026-01-02 23:42:25.43	192.75	9.11	-40.4	-42.4	17.7	0.00e+00	0	41	0	0	51	4788
2026-01-02 23:42:26.58	192.77	9.01	-40.8	-42.9	17.3	0.00e+00	0	41	0	0	52	4775
2026-01-02 23:42:27.44	192.78	8.94	-47.9	-60.9	3.8	1.49e+00	0	41	104	0	66	16957
2026-01-02 23:42:28.59	192.80	8.85	-48.3	-61.7	3.8	1.49e+00	0	41	104	0	67	17614
2026-01-02 23:42:29.45	192.82	8.78	-48.4	-61.9	3.8	1.49e+00	0	41	104	0	67	17897
2026-01-02 23:42:30.63	192.83	8.68	-48.6	-62.1	3.8	1.49e+00	0	41	104	0	68	17362
2026-01-02 23:42:31.49	192.85	8.61	-49.1	-62.1	3.8	1.49e+00	0	41	104	0	68	17470
2026-01-02 23:42:32.70	192.87	8.51	-49.1	-62.2	3.8	1.49e+00	0	41	104	0	68	17526
2026-01-02 23:42:33.56	192.88	8.44	-49.0	-62.2	3.8	1.49e+00	0	41	104	0	68	17604
2026-01-02 23:42:34.71	192.90	8.34	-49.2	-62.2	3.8	1.49e+00	0	41	104	0	69	16654
2026-01-02 23:42:35.57	192.91	8.27	-49.2	-62.2	3.8	1.49e+00	0	41	104	0	69	16583
2026-01-02 23:42:36.71	192.93	8.18	-49.3	-62.2	3.8	1.49e+00	0	41	104	0	69	16620
2026-01-02 23:42:37.57	192.94	8.11	-49.3	-62.2	3.8	1.49e+00	0	41	104	0	69	16588
2026-01-02 23:42:38.72	192.96	8.02	-49.3	-62.2	3.8	1.49e+00	0	41	104	0	69	16667
2026-01-02 23:42:39.58	192.97	7.95	-49.2	-62.2	3.8	1.49e+00	0	41	104	0	69	16670
2026-01-02 23:42:40.73	192.98	7.86	-49.3	-62.2	3.8	1.49e+00	0	41	104	0	69	16665
2026-01-02 23:42:41.59	193.00	7.79	-49.3	-62.2	3.8	1.49e+00	0	41	104	0	69	16612
2026-01-02 23:42:42.74	193.01	7.70	-49.2	-62.2	3.8	1.49e+00	0	41	104	0	69	16651
2026-01-02 23:42:43.60	193.03	7.63	-49.2	-62.2	3.8	1.49e+00	0	41	104	0	69	16559
2026-01-02 23:42:44.75	193.04	7.54	-49.3	-62.3	3.8	1.49e+00	0	41	104	0	69	16695
2026-01-02 23:42:45.61	193.06	7.47	-49.3	-62.3	3.8	1.49e+00	0	41	104	0	69	16706
2026-01-02 23:42:46.76	193.07	7.38	-49.2	-62.2	3.8	1.49e+00	0	41	104	0	69	16662
2026-01-02 23:42:47.62	193.08	7.31	-49.3	-62.2	3.8	1.49e+00	0	41	104	0	69	16633
2026-01-02 23:42:48.76	193.10	7.23	-49.3	-62.2	3.8	1.49e+00	0	41	104	0	69	16617
2026-01-02 23:42:49.62	193.11	7.16	-49.1	-62.2	3.8	1.49e+00	0	41	104	0	69	16643
2026-01-02 23:42:50.77	193.13	7.07	-49.2	-62.2	3.8	1.49e+00	0	41	104	0	69	16619
2026-01-02 23:42:51.63	193.14	7.00	-49.0	-62.2	3.8	1.49e+00	0	41	104	0	69	16616
2026-01-02 23:42:52.78	193.16	6.91	-49.0	-62.2	3.8	1.49e+00	0	41	104	0	69	16535
2026-01-02 23:42:53.64	193.17	6.85	-49.0	-62.2	3.8	1.49e+00	0	41	104	0	69	16568
2026-01-02 23:42:54.78	193.18	6.76	-49.0	-62.2	3.8	1.49e+00	0	41	104	0	69	16576
2026-01-02 23:42:55.64	193.20	6.69	-49.0	-62.2	3.8	1.49e+00	0	41	104	0	69	16596
2026-01-02 23:42:56.79	193.21	6.61	-49.0	-62.2	3.8	1.49e+00	0	41	104	0	69	16555
2026-01-02 23:42:57.65	193.22	6.54	-49.0	-62.2	3.8	1.49e+00	0	41	104	0	69	16554
2026-01-02 23:42:58.80	193.24	6.45	-49.0	-62.2	3.8	1.49e+00	0	41	104	0	69	16580
2026-01-02 23:42:59.66	193.25	6.39	-49.0	-62.2	3.8	1.49e+00	0	41	104	0	69	16508
2026-01-02 23:43:00.81	193.27	6.30	-49.0	-62.2	3.8	1.49e+00	0	41	104	0	69	16601
2026-01-02 23:43:01.67	193.28	6.24	-49.0	-62.2	3.8	1.49e+00	0	41	104	0	69	16580
2026-01-02 23:43:02.81	193.29	6.15	-49.0	-62.2	3.8	1.49e+00	0	41	104	0	69	16540
2026-01-02 23:43:03.67	193.30	6.09	-49.0	-62.2	3.8	1.49e+00	0	41	104	0	69	16574
2026-01-02 23:43:04.82	193.32	6.00	-49.0	-62.2	3.8	1.49e+00	0	41	104	0	69	16593
2026-01-02 23:43:05.68	193.33	5.94	-49.0	-62.2	3.8	1.49e+00	0	41	104	0	69	16564
2026-01-02 23:43:06.83	193.35	5.85	-49.0	-62.2	3.8	1.49e+00	0	41	104	0	69	16624
2026-01-02 23:43:07.69	193.36	5.79	-49.0	-62.2	3.8	1.49e+00	0	41	104	0	69	16597
2026-01-02 23:43:08.83	193.37	5.71	-49.0	-62.2	3.8	1.49e+00	0	41	104	0	69	16589
2026-01-02 23:43:09.69	193.38	5.64	-49.0	-62.2	3.8	1.49e+00	0	41	104	0	69	16570
2026-01-02 23:43:10.84	193.40	5.56	-49.0	-62.2	3.8	1.49e+00	0	41	104	0	69	16633
