passes_logs/2026/01/02/T1/T1__20260102_200336_KHAYYAM_rec.log

#Pass ID: 20260102_200336_KHAYYAM
#Satellite: KHAYYAM
#Configuration: KHAYYAM_480M
#almurnet v.1.7.20251203
#Start time: 2026-01-02 20:03:36

#Version: 2.0.20230620
#Station: T1
#Location: 37.570604 lon 55.790049 lat
#TLE: 1 53370U 22096A   26002.29060447  .00010341  00000+0  42111-3 0  9999
#TLE: 2 53370  97.3571 269.5268 0001216  80.5229 279.6146 15.24671812189309

#Time	Az	El	Level	Level2	SNR	BER	BlckErr	Temp	State	Recorded	gain1	gain2
2026-01-02 20:03:36.97	35.35	5.05	-48.7	-51.4	3.8	0.00e+00	0	44	0	0	68	20164
2026-01-02 20:03:37.97	35.48	5.11	-48.7	-51.3	3.7	0.00e+00	0	44	104	0	68	19978
2026-01-02 20:03:38.97	35.62	5.17	-48.7	-51.3	3.7	0.00e+00	0	44	104	0	68	20130
2026-01-02 20:03:39.98	35.75	5.24	-48.7	-51.3	3.7	0.00e+00	0	44	104	0	68	20112
2026-01-02 20:03:40.98	35.89	5.30	-48.7	-51.4	3.7	0.00e+00	0	44	104	0	68	20191
2026-01-02 20:03:41.99	36.03	5.36	-48.7	-51.4	3.7	0.00e+00	0	44	104	0	68	20236
2026-01-02 20:03:42.99	36.16	5.43	-48.7	-51.3	3.7	0.00e+00	0	44	104	0	68	20118
2026-01-02 20:03:43.99	36.30	5.49	-48.7	-51.4	3.7	0.00e+00	0	44	104	0	68	20283
2026-01-02 20:03:45.00	36.44	5.55	-48.7	-51.4	3.7	0.00e+00	0	44	104	0	68	20168
2026-01-02 20:03:46.00	36.58	5.62	-48.7	-51.3	3.7	0.00e+00	0	45	104	0	68	20028
2026-01-02 20:03:47.01	36.72	5.68	-48.7	-51.3	3.7	0.00e+00	0	45	104	0	68	20157
2026-01-02 20:03:48.01	36.86	5.75	-48.7	-51.3	3.7	0.00e+00	0	45	104	0	68	20107
2026-01-02 20:03:49.02	37.01	5.81	-48.7	-51.3	3.7	0.00e+00	0	45	104	0	68	20120
2026-01-02 20:03:50.02	37.15	5.88	-48.7	-51.3	3.7	0.00e+00	0	45	104	0	68	20054
2026-01-02 20:03:51.02	37.29	5.94	-48.7	-51.3	3.7	0.00e+00	0	45	104	0	68	20061
2026-01-02 20:03:52.03	37.44	6.01	-48.7	-51.3	3.7	0.00e+00	0	45	104	0	68	19958
2026-01-02 20:03:53.03	37.58	6.07	-48.7	-51.3	3.7	0.00e+00	0	45	104	0	68	19979
2026-01-02 20:03:54.04	37.73	6.13	-48.6	-51.3	3.7	0.00e+00	0	45	104	0	68	19983
2026-01-02 20:03:55.04	37.87	6.20	-48.6	-51.2	3.7	0.00e+00	0	45	104	0	68	19901
2026-01-02 20:03:56.04	38.02	6.26	-48.7	-51.3	3.7	0.00e+00	0	45	104	0	68	19959
2026-01-02 20:03:57.05	38.17	6.33	-48.6	-51.3	3.7	0.00e+00	0	46	104	0	68	19950
2026-01-02 20:03:58.05	38.32	6.39	-48.6	-51.3	3.7	0.00e+00	0	46	104	0	68	19939
2026-01-02 20:03:59.06	38.47	6.46	-48.7	-51.3	3.7	0.00e+00	0	46	104	0	68	20045
2026-01-02 20:04:00.06	38.62	6.53	-48.6	-51.2	3.7	0.00e+00	0	46	104	0	68	19895
2026-01-02 20:04:01.07	38.77	6.59	-48.7	-51.3	3.7	0.00e+00	0	46	104	0	68	20033
2026-01-02 20:04:02.07	38.92	6.66	-48.7	-51.3	3.7	0.00e+00	0	46	104	0	68	19982
2026-01-02 20:04:03.07	39.08	6.72	-48.7	-51.3	3.7	0.00e+00	0	46	104	0	68	20012
2026-01-02 20:04:04.08	39.23	6.79	-48.6	-51.3	3.7	0.00e+00	0	46	104	0	68	19980
2026-01-02 20:04:05.08	39.39	6.85	-48.7	-51.3	3.7	0.00e+00	0	46	104	0	68	20014
2026-01-02 20:04:06.09	39.54	6.92	-48.6	-51.2	3.7	0.00e+00	0	46	104	0	68	19900
2026-01-02 20:04:07.09	39.70	6.99	-48.7	-51.3	3.7	0.00e+00	0	46	104	0	68	20005
2026-01-02 20:04:08.10	39.86	7.05	-48.7	-51.3	3.7	0.00e+00	0	46	104	0	68	20034
2026-01-02 20:04:09.10	40.02	7.12	-48.6	-51.3	3.7	0.00e+00	0	46	104	0	68	19954
2026-01-02 20:04:10.11	40.18	7.18	-48.7	-51.3	3.7	0.00e+00	0	46	104	0	68	19988
2026-01-02 20:04:11.11	40.34	7.25	-48.7	-51.3	3.7	0.00e+00	0	46	104	0	68	20057
2026-01-02 20:04:12.12	40.50	7.32	-48.7	-51.3	3.7	0.00e+00	0	46	104	0	68	20064
2026-01-02 20:04:13.12	40.66	7.38	-48.7	-51.3	3.7	0.00e+00	0	46	104	0	68	20005
2026-01-02 20:04:14.12	40.82	7.45	-48.7	-51.3	3.7	0.00e+00	0	47	104	0	68	19970
2026-01-02 20:04:15.13	40.99	7.52	-48.7	-51.3	3.7	0.00e+00	0	47	104	0	68	19995
2026-01-02 20:04:16.13	41.15	7.58	-48.7	-51.3	3.7	0.00e+00	0	46	104	0	68	20009
2026-01-02 20:04:17.14	41.32	7.65	-48.7	-51.3	3.7	0.00e+00	0	47	104	0	68	20101
2026-01-02 20:04:18.14	41.48	7.72	-48.7	-51.3	3.7	0.00e+00	0	47	104	0	68	20116
2026-01-02 20:04:19.15	41.65	7.78	-48.7	-51.3	3.7	0.00e+00	0	47	104	0	68	20149
2026-01-02 20:04:20.15	41.82	7.85	-48.7	-51.3	3.7	0.00e+00	0	47	104	0	68	19989
2026-01-02 20:04:21.15	41.99	7.92	-48.7	-51.3	3.7	0.00e+00	0	47	104	0	68	20126
2026-01-02 20:04:22.16	42.16	7.98	-48.7	-51.3	3.7	0.00e+00	0	47	104	0	68	20053
2026-01-02 20:04:23.16	42.33	8.05	-48.7	-51.3	3.7	0.00e+00	0	47	104	0	68	20128
2026-01-02 20:04:24.17	42.51	8.12	-48.7	-51.3	3.7	0.00e+00	0	47	104	0	68	20097
2026-01-02 20:04:25.17	42.68	8.18	-48.7	-51.3	3.7	0.00e+00	0	47	104	0	68	20155
2026-01-02 20:04:26.18	42.85	8.25	-48.7	-51.3	3.7	0.00e+00	0	47	104	0	68	19989
2026-01-02 20:04:27.18	43.03	8.32	-48.7	-51.3	3.7	0.00e+00	0	47	104	0	68	20086
2026-01-02 20:04:28.19	43.21	8.39	-48.7	-51.3	3.7	0.00e+00	0	47	104	0	68	20159
2026-01-02 20:04:29.19	43.38	8.45	-48.7	-51.3	3.7	0.00e+00	0	47	104	0	68	20076
2026-01-02 20:04:30.19	43.56	8.52	-48.7	-51.3	3.7	0.00e+00	0	47	104	0	68	20084
2026-01-02 20:04:31.20	43.74	8.59	-48.7	-51.3	3.7	0.00e+00	0	48	104	0	68	19952
2026-01-02 20:04:32.20	43.92	8.66	-48.7	-51.3	3.7	0.00e+00	0	47	104	0	68	20147
2026-01-02 20:04:33.21	44.10	8.72	-48.7	-51.3	3.7	0.00e+00	0	47	104	0	68	19989
2026-01-02 20:04:34.21	44.29	8.79	-48.7	-51.3	3.7	0.00e+00	0	48	104	0	68	20041
2026-01-02 20:04:35.22	44.47	8.86	-48.7	-51.3	3.7	0.00e+00	0	48	104	0	68	20157
2026-01-02 20:04:36.22	44.66	8.93	-48.7	-51.3	3.7	0.00e+00	0	47	104	0	68	20097
2026-01-02 20:04:37.23	44.84	8.99	-48.7	-51.3	3.7	0.00e+00	0	47	104	0	68	20013
2026-01-02 20:04:38.23	45.03	9.06	-48.7	-51.3	3.7	0.00e+00	0	48	104	0	68	19973
2026-01-02 20:04:39.31	45.23	9.13	-48.9	-51.6	3.7	0.00e+00	0	48	104	0	68	20713
2026-01-02 20:04:40.22	45.40	9.20	-50.4	-53.9	3.7	0.00e+00	0	48	104	0	72	21370
2026-01-02 20:04:41.41	45.63	9.28	-50.6	-53.9	3.7	0.00e+00	0	48	104	0	71	22827
2026-01-02 20:04:42.27	45.79	9.33	-51.2	-55.1	3.7	0.00e+00	0	48	104	0	73	23408
2026-01-02 20:04:43.42	46.01	9.41	-50.2	-53.3	3.7	0.00e+00	0	47	104	0	72	19973
2026-01-02 20:04:44.27	46.17	9.47	-51.0	-54.8	3.7	0.00e+00	0	48	104	0	72	23804
2026-01-02 20:04:45.66	46.44	9.56	-51.7	-55.9	3.7	0.00e+00	0	48	104	0	74	24017
2026-01-02 20:04:46.38	46.58	9.61	-51.7	-55.8	3.7	0.00e+00	0	48	104	0	74	23950
2026-01-02 20:04:47.67	46.84	9.70	-51.6	-55.8	3.7	0.00e+00	0	48	104	0	74	23944
2026-01-02 20:04:48.38	46.98	9.75	-51.5	-55.8	3.7	0.00e+00	0	48	104	0	74	23697
2026-01-02 20:04:49.67	47.23	9.83	-51.9	-56.2	3.7	0.00e+00	0	48	104	0	74	25063
2026-01-02 20:04:50.39	47.38	9.88	-51.9	-56.4	3.7	0.00e+00	0	48	104	0	74	25464
2026-01-02 20:04:51.68	47.63	9.97	-51.8	-56.2	3.7	0.00e+00	0	48	104	0	74	24924
2026-01-02 20:04:52.51	47.80	10.02	-51.9	-56.4	3.7	0.00e+00	0	48	104	0	74	25445
2026-01-02 20:04:53.66	48.04	10.10	-51.8	-56.1	3.7	0.00e+00	0	48	104	0	74	24717
2026-01-02 20:04:54.74	48.26	10.17	-51.6	-55.8	3.7	0.00e+00	0	48	104	0	74	23701
2026-01-02 20:04:55.60	48.43	10.23	-51.7	-56.0	3.7	0.00e+00	0	48	104	0	74	24437
2026-01-02 20:04:56.75	48.67	10.31	-51.8	-56.2	3.7	0.00e+00	0	48	104	0	74	25046
2026-01-02 20:04:57.60	48.85	10.37	-51.5	-55.6	3.7	0.00e+00	0	48	104	0	74	23341
2026-01-02 20:04:58.75	49.09	10.44	-51.8	-56.0	3.7	0.00e+00	0	48	104	0	74	24464
2026-01-02 20:04:59.61	49.27	10.50	-52.1	-56.6	3.7	0.00e+00	0	48	104	0	74	26030
2026-01-02 20:05:00.76	49.51	10.58	-50.6	-54.0	3.7	0.00e+00	0	48	104	0	73	20537
2026-01-02 20:05:01.62	49.69	10.64	-50.6	-54.0	3.7	0.00e+00	0	48	104	0	73	20622
2026-01-02 20:05:02.78	49.94	10.72	-51.2	-54.9	3.7	0.00e+00	0	48	104	0	73	22815
2026-01-02 20:05:03.64	50.12	10.77	-51.4	-55.3	3.7	0.00e+00	0	48	104	0	73	23693
2026-01-02 20:05:04.83	50.38	10.85	-51.3	-54.9	3.7	0.00e+00	0	48	104	0	73	22754
2026-01-02 20:05:05.69	50.57	10.91	-50.7	-54.1	3.7	0.00e+00	0	48	104	0	73	20697
2026-01-02 20:05:06.90	50.83	10.99	-52.1	-56.4	3.7	0.00e+00	0	49	104	0	74	25495
2026-01-02 20:05:07.76	51.02	11.05	-50.7	-54.0	3.7	0.00e+00	0	48	104	0	73	20444
2026-01-02 20:05:08.97	51.29	11.13	-51.5	-55.3	3.7	0.00e+00	0	48	104	0	73	23750
2026-01-02 20:05:09.83	51.48	11.19	-51.1	-54.6	3.7	0.00e+00	0	48	104	0	73	21960
2026-01-02 20:05:10.98	51.73	11.26	-50.8	-54.0	3.7	0.00e+00	0	49	104	0	73	20615
2026-01-02 20:05:11.84	51.93	11.32	-50.9	-54.3	3.7	0.00e+00	0	49	104	0	73	21265
2026-01-02 20:05:12.98	52.18	11.40	-51.5	-55.3	3.7	0.00e+00	0	48	104	0	73	23837
2026-01-02 20:05:13.84	52.38	11.45	-51.8	-55.9	3.7	0.00e+00	0	49	104	0	74	24070
2026-01-02 20:05:14.99	52.64	11.53	-51.8	-56.1	3.7	0.00e+00	0	49	104	0	74	24628
2026-01-02 20:05:15.85	52.84	11.58	-51.8	-56.1	3.7	0.00e+00	0	48	104	0	74	24611
2026-01-02 20:05:16.99	53.10	11.66	-51.5	-55.6	3.7	0.00e+00	0	48	104	0	74	23389
2026-01-02 20:05:17.85	53.30	11.72	-51.6	-55.7	3.7	0.00e+00	0	49	104	0	74	23690
2026-01-02 20:05:19.00	53.57	11.79	-51.4	-55.5	3.7	0.00e+00	0	48	104	0	74	22996
2026-01-02 20:05:19.86	53.77	11.85	-51.7	-55.9	3.7	0.00e+00	0	49	104	0	74	24109
2026-01-02 20:05:21.01	54.04	11.92	-51.9	-56.1	3.7	0.00e+00	0	49	104	0	74	24720
2026-01-02 20:05:21.86	54.24	11.98	-52.0	-56.3	3.7	0.00e+00	0	49	104	0	74	25129
2026-01-02 20:05:23.06	54.53	12.06	-52.0	-56.3	3.7	0.00e+00	0	49	104	0	74	25141
2026-01-02 20:05:23.91	54.73	12.11	-52.0	-56.3	3.7	0.00e+00	0	49	104	0	74	25114
2026-01-02 20:05:25.06	55.01	12.19	-51.8	-55.9	3.7	0.00e+00	0	49	104	0	74	24205
2026-01-02 20:05:25.92	55.22	12.24	-51.9	-56.4	3.7	0.00e+00	0	49	104	0	75	24204
2026-01-02 20:05:27.07	55.50	12.32	-52.0	-56.6	3.7	0.00e+00	0	49	104	0	75	24736
2026-01-02 20:05:27.92	55.71	12.37	-52.0	-56.7	3.7	0.00e+00	0	49	104	0	75	24809
2026-01-02 20:05:29.07	55.99	12.44	-52.1	-56.7	3.7	0.00e+00	0	49	104	0	75	24885
2026-01-02 20:05:29.93	56.20	12.50	-52.2	-56.9	3.7	0.00e+00	0	49	104	0	75	25576
2026-01-02 20:05:31.08	56.49	12.57	-52.3	-56.9	3.7	0.00e+00	0	49	104	0	75	25637
2026-01-02 20:05:31.93	56.70	12.62	-52.2	-56.8	3.7	0.00e+00	0	49	104	0	75	25135
2026-01-02 20:05:33.08	56.99	12.70	-52.0	-56.7	3.7	0.00e+00	0	49	104	0	75	24817
2026-01-02 20:05:33.94	57.21	12.75	-52.0	-56.6	3.7	0.00e+00	0	49	104	0	75	24723
2026-01-02 20:05:35.09	57.50	12.82	-52.2	-57.0	3.7	0.00e+00	0	49	104	0	75	25783
2026-01-02 20:05:35.95	57.72	12.88	-51.7	-55.8	3.7	0.00e+00	0	49	104	0	75	22515
2026-01-02 20:05:37.09	58.01	12.95	-52.0	-56.7	3.7	0.00e+00	0	49	104	0	75	25020
2026-01-02 20:05:37.95	58.23	13.00	-51.9	-55.8	3.7	0.00e+00	0	49	104	0	75	22385
2026-01-02 20:05:39.10	58.53	13.07	-52.2	-56.4	3.7	0.00e+00	0	49	104	0	75	24225
2026-01-02 20:05:39.96	58.75	13.13	-52.2	-56.7	3.7	0.00e+00	0	49	104	0	75	24960
2026-01-02 20:05:41.10	59.05	13.20	-52.0	-56.7	3.7	0.00e+00	0	49	104	0	75	24908
2026-01-02 20:05:42.01	59.29	13.25	-51.5	-56.1	3.7	0.00e+00	0	49	104	0	75	23276
2026-01-02 20:05:43.02	59.56	13.31	-51.5	-56.0	3.7	0.00e+00	0	49	104	0	75	23005
2026-01-02 20:05:44.02	59.82	13.37	-51.9	-56.5	3.7	0.00e+00	0	49	104	0	74	25842
2026-01-02 20:05:45.02	60.09	13.43	-51.4	-55.8	3.7	0.00e+00	0	49	104	0	74	23846
2026-01-02 20:05:46.02	60.36	13.49	-52.4	-57.1	3.7	0.00e+00	0	49	104	0	75	26016
2026-01-02 20:05:47.02	60.62	13.55	-52.1	-56.7	3.7	0.00e+00	0	49	104	0	75	24840
2026-01-02 20:05:48.02	60.90	13.61	-51.9	-56.1	3.7	0.00e+00	0	49	104	0	75	23393
2026-01-02 20:05:49.03	61.17	13.67	-51.9	-56.3	3.7	0.00e+00	0	49	104	0	75	23949
2026-01-02 20:05:50.03	61.44	13.73	-51.9	-56.6	3.7	0.00e+00	0	49	104	0	75	24787
2026-01-02 20:05:51.03	61.72	13.79	-51.9	-56.7	3.7	0.00e+00	0	49	104	0	75	25077
2026-01-02 20:05:52.04	62.00	13.85	-52.0	-56.8	3.7	0.00e+00	0	49	104	0	75	25305
2026-01-02 20:05:53.04	62.27	13.90	-52.2	-57.0	3.7	0.00e+00	0	49	104	0	75	25741
2026-01-02 20:05:54.04	62.55	13.96	-52.0	-56.6	3.7	0.00e+00	0	49	104	0	75	24742
2026-01-02 20:05:55.04	62.83	14.02	-52.4	-57.0	3.7	0.00e+00	0	49	104	0	75	25960
2026-01-02 20:05:56.04	63.11	14.07	-52.2	-56.8	3.7	0.00e+00	0	49	104	0	75	25240
2026-01-02 20:05:57.05	63.40	14.13	-51.7	-56.1	3.7	0.00e+00	0	49	104	0	75	23160
2026-01-02 20:05:58.05	63.68	14.18	-52.1	-56.6	3.7	0.00e+00	0	49	104	0	75	24549
2026-01-02 20:05:59.34	64.05	14.26	-51.9	-56.4	3.7	0.00e+00	0	49	104	0	75	24227
2026-01-02 20:06:00.09	64.26	14.30	-52.1	-56.9	3.7	0.00e+00	0	49	104	0	75	25552
2026-01-02 20:06:01.38	64.63	14.37	-52.3	-56.9	3.7	0.00e+00	0	49	104	0	75	25532
2026-01-02 20:06:02.10	64.84	14.41	-52.2	-56.7	3.7	0.00e+00	0	49	104	0	75	24887
2026-01-02 20:06:03.39	65.21	14.47	-52.4	-56.9	3.7	0.00e+00	0	49	104	0	75	25469
2026-01-02 20:06:04.10	65.42	14.51	-52.2	-56.7	3.7	0.00e+00	0	49	104	0	75	25001
2026-01-02 20:06:05.39	65.80	14.58	-52.1	-56.4	3.7	0.00e+00	0	49	104	0	75	24135
2026-01-02 20:06:06.11	66.01	14.62	-52.1	-56.4	3.7	0.00e+00	0	49	104	0	75	24098
2026-01-02 20:06:07.43	66.40	14.69	-51.8	-56.1	3.7	0.00e+00	0	49	104	0	75	23154
2026-01-02 20:06:08.15	66.61	14.72	-52.1	-56.5	3.7	0.00e+00	0	49	104	0	75	24302
2026-01-02 20:06:09.44	66.99	14.79	-51.9	-56.2	3.7	0.00e+00	0	49	104	0	75	23572
2026-01-02 20:06:10.16	67.21	14.82	-52.3	-56.8	3.7	0.00e+00	0	49	104	0	75	25325
2026-01-02 20:06:11.57	67.63	14.89	-52.2	-56.6	3.7	0.00e+00	0	49	104	0	75	24749
2026-01-02 20:06:12.29	67.85	14.93	-52.2	-56.6	3.7	0.00e+00	0	50	104	0	75	24669
2026-01-02 20:06:13.57	68.23	14.99	-52.1	-56.4	3.7	0.00e+00	0	49	104	0	75	24203
2026-01-02 20:06:14.29	68.45	15.02	-52.3	-56.9	3.7	0.00e+00	0	49	104	0	75	25434
2026-01-02 20:06:15.58	68.85	15.09	-52.4	-56.7	3.7	0.00e+00	0	49	104	0	75	25067
2026-01-02 20:06:16.30	69.07	15.12	-52.4	-56.8	3.7	0.00e+00	0	49	104	0	75	25099
2026-01-02 20:06:17.78	69.52	15.19	-52.3	-56.8	3.7	0.00e+00	0	49	104	0	75	25216
2026-01-02 20:06:18.50	69.74	15.22	-52.2	-56.5	3.7	0.00e+00	0	50	104	0	75	24428
2026-01-02 20:06:19.79	70.14	15.28	-51.8	-56.1	3.7	0.00e+00	0	50	104	0	75	23252
2026-01-02 20:06:20.51	70.36	15.31	-51.8	-56.2	3.7	0.00e+00	0	49	104	0	75	23442
2026-01-02 20:06:21.80	70.76	15.37	-51.7	-55.9	3.7	0.00e+00	0	49	104	0	75	22707
2026-01-02 20:06:22.51	70.99	15.40	-51.9	-56.1	3.7	0.00e+00	0	49	104	0	75	23251
2026-01-02 20:06:23.80	71.39	15.45	-52.4	-56.8	3.7	0.00e+00	0	49	104	0	75	25119
2026-01-02 20:06:24.51	71.61	15.48	-52.7	-57.2	3.7	0.00e+00	0	49	104	0	75	26326
2026-01-02 20:06:25.80	72.02	15.54	-52.7	-57.4	3.7	0.00e+00	0	50	104	0	76	25403
2026-01-02 20:06:26.53	72.25	15.57	-52.7	-57.3	3.7	0.00e+00	0	50	104	0	76	25272
2026-01-02 20:06:27.82	72.66	15.62	-52.3	-57.0	3.7	0.00e+00	0	49	104	0	76	24321
2026-01-02 20:06:28.54	72.89	15.65	-52.4	-57.2	3.7	0.00e+00	0	49	104	0	76	24947
2026-01-02 20:06:29.83	73.30	15.70	-52.4	-57.2	3.7	0.00e+00	0	50	104	0	76	24865
2026-01-02 20:06:30.55	73.53	15.72	-52.5	-57.2	3.7	0.00e+00	0	49	104	0	76	24897
2026-01-02 20:06:31.84	73.95	15.77	-52.2	-56.6	3.7	0.00e+00	0	49	104	0	76	23369
2026-01-02 20:06:32.55	74.18	15.80	-52.4	-56.9	3.7	0.00e+00	0	50	104	0	76	24116
2026-01-02 20:06:33.85	74.60	15.84	-52.3	-56.8	3.7	0.00e+00	0	49	104	0	76	23946
2026-01-02 20:06:34.56	74.83	15.87	-52.6	-57.1	3.7	0.00e+00	0	49	104	0	76	24561
2026-01-02 20:06:35.85	75.25	15.91	-52.6	-57.2	3.7	0.00e+00	0	50	104	0	76	24896
2026-01-02 20:06:36.57	75.48	15.94	-52.5	-57.2	3.7	0.00e+00	0	49	104	0	76	24909
2026-01-02 20:06:37.86	75.91	15.98	-52.3	-57.1	3.7	0.00e+00	0	49	104	0	76	24628
2026-01-02 20:06:38.57	76.14	16.01	-52.3	-57.0	3.7	0.00e+00	0	50	104	0	76	24353
2026-01-02 20:06:39.86	76.56	16.05	-52.3	-56.8	3.7	0.00e+00	0	49	104	0	76	23889
2026-01-02 20:06:40.58	76.80	16.07	-52.3	-56.8	3.7	0.00e+00	0	49	104	0	76	23905
2026-01-02 20:06:41.87	77.23	16.11	-52.5	-57.1	3.7	0.00e+00	0	49	104	0	76	24655
2026-01-02 20:06:42.58	77.46	16.13	-52.2	-56.5	3.7	0.00e+00	0	49	104	0	76	22958
2026-01-02 20:06:43.87	77.89	16.17	-52.3	-56.5	3.7	0.00e+00	0	49	104	0	76	23137
2026-01-02 20:06:44.59	78.13	16.19	-52.1	-56.4	3.7	0.00e+00	0	50	104	0	76	22677
2026-01-02 20:06:45.88	78.56	16.22	-52.4	-57.1	3.7	0.00e+00	0	50	104	0	76	24555
2026-01-02 20:06:46.60	78.80	16.24	-52.6	-57.2	3.7	0.00e+00	0	50	104	0	76	25026
2026-01-02 20:06:48.05	79.28	16.28	-52.5	-57.2	3.7	0.00e+00	0	50	104	0	76	24893
2026-01-02 20:06:48.76	79.52	16.29	-52.5	-57.1	3.7	0.00e+00	0	50	104	0	76	24787
2026-01-02 20:06:50.05	79.96	16.33	-52.3	-57.0	3.7	0.00e+00	0	50	104	0	76	24359
2026-01-02 20:06:51.08	80.30	16.35	-52.1	-56.9	3.7	0.00e+00	0	50	104	0	76	24215
2026-01-02 20:06:52.09	80.64	16.37	-51.9	-56.9	3.7	0.00e+00	0	50	104	0	75	25608
2026-01-02 20:06:53.09	80.98	16.39	-51.9	-56.6	3.7	0.00e+00	0	50	104	0	75	24729
2026-01-02 20:06:54.10	81.32	16.41	-51.4	-55.6	3.6	0.00e+00	0	50	104	0	74	23354
2026-01-02 20:06:55.55	81.82	16.44	-51.6	-55.8	3.7	0.00e+00	0	50	104	0	74	23724
2026-01-02 20:06:56.26	82.06	16.46	-52.0	-56.7	3.7	0.00e+00	0	50	104	0	74	26451
2026-01-02 20:06:57.55	82.50	16.48	-52.0	-56.6	3.7	0.00e+00	0	50	104	0	74	26206
2026-01-02 20:06:58.27	82.74	16.49	-52.1	-56.9	3.7	0.00e+00	0	50	104	0	74	27171
2026-01-02 20:06:59.56	83.18	16.51	-51.5	-56.3	3.7	0.00e+00	0	50	104	0	74	25376
2026-01-02 20:07:00.27	83.42	16.52	-51.4	-56.0	3.7	0.00e+00	0	50	104	0	74	24477
2026-01-02 20:07:01.56	83.87	16.54	-51.1	-55.5	3.7	0.00e+00	0	50	104	0	74	22916
2026-01-02 20:07:02.28	84.11	16.55	-51.1	-55.2	3.7	0.00e+00	0	50	104	0	74	22312
2026-01-02 20:07:03.63	84.58	16.57	-51.6	-56.2	3.7	0.00e+00	0	50	104	0	74	24838
2026-01-02 20:07:04.35	84.82	16.58	-51.0	-55.2	3.7	0.00e+00	0	50	104	0	74	22181
2026-01-02 20:07:05.70	85.29	16.59	-51.0	-55.0	3.7	0.00e+00	0	50	104	0	73	23018
2026-01-02 20:07:06.67	85.62	16.60	-50.8	-54.8	3.7	0.00e+00	0	50	104	0	73	22381
2026-01-02 20:07:08.00	86.08	16.61	-51.1	-55.3	3.7	0.00e+00	0	50	104	0	73	23903
2026-01-02 20:07:08.71	86.32	16.62	-51.4	-55.9	3.7	0.00e+00	0	50	104	0	73	25485
2026-01-02 20:07:10.00	86.77	16.63	-51.6	-56.2	3.7	0.00e+00	0	50	104	0	73	26442
2026-01-02 20:07:10.72	87.02	16.63	-51.7	-56.0	3.7	0.00e+00	0	50	104	0	74	24392
2026-01-02 20:07:12.01	87.46	16.64	-51.6	-55.4	3.7	0.00e+00	0	50	104	0	74	22885
2026-01-02 20:07:12.72	87.71	16.64	-51.7	-55.6	3.7	0.00e+00	0	49	104	0	74	23341
2026-01-02 20:07:14.06	88.17	16.65	-51.9	-56.6	3.7	0.00e+00	0	50	104	0	74	26245
2026-01-02 20:07:15.07	88.52	16.65	-51.6	-56.0	3.7	0.00e+00	0	50	104	0	74	24274
2026-01-02 20:07:16.39	88.97	16.65	-51.9	-56.5	3.7	0.00e+00	0	50	104	0	74	25974
2026-01-02 20:07:17.10	89.22	16.65	-52.2	-57.0	3.7	0.00e+00	0	50	104	0	74	27216
2026-01-02 20:07:18.75	89.79	16.65	-52.2	-56.9	3.7	0.00e+00	0	49	104	0	75	25574
2026-01-02 20:07:19.32	89.99	16.65	-52.2	-56.9	3.7	0.00e+00	0	50	104	0	75	25396
2026-01-02 20:07:20.91	90.54	16.65	-52.2	-56.7	3.7	0.00e+00	0	50	104	0	75	25040
2026-01-02 20:07:21.49	90.74	16.64	-52.2	-56.7	3.7	0.00e+00	0	50	104	0	75	24983
2026-01-02 20:07:23.06	91.28	16.64	-52.2	-57.0	3.7	0.00e+00	0	50	104	0	75	25849
2026-01-02 20:07:23.81	91.54	16.63	-52.3	-57.0	3.7	0.00e+00	0	50	104	0	75	25974
2026-01-02 20:07:25.10	91.98	16.63	-52.0	-56.5	3.7	0.00e+00	0	50	104	0	75	24448
2026-01-02 20:07:25.98	92.29	16.62	-52.5	-56.9	3.7	0.00e+00	0	50	104	0	75	25559
2026-01-02 20:07:27.12	92.68	16.61	-52.2	-56.8	3.7	0.00e+00	0	50	104	0	75	25259
2026-01-02 20:07:28.22	93.06	16.60	-52.7	-57.1	3.7	0.00e+00	0	50	104	0	76	24803
2026-01-02 20:07:29.26	93.42	16.59	-52.5	-57.1	3.7	0.00e+00	0	50	104	0	76	24568
2026-01-02 20:07:30.25	93.76	16.58	-52.6	-57.0	3.7	0.00e+00	0	50	104	0	76	24389
2026-01-02 20:07:31.26	94.10	16.57	-52.5	-56.9	3.7	0.00e+00	0	50	104	0	76	23973
2026-01-02 20:07:32.26	94.45	16.55	-52.4	-56.7	3.7	0.00e+00	0	50	104	0	76	23679
2026-01-02 20:07:33.27	94.79	16.54	-52.5	-56.8	3.7	0.00e+00	0	50	104	0	76	23892
2026-01-02 20:07:34.27	95.14	16.53	-52.6	-57.0	3.7	0.00e+00	0	50	104	0	76	24330
2026-01-02 20:07:35.28	95.48	16.51	-52.7	-57.1	3.7	0.00e+00	0	50	104	0	76	24771
2026-01-02 20:07:36.28	95.82	16.50	-52.6	-57.0	3.7	0.00e+00	0	50	104	0	76	24449
2026-01-02 20:07:37.28	96.17	16.48	-52.5	-57.1	3.7	0.00e+00	0	50	104	0	76	24700
2026-01-02 20:07:38.28	96.51	16.46	-52.6	-57.0	3.7	0.00e+00	0	50	104	0	76	24418
2026-01-02 20:07:39.30	96.85	16.44	-52.4	-56.6	3.7	0.00e+00	0	50	104	0	76	23401
2026-01-02 20:07:40.31	97.20	16.42	-52.4	-56.8	3.7	0.00e+00	0	50	104	0	76	23806
2026-01-02 20:07:41.36	97.55	16.40	-52.3	-56.6	3.7	0.00e+00	0	50	104	0	76	23172
2026-01-02 20:07:42.24	97.85	16.38	-52.3	-56.9	3.7	0.00e+00	0	50	104	0	76	24213
2026-01-02 20:07:43.59	98.31	16.35	-52.4	-57.1	3.7	0.00e+00	0	50	104	0	76	24615
2026-01-02 20:07:44.31	98.55	16.34	-52.4	-57.0	3.7	0.00e+00	0	50	104	0	76	24454
2026-01-02 20:07:45.81	99.06	16.30	-52.7	-57.2	3.7	0.00e+00	0	50	104	0	76	24883
2026-01-02 20:07:46.52	99.30	16.28	-52.7	-57.2	3.7	0.00e+00	0	50	104	0	76	24831
2026-01-02 20:07:47.81	99.73	16.25	-52.7	-57.2	3.7	0.00e+00	0	50	104	0	76	24883
2026-01-02 20:07:48.53	99.97	16.23	-52.8	-57.2	3.7	0.00e+00	0	50	104	0	76	25051
2026-01-02 20:07:49.82	100.40	16.20	-52.8	-57.3	3.7	0.00e+00	0	50	104	0	76	25133
2026-01-02 20:07:50.54	100.64	16.18	-52.7	-57.3	3.7	0.00e+00	0	50	104	0	76	25125
2026-01-02 20:07:51.82	101.07	16.14	-52.6	-57.3	3.7	0.00e+00	0	50	104	0	76	25118
2026-01-02 20:07:52.54	101.31	16.12	-52.6	-57.2	3.7	0.00e+00	0	50	104	0	76	24966
2026-01-02 20:07:53.83	101.74	16.08	-52.6	-57.3	3.7	0.00e+00	0	50	104	0	76	25145
2026-01-02 20:07:54.55	101.98	16.06	-52.7	-57.3	3.7	0.00e+00	0	50	104	0	76	25316
2026-01-02 20:07:55.84	102.40	16.02	-52.7	-57.2	3.7	0.00e+00	0	50	104	0	76	24975
2026-01-02 20:07:56.56	102.64	15.99	-52.7	-57.2	3.7	0.00e+00	0	50	104	0	76	25044
2026-01-02 20:07:57.84	103.06	15.95	-52.7	-57.2	3.7	0.00e+00	0	50	104	0	76	24914
2026-01-02 20:07:58.56	103.30	15.93	-52.6	-57.2	3.7	0.00e+00	0	50	104	0	76	24853
2026-01-02 20:07:59.85	103.72	15.88	-52.7	-57.1	3.7	0.00e+00	0	50	104	0	76	24731
2026-01-02 20:08:00.57	103.95	15.86	-52.8	-57.2	3.7	0.00e+00	0	50	104	0	76	24809
2026-01-02 20:08:01.86	104.37	15.81	-52.7	-57.2	3.7	0.00e+00	0	50	104	0	76	24836
2026-01-02 20:08:02.58	104.60	15.79	-52.7	-57.1	3.7	0.00e+00	0	50	104	0	76	24770
2026-01-02 20:08:04.09	105.09	15.73	-52.7	-57.2	3.7	0.00e+00	0	50	104	0	76	25034
2026-01-02 20:08:05.08	105.41	15.69	-52.7	-57.1	3.7	0.00e+00	0	50	104	0	76	24708
2026-01-02 20:08:06.40	105.83	15.64	-52.6	-57.2	3.7	0.00e+00	0	50	104	0	76	24837
2026-01-02 20:08:07.12	106.06	15.61	-52.6	-57.0	3.7	0.00e+00	0	50	104	0	76	24338
2026-01-02 20:08:08.74	106.58	15.55	-52.5	-57.2	3.7	0.00e+00	0	50	104	0	76	24837
2026-01-02 20:08:09.31	106.76	15.52	-52.5	-57.1	3.7	0.00e+00	0	50	104	0	76	24747
2026-01-02 20:08:11.23	107.37	15.44	-52.3	-57.1	3.7	0.00e+00	0	50	104	0	76	24578
2026-01-02 20:08:11.80	107.55	15.42	-52.4	-57.1	3.7	0.00e+00	0	50	104	0	76	24599
2026-01-02 20:08:13.39	108.05	15.35	-52.5	-57.2	3.7	0.00e+00	0	50	104	0	76	24846
2026-01-02 20:08:13.96	108.23	15.32	-52.7	-57.3	3.7	0.00e+00	0	50	104	0	76	25121
2026-01-02 20:08:15.56	108.72	15.25	-52.7	-57.2	3.7	0.00e+00	0	50	104	0	76	25076
2026-01-02 20:08:16.13	108.90	15.23	-52.5	-57.1	3.7	0.00e+00	0	50	104	0	76	24643
2026-01-02 20:08:17.90	109.45	15.14	-52.5	-57.1	3.7	0.00e+00	0	50	104	0	76	24756
2026-01-02 20:08:18.47	109.62	15.12	-52.4	-57.1	3.7	0.00e+00	0	50	104	0	76	24568
2026-01-02 20:08:20.06	110.11	15.04	-52.5	-57.1	3.7	0.00e+00	0	50	104	0	76	24651
2026-01-02 20:08:21.05	110.41	14.99	-51.7	-55.9	3.7	0.00e+00	0	50	104	0	75	22767
2026-01-02 20:08:22.05	110.72	14.95	-52.1	-56.7	3.7	0.00e+00	0	50	104	0	75	24820
2026-01-02 20:08:23.06	111.02	14.90	-51.6	-55.9	3.7	0.00e+00	0	50	104	0	74	24177
2026-01-02 20:08:24.06	111.32	14.85	-51.9	-56.7	3.7	0.00e+00	0	50	104	0	74	26459
2026-01-02 20:08:25.06	111.63	14.80	-52.0	-56.7	3.7	0.00e+00	0	50	104	0	74	26367
2026-01-02 20:08:26.06	111.92	14.75	-52.2	-56.9	3.7	0.00e+00	0	50	104	0	74	27012
2026-01-02 20:08:27.07	112.23	14.69	-52.4	-57.1	3.7	0.00e+00	0	50	104	0	75	26142
2026-01-02 20:08:28.07	112.52	14.64	-52.5	-57.2	3.7	0.00e+00	0	50	104	0	75	26491
2026-01-02 20:08:29.07	112.82	14.59	-52.6	-57.1	3.7	0.00e+00	0	50	104	0	75	26123
2026-01-02 20:08:30.07	113.11	14.54	-52.6	-57.1	3.7	0.00e+00	0	50	104	0	75	26109
2026-01-02 20:08:31.08	113.41	14.48	-52.6	-57.2	3.7	0.00e+00	0	50	104	0	75	26446
2026-01-02 20:08:32.08	113.70	14.43	-52.5	-57.0	3.7	0.00e+00	0	50	104	0	75	25854
2026-01-02 20:08:33.08	113.99	14.38	-52.7	-57.1	3.7	0.00e+00	0	50	104	0	76	24803
2026-01-02 20:08:34.09	114.28	14.32	-52.7	-57.1	3.7	0.00e+00	0	50	104	0	76	24784
2026-01-02 20:08:35.09	114.57	14.27	-52.6	-57.1	3.7	0.00e+00	0	50	104	0	76	24686
2026-01-02 20:08:36.09	114.86	14.21	-52.6	-57.1	3.7	0.00e+00	0	50	104	0	76	24653
2026-01-02 20:08:37.10	115.15	14.15	-52.6	-57.0	3.7	0.00e+00	0	50	104	0	76	24345
2026-01-02 20:08:38.10	115.43	14.10	-52.7	-57.1	3.7	0.00e+00	0	50	104	0	76	24692
2026-01-02 20:08:39.10	115.72	14.04	-52.6	-57.0	3.7	0.00e+00	0	50	104	0	76	24264
2026-01-02 20:08:40.16	116.01	13.98	-52.6	-57.0	3.7	0.00e+00	0	50	104	0	76	24475
2026-01-02 20:08:41.06	116.27	13.93	-52.6	-57.1	3.7	0.00e+00	0	50	104	0	76	24792
2026-01-02 20:08:42.20	116.59	13.86	-52.5	-57.1	3.7	0.00e+00	0	50	104	0	76	24758
2026-01-02 20:08:43.06	116.82	13.81	-52.6	-57.1	3.7	0.00e+00	0	50	104	0	76	24684
2026-01-02 20:08:44.20	117.14	13.75	-52.4	-57.0	3.7	0.00e+00	0	50	104	0	76	24363
2026-01-02 20:08:45.06	117.38	13.70	-52.4	-57.0	3.7	0.00e+00	0	50	104	0	76	24504
2026-01-02 20:08:46.21	117.69	13.63	-52.3	-56.9	3.7	0.00e+00	0	50	104	0	76	24017
2026-01-02 20:08:47.07	117.93	13.58	-52.2	-56.8	3.7	0.00e+00	0	50	104	0	76	23921
2026-01-02 20:08:48.22	118.24	13.51	-52.4	-56.9	3.6	0.00e+00	0	50	104	0	76	24141
2026-01-02 20:08:49.08	118.47	13.46	-52.6	-57.1	3.7	0.00e+00	0	50	104	0	76	24683
2026-01-02 20:08:50.67	118.90	13.36	-52.6	-57.1	3.7	0.00e+00	0	50	104	0	76	24692
2026-01-02 20:08:51.24	119.05	13.33	-52.6	-57.0	3.7	0.00e+00	0	50	104	0	76	24490
2026-01-02 20:08:52.84	119.48	13.23	-52.5	-56.9	3.7	0.00e+00	0	50	104	0	76	24028
2026-01-02 20:08:53.41	119.63	13.19	-52.4	-56.8	3.7	0.00e+00	0	50	104	0	76	23931
2026-01-02 20:08:55.02	120.05	13.09	-52.4	-56.8	3.7	0.00e+00	0	50	104	0	76	23754
2026-01-02 20:08:55.59	120.20	13.06	-52.4	-56.9	3.7	0.00e+00	0	50	104	0	76	24158
2026-01-02 20:08:57.37	120.67	12.95	-52.4	-56.8	3.7	0.00e+00	0	50	104	0	76	23803
2026-01-02 20:08:57.95	120.82	12.91	-52.3	-56.8	3.7	0.00e+00	0	50	104	0	76	23799
2026-01-02 20:08:59.54	121.22	12.81	-52.3	-56.7	3.7	0.00e+00	0	50	104	0	76	23687
2026-01-02 20:09:00.11	121.37	12.78	-52.3	-56.9	3.7	0.00e+00	0	50	104	0	76	23995
2026-01-02 20:09:02.04	121.86	12.65	-52.4	-56.9	3.7	0.00e+00	0	50	104	0	76	24228
2026-01-02 20:09:02.62	122.01	12.62	-52.4	-57.0	3.7	0.00e+00	0	50	104	0	76	24373
2026-01-02 20:09:04.22	122.41	12.51	-52.3	-56.9	3.7	0.00e+00	0	50	104	0	76	23986
2026-01-02 20:09:04.80	122.55	12.48	-52.4	-56.9	3.7	0.00e+00	0	50	104	0	76	23998
2026-01-02 20:09:06.38	122.95	12.38	-52.4	-56.8	3.7	0.00e+00	0	50	104	0	76	23943
2026-01-02 20:09:06.99	123.10	12.34	-52.4	-56.7	3.7	0.00e+00	0	50	104	0	76	23648
2026-01-02 20:09:08.57	123.49	12.23	-52.5	-57.0	3.7	0.00e+00	0	50	104	0	76	24362
2026-01-02 20:09:09.16	123.63	12.20	-52.6	-57.0	3.7	0.00e+00	0	50	104	0	76	24338
2026-01-02 20:09:10.87	124.04	12.08	-52.4	-56.9	3.7	0.00e+00	0	50	104	0	76	24127
2026-01-02 20:09:11.45	124.18	12.05	-52.4	-56.9	3.7	0.00e+00	0	50	104	0	76	24089
2026-01-02 20:09:13.03	124.56	11.94	-52.4	-56.8	3.7	0.00e+00	0	50	104	0	76	23881
2026-01-02 20:09:13.60	124.70	11.90	-52.4	-56.9	3.7	0.00e+00	0	50	104	0	76	24099
2026-01-02 20:09:15.57	125.17	11.77	-52.2	-56.8	3.7	0.00e+00	0	50	104	0	76	23832
2026-01-02 20:09:16.14	125.30	11.74	-52.2	-56.7	3.7	0.00e+00	0	50	104	0	76	23549
2026-01-02 20:09:18.15	125.77	11.60	-52.5	-56.9	3.7	0.00e+00	0	50	104	0	76	24171
2026-01-02 20:09:18.72	125.90	11.57	-52.3	-56.8	3.7	0.00e+00	0	50	104	0	76	23754
2026-01-02 20:09:20.32	126.27	11.46	-52.5	-57.0	3.7	0.00e+00	0	50	104	0	76	24393
2026-01-02 20:09:20.89	126.40	11.42	-52.4	-57.0	3.7	0.00e+00	0	50	104	0	76	24358
2026-01-02 20:09:22.47	126.76	11.32	-52.1	-56.8	3.7	0.00e+00	0	50	104	0	75	25128
2026-01-02 20:09:23.07	126.90	11.28	-52.3	-56.9	3.7	0.00e+00	0	50	104	0	75	25521
2026-01-02 20:09:24.65	127.25	11.17	-51.9	-56.6	3.7	0.00e+00	0	50	104	0	75	24762
2026-01-02 20:09:25.43	127.43	11.12	-51.9	-56.6	3.7	0.00e+00	0	50	104	0	75	24617
2026-01-02 20:09:26.72	127.72	11.03	-51.7	-56.5	3.7	0.00e+00	0	50	104	0	75	24345
2026-01-02 20:09:27.61	127.91	10.97	-51.8	-56.4	3.7	0.00e+00	0	50	104	0	75	24102
2026-01-02 20:09:29.09	128.24	10.87	-51.9	-56.3	3.7	0.00e+00	0	50	104	0	75	23720
2026-01-02 20:09:29.80	128.39	10.82	-52.0	-56.3	3.7	0.00e+00	0	50	104	0	75	23933
2026-01-02 20:09:31.09	128.67	10.74	-52.0	-56.5	3.7	0.00e+00	0	50	104	0	75	24280
2026-01-02 20:09:31.81	128.83	10.69	-51.9	-56.4	3.7	0.00e+00	0	50	104	0	75	24209
2026-01-02 20:09:33.10	129.11	10.60	-52.1	-56.6	3.7	0.00e+00	0	50	104	0	75	24543
2026-01-02 20:09:33.86	129.27	10.55	-51.8	-56.2	3.7	0.00e+00	0	50	104	0	75	23687
2026-01-02 20:09:35.15	129.54	10.46	-52.0	-56.4	3.7	0.00e+00	0	50	104	0	75	24141
2026-01-02 20:09:35.96	129.71	10.41	-51.8	-56.3	3.7	0.00e+00	0	50	104	0	75	23705
2026-01-02 20:09:37.11	129.96	10.33	-51.4	-55.9	3.7	0.00e+00	0	50	104	0	74	23986
2026-01-02 20:09:37.97	130.14	10.27	-52.0	-56.4	3.7	0.00e+00	0	50	104	0	74	25476
2026-01-02 20:09:39.11	130.37	10.19	-51.5	-56.0	3.7	0.00e+00	0	50	104	0	74	24250
2026-01-02 20:09:39.97	130.55	10.13	-51.5	-56.0	3.7	0.00e+00	0	50	104	0	74	24473
2026-01-02 20:09:41.12	130.79	10.05	-51.7	-56.2	3.7	0.00e+00	0	50	104	0	74	24902
2026-01-02 20:09:41.98	130.96	10.00	-51.8	-56.3	3.7	0.00e+00	0	50	104	0	74	25349
2026-01-02 20:09:43.14	131.20	9.92	-52.0	-56.4	3.7	0.00e+00	0	50	104	0	74	25637
2026-01-02 20:09:44.40	131.45	9.83	-52.1	-56.5	3.7	0.00e+00	0	50	104	0	74	25924
2026-01-02 20:09:45.13	131.60	9.78	-51.8	-56.3	3.7	0.00e+00	0	50	104	0	74	25293
2026-01-02 20:09:46.42	131.86	9.69	-52.2	-56.7	3.7	0.00e+00	0	50	104	0	75	24972
2026-01-02 20:09:47.14	132.00	9.64	-52.2	-56.7	3.7	0.00e+00	0	50	104	0	75	25050
2026-01-02 20:09:48.48	132.26	9.55	-52.0	-56.6	3.7	0.00e+00	0	50	104	0	75	24676
2026-01-02 20:09:49.19	132.40	9.50	-52.1	-56.8	3.7	0.00e+00	0	50	104	0	75	25124
2026-01-02 20:09:50.56	132.67	9.41	-51.9	-56.3	3.7	0.00e+00	0	50	104	0	75	23932
2026-01-02 20:09:51.28	132.81	9.36	-51.8	-56.2	3.7	0.00e+00	0	50	104	0	75	23619
2026-01-02 20:09:52.57	133.06	9.27	-51.8	-56.1	3.7	0.00e+00	0	50	104	0	75	23308
2026-01-02 20:09:53.29	133.19	9.22	-51.9	-56.2	3.7	0.00e+00	0	50	104	0	75	23428
2026-01-02 20:09:54.58	133.44	9.14	-52.0	-56.4	3.6	0.00e+00	0	50	104	0	75	23971
2026-01-02 20:09:55.29	133.57	9.09	-52.0	-56.4	3.7	0.00e+00	0	50	104	0	75	24235
2026-01-02 20:09:56.78	133.85	8.99	-52.1	-56.4	3.7	0.00e+00	0	50	104	0	75	24047
2026-01-02 20:09:57.49	133.99	8.94	-51.9	-56.3	3.7	0.00e+00	0	50	104	0	75	23729
2026-01-02 20:09:58.78	134.23	8.85	-52.4	-56.6	3.7	0.00e+00	0	50	104	0	75	24573
2026-01-02 20:09:59.50	134.36	8.80	-52.6	-56.8	3.7	0.00e+00	0	50	104	0	75	25292
2026-01-02 20:10:00.79	134.60	8.71	-52.7	-57.1	3.7	0.00e+00	0	50	104	0	76	24535
2026-01-02 20:10:01.51	134.73	8.67	-52.7	-57.2	3.7	0.00e+00	0	50	104	0	76	24862
2026-01-02 20:10:02.80	134.96	8.58	-52.9	-57.4	3.7	0.00e+00	0	50	104	0	76	25419
2026-01-02 20:10:03.52	135.09	8.53	-52.9	-57.3	3.7	0.00e+00	0	50	104	0	76	25337
2026-01-02 20:10:04.81	135.33	8.44	-52.9	-57.4	3.7	0.00e+00	0	50	104	0	76	25392
2026-01-02 20:10:05.53	135.45	8.39	-52.3	-57.1	3.7	0.00e+00	0	50	104	0	76	24565
2026-01-02 20:10:06.82	135.68	8.31	-52.4	-56.6	3.7	0.00e+00	0	50	104	0	76	23256
2026-01-02 20:10:07.54	135.81	8.26	-52.5	-56.9	3.7	0.00e+00	0	50	104	0	76	24227
2026-01-02 20:10:08.83	136.04	8.17	-52.6	-57.4	3.7	0.00e+00	0	50	104	0	76	25475
2026-01-02 20:10:09.55	136.16	8.12	-52.6	-57.4	3.7	0.00e+00	0	50	104	0	76	25476
2026-01-02 20:10:10.84	136.39	8.03	-52.7	-57.4	3.7	0.00e+00	0	50	104	0	77	24237
2026-01-02 20:10:11.55	136.51	7.99	-52.3	-57.1	3.7	0.00e+00	0	50	104	0	76	24614
2026-01-02 20:10:12.84	136.73	7.90	-52.9	-57.5	3.7	0.00e+00	0	50	104	0	76	25687
2026-01-02 20:10:13.56	136.85	7.85	-52.2	-57.1	3.7	0.00e+00	0	50	104	0	76	24688
2026-01-02 20:10:14.85	137.07	7.76	-52.1	-56.9	3.7	0.00e+00	0	50	104	0	76	24024
2026-01-02 20:10:15.57	137.19	7.71	-52.1	-56.7	3.7	0.00e+00	0	50	104	0	76	23590
2026-01-02 20:10:16.86	137.41	7.63	-52.2	-56.8	3.7	0.00e+00	0	50	104	0	75	25122
2026-01-02 20:10:17.58	137.53	7.58	-52.4	-57.0	3.7	0.00e+00	0	50	104	0	75	25951
2026-01-02 20:10:18.87	137.74	7.49	-52.4	-57.0	3.7	0.00e+00	0	50	104	0	75	25975
2026-01-02 20:10:19.59	137.86	7.44	-52.4	-57.0	3.7	0.00e+00	0	50	104	0	75	25869
2026-01-02 20:10:20.88	138.08	7.36	-52.3	-57.0	3.7	0.00e+00	0	50	104	0	75	25853
2026-01-02 20:10:21.60	138.19	7.31	-52.4	-57.0	3.7	0.00e+00	0	50	104	0	75	25800
2026-01-02 20:10:22.88	138.40	7.22	-52.3	-57.0	3.7	0.00e+00	0	50	104	0	75	25906
2026-01-02 20:10:23.60	138.52	7.18	-52.4	-57.0	3.7	0.00e+00	0	50	104	0	75	25942
2026-01-02 20:10:24.89	138.72	7.09	-52.3	-57.0	3.7	0.00e+00	0	50	104	0	75	25837
2026-01-02 20:10:25.61	138.84	7.04	-52.3	-57.0	3.7	0.00e+00	0	50	104	0	75	25821
2026-01-02 20:10:26.90	139.04	6.96	-52.3	-57.0	3.7	0.00e+00	0	50	104	0	75	25812
2026-01-02 20:10:27.62	139.16	6.91	-52.3	-57.0	3.7	0.00e+00	0	50	104	0	75	25687
2026-01-02 20:10:28.91	139.36	6.82	-52.3	-57.0	3.7	0.00e+00	0	50	104	0	75	25845
2026-01-02 20:10:29.63	139.47	6.78	-52.3	-57.0	3.7	0.00e+00	0	50	104	0	75	25788
2026-01-02 20:10:30.92	139.67	6.69	-52.3	-57.0	3.7	0.00e+00	0	50	104	0	75	25806
2026-01-02 20:10:31.64	139.78	6.64	-52.3	-57.0	3.7	0.00e+00	0	50	104	0	75	25745
2026-01-02 20:10:32.93	139.98	6.56	-52.3	-57.0	3.7	0.00e+00	0	50	104	0	75	25766
2026-01-02 20:10:33.65	140.09	6.51	-52.3	-57.0	3.7	0.00e+00	0	50	104	0	75	25776
2026-01-02 20:10:34.94	140.29	6.43	-52.4	-57.0	3.7	0.00e+00	0	50	104	0	75	25880
2026-01-02 20:10:35.65	140.39	6.38	-52.3	-57.0	3.7	0.00e+00	0	50	104	0	75	25830
2026-01-02 20:10:36.94	140.59	6.29	-52.3	-57.0	3.7	0.00e+00	0	50	104	0	75	25775
2026-01-02 20:10:37.66	140.69	6.25	-52.3	-57.0	3.7	0.00e+00	0	50	104	0	75	25741
2026-01-02 20:10:38.95	140.88	6.16	-52.3	-57.0	3.7	0.00e+00	0	50	104	0	75	25766
2026-01-02 20:10:39.67	140.99	6.11	-52.3	-57.0	3.7	0.00e+00	0	50	104	0	75	25779
2026-01-02 20:10:40.96	141.18	6.03	-52.3	-57.0	3.7	0.00e+00	0	50	104	0	75	25825
2026-01-02 20:10:41.68	141.28	5.98	-52.3	-57.0	3.7	0.00e+00	0	50	104	0	75	25679
2026-01-02 20:10:42.97	141.47	5.90	-52.3	-57.0	3.7	0.00e+00	0	50	104	0	75	25765
2026-01-02 20:10:43.69	141.58	5.85	-52.3	-57.0	3.7	0.00e+00	0	50	104	0	75	25772
2026-01-02 20:10:44.98	141.76	5.77	-52.3	-57.0	3.7	0.00e+00	0	50	104	0	75	25830
2026-01-02 20:10:45.70	141.86	5.72	-52.3	-57.0	3.7	0.00e+00	0	50	104	0	75	25747
2026-01-02 20:10:46.99	142.05	5.64	-52.3	-57.0	3.7	0.00e+00	0	50	104	0	75	25798
2026-01-02 20:10:47.71	142.15	5.59	-52.3	-57.0	3.7	0.00e+00	0	50	104	0	75	25762
2026-01-02 20:10:48.99	142.33	5.51	-52.3	-57.0	3.7	0.00e+00	0	50	104	0	75	25793
2026-01-02 20:10:49.71	142.43	5.46	-52.3	-57.0	3.7	0.00e+00	0	50	104	0	75	25860
2026-01-02 20:10:51.01	142.61	5.38	-52.3	-57.0	3.7	0.00e+00	0	50	104	0	75	25760
2026-01-02 20:10:51.72	142.71	5.33	-52.3	-57.0	3.7	0.00e+00	0	50	104	0	75	25755
2026-01-02 20:10:53.01	142.88	5.25	-52.3	-57.0	3.7	0.00e+00	0	50	104	0	75	25755
2026-01-02 20:10:53.73	142.98	5.20	-52.3	-57.0	3.7	0.00e+00	0	50	104	0	75	25782
2026-01-02 20:10:55.02	143.16	5.12	-52.3	-57.0	3.7	0.00e+00	0	50	104	0	75	25884
2026-01-02 20:10:55.74	143.25	5.08	-52.3	-57.0	3.7	0.00e+00	0	50	104	0	75	25755
2026-01-02 20:10:57.03	143.43	4.99	-52.3	-57.0	3.7	0.00e+00	0	50	104	0	75	25777
2026-01-02 20:10:57.75	143.52	4.95	-52.3	-57.0	3.7	0.00e+00	0	50	104	0	75	25848

#Closed at: 2026-01-02 20:10:59
#Recorded file [0 MB]: D:/Data/31040_260102_230336.dat