passes_logs/2026/01/02/T1/T1__20260102_235954_SUOMI_NPP_rec.log

#Pass ID: 20260102_235954_SUOMI NPP
#Satellite: SUOMI NPP
#Configuration: NPP
#almurnet v.1.7.20251203
#Start time: 2026-01-02 23:59:54

#Version: 2.0.20230620
#Station: T1
#Location: 37.570604 lon 55.790049 lat
#TLE: 1 37849U 11061A   26001.07732418  .00000182  00000+0  10735-3 0  9990
#TLE: 2 37849  98.7795 303.2470 0002580  87.2016 272.9455 14.19520779734739

#Time	Az	El	Level	Level2	SNR	BER	BlckErr	Temp	State	Recorded	gain1	gain2
2026-01-02 23:59:54.28	14.85	5.02	-47.1	-63.8	3.8	1.49e+00	0	39	0	0	64	26487
2026-01-02 23:59:55.28	14.84	5.09	-47.1	-63.8	3.8	1.49e+00	0	39	104	0	64	26507
2026-01-02 23:59:56.28	14.83	5.17	-47.0	-63.8	3.8	1.49e+00	0	39	104	0	64	26525
2026-01-02 23:59:57.29	14.82	5.24	-47.0	-63.8	3.8	1.49e+00	0	39	104	0	64	26596
2026-01-02 23:59:58.29	14.81	5.31	-47.1	-63.8	3.8	1.49e+00	0	40	104	0	64	26699
2026-01-02 23:59:59.30	14.80	5.38	-47.0	-63.8	3.8	1.49e+00	0	40	104	0	64	26680
2026-01-03 00:00:00.30	14.79	5.45	-47.0	-63.8	3.8	1.49e+00	0	40	104	0	64	26755
2026-01-03 00:00:01.30	14.78	5.53	-47.1	-63.8	3.8	1.49e+00	0	40	104	0	64	26718
2026-01-03 00:00:02.31	14.78	5.60	-47.0	-63.8	3.8	1.49e+00	0	40	104	0	64	26760
2026-01-03 00:00:03.31	14.77	5.67	-47.0	-63.8	3.8	1.49e+00	0	40	104	0	64	26697
2026-01-03 00:00:04.32	14.76	5.75	-47.0	-63.8	3.8	1.49e+00	0	40	104	0	64	26578
2026-01-03 00:00:05.32	14.75	5.82	-47.0	-63.8	3.8	1.49e+00	0	40	104	0	64	26639
2026-01-03 00:00:06.33	14.74	5.89	-47.1	-63.8	3.8	1.49e+00	0	40	104	0	64	26511
2026-01-03 00:00:07.33	14.73	5.97	-47.0	-63.8	3.8	1.49e+00	0	40	104	0	64	26702
2026-01-03 00:00:08.34	14.72	6.04	-47.1	-63.8	3.8	1.49e+00	0	40	104	0	64	26530
2026-01-03 00:00:09.34	14.71	6.12	-47.0	-63.8	3.8	1.49e+00	0	40	104	0	64	26489
2026-01-03 00:00:10.34	14.70	6.19	-47.0	-63.8	3.8	1.49e+00	0	40	104	0	64	26496
2026-01-03 00:00:11.35	14.69	6.26	-47.0	-63.8	3.8	1.49e+00	0	40	104	0	64	26633
2026-01-03 00:00:12.35	14.68	6.34	-47.1	-63.8	3.8	1.49e+00	0	40	104	0	64	26524
2026-01-03 00:00:13.35	14.67	6.41	-47.0	-63.8	3.8	1.49e+00	0	40	104	0	64	26477
2026-01-03 00:00:14.36	14.66	6.49	-47.0	-63.8	3.8	1.49e+00	0	40	104	0	64	26539
2026-01-03 00:00:15.36	14.65	6.56	-47.0	-63.8	3.8	1.49e+00	0	40	104	0	64	26565
2026-01-03 00:00:16.37	14.64	6.64	-47.0	-63.7	3.8	1.49e+00	0	40	104	0	64	26419
2026-01-03 00:00:17.37	14.63	6.72	-47.0	-63.8	3.8	1.49e+00	0	40	104	0	64	26519
2026-01-03 00:00:18.38	14.62	6.79	-47.0	-63.8	3.8	1.49e+00	0	40	104	0	64	26613
2026-01-03 00:00:19.38	14.61	6.87	-47.0	-63.8	3.8	1.49e+00	0	40	104	0	64	26691
2026-01-03 00:00:20.39	14.59	6.95	-47.0	-63.8	3.8	1.49e+00	0	40	104	0	64	26711
2026-01-03 00:00:21.39	14.58	7.02	-47.0	-63.8	3.8	1.49e+00	0	40	104	0	64	26683
2026-01-03 00:00:22.39	14.57	7.10	-47.0	-63.8	3.8	1.49e+00	0	40	104	0	64	26544
2026-01-03 00:00:23.40	14.56	7.18	-47.0	-63.7	3.8	1.49e+00	0	40	104	0	64	26260
2026-01-03 00:00:24.41	14.55	7.26	-47.0	-63.5	3.8	1.49e+00	0	40	104	0	64	25674
2026-01-03 00:00:25.41	14.54	7.33	-47.0	-63.1	3.8	1.49e+00	0	40	104	0	64	24650
2026-01-03 00:00:26.41	14.53	7.41	-47.0	-62.7	3.8	1.49e+00	0	40	104	0	64	23412
2026-01-03 00:00:27.42	14.52	7.49	-47.0	-62.3	3.8	1.49e+00	0	40	104	0	64	22286
2026-01-03 00:00:28.42	14.51	7.57	-46.9	-61.6	3.8	1.48e+00	0	41	104	0	64	20560
2026-01-03 00:00:29.43	14.50	7.65	-46.9	-60.9	3.9	1.47e+00	0	41	104	0	64	19024
2026-01-03 00:00:30.43	14.48	7.73	-46.9	-60.1	4.2	1.42e+00	0	41	0	0	64	17374
2026-01-03 00:00:31.43	14.47	7.81	-46.8	-59.4	4.5	1.22e+00	0	41	0	1048576	64	16111
2026-01-03 00:00:32.43	14.46	7.88	-46.8	-58.8	4.7	9.40e-01	0	41	0	2097152	64	14956
2026-01-03 00:00:33.44	14.45	7.97	-46.7	-58.3	5.0	7.93e-01	0	41	0	4194304	64	14174
2026-01-03 00:00:34.44	14.44	8.04	-46.7	-57.7	5.4	5.58e-01	0	41	0	6291456	64	13121
2026-01-03 00:00:35.45	14.43	8.13	-46.6	-57.0	5.8	4.21e-01	0	41	0	8388608	64	12114
2026-01-03 00:00:36.45	14.41	8.21	-46.5	-56.4	6.2	3.14e-01	0	41	0	10485760	64	11344
2026-01-03 00:00:37.46	14.40	8.29	-46.4	-55.9	6.6	2.37e-01	0	41	0	11534336	64	10699
2026-01-03 00:00:38.46	14.39	8.37	-46.3	-55.4	7.1	1.74e-01	0	41	0	13631488	64	10132
2026-01-03 00:00:39.47	14.38	8.45	-46.3	-55.2	7.3	1.26e-01	0	41	0	15728640	64	9832
2026-01-03 00:00:40.47	14.36	8.53	-46.2	-54.7	7.7	1.08e-01	0	41	0	17825792	64	9385
2026-01-03 00:00:41.47	14.35	8.61	-46.2	-54.6	7.9	8.75e-02	0	41	0	19922944	64	9185
2026-01-03 00:00:42.48	14.34	8.69	-46.2	-54.7	7.7	8.33e-02	0	41	0	20971520	64	9316
2026-01-03 00:00:43.48	14.33	8.78	-46.2	-54.6	7.8	9.22e-02	0	41	0	23068672	64	9277
2026-01-03 00:00:44.49	14.31	8.86	-46.2	-54.9	7.6	8.64e-02	0	41	0	25165824	64	9521
2026-01-03 00:00:45.49	14.30	8.94	-46.3	-55.3	7.2	1.26e-01	0	41	0	27262976	64	10025
2026-01-03 00:00:46.49	14.29	9.03	-46.4	-55.9	6.7	1.75e-01	0	41	0	29360128	64	10716
2026-01-03 00:00:47.50	14.28	9.11	-46.5	-56.7	6.0	2.52e-01	0	41	0	30408704	64	11691
2026-01-03 00:00:48.50	14.26	9.19	-46.3	-55.6	6.9	3.87e-01	0	41	0	32505856	64	10373
2026-01-03 00:00:49.50	14.25	9.28	-46.4	-56.4	6.4	7.92e-02	0	41	0	34603008	64	11359
2026-01-03 00:00:50.51	14.24	9.36	-46.8	-61.4	3.9	1.46e+00	0	41	104	34603008	64	20224
2026-01-03 00:00:51.51	14.22	9.45	-46.2	-54.7	7.5	9.82e-01	0	41	0	34603008	64	9299
2026-01-03 00:00:52.51	14.21	9.53	-44.9	-49.6	13.1	2.28e-05	0	41	0	36700160	61	6169
2026-01-03 00:00:53.52	14.19	9.62	-44.9	-49.7	13.1	2.97e-05	0	41	0	38797312	61	6204
2026-01-03 00:00:54.52	14.18	9.70	-44.7	-49.4	13.2	1.83e-05	0	41	0	39845888	61	6011
2026-01-03 00:00:55.52	14.17	9.79	-44.7	-49.2	13.6	1.14e-05	0	41	0	41943040	61	5886
2026-01-03 00:00:56.54	14.15	9.87	-44.5	-48.8	13.9	9.90e-06	0	41	0	44040192	61	5622
2026-01-03 00:00:57.54	14.14	9.96	-44.6	-49.0	13.7	6.10e-06	0	41	0	46137344	61	5784
2026-01-03 00:00:58.55	14.12	10.05	-44.5	-48.9	13.8	6.10e-06	0	41	0	48234496	60	6061
2026-01-03 00:00:59.55	14.11	10.13	-44.5	-48.9	13.8	0.00e+00	0	41	0	49283072	60	6053
2026-01-03 00:01:00.55	14.10	10.22	-44.4	-48.8	13.9	6.10e-06	0	41	0	51380224	60	5966
2026-01-03 00:01:01.55	14.08	10.31	-44.2	-48.3	14.4	1.50e-06	0	41	0	53477376	60	5626
2026-01-03 00:01:02.55	14.07	10.40	-44.1	-48.0	14.7	1.50e-06	0	41	0	55574528	60	5448
2026-01-03 00:01:03.56	14.05	10.48	-44.0	-47.8	14.9	7.00e-07	0	41	0	57671680	59	5625
2026-01-03 00:01:04.56	14.04	10.57	-44.1	-47.9	14.8	0.00e+00	0	41	0	58720256	59	5690
2026-01-03 00:01:05.56	14.02	10.66	-43.8	-47.4	15.3	0.00e+00	0	41	0	60817408	59	5402
2026-01-03 00:01:06.56	14.01	10.75	-43.9	-47.5	15.2	0.00e+00	0	41	0	62914560	59	5432
2026-01-03 00:01:07.57	13.99	10.84	-43.8	-47.4	15.3	0.00e+00	0	41	0	65011712	59	5353
2026-01-03 00:01:08.57	13.98	10.93	-43.7	-47.3	15.5	0.00e+00	0	41	0	67108864	59	5281
2026-01-03 00:01:09.57	13.96	11.02	-43.7	-47.2	15.6	0.00e+00	0	41	0	68157440	59	5238
2026-01-03 00:01:10.58	13.95	11.11	-43.5	-46.9	15.8	0.00e+00	0	41	0	70254592	59	5098
2026-01-03 00:01:11.58	13.93	11.20	-43.6	-47.0	15.7	0.00e+00	0	41	0	72351744	59	5150
2026-01-03 00:01:12.58	13.91	11.29	-43.6	-47.0	15.7	0.00e+00	0	41	0	74448896	59	5112
2026-01-03 00:01:13.58	13.90	11.38	-43.6	-46.8	15.9	0.00e+00	0	42	0	76546048	59	5040
2026-01-03 00:01:14.59	13.88	11.47	-43.5	-46.8	16.0	0.00e+00	0	41	0	77594624	59	4990
2026-01-03 00:01:15.59	13.87	11.57	-43.4	-46.7	16.0	0.00e+00	0	41	0	79691776	58	5275
2026-01-03 00:01:16.59	13.85	11.66	-43.4	-46.8	16.0	0.00e+00	0	41	0	81788928	58	5286
2026-01-03 00:01:17.60	13.83	11.75	-43.4	-46.6	16.1	0.00e+00	0	41	0	83886080	58	5214
2026-01-03 00:01:18.60	13.82	11.84	-43.5	-46.8	16.0	0.00e+00	0	41	0	84934656	58	5284
2026-01-03 00:01:19.60	13.80	11.94	-43.4	-46.6	16.1	0.00e+00	0	42	0	87031808	58	5199
2026-01-03 00:01:20.60	13.78	12.03	-43.4	-46.6	16.1	0.00e+00	0	41	0	89128960	58	5214
2026-01-03 00:01:21.61	13.77	12.13	-43.3	-46.5	16.2	0.00e+00	0	41	0	91226112	58	5125
2026-01-03 00:01:22.60	13.75	12.22	-43.3	-46.6	16.2	0.00e+00	0	41	0	93323264	58	5180
2026-01-03 00:01:23.61	13.73	12.32	-43.2	-46.4	16.4	0.00e+00	0	41	0	95420416	58	5053
2026-01-03 00:01:24.61	13.72	12.41	-43.2	-46.5	16.3	0.00e+00	0	42	0	96468992	58	5104
2026-01-03 00:01:25.61	13.70	12.51	-43.1	-46.4	16.4	0.00e+00	0	42	0	98566144	58	5042
2026-01-03 00:01:26.61	13.68	12.60	-43.1	-46.3	16.4	0.00e+00	0	41	0	100663296	58	5032
2026-01-03 00:01:27.62	13.66	12.70	-43.2	-46.5	16.3	0.00e+00	0	41	0	102760448	58	5126
2026-01-03 00:01:28.70	13.64	12.80	-43.1	-46.4	16.4	0.00e+00	0	41	0	104857600	58	5077
2026-01-03 00:01:29.56	13.63	12.89	-43.1	-46.4	16.4	0.00e+00	0	42	0	105906176	58	5053
2026-01-03 00:01:30.70	13.61	13.00	-43.0	-46.3	16.5	0.00e+00	0	42	0	108003328	58	5010
2026-01-03 00:01:31.66	13.59	13.09	-43.2	-46.5	16.3	0.00e+00	0	42	0	110100480	58	5135
2026-01-03 00:01:32.83	13.57	13.21	-43.2	-46.6	16.2	0.00e+00	0	42	0	112197632	58	5186
2026-01-03 00:01:33.72	13.55	13.29	-43.2	-46.5	16.3	0.00e+00	0	42	0	114294784	58	5157
2026-01-03 00:01:35.04	13.53	13.42	-42.9	-46.2	16.6	0.00e+00	0	42	0	116391936	57	5222
2026-01-03 00:01:35.75	13.51	13.49	-43.1	-46.3	16.5	0.00e+00	0	42	0	117440512	57	5327
2026-01-03 00:01:37.26	13.48	13.64	-42.9	-46.1	16.7	0.00e+00	0	42	0	120586240	57	5206
2026-01-03 00:01:37.98	13.47	13.72	-42.8	-46.1	16.7	0.00e+00	0	42	0	121634816	57	5167
2026-01-03 00:01:39.27	13.45	13.85	-42.9	-46.2	16.6	0.00e+00	0	42	0	123731968	57	5241
2026-01-03 00:01:39.99	13.43	13.92	-42.8	-46.1	16.6	0.00e+00	0	42	0	125829120	57	5210
2026-01-03 00:01:41.28	13.41	14.05	-43.0	-46.3	16.5	0.00e+00	0	42	0	127926272	57	5328
2026-01-03 00:01:41.99	13.39	14.12	-42.9	-46.1	16.7	0.00e+00	0	42	0	128974848	57	5202
2026-01-03 00:01:43.28	13.37	14.25	-42.8	-46.0	16.9	0.00e+00	0	42	0	132120576	57	5114
2026-01-03 00:01:44.00	13.35	14.33	-42.7	-45.9	16.8	0.00e+00	0	42	0	133169152	57	5095
2026-01-03 00:01:45.29	13.32	14.46	-42.7	-45.9	16.9	0.00e+00	0	42	0	135266304	57	5052
2026-01-03 00:01:46.06	13.31	14.54	-42.7	-45.9	16.9	0.00e+00	0	42	0	137363456	57	5097
2026-01-03 00:01:47.67	13.28	14.71	-42.6	-45.6	17.1	0.00e+00	0	42	0	140509184	57	4910
2026-01-03 00:01:48.25	13.26	14.77	-42.4	-45.4	17.3	0.00e+00	0	42	0	140509184	56	5089
2026-01-03 00:01:50.06	13.22	14.96	-42.4	-45.4	17.4	0.00e+00	0	42	0	144703488	56	5072
2026-01-03 00:01:50.63	13.21	15.02	-42.3	-45.3	17.5	0.00e+00	0	42	0	145752064	56	5019
2026-01-03 00:01:52.21	13.18	15.19	-42.1	-45.1	17.7	0.00e+00	0	42	0	148897792	56	4871
2026-01-03 00:01:52.80	13.17	15.25	-42.2	-45.2	17.5	0.00e+00	0	42	0	149946368	56	4968
2026-01-03 00:01:54.37	13.13	15.42	-42.1	-45.0	17.7	0.00e+00	0	41	0	152043520	56	4869
2026-01-03 00:01:54.96	13.12	15.48	-42.0	-44.9	17.8	0.00e+00	0	42	0	154140672	56	4809
2026-01-03 00:01:56.54	13.08	15.65	-42.1	-45.0	17.7	0.00e+00	0	42	0	156237824	56	4848
2026-01-03 00:01:57.13	13.07	15.72	-42.0	-44.9	17.9	0.00e+00	0	42	0	157286400	56	4783
2026-01-03 00:01:58.70	13.03	15.89	-41.7	-44.5	18.0	0.00e+00	0	42	0	160432128	55	4869
2026-01-03 00:01:59.33	13.02	15.96	-41.7	-44.5	18.0	0.00e+00	0	42	0	161480704	55	4859
2026-01-03 00:02:00.79	12.98	16.12	-41.7	-44.6	18.0	0.00e+00	0	42	0	164626432	55	4872
2026-01-03 00:02:01.50	12.97	16.20	-41.7	-44.5	18.1	0.00e+00	0	42	0	165675008	55	4840
2026-01-03 00:02:02.79	12.94	16.34	-41.7	-44.4	18.2	0.00e+00	0	42	0	168820736	55	4797
2026-01-03 00:02:03.67	12.92	16.44	-41.7	-44.4	18.2	0.00e+00	0	42	0	169869312	55	4803
2026-01-03 00:02:04.82	12.89	16.57	-41.7	-44.4	18.2	0.00e+00	0	42	0	171966464	55	4787
2026-01-03 00:02:05.68	12.87	16.67	-41.7	-44.4	18.2	0.00e+00	0	42	0	174063616	55	4791
2026-01-03 00:02:06.82	12.84	16.80	-41.7	-44.3	18.2	0.00e+00	0	42	0	176160768	55	4758
2026-01-03 00:02:07.68	12.82	16.90	-41.8	-44.4	18.2	0.00e+00	0	42	0	177209344	55	4798
2026-01-03 00:02:08.82	12.79	17.03	-41.7	-44.3	18.3	0.00e+00	0	42	0	179306496	55	4750
2026-01-03 00:02:09.69	12.77	17.13	-41.7	-44.3	18.2	0.00e+00	0	42	0	181403648	55	4757
2026-01-03 00:02:10.83	12.74	17.26	-41.7	-44.3	18.3	0.00e+00	0	42	0	183500800	55	4740
2026-01-03 00:02:11.68	12.72	17.36	-41.8	-44.5	18.2	0.00e+00	0	42	0	184549376	55	4822
2026-01-03 00:02:12.92	12.68	17.50	-41.8	-44.4	18.2	0.00e+00	0	42	0	187695104	55	4784
2026-01-03 00:02:13.78	12.66	17.60	-41.8	-44.4	18.2	0.00e+00	0	42	0	188743680	55	4798
2026-01-03 00:02:14.93	12.63	17.74	-41.9	-44.5	18.1	0.00e+00	0	42	0	190840832	55	4843
2026-01-03 00:02:15.79	12.61	17.84	-41.9	-44.6	18.1	0.00e+00	0	42	0	192937984	55	4880
2026-01-03 00:02:17.09	12.57	17.99	-41.8	-44.4	18.2	0.00e+00	0	42	0	195035136	55	4804
2026-01-03 00:02:17.81	12.55	18.08	-41.8	-44.4	18.2	0.00e+00	0	42	0	196083712	55	4801
2026-01-03 00:02:19.10	12.52	18.24	-41.7	-44.2	18.4	0.00e+00	0	42	0	199229440	55	4689
2026-01-03 00:02:19.81	12.50	18.32	-41.8	-44.4	18.3	0.00e+00	0	42	0	200278016	55	4786
2026-01-03 00:02:21.10	12.46	18.48	-41.8	-44.4	18.2	0.00e+00	0	42	0	202375168	55	4801
2026-01-03 00:02:21.91	12.44	18.58	-41.7	-44.3	18.3	0.00e+00	0	42	0	204472320	55	4737
2026-01-03 00:02:23.06	12.41	18.72	-41.7	-44.3	18.3	0.00e+00	0	42	0	206569472	55	4729
2026-01-03 00:02:24.15	12.38	18.85	-41.6	-44.2	18.5	0.00e+00	0	42	0	208666624	55	4670
2026-01-03 00:02:25.01	12.35	18.96	-41.7	-44.2	18.4	0.00e+00	0	42	0	209715200	55	4690
2026-01-03 00:02:26.15	12.32	19.10	-41.7	-44.2	18.4	0.00e+00	0	42	0	211812352	55	4690
2026-01-03 00:02:27.01	12.29	19.21	-41.7	-44.3	18.4	0.00e+00	0	42	0	213909504	55	4709
2026-01-03 00:02:28.15	12.26	19.35	-41.8	-44.4	18.2	0.00e+00	0	42	0	216006656	55	4812
2026-01-03 00:02:29.37	12.22	19.51	-41.8	-44.4	18.2	0.00e+00	0	42	0	218103808	55	4794
2026-01-03 00:02:30.23	12.20	19.62	-42.0	-44.6	18.1	0.00e+00	0	42	0	220200960	55	4915
2026-01-03 00:02:31.37	12.16	19.76	-42.1	-44.8	17.9	0.00e+00	0	42	0	222298112	55	5030
2026-01-03 00:02:32.23	12.13	19.87	-41.9	-44.6	18.1	0.00e+00	0	42	0	223346688	55	4878
2026-01-03 00:02:33.38	12.10	20.02	-42.1	-44.8	17.9	0.00e+00	0	42	0	225443840	55	5018
2026-01-03 00:02:34.24	12.07	20.13	-42.2	-44.9	17.8	0.00e+00	0	42	0	227540992	55	5081
2026-01-03 00:02:35.38	12.03	20.28	-42.3	-45.0	17.7	0.00e+00	0	42	0	229638144	55	5142
2026-01-03 00:02:36.24	12.01	20.39	-42.3	-45.1	17.6	0.00e+00	0	42	0	230686720	55	5175
2026-01-03 00:02:37.39	11.97	20.55	-42.2	-44.9	17.8	0.00e+00	0	42	0	232783872	55	5095
2026-01-03 00:02:38.24	11.94	20.66	-42.2	-44.9	17.8	0.00e+00	0	42	0	234881024	55	5069
2026-01-03 00:02:39.52	11.90	20.83	-42.3	-45.1	17.6	0.00e+00	0	42	0	236978176	55	5193
2026-01-03 00:02:40.25	11.87	20.93	-42.2	-44.9	17.8	0.00e+00	0	42	0	238026752	55	5079
2026-01-03 00:02:41.78	11.82	21.13	-42.3	-45.1	17.6	0.00e+00	0	42	0	241172480	55	5173
2026-01-03 00:02:42.49	11.80	21.23	-42.4	-45.2	17.5	0.00e+00	0	42	0	242221056	55	5225
2026-01-03 00:02:43.78	11.75	21.40	-42.3	-44.9	17.7	0.00e+00	0	42	0	245366784	55	5094
2026-01-03 00:02:44.50	11.73	21.50	-42.4	-45.1	17.7	0.00e+00	0	42	0	246415360	55	5162
2026-01-03 00:02:45.79	11.68	21.68	-42.1	-44.7	18.0	0.00e+00	0	42	0	248512512	55	4930
2026-01-03 00:02:46.50	11.66	21.78	-42.1	-44.7	18.1	0.00e+00	0	42	0	250609664	55	4935
2026-01-03 00:02:47.79	11.61	21.96	-42.2	-44.7	18.0	0.00e+00	0	42	0	252706816	55	4948
2026-01-03 00:02:48.51	11.59	22.06	-42.1	-44.7	18.1	0.00e+00	0	42	0	253755392	55	4929
2026-01-03 00:02:49.80	11.54	22.24	-42.2	-44.7	18.0	0.00e+00	0	42	0	256901120	55	4945
2026-01-03 00:02:50.52	11.51	22.34	-42.1	-44.6	18.2	0.00e+00	0	42	0	257949696	55	4880
2026-01-03 00:02:51.81	11.46	22.53	-42.0	-44.4	18.3	0.00e+00	0	42	0	260046848	55	4780
2026-01-03 00:02:52.52	11.44	22.63	-42.1	-44.5	18.2	0.00e+00	0	42	0	261095424	55	4865
2026-01-03 00:02:53.81	11.39	22.81	-41.9	-44.3	18.4	0.00e+00	0	42	0	264241152	55	4713
2026-01-03 00:02:54.70	11.35	22.94	-41.8	-44.2	18.5	0.00e+00	0	42	0	265289728	55	4663
2026-01-03 00:02:55.75	11.31	23.10	-41.8	-44.2	18.4	0.00e+00	0	42	0	267386880	55	4693
2026-01-03 00:02:56.67	11.28	23.23	-41.7	-44.0	18.6	0.00e+00	0	42	0	269484032	54	4870
2026-01-03 00:02:57.67	11.24	23.38	-41.5	-43.8	18.8	0.00e+00	0	42	0	271581184	54	4734
2026-01-03 00:02:58.67	11.20	23.53	-41.2	-43.4	19.2	0.00e+00	0	42	0	272629760	54	4537
2026-01-03 00:02:59.68	11.15	23.68	-41.2	-43.5	19.2	0.00e+00	0	42	0	274726912	54	4549
2026-01-03 00:03:00.68	11.11	23.83	-41.2	-43.5	19.2	0.00e+00	0	42	0	276824064	54	4568
2026-01-03 00:03:01.68	11.07	23.98	-40.9	-43.1	19.5	0.00e+00	0	42	0	278921216	53	4641
2026-01-03 00:03:02.69	11.03	24.13	-41.0	-43.2	19.3	0.00e+00	0	42	0	281018368	53	4690
2026-01-03 00:03:03.69	10.99	24.28	-41.3	-43.5	19.2	0.00e+00	0	42	0	282066944	53	4854
2026-01-03 00:03:04.77	10.94	24.45	-41.2	-43.5	19.1	0.00e+00	0	42	0	284164096	53	4828
2026-01-03 00:03:05.66	10.90	24.58	-41.1	-43.3	19.3	0.00e+00	0	42	0	286261248	53	4759
2026-01-03 00:03:06.96	10.85	24.79	-41.2	-43.4	19.2	0.00e+00	0	42	0	288358400	53	4807
2026-01-03 00:03:07.68	10.81	24.90	-41.5	-43.8	18.9	0.00e+00	0	42	0	290455552	53	5008
2026-01-03 00:03:08.97	10.76	25.10	-41.7	-44.0	18.7	0.00e+00	0	42	0	292552704	53	5133
2026-01-03 00:03:09.68	10.72	25.21	-41.6	-43.9	18.8	0.00e+00	0	42	0	293601280	54	4812
2026-01-03 00:03:10.97	10.66	25.42	-41.7	-44.0	18.7	0.00e+00	0	42	0	295698432	54	4852
2026-01-03 00:03:11.69	10.63	25.53	-41.8	-44.2	18.6	0.00e+00	0	42	0	297795584	54	4936
2026-01-03 00:03:12.98	10.57	25.74	-41.7	-44.1	18.7	0.00e+00	0	42	0	299892736	54	4887
2026-01-03 00:03:13.69	10.54	25.85	-41.5	-43.8	18.9	0.00e+00	0	42	0	300941312	54	4751
2026-01-03 00:03:14.98	10.48	26.06	-41.3	-43.5	19.2	0.00e+00	0	42	0	304087040	54	4584
2026-01-03 00:03:15.70	10.44	26.18	-41.5	-43.8	18.9	0.00e+00	0	42	0	305135616	54	4725
2026-01-03 00:03:16.99	10.38	26.39	-41.3	-43.6	19.0	0.00e+00	0	42	0	307232768	54	4632
2026-01-03 00:03:17.71	10.34	26.51	-41.2	-43.4	19.3	0.00e+00	0	42	0	309329920	53	4808
2026-01-03 00:03:19.07	10.27	26.74	-41.3	-43.6	19.1	0.00e+00	0	42	0	311427072	53	4879
2026-01-03 00:03:20.06	10.22	26.90	-41.3	-43.6	19.1	0.00e+00	0	42	0	313524224	53	4871
2026-01-03 00:03:21.38	10.16	27.13	-41.8	-44.1	18.6	0.00e+00	0	42	0	315621376	54	4923
2026-01-03 00:03:22.10	10.12	27.25	-42.0	-44.4	18.3	0.00e+00	0	42	0	316669952	54	5085
2026-01-03 00:03:23.74	10.03	27.53	-42.3	-44.8	18.0	0.00e+00	0	42	0	319815680	55	5021
2026-01-03 00:03:24.31	10.00	27.63	-42.5	-45.0	17.8	0.00e+00	0	42	0	320864256	55	5152
2026-01-03 00:03:25.92	9.92	27.91	-42.6	-45.2	17.7	0.00e+00	0	42	0	324009984	55	5243
2026-01-03 00:03:26.49	9.88	28.01	-42.9	-45.5	17.5	0.00e+00	0	42	0	325058560	56	5137
2026-01-03 00:03:28.08	9.80	28.29	-42.3	-44.9	18.0	0.00e+00	0	42	0	328204288	56	4771
2026-01-03 00:03:28.65	9.76	28.39	-42.6	-45.3	17.7	0.00e+00	0	42	0	329252864	56	4991
2026-01-03 00:03:30.26	9.67	28.67	-42.4	-45.0	17.9	0.00e+00	0	42	0	332398592	56	4846
2026-01-03 00:03:30.84	9.64	28.78	-42.0	-44.5	18.4	0.00e+00	0	42	0	333447168	56	4550
2026-01-03 00:03:32.43	9.55	29.07	-42.4	-45.0	18.0	0.00e+00	0	42	0	336592896	56	4864
2026-01-03 00:03:33.02	9.51	29.17	-42.7	-45.3	17.7	0.00e+00	0	42	0	337641472	56	5037
2026-01-03 00:03:34.60	9.42	29.46	-42.8	-45.6	17.4	0.00e+00	0	42	0	340787200	56	5166
2026-01-03 00:03:35.49	9.36	29.63	-43.1	-45.8	17.2	0.00e+00	0	42	0	341835776	56	5328
2026-01-03 00:03:36.63	9.29	29.84	-43.5	-46.5	16.6	0.00e+00	0	42	0	343932928	57	5410
2026-01-03 00:03:37.49	9.24	30.00	-43.6	-46.6	16.5	0.00e+00	0	42	0	346030080	57	5471
2026-01-03 00:03:38.64	9.17	30.22	-43.5	-46.5	16.6	0.00e+00	0	42	0	348127232	58	5102
2026-01-03 00:03:39.50	9.11	30.38	-43.7	-46.7	16.4	0.00e+00	0	42	0	349175808	58	5234
2026-01-03 00:03:40.64	9.04	30.60	-43.8	-46.8	16.2	0.00e+00	0	42	0	351272960	58	5337
2026-01-03 00:03:41.50	8.98	30.76	-43.4	-46.2	16.8	0.00e+00	0	42	0	353370112	58	4956
2026-01-03 00:03:42.65	8.91	30.98	-43.6	-46.5	16.5	0.00e+00	0	42	0	355467264	58	5153
2026-01-03 00:03:43.51	8.85	31.15	-43.8	-46.7	16.3	0.00e+00	0	42	0	357564416	58	5256
2026-01-03 00:03:44.65	8.77	31.37	-44.0	-47.0	16.0	0.00e+00	0	42	0	359661568	58	5458
2026-01-03 00:03:45.62	8.70	31.56	-43.9	-46.9	16.1	0.00e+00	0	42	0	360710144	58	5400
2026-01-03 00:03:46.62	8.63	31.76	-44.1	-47.3	15.8	0.00e+00	0	42	0	362807296	59	5290
2026-01-03 00:03:47.85	8.55	32.01	-44.4	-47.7	15.4	0.00e+00	0	42	0	364904448	59	5554
2026-01-03 00:03:48.74	8.48	32.19	-44.4	-47.7	15.4	0.00e+00	0	42	0	367001600	59	5545
2026-01-03 00:03:49.88	8.40	32.42	-44.5	-47.9	15.2	0.00e+00	0	42	0	369098752	59	5673
2026-01-03 00:03:50.80	8.33	32.60	-44.5	-47.9	15.2	0.00e+00	0	42	0	371195904	59	5693
2026-01-03 00:03:51.98	8.24	32.85	-44.5	-47.9	15.3	0.00e+00	0	42	0	373293056	60	5351
2026-01-03 00:03:52.84	8.18	33.02	-44.3	-47.5	15.6	0.00e+00	0	42	0	374341632	60	5155
2026-01-03 00:03:53.99	8.09	33.26	-44.4	-47.7	15.5	0.00e+00	0	42	0	376438784	60	5222
2026-01-03 00:03:54.85	8.02	33.44	-44.2	-47.5	15.7	0.00e+00	0	42	0	378535936	60	5110
2026-01-03 00:03:55.99	7.93	33.68	-44.7	-48.1	15.0	0.00e+00	0	42	0	380633088	60	5525
2026-01-03 00:03:56.85	7.87	33.86	-44.7	-48.2	15.0	7.00e-07	0	42	0	381681664	60	5558
2026-01-03 00:03:58.00	7.77	34.11	-44.9	-48.6	14.5	0.00e+00	0	42	0	384827392	60	5854
2026-01-03 00:03:58.85	7.70	34.29	-45.0	-48.8	14.5	0.00e+00	0	42	0	385875968	60	5937
2026-01-03 00:04:00.00	7.61	34.54	-44.9	-48.6	14.6	1.50e-06	0	42	0	387973120	61	5465
2026-01-03 00:04:00.86	7.53	34.73	-44.7	-48.4	14.8	7.00e-07	0	42	0	390070272	61	5364
2026-01-03 00:04:02.01	7.44	34.98	-44.5	-48.1	15.1	7.00e-07	0	42	0	392167424	60	5485
2026-01-03 00:04:02.86	7.36	35.17	-43.8	-47.0	16.1	0.00e+00	0	42	0	393216000	59	5111
2026-01-03 00:04:04.01	7.26	35.42	-43.9	-47.1	16.0	0.00e+00	0	42	0	395313152	59	5171
2026-01-03 00:04:04.87	7.18	35.61	-43.6	-46.8	16.4	0.00e+00	0	42	0	397410304	59	4989
2026-01-03 00:04:06.01	7.08	35.87	-43.5	-46.6	16.5	0.00e+00	0	42	0	399507456	58	5202
2026-01-03 00:04:06.87	7.00	36.07	-43.6	-46.7	16.4	0.00e+00	0	42	0	400556032	58	5270
2026-01-03 00:04:08.02	6.89	36.33	-43.8	-47.0	16.1	0.00e+00	0	42	0	402653184	58	5418
2026-01-03 00:04:08.88	6.81	36.53	-44.1	-47.5	15.7	0.00e+00	0	42	0	404750336	58	5727
2026-01-03 00:04:10.02	6.70	36.79	-44.3	-47.6	15.5	0.00e+00	0	42	0	406847488	59	5494
2026-01-03 00:04:10.87	6.62	36.99	-43.8	-46.9	16.2	0.00e+00	0	42	0	408944640	59	5050
2026-01-03 00:04:12.02	6.51	37.26	-44.0	-47.1	16.2	0.00e+00	0	42	0	411041792	59	5180
2026-01-03 00:04:12.88	6.42	37.46	-43.6	-46.5	16.6	0.00e+00	0	42	0	412090368	59	4846
2026-01-03 00:04:14.13	6.29	37.76	-43.6	-46.4	16.7	0.00e+00	0	42	0	414187520	59	4764
2026-01-03 00:04:14.87	6.22	37.93	-43.1	-45.7	17.3	0.00e+00	0	42	0	416284672	58	4701
2026-01-03 00:04:16.31	6.06	38.28	-43.1	-45.8	17.2	0.00e+00	0	42	0	418381824	57	4994
2026-01-03 00:04:17.03	5.99	38.45	-42.9	-45.6	17.5	0.00e+00	0	42	0	420478976	57	4871
2026-01-03 00:04:18.32	5.85	38.77	-42.9	-45.5	17.4	0.00e+00	0	42	0	422576128	57	4844
2026-01-03 00:04:19.03	5.77	38.94	-43.5	-46.3	16.8	0.00e+00	0	42	0	423624704	57	5288
2026-01-03 00:04:20.32	5.62	39.26	-43.8	-46.8	16.4	0.00e+00	0	42	0	425721856	58	5296
2026-01-03 00:04:21.03	5.54	39.44	-43.9	-46.8	16.2	0.00e+00	0	42	0	427819008	58	5325
2026-01-03 00:04:22.32	5.39	39.76	-44.2	-47.4	15.6	0.00e+00	0	42	0	429916160	59	5395
2026-01-03 00:04:23.04	5.31	39.95	-44.7	-48.1	15.0	0.00e+00	0	42	0	430964736	59	5839
2026-01-03 00:04:24.33	5.15	40.27	-44.8	-48.4	14.8	0.00e+00	0	42	0	434110464	60	5681
2026-01-03 00:04:25.05	5.07	40.46	-44.6	-48.1	15.0	0.00e+00	0	42	0	435159040	60	5508
2026-01-03 00:04:26.34	4.91	40.79	-44.3	-47.6	15.5	0.00e+00	0	42	0	437256192	60	5161
2026-01-03 00:04:27.05	4.82	40.97	-44.2	-47.4	15.7	0.00e+00	0	42	0	438304768	59	5355
2026-01-03 00:04:28.34	4.65	41.31	-44.1	-47.1	16.0	0.00e+00	0	42	0	441450496	59	5186
2026-01-03 00:04:29.12	4.55	41.52	-44.0	-47.0	15.9	0.00e+00	0	42	0	442499072	59	5117
2026-01-03 00:04:30.74	4.34	41.95	-44.2	-47.2	15.9	0.00e+00	0	42	0	445644800	59	5244
2026-01-03 00:04:31.31	4.26	42.10	-44.3	-47.5	15.7	0.00e+00	0	42	0	446693376	59	5405
2026-01-03 00:04:32.90	4.04	42.53	-44.2	-47.3	15.8	0.00e+00	0	42	0	449839104	59	5295
2026-01-03 00:04:33.48	3.96	42.68	-44.5	-47.7	15.4	0.00e+00	0	42	0	450887680	59	5560
2026-01-03 00:04:35.07	3.73	43.12	-44.7	-48.1	15.1	0.00e+00	0	42	0	454033408	60	5480
2026-01-03 00:04:35.75	3.63	43.30	-44.6	-47.9	15.2	0.00e+00	0	42	0	455081984	60	5392
2026-01-03 00:04:37.18	3.42	43.70	-44.8	-48.4	14.9	0.00e+00	0	42	0	458227712	60	5657
2026-01-03 00:04:37.90	3.31	43.90	-44.9	-48.4	14.7	7.00e-07	0	42	0	459276288	60	5715
2026-01-03 00:04:39.19	3.11	44.26	-45.1	-48.9	14.4	0.00e+00	0	42	0	461373440	60	6006
2026-01-03 00:04:40.03	2.98	44.50	-45.0	-48.7	14.5	7.00e-07	0	42	0	463470592	61	5563
2026-01-03 00:04:41.17	2.80	44.82	-44.5	-48.0	15.1	1.50e-06	0	42	0	465567744	61	5104
2026-01-03 00:04:42.27	2.62	45.13	-44.2	-47.4	15.8	0.00e+00	0	42	0	467664896	60	5056
2026-01-03 00:04:43.32	2.44	45.44	-43.7	-46.6	16.5	0.00e+00	0	42	0	469762048	58	5210
2026-01-03 00:04:44.38	2.26	45.74	-43.0	-45.6	17.4	0.00e+00	0	42	0	470810624	57	4885
2026-01-03 00:04:45.24	2.11	46.00	-43.0	-45.6	17.5	0.00e+00	0	42	0	472907776	57	4895
2026-01-03 00:04:46.70	1.86	46.42	-43.7	-46.5	16.6	0.00e+00	0	42	0	476053504	58	5144
2026-01-03 00:04:47.42	1.73	46.64	-44.3	-47.4	15.7	0.00e+00	0	42	0	477102080	59	5402
2026-01-03 00:04:48.71	1.49	47.02	-44.9	-48.4	14.8	0.00e+00	0	42	0	479199232	60	5678
2026-01-03 00:04:49.42	1.36	47.23	-44.8	-48.2	15.0	0.00e+00	0	42	0	481296384	60	5591
2026-01-03 00:04:50.71	1.11	47.62	-44.4	-47.6	15.6	0.00e+00	0	42	0	483393536	60	5200
2026-01-03 00:04:51.42	0.97	47.84	-44.0	-47.1	16.1	0.00e+00	0	42	0	484442112	60	4886
2026-01-03 00:04:52.71	0.71	48.23	-43.6	-46.4	16.7	0.00e+00	0	42	0	486539264	58	5093
2026-01-03 00:04:53.49	0.56	48.47	-43.7	-46.6	16.6	0.00e+00	0	42	0	488636416	58	5186
2026-01-03 00:04:54.67	0.31	48.83	-43.3	-46.0	17.1	0.00e+00	0	42	0	490733568	58	4831
2026-01-03 00:04:55.71	0.09	49.15	-42.8	-45.4	17.7	0.00e+00	0	42	0	492830720	57	4771
2026-01-03 00:04:56.88	359.84	49.52	-42.4	-44.9	18.1	0.00e+00	0	42	0	494927872	56	4780
2026-01-03 00:04:57.73	359.65	49.78	-42.2	-44.6	18.4	0.00e+00	0	42	0	495976448	56	4640
2026-01-03 00:04:58.88	359.39	50.15	-41.8	-44.2	18.7	0.00e+00	0	42	0	498073600	55	4674
2026-01-03 00:04:59.74	359.19	50.42	-41.8	-44.1	18.7	0.00e+00	0	42	0	500170752	55	4623
2026-01-03 00:05:00.88	358.92	50.78	-42.2	-44.7	18.2	0.00e+00	0	42	0	502267904	55	4937
2026-01-03 00:05:01.74	358.71	51.06	-42.3	-44.7	18.2	0.00e+00	0	42	0	503316480	55	4946
2026-01-03 00:05:02.89	358.43	51.43	-42.0	-44.4	18.5	0.00e+00	0	42	0	506462208	55	4775
2026-01-03 00:05:03.75	358.21	51.71	-42.2	-44.7	18.1	0.00e+00	0	42	0	507510784	55	4972
2026-01-03 00:05:04.90	357.92	52.08	-42.3	-44.8	18.1	0.00e+00	0	42	0	509607936	55	5002
2026-01-03 00:05:05.76	357.69	52.36	-42.6	-45.2	17.8	0.00e+00	0	42	0	511705088	55	5230
2026-01-03 00:05:06.90	357.38	52.74	-43.6	-46.5	16.6	0.00e+00	0	42	0	513802240	58	5140
2026-01-03 00:05:07.76	357.14	53.02	-43.8	-46.8	16.3	0.00e+00	0	42	0	514850816	58	5337
2026-01-03 00:05:08.90	356.82	53.40	-43.5	-46.3	16.8	0.00e+00	0	42	0	516947968	58	5002
2026-01-03 00:05:09.76	356.57	53.69	-43.0	-45.6	17.5	0.00e+00	0	42	0	519045120	58	4638
2026-01-03 00:05:11.10	356.18	54.13	-42.7	-45.1	17.9	0.00e+00	0	42	0	521142272	57	4638
2026-01-03 00:05:11.82	355.96	54.38	-42.4	-44.8	18.2	0.00e+00	0	42	0	523239424	56	4726
2026-01-03 00:05:13.30	355.50	54.88	-43.1	-45.8	17.3	0.00e+00	0	42	0	525336576	56	5308
2026-01-03 00:05:14.01	355.27	55.12	-43.1	-45.8	17.3	0.00e+00	0	42	0	526385152	57	5009
2026-01-03 00:05:15.30	354.85	55.56	-42.7	-45.3	17.8	0.00e+00	0	42	0	529530880	57	4707
2026-01-03 00:05:16.02	354.61	55.80	-42.0	-44.4	18.6	0.00e+00	0	42	0	530579456	56	4516
2026-01-03 00:05:17.30	354.16	56.24	-41.5	-43.8	19.0	0.00e+00	0	42	0	532676608	54	4724
2026-01-03 00:05:18.02	353.91	56.49	-41.2	-43.4	19.6	0.00e+00	0	42	0	534773760	54	4496
2026-01-03 00:05:19.31	353.44	56.93	-41.2	-43.4	19.3	0.00e+00	0	42	0	536870912	54	4514
2026-01-03 00:05:20.02	353.18	57.18	-41.7	-44.1	18.7	0.00e+00	0	42	0	537919488	54	4877
2026-01-03 00:05:21.31	352.69	57.62	-42.3	-44.9	18.1	0.00e+00	0	42	0	541065216	55	5045
2026-01-03 00:05:22.03	352.41	57.87	-42.3	-44.8	18.1	0.00e+00	0	42	0	542113792	55	5033
2026-01-03 00:05:23.32	351.89	58.32	-42.8	-45.4	17.7	0.00e+00	0	42	0	544210944	56	5066
2026-01-03 00:05:24.03	351.60	58.57	-42.8	-45.4	17.7	0.00e+00	0	42	0	545259520	56	5063
2026-01-03 00:05:25.32	351.05	59.02	-42.9	-45.7	17.4	0.00e+00	0	42	0	548405248	56	5227
2026-01-03 00:05:26.23	350.65	59.34	-43.3	-46.2	16.9	0.00e+00	0	42	0	549453824	57	5252
2026-01-03 00:05:27.26	350.19	59.70	-43.8	-46.8	16.3	0.00e+00	0	42	0	551550976	58	5320
2026-01-03 00:05:28.27	349.73	60.06	-44.1	-47.1	16.0	0.00e+00	0	42	0	553648128	59	5209
2026-01-03 00:05:29.27	349.25	60.41	-43.9	-46.9	16.2	0.00e+00	0	42	0	555745280	59	5088
2026-01-03 00:05:30.27	348.77	60.76	-43.8	-46.8	16.4	0.00e+00	0	42	0	557842432	59	5031
2026-01-03 00:05:31.28	348.26	61.11	-43.4	-46.2	16.9	0.00e+00	0	42	0	558891008	58	4931
2026-01-03 00:05:32.28	347.75	61.47	-42.8	-45.3	17.8	0.00e+00	0	42	0	560988160	57	4748
2026-01-03 00:05:33.28	347.22	61.82	-43.3	-46.0	17.1	0.00e+00	0	42	0	563085312	57	5129
2026-01-03 00:05:34.28	346.67	62.17	-42.5	-45.0	18.1	0.00e+00	0	42	0	565182464	57	4553
2026-01-03 00:05:35.28	346.11	62.52	-41.0	-43.1	19.6	0.00e+00	0	42	0	566231040	54	4371
2026-01-03 00:05:36.29	345.53	62.87	-40.5	-42.6	20.1	0.00e+00	0	42	0	568328192	52	4633
2026-01-03 00:05:37.37	344.88	63.25	-41.0	-43.2	19.6	0.00e+00	0	42	0	570425344	52	4954
2026-01-03 00:05:38.26	344.34	63.56	-41.9	-44.3	18.7	0.00e+00	0	42	0	572522496	54	5009
2026-01-03 00:05:39.60	343.49	64.02	-42.2	-44.7	18.3	0.00e+00	0	42	0	574619648	55	4930
2026-01-03 00:05:40.32	343.02	64.27	-41.9	-44.2	18.7	0.00e+00	0	42	0	576716800	55	4699
2026-01-03 00:05:41.61	342.15	64.71	-41.4	-43.6	19.1	0.00e+00	0	43	0	578813952	54	4632
2026-01-03 00:05:42.32	341.65	64.96	-41.9	-44.3	18.6	0.00e+00	0	42	0	579862528	54	4997
2026-01-03 00:05:43.61	340.73	65.40	-43.1	-45.9	17.2	0.00e+00	0	42	0	581959680	56	5378
2026-01-03 00:05:44.32	340.21	65.64	-43.4	-46.3	16.9	0.00e+00	0	42	0	584056832	57	5299
2026-01-03 00:05:45.61	339.22	66.07	-43.6	-46.4	16.6	0.00e+00	0	42	0	586153984	58	5098
2026-01-03 00:05:46.46	338.55	66.35	-43.4	-46.2	16.8	0.00e+00	0	42	0	588251136	58	4947
2026-01-03 00:05:47.60	337.63	66.73	-42.7	-45.1	17.9	0.00e+00	0	42	0	590348288	57	4644
2026-01-03 00:05:48.66	336.74	67.07	-42.2	-44.5	18.5	0.00e+00	0	42	0	591396864	56	4582
2026-01-03 00:05:49.71	335.82	67.41	-42.7	-45.1	17.9	0.00e+00	0	42	0	593494016	56	4908
2026-01-03 00:05:50.77	334.87	67.75	-43.2	-45.8	17.3	0.00e+00	0	42	0	595591168	57	5026
2026-01-03 00:05:51.73	333.98	68.05	-43.4	-46.1	17.0	0.00e+00	0	43	0	597688320	57	5201
2026-01-03 00:05:52.91	332.85	68.42	-44.1	-47.1	16.0	0.00e+00	0	43	0	599785472	59	5207
2026-01-03 00:05:53.77	332.00	68.68	-44.6	-47.9	15.4	0.00e+00	0	42	0	601882624	60	5367
2026-01-03 00:05:55.12	330.62	69.09	-45.9	-50.0	13.1	3.80e-06	0	43	0	603979776	62	6073
2026-01-03 00:05:55.84	329.86	69.30	-45.2	-48.8	14.5	9.10e-06	0	42	0	605028352	62	5280
2026-01-03 00:05:57.30	328.27	69.72	-45.7	-49.5	14.1	4.50e-06	0	42	0	608174080	62	5768
2026-01-03 00:05:58.02	327.46	69.92	-46.3	-50.8	12.5	5.18e-05	0	42	0	609222656	63	6319
2026-01-03 00:05:59.31	325.96	70.28	-46.0	-50.2	13.1	4.49e-04	0	42	0	611319808	63	5870
2026-01-03 00:06:00.02	325.11	70.47	-45.3	-48.9	14.3	2.36e-05	0	42	0	613416960	62	5345
2026-01-03 00:06:01.32	323.51	70.80	-44.5	-47.6	15.7	0.00e+00	0	42	0	615514112	60	5168
2026-01-03 00:06:02.04	322.60	70.98	-44.3	-47.4	15.7	0.00e+00	0	42	0	616562688	60	5077
2026-01-03 00:06:03.33	320.92	71.30	-44.4	-47.5	15.8	0.00e+00	0	42	0	619708416	60	5153
2026-01-03 00:06:04.04	319.96	71.46	-44.5	-47.7	15.6	0.00e+00	0	42	0	620756992	60	5220
2026-01-03 00:06:05.33	318.19	71.75	-44.3	-47.3	16.0	0.00e+00	0	42	0	622854144	59	5296
2026-01-03 00:06:06.05	317.18	71.91	-44.3	-47.3	15.8	0.00e+00	0	42	0	623902720	59	5320
2026-01-03 00:06:07.33	315.32	72.17	-44.3	-47.3	15.9	0.00e+00	0	42	0	627048448	59	5327
2026-01-03 00:06:08.04	314.27	72.31	-44.1	-47.0	16.2	0.00e+00	0	42	0	628097024	59	5131
2026-01-03 00:06:09.33	312.32	72.55	-43.3	-46.0	17.2	0.00e+00	0	42	0	630194176	58	4818
2026-01-03 00:06:10.05	311.21	72.67	-43.3	-45.9	17.1	0.00e+00	0	43	0	632291328	58	4806
2026-01-03 00:06:11.34	309.17	72.87	-43.5	-46.2	16.8	0.00e+00	0	42	0	634388480	58	4958
2026-01-03 00:06:12.06	308.01	72.98	-44.4	-47.5	15.6	0.00e+00	0	43	0	635437056	59	5443
2026-01-03 00:06:13.34	305.91	73.15	-44.9	-48.5	14.9	0.00e+00	0	43	0	638582784	61	5419
2026-01-03 00:06:14.06	304.72	73.24	-44.4	-47.6	15.6	0.00e+00	0	42	0	639631360	60	5197
2026-01-03 00:06:15.35	302.54	73.38	-44.8	-48.1	15.2	0.00e+00	0	42	0	641728512	60	5484
2026-01-03 00:06:16.07	301.31	73.44	-45.0	-48.4	14.8	1.50e-06	0	42	0	642777088	61	5384
2026-01-03 00:06:17.63	298.61	73.56	-44.7	-48.0	15.3	0.00e+00	0	42	0	645922816	60	5449
2026-01-03 00:06:18.34	297.37	73.61	-45.2	-48.7	14.7	0.00e+00	0	43	0	646971392	60	5888
2026-01-03 00:06:19.69	294.99	73.67	-46.2	-50.5	12.8	2.05e-05	0	42	0	650117120	63	6118
2026-01-03 00:06:20.41	293.72	73.69	-45.8	-49.8	13.3	7.55e-05	0	42	0	651165696	63	5631
2026-01-03 00:06:21.78	291.29	73.71	-45.2	-48.8	14.3	0.00e+00	0	42	0	654311424	61	5611
2026-01-03 00:06:22.50	290.01	73.71	-45.9	-50.0	13.2	4.42e-05	0	42	0	655360000	62	6104
2026-01-03 00:06:23.83	287.65	73.68	-45.0	-48.5	14.7	0.00e+00	0	42	0	657457152	61	5424
2026-01-03 00:06:24.55	286.38	73.66	-44.7	-48.0	15.1	0.00e+00	0	42	0	659554304	61	5105
2026-01-03 00:06:25.84	284.11	73.60	-44.1	-47.0	16.1	0.00e+00	0	42	0	661651456	59	5153
2026-01-03 00:06:26.55	282.87	73.56	-43.4	-46.1	17.1	0.00e+00	0	43	0	662700032	58	4899
2026-01-03 00:06:27.85	280.62	73.46	-43.3	-46.0	17.2	0.00e+00	0	42	0	664797184	57	5123
2026-01-03 00:06:28.56	279.40	73.39	-42.8	-45.5	17.7	0.00e+00	0	42	0	666894336	57	4818
2026-01-03 00:06:29.85	277.22	73.26	-41.7	-44.0	18.8	0.00e+00	0	42	0	668991488	55	4577
2026-01-03 00:06:30.57	276.01	73.17	-42.4	-44.9	18.1	0.00e+00	0	42	0	670040064	55	5054
2026-01-03 00:06:31.85	273.91	73.00	-42.9	-45.5	17.6	0.00e+00	0	42	0	673185792	57	4837
2026-01-03 00:06:32.62	272.67	72.89	-43.6	-46.5	16.7	0.00e+00	0	42	0	674234368	57	5420
2026-01-03 00:06:33.91	270.63	72.69	-43.4	-46.1	17.0	0.00e+00	0	43	0	676331520	57	5204
2026-01-03 00:06:34.69	269.42	72.56	-43.3	-46.0	17.1	0.00e+00	0	43	0	678428672	57	5143
2026-01-03 00:06:36.23	267.08	72.27	-43.9	-46.7	16.4	0.00e+00	0	43	0	680525824	58	5256
2026-01-03 00:06:36.94	266.04	72.13	-44.6	-47.8	15.4	0.00e+00	0	43	0	682622976	59	5621
2026-01-03 00:06:38.23	264.18	71.87	-45.0	-48.4	14.9	0.00e+00	0	42	0	684720128	60	5685
2026-01-03 00:06:38.95	263.17	71.71	-45.2	-48.8	14.5	0.00e+00	0	43	0	685768704	61	5593
2026-01-03 00:06:40.24	261.40	71.42	-45.8	-49.7	13.4	7.00e-07	0	42	0	688914432	62	5894
2026-01-03 00:06:40.95	260.45	71.25	-45.9	-50.0	13.1	5.30e-06	0	42	0	689963008	62	6079
2026-01-03 00:06:42.24	258.78	70.93	-46.3	-50.8	12.3	2.94e-04	0	43	0	692060160	64	5992
2026-01-03 00:06:42.96	257.87	70.75	-46.1	-50.4	12.7	6.17e-05	0	43	0	694157312	63	6058
2026-01-03 00:06:44.25	256.29	70.41	-46.2	-50.7	12.6	1.67e-05	0	42	0	696254464	63	6232
2026-01-03 00:06:44.97	255.43	70.22	-46.7	-51.7	11.5	2.80e-04	0	43	0	697303040	64	6613
2026-01-03 00:06:46.26	253.94	69.86	-45.7	-49.8	13.5	1.59e-04	0	42	0	699400192	63	5609
2026-01-03 00:06:47.11	252.99	69.62	-45.6	-49.5	13.8	4.50e-06	0	43	0	701497344	63	5429
2026-01-03 00:06:48.59	251.39	69.19	-45.7	-49.5	13.7	3.20e-05	0	43	0	704643072	63	5413
2026-01-03 00:06:49.30	250.65	68.98	-45.0	-48.3	14.9	0.00e+00	0	43	0	705691648	61	5292
2026-01-03 00:06:50.59	249.34	68.59	-44.9	-48.2	15.2	0.00e+00	0	42	0	707788800	60	5546
2026-01-03 00:06:51.31	248.63	68.37	-44.3	-47.3	15.8	0.00e+00	0	43	0	708837376	60	5024
2026-01-03 00:06:52.59	247.41	67.97	-42.8	-45.3	17.8	0.00e+00	0	42	0	711983104	57	4746
2026-01-03 00:06:53.31	246.75	67.75	-43.2	-45.8	17.4	0.00e+00	0	42	0	713031680	57	4985
2026-01-03 00:06:54.60	245.59	67.33	-44.4	-47.4	15.7	0.00e+00	0	43	0	715128832	59	5396
2026-01-03 00:06:55.46	244.85	67.05	-43.1	-45.8	17.3	0.00e+00	0	43	0	717225984	58	4730
2026-01-03 00:06:56.60	243.89	66.68	-42.0	-44.3	18.7	0.00e+00	0	42	0	719323136	55	4744
2026-01-03 00:06:57.65	243.04	66.33	-42.4	-44.8	18.1	0.00e+00	0	42	0	721420288	55	5031
2026-01-03 00:06:58.80	242.14	65.95	-42.3	-44.7	18.3	0.00e+00	0	42	0	723517440	56	4666
2026-01-03 00:06:59.76	241.41	65.62	-41.9	-44.2	18.7	0.00e+00	0	43	0	725614592	55	4672
2026-01-03 00:07:00.77	240.66	65.28	-41.5	-43.8	19.0	0.00e+00	0	43	0	726663168	55	4471
2026-01-03 00:07:01.77	239.95	64.94	-40.3	-42.3	20.2	0.00e+00	0	42	0	728760320	52	4477
2026-01-03 00:07:02.77	239.26	64.60	-40.4	-42.4	20.2	0.00e+00	0	42	0	730857472	52	4542
2026-01-03 00:07:03.78	238.58	64.25	-41.2	-43.4	19.5	0.00e+00	0	43	0	732954624	53	4778
2026-01-03 00:07:04.78	237.93	63.90	-41.2	-43.4	19.4	0.00e+00	0	43	0	735051776	53	4785
2026-01-03 00:07:05.78	237.29	63.56	-40.6	-42.7	20.0	0.00e+00	0	42	0	736100352	53	4397
2026-01-03 00:07:06.79	236.67	63.20	-40.7	-42.8	19.9	0.00e+00	0	42	0	738197504	52	4741
2026-01-03 00:07:07.79	236.08	62.85	-41.2	-43.5	19.4	0.00e+00	0	43	0	740294656	53	4833
2026-01-03 00:07:08.79	235.50	62.50	-41.7	-44.0	18.8	0.00e+00	0	42	0	742391808	54	4863
2026-01-03 00:07:09.79	234.94	62.15	-41.6	-44.0	18.9	0.00e+00	0	42	0	743440384	54	4817
2026-01-03 00:07:10.79	234.39	61.80	-42.9	-45.5	17.6	0.00e+00	0	42	0	745537536	56	5147
2026-01-03 00:07:11.87	233.82	61.42	-43.2	-45.9	17.1	0.00e+00	0	43	0	747634688	57	5087
2026-01-03 00:07:12.73	233.38	61.12	-43.7	-46.6	16.6	0.00e+00	0	42	0	749731840	58	5175
2026-01-03 00:07:13.88	232.80	60.71	-44.0	-47.1	16.1	0.00e+00	0	42	0	751828992	58	5468
2026-01-03 00:07:14.73	232.39	60.41	-44.1	-47.2	15.9	0.00e+00	0	42	0	752877568	59	5224
2026-01-03 00:07:15.88	231.84	60.01	-43.2	-45.9	17.2	0.00e+00	0	43	0	754974720	57	5053
2026-01-03 00:07:16.73	231.45	59.71	-43.6	-46.4	16.8	0.00e+00	0	43	0	757071872	57	5365
2026-01-03 00:07:17.88	230.93	59.30	-43.1	-45.8	17.3	0.00e+00	0	42	0	759169024	58	4739
2026-01-03 00:07:18.73	230.56	59.01	-42.7	-45.3	17.8	0.00e+00	0	42	0	760217600	57	4721
2026-01-03 00:07:19.88	230.07	58.60	-42.5	-45.0	18.1	0.00e+00	0	42	0	763363328	56	4828
2026-01-03 00:07:20.74	229.72	58.30	-42.4	-44.8	18.3	0.00e+00	0	42	0	764411904	56	4740
2026-01-03 00:07:21.88	229.26	57.90	-43.0	-45.5	17.6	0.00e+00	0	42	0	766509056	56	5135
2026-01-03 00:07:22.74	228.92	57.60	-42.7	-45.2	17.8	0.00e+00	0	42	0	768606208	57	4693
2026-01-03 00:07:23.88	228.49	57.21	-42.8	-45.3	17.7	0.00e+00	0	43	0	770703360	56	5024
2026-01-03 00:07:24.74	228.16	56.91	-42.4	-44.8	18.1	0.00e+00	0	43	0	771751936	56	4759
2026-01-03 00:07:25.89	227.75	56.51	-41.4	-43.6	19.2	0.00e+00	0	43	0	773849088	54	4616
2026-01-03 00:07:26.74	227.45	56.22	-40.1	-42.1	20.5	0.00e+00	0	42	0	775946240	52	4386
2026-01-03 00:07:27.89	227.05	55.82	-40.6	-42.7	20.0	0.00e+00	0	43	0	778043392	52	4658
2026-01-03 00:07:28.75	226.76	55.53	-41.3	-43.5	19.3	0.00e+00	0	43	0	779091968	53	4840
2026-01-03 00:07:29.89	226.38	55.14	-41.5	-43.7	19.1	0.00e+00	0	43	0	781189120	54	4691
2026-01-03 00:07:30.75	226.11	54.85	-41.5	-43.8	19.1	0.00e+00	0	42	0	783286272	54	4717
2026-01-03 00:07:31.89	225.75	54.46	-42.3	-44.7	18.2	0.00e+00	0	43	0	785383424	55	4946
2026-01-03 00:07:32.75	225.49	54.17	-43.4	-46.1	16.8	0.00e+00	0	43	0	787480576	57	5195
2026-01-03 00:07:33.90	225.14	53.78	-44.2	-47.3	15.9	0.00e+00	0	42	0	789577728	58	5626
2026-01-03 00:07:34.75	224.89	53.50	-44.1	-47.2	16.0	0.00e+00	0	43	0	790626304	59	5219
2026-01-03 00:07:35.90	224.56	53.12	-44.2	-47.3	15.9	0.00e+00	0	43	0	792723456	59	5319
2026-01-03 00:07:36.75	224.33	52.83	-44.0	-47.2	15.9	0.00e+00	0	43	0	794820608	60	4974
2026-01-03 00:07:38.09	223.96	52.39	-42.8	-45.5	17.6	0.00e+00	0	42	0	796917760	57	4840
2026-01-03 00:07:38.81	223.77	52.16	-43.0	-45.7	17.4	0.00e+00	0	43	0	797966336	57	4962
2026-01-03 00:07:40.29	223.39	51.67	-42.9	-45.6	17.5	0.00e+00	0	42	0	801112064	57	4882
2026-01-03 00:07:41.00	223.21	51.44	-42.6	-45.1	17.9	0.00e+00	0	43	0	802160640	57	4638
2026-01-03 00:07:42.29	222.89	51.02	-42.5	-45.0	18.1	0.00e+00	0	42	0	805306368	56	4830
2026-01-03 00:07:43.00	222.72	50.80	-42.4	-44.8	18.2	0.00e+00	0	42	0	806354944	56	4757
2026-01-03 00:07:44.29	222.41	50.38	-42.5	-45.0	18.0	0.00e+00	0	42	0	808452096	56	4827
2026-01-03 00:07:45.01	222.24	50.15	-42.2	-44.6	18.4	0.00e+00	0	42	0	809500672	56	4641
2026-01-03 00:07:46.30	221.95	49.74	-41.7	-44.0	18.8	0.00e+00	0	42	0	812646400	55	4590
2026-01-03 00:07:47.01	221.79	49.52	-41.9	-44.3	18.5	0.00e+00	0	42	0	813694976	55	4718
2026-01-03 00:07:48.30	221.51	49.12	-42.4	-44.8	18.0	0.00e+00	0	42	0	815792128	55	5025
2026-01-03 00:07:49.01	221.36	48.90	-42.3	-44.7	18.1	0.00e+00	0	42	0	817889280	56	4686
2026-01-03 00:07:50.30	221.09	48.50	-41.8	-44.1	18.7	0.00e+00	0	42	0	819986432	55	4624
2026-01-03 00:07:51.01	220.94	48.28	-42.0	-44.4	18.5	0.00e+00	0	42	0	821035008	55	4768
2026-01-03 00:07:52.30	220.68	47.88	-43.5	-46.2	16.8	0.00e+00	0	42	0	823132160	57	5246
2026-01-03 00:07:53.02	220.54	47.66	-43.9	-46.7	16.4	0.00e+00	0	42	0	825229312	58	5279
2026-01-03 00:07:54.31	220.29	47.27	-43.2	-45.8	17.2	0.00e+00	0	43	0	827326464	58	4740
2026-01-03 00:07:55.02	220.16	47.06	-43.6	-46.4	16.7	0.00e+00	0	42	0	828375040	58	5053
2026-01-03 00:07:56.30	219.92	46.68	-45.0	-48.4	14.8	0.00e+00	0	43	0	831520768	60	5715
2026-01-03 00:07:57.02	219.79	46.46	-45.5	-49.3	13.9	0.00e+00	0	43	0	832569344	61	5987
2026-01-03 00:07:58.31	219.56	46.08	-45.3	-49.1	14.0	3.00e-06	0	43	0	834666496	61	5822
2026-01-03 00:07:59.02	219.44	45.87	-44.3	-47.4	15.7	0.00e+00	0	42	0	836763648	60	5076
2026-01-03 00:08:00.31	219.21	45.50	-43.2	-45.9	17.2	0.00e+00	0	42	0	838860800	58	4765
2026-01-03 00:08:01.03	219.09	45.29	-43.9	-46.8	16.3	0.00e+00	0	42	0	839909376	58	5283
2026-01-03 00:08:02.32	218.88	44.92	-44.1	-47.1	16.0	0.00e+00	0	43	0	842006528	59	5169
2026-01-03 00:08:03.08	218.75	44.70	-44.5	-47.7	15.3	0.00e+00	0	43	0	844103680	59	5565
2026-01-03 00:08:04.68	218.50	44.24	-43.2	-45.8	17.2	0.00e+00	0	43	0	847249408	58	4755
2026-01-03 00:08:05.25	218.41	44.08	-43.7	-46.5	16.5	0.00e+00	0	43	0	848297984	58	5154
2026-01-03 00:08:07.10	218.13	43.57	-45.9	-50.1	13.0	6.80e-06	0	43	0	851443712	62	6192
2026-01-03 00:08:07.67	218.04	43.41	-46.1	-50.5	12.9	4.42e-05	0	42	0	852492288	63	6072
2026-01-03 00:08:09.25	217.81	42.97	-45.2	-48.8	14.3	5.30e-06	0	43	0	855638016	62	5300
2026-01-03 00:08:09.85	217.73	42.81	-45.1	-48.6	14.6	3.00e-06	0	43	0	856686592	62	5170
2026-01-03 00:08:11.42	217.50	42.38	-45.1	-48.7	14.5	0.00e+00	0	42	0	859832320	61	5575
2026-01-03 00:08:12.00	217.42	42.22	-44.7	-48.1	15.0	0.00e+00	0	43	0	860880896	61	5200
2026-01-03 00:08:13.57	217.21	41.80	-44.9	-48.4	14.8	0.00e+00	0	43	0	864026624	60	5662
2026-01-03 00:08:14.16	217.13	41.64	-44.4	-47.7	15.5	0.00e+00	0	42	0	865075200	60	5247
2026-01-03 00:08:15.85	216.91	41.20	-43.4	-46.1	17.0	0.00e+00	0	43	0	868220928	58	4885
2026-01-03 00:08:16.42	216.84	41.05	-43.1	-45.8	17.3	0.00e+00	0	43	0	869269504	58	4727
2026-01-03 00:08:18.03	216.63	40.63	-43.9	-46.7	16.3	0.00e+00	0	42	0	872415232	58	5255
2026-01-03 00:08:18.60	216.56	40.48	-43.7	-46.4	16.6	0.00e+00	0	43	0	872415232	58	5090
2026-01-03 00:08:20.20	216.37	40.07	-44.6	-47.8	15.3	0.00e+00	0	43	0	875560960	60	5332
2026-01-03 00:08:21.08	216.26	39.85	-44.4	-47.6	15.0	0.00e+00	0	43	0	877658112	60	5195
2026-01-03 00:08:22.23	216.13	39.56	-45.1	-48.6	14.5	0.00e+00	0	43	0	879755264	60	5846
2026-01-03 00:08:23.08	216.03	39.34	-45.0	-48.6	14.5	7.00e-07	0	43	0	881852416	60	5846
2026-01-03 00:08:24.23	215.90	39.05	-45.8	-50.1	13.1	7.00e-07	0	43	0	883949568	62	6160
2026-01-03 00:08:25.09	215.80	38.84	-45.8	-50.1	13.1	3.50e-05	0	42	0	884998144	62	6158
2026-01-03 00:08:26.33	215.66	38.54	-46.3	-51.3	11.8	2.56e-04	0	43	0	887095296	63	6656
2026-01-03 00:08:27.18	215.57	38.33	-46.4	-51.5	11.7	5.11e-04	0	43	0	889192448	63	6851
2026-01-03 00:08:28.39	215.44	38.03	-45.7	-49.9	13.2	1.27e-04	0	43	0	891289600	63	5699
2026-01-03 00:08:29.25	215.35	37.83	-44.1	-47.3	15.8	7.00e-07	0	43	0	893386752	60	5016
2026-01-03 00:08:30.39	215.23	37.55	-43.4	-46.3	16.8	0.00e+00	0	43	0	895483904	58	5006
2026-01-03 00:08:31.25	215.14	37.35	-42.8	-45.5	17.5	0.00e+00	0	43	0	896532480	57	4827
2026-01-03 00:08:32.39	215.03	37.08	-42.3	-44.8	18.2	0.00e+00	0	42	0	898629632	56	4709
2026-01-03 00:08:33.25	214.94	36.88	-42.3	-44.7	18.2	0.00e+00	0	42	0	900726784	56	4704
2026-01-03 00:08:34.60	214.81	36.56	-42.4	-44.9	17.9	0.00e+00	0	43	0	902823936	55	5088
2026-01-03 00:08:35.31	214.74	36.40	-42.2	-44.6	18.2	0.00e+00	0	43	0	903872512	55	4904
2026-01-03 00:08:36.60	214.62	36.10	-42.2	-44.7	18.1	0.00e+00	0	43	0	907018240	55	4964
2026-01-03 00:08:37.32	214.55	35.94	-42.8	-45.3	17.6	0.00e+00	0	43	0	908066816	56	5031
2026-01-03 00:08:38.61	214.44	35.65	-43.7	-46.6	16.5	0.00e+00	0	43	0	910163968	58	5181
2026-01-03 00:08:39.32	214.37	35.49	-44.2	-47.2	15.9	0.00e+00	0	43	0	912261120	58	5567
2026-01-03 00:08:40.61	214.26	35.20	-44.9	-48.4	14.9	7.00e-07	0	43	0	914358272	60	5662
2026-01-03 00:08:41.40	214.19	35.02	-45.8	-50.0	13.2	0.00e+00	0	43	0	915406848	62	6083
2026-01-03 00:08:42.55	214.09	34.77	-46.1	-50.4	12.7	2.91e-04	0	43	0	917504000	63	6018
2026-01-03 00:08:43.41	214.01	34.58	-46.1	-50.5	12.6	2.38e-04	0	42	0	919601152	63	6101
2026-01-03 00:08:44.55	213.92	34.33	-45.5	-49.4	13.6	2.51e-05	0	43	0	921698304	63	5400
2026-01-03 00:08:45.41	213.84	34.15	-45.4	-49.2	14.0	2.20e-06	0	43	0	922746880	62	5540
2026-01-03 00:08:46.56	213.75	33.90	-45.2	-48.9	14.3	1.50e-06	0	43	0	925892608	62	5357
2026-01-03 00:08:47.42	213.68	33.71	-45.2	-48.9	14.3	3.00e-06	0	42	0	926941184	62	5381
2026-01-03 00:08:48.59	213.59	33.47	-45.2	-48.8	14.3	3.00e-06	0	43	0	929038336	61	5643
2026-01-03 00:08:49.45	213.52	33.28	-44.9	-48.3	14.8	0.00e+00	0	43	0	931135488	61	5296
2026-01-03 00:08:50.59	213.43	33.05	-44.7	-48.1	15.1	0.00e+00	0	43	0	933232640	60	5472
2026-01-03 00:08:51.45	213.36	32.87	-44.3	-47.4	15.7	0.00e+00	0	42	0	934281216	60	5090
2026-01-03 00:08:52.72	213.27	32.61	-44.1	-47.1	16.0	0.00e+00	0	43	0	937426944	60	4891
2026-01-03 00:08:53.45	213.21	32.46	-43.7	-46.6	16.4	0.00e+00	0	43	0	938475520	59	4903
2026-01-03 00:08:54.74	213.12	32.19	-43.8	-46.7	16.3	0.00e+00	0	43	0	940572672	59	4952
2026-01-03 00:08:55.46	213.06	32.05	-43.9	-46.8	16.2	0.00e+00	0	43	0	941621248	59	5017
2026-01-03 00:08:56.75	212.97	31.79	-44.1	-47.1	16.0	0.00e+00	0	43	0	944766976	59	5186
2026-01-03 00:08:57.49	212.92	31.64	-44.0	-47.0	16.1	0.00e+00	0	43	0	945815552	59	5119
2026-01-03 00:08:58.78	212.83	31.38	-44.7	-48.1	15.0	0.00e+00	0	43	0	947912704	60	5489
2026-01-03 00:08:59.56	212.78	31.23	-44.8	-48.3	14.7	0.00e+00	0	43	0	950009856	60	5642
2026-01-03 00:09:00.85	212.69	30.98	-45.1	-48.8	14.5	0.00e+00	0	42	0	952107008	60	5930
2026-01-03 00:09:01.57	212.64	30.84	-45.1	-48.9	14.2	0.00e+00	0	43	0	953155584	61	5669
2026-01-03 00:09:02.86	212.55	30.59	-45.9	-50.1	13.0	2.36e-05	0	43	0	956301312	62	6170
2026-01-03 00:09:03.70	212.50	30.43	-46.2	-50.7	12.3	7.70e-05	0	42	0	957349888	63	6234
2026-01-03 00:09:04.85	212.42	30.21	-46.3	-51.0	12.1	2.89e-04	0	43	0	959447040	63	6458
2026-01-03 00:09:05.70	212.37	30.05	-46.5	-51.3	11.6	3.95e-04	0	42	0	961544192	63	6723
2026-01-03 00:09:06.85	212.30	29.83	-46.6	-51.5	11.5	1.04e-03	0	42	0	963641344	64	6490
2026-01-03 00:09:07.71	212.24	29.67	-46.6	-51.6	11.3	7.51e-04	0	43	0	964689920	64	6539
2026-01-03 00:09:08.85	212.17	29.46	-46.4	-51.0	12.0	6.47e-04	0	42	0	966787072	64	6099
2026-01-03 00:09:09.71	212.12	29.30	-46.5	-51.2	11.7	3.95e-04	0	43	0	968884224	64	6265
2026-01-03 00:09:10.94	212.04	29.07	-46.3	-50.8	12.1	3.07e-04	0	42	0	970981376	64	5980
2026-01-03 00:09:11.80	211.99	28.91	-46.4	-51.1	12.2	2.38e-04	0	43	0	973078528	63	6510
2026-01-03 00:09:12.94	211.93	28.71	-46.2	-50.6	12.6	8.16e-05	0	42	0	975175680	63	6147
2026-01-03 00:09:13.80	211.88	28.55	-46.1	-50.5	12.6	6.86e-05	0	43	0	976224256	63	6102
2026-01-03 00:09:15.09	211.80	28.32	-45.4	-49.2	13.9	9.10e-06	0	43	0	979369984	62	5557
2026-01-03 00:09:15.81	211.76	28.19	-45.4	-49.1	14.0	5.30e-06	0	43	0	980418560	62	5510
2026-01-03 00:09:17.27	211.68	27.94	-44.8	-48.1	14.9	7.00e-07	0	42	0	982515712	61	5216
2026-01-03 00:09:17.99	211.64	27.81	-44.6	-47.8	15.2	0.00e+00	0	43	0	984612864	60	5337
2026-01-03 00:09:19.27	211.57	27.59	-44.1	-47.1	15.9	0.00e+00	0	43	0	986710016	60	4881
2026-01-03 00:09:19.99	211.53	27.46	-43.5	-46.2	16.7	0.00e+00	0	42	0	987758592	58	4964
2026-01-03 00:09:21.28	211.46	27.24	-42.7	-45.2	17.7	0.00e+00	0	42	0	990904320	57	4677
2026-01-03 00:09:21.99	211.42	27.12	-42.7	-45.2	17.7	0.00e+00	0	43	0	991952896	57	4699
2026-01-03 00:09:23.28	211.36	26.90	-42.1	-44.5	18.4	0.00e+00	0	42	0	994050048	56	4564
2026-01-03 00:09:24.00	211.32	26.78	-41.9	-44.2	18.5	0.00e+00	0	43	0	995098624	55	4679
2026-01-03 00:09:25.29	211.25	26.56	-41.9	-44.3	18.5	0.00e+00	0	43	0	998244352	55	4722
2026-01-03 00:09:26.00	211.22	26.44	-41.7	-44.0	18.7	0.00e+00	0	43	0	999292928	55	4576
2026-01-03 00:09:27.29	211.15	26.23	-41.9	-44.3	18.4	0.00e+00	0	43	0	1001390080	55	4722
2026-01-03 00:09:28.17	211.11	26.08	-42.1	-44.5	18.2	0.00e+00	0	43	0	1003487232	55	4870
2026-01-03 00:09:29.62	211.04	25.85	-42.4	-45.0	17.8	0.00e+00	0	42	0	1006632960	55	5126
2026-01-03 00:09:30.34	211.00	25.73	-42.9	-45.5	17.5	0.00e+00	0	42	0	1007681536	56	5159
2026-01-03 00:09:31.84	210.93	25.49	-43.7	-46.7	16.3	0.00e+00	0	43	0	1009778688	58	5223
2026-01-03 00:09:32.55	210.90	25.37	-43.9	-47.0	16.1	0.00e+00	0	43	0	1011875840	58	5412
2026-01-03 00:09:33.84	210.84	25.17	-44.8	-48.4	14.8	0.00e+00	0	43	0	1013972992	60	5677
2026-01-03 00:09:34.56	210.80	25.05	-45.0	-48.6	14.5	7.00e-07	0	43	0	1015021568	60	5806
2026-01-03 00:09:35.84	210.75	24.85	-45.4	-49.3	13.7	1.50e-06	0	42	0	1018167296	61	5954
2026-01-03 00:09:36.56	210.71	24.74	-45.5	-49.5	13.6	3.00e-06	0	43	0	1019215872	61	6115
2026-01-03 00:09:37.85	210.66	24.53	-45.4	-49.3	13.8	9.90e-06	0	43	0	1021313024	61	5936
2026-01-03 00:09:38.56	210.62	24.42	-45.1	-48.8	14.2	7.00e-07	0	42	0	1023410176	61	5652
2026-01-03 00:09:39.85	210.57	24.23	-45.2	-48.9	14.2	0.00e+00	0	43	0	1025507328	61	5702
2026-01-03 00:09:40.57	210.54	24.12	-45.0	-48.7	14.4	1.50e-06	0	43	0	1026555904	61	5551
2026-01-03 00:09:41.85	210.48	23.92	-44.3	-47.6	15.5	0.00e+00	0	42	0	1028653056	60	5182
2026-01-03 00:09:42.57	210.45	23.81	-44.4	-47.7	15.4	0.00e+00	0	43	0	1030750208	60	5257
2026-01-03 00:09:43.86	210.40	23.62	-44.0	-47.1	15.9	0.00e+00	0	42	0	1032847360	59	5166
2026-01-03 00:09:44.58	210.37	23.51	-43.7	-46.6	16.4	0.00e+00	0	43	0	1033895936	59	4899
2026-01-03 00:09:45.87	210.31	23.32	-43.7	-46.6	16.3	0.00e+00	0	43	0	1037041664	59	4924
2026-01-03 00:09:46.58	210.29	23.21	-43.6	-46.5	16.5	0.00e+00	0	43	0	1038090240	59	4832
2026-01-03 00:09:47.87	210.23	23.02	-43.4	-46.2	16.8	0.00e+00	0	42	0	1040187392	58	4948
2026-01-03 00:09:48.59	210.20	22.92	-43.5	-46.4	16.6	0.00e+00	0	43	0	1041235968	58	5064
2026-01-03 00:09:49.87	210.15	22.73	-43.3	-46.1	16.9	0.00e+00	0	42	0	1044381696	58	4903
2026-01-03 00:09:50.59	210.13	22.63	-43.5	-46.3	16.7	0.00e+00	0	43	0	1045430272	58	5002
2026-01-03 00:09:51.88	210.08	22.44	-43.4	-46.3	16.7	0.00e+00	0	43	0	1047527424	58	4988
2026-01-03 00:09:52.60	210.05	22.34	-43.5	-46.3	16.7	0.00e+00	0	43	0	1049624576	58	5040
2026-01-03 00:09:54.16	209.99	22.11	-43.1	-45.9	17.1	0.00e+00	0	43	0	1051721728	58	4762
2026-01-03 00:09:54.87	209.96	22.01	-43.4	-46.2	16.9	0.00e+00	0	43	0	1053818880	58	4932
2026-01-03 00:09:56.24	209.91	21.82	-43.0	-45.7	17.3	0.00e+00	0	43	0	1055916032	57	4941
2026-01-03 00:09:56.95	209.89	21.72	-42.9	-45.5	17.4	0.00e+00	0	43	0	1056964608	57	4855
2026-01-03 00:09:58.27	209.84	21.54	-43.1	-45.8	17.1	0.00e+00	0	43	0	1060110336	57	5019
2026-01-03 00:09:58.99	209.81	21.44	-43.0	-45.6	17.3	0.00e+00	0	43	0	1061158912	57	4902
2026-01-03 00:10:00.28	209.77	21.26	-42.9	-45.6	17.3	0.00e+00	0	43	0	1063256064	57	4877
2026-01-03 00:10:01.27	209.73	21.13	-42.8	-45.4	17.4	0.00e+00	0	43	0	1065353216	57	4806
2026-01-03 00:10:02.27	209.70	20.99	-42.8	-45.4	17.5	0.00e+00	0	43	0	1067450368	57	4786
2026-01-03 00:10:03.28	209.66	20.85	-42.8	-45.4	17.5	0.00e+00	0	43	0	1069547520	57	4772
2026-01-03 00:10:04.28	209.63	20.72	-43.0	-45.6	17.3	0.00e+00	0	43	0	1070596096	57	4917
2026-01-03 00:10:05.28	209.59	20.58	-43.1	-45.8	17.1	0.00e+00	0	42	0	1072693248	57	5033
2026-01-03 00:10:06.28	209.56	20.45	-43.0	-45.7	17.2	0.00e+00	0	43	0	1074790400	57	4964
2026-01-03 00:10:07.28	209.53	20.32	-43.0	-45.7	17.2	0.00e+00	0	42	0	1076887552	57	4980
2026-01-03 00:10:08.28	209.49	20.19	-43.0	-45.7	17.2	0.00e+00	0	42	0	1078984704	57	4953
2026-01-03 00:10:09.35	209.46	20.05	-43.2	-46.0	16.9	0.00e+00	0	42	0	1081081856	57	5140
2026-01-03 00:10:10.22	209.43	19.93	-43.2	-45.9	17.0	0.00e+00	0	43	0	1082130432	57	5069
2026-01-03 00:10:11.58	209.39	19.76	-43.1	-45.9	17.0	0.00e+00	0	43	0	1085276160	57	5064
2026-01-03 00:10:12.29	209.36	19.67	-43.1	-45.8	17.0	0.00e+00	0	43	0	1086324736	57	5032
2026-01-03 00:10:13.79	209.32	19.47	-42.9	-45.6	17.3	0.00e+00	0	43	0	1088421888	57	4898
2026-01-03 00:10:14.50	209.29	19.38	-43.2	-46.0	16.9	0.00e+00	0	42	0	1090519040	57	5137
2026-01-03 00:10:15.79	209.25	19.22	-42.8	-45.4	17.4	0.00e+00	0	42	0	1092616192	57	4806
2026-01-03 00:10:16.51	209.23	19.13	-42.8	-45.4	17.5	0.00e+00	0	42	0	1093664768	57	4796
2026-01-03 00:10:17.80	209.19	18.97	-43.1	-45.8	17.0	0.00e+00	0	43	0	1096810496	57	5027
2026-01-03 00:10:18.51	209.17	18.88	-43.0	-45.7	17.2	0.00e+00	0	43	0	1097859072	57	4954
2026-01-03 00:10:19.80	209.13	18.72	-43.1	-45.8	17.0	0.00e+00	0	43	0	1099956224	57	5039
2026-01-03 00:10:20.52	209.11	18.63	-43.3	-46.1	16.8	0.00e+00	0	43	0	1102053376	57	5163
2026-01-03 00:10:21.81	209.07	18.47	-43.4	-46.3	16.6	0.00e+00	0	43	0	1104150528	57	5280
2026-01-03 00:10:22.52	209.05	18.38	-43.6	-46.5	16.4	0.00e+00	0	42	0	1105199104	57	5403
2026-01-03 00:10:23.81	209.02	18.22	-43.8	-46.7	16.2	0.00e+00	0	42	0	1107296256	58	5273
2026-01-03 00:10:24.53	209.00	18.14	-43.8	-46.7	16.2	0.00e+00	0	43	0	1109393408	58	5274
2026-01-03 00:10:25.82	208.96	17.98	-44.2	-47.3	15.6	0.00e+00	0	43	0	1111490560	59	5316
2026-01-03 00:10:26.53	208.94	17.90	-44.5	-47.8	15.2	0.00e+00	0	42	0	1112539136	59	5605
2026-01-03 00:10:27.86	208.90	17.74	-44.4	-47.7	15.2	0.00e+00	0	42	0	1115684864	60	5265
2026-01-03 00:10:28.57	208.88	17.65	-44.8	-48.3	14.7	0.00e+00	0	43	0	1116733440	60	5599
2026-01-03 00:10:29.86	208.85	17.50	-44.9	-48.5	14.4	0.00e+00	0	43	0	1118830592	60	5771
2026-01-03 00:10:30.59	208.83	17.41	-44.8	-48.2	14.7	7.00e-07	0	43	0	1120927744	60	5579
2026-01-03 00:10:31.88	208.79	17.26	-44.6	-48.1	14.9	0.00e+00	0	43	0	1123024896	60	5475
2026-01-03 00:10:32.59	208.77	17.18	-44.8	-48.4	14.6	0.00e+00	0	43	0	1124073472	60	5668
2026-01-03 00:10:33.88	208.74	17.03	-44.6	-48.0	14.9	0.00e+00	0	43	0	1126170624	60	5462
2026-01-03 00:10:34.60	208.72	16.95	-44.4	-47.7	15.2	0.00e+00	0	43	0	1128267776	60	5262
2026-01-03 00:10:36.22	208.68	16.76	-44.2	-47.4	15.6	0.00e+00	0	42	0	1131413504	60	5075
2026-01-03 00:10:36.80	208.66	16.69	-44.1	-47.2	15.7	0.00e+00	0	42	0	1132462080	60	4982
2026-01-03 00:10:38.39	208.62	16.51	-43.6	-46.6	16.2	0.00e+00	0	42	0	1134559232	59	4896
2026-01-03 00:10:38.97	208.61	16.45	-43.7	-46.7	16.1	0.00e+00	0	43	0	1136656384	59	4938
2026-01-03 00:10:40.55	208.57	16.27	-43.6	-46.6	16.2	0.00e+00	0	43	0	1138753536	59	4886
2026-01-03 00:10:41.12	208.56	16.20	-43.4	-46.3	16.6	0.00e+00	0	43	0	1139802112	58	4994
2026-01-03 00:10:42.81	208.51	16.01	-43.6	-46.5	16.5	0.00e+00	0	43	0	1142947840	58	5106
2026-01-03 00:10:43.38	208.50	15.95	-43.4	-46.2	16.6	0.00e+00	0	42	0	1143996416	58	4976
2026-01-03 00:10:44.97	208.46	15.78	-43.5	-46.4	16.5	0.00e+00	0	43	0	1147142144	58	5052
2026-01-03 00:10:45.55	208.45	15.71	-43.5	-46.4	16.4	0.00e+00	0	42	0	1148190720	58	5068
2026-01-03 00:10:47.15	208.41	15.54	-43.7	-46.7	16.1	0.00e+00	0	43	0	1151336448	58	5258
2026-01-03 00:10:48.03	208.39	15.44	-43.9	-46.9	16.0	0.00e+00	0	43	0	1153433600	58	5388
2026-01-03 00:10:49.17	208.36	15.32	-44.1	-47.2	15.6	0.00e+00	0	43	0	1155530752	58	5587
2026-01-03 00:10:50.04	208.34	15.22	-44.3	-47.6	15.3	7.00e-07	0	43	0	1156579328	59	5466
2026-01-03 00:10:51.18	208.32	15.10	-44.3	-47.6	15.3	0.00e+00	0	43	0	1158676480	59	5481
2026-01-03 00:10:52.04	208.30	15.01	-44.7	-48.1	14.8	0.00e+00	0	43	0	1160773632	59	5822
2026-01-03 00:10:53.18	208.27	14.89	-44.7	-48.2	14.7	0.00e+00	0	43	0	1162870784	60	5549
2026-01-03 00:10:54.04	208.25	14.80	-44.6	-48.0	14.9	0.00e+00	0	43	0	1163919360	60	5426
2026-01-03 00:10:55.19	208.23	14.68	-44.9	-48.6	14.4	0.00e+00	0	43	0	1167065088	60	5798
2026-01-03 00:10:56.13	208.21	14.58	-45.0	-48.8	14.1	3.00e-06	0	43	0	1168113664	60	5935
2026-01-03 00:10:57.30	208.18	14.45	-45.1	-48.8	14.0	2.20e-06	0	43	0	1170210816	60	5983
2026-01-03 00:10:58.16	208.16	14.36	-45.1	-48.9	14.0	3.00e-06	0	43	0	1172307968	60	6006
2026-01-03 00:10:59.52	208.13	14.22	-44.9	-48.5	14.4	7.00e-07	0	43	0	1174405120	60	5744
2026-01-03 00:11:00.23	208.12	14.15	-44.7	-48.3	14.6	1.50e-06	0	43	0	1176502272	60	5638
2026-01-03 00:11:01.52	208.09	14.02	-44.5	-48.0	14.9	0.00e+00	0	43	0	1178599424	60	5410
2026-01-03 00:11:02.23	208.08	13.94	-44.5	-48.0	14.9	7.00e-07	0	43	0	1179648000	60	5410
2026-01-03 00:11:03.81	208.04	13.78	-44.4	-47.8	15.0	0.00e+00	0	43	0	1182793728	60	5328
2026-01-03 00:11:04.41	208.03	13.72	-44.2	-47.5	15.3	0.00e+00	0	42	0	1183842304	60	5119
2026-01-03 00:11:06.12	208.00	13.55	-43.8	-46.9	15.9	0.00e+00	0	43	0	1186988032	59	5078
2026-01-03 00:11:06.70	207.99	13.49	-43.8	-46.9	15.9	0.00e+00	0	43	0	1188036608	59	5050
2026-01-03 00:11:08.29	207.95	13.33	-43.6	-46.6	16.2	0.00e+00	0	43	0	1191182336	59	4881
2026-01-03 00:11:08.86	207.94	13.28	-43.5	-46.4	16.3	0.00e+00	0	43	0	1192230912	59	4812
2026-01-03 00:11:10.45	207.91	13.12	-43.5	-46.4	16.4	0.00e+00	0	43	0	1195376640	58	5085
2026-01-03 00:11:11.03	207.90	13.06	-43.4	-46.3	16.4	0.00e+00	0	43	0	1196425216	58	5040
2026-01-03 00:11:12.62	207.87	12.91	-43.1	-45.9	16.9	0.00e+00	0	43	0	1199570944	58	4793
2026-01-03 00:11:13.45	207.85	12.82	-42.9	-45.7	17.1	0.00e+00	0	43	0	1200619520	57	4942
2026-01-03 00:11:14.60	207.83	12.71	-43.1	-45.8	16.9	0.00e+00	0	43	0	1202716672	57	5024
2026-01-03 00:11:15.45	207.82	12.63	-42.9	-45.6	17.1	0.00e+00	0	43	0	1204813824	57	4920
2026-01-03 00:11:16.63	207.79	12.52	-42.8	-45.5	17.2	0.00e+00	0	43	0	1206910976	57	4859
2026-01-03 00:11:17.49	207.78	12.43	-43.0	-45.8	16.9	0.00e+00	0	43	0	1207959552	57	5006
2026-01-03 00:11:18.64	207.76	12.32	-42.9	-45.7	17.0	0.00e+00	0	43	0	1210056704	57	4940
2026-01-03 00:11:19.50	207.74	12.24	-42.9	-45.6	17.1	0.00e+00	0	43	0	1212153856	57	4889
2026-01-03 00:11:20.64	207.72	12.13	-42.9	-45.6	17.1	0.00e+00	0	43	0	1214251008	57	4910
2026-01-03 00:11:21.50	207.70	12.05	-42.7	-45.4	17.2	0.00e+00	0	43	0	1216348160	57	4806
2026-01-03 00:11:22.65	207.68	11.94	-42.7	-45.5	17.2	0.00e+00	0	43	0	1218445312	57	4824
2026-01-03 00:11:23.65	207.67	11.85	-42.9	-45.7	17.0	0.00e+00	0	42	0	1219493888	57	4939
2026-01-03 00:11:24.65	207.65	11.75	-42.9	-45.6	17.0	0.00e+00	0	43	0	1221591040	57	4920
2026-01-03 00:11:25.86	207.63	11.64	-42.9	-45.7	17.0	0.00e+00	0	43	0	1223688192	57	4947
2026-01-03 00:11:26.75	207.61	11.56	-42.9	-45.8	16.9	0.00e+00	0	43	0	1225785344	57	4990
2026-01-03 00:11:27.89	207.59	11.45	-43.0	-45.9	16.8	0.00e+00	0	43	0	1227882496	57	5061
2026-01-03 00:11:28.82	207.58	11.37	-43.0	-45.8	16.9	0.00e+00	0	43	0	1229979648	57	5023
2026-01-03 00:11:30.01	207.55	11.26	-43.1	-45.9	16.8	0.00e+00	0	43	0	1232076800	57	5078
2026-01-03 00:11:30.87	207.54	11.18	-43.2	-46.1	16.6	0.00e+00	0	43	0	1233125376	57	5176
2026-01-03 00:11:32.01	207.52	11.08	-43.2	-46.1	16.5	0.00e+00	0	43	0	1235222528	57	5216
2026-01-03 00:11:32.87	207.51	11.00	-43.3	-46.2	16.5	0.00e+00	0	43	0	1237319680	57	5232
2026-01-03 00:11:34.01	207.49	10.89	-43.4	-46.3	16.4	0.00e+00	0	43	0	1239416832	57	5317
2026-01-03 00:11:34.88	207.47	10.82	-43.3	-46.2	16.5	0.00e+00	0	43	0	1240465408	57	5259
2026-01-03 00:11:36.02	207.46	10.71	-43.4	-46.4	16.2	0.00e+00	0	43	0	1243611136	57	5391
2026-01-03 00:11:36.88	207.44	10.64	-43.5	-46.6	16.1	0.00e+00	0	42	0	1244659712	57	5493
2026-01-03 00:11:38.02	207.42	10.53	-43.5	-46.7	16.0	0.00e+00	0	42	0	1246756864	57	5542
2026-01-03 00:11:38.88	207.41	10.46	-43.4	-46.5	16.1	0.00e+00	0	43	0	1248854016	57	5461
2026-01-03 00:11:40.03	207.39	10.36	-43.8	-47.1	15.6	0.00e+00	0	43	0	1250951168	58	5476
2026-01-03 00:11:40.88	207.38	10.28	-43.7	-47.0	15.7	0.00e+00	0	43	0	1251999744	58	5408
2026-01-03 00:11:42.02	207.36	10.18	-43.7	-46.9	15.7	0.00e+00	0	43	0	1254096896	58	5400
2026-01-03 00:11:42.88	207.35	10.11	-43.8	-47.1	15.5	0.00e+00	0	42	0	1256194048	58	5496
