passes_logs/2026/01/02/T1/T1__20260102_021638_AQUA_rec.log

#Pass ID: 20260102_021638_AQUA
#Satellite: AQUA
#Configuration: AQUA
#almurnet v.1.7.20251203
#Start time: 2026-01-02 02:16:39

#Version: 2.0.20230620
#Station: T1
#Location: 37.570604 lon 55.790049 lat
#TLE: 1 27424U 02022A   25365.92641127  .00002078  00000+0  42628-3 0  9999
#TLE: 2 27424  98.4058 327.1196 0001962  94.7781 340.6230 14.61783896258835

#Time	Az	El	Level	Level2	SNR	BER	BlckErr	Temp	State	Recorded	gain1	gain2
2026-01-02 02:16:39.06	7.94	5.06	-51.3	-72.0	3.8	7.45e-01	0	41	0	0	73	40721
2026-01-02 02:16:40.06	7.88	5.13	-51.3	-72.0	3.8	7.48e-01	0	41	104	0	73	40697
2026-01-02 02:16:41.06	7.83	5.20	-51.3	-72.0	3.8	7.45e-01	0	41	104	0	73	40587
2026-01-02 02:16:42.07	7.77	5.27	-51.3	-72.0	3.8	7.46e-01	0	41	104	0	73	40586
2026-01-02 02:16:43.07	7.71	5.34	-51.3	-72.0	3.8	7.45e-01	0	41	104	0	73	40667
2026-01-02 02:16:44.07	7.65	5.41	-51.2	-72.0	3.8	7.47e-01	0	41	104	0	73	40636
2026-01-02 02:16:45.08	7.59	5.49	-51.3	-72.0	3.8	7.49e-01	0	41	104	0	73	40708
2026-01-02 02:16:46.08	7.53	5.56	-51.3	-72.0	3.8	7.45e-01	0	41	104	0	73	40687
2026-01-02 02:16:47.09	7.47	5.63	-51.3	-72.0	3.8	7.43e-01	0	41	104	0	73	40662
2026-01-02 02:16:48.09	7.41	5.70	-51.3	-72.0	3.8	7.48e-01	0	41	104	0	73	40720
2026-01-02 02:16:49.10	7.35	5.78	-51.3	-72.0	3.8	7.46e-01	0	41	104	0	73	40737
2026-01-02 02:16:50.10	7.29	5.85	-51.3	-72.0	3.8	7.44e-01	0	41	104	0	73	40673
2026-01-02 02:16:51.11	7.23	5.92	-51.3	-72.0	3.8	7.47e-01	0	41	104	0	73	40625
2026-01-02 02:16:52.11	7.17	5.99	-51.3	-72.0	3.8	7.45e-01	0	41	104	0	73	40633
2026-01-02 02:16:53.12	7.10	6.07	-51.3	-72.0	3.8	7.45e-01	0	42	104	0	73	40673
2026-01-02 02:16:54.12	7.04	6.14	-51.2	-72.0	3.8	7.48e-01	0	41	104	0	73	40734
2026-01-02 02:16:55.12	6.98	6.21	-51.2	-72.0	3.8	7.45e-01	0	42	104	0	73	40724
2026-01-02 02:16:56.13	6.91	6.29	-51.3	-72.0	3.8	7.49e-01	0	42	104	0	73	40642
2026-01-02 02:16:57.14	6.85	6.36	-51.3	-72.0	3.8	7.47e-01	0	41	104	0	73	40747
2026-01-02 02:16:58.14	6.79	6.44	-51.3	-72.0	3.8	7.46e-01	0	42	104	0	73	40694
2026-01-02 02:16:59.14	6.72	6.51	-51.2	-72.0	3.8	7.46e-01	0	42	104	0	73	40730
2026-01-02 02:17:00.14	6.66	6.59	-51.3	-72.0	3.8	7.43e-01	0	41	104	0	73	40619
2026-01-02 02:17:01.15	6.59	6.66	-51.3	-72.0	3.8	7.47e-01	0	42	104	0	73	40661
2026-01-02 02:17:02.15	6.53	6.74	-51.3	-72.0	3.8	7.42e-01	0	42	104	0	73	40749
2026-01-02 02:17:03.16	6.46	6.81	-51.3	-72.0	3.8	7.48e-01	0	42	104	0	73	40679
2026-01-02 02:17:04.16	6.39	6.89	-51.3	-72.0	3.8	7.48e-01	0	42	104	0	73	40693
2026-01-02 02:17:05.16	6.33	6.96	-51.3	-72.0	3.8	7.46e-01	0	42	104	0	73	40709
2026-01-02 02:17:06.17	6.26	7.04	-51.2	-72.0	3.8	7.45e-01	0	42	104	0	73	40630
2026-01-02 02:17:07.17	6.19	7.11	-51.2	-72.0	3.8	7.46e-01	0	42	104	0	73	40705
2026-01-02 02:17:08.38	6.11	7.21	-51.3	-72.0	3.8	7.50e-01	0	42	104	0	73	40708
2026-01-02 02:17:09.27	6.05	7.27	-51.3	-72.0	3.8	7.47e-01	0	42	104	0	73	40675
2026-01-02 02:17:10.61	5.96	7.38	-51.3	-72.0	3.8	7.47e-01	0	42	104	0	73	40691
2026-01-02 02:17:11.32	5.91	7.43	-51.3	-72.0	3.8	7.41e-01	0	42	104	0	73	40742
2026-01-02 02:17:12.82	5.81	7.55	-51.3	-72.0	3.8	7.47e-01	0	42	104	0	73	40714
2026-01-02 02:17:13.54	5.76	7.60	-51.3	-72.0	3.8	7.44e-01	0	42	104	0	73	40698
2026-01-02 02:17:14.88	5.66	7.71	-51.3	-72.0	3.8	7.48e-01	0	42	104	0	73	40703
2026-01-02 02:17:15.60	5.61	7.76	-51.3	-72.0	3.8	7.45e-01	0	42	104	0	73	40781
2026-01-02 02:17:16.89	5.52	7.86	-51.3	-72.0	3.8	7.44e-01	0	42	104	0	73	40693
2026-01-02 02:17:17.61	5.47	7.92	-51.3	-72.0	3.8	7.44e-01	0	42	104	0	73	40675
2026-01-02 02:17:18.90	5.37	8.02	-51.3	-72.0	3.8	7.45e-01	0	42	104	0	73	40692
2026-01-02 02:17:19.61	5.32	8.08	-51.3	-72.0	3.8	7.47e-01	0	42	104	0	73	40736
2026-01-02 02:17:20.91	5.23	8.18	-51.3	-72.0	3.8	7.46e-01	0	42	104	0	73	40769
2026-01-02 02:17:21.62	5.17	8.24	-51.3	-72.0	3.8	7.47e-01	0	42	104	0	73	40719
2026-01-02 02:17:22.92	5.08	8.34	-51.3	-72.0	3.8	7.49e-01	0	43	104	0	73	40704
2026-01-02 02:17:23.63	5.03	8.40	-51.3	-72.0	3.8	7.47e-01	0	42	104	0	73	40685
2026-01-02 02:17:24.92	4.93	8.50	-51.3	-72.0	3.8	7.46e-01	0	42	104	0	73	40695
2026-01-02 02:17:25.64	4.87	8.56	-51.3	-72.0	3.8	7.48e-01	0	43	104	0	73	40691
2026-01-02 02:17:26.93	4.78	8.66	-51.2	-72.0	3.8	7.44e-01	0	43	104	0	73	40637
2026-01-02 02:17:27.65	4.72	8.72	-51.3	-72.0	3.8	7.44e-01	0	42	104	0	73	40682
2026-01-02 02:17:28.94	4.62	8.82	-51.3	-72.0	3.8	7.44e-01	0	42	104	0	73	40737
2026-01-02 02:17:29.66	4.57	8.88	-51.3	-72.0	3.8	7.49e-01	0	42	104	0	73	40693
2026-01-02 02:17:30.95	4.47	8.99	-51.3	-72.0	3.8	7.49e-01	0	42	104	0	73	40710
2026-01-02 02:17:31.67	4.41	9.04	-51.3	-72.0	3.8	7.45e-01	0	42	104	0	73	40681
2026-01-02 02:17:32.96	4.31	9.15	-51.3	-72.0	3.8	7.42e-01	0	42	104	0	73	40695
2026-01-02 02:17:33.67	4.25	9.21	-51.3	-72.0	3.8	7.46e-01	0	43	104	0	73	40710
2026-01-02 02:17:34.97	4.15	9.31	-51.3	-72.0	3.8	7.47e-01	0	43	104	0	73	40659
2026-01-02 02:17:35.68	4.09	9.37	-51.3	-72.0	3.8	7.46e-01	0	43	104	0	73	40607
2026-01-02 02:17:36.97	3.99	9.48	-51.3	-72.0	3.8	7.46e-01	0	43	104	0	73	40680
2026-01-02 02:17:37.69	3.93	9.54	-51.3	-72.0	3.8	7.50e-01	0	43	104	0	73	40717
2026-01-02 02:17:38.98	3.82	9.65	-51.3	-72.0	3.8	7.46e-01	0	43	104	0	73	40664
2026-01-02 02:17:39.70	3.76	9.71	-51.3	-72.0	3.8	7.47e-01	0	43	104	0	73	40717
2026-01-02 02:17:40.99	3.66	9.82	-51.3	-72.0	3.8	7.43e-01	0	43	104	0	73	40676
2026-01-02 02:17:41.71	3.60	9.88	-51.3	-72.0	3.8	7.44e-01	0	43	104	0	73	40671
2026-01-02 02:17:43.00	3.49	9.98	-51.3	-72.0	3.8	7.45e-01	0	43	104	0	73	40748
2026-01-02 02:17:43.72	3.43	10.05	-51.3	-72.0	3.8	7.48e-01	0	43	104	0	73	40728
2026-01-02 02:17:45.01	3.32	10.16	-51.3	-72.0	3.8	7.47e-01	0	43	104	0	73	40673
2026-01-02 02:17:45.72	3.26	10.22	-51.3	-72.0	3.8	7.45e-01	0	43	104	0	73	40680
2026-01-02 02:17:47.02	3.14	10.33	-51.3	-72.0	3.8	7.48e-01	0	43	104	0	73	40709
2026-01-02 02:17:47.73	3.08	10.39	-51.3	-72.0	3.8	7.47e-01	0	43	104	0	73	40612
2026-01-02 02:17:49.02	2.97	10.50	-51.3	-72.0	3.8	7.46e-01	0	43	104	0	73	40764
2026-01-02 02:17:49.74	2.91	10.56	-51.3	-72.0	3.8	7.46e-01	0	43	104	0	73	40681
2026-01-02 02:17:51.03	2.79	10.67	-51.3	-72.0	3.8	7.45e-01	0	43	104	0	73	40646
2026-01-02 02:17:51.75	2.73	10.73	-51.3	-72.0	3.8	7.47e-01	0	43	104	0	73	40707
2026-01-02 02:17:53.04	2.61	10.85	-51.3	-72.0	3.8	7.46e-01	0	43	104	0	73	40664
2026-01-02 02:17:53.76	2.55	10.91	-51.3	-72.0	3.8	7.49e-01	0	43	104	0	73	40778
2026-01-02 02:17:55.05	2.43	11.02	-51.3	-72.0	3.8	7.47e-01	0	43	104	0	73	40670
2026-01-02 02:17:55.77	2.36	11.09	-51.3	-72.0	3.8	7.47e-01	0	43	104	0	73	40741
2026-01-02 02:17:57.06	2.24	11.20	-51.3	-72.0	3.8	7.46e-01	0	43	104	0	73	40653
2026-01-02 02:17:57.78	2.18	11.26	-51.3	-72.0	3.8	7.43e-01	0	43	104	0	73	40699
2026-01-02 02:17:59.07	2.06	11.38	-51.3	-72.0	3.8	7.44e-01	0	43	104	0	73	40658
2026-01-02 02:17:59.79	1.99	11.44	-51.3	-72.0	3.8	7.46e-01	0	43	104	0	73	40696
2026-01-02 02:18:01.08	1.87	11.56	-51.3	-72.0	3.8	7.47e-01	0	43	104	0	73	40778
2026-01-02 02:18:01.79	1.80	11.62	-51.3	-72.0	3.8	7.49e-01	0	43	104	0	73	40706
2026-01-02 02:18:03.09	1.67	11.74	-51.3	-72.0	3.8	7.44e-01	0	43	104	0	73	40691
2026-01-02 02:18:03.80	1.60	11.80	-51.3	-72.0	3.8	7.49e-01	0	43	104	0	73	40724
2026-01-02 02:18:05.09	1.48	11.92	-51.3	-72.0	3.8	7.47e-01	0	43	104	0	73	40680
2026-01-02 02:18:05.81	1.41	11.98	-51.3	-72.0	3.8	7.49e-01	0	43	104	0	73	40702
2026-01-02 02:18:07.10	1.28	12.10	-51.3	-72.0	3.8	7.47e-01	0	43	104	0	73	40698
2026-01-02 02:18:07.82	1.21	12.17	-51.3	-72.0	3.8	7.47e-01	0	43	104	0	73	40669
2026-01-02 02:18:09.11	1.08	12.29	-51.3	-72.0	3.8	7.45e-01	0	43	104	0	73	40735
2026-01-02 02:18:09.83	1.01	12.35	-51.3	-72.0	3.8	7.44e-01	0	43	104	0	73	40731
2026-01-02 02:18:11.12	0.87	12.47	-51.3	-72.0	3.8	7.44e-01	0	43	104	0	73	40652
2026-01-02 02:18:11.84	0.80	12.54	-51.3	-72.0	3.8	7.46e-01	0	43	104	0	73	40668
2026-01-02 02:18:13.13	0.67	12.66	-51.3	-72.0	3.8	7.46e-01	0	43	104	0	73	40685
2026-01-02 02:18:13.85	0.59	12.72	-51.3	-72.0	3.8	7.47e-01	0	43	104	0	73	40660
2026-01-02 02:18:15.14	0.46	12.84	-51.3	-72.0	3.8	7.47e-01	0	43	104	0	73	40714
2026-01-02 02:18:15.85	0.38	12.91	-51.3	-72.0	3.8	7.45e-01	0	43	104	0	73	40613
2026-01-02 02:18:17.14	0.25	13.03	-51.3	-72.0	3.8	7.46e-01	0	43	104	0	73	40694
2026-01-02 02:18:17.86	0.17	13.10	-51.3	-72.0	3.8	7.45e-01	0	43	104	0	73	40663
2026-01-02 02:18:19.15	0.03	13.22	-51.3	-72.0	3.8	7.44e-01	0	43	104	0	73	40634
2026-01-02 02:18:19.87	359.95	13.29	-51.3	-72.0	3.8	7.46e-01	0	43	104	0	73	40674
2026-01-02 02:18:21.16	359.81	13.41	-51.2	-72.0	3.8	7.50e-01	0	43	104	0	73	40631
2026-01-02 02:18:21.88	359.73	13.48	-51.2	-72.0	3.8	7.46e-01	0	43	104	0	73	40714
2026-01-02 02:18:23.17	359.59	13.61	-51.3	-72.0	3.8	7.46e-01	0	43	104	0	73	40683
2026-01-02 02:18:23.89	359.51	13.68	-51.3	-72.0	3.8	7.44e-01	0	43	104	0	73	40745
2026-01-02 02:18:25.18	359.37	13.80	-51.3	-72.0	3.8	7.46e-01	0	43	104	0	73	40675
2026-01-02 02:18:26.21	359.25	13.90	-51.3	-72.0	3.8	7.48e-01	0	43	104	0	73	40714
2026-01-02 02:18:27.53	359.10	14.03	-51.3	-72.0	3.8	7.45e-01	0	43	104	0	73	40753
2026-01-02 02:18:28.28	359.01	14.10	-51.3	-72.0	3.8	7.48e-01	0	43	104	0	73	40687
2026-01-02 02:18:29.89	358.82	14.26	-51.3	-72.0	3.8	7.49e-01	0	43	104	0	73	40671
2026-01-02 02:18:30.46	358.76	14.32	-51.3	-72.0	3.8	7.47e-01	0	43	104	0	73	40762
2026-01-02 02:18:32.04	358.57	14.47	-51.3	-72.0	3.8	7.46e-01	0	43	104	0	73	40718
2026-01-02 02:18:32.62	358.50	14.53	-51.3	-72.0	3.8	7.47e-01	0	43	104	0	73	40695
2026-01-02 02:18:34.19	358.31	14.69	-51.3	-72.0	3.8	7.47e-01	0	43	104	0	73	40689
2026-01-02 02:18:34.77	358.24	14.75	-51.3	-72.0	3.8	7.47e-01	0	43	104	0	73	40686
2026-01-02 02:18:36.35	358.05	14.90	-51.3	-72.0	3.8	7.43e-01	0	43	104	0	73	40696
2026-01-02 02:18:36.94	357.98	14.96	-51.3	-72.0	3.8	7.44e-01	0	43	104	0	73	40729
2026-01-02 02:18:38.51	357.79	15.12	-51.3	-72.0	3.8	7.48e-01	0	43	104	0	73	40716
2026-01-02 02:18:39.09	357.71	15.18	-51.3	-72.0	3.8	7.46e-01	0	43	104	0	73	40721
2026-01-02 02:18:40.66	357.52	15.34	-51.3	-72.0	3.8	7.48e-01	0	43	104	0	73	40731
2026-01-02 02:18:41.24	357.44	15.40	-51.3	-72.0	3.8	7.44e-01	0	43	104	0	73	40731
2026-01-02 02:18:42.82	357.24	15.56	-51.3	-72.0	3.8	7.48e-01	0	43	104	0	73	40688
2026-01-02 02:18:43.43	357.16	15.62	-51.3	-72.0	3.8	7.49e-01	0	43	104	0	73	40699
2026-01-02 02:18:45.01	356.96	15.79	-51.3	-72.0	3.8	7.46e-01	0	43	104	0	73	40691
2026-01-02 02:18:45.60	356.88	15.85	-51.3	-72.0	3.8	7.44e-01	0	43	104	0	73	40646
2026-01-02 02:18:47.18	356.67	16.01	-51.3	-72.0	3.8	7.47e-01	0	43	104	0	73	40672
2026-01-02 02:18:47.75	356.59	16.07	-51.3	-72.0	3.8	7.44e-01	0	43	104	0	73	40767
2026-01-02 02:18:49.33	356.38	16.24	-51.3	-72.0	3.8	7.48e-01	0	43	104	0	73	40760
2026-01-02 02:18:49.90	356.31	16.30	-51.3	-72.0	3.8	7.49e-01	0	43	104	0	73	40637
2026-01-02 02:18:51.48	356.09	16.46	-51.3	-72.0	3.8	7.47e-01	0	43	104	0	73	40696
2026-01-02 02:18:52.07	356.01	16.53	-51.3	-72.0	3.8	7.46e-01	0	44	104	0	73	40690
2026-01-02 02:18:53.65	355.79	16.69	-51.3	-72.0	3.8	7.44e-01	0	43	104	0	73	40783
2026-01-02 02:18:54.22	355.71	16.75	-51.3	-72.0	3.8	7.49e-01	0	43	104	0	73	40769
2026-01-02 02:18:55.82	355.48	16.92	-51.3	-72.0	3.8	7.46e-01	0	43	104	0	73	40749
2026-01-02 02:18:56.39	355.40	16.99	-51.3	-72.0	3.8	7.44e-01	0	43	104	0	73	40732
2026-01-02 02:18:58.24	355.14	17.19	-51.3	-72.0	3.8	7.44e-01	0	43	104	0	73	40733
2026-01-02 02:18:58.81	355.05	17.25	-51.3	-72.0	3.8	7.46e-01	0	43	104	0	73	40717
2026-01-02 02:19:00.39	354.82	17.42	-51.3	-72.0	3.8	7.45e-01	0	43	104	0	73	40698
2026-01-02 02:19:00.98	354.74	17.48	-51.3	-72.0	3.8	7.49e-01	0	43	104	0	73	40729
2026-01-02 02:19:02.56	354.50	17.65	-51.3	-72.0	3.8	7.46e-01	0	43	104	0	73	40834
2026-01-02 02:19:03.14	354.41	17.72	-51.3	-72.0	3.8	7.46e-01	0	43	104	0	73	40705
2026-01-02 02:19:04.71	354.18	17.89	-51.3	-72.0	3.8	7.45e-01	0	44	104	0	73	40686
2026-01-02 02:19:05.29	354.09	17.96	-51.3	-72.0	3.8	7.45e-01	0	43	104	0	73	40742
2026-01-02 02:19:06.87	353.85	18.13	-51.3	-72.0	3.8	7.49e-01	0	43	104	0	73	40689
2026-01-02 02:19:07.47	353.75	18.20	-51.3	-72.0	3.8	7.47e-01	0	43	104	0	73	40656
2026-01-02 02:19:09.05	353.51	18.37	-51.3	-72.0	3.8	7.45e-01	0	43	104	0	73	40793
2026-01-02 02:19:09.62	353.42	18.44	-51.3	-72.0	3.8	7.42e-01	0	43	104	0	73	40722
2026-01-02 02:19:11.22	353.16	18.62	-51.3	-72.0	3.8	7.44e-01	0	43	104	0	73	40777
2026-01-02 02:19:11.79	353.07	18.68	-51.3	-72.0	3.8	7.44e-01	0	43	104	0	73	40737
2026-01-02 02:19:13.38	352.81	18.86	-51.3	-72.0	3.8	7.47e-01	0	44	104	0	73	40736
2026-01-02 02:19:13.96	352.72	18.93	-51.3	-72.0	3.8	7.44e-01	0	43	104	0	73	40805
2026-01-02 02:19:15.53	352.46	19.10	-51.3	-72.0	3.8	7.47e-01	0	43	104	0	73	40712
2026-01-02 02:19:16.14	352.36	19.17	-51.3	-72.0	3.8	7.47e-01	0	43	104	0	73	40710
2026-01-02 02:19:17.72	352.09	19.35	-51.3	-72.0	3.8	7.47e-01	0	43	104	0	73	40757
2026-01-02 02:19:18.30	351.99	19.42	-51.3	-72.0	3.8	7.46e-01	0	43	104	0	73	40748
2026-01-02 02:19:20.03	351.70	19.62	-51.3	-72.0	3.8	7.48e-01	0	43	104	0	73	40736
2026-01-02 02:19:20.60	351.60	19.69	-51.3	-72.0	3.8	7.48e-01	0	43	104	0	73	40801
2026-01-02 02:19:22.19	351.32	19.87	-51.3	-72.0	3.8	7.47e-01	0	43	104	0	73	40762
2026-01-02 02:19:22.77	351.22	19.94	-51.3	-72.0	3.8	7.46e-01	0	43	104	0	73	40704
2026-01-02 02:19:24.35	350.94	20.12	-51.3	-72.0	3.8	7.45e-01	0	43	104	0	73	40714
2026-01-02 02:19:24.92	350.84	20.19	-51.3	-72.0	3.8	7.43e-01	0	43	104	0	73	40793
2026-01-02 02:19:26.52	350.55	20.37	-51.3	-72.0	3.8	7.48e-01	0	43	104	0	73	40758
2026-01-02 02:19:27.09	350.45	20.44	-51.3	-72.0	3.8	7.48e-01	0	43	104	0	73	40764
2026-01-02 02:19:28.67	350.16	20.63	-51.3	-72.0	3.8	7.47e-01	0	43	104	0	73	40748
2026-01-02 02:19:29.26	350.05	20.70	-51.3	-72.0	3.8	7.48e-01	0	43	104	0	73	40754
2026-01-02 02:19:30.84	349.75	20.88	-51.3	-72.0	3.8	7.47e-01	0	44	104	0	73	40796
2026-01-02 02:19:31.44	349.64	20.96	-51.3	-72.0	3.8	7.45e-01	0	43	104	0	73	40758
2026-01-02 02:19:33.02	349.34	21.14	-51.3	-72.0	3.8	7.41e-01	0	43	104	0	73	40729
2026-01-02 02:19:33.59	349.23	21.21	-51.3	-72.0	3.8	7.46e-01	0	44	104	0	73	40767
2026-01-02 02:19:35.17	348.93	21.40	-51.3	-72.0	3.8	7.46e-01	0	43	104	0	73	40770
2026-01-02 02:19:35.76	348.81	21.47	-51.3	-72.0	3.8	7.49e-01	0	44	104	0	73	40683
2026-01-02 02:19:37.33	348.50	21.66	-51.3	-72.0	3.8	7.43e-01	0	43	104	0	73	40762
2026-01-02 02:19:37.91	348.39	21.73	-51.3	-72.0	3.8	7.44e-01	0	44	104	0	73	40774
2026-01-02 02:19:39.49	348.07	21.92	-51.3	-72.0	3.8	7.47e-01	0	43	104	0	73	40789
2026-01-02 02:19:40.08	347.95	21.99	-51.3	-72.0	3.8	7.43e-01	0	44	104	0	73	40729
2026-01-02 02:19:41.65	347.63	22.19	-51.3	-72.0	3.8	7.47e-01	0	44	104	0	73	40709
2026-01-02 02:19:42.26	347.50	22.26	-51.3	-72.0	3.8	7.46e-01	0	43	104	0	73	40722
2026-01-02 02:19:43.96	347.15	22.47	-51.3	-72.0	3.8	7.46e-01	0	44	104	0	73	40735
2026-01-02 02:19:44.54	347.03	22.54	-51.3	-72.0	3.8	7.49e-01	0	43	104	0	73	40707
2026-01-02 02:19:46.13	346.69	22.73	-51.3	-72.0	3.8	7.48e-01	0	43	104	0	73	40659
2026-01-02 02:19:46.71	346.57	22.80	-51.3	-72.0	3.8	7.43e-01	0	43	104	0	73	40840
2026-01-02 02:19:48.29	346.23	23.00	-51.3	-72.0	3.8	7.44e-01	0	44	104	0	73	40803
2026-01-02 02:19:48.86	346.10	23.07	-51.3	-72.0	3.8	7.47e-01	0	44	104	0	73	40739
2026-01-02 02:19:50.45	345.75	23.27	-51.3	-72.0	3.8	7.49e-01	0	44	104	0	73	40696
2026-01-02 02:19:51.03	345.62	23.34	-51.3	-72.0	3.8	7.45e-01	0	44	104	0	73	40725
2026-01-02 02:19:52.60	345.27	23.53	-51.3	-72.0	3.8	7.46e-01	0	44	104	0	73	40718
2026-01-02 02:19:53.19	345.14	23.61	-51.3	-72.0	3.8	7.46e-01	0	44	104	0	73	40711
2026-01-02 02:19:54.77	344.78	23.80	-51.3	-72.0	3.8	7.47e-01	0	43	104	0	73	40768
2026-01-02 02:19:55.38	344.64	23.88	-51.3	-72.0	3.8	7.47e-01	0	44	104	0	73	40716
2026-01-02 02:19:56.96	344.27	24.08	-51.3	-72.0	3.8	7.45e-01	0	44	104	0	73	40758
2026-01-02 02:19:57.56	344.13	24.15	-51.3	-72.0	3.8	7.45e-01	0	43	104	0	73	40654
2026-01-02 02:19:59.14	343.76	24.35	-51.3	-72.0	3.8	7.42e-01	0	44	104	0	73	40702
2026-01-02 02:19:59.71	343.62	24.42	-51.3	-72.0	3.8	7.47e-01	0	44	104	0	73	40673
2026-01-02 02:20:01.29	343.24	24.62	-51.3	-72.0	3.8	7.50e-01	0	44	104	0	73	40739
2026-01-02 02:20:01.88	343.10	24.69	-51.3	-72.0	3.8	7.46e-01	0	44	104	0	73	40809
2026-01-02 02:20:03.46	342.71	24.89	-51.3	-72.0	3.8	7.49e-01	0	44	104	0	73	40747
2026-01-02 02:20:04.03	342.57	24.96	-51.3	-72.0	3.8	7.43e-01	0	44	104	0	73	40753
2026-01-02 02:20:05.62	342.17	25.16	-51.3	-72.0	3.8	7.46e-01	0	44	104	0	73	40725
2026-01-02 02:20:06.19	342.03	25.23	-51.3	-72.0	3.8	7.47e-01	0	43	104	0	73	40708
2026-01-02 02:20:07.80	341.62	25.44	-51.3	-72.0	3.8	7.43e-01	0	44	104	0	73	40813
2026-01-02 02:20:08.37	341.47	25.51	-51.3	-72.0	3.8	7.46e-01	0	44	104	0	73	40732
2026-01-02 02:20:09.95	341.06	25.71	-51.3	-72.0	3.8	7.47e-01	0	44	104	0	73	40787
2026-01-02 02:20:10.57	340.90	25.79	-51.3	-72.0	3.8	7.43e-01	0	44	104	0	73	40734
2026-01-02 02:20:12.15	340.48	25.98	-51.3	-72.0	3.8	7.44e-01	0	44	104	0	73	40709
2026-01-02 02:20:12.74	340.32	26.06	-51.3	-72.0	3.8	7.46e-01	0	44	104	0	73	40733
2026-01-02 02:20:14.32	339.90	26.26	-51.3	-72.0	3.8	7.48e-01	0	44	104	0	73	40790
2026-01-02 02:20:15.19	339.66	26.37	-51.3	-72.0	3.8	7.47e-01	0	44	104	0	73	40742
2026-01-02 02:20:16.34	339.35	26.51	-51.3	-72.0	3.8	7.45e-01	0	44	104	0	73	40756
2026-01-02 02:20:17.20	339.11	26.62	-51.3	-72.0	3.8	7.46e-01	0	44	104	0	73	40706
2026-01-02 02:20:18.35	338.79	26.77	-51.3	-72.0	3.8	7.47e-01	0	43	104	0	73	40835
2026-01-02 02:20:19.21	338.55	26.87	-51.3	-72.0	3.8	7.44e-01	0	44	104	0	73	40776
2026-01-02 02:20:20.36	338.22	27.02	-51.3	-72.0	3.8	7.46e-01	0	44	104	0	73	40860
2026-01-02 02:20:21.22	337.98	27.13	-51.3	-72.0	3.8	7.46e-01	0	43	104	0	73	40775
2026-01-02 02:20:22.37	337.65	27.27	-51.3	-72.0	3.8	7.44e-01	0	44	104	0	73	40868
2026-01-02 02:20:23.23	337.40	27.38	-51.3	-72.0	3.8	7.47e-01	0	44	104	0	73	40800
2026-01-02 02:20:24.38	337.06	27.52	-51.3	-72.0	3.8	7.49e-01	0	44	104	0	73	40798
2026-01-02 02:20:25.23	336.81	27.63	-51.3	-72.0	3.8	7.46e-01	0	44	104	0	73	40731
2026-01-02 02:20:26.38	336.47	27.77	-51.3	-72.0	3.8	7.49e-01	0	44	104	0	73	40781
2026-01-02 02:20:27.24	336.21	27.88	-51.3	-72.0	3.8	7.46e-01	0	44	104	0	73	40752
2026-01-02 02:20:28.39	335.86	28.02	-51.3	-72.0	3.8	7.43e-01	0	43	104	0	73	40760
2026-01-02 02:20:29.25	335.60	28.13	-51.3	-72.0	3.8	7.46e-01	0	44	104	0	73	40839
2026-01-02 02:20:30.40	335.25	28.27	-51.3	-72.0	3.8	7.48e-01	0	44	104	0	73	40786
2026-01-02 02:20:31.26	334.98	28.37	-51.3	-72.0	3.8	7.44e-01	0	44	104	0	73	40841
2026-01-02 02:20:32.41	334.62	28.51	-51.3	-72.0	3.8	7.46e-01	0	44	104	0	73	40801
2026-01-02 02:20:33.27	334.35	28.62	-51.3	-72.0	3.8	7.47e-01	0	44	104	0	73	40781
2026-01-02 02:20:34.51	333.96	28.77	-51.3	-72.0	3.8	7.44e-01	0	43	104	0	73	40662
2026-01-02 02:20:35.37	333.68	28.88	-51.3	-72.0	3.8	7.46e-01	0	44	104	0	73	40544
2026-01-02 02:20:36.61	333.28	29.03	-51.2	-71.9	3.8	7.46e-01	0	44	104	0	73	40463
2026-01-02 02:20:37.46	333.00	29.13	-51.2	-71.9	3.8	7.47e-01	0	44	104	0	73	40388
2026-01-02 02:20:38.69	332.60	29.28	-51.2	-71.9	3.8	7.48e-01	0	44	104	0	73	40435
2026-01-02 02:20:39.55	332.32	29.38	-51.2	-71.9	3.8	7.48e-01	0	44	104	0	73	40458
2026-01-02 02:20:40.76	331.91	29.52	-51.2	-71.9	3.8	7.45e-01	0	43	104	0	73	40494
2026-01-02 02:20:41.63	331.62	29.63	-51.2	-72.0	3.8	7.46e-01	0	44	104	0	73	40534
2026-01-02 02:20:42.77	331.23	29.76	-51.2	-72.0	3.8	7.45e-01	0	43	104	0	73	40551
2026-01-02 02:20:43.63	330.94	29.86	-51.2	-72.0	3.8	7.46e-01	0	43	104	0	73	40529
2026-01-02 02:20:44.78	330.54	30.00	-51.2	-71.9	3.8	7.46e-01	0	44	104	0	73	40486
2026-01-02 02:20:45.64	330.25	30.10	-51.2	-71.9	3.8	7.46e-01	0	44	104	0	73	40503
2026-01-02 02:20:47.03	329.76	30.26	-51.2	-71.9	3.8	7.45e-01	0	44	104	0	73	40508
2026-01-02 02:20:47.75	329.51	30.34	-51.2	-71.9	3.8	7.47e-01	0	44	104	0	73	40416
2026-01-02 02:20:49.04	329.05	30.49	-51.2	-72.0	3.8	7.43e-01	0	44	104	0	73	40548
2026-01-02 02:20:49.75	328.80	30.57	-51.2	-72.0	3.8	7.46e-01	0	44	104	0	73	40568
2026-01-02 02:20:51.05	328.33	30.72	-51.2	-72.0	3.8	7.46e-01	0	44	104	0	73	40547
2026-01-02 02:20:51.76	328.07	30.80	-51.2	-72.0	3.8	7.47e-01	0	44	104	0	73	40536
2026-01-02 02:20:53.06	327.59	30.94	-51.2	-72.0	3.8	7.47e-01	0	44	104	0	73	40549
2026-01-02 02:20:53.77	327.33	31.02	-51.2	-71.9	3.8	7.47e-01	0	44	104	0	73	40488
2026-01-02 02:20:55.07	326.85	31.16	-51.2	-72.0	3.8	7.47e-01	0	44	104	0	73	40545
2026-01-02 02:20:55.78	326.59	31.24	-51.2	-72.0	3.8	7.46e-01	0	44	104	0	73	40558
2026-01-02 02:20:57.07	326.10	31.38	-51.2	-72.0	3.8	7.46e-01	0	44	104	0	73	40612
2026-01-02 02:20:57.79	325.83	31.45	-51.2	-72.0	3.8	7.45e-01	0	44	104	0	73	40553
2026-01-02 02:20:59.08	325.34	31.59	-51.2	-72.0	3.8	7.46e-01	0	44	104	0	73	40532
2026-01-02 02:20:59.80	325.06	31.66	-51.2	-72.0	3.8	7.47e-01	0	44	104	0	73	40633
2026-01-02 02:21:01.09	324.56	31.80	-51.2	-72.0	3.8	7.42e-01	0	44	104	0	73	40524
2026-01-02 02:21:01.81	324.28	31.87	-51.2	-72.0	3.8	7.50e-01	0	44	104	0	73	40555
2026-01-02 02:21:03.10	323.78	32.00	-51.2	-71.9	3.8	7.47e-01	0	44	104	0	73	40467
2026-01-02 02:21:03.82	323.49	32.08	-51.2	-72.0	3.8	7.45e-01	0	44	104	0	73	40617
2026-01-02 02:21:05.11	322.98	32.20	-51.2	-72.0	3.8	7.49e-01	0	44	104	0	73	40552
2026-01-02 02:21:05.83	322.69	32.27	-51.2	-72.0	3.8	7.45e-01	0	44	104	0	73	40607
2026-01-02 02:21:07.12	322.18	32.40	-51.2	-72.0	3.8	7.49e-01	0	43	104	0	73	40527
2026-01-02 02:21:07.83	321.89	32.47	-51.2	-72.0	3.8	7.46e-01	0	43	104	0	73	40534
2026-01-02 02:21:09.13	321.36	32.59	-51.2	-72.0	3.8	7.47e-01	0	44	104	0	73	40547
2026-01-02 02:21:09.84	321.07	32.66	-51.2	-71.9	3.8	7.44e-01	0	44	104	0	73	40469
2026-01-02 02:21:11.13	320.54	32.77	-51.2	-71.9	3.8	7.49e-01	0	44	104	0	73	40501
2026-01-02 02:21:11.85	320.24	32.84	-51.2	-72.0	3.8	7.45e-01	0	43	104	0	73	40540
2026-01-02 02:21:13.14	319.70	32.95	-51.2	-72.0	3.8	7.45e-01	0	44	104	0	73	40564
2026-01-02 02:21:13.86	319.40	33.02	-51.2	-72.0	3.8	7.42e-01	0	43	104	0	73	40569
2026-01-02 02:21:15.15	318.86	33.13	-51.2	-72.0	3.8	7.44e-01	0	43	104	0	73	40518
2026-01-02 02:21:15.87	318.55	33.19	-51.2	-71.9	3.8	7.44e-01	0	44	104	0	73	40466
2026-01-02 02:21:17.16	318.00	33.30	-51.2	-71.9	3.8	7.44e-01	0	44	104	0	73	40376
2026-01-02 02:21:17.88	317.70	33.35	-51.2	-72.0	3.8	7.47e-01	0	44	104	0	73	40553
2026-01-02 02:21:19.17	317.14	33.46	-51.2	-71.9	3.8	7.49e-01	0	44	104	0	73	40486
2026-01-02 02:21:19.88	316.83	33.51	-51.2	-72.0	3.8	7.45e-01	0	44	104	0	73	40529
2026-01-02 02:21:21.18	316.27	33.61	-51.2	-72.0	3.8	7.47e-01	0	44	104	0	73	40553
2026-01-02 02:21:21.89	315.96	33.67	-51.2	-72.0	3.8	7.46e-01	0	43	104	0	73	40525
2026-01-02 02:21:23.18	315.39	33.76	-51.2	-71.9	3.8	7.46e-01	0	44	104	0	73	40487
2026-01-02 02:21:23.90	315.08	33.81	-51.2	-72.0	3.8	7.43e-01	0	44	104	0	73	40543
2026-01-02 02:21:25.20	314.50	33.90	-51.2	-71.9	3.8	7.45e-01	0	43	104	0	73	40434
2026-01-02 02:21:26.18	314.07	33.97	-51.2	-72.0	3.8	7.45e-01	0	44	104	0	73	40512
2026-01-02 02:21:27.19	313.61	34.04	-51.3	-71.9	3.8	7.44e-01	0	44	104	0	73	40506
2026-01-02 02:21:28.19	313.17	34.10	-51.2	-71.9	3.8	7.45e-01	0	44	104	0	73	40437
2026-01-02 02:21:29.19	312.71	34.17	-51.2	-71.9	3.8	7.48e-01	0	44	104	0	73	40391
2026-01-02 02:21:30.20	312.26	34.23	-51.3	-72.0	3.8	7.46e-01	0	44	104	0	73	40525
2026-01-02 02:21:31.20	311.80	34.29	-51.2	-71.9	3.8	7.47e-01	0	44	104	0	73	40507
2026-01-02 02:21:32.20	311.35	34.34	-51.2	-72.0	3.8	7.45e-01	0	44	104	0	73	40571
2026-01-02 02:21:33.21	310.89	34.40	-51.3	-71.9	3.8	7.47e-01	0	44	104	0	73	40501
2026-01-02 02:21:34.21	310.43	34.45	-51.3	-72.0	3.8	7.45e-01	0	44	104	0	73	40622
2026-01-02 02:21:35.22	309.96	34.50	-51.3	-72.0	3.8	7.48e-01	0	44	104	0	73	40543
2026-01-02 02:21:36.22	309.50	34.55	-51.3	-71.9	3.8	7.46e-01	0	44	104	0	73	40479
2026-01-02 02:21:37.23	309.03	34.60	-51.3	-72.0	3.8	7.48e-01	0	44	104	0	73	40548
2026-01-02 02:21:38.23	308.57	34.65	-51.2	-71.9	3.8	7.48e-01	0	44	104	0	73	40504
2026-01-02 02:21:39.24	308.10	34.69	-51.2	-72.0	3.8	7.46e-01	0	44	104	0	73	40573
2026-01-02 02:21:40.24	307.63	34.73	-51.3	-72.0	3.8	7.46e-01	0	43	104	0	73	40582
2026-01-02 02:21:41.24	307.16	34.77	-51.2	-72.0	3.8	7.45e-01	0	43	104	0	73	40565
2026-01-02 02:21:42.25	306.69	34.81	-51.3	-72.0	3.8	7.49e-01	0	43	104	0	73	40567
2026-01-02 02:21:43.25	306.21	34.84	-51.3	-72.0	3.8	7.45e-01	0	44	104	0	73	40588
2026-01-02 02:21:44.26	305.74	34.88	-51.3	-72.0	3.8	7.44e-01	0	44	104	0	73	40553
2026-01-02 02:21:45.26	305.26	34.91	-51.3	-72.0	3.8	7.46e-01	0	44	104	0	73	40548
2026-01-02 02:21:46.27	304.79	34.94	-51.3	-72.0	3.8	7.44e-01	0	43	104	0	73	40580
2026-01-02 02:21:47.27	304.31	34.96	-51.3	-71.9	3.8	7.45e-01	0	44	104	0	73	40511
2026-01-02 02:21:48.28	303.83	34.99	-51.3	-71.9	3.8	7.44e-01	0	44	104	0	73	40450
2026-01-02 02:21:49.31	303.34	35.01	-51.3	-72.0	3.8	7.49e-01	0	44	104	0	73	40540
2026-01-02 02:21:50.38	302.83	35.03	-51.3	-72.0	3.8	7.44e-01	0	44	104	0	73	40557
2026-01-02 02:21:51.27	302.41	35.05	-51.3	-72.0	3.8	7.47e-01	0	44	104	0	73	40625
2026-01-02 02:21:52.45	301.84	35.06	-51.3	-72.0	3.8	7.43e-01	0	43	104	0	73	40572
2026-01-02 02:21:53.34	301.42	35.08	-51.3	-71.9	3.8	7.43e-01	0	44	104	0	73	40502
2026-01-02 02:21:54.66	300.78	35.09	-51.3	-71.9	3.8	7.46e-01	0	44	104	0	73	40510
2026-01-02 02:21:55.38	300.44	35.10	-51.2	-72.0	3.8	7.46e-01	0	44	104	0	73	40512
2026-01-02 02:21:56.88	299.72	35.10	-51.3	-72.0	3.8	7.44e-01	0	43	104	0	73	40559
2026-01-02 02:21:57.59	299.38	35.11	-51.3	-71.9	3.8	7.48e-01	0	44	104	0	73	40461
2026-01-02 02:21:58.88	298.76	35.11	-51.3	-72.0	3.8	7.46e-01	0	44	104	0	73	40564
2026-01-02 02:21:59.60	298.42	35.11	-51.2	-72.0	3.8	7.43e-01	0	44	104	0	73	40544
2026-01-02 02:22:00.89	297.80	35.10	-51.3	-72.0	3.8	7.45e-01	0	44	104	0	73	40583
2026-01-02 02:22:01.61	297.45	35.10	-51.3	-71.9	3.8	7.48e-01	0	44	104	0	73	40493
2026-01-02 02:22:02.90	296.83	35.09	-51.3	-72.0	3.8	7.43e-01	0	44	104	0	73	40554
2026-01-02 02:22:03.62	296.49	35.08	-51.2	-72.0	3.8	7.48e-01	0	44	104	0	73	40538
2026-01-02 02:22:04.91	295.87	35.06	-51.3	-72.0	3.8	7.45e-01	0	44	104	0	73	40649
2026-01-02 02:22:05.63	295.53	35.05	-51.3	-71.9	3.8	7.44e-01	0	44	104	0	73	40482
2026-01-02 02:22:06.92	294.91	35.03	-51.3	-72.0	3.8	7.46e-01	0	44	104	0	73	40584
2026-01-02 02:22:07.64	294.57	35.02	-51.3	-72.0	3.8	7.47e-01	0	44	104	0	73	40514
2026-01-02 02:22:08.93	293.95	34.99	-51.3	-72.0	3.8	7.44e-01	0	44	104	0	73	40543
2026-01-02 02:22:09.65	293.61	34.97	-51.3	-72.0	3.8	7.46e-01	0	44	104	0	73	40589
2026-01-02 02:22:10.94	293.00	34.94	-51.2	-72.0	3.8	7.48e-01	0	44	104	0	73	40514
2026-01-02 02:22:11.65	292.66	34.92	-51.3	-72.0	3.8	7.47e-01	0	44	104	0	73	40551
2026-01-02 02:22:12.95	292.04	34.88	-51.3	-72.0	3.8	7.45e-01	0	44	104	0	73	40572
2026-01-02 02:22:13.67	291.70	34.86	-51.3	-71.9	3.8	7.47e-01	0	44	104	0	73	40505
2026-01-02 02:22:14.95	291.10	34.82	-51.3	-72.0	3.8	7.49e-01	0	44	104	0	73	40550
2026-01-02 02:22:15.67	290.76	34.79	-51.3	-72.0	3.8	7.46e-01	0	44	104	0	73	40546
2026-01-02 02:22:16.96	290.16	34.74	-51.3	-72.0	3.8	7.42e-01	0	44	104	0	73	40549
2026-01-02 02:22:17.68	289.82	34.71	-51.2	-71.9	3.8	7.44e-01	0	44	104	0	73	40510
2026-01-02 02:22:18.97	289.22	34.66	-51.3	-72.0	3.8	7.49e-01	0	43	104	0	73	40546
2026-01-02 02:22:19.69	288.88	34.62	-51.3	-72.0	3.8	7.46e-01	0	44	104	0	73	40538
2026-01-02 02:22:20.98	288.28	34.56	-51.3	-71.9	3.8	7.46e-01	0	44	104	0	73	40499
2026-01-02 02:22:21.70	287.95	34.53	-51.3	-71.9	3.8	7.47e-01	0	44	104	0	73	40496
2026-01-02 02:22:22.99	287.35	34.46	-51.3	-72.0	3.8	7.46e-01	0	44	104	0	73	40532
2026-01-02 02:22:23.71	287.02	34.42	-51.3	-72.0	3.8	7.47e-01	0	44	104	0	73	40562
2026-01-02 02:22:25.00	286.43	34.35	-51.3	-72.0	3.8	7.45e-01	0	44	104	0	73	40548
2026-01-02 02:22:25.72	286.10	34.31	-51.2	-72.0	3.8	7.47e-01	0	44	104	0	73	40548
2026-01-02 02:22:27.01	285.51	34.24	-51.2	-72.0	3.8	7.40e-01	0	44	104	0	73	40602
2026-01-02 02:22:27.72	285.19	34.19	-51.3	-71.9	3.8	7.47e-01	0	44	104	0	73	40502
2026-01-02 02:22:29.01	284.61	34.11	-51.3	-72.0	3.8	7.47e-01	0	44	104	0	73	40531
2026-01-02 02:22:29.73	284.28	34.07	-51.3	-72.0	3.8	7.46e-01	0	44	104	0	73	40567
2026-01-02 02:22:31.03	283.70	33.98	-51.2	-71.9	3.8	7.46e-01	0	44	104	0	73	40456
2026-01-02 02:22:31.74	283.38	33.93	-51.3	-71.9	3.8	7.47e-01	0	44	104	0	73	40492
2026-01-02 02:22:33.03	282.81	33.84	-51.3	-71.9	3.8	7.46e-01	0	44	104	0	73	40489
2026-01-02 02:22:33.75	282.49	33.79	-51.2	-72.0	3.8	7.46e-01	0	44	104	0	73	40521
2026-01-02 02:22:35.04	281.92	33.70	-51.2	-71.9	3.8	7.43e-01	0	44	104	0	73	40484
2026-01-02 02:22:35.76	281.61	33.65	-51.2	-71.9	3.8	7.45e-01	0	44	104	0	73	40502
2026-01-02 02:22:37.05	281.04	33.55	-51.3	-71.9	3.8	7.45e-01	0	44	104	0	73	40491
2026-01-02 02:22:37.77	280.73	33.49	-51.2	-71.9	3.8	7.48e-01	0	44	104	0	73	40451
2026-01-02 02:22:39.06	280.17	33.39	-51.2	-71.9	3.8	7.49e-01	0	44	104	0	73	40406
2026-01-02 02:22:39.78	279.86	33.33	-51.2	-71.9	3.8	7.46e-01	0	44	104	0	73	40496
2026-01-02 02:22:41.07	279.31	33.22	-51.3	-72.0	3.8	7.47e-01	0	44	104	0	73	40512
2026-01-02 02:22:41.78	279.01	33.16	-51.3	-71.9	3.8	7.46e-01	0	44	104	0	73	40473
2026-01-02 02:22:43.08	278.46	33.05	-51.3	-71.9	3.8	7.44e-01	0	44	104	0	73	40457
2026-01-02 02:22:43.79	278.16	32.99	-51.2	-71.9	3.8	7.45e-01	0	44	104	0	73	40427
2026-01-02 02:22:45.08	277.62	32.88	-51.3	-71.9	3.8	7.43e-01	0	44	104	0	73	40417
2026-01-02 02:22:45.80	277.32	32.81	-51.2	-71.9	3.8	7.47e-01	0	44	104	0	73	40417
2026-01-02 02:22:47.09	276.79	32.69	-51.2	-71.9	3.8	7.47e-01	0	44	104	0	73	40467
2026-01-02 02:22:47.81	276.49	32.63	-51.3	-72.0	3.8	7.49e-01	0	44	104	0	73	40539
2026-01-02 02:22:49.10	275.97	32.50	-51.3	-72.0	3.8	7.47e-01	0	44	104	0	73	40579
2026-01-02 02:22:49.82	275.67	32.44	-51.3	-71.9	3.8	7.47e-01	0	44	104	0	73	40461
2026-01-02 02:22:51.11	275.15	32.31	-51.2	-72.0	3.8	7.50e-01	0	44	104	0	73	40533
2026-01-02 02:22:51.83	274.86	32.24	-51.2	-71.9	3.8	7.48e-01	0	44	104	0	73	40502
2026-01-02 02:22:53.12	274.35	32.11	-51.3	-72.0	3.8	7.46e-01	0	44	104	0	73	40531
2026-01-02 02:22:53.84	274.06	32.04	-51.3	-72.0	3.8	7.45e-01	0	44	104	0	73	40526
2026-01-02 02:22:55.13	273.55	31.91	-51.3	-72.0	3.8	7.47e-01	0	44	104	0	73	40572
2026-01-02 02:22:55.85	273.27	31.84	-51.3	-71.9	3.8	7.48e-01	0	44	104	0	73	40480
2026-01-02 02:22:57.14	272.77	31.70	-51.2	-72.0	3.8	7.49e-01	0	44	104	0	73	40533
2026-01-02 02:22:57.85	272.50	31.63	-51.2	-72.0	3.8	7.43e-01	0	44	104	0	73	40529
2026-01-02 02:22:59.15	272.00	31.49	-51.2	-71.9	3.8	7.43e-01	0	44	104	0	73	40507
2026-01-02 02:22:59.86	271.73	31.42	-51.2	-72.0	3.8	7.45e-01	0	44	104	0	73	40662
2026-01-02 02:23:01.16	271.24	31.28	-51.2	-72.0	3.8	7.46e-01	0	44	104	0	73	40530
2026-01-02 02:23:01.87	270.97	31.20	-51.2	-71.9	3.8	7.46e-01	0	44	104	0	73	40487
2026-01-02 02:23:03.16	270.49	31.06	-51.2	-72.0	3.8	7.47e-01	0	44	104	0	73	40513
2026-01-02 02:23:04.05	270.16	30.96	-51.2	-71.9	3.8	7.49e-01	0	44	104	0	73	40438
2026-01-02 02:23:05.20	269.74	30.83	-51.2	-72.0	3.8	7.46e-01	0	44	104	0	73	40597
2026-01-02 02:23:06.28	269.34	30.71	-51.3	-71.9	3.8	7.44e-01	0	44	104	0	73	40455
2026-01-02 02:23:07.32	268.96	30.59	-51.2	-72.0	3.8	7.48e-01	0	44	104	0	73	40537
2026-01-02 02:23:08.48	268.55	30.46	-51.2	-71.9	3.8	7.48e-01	0	44	104	0	73	40329
2026-01-02 02:23:09.38	268.23	30.36	-51.2	-71.9	3.8	7.45e-01	0	44	104	0	73	40492
2026-01-02 02:23:10.56	267.81	30.22	-51.2	-71.9	3.8	7.47e-01	0	44	104	0	73	40493
2026-01-02 02:23:11.45	267.50	30.12	-51.2	-71.9	3.8	7.48e-01	0	44	104	0	73	40483
2026-01-02 02:23:12.77	267.04	29.96	-51.3	-71.9	3.8	7.48e-01	0	44	104	0	73	40484
2026-01-02 02:23:13.49	266.79	29.88	-51.2	-72.0	3.8	7.46e-01	0	44	104	0	73	40547
2026-01-02 02:23:14.78	266.35	29.73	-51.2	-72.0	3.8	7.44e-01	0	44	104	0	73	40580
2026-01-02 02:23:15.50	266.10	29.64	-51.2	-71.9	3.8	7.46e-01	0	44	104	0	73	40497
2026-01-02 02:23:16.79	265.67	29.49	-51.2	-71.9	3.8	7.47e-01	0	44	104	0	73	40426
2026-01-02 02:23:17.51	265.43	29.40	-51.2	-71.9	3.8	7.50e-01	0	44	104	0	73	40481
2026-01-02 02:23:18.80	265.00	29.25	-51.2	-71.9	3.8	7.46e-01	0	44	104	0	73	40510
2026-01-02 02:23:19.52	264.76	29.16	-51.2	-71.9	3.8	7.47e-01	0	44	104	0	73	40466
2026-01-02 02:23:20.81	264.34	29.00	-51.3	-71.9	3.8	7.48e-01	0	44	104	0	73	40419
2026-01-02 02:23:21.53	264.10	28.92	-51.3	-71.9	3.8	7.47e-01	0	44	104	0	73	40491
2026-01-02 02:23:22.82	263.69	28.76	-51.3	-71.9	3.8	7.48e-01	0	44	104	0	73	40482
2026-01-02 02:23:23.53	263.46	28.67	-51.3	-71.9	3.8	7.49e-01	0	44	104	0	73	40469
2026-01-02 02:23:24.89	263.03	28.50	-51.3	-72.0	3.8	7.47e-01	0	44	104	0	73	40551
2026-01-02 02:23:25.61	262.80	28.42	-51.2	-71.9	3.8	7.48e-01	0	44	104	0	73	40504
2026-01-02 02:23:26.90	262.40	28.26	-51.2	-72.0	3.8	7.46e-01	0	44	104	0	73	40533
2026-01-02 02:23:27.62	262.18	28.17	-51.2	-71.9	3.8	7.51e-01	0	44	104	0	73	40503
2026-01-02 02:23:28.91	261.78	28.01	-51.2	-71.9	3.8	7.47e-01	0	44	104	0	73	40458
2026-01-02 02:23:29.63	261.56	27.92	-51.2	-71.9	3.8	7.45e-01	0	44	104	0	73	40501
2026-01-02 02:23:30.92	261.17	27.76	-51.2	-71.9	3.8	7.49e-01	0	44	104	0	73	40450
2026-01-02 02:23:31.63	260.96	27.67	-51.2	-71.9	3.8	7.48e-01	0	44	104	0	73	40505
2026-01-02 02:23:32.93	260.57	27.50	-51.2	-72.0	3.8	7.46e-01	0	44	104	0	73	40522
2026-01-02 02:23:33.64	260.37	27.42	-51.2	-72.0	3.8	7.45e-01	0	44	104	0	73	40537
2026-01-02 02:23:34.93	259.99	27.25	-51.2	-71.9	3.8	7.45e-01	0	44	104	0	73	40458
2026-01-02 02:23:35.65	259.78	27.16	-51.2	-72.0	3.8	7.44e-01	0	44	104	0	73	40545
2026-01-02 02:23:36.94	259.41	27.00	-51.3	-71.9	3.8	7.45e-01	0	44	104	0	73	40435
2026-01-02 02:23:37.66	259.20	26.91	-51.3	-71.9	3.8	7.47e-01	0	44	104	0	73	40491
2026-01-02 02:23:38.95	258.84	26.75	-51.2	-71.9	3.8	7.41e-01	0	44	104	0	73	40501
2026-01-02 02:23:39.67	258.64	26.66	-51.2	-71.9	3.8	7.45e-01	0	44	104	0	73	40401
2026-01-02 02:23:40.96	258.28	26.49	-51.2	-71.9	3.8	7.47e-01	0	44	104	0	73	40479
2026-01-02 02:23:41.68	258.08	26.40	-51.2	-71.9	3.8	7.45e-01	0	44	104	0	73	40470
2026-01-02 02:23:42.97	257.73	26.24	-51.3	-71.9	3.8	7.45e-01	0	44	104	0	73	40495
2026-01-02 02:23:43.69	257.53	26.15	-51.2	-71.9	3.8	7.46e-01	0	44	104	0	73	40490
2026-01-02 02:23:44.98	257.18	25.98	-51.2	-71.9	3.8	7.44e-01	0	44	104	0	73	40454
2026-01-02 02:23:45.69	257.00	25.89	-51.2	-71.9	3.8	7.45e-01	0	44	104	0	73	40481
2026-01-02 02:23:46.99	256.65	25.73	-51.2	-71.9	3.8	7.47e-01	0	44	104	0	73	40468
2026-01-02 02:23:47.70	256.47	25.64	-51.2	-71.9	3.8	7.42e-01	0	44	104	0	73	40440
2026-01-02 02:23:48.99	256.13	25.48	-51.3	-71.9	3.8	7.46e-01	0	44	104	0	73	40503
2026-01-02 02:23:49.71	255.94	25.38	-51.2	-71.9	3.8	7.45e-01	0	43	104	0	73	40510
2026-01-02 02:23:51.00	255.61	25.22	-51.3	-71.9	3.8	7.44e-01	0	44	104	0	73	40501
2026-01-02 02:23:51.72	255.43	25.13	-51.2	-71.9	3.8	7.43e-01	0	44	104	0	73	40493
2026-01-02 02:23:53.01	255.11	24.97	-51.2	-72.0	3.8	7.44e-01	0	44	104	0	73	40519
2026-01-02 02:23:53.73	254.93	24.88	-51.3	-72.0	3.8	7.47e-01	0	44	104	0	73	40528
2026-01-02 02:23:55.02	254.61	24.71	-51.3	-71.9	3.8	7.47e-01	0	44	104	0	73	40461
2026-01-02 02:23:55.74	254.43	24.62	-51.2	-71.9	3.8	7.47e-01	0	44	104	0	73	40431
2026-01-02 02:23:57.03	254.12	24.46	-51.3	-72.0	3.8	7.48e-01	0	44	104	0	73	40540
2026-01-02 02:23:57.75	253.95	24.37	-51.2	-71.9	3.8	7.46e-01	0	44	104	0	73	40474
2026-01-02 02:23:59.04	253.64	24.21	-51.3	-71.9	3.8	7.46e-01	0	44	104	0	73	40511
2026-01-02 02:23:59.75	253.47	24.12	-51.3	-71.9	3.8	7.46e-01	0	44	104	0	73	40505
2026-01-02 02:24:01.04	253.17	23.96	-51.2	-71.9	3.8	7.48e-01	0	44	104	0	73	40436
2026-01-02 02:24:01.76	253.00	23.87	-51.2	-71.9	3.8	7.47e-01	0	44	104	0	73	40468
2026-01-02 02:24:03.05	252.70	23.70	-51.2	-71.9	3.8	7.48e-01	0	44	104	0	73	40436
2026-01-02 02:24:03.77	252.54	23.61	-51.3	-71.9	3.8	7.49e-01	0	44	104	0	73	40467
2026-01-02 02:24:05.06	252.24	23.45	-51.3	-71.9	3.8	7.47e-01	0	44	104	0	73	40481
2026-01-02 02:24:05.78	252.08	23.36	-51.2	-71.9	3.8	7.49e-01	0	44	104	0	73	40394
2026-01-02 02:24:07.07	251.79	23.20	-51.3	-71.9	3.8	7.44e-01	0	44	104	0	73	40461
2026-01-02 02:24:07.79	251.63	23.11	-51.2	-72.0	3.8	7.47e-01	0	44	104	0	73	40536
2026-01-02 02:24:09.08	251.35	22.95	-51.2	-71.9	3.8	7.48e-01	0	44	104	0	73	40508
2026-01-02 02:24:09.80	251.19	22.86	-51.2	-72.0	3.8	7.42e-01	0	44	104	0	73	40523
2026-01-02 02:24:11.09	250.91	22.70	-51.3	-72.0	3.8	7.48e-01	0	44	104	0	73	40556
2026-01-02 02:24:11.80	250.76	22.62	-51.3	-71.9	3.8	7.44e-01	0	44	104	0	73	40423
2026-01-02 02:24:13.09	250.49	22.46	-51.2	-72.0	3.8	7.47e-01	0	44	104	0	73	40548
2026-01-02 02:24:13.81	250.34	22.37	-51.3	-71.9	3.8	7.45e-01	0	44	104	0	73	40497
2026-01-02 02:24:15.10	250.07	22.21	-51.3	-71.9	3.8	7.48e-01	0	44	104	0	73	40475
2026-01-02 02:24:15.82	249.92	22.12	-51.2	-71.9	3.8	7.46e-01	0	44	104	0	73	40472
2026-01-02 02:24:17.11	249.65	21.97	-51.2	-71.9	3.8	7.45e-01	0	44	104	0	73	40393
2026-01-02 02:24:17.83	249.51	21.88	-51.2	-71.9	3.8	7.44e-01	0	44	104	0	73	40502
2026-01-02 02:24:19.12	249.24	21.72	-51.2	-72.0	3.8	7.45e-01	0	44	104	0	73	40551
2026-01-02 02:24:19.84	249.10	21.63	-51.2	-71.9	3.8	7.46e-01	0	44	104	0	73	40492
2026-01-02 02:24:21.13	248.84	21.48	-51.3	-71.9	3.8	7.46e-01	0	44	104	0	73	40468
2026-01-02 02:24:21.85	248.70	21.39	-51.2	-72.0	3.8	7.44e-01	0	44	104	0	73	40520
2026-01-02 02:24:23.14	248.45	21.23	-51.2	-71.9	3.8	7.43e-01	0	44	104	0	73	40447
2026-01-02 02:24:23.86	248.31	21.15	-51.2	-72.0	3.8	7.44e-01	0	44	104	0	73	40520
2026-01-02 02:24:25.15	248.06	20.99	-51.3	-71.9	3.8	7.52e-01	0	44	104	0	73	40501
2026-01-02 02:24:25.87	247.93	20.91	-51.3	-71.9	3.8	7.50e-01	0	44	104	0	73	40423
2026-01-02 02:24:27.16	247.68	20.75	-51.2	-72.0	3.8	7.45e-01	0	44	104	0	73	40549
2026-01-02 02:24:27.87	247.55	20.67	-51.2	-71.9	3.8	7.48e-01	0	44	104	0	73	40427
2026-01-02 02:24:29.17	247.31	20.51	-51.2	-71.9	3.8	7.45e-01	0	44	104	0	73	40510
2026-01-02 02:24:29.88	247.18	20.43	-51.2	-72.0	3.8	7.48e-01	0	44	104	0	73	40554
2026-01-02 02:24:31.17	246.94	20.28	-51.3	-71.9	3.8	7.44e-01	0	44	104	0	73	40480
2026-01-02 02:24:31.89	246.81	20.19	-51.3	-71.9	3.8	7.44e-01	0	44	104	0	73	40507
2026-01-02 02:24:33.18	246.58	20.04	-51.2	-72.0	3.8	7.47e-01	0	44	104	0	73	40544
2026-01-02 02:24:33.90	246.45	19.96	-51.3	-72.0	3.8	7.46e-01	0	44	104	0	73	40540
2026-01-02 02:24:35.19	246.22	19.81	-51.2	-71.9	3.8	7.48e-01	0	44	104	0	73	40486
2026-01-02 02:24:35.91	246.09	19.72	-51.3	-72.0	3.8	7.47e-01	0	44	104	0	73	40546
2026-01-02 02:24:37.20	245.87	19.57	-51.3	-71.9	3.8	7.47e-01	0	44	104	0	73	40478
2026-01-02 02:24:37.92	245.74	19.49	-51.3	-72.0	3.8	7.46e-01	0	44	104	0	73	40537
2026-01-02 02:24:39.21	245.52	19.34	-51.2	-71.9	3.8	7.45e-01	0	44	104	0	73	40460
2026-01-02 02:24:39.93	245.40	19.26	-51.3	-71.9	3.8	7.48e-01	0	44	104	0	73	40506
2026-01-02 02:24:41.22	245.18	19.11	-51.3	-72.0	3.8	7.48e-01	0	44	104	0	73	40520
2026-01-02 02:24:41.93	245.07	19.03	-51.3	-72.0	3.8	7.49e-01	0	44	104	0	73	40542
2026-01-02 02:24:43.23	244.85	18.88	-51.3	-71.9	3.8	7.42e-01	0	44	104	0	73	40470
2026-01-02 02:24:43.94	244.73	18.80	-51.2	-71.9	3.8	7.46e-01	0	44	104	0	73	40457
2026-01-02 02:24:45.24	244.52	18.65	-51.2	-71.9	3.8	7.46e-01	0	44	104	0	73	40439
2026-01-02 02:24:45.95	244.41	18.57	-51.3	-71.9	3.8	7.46e-01	0	44	104	0	73	40490
2026-01-02 02:24:47.25	244.20	18.42	-51.2	-71.9	3.8	7.46e-01	0	44	104	0	73	40479
2026-01-02 02:24:48.04	244.07	18.33	-51.3	-71.9	3.8	7.49e-01	0	44	104	0	73	40504
2026-01-02 02:24:49.19	243.89	18.21	-51.3	-72.0	3.8	7.46e-01	0	44	104	0	73	40528
2026-01-02 02:24:50.05	243.75	18.11	-51.2	-71.9	3.8	7.45e-01	0	44	104	0	73	40483
2026-01-02 02:24:51.20	243.57	17.98	-51.2	-71.9	3.8	7.48e-01	0	44	104	0	73	40476
2026-01-02 02:24:52.06	243.44	17.89	-51.2	-71.9	3.8	7.46e-01	0	44	104	0	73	40406
2026-01-02 02:24:53.21	243.27	17.76	-51.2	-71.9	3.8	7.48e-01	0	44	104	0	73	40462
2026-01-02 02:24:54.07	243.14	17.66	-51.2	-72.0	3.8	7.47e-01	0	44	104	0	73	40541
2026-01-02 02:24:55.22	242.96	17.54	-51.2	-71.9	3.8	7.47e-01	0	44	104	0	73	40499
2026-01-02 02:24:56.08	242.83	17.44	-51.2	-71.9	3.8	7.45e-01	0	44	104	0	73	40487
2026-01-02 02:24:57.22	242.66	17.32	-51.2	-71.9	3.8	7.43e-01	0	44	104	0	73	40443
2026-01-02 02:24:58.09	242.54	17.22	-51.2	-71.9	3.8	7.48e-01	0	44	104	0	73	40434
2026-01-02 02:24:59.23	242.37	17.10	-51.2	-71.9	3.8	7.49e-01	0	44	104	0	73	40509
2026-01-02 02:25:00.09	242.24	17.01	-51.2	-72.0	3.8	7.44e-01	0	44	104	0	73	40544
2026-01-02 02:25:01.24	242.08	16.88	-51.2	-71.9	3.8	7.43e-01	0	44	104	0	73	40507
2026-01-02 02:25:02.10	241.96	16.79	-51.2	-72.0	3.8	7.47e-01	0	44	104	0	73	40534
2026-01-02 02:25:03.25	241.79	16.67	-51.2	-72.0	3.8	7.46e-01	0	44	104	0	73	40528
2026-01-02 02:25:04.11	241.67	16.57	-51.3	-71.9	3.8	7.46e-01	0	44	104	0	73	40484
2026-01-02 02:25:05.26	241.51	16.45	-51.2	-71.9	3.8	7.44e-01	0	44	104	0	73	40487
2026-01-02 02:25:06.12	241.39	16.36	-51.2	-72.0	3.8	7.44e-01	0	44	104	0	73	40540
2026-01-02 02:25:07.27	241.23	16.24	-51.3	-71.9	3.8	7.48e-01	0	44	104	0	73	40503
2026-01-02 02:25:08.13	241.12	16.15	-51.3	-71.9	3.8	7.47e-01	0	44	104	0	73	40442
2026-01-02 02:25:09.28	240.96	16.03	-51.3	-71.9	3.8	7.49e-01	0	44	104	0	73	40458
2026-01-02 02:25:10.14	240.85	15.94	-51.3	-72.0	3.8	7.48e-01	0	44	104	0	73	40571
2026-01-02 02:25:11.29	240.69	15.82	-51.2	-71.9	3.8	7.51e-01	0	44	104	0	73	40414
2026-01-02 02:25:12.15	240.58	15.73	-51.3	-72.0	3.8	7.45e-01	0	44	104	0	73	40517
2026-01-02 02:25:13.30	240.43	15.61	-51.2	-71.9	3.8	7.48e-01	0	44	104	0	73	40432
2026-01-02 02:25:14.22	240.31	15.51	-51.2	-71.9	3.8	7.46e-01	0	44	104	0	73	40508
2026-01-02 02:25:15.39	240.16	15.39	-51.2	-71.9	3.8	7.47e-01	0	44	104	0	73	40438
2026-01-02 02:25:16.31	240.04	15.30	-51.2	-71.9	3.8	7.44e-01	0	44	104	0	73	40491
2026-01-02 02:25:17.49	239.89	15.18	-51.2	-72.0	3.8	7.45e-01	0	44	104	0	73	40534
2026-01-02 02:25:18.38	239.78	15.09	-51.2	-71.9	3.8	7.47e-01	0	44	104	0	73	40474
2026-01-02 02:25:19.70	239.61	14.95	-51.2	-71.9	3.8	7.47e-01	0	44	104	0	73	40507
2026-01-02 02:25:20.42	239.52	14.88	-51.2	-71.9	3.8	7.44e-01	0	44	104	0	73	40500
2026-01-02 02:25:21.92	239.34	14.73	-51.2	-71.9	3.8	7.47e-01	0	44	104	0	73	40500
2026-01-02 02:25:22.64	239.25	14.66	-51.2	-72.0	3.8	7.45e-01	0	44	104	0	73	40535
2026-01-02 02:25:23.93	239.09	14.53	-51.2	-72.0	3.8	7.48e-01	0	44	104	0	73	40542
2026-01-02 02:25:24.64	239.01	14.46	-51.2	-71.9	3.8	7.47e-01	0	44	104	0	73	40477
2026-01-02 02:25:25.94	238.85	14.33	-51.2	-71.9	3.8	7.49e-01	0	44	104	0	73	40448
2026-01-02 02:25:26.65	238.77	14.26	-51.2	-72.0	3.8	7.46e-01	0	44	104	0	73	40557
2026-01-02 02:25:27.95	238.61	14.13	-51.3	-72.0	3.8	7.46e-01	0	44	104	0	73	40606
2026-01-02 02:25:28.66	238.53	14.06	-51.2	-71.9	3.8	7.46e-01	0	44	104	0	73	40511
2026-01-02 02:25:29.95	238.38	13.93	-51.2	-71.9	3.8	7.45e-01	0	44	104	0	73	40504
2026-01-02 02:25:30.67	238.30	13.86	-51.3	-72.0	3.8	7.43e-01	0	44	104	0	73	40518
2026-01-02 02:25:31.96	238.15	13.73	-51.3	-71.9	3.8	7.46e-01	0	44	104	0	73	40471
2026-01-02 02:25:32.68	238.07	13.66	-51.2	-72.0	3.8	7.46e-01	0	44	104	0	73	40517
2026-01-02 02:25:33.97	237.92	13.54	-51.2	-72.0	3.8	7.45e-01	0	44	104	0	73	40529
2026-01-02 02:25:34.69	237.84	13.47	-51.2	-72.0	3.8	7.47e-01	0	44	104	0	73	40571
2026-01-02 02:25:35.98	237.70	13.35	-51.2	-72.0	3.8	7.43e-01	0	44	104	0	73	40527
2026-01-02 02:25:36.70	237.62	13.28	-51.3	-72.0	3.8	7.43e-01	0	44	104	0	73	40574
2026-01-02 02:25:37.99	237.48	13.15	-51.3	-72.0	3.8	7.50e-01	0	44	104	0	73	40540
2026-01-02 02:25:38.71	237.40	13.08	-51.3	-72.0	3.8	7.45e-01	0	44	104	0	73	40596
2026-01-02 02:25:40.00	237.26	12.96	-51.2	-71.9	3.8	7.47e-01	0	44	104	0	73	40495
2026-01-02 02:25:40.72	237.18	12.89	-51.3	-71.9	3.8	7.48e-01	0	44	104	0	73	40505
2026-01-02 02:25:42.01	237.04	12.77	-51.3	-72.0	3.8	7.46e-01	0	44	104	0	73	40579
2026-01-02 02:25:42.73	236.97	12.70	-51.3	-72.0	3.8	7.44e-01	0	44	104	0	73	40522
2026-01-02 02:25:44.02	236.83	12.58	-51.2	-72.0	3.8	7.47e-01	0	44	104	0	73	40513
2026-01-02 02:25:44.74	236.76	12.52	-51.2	-72.0	3.8	7.44e-01	0	44	104	0	73	40526
2026-01-02 02:25:46.03	236.62	12.40	-51.2	-72.0	3.8	7.45e-01	0	44	104	0	73	40549
2026-01-02 02:25:46.74	236.55	12.33	-51.2	-72.0	3.8	7.46e-01	0	44	104	0	73	40536
2026-01-02 02:25:48.03	236.42	12.21	-51.3	-71.9	3.8	7.46e-01	0	44	104	0	73	40488
2026-01-02 02:25:48.75	236.34	12.14	-51.2	-71.9	3.8	7.46e-01	0	44	104	0	73	40472
2026-01-02 02:25:50.04	236.21	12.03	-51.2	-71.9	3.8	7.49e-01	0	44	104	0	73	40505
2026-01-02 02:25:50.76	236.14	11.96	-51.2	-72.0	3.8	7.48e-01	0	44	104	0	73	40569
2026-01-02 02:25:52.05	236.01	11.84	-51.3	-71.9	3.8	7.45e-01	0	44	104	0	73	40467
2026-01-02 02:25:52.77	235.94	11.78	-51.3	-72.0	3.8	7.43e-01	0	44	104	0	73	40563
2026-01-02 02:25:54.06	235.82	11.66	-51.3	-72.0	3.8	7.47e-01	0	44	104	0	73	40529
2026-01-02 02:25:54.78	235.75	11.59	-51.2	-72.0	3.8	7.45e-01	0	44	104	0	73	40599
2026-01-02 02:25:56.07	235.62	11.48	-51.2	-72.0	3.8	7.47e-01	0	44	104	0	73	40561
2026-01-02 02:25:56.79	235.55	11.41	-51.3	-72.0	3.8	7.48e-01	0	44	104	0	73	40534
2026-01-02 02:25:58.07	235.43	11.30	-51.2	-71.9	3.8	7.48e-01	0	44	104	0	73	40484
2026-01-02 02:25:58.79	235.36	11.23	-51.2	-72.0	3.8	7.44e-01	0	44	104	0	73	40545
2026-01-02 02:26:00.08	235.24	11.12	-51.2	-72.0	3.8	7.46e-01	0	44	104	0	73	40517
2026-01-02 02:26:00.80	235.17	11.06	-51.2	-71.9	3.8	7.50e-01	0	44	104	0	73	40492
2026-01-02 02:26:02.09	235.05	10.94	-51.2	-72.0	3.8	7.47e-01	0	44	104	0	73	40538
2026-01-02 02:26:02.81	234.99	10.88	-51.2	-72.0	3.8	7.47e-01	0	44	104	0	73	40523
2026-01-02 02:26:04.10	234.87	10.77	-51.2	-72.0	3.8	7.42e-01	0	44	104	0	73	40572
2026-01-02 02:26:04.82	234.80	10.70	-51.2	-71.9	3.8	7.45e-01	0	44	104	0	73	40463
2026-01-02 02:26:06.11	234.68	10.59	-51.2	-71.9	3.8	7.47e-01	0	44	104	0	73	40469
2026-01-02 02:26:06.83	234.62	10.53	-51.2	-71.9	3.8	7.45e-01	0	44	104	0	73	40466
2026-01-02 02:26:08.12	234.50	10.42	-51.2	-72.0	3.8	7.46e-01	0	44	104	0	73	40543
2026-01-02 02:26:08.83	234.44	10.35	-51.3	-72.0	3.8	7.47e-01	0	44	104	0	73	40521
2026-01-02 02:26:10.12	234.33	10.24	-51.2	-72.0	3.8	7.45e-01	0	44	104	0	73	40595
2026-01-02 02:26:10.84	234.26	10.18	-51.2	-71.9	3.8	7.46e-01	0	44	104	0	73	40510
2026-01-02 02:26:12.13	234.15	10.07	-51.2	-71.9	3.8	7.42e-01	0	44	104	0	73	40490
2026-01-02 02:26:12.85	234.09	10.01	-51.3	-72.0	3.8	7.44e-01	0	44	104	0	73	40563
2026-01-02 02:26:14.14	233.98	9.90	-51.2	-72.0	3.8	7.48e-01	0	44	104	0	73	40560
2026-01-02 02:26:14.86	233.92	9.84	-51.2	-72.0	3.8	7.44e-01	0	44	104	0	73	40537
2026-01-02 02:26:16.15	233.81	9.73	-51.2	-72.0	3.8	7.45e-01	0	44	104	0	73	40530
2026-01-02 02:26:16.87	233.75	9.67	-51.2	-71.9	3.8	7.46e-01	0	44	104	0	73	40459
2026-01-02 02:26:18.16	233.64	9.56	-51.2	-71.9	3.8	7.46e-01	0	44	104	0	73	40470
2026-01-02 02:26:18.87	233.58	9.50	-51.2	-71.9	3.8	7.46e-01	0	44	104	0	73	40501
2026-01-02 02:26:20.17	233.47	9.39	-51.2	-72.0	3.8	7.45e-01	0	44	104	0	73	40528
2026-01-02 02:26:20.88	233.41	9.33	-51.2	-71.9	3.8	7.46e-01	0	44	104	0	73	40449
2026-01-02 02:26:22.18	233.31	9.23	-51.2	-72.0	3.8	7.44e-01	0	44	104	0	73	40546
2026-01-02 02:26:22.89	233.25	9.17	-51.2	-71.9	3.8	7.48e-01	0	44	104	0	73	40492
2026-01-02 02:26:24.18	233.15	9.06	-51.2	-72.0	3.8	7.48e-01	0	44	104	0	73	40527
2026-01-02 02:26:24.90	233.09	9.00	-51.2	-71.9	3.8	7.47e-01	0	44	104	0	73	40459
2026-01-02 02:26:26.19	232.99	8.90	-51.2	-71.9	3.8	7.45e-01	0	44	104	0	73	40497
2026-01-02 02:26:26.91	232.93	8.84	-51.3	-71.9	3.8	7.47e-01	0	44	104	0	73	40493
2026-01-02 02:26:28.20	232.83	8.73	-51.2	-72.0	3.8	7.45e-01	0	44	104	0	73	40525
2026-01-02 02:26:28.92	232.77	8.67	-51.2	-71.9	3.8	7.44e-01	0	44	104	0	73	40424
2026-01-02 02:26:30.21	232.67	8.57	-51.2	-71.9	3.8	7.46e-01	0	44	104	0	73	40435
2026-01-02 02:26:30.93	232.62	8.51	-51.2	-72.0	3.8	7.50e-01	0	44	104	0	73	40520
2026-01-02 02:26:32.22	232.52	8.41	-51.2	-72.0	3.8	7.47e-01	0	44	104	0	73	40531
2026-01-02 02:26:32.94	232.46	8.35	-51.2	-71.9	3.8	7.43e-01	0	44	104	0	73	40430
2026-01-02 02:26:34.23	232.36	8.25	-51.2	-72.0	3.8	7.46e-01	0	44	104	0	73	40532
2026-01-02 02:26:34.95	232.31	8.19	-51.2	-71.9	3.8	7.47e-01	0	44	104	0	73	40441
2026-01-02 02:26:36.24	232.21	8.09	-51.2	-71.9	3.8	7.47e-01	0	44	104	0	73	40421
2026-01-02 02:26:36.95	232.16	8.03	-51.2	-72.0	3.8	7.45e-01	0	44	104	0	73	40537
2026-01-02 02:26:38.24	232.07	7.93	-51.2	-71.9	3.8	7.49e-01	0	44	104	0	73	40511
2026-01-02 02:26:38.96	232.01	7.87	-51.2	-72.0	3.8	7.44e-01	0	44	104	0	73	40536
2026-01-02 02:26:40.25	231.92	7.77	-51.2	-71.9	3.8	7.44e-01	0	44	104	0	73	40442
2026-01-02 02:26:40.97	231.87	7.71	-51.2	-71.9	3.8	7.45e-01	0	44	104	0	73	40463
2026-01-02 02:26:42.26	231.77	7.61	-51.2	-71.9	3.8	7.45e-01	0	44	104	0	73	40496
2026-01-02 02:26:42.98	231.72	7.56	-51.2	-72.0	3.8	7.45e-01	0	44	104	0	73	40515
2026-01-02 02:26:44.27	231.63	7.46	-51.2	-71.9	3.8	7.48e-01	0	44	104	0	73	40511
2026-01-02 02:26:44.99	231.58	7.40	-51.2	-71.9	3.8	7.49e-01	0	44	104	0	73	40444
2026-01-02 02:26:46.28	231.49	7.30	-51.2	-71.9	3.8	7.46e-01	0	44	104	0	73	40390
2026-01-02 02:26:47.00	231.44	7.25	-51.2	-71.9	3.8	7.46e-01	0	44	104	0	73	40467
2026-01-02 02:26:48.29	231.35	7.15	-51.2	-71.9	3.8	7.49e-01	0	44	104	0	73	40475
2026-01-02 02:26:49.00	231.30	7.09	-51.2	-71.9	3.8	7.46e-01	0	44	104	0	73	40464
2026-01-02 02:26:50.30	231.21	6.99	-51.2	-71.9	3.8	7.46e-01	0	44	104	0	73	40448
2026-01-02 02:26:51.01	231.16	6.94	-51.2	-71.9	3.8	7.48e-01	0	44	104	0	73	40460
2026-01-02 02:26:52.30	231.07	6.84	-51.2	-71.9	3.8	7.49e-01	0	44	104	0	73	40510
2026-01-02 02:26:53.12	231.02	6.78	-51.2	-72.0	3.8	7.46e-01	0	44	104	0	73	40540
2026-01-02 02:26:54.26	230.94	6.69	-51.2	-71.9	3.8	7.47e-01	0	44	104	0	73	40457
2026-01-02 02:26:55.35	230.87	6.61	-51.2	-71.9	3.8	7.46e-01	0	44	104	0	73	40493
2026-01-02 02:26:56.38	230.80	6.53	-51.2	-71.9	3.8	7.45e-01	0	44	104	0	73	40459
2026-01-02 02:26:57.56	230.72	6.45	-51.1	-71.9	3.8	7.47e-01	0	44	104	0	73	40475
2026-01-02 02:26:58.45	230.67	6.38	-51.1	-71.9	3.8	7.46e-01	0	44	104	0	73	40415
2026-01-02 02:26:59.66	230.59	6.29	-51.1	-71.9	3.8	7.46e-01	0	44	104	0	73	40422
2026-01-02 02:27:00.52	230.53	6.23	-51.1	-71.9	3.8	7.47e-01	0	44	104	0	73	40435
2026-01-02 02:27:01.67	230.46	6.14	-51.1	-72.0	3.8	7.49e-01	0	44	104	0	73	40548
2026-01-02 02:27:02.53	230.40	6.08	-51.2	-71.9	3.8	7.46e-01	0	44	104	0	73	40506
2026-01-02 02:27:03.68	230.33	5.99	-51.2	-71.9	3.8	7.50e-01	0	44	104	0	73	40503
2026-01-02 02:27:04.54	230.27	5.93	-51.2	-71.9	3.8	7.45e-01	0	44	104	0	73	40475
2026-01-02 02:27:05.69	230.20	5.85	-51.2	-72.0	3.8	7.47e-01	0	44	104	0	73	40569
2026-01-02 02:27:06.55	230.15	5.78	-51.2	-72.0	3.8	7.46e-01	0	44	104	0	73	40576
2026-01-02 02:27:07.69	230.08	5.70	-51.2	-71.9	3.8	7.48e-01	0	44	104	0	73	40405
2026-01-02 02:27:08.56	230.02	5.64	-51.2	-71.9	3.8	7.46e-01	0	44	104	0	73	40451
2026-01-02 02:27:09.70	229.95	5.55	-51.2	-72.0	3.8	7.45e-01	0	44	104	0	73	40532
2026-01-02 02:27:10.56	229.90	5.49	-51.2	-71.9	3.8	7.46e-01	0	44	104	0	73	40476
2026-01-02 02:27:11.74	229.83	5.41	-51.2	-72.0	3.8	7.47e-01	0	44	104	0	73	40512
2026-01-02 02:27:12.60	229.78	5.35	-51.2	-71.9	3.8	7.46e-01	0	44	104	0	73	40468
2026-01-02 02:27:13.75	229.71	5.26	-51.3	-71.9	3.8	7.44e-01	0	44	104	0	73	40390
2026-01-02 02:27:14.61	229.66	5.20	-51.3	-71.9	3.8	7.47e-01	0	44	104	0	73	40467
2026-01-02 02:27:15.76	229.59	5.12	-51.3	-71.9	3.8	7.48e-01	0	44	104	0	73	40493
2026-01-02 02:27:16.62	229.54	5.06	-51.2	-71.9	3.8	7.44e-01	0	44	104	0	73	40502
2026-01-02 02:27:17.77	229.47	4.98	-51.2	-71.9	3.8	7.48e-01	0	44	104	0	73	40437

#Closed at: 2026-01-02 02:27:18
#Recorded file [0 MB]: D:/Data/31040_260102_051639.dat