passes_logs/2026/01/02/T1/T1__20260102_232232_FENGYUN_3D_rec.log

#Pass ID: 20260102_232232_FENGYUN 3D
#Satellite: FENGYUN 3D
#Configuration: FENGYUN 3D
#almurnet v.1.7.20251203
#Start time: 2026-01-02 23:22:32

#Version: 2.0.20230620
#Station: T1
#Location: 37.570604 lon 55.790049 lat
#TLE: 1 43010U 17072A   26002.31768531  .00000715  00000+0  35975-3 0  9993
#TLE: 2 43010  98.9910 333.9388 0001871 131.0716 229.0622 14.19693418421454

#Time	Az	El	Level	Level2	SNR	BER	BlckErr	Temp	State	Recorded	gain1	gain2
2026-01-02 23:22:32.93	46.50	5.03	-48.9	-61.2	3.8	8.47e-01	0	36	0	0	68	15663
2026-01-02 23:22:33.93	46.63	5.07	-48.9	-61.2	3.8	8.47e-01	0	37	104	0	69	14788
2026-01-02 23:22:34.94	46.76	5.10	-48.9	-61.2	3.8	8.47e-01	0	37	104	0	69	14731
2026-01-02 23:22:35.94	46.90	5.13	-48.9	-61.2	3.8	8.48e-01	0	37	104	0	69	14780
2026-01-02 23:22:36.94	47.03	5.17	-48.9	-61.2	3.8	8.47e-01	0	37	104	0	69	14782
2026-01-02 23:22:37.94	47.17	5.20	-48.9	-61.2	3.8	8.46e-01	0	37	104	0	69	14768
2026-01-02 23:22:38.95	47.30	5.23	-48.9	-61.2	3.8	8.47e-01	0	37	104	0	69	14765
2026-01-02 23:22:39.95	47.44	5.26	-48.9	-61.2	3.8	8.47e-01	0	37	104	0	69	14752
2026-01-02 23:22:40.95	47.58	5.30	-48.9	-61.2	3.8	8.46e-01	0	37	104	0	69	14739
2026-01-02 23:22:41.96	47.71	5.33	-48.9	-61.2	3.8	8.47e-01	0	37	104	0	69	14812
2026-01-02 23:22:42.96	47.85	5.36	-48.9	-61.2	3.8	8.47e-01	0	37	104	0	69	14738
2026-01-02 23:22:43.96	47.99	5.40	-48.9	-61.2	3.8	8.48e-01	0	37	104	0	69	14715
2026-01-02 23:22:44.97	48.12	5.43	-48.9	-61.2	3.8	8.46e-01	0	37	104	0	69	14776
2026-01-02 23:22:45.97	48.26	5.46	-48.9	-61.2	3.8	8.46e-01	0	37	104	0	69	14746
2026-01-02 23:22:46.97	48.40	5.49	-48.9	-61.2	3.8	8.48e-01	0	37	104	0	69	14749
2026-01-02 23:22:47.97	48.54	5.52	-48.9	-61.2	3.8	8.46e-01	0	37	104	0	69	14769
2026-01-02 23:22:48.98	48.68	5.56	-48.9	-61.2	3.8	8.47e-01	0	37	104	0	69	14810
2026-01-02 23:22:49.98	48.81	5.59	-48.9	-61.2	3.8	8.47e-01	0	37	104	0	69	14806
2026-01-02 23:22:50.98	48.95	5.62	-48.9	-61.2	3.8	8.47e-01	0	38	104	0	69	14731
2026-01-02 23:22:51.99	49.09	5.65	-48.9	-61.2	3.8	8.47e-01	0	37	104	0	69	14820
2026-01-02 23:22:52.99	49.23	5.68	-48.9	-61.2	3.8	8.47e-01	0	38	104	0	69	14871
2026-01-02 23:22:53.99	49.37	5.72	-48.9	-61.2	3.8	8.47e-01	0	38	104	0	69	14786
2026-01-02 23:22:54.99	49.51	5.75	-48.9	-61.2	3.8	8.48e-01	0	38	104	0	69	14783
2026-01-02 23:22:56.00	49.65	5.78	-48.9	-61.2	3.8	8.47e-01	0	38	104	0	69	14792
2026-01-02 23:22:57.00	49.79	5.81	-48.9	-61.2	3.8	8.47e-01	0	38	104	0	69	14794
2026-01-02 23:22:58.00	49.94	5.84	-48.9	-61.2	3.8	8.49e-01	0	38	104	0	69	14815
2026-01-02 23:22:59.01	50.08	5.87	-48.9	-61.2	3.8	8.47e-01	0	38	104	0	69	14786
2026-01-02 23:23:00.01	50.22	5.90	-48.9	-61.2	3.8	8.46e-01	0	38	104	0	69	14806
2026-01-02 23:23:01.01	50.36	5.93	-48.9	-61.2	3.8	8.47e-01	0	38	104	0	69	14740
2026-01-02 23:23:02.01	50.50	5.96	-48.9	-61.2	3.8	8.47e-01	0	38	104	0	69	14813
2026-01-02 23:23:03.02	50.65	6.00	-48.9	-61.2	3.8	8.47e-01	0	38	104	0	69	14769
2026-01-02 23:23:04.02	50.79	6.03	-48.9	-61.2	3.8	8.48e-01	0	38	104	0	69	14792
2026-01-02 23:23:05.02	50.93	6.06	-48.9	-61.2	3.8	8.47e-01	0	38	104	0	69	14798
2026-01-02 23:23:06.03	51.08	6.09	-48.9	-61.2	3.8	8.47e-01	0	38	104	0	69	14782
2026-01-02 23:23:07.03	51.22	6.12	-48.9	-61.2	3.8	8.47e-01	0	38	104	0	69	14773
2026-01-02 23:23:08.03	51.36	6.15	-48.9	-61.2	3.8	8.47e-01	0	38	104	0	69	14804
2026-01-02 23:23:09.04	51.51	6.18	-48.9	-61.2	3.8	8.47e-01	0	38	104	0	69	14800
2026-01-02 23:23:10.04	51.65	6.21	-48.9	-61.2	3.8	8.47e-01	0	38	104	0	69	14782
2026-01-02 23:23:11.04	51.80	6.24	-48.9	-61.2	3.8	8.46e-01	0	38	104	0	69	14818
2026-01-02 23:23:12.04	51.94	6.27	-48.9	-61.2	3.8	8.47e-01	0	38	104	0	69	14772
2026-01-02 23:23:13.05	52.09	6.30	-48.9	-61.2	3.8	8.47e-01	0	38	104	0	69	14773
2026-01-02 23:23:14.05	52.23	6.32	-48.9	-61.2	3.8	8.47e-01	0	38	104	0	69	14755
2026-01-02 23:23:15.05	52.38	6.35	-48.9	-61.2	3.8	8.47e-01	0	38	104	0	69	14743
2026-01-02 23:23:16.06	52.53	6.38	-48.9	-61.2	3.8	8.48e-01	0	38	104	0	69	14800
2026-01-02 23:23:17.06	52.67	6.41	-48.9	-61.2	3.8	8.46e-01	0	38	104	0	69	14778
2026-01-02 23:23:18.07	52.82	6.44	-48.9	-61.2	3.8	8.46e-01	0	38	104	0	69	14780
2026-01-02 23:23:19.07	52.97	6.47	-48.9	-61.2	3.8	8.47e-01	0	38	104	0	69	14819
2026-01-02 23:23:20.08	53.12	6.50	-48.9	-61.2	3.8	8.46e-01	0	38	104	0	69	14754
2026-01-02 23:23:21.08	53.26	6.53	-48.9	-61.2	3.8	8.47e-01	0	38	104	0	69	14743
2026-01-02 23:23:22.09	53.41	6.56	-48.9	-61.2	3.8	8.46e-01	0	38	104	0	69	14770
2026-01-02 23:23:23.09	53.56	6.58	-48.9	-61.2	3.8	8.46e-01	0	38	104	0	69	14814
2026-01-02 23:23:24.09	53.71	6.61	-48.9	-61.2	3.8	8.48e-01	0	38	104	0	69	14828
2026-01-02 23:23:25.09	53.86	6.64	-48.9	-61.2	3.8	8.46e-01	0	38	104	0	69	14797
2026-01-02 23:23:26.10	54.01	6.67	-48.9	-61.2	3.8	8.47e-01	0	38	104	0	69	14831
2026-01-02 23:23:27.10	54.16	6.69	-48.9	-61.2	3.8	8.45e-01	0	38	104	0	69	14790
2026-01-02 23:23:28.10	54.31	6.72	-48.9	-61.2	3.8	8.47e-01	0	38	104	0	69	14745
2026-01-02 23:23:29.11	54.46	6.75	-48.9	-61.2	3.8	8.46e-01	0	39	104	0	69	14842
2026-01-02 23:23:30.11	54.61	6.78	-48.9	-61.2	3.8	8.48e-01	0	39	104	0	69	14818
2026-01-02 23:23:31.12	54.76	6.80	-48.9	-61.2	3.8	8.47e-01	0	38	104	0	69	14818
2026-01-02 23:23:32.12	54.91	6.83	-48.9	-61.2	3.8	8.48e-01	0	38	104	0	69	14771
2026-01-02 23:23:33.13	55.06	6.86	-48.9	-61.2	3.8	8.48e-01	0	39	104	0	69	14777
2026-01-02 23:23:34.13	55.21	6.89	-48.9	-61.2	3.8	8.47e-01	0	38	104	0	69	14796
2026-01-02 23:23:35.13	55.36	6.91	-48.9	-61.2	3.8	8.47e-01	0	38	104	0	69	14812
2026-01-02 23:23:36.14	55.52	6.94	-48.9	-61.2	3.8	8.47e-01	0	39	104	0	69	14777
2026-01-02 23:23:37.14	55.67	6.96	-48.9	-61.2	3.8	8.47e-01	0	39	104	0	69	14807
2026-01-02 23:23:38.14	55.82	6.99	-48.9	-61.2	3.8	8.47e-01	0	39	104	0	69	14795
2026-01-02 23:23:39.15	55.98	7.02	-48.9	-61.2	3.8	8.46e-01	0	39	104	0	69	14843
2026-01-02 23:23:40.15	56.13	7.04	-48.9	-61.2	3.8	8.46e-01	0	38	104	0	69	14812
2026-01-02 23:23:41.16	56.28	7.07	-48.9	-61.2	3.8	8.46e-01	0	39	104	0	69	14813
2026-01-02 23:23:42.16	56.44	7.09	-48.9	-61.2	3.8	8.48e-01	0	38	104	0	69	14799
2026-01-02 23:23:43.16	56.59	7.12	-48.9	-61.2	3.8	8.46e-01	0	39	104	0	69	14727
2026-01-02 23:23:44.17	56.74	7.15	-48.9	-61.2	3.8	8.47e-01	0	39	104	0	69	14791
2026-01-02 23:23:45.17	56.90	7.17	-48.9	-61.2	3.8	8.46e-01	0	39	104	0	69	14764
2026-01-02 23:23:46.17	57.05	7.20	-48.9	-61.2	3.8	8.47e-01	0	39	104	0	69	14839
2026-01-02 23:23:47.18	57.21	7.22	-48.9	-61.2	3.8	8.48e-01	0	39	104	0	69	14790
2026-01-02 23:23:48.18	57.36	7.24	-48.9	-61.2	3.8	8.46e-01	0	39	104	0	69	14822
2026-01-02 23:23:49.27	57.53	7.27	-48.9	-61.2	3.8	8.47e-01	0	39	104	0	69	14802
2026-01-02 23:23:50.28	57.69	7.30	-48.9	-61.2	3.8	8.46e-01	0	39	104	0	69	14778
2026-01-02 23:23:51.28	57.84	7.32	-48.9	-61.2	3.8	8.47e-01	0	39	104	0	69	14799
2026-01-02 23:23:52.28	58.00	7.34	-48.9	-61.2	3.8	8.47e-01	0	39	104	0	69	14783
2026-01-02 23:23:53.29	58.16	7.37	-48.9	-61.2	3.8	8.47e-01	0	39	104	0	69	14820
2026-01-02 23:23:54.29	58.31	7.39	-48.9	-61.2	3.8	8.47e-01	0	39	104	0	69	14816
2026-01-02 23:23:55.29	58.47	7.42	-48.9	-61.2	3.8	8.47e-01	0	39	104	0	69	14787
2026-01-02 23:23:56.30	58.63	7.44	-48.9	-61.2	3.8	8.46e-01	0	39	104	0	69	14804
2026-01-02 23:23:57.30	58.78	7.46	-48.9	-61.2	3.8	8.47e-01	0	39	104	0	69	14786
2026-01-02 23:23:58.31	58.94	7.49	-48.9	-61.2	3.8	8.47e-01	0	39	104	0	69	14805
2026-01-02 23:23:59.31	59.10	7.51	-48.9	-61.2	3.8	8.46e-01	0	39	104	0	69	14778
2026-01-02 23:24:00.32	59.26	7.53	-48.9	-61.2	3.8	8.48e-01	0	39	104	0	69	14837
2026-01-02 23:24:01.32	59.42	7.55	-48.9	-61.2	3.8	8.47e-01	0	39	104	0	69	14796
2026-01-02 23:24:02.32	59.58	7.58	-48.9	-61.2	3.8	8.47e-01	0	39	104	0	69	14826
2026-01-02 23:24:03.33	59.74	7.60	-48.9	-61.2	3.8	8.47e-01	0	39	104	0	69	14835
2026-01-02 23:24:04.33	59.90	7.62	-48.9	-61.2	3.8	8.48e-01	0	39	104	0	69	14760
2026-01-02 23:24:05.34	60.06	7.64	-48.9	-61.2	3.8	8.47e-01	0	39	104	0	69	14774
2026-01-02 23:24:06.34	60.21	7.66	-48.9	-61.2	3.8	8.48e-01	0	39	104	0	69	14773
2026-01-02 23:24:07.34	60.37	7.69	-48.9	-61.2	3.8	8.47e-01	0	39	104	0	69	14826
2026-01-02 23:24:08.35	60.54	7.71	-48.9	-61.2	3.8	8.46e-01	0	39	104	0	69	14810
2026-01-02 23:24:09.35	60.69	7.73	-48.9	-61.2	3.8	8.47e-01	0	39	104	0	69	14773
2026-01-02 23:24:10.36	60.86	7.75	-48.9	-61.2	3.8	8.47e-01	0	39	104	0	69	14769
2026-01-02 23:24:11.36	61.02	7.77	-48.9	-61.2	3.8	8.46e-01	0	39	104	0	69	14765
2026-01-02 23:24:12.36	61.18	7.79	-48.9	-61.2	3.8	8.46e-01	0	39	104	0	69	14739
2026-01-02 23:24:13.37	61.34	7.81	-48.9	-61.2	3.8	8.47e-01	0	39	104	0	69	14753
2026-01-02 23:24:14.37	61.50	7.83	-48.9	-61.2	3.8	8.46e-01	0	39	104	0	69	14783
2026-01-02 23:24:15.38	61.66	7.85	-48.9	-61.2	3.8	8.47e-01	0	39	104	0	69	14797
2026-01-02 23:24:16.38	61.82	7.87	-48.9	-61.2	3.8	8.48e-01	0	39	104	0	69	14809
2026-01-02 23:24:17.38	61.99	7.89	-48.9	-61.2	3.8	8.47e-01	0	39	104	0	69	14727
2026-01-02 23:24:18.39	62.15	7.91	-48.9	-61.2	3.8	8.47e-01	0	39	104	0	69	14749
2026-01-02 23:24:19.39	62.31	7.93	-48.9	-61.2	3.8	8.47e-01	0	39	104	0	69	14814
2026-01-02 23:24:20.40	62.48	7.95	-48.9	-61.2	3.8	8.47e-01	0	39	104	0	69	14766
2026-01-02 23:24:21.40	62.64	7.97	-48.9	-61.2	3.8	8.46e-01	0	39	104	0	69	14805
2026-01-02 23:24:22.40	62.80	7.99	-48.9	-61.2	3.8	8.47e-01	0	39	104	0	69	14824
2026-01-02 23:24:23.41	62.97	8.01	-48.9	-61.2	3.8	8.47e-01	0	39	104	0	69	14756
2026-01-02 23:24:24.41	63.13	8.03	-48.9	-61.2	3.8	8.47e-01	0	39	104	0	69	14815
2026-01-02 23:24:25.41	63.29	8.05	-48.9	-61.2	3.8	8.47e-01	0	39	104	0	69	14797
2026-01-02 23:24:26.42	63.46	8.06	-48.9	-61.2	3.8	8.46e-01	0	39	104	0	69	14781
2026-01-02 23:24:27.43	63.62	8.08	-48.9	-61.2	3.8	8.47e-01	0	39	104	0	69	14786
2026-01-02 23:24:28.43	63.79	8.10	-48.9	-61.2	3.8	8.45e-01	0	39	104	0	69	14779
2026-01-02 23:24:29.43	63.95	8.12	-48.9	-61.2	3.8	8.47e-01	0	39	104	0	69	14798
2026-01-02 23:24:30.44	64.12	8.13	-48.9	-61.2	3.8	8.47e-01	0	39	104	0	69	14807
2026-01-02 23:24:31.44	64.28	8.15	-48.9	-61.2	3.8	8.47e-01	0	39	104	0	69	14770
2026-01-02 23:24:32.45	64.45	8.17	-48.9	-61.2	3.8	8.48e-01	0	39	104	0	69	14789
2026-01-02 23:24:33.45	64.61	8.19	-48.9	-61.2	3.8	8.47e-01	0	39	104	0	69	14757
2026-01-02 23:24:34.45	64.78	8.20	-48.9	-61.2	3.8	8.47e-01	0	39	104	0	69	14781
2026-01-02 23:24:35.46	64.94	8.22	-48.9	-61.2	3.8	8.47e-01	0	39	104	0	69	14778
2026-01-02 23:24:36.46	65.11	8.24	-48.9	-61.2	3.8	8.48e-01	0	39	104	0	69	14786
2026-01-02 23:24:37.46	65.27	8.25	-48.9	-61.2	3.8	8.46e-01	0	39	104	0	69	14778
2026-01-02 23:24:38.47	65.44	8.27	-48.9	-61.2	3.8	8.46e-01	0	39	104	0	69	14744
2026-01-02 23:24:39.47	65.61	8.28	-48.9	-61.2	3.8	8.47e-01	0	39	104	0	69	14721
2026-01-02 23:24:40.47	65.77	8.30	-48.9	-61.2	3.8	8.46e-01	0	39	104	0	69	14790
2026-01-02 23:24:41.48	65.94	8.31	-48.9	-61.2	3.8	8.47e-01	0	39	104	0	69	14784
2026-01-02 23:24:42.48	66.11	8.33	-48.9	-61.2	3.8	8.47e-01	0	39	104	0	69	14743
2026-01-02 23:24:43.49	66.28	8.34	-48.9	-61.2	3.8	8.46e-01	0	39	104	0	69	14845
2026-01-02 23:24:44.49	66.44	8.36	-48.9	-61.2	3.8	8.48e-01	0	39	104	0	69	14820
2026-01-02 23:24:45.50	66.61	8.37	-48.9	-61.2	3.8	8.47e-01	0	39	104	0	69	14784
2026-01-02 23:24:46.50	66.78	8.39	-48.9	-61.2	3.8	8.46e-01	0	39	104	0	69	14768
2026-01-02 23:24:47.50	66.95	8.40	-48.9	-61.2	3.8	8.47e-01	0	39	104	0	69	14796
2026-01-02 23:24:48.51	67.12	8.42	-48.9	-61.2	3.8	8.46e-01	0	39	104	0	69	14797
2026-01-02 23:24:49.51	67.28	8.43	-48.9	-61.2	3.8	8.47e-01	0	39	104	0	69	14731
2026-01-02 23:24:50.52	67.45	8.44	-48.9	-61.2	3.8	8.46e-01	0	39	104	0	69	14761
2026-01-02 23:24:51.52	67.62	8.46	-48.9	-61.2	3.8	8.47e-01	0	39	104	0	69	14782
2026-01-02 23:24:52.53	67.79	8.47	-48.9	-61.2	3.8	8.46e-01	0	40	104	0	69	14793
2026-01-02 23:24:53.53	67.96	8.48	-48.9	-61.2	3.8	8.47e-01	0	39	104	0	69	14806
2026-01-02 23:24:54.53	68.13	8.49	-48.9	-61.2	3.8	8.47e-01	0	39	104	0	69	14775
2026-01-02 23:24:55.54	68.30	8.51	-48.9	-61.2	3.8	8.47e-01	0	39	104	0	69	14781
2026-01-02 23:24:56.54	68.47	8.52	-48.9	-61.2	3.8	8.47e-01	0	39	104	0	69	14835
2026-01-02 23:24:57.55	68.64	8.53	-48.9	-61.2	3.8	8.47e-01	0	39	104	0	69	14711
2026-01-02 23:24:58.55	68.81	8.54	-48.9	-61.2	3.8	8.47e-01	0	39	104	0	69	14762
2026-01-02 23:24:59.56	68.98	8.56	-48.9	-61.2	3.8	8.46e-01	0	39	104	0	69	14787
2026-01-02 23:25:00.56	69.15	8.57	-48.9	-61.2	3.8	8.47e-01	0	39	104	0	69	14813
2026-01-02 23:25:01.56	69.31	8.58	-48.9	-61.2	3.8	8.47e-01	0	40	104	0	69	14822
2026-01-02 23:25:02.57	69.49	8.59	-48.9	-61.2	3.8	8.46e-01	0	40	104	0	69	14826
2026-01-02 23:25:03.57	69.66	8.60	-48.9	-61.2	3.8	8.46e-01	0	40	104	0	69	14843
2026-01-02 23:25:04.58	69.83	8.61	-48.9	-61.2	3.8	8.47e-01	0	39	104	0	69	14847
2026-01-02 23:25:05.58	70.00	8.62	-48.9	-61.2	3.8	8.48e-01	0	39	104	0	69	14818
2026-01-02 23:25:06.59	70.17	8.63	-48.9	-61.2	3.8	8.47e-01	0	39	104	0	69	14777
2026-01-02 23:25:07.59	70.34	8.64	-48.9	-61.2	3.8	8.47e-01	0	39	104	0	69	14811
2026-01-02 23:25:08.59	70.51	8.65	-48.9	-61.2	3.8	8.46e-01	0	39	104	0	69	14768
2026-01-02 23:25:09.60	70.68	8.66	-48.9	-61.2	3.8	8.46e-01	0	39	104	0	69	14786
2026-01-02 23:25:10.60	70.85	8.67	-48.9	-61.2	3.8	8.47e-01	0	39	104	0	69	14823
2026-01-02 23:25:11.61	71.02	8.68	-48.9	-61.2	3.8	8.47e-01	0	39	104	0	69	14782
2026-01-02 23:25:12.61	71.19	8.69	-48.9	-61.2	3.8	8.47e-01	0	39	104	0	69	14808
2026-01-02 23:25:13.61	71.36	8.70	-48.9	-61.2	3.8	8.48e-01	0	40	104	0	69	14762
2026-01-02 23:25:14.62	71.54	8.70	-48.9	-61.2	3.8	8.47e-01	0	39	104	0	69	14819
2026-01-02 23:25:15.62	71.71	8.71	-48.9	-61.2	3.8	8.47e-01	0	40	104	0	69	14822
2026-01-02 23:25:16.63	71.88	8.72	-48.9	-61.2	3.8	8.47e-01	0	39	104	0	69	14842
2026-01-02 23:25:17.63	72.05	8.73	-48.9	-61.2	3.8	8.47e-01	0	39	104	0	69	14782
2026-01-02 23:25:18.64	72.23	8.74	-48.9	-61.2	3.8	8.47e-01	0	40	104	0	69	14824
2026-01-02 23:25:19.64	72.40	8.74	-48.9	-61.2	3.8	8.48e-01	0	40	104	0	69	14873
2026-01-02 23:25:20.65	72.57	8.75	-48.9	-61.2	3.8	8.47e-01	0	39	104	0	69	14790
2026-01-02 23:25:21.65	72.74	8.76	-48.9	-61.2	3.8	8.47e-01	0	39	104	0	69	14762
2026-01-02 23:25:22.65	72.91	8.76	-48.9	-61.2	3.8	8.46e-01	0	40	104	0	69	14801
2026-01-02 23:25:23.66	73.09	8.77	-48.9	-61.2	3.8	8.46e-01	0	40	104	0	69	14826
2026-01-02 23:25:24.66	73.26	8.78	-48.9	-61.2	3.8	8.47e-01	0	39	104	0	69	14830
2026-01-02 23:25:25.67	73.43	8.78	-48.9	-61.2	3.8	8.47e-01	0	40	104	0	69	14787
2026-01-02 23:25:26.67	73.60	8.79	-48.9	-61.2	3.8	8.48e-01	0	40	104	0	69	14784
2026-01-02 23:25:27.68	73.78	8.79	-48.9	-61.2	3.8	8.47e-01	0	40	104	0	69	14801
2026-01-02 23:25:28.68	73.95	8.80	-48.9	-61.2	3.8	8.46e-01	0	40	104	0	69	14774
2026-01-02 23:25:29.69	74.12	8.80	-48.9	-61.2	3.8	8.46e-01	0	39	104	0	69	14779
2026-01-02 23:25:30.69	74.29	8.81	-48.9	-61.2	3.8	8.46e-01	0	40	104	0	69	14780
2026-01-02 23:25:31.70	74.47	8.81	-48.9	-61.2	3.8	8.48e-01	0	40	104	0	69	14772
2026-01-02 23:25:32.70	74.64	8.82	-48.9	-61.2	3.8	8.46e-01	0	40	104	0	69	14822
2026-01-02 23:25:33.70	74.81	8.82	-48.9	-61.2	3.8	8.47e-01	0	40	104	0	69	14777
2026-01-02 23:25:34.71	74.99	8.83	-48.9	-61.2	3.8	8.48e-01	0	40	104	0	69	14849
2026-01-02 23:25:35.71	75.16	8.83	-48.9	-61.2	3.8	8.47e-01	0	40	104	0	69	14769
2026-01-02 23:25:36.72	75.33	8.83	-48.9	-61.2	3.8	8.47e-01	0	39	104	0	69	14746
2026-01-02 23:25:37.72	75.51	8.84	-48.9	-61.2	3.8	8.48e-01	0	40	104	0	69	14768
2026-01-02 23:25:38.72	75.68	8.84	-48.9	-61.2	3.8	8.47e-01	0	39	104	0	69	14840
2026-01-02 23:25:39.73	75.85	8.84	-48.9	-61.2	3.8	8.47e-01	0	40	104	0	69	14745
2026-01-02 23:25:40.73	76.03	8.85	-48.9	-61.2	3.8	8.46e-01	0	40	104	0	69	14780
2026-01-02 23:25:41.74	76.20	8.85	-48.9	-61.2	3.8	8.47e-01	0	40	104	0	69	14743
2026-01-02 23:25:42.74	76.37	8.85	-48.9	-61.2	3.8	8.48e-01	0	40	104	0	69	14794
2026-01-02 23:25:43.74	76.55	8.85	-48.9	-61.2	3.8	8.48e-01	0	39	104	0	69	14776
2026-01-02 23:25:44.75	76.72	8.85	-48.9	-61.2	3.8	8.47e-01	0	40	104	0	69	14738
2026-01-02 23:25:45.75	76.89	8.85	-48.9	-61.2	3.8	8.48e-01	0	40	104	0	69	14814
2026-01-02 23:25:46.75	77.06	8.86	-48.9	-61.2	3.8	8.47e-01	0	40	104	0	69	14781
2026-01-02 23:25:47.76	77.24	8.86	-48.9	-61.2	3.8	8.47e-01	0	40	104	0	69	14805
2026-01-02 23:25:48.77	77.41	8.86	-48.9	-61.2	3.8	8.48e-01	0	39	104	0	69	14790
2026-01-02 23:25:49.77	77.59	8.86	-48.9	-61.2	3.8	8.46e-01	0	40	104	0	69	14754
2026-01-02 23:25:50.77	77.76	8.86	-48.9	-61.2	3.8	8.47e-01	0	40	104	0	69	14819
2026-01-02 23:25:51.77	77.93	8.86	-48.9	-61.2	3.8	8.48e-01	0	40	104	0	69	14832
2026-01-02 23:25:52.77	78.11	8.86	-48.9	-61.2	3.8	8.47e-01	0	39	104	0	69	14790
2026-01-02 23:25:53.77	78.28	8.86	-48.9	-61.2	3.8	8.47e-01	0	40	104	0	69	14777
2026-01-02 23:25:54.78	78.45	8.86	-48.9	-61.2	3.8	8.46e-01	0	39	104	0	69	14751
2026-01-02 23:25:55.78	78.63	8.86	-48.9	-61.2	3.8	8.46e-01	0	40	104	0	69	14742
2026-01-02 23:25:56.79	78.80	8.86	-48.9	-61.2	3.8	8.46e-01	0	40	104	0	69	14792
2026-01-02 23:25:57.79	78.97	8.85	-48.9	-61.2	3.8	8.48e-01	0	40	104	0	69	14724
2026-01-02 23:25:58.80	79.15	8.85	-48.9	-61.2	3.8	8.46e-01	0	40	104	0	69	14797
2026-01-02 23:25:59.80	79.32	8.85	-48.9	-61.2	3.8	8.47e-01	0	40	104	0	69	14800
2026-01-02 23:26:00.80	79.49	8.85	-48.9	-61.2	3.8	8.48e-01	0	40	104	0	69	14819
2026-01-02 23:26:01.81	79.67	8.85	-48.9	-61.2	3.8	8.47e-01	0	40	104	0	69	14799
2026-01-02 23:26:02.81	79.84	8.85	-48.9	-61.2	3.8	8.47e-01	0	40	104	0	69	14790
2026-01-02 23:26:03.81	80.01	8.84	-48.9	-61.2	3.8	8.47e-01	0	40	104	0	69	14789
2026-01-02 23:26:04.82	80.19	8.84	-48.9	-61.2	3.8	8.48e-01	0	40	104	0	69	14812
2026-01-02 23:26:05.82	80.36	8.84	-48.9	-61.2	3.8	8.46e-01	0	40	104	0	69	14795
2026-01-02 23:26:06.83	80.53	8.83	-48.9	-61.2	3.8	8.46e-01	0	40	104	0	69	14746
2026-01-02 23:26:07.83	80.71	8.83	-48.9	-61.2	3.8	8.46e-01	0	40	104	0	69	14775
2026-01-02 23:26:08.83	80.88	8.83	-48.9	-61.2	3.8	8.47e-01	0	40	104	0	69	14789
2026-01-02 23:26:09.83	81.05	8.82	-48.9	-61.2	3.8	8.47e-01	0	39	104	0	69	14768
2026-01-02 23:26:10.84	81.23	8.82	-48.9	-61.2	3.8	8.46e-01	0	40	104	0	69	14753
2026-01-02 23:26:11.84	81.40	8.81	-48.9	-61.2	3.8	8.47e-01	0	40	104	0	69	14841
2026-01-02 23:26:12.85	81.57	8.81	-48.9	-61.2	3.8	8.47e-01	0	40	104	0	69	14801
2026-01-02 23:26:13.85	81.74	8.80	-48.9	-61.2	3.8	8.46e-01	0	40	104	0	69	14729
2026-01-02 23:26:14.85	81.92	8.80	-48.9	-61.2	3.8	8.47e-01	0	40	104	0	69	14776
2026-01-02 23:26:15.86	82.09	8.79	-48.9	-61.2	3.8	8.47e-01	0	40	104	0	69	14780
2026-01-02 23:26:16.86	82.26	8.79	-48.9	-61.2	3.8	8.48e-01	0	40	104	0	69	14828
2026-01-02 23:26:17.87	82.44	8.78	-48.9	-61.2	3.8	8.47e-01	0	40	104	0	69	14802
2026-01-02 23:26:18.87	82.61	8.78	-48.9	-61.2	3.8	8.47e-01	0	40	104	0	69	14825
2026-01-02 23:26:19.88	82.78	8.77	-48.9	-61.2	3.8	8.47e-01	0	40	104	0	69	14830
2026-01-02 23:26:20.88	82.95	8.76	-48.9	-61.2	3.8	8.46e-01	0	40	104	0	69	14782
2026-01-02 23:26:21.89	83.13	8.76	-48.9	-61.2	3.8	8.47e-01	0	40	104	0	69	14777
2026-01-02 23:26:22.89	83.30	8.75	-48.9	-61.2	3.8	8.46e-01	0	40	104	0	69	14776
2026-01-02 23:26:23.89	83.47	8.74	-48.9	-61.2	3.8	8.47e-01	0	40	104	0	69	14785
2026-01-02 23:26:24.90	83.64	8.74	-48.9	-61.2	3.8	8.47e-01	0	40	104	0	69	14769
2026-01-02 23:26:25.90	83.82	8.73	-48.9	-61.2	3.8	8.47e-01	0	40	104	0	69	14775
2026-01-02 23:26:26.91	83.99	8.72	-48.9	-61.2	3.8	8.47e-01	0	40	104	0	69	14822
2026-01-02 23:26:27.91	84.16	8.71	-48.9	-61.2	3.8	8.48e-01	0	40	104	0	69	14748
2026-01-02 23:26:28.92	84.33	8.70	-48.9	-61.2	3.8	8.47e-01	0	40	104	0	69	14755
2026-01-02 23:26:29.92	84.50	8.70	-48.9	-61.2	3.8	8.47e-01	0	40	104	0	69	14808
2026-01-02 23:26:30.93	84.68	8.69	-48.9	-61.2	3.8	8.46e-01	0	40	104	0	69	14807
2026-01-02 23:26:31.93	84.85	8.68	-48.9	-61.2	3.8	8.46e-01	0	40	104	0	69	14820
2026-01-02 23:26:32.93	85.02	8.67	-48.9	-61.2	3.8	8.48e-01	0	40	104	0	69	14776
2026-01-02 23:26:33.94	85.19	8.66	-48.9	-61.2	3.8	8.46e-01	0	40	104	0	69	14740
2026-01-02 23:26:34.94	85.36	8.65	-48.9	-61.2	3.8	8.47e-01	0	40	104	0	69	14839
2026-01-02 23:26:35.95	85.53	8.64	-48.9	-61.2	3.8	8.48e-01	0	40	104	0	69	14796
2026-01-02 23:26:36.95	85.70	8.63	-48.9	-61.2	3.8	8.46e-01	0	40	104	0	69	14733
2026-01-02 23:26:37.96	85.88	8.62	-48.9	-61.2	3.8	8.47e-01	0	40	104	0	69	14868
2026-01-02 23:26:38.96	86.05	8.61	-48.9	-61.2	3.8	8.47e-01	0	40	104	0	69	14804
2026-01-02 23:26:39.97	86.22	8.60	-48.9	-61.2	3.8	8.48e-01	0	40	104	0	69	14788
2026-01-02 23:26:40.97	86.39	8.59	-48.9	-61.2	3.8	8.48e-01	0	40	104	0	69	14767
2026-01-02 23:26:41.98	86.56	8.58	-48.9	-61.2	3.8	8.46e-01	0	40	104	0	69	14826
2026-01-02 23:26:42.98	86.73	8.57	-48.9	-61.2	3.8	8.48e-01	0	40	104	0	69	14792
2026-01-02 23:26:43.98	86.90	8.56	-48.9	-61.2	3.8	8.47e-01	0	40	104	0	69	14807
2026-01-02 23:26:44.99	87.07	8.54	-48.9	-61.2	3.8	8.47e-01	0	40	104	0	69	14725
2026-01-02 23:26:45.99	87.24	8.53	-48.9	-61.2	3.8	8.47e-01	0	40	104	0	69	14790
2026-01-02 23:26:47.00	87.41	8.52	-48.9	-61.2	3.8	8.47e-01	0	40	104	0	69	14819
2026-01-02 23:26:48.00	87.58	8.51	-48.9	-61.2	3.8	8.47e-01	0	40	104	0	69	14796
2026-01-02 23:26:49.01	87.75	8.49	-48.9	-61.2	3.8	8.46e-01	0	40	104	0	69	14796
2026-01-02 23:26:50.01	87.92	8.48	-48.9	-61.2	3.8	8.46e-01	0	40	104	0	69	14710
2026-01-02 23:26:51.02	88.09	8.47	-48.9	-61.2	3.8	8.46e-01	0	40	104	0	69	14762
2026-01-02 23:26:52.02	88.26	8.46	-48.9	-61.2	3.8	8.48e-01	0	40	104	0	69	14777
2026-01-02 23:26:53.02	88.43	8.44	-48.9	-61.2	3.8	8.46e-01	0	40	104	0	69	14784
2026-01-02 23:26:54.03	88.60	8.43	-48.9	-61.2	3.8	8.46e-01	0	40	104	0	69	14843
2026-01-02 23:26:55.03	88.76	8.42	-48.9	-61.2	3.8	8.47e-01	0	40	104	0	69	14815
2026-01-02 23:26:56.04	88.93	8.40	-48.9	-61.2	3.8	8.47e-01	0	40	104	0	69	14802
2026-01-02 23:26:57.04	89.10	8.39	-48.9	-61.2	3.8	8.47e-01	0	40	104	0	69	14838
2026-01-02 23:26:58.05	89.27	8.37	-48.9	-61.2	3.8	8.48e-01	0	40	104	0	69	14878
2026-01-02 23:26:59.05	89.44	8.36	-48.9	-61.2	3.8	8.47e-01	0	40	104	0	69	14816
2026-01-02 23:27:00.05	89.61	8.34	-48.9	-61.2	3.8	8.46e-01	0	40	104	0	69	14758
2026-01-02 23:27:01.06	89.77	8.33	-48.9	-61.2	3.8	8.47e-01	0	40	104	0	69	14815
2026-01-02 23:27:02.06	89.94	8.31	-48.9	-61.2	3.8	8.47e-01	0	40	104	0	69	14821
2026-01-02 23:27:03.07	90.11	8.30	-48.9	-61.2	3.8	8.47e-01	0	40	104	0	69	14822
2026-01-02 23:27:04.07	90.28	8.28	-48.9	-61.2	3.8	8.47e-01	0	40	104	0	69	14818
2026-01-02 23:27:05.08	90.44	8.27	-48.9	-61.2	3.8	8.48e-01	0	40	104	0	69	14790
2026-01-02 23:27:06.08	90.61	8.25	-48.9	-61.2	3.8	8.46e-01	0	40	104	0	69	14809
2026-01-02 23:27:07.09	90.78	8.23	-48.9	-61.2	3.8	8.46e-01	0	40	104	0	69	14727
2026-01-02 23:27:08.09	90.94	8.22	-48.9	-61.2	3.8	8.48e-01	0	40	104	0	69	14768
2026-01-02 23:27:09.09	91.11	8.20	-48.9	-61.2	3.8	8.47e-01	0	40	104	0	69	14765
2026-01-02 23:27:10.10	91.28	8.18	-48.9	-61.2	3.8	8.46e-01	0	40	104	0	69	14819
2026-01-02 23:27:11.10	91.44	8.17	-48.9	-61.2	3.8	8.47e-01	0	40	104	0	69	14743
2026-01-02 23:27:12.11	91.61	8.15	-48.9	-61.2	3.8	8.46e-01	0	40	104	0	69	14793
2026-01-02 23:27:13.11	91.77	8.13	-48.9	-61.2	3.8	8.46e-01	0	40	104	0	69	14802
2026-01-02 23:27:14.11	91.94	8.12	-48.9	-61.2	3.8	8.47e-01	0	40	104	0	69	14787
2026-01-02 23:27:15.12	92.11	8.10	-48.9	-61.2	3.8	8.48e-01	0	40	104	0	69	14781
2026-01-02 23:27:16.12	92.27	8.08	-48.9	-61.2	3.8	8.47e-01	0	40	104	0	69	14808
2026-01-02 23:27:17.13	92.44	8.06	-48.9	-61.2	3.8	8.47e-01	0	40	104	0	69	14805
2026-01-02 23:27:18.13	92.60	8.04	-48.9	-61.2	3.8	8.47e-01	0	40	104	0	69	14816
2026-01-02 23:27:19.14	92.77	8.02	-48.9	-61.2	3.8	8.47e-01	0	40	104	0	69	14799
2026-01-02 23:27:20.14	92.93	8.01	-48.9	-61.2	3.8	8.47e-01	0	40	104	0	69	14852
2026-01-02 23:27:21.14	93.09	7.99	-48.9	-61.2	3.8	8.46e-01	0	40	104	0	69	14757
2026-01-02 23:27:22.15	93.26	7.97	-48.9	-61.2	3.8	8.47e-01	0	40	104	0	69	14795
2026-01-02 23:27:23.15	93.42	7.95	-48.9	-61.2	3.8	8.47e-01	0	40	104	0	69	14814
2026-01-02 23:27:24.16	93.58	7.93	-48.9	-61.2	3.8	8.48e-01	0	40	104	0	69	14792
2026-01-02 23:27:25.16	93.75	7.91	-48.9	-61.2	3.8	8.46e-01	0	40	104	0	69	14821
2026-01-02 23:27:26.16	93.91	7.89	-48.9	-61.2	3.8	8.48e-01	0	40	104	0	69	14790
2026-01-02 23:27:27.17	94.07	7.87	-48.9	-61.2	3.8	8.47e-01	0	40	104	0	69	14784
2026-01-02 23:27:28.17	94.24	7.85	-48.9	-61.2	3.8	8.47e-01	0	40	104	0	69	14810
2026-01-02 23:27:29.18	94.40	7.83	-48.9	-61.2	3.8	8.46e-01	0	40	104	0	69	14798
2026-01-02 23:27:30.18	94.56	7.81	-48.9	-61.2	3.8	8.46e-01	0	40	104	0	69	14762
2026-01-02 23:27:31.19	94.72	7.79	-48.9	-61.2	3.8	8.47e-01	0	40	104	0	69	14771
2026-01-02 23:27:32.19	94.88	7.77	-48.9	-61.2	3.8	8.47e-01	0	40	104	0	69	14794
2026-01-02 23:27:33.20	95.05	7.75	-48.9	-61.2	3.8	8.46e-01	0	40	104	0	69	14768
2026-01-02 23:27:34.20	95.21	7.72	-48.9	-61.2	3.8	8.46e-01	0	40	104	0	69	14754
2026-01-02 23:27:35.20	95.37	7.70	-48.9	-61.2	3.8	8.47e-01	0	40	104	0	69	14771
2026-01-02 23:27:36.21	95.53	7.68	-48.9	-61.2	3.8	8.47e-01	0	40	104	0	69	14836
2026-01-02 23:27:37.21	95.69	7.66	-48.9	-61.2	3.8	8.46e-01	0	40	104	0	69	14777
2026-01-02 23:27:38.21	95.85	7.64	-48.9	-61.2	3.8	8.48e-01	0	40	104	0	69	14783
2026-01-02 23:27:39.22	96.01	7.62	-48.9	-61.2	3.8	8.46e-01	0	40	104	0	69	14774
2026-01-02 23:27:40.22	96.17	7.59	-48.9	-61.2	3.8	8.47e-01	0	40	104	0	69	14801
2026-01-02 23:27:41.23	96.33	7.57	-48.9	-61.2	3.8	8.47e-01	0	40	104	0	69	14780
2026-01-02 23:27:42.23	96.49	7.55	-48.9	-61.2	3.8	8.47e-01	0	40	104	0	69	14832
2026-01-02 23:27:43.24	96.65	7.53	-48.9	-61.2	3.8	8.46e-01	0	40	104	0	69	14800
2026-01-02 23:27:44.24	96.81	7.50	-48.9	-61.2	3.8	8.47e-01	0	40	104	0	69	14796
2026-01-02 23:27:45.24	96.97	7.48	-48.9	-61.2	3.8	8.47e-01	0	40	104	0	69	14810
2026-01-02 23:27:46.25	97.13	7.46	-48.9	-61.2	3.8	8.48e-01	0	40	104	0	69	14797
2026-01-02 23:27:47.25	97.28	7.43	-48.9	-61.2	3.8	8.48e-01	0	40	104	0	69	14768
2026-01-02 23:27:48.26	97.44	7.41	-48.9	-61.2	3.8	8.46e-01	0	40	104	0	69	14772
2026-01-02 23:27:49.26	97.60	7.38	-48.9	-61.1	3.8	8.47e-01	0	40	104	0	69	14693
2026-01-02 23:27:50.27	97.76	7.36	-48.9	-61.2	3.8	8.47e-01	0	40	104	0	69	14783
2026-01-02 23:27:51.27	97.91	7.34	-48.9	-61.2	3.8	8.48e-01	0	40	104	0	69	14779
2026-01-02 23:27:52.28	98.07	7.31	-48.9	-61.2	3.8	8.47e-01	0	40	104	0	69	14781
2026-01-02 23:27:53.28	98.23	7.29	-48.9	-61.2	3.8	8.47e-01	0	40	104	0	69	14796
2026-01-02 23:27:54.28	98.38	7.26	-48.9	-61.2	3.8	8.47e-01	0	40	104	0	69	14758
2026-01-02 23:27:55.29	98.54	7.24	-48.9	-61.2	3.8	8.46e-01	0	40	104	0	69	14826
2026-01-02 23:27:56.29	98.70	7.21	-48.9	-61.2	3.8	8.46e-01	0	40	104	0	69	14761
2026-01-02 23:27:57.29	98.85	7.19	-48.9	-61.2	3.8	8.47e-01	0	40	104	0	69	14766
2026-01-02 23:27:58.30	99.01	7.16	-48.9	-61.2	3.8	8.48e-01	0	40	104	0	69	14748
2026-01-02 23:27:59.30	99.16	7.14	-48.9	-61.2	3.8	8.46e-01	0	40	104	0	69	14788
2026-01-02 23:28:00.31	99.32	7.11	-48.9	-61.2	3.8	8.47e-01	0	40	104	0	69	14789
2026-01-02 23:28:01.31	99.47	7.09	-48.9	-61.2	3.8	8.47e-01	0	40	104	0	69	14765
2026-01-02 23:28:02.32	99.63	7.06	-48.9	-61.2	3.8	8.47e-01	0	40	104	0	69	14791
2026-01-02 23:28:03.32	99.78	7.03	-48.9	-61.2	3.8	8.47e-01	0	40	104	0	69	14750
2026-01-02 23:28:04.33	99.94	7.01	-48.9	-61.2	3.8	8.48e-01	0	40	104	0	69	14769
2026-01-02 23:28:05.33	100.09	6.98	-48.9	-61.2	3.8	8.47e-01	0	40	104	0	69	14812
2026-01-02 23:28:06.33	100.24	6.96	-48.9	-61.2	3.8	8.46e-01	0	40	104	0	69	14784
2026-01-02 23:28:07.34	100.40	6.93	-48.9	-61.2	3.8	8.47e-01	0	40	104	0	69	14750
2026-01-02 23:28:08.34	100.55	6.90	-48.9	-61.2	3.8	8.47e-01	0	40	104	0	69	14809
2026-01-02 23:28:09.35	100.70	6.88	-48.9	-61.2	3.8	8.47e-01	0	40	104	0	69	14802
2026-01-02 23:28:10.35	100.85	6.85	-48.9	-61.2	3.8	8.47e-01	0	40	104	0	69	14780
2026-01-02 23:28:11.35	101.01	6.82	-48.9	-61.2	3.8	8.45e-01	0	40	104	0	69	14760
2026-01-02 23:28:12.36	101.16	6.79	-48.9	-61.2	3.8	8.47e-01	0	40	104	0	69	14831
2026-01-02 23:28:13.36	101.31	6.77	-48.9	-61.2	3.8	8.46e-01	0	40	104	0	69	14766
2026-01-02 23:28:14.36	101.46	6.74	-48.9	-61.2	3.8	8.47e-01	0	40	104	0	69	14813
2026-01-02 23:28:15.37	101.61	6.71	-48.9	-61.2	3.8	8.47e-01	0	40	104	0	69	14812
2026-01-02 23:28:16.38	101.76	6.68	-48.9	-61.2	3.8	8.47e-01	0	40	104	0	69	14789
2026-01-02 23:28:17.38	101.91	6.66	-48.9	-61.2	3.8	8.47e-01	0	40	104	0	69	14807
2026-01-02 23:28:18.38	102.06	6.63	-48.9	-61.2	3.8	8.47e-01	0	40	104	0	69	14761
2026-01-02 23:28:19.39	102.21	6.60	-48.9	-61.2	3.8	8.47e-01	0	40	104	0	69	14776
2026-01-02 23:28:20.39	102.36	6.57	-48.9	-61.2	3.8	8.47e-01	0	40	104	0	69	14789
2026-01-02 23:28:21.39	102.51	6.54	-48.9	-61.2	3.8	8.46e-01	0	40	104	0	69	14771
2026-01-02 23:28:22.40	102.66	6.51	-48.9	-61.2	3.8	8.47e-01	0	40	104	0	69	14737
2026-01-02 23:28:23.40	102.81	6.49	-48.9	-61.2	3.8	8.48e-01	0	40	104	0	69	14784
2026-01-02 23:28:24.41	102.96	6.46	-48.9	-61.2	3.8	8.47e-01	0	40	104	0	69	14761
2026-01-02 23:28:25.41	103.11	6.43	-48.9	-61.2	3.8	8.46e-01	0	40	104	0	69	14752
2026-01-02 23:28:26.42	103.25	6.40	-48.9	-61.2	3.8	8.47e-01	0	40	104	0	69	14817
2026-01-02 23:28:27.42	103.40	6.37	-48.9	-61.2	3.8	8.47e-01	0	40	104	0	69	14776
2026-01-02 23:28:28.43	103.55	6.34	-48.9	-61.2	3.8	8.47e-01	0	40	104	0	69	14773
2026-01-02 23:28:29.43	103.70	6.31	-48.9	-61.2	3.8	8.46e-01	0	40	104	0	69	14785
2026-01-02 23:28:30.44	103.84	6.28	-48.9	-61.2	3.8	8.47e-01	0	40	104	0	69	14850
2026-01-02 23:28:31.44	103.99	6.25	-48.9	-61.2	3.8	8.46e-01	0	40	104	0	69	14738
2026-01-02 23:28:32.44	104.13	6.22	-48.9	-61.2	3.8	8.46e-01	0	40	104	0	69	14791
2026-01-02 23:28:33.45	104.28	6.19	-48.9	-61.2	3.8	8.48e-01	0	40	104	0	69	14789
2026-01-02 23:28:34.45	104.43	6.16	-48.9	-61.2	3.8	8.46e-01	0	40	104	0	69	14786
2026-01-02 23:28:35.46	104.57	6.13	-48.9	-61.2	3.8	8.47e-01	0	40	104	0	69	14784
2026-01-02 23:28:36.46	104.72	6.10	-48.9	-61.2	3.8	8.47e-01	0	40	104	0	69	14766
2026-01-02 23:28:37.47	104.86	6.07	-48.9	-61.2	3.8	8.47e-01	0	40	104	0	69	14767
2026-01-02 23:28:38.47	105.01	6.04	-48.9	-61.2	3.8	8.46e-01	0	40	104	0	69	14834
2026-01-02 23:28:39.47	105.15	6.01	-48.9	-61.2	3.8	8.48e-01	0	40	104	0	69	14778
2026-01-02 23:28:40.48	105.29	5.98	-48.9	-61.2	3.8	8.46e-01	0	40	104	0	69	14805
2026-01-02 23:28:41.48	105.44	5.95	-48.9	-61.2	3.8	8.48e-01	0	40	104	0	69	14773
2026-01-02 23:28:42.49	105.58	5.91	-48.9	-61.2	3.8	8.47e-01	0	40	104	0	69	14808
2026-01-02 23:28:43.49	105.72	5.88	-48.9	-61.2	3.8	8.46e-01	0	40	104	0	69	14754
2026-01-02 23:28:44.49	105.87	5.85	-48.9	-61.2	3.8	8.47e-01	0	40	104	0	69	14800
2026-01-02 23:28:45.50	106.01	5.82	-48.9	-61.2	3.8	8.46e-01	0	40	104	0	69	14805
2026-01-02 23:28:46.50	106.15	5.79	-48.9	-61.2	3.8	8.47e-01	0	40	104	0	69	14776
2026-01-02 23:28:47.51	106.29	5.76	-48.9	-61.2	3.8	8.47e-01	0	40	104	0	69	14811
2026-01-02 23:28:48.51	106.43	5.73	-48.9	-61.2	3.8	8.48e-01	0	40	104	0	69	14797
2026-01-02 23:28:49.52	106.58	5.69	-48.9	-61.2	3.8	8.47e-01	0	40	104	0	69	14841
2026-01-02 23:28:50.52	106.72	5.66	-48.9	-61.2	3.8	8.46e-01	0	40	104	0	69	14819
2026-01-02 23:28:51.52	106.86	5.63	-48.9	-61.2	3.8	8.46e-01	0	40	104	0	69	14724
2026-01-02 23:28:52.53	107.00	5.60	-48.9	-61.2	3.8	8.47e-01	0	40	104	0	69	14755
2026-01-02 23:28:53.53	107.14	5.56	-48.9	-61.2	3.8	8.47e-01	0	40	104	0	69	14781
2026-01-02 23:28:54.54	107.28	5.53	-48.9	-61.2	3.8	8.48e-01	0	40	104	0	69	14792
2026-01-02 23:28:55.54	107.42	5.50	-48.9	-61.2	3.8	8.46e-01	0	40	104	0	69	14786
2026-01-02 23:28:56.54	107.55	5.47	-48.9	-61.2	3.8	8.48e-01	0	40	104	0	69	14858
2026-01-02 23:28:57.55	107.69	5.43	-48.9	-61.2	3.8	8.47e-01	0	40	104	0	69	14804
2026-01-02 23:28:58.55	107.83	5.40	-48.9	-61.2	3.8	8.46e-01	0	40	104	0	69	14797
2026-01-02 23:28:59.56	107.97	5.37	-48.9	-61.2	3.8	8.48e-01	0	40	104	0	69	14751
2026-01-02 23:29:00.56	108.11	5.34	-48.9	-61.2	3.8	8.47e-01	0	40	104	0	69	14766
2026-01-02 23:29:01.57	108.25	5.30	-48.9	-61.2	3.8	8.47e-01	0	40	104	0	69	14815
2026-01-02 23:29:02.57	108.38	5.27	-48.9	-61.2	3.8	8.47e-01	0	40	104	0	69	14770
2026-01-02 23:29:03.57	108.52	5.24	-48.9	-61.2	3.8	8.46e-01	0	40	104	0	69	14819
2026-01-02 23:29:04.58	108.66	5.20	-48.9	-61.2	3.8	8.47e-01	0	40	104	0	69	14747
2026-01-02 23:29:05.58	108.79	5.17	-48.9	-61.2	3.8	8.47e-01	0	40	104	0	69	14765
2026-01-02 23:29:06.59	108.93	5.14	-48.9	-61.2	3.8	8.47e-01	0	40	104	0	69	14782
2026-01-02 23:29:07.59	109.06	5.10	-48.9	-61.2	3.8	8.47e-01	0	40	104	0	69	14763
2026-01-02 23:29:08.59	109.20	5.07	-48.9	-61.2	3.8	8.47e-01	0	40	104	0	69	14800
2026-01-02 23:29:09.60	109.34	5.04	-48.9	-61.2	3.8	8.47e-01	0	40	104	0	69	14809
2026-01-02 23:29:10.60	109.47	5.00	-48.9	-61.2	3.8	8.46e-01	0	40	104	0	69	14826

#Closed at: 2026-01-02 23:29:11
#Recorded file [0 MB]: D:/Data/31040_260103_022232.dat