passes_logs/2026/01/02/T1/T1__20260102_143805_FENGYUN_3E_rec.log

#Pass ID: 20260102_143805_FENGYUN 3E
#Satellite: FENGYUN 3E
#Configuration: FENGYUN 3E
#almurnet v.1.7.20251203
#Start time: 2026-01-02 14:38:06

#Version: 2.0.20230620
#Station: T1
#Location: 37.570604 lon 55.790049 lat
#TLE: 1 49008U 21062A   26001.96913326  .00000001  00000+0  21174-4 0  9999
#TLE: 2 49008  98.7479   7.2511 0001416 166.5636 193.5578 14.19883387232993

#Time	Az	El	Level	Level2	SNR	BER	BlckErr	Temp	State	Recorded	gain1	gain2
2026-01-02 14:38:06.92	173.79	5.08	-48.5	-59.7	3.8	8.47e-01	0	38	0	0	66	13732
2026-01-02 14:38:07.92	173.81	5.15	-44.6	-59.4	3.8	8.47e-01	0	38	104	0	58	21151
2026-01-02 14:38:08.92	173.84	5.22	-44.8	-59.3	3.8	8.48e-01	0	38	104	0	59	19743
2026-01-02 14:38:09.93	173.86	5.29	-44.5	-59.2	3.8	8.46e-01	0	38	104	0	59	19595
2026-01-02 14:38:10.93	173.89	5.36	-44.5	-59.1	3.8	8.47e-01	0	38	104	0	59	19324
2026-01-02 14:38:11.93	173.92	5.43	-44.4	-59.0	3.8	8.47e-01	0	38	104	0	59	19048
2026-01-02 14:38:12.94	173.94	5.51	-44.5	-58.7	3.8	8.47e-01	0	38	104	0	59	18382
2026-01-02 14:38:13.94	173.97	5.58	-44.5	-58.4	3.8	8.46e-01	0	38	104	0	59	17775
2026-01-02 14:38:14.95	173.99	5.65	-44.4	-58.1	3.8	8.45e-01	0	38	104	0	59	17096
2026-01-02 14:38:15.95	174.02	5.73	-44.4	-57.7	3.8	8.47e-01	0	38	104	0	59	16327
2026-01-02 14:38:16.95	174.05	5.80	-44.3	-57.2	3.9	8.46e-01	0	38	104	0	59	15485
2026-01-02 14:38:17.96	174.07	5.87	-44.3	-57.0	3.8	8.45e-01	0	38	104	0	59	15074
2026-01-02 14:38:18.97	174.10	5.95	-44.3	-56.8	3.8	8.44e-01	0	38	104	0	59	14845
2026-01-02 14:38:19.97	174.13	6.02	-44.3	-56.5	4.0	8.44e-01	0	38	104	0	59	14368
2026-01-02 14:38:20.97	174.15	6.09	-44.3	-56.5	4.0	8.42e-01	0	38	0	0	59	14341
2026-01-02 14:38:21.98	174.18	6.17	-44.3	-56.5	4.0	8.43e-01	0	38	104	0	59	14304
2026-01-02 14:38:22.98	174.21	6.24	-44.3	-56.7	4.0	8.46e-01	0	39	104	0	59	14665
2026-01-02 14:38:23.99	174.24	6.32	-44.4	-57.0	4.0	8.43e-01	0	39	104	0	59	15188
2026-01-02 14:38:24.99	174.26	6.39	-44.3	-57.5	3.8	8.46e-01	0	39	104	0	59	16120
2026-01-02 14:38:25.99	174.29	6.47	-44.5	-58.0	3.8	8.46e-01	0	39	104	0	59	16995
2026-01-02 14:38:27.00	174.32	6.54	-44.4	-58.4	3.8	8.47e-01	0	39	104	0	59	17716
2026-01-02 14:38:28.00	174.35	6.62	-44.4	-58.7	3.8	8.48e-01	0	39	104	0	59	18466
2026-01-02 14:38:29.01	174.37	6.69	-44.3	-59.0	3.8	8.46e-01	0	39	104	0	59	18956
2026-01-02 14:38:30.01	174.40	6.77	-44.5	-58.9	3.8	8.47e-01	0	39	104	0	59	18804
2026-01-02 14:38:31.02	174.43	6.85	-44.4	-58.7	3.8	8.47e-01	0	39	104	0	59	18467
2026-01-02 14:38:32.02	174.46	6.92	-44.3	-57.8	3.8	8.46e-01	0	39	104	0	59	16612
2026-01-02 14:38:33.03	174.49	7.00	-44.2	-57.1	3.8	8.44e-01	0	39	104	0	59	15338
2026-01-02 14:38:34.03	174.52	7.07	-44.2	-55.7	4.2	8.38e-01	0	39	0	0	59	12976
2026-01-02 14:38:35.03	174.55	7.15	-44.1	-53.9	4.9	7.97e-01	0	39	0	0	58	11282
2026-01-02 14:38:36.04	174.57	7.23	-43.8	-52.0	6.2	5.11e-01	0	39	0	2097152	58	9065
2026-01-02 14:38:37.04	174.60	7.31	-43.4	-50.5	7.5	1.18e-01	0	39	0	9437184	57	8079
2026-01-02 14:38:38.05	174.63	7.38	-42.9	-48.9	9.1	3.91e-02	0	39	0	16777216	56	7104
2026-01-02 14:38:39.05	174.66	7.46	-42.3	-47.6	10.4	6.48e-03	0	39	0	24117248	55	6425
2026-01-02 14:38:40.06	174.69	7.54	-41.8	-46.3	11.7	1.01e-03	0	39	0	31457280	54	5886
2026-01-02 14:38:41.06	174.72	7.62	-41.2	-45.1	12.9	1.32e-04	0	39	0	38797312	53	5457
2026-01-02 14:38:42.07	174.75	7.70	-40.7	-44.2	13.9	1.02e-05	0	39	0	46137344	52	5183
2026-01-02 14:38:43.07	174.78	7.78	-40.4	-43.6	14.5	1.10e-06	0	39	0	53477376	51	5118
2026-01-02 14:38:44.07	174.81	7.86	-39.9	-42.8	15.3	0.00e+00	0	39	0	60817408	50	4944
2026-01-02 14:38:45.08	174.84	7.94	-39.6	-42.4	15.8	0.00e+00	0	39	0	68157440	50	4711
2026-01-02 14:38:46.08	174.87	8.01	-39.5	-42.2	15.8	0.00e+00	0	39	0	75497472	49	4918
2026-01-02 14:38:47.08	174.90	8.09	-39.6	-42.3	15.8	0.00e+00	0	39	0	81788928	49	4973
2026-01-02 14:38:48.09	174.93	8.17	-39.6	-42.4	15.7	0.00e+00	0	39	0	89128960	49	4995
2026-01-02 14:38:49.09	174.96	8.25	-39.8	-42.6	15.5	0.00e+00	0	39	0	96468992	49	5122
2026-01-02 14:38:50.10	175.00	8.34	-40.1	-43.1	15.0	0.00e+00	0	39	0	103809024	49	5439
2026-01-02 14:38:51.10	175.03	8.42	-40.6	-44.0	14.2	1.10e-06	0	39	0	111149056	50	5689
2026-01-02 14:38:52.11	175.06	8.50	-40.9	-44.6	13.6	3.40e-06	0	39	0	118489088	51	5753
2026-01-02 14:38:53.11	175.09	8.58	-41.4	-45.4	12.6	9.26e-05	0	40	0	125829120	52	5991
2026-01-02 14:38:54.11	175.12	8.66	-42.0	-46.8	11.2	7.51e-04	0	39	0	133169152	53	6605
2026-01-02 14:38:55.12	175.15	8.74	-42.4	-47.7	10.2	5.35e-03	0	39	0	140509184	54	6936
2026-01-02 14:38:56.12	175.19	8.82	-43.0	-49.4	8.5	3.53e-02	0	40	0	147849216	55	7990
2026-01-02 14:38:57.13	175.22	8.91	-43.5	-51.3	6.9	1.27e-01	0	40	0	155189248	56	9359
2026-01-02 14:38:58.13	175.25	8.99	-43.7	-52.8	5.7	4.06e-01	0	40	0	161480704	56	11148
2026-01-02 14:38:59.14	175.28	9.07	-43.9	-54.5	4.6	7.89e-01	0	39	0	162529280	57	12750
2026-01-02 14:39:00.14	175.31	9.16	-41.6	-45.1	13.1	1.94e-05	0	40	0	168820736	53	5408
2026-01-02 14:39:01.14	175.35	9.24	-42.2	-45.8	12.3	8.58e-05	0	40	0	176160768	53	5914
2026-01-02 14:39:02.15	175.38	9.32	-44.4	-58.5	3.8	8.45e-01	0	39	104	178257920	58	19143
2026-01-02 14:39:03.15	175.41	9.41	-43.7	-48.8	9.4	2.01e-02	0	39	0	181403648	58	6241
2026-01-02 14:39:04.15	175.45	9.49	-41.3	-43.9	14.3	1.10e-06	0	40	0	188743680	53	4707
2026-01-02 14:39:05.16	175.48	9.58	-41.1	-43.6	14.5	0.00e+00	0	39	0	196083712	52	4863
2026-01-02 14:39:06.16	175.51	9.66	-40.8	-43.2	15.1	0.00e+00	0	40	0	203423744	51	4899
2026-01-02 14:39:07.17	175.55	9.75	-40.1	-42.4	15.8	0.00e+00	0	40	0	210763776	50	4742
2026-01-02 14:39:08.17	175.58	9.83	-39.9	-42.2	16.0	0.00e+00	0	40	0	218103808	50	4628
2026-01-02 14:39:09.17	175.62	9.92	-39.4	-41.6	16.5	0.00e+00	0	40	0	225443840	49	4598
2026-01-02 14:39:10.18	175.65	10.00	-39.1	-41.4	16.8	0.00e+00	0	40	0	232783872	49	4446
2026-01-02 14:39:11.18	175.69	10.09	-39.1	-41.3	16.9	0.00e+00	0	39	0	240123904	48	4682
2026-01-02 14:39:12.18	175.72	10.18	-39.0	-41.2	16.9	0.00e+00	0	40	0	247463936	48	4644
2026-01-02 14:39:13.19	175.76	10.26	-38.6	-40.9	17.1	0.00e+00	0	40	0	254803968	47	4716
2026-01-02 14:39:14.19	175.79	10.35	-38.0	-40.1	17.9	0.00e+00	0	40	0	262144000	46	4552
2026-01-02 14:39:15.19	175.83	10.44	-37.9	-40.0	17.9	0.00e+00	0	40	0	268435456	46	4497
2026-01-02 14:39:16.19	175.86	10.52	-37.8	-39.8	18.1	0.00e+00	0	40	0	275775488	45	4658
2026-01-02 14:39:17.19	175.90	10.61	-37.6	-39.5	18.4	0.00e+00	0	40	0	283115520	45	4514
2026-01-02 14:39:18.20	175.93	10.70	-37.5	-39.4	18.5	0.00e+00	0	40	0	290455552	45	4448
2026-01-02 14:39:19.20	175.97	10.79	-37.2	-39.1	18.8	0.00e+00	0	40	0	297795584	45	4299
2026-01-02 14:39:20.20	176.01	10.88	-37.1	-38.8	19.0	0.00e+00	0	40	0	305135616	45	4178
2026-01-02 14:39:21.21	176.04	10.97	-37.1	-38.8	19.0	0.00e+00	0	40	0	312475648	44	4397
2026-01-02 14:39:22.21	176.08	11.06	-37.1	-38.8	19.0	0.00e+00	0	40	0	319815680	44	4417
2026-01-02 14:39:23.21	176.12	11.15	-37.1	-38.7	19.1	0.00e+00	0	40	0	326107136	44	4354
2026-01-02 14:39:24.21	176.15	11.24	-37.1	-38.7	19.1	0.00e+00	0	40	0	333447168	44	4369
2026-01-02 14:39:25.22	176.19	11.33	-37.1	-38.6	19.2	0.00e+00	0	40	0	340787200	44	4330
2026-01-02 14:39:26.22	176.23	11.42	-37.1	-38.6	19.2	0.00e+00	0	40	0	348127232	44	4329
2026-01-02 14:39:27.22	176.27	11.51	-37.0	-38.5	19.3	0.00e+00	0	40	0	355467264	44	4252
2026-01-02 14:39:28.22	176.30	11.60	-37.0	-38.5	19.3	0.00e+00	0	40	0	362807296	44	4259
2026-01-02 14:39:29.23	176.34	11.69	-37.0	-38.5	19.3	0.00e+00	0	40	0	370147328	44	4250
2026-01-02 14:39:30.23	176.38	11.79	-36.8	-38.3	19.5	0.00e+00	0	40	0	377487360	44	4159
2026-01-02 14:39:31.23	176.42	11.88	-36.8	-38.2	19.6	0.00e+00	0	40	0	384827392	44	4127
2026-01-02 14:39:32.23	176.46	11.97	-36.9	-38.3	19.5	0.00e+00	0	40	0	392167424	44	4166
2026-01-02 14:39:33.23	176.50	12.06	-36.7	-38.2	19.6	0.00e+00	0	40	0	399507456	44	4100
2026-01-02 14:39:34.24	176.54	12.16	-36.8	-38.2	19.6	0.00e+00	0	40	0	406847488	44	4122
2026-01-02 14:39:35.24	176.58	12.25	-36.9	-38.3	19.5	0.00e+00	0	40	0	413138944	44	4159
2026-01-02 14:39:36.24	176.62	12.35	-36.7	-38.1	19.7	0.00e+00	0	40	0	420478976	44	4071
2026-01-02 14:39:37.25	176.66	12.44	-36.6	-38.0	19.8	0.00e+00	0	40	0	427819008	44	4048
2026-01-02 14:39:38.25	176.70	12.54	-36.4	-37.8	19.9	0.00e+00	0	40	0	435159040	43	4165
2026-01-02 14:39:39.25	176.74	12.63	-36.4	-37.8	19.9	0.00e+00	0	40	0	442499072	43	4177
2026-01-02 14:39:40.26	176.78	12.73	-36.4	-37.8	19.9	0.00e+00	0	40	0	449839104	43	4156
2026-01-02 14:39:41.26	176.82	12.82	-36.4	-37.8	19.8	0.00e+00	0	40	0	457179136	43	4185
2026-01-02 14:39:42.26	176.86	12.92	-36.4	-37.8	19.9	0.00e+00	0	40	0	464519168	43	4176
2026-01-02 14:39:43.26	176.90	13.02	-36.6	-38.0	19.7	0.00e+00	0	40	0	470810624	43	4256
2026-01-02 14:39:44.26	176.94	13.11	-36.4	-37.8	19.9	0.00e+00	0	40	0	478150656	43	4167
2026-01-02 14:39:45.27	176.99	13.21	-36.2	-37.6	20.1	0.00e+00	0	40	0	486539264	43	4068
2026-01-02 14:39:46.28	177.03	13.31	-36.2	-37.6	20.1	0.00e+00	0	40	0	492830720	43	4055
2026-01-02 14:39:47.28	177.07	13.41	-36.1	-37.5	20.2	0.00e+00	0	40	0	500170752	42	4248
2026-01-02 14:39:48.28	177.11	13.51	-36.1	-37.5	20.1	0.00e+00	0	40	0	507510784	42	4266
2026-01-02 14:39:49.28	177.16	13.61	-36.1	-37.5	20.2	0.00e+00	0	40	0	514850816	42	4247
2026-01-02 14:39:50.29	177.20	13.71	-36.1	-37.5	20.1	0.00e+00	0	40	0	522190848	42	4253
2026-01-02 14:39:51.29	177.24	13.81	-36.0	-37.4	20.2	0.00e+00	0	40	0	529530880	42	4213
2026-01-02 14:39:52.30	177.29	13.91	-35.9	-37.3	20.3	0.00e+00	0	40	0	536870912	42	4170
2026-01-02 14:39:53.30	177.33	14.01	-36.1	-37.4	20.2	0.00e+00	0	40	0	544210944	42	4230
2026-01-02 14:39:54.30	177.38	14.11	-36.0	-37.4	20.2	0.00e+00	0	40	0	551550976	42	4232
2026-01-02 14:39:55.31	177.42	14.21	-36.0	-37.4	20.3	0.00e+00	0	40	0	557842432	42	4197
2026-01-02 14:39:56.31	177.47	14.31	-35.9	-37.3	20.3	0.00e+00	0	40	0	565182464	42	4170
2026-01-02 14:39:57.31	177.51	14.41	-35.9	-37.3	20.3	0.00e+00	0	40	0	572522496	42	4189
2026-01-02 14:39:58.32	177.56	14.52	-35.9	-37.3	20.3	0.00e+00	0	40	0	579862528	42	4190
2026-01-02 14:39:59.32	177.60	14.62	-36.0	-37.4	20.2	0.00e+00	0	40	0	587202560	42	4219
2026-01-02 14:40:00.33	177.65	14.72	-35.9	-37.3	20.3	0.00e+00	0	40	0	594542592	42	4154
2026-01-02 14:40:01.33	177.70	14.83	-35.9	-37.2	20.3	0.00e+00	0	40	0	601882624	42	4140
2026-01-02 14:40:02.33	177.74	14.93	-35.8	-37.2	20.3	0.00e+00	0	40	0	609222656	42	4132
2026-01-02 14:40:03.34	177.79	15.04	-35.9	-37.3	20.3	0.00e+00	0	40	0	616562688	42	4169
2026-01-02 14:40:04.34	177.84	15.14	-35.8	-37.2	20.4	0.00e+00	0	40	0	623902720	42	4103
2026-01-02 14:40:05.34	177.88	15.25	-35.8	-37.2	20.3	0.00e+00	0	40	0	631242752	42	4129
2026-01-02 14:40:06.35	177.93	15.36	-35.8	-37.3	20.3	0.00e+00	0	40	0	638582784	42	4154
2026-01-02 14:40:07.35	177.98	15.46	-35.9	-37.3	20.3	0.00e+00	0	40	0	644874240	42	4169
2026-01-02 14:40:08.35	178.03	15.57	-35.8	-37.2	20.3	0.00e+00	0	40	0	652214272	42	4144
2026-01-02 14:40:09.36	178.08	15.68	-35.7	-37.2	20.4	0.00e+00	0	40	0	659554304	42	4101
2026-01-02 14:40:10.37	178.13	15.79	-35.8	-37.2	20.3	0.00e+00	0	40	0	666894336	42	4128
2026-01-02 14:40:11.36	178.18	15.89	-35.8	-37.3	20.2	0.00e+00	0	40	0	674234368	42	4154
2026-01-02 14:40:12.37	178.23	16.00	-35.8	-37.3	20.2	0.00e+00	0	40	0	681574400	42	4155
2026-01-02 14:40:13.37	178.28	16.11	-35.8	-37.3	20.2	0.00e+00	0	40	0	688914432	42	4170
2026-01-02 14:40:14.37	178.33	16.22	-35.9	-37.4	20.1	0.00e+00	0	40	0	696254464	42	4207
2026-01-02 14:40:15.38	178.38	16.33	-35.7	-37.2	20.3	0.00e+00	0	40	0	703594496	42	4132
2026-01-02 14:40:16.38	178.43	16.44	-35.7	-37.2	20.3	0.00e+00	0	40	0	710934528	42	4135
2026-01-02 14:40:17.38	178.48	16.56	-35.7	-37.2	20.3	0.00e+00	0	40	0	718274560	42	4117
2026-01-02 14:40:18.39	178.54	16.67	-35.7	-37.2	20.2	0.00e+00	0	40	0	724566016	42	4142
2026-01-02 14:40:19.39	178.59	16.78	-35.7	-37.2	20.3	0.00e+00	0	40	0	731906048	42	4107
2026-01-02 14:40:20.39	178.64	16.89	-35.7	-37.2	20.2	0.00e+00	0	40	0	739246080	41	4357
2026-01-02 14:40:21.40	178.70	17.01	-35.6	-37.1	20.3	0.00e+00	0	40	0	746586112	41	4328
2026-01-02 14:40:22.40	178.75	17.12	-35.7	-37.2	20.2	0.00e+00	0	40	0	753926144	41	4364
2026-01-02 14:40:23.40	178.80	17.23	-35.6	-37.1	20.4	0.00e+00	0	40	0	761266176	41	4301
2026-01-02 14:40:24.41	178.86	17.35	-35.6	-37.0	20.4	0.00e+00	0	40	0	768606208	41	4288
2026-01-02 14:40:25.41	178.91	17.47	-35.5	-37.0	20.4	0.00e+00	0	40	0	775946240	41	4245
2026-01-02 14:40:26.41	178.97	17.58	-35.6	-37.1	20.3	0.00e+00	0	40	0	783286272	41	4298
2026-01-02 14:40:27.42	179.02	17.70	-35.4	-36.9	20.5	0.00e+00	0	40	0	789577728	41	4202
2026-01-02 14:40:28.42	179.08	17.81	-35.4	-36.9	20.5	0.00e+00	0	40	0	797966336	41	4216
2026-01-02 14:40:29.42	179.14	17.93	-35.4	-36.9	20.4	0.00e+00	0	40	0	805306368	41	4206
2026-01-02 14:40:30.42	179.19	18.05	-35.3	-36.8	20.6	0.00e+00	0	40	0	811597824	41	4155
2026-01-02 14:40:31.43	179.25	18.17	-35.2	-36.7	20.7	0.00e+00	0	40	0	818937856	41	4100
2026-01-02 14:40:32.43	179.31	18.29	-35.1	-36.5	20.8	0.00e+00	0	40	0	826277888	41	4044
2026-01-02 14:40:33.43	179.37	18.41	-35.2	-36.6	20.8	0.00e+00	0	40	0	833617920	40	4308
2026-01-02 14:40:34.44	179.42	18.53	-35.1	-36.5	20.8	0.00e+00	0	40	0	840957952	40	4243
2026-01-02 14:40:35.44	179.48	18.65	-35.0	-36.4	20.9	0.00e+00	0	40	0	848297984	40	4215
2026-01-02 14:40:36.44	179.54	18.77	-34.9	-36.3	21.0	0.00e+00	0	40	0	855638016	40	4177
2026-01-02 14:40:37.45	179.60	18.89	-34.8	-36.2	21.1	0.00e+00	0	40	0	862978048	40	4115
2026-01-02 14:40:38.45	179.66	19.02	-34.9	-36.2	21.1	0.00e+00	0	40	0	870318080	40	4142
2026-01-02 14:40:39.45	179.72	19.14	-34.8	-36.1	21.1	0.00e+00	0	40	0	876609536	40	4098
2026-01-02 14:40:40.46	179.79	19.26	-34.8	-36.2	21.1	0.00e+00	0	40	0	883949568	40	4117
2026-01-02 14:40:41.46	179.85	19.39	-34.8	-36.1	21.2	0.00e+00	0	40	0	891289600	39	4327
2026-01-02 14:40:42.46	179.91	19.51	-34.7	-36.1	21.3	0.00e+00	0	40	0	898629632	39	4296
2026-01-02 14:40:43.47	179.97	19.64	-34.6	-36.0	21.4	0.00e+00	0	40	0	905969664	39	4245
2026-01-02 14:40:44.47	180.04	19.76	-34.6	-36.0	21.3	0.00e+00	0	40	0	913309696	39	4251
2026-01-02 14:40:45.47	180.10	19.89	-34.6	-36.0	21.3	0.00e+00	0	40	0	920649728	39	4251
2026-01-02 14:40:46.48	180.16	20.02	-34.8	-36.2	21.2	0.00e+00	0	40	0	927989760	39	4346
2026-01-02 14:40:47.48	180.23	20.15	-34.7	-36.1	21.2	0.00e+00	0	40	0	935329792	39	4304
2026-01-02 14:40:48.48	180.29	20.27	-34.8	-36.2	21.2	0.00e+00	0	40	0	942669824	39	4343
2026-01-02 14:40:49.49	180.36	20.41	-34.7	-36.1	21.1	0.00e+00	0	40	0	950009856	39	4330
2026-01-02 14:40:50.49	180.43	20.53	-34.8	-36.2	21.2	0.00e+00	0	40	0	956301312	39	4355
2026-01-02 14:40:51.49	180.49	20.66	-34.7	-36.1	21.2	0.00e+00	0	40	0	963641344	39	4322
2026-01-02 14:40:52.49	180.56	20.80	-34.8	-36.2	21.1	0.00e+00	0	40	0	970981376	39	4380
2026-01-02 14:40:53.49	180.63	20.93	-34.9	-36.3	21.0	0.00e+00	0	40	0	978321408	39	4423
2026-01-02 14:40:54.50	180.70	21.06	-34.9	-36.3	21.0	0.00e+00	0	40	0	985661440	39	4415
2026-01-02 14:40:55.50	180.77	21.19	-34.9	-36.4	21.0	0.00e+00	0	40	0	993001472	39	4452
2026-01-02 14:40:56.50	180.84	21.33	-34.8	-36.2	21.1	0.00e+00	0	40	0	1000341504	39	4374
2026-01-02 14:40:57.51	180.91	21.46	-35.0	-36.4	20.9	0.00e+00	0	40	0	1007681536	39	4493
2026-01-02 14:40:58.51	180.98	21.60	-35.0	-36.5	20.9	0.00e+00	0	40	0	1015021568	39	4505
2026-01-02 14:40:59.51	181.05	21.73	-35.0	-36.4	20.9	0.00e+00	0	40	0	1021313024	39	4478
2026-01-02 14:41:00.52	181.12	21.87	-35.0	-36.4	20.9	0.00e+00	0	40	0	1028653056	39	4472
2026-01-02 14:41:01.52	181.19	22.01	-35.2	-36.7	20.6	0.00e+00	0	40	0	1037041664	39	4624
2026-01-02 14:41:02.52	181.27	22.14	-34.9	-36.3	21.0	0.00e+00	0	40	0	1043333120	39	4439
2026-01-02 14:41:03.53	181.34	22.28	-34.9	-36.4	21.0	0.00e+00	0	40	0	1050673152	39	4444
2026-01-02 14:41:04.53	181.41	22.42	-34.8	-36.2	21.1	0.00e+00	0	40	0	1058013184	39	4382
2026-01-02 14:41:05.53	181.49	22.56	-34.8	-36.2	21.2	0.00e+00	0	40	0	1065353216	39	4358
2026-01-02 14:41:06.54	181.57	22.71	-34.6	-36.0	21.3	0.00e+00	0	40	0	1072693248	39	4259
2026-01-02 14:41:07.54	181.64	22.85	-34.5	-35.9	21.4	0.00e+00	0	40	0	1080033280	39	4209
2026-01-02 14:41:08.54	181.72	22.99	-34.6	-35.9	21.4	0.00e+00	0	40	0	1087373312	39	4235
2026-01-02 14:41:09.55	181.80	23.13	-34.5	-35.8	21.5	0.00e+00	0	40	0	1094713344	39	4191
2026-01-02 14:41:10.55	181.87	23.28	-34.6	-35.9	21.5	0.00e+00	0	40	0	1101004800	39	4211
2026-01-02 14:41:11.55	181.95	23.42	-34.5	-35.8	21.5	0.00e+00	0	40	0	1108344832	39	4187
2026-01-02 14:41:12.56	182.03	23.57	-34.3	-35.6	21.7	0.00e+00	0	40	0	1115684864	39	4083
2026-01-02 14:41:13.56	182.11	23.71	-34.5	-35.8	21.6	0.00e+00	0	40	0	1123024896	39	4157
2026-01-02 14:41:14.56	182.20	23.86	-34.3	-35.6	21.8	0.00e+00	0	40	0	1130364928	39	4064
2026-01-02 14:41:15.56	182.28	24.01	-34.3	-35.6	21.7	0.00e+00	0	40	0	1137704960	39	4064
2026-01-02 14:41:16.57	182.36	24.15	-34.3	-35.6	21.7	0.00e+00	0	40	0	1145044992	39	4075
2026-01-02 14:41:17.57	182.44	24.30	-34.3	-35.5	21.8	0.00e+00	0	40	0	1152385024	39	4039
2026-01-02 14:41:18.57	182.53	24.45	-34.4	-35.6	21.7	0.00e+00	0	40	0	1159725056	39	4093
2026-01-02 14:41:19.57	182.61	24.60	-34.3	-35.6	21.7	0.00e+00	0	40	0	1167065088	39	4060
2026-01-02 14:41:20.58	182.70	24.76	-34.4	-35.7	21.7	0.00e+00	0	40	0	1174405120	39	4117
2026-01-02 14:41:21.58	182.79	24.91	-34.4	-35.8	21.6	0.00e+00	0	40	0	1181745152	39	4148
2026-01-02 14:41:22.58	182.87	25.06	-34.3	-35.6	21.8	0.00e+00	0	40	0	1188036608	39	4066
2026-01-02 14:41:23.59	182.96	25.22	-34.6	-35.9	21.4	0.00e+00	0	40	0	1195376640	39	4223
2026-01-02 14:41:24.59	183.05	25.37	-34.5	-35.8	21.5	0.00e+00	0	40	0	1202716672	39	4176
2026-01-02 14:41:25.60	183.14	25.53	-34.7	-36.0	21.3	0.00e+00	0	40	0	1210056704	39	4284
2026-01-02 14:41:26.60	183.23	25.68	-34.6	-35.9	21.4	0.00e+00	0	40	0	1217396736	39	4228
2026-01-02 14:41:27.60	183.32	25.84	-34.6	-35.9	21.4	0.00e+00	0	40	0	1224736768	39	4232
2026-01-02 14:41:28.61	183.42	26.00	-34.5	-35.9	21.4	0.00e+00	0	40	0	1232076800	39	4224
2026-01-02 14:41:29.61	183.51	26.16	-34.4	-35.8	21.5	0.00e+00	0	40	0	1239416832	39	4173
2026-01-02 14:41:30.61	183.60	26.32	-34.4	-35.7	21.6	0.00e+00	0	40	0	1246756864	39	4130
2026-01-02 14:41:31.62	183.70	26.48	-34.3	-35.7	21.6	0.00e+00	0	40	0	1253048320	39	4126
2026-01-02 14:41:32.62	183.80	26.64	-34.3	-35.6	21.6	0.00e+00	0	40	0	1261436928	39	4091
2026-01-02 14:41:33.62	183.89	26.80	-34.3	-35.6	21.7	0.00e+00	0	40	0	1268776960	38	4331
2026-01-02 14:41:34.63	183.99	26.97	-34.2	-35.5	21.7	0.00e+00	0	40	0	1275068416	38	4290
2026-01-02 14:41:35.63	184.09	27.13	-34.1	-35.5	21.7	0.00e+00	0	40	0	1282408448	38	4277
2026-01-02 14:41:36.63	184.19	27.30	-34.2	-35.5	21.7	0.00e+00	0	40	0	1289748480	38	4290
2026-01-02 14:41:37.64	184.29	27.47	-34.1	-35.4	21.8	0.00e+00	0	40	0	1297088512	38	4238
2026-01-02 14:41:38.64	184.39	27.63	-33.9	-35.3	22.0	0.00e+00	0	40	0	1304428544	38	4149
2026-01-02 14:41:39.64	184.50	27.80	-34.0	-35.3	21.9	0.00e+00	0	40	0	1311768576	38	4184
2026-01-02 14:41:40.65	184.60	27.97	-33.8	-35.2	22.0	0.00e+00	0	40	0	1319108608	38	4102
2026-01-02 14:41:41.65	184.71	28.14	-33.8	-35.2	22.0	0.00e+00	0	40	0	1326448640	38	4103
2026-01-02 14:41:42.65	184.81	28.31	-33.7	-35.0	22.2	0.00e+00	0	40	0	1332740096	38	4031
2026-01-02 14:41:43.65	184.92	28.48	-33.5	-34.9	22.3	0.00e+00	0	40	0	1340080128	37	4194
2026-01-02 14:41:44.66	185.03	28.66	-33.6	-35.0	22.2	0.00e+00	0	40	0	1347420160	37	4251
2026-01-02 14:41:45.66	185.14	28.83	-33.7	-35.0	22.1	0.00e+00	0	40	0	1354760192	37	4289
2026-01-02 14:41:46.66	185.25	29.00	-33.7	-35.0	22.2	0.00e+00	0	40	0	1362100224	37	4268
2026-01-02 14:41:47.67	185.36	29.18	-33.8	-35.1	22.2	0.00e+00	0	40	0	1369440256	37	4316
2026-01-02 14:41:48.67	185.47	29.36	-34.0	-35.3	22.0	0.00e+00	0	40	0	1376780288	37	4429
2026-01-02 14:41:49.67	185.59	29.53	-33.8	-35.1	22.2	0.00e+00	0	40	0	1384120320	37	4319
2026-01-02 14:41:50.68	185.70	29.71	-33.7	-35.0	22.3	0.00e+00	0	40	0	1391460352	37	4275
2026-01-02 14:41:51.68	185.82	29.89	-33.6	-34.9	22.4	0.00e+00	0	40	0	1398800384	37	4207
2026-01-02 14:41:52.69	185.94	30.08	-33.8	-35.1	22.2	0.00e+00	0	40	0	1406140416	37	4308
2026-01-02 14:41:53.69	186.06	30.26	-33.7	-34.9	22.3	0.00e+00	0	40	0	1413480448	37	4225
2026-01-02 14:41:54.69	186.18	30.44	-33.7	-35.0	22.3	0.00e+00	0	40	0	1419771904	37	4261
2026-01-02 14:41:55.70	186.30	30.63	-33.7	-35.0	22.3	0.00e+00	0	40	0	1427111936	37	4263
2026-01-02 14:41:56.70	186.43	30.81	-33.8	-35.1	22.3	0.00e+00	0	40	0	1434451968	37	4308
2026-01-02 14:41:57.70	186.55	31.00	-33.8	-35.0	22.3	0.00e+00	0	40	0	1441792000	37	4269
2026-01-02 14:41:58.70	186.68	31.18	-33.7	-35.0	22.4	0.00e+00	0	40	0	1449132032	37	4251
2026-01-02 14:41:59.71	186.81	31.37	-33.7	-34.9	22.4	0.00e+00	0	40	0	1456472064	37	4204
2026-01-02 14:42:00.71	186.93	31.56	-33.8	-35.1	22.3	0.00e+00	0	40	0	1463812096	37	4292
2026-01-02 14:42:01.71	187.06	31.75	-33.9	-35.1	22.2	0.00e+00	0	40	0	1471152128	37	4319
2026-01-02 14:42:02.72	187.20	31.94	-33.9	-35.2	22.1	0.00e+00	0	40	0	1478492160	37	4348
2026-01-02 14:42:03.72	187.33	32.13	-33.9	-35.1	22.2	0.00e+00	0	40	0	1485832192	37	4320
2026-01-02 14:42:04.72	187.47	32.33	-34.1	-35.4	21.9	0.00e+00	0	40	0	1493172224	37	4442
2026-01-02 14:42:05.72	187.60	32.52	-33.9	-35.1	22.1	0.00e+00	0	40	0	1500512256	37	4327
2026-01-02 14:42:06.73	187.74	32.72	-33.9	-35.2	22.1	0.00e+00	0	40	0	1506803712	37	4350
2026-01-02 14:42:07.73	187.88	32.91	-33.8	-35.0	22.2	0.00e+00	0	40	0	1514143744	37	4286
2026-01-02 14:42:08.73	188.02	33.11	-33.7	-35.0	22.2	0.00e+00	0	40	0	1521483776	37	4260
2026-01-02 14:42:09.74	188.17	33.31	-33.8	-35.1	22.1	0.00e+00	0	40	0	1528823808	37	4336
2026-01-02 14:42:10.74	188.31	33.51	-33.7	-35.0	22.2	0.00e+00	0	40	0	1536163840	37	4274
2026-01-02 14:42:11.74	188.46	33.71	-33.8	-35.1	22.2	0.00e+00	0	40	0	1543503872	37	4311
2026-01-02 14:42:12.75	188.61	33.92	-33.8	-35.1	22.1	0.00e+00	0	40	0	1550843904	37	4318
2026-01-02 14:42:13.75	188.76	34.12	-33.9	-35.2	22.1	0.00e+00	0	40	0	1558183936	37	4356
2026-01-02 14:42:14.75	188.91	34.32	-33.9	-35.2	22.1	0.00e+00	0	40	0	1564475392	37	4364
2026-01-02 14:42:15.75	189.06	34.53	-33.9	-35.2	22.1	0.00e+00	0	40	0	1571815424	37	4377
2026-01-02 14:42:16.76	189.22	34.74	-33.9	-35.2	22.1	0.00e+00	0	40	0	1579155456	37	4360
2026-01-02 14:42:17.76	189.38	34.94	-33.9	-35.3	22.1	0.00e+00	0	40	0	1586495488	37	4406
2026-01-02 14:42:18.76	189.54	35.15	-34.0	-35.4	22.0	0.00e+00	0	40	0	1593835520	37	4454
2026-01-02 14:42:19.77	189.70	35.37	-34.0	-35.3	22.0	0.00e+00	0	40	0	1601175552	37	4420
2026-01-02 14:42:20.77	189.87	35.58	-33.7	-35.0	22.2	0.00e+00	0	40	0	1608515584	37	4291
2026-01-02 14:42:21.77	190.03	35.79	-34.0	-35.3	22.0	0.00e+00	0	40	0	1615855616	37	4440
2026-01-02 14:42:22.78	190.20	36.00	-34.1	-35.5	21.9	0.00e+00	0	40	0	1623195648	37	4495
2026-01-02 14:42:23.78	190.37	36.22	-34.1	-35.5	21.9	0.00e+00	0	40	0	1630535680	37	4499
2026-01-02 14:42:24.79	190.54	36.44	-34.2	-35.5	21.9	0.00e+00	0	40	0	1637875712	37	4545
2026-01-02 14:42:25.79	190.72	36.65	-34.0	-35.3	22.1	0.00e+00	0	40	0	1645215744	38	4150
2026-01-02 14:42:26.79	190.90	36.87	-34.2	-35.5	21.9	0.00e+00	0	40	0	1651507200	38	4282
2026-01-02 14:42:27.80	191.08	37.09	-34.2	-35.6	21.9	0.00e+00	0	40	0	1658847232	38	4294
2026-01-02 14:42:28.80	191.26	37.31	-34.1	-35.4	22.0	0.00e+00	0	40	0	1666187264	38	4221
2026-01-02 14:42:29.80	191.44	37.53	-34.1	-35.4	21.9	0.00e+00	0	40	0	1673527296	38	4215
2026-01-02 14:42:30.81	191.63	37.76	-34.0	-35.3	22.0	0.00e+00	0	40	0	1680867328	38	4155
2026-01-02 14:42:31.81	191.82	37.98	-34.1	-35.4	21.9	0.00e+00	0	40	0	1688207360	38	4240
2026-01-02 14:42:32.81	192.01	38.21	-34.1	-35.4	21.9	0.00e+00	0	40	0	1695547392	38	4220
2026-01-02 14:42:33.82	192.21	38.43	-34.1	-35.4	21.9	0.00e+00	0	40	0	1702887424	38	4208
2026-01-02 14:42:34.82	192.40	38.66	-34.2	-35.5	21.8	0.00e+00	0	40	0	1710227456	38	4273
2026-01-02 14:42:35.82	192.60	38.89	-34.2	-35.6	21.8	0.00e+00	0	40	0	1717567488	38	4292
2026-01-02 14:42:36.82	192.81	39.12	-34.4	-35.7	21.6	0.00e+00	0	40	0	1724907520	38	4386
2026-01-02 14:42:37.83	193.01	39.35	-34.4	-35.7	21.6	0.00e+00	0	40	0	1732247552	38	4389
2026-01-02 14:42:38.83	193.22	39.58	-34.4	-35.7	21.7	0.00e+00	0	40	0	1738539008	38	4373
2026-01-02 14:42:39.84	193.44	39.82	-34.4	-35.7	21.8	0.00e+00	0	40	0	1745879040	38	4353
2026-01-02 14:42:40.84	193.65	40.05	-34.3	-35.6	21.9	0.00e+00	0	40	0	1753219072	38	4330
2026-01-02 14:42:41.84	193.87	40.29	-34.6	-35.9	21.6	0.00e+00	0	40	0	1760559104	39	4215
2026-01-02 14:42:42.84	194.09	40.52	-34.5	-35.8	21.7	0.00e+00	0	40	0	1767899136	39	4177
2026-01-02 14:42:43.85	194.31	40.76	-34.5	-35.8	21.7	0.00e+00	0	40	0	1775239168	39	4176
2026-01-02 14:42:44.85	194.54	41.00	-34.2	-35.5	22.0	0.00e+00	0	40	0	1782579200	39	4022
2026-01-02 14:42:45.85	194.77	41.24	-34.2	-35.5	22.0	0.00e+00	0	40	0	1789919232	39	4020
2026-01-02 14:42:46.86	195.00	41.48	-33.8	-35.0	22.4	0.00e+00	0	40	0	1796210688	38	4021
2026-01-02 14:42:47.86	195.24	41.73	-34.2	-35.5	22.0	0.00e+00	0	40	0	1803550720	38	4269
2026-01-02 14:42:48.87	195.48	41.97	-34.1	-35.4	22.1	0.00e+00	0	40	0	1810890752	38	4213
2026-01-02 14:42:49.87	195.73	42.21	-34.2	-35.5	22.0	0.00e+00	0	40	0	1818230784	38	4272
2026-01-02 14:42:50.87	195.98	42.46	-34.4	-35.7	21.7	0.00e+00	0	40	0	1825570816	38	4386
2026-01-02 14:42:51.87	196.23	42.70	-34.8	-36.2	21.4	0.00e+00	0	40	0	1832910848	38	4621
2026-01-02 14:42:52.88	196.48	42.95	-34.2	-35.5	22.0	0.00e+00	0	40	0	1840250880	39	4026
2026-01-02 14:42:53.88	196.74	43.20	-34.3	-35.7	21.8	0.00e+00	0	40	0	1847590912	39	4104
2026-01-02 14:42:54.88	197.01	43.45	-34.4	-35.7	21.8	0.00e+00	0	40	0	1854930944	39	4117
2026-01-02 14:42:55.89	197.28	43.70	-34.4	-35.7	21.8	0.00e+00	0	40	0	1862270976	39	4125
2026-01-02 14:42:56.89	197.55	43.95	-34.3	-35.6	21.9	0.00e+00	0	40	0	1869611008	39	4081
2026-01-02 14:42:57.90	197.83	44.21	-34.5	-35.8	21.7	0.00e+00	0	40	0	1876951040	39	4163
2026-01-02 14:42:58.90	198.11	44.46	-34.7	-36.0	21.6	0.00e+00	0	40	0	1883242496	39	4246
2026-01-02 14:42:59.90	198.39	44.71	-34.6	-35.9	21.7	0.00e+00	0	40	0	1890582528	39	4207
2026-01-02 14:43:00.91	198.68	44.97	-34.7	-36.0	21.6	0.00e+00	0	40	0	1897922560	39	4250
2026-01-02 14:43:01.91	198.98	45.23	-34.7	-35.9	21.7	0.00e+00	0	40	0	1905262592	39	4224
2026-01-02 14:43:02.91	199.27	45.48	-34.9	-36.1	21.5	0.00e+00	0	40	0	1912602624	39	4330
2026-01-02 14:43:03.92	199.58	45.74	-34.5	-35.8	21.9	0.00e+00	0	40	0	1919942656	39	4147
2026-01-02 14:43:04.92	199.89	46.00	-35.1	-35.9	22.4	0.00e+00	0	40	0	1927282688	39	4234
2026-01-02 14:43:05.92	200.20	46.26	-35.4	-36.3	22.0	0.00e+00	0	40	0	1934622720	40	4150
2026-01-02 14:43:06.93	200.52	46.52	-35.6	-36.5	21.8	0.00e+00	0	40	0	1941962752	40	4250
2026-01-02 14:43:07.93	200.85	46.78	-35.3	-36.2	22.0	0.00e+00	0	40	0	1949302784	41	3896
2026-01-02 14:43:08.93	201.17	47.04	-35.7	-36.6	21.7	0.00e+00	0	40	0	1956642816	41	4083
2026-01-02 14:43:09.94	201.51	47.30	-35.7	-36.6	21.7	0.00e+00	0	40	0	1962934272	41	4063
2026-01-02 14:43:10.94	201.85	47.56	-35.5	-36.4	21.8	0.00e+00	0	40	0	1970274304	41	3990
2026-01-02 14:43:11.94	202.20	47.82	-35.3	-36.2	22.1	0.00e+00	0	40	0	1977614336	41	3889
2026-01-02 14:43:12.94	202.55	48.09	-35.1	-35.9	22.3	0.00e+00	0	40	0	1984954368	41	3776
2026-01-02 14:43:13.95	202.91	48.35	-35.2	-36.1	22.1	0.00e+00	0	40	0	1992294400	40	4089
2026-01-02 14:43:14.95	203.27	48.61	-35.4	-36.2	22.1	0.00e+00	0	40	0	1999634432	40	4144
2026-01-02 14:43:15.95	203.64	48.88	-35.4	-36.3	22.1	0.00e+00	0	40	0	2006974464	40	4155
2026-01-02 14:43:16.96	204.02	49.14	-35.2	-36.1	22.2	0.00e+00	0	40	0	2014314496	40	4063
2026-01-02 14:43:17.96	204.40	49.41	-35.5	-36.4	21.9	0.00e+00	0	40	0	2021654528	40	4218
2026-01-02 14:43:18.97	204.80	49.68	-35.6	-36.5	21.8	0.00e+00	0	40	0	2027945984	40	4278
2026-01-02 14:43:19.97	205.19	49.94	-35.8	-36.7	21.6	0.00e+00	0	40	0	2036334592	41	4108
2026-01-02 14:43:20.97	205.59	50.20	-35.7	-36.6	21.7	0.00e+00	0	40	0	2043674624	41	4079
2026-01-02 14:43:21.98	206.01	50.47	-35.8	-36.6	21.7	0.00e+00	0	40	0	2049966080	41	4094
2026-01-02 14:43:22.98	206.42	50.74	-36.0	-37.0	21.4	0.00e+00	0	40	0	2057306112	41	4243
2026-01-02 14:43:23.98	206.85	51.00	-36.3	-37.2	20.9	0.00e+00	0	40	0	2064646144	42	4118
2026-01-02 14:43:24.99	207.28	51.27	-36.4	-37.3	21.2	0.00e+00	0	40	0	2071986176	42	4158
2026-01-02 14:43:25.99	207.72	51.53	-36.5	-37.4	21.0	0.00e+00	0	40	0	2079326208	42	4214
2026-01-02 14:43:26.99	208.17	51.80	-36.3	-37.2	21.1	0.00e+00	0	40	0	2086666240	42	4133
2026-01-02 14:43:28.00	208.63	52.06	-35.7	-36.6	21.7	0.00e+00	0	40	0	2094006272	42	3840
2026-01-02 14:43:29.00	209.09	52.32	-35.7	-36.6	21.7	0.00e+00	0	40	0	2101346304	41	4064
2026-01-02 14:43:30.00	209.56	52.59	-35.8	-36.7	21.6	0.00e+00	0	40	0	2108686336	41	4113
2026-01-02 14:43:31.01	210.05	52.85	-35.7	-36.6	21.7	0.00e+00	0	40	0	2114977792	41	4072
2026-01-02 14:43:32.01	210.54	53.11	-35.9	-36.8	21.5	0.00e+00	0	40	0	2122317824	41	4170
2026-01-02 14:43:33.02	211.04	53.38	-35.9	-36.8	21.5	0.00e+00	0	40	0	2129657856	41	4174
2026-01-02 14:43:34.02	211.55	53.64	-35.8	-36.7	21.6	0.00e+00	0	40	0	2136997888	41	4114
2026-01-02 14:43:35.02	212.06	53.89	-35.8	-36.7	21.6	0.00e+00	0	40	0	2144337920	41	4143
2026-01-02 14:43:36.03	212.59	54.15	-36.0	-36.9	21.4	0.00e+00	0	40	0	2151677952	41	4212
2026-01-02 14:43:37.03	213.12	54.41	-36.1	-37.0	21.3	0.00e+00	0	40	0	2159017984	41	4288
2026-01-02 14:43:38.04	213.67	54.67	-36.1	-37.0	21.4	0.00e+00	0	40	0	2166358016	42	4029
2026-01-02 14:43:39.04	214.22	54.92	-35.9	-36.8	21.5	0.00e+00	0	40	0	2173698048	42	3954
2026-01-02 14:43:40.04	214.79	55.17	-36.0	-36.9	21.5	0.00e+00	0	40	0	2181038080	42	3982
2026-01-02 14:43:41.04	215.36	55.43	-35.7	-36.6	21.7	0.00e+00	0	40	0	2188378112	42	3865
2026-01-02 14:43:42.04	215.94	55.68	-35.9	-36.8	21.6	0.00e+00	0	40	0	2194669568	42	3923
2026-01-02 14:43:43.05	216.54	55.92	-35.8	-36.7	21.6	0.00e+00	0	40	0	2202009600	42	3885
2026-01-02 14:43:44.05	217.15	56.17	-35.7	-36.6	21.8	0.00e+00	0	40	0	2209349632	42	3837
2026-01-02 14:43:45.05	217.76	56.41	-35.5	-36.4	22.0	0.00e+00	0	40	0	2216689664	41	3959
2026-01-02 14:43:46.06	218.39	56.66	-35.9	-36.8	21.5	0.00e+00	0	40	0	2224029696	41	4163
2026-01-02 14:43:47.06	219.03	56.90	-36.0	-36.9	21.4	0.00e+00	0	40	0	2231369728	41	4242
2026-01-02 14:43:48.06	219.68	57.13	-35.9	-36.9	21.5	0.00e+00	0	40	0	2238709760	41	4202
2026-01-02 14:43:49.07	220.34	57.37	-36.0	-36.9	21.5	0.00e+00	0	40	0	2246049792	42	3986
2026-01-02 14:43:50.07	221.01	57.60	-36.0	-36.9	21.4	0.00e+00	0	40	0	2253389824	42	3980
2026-01-02 14:43:51.08	221.70	57.83	-35.7	-36.5	21.8	0.00e+00	0	40	0	2260729856	42	3806
2026-01-02 14:43:52.08	222.39	58.06	-35.8	-36.7	21.6	0.00e+00	0	40	0	2268069888	41	4144
2026-01-02 14:43:53.09	223.10	58.28	-35.7	-36.6	21.7	0.00e+00	0	40	0	2275409920	41	4067
2026-01-02 14:43:54.09	223.82	58.50	-35.7	-36.6	21.7	0.00e+00	0	40	0	2281701376	41	4084
2026-01-02 14:43:55.10	224.56	58.72	-35.4	-36.2	22.1	0.00e+00	0	40	0	2289041408	41	3903
2026-01-02 14:43:56.10	225.30	58.93	-35.5	-36.3	21.9	0.00e+00	0	40	0	2296381440	41	3956
2026-01-02 14:43:57.10	226.05	59.14	-35.6	-36.5	21.8	0.00e+00	0	40	0	2303721472	41	4044
2026-01-02 14:43:58.11	226.82	59.35	-35.7	-36.5	21.7	0.00e+00	0	40	0	2311061504	41	4050
2026-01-02 14:43:59.11	227.59	59.55	-35.7	-36.6	21.7	0.00e+00	0	40	0	2318401536	41	4058
2026-01-02 14:44:00.11	228.38	59.75	-35.3	-36.2	22.1	0.00e+00	0	40	0	2325741568	41	3892
2026-01-02 14:44:01.11	229.18	59.94	-35.3	-36.1	22.1	0.00e+00	0	40	0	2333081600	41	3863
2026-01-02 14:44:02.12	230.00	60.13	-35.5	-36.3	21.9	0.00e+00	0	40	0	2340421632	40	4193
2026-01-02 14:44:03.12	230.82	60.31	-35.4	-36.2	22.1	0.00e+00	0	40	0	2347761664	40	4131
2026-01-02 14:44:04.12	231.66	60.49	-35.2	-36.1	22.2	0.00e+00	0	40	0	2355101696	40	4059
2026-01-02 14:44:05.13	232.51	60.67	-35.3	-36.2	22.1	0.00e+00	0	40	0	2361393152	40	4132
2026-01-02 14:44:06.13	233.37	60.83	-35.2	-36.1	22.2	0.00e+00	0	40	0	2368733184	40	4056
2026-01-02 14:44:07.13	234.24	61.00	-35.3	-36.2	22.0	0.00e+00	0	40	0	2376073216	40	4129
2026-01-02 14:44:08.14	235.13	61.16	-35.4	-36.3	22.0	0.00e+00	0	40	0	2383413248	40	4167
2026-01-02 14:44:09.14	236.02	61.31	-35.4	-36.3	22.0	0.00e+00	0	40	0	2390753280	40	4182
2026-01-02 14:44:10.15	236.93	61.46	-35.3	-36.2	22.1	0.00e+00	0	40	0	2398093312	40	4132
2026-01-02 14:44:11.15	237.84	61.60	-35.7	-36.6	21.8	0.00e+00	0	40	0	2405433344	40	4319
2026-01-02 14:44:12.15	238.77	61.73	-35.4	-36.3	22.0	0.00e+00	0	40	0	2412773376	40	4157
2026-01-02 14:44:13.16	239.71	61.86	-35.4	-36.3	22.0	0.00e+00	0	40	0	2420113408	40	4149
2026-01-02 14:44:14.16	240.65	61.98	-35.4	-36.3	22.0	0.00e+00	0	40	0	2426404864	40	4158
2026-01-02 14:44:15.16	241.60	62.10	-35.5	-36.4	21.9	0.00e+00	0	40	0	2433744896	40	4205
2026-01-02 14:44:16.17	242.57	62.21	-35.5	-36.4	21.9	0.00e+00	0	40	0	2441084928	40	4197
2026-01-02 14:44:17.17	243.54	62.31	-35.3	-36.1	22.1	0.00e+00	0	40	0	2448424960	40	4098
2026-01-02 14:44:18.17	244.51	62.41	-35.3	-36.2	22.1	0.00e+00	0	40	0	2455764992	40	4111
2026-01-02 14:44:19.17	245.50	62.50	-35.2	-36.1	22.2	0.00e+00	0	40	0	2463105024	40	4071
2026-01-02 14:44:20.18	246.50	62.58	-35.2	-36.1	22.2	0.00e+00	0	40	0	2470445056	40	4077
2026-01-02 14:44:21.18	247.49	62.65	-35.0	-35.9	22.4	0.00e+00	0	40	0	2477785088	40	3974
2026-01-02 14:44:22.18	248.50	62.72	-35.0	-35.8	22.4	0.00e+00	0	40	0	2485125120	40	3941
2026-01-02 14:44:23.19	249.51	62.78	-34.9	-35.8	22.4	0.00e+00	0	40	0	2492465152	40	3935
2026-01-02 14:44:24.19	250.53	62.84	-35.0	-35.9	22.4	0.00e+00	0	40	0	2499805184	40	3969
2026-01-02 14:44:25.19	251.54	62.88	-35.1	-36.0	22.3	0.00e+00	0	40	0	2507145216	40	4024
2026-01-02 14:44:26.20	252.57	62.92	-35.0	-35.9	22.3	0.00e+00	0	40	0	2513436672	40	3975
2026-01-02 14:44:27.20	253.60	62.95	-35.0	-35.8	22.4	0.00e+00	0	40	0	2520776704	40	3934
2026-01-02 14:44:28.20	254.62	62.97	-35.2	-36.0	22.3	0.00e+00	0	40	0	2528116736	40	4038
2026-01-02 14:44:29.21	255.66	62.99	-35.3	-36.2	22.2	0.00e+00	0	40	0	2535456768	40	4102
2026-01-02 14:44:30.21	256.69	62.99	-35.3	-36.2	22.1	0.00e+00	0	40	0	2542796800	40	4104
2026-01-02 14:44:31.21	257.71	62.99	-35.1	-36.0	22.2	0.00e+00	0	40	0	2550136832	40	4036
2026-01-02 14:44:32.22	258.75	62.99	-35.1	-36.0	22.2	0.00e+00	0	40	0	2557476864	40	4022
2026-01-02 14:44:33.22	259.78	62.97	-35.1	-35.9	22.3	0.00e+00	0	40	0	2564816896	40	3986
2026-01-02 14:44:34.22	260.80	62.95	-35.1	-35.9	22.3	0.00e+00	0	40	0	2572156928	40	4001
2026-01-02 14:44:35.23	261.84	62.92	-35.3	-36.2	22.1	0.00e+00	0	40	0	2579496960	40	4103
2026-01-02 14:44:36.23	262.86	62.88	-35.3	-36.2	22.0	0.00e+00	0	40	0	2586836992	40	4103
2026-01-02 14:44:37.23	263.87	62.83	-35.3	-36.2	22.0	0.00e+00	0	40	0	2593128448	40	4114
2026-01-02 14:44:38.24	264.90	62.78	-35.0	-35.8	22.4	0.00e+00	0	40	0	2600468480	40	3951
2026-01-02 14:44:39.24	265.90	62.72	-35.2	-36.1	22.2	0.00e+00	0	40	0	2607808512	40	4066
2026-01-02 14:44:40.24	266.90	62.65	-35.4	-36.3	21.9	0.00e+00	0	40	0	2615148544	40	4179
2026-01-02 14:44:41.25	267.91	62.58	-35.7	-36.6	21.6	0.00e+00	0	40	0	2622488576	40	4333
2026-01-02 14:44:42.24	268.89	62.49	-35.8	-36.7	21.6	0.00e+00	0	40	0	2629828608	41	4110
2026-01-02 14:44:43.25	269.88	62.41	-35.6	-36.5	21.8	0.00e+00	0	40	0	2637168640	41	4016
2026-01-02 14:44:44.25	270.86	62.31	-35.6	-36.4	21.8	0.00e+00	0	40	0	2644508672	41	4003
2026-01-02 14:44:45.25	271.82	62.21	-35.6	-36.5	21.8	0.00e+00	0	40	0	2651848704	41	4008
2026-01-02 14:44:46.26	272.79	62.10	-35.6	-36.5	21.8	0.00e+00	0	40	0	2658140160	41	4008
2026-01-02 14:44:47.26	273.74	61.98	-35.8	-36.7	21.5	0.00e+00	0	40	0	2665480192	41	4137
2026-01-02 14:44:48.27	274.69	61.86	-36.0	-36.9	21.4	0.00e+00	0	40	0	2672820224	41	4222
2026-01-02 14:44:49.27	275.62	61.73	-35.7	-36.6	21.6	0.00e+00	0	40	0	2680160256	41	4074
2026-01-02 14:44:50.27	276.54	61.59	-35.5	-36.3	21.9	0.00e+00	0	40	0	2687500288	41	3958
2026-01-02 14:44:51.28	277.46	61.45	-35.4	-36.2	21.9	0.00e+00	0	40	0	2694840320	41	3896
2026-01-02 14:44:52.28	278.36	61.31	-35.8	-36.7	21.6	0.00e+00	0	40	0	2702180352	41	4105
2026-01-02 14:44:53.29	279.26	61.15	-35.9	-36.8	21.5	0.00e+00	0	40	0	2709520384	41	4190
2026-01-02 14:44:54.29	280.14	60.99	-35.8	-36.6	21.6	0.00e+00	0	40	0	2716860416	41	4096
2026-01-02 14:44:55.29	281.01	60.83	-35.7	-36.6	21.6	0.00e+00	0	40	0	2724200448	41	4090
2026-01-02 14:44:56.30	281.87	60.66	-35.9	-36.9	21.4	0.00e+00	0	40	0	2731540480	41	4196
2026-01-02 14:44:57.30	282.72	60.49	-36.0	-37.0	21.3	0.00e+00	0	40	0	2738880512	41	4251
2026-01-02 14:44:58.30	283.55	60.31	-36.2	-37.1	21.0	0.00e+00	0	40	0	2745171968	41	4314
2026-01-02 14:44:59.31	284.38	60.12	-36.0	-36.9	21.3	0.00e+00	0	40	0	2752512000	41	4217
2026-01-02 14:45:00.31	285.19	59.94	-35.9	-36.8	21.3	0.00e+00	0	40	0	2759852032	41	4177
2026-01-02 14:45:01.31	285.99	59.74	-35.9	-36.8	21.1	0.00e+00	0	40	0	2767192064	41	4174
2026-01-02 14:45:02.32	286.78	59.55	-35.8	-36.7	21.5	0.00e+00	0	40	0	2774532096	41	4104
2026-01-02 14:45:03.32	287.56	59.34	-35.6	-36.5	21.8	0.00e+00	0	40	0	2781872128	41	4015
2026-01-02 14:45:04.32	288.32	59.14	-35.7	-36.5	21.6	0.00e+00	0	40	0	2789212160	41	4043
2026-01-02 14:45:05.33	289.08	58.93	-35.8	-36.7	21.1	0.00e+00	0	40	0	2796552192	41	4102
2026-01-02 14:45:06.33	289.81	58.72	-35.8	-36.7	20.7	0.00e+00	0	40	0	2803892224	41	4116
2026-01-02 14:45:07.33	290.54	58.50	-35.9	-36.8	20.9	0.00e+00	0	40	0	2811232256	41	4171
2026-01-02 14:45:08.34	291.26	58.28	-36.0	-36.9	21.1	0.00e+00	0	40	0	2818572288	41	4199
2026-01-02 14:45:09.34	291.97	58.06	-35.8	-36.6	21.6	0.00e+00	0	40	0	2824863744	41	4091
2026-01-02 14:45:10.35	292.66	57.83	-35.7	-36.6	20.9	0.00e+00	0	40	0	2832203776	41	4060
2026-01-02 14:45:11.35	293.34	57.60	-35.7	-36.6	20.5	0.00e+00	0	40	0	2839543808	41	4066
2026-01-02 14:45:12.35	294.01	57.37	-35.8	-36.7	20.9	0.00e+00	0	40	0	2846883840	41	4100
2026-01-02 14:45:13.36	294.68	57.14	-35.8	-36.7	21.1	0.00e+00	0	40	0	2854223872	41	4132
2026-01-02 14:45:14.36	295.32	56.90	-35.9	-36.8	21.0	0.00e+00	0	40	0	2861563904	41	4193
2026-01-02 14:45:15.36	295.96	56.66	-35.9	-36.8	21.0	0.00e+00	0	40	0	2868903936	41	4182
2026-01-02 14:45:16.37	296.59	56.42	-35.6	-36.5	20.6	0.00e+00	0	40	0	2876243968	41	4028
2026-01-02 14:45:17.37	297.20	56.18	-35.5	-36.3	19.9	0.00e+00	0	40	0	2883584000	41	3955
2026-01-02 14:45:18.37	297.80	55.93	-35.6	-36.5	20.3	0.00e+00	0	40	0	2890924032	41	4029
2026-01-02 14:45:19.38	298.40	55.68	-35.8	-36.7	20.8	0.00e+00	0	40	0	2898264064	41	4145
2026-01-02 14:45:20.38	298.98	55.43	-36.1	-37.0	20.9	0.00e+00	0	40	0	2905604096	41	4285
2026-01-02 14:45:21.38	299.55	55.18	-36.2	-37.1	20.9	0.00e+00	0	40	0	2911895552	42	4076
2026-01-02 14:45:22.39	300.12	54.93	-36.2	-37.1	21.0	0.00e+00	0	40	0	2919235584	42	4067
2026-01-02 14:45:23.39	300.67	54.68	-36.1	-37.1	21.1	0.00e+00	0	40	0	2926575616	42	4057
2026-01-02 14:45:24.39	301.21	54.42	-36.0	-36.9	21.2	0.00e+00	0	40	0	2933915648	42	4000
2026-01-02 14:45:25.40	301.75	54.16	-35.9	-36.8	21.5	0.00e+00	0	40	0	2941255680	42	3954
2026-01-02 14:45:26.40	302.28	53.91	-35.9	-36.8	21.4	0.00e+00	0	40	0	2948595712	42	3945
2026-01-02 14:45:27.40	302.79	53.65	-35.9	-36.8	21.4	0.00e+00	0	40	0	2955935744	42	3940
2026-01-02 14:45:28.41	303.30	53.39	-35.8	-36.7	21.6	0.00e+00	0	40	0	2963275776	42	3886
2026-01-02 14:45:29.41	303.80	53.13	-35.8	-36.6	21.6	0.00e+00	0	40	0	2969567232	42	3860
2026-01-02 14:45:30.41	304.28	52.87	-35.6	-36.5	21.7	0.00e+00	0	40	0	2976907264	41	4040
2026-01-02 14:45:31.42	304.77	52.61	-35.8	-36.7	21.5	0.00e+00	0	40	0	2985295872	41	4136
2026-01-02 14:45:32.42	305.24	52.34	-36.0	-37.0	21.2	0.00e+00	0	40	0	2991587328	41	4243
2026-01-02 14:45:33.42	305.70	52.08	-36.1	-37.1	21.2	0.00e+00	0	40	0	2998927360	41	4292
2026-01-02 14:45:34.43	306.16	51.82	-36.2	-37.1	21.2	0.00e+00	0	40	0	3006267392	41	4326
2026-01-02 14:45:35.43	306.60	51.55	-36.1	-37.0	21.2	0.00e+00	0	40	0	3013607424	42	4047
2026-01-02 14:45:36.44	307.05	51.29	-36.1	-37.0	21.3	0.00e+00	0	40	0	3020947456	42	4020
2026-01-02 14:45:37.44	307.48	51.03	-35.8	-36.7	21.5	0.00e+00	0	40	0	3028287488	42	3908
2026-01-02 14:45:38.44	307.90	50.76	-35.9	-36.8	21.5	0.00e+00	0	40	0	3035627520	42	3926
2026-01-02 14:45:39.44	308.32	50.50	-35.7	-36.6	21.7	0.00e+00	0	40	0	3042967552	42	3847
2026-01-02 14:45:40.45	308.73	50.23	-36.0	-36.9	21.2	0.00e+00	0	40	0	3050307584	42	3974
2026-01-02 14:45:41.45	309.13	49.97	-36.0	-36.9	21.5	0.00e+00	0	40	0	3056599040	42	3963
2026-01-02 14:45:42.46	309.53	49.70	-36.0	-36.9	21.4	0.00e+00	0	40	0	3063939072	42	3991
2026-01-02 14:45:43.46	309.92	49.44	-35.9	-36.8	21.5	0.00e+00	0	40	0	3071279104	42	3938
2026-01-02 14:45:44.46	310.30	49.18	-35.7	-36.6	21.7	0.00e+00	0	40	0	3078619136	42	3863
2026-01-02 14:45:45.47	310.68	48.91	-35.7	-36.6	21.7	0.00e+00	0	40	0	3085959168	42	3826
2026-01-02 14:45:46.47	311.05	48.65	-35.6	-36.5	21.8	0.00e+00	0	40	0	3093299200	41	4018
2026-01-02 14:45:47.47	311.41	48.39	-35.5	-36.4	21.8	0.00e+00	0	40	0	3100639232	41	4002
2026-01-02 14:45:48.48	311.77	48.12	-35.5	-36.4	21.8	0.00e+00	0	40	0	3107979264	41	3978
2026-01-02 14:45:49.48	312.12	47.86	-35.5	-36.4	21.9	0.00e+00	0	40	0	3115319296	41	3994
2026-01-02 14:45:50.49	312.47	47.60	-35.5	-36.4	21.7	0.00e+00	0	40	0	3122659328	41	3961
2026-01-02 14:45:51.49	312.81	47.34	-35.3	-36.2	22.0	0.00e+00	0	40	0	3129999360	41	3908
2026-01-02 14:45:52.49	313.14	47.08	-35.2	-36.0	22.2	0.00e+00	0	40	0	3137339392	41	3822
2026-01-02 14:45:53.50	313.47	46.82	-34.9	-35.8	22.4	0.00e+00	0	40	0	3143630848	40	3928
2026-01-02 14:45:54.50	313.80	46.56	-34.9	-35.8	22.5	0.00e+00	0	40	0	3150970880	40	3919
2026-01-02 14:45:55.50	314.11	46.30	-34.8	-35.7	22.5	0.00e+00	0	40	0	3158310912	40	3869
2026-01-02 14:45:56.51	314.43	46.04	-34.7	-35.6	22.5	0.00e+00	0	40	0	3165650944	39	4079
2026-01-02 14:45:57.51	314.74	45.78	-34.4	-35.3	23.0	0.00e+00	0	40	0	3172990976	39	3916
2026-01-02 14:45:58.51	315.04	45.53	-34.3	-35.2	23.0	0.00e+00	0	40	0	3180331008	39	3878
2026-01-02 14:45:59.52	315.34	45.27	-34.4	-35.2	23.0	0.00e+00	0	40	0	3187671040	39	3896
2026-01-02 14:46:00.52	315.63	45.02	-34.4	-35.2	23.0	0.00e+00	0	40	0	3195011072	39	3891
2026-01-02 14:46:01.52	315.92	44.76	-34.5	-35.4	22.8	0.00e+00	0	40	0	3202351104	39	3972
2026-01-02 14:46:02.53	316.21	44.51	-34.8	-35.6	22.7	0.00e+00	0	40	0	3209691136	39	4092
2026-01-02 14:46:03.53	316.49	44.26	-34.8	-35.7	22.6	0.00e+00	0	40	0	3217031168	39	4120
2026-01-02 14:46:04.54	316.77	44.01	-35.0	-35.8	22.5	0.00e+00	0	40	0	3223322624	39	4185
2026-01-02 14:46:05.53	317.03	43.76	-35.0	-35.9	22.4	0.00e+00	0	40	0	3230662656	39	4213
2026-01-02 14:46:06.54	317.30	43.51	-34.8	-35.6	22.1	0.00e+00	0	40	0	3238002688	39	4085
2026-01-02 14:46:07.54	317.57	43.26	-34.7	-35.6	22.5	0.00e+00	0	40	0	3245342720	39	4073
2026-01-02 14:46:08.54	317.82	43.01	-34.6	-35.5	22.8	0.00e+00	0	40	0	3252682752	39	4006
2026-01-02 14:46:09.54	318.08	42.77	-34.4	-35.2	23.0	0.00e+00	0	40	0	3260022784	39	3905
2026-01-02 14:46:10.54	318.33	42.52	-34.4	-35.2	23.0	0.00e+00	0	40	0	3267362816	39	3903
2026-01-02 14:46:11.55	318.58	42.28	-34.5	-35.4	22.9	0.00e+00	0	40	0	3274702848	39	3965
2026-01-02 14:46:12.55	318.82	42.03	-34.5	-35.3	22.9	0.00e+00	0	40	0	3282042880	39	3935
2026-01-02 14:46:13.55	319.06	41.79	-34.6	-35.5	22.7	0.00e+00	0	40	0	3288334336	39	4012
2026-01-02 14:46:14.55	319.30	41.55	-34.6	-35.5	22.7	0.00e+00	0	40	0	3295674368	39	4020
2026-01-02 14:46:15.55	319.53	41.31	-34.6	-35.5	22.8	0.00e+00	0	40	0	3303014400	39	4012
2026-01-02 14:46:16.55	319.76	41.07	-34.5	-35.3	22.8	0.00e+00	0	40	0	3310354432	39	3940
2026-01-02 14:46:17.55	319.99	40.84	-34.4	-35.2	22.8	0.00e+00	0	40	0	3317694464	39	3906
2026-01-02 14:46:18.55	320.21	40.60	-34.4	-35.3	22.9	0.00e+00	0	40	0	3325034496	39	3931
2026-01-02 14:46:19.55	320.43	40.37	-34.5	-35.3	22.9	0.00e+00	0	40	0	3332374528	39	3953
2026-01-02 14:46:20.55	320.65	40.13	-34.5	-35.3	22.9	0.00e+00	0	40	0	3339714560	39	3947
2026-01-02 14:46:21.55	320.87	39.90	-34.6	-35.5	22.8	0.00e+00	0	40	0	3346006016	39	4022
2026-01-02 14:46:22.56	321.08	39.66	-34.7	-35.6	22.6	0.00e+00	0	40	0	3353346048	39	4065
2026-01-02 14:46:23.56	321.29	39.43	-34.8	-35.7	22.6	0.00e+00	0	40	0	3360686080	39	4116
2026-01-02 14:46:24.56	321.49	39.20	-34.8	-35.7	22.5	0.00e+00	0	40	0	3368026112	39	4101
2026-01-02 14:46:25.57	321.70	38.97	-34.7	-35.6	22.5	0.00e+00	0	40	0	3375366144	39	4058
2026-01-02 14:46:26.57	321.90	38.75	-34.7	-35.5	22.7	0.00e+00	0	40	0	3382706176	39	4045
2026-01-02 14:46:27.57	322.09	38.52	-34.6	-35.5	22.7	0.00e+00	0	40	0	3390046208	39	4009
2026-01-02 14:46:28.58	322.29	38.29	-34.5	-35.4	22.8	0.00e+00	0	40	0	3397386240	39	3979
2026-01-02 14:46:29.58	322.48	38.07	-34.5	-35.3	22.9	0.00e+00	0	40	0	3404726272	39	3953
2026-01-02 14:46:30.58	322.67	37.85	-34.6	-35.5	22.7	0.00e+00	0	40	0	3412066304	39	4025
2026-01-02 14:46:31.56	322.85	37.63	-34.6	-35.5	22.7	0.00e+00	0	40	0	3419406336	39	4032
2026-01-02 14:46:32.57	323.04	37.41	-34.6	-35.5	22.7	0.00e+00	0	40	0	3426746368	39	4030
2026-01-02 14:46:33.57	323.22	37.19	-34.6	-35.5	22.7	0.00e+00	0	40	0	3433037824	39	4019
2026-01-02 14:46:34.57	323.40	36.97	-34.4	-35.3	22.9	0.00e+00	0	40	0	3440377856	39	3951
2026-01-02 14:46:35.57	323.58	36.75	-34.5	-35.4	22.8	0.00e+00	0	40	0	3447717888	39	3992
2026-01-02 14:46:36.57	323.75	36.54	-34.4	-35.3	23.0	0.00e+00	0	40	0	3455057920	39	3918
2026-01-02 14:46:37.57	323.92	36.32	-34.2	-35.1	22.6	0.00e+00	0	40	0	3462397952	39	3854
2026-01-02 14:46:38.56	324.09	36.11	-34.3	-35.1	22.7	0.00e+00	0	40	0	3469737984	39	3853
2026-01-02 14:46:39.57	324.26	35.90	-34.2	-35.1	23.1	0.00e+00	0	40	0	3477078016	39	3838
2026-01-02 14:46:40.57	324.43	35.69	-34.3	-35.2	22.9	0.00e+00	0	40	0	3484418048	39	3869
2026-01-02 14:46:41.57	324.59	35.48	-34.3	-35.1	23.0	0.00e+00	0	40	0	3491758080	39	3868
2026-01-02 14:46:42.56	324.75	35.27	-34.4	-35.2	23.0	0.00e+00	0	40	0	3498049536	39	3895
2026-01-02 14:46:43.56	324.91	35.06	-34.4	-35.3	22.9	0.00e+00	0	40	0	3505389568	39	3925
2026-01-02 14:46:44.57	325.07	34.85	-34.4	-35.2	22.9	0.00e+00	0	40	0	3512729600	39	3913
2026-01-02 14:46:45.57	325.23	34.65	-34.4	-35.2	22.9	0.00e+00	0	40	0	3520069632	39	3907
2026-01-02 14:46:46.57	325.38	34.44	-34.3	-35.1	23.1	0.00e+00	0	40	0	3527409664	39	3866
2026-01-02 14:46:47.57	325.54	34.24	-34.2	-35.1	23.1	0.00e+00	0	40	0	3534749696	39	3848
2026-01-02 14:46:48.58	325.69	34.04	-34.1	-35.0	23.0	0.00e+00	0	40	0	3542089728	39	3804
2026-01-02 14:46:49.57	325.83	33.84	-34.1	-35.0	23.2	0.00e+00	0	40	0	3549429760	38	4021
2026-01-02 14:46:50.57	325.98	33.64	-34.2	-35.0	23.1	0.00e+00	0	40	0	3555721216	38	4037
2026-01-02 14:46:51.57	326.13	33.44	-34.1	-35.0	23.2	0.00e+00	0	40	0	3563061248	38	4013
2026-01-02 14:46:52.57	326.27	33.24	-34.0	-34.9	23.3	0.00e+00	0	40	0	3570401280	38	3971
2026-01-02 14:46:53.57	326.41	33.04	-34.1	-34.9	23.2	0.00e+00	0	40	0	3577741312	38	3992
2026-01-02 14:46:54.57	326.55	32.85	-34.1	-34.9	23.2	0.00e+00	0	40	0	3585081344	38	3995
2026-01-02 14:46:55.57	326.69	32.65	-34.1	-34.9	23.2	0.00e+00	0	40	0	3592421376	38	3997
2026-01-02 14:46:56.57	326.83	32.46	-34.1	-35.0	23.2	0.00e+00	0	40	0	3599761408	38	4019
2026-01-02 14:46:57.58	326.96	32.27	-34.1	-35.0	23.2	0.00e+00	0	40	0	3607101440	38	4014
2026-01-02 14:46:58.57	327.10	32.08	-34.2	-35.1	23.0	0.00e+00	0	40	0	3614441472	38	4062
2026-01-02 14:46:59.57	327.23	31.89	-34.2	-35.1	23.1	0.00e+00	0	40	0	3620732928	38	4058
2026-01-02 14:47:00.57	327.36	31.70	-34.2	-35.0	23.1	0.00e+00	0	40	0	3628072960	38	4046
2026-01-02 14:47:01.57	327.49	31.51	-34.2	-35.1	23.1	0.00e+00	0	40	0	3635412992	38	4061
2026-01-02 14:47:02.57	327.62	31.32	-34.2	-35.0	23.1	0.00e+00	0	40	0	3642753024	38	4044
2026-01-02 14:47:03.57	327.74	31.14	-34.2	-35.0	23.1	0.00e+00	0	40	0	3650093056	38	4038
2026-01-02 14:47:04.57	327.87	30.95	-34.2	-35.0	23.1	0.00e+00	0	40	0	3657433088	38	4044
2026-01-02 14:47:05.58	327.99	30.77	-34.2	-35.0	23.1	0.00e+00	0	40	0	3664773120	38	4049
2026-01-02 14:47:06.58	328.12	30.58	-34.1	-35.0	23.1	0.00e+00	0	40	0	3672113152	38	4030
2026-01-02 14:47:07.59	328.24	30.40	-34.2	-35.0	23.1	0.00e+00	0	40	0	3679453184	38	4033
2026-01-02 14:47:08.59	328.36	30.22	-34.1	-35.0	23.0	0.00e+00	0	40	0	3685744640	38	4039
2026-01-02 14:47:09.58	328.47	30.04	-34.2	-35.1	23.0	0.00e+00	0	40	0	3693084672	38	4071
2026-01-02 14:47:10.58	328.59	29.86	-34.2	-35.1	23.0	0.00e+00	0	40	0	3700424704	38	4089
2026-01-02 14:47:11.58	328.71	29.69	-34.2	-35.1	23.0	0.00e+00	0	40	0	3707764736	38	4073
2026-01-02 14:47:12.58	328.82	29.51	-34.3	-35.2	22.9	0.00e+00	0	40	0	3715104768	38	4135
2026-01-02 14:47:13.58	328.94	29.33	-34.5	-35.4	22.7	0.00e+00	0	40	0	3722444800	38	4209
2026-01-02 14:47:14.58	329.05	29.16	-34.4	-35.3	22.8	0.00e+00	0	40	0	3729784832	38	4177
2026-01-02 14:47:15.58	329.16	28.99	-34.5	-35.4	22.8	0.00e+00	0	40	0	3737124864	38	4206
2026-01-02 14:47:16.58	329.27	28.81	-34.5	-35.4	22.8	0.00e+00	0	40	0	3743416320	38	4198
2026-01-02 14:47:17.58	329.38	28.64	-34.5	-35.4	22.8	0.00e+00	0	40	0	3750756352	38	4215
2026-01-02 14:47:18.58	329.49	28.47	-34.7	-35.6	22.6	0.00e+00	0	40	0	3758096384	38	4298
2026-01-02 14:47:19.59	329.59	28.30	-34.5	-35.4	22.7	0.00e+00	0	40	0	3765436416	38	4207
2026-01-02 14:47:20.59	329.70	28.13	-34.6	-35.4	22.7	0.00e+00	0	40	0	3772776448	38	4238
2026-01-02 14:47:21.58	329.80	27.96	-34.6	-35.4	22.8	0.00e+00	0	40	0	3780116480	38	4223
2026-01-02 14:47:22.59	329.91	27.79	-34.6	-35.4	22.7	0.00e+00	0	40	0	3787456512	38	4241
2026-01-02 14:47:23.59	330.01	27.63	-34.6	-35.4	22.8	0.00e+00	0	40	0	3794796544	38	4228
2026-01-02 14:47:24.59	330.11	27.46	-34.6	-35.4	22.8	0.00e+00	0	40	0	3802136576	38	4236
2026-01-02 14:47:25.59	330.21	27.30	-34.5	-35.4	22.8	0.00e+00	0	40	0	3808428032	38	4195
2026-01-02 14:47:26.59	330.31	27.13	-34.6	-35.5	22.6	0.00e+00	0	40	0	3815768064	38	4269
2026-01-02 14:47:27.59	330.41	26.97	-34.6	-35.6	22.6	0.00e+00	0	40	0	3823108096	38	4303
2026-01-02 14:47:28.60	330.51	26.81	-34.5	-35.4	22.8	0.00e+00	0	40	0	3830448128	38	4221
2026-01-02 14:47:29.60	330.60	26.65	-34.4	-35.4	22.6	0.00e+00	0	40	0	3837788160	38	4205
2026-01-02 14:47:30.60	330.70	26.49	-34.5	-35.4	22.7	0.00e+00	0	40	0	3845128192	38	4232
2026-01-02 14:47:31.60	330.79	26.33	-34.4	-35.3	22.8	0.00e+00	0	40	0	3852468224	38	4190
2026-01-02 14:47:32.60	330.89	26.17	-34.4	-35.3	22.8	0.00e+00	0	40	0	3859808256	38	4177
2026-01-02 14:47:33.60	330.98	26.01	-34.4	-35.3	22.9	0.00e+00	0	40	0	3867148288	38	4150
2026-01-02 14:47:34.60	331.07	25.86	-34.5	-35.4	22.7	0.00e+00	0	40	0	3874488320	38	4216
2026-01-02 14:47:35.61	331.17	25.70	-34.5	-35.3	22.8	0.00e+00	0	40	0	3881828352	38	4190
2026-01-02 14:47:36.61	331.26	25.54	-34.4	-35.2	22.9	0.00e+00	0	40	0	3888119808	38	4138
2026-01-02 14:47:37.61	331.35	25.39	-34.3	-35.2	22.9	0.00e+00	0	40	0	3895459840	38	4117
2026-01-02 14:47:38.61	331.43	25.24	-34.3	-35.2	23.0	0.00e+00	0	40	0	3902799872	38	4099
2026-01-02 14:47:39.61	331.52	25.08	-34.4	-35.2	22.9	0.00e+00	0	40	0	3910139904	38	4139
2026-01-02 14:47:40.61	331.61	24.93	-34.4	-35.2	22.9	0.00e+00	0	40	0	3917479936	38	4139
2026-01-02 14:47:41.62	331.70	24.78	-34.4	-35.3	22.9	0.00e+00	0	40	0	3924819968	38	4152
2026-01-02 14:47:42.62	331.78	24.63	-34.5	-35.3	22.8	0.00e+00	0	40	0	3932160000	38	4175
2026-01-02 14:47:43.62	331.87	24.48	-34.5	-35.4	22.8	0.00e+00	0	40	0	3939500032	38	4196
2026-01-02 14:47:44.62	331.95	24.33	-34.6	-35.4	22.7	0.00e+00	0	40	0	3946840064	38	4223
2026-01-02 14:47:45.62	332.03	24.19	-34.7	-35.5	22.6	0.00e+00	0	40	0	3953131520	38	4282
2026-01-02 14:47:46.62	332.12	24.04	-34.7	-35.6	22.6	0.00e+00	0	40	0	3960471552	38	4304
2026-01-02 14:47:47.63	332.20	23.89	-34.8	-35.6	22.5	0.00e+00	0	40	0	3967811584	39	4093
2026-01-02 14:47:48.63	332.28	23.75	-34.8	-35.7	22.4	0.00e+00	0	40	0	3975151616	39	4127
2026-01-02 14:47:49.63	332.36	23.60	-35.0	-35.9	22.3	0.00e+00	0	40	0	3982491648	39	4209
2026-01-02 14:47:50.63	332.44	23.46	-34.8	-35.8	22.4	0.00e+00	0	40	0	3989831680	39	4153
2026-01-02 14:47:51.63	332.52	23.32	-34.9	-35.8	22.4	0.00e+00	0	40	0	3997171712	39	4174
2026-01-02 14:47:52.63	332.60	23.17	-34.9	-35.8	22.3	0.00e+00	0	40	0	4004511744	39	4191
2026-01-02 14:47:53.63	332.67	23.03	-34.9	-35.9	22.3	0.00e+00	0	40	0	4011851776	39	4194
2026-01-02 14:47:54.63	332.75	22.89	-35.0	-35.9	22.3	0.00e+00	0	40	0	4018143232	39	4213
2026-01-02 14:47:55.63	332.83	22.75	-35.0	-35.9	22.2	0.00e+00	0	40	0	4025483264	39	4230
2026-01-02 14:47:56.63	332.90	22.61	-35.0	-35.9	22.2	0.00e+00	0	40	0	4032823296	39	4206
2026-01-02 14:47:57.63	332.98	22.47	-35.1	-36.0	22.2	0.00e+00	0	40	0	4040163328	39	4256
2026-01-02 14:47:58.64	333.05	22.33	-35.1	-36.0	22.1	0.00e+00	0	40	0	4047503360	39	4275
2026-01-02 14:47:59.64	333.13	22.20	-35.0	-35.9	22.3	0.00e+00	0	40	0	4054843392	39	4231
2026-01-02 14:48:00.64	333.20	22.06	-35.1	-36.0	22.2	0.00e+00	0	40	0	4062183424	39	4251
2026-01-02 14:48:01.64	333.27	21.92	-35.0	-35.9	22.2	0.00e+00	0	40	0	4069523456	39	4220
2026-01-02 14:48:02.64	333.34	21.79	-35.1	-36.0	22.2	0.00e+00	0	40	0	4075814912	39	4267
2026-01-02 14:48:03.65	333.42	21.65	-35.1	-36.0	22.2	0.00e+00	0	40	0	4083154944	39	4260
2026-01-02 14:48:04.65	333.49	21.52	-35.2	-36.1	22.1	0.00e+00	0	40	0	4091543552	39	4294
2026-01-02 14:48:05.66	333.56	21.38	-35.2	-36.0	22.1	0.00e+00	0	40	0	4097835008	39	4285
2026-01-02 14:48:06.66	333.63	21.25	-35.1	-36.0	22.1	0.00e+00	0	40	0	4105175040	39	4262
2026-01-02 14:48:07.66	333.70	21.12	-35.1	-36.0	22.1	0.00e+00	0	40	0	4112515072	39	4283
2026-01-02 14:48:08.66	333.77	20.99	-35.2	-36.0	22.1	0.00e+00	0	40	0	4119855104	39	4291
2026-01-02 14:48:09.66	333.83	20.86	-35.1	-36.0	22.1	0.00e+00	0	40	0	4127195136	39	4283
2026-01-02 14:48:10.67	333.90	20.73	-35.2	-36.1	22.1	0.00e+00	0	40	0	4134535168	39	4295
2026-01-02 14:48:11.67	333.97	20.60	-35.2	-36.1	21.9	0.00e+00	0	40	0	4141875200	40	4091
2026-01-02 14:48:12.67	334.03	20.47	-35.2	-36.2	21.9	0.00e+00	0	40	0	4149215232	40	4109
2026-01-02 14:48:13.67	334.10	20.34	-35.1	-36.1	22.0	0.00e+00	0	40	0	4156555264	40	4063
2026-01-02 14:48:14.67	334.17	20.21	-35.2	-36.1	21.9	0.00e+00	0	40	0	4162846720	40	4094
2026-01-02 14:48:15.67	334.23	20.09	-35.2	-36.2	21.9	0.00e+00	0	40	0	4170186752	40	4110
2026-01-02 14:48:16.68	334.30	19.96	-35.2	-36.2	21.9	0.00e+00	0	40	0	4177526784	40	4123
2026-01-02 14:48:17.68	334.36	19.84	-35.3	-36.3	21.7	0.00e+00	0	40	0	4184866816	40	4155
2026-01-02 14:48:18.68	334.42	19.71	-35.3	-36.3	21.8	0.00e+00	0	40	0	4192206848	40	4175
2026-01-02 14:48:19.68	334.49	19.59	-35.5	-36.5	21.6	0.00e+00	0	40	0	4199546880	40	4255
2026-01-02 14:48:20.68	334.55	19.46	-35.5	-36.4	21.6	0.00e+00	0	40	0	4206886912	40	4238
2026-01-02 14:48:21.68	334.61	19.34	-35.5	-36.5	21.6	0.00e+00	0	40	0	4214226944	40	4244
2026-01-02 14:48:22.69	334.67	19.22	-35.6	-36.5	21.6	0.00e+00	0	40	0	4221566976	40	4268
2026-01-02 14:48:23.69	334.73	19.09	-35.6	-36.6	21.5	0.00e+00	0	40	0	4227858432	40	4309
2026-01-02 14:48:24.69	334.79	18.97	-35.7	-36.6	21.5	0.00e+00	0	40	0	4235198464	40	4333
2026-01-02 14:48:25.69	334.85	18.85	-35.7	-36.7	21.4	0.00e+00	0	40	0	4242538496	40	4341
2026-01-02 14:48:26.70	334.91	18.73	-35.8	-36.7	21.4	0.00e+00	0	40	0	4249878528	41	4143
2026-01-02 14:48:27.70	334.97	18.61	-35.8	-36.7	21.4	0.00e+00	0	40	0	4257218560	41	4142
2026-01-02 14:48:28.69	335.03	18.49	-35.8	-36.8	21.3	0.00e+00	0	40	0	4264558592	41	4150
2026-01-02 14:48:29.70	335.09	18.37	-35.8	-36.8	21.3	0.00e+00	0	40	0	4271898624	41	4154
2026-01-02 14:48:30.70	335.15	18.25	-35.9	-36.9	21.2	0.00e+00	0	40	0	4279238656	41	4208
2026-01-02 14:48:31.70	335.21	18.14	-35.8	-36.8	21.3	0.00e+00	0	40	0	4286578688	41	4168
2026-01-02 14:48:32.70	335.26	18.02	-35.9	-36.9	21.3	0.00e+00	0	40	0	4293918720	41	4194
2026-01-02 14:48:33.71	335.32	17.90	-35.9	-36.9	21.2	0.00e+00	0	40	0	4301258752	41	4216
2026-01-02 14:48:34.71	335.38	17.79	-35.9	-36.9	21.2	0.00e+00	0	40	0	4307550208	41	4217
2026-01-02 14:48:35.71	335.43	17.67	-35.9	-36.9	21.2	0.00e+00	0	40	0	4314890240	41	4206
2026-01-02 14:48:36.71	335.49	17.56	-35.9	-36.8	21.3	0.00e+00	0	40	0	4322230272	41	4187
2026-01-02 14:48:37.71	335.54	17.44	-36.0	-37.0	21.2	0.00e+00	0	40	0	4329570304	41	4247
2026-01-02 14:48:38.71	335.60	17.33	-36.1	-37.1	21.0	0.00e+00	0	40	0	4336910336	41	4298
2026-01-02 14:48:39.71	335.65	17.21	-36.1	-37.1	21.1	0.00e+00	0	40	0	4344250368	41	4299
2026-01-02 14:48:40.71	335.71	17.10	-36.0	-36.9	21.2	0.00e+00	0	40	0	4351590400	41	4216
2026-01-02 14:48:41.72	335.76	16.99	-36.0	-37.0	21.1	0.00e+00	0	40	0	4358930432	41	4243
2026-01-02 14:48:42.72	335.81	16.88	-36.0	-36.9	21.2	0.00e+00	0	40	0	4366270464	41	4216
2026-01-02 14:48:43.72	335.87	16.76	-36.1	-37.0	21.1	0.00e+00	0	40	0	4372561920	41	4264
2026-01-02 14:48:44.71	335.92	16.66	-36.1	-37.1	21.0	0.00e+00	0	40	0	4379901952	41	4297
2026-01-02 14:48:45.72	335.97	16.54	-36.0	-37.0	21.1	0.00e+00	0	40	0	4387241984	41	4249
2026-01-02 14:48:46.72	336.02	16.43	-36.1	-37.0	21.1	0.00e+00	0	40	0	4394582016	41	4283
2026-01-02 14:48:47.72	336.07	16.32	-36.0	-37.0	21.1	0.00e+00	0	40	0	4401922048	41	4246
2026-01-02 14:48:48.72	336.13	16.22	-36.1	-37.0	21.1	0.00e+00	0	40	0	4409262080	41	4281
2026-01-02 14:48:49.72	336.18	16.11	-36.1	-37.1	21.0	0.00e+00	0	40	0	4416602112	41	4309
2026-01-02 14:48:50.73	336.23	16.00	-36.0	-37.0	21.1	0.00e+00	0	40	0	4423942144	41	4268
2026-01-02 14:48:51.73	336.28	15.89	-36.1	-37.1	21.0	0.00e+00	0	40	0	4430233600	41	4299
2026-01-02 14:48:52.72	336.33	15.78	-36.2	-37.1	21.0	0.00e+00	0	40	0	4437573632	41	4336
2026-01-02 14:48:53.73	336.38	15.68	-36.2	-37.2	20.9	0.00e+00	0	40	0	4444913664	41	4385
2026-01-02 14:48:54.73	336.43	15.57	-36.2	-37.1	20.9	0.00e+00	0	40	0	4452253696	41	4333
2026-01-02 14:48:55.73	336.48	15.46	-36.2	-37.2	21.0	0.00e+00	0	40	0	4459593728	41	4341
2026-01-02 14:48:56.73	336.52	15.36	-36.3	-37.3	20.8	0.00e+00	0	40	0	4466933760	42	4149
2026-01-02 14:48:57.73	336.57	15.25	-36.2	-37.2	20.9	0.00e+00	0	40	0	4474273792	42	4125
2026-01-02 14:48:58.73	336.62	15.15	-36.3	-37.3	20.8	0.00e+00	0	40	0	4481613824	42	4169
2026-01-02 14:48:59.73	336.67	15.05	-36.4	-37.3	20.7	0.00e+00	0	40	0	4488953856	42	4191
2026-01-02 14:49:00.74	336.72	14.94	-36.3	-37.2	20.9	0.00e+00	0	40	0	4495245312	42	4137
2026-01-02 14:49:01.74	336.76	14.84	-36.3	-37.3	20.8	0.00e+00	0	40	0	4502585344	42	4176
2026-01-02 14:49:02.74	336.81	14.74	-36.4	-37.4	20.7	0.00e+00	0	40	0	4509925376	42	4214
2026-01-02 14:49:03.74	336.86	14.63	-36.5	-37.5	20.6	0.00e+00	0	40	0	4517265408	42	4256
2026-01-02 14:49:04.75	336.90	14.53	-36.6	-37.6	20.5	0.00e+00	0	40	0	4524605440	42	4328
2026-01-02 14:49:05.75	336.95	14.43	-36.5	-37.6	20.5	0.00e+00	0	40	0	4531945472	42	4310
2026-01-02 14:49:06.75	336.99	14.33	-36.4	-37.5	20.6	0.00e+00	0	40	0	4539285504	42	4251
2026-01-02 14:49:07.75	337.04	14.23	-36.5	-37.5	20.5	0.00e+00	0	40	0	4546625536	42	4287
2026-01-02 14:49:08.74	337.08	14.13	-36.5	-37.6	20.5	0.00e+00	0	40	0	4553965568	42	4294
2026-01-02 14:49:09.74	337.13	14.03	-36.5	-37.6	20.5	0.00e+00	0	40	0	4560257024	42	4313
2026-01-02 14:49:10.75	337.17	13.93	-36.4	-37.6	20.5	0.00e+00	0	40	0	4567597056	42	4297
2026-01-02 14:49:11.75	337.22	13.83	-36.5	-37.7	20.4	0.00e+00	0	40	0	4575985664	42	4350
2026-01-02 14:49:12.75	337.26	13.73	-36.6	-37.7	20.4	0.00e+00	0	40	0	4582277120	42	4365
2026-01-02 14:49:13.76	337.31	13.63	-36.6	-37.7	20.4	0.00e+00	0	40	0	4589617152	42	4376
2026-01-02 14:49:14.76	337.35	13.53	-36.7	-37.8	20.3	0.00e+00	0	40	0	4596957184	42	4431
2026-01-02 14:49:15.76	337.39	13.44	-36.7	-37.8	20.2	0.00e+00	0	40	0	4604297216	42	4440
2026-01-02 14:49:16.76	337.44	13.34	-36.8	-37.9	20.2	0.00e+00	0	40	0	4611637248	43	4203
2026-01-02 14:49:17.76	337.48	13.24	-36.9	-38.0	20.1	0.00e+00	0	40	0	4618977280	43	4245
2026-01-02 14:49:18.76	337.52	13.15	-36.9	-38.0	20.1	0.00e+00	0	40	0	4626317312	43	4244
2026-01-02 14:49:19.77	337.56	13.05	-37.0	-38.1	20.0	0.00e+00	0	40	0	4633657344	43	4321
2026-01-02 14:49:20.77	337.60	12.95	-37.0	-38.0	20.0	0.00e+00	0	40	0	4639948800	43	4289
2026-01-02 14:49:21.77	337.65	12.86	-36.9	-38.0	20.0	0.00e+00	0	40	0	4647288832	43	4270
2026-01-02 14:49:22.77	337.69	12.76	-37.0	-38.1	19.8	0.00e+00	0	40	0	4654628864	43	4325
2026-01-02 14:49:23.78	337.73	12.67	-36.9	-38.0	20.1	0.00e+00	0	40	0	4661968896	43	4272
2026-01-02 14:49:24.78	337.77	12.57	-37.0	-38.1	19.9	0.00e+00	0	40	0	4669308928	43	4322
2026-01-02 14:49:25.78	337.81	12.48	-37.1	-38.2	19.8	0.00e+00	0	40	0	4676648960	43	4358
2026-01-02 14:49:26.78	337.85	12.39	-37.2	-38.3	19.7	0.00e+00	0	40	0	4683988992	43	4434
2026-01-02 14:49:27.79	337.89	12.29	-37.0	-38.2	19.9	0.00e+00	0	40	0	4691329024	43	4350
2026-01-02 14:49:28.79	337.93	12.20	-37.1	-38.2	19.8	0.00e+00	0	40	0	4698669056	43	4391
