passes_logs/2026/01/02/T1/T1__20260102_080141_NOAA_21_JPSS-2_rec.log

#Pass ID: 20260102_080141_NOAA 21 (JPSS-2)
#Satellite: NOAA 21 (JPSS-2)
#Configuration: NOAA 21
#almurnet v.1.7.20251203
#Start time: 2026-01-02 08:01:43

#Version: 2.0.20230620
#Station: T1
#Location: 37.570604 lon 55.790049 lat
#TLE: 1 54234U 22150A   26001.26806856  .00000185  00000+0  10843-3 0  9990
#TLE: 2 54234  98.7484 302.3349 0001277 353.3887   6.7272 14.19530660162860

#Time	Az	El	Level	Level2	SNR	BER	BlckErr	Temp	State	Recorded	gain1	gain2
2026-01-02 08:01:43.32	99.45	5.11	-49.2	-62.3	3.8	1.49e+00	0	38	0	0	70	15826
2026-01-02 08:01:44.31	99.36	5.17	-49.2	-62.2	3.8	1.49e+00	0	38	104	0	70	15605
2026-01-02 08:01:45.32	99.27	5.22	-49.2	-62.2	3.8	1.49e+00	0	38	104	0	70	15590
2026-01-02 08:01:46.32	99.17	5.28	-49.2	-62.2	3.8	1.49e+00	0	38	104	0	70	15592
2026-01-02 08:01:47.33	99.07	5.34	-49.2	-62.1	3.8	1.49e+00	0	38	104	0	70	15572
2026-01-02 08:01:48.33	98.98	5.39	-49.2	-62.1	3.8	1.49e+00	0	38	104	0	70	15544
2026-01-02 08:01:49.34	98.88	5.45	-49.2	-62.2	3.8	1.49e+00	0	38	104	0	70	15655
2026-01-02 08:01:50.34	98.79	5.51	-49.2	-62.2	3.8	1.49e+00	0	38	104	0	70	15590
2026-01-02 08:01:51.34	98.69	5.56	-49.2	-62.2	3.8	1.49e+00	0	38	104	0	70	15684
2026-01-02 08:01:52.35	98.59	5.62	-49.2	-62.2	3.8	1.49e+00	0	38	104	0	70	15607
2026-01-02 08:01:53.35	98.49	5.68	-49.2	-62.2	3.8	1.49e+00	0	38	104	0	70	15643
2026-01-02 08:01:54.36	98.39	5.74	-49.2	-62.2	3.8	1.49e+00	0	38	104	0	70	15640
2026-01-02 08:01:55.36	98.30	5.79	-49.2	-62.2	3.8	1.49e+00	0	38	104	0	70	15631
2026-01-02 08:01:56.37	98.20	5.85	-49.2	-62.2	3.8	1.49e+00	0	38	104	0	70	15618
2026-01-02 08:01:57.37	98.10	5.91	-49.2	-62.2	3.8	1.49e+00	0	38	104	0	70	15631
2026-01-02 08:01:58.37	98.00	5.97	-49.2	-62.2	3.8	1.49e+00	0	38	104	0	70	15660
2026-01-02 08:01:59.38	97.90	6.02	-49.2	-62.2	3.8	1.49e+00	0	38	104	0	70	15633
2026-01-02 08:02:00.38	97.80	6.08	-49.2	-62.1	3.8	1.49e+00	0	38	104	0	70	15578
2026-01-02 08:02:01.39	97.69	6.14	-49.2	-62.1	3.8	1.49e+00	0	38	104	0	70	15520
2026-01-02 08:02:02.39	97.59	6.20	-49.2	-62.1	3.8	1.49e+00	0	39	104	0	70	15512
2026-01-02 08:02:03.40	97.49	6.26	-49.1	-62.1	3.8	1.49e+00	0	39	104	0	70	15451
2026-01-02 08:02:04.40	97.39	6.31	-49.1	-62.0	3.8	1.49e+00	0	39	104	0	70	15304
2026-01-02 08:02:05.40	97.28	6.37	-49.1	-61.9	3.8	1.49e+00	0	39	104	0	70	15115
2026-01-02 08:02:06.41	97.18	6.43	-49.1	-61.8	3.8	1.49e+00	0	39	104	0	70	14975
2026-01-02 08:02:07.41	97.08	6.49	-49.1	-61.7	3.8	1.49e+00	0	38	104	0	70	14778
2026-01-02 08:02:08.42	96.97	6.55	-49.1	-61.6	3.8	1.49e+00	0	39	104	0	70	14654
2026-01-02 08:02:09.42	96.87	6.60	-49.1	-61.5	3.8	1.49e+00	0	39	104	0	70	14532
2026-01-02 08:02:10.43	96.76	6.66	-49.1	-61.6	3.8	1.49e+00	0	39	104	0	70	14558
2026-01-02 08:02:11.43	96.66	6.72	-49.1	-61.6	3.8	1.49e+00	0	39	104	0	70	14599
2026-01-02 08:02:12.43	96.55	6.78	-49.1	-61.7	3.8	1.49e+00	0	39	104	0	70	14738
2026-01-02 08:02:13.44	96.45	6.84	-49.1	-61.7	3.8	1.49e+00	0	39	104	0	70	14759
2026-01-02 08:02:14.44	96.34	6.89	-49.1	-61.7	3.8	1.49e+00	0	39	104	0	70	14790
2026-01-02 08:02:15.44	96.23	6.95	-49.1	-61.7	3.8	1.49e+00	0	39	104	0	70	14850
2026-01-02 08:02:16.45	96.12	7.01	-49.1	-61.7	3.8	1.49e+00	0	39	104	0	70	14733
2026-01-02 08:02:17.45	96.02	7.07	-49.1	-61.6	3.8	1.49e+00	0	39	104	0	70	14573
2026-01-02 08:02:18.46	95.91	7.13	-49.1	-61.4	3.8	1.49e+00	0	39	104	0	70	14216
2026-01-02 08:02:19.46	95.80	7.19	-49.0	-61.1	3.8	1.49e+00	0	39	104	0	70	13822
2026-01-02 08:02:20.47	95.69	7.24	-49.0	-60.8	3.8	1.49e+00	0	39	104	0	70	13319
2026-01-02 08:02:21.47	95.58	7.30	-49.0	-60.5	3.8	1.49e+00	0	39	104	0	70	12919
2026-01-02 08:02:22.48	95.47	7.36	-48.9	-60.0	3.9	1.49e+00	0	39	104	0	69	12848
2026-01-02 08:02:23.48	95.36	7.42	-48.9	-59.9	4.0	1.48e+00	0	39	104	0	69	12689
2026-01-02 08:02:24.48	95.25	7.48	-48.9	-59.7	4.0	1.48e+00	0	39	104	0	69	12484
2026-01-02 08:02:25.49	95.14	7.54	-48.9	-59.9	3.9	1.48e+00	0	39	104	0	69	12709
2026-01-02 08:02:26.49	95.02	7.60	-48.9	-59.9	3.9	1.48e+00	0	39	104	0	69	12717
2026-01-02 08:02:27.50	94.91	7.65	-48.8	-59.6	3.9	1.48e+00	0	39	104	0	69	12312
2026-01-02 08:02:28.50	94.80	7.71	-48.8	-58.6	4.2	1.47e+00	0	39	104	0	69	10939
2026-01-02 08:02:29.50	94.69	7.77	-48.6	-57.8	4.5	1.42e+00	0	39	104	0	69	9993
2026-01-02 08:02:30.51	94.57	7.83	-48.5	-57.1	4.8	1.13e+00	0	39	104	0	69	9178
2026-01-02 08:02:31.51	94.46	7.89	-48.4	-56.2	5.3	6.46e-01	0	39	0	0	68	8816
2026-01-02 08:02:32.52	94.34	7.95	-48.2	-55.7	5.6	4.77e-01	0	39	0	0	68	8314
2026-01-02 08:02:33.52	94.23	8.01	-48.3	-56.0	5.4	4.69e-01	0	39	0	0	68	8567
2026-01-02 08:02:34.53	94.11	8.07	-48.5	-57.7	4.0	6.86e-01	0	39	104	0	68	10437
2026-01-02 08:02:35.53	93.99	8.12	-48.8	-59.1	4.1	1.45e+00	0	39	104	0	68	12317
2026-01-02 08:02:36.54	93.88	8.18	-49.1	-62.0	3.8	1.49e+00	0	39	104	0	68	17088
2026-01-02 08:02:37.54	93.76	8.24	-48.8	-59.6	3.9	1.49e+00	0	39	104	0	68	12977
2026-01-02 08:02:38.54	93.64	8.30	-47.7	-53.9	6.8	4.41e-01	0	39	0	0	67	7178
2026-01-02 08:02:39.55	93.52	8.36	-46.1	-50.3	10.5	1.56e-02	0	39	0	0	64	5598
2026-01-02 08:02:40.55	93.41	8.42	-44.6	-47.7	13.2	7.01e-05	0	39	0	0	61	4938
2026-01-02 08:02:41.56	93.29	8.48	-43.5	-46.0	14.8	0.00e+00	0	39	0	0	59	4595
2026-01-02 08:02:42.56	93.17	8.54	-42.8	-45.1	15.7	0.00e+00	0	39	0	0	57	4646
2026-01-02 08:02:43.56	93.05	8.60	-42.4	-44.7	16.2	0.00e+00	0	39	0	0	56	4666
2026-01-02 08:02:44.57	92.93	8.66	-42.6	-44.9	16.0	0.00e+00	0	39	0	0	56	4761
2026-01-02 08:02:45.57	92.80	8.72	-43.1	-45.5	15.4	0.00e+00	0	39	0	0	56	5133
2026-01-02 08:02:46.58	92.68	8.77	-44.0	-46.7	14.2	0.00e+00	0	40	0	0	58	5245
2026-01-02 08:02:47.58	92.56	8.83	-45.1	-48.4	12.5	5.03e-05	0	40	0	0	60	5711
2026-01-02 08:02:48.59	92.44	8.89	-46.4	-50.7	10.2	3.39e-03	0	39	0	0	63	6230
2026-01-02 08:02:49.59	92.31	8.95	-47.6	-53.8	6.9	5.82e-02	0	40	0	0	65	7985
2026-01-02 08:02:50.59	92.19	9.01	-48.5	-58.2	4.0	6.69e-01	0	40	104	0	67	11742
2026-01-02 08:02:51.60	92.07	9.07	-47.5	-53.6	7.0	1.45e+00	0	39	104	0	67	6940
2026-01-02 08:02:52.60	91.94	9.13	-45.9	-49.8	11.1	6.32e-03	0	40	0	0	63	5645
2026-01-02 08:02:53.60	91.82	9.19	-48.9	-60.5	3.8	3.48e-01	0	40	104	0	68	14448
2026-01-02 08:02:54.60	91.69	9.25	-47.5	-53.6	6.4	1.42e+00	0	39	104	0	67	6894
2026-01-02 08:02:55.69	91.55	9.31	-47.8	-54.5	6.5	1.97e-02	0	40	0	0	66	8117
2026-01-02 08:02:56.56	91.44	9.36	-46.4	-50.8	9.8	8.15e-01	0	40	0	0	65	5617
2026-01-02 08:02:57.71	91.30	9.43	-45.0	-48.3	12.8	4.04e-05	0	40	0	0	61	5285
2026-01-02 08:02:58.65	91.18	9.49	-44.9	-48.0	13.0	4.65e-05	0	40	0	0	61	5143
2026-01-02 08:02:59.65	91.05	9.55	-44.6	-47.7	13.4	1.75e-05	0	40	0	0	61	4929
2026-01-02 08:03:00.65	90.92	9.60	-44.2	-47.0	14.1	2.20e-06	0	40	0	0	60	4828
2026-01-02 08:03:01.66	90.79	9.66	-43.9	-46.5	14.5	7.00e-07	0	40	0	0	59	4852
2026-01-02 08:03:02.66	90.66	9.72	-43.2	-45.6	15.4	7.00e-07	0	40	0	0	58	4635
2026-01-02 08:03:03.96	90.49	9.80	-42.8	-45.1	16.0	0.00e+00	0	40	0	0	57	4607
2026-01-02 08:03:04.71	90.40	9.84	-42.5	-44.7	16.3	0.00e+00	0	40	0	0	57	4423
2026-01-02 08:03:06.00	90.23	9.92	-42.1	-44.3	16.7	0.00e+00	0	40	0	0	56	4459
2026-01-02 08:03:06.71	90.13	9.96	-42.1	-44.3	16.7	0.00e+00	0	40	0	0	56	4460
2026-01-02 08:03:08.00	89.96	10.04	-41.7	-43.8	17.1	0.00e+00	0	40	0	0	55	4464
2026-01-02 08:03:08.71	89.87	10.08	-41.7	-43.8	17.1	0.00e+00	0	40	0	0	55	4459
2026-01-02 08:03:10.00	89.70	10.16	-41.2	-43.2	17.6	0.00e+00	0	40	0	0	54	4415
2026-01-02 08:03:10.72	89.60	10.20	-41.0	-43.0	17.8	0.00e+00	0	40	0	0	54	4329
2026-01-02 08:03:12.01	89.43	10.27	-41.1	-43.1	17.8	0.00e+00	0	40	0	0	54	4343
2026-01-02 08:03:12.73	89.33	10.32	-40.8	-42.8	18.0	0.00e+00	0	40	0	0	53	4473
2026-01-02 08:03:14.11	89.14	10.40	-40.8	-42.7	18.1	0.00e+00	0	40	0	0	53	4425
2026-01-02 08:03:14.83	89.04	10.44	-40.8	-42.8	18.0	0.00e+00	0	40	0	0	53	4466
2026-01-02 08:03:16.23	88.85	10.52	-40.8	-42.7	18.0	0.00e+00	0	40	0	0	53	4436
2026-01-02 08:03:16.94	88.75	10.57	-40.8	-42.8	18.0	0.00e+00	0	40	0	0	53	4462
2026-01-02 08:03:18.23	88.58	10.64	-41.0	-42.9	17.8	0.00e+00	0	40	0	0	53	4540
2026-01-02 08:03:18.95	88.48	10.68	-40.8	-42.8	18.0	0.00e+00	0	40	0	0	53	4471
2026-01-02 08:03:20.23	88.30	10.76	-40.9	-42.9	17.8	0.00e+00	0	40	0	0	53	4504
2026-01-02 08:03:20.95	88.20	10.80	-40.9	-42.9	17.9	0.00e+00	0	40	0	0	53	4508
2026-01-02 08:03:22.24	88.02	10.88	-40.9	-42.8	17.9	0.00e+00	0	40	0	0	53	4484
2026-01-02 08:03:22.96	87.92	10.92	-40.9	-42.9	17.9	0.00e+00	0	40	0	0	53	4523
2026-01-02 08:03:24.25	87.73	11.00	-40.9	-42.9	17.9	0.00e+00	0	40	0	0	53	4507
2026-01-02 08:03:25.01	87.63	11.04	-40.9	-42.9	17.9	0.00e+00	0	40	0	0	53	4512
2026-01-02 08:03:26.30	87.44	11.12	-41.0	-43.0	17.9	0.00e+00	0	40	0	0	53	4548
2026-01-02 08:03:27.12	87.33	11.16	-40.9	-42.9	17.9	0.00e+00	0	40	0	0	53	4518
2026-01-02 08:03:28.60	87.11	11.25	-40.9	-42.9	17.9	0.00e+00	0	40	0	0	53	4518
2026-01-02 08:03:29.31	87.01	11.29	-40.9	-42.9	17.9	0.00e+00	0	40	0	0	53	4527
2026-01-02 08:03:30.60	86.82	11.37	-40.9	-42.9	17.9	0.00e+00	0	40	0	0	53	4536
2026-01-02 08:03:31.32	86.72	11.41	-40.9	-42.9	17.9	0.00e+00	0	40	0	0	53	4506
2026-01-02 08:03:32.61	86.53	11.49	-40.9	-42.9	17.9	0.00e+00	0	40	0	0	53	4526
2026-01-02 08:03:33.36	86.42	11.53	-41.0	-43.0	17.9	0.00e+00	0	40	0	0	53	4546
2026-01-02 08:03:34.65	86.23	11.60	-41.0	-43.0	17.9	0.00e+00	0	40	0	0	53	4547
2026-01-02 08:03:35.36	86.12	11.65	-40.9	-42.9	17.9	0.00e+00	0	40	0	0	53	4524
2026-01-02 08:03:36.65	85.93	11.72	-40.8	-42.7	18.1	0.00e+00	0	40	0	0	53	4430
2026-01-02 08:03:37.48	85.81	11.77	-40.8	-42.8	18.0	0.00e+00	0	40	0	0	53	4476
2026-01-02 08:03:38.63	85.64	11.84	-40.8	-42.8	18.0	0.00e+00	0	40	0	0	53	4476
2026-01-02 08:03:39.49	85.51	11.89	-40.8	-42.8	18.0	0.00e+00	0	40	0	0	53	4443
2026-01-02 08:03:40.64	85.33	11.95	-40.7	-42.7	18.0	0.00e+00	0	40	0	0	53	4418
2026-01-02 08:03:41.49	85.20	12.00	-40.8	-42.7	18.0	0.00e+00	0	40	0	0	53	4437
2026-01-02 08:03:42.64	85.03	12.07	-40.7	-42.7	18.1	0.00e+00	0	40	0	0	53	4402
2026-01-02 08:03:43.50	84.90	12.12	-40.8	-42.8	17.9	0.00e+00	0	40	0	0	53	4474
2026-01-02 08:03:44.64	84.72	12.18	-40.8	-42.8	18.0	0.00e+00	0	40	0	0	53	4454
2026-01-02 08:03:45.51	84.59	12.23	-40.8	-42.9	17.9	0.00e+00	0	40	0	0	53	4504
2026-01-02 08:03:46.65	84.41	12.30	-40.9	-42.9	17.9	0.00e+00	0	40	0	0	53	4530
2026-01-02 08:03:47.51	84.28	12.35	-40.9	-42.9	17.9	0.00e+00	0	40	0	0	53	4540
2026-01-02 08:03:48.66	84.10	12.42	-40.8	-42.8	17.9	0.00e+00	0	40	0	0	53	4491
2026-01-02 08:03:49.52	83.97	12.47	-40.8	-42.8	18.0	0.00e+00	0	40	0	0	53	4462
2026-01-02 08:03:50.67	83.78	12.53	-40.8	-42.8	18.1	0.00e+00	0	40	0	0	53	4444
2026-01-02 08:03:51.70	83.62	12.59	-40.9	-42.9	17.9	0.00e+00	0	40	0	0	53	4505
2026-01-02 08:03:52.88	83.43	12.66	-40.9	-42.9	17.9	0.00e+00	0	40	0	0	53	4523
2026-01-02 08:03:53.73	83.30	12.71	-40.8	-42.8	18.0	0.00e+00	0	40	0	0	53	4470
2026-01-02 08:03:54.88	83.12	12.77	-40.9	-42.9	18.0	0.00e+00	0	40	0	0	53	4498
2026-01-02 08:03:55.74	82.98	12.82	-41.0	-43.0	17.9	0.00e+00	0	40	0	0	53	4563
2026-01-02 08:03:56.89	82.79	12.89	-41.0	-42.9	17.9	0.00e+00	0	40	0	0	53	4540
2026-01-02 08:03:57.75	82.65	12.94	-40.9	-42.9	18.0	0.00e+00	0	40	0	0	53	4506
2026-01-02 08:03:58.90	82.47	13.00	-40.9	-42.8	18.0	0.00e+00	0	40	0	0	53	4479
2026-01-02 08:03:59.76	82.33	13.05	-40.9	-42.9	18.0	0.00e+00	0	40	0	0	53	4496
2026-01-02 08:04:00.91	82.14	13.11	-40.9	-42.9	18.0	0.00e+00	0	40	0	0	53	4512
2026-01-02 08:04:01.76	82.00	13.16	-40.9	-42.9	18.0	0.00e+00	0	40	0	0	53	4520
2026-01-02 08:04:02.91	81.81	13.23	-40.9	-43.0	17.9	0.00e+00	0	40	0	0	53	4559
2026-01-02 08:04:03.77	81.67	13.27	-40.7	-42.7	18.1	0.00e+00	0	40	0	0	53	4437
2026-01-02 08:04:05.01	81.46	13.34	-40.8	-42.8	18.1	0.00e+00	0	40	0	0	53	4468
2026-01-02 08:04:05.87	81.32	13.39	-40.8	-42.8	18.1	0.00e+00	0	40	0	0	53	4467
2026-01-02 08:04:07.06	81.12	13.46	-40.8	-42.7	18.1	0.00e+00	0	40	0	0	53	4440
2026-01-02 08:04:07.92	80.97	13.51	-40.7	-42.7	18.2	0.00e+00	0	40	0	0	53	4402
2026-01-02 08:04:09.07	80.78	13.57	-40.7	-42.6	18.3	0.00e+00	0	40	0	0	53	4378
2026-01-02 08:04:09.93	80.63	13.62	-40.7	-42.7	18.2	0.00e+00	0	40	0	0	53	4398
2026-01-02 08:04:11.07	80.44	13.68	-40.5	-42.3	18.5	0.00e+00	0	40	0	0	53	4239
2026-01-02 08:04:11.93	80.29	13.73	-40.5	-42.3	18.5	0.00e+00	0	40	0	0	52	4488
2026-01-02 08:04:13.08	80.10	13.79	-40.5	-42.4	18.5	0.00e+00	0	40	0	0	52	4495
2026-01-02 08:04:14.08	79.93	13.85	-40.5	-42.4	18.4	0.00e+00	0	40	0	0	52	4515
2026-01-02 08:04:15.27	79.72	13.91	-40.6	-42.4	18.4	0.00e+00	0	40	0	0	52	4538
2026-01-02 08:04:16.17	79.56	13.96	-40.5	-42.4	18.4	0.00e+00	0	40	0	0	52	4511
2026-01-02 08:04:17.23	79.38	14.02	-40.6	-42.5	18.3	0.00e+00	0	40	0	0	52	4590
2026-01-02 08:04:18.20	79.21	14.07	-40.6	-42.5	18.2	0.00e+00	0	40	0	0	52	4597
2026-01-02 08:04:19.44	78.99	14.14	-40.6	-42.5	18.3	0.00e+00	0	40	0	0	52	4571
2026-01-02 08:04:20.33	78.84	14.19	-40.7	-42.6	18.3	0.00e+00	0	40	0	0	52	4639
2026-01-02 08:04:21.65	78.60	14.26	-40.7	-42.6	18.2	0.00e+00	0	40	0	0	52	4641
2026-01-02 08:04:22.37	78.47	14.30	-40.6	-42.5	18.3	0.00e+00	0	40	0	0	52	4591
2026-01-02 08:04:23.66	78.24	14.37	-40.6	-42.5	18.4	0.00e+00	0	40	0	0	52	4578
2026-01-02 08:04:24.37	78.12	14.40	-40.6	-42.5	18.3	0.00e+00	0	40	0	0	52	4592
2026-01-02 08:04:25.66	77.89	14.47	-40.8	-42.7	18.2	0.00e+00	0	40	0	0	52	4667
2026-01-02 08:04:26.37	77.76	14.51	-40.7	-42.6	18.3	0.00e+00	0	40	0	0	52	4606
2026-01-02 08:04:27.66	77.53	14.58	-40.7	-42.5	18.3	0.00e+00	0	40	0	0	52	4595
2026-01-02 08:04:28.38	77.40	14.62	-40.7	-42.6	18.3	0.00e+00	0	40	0	0	52	4617
2026-01-02 08:04:29.67	77.16	14.68	-40.8	-42.7	18.2	0.00e+00	0	40	0	0	52	4657
2026-01-02 08:04:30.56	77.00	14.73	-40.7	-42.6	18.2	0.00e+00	0	40	0	0	52	4648
2026-01-02 08:04:31.61	76.81	14.79	-40.6	-42.6	18.4	0.00e+00	0	40	0	0	52	4605
2026-01-02 08:04:32.53	76.64	14.83	-40.5	-42.4	18.4	0.00e+00	0	40	0	0	52	4538
2026-01-02 08:04:33.53	76.45	14.89	-40.5	-42.4	18.5	0.00e+00	0	40	0	0	52	4505
2026-01-02 08:04:34.54	76.26	14.94	-40.5	-42.4	18.5	0.00e+00	0	40	0	0	52	4494
2026-01-02 08:04:35.54	76.08	14.99	-40.5	-42.3	18.5	0.00e+00	0	40	0	0	52	4476
2026-01-02 08:04:36.54	75.89	15.04	-40.6	-42.4	18.5	0.00e+00	0	40	0	0	52	4524
2026-01-02 08:04:37.55	75.70	15.09	-40.5	-42.4	18.5	0.00e+00	0	40	0	0	52	4504
2026-01-02 08:04:38.55	75.52	15.14	-40.6	-42.5	18.4	0.00e+00	0	40	0	0	52	4549
2026-01-02 08:04:39.56	75.33	15.19	-40.7	-42.6	18.3	0.00e+00	0	40	0	0	52	4623
2026-01-02 08:04:40.56	75.14	15.25	-40.7	-42.6	18.3	0.00e+00	0	40	0	0	52	4606
2026-01-02 08:04:41.56	74.95	15.30	-40.5	-42.4	18.5	0.00e+00	0	40	0	0	52	4514
2026-01-02 08:04:42.57	74.75	15.35	-40.7	-42.5	18.4	0.00e+00	0	40	0	0	52	4590
2026-01-02 08:04:43.57	74.56	15.40	-40.7	-42.5	18.3	0.00e+00	0	40	0	0	52	4591
2026-01-02 08:04:44.57	74.37	15.45	-40.6	-42.4	18.4	0.00e+00	0	40	0	0	52	4534
2026-01-02 08:04:45.57	74.18	15.49	-40.6	-42.5	18.4	0.00e+00	0	40	0	0	52	4546
2026-01-02 08:04:46.58	73.98	15.54	-40.7	-42.6	18.3	0.00e+00	0	40	0	0	52	4599
2026-01-02 08:04:47.58	73.79	15.59	-40.6	-42.5	18.4	0.00e+00	0	40	0	0	52	4563
2026-01-02 08:04:48.58	73.60	15.64	-40.5	-42.4	18.5	0.00e+00	0	40	0	0	52	4525
2026-01-02 08:04:49.99	73.32	15.71	-40.5	-42.4	18.5	0.00e+00	0	40	0	0	52	4510
2026-01-02 08:04:50.73	73.18	15.75	-40.6	-42.5	18.5	0.00e+00	0	40	0	0	52	4546
2026-01-02 08:04:52.02	72.92	15.81	-40.5	-42.4	18.5	0.00e+00	0	40	0	0	52	4504
2026-01-02 08:04:52.74	72.78	15.84	-40.5	-42.4	18.6	0.00e+00	0	40	0	0	52	4496
2026-01-02 08:04:54.03	72.53	15.90	-40.4	-42.2	18.7	0.00e+00	0	40	0	0	52	4435
2026-01-02 08:04:54.75	72.38	15.94	-40.4	-42.3	18.7	0.00e+00	0	40	0	0	52	4461
2026-01-02 08:04:56.04	72.13	16.00	-40.3	-42.2	18.7	0.00e+00	0	40	0	0	52	4410
2026-01-02 08:04:56.75	71.99	16.03	-40.4	-42.2	18.7	0.00e+00	0	40	0	0	52	4428
2026-01-02 08:04:58.05	71.73	16.09	-40.4	-42.3	18.6	0.00e+00	0	40	0	0	52	4467
2026-01-02 08:04:58.76	71.58	16.12	-40.5	-42.3	18.6	0.00e+00	0	40	0	0	52	4492
2026-01-02 08:05:00.05	71.32	16.18	-40.2	-42.0	18.9	0.00e+00	0	40	0	0	52	4305
2026-01-02 08:05:00.77	71.18	16.22	-40.1	-41.9	19.0	0.00e+00	0	40	0	0	52	4282
2026-01-02 08:05:02.06	70.92	16.27	-40.1	-41.9	19.0	0.00e+00	0	40	0	0	52	4260
2026-01-02 08:05:02.77	70.77	16.31	-40.0	-41.8	19.0	0.00e+00	0	40	0	0	52	4233
2026-01-02 08:05:04.07	70.51	16.36	-40.1	-41.9	19.0	0.00e+00	0	40	0	0	51	4519
2026-01-02 08:05:04.78	70.36	16.40	-40.2	-42.0	18.9	0.00e+00	0	40	0	0	51	4560
2026-01-02 08:05:06.07	70.10	16.45	-40.1	-41.9	18.9	0.00e+00	0	40	0	0	51	4541
2026-01-02 08:05:06.79	69.95	16.48	-40.1	-41.9	19.0	0.00e+00	0	40	0	0	51	4494
2026-01-02 08:05:08.07	69.69	16.54	-40.1	-41.9	19.0	0.00e+00	0	40	0	0	51	4496
2026-01-02 08:05:08.79	69.54	16.57	-40.1	-41.9	19.0	0.00e+00	0	40	0	0	51	4498
2026-01-02 08:05:10.08	69.27	16.63	-40.0	-41.8	19.1	0.00e+00	0	40	0	0	51	4456
2026-01-02 08:05:10.80	69.12	16.66	-40.1	-41.8	19.1	0.00e+00	0	41	0	0	51	4492
2026-01-02 08:05:12.08	68.85	16.71	-40.0	-41.8	19.1	0.00e+00	0	40	0	0	51	4445
2026-01-02 08:05:12.80	68.70	16.74	-40.0	-41.8	19.1	0.00e+00	0	40	0	0	51	4449
2026-01-02 08:05:14.15	68.42	16.80	-40.0	-41.8	19.0	0.00e+00	0	40	0	0	51	4457
2026-01-02 08:05:14.87	68.27	16.83	-40.1	-41.9	18.9	0.00e+00	0	40	0	0	51	4542
2026-01-02 08:05:16.21	67.99	16.88	-40.1	-41.9	18.9	0.00e+00	0	40	0	0	51	4540
2026-01-02 08:05:16.92	67.84	16.91	-40.2	-42.0	18.8	0.00e+00	0	40	0	0	51	4589
2026-01-02 08:05:18.29	67.54	16.97	-40.2	-42.1	18.8	0.00e+00	0	40	0	0	51	4599
2026-01-02 08:05:19.01	67.39	16.99	-40.2	-42.0	18.8	0.00e+00	0	40	0	0	51	4582
2026-01-02 08:05:20.30	67.12	17.05	-40.2	-42.0	18.9	0.00e+00	0	40	0	0	51	4587
2026-01-02 08:05:21.01	66.96	17.07	-40.1	-41.9	19.0	0.00e+00	0	40	0	0	51	4530
2026-01-02 08:05:22.30	66.69	17.12	-40.2	-42.0	18.9	0.00e+00	0	40	0	0	51	4596
2026-01-02 08:05:23.02	66.53	17.15	-40.1	-41.9	19.0	0.00e+00	0	40	0	0	51	4529
2026-01-02 08:05:24.30	66.26	17.20	-40.1	-41.8	19.1	0.00e+00	0	40	0	0	51	4488
2026-01-02 08:05:25.02	66.10	17.23	-40.1	-41.9	19.0	0.00e+00	0	40	0	0	51	4531
2026-01-02 08:05:26.31	65.82	17.28	-40.1	-41.9	19.0	0.00e+00	0	40	0	0	51	4525
2026-01-02 08:05:27.03	65.67	17.30	-40.1	-41.9	19.1	0.00e+00	0	40	0	0	51	4506
2026-01-02 08:05:28.32	65.38	17.35	-39.8	-41.6	19.3	0.00e+00	0	40	0	0	51	4360
2026-01-02 08:05:29.03	65.23	17.38	-39.9	-41.6	19.3	0.00e+00	0	40	0	0	51	4389
2026-01-02 08:05:30.32	64.95	17.42	-40.0	-41.8	19.1	0.00e+00	0	41	0	0	51	4477
2026-01-02 08:05:31.04	64.79	17.45	-40.1	-41.9	19.1	0.00e+00	0	40	0	0	51	4498
2026-01-02 08:05:32.33	64.51	17.49	-39.9	-41.7	19.2	0.00e+00	0	40	0	0	51	4392
2026-01-02 08:05:33.04	64.35	17.52	-39.9	-41.7	19.2	0.00e+00	0	40	0	0	51	4435
2026-01-02 08:05:34.33	64.07	17.56	-39.9	-41.6	19.3	0.00e+00	0	40	0	0	51	4382
2026-01-02 08:05:35.05	63.91	17.59	-39.9	-41.6	19.2	0.00e+00	0	40	0	0	51	4375
2026-01-02 08:05:36.34	63.62	17.63	-39.9	-41.7	19.2	0.00e+00	0	40	0	0	51	4402
2026-01-02 08:05:37.07	63.46	17.65	-39.9	-41.7	19.2	0.00e+00	0	40	0	0	51	4395
2026-01-02 08:05:38.68	63.10	17.71	-39.9	-41.6	19.2	0.00e+00	0	40	0	0	51	4380
2026-01-02 08:05:39.54	62.91	17.74	-39.9	-41.7	19.2	0.00e+00	0	40	0	0	51	4408
2026-01-02 08:05:40.69	62.65	17.77	-39.9	-41.7	19.2	0.00e+00	0	40	0	0	51	4408
2026-01-02 08:05:41.55	62.46	17.80	-40.0	-41.8	19.1	0.00e+00	0	40	0	0	51	4457
2026-01-02 08:05:42.70	62.20	17.83	-40.0	-41.8	19.1	0.00e+00	0	40	0	0	51	4444
2026-01-02 08:05:43.56	62.00	17.86	-39.9	-41.7	19.2	0.00e+00	0	40	0	0	51	4413
2026-01-02 08:05:44.70	61.75	17.90	-40.0	-41.8	19.1	0.00e+00	0	40	0	0	51	4481
2026-01-02 08:05:45.56	61.55	17.92	-40.1	-41.9	19.1	0.00e+00	0	40	0	0	51	4512
2026-01-02 08:05:46.70	61.29	17.95	-40.2	-42.1	18.9	0.00e+00	0	41	0	0	51	4601
2026-01-02 08:05:47.55	61.10	17.98	-40.2	-42.0	18.9	0.00e+00	0	40	0	0	51	4583
2026-01-02 08:05:48.68	60.84	18.01	-40.2	-42.0	18.9	0.00e+00	0	40	0	0	51	4597
2026-01-02 08:05:49.54	60.65	18.04	-40.2	-42.1	18.9	0.00e+00	0	40	0	0	51	4603
2026-01-02 08:05:50.68	60.39	18.07	-40.3	-42.1	18.9	0.00e+00	0	40	0	0	51	4624
2026-01-02 08:05:51.53	60.19	18.09	-40.2	-42.0	18.9	0.00e+00	0	40	0	0	51	4580
2026-01-02 08:05:52.67	59.93	18.12	-40.1	-42.0	19.0	0.00e+00	0	40	0	0	51	4553
2026-01-02 08:05:53.52	59.74	18.14	-40.1	-41.9	19.0	0.00e+00	0	40	0	0	51	4519
2026-01-02 08:05:54.66	59.47	18.17	-40.1	-42.0	19.0	0.00e+00	0	40	0	0	51	4551
2026-01-02 08:05:55.52	59.28	18.19	-40.0	-41.8	19.1	0.00e+00	0	40	0	0	51	4460
2026-01-02 08:05:56.66	59.01	18.22	-40.1	-41.9	19.0	0.00e+00	0	40	0	0	51	4537
2026-01-02 08:05:57.52	58.81	18.24	-40.2	-42.0	19.0	0.00e+00	0	41	0	0	51	4550
2026-01-02 08:05:58.66	58.55	18.27	-40.1	-41.9	19.0	0.00e+00	0	41	0	0	51	4512
2026-01-02 08:05:59.51	58.35	18.29	-40.1	-41.9	19.1	0.00e+00	0	40	0	0	51	4515
2026-01-02 08:06:00.65	58.09	18.32	-40.2	-42.0	19.0	0.00e+00	0	40	0	0	51	4570
2026-01-02 08:06:01.50	57.89	18.34	-40.1	-41.9	19.1	0.00e+00	0	40	0	0	51	4499
2026-01-02 08:06:02.64	57.62	18.36	-40.0	-41.8	19.1	0.00e+00	0	41	0	0	51	4481
2026-01-02 08:06:03.49	57.43	18.38	-40.1	-41.9	19.0	0.00e+00	0	40	0	0	51	4532
2026-01-02 08:06:04.63	57.16	18.41	-40.2	-42.0	18.9	0.00e+00	0	40	0	0	51	4598
2026-01-02 08:06:05.49	56.96	18.42	-40.3	-42.2	18.8	0.00e+00	0	41	0	0	51	4653
2026-01-02 08:06:06.63	56.69	18.45	-40.4	-42.3	18.7	0.00e+00	0	40	0	0	51	4719
2026-01-02 08:06:07.48	56.49	18.46	-40.4	-42.2	18.7	0.00e+00	0	40	0	0	51	4701
2026-01-02 08:06:08.62	56.23	18.49	-40.4	-42.2	18.8	0.00e+00	0	40	0	0	51	4679
2026-01-02 08:06:09.48	56.02	18.50	-40.2	-42.0	19.0	0.00e+00	0	40	0	0	51	4567
2026-01-02 08:06:10.62	55.75	18.52	-40.2	-42.0	18.9	0.00e+00	0	40	0	0	51	4584
2026-01-02 08:06:11.48	55.55	18.54	-40.2	-42.0	19.0	0.00e+00	0	40	0	0	51	4569
2026-01-02 08:06:12.62	55.28	18.56	-40.1	-41.9	19.1	0.00e+00	0	40	0	0	51	4497
2026-01-02 08:06:13.47	55.08	18.57	-40.1	-41.9	19.1	0.00e+00	0	41	0	0	51	4504
2026-01-02 08:06:14.61	54.81	18.59	-40.0	-41.8	19.1	0.00e+00	0	41	0	0	51	4470
2026-01-02 08:06:15.46	54.61	18.61	-40.1	-41.9	19.1	0.00e+00	0	40	0	0	51	4520
2026-01-02 08:06:16.60	54.34	18.62	-40.1	-41.9	19.0	0.00e+00	0	40	0	0	51	4527
2026-01-02 08:06:17.46	54.14	18.64	-40.1	-41.9	19.0	0.00e+00	0	41	0	0	51	4535
2026-01-02 08:06:18.60	53.87	18.65	-40.2	-42.0	19.0	0.00e+00	0	41	0	0	51	4553
2026-01-02 08:06:19.45	53.66	18.66	-40.1	-41.9	19.0	0.00e+00	0	41	0	0	51	4537
2026-01-02 08:06:20.59	53.39	18.68	-40.2	-42.0	19.0	0.00e+00	0	41	0	0	51	4558
2026-01-02 08:06:21.44	53.19	18.69	-40.1	-41.9	19.0	0.00e+00	0	41	0	0	51	4544
2026-01-02 08:06:22.58	52.92	18.71	-40.0	-41.8	19.1	0.00e+00	0	40	0	0	51	4491
2026-01-02 08:06:23.44	52.71	18.72	-40.1	-41.9	19.0	0.00e+00	0	40	0	0	51	4525
2026-01-02 08:06:24.58	52.44	18.73	-40.1	-41.9	19.1	0.00e+00	0	41	0	0	51	4507
2026-01-02 08:06:25.43	52.24	18.74	-40.1	-41.9	19.1	0.00e+00	0	40	0	0	51	4521
2026-01-02 08:06:26.57	51.97	18.75	-40.1	-41.9	19.0	0.00e+00	0	41	0	0	51	4545
2026-01-02 08:06:27.42	51.76	18.76	-40.3	-42.1	18.9	0.00e+00	0	40	0	0	51	4610
2026-01-02 08:06:28.56	51.49	18.77	-40.2	-42.0	19.0	0.00e+00	0	40	0	0	51	4566
2026-01-02 08:06:29.42	51.29	18.78	-40.3	-42.1	18.8	0.00e+00	0	40	0	0	51	4624
2026-01-02 08:06:30.55	51.01	18.79	-40.3	-42.1	18.8	0.00e+00	0	40	0	0	51	4642
2026-01-02 08:06:31.41	50.81	18.79	-40.3	-42.1	18.9	0.00e+00	0	40	0	0	51	4626
2026-01-02 08:06:32.55	50.54	18.80	-40.2	-42.1	18.9	0.00e+00	0	40	0	0	51	4600
2026-01-02 08:06:33.41	50.33	18.81	-40.1	-41.9	19.0	0.00e+00	0	40	0	0	51	4535
2026-01-02 08:06:34.54	50.06	18.81	-40.1	-41.8	19.1	0.00e+00	0	41	0	0	51	4492
2026-01-02 08:06:35.40	49.85	18.82	-40.0	-41.8	19.1	0.00e+00	0	41	0	0	51	4481
2026-01-02 08:06:36.53	49.58	18.83	-40.0	-41.7	19.2	0.00e+00	0	41	0	0	51	4434
2026-01-02 08:06:37.39	49.37	18.83	-40.0	-41.8	19.2	0.00e+00	0	40	0	0	51	4442
2026-01-02 08:06:38.53	49.10	18.83	-39.9	-41.7	19.2	0.00e+00	0	41	0	0	51	4418
2026-01-02 08:06:39.38	48.90	18.84	-39.8	-41.6	19.4	0.00e+00	0	41	0	0	51	4368
2026-01-02 08:06:40.52	48.62	18.84	-39.7	-41.5	19.5	0.00e+00	0	40	0	0	51	4295
2026-01-02 08:06:41.37	48.42	18.84	-39.7	-41.5	19.4	0.00e+00	0	40	0	0	51	4296
2026-01-02 08:06:42.51	48.14	18.85	-39.8	-41.5	19.4	0.00e+00	0	40	0	0	51	4332
2026-01-02 08:06:43.37	47.94	18.85	-39.8	-41.6	19.3	0.00e+00	0	41	0	0	51	4341
2026-01-02 08:06:44.51	47.66	18.85	-39.9	-41.7	19.2	0.00e+00	0	41	0	0	51	4399
2026-01-02 08:06:45.37	47.46	18.85	-39.9	-41.7	19.3	0.00e+00	0	41	0	0	51	4398
2026-01-02 08:06:46.51	47.18	18.85	-40.0	-41.8	19.2	0.00e+00	0	41	0	0	51	4456
2026-01-02 08:06:47.36	46.98	18.85	-40.0	-41.8	19.1	0.00e+00	0	41	0	0	51	4482
2026-01-02 08:06:48.50	46.70	18.85	-40.0	-41.8	19.1	0.00e+00	0	41	0	0	51	4466
2026-01-02 08:06:49.36	46.50	18.85	-40.0	-41.7	19.2	0.00e+00	0	40	0	0	51	4435
2026-01-02 08:06:50.50	46.22	18.84	-40.0	-41.8	19.0	0.00e+00	0	41	0	0	51	4485
2026-01-02 08:06:51.35	46.02	18.84	-40.1	-41.9	19.0	0.00e+00	0	41	0	0	51	4535
2026-01-02 08:06:52.49	45.74	18.84	-40.0	-41.8	19.0	0.00e+00	0	41	0	0	51	4488
2026-01-02 08:06:53.35	45.54	18.84	-40.0	-41.8	19.1	0.00e+00	0	41	0	0	51	4469
2026-01-02 08:06:54.49	45.26	18.83	-40.0	-41.8	19.0	0.00e+00	0	40	0	0	51	4483
2026-01-02 08:06:55.34	45.06	18.83	-40.1	-41.9	19.0	0.00e+00	0	41	0	0	51	4508
2026-01-02 08:06:56.48	44.78	18.82	-40.2	-42.1	18.9	0.00e+00	0	40	0	0	51	4600
2026-01-02 08:06:57.33	44.58	18.82	-40.2	-42.0	18.9	0.00e+00	0	40	0	0	51	4579
2026-01-02 08:06:58.47	44.31	18.81	-40.1	-41.9	19.0	0.00e+00	0	41	0	0	51	4542
2026-01-02 08:06:59.33	44.10	18.80	-39.9	-41.7	19.1	0.00e+00	0	41	0	0	51	4435
2026-01-02 08:07:00.47	43.83	18.80	-40.0	-41.8	19.0	0.00e+00	0	41	0	0	51	4459
2026-01-02 08:07:01.32	43.62	18.79	-40.0	-41.7	19.1	0.00e+00	0	41	0	0	51	4439
2026-01-02 08:07:02.46	43.35	18.78	-39.9	-41.6	19.2	0.00e+00	0	40	0	0	51	4380
2026-01-02 08:07:03.32	43.15	18.77	-39.7	-41.5	19.3	0.00e+00	0	41	0	0	51	4319
2026-01-02 08:07:04.46	42.87	18.76	-39.7	-41.5	19.3	0.00e+00	0	41	0	0	51	4308
2026-01-02 08:07:05.32	42.67	18.75	-39.8	-41.5	19.3	0.00e+00	0	40	0	0	51	4333
2026-01-02 08:07:06.46	42.40	18.74	-39.7	-41.5	19.4	0.00e+00	0	41	0	0	51	4316
2026-01-02 08:07:07.31	42.19	18.73	-39.8	-41.5	19.3	0.00e+00	0	41	0	0	51	4334
2026-01-02 08:07:08.45	41.92	18.72	-39.8	-41.6	19.3	0.00e+00	0	40	0	0	51	4363
2026-01-02 08:07:09.31	41.72	18.71	-39.9	-41.6	19.2	0.00e+00	0	40	0	0	51	4389
2026-01-02 08:07:10.44	41.45	18.70	-40.0	-41.8	19.0	0.00e+00	0	40	0	0	51	4458
2026-01-02 08:07:11.30	41.24	18.68	-40.1	-41.9	19.0	0.00e+00	0	41	0	0	51	4506
2026-01-02 08:07:12.43	40.97	18.67	-40.0	-41.8	19.1	0.00e+00	0	40	0	0	51	4480
2026-01-02 08:07:13.28	40.77	18.66	-40.0	-41.8	19.0	0.00e+00	0	41	0	0	51	4479
2026-01-02 08:07:14.42	40.50	18.64	-40.0	-41.9	18.9	0.00e+00	0	41	0	0	51	4506
2026-01-02 08:07:15.27	40.30	18.63	-39.9	-41.7	19.1	0.00e+00	0	40	0	0	51	4415
2026-01-02 08:07:16.41	40.03	18.61	-40.0	-41.8	19.0	0.00e+00	0	41	0	0	51	4470
2026-01-02 08:07:17.27	39.83	18.60	-39.9	-41.7	19.1	0.00e+00	0	40	0	0	51	4406
2026-01-02 08:07:18.41	39.56	18.58	-39.8	-41.6	19.2	0.00e+00	0	41	0	0	51	4356
2026-01-02 08:07:19.27	39.35	18.56	-39.8	-41.6	19.1	0.00e+00	0	40	0	0	51	4356
2026-01-02 08:07:20.41	39.09	18.55	-39.8	-41.6	19.2	0.00e+00	0	40	0	0	51	4345
2026-01-02 08:07:21.27	38.88	18.53	-39.8	-41.6	19.2	0.00e+00	0	40	0	0	51	4343
2026-01-02 08:07:22.41	38.62	18.51	-39.7	-41.5	19.2	0.00e+00	0	40	0	0	51	4339
2026-01-02 08:07:23.26	38.42	18.49	-39.8	-41.6	19.1	0.00e+00	0	40	0	0	51	4385
2026-01-02 08:07:24.40	38.15	18.47	-39.7	-41.5	19.2	0.00e+00	0	40	0	0	51	4320
2026-01-02 08:07:25.26	37.95	18.45	-39.7	-41.5	19.2	0.00e+00	0	41	0	0	51	4333
2026-01-02 08:07:26.40	37.68	18.43	-39.6	-41.3	19.3	0.00e+00	0	41	0	0	51	4241
2026-01-02 08:07:27.26	37.48	18.41	-39.5	-41.3	19.4	0.00e+00	0	41	0	0	51	4219
2026-01-02 08:07:28.40	37.21	18.39	-39.5	-41.3	19.4	0.00e+00	0	40	0	0	51	4200
2026-01-02 08:07:29.26	37.01	18.37	-39.5	-41.3	19.4	0.00e+00	0	40	0	0	51	4203
2026-01-02 08:07:30.40	36.75	18.35	-39.5	-41.3	19.4	0.00e+00	0	41	0	0	51	4204
2026-01-02 08:07:31.26	36.55	18.33	-39.6	-41.4	19.3	0.00e+00	0	40	0	0	51	4255
2026-01-02 08:07:32.40	36.28	18.30	-39.5	-41.3	19.4	0.00e+00	0	41	0	0	51	4211
2026-01-02 08:07:33.26	36.09	18.28	-39.6	-41.3	19.4	0.00e+00	0	40	0	0	51	4236
2026-01-02 08:07:34.39	35.82	18.25	-39.6	-41.4	19.3	0.00e+00	0	41	0	0	51	4279
2026-01-02 08:07:35.24	35.63	18.23	-39.7	-41.5	19.2	0.00e+00	0	41	0	0	51	4322
2026-01-02 08:07:36.38	35.37	18.20	-39.6	-41.4	19.3	0.00e+00	0	41	0	0	51	4253
2026-01-02 08:07:37.23	35.17	18.18	-39.6	-41.4	19.3	0.00e+00	0	41	0	0	51	4245
2026-01-02 08:07:38.37	34.91	18.15	-39.5	-41.3	19.4	0.00e+00	0	41	0	0	51	4211
2026-01-02 08:07:39.23	34.71	18.13	-39.5	-41.3	19.4	0.00e+00	0	41	0	0	50	4465
2026-01-02 08:07:40.37	34.45	18.10	-39.6	-41.4	19.3	0.00e+00	0	41	0	0	50	4498
2026-01-02 08:07:41.23	34.25	18.08	-39.5	-41.4	19.3	0.00e+00	0	41	0	0	50	4496
2026-01-02 08:07:42.37	33.99	18.05	-39.7	-41.5	19.1	0.00e+00	0	41	0	0	50	4585
2026-01-02 08:07:43.22	33.80	18.02	-39.6	-41.5	19.1	0.00e+00	0	41	0	0	50	4566
2026-01-02 08:07:44.36	33.54	17.99	-39.7	-41.6	19.0	0.00e+00	0	41	0	0	50	4606
2026-01-02 08:07:45.22	33.35	17.96	-39.8	-41.7	18.9	0.00e+00	0	41	0	0	50	4666
2026-01-02 08:07:46.36	33.09	17.93	-39.6	-41.4	19.1	0.00e+00	0	40	0	0	50	4527
2026-01-02 08:07:47.22	32.89	17.91	-39.4	-41.2	19.3	0.00e+00	0	41	0	0	50	4426
2026-01-02 08:07:48.35	32.64	17.87	-39.4	-41.2	19.3	0.00e+00	0	41	0	0	50	4426
2026-01-02 08:07:49.21	32.45	17.85	-39.5	-41.3	19.2	0.00e+00	0	41	0	0	50	4470
2026-01-02 08:07:50.35	32.19	17.81	-39.5	-41.3	19.1	0.00e+00	0	41	0	0	50	4484
2026-01-02 08:07:51.21	32.00	17.78	-39.5	-41.3	19.1	0.00e+00	0	41	0	0	50	4472
2026-01-02 08:07:52.35	31.74	17.75	-39.6	-41.4	19.0	0.00e+00	0	41	0	0	50	4522
2026-01-02 08:07:53.21	31.55	17.72	-39.5	-41.4	19.0	0.00e+00	0	41	0	0	50	4504
2026-01-02 08:07:54.35	31.30	17.68	-39.3	-41.1	19.1	0.00e+00	0	41	0	0	50	4389
2026-01-02 08:07:55.21	31.11	17.65	-39.2	-41.1	19.1	0.00e+00	0	41	0	0	50	4345
2026-01-02 08:07:56.35	30.85	17.62	-39.3	-41.1	19.0	0.00e+00	0	41	0	0	50	4375
2026-01-02 08:07:57.20	30.67	17.59	-39.3	-41.1	19.0	0.00e+00	0	41	0	0	50	4368
2026-01-02 08:07:58.35	30.41	17.55	-39.2	-41.1	19.0	0.00e+00	0	41	0	0	50	4343
2026-01-02 08:07:59.20	30.23	17.52	-39.0	-40.8	19.2	0.00e+00	0	41	0	0	50	4202
2026-01-02 08:08:00.34	29.98	17.48	-38.9	-40.7	19.3	0.00e+00	0	41	0	0	49	4392
2026-01-02 08:08:01.20	29.79	17.45	-38.8	-40.6	19.4	0.00e+00	0	41	0	0	49	4365
2026-01-02 08:08:02.34	29.54	17.41	-39.0	-40.8	19.2	0.00e+00	0	41	0	0	49	4468
2026-01-02 08:08:03.20	29.35	17.38	-39.0	-40.8	19.1	0.00e+00	0	41	0	0	49	4483
2026-01-02 08:08:04.34	29.10	17.34	-39.0	-40.8	19.1	0.00e+00	0	41	0	0	49	4464
2026-01-02 08:08:05.19	28.92	17.31	-39.1	-40.9	19.1	0.00e+00	0	41	0	0	49	4494
2026-01-02 08:08:06.33	28.67	17.26	-39.1	-40.9	19.0	0.00e+00	0	41	0	0	49	4507
2026-01-02 08:08:07.19	28.49	17.23	-39.1	-40.9	19.0	0.00e+00	0	41	0	0	49	4510
2026-01-02 08:08:08.33	28.24	17.19	-39.0	-40.8	19.1	0.00e+00	0	41	0	0	49	4489
2026-01-02 08:08:09.18	28.06	17.16	-38.9	-40.7	19.2	0.00e+00	0	41	0	0	49	4426
2026-01-02 08:08:10.32	27.81	17.11	-38.8	-40.6	19.3	0.00e+00	0	41	0	0	49	4349
2026-01-02 08:08:11.18	27.63	17.08	-38.8	-40.6	19.4	0.00e+00	0	41	0	0	49	4344
2026-01-02 08:08:12.32	27.39	17.03	-38.7	-40.5	19.4	0.00e+00	0	41	0	0	49	4303
2026-01-02 08:08:13.17	27.21	17.00	-38.7	-40.5	19.4	0.00e+00	0	41	0	0	49	4336
2026-01-02 08:08:14.32	26.96	16.95	-38.6	-40.5	19.4	0.00e+00	0	41	0	0	49	4293
2026-01-02 08:08:15.17	26.78	16.92	-38.7	-40.5	19.3	0.00e+00	0	41	0	0	49	4333
2026-01-02 08:08:16.31	26.54	16.87	-38.7	-40.5	19.4	0.00e+00	0	41	0	0	49	4320
2026-01-02 08:08:17.17	26.36	16.84	-38.6	-40.5	19.4	0.00e+00	0	41	0	0	49	4304
2026-01-02 08:08:18.31	26.12	16.79	-38.6	-40.5	19.3	0.00e+00	0	41	0	0	49	4315
2026-01-02 08:08:19.17	25.94	16.76	-38.7	-40.5	19.3	0.00e+00	0	41	0	0	49	4323
2026-01-02 08:08:20.31	25.71	16.71	-38.7	-40.5	19.4	0.00e+00	0	41	0	0	49	4312
2026-01-02 08:08:21.16	25.53	16.67	-38.8	-40.6	19.3	0.00e+00	0	41	0	0	49	4357
2026-01-02 08:08:22.30	25.29	16.62	-38.7	-40.5	19.4	0.00e+00	0	41	0	0	49	4334
2026-01-02 08:08:23.16	25.12	16.59	-38.9	-40.6	19.3	0.00e+00	0	41	0	0	49	4379
2026-01-02 08:08:24.29	24.88	16.54	-38.9	-40.6	19.3	0.00e+00	0	41	0	0	49	4386
2026-01-02 08:08:25.15	24.71	16.50	-39.0	-40.8	19.2	0.00e+00	0	41	0	0	49	4472
2026-01-02 08:08:26.29	24.47	16.45	-39.1	-40.9	19.1	0.00e+00	0	41	0	0	49	4506
2026-01-02 08:08:27.14	24.30	16.41	-39.1	-41.0	19.0	0.00e+00	0	41	0	0	49	4548
2026-01-02 08:08:28.29	24.06	16.36	-39.1	-40.9	19.0	0.00e+00	0	41	0	0	49	4529
2026-01-02 08:08:29.14	23.89	16.33	-38.9	-40.8	19.1	0.00e+00	0	41	0	0	49	4461
2026-01-02 08:08:30.29	23.66	16.27	-39.0	-40.9	19.0	0.00e+00	0	41	0	0	49	4502
2026-01-02 08:08:31.14	23.49	16.24	-39.1	-41.0	18.9	0.00e+00	0	41	0	0	49	4558
2026-01-02 08:08:32.28	23.26	16.18	-38.9	-40.8	19.1	0.00e+00	0	41	0	0	49	4444
2026-01-02 08:08:33.14	23.09	16.14	-38.9	-40.7	19.1	0.00e+00	0	41	0	0	49	4436
2026-01-02 08:08:34.28	22.86	16.09	-39.0	-40.9	19.0	0.00e+00	0	41	0	0	49	4505
2026-01-02 08:08:35.14	22.69	16.05	-39.1	-41.0	19.0	0.00e+00	0	40	0	0	49	4566
2026-01-02 08:08:36.28	22.46	16.00	-39.2	-41.1	18.9	0.00e+00	0	41	0	0	49	4599
2026-01-02 08:08:37.14	22.29	15.96	-39.3	-41.2	18.8	0.00e+00	0	41	0	0	49	4680
2026-01-02 08:08:38.28	22.07	15.91	-39.5	-41.4	18.6	0.00e+00	0	41	0	0	49	4803
2026-01-02 08:08:39.13	21.90	15.87	-39.5	-41.4	18.6	0.00e+00	0	41	0	0	49	4796
2026-01-02 08:08:40.27	21.67	15.81	-39.5	-41.4	18.6	0.00e+00	0	41	0	0	49	4780
2026-01-02 08:08:41.13	21.51	15.77	-39.5	-41.4	18.6	0.00e+00	0	41	0	0	49	4790
2026-01-02 08:08:42.26	21.29	15.72	-39.5	-41.4	18.5	0.00e+00	0	41	0	0	49	4772
2026-01-02 08:08:43.12	21.12	15.68	-39.5	-41.4	18.5	0.00e+00	0	41	0	0	49	4780
2026-01-02 08:08:44.26	20.90	15.62	-39.4	-41.3	18.6	0.00e+00	0	41	0	0	49	4721
2026-01-02 08:08:45.11	20.73	15.58	-39.3	-41.2	18.7	0.00e+00	0	41	0	0	49	4673
2026-01-02 08:08:46.25	20.51	15.52	-39.3	-41.2	18.7	0.00e+00	0	41	0	0	49	4662
2026-01-02 08:08:47.11	20.35	15.48	-39.3	-41.2	18.7	0.00e+00	0	41	0	0	49	4663
2026-01-02 08:08:48.24	20.13	15.43	-39.3	-41.2	18.6	0.00e+00	0	41	0	0	49	4700
2026-01-02 08:08:49.10	19.97	15.38	-39.2	-41.2	18.6	0.00e+00	0	41	0	0	49	4660
2026-01-02 08:08:50.24	19.75	15.33	-39.3	-41.2	18.6	0.00e+00	0	41	0	0	49	4699
2026-01-02 08:08:51.10	19.59	15.28	-39.2	-41.2	18.6	0.00e+00	0	41	0	0	49	4668
2026-01-02 08:08:52.25	19.37	15.23	-39.2	-41.2	18.7	0.00e+00	0	41	0	0	49	4663
2026-01-02 08:08:53.11	19.21	15.18	-39.2	-41.2	18.7	0.00e+00	0	41	0	0	49	4681
2026-01-02 08:08:54.25	19.00	15.12	-39.3	-41.2	18.7	0.00e+00	0	41	0	0	49	4696
2026-01-02 08:08:55.12	18.84	15.08	-39.3	-41.2	18.8	0.00e+00	0	41	0	0	49	4678
2026-01-02 08:08:56.26	18.63	15.02	-39.3	-41.2	18.7	0.00e+00	0	41	0	0	49	4667
2026-01-02 08:08:57.12	18.47	14.98	-39.4	-41.2	18.7	0.00e+00	0	41	0	0	49	4697
2026-01-02 08:08:58.27	18.25	14.92	-39.4	-41.2	18.7	0.00e+00	0	41	0	0	49	4688
2026-01-02 08:08:59.12	18.10	14.88	-39.4	-41.3	18.7	0.00e+00	0	41	0	0	49	4708
2026-01-02 08:09:00.27	17.89	14.82	-39.4	-41.3	18.6	0.00e+00	0	41	0	0	49	4726
2026-01-02 08:09:01.12	17.73	14.77	-39.5	-41.4	18.6	0.00e+00	0	41	0	0	49	4788
2026-01-02 08:09:02.27	17.52	14.71	-39.6	-41.5	18.5	0.00e+00	0	41	0	0	49	4856
2026-01-02 08:09:03.13	17.37	14.67	-39.7	-41.6	18.4	0.00e+00	0	41	0	0	50	4620
2026-01-02 08:09:04.28	17.16	14.61	-39.6	-41.5	18.5	0.00e+00	0	41	0	0	50	4579
2026-01-02 08:09:05.14	17.00	14.56	-39.7	-41.6	18.4	0.00e+00	0	41	0	0	50	4612
2026-01-02 08:09:06.28	16.80	14.50	-39.8	-41.7	18.4	0.00e+00	0	41	0	0	50	4670
2026-01-02 08:09:07.14	16.65	14.46	-39.8	-41.7	18.3	0.00e+00	0	41	0	0	50	4683
2026-01-02 08:09:08.28	16.44	14.39	-39.8	-41.7	18.3	0.00e+00	0	41	0	0	50	4683
2026-01-02 08:09:09.14	16.29	14.35	-39.7	-41.6	18.4	0.00e+00	0	41	0	0	50	4644
2026-01-02 08:09:10.29	16.09	14.29	-39.6	-41.6	18.5	0.00e+00	0	41	0	0	50	4617
2026-01-02 08:09:11.14	15.94	14.24	-39.6	-41.6	18.4	0.00e+00	0	41	0	0	50	4643
2026-01-02 08:09:12.29	15.73	14.18	-39.4	-41.5	18.6	0.00e+00	0	41	0	0	50	4571
2026-01-02 08:09:13.15	15.58	14.13	-39.5	-41.6	18.5	0.00e+00	0	41	0	0	50	4605
2026-01-02 08:09:14.29	15.39	14.07	-39.4	-41.5	18.6	0.00e+00	0	41	0	0	50	4570
2026-01-02 08:09:15.15	15.24	14.03	-39.5	-41.5	18.5	0.00e+00	0	41	0	0	50	4596
2026-01-02 08:09:16.29	15.04	13.96	-39.5	-41.6	18.5	0.00e+00	0	41	0	0	50	4611
2026-01-02 08:09:17.15	14.89	13.92	-39.4	-41.5	18.6	0.00e+00	0	41	0	0	50	4550
2026-01-02 08:09:18.30	14.69	13.85	-39.4	-41.5	18.6	0.00e+00	0	41	0	0	50	4554
2026-01-02 08:09:19.16	14.55	13.81	-39.5	-41.6	18.5	0.00e+00	0	41	0	0	50	4608
2026-01-02 08:09:20.30	14.35	13.74	-39.4	-41.5	18.5	0.00e+00	0	41	0	0	50	4563
2026-01-02 08:09:21.16	14.21	13.70	-39.3	-41.5	18.5	0.00e+00	0	41	0	0	50	4564
2026-01-02 08:09:22.31	14.01	13.63	-39.3	-41.5	18.5	0.00e+00	0	41	0	0	50	4547
2026-01-02 08:09:23.17	13.87	13.59	-39.3	-41.4	18.5	0.00e+00	0	41	0	0	50	4539
2026-01-02 08:09:24.31	13.68	13.52	-39.4	-41.5	18.5	0.00e+00	0	41	0	0	50	4553
2026-01-02 08:09:25.17	13.53	13.48	-39.4	-41.4	18.5	0.00e+00	0	41	0	0	50	4530
2026-01-02 08:09:26.31	13.34	13.41	-39.5	-41.4	18.4	0.00e+00	0	41	0	0	50	4539
2026-01-02 08:09:27.17	13.20	13.36	-39.4	-41.4	18.5	0.00e+00	0	41	0	0	50	4506
2026-01-02 08:09:28.31	13.01	13.30	-39.4	-41.3	18.6	0.00e+00	0	41	0	0	50	4460
2026-01-02 08:09:29.18	12.87	13.25	-39.5	-41.4	18.5	0.00e+00	0	41	0	0	50	4510
2026-01-02 08:09:30.32	12.68	13.19	-39.4	-41.3	18.6	0.00e+00	0	41	0	0	50	4456
2026-01-02 08:09:31.18	12.54	13.14	-39.4	-41.3	18.6	0.00e+00	0	41	0	0	50	4475
2026-01-02 08:09:32.32	12.36	13.08	-39.4	-41.4	18.6	0.00e+00	0	41	0	0	50	4504
2026-01-02 08:09:33.18	12.22	13.03	-39.5	-41.5	18.5	0.00e+00	0	41	0	0	50	4562
2026-01-02 08:09:34.33	12.03	12.96	-39.5	-41.6	18.4	0.00e+00	0	41	0	0	50	4608
2026-01-02 08:09:35.19	11.89	12.91	-39.5	-41.5	18.4	0.00e+00	0	41	0	0	50	4596
2026-01-02 08:09:36.33	11.71	12.85	-39.6	-41.6	18.3	0.00e+00	0	41	0	0	50	4636
2026-01-02 08:09:37.19	11.57	12.80	-39.6	-41.7	18.3	0.00e+00	0	41	0	0	50	4655
2026-01-02 08:09:38.34	11.39	12.74	-39.7	-41.8	18.2	0.00e+00	0	41	0	0	50	4708
2026-01-02 08:09:39.20	11.25	12.69	-39.7	-41.7	18.3	0.00e+00	0	41	0	0	50	4678
2026-01-02 08:09:40.35	11.07	12.62	-39.6	-41.6	18.3	0.00e+00	0	41	0	0	50	4646
2026-01-02 08:09:41.21	10.94	12.57	-39.7	-41.7	18.3	0.00e+00	0	41	0	0	50	4666
2026-01-02 08:09:42.35	10.76	12.51	-39.4	-41.5	18.5	0.00e+00	0	41	0	0	50	4560
2026-01-02 08:09:43.21	10.63	12.46	-39.4	-41.5	18.5	0.00e+00	0	41	0	0	50	4557
2026-01-02 08:09:44.35	10.45	12.39	-39.4	-41.5	18.4	0.00e+00	0	41	0	0	50	4575
2026-01-02 08:09:45.21	10.32	12.34	-39.5	-41.6	18.3	0.00e+00	0	41	0	0	50	4646
2026-01-02 08:09:46.35	10.14	12.28	-39.6	-41.8	18.2	0.00e+00	0	41	0	0	50	4749
2026-01-02 08:09:47.21	10.01	12.23	-39.6	-41.8	18.2	0.00e+00	0	41	0	0	50	4739
2026-01-02 08:09:48.35	9.84	12.16	-39.7	-41.9	18.1	0.00e+00	0	41	0	0	50	4784
2026-01-02 08:09:49.21	9.70	12.11	-39.7	-41.9	18.1	0.00e+00	0	41	0	0	50	4773
2026-01-02 08:09:50.36	9.53	12.05	-39.8	-42.0	17.9	0.00e+00	0	41	0	0	50	4866
2026-01-02 08:09:51.21	9.40	12.00	-39.8	-42.0	18.0	0.00e+00	0	41	0	0	50	4850
2026-01-02 08:09:52.36	9.23	11.93	-39.8	-42.0	17.9	0.00e+00	0	41	0	0	50	4853
2026-01-02 08:09:53.22	9.10	11.88	-39.7	-42.0	17.9	0.00e+00	0	41	0	0	50	4855
2026-01-02 08:09:54.36	8.93	11.81	-39.7	-42.0	17.9	0.00e+00	0	41	0	0	50	4867
2026-01-02 08:09:55.22	8.80	11.77	-39.7	-42.0	17.9	0.00e+00	0	41	0	0	50	4850
2026-01-02 08:09:56.37	8.63	11.70	-39.7	-42.0	17.9	0.00e+00	0	41	0	0	50	4842
2026-01-02 08:09:57.22	8.51	11.65	-39.9	-42.1	17.9	0.00e+00	0	41	0	0	50	4871
2026-01-02 08:09:58.37	8.34	11.58	-39.8	-41.9	18.0	0.00e+00	0	41	0	0	50	4814
2026-01-02 08:09:59.23	8.21	11.53	-39.9	-42.0	17.9	0.00e+00	0	41	0	0	50	4853
2026-01-02 08:10:00.37	8.05	11.47	-40.0	-42.1	17.9	0.00e+00	0	41	0	0	50	4895
2026-01-02 08:10:01.23	7.92	11.42	-40.0	-42.1	17.8	0.00e+00	0	41	0	0	50	4919
2026-01-02 08:10:02.38	7.76	11.35	-39.9	-42.0	18.0	0.00e+00	0	41	0	0	50	4866
2026-01-02 08:10:03.24	7.63	11.30	-39.9	-42.1	17.9	0.00e+00	0	41	0	0	50	4903
2026-01-02 08:10:04.38	7.47	11.23	-39.9	-42.2	17.9	0.00e+00	0	41	0	0	50	4929
2026-01-02 08:10:05.25	7.35	11.18	-40.0	-42.2	17.8	0.00e+00	0	41	0	0	50	4974
2026-01-02 08:10:06.39	7.19	11.11	-39.8	-42.2	17.8	0.00e+00	0	41	0	0	50	4930
2026-01-02 08:10:07.25	7.06	11.06	-39.7	-42.1	17.9	0.00e+00	0	41	0	0	50	4894
2026-01-02 08:10:08.39	6.90	11.00	-39.7	-42.1	17.8	0.00e+00	0	41	0	0	50	4926
2026-01-02 08:10:09.25	6.78	10.95	-39.7	-42.1	17.8	0.00e+00	0	41	0	0	50	4926
2026-01-02 08:10:10.40	6.62	10.88	-39.8	-42.2	17.8	0.00e+00	0	41	0	0	50	4940
2026-01-02 08:10:11.26	6.50	10.83	-39.9	-42.3	17.7	0.00e+00	0	41	0	0	50	4985
2026-01-02 08:10:12.40	6.34	10.76	-40.0	-42.4	17.6	0.00e+00	0	41	0	0	50	5063
2026-01-02 08:10:13.26	6.23	10.71	-40.1	-42.5	17.5	0.00e+00	0	41	0	0	50	5108
2026-01-02 08:10:14.41	6.07	10.65	-40.2	-42.5	17.4	0.00e+00	0	41	0	0	51	4860
2026-01-02 08:10:15.27	5.95	10.59	-40.2	-42.4	17.5	0.00e+00	0	41	0	0	51	4813
2026-01-02 08:10:16.41	5.80	10.53	-40.2	-42.5	17.4	0.00e+00	0	41	0	0	51	4850
2026-01-02 08:10:17.27	5.68	10.48	-40.3	-42.6	17.3	0.00e+00	0	41	0	0	51	4902
2026-01-02 08:10:18.42	5.52	10.41	-40.3	-42.5	17.4	0.00e+00	0	41	0	0	51	4861
2026-01-02 08:10:19.27	5.41	10.36	-40.3	-42.5	17.4	0.00e+00	0	41	0	0	51	4852
2026-01-02 08:10:20.42	5.25	10.29	-40.3	-42.4	17.4	0.00e+00	0	41	0	0	51	4813
2026-01-02 08:10:21.28	5.14	10.24	-40.4	-42.5	17.4	0.00e+00	0	41	0	0	51	4847
2026-01-02 08:10:22.42	4.99	10.17	-40.4	-42.5	17.4	0.00e+00	0	41	0	0	51	4840
2026-01-02 08:10:23.28	4.87	10.12	-40.5	-42.6	17.3	0.00e+00	0	41	0	0	51	4884
2026-01-02 08:10:24.43	4.72	10.06	-40.3	-42.4	17.5	0.00e+00	0	41	0	0	51	4768
2026-01-02 08:10:25.29	4.61	10.01	-40.3	-42.4	17.6	0.00e+00	0	41	0	0	51	4764
2026-01-02 08:10:26.43	4.46	9.94	-40.5	-42.6	17.3	0.00e+00	0	41	0	0	51	4909
2026-01-02 08:10:27.29	4.35	9.89	-40.6	-42.7	17.2	0.00e+00	0	41	0	0	51	4979
2026-01-02 08:10:28.44	4.20	9.82	-40.7	-42.8	17.1	0.00e+00	0	41	0	0	52	4747
2026-01-02 08:10:29.30	4.09	9.77	-40.8	-43.0	17.0	0.00e+00	0	41	0	0	52	4821
2026-01-02 08:10:30.44	3.94	9.70	-40.7	-42.9	17.0	0.00e+00	0	41	0	0	52	4802
2026-01-02 08:10:31.30	3.83	9.65	-40.6	-42.9	17.0	0.00e+00	0	41	0	0	52	4792
2026-01-02 08:10:32.44	3.69	9.59	-40.7	-43.1	16.9	0.00e+00	0	41	0	0	52	4899
2026-01-02 08:10:33.30	3.58	9.54	-40.5	-43.1	16.8	0.00e+00	0	41	0	0	52	4911
2026-01-02 08:10:34.44	3.43	9.47	-40.5	-43.3	16.7	0.00e+00	0	41	0	0	52	5004
2026-01-02 08:10:35.30	3.33	9.42	-40.3	-43.3	16.7	0.00e+00	0	41	0	0	52	4997
2026-01-02 08:10:36.45	3.18	9.35	-40.1	-43.3	16.6	0.00e+00	0	41	0	0	52	4987
2026-01-02 08:10:37.31	3.07	9.30	-40.1	-43.2	16.7	0.00e+00	0	41	0	0	52	4975
2026-01-02 08:10:38.45	2.93	9.23	-40.1	-43.1	16.8	0.00e+00	0	41	0	0	52	4888
2026-01-02 08:10:39.31	2.83	9.18	-40.1	-43.0	16.9	0.00e+00	0	41	0	0	52	4824
2026-01-02 08:10:40.46	2.68	9.11	-40.3	-43.0	16.9	0.00e+00	0	41	0	0	52	4827
2026-01-02 08:10:41.32	2.58	9.06	-40.2	-42.9	17.0	0.00e+00	0	41	0	0	52	4784
2026-01-02 08:10:42.46	2.44	9.00	-40.3	-42.9	17.0	0.00e+00	0	41	0	0	52	4770
2026-01-02 08:10:43.32	2.33	8.95	-47.5	-58.8	3.9	4.95e-01	0	41	104	0	65	14172
2026-01-02 08:10:44.47	2.19	8.88	-47.3	-61.1	3.8	1.49e+00	0	41	104	0	66	17298
2026-01-02 08:10:45.32	2.09	8.83	-47.6	-61.6	3.8	1.49e+00	0	41	104	0	65	19395
2026-01-02 08:10:46.47	1.95	8.76	-48.4	-61.7	3.8	1.49e+00	0	41	104	0	67	17525
2026-01-02 08:10:47.33	1.85	8.71	-48.3	-61.7	3.8	1.49e+00	0	41	104	0	67	17623
2026-01-02 08:10:48.47	1.71	8.64	-48.5	-61.8	3.8	1.49e+00	0	41	104	0	67	17730
2026-01-02 08:10:49.33	1.61	8.59	-48.8	-61.9	3.8	1.49e+00	0	41	104	0	68	17082
2026-01-02 08:10:50.48	1.48	8.53	-48.5	-62.0	3.8	1.49e+00	0	41	104	0	68	17184
2026-01-02 08:10:51.34	1.38	8.48	-48.5	-62.1	3.8	1.49e+00	0	41	104	0	68	17289
2026-01-02 08:10:52.48	1.24	8.41	-48.4	-62.0	3.8	1.49e+00	0	41	104	0	68	17258
2026-01-02 08:10:53.34	1.14	8.36	-48.9	-62.1	3.8	1.49e+00	0	41	104	0	68	17294
2026-01-02 08:10:54.49	1.01	8.29	-48.8	-62.1	3.8	1.49e+00	0	41	104	0	68	17284
2026-01-02 08:10:55.35	0.91	8.24	-48.9	-62.1	3.8	1.49e+00	0	41	104	0	68	17300
2026-01-02 08:10:56.50	0.77	8.17	-48.8	-62.1	3.8	1.49e+00	0	41	104	0	68	17375
2026-01-02 08:10:57.36	0.68	8.12	-48.7	-62.0	3.8	1.49e+00	0	41	104	0	68	17241
2026-01-02 08:10:58.50	0.55	8.06	-49.0	-62.0	3.8	1.49e+00	0	41	104	0	68	17278
2026-01-02 08:10:59.36	0.45	8.01	-48.8	-62.1	3.8	1.49e+00	0	41	104	0	68	17296
2026-01-02 08:11:00.51	0.32	7.94	-48.9	-62.1	3.8	1.49e+00	0	41	104	0	68	17340
2026-01-02 08:11:01.37	0.22	7.89	-48.8	-62.0	3.8	1.49e+00	0	41	104	0	68	17256
2026-01-02 08:11:02.52	0.09	7.82	-49.0	-62.0	3.8	1.49e+00	0	41	104	0	68	17239
2026-01-02 08:11:03.37	360.00	7.77	-49.0	-62.1	3.8	1.49e+00	0	41	104	0	68	17283
2026-01-02 08:11:04.52	359.87	7.71	-49.0	-62.1	3.8	1.49e+00	0	41	104	0	68	17309
2026-01-02 08:11:05.38	359.77	7.66	-48.9	-62.0	3.8	1.49e+00	0	41	104	0	68	17216
2026-01-02 08:11:06.53	359.64	7.59	-48.9	-62.0	3.8	1.49e+00	0	41	104	0	68	17232
2026-01-02 08:11:07.39	359.55	7.54	-49.0	-62.0	3.8	1.49e+00	0	41	104	0	68	17242
2026-01-02 08:11:08.54	359.42	7.47	-48.9	-62.0	3.8	1.49e+00	0	41	104	0	68	17215
2026-01-02 08:11:09.39	359.33	7.42	-48.9	-62.0	3.8	1.49e+00	0	41	104	0	68	17180
2026-01-02 08:11:10.54	359.20	7.36	-48.8	-62.0	3.8	1.49e+00	0	41	104	0	68	17208
2026-01-02 08:11:11.40	359.11	7.31	-48.8	-62.0	3.8	1.49e+00	0	41	104	0	68	17204
2026-01-02 08:11:12.55	358.99	7.24	-48.8	-62.0	3.8	1.49e+00	0	41	104	0	68	17194
2026-01-02 08:11:13.41	358.89	7.19	-48.8	-62.0	3.8	1.49e+00	0	41	104	0	68	17186
2026-01-02 08:11:14.55	358.77	7.12	-48.8	-62.0	3.8	1.49e+00	0	41	104	0	68	17115
2026-01-02 08:11:15.41	358.68	7.07	-48.8	-62.0	3.8	1.49e+00	0	41	104	0	68	17157
2026-01-02 08:11:16.56	358.56	7.01	-48.8	-61.9	3.8	1.49e+00	0	41	104	0	68	17044
2026-01-02 08:11:17.42	358.47	6.96	-48.8	-62.0	3.8	1.49e+00	0	41	104	0	68	17108
2026-01-02 08:11:18.56	358.35	6.89	-48.8	-62.0	3.8	1.49e+00	0	41	104	0	68	17087
2026-01-02 08:11:19.42	358.26	6.84	-48.8	-62.0	3.8	1.49e+00	0	41	104	0	68	17105
2026-01-02 08:11:20.57	358.14	6.78	-48.7	-62.0	3.8	1.49e+00	0	41	104	0	68	17092
2026-01-02 08:11:21.43	358.05	6.73	-48.8	-62.0	3.8	1.49e+00	0	41	104	0	68	17086
2026-01-02 08:11:22.58	357.93	6.66	-48.7	-62.0	3.8	1.49e+00	0	41	104	0	68	17117
2026-01-02 08:11:23.44	357.84	6.61	-48.8	-61.9	3.8	1.49e+00	0	41	104	0	68	17052
2026-01-02 08:11:24.58	357.72	6.54	-48.8	-61.9	3.8	1.49e+00	0	41	104	0	68	17054
2026-01-02 08:11:25.44	357.63	6.49	-48.7	-61.9	3.8	1.49e+00	0	41	104	0	68	17056
2026-01-02 08:11:26.59	357.52	6.43	-48.7	-61.9	3.8	1.49e+00	0	41	104	0	68	17050
2026-01-02 08:11:27.45	357.43	6.38	-48.7	-61.9	3.8	1.49e+00	0	41	104	0	68	17071
2026-01-02 08:11:28.59	357.31	6.31	-48.7	-61.9	3.8	1.49e+00	0	41	104	0	68	17048
2026-01-02 08:11:29.45	357.23	6.26	-48.7	-61.9	3.8	1.49e+00	0	41	104	0	68	17055
2026-01-02 08:11:30.60	357.11	6.20	-48.7	-61.9	3.8	1.49e+00	0	41	104	0	68	17043
2026-01-02 08:11:31.46	357.03	6.15	-48.7	-62.0	3.8	1.49e+00	0	41	104	0	68	17085
2026-01-02 08:11:32.61	356.91	6.08	-48.7	-62.0	3.8	1.49e+00	0	41	104	0	68	17103
2026-01-02 08:11:33.47	356.83	6.03	-48.7	-61.9	3.8	1.49e+00	0	41	104	0	68	17057
2026-01-02 08:11:34.61	356.71	5.97	-48.7	-62.0	3.8	1.49e+00	0	41	104	0	68	17088
2026-01-02 08:11:35.47	356.63	5.92	-48.7	-61.9	3.8	1.49e+00	0	41	104	0	68	17016
2026-01-02 08:11:36.62	356.52	5.85	-48.7	-61.9	3.8	1.49e+00	0	41	104	0	68	17048
2026-01-02 08:11:37.47	356.44	5.81	-48.7	-61.9	3.8	1.49e+00	0	41	104	0	68	17050
2026-01-02 08:11:38.62	356.32	5.74	-48.7	-61.9	3.8	1.49e+00	0	41	104	0	68	17026
2026-01-02 08:11:39.48	356.24	5.69	-48.7	-61.9	3.8	1.49e+00	0	41	104	0	68	16986
2026-01-02 08:11:40.63	356.13	5.63	-48.8	-61.9	3.8	1.49e+00	0	41	104	0	68	17048
2026-01-02 08:11:41.48	356.05	5.58	-48.7	-62.0	3.8	1.49e+00	0	41	104	0	68	17103
2026-01-02 08:11:42.63	355.94	5.51	-48.7	-61.9	3.8	1.49e+00	0	41	104	0	68	17078
2026-01-02 08:11:43.49	355.86	5.46	-48.7	-61.9	3.8	1.49e+00	0	41	104	0	68	17018
2026-01-02 08:11:44.64	355.75	5.40	-48.7	-61.9	3.8	1.49e+00	0	41	104	0	68	17014
2026-01-02 08:11:45.49	355.67	5.35	-48.7	-62.0	3.8	1.49e+00	0	41	104	0	68	17087
2026-01-02 08:11:46.64	355.56	5.29	-48.7	-61.9	3.8	1.49e+00	0	41	104	0	68	17057
2026-01-02 08:11:47.50	355.48	5.24	-48.7	-61.9	3.8	1.49e+00	0	41	104	0	68	17034
2026-01-02 08:11:48.64	355.37	5.17	-48.7	-62.0	3.8	1.49e+00	0	41	104	0	68	17098
2026-01-02 08:11:49.50	355.29	5.12	-48.7	-61.9	3.8	1.49e+00	0	41	104	0	68	16999
2026-01-02 08:11:50.65	355.19	5.06	-48.7	-61.9	3.8	1.49e+00	0	41	104	0	68	17048
2026-01-02 08:11:51.51	355.11	5.01	-48.7	-61.9	3.8	1.49e+00	0	41	104	0	68	17081
2026-01-02 08:11:52.66	355.00	4.95	-48.7	-61.9	3.8	1.49e+00	0	41	104	0	68	17064

#Closed at: 2026-01-02 08:11:53
#Recorded file [0 MB]: D:/Data/31040_260102_110143.dat