passes_logs/2026/01/02/T1/T1__20260102_115009_AQUA_rec.log

#Pass ID: 20260102_115009_AQUA
#Satellite: AQUA
#Configuration: AQUA
#almurnet v.1.7.20251203
#Start time: 2026-01-02 11:50:10

#Version: 2.0.20230620
#Station: T1
#Location: 37.570604 lon 55.790049 lat
#TLE: 1 27424U 02022A   25365.92641127  .00002078  00000+0  42628-3 0  9999
#TLE: 2 27424  98.4058 327.1196 0001962  94.7781 340.6230 14.61783896258835

#Time	Az	El	Level	Level2	SNR	BER	BlckErr	Temp	State	Recorded	gain1	gain2
2026-01-02 11:50:10.55	167.27	5.05	-50.7	-71.4	3.8	7.45e-01	0	37	0	0	72	40300
2026-01-02 11:50:11.55	167.29	5.12	-46.4	-67.8	4.1	7.36e-01	0	37	104	0	64	42261
2026-01-02 11:50:12.55	167.30	5.20	-46.4	-67.7	4.1	7.38e-01	0	37	104	0	64	41812
2026-01-02 11:50:13.56	167.31	5.28	-46.3	-68.0	3.9	7.45e-01	0	38	104	0	64	43077
2026-01-02 11:50:14.56	167.33	5.35	-46.5	-68.1	3.8	7.46e-01	0	38	104	0	64	43619
2026-01-02 11:50:15.57	167.34	5.43	-46.5	-68.3	3.9	7.44e-01	0	38	104	0	64	44875
2026-01-02 11:50:16.57	167.36	5.51	-46.5	-68.7	3.9	7.44e-01	0	38	104	0	64	46779
2026-01-02 11:50:17.57	167.37	5.58	-46.6	-69.2	3.8	7.47e-01	0	38	104	0	64	49818
2026-01-02 11:50:18.58	167.39	5.66	-46.5	-69.8	3.8	7.46e-01	0	38	104	0	64	53108
2026-01-02 11:50:19.58	167.40	5.74	-46.4	-70.4	3.8	7.46e-01	0	38	104	0	64	56600
2026-01-02 11:50:20.59	167.42	5.82	-46.5	-70.6	3.8	7.46e-01	0	38	104	0	64	58318
2026-01-02 11:50:21.59	167.43	5.89	-46.5	-70.6	3.8	7.48e-01	0	38	104	0	64	58181
2026-01-02 11:50:22.60	167.45	5.97	-46.6	-70.1	3.8	7.48e-01	0	38	104	0	64	54813
2026-01-02 11:50:23.60	167.46	6.05	-46.5	-69.0	3.8	7.42e-01	0	38	104	0	64	48548
2026-01-02 11:50:24.61	167.48	6.13	-46.5	-67.5	4.2	7.35e-01	0	38	104	0	64	40542
2026-01-02 11:50:25.61	167.49	6.21	-46.5	-66.6	4.5	7.23e-01	0	38	104	0	64	36651
2026-01-02 11:50:26.61	167.51	6.29	-46.4	-65.7	4.1	7.18e-01	0	38	104	0	64	33282
2026-01-02 11:50:27.62	167.52	6.37	-46.4	-64.9	5.2	7.01e-01	0	38	0	0	64	30158
2026-01-02 11:50:28.62	167.54	6.45	-46.3	-64.4	5.6	6.96e-01	0	38	0	524288	64	28552
2026-01-02 11:50:29.63	167.55	6.53	-46.3	-64.3	5.7	6.92e-01	0	38	0	1048576	64	28124
2026-01-02 11:50:30.63	167.57	6.61	-46.3	-64.2	5.7	6.95e-01	0	38	0	1572864	64	27921
2026-01-02 11:50:31.63	167.58	6.69	-46.3	-64.2	5.7	6.90e-01	0	39	0	2621440	64	27958
2026-01-02 11:50:32.64	167.60	6.77	-46.3	-64.3	5.7	6.96e-01	0	38	0	3670016	64	28202
2026-01-02 11:50:33.64	167.61	6.85	-46.3	-64.4	5.6	6.96e-01	0	38	0	4718592	64	28536
2026-01-02 11:50:34.65	167.63	6.94	-46.3	-64.5	5.5	6.98e-01	0	38	0	5242880	64	28892
2026-01-02 11:50:35.65	167.65	7.02	-46.3	-64.4	5.6	6.97e-01	0	38	0	6291456	64	28574
2026-01-02 11:50:36.66	167.66	7.10	-46.3	-64.1	5.8	6.91e-01	0	38	0	7340032	64	27597
2026-01-02 11:50:37.66	167.68	7.18	-46.3	-63.5	6.2	6.82e-01	0	39	0	8912896	64	25727
2026-01-02 11:50:38.66	167.69	7.27	-46.3	-62.5	7.1	6.64e-01	0	39	0	11010048	64	23022
2026-01-02 11:50:39.67	167.71	7.35	-46.2	-61.3	8.2	6.45e-01	0	39	0	12582912	64	20014
2026-01-02 11:50:40.67	167.73	7.43	-46.1	-60.0	9.5	6.27e-01	0	39	0	14680064	64	17220
2026-01-02 11:50:41.68	167.74	7.52	-46.2	-58.7	11.0	6.20e-01	0	39	0	16777216	63	15699
2026-01-02 11:50:42.68	167.76	7.60	-46.0	-57.3	12.4	6.14e-01	0	39	0	18350080	63	13407
2026-01-02 11:50:43.69	167.78	7.69	-45.8	-56.1	13.7	6.09e-01	0	39	0	20447232	63	11656
2026-01-02 11:50:44.69	167.79	7.77	-45.5	-55.0	14.9	6.08e-01	0	39	0	22020096	63	10242
2026-01-02 11:50:45.70	167.81	7.86	-45.5	-54.4	15.5	6.08e-01	0	39	0	24117248	63	9557
2026-01-02 11:50:46.70	167.83	7.94	-45.4	-53.5	16.3	6.06e-01	0	39	0	26214400	62	9169
2026-01-02 11:50:47.70	167.84	8.03	-45.3	-53.0	16.9	6.08e-01	0	39	0	27787264	62	8583
2026-01-02 11:50:48.71	167.86	8.11	-45.2	-52.5	17.5	6.07e-01	0	39	0	29884416	62	8090
2026-01-02 11:50:49.71	167.88	8.20	-45.1	-52.1	17.8	6.07e-01	0	39	0	31457280	62	7773
2026-01-02 11:50:50.72	167.90	8.29	-45.1	-52.4	17.5	6.06e-01	0	39	0	33554432	62	8028
2026-01-02 11:50:51.72	167.91	8.37	-45.0	-52.8	16.5	6.06e-01	0	39	0	35127296	62	8404
2026-01-02 11:50:52.73	167.93	8.46	-45.4	-53.8	16.2	6.09e-01	0	39	0	37224448	62	9389
2026-01-02 11:50:53.73	167.95	8.55	-45.5	-54.5	15.4	6.07e-01	0	39	0	39321600	62	10284
2026-01-02 11:50:54.73	167.96	8.64	-45.9	-56.1	13.8	6.08e-01	0	39	0	40894464	62	12365
2026-01-02 11:50:55.74	167.98	8.72	-46.0	-57.9	11.9	6.15e-01	0	39	0	42991616	62	15065
2026-01-02 11:50:56.74	168.00	8.81	-46.3	-60.5	9.2	6.32e-01	0	39	0	44564480	63	19359
2026-01-02 11:50:57.74	168.02	8.90	-46.3	-63.5	6.4	6.79e-01	0	39	0	46661632	63	27317
2026-01-02 11:50:58.75	168.04	8.99	-46.5	-67.2	3.9	7.36e-01	0	39	104	47185920	63	41932
2026-01-02 11:50:59.75	168.05	9.08	-46.4	-55.7	13.5	6.08e-01	0	39	0	47185920	64	10505
2026-01-02 11:51:00.75	168.07	9.17	-46.5	-67.0	4.0	7.44e-01	0	39	104	48758784	64	38283
2026-01-02 11:51:01.76	168.09	9.26	-47.2	-62.5	6.6	6.62e-01	0	39	104	48758784	65	21736
2026-01-02 11:51:02.76	168.11	9.35	-45.0	-51.4	18.3	6.07e-01	0	39	0	50331648	62	7165
2026-01-02 11:51:03.76	168.13	9.44	-47.1	-69.1	3.9	7.39e-01	0	39	104	51380224	65	46095
2026-01-02 11:51:04.77	168.15	9.54	-45.4	-52.8	16.2	6.09e-01	0	39	0	51380224	62	8460
2026-01-02 11:51:05.77	168.16	9.63	-44.6	-51.0	19.0	6.05e-01	0	39	0	53477376	60	7671
2026-01-02 11:51:06.77	168.18	9.72	-44.4	-50.4	19.5	6.08e-01	0	39	0	55050240	60	7180
2026-01-02 11:51:07.77	168.20	9.81	-44.1	-49.9	19.9	6.09e-01	0	39	0	57147392	60	6794
2026-01-02 11:51:08.78	168.22	9.91	-43.8	-49.1	21.0	6.08e-01	0	40	0	58720256	59	6497
2026-01-02 11:51:09.78	168.24	10.00	-44.0	-49.5	20.6	6.08e-01	0	39	0	60817408	59	6877
2026-01-02 11:51:10.79	168.26	10.09	-43.9	-49.4	20.6	6.06e-01	0	39	0	62914560	59	6785
2026-01-02 11:51:11.79	168.28	10.19	-44.0	-49.7	20.4	6.07e-01	0	39	0	64487424	59	6995
2026-01-02 11:51:12.79	168.30	10.28	-44.1	-49.8	20.3	6.08e-01	0	39	0	66584576	59	7101
2026-01-02 11:51:13.79	168.32	10.38	-43.9	-49.3	20.7	6.07e-01	0	39	0	68157440	59	6687
2026-01-02 11:51:14.79	168.34	10.47	-43.8	-49.2	20.7	6.07e-01	0	39	0	70254592	59	6632
2026-01-02 11:51:15.80	168.36	10.57	-43.7	-49.1	20.9	6.05e-01	0	39	0	72351744	59	6529
2026-01-02 11:51:16.80	168.38	10.67	-43.8	-49.1	20.9	6.07e-01	0	39	0	73924608	59	6557
2026-01-02 11:51:17.80	168.40	10.76	-43.5	-48.6	21.4	6.08e-01	0	40	0	76021760	58	6558
2026-01-02 11:51:18.81	168.42	10.86	-43.5	-48.2	21.8	6.08e-01	0	40	0	77594624	58	6205
2026-01-02 11:51:19.81	168.44	10.96	-43.5	-47.9	22.1	6.08e-01	0	40	0	79691776	58	6023
2026-01-02 11:51:20.81	168.46	11.05	-43.6	-47.8	22.2	6.05e-01	0	40	0	81788928	58	5963
2026-01-02 11:51:21.81	168.48	11.15	-43.7	-47.6	22.5	6.06e-01	0	39	0	83361792	58	5817
2026-01-02 11:51:22.82	168.50	11.25	-43.7	-47.3	22.8	6.06e-01	0	40	0	85458944	58	5636
2026-01-02 11:51:23.82	168.52	11.35	-43.7	-47.2	22.9	6.07e-01	0	39	0	87031808	58	5560
2026-01-02 11:51:24.82	168.54	11.45	-43.9	-47.4	22.9	6.06e-01	0	40	0	89128960	58	5708
2026-01-02 11:51:25.83	168.56	11.55	-44.3	-48.0	22.3	6.08e-01	0	40	0	90701824	59	5777
2026-01-02 11:51:26.83	168.58	11.65	-44.5	-48.0	22.1	6.08e-01	0	40	0	92798976	59	5758
2026-01-02 11:51:27.83	168.61	11.75	-44.5	-47.9	22.1	6.07e-01	0	40	0	94896128	59	5714
2026-01-02 11:51:28.84	168.63	11.86	-44.5	-48.0	22.1	6.06e-01	0	40	0	96468992	59	5731
2026-01-02 11:51:29.84	168.65	11.96	-44.6	-48.0	22.2	6.05e-01	0	40	0	98566144	59	5766
2026-01-02 11:51:30.84	168.67	12.06	-44.4	-47.9	22.1	6.07e-01	0	40	0	100139008	60	5350
2026-01-02 11:51:31.84	168.69	12.16	-44.1	-47.3	22.7	6.07e-01	0	40	0	102236160	59	5307
2026-01-02 11:51:32.84	168.71	12.27	-44.1	-47.3	22.9	6.07e-01	0	39	0	103809024	59	5298
2026-01-02 11:51:33.85	168.74	12.37	-44.0	-47.2	23.0	6.08e-01	0	40	0	105906176	59	5227
2026-01-02 11:51:34.85	168.76	12.48	-44.0	-47.2	19.8	6.08e-01	0	39	0	108003328	59	5257
2026-01-02 11:51:35.85	168.78	12.58	-44.1	-47.3	22.9	6.08e-01	0	40	0	109576192	59	5286
2026-01-02 11:51:36.86	168.80	12.69	-43.8	-46.9	23.2	6.06e-01	0	40	0	111673344	59	5056
2026-01-02 11:51:37.86	168.83	12.79	-43.9	-47.2	23.1	6.07e-01	0	40	0	113770496	59	5227
2026-01-02 11:51:38.87	168.85	12.90	-43.6	-46.7	23.4	6.07e-01	0	40	0	115343360	59	4963
2026-01-02 11:51:39.87	168.87	13.01	-43.5	-46.5	23.6	6.08e-01	0	40	0	117440512	58	5151
2026-01-02 11:51:40.87	168.90	13.11	-43.4	-46.4	23.6	6.09e-01	0	40	0	119013376	58	5099
2026-01-02 11:51:41.87	168.92	13.22	-43.5	-46.5	23.6	6.07e-01	0	40	0	121110528	58	5110
2026-01-02 11:51:42.88	168.94	13.33	-43.4	-46.5	23.7	6.07e-01	0	40	0	122683392	58	5107
2026-01-02 11:51:43.88	168.97	13.44	-43.3	-46.4	23.7	6.08e-01	0	40	0	124780544	58	5070
2026-01-02 11:51:44.88	168.99	13.55	-43.3	-46.5	23.6	6.06e-01	0	40	0	126877696	58	5112
2026-01-02 11:51:45.89	169.01	13.66	-43.2	-46.3	23.8	6.05e-01	0	40	0	128450560	58	5008
2026-01-02 11:51:46.89	169.04	13.77	-43.3	-46.3	23.8	6.07e-01	0	40	0	130547712	58	5032
2026-01-02 11:51:47.90	169.06	13.88	-43.3	-46.3	23.8	6.07e-01	0	40	0	132120576	58	5005
2026-01-02 11:51:48.90	169.09	13.99	-43.1	-46.1	24.0	6.05e-01	0	40	0	134217728	58	4896
2026-01-02 11:51:49.90	169.11	14.11	-43.1	-46.0	24.1	6.07e-01	0	40	0	136314880	58	4849
2026-01-02 11:51:50.91	169.14	14.22	-43.2	-46.1	24.0	6.09e-01	0	40	0	137887744	58	4871
2026-01-02 11:51:51.91	169.16	14.33	-43.2	-46.0	24.1	6.08e-01	0	40	0	139984896	58	4865
2026-01-02 11:51:52.92	169.19	14.45	-43.1	-45.9	24.2	6.07e-01	0	40	0	141557760	58	4804
2026-01-02 11:51:53.92	169.21	14.56	-43.1	-45.9	24.2	6.07e-01	0	40	0	143654912	58	4814
2026-01-02 11:51:54.92	169.24	14.68	-43.1	-45.9	24.2	6.07e-01	0	40	0	145752064	58	4778
2026-01-02 11:51:55.93	169.27	14.80	-43.1	-45.9	24.2	6.03e-01	0	40	0	147324928	58	4762
2026-01-02 11:51:56.93	169.29	14.91	-43.1	-45.9	24.3	6.06e-01	0	40	0	149422080	58	4771
2026-01-02 11:51:57.93	169.32	15.03	-43.1	-45.9	23.3	6.06e-01	0	40	0	150994944	58	4809
2026-01-02 11:51:58.93	169.34	15.15	-43.1	-45.9	24.2	6.07e-01	0	40	0	153092096	58	4791
2026-01-02 11:51:59.93	169.37	15.27	-43.1	-45.9	24.3	6.07e-01	0	40	0	154664960	58	4781
2026-01-02 11:52:00.94	169.40	15.39	-43.2	-45.9	24.2	6.07e-01	0	40	0	156762112	58	4806
2026-01-02 11:52:01.94	169.42	15.51	-43.2	-46.0	24.2	6.07e-01	0	40	0	158859264	58	4825
2026-01-02 11:52:02.94	169.45	15.63	-43.2	-45.9	24.2	6.05e-01	0	40	0	160432128	58	4801
2026-01-02 11:52:03.95	169.48	15.75	-43.3	-46.0	24.1	6.06e-01	0	40	0	162529280	58	4857
2026-01-02 11:52:04.95	169.51	15.87	-43.2	-45.9	24.3	6.08e-01	0	40	0	164102144	58	4774
2026-01-02 11:52:05.95	169.54	15.99	-43.3	-45.9	24.2	6.05e-01	0	40	0	166199296	58	4814
2026-01-02 11:52:06.96	169.56	16.12	-43.3	-46.0	23.8	6.08e-01	0	40	0	168296448	58	4821
2026-01-02 11:52:07.96	169.59	16.24	-43.3	-46.0	24.2	6.05e-01	0	40	0	169869312	58	4823
2026-01-02 11:52:08.96	169.62	16.36	-43.4	-46.0	24.2	6.07e-01	0	40	0	171966464	58	4860
2026-01-02 11:52:09.97	169.65	16.49	-43.4	-46.0	24.2	6.08e-01	0	40	0	173539328	58	4832
2026-01-02 11:52:10.97	169.68	16.62	-43.4	-46.0	24.2	6.05e-01	0	40	0	175636480	58	4844
2026-01-02 11:52:11.97	169.71	16.74	-43.3	-45.9	24.2	6.07e-01	0	40	0	177209344	58	4804
2026-01-02 11:52:12.98	169.74	16.87	-43.3	-45.9	24.3	6.07e-01	0	40	0	179306496	58	4777
2026-01-02 11:52:13.98	169.77	17.00	-43.2	-45.8	24.4	6.07e-01	0	40	0	181403648	58	4726
2026-01-02 11:52:14.98	169.80	17.13	-43.2	-45.8	24.4	6.06e-01	0	40	0	182976512	58	4721
2026-01-02 11:52:15.99	169.83	17.26	-43.1	-45.7	24.5	6.06e-01	0	40	0	185073664	58	4674
2026-01-02 11:52:16.99	169.86	17.39	-43.2	-45.8	24.3	6.07e-01	0	40	0	186646528	58	4755
2026-01-02 11:52:17.99	169.89	17.52	-43.1	-45.8	24.4	6.06e-01	0	40	0	188743680	58	4707
2026-01-02 11:52:19.00	169.92	17.65	-43.0	-45.7	24.5	6.06e-01	0	40	0	190840832	58	4664
2026-01-02 11:52:20.00	169.95	17.78	-43.1	-45.7	24.4	6.10e-01	0	40	0	192413696	58	4705
2026-01-02 11:52:21.00	169.98	17.92	-43.1	-45.7	24.5	6.07e-01	0	40	0	194510848	58	4681
2026-01-02 11:52:22.01	170.01	18.05	-43.1	-45.8	24.4	6.07e-01	0	40	0	196083712	58	4713
2026-01-02 11:52:23.01	170.05	18.19	-43.2	-45.9	24.3	6.07e-01	0	40	0	198180864	58	4772
2026-01-02 11:52:24.01	170.08	18.32	-43.2	-45.8	24.3	6.06e-01	0	40	0	200278016	58	4748
2026-01-02 11:52:25.01	170.11	18.46	-43.1	-45.8	24.4	6.06e-01	0	40	0	201850880	58	4707
2026-01-02 11:52:26.02	170.14	18.60	-43.2	-45.9	24.4	6.06e-01	0	40	0	203948032	58	4762
2026-01-02 11:52:27.02	170.18	18.74	-43.3	-46.0	24.3	6.09e-01	0	40	0	205520896	58	4826
2026-01-02 11:52:28.02	170.21	18.87	-43.2	-45.9	24.3	6.08e-01	0	40	0	207618048	58	4795
2026-01-02 11:52:29.03	170.24	19.02	-43.3	-45.9	24.3	6.06e-01	0	40	0	209190912	58	4809
2026-01-02 11:52:30.03	170.28	19.16	-43.4	-46.1	24.1	6.08e-01	0	40	0	211288064	58	4874
2026-01-02 11:52:31.03	170.31	19.30	-43.3	-45.9	24.3	6.06e-01	0	40	0	213385216	58	4809
2026-01-02 11:52:32.04	170.35	19.44	-43.3	-46.0	24.2	6.07e-01	0	40	0	214958080	58	4852
2026-01-02 11:52:33.04	170.38	19.59	-43.4	-46.0	24.2	6.07e-01	0	40	0	217055232	58	4859
2026-01-02 11:52:34.04	170.42	19.73	-43.2	-45.9	24.3	6.07e-01	0	40	0	218628096	58	4788
2026-01-02 11:52:35.05	170.45	19.88	-43.2	-45.9	24.3	6.07e-01	0	40	0	220725248	58	4796
2026-01-02 11:52:36.04	170.49	20.02	-43.2	-45.9	24.3	6.06e-01	0	40	0	222822400	58	4787
2026-01-02 11:52:37.05	170.53	20.17	-43.3	-46.0	24.3	6.05e-01	0	40	0	224395264	58	4816
2026-01-02 11:52:38.05	170.56	20.32	-43.3	-45.9	24.3	6.05e-01	0	40	0	226492416	58	4802
2026-01-02 11:52:39.05	170.60	20.47	-43.3	-45.9	24.3	6.08e-01	0	40	0	228065280	58	4801
2026-01-02 11:52:40.06	170.64	20.62	-43.2	-45.9	24.4	6.07e-01	0	40	0	230162432	58	4768
2026-01-02 11:52:41.06	170.67	20.77	-43.3	-45.9	24.2	6.06e-01	0	40	0	232259584	58	4814
2026-01-02 11:52:42.06	170.71	20.92	-43.4	-46.1	24.1	6.07e-01	0	40	0	233832448	58	4893
2026-01-02 11:52:43.06	170.75	21.07	-43.5	-46.2	24.1	6.06e-01	0	40	0	235929600	58	4959
2026-01-02 11:52:44.06	170.79	21.23	-43.5	-46.2	24.0	6.07e-01	0	40	0	237502464	58	4975
2026-01-02 11:52:45.06	170.83	21.38	-43.5	-46.3	24.0	6.07e-01	0	40	0	239599616	58	4988
2026-01-02 11:52:46.07	170.87	21.54	-43.6	-46.3	24.0	6.09e-01	0	40	0	241172480	58	4996
2026-01-02 11:52:47.07	170.91	21.70	-43.7	-46.4	23.9	6.07e-01	0	40	0	243269632	58	5064
2026-01-02 11:52:48.07	170.95	21.85	-43.7	-46.4	23.9	6.06e-01	0	40	0	245366784	58	5072
2026-01-02 11:52:49.08	170.99	22.01	-43.6	-46.3	24.1	6.07e-01	0	40	0	246939648	58	4993
2026-01-02 11:52:50.08	171.03	22.17	-43.7	-46.4	24.0	6.06e-01	0	40	0	249036800	58	5053
2026-01-02 11:52:51.08	171.07	22.34	-43.7	-46.3	24.0	6.07e-01	0	40	0	250609664	58	5022
2026-01-02 11:52:52.08	171.11	22.50	-43.6	-46.3	24.0	6.07e-01	0	40	0	252706816	58	5024
2026-01-02 11:52:53.08	171.15	22.66	-43.6	-46.3	24.0	6.07e-01	0	40	0	254279680	58	4993
2026-01-02 11:52:54.09	171.20	22.83	-43.5	-46.1	24.2	6.06e-01	0	40	0	256376832	58	4918
2026-01-02 11:52:55.09	171.24	22.99	-43.5	-46.2	24.1	6.08e-01	0	40	0	258473984	58	4927
2026-01-02 11:52:56.09	171.28	23.16	-43.6	-46.2	24.1	6.08e-01	0	40	0	260046848	58	4974
2026-01-02 11:52:57.09	171.33	23.33	-43.6	-46.3	24.0	6.05e-01	0	40	0	262144000	58	5010
2026-01-02 11:52:58.10	171.37	23.50	-43.5	-46.2	24.1	6.06e-01	0	40	0	263716864	58	4944
2026-01-02 11:52:59.10	171.42	23.67	-43.6	-46.3	24.0	6.05e-01	0	40	0	265814016	58	5010
2026-01-02 11:53:00.10	171.46	23.84	-43.6	-46.3	24.0	6.08e-01	0	40	0	267911168	58	5029
2026-01-02 11:53:01.11	171.51	24.02	-43.6	-46.3	24.0	6.08e-01	0	40	0	269484032	58	5028
2026-01-02 11:53:02.11	171.56	24.19	-43.6	-46.3	24.0	6.08e-01	0	40	0	271581184	58	5032
2026-01-02 11:53:03.11	171.60	24.37	-43.6	-46.4	24.0	6.05e-01	0	40	0	273154048	58	5054
2026-01-02 11:53:04.11	171.65	24.54	-43.7	-46.4	23.9	6.08e-01	0	40	0	275251200	58	5092
2026-01-02 11:53:05.11	171.70	24.72	-43.6	-46.4	23.9	6.08e-01	0	40	0	277348352	58	5064
2026-01-02 11:53:06.12	171.75	24.90	-43.7	-46.4	23.9	6.07e-01	0	40	0	278921216	58	5057
2026-01-02 11:53:07.12	171.80	25.08	-43.8	-46.6	23.9	6.07e-01	0	40	0	281018368	58	5167
2026-01-02 11:53:08.13	171.85	25.27	-43.8	-46.5	23.9	6.06e-01	0	40	0	282591232	58	5123
2026-01-02 11:53:09.13	171.90	25.45	-43.8	-46.6	23.8	6.08e-01	0	40	0	284688384	58	5163
2026-01-02 11:53:10.13	171.95	25.63	-43.7	-46.4	23.9	6.09e-01	0	40	0	286261248	58	5076
2026-01-02 11:53:11.14	172.00	25.82	-43.6	-46.3	24.1	6.05e-01	0	40	0	288358400	58	4989
2026-01-02 11:53:12.14	172.05	26.01	-43.6	-46.3	24.1	6.07e-01	0	40	0	290455552	58	4988
2026-01-02 11:53:13.14	172.10	26.20	-43.5	-46.2	24.2	6.08e-01	0	40	0	292028416	58	4935
2026-01-02 11:53:14.14	172.16	26.39	-43.6	-46.2	24.1	6.08e-01	0	40	0	294125568	58	4954
2026-01-02 11:53:15.14	172.21	26.58	-43.6	-46.2	24.1	6.07e-01	0	40	0	295698432	58	4951
2026-01-02 11:53:16.15	172.27	26.78	-43.6	-46.2	24.1	6.07e-01	0	40	0	297795584	58	4959
2026-01-02 11:53:17.15	172.32	26.97	-43.5	-46.1	24.3	6.06e-01	0	40	0	299892736	58	4885
2026-01-02 11:53:18.15	172.38	27.17	-43.3	-45.7	24.6	6.06e-01	0	40	0	301465600	58	4705
2026-01-02 11:53:19.15	172.43	27.36	-43.3	-45.8	24.5	6.06e-01	0	40	0	303562752	58	4706
2026-01-02 11:53:20.16	172.49	27.57	-43.2	-45.6	24.7	6.08e-01	0	40	0	305135616	58	4644
2026-01-02 11:53:21.16	172.55	27.77	-43.2	-45.6	24.7	6.06e-01	0	40	0	307232768	58	4607
2026-01-02 11:53:22.16	172.61	27.97	-43.2	-45.7	24.7	6.08e-01	0	40	0	309329920	58	4654
2026-01-02 11:53:23.17	172.67	28.17	-43.2	-45.6	24.7	6.07e-01	0	40	0	310902784	58	4633
2026-01-02 11:53:24.17	172.73	28.38	-43.2	-45.7	24.7	6.06e-01	0	40	0	312999936	58	4652
2026-01-02 11:53:25.17	172.79	28.59	-43.2	-45.6	24.8	6.08e-01	0	40	0	314572800	58	4602
2026-01-02 11:53:26.17	172.85	28.80	-43.1	-45.5	24.8	6.06e-01	0	40	0	316669952	58	4597
2026-01-02 11:53:27.18	172.91	29.01	-43.1	-45.5	24.8	6.08e-01	0	40	0	318242816	58	4579
2026-01-02 11:53:28.18	172.98	29.22	-43.2	-45.6	24.7	6.06e-01	0	40	0	320339968	58	4631
2026-01-02 11:53:29.19	173.04	29.44	-43.1	-45.6	24.7	6.06e-01	0	40	0	322437120	58	4610
2026-01-02 11:53:30.19	173.10	29.65	-43.2	-45.7	24.7	6.07e-01	0	41	0	324009984	58	4659
2026-01-02 11:53:31.19	173.17	29.87	-43.1	-45.6	24.8	6.07e-01	0	40	0	326107136	58	4603
2026-01-02 11:53:32.19	173.24	30.09	-42.9	-45.5	24.8	6.06e-01	0	40	0	327680000	57	4817
2026-01-02 11:53:33.19	173.30	30.31	-42.9	-45.5	24.8	6.06e-01	0	40	0	329777152	57	4828
2026-01-02 11:53:34.20	173.37	30.53	-42.9	-45.4	24.9	6.06e-01	0	40	0	331350016	57	4810
2026-01-02 11:53:35.20	173.44	30.76	-43.0	-45.5	24.8	6.07e-01	0	40	0	333447168	57	4865
2026-01-02 11:53:36.20	173.51	30.98	-43.1	-45.7	24.7	6.07e-01	0	40	0	335544320	57	4938
2026-01-02 11:53:37.21	173.58	31.21	-43.2	-45.7	24.6	6.07e-01	0	40	0	337117184	57	4983
2026-01-02 11:53:38.21	173.66	31.44	-43.1	-45.6	24.7	6.06e-01	0	40	0	339214336	57	4921
2026-01-02 11:53:39.21	173.73	31.67	-43.0	-45.4	24.9	6.06e-01	0	40	0	341311488	57	4800
2026-01-02 11:53:40.21	173.80	31.91	-43.1	-45.6	24.7	6.05e-01	0	40	0	342884352	57	4894
2026-01-02 11:53:41.21	173.88	32.14	-43.3	-45.8	24.5	6.07e-01	0	40	0	344981504	57	5013
2026-01-02 11:53:42.22	173.96	32.38	-43.5	-46.0	24.3	6.06e-01	0	40	0	346554368	57	5129
2026-01-02 11:53:43.21	174.03	32.62	-43.5	-46.0	24.3	6.06e-01	0	40	0	348651520	57	5146
2026-01-02 11:53:44.22	174.11	32.87	-43.6	-46.1	24.3	6.09e-01	0	40	0	350224384	57	5178
2026-01-02 11:53:45.21	174.19	33.11	-43.6	-46.1	24.3	6.05e-01	0	40	0	352321536	57	5160
2026-01-02 11:53:46.22	174.27	33.35	-43.6	-46.1	24.3	6.09e-01	0	40	0	354418688	57	5188
2026-01-02 11:53:47.22	174.36	33.60	-43.8	-46.4	24.0	6.05e-01	0	40	0	355991552	58	5061
2026-01-02 11:53:48.22	174.44	33.85	-43.9	-46.4	24.0	6.06e-01	0	40	0	358088704	58	5079
2026-01-02 11:53:49.22	174.52	34.10	-43.9	-46.5	23.9	6.06e-01	0	40	0	359661568	58	5153
2026-01-02 11:53:50.21	174.61	34.36	-44.0	-46.6	23.8	6.08e-01	0	41	0	361758720	58	5167
2026-01-02 11:53:51.21	174.70	34.61	-44.0	-46.7	23.8	6.07e-01	0	40	0	363331584	58	5219
2026-01-02 11:53:52.21	174.78	34.87	-44.1	-46.7	23.7	6.07e-01	0	40	0	365428736	58	5273
2026-01-02 11:53:53.22	174.88	35.13	-44.3	-46.9	23.6	6.05e-01	0	40	0	367525888	59	5070
2026-01-02 11:53:54.22	174.97	35.40	-44.3	-46.9	23.5	6.08e-01	0	40	0	369098752	59	5076
2026-01-02 11:53:55.22	175.06	35.66	-44.3	-47.0	23.5	6.07e-01	0	40	0	371195904	59	5148
2026-01-02 11:53:56.21	175.15	35.93	-44.5	-47.2	23.3	6.07e-01	0	40	0	372768768	59	5240
2026-01-02 11:53:57.22	175.25	36.20	-44.7	-47.4	23.1	6.06e-01	0	40	0	374865920	59	5369
2026-01-02 11:53:58.22	175.35	36.47	-44.6	-47.3	23.0	6.08e-01	0	40	0	376438784	60	5035
2026-01-02 11:53:59.22	175.45	36.74	-44.5	-47.3	23.1	6.07e-01	0	40	0	378535936	60	5005
2026-01-02 11:54:00.22	175.55	37.02	-44.5	-47.3	23.1	6.05e-01	0	40	0	380633088	60	5019
2026-01-02 11:54:01.22	175.65	37.30	-44.7	-47.5	22.8	6.07e-01	0	40	0	382205952	60	5150
2026-01-02 11:54:02.22	175.76	37.58	-44.8	-47.7	22.7	6.09e-01	0	40	0	384303104	60	5277
2026-01-02 11:54:03.22	175.86	37.87	-45.0	-48.1	22.4	6.07e-01	0	40	0	385875968	60	5478
2026-01-02 11:54:04.21	175.97	38.15	-45.1	-48.1	22.3	6.05e-01	0	40	0	387973120	61	5160
2026-01-02 11:54:05.22	176.08	38.44	-44.9	-47.8	22.6	6.07e-01	0	40	0	390070272	61	5022
2026-01-02 11:54:06.22	176.19	38.73	-44.9	-47.8	22.7	6.06e-01	0	40	0	391643136	61	4988
2026-01-02 11:54:07.22	176.31	39.03	-45.0	-47.9	22.5	6.08e-01	0	41	0	393740288	61	5082
2026-01-02 11:54:08.22	176.42	39.32	-45.1	-48.1	22.3	6.06e-01	0	40	0	395313152	61	5195
2026-01-02 11:54:09.22	176.54	39.62	-44.9	-47.9	22.5	6.08e-01	0	40	0	397410304	61	5043
2026-01-02 11:54:10.22	176.66	39.92	-44.9	-47.8	22.6	6.08e-01	0	41	0	398983168	61	5019
2026-01-02 11:54:11.22	176.78	40.23	-44.7	-47.5	22.9	6.07e-01	0	41	0	401080320	61	4834
2026-01-02 11:54:12.23	176.91	40.54	-44.7	-47.5	22.9	6.09e-01	0	41	0	403177472	61	4832
2026-01-02 11:54:13.23	177.04	40.85	-44.5	-47.2	23.1	6.08e-01	0	40	0	404750336	61	4682
2026-01-02 11:54:14.23	177.17	41.16	-44.4	-47.0	23.3	6.08e-01	0	40	0	406847488	60	4838
2026-01-02 11:54:15.23	177.30	41.47	-44.2	-46.8	23.5	6.07e-01	0	40	0	408420352	60	4753
2026-01-02 11:54:16.23	177.43	41.79	-44.0	-46.6	23.8	6.08e-01	0	40	0	410517504	60	4599
2026-01-02 11:54:17.23	177.57	42.11	-43.9	-46.4	24.0	6.05e-01	0	40	0	412090368	59	4793
2026-01-02 11:54:18.23	177.71	42.44	-44.1	-46.6	23.9	6.07e-01	0	40	0	414187520	59	4903
2026-01-02 11:54:19.23	177.85	42.76	-44.0	-46.6	23.8	6.07e-01	0	41	0	416284672	59	4905
2026-01-02 11:54:20.23	178.00	43.09	-43.8	-46.4	24.0	6.07e-01	0	41	0	417857536	59	4765
2026-01-02 11:54:21.23	178.15	43.42	-43.8	-46.3	24.1	6.07e-01	0	40	0	419954688	59	4724
2026-01-02 11:54:22.23	178.30	43.76	-43.4	-45.9	24.5	6.07e-01	0	40	0	421527552	58	4775
2026-01-02 11:54:23.23	178.46	44.09	-43.6	-46.2	24.2	6.07e-01	0	40	0	423624704	58	4934
2026-01-02 11:54:24.23	178.61	44.43	-43.7	-46.2	24.2	6.07e-01	0	41	0	425197568	58	4963
2026-01-02 11:54:25.24	178.78	44.78	-43.3	-45.8	24.5	6.04e-01	0	40	0	427294720	58	4737
2026-01-02 11:54:26.24	178.94	45.13	-43.1	-45.5	24.9	6.07e-01	0	40	0	429391872	58	4550
2026-01-02 11:54:27.24	179.11	45.47	-43.2	-45.6	24.7	6.07e-01	0	40	0	430964736	58	4618
2026-01-02 11:54:28.25	179.29	45.83	-43.4	-45.9	24.5	6.05e-01	0	40	0	433061888	58	4767
2026-01-02 11:54:29.25	179.46	46.18	-43.2	-45.6	24.7	6.06e-01	0	40	0	435159040	58	4637
2026-01-02 11:54:30.25	179.64	46.54	-43.3	-45.6	24.7	6.06e-01	0	40	0	436731904	58	4647
2026-01-02 11:54:31.25	179.83	46.90	-43.4	-45.8	24.5	6.07e-01	0	41	0	438829056	58	4748
2026-01-02 11:54:32.25	180.02	47.27	-43.6	-46.1	24.3	6.07e-01	0	41	0	440401920	58	4887
2026-01-02 11:54:33.25	180.21	47.63	-43.3	-45.7	24.5	6.07e-01	0	40	0	442499072	58	4696
2026-01-02 11:54:34.25	180.41	48.00	-43.3	-45.7	24.7	6.07e-01	0	41	0	444071936	58	4673
2026-01-02 11:54:35.25	180.61	48.38	-43.3	-45.7	24.6	6.07e-01	0	41	0	446169088	58	4693
2026-01-02 11:54:36.26	180.82	48.75	-43.3	-45.7	24.7	6.05e-01	0	41	0	448266240	58	4686
2026-01-02 11:54:37.26	181.04	49.13	-43.0	-45.4	24.9	6.07e-01	0	40	0	449839104	58	4519
2026-01-02 11:54:38.26	181.25	49.51	-43.1	-45.5	24.8	6.07e-01	0	40	0	451936256	58	4576
2026-01-02 11:54:39.26	181.48	49.90	-43.2	-45.6	24.7	6.07e-01	0	40	0	453509120	58	4640
2026-01-02 11:54:40.26	181.71	50.29	-43.1	-45.5	24.9	6.05e-01	0	41	0	455606272	58	4564
2026-01-02 11:54:41.27	181.95	50.68	-42.9	-45.2	25.0	6.06e-01	0	41	0	457179136	57	4695
2026-01-02 11:54:42.27	182.19	51.07	-42.8	-45.2	25.1	6.08e-01	0	41	0	459276288	57	4671
2026-01-02 11:54:43.27	182.44	51.47	-42.9	-45.3	25.0	6.08e-01	0	41	0	461373440	57	4720
2026-01-02 11:54:44.27	182.69	51.87	-42.8	-45.2	25.1	6.05e-01	0	41	0	462946304	57	4680
2026-01-02 11:54:45.27	182.95	52.27	-42.6	-45.0	25.3	6.06e-01	0	40	0	465043456	57	4554
2026-01-02 11:54:46.27	183.22	52.68	-42.7	-45.0	25.2	6.06e-01	0	41	0	466616320	57	4581
2026-01-02 11:54:47.27	183.50	53.08	-42.7	-45.1	25.2	6.08e-01	0	40	0	468713472	57	4617
2026-01-02 11:54:48.27	183.78	53.49	-42.5	-44.8	25.5	6.06e-01	0	41	0	470286336	56	4730
2026-01-02 11:54:49.27	184.08	53.91	-42.9	-45.3	25.0	6.05e-01	0	40	0	472383488	56	5020
2026-01-02 11:54:50.27	184.38	54.32	-42.7	-45.1	25.2	6.06e-01	0	41	0	474480640	56	4906
2026-01-02 11:54:51.27	184.69	54.74	-42.8	-45.3	25.0	6.07e-01	0	41	0	476053504	56	5025
2026-01-02 11:54:52.27	185.01	55.16	-43.0	-45.4	24.9	6.09e-01	0	41	0	478150656	56	5091
2026-01-02 11:54:53.27	185.33	55.59	-43.1	-45.5	24.8	6.07e-01	0	40	0	479723520	57	4829
2026-01-02 11:54:54.27	185.67	56.01	-43.2	-45.6	24.8	6.06e-01	0	41	0	481820672	57	4918
2026-01-02 11:54:55.27	186.02	56.44	-43.7	-46.2	24.3	6.07e-01	0	40	0	483917824	58	4930
2026-01-02 11:54:56.28	186.39	56.88	-43.6	-46.0	24.3	6.07e-01	0	41	0	485490688	58	4865
2026-01-02 11:54:57.28	186.76	57.31	-43.9	-46.4	24.0	6.09e-01	0	40	0	487587840	58	5046
2026-01-02 11:54:58.28	187.14	57.75	-43.9	-46.3	24.1	6.07e-01	0	41	0	489160704	58	5040
2026-01-02 11:54:59.29	187.54	58.19	-44.2	-46.8	23.7	6.06e-01	0	40	0	491257856	59	4995
2026-01-02 11:55:00.29	187.95	58.63	-44.2	-46.8	23.6	6.07e-01	0	41	0	492830720	59	5022
2026-01-02 11:55:01.29	188.37	59.07	-44.1	-46.8	23.6	6.07e-01	0	40	0	494927872	59	5000
2026-01-02 11:55:02.29	188.81	59.52	-44.6	-47.3	23.2	6.05e-01	0	41	0	497025024	59	5290
2026-01-02 11:55:03.29	189.27	59.96	-44.6	-47.3	23.2	6.08e-01	0	41	0	498597888	59	5288
2026-01-02 11:55:04.30	189.74	60.42	-44.7	-47.4	23.0	6.08e-01	0	41	0	500695040	60	5060
2026-01-02 11:55:05.30	190.23	60.87	-44.9	-47.7	22.8	6.07e-01	0	41	0	502267904	60	5227
2026-01-02 11:55:06.30	190.73	61.32	-45.0	-47.8	22.7	6.08e-01	0	41	0	504365056	60	5297
2026-01-02 11:55:07.30	191.25	61.77	-45.5	-48.4	22.1	6.08e-01	0	41	0	506462208	61	5343
2026-01-02 11:55:08.31	191.80	62.23	-45.4	-48.3	22.2	6.08e-01	0	41	0	508035072	61	5294
2026-01-02 11:55:09.31	192.36	62.68	-45.4	-48.6	21.9	6.08e-01	0	41	0	510132224	61	5472
2026-01-02 11:55:10.31	192.95	63.13	-45.7	-49.2	21.2	6.07e-01	0	41	0	511705088	62	5533
2026-01-02 11:55:11.31	193.55	63.59	-45.7	-49.0	21.5	6.09e-01	0	41	0	513802240	62	5412
2026-01-02 11:55:12.31	194.18	64.04	-46.5	-49.9	20.6	6.06e-01	0	41	0	515375104	63	5694
2026-01-02 11:55:13.31	194.84	64.50	-46.6	-50.1	20.4	6.06e-01	0	41	0	517472256	63	5815
2026-01-02 11:55:14.31	195.52	64.96	-46.6	-50.2	20.3	6.05e-01	0	41	0	519569408	64	5532
2026-01-02 11:55:15.31	196.23	65.41	-46.6	-50.2	20.2	6.07e-01	0	41	0	521142272	64	5538
2026-01-02 11:55:16.31	196.97	65.86	-46.6	-50.5	20.0	6.08e-01	0	41	0	523239424	64	5753
2026-01-02 11:55:17.31	197.74	66.32	-46.4	-50.1	20.3	6.07e-01	0	40	0	524812288	64	5528
2026-01-02 11:55:18.31	198.55	66.77	-47.1	-50.9	19.5	6.08e-01	0	41	0	526909440	64	6053
2026-01-02 11:55:19.31	199.39	67.22	-47.0	-50.6	19.9	6.07e-01	0	41	0	529006592	65	5513
2026-01-02 11:55:20.31	200.26	67.66	-47.2	-51.1	19.3	6.07e-01	0	41	0	530579456	65	5825
2026-01-02 11:55:21.31	201.18	68.11	-47.6	-51.7	18.8	6.09e-01	0	41	0	532676608	65	6259
2026-01-02 11:55:22.31	202.13	68.55	-47.9	-52.0	18.5	6.06e-01	0	40	0	534249472	66	6110
2026-01-02 11:55:23.31	203.13	68.99	-47.5	-51.6	18.9	6.09e-01	0	41	0	536346624	66	5790
2026-01-02 11:55:24.31	204.18	69.42	-47.2	-51.0	19.5	6.08e-01	0	41	0	537919488	66	5445
2026-01-02 11:55:25.31	205.27	69.85	-47.7	-51.9	18.6	6.08e-01	0	41	0	540016640	66	6046
2026-01-02 11:55:26.31	206.41	70.28	-47.1	-51.0	19.6	6.09e-01	0	41	0	542113792	66	5403
2026-01-02 11:55:27.31	207.61	70.70	-46.7	-50.2	20.2	6.07e-01	0	41	0	543686656	65	5274
2026-01-02 11:55:28.32	208.88	71.11	-46.9	-50.5	19.9	6.06e-01	0	41	0	545783808	65	5429
2026-01-02 11:55:29.32	210.19	71.52	-46.6	-50.3	20.2	6.07e-01	0	41	0	547356672	65	5288
2026-01-02 11:55:30.32	211.56	71.92	-46.0	-49.3	21.0	6.07e-01	0	40	0	549453824	64	5026
2026-01-02 11:55:31.32	213.00	72.30	-46.5	-50.0	20.4	6.06e-01	0	41	0	551026688	64	5404
2026-01-02 11:55:32.33	214.52	72.69	-46.2	-49.4	20.9	6.08e-01	0	41	0	553123840	64	5081
2026-01-02 11:55:33.33	216.10	73.06	-45.6	-48.5	21.8	6.07e-01	0	41	0	555220992	63	4850
2026-01-02 11:55:34.33	217.75	73.41	-46.0	-49.1	21.4	6.08e-01	0	41	0	556793856	62	5499
2026-01-02 11:55:35.33	219.47	73.76	-46.0	-49.2	21.2	6.08e-01	0	41	0	558891008	62	5533
2026-01-02 11:55:36.33	221.27	74.09	-45.7	-48.7	21.8	6.07e-01	0	40	0	560463872	62	5237
2026-01-02 11:55:37.33	223.15	74.40	-46.2	-49.5	20.9	6.07e-01	0	41	0	562561024	63	5435
2026-01-02 11:55:38.33	225.10	74.70	-46.1	-49.2	21.2	6.06e-01	0	41	0	564133888	63	5273
2026-01-02 11:55:39.33	227.14	74.98	-46.1	-49.2	21.2	6.08e-01	0	40	0	566231040	63	5247
2026-01-02 11:55:40.34	229.27	75.25	-46.2	-49.5	21.0	6.07e-01	0	41	0	568328192	63	5407
2026-01-02 11:55:41.34	231.47	75.50	-45.3	-48.4	22.1	6.07e-01	0	41	0	569901056	62	5063
2026-01-02 11:55:42.34	233.73	75.72	-45.2	-48.2	22.3	6.06e-01	0	41	0	571998208	62	4969
2026-01-02 11:55:43.34	236.07	75.92	-45.3	-48.2	22.2	6.08e-01	0	41	0	573571072	62	4959
2026-01-02 11:55:44.34	238.47	76.10	-44.7	-47.6	22.8	6.06e-01	0	40	0	575668224	61	4876
2026-01-02 11:55:45.34	240.93	76.26	-44.7	-47.6	22.8	6.09e-01	0	41	0	577765376	61	4910
2026-01-02 11:55:46.35	243.48	76.39	-44.8	-47.9	22.5	6.07e-01	0	40	0	579338240	61	5042
2026-01-02 11:55:47.35	246.04	76.49	-44.9	-47.7	22.8	6.06e-01	0	41	0	581435392	61	4934
2026-01-02 11:55:48.35	248.64	76.57	-45.1	-48.1	22.4	6.08e-01	0	41	0	583008256	61	5182
2026-01-02 11:55:49.35	251.26	76.62	-45.0	-48.0	22.4	6.06e-01	0	40	0	585105408	61	5119
2026-01-02 11:55:50.36	253.93	76.65	-44.5	-47.3	23.1	6.07e-01	0	41	0	587202560	61	4749
2026-01-02 11:55:51.36	256.57	76.64	-45.1	-48.2	22.2	6.05e-01	0	41	0	588775424	61	5253
2026-01-02 11:55:52.36	259.21	76.61	-45.0	-48.0	22.4	6.05e-01	0	41	0	590872576	61	5115
2026-01-02 11:55:53.35	261.80	76.55	-44.8	-47.7	22.7	6.07e-01	0	41	0	592445440	61	4969
2026-01-02 11:55:54.35	264.39	76.47	-45.2	-48.2	22.3	6.07e-01	0	41	0	594542592	61	5219
2026-01-02 11:55:55.35	266.94	76.36	-45.0	-47.9	22.5	6.06e-01	0	40	0	596115456	61	5056
2026-01-02 11:55:56.35	269.44	76.22	-45.0	-47.9	22.6	6.08e-01	0	41	0	598212608	61	5048
2026-01-02 11:55:57.35	271.89	76.06	-44.6	-47.5	22.9	6.07e-01	0	41	0	600309760	61	4838
2026-01-02 11:55:58.35	274.28	75.88	-44.7	-47.6	22.8	6.08e-01	0	41	0	601882624	61	4882
2026-01-02 11:55:59.36	276.62	75.67	-45.0	-47.8	22.7	6.07e-01	0	41	0	603979776	61	5023
2026-01-02 11:56:00.36	278.86	75.44	-44.9	-47.8	22.7	6.05e-01	0	41	0	605552640	61	5021
2026-01-02 11:56:01.36	281.03	75.19	-44.9	-47.9	22.6	6.06e-01	0	41	0	607649792	61	5100
2026-01-02 11:56:02.36	283.13	74.92	-45.2	-48.2	22.2	6.06e-01	0	41	0	609222656	61	5271
2026-01-02 11:56:03.36	285.14	74.63	-45.2	-48.3	22.3	6.08e-01	0	41	0	611319808	61	5282
2026-01-02 11:56:04.36	287.08	74.33	-45.4	-48.5	22.0	6.07e-01	0	41	0	613416960	61	5441
2026-01-02 11:56:05.37	288.95	74.00	-45.6	-48.7	21.8	6.05e-01	0	41	0	614989824	61	5584
2026-01-02 11:56:06.36	290.71	73.67	-45.6	-48.6	21.9	6.06e-01	0	41	0	617086976	61	5473
2026-01-02 11:56:07.36	292.41	73.33	-45.6	-48.6	22.0	6.08e-01	0	41	0	618659840	61	5488
2026-01-02 11:56:08.36	294.04	72.97	-45.6	-48.6	21.9	6.07e-01	0	41	0	620756992	61	5501
2026-01-02 11:56:09.37	295.62	72.59	-45.4	-48.4	22.0	6.06e-01	0	41	0	622854144	61	5397
2026-01-02 11:56:10.37	297.11	72.21	-45.4	-48.4	22.1	6.07e-01	0	41	0	624427008	61	5390
2026-01-02 11:56:11.37	298.53	71.82	-45.4	-48.4	22.1	6.08e-01	0	41	0	626524160	61	5364
2026-01-02 11:56:12.37	299.88	71.43	-45.5	-48.6	21.8	6.10e-01	0	41	0	628097024	62	5209
2026-01-02 11:56:13.37	301.18	71.02	-45.6	-48.7	21.8	6.07e-01	0	41	0	630194176	62	5226
2026-01-02 11:56:14.37	302.42	70.61	-46.0	-49.1	21.5	6.09e-01	0	41	0	631767040	62	5471
2026-01-02 11:56:15.37	303.60	70.19	-45.9	-48.9	21.6	6.06e-01	0	41	0	633864192	62	5380
2026-01-02 11:56:16.37	304.73	69.76	-46.2	-49.4	21.2	6.07e-01	0	41	0	635961344	63	5369
2026-01-02 11:56:17.38	305.82	69.33	-46.4	-49.6	21.0	6.07e-01	0	41	0	637534208	63	5509
2026-01-02 11:56:18.38	306.86	68.89	-46.1	-49.2	21.4	6.08e-01	0	41	0	639631360	63	5247
2026-01-02 11:56:19.37	307.83	68.46	-46.5	-50.0	20.5	6.05e-01	0	41	0	641204224	63	5758
2026-01-02 11:56:20.38	308.79	68.01	-46.1	-49.4	21.1	6.06e-01	0	41	0	643301376	63	5372
2026-01-02 11:56:21.38	309.69	67.57	-46.3	-49.6	21.0	6.05e-01	0	41	0	644874240	63	5483
2026-01-02 11:56:22.38	310.56	67.12	-46.2	-49.4	21.1	6.06e-01	0	41	0	646971392	63	5393
2026-01-02 11:56:23.38	311.39	66.67	-45.6	-48.6	21.9	6.08e-01	0	41	0	649068544	63	4879
2026-01-02 11:56:24.38	312.18	66.22	-45.9	-49.1	21.5	6.07e-01	0	41	0	650641408	63	5171
2026-01-02 11:56:25.39	312.95	65.77	-45.6	-48.6	22.0	6.05e-01	0	41	0	652738560	63	4882
2026-01-02 11:56:26.39	313.69	65.31	-45.1	-48.0	22.5	6.07e-01	0	41	0	654311424	62	4838
2026-01-02 11:56:27.39	314.39	64.86	-45.3	-48.3	22.2	6.08e-01	0	41	0	656408576	62	5038
2026-01-02 11:56:28.39	315.06	64.41	-45.2	-48.2	22.3	6.07e-01	0	41	0	657981440	62	4930
2026-01-02 11:56:29.39	315.71	63.95	-44.8	-47.7	22.8	6.07e-01	0	41	0	660078592	61	4946
2026-01-02 11:56:30.39	316.34	63.50	-44.8	-47.6	22.9	6.06e-01	0	41	0	662175744	61	4898
2026-01-02 11:56:31.39	316.94	63.04	-44.6	-47.3	23.1	6.06e-01	0	41	0	663748608	61	4750
2026-01-02 11:56:32.39	317.52	62.59	-44.6	-47.2	23.2	6.07e-01	0	41	0	665845760	61	4701
2026-01-02 11:56:33.40	318.08	62.13	-44.6	-47.4	23.1	6.06e-01	0	41	0	667418624	60	5043
2026-01-02 11:56:34.40	318.61	61.68	-44.2	-46.8	23.5	6.06e-01	0	41	0	669515776	60	4745
2026-01-02 11:56:35.40	319.13	61.23	-44.1	-46.8	23.6	6.07e-01	0	41	0	671612928	60	4736
2026-01-02 11:56:36.40	319.63	60.78	-43.9	-46.6	23.9	6.06e-01	0	41	0	673185792	59	4883
2026-01-02 11:56:37.40	320.11	60.34	-44.3	-47.1	23.4	6.06e-01	0	41	0	675282944	59	5193
2026-01-02 11:56:38.40	320.58	59.89	-44.0	-46.6	23.8	6.07e-01	0	41	0	676855808	59	4906
2026-01-02 11:56:39.40	321.03	59.45	-44.3	-46.9	23.6	6.06e-01	0	41	0	678952960	59	5086
2026-01-02 11:56:40.40	321.46	59.00	-43.8	-46.4	24.0	6.08e-01	0	41	0	680525824	59	4783
2026-01-02 11:56:41.40	321.88	58.56	-43.8	-46.5	24.0	6.06e-01	0	41	0	682622976	59	4864
2026-01-02 11:56:42.40	322.29	58.12	-43.7	-46.3	24.1	6.08e-01	0	41	0	684720128	59	4733
2026-01-02 11:56:43.40	322.68	57.69	-43.9	-46.6	23.9	6.06e-01	0	41	0	686292992	59	4894
2026-01-02 11:56:44.41	323.06	57.25	-43.3	-45.7	24.7	6.08e-01	0	41	0	688390144	58	4666
2026-01-02 11:56:45.41	323.43	56.82	-43.4	-45.9	24.5	6.05e-01	0	41	0	689963008	58	4790
2026-01-02 11:56:46.41	323.79	56.39	-42.9	-45.3	25.0	6.07e-01	0	41	0	692060160	57	4742
2026-01-02 11:56:47.42	324.14	55.96	-43.0	-45.5	24.9	6.08e-01	0	41	0	694157312	57	4824
2026-01-02 11:56:48.42	324.48	55.53	-42.8	-45.2	25.1	6.07e-01	0	41	0	695730176	57	4668
2026-01-02 11:56:49.42	324.80	55.11	-42.7	-45.1	25.2	6.07e-01	0	41	0	697827328	57	4646
2026-01-02 11:56:50.42	325.12	54.69	-42.8	-45.3	25.0	6.06e-01	0	41	0	699400192	57	4759
2026-01-02 11:56:51.42	325.43	54.28	-42.8	-45.3	25.1	6.06e-01	0	41	0	701497344	57	4720
2026-01-02 11:56:52.42	325.73	53.86	-42.7	-45.1	25.2	6.06e-01	0	41	0	703070208	57	4620
2026-01-02 11:56:53.42	326.02	53.45	-42.8	-45.3	25.1	6.09e-01	0	41	0	705167360	57	4718
2026-01-02 11:56:54.42	326.30	53.04	-42.8	-45.3	25.0	6.08e-01	0	41	0	707264512	57	4742
2026-01-02 11:56:55.43	326.58	52.63	-42.7	-45.3	25.1	6.08e-01	0	41	0	708837376	57	4713
2026-01-02 11:56:56.43	326.84	52.23	-43.1	-45.7	24.7	6.07e-01	0	41	0	710934528	57	4944
2026-01-02 11:56:57.43	327.10	51.83	-43.3	-45.8	24.6	6.04e-01	0	41	0	712507392	57	5005
2026-01-02 11:56:58.43	327.36	51.43	-43.3	-45.8	24.7	6.08e-01	0	41	0	714604544	57	4986
2026-01-02 11:56:59.43	327.60	51.04	-43.4	-45.9	24.5	6.06e-01	0	41	0	716701696	57	5049
2026-01-02 11:57:00.43	327.84	50.65	-43.6	-46.1	24.3	6.07e-01	0	41	0	718274560	57	5191
2026-01-02 11:57:01.43	328.08	50.26	-43.6	-46.1	24.3	6.06e-01	0	41	0	720371712	57	5190
2026-01-02 11:57:02.43	328.31	49.87	-43.5	-46.0	24.4	6.07e-01	0	41	0	721944576	57	5132
2026-01-02 11:57:03.43	328.53	49.49	-43.5	-46.0	24.4	6.08e-01	0	41	0	724041728	57	5148
2026-01-02 11:57:04.43	328.75	49.11	-43.8	-46.5	24.0	6.05e-01	0	41	0	725614592	58	5113
2026-01-02 11:57:05.44	328.96	48.73	-43.7	-46.4	24.0	6.07e-01	0	41	0	727711744	58	5094
2026-01-02 11:57:06.44	329.17	48.36	-43.8	-46.5	23.9	6.07e-01	0	41	0	729808896	58	5121
2026-01-02 11:57:07.44	329.37	47.99	-43.5	-46.1	24.2	6.08e-01	0	41	0	731381760	58	4926
2026-01-02 11:57:08.44	329.57	47.62	-43.4	-46.0	24.4	6.09e-01	0	41	0	733478912	58	4842
2026-01-02 11:57:09.43	329.76	47.26	-43.5	-46.0	24.4	6.08e-01	0	41	0	735051776	58	4858
2026-01-02 11:57:10.43	329.95	46.90	-43.5	-46.0	24.3	6.05e-01	0	41	0	737148928	58	4868
2026-01-02 11:57:11.44	330.13	46.54	-43.4	-46.0	24.4	6.07e-01	0	41	0	738721792	58	4852
2026-01-02 11:57:12.44	330.31	46.18	-43.4	-46.0	24.3	6.05e-01	0	41	0	740818944	58	4857
2026-01-02 11:57:13.44	330.49	45.83	-43.5	-46.3	24.1	6.06e-01	0	41	0	742916096	58	4996
2026-01-02 11:57:14.45	330.66	45.47	-43.5	-46.2	24.2	6.05e-01	0	41	0	744488960	58	4971
2026-01-02 11:57:15.44	330.83	45.13	-43.4	-46.1	24.2	6.07e-01	0	41	0	746586112	58	4899
2026-01-02 11:57:16.45	330.99	44.78	-43.5	-46.1	24.2	6.05e-01	0	41	0	748158976	58	4898
2026-01-02 11:57:17.45	331.16	44.44	-43.4	-45.9	24.4	6.06e-01	0	41	0	750256128	58	4805
2026-01-02 11:57:18.45	331.31	44.10	-43.2	-45.7	24.7	6.06e-01	0	41	0	752353280	58	4660
2026-01-02 11:57:19.46	331.47	43.77	-43.6	-46.1	24.3	6.06e-01	0	41	0	753926144	58	4874
2026-01-02 11:57:20.45	331.62	43.44	-43.7	-46.2	24.2	6.06e-01	0	41	0	756023296	58	4970
2026-01-02 11:57:21.45	331.77	43.11	-43.8	-46.4	24.0	6.07e-01	0	41	0	757596160	58	5065
2026-01-02 11:57:22.46	331.91	42.78	-43.7	-46.4	24.0	6.09e-01	0	41	0	759693312	58	5052
2026-01-02 11:57:23.46	332.06	42.45	-43.7	-46.4	24.0	6.06e-01	0	41	0	761790464	58	5097
2026-01-02 11:57:24.46	332.20	42.13	-44.0	-47.0	23.5	6.06e-01	0	41	0	763363328	58	5413
2026-01-02 11:57:25.46	332.33	41.81	-43.9	-46.9	23.5	6.07e-01	0	41	0	765460480	58	5398
2026-01-02 11:57:26.46	332.47	41.50	-43.9	-47.1	23.3	6.07e-01	0	41	0	767033344	58	5488
2026-01-02 11:57:27.46	332.60	41.18	-43.9	-47.0	23.4	6.06e-01	0	41	0	769130496	58	5455
2026-01-02 11:57:28.46	332.73	40.87	-44.1	-47.1	23.3	6.07e-01	0	41	0	770703360	58	5485
2026-01-02 11:57:29.46	332.86	40.57	-44.2	-47.1	23.3	6.07e-01	0	41	0	772800512	58	5493
2026-01-02 11:57:30.46	332.98	40.26	-44.2	-47.1	23.3	6.07e-01	0	41	0	774897664	59	5173
2026-01-02 11:57:31.47	333.10	39.96	-44.1	-46.9	23.5	6.08e-01	0	41	0	776470528	59	5058
2026-01-02 11:57:32.47	333.22	39.66	-44.3	-47.0	23.4	6.09e-01	0	41	0	778567680	59	5152
2026-01-02 11:57:33.47	333.34	39.36	-44.3	-47.0	23.4	6.07e-01	0	41	0	780140544	59	5147
2026-01-02 11:57:34.47	333.46	39.06	-44.2	-47.0	23.5	6.05e-01	0	41	0	782237696	59	5106
2026-01-02 11:57:35.47	333.57	38.77	-44.1	-47.0	23.5	6.08e-01	0	41	0	783810560	59	5102
2026-01-02 11:57:36.48	333.68	38.48	-44.0	-47.0	23.4	6.08e-01	0	41	0	785907712	59	5137
2026-01-02 11:57:37.48	333.79	38.19	-44.0	-46.9	23.5	6.07e-01	0	41	0	788004864	59	5092
2026-01-02 11:57:38.49	333.90	37.90	-43.9	-46.8	23.6	6.07e-01	0	41	0	789577728	59	5005
2026-01-02 11:57:39.48	334.01	37.62	-44.0	-46.8	23.6	6.07e-01	0	41	0	791674880	59	5018
2026-01-02 11:57:40.49	334.11	37.34	-43.9	-46.6	23.8	6.07e-01	0	41	0	793247744	59	4873
2026-01-02 11:57:41.49	334.22	37.06	-43.9	-46.5	23.9	6.06e-01	0	41	0	795344896	59	4852
2026-01-02 11:57:42.49	334.32	36.79	-44.0	-46.6	23.8	6.05e-01	0	41	0	796917760	59	4901
2026-01-02 11:57:43.49	334.42	36.52	-43.8	-46.4	23.9	6.06e-01	0	41	0	799014912	59	4800
2026-01-02 11:57:44.50	334.52	36.24	-43.6	-46.2	24.1	6.07e-01	0	41	0	801112064	59	4692
2026-01-02 11:57:45.50	334.61	35.98	-43.6	-46.2	24.1	6.06e-01	0	41	0	802684928	59	4672
2026-01-02 11:57:46.50	334.71	35.71	-43.4	-46.0	24.2	6.06e-01	0	41	0	804782080	58	4853
2026-01-02 11:57:47.50	334.80	35.45	-43.2	-45.8	24.4	6.05e-01	0	41	0	806879232	58	4748
2026-01-02 11:57:48.50	334.89	35.19	-42.7	-45.5	24.8	6.06e-01	0	41	0	808452096	57	4834
2026-01-02 11:57:49.50	334.98	34.93	-42.6	-45.4	24.8	6.06e-01	0	41	0	810549248	57	4772
2026-01-02 11:57:50.51	335.07	34.67	-42.5	-45.5	24.8	6.07e-01	0	41	0	812122112	57	4816
2026-01-02 11:57:51.51	335.16	34.41	-42.6	-45.6	24.6	6.05e-01	0	41	0	814219264	57	4873
2026-01-02 11:57:52.51	335.24	34.16	-42.3	-45.2	25.0	6.07e-01	0	41	0	815792128	56	4953
2026-01-02 11:57:53.51	335.33	33.91	-42.3	-45.2	25.0	6.06e-01	0	41	0	817889280	56	4951
2026-01-02 11:57:54.51	335.41	33.66	-42.1	-44.9	25.3	6.08e-01	0	41	0	819986432	56	4774
2026-01-02 11:57:55.51	335.49	33.41	-42.3	-45.1	25.1	6.05e-01	0	41	0	821559296	56	4883
2026-01-02 11:57:56.52	335.58	33.17	-42.2	-44.8	25.4	6.07e-01	0	41	0	823656448	56	4758
2026-01-02 11:57:57.51	335.65	32.93	-42.3	-44.9	25.3	6.07e-01	0	41	0	825229312	56	4804
2026-01-02 11:57:58.51	335.73	32.69	-42.4	-44.9	25.2	6.04e-01	0	41	0	827326464	56	4811
2026-01-02 11:57:59.52	335.81	32.45	-42.4	-44.9	25.3	6.05e-01	0	41	0	828899328	56	4799
2026-01-02 11:58:00.52	335.89	32.21	-42.3	-44.8	25.4	6.06e-01	0	41	0	830996480	56	4733
2026-01-02 11:58:01.52	335.96	31.98	-42.2	-44.7	25.4	6.06e-01	0	41	0	833093632	56	4699
2026-01-02 11:58:02.52	336.04	31.74	-42.3	-44.8	25.4	6.08e-01	0	41	0	834666496	56	4736
2026-01-02 11:58:03.52	336.11	31.51	-42.1	-44.7	25.4	6.06e-01	0	41	0	836763648	56	4678
2026-01-02 11:58:04.53	336.18	31.28	-41.8	-44.5	25.6	6.06e-01	0	41	0	838336512	55	4821
2026-01-02 11:58:05.53	336.25	31.06	-41.7	-44.5	25.6	6.07e-01	0	41	0	840433664	55	4844
2026-01-02 11:58:06.53	336.33	30.83	-41.6	-44.5	25.5	6.07e-01	0	41	0	842006528	55	4853
2026-01-02 11:58:07.53	336.39	30.61	-41.5	-44.5	25.5	6.06e-01	0	41	0	844103680	55	4851
2026-01-02 11:58:08.53	336.46	30.39	-41.6	-44.6	25.4	6.04e-01	0	41	0	846200832	55	4900
2026-01-02 11:58:09.53	336.53	30.17	-41.8	-44.8	25.3	6.07e-01	0	41	0	847773696	55	4984
2026-01-02 11:58:10.53	336.60	29.95	-41.9	-44.7	25.3	6.06e-01	0	41	0	849870848	55	4978
2026-01-02 11:58:11.54	336.66	29.73	-42.1	-44.8	25.3	6.08e-01	0	41	0	851443712	55	4987
2026-01-02 11:58:12.54	336.73	29.52	-42.1	-44.7	25.4	6.06e-01	0	41	0	853540864	55	4960
2026-01-02 11:58:13.54	336.79	29.31	-42.2	-44.9	25.3	6.06e-01	0	41	0	855638016	55	5045
2026-01-02 11:58:14.54	336.86	29.09	-42.2	-44.8	25.2	6.06e-01	0	41	0	857210880	55	5041
2026-01-02 11:58:15.54	336.92	28.89	-42.2	-45.0	25.1	6.07e-01	0	41	0	859308032	55	5125
2026-01-02 11:58:16.55	336.98	28.68	-42.3	-45.1	25.0	6.06e-01	0	41	0	860880896	55	5193
2026-01-02 11:58:17.55	337.04	28.47	-42.4	-45.2	24.9	6.07e-01	0	41	0	862978048	55	5240
2026-01-02 11:58:18.55	337.10	28.27	-42.5	-45.3	24.8	6.05e-01	0	41	0	865075200	55	5304
2026-01-02 11:58:19.55	337.16	28.06	-42.6	-45.3	24.8	6.06e-01	0	41	0	866648064	55	5333
2026-01-02 11:58:20.56	337.22	27.86	-42.8	-45.4	24.8	6.06e-01	0	41	0	868745216	56	5064
2026-01-02 11:58:21.56	337.28	27.66	-42.9	-45.4	24.8	6.06e-01	0	41	0	870318080	56	5083
2026-01-02 11:58:22.56	337.34	27.46	-43.0	-45.5	24.7	6.06e-01	0	41	0	872415232	56	5141
2026-01-02 11:58:23.56	337.39	27.27	-42.8	-45.4	24.8	6.06e-01	0	41	0	873988096	56	5062
2026-01-02 11:58:24.56	337.45	27.07	-42.9	-45.5	24.7	6.08e-01	0	41	0	876085248	56	5120
2026-01-02 11:58:25.57	337.51	26.87	-42.8	-45.5	24.6	6.07e-01	0	41	0	878182400	56	5152
2026-01-02 11:58:26.57	337.56	26.68	-42.8	-45.5	24.7	6.06e-01	0	41	0	879755264	56	5150
2026-01-02 11:58:27.57	337.61	26.49	-42.8	-45.6	24.6	6.07e-01	0	41	0	881852416	56	5205
2026-01-02 11:58:28.57	337.67	26.30	-42.8	-45.7	24.6	6.06e-01	0	41	0	883425280	56	5220
2026-01-02 11:58:29.58	337.72	26.11	-42.9	-45.8	24.4	6.08e-01	0	41	0	885522432	56	5295
2026-01-02 11:58:30.58	337.77	25.93	-43.0	-45.8	24.4	6.06e-01	0	41	0	887095296	56	5321
2026-01-02 11:58:31.58	337.82	25.74	-43.1	-45.9	24.4	6.07e-01	0	41	0	889192448	56	5348
2026-01-02 11:58:32.59	337.88	25.56	-43.2	-45.9	24.3	6.08e-01	0	41	0	891289600	56	5348
2026-01-02 11:58:33.59	337.93	25.37	-43.2	-45.8	24.4	6.06e-01	0	41	0	892862464	57	5038
2026-01-02 11:58:34.59	337.98	25.19	-43.3	-45.9	24.3	6.07e-01	0	41	0	894959616	57	5063
2026-01-02 11:58:35.60	338.03	25.01	-43.4	-46.0	24.3	6.02e-01	0	41	0	896532480	57	5108
2026-01-02 11:58:36.60	338.08	24.83	-43.3	-45.9	24.3	6.02e-01	0	41	0	898629632	57	5089
2026-01-02 11:58:37.60	338.12	24.66	-43.2	-45.8	24.4	6.04e-01	0	41	0	900726784	57	5030
2026-01-02 11:58:38.60	338.17	24.48	-43.0	-45.7	24.4	6.03e-01	0	41	0	902299648	57	4965
2026-01-02 11:58:39.60	338.22	24.31	-42.9	-45.7	24.5	6.04e-01	0	41	0	904396800	57	4946
2026-01-02 11:58:40.60	338.27	24.13	-42.9	-45.7	24.4	6.05e-01	0	41	0	905969664	57	4974
2026-01-02 11:58:41.60	338.31	23.96	-42.8	-45.7	24.5	6.05e-01	0	41	0	908066816	57	4945
2026-01-02 11:58:42.60	338.36	23.79	-42.8	-45.8	24.4	6.03e-01	0	41	0	910163968	57	5008
2026-01-02 11:58:43.61	338.40	23.62	-42.8	-45.8	24.3	6.03e-01	0	41	0	911736832	57	5016
2026-01-02 11:58:44.61	338.45	23.45	-42.7	-45.7	24.5	6.04e-01	0	41	0	913833984	57	4964
2026-01-02 11:58:45.61	338.49	23.28	-42.7	-45.7	24.4	6.04e-01	0	41	0	915406848	57	4962
2026-01-02 11:58:46.61	338.54	23.12	-42.8	-45.7	24.3	6.04e-01	0	41	0	917504000	57	4960
2026-01-02 11:58:47.62	338.58	22.95	-42.9	-45.8	24.4	6.04e-01	0	41	0	919076864	57	5007
2026-01-02 11:58:48.62	338.62	22.79	-43.1	-45.9	24.3	6.05e-01	0	41	0	921174016	57	5049
2026-01-02 11:58:49.62	338.67	22.62	-43.2	-45.9	24.2	6.04e-01	0	41	0	923271168	57	5068
2026-01-02 11:58:50.63	338.71	22.46	-43.2	-45.9	24.3	6.02e-01	0	41	0	924844032	57	5087
2026-01-02 11:58:51.63	338.75	22.30	-43.2	-45.9	24.3	6.05e-01	0	41	0	926941184	57	5045
2026-01-02 11:58:52.63	338.79	22.14	-43.2	-46.0	24.3	6.04e-01	0	41	0	928514048	57	5101
2026-01-02 11:58:53.63	338.83	21.98	-43.0	-45.8	24.3	6.05e-01	0	41	0	930611200	57	5033
2026-01-02 11:58:54.64	338.88	21.82	-43.0	-45.9	24.2	6.03e-01	0	41	0	932184064	57	5089
2026-01-02 11:58:55.64	338.92	21.67	-42.8	-45.8	24.4	6.07e-01	0	41	0	934281216	57	5023
2026-01-02 11:58:56.65	338.96	21.51	-42.6	-45.7	24.4	6.02e-01	0	41	0	936378368	57	4974
2026-01-02 11:58:57.65	339.00	21.36	-42.6	-45.8	24.4	6.03e-01	0	41	0	937951232	57	4988
2026-01-02 11:58:58.65	339.03	21.20	-42.5	-45.7	24.5	6.02e-01	0	41	0	940048384	57	4936
2026-01-02 11:58:59.66	339.07	21.05	-42.7	-45.7	24.5	6.04e-01	0	41	0	942145536	57	4935
2026-01-02 11:59:00.66	339.11	20.90	-42.8	-45.6	24.5	6.02e-01	0	41	0	943718400	57	4923
2026-01-02 11:59:01.66	339.15	20.75	-42.8	-45.5	24.5	6.05e-01	0	41	0	945815552	57	4870
2026-01-02 11:59:02.66	339.19	20.60	-42.9	-45.5	24.6	6.03e-01	0	41	0	947388416	57	4847
2026-01-02 11:59:03.66	339.23	20.45	-42.9	-45.5	24.6	6.04e-01	0	41	0	949485568	57	4829
2026-01-02 11:59:04.66	339.26	20.30	-42.9	-45.5	24.6	6.03e-01	0	41	0	951058432	57	4842
2026-01-02 11:59:05.66	339.30	20.16	-42.9	-45.6	24.5	6.03e-01	0	41	0	953155584	57	4919
2026-01-02 11:59:06.66	339.34	20.01	-42.7	-45.5	24.6	6.06e-01	0	41	0	955252736	57	4843
2026-01-02 11:59:07.66	339.37	19.87	-42.6	-45.4	24.7	6.03e-01	0	41	0	956825600	57	4795
2026-01-02 11:59:08.67	339.41	19.72	-42.4	-45.4	24.7	6.05e-01	0	41	0	958922752	56	5097
2026-01-02 11:59:09.67	339.44	19.58	-42.3	-45.4	24.7	6.05e-01	0	41	0	960495616	56	5065
2026-01-02 11:59:10.67	339.48	19.44	-42.2	-45.3	24.7	6.04e-01	0	41	0	962592768	56	5041
2026-01-02 11:59:11.67	339.51	19.30	-42.2	-45.3	24.7	6.03e-01	0	41	0	964165632	56	5035
2026-01-02 11:59:12.68	339.55	19.15	-42.3	-45.3	24.7	6.02e-01	0	41	0	966262784	56	5026
2026-01-02 11:59:13.68	339.58	19.02	-42.3	-45.3	24.7	6.05e-01	0	41	0	968359936	56	5017
2026-01-02 11:59:14.68	339.62	18.88	-42.4	-45.4	24.6	6.05e-01	0	41	0	969932800	56	5054
2026-01-02 11:59:15.68	339.65	18.74	-42.6	-45.4	24.7	6.03e-01	0	41	0	972029952	56	5054
2026-01-02 11:59:16.68	339.68	18.60	-42.8	-45.4	24.7	6.05e-01	0	41	0	973602816	56	5074
2026-01-02 11:59:17.68	339.72	18.47	-42.8	-45.4	24.7	6.04e-01	0	41	0	975699968	56	5046
2026-01-02 11:59:18.68	339.75	18.33	-42.9	-45.4	24.6	6.02e-01	0	41	0	977272832	56	5094
2026-01-02 11:59:19.68	339.78	18.20	-43.0	-45.5	24.6	6.04e-01	0	41	0	979369984	56	5138
2026-01-02 11:59:20.68	339.81	18.06	-42.9	-45.4	24.7	6.04e-01	0	41	0	981467136	56	5042
2026-01-02 11:59:21.69	339.85	17.93	-42.8	-45.3	24.8	6.03e-01	0	41	0	983040000	56	5005
2026-01-02 11:59:22.69	339.88	17.80	-42.8	-45.4	24.7	6.01e-01	0	41	0	985137152	56	5055
2026-01-02 11:59:23.70	339.91	17.67	-42.7	-45.3	24.8	6.03e-01	0	41	0	986710016	56	5004
2026-01-02 11:59:24.70	339.94	17.54	-42.7	-45.3	24.7	6.05e-01	0	41	0	988807168	56	5021
2026-01-02 11:59:25.70	339.97	17.41	-42.6	-45.3	24.7	6.04e-01	0	41	0	990904320	56	5012
2026-01-02 11:59:26.70	340.00	17.28	-42.6	-45.3	24.7	6.02e-01	0	41	0	992477184	56	5001
2026-01-02 11:59:27.70	340.03	17.15	-42.6	-45.3	24.7	6.04e-01	0	41	0	994574336	56	5022
2026-01-02 11:59:28.70	340.06	17.02	-42.5	-45.2	24.8	6.04e-01	0	41	0	996147200	56	4954
2026-01-02 11:59:29.71	340.09	16.89	-42.6	-45.2	24.8	6.06e-01	0	41	0	998244352	56	4972
2026-01-02 11:59:30.71	340.12	16.77	-42.6	-45.2	24.8	6.04e-01	0	41	0	1000341504	56	4970
2026-01-02 11:59:31.71	340.15	16.64	-42.5	-45.1	24.8	6.01e-01	0	41	0	1001914368	56	4923
2026-01-02 11:59:32.72	340.18	16.52	-42.7	-45.3	24.7	6.04e-01	0	41	0	1004011520	56	4997
2026-01-02 11:59:33.72	340.21	16.39	-42.7	-45.2	24.8	6.02e-01	0	41	0	1005584384	56	4944
2026-01-02 11:59:34.72	340.24	16.27	-42.7	-45.1	24.9	6.04e-01	0	41	0	1007681536	56	4921
2026-01-02 11:59:35.72	340.27	16.15	-42.7	-45.2	24.8	6.04e-01	0	41	0	1009254400	56	4937
2026-01-02 11:59:36.73	340.30	16.02	-42.8	-45.3	24.7	6.04e-01	0	41	0	1011351552	56	5018
2026-01-02 11:59:37.73	340.33	15.90	-42.8	-45.4	24.6	6.03e-01	0	41	0	1013448704	56	5067
2026-01-02 11:59:38.74	340.36	15.78	-42.8	-45.4	24.6	6.03e-01	0	41	0	1015021568	56	5072
2026-01-02 11:59:39.74	340.38	15.66	-42.7	-45.4	24.6	6.04e-01	0	41	0	1017118720	56	5075
2026-01-02 11:59:40.74	340.41	15.54	-42.5	-45.3	24.6	6.03e-01	0	41	0	1018691584	56	5030
2026-01-02 11:59:41.74	340.44	15.42	-42.6	-45.4	24.6	6.01e-01	0	41	0	1020788736	56	5098
2026-01-02 11:59:42.75	340.47	15.31	-42.5	-45.4	24.5	6.02e-01	0	41	0	1022361600	56	5097
2026-01-02 11:59:43.75	340.49	15.19	-42.5	-45.5	24.5	6.03e-01	0	41	0	1024458752	56	5124
2026-01-02 11:59:44.75	340.52	15.07	-42.6	-45.5	24.4	6.04e-01	0	41	0	1026555904	56	5145
2026-01-02 11:59:45.75	340.55	14.96	-42.6	-45.5	24.4	6.06e-01	0	41	0	1028128768	56	5138
2026-01-02 11:59:46.76	340.57	14.84	-42.6	-45.5	24.4	6.02e-01	0	41	0	1030225920	56	5139
2026-01-02 11:59:47.76	340.60	14.72	-42.7	-45.6	24.3	6.04e-01	0	41	0	1032323072	56	5214
2026-01-02 11:59:48.76	340.63	14.61	-42.7	-45.6	24.3	6.05e-01	0	41	0	1033895936	56	5187
2026-01-02 11:59:49.76	340.65	14.50	-42.7	-45.7	24.3	6.01e-01	0	41	0	1035993088	56	5257
2026-01-02 11:59:50.76	340.68	14.38	-42.6	-45.7	24.2	6.02e-01	0	41	0	1037565952	56	5219
2026-01-02 11:59:51.76	340.70	14.27	-42.5	-45.6	24.3	6.03e-01	0	41	0	1039663104	56	5199
2026-01-02 11:59:52.76	340.73	14.16	-42.5	-45.6	24.3	6.04e-01	0	41	0	1041235968	56	5194
2026-01-02 11:59:53.77	340.75	14.05	-42.5	-45.8	24.2	6.05e-01	0	41	0	1043333120	56	5292
2026-01-02 11:59:54.77	340.78	13.94	-42.3	-45.7	24.2	6.02e-01	0	41	0	1045430272	56	5250
2026-01-02 11:59:55.77	340.80	13.83	-42.1	-45.8	24.1	6.05e-01	0	41	0	1047003136	56	5289
2026-01-02 11:59:56.77	340.83	13.72	-42.1	-45.7	24.2	6.06e-01	0	41	0	1049100288	56	5268
2026-01-02 11:59:57.77	340.85	13.61	-42.0	-45.7	24.2	6.05e-01	0	41	0	1050673152	56	5222
2026-01-02 11:59:58.77	340.88	13.50	-41.8	-45.6	24.2	6.03e-01	0	41	0	1052770304	55	5515
2026-01-02 11:59:59.77	340.90	13.39	-41.8	-45.7	24.1	6.04e-01	0	41	0	1054343168	55	5549
2026-01-02 12:00:00.77	340.93	13.28	-41.7	-45.7	24.0	6.05e-01	0	41	0	1056440320	55	5534
2026-01-02 12:00:01.78	340.95	13.18	-41.7	-45.6	24.1	6.02e-01	0	41	0	1058537472	55	5499
2026-01-02 12:00:02.78	340.97	13.07	-41.6	-45.5	24.2	6.02e-01	0	41	0	1060110336	55	5443
2026-01-02 12:00:03.78	341.00	12.96	-41.6	-45.5	24.2	6.05e-01	0	41	0	1062207488	55	5454
2026-01-02 12:00:04.78	341.02	12.86	-41.7	-45.6	24.2	6.03e-01	0	41	0	1063780352	55	5465
2026-01-02 12:00:05.78	341.05	12.75	-41.8	-45.7	24.1	6.04e-01	0	41	0	1065877504	55	5538
2026-01-02 12:00:06.79	341.07	12.65	-41.9	-45.5	24.2	6.01e-01	0	41	0	1067974656	55	5458
2026-01-02 12:00:07.79	341.09	12.54	-42.0	-45.6	24.1	6.05e-01	0	41	0	1069547520	55	5492
2026-01-02 12:00:08.79	341.11	12.44	-42.1	-45.6	24.1	6.04e-01	0	41	0	1071644672	55	5525
2026-01-02 12:00:09.79	341.14	12.34	-42.3	-45.6	24.1	6.07e-01	0	41	0	1073217536	55	5504
2026-01-02 12:00:10.80	341.16	12.23	-42.4	-45.6	24.1	6.03e-01	0	41	0	1075314688	55	5522
2026-01-02 12:00:11.80	341.18	12.13	-42.4	-45.6	24.1	6.03e-01	0	41	0	1077411840	55	5520
2026-01-02 12:00:12.80	341.21	12.03	-42.4	-45.7	24.0	6.04e-01	0	41	0	1078984704	55	5550
2026-01-02 12:00:13.81	341.23	11.93	-42.5	-45.7	24.0	6.03e-01	0	41	0	1081081856	55	5569
2026-01-02 12:00:14.81	341.25	11.83	-42.5	-45.8	24.0	6.04e-01	0	41	0	1082654720	55	5605
2026-01-02 12:00:15.81	341.27	11.73	-42.6	-45.8	24.0	6.03e-01	0	41	0	1084751872	55	5599
2026-01-02 12:00:16.81	341.29	11.63	-42.5	-45.7	24.0	6.04e-01	0	41	0	1086324736	55	5570
2026-01-02 12:00:17.82	341.32	11.53	-42.5	-45.8	24.0	6.05e-01	0	41	0	1088421888	55	5617
2026-01-02 12:00:18.82	341.34	11.43	-42.6	-45.8	23.8	6.03e-01	0	41	0	1090519040	55	5654
2026-01-02 12:00:19.82	341.36	11.33	-42.6	-45.9	23.8	6.06e-01	0	41	0	1092091904	55	5665
2026-01-02 12:00:20.82	341.38	11.23	-42.6	-45.8	23.9	6.05e-01	0	41	0	1094189056	55	5643
2026-01-02 12:00:21.82	341.40	11.14	-42.7	-45.9	23.7	6.00e-01	0	41	0	1095761920	55	5722
2026-01-02 12:00:22.83	341.42	11.04	-42.7	-46.0	23.8	6.03e-01	0	41	0	1097859072	56	5410
2026-01-02 12:00:23.83	341.44	10.94	-42.8	-46.1	23.7	6.02e-01	0	41	0	1099431936	56	5465
2026-01-02 12:00:24.83	341.46	10.84	-42.8	-46.0	23.7	6.01e-01	0	41	0	1101529088	56	5451
2026-01-02 12:00:25.84	341.49	10.75	-42.9	-46.1	23.7	6.06e-01	0	41	0	1103626240	56	5472
2026-01-02 12:00:26.84	341.51	10.65	-43.0	-46.0	23.7	6.03e-01	0	41	0	1105199104	56	5460
2026-01-02 12:00:27.84	341.53	10.56	-43.0	-46.1	23.7	6.04e-01	0	41	0	1107296256	56	5475
2026-01-02 12:00:28.84	341.55	10.46	-43.1	-46.1	23.6	6.02e-01	0	41	0	1108869120	56	5515
2026-01-02 12:00:29.84	341.57	10.37	-43.1	-46.1	23.6	6.04e-01	0	41	0	1110966272	56	5494
2026-01-02 12:00:30.84	341.59	10.28	-43.1	-46.1	23.6	6.01e-01	0	41	0	1113063424	56	5514
2026-01-02 12:00:31.84	341.61	10.18	-43.3	-46.4	23.4	6.02e-01	0	41	0	1114636288	57	5353
2026-01-02 12:00:32.85	341.63	10.09	-43.2	-46.3	23.4	6.02e-01	0	41	0	1116733440	57	5289
2026-01-02 12:00:33.85	341.65	10.00	-43.2	-46.3	23.4	6.03e-01	0	41	0	1118306304	57	5319
2026-01-02 12:00:34.85	341.67	9.90	-43.3	-46.4	23.3	6.03e-01	0	41	0	1120403456	57	5363
2026-01-02 12:00:35.86	341.69	9.81	-43.2	-46.3	23.4	6.04e-01	0	41	0	1122500608	57	5338
2026-01-02 12:00:36.86	341.71	9.72	-43.2	-46.4	23.4	6.02e-01	0	41	0	1124073472	57	5345
2026-01-02 12:00:37.86	341.73	9.63	-43.2	-46.3	23.4	6.03e-01	0	41	0	1126170624	57	5339
2026-01-02 12:00:38.87	341.75	9.54	-43.4	-46.6	23.1	6.05e-01	0	41	0	1127743488	57	5480
2026-01-02 12:00:39.87	341.76	9.45	-43.2	-46.4	23.4	6.03e-01	0	41	0	1129840640	57	5351
2026-01-02 12:00:40.87	341.78	9.36	-43.2	-46.4	23.2	6.03e-01	0	41	0	1131413504	57	5388
2026-01-02 12:00:41.87	341.80	9.27	-43.2	-46.4	23.2	6.05e-01	0	41	0	1133510656	57	5386
2026-01-02 12:00:42.87	341.82	9.18	-43.1	-46.4	23.2	6.04e-01	0	41	0	1135607808	57	5362
2026-01-02 12:00:43.88	341.84	9.09	-43.1	-46.4	23.2	6.05e-01	0	41	0	1137180672	57	5393
2026-01-02 12:00:44.88	341.86	9.00	-48.1	-58.6	13.2	6.12e-01	0	41	0	1139277824	66	13073
2026-01-02 12:00:45.88	341.88	8.91	-45.5	-70.6	3.7	7.47e-01	0	41	104	1139277824	62	65535
2026-01-02 12:00:46.88	341.90	8.82	-47.6	-70.7	3.7	7.48e-01	0	41	104	1139277824	67	49775
2026-01-02 12:00:47.88	341.92	8.74	-48.4	-71.0	3.8	7.48e-01	0	41	104	1139277824	67	51014
2026-01-02 12:00:48.89	341.93	8.65	-49.0	-71.2	3.8	7.45e-01	0	41	104	1139277824	70	43963
2026-01-02 12:00:49.89	341.95	8.56	-49.4	-71.1	3.8	7.47e-01	0	41	104	1139277824	70	43748
2026-01-02 12:00:50.90	341.97	8.47	-49.0	-71.4	3.8	7.46e-01	0	41	104	1139277824	70	45292
2026-01-02 12:00:51.90	341.99	8.39	-49.8	-71.6	3.8	7.41e-01	0	41	104	1139277824	70	46201
2026-01-02 12:00:52.90	342.01	8.30	-48.7	-71.5	3.8	7.46e-01	0	41	104	1139277824	68	51302
2026-01-02 12:00:53.90	342.02	8.22	-50.1	-71.4	3.8	7.48e-01	0	41	104	1139277824	72	40488
2026-01-02 12:00:54.90	342.04	8.13	-50.0	-71.5	3.8	7.45e-01	0	41	104	1139277824	72	40665
2026-01-02 12:00:55.91	342.06	8.05	-51.2	-71.5	3.8	7.43e-01	0	41	104	1139277824	73	38432
2026-01-02 12:00:56.91	342.08	7.96	-51.0	-71.5	3.8	7.45e-01	0	41	104	1139277824	72	40849
2026-01-02 12:00:57.92	342.10	7.88	-51.2	-71.5	3.8	7.45e-01	0	41	104	1139277824	72	40809
2026-01-02 12:00:58.92	342.11	7.79	-50.4	-71.4	3.8	7.49e-01	0	41	104	1139277824	72	40157
2026-01-02 12:00:59.92	342.13	7.71	-50.8	-71.5	3.8	7.46e-01	0	41	104	1139277824	72	40802
2026-01-02 12:01:00.92	342.15	7.62	-50.3	-71.5	3.8	7.48e-01	0	41	104	1139277824	72	40616
2026-01-02 12:01:01.93	342.17	7.54	-50.3	-71.5	3.8	7.48e-01	0	41	104	1139277824	72	40679
2026-01-02 12:01:02.93	342.18	7.46	-51.2	-71.5	3.8	7.49e-01	0	41	104	1139277824	73	38335
2026-01-02 12:01:03.93	342.20	7.38	-51.3	-71.5	3.8	7.44e-01	0	41	104	1139277824	73	38352
2026-01-02 12:01:04.94	342.22	7.29	-51.0	-71.5	3.8	7.47e-01	0	41	104	1139277824	73	38359
2026-01-02 12:01:05.94	342.23	7.21	-51.3	-71.5	3.8	7.48e-01	0	41	104	1139277824	73	38363
2026-01-02 12:01:06.94	342.25	7.13	-51.1	-71.5	3.8	7.48e-01	0	41	104	1139277824	73	38257
2026-01-02 12:01:07.95	342.27	7.05	-51.0	-71.4	3.8	7.44e-01	0	41	104	1139277824	73	38155
2026-01-02 12:01:08.95	342.28	6.97	-50.7	-71.4	3.8	7.49e-01	0	41	104	1139277824	73	38184
2026-01-02 12:01:09.95	342.30	6.89	-50.5	-71.4	3.8	7.45e-01	0	41	104	1139277824	72	40361
2026-01-02 12:01:10.96	342.32	6.81	-50.5	-71.4	3.8	7.45e-01	0	41	104	1139277824	72	40381
2026-01-02 12:01:11.96	342.33	6.73	-50.5	-71.4	3.8	7.46e-01	0	41	104	1139277824	72	40294
2026-01-02 12:01:12.96	342.35	6.65	-50.5	-71.4	3.8	7.47e-01	0	41	104	1139277824	72	40279
2026-01-02 12:01:13.97	342.37	6.56	-50.5	-71.4	3.8	7.45e-01	0	41	104	1139277824	72	40196
2026-01-02 12:01:14.97	342.38	6.49	-50.5	-71.4	3.8	7.44e-01	0	41	104	1139277824	72	40248
2026-01-02 12:01:15.98	342.40	6.41	-50.5	-71.4	3.8	7.44e-01	0	41	104	1139277824	72	40177
2026-01-02 12:01:16.98	342.42	6.33	-50.5	-71.4	3.8	7.44e-01	0	41	104	1139277824	72	40159
2026-01-02 12:01:17.99	342.43	6.25	-50.5	-71.4	3.8	7.44e-01	0	41	104	1139277824	72	40091
2026-01-02 12:01:18.99	342.45	6.17	-50.5	-71.4	3.8	7.46e-01	0	41	104	1139277824	72	40148
2026-01-02 12:01:19.99	342.46	6.09	-50.5	-71.4	3.8	7.48e-01	0	41	104	1139277824	72	40081
2026-01-02 12:01:21.00	342.48	6.01	-50.4	-71.3	3.8	7.49e-01	0	41	104	1139277824	72	40018
2026-01-02 12:01:22.00	342.50	5.94	-50.5	-71.3	3.8	7.45e-01	0	41	104	1139277824	72	40011
2026-01-02 12:01:23.01	342.51	5.86	-50.5	-71.4	3.8	7.46e-01	0	41	104	1139277824	72	40129
2026-01-02 12:01:24.01	342.53	5.78	-50.5	-71.3	3.8	7.48e-01	0	41	104	1139277824	72	40034
2026-01-02 12:01:25.02	342.54	5.70	-50.5	-71.3	3.8	7.45e-01	0	41	104	1139277824	72	39929
2026-01-02 12:01:26.02	342.56	5.63	-50.4	-71.3	3.8	7.47e-01	0	41	104	1139277824	72	40025
2026-01-02 12:01:27.03	342.57	5.55	-50.4	-71.3	3.8	7.48e-01	0	41	104	1139277824	72	39999
2026-01-02 12:01:28.03	342.59	5.47	-50.4	-71.3	3.8	7.46e-01	0	41	104	1139277824	72	39923
2026-01-02 12:01:29.03	342.60	5.40	-50.4	-71.3	3.8	7.49e-01	0	41	104	1139277824	72	39851
2026-01-02 12:01:30.04	342.62	5.32	-50.4	-71.3	3.8	7.42e-01	0	41	104	1139277824	72	39837
2026-01-02 12:01:31.04	342.64	5.25	-50.4	-71.3	3.8	7.48e-01	0	41	104	1139277824	72	39939
2026-01-02 12:01:32.05	342.65	5.17	-50.4	-71.3	3.8	7.47e-01	0	41	104	1139277824	72	39961
2026-01-02 12:01:33.05	342.67	5.10	-50.4	-71.3	3.8	7.48e-01	0	41	104	1139277824	72	39938
2026-01-02 12:01:34.05	342.68	5.02	-50.4	-71.3	3.8	7.49e-01	0	42	104	1139277824	72	39933
2026-01-02 12:01:35.06	342.70	4.95	-50.4	-71.3	3.8	7.45e-01	0	41	104	1139277824	72	39976

#Closed at: 2026-01-02 12:01:36
#Recorded file [1139 MB]: D:/Data/31040_260102_145010.dat