passes_logs/2026/01/02/T1/T1__20260102_012002_FENGYUN_3D_rec.log

#Pass ID: 20260102_012002_FENGYUN 3D
#Satellite: FENGYUN 3D
#Configuration: FENGYUN 3D
#almurnet v.1.7.20251203
#Start time: 2026-01-02 01:20:02

#Version: 2.0.20230620
#Station: T1
#Location: 37.570604 lon 55.790049 lat
#TLE: 1 43010U 17072A   26001.33100487  .00000602  00000+0  30664-3 0  9999
#TLE: 2 43010  98.9910 332.9374 0001848 133.1047 227.0283 14.19692078421319

#Time	Az	El	Level	Level2	SNR	BER	BlckErr	Temp	State	Recorded	gain1	gain2
2026-01-02 01:20:02.85	19.68	5.06	-50.0	-62.4	3.8	8.46e-01	0	40	0	0	70	15977
2026-01-02 01:20:03.85	19.70	5.13	-50.0	-62.4	3.8	8.47e-01	0	40	104	0	71	15056
2026-01-02 01:20:04.86	19.73	5.20	-50.0	-62.4	3.8	8.48e-01	0	40	104	0	71	15095
2026-01-02 01:20:05.86	19.76	5.27	-50.0	-62.4	3.8	8.47e-01	0	40	104	0	71	15080
2026-01-02 01:20:06.86	19.78	5.34	-50.0	-62.4	3.8	8.46e-01	0	40	104	0	71	15109
2026-01-02 01:20:07.87	19.81	5.41	-50.0	-62.4	3.8	8.46e-01	0	40	104	0	71	15088
2026-01-02 01:20:08.88	19.84	5.48	-50.0	-62.4	3.8	8.47e-01	0	40	104	0	71	15081
2026-01-02 01:20:09.88	19.87	5.56	-50.0	-62.3	3.8	8.47e-01	0	40	104	0	71	15039
2026-01-02 01:20:10.88	19.89	5.63	-50.0	-62.4	3.8	8.46e-01	0	41	104	0	71	15099
2026-01-02 01:20:11.89	19.92	5.70	-50.0	-62.3	3.8	8.47e-01	0	40	104	0	71	15042
2026-01-02 01:20:12.89	19.95	5.77	-50.0	-62.4	3.8	8.48e-01	0	41	104	0	71	15062
2026-01-02 01:20:13.90	19.98	5.84	-50.0	-62.4	3.8	8.48e-01	0	40	104	0	71	15101
2026-01-02 01:20:14.90	20.00	5.92	-50.0	-62.4	3.8	8.46e-01	0	40	104	0	71	15091
2026-01-02 01:20:15.90	20.03	5.99	-50.0	-62.4	3.8	8.47e-01	0	40	104	0	71	15103
2026-01-02 01:20:16.91	20.06	6.06	-50.0	-62.4	3.8	8.47e-01	0	41	104	0	71	15137
2026-01-02 01:20:17.91	20.09	6.14	-50.0	-62.4	3.8	8.49e-01	0	41	104	0	71	15099
2026-01-02 01:20:18.92	20.12	6.21	-50.0	-62.4	3.8	8.47e-01	0	41	104	0	71	15136
2026-01-02 01:20:19.92	20.14	6.28	-50.0	-62.3	3.8	8.47e-01	0	41	104	0	71	15021
2026-01-02 01:20:20.93	20.17	6.36	-50.0	-62.4	3.8	8.48e-01	0	41	104	0	71	15090
2026-01-02 01:20:21.93	20.20	6.43	-50.0	-62.3	3.8	8.46e-01	0	41	104	0	71	15031
2026-01-02 01:20:22.93	20.23	6.50	-50.0	-62.4	3.8	8.46e-01	0	41	104	0	71	15095
2026-01-02 01:20:23.94	20.26	6.58	-50.0	-62.4	3.8	8.47e-01	0	41	104	0	71	15057
2026-01-02 01:20:24.94	20.29	6.65	-50.0	-62.4	3.8	8.46e-01	0	41	104	0	71	15063
2026-01-02 01:20:25.95	20.32	6.73	-50.0	-62.4	3.8	8.47e-01	0	41	104	0	71	15073
2026-01-02 01:20:26.95	20.35	6.80	-50.0	-62.4	3.8	8.47e-01	0	41	104	0	71	15089
2026-01-02 01:20:27.95	20.38	6.88	-50.0	-62.4	3.8	8.47e-01	0	41	104	0	71	15057
2026-01-02 01:20:28.96	20.41	6.96	-50.0	-62.4	3.8	8.47e-01	0	41	104	0	71	15101
2026-01-02 01:20:30.15	20.44	7.05	-50.0	-62.4	3.8	8.47e-01	0	41	104	0	71	15060
2026-01-02 01:20:31.01	20.47	7.11	-50.0	-62.4	3.8	8.47e-01	0	41	104	0	71	15077
2026-01-02 01:20:32.16	20.50	7.20	-50.0	-62.4	3.8	8.47e-01	0	41	104	0	71	15056
2026-01-02 01:20:33.02	20.53	7.26	-50.0	-62.4	3.8	8.46e-01	0	41	104	0	71	15089
2026-01-02 01:20:34.16	20.56	7.35	-50.0	-62.4	3.8	8.48e-01	0	41	104	0	71	15084
2026-01-02 01:20:35.03	20.59	7.42	-50.0	-62.4	3.8	8.48e-01	0	41	104	0	71	15068
2026-01-02 01:20:36.17	20.62	7.50	-50.0	-62.3	3.8	8.47e-01	0	41	104	0	71	15042
2026-01-02 01:20:37.03	20.65	7.57	-50.0	-62.4	3.8	8.47e-01	0	41	104	0	71	15062
2026-01-02 01:20:38.18	20.69	7.66	-50.0	-62.3	3.8	8.47e-01	0	41	104	0	71	15046
2026-01-02 01:20:39.04	20.71	7.73	-50.0	-62.4	3.8	8.48e-01	0	41	104	0	71	15110
2026-01-02 01:20:40.19	20.75	7.82	-50.0	-62.4	3.8	8.47e-01	0	41	104	0	71	15124
2026-01-02 01:20:41.05	20.77	7.88	-50.0	-62.4	3.8	8.48e-01	0	41	104	0	71	15095
2026-01-02 01:20:42.20	20.81	7.97	-50.0	-62.4	3.8	8.47e-01	0	41	104	0	71	15081
2026-01-02 01:20:43.06	20.84	8.04	-50.0	-62.3	3.8	8.47e-01	0	41	104	0	71	15039
2026-01-02 01:20:44.21	20.87	8.13	-50.0	-62.4	3.8	8.48e-01	0	41	104	0	71	15131
2026-01-02 01:20:45.13	20.90	8.20	-50.0	-62.4	3.8	8.46e-01	0	42	104	0	71	15083
2026-01-02 01:20:46.14	20.94	8.28	-50.0	-62.4	3.8	8.46e-01	0	42	104	0	71	15096
2026-01-02 01:20:47.14	20.97	8.36	-50.0	-62.4	3.8	8.46e-01	0	41	104	0	71	15067
2026-01-02 01:20:48.14	21.00	8.44	-50.0	-62.4	3.8	8.47e-01	0	42	104	0	71	15138
2026-01-02 01:20:49.15	21.03	8.52	-50.0	-62.4	3.8	8.46e-01	0	41	104	0	71	15078
2026-01-02 01:20:50.15	21.06	8.60	-50.0	-62.4	3.8	8.47e-01	0	42	104	0	71	15093
2026-01-02 01:20:51.16	21.10	8.68	-50.0	-62.4	3.8	8.46e-01	0	42	104	0	71	15104
2026-01-02 01:20:52.16	21.13	8.77	-50.0	-62.4	3.8	8.48e-01	0	42	104	0	71	15151
2026-01-02 01:20:53.17	21.16	8.85	-50.0	-62.4	3.8	8.47e-01	0	42	104	0	71	15135
2026-01-02 01:20:54.17	21.20	8.93	-50.0	-62.4	3.8	8.46e-01	0	41	104	0	71	15094
2026-01-02 01:20:55.18	21.23	9.01	-50.0	-62.4	3.8	8.46e-01	0	42	104	0	71	15097
2026-01-02 01:20:56.18	21.26	9.09	-50.0	-62.3	3.8	8.47e-01	0	42	104	0	71	15043
2026-01-02 01:20:57.18	21.30	9.17	-50.0	-62.4	3.8	8.47e-01	0	42	104	0	71	15075
2026-01-02 01:20:58.19	21.33	9.26	-50.0	-62.4	3.8	8.48e-01	0	42	104	0	71	15126
2026-01-02 01:20:59.19	21.37	9.34	-50.0	-62.4	3.8	8.47e-01	0	42	104	0	71	15069
2026-01-02 01:21:00.44	21.41	9.44	-50.0	-62.4	3.8	8.46e-01	0	42	104	0	71	15104
2026-01-02 01:21:01.29	21.44	9.51	-50.0	-62.4	3.8	8.48e-01	0	42	104	0	71	15085
2026-01-02 01:21:02.44	21.48	9.61	-50.0	-62.4	3.8	8.48e-01	0	42	104	0	71	15077
2026-01-02 01:21:03.30	21.51	9.68	-50.0	-62.4	3.8	8.47e-01	0	42	104	0	71	15119
2026-01-02 01:21:04.45	21.55	9.78	-50.0	-62.3	3.8	8.46e-01	0	42	104	0	71	15048
2026-01-02 01:21:05.31	21.58	9.85	-50.0	-62.4	3.8	8.46e-01	0	42	104	0	71	15071
2026-01-02 01:21:06.46	21.62	9.95	-50.0	-62.4	3.8	8.48e-01	0	42	104	0	71	15110
2026-01-02 01:21:07.32	21.65	10.02	-50.0	-62.4	3.8	8.47e-01	0	42	104	0	71	15055
2026-01-02 01:21:08.47	21.69	10.12	-50.0	-62.4	3.8	8.46e-01	0	42	104	0	71	15098
2026-01-02 01:21:09.33	21.72	10.19	-50.0	-62.4	3.8	8.46e-01	0	42	104	0	71	15111
2026-01-02 01:21:10.48	21.76	10.29	-50.0	-62.4	3.8	8.47e-01	0	42	104	0	71	15107
2026-01-02 01:21:11.34	21.79	10.37	-50.0	-62.4	3.8	8.47e-01	0	42	104	0	71	15074
2026-01-02 01:21:12.48	21.83	10.46	-50.0	-62.4	3.8	8.47e-01	0	42	104	0	71	15106
2026-01-02 01:21:13.34	21.86	10.54	-50.0	-62.4	3.8	8.48e-01	0	42	104	0	71	15120
2026-01-02 01:21:14.61	21.91	10.65	-50.0	-62.4	3.8	8.47e-01	0	42	104	0	71	15074
2026-01-02 01:21:15.35	21.94	10.71	-50.0	-62.4	3.8	8.47e-01	0	42	104	0	71	15146
2026-01-02 01:21:16.82	21.99	10.84	-50.0	-62.4	3.8	8.46e-01	0	42	104	0	71	15122
2026-01-02 01:21:17.54	22.02	10.90	-50.0	-62.4	3.8	8.47e-01	0	42	104	0	71	15119
2026-01-02 01:21:18.89	22.07	11.02	-50.0	-62.4	3.8	8.47e-01	0	42	104	0	71	15135
2026-01-02 01:21:19.61	22.10	11.09	-50.0	-62.4	3.8	8.46e-01	0	42	104	0	71	15088
2026-01-02 01:21:20.90	22.15	11.20	-50.0	-62.4	3.8	8.46e-01	0	42	104	0	71	15097
2026-01-02 01:21:21.62	22.17	11.27	-50.0	-62.3	3.8	8.47e-01	0	42	104	0	71	15051
2026-01-02 01:21:22.91	22.22	11.38	-50.0	-62.4	3.8	8.46e-01	0	42	104	0	71	15112
2026-01-02 01:21:23.63	22.25	11.45	-50.0	-62.4	3.8	8.47e-01	0	42	104	0	71	15093
2026-01-02 01:21:24.92	22.30	11.56	-50.0	-62.4	3.8	8.47e-01	0	42	104	0	71	15056
2026-01-02 01:21:25.64	22.33	11.63	-50.0	-62.4	3.8	8.46e-01	0	42	104	0	71	15079
2026-01-02 01:21:26.93	22.38	11.74	-50.0	-62.4	3.8	8.47e-01	0	42	104	0	71	15068
2026-01-02 01:21:27.64	22.41	11.81	-50.0	-62.3	3.8	8.47e-01	0	42	104	0	71	15028
2026-01-02 01:21:28.93	22.46	11.93	-50.0	-62.4	3.8	8.48e-01	0	42	104	0	71	15137
2026-01-02 01:21:29.65	22.49	11.99	-50.0	-62.4	3.8	8.48e-01	0	42	104	0	71	15140
2026-01-02 01:21:30.94	22.54	12.11	-50.0	-62.4	3.8	8.47e-01	0	42	104	0	71	15052
2026-01-02 01:21:31.66	22.57	12.18	-50.0	-62.4	3.8	8.47e-01	0	42	104	0	71	15077
2026-01-02 01:21:32.95	22.62	12.30	-50.0	-62.4	3.8	8.48e-01	0	42	104	0	71	15161
2026-01-02 01:21:33.67	22.65	12.37	-50.0	-62.3	3.8	8.46e-01	0	42	104	0	71	15037
2026-01-02 01:21:34.96	22.70	12.49	-50.0	-62.4	3.8	8.48e-01	0	42	104	0	71	15126
2026-01-02 01:21:35.68	22.73	12.55	-50.0	-62.4	3.8	8.47e-01	0	42	104	0	71	15128
2026-01-02 01:21:36.97	22.79	12.67	-50.0	-62.4	3.8	8.46e-01	0	43	104	0	71	15166
2026-01-02 01:21:37.69	22.82	12.74	-50.0	-62.4	3.8	8.47e-01	0	42	104	0	71	15071
2026-01-02 01:21:38.98	22.87	12.87	-50.0	-62.4	3.8	8.47e-01	0	43	104	0	71	15107
2026-01-02 01:21:39.69	22.90	12.93	-50.0	-62.4	3.8	8.47e-01	0	42	104	0	71	15221
2026-01-02 01:21:40.98	22.96	13.06	-50.0	-62.4	3.8	8.47e-01	0	42	104	0	71	15132
2026-01-02 01:21:41.70	22.99	13.13	-50.0	-62.4	3.8	8.46e-01	0	43	104	0	71	15096
2026-01-02 01:21:42.99	23.04	13.25	-50.0	-62.4	3.8	8.46e-01	0	42	104	0	71	15091
2026-01-02 01:21:43.71	23.07	13.32	-50.0	-62.4	3.8	8.47e-01	0	42	104	0	71	15112
2026-01-02 01:21:45.00	23.13	13.44	-50.0	-62.4	3.8	8.48e-01	0	43	104	0	71	15095
2026-01-02 01:21:45.72	23.16	13.51	-50.0	-62.3	3.8	8.46e-01	0	43	104	0	71	15028
2026-01-02 01:21:47.01	23.22	13.64	-50.0	-62.4	3.8	8.47e-01	0	43	104	0	71	15092
2026-01-02 01:21:47.73	23.25	13.71	-50.0	-62.4	3.8	8.48e-01	0	42	104	0	71	15069
2026-01-02 01:21:49.02	23.31	13.84	-50.0	-62.4	3.8	8.46e-01	0	42	104	0	71	15094
2026-01-02 01:21:49.73	23.34	13.91	-50.0	-62.4	3.8	8.47e-01	0	42	104	0	71	15147
2026-01-02 01:21:51.03	23.40	14.04	-50.0	-62.4	3.8	8.46e-01	0	42	104	0	71	15086
2026-01-02 01:21:51.74	23.43	14.11	-50.0	-62.4	3.8	8.47e-01	0	43	104	0	71	15079
2026-01-02 01:21:53.04	23.49	14.24	-50.0	-62.4	3.8	8.47e-01	0	43	104	0	71	15063
2026-01-02 01:21:53.75	23.52	14.31	-50.0	-62.4	3.8	8.47e-01	0	42	104	0	71	15063
2026-01-02 01:21:55.04	23.58	14.44	-50.0	-62.4	3.8	8.47e-01	0	43	104	0	71	15115
2026-01-02 01:21:55.76	23.61	14.51	-50.0	-62.4	3.8	8.47e-01	0	42	104	0	71	15149
2026-01-02 01:21:57.05	23.67	14.65	-50.0	-62.4	3.8	8.46e-01	0	43	104	0	71	15109
2026-01-02 01:21:57.77	23.71	14.72	-50.0	-62.4	3.8	8.47e-01	0	43	104	0	71	15112
2026-01-02 01:21:59.06	23.77	14.85	-50.0	-62.4	3.8	8.47e-01	0	42	104	0	71	15123
2026-01-02 01:21:59.78	23.80	14.93	-50.0	-62.4	3.8	8.47e-01	0	42	104	0	71	15143
2026-01-02 01:22:01.07	23.87	15.06	-50.0	-62.3	3.8	8.46e-01	0	43	104	0	71	15022
2026-01-02 01:22:01.78	23.90	15.13	-50.0	-62.4	3.8	8.46e-01	0	43	104	0	71	15136
2026-01-02 01:22:03.08	23.96	15.27	-50.0	-62.4	3.8	8.48e-01	0	43	104	0	71	15122
2026-01-02 01:22:03.79	24.00	15.34	-50.0	-62.4	3.8	8.48e-01	0	42	104	0	71	15070
2026-01-02 01:22:05.08	24.06	15.48	-50.0	-62.4	3.8	8.47e-01	0	43	104	0	71	15174
2026-01-02 01:22:05.80	24.10	15.56	-50.0	-62.4	3.8	8.47e-01	0	43	104	0	71	15115
2026-01-02 01:22:07.09	24.16	15.69	-50.0	-62.4	3.8	8.46e-01	0	43	104	0	71	15060
2026-01-02 01:22:07.81	24.20	15.77	-50.0	-62.4	3.8	8.46e-01	0	43	104	0	71	15104
2026-01-02 01:22:09.10	24.26	15.91	-50.0	-62.4	3.8	8.47e-01	0	42	104	0	71	15143
2026-01-02 01:22:09.82	24.30	15.98	-50.0	-62.4	3.8	8.47e-01	0	43	104	0	71	15163
2026-01-02 01:22:11.11	24.36	16.12	-50.0	-62.4	3.8	8.47e-01	0	43	104	0	71	15118
2026-01-02 01:22:11.83	24.40	16.20	-50.0	-62.4	3.8	8.47e-01	0	43	104	0	71	15140
2026-01-02 01:22:13.12	24.47	16.34	-50.0	-62.4	3.8	8.47e-01	0	43	104	0	71	15115
2026-01-02 01:22:13.84	24.51	16.42	-50.0	-62.3	3.8	8.46e-01	0	43	104	0	71	15046
2026-01-02 01:22:15.13	24.57	16.56	-50.0	-62.4	3.8	8.47e-01	0	43	104	0	71	15103
2026-01-02 01:22:15.84	24.61	16.64	-50.0	-62.4	3.8	8.47e-01	0	43	104	0	71	15173
2026-01-02 01:22:17.13	24.68	16.78	-50.0	-62.4	3.8	8.47e-01	0	42	104	0	71	15141
2026-01-02 01:22:17.85	24.72	16.86	-50.0	-62.4	3.8	8.46e-01	0	43	104	0	71	15145
2026-01-02 01:22:19.14	24.79	17.01	-50.0	-62.4	3.8	8.48e-01	0	43	104	0	71	15128
2026-01-02 01:22:19.86	24.83	17.09	-50.0	-62.4	3.8	8.47e-01	0	43	104	0	71	15099
2026-01-02 01:22:21.15	24.90	17.24	-50.0	-62.4	3.8	8.47e-01	0	43	104	0	71	15093
2026-01-02 01:22:21.87	24.94	17.32	-50.0	-62.4	3.8	8.47e-01	0	43	104	0	71	15099
2026-01-02 01:22:23.16	25.01	17.46	-50.0	-62.4	3.8	8.46e-01	0	43	104	0	71	15094
2026-01-02 01:22:23.88	25.05	17.55	-50.0	-62.4	3.8	8.47e-01	0	43	104	0	71	15111
2026-01-02 01:22:25.17	25.12	17.69	-50.0	-62.4	3.8	8.47e-01	0	43	104	0	71	15072
2026-01-02 01:22:25.88	25.16	17.78	-50.0	-62.4	3.8	8.48e-01	0	43	104	0	71	15122
2026-01-02 01:22:27.18	25.24	17.93	-50.0	-62.4	3.8	8.48e-01	0	43	104	0	71	15101
2026-01-02 01:22:28.08	25.29	18.03	-50.0	-62.4	3.8	8.46e-01	0	43	104	0	71	15149
2026-01-02 01:22:29.09	25.35	18.15	-50.0	-62.4	3.8	8.46e-01	0	43	104	0	71	15156
2026-01-02 01:22:30.09	25.41	18.27	-50.0	-62.4	3.8	8.47e-01	0	43	104	0	71	15104
2026-01-02 01:22:31.10	25.47	18.39	-50.0	-62.4	3.8	8.47e-01	0	43	104	0	71	15155
2026-01-02 01:22:32.10	25.52	18.51	-50.0	-62.4	3.8	8.47e-01	0	43	104	0	71	15106
2026-01-02 01:22:33.11	25.59	18.63	-50.0	-62.4	3.8	8.48e-01	0	43	104	0	71	15103
2026-01-02 01:22:34.11	25.65	18.75	-50.0	-62.4	3.8	8.46e-01	0	43	104	0	71	15148
2026-01-02 01:22:35.11	25.71	18.87	-50.0	-62.4	3.8	8.46e-01	0	43	104	0	71	15074
2026-01-02 01:22:36.12	25.77	18.99	-50.0	-62.4	3.8	8.48e-01	0	43	104	0	71	15185
2026-01-02 01:22:37.12	25.83	19.11	-50.0	-62.4	3.8	8.47e-01	0	43	104	0	71	15133
2026-01-02 01:22:38.12	25.89	19.23	-50.0	-62.4	3.8	8.46e-01	0	43	104	0	71	15081
2026-01-02 01:22:39.13	25.95	19.35	-50.0	-62.4	3.8	8.47e-01	0	43	104	0	71	15174
2026-01-02 01:22:40.13	26.02	19.48	-50.0	-62.4	3.8	8.47e-01	0	43	104	0	71	15147
2026-01-02 01:22:41.14	26.08	19.60	-50.0	-62.4	3.8	8.47e-01	0	43	104	0	71	15098
2026-01-02 01:22:42.14	26.14	19.73	-50.0	-62.4	3.8	8.48e-01	0	43	104	0	71	15134
2026-01-02 01:22:43.14	26.21	19.85	-50.0	-62.4	3.8	8.46e-01	0	43	104	0	71	15119
2026-01-02 01:22:44.15	26.27	19.98	-50.0	-62.4	3.8	8.48e-01	0	43	104	0	71	15130
2026-01-02 01:22:45.15	26.34	20.11	-50.0	-62.4	3.8	8.47e-01	0	43	104	0	71	15168
2026-01-02 01:22:46.16	26.41	20.23	-50.0	-62.4	3.8	8.48e-01	0	43	104	0	71	15202
2026-01-02 01:22:47.16	26.47	20.36	-50.0	-62.4	3.8	8.46e-01	0	43	104	0	71	15203
2026-01-02 01:22:48.17	26.54	20.49	-50.0	-62.4	3.8	8.47e-01	0	43	104	0	71	15140
2026-01-02 01:22:49.17	26.61	20.62	-50.0	-62.4	3.8	8.47e-01	0	43	104	0	71	15080
2026-01-02 01:22:50.17	26.68	20.75	-50.0	-62.4	3.8	8.47e-01	0	43	104	0	71	15087
2026-01-02 01:22:51.18	26.74	20.88	-50.0	-62.4	3.8	8.47e-01	0	43	104	0	71	15127
2026-01-02 01:22:52.28	26.82	21.02	-50.0	-62.4	3.8	8.47e-01	0	43	104	0	71	15126
2026-01-02 01:22:53.14	26.88	21.14	-50.0	-62.4	3.8	8.46e-01	0	43	104	0	71	15119
2026-01-02 01:22:54.29	26.96	21.29	-50.0	-62.4	3.8	8.46e-01	0	43	104	0	71	15116
2026-01-02 01:22:55.27	27.03	21.42	-50.0	-62.4	3.8	8.47e-01	0	43	104	0	71	15164
2026-01-02 01:22:56.50	27.12	21.58	-50.0	-62.4	3.8	8.46e-01	0	43	104	0	71	15210
2026-01-02 01:22:57.40	27.18	21.70	-50.0	-62.4	3.8	8.48e-01	0	43	104	0	71	15091
2026-01-02 01:22:58.59	27.27	21.86	-50.0	-62.4	3.8	8.47e-01	0	43	104	0	71	15104
2026-01-02 01:22:59.47	27.33	21.98	-50.0	-62.4	3.8	8.47e-01	0	43	104	0	71	15153
2026-01-02 01:23:00.62	27.42	22.14	-50.0	-62.4	3.8	8.47e-01	0	43	104	0	71	15161
2026-01-02 01:23:01.48	27.48	22.26	-50.0	-62.4	3.8	8.47e-01	0	43	104	0	71	15201
2026-01-02 01:23:02.62	27.57	22.41	-50.0	-62.4	3.8	8.46e-01	0	43	104	0	71	15096
2026-01-02 01:23:03.48	27.63	22.53	-50.0	-62.4	3.8	8.46e-01	0	43	104	0	71	15196
2026-01-02 01:23:04.63	27.72	22.69	-50.0	-62.4	3.8	8.47e-01	0	43	104	0	71	15100
2026-01-02 01:23:05.49	27.79	22.81	-50.0	-62.4	3.8	8.47e-01	0	43	104	0	71	15079
2026-01-02 01:23:06.64	27.88	22.97	-50.0	-62.4	3.8	8.46e-01	0	43	104	0	71	15121
2026-01-02 01:23:07.50	27.94	23.09	-50.0	-62.4	3.8	8.47e-01	0	43	104	0	71	15144
2026-01-02 01:23:08.65	28.03	23.26	-50.0	-62.4	3.8	8.46e-01	0	43	104	0	71	15168
2026-01-02 01:23:09.51	28.10	23.38	-50.0	-62.4	3.8	8.47e-01	0	43	104	0	71	15108
2026-01-02 01:23:10.66	28.20	23.54	-50.0	-62.4	3.8	8.46e-01	0	43	104	0	71	15082
2026-01-02 01:23:11.52	28.27	23.67	-50.0	-62.4	3.8	8.46e-01	0	43	104	0	71	15108
2026-01-02 01:23:12.66	28.36	23.83	-50.0	-62.4	3.8	8.46e-01	0	43	104	0	71	15080
2026-01-02 01:23:13.53	28.43	23.96	-50.0	-62.4	3.8	8.48e-01	0	43	104	0	71	15121
2026-01-02 01:23:14.67	28.53	24.13	-50.0	-62.4	3.8	8.46e-01	0	43	104	0	71	15127
2026-01-02 01:23:15.53	28.60	24.25	-50.0	-62.4	3.8	8.47e-01	0	43	104	0	71	15184
2026-01-02 01:23:16.68	28.70	24.42	-50.0	-62.4	3.8	8.48e-01	0	43	104	0	71	15062
2026-01-02 01:23:17.54	28.77	24.55	-50.0	-62.4	3.8	8.47e-01	0	43	104	0	71	15150
2026-01-02 01:23:18.69	28.87	24.72	-50.0	-62.4	3.8	8.47e-01	0	43	104	0	71	15089
2026-01-02 01:23:19.55	28.94	24.85	-50.0	-62.4	3.8	8.46e-01	0	43	104	0	71	15189
2026-01-02 01:23:20.70	29.04	25.03	-50.0	-62.4	3.8	8.47e-01	0	43	104	0	71	15124
2026-01-02 01:23:21.56	29.12	25.16	-50.0	-62.4	3.8	8.47e-01	0	43	104	0	71	15169
2026-01-02 01:23:22.71	29.22	25.33	-50.0	-62.4	3.8	8.46e-01	0	43	104	0	71	15109
2026-01-02 01:23:23.57	29.30	25.46	-50.0	-62.4	3.8	8.47e-01	0	43	104	0	71	15075
2026-01-02 01:23:24.72	29.41	25.64	-50.0	-62.4	3.8	8.47e-01	0	43	104	0	71	15075
2026-01-02 01:23:25.58	29.49	25.78	-50.0	-62.4	3.8	8.47e-01	0	43	104	0	71	15146
2026-01-02 01:23:26.73	29.59	25.95	-50.0	-62.4	3.8	8.47e-01	0	43	104	0	71	15166
2026-01-02 01:23:27.59	29.67	26.09	-50.0	-62.4	3.8	8.47e-01	0	43	104	0	71	15119
2026-01-02 01:23:28.74	29.78	26.27	-50.0	-62.4	3.8	8.47e-01	0	43	104	0	71	15129
2026-01-02 01:23:29.60	29.86	26.41	-50.0	-62.4	3.8	8.47e-01	0	43	104	0	71	15083
2026-01-02 01:23:30.74	29.97	26.59	-50.0	-62.4	3.8	8.47e-01	0	43	104	0	71	15113
2026-01-02 01:23:31.60	30.06	26.73	-50.0	-62.4	3.8	8.47e-01	0	43	104	0	71	15101
2026-01-02 01:23:32.75	30.17	26.91	-50.0	-62.4	3.8	8.47e-01	0	43	104	0	71	15112
2026-01-02 01:23:33.61	30.26	27.05	-50.0	-62.4	3.8	8.46e-01	0	43	104	0	71	15092
2026-01-02 01:23:34.76	30.37	27.24	-50.0	-62.4	3.8	8.47e-01	0	43	104	0	71	15108
2026-01-02 01:23:35.62	30.46	27.38	-50.0	-62.4	3.8	8.48e-01	0	43	104	0	71	15052
2026-01-02 01:23:36.77	30.58	27.57	-50.0	-62.4	3.8	8.47e-01	0	43	104	0	71	15126
2026-01-02 01:23:37.63	30.67	27.71	-50.0	-62.4	3.8	8.47e-01	0	43	104	0	71	15159
2026-01-02 01:23:38.78	30.79	27.90	-50.0	-62.4	3.8	8.47e-01	0	43	104	0	71	15175
2026-01-02 01:23:39.64	30.88	28.05	-50.0	-62.4	3.8	8.48e-01	0	43	104	0	71	15128
2026-01-02 01:23:40.78	31.00	28.24	-50.0	-62.4	3.8	8.47e-01	0	43	104	0	71	15144
2026-01-02 01:23:41.64	31.09	28.39	-50.0	-62.4	3.8	8.47e-01	0	43	104	0	71	15197
2026-01-02 01:23:42.79	31.22	28.58	-50.0	-62.4	3.8	8.47e-01	0	43	104	0	71	15140
2026-01-02 01:23:43.65	31.31	28.73	-50.0	-62.4	3.8	8.47e-01	0	43	104	0	71	15160
2026-01-02 01:23:44.80	31.44	28.93	-50.0	-62.4	3.8	8.47e-01	0	43	104	0	71	15102
2026-01-02 01:23:45.66	31.54	29.08	-50.0	-62.4	3.8	8.47e-01	0	43	104	0	71	15115
2026-01-02 01:23:46.81	31.67	29.28	-50.0	-62.4	3.8	8.46e-01	0	43	104	0	71	15074
2026-01-02 01:23:47.67	31.77	29.43	-50.0	-62.4	3.8	8.48e-01	0	43	104	0	71	15155
2026-01-02 01:23:48.82	31.90	29.63	-50.0	-62.4	3.8	8.47e-01	0	43	104	0	71	15122
2026-01-02 01:23:49.68	32.00	29.78	-50.0	-62.4	3.8	8.46e-01	0	43	104	0	71	15123
2026-01-02 01:23:50.82	32.13	29.99	-50.0	-62.4	3.8	8.47e-01	0	43	104	0	71	15125
2026-01-02 01:23:51.68	32.24	30.14	-50.0	-62.4	3.8	8.46e-01	0	43	104	0	71	15110
2026-01-02 01:23:52.83	32.38	30.35	-50.0	-62.4	3.8	8.48e-01	0	43	104	0	71	15166
2026-01-02 01:23:53.69	32.48	30.50	-50.0	-62.4	3.8	8.47e-01	0	43	104	0	71	15169
2026-01-02 01:23:54.84	32.62	30.71	-50.0	-62.4	3.8	8.47e-01	0	43	104	0	71	15165
2026-01-02 01:23:55.70	32.73	30.87	-50.0	-62.4	3.8	8.47e-01	0	43	104	0	71	15161
2026-01-02 01:23:56.85	32.88	31.08	-50.0	-62.4	3.8	8.47e-01	0	43	104	0	71	15099
2026-01-02 01:23:57.71	32.99	31.24	-50.0	-62.5	3.8	8.47e-01	0	43	104	0	71	15226
2026-01-02 01:23:58.86	33.14	31.46	-50.0	-62.4	3.8	8.46e-01	0	43	104	0	71	15175
2026-01-02 01:23:59.72	33.25	31.62	-50.0	-62.4	3.8	8.47e-01	0	43	104	0	71	15136
2026-01-02 01:24:00.86	33.40	31.83	-50.0	-62.4	3.8	8.47e-01	0	43	104	0	71	15100
2026-01-02 01:24:01.72	33.51	31.99	-50.0	-62.4	3.8	8.48e-01	0	43	104	0	71	15154
2026-01-02 01:24:02.87	33.67	32.21	-50.0	-62.4	3.8	8.47e-01	0	43	104	0	71	15145
2026-01-02 01:24:03.73	33.79	32.38	-50.0	-62.4	3.8	8.47e-01	0	43	104	0	71	15116
2026-01-02 01:24:04.88	33.95	32.60	-50.0	-62.4	3.8	8.48e-01	0	43	104	0	71	15179
2026-01-02 01:24:05.74	34.07	32.77	-50.0	-62.4	3.8	8.47e-01	0	43	104	0	71	15092
2026-01-02 01:24:06.89	34.23	32.99	-50.0	-62.4	3.8	8.48e-01	0	43	104	0	71	15071
2026-01-02 01:24:07.75	34.35	33.16	-50.0	-62.4	3.8	8.47e-01	0	43	104	0	71	15096
2026-01-02 01:24:08.90	34.52	33.39	-50.0	-62.4	3.8	8.47e-01	0	43	104	0	71	15170
2026-01-02 01:24:09.76	34.64	33.56	-50.0	-62.4	3.8	8.46e-01	0	43	104	0	71	15142
2026-01-02 01:24:10.91	34.82	33.79	-50.0	-62.4	3.8	8.46e-01	0	43	104	0	71	15118
2026-01-02 01:24:11.77	34.94	33.96	-50.0	-62.4	3.8	8.48e-01	0	43	104	0	71	15155
2026-01-02 01:24:12.92	35.12	34.19	-50.0	-62.4	3.8	8.47e-01	0	43	104	0	71	15191
2026-01-02 01:24:13.78	35.25	34.36	-50.0	-62.4	3.8	8.46e-01	0	43	104	0	71	15159
2026-01-02 01:24:14.92	35.43	34.60	-50.0	-62.4	3.8	8.47e-01	0	43	104	0	71	15099
2026-01-02 01:24:15.78	35.57	34.77	-50.0	-62.4	3.8	8.46e-01	0	43	104	0	71	15185
2026-01-02 01:24:16.93	35.75	35.01	-50.0	-62.4	3.8	8.47e-01	0	43	104	0	71	15137
2026-01-02 01:24:17.79	35.89	35.19	-50.0	-62.4	3.8	8.47e-01	0	43	104	0	71	15155
2026-01-02 01:24:18.94	36.08	35.43	-50.0	-62.4	3.8	8.47e-01	0	43	104	0	71	15101
2026-01-02 01:24:19.80	36.22	35.61	-50.0	-62.4	3.8	8.47e-01	0	43	104	0	71	15175
2026-01-02 01:24:20.95	36.41	35.85	-50.0	-62.4	3.8	8.48e-01	0	43	104	0	71	15182
2026-01-02 01:24:21.81	36.56	36.03	-50.0	-62.4	3.8	8.46e-01	0	43	104	0	71	15181
2026-01-02 01:24:22.96	36.76	36.27	-50.0	-62.4	3.8	8.47e-01	0	43	104	0	71	15150
2026-01-02 01:24:23.82	36.91	36.46	-50.0	-62.4	3.8	8.47e-01	0	43	104	0	71	15173
2026-01-02 01:24:24.96	37.11	36.70	-50.0	-62.4	3.8	8.47e-01	0	43	104	0	71	15182
2026-01-02 01:24:25.83	37.26	36.89	-50.0	-62.4	3.8	8.46e-01	0	43	104	0	71	15111
2026-01-02 01:24:26.97	37.47	37.14	-50.0	-62.4	3.8	8.47e-01	0	43	104	0	71	15203
2026-01-02 01:24:27.83	37.63	37.33	-50.0	-62.4	3.8	8.47e-01	0	43	104	0	71	15197
2026-01-02 01:24:28.98	37.84	37.58	-50.0	-62.4	3.8	8.48e-01	0	43	104	0	71	15169
2026-01-02 01:24:29.84	38.01	37.77	-50.0	-62.4	3.8	8.47e-01	0	43	104	0	71	15107
2026-01-02 01:24:30.99	38.23	38.03	-50.0	-62.4	3.8	8.47e-01	0	43	104	0	71	15190
2026-01-02 01:24:31.85	38.39	38.22	-50.0	-62.4	3.8	8.48e-01	0	43	104	0	71	15133
2026-01-02 01:24:32.99	38.62	38.47	-50.0	-62.4	3.8	8.47e-01	0	43	104	0	71	15131
2026-01-02 01:24:33.86	38.79	38.67	-50.0	-62.4	3.8	8.47e-01	0	43	104	0	71	15141
2026-01-02 01:24:35.00	39.02	38.93	-50.0	-62.4	3.8	8.48e-01	0	43	104	0	71	15173
2026-01-02 01:24:35.86	39.20	39.12	-50.0	-62.4	3.8	8.46e-01	0	43	104	0	71	15084
2026-01-02 01:24:37.01	39.43	39.38	-50.0	-62.4	3.8	8.46e-01	0	43	104	0	71	15143
2026-01-02 01:24:37.87	39.61	39.58	-50.0	-62.4	3.8	8.46e-01	0	43	104	0	71	15097
2026-01-02 01:24:39.02	39.86	39.85	-50.0	-62.4	3.8	8.47e-01	0	43	104	0	71	15155
2026-01-02 01:24:39.88	40.05	40.05	-50.0	-62.4	3.8	8.47e-01	0	43	104	0	71	15133
2026-01-02 01:24:41.02	40.30	40.31	-50.0	-62.4	3.8	8.47e-01	0	43	104	0	71	15099
2026-01-02 01:24:41.88	40.49	40.51	-50.0	-62.4	3.8	8.47e-01	0	43	104	0	71	15213
2026-01-02 01:24:43.03	40.75	40.78	-50.0	-62.4	3.8	8.48e-01	0	43	104	0	71	15165
2026-01-02 01:24:43.89	40.94	40.99	-50.0	-62.4	3.8	8.47e-01	0	43	104	0	71	15194
2026-01-02 01:24:45.04	41.21	41.26	-50.0	-62.4	3.8	8.47e-01	0	43	104	0	71	15178
2026-01-02 01:24:45.90	41.41	41.47	-50.0	-62.4	3.8	8.47e-01	0	43	104	0	71	15107
2026-01-02 01:24:47.05	41.69	41.74	-50.0	-62.4	3.8	8.48e-01	0	43	104	0	71	15147
2026-01-02 01:24:47.91	41.90	41.95	-50.0	-62.4	3.8	8.46e-01	0	43	104	0	71	15186
2026-01-02 01:24:49.05	42.18	42.22	-50.0	-62.4	3.8	8.47e-01	0	43	104	0	71	15185
2026-01-02 01:24:49.91	42.39	42.43	-50.0	-62.4	3.8	8.47e-01	0	43	104	0	71	15177
2026-01-02 01:24:51.06	42.69	42.71	-50.0	-62.4	3.8	8.47e-01	0	43	104	0	71	15166
2026-01-02 01:24:51.92	42.91	42.92	-50.0	-62.4	3.8	8.47e-01	0	43	104	0	71	15129
2026-01-02 01:24:53.07	43.21	43.20	-50.0	-62.4	3.8	8.47e-01	0	43	104	0	71	15132
2026-01-02 01:24:53.93	43.44	43.42	-50.0	-62.4	3.8	8.48e-01	0	43	104	0	71	15090
2026-01-02 01:24:55.08	43.75	43.70	-50.0	-62.4	3.8	8.47e-01	0	43	104	0	71	15119
2026-01-02 01:24:55.94	43.98	43.91	-50.0	-62.4	3.8	8.47e-01	0	43	104	0	71	15099
2026-01-02 01:24:57.08	44.30	44.20	-50.0	-62.4	3.8	8.48e-01	0	43	104	0	71	15184
2026-01-02 01:24:57.94	44.54	44.41	-50.0	-62.4	3.8	8.48e-01	0	43	104	0	71	15171
2026-01-02 01:24:59.09	44.87	44.70	-50.0	-62.4	3.8	8.48e-01	0	43	104	0	71	15156
2026-01-02 01:24:59.95	45.12	44.92	-50.0	-62.4	3.8	8.46e-01	0	43	104	0	71	15124
2026-01-02 01:25:01.10	45.47	45.21	-50.0	-62.4	3.8	8.47e-01	0	43	104	0	71	15087
2026-01-02 01:25:01.96	45.72	45.43	-50.0	-62.4	3.8	8.47e-01	0	43	104	0	71	15067
2026-01-02 01:25:03.11	46.08	45.72	-50.0	-62.4	3.8	8.48e-01	0	43	104	0	71	15127
2026-01-02 01:25:03.97	46.34	45.94	-50.0	-62.4	3.8	8.46e-01	0	43	104	0	71	15089
2026-01-02 01:25:05.12	46.71	46.23	-50.0	-62.4	3.8	8.47e-01	0	43	104	0	71	15056
2026-01-02 01:25:05.98	46.98	46.45	-50.0	-62.4	3.8	8.46e-01	0	43	104	0	71	15137
2026-01-02 01:25:07.13	47.36	46.75	-50.0	-62.4	3.8	8.48e-01	0	43	104	0	71	15080
2026-01-02 01:25:07.99	47.64	46.97	-50.0	-62.4	3.8	8.47e-01	0	43	104	0	71	15146
2026-01-02 01:25:09.14	48.03	47.27	-50.0	-62.4	3.8	8.48e-01	0	43	104	0	71	15112
2026-01-02 01:25:10.00	48.32	47.49	-50.0	-62.3	3.8	8.46e-01	0	43	104	0	71	15051
2026-01-02 01:25:11.14	48.72	47.78	-50.0	-62.4	3.8	8.48e-01	0	43	104	0	71	15155
2026-01-02 01:25:12.00	49.02	48.01	-50.0	-62.4	3.8	8.46e-01	0	43	104	0	71	15137
2026-01-02 01:25:13.15	49.44	48.31	-50.0	-62.4	3.8	8.47e-01	0	43	104	0	71	15166
2026-01-02 01:25:14.01	49.75	48.53	-50.0	-62.4	3.8	8.47e-01	0	43	104	0	71	15086
2026-01-02 01:25:15.16	50.18	48.83	-50.0	-62.4	3.8	8.47e-01	0	43	104	0	71	15102
2026-01-02 01:25:16.02	50.51	49.05	-50.0	-62.4	3.8	8.47e-01	0	43	104	0	71	15175
2026-01-02 01:25:17.17	50.95	49.35	-50.1	-62.4	3.8	8.47e-01	0	43	104	0	71	15116
2026-01-02 01:25:18.03	51.29	49.58	-50.0	-62.4	3.8	8.46e-01	0	43	104	0	71	15126
2026-01-02 01:25:19.18	51.74	49.88	-50.0	-62.4	3.8	8.48e-01	0	43	104	0	71	15060
2026-01-02 01:25:20.04	52.09	50.10	-50.0	-62.4	3.8	8.48e-01	0	43	104	0	71	15109
2026-01-02 01:25:21.19	52.57	50.40	-50.0	-62.4	3.8	8.46e-01	0	43	104	0	71	15107
2026-01-02 01:25:22.05	52.93	50.63	-50.0	-62.4	3.8	8.47e-01	0	43	104	0	71	15152
2026-01-02 01:25:23.20	53.42	50.93	-50.0	-62.4	3.8	8.47e-01	0	43	104	0	71	15079
2026-01-02 01:25:24.06	53.79	51.15	-50.0	-62.4	3.8	8.47e-01	0	43	104	0	71	15103
2026-01-02 01:25:25.20	54.29	51.45	-50.0	-62.4	3.8	8.47e-01	0	43	104	0	71	15127
2026-01-02 01:25:26.35	54.81	51.75	-50.0	-62.4	3.8	8.47e-01	0	43	104	0	71	15094
2026-01-02 01:25:27.37	55.28	52.02	-50.1	-62.4	3.8	8.48e-01	0	43	104	0	71	15068
2026-01-02 01:25:28.59	55.85	52.33	-50.0	-62.4	3.8	8.48e-01	0	43	104	0	71	15159
2026-01-02 01:25:29.48	56.28	52.56	-50.0	-62.4	3.8	8.46e-01	0	43	104	0	71	15180
2026-01-02 01:25:30.62	56.83	52.86	-50.0	-62.4	3.8	8.47e-01	0	43	104	0	71	15150
2026-01-02 01:25:31.48	57.25	53.08	-50.0	-62.4	3.8	8.47e-01	0	43	104	0	71	15062
2026-01-02 01:25:32.63	57.83	53.37	-50.1	-62.4	3.8	8.46e-01	0	43	104	0	71	15136
2026-01-02 01:25:33.49	58.27	53.59	-50.0	-62.4	3.8	8.47e-01	0	43	104	0	71	15210
2026-01-02 01:25:34.63	58.86	53.88	-50.0	-62.4	3.8	8.47e-01	0	43	104	0	71	15116
2026-01-02 01:25:35.49	59.32	54.10	-50.0	-62.4	3.8	8.47e-01	0	43	104	0	71	15146
2026-01-02 01:25:36.64	59.94	54.39	-50.0	-62.4	3.8	8.47e-01	0	43	104	0	71	15105
2026-01-02 01:25:37.50	60.41	54.61	-50.0	-62.4	3.8	8.46e-01	0	43	104	0	71	15141
2026-01-02 01:25:38.65	61.05	54.89	-50.0	-62.4	3.8	8.47e-01	0	43	104	0	71	15165
2026-01-02 01:25:39.51	61.54	55.11	-50.0	-62.4	3.8	8.47e-01	0	43	104	0	71	15123
2026-01-02 01:25:40.71	62.24	55.40	-50.0	-62.5	3.8	8.47e-01	0	43	104	0	71	15228
2026-01-02 01:25:41.57	62.74	55.61	-50.0	-62.4	3.8	8.47e-01	0	43	104	0	71	15131
2026-01-02 01:25:42.78	63.47	55.91	-50.0	-62.4	3.8	8.47e-01	0	43	104	0	71	15138
2026-01-02 01:25:43.64	63.99	56.11	-50.1	-62.4	3.8	8.47e-01	0	43	104	0	71	15144
2026-01-02 01:25:44.79	64.71	56.39	-50.0	-62.3	3.8	8.46e-01	0	43	104	0	71	15035
2026-01-02 01:25:45.65	65.25	56.59	-50.0	-62.4	3.8	8.47e-01	0	43	104	0	71	15082
2026-01-02 01:25:46.80	65.99	56.86	-50.0	-62.4	3.8	8.47e-01	0	43	104	0	71	15161
2026-01-02 01:25:47.72	66.59	57.07	-50.0	-62.4	3.8	8.48e-01	0	43	104	0	71	15159
2026-01-02 01:25:48.73	67.26	57.30	-50.0	-62.4	3.8	8.46e-01	0	43	104	0	71	15131
2026-01-02 01:25:49.73	67.93	57.53	-50.0	-62.4	3.8	8.47e-01	0	43	104	0	71	15189
2026-01-02 01:25:50.73	68.62	57.75	-50.0	-62.4	3.8	8.48e-01	0	43	104	0	71	15151
2026-01-02 01:25:51.74	69.33	57.97	-50.0	-62.4	3.8	8.47e-01	0	43	104	0	71	15150
2026-01-02 01:25:52.74	70.04	58.19	-50.0	-62.4	3.8	8.47e-01	0	43	104	0	71	15155
2026-01-02 01:25:53.75	70.76	58.41	-50.0	-62.4	3.8	8.47e-01	0	43	104	0	71	15087
2026-01-02 01:25:54.75	71.50	58.62	-50.0	-62.4	3.8	8.46e-01	0	43	104	0	71	15149
2026-01-02 01:25:55.76	72.25	58.83	-50.0	-62.4	3.8	8.46e-01	0	43	104	0	71	15124
2026-01-02 01:25:56.76	73.00	59.03	-50.0	-62.4	3.8	8.47e-01	0	43	104	0	71	15093
2026-01-02 01:25:57.76	73.77	59.23	-50.0	-62.4	3.8	8.47e-01	0	43	104	0	71	15112
2026-01-02 01:25:58.77	74.56	59.42	-50.0	-62.4	3.8	8.47e-01	0	43	104	0	71	15114
2026-01-02 01:25:59.77	75.35	59.61	-50.0	-62.4	3.8	8.45e-01	0	43	104	0	71	15166
2026-01-02 01:26:00.78	76.16	59.80	-50.0	-62.4	3.8	8.46e-01	0	43	104	0	71	15066
2026-01-02 01:26:01.78	76.97	59.98	-50.0	-62.4	3.8	8.47e-01	0	43	104	0	71	15150
2026-01-02 01:26:02.79	77.81	60.16	-50.0	-62.4	3.8	8.46e-01	0	44	104	0	71	15148
2026-01-02 01:26:03.79	78.64	60.33	-50.0	-62.4	3.8	8.47e-01	0	43	104	0	71	15106
2026-01-02 01:26:04.79	79.49	60.50	-50.0	-62.4	3.8	8.48e-01	0	43	104	0	71	15152
2026-01-02 01:26:05.80	80.36	60.66	-50.0	-62.4	3.8	8.47e-01	0	43	104	0	71	15140
2026-01-02 01:26:06.80	81.23	60.82	-50.0	-62.4	3.8	8.47e-01	0	43	104	0	71	15088
2026-01-02 01:26:07.81	82.11	60.97	-50.0	-62.4	3.8	8.47e-01	0	43	104	0	71	15160
2026-01-02 01:26:08.81	83.01	61.12	-50.0	-62.4	3.8	8.47e-01	0	43	104	0	71	15080
2026-01-02 01:26:09.82	83.92	61.26	-50.0	-62.4	3.8	8.47e-01	0	43	104	0	71	15141
2026-01-02 01:26:10.82	84.83	61.39	-50.0	-62.4	3.8	8.48e-01	0	43	104	0	71	15057
2026-01-02 01:26:11.82	85.75	61.52	-50.0	-62.4	3.8	8.47e-01	0	43	104	0	71	15071
2026-01-02 01:26:12.83	86.68	61.64	-50.0	-62.3	3.8	8.46e-01	0	43	104	0	71	14988
2026-01-02 01:26:13.83	87.62	61.76	-50.0	-62.3	3.8	8.47e-01	0	43	104	0	71	15011
2026-01-02 01:26:14.83	88.57	61.86	-50.0	-62.3	3.8	8.48e-01	0	43	104	0	71	15028
2026-01-02 01:26:15.84	89.54	61.97	-50.0	-62.4	3.8	8.47e-01	0	43	104	0	71	15075
2026-01-02 01:26:16.84	90.50	62.06	-50.0	-62.4	3.8	8.47e-01	0	43	104	0	71	15055
2026-01-02 01:26:17.85	91.48	62.15	-50.0	-62.4	3.8	8.47e-01	0	43	104	0	71	15077
2026-01-02 01:26:18.85	92.46	62.23	-50.0	-62.4	3.8	8.48e-01	0	43	104	0	71	15147
2026-01-02 01:26:19.86	93.45	62.31	-50.0	-62.4	3.8	8.47e-01	0	43	104	0	71	15081
2026-01-02 01:26:20.86	94.44	62.38	-50.0	-62.4	3.8	8.47e-01	0	43	104	0	71	15134
2026-01-02 01:26:21.86	95.43	62.44	-50.0	-62.4	3.8	8.46e-01	0	43	104	0	71	15114
2026-01-02 01:26:22.86	96.43	62.49	-50.0	-62.4	3.8	8.47e-01	0	43	104	0	71	15137
2026-01-02 01:26:23.87	97.45	62.54	-50.0	-62.4	3.8	8.47e-01	0	43	104	0	71	15112
2026-01-02 01:26:24.87	98.45	62.57	-50.0	-62.3	3.8	8.46e-01	0	43	104	0	71	15013
2026-01-02 01:26:25.88	99.47	62.61	-50.0	-62.3	3.8	8.47e-01	0	43	104	0	71	15028
2026-01-02 01:26:26.88	100.48	62.63	-50.0	-62.4	3.8	8.48e-01	0	43	104	0	71	15153
2026-01-02 01:26:27.88	101.50	62.65	-50.0	-62.4	3.8	8.48e-01	0	43	104	0	71	15088
2026-01-02 01:26:28.89	102.52	62.65	-50.0	-62.4	3.8	8.47e-01	0	43	104	0	71	15092
2026-01-02 01:26:29.89	103.54	62.66	-50.0	-62.4	3.8	8.47e-01	0	43	104	0	71	15118
2026-01-02 01:26:30.89	104.55	62.65	-50.0	-62.4	3.8	8.48e-01	0	43	104	0	71	15145
2026-01-02 01:26:31.90	105.58	62.64	-50.0	-62.4	3.8	8.46e-01	0	43	104	0	71	15052
2026-01-02 01:26:32.90	106.59	62.61	-50.0	-62.4	3.8	8.48e-01	0	43	104	0	71	15110
2026-01-02 01:26:33.91	107.61	62.58	-50.0	-62.4	3.8	8.46e-01	0	43	104	0	71	15094
2026-01-02 01:26:34.91	108.62	62.55	-50.0	-62.4	3.8	8.47e-01	0	43	104	0	71	15086
2026-01-02 01:26:35.91	109.63	62.50	-50.0	-62.4	3.8	8.46e-01	0	43	104	0	71	15079
2026-01-02 01:26:36.92	110.64	62.45	-50.0	-62.4	3.8	8.47e-01	0	43	104	0	71	15158
2026-01-02 01:26:37.92	111.63	62.39	-50.0	-62.4	3.8	8.47e-01	0	43	104	0	71	15157
2026-01-02 01:26:38.93	112.63	62.33	-50.0	-62.4	3.8	8.48e-01	0	43	104	0	71	15141
2026-01-02 01:26:39.93	113.62	62.26	-50.0	-62.4	3.8	8.47e-01	0	43	104	0	71	15128
2026-01-02 01:26:40.94	114.61	62.18	-50.0	-62.4	3.8	8.48e-01	0	43	104	0	71	15178
2026-01-02 01:26:41.94	115.58	62.09	-50.0	-62.4	3.8	8.47e-01	0	43	104	0	71	15076
2026-01-02 01:26:42.94	116.55	62.00	-50.0	-62.4	3.8	8.47e-01	0	43	104	0	71	15179
2026-01-02 01:26:43.95	117.52	61.89	-50.0	-62.4	3.8	8.46e-01	0	43	104	0	71	15131
2026-01-02 01:26:44.95	118.47	61.79	-50.0	-62.4	3.8	8.48e-01	0	43	104	0	71	15086
2026-01-02 01:26:45.96	119.42	61.67	-50.0	-62.4	3.8	8.48e-01	0	43	104	0	71	15130
2026-01-02 01:26:46.96	120.35	61.55	-50.0	-62.4	3.8	8.48e-01	0	43	104	0	71	15183
2026-01-02 01:26:47.96	121.28	61.43	-50.0	-62.4	3.8	8.46e-01	0	43	104	0	71	15093
2026-01-02 01:26:48.97	122.20	61.29	-50.0	-62.4	3.8	8.47e-01	0	43	104	0	71	15194
2026-01-02 01:26:49.97	123.10	61.16	-50.0	-62.4	3.8	8.47e-01	0	43	104	0	71	15094
2026-01-02 01:26:50.97	124.00	61.01	-50.0	-62.4	3.8	8.46e-01	0	43	104	0	71	15132
2026-01-02 01:26:51.98	124.89	60.86	-50.0	-62.4	3.8	8.48e-01	0	43	104	0	71	15139
2026-01-02 01:26:52.99	125.77	60.70	-50.0	-62.4	3.8	8.47e-01	0	43	104	0	71	15160
2026-01-02 01:26:53.99	126.64	60.54	-50.0	-62.4	3.8	8.47e-01	0	43	104	0	71	15159
2026-01-02 01:26:54.99	127.49	60.38	-50.0	-62.4	3.8	8.46e-01	0	43	104	0	71	15146
2026-01-02 01:26:56.00	128.34	60.21	-50.0	-62.4	3.8	8.47e-01	0	43	104	0	71	15175
2026-01-02 01:26:57.00	129.17	60.03	-50.0	-62.4	3.8	8.48e-01	0	43	104	0	71	15147
2026-01-02 01:26:58.01	129.99	59.85	-50.0	-62.4	3.8	8.47e-01	0	43	104	0	71	15216
2026-01-02 01:26:59.01	130.80	59.66	-50.0	-62.4	3.8	8.47e-01	0	43	104	0	71	15112
2026-01-02 01:27:00.02	131.60	59.47	-50.0	-62.4	3.8	8.47e-01	0	43	104	0	71	15159
2026-01-02 01:27:01.02	132.39	59.28	-50.0	-62.4	3.8	8.48e-01	0	44	104	0	71	15072
2026-01-02 01:27:02.03	133.17	59.08	-50.0	-62.4	3.8	8.47e-01	0	44	104	0	71	15154
2026-01-02 01:27:03.03	133.93	58.88	-50.0	-62.4	3.8	8.47e-01	0	43	104	0	71	15150
2026-01-02 01:27:04.03	134.67	58.67	-50.0	-62.4	3.8	8.45e-01	0	43	104	0	71	15090
2026-01-02 01:27:05.04	135.42	58.46	-50.0	-62.4	3.8	8.48e-01	0	43	104	0	71	15129
2026-01-02 01:27:06.04	136.14	58.25	-50.0	-62.4	3.8	8.46e-01	0	43	104	0	71	15098
2026-01-02 01:27:07.04	136.86	58.03	-50.0	-62.4	3.8	8.47e-01	0	43	104	0	71	15104
2026-01-02 01:27:08.05	137.57	57.81	-50.0	-62.4	3.8	8.47e-01	0	43	104	0	71	15086
2026-01-02 01:27:09.05	138.26	57.58	-50.0	-62.4	3.8	8.48e-01	0	43	104	0	71	15098
2026-01-02 01:27:10.06	138.95	57.36	-50.0	-62.4	3.8	8.47e-01	0	43	104	0	71	15200
2026-01-02 01:27:11.06	139.61	57.13	-50.0	-62.4	3.8	8.46e-01	0	43	104	0	71	15109
2026-01-02 01:27:12.06	140.27	56.90	-50.0	-62.4	3.8	8.47e-01	0	43	104	0	71	15126
2026-01-02 01:27:13.07	140.92	56.66	-50.0	-62.4	3.8	8.47e-01	0	43	104	0	71	15142
2026-01-02 01:27:14.07	141.56	56.42	-50.0	-62.4	3.8	8.47e-01	0	43	104	0	71	15100
2026-01-02 01:27:15.08	142.19	56.18	-50.1	-62.4	3.8	8.46e-01	0	43	104	0	71	15169
2026-01-02 01:27:16.08	142.80	55.94	-50.0	-62.4	3.8	8.48e-01	0	43	104	0	71	15133
2026-01-02 01:27:17.09	143.41	55.70	-50.0	-62.4	3.8	8.46e-01	0	43	104	0	71	15086
2026-01-02 01:27:18.09	144.01	55.45	-50.0	-62.4	3.8	8.48e-01	0	43	104	0	71	15089
2026-01-02 01:27:19.09	144.59	55.20	-50.0	-62.4	3.8	8.48e-01	0	43	104	0	71	15081
2026-01-02 01:27:20.10	145.17	54.95	-50.0	-62.4	3.8	8.47e-01	0	43	104	0	71	15104
2026-01-02 01:27:21.10	145.73	54.70	-50.0	-62.3	3.8	8.47e-01	0	43	104	0	71	15039
2026-01-02 01:27:22.11	146.29	54.45	-50.0	-62.4	3.8	8.46e-01	0	43	104	0	71	15081
2026-01-02 01:27:23.11	146.83	54.20	-50.0	-62.4	3.8	8.47e-01	0	43	104	0	71	15089
2026-01-02 01:27:24.12	147.37	53.94	-50.0	-62.4	3.8	8.46e-01	0	43	104	0	71	15076
2026-01-02 01:27:25.12	147.90	53.69	-50.0	-62.4	3.8	8.47e-01	0	43	104	0	71	15109
2026-01-02 01:27:26.12	148.42	53.43	-50.1	-62.4	3.8	8.46e-01	0	43	104	0	71	15153
2026-01-02 01:27:27.12	148.92	53.17	-50.0	-62.4	3.8	8.47e-01	0	43	104	0	71	15186
2026-01-02 01:27:28.13	149.43	52.91	-50.0	-62.4	3.8	8.48e-01	0	43	104	0	71	15133
2026-01-02 01:27:29.13	149.91	52.65	-50.0	-62.4	3.8	8.47e-01	0	43	104	0	71	15168
2026-01-02 01:27:30.14	150.40	52.39	-50.0	-62.4	3.8	8.48e-01	0	43	104	0	71	15185
2026-01-02 01:27:31.14	150.87	52.13	-50.0	-62.4	3.8	8.47e-01	0	43	104	0	71	15139
2026-01-02 01:27:32.15	151.34	51.87	-50.0	-62.4	3.8	8.47e-01	0	44	104	0	71	15144
2026-01-02 01:27:33.37	151.90	51.55	-50.0	-62.4	3.8	8.46e-01	0	43	104	0	71	15117
2026-01-02 01:27:34.30	152.31	51.31	-50.0	-62.4	3.8	8.47e-01	0	43	104	0	71	15211
2026-01-02 01:27:35.48	152.83	51.00	-50.0	-62.4	3.8	8.46e-01	0	43	104	0	71	15179
2026-01-02 01:27:36.37	153.21	50.76	-50.0	-62.4	3.8	8.47e-01	0	43	104	0	71	15120
2026-01-02 01:27:37.67	153.76	50.42	-50.1	-62.4	3.8	8.47e-01	0	43	104	0	71	15146
2026-01-02 01:27:38.39	154.06	50.23	-50.1	-62.4	3.8	8.47e-01	0	43	104	0	71	15144
2026-01-02 01:27:39.90	154.68	49.84	-50.0	-62.4	3.8	8.47e-01	0	43	104	0	71	15147
2026-01-02 01:27:40.62	154.97	49.65	-50.0	-62.4	3.8	8.47e-01	0	43	104	0	71	15165
2026-01-02 01:27:41.91	155.48	49.31	-50.1	-62.4	3.8	8.48e-01	0	43	104	0	71	15111
2026-01-02 01:27:42.62	155.75	49.12	-50.0	-62.4	3.8	8.46e-01	0	43	104	0	71	15177
2026-01-02 01:27:43.92	156.24	48.78	-50.0	-62.4	3.8	8.47e-01	0	43	104	0	71	15151
2026-01-02 01:27:44.64	156.51	48.59	-50.1	-62.4	3.8	8.47e-01	0	43	104	0	71	15153
2026-01-02 01:27:45.92	156.98	48.26	-50.0	-62.4	3.8	8.47e-01	0	43	104	0	71	15135
2026-01-02 01:27:46.64	157.24	48.07	-50.0	-62.4	3.8	8.48e-01	0	43	104	0	71	15111
2026-01-02 01:27:47.93	157.70	47.73	-50.1	-62.4	3.8	8.47e-01	0	43	104	0	71	15172
2026-01-02 01:27:48.65	157.95	47.55	-50.1	-62.4	3.8	8.48e-01	0	43	104	0	71	15176
2026-01-02 01:27:49.94	158.40	47.21	-50.1	-62.4	3.8	8.47e-01	0	43	104	0	71	15194
2026-01-02 01:27:50.66	158.64	47.02	-50.0	-62.4	3.8	8.49e-01	0	43	104	0	71	15076
2026-01-02 01:27:51.95	159.07	46.69	-50.1	-62.4	3.8	8.48e-01	0	43	104	0	71	15218
2026-01-02 01:27:52.67	159.31	46.50	-50.0	-62.4	3.8	8.47e-01	0	43	104	0	71	15150
2026-01-02 01:27:53.96	159.72	46.17	-50.0	-62.4	3.8	8.47e-01	0	43	104	0	71	15064
2026-01-02 01:27:54.67	159.95	45.99	-50.0	-62.4	3.8	8.48e-01	0	43	104	0	71	15177
2026-01-02 01:27:55.97	160.35	45.66	-50.0	-62.4	3.8	8.47e-01	0	43	104	0	71	15144
2026-01-02 01:27:56.68	160.57	45.48	-50.0	-62.4	3.8	8.47e-01	0	43	104	0	71	15166
2026-01-02 01:27:57.98	160.96	45.14	-50.0	-62.4	3.8	8.48e-01	0	43	104	0	71	15182
2026-01-02 01:27:58.69	161.18	44.96	-50.0	-62.4	3.8	8.47e-01	0	43	104	0	71	15216
2026-01-02 01:27:59.98	161.55	44.64	-50.1	-62.4	3.8	8.47e-01	0	43	104	0	71	15168
2026-01-02 01:28:00.70	161.76	44.46	-50.0	-62.4	3.8	8.46e-01	0	43	104	0	71	15132
2026-01-02 01:28:01.99	162.13	44.13	-50.1	-62.4	3.8	8.48e-01	0	43	104	0	71	15162
2026-01-02 01:28:02.71	162.33	43.95	-50.0	-62.4	3.8	8.48e-01	0	43	104	0	71	15179
2026-01-02 01:28:04.00	162.68	43.63	-50.1	-62.4	3.8	8.48e-01	0	43	104	0	71	15146
2026-01-02 01:28:04.71	162.87	43.45	-50.1	-62.5	3.8	8.47e-01	0	43	104	0	71	15259
2026-01-02 01:28:06.00	163.22	43.13	-50.1	-62.4	3.8	8.47e-01	0	43	104	0	71	15224
2026-01-02 01:28:06.72	163.41	42.95	-50.1	-62.4	3.8	8.47e-01	0	43	104	0	71	15155
2026-01-02 01:28:08.01	163.74	42.64	-50.1	-62.4	3.8	8.48e-01	0	43	104	0	71	15195
2026-01-02 01:28:08.73	163.92	42.46	-50.1	-62.4	3.8	8.47e-01	0	43	104	0	71	15136
2026-01-02 01:28:10.02	164.25	42.15	-50.0	-62.4	3.8	8.46e-01	0	43	104	0	71	15184
2026-01-02 01:28:10.74	164.43	41.97	-50.0	-62.4	3.8	8.47e-01	0	43	104	0	71	15194
2026-01-02 01:28:12.03	164.74	41.66	-50.1	-62.4	3.8	8.47e-01	0	43	104	0	71	15125
2026-01-02 01:28:12.75	164.91	41.49	-50.1	-62.4	3.8	8.47e-01	0	43	104	0	71	15186
2026-01-02 01:28:14.04	165.22	41.18	-50.1	-62.4	3.8	8.46e-01	0	43	104	0	71	15149
2026-01-02 01:28:14.76	165.39	41.00	-50.0	-62.4	3.8	8.48e-01	0	43	104	0	71	15152
2026-01-02 01:28:16.05	165.68	40.70	-50.1	-62.4	3.8	8.47e-01	0	43	104	0	71	15203
2026-01-02 01:28:16.76	165.84	40.53	-50.0	-62.5	3.8	8.48e-01	0	43	104	0	71	15227
2026-01-02 01:28:18.05	166.13	40.23	-50.1	-62.4	3.8	8.48e-01	0	43	104	0	71	15104
2026-01-02 01:28:18.77	166.29	40.06	-50.1	-62.4	3.8	8.48e-01	0	43	104	0	71	15163
2026-01-02 01:28:20.06	166.57	39.76	-50.1	-62.4	3.8	8.47e-01	0	43	104	0	71	15219
2026-01-02 01:28:20.78	166.72	39.59	-50.1	-62.4	3.8	8.46e-01	0	43	104	0	71	15206
2026-01-02 01:28:22.07	167.00	39.29	-50.1	-62.5	3.8	8.46e-01	0	43	104	0	71	15239
2026-01-02 01:28:22.79	167.15	39.13	-50.1	-62.4	3.8	8.46e-01	0	43	104	0	71	15221
2026-01-02 01:28:24.08	167.41	38.83	-50.1	-62.4	3.8	8.47e-01	0	43	104	0	71	15201
2026-01-02 01:28:24.80	167.56	38.67	-50.0	-62.4	3.8	8.47e-01	0	43	104	0	71	15197
2026-01-02 01:28:26.09	167.81	38.37	-50.1	-62.4	3.8	8.47e-01	0	43	104	0	71	15150
2026-01-02 01:28:26.81	167.96	38.21	-50.1	-62.5	3.8	8.46e-01	0	43	104	0	71	15269
2026-01-02 01:28:28.10	168.21	37.92	-50.1	-62.4	3.8	8.47e-01	0	43	104	0	71	15128
2026-01-02 01:28:28.81	168.34	37.76	-50.1	-62.4	3.8	8.48e-01	0	43	104	0	71	15185
2026-01-02 01:28:30.10	168.59	37.48	-50.1	-62.4	3.8	8.47e-01	0	43	104	0	71	15209
2026-01-02 01:28:30.82	168.72	37.32	-50.1	-62.4	3.8	8.46e-01	0	43	104	0	71	15149
2026-01-02 01:28:32.11	168.96	37.04	-50.1	-62.4	3.8	8.47e-01	0	43	104	0	71	15195
2026-01-02 01:28:32.83	169.09	36.88	-50.1	-62.4	3.8	8.46e-01	0	43	104	0	71	15223
2026-01-02 01:28:34.12	169.32	36.60	-50.1	-62.4	3.8	8.46e-01	0	43	104	0	71	15166
2026-01-02 01:28:34.84	169.45	36.44	-50.1	-62.4	3.8	8.47e-01	0	43	104	0	71	15179
2026-01-02 01:28:36.13	169.67	36.16	-50.1	-62.4	3.8	8.48e-01	0	43	104	0	71	15223
2026-01-02 01:28:36.84	169.80	36.01	-50.1	-62.4	3.8	8.46e-01	0	43	104	0	71	15214
2026-01-02 01:28:38.14	170.02	35.74	-50.1	-62.4	3.8	8.46e-01	0	43	104	0	71	15213
2026-01-02 01:28:38.85	170.14	35.59	-50.1	-62.4	3.8	8.47e-01	0	43	104	0	71	15122
2026-01-02 01:28:40.14	170.35	35.31	-50.1	-62.4	3.8	8.46e-01	0	43	104	0	71	15208
2026-01-02 01:28:40.86	170.47	35.16	-50.1	-62.4	3.8	8.47e-01	0	43	104	0	71	15216
2026-01-02 01:28:42.15	170.68	34.89	-50.1	-62.4	3.8	8.48e-01	0	43	104	0	71	15173
2026-01-02 01:28:42.87	170.79	34.74	-50.1	-62.4	3.8	8.47e-01	0	43	104	0	71	15217
2026-01-02 01:28:44.16	171.00	34.48	-50.1	-62.4	3.8	8.46e-01	0	43	104	0	71	15178
2026-01-02 01:28:44.88	171.11	34.33	-50.1	-62.4	3.8	8.48e-01	0	43	104	0	71	15212
2026-01-02 01:28:46.17	171.31	34.07	-50.1	-62.4	3.8	8.47e-01	0	43	104	0	71	15154
2026-01-02 01:28:46.89	171.42	33.92	-50.1	-62.4	3.8	8.46e-01	0	43	104	0	71	15125
2026-01-02 01:28:48.18	171.61	33.66	-50.1	-62.5	3.8	8.47e-01	0	43	104	0	71	15231
2026-01-02 01:28:49.09	171.75	33.48	-50.1	-62.4	3.8	8.47e-01	0	43	104	0	71	15199
2026-01-02 01:28:50.09	171.89	33.28	-50.1	-62.5	3.8	8.48e-01	0	43	104	0	71	15271
2026-01-02 01:28:51.10	172.04	33.08	-50.1	-62.4	3.8	8.48e-01	0	43	104	0	71	15145
2026-01-02 01:28:52.10	172.18	32.88	-50.1	-62.4	3.8	8.46e-01	0	43	104	0	71	15203
2026-01-02 01:28:53.10	172.33	32.69	-50.1	-62.4	3.8	8.47e-01	0	43	104	0	71	15175
2026-01-02 01:28:54.11	172.47	32.49	-50.1	-62.4	3.8	8.47e-01	0	43	104	0	71	15140
2026-01-02 01:28:55.11	172.61	32.30	-50.1	-62.4	3.8	8.47e-01	0	43	104	0	71	15134
2026-01-02 01:28:56.12	172.74	32.10	-50.1	-62.4	3.8	8.46e-01	0	43	104	0	71	15165
2026-01-02 01:28:57.12	172.88	31.91	-50.1	-62.4	3.8	8.47e-01	0	43	104	0	71	15165
2026-01-02 01:28:58.13	173.01	31.72	-50.1	-62.4	3.8	8.47e-01	0	43	104	0	71	15221
2026-01-02 01:28:59.13	173.15	31.53	-50.1	-62.4	3.8	8.46e-01	0	43	104	0	71	15170
2026-01-02 01:29:00.14	173.28	31.34	-50.1	-62.4	3.8	8.48e-01	0	43	104	0	71	15146
2026-01-02 01:29:01.14	173.41	31.15	-50.1	-62.4	3.8	8.47e-01	0	43	104	0	71	15214
2026-01-02 01:29:02.14	173.53	30.97	-50.1	-62.4	3.8	8.46e-01	0	43	104	0	71	15201
2026-01-02 01:29:03.15	173.66	30.78	-50.1	-62.4	3.8	8.46e-01	0	43	104	0	71	15196
2026-01-02 01:29:04.15	173.79	30.59	-50.1	-62.4	3.8	8.46e-01	0	43	104	0	71	15184
2026-01-02 01:29:05.16	173.91	30.41	-50.1	-62.5	3.8	8.48e-01	0	43	104	0	71	15264
2026-01-02 01:29:06.16	174.03	30.23	-50.1	-62.4	3.8	8.47e-01	0	43	104	0	71	15201
2026-01-02 01:29:07.16	174.15	30.05	-50.1	-62.4	3.8	8.46e-01	0	43	104	0	71	15126
2026-01-02 01:29:08.17	174.28	29.86	-50.1	-62.4	3.8	8.47e-01	0	43	104	0	71	15125
2026-01-02 01:29:09.17	174.39	29.68	-50.1	-62.4	3.8	8.47e-01	0	43	104	0	71	15185
2026-01-02 01:29:10.17	174.51	29.51	-50.1	-62.4	3.8	8.47e-01	0	43	104	0	71	15208
2026-01-02 01:29:11.18	174.63	29.33	-50.1	-62.4	3.8	8.47e-01	0	43	104	0	71	15222
2026-01-02 01:29:12.18	174.74	29.15	-50.1	-62.4	3.8	8.47e-01	0	43	104	0	71	15172
2026-01-02 01:29:13.19	174.86	28.97	-50.1	-62.4	3.8	8.47e-01	0	43	104	0	71	15148
2026-01-02 01:29:14.19	174.97	28.80	-50.1	-62.4	3.8	8.47e-01	0	43	104	0	71	15144
2026-01-02 01:29:15.37	175.10	28.60	-50.1	-62.4	3.8	8.46e-01	0	43	104	0	71	15174
2026-01-02 01:29:16.25	175.20	28.44	-50.1	-62.4	3.8	8.47e-01	0	43	104	0	71	15177
2026-01-02 01:29:17.59	175.34	28.21	-50.1	-62.4	3.8	8.47e-01	0	43	104	0	71	15191
2026-01-02 01:29:18.30	175.42	28.09	-50.1	-62.5	3.8	8.47e-01	0	43	104	0	71	15235
2026-01-02 01:29:19.78	175.57	27.84	-50.1	-62.5	3.8	8.46e-01	0	43	104	0	71	15240
2026-01-02 01:29:20.50	175.65	27.72	-50.1	-62.5	3.8	8.46e-01	0	43	104	0	71	15228
2026-01-02 01:29:21.87	175.79	27.49	-50.1	-62.5	3.8	8.47e-01	0	43	104	0	71	15269
2026-01-02 01:29:22.59	175.87	27.37	-50.1	-62.5	3.8	8.47e-01	0	43	104	0	71	15240
2026-01-02 01:29:23.88	176.00	27.16	-50.1	-62.4	3.8	8.47e-01	0	43	104	0	71	15176
2026-01-02 01:29:24.60	176.07	27.04	-50.1	-62.4	3.8	8.47e-01	0	44	104	0	71	15181
2026-01-02 01:29:25.89	176.20	26.83	-50.1	-62.4	3.8	8.47e-01	0	43	104	0	71	15215
2026-01-02 01:29:26.61	176.27	26.71	-50.1	-62.5	3.8	8.46e-01	0	43	104	0	71	15232
2026-01-02 01:29:27.90	176.39	26.51	-50.1	-62.4	3.8	8.47e-01	0	43	104	0	71	15224
2026-01-02 01:29:28.62	176.46	26.39	-50.1	-62.4	3.8	8.48e-01	0	43	104	0	71	15156
2026-01-02 01:29:29.91	176.59	26.18	-50.1	-62.4	3.8	8.47e-01	0	43	104	0	71	15198
2026-01-02 01:29:30.63	176.66	26.07	-50.1	-62.4	3.8	8.47e-01	0	44	104	0	71	15193
2026-01-02 01:29:31.92	176.78	25.87	-50.1	-62.4	3.8	8.48e-01	0	43	104	0	71	15146
2026-01-02 01:29:32.64	176.84	25.75	-50.1	-62.5	3.8	8.47e-01	0	43	104	0	71	15227
2026-01-02 01:29:33.92	176.96	25.55	-50.1	-62.4	3.8	8.47e-01	0	43	104	0	71	15202
2026-01-02 01:29:34.64	177.03	25.44	-50.1	-62.4	3.8	8.46e-01	0	43	104	0	71	15144
2026-01-02 01:29:35.93	177.14	25.24	-50.1	-62.5	3.8	8.48e-01	0	43	104	0	71	15242
2026-01-02 01:29:36.65	177.21	25.13	-50.1	-62.4	3.8	8.48e-01	0	43	104	0	71	15167
2026-01-02 01:29:37.94	177.32	24.93	-50.1	-62.4	3.8	8.48e-01	0	43	104	0	71	15178
2026-01-02 01:29:38.66	177.39	24.82	-50.1	-62.4	3.8	8.48e-01	0	43	104	0	71	15189
2026-01-02 01:29:39.95	177.50	24.63	-50.1	-62.4	3.8	8.47e-01	0	43	104	0	71	15210
2026-01-02 01:29:40.67	177.56	24.52	-50.1	-62.4	3.8	8.47e-01	0	43	104	0	71	15168
2026-01-02 01:29:41.96	177.67	24.33	-50.1	-62.4	3.8	8.46e-01	0	43	104	0	71	15200
2026-01-02 01:29:42.68	177.73	24.22	-50.1	-62.4	3.8	8.47e-01	0	43	104	0	71	15150
2026-01-02 01:29:43.97	177.84	24.03	-50.1	-62.4	3.8	8.47e-01	0	44	104	0	71	15225
2026-01-02 01:29:44.68	177.90	23.92	-50.1	-62.4	3.8	8.46e-01	0	43	104	0	71	15199
2026-01-02 01:29:45.97	178.01	23.73	-50.1	-62.5	3.8	8.47e-01	0	43	104	0	71	15228
2026-01-02 01:29:46.69	178.07	23.63	-50.1	-62.5	3.8	8.47e-01	0	43	104	0	71	15255
2026-01-02 01:29:47.98	178.17	23.44	-50.1	-62.5	3.8	8.47e-01	0	43	104	0	71	15227
2026-01-02 01:29:48.70	178.23	23.34	-50.1	-62.4	3.8	8.47e-01	0	43	104	0	71	15155
2026-01-02 01:29:49.99	178.33	23.15	-50.1	-62.5	3.8	8.47e-01	0	43	104	0	71	15258
2026-01-02 01:29:50.71	178.39	23.05	-50.1	-62.4	3.8	8.46e-01	0	43	104	0	71	15168
2026-01-02 01:29:52.00	178.49	22.87	-50.1	-62.4	3.8	8.47e-01	0	43	104	0	71	15223
2026-01-02 01:29:52.72	178.54	22.76	-50.1	-62.5	3.8	8.47e-01	0	43	104	0	71	15234
2026-01-02 01:29:54.01	178.64	22.58	-50.1	-62.5	3.8	8.47e-01	0	43	104	0	71	15228
2026-01-02 01:29:54.73	178.70	22.48	-50.1	-62.4	3.8	8.46e-01	0	43	104	0	71	15184
2026-01-02 01:29:56.02	178.80	22.30	-50.1	-62.5	3.8	8.48e-01	0	43	104	0	71	15252
2026-01-02 01:29:56.73	178.85	22.20	-50.1	-62.5	3.8	8.47e-01	0	43	104	0	71	15255
2026-01-02 01:29:58.02	178.95	22.03	-50.1	-62.5	3.8	8.46e-01	0	43	104	0	71	15237
2026-01-02 01:29:58.74	179.00	21.93	-50.1	-62.5	3.8	8.47e-01	0	43	104	0	71	15235
2026-01-02 01:30:00.03	179.09	21.75	-50.1	-62.5	3.8	8.46e-01	0	43	104	0	71	15227
2026-01-02 01:30:00.75	179.14	21.65	-50.1	-62.5	3.8	8.47e-01	0	43	104	0	71	15244
2026-01-02 01:30:02.04	179.24	21.48	-50.1	-62.4	3.8	8.47e-01	0	43	104	0	71	15174
2026-01-02 01:30:02.76	179.29	21.38	-50.1	-62.4	3.8	8.47e-01	0	43	104	0	71	15200
2026-01-02 01:30:04.05	179.38	21.21	-50.1	-62.4	3.8	8.47e-01	0	43	104	0	71	15184
2026-01-02 01:30:04.77	179.43	21.11	-50.1	-62.5	3.8	8.47e-01	0	44	104	0	71	15327
2026-01-02 01:30:06.06	179.52	20.94	-50.1	-62.5	3.8	8.49e-01	0	43	104	0	71	15235
2026-01-02 01:30:06.78	179.57	20.85	-50.1	-62.4	3.8	8.47e-01	0	43	104	0	71	15179
2026-01-02 01:30:08.07	179.66	20.68	-50.1	-62.5	3.8	8.47e-01	0	43	104	0	71	15228
2026-01-02 01:30:08.79	179.71	20.58	-50.1	-62.5	3.8	8.46e-01	0	43	104	0	71	15229
2026-01-02 01:30:10.08	179.79	20.42	-50.1	-62.5	3.8	8.46e-01	0	43	104	0	71	15229
2026-01-02 01:30:10.79	179.84	20.33	-50.1	-62.4	3.8	8.48e-01	0	43	104	0	71	15187
2026-01-02 01:30:12.09	179.93	20.16	-50.1	-62.5	3.8	8.47e-01	0	43	104	0	71	15235
2026-01-02 01:30:12.80	179.97	20.07	-50.1	-62.4	3.8	8.48e-01	0	43	104	0	71	15150
2026-01-02 01:30:14.09	180.06	19.90	-50.1	-62.5	3.8	8.48e-01	0	43	104	0	71	15226
2026-01-02 01:30:14.81	180.10	19.81	-50.1	-62.5	3.8	8.48e-01	0	43	104	0	71	15262
2026-01-02 01:30:16.10	180.19	19.65	-50.1	-62.5	3.8	8.47e-01	0	43	104	0	71	15278
2026-01-02 01:30:16.82	180.23	19.56	-50.1	-62.4	3.8	8.46e-01	0	43	104	0	71	15187
2026-01-02 01:30:18.11	180.31	19.40	-50.1	-62.4	3.8	8.47e-01	0	43	104	0	71	15224
2026-01-02 01:30:18.83	180.36	19.31	-50.1	-62.5	3.8	8.47e-01	0	43	104	0	71	15268
2026-01-02 01:30:20.12	180.44	19.15	-50.1	-62.4	3.8	8.47e-01	0	43	104	0	71	15210
2026-01-02 01:30:20.84	180.48	19.06	-50.1	-62.4	3.8	8.46e-01	0	43	104	0	71	15225
2026-01-02 01:30:22.13	180.56	18.90	-50.1	-62.5	3.8	8.46e-01	0	44	104	0	71	15246
2026-01-02 01:30:22.85	180.61	18.82	-50.1	-62.5	3.8	8.46e-01	0	44	104	0	71	15228
2026-01-02 01:30:24.14	180.68	18.66	-50.1	-62.4	3.8	8.47e-01	0	43	104	0	71	15194
2026-01-02 01:30:24.86	180.73	18.57	-50.1	-62.4	3.8	8.46e-01	0	43	104	0	71	15210
2026-01-02 01:30:26.15	180.80	18.42	-50.1	-62.4	3.8	8.48e-01	0	43	104	0	71	15187
2026-01-02 01:30:26.87	180.85	18.33	-50.1	-62.4	3.8	8.49e-01	0	43	104	0	71	15167
2026-01-02 01:30:28.16	180.92	18.18	-50.1	-62.4	3.8	8.47e-01	0	43	104	0	71	15180
2026-01-02 01:30:28.87	180.96	18.09	-50.1	-62.4	3.8	8.47e-01	0	43	104	0	71	15212
2026-01-02 01:30:30.17	181.04	17.94	-50.1	-62.4	3.8	8.47e-01	0	44	104	0	71	15192
2026-01-02 01:30:30.89	181.08	17.86	-50.1	-62.4	3.8	8.47e-01	0	44	104	0	71	15171
2026-01-02 01:30:32.18	181.15	17.70	-50.1	-62.5	3.8	8.47e-01	0	43	104	0	71	15231
2026-01-02 01:30:32.89	181.19	17.62	-50.1	-62.5	3.8	8.47e-01	0	43	104	0	71	15245
2026-01-02 01:30:34.18	181.26	17.47	-50.0	-62.4	3.8	8.47e-01	0	43	104	0	71	15221
2026-01-02 01:30:34.90	181.30	17.39	-50.1	-62.4	3.8	8.47e-01	0	43	104	0	71	15175
2026-01-02 01:30:36.19	181.38	17.24	-50.1	-62.4	3.8	8.47e-01	0	43	104	0	71	15139
2026-01-02 01:30:36.91	181.42	17.16	-50.0	-62.4	3.8	8.47e-01	0	43	104	0	71	15144
2026-01-02 01:30:38.20	181.49	17.01	-50.1	-62.4	3.8	8.46e-01	0	43	104	0	71	15208
2026-01-02 01:30:38.92	181.52	16.93	-50.1	-62.4	3.8	8.47e-01	0	43	104	0	71	15176
2026-01-02 01:30:40.21	181.59	16.79	-50.1	-62.5	3.8	8.45e-01	0	43	104	0	71	15235
2026-01-02 01:30:40.93	181.63	16.70	-50.1	-62.4	3.8	8.48e-01	0	43	104	0	71	15196
2026-01-02 01:30:42.22	181.70	16.56	-50.1	-62.4	3.8	8.46e-01	0	44	104	0	71	15193
2026-01-02 01:30:42.94	181.74	16.48	-50.1	-62.4	3.8	8.46e-01	0	44	104	0	71	15159
2026-01-02 01:30:44.23	181.80	16.34	-50.1	-62.5	3.8	8.47e-01	0	44	104	0	71	15227
2026-01-02 01:30:44.94	181.84	16.26	-50.1	-62.4	3.8	8.47e-01	0	43	104	0	71	15158
2026-01-02 01:30:46.23	181.91	16.12	-50.1	-62.5	3.8	8.48e-01	0	44	104	0	71	15234
2026-01-02 01:30:46.95	181.94	16.04	-50.1	-62.4	3.8	8.47e-01	0	43	104	0	71	15188
2026-01-02 01:30:48.24	182.01	15.90	-50.1	-62.4	3.8	8.48e-01	0	43	104	0	71	15194
2026-01-02 01:30:48.96	182.05	15.82	-50.1	-62.4	3.8	8.47e-01	0	43	104	0	71	15212
2026-01-02 01:30:50.25	182.11	15.68	-50.1	-62.5	3.8	8.47e-01	0	44	104	0	71	15246
2026-01-02 01:30:50.97	182.15	15.60	-50.1	-62.5	3.8	8.47e-01	0	43	104	0	71	15247
2026-01-02 01:30:52.26	182.21	15.47	-50.1	-62.4	3.8	8.47e-01	0	43	104	0	71	15176
2026-01-02 01:30:52.98	182.25	15.39	-50.1	-62.4	3.8	8.46e-01	0	43	104	0	71	15164
2026-01-02 01:30:54.27	182.31	15.25	-50.1	-62.5	3.8	8.47e-01	0	43	104	0	71	15255
2026-01-02 01:30:54.99	182.34	15.18	-50.1	-62.4	3.8	8.47e-01	0	43	104	0	71	15211
2026-01-02 01:30:56.28	182.41	15.04	-50.1	-62.4	3.8	8.47e-01	0	43	104	0	71	15224
2026-01-02 01:30:57.16	182.45	14.95	-50.1	-62.4	3.8	8.47e-01	0	43	104	0	71	15212
2026-01-02 01:30:58.30	182.50	14.83	-50.1	-62.4	3.8	8.46e-01	0	43	104	0	71	15212
2026-01-02 01:30:59.36	182.55	14.72	-50.1	-62.5	3.8	8.47e-01	0	43	104	0	71	15240
2026-01-02 01:31:00.41	182.60	14.61	-50.1	-62.5	3.8	8.47e-01	0	43	104	0	71	15284
2026-01-02 01:31:01.46	182.65	14.50	-50.1	-62.5	3.8	8.46e-01	0	43	104	0	71	15258
2026-01-02 01:31:02.48	182.70	14.40	-50.1	-62.4	3.8	8.48e-01	0	43	104	0	71	15216
2026-01-02 01:31:03.49	182.74	14.29	-50.1	-62.5	3.8	8.47e-01	0	43	104	0	71	15227
2026-01-02 01:31:04.49	182.79	14.19	-50.1	-62.5	3.8	8.45e-01	0	44	104	0	71	15238
2026-01-02 01:31:05.49	182.83	14.09	-50.1	-62.5	3.8	8.47e-01	0	43	104	0	71	15240
2026-01-02 01:31:06.50	182.88	13.99	-50.1	-62.5	3.8	8.47e-01	0	43	104	0	71	15250
2026-01-02 01:31:07.50	182.92	13.89	-50.1	-62.4	3.8	8.46e-01	0	43	104	0	71	15207
2026-01-02 01:31:08.51	182.97	13.79	-50.1	-62.5	3.8	8.47e-01	0	43	104	0	71	15245
2026-01-02 01:31:09.51	183.01	13.69	-50.1	-62.5	3.8	8.46e-01	0	44	104	0	71	15243
2026-01-02 01:31:10.51	183.06	13.59	-50.1	-62.4	3.8	8.46e-01	0	43	104	0	71	15186
2026-01-02 01:31:11.52	183.10	13.49	-50.1	-62.5	3.8	8.47e-01	0	43	104	0	71	15232
2026-01-02 01:31:12.53	183.14	13.39	-50.1	-62.4	3.8	8.46e-01	0	43	104	0	71	15164
2026-01-02 01:31:13.59	183.19	13.29	-50.1	-62.5	3.8	8.47e-01	0	43	104	0	71	15246
2026-01-02 01:31:14.45	183.23	13.20	-50.1	-62.5	3.8	8.46e-01	0	43	104	0	71	15267
2026-01-02 01:31:15.60	183.28	13.09	-50.1	-62.4	3.8	8.47e-01	0	43	104	0	71	15187
2026-01-02 01:31:16.46	183.31	13.01	-50.1	-62.4	3.8	8.47e-01	0	43	104	0	71	15208
2026-01-02 01:31:17.61	183.36	12.90	-50.1	-62.4	3.8	8.47e-01	0	43	104	0	71	15210
2026-01-02 01:31:18.47	183.40	12.81	-50.1	-62.5	3.8	8.47e-01	0	43	104	0	71	15247
2026-01-02 01:31:19.62	183.44	12.70	-50.1	-62.5	3.8	8.47e-01	0	43	104	0	71	15256
2026-01-02 01:31:20.48	183.48	12.62	-50.1	-62.4	3.8	8.48e-01	0	43	104	0	71	15204
2026-01-02 01:31:21.63	183.53	12.51	-50.1	-62.4	3.8	8.46e-01	0	43	104	0	71	15189
2026-01-02 01:31:22.48	183.56	12.43	-50.1	-62.4	3.8	8.47e-01	0	43	104	0	71	15155
2026-01-02 01:31:23.63	183.61	12.32	-50.1	-62.4	3.8	8.47e-01	0	43	104	0	71	15216
2026-01-02 01:31:24.49	183.64	12.24	-50.1	-62.4	3.8	8.48e-01	0	43	104	0	71	15196
2026-01-02 01:31:25.65	183.69	12.13	-50.1	-62.4	3.8	8.46e-01	0	43	104	0	71	15205
2026-01-02 01:31:26.51	183.72	12.05	-50.1	-62.4	3.8	8.47e-01	0	43	104	0	71	15155
2026-01-02 01:31:27.72	183.77	11.94	-50.1	-62.5	3.8	8.47e-01	0	43	104	0	71	15250
2026-01-02 01:31:28.58	183.80	11.86	-50.1	-62.4	3.8	8.47e-01	0	43	104	0	71	15156
2026-01-02 01:31:29.73	183.85	11.75	-50.1	-62.4	3.8	8.46e-01	0	43	104	0	71	15139
2026-01-02 01:31:30.59	183.88	11.68	-50.1	-62.4	3.8	8.46e-01	0	43	104	0	71	15157
2026-01-02 01:31:31.73	183.93	11.57	-50.1	-62.5	3.8	8.48e-01	0	43	104	0	71	15234
2026-01-02 01:31:32.59	183.96	11.49	-50.1	-62.5	3.8	8.48e-01	0	43	104	0	71	15268
2026-01-02 01:31:33.74	184.00	11.39	-50.1	-62.5	3.8	8.47e-01	0	43	104	0	71	15231
2026-01-02 01:31:34.60	184.04	11.31	-50.1	-62.4	3.8	8.48e-01	0	44	104	0	71	15206
2026-01-02 01:31:35.75	184.08	11.21	-50.1	-62.4	3.8	8.47e-01	0	43	104	0	71	15181
2026-01-02 01:31:36.61	184.11	11.13	-50.1	-62.4	3.8	8.47e-01	0	43	104	0	71	15186
2026-01-02 01:31:37.76	184.15	11.03	-50.1	-62.4	3.8	8.46e-01	0	43	104	0	71	15142
2026-01-02 01:31:38.62	184.19	10.95	-50.1	-62.4	3.8	8.46e-01	0	43	104	0	71	15214
2026-01-02 01:31:39.77	184.23	10.85	-50.0	-62.4	3.8	8.47e-01	0	44	104	0	71	15198
2026-01-02 01:31:40.62	184.26	10.77	-50.1	-62.4	3.8	8.47e-01	0	43	104	0	71	15201
2026-01-02 01:31:41.77	184.30	10.67	-50.1	-62.4	3.8	8.48e-01	0	43	104	0	71	15211
2026-01-02 01:31:42.63	184.33	10.59	-50.1	-62.4	3.8	8.47e-01	0	43	104	0	71	15197
2026-01-02 01:31:43.78	184.38	10.49	-50.1	-62.4	3.8	8.47e-01	0	44	104	0	71	15215
2026-01-02 01:31:44.64	184.41	10.42	-50.1	-62.5	3.8	8.47e-01	0	44	104	0	71	15234
2026-01-02 01:31:45.79	184.45	10.32	-50.1	-62.4	3.8	8.47e-01	0	43	104	0	71	15198
2026-01-02 01:31:46.65	184.48	10.24	-50.1	-62.4	3.8	8.47e-01	0	43	104	0	71	15205
2026-01-02 01:31:47.80	184.52	10.14	-50.1	-62.4	3.8	8.46e-01	0	43	104	0	71	15133
2026-01-02 01:31:48.66	184.55	10.07	-50.1	-62.4	3.8	8.48e-01	0	43	104	0	71	15172
2026-01-02 01:31:49.80	184.59	9.97	-50.1	-62.4	3.8	8.46e-01	0	43	104	0	71	15210
2026-01-02 01:31:50.67	184.62	9.90	-50.1	-62.4	3.8	8.47e-01	0	43	104	0	71	15098
2026-01-02 01:31:51.81	184.66	9.80	-50.1	-62.4	3.8	8.46e-01	0	43	104	0	71	15166
2026-01-02 01:31:52.67	184.69	9.73	-50.1	-62.4	3.8	8.47e-01	0	43	104	0	71	15174
2026-01-02 01:31:53.82	184.73	9.63	-50.1	-62.4	3.8	8.48e-01	0	44	104	0	71	15222
2026-01-02 01:31:54.68	184.76	9.56	-50.1	-62.4	3.8	8.47e-01	0	44	104	0	71	15182
2026-01-02 01:31:55.83	184.79	9.46	-50.1	-62.4	3.8	8.47e-01	0	43	104	0	71	15201
2026-01-02 01:31:56.69	184.82	9.39	-50.1	-62.5	3.8	8.46e-01	0	43	104	0	71	15235
2026-01-02 01:31:57.84	184.86	9.29	-50.1	-62.4	3.8	8.48e-01	0	44	104	0	71	15170
2026-01-02 01:31:58.70	184.89	9.22	-50.0	-62.4	3.8	8.47e-01	0	43	104	0	71	15103
2026-01-02 01:31:59.85	184.93	9.12	-50.1	-62.4	3.8	8.46e-01	0	43	104	0	71	15121
2026-01-02 01:32:00.71	184.96	9.05	-50.1	-62.5	3.8	8.47e-01	0	43	104	0	71	15247
2026-01-02 01:32:01.85	184.99	8.96	-50.1	-62.4	3.8	8.48e-01	0	43	104	0	71	15185
2026-01-02 01:32:02.71	185.02	8.89	-50.1	-62.4	3.8	8.46e-01	0	44	104	0	71	15160
2026-01-02 01:32:03.86	185.06	8.79	-50.1	-62.4	3.8	8.46e-01	0	43	104	0	71	15146
2026-01-02 01:32:04.72	185.09	8.72	-50.1	-62.4	3.8	8.47e-01	0	43	104	0	71	15141
2026-01-02 01:32:05.87	185.12	8.63	-50.1	-62.4	3.8	8.47e-01	0	43	104	0	71	15165
2026-01-02 01:32:06.73	185.15	8.56	-50.1	-62.4	3.8	8.48e-01	0	43	104	0	71	15087
2026-01-02 01:32:07.88	185.19	8.47	-50.1	-62.4	3.8	8.46e-01	0	43	104	0	71	15157
2026-01-02 01:32:08.74	185.22	8.40	-50.1	-62.4	3.8	8.47e-01	0	44	104	0	71	15156
2026-01-02 01:32:09.88	185.25	8.30	-50.1	-62.4	3.8	8.47e-01	0	43	104	0	71	15175
2026-01-02 01:32:10.74	185.28	8.24	-50.0	-62.5	3.8	8.47e-01	0	43	104	0	71	15249
2026-01-02 01:32:11.89	185.31	8.14	-50.1	-62.4	3.8	8.47e-01	0	43	104	0	71	15155
2026-01-02 01:32:12.75	185.34	8.07	-50.0	-62.4	3.8	8.47e-01	0	43	104	0	71	15146
2026-01-02 01:32:13.90	185.38	7.98	-50.0	-62.4	3.8	8.47e-01	0	44	104	0	71	15183
2026-01-02 01:32:14.76	185.40	7.91	-50.0	-62.4	3.8	8.47e-01	0	44	104	0	71	15166
2026-01-02 01:32:15.91	185.44	7.82	-50.1	-62.4	3.8	8.48e-01	0	43	104	0	71	15146
2026-01-02 01:32:16.77	185.46	7.76	-50.1	-62.4	3.8	8.45e-01	0	43	104	0	71	15137
2026-01-02 01:32:17.92	185.50	7.67	-50.0	-62.4	3.8	8.47e-01	0	43	104	0	71	15142
2026-01-02 01:32:18.78	185.52	7.60	-50.0	-62.4	3.8	8.46e-01	0	44	104	0	71	15140
2026-01-02 01:32:19.92	185.56	7.51	-50.1	-62.4	3.8	8.47e-01	0	43	104	0	71	15171
2026-01-02 01:32:20.78	185.58	7.44	-50.1	-62.4	3.8	8.47e-01	0	43	104	0	71	15175
2026-01-02 01:32:21.93	185.62	7.35	-50.0	-62.4	3.8	8.46e-01	0	43	104	0	71	15152
2026-01-02 01:32:22.79	185.64	7.29	-50.1	-62.5	3.8	8.45e-01	0	43	104	0	71	15232
2026-01-02 01:32:23.94	185.68	7.20	-50.1	-62.4	3.8	8.47e-01	0	43	104	0	71	15134
2026-01-02 01:32:24.80	185.70	7.13	-50.1	-62.4	3.8	8.46e-01	0	43	104	0	71	15151
2026-01-02 01:32:25.95	185.74	7.04	-50.0	-62.4	3.8	8.46e-01	0	43	104	0	71	15125
2026-01-02 01:32:26.81	185.76	6.98	-50.1	-62.4	3.8	8.47e-01	0	44	104	0	71	15182
2026-01-02 01:32:27.96	185.79	6.89	-50.0	-62.4	3.8	8.47e-01	0	43	104	0	71	15155
2026-01-02 01:32:28.82	185.82	6.83	-50.1	-62.4	3.8	8.47e-01	0	43	104	0	71	15149
