passes_logs/2026/01/02/T1/T1__20260102_015935_SUOMI_NPP_rec.log

#Pass ID: 20260102_015935_SUOMI NPP
#Satellite: SUOMI NPP
#Configuration: NPP
#almurnet v.1.7.20251203
#Start time: 2026-01-02 01:59:36

#Version: 2.0.20230620
#Station: T1
#Location: 37.570604 lon 55.790049 lat
#TLE: 1 37849U 11061A   26001.07732418  .00000182  00000+0  10735-3 0  9990
#TLE: 2 37849  98.7795 303.2470 0002580  87.2016 272.9455 14.19520779734739

#Time	Az	El	Level	Level2	SNR	BER	BlckErr	Temp	State	Recorded	gain1	gain2
2026-01-02 01:59:36.06	3.34	5.01	-50.1	-65.5	3.8	1.49e+00	0	41	0	0	70	23038
2026-01-02 01:59:37.05	3.23	5.06	-50.0	-65.5	3.8	1.49e+00	0	40	104	0	72	20418
2026-01-02 01:59:38.06	3.13	5.12	-50.1	-65.5	3.8	1.49e+00	0	40	104	0	72	20370
2026-01-02 01:59:39.06	3.03	5.17	-50.0	-65.5	3.8	1.49e+00	0	41	104	0	72	20396
2026-01-02 01:59:40.07	2.92	5.22	-50.0	-65.5	3.8	1.49e+00	0	40	104	0	72	20371
2026-01-02 01:59:41.07	2.82	5.27	-50.1	-65.5	3.8	1.49e+00	0	41	104	0	72	20466
2026-01-02 01:59:42.08	2.71	5.33	-50.1	-65.5	3.8	1.49e+00	0	41	104	0	72	20384
2026-01-02 01:59:43.08	2.60	5.38	-50.0	-65.5	3.8	1.49e+00	0	41	104	0	72	20350
2026-01-02 01:59:44.08	2.50	5.43	-50.1	-65.5	3.8	1.49e+00	0	41	104	0	72	20454
2026-01-02 01:59:45.09	2.39	5.48	-50.0	-65.5	3.8	1.49e+00	0	41	104	0	72	20417
2026-01-02 01:59:46.09	2.28	5.53	-50.0	-65.5	3.8	1.49e+00	0	41	104	0	72	20377
2026-01-02 01:59:47.10	2.18	5.59	-50.0	-65.5	3.8	1.49e+00	0	41	104	0	72	20346
2026-01-02 01:59:48.10	2.07	5.64	-50.0	-65.5	3.8	1.49e+00	0	41	104	0	72	20479
2026-01-02 01:59:49.10	1.96	5.69	-50.1	-65.5	3.8	1.49e+00	0	41	104	0	72	20446
2026-01-02 01:59:50.11	1.85	5.74	-50.0	-65.5	3.8	1.49e+00	0	41	104	0	72	20385
2026-01-02 01:59:51.11	1.74	5.80	-50.1	-65.5	3.8	1.49e+00	0	41	104	0	72	20406
2026-01-02 01:59:52.12	1.63	5.85	-50.1	-65.5	3.8	1.49e+00	0	41	104	0	72	20419
2026-01-02 01:59:53.12	1.52	5.90	-50.0	-65.5	3.8	1.49e+00	0	41	104	0	72	20401
2026-01-02 01:59:54.13	1.41	5.95	-50.1	-65.5	3.8	1.49e+00	0	41	104	0	72	20365
2026-01-02 01:59:55.13	1.30	6.01	-50.0	-65.5	3.8	1.49e+00	0	41	104	0	72	20339
2026-01-02 01:59:56.13	1.19	6.06	-50.0	-65.5	3.8	1.49e+00	0	41	104	0	72	20387
2026-01-02 01:59:57.14	1.08	6.11	-50.0	-65.5	3.8	1.49e+00	0	41	104	0	72	20426
2026-01-02 01:59:58.14	0.97	6.16	-50.0	-65.5	3.8	1.49e+00	0	41	104	0	72	20426
2026-01-02 01:59:59.15	0.85	6.22	-50.0	-65.5	3.8	1.49e+00	0	41	104	0	72	20394
2026-01-02 02:00:00.15	0.74	6.27	-50.0	-65.5	3.8	1.49e+00	0	41	104	0	72	20486
2026-01-02 02:00:01.15	0.63	6.32	-50.0	-65.5	3.8	1.49e+00	0	42	104	0	72	20422
2026-01-02 02:00:02.16	0.52	6.37	-50.0	-65.5	3.8	1.49e+00	0	41	104	0	72	20340
2026-01-02 02:00:03.16	0.40	6.43	-50.0	-65.5	3.8	1.49e+00	0	42	104	0	72	20442
2026-01-02 02:00:04.17	0.29	6.48	-50.0	-65.5	3.8	1.49e+00	0	41	104	0	72	20396
2026-01-02 02:00:05.17	0.17	6.53	-50.0	-65.5	3.8	1.49e+00	0	42	104	0	72	20421
2026-01-02 02:00:06.43	0.03	6.60	-50.0	-65.5	3.8	1.49e+00	0	42	104	0	72	20423
2026-01-02 02:00:07.16	359.94	6.63	-50.0	-65.5	3.8	1.49e+00	0	42	104	0	72	20377
2026-01-02 02:00:08.45	359.79	6.70	-50.0	-65.5	3.8	1.49e+00	0	42	104	0	72	20404
2026-01-02 02:00:09.17	359.71	6.74	-50.0	-65.5	3.8	1.49e+00	0	42	104	0	72	20360
2026-01-02 02:00:10.91	359.51	6.83	-50.0	-65.5	3.8	1.49e+00	0	42	104	0	72	20433
2026-01-02 02:00:11.48	359.44	6.86	-50.0	-65.5	3.8	1.49e+00	0	42	104	0	72	20435
2026-01-02 02:00:13.07	359.25	6.94	-50.0	-65.5	3.8	1.49e+00	0	42	104	0	72	20450
2026-01-02 02:00:13.65	359.18	6.97	-50.1	-65.5	3.8	1.49e+00	0	42	104	0	72	20343
2026-01-02 02:00:15.23	359.00	7.06	-50.1	-65.5	3.8	1.49e+00	0	42	104	0	72	20416
2026-01-02 02:00:15.82	358.93	7.09	-50.0	-65.5	3.8	1.49e+00	0	42	104	0	72	20397
2026-01-02 02:00:17.40	358.74	7.17	-50.1	-65.5	3.8	1.49e+00	0	42	104	0	72	20420
2026-01-02 02:00:18.03	358.66	7.20	-50.1	-65.5	3.8	1.49e+00	0	42	104	0	72	20428
2026-01-02 02:00:19.47	358.49	7.28	-50.0	-65.5	3.8	1.49e+00	0	42	104	0	72	20479
2026-01-02 02:00:20.23	358.40	7.32	-50.0	-65.5	3.8	1.49e+00	0	42	104	0	72	20396
2026-01-02 02:00:21.52	358.24	7.38	-50.0	-65.5	3.8	1.49e+00	0	42	104	0	72	20397
2026-01-02 02:00:22.30	358.14	7.42	-50.0	-65.5	3.8	1.49e+00	0	42	104	0	72	20400
2026-01-02 02:00:23.60	357.98	7.49	-50.1	-65.5	3.8	1.49e+00	0	42	104	0	72	20467
2026-01-02 02:00:24.31	357.90	7.53	-50.0	-65.5	3.8	1.49e+00	0	42	104	0	72	20395
2026-01-02 02:00:25.60	357.74	7.60	-50.0	-65.5	3.8	1.49e+00	0	42	104	0	72	20407
2026-01-02 02:00:26.32	357.65	7.63	-50.1	-65.5	3.8	1.49e+00	0	42	104	0	72	20424
2026-01-02 02:00:27.61	357.49	7.70	-50.0	-65.5	3.8	1.49e+00	0	42	104	0	72	20430
2026-01-02 02:00:28.33	357.40	7.74	-50.1	-65.5	3.8	1.49e+00	0	42	104	0	72	20425
2026-01-02 02:00:29.62	357.24	7.80	-50.0	-65.5	3.8	1.49e+00	0	42	104	0	72	20370
2026-01-02 02:00:30.34	357.15	7.84	-50.1	-65.5	3.8	1.49e+00	0	42	104	0	72	20433
2026-01-02 02:00:31.63	356.98	7.91	-50.1	-65.5	3.8	1.49e+00	0	42	104	0	72	20430
2026-01-02 02:00:32.35	356.89	7.95	-50.1	-65.5	3.8	1.49e+00	0	42	104	0	72	20404
2026-01-02 02:00:33.64	356.73	8.01	-50.1	-65.5	3.8	1.49e+00	0	42	104	0	72	20455
2026-01-02 02:00:34.36	356.64	8.05	-50.1	-65.5	3.8	1.49e+00	0	42	104	0	72	20392
2026-01-02 02:00:35.65	356.47	8.12	-50.1	-65.5	3.8	1.49e+00	0	42	104	0	72	20395
2026-01-02 02:00:36.36	356.38	8.15	-50.1	-65.5	3.8	1.49e+00	0	43	104	0	72	20468
2026-01-02 02:00:37.65	356.21	8.22	-50.1	-65.5	3.8	1.49e+00	0	42	104	0	72	20429
2026-01-02 02:00:38.37	356.12	8.26	-50.1	-65.5	3.8	1.49e+00	0	42	104	0	72	20499
2026-01-02 02:00:39.66	355.95	8.32	-50.1	-65.5	3.8	1.49e+00	0	42	104	0	72	20464
2026-01-02 02:00:40.38	355.86	8.36	-50.1	-65.5	3.8	1.49e+00	0	43	104	0	72	20415
2026-01-02 02:00:41.67	355.69	8.43	-50.1	-65.5	3.8	1.49e+00	0	42	104	0	72	20470
2026-01-02 02:00:42.39	355.60	8.46	-50.1	-65.5	3.8	1.49e+00	0	42	104	0	72	20468
2026-01-02 02:00:43.70	355.42	8.53	-50.1	-65.5	3.8	1.49e+00	0	42	104	0	72	20460
2026-01-02 02:00:44.41	355.33	8.57	-50.1	-65.5	3.8	1.49e+00	0	43	104	0	72	20448
2026-01-02 02:00:45.77	355.15	8.64	-50.0	-65.5	3.8	1.49e+00	0	43	104	0	72	20423
2026-01-02 02:00:46.49	355.05	8.68	-50.0	-65.5	3.8	1.49e+00	0	42	104	0	72	20434
2026-01-02 02:00:47.84	354.87	8.74	-50.1	-65.5	3.8	1.49e+00	0	43	104	0	72	20409
2026-01-02 02:00:48.56	354.78	8.78	-50.1	-65.5	3.8	1.49e+00	0	43	104	0	72	20519
2026-01-02 02:00:49.91	354.59	8.85	-50.1	-65.5	3.8	1.49e+00	0	42	104	0	72	20404
2026-01-02 02:00:50.63	354.50	8.89	-50.0	-65.5	3.8	1.49e+00	0	43	104	0	72	20357
2026-01-02 02:00:51.99	354.31	8.96	-50.1	-65.5	3.8	1.49e+00	0	43	104	0	72	20441
2026-01-02 02:00:52.70	354.22	8.99	-50.1	-65.5	3.8	1.49e+00	0	43	104	0	72	20450
2026-01-02 02:00:53.99	354.04	9.06	-50.1	-65.5	3.8	1.49e+00	0	42	104	0	72	20416
2026-01-02 02:00:54.71	353.94	9.10	-50.1	-65.5	3.8	1.49e+00	0	43	104	0	72	20522
2026-01-02 02:00:56.00	353.76	9.16	-50.1	-65.5	3.8	1.49e+00	0	43	104	0	72	20445
2026-01-02 02:00:56.72	353.66	9.20	-50.1	-65.5	3.8	1.49e+00	0	43	104	0	72	20472
2026-01-02 02:00:58.01	353.48	9.26	-50.1	-65.5	3.8	1.49e+00	0	43	104	0	72	20463
2026-01-02 02:00:58.72	353.38	9.30	-50.1	-65.5	3.8	1.49e+00	0	43	104	0	72	20438
2026-01-02 02:01:00.02	353.20	9.37	-50.1	-65.5	3.8	1.49e+00	0	43	104	0	72	20457
2026-01-02 02:01:00.73	353.10	9.40	-50.1	-65.5	3.8	1.49e+00	0	43	104	0	72	20393
2026-01-02 02:01:02.02	352.92	9.47	-50.1	-65.5	3.8	1.49e+00	0	42	104	0	72	20432
2026-01-02 02:01:02.74	352.82	9.50	-50.1	-65.5	3.8	1.49e+00	0	42	104	0	72	20436
2026-01-02 02:01:04.03	352.64	9.57	-50.1	-65.5	3.8	1.49e+00	0	43	104	0	72	20436
2026-01-02 02:01:04.75	352.53	9.60	-50.1	-65.5	3.8	1.49e+00	0	43	104	0	72	20427
2026-01-02 02:01:06.04	352.35	9.67	-50.1	-65.5	3.8	1.49e+00	0	43	104	0	72	20436
2026-01-02 02:01:06.76	352.25	9.70	-50.1	-65.5	3.8	1.49e+00	0	43	104	0	72	20488
2026-01-02 02:01:08.05	352.06	9.77	-50.1	-65.5	3.8	1.49e+00	0	43	104	0	72	20480
2026-01-02 02:01:08.77	351.96	9.81	-50.1	-65.5	3.8	1.49e+00	0	43	104	0	72	20439
2026-01-02 02:01:10.05	351.77	9.87	-50.1	-65.5	3.8	1.49e+00	0	43	104	0	72	20394
2026-01-02 02:01:10.77	351.67	9.91	-50.1	-65.6	3.8	1.49e+00	0	43	104	0	72	20568
2026-01-02 02:01:12.06	351.48	9.97	-50.1	-65.5	3.8	1.49e+00	0	43	104	0	72	20525
2026-01-02 02:01:12.78	351.37	10.01	-50.1	-65.5	3.8	1.49e+00	0	43	104	0	72	20441
2026-01-02 02:01:14.07	351.19	10.07	-50.1	-65.5	3.8	1.49e+00	0	43	104	0	72	20467
2026-01-02 02:01:14.79	351.08	10.11	-50.1	-65.5	3.8	1.49e+00	0	43	104	0	72	20526
2026-01-02 02:01:16.08	350.89	10.17	-50.1	-65.5	3.8	1.49e+00	0	43	104	0	72	20407
2026-01-02 02:01:16.80	350.78	10.20	-50.1	-65.5	3.8	1.49e+00	0	43	104	0	72	20428
2026-01-02 02:01:18.09	350.59	10.27	-50.1	-65.5	3.8	1.49e+00	0	43	104	0	72	20455
2026-01-02 02:01:18.81	350.48	10.30	-50.1	-65.5	3.8	1.49e+00	0	43	104	0	72	20500
2026-01-02 02:01:20.10	350.29	10.37	-50.1	-65.5	3.8	1.49e+00	0	43	104	0	72	20487
2026-01-02 02:01:20.82	350.18	10.40	-50.1	-65.5	3.8	1.49e+00	0	43	104	0	72	20534
2026-01-02 02:01:22.11	349.99	10.47	-50.1	-65.5	3.8	1.49e+00	0	43	104	0	72	20480
2026-01-02 02:01:22.82	349.88	10.50	-50.1	-65.5	3.8	1.49e+00	0	43	104	0	72	20476
2026-01-02 02:01:24.12	349.68	10.56	-50.1	-65.5	3.8	1.49e+00	0	43	104	0	72	20523
2026-01-02 02:01:24.83	349.57	10.60	-50.1	-65.5	3.8	1.49e+00	0	43	104	0	72	20481
2026-01-02 02:01:26.12	349.37	10.66	-50.1	-65.5	3.8	1.49e+00	0	43	104	0	72	20407
2026-01-02 02:01:26.84	349.26	10.70	-50.1	-65.5	3.8	1.49e+00	0	43	104	0	72	20510
2026-01-02 02:01:28.13	349.06	10.76	-50.1	-65.5	3.8	1.49e+00	0	43	104	0	72	20391
2026-01-02 02:01:28.85	348.95	10.79	-50.1	-65.5	3.8	1.49e+00	0	43	104	0	72	20485
2026-01-02 02:01:30.14	348.75	10.85	-50.1	-65.5	3.8	1.49e+00	0	43	104	0	72	20428
2026-01-02 02:01:30.86	348.64	10.89	-50.1	-65.5	3.8	1.49e+00	0	43	104	0	72	20460
2026-01-02 02:01:32.15	348.44	10.95	-50.1	-65.5	3.8	1.49e+00	0	43	104	0	72	20495
2026-01-02 02:01:32.86	348.33	10.98	-50.1	-65.5	3.8	1.49e+00	0	43	104	0	72	20440
2026-01-02 02:01:34.15	348.13	11.05	-50.1	-65.5	3.8	1.49e+00	0	43	104	0	72	20485
2026-01-02 02:01:34.87	348.01	11.08	-50.1	-65.5	3.8	1.49e+00	0	43	104	0	72	20453
2026-01-02 02:01:36.16	347.81	11.14	-50.1	-65.5	3.8	1.49e+00	0	43	104	0	72	20468
2026-01-02 02:01:36.88	347.69	11.18	-50.1	-65.5	3.8	1.49e+00	0	43	104	0	72	20424
2026-01-02 02:01:38.17	347.49	11.24	-50.1	-65.5	3.8	1.49e+00	0	43	104	0	72	20424
2026-01-02 02:01:38.89	347.37	11.27	-50.1	-65.5	3.8	1.49e+00	0	43	104	0	72	20509
2026-01-02 02:01:40.18	347.17	11.33	-50.1	-65.5	3.8	1.49e+00	0	43	104	0	72	20460
2026-01-02 02:01:40.90	347.05	11.36	-50.1	-65.5	3.8	1.49e+00	0	43	104	0	72	20460
2026-01-02 02:01:42.19	346.84	11.42	-50.1	-65.5	3.8	1.49e+00	0	43	104	0	72	20469
2026-01-02 02:01:42.91	346.72	11.46	-50.1	-65.5	3.8	1.49e+00	0	43	104	0	72	20455
2026-01-02 02:01:44.20	346.52	11.52	-50.1	-65.5	3.8	1.49e+00	0	43	104	0	72	20413
2026-01-02 02:01:44.92	346.40	11.55	-50.1	-65.5	3.8	1.49e+00	0	43	104	0	72	20473
2026-01-02 02:01:46.20	346.19	11.61	-50.1	-65.5	3.8	1.49e+00	0	43	104	0	72	20519
2026-01-02 02:01:46.92	346.07	11.64	-50.1	-65.5	3.8	1.49e+00	0	43	104	0	72	20443
2026-01-02 02:01:48.22	345.86	11.70	-50.1	-65.5	3.8	1.49e+00	0	43	104	0	72	20503
2026-01-02 02:01:48.93	345.74	11.74	-50.1	-65.5	3.8	1.49e+00	0	43	104	0	72	20487
2026-01-02 02:01:50.22	345.53	11.79	-50.1	-65.5	3.8	1.49e+00	0	43	104	0	72	20497
2026-01-02 02:01:50.94	345.41	11.83	-50.1	-65.5	3.8	1.49e+00	0	43	104	0	72	20471
2026-01-02 02:01:52.37	345.17	11.89	-50.1	-65.5	3.8	1.49e+00	0	43	104	0	72	20419
2026-01-02 02:01:53.09	345.05	11.92	-50.1	-65.5	3.8	1.49e+00	0	43	104	0	72	20440
2026-01-02 02:01:54.38	344.83	11.98	-50.1	-65.5	3.8	1.49e+00	0	43	104	0	72	20434
2026-01-02 02:01:55.10	344.71	12.01	-50.1	-65.5	3.8	1.49e+00	0	43	104	0	72	20435
2026-01-02 02:01:56.39	344.49	12.07	-50.1	-65.5	3.8	1.49e+00	0	43	104	0	72	20455
2026-01-02 02:01:57.11	344.37	12.10	-50.1	-65.5	3.8	1.49e+00	0	43	104	0	72	20464
2026-01-02 02:01:58.40	344.15	12.16	-50.1	-65.5	3.8	1.49e+00	0	43	104	0	72	20452
2026-01-02 02:01:59.12	344.03	12.19	-50.1	-65.5	3.8	1.49e+00	0	43	104	0	72	20440
2026-01-02 02:02:00.41	343.81	12.25	-50.1	-65.5	3.8	1.49e+00	0	43	104	0	72	20434
2026-01-02 02:02:01.20	343.67	12.28	-50.1	-65.5	3.8	1.49e+00	0	43	104	0	72	20411
2026-01-02 02:02:02.35	343.47	12.33	-50.1	-65.5	3.8	1.49e+00	0	43	104	0	72	20488
2026-01-02 02:02:03.21	343.32	12.37	-50.1	-65.5	3.8	1.49e+00	0	43	104	0	72	20485
2026-01-02 02:02:04.36	343.13	12.42	-50.1	-65.5	3.8	1.49e+00	0	43	104	0	72	20492
2026-01-02 02:02:05.22	342.98	12.46	-50.1	-65.5	3.8	1.49e+00	0	43	104	0	72	20437
2026-01-02 02:02:06.37	342.78	12.51	-50.1	-65.5	3.8	1.49e+00	0	43	104	0	72	20480
2026-01-02 02:02:07.23	342.63	12.54	-50.0	-65.5	3.8	1.49e+00	0	43	104	0	72	20438
2026-01-02 02:02:08.38	342.42	12.59	-50.1	-65.5	3.8	1.49e+00	0	43	104	0	72	20383
2026-01-02 02:02:09.24	342.27	12.63	-50.1	-65.5	3.8	1.49e+00	0	43	104	0	72	20411
2026-01-02 02:02:10.38	342.07	12.68	-50.1	-65.5	3.8	1.49e+00	0	43	104	0	72	20447
2026-01-02 02:02:11.25	341.92	12.71	-50.1	-65.5	3.8	1.49e+00	0	43	104	0	72	20460
2026-01-02 02:02:12.39	341.72	12.76	-50.1	-65.5	3.8	1.49e+00	0	43	104	0	72	20474
2026-01-02 02:02:13.25	341.56	12.80	-50.1	-65.5	3.8	1.49e+00	0	43	104	0	72	20459
2026-01-02 02:02:14.40	341.36	12.84	-50.1	-65.5	3.8	1.49e+00	0	43	104	0	72	20471
2026-01-02 02:02:15.26	341.20	12.88	-50.1	-65.5	3.8	1.49e+00	0	43	104	0	72	20505
2026-01-02 02:02:16.41	341.00	12.92	-50.1	-65.5	3.8	1.49e+00	0	43	104	0	72	20458
2026-01-02 02:02:17.27	340.84	12.96	-50.1	-65.6	3.8	1.49e+00	0	43	104	0	72	20560
2026-01-02 02:02:18.42	340.64	13.01	-50.1	-65.5	3.8	1.49e+00	0	43	104	0	72	20435
2026-01-02 02:02:19.28	340.48	13.04	-50.1	-65.5	3.8	1.49e+00	0	43	104	0	72	20463
2026-01-02 02:02:20.43	340.27	13.09	-50.1	-65.5	3.8	1.49e+00	0	43	104	0	72	20408
2026-01-02 02:02:21.29	340.12	13.12	-50.1	-65.5	3.8	1.49e+00	0	43	104	0	72	20483
2026-01-02 02:02:22.43	339.91	13.17	-50.1	-65.5	3.8	1.49e+00	0	43	104	0	72	20474
2026-01-02 02:02:23.30	339.75	13.20	-50.1	-65.5	3.8	1.49e+00	0	43	104	0	72	20530
2026-01-02 02:02:24.51	339.53	13.25	-50.1	-65.5	3.8	1.49e+00	0	43	104	0	72	20499
2026-01-02 02:02:25.37	339.37	13.28	-50.1	-65.5	3.8	1.49e+00	0	43	104	0	72	20424
2026-01-02 02:02:26.56	339.15	13.33	-50.1	-65.5	3.8	1.49e+00	0	43	104	0	72	20487
2026-01-02 02:02:27.43	338.99	13.36	-50.1	-65.5	3.8	1.49e+00	0	43	104	0	72	20487
2026-01-02 02:02:28.65	338.76	13.41	-50.1	-65.5	3.8	1.49e+00	0	43	104	0	72	20439
2026-01-02 02:02:29.51	338.60	13.44	-50.1	-65.5	3.8	1.49e+00	0	43	104	0	72	20494
2026-01-02 02:02:30.72	338.38	13.48	-50.1	-65.5	3.8	1.49e+00	0	43	104	0	72	20493
2026-01-02 02:02:31.58	338.22	13.52	-50.1	-65.5	3.8	1.49e+00	0	43	104	0	72	20492
2026-01-02 02:02:32.80	337.99	13.56	-50.1	-65.5	3.8	1.49e+00	0	43	104	0	72	20449
2026-01-02 02:02:33.66	337.83	13.59	-50.1	-65.5	3.8	1.49e+00	0	43	104	0	72	20503
2026-01-02 02:02:34.80	337.61	13.64	-50.1	-65.5	3.8	1.49e+00	0	43	104	0	72	20510
2026-01-02 02:02:35.67	337.45	13.67	-50.1	-65.5	3.8	1.49e+00	0	43	104	0	72	20413
2026-01-02 02:02:36.81	337.23	13.71	-50.1	-65.5	3.8	1.49e+00	0	43	104	0	72	20412
2026-01-02 02:02:37.67	337.07	13.74	-50.1	-65.5	3.8	1.49e+00	0	43	104	0	72	20523
2026-01-02 02:02:38.82	336.85	13.78	-50.1	-65.5	3.8	1.49e+00	0	43	104	0	72	20441
2026-01-02 02:02:39.68	336.69	13.81	-50.1	-65.5	3.8	1.49e+00	0	43	104	0	72	20476
2026-01-02 02:02:40.83	336.47	13.85	-50.1	-65.5	3.8	1.49e+00	0	43	104	0	72	20451
2026-01-02 02:02:41.69	336.30	13.88	-50.1	-65.5	3.8	1.49e+00	0	43	104	0	72	20499
2026-01-02 02:02:42.84	336.08	13.92	-50.1	-65.5	3.8	1.49e+00	0	43	104	0	72	20497
2026-01-02 02:02:43.70	335.92	13.95	-50.1	-65.5	3.8	1.49e+00	0	43	104	0	72	20452
2026-01-02 02:02:44.84	335.70	13.99	-50.1	-65.5	3.8	1.49e+00	0	43	104	0	72	20434
2026-01-02 02:02:45.71	335.53	14.02	-50.1	-65.5	3.8	1.49e+00	0	43	104	0	72	20463
2026-01-02 02:02:46.85	335.31	14.06	-50.1	-65.5	3.8	1.49e+00	0	43	104	0	72	20480
2026-01-02 02:02:47.71	335.14	14.08	-50.1	-65.5	3.8	1.49e+00	0	43	104	0	72	20520
2026-01-02 02:02:48.86	334.92	14.12	-50.1	-65.5	3.8	1.49e+00	0	43	104	0	72	20477
2026-01-02 02:02:49.72	334.75	14.15	-50.1	-65.5	3.8	1.49e+00	0	43	104	0	72	20494
2026-01-02 02:02:50.87	334.52	14.19	-50.1	-65.5	3.8	1.49e+00	0	43	104	0	72	20448
2026-01-02 02:02:51.73	334.35	14.21	-50.1	-65.5	3.8	1.49e+00	0	43	104	0	72	20428
2026-01-02 02:02:52.88	334.13	14.25	-50.1	-65.6	3.8	1.49e+00	0	43	104	0	72	20545
2026-01-02 02:02:53.74	333.96	14.28	-50.1	-65.5	3.8	1.49e+00	0	43	104	0	72	20385
2026-01-02 02:02:54.89	333.73	14.31	-50.1	-65.5	3.8	1.49e+00	0	43	104	0	72	20484
2026-01-02 02:02:55.75	333.56	14.34	-50.1	-65.5	3.8	1.49e+00	0	43	104	0	72	20449
2026-01-02 02:02:56.89	333.34	14.38	-50.1	-65.5	3.8	1.49e+00	0	43	104	0	72	20496
2026-01-02 02:02:57.76	333.16	14.40	-50.1	-65.5	3.8	1.49e+00	0	43	104	0	72	20487
2026-01-02 02:02:58.90	332.94	14.44	-50.1	-65.5	3.8	1.49e+00	0	43	104	0	72	20496
2026-01-02 02:02:59.77	332.76	14.46	-50.1	-65.6	3.8	1.49e+00	0	43	104	0	72	20550
2026-01-02 02:03:00.91	332.53	14.49	-50.1	-65.5	3.8	1.49e+00	0	43	104	0	72	20473
2026-01-02 02:03:01.77	332.36	14.52	-50.1	-65.5	3.8	1.49e+00	0	43	104	0	72	20535
2026-01-02 02:03:02.92	332.13	14.55	-50.1	-65.6	3.8	1.49e+00	0	43	104	0	72	20544
2026-01-02 02:03:03.78	331.96	14.58	-50.1	-65.5	3.8	1.49e+00	0	43	104	0	72	20471
2026-01-02 02:03:04.93	331.73	14.61	-50.1	-65.5	3.8	1.49e+00	0	43	104	0	72	20479
2026-01-02 02:03:05.79	331.55	14.63	-50.1	-65.5	3.8	1.49e+00	0	43	104	0	72	20448
2026-01-02 02:03:06.94	331.32	14.66	-50.1	-65.5	3.8	1.49e+00	0	43	104	0	72	20488
2026-01-02 02:03:07.80	331.15	14.69	-50.1	-65.5	3.8	1.49e+00	0	43	104	0	72	20434
2026-01-02 02:03:08.95	330.91	14.72	-50.1	-65.5	3.8	1.49e+00	0	43	104	0	72	20420
2026-01-02 02:03:09.81	330.74	14.74	-50.1	-65.5	3.8	1.49e+00	0	43	104	0	72	20427
2026-01-02 02:03:10.96	330.50	14.77	-50.1	-65.5	3.8	1.49e+00	0	43	104	0	72	20458
2026-01-02 02:03:11.82	330.33	14.79	-50.1	-65.5	3.8	1.49e+00	0	43	104	0	72	20524
2026-01-02 02:03:12.97	330.09	14.82	-50.1	-65.5	3.8	1.49e+00	0	43	104	0	72	20436
2026-01-02 02:03:13.82	329.92	14.84	-50.1	-65.5	3.8	1.49e+00	0	43	104	0	72	20485
2026-01-02 02:03:14.97	329.68	14.87	-50.1	-65.5	3.8	1.49e+00	0	44	104	0	72	20445
2026-01-02 02:03:15.83	329.51	14.89	-50.1	-65.5	3.8	1.49e+00	0	44	104	0	72	20526
2026-01-02 02:03:16.97	329.27	14.92	-50.1	-65.5	3.8	1.49e+00	0	43	104	0	72	20519
2026-01-02 02:03:17.84	329.09	14.94	-50.1	-65.5	3.8	1.49e+00	0	43	104	0	72	20535
2026-01-02 02:03:18.99	328.86	14.97	-50.1	-65.5	3.8	1.49e+00	0	43	104	0	72	20492
2026-01-02 02:03:19.84	328.68	14.99	-50.1	-65.5	3.8	1.49e+00	0	43	104	0	72	20516
2026-01-02 02:03:20.99	328.44	15.01	-50.1	-65.5	3.8	1.49e+00	0	43	104	0	72	20428
2026-01-02 02:03:21.85	328.26	15.03	-50.1	-65.5	3.8	1.49e+00	0	44	104	0	72	20441
2026-01-02 02:03:23.00	328.02	15.06	-50.1	-65.5	3.8	1.49e+00	0	43	104	0	72	20492
2026-01-02 02:03:23.86	327.85	15.07	-50.1	-65.5	3.8	1.49e+00	0	44	104	0	72	20480
2026-01-02 02:03:25.01	327.61	15.10	-50.1	-65.5	3.8	1.49e+00	0	43	104	0	72	20506
2026-01-02 02:03:25.87	327.43	15.12	-50.1	-65.5	3.8	1.49e+00	0	43	104	0	72	20512
2026-01-02 02:03:27.02	327.19	15.14	-50.1	-65.6	3.8	1.49e+00	0	43	104	0	72	20545
2026-01-02 02:03:27.88	327.01	15.16	-50.1	-65.5	3.8	1.49e+00	0	43	104	0	72	20477
2026-01-02 02:03:29.03	326.77	15.18	-50.1	-65.5	3.8	1.49e+00	0	43	104	0	72	20435
2026-01-02 02:03:29.89	326.59	15.20	-50.1	-65.5	3.8	1.49e+00	0	43	104	0	72	20446
2026-01-02 02:03:31.04	326.34	15.22	-50.1	-65.6	3.8	1.49e+00	0	44	104	0	72	20564
2026-01-02 02:03:31.90	326.16	15.23	-50.1	-65.5	3.8	1.49e+00	0	44	104	0	72	20515
2026-01-02 02:03:33.04	325.92	15.25	-50.1	-65.5	3.8	1.49e+00	0	43	104	0	72	20527
2026-01-02 02:03:33.91	325.74	15.27	-50.1	-65.5	3.8	1.49e+00	0	44	104	0	72	20433
2026-01-02 02:03:35.05	325.50	15.29	-50.1	-65.5	3.8	1.49e+00	0	43	104	0	72	20532
2026-01-02 02:03:35.91	325.32	15.30	-50.1	-65.5	3.8	1.49e+00	0	43	104	0	72	20427
2026-01-02 02:03:37.06	325.07	15.32	-50.1	-65.5	3.8	1.49e+00	0	43	104	0	72	20473
2026-01-02 02:03:37.92	324.89	15.34	-50.1	-65.5	3.8	1.49e+00	0	43	104	0	72	20407
2026-01-02 02:03:39.07	324.65	15.35	-50.1	-65.5	3.8	1.49e+00	0	43	104	0	72	20446
2026-01-02 02:03:39.93	324.46	15.37	-50.1	-65.5	3.8	1.49e+00	0	43	104	0	72	20459
2026-01-02 02:03:41.08	324.22	15.39	-50.1	-65.5	3.8	1.49e+00	0	43	104	0	72	20459
2026-01-02 02:03:41.94	324.04	15.40	-50.1	-65.5	3.8	1.49e+00	0	43	104	0	72	20481
2026-01-02 02:03:43.09	323.79	15.41	-50.1	-65.5	3.8	1.49e+00	0	43	104	0	72	20352
2026-01-02 02:03:43.95	323.61	15.43	-50.1	-65.5	3.8	1.49e+00	0	43	104	0	72	20477
2026-01-02 02:03:45.10	323.36	15.44	-50.1	-65.5	3.8	1.49e+00	0	43	104	0	72	20499
2026-01-02 02:03:45.96	323.18	15.45	-50.1	-65.5	3.8	1.49e+00	0	44	104	0	72	20493
2026-01-02 02:03:47.11	322.93	15.47	-50.1	-65.5	3.8	1.49e+00	0	44	104	0	72	20506
2026-01-02 02:03:47.97	322.75	15.48	-50.1	-65.5	3.8	1.49e+00	0	43	104	0	72	20526
2026-01-02 02:03:49.12	322.50	15.49	-50.1	-65.5	3.8	1.49e+00	0	44	104	0	72	20393
2026-01-02 02:03:49.98	322.32	15.50	-50.1	-65.5	3.8	1.49e+00	0	43	104	0	72	20490
2026-01-02 02:03:51.12	322.08	15.51	-50.1	-65.5	3.8	1.49e+00	0	43	104	0	72	20392
2026-01-02 02:03:51.99	321.89	15.52	-50.1	-65.5	3.8	1.49e+00	0	43	104	0	72	20528
2026-01-02 02:03:53.16	321.64	15.54	-50.1	-65.5	3.8	1.49e+00	0	44	104	0	72	20488
2026-01-02 02:03:54.02	321.45	15.54	-50.1	-65.5	3.8	1.49e+00	0	43	104	0	72	20508
2026-01-02 02:03:55.17	321.20	15.56	-50.1	-65.5	3.8	1.49e+00	0	43	104	0	72	20495
2026-01-02 02:03:56.03	321.02	15.56	-50.1	-65.5	3.8	1.49e+00	0	43	104	0	72	20431
2026-01-02 02:03:57.18	320.77	15.57	-50.1	-65.5	3.8	1.49e+00	0	44	104	0	72	20443
2026-01-02 02:03:58.07	320.58	15.58	-50.1	-65.5	3.8	1.49e+00	0	43	104	0	72	20499
2026-01-02 02:03:59.11	320.36	15.59	-50.1	-65.5	3.8	1.49e+00	0	43	104	0	72	20410
2026-01-02 02:04:00.11	320.14	15.60	-50.1	-65.5	3.8	1.49e+00	0	43	104	0	72	20467
2026-01-02 02:04:01.11	319.92	15.60	-50.1	-65.5	3.8	1.49e+00	0	43	104	0	72	20448
2026-01-02 02:04:02.11	319.71	15.61	-50.1	-65.5	3.8	1.49e+00	0	44	104	0	72	20517
2026-01-02 02:04:03.12	319.49	15.62	-50.1	-65.5	3.8	1.49e+00	0	44	104	0	72	20444
2026-01-02 02:04:04.12	319.27	15.62	-50.1	-65.5	3.8	1.49e+00	0	44	104	0	72	20464
2026-01-02 02:04:05.13	319.06	15.63	-50.1	-65.5	3.8	1.49e+00	0	43	104	0	72	20476
2026-01-02 02:04:06.13	318.84	15.63	-50.1	-65.5	3.8	1.49e+00	0	43	104	0	72	20412
2026-01-02 02:04:07.14	318.62	15.64	-50.1	-65.5	3.8	1.49e+00	0	44	104	0	72	20454
2026-01-02 02:04:08.14	318.40	15.64	-50.1	-65.5	3.8	1.49e+00	0	44	104	0	72	20442
2026-01-02 02:04:09.14	318.19	15.64	-50.1	-65.5	3.8	1.49e+00	0	43	104	0	72	20510
2026-01-02 02:04:10.15	317.97	15.65	-50.1	-65.5	3.8	1.49e+00	0	44	104	0	72	20472
2026-01-02 02:04:11.15	317.75	15.65	-50.1	-65.5	3.8	1.49e+00	0	44	104	0	72	20491
2026-01-02 02:04:12.15	317.54	15.65	-50.1	-65.5	3.8	1.49e+00	0	43	104	0	72	20478
2026-01-02 02:04:13.16	317.32	15.66	-50.1	-65.5	3.8	1.49e+00	0	43	104	0	72	20487
2026-01-02 02:04:14.16	317.10	15.66	-50.1	-65.5	3.8	1.49e+00	0	44	104	0	72	20518
2026-01-02 02:04:15.17	316.88	15.66	-50.1	-65.5	3.8	1.49e+00	0	43	104	0	72	20442
2026-01-02 02:04:16.17	316.66	15.66	-50.1	-65.5	3.8	1.49e+00	0	44	104	0	72	20475
2026-01-02 02:04:17.18	316.45	15.66	-50.1	-65.5	3.8	1.49e+00	0	44	104	0	72	20501
2026-01-02 02:04:18.18	316.23	15.66	-50.1	-65.5	3.8	1.49e+00	0	44	104	0	72	20515
2026-01-02 02:04:19.18	316.01	15.66	-50.1	-65.5	3.8	1.49e+00	0	44	104	0	72	20513
2026-01-02 02:04:20.19	315.79	15.66	-50.1	-65.6	3.8	1.49e+00	0	44	104	0	72	20556
2026-01-02 02:04:21.19	315.58	15.66	-50.1	-65.5	3.8	1.49e+00	0	44	104	0	72	20492
2026-01-02 02:04:22.20	315.36	15.66	-50.1	-65.5	3.8	1.49e+00	0	44	104	0	72	20507
2026-01-02 02:04:23.27	315.13	15.65	-50.1	-65.5	3.8	1.49e+00	0	43	104	0	72	20480
2026-01-02 02:04:24.13	314.94	15.65	-50.1	-65.5	3.8	1.49e+00	0	43	104	0	72	20474
2026-01-02 02:04:25.28	314.69	15.65	-50.1	-65.5	3.8	1.49e+00	0	43	104	0	72	20520
2026-01-02 02:04:26.23	314.48	15.65	-50.1	-65.5	3.8	1.49e+00	0	44	104	0	72	20449
2026-01-02 02:04:27.43	314.22	15.64	-50.1	-65.5	3.8	1.49e+00	0	44	104	0	72	20407
2026-01-02 02:04:28.32	314.03	15.64	-50.1	-65.5	3.8	1.49e+00	0	43	104	0	72	20531
2026-01-02 02:04:29.50	313.78	15.63	-50.1	-65.5	3.8	1.49e+00	0	43	104	0	72	20482
2026-01-02 02:04:30.39	313.58	15.63	-50.1	-65.6	3.8	1.49e+00	0	44	104	0	72	20545
2026-01-02 02:04:31.57	313.33	15.62	-50.1	-65.5	3.8	1.49e+00	0	44	104	0	72	20512
2026-01-02 02:04:32.46	313.14	15.62	-50.1	-65.5	3.8	1.49e+00	0	44	104	0	72	20482
2026-01-02 02:04:33.78	312.85	15.61	-50.1	-65.5	3.8	1.49e+00	0	43	104	0	72	20483
2026-01-02 02:04:34.50	312.70	15.60	-50.1	-65.5	3.8	1.49e+00	0	43	104	0	72	20517
2026-01-02 02:04:35.79	312.42	15.59	-50.1	-65.5	3.8	1.49e+00	0	43	104	0	72	20522
2026-01-02 02:04:36.50	312.26	15.59	-50.1	-65.5	3.8	1.49e+00	0	44	104	0	72	20527
2026-01-02 02:04:37.80	311.98	15.58	-50.1	-65.6	3.8	1.49e+00	0	43	104	0	72	20551
2026-01-02 02:04:38.51	311.83	15.57	-50.1	-65.5	3.8	1.49e+00	0	44	104	0	72	20506
2026-01-02 02:04:39.80	311.55	15.56	-50.1	-65.5	3.8	1.49e+00	0	43	104	0	72	20527
2026-01-02 02:04:40.52	311.40	15.55	-50.1	-65.5	3.8	1.49e+00	0	43	104	0	72	20490
2026-01-02 02:04:41.81	311.12	15.54	-50.1	-65.5	3.8	1.49e+00	0	44	104	0	72	20519
2026-01-02 02:04:42.52	310.97	15.53	-50.1	-65.5	3.8	1.49e+00	0	44	104	0	72	20498
2026-01-02 02:04:43.83	310.68	15.52	-50.1	-65.5	3.8	1.49e+00	0	44	104	0	72	20483
2026-01-02 02:04:44.55	310.53	15.51	-50.1	-65.5	3.8	1.49e+00	0	43	104	0	72	20512
2026-01-02 02:04:45.84	310.25	15.50	-50.1	-65.5	3.8	1.49e+00	0	44	104	0	72	20427
2026-01-02 02:04:46.56	310.10	15.49	-50.1	-65.5	3.8	1.49e+00	0	44	104	0	72	20519
2026-01-02 02:04:47.85	309.82	15.47	-50.1	-65.5	3.8	1.49e+00	0	43	104	0	72	20491
2026-01-02 02:04:48.56	309.67	15.47	-50.1	-65.5	3.8	1.49e+00	0	44	104	0	72	20449
2026-01-02 02:04:49.85	309.39	15.45	-50.1	-65.5	3.8	1.49e+00	0	43	104	0	72	20528
2026-01-02 02:04:50.57	309.24	15.44	-50.1	-65.6	3.8	1.49e+00	0	43	104	0	72	20546
2026-01-02 02:04:51.86	308.97	15.42	-50.1	-65.5	3.8	1.49e+00	0	44	104	0	72	20523
2026-01-02 02:04:52.58	308.81	15.41	-50.1	-65.5	3.8	1.49e+00	0	44	104	0	72	20401
2026-01-02 02:04:53.86	308.54	15.39	-50.1	-65.5	3.8	1.49e+00	0	44	104	0	72	20437
2026-01-02 02:04:54.58	308.39	15.38	-50.1	-65.5	3.8	1.49e+00	0	43	104	0	72	20446
2026-01-02 02:04:55.87	308.11	15.36	-50.1	-65.5	3.8	1.49e+00	0	43	104	0	72	20439
2026-01-02 02:04:56.59	307.96	15.35	-50.1	-65.5	3.8	1.49e+00	0	44	104	0	72	20442
2026-01-02 02:04:57.88	307.68	15.33	-50.1	-65.5	3.8	1.49e+00	0	43	104	0	72	20431
2026-01-02 02:04:58.60	307.53	15.32	-50.1	-65.5	3.8	1.49e+00	0	44	104	0	72	20474
2026-01-02 02:04:59.92	307.25	15.30	-50.1	-65.5	3.8	1.49e+00	0	44	104	0	72	20471
2026-01-02 02:05:00.64	307.10	15.29	-50.1	-65.5	3.8	1.49e+00	0	44	104	0	72	20494
2026-01-02 02:05:01.93	306.83	15.26	-50.1	-65.6	3.8	1.49e+00	0	44	104	0	72	20580
2026-01-02 02:05:02.65	306.67	15.25	-50.1	-65.5	3.8	1.49e+00	0	44	104	0	72	20490
2026-01-02 02:05:03.94	306.40	15.23	-50.1	-65.5	3.8	1.49e+00	0	43	104	0	72	20462
2026-01-02 02:05:04.66	306.25	15.21	-50.1	-65.5	3.8	1.49e+00	0	44	104	0	72	20537
2026-01-02 02:05:05.95	305.98	15.19	-50.1	-65.5	3.8	1.49e+00	0	44	104	0	72	20464
2026-01-02 02:05:06.67	305.83	15.17	-50.1	-65.5	3.8	1.49e+00	0	43	104	0	72	20451
2026-01-02 02:05:07.96	305.56	15.15	-50.1	-65.6	3.8	1.49e+00	0	44	104	0	72	20559
2026-01-02 02:05:08.67	305.41	15.13	-50.1	-65.5	3.8	1.49e+00	0	44	104	0	72	20498
2026-01-02 02:05:09.97	305.14	15.11	-50.1	-65.5	3.8	1.49e+00	0	44	104	0	72	20498
2026-01-02 02:05:10.68	304.99	15.09	-50.1	-65.5	3.8	1.49e+00	0	43	104	0	72	20517
2026-01-02 02:05:11.98	304.72	15.07	-50.1	-65.5	3.8	1.49e+00	0	44	104	0	72	20426
2026-01-02 02:05:12.69	304.57	15.05	-50.1	-65.5	3.8	1.49e+00	0	44	104	0	72	20456
2026-01-02 02:05:13.99	304.30	15.02	-50.1	-65.5	3.8	1.49e+00	0	43	104	0	72	20495
2026-01-02 02:05:14.70	304.15	15.01	-50.1	-65.5	3.8	1.49e+00	0	44	104	0	72	20506
2026-01-02 02:05:15.99	303.88	14.98	-50.1	-65.5	3.8	1.49e+00	0	44	104	0	72	20512
2026-01-02 02:05:16.71	303.74	14.96	-50.1	-65.5	3.8	1.49e+00	0	44	104	0	72	20493
2026-01-02 02:05:18.00	303.47	14.93	-50.1	-65.5	3.8	1.49e+00	0	43	104	0	72	20461
2026-01-02 02:05:18.72	303.32	14.91	-50.1	-65.5	3.8	1.49e+00	0	44	104	0	72	20431
2026-01-02 02:05:20.01	303.05	14.88	-50.1	-65.5	3.8	1.49e+00	0	44	104	0	72	20412
2026-01-02 02:05:20.73	302.91	14.86	-50.1	-65.5	3.8	1.49e+00	0	44	104	0	72	20498
2026-01-02 02:05:22.02	302.64	14.83	-50.1	-65.5	3.8	1.49e+00	0	44	104	0	72	20499
2026-01-02 02:05:22.74	302.49	14.81	-50.1	-65.5	3.8	1.49e+00	0	44	104	0	72	20506
2026-01-02 02:05:24.03	302.23	14.78	-50.1	-65.5	3.8	1.49e+00	0	44	104	0	72	20506
2026-01-02 02:05:24.75	302.08	14.76	-50.1	-65.5	3.8	1.49e+00	0	44	104	0	72	20525
2026-01-02 02:05:26.04	301.82	14.73	-50.1	-65.5	3.8	1.49e+00	0	44	104	0	72	20496
2026-01-02 02:05:26.76	301.67	14.71	-50.1	-65.5	3.8	1.49e+00	0	44	104	0	72	20525
2026-01-02 02:05:28.05	301.41	14.68	-50.1	-65.6	3.8	1.49e+00	0	44	104	0	72	20550
2026-01-02 02:05:28.77	301.26	14.66	-50.1	-65.6	3.8	1.49e+00	0	43	104	0	72	20550
2026-01-02 02:05:30.06	301.00	14.62	-50.1	-65.5	3.8	1.49e+00	0	44	104	0	72	20486
2026-01-02 02:05:30.77	300.86	14.60	-50.1	-65.5	3.8	1.49e+00	0	44	104	0	72	20457
2026-01-02 02:05:32.07	300.60	14.56	-50.1	-65.5	3.8	1.49e+00	0	44	104	0	72	20486
2026-01-02 02:05:32.78	300.45	14.54	-50.1	-65.5	3.8	1.49e+00	0	44	104	0	72	20495
2026-01-02 02:05:34.07	300.20	14.51	-50.1	-65.5	3.8	1.49e+00	0	44	104	0	72	20447
2026-01-02 02:05:34.79	300.05	14.49	-50.1	-65.6	3.8	1.49e+00	0	44	104	0	72	20546
2026-01-02 02:05:36.08	299.79	14.45	-50.1	-65.5	3.8	1.49e+00	0	44	104	0	72	20483
2026-01-02 02:05:36.80	299.65	14.43	-50.1	-65.5	3.8	1.49e+00	0	44	104	0	72	20500
2026-01-02 02:05:38.09	299.39	14.39	-50.1	-65.5	3.8	1.49e+00	0	43	104	0	72	20481
2026-01-02 02:05:38.81	299.25	14.37	-50.1	-65.5	3.8	1.49e+00	0	44	104	0	72	20481
2026-01-02 02:05:40.10	298.99	14.33	-50.1	-65.5	3.8	1.49e+00	0	44	104	0	72	20524
2026-01-02 02:05:40.82	298.85	14.30	-50.1	-65.6	3.8	1.49e+00	0	43	104	0	72	20544
2026-01-02 02:05:42.17	298.58	14.26	-50.1	-65.5	3.8	1.49e+00	0	44	104	0	72	20465
2026-01-02 02:05:42.89	298.44	14.24	-50.1	-65.5	3.8	1.49e+00	0	43	104	0	72	20440
2026-01-02 02:05:44.18	298.19	14.20	-50.1	-65.6	3.8	1.49e+00	0	44	104	0	72	20545
2026-01-02 02:05:44.90	298.04	14.18	-50.1	-65.5	3.8	1.49e+00	0	44	104	0	72	20506
2026-01-02 02:05:46.19	297.79	14.13	-50.1	-65.6	3.8	1.49e+00	0	44	104	0	72	20547
2026-01-02 02:05:46.91	297.65	14.11	-50.1	-65.5	3.8	1.49e+00	0	44	104	0	72	20505
2026-01-02 02:05:48.20	297.40	14.07	-50.1	-65.5	3.8	1.49e+00	0	43	104	0	72	20490
2026-01-02 02:05:48.91	297.26	14.04	-50.1	-65.5	3.8	1.49e+00	0	44	104	0	72	20450
2026-01-02 02:05:50.20	297.01	14.00	-50.1	-65.5	3.8	1.49e+00	0	44	104	0	72	20491
2026-01-02 02:05:50.92	296.87	13.98	-50.1	-65.5	3.8	1.49e+00	0	44	104	0	72	20525
2026-01-02 02:05:52.21	296.62	13.93	-50.1	-65.5	3.8	1.49e+00	0	44	104	0	72	20518
2026-01-02 02:05:52.93	296.48	13.91	-50.1	-65.5	3.8	1.49e+00	0	44	104	0	72	20497
2026-01-02 02:05:54.22	296.23	13.86	-50.1	-65.5	3.8	1.49e+00	0	44	104	0	72	20507
2026-01-02 02:05:54.94	296.10	13.84	-50.1	-65.5	3.8	1.49e+00	0	44	104	0	72	20538
2026-01-02 02:05:56.23	295.85	13.79	-50.1	-65.5	3.8	1.49e+00	0	44	104	0	72	20530
2026-01-02 02:05:56.95	295.71	13.77	-50.1	-65.5	3.8	1.49e+00	0	43	104	0	72	20487
2026-01-02 02:05:58.24	295.47	13.72	-50.1	-65.5	3.8	1.49e+00	0	44	104	0	72	20513
2026-01-02 02:05:58.96	295.33	13.70	-50.1	-65.5	3.8	1.49e+00	0	44	104	0	72	20476
2026-01-02 02:06:00.25	295.08	13.65	-50.1	-65.5	3.8	1.49e+00	0	44	104	0	72	20508
2026-01-02 02:06:00.97	294.95	13.62	-50.1	-65.6	3.8	1.49e+00	0	44	104	0	72	20576
2026-01-02 02:06:02.26	294.70	13.57	-50.1	-65.5	3.8	1.49e+00	0	44	104	0	72	20516
2026-01-02 02:06:02.97	294.57	13.55	-50.1	-65.5	3.8	1.49e+00	0	44	104	0	72	20500
2026-01-02 02:06:04.27	294.33	13.50	-50.1	-65.6	3.8	1.49e+00	0	44	104	0	72	20571
2026-01-02 02:06:04.99	294.19	13.47	-50.1	-65.6	3.8	1.49e+00	0	44	104	0	72	20555
2026-01-02 02:06:06.28	293.95	13.42	-50.1	-65.5	3.8	1.49e+00	0	44	104	0	72	20479
2026-01-02 02:06:07.14	293.79	13.39	-50.1	-65.6	3.8	1.49e+00	0	43	104	0	72	20539
2026-01-02 02:06:08.29	293.58	13.35	-50.1	-65.5	3.8	1.49e+00	0	44	104	0	72	20519
2026-01-02 02:06:09.35	293.38	13.31	-50.1	-65.5	3.8	1.49e+00	0	44	104	0	72	20521
2026-01-02 02:06:10.39	293.19	13.27	-50.1	-65.5	3.8	1.49e+00	0	44	104	0	72	20453
2026-01-02 02:06:11.56	292.97	13.22	-50.1	-65.5	3.8	1.49e+00	0	44	104	0	72	20509
2026-01-02 02:06:12.45	292.81	13.19	-50.1	-65.5	3.8	1.49e+00	0	44	104	0	72	20479
2026-01-02 02:06:13.77	292.57	13.13	-50.1	-65.6	3.8	1.49e+00	0	44	104	0	72	20555
2026-01-02 02:06:14.49	292.44	13.11	-50.1	-65.5	3.8	1.49e+00	0	44	104	0	72	20409
2026-01-02 02:06:15.78	292.20	13.05	-50.1	-65.5	3.8	1.49e+00	0	44	104	0	72	20504
2026-01-02 02:06:16.50	292.07	13.02	-50.1	-65.5	3.8	1.49e+00	0	44	104	0	72	20464
2026-01-02 02:06:17.79	291.84	12.97	-50.1	-65.5	3.8	1.49e+00	0	44	104	0	72	20492
2026-01-02 02:06:18.50	291.71	12.94	-50.1	-65.6	3.8	1.49e+00	0	44	104	0	72	20568
2026-01-02 02:06:19.80	291.47	12.89	-50.1	-65.5	3.8	1.49e+00	0	44	104	0	72	20486
2026-01-02 02:06:20.51	291.35	12.86	-50.1	-65.5	3.8	1.49e+00	0	44	104	0	72	20424
2026-01-02 02:06:21.80	291.11	12.81	-50.1	-65.6	3.8	1.49e+00	0	44	104	0	72	20595
2026-01-02 02:06:22.52	290.99	12.78	-50.1	-65.5	3.8	1.49e+00	0	44	104	0	72	20509
2026-01-02 02:06:23.81	290.76	12.72	-50.1	-65.5	3.8	1.49e+00	0	44	104	0	72	20504
2026-01-02 02:06:24.53	290.63	12.69	-50.1	-65.6	3.8	1.49e+00	0	44	104	0	72	20554
2026-01-02 02:06:25.82	290.40	12.64	-50.1	-65.5	3.8	1.49e+00	0	44	104	0	72	20482
2026-01-02 02:06:26.54	290.27	12.61	-50.1	-65.5	3.8	1.49e+00	0	44	104	0	72	20502
2026-01-02 02:06:27.83	290.05	12.56	-50.1	-65.5	3.8	1.49e+00	0	44	104	0	72	20412
2026-01-02 02:06:28.55	289.92	12.52	-50.1	-65.5	3.8	1.49e+00	0	44	104	0	72	20461
2026-01-02 02:06:29.84	289.69	12.47	-50.1	-65.5	3.8	1.49e+00	0	44	104	0	72	20489
2026-01-02 02:06:30.55	289.57	12.44	-50.1	-65.6	3.8	1.49e+00	0	44	104	0	72	20554
2026-01-02 02:06:31.84	289.34	12.38	-50.1	-65.5	3.8	1.49e+00	0	44	104	0	72	20405
2026-01-02 02:06:32.56	289.22	12.35	-50.1	-65.5	3.8	1.49e+00	0	44	104	0	72	20494
2026-01-02 02:06:33.85	289.00	12.30	-50.1	-65.5	3.8	1.49e+00	0	44	104	0	72	20467
2026-01-02 02:06:34.57	288.87	12.26	-50.1	-65.5	3.8	1.49e+00	0	44	104	0	72	20487
2026-01-02 02:06:35.86	288.65	12.21	-50.1	-65.5	3.8	1.49e+00	0	44	104	0	72	20496
2026-01-02 02:06:36.58	288.53	12.18	-50.1	-65.5	3.8	1.49e+00	0	44	104	0	72	20529
2026-01-02 02:06:37.88	288.30	12.12	-50.1	-65.6	3.8	1.49e+00	0	44	104	0	72	20562
2026-01-02 02:06:38.60	288.18	12.09	-50.1	-65.5	3.8	1.49e+00	0	44	104	0	72	20524
2026-01-02 02:06:39.89	287.96	12.03	-50.1	-65.5	3.8	1.49e+00	0	44	104	0	72	20503
2026-01-02 02:06:40.61	287.84	12.00	-50.1	-65.6	3.8	1.49e+00	0	44	104	0	72	20550
2026-01-02 02:06:41.90	287.62	11.94	-50.1	-65.5	3.8	1.49e+00	0	44	104	0	72	20494
2026-01-02 02:06:42.62	287.50	11.91	-50.1	-65.6	3.8	1.49e+00	0	44	104	0	72	20553
2026-01-02 02:06:43.91	287.29	11.85	-50.1	-65.6	3.8	1.49e+00	0	44	104	0	72	20567
2026-01-02 02:06:44.64	287.16	11.81	-50.1	-65.5	3.8	1.49e+00	0	44	104	0	72	20507
2026-01-02 02:06:45.93	286.95	11.76	-50.1	-65.5	3.8	1.49e+00	0	44	104	0	72	20487
2026-01-02 02:06:46.65	286.83	11.72	-50.1	-65.5	3.8	1.49e+00	0	44	104	0	72	20454
2026-01-02 02:06:47.94	286.62	11.66	-50.1	-65.5	3.8	1.49e+00	0	44	104	0	72	20491
2026-01-02 02:06:48.66	286.50	11.63	-50.1	-65.5	3.8	1.49e+00	0	44	104	0	72	20457
2026-01-02 02:06:49.95	286.28	11.57	-50.1	-65.6	3.8	1.49e+00	0	44	104	0	72	20560
2026-01-02 02:06:50.66	286.17	11.54	-50.1	-65.5	3.8	1.49e+00	0	44	104	0	72	20485
2026-01-02 02:06:51.96	285.95	11.48	-50.1	-65.5	3.8	1.49e+00	0	44	104	0	72	20497
2026-01-02 02:06:52.67	285.84	11.45	-50.1	-65.6	3.8	1.49e+00	0	44	104	0	72	20565
2026-01-02 02:06:53.96	285.63	11.39	-50.1	-65.5	3.8	1.49e+00	0	44	104	0	72	20524
2026-01-02 02:06:54.68	285.51	11.35	-50.1	-65.5	3.8	1.49e+00	0	44	104	0	72	20489
2026-01-02 02:06:55.97	285.30	11.29	-50.1	-65.5	3.8	1.49e+00	0	44	104	0	72	20504
2026-01-02 02:06:56.69	285.19	11.26	-50.1	-65.5	3.8	1.49e+00	0	43	104	0	72	20505
2026-01-02 02:06:57.98	284.98	11.20	-50.1	-65.6	3.8	1.49e+00	0	43	104	0	72	20548
2026-01-02 02:06:58.70	284.87	11.16	-50.1	-65.5	3.8	1.49e+00	0	44	104	0	72	20476
2026-01-02 02:06:59.99	284.66	11.10	-50.1	-65.5	3.8	1.49e+00	0	44	104	0	72	20500
2026-01-02 02:07:00.71	284.55	11.07	-50.1	-65.6	3.8	1.49e+00	0	44	104	0	72	20553
2026-01-02 02:07:02.00	284.34	11.01	-50.1	-65.6	3.8	1.49e+00	0	44	104	0	72	20564
2026-01-02 02:07:02.72	284.23	10.97	-50.1	-65.5	3.8	1.49e+00	0	44	104	0	72	20448
2026-01-02 02:07:04.01	284.03	10.91	-50.1	-65.5	3.8	1.49e+00	0	44	104	0	72	20535
2026-01-02 02:07:04.73	283.91	10.87	-50.1	-65.6	3.8	1.49e+00	0	44	104	0	72	20571
2026-01-02 02:07:06.02	283.71	10.81	-50.1	-65.5	3.8	1.49e+00	0	44	104	0	72	20490
2026-01-02 02:07:06.73	283.60	10.78	-50.1	-65.5	3.8	1.49e+00	0	44	104	0	72	20523
2026-01-02 02:07:08.02	283.40	10.72	-50.1	-65.5	3.8	1.49e+00	0	44	104	0	72	20524
2026-01-02 02:07:08.74	283.29	10.68	-50.1	-65.5	3.8	1.49e+00	0	44	104	0	72	20492
2026-01-02 02:07:10.03	283.09	10.62	-50.1	-65.5	3.8	1.49e+00	0	44	104	0	72	20520
2026-01-02 02:07:10.75	282.98	10.58	-50.1	-65.5	3.8	1.49e+00	0	44	104	0	72	20474
2026-01-02 02:07:12.04	282.78	10.52	-50.1	-65.6	3.8	1.49e+00	0	44	104	0	72	20539
2026-01-02 02:07:12.76	282.67	10.48	-50.1	-65.5	3.8	1.49e+00	0	44	104	0	72	20436
2026-01-02 02:07:14.05	282.48	10.42	-50.1	-65.5	3.8	1.49e+00	0	44	104	0	72	20522
2026-01-02 02:07:14.77	282.37	10.39	-50.1	-65.5	3.8	1.49e+00	0	44	104	0	72	20480
2026-01-02 02:07:16.06	282.17	10.32	-50.1	-65.5	3.8	1.49e+00	0	44	104	0	72	20507
2026-01-02 02:07:16.78	282.06	10.29	-50.1	-65.6	3.8	1.49e+00	0	44	104	0	72	20549
2026-01-02 02:07:18.07	281.87	10.22	-50.1	-65.5	3.8	1.49e+00	0	44	104	0	72	20471
2026-01-02 02:07:18.79	281.76	10.19	-50.1	-65.6	3.8	1.49e+00	0	43	104	0	72	20567
2026-01-02 02:07:20.08	281.57	10.12	-50.1	-65.5	3.8	1.49e+00	0	43	104	0	72	20512
2026-01-02 02:07:20.80	281.46	10.09	-50.1	-65.5	3.8	1.49e+00	0	44	104	0	72	20487
2026-01-02 02:07:22.09	281.27	10.02	-50.1	-65.6	3.8	1.49e+00	0	44	104	0	72	20578
2026-01-02 02:07:22.81	281.17	9.99	-50.1	-65.6	3.8	1.49e+00	0	44	104	0	72	20541
2026-01-02 02:07:24.10	280.98	9.92	-50.1	-65.5	3.8	1.49e+00	0	44	104	0	72	20407
2026-01-02 02:07:24.81	280.87	9.89	-50.1	-65.6	3.8	1.49e+00	0	43	104	0	72	20545
2026-01-02 02:07:26.11	280.68	9.82	-50.1	-65.5	3.8	1.49e+00	0	44	104	0	72	20538
2026-01-02 02:07:26.82	280.58	9.79	-50.1	-65.5	3.8	1.49e+00	0	44	104	0	72	20513
2026-01-02 02:07:28.12	280.39	9.72	-50.1	-65.5	3.8	1.49e+00	0	44	104	0	72	20461
2026-01-02 02:07:28.83	280.29	9.69	-50.1	-65.5	3.8	1.49e+00	0	44	104	0	72	20498
2026-01-02 02:07:30.12	280.10	9.62	-50.1	-65.5	3.8	1.49e+00	0	43	104	0	72	20473
2026-01-02 02:07:30.84	280.00	9.59	-50.1	-65.6	3.8	1.49e+00	0	44	104	0	72	20587
2026-01-02 02:07:32.13	279.81	9.52	-50.1	-65.5	3.8	1.49e+00	0	44	104	0	72	20509
2026-01-02 02:07:32.85	279.71	9.48	-50.1	-65.5	3.8	1.49e+00	0	44	104	0	72	20485
2026-01-02 02:07:34.14	279.53	9.42	-50.1	-65.6	3.8	1.49e+00	0	44	104	0	72	20613
2026-01-02 02:07:34.86	279.43	9.38	-50.1	-65.6	3.8	1.49e+00	0	44	104	0	72	20554
2026-01-02 02:07:36.15	279.25	9.32	-50.1	-65.5	3.8	1.49e+00	0	44	104	0	72	20516
2026-01-02 02:07:36.87	279.14	9.28	-50.1	-65.5	3.8	1.49e+00	0	44	104	0	72	20515
2026-01-02 02:07:38.16	278.96	9.21	-50.1	-65.5	3.8	1.49e+00	0	44	104	0	72	20528
2026-01-02 02:07:38.88	278.86	9.18	-50.1	-65.6	3.8	1.49e+00	0	44	104	0	72	20577
2026-01-02 02:07:40.17	278.68	9.11	-50.1	-65.5	3.8	1.49e+00	0	44	104	0	72	20510
2026-01-02 02:07:40.89	278.58	9.08	-50.1	-65.6	3.8	1.49e+00	0	44	104	0	72	20549
2026-01-02 02:07:42.18	278.41	9.01	-50.1	-65.5	3.8	1.49e+00	0	44	104	0	72	20500
2026-01-02 02:07:42.89	278.31	8.97	-50.1	-65.6	3.8	1.49e+00	0	44	104	0	72	20552
2026-01-02 02:07:44.19	278.13	8.91	-50.1	-65.5	3.8	1.49e+00	0	44	104	0	72	20512
2026-01-02 02:07:44.90	278.03	8.87	-50.1	-65.5	3.8	1.49e+00	0	44	104	0	72	20464
2026-01-02 02:07:46.19	277.86	8.80	-50.1	-65.5	3.8	1.49e+00	0	44	104	0	72	20446
2026-01-02 02:07:47.10	277.74	8.76	-50.1	-65.6	3.8	1.49e+00	0	44	104	0	72	20574
2026-01-02 02:07:48.11	277.60	8.71	-50.1	-65.5	3.8	1.49e+00	0	44	104	0	72	20448
2026-01-02 02:07:49.11	277.46	8.65	-50.1	-65.5	3.8	1.49e+00	0	44	104	0	72	20533
2026-01-02 02:07:50.12	277.33	8.60	-50.1	-65.5	3.8	1.49e+00	0	44	104	0	72	20491
2026-01-02 02:07:51.12	277.20	8.55	-50.1	-65.5	3.8	1.49e+00	0	44	104	0	72	20451
2026-01-02 02:07:52.12	277.06	8.50	-50.1	-65.5	3.8	1.49e+00	0	44	104	0	72	20529
2026-01-02 02:07:53.13	276.93	8.45	-50.1	-65.5	3.8	1.49e+00	0	44	104	0	72	20497
2026-01-02 02:07:54.13	276.80	8.40	-50.1	-65.6	3.8	1.49e+00	0	44	104	0	72	20579
2026-01-02 02:07:55.20	276.66	8.34	-50.1	-65.6	3.8	1.49e+00	0	44	104	0	72	20625
2026-01-02 02:07:56.06	276.54	8.30	-50.1	-65.5	3.8	1.49e+00	0	44	104	0	72	20521
2026-01-02 02:07:57.21	276.39	8.24	-50.1	-65.5	3.8	1.49e+00	0	44	104	0	72	20485
2026-01-02 02:07:58.07	276.28	8.19	-50.1	-65.6	3.8	1.49e+00	0	44	104	0	72	20584
2026-01-02 02:07:59.22	276.13	8.13	-50.1	-65.6	3.8	1.49e+00	0	44	104	0	72	20608
2026-01-02 02:08:00.07	276.02	8.09	-50.1	-65.5	3.8	1.49e+00	0	44	104	0	72	20516
2026-01-02 02:08:01.22	275.87	8.03	-50.1	-65.6	3.8	1.49e+00	0	44	104	0	72	20545
2026-01-02 02:08:02.09	275.76	7.98	-50.1	-65.6	3.8	1.49e+00	0	43	104	0	72	20578
2026-01-02 02:08:03.23	275.62	7.92	-50.1	-65.5	3.8	1.49e+00	0	44	104	0	72	20526
2026-01-02 02:08:04.09	275.51	7.88	-50.1	-65.6	3.8	1.49e+00	0	44	104	0	72	20545
2026-01-02 02:08:05.24	275.36	7.82	-50.1	-65.6	3.8	1.49e+00	0	44	104	0	72	20548
2026-01-02 02:08:06.10	275.25	7.77	-50.1	-65.5	3.8	1.49e+00	0	44	104	0	72	20538
2026-01-02 02:08:07.25	275.11	7.72	-50.1	-65.5	3.8	1.49e+00	0	44	104	0	72	20478
2026-01-02 02:08:08.11	275.00	7.67	-50.1	-65.5	3.8	1.49e+00	0	44	104	0	72	20535
2026-01-02 02:08:09.26	274.86	7.61	-50.1	-65.5	3.8	1.49e+00	0	44	104	0	72	20524
2026-01-02 02:08:10.12	274.75	7.57	-50.1	-65.5	3.8	1.49e+00	0	44	104	0	72	20519
2026-01-02 02:08:11.27	274.61	7.51	-50.1	-65.5	3.8	1.49e+00	0	44	104	0	72	20522
2026-01-02 02:08:12.13	274.50	7.46	-50.1	-65.5	3.8	1.49e+00	0	44	104	0	72	20513
2026-01-02 02:08:13.28	274.36	7.40	-50.1	-65.5	3.8	1.49e+00	0	44	104	0	72	20519
2026-01-02 02:08:14.35	274.23	7.34	-50.1	-65.5	3.8	1.49e+00	0	44	104	0	72	20532
2026-01-02 02:08:15.38	274.10	7.29	-50.1	-65.5	3.8	1.49e+00	0	44	104	0	72	20422
2026-01-02 02:08:16.55	273.96	7.23	-50.1	-65.5	3.8	1.49e+00	0	44	104	0	72	20515
2026-01-02 02:08:17.45	273.85	7.18	-50.1	-65.5	3.8	1.49e+00	0	44	104	0	72	20514
2026-01-02 02:08:18.75	273.69	7.12	-50.1	-65.5	3.8	1.49e+00	0	44	104	0	72	20521
2026-01-02 02:08:19.47	273.60	7.08	-50.1	-65.5	3.8	1.49e+00	0	44	104	0	72	20532
2026-01-02 02:08:20.76	273.45	7.01	-50.1	-65.5	3.8	1.49e+00	0	44	104	0	72	20505
2026-01-02 02:08:21.47	273.37	6.97	-50.1	-65.5	3.8	1.49e+00	0	44	104	0	72	20512
2026-01-02 02:08:22.77	273.21	6.91	-50.1	-65.6	3.8	1.49e+00	0	44	104	0	72	20563
2026-01-02 02:08:23.48	273.13	6.87	-50.1	-65.5	3.8	1.49e+00	0	44	104	0	72	20448
2026-01-02 02:08:24.77	272.97	6.80	-50.1	-65.5	3.8	1.49e+00	0	44	104	0	72	20497
2026-01-02 02:08:25.49	272.89	6.76	-50.1	-65.5	3.8	1.49e+00	0	44	104	0	72	20480
2026-01-02 02:08:26.78	272.74	6.70	-50.1	-65.5	3.8	1.49e+00	0	44	104	0	72	20488
2026-01-02 02:08:27.50	272.65	6.66	-50.1	-65.5	3.8	1.49e+00	0	44	104	0	72	20490
2026-01-02 02:08:28.79	272.50	6.59	-50.1	-65.5	3.8	1.49e+00	0	44	104	0	72	20487
2026-01-02 02:08:29.51	272.42	6.55	-50.1	-65.6	3.8	1.49e+00	0	44	104	0	72	20556
2026-01-02 02:08:30.80	272.27	6.48	-50.1	-65.5	3.8	1.49e+00	0	44	104	0	72	20485
2026-01-02 02:08:31.52	272.19	6.45	-50.1	-65.5	3.8	1.49e+00	0	44	104	0	72	20502
2026-01-02 02:08:32.81	272.04	6.38	-50.1	-65.5	3.8	1.49e+00	0	44	104	0	72	20536
2026-01-02 02:08:33.53	271.96	6.34	-50.1	-65.5	3.8	1.49e+00	0	44	104	0	72	20457
2026-01-02 02:08:34.82	271.81	6.27	-50.1	-65.5	3.8	1.49e+00	0	44	104	0	72	20518
2026-01-02 02:08:35.54	271.73	6.24	-50.1	-65.5	3.8	1.49e+00	0	44	104	0	72	20496
2026-01-02 02:08:36.83	271.58	6.17	-50.1	-65.5	3.8	1.49e+00	0	44	104	0	72	20452
2026-01-02 02:08:37.55	271.50	6.13	-50.1	-65.5	3.8	1.49e+00	0	44	104	0	72	20453
2026-01-02 02:08:38.84	271.36	6.06	-50.1	-65.6	3.8	1.49e+00	0	44	104	0	72	20545
2026-01-02 02:08:39.55	271.28	6.03	-50.1	-65.6	3.8	1.49e+00	0	44	104	0	72	20572
2026-01-02 02:08:40.85	271.13	5.96	-50.1	-65.5	3.8	1.49e+00	0	44	104	0	72	20536
2026-01-02 02:08:41.56	271.05	5.92	-50.1	-65.5	3.8	1.49e+00	0	44	104	0	72	20517
2026-01-02 02:08:42.85	270.91	5.85	-50.1	-65.5	3.8	1.49e+00	0	44	104	0	72	20465
2026-01-02 02:08:43.57	270.83	5.82	-50.1	-65.5	3.8	1.49e+00	0	44	104	0	72	20537
2026-01-02 02:08:44.86	270.69	5.75	-50.1	-65.5	3.8	1.49e+00	0	44	104	0	72	20479
2026-01-02 02:08:45.58	270.61	5.71	-50.1	-65.5	3.8	1.49e+00	0	44	104	0	72	20508
2026-01-02 02:08:46.87	270.47	5.64	-50.1	-65.5	3.8	1.49e+00	0	44	104	0	72	20462
2026-01-02 02:08:47.59	270.39	5.61	-50.1	-65.5	3.8	1.49e+00	0	44	104	0	72	20503
2026-01-02 02:08:48.88	270.25	5.54	-50.1	-65.5	3.8	1.49e+00	0	44	104	0	72	20465
2026-01-02 02:08:49.60	270.17	5.50	-50.1	-65.5	3.8	1.49e+00	0	44	104	0	72	20481
2026-01-02 02:08:50.89	270.04	5.43	-50.1	-65.5	3.8	1.49e+00	0	44	104	0	72	20515
2026-01-02 02:08:51.61	269.96	5.40	-50.1	-65.5	3.8	1.49e+00	0	44	104	0	72	20463
2026-01-02 02:08:52.90	269.82	5.33	-50.1	-65.5	3.8	1.49e+00	0	44	104	0	72	20535
2026-01-02 02:08:53.62	269.74	5.29	-50.1	-65.5	3.8	1.49e+00	0	44	104	0	72	20496
2026-01-02 02:08:54.91	269.61	5.22	-50.1	-65.5	3.8	1.49e+00	0	44	104	0	72	20497
2026-01-02 02:08:55.62	269.53	5.19	-50.1	-65.5	3.8	1.49e+00	0	44	104	0	72	20487
2026-01-02 02:08:56.92	269.40	5.12	-50.1	-65.5	3.8	1.49e+00	0	44	104	0	72	20433
2026-01-02 02:08:57.63	269.32	5.08	-50.1	-65.6	3.8	1.49e+00	0	44	104	0	72	20556
2026-01-02 02:08:58.93	269.19	5.01	-50.1	-65.5	3.8	1.49e+00	0	44	104	0	72	20510
2026-01-02 02:08:59.64	269.11	4.98	-50.1	-65.5	3.8	1.49e+00	0	44	104	0	72	20499

#Closed at: 2026-01-02 02:09:00
#Recorded file [0 MB]: D:/Data/31040_260102_045936.dat