passes_logs/2026/01/02/T1/T1__20260102_093945_NOAA_21_JPSS-2_rec.log

#Pass ID: 20260102_093945_NOAA 21 (JPSS-2)
#Satellite: NOAA 21 (JPSS-2)
#Configuration: NOAA 21
#almurnet v.1.7.20251203
#Start time: 2026-01-02 09:39:46

#Version: 2.0.20230620
#Station: T1
#Location: 37.570604 lon 55.790049 lat
#TLE: 1 54234U 22150A   26001.26806856  .00000185  00000+0  10843-3 0  9990
#TLE: 2 54234  98.7484 302.3349 0001277 353.3887   6.7272 14.19530660162860

#Time	Az	El	Level	Level2	SNR	BER	BlckErr	Temp	State	Recorded	gain1	gain2
2026-01-02 09:39:46.43	152.05	5.05	-49.1	-61.9	3.8	1.49e+00	0	40	0	0	70	15078
2026-01-02 09:39:47.43	152.04	5.12	-49.1	-61.6	3.8	1.49e+00	0	40	104	0	70	14649
2026-01-02 09:39:48.42	152.03	5.19	-49.1	-61.7	3.8	1.49e+00	0	41	104	0	70	14746
2026-01-02 09:39:49.42	152.02	5.26	-49.1	-61.7	3.8	1.49e+00	0	41	104	0	70	14856
2026-01-02 09:39:50.41	152.00	5.34	-49.1	-61.9	3.8	1.49e+00	0	41	104	0	70	15108
2026-01-02 09:39:51.41	151.99	5.41	-49.1	-62.0	3.8	1.49e+00	0	41	104	0	70	15322
2026-01-02 09:39:52.41	151.98	5.48	-49.1	-62.1	3.8	1.49e+00	0	41	104	0	70	15539
2026-01-02 09:39:53.40	151.96	5.55	-49.1	-62.2	3.8	1.49e+00	0	41	104	0	70	15732
2026-01-02 09:39:54.40	151.95	5.63	-49.1	-62.3	3.8	1.49e+00	0	41	104	0	70	15935
2026-01-02 09:39:55.40	151.94	5.70	-49.1	-62.3	3.8	1.49e+00	0	41	104	0	70	15922
2026-01-02 09:39:56.39	151.92	5.77	-49.1	-62.3	3.8	1.49e+00	0	41	104	0	70	15905
2026-01-02 09:39:57.39	151.91	5.85	-49.1	-62.3	3.8	1.49e+00	0	41	104	0	70	15787
2026-01-02 09:39:58.39	151.90	5.92	-49.1	-62.2	3.8	1.49e+00	0	41	104	0	70	15612
2026-01-02 09:39:59.39	151.88	5.99	-49.1	-62.0	3.8	1.49e+00	0	41	104	0	70	15309
2026-01-02 09:40:00.38	151.87	6.07	-49.1	-61.9	3.8	1.49e+00	0	41	104	0	70	15134
2026-01-02 09:40:01.38	151.85	6.14	-49.1	-61.8	3.8	1.49e+00	0	41	104	0	70	14907
2026-01-02 09:40:02.38	151.84	6.22	-49.1	-61.6	3.8	1.49e+00	0	41	104	0	70	14667
2026-01-02 09:40:03.37	151.83	6.29	-49.1	-61.6	3.8	1.49e+00	0	41	104	0	70	14545
2026-01-02 09:40:04.37	151.81	6.37	-49.0	-61.5	3.8	1.49e+00	0	41	104	0	70	14415
2026-01-02 09:40:05.37	151.80	6.44	-49.0	-61.3	3.8	1.49e+00	0	41	104	0	70	14125
2026-01-02 09:40:06.36	151.78	6.52	-49.0	-61.1	3.8	1.49e+00	0	41	104	0	70	13788
2026-01-02 09:40:07.36	151.77	6.59	-49.0	-60.8	3.8	1.49e+00	0	41	104	0	70	13366
2026-01-02 09:40:08.35	151.76	6.67	-48.9	-60.5	3.8	1.49e+00	0	42	104	0	69	13674
2026-01-02 09:40:09.35	151.74	6.75	-48.9	-60.1	3.8	1.48e+00	0	42	104	0	69	13098
2026-01-02 09:40:10.35	151.73	6.82	-48.8	-59.3	4.1	1.48e+00	0	42	104	0	69	11870
2026-01-02 09:40:11.35	151.71	6.90	-48.7	-58.7	4.2	1.47e+00	0	42	104	0	69	11155
2026-01-02 09:40:12.34	151.70	6.97	-48.7	-58.3	4.3	1.46e+00	0	42	104	0	69	10594
2026-01-02 09:40:13.34	151.68	7.05	-48.6	-57.6	4.2	1.24e+00	0	42	104	0	69	9779
2026-01-02 09:40:14.33	151.67	7.13	-48.5	-56.8	5.0	7.56e-01	0	42	0	0	68	9432
2026-01-02 09:40:15.33	151.65	7.21	-48.3	-56.1	5.5	5.37e-01	0	42	0	0	68	8671
2026-01-02 09:40:16.33	151.64	7.28	-48.1	-55.1	6.2	3.21e-01	0	42	0	0	68	7740
2026-01-02 09:40:17.33	151.62	7.36	-47.6	-53.8	7.1	1.91e-01	0	42	0	0	67	7115
2026-01-02 09:40:18.32	151.61	7.44	-47.3	-52.9	8.0	9.14e-02	0	42	0	0	66	6793
2026-01-02 09:40:19.32	151.59	7.52	-46.9	-51.9	9.0	3.32e-02	0	42	0	0	65	6390
2026-01-02 09:40:20.32	151.58	7.60	-46.5	-51.0	9.9	1.10e-02	0	42	0	0	65	5746
2026-01-02 09:40:21.31	151.56	7.68	-46.0	-50.1	10.9	2.73e-03	0	42	0	0	64	5485
2026-01-02 09:40:22.31	151.54	7.76	-45.8	-49.5	11.6	8.06e-04	0	42	0	0	63	5451
2026-01-02 09:40:23.30	151.53	7.83	-45.3	-48.7	12.4	2.40e-04	0	42	0	0	62	5272
2026-01-02 09:40:24.30	151.51	7.91	-45.0	-48.3	12.8	9.30e-05	0	42	0	0	62	4997
2026-01-02 09:40:25.30	151.50	7.99	-44.7	-47.9	13.2	2.67e-05	0	42	0	0	61	5060
2026-01-02 09:40:26.30	151.48	8.08	-44.7	-47.7	13.4	1.37e-05	0	42	0	0	61	4982
2026-01-02 09:40:27.30	151.46	8.16	-44.6	-47.6	13.5	1.29e-05	0	42	0	0	61	4924
2026-01-02 09:40:28.29	151.45	8.24	-44.6	-47.7	13.4	1.83e-05	0	42	0	0	61	4976
2026-01-02 09:40:29.29	151.43	8.32	-44.8	-47.9	13.2	1.67e-05	0	42	0	0	61	5078
2026-01-02 09:40:30.28	151.41	8.40	-45.0	-48.2	12.9	4.42e-05	0	42	0	0	61	5270
2026-01-02 09:40:31.28	151.40	8.48	-45.3	-48.8	12.3	1.25e-04	0	42	0	0	61	5649
2026-01-02 09:40:32.27	151.38	8.56	-45.8	-49.7	11.4	4.94e-04	0	42	0	0	62	5867
2026-01-02 09:40:33.27	151.36	8.64	-46.3	-50.6	10.4	2.52e-03	0	42	0	0	63	6197
2026-01-02 09:40:34.27	151.35	8.73	-46.9	-51.9	9.0	1.71e-02	0	42	0	0	64	6769
2026-01-02 09:40:35.26	151.33	8.81	-47.5	-53.5	7.5	7.32e-02	0	42	0	0	65	7646
2026-01-02 09:40:36.26	151.31	8.89	-48.0	-55.2	6.0	2.75e-01	0	42	0	0	66	8807
2026-01-02 09:40:37.26	151.30	8.97	-48.4	-57.9	4.0	8.69e-01	0	42	104	0	67	11341
2026-01-02 09:40:38.26	151.28	9.06	-48.7	-58.4	4.1	1.46e+00	0	42	104	0	68	11296
2026-01-02 09:40:39.26	151.26	9.14	-47.1	-52.3	8.8	8.76e-03	0	42	0	0	65	6662
2026-01-02 09:40:40.25	151.24	9.22	-48.9	-59.4	4.1	1.48e+00	0	42	104	0	68	12737
2026-01-02 09:40:41.25	151.23	9.31	-48.4	-56.1	5.0	1.00e+00	0	42	104	0	68	8698
2026-01-02 09:40:42.25	151.21	9.39	-45.3	-48.7	12.5	1.44e-05	0	42	0	0	61	5579
2026-01-02 09:40:43.24	151.19	9.48	-49.1	-61.2	3.8	1.49e+00	0	42	104	0	68	15613
2026-01-02 09:40:44.24	151.17	9.56	-44.3	-47.2	14.0	4.11e-05	0	42	0	0	60	4962
2026-01-02 09:40:45.24	151.15	9.65	-42.9	-45.2	16.0	0.00e+00	0	42	0	0	57	4679
2026-01-02 09:40:46.23	151.13	9.73	-42.1	-44.2	17.0	0.00e+00	0	42	0	0	56	4430
2026-01-02 09:40:47.22	151.12	9.82	-41.9	-44.0	17.0	0.00e+00	0	42	0	0	55	4594
2026-01-02 09:40:48.22	151.10	9.91	-41.9	-44.0	17.0	0.00e+00	0	42	0	0	55	4571
2026-01-02 09:40:49.21	151.08	9.99	-41.7	-43.8	17.2	0.00e+00	0	43	0	0	55	4449
2026-01-02 09:40:50.21	151.06	10.08	-41.8	-43.9	17.1	2.33e-04	0	42	0	0	55	4521
2026-01-02 09:40:51.21	151.04	10.17	-41.7	-43.8	17.2	0.00e+00	0	43	0	0	55	4457
2026-01-02 09:40:52.20	151.02	10.25	-41.7	-43.7	17.3	0.00e+00	0	43	0	0	55	4437
2026-01-02 09:40:53.20	151.00	10.34	-41.6	-43.6	17.4	2.20e-06	0	43	0	0	55	4391
2026-01-02 09:40:54.20	150.98	10.43	-41.4	-43.4	17.6	0.00e+00	0	43	0	0	54	4514
2026-01-02 09:40:55.19	150.96	10.52	-41.4	-43.5	17.5	0.00e+00	0	42	0	0	54	4564
2026-01-02 09:40:56.19	150.94	10.61	-41.5	-43.5	17.5	0.00e+00	0	42	0	0	54	4577
2026-01-02 09:40:57.19	150.92	10.70	-41.4	-43.4	17.6	0.00e+00	0	42	0	0	54	4536
2026-01-02 09:40:58.18	150.90	10.78	-41.4	-43.4	17.6	0.00e+00	0	42	0	0	54	4535
2026-01-02 09:40:59.18	150.88	10.87	-41.5	-43.6	17.5	0.00e+00	0	43	0	0	54	4606
2026-01-02 09:41:00.17	150.86	10.96	-41.4	-43.4	17.6	0.00e+00	0	43	0	0	54	4506
2026-01-02 09:41:01.17	150.84	11.05	-41.3	-43.3	17.8	0.00e+00	0	43	0	0	54	4443
2026-01-02 09:41:02.17	150.82	11.14	-41.3	-43.3	17.7	0.00e+00	0	43	0	0	54	4470
2026-01-02 09:41:03.17	150.80	11.24	-41.2	-43.2	17.8	0.00e+00	0	43	0	0	54	4401
2026-01-02 09:41:04.17	150.78	11.33	-41.2	-43.2	17.8	0.00e+00	0	42	0	0	54	4393
2026-01-02 09:41:05.17	150.76	11.42	-41.1	-43.1	17.9	0.00e+00	0	43	0	0	54	4377
2026-01-02 09:41:06.16	150.74	11.51	-41.1	-43.1	17.9	0.00e+00	0	43	0	0	54	4355
2026-01-02 09:41:07.16	150.72	11.60	-41.1	-43.1	16.7	0.00e+00	0	43	0	0	54	4351
2026-01-02 09:41:08.16	150.70	11.70	-41.0	-43.0	18.0	0.00e+00	0	43	0	0	54	4318
2026-01-02 09:41:09.16	150.68	11.79	-41.0	-43.0	18.0	0.00e+00	0	43	0	0	54	4297
2026-01-02 09:41:10.16	150.65	11.88	-40.9	-42.9	18.1	0.00e+00	0	43	0	0	53	4506
2026-01-02 09:41:11.16	150.63	11.98	-41.0	-43.0	18.0	0.00e+00	0	43	0	0	53	4548
2026-01-02 09:41:12.16	150.61	12.07	-40.9	-42.9	18.1	0.00e+00	0	43	0	0	53	4532
2026-01-02 09:41:13.16	150.59	12.17	-41.0	-43.0	18.0	0.00e+00	0	43	0	0	53	4560
2026-01-02 09:41:14.16	150.57	12.26	-41.0	-43.0	18.0	0.00e+00	0	43	0	0	53	4558
2026-01-02 09:41:15.16	150.54	12.36	-40.9	-42.9	18.1	0.00e+00	0	43	0	0	53	4520
2026-01-02 09:41:16.15	150.52	12.45	-40.8	-42.7	18.3	0.00e+00	0	43	0	0	53	4427
2026-01-02 09:41:17.15	150.50	12.55	-40.8	-42.7	18.3	0.00e+00	0	43	0	0	53	4410
2026-01-02 09:41:18.15	150.48	12.64	-40.8	-42.8	18.2	0.00e+00	0	43	0	0	53	4444
2026-01-02 09:41:19.15	150.45	12.74	-40.7	-42.6	18.4	0.00e+00	0	43	0	0	53	4365
2026-01-02 09:41:20.15	150.43	12.84	-40.7	-42.6	18.4	0.00e+00	0	43	0	0	53	4378
2026-01-02 09:41:21.15	150.40	12.94	-40.7	-42.6	18.3	0.00e+00	0	43	0	0	53	4389
2026-01-02 09:41:22.15	150.38	13.03	-40.7	-42.6	18.4	0.00e+00	0	43	0	0	53	4355
2026-01-02 09:41:23.15	150.36	13.13	-40.7	-42.6	18.3	0.00e+00	0	43	0	0	53	4378
2026-01-02 09:41:24.15	150.33	13.23	-40.7	-42.6	18.4	0.00e+00	0	43	0	0	53	4345
2026-01-02 09:41:25.15	150.31	13.33	-40.6	-42.5	18.5	0.00e+00	0	43	0	0	53	4292
2026-01-02 09:41:26.15	150.28	13.43	-40.7	-42.5	18.4	0.00e+00	0	43	0	0	53	4332
2026-01-02 09:41:27.15	150.26	13.53	-40.8	-42.7	18.3	0.00e+00	0	43	0	0	53	4396
2026-01-02 09:41:28.15	150.24	13.63	-40.6	-42.5	18.6	0.00e+00	0	43	0	0	53	4296
2026-01-02 09:41:29.15	150.21	13.73	-40.7	-42.5	18.5	0.00e+00	0	43	0	0	53	4331
2026-01-02 09:41:30.15	150.19	13.83	-40.6	-42.4	18.6	0.00e+00	0	43	0	0	53	4291
2026-01-02 09:41:31.15	150.16	13.93	-40.5	-42.4	18.6	0.00e+00	0	43	0	0	53	4255
2026-01-02 09:41:32.14	150.13	14.04	-40.6	-42.4	18.6	0.00e+00	0	43	0	0	53	4277
2026-01-02 09:41:33.14	150.11	14.14	-40.5	-42.3	18.6	0.00e+00	0	43	0	0	53	4235
2026-01-02 09:41:34.14	150.08	14.24	-40.4	-42.3	18.7	0.00e+00	0	43	0	0	52	4449
2026-01-02 09:41:35.14	150.06	14.34	-40.4	-42.3	18.7	0.00e+00	0	43	0	0	52	4447
2026-01-02 09:41:36.14	150.03	14.45	-40.3	-42.2	18.8	0.00e+00	0	43	0	0	52	4417
2026-01-02 09:41:37.14	150.00	14.55	-40.4	-42.2	18.8	0.00e+00	0	43	0	0	52	4426
2026-01-02 09:41:38.13	149.98	14.66	-40.3	-42.2	18.8	0.00e+00	0	43	0	0	52	4420
2026-01-02 09:41:39.13	149.95	14.76	-40.3	-42.2	18.7	0.00e+00	0	43	0	0	52	4427
2026-01-02 09:41:40.13	149.92	14.87	-40.5	-42.3	18.6	0.00e+00	0	43	0	0	52	4493
2026-01-02 09:41:41.13	149.90	14.97	-40.3	-42.2	18.8	0.00e+00	0	43	0	0	52	4416
2026-01-02 09:41:42.13	149.87	15.08	-40.2	-42.1	18.9	0.00e+00	0	43	0	0	52	4362
2026-01-02 09:41:43.13	149.84	15.19	-40.3	-42.2	18.8	0.00e+00	0	43	0	0	52	4420
2026-01-02 09:41:44.13	149.81	15.29	-40.3	-42.2	18.7	0.00e+00	0	43	0	0	52	4427
2026-01-02 09:41:45.12	149.78	15.40	-40.4	-42.2	18.8	0.00e+00	0	43	0	0	52	4437
2026-01-02 09:41:46.12	149.76	15.51	-40.3	-42.1	18.9	0.00e+00	0	43	0	0	52	4384
2026-01-02 09:41:47.12	149.73	15.62	-40.3	-42.2	18.8	0.00e+00	0	43	0	0	52	4394
2026-01-02 09:41:48.12	149.70	15.73	-40.3	-42.1	18.9	0.00e+00	0	43	0	0	52	4380
2026-01-02 09:41:49.12	149.67	15.84	-40.3	-42.1	18.9	0.00e+00	0	43	0	0	52	4364
2026-01-02 09:41:50.11	149.64	15.95	-40.3	-42.1	18.9	0.00e+00	0	43	0	0	52	4379
2026-01-02 09:41:51.11	149.61	16.06	-40.4	-42.2	18.8	0.00e+00	0	43	0	0	52	4419
2026-01-02 09:41:52.11	149.58	16.17	-40.3	-42.1	18.9	0.00e+00	0	43	0	0	52	4366
2026-01-02 09:41:53.11	149.55	16.28	-40.3	-42.1	18.9	0.00e+00	0	43	0	0	52	4380
2026-01-02 09:41:54.11	149.52	16.39	-40.4	-42.2	18.8	0.00e+00	0	43	0	0	52	4429
2026-01-02 09:41:55.10	149.49	16.51	-40.4	-42.2	18.8	0.00e+00	0	43	0	0	52	4427
2026-01-02 09:41:56.10	149.46	16.62	-40.4	-42.2	18.8	0.00e+00	0	43	0	0	52	4420
2026-01-02 09:41:57.10	149.43	16.73	-40.5	-42.4	18.7	0.00e+00	0	43	0	0	52	4505
2026-01-02 09:41:58.10	149.40	16.85	-40.4	-42.2	18.8	0.00e+00	0	43	0	0	52	4431
2026-01-02 09:41:59.09	149.37	16.96	-40.3	-42.2	18.8	0.00e+00	0	43	0	0	52	4405
2026-01-02 09:42:00.09	149.33	17.08	-40.4	-42.3	18.8	0.00e+00	0	43	0	0	52	4446
2026-01-02 09:42:01.10	149.30	17.19	-40.3	-42.1	18.9	0.00e+00	0	43	0	0	52	4375
2026-01-02 09:42:02.09	149.27	17.31	-40.4	-42.2	18.8	0.00e+00	0	43	0	0	52	4425
2026-01-02 09:42:03.09	149.24	17.43	-40.4	-42.3	18.8	0.00e+00	0	43	0	0	52	4448
2026-01-02 09:42:04.09	149.20	17.54	-40.4	-42.2	18.8	0.00e+00	0	43	0	0	52	4428
2026-01-02 09:42:05.08	149.17	17.66	-40.3	-42.2	18.8	0.00e+00	0	43	0	0	52	4417
2026-01-02 09:42:06.08	149.14	17.78	-40.5	-42.4	18.7	0.00e+00	0	43	0	0	52	4501
2026-01-02 09:42:07.08	149.10	17.90	-40.3	-42.2	18.8	0.00e+00	0	43	0	0	52	4399
2026-01-02 09:42:08.08	149.07	18.02	-40.4	-42.3	18.8	0.00e+00	0	43	0	0	52	4454
2026-01-02 09:42:09.08	149.03	18.14	-40.3	-42.1	18.9	0.00e+00	0	43	0	0	52	4390
2026-01-02 09:42:10.08	149.00	18.26	-40.3	-42.1	18.9	0.00e+00	0	43	0	0	52	4389
2026-01-02 09:42:11.07	148.97	18.38	-40.3	-42.2	18.8	0.00e+00	0	43	0	0	52	4417
2026-01-02 09:42:12.07	148.93	18.50	-40.4	-42.2	18.8	0.00e+00	0	43	0	0	52	4422
2026-01-02 09:42:13.07	148.89	18.63	-40.3	-42.1	18.9	0.00e+00	0	43	0	0	52	4375
2026-01-02 09:42:14.07	148.86	18.75	-40.2	-42.1	18.9	0.00e+00	0	43	0	0	52	4343
2026-01-02 09:42:15.06	148.82	18.87	-40.2	-42.0	19.0	0.00e+00	0	43	0	0	52	4334
2026-01-02 09:42:16.06	148.79	19.00	-40.2	-42.0	19.0	0.00e+00	0	43	0	0	52	4334
2026-01-02 09:42:17.06	148.75	19.12	-40.1	-41.9	19.0	0.00e+00	0	43	0	0	52	4279
2026-01-02 09:42:18.06	148.71	19.25	-40.1	-41.9	19.1	0.00e+00	0	43	0	0	52	4254
2026-01-02 09:42:19.05	148.68	19.37	-40.0	-41.8	19.1	0.00e+00	0	43	0	0	52	4218
2026-01-02 09:42:20.05	148.64	19.50	-40.0	-41.8	19.1	0.00e+00	0	43	0	0	52	4237
2026-01-02 09:42:21.05	148.60	19.63	-40.0	-41.8	19.2	0.00e+00	0	43	0	0	52	4198
2026-01-02 09:42:22.04	148.56	19.75	-40.0	-41.8	19.1	0.00e+00	0	43	0	0	51	4486
2026-01-02 09:42:23.04	148.52	19.88	-39.9	-41.7	19.1	0.00e+00	0	43	0	0	51	4429
2026-01-02 09:42:24.04	148.48	20.01	-39.7	-41.5	19.2	0.00e+00	0	43	0	0	51	4316
2026-01-02 09:42:25.03	148.44	20.14	-39.6	-41.4	19.2	0.00e+00	0	43	0	0	51	4258
2026-01-02 09:42:26.03	148.40	20.27	-39.6	-41.4	19.2	0.00e+00	0	43	0	0	51	4278
2026-01-02 09:42:27.03	148.36	20.41	-39.6	-41.3	19.2	0.00e+00	0	43	0	0	51	4237
2026-01-02 09:42:28.03	148.32	20.54	-39.4	-41.2	19.3	0.00e+00	0	43	0	0	50	4411
2026-01-02 09:42:29.03	148.28	20.67	-39.3	-41.1	19.4	0.00e+00	0	43	0	0	50	4345
2026-01-02 09:42:30.02	148.24	20.80	-39.3	-41.1	19.4	0.00e+00	0	43	0	0	50	4353
2026-01-02 09:42:31.02	148.20	20.94	-39.2	-41.0	19.5	0.00e+00	0	43	0	0	50	4307
2026-01-02 09:42:32.02	148.16	21.07	-39.2	-40.9	19.5	0.00e+00	0	43	0	0	50	4290
2026-01-02 09:42:33.02	148.11	21.21	-39.1	-40.9	19.6	0.00e+00	0	43	0	0	50	4271
2026-01-02 09:42:34.02	148.07	21.35	-39.1	-40.8	19.6	0.00e+00	0	43	0	0	50	4240
2026-01-02 09:42:35.01	148.03	21.48	-39.0	-40.7	19.8	0.00e+00	0	43	0	0	49	4413
2026-01-02 09:42:36.01	147.98	21.62	-39.1	-40.8	19.6	0.00e+00	0	43	0	0	49	4468
2026-01-02 09:42:37.01	147.94	21.76	-39.0	-40.7	19.8	0.00e+00	0	43	0	0	49	4420
2026-01-02 09:42:38.00	147.90	21.90	-39.0	-40.7	19.8	0.00e+00	0	43	0	0	49	4437
2026-01-02 09:42:39.00	147.85	22.04	-38.8	-40.5	20.0	0.00e+00	0	43	0	0	49	4326
2026-01-02 09:42:40.00	147.81	22.18	-38.8	-40.5	20.0	0.00e+00	0	43	0	0	49	4334
2026-01-02 09:42:41.00	147.76	22.32	-38.7	-40.4	20.1	0.00e+00	0	43	0	0	49	4275
2026-01-02 09:42:42.00	147.71	22.46	-38.6	-40.3	20.2	0.00e+00	0	43	0	0	49	4238
2026-01-02 09:42:42.99	147.67	22.60	-38.5	-40.3	20.3	0.00e+00	0	43	0	0	49	4208
2026-01-02 09:42:43.99	147.62	22.75	-38.6	-40.4	20.1	0.00e+00	0	43	0	0	49	4260
2026-01-02 09:42:44.98	147.57	22.89	-38.6	-40.3	20.2	0.00e+00	0	43	0	0	49	4225
2026-01-02 09:42:45.98	147.52	23.04	-38.4	-40.2	20.3	0.00e+00	0	43	0	0	48	4395
2026-01-02 09:42:46.98	147.48	23.18	-38.4	-40.1	20.4	0.00e+00	0	43	0	0	48	4358
2026-01-02 09:42:47.98	147.43	23.33	-38.4	-40.2	20.3	0.00e+00	0	43	0	0	48	4392
2026-01-02 09:42:48.97	147.38	23.48	-38.4	-40.2	20.4	0.00e+00	0	44	0	0	48	4401
2026-01-02 09:42:49.96	147.33	23.63	-38.4	-40.1	20.4	0.00e+00	0	43	0	0	48	4379
2026-01-02 09:42:50.96	147.28	23.78	-38.4	-40.1	20.4	0.00e+00	0	43	0	0	48	4365
2026-01-02 09:42:51.96	147.23	23.93	-38.4	-40.1	20.4	0.00e+00	0	43	0	0	48	4383
2026-01-02 09:42:52.96	147.17	24.08	-38.3	-40.0	20.5	0.00e+00	0	43	0	0	48	4327
2026-01-02 09:42:53.95	147.12	24.23	-38.3	-40.0	20.5	0.00e+00	0	43	0	0	48	4328
2026-01-02 09:42:54.95	147.07	24.38	-38.5	-40.2	20.3	0.00e+00	0	43	0	0	48	4407
2026-01-02 09:42:55.95	147.02	24.54	-38.5	-40.1	20.4	0.00e+00	0	43	0	0	48	4389
2026-01-02 09:42:56.95	146.96	24.69	-38.5	-40.2	20.4	0.00e+00	0	43	0	0	48	4405
2026-01-02 09:42:57.95	146.91	24.85	-38.6	-40.3	20.3	0.00e+00	0	43	0	0	48	4443
2026-01-02 09:42:58.94	146.85	25.00	-38.7	-40.4	20.2	0.00e+00	0	43	0	0	48	4497
2026-01-02 09:42:59.94	146.80	25.16	-38.7	-40.4	20.2	0.00e+00	0	43	0	0	48	4532
2026-01-02 09:43:00.93	146.74	25.32	-38.7	-40.4	20.2	0.00e+00	0	43	0	0	48	4528
2026-01-02 09:43:01.94	146.69	25.48	-38.7	-40.4	20.2	0.00e+00	0	43	0	0	48	4534
2026-01-02 09:43:02.93	146.63	25.64	-38.8	-40.5	20.1	0.00e+00	0	43	0	0	48	4584
2026-01-02 09:43:03.93	146.57	25.80	-38.9	-40.6	20.1	0.00e+00	0	43	0	0	48	4601
2026-01-02 09:43:04.93	146.51	25.96	-38.8	-40.5	20.1	0.00e+00	0	43	0	0	48	4579
2026-01-02 09:43:05.93	146.45	26.12	-39.0	-40.7	20.0	0.00e+00	0	43	0	0	48	4657
2026-01-02 09:43:06.92	146.39	26.29	-39.0	-40.7	19.9	0.00e+00	0	43	0	0	48	4674
2026-01-02 09:43:07.92	146.33	26.45	-39.1	-40.8	19.9	0.00e+00	0	43	0	0	48	4739
2026-01-02 09:43:08.92	146.27	26.62	-39.2	-40.9	19.8	0.00e+00	0	43	0	0	48	4771
2026-01-02 09:43:09.92	146.21	26.78	-39.2	-40.9	19.7	0.00e+00	0	43	0	0	49	4535
2026-01-02 09:43:10.92	146.15	26.95	-39.2	-40.9	19.8	0.00e+00	0	43	0	0	49	4513
2026-01-02 09:43:11.91	146.09	27.12	-39.3	-41.1	19.6	0.00e+00	0	43	0	0	49	4609
2026-01-02 09:43:12.91	146.02	27.29	-39.3	-41.1	19.7	0.00e+00	0	43	0	0	49	4602
2026-01-02 09:43:13.91	145.96	27.46	-39.5	-41.3	19.4	0.00e+00	0	43	0	0	49	4730
2026-01-02 09:43:14.91	145.89	27.63	-39.6	-41.4	19.3	0.00e+00	0	43	0	0	49	4791
2026-01-02 09:43:15.91	145.83	27.81	-39.7	-41.5	19.3	0.00e+00	0	43	0	0	50	4581
2026-01-02 09:43:16.90	145.76	27.98	-39.8	-41.7	19.2	0.00e+00	0	43	0	0	50	4654
2026-01-02 09:43:17.90	145.69	28.15	-39.9	-41.8	19.1	0.00e+00	0	43	0	0	50	4708
2026-01-02 09:43:18.90	145.62	28.33	-39.9	-41.7	19.1	0.00e+00	0	43	0	0	50	4671
2026-01-02 09:43:19.90	145.55	28.51	-40.0	-41.8	19.0	0.00e+00	0	43	0	0	50	4728
2026-01-02 09:43:20.89	145.49	28.68	-40.0	-41.8	19.1	0.00e+00	0	43	0	0	50	4727
2026-01-02 09:43:21.89	145.42	28.86	-39.9	-41.7	19.1	0.00e+00	0	43	0	0	50	4687
2026-01-02 09:43:22.89	145.34	29.04	-39.9	-41.7	19.1	0.00e+00	0	43	0	0	50	4694
2026-01-02 09:43:23.89	145.27	29.23	-39.9	-41.7	19.1	0.00e+00	0	43	0	0	50	4670
2026-01-02 09:43:24.89	145.20	29.41	-39.8	-41.5	19.3	0.00e+00	0	43	0	0	50	4596
2026-01-02 09:43:25.89	145.12	29.59	-39.7	-41.5	19.3	0.00e+00	0	43	0	0	50	4595
2026-01-02 09:43:26.88	145.05	29.78	-39.6	-41.3	19.5	0.00e+00	0	43	0	0	50	4488
2026-01-02 09:43:27.88	144.97	29.96	-39.5	-41.3	19.5	0.00e+00	0	43	0	0	50	4474
2026-01-02 09:43:28.88	144.90	30.15	-39.5	-41.3	19.5	0.00e+00	0	43	0	0	50	4474
2026-01-02 09:43:29.87	144.82	30.34	-39.5	-41.2	19.6	0.00e+00	0	43	0	0	50	4429
2026-01-02 09:43:30.88	144.74	30.53	-39.5	-41.2	19.6	0.00e+00	0	43	0	0	50	4426
2026-01-02 09:43:31.87	144.66	30.72	-39.4	-41.2	19.6	0.00e+00	0	43	0	0	50	4393
2026-01-02 09:43:32.87	144.58	30.91	-39.5	-41.3	19.5	0.00e+00	0	43	0	0	50	4462
2026-01-02 09:43:33.86	144.50	31.10	-39.4	-41.2	19.6	0.00e+00	0	43	0	0	50	4412
2026-01-02 09:43:34.87	144.42	31.30	-39.4	-41.1	19.7	0.00e+00	0	43	0	0	50	4360
2026-01-02 09:43:35.87	144.33	31.49	-39.4	-41.1	19.7	0.00e+00	0	43	0	0	50	4369
2026-01-02 09:43:36.86	144.25	31.69	-39.4	-41.1	19.6	0.00e+00	0	44	0	0	50	4391
2026-01-02 09:43:37.86	144.16	31.89	-39.5	-41.3	19.5	0.00e+00	0	43	0	0	50	4462
2026-01-02 09:43:38.86	144.08	32.09	-39.6	-41.3	19.5	0.00e+00	0	43	0	0	50	4485
2026-01-02 09:43:39.86	143.99	32.29	-39.7	-41.4	19.3	0.00e+00	0	43	0	0	50	4542
2026-01-02 09:43:40.86	143.90	32.49	-39.7	-41.5	19.3	0.00e+00	0	43	0	0	50	4553
2026-01-02 09:43:41.86	143.81	32.69	-39.8	-41.6	19.2	0.00e+00	0	43	0	0	50	4609
2026-01-02 09:43:42.85	143.72	32.90	-39.8	-41.6	19.2	0.00e+00	0	43	0	0	50	4612
2026-01-02 09:43:43.85	143.63	33.10	-39.9	-41.6	19.2	0.00e+00	0	43	0	0	50	4638
2026-01-02 09:43:44.85	143.53	33.31	-40.0	-41.8	19.0	0.00e+00	0	43	0	0	50	4719
2026-01-02 09:43:45.85	143.44	33.52	-40.0	-41.8	19.0	0.00e+00	0	43	0	0	50	4735
2026-01-02 09:43:46.85	143.34	33.73	-40.2	-42.0	18.8	0.00e+00	0	43	0	0	50	4833
2026-01-02 09:43:47.85	143.24	33.94	-40.2	-42.0	18.8	0.00e+00	0	43	0	0	51	4594
2026-01-02 09:43:48.84	143.15	34.15	-40.3	-42.1	18.7	0.00e+00	0	43	0	0	51	4651
2026-01-02 09:43:49.84	143.05	34.37	-40.3	-42.1	18.8	0.00e+00	0	43	0	0	51	4627
2026-01-02 09:43:50.84	142.94	34.58	-40.3	-42.2	18.7	0.00e+00	0	43	0	0	51	4672
2026-01-02 09:43:51.84	142.84	34.80	-40.4	-42.3	18.6	0.00e+00	0	43	0	0	51	4725
2026-01-02 09:43:52.83	142.74	35.01	-40.7	-42.5	18.4	0.00e+00	0	43	0	0	51	4868
2026-01-02 09:43:53.84	142.63	35.24	-40.7	-42.6	18.3	0.00e+00	0	43	0	0	52	4610
2026-01-02 09:43:54.83	142.52	35.46	-40.9	-42.8	18.1	0.00e+00	0	43	0	0	52	4739
2026-01-02 09:43:55.83	142.42	35.68	-41.0	-43.0	17.9	0.00e+00	0	43	0	0	52	4835
2026-01-02 09:43:56.83	142.31	35.90	-41.2	-43.2	17.8	0.00e+00	0	43	0	0	52	4932
2026-01-02 09:43:57.83	142.19	36.13	-41.3	-43.4	17.5	0.00e+00	0	43	0	0	53	4772
2026-01-02 09:43:58.83	142.08	36.35	-41.4	-43.4	17.4	0.00e+00	0	43	0	0	53	4804
2026-01-02 09:43:59.82	141.97	36.58	-41.5	-43.6	17.2	0.00e+00	0	43	0	0	53	4889
2026-01-02 09:44:00.82	141.85	36.81	-41.6	-43.7	17.2	0.00e+00	0	43	0	0	53	4952
2026-01-02 09:44:01.83	141.73	37.04	-41.6	-43.7	17.2	0.00e+00	0	43	0	0	53	4956
2026-01-02 09:44:02.82	141.61	37.27	-41.8	-43.9	17.0	0.00e+00	0	43	0	0	54	4788
2026-01-02 09:44:03.82	141.49	37.51	-41.7	-43.8	17.1	0.00e+00	0	43	0	0	54	4712
2026-01-02 09:44:04.82	141.36	37.74	-41.6	-43.7	17.2	0.00e+00	0	43	0	0	54	4682
2026-01-02 09:44:05.82	141.24	37.98	-41.6	-43.7	17.2	0.00e+00	0	43	0	0	54	4665
2026-01-02 09:44:06.82	141.11	38.22	-41.4	-43.5	17.4	0.00e+00	0	43	0	0	54	4548
2026-01-02 09:44:07.82	140.98	38.46	-41.5	-43.5	17.3	0.00e+00	0	43	0	0	54	4584
2026-01-02 09:44:08.82	140.85	38.70	-41.4	-43.5	17.4	0.00e+00	0	43	0	0	54	4564
2026-01-02 09:44:09.82	140.72	38.95	-41.4	-43.4	17.5	0.00e+00	0	43	0	0	54	4517
2026-01-02 09:44:10.82	140.58	39.19	-41.6	-43.7	17.3	0.00e+00	0	43	0	0	54	4667
2026-01-02 09:44:11.81	140.45	39.43	-41.5	-43.6	17.3	0.00e+00	0	43	0	0	54	4605
2026-01-02 09:44:12.81	140.31	39.68	-41.5	-43.6	17.3	0.00e+00	0	43	0	0	54	4635
2026-01-02 09:44:13.81	140.16	39.93	-41.5	-43.6	17.4	0.00e+00	0	43	0	0	54	4612
2026-01-02 09:44:14.81	140.02	40.18	-41.3	-43.3	17.7	0.00e+00	0	43	0	0	54	4450
2026-01-02 09:44:15.80	139.87	40.43	-41.1	-43.0	17.9	0.00e+00	0	43	0	0	54	4328
2026-01-02 09:44:16.80	139.73	40.69	-40.8	-42.8	18.2	0.00e+00	0	43	0	0	53	4443
2026-01-02 09:44:17.80	139.57	40.94	-40.7	-42.5	18.3	0.00e+00	0	43	0	0	53	4328
2026-01-02 09:44:18.80	139.42	41.20	-40.7	-42.5	18.3	0.00e+00	0	44	0	0	53	4337
2026-01-02 09:44:19.80	139.27	41.46	-40.7	-42.6	18.3	0.00e+00	0	43	0	0	53	4360
2026-01-02 09:44:20.80	139.11	41.72	-40.9	-42.9	18.0	0.00e+00	0	43	0	0	53	4504
2026-01-02 09:44:21.79	138.95	41.98	-41.1	-43.1	17.7	0.00e+00	0	43	0	0	53	4618
2026-01-02 09:44:22.79	138.78	42.25	-41.3	-43.3	17.4	0.00e+00	0	43	0	0	53	4745
2026-01-02 09:44:23.79	138.62	42.51	-41.5	-43.6	17.2	0.00e+00	0	43	0	0	53	4902
2026-01-02 09:44:24.79	138.45	42.78	-41.5	-43.6	17.2	0.00e+00	0	43	0	0	53	4876
2026-01-02 09:44:25.79	138.27	43.05	-41.6	-43.7	17.0	0.00e+00	0	43	0	0	53	4972
2026-01-02 09:44:26.79	138.10	43.32	-41.8	-44.0	16.9	0.00e+00	0	43	0	0	54	4816
2026-01-02 09:44:27.79	137.92	43.59	-41.7	-43.8	17.1	0.00e+00	0	43	0	0	54	4748
2026-01-02 09:44:28.79	137.74	43.86	-41.8	-43.9	17.1	0.00e+00	0	43	0	0	54	4765
2026-01-02 09:44:29.79	137.55	44.14	-41.9	-44.0	17.0	0.00e+00	0	43	0	0	54	4856
2026-01-02 09:44:30.79	137.37	44.41	-42.1	-44.2	16.8	0.00e+00	0	43	0	0	54	4974
2026-01-02 09:44:31.79	137.17	44.69	-42.1	-44.3	16.7	0.00e+00	0	43	0	0	55	4715
2026-01-02 09:44:32.79	136.98	44.97	-42.2	-44.4	16.6	0.00e+00	0	43	0	0	55	4774
2026-01-02 09:44:33.79	136.78	45.25	-42.3	-44.4	16.6	0.00e+00	0	43	0	0	55	4797
2026-01-02 09:44:34.79	136.58	45.54	-42.3	-44.4	16.5	0.00e+00	0	43	0	0	55	4807
2026-01-02 09:44:35.78	136.37	45.82	-42.2	-44.3	16.6	0.00e+00	0	43	0	0	55	4742
2026-01-02 09:44:36.78	136.17	46.11	-42.1	-44.2	16.7	0.00e+00	0	43	0	0	55	4697
2026-01-02 09:44:37.78	135.95	46.39	-42.0	-44.1	16.8	0.00e+00	0	43	0	0	55	4632
2026-01-02 09:44:38.78	135.73	46.68	-41.8	-43.9	17.0	0.00e+00	0	43	0	0	55	4505
2026-01-02 09:44:39.78	135.51	46.97	-41.7	-43.8	17.2	0.00e+00	0	43	0	0	55	4475
2026-01-02 09:44:40.78	135.29	47.27	-41.8	-43.9	17.0	0.00e+00	0	43	0	0	55	4512
2026-01-02 09:44:41.77	135.06	47.56	-41.8	-43.9	17.0	0.00e+00	0	43	0	0	55	4543
2026-01-02 09:44:42.78	134.82	47.86	-41.7	-43.8	17.2	0.00e+00	0	43	0	0	55	4465
2026-01-02 09:44:43.78	134.58	48.15	-41.5	-43.5	17.4	0.00e+00	0	43	0	0	54	4558
2026-01-02 09:44:44.78	134.34	48.45	-41.2	-43.2	17.7	0.00e+00	0	43	0	0	54	4403
2026-01-02 09:44:45.78	134.09	48.75	-41.1	-43.1	17.8	0.00e+00	0	44	0	0	54	4355
2026-01-02 09:44:46.78	133.84	49.05	-41.2	-43.2	17.7	0.00e+00	0	43	0	0	54	4419
2026-01-02 09:44:47.78	133.58	49.36	-41.3	-43.3	17.7	0.00e+00	0	43	0	0	54	4442
2026-01-02 09:44:48.78	133.32	49.66	-41.2	-43.2	17.7	0.00e+00	0	43	0	0	54	4424
2026-01-02 09:44:49.78	133.05	49.97	-41.1	-43.0	17.9	0.00e+00	0	43	0	0	54	4323
2026-01-02 09:44:50.78	132.77	50.27	-41.2	-43.2	17.8	0.00e+00	0	44	0	0	54	4400
2026-01-02 09:44:51.78	132.49	50.58	-40.8	-42.7	18.1	0.00e+00	0	43	0	0	53	4440
2026-01-02 09:44:52.78	132.21	50.89	-40.7	-42.6	18.2	0.00e+00	0	43	0	0	53	4367
2026-01-02 09:44:53.78	131.91	51.20	-40.9	-42.8	18.0	0.00e+00	0	43	0	0	53	4475
2026-01-02 09:44:54.77	131.62	51.51	-41.1	-43.1	17.8	0.00e+00	0	43	0	0	53	4629
2026-01-02 09:44:55.78	131.31	51.83	-41.1	-43.1	17.8	0.00e+00	0	43	0	0	53	4639
2026-01-02 09:44:56.77	131.00	52.14	-40.8	-42.8	18.1	0.00e+00	0	43	0	0	53	4445
2026-01-02 09:44:57.77	130.68	52.46	-40.6	-42.5	18.2	0.00e+00	0	43	0	0	53	4327
2026-01-02 09:44:58.77	130.36	52.77	-40.6	-42.4	18.2	0.00e+00	0	44	0	0	53	4278
2026-01-02 09:44:59.77	130.03	53.09	-40.4	-42.2	18.3	0.00e+00	0	43	0	0	52	4415
2026-01-02 09:45:00.77	129.69	53.41	-40.5	-42.4	18.1	0.00e+00	0	43	0	0	52	4519
2026-01-02 09:45:01.77	129.34	53.73	-40.7	-42.6	18.0	0.00e+00	0	43	0	0	52	4615
2026-01-02 09:45:02.77	128.98	54.05	-40.7	-42.7	18.0	0.00e+00	0	44	0	0	52	4682
2026-01-02 09:45:03.77	128.62	54.37	-40.6	-42.5	18.3	0.00e+00	0	43	0	0	52	4589
2026-01-02 09:45:04.77	128.25	54.69	-40.4	-42.3	18.5	0.00e+00	0	44	0	0	52	4465
2026-01-02 09:45:05.76	127.87	55.01	-40.4	-42.2	18.5	0.00e+00	0	43	0	0	52	4436
2026-01-02 09:45:06.75	127.49	55.33	-40.2	-42.0	18.7	0.00e+00	0	43	0	0	52	4320
2026-01-02 09:45:07.76	127.09	55.66	-40.2	-42.0	18.8	0.00e+00	0	43	0	0	52	4320
2026-01-02 09:45:08.76	126.68	55.99	-40.2	-42.1	18.8	0.00e+00	0	43	0	0	52	4341
2026-01-02 09:45:09.75	126.27	56.31	-40.1	-41.9	19.0	0.00e+00	0	44	0	0	51	4504
2026-01-02 09:45:10.75	125.84	56.64	-39.9	-41.7	19.3	0.00e+00	0	44	0	0	51	4401
2026-01-02 09:45:11.75	125.40	56.96	-39.7	-41.5	19.4	0.00e+00	0	43	0	0	51	4294
2026-01-02 09:45:12.74	124.96	57.28	-39.6	-41.4	19.4	0.00e+00	0	43	0	0	51	4281
2026-01-02 09:45:13.74	124.50	57.61	-39.4	-41.1	19.7	0.00e+00	0	43	0	0	50	4381
2026-01-02 09:45:14.74	124.03	57.94	-39.3	-41.1	19.8	0.00e+00	0	43	0	0	50	4347
2026-01-02 09:45:15.73	123.56	58.26	-39.4	-41.2	19.7	0.00e+00	0	44	0	0	50	4403
2026-01-02 09:45:16.73	123.07	58.59	-39.4	-41.1	19.8	0.00e+00	0	43	0	0	50	4381
2026-01-02 09:45:17.73	122.56	58.91	-39.4	-41.1	19.7	0.00e+00	0	44	0	0	50	4389
2026-01-02 09:45:18.73	122.04	59.24	-39.5	-41.2	19.6	0.00e+00	0	43	0	0	50	4431
2026-01-02 09:45:19.73	121.51	59.56	-39.3	-41.0	19.9	0.00e+00	0	43	0	0	50	4295
2026-01-02 09:45:20.73	120.97	59.89	-39.0	-40.6	20.1	0.00e+00	0	44	0	0	50	4143
2026-01-02 09:45:21.72	120.41	60.21	-38.8	-40.5	20.2	0.00e+00	0	43	0	0	49	4308
2026-01-02 09:45:22.72	119.84	60.53	-38.8	-40.5	20.3	0.00e+00	0	44	0	0	49	4296
2026-01-02 09:45:23.72	119.25	60.85	-38.8	-40.4	20.4	0.00e+00	0	43	0	0	49	4273
2026-01-02 09:45:24.72	118.65	61.17	-38.7	-40.4	20.4	0.00e+00	0	43	0	0	49	4248
2026-01-02 09:45:25.71	118.04	61.49	-38.7	-40.3	20.4	0.00e+00	0	44	0	0	49	4231
2026-01-02 09:45:26.71	117.40	61.81	-38.7	-40.4	20.4	0.00e+00	0	44	0	0	49	4263
2026-01-02 09:45:27.70	116.76	62.12	-38.7	-40.4	20.4	0.00e+00	0	44	0	0	49	4271
2026-01-02 09:45:28.70	116.09	62.44	-38.6	-40.2	20.5	0.00e+00	0	43	0	0	49	4174
2026-01-02 09:45:29.70	115.41	62.75	-38.7	-40.3	20.3	0.00e+00	0	43	0	0	48	4487
2026-01-02 09:45:30.69	114.71	63.06	-38.8	-40.5	20.2	0.00e+00	0	43	0	0	48	4573
2026-01-02 09:45:31.69	113.99	63.37	-38.8	-40.5	20.3	0.00e+00	0	43	0	0	48	4556
2026-01-02 09:45:32.69	113.25	63.67	-38.5	-40.2	20.5	0.00e+00	0	44	0	0	48	4403
2026-01-02 09:45:33.69	112.49	63.97	-38.4	-40.1	20.6	0.00e+00	0	44	0	0	48	4342
2026-01-02 09:45:34.68	111.71	64.27	-38.7	-40.3	20.4	0.00e+00	0	43	0	0	48	4476
2026-01-02 09:45:35.68	110.91	64.57	-38.8	-40.4	20.3	0.00e+00	0	43	0	0	48	4531
2026-01-02 09:45:36.68	110.09	64.86	-38.4	-40.1	20.6	0.00e+00	0	44	0	0	48	4348
2026-01-02 09:45:37.67	109.26	65.15	-38.1	-39.8	20.9	0.00e+00	0	43	0	0	48	4198
2026-01-02 09:45:38.67	108.39	65.43	-38.3	-39.9	20.8	0.00e+00	0	43	0	0	48	4258
2026-01-02 09:45:39.66	107.51	65.71	-38.4	-40.1	20.7	0.00e+00	0	43	0	0	48	4344
2026-01-02 09:45:40.66	106.60	65.99	-38.5	-40.2	20.6	0.00e+00	0	44	0	0	48	4396
2026-01-02 09:45:41.67	105.66	66.26	-38.2	-39.8	20.9	0.00e+00	0	43	0	0	48	4202
2026-01-02 09:45:42.66	104.71	66.53	-38.1	-39.7	20.9	0.00e+00	0	43	0	0	48	4172
2026-01-02 09:45:43.66	103.73	66.79	-37.6	-39.2	21.3	0.00e+00	0	44	0	0	47	4152
2026-01-02 09:45:44.66	102.72	67.05	-37.2	-38.7	21.7	0.00e+00	0	44	0	0	46	4193
2026-01-02 09:45:45.65	101.70	67.30	-37.6	-39.2	21.2	0.00e+00	0	44	0	0	46	4419
2026-01-02 09:45:46.66	100.64	67.54	-37.8	-39.4	20.9	0.00e+00	0	44	0	0	46	4534
2026-01-02 09:45:47.66	99.56	67.78	-38.0	-39.6	20.6	0.00e+00	0	44	0	0	46	4627
2026-01-02 09:45:48.65	98.46	68.01	-37.8	-39.4	20.7	0.00e+00	0	43	0	0	46	4539
2026-01-02 09:45:49.65	97.33	68.23	-37.7	-39.3	20.9	0.00e+00	0	43	0	0	46	4485
2026-01-02 09:45:50.65	96.18	68.45	-37.8	-39.5	20.7	0.00e+00	0	43	0	0	46	4552
2026-01-02 09:45:51.64	95.01	68.66	-38.0	-39.7	20.6	0.00e+00	0	43	0	0	46	4660
2026-01-02 09:45:52.64	93.80	68.86	-38.2	-39.8	20.5	0.00e+00	0	43	0	0	47	4493
2026-01-02 09:45:53.63	92.59	69.05	-38.1	-39.8	20.6	0.00e+00	0	43	0	0	47	4455
2026-01-02 09:45:54.63	91.33	69.23	-38.1	-39.8	20.7	0.00e+00	0	43	0	0	47	4449
2026-01-02 09:45:55.63	90.06	69.40	-38.0	-39.6	20.8	0.00e+00	0	43	0	0	47	4369
2026-01-02 09:45:56.63	88.76	69.57	-38.0	-39.7	20.7	0.00e+00	0	43	0	0	47	4399
2026-01-02 09:45:57.62	87.45	69.72	-37.9	-39.6	20.8	0.00e+00	0	44	0	0	47	4358
2026-01-02 09:45:58.62	86.11	69.87	-38.0	-39.7	20.8	0.00e+00	0	43	0	0	47	4398
2026-01-02 09:45:59.61	84.76	70.00	-38.1	-39.8	20.6	0.00e+00	0	44	0	0	47	4459
2026-01-02 09:46:00.61	83.38	70.13	-38.2	-39.8	20.4	0.00e+00	0	43	0	0	47	4474
2026-01-02 09:46:01.61	81.98	70.24	-38.0	-39.6	20.6	0.00e+00	0	43	0	0	47	4363
2026-01-02 09:46:02.61	80.56	70.34	-37.6	-39.2	20.9	0.00e+00	0	44	0	0	47	4187
2026-01-02 09:46:03.61	79.13	70.43	-38.2	-39.8	20.5	0.00e+00	0	43	0	0	47	4465
2026-01-02 09:46:04.61	77.69	70.51	-38.8	-40.5	20.2	0.00e+00	0	44	0	0	48	4597
2026-01-02 09:46:05.61	76.23	70.58	-39.1	-40.8	20.0	0.00e+00	0	43	0	0	48	4725
2026-01-02 09:46:06.61	74.77	70.64	-38.6	-40.2	20.3	0.00e+00	0	43	0	0	48	4440
2026-01-02 09:46:07.60	73.31	70.68	-38.3	-40.0	20.6	0.00e+00	0	43	0	0	48	4312
2026-01-02 09:46:08.61	71.82	70.71	-38.5	-40.1	20.6	0.00e+00	0	43	0	0	48	4385
2026-01-02 09:46:09.61	70.33	70.73	-38.8	-40.5	20.3	0.00e+00	0	44	0	0	48	4557
2026-01-02 09:46:10.60	68.86	70.74	-38.9	-40.6	20.0	0.00e+00	0	44	0	0	48	4643
2026-01-02 09:46:11.60	67.38	70.74	-38.9	-40.6	20.1	0.00e+00	0	43	0	0	48	4632
2026-01-02 09:46:12.60	65.89	70.72	-38.2	-39.9	20.7	0.00e+00	0	44	0	0	48	4255
2026-01-02 09:46:13.60	64.41	70.69	-38.0	-39.6	20.9	0.00e+00	0	44	0	0	48	4140
2026-01-02 09:46:14.60	62.94	70.65	-38.4	-40.0	20.6	0.00e+00	0	43	0	0	48	4314
2026-01-02 09:46:15.59	61.48	70.60	-39.0	-40.8	20.1	0.00e+00	0	43	0	0	48	4709
2026-01-02 09:46:16.59	60.02	70.53	-39.4	-41.1	19.7	0.00e+00	0	44	0	0	49	4640
2026-01-02 09:46:17.59	58.58	70.46	-38.8	-40.5	20.2	0.00e+00	0	44	0	0	49	4326
2026-01-02 09:46:18.59	57.14	70.37	-38.2	-39.8	20.9	0.00e+00	0	43	0	0	48	4207
2026-01-02 09:46:19.59	55.73	70.27	-37.8	-39.4	21.1	0.00e+00	0	44	0	0	47	4246
2026-01-02 09:46:20.59	54.32	70.16	-37.9	-39.5	20.9	0.00e+00	0	43	0	0	47	4339
2026-01-02 09:46:21.58	52.95	70.04	-38.1	-39.7	20.7	0.00e+00	0	43	0	0	47	4409
2026-01-02 09:46:22.58	51.58	69.91	-38.2	-39.8	20.6	0.00e+00	0	44	0	0	47	4469
2026-01-02 09:46:23.58	50.24	69.77	-38.0	-39.6	20.6	0.00e+00	0	43	0	0	47	4382
2026-01-02 09:46:24.58	48.91	69.61	-37.7	-39.3	20.6	0.00e+00	0	43	0	0	47	4234
2026-01-02 09:46:25.58	47.61	69.45	-37.5	-39.1	20.9	0.00e+00	0	43	0	0	46	4343
2026-01-02 09:46:26.58	46.32	69.28	-37.9	-39.5	20.7	0.00e+00	0	43	0	0	46	4597
2026-01-02 09:46:27.57	45.08	69.10	-38.8	-40.4	19.9	0.00e+00	0	44	0	0	48	4532
2026-01-02 09:46:28.57	43.84	68.91	-39.0	-40.8	19.6	0.00e+00	0	43	0	0	48	4712
2026-01-02 09:46:29.57	42.63	68.71	-38.6	-40.3	20.1	0.00e+00	0	43	0	0	48	4463
2026-01-02 09:46:30.57	41.45	68.51	-38.4	-40.1	20.5	0.00e+00	0	43	0	0	48	4360
2026-01-02 09:46:31.55	40.31	68.30	-38.2	-39.8	20.9	0.00e+00	0	43	0	0	48	4205
2026-01-02 09:46:32.55	39.17	68.08	-38.0	-39.5	20.9	0.00e+00	0	43	0	0	47	4338
2026-01-02 09:46:33.55	38.06	67.85	-38.7	-40.4	20.3	0.00e+00	0	43	0	0	47	4771
2026-01-02 09:46:34.55	36.98	67.61	-39.4	-41.2	19.6	0.00e+00	0	43	0	0	49	4673
2026-01-02 09:46:35.54	35.93	67.37	-38.8	-40.5	20.0	0.00e+00	0	43	0	0	49	4297
2026-01-02 09:46:36.54	34.89	67.12	-37.8	-39.4	20.5	0.00e+00	0	43	0	0	47	4270
2026-01-02 09:46:37.54	33.88	66.87	-37.8	-39.4	20.8	0.00e+00	0	43	0	0	47	4255
2026-01-02 09:46:38.54	32.89	66.61	-38.4	-40.1	20.4	0.00e+00	0	43	0	0	47	4611
2026-01-02 09:46:39.54	31.93	66.35	-39.5	-41.2	19.6	0.00e+00	0	44	0	0	49	4692
2026-01-02 09:46:40.53	31.00	66.08	-39.3	-41.1	19.8	0.00e+00	0	43	0	0	49	4613
2026-01-02 09:46:41.53	30.08	65.80	-38.9	-40.6	20.1	0.00e+00	0	43	0	0	49	4347
2026-01-02 09:46:42.53	29.19	65.52	-38.6	-40.3	20.2	0.00e+00	0	44	0	0	49	4219
2026-01-02 09:46:43.53	28.32	65.24	-38.0	-39.6	21.0	0.00e+00	0	43	0	0	48	4124
2026-01-02 09:46:44.53	27.47	64.95	-37.8	-39.4	21.1	0.00e+00	0	44	0	0	47	4278
2026-01-02 09:46:45.52	26.65	64.66	-38.4	-40.1	20.5	0.00e+00	0	43	0	0	47	4609
2026-01-02 09:46:46.52	25.84	64.37	-39.5	-41.2	19.7	0.00e+00	0	44	0	0	49	4698
2026-01-02 09:46:47.52	25.06	64.07	-39.8	-41.6	19.2	0.00e+00	0	43	0	0	50	4607
2026-01-02 09:46:48.52	24.29	63.77	-39.1	-40.8	19.8	0.00e+00	0	43	0	0	50	4236
2026-01-02 09:46:49.52	23.55	63.46	-38.4	-40.1	20.6	0.00e+00	0	44	0	0	48	4343
2026-01-02 09:46:50.52	22.82	63.16	-38.4	-40.1	20.6	0.00e+00	0	44	0	0	48	4346
2026-01-02 09:46:51.52	22.11	62.85	-39.0	-40.7	20.1	0.00e+00	0	44	0	0	48	4693
2026-01-02 09:46:52.52	21.43	62.54	-39.9	-41.7	19.2	0.00e+00	0	44	0	0	50	4696
2026-01-02 09:46:53.52	20.75	62.22	-40.4	-42.3	18.7	0.00e+00	0	44	0	0	51	4759
2026-01-02 09:46:54.51	20.11	61.91	-39.6	-41.4	19.4	0.00e+00	0	44	0	0	51	4246
2026-01-02 09:46:55.51	19.47	61.60	-38.7	-40.4	20.1	0.00e+00	0	44	0	0	49	4289
2026-01-02 09:46:56.51	18.85	61.28	-38.4	-40.0	20.6	0.00e+00	0	44	0	0	48	4336
2026-01-02 09:46:57.51	18.24	60.96	-38.4	-40.0	20.7	0.00e+00	0	44	0	0	48	4332
2026-01-02 09:46:58.51	17.65	60.64	-38.9	-40.5	20.3	0.00e+00	0	43	0	0	48	4583
2026-01-02 09:46:59.51	17.08	60.32	-39.3	-41.0	19.8	0.00e+00	0	44	0	0	49	4579
2026-01-02 09:47:00.50	16.52	60.00	-39.5	-41.3	19.6	0.00e+00	0	43	0	0	49	4710
2026-01-02 09:47:01.50	15.97	59.67	-39.5	-41.2	19.6	0.00e+00	0	44	0	0	49	4673
2026-01-02 09:47:02.50	15.44	59.35	-39.3	-41.1	19.6	0.00e+00	0	43	0	0	49	4606
2026-01-02 09:47:03.49	14.92	59.03	-39.0	-40.6	20.1	0.00e+00	0	43	0	0	49	4381
2026-01-02 09:47:04.49	14.42	58.70	-38.9	-40.6	20.2	0.00e+00	0	44	0	0	49	4354
2026-01-02 09:47:05.49	13.92	58.38	-38.8	-40.4	20.4	0.00e+00	0	43	0	0	49	4265
2026-01-02 09:47:06.48	13.44	58.06	-39.4	-41.1	19.8	0.00e+00	0	43	0	0	49	4628
2026-01-02 09:47:07.48	12.97	57.73	-40.2	-42.0	19.0	0.00e+00	0	43	0	0	50	4838
2026-01-02 09:47:08.48	12.51	57.40	-40.2	-42.0	18.6	0.00e+00	0	44	0	0	51	4590
2026-01-02 09:47:09.48	12.06	57.08	-39.5	-41.3	19.1	0.00e+00	0	44	0	0	51	4226
2026-01-02 09:47:10.48	11.62	56.75	-39.0	-40.7	19.8	0.00e+00	0	44	0	0	50	4170
2026-01-02 09:47:11.48	11.19	56.43	-38.7	-40.4	20.2	0.00e+00	0	43	0	0	49	4259
2026-01-02 09:47:12.48	10.77	56.11	-39.2	-40.9	19.9	0.00e+00	0	44	0	0	49	4512
2026-01-02 09:47:13.48	10.37	55.78	-39.3	-41.0	19.9	0.00e+00	0	43	0	0	49	4560
2026-01-02 09:47:14.47	9.97	55.46	-39.5	-41.2	19.6	0.00e+00	0	44	0	0	49	4687
2026-01-02 09:47:15.47	9.58	55.14	-40.3	-42.2	18.8	0.00e+00	0	44	0	0	51	4666
2026-01-02 09:47:16.47	9.20	54.82	-41.2	-43.2	17.8	0.00e+00	0	44	0	0	52	4946
2026-01-02 09:47:17.47	8.83	54.49	-41.8	-43.9	17.2	0.00e+00	0	43	0	0	54	4771
2026-01-02 09:47:18.46	8.46	54.18	-41.6	-43.6	17.2	0.00e+00	0	43	0	0	54	4639
2026-01-02 09:47:19.46	8.11	53.86	-41.0	-43.0	17.7	0.00e+00	0	43	0	0	54	4305
2026-01-02 09:47:20.46	7.76	53.54	-40.9	-42.8	17.9	0.00e+00	0	43	0	0	53	4476
2026-01-02 09:47:21.46	7.42	53.22	-40.8	-42.7	18.2	0.00e+00	0	44	0	0	53	4395
2026-01-02 09:47:22.46	7.09	52.90	-41.2	-43.2	17.7	0.00e+00	0	44	0	0	53	4702
2026-01-02 09:47:23.46	6.76	52.59	-41.2	-43.1	17.8	0.00e+00	0	44	0	0	53	4648
2026-01-02 09:47:24.46	6.44	52.27	-41.1	-43.0	18.0	0.00e+00	0	43	0	0	53	4583
2026-01-02 09:47:25.46	6.13	51.96	-40.6	-42.5	18.5	0.00e+00	0	43	0	0	53	4316
2026-01-02 09:47:26.45	5.82	51.65	-41.0	-42.9	18.1	0.00e+00	0	44	0	0	53	4505
2026-01-02 09:47:27.45	5.52	51.34	-41.1	-43.0	17.9	0.00e+00	0	44	0	0	53	4592
2026-01-02 09:47:28.45	5.23	51.03	-41.1	-43.1	17.8	0.00e+00	0	43	0	0	53	4642
2026-01-02 09:47:29.45	4.94	50.72	-40.9	-42.8	18.0	0.00e+00	0	44	0	0	53	4476
2026-01-02 09:47:30.45	4.66	50.41	-40.8	-42.7	18.0	0.00e+00	0	44	0	0	53	4414
2026-01-02 09:47:31.45	4.39	50.11	-40.8	-42.6	18.1	0.00e+00	0	43	0	0	53	4388
2026-01-02 09:47:32.44	4.12	49.80	-41.1	-43.1	17.8	0.00e+00	0	44	0	0	53	4617
2026-01-02 09:47:33.44	3.85	49.50	-41.6	-43.6	17.4	0.00e+00	0	44	0	0	53	4892
2026-01-02 09:47:34.44	3.60	49.20	-42.0	-44.2	16.9	0.00e+00	0	44	0	0	54	4928
2026-01-02 09:47:35.44	3.34	48.90	-42.4	-44.7	16.3	0.00e+00	0	44	0	0	55	4966
2026-01-02 09:47:36.44	3.09	48.60	-42.5	-44.8	16.2	0.00e+00	0	44	0	0	55	4993
2026-01-02 09:47:37.43	2.85	48.30	-42.3	-44.5	16.4	0.00e+00	0	44	0	0	55	4850
2026-01-02 09:47:38.43	2.61	48.01	-42.1	-44.3	16.6	0.00e+00	0	44	0	0	55	4740
2026-01-02 09:47:39.43	2.37	47.71	-42.2	-44.4	16.5	0.00e+00	0	44	0	0	55	4804
2026-01-02 09:47:40.42	2.15	47.42	-42.3	-44.5	16.5	0.00e+00	0	44	0	0	55	4833
2026-01-02 09:47:41.42	1.92	47.13	-41.9	-44.0	16.9	0.00e+00	0	43	0	0	55	4576
2026-01-02 09:47:42.42	1.70	46.84	-41.5	-43.5	17.2	0.00e+00	0	44	0	0	55	4339
2026-01-02 09:47:43.42	1.48	46.55	-41.1	-43.1	17.6	0.00e+00	0	44	0	0	54	4374
2026-01-02 09:47:44.42	1.27	46.26	-41.2	-43.1	17.7	0.00e+00	0	44	0	0	54	4387
2026-01-02 09:47:45.41	1.06	45.98	-41.0	-43.0	18.0	0.00e+00	0	44	0	0	54	4296
2026-01-02 09:47:46.41	0.85	45.70	-41.1	-43.1	17.9	0.00e+00	0	43	0	0	53	4607
2026-01-02 09:47:47.41	0.65	45.41	-41.6	-43.6	17.4	0.00e+00	0	44	0	0	53	4909
2026-01-02 09:47:48.40	0.45	45.14	-42.4	-44.6	16.5	0.00e+00	0	44	0	0	55	4910
2026-01-02 09:47:49.40	0.26	44.86	-42.6	-45.0	16.0	0.00e+00	0	43	0	0	55	5125
2026-01-02 09:47:50.40	0.06	44.58	-42.9	-45.3	15.7	0.00e+00	0	44	0	0	56	5009
2026-01-02 09:47:51.40	359.88	44.30	-42.9	-45.2	15.5	0.00e+00	0	44	0	0	56	4976
2026-01-02 09:47:52.40	359.69	44.03	-42.8	-45.1	15.5	0.00e+00	0	44	0	0	56	4910
2026-01-02 09:47:53.40	359.51	43.76	-42.9	-45.2	15.5	0.00e+00	0	43	0	0	56	4959
2026-01-02 09:47:54.39	359.33	43.49	-42.9	-45.3	15.7	0.00e+00	0	43	0	0	56	4992
2026-01-02 09:47:55.39	359.15	43.22	-42.6	-44.9	16.2	0.00e+00	0	43	0	0	56	4771
2026-01-02 09:47:56.39	358.98	42.95	-42.1	-44.2	16.9	0.00e+00	0	44	0	0	56	4437
2026-01-02 09:47:57.39	358.81	42.68	-42.1	-44.2	16.9	0.00e+00	0	44	0	0	56	4438
2026-01-02 09:47:58.38	358.65	42.42	-41.8	-43.9	17.1	0.00e+00	0	43	0	0	55	4518
2026-01-02 09:47:59.38	358.48	42.16	-41.6	-43.7	17.3	0.00e+00	0	44	0	0	55	4411
2026-01-02 09:48:00.38	358.32	41.90	-41.1	-43.0	18.0	0.00e+00	0	44	0	0	54	4326
2026-01-02 09:48:01.37	358.16	41.64	-40.8	-42.7	18.2	0.00e+00	0	44	0	0	53	4404
2026-01-02 09:48:02.37	358.01	41.38	-40.9	-42.9	18.1	0.00e+00	0	44	0	0	53	4507
2026-01-02 09:48:03.37	357.85	41.12	-41.4	-43.4	17.6	0.00e+00	0	44	0	0	53	4796
2026-01-02 09:48:04.37	357.70	40.87	-41.9	-44.0	17.1	0.00e+00	0	44	0	0	54	4819
2026-01-02 09:48:05.37	357.55	40.61	-42.1	-44.2	16.9	0.00e+00	0	44	0	0	54	4956
2026-01-02 09:48:06.37	357.40	40.36	-42.1	-44.3	16.7	0.00e+00	0	44	0	0	54	5030
2026-01-02 09:48:07.36	357.26	40.11	-42.2	-44.5	16.4	0.00e+00	0	44	0	0	55	4837
2026-01-02 09:48:08.36	357.12	39.86	-42.2	-44.4	16.4	0.00e+00	0	44	0	0	55	4795
2026-01-02 09:48:09.37	356.98	39.61	-42.1	-44.3	16.4	0.00e+00	0	44	0	0	55	4733
2026-01-02 09:48:10.36	356.84	39.37	-41.7	-43.9	16.7	0.00e+00	0	44	0	0	55	4494
2026-01-02 09:48:11.36	356.71	39.13	-41.7	-43.7	16.9	0.00e+00	0	44	0	0	55	4437
2026-01-02 09:48:12.36	356.57	38.88	-41.6	-43.7	16.9	0.00e+00	0	44	0	0	55	4432
2026-01-02 09:48:13.36	356.44	38.64	-41.4	-43.5	17.2	0.00e+00	0	44	0	0	54	4596
2026-01-02 09:48:14.36	356.31	38.40	-41.1	-43.2	17.7	0.00e+00	0	44	0	0	54	4405
2026-01-02 09:48:15.36	356.18	38.16	-41.0	-43.1	17.8	0.00e+00	0	44	0	0	54	4381
2026-01-02 09:48:16.36	356.06	37.93	-41.0	-43.1	17.9	0.00e+00	0	43	0	0	53	4629
2026-01-02 09:48:17.36	355.93	37.69	-40.8	-42.8	18.2	0.00e+00	0	44	0	0	53	4469
2026-01-02 09:48:18.36	355.81	37.46	-40.5	-42.4	18.5	0.00e+00	0	44	0	0	53	4276
2026-01-02 09:48:19.35	355.69	37.23	-40.3	-42.3	18.7	0.00e+00	0	43	0	0	52	4451
2026-01-02 09:48:20.35	355.57	37.00	-40.3	-42.2	18.7	0.00e+00	0	44	0	0	52	4393
2026-01-02 09:48:21.35	355.46	36.77	-40.1	-42.0	18.8	0.00e+00	0	43	0	0	52	4317
2026-01-02 09:48:22.35	355.34	36.54	-40.1	-42.0	18.8	0.00e+00	0	44	0	0	52	4315
2026-01-02 09:48:23.35	355.23	36.31	-40.2	-42.0	18.7	0.00e+00	0	44	0	0	52	4340
2026-01-02 09:48:24.35	355.12	36.09	-40.4	-42.3	18.5	0.00e+00	0	44	0	0	52	4475
2026-01-02 09:48:25.34	355.01	35.87	-40.5	-42.4	18.4	0.00e+00	0	44	0	0	52	4535
2026-01-02 09:48:26.34	354.90	35.64	-40.7	-42.6	18.3	0.00e+00	0	44	0	0	52	4650
2026-01-02 09:48:27.34	354.79	35.42	-40.9	-42.8	18.1	0.00e+00	0	44	0	0	52	4757
2026-01-02 09:48:28.34	354.69	35.20	-40.9	-42.9	18.1	0.00e+00	0	44	0	0	52	4788
2026-01-02 09:48:29.34	354.58	34.99	-41.0	-43.0	18.0	0.00e+00	0	44	0	0	52	4839
2026-01-02 09:48:30.33	354.48	34.77	-41.0	-43.0	18.0	0.00e+00	0	44	0	0	52	4852
2026-01-02 09:48:31.33	354.38	34.56	-41.1	-43.1	17.8	0.00e+00	0	44	0	0	52	4914
2026-01-02 09:48:32.33	354.28	34.34	-41.1	-43.2	17.8	0.00e+00	0	44	0	0	52	4932
2026-01-02 09:48:33.33	354.18	34.13	-40.7	-42.7	18.1	0.00e+00	0	44	0	0	52	4703
2026-01-02 09:48:34.33	354.08	33.92	-40.7	-42.6	18.2	0.00e+00	0	44	0	0	52	4647
2026-01-02 09:48:35.33	353.99	33.71	-40.6	-42.6	18.3	0.00e+00	0	44	0	0	52	4622
2026-01-02 09:48:36.33	353.89	33.50	-40.5	-42.4	18.4	0.00e+00	0	44	0	0	52	4525
2026-01-02 09:48:37.32	353.80	33.30	-40.5	-42.4	18.4	0.00e+00	0	43	0	0	52	4544
2026-01-02 09:48:38.32	353.71	33.09	-40.5	-42.5	18.3	0.00e+00	0	44	0	0	52	4572
2026-01-02 09:48:39.32	353.61	32.89	-40.6	-42.5	18.3	0.00e+00	0	44	0	0	52	4589
2026-01-02 09:48:40.32	353.52	32.68	-40.5	-42.5	18.4	0.00e+00	0	44	0	0	52	4578
2026-01-02 09:48:41.32	353.43	32.48	-40.6	-42.5	18.3	0.00e+00	0	44	0	0	52	4596
2026-01-02 09:48:42.32	353.35	32.28	-40.7	-42.7	18.2	0.00e+00	0	44	0	0	52	4669
2026-01-02 09:48:43.32	353.26	32.08	-40.6	-42.6	18.3	0.00e+00	0	44	0	0	52	4621
2026-01-02 09:48:44.31	353.18	31.89	-40.7	-42.6	18.2	0.00e+00	0	44	0	0	52	4631
2026-01-02 09:48:45.31	353.09	31.69	-40.7	-42.6	18.2	0.00e+00	0	44	0	0	52	4631
2026-01-02 09:48:46.31	353.01	31.49	-40.6	-42.5	18.4	0.00e+00	0	44	0	0	52	4563
2026-01-02 09:48:47.30	352.93	31.30	-40.5	-42.3	18.5	0.00e+00	0	43	0	0	52	4481
2026-01-02 09:48:48.30	352.84	31.11	-40.3	-42.1	18.7	0.00e+00	0	44	0	0	52	4387
2026-01-02 09:48:49.30	352.76	30.92	-40.0	-41.8	19.0	0.00e+00	0	43	0	0	52	4241
2026-01-02 09:48:50.30	352.68	30.73	-39.9	-41.7	19.2	0.00e+00	0	44	0	0	51	4423
2026-01-02 09:48:51.30	352.61	30.54	-39.9	-41.7	19.1	0.00e+00	0	44	0	0	51	4428
2026-01-02 09:48:52.30	352.53	30.35	-39.8	-41.6	19.2	0.00e+00	0	44	0	0	51	4352
2026-01-02 09:48:53.30	352.45	30.16	-39.6	-41.4	19.4	0.00e+00	0	44	0	0	51	4248
2026-01-02 09:48:54.30	352.38	29.97	-39.6	-41.4	19.4	0.00e+00	0	44	0	0	51	4246
2026-01-02 09:48:55.29	352.30	29.79	-39.4	-41.2	19.5	0.00e+00	0	43	0	0	50	4408
2026-01-02 09:48:56.29	352.23	29.61	-39.4	-41.1	19.6	0.00e+00	0	44	0	0	50	4369
2026-01-02 09:48:57.29	352.16	29.42	-39.2	-40.9	19.8	0.00e+00	0	44	0	0	50	4285
2026-01-02 09:48:58.28	352.08	29.25	-39.2	-40.9	19.9	0.00e+00	0	44	0	0	50	4251
2026-01-02 09:48:59.28	352.01	29.06	-39.4	-41.1	19.7	0.00e+00	0	44	0	0	50	4346
2026-01-02 09:49:00.28	351.94	28.89	-39.2	-40.9	19.9	0.00e+00	0	43	0	0	50	4267
2026-01-02 09:49:01.28	351.87	28.71	-39.3	-41.0	19.8	0.00e+00	0	44	0	0	50	4318
2026-01-02 09:49:02.28	351.80	28.53	-39.3	-41.0	19.8	0.00e+00	0	44	0	0	50	4339
2026-01-02 09:49:03.27	351.74	28.36	-39.4	-41.1	19.8	0.00e+00	0	43	0	0	50	4375
2026-01-02 09:49:04.27	351.67	28.18	-39.4	-41.2	19.7	0.00e+00	0	44	0	0	50	4415
2026-01-02 09:49:05.27	351.60	28.01	-39.5	-41.3	19.7	0.00e+00	0	43	0	0	50	4449
2026-01-02 09:49:06.27	351.54	27.83	-39.5	-41.2	19.7	0.00e+00	0	44	0	0	50	4417
2026-01-02 09:49:07.27	351.47	27.66	-39.4	-41.2	19.7	0.00e+00	0	44	0	0	50	4398
2026-01-02 09:49:08.27	351.41	27.49	-39.5	-41.2	19.7	0.00e+00	0	43	0	0	50	4419
2026-01-02 09:49:09.27	351.35	27.32	-39.5	-41.2	19.6	0.00e+00	0	44	0	0	50	4439
2026-01-02 09:49:10.26	351.28	27.15	-39.4	-41.1	19.8	0.00e+00	0	43	0	0	50	4358
2026-01-02 09:49:11.26	351.22	26.99	-39.4	-41.1	19.8	0.00e+00	0	43	0	0	50	4381
2026-01-02 09:49:12.26	351.16	26.82	-39.2	-41.0	19.9	0.00e+00	0	43	0	0	50	4307
2026-01-02 09:49:13.26	351.10	26.65	-39.3	-41.0	19.8	0.00e+00	0	44	0	0	50	4331
2026-01-02 09:49:14.26	351.04	26.49	-39.2	-40.9	19.9	0.00e+00	0	44	0	0	50	4288
2026-01-02 09:49:15.26	350.98	26.32	-39.1	-40.9	20.0	0.00e+00	0	43	0	0	50	4274
2026-01-02 09:49:16.25	350.92	26.16	-39.2	-41.0	19.9	0.00e+00	0	43	0	0	50	4310
2026-01-02 09:49:17.25	350.86	26.00	-39.2	-41.0	19.9	0.00e+00	0	43	0	0	50	4316
2026-01-02 09:49:18.25	350.81	25.84	-39.3	-41.1	19.8	0.00e+00	0	43	0	0	50	4344
2026-01-02 09:49:19.25	350.75	25.68	-39.3	-41.1	19.8	0.00e+00	0	44	0	0	50	4370
2026-01-02 09:49:20.24	350.69	25.52	-39.4	-41.2	19.7	0.00e+00	0	43	0	0	50	4399
2026-01-02 09:49:21.25	350.64	25.36	-39.5	-41.3	19.6	0.00e+00	0	44	0	0	50	4447
2026-01-02 09:49:22.24	350.58	25.21	-39.6	-41.4	19.5	0.00e+00	0	43	0	0	50	4532
2026-01-02 09:49:23.24	350.53	25.05	-39.7	-41.4	19.5	0.00e+00	0	44	0	0	50	4545
2026-01-02 09:49:24.23	350.47	24.90	-39.8	-41.6	19.3	0.00e+00	0	44	0	0	50	4630
2026-01-02 09:49:25.23	350.42	24.74	-39.8	-41.6	19.3	0.00e+00	0	43	0	0	50	4640
2026-01-02 09:49:26.23	350.37	24.59	-39.9	-41.8	19.2	0.00e+00	0	44	0	0	50	4713
2026-01-02 09:49:27.23	350.32	24.44	-39.9	-41.8	19.1	0.00e+00	0	43	0	0	50	4730
2026-01-02 09:49:28.23	350.26	24.28	-40.0	-41.9	19.0	0.00e+00	0	44	0	0	50	4774
2026-01-02 09:49:29.23	350.21	24.13	-40.1	-42.0	18.9	0.00e+00	0	44	0	0	50	4843
2026-01-02 09:49:30.23	350.16	23.98	-40.0	-42.0	18.9	0.00e+00	0	44	0	0	50	4832
2026-01-02 09:49:31.23	350.11	23.83	-40.0	-42.0	18.9	0.00e+00	0	43	0	0	50	4836
2026-01-02 09:49:32.23	350.06	23.68	-40.1	-42.0	18.9	0.00e+00	0	44	0	0	50	4860
2026-01-02 09:49:33.23	350.01	23.54	-40.1	-42.1	18.9	0.00e+00	0	44	0	0	51	4601
2026-01-02 09:49:34.22	349.97	23.39	-40.0	-41.9	19.0	0.00e+00	0	44	0	0	51	4537
2026-01-02 09:49:35.22	349.92	23.24	-39.9	-41.9	19.0	0.00e+00	0	43	0	0	51	4500
2026-01-02 09:49:36.22	349.87	23.10	-39.8	-41.7	19.1	0.00e+00	0	44	0	0	51	4435
2026-01-02 09:49:37.22	349.82	22.95	-39.8	-41.7	19.2	0.00e+00	0	44	0	0	51	4402
2026-01-02 09:49:38.22	349.78	22.81	-39.7	-41.6	19.3	0.00e+00	0	43	0	0	51	4342
2026-01-02 09:49:39.21	349.73	22.67	-39.7	-41.5	19.3	0.00e+00	0	44	0	0	51	4310
2026-01-02 09:49:40.21	349.68	22.53	-39.6	-41.4	19.3	0.00e+00	0	43	0	0	51	4269
2026-01-02 09:49:41.21	349.64	22.38	-39.7	-41.5	19.3	0.00e+00	0	43	0	0	51	4296
2026-01-02 09:49:42.21	349.59	22.24	-39.6	-41.3	19.4	0.00e+00	0	44	0	0	51	4220
2026-01-02 09:49:43.20	349.55	22.10	-39.5	-41.2	19.5	0.00e+00	0	44	0	0	50	4429
2026-01-02 09:49:44.20	349.51	21.97	-39.5	-41.2	19.5	0.00e+00	0	44	0	0	50	4436
2026-01-02 09:49:45.20	349.46	21.83	-39.3	-41.0	19.6	0.00e+00	0	43	0	0	50	4338
2026-01-02 09:49:46.19	349.42	21.69	-39.3	-41.0	19.7	0.00e+00	0	43	0	0	50	4317
2026-01-02 09:49:47.20	349.38	21.55	-39.4	-41.1	19.6	0.00e+00	0	44	0	0	50	4375
2026-01-02 09:49:48.20	349.33	21.42	-39.1	-40.8	19.8	0.00e+00	0	44	0	0	50	4234
2026-01-02 09:49:49.19	349.29	21.28	-39.1	-40.8	19.8	0.00e+00	0	43	0	0	50	4220
2026-01-02 09:49:50.20	349.25	21.14	-39.1	-40.8	19.8	0.00e+00	0	43	0	0	50	4230
2026-01-02 09:49:51.19	349.21	21.01	-39.0	-40.7	19.9	0.00e+00	0	44	0	0	50	4179
2026-01-02 09:49:52.19	349.17	20.88	-39.1	-40.8	19.9	0.00e+00	0	43	0	0	50	4215
2026-01-02 09:49:53.19	349.13	20.75	-39.1	-40.8	19.9	0.00e+00	0	44	0	0	50	4212
2026-01-02 09:49:54.18	349.09	20.61	-39.1	-40.9	19.8	0.00e+00	0	44	0	0	50	4251
2026-01-02 09:49:55.18	349.05	20.48	-39.0	-40.8	19.9	0.00e+00	0	43	0	0	50	4207
2026-01-02 09:49:56.18	349.01	20.35	-38.9	-40.7	20.0	0.00e+00	0	44	0	0	49	4401
2026-01-02 09:49:57.18	348.97	20.22	-38.9	-40.7	20.0	0.00e+00	0	43	0	0	49	4393
2026-01-02 09:49:58.18	348.93	20.09	-39.0	-40.8	19.9	0.00e+00	0	43	0	0	49	4454
2026-01-02 09:49:59.17	348.89	19.97	-39.0	-40.8	19.9	0.00e+00	0	43	0	0	49	4458
2026-01-02 09:50:00.17	348.86	19.84	-38.9	-40.7	20.0	0.00e+00	0	43	0	0	49	4432
2026-01-02 09:50:01.17	348.82	19.71	-38.9	-40.8	19.9	0.00e+00	0	43	0	0	49	4454
2026-01-02 09:50:02.16	348.78	19.58	-38.9	-40.8	19.9	0.00e+00	0	44	0	0	49	4460
2026-01-02 09:50:03.16	348.74	19.46	-39.0	-40.8	19.9	0.00e+00	0	44	0	0	49	4486
2026-01-02 09:50:04.15	348.71	19.33	-39.0	-40.9	19.9	0.00e+00	0	43	0	0	49	4509
2026-01-02 09:50:05.15	348.67	19.21	-39.1	-41.0	19.8	0.00e+00	0	43	0	0	49	4560
2026-01-02 09:50:06.15	348.64	19.08	-39.2	-41.0	19.7	0.00e+00	0	44	0	0	49	4593
2026-01-02 09:50:07.15	348.60	18.96	-39.2	-41.0	19.8	0.00e+00	0	43	0	0	49	4572
2026-01-02 09:50:08.14	348.57	18.84	-39.2	-41.0	19.8	0.00e+00	0	43	0	0	49	4569
2026-01-02 09:50:09.13	348.53	18.72	-39.2	-41.1	19.7	0.00e+00	0	44	0	0	49	4607
2026-01-02 09:50:10.13	348.50	18.59	-39.3	-41.1	19.7	0.00e+00	0	44	0	0	49	4627
2026-01-02 09:50:11.13	348.46	18.47	-39.3	-41.2	19.6	0.00e+00	0	44	0	0	49	4663
2026-01-02 09:50:12.12	348.43	18.35	-39.4	-41.3	19.5	0.00e+00	0	44	0	0	49	4707
2026-01-02 09:50:13.12	348.39	18.23	-39.4	-41.3	19.5	0.00e+00	0	44	0	0	49	4735
2026-01-02 09:50:14.12	348.36	18.11	-39.4	-41.3	19.5	0.00e+00	0	44	0	0	49	4753
2026-01-02 09:50:15.12	348.33	17.99	-39.4	-41.4	19.4	0.00e+00	0	44	0	0	49	4785
2026-01-02 09:50:16.11	348.30	17.88	-39.5	-41.5	19.3	0.00e+00	0	44	0	0	49	4852
2026-01-02 09:50:17.11	348.26	17.76	-39.4	-41.5	19.3	0.00e+00	0	43	0	0	49	4830
2026-01-02 09:50:18.11	348.23	17.64	-39.5	-41.5	19.3	0.00e+00	0	43	0	0	49	4863
2026-01-02 09:50:19.10	348.20	17.53	-39.5	-41.5	19.3	0.00e+00	0	43	0	0	49	4858
2026-01-02 09:50:20.10	348.17	17.41	-39.6	-41.6	19.2	0.00e+00	0	44	0	0	49	4908
2026-01-02 09:50:21.10	348.14	17.29	-39.7	-41.7	19.1	0.00e+00	0	43	0	0	50	4680
2026-01-02 09:50:22.09	348.11	17.18	-39.8	-41.8	19.1	0.00e+00	0	43	0	0	50	4716
2026-01-02 09:50:23.09	348.07	17.06	-40.0	-41.9	18.9	0.00e+00	0	44	0	0	50	4812
2026-01-02 09:50:24.09	348.04	16.95	-40.0	-41.9	19.0	0.00e+00	0	44	0	0	50	4784
2026-01-02 09:50:25.09	348.01	16.84	-40.1	-42.0	18.8	0.00e+00	0	44	0	0	50	4849
2026-01-02 09:50:26.08	347.98	16.72	-40.1	-42.0	18.8	0.00e+00	0	44	0	0	50	4870
2026-01-02 09:50:27.08	347.95	16.61	-40.3	-42.2	18.7	0.00e+00	0	44	0	0	51	4665
2026-01-02 09:50:28.08	347.92	16.50	-40.3	-42.2	18.6	0.00e+00	0	44	0	0	51	4690
2026-01-02 09:50:29.08	347.89	16.39	-40.3	-42.2	18.6	0.00e+00	0	43	0	0	51	4701
2026-01-02 09:50:30.08	347.87	16.28	-40.3	-42.3	18.6	0.00e+00	0	44	0	0	51	4712
2026-01-02 09:50:31.07	347.84	16.17	-40.4	-42.4	18.5	0.00e+00	0	43	0	0	51	4768
2026-01-02 09:50:32.06	347.81	16.06	-40.5	-42.5	18.3	0.00e+00	0	43	0	0	51	4867
2026-01-02 09:50:33.06	347.78	15.95	-40.4	-42.4	18.4	0.00e+00	0	43	0	0	51	4801
2026-01-02 09:50:34.06	347.75	15.84	-40.5	-42.5	18.3	0.00e+00	0	43	0	0	51	4853
2026-01-02 09:50:35.06	347.72	15.73	-40.5	-42.6	18.3	0.00e+00	0	43	0	0	51	4872
2026-01-02 09:50:36.06	347.70	15.62	-40.6	-42.6	18.2	0.00e+00	0	44	0	0	51	4923
2026-01-02 09:50:37.05	347.67	15.52	-40.5	-42.6	18.2	0.00e+00	0	43	0	0	51	4910
2026-01-02 09:50:38.05	347.64	15.41	-40.6	-42.6	18.2	0.00e+00	0	44	0	0	51	4920
2026-01-02 09:50:39.04	347.61	15.30	-40.5	-42.6	18.2	0.00e+00	0	43	0	0	51	4895
2026-01-02 09:50:40.04	347.59	15.20	-40.6	-42.7	18.2	0.00e+00	0	44	0	0	51	4935
2026-01-02 09:50:41.04	347.56	15.09	-40.6	-42.6	18.2	0.00e+00	0	43	0	0	52	4620
2026-01-02 09:50:42.04	347.54	14.98	-40.6	-42.6	18.1	0.00e+00	0	44	0	0	52	4645
2026-01-02 09:50:43.03	347.51	14.88	-40.6	-42.7	18.1	0.00e+00	0	44	0	0	52	4662
2026-01-02 09:50:44.03	347.48	14.78	-40.6	-42.7	18.1	0.00e+00	0	44	0	0	52	4653
2026-01-02 09:50:45.03	347.46	14.67	-40.7	-42.7	18.0	0.00e+00	0	44	0	0	52	4704
2026-01-02 09:50:46.02	347.43	14.57	-40.7	-42.7	18.0	0.00e+00	0	44	0	0	52	4689
2026-01-02 09:50:47.02	347.41	14.47	-40.6	-42.7	18.1	0.00e+00	0	44	0	0	52	4652
2026-01-02 09:50:48.01	347.38	14.36	-40.6	-42.6	18.1	0.00e+00	0	44	0	0	52	4639
2026-01-02 09:50:49.01	347.36	14.26	-40.6	-42.7	18.0	0.00e+00	0	44	0	0	52	4699
2026-01-02 09:50:50.00	347.33	14.16	-40.5	-42.7	18.0	0.00e+00	0	44	0	0	52	4679
2026-01-02 09:50:51.00	347.31	14.06	-40.6	-42.8	18.0	0.00e+00	0	43	0	0	52	4715
2026-01-02 09:50:52.00	347.28	13.96	-40.5	-42.7	18.0	0.00e+00	0	43	0	0	52	4688
2026-01-02 09:50:53.00	347.26	13.86	-40.3	-42.6	18.0	0.00e+00	0	43	0	0	52	4635
2026-01-02 09:50:53.99	347.24	13.76	-40.3	-42.7	18.0	0.00e+00	0	44	0	0	52	4656
2026-01-02 09:50:54.99	347.21	13.66	-40.4	-42.8	17.9	0.00e+00	0	44	0	0	52	4715
2026-01-02 09:50:55.99	347.19	13.56	-40.3	-42.6	18.1	0.00e+00	0	43	0	0	52	4638
2026-01-02 09:50:56.99	347.16	13.46	-40.4	-42.7	18.0	0.00e+00	0	43	0	0	52	4701
2026-01-02 09:50:57.99	347.14	13.36	-40.3	-42.7	18.0	0.00e+00	0	44	0	0	52	4666
2026-01-02 09:50:58.98	347.12	13.26	-40.4	-42.8	17.9	0.00e+00	0	44	0	0	52	4736
2026-01-02 09:50:59.98	347.10	13.16	-40.3	-42.7	18.0	0.00e+00	0	43	0	0	52	4657
2026-01-02 09:51:00.98	347.07	13.07	-40.3	-42.6	18.1	0.00e+00	0	44	0	0	52	4631
2026-01-02 09:51:01.98	347.05	12.97	-40.4	-42.7	18.0	0.00e+00	0	44	0	0	52	4686
2026-01-02 09:51:02.98	347.03	12.87	-40.3	-42.7	18.0	0.00e+00	0	44	0	0	52	4657
2026-01-02 09:51:03.98	347.01	12.78	-40.2	-42.6	18.1	0.00e+00	0	44	0	0	52	4599
2026-01-02 09:51:04.98	346.98	12.68	-40.2	-42.6	18.1	0.00e+00	0	44	0	0	52	4601
2026-01-02 09:51:05.98	346.96	12.58	-40.3	-42.6	18.0	0.00e+00	0	43	0	0	52	4650
2026-01-02 09:51:06.98	346.94	12.49	-40.2	-42.5	18.1	0.00e+00	0	44	0	0	52	4598
2026-01-02 09:51:07.97	346.92	12.40	-40.2	-42.5	18.1	0.00e+00	0	44	0	0	52	4589
2026-01-02 09:51:08.97	346.90	12.30	-40.1	-42.5	18.1	0.00e+00	0	43	0	0	52	4590
2026-01-02 09:51:09.97	346.88	12.21	-40.0	-42.5	18.2	0.00e+00	0	44	0	0	52	4551
2026-01-02 09:51:10.97	346.86	12.11	-40.0	-42.5	18.2	0.00e+00	0	44	0	0	51	4867
2026-01-02 09:51:11.96	346.84	12.02	-40.0	-42.5	18.2	0.00e+00	0	44	0	0	51	4854
2026-01-02 09:51:12.96	346.81	11.93	-39.9	-42.6	18.1	0.00e+00	0	44	0	0	51	4891
2026-01-02 09:51:13.95	346.79	11.84	-40.1	-42.8	18.0	0.00e+00	0	44	0	0	51	5016
2026-01-02 09:51:14.95	346.77	11.74	-39.9	-42.7	18.1	0.00e+00	0	44	0	0	51	4939
2026-01-02 09:51:15.95	346.75	11.65	-40.0	-42.8	18.0	0.00e+00	0	44	0	0	51	4988
2026-01-02 09:51:16.94	346.73	11.56	-40.0	-42.7	18.0	0.00e+00	0	44	0	0	51	4979
2026-01-02 09:51:17.94	346.71	11.47	-40.1	-42.8	17.9	0.00e+00	0	44	0	0	51	5037
2026-01-02 09:51:18.94	346.69	11.38	-40.3	-43.0	17.8	0.00e+00	0	44	0	0	51	5104
2026-01-02 09:51:19.93	346.67	11.29	-40.2	-42.8	18.0	0.00e+00	0	44	0	0	51	5021
2026-01-02 09:51:20.93	346.65	11.20	-40.3	-42.9	17.8	0.00e+00	0	44	0	0	51	5099
2026-01-02 09:51:21.93	346.64	11.11	-40.1	-42.7	18.0	0.00e+00	0	44	0	0	51	4968
2026-01-02 09:51:22.92	346.62	11.02	-40.1	-42.7	18.0	0.00e+00	0	44	0	0	51	4929
2026-01-02 09:51:23.91	346.60	10.93	-40.1	-42.7	18.0	0.00e+00	0	43	0	0	51	4942
2026-01-02 09:51:24.91	346.58	10.84	-40.1	-42.8	18.0	0.00e+00	0	44	0	0	51	4986
2026-01-02 09:51:25.90	346.56	10.75	-40.2	-42.8	17.9	0.00e+00	0	44	0	0	51	5034
2026-01-02 09:51:26.90	346.54	10.66	-40.1	-42.7	18.0	0.00e+00	0	44	0	0	51	4974
2026-01-02 09:51:27.90	346.52	10.58	-40.0	-42.7	18.0	0.00e+00	0	44	0	0	51	4937
2026-01-02 09:51:28.90	346.50	10.49	-40.1	-42.8	17.9	0.00e+00	0	44	0	0	51	5007
2026-01-02 09:51:29.89	346.49	10.40	-40.2	-42.9	17.8	0.00e+00	0	44	0	0	51	5071
2026-01-02 09:51:30.90	346.47	10.31	-40.1	-42.9	17.9	0.00e+00	0	44	0	0	51	5043
2026-01-02 09:51:31.89	346.45	10.23	-40.1	-43.0	17.7	0.00e+00	0	44	0	0	51	5126
2026-01-02 09:51:32.89	346.43	10.14	-39.9	-42.9	17.8	0.00e+00	0	44	0	0	51	5058
2026-01-02 09:51:33.88	346.42	10.05	-39.9	-42.9	17.7	0.00e+00	0	44	0	0	51	5100
2026-01-02 09:51:34.88	346.40	9.97	-39.8	-42.9	17.8	0.00e+00	0	44	0	0	51	5061
2026-01-02 09:51:35.87	346.38	9.88	-39.7	-42.8	17.8	0.00e+00	0	44	0	0	51	5017
2026-01-02 09:51:36.86	346.36	9.80	-39.8	-42.9	17.8	0.00e+00	0	44	0	0	51	5060
2026-01-02 09:51:37.86	346.35	9.71	-39.8	-42.9	17.7	0.00e+00	0	44	0	0	51	5087
2026-01-02 09:51:38.85	346.33	9.63	-39.7	-42.9	17.7	0.00e+00	0	44	0	0	51	5079
2026-01-02 09:51:39.85	346.31	9.54	-39.7	-43.0	17.7	0.00e+00	0	44	0	0	51	5112
2026-01-02 09:51:40.85	346.30	9.46	-39.6	-42.9	17.7	0.00e+00	0	44	0	0	51	5082
2026-01-02 09:51:41.84	346.28	9.38	-39.6	-42.9	17.7	0.00e+00	0	44	0	0	51	5086
2026-01-02 09:51:42.84	346.26	9.29	-39.6	-43.0	17.7	0.00e+00	0	44	0	0	51	5109
2026-01-02 09:51:43.84	346.25	9.21	-39.7	-43.0	17.6	0.00e+00	0	44	0	0	51	5134
2026-01-02 09:51:44.84	346.23	9.13	-39.8	-43.2	17.4	0.00e+00	0	44	0	0	51	5250
2026-01-02 09:51:45.84	346.21	9.04	-39.8	-43.2	17.4	0.00e+00	0	44	0	0	51	5246
2026-01-02 09:51:46.84	346.20	8.96	-43.4	-52.2	8.8	1.55e-03	0	44	0	0	57	10436
2026-01-02 09:51:47.83	346.18	8.88	-47.1	-62.2	3.8	1.49e+00	0	44	104	0	64	22153
2026-01-02 09:51:48.83	346.16	8.80	-46.6	-62.2	3.8	1.49e+00	0	44	104	0	65	20924
2026-01-02 09:51:49.83	346.15	8.72	-49.3	-62.5	3.9	1.49e+00	0	44	104	0	69	17179
2026-01-02 09:51:50.83	346.13	8.63	-47.8	-62.4	3.8	1.49e+00	0	44	104	0	67	19054
2026-01-02 09:51:51.82	346.12	8.55	-49.2	-62.7	3.8	1.49e+00	0	44	104	0	69	17645
2026-01-02 09:51:52.82	346.10	8.47	-49.3	-62.7	3.8	1.49e+00	0	44	104	0	69	17605
2026-01-02 09:51:53.81	346.09	8.39	-49.0	-62.8	3.8	1.49e+00	0	44	104	0	69	17686
2026-01-02 09:51:54.81	346.07	8.31	-49.3	-62.8	3.8	1.49e+00	0	44	104	0	69	17698
2026-01-02 09:51:55.81	346.06	8.23	-48.6	-62.8	3.8	1.49e+00	0	44	104	0	69	17734
2026-01-02 09:51:56.81	346.04	8.15	-49.6	-62.8	3.8	1.49e+00	0	44	104	0	69	17739
2026-01-02 09:51:57.80	346.03	8.07	-49.4	-62.8	3.8	1.49e+00	0	44	104	0	69	17725
2026-01-02 09:51:58.80	346.01	7.99	-49.7	-62.8	3.8	1.49e+00	0	44	104	0	70	16825
2026-01-02 09:51:59.80	346.00	7.91	-49.7	-62.8	3.8	1.49e+00	0	44	104	0	70	16766
2026-01-02 09:52:00.79	345.98	7.83	-49.6	-62.8	3.8	1.49e+00	0	44	104	0	70	16792
2026-01-02 09:52:01.78	345.97	7.76	-49.6	-62.8	3.8	1.49e+00	0	43	104	0	70	16845
2026-01-02 09:52:02.78	345.95	7.68	-49.4	-62.8	3.8	1.49e+00	0	44	104	0	70	16771
2026-01-02 09:52:03.78	345.94	7.60	-49.7	-62.8	3.8	1.49e+00	0	43	104	0	70	16758
2026-01-02 09:52:04.78	345.93	7.52	-49.7	-62.8	3.8	1.49e+00	0	44	104	0	70	16836
2026-01-02 09:52:05.77	345.91	7.44	-49.8	-62.8	3.8	1.49e+00	0	43	104	0	70	16772
2026-01-02 09:52:06.77	345.90	7.37	-49.8	-62.8	3.8	1.49e+00	0	43	104	0	70	16784
2026-01-02 09:52:07.76	345.88	7.29	-49.8	-62.7	3.8	1.49e+00	0	44	104	0	70	16678
2026-01-02 09:52:08.76	345.87	7.21	-49.8	-62.7	3.8	1.49e+00	0	44	104	0	70	16691
2026-01-02 09:52:09.76	345.86	7.14	-49.6	-62.8	3.8	1.49e+00	0	44	104	0	70	16719
2026-01-02 09:52:10.76	345.84	7.06	-49.7	-62.7	3.8	1.49e+00	0	43	104	0	70	16679
2026-01-02 09:52:11.76	345.83	6.98	-49.7	-62.7	3.8	1.49e+00	0	44	104	0	70	16653
2026-01-02 09:52:12.76	345.82	6.91	-49.6	-62.8	3.8	1.49e+00	0	44	104	0	70	16714
2026-01-02 09:52:13.75	345.80	6.83	-49.5	-62.8	3.8	1.49e+00	0	44	104	0	70	16710
2026-01-02 09:52:14.75	345.79	6.75	-49.5	-62.7	3.8	1.49e+00	0	44	104	0	70	16660
2026-01-02 09:52:15.75	345.78	6.68	-49.5	-62.7	3.8	1.49e+00	0	44	104	0	70	16607
2026-01-02 09:52:16.75	345.76	6.60	-49.5	-62.7	3.8	1.49e+00	0	44	104	0	70	16682
2026-01-02 09:52:17.75	345.75	6.53	-49.5	-62.7	3.8	1.49e+00	0	44	104	0	70	16626
2026-01-02 09:52:18.75	345.74	6.45	-49.5	-62.7	3.8	1.49e+00	0	44	104	0	70	16662
