passes_logs/2026/01/02/T1/T1__20260102_100914_SUOMI_NPP_rec.log

#Pass ID: 20260102_100914_SUOMI NPP
#Satellite: SUOMI NPP
#Configuration: NPP
#almurnet v.1.7.20251203
#Start time: 2026-01-02 10:09:15

#Version: 2.0.20230620
#Station: T1
#Location: 37.570604 lon 55.790049 lat
#TLE: 1 37849U 11061A   26001.07732418  .00000182  00000+0  10735-3 0  9990
#TLE: 2 37849  98.7795 303.2470 0002580  87.2016 272.9455 14.19520779734739

#Time	Az	El	Level	Level2	SNR	BER	BlckErr	Temp	State	Recorded	gain1	gain2
2026-01-02 10:09:15.55	165.19	5.08	-46.7	-64.4	3.8	1.49e+00	0	41	0	0	65	26914
2026-01-02 10:09:16.54	165.20	5.15	-48.3	-64.0	3.8	1.49e+00	0	41	104	0	67	22988
2026-01-02 10:09:17.54	165.21	5.22	-48.4	-64.1	3.8	1.49e+00	0	41	104	0	67	23070
2026-01-02 10:09:18.54	165.22	5.29	-48.2	-64.0	3.8	1.49e+00	0	41	104	0	67	22919
2026-01-02 10:09:19.53	165.23	5.36	-48.3	-64.0	3.8	1.49e+00	0	41	104	0	67	22993
2026-01-02 10:09:20.53	165.24	5.44	-48.3	-64.1	3.8	1.49e+00	0	41	104	0	67	23063
2026-01-02 10:09:21.53	165.26	5.51	-48.4	-64.1	3.8	1.49e+00	0	41	104	0	67	23217
2026-01-02 10:09:22.53	165.27	5.58	-48.2	-64.1	3.8	1.49e+00	0	41	104	0	67	23241
2026-01-02 10:09:23.52	165.28	5.66	-48.3	-64.1	3.8	1.49e+00	0	41	104	0	67	23291
2026-01-02 10:09:24.52	165.29	5.73	-48.3	-64.2	3.8	1.49e+00	0	41	104	0	67	23448
2026-01-02 10:09:25.52	165.30	5.80	-48.3	-64.2	3.8	1.49e+00	0	41	104	0	67	23433
2026-01-02 10:09:26.52	165.31	5.88	-48.2	-64.2	3.8	1.49e+00	0	41	104	0	67	23407
2026-01-02 10:09:27.52	165.32	5.95	-48.2	-64.2	3.8	1.49e+00	0	42	104	0	67	23342
2026-01-02 10:09:28.52	165.33	6.03	-48.3	-64.1	3.8	1.49e+00	0	42	104	0	67	23109
2026-01-02 10:09:29.52	165.34	6.10	-48.2	-64.0	3.8	1.49e+00	0	42	104	0	67	22855
2026-01-02 10:09:30.52	165.35	6.18	-48.2	-63.8	3.8	1.49e+00	0	42	104	0	67	22411
2026-01-02 10:09:31.51	165.36	6.25	-48.2	-63.6	3.8	1.49e+00	0	42	104	0	67	21996
2026-01-02 10:09:32.51	165.37	6.32	-48.2	-63.6	3.8	1.49e+00	0	42	104	0	67	21785
2026-01-02 10:09:33.51	165.38	6.40	-48.2	-63.4	3.8	1.49e+00	0	42	104	0	67	21466
2026-01-02 10:09:34.51	165.40	6.48	-48.2	-63.3	3.8	1.49e+00	0	42	104	0	67	21069
2026-01-02 10:09:35.50	165.41	6.55	-48.2	-63.3	3.8	1.49e+00	0	42	104	0	67	21023
2026-01-02 10:09:36.50	165.42	6.63	-48.1	-63.2	3.8	1.49e+00	0	42	104	0	67	20987
2026-01-02 10:09:37.49	165.43	6.70	-48.1	-63.2	3.8	1.49e+00	0	42	104	0	67	20789
2026-01-02 10:09:38.49	165.44	6.78	-48.1	-63.1	3.8	1.49e+00	0	42	104	0	67	20767
2026-01-02 10:09:39.49	165.45	6.86	-48.2	-63.1	3.8	1.49e+00	0	42	104	0	67	20609
2026-01-02 10:09:40.49	165.46	6.93	-48.1	-63.0	3.8	1.49e+00	0	42	104	0	67	20398
2026-01-02 10:09:41.48	165.47	7.01	-48.2	-62.8	3.8	1.49e+00	0	42	104	0	67	20031
2026-01-02 10:09:42.48	165.49	7.09	-48.1	-62.7	3.8	1.49e+00	0	42	104	0	67	19635
2026-01-02 10:09:43.48	165.50	7.17	-48.2	-62.3	3.8	1.49e+00	0	42	104	0	67	18809
2026-01-02 10:09:44.48	165.51	7.24	-48.1	-61.7	4.0	1.49e+00	0	42	104	0	67	17656
2026-01-02 10:09:45.48	165.52	7.32	-48.0	-61.1	4.1	1.45e+00	0	42	0	0	67	16486
2026-01-02 10:09:46.48	165.53	7.40	-48.0	-60.5	4.2	1.41e+00	0	42	0	0	67	15334
2026-01-02 10:09:47.47	165.54	7.48	-47.9	-59.6	4.5	1.13e+00	0	42	0	1048576	67	13772
2026-01-02 10:09:48.47	165.56	7.56	-47.9	-58.9	4.8	8.57e-01	0	42	0	2097152	67	12798
2026-01-02 10:09:49.46	165.57	7.64	-47.8	-57.9	5.4	6.31e-01	0	42	0	4194304	67	11391
2026-01-02 10:09:50.46	165.58	7.71	-47.6	-57.0	6.1	4.01e-01	0	42	0	6291456	67	10209
2026-01-02 10:09:51.46	165.59	7.79	-47.5	-56.2	6.8	2.04e-01	0	42	0	8388608	66	9850
2026-01-02 10:09:52.46	165.60	7.87	-47.3	-55.5	7.4	1.46e-01	0	42	0	10485760	66	9115
2026-01-02 10:09:53.46	165.62	7.95	-47.2	-54.9	8.0	7.77e-02	0	42	0	11534336	66	8478
2026-01-02 10:09:54.45	165.63	8.03	-47.2	-54.7	8.2	5.49e-02	0	42	0	13631488	66	8288
2026-01-02 10:09:55.45	165.64	8.12	-47.0	-54.1	8.8	4.19e-02	0	42	0	15728640	66	7746
2026-01-02 10:09:56.45	165.65	8.20	-47.0	-54.1	8.8	5.10e-02	0	43	0	17825792	66	7741
2026-01-02 10:09:57.45	165.66	8.28	-47.1	-54.3	8.6	3.00e-02	0	42	0	18874368	65	8425
2026-01-02 10:09:58.44	165.68	8.36	-47.0	-54.2	8.7	3.92e-02	0	43	0	20971520	65	8328
2026-01-02 10:09:59.44	165.69	8.44	-47.2	-54.8	8.1	6.53e-02	0	43	0	23068672	65	8881
2026-01-02 10:10:00.44	165.70	8.52	-47.3	-55.3	7.6	8.44e-02	0	42	0	25165824	65	9487
2026-01-02 10:10:01.44	165.71	8.60	-47.5	-56.0	6.9	1.18e-01	0	43	0	27262976	65	10292
2026-01-02 10:10:02.43	165.73	8.69	-47.7	-57.1	6.1	2.51e-01	0	43	0	28311552	66	10950
2026-01-02 10:10:03.43	165.74	8.77	-47.8	-58.1	5.3	4.60e-01	0	43	0	30408704	66	12358
2026-01-02 10:10:04.43	165.75	8.85	-47.9	-59.4	4.6	7.08e-01	0	43	0	32505856	66	14285
2026-01-02 10:10:05.43	165.76	8.94	-48.1	-61.2	4.1	1.39e+00	0	43	0	33554432	66	17681
2026-01-02 10:10:06.43	165.78	9.02	-48.2	-62.5	3.8	1.48e+00	0	43	104	33554432	67	19335
2026-01-02 10:10:07.42	165.79	9.10	-47.9	-61.5	3.9	1.49e+00	0	43	104	33554432	67	17113
2026-01-02 10:10:08.42	165.80	9.19	-46.6	-55.0	7.9	1.92e-01	0	42	0	34603008	65	9160
2026-01-02 10:10:09.42	165.81	9.27	-47.5	-60.1	4.6	1.27e-01	0	43	0	36700160	65	16340
2026-01-02 10:10:10.42	165.83	9.36	-48.3	-64.3	3.8	1.49e+00	0	43	104	36700160	67	23654
2026-01-02 10:10:11.42	165.84	9.44	-46.8	-56.7	6.2	1.38e+00	0	43	0	36700160	65	11136
2026-01-02 10:10:12.41	165.85	9.53	-45.5	-52.0	11.0	2.08e-03	0	43	0	38797312	62	7714
2026-01-02 10:10:13.41	165.87	9.61	-45.5	-52.2	10.9	2.38e-03	0	43	0	39845888	62	7855
2026-01-02 10:10:14.41	165.88	9.70	-44.8	-50.9	12.3	5.16e-04	0	43	0	41943040	61	7144
2026-01-02 10:10:15.40	165.89	9.78	-44.7	-50.4	12.9	9.53e-05	0	43	0	44040192	61	6727
2026-01-02 10:10:16.40	165.91	9.87	-44.7	-50.3	12.9	1.71e-02	0	43	0	46137344	61	6671
2026-01-02 10:10:17.40	165.92	9.96	-44.6	-49.9	13.4	3.12e-05	0	43	0	47185920	61	6354
2026-01-02 10:10:18.40	165.93	10.04	-44.7	-49.8	13.4	6.10e-06	0	43	0	49283072	61	6322
2026-01-02 10:10:19.40	165.95	10.13	-44.6	-49.5	13.7	3.19e-04	0	43	0	51380224	61	6130
2026-01-02 10:10:20.40	165.96	10.22	-44.4	-49.0	14.3	3.80e-06	0	43	0	53477376	60	6112
2026-01-02 10:10:21.39	165.97	10.31	-44.5	-49.1	14.1	7.00e-07	0	43	0	55574528	60	6159
2026-01-02 10:10:22.38	165.99	10.39	-44.4	-48.7	14.6	0.00e+00	0	43	0	56623104	60	5882
2026-01-02 10:10:23.38	166.00	10.48	-44.5	-48.6	14.6	7.00e-07	0	43	0	58720256	60	5853
2026-01-02 10:10:24.38	166.01	10.57	-44.6	-48.8	14.6	0.00e+00	0	43	0	60817408	60	5932
2026-01-02 10:10:25.38	166.03	10.66	-44.6	-48.7	14.7	7.00e-07	0	43	0	62914560	60	5868
2026-01-02 10:10:26.37	166.04	10.75	-44.5	-48.4	14.9	0.00e+00	0	43	0	63963136	60	5663
2026-01-02 10:10:27.37	166.06	10.84	-44.5	-48.2	15.0	0.00e+00	0	43	0	66060288	60	5575
2026-01-02 10:10:28.37	166.07	10.93	-44.5	-48.1	15.2	1.79e-03	0	43	0	68157440	60	5528
2026-01-02 10:10:29.37	166.08	11.02	-44.4	-48.1	15.3	0.00e+00	0	43	0	70254592	60	5482
2026-01-02 10:10:30.37	166.10	11.11	-44.4	-48.1	15.2	0.00e+00	0	43	0	72351744	60	5483
2026-01-02 10:10:31.37	166.11	11.20	-44.3	-47.9	15.4	0.00e+00	0	43	0	73400320	60	5365
2026-01-02 10:10:32.36	166.13	11.29	-44.5	-48.1	15.2	0.00e+00	0	43	0	75497472	60	5504
2026-01-02 10:10:33.36	166.14	11.39	-44.4	-47.9	15.4	0.00e+00	0	43	0	77594624	60	5381
2026-01-02 10:10:34.36	166.16	11.48	-44.3	-47.8	15.5	0.00e+00	0	43	0	79691776	60	5296
2026-01-02 10:10:35.35	166.17	11.57	-44.5	-48.0	15.3	0.00e+00	0	43	0	81788928	60	5421
2026-01-02 10:10:36.35	166.19	11.66	-44.3	-47.7	15.6	0.00e+00	0	43	0	82837504	60	5249
2026-01-02 10:10:37.34	166.20	11.76	-44.2	-47.6	15.7	0.00e+00	0	43	0	84934656	60	5199
2026-01-02 10:10:38.34	166.22	11.85	-44.3	-47.7	15.6	0.00e+00	0	43	0	87031808	60	5268
2026-01-02 10:10:39.34	166.23	11.94	-44.3	-47.6	15.8	0.00e+00	0	43	0	89128960	60	5196
2026-01-02 10:10:40.33	166.24	12.04	-44.3	-47.7	15.6	0.00e+00	0	43	0	90177536	60	5267
2026-01-02 10:10:41.33	166.26	12.13	-44.2	-47.6	15.8	0.00e+00	0	43	0	92274688	60	5171
2026-01-02 10:10:42.33	166.27	12.23	-44.2	-47.6	15.8	0.00e+00	0	43	0	94371840	60	5189
2026-01-02 10:10:43.33	166.29	12.32	-44.1	-47.3	16.0	0.00e+00	0	43	0	96468992	60	5031
2026-01-02 10:10:44.33	166.31	12.42	-44.1	-47.3	16.0	0.00e+00	0	43	0	98566144	60	5027
2026-01-02 10:10:45.33	166.32	12.52	-43.9	-47.1	16.2	0.00e+00	0	43	0	99614720	59	5169
2026-01-02 10:10:46.33	166.34	12.61	-44.1	-47.3	16.1	0.00e+00	0	43	0	101711872	59	5297
2026-01-02 10:10:47.32	166.35	12.71	-43.9	-47.1	16.3	0.00e+00	0	43	0	103809024	59	5164
2026-01-02 10:10:48.33	166.37	12.81	-43.8	-46.9	16.4	0.00e+00	0	43	0	105906176	59	5077
2026-01-02 10:10:49.32	166.38	12.90	-43.7	-46.7	16.6	0.00e+00	0	43	0	108003328	59	4967
2026-01-02 10:10:50.32	166.40	13.00	-43.6	-46.6	16.7	0.00e+00	0	43	0	109051904	59	4882
2026-01-02 10:10:51.32	166.41	13.10	-43.6	-46.6	16.7	0.00e+00	0	43	0	111149056	59	4883
2026-01-02 10:10:52.31	166.43	13.20	-43.7	-46.6	16.7	0.00e+00	0	43	0	113246208	59	4916
2026-01-02 10:10:53.31	166.45	13.30	-43.5	-46.3	17.0	0.00e+00	0	43	0	115343360	58	5026
2026-01-02 10:10:54.30	166.46	13.40	-43.7	-46.6	16.7	0.00e+00	0	43	0	116391936	58	5179
2026-01-02 10:10:55.30	166.48	13.50	-43.5	-46.3	17.0	0.00e+00	0	43	0	118489088	58	5029
2026-01-02 10:10:56.30	166.50	13.60	-43.6	-46.4	16.8	0.00e+00	0	43	0	120586240	58	5100
2026-01-02 10:10:57.29	166.51	13.70	-43.5	-46.3	17.0	0.00e+00	0	43	0	122683392	58	4990
2026-01-02 10:10:58.29	166.53	13.80	-43.4	-46.2	17.1	0.00e+00	0	43	0	124780544	58	4967
2026-01-02 10:10:59.29	166.54	13.90	-43.4	-46.2	17.1	0.00e+00	0	43	0	125829120	58	4945
2026-01-02 10:11:00.29	166.56	14.01	-43.4	-46.3	17.0	0.00e+00	0	43	0	127926272	58	4984
2026-01-02 10:11:01.28	166.58	14.11	-43.2	-45.9	17.4	0.00e+00	0	43	0	130023424	58	4799
2026-01-02 10:11:02.28	166.60	14.21	-43.2	-45.9	17.3	2.21e-05	0	43	0	132120576	58	4813
2026-01-02 10:11:03.28	166.61	14.32	-43.2	-45.9	17.4	0.00e+00	0	43	0	133169152	58	4797
2026-01-02 10:11:04.28	166.63	14.42	-43.3	-46.0	17.3	0.00e+00	0	43	0	135266304	58	4818
2026-01-02 10:11:05.27	166.65	14.52	-43.3	-46.0	17.3	7.93e-05	0	43	0	137363456	58	4843
2026-01-02 10:11:06.27	166.66	14.63	-43.4	-46.1	17.2	0.00e+00	0	43	0	139460608	58	4910
2026-01-02 10:11:07.27	166.68	14.73	-43.2	-45.9	17.5	0.00e+00	0	43	0	141557760	58	4785
2026-01-02 10:11:08.27	166.70	14.84	-43.2	-45.9	17.5	0.00e+00	0	43	0	142606336	58	4762
2026-01-02 10:11:09.26	166.72	14.95	-43.0	-45.5	17.7	0.00e+00	0	43	0	144703488	57	4868
2026-01-02 10:11:10.26	166.73	15.05	-43.0	-45.5	17.7	0.00e+00	0	43	0	146800640	57	4865
2026-01-02 10:11:11.26	166.75	15.16	-42.9	-45.5	17.8	0.00e+00	0	44	0	148897792	57	4848
2026-01-02 10:11:12.25	166.77	15.27	-42.9	-45.5	17.8	0.00e+00	0	43	0	150994944	57	4835
2026-01-02 10:11:13.25	166.79	15.38	-42.9	-45.5	17.8	0.00e+00	0	43	0	152043520	57	4848
2026-01-02 10:11:14.25	166.81	15.48	-42.8	-45.3	17.9	0.00e+00	0	43	0	154140672	57	4749
2026-01-02 10:11:15.25	166.82	15.59	-42.9	-45.4	17.9	0.00e+00	0	43	0	156237824	57	4780
2026-01-02 10:11:16.24	166.84	15.70	-42.8	-45.3	18.0	0.00e+00	0	43	0	158334976	57	4750
2026-01-02 10:11:17.24	166.86	15.81	-42.8	-45.2	18.0	0.00e+00	0	43	0	159383552	57	4704
2026-01-02 10:11:18.24	166.88	15.92	-42.8	-45.3	18.0	0.00e+00	0	43	0	161480704	57	4748
2026-01-02 10:11:19.24	166.90	16.04	-42.9	-45.4	17.9	0.00e+00	0	43	0	163577856	57	4778
2026-01-02 10:11:20.24	166.92	16.15	-43.0	-45.5	17.8	0.00e+00	0	43	0	165675008	57	4856
2026-01-02 10:11:21.23	166.94	16.26	-42.8	-45.4	17.9	0.00e+00	0	43	0	167772160	57	4783
2026-01-02 10:11:22.23	166.95	16.37	-42.7	-45.3	18.1	0.00e+00	0	43	0	168820736	57	4714
2026-01-02 10:11:23.23	166.97	16.49	-42.8	-45.4	17.9	0.00e+00	0	43	0	170917888	57	4780
2026-01-02 10:11:24.22	166.99	16.60	-42.8	-45.4	17.9	0.00e+00	0	44	0	173015040	57	4793
2026-01-02 10:11:25.22	167.01	16.71	-42.7	-45.2	18.0	0.00e+00	0	43	0	175112192	57	4697
2026-01-02 10:11:26.22	167.03	16.83	-42.7	-45.3	18.0	0.00e+00	0	43	0	177209344	57	4709
2026-01-02 10:11:27.22	167.05	16.94	-42.7	-45.2	18.1	0.00e+00	0	43	0	178257920	57	4693
2026-01-02 10:11:28.22	167.07	17.06	-42.5	-45.1	18.2	0.00e+00	0	43	0	180355072	57	4612
2026-01-02 10:11:29.22	167.09	17.18	-42.6	-45.1	18.3	0.00e+00	0	43	0	182452224	57	4605
2026-01-02 10:11:30.21	167.11	17.29	-42.6	-45.1	18.1	0.00e+00	0	43	0	184549376	57	4643
2026-01-02 10:11:31.21	167.13	17.41	-42.5	-44.9	18.4	0.00e+00	0	44	0	185597952	56	4806
2026-01-02 10:11:32.21	167.15	17.53	-42.5	-44.9	18.4	0.00e+00	0	44	0	187695104	56	4806
2026-01-02 10:11:33.21	167.17	17.65	-42.4	-44.9	18.4	0.00e+00	0	43	0	189792256	56	4764
2026-01-02 10:11:34.20	167.19	17.77	-42.4	-44.8	18.5	0.00e+00	0	43	0	191889408	56	4747
2026-01-02 10:11:35.20	167.21	17.89	-42.3	-44.7	18.5	0.00e+00	0	43	0	193986560	56	4704
2026-01-02 10:11:36.20	167.23	18.01	-42.5	-45.0	18.3	0.00e+00	0	43	0	195035136	56	4818
2026-01-02 10:11:37.19	167.26	18.13	-42.4	-44.9	18.4	0.00e+00	0	43	0	197132288	56	4784
2026-01-02 10:11:38.19	167.28	18.25	-42.6	-45.1	18.2	0.00e+00	0	44	0	199229440	56	4904
2026-01-02 10:11:39.19	167.30	18.37	-42.5	-45.0	18.3	0.00e+00	0	43	0	201326592	56	4848
2026-01-02 10:11:40.18	167.32	18.49	-42.6	-45.1	18.2	0.00e+00	0	44	0	202375168	56	4921
2026-01-02 10:11:41.18	167.34	18.62	-42.6	-45.2	18.1	0.00e+00	0	43	0	204472320	56	4939
2026-01-02 10:11:42.18	167.36	18.74	-42.7	-45.3	18.0	0.00e+00	0	43	0	206569472	56	5039
2026-01-02 10:11:43.18	167.39	18.87	-42.8	-45.4	18.0	0.00e+00	0	43	0	208666624	56	5058
2026-01-02 10:11:44.18	167.41	18.99	-42.8	-45.4	17.9	0.00e+00	0	43	0	210763776	56	5087
2026-01-02 10:11:45.17	167.43	19.12	-42.7	-45.3	18.1	0.00e+00	0	43	0	211812352	56	4991
2026-01-02 10:11:46.17	167.45	19.24	-42.8	-45.4	18.0	0.00e+00	0	43	0	213909504	56	5077
2026-01-02 10:11:47.16	167.47	19.37	-42.7	-45.2	18.2	0.00e+00	0	44	0	216006656	56	4943
2026-01-02 10:11:48.16	167.50	19.50	-42.8	-45.3	18.1	0.00e+00	0	44	0	218103808	56	5008
2026-01-02 10:11:49.16	167.52	19.63	-42.8	-45.3	18.0	0.00e+00	0	43	0	220200960	56	5040
2026-01-02 10:11:50.16	167.54	19.76	-42.8	-45.3	18.0	0.00e+00	0	43	0	221249536	56	5014
2026-01-02 10:11:51.16	167.57	19.89	-42.7	-45.2	18.1	0.00e+00	0	44	0	223346688	56	4964
2026-01-02 10:11:52.15	167.59	20.02	-42.8	-45.4	18.0	0.00e+00	0	44	0	225443840	56	5083
2026-01-02 10:11:53.15	167.61	20.15	-42.8	-45.4	18.0	0.00e+00	0	43	0	227540992	56	5072
2026-01-02 10:11:54.15	167.64	20.28	-43.0	-45.6	17.8	0.00e+00	0	44	0	228589568	56	5165
2026-01-02 10:11:55.14	167.66	20.41	-42.9	-45.5	17.9	0.00e+00	0	43	0	230686720	56	5109
2026-01-02 10:11:56.14	167.68	20.54	-43.0	-45.6	17.8	0.00e+00	0	43	0	232783872	56	5170
2026-01-02 10:11:57.14	167.71	20.68	-43.1	-45.7	17.7	0.00e+00	0	43	0	234881024	56	5246
2026-01-02 10:11:58.14	167.73	20.81	-43.1	-45.7	17.7	0.00e+00	0	43	0	236978176	56	5268
2026-01-02 10:11:59.13	167.76	20.95	-43.1	-45.8	17.6	0.00e+00	0	43	0	238026752	56	5304
2026-01-02 10:12:00.13	167.78	21.09	-43.2	-45.8	17.6	0.00e+00	0	43	0	240123904	57	5028
2026-01-02 10:12:01.12	167.81	21.22	-43.3	-46.0	17.5	0.00e+00	0	44	0	242221056	57	5106
2026-01-02 10:12:02.12	167.83	21.36	-43.3	-46.0	17.4	0.00e+00	0	43	0	244318208	57	5123
2026-01-02 10:12:03.12	167.86	21.50	-43.6	-46.3	17.1	0.00e+00	0	44	0	245366784	57	5293
2026-01-02 10:12:04.12	167.88	21.64	-43.6	-46.3	17.2	0.00e+00	0	44	0	247463936	57	5293
2026-01-02 10:12:05.11	167.91	21.78	-44.2	-46.9	17.0	0.00e+00	0	44	0	249561088	58	5345
2026-01-02 10:12:06.11	167.94	21.92	-43.7	-46.4	17.1	0.00e+00	0	43	0	251658240	58	5072
2026-01-02 10:12:07.10	167.96	22.06	-43.6	-46.4	17.1	0.00e+00	0	44	0	253755392	58	5056
2026-01-02 10:12:08.10	167.99	22.20	-43.7	-46.4	17.1	0.00e+00	0	44	0	254803968	58	5070
2026-01-02 10:12:09.09	168.02	22.34	-43.7	-46.5	17.0	0.00e+00	0	44	0	256901120	58	5129
2026-01-02 10:12:10.09	168.04	22.49	-43.7	-46.5	17.0	0.00e+00	0	44	0	258998272	58	5107
2026-01-02 10:12:11.09	168.07	22.63	-43.8	-46.6	16.9	0.00e+00	0	44	0	261095424	58	5197
2026-01-02 10:12:12.09	168.10	22.78	-43.8	-46.6	16.9	0.00e+00	0	43	0	262144000	58	5209
2026-01-02 10:12:13.09	168.12	22.92	-43.8	-46.5	17.0	0.00e+00	0	43	0	264241152	58	5159
2026-01-02 10:12:14.08	168.15	23.07	-43.8	-46.5	17.0	0.00e+00	0	43	0	266338304	58	5141
2026-01-02 10:12:15.08	168.18	23.22	-43.8	-46.6	16.8	0.00e+00	0	44	0	268435456	58	5215
2026-01-02 10:12:16.08	168.21	23.37	-43.9	-46.8	16.7	0.00e+00	0	43	0	270532608	58	5306
2026-01-02 10:12:17.08	168.24	23.52	-44.0	-47.0	16.5	0.00e+00	0	44	0	271581184	58	5406
2026-01-02 10:12:18.07	168.27	23.67	-44.1	-47.1	16.4	0.00e+00	0	44	0	273678336	59	5210
2026-01-02 10:12:19.07	168.30	23.82	-44.1	-47.1	16.4	0.00e+00	0	44	0	275775488	59	5174
2026-01-02 10:12:20.07	168.32	23.97	-44.1	-47.0	16.5	0.00e+00	0	44	0	277872640	59	5139
2026-01-02 10:12:21.06	168.35	24.12	-43.9	-46.9	16.6	0.00e+00	0	44	0	279969792	59	5054
2026-01-02 10:12:22.06	168.38	24.28	-44.0	-47.0	16.5	0.00e+00	0	43	0	281018368	59	5137
2026-01-02 10:12:23.06	168.41	24.43	-43.9	-46.8	16.7	0.00e+00	0	44	0	283115520	59	5029
2026-01-02 10:12:24.05	168.44	24.59	-43.9	-46.7	16.8	0.00e+00	0	44	0	285212672	59	4973
2026-01-02 10:12:25.05	168.47	24.75	-43.9	-46.8	16.8	0.00e+00	0	44	0	287309824	59	4988
2026-01-02 10:12:26.05	168.51	24.90	-43.9	-46.8	16.7	0.00e+00	0	44	0	289406976	59	4992
2026-01-02 10:12:27.05	168.54	25.06	-43.9	-46.7	16.8	0.00e+00	0	44	0	290455552	59	4944
2026-01-02 10:12:28.05	168.57	25.22	-44.0	-46.8	16.7	0.00e+00	0	44	0	292552704	59	5016
2026-01-02 10:12:29.04	168.60	25.38	-43.9	-46.8	16.8	0.00e+00	0	44	0	294649856	59	4985
2026-01-02 10:12:30.04	168.63	25.55	-44.1	-47.0	16.5	0.00e+00	0	44	0	296747008	59	5133
2026-01-02 10:12:31.04	168.66	25.71	-44.2	-47.2	16.3	0.00e+00	0	44	0	297795584	59	5251
2026-01-02 10:12:32.04	168.70	25.87	-44.2	-47.1	16.5	0.00e+00	0	44	0	299892736	59	5167
2026-01-02 10:12:33.04	168.73	26.04	-44.3	-47.2	16.3	0.00e+00	0	44	0	301989888	59	5267
2026-01-02 10:12:34.03	168.76	26.20	-44.4	-47.4	16.1	0.00e+00	0	44	0	304087040	59	5373
2026-01-02 10:12:35.03	168.80	26.37	-44.4	-47.3	16.2	0.00e+00	0	43	0	306184192	59	5322
2026-01-02 10:12:36.02	168.83	26.54	-44.3	-47.2	16.4	0.00e+00	0	43	0	307232768	59	5224
2026-01-02 10:12:37.03	168.86	26.71	-44.1	-46.9	16.6	0.00e+00	0	44	0	309329920	59	5088
2026-01-02 10:12:38.02	168.90	26.87	-44.1	-47.0	16.6	0.00e+00	0	44	0	311427072	59	5104
2026-01-02 10:12:39.02	168.93	27.05	-43.9	-46.7	16.9	0.00e+00	0	44	0	313524224	59	4936
2026-01-02 10:12:40.02	168.97	27.22	-43.9	-46.7	16.8	0.00e+00	0	43	0	314572800	59	4959
2026-01-02 10:12:41.01	169.00	27.39	-43.8	-46.5	17.0	0.00e+00	0	44	0	316669952	59	4847
2026-01-02 10:12:42.01	169.04	27.56	-43.8	-46.5	17.0	0.00e+00	0	44	0	318767104	59	4815
2026-01-02 10:12:43.01	169.08	27.74	-43.9	-46.6	16.9	0.00e+00	0	44	0	320864256	59	4898
2026-01-02 10:12:44.01	169.11	27.92	-43.9	-46.6	16.9	0.00e+00	0	44	0	322961408	59	4909
2026-01-02 10:12:45.01	169.15	28.09	-44.1	-46.9	16.6	0.00e+00	0	44	0	324009984	59	5088
2026-01-02 10:12:46.01	169.19	28.27	-44.2	-47.0	16.5	0.00e+00	0	43	0	326107136	59	5152
2026-01-02 10:12:47.00	169.23	28.45	-44.1	-46.9	16.7	0.00e+00	0	44	0	328204288	59	5045
2026-01-02 10:12:48.00	169.26	28.63	-44.2	-47.0	16.5	0.00e+00	0	44	0	330301440	59	5158
2026-01-02 10:12:48.99	169.30	28.81	-44.2	-47.0	16.6	0.00e+00	0	43	0	331350016	59	5108
2026-01-02 10:12:49.99	169.34	29.00	-44.0	-46.8	16.8	0.00e+00	0	44	0	333447168	59	5001
2026-01-02 10:12:50.99	169.38	29.18	-44.0	-46.8	16.7	0.00e+00	0	44	0	335544320	59	5008
2026-01-02 10:12:51.99	169.42	29.37	-44.0	-46.8	16.7	0.00e+00	0	44	0	337641472	59	5029
2026-01-02 10:12:52.98	169.46	29.55	-44.1	-47.0	16.6	0.00e+00	0	43	0	339738624	59	5122
2026-01-02 10:12:53.98	169.50	29.74	-44.0	-46.8	16.7	0.00e+00	0	44	0	340787200	59	5025
2026-01-02 10:12:54.98	169.54	29.93	-44.2	-47.1	16.5	0.00e+00	0	44	0	342884352	59	5185
2026-01-02 10:12:55.98	169.58	30.12	-44.5	-47.6	15.9	0.00e+00	0	44	0	344981504	59	5498
2026-01-02 10:12:56.98	169.63	30.32	-44.6	-47.8	15.8	0.00e+00	0	44	0	347078656	60	5310
2026-01-02 10:12:57.97	169.67	30.51	-44.6	-47.9	15.8	0.00e+00	0	44	0	349175808	60	5362
2026-01-02 10:12:58.97	169.71	30.70	-44.8	-48.1	15.6	0.00e+00	0	43	0	350224384	60	5479
2026-01-02 10:12:59.97	169.76	30.90	-44.8	-48.1	15.5	0.00e+00	0	44	0	352321536	60	5521
2026-01-02 10:13:00.97	169.80	31.10	-44.7	-47.9	15.8	0.00e+00	0	43	0	354418688	60	5366
2026-01-02 10:13:01.96	169.84	31.29	-44.7	-47.9	15.7	0.00e+00	0	44	0	356515840	60	5381
2026-01-02 10:13:02.96	169.89	31.49	-45.0	-48.3	15.4	0.00e+00	0	44	0	358612992	60	5617
2026-01-02 10:13:03.96	169.93	31.69	-44.4	-47.4	16.2	0.00e+00	0	44	0	359661568	60	5046
2026-01-02 10:13:04.96	169.98	31.90	-45.0	-48.2	15.5	0.00e+00	0	44	0	361758720	60	5546
2026-01-02 10:13:05.96	170.03	32.10	-45.1	-48.4	15.3	0.00e+00	0	44	0	363855872	60	5671
2026-01-02 10:13:06.95	170.07	32.30	-44.9	-48.1	15.6	0.00e+00	0	44	0	365953024	60	5481
2026-01-02 10:13:07.94	170.12	32.51	-45.2	-48.6	15.1	0.00e+00	0	43	0	367001600	61	5469
2026-01-02 10:13:08.94	170.17	32.72	-45.4	-48.8	14.8	0.00e+00	0	44	0	369098752	61	5648
2026-01-02 10:13:09.94	170.22	32.93	-45.4	-48.8	14.9	0.00e+00	0	43	0	371195904	61	5623
2026-01-02 10:13:10.94	170.27	33.14	-45.4	-48.8	14.7	0.00e+00	0	44	0	373293056	61	5633
2026-01-02 10:13:11.94	170.32	33.35	-45.1	-48.4	15.3	0.00e+00	0	44	0	375390208	61	5359
2026-01-02 10:13:12.93	170.37	33.56	-45.1	-48.3	15.3	0.00e+00	0	44	0	376438784	61	5322
2026-01-02 10:13:13.93	170.42	33.78	-45.1	-48.3	15.3	0.00e+00	0	44	0	378535936	61	5309
2026-01-02 10:13:14.93	170.47	34.00	-45.1	-48.3	15.4	0.00e+00	0	44	0	380633088	61	5318
2026-01-02 10:13:15.92	170.52	34.21	-44.9	-48.1	15.5	0.00e+00	0	44	0	382730240	61	5215
2026-01-02 10:13:16.92	170.58	34.43	-45.2	-48.5	15.1	0.00e+00	0	44	0	383778816	61	5437
2026-01-02 10:13:17.91	170.63	34.65	-44.7	-47.8	15.8	0.00e+00	0	44	0	385875968	60	5338
2026-01-02 10:13:18.91	170.68	34.88	-44.1	-47.0	16.7	0.00e+00	0	44	0	387973120	60	4818
2026-01-02 10:13:19.91	170.74	35.10	-44.1	-46.9	16.6	0.00e+00	0	44	0	390070272	59	5100
2026-01-02 10:13:20.91	170.79	35.33	-43.5	-46.1	17.4	0.00e+00	0	44	0	392167424	59	4646
2026-01-02 10:13:21.90	170.85	35.55	-43.3	-45.9	17.7	0.00e+00	0	44	0	393216000	58	4767
2026-01-02 10:13:22.90	170.91	35.78	-43.4	-46.0	17.6	0.00e+00	0	44	0	395313152	58	4845
2026-01-02 10:13:23.90	170.97	36.01	-42.9	-45.4	18.1	0.00e+00	0	44	0	397410304	57	4768
2026-01-02 10:13:24.90	171.03	36.25	-43.0	-45.5	18.0	0.00e+00	0	44	0	399507456	57	4819
2026-01-02 10:13:25.89	171.09	36.48	-42.9	-45.3	18.1	0.00e+00	0	43	0	400556032	57	4754
2026-01-02 10:13:26.89	171.15	36.72	-42.8	-45.2	18.3	0.00e+00	0	44	0	402653184	57	4681
2026-01-02 10:13:27.89	171.21	36.95	-42.7	-45.2	18.3	0.00e+00	0	44	0	404750336	56	4949
2026-01-02 10:13:28.88	171.27	37.19	-42.5	-45.0	18.5	0.00e+00	0	44	0	406847488	56	4818
2026-01-02 10:13:29.88	171.33	37.43	-42.3	-44.7	18.7	0.00e+00	0	44	0	408944640	56	4689
2026-01-02 10:13:30.88	171.40	37.67	-41.9	-44.3	19.0	0.00e+00	0	43	0	409993216	55	4706
2026-01-02 10:13:31.88	171.46	37.92	-41.9	-44.1	19.1	0.00e+00	0	44	0	412090368	55	4651
2026-01-02 10:13:32.87	171.53	38.16	-41.8	-44.0	19.2	0.00e+00	0	44	0	414187520	55	4596
2026-01-02 10:13:33.87	171.59	38.41	-41.7	-44.0	19.3	0.00e+00	0	44	0	416284672	54	4815
2026-01-02 10:13:34.86	171.66	38.66	-41.9	-44.2	19.1	0.00e+00	0	44	0	418381824	54	4948
2026-01-02 10:13:35.86	171.73	38.91	-41.9	-44.2	19.1	0.00e+00	0	44	0	419430400	54	4960
2026-01-02 10:13:36.86	171.80	39.17	-41.9	-44.1	19.1	0.00e+00	0	44	0	421527552	54	4918
2026-01-02 10:13:37.86	171.87	39.42	-42.0	-44.3	19.0	0.00e+00	0	44	0	423624704	55	4718
2026-01-02 10:13:38.85	171.94	39.68	-42.1	-44.4	18.9	0.00e+00	0	44	0	425721856	55	4780
2026-01-02 10:13:39.85	172.02	39.94	-42.3	-44.6	18.7	0.00e+00	0	44	0	426770432	55	4922
2026-01-02 10:13:40.84	172.09	40.19	-42.8	-45.1	18.2	0.00e+00	0	44	0	428867584	56	4921
2026-01-02 10:13:41.84	172.17	40.46	-43.0	-45.4	18.1	0.00e+00	0	44	0	430964736	56	5093
2026-01-02 10:13:42.84	172.24	40.72	-43.4	-46.0	17.6	0.00e+00	0	44	0	433061888	57	5140
2026-01-02 10:13:43.84	172.32	40.99	-43.7	-46.3	17.2	0.00e+00	0	44	0	435159040	58	5037
2026-01-02 10:13:44.83	172.40	41.25	-43.6	-46.2	17.4	0.00e+00	0	44	0	436207616	58	4962
2026-01-02 10:13:45.83	172.48	41.53	-43.7	-46.3	17.3	0.00e+00	0	44	0	438304768	58	5032
2026-01-02 10:13:46.83	172.56	41.80	-44.0	-46.7	16.8	0.00e+00	0	44	0	440401920	59	4957
2026-01-02 10:13:47.82	172.64	42.07	-44.1	-46.9	16.7	0.00e+00	0	43	0	442499072	59	5063
2026-01-02 10:13:48.82	172.73	42.35	-44.3	-47.2	16.6	0.00e+00	0	44	0	443547648	59	5247
2026-01-02 10:13:49.82	172.81	42.62	-44.0	-46.7	16.8	0.00e+00	0	44	0	445644800	59	4982
2026-01-02 10:13:50.81	172.90	42.90	-43.9	-46.7	16.9	0.00e+00	0	43	0	447741952	59	4933
2026-01-02 10:13:51.81	172.99	43.19	-43.8	-46.5	17.1	0.00e+00	0	44	0	449839104	59	4834
2026-01-02 10:13:52.81	173.08	43.47	-43.4	-46.0	17.6	0.00e+00	0	43	0	451936256	58	4825
2026-01-02 10:13:53.81	173.17	43.76	-43.3	-45.8	17.7	0.00e+00	0	44	0	452984832	58	4732
2026-01-02 10:13:54.81	173.26	44.05	-43.0	-45.5	18.0	0.00e+00	0	43	0	455081984	58	4584
2026-01-02 10:13:55.81	173.36	44.34	-43.3	-45.8	17.7	0.00e+00	0	44	0	457179136	58	4753
2026-01-02 10:13:56.80	173.45	44.63	-43.6	-46.2	17.5	0.00e+00	0	44	0	459276288	58	4969
2026-01-02 10:13:57.80	173.55	44.92	-43.7	-46.3	17.4	0.00e+00	0	44	0	461373440	58	4994
2026-01-02 10:13:58.79	173.65	45.22	-44.2	-47.0	16.6	0.00e+00	0	44	0	462422016	59	5155
2026-01-02 10:13:59.79	173.75	45.52	-44.4	-47.3	16.4	0.00e+00	0	44	0	464519168	59	5291
2026-01-02 10:14:00.79	173.86	45.82	-45.1	-48.3	15.5	0.00e+00	0	44	0	466616320	60	5594
2026-01-02 10:14:01.79	173.96	46.12	-45.3	-48.6	15.1	0.00e+00	0	44	0	468713472	61	5466
2026-01-02 10:14:02.79	174.07	46.43	-45.9	-49.6	14.1	0.00e+00	0	44	0	469762048	62	5817
2026-01-02 10:14:03.79	174.18	46.73	-45.8	-49.4	14.3	1.50e-06	0	44	0	471859200	62	5708
2026-01-02 10:14:04.78	174.29	47.04	-45.7	-49.3	14.4	0.00e+00	0	44	0	473956352	62	5613
2026-01-02 10:14:05.78	174.41	47.35	-45.7	-49.2	14.4	2.20e-06	0	44	0	476053504	62	5583
2026-01-02 10:14:06.78	174.52	47.67	-45.3	-48.6	15.2	0.00e+00	0	44	0	478150656	62	5171
2026-01-02 10:14:07.78	174.64	47.98	-45.4	-48.7	14.9	0.00e+00	0	44	0	479199232	62	5268
2026-01-02 10:14:08.78	174.76	48.30	-45.0	-48.2	15.5	0.00e+00	0	44	0	481296384	62	4939
2026-01-02 10:14:09.78	174.88	48.62	-44.7	-47.6	16.0	0.00e+00	0	44	0	483393536	61	4925
2026-01-02 10:14:10.77	175.01	48.94	-44.0	-46.7	17.0	0.00e+00	0	44	0	485490688	60	4697
2026-01-02 10:14:11.77	175.14	49.27	-43.7	-46.3	17.3	0.00e+00	0	43	0	487587840	59	4751
2026-01-02 10:14:12.77	175.27	49.60	-43.5	-46.1	17.7	0.00e+00	0	44	0	488636416	58	4879
2026-01-02 10:14:13.76	175.40	49.92	-42.6	-44.9	18.6	0.00e+00	0	43	0	490733568	57	4529
2026-01-02 10:14:14.76	175.54	50.26	-42.3	-44.5	19.1	0.00e+00	0	44	0	492830720	56	4587
2026-01-02 10:14:15.76	175.68	50.59	-41.5	-43.6	19.7	0.00e+00	0	44	0	494927872	54	4615
2026-01-02 10:14:16.75	175.82	50.92	-41.8	-43.9	19.4	0.00e+00	0	44	0	495976448	54	4812
2026-01-02 10:14:17.75	175.97	51.26	-41.7	-43.9	19.4	0.00e+00	0	43	0	498073600	54	4767
2026-01-02 10:14:18.75	176.12	51.60	-42.5	-44.8	18.5	0.00e+00	0	43	0	500170752	55	5022
2026-01-02 10:14:19.75	176.27	51.95	-42.3	-44.6	18.7	0.00e+00	0	44	0	502267904	55	4892
2026-01-02 10:14:20.74	176.42	52.29	-42.3	-44.7	18.7	0.00e+00	0	44	0	504365056	55	4932
2026-01-02 10:14:21.74	176.58	52.64	-41.9	-44.2	19.2	0.00e+00	0	44	0	505413632	55	4675
2026-01-02 10:14:22.74	176.75	52.99	-41.9	-44.1	19.2	0.00e+00	0	44	0	507510784	55	4646
2026-01-02 10:14:23.74	176.92	53.34	-41.7	-43.9	19.4	0.00e+00	0	44	0	509607936	55	4505
2026-01-02 10:14:24.73	177.09	53.69	-41.3	-43.4	19.8	0.00e+00	0	44	0	511705088	54	4539
2026-01-02 10:14:25.73	177.26	54.05	-41.4	-43.5	19.8	0.00e+00	0	44	0	512753664	54	4588
2026-01-02 10:14:26.73	177.44	54.41	-41.4	-43.6	19.7	0.00e+00	0	44	0	514850816	54	4625
2026-01-02 10:14:27.72	177.62	54.77	-41.1	-43.3	19.9	0.00e+00	0	44	0	516947968	54	4464
2026-01-02 10:14:28.72	177.81	55.13	-40.8	-43.0	20.3	0.00e+00	0	44	0	519045120	53	4547
2026-01-02 10:14:29.72	178.01	55.50	-40.7	-42.8	20.3	0.00e+00	0	44	0	521142272	53	4474
2026-01-02 10:14:30.72	178.21	55.86	-40.1	-42.1	21.0	0.00e+00	0	44	0	522190848	52	4371
2026-01-02 10:14:31.72	178.41	56.23	-40.0	-41.9	21.1	0.00e+00	0	44	0	524288000	51	4536
2026-01-02 10:14:32.71	178.62	56.60	-40.1	-42.1	21.0	0.00e+00	0	44	0	526385152	51	4623
2026-01-02 10:14:33.71	178.83	56.98	-40.8	-42.9	20.3	0.00e+00	0	44	0	528482304	52	4793
2026-01-02 10:14:34.71	179.05	57.35	-41.5	-43.7	19.6	0.00e+00	0	44	0	530579456	53	4961
2026-01-02 10:14:35.71	179.28	57.73	-41.5	-43.7	19.6	0.00e+00	0	44	0	531628032	53	4932
2026-01-02 10:14:36.70	179.51	58.11	-41.1	-43.2	20.0	0.00e+00	0	44	0	533725184	53	4681
2026-01-02 10:14:37.70	179.75	58.49	-40.8	-42.8	20.3	0.00e+00	0	44	0	535822336	53	4477
2026-01-02 10:14:38.70	180.00	58.87	-40.8	-42.9	20.3	0.00e+00	0	44	0	537919488	53	4503
2026-01-02 10:14:39.69	180.25	59.26	-41.2	-43.3	19.9	0.00e+00	0	44	0	538968064	53	4735
2026-01-02 10:14:40.69	180.51	59.65	-41.9	-44.1	19.2	0.00e+00	0	43	0	541065216	54	4917
2026-01-02 10:14:41.69	180.78	60.04	-41.7	-43.9	19.4	0.00e+00	0	44	0	543162368	54	4801
2026-01-02 10:14:42.69	181.06	60.43	-41.4	-43.6	19.6	0.00e+00	0	44	0	545259520	54	4626
2026-01-02 10:14:43.68	181.35	60.82	-41.3	-43.5	19.8	0.00e+00	0	44	0	547356672	54	4549
2026-01-02 10:14:44.68	181.64	61.21	-41.1	-43.2	20.0	0.00e+00	0	44	0	548405248	54	4438
2026-01-02 10:14:45.68	181.95	61.61	-40.7	-42.8	20.3	0.00e+00	0	44	0	550502400	53	4479
2026-01-02 10:14:46.68	182.26	62.01	-40.3	-42.3	20.7	0.00e+00	0	43	0	552599552	52	4487
2026-01-02 10:14:47.68	182.59	62.41	-40.4	-42.4	20.8	0.00e+00	0	44	0	554696704	52	4499
2026-01-02 10:14:48.68	182.92	62.81	-40.6	-42.6	20.5	0.00e+00	0	44	0	556793856	52	4624
2026-01-02 10:14:49.68	183.27	63.22	-41.0	-43.1	20.2	0.00e+00	0	44	0	557842432	52	4881
2026-01-02 10:14:50.67	183.62	63.62	-40.9	-43.1	20.1	0.00e+00	0	44	0	559939584	53	4601
2026-01-02 10:14:51.68	184.00	64.03	-41.1	-43.2	20.0	0.00e+00	0	43	0	562036736	53	4703
2026-01-02 10:14:52.67	184.38	64.43	-41.3	-43.5	19.7	0.00e+00	0	44	0	564133888	53	4856
2026-01-02 10:14:53.67	184.78	64.84	-41.6	-43.8	19.4	0.00e+00	0	44	0	565182464	54	4754
2026-01-02 10:14:54.67	185.19	65.25	-41.5	-43.6	19.7	0.00e+00	0	44	0	567279616	54	4640
2026-01-02 10:14:55.67	185.62	65.66	-41.1	-43.2	20.1	0.00e+00	0	44	0	569376768	53	4676
2026-01-02 10:14:56.66	186.06	66.07	-40.8	-42.8	20.4	0.00e+00	0	44	0	571473920	53	4485
2026-01-02 10:14:57.66	186.52	66.48	-41.2	-43.3	19.9	0.00e+00	0	44	0	573571072	53	4755
2026-01-02 10:14:58.66	187.00	66.90	-42.1	-44.4	19.0	0.00e+00	0	44	0	574619648	54	5058
2026-01-02 10:14:59.66	187.50	67.31	-42.6	-44.9	18.5	0.00e+00	0	44	0	576716800	55	5096
2026-01-02 10:15:00.66	188.02	67.72	-43.6	-46.2	17.4	0.00e+00	0	44	0	578813952	57	5273
2026-01-02 10:15:01.66	188.56	68.14	-43.5	-46.1	17.6	0.00e+00	0	44	0	580911104	58	4875
2026-01-02 10:15:02.65	189.12	68.55	-42.8	-45.2	18.3	0.00e+00	0	44	0	583008256	57	4660
2026-01-02 10:15:03.65	189.70	68.96	-42.9	-45.3	18.2	0.00e+00	0	44	0	584056832	57	4709
2026-01-02 10:15:04.65	190.31	69.38	-44.1	-46.9	16.8	0.00e+00	0	44	0	586153984	58	5392
2026-01-02 10:15:05.64	190.94	69.79	-45.6	-49.1	14.7	0.00e+00	0	44	0	588251136	61	5822
2026-01-02 10:15:06.64	191.61	70.20	-46.1	-49.9	13.9	1.50e-06	0	44	0	590348288	62	5995
2026-01-02 10:15:07.63	192.30	70.61	-46.4	-50.3	13.4	1.01e-04	0	44	0	591396864	64	5655
2026-01-02 10:15:08.63	193.03	71.02	-46.6	-50.9	13.0	4.04e-05	0	44	0	593494016	64	6010
2026-01-02 10:15:09.63	193.79	71.43	-46.1	-50.1	13.6	1.83e-05	0	44	0	595591168	64	5476
2026-01-02 10:15:10.62	194.58	71.84	-45.7	-49.1	14.6	0.00e+00	0	44	0	597688320	63	5214
2026-01-02 10:15:11.61	195.41	72.24	-44.5	-47.4	16.3	0.00e+00	0	44	0	599785472	61	4760
2026-01-02 10:15:12.61	196.29	72.64	-44.2	-47.1	16.6	0.00e+00	0	44	0	600834048	60	4876
2026-01-02 10:15:13.61	197.21	73.04	-45.0	-48.2	15.6	0.00e+00	0	44	0	602931200	60	5589
2026-01-02 10:15:14.61	198.17	73.44	-45.6	-49.3	14.8	7.00e-07	0	44	0	605028352	62	5595
2026-01-02 10:15:15.60	199.18	73.83	-45.4	-48.8	14.9	7.00e-07	0	44	0	607125504	62	5315
2026-01-02 10:15:16.60	200.25	74.23	-44.3	-47.2	16.5	0.00e+00	0	44	0	608174080	60	4956
2026-01-02 10:15:17.60	201.38	74.61	-43.4	-45.9	17.7	0.00e+00	0	44	0	610271232	58	4784
2026-01-02 10:15:18.60	202.56	75.00	-42.8	-45.1	18.4	0.00e+00	0	44	0	612368384	57	4637
2026-01-02 10:15:19.59	203.80	75.37	-43.1	-45.6	18.1	0.00e+00	0	44	0	614465536	57	4885
2026-01-02 10:15:20.59	205.12	75.74	-43.1	-45.5	18.1	0.00e+00	0	44	0	616562688	57	4864
2026-01-02 10:15:21.58	206.49	76.10	-44.4	-47.2	16.5	0.00e+00	0	44	0	617611264	59	5258
2026-01-02 10:15:22.58	207.96	76.46	-44.9	-48.1	15.7	0.00e+00	0	44	0	619708416	60	5466
2026-01-02 10:15:23.58	209.50	76.81	-44.0	-46.8	16.8	0.00e+00	0	44	0	621805568	60	4721
2026-01-02 10:15:24.58	211.13	77.15	-43.3	-45.8	17.8	0.00e+00	0	44	0	623902720	58	4733
2026-01-02 10:15:25.57	212.83	77.47	-43.7	-46.2	17.3	0.00e+00	0	44	0	624951296	58	4971
2026-01-02 10:15:26.57	214.65	77.79	-43.6	-46.1	17.5	0.00e+00	0	44	0	627048448	58	4874
2026-01-02 10:15:27.57	216.56	78.10	-42.8	-45.1	18.4	0.00e+00	0	44	0	629145600	57	4614
2026-01-02 10:15:28.57	218.57	78.40	-44.1	-46.7	17.0	0.00e+00	0	44	0	631242752	58	5276
2026-01-02 10:15:29.56	220.66	78.67	-44.5	-47.4	16.2	0.00e+00	0	44	0	633339904	59	5378
2026-01-02 10:15:30.56	222.88	78.94	-44.6	-47.7	16.2	0.00e+00	0	44	0	634388480	60	5223
2026-01-02 10:15:31.55	225.19	79.18	-44.4	-47.2	16.4	0.00e+00	0	44	0	636485632	60	4979
2026-01-02 10:15:32.55	227.63	79.41	-44.2	-47.0	16.8	0.00e+00	0	44	0	638582784	60	4836
2026-01-02 10:15:33.55	230.17	79.63	-44.1	-47.0	16.7	0.00e+00	0	44	0	640679936	59	5114
2026-01-02 10:15:34.55	232.81	79.82	-44.0	-46.8	16.7	0.00e+00	0	44	0	641728512	59	5000
2026-01-02 10:15:35.54	235.52	79.98	-44.6	-47.6	16.3	0.00e+00	0	44	0	643825664	60	5186
2026-01-02 10:15:36.54	238.35	80.13	-45.5	-49.0	14.7	0.00e+00	0	44	0	645922816	61	5769
2026-01-02 10:15:37.54	241.26	80.25	-45.8	-49.5	14.5	1.50e-06	0	44	0	648019968	62	5728
2026-01-02 10:15:38.54	244.23	80.35	-45.5	-49.0	14.8	0.00e+00	0	44	0	650117120	62	5439
2026-01-02 10:15:39.53	247.23	80.42	-45.4	-49.0	14.9	0.00e+00	0	44	0	651165696	62	5420
2026-01-02 10:15:40.53	250.29	80.46	-45.9	-49.8	14.1	7.00e-07	0	44	0	653262848	62	5981
2026-01-02 10:15:41.53	253.37	80.48	-45.4	-48.9	15.0	3.80e-06	0	44	0	655360000	62	5349
2026-01-02 10:15:42.52	256.43	80.47	-45.2	-48.5	15.3	0.00e+00	0	44	0	657457152	62	5130
2026-01-02 10:15:43.52	259.50	80.43	-45.3	-48.7	15.3	0.00e+00	0	44	0	659554304	61	5562
2026-01-02 10:15:44.53	262.56	80.37	-45.3	-48.7	15.2	0.00e+00	0	44	0	660602880	61	5534
2026-01-02 10:15:45.52	265.52	80.28	-44.2	-47.0	16.6	0.00e+00	0	44	0	662700032	60	4845
2026-01-02 10:15:46.52	268.45	80.17	-44.8	-47.9	16.1	0.00e+00	0	44	0	664797184	60	5352
2026-01-02 10:15:47.52	271.30	80.03	-46.5	-50.7	13.1	0.00e+00	0	44	0	666894336	63	6241
2026-01-02 10:15:48.52	274.06	79.87	-45.5	-48.9	14.8	1.50e-06	0	44	0	668991488	62	5365
2026-01-02 10:15:49.51	276.71	79.68	-44.8	-47.9	16.0	0.00e+00	0	44	0	670040064	61	5069
2026-01-02 10:15:50.51	279.28	79.48	-45.7	-49.2	14.5	7.00e-07	0	44	0	672137216	62	5588
2026-01-02 10:15:51.51	281.74	79.25	-46.6	-51.0	12.8	3.80e-06	0	44	0	674234368	64	6078
2026-01-02 10:15:52.50	284.08	79.01	-45.2	-48.4	15.5	0.00e+00	0	44	0	676331520	62	5082
2026-01-02 10:15:53.50	286.33	78.75	-45.1	-48.3	15.4	0.00e+00	0	44	0	677380096	61	5311
2026-01-02 10:15:54.50	288.47	78.48	-44.7	-47.8	15.9	0.00e+00	0	44	0	679477248	61	5000
2026-01-02 10:15:55.49	290.49	78.19	-44.8	-47.9	16.0	0.00e+00	0	44	0	681574400	60	5371
2026-01-02 10:15:56.49	292.43	77.88	-46.0	-49.8	14.1	7.00e-07	0	44	0	683671552	62	5975
2026-01-02 10:15:57.49	294.27	77.57	-46.4	-50.6	13.3	2.05e-05	0	44	0	685768704	63	6141
2026-01-02 10:15:58.48	296.00	77.25	-45.7	-49.2	14.6	0.00e+00	0	44	0	686817280	62	5550
2026-01-02 10:15:59.48	297.65	76.91	-46.0	-49.7	14.2	7.00e-07	0	44	0	688914432	62	5881
2026-01-02 10:16:00.48	299.22	76.56	-44.8	-47.9	15.8	0.00e+00	0	44	0	691011584	61	5062
2026-01-02 10:16:01.48	300.71	76.21	-42.8	-45.1	18.5	0.00e+00	0	44	0	693108736	57	4614
2026-01-02 10:16:02.47	302.10	75.85	-42.2	-44.4	19.1	0.00e+00	0	44	0	694157312	56	4531
2026-01-02 10:16:03.47	303.44	75.48	-43.5	-46.0	17.7	0.00e+00	0	44	0	696254464	57	5135
2026-01-02 10:16:04.46	304.69	75.11	-44.7	-47.8	15.9	0.00e+00	0	44	0	698351616	60	5309
2026-01-02 10:16:05.45	305.89	74.73	-45.7	-49.4	14.3	0.00e+00	0	44	0	700448768	62	5691
2026-01-02 10:16:06.45	307.03	74.35	-45.6	-49.0	14.8	7.00e-07	0	44	0	702545920	62	5448
2026-01-02 10:16:07.45	308.11	73.96	-45.1	-48.3	15.5	0.00e+00	0	44	0	703594496	61	5338
2026-01-02 10:16:08.45	309.14	73.56	-45.4	-48.8	14.7	0.00e+00	0	44	0	705691648	62	5323
2026-01-02 10:16:09.44	310.12	73.17	-43.3	-45.8	17.9	0.00e+00	0	44	0	707788800	58	4710
2026-01-02 10:16:10.44	311.05	72.77	-41.3	-43.4	19.9	0.00e+00	0	44	0	709885952	54	4525
2026-01-02 10:16:11.44	311.94	72.37	-42.1	-44.3	19.1	0.00e+00	0	44	0	710934528	54	5020
2026-01-02 10:16:12.43	312.78	71.97	-44.6	-47.4	16.6	0.00e+00	0	44	0	713031680	59	5385
2026-01-02 10:16:13.43	313.59	71.56	-45.9	-49.5	14.4	0.00e+00	0	44	0	715128832	62	5734
2026-01-02 10:16:14.43	314.36	71.15	-46.8	-51.1	12.7	2.82e-05	0	44	0	717225984	64	6188
2026-01-02 10:16:15.42	315.09	70.75	-46.2	-50.1	13.7	9.30e-05	0	44	0	719323136	64	5510
2026-01-02 10:16:16.42	315.80	70.33	-44.0	-46.6	17.1	0.00e+00	0	44	0	720371712	59	4922
2026-01-02 10:16:17.42	316.47	69.92	-44.9	-47.9	16.0	0.00e+00	0	44	0	722468864	60	5364
2026-01-02 10:16:18.42	317.12	69.51	-45.4	-48.6	15.2	0.00e+00	0	44	0	724566016	61	5526
2026-01-02 10:16:19.42	317.73	69.10	-45.5	-48.8	15.1	0.00e+00	0	44	0	726663168	61	5595
2026-01-02 10:16:20.41	318.32	68.69	-45.2	-48.4	15.5	0.00e+00	0	44	0	728760320	61	5353
2026-01-02 10:16:21.41	318.89	68.27	-45.7	-49.2	14.7	0.00e+00	0	44	0	729808896	62	5542
2026-01-02 10:16:22.40	319.43	67.86	-45.7	-49.2	14.6	7.00e-07	0	44	0	731906048	62	5544
2026-01-02 10:16:23.40	319.95	67.45	-44.8	-47.9	15.8	0.00e+00	0	44	0	734003200	61	5084
2026-01-02 10:16:24.40	320.46	67.04	-42.7	-45.0	18.4	0.00e+00	0	44	0	736100352	57	4598
2026-01-02 10:16:25.40	320.94	66.62	-40.9	-42.9	20.4	0.00e+00	0	44	0	738197504	53	4520
2026-01-02 10:16:26.40	321.41	66.21	-40.8	-42.9	20.4	0.00e+00	0	44	0	739246080	53	4506
2026-01-02 10:16:27.39	321.85	65.81	-41.8	-44.1	19.4	0.00e+00	0	44	0	741343232	54	4910
2026-01-02 10:16:28.39	322.29	65.40	-42.5	-45.0	18.5	0.00e+00	0	44	0	743440384	55	5109
2026-01-02 10:16:29.39	322.71	64.99	-42.1	-44.4	19.2	0.00e+00	0	44	0	745537536	56	4502
2026-01-02 10:16:30.39	323.11	64.58	-41.0	-43.1	20.2	0.00e+00	0	44	0	746586112	54	4355
2026-01-02 10:16:31.37	323.49	64.18	-40.8	-42.8	20.4	0.00e+00	0	44	0	748683264	53	4466
2026-01-02 10:16:32.37	323.86	63.77	-41.9	-44.1	19.4	0.00e+00	0	44	0	750780416	54	4912
2026-01-02 10:16:33.37	324.23	63.37	-43.9	-46.7	17.0	0.00e+00	0	44	0	752877568	58	5219
2026-01-02 10:16:34.37	324.58	62.97	-43.1	-45.7	18.1	0.00e+00	0	44	0	754974720	57	4952
2026-01-02 10:16:35.36	324.91	62.57	-41.6	-43.9	19.5	0.00e+00	0	44	0	756023296	54	4780
2026-01-02 10:16:36.36	325.24	62.17	-41.3	-43.5	19.9	0.00e+00	0	44	0	758120448	54	4556
2026-01-02 10:16:37.35	325.56	61.77	-41.6	-43.7	19.6	0.00e+00	0	44	0	760217600	54	4705
2026-01-02 10:16:38.35	325.86	61.38	-41.6	-43.7	19.6	0.00e+00	0	44	0	762314752	54	4693
2026-01-02 10:16:39.35	326.16	60.98	-41.6	-43.7	19.6	0.00e+00	0	44	0	763363328	54	4699
2026-01-02 10:16:40.35	326.45	60.59	-42.4	-44.8	18.8	0.00e+00	0	44	0	765460480	55	4989
2026-01-02 10:16:41.34	326.73	60.20	-42.1	-44.4	19.0	0.00e+00	0	44	0	767557632	55	4814
2026-01-02 10:16:42.34	327.00	59.81	-41.4	-43.6	19.8	0.00e+00	0	44	0	769654784	54	4608
2026-01-02 10:16:43.34	327.27	59.42	-42.3	-44.6	18.8	0.00e+00	0	44	0	771751936	55	4919
2026-01-02 10:16:44.33	327.52	59.04	-43.5	-46.1	17.6	0.00e+00	0	44	0	772800512	57	5170
2026-01-02 10:16:45.33	327.77	58.66	-44.6	-47.7	16.1	0.00e+00	0	44	0	774897664	60	5235
2026-01-02 10:16:46.32	328.01	58.28	-45.3	-48.7	15.2	0.00e+00	0	44	0	776994816	61	5539
2026-01-02 10:16:47.32	328.25	57.90	-44.4	-47.4	16.4	0.00e+00	0	44	0	779091968	60	5062
2026-01-02 10:16:48.32	328.48	57.52	-43.1	-45.6	18.1	0.00e+00	0	44	0	780140544	58	4623
2026-01-02 10:16:49.32	328.70	57.15	-42.8	-45.3	18.4	0.00e+00	0	44	0	782237696	57	4710
2026-01-02 10:16:50.31	328.91	56.77	-42.5	-44.9	18.7	0.00e+00	0	44	0	784334848	56	4802
2026-01-02 10:16:51.31	329.13	56.40	-42.2	-44.6	19.0	0.00e+00	0	44	0	786432000	56	4621
2026-01-02 10:16:52.31	329.33	56.03	-41.7	-43.9	19.4	0.00e+00	0	44	0	788529152	55	4531
2026-01-02 10:16:53.31	329.53	55.67	-42.4	-44.9	18.5	0.00e+00	0	44	0	789577728	55	5088
2026-01-02 10:16:54.31	329.73	55.30	-42.8	-45.4	18.2	0.00e+00	0	44	0	791674880	56	5070
2026-01-02 10:16:55.31	329.92	54.94	-42.4	-44.9	18.7	0.00e+00	0	44	0	793772032	56	4787
2026-01-02 10:16:56.31	330.11	54.58	-41.7	-44.0	19.3	0.00e+00	0	44	0	795869184	55	4554
2026-01-02 10:16:57.30	330.29	54.22	-42.2	-44.6	18.9	0.00e+00	0	44	0	797966336	55	4888
2026-01-02 10:16:58.30	330.46	53.87	-43.2	-45.9	17.8	0.00e+00	0	44	0	799014912	57	5085
2026-01-02 10:16:59.29	330.63	53.52	-42.7	-45.1	18.5	0.00e+00	0	44	0	801112064	57	4632
2026-01-02 10:17:00.29	330.80	53.16	-41.7	-43.9	19.5	0.00e+00	0	44	0	803209216	55	4499
2026-01-02 10:17:01.29	330.97	52.81	-41.8	-44.0	19.5	0.00e+00	0	44	0	805306368	54	4834
2026-01-02 10:17:02.28	331.13	52.47	-42.4	-44.7	18.6	0.00e+00	0	44	0	806354944	55	4970
2026-01-02 10:17:03.28	331.29	52.12	-43.9	-46.6	17.1	0.00e+00	0	44	0	808452096	58	5210
2026-01-02 10:17:04.29	331.44	51.78	-44.6	-47.5	16.2	0.00e+00	0	44	0	810549248	59	5458
2026-01-02 10:17:05.28	331.59	51.44	-44.5	-47.4	16.4	0.00e+00	0	44	0	812646400	60	5075
2026-01-02 10:17:06.28	331.74	51.10	-44.5	-47.4	16.5	0.00e+00	0	44	0	814743552	60	5067
2026-01-02 10:17:07.27	331.88	50.77	-44.3	-47.2	16.6	0.00e+00	0	44	0	815792128	60	4931
2026-01-02 10:17:08.27	332.02	50.43	-44.0	-46.8	16.9	0.00e+00	0	44	0	817889280	59	5003
2026-01-02 10:17:09.26	332.16	50.11	-43.9	-46.7	17.1	0.00e+00	0	44	0	819986432	59	4937
2026-01-02 10:17:10.26	332.29	49.78	-43.7	-46.5	17.3	0.00e+00	0	44	0	822083584	59	4828
2026-01-02 10:17:11.26	332.43	49.45	-44.1	-46.9	16.8	0.00e+00	0	44	0	823132160	59	5050
2026-01-02 10:17:12.26	332.56	49.12	-44.7	-47.7	16.0	0.00e+00	0	44	0	825229312	60	5262
2026-01-02 10:17:13.26	332.68	48.80	-45.3	-48.6	15.3	0.00e+00	0	44	0	827326464	61	5503
2026-01-02 10:17:14.25	332.81	48.48	-45.7	-49.3	14.6	0.00e+00	0	44	0	829423616	62	5596
2026-01-02 10:17:15.25	332.93	48.17	-45.4	-48.7	15.1	0.00e+00	0	44	0	831520768	62	5247
2026-01-02 10:17:16.25	333.05	47.85	-43.9	-46.6	17.1	0.00e+00	0	44	0	832569344	59	4892
2026-01-02 10:17:17.25	333.17	47.54	-43.3	-45.8	17.9	0.00e+00	0	44	0	834666496	58	4753
2026-01-02 10:17:18.25	333.28	47.22	-43.2	-45.7	18.0	0.00e+00	0	44	0	836763648	58	4655
2026-01-02 10:17:19.25	333.39	46.91	-44.8	-48.0	15.9	0.00e+00	0	44	0	838860800	60	5446
2026-01-02 10:17:20.25	333.51	46.61	-46.9	-51.9	11.9	3.00e-06	0	44	0	840957952	64	6757
2026-01-02 10:17:21.24	333.61	46.30	-47.6	-53.8	9.9	1.04e-02	0	44	0	842006528	66	7524
2026-01-02 10:17:22.24	333.72	46.00	-47.1	-52.2	11.5	5.39e-03	0	44	0	844103680	66	6268
2026-01-02 10:17:23.24	333.82	45.70	-46.1	-50.0	13.9	9.61e-05	0	44	0	846200832	63	5730
2026-01-02 10:17:24.24	333.93	45.40	-45.4	-48.7	15.1	0.00e+00	0	44	0	848297984	62	5231
2026-01-02 10:17:25.24	334.03	45.10	-44.4	-47.3	16.6	0.00e+00	0	44	0	850395136	60	4985
2026-01-02 10:17:26.23	334.13	44.81	-43.4	-45.9	17.7	0.00e+00	0	44	0	851443712	58	4793
2026-01-02 10:17:27.23	334.22	44.52	-42.6	-44.9	18.7	0.00e+00	0	44	0	853540864	57	4530
2026-01-02 10:17:28.23	334.32	44.23	-42.7	-45.1	18.6	0.00e+00	0	44	0	855638016	56	4874
2026-01-02 10:17:29.23	334.41	43.94	-42.5	-44.8	18.8	0.00e+00	0	44	0	857735168	56	4745
2026-01-02 10:17:30.23	334.51	43.65	-43.6	-46.2	17.6	0.00e+00	0	44	0	858783744	57	5250
2026-01-02 10:17:31.22	334.60	43.37	-45.2	-48.6	15.2	0.00e+00	0	44	0	860880896	61	5514
2026-01-02 10:17:32.22	334.69	43.09	-46.4	-50.9	12.9	6.80e-06	0	44	0	862978048	63	6409
2026-01-02 10:17:33.22	334.77	42.81	-46.3	-50.8	12.8	1.06e-04	0	44	0	865075200	64	5974
2026-01-02 10:17:34.22	334.86	42.53	-45.4	-49.2	14.7	1.60e-05	0	44	0	867172352	62	5551
2026-01-02 10:17:35.22	334.95	42.26	-43.6	-46.4	17.2	0.00e+00	0	44	0	868220928	59	4810
2026-01-02 10:17:36.23	335.03	41.98	-42.0	-44.4	19.2	0.00e+00	0	44	0	870318080	56	4495
2026-01-02 10:17:37.23	335.11	41.71	-41.5	-43.7	19.6	0.00e+00	0	44	0	872415232	55	4424
2026-01-02 10:17:38.23	335.19	41.44	-41.6	-43.9	19.5	0.00e+00	0	44	0	874512384	54	4779
2026-01-02 10:17:39.23	335.27	41.17	-42.0	-44.3	19.2	0.00e+00	0	44	0	876609536	54	5003
2026-01-02 10:17:40.24	335.35	40.90	-42.1	-44.4	19.0	0.00e+00	0	44	0	877658112	54	5078
2026-01-02 10:17:41.24	335.43	40.63	-42.7	-45.2	18.4	0.00e+00	0	44	0	879755264	56	4940
2026-01-02 10:17:42.24	335.51	40.37	-43.0	-45.6	18.1	0.00e+00	0	44	0	881852416	57	4872
2026-01-02 10:17:43.24	335.58	40.11	-43.2	-45.8	17.9	0.00e+00	0	44	0	883949568	57	5026
2026-01-02 10:17:44.24	335.66	39.85	-44.1	-47.1	16.7	0.00e+00	0	44	0	886046720	58	5488
2026-01-02 10:17:45.24	335.73	39.60	-43.8	-46.7	17.0	0.00e+00	0	44	0	887095296	58	5257
2026-01-02 10:17:46.24	335.80	39.34	-43.5	-46.3	17.4	0.00e+00	0	44	0	889192448	58	4988
2026-01-02 10:17:47.25	335.87	39.08	-43.5	-46.3	17.4	0.00e+00	0	44	0	891289600	58	5013
2026-01-02 10:17:48.25	335.94	38.83	-43.9	-46.7	16.9	0.00e+00	0	44	0	893386752	58	5267
2026-01-02 10:17:49.25	336.01	38.58	-43.8	-46.6	17.2	0.00e+00	0	44	0	894435328	58	5170
2026-01-02 10:17:50.26	336.08	38.33	-43.7	-46.3	17.3	0.00e+00	0	44	0	896532480	58	5028
2026-01-02 10:17:51.26	336.14	38.09	-43.2	-45.7	18.0	0.00e+00	0	44	0	898629632	58	4673
2026-01-02 10:17:52.26	336.21	37.84	-42.6	-44.9	18.7	0.00e+00	0	44	0	900726784	57	4540
2026-01-02 10:17:53.27	336.28	37.60	-42.9	-45.3	18.3	0.00e+00	0	44	0	902823936	57	4729
2026-01-02 10:17:54.27	336.34	37.36	-43.4	-46.0	17.6	0.00e+00	0	44	0	903872512	57	5126
2026-01-02 10:17:55.27	336.40	37.12	-44.3	-47.3	16.5	0.00e+00	0	44	0	905969664	59	5313
2026-01-02 10:17:56.28	336.47	36.88	-45.1	-48.5	15.4	0.00e+00	0	44	0	908066816	60	5738
2026-01-02 10:17:57.28	336.53	36.64	-46.1	-50.1	13.6	0.00e+00	0	44	0	910163968	63	5851
2026-01-02 10:17:58.28	336.59	36.41	-46.5	-51.2	12.7	3.35e-05	0	44	0	912261120	63	6579
2026-01-02 10:17:59.29	336.65	36.17	-46.0	-50.6	13.2	5.95e-05	0	44	0	913309696	63	6157
2026-01-02 10:18:00.28	336.71	35.94	-45.9	-50.5	13.2	7.32e-05	0	44	0	915406848	63	6077
2026-01-02 10:18:01.29	336.76	35.71	-44.7	-48.5	15.1	6.10e-06	0	44	0	917504000	61	5458
2026-01-02 10:18:02.29	336.82	35.49	-44.1	-47.4	16.2	0.00e+00	0	44	0	919601152	59	5376
2026-01-02 10:18:03.29	336.88	35.26	-43.1	-46.0	17.7	0.00e+00	0	44	0	921698304	58	4818
2026-01-02 10:18:04.30	336.93	35.03	-42.8	-45.5	18.1	0.00e+00	0	44	0	922746880	57	4840
2026-01-02 10:18:05.30	336.99	34.81	-42.2	-44.7	18.8	0.00e+00	0	44	0	924844032	56	4679
2026-01-02 10:18:06.30	337.04	34.59	-42.1	-44.6	18.9	0.00e+00	0	44	0	926941184	55	4876
2026-01-02 10:18:07.30	337.10	34.37	-42.8	-45.4	18.2	0.00e+00	0	44	0	929038336	56	5076
2026-01-02 10:18:08.30	337.15	34.15	-43.3	-46.0	17.7	0.00e+00	0	44	0	931135488	57	5130
2026-01-02 10:18:09.31	337.20	33.93	-44.5	-47.6	16.1	0.00e+00	0	44	0	932184064	59	5513
2026-01-02 10:18:10.31	337.26	33.72	-44.9	-48.3	15.5	0.00e+00	0	44	0	934281216	61	5308
2026-01-02 10:18:11.31	337.31	33.50	-45.8	-49.7	14.2	0.00e+00	0	44	0	936378368	62	5864
2026-01-02 10:18:12.32	337.36	33.29	-46.1	-50.2	13.7	2.20e-06	0	44	0	938475520	62	6213
2026-01-02 10:18:13.32	337.41	33.08	-46.1	-50.3	13.5	2.05e-05	0	44	0	939524096	63	5959
2026-01-02 10:18:14.32	337.46	32.87	-46.1	-50.2	13.6	1.29e-05	0	44	0	941621248	63	5912
2026-01-02 10:18:15.32	337.51	32.66	-46.1	-50.3	13.5	6.10e-06	0	44	0	943718400	63	5944
2026-01-02 10:18:16.32	337.55	32.46	-45.8	-49.7	14.1	6.10e-06	0	44	0	945815552	63	5570
2026-01-02 10:18:17.32	337.60	32.25	-45.2	-48.8	15.0	7.00e-07	0	44	0	947912704	62	5284
2026-01-02 10:18:18.33	337.65	32.04	-45.1	-48.8	15.0	0.00e+00	0	44	0	948961280	61	5608
2026-01-02 10:18:19.33	337.70	31.84	-44.5	-48.0	15.8	0.00e+00	0	44	0	951058432	61	5115
2026-01-02 10:18:20.33	337.74	31.64	-44.4	-48.0	15.7	0.00e+00	0	44	0	953155584	60	5453
2026-01-02 10:18:21.33	337.79	31.44	-44.3	-48.0	15.8	0.00e+00	0	44	0	955252736	60	5407
2026-01-02 10:18:22.33	337.83	31.24	-43.9	-47.1	16.6	0.00e+00	0	44	0	957349888	59	5207
2026-01-02 10:18:23.33	337.88	31.05	-43.9	-47.1	16.6	0.00e+00	0	44	0	958398464	59	5194
2026-01-02 10:18:24.33	337.92	30.85	-44.2	-47.5	16.2	0.00e+00	0	44	0	960495616	59	5416
2026-01-02 10:18:25.33	337.96	30.66	-44.0	-47.1	16.6	0.00e+00	0	44	0	962592768	59	5174
2026-01-02 10:18:26.34	338.01	30.46	-43.8	-46.7	16.9	0.00e+00	0	44	0	964689920	59	4980
2026-01-02 10:18:27.34	338.05	30.27	-44.1	-47.1	16.6	0.00e+00	0	44	0	966787072	59	5180
2026-01-02 10:18:28.34	338.09	30.08	-43.5	-46.3	17.3	0.00e+00	0	44	0	967835648	59	4741
2026-01-02 10:18:29.35	338.14	29.89	-43.3	-46.1	17.6	0.00e+00	0	44	0	969932800	58	4873
2026-01-02 10:18:30.35	338.18	29.70	-43.3	-46.1	17.5	0.00e+00	0	44	0	972029952	58	4901
2026-01-02 10:18:31.35	338.22	29.51	-43.2	-46.0	17.7	0.00e+00	0	44	0	974127104	58	4821
2026-01-02 10:18:32.35	338.26	29.33	-43.0	-45.7	17.9	0.00e+00	0	44	0	976224256	57	4962
2026-01-02 10:18:33.35	338.30	29.15	-43.2	-46.0	17.6	0.00e+00	0	44	0	977272832	57	5145
2026-01-02 10:18:34.36	338.34	28.96	-43.5	-46.4	17.3	0.00e+00	0	44	0	979369984	57	5348
2026-01-02 10:18:35.36	338.38	28.78	-43.9	-46.8	16.9	0.00e+00	0	44	0	981467136	58	5317
2026-01-02 10:18:36.36	338.42	28.60	-44.1	-47.1	16.6	0.00e+00	0	44	0	983564288	58	5499
2026-01-02 10:18:37.36	338.45	28.42	-44.5	-47.5	16.2	0.00e+00	0	44	0	984612864	59	5432
2026-01-02 10:18:38.37	338.49	28.24	-44.9	-48.2	15.6	0.00e+00	0	44	0	986710016	60	5534
2026-01-02 10:18:39.37	338.53	28.06	-44.9	-48.2	15.6	0.00e+00	0	44	0	988807168	60	5536
2026-01-02 10:18:40.37	338.57	27.88	-44.9	-48.1	15.6	0.00e+00	0	44	0	990904320	60	5521
2026-01-02 10:18:41.38	338.60	27.71	-44.5	-47.7	16.0	0.00e+00	0	44	0	993001472	60	5244
2026-01-02 10:18:42.38	338.64	27.53	-44.7	-48.0	15.7	0.00e+00	0	44	0	994050048	60	5454
2026-01-02 10:18:43.38	338.68	27.36	-44.3	-47.5	16.2	0.00e+00	0	44	0	996147200	60	5135
2026-01-02 10:18:44.38	338.71	27.19	-44.2	-47.4	16.4	0.00e+00	0	44	0	998244352	60	5065
2026-01-02 10:18:45.39	338.75	27.02	-43.9	-47.0	16.5	0.00e+00	0	44	0	1000341504	59	5125
2026-01-02 10:18:46.39	338.78	26.85	-43.4	-46.3	17.4	0.00e+00	0	44	0	1002438656	58	5005
2026-01-02 10:18:47.39	338.82	26.68	-43.2	-46.0	17.6	0.00e+00	0	44	0	1003487232	58	4854
2026-01-02 10:18:48.39	338.85	26.51	-42.9	-45.5	18.0	0.00e+00	0	44	0	1005584384	57	4862
2026-01-02 10:18:49.40	338.89	26.34	-42.6	-45.1	18.4	0.00e+00	0	44	0	1007681536	57	4628
2026-01-02 10:18:50.40	338.92	26.18	-42.2	-44.5	19.0	0.00e+00	0	44	0	1009778688	56	4583
2026-01-02 10:18:51.40	338.96	26.01	-42.0	-44.4	19.1	0.00e+00	0	44	0	1011875840	56	4497
2026-01-02 10:18:52.40	338.99	25.85	-41.7	-43.9	19.3	0.00e+00	0	44	0	1012924416	55	4518
2026-01-02 10:18:53.41	339.02	25.69	-41.5	-43.8	19.5	0.00e+00	0	44	0	1015021568	54	4707
2026-01-02 10:18:54.41	339.05	25.52	-41.4	-43.6	19.7	0.00e+00	0	44	0	1017118720	54	4645
2026-01-02 10:18:55.41	339.09	25.36	-41.3	-43.5	19.7	0.00e+00	0	44	0	1019215872	54	4587
2026-01-02 10:18:56.42	339.12	25.20	-41.4	-43.6	19.6	0.00e+00	0	44	0	1021313024	54	4650
2026-01-02 10:18:57.42	339.15	25.04	-41.2	-43.5	19.7	0.00e+00	0	44	0	1022361600	54	4568
2026-01-02 10:18:58.42	339.18	24.89	-40.9	-43.1	20.1	0.00e+00	0	44	0	1024458752	53	4640
2026-01-02 10:18:59.43	339.21	24.73	-41.2	-43.5	19.8	0.00e+00	0	44	0	1026555904	53	4825
2026-01-02 10:19:00.42	339.25	24.57	-41.2	-43.5	19.7	0.00e+00	0	44	0	1028653056	53	4859
2026-01-02 10:19:01.42	339.28	24.42	-41.1	-43.4	19.8	0.00e+00	0	44	0	1029701632	53	4778
2026-01-02 10:19:02.43	339.31	24.26	-41.1	-43.4	19.8	0.00e+00	0	44	0	1031798784	53	4773
2026-01-02 10:19:03.43	339.34	24.11	-41.1	-43.5	19.8	0.00e+00	0	44	0	1033895936	53	4818
2026-01-02 10:19:04.44	339.37	23.96	-41.3	-43.6	19.6	0.00e+00	0	44	0	1035993088	53	4917
2026-01-02 10:19:05.44	339.40	23.81	-41.2	-43.5	19.7	0.00e+00	0	44	0	1038090240	53	4858
2026-01-02 10:19:06.44	339.43	23.66	-41.3	-43.6	19.6	0.00e+00	0	44	0	1039138816	53	4878
2026-01-02 10:19:07.44	339.46	23.51	-41.5	-43.8	19.5	0.00e+00	0	44	0	1041235968	53	5002
2026-01-02 10:19:08.45	339.48	23.36	-41.6	-43.9	19.4	0.00e+00	0	44	0	1043333120	53	5059
2026-01-02 10:19:09.45	339.51	23.21	-41.7	-44.1	19.2	0.00e+00	0	44	0	1045430272	54	4878
2026-01-02 10:19:10.45	339.54	23.06	-41.9	-44.2	19.1	0.00e+00	0	44	0	1047527424	54	4962
2026-01-02 10:19:11.46	339.57	22.91	-42.1	-44.5	18.9	0.00e+00	0	44	0	1048576000	54	5101
2026-01-02 10:19:12.46	339.60	22.77	-42.3	-44.8	18.6	0.00e+00	0	44	0	1050673152	55	4996
2026-01-02 10:19:13.46	339.63	22.62	-42.3	-44.8	18.5	0.00e+00	0	44	0	1052770304	55	5038
2026-01-02 10:19:14.46	339.65	22.48	-42.4	-45.1	18.3	0.00e+00	0	44	0	1054867456	55	5160
2026-01-02 10:19:15.46	339.68	22.34	-42.5	-45.1	18.2	0.00e+00	0	44	0	1056964608	55	5215
2026-01-02 10:19:16.47	339.71	22.19	-42.4	-45.1	18.2	0.00e+00	0	44	0	1058013184	55	5173
2026-01-02 10:19:17.47	339.74	22.05	-42.2	-44.9	18.4	0.00e+00	0	44	0	1060110336	55	5072
2026-01-02 10:19:18.47	339.76	21.91	-42.4	-45.2	18.1	0.00e+00	0	44	0	1062207488	55	5264
2026-01-02 10:19:19.47	339.79	21.77	-42.2	-44.9	18.4	0.00e+00	0	44	0	1064304640	55	5083
2026-01-02 10:19:20.48	339.82	21.63	-42.0	-44.6	18.7	0.00e+00	0	44	0	1066401792	55	4890
2026-01-02 10:19:21.48	339.84	21.49	-42.1	-44.7	18.7	0.00e+00	0	44	0	1067450368	55	4933
2026-01-02 10:19:22.48	339.87	21.36	-42.1	-44.6	18.8	0.00e+00	0	44	0	1069547520	55	4887
2026-01-02 10:19:23.48	339.89	21.22	-41.8	-44.3	19.0	0.00e+00	0	44	0	1071644672	55	4711
2026-01-02 10:19:24.48	339.92	21.08	-42.0	-44.4	18.9	0.00e+00	0	44	0	1073741824	55	4790
2026-01-02 10:19:25.49	339.94	20.95	-42.1	-44.5	18.8	0.00e+00	0	44	0	1075838976	55	4835
2026-01-02 10:19:26.49	339.97	20.81	-42.2	-44.6	18.8	0.00e+00	0	44	0	1076887552	55	4894
2026-01-02 10:19:27.49	339.99	20.68	-42.0	-44.5	18.9	0.00e+00	0	44	0	1078984704	55	4816
2026-01-02 10:19:28.49	340.02	20.55	-42.0	-44.5	18.9	0.00e+00	0	44	0	1081081856	55	4826
2026-01-02 10:19:29.49	340.04	20.41	-42.1	-44.6	18.7	0.00e+00	0	44	0	1083179008	55	4908
2026-01-02 10:19:30.50	340.07	20.28	-42.1	-44.6	18.7	0.00e+00	0	44	0	1084227584	55	4908
2026-01-02 10:19:31.50	340.09	20.15	-42.1	-44.8	18.5	0.00e+00	0	44	0	1086324736	55	5016
2026-01-02 10:19:32.50	340.12	20.02	-42.0	-44.6	18.7	0.00e+00	0	44	0	1088421888	55	4922
2026-01-02 10:19:33.50	340.14	19.89	-41.9	-44.7	18.7	0.00e+00	0	44	0	1090519040	55	4928
2026-01-02 10:19:34.50	340.17	19.76	-42.1	-44.8	18.5	0.00e+00	0	44	0	1092616192	55	5024
2026-01-02 10:19:35.51	340.19	19.63	-42.0	-44.7	18.7	0.00e+00	0	44	0	1093664768	55	4982
2026-01-02 10:19:36.51	340.21	19.50	-42.0	-44.7	18.6	0.00e+00	0	44	0	1095761920	55	4959
2026-01-02 10:19:37.51	340.24	19.38	-42.0	-44.5	18.7	0.00e+00	0	44	0	1097859072	55	4869
2026-01-02 10:19:38.51	340.26	19.25	-41.9	-44.3	18.9	0.00e+00	0	44	0	1099956224	55	4754
2026-01-02 10:19:39.51	340.28	19.12	-42.0	-44.4	18.8	0.00e+00	0	44	0	1102053376	55	4814
2026-01-02 10:19:40.52	340.31	19.00	-41.8	-44.2	19.0	0.00e+00	0	44	0	1103101952	55	4689
2026-01-02 10:19:41.52	340.33	18.87	-41.8	-44.1	19.1	0.00e+00	0	44	0	1105199104	55	4637
2026-01-02 10:19:42.53	340.35	18.75	-41.7	-44.1	19.2	0.00e+00	0	44	0	1107296256	55	4602
2026-01-02 10:19:43.53	340.37	18.63	-41.7	-44.0	19.3	0.00e+00	0	44	0	1109393408	55	4550
2026-01-02 10:19:44.53	340.40	18.50	-41.6	-43.8	19.4	0.00e+00	0	44	0	1111490560	55	4482
2026-01-02 10:19:45.54	340.42	18.38	-41.5	-43.7	19.4	0.00e+00	0	44	0	1112539136	55	4438
2026-01-02 10:19:46.54	340.44	18.26	-41.6	-43.9	19.3	0.00e+00	0	44	0	1114636288	55	4516
2026-01-02 10:19:47.54	340.46	18.14	-41.6	-43.9	19.3	0.00e+00	0	44	0	1116733440	55	4503
2026-01-02 10:19:48.54	340.48	18.02	-41.5	-43.8	19.4	0.00e+00	0	44	0	1118830592	55	4448
2026-01-02 10:19:49.55	340.50	17.90	-41.6	-43.9	19.3	0.00e+00	0	44	0	1120927744	55	4510
2026-01-02 10:19:50.55	340.53	17.78	-41.6	-44.0	19.2	0.00e+00	0	44	0	1121976320	55	4560
2026-01-02 10:19:51.55	340.55	17.66	-41.6	-44.0	19.2	0.00e+00	0	44	0	1124073472	55	4564
2026-01-02 10:19:52.55	340.57	17.54	-41.8	-44.2	19.0	0.00e+00	0	44	0	1126170624	55	4690
2026-01-02 10:19:53.55	340.59	17.42	-41.9	-44.3	18.9	0.00e+00	0	44	0	1128267776	55	4734
2026-01-02 10:19:54.55	340.61	17.31	-41.9	-44.3	18.9	0.00e+00	0	44	0	1129316352	55	4754
2026-01-02 10:19:55.56	340.63	17.19	-42.2	-44.6	18.7	0.00e+00	0	44	0	1131413504	55	4916
2026-01-02 10:19:56.56	340.65	17.07	-42.3	-44.7	18.5	0.00e+00	0	44	0	1133510656	55	4969
2026-01-02 10:19:57.56	340.67	16.96	-42.2	-44.7	18.6	0.00e+00	0	44	0	1135607808	55	4948
2026-01-02 10:19:58.56	340.69	16.85	-42.3	-44.8	18.5	0.00e+00	0	44	0	1137704960	55	4984
2026-01-02 10:19:59.56	340.71	16.73	-42.6	-45.1	18.2	0.00e+00	0	44	0	1138753536	55	5205
2026-01-02 10:20:00.57	340.73	16.62	-43.1	-45.7	17.8	0.00e+00	0	44	0	1140850688	56	5241
2026-01-02 10:20:01.57	340.75	16.50	-42.8	-45.4	18.1	0.00e+00	0	44	0	1142947840	56	5064
2026-01-02 10:20:02.57	340.77	16.39	-43.0	-45.7	17.8	0.00e+00	0	44	0	1145044992	57	4935
2026-01-02 10:20:03.57	340.79	16.28	-43.1	-45.8	17.7	0.00e+00	0	44	0	1147142144	57	5001
2026-01-02 10:20:04.58	340.81	16.17	-42.9	-45.6	17.9	0.00e+00	0	44	0	1148190720	57	4914
2026-01-02 10:20:05.58	340.83	16.06	-43.2	-46.0	17.5	0.00e+00	0	43	0	1150287872	57	5110
2026-01-02 10:20:06.58	340.85	15.95	-43.1	-45.9	17.5	0.00e+00	0	43	0	1152385024	57	5097
2026-01-02 10:20:07.58	340.87	15.84	-43.0	-45.9	17.5	0.00e+00	0	43	0	1154482176	57	5092
2026-01-02 10:20:08.59	340.89	15.73	-43.1	-46.0	17.4	0.00e+00	0	44	0	1156579328	57	5131
2026-01-02 10:20:09.59	340.91	15.62	-43.0	-46.0	17.5	0.00e+00	0	44	0	1157627904	57	5134
2026-01-02 10:20:10.59	340.93	15.51	-43.1	-46.0	17.4	0.00e+00	0	44	0	1159725056	57	5157
2026-01-02 10:20:11.59	340.95	15.40	-43.0	-45.9	17.6	0.00e+00	0	44	0	1161822208	57	5045
2026-01-02 10:20:12.59	340.97	15.29	-43.0	-45.9	17.6	0.00e+00	0	44	0	1163919360	57	5045
2026-01-02 10:20:13.60	340.98	15.18	-42.9	-45.8	17.6	0.00e+00	0	44	0	1166016512	57	5024
2026-01-02 10:20:14.60	341.00	15.08	-43.0	-45.9	17.6	0.00e+00	0	44	0	1167065088	57	5061
2026-01-02 10:20:15.60	341.02	14.97	-43.0	-45.9	17.5	0.00e+00	0	44	0	1169162240	57	5088
2026-01-02 10:20:16.61	341.04	14.87	-43.0	-45.9	17.5	0.00e+00	0	44	0	1171259392	57	5079
2026-01-02 10:20:17.61	341.06	14.76	-42.9	-45.8	17.7	0.00e+00	0	43	0	1173356544	57	5016
2026-01-02 10:20:18.61	341.08	14.66	-42.9	-45.9	17.5	0.00e+00	0	44	0	1174405120	57	5067
2026-01-02 10:20:19.62	341.09	14.55	-42.9	-45.9	17.6	0.00e+00	0	44	0	1176502272	57	5068
2026-01-02 10:20:20.62	341.11	14.45	-42.9	-46.0	17.4	0.00e+00	0	44	0	1178599424	57	5124
2026-01-02 10:20:21.62	341.13	14.34	-42.8	-45.9	17.5	0.00e+00	0	44	0	1180696576	57	5062
2026-01-02 10:20:22.62	341.15	14.24	-42.7	-46.0	17.5	0.00e+00	0	44	0	1182793728	57	5101
2026-01-02 10:20:23.62	341.17	14.14	-42.6	-45.9	17.5	0.00e+00	0	43	0	1183842304	57	5061
2026-01-02 10:20:24.63	341.18	14.04	-42.7	-46.1	17.4	0.00e+00	0	44	0	1185939456	57	5162
2026-01-02 10:20:25.63	341.20	13.93	-42.5	-45.9	17.5	0.00e+00	0	44	0	1188036608	57	5092
2026-01-02 10:20:26.63	341.22	13.83	-42.6	-46.1	17.3	0.00e+00	0	43	0	1190133760	57	5204
2026-01-02 10:20:27.63	341.24	13.73	-42.6	-46.3	17.1	0.00e+00	0	44	0	1192230912	57	5302
2026-01-02 10:20:28.63	341.25	13.63	-42.6	-46.2	17.2	0.00e+00	0	44	0	1193279488	57	5273
2026-01-02 10:20:29.64	341.27	13.53	-42.5	-46.1	17.3	0.00e+00	0	44	0	1195376640	57	5187
2026-01-02 10:20:30.64	341.29	13.43	-42.6	-46.4	17.1	0.00e+00	0	44	0	1197473792	57	5341
2026-01-02 10:20:31.64	341.30	13.33	-42.6	-46.2	17.2	0.00e+00	0	44	0	1199570944	57	5273
2026-01-02 10:20:32.65	341.32	13.23	-42.6	-46.3	17.1	0.00e+00	0	44	0	1201668096	57	5286
2026-01-02 10:20:33.65	341.34	13.13	-42.7	-46.4	17.0	0.00e+00	0	44	0	1202716672	57	5376
2026-01-02 10:20:34.65	341.35	13.04	-42.8	-46.4	17.0	0.00e+00	0	43	0	1204813824	57	5373
2026-01-02 10:20:35.66	341.37	12.94	-42.9	-46.4	17.0	0.00e+00	0	44	0	1206910976	57	5395
2026-01-02 10:20:36.66	341.39	12.84	-43.0	-46.5	16.9	0.00e+00	0	44	0	1209008128	57	5421
2026-01-02 10:20:37.66	341.40	12.74	-43.0	-46.5	16.9	0.00e+00	0	44	0	1211105280	57	5412
2026-01-02 10:20:38.66	341.42	12.65	-43.2	-46.5	16.9	0.00e+00	0	44	0	1212153856	57	5448
2026-01-02 10:20:39.67	341.44	12.55	-43.2	-46.4	16.9	0.00e+00	0	43	0	1214251008	57	5390
2026-01-02 10:20:40.67	341.45	12.45	-43.3	-46.6	16.8	0.00e+00	0	44	0	1216348160	57	5486
