passes_logs/2026/01/02/T1/T1__20260102_062840_FENGYUN_3E_rec.log

#Pass ID: 20260102_062840_FENGYUN 3E
#Satellite: FENGYUN 3E
#Configuration: FENGYUN 3E
#almurnet v.1.7.20251203
#Start time: 2026-01-02 06:28:40

#Version: 2.0.20230620
#Station: T1
#Location: 37.570604 lon 55.790049 lat
#TLE: 1 49008U 21062A   26001.26445318  .00000475  00000+0  24453-3 0  9990
#TLE: 2 49008  98.7480   6.5551 0001357 167.8415 192.2795 14.19884467232890

#Time	Az	El	Level	Level2	SNR	BER	BlckErr	Temp	State	Recorded	gain1	gain2
2026-01-02 06:28:40.28	1.54	4.99	-49.0	-61.3	3.8	8.47e-01	0	41	0	0	68	14860
2026-01-02 06:28:41.28	1.42	5.04	-49.7	-60.9	3.8	8.46e-01	0	41	104	0	69	13405
2026-01-02 06:28:42.28	1.31	5.09	-49.7	-61.0	3.8	8.48e-01	0	41	104	0	69	13483
2026-01-02 06:28:43.28	1.20	5.13	-49.7	-61.0	3.8	8.47e-01	0	41	104	0	69	13434
2026-01-02 06:28:44.27	1.08	5.18	-49.7	-61.0	3.8	8.48e-01	0	41	104	0	69	13447
2026-01-02 06:28:45.27	0.97	5.23	-49.7	-61.0	3.8	8.47e-01	0	41	104	0	69	13485
2026-01-02 06:28:46.27	0.85	5.27	-49.7	-61.0	3.8	8.47e-01	0	42	104	0	69	13521
2026-01-02 06:28:47.26	0.74	5.32	-49.7	-60.9	3.8	8.46e-01	0	42	104	0	69	13373
2026-01-02 06:28:48.26	0.62	5.37	-49.7	-60.9	3.8	8.48e-01	0	42	104	0	69	13408
2026-01-02 06:28:49.26	0.50	5.41	-49.7	-61.0	3.8	8.47e-01	0	42	104	0	69	13417
2026-01-02 06:28:50.26	0.39	5.46	-49.7	-61.0	3.8	8.47e-01	0	42	104	0	69	13514
2026-01-02 06:28:51.26	0.27	5.51	-49.7	-61.1	3.8	8.47e-01	0	42	104	0	69	13589
2026-01-02 06:28:52.26	0.15	5.55	-49.7	-61.0	3.8	8.47e-01	0	42	104	0	69	13521
2026-01-02 06:28:53.25	0.03	5.60	-49.7	-61.0	3.8	8.47e-01	0	42	104	0	69	13494
2026-01-02 06:28:54.25	359.92	5.65	-49.7	-61.0	3.8	8.47e-01	0	42	104	0	69	13509
2026-01-02 06:28:55.25	359.80	5.69	-49.7	-61.0	3.8	8.46e-01	0	42	104	0	69	13420
2026-01-02 06:28:56.25	359.68	5.74	-49.7	-61.0	3.8	8.48e-01	0	42	104	0	69	13471
2026-01-02 06:28:57.24	359.56	5.78	-49.7	-60.9	3.8	8.47e-01	0	42	104	0	69	13350
2026-01-02 06:28:58.24	359.44	5.83	-49.7	-61.0	3.8	8.46e-01	0	42	104	0	69	13524
2026-01-02 06:28:59.23	359.32	5.88	-49.7	-61.0	3.8	8.47e-01	0	42	104	0	69	13478
2026-01-02 06:29:00.23	359.20	5.92	-49.7	-60.9	3.8	8.48e-01	0	42	104	0	69	13356
2026-01-02 06:29:01.23	359.08	5.97	-49.7	-60.9	3.8	8.47e-01	0	42	104	0	69	13338
2026-01-02 06:29:02.23	358.96	6.02	-49.7	-60.9	3.8	8.47e-01	0	42	104	0	69	13399
2026-01-02 06:29:03.22	358.84	6.06	-49.7	-61.0	3.8	8.48e-01	0	42	104	0	69	13445
2026-01-02 06:29:04.22	358.71	6.11	-49.7	-61.0	3.8	8.47e-01	0	42	104	0	69	13466
2026-01-02 06:29:05.22	358.59	6.15	-49.7	-60.9	3.8	8.46e-01	0	42	104	0	69	13353
2026-01-02 06:29:06.21	358.47	6.20	-49.7	-61.0	3.8	8.46e-01	0	42	104	0	69	13419
2026-01-02 06:29:07.21	358.34	6.25	-49.7	-60.9	3.8	8.46e-01	0	42	104	0	69	13383
2026-01-02 06:29:08.21	358.22	6.29	-49.7	-60.9	3.8	8.47e-01	0	42	104	0	69	13387
2026-01-02 06:29:09.21	358.10	6.34	-49.7	-61.0	3.8	8.47e-01	0	42	104	0	69	13452
2026-01-02 06:29:10.21	357.97	6.38	-49.7	-60.9	3.8	8.46e-01	0	42	104	0	69	13390
2026-01-02 06:29:11.21	357.85	6.43	-49.7	-60.9	3.8	8.46e-01	0	42	104	0	69	13386
2026-01-02 06:29:12.20	357.72	6.47	-49.7	-60.8	3.8	8.47e-01	0	42	104	0	69	13244
2026-01-02 06:29:13.20	357.60	6.52	-49.7	-60.9	3.8	8.47e-01	0	43	104	0	69	13326
2026-01-02 06:29:14.20	357.47	6.57	-49.7	-60.9	3.8	8.46e-01	0	42	104	0	69	13333
2026-01-02 06:29:15.20	357.34	6.61	-49.7	-60.9	3.8	8.47e-01	0	43	104	0	69	13405
2026-01-02 06:29:16.20	357.22	6.66	-49.7	-60.9	3.8	8.48e-01	0	43	104	0	69	13359
2026-01-02 06:29:17.20	357.09	6.70	-49.7	-60.9	3.8	8.46e-01	0	43	104	0	69	13287
2026-01-02 06:29:18.20	356.96	6.75	-49.7	-60.8	3.8	8.48e-01	0	43	104	0	69	13255
2026-01-02 06:29:19.20	356.83	6.79	-49.7	-60.8	3.8	8.46e-01	0	43	104	0	69	13183
2026-01-02 06:29:20.20	356.70	6.84	-49.7	-60.8	3.8	8.47e-01	0	43	104	0	69	13182
2026-01-02 06:29:21.19	356.57	6.88	-49.7	-60.8	3.8	8.46e-01	0	43	104	0	69	13153
2026-01-02 06:29:22.19	356.44	6.93	-49.7	-60.8	3.8	8.47e-01	0	43	104	0	69	13194
2026-01-02 06:29:23.20	356.31	6.97	-49.7	-60.8	3.8	8.47e-01	0	43	104	0	69	13229
2026-01-02 06:29:24.20	356.18	7.02	-49.7	-60.8	3.8	8.48e-01	0	43	104	0	69	13218
2026-01-02 06:29:25.20	356.05	7.06	-49.7	-60.9	3.8	8.46e-01	0	43	104	0	69	13325
2026-01-02 06:29:26.20	355.92	7.11	-49.7	-60.9	3.8	8.46e-01	0	43	104	0	69	13353
2026-01-02 06:29:27.19	355.79	7.15	-49.7	-60.9	3.8	8.47e-01	0	43	104	0	69	13376
2026-01-02 06:29:28.19	355.66	7.20	-49.7	-60.9	3.8	8.46e-01	0	43	104	0	69	13396
2026-01-02 06:29:29.19	355.52	7.24	-49.6	-60.9	3.8	8.48e-01	0	43	104	0	69	13413
2026-01-02 06:29:30.19	355.39	7.29	-49.7	-60.9	3.8	8.47e-01	0	43	104	0	69	13319
2026-01-02 06:29:31.19	355.26	7.33	-49.7	-61.0	3.8	8.47e-01	0	43	104	0	69	13418
2026-01-02 06:29:32.19	355.12	7.38	-49.7	-60.9	3.8	8.46e-01	0	43	104	0	69	13281
2026-01-02 06:29:33.18	354.99	7.42	-49.7	-60.9	3.8	8.46e-01	0	43	104	0	69	13308
2026-01-02 06:29:34.18	354.86	7.47	-49.7	-60.8	3.8	8.48e-01	0	43	104	0	69	13235
2026-01-02 06:29:35.18	354.72	7.51	-49.7	-60.9	3.8	8.46e-01	0	43	104	0	69	13389
2026-01-02 06:29:36.19	354.58	7.56	-49.7	-61.0	3.8	8.47e-01	0	43	104	0	69	13477
2026-01-02 06:29:37.19	354.45	7.60	-49.7	-60.9	3.8	8.48e-01	0	43	104	0	69	13348
2026-01-02 06:29:38.18	354.31	7.64	-49.7	-61.0	3.8	8.46e-01	0	43	104	0	69	13451
2026-01-02 06:29:39.18	354.18	7.69	-49.7	-60.9	3.8	8.48e-01	0	43	104	0	69	13406
2026-01-02 06:29:40.18	354.04	7.73	-49.7	-60.9	3.8	8.46e-01	0	43	104	0	69	13317
2026-01-02 06:29:41.17	353.90	7.78	-49.6	-60.8	3.8	8.47e-01	0	43	104	0	69	13128
2026-01-02 06:29:42.17	353.76	7.82	-49.7	-60.8	3.8	8.47e-01	0	43	104	0	69	13123
2026-01-02 06:29:43.17	353.63	7.86	-49.6	-60.7	3.8	8.47e-01	0	43	104	0	69	13068
2026-01-02 06:29:44.17	353.49	7.91	-49.6	-60.7	3.8	8.48e-01	0	43	104	0	69	12999
2026-01-02 06:29:45.17	353.35	7.95	-49.6	-60.7	3.8	8.46e-01	0	43	104	0	69	13045
2026-01-02 06:29:46.17	353.21	7.99	-49.6	-60.7	3.8	8.47e-01	0	43	104	0	69	12991
2026-01-02 06:29:47.17	353.07	8.04	-49.7	-60.7	3.8	8.47e-01	0	43	104	0	69	13096
2026-01-02 06:29:48.17	352.93	8.08	-49.7	-60.8	3.8	8.47e-01	0	43	104	0	69	13193
2026-01-02 06:29:49.17	352.78	8.12	-49.7	-60.9	3.8	8.47e-01	0	43	104	0	69	13270
2026-01-02 06:29:50.17	352.64	8.17	-49.7	-60.8	3.8	8.47e-01	0	43	104	0	69	13184
2026-01-02 06:29:51.16	352.50	8.21	-49.6	-60.7	3.8	8.47e-01	0	43	104	0	69	12987
2026-01-02 06:29:52.16	352.36	8.25	-49.6	-60.4	3.8	8.47e-01	0	43	104	0	69	12602
2026-01-02 06:29:53.15	352.22	8.29	-49.6	-60.1	3.8	8.47e-01	0	43	104	0	69	12191
2026-01-02 06:29:54.15	352.08	8.34	-49.5	-60.1	3.8	8.46e-01	0	43	104	0	69	12095
2026-01-02 06:29:55.15	351.93	8.38	-49.5	-60.0	3.8	8.47e-01	0	43	104	0	69	12009
2026-01-02 06:29:56.15	351.79	8.42	-49.5	-60.0	3.8	8.46e-01	0	43	104	0	69	12051
2026-01-02 06:29:57.15	351.64	8.47	-49.6	-60.4	3.8	8.47e-01	0	43	104	0	69	12535
2026-01-02 06:29:58.15	351.50	8.51	-49.6	-60.6	3.8	8.47e-01	0	43	104	0	69	12915
2026-01-02 06:29:59.15	351.35	8.55	-49.6	-60.4	3.8	8.48e-01	0	43	104	0	69	12626
2026-01-02 06:30:00.15	351.21	8.59	-49.5	-59.3	3.8	8.47e-01	0	44	104	0	69	11059
2026-01-02 06:30:01.15	351.06	8.63	-49.2	-57.1	4.3	8.43e-01	0	43	104	0	68	9172
2026-01-02 06:30:02.15	350.91	8.68	-48.7	-55.1	5.2	7.70e-01	0	44	0	0	68	7232
2026-01-02 06:30:03.15	350.77	8.72	-48.1	-53.5	6.2	3.73e-01	0	44	0	3145728	66	6787
2026-01-02 06:30:04.15	350.62	8.76	-47.8	-52.6	7.0	1.89e-01	0	44	0	9437184	66	6073
2026-01-02 06:30:05.15	350.47	8.80	-47.5	-51.8	7.7	9.69e-02	0	44	0	16777216	65	5899
2026-01-02 06:30:06.16	350.32	8.84	-47.1	-51.0	8.5	5.63e-02	0	44	0	24117248	65	5365
2026-01-02 06:30:07.16	350.17	8.88	-46.6	-50.0	9.6	1.83e-02	0	44	0	31457280	64	5065
2026-01-02 06:30:08.16	350.02	8.93	-45.9	-48.7	11.0	3.29e-03	0	44	0	38797312	62	4890
2026-01-02 06:30:09.16	349.87	8.97	-45.0	-47.3	12.5	4.44e-04	0	44	0	46137344	60	4679
2026-01-02 06:30:10.16	349.72	9.01	-44.0	-45.9	13.8	1.37e-05	0	44	0	53477376	58	4470
2026-01-02 06:30:11.16	349.57	9.05	-44.7	-46.8	12.9	6.63e-05	0	44	0	60817408	58	4939
2026-01-02 06:30:12.16	349.42	9.09	-46.3	-49.5	10.2	9.17e-03	0	44	0	68157440	62	5366
2026-01-02 06:30:13.16	349.27	9.13	-42.6	-44.2	15.5	0.00e+00	0	44	0	74448896	55	4344
2026-01-02 06:30:14.16	349.12	9.17	-48.0	-55.5	4.8	8.30e-01	0	44	0	79691776	65	9042
2026-01-02 06:30:15.16	348.96	9.21	-40.2	-41.4	18.2	0.00e+00	0	43	0	85983232	51	3980
2026-01-02 06:30:16.16	348.81	9.25	-40.2	-41.3	18.3	0.00e+00	0	44	0	93323264	51	3956
2026-01-02 06:30:17.16	348.66	9.29	-40.1	-41.3	18.4	0.00e+00	0	44	0	100663296	51	3939
2026-01-02 06:30:18.16	348.50	9.33	-40.1	-41.3	18.4	0.00e+00	0	44	0	108003328	50	4167
2026-01-02 06:30:19.17	348.35	9.37	-40.2	-41.4	18.3	0.00e+00	0	44	0	115343360	50	4221
2026-01-02 06:30:20.17	348.19	9.41	-40.2	-41.4	18.3	0.00e+00	0	44	0	122683392	50	4232
2026-01-02 06:30:21.17	348.04	9.45	-40.2	-41.4	18.3	0.00e+00	0	44	0	128974848	50	4226
2026-01-02 06:30:22.18	347.88	9.49	-40.1	-41.3	18.3	0.00e+00	0	44	0	136314880	50	4192
2026-01-02 06:30:23.18	347.73	9.53	-40.2	-41.5	18.2	0.00e+00	0	44	0	143654912	50	4265
2026-01-02 06:30:24.18	347.57	9.57	-40.2	-41.6	18.1	0.00e+00	0	44	0	150994944	50	4292
2026-01-02 06:30:25.19	347.41	9.61	-39.9	-41.4	18.3	0.00e+00	0	44	0	158334976	50	4204
2026-01-02 06:30:26.18	347.26	9.65	-39.8	-41.4	18.3	0.00e+00	0	44	0	165675008	50	4228
2026-01-02 06:30:27.18	347.10	9.69	-39.7	-41.4	18.3	0.00e+00	0	44	0	173015040	50	4233
2026-01-02 06:30:28.19	346.94	9.73	-39.5	-41.2	18.5	0.00e+00	0	44	0	180355072	49	4384
2026-01-02 06:30:29.18	346.78	9.76	-39.3	-41.2	18.5	0.00e+00	0	44	0	187695104	49	4353
2026-01-02 06:30:30.18	346.62	9.80	-39.4	-41.3	18.4	0.00e+00	0	44	0	193986560	49	4396
2026-01-02 06:30:31.19	346.46	9.84	-39.4	-41.4	18.3	0.00e+00	0	44	0	202375168	49	4462
2026-01-02 06:30:32.19	346.30	9.88	-39.3	-41.2	18.4	0.00e+00	0	44	0	209715200	49	4373
2026-01-02 06:30:33.19	346.14	9.92	-39.4	-41.2	18.4	0.00e+00	0	44	0	216006656	49	4389
2026-01-02 06:30:34.19	345.98	9.95	-39.3	-41.2	18.5	0.00e+00	0	44	0	223346688	49	4346
2026-01-02 06:30:35.19	345.82	9.99	-39.2	-41.0	18.7	0.00e+00	0	44	0	230686720	49	4262
2026-01-02 06:30:36.20	345.66	10.03	-39.3	-41.1	18.6	0.00e+00	0	44	0	238026752	49	4298
2026-01-02 06:30:37.20	345.50	10.07	-39.2	-40.9	18.8	0.00e+00	0	44	0	245366784	49	4204
2026-01-02 06:30:38.20	345.33	10.10	-39.2	-40.9	18.7	0.00e+00	0	44	0	252706816	49	4229
2026-01-02 06:30:39.21	345.17	10.14	-39.1	-40.8	18.9	0.00e+00	0	44	0	260046848	49	4157
2026-01-02 06:30:40.21	345.01	10.18	-39.1	-40.8	18.9	0.00e+00	0	44	0	267386880	49	4157
2026-01-02 06:30:41.21	344.84	10.21	-39.2	-40.9	18.7	0.00e+00	0	44	0	274726912	49	4229
2026-01-02 06:30:42.21	344.68	10.25	-39.3	-41.0	18.6	0.00e+00	0	44	0	281018368	49	4280
2026-01-02 06:30:43.21	344.51	10.29	-39.3	-41.1	18.6	0.00e+00	0	44	0	288358400	49	4310
2026-01-02 06:30:44.20	344.35	10.32	-39.4	-41.2	18.5	0.00e+00	0	44	0	295698432	49	4360
2026-01-02 06:30:45.20	344.19	10.36	-39.5	-41.2	18.5	0.00e+00	0	44	0	303038464	49	4363
2026-01-02 06:30:46.20	344.02	10.39	-39.5	-41.3	18.4	0.00e+00	0	44	0	310378496	49	4397
2026-01-02 06:30:47.20	343.85	10.43	-39.6	-41.3	18.4	0.00e+00	0	43	0	317718528	49	4418
2026-01-02 06:30:48.20	343.69	10.46	-39.7	-41.3	18.4	0.00e+00	0	44	0	325058560	49	4424
2026-01-02 06:30:49.20	343.52	10.50	-39.8	-41.3	18.4	0.00e+00	0	44	0	332398592	49	4406
2026-01-02 06:30:50.20	343.35	10.53	-39.8	-41.2	18.5	0.00e+00	0	44	0	338690048	49	4377
2026-01-02 06:30:51.21	343.18	10.57	-39.9	-41.2	18.5	0.00e+00	0	44	0	346030080	49	4377
2026-01-02 06:30:52.21	343.02	10.60	-39.9	-41.1	18.6	0.00e+00	0	44	0	353370112	49	4336
2026-01-02 06:30:53.21	342.85	10.64	-39.6	-40.9	18.8	0.00e+00	0	44	0	360710144	49	4197
2026-01-02 06:30:54.21	342.68	10.67	-39.5	-40.7	19.0	0.00e+00	0	44	0	368050176	49	4113
2026-01-02 06:30:55.21	342.51	10.71	-39.4	-40.6	19.1	0.00e+00	0	44	0	375390208	49	4066
2026-01-02 06:30:56.20	342.34	10.74	-39.4	-40.5	19.2	0.00e+00	0	44	0	382730240	49	4022
2026-01-02 06:30:57.21	342.17	10.77	-39.4	-40.5	19.1	0.00e+00	0	44	0	390070272	49	4047
2026-01-02 06:30:58.20	342.00	10.81	-39.4	-40.5	19.2	0.00e+00	0	44	0	397410304	49	4039
2026-01-02 06:30:59.20	341.83	10.84	-39.5	-40.6	19.1	0.00e+00	0	44	0	403701760	49	4062
2026-01-02 06:31:00.20	341.66	10.87	-39.4	-40.6	19.1	0.00e+00	0	44	0	411041792	49	4060
2026-01-02 06:31:01.20	341.49	10.90	-39.4	-40.6	19.1	0.00e+00	0	44	0	418381824	49	4075
2026-01-02 06:31:02.20	341.32	10.94	-39.5	-40.7	19.0	0.00e+00	0	44	0	425721856	49	4133
2026-01-02 06:31:03.21	341.14	10.97	-39.5	-40.8	18.9	0.00e+00	0	44	0	433061888	49	4150
2026-01-02 06:31:04.21	340.97	11.00	-39.5	-40.7	18.9	0.00e+00	0	44	0	440401920	49	4140
2026-01-02 06:31:05.21	340.80	11.03	-39.5	-40.7	19.0	0.00e+00	0	44	0	447741952	49	4134
2026-01-02 06:31:06.21	340.62	11.07	-39.7	-40.9	18.8	0.00e+00	0	44	0	455081984	49	4216
2026-01-02 06:31:07.21	340.45	11.10	-39.7	-40.9	18.8	0.00e+00	0	44	0	462422016	49	4225
2026-01-02 06:31:08.21	340.27	11.13	-39.8	-41.0	18.7	0.00e+00	0	44	0	468713472	49	4255
2026-01-02 06:31:09.21	340.10	11.16	-39.8	-41.0	18.6	0.00e+00	0	44	0	476053504	49	4284
2026-01-02 06:31:10.21	339.92	11.19	-39.8	-41.1	18.6	0.00e+00	0	44	0	483393536	49	4327
2026-01-02 06:31:11.21	339.75	11.22	-39.9	-41.2	18.5	0.00e+00	0	44	0	490733568	49	4376
2026-01-02 06:31:12.21	339.57	11.25	-39.8	-41.2	18.6	0.00e+00	0	44	0	498073600	49	4341
2026-01-02 06:31:13.21	339.40	11.28	-39.5	-40.8	18.9	0.00e+00	0	44	0	505413632	49	4169
2026-01-02 06:31:14.21	339.22	11.31	-39.5	-40.8	18.9	0.00e+00	0	44	0	512753664	49	4165
2026-01-02 06:31:15.21	339.04	11.34	-39.6	-40.9	18.8	0.00e+00	0	44	0	520093696	49	4226
2026-01-02 06:31:16.22	338.86	11.37	-39.5	-40.8	18.9	0.00e+00	0	44	0	526385152	49	4161
2026-01-02 06:31:17.21	338.69	11.40	-39.4	-40.6	19.1	0.00e+00	0	44	0	533725184	49	4089
2026-01-02 06:31:18.22	338.51	11.43	-39.4	-40.6	19.1	0.00e+00	0	44	0	541065216	49	4070
2026-01-02 06:31:19.22	338.33	11.46	-39.5	-40.6	19.1	0.00e+00	0	44	0	548405248	49	4091
2026-01-02 06:31:20.22	338.15	11.49	-39.6	-40.8	18.9	0.00e+00	0	44	0	555745280	49	4172
2026-01-02 06:31:21.22	337.97	11.51	-39.4	-40.6	19.1	0.00e+00	0	44	0	563085312	49	4063
2026-01-02 06:31:22.22	337.79	11.54	-39.4	-40.6	19.1	0.00e+00	0	44	0	570425344	49	4060
2026-01-02 06:31:23.22	337.61	11.57	-39.4	-40.6	19.1	0.00e+00	0	44	0	577765376	49	4070
2026-01-02 06:31:24.22	337.43	11.60	-39.3	-40.5	19.2	0.00e+00	0	44	0	585105408	49	4034
2026-01-02 06:31:25.22	337.25	11.63	-39.2	-40.4	19.3	0.00e+00	0	44	0	591396864	49	3978
2026-01-02 06:31:26.22	337.07	11.65	-39.1	-40.2	19.4	0.00e+00	0	44	0	598736896	49	3897
2026-01-02 06:31:27.22	336.89	11.68	-39.0	-40.2	19.5	0.00e+00	0	44	0	606076928	48	4105
2026-01-02 06:31:28.22	336.71	11.71	-39.0	-40.1	19.6	0.00e+00	0	44	0	613416960	48	4074
2026-01-02 06:31:29.22	336.53	11.73	-39.0	-40.1	19.5	0.00e+00	0	44	0	620756992	48	4086
2026-01-02 06:31:30.22	336.34	11.76	-39.0	-40.2	19.5	0.00e+00	0	44	0	628097024	48	4118
2026-01-02 06:31:31.22	336.16	11.78	-38.9	-40.1	19.6	0.00e+00	0	44	0	635437056	48	4074
2026-01-02 06:31:32.22	335.98	11.81	-38.8	-40.0	19.7	0.00e+00	0	44	0	642777088	48	4016
2026-01-02 06:31:33.22	335.79	11.84	-38.9	-40.0	19.7	0.00e+00	0	44	0	649068544	48	4016
2026-01-02 06:31:34.22	335.61	11.86	-38.9	-40.0	19.7	0.00e+00	0	44	0	656408576	48	4019
2026-01-02 06:31:35.22	335.43	11.89	-38.9	-40.0	19.7	0.00e+00	0	44	0	663748608	48	4019
2026-01-02 06:31:36.23	335.24	11.91	-39.0	-40.1	19.6	0.00e+00	0	44	0	671088640	48	4078
2026-01-02 06:31:37.23	335.06	11.93	-39.0	-40.1	19.6	0.00e+00	0	44	0	678428672	48	4058
2026-01-02 06:31:38.23	334.87	11.96	-39.2	-40.2	19.5	0.00e+00	0	44	0	685768704	48	4133
2026-01-02 06:31:39.22	334.69	11.98	-39.1	-40.2	19.5	0.00e+00	0	44	0	693108736	48	4104
2026-01-02 06:31:40.23	334.50	12.01	-39.2	-40.2	19.5	0.00e+00	0	44	0	700448768	48	4126
2026-01-02 06:31:41.23	334.32	12.03	-39.3	-40.4	19.3	0.00e+00	0	44	0	707788800	48	4218
2026-01-02 06:31:42.23	334.13	12.05	-39.4	-40.5	19.2	0.00e+00	0	44	0	714080256	48	4262
2026-01-02 06:31:43.23	333.94	12.07	-39.3	-40.4	19.4	0.00e+00	0	44	0	721420288	48	4197
2026-01-02 06:31:44.23	333.76	12.10	-39.5	-40.6	19.2	0.00e+00	0	44	0	728760320	48	4296
2026-01-02 06:31:45.23	333.57	12.12	-39.5	-40.6	19.1	0.00e+00	0	44	0	736100352	48	4326
2026-01-02 06:31:46.23	333.38	12.14	-39.5	-40.6	19.1	0.00e+00	0	44	0	743440384	48	4299
2026-01-02 06:31:47.23	333.20	12.16	-39.5	-40.6	19.1	0.00e+00	0	44	0	750780416	48	4301
2026-01-02 06:31:48.23	333.01	12.18	-39.5	-40.6	19.1	0.00e+00	0	44	0	758120448	48	4303
2026-01-02 06:31:49.23	332.82	12.20	-39.5	-40.6	19.1	0.00e+00	0	44	0	765460480	48	4305
2026-01-02 06:31:50.23	332.63	12.22	-39.4	-40.5	19.3	0.00e+00	0	44	0	772800512	48	4249
2026-01-02 06:31:51.23	332.44	12.25	-39.5	-40.5	19.2	0.00e+00	0	44	0	779091968	48	4287
2026-01-02 06:31:52.23	332.25	12.27	-39.4	-40.5	19.2	0.00e+00	0	44	0	786432000	48	4268
2026-01-02 06:31:53.23	332.07	12.28	-39.4	-40.5	19.2	0.00e+00	0	44	0	793772032	48	4262
2026-01-02 06:31:54.23	331.88	12.30	-39.2	-40.3	19.4	0.00e+00	0	44	0	801112064	48	4159
2026-01-02 06:31:55.23	331.69	12.32	-39.1	-40.1	19.6	0.00e+00	0	44	0	808452096	48	4089
2026-01-02 06:31:56.23	331.50	12.34	-39.0	-40.0	19.7	0.00e+00	0	44	0	815792128	48	4007
2026-01-02 06:31:57.24	331.30	12.36	-39.0	-40.0	19.7	0.00e+00	0	44	0	823132160	48	4037
2026-01-02 06:31:58.24	331.11	12.38	-39.0	-40.0	19.8	0.00e+00	0	44	0	830472192	48	4015
2026-01-02 06:31:59.24	330.92	12.40	-39.0	-40.0	19.6	0.00e+00	0	44	0	837812224	48	4040
2026-01-02 06:32:00.24	330.73	12.42	-39.0	-40.0	19.7	0.00e+00	0	44	0	845152256	48	4037
2026-01-02 06:32:01.24	330.54	12.43	-38.9	-40.0	19.7	0.00e+00	0	44	0	852492288	48	4020
2026-01-02 06:32:02.23	330.35	12.45	-39.0	-40.1	19.6	0.00e+00	0	44	0	858783744	48	4064
2026-01-02 06:32:03.24	330.16	12.47	-39.0	-40.1	19.6	0.00e+00	0	44	0	866123776	48	4071
2026-01-02 06:32:04.24	329.97	12.48	-39.0	-40.0	19.7	0.00e+00	0	44	0	873463808	48	4051
2026-01-02 06:32:05.24	329.78	12.50	-39.0	-40.1	19.6	0.00e+00	0	44	0	880803840	48	4062
2026-01-02 06:32:06.23	329.58	12.52	-39.0	-40.0	19.7	0.00e+00	0	44	0	888143872	48	4028
2026-01-02 06:32:07.23	329.39	12.53	-39.0	-40.0	19.7	0.00e+00	0	44	0	895483904	48	4044
2026-01-02 06:32:08.23	329.20	12.55	-39.1	-40.2	19.6	0.00e+00	0	44	0	901775360	48	4101
2026-01-02 06:32:09.23	329.01	12.56	-39.1	-40.1	19.6	0.00e+00	0	44	0	909115392	48	4074
2026-01-02 06:32:10.23	328.81	12.58	-39.0	-40.0	19.7	0.00e+00	0	44	0	916455424	48	4048
2026-01-02 06:32:11.23	328.62	12.59	-39.1	-40.1	19.6	0.00e+00	0	44	0	923795456	48	4070
2026-01-02 06:32:12.24	328.43	12.61	-39.2	-40.2	19.5	0.00e+00	0	44	0	931135488	48	4110
2026-01-02 06:32:13.24	328.23	12.62	-39.2	-40.2	19.5	0.00e+00	0	44	0	938475520	48	4127
2026-01-02 06:32:14.24	328.04	12.63	-39.4	-40.4	19.3	0.00e+00	0	44	0	945815552	48	4230
2026-01-02 06:32:15.24	327.84	12.65	-39.3	-40.3	19.4	0.00e+00	0	44	0	953155584	48	4188
2026-01-02 06:32:16.24	327.65	12.66	-39.3	-40.3	19.4	0.00e+00	0	44	0	960495616	48	4193
2026-01-02 06:32:17.24	327.46	12.67	-39.3	-40.4	19.3	0.00e+00	0	44	0	967835648	48	4233
2026-01-02 06:32:18.24	327.26	12.68	-39.3	-40.4	19.4	0.00e+00	0	44	0	975175680	48	4204
2026-01-02 06:32:19.24	327.07	12.70	-39.4	-40.5	19.2	0.00e+00	0	44	0	982515712	48	4256
2026-01-02 06:32:20.24	326.87	12.71	-39.4	-40.5	19.2	0.00e+00	0	44	0	988807168	48	4284
2026-01-02 06:32:21.24	326.68	12.72	-39.4	-40.5	19.2	0.00e+00	0	44	0	996147200	48	4253
2026-01-02 06:32:22.25	326.48	12.73	-39.3	-40.5	19.2	0.00e+00	0	44	0	1003487232	48	4245
2026-01-02 06:32:23.25	326.28	12.74	-39.3	-40.4	19.3	0.00e+00	0	44	0	1010827264	48	4218
2026-01-02 06:32:24.25	326.09	12.75	-39.1	-40.3	19.5	0.00e+00	0	44	0	1018167296	48	4151
2026-01-02 06:32:25.25	325.89	12.76	-39.2	-40.3	19.4	0.00e+00	0	44	0	1025507328	48	4191
2026-01-02 06:32:26.25	325.70	12.77	-39.0	-40.1	19.5	0.00e+00	0	44	0	1032847360	48	4094
2026-01-02 06:32:27.25	325.50	12.78	-39.1	-40.2	19.5	0.00e+00	0	44	0	1040187392	48	4133
2026-01-02 06:32:28.25	325.31	12.79	-39.1	-40.2	19.4	0.00e+00	0	44	0	1046478848	48	4134
2026-01-02 06:32:29.25	325.11	12.80	-39.1	-40.2	19.5	0.00e+00	0	44	0	1053818880	48	4131
2026-01-02 06:32:30.25	324.91	12.80	-38.9	-40.0	19.7	0.00e+00	0	44	0	1061158912	48	4038
2026-01-02 06:32:31.25	324.72	12.81	-39.0	-40.1	19.6	0.00e+00	0	44	0	1068498944	48	4093
2026-01-02 06:32:32.25	324.52	12.82	-39.1	-40.2	19.5	0.00e+00	0	44	0	1075838976	48	4111
2026-01-02 06:32:33.25	324.33	12.83	-38.9	-40.0	19.7	0.00e+00	0	44	0	1083179008	48	4026
2026-01-02 06:32:34.24	324.13	12.83	-39.0	-40.1	19.7	0.00e+00	0	44	0	1090519040	48	4055
2026-01-02 06:32:35.24	323.93	12.84	-39.1	-40.2	19.5	0.00e+00	0	44	0	1097859072	48	4115
2026-01-02 06:32:36.24	323.74	12.85	-38.9	-40.0	19.7	0.00e+00	0	44	0	1105199104	48	4051
2026-01-02 06:32:37.24	323.54	12.85	-39.0	-40.1	19.6	0.00e+00	0	44	0	1111490560	48	4058
2026-01-02 06:32:38.24	323.34	12.86	-39.0	-40.0	19.7	0.00e+00	0	44	0	1118830592	48	4045
2026-01-02 06:32:39.24	323.15	12.86	-38.9	-40.0	19.7	0.00e+00	0	44	0	1126170624	48	4016
2026-01-02 06:32:40.24	322.95	12.87	-39.1	-40.1	19.6	0.00e+00	0	44	0	1133510656	48	4094
2026-01-02 06:32:41.24	322.75	12.87	-39.1	-40.2	19.6	0.00e+00	0	44	0	1140850688	48	4103
2026-01-02 06:32:42.24	322.56	12.88	-39.1	-40.0	19.6	0.00e+00	0	44	0	1148190720	48	4051
2026-01-02 06:32:43.24	322.36	12.88	-39.0	-40.0	19.7	0.00e+00	0	44	0	1155530752	48	4026
2026-01-02 06:32:44.25	322.16	12.89	-39.1	-40.1	19.6	0.00e+00	0	44	0	1162870784	48	4069
2026-01-02 06:32:45.25	321.96	12.89	-39.0	-40.1	19.6	0.00e+00	0	44	0	1170210816	48	4057
2026-01-02 06:32:46.25	321.76	12.89	-39.2	-40.2	19.5	0.00e+00	0	44	0	1176502272	48	4141
2026-01-02 06:32:47.25	321.57	12.90	-39.0	-40.1	19.6	0.00e+00	0	44	0	1183842304	48	4068
2026-01-02 06:32:48.25	321.37	12.90	-39.0	-40.1	19.6	0.00e+00	0	44	0	1191182336	48	4052
2026-01-02 06:32:49.25	321.17	12.90	-39.0	-40.1	19.6	0.00e+00	0	44	0	1198522368	48	4080
2026-01-02 06:32:50.25	320.97	12.90	-39.1	-40.1	19.6	0.00e+00	0	44	0	1205862400	48	4092
2026-01-02 06:32:51.25	320.78	12.90	-39.2	-40.2	19.5	0.00e+00	0	44	0	1213202432	48	4144
2026-01-02 06:32:52.26	320.58	12.90	-39.1	-40.1	19.6	0.00e+00	0	44	0	1220542464	48	4097
2026-01-02 06:32:53.26	320.38	12.91	-39.2	-40.2	19.5	0.00e+00	0	44	0	1227882496	48	4121
2026-01-02 06:32:54.26	320.18	12.91	-39.1	-40.2	19.6	0.00e+00	0	44	0	1234173952	48	4103
2026-01-02 06:32:55.26	319.98	12.91	-39.2	-40.2	19.5	0.00e+00	0	44	0	1241513984	48	4128
2026-01-02 06:32:56.26	319.79	12.91	-39.2	-40.2	19.4	0.00e+00	0	44	0	1248854016	48	4141
2026-01-02 06:32:57.26	319.59	12.90	-39.1	-40.2	19.5	0.00e+00	0	44	0	1256194048	48	4116
2026-01-02 06:32:58.26	319.39	12.90	-39.1	-40.1	19.6	0.00e+00	0	44	0	1263534080	48	4087
2026-01-02 06:32:59.27	319.19	12.90	-39.1	-40.2	19.5	0.00e+00	0	44	0	1270874112	48	4099
2026-01-02 06:33:00.26	319.00	12.90	-39.0	-40.1	19.6	0.00e+00	0	44	0	1278214144	48	4067
2026-01-02 06:33:01.27	318.80	12.90	-39.1	-40.2	19.5	0.00e+00	0	44	0	1285554176	48	4100
2026-01-02 06:33:02.26	318.60	12.90	-39.1	-40.2	19.5	0.00e+00	0	44	0	1292894208	48	4106
2026-01-02 06:33:03.27	318.40	12.89	-39.0	-40.0	19.7	0.00e+00	0	44	0	1299185664	48	4031
2026-01-02 06:33:04.26	318.20	12.89	-38.9	-39.9	19.7	0.00e+00	0	44	0	1306525696	48	3998
2026-01-02 06:33:05.27	318.01	12.89	-38.8	-39.8	19.9	0.00e+00	0	44	0	1313865728	48	3933
2026-01-02 06:33:06.27	317.81	12.88	-38.8	-39.8	19.9	0.00e+00	0	44	0	1321205760	48	3922
2026-01-02 06:33:07.27	317.61	12.88	-38.8	-39.8	19.9	0.00e+00	0	44	0	1328545792	48	3921
2026-01-02 06:33:08.27	317.41	12.88	-38.8	-39.8	19.9	0.00e+00	0	44	0	1335885824	48	3940
2026-01-02 06:33:09.27	317.22	12.87	-38.7	-39.7	20.0	0.00e+00	0	44	0	1343225856	48	3893
2026-01-02 06:33:10.27	317.02	12.87	-38.8	-39.7	19.9	0.00e+00	0	44	0	1350565888	48	3901
2026-01-02 06:33:11.26	316.82	12.86	-38.7	-39.7	20.0	0.00e+00	0	44	0	1357905920	48	3881
2026-01-02 06:33:12.27	316.62	12.86	-38.9	-39.8	19.8	0.00e+00	0	44	0	1364197376	48	3956
2026-01-02 06:33:13.26	316.43	12.85	-38.9	-39.9	19.8	0.00e+00	0	44	0	1371537408	48	3987
2026-01-02 06:33:14.26	316.23	12.84	-38.9	-39.9	19.8	0.00e+00	0	44	0	1378877440	48	3980
2026-01-02 06:33:15.26	316.04	12.84	-39.0	-40.0	19.6	0.00e+00	0	44	0	1386217472	48	4049
2026-01-02 06:33:16.26	315.84	12.83	-39.0	-40.0	19.7	0.00e+00	0	44	0	1393557504	48	4044
2026-01-02 06:33:17.26	315.64	12.82	-39.1	-40.1	19.6	0.00e+00	0	44	0	1400897536	48	4090
2026-01-02 06:33:18.26	315.45	12.81	-39.2	-40.2	19.5	0.00e+00	0	44	0	1408237568	48	4139
2026-01-02 06:33:19.26	315.25	12.81	-39.2	-40.2	19.5	0.00e+00	0	44	0	1415577600	48	4122
2026-01-02 06:33:20.26	315.05	12.80	-39.2	-40.2	19.5	0.00e+00	0	44	0	1421869056	48	4118
2026-01-02 06:33:21.26	314.86	12.79	-39.2	-40.2	19.5	0.00e+00	0	44	0	1429209088	48	4127
2026-01-02 06:33:22.27	314.66	12.78	-39.1	-40.2	19.5	0.00e+00	0	44	0	1436549120	48	4101
2026-01-02 06:33:23.27	314.46	12.77	-39.1	-40.1	19.5	0.00e+00	0	44	0	1443889152	48	4085
2026-01-02 06:33:24.27	314.27	12.76	-39.0	-40.0	19.7	0.00e+00	0	44	0	1451229184	48	4022
2026-01-02 06:33:25.27	314.07	12.75	-39.0	-40.0	19.6	0.00e+00	0	44	0	1458569216	48	4046
2026-01-02 06:33:26.27	313.88	12.74	-39.1	-40.1	19.5	0.00e+00	0	44	0	1465909248	48	4091
2026-01-02 06:33:27.27	313.68	12.73	-39.2	-40.3	19.4	0.00e+00	0	44	0	1473249280	48	4155
2026-01-02 06:33:28.27	313.48	12.72	-39.3	-40.4	19.3	0.00e+00	0	44	0	1480589312	48	4209
2026-01-02 06:33:29.27	313.29	12.71	-39.4	-40.4	19.3	0.00e+00	0	44	0	1486880768	48	4242
2026-01-02 06:33:30.27	313.09	12.70	-39.4	-40.5	19.2	0.00e+00	0	44	0	1494220800	48	4247
2026-01-02 06:33:31.28	312.90	12.69	-39.3	-40.4	19.2	0.00e+00	0	44	0	1501560832	48	4240
2026-01-02 06:33:32.28	312.70	12.67	-39.3	-40.3	19.3	0.00e+00	0	44	0	1508900864	48	4188
2026-01-02 06:33:33.28	312.51	12.66	-39.3	-40.4	19.3	0.00e+00	0	44	0	1516240896	48	4201
2026-01-02 06:33:34.28	312.31	12.65	-39.3	-40.4	19.3	0.00e+00	0	44	0	1523580928	48	4202
2026-01-02 06:33:35.28	312.12	12.64	-39.3	-40.4	19.3	0.00e+00	0	44	0	1530920960	48	4201
2026-01-02 06:33:36.28	311.93	12.62	-39.4	-40.5	19.2	0.00e+00	0	44	0	1538260992	48	4259
2026-01-02 06:33:37.28	311.73	12.61	-39.4	-40.5	19.2	0.00e+00	0	44	0	1544552448	48	4244
2026-01-02 06:33:38.28	311.54	12.59	-39.5	-40.5	19.1	0.00e+00	0	44	0	1551892480	48	4288
2026-01-02 06:33:39.28	311.34	12.58	-39.6	-40.6	19.0	0.00e+00	0	44	0	1559232512	48	4336
2026-01-02 06:33:40.28	311.15	12.56	-39.7	-40.7	19.0	0.00e+00	0	44	0	1566572544	48	4370
2026-01-02 06:33:41.29	310.96	12.55	-39.6	-40.6	19.0	0.00e+00	0	44	0	1573912576	48	4333
2026-01-02 06:33:42.29	310.76	12.53	-39.6	-40.6	19.1	0.00e+00	0	44	0	1581252608	48	4320
2026-01-02 06:33:43.28	310.57	12.52	-39.7	-40.8	18.9	0.00e+00	0	44	0	1588592640	48	4392
2026-01-02 06:33:44.28	310.38	12.50	-39.6	-40.7	19.0	0.00e+00	0	44	0	1595932672	48	4357
2026-01-02 06:33:45.28	310.19	12.49	-39.5	-40.6	19.1	0.00e+00	0	44	0	1603272704	48	4312
2026-01-02 06:33:46.28	310.00	12.47	-39.6	-40.7	19.0	0.00e+00	0	44	0	1609564160	48	4341
2026-01-02 06:33:47.28	309.80	12.45	-39.4	-40.5	19.2	0.00e+00	0	44	0	1616904192	48	4245
2026-01-02 06:33:48.28	309.61	12.44	-39.5	-40.6	19.1	0.00e+00	0	44	0	1624244224	48	4295
2026-01-02 06:33:49.28	309.42	12.42	-39.4	-40.5	19.2	0.00e+00	0	44	0	1631584256	48	4261
2026-01-02 06:33:50.28	309.23	12.40	-39.4	-40.4	19.2	0.00e+00	0	44	0	1638924288	48	4228
2026-01-02 06:33:51.28	309.04	12.38	-39.5	-40.5	19.1	0.00e+00	0	44	0	1646264320	48	4291
2026-01-02 06:33:52.28	308.85	12.36	-39.4	-40.5	19.2	0.00e+00	0	44	0	1653604352	48	4274
2026-01-02 06:33:53.28	308.66	12.35	-39.5	-40.6	19.1	0.00e+00	0	44	0	1660944384	48	4297
2026-01-02 06:33:54.28	308.47	12.33	-39.6	-40.7	18.9	0.00e+00	0	44	0	1668284416	48	4386
2026-01-02 06:33:55.29	308.27	12.31	-39.6	-40.7	19.0	0.00e+00	0	44	0	1675624448	48	4344
2026-01-02 06:33:56.29	308.08	12.29	-39.6	-40.6	19.0	0.00e+00	0	44	0	1682964480	48	4338
2026-01-02 06:33:57.29	307.90	12.27	-39.5	-40.5	19.1	0.00e+00	0	44	0	1690304512	48	4279
2026-01-02 06:33:58.29	307.71	12.25	-39.5	-40.5	19.1	0.00e+00	0	44	0	1696595968	48	4286
2026-01-02 06:33:59.29	307.52	12.23	-39.5	-40.6	19.1	0.00e+00	0	44	0	1703936000	48	4298
2026-01-02 06:34:00.28	307.33	12.21	-39.6	-40.7	19.0	0.00e+00	0	44	0	1711276032	48	4351
2026-01-02 06:34:01.27	307.14	12.19	-39.6	-40.7	19.0	0.00e+00	0	44	0	1718616064	48	4363
2026-01-02 06:34:02.27	306.96	12.17	-39.5	-40.6	19.0	0.00e+00	0	44	0	1725956096	48	4307
2026-01-02 06:34:03.27	306.77	12.14	-39.5	-40.5	19.1	0.00e+00	0	44	0	1732247552	48	4262
2026-01-02 06:34:04.28	306.58	12.12	-39.4	-40.5	19.2	0.00e+00	0	44	0	1739587584	48	4250
2026-01-02 06:34:05.28	306.39	12.10	-39.5	-40.6	19.1	0.00e+00	0	44	0	1746927616	48	4296
2026-01-02 06:34:06.28	306.20	12.08	-39.6	-40.6	19.1	0.00e+00	0	44	0	1754267648	48	4324
2026-01-02 06:34:07.28	306.02	12.06	-39.6	-40.6	19.1	0.00e+00	0	44	0	1761607680	48	4325
2026-01-02 06:34:08.28	305.83	12.03	-39.6	-40.7	19.0	0.00e+00	0	44	0	1768947712	48	4358
2026-01-02 06:34:09.28	305.64	12.01	-39.7	-40.7	19.0	0.00e+00	0	44	0	1776287744	48	4367
2026-01-02 06:34:10.28	305.46	11.99	-39.7	-40.7	19.0	0.00e+00	0	44	0	1783627776	48	4367
2026-01-02 06:34:11.28	305.27	11.96	-39.8	-40.8	18.9	0.00e+00	0	44	0	1790967808	48	4417
2026-01-02 06:34:12.28	305.09	11.94	-39.7	-40.7	18.9	0.00e+00	0	44	0	1797259264	48	4372
2026-01-02 06:34:13.28	304.90	11.91	-39.7	-40.7	18.9	0.00e+00	0	44	0	1804599296	49	4131
2026-01-02 06:34:14.28	304.72	11.89	-39.6	-40.6	19.0	0.00e+00	0	44	0	1811939328	49	4088
2026-01-02 06:34:15.29	304.53	11.86	-39.5	-40.5	19.1	0.00e+00	0	44	0	1819279360	49	4039
2026-01-02 06:34:16.29	304.35	11.84	-39.5	-40.5	19.1	0.00e+00	0	44	0	1826619392	49	4025
2026-01-02 06:34:17.29	304.16	11.81	-39.4	-40.4	19.2	0.00e+00	0	44	0	1833959424	49	3994
2026-01-02 06:34:18.29	303.98	11.79	-39.4	-40.5	19.2	0.00e+00	0	44	0	1841299456	49	4028
2026-01-02 06:34:19.29	303.80	11.76	-39.5	-40.6	19.1	0.00e+00	0	44	0	1848639488	49	4057
2026-01-02 06:34:20.29	303.61	11.74	-39.5	-40.5	19.1	0.00e+00	0	44	0	1855979520	49	4049
2026-01-02 06:34:21.29	303.43	11.71	-39.5	-40.5	19.1	0.00e+00	0	44	0	1863319552	49	4047
2026-01-02 06:34:22.29	303.25	11.68	-39.7	-40.8	18.9	0.00e+00	0	44	0	1870659584	49	4153
2026-01-02 06:34:23.29	303.07	11.66	-39.6	-40.6	18.9	0.00e+00	0	44	0	1877999616	49	4084
2026-01-02 06:34:24.29	302.89	11.63	-39.7	-40.8	18.9	0.00e+00	0	44	0	1884291072	49	4158
2026-01-02 06:34:25.29	302.70	11.60	-39.9	-41.0	18.7	0.00e+00	0	44	0	1891631104	49	4249
2026-01-02 06:34:26.29	302.52	11.58	-39.8	-40.9	18.8	0.00e+00	0	44	0	1898971136	49	4208
2026-01-02 06:34:27.29	302.34	11.55	-39.9	-41.0	18.6	0.00e+00	0	44	0	1906311168	49	4284
2026-01-02 06:34:28.29	302.16	11.52	-40.0	-41.1	18.6	0.00e+00	0	44	0	1913651200	49	4295
2026-01-02 06:34:29.30	301.98	11.49	-40.0	-41.1	18.6	0.00e+00	0	44	0	1920991232	49	4312
2026-01-02 06:34:30.30	301.80	11.46	-40.0	-41.1	18.5	0.00e+00	0	44	0	1928331264	49	4333
2026-01-02 06:34:31.30	301.62	11.43	-40.1	-41.2	18.5	0.00e+00	0	44	0	1935671296	49	4344
2026-01-02 06:34:32.30	301.44	11.40	-39.9	-41.0	18.7	0.00e+00	0	44	0	1941962752	49	4250
2026-01-02 06:34:33.30	301.27	11.38	-39.9	-40.9	18.7	0.00e+00	0	44	0	1949302784	49	4224
2026-01-02 06:34:34.30	301.09	11.35	-40.0	-41.1	18.6	0.00e+00	0	44	0	1956642816	49	4305
2026-01-02 06:34:35.30	300.91	11.32	-39.9	-40.9	18.7	0.00e+00	0	44	0	1963982848	49	4235
2026-01-02 06:34:36.30	300.73	11.29	-39.9	-41.0	18.6	0.00e+00	0	44	0	1971322880	49	4268
2026-01-02 06:34:37.30	300.56	11.26	-40.0	-41.0	18.6	0.00e+00	0	44	0	1978662912	49	4291
2026-01-02 06:34:38.31	300.38	11.22	-40.2	-41.2	18.4	0.00e+00	0	44	0	1986002944	49	4390
2026-01-02 06:34:39.31	300.20	11.19	-40.0	-41.1	18.5	0.00e+00	0	44	0	1993342976	49	4322
2026-01-02 06:34:40.31	300.03	11.16	-39.9	-41.0	18.6	0.00e+00	0	44	0	2000683008	49	4251
2026-01-02 06:34:41.31	299.85	11.13	-39.9	-41.0	18.6	0.00e+00	0	44	0	2006974464	49	4271
2026-01-02 06:34:42.31	299.68	11.10	-39.9	-40.9	18.7	0.00e+00	0	44	0	2014314496	49	4228
2026-01-02 06:34:43.31	299.50	11.07	-39.8	-40.8	18.8	0.00e+00	0	44	0	2021654528	49	4180
2026-01-02 06:34:44.30	299.33	11.04	-39.9	-41.0	18.7	0.00e+00	0	44	0	2028994560	49	4254
2026-01-02 06:34:45.30	299.15	11.01	-39.8	-40.8	18.8	0.00e+00	0	44	0	2036334592	49	4188
2026-01-02 06:34:46.30	298.98	10.97	-39.9	-41.0	18.5	0.00e+00	0	44	0	2043674624	49	4260
2026-01-02 06:34:47.30	298.81	10.94	-40.1	-41.2	18.4	0.00e+00	0	44	0	2051014656	49	4341
2026-01-02 06:34:48.30	298.63	10.91	-40.0	-41.1	18.5	0.00e+00	0	44	0	2058354688	49	4323
2026-01-02 06:34:49.30	298.46	10.88	-40.2	-41.3	18.3	0.00e+00	0	44	0	2064646144	49	4413
2026-01-02 06:34:50.31	298.29	10.84	-40.3	-41.5	18.2	0.00e+00	0	44	0	2071986176	50	4244
2026-01-02 06:34:51.31	298.12	10.81	-40.3	-41.4	18.2	0.00e+00	0	43	0	2079326208	50	4209
2026-01-02 06:34:52.31	297.95	10.78	-40.3	-41.5	18.2	0.00e+00	0	44	0	2086666240	50	4243
2026-01-02 06:34:53.31	297.77	10.74	-40.3	-41.4	18.2	0.00e+00	0	44	0	2094006272	50	4236
2026-01-02 06:34:54.31	297.60	10.71	-40.4	-41.5	18.1	0.00e+00	0	44	0	2101346304	50	4272
2026-01-02 06:34:55.31	297.43	10.68	-40.4	-41.5	18.1	0.00e+00	0	44	0	2108686336	50	4249
2026-01-02 06:34:56.31	297.26	10.64	-40.2	-41.3	18.3	0.00e+00	0	44	0	2116026368	50	4182
2026-01-02 06:34:57.31	297.10	10.61	-40.3	-41.4	18.2	0.00e+00	0	44	0	2123366400	50	4223
2026-01-02 06:34:58.31	296.93	10.57	-40.4	-41.5	18.1	0.00e+00	0	44	0	2129657856	50	4255
2026-01-02 06:34:59.31	296.76	10.54	-40.2	-41.3	18.3	0.00e+00	0	44	0	2136997888	50	4147
2026-01-02 06:35:00.31	296.59	10.50	-40.2	-41.3	18.3	0.00e+00	0	44	0	2144337920	50	4157
2026-01-02 06:35:01.32	296.42	10.47	-40.2	-41.3	18.3	0.00e+00	0	44	0	2151677952	50	4178
2026-01-02 06:35:02.32	296.25	10.43	-40.2	-41.3	18.3	0.00e+00	0	44	0	2159017984	50	4181
2026-01-02 06:35:03.32	296.09	10.40	-40.3	-41.4	18.2	0.00e+00	0	44	0	2166358016	50	4201
2026-01-02 06:35:04.32	295.92	10.36	-40.1	-41.2	18.4	0.00e+00	0	44	0	2173698048	50	4114
2026-01-02 06:35:05.32	295.75	10.32	-40.0	-41.1	18.5	0.00e+00	0	44	0	2181038080	50	4081
2026-01-02 06:35:06.33	295.59	10.29	-40.1	-41.2	18.4	0.00e+00	0	44	0	2188378112	50	4111
2026-01-02 06:35:07.33	295.42	10.25	-40.1	-41.2	18.4	0.00e+00	0	44	0	2194669568	50	4129
2026-01-02 06:35:08.33	295.26	10.22	-40.1	-41.1	18.5	0.00e+00	0	44	0	2202009600	50	4095
2026-01-02 06:35:09.33	295.09	10.18	-40.1	-41.2	18.4	0.00e+00	0	44	0	2209349632	50	4144
2026-01-02 06:35:10.33	294.93	10.14	-40.1	-41.2	18.4	0.00e+00	0	44	0	2216689664	50	4101
2026-01-02 06:35:11.33	294.77	10.11	-40.2	-41.3	18.3	0.00e+00	0	44	0	2224029696	50	4179
2026-01-02 06:35:12.33	294.60	10.07	-40.1	-41.2	18.4	0.00e+00	0	44	0	2231369728	50	4133
2026-01-02 06:35:13.33	294.44	10.03	-40.2	-41.3	18.3	0.00e+00	0	43	0	2238709760	50	4163
2026-01-02 06:35:14.34	294.28	9.99	-40.3	-41.4	18.2	0.00e+00	0	44	0	2246049792	50	4213
2026-01-02 06:35:15.33	294.12	9.96	-40.2	-41.3	18.3	0.00e+00	0	44	0	2252341248	50	4156
2026-01-02 06:35:16.34	293.95	9.92	-40.4	-41.5	18.1	0.00e+00	0	44	0	2260729856	50	4258
2026-01-02 06:35:17.34	293.79	9.88	-40.3	-41.4	18.2	0.00e+00	0	44	0	2268069888	50	4206
2026-01-02 06:35:18.34	293.63	9.84	-40.2	-41.3	18.2	0.00e+00	0	44	0	2274361344	50	4187
2026-01-02 06:35:19.35	293.47	9.80	-40.3	-41.4	18.2	0.00e+00	0	44	0	2281701376	50	4203
2026-01-02 06:35:20.35	293.31	9.76	-40.3	-41.4	18.2	0.00e+00	0	44	0	2289041408	50	4201
2026-01-02 06:35:21.35	293.15	9.73	-40.4	-41.5	18.1	0.00e+00	0	44	0	2296381440	50	4256
2026-01-02 06:35:22.35	292.99	9.69	-40.4	-41.5	18.0	0.00e+00	0	44	0	2303721472	50	4282
2026-01-02 06:35:23.35	292.83	9.65	-40.4	-41.5	18.1	0.00e+00	0	43	0	2311061504	50	4266
2026-01-02 06:35:24.35	292.68	9.61	-40.5	-41.6	18.0	0.00e+00	0	44	0	2318401536	50	4322
2026-01-02 06:35:25.35	292.52	9.57	-40.6	-41.7	17.8	0.00e+00	0	44	0	2325741568	50	4370
2026-01-02 06:35:26.35	292.36	9.53	-40.5	-41.6	18.0	0.00e+00	0	44	0	2333081600	50	4311
2026-01-02 06:35:27.35	292.20	9.49	-40.5	-41.7	17.9	0.00e+00	0	44	0	2339373056	50	4353
2026-01-02 06:35:28.35	292.05	9.45	-40.4	-41.5	18.0	0.00e+00	0	44	0	2346713088	50	4289
2026-01-02 06:35:29.35	291.89	9.41	-40.4	-41.5	18.0	0.00e+00	0	44	0	2354053120	50	4279
2026-01-02 06:35:30.35	291.74	9.37	-40.4	-41.5	18.1	0.00e+00	0	43	0	2361393152	50	4248
2026-01-02 06:35:31.35	291.58	9.33	-40.5	-41.7	17.9	0.00e+00	0	44	0	2368733184	50	4347
2026-01-02 06:35:32.35	291.43	9.29	-40.4	-41.5	18.0	0.00e+00	0	44	0	2376073216	50	4280
2026-01-02 06:35:33.35	291.27	9.25	-40.4	-41.5	18.0	0.00e+00	0	43	0	2383413248	50	4268
2026-01-02 06:35:34.36	291.12	9.21	-40.3	-41.5	18.1	0.00e+00	0	44	0	2390753280	50	4248
2026-01-02 06:35:35.36	290.96	9.17	-40.5	-41.6	17.9	0.00e+00	0	43	0	2398093312	50	4330
2026-01-02 06:35:36.36	290.81	9.13	-40.6	-41.7	17.8	0.00e+00	0	43	0	2404384768	50	4370
2026-01-02 06:35:37.36	290.66	9.09	-40.4	-41.5	18.0	0.00e+00	0	43	0	2411724800	50	4272
2026-01-02 06:35:38.37	290.51	9.05	-40.5	-41.6	18.0	0.00e+00	0	44	0	2419064832	50	4320
2026-01-02 06:35:39.37	290.35	9.01	-40.7	-41.8	17.7	0.00e+00	0	43	0	2426404864	50	4437
2026-01-02 06:35:40.37	290.20	8.97	-50.2	-60.3	3.8	8.45e-01	0	44	104	2429550592	69	12459
2026-01-02 06:35:41.37	290.05	8.93	-50.4	-61.2	3.8	8.47e-01	0	44	104	2429550592	70	13038
2026-01-02 06:35:42.38	289.90	8.88	-50.4	-61.4	3.8	8.46e-01	0	44	104	2429550592	70	13267
2026-01-02 06:35:43.38	289.75	8.84	-50.6	-61.4	3.8	8.47e-01	0	44	104	2429550592	70	13356
2026-01-02 06:35:44.38	289.60	8.80	-50.6	-61.5	3.8	8.47e-01	0	44	104	2429550592	70	13421
2026-01-02 06:35:45.38	289.45	8.76	-50.6	-61.6	3.8	8.47e-01	0	43	104	2429550592	70	13605
2026-01-02 06:35:46.39	289.30	8.72	-50.8	-61.6	3.8	8.46e-01	0	43	104	2429550592	71	12814
2026-01-02 06:35:47.39	289.15	8.68	-50.2	-61.5	3.8	8.47e-01	0	44	104	2429550592	71	12804
2026-01-02 06:35:48.39	289.01	8.63	-50.9	-61.6	3.8	8.46e-01	0	44	104	2429550592	71	12862
2026-01-02 06:35:49.39	288.86	8.59	-50.9	-61.6	3.8	8.46e-01	0	44	104	2429550592	71	12841
2026-01-02 06:35:50.40	288.71	8.55	-50.8	-61.6	3.8	8.46e-01	0	44	104	2429550592	71	12834
2026-01-02 06:35:51.40	288.56	8.51	-50.9	-61.7	3.8	8.45e-01	0	43	104	2429550592	71	13001
2026-01-02 06:35:52.40	288.42	8.46	-50.8	-61.6	3.8	8.47e-01	0	44	104	2429550592	71	12831
2026-01-02 06:35:53.40	288.27	8.42	-50.8	-61.7	3.8	8.47e-01	0	43	104	2429550592	71	12985
2026-01-02 06:35:54.41	288.13	8.38	-50.8	-61.6	3.8	8.48e-01	0	44	104	2429550592	71	12916
2026-01-02 06:35:55.41	287.98	8.34	-50.7	-61.6	3.8	8.47e-01	0	44	104	2429550592	71	12844
2026-01-02 06:35:56.41	287.84	8.29	-50.9	-61.6	3.8	8.47e-01	0	43	104	2429550592	71	12830
2026-01-02 06:35:57.42	287.69	8.25	-50.7	-61.6	3.8	8.48e-01	0	44	104	2429550592	71	12827
2026-01-02 06:35:58.42	287.55	8.21	-50.7	-61.5	3.8	8.47e-01	0	43	104	2429550592	71	12758
2026-01-02 06:35:59.42	287.41	8.16	-50.7	-61.5	3.8	8.47e-01	0	43	104	2429550592	71	12715
2026-01-02 06:36:00.42	287.26	8.12	-50.7	-61.5	3.8	8.47e-01	0	43	104	2429550592	71	12779
2026-01-02 06:36:01.42	287.12	8.08	-50.6	-61.5	3.8	8.47e-01	0	43	104	2429550592	71	12797
2026-01-02 06:36:02.42	286.98	8.03	-50.6	-61.5	3.8	8.46e-01	0	44	104	2429550592	71	12700
2026-01-02 06:36:03.43	286.84	7.99	-50.6	-61.5	3.8	8.46e-01	0	43	104	2429550592	71	12687
2026-01-02 06:36:04.43	286.70	7.94	-50.6	-61.5	3.8	8.46e-01	0	44	104	2429550592	71	12677
2026-01-02 06:36:05.43	286.56	7.90	-50.6	-61.5	3.8	8.47e-01	0	44	104	2429550592	71	12686
2026-01-02 06:36:06.43	286.42	7.86	-50.6	-61.5	3.8	8.47e-01	0	43	104	2429550592	71	12735
2026-01-02 06:36:07.44	286.28	7.81	-50.6	-61.4	3.8	8.46e-01	0	44	104	2429550592	71	12595
2026-01-02 06:36:08.44	286.14	7.77	-50.6	-61.4	3.8	8.46e-01	0	44	104	2429550592	71	12613
2026-01-02 06:36:09.44	286.00	7.73	-50.6	-61.4	3.8	8.47e-01	0	44	104	2429550592	71	12584
2026-01-02 06:36:10.44	285.86	7.68	-50.6	-61.5	3.8	8.45e-01	0	44	104	2429550592	71	12759
2026-01-02 06:36:11.45	285.72	7.64	-50.5	-61.5	3.8	8.47e-01	0	44	104	2429550592	71	12675
2026-01-02 06:36:12.45	285.58	7.59	-50.6	-61.5	3.8	8.46e-01	0	43	104	2429550592	71	12676
2026-01-02 06:36:13.45	285.45	7.55	-50.6	-61.5	3.8	8.47e-01	0	44	104	2429550592	71	12739
2026-01-02 06:36:14.45	285.31	7.50	-50.5	-61.5	3.8	8.47e-01	0	44	104	2429550592	71	12681
2026-01-02 06:36:15.46	285.17	7.46	-50.5	-61.5	3.8	8.47e-01	0	44	104	2429550592	71	12669
2026-01-02 06:36:16.46	285.04	7.41	-50.5	-61.5	3.8	8.48e-01	0	44	104	2429550592	71	12695
2026-01-02 06:36:17.46	284.90	7.37	-50.5	-61.4	3.8	8.47e-01	0	44	104	2429550592	71	12634
2026-01-02 06:36:18.46	284.77	7.32	-50.5	-61.4	3.8	8.47e-01	0	44	104	2429550592	71	12615
2026-01-02 06:36:19.47	284.63	7.28	-50.5	-61.4	3.8	8.47e-01	0	44	104	2429550592	71	12574
2026-01-02 06:36:20.47	284.50	7.23	-50.5	-61.4	3.8	8.47e-01	0	44	104	2429550592	71	12630
2026-01-02 06:36:21.47	284.36	7.19	-50.5	-61.3	3.8	8.46e-01	0	43	104	2429550592	71	12513
2026-01-02 06:36:22.47	284.23	7.14	-50.5	-61.5	3.8	8.48e-01	0	44	104	2429550592	71	12672
2026-01-02 06:36:23.47	284.10	7.10	-50.5	-61.4	3.8	8.47e-01	0	44	104	2429550592	71	12567
2026-01-02 06:36:24.48	283.96	7.05	-50.5	-61.4	3.8	8.46e-01	0	44	104	2429550592	71	12620
2026-01-02 06:36:25.48	283.83	7.01	-50.6	-61.4	3.8	8.46e-01	0	43	104	2429550592	71	12622
2026-01-02 06:36:26.48	283.70	6.96	-50.5	-61.4	3.8	8.48e-01	0	43	104	2429550592	71	12619
2026-01-02 06:36:27.49	283.57	6.92	-50.5	-61.4	3.8	8.46e-01	0	44	104	2429550592	71	12596
2026-01-02 06:36:28.49	283.44	6.87	-50.5	-61.4	3.8	8.47e-01	0	44	104	2429550592	71	12565
2026-01-02 06:36:29.49	283.31	6.83	-50.5	-61.4	3.8	8.46e-01	0	43	104	2429550592	71	12555
2026-01-02 06:36:30.50	283.18	6.78	-50.5	-61.4	3.8	8.48e-01	0	43	104	2429550592	71	12565
2026-01-02 06:36:31.50	283.05	6.74	-50.5	-61.4	3.8	8.46e-01	0	43	104	2429550592	71	12621
2026-01-02 06:36:32.50	282.92	6.69	-50.5	-61.4	3.8	8.46e-01	0	44	104	2429550592	71	12582
2026-01-02 06:36:33.50	282.79	6.64	-50.5	-61.4	3.8	8.48e-01	0	44	104	2429550592	71	12598
2026-01-02 06:36:34.51	282.66	6.60	-50.5	-61.4	3.8	8.48e-01	0	44	104	2429550592	71	12523
2026-01-02 06:36:35.51	282.53	6.55	-50.5	-61.4	3.8	8.47e-01	0	43	104	2429550592	71	12629
2026-01-02 06:36:36.51	282.40	6.51	-50.5	-61.4	3.8	8.46e-01	0	43	104	2429550592	71	12574
2026-01-02 06:36:37.52	282.28	6.46	-50.5	-61.4	3.8	8.47e-01	0	43	104	2429550592	71	12570
2026-01-02 06:36:38.52	282.15	6.41	-50.5	-61.4	3.8	8.47e-01	0	43	104	2429550592	71	12589
2026-01-02 06:36:39.52	282.02	6.37	-50.5	-61.4	3.8	8.48e-01	0	44	104	2429550592	71	12531
2026-01-02 06:36:40.52	281.90	6.32	-50.5	-61.4	3.8	8.47e-01	0	44	104	2429550592	71	12547
2026-01-02 06:36:41.52	281.77	6.28	-50.5	-61.3	3.8	8.47e-01	0	44	104	2429550592	71	12506
2026-01-02 06:36:42.53	281.65	6.23	-50.5	-61.4	3.8	8.47e-01	0	44	104	2429550592	71	12548
2026-01-02 06:36:43.53	281.52	6.18	-50.5	-61.4	3.8	8.47e-01	0	43	104	2429550592	71	12579
2026-01-02 06:36:44.53	281.40	6.14	-50.5	-61.3	3.8	8.47e-01	0	44	104	2429550592	71	12484
2026-01-02 06:36:45.53	281.27	6.09	-50.5	-61.4	3.8	8.47e-01	0	43	104	2429550592	71	12636
2026-01-02 06:36:46.54	281.15	6.04	-50.5	-61.4	3.8	8.46e-01	0	43	104	2429550592	71	12523
2026-01-02 06:36:47.54	281.03	6.00	-50.5	-61.4	3.8	8.46e-01	0	44	104	2429550592	71	12577
2026-01-02 06:36:48.54	280.90	5.95	-50.5	-61.4	3.8	8.47e-01	0	44	104	2429550592	71	12607
2026-01-02 06:36:49.55	280.78	5.90	-50.5	-61.3	3.8	8.47e-01	0	44	104	2429550592	71	12514
2026-01-02 06:36:50.55	280.66	5.86	-50.5	-61.4	3.8	8.46e-01	0	44	104	2429550592	71	12580
2026-01-02 06:36:51.55	280.54	5.81	-50.5	-61.4	3.8	8.47e-01	0	43	104	2429550592	71	12533
2026-01-02 06:36:52.55	280.42	5.77	-50.5	-61.4	3.8	8.46e-01	0	43	104	2429550592	71	12617
2026-01-02 06:36:53.56	280.29	5.72	-50.5	-61.5	3.8	8.48e-01	0	43	104	2429550592	71	12668
2026-01-02 06:36:54.56	280.17	5.67	-50.5	-61.4	3.8	8.46e-01	0	44	104	2429550592	71	12570
2026-01-02 06:36:55.56	280.05	5.63	-50.5	-61.4	3.8	8.46e-01	0	43	104	2429550592	71	12602
2026-01-02 06:36:56.57	279.93	5.58	-50.5	-61.4	3.8	8.47e-01	0	43	104	2429550592	71	12557
2026-01-02 06:36:57.57	279.81	5.53	-50.5	-61.4	3.8	8.47e-01	0	44	104	2429550592	71	12598
2026-01-02 06:36:58.57	279.70	5.48	-50.5	-61.4	3.8	8.47e-01	0	44	104	2429550592	71	12661
2026-01-02 06:36:59.58	279.58	5.44	-50.5	-61.4	3.8	8.47e-01	0	43	104	2429550592	71	12642
2026-01-02 06:37:00.57	279.46	5.39	-50.5	-61.4	3.8	8.47e-01	0	44	104	2429550592	71	12577
2026-01-02 06:37:01.57	279.34	5.34	-50.5	-61.4	3.8	8.47e-01	0	44	104	2429550592	71	12560
2026-01-02 06:37:02.56	279.23	5.30	-50.5	-61.4	3.8	8.47e-01	0	44	104	2429550592	71	12583
2026-01-02 06:37:03.56	279.11	5.25	-50.5	-61.4	3.8	8.46e-01	0	44	104	2429550592	71	12612
2026-01-02 06:37:04.55	278.99	5.20	-50.5	-61.4	3.8	8.47e-01	0	44	104	2429550592	71	12522
2026-01-02 06:37:05.55	278.88	5.16	-50.5	-61.3	3.8	8.47e-01	0	44	104	2429550592	71	12503
2026-01-02 06:37:06.55	278.76	5.11	-50.5	-61.4	3.8	8.47e-01	0	44	104	2429550592	71	12555
2026-01-02 06:37:07.55	278.65	5.06	-50.5	-61.4	3.8	8.47e-01	0	43	104	2429550592	71	12583
2026-01-02 06:37:08.55	278.53	5.02	-50.5	-61.4	3.8	8.48e-01	0	43	104	2429550592	71	12589
2026-01-02 06:37:09.54	278.42	4.97	-50.5	-61.4	3.8	8.46e-01	0	44	104	2429550592	71	12578

#Closed at: 2026-01-02 06:37:10
#Recorded file [2429 MB]: D:/Data/31040_260102_092840.dat