passes_logs/2026/01/02/T1/T1__20260102_221955_SUOMI_NPP_rec.log

#Pass ID: 20260102_221955_SUOMI NPP
#Satellite: SUOMI NPP
#Configuration: NPP
#almurnet v.1.7.20251203
#Start time: 2026-01-02 22:19:55

#Version: 2.0.20230620
#Station: T1
#Location: 37.570604 lon 55.790049 lat
#TLE: 1 37849U 11061A   26001.07732418  .00000182  00000+0  10735-3 0  9990
#TLE: 2 37849  98.7795 303.2470 0002580  87.2016 272.9455 14.19520779734739

#Time	Az	El	Level	Level2	SNR	BER	BlckErr	Temp	State	Recorded	gain1	gain2
2026-01-02 22:19:55.24	28.67	5.00	-47.4	-63.9	3.8	1.49e+00	0	38	0	0	66	24105
2026-01-02 22:19:56.24	28.76	5.06	-47.3	-63.8	3.8	1.49e+00	0	38	104	0	65	25260
2026-01-02 22:19:57.24	28.84	5.12	-47.3	-63.9	3.8	1.49e+00	0	38	104	0	65	25302
2026-01-02 22:19:58.24	28.92	5.18	-47.3	-63.9	3.8	1.49e+00	0	38	104	0	65	25356
2026-01-02 22:19:59.25	29.01	5.24	-47.4	-63.9	3.8	1.49e+00	0	38	104	0	65	25420
2026-01-02 22:20:00.25	29.09	5.30	-47.4	-64.0	3.8	1.49e+00	0	38	104	0	65	25574
2026-01-02 22:20:01.26	29.18	5.36	-47.3	-63.9	3.8	1.49e+00	0	38	104	0	65	25519
2026-01-02 22:20:02.26	29.26	5.42	-47.3	-63.9	3.8	1.49e+00	0	38	104	0	65	25450
2026-01-02 22:20:03.27	29.35	5.48	-47.3	-63.9	3.8	1.49e+00	0	38	104	0	65	25333
2026-01-02 22:20:04.27	29.43	5.55	-47.3	-63.9	3.8	1.49e+00	0	38	104	0	65	25528
2026-01-02 22:20:05.27	29.52	5.61	-47.3	-64.0	3.8	1.49e+00	0	38	104	0	65	25653
2026-01-02 22:20:06.28	29.61	5.67	-47.3	-64.0	3.8	1.49e+00	0	38	104	0	65	25606
2026-01-02 22:20:07.28	29.69	5.73	-47.4	-63.9	3.8	1.49e+00	0	38	104	0	65	25541
2026-01-02 22:20:08.29	29.78	5.79	-47.3	-63.9	3.8	1.49e+00	0	38	104	0	65	25481
2026-01-02 22:20:09.29	29.87	5.85	-47.3	-63.9	3.8	1.49e+00	0	38	104	0	65	25494
2026-01-02 22:20:10.30	29.95	5.91	-47.4	-63.9	3.8	1.49e+00	0	39	104	0	65	25397
2026-01-02 22:20:11.30	30.04	5.97	-47.3	-63.9	3.8	1.49e+00	0	39	104	0	65	25399
2026-01-02 22:20:12.31	30.13	6.03	-47.3	-63.9	3.8	1.49e+00	0	39	104	0	65	25385
2026-01-02 22:20:13.31	30.22	6.09	-47.3	-63.9	3.8	1.49e+00	0	39	104	0	65	25381
2026-01-02 22:20:14.31	30.31	6.16	-47.3	-63.8	3.8	1.49e+00	0	38	104	0	65	25174
2026-01-02 22:20:15.32	30.40	6.22	-47.3	-63.8	3.8	1.49e+00	0	39	104	0	65	25004
2026-01-02 22:20:16.32	30.49	6.28	-47.3	-63.7	3.8	1.49e+00	0	39	104	0	65	24878
2026-01-02 22:20:17.33	30.58	6.34	-47.3	-63.7	3.8	1.49e+00	0	39	104	0	65	24898
2026-01-02 22:20:18.33	30.67	6.40	-47.3	-63.7	3.8	1.49e+00	0	39	104	0	65	24764
2026-01-02 22:20:19.34	30.76	6.46	-47.3	-63.6	3.8	1.49e+00	0	39	104	0	65	24616
2026-01-02 22:20:20.34	30.85	6.53	-47.3	-63.6	3.8	1.49e+00	0	39	104	0	65	24459
2026-01-02 22:20:21.34	30.94	6.59	-47.3	-63.5	3.8	1.49e+00	0	39	104	0	65	24407
2026-01-02 22:20:22.35	31.04	6.65	-47.3	-63.6	3.8	1.49e+00	0	39	104	0	65	24555
2026-01-02 22:20:23.35	31.13	6.71	-47.3	-63.6	3.8	1.49e+00	0	39	104	0	65	24651
2026-01-02 22:20:24.36	31.22	6.78	-47.3	-63.7	3.8	1.49e+00	0	39	104	0	65	24701
2026-01-02 22:20:25.36	31.31	6.84	-47.3	-63.7	3.8	1.49e+00	0	39	104	0	65	24888
2026-01-02 22:20:26.37	31.41	6.90	-47.3	-63.6	3.8	1.49e+00	0	39	104	0	65	24537
2026-01-02 22:20:27.37	31.50	6.96	-47.3	-63.7	3.8	1.49e+00	0	39	104	0	65	24717
2026-01-02 22:20:28.38	31.60	7.03	-47.3	-63.7	3.8	1.49e+00	0	39	104	0	65	24880
2026-01-02 22:20:29.38	31.69	7.09	-47.3	-63.8	3.8	1.49e+00	0	39	104	0	65	25001
2026-01-02 22:20:30.39	31.79	7.15	-47.3	-63.8	3.8	1.49e+00	0	39	104	0	65	25153
2026-01-02 22:20:31.39	31.88	7.21	-47.3	-63.9	3.8	1.49e+00	0	39	104	0	65	25376
2026-01-02 22:20:32.39	31.98	7.28	-47.3	-63.9	3.8	1.49e+00	0	39	104	0	65	25370
2026-01-02 22:20:33.40	32.07	7.34	-47.3	-63.9	3.8	1.49e+00	0	39	104	0	65	25507
2026-01-02 22:20:34.40	32.17	7.40	-47.3	-63.9	3.8	1.49e+00	0	39	104	0	65	25277
2026-01-02 22:20:35.41	32.27	7.47	-47.3	-63.7	3.8	1.49e+00	0	39	104	0	65	24828
2026-01-02 22:20:36.41	32.36	7.53	-47.3	-63.5	3.8	1.49e+00	0	39	104	0	65	24222
2026-01-02 22:20:37.42	32.46	7.59	-47.3	-63.1	3.8	1.49e+00	0	39	104	0	65	23210
2026-01-02 22:20:38.42	32.56	7.66	-47.3	-62.9	3.8	1.49e+00	0	39	104	0	65	22700
2026-01-02 22:20:39.43	32.66	7.72	-47.2	-62.8	3.8	1.49e+00	0	39	104	0	65	22374
2026-01-02 22:20:40.43	32.76	7.79	-47.2	-62.7	3.8	1.49e+00	0	39	104	0	65	22249
2026-01-02 22:20:41.43	32.86	7.85	-47.2	-62.9	3.8	1.49e+00	0	39	104	0	65	22602
2026-01-02 22:20:42.44	32.96	7.91	-47.2	-62.9	3.8	1.49e+00	0	39	104	0	65	22725
2026-01-02 22:20:43.44	33.06	7.98	-47.3	-63.1	3.8	1.49e+00	0	39	104	0	65	23083
2026-01-02 22:20:44.44	33.16	8.04	-47.3	-63.2	3.8	1.49e+00	0	39	104	0	65	23452
2026-01-02 22:20:45.45	33.26	8.11	-47.3	-63.2	3.8	1.49e+00	0	40	104	0	65	23508
2026-01-02 22:20:46.45	33.36	8.17	-47.3	-63.2	3.8	1.49e+00	0	40	104	0	65	23382
2026-01-02 22:20:47.46	33.47	8.23	-47.3	-63.1	3.8	1.49e+00	0	39	104	0	65	23280
2026-01-02 22:20:48.46	33.57	8.30	-47.3	-63.0	3.8	1.49e+00	0	39	104	0	65	22796
2026-01-02 22:20:49.47	33.67	8.36	-47.3	-62.9	3.8	1.49e+00	0	39	104	0	65	22764
2026-01-02 22:20:50.47	33.77	8.43	-47.3	-62.9	3.8	1.49e+00	0	40	104	0	65	22596
2026-01-02 22:20:51.48	33.88	8.49	-47.3	-62.9	3.8	1.49e+00	0	40	104	0	65	22561
2026-01-02 22:20:52.48	33.98	8.56	-47.3	-63.1	3.8	1.49e+00	0	39	104	0	65	23256
2026-01-02 22:20:53.48	34.09	8.62	-47.3	-63.2	3.8	1.49e+00	0	40	104	0	65	23369
2026-01-02 22:20:54.49	34.19	8.69	-47.3	-63.2	3.8	1.49e+00	0	40	104	0	65	23563
2026-01-02 22:20:55.49	34.30	8.75	-47.3	-63.1	3.8	1.49e+00	0	39	104	0	65	23307
2026-01-02 22:20:56.50	34.40	8.82	-47.3	-62.8	3.8	1.49e+00	0	40	104	0	65	22388
2026-01-02 22:20:57.50	34.51	8.88	-47.2	-62.2	3.8	1.49e+00	0	39	104	0	65	20852
2026-01-02 22:20:58.51	34.62	8.95	-47.2	-61.0	3.9	1.49e+00	0	40	104	0	65	18195
2026-01-02 22:20:59.51	34.73	9.01	-47.1	-59.5	4.5	1.25e+00	0	40	0	0	65	15240
2026-01-02 22:21:00.52	34.83	9.08	-47.2	-58.5	4.9	7.31e-01	0	40	0	2097152	65	13684
2026-01-02 22:21:01.52	34.94	9.15	-48.4	-60.7	4.2	7.76e-01	0	40	0	4194304	67	15719
2026-01-02 22:21:02.52	35.05	9.21	-48.3	-59.3	4.4	1.49e+00	0	40	104	4194304	67	13363
2026-01-02 22:21:03.53	35.16	9.28	-47.0	-59.6	4.5	2.37e-01	0	40	0	5242880	64	16501
2026-01-02 22:21:04.53	35.27	9.34	-47.1	-55.3	4.8	1.49e+00	0	40	104	5242880	65	9439
2026-01-02 22:21:05.54	35.38	9.41	-44.9	-49.0	14.0	2.13e-05	0	40	0	6291456	61	5729
2026-01-02 22:21:06.54	35.49	9.48	-44.5	-48.6	14.3	2.20e-06	0	40	0	8388608	61	5495
2026-01-02 22:21:07.54	35.60	9.54	-44.4	-48.5	14.4	1.50e-06	0	40	0	9437184	60	5756
2026-01-02 22:21:08.55	35.71	9.61	-44.3	-48.6	14.2	1.50e-06	0	40	0	11534336	60	5827
2026-01-02 22:21:09.55	35.83	9.67	-44.2	-48.4	14.4	2.20e-06	0	40	0	13631488	60	5693
2026-01-02 22:21:10.55	35.94	9.74	-44.1	-48.2	14.6	0.00e+00	0	40	0	15728640	60	5557
2026-01-02 22:21:11.56	36.05	9.81	-44.0	-47.8	15.0	0.00e+00	0	40	0	16777216	59	5648
2026-01-02 22:21:12.56	36.16	9.87	-43.6	-47.2	15.7	0.00e+00	0	40	0	18874368	59	5239
2026-01-02 22:21:13.57	36.28	9.94	-43.7	-47.2	15.6	0.00e+00	0	40	0	20971520	59	5266
2026-01-02 22:21:14.57	36.39	10.01	-43.5	-47.0	15.8	0.00e+00	0	40	0	23068672	59	5112
2026-01-02 22:21:15.57	36.51	10.07	-43.4	-46.8	16.1	0.00e+00	0	40	0	25165824	58	5323
2026-01-02 22:21:16.58	36.63	10.14	-43.4	-46.8	16.0	0.00e+00	0	40	0	26214400	58	5326
2026-01-02 22:21:17.58	36.74	10.21	-43.3	-46.6	16.2	0.00e+00	0	40	0	28311552	58	5202
2026-01-02 22:21:18.58	36.86	10.28	-43.3	-46.6	16.2	0.00e+00	0	40	0	30408704	58	5184
2026-01-02 22:21:19.58	36.97	10.34	-43.4	-46.7	16.1	0.00e+00	0	40	0	32505856	58	5257
2026-01-02 22:21:20.58	37.09	10.41	-43.2	-46.4	16.5	0.00e+00	0	40	0	34603008	58	5042
2026-01-02 22:21:21.59	37.21	10.48	-43.3	-46.4	16.4	0.00e+00	0	40	0	35651584	58	5099
2026-01-02 22:21:22.59	37.33	10.54	-43.1	-46.2	16.6	0.00e+00	0	40	0	37748736	58	4965
2026-01-02 22:21:23.59	37.45	10.61	-43.2	-46.3	16.6	0.00e+00	0	40	0	39845888	58	4991
2026-01-02 22:21:24.74	37.58	10.69	-43.2	-46.3	16.7	0.00e+00	0	40	0	41943040	58	4992
2026-01-02 22:21:25.63	37.69	10.75	-43.2	-46.2	16.7	0.00e+00	0	40	0	44040192	58	4983
2026-01-02 22:21:26.83	37.84	10.83	-43.1	-46.1	16.8	0.00e+00	0	40	0	46137344	58	4886
2026-01-02 22:21:27.69	37.94	10.89	-43.0	-46.0	16.7	0.00e+00	0	40	0	47185920	58	4870
2026-01-02 22:21:29.09	38.11	10.98	-43.0	-46.0	16.8	0.00e+00	0	40	0	50331648	57	5158
2026-01-02 22:21:29.81	38.20	11.03	-43.0	-46.0	16.8	0.00e+00	0	40	0	51380224	57	5148
2026-01-02 22:21:31.29	38.38	11.13	-43.0	-46.1	16.7	0.00e+00	0	40	0	54525952	57	5201
2026-01-02 22:21:32.00	38.47	11.18	-43.1	-46.2	16.7	0.00e+00	0	40	0	55574528	57	5253
2026-01-02 22:21:33.30	38.63	11.27	-43.2	-46.2	16.6	0.00e+00	0	40	0	57671680	57	5268
2026-01-02 22:21:34.01	38.72	11.32	-43.1	-46.1	16.8	0.00e+00	0	40	0	59768832	57	5182
2026-01-02 22:21:35.30	38.88	11.40	-43.1	-46.1	16.7	0.00e+00	0	40	0	61865984	57	5213
2026-01-02 22:21:36.01	38.97	11.45	-43.1	-46.1	16.8	0.00e+00	0	40	0	62914560	57	5179
2026-01-02 22:21:37.30	39.13	11.54	-43.1	-46.0	16.9	0.00e+00	0	40	0	66060288	57	5135
2026-01-02 22:21:38.02	39.22	11.59	-43.0	-45.9	16.9	0.00e+00	0	40	0	67108864	57	5075
2026-01-02 22:21:39.31	39.39	11.68	-43.1	-46.0	16.8	0.00e+00	0	40	0	69206016	57	5155
2026-01-02 22:21:40.04	39.48	11.73	-43.1	-46.0	16.9	0.00e+00	0	40	0	70254592	57	5119
2026-01-02 22:21:41.33	39.65	11.82	-43.3	-46.3	16.7	0.00e+00	0	40	0	73400320	57	5282
2026-01-02 22:21:42.22	39.76	11.88	-43.3	-46.2	16.8	0.00e+00	0	40	0	74448896	57	5271
2026-01-02 22:21:43.36	39.91	11.96	-43.4	-46.4	16.5	0.00e+00	0	40	0	76546048	57	5380
2026-01-02 22:21:44.22	40.02	12.02	-43.4	-46.4	16.5	0.00e+00	0	40	0	78643200	57	5358
2026-01-02 22:21:45.37	40.17	12.10	-43.3	-46.3	16.7	0.00e+00	0	40	0	80740352	57	5295
2026-01-02 22:21:46.23	40.29	12.15	-43.3	-46.3	16.7	0.00e+00	0	40	0	81788928	57	5295
2026-01-02 22:21:47.37	40.44	12.23	-43.4	-46.3	16.6	0.00e+00	0	40	0	83886080	57	5323
2026-01-02 22:21:48.23	40.55	12.29	-43.3	-46.2	16.8	0.00e+00	0	40	0	85983232	57	5219
2026-01-02 22:21:49.38	40.70	12.37	-43.1	-45.9	17.0	0.00e+00	0	40	0	88080384	57	5097
2026-01-02 22:21:50.24	40.82	12.43	-43.2	-46.0	16.9	0.00e+00	0	40	0	90177536	57	5156
2026-01-02 22:21:51.49	40.99	12.52	-43.0	-45.9	17.0	0.00e+00	0	40	0	92274688	57	5050
2026-01-02 22:21:52.23	41.09	12.57	-42.9	-45.7	17.2	0.00e+00	0	40	0	93323264	57	4979
2026-01-02 22:21:53.51	41.26	12.66	-42.9	-45.7	17.2	0.00e+00	0	40	0	95420416	57	4941
2026-01-02 22:21:54.23	41.36	12.71	-42.8	-45.6	17.4	0.00e+00	0	40	0	97517568	57	4879
2026-01-02 22:21:55.53	41.54	12.80	-42.6	-45.3	17.7	0.00e+00	0	40	0	99614720	57	4709
2026-01-02 22:21:56.26	41.64	12.85	-42.6	-45.3	17.6	0.00e+00	0	40	0	100663296	57	4752
2026-01-02 22:21:57.55	41.82	12.94	-42.5	-45.1	17.7	0.00e+00	0	40	0	103809024	56	4916
2026-01-02 22:21:58.26	41.91	12.99	-42.6	-45.2	17.7	0.00e+00	0	40	0	104857600	56	4970
2026-01-02 22:21:59.55	42.10	13.08	-42.5	-45.1	17.8	0.00e+00	0	40	0	106954752	56	4916
2026-01-02 22:22:00.27	42.20	13.13	-42.5	-45.2	17.8	0.00e+00	0	40	0	109051904	56	4937
2026-01-02 22:22:01.56	42.38	13.22	-42.6	-45.2	17.8	0.00e+00	0	40	0	111149056	56	4958
2026-01-02 22:22:02.27	42.48	13.27	-42.5	-45.1	17.8	0.00e+00	0	40	0	112197632	56	4909
2026-01-02 22:22:03.63	42.67	13.36	-42.6	-45.3	17.6	0.00e+00	0	40	0	115343360	56	5015
2026-01-02 22:22:04.35	42.77	13.41	-42.7	-45.4	17.6	0.00e+00	0	40	0	116391936	56	5066
2026-01-02 22:22:05.63	42.96	13.50	-42.9	-45.6	17.4	0.00e+00	0	40	0	118489088	56	5175
2026-01-02 22:22:06.35	43.06	13.55	-42.8	-45.4	17.5	0.00e+00	0	40	0	119537664	56	5097
2026-01-02 22:22:07.77	43.27	13.65	-42.8	-45.5	17.3	0.00e+00	0	40	0	122683392	56	5142
2026-01-02 22:22:08.48	43.37	13.70	-42.6	-45.3	17.6	0.00e+00	0	40	0	123731968	56	4987
2026-01-02 22:22:09.77	43.56	13.79	-42.7	-45.4	17.5	0.00e+00	0	40	0	126877696	56	5089
2026-01-02 22:22:10.49	43.67	13.84	-42.7	-45.4	17.5	0.00e+00	0	40	0	127926272	56	5077
2026-01-02 22:22:11.77	43.86	13.93	-42.7	-45.4	17.5	0.00e+00	0	40	0	130023424	56	5089
2026-01-02 22:22:12.49	43.96	13.98	-42.7	-45.4	17.6	0.00e+00	0	40	0	131072000	56	5088
2026-01-02 22:22:13.78	44.15	14.07	-42.9	-45.6	17.4	0.00e+00	0	40	0	134217728	56	5183
2026-01-02 22:22:14.49	44.26	14.12	-42.8	-45.6	17.4	0.00e+00	0	40	0	135266304	56	5174
2026-01-02 22:22:15.79	44.46	14.21	-42.8	-45.6	17.4	0.00e+00	0	40	0	137363456	56	5171
2026-01-02 22:22:16.50	44.56	14.26	-43.1	-46.0	17.0	0.00e+00	0	40	0	139460608	56	5415
2026-01-02 22:22:17.79	44.76	14.35	-42.9	-45.6	17.3	0.00e+00	0	40	0	141557760	57	4916
2026-01-02 22:22:18.67	44.89	14.42	-43.0	-45.8	17.2	0.00e+00	0	40	0	142606336	57	4999
2026-01-02 22:22:19.82	45.07	14.50	-42.9	-45.6	17.3	0.00e+00	0	40	0	144703488	57	4910
2026-01-02 22:22:20.68	45.20	14.56	-42.9	-45.6	17.3	0.00e+00	0	40	0	146800640	57	4909
2026-01-02 22:22:21.82	45.38	14.64	-42.6	-45.3	17.6	0.00e+00	0	40	0	148897792	57	4732
2026-01-02 22:22:22.68	45.51	14.70	-42.7	-45.5	17.5	0.00e+00	0	40	0	150994944	57	4821
2026-01-02 22:22:23.83	45.69	14.78	-42.6	-45.3	17.7	0.00e+00	0	40	0	153092096	57	4716
2026-01-02 22:22:24.69	45.83	14.84	-42.5	-45.1	17.8	0.00e+00	0	40	0	154140672	56	4924
2026-01-02 22:22:25.88	46.01	14.92	-42.5	-45.1	17.8	0.00e+00	0	40	0	156237824	56	4926
2026-01-02 22:22:26.74	46.15	14.98	-42.5	-45.1	17.8	0.00e+00	0	40	0	158334976	56	4920
2026-01-02 22:22:27.94	46.34	15.07	-42.4	-45.1	17.9	0.00e+00	0	40	0	160432128	56	4872
2026-01-02 22:22:28.80	46.48	15.13	-42.5	-45.1	17.9	0.00e+00	0	40	0	162529280	56	4898
2026-01-02 22:22:29.94	46.66	15.21	-42.3	-44.9	17.9	0.00e+00	0	40	0	164626432	56	4814
2026-01-02 22:22:30.80	46.80	15.27	-42.4	-45.1	17.9	0.00e+00	0	40	0	165675008	56	4872
2026-01-02 22:22:31.95	46.99	15.35	-42.5	-45.1	17.9	0.00e+00	0	40	0	167772160	56	4885
2026-01-02 22:22:32.81	47.13	15.41	-42.4	-45.0	18.0	0.00e+00	0	40	0	169869312	56	4846
2026-01-02 22:22:33.96	47.32	15.49	-42.5	-45.1	17.9	0.00e+00	0	40	0	171966464	56	4885
2026-01-02 22:22:34.82	47.46	15.55	-42.4	-45.0	18.0	0.00e+00	0	40	0	173015040	56	4817
2026-01-02 22:22:35.96	47.65	15.63	-42.3	-44.8	18.1	0.00e+00	0	40	0	175112192	56	4750
2026-01-02 22:22:36.82	47.79	15.69	-42.2	-44.7	18.2	0.00e+00	0	40	0	177209344	56	4693
2026-01-02 22:22:37.97	47.98	15.77	-42.2	-44.7	18.2	0.00e+00	0	40	0	179306496	56	4669
2026-01-02 22:22:38.83	48.12	15.83	-42.2	-44.7	18.3	0.00e+00	0	40	0	180355072	56	4676
2026-01-02 22:22:39.98	48.32	15.92	-42.2	-44.7	18.2	0.00e+00	0	40	0	183500800	56	4699
2026-01-02 22:22:40.84	48.46	15.98	-42.2	-44.8	18.2	0.00e+00	0	40	0	184549376	56	4712
2026-01-02 22:22:42.04	48.67	16.06	-42.2	-44.7	18.2	0.00e+00	0	40	0	186646528	56	4701
2026-01-02 22:22:42.90	48.81	16.12	-42.3	-44.9	18.1	0.00e+00	0	41	0	188743680	56	4788
2026-01-02 22:22:44.05	49.01	16.20	-42.2	-44.7	18.2	0.00e+00	0	40	0	190840832	56	4683
2026-01-02 22:22:44.91	49.16	16.26	-42.4	-45.0	17.9	0.00e+00	0	40	0	191889408	56	4854
2026-01-02 22:22:46.06	49.36	16.34	-42.4	-45.0	17.9	0.00e+00	0	40	0	193986560	56	4849
2026-01-02 22:22:46.95	49.51	16.40	-42.6	-45.3	17.7	0.00e+00	0	40	0	196083712	56	4994
2026-01-02 22:22:48.09	49.71	16.48	-42.4	-45.0	17.9	0.00e+00	0	40	0	198180864	56	4865
2026-01-02 22:22:48.95	49.86	16.54	-42.4	-45.1	17.9	0.00e+00	0	40	0	200278016	56	4885
2026-01-02 22:22:50.10	50.06	16.62	-42.5	-45.2	17.7	0.00e+00	0	40	0	202375168	56	4947
2026-01-02 22:22:51.10	50.24	16.69	-42.5	-45.2	17.8	0.00e+00	0	40	0	203423744	56	4942
2026-01-02 22:22:52.28	50.45	16.78	-42.1	-44.7	18.3	0.00e+00	0	40	0	206569472	56	4669
2026-01-02 22:22:53.14	50.60	16.84	-42.1	-44.7	18.2	0.00e+00	0	40	0	207618048	56	4685
2026-01-02 22:22:54.49	50.85	16.93	-42.2	-44.8	18.1	0.00e+00	0	40	0	210763776	56	4732
2026-01-02 22:22:55.21	50.98	16.98	-42.3	-44.9	18.0	0.00e+00	0	40	0	211812352	56	4800
2026-01-02 22:22:56.50	51.21	17.07	-42.2	-44.8	18.1	0.00e+00	0	40	0	213909504	56	4741
2026-01-02 22:22:57.21	51.34	17.12	-42.4	-45.1	17.9	0.00e+00	0	40	0	214958080	56	4916
2026-01-02 22:22:58.50	51.57	17.21	-42.6	-45.3	17.7	0.00e+00	0	40	0	218103808	56	5012
2026-01-02 22:22:59.27	51.72	17.26	-42.5	-45.2	17.7	0.00e+00	0	40	0	219152384	56	4975
2026-01-02 22:23:00.56	51.95	17.35	-42.6	-45.3	17.6	0.00e+00	0	40	0	221249536	56	5018
2026-01-02 22:23:01.27	52.09	17.40	-42.6	-45.4	17.6	0.00e+00	0	40	0	223346688	56	5058
2026-01-02 22:23:02.56	52.33	17.49	-42.4	-45.1	17.8	0.00e+00	0	40	0	225443840	56	4907
2026-01-02 22:23:03.28	52.46	17.54	-42.4	-45.1	17.8	0.00e+00	0	40	0	226492416	56	4918
2026-01-02 22:23:04.57	52.70	17.63	-42.5	-45.2	17.9	0.00e+00	0	40	0	229638144	56	4946
2026-01-02 22:23:05.29	52.84	17.68	-42.3	-45.0	18.0	0.00e+00	0	40	0	230686720	56	4843
2026-01-02 22:23:06.58	53.08	17.77	-42.3	-45.0	17.9	0.00e+00	0	40	0	232783872	56	4864
2026-01-02 22:23:07.30	53.22	17.82	-42.4	-45.1	17.9	0.00e+00	0	40	0	233832448	56	4874
2026-01-02 22:23:08.59	53.47	17.90	-42.2	-44.9	18.1	0.00e+00	0	40	0	236978176	56	4780
2026-01-02 22:23:09.30	53.60	17.95	-42.4	-45.1	17.9	0.00e+00	0	40	0	238026752	56	4918
2026-01-02 22:23:10.69	53.87	18.05	-42.5	-45.2	17.8	0.00e+00	0	40	0	241172480	56	4964
2026-01-02 22:23:11.41	54.01	18.10	-42.4	-45.1	17.9	0.00e+00	0	40	0	242221056	56	4888
2026-01-02 22:23:12.79	54.28	18.19	-42.4	-45.1	17.8	0.00e+00	0	40	0	244318208	56	4910
2026-01-02 22:23:13.51	54.42	18.24	-42.5	-45.3	17.7	0.00e+00	0	40	0	246415360	56	4987
2026-01-02 22:23:14.83	54.68	18.33	-42.5	-45.2	17.8	0.00e+00	0	40	0	248512512	56	4968
2026-01-02 22:23:15.55	54.82	18.38	-42.5	-45.2	17.8	0.00e+00	0	40	0	249561088	56	4930
2026-01-02 22:23:16.84	55.08	18.46	-42.4	-45.2	17.8	0.00e+00	0	40	0	251658240	56	4929
2026-01-02 22:23:17.55	55.22	18.51	-42.7	-45.6	17.5	0.00e+00	0	40	0	253755392	56	5174
2026-01-02 22:23:18.85	55.48	18.60	-42.7	-45.6	17.4	0.00e+00	0	40	0	255852544	56	5181
2026-01-02 22:23:19.56	55.62	18.65	-42.9	-45.8	17.2	0.00e+00	0	40	0	256901120	56	5295
2026-01-02 22:23:20.85	55.88	18.73	-43.0	-45.9	17.1	0.00e+00	0	40	0	260046848	56	5367
2026-01-02 22:23:21.57	56.03	18.78	-42.7	-45.5	17.5	0.00e+00	0	40	0	261095424	56	5108
2026-01-02 22:23:22.86	56.29	18.86	-42.5	-45.3	17.7	0.00e+00	0	40	0	263192576	56	5015
2026-01-02 22:23:23.57	56.44	18.91	-42.5	-45.3	17.7	0.00e+00	0	40	0	264241152	56	4991
2026-01-02 22:23:24.86	56.70	19.00	-42.5	-45.2	17.8	0.00e+00	0	40	0	267386880	56	4937
2026-01-02 22:23:25.58	56.85	19.04	-42.6	-45.4	17.6	0.00e+00	0	40	0	268435456	56	5087
2026-01-02 22:23:26.87	57.12	19.13	-43.0	-45.9	17.0	0.00e+00	0	40	0	270532608	56	5367
2026-01-02 22:23:27.58	57.26	19.18	-43.0	-46.0	17.1	0.00e+00	0	40	0	272629760	56	5405
2026-01-02 22:23:28.87	57.53	19.26	-43.2	-46.2	16.8	0.00e+00	0	40	0	274726912	57	5269
2026-01-02 22:23:29.58	57.68	19.31	-43.4	-46.5	16.6	0.00e+00	0	40	0	275775488	57	5405
2026-01-02 22:23:30.99	57.98	19.40	-43.0	-45.9	17.1	0.00e+00	0	40	0	278921216	57	5054
2026-01-02 22:23:31.71	58.13	19.44	-42.9	-45.8	17.2	0.00e+00	0	40	0	279969792	57	5003
2026-01-02 22:23:33.05	58.42	19.53	-42.7	-45.5	17.5	0.00e+00	0	40	0	282066944	57	4839
2026-01-02 22:23:33.76	58.57	19.58	-42.8	-45.6	17.4	0.00e+00	0	40	0	284164096	57	4915
2026-01-02 22:23:35.09	58.85	19.66	-43.2	-46.1	17.0	0.00e+00	0	40	0	286261248	57	5209
2026-01-02 22:23:35.80	59.00	19.71	-43.2	-46.2	16.8	0.00e+00	0	40	0	287309824	57	5260
2026-01-02 22:23:37.15	59.30	19.79	-43.6	-46.8	16.3	0.00e+00	0	40	0	290455552	58	5319
2026-01-02 22:23:37.87	59.45	19.84	-43.8	-47.1	16.0	0.00e+00	0	40	0	291504128	58	5502
2026-01-02 22:23:39.16	59.73	19.92	-43.7	-46.8	16.2	0.00e+00	0	40	0	293601280	58	5336
2026-01-02 22:23:40.21	59.96	19.98	-43.5	-46.5	16.5	0.00e+00	0	40	0	295698432	58	5147
2026-01-02 22:23:41.11	60.16	20.04	-43.2	-46.1	17.0	0.00e+00	0	40	0	297795584	58	4918
2026-01-02 22:23:42.12	60.38	20.10	-43.2	-46.1	17.0	0.00e+00	0	40	0	299892736	58	4906
2026-01-02 22:23:43.13	60.61	20.17	-43.2	-46.1	17.1	0.00e+00	0	40	0	300941312	58	4884
2026-01-02 22:23:44.12	60.83	20.23	-43.1	-45.9	17.2	0.00e+00	0	40	0	303038464	58	4794
2026-01-02 22:23:45.13	61.05	20.29	-43.3	-46.2	16.9	0.00e+00	0	40	0	305135616	58	4935
2026-01-02 22:23:46.18	61.29	20.35	-43.3	-46.2	16.9	0.00e+00	0	40	0	307232768	58	4958
2026-01-02 22:23:47.04	61.48	20.41	-43.3	-46.2	16.9	0.00e+00	0	40	0	309329920	58	4966
2026-01-02 22:23:48.18	61.74	20.47	-43.1	-45.9	17.2	0.00e+00	0	40	0	310378496	58	4780
2026-01-02 22:23:49.05	61.94	20.53	-43.1	-45.9	17.2	0.00e+00	0	40	0	312475648	58	4798
2026-01-02 22:23:50.19	62.20	20.60	-43.1	-45.8	17.2	0.00e+00	0	40	0	314572800	57	5033
2026-01-02 22:23:51.05	62.39	20.65	-43.2	-46.0	17.1	0.00e+00	0	40	0	316669952	57	5124
2026-01-02 22:23:52.20	62.66	20.71	-43.3	-46.1	17.0	0.00e+00	0	40	0	318767104	57	5218
2026-01-02 22:23:53.28	62.90	20.78	-43.6	-46.5	16.6	0.00e+00	0	40	0	320864256	57	5443
2026-01-02 22:23:54.33	63.15	20.84	-43.7	-46.7	16.4	0.00e+00	0	40	0	321912832	58	5254
2026-01-02 22:23:55.37	63.39	20.90	-43.4	-46.3	16.8	0.00e+00	0	40	0	324009984	58	4987
2026-01-02 22:23:56.37	63.62	20.96	-43.0	-45.7	17.3	0.00e+00	0	40	0	326107136	58	4680
2026-01-02 22:23:57.37	63.85	21.02	-42.7	-45.4	17.7	0.00e+00	0	40	0	328204288	57	4784
2026-01-02 22:23:58.37	64.09	21.07	-42.5	-45.1	17.9	0.00e+00	0	40	0	330301440	57	4618
2026-01-02 22:23:59.37	64.33	21.13	-42.4	-44.9	18.1	0.00e+00	0	40	0	332398592	56	4812
2026-01-02 22:24:00.38	64.56	21.19	-42.2	-44.7	18.3	0.00e+00	0	40	0	333447168	56	4702
2026-01-02 22:24:01.38	64.80	21.24	-42.1	-44.6	18.5	0.00e+00	0	40	0	335544320	56	4605
2026-01-02 22:24:02.38	65.04	21.30	-42.3	-44.8	18.3	0.00e+00	0	40	0	337641472	56	4735
2026-01-02 22:24:03.39	65.28	21.36	-42.2	-44.7	18.3	0.00e+00	0	40	0	339738624	56	4705
2026-01-02 22:24:04.39	65.52	21.41	-42.6	-45.2	17.9	0.00e+00	0	40	0	341835776	56	4928
2026-01-02 22:24:05.39	65.76	21.47	-42.8	-45.5	17.6	0.00e+00	0	40	0	342884352	56	5126
2026-01-02 22:24:06.40	66.00	21.52	-43.2	-46.0	17.2	0.00e+00	0	40	0	344981504	56	5410
2026-01-02 22:24:07.40	66.25	21.57	-43.7	-46.7	16.5	0.00e+00	0	40	0	347078656	57	5531
2026-01-02 22:24:08.47	66.51	21.63	-43.8	-46.9	16.2	0.00e+00	0	40	0	349175808	58	5365
2026-01-02 22:24:09.36	66.72	21.68	-43.7	-46.7	16.4	0.00e+00	0	40	0	350224384	58	5270
2026-01-02 22:24:10.50	67.00	21.74	-43.5	-46.3	16.8	0.00e+00	0	40	0	352321536	58	5039
2026-01-02 22:24:11.36	67.21	21.78	-43.2	-45.9	17.2	0.00e+00	0	40	0	354418688	58	4790
2026-01-02 22:24:12.50	67.50	21.84	-42.6	-45.3	17.8	0.00e+00	0	40	0	356515840	57	4709
2026-01-02 22:24:13.36	67.71	21.89	-42.5	-45.1	18.0	0.00e+00	0	40	0	358612992	56	4883
2026-01-02 22:24:14.51	67.99	21.95	-42.6	-45.2	17.8	0.00e+00	0	40	0	360710144	56	4982
2026-01-02 22:24:15.37	68.21	21.99	-42.8	-45.5	17.6	0.00e+00	0	40	0	361758720	56	5122
2026-01-02 22:24:16.52	68.49	22.05	-43.0	-45.8	17.3	0.00e+00	0	40	0	363855872	56	5310
2026-01-02 22:24:17.38	68.71	22.09	-43.1	-45.9	17.2	0.00e+00	0	40	0	365953024	56	5356
2026-01-02 22:24:18.52	69.00	22.15	-43.0	-45.8	17.3	0.00e+00	0	40	0	368050176	56	5325
2026-01-02 22:24:19.38	69.21	22.19	-42.9	-45.7	17.4	0.00e+00	0	40	0	369098752	56	5244
2026-01-02 22:24:20.53	69.50	22.24	-43.0	-45.8	17.3	0.00e+00	0	40	0	371195904	56	5296
2026-01-02 22:24:21.39	69.72	22.29	-43.1	-45.8	17.4	0.00e+00	0	40	0	373293056	56	5314
2026-01-02 22:24:22.53	70.01	22.34	-43.3	-46.2	16.9	0.00e+00	0	40	0	375390208	57	5230
2026-01-02 22:24:23.39	70.23	22.38	-43.4	-46.3	16.8	0.00e+00	0	40	0	377487360	57	5292
2026-01-02 22:24:24.68	70.56	22.44	-43.0	-45.8	17.3	0.00e+00	0	40	0	379584512	57	4990
2026-01-02 22:24:25.40	70.75	22.47	-42.9	-45.6	17.5	0.00e+00	0	40	0	380633088	57	4884
2026-01-02 22:24:26.69	71.08	22.53	-42.6	-45.2	17.9	0.00e+00	0	40	0	382730240	57	4664
2026-01-02 22:24:27.41	71.26	22.56	-42.6	-45.2	17.9	0.00e+00	0	40	0	384827392	57	4652
2026-01-02 22:24:28.70	71.60	22.62	-42.8	-45.4	17.7	0.00e+00	0	40	0	386924544	56	5078
2026-01-02 22:24:29.46	71.80	22.65	-43.0	-45.7	17.4	0.00e+00	0	40	0	387973120	56	5270
2026-01-02 22:24:30.75	72.13	22.71	-43.5	-46.4	16.7	0.00e+00	0	40	0	391118848	57	5401
2026-01-02 22:24:31.47	72.32	22.74	-43.8	-46.8	16.3	0.00e+00	0	40	0	392167424	58	5307
2026-01-02 22:24:32.76	72.66	22.79	-44.0	-47.1	16.1	0.00e+00	0	40	0	394264576	58	5477
2026-01-02 22:24:33.60	72.88	22.83	-43.8	-46.8	16.4	0.00e+00	0	40	0	396361728	58	5297
2026-01-02 22:24:34.75	73.18	22.88	-43.8	-46.8	16.3	0.00e+00	0	40	0	398458880	58	5317
2026-01-02 22:24:35.61	73.41	22.91	-43.6	-46.5	16.7	0.00e+00	0	40	0	399507456	58	5104
2026-01-02 22:24:36.75	73.71	22.96	-43.5	-46.3	16.8	0.00e+00	0	40	0	401604608	58	5020
2026-01-02 22:24:37.61	73.94	22.99	-43.5	-46.4	16.7	0.00e+00	0	40	0	403701760	58	5092
2026-01-02 22:24:38.76	74.24	23.04	-43.4	-46.2	16.9	0.00e+00	0	40	0	405798912	58	4976
2026-01-02 22:24:39.62	74.47	23.07	-43.6	-46.5	16.7	0.00e+00	0	40	0	406847488	58	5146
2026-01-02 22:24:40.77	74.78	23.11	-43.6	-46.6	16.5	0.00e+00	0	40	0	409993216	58	5191
2026-01-02 22:24:41.62	75.01	23.14	-43.6	-46.5	16.7	0.00e+00	0	40	0	411041792	58	5129
2026-01-02 22:24:42.77	75.32	23.18	-43.9	-46.9	16.3	0.00e+00	0	40	0	413138944	58	5380
2026-01-02 22:24:43.63	75.55	23.22	-43.8	-46.7	16.4	0.00e+00	0	40	0	415236096	58	5279
2026-01-02 22:24:44.91	75.89	23.26	-44.0	-47.0	16.2	0.00e+00	0	40	0	417333248	58	5464
2026-01-02 22:24:45.62	76.09	23.29	-43.9	-47.0	16.1	0.00e+00	0	40	0	418381824	58	5453
2026-01-02 22:24:46.91	76.44	23.33	-43.9	-47.0	16.2	0.00e+00	0	40	0	421527552	58	5422
2026-01-02 22:24:47.63	76.63	23.35	-44.0	-47.1	16.1	0.00e+00	0	40	0	422576128	58	5513
2026-01-02 22:24:48.92	76.98	23.40	-44.3	-47.6	15.6	0.00e+00	0	40	0	424673280	59	5486
2026-01-02 22:24:49.64	77.18	23.42	-44.4	-47.7	15.5	0.00e+00	0	40	0	425721856	59	5570
2026-01-02 22:24:51.29	77.63	23.47	-44.4	-47.6	15.6	0.00e+00	0	40	0	428867584	59	5504
2026-01-02 22:24:51.87	77.79	23.49	-44.2	-47.3	15.9	0.00e+00	0	40	0	429916160	59	5310
2026-01-02 22:24:53.46	78.22	23.54	-43.9	-46.9	16.3	0.00e+00	0	40	0	433061888	59	5045
2026-01-02 22:24:54.03	78.38	23.55	-43.6	-46.5	16.6	0.00e+00	0	40	0	434110464	59	4842
2026-01-02 22:24:55.62	78.82	23.60	-43.2	-45.9	17.2	0.00e+00	0	40	0	437256192	58	4809
2026-01-02 22:24:56.20	78.98	23.62	-43.1	-45.9	17.2	0.00e+00	0	40	0	438304768	58	4776
2026-01-02 22:24:57.88	79.45	23.66	-42.8	-45.5	17.6	0.00e+00	0	40	0	441450496	57	4836
2026-01-02 22:24:58.46	79.61	23.68	-42.7	-45.3	17.8	0.00e+00	0	40	0	442499072	57	4754
2026-01-02 22:25:00.05	80.05	23.72	-42.4	-45.0	18.0	0.00e+00	0	40	0	445644800	56	4842
2026-01-02 22:25:00.62	80.21	23.73	-42.3	-44.9	18.2	0.00e+00	0	40	0	446693376	56	4761
2026-01-02 22:25:02.52	80.74	23.78	-42.9	-45.8	17.3	0.00e+00	0	40	0	449839104	56	5292
2026-01-02 22:25:03.09	80.90	23.79	-43.1	-46.0	17.1	0.00e+00	0	41	0	451936256	56	5421
2026-01-02 22:25:04.67	81.34	23.83	-43.6	-46.7	16.5	0.00e+00	0	40	0	454033408	57	5546
2026-01-02 22:25:05.24	81.50	23.84	-43.7	-46.8	16.2	0.00e+00	0	40	0	455081984	58	5325
2026-01-02 22:25:06.82	81.94	23.87	-42.9	-45.8	17.3	0.00e+00	0	40	0	458227712	57	4986
2026-01-02 22:25:07.42	82.11	23.89	-42.7	-45.4	17.6	0.00e+00	0	40	0	459276288	57	4803
2026-01-02 22:25:09.00	82.55	23.92	-42.5	-45.2	17.8	0.00e+00	0	40	0	462422016	57	4689
2026-01-02 22:25:09.60	82.72	23.93	-42.9	-45.6	17.6	0.00e+00	0	40	0	463470592	57	4885
2026-01-02 22:25:11.18	83.17	23.96	-43.3	-46.1	17.1	0.00e+00	0	40	0	466616320	57	5173
2026-01-02 22:25:11.99	83.40	23.97	-43.2	-46.0	17.2	0.00e+00	0	40	0	467664896	57	5131
2026-01-02 22:25:13.14	83.72	23.99	-43.1	-45.8	17.3	0.00e+00	0	40	0	469762048	57	5014
2026-01-02 22:25:14.00	83.97	24.00	-43.0	-45.6	17.5	0.00e+00	0	40	0	471859200	57	4916
2026-01-02 22:25:15.15	84.29	24.02	-43.0	-45.7	17.5	0.00e+00	0	40	0	473956352	57	4927
2026-01-02 22:25:16.01	84.54	24.03	-43.1	-45.8	17.3	0.00e+00	0	40	0	476053504	57	5030
2026-01-02 22:25:17.15	84.86	24.05	-43.4	-46.2	17.0	0.00e+00	0	40	0	478150656	57	5262
2026-01-02 22:25:18.01	85.10	24.06	-43.3	-46.1	17.1	0.00e+00	0	40	0	479199232	57	5181
2026-01-02 22:25:19.16	85.43	24.08	-43.2	-45.9	17.3	0.00e+00	0	40	0	481296384	57	5063
2026-01-02 22:25:20.02	85.68	24.09	-43.0	-45.6	17.5	0.00e+00	0	40	0	483393536	57	4916
2026-01-02 22:25:21.16	86.00	24.10	-42.4	-44.9	18.3	0.00e+00	0	40	0	485490688	56	4769
2026-01-02 22:25:22.07	86.26	24.11	-42.3	-44.7	18.4	0.00e+00	0	40	0	486539264	56	4702
2026-01-02 22:25:23.27	86.60	24.12	-42.4	-44.9	18.2	0.00e+00	0	40	0	489684992	56	4784
2026-01-02 22:25:24.16	86.86	24.13	-42.6	-45.2	17.9	0.00e+00	0	40	0	490733568	56	4968
2026-01-02 22:25:25.30	87.18	24.14	-42.9	-45.5	17.7	0.00e+00	0	40	0	492830720	56	5142
2026-01-02 22:25:26.23	87.45	24.14	-43.0	-45.7	17.5	0.00e+00	0	40	0	494927872	56	5219
2026-01-02 22:25:27.40	87.78	24.15	-43.0	-45.6	17.6	0.00e+00	0	40	0	497025024	56	5177
2026-01-02 22:25:28.26	88.03	24.15	-42.8	-45.3	17.8	0.00e+00	0	40	0	498073600	56	5034
2026-01-02 22:25:29.62	88.42	24.16	-42.7	-45.2	17.9	0.00e+00	0	40	0	501219328	56	4939
2026-01-02 22:25:30.33	88.62	24.16	-42.7	-45.2	17.9	0.00e+00	0	41	0	502267904	56	4947
2026-01-02 22:25:31.62	88.99	24.17	-42.4	-44.8	18.2	0.00e+00	0	40	0	504365056	56	4759
2026-01-02 22:25:32.34	89.20	24.17	-42.3	-44.8	18.3	0.00e+00	0	40	0	506462208	56	4718
2026-01-02 22:25:33.63	89.57	24.17	-42.3	-44.7	18.3	0.00e+00	0	40	0	508559360	56	4683
2026-01-02 22:25:34.34	89.77	24.17	-42.2	-44.7	18.4	0.00e+00	0	40	0	509607936	56	4676
2026-01-02 22:25:35.63	90.14	24.17	-42.3	-44.7	18.3	0.00e+00	0	40	0	512753664	56	4685
2026-01-02 22:25:36.44	90.37	24.17	-42.5	-44.9	18.2	0.00e+00	0	40	0	513802240	56	4802
2026-01-02 22:25:37.59	90.70	24.17	-42.6	-45.1	18.1	0.00e+00	0	40	0	515899392	56	4873
2026-01-02 22:25:38.70	91.02	24.17	-42.8	-45.4	17.8	0.00e+00	0	40	0	517996544	56	5045
2026-01-02 22:25:39.74	91.32	24.17	-42.8	-45.3	17.8	0.00e+00	0	40	0	520093696	56	5001
2026-01-02 22:25:40.73	91.60	24.16	-42.5	-45.0	18.1	0.00e+00	0	40	0	522190848	56	4830
2026-01-02 22:25:41.94	91.95	24.16	-42.1	-44.5	18.6	0.00e+00	0	40	0	524288000	56	4577
2026-01-02 22:25:42.84	92.20	24.15	-42.2	-44.6	18.5	0.00e+00	0	40	0	525336576	56	4630
2026-01-02 22:25:44.16	92.58	24.15	-42.2	-44.6	18.5	0.00e+00	0	40	0	528482304	56	4608
2026-01-02 22:25:44.87	92.78	24.14	-42.1	-44.5	18.5	0.00e+00	0	40	0	529530880	56	4592
2026-01-02 22:25:46.16	93.15	24.13	-42.2	-44.6	18.5	0.00e+00	0	40	0	531628032	56	4649
2026-01-02 22:25:46.88	93.36	24.13	-42.4	-44.8	18.3	0.00e+00	0	40	0	533725184	56	4742
2026-01-02 22:25:48.17	93.73	24.11	-42.4	-44.8	18.3	0.00e+00	0	40	0	535822336	56	4724
2026-01-02 22:25:48.89	93.93	24.11	-42.3	-44.7	18.4	0.00e+00	0	40	0	536870912	56	4692
2026-01-02 22:25:50.18	94.30	24.09	-42.5	-45.0	18.1	0.00e+00	0	41	0	540016640	56	4842
2026-01-02 22:25:50.90	94.51	24.09	-42.7	-45.1	18.0	0.00e+00	0	40	0	541065216	56	4925
2026-01-02 22:25:52.19	94.87	24.07	-42.7	-45.2	17.9	0.00e+00	0	40	0	543162368	56	4950
2026-01-02 22:25:52.90	95.07	24.06	-42.7	-45.2	17.8	0.00e+00	0	40	0	545259520	56	4968
2026-01-02 22:25:54.24	95.46	24.04	-42.6	-45.1	18.0	0.00e+00	0	40	0	547356672	56	4888
2026-01-02 22:25:54.96	95.66	24.03	-42.5	-45.0	18.1	0.00e+00	0	40	0	548405248	56	4855
2026-01-02 22:25:56.30	96.04	24.02	-42.4	-44.8	18.3	0.00e+00	0	40	0	551550976	56	4723
2026-01-02 22:25:57.28	96.32	24.00	-42.2	-44.6	18.5	0.00e+00	0	40	0	552599552	56	4629
2026-01-02 22:25:58.28	96.60	23.98	-42.0	-44.3	18.7	0.00e+00	0	40	0	554696704	56	4488
2026-01-02 22:25:59.29	96.89	23.97	-41.5	-43.8	19.1	0.00e+00	0	40	0	556793856	55	4463
2026-01-02 22:26:00.29	97.17	23.95	-41.6	-43.8	19.0	0.00e+00	0	40	0	558891008	55	4489
2026-01-02 22:26:01.30	97.46	23.93	-41.8	-44.1	18.8	0.00e+00	0	40	0	560988160	55	4608
2026-01-02 22:26:02.30	97.74	23.91	-41.8	-44.1	18.8	0.00e+00	0	40	0	562036736	55	4612
2026-01-02 22:26:03.30	98.02	23.89	-42.0	-44.4	18.5	0.00e+00	0	40	0	564133888	55	4791
2026-01-02 22:26:04.32	98.31	23.87	-41.8	-44.2	18.7	0.00e+00	0	40	0	566231040	55	4676
2026-01-02 22:26:05.38	98.61	23.85	-41.5	-43.8	19.0	0.00e+00	0	40	0	568328192	55	4485
2026-01-02 22:26:06.36	98.88	23.83	-41.4	-43.6	19.2	0.00e+00	0	40	0	570425344	54	4628
2026-01-02 22:26:07.36	99.16	23.80	-41.2	-43.5	19.4	0.00e+00	0	40	0	571473920	54	4555
2026-01-02 22:26:08.37	99.44	23.78	-41.3	-43.6	19.3	0.00e+00	0	40	0	573571072	54	4608
2026-01-02 22:26:09.37	99.72	23.76	-41.4	-43.7	19.2	0.00e+00	0	40	0	575668224	54	4670
2026-01-02 22:26:10.56	100.05	23.73	-41.6	-43.9	19.0	0.00e+00	0	40	0	577765376	54	4760
2026-01-02 22:26:11.42	100.29	23.71	-41.4	-43.7	19.2	0.00e+00	0	40	0	579862528	54	4656
2026-01-02 22:26:12.57	100.61	23.68	-41.2	-43.4	19.4	0.00e+00	0	40	0	581959680	54	4534
2026-01-02 22:26:13.43	100.85	23.65	-41.0	-43.2	19.5	0.00e+00	0	40	0	583008256	54	4428
2026-01-02 22:26:14.57	101.17	23.62	-40.9	-43.1	19.7	0.00e+00	0	40	0	585105408	53	4610
2026-01-02 22:26:15.43	101.41	23.60	-40.8	-42.9	19.8	0.00e+00	0	40	0	587202560	53	4522
2026-01-02 22:26:16.58	101.73	23.56	-41.1	-43.2	19.5	0.00e+00	0	40	0	589299712	53	4699
2026-01-02 22:26:17.44	101.96	23.54	-41.3	-43.5	19.3	0.00e+00	0	40	0	590348288	53	4830
2026-01-02 22:26:18.59	102.28	23.51	-41.5	-43.8	19.1	0.00e+00	0	40	0	593494016	53	5001
2026-01-02 22:26:19.45	102.52	23.48	-41.7	-44.0	18.8	0.00e+00	0	40	0	594542592	54	4845
2026-01-02 22:26:20.59	102.83	23.44	-41.9	-44.2	18.7	0.00e+00	0	40	0	596639744	54	4966
2026-01-02 22:26:21.45	103.06	23.42	-41.8	-44.2	18.7	0.00e+00	0	40	0	598736896	54	4950
2026-01-02 22:26:22.60	103.38	23.38	-41.7	-44.0	18.9	0.00e+00	0	40	0	600834048	54	4854
2026-01-02 22:26:23.46	103.61	23.35	-41.5	-43.8	19.1	0.00e+00	0	40	0	601882624	54	4738
2026-01-02 22:26:24.60	103.92	23.31	-41.3	-43.5	19.3	0.00e+00	0	40	0	603979776	54	4583
2026-01-02 22:26:25.47	104.16	23.28	-41.0	-43.2	19.6	0.00e+00	0	40	0	606076928	54	4430
2026-01-02 22:26:26.61	104.47	23.24	-40.9	-43.1	19.7	0.00e+00	0	40	0	608174080	53	4617
2026-01-02 22:26:27.47	104.70	23.21	-40.9	-43.1	19.7	0.00e+00	0	40	0	609222656	53	4601
2026-01-02 22:26:28.62	105.01	23.17	-40.8	-42.9	19.8	0.00e+00	0	40	0	611319808	53	4532
2026-01-02 22:26:29.47	105.24	23.14	-40.7	-42.8	19.9	0.00e+00	0	40	0	613416960	53	4488
2026-01-02 22:26:30.62	105.55	23.10	-40.5	-42.6	20.1	0.00e+00	0	40	0	615514112	53	4390
2026-01-02 22:26:31.48	105.78	23.06	-40.3	-42.4	20.2	0.00e+00	0	40	0	616562688	52	4533
2026-01-02 22:26:32.63	106.08	23.02	-40.1	-42.2	20.5	0.00e+00	0	40	0	619708416	52	4398
2026-01-02 22:26:33.82	106.40	22.97	-40.1	-42.1	20.5	0.00e+00	0	40	0	621805568	51	4636
2026-01-02 22:26:34.68	106.63	22.94	-40.2	-42.2	20.5	0.00e+00	0	40	0	622854144	51	4701
2026-01-02 22:26:35.83	106.93	22.89	-40.3	-42.3	20.4	0.00e+00	0	40	0	624951296	51	4758
2026-01-02 22:26:36.69	107.16	22.86	-40.6	-42.7	20.1	0.00e+00	0	40	0	627048448	51	4938
2026-01-02 22:26:37.84	107.47	22.81	-40.9	-43.0	19.7	0.00e+00	0	40	0	629145600	52	4866
2026-01-02 22:26:38.70	107.69	22.77	-40.9	-43.1	19.7	0.00e+00	0	40	0	630194176	52	4876
2026-01-02 22:26:39.84	107.99	22.72	-40.7	-42.8	19.8	0.00e+00	0	40	0	633339904	52	4753
2026-01-02 22:26:40.70	108.22	22.69	-40.4	-42.5	20.1	0.00e+00	0	40	0	634388480	52	4584
2026-01-02 22:26:41.85	108.52	22.64	-40.1	-42.1	20.5	0.00e+00	0	40	0	636485632	52	4373
2026-01-02 22:26:42.70	108.74	22.60	-39.9	-41.9	20.8	0.00e+00	0	40	0	638582784	51	4506
2026-01-02 22:26:43.85	109.04	22.55	-40.1	-42.1	20.5	0.00e+00	0	40	0	640679936	51	4647
2026-01-02 22:26:44.81	109.28	22.50	-40.3	-42.4	20.3	0.00e+00	0	40	0	641728512	51	4805
2026-01-02 22:26:45.98	109.59	22.45	-40.6	-42.7	19.9	0.00e+00	0	40	0	643825664	52	4705
2026-01-02 22:26:46.84	109.81	22.41	-40.8	-43.0	19.7	0.00e+00	0	40	0	645922816	52	4841
2026-01-02 22:26:47.99	110.10	22.36	-41.0	-43.2	19.5	0.00e+00	0	40	0	648019968	52	4966
2026-01-02 22:26:48.85	110.32	22.32	-41.0	-43.2	19.6	0.00e+00	0	40	0	650117120	52	4946
2026-01-02 22:26:49.99	110.61	22.26	-40.7	-42.9	19.8	0.00e+00	0	40	0	652214272	52	4780
2026-01-02 22:26:50.85	110.83	22.22	-40.7	-42.8	19.8	0.00e+00	0	40	0	653262848	52	4743
2026-01-02 22:26:52.00	111.12	22.16	-40.6	-42.8	19.9	0.00e+00	0	40	0	655360000	52	4731
2026-01-02 22:26:52.86	111.34	22.12	-40.7	-42.9	19.8	0.00e+00	0	40	0	657457152	52	4777
2026-01-02 22:26:54.01	111.63	22.06	-40.9	-43.1	19.6	0.00e+00	0	40	0	659554304	52	4898
2026-01-02 22:26:54.86	111.84	22.02	-41.0	-43.3	19.5	0.00e+00	0	40	0	660602880	52	4993
2026-01-02 22:26:56.01	112.13	21.96	-41.0	-43.3	19.4	0.00e+00	0	40	0	662700032	52	5002
2026-01-02 22:26:56.87	112.34	21.92	-41.0	-43.2	19.6	0.00e+00	0	40	0	664797184	52	4945
2026-01-02 22:26:58.02	112.63	21.86	-40.8	-43.0	19.7	0.00e+00	0	40	0	666894336	52	4841
2026-01-02 22:26:58.88	112.84	21.82	-40.8	-43.0	19.7	0.00e+00	0	40	0	667942912	52	4836
2026-01-02 22:27:00.02	113.12	21.76	-40.7	-42.9	19.8	0.00e+00	0	40	0	671088640	52	4792
2026-01-02 22:27:00.88	113.34	21.71	-40.8	-42.9	19.8	0.00e+00	0	40	0	672137216	52	4811
2026-01-02 22:27:02.03	113.62	21.65	-40.9	-43.1	19.6	0.00e+00	0	40	0	674234368	52	4889
2026-01-02 22:27:02.89	113.83	21.60	-41.1	-43.3	19.4	0.00e+00	0	40	0	676331520	52	5037
2026-01-02 22:27:04.03	114.11	21.54	-41.1	-43.3	19.4	0.00e+00	0	40	0	678428672	53	4752
2026-01-02 22:27:04.90	114.32	21.49	-41.4	-43.7	19.0	0.00e+00	0	40	0	679477248	53	4927
2026-01-02 22:27:06.04	114.59	21.43	-41.4	-43.7	19.0	0.00e+00	0	40	0	681574400	53	4962
2026-01-02 22:27:06.90	114.80	21.38	-41.9	-44.3	18.6	0.00e+00	0	40	0	683671552	54	4994
2026-01-02 22:27:08.04	115.08	21.32	-42.1	-44.5	18.4	0.00e+00	0	40	0	685768704	54	5127
2026-01-02 22:27:08.91	115.28	21.27	-42.2	-44.7	18.2	0.00e+00	0	40	0	686817280	55	4968
2026-01-02 22:27:10.05	115.56	21.21	-42.1	-44.5	18.3	0.00e+00	0	40	0	689963008	55	4842
2026-01-02 22:27:10.91	115.76	21.16	-41.9	-44.3	18.5	0.00e+00	0	40	0	691011584	55	4712
2026-01-02 22:27:12.05	116.03	21.09	-41.4	-43.7	19.0	0.00e+00	0	40	0	693108736	54	4677
2026-01-02 22:27:12.91	116.23	21.04	-41.2	-43.4	19.3	0.00e+00	0	40	0	695205888	54	4543
2026-01-02 22:27:14.06	116.50	20.98	-41.1	-43.3	19.4	0.00e+00	0	40	0	697303040	54	4469
2026-01-02 22:27:14.92	116.71	20.93	-41.1	-43.3	19.4	0.00e+00	0	40	0	698351616	54	4462
2026-01-02 22:27:16.07	116.97	20.86	-41.2	-43.4	19.3	0.00e+00	0	40	0	700448768	54	4537
2026-01-02 22:27:17.04	117.20	20.80	-41.4	-43.7	19.0	0.00e+00	0	40	0	702545920	54	4692
2026-01-02 22:27:18.04	117.43	20.74	-41.8	-44.2	18.6	0.00e+00	0	40	0	704643072	54	4939
2026-01-02 22:27:19.04	117.66	20.69	-42.0	-44.4	18.4	0.00e+00	0	40	0	706740224	54	5072
2026-01-02 22:27:20.04	117.89	20.63	-42.4	-44.9	18.0	0.00e+00	0	40	0	707788800	55	5043
2026-01-02 22:27:21.05	118.12	20.56	-42.6	-45.2	17.6	0.00e+00	0	40	0	709885952	55	5240
2026-01-02 22:27:22.05	118.35	20.50	-42.9	-45.5	17.5	0.00e+00	0	40	0	711983104	56	5117
2026-01-02 22:27:23.05	118.58	20.44	-42.8	-45.4	17.6	0.00e+00	0	40	0	714080256	56	5051
2026-01-02 22:27:24.06	118.81	20.38	-42.4	-44.8	18.1	0.00e+00	0	40	0	716177408	56	4756
2026-01-02 22:27:25.05	119.03	20.32	-42.1	-44.5	18.5	0.00e+00	0	40	0	717225984	56	4558
2026-01-02 22:27:26.06	119.26	20.26	-41.6	-43.9	18.8	0.00e+00	0	40	0	719323136	55	4530
2026-01-02 22:27:27.06	119.48	20.20	-41.3	-43.5	19.2	0.00e+00	0	40	0	721420288	54	4592
2026-01-02 22:27:28.19	119.73	20.13	-41.4	-43.7	19.1	0.00e+00	0	40	0	723517440	54	4666
2026-01-02 22:27:29.05	119.93	20.07	-41.4	-43.6	19.1	0.00e+00	0	40	0	724566016	54	4627
2026-01-02 22:27:30.20	120.18	20.00	-41.7	-44.0	18.8	0.00e+00	0	40	0	727711744	54	4832
2026-01-02 22:27:31.17	120.39	19.94	-41.9	-44.3	18.5	0.00e+00	0	40	0	728760320	54	5010
2026-01-02 22:27:32.36	120.65	19.86	-42.4	-44.9	17.9	0.00e+00	0	40	0	730857472	55	5069
2026-01-02 22:27:33.25	120.85	19.81	-42.5	-45.0	17.8	0.00e+00	0	40	0	732954624	55	5121
2026-01-02 22:27:34.40	121.10	19.73	-42.7	-45.3	17.6	0.00e+00	0	40	0	735051776	55	5284
2026-01-02 22:27:35.32	121.30	19.68	-42.8	-45.4	17.6	0.00e+00	0	40	0	737148928	56	5093
2026-01-02 22:27:36.50	121.55	19.60	-42.8	-45.3	17.7	0.00e+00	0	40	0	739246080	56	5031
2026-01-02 22:27:37.36	121.74	19.54	-42.9	-45.5	17.5	0.00e+00	0	40	0	740294656	56	5134
2026-01-02 22:27:38.51	121.98	19.47	-42.9	-45.5	17.4	0.00e+00	0	40	0	742391808	56	5151
2026-01-02 22:27:39.37	122.17	19.41	-42.9	-45.6	17.4	0.00e+00	0	40	0	744488960	56	5183
2026-01-02 22:27:40.51	122.41	19.34	-43.1	-45.8	17.3	0.00e+00	0	40	0	746586112	56	5283
2026-01-02 22:27:41.37	122.59	19.28	-42.9	-45.5	17.5	0.00e+00	0	40	0	747634688	56	5131
2026-01-02 22:27:42.52	122.83	19.21	-43.0	-45.6	17.4	0.00e+00	0	40	0	750780416	56	5188
2026-01-02 22:27:43.38	123.01	19.15	-42.7	-45.3	17.7	0.00e+00	0	40	0	751828992	56	4997
2026-01-02 22:27:44.52	123.25	19.08	-42.6	-45.1	17.8	0.00e+00	0	40	0	753926144	56	4917
2026-01-02 22:27:45.39	123.43	19.02	-42.7	-45.2	17.8	0.00e+00	0	40	0	756023296	56	4967
2026-01-02 22:27:46.53	123.66	18.94	-42.7	-45.3	17.7	0.00e+00	0	40	0	758120448	56	5004
2026-01-02 22:27:47.39	123.84	18.89	-43.0	-45.7	17.4	0.00e+00	0	40	0	759169024	56	5230
2026-01-02 22:27:48.54	124.08	18.81	-43.0	-45.6	17.4	0.00e+00	0	40	0	761266176	56	5199
2026-01-02 22:27:49.39	124.25	18.75	-42.8	-45.4	17.5	0.00e+00	0	40	0	763363328	56	5066
2026-01-02 22:27:50.54	124.48	18.67	-42.5	-45.0	17.9	0.00e+00	0	40	0	765460480	56	4859
2026-01-02 22:27:51.40	124.66	18.62	-42.2	-44.6	18.2	0.00e+00	0	40	0	766509056	56	4634
2026-01-02 22:27:52.55	124.89	18.54	-41.8	-44.1	18.6	0.00e+00	0	40	0	768606208	55	4650
2026-01-02 22:27:53.41	125.06	18.48	-41.6	-43.9	18.8	0.00e+00	0	40	0	770703360	55	4508
2026-01-02 22:27:54.56	125.29	18.40	-41.5	-43.9	18.8	0.00e+00	0	40	0	772800512	54	4780
2026-01-02 22:27:55.42	125.46	18.34	-41.8	-44.1	18.6	0.00e+00	0	40	0	774897664	54	4920
2026-01-02 22:27:56.56	125.69	18.27	-42.0	-44.4	18.3	0.00e+00	0	40	0	776994816	54	5084
2026-01-02 22:27:57.42	125.86	18.21	-42.4	-45.0	17.8	0.00e+00	0	40	0	778043392	55	5124
2026-01-02 22:27:58.57	126.08	18.13	-42.8	-45.4	17.6	0.00e+00	0	40	0	780140544	56	5057
2026-01-02 22:27:59.43	126.25	18.07	-42.8	-45.4	17.6	0.00e+00	0	40	0	782237696	56	5059
2026-01-02 22:28:00.57	126.47	17.99	-42.9	-45.5	17.5	0.00e+00	0	40	0	784334848	56	5120
2026-01-02 22:28:01.43	126.64	17.93	-42.5	-45.0	17.9	0.00e+00	0	40	0	785383424	56	4861
2026-01-02 22:28:02.58	126.86	17.85	-42.6	-45.1	17.9	0.00e+00	0	40	0	787480576	56	4890
2026-01-02 22:28:03.44	127.03	17.80	-42.5	-45.0	17.9	0.00e+00	0	40	0	789577728	56	4853
2026-01-02 22:28:04.59	127.25	17.72	-42.6	-45.1	17.8	0.00e+00	0	40	0	791674880	56	4900
2026-01-02 22:28:05.45	127.41	17.66	-43.0	-45.6	17.3	0.00e+00	0	40	0	793772032	56	5217
2026-01-02 22:28:06.59	127.63	17.58	-43.3	-46.1	16.9	0.00e+00	0	40	0	795869184	57	5175
2026-01-02 22:28:07.45	127.79	17.52	-43.5	-46.4	16.6	0.00e+00	0	40	0	796917760	57	5379
2026-01-02 22:28:08.60	128.01	17.44	-43.4	-46.2	16.7	0.00e+00	0	40	0	799014912	57	5272
2026-01-02 22:28:09.46	128.17	17.38	-43.2	-46.0	17.0	0.00e+00	0	40	0	801112064	57	5103
2026-01-02 22:28:10.61	128.38	17.30	-42.6	-45.1	17.8	0.00e+00	0	40	0	803209216	57	4643
2026-01-02 22:28:11.62	128.57	17.23	-42.3	-44.7	18.2	0.00e+00	0	40	0	805306368	56	4676
2026-01-02 22:28:12.80	128.78	17.14	-42.1	-44.5	18.4	0.00e+00	0	40	0	807403520	56	4548
2026-01-02 22:28:13.66	128.94	17.08	-41.9	-44.2	18.5	0.00e+00	0	40	0	808452096	55	4692
2026-01-02 22:28:15.00	129.19	16.99	-42.2	-44.6	18.1	0.00e+00	0	40	0	811597824	55	4918
2026-01-02 22:28:15.71	129.32	16.94	-42.1	-44.6	18.1	0.00e+00	0	40	0	812646400	55	4899
2026-01-02 22:28:17.18	129.58	16.84	-42.3	-44.8	17.9	0.00e+00	0	40	0	814743552	55	5015
2026-01-02 22:28:17.90	129.71	16.79	-42.4	-44.9	17.8	0.00e+00	0	40	0	816840704	55	5063
2026-01-02 22:28:19.26	129.95	16.69	-42.2	-44.7	18.0	0.00e+00	0	40	0	818937856	55	4933
2026-01-02 22:28:19.98	130.08	16.64	-42.1	-44.5	18.1	0.00e+00	0	40	0	819986432	55	4855
2026-01-02 22:28:21.27	130.31	16.55	-41.8	-44.2	18.5	0.00e+00	0	40	0	823132160	55	4673
2026-01-02 22:28:21.99	130.44	16.50	-41.7	-44.0	18.6	0.00e+00	0	40	0	824180736	55	4598
2026-01-02 22:28:23.28	130.67	16.41	-42.0	-44.5	18.2	0.00e+00	0	40	0	826277888	55	4817
2026-01-02 22:28:23.99	130.79	16.36	-42.1	-44.5	18.1	0.00e+00	0	40	0	828375040	55	4868
2026-01-02 22:28:25.28	131.01	16.27	-42.5	-45.1	17.6	0.00e+00	0	40	0	830472192	55	5178
2026-01-02 22:28:26.00	131.14	16.22	-42.7	-45.3	17.4	0.00e+00	0	40	0	831520768	55	5305
2026-01-02 22:28:27.29	131.36	16.12	-43.1	-45.8	17.1	0.00e+00	0	40	0	834666496	56	5287
2026-01-02 22:28:28.00	131.48	16.07	-43.2	-45.9	16.9	0.00e+00	0	40	0	835715072	57	5094
2026-01-02 22:28:29.29	131.70	15.98	-42.8	-45.4	17.4	0.00e+00	0	40	0	837812224	57	4812
2026-01-02 22:28:30.01	131.83	15.93	-42.6	-45.2	17.7	0.00e+00	0	40	0	838860800	57	4660
2026-01-02 22:28:31.30	132.05	15.84	-42.5	-45.0	17.8	0.00e+00	0	40	0	842006528	56	4866
2026-01-02 22:28:32.01	132.16	15.79	-42.3	-44.8	18.0	0.00e+00	0	40	0	843055104	56	4727
2026-01-02 22:28:33.30	132.38	15.70	-42.2	-44.6	18.2	0.00e+00	0	40	0	845152256	56	4623
2026-01-02 22:28:34.02	132.50	15.65	-42.2	-44.6	18.2	0.00e+00	0	40	0	847249408	56	4644
2026-01-02 22:28:35.31	132.72	15.56	-42.3	-44.8	18.0	0.00e+00	0	40	0	849346560	56	4719
2026-01-02 22:28:36.03	132.84	15.50	-42.4	-44.9	17.9	0.00e+00	0	40	0	850395136	56	4771
2026-01-02 22:28:37.31	133.05	15.41	-42.5	-45.1	17.8	0.00e+00	0	40	0	853540864	56	4876
2026-01-02 22:28:38.03	133.16	15.36	-42.5	-45.1	17.8	0.00e+00	0	40	0	854589440	56	4878
2026-01-02 22:28:39.32	133.37	15.27	-42.3	-44.7	18.1	0.00e+00	0	40	0	856686592	56	4696
2026-01-02 22:28:40.08	133.50	15.22	-42.2	-44.6	18.2	0.00e+00	0	40	0	857735168	56	4617
2026-01-02 22:28:41.69	133.76	15.10	-42.1	-44.5	18.3	0.00e+00	0	40	0	860880896	56	4569
2026-01-02 22:28:42.55	133.90	15.04	-42.1	-44.5	18.3	0.00e+00	0	40	0	862978048	56	4588
2026-01-02 22:28:43.69	134.08	14.96	-42.3	-44.8	18.0	0.00e+00	0	40	0	865075200	56	4748
2026-01-02 22:28:44.55	134.22	14.90	-42.5	-45.0	17.8	0.00e+00	0	40	0	866123776	56	4850
2026-01-02 22:28:45.70	134.40	14.82	-42.9	-45.6	17.2	0.00e+00	0	40	0	869269504	56	5194
2026-01-02 22:28:46.56	134.53	14.76	-43.4	-46.2	16.7	0.00e+00	0	40	0	870318080	57	5238
2026-01-02 22:28:47.71	134.71	14.68	-43.7	-46.7	16.2	0.00e+00	0	40	0	872415232	58	5220
2026-01-02 22:28:48.57	134.85	14.61	-43.8	-46.8	16.1	0.00e+00	0	40	0	874512384	58	5314
2026-01-02 22:28:49.72	135.03	14.53	-43.9	-46.9	15.9	0.00e+00	0	40	0	876609536	58	5395
2026-01-02 22:28:50.57	135.16	14.47	-43.9	-47.0	15.9	0.00e+00	0	40	0	877658112	58	5425
2026-01-02 22:28:51.72	135.34	14.39	-43.6	-46.6	16.3	0.00e+00	0	40	0	879755264	58	5175
2026-01-02 22:28:52.58	135.47	14.33	-43.5	-46.3	16.5	0.00e+00	0	40	0	881852416	58	5039
2026-01-02 22:28:53.72	135.64	14.25	-43.4	-46.3	16.6	0.00e+00	0	40	0	883949568	58	5005
2026-01-02 22:28:54.59	135.77	14.19	-43.2	-46.1	16.8	0.00e+00	0	40	0	884998144	58	4873
2026-01-02 22:28:55.73	135.95	14.11	-42.8	-45.5	17.4	0.00e+00	0	40	0	887095296	57	4832
2026-01-02 22:28:56.59	136.08	14.05	-42.6	-45.3	17.6	0.00e+00	0	40	0	889192448	57	4713
2026-01-02 22:28:57.73	136.25	13.96	-42.6	-45.2	17.6	0.00e+00	0	40	0	891289600	57	4677
2026-01-02 22:28:58.59	136.37	13.90	-42.6	-45.2	17.6	0.00e+00	0	40	0	893386752	57	4681
2026-01-02 22:28:59.74	136.55	13.82	-42.5	-45.0	17.8	0.00e+00	0	40	0	895483904	56	4840
2026-01-02 22:29:00.60	136.67	13.76	-42.3	-44.8	17.9	0.00e+00	0	40	0	896532480	56	4720
2026-01-02 22:29:01.79	136.85	13.68	-42.2	-44.7	18.1	0.00e+00	0	40	0	898629632	56	4656
2026-01-02 22:29:02.65	136.97	13.62	-42.0	-44.4	18.3	0.00e+00	0	40	0	900726784	56	4513
2026-01-02 22:29:03.87	137.15	13.53	-41.6	-44.0	18.5	0.00e+00	0	40	0	902823936	55	4566
2026-01-02 22:29:04.73	137.28	13.47	-41.6	-44.0	18.6	0.00e+00	0	40	0	904921088	55	4553
2026-01-02 22:29:05.88	137.44	13.39	-41.8	-44.2	18.4	0.00e+00	0	40	0	907018240	55	4663
2026-01-02 22:29:06.74	137.57	13.33	-41.9	-44.3	18.3	0.00e+00	0	40	0	908066816	55	4738
2026-01-02 22:29:07.88	137.73	13.25	-42.1	-44.6	18.0	0.00e+00	0	40	0	910163968	55	4903
2026-01-02 22:29:08.74	137.85	13.19	-42.3	-44.9	17.7	0.00e+00	0	40	0	912261120	55	5065
2026-01-02 22:29:09.89	138.01	13.11	-42.5	-45.1	17.5	0.00e+00	0	40	0	914358272	55	5184
2026-01-02 22:29:10.75	138.13	13.04	-42.6	-45.3	17.3	0.00e+00	0	40	0	915406848	55	5315
2026-01-02 22:29:11.90	138.30	12.96	-43.1	-45.9	16.9	0.00e+00	0	40	0	917504000	56	5371
2026-01-02 22:29:12.76	138.42	12.90	-43.2	-46.0	16.8	0.00e+00	0	40	0	919601152	56	5434
2026-01-02 22:29:13.90	138.57	12.82	-43.3	-46.1	16.7	0.00e+00	0	40	0	921698304	57	5201
2026-01-02 22:29:14.76	138.69	12.76	-43.2	-46.0	16.7	0.00e+00	0	40	0	922746880	57	5153
2026-01-02 22:29:15.91	138.85	12.68	-43.1	-45.8	16.9	0.00e+00	0	40	0	925892608	57	5032
2026-01-02 22:29:16.77	138.97	12.62	-43.0	-45.8	16.9	0.00e+00	0	40	0	926941184	57	5021
2026-01-02 22:29:17.92	139.13	12.54	-42.8	-45.6	17.2	0.00e+00	0	40	0	929038336	57	4876
2026-01-02 22:29:18.78	139.24	12.48	-42.9	-45.6	17.2	0.00e+00	0	40	0	931135488	57	4898
2026-01-02 22:29:19.92	139.40	12.40	-42.7	-45.4	17.3	0.00e+00	0	40	0	933232640	57	4798
2026-01-02 22:29:20.78	139.51	12.34	-42.6	-45.2	17.5	0.00e+00	0	40	0	934281216	57	4695
2026-01-02 22:29:22.10	139.69	12.25	-42.8	-45.5	17.2	0.00e+00	0	40	0	937426944	57	4817
2026-01-02 22:29:22.82	139.79	12.20	-42.7	-45.4	17.3	0.00e+00	0	40	0	938475520	57	4807
2026-01-02 22:29:24.30	139.98	12.10	-42.9	-45.7	17.0	0.00e+00	0	40	0	941621248	57	4947
2026-01-02 22:29:25.02	140.08	12.05	-42.8	-45.6	17.1	0.00e+00	0	40	0	942669824	57	4895
2026-01-02 22:29:26.31	140.25	11.96	-42.8	-45.5	17.2	0.00e+00	0	40	0	944766976	57	4839
2026-01-02 22:29:27.02	140.34	11.91	-42.8	-45.6	17.1	0.00e+00	0	40	0	945815552	57	4888
2026-01-02 22:29:28.31	140.51	11.82	-42.6	-45.3	17.4	0.00e+00	0	40	0	948961280	57	4747
2026-01-02 22:29:29.03	140.60	11.77	-42.7	-45.4	17.3	0.00e+00	0	40	0	950009856	57	4786
2026-01-02 22:29:30.32	140.77	11.68	-42.7	-45.4	17.3	0.00e+00	0	40	0	952107008	57	4764
2026-01-02 22:29:31.03	140.86	11.63	-42.6	-45.2	17.4	0.00e+00	0	40	0	954204160	57	4696
2026-01-02 22:29:32.32	141.02	11.54	-42.7	-45.4	17.3	0.00e+00	0	40	0	956301312	57	4775
2026-01-02 22:29:33.09	141.12	11.49	-42.8	-45.5	17.2	0.00e+00	0	40	0	957349888	57	4821
2026-01-02 22:29:34.38	141.28	11.40	-42.6	-45.3	17.3	0.00e+00	0	40	0	960495616	57	4735
2026-01-02 22:29:35.09	141.37	11.35	-42.7	-45.4	17.2	0.00e+00	0	40	0	961544192	57	4807
2026-01-02 22:29:36.38	141.54	11.26	-42.8	-45.5	17.1	0.00e+00	0	40	0	963641344	57	4853
2026-01-02 22:29:37.10	141.63	11.21	-43.0	-45.8	16.9	0.00e+00	0	40	0	964689920	57	4986
2026-01-02 22:29:38.39	141.79	11.12	-43.2	-46.1	16.6	0.00e+00	0	40	0	967835648	57	5165
2026-01-02 22:29:39.10	141.87	11.07	-43.3	-46.2	16.5	0.00e+00	0	40	0	968884224	57	5236
2026-01-02 22:29:40.39	142.03	10.99	-43.5	-46.6	16.1	0.00e+00	0	40	0	970981376	57	5486
2026-01-02 22:29:41.11	142.12	10.94	-43.6	-46.7	16.0	0.00e+00	0	40	0	973078528	58	5237
2026-01-02 22:29:42.40	142.28	10.85	-43.8	-46.9	15.8	0.00e+00	0	40	0	975175680	58	5378
2026-01-02 22:29:43.12	142.37	10.80	-44.0	-47.2	15.5	0.00e+00	0	40	0	976224256	58	5586
2026-01-02 22:29:44.58	142.54	10.70	-44.2	-47.5	15.2	0.00e+00	0	40	0	979369984	59	5406
2026-01-02 22:29:45.30	142.63	10.65	-44.3	-47.6	15.1	0.00e+00	0	40	0	980418560	59	5494
2026-01-02 22:29:46.65	142.79	10.56	-44.3	-47.7	15.0	0.00e+00	0	40	0	983564288	59	5551
2026-01-02 22:29:47.36	142.88	10.51	-44.3	-47.6	15.1	0.00e+00	0	40	0	984612864	59	5485
2026-01-02 22:29:48.65	143.03	10.42	-44.1	-47.4	15.3	0.00e+00	0	40	0	986710016	59	5363
2026-01-02 22:29:49.37	143.11	10.37	-44.0	-47.3	15.4	0.00e+00	0	40	0	987758592	59	5289
2026-01-02 22:29:50.79	143.28	10.28	-43.9	-47.1	15.6	0.00e+00	0	40	0	990904320	59	5175
2026-01-02 22:29:51.50	143.36	10.23	-43.8	-47.0	15.6	0.00e+00	0	40	0	991952896	59	5121
2026-01-02 22:29:52.79	143.51	10.14	-43.7	-46.8	15.9	0.00e+00	0	40	0	995098624	59	4991
2026-01-02 22:29:53.51	143.60	10.09	-43.6	-46.7	16.0	0.00e+00	0	40	0	996147200	59	4928
2026-01-02 22:29:54.80	143.75	10.01	-43.4	-46.4	16.2	0.00e+00	0	40	0	998244352	58	5084
2026-01-02 22:29:55.52	143.83	9.96	-43.3	-46.2	16.4	0.00e+00	0	40	0	999292928	58	4976
2026-01-02 22:29:56.81	143.98	9.87	-43.3	-46.3	16.3	0.00e+00	0	40	0	1002438656	58	5035
2026-01-02 22:29:57.53	144.06	9.82	-43.3	-46.2	16.3	0.00e+00	0	40	0	1003487232	58	4975
2026-01-02 22:29:58.81	144.21	9.74	-43.2	-46.2	16.4	0.00e+00	0	40	0	1005584384	58	4943
2026-01-02 22:29:59.53	144.29	9.69	-43.3	-46.2	16.3	0.00e+00	0	40	0	1006632960	58	4958
2026-01-02 22:30:00.82	144.43	9.60	-43.1	-46.0	16.5	0.00e+00	0	40	0	1009778688	58	4853
2026-01-02 22:30:01.63	144.52	9.55	-43.3	-46.2	16.3	0.00e+00	0	40	0	1010827264	58	4969
2026-01-02 22:30:02.77	144.65	9.47	-43.0	-45.9	16.5	0.00e+00	0	40	0	1012924416	58	4806
2026-01-02 22:30:03.64	144.75	9.42	-43.0	-45.9	16.6	0.00e+00	0	40	0	1015021568	57	5083
2026-01-02 22:30:04.78	144.87	9.34	-43.0	-45.9	16.6	0.00e+00	0	40	0	1017118720	57	5097
2026-01-02 22:30:05.64	144.97	9.28	-42.9	-45.8	16.7	0.00e+00	0	40	0	1018167296	57	4996
2026-01-02 22:30:06.78	145.09	9.21	-43.0	-45.9	16.5	0.00e+00	0	40	0	1020264448	57	5095
2026-01-02 22:30:07.64	145.18	9.15	-43.0	-45.9	16.6	0.00e+00	0	40	0	1022361600	57	5073
2026-01-02 22:30:08.79	145.31	9.07	-43.1	-46.0	16.4	0.00e+00	0	40	0	1024458752	57	5144
2026-01-02 22:30:09.65	145.40	9.02	-45.5	-50.2	12.8	0.00e+00	0	40	0	1026555904	61	6572
2026-01-02 22:30:10.80	145.53	8.94	-48.8	-63.9	3.8	1.49e+00	0	40	104	1026555904	68	21332
2026-01-02 22:30:11.66	145.62	8.88	-48.7	-64.1	3.8	1.49e+00	0	40	104	1026555904	68	22000
2026-01-02 22:30:12.80	145.74	8.81	-49.0	-64.3	3.8	1.49e+00	0	40	104	1026555904	68	22322
2026-01-02 22:30:13.66	145.83	8.75	-49.1	-64.3	3.8	1.49e+00	0	40	104	1026555904	68	22488
2026-01-02 22:30:14.81	145.95	8.68	-49.1	-64.4	3.8	1.49e+00	0	40	104	1026555904	69	21323
2026-01-02 22:30:15.67	146.04	8.62	-49.1	-64.4	3.8	1.49e+00	0	40	104	1026555904	69	21420
2026-01-02 22:30:16.82	146.16	8.55	-48.9	-64.4	3.8	1.49e+00	0	40	104	1026555904	69	21475
2026-01-02 22:30:17.68	146.25	8.49	-49.1	-64.5	3.8	1.49e+00	0	40	104	1026555904	69	21531
2026-01-02 22:30:18.83	146.37	8.41	-49.3	-64.5	3.8	1.49e+00	0	40	104	1026555904	69	21554
2026-01-02 22:30:19.69	146.46	8.36	-49.3	-64.5	3.8	1.49e+00	0	40	104	1026555904	69	21580
2026-01-02 22:30:20.84	146.58	8.28	-49.3	-64.5	3.8	1.49e+00	0	40	104	1026555904	69	21619
2026-01-02 22:30:21.70	146.67	8.23	-49.1	-64.5	3.8	1.49e+00	0	40	104	1026555904	69	21652
2026-01-02 22:30:22.84	146.78	8.15	-49.2	-64.5	3.8	1.49e+00	0	40	104	1026555904	69	21753
2026-01-02 22:30:23.71	146.87	8.10	-49.3	-64.5	3.8	1.49e+00	0	40	104	1026555904	69	21698
2026-01-02 22:30:24.85	146.99	8.02	-49.3	-64.6	3.8	1.49e+00	0	40	104	1026555904	69	21756
2026-01-02 22:30:25.71	147.08	7.97	-49.1	-64.5	3.8	1.49e+00	0	40	104	1026555904	69	21700
2026-01-02 22:30:26.86	147.19	7.89	-49.4	-64.5	3.8	1.49e+00	0	40	104	1026555904	69	21744
2026-01-02 22:30:27.72	147.28	7.84	-49.3	-64.5	3.8	1.49e+00	0	40	104	1026555904	69	21735
2026-01-02 22:30:28.87	147.39	7.76	-49.2	-64.5	3.8	1.49e+00	0	40	104	1026555904	69	21706
2026-01-02 22:30:29.73	147.48	7.71	-49.0	-64.5	3.8	1.49e+00	0	40	104	1026555904	69	21615
2026-01-02 22:30:30.88	147.59	7.63	-49.1	-64.5	3.8	1.49e+00	0	40	104	1026555904	69	21592
2026-01-02 22:30:31.74	147.67	7.58	-49.1	-64.5	3.8	1.49e+00	0	40	104	1026555904	69	21602
2026-01-02 22:30:32.89	147.79	7.51	-49.1	-64.5	3.8	1.49e+00	0	40	104	1026555904	69	21543
2026-01-02 22:30:33.75	147.87	7.45	-49.0	-64.5	3.8	1.49e+00	0	40	104	1026555904	69	21515
2026-01-02 22:30:34.89	147.98	7.38	-49.1	-64.5	3.8	1.49e+00	0	40	104	1026555904	69	21528
2026-01-02 22:30:35.76	148.07	7.32	-49.0	-64.5	3.8	1.49e+00	0	40	104	1026555904	69	21546
2026-01-02 22:30:36.90	148.17	7.25	-49.0	-64.4	3.8	1.49e+00	0	40	104	1026555904	69	21455
2026-01-02 22:30:37.76	148.26	7.20	-49.0	-64.4	3.8	1.49e+00	0	40	104	1026555904	69	21478
2026-01-02 22:30:38.91	148.37	7.12	-49.0	-64.4	3.8	1.49e+00	0	40	104	1026555904	69	21465
2026-01-02 22:30:39.77	148.45	7.07	-49.0	-64.4	3.8	1.49e+00	0	40	104	1026555904	69	21413
2026-01-02 22:30:40.92	148.56	6.99	-49.0	-64.4	3.8	1.49e+00	0	40	104	1026555904	69	21398
2026-01-02 22:30:41.78	148.64	6.94	-49.0	-64.4	3.8	1.49e+00	0	40	104	1026555904	69	21411
2026-01-02 22:30:42.93	148.75	6.87	-49.0	-64.4	3.8	1.49e+00	0	40	104	1026555904	69	21423
2026-01-02 22:30:43.79	148.83	6.81	-49.0	-64.4	3.8	1.49e+00	0	40	104	1026555904	69	21503
2026-01-02 22:30:44.93	148.93	6.74	-49.0	-64.4	3.8	1.49e+00	0	40	104	1026555904	69	21403
2026-01-02 22:30:45.79	149.01	6.69	-49.0	-64.4	3.8	1.49e+00	0	40	104	1026555904	69	21370
2026-01-02 22:30:46.94	149.12	6.62	-49.0	-64.4	3.8	1.49e+00	0	40	104	1026555904	69	21383
2026-01-02 22:30:47.80	149.20	6.56	-49.0	-64.4	3.8	1.49e+00	0	40	104	1026555904	69	21400
2026-01-02 22:30:48.95	149.30	6.49	-49.0	-64.4	3.8	1.49e+00	0	40	104	1026555904	69	21359
2026-01-02 22:30:49.81	149.38	6.44	-49.0	-64.4	3.8	1.49e+00	0	40	104	1026555904	69	21331
2026-01-02 22:30:50.96	149.49	6.36	-49.0	-64.4	3.8	1.49e+00	0	40	104	1026555904	69	21372
2026-01-02 22:30:51.82	149.56	6.31	-49.0	-64.4	3.8	1.49e+00	0	40	104	1026555904	69	21390
2026-01-02 22:30:52.97	149.67	6.24	-49.0	-64.4	3.8	1.49e+00	0	40	104	1026555904	69	21363
2026-01-02 22:30:53.83	149.74	6.19	-49.0	-64.4	3.8	1.49e+00	0	40	104	1026555904	69	21424
2026-01-02 22:30:54.98	149.85	6.12	-49.0	-64.4	3.8	1.49e+00	0	40	104	1026555904	69	21402
2026-01-02 22:30:55.83	149.92	6.06	-49.0	-64.4	3.8	1.49e+00	0	40	104	1026555904	69	21440
2026-01-02 22:30:56.98	150.02	5.99	-49.0	-64.4	3.8	1.49e+00	0	40	104	1026555904	69	21356
2026-01-02 22:30:57.84	150.10	5.94	-49.0	-64.4	3.8	1.49e+00	0	40	104	1026555904	69	21330
2026-01-02 22:30:58.99	150.20	5.87	-49.0	-64.4	3.8	1.49e+00	0	40	104	1026555904	69	21316
2026-01-02 22:30:59.85	150.28	5.81	-49.0	-64.4	3.8	1.49e+00	0	40	104	1026555904	69	21384
2026-01-02 22:31:01.00	150.38	5.74	-49.0	-64.4	3.8	1.49e+00	0	40	104	1026555904	69	21337
2026-01-02 22:31:01.86	150.45	5.69	-49.0	-64.4	3.8	1.49e+00	0	40	104	1026555904	69	21398
2026-01-02 22:31:03.01	150.55	5.62	-49.0	-64.4	3.8	1.49e+00	0	40	104	1026555904	69	21395
2026-01-02 22:31:03.87	150.62	5.57	-49.0	-64.4	3.8	1.49e+00	0	40	104	1026555904	69	21366
2026-01-02 22:31:05.02	150.72	5.50	-49.0	-64.4	3.8	1.49e+00	0	40	104	1026555904	69	21396
2026-01-02 22:31:05.88	150.79	5.45	-49.0	-64.4	3.8	1.49e+00	0	40	104	1026555904	69	21398
2026-01-02 22:31:07.03	150.89	5.38	-49.0	-64.4	3.8	1.49e+00	0	40	104	1026555904	69	21451
2026-01-02 22:31:07.89	150.97	5.32	-49.0	-64.4	3.8	1.49e+00	0	40	104	1026555904	69	21436
2026-01-02 22:31:09.03	151.06	5.25	-49.0	-64.4	3.8	1.49e+00	0	40	104	1026555904	69	21326
2026-01-02 22:31:09.89	151.13	5.20	-49.0	-64.4	3.8	1.49e+00	0	40	104	1026555904	69	21273
2026-01-02 22:31:11.04	151.23	5.13	-49.0	-64.4	3.8	1.49e+00	0	40	104	1026555904	69	21356
2026-01-02 22:31:11.90	151.30	5.08	-49.0	-64.4	3.8	1.49e+00	0	40	104	1026555904	69	21287
2026-01-02 22:31:13.05	151.40	5.01	-49.0	-64.4	3.8	1.49e+00	0	40	104	1026555904	69	21375
2026-01-02 22:31:13.91	151.47	4.96	-49.0	-64.4	3.8	1.49e+00	0	40	104	1026555904	69	21389

#Closed at: 2026-01-02 22:31:15
#Recorded file [1026 MB]: D:/Data/31040_260103_011955.dat