passes_logs/2026/01/02/T1/T1__20260102_030724_FENGYUN_3E_rec.log

#Pass ID: 20260102_030724_FENGYUN 3E
#Satellite: FENGYUN 3E
#Configuration: FENGYUN 3E
#almurnet v.1.7.20251203
#Start time: 2026-01-02 03:07:23

#Version: 2.0.20230620
#Station: T1
#Location: 37.570604 lon 55.790049 lat
#TLE: 1 49008U 21062A   26001.26445318  .00000475  00000+0  24453-3 0  9990
#TLE: 2 49008  98.7480   6.5551 0001357 167.8415 192.2795 14.19884467232890

#Time	Az	El	Level	Level2	SNR	BER	BlckErr	Temp	State	Recorded	gain1	gain2
2026-01-02 03:07:23.87	22.68	4.98	-49.6	-60.9	3.8	8.46e-01	0	38	0	0	70	12529
2026-01-02 03:07:24.86	22.73	5.05	-49.6	-60.8	3.8	8.47e-01	0	38	104	0	69	13232
2026-01-02 03:07:25.85	22.78	5.12	-49.6	-60.8	3.8	8.46e-01	0	38	104	0	69	13126
2026-01-02 03:07:26.85	22.83	5.18	-49.6	-60.8	3.8	8.47e-01	0	38	104	0	69	13141
2026-01-02 03:07:27.85	22.88	5.25	-49.6	-60.7	3.8	8.47e-01	0	38	104	0	69	13044
2026-01-02 03:07:28.85	22.93	5.32	-49.6	-60.7	3.8	8.46e-01	0	38	104	0	69	13070
2026-01-02 03:07:29.85	22.98	5.39	-49.6	-60.7	3.8	8.46e-01	0	38	104	0	69	13068
2026-01-02 03:07:30.85	23.04	5.45	-49.6	-60.7	3.8	8.46e-01	0	38	104	0	69	13018
2026-01-02 03:07:31.84	23.09	5.52	-49.6	-60.7	3.8	8.46e-01	0	38	104	0	69	13063
2026-01-02 03:07:32.84	23.14	5.59	-49.6	-60.7	3.8	8.47e-01	0	38	104	0	69	13075
2026-01-02 03:07:33.84	23.19	5.66	-49.6	-60.8	3.8	8.47e-01	0	38	104	0	69	13193
2026-01-02 03:07:34.84	23.24	5.73	-49.6	-60.9	3.8	8.48e-01	0	38	104	0	69	13269
2026-01-02 03:07:35.84	23.30	5.80	-49.6	-60.9	3.8	8.46e-01	0	38	104	0	69	13304
2026-01-02 03:07:36.83	23.35	5.86	-49.6	-60.9	3.8	8.47e-01	0	38	104	0	69	13401
2026-01-02 03:07:37.83	23.40	5.93	-49.6	-60.9	3.8	8.46e-01	0	38	104	0	69	13343
2026-01-02 03:07:38.83	23.45	6.00	-49.6	-60.8	3.8	8.46e-01	0	38	104	0	69	13172
2026-01-02 03:07:39.82	23.51	6.07	-49.6	-60.8	3.8	8.46e-01	0	38	104	0	69	13160
2026-01-02 03:07:40.82	23.56	6.14	-49.6	-60.8	3.8	8.47e-01	0	38	104	0	69	13185
2026-01-02 03:07:41.82	23.62	6.21	-49.6	-60.7	3.8	8.46e-01	0	38	104	0	69	12982
2026-01-02 03:07:42.81	23.67	6.28	-49.5	-60.6	3.8	8.46e-01	0	38	104	0	69	12825
2026-01-02 03:07:43.81	23.72	6.35	-49.5	-60.4	3.8	8.46e-01	0	38	104	0	69	12628
2026-01-02 03:07:44.81	23.78	6.42	-49.5	-60.3	3.8	8.46e-01	0	39	104	0	69	12502
2026-01-02 03:07:45.81	23.83	6.49	-49.5	-60.2	3.8	8.46e-01	0	38	104	0	69	12255
2026-01-02 03:07:46.81	23.89	6.56	-49.5	-60.1	3.8	8.47e-01	0	39	104	0	69	12181
2026-01-02 03:07:47.80	23.94	6.63	-49.5	-59.9	3.8	8.46e-01	0	39	104	0	69	11911
2026-01-02 03:07:48.80	24.00	6.70	-49.4	-59.7	3.8	8.47e-01	0	39	104	0	69	11615
2026-01-02 03:07:49.80	24.06	6.77	-49.4	-59.6	3.9	8.48e-01	0	39	104	0	69	11499
2026-01-02 03:07:50.80	24.11	6.85	-49.4	-59.5	3.8	8.47e-01	0	39	104	0	69	11351
2026-01-02 03:07:51.80	24.17	6.92	-49.4	-59.5	3.8	8.46e-01	0	39	104	0	69	11326
2026-01-02 03:07:52.80	24.22	6.99	-49.4	-59.6	3.8	8.46e-01	0	39	104	0	69	11458
2026-01-02 03:07:53.80	24.28	7.06	-49.4	-59.7	3.8	8.46e-01	0	39	104	0	69	11633
2026-01-02 03:07:54.80	24.34	7.13	-49.5	-60.0	3.8	8.46e-01	0	39	104	0	69	11991
2026-01-02 03:07:55.79	24.40	7.20	-49.5	-60.3	3.8	8.47e-01	0	39	104	0	69	12378
2026-01-02 03:07:56.79	24.45	7.28	-49.5	-60.5	3.8	8.46e-01	0	39	104	0	69	12700
2026-01-02 03:07:57.78	24.51	7.35	-49.5	-60.7	3.8	8.47e-01	0	39	104	0	69	13005
2026-01-02 03:07:58.78	24.57	7.42	-49.6	-60.7	3.8	8.45e-01	0	39	104	0	69	13095
2026-01-02 03:07:59.78	24.63	7.49	-49.5	-60.6	3.8	8.47e-01	0	39	104	0	69	12818
2026-01-02 03:08:00.78	24.69	7.57	-49.5	-60.2	3.8	8.47e-01	0	39	104	0	69	12260
2026-01-02 03:08:01.79	24.75	7.64	-49.4	-59.5	3.8	8.47e-01	0	39	104	0	69	11406
2026-01-02 03:08:02.79	24.81	7.72	-49.3	-58.7	3.8	8.46e-01	0	39	104	0	69	10412
2026-01-02 03:08:03.79	24.87	7.79	-49.2	-58.0	4.0	8.43e-01	0	39	0	0	69	9529
2026-01-02 03:08:04.79	24.93	7.86	-49.1	-57.2	4.2	8.39e-01	0	39	0	0	69	8670
2026-01-02 03:08:05.79	24.99	7.94	-49.0	-56.6	4.5	8.27e-01	0	39	0	0	68	8591
2026-01-02 03:08:06.79	25.05	8.01	-48.9	-56.0	4.7	8.16e-01	0	39	0	0	68	8050
2026-01-02 03:08:07.79	25.11	8.09	-48.8	-55.8	4.8	7.95e-01	0	39	0	0	68	7817
2026-01-02 03:08:08.80	25.17	8.16	-48.7	-55.5	4.9	7.82e-01	0	39	0	0	68	7628
2026-01-02 03:08:09.80	25.23	8.24	-48.8	-55.6	4.9	7.83e-01	0	39	0	0	68	7669
2026-01-02 03:08:10.80	25.29	8.31	-48.8	-55.7	4.8	7.85e-01	0	39	0	0	68	7736
2026-01-02 03:08:11.80	25.35	8.39	-48.8	-55.7	4.8	7.93e-01	0	39	0	0	68	7776
2026-01-02 03:08:12.80	25.42	8.46	-48.9	-56.1	4.6	8.08e-01	0	39	0	0	68	8149
2026-01-02 03:08:13.80	25.48	8.54	-48.9	-56.1	4.6	8.11e-01	0	39	0	0	68	8133
2026-01-02 03:08:14.80	25.54	8.61	-48.8	-56.0	4.7	8.06e-01	0	39	0	0	68	8010
2026-01-02 03:08:15.80	25.60	8.69	-48.8	-55.6	4.9	7.95e-01	0	39	0	0	68	7709
2026-01-02 03:08:16.80	25.67	8.77	-48.4	-54.8	5.2	7.58e-01	0	39	0	0	67	7391
2026-01-02 03:08:17.81	25.73	8.84	-48.2	-54.0	5.8	5.11e-01	0	39	0	2097152	67	6755
2026-01-02 03:08:18.81	25.80	8.92	-47.9	-53.1	6.5	2.67e-01	0	39	0	8388608	66	6451
2026-01-02 03:08:19.81	25.86	9.00	-47.6	-52.2	7.3	1.56e-01	0	39	0	15728640	66	5817
2026-01-02 03:08:20.81	25.93	9.07	-47.6	-52.1	7.4	1.14e-01	0	39	0	23068672	65	6099
2026-01-02 03:08:21.81	25.99	9.15	-49.7	-60.5	3.8	8.39e-01	0	39	104	27262976	68	13491
2026-01-02 03:08:22.81	26.06	9.23	-44.6	-46.7	13.0	1.13e-01	0	39	104	27262976	60	4354
2026-01-02 03:08:23.81	26.12	9.31	-46.4	-49.3	10.5	6.43e-04	0	39	0	33554432	62	5227
2026-01-02 03:08:24.81	26.19	9.39	-42.1	-43.5	16.0	1.29e-04	0	39	0	40894464	55	4030
2026-01-02 03:08:25.82	26.26	9.46	-41.2	-42.5	17.1	0.00e+00	0	40	0	48234496	52	4252
2026-01-02 03:08:26.82	26.32	9.54	-41.1	-42.3	17.2	0.00e+00	0	40	0	55574528	52	4193
2026-01-02 03:08:27.82	26.39	9.62	-40.8	-42.0	17.6	0.00e+00	0	40	0	62914560	51	4275
2026-01-02 03:08:28.82	26.46	9.70	-41.0	-42.2	17.4	0.00e+00	0	40	0	70254592	51	4353
2026-01-02 03:08:29.83	26.52	9.78	-40.8	-42.0	17.7	0.00e+00	0	39	0	77594624	51	4248
2026-01-02 03:08:30.83	26.59	9.86	-40.3	-41.4	18.2	0.00e+00	0	40	0	84934656	51	4004
2026-01-02 03:08:31.83	26.66	9.94	-40.1	-41.2	18.5	0.00e+00	0	40	0	92274688	50	4108
2026-01-02 03:08:32.83	26.73	10.02	-39.7	-40.8	18.8	0.00e+00	0	40	0	99614720	50	3940
2026-01-02 03:08:33.83	26.80	10.10	-39.7	-40.8	18.9	0.00e+00	0	40	0	105906176	50	3923
2026-01-02 03:08:34.83	26.87	10.18	-39.5	-40.6	19.0	0.00e+00	0	40	0	113246208	49	4077
2026-01-02 03:08:35.83	26.94	10.26	-39.4	-40.4	19.2	0.00e+00	0	40	0	120586240	49	4004
2026-01-02 03:08:36.83	27.01	10.34	-39.4	-40.5	19.1	0.00e+00	0	40	0	127926272	49	4019
2026-01-02 03:08:37.84	27.08	10.42	-39.4	-40.4	19.2	0.00e+00	0	40	0	135266304	49	4001
2026-01-02 03:08:38.84	27.15	10.50	-39.1	-40.1	19.5	0.00e+00	0	40	0	142606336	49	3858
2026-01-02 03:08:39.84	27.22	10.59	-39.4	-40.4	19.2	0.00e+00	0	40	0	149946368	49	3982
2026-01-02 03:08:40.85	27.29	10.67	-39.1	-40.2	19.4	0.00e+00	0	40	0	157286400	49	3873
2026-01-02 03:08:41.85	27.37	10.75	-39.2	-40.3	19.3	0.00e+00	0	40	0	164626432	49	3922
2026-01-02 03:08:42.85	27.44	10.83	-39.2	-40.3	19.3	0.00e+00	0	40	0	170917888	49	3925
2026-01-02 03:08:43.85	27.51	10.91	-39.2	-40.2	19.4	0.00e+00	0	40	0	178257920	49	3893
2026-01-02 03:08:44.85	27.59	11.00	-39.1	-40.1	19.4	0.00e+00	0	40	0	185597952	49	3857
2026-01-02 03:08:45.85	27.66	11.08	-39.1	-40.1	19.4	0.00e+00	0	40	0	192937984	49	3860
2026-01-02 03:08:46.85	27.73	11.16	-39.0	-40.0	19.6	0.00e+00	0	40	0	200278016	48	4038
2026-01-02 03:08:47.85	27.81	11.25	-39.3	-40.4	19.2	0.00e+00	0	40	0	207618048	48	4214
2026-01-02 03:08:48.85	27.88	11.33	-39.2	-40.3	19.3	0.00e+00	0	40	0	214958080	48	4159
2026-01-02 03:08:49.85	27.96	11.41	-39.3	-40.3	19.3	0.00e+00	0	40	0	222298112	48	4181
2026-01-02 03:08:50.86	28.03	11.50	-39.2	-40.3	19.4	0.00e+00	0	40	0	229638144	48	4152
2026-01-02 03:08:51.86	28.11	11.58	-39.3	-40.3	19.3	0.00e+00	0	40	0	235929600	48	4179
2026-01-02 03:08:52.86	28.19	11.67	-39.2	-40.3	19.3	0.00e+00	0	40	0	243269632	48	4169
2026-01-02 03:08:53.86	28.26	11.75	-39.0	-40.1	19.6	0.00e+00	0	40	0	250609664	48	4070
2026-01-02 03:08:54.86	28.34	11.84	-39.2	-40.2	19.4	0.00e+00	0	40	0	257949696	48	4138
2026-01-02 03:08:55.86	28.42	11.92	-39.2	-40.3	19.4	0.00e+00	0	40	0	265289728	48	4167
2026-01-02 03:08:56.87	28.50	12.01	-39.1	-40.1	19.5	0.00e+00	0	40	0	272629760	48	4097
2026-01-02 03:08:57.86	28.57	12.09	-39.2	-40.3	19.4	0.00e+00	0	40	0	279969792	48	4149
2026-01-02 03:08:58.87	28.65	12.18	-39.3	-40.3	19.3	0.00e+00	0	40	0	287309824	48	4189
2026-01-02 03:08:59.87	28.73	12.27	-39.3	-40.4	19.3	0.00e+00	0	40	0	294649856	48	4198
2026-01-02 03:09:00.87	28.81	12.35	-39.4	-40.5	19.2	0.00e+00	0	40	0	301989888	48	4256
2026-01-02 03:09:01.87	28.89	12.44	-39.2	-40.2	19.5	0.00e+00	0	40	0	309329920	48	4130
2026-01-02 03:09:02.87	28.97	12.53	-39.1	-40.2	19.5	0.00e+00	0	40	0	315621376	48	4106
2026-01-02 03:09:03.87	29.06	12.62	-39.2	-40.2	19.5	0.00e+00	0	40	0	322961408	48	4119
2026-01-02 03:09:04.88	29.14	12.70	-39.2	-40.2	19.5	0.00e+00	0	40	0	330301440	48	4134
2026-01-02 03:09:05.88	29.22	12.79	-39.0	-40.1	19.6	0.00e+00	0	40	0	337641472	48	4062
2026-01-02 03:09:06.88	29.30	12.88	-39.1	-40.1	19.6	0.00e+00	0	40	0	344981504	48	4059
2026-01-02 03:09:07.88	29.39	12.97	-39.1	-40.2	19.5	0.00e+00	0	40	0	352321536	48	4106
2026-01-02 03:09:08.88	29.47	13.06	-39.4	-40.4	19.3	0.00e+00	0	40	0	359661568	48	4216
2026-01-02 03:09:09.88	29.55	13.15	-39.0	-40.0	19.7	0.00e+00	0	40	0	367001600	48	4046
2026-01-02 03:09:10.87	29.64	13.23	-39.0	-40.0	19.7	0.00e+00	0	40	0	374341632	48	4019
2026-01-02 03:09:11.87	29.72	13.32	-39.0	-40.1	19.7	0.00e+00	0	40	0	380633088	48	4052
2026-01-02 03:09:12.87	29.81	13.41	-38.9	-39.9	19.8	0.00e+00	0	40	0	387973120	48	3982
2026-01-02 03:09:13.87	29.89	13.50	-39.0	-40.0	19.8	0.00e+00	0	40	0	395313152	48	4017
2026-01-02 03:09:14.88	29.98	13.60	-38.9	-39.9	19.8	0.00e+00	0	40	0	402653184	48	3997
2026-01-02 03:09:15.88	30.07	13.69	-38.9	-39.9	19.8	0.00e+00	0	40	0	409993216	48	3994
2026-01-02 03:09:16.88	30.16	13.78	-38.9	-39.9	19.9	0.00e+00	0	40	0	417333248	48	3965
2026-01-02 03:09:17.88	30.24	13.87	-38.9	-39.9	19.9	0.00e+00	0	40	0	424673280	48	3962
2026-01-02 03:09:18.88	30.33	13.96	-38.8	-39.8	19.9	0.00e+00	0	40	0	432013312	48	3939
2026-01-02 03:09:19.88	30.42	14.05	-38.8	-39.8	19.9	0.00e+00	0	40	0	439353344	48	3933
2026-01-02 03:09:20.88	30.51	14.14	-38.9	-39.9	19.9	0.00e+00	0	40	0	445644800	48	3978
2026-01-02 03:09:21.88	30.60	14.24	-38.9	-39.9	19.9	0.00e+00	0	40	0	452984832	48	3969
2026-01-02 03:09:22.88	30.69	14.33	-38.7	-39.6	20.1	0.00e+00	0	40	0	460324864	48	3865
2026-01-02 03:09:23.89	30.78	14.42	-38.6	-39.6	20.1	0.00e+00	0	40	0	467664896	48	3841
2026-01-02 03:09:24.89	30.87	14.52	-38.6	-39.6	19.9	0.00e+00	0	40	0	475004928	47	4062
2026-01-02 03:09:25.89	30.97	14.61	-38.4	-39.3	20.1	0.00e+00	0	40	0	482344960	47	3956
2026-01-02 03:09:26.89	31.06	14.70	-38.3	-39.3	20.2	0.00e+00	0	40	0	489684992	47	3936
2026-01-02 03:09:27.89	31.15	14.80	-38.2	-39.2	20.2	0.00e+00	0	40	0	497025024	47	3887
2026-01-02 03:09:28.89	31.25	14.89	-38.3	-39.2	20.2	0.00e+00	0	40	0	503316480	47	3913
2026-01-02 03:09:29.89	31.34	14.99	-37.6	-38.7	20.4	0.00e+00	0	40	0	510656512	46	3881
2026-01-02 03:09:30.89	31.44	15.08	-38.1	-39.0	20.4	0.00e+00	0	40	0	517996544	46	4039
2026-01-02 03:09:31.90	31.53	15.18	-38.2	-39.1	20.3	0.00e+00	0	40	0	525336576	46	4082
2026-01-02 03:09:32.90	31.63	15.28	-38.1	-39.0	20.4	0.00e+00	0	40	0	532676608	46	4045
2026-01-02 03:09:33.90	31.73	15.37	-38.1	-39.0	20.5	0.00e+00	0	40	0	540016640	46	4037
2026-01-02 03:09:34.90	31.82	15.47	-38.1	-39.0	20.5	0.00e+00	0	40	0	547356672	46	4037
2026-01-02 03:09:35.91	31.92	15.57	-38.2	-39.1	20.4	0.00e+00	0	40	0	554696704	46	4094
2026-01-02 03:09:36.91	32.02	15.66	-38.1	-39.0	20.5	0.00e+00	0	40	0	562036736	46	4031
2026-01-02 03:09:37.91	32.12	15.76	-38.1	-39.0	20.4	0.00e+00	0	40	0	568328192	46	4051
2026-01-02 03:09:38.91	32.22	15.86	-38.2	-39.2	20.3	0.00e+00	0	40	0	575668224	46	4123
2026-01-02 03:09:39.91	32.32	15.96	-38.0	-39.0	20.5	0.00e+00	0	40	0	583008256	46	4008
2026-01-02 03:09:40.91	32.42	16.05	-38.0	-38.9	20.5	0.00e+00	0	40	0	590348288	46	4004
2026-01-02 03:09:41.92	32.53	16.15	-37.9	-38.8	20.6	0.00e+00	0	40	0	597688320	46	3957
2026-01-02 03:09:42.92	32.63	16.25	-38.0	-38.9	20.6	0.00e+00	0	40	0	605028352	46	3980
2026-01-02 03:09:43.92	32.73	16.35	-38.1	-39.0	20.4	0.00e+00	0	40	0	612368384	46	4038
2026-01-02 03:09:44.91	32.83	16.45	-37.9	-38.8	20.7	0.00e+00	0	40	0	619708416	46	3934
2026-01-02 03:09:45.91	32.94	16.55	-38.0	-38.9	20.5	0.00e+00	0	40	0	627048448	46	4002
2026-01-02 03:09:46.91	33.04	16.65	-37.8	-38.7	20.7	0.00e+00	0	40	0	633339904	46	3901
2026-01-02 03:09:47.92	33.15	16.75	-37.7	-38.6	20.8	0.00e+00	0	40	0	641728512	46	3854
2026-01-02 03:09:48.91	33.26	16.85	-37.8	-38.7	20.7	0.00e+00	0	40	0	648019968	46	3901
2026-01-02 03:09:49.92	33.36	16.95	-37.7	-38.7	20.7	0.00e+00	0	40	0	655360000	46	3871
2026-01-02 03:09:50.92	33.47	17.05	-37.6	-38.5	20.9	0.00e+00	0	40	0	662700032	45	4022
2026-01-02 03:09:51.92	33.58	17.16	-37.7	-38.6	20.7	0.00e+00	0	40	0	670040064	45	4078
2026-01-02 03:09:52.92	33.69	17.26	-37.5	-38.5	20.8	0.00e+00	0	40	0	677380096	45	4015
2026-01-02 03:09:53.92	33.80	17.36	-37.6	-38.6	20.7	0.00e+00	0	40	0	684720128	45	4069
2026-01-02 03:09:54.92	33.91	17.46	-37.5	-38.5	20.9	0.00e+00	0	40	0	692060160	45	4009
2026-01-02 03:09:55.92	34.02	17.57	-37.5	-38.5	20.9	0.00e+00	0	40	0	699400192	45	4005
2026-01-02 03:09:56.92	34.13	17.67	-37.5	-38.4	21.0	0.00e+00	0	40	0	706740224	45	3984
2026-01-02 03:09:57.92	34.25	17.77	-37.4	-38.4	21.1	0.00e+00	0	40	0	713031680	45	3963
2026-01-02 03:09:58.92	34.36	17.88	-37.4	-38.3	21.2	0.00e+00	0	40	0	720371712	45	3937
2026-01-02 03:09:59.92	34.47	17.98	-37.5	-38.4	21.0	0.00e+00	0	40	0	727711744	45	3990
2026-01-02 03:10:00.92	34.59	18.09	-37.5	-38.4	21.0	0.00e+00	0	40	0	735051776	45	3986
2026-01-02 03:10:01.92	34.71	18.19	-37.4	-38.3	21.1	0.00e+00	0	40	0	742391808	45	3953
2026-01-02 03:10:02.91	34.82	18.30	-37.4	-38.4	21.0	0.00e+00	0	40	0	749731840	45	3959
2026-01-02 03:10:03.92	34.94	18.40	-37.4	-38.3	21.1	0.00e+00	0	40	0	756023296	45	3946
2026-01-02 03:10:04.91	35.06	18.51	-37.4	-38.4	21.1	0.00e+00	0	40	0	763363328	45	3971
2026-01-02 03:10:05.92	35.18	18.62	-37.3	-38.2	21.2	0.00e+00	0	40	0	770703360	45	3904
2026-01-02 03:10:06.91	35.30	18.72	-37.5	-38.4	21.1	0.00e+00	0	40	0	778043392	45	3987
2026-01-02 03:10:07.91	35.42	18.83	-37.3	-38.3	21.2	0.00e+00	0	40	0	785383424	45	3920
2026-01-02 03:10:08.92	35.54	18.94	-37.3	-38.2	21.2	0.00e+00	0	40	0	792723456	45	3912
2026-01-02 03:10:09.92	35.66	19.05	-37.4	-38.3	21.2	0.00e+00	0	40	0	800063488	45	3921
2026-01-02 03:10:10.92	35.79	19.16	-37.4	-38.3	21.1	0.00e+00	0	40	0	807403520	45	3948
2026-01-02 03:10:11.92	35.91	19.26	-37.3	-38.2	21.3	0.00e+00	0	40	0	814743552	45	3880
2026-01-02 03:10:12.92	36.03	19.37	-37.4	-38.3	21.2	0.00e+00	0	40	0	822083584	45	3939
2026-01-02 03:10:13.92	36.16	19.48	-37.3	-38.3	21.2	0.00e+00	0	40	0	829423616	45	3920
2026-01-02 03:10:14.93	36.29	19.59	-37.4	-38.3	21.2	0.00e+00	0	40	0	835715072	45	3949
2026-01-02 03:10:15.93	36.42	19.70	-37.3	-38.2	21.3	0.00e+00	0	40	0	843055104	45	3873
2026-01-02 03:10:16.93	36.54	19.81	-37.3	-38.2	21.3	0.00e+00	0	40	0	850395136	45	3878
2026-01-02 03:10:17.93	36.67	19.92	-37.2	-38.1	21.3	0.00e+00	0	40	0	857735168	45	3863
2026-01-02 03:10:18.93	36.80	20.04	-37.1	-38.0	21.4	0.00e+00	0	40	0	865075200	45	3814
2026-01-02 03:10:19.93	36.93	20.15	-37.0	-37.9	21.5	0.00e+00	0	40	0	872415232	44	3994
2026-01-02 03:10:20.93	37.07	20.26	-37.0	-37.9	21.5	0.00e+00	0	40	0	879755264	44	3959
2026-01-02 03:10:21.93	37.20	20.37	-37.1	-38.0	21.5	0.00e+00	0	40	0	887095296	44	4008
2026-01-02 03:10:22.93	37.33	20.48	-36.8	-37.7	21.7	0.00e+00	0	40	0	894435328	44	3880
2026-01-02 03:10:23.93	37.47	20.60	-36.8	-37.6	21.7	0.00e+00	0	40	0	900726784	44	3862
2026-01-02 03:10:24.93	37.60	20.71	-36.8	-37.6	21.7	0.00e+00	0	40	0	908066816	44	3866
2026-01-02 03:10:25.93	37.74	20.82	-36.8	-37.7	21.7	0.00e+00	0	40	0	915406848	44	3884
2026-01-02 03:10:26.93	37.88	20.94	-36.9	-37.8	21.6	0.00e+00	0	40	0	922746880	44	3918
2026-01-02 03:10:27.93	38.02	21.05	-36.8	-37.7	21.7	0.00e+00	0	40	0	930086912	44	3879
2026-01-02 03:10:28.93	38.16	21.17	-36.8	-37.7	21.7	0.00e+00	0	40	0	937426944	44	3907
2026-01-02 03:10:29.93	38.30	21.28	-36.8	-37.7	21.7	0.00e+00	0	40	0	944766976	44	3892
2026-01-02 03:10:30.93	38.44	21.40	-36.9	-37.7	21.6	0.00e+00	0	40	0	952107008	44	3913
2026-01-02 03:10:31.93	38.58	21.51	-36.8	-37.7	21.7	0.00e+00	0	40	0	959447040	44	3873
2026-01-02 03:10:32.93	38.73	21.63	-36.8	-37.7	21.7	0.00e+00	0	40	0	965738496	44	3886
2026-01-02 03:10:33.94	38.87	21.75	-36.7	-37.6	21.8	0.00e+00	0	40	0	973078528	44	3834
2026-01-02 03:10:34.94	39.02	21.86	-36.8	-37.7	21.7	0.00e+00	0	40	0	980418560	44	3901
2026-01-02 03:10:35.94	39.17	21.98	-36.7	-37.6	21.8	0.00e+00	0	40	0	987758592	44	3856
2026-01-02 03:10:36.94	39.32	22.10	-36.7	-37.6	21.8	0.00e+00	0	40	0	995098624	44	3853
2026-01-02 03:10:37.95	39.47	22.22	-36.8	-37.7	21.7	0.00e+00	0	40	0	1002438656	44	3896
2026-01-02 03:10:38.95	39.62	22.34	-36.7	-37.6	21.8	0.00e+00	0	40	0	1009778688	44	3855
2026-01-02 03:10:39.95	39.77	22.46	-36.7	-37.5	21.9	0.00e+00	0	40	0	1017118720	44	3820
2026-01-02 03:10:40.95	39.92	22.58	-36.7	-37.5	21.9	0.00e+00	0	40	0	1023410176	44	3821
2026-01-02 03:10:41.95	40.08	22.69	-36.7	-37.6	21.9	0.00e+00	0	40	0	1030750208	44	3830
2026-01-02 03:10:42.95	40.23	22.81	-36.7	-37.6	21.9	0.00e+00	0	40	0	1038090240	44	3825
2026-01-02 03:10:43.95	40.39	22.93	-36.7	-37.6	21.9	0.00e+00	0	40	0	1045430272	44	3828
2026-01-02 03:10:44.96	40.55	23.06	-36.7	-37.6	21.9	0.00e+00	0	40	0	1052770304	44	3825
2026-01-02 03:10:45.96	40.70	23.18	-36.7	-37.6	21.9	0.00e+00	0	40	0	1060110336	44	3863
2026-01-02 03:10:46.96	40.86	23.30	-36.6	-37.5	22.0	0.00e+00	0	40	0	1067450368	44	3801
2026-01-02 03:10:47.96	41.02	23.42	-36.4	-37.2	22.1	0.00e+00	0	40	0	1074790400	43	3909
2026-01-02 03:10:48.96	41.19	23.54	-36.3	-37.1	22.2	0.00e+00	0	40	0	1082130432	43	3863
2026-01-02 03:10:49.96	41.35	23.66	-36.3	-37.1	22.2	0.00e+00	0	40	0	1088421888	43	3861
2026-01-02 03:10:50.96	41.52	23.79	-36.2	-37.1	22.2	0.00e+00	0	40	0	1095761920	43	3831
2026-01-02 03:10:51.96	41.68	23.91	-36.2	-37.0	22.2	0.00e+00	0	40	0	1103101952	43	3819
2026-01-02 03:10:52.96	41.85	24.03	-36.2	-37.0	22.3	0.00e+00	0	40	0	1110441984	43	3818
2026-01-02 03:10:53.96	42.02	24.16	-36.2	-37.0	22.3	0.00e+00	0	40	0	1117782016	43	3808
2026-01-02 03:10:54.96	42.19	24.28	-36.4	-37.2	22.1	0.00e+00	0	40	0	1125122048	43	3908
2026-01-02 03:10:55.96	42.36	24.40	-36.3	-37.2	22.1	0.00e+00	0	40	0	1132462080	43	3891
2026-01-02 03:10:56.96	42.53	24.53	-36.3	-37.2	22.1	0.00e+00	0	40	0	1139802112	43	3890
2026-01-02 03:10:57.96	42.70	24.65	-36.3	-37.2	22.1	0.00e+00	0	40	0	1147142144	43	3895
2026-01-02 03:10:58.96	42.88	24.78	-36.3	-37.1	22.1	0.00e+00	0	40	0	1153433600	43	3863
2026-01-02 03:10:59.96	43.06	24.91	-36.4	-37.2	22.0	0.00e+00	0	40	0	1160773632	43	3900
2026-01-02 03:11:00.96	43.23	25.03	-36.3	-37.1	22.1	0.00e+00	0	40	0	1168113664	43	3865
2026-01-02 03:11:01.96	43.41	25.16	-36.2	-37.1	22.2	0.00e+00	0	40	0	1175453696	43	3845
2026-01-02 03:11:02.96	43.59	25.28	-36.2	-37.0	22.2	0.00e+00	0	40	0	1182793728	43	3816
2026-01-02 03:11:03.96	43.78	25.41	-36.1	-36.9	22.4	0.00e+00	0	40	0	1190133760	42	3985
2026-01-02 03:11:04.96	43.96	25.54	-36.1	-36.9	22.3	0.00e+00	0	40	0	1197473792	42	3999
2026-01-02 03:11:05.96	44.14	25.67	-36.1	-36.9	22.3	0.00e+00	0	40	0	1204813824	42	4001
2026-01-02 03:11:06.96	44.33	25.79	-36.0	-36.9	22.4	0.00e+00	0	40	0	1211105280	42	3970
2026-01-02 03:11:07.97	44.52	25.92	-36.0	-36.8	22.5	0.00e+00	0	40	0	1218445312	42	3934
2026-01-02 03:11:08.97	44.71	26.05	-36.0	-36.9	22.4	0.00e+00	0	40	0	1226833920	42	3974
2026-01-02 03:11:09.97	44.90	26.18	-35.9	-36.7	22.5	0.00e+00	0	40	0	1233125376	42	3908
2026-01-02 03:11:10.97	45.09	26.31	-35.9	-36.7	22.5	0.00e+00	0	40	0	1240465408	42	3911
2026-01-02 03:11:11.97	45.29	26.44	-35.9	-36.7	22.5	0.00e+00	0	40	0	1247805440	42	3901
2026-01-02 03:11:12.97	45.48	26.57	-35.9	-36.7	22.5	0.00e+00	0	40	0	1255145472	42	3896
2026-01-02 03:11:13.98	45.68	26.70	-36.0	-36.8	22.4	0.00e+00	0	40	0	1262485504	42	3944
2026-01-02 03:11:14.98	45.88	26.83	-36.0	-36.8	22.4	0.00e+00	0	40	0	1269825536	42	3946
2026-01-02 03:11:15.98	46.08	26.96	-35.9	-36.7	22.5	0.00e+00	0	40	0	1277165568	42	3893
2026-01-02 03:11:16.98	46.28	27.09	-35.8	-36.7	22.5	0.00e+00	0	40	0	1284505600	42	3885
2026-01-02 03:11:17.98	46.49	27.22	-35.9	-36.7	22.5	0.00e+00	0	40	0	1291845632	42	3901
2026-01-02 03:11:18.98	46.69	27.35	-35.8	-36.7	22.6	0.00e+00	0	40	0	1298137088	42	3883
2026-01-02 03:11:19.98	46.90	27.49	-35.8	-36.7	22.6	0.00e+00	0	40	0	1305477120	42	3872
2026-01-02 03:11:20.98	47.11	27.62	-35.7	-36.5	22.7	0.00e+00	0	40	0	1312817152	42	3803
2026-01-02 03:11:21.98	47.32	27.75	-35.6	-36.5	22.8	0.00e+00	0	40	0	1320157184	42	3792
2026-01-02 03:11:22.98	47.53	27.88	-35.6	-36.5	22.8	0.00e+00	0	40	0	1327497216	42	3782
2026-01-02 03:11:23.98	47.74	28.01	-35.7	-36.5	22.8	0.00e+00	0	40	0	1334837248	42	3810
2026-01-02 03:11:24.98	47.96	28.15	-35.7	-36.6	22.7	0.00e+00	0	40	0	1342177280	42	3841
2026-01-02 03:11:25.99	48.18	28.28	-35.8	-36.6	22.7	0.00e+00	0	40	0	1349517312	42	3844
2026-01-02 03:11:26.99	48.40	28.41	-35.7	-36.5	22.7	0.00e+00	0	40	0	1356857344	42	3823
2026-01-02 03:11:27.99	48.62	28.55	-35.7	-36.6	22.7	0.00e+00	0	40	0	1363148800	42	3834
2026-01-02 03:11:28.99	48.84	28.68	-35.8	-36.6	22.7	0.00e+00	0	40	0	1370488832	42	3849
2026-01-02 03:11:29.99	49.07	28.81	-35.7	-36.6	22.7	0.00e+00	0	40	0	1377828864	42	3838
2026-01-02 03:11:30.99	49.29	28.95	-35.7	-36.6	22.7	0.00e+00	0	40	0	1385168896	42	3829
2026-01-02 03:11:31.99	49.52	29.08	-35.7	-36.6	22.7	0.00e+00	0	40	0	1392508928	42	3829
2026-01-02 03:11:33.00	49.75	29.22	-35.7	-36.5	22.8	0.00e+00	0	40	0	1399848960	42	3812
2026-01-02 03:11:34.00	49.98	29.35	-35.6	-36.4	22.8	0.00e+00	0	40	0	1407188992	42	3771
2026-01-02 03:11:35.00	50.22	29.49	-35.7	-36.5	22.7	0.00e+00	0	40	0	1414529024	42	3799
2026-01-02 03:11:35.99	50.45	29.62	-35.7	-36.5	22.7	0.00e+00	0	40	0	1420820480	41	4040
2026-01-02 03:11:36.99	50.69	29.75	-35.6	-36.4	22.8	0.00e+00	0	40	0	1428160512	41	4002
2026-01-02 03:11:37.99	50.93	29.89	-35.6	-36.4	22.8	0.00e+00	0	40	0	1435500544	41	4001
2026-01-02 03:11:39.00	51.17	30.03	-35.6	-36.4	22.8	0.00e+00	0	40	0	1442840576	41	3982
2026-01-02 03:11:40.00	51.42	30.16	-35.6	-36.4	22.8	0.00e+00	0	40	0	1450180608	41	3967
2026-01-02 03:11:41.00	51.66	30.30	-35.7	-36.6	22.7	0.00e+00	0	40	0	1457520640	41	4061
2026-01-02 03:11:42.00	51.91	30.43	-35.6	-36.4	22.8	0.00e+00	0	40	0	1464860672	41	3977
2026-01-02 03:11:43.00	52.16	30.57	-35.6	-36.5	22.8	0.00e+00	0	40	0	1472200704	41	4025
2026-01-02 03:11:44.00	52.41	30.70	-35.7	-36.5	22.7	0.00e+00	0	40	0	1479540736	41	4048
2026-01-02 03:11:45.00	52.66	30.84	-35.7	-36.5	22.7	0.00e+00	0	40	0	1485832192	41	4026
2026-01-02 03:11:46.00	52.92	30.97	-35.7	-36.5	22.8	0.00e+00	0	40	0	1493172224	41	4029
2026-01-02 03:11:47.00	53.18	31.11	-35.6	-36.5	22.8	0.00e+00	0	40	0	1500512256	41	4017
2026-01-02 03:11:48.01	53.44	31.24	-35.7	-36.5	22.7	0.00e+00	0	40	0	1507852288	41	4026
2026-01-02 03:11:49.01	53.70	31.38	-35.7	-36.5	22.8	0.00e+00	0	40	0	1515192320	41	4036
2026-01-02 03:11:50.01	53.97	31.51	-35.7	-36.5	22.8	0.00e+00	0	40	0	1522532352	41	4038
2026-01-02 03:11:51.01	54.24	31.65	-35.7	-36.5	22.7	0.00e+00	0	40	0	1529872384	41	4047
2026-01-02 03:11:52.01	54.50	31.79	-35.6	-36.5	22.8	0.00e+00	0	40	0	1537212416	41	4009
2026-01-02 03:11:53.02	54.78	31.92	-35.7	-36.5	22.7	0.00e+00	0	40	0	1544552448	41	4051
2026-01-02 03:11:54.02	55.05	32.06	-35.6	-36.4	22.9	0.00e+00	0	40	0	1551892480	41	3989
2026-01-02 03:11:55.02	55.33	32.19	-35.7	-36.5	22.7	0.00e+00	0	40	0	1559232512	41	4030
2026-01-02 03:11:56.02	55.61	32.33	-35.6	-36.4	22.8	0.00e+00	0	40	0	1566572544	41	4000
2026-01-02 03:11:57.02	55.89	32.46	-35.9	-36.8	22.5	0.00e+00	0	40	0	1572864000	41	4152
2026-01-02 03:11:58.02	56.17	32.60	-36.0	-36.8	22.5	0.00e+00	0	40	0	1580204032	41	4169
2026-01-02 03:11:59.02	56.45	32.73	-35.8	-36.7	22.6	0.00e+00	0	40	0	1587544064	41	4116
2026-01-02 03:12:00.02	56.74	32.87	-35.7	-36.6	21.8	0.00e+00	0	40	0	1594884096	41	4069
2026-01-02 03:12:01.02	57.03	33.00	-35.9	-36.8	22.5	0.00e+00	0	40	0	1602224128	41	4149
2026-01-02 03:12:02.02	57.32	33.13	-35.9	-36.8	22.6	0.00e+00	0	40	0	1609564160	41	4155
2026-01-02 03:12:03.02	57.62	33.27	-36.0	-36.8	22.5	0.00e+00	0	40	0	1616904192	41	4180
2026-01-02 03:12:04.02	57.91	33.40	-35.9	-36.8	22.5	0.00e+00	0	40	0	1624244224	41	4167
2026-01-02 03:12:05.03	58.22	33.54	-35.8	-36.7	22.6	0.00e+00	0	40	0	1630535680	41	4104
2026-01-02 03:12:06.03	58.52	33.67	-35.8	-36.6	22.6	0.00e+00	0	40	0	1637875712	41	4097
2026-01-02 03:12:07.03	58.82	33.80	-35.8	-36.7	22.6	0.00e+00	0	40	0	1645215744	41	4116
2026-01-02 03:12:08.02	59.12	33.93	-35.9	-36.7	22.6	0.00e+00	0	40	0	1652555776	41	4133
2026-01-02 03:12:09.03	59.44	34.07	-35.7	-36.6	22.8	0.00e+00	0	40	0	1659895808	41	4060
2026-01-02 03:12:10.03	59.75	34.20	-35.7	-36.5	22.8	0.00e+00	0	40	0	1667235840	41	4038
2026-01-02 03:12:11.03	60.06	34.33	-35.5	-36.3	22.9	0.00e+00	0	40	0	1674575872	41	3946
2026-01-02 03:12:12.03	60.38	34.46	-35.5	-36.3	23.0	0.00e+00	0	40	0	1681915904	41	3933
2026-01-02 03:12:13.03	60.70	34.59	-35.4	-36.2	23.0	0.00e+00	0	40	0	1689255936	41	3909
2026-01-02 03:12:14.03	61.02	34.72	-35.5	-36.4	22.9	0.00e+00	0	40	0	1695547392	41	3965
2026-01-02 03:12:15.03	61.34	34.85	-35.6	-36.4	22.9	0.00e+00	0	40	0	1702887424	41	3987
2026-01-02 03:12:16.03	61.67	34.98	-35.7	-36.5	22.8	0.00e+00	0	40	0	1710227456	41	4018
2026-01-02 03:12:17.03	62.00	35.11	-35.6	-36.4	22.8	0.00e+00	0	40	0	1717567488	41	3996
2026-01-02 03:12:18.04	62.33	35.24	-35.7	-36.5	22.8	0.00e+00	0	40	0	1724907520	41	4038
2026-01-02 03:12:19.04	62.67	35.37	-35.7	-36.6	22.7	0.00e+00	0	40	0	1732247552	41	4066
2026-01-02 03:12:20.04	63.01	35.49	-35.8	-36.6	22.7	0.00e+00	0	40	0	1739587584	41	4086
2026-01-02 03:12:21.04	63.34	35.62	-35.8	-36.7	22.6	0.00e+00	0	40	0	1746927616	41	4109
2026-01-02 03:12:22.05	63.69	35.75	-35.6	-36.5	22.9	0.00e+00	0	40	0	1753219072	41	4008
2026-01-02 03:12:23.05	64.04	35.87	-35.7	-36.5	22.7	0.00e+00	0	40	0	1760559104	41	4036
2026-01-02 03:12:24.05	64.38	36.00	-35.6	-36.4	22.9	0.00e+00	0	40	0	1767899136	41	3991
2026-01-02 03:12:25.05	64.73	36.12	-35.6	-36.4	22.9	0.00e+00	0	40	0	1775239168	41	3968
2026-01-02 03:12:26.05	65.09	36.24	-35.6	-36.4	22.9	0.00e+00	0	40	0	1782579200	41	3999
2026-01-02 03:12:27.05	65.44	36.37	-35.7	-36.5	22.8	0.00e+00	0	40	0	1789919232	41	4051
2026-01-02 03:12:28.05	65.80	36.49	-35.7	-36.5	22.8	0.00e+00	0	40	0	1797259264	41	4026
2026-01-02 03:12:29.05	66.16	36.61	-35.7	-36.5	22.8	0.00e+00	0	40	0	1804599296	41	4040
2026-01-02 03:12:30.05	66.52	36.73	-35.7	-36.6	22.7	0.00e+00	0	40	0	1811939328	41	4065
2026-01-02 03:12:31.05	66.89	36.85	-35.7	-36.5	22.8	0.00e+00	0	40	0	1818230784	41	4021
2026-01-02 03:12:32.06	67.26	36.97	-35.7	-36.5	22.8	0.00e+00	0	40	0	1825570816	41	4026
2026-01-02 03:12:33.06	67.63	37.09	-35.7	-36.5	22.8	0.00e+00	0	40	0	1832910848	41	4047
2026-01-02 03:12:34.06	68.01	37.20	-35.7	-36.6	22.8	0.00e+00	0	40	0	1840250880	41	4054
2026-01-02 03:12:35.07	68.39	37.32	-35.7	-36.5	22.8	0.00e+00	0	40	0	1847590912	41	4037
2026-01-02 03:12:36.07	68.77	37.43	-35.6	-36.5	22.8	0.00e+00	0	40	0	1854930944	41	4011
2026-01-02 03:12:37.07	69.15	37.55	-35.6	-36.4	22.8	0.00e+00	0	40	0	1862270976	41	3997
2026-01-02 03:12:38.07	69.53	37.66	-35.5	-36.3	23.0	0.00e+00	0	40	0	1869611008	41	3932
2026-01-02 03:12:39.07	69.92	37.77	-35.5	-36.3	23.0	0.00e+00	0	40	0	1876951040	41	3947
2026-01-02 03:12:40.07	70.31	37.88	-35.5	-36.3	23.0	0.00e+00	0	40	0	1884291072	41	3930
2026-01-02 03:12:41.07	70.70	37.99	-35.6	-36.4	22.9	0.00e+00	0	40	0	1891631104	41	3993
2026-01-02 03:12:42.07	71.10	38.10	-35.7	-36.5	22.8	0.00e+00	0	40	0	1898971136	41	4025
2026-01-02 03:12:43.07	71.49	38.21	-35.8	-36.7	22.7	0.00e+00	0	40	0	1905262592	41	4103
2026-01-02 03:12:44.07	71.89	38.31	-35.8	-36.6	22.7	0.00e+00	0	40	0	1912602624	41	4090
2026-01-02 03:12:45.07	72.30	38.42	-35.9	-36.7	22.6	0.00e+00	0	40	0	1919942656	41	4122
2026-01-02 03:12:46.07	72.70	38.52	-35.8	-36.7	22.7	0.00e+00	0	40	0	1927282688	41	4116
2026-01-02 03:12:47.07	73.11	38.63	-35.9	-36.8	22.5	0.00e+00	0	40	0	1934622720	41	4166
2026-01-02 03:12:48.07	73.52	38.73	-36.0	-36.9	22.5	0.00e+00	0	40	0	1941962752	41	4208
2026-01-02 03:12:49.07	73.93	38.83	-35.9	-36.8	22.5	0.00e+00	0	40	0	1949302784	41	4169
2026-01-02 03:12:50.07	74.35	38.92	-35.9	-36.8	22.5	0.00e+00	0	40	0	1956642816	41	4161
2026-01-02 03:12:51.07	74.77	39.02	-36.0	-36.9	22.5	0.00e+00	0	40	0	1962934272	41	4195
2026-01-02 03:12:52.07	75.19	39.12	-36.2	-37.0	22.3	0.00e+00	0	40	0	1970274304	41	4286
2026-01-02 03:12:53.07	75.61	39.21	-36.3	-37.1	22.3	0.00e+00	0	40	0	1977614336	42	4085
2026-01-02 03:12:54.07	76.04	39.30	-36.2	-37.1	22.3	0.00e+00	0	40	0	1984954368	42	4052
2026-01-02 03:12:55.07	76.46	39.39	-36.0	-36.9	22.5	0.00e+00	0	40	0	1992294400	42	3967
2026-01-02 03:12:56.07	76.90	39.48	-35.8	-36.6	22.7	0.00e+00	0	40	0	1999634432	42	3867
2026-01-02 03:12:57.07	77.33	39.57	-35.6	-36.4	22.8	0.00e+00	0	40	0	2006974464	41	3992
2026-01-02 03:12:58.07	77.76	39.66	-35.6	-36.5	22.8	0.00e+00	0	40	0	2014314496	41	4011
2026-01-02 03:12:59.07	78.20	39.74	-35.7	-36.5	22.8	0.00e+00	0	40	0	2021654528	41	4018
2026-01-02 03:13:00.07	78.64	39.83	-35.8	-36.6	22.7	0.00e+00	0	40	0	2027945984	41	4076
2026-01-02 03:13:01.07	79.08	39.91	-35.9	-36.7	22.7	0.00e+00	0	40	0	2035286016	41	4125
2026-01-02 03:13:02.08	79.53	39.99	-35.8	-36.7	22.6	0.00e+00	0	40	0	2042626048	41	4121
2026-01-02 03:13:03.08	79.97	40.07	-35.7	-36.6	22.8	0.00e+00	0	40	0	2049966080	41	4059
2026-01-02 03:13:04.08	80.42	40.14	-35.5	-36.4	22.9	0.00e+00	0	40	0	2057306112	41	3960
2026-01-02 03:13:05.08	80.87	40.22	-35.4	-36.2	23.1	0.00e+00	0	40	0	2064646144	41	3894
2026-01-02 03:13:06.08	81.32	40.29	-35.5	-36.4	22.9	0.00e+00	0	40	0	2071986176	41	3960
2026-01-02 03:13:07.08	81.78	40.36	-35.7	-36.5	22.8	0.00e+00	0	40	0	2079326208	41	4049
2026-01-02 03:13:08.08	82.24	40.43	-35.8	-36.6	22.7	0.00e+00	0	40	0	2086666240	41	4085
2026-01-02 03:13:09.08	82.69	40.50	-35.8	-36.7	22.6	0.00e+00	0	40	0	2092957696	41	4115
2026-01-02 03:13:10.08	83.15	40.56	-35.9	-36.7	22.6	0.00e+00	0	40	0	2100297728	41	4130
2026-01-02 03:13:11.08	83.62	40.63	-35.7	-36.6	22.7	0.00e+00	0	40	0	2107637760	41	4053
2026-01-02 03:13:12.08	84.08	40.69	-35.4	-36.2	23.0	0.00e+00	0	40	0	2114977792	41	3913
2026-01-02 03:13:13.08	84.54	40.75	-35.5	-36.3	22.9	0.00e+00	0	40	0	2122317824	41	3952
2026-01-02 03:13:14.08	85.01	40.81	-35.5	-36.3	23.0	0.00e+00	0	40	0	2129657856	41	3937
2026-01-02 03:13:15.08	85.48	40.86	-35.6	-36.5	22.8	0.00e+00	0	40	0	2136997888	41	4009
2026-01-02 03:13:16.08	85.95	40.92	-35.6	-36.5	22.8	0.00e+00	0	40	0	2144337920	41	4006
2026-01-02 03:13:17.08	86.42	40.97	-35.7	-36.5	22.8	0.00e+00	0	40	0	2150629376	41	4047
2026-01-02 03:13:18.08	86.89	41.02	-35.8	-36.6	22.7	0.00e+00	0	40	0	2157969408	41	4074
2026-01-02 03:13:19.08	87.37	41.06	-35.8	-36.6	22.7	0.00e+00	0	40	0	2165309440	41	4074
2026-01-02 03:13:20.08	87.85	41.11	-35.9	-36.7	22.6	0.00e+00	0	40	0	2172649472	41	4124
2026-01-02 03:13:21.09	88.33	41.15	-35.9	-36.8	22.6	0.00e+00	0	40	0	2179989504	41	4148
2026-01-02 03:13:22.08	88.80	41.19	-36.0	-36.9	22.4	0.00e+00	0	40	0	2187329536	41	4229
2026-01-02 03:13:23.08	89.28	41.23	-36.1	-37.0	22.4	0.00e+00	0	40	0	2194669568	41	4261
2026-01-02 03:13:24.08	89.76	41.27	-36.2	-37.0	22.3	0.00e+00	0	40	0	2202009600	41	4281
2026-01-02 03:13:25.07	90.24	41.30	-36.1	-37.0	22.4	0.00e+00	0	40	0	2209349632	41	4253
2026-01-02 03:13:26.07	90.72	41.33	-36.0	-36.9	22.4	0.00e+00	0	40	0	2215641088	41	4207
2026-01-02 03:13:27.07	91.21	41.36	-36.0	-36.8	22.5	0.00e+00	0	40	0	2222981120	41	4189
2026-01-02 03:13:28.06	91.68	41.39	-36.0	-36.9	22.5	0.00e+00	0	40	0	2230321152	41	4203
2026-01-02 03:13:29.06	92.17	41.42	-35.9	-36.8	22.5	0.00e+00	0	40	0	2237661184	41	4173
2026-01-02 03:13:30.06	92.66	41.44	-35.9	-36.7	22.6	0.00e+00	0	40	0	2245001216	41	4142
2026-01-02 03:13:31.07	93.15	41.46	-35.8	-36.7	22.6	0.00e+00	0	40	0	2252341248	41	4104
2026-01-02 03:13:32.06	93.63	41.48	-35.8	-36.6	22.7	0.00e+00	0	40	0	2258632704	41	4097
2026-01-02 03:13:33.06	94.12	41.50	-35.7	-36.5	22.8	0.00e+00	0	40	0	2265972736	41	4027
2026-01-02 03:13:34.06	94.61	41.51	-35.7	-36.5	22.8	0.00e+00	0	40	0	2273312768	41	4025
2026-01-02 03:13:35.05	95.09	41.52	-35.8	-36.6	22.7	0.00e+00	0	40	0	2280652800	41	4072
2026-01-02 03:13:36.05	95.58	41.53	-35.8	-36.7	22.6	0.00e+00	0	40	0	2287992832	41	4110
2026-01-02 03:13:37.05	96.07	41.54	-35.8	-36.7	22.6	0.00e+00	0	40	0	2295332864	41	4115
2026-01-02 03:13:38.05	96.56	41.55	-35.8	-36.6	22.7	0.00e+00	0	40	0	2302672896	41	4089
2026-01-02 03:13:39.05	97.05	41.55	-35.9	-36.8	22.5	0.00e+00	0	40	0	2310012928	41	4156
2026-01-02 03:13:40.04	97.54	41.55	-35.9	-36.7	22.7	0.00e+00	0	40	0	2316304384	41	4116
2026-01-02 03:13:41.04	98.03	41.55	-36.0	-36.8	22.5	0.00e+00	0	40	0	2323644416	41	4170
2026-01-02 03:13:42.03	98.51	41.54	-36.0	-36.8	22.4	0.00e+00	0	40	0	2330984448	41	4175
2026-01-02 03:13:43.03	99.00	41.54	-36.1	-36.9	22.4	0.00e+00	0	40	0	2338324480	41	4235
2026-01-02 03:13:44.03	99.49	41.53	-36.1	-37.0	22.4	0.00e+00	0	40	0	2345664512	41	4251
2026-01-02 03:13:45.03	99.98	41.52	-36.2	-37.1	22.3	0.00e+00	0	40	0	2353004544	41	4296
2026-01-02 03:13:46.03	100.47	41.50	-36.2	-37.0	22.3	0.00e+00	0	40	0	2360344576	41	4291
2026-01-02 03:13:47.03	100.96	41.49	-36.2	-37.1	22.3	0.00e+00	0	40	0	2367684608	41	4295
2026-01-02 03:13:48.03	101.44	41.47	-36.1	-37.0	22.4	0.00e+00	0	40	0	2375024640	41	4253
2026-01-02 03:13:49.02	101.93	41.45	-35.8	-36.6	22.6	0.00e+00	0	40	0	2381316096	41	4092
2026-01-02 03:13:50.03	102.42	41.43	-35.8	-36.7	22.6	0.00e+00	0	40	0	2388656128	41	4106
2026-01-02 03:13:51.03	102.90	41.40	-35.8	-36.6	22.7	0.00e+00	0	40	0	2395996160	41	4089
2026-01-02 03:13:52.03	103.39	41.38	-35.8	-36.6	22.7	0.00e+00	0	40	0	2403336192	41	4079
2026-01-02 03:13:53.03	103.87	41.35	-35.7	-36.6	22.8	0.00e+00	0	40	0	2410676224	41	4061
2026-01-02 03:13:54.03	104.36	41.32	-35.8	-36.6	22.7	0.00e+00	0	40	0	2418016256	41	4064
2026-01-02 03:13:55.02	104.84	41.28	-35.8	-36.6	22.7	0.00e+00	0	40	0	2425356288	41	4093
2026-01-02 03:13:56.01	105.31	41.25	-35.8	-36.6	22.7	0.00e+00	0	40	0	2431647744	41	4074
2026-01-02 03:13:57.01	105.79	41.21	-35.8	-36.7	22.6	0.00e+00	0	40	0	2438987776	41	4112
2026-01-02 03:13:58.01	106.27	41.17	-35.9	-36.7	22.6	0.00e+00	0	40	0	2446327808	41	4123
2026-01-02 03:13:59.00	106.75	41.13	-35.9	-36.7	22.6	0.00e+00	0	40	0	2453667840	41	4112
2026-01-02 03:14:00.00	107.22	41.09	-36.0	-36.9	22.5	0.00e+00	0	40	0	2461007872	41	4205
2026-01-02 03:14:01.00	107.70	41.04	-36.1	-37.0	22.3	0.00e+00	0	40	0	2468347904	41	4244
2026-01-02 03:14:01.99	108.17	40.99	-35.9	-36.8	22.5	0.00e+00	0	40	0	2475687936	41	4156
2026-01-02 03:14:02.99	108.64	40.94	-36.0	-36.8	22.5	0.00e+00	0	40	0	2481979392	41	4174
2026-01-02 03:14:03.99	109.12	40.89	-36.0	-36.8	22.5	0.00e+00	0	40	0	2489319424	41	4175
2026-01-02 03:14:04.99	109.59	40.83	-36.3	-37.1	22.2	0.00e+00	0	40	0	2496659456	41	4333
2026-01-02 03:14:05.99	110.05	40.78	-36.4	-37.3	22.1	0.00e+00	0	40	0	2503999488	42	4156
2026-01-02 03:14:06.99	110.52	40.72	-36.4	-37.2	22.2	0.00e+00	0	40	0	2511339520	42	4139
2026-01-02 03:14:07.99	110.99	40.66	-36.4	-37.2	22.1	0.00e+00	0	40	0	2518679552	42	4139
2026-01-02 03:14:08.99	111.45	40.59	-36.3	-37.1	22.3	0.00e+00	0	40	0	2526019584	42	4087
2026-01-02 03:14:09.98	111.91	40.53	-36.1	-36.9	22.4	0.00e+00	0	40	0	2533359616	42	4000
2026-01-02 03:14:10.98	112.37	40.46	-35.9	-36.7	22.6	0.00e+00	0	40	0	2540699648	42	3891
2026-01-02 03:14:11.98	112.82	40.40	-35.9	-36.7	22.6	0.00e+00	0	40	0	2546991104	42	3890
2026-01-02 03:14:12.97	113.28	40.33	-36.0	-36.8	22.5	0.00e+00	0	40	0	2554331136	42	3952
2026-01-02 03:14:13.97	113.73	40.25	-36.2	-37.0	22.3	0.00e+00	0	40	0	2561671168	42	4049
2026-01-02 03:14:14.97	114.18	40.18	-36.4	-37.3	22.1	0.00e+00	0	40	0	2569011200	42	4156
2026-01-02 03:14:15.97	114.63	40.10	-36.6	-37.4	22.0	0.00e+00	0	40	0	2576351232	42	4240
2026-01-02 03:14:16.96	115.08	40.03	-36.3	-37.2	22.2	0.00e+00	0	40	0	2582642688	42	4116
2026-01-02 03:14:17.96	115.52	39.95	-36.0	-36.9	22.5	0.00e+00	0	40	0	2589982720	42	3973
2026-01-02 03:14:18.96	115.97	39.87	-35.8	-36.6	22.7	0.00e+00	0	40	0	2597322752	42	3861
2026-01-02 03:14:19.96	116.41	39.79	-35.7	-36.6	22.8	0.00e+00	0	40	0	2604662784	42	3827
2026-01-02 03:14:20.96	116.85	39.70	-35.8	-36.7	22.7	0.00e+00	0	40	0	2612002816	42	3884
2026-01-02 03:14:21.96	117.28	39.62	-35.9	-36.8	22.6	0.00e+00	0	40	0	2619342848	42	3914
2026-01-02 03:14:22.96	117.72	39.53	-35.9	-36.7	22.6	0.00e+00	0	40	0	2626682880	42	3907
2026-01-02 03:14:23.95	118.15	39.44	-35.8	-36.6	22.7	0.00e+00	0	40	0	2634022912	42	3852
2026-01-02 03:14:24.95	118.58	39.35	-35.8	-36.7	22.7	0.00e+00	0	40	0	2641362944	42	3879
2026-01-02 03:14:25.95	119.00	39.26	-36.0	-36.8	22.5	0.00e+00	0	40	0	2647654400	42	3940
2026-01-02 03:14:26.95	119.43	39.16	-35.8	-36.6	22.7	0.00e+00	0	40	0	2654994432	42	3852
2026-01-02 03:14:27.95	119.85	39.07	-35.7	-36.5	22.8	0.00e+00	0	40	0	2662334464	42	3799
2026-01-02 03:14:28.95	120.27	38.97	-35.7	-36.5	22.6	0.00e+00	0	40	0	2669674496	42	3823
2026-01-02 03:14:29.95	120.69	38.87	-35.7	-36.6	22.7	0.00e+00	0	40	0	2677014528	42	3831
2026-01-02 03:14:30.94	121.10	38.77	-35.8	-36.6	22.7	0.00e+00	0	40	0	2684354560	42	3850
2026-01-02 03:14:31.94	121.52	38.67	-35.9	-36.7	22.6	0.00e+00	0	40	0	2691694592	42	3907
2026-01-02 03:14:32.94	121.93	38.57	-35.9	-36.8	22.6	0.00e+00	0	40	0	2699034624	42	3932
2026-01-02 03:14:33.93	122.33	38.47	-36.1	-36.9	22.4	0.00e+00	0	40	0	2706374656	42	3993
2026-01-02 03:14:34.93	122.74	38.36	-36.1	-36.9	22.4	0.00e+00	0	40	0	2712666112	42	3999
2026-01-02 03:14:35.93	123.14	38.26	-36.1	-37.0	22.4	0.00e+00	0	40	0	2720006144	42	4007
2026-01-02 03:14:36.93	123.54	38.15	-36.1	-37.0	22.3	0.00e+00	0	40	0	2727346176	42	4028
2026-01-02 03:14:37.93	123.94	38.04	-36.1	-37.0	22.4	0.00e+00	0	40	0	2734686208	42	4009
2026-01-02 03:14:38.93	124.33	37.93	-36.1	-36.9	22.4	0.00e+00	0	40	0	2742026240	42	3997
2026-01-02 03:14:39.92	124.72	37.82	-36.0	-36.9	22.4	0.00e+00	0	40	0	2749366272	42	3959
2026-01-02 03:14:40.92	125.11	37.71	-35.9	-36.8	22.5	0.00e+00	0	40	0	2756706304	42	3922
2026-01-02 03:14:41.92	125.50	37.60	-36.0	-36.8	22.5	0.00e+00	0	40	0	2762997760	42	3954
2026-01-02 03:14:42.92	125.88	37.49	-36.0	-36.8	22.5	0.00e+00	0	40	0	2770337792	42	3952
2026-01-02 03:14:43.91	126.26	37.37	-35.9	-36.8	22.6	0.00e+00	0	40	0	2777677824	42	3914
2026-01-02 03:14:44.91	126.64	37.26	-35.9	-36.8	22.5	0.00e+00	0	40	0	2785017856	42	3918
2026-01-02 03:14:45.91	127.02	37.14	-35.9	-36.7	22.6	0.00e+00	0	40	0	2792357888	42	3907
2026-01-02 03:14:46.91	127.39	37.02	-35.9	-36.8	22.5	0.00e+00	0	40	0	2799697920	42	3922
2026-01-02 03:14:47.91	127.76	36.90	-35.8	-36.7	22.7	0.00e+00	0	40	0	2807037952	42	3873
2026-01-02 03:14:48.91	128.13	36.78	-35.8	-36.7	22.6	0.00e+00	0	40	0	2813329408	42	3875
2026-01-02 03:14:49.90	128.49	36.66	-35.7	-36.6	22.7	0.00e+00	0	40	0	2820669440	42	3830
2026-01-02 03:14:50.90	128.86	36.54	-35.8	-36.6	22.7	0.00e+00	0	40	0	2828009472	42	3855
2026-01-02 03:14:51.90	129.22	36.42	-35.9	-36.8	22.5	0.00e+00	0	40	0	2835349504	42	3914
2026-01-02 03:14:52.90	129.58	36.30	-35.8	-36.6	22.7	0.00e+00	0	40	0	2842689536	42	3853
2026-01-02 03:14:53.89	129.93	36.18	-35.9	-36.7	22.5	0.00e+00	0	40	0	2850029568	42	3895
2026-01-02 03:14:54.90	130.28	36.05	-35.8	-36.6	22.7	0.00e+00	0	40	0	2857369600	42	3843
2026-01-02 03:14:55.90	130.63	35.93	-35.7	-36.6	22.8	0.00e+00	0	40	0	2864709632	42	3826
2026-01-02 03:14:56.89	130.98	35.80	-35.6	-36.5	22.8	0.00e+00	0	40	0	2872049664	42	3781
2026-01-02 03:14:57.89	131.32	35.68	-35.5	-36.4	22.9	0.00e+00	0	40	0	2878341120	41	3969
2026-01-02 03:14:58.88	131.66	35.55	-35.7	-36.5	22.8	0.00e+00	0	40	0	2885681152	41	4026
2026-01-02 03:14:59.88	132.00	35.42	-35.8	-36.6	22.6	0.00e+00	0	40	0	2893021184	41	4082
2026-01-02 03:15:00.88	132.34	35.29	-35.8	-36.6	22.5	0.00e+00	0	40	0	2900361216	41	4082
2026-01-02 03:15:01.88	132.67	35.17	-36.0	-36.9	22.5	0.00e+00	0	40	0	2907701248	41	4202
2026-01-02 03:15:02.87	133.00	35.04	-36.1	-36.9	22.4	0.00e+00	0	40	0	2915041280	41	4233
2026-01-02 03:15:03.87	133.33	34.91	-36.1	-37.0	22.3	0.00e+00	0	40	0	2922381312	41	4253
2026-01-02 03:15:04.86	133.65	34.78	-36.1	-37.0	22.3	0.00e+00	0	40	0	2928672768	41	4254
2026-01-02 03:15:05.86	133.98	34.65	-36.0	-36.8	22.5	0.00e+00	0	40	0	2936012800	41	4181
2026-01-02 03:15:06.86	134.30	34.52	-35.8	-36.7	22.6	0.00e+00	0	40	0	2943352832	41	4111
2026-01-02 03:15:07.86	134.62	34.39	-35.7	-36.6	22.7	0.00e+00	0	40	0	2950692864	41	4059
2026-01-02 03:15:08.86	134.94	34.25	-35.8	-36.6	22.7	0.00e+00	0	40	0	2958032896	41	4080
2026-01-02 03:15:09.86	135.25	34.12	-35.6	-36.5	22.8	0.00e+00	0	40	0	2965372928	41	4015
2026-01-02 03:15:10.86	135.56	33.99	-35.7	-36.6	22.7	0.00e+00	0	40	0	2972712960	41	4058
2026-01-02 03:15:11.85	135.87	33.86	-35.7	-36.6	22.5	0.00e+00	0	40	0	2979004416	41	4066
2026-01-02 03:15:12.85	136.18	33.72	-35.7	-36.5	22.7	0.00e+00	0	40	0	2986344448	41	4050
2026-01-02 03:15:13.85	136.48	33.59	-35.8	-36.7	22.6	0.00e+00	0	40	0	2993684480	41	4103
2026-01-02 03:15:14.84	136.78	33.46	-35.9	-36.8	22.5	0.00e+00	0	40	0	3001024512	41	4155
2026-01-02 03:15:15.84	137.08	33.32	-36.1	-37.0	22.3	0.00e+00	0	40	0	3008364544	41	4259
2026-01-02 03:15:16.84	137.37	33.19	-36.3	-37.2	22.1	0.00e+00	0	40	0	3015704576	41	4350
2026-01-02 03:15:17.84	137.67	33.05	-36.3	-37.2	22.2	0.00e+00	0	40	0	3023044608	42	4121
2026-01-02 03:15:18.84	137.96	32.92	-36.3	-37.2	22.2	0.00e+00	0	40	0	3030384640	42	4104
2026-01-02 03:15:19.84	138.25	32.78	-36.3	-37.2	22.2	0.00e+00	0	40	0	3037724672	42	4110
2026-01-02 03:15:20.84	138.54	32.65	-36.2	-37.1	22.2	0.00e+00	0	40	0	3044016128	42	4083
2026-01-02 03:15:21.84	138.82	32.51	-36.2	-37.1	21.8	0.00e+00	0	40	0	3051356160	42	4071
2026-01-02 03:15:22.84	139.11	32.38	-35.9	-36.8	22.5	0.00e+00	0	40	0	3058696192	42	3932
2026-01-02 03:15:23.83	139.38	32.24	-35.9	-36.8	22.5	0.00e+00	0	40	0	3066036224	42	3915
2026-01-02 03:15:24.84	139.66	32.10	-35.8	-36.6	22.7	0.00e+00	0	40	0	3073376256	42	3867
2026-01-02 03:15:25.82	139.94	31.97	-35.7	-36.5	22.8	0.00e+00	0	40	0	3080716288	42	3800
2026-01-02 03:15:26.82	140.21	31.84	-35.8	-36.7	22.6	0.00e+00	0	40	0	3088056320	42	3873
2026-01-02 03:15:27.82	140.48	31.70	-35.9	-36.8	22.5	0.00e+00	0	40	0	3095396352	42	3931
2026-01-02 03:15:28.81	140.75	31.56	-36.0	-36.9	22.5	0.00e+00	0	40	0	3101687808	42	3963
2026-01-02 03:15:29.81	141.01	31.43	-36.1	-37.0	22.3	0.00e+00	0	40	0	3109027840	42	4009
2026-01-02 03:15:30.81	141.28	31.29	-36.2	-37.0	22.3	0.00e+00	0	40	0	3116367872	42	4037
2026-01-02 03:15:31.81	141.54	31.16	-36.1	-37.0	22.3	0.00e+00	0	40	0	3123707904	42	4016
2026-01-02 03:15:32.81	141.80	31.02	-36.2	-37.1	21.9	0.00e+00	0	40	0	3131047936	42	4069
2026-01-02 03:15:33.81	142.06	30.88	-36.1	-36.9	22.4	0.00e+00	0	40	0	3138387968	42	3994
2026-01-02 03:15:34.80	142.31	30.75	-36.0	-36.9	22.4	0.00e+00	0	40	0	3144679424	42	3970
2026-01-02 03:15:35.80	142.57	30.61	-36.1	-36.9	22.4	0.00e+00	0	40	0	3152019456	42	3981
2026-01-02 03:15:36.80	142.82	30.47	-36.2	-37.0	22.3	0.00e+00	0	40	0	3159359488	42	4036
2026-01-02 03:15:37.80	143.07	30.34	-36.1	-36.9	22.3	0.00e+00	0	40	0	3166699520	42	4003
2026-01-02 03:15:38.79	143.32	30.20	-36.2	-37.0	22.3	0.00e+00	0	40	0	3174039552	42	4035
2026-01-02 03:15:39.79	143.56	30.07	-36.2	-37.0	22.3	0.00e+00	0	40	0	3181379584	42	4029
2026-01-02 03:15:40.79	143.81	29.93	-36.2	-37.0	22.3	0.00e+00	0	40	0	3188719616	42	4044
2026-01-02 03:15:41.78	144.04	29.80	-36.3	-37.1	22.2	0.00e+00	0	40	0	3196059648	42	4085
2026-01-02 03:15:42.78	144.28	29.66	-36.2	-37.0	22.3	0.00e+00	0	40	0	3202351104	42	4042
2026-01-02 03:15:43.78	144.52	29.53	-36.2	-37.0	22.3	0.00e+00	0	40	0	3209691136	42	4048
2026-01-02 03:15:44.78	144.76	29.39	-36.2	-37.0	22.3	0.00e+00	0	40	0	3217031168	42	4039
2026-01-02 03:15:45.78	144.99	29.25	-36.2	-37.1	22.2	0.00e+00	0	40	0	3224371200	42	4060
2026-01-02 03:15:46.77	145.22	29.12	-36.1	-37.0	22.4	0.00e+00	0	40	0	3231711232	42	4014
2026-01-02 03:15:47.77	145.45	28.99	-36.3	-37.1	22.2	0.00e+00	0	40	0	3239051264	42	4076
2026-01-02 03:15:48.76	145.68	28.85	-36.1	-36.9	22.4	0.00e+00	0	40	0	3245342720	42	3977
2026-01-02 03:15:49.76	145.91	28.72	-36.2	-37.0	22.3	0.00e+00	0	40	0	3252682752	42	4028
2026-01-02 03:15:50.76	146.13	28.58	-36.1	-37.0	22.2	0.00e+00	0	40	0	3260022784	42	4012
2026-01-02 03:15:51.76	146.35	28.45	-36.1	-37.0	22.3	0.00e+00	0	40	0	3267362816	42	4014
2026-01-02 03:15:52.75	146.57	28.32	-36.2	-37.0	22.2	0.00e+00	0	40	0	3274702848	42	4041
2026-01-02 03:15:53.75	146.79	28.18	-36.3	-37.1	22.2	0.00e+00	0	40	0	3282042880	42	4092
2026-01-02 03:15:54.75	147.01	28.05	-36.2	-37.1	22.2	0.00e+00	0	40	0	3289382912	42	4070
2026-01-02 03:15:55.75	147.22	27.91	-36.3	-37.2	22.1	0.00e+00	0	40	0	3296722944	42	4114
2026-01-02 03:15:56.75	147.44	27.78	-36.3	-37.2	22.2	0.00e+00	0	40	0	3304062976	42	4099
2026-01-02 03:15:57.75	147.65	27.65	-36.2	-37.1	22.2	0.00e+00	0	40	0	3310354432	42	4068
2026-01-02 03:15:58.74	147.86	27.52	-36.2	-37.1	22.2	0.00e+00	0	40	0	3317694464	42	4065
2026-01-02 03:15:59.74	148.07	27.38	-36.1	-37.0	22.3	0.00e+00	0	40	0	3325034496	42	4032
2026-01-02 03:16:00.74	148.27	27.25	-36.2	-37.1	22.3	0.00e+00	0	40	0	3332374528	42	4052
2026-01-02 03:16:01.73	148.48	27.12	-36.2	-37.0	22.3	0.00e+00	0	40	0	3339714560	42	4045
2026-01-02 03:16:02.73	148.68	26.99	-36.2	-37.0	22.3	0.00e+00	0	40	0	3347054592	42	4049
2026-01-02 03:16:03.73	148.88	26.86	-36.2	-37.1	22.2	0.00e+00	0	40	0	3354394624	42	4066
2026-01-02 03:16:04.72	149.08	26.73	-36.2	-37.1	22.2	0.00e+00	0	40	0	3361734656	42	4067
2026-01-02 03:16:05.72	149.28	26.60	-36.3	-37.2	22.1	0.00e+00	0	40	0	3368026112	42	4107
2026-01-02 03:16:06.72	149.48	26.46	-36.3	-37.2	22.1	0.00e+00	0	40	0	3375366144	42	4117
2026-01-02 03:16:07.72	149.67	26.33	-36.5	-37.4	22.0	0.00e+00	0	40	0	3382706176	42	4195
2026-01-02 03:16:08.72	149.87	26.20	-36.5	-37.4	21.9	0.00e+00	0	40	0	3390046208	42	4204
2026-01-02 03:16:09.71	150.06	26.07	-36.5	-37.4	21.9	0.00e+00	0	40	0	3397386240	42	4219
2026-01-02 03:16:10.71	150.25	25.95	-36.5	-37.4	21.9	0.00e+00	0	40	0	3404726272	42	4218
2026-01-02 03:16:11.71	150.44	25.82	-36.5	-37.5	21.8	0.00e+00	0	40	0	3411017728	42	4244
2026-01-02 03:16:12.71	150.63	25.69	-36.5	-37.4	21.9	0.00e+00	0	40	0	3418357760	42	4239
2026-01-02 03:16:13.70	150.81	25.56	-36.5	-37.4	22.0	0.00e+00	0	40	0	3425697792	42	4201
2026-01-02 03:16:14.70	151.00	25.43	-36.4	-37.3	22.0	0.00e+00	0	40	0	3433037824	42	4176
2026-01-02 03:16:15.70	151.18	25.30	-36.4	-37.3	22.0	0.00e+00	0	40	0	3440377856	42	4171
2026-01-02 03:16:16.69	151.36	25.18	-36.5	-37.4	21.9	0.00e+00	0	40	0	3447717888	42	4226
2026-01-02 03:16:17.69	151.54	25.05	-36.5	-37.4	21.9	0.00e+00	0	40	0	3455057920	42	4196
2026-01-02 03:16:18.69	151.72	24.92	-36.3	-37.2	22.1	0.00e+00	0	40	0	3462397952	42	4127
2026-01-02 03:16:19.69	151.90	24.79	-36.3	-37.2	22.1	0.00e+00	0	40	0	3469737984	42	4121
2026-01-02 03:16:20.68	152.07	24.67	-36.4	-37.3	22.0	0.00e+00	0	40	0	3476029440	42	4155
2026-01-02 03:16:21.69	152.25	24.54	-36.4	-37.2	22.1	0.00e+00	0	40	0	3483369472	42	4139
2026-01-02 03:16:22.69	152.42	24.42	-36.4	-37.3	22.0	0.00e+00	0	40	0	3490709504	42	4157
2026-01-02 03:16:23.69	152.60	24.29	-36.5	-37.4	21.8	0.00e+00	0	40	0	3498049536	42	4221
2026-01-02 03:16:24.68	152.77	24.17	-36.6	-37.5	21.8	0.00e+00	0	40	0	3505389568	42	4246
2026-01-02 03:16:25.68	152.94	24.04	-36.5	-37.4	21.9	0.00e+00	0	40	0	3512729600	42	4204
2026-01-02 03:16:26.68	153.11	23.92	-36.6	-37.5	21.9	0.00e+00	0	40	0	3520069632	42	4248
2026-01-02 03:16:27.68	153.27	23.79	-36.7	-37.6	21.8	0.00e+00	0	40	0	3527409664	42	4294
2026-01-02 03:16:28.68	153.44	23.67	-36.6	-37.5	21.8	0.00e+00	0	40	0	3533701120	42	4270
2026-01-02 03:16:29.67	153.60	23.55	-36.6	-37.5	21.8	0.00e+00	0	40	0	3541041152	42	4274
2026-01-02 03:16:30.67	153.76	23.42	-36.5	-37.4	21.9	0.00e+00	0	40	0	3548381184	42	4210
2026-01-02 03:16:31.65	153.92	23.30	-36.5	-37.3	22.0	0.00e+00	0	40	0	3555721216	42	4186
2026-01-02 03:16:32.65	154.08	23.18	-36.4	-37.3	22.0	0.00e+00	0	40	0	3563061248	42	4179
2026-01-02 03:16:33.65	154.24	23.06	-36.4	-37.3	22.0	0.00e+00	0	40	0	3570401280	42	4161
2026-01-02 03:16:34.65	154.40	22.94	-36.3	-37.2	22.1	0.00e+00	0	40	0	3576692736	42	4118
2026-01-02 03:16:35.64	154.56	22.82	-36.3	-37.1	22.1	0.00e+00	0	40	0	3584032768	42	4082
2026-01-02 03:16:36.64	154.72	22.70	-36.3	-37.1	22.1	0.00e+00	0	40	0	3591372800	42	4097
2026-01-02 03:16:37.64	154.87	22.57	-36.4	-37.3	22.0	0.00e+00	0	40	0	3598712832	42	4158
2026-01-02 03:16:38.64	155.02	22.45	-36.5	-37.4	21.9	0.00e+00	0	40	0	3606052864	42	4195
2026-01-02 03:16:39.64	155.18	22.33	-36.6	-37.5	21.8	0.00e+00	0	40	0	3613392896	42	4257
2026-01-02 03:16:40.64	155.33	22.22	-36.6	-37.5	21.7	0.00e+00	0	40	0	3620732928	42	4288
2026-01-02 03:16:41.64	155.48	22.10	-36.7	-37.6	21.7	0.00e+00	0	40	0	3628072960	42	4313
2026-01-02 03:16:42.64	155.63	21.98	-36.8	-37.8	21.6	0.00e+00	0	40	0	3635412992	43	4148
2026-01-02 03:16:43.63	155.77	21.86	-36.8	-37.7	21.6	0.00e+00	0	40	0	3641704448	43	4118
2026-01-02 03:16:44.63	155.92	21.74	-36.9	-37.8	21.5	0.00e+00	0	40	0	3649044480	43	4154
2026-01-02 03:16:45.63	156.07	21.62	-36.8	-37.7	21.6	0.00e+00	0	40	0	3656384512	43	4113
2026-01-02 03:16:46.63	156.21	21.51	-36.9	-37.8	21.5	0.00e+00	0	40	0	3663724544	43	4178
2026-01-02 03:16:47.63	156.36	21.39	-36.7	-37.6	21.6	0.00e+00	0	40	0	3671064576	43	4085
2026-01-02 03:16:48.62	156.50	21.27	-36.9	-37.7	21.5	0.00e+00	0	40	0	3678404608	43	4145
2026-01-02 03:16:49.62	156.64	21.16	-36.7	-37.6	21.6	0.00e+00	0	40	0	3685744640	43	4082
2026-01-02 03:16:50.61	156.78	21.04	-36.7	-37.5	21.7	0.00e+00	0	40	0	3693084672	43	4041
2026-01-02 03:16:51.61	156.92	20.93	-36.6	-37.5	21.7	0.00e+00	0	40	0	3699376128	43	4040
2026-01-02 03:16:52.61	157.06	20.81	-36.6	-37.4	21.8	0.00e+00	0	40	0	3706716160	43	3997
2026-01-02 03:16:53.61	157.20	20.70	-36.6	-37.5	21.8	0.00e+00	0	40	0	3714056192	43	4012
2026-01-02 03:16:54.61	157.33	20.58	-36.7	-37.6	21.7	0.00e+00	0	40	0	3721396224	43	4078
2026-01-02 03:16:55.61	157.47	20.47	-36.7	-37.6	21.7	0.00e+00	0	40	0	3728736256	43	4080
2026-01-02 03:16:56.61	157.60	20.35	-36.8	-37.7	21.6	0.00e+00	0	40	0	3736076288	43	4110
2026-01-02 03:16:57.60	157.74	20.24	-36.8	-37.7	21.6	0.00e+00	0	40	0	3743416320	43	4106
2026-01-02 03:16:58.60	157.87	20.13	-36.8	-37.7	21.6	0.00e+00	0	40	0	3750756352	43	4132
2026-01-02 03:16:59.60	158.00	20.02	-36.9	-37.8	21.4	0.00e+00	0	40	0	3757047808	43	4191
2026-01-02 03:17:00.59	158.13	19.91	-36.9	-37.8	21.5	0.00e+00	0	40	0	3764387840	43	4180
2026-01-02 03:17:01.59	158.26	19.79	-37.0	-37.9	21.4	0.00e+00	0	40	0	3771727872	43	4209
2026-01-02 03:17:02.59	158.39	19.68	-37.0	-38.0	21.3	0.00e+00	0	40	0	3779067904	43	4256
2026-01-02 03:17:03.59	158.52	19.57	-37.1	-38.0	21.3	0.00e+00	0	40	0	3786407936	43	4285
2026-01-02 03:17:04.58	158.64	19.46	-37.1	-38.0	21.3	0.00e+00	0	40	0	3793747968	43	4275
2026-01-02 03:17:05.58	158.77	19.35	-37.1	-38.0	21.2	0.00e+00	0	40	0	3800039424	43	4266
2026-01-02 03:17:06.58	158.90	19.24	-37.2	-38.1	21.2	0.00e+00	0	40	0	3807379456	43	4308
2026-01-02 03:17:07.57	159.02	19.13	-37.2	-38.2	21.1	0.00e+00	0	40	0	3814719488	43	4343
2026-01-02 03:17:08.57	159.14	19.02	-37.5	-38.4	21.0	0.00e+00	0	40	0	3822059520	44	4219
2026-01-02 03:17:09.57	159.27	18.91	-37.5	-38.4	21.0	0.00e+00	0	40	0	3829399552	44	4237
2026-01-02 03:17:10.56	159.39	18.80	-37.3	-38.3	21.2	0.00e+00	0	40	0	3836739584	44	4149
2026-01-02 03:17:11.56	159.51	18.70	-37.3	-38.2	21.3	0.00e+00	0	40	0	3844079616	44	4123
2026-01-02 03:17:12.56	159.63	18.59	-37.3	-38.2	21.2	0.00e+00	0	40	0	3851419648	44	4144
2026-01-02 03:17:13.56	159.75	18.48	-37.3	-38.2	21.2	0.00e+00	0	40	0	3858759680	44	4144
2026-01-02 03:17:14.56	159.87	18.37	-37.3	-38.2	21.3	0.00e+00	0	40	0	3865051136	44	4110
2026-01-02 03:17:15.56	159.99	18.27	-37.3	-38.3	21.2	0.00e+00	0	40	0	3872391168	44	4148
2026-01-02 03:17:16.55	160.10	18.16	-37.4	-38.3	21.2	0.00e+00	0	40	0	3879731200	44	4158
2026-01-02 03:17:17.55	160.22	18.05	-37.4	-38.3	21.1	0.00e+00	0	40	0	3887071232	44	4177
2026-01-02 03:17:18.55	160.33	17.95	-37.3	-38.2	21.2	0.00e+00	0	40	0	3894411264	44	4120
2026-01-02 03:17:19.55	160.45	17.84	-37.3	-38.2	21.2	0.00e+00	0	40	0	3901751296	44	4120
2026-01-02 03:17:20.55	160.56	17.74	-37.3	-38.2	21.2	0.00e+00	0	40	0	3908042752	44	4131
2026-01-02 03:17:21.54	160.68	17.63	-37.3	-38.2	21.2	0.00e+00	0	40	0	3915382784	44	4140
2026-01-02 03:17:22.54	160.79	17.53	-37.4	-38.3	21.1	0.00e+00	0	40	0	3922722816	44	4156
2026-01-02 03:17:23.54	160.90	17.42	-37.4	-38.3	21.1	0.00e+00	0	40	0	3930062848	44	4158
2026-01-02 03:17:24.54	161.01	17.32	-37.3	-38.2	21.2	0.00e+00	0	40	0	3937402880	44	4140
2026-01-02 03:17:25.53	161.12	17.22	-37.4	-38.3	21.1	0.00e+00	0	40	0	3944742912	44	4193
2026-01-02 03:17:26.53	161.23	17.12	-37.6	-38.5	20.9	0.00e+00	0	40	0	3952082944	44	4253
2026-01-02 03:17:27.53	161.34	17.01	-37.5	-38.4	21.0	0.00e+00	0	40	0	3959422976	44	4227
2026-01-02 03:17:28.52	161.45	16.91	-37.5	-38.4	20.9	0.00e+00	0	40	0	3965714432	44	4236
2026-01-02 03:17:29.53	161.56	16.81	-37.6	-38.5	20.9	0.00e+00	0	40	0	3973054464	44	4257
2026-01-02 03:17:30.52	161.66	16.71	-37.7	-38.6	20.8	0.00e+00	0	40	0	3980394496	44	4318
2026-01-02 03:17:31.52	161.77	16.61	-37.7	-38.7	20.8	0.00e+00	0	40	0	3987734528	44	4347
2026-01-02 03:17:32.52	161.87	16.50	-37.8	-38.7	20.7	0.00e+00	0	40	0	3995074560	45	4127
2026-01-02 03:17:33.52	161.98	16.40	-37.7	-38.7	20.7	0.00e+00	0	40	0	4002414592	45	4111
2026-01-02 03:17:34.51	162.08	16.30	-37.9	-38.9	20.6	0.00e+00	0	40	0	4009754624	45	4200
2026-01-02 03:17:35.52	162.19	16.20	-37.9	-38.8	20.6	0.00e+00	0	40	0	4017094656	45	4178
2026-01-02 03:17:36.51	162.29	16.10	-37.9	-38.9	20.4	0.00e+00	0	40	0	4024434688	45	4205
2026-01-02 03:17:37.51	162.39	16.00	-38.0	-39.0	20.5	0.00e+00	0	40	0	4030726144	45	4248
2026-01-02 03:17:38.51	162.49	15.90	-38.1	-39.0	20.4	0.00e+00	0	40	0	4038066176	45	4286
2026-01-02 03:17:39.50	162.59	15.81	-38.0	-39.0	20.4	0.00e+00	0	40	0	4045406208	45	4270
2026-01-02 03:17:40.50	162.69	15.71	-38.1	-39.1	20.4	0.00e+00	0	40	0	4052746240	45	4310
2026-01-02 03:17:41.50	162.79	15.61	-38.1	-39.1	20.4	0.00e+00	0	40	0	4060086272	45	4307
2026-01-02 03:17:42.50	162.89	15.51	-38.2	-39.2	20.3	0.00e+00	0	40	0	4067426304	45	4350
2026-01-02 03:17:43.50	162.99	15.41	-38.4	-39.4	20.1	0.00e+00	0	40	0	4074766336	46	4202
2026-01-02 03:17:44.49	163.08	15.32	-38.3	-39.2	20.2	0.00e+00	0	40	0	4081057792	46	4144
2026-01-02 03:17:45.49	163.18	15.22	-38.3	-39.3	20.1	0.00e+00	0	40	0	4088397824	46	4184
2026-01-02 03:17:46.49	163.28	15.12	-38.2	-39.2	20.3	0.00e+00	0	40	0	4095737856	46	4117
2026-01-02 03:17:47.48	163.37	15.03	-38.3	-39.2	20.2	0.00e+00	0	40	0	4103077888	46	4141
2026-01-02 03:17:48.48	163.47	14.93	-38.4	-39.3	20.1	0.00e+00	0	40	0	4110417920	46	4189
2026-01-02 03:17:49.48	163.56	14.84	-38.3	-39.3	20.2	0.00e+00	0	40	0	4117757952	46	4155
2026-01-02 03:17:50.48	163.66	14.74	-38.3	-39.2	20.2	0.00e+00	0	40	0	4125097984	46	4135
2026-01-02 03:17:51.48	163.75	14.65	-38.3	-39.2	20.2	0.00e+00	0	40	0	4131389440	46	4132
2026-01-02 03:17:52.47	163.84	14.55	-38.3	-39.2	20.2	0.00e+00	0	40	0	4138729472	46	4140
2026-01-02 03:17:53.47	163.93	14.46	-38.3	-39.2	20.2	0.00e+00	0	40	0	4146069504	46	4136
2026-01-02 03:17:54.47	164.03	14.36	-38.3	-39.3	20.1	0.00e+00	0	40	0	4153409536	46	4165
2026-01-02 03:17:55.47	164.12	14.27	-38.3	-39.3	20.1	0.00e+00	0	40	0	4160749568	46	4169
2026-01-02 03:17:56.47	164.21	14.18	-38.3	-39.3	20.2	0.00e+00	0	40	0	4168089600	46	4151
2026-01-02 03:17:57.47	164.30	14.08	-38.4	-39.4	20.0	0.00e+00	0	40	0	4175429632	46	4215
2026-01-02 03:17:58.47	164.39	13.99	-38.4	-39.4	20.1	0.00e+00	0	40	0	4182769664	46	4214
2026-01-02 03:17:59.47	164.48	13.90	-38.5	-39.5	20.0	0.00e+00	0	40	0	4190109696	46	4251
2026-01-02 03:18:00.46	164.57	13.80	-38.5	-39.4	20.0	0.00e+00	0	40	0	4196401152	46	4241
2026-01-02 03:18:01.46	164.65	13.71	-38.5	-39.5	19.9	0.00e+00	0	40	0	4203741184	46	4281
2026-01-02 03:18:02.46	164.74	13.62	-38.6	-39.6	19.8	0.00e+00	0	40	0	4211081216	46	4317
2026-01-02 03:18:03.46	164.83	13.53	-38.7	-39.7	19.8	0.00e+00	0	40	0	4218421248	46	4352
2026-01-02 03:18:04.46	164.91	13.44	-38.7	-39.7	19.7	0.00e+00	0	40	0	4225761280	46	4388
2026-01-02 03:18:05.46	165.00	13.35	-38.7	-39.7	19.7	0.00e+00	0	40	0	4233101312	47	4131
2026-01-02 03:18:06.45	165.08	13.26	-38.7	-39.8	19.6	0.00e+00	0	40	0	4240441344	47	4154
2026-01-02 03:18:07.45	165.17	13.17	-38.7	-39.8	19.7	0.00e+00	0	40	0	4247781376	47	4160
2026-01-02 03:18:08.45	165.25	13.08	-38.8	-39.8	19.6	0.00e+00	0	40	0	4255121408	47	4180
2026-01-02 03:18:09.45	165.34	12.99	-38.8	-39.8	19.6	0.00e+00	0	40	0	4261412864	47	4186
2026-01-02 03:18:10.44	165.42	12.90	-38.8	-39.8	19.6	0.00e+00	0	40	0	4268752896	47	4183
2026-01-02 03:18:11.44	165.50	12.81	-38.9	-39.9	19.5	0.00e+00	0	40	0	4276092928	47	4220
2026-01-02 03:18:12.44	165.59	12.72	-38.9	-40.0	19.4	0.00e+00	0	40	0	4283432960	47	4271
2026-01-02 03:18:13.43	165.67	12.63	-38.8	-39.9	19.5	0.00e+00	0	40	0	4290772992	47	4209
2026-01-02 03:18:14.42	165.75	12.54	-38.9	-40.0	19.4	0.00e+00	0	40	0	4297064448	47	4270
2026-01-02 03:18:15.43	165.83	12.45	-39.0	-40.0	19.4	0.00e+00	0	40	0	4304404480	47	4282
2026-01-02 03:18:16.42	165.91	12.37	-38.9	-40.0	19.4	0.00e+00	0	40	0	4311744512	47	4273
2026-01-02 03:18:17.42	165.99	12.28	-39.0	-40.0	19.4	0.00e+00	0	40	0	4319084544	47	4286
2026-01-02 03:18:18.42	166.07	12.19	-39.1	-40.1	19.3	0.00e+00	0	40	0	4326424576	47	4340
2026-01-02 03:18:19.42	166.15	12.10	-39.0	-40.0	19.4	0.00e+00	0	40	0	4333764608	47	4283
2026-01-02 03:18:20.42	166.23	12.02	-39.0	-40.1	19.3	0.00e+00	0	40	0	4341104640	47	4316
2026-01-02 03:18:21.41	166.31	11.93	-39.1	-40.2	19.3	0.00e+00	0	40	0	4348444672	47	4344
2026-01-02 03:18:22.41	166.38	11.84	-38.9	-40.0	19.4	0.00e+00	0	40	0	4355784704	47	4284
2026-01-02 03:18:23.40	166.46	11.76	-39.0	-40.1	19.3	0.00e+00	0	40	0	4362076160	47	4330
2026-01-02 03:18:24.40	166.54	11.67	-39.2	-40.3	19.1	0.00e+00	0	40	0	4369416192	47	4401
2026-01-02 03:18:25.40	166.61	11.59	-39.1	-40.2	18.5	0.00e+00	0	40	0	4376756224	47	4390
2026-01-02 03:18:26.39	166.69	11.50	-39.1	-40.2	19.2	0.00e+00	0	40	0	4384096256	47	4349
2026-01-02 03:18:27.39	166.77	11.42	-39.2	-40.3	19.1	0.00e+00	0	40	0	4391436288	47	4411
2026-01-02 03:18:28.38	166.84	11.33	-39.1	-40.2	19.2	0.00e+00	0	40	0	4398776320	47	4358
2026-01-02 03:18:29.38	166.92	11.25	-39.2	-40.4	19.0	0.00e+00	0	40	0	4405067776	47	4453
2026-01-02 03:18:30.38	166.99	11.16	-39.1	-40.2	19.1	0.00e+00	0	40	0	4412407808	47	4388
2026-01-02 03:18:31.38	167.06	11.08	-39.1	-40.3	19.1	0.00e+00	0	40	0	4419747840	47	4417
2026-01-02 03:18:32.38	167.14	11.00	-39.2	-40.3	19.1	0.00e+00	0	40	0	4427087872	47	4423
2026-01-02 03:18:33.37	167.21	10.91	-39.1	-40.3	19.0	0.00e+00	0	40	0	4434427904	47	4429
2026-01-02 03:18:34.37	167.28	10.83	-39.2	-40.4	19.0	0.00e+00	0	40	0	4441767936	47	4451
2026-01-02 03:18:35.37	167.36	10.75	-39.2	-40.4	18.9	0.00e+00	0	40	0	4449107968	47	4479
2026-01-02 03:18:36.36	167.43	10.66	-39.2	-40.5	18.9	0.00e+00	0	40	0	4456448000	47	4511
2026-01-02 03:18:37.36	167.50	10.58	-39.2	-40.4	18.9	0.00e+00	0	40	0	4462739456	47	4491
2026-01-02 03:18:38.36	167.57	10.50	-39.2	-40.5	18.9	0.00e+00	0	40	0	4470079488	47	4504
2026-01-02 03:18:39.36	167.64	10.42	-39.2	-40.5	18.9	0.00e+00	0	40	0	4477419520	47	4507
2026-01-02 03:18:40.35	167.71	10.34	-39.4	-40.6	19.0	0.00e+00	0	40	0	4484759552	48	4325
2026-01-02 03:18:41.35	167.78	10.25	-39.4	-40.7	18.9	0.00e+00	0	40	0	4492099584	48	4367
2026-01-02 03:18:42.35	167.85	10.17	-39.5	-40.8	18.9	0.00e+00	0	40	0	4499439616	48	4394
2026-01-02 03:18:43.35	167.92	10.09	-39.4	-40.7	18.9	0.00e+00	0	40	0	4505731072	48	4378
2026-01-02 03:18:44.34	167.99	10.01	-39.5	-40.8	18.8	0.00e+00	0	40	0	4513071104	48	4399
2026-01-02 03:18:45.34	168.06	9.93	-39.6	-40.9	18.7	0.00e+00	0	40	0	4520411136	48	4474
2026-01-02 03:18:46.34	168.13	9.85	-39.6	-40.9	18.7	0.00e+00	0	40	0	4527751168	48	4470
2026-01-02 03:18:47.33	168.20	9.77	-39.7	-41.0	18.6	0.00e+00	0	40	0	4535091200	48	4522
2026-01-02 03:18:48.34	168.26	9.69	-39.7	-41.1	18.5	0.00e+00	0	40	0	4542431232	49	4306
2026-01-02 03:18:49.33	168.33	9.61	-39.8	-41.2	18.4	0.00e+00	0	40	0	4549771264	49	4351
2026-01-02 03:18:50.33	168.40	9.53	-39.9	-41.2	18.4	0.00e+00	0	40	0	4557111296	49	4372
