passes_logs/2026/01/02/T1/T1__20260102_215044_NOAA_21_JPSS-2_rec.log

#Pass ID: 20260102_215044_NOAA 21 (JPSS-2)
#Satellite: NOAA 21 (JPSS-2)
#Configuration: NOAA 21
#almurnet v.1.7.20251203
#Start time: 2026-01-02 21:50:45

#Version: 2.0.20230620
#Station: T1
#Location: 37.570604 lon 55.790049 lat
#TLE: 1 54234U 22150A   26002.25486487  .00000200  00000+0  11573-3 0  9993
#TLE: 2 54234  98.7485 303.3096 0001220 350.9074   9.2080 14.19531212163006

#Time	Az	El	Level	Level2	SNR	BER	BlckErr	Temp	State	Recorded	gain1	gain2
2026-01-02 21:50:45.99	34.32	5.10	-48.8	-62.0	3.8	1.49e+00	0	41	0	0	69	16261
2026-01-02 21:50:46.99	34.42	5.15	-48.8	-62.0	3.8	1.49e+00	0	41	104	0	68	17146
2026-01-02 21:50:47.99	34.53	5.20	-48.8	-62.1	3.8	1.49e+00	0	41	104	0	68	17286
2026-01-02 21:50:49.00	34.64	5.25	-48.8	-62.0	3.8	1.49e+00	0	41	104	0	68	17195
2026-01-02 21:50:50.00	34.74	5.31	-48.8	-62.0	3.8	1.49e+00	0	41	104	0	68	17234
2026-01-02 21:50:51.01	34.85	5.36	-48.8	-62.0	3.8	1.49e+00	0	41	104	0	68	17167
2026-01-02 21:50:52.01	34.96	5.41	-48.8	-62.0	3.8	1.49e+00	0	41	104	0	68	17240
2026-01-02 21:50:53.02	35.07	5.46	-48.8	-62.0	3.8	1.49e+00	0	42	104	0	68	17169
2026-01-02 21:50:54.02	35.17	5.51	-48.8	-62.0	3.8	1.49e+00	0	42	104	0	68	17206
2026-01-02 21:50:55.03	35.28	5.56	-48.8	-62.0	3.8	1.49e+00	0	42	104	0	68	17152
2026-01-02 21:50:56.03	35.39	5.62	-48.8	-62.0	3.8	1.49e+00	0	42	104	0	68	17241
2026-01-02 21:50:57.03	35.50	5.67	-48.8	-62.0	3.8	1.49e+00	0	42	104	0	68	17134
2026-01-02 21:50:58.04	35.61	5.72	-48.8	-62.0	3.8	1.49e+00	0	42	104	0	68	17162
2026-01-02 21:50:59.04	35.72	5.77	-48.8	-62.0	3.8	1.49e+00	0	42	104	0	68	17231
2026-01-02 21:51:00.05	35.83	5.82	-48.8	-62.0	3.8	1.49e+00	0	42	104	0	68	17227
2026-01-02 21:51:01.05	35.94	5.87	-48.8	-62.0	3.8	1.49e+00	0	42	104	0	68	17174
2026-01-02 21:51:02.06	36.06	5.93	-48.8	-62.0	3.8	1.49e+00	0	42	104	0	68	17236
2026-01-02 21:51:03.06	36.17	5.98	-48.8	-62.0	3.8	1.49e+00	0	42	104	0	68	17154
2026-01-02 21:51:04.06	36.28	6.03	-48.8	-62.0	3.8	1.49e+00	0	42	104	0	68	17121
2026-01-02 21:51:05.07	36.39	6.08	-48.8	-62.0	3.8	1.49e+00	0	42	104	0	68	17118
2026-01-02 21:51:06.07	36.50	6.13	-48.8	-62.0	3.8	1.49e+00	0	42	104	0	68	17162
2026-01-02 21:51:07.08	36.62	6.19	-48.8	-62.0	3.8	1.49e+00	0	42	104	0	68	17126
2026-01-02 21:51:08.08	36.73	6.24	-48.8	-62.0	3.8	1.49e+00	0	42	104	0	68	17194
2026-01-02 21:51:09.08	36.84	6.29	-48.8	-62.0	3.8	1.49e+00	0	42	104	0	68	17142
2026-01-02 21:51:10.09	36.96	6.34	-48.8	-61.9	3.8	1.49e+00	0	42	104	0	68	17070
2026-01-02 21:51:11.09	37.07	6.39	-48.8	-61.9	3.8	1.49e+00	0	42	104	0	68	17068
2026-01-02 21:51:12.10	37.19	6.44	-48.8	-62.0	3.8	1.49e+00	0	42	104	0	68	17130
2026-01-02 21:51:13.10	37.30	6.50	-48.8	-62.0	3.8	1.49e+00	0	42	104	0	68	17139
2026-01-02 21:51:14.11	37.42	6.55	-48.8	-62.0	3.8	1.49e+00	0	42	104	0	68	17108
2026-01-02 21:51:15.11	37.54	6.60	-48.8	-61.9	3.8	1.49e+00	0	42	104	0	68	17041
2026-01-02 21:51:16.12	37.65	6.65	-48.8	-61.9	3.8	1.49e+00	0	42	104	0	68	17053
2026-01-02 21:51:17.12	37.77	6.70	-48.8	-61.9	3.8	1.49e+00	0	42	104	0	68	17046
2026-01-02 21:51:18.12	37.89	6.76	-48.8	-62.0	3.8	1.49e+00	0	43	104	0	68	17112
2026-01-02 21:51:19.13	38.01	6.81	-48.8	-62.0	3.8	1.49e+00	0	42	104	0	68	17163
2026-01-02 21:51:20.13	38.12	6.86	-48.8	-62.0	3.8	1.49e+00	0	42	104	0	68	17114
2026-01-02 21:51:21.14	38.24	6.91	-48.8	-62.0	3.8	1.49e+00	0	42	104	0	68	17145
2026-01-02 21:51:22.14	38.36	6.96	-48.8	-62.0	3.8	1.49e+00	0	42	104	0	68	17089
2026-01-02 21:51:23.15	38.48	7.02	-48.8	-61.9	3.8	1.49e+00	0	42	104	0	68	17031
2026-01-02 21:51:24.15	38.60	7.07	-48.8	-61.9	3.8	1.49e+00	0	43	104	0	68	17032
2026-01-02 21:51:25.16	38.72	7.12	-48.8	-61.9	3.8	1.49e+00	0	42	104	0	68	16922
2026-01-02 21:51:26.16	38.84	7.17	-48.8	-61.8	3.8	1.49e+00	0	43	104	0	68	16809
2026-01-02 21:51:27.16	38.96	7.22	-48.8	-61.8	3.8	1.49e+00	0	43	104	0	68	16761
2026-01-02 21:51:28.17	39.09	7.27	-48.8	-61.7	3.8	1.49e+00	0	43	104	0	68	16644
2026-01-02 21:51:29.17	39.21	7.33	-48.7	-61.7	3.8	1.49e+00	0	43	104	0	68	16666
2026-01-02 21:51:30.18	39.33	7.38	-48.8	-61.6	3.8	1.49e+00	0	43	104	0	68	16490
2026-01-02 21:51:31.18	39.45	7.43	-48.8	-61.6	3.8	1.49e+00	0	42	104	0	68	16485
2026-01-02 21:51:32.18	39.58	7.48	-48.8	-61.6	3.8	1.49e+00	0	42	104	0	68	16432
2026-01-02 21:51:33.19	39.70	7.53	-48.8	-61.6	3.8	1.49e+00	0	43	104	0	68	16434
2026-01-02 21:51:34.19	39.82	7.59	-48.8	-61.6	3.8	1.49e+00	0	43	104	0	68	16359
2026-01-02 21:51:35.20	39.95	7.64	-48.7	-61.7	3.8	1.49e+00	0	42	104	0	68	16543
2026-01-02 21:51:36.20	40.07	7.69	-48.8	-61.7	3.8	1.49e+00	0	43	104	0	68	16622
2026-01-02 21:51:37.21	40.20	7.74	-48.8	-61.8	3.8	1.49e+00	0	43	104	0	68	16780
2026-01-02 21:51:38.21	40.32	7.79	-48.8	-61.8	3.8	1.49e+00	0	43	104	0	68	16858
2026-01-02 21:51:39.21	40.45	7.85	-48.8	-61.8	3.8	1.49e+00	0	43	104	0	68	16862
2026-01-02 21:51:40.22	40.58	7.90	-48.8	-61.8	3.8	1.49e+00	0	43	104	0	68	16717
2026-01-02 21:51:41.22	40.70	7.95	-48.7	-61.6	3.8	1.49e+00	0	43	104	0	68	16423
2026-01-02 21:51:42.23	40.83	8.00	-48.7	-61.4	3.8	1.49e+00	0	43	104	0	68	15973
2026-01-02 21:51:43.23	40.96	8.05	-48.7	-61.1	3.8	1.49e+00	0	43	104	0	68	15412
2026-01-02 21:51:44.24	41.09	8.11	-48.7	-60.9	3.8	1.49e+00	0	43	104	0	68	15126
2026-01-02 21:51:45.24	41.22	8.16	-48.7	-60.8	3.8	1.49e+00	0	43	104	0	68	15023
2026-01-02 21:51:46.25	41.35	8.21	-48.7	-60.9	3.8	1.49e+00	0	43	104	0	68	15140
2026-01-02 21:51:47.25	41.48	8.26	-48.7	-61.1	3.8	1.49e+00	0	43	104	0	68	15446
2026-01-02 21:51:48.26	41.61	8.31	-48.7	-61.3	3.8	1.49e+00	0	43	104	0	68	15761
2026-01-02 21:51:49.26	41.74	8.36	-48.7	-61.3	3.8	1.49e+00	0	43	104	0	68	15940
2026-01-02 21:51:50.26	41.87	8.42	-48.7	-61.4	3.8	1.49e+00	0	43	104	0	68	16070
2026-01-02 21:51:51.27	42.00	8.47	-48.7	-61.4	3.8	1.49e+00	0	43	104	0	68	16072
2026-01-02 21:51:52.28	42.13	8.52	-48.7	-61.4	3.8	1.49e+00	0	43	104	0	68	15952
2026-01-02 21:51:53.28	42.27	8.57	-48.7	-61.4	3.8	1.49e+00	0	43	104	0	68	15949
2026-01-02 21:51:54.28	42.40	8.62	-48.7	-61.4	3.8	1.49e+00	0	43	104	0	68	16109
2026-01-02 21:51:55.29	42.53	8.67	-48.7	-61.6	3.8	1.49e+00	0	43	104	0	68	16360
2026-01-02 21:51:56.29	42.67	8.73	-48.8	-61.7	3.8	1.49e+00	0	43	104	0	68	16523
2026-01-02 21:51:57.30	42.80	8.78	-48.8	-61.7	3.8	1.49e+00	0	43	104	0	68	16649
2026-01-02 21:51:58.30	42.94	8.83	-48.8	-61.6	3.8	1.49e+00	0	43	104	0	68	16473
2026-01-02 21:51:59.30	43.07	8.88	-48.7	-61.1	3.8	1.49e+00	0	43	104	0	68	15545
2026-01-02 21:52:00.31	43.21	8.93	-48.6	-59.9	3.8	1.49e+00	0	43	104	0	68	13469
2026-01-02 21:52:01.31	43.34	8.98	-48.2	-57.0	4.6	1.36e+00	0	43	104	0	68	9695
2026-01-02 21:52:02.32	43.48	9.03	-47.3	-53.6	6.8	3.54e-01	0	43	0	0	66	7338
2026-01-02 21:52:03.38	43.62	9.09	-47.4	-53.6	7.1	9.20e-02	0	43	0	0	66	7367
2026-01-02 21:52:04.24	43.74	9.13	-48.5	-61.5	3.8	1.49e+00	0	43	104	0	67	17116
2026-01-02 21:52:05.61	43.93	9.20	-47.1	-52.8	7.9	4.08e-03	0	43	0	0	64	7470
2026-01-02 21:52:06.33	44.03	9.24	-47.1	-52.7	7.7	2.16e-01	0	43	0	0	65	7014
2026-01-02 21:52:07.62	44.21	9.31	-42.8	-45.2	15.5	0.00e+00	0	43	0	0	57	4678
2026-01-02 21:52:08.33	44.31	9.34	-42.6	-45.0	15.6	0.00e+00	0	43	0	0	57	4579
2026-01-02 21:52:09.62	44.49	9.41	-42.5	-44.8	15.9	0.00e+00	0	43	0	0	56	4728
2026-01-02 21:52:10.34	44.59	9.44	-42.2	-44.4	16.3	0.00e+00	0	43	0	0	56	4532
2026-01-02 21:52:11.63	44.77	9.51	-41.6	-43.7	16.8	0.00e+00	0	43	0	0	55	4427
2026-01-02 21:52:12.34	44.87	9.55	-41.4	-43.5	17.1	0.00e+00	0	43	0	0	54	4555
2026-01-02 21:52:13.63	45.05	9.61	-41.2	-43.3	17.2	0.00e+00	0	43	0	0	54	4457
2026-01-02 21:52:14.35	45.15	9.65	-41.3	-43.4	17.2	0.00e+00	0	43	0	0	54	4515
2026-01-02 21:52:15.64	45.34	9.71	-41.2	-43.3	17.2	0.00e+00	0	43	0	0	54	4466
2026-01-02 21:52:16.58	45.47	9.76	-41.2	-43.3	17.3	0.00e+00	0	43	0	0	54	4451
2026-01-02 21:52:17.58	45.61	9.81	-41.2	-43.3	17.2	0.00e+00	0	43	0	0	54	4479
2026-01-02 21:52:18.93	45.81	9.88	-41.3	-43.4	17.2	0.00e+00	0	43	0	0	54	4505
2026-01-02 21:52:19.69	45.92	9.92	-41.2	-43.3	17.3	0.00e+00	0	43	0	0	54	4461
2026-01-02 21:52:20.99	46.11	9.98	-40.9	-42.9	17.6	0.00e+00	0	43	0	0	53	4540
2026-01-02 21:52:21.70	46.21	10.02	-41.0	-43.0	17.6	0.00e+00	0	43	0	0	53	4562
2026-01-02 21:52:22.99	46.40	10.08	-41.0	-43.0	17.6	0.00e+00	0	43	0	0	53	4569
2026-01-02 21:52:23.71	46.50	10.12	-41.0	-43.0	17.5	0.00e+00	0	43	0	0	53	4597
2026-01-02 21:52:25.00	46.69	10.18	-40.9	-42.8	17.7	0.00e+00	0	44	0	0	53	4486
2026-01-02 21:52:25.72	46.80	10.22	-40.9	-42.9	17.7	0.00e+00	0	43	0	0	53	4525
2026-01-02 21:52:27.01	46.99	10.28	-41.0	-43.0	17.6	0.00e+00	0	43	0	0	53	4556
2026-01-02 21:52:27.73	47.10	10.32	-40.9	-42.9	17.7	0.00e+00	0	43	0	0	53	4501
2026-01-02 21:52:29.02	47.29	10.38	-40.7	-42.7	17.9	0.00e+00	0	43	0	0	53	4410
2026-01-02 21:52:29.74	47.39	10.42	-40.7	-42.7	17.8	0.00e+00	0	43	0	0	53	4419
2026-01-02 21:52:31.02	47.59	10.48	-40.7	-42.7	17.9	0.00e+00	0	44	0	0	53	4397
2026-01-02 21:52:31.74	47.69	10.52	-40.6	-42.6	17.9	0.00e+00	0	43	0	0	53	4366
2026-01-02 21:52:33.03	47.89	10.58	-40.7	-42.6	17.9	0.00e+00	0	43	0	0	53	4369
2026-01-02 21:52:33.74	48.00	10.62	-40.7	-42.6	17.9	0.00e+00	0	43	0	0	53	4382
2026-01-02 21:52:35.03	48.19	10.68	-40.6	-42.6	18.0	0.00e+00	0	43	0	0	53	4367
2026-01-02 21:52:35.75	48.30	10.72	-40.7	-42.6	17.9	0.00e+00	0	43	0	0	53	4362
2026-01-02 21:52:37.04	48.50	10.78	-40.7	-42.6	17.9	0.00e+00	0	43	0	0	53	4386
2026-01-02 21:52:37.75	48.61	10.82	-40.7	-42.7	17.9	0.00e+00	0	43	0	0	53	4394
2026-01-02 21:52:39.05	48.81	10.88	-40.6	-42.6	17.9	0.00e+00	0	43	0	0	53	4355
2026-01-02 21:52:39.76	48.92	10.92	-40.6	-42.6	18.0	0.00e+00	0	43	0	0	53	4354
2026-01-02 21:52:41.08	49.12	10.98	-40.7	-42.7	17.8	0.00e+00	0	43	0	0	53	4409
2026-01-02 21:52:41.80	49.23	11.02	-40.8	-42.7	17.8	0.00e+00	0	43	0	0	53	4438
2026-01-02 21:52:43.15	49.44	11.08	-40.7	-42.7	17.9	0.00e+00	0	43	0	0	53	4407
2026-01-02 21:52:43.87	49.56	11.12	-40.7	-42.6	17.9	0.00e+00	0	43	0	0	53	4380
2026-01-02 21:52:45.22	49.77	11.18	-40.7	-42.7	17.9	0.00e+00	0	43	0	0	53	4405
2026-01-02 21:52:45.94	49.88	11.22	-40.8	-42.8	17.8	0.00e+00	0	43	0	0	53	4449
2026-01-02 21:52:47.23	50.08	11.28	-40.8	-42.8	17.8	0.00e+00	0	43	0	0	53	4446
2026-01-02 21:52:47.95	50.20	11.31	-40.8	-42.8	17.8	0.00e+00	0	43	0	0	53	4463
2026-01-02 21:52:49.24	50.40	11.38	-40.6	-42.6	18.0	0.00e+00	0	43	0	0	53	4342
2026-01-02 21:52:49.96	50.52	11.41	-40.7	-42.6	18.0	0.00e+00	0	44	0	0	53	4371
2026-01-02 21:52:51.24	50.72	11.47	-40.8	-42.8	17.9	0.00e+00	0	44	0	0	53	4444
2026-01-02 21:52:51.96	50.84	11.51	-40.7	-42.7	17.9	0.00e+00	0	43	0	0	53	4393
2026-01-02 21:52:53.25	51.05	11.57	-40.7	-42.6	17.9	0.00e+00	0	44	0	0	53	4384
2026-01-02 21:52:53.97	51.16	11.60	-40.7	-42.7	17.9	0.00e+00	0	43	0	0	53	4415
2026-01-02 21:52:55.25	51.37	11.66	-41.0	-43.0	17.6	0.00e+00	0	43	0	0	53	4570
2026-01-02 21:52:55.97	51.49	11.70	-41.0	-43.0	17.6	0.00e+00	0	43	0	0	53	4554
2026-01-02 21:52:57.26	51.70	11.76	-40.8	-42.8	17.7	0.00e+00	0	43	0	0	53	4484
2026-01-02 21:52:57.98	51.81	11.79	-40.8	-42.8	17.7	0.00e+00	0	43	0	0	53	4475
2026-01-02 21:52:59.26	52.02	11.85	-41.0	-43.0	17.6	0.00e+00	0	43	0	0	53	4572
2026-01-02 21:52:59.98	52.14	11.89	-41.0	-43.0	17.6	0.00e+00	0	43	0	0	53	4562
2026-01-02 21:53:01.28	52.36	11.95	-41.1	-43.1	17.5	0.00e+00	0	43	0	0	53	4616
2026-01-02 21:53:01.99	52.47	11.98	-41.0	-43.0	17.6	0.00e+00	0	44	0	0	53	4575
2026-01-02 21:53:03.28	52.69	12.04	-40.9	-42.9	17.8	0.00e+00	0	43	0	0	53	4504
2026-01-02 21:53:03.99	52.81	12.08	-40.9	-42.9	17.7	0.00e+00	0	44	0	0	53	4540
2026-01-02 21:53:05.28	53.02	12.14	-40.9	-42.9	17.7	0.00e+00	0	43	0	0	53	4530
2026-01-02 21:53:06.06	53.15	12.17	-40.9	-42.9	17.8	0.00e+00	0	43	0	0	53	4520
2026-01-02 21:53:07.67	53.42	12.25	-40.8	-42.8	17.9	0.00e+00	0	44	0	0	53	4444
2026-01-02 21:53:08.24	53.52	12.27	-40.8	-42.7	17.9	0.00e+00	0	43	0	0	53	4441
2026-01-02 21:53:10.06	53.83	12.36	-40.7	-42.7	18.0	0.00e+00	0	43	0	0	53	4403
2026-01-02 21:53:10.63	53.93	12.38	-40.6	-42.5	18.1	0.00e+00	0	43	0	0	53	4336
2026-01-02 21:53:12.22	54.20	12.45	-40.6	-42.6	18.1	0.00e+00	0	43	0	0	53	4345
2026-01-02 21:53:12.79	54.29	12.48	-40.6	-42.6	18.1	0.00e+00	0	44	0	0	53	4341
2026-01-02 21:53:14.43	54.58	12.55	-40.5	-42.4	18.2	0.00e+00	0	44	0	0	53	4290
2026-01-02 21:53:15.00	54.67	12.58	-40.6	-42.5	18.1	0.00e+00	0	44	0	0	53	4311
2026-01-02 21:53:16.58	54.95	12.65	-40.7	-42.7	17.9	0.00e+00	0	43	0	0	53	4405
2026-01-02 21:53:17.35	55.08	12.68	-40.8	-42.7	17.9	0.00e+00	0	44	0	0	53	4436
2026-01-02 21:53:18.64	55.30	12.74	-40.8	-42.7	17.9	0.00e+00	0	43	0	0	53	4437
2026-01-02 21:53:19.36	55.43	12.77	-40.7	-42.7	18.0	0.00e+00	0	44	0	0	53	4412
2026-01-02 21:53:20.65	55.66	12.83	-40.8	-42.7	17.9	0.00e+00	0	44	0	0	53	4440
2026-01-02 21:53:21.59	55.82	12.87	-40.8	-42.8	17.9	0.00e+00	0	43	0	0	53	4471
2026-01-02 21:53:22.60	56.00	12.92	-40.9	-42.9	17.8	0.00e+00	0	44	0	0	53	4513
2026-01-02 21:53:23.60	56.18	12.96	-40.8	-42.8	17.9	0.00e+00	0	44	0	0	53	4453
2026-01-02 21:53:24.60	56.35	13.00	-40.7	-42.7	18.0	0.00e+00	0	44	0	0	53	4424
2026-01-02 21:53:25.60	56.53	13.05	-40.8	-42.7	18.0	0.00e+00	0	43	0	0	53	4435
2026-01-02 21:53:26.61	56.71	13.09	-40.7	-42.6	18.0	0.00e+00	0	43	0	0	53	4387
2026-01-02 21:53:27.61	56.89	13.13	-40.7	-42.6	18.0	0.00e+00	0	44	0	0	53	4385
2026-01-02 21:53:28.61	57.07	13.18	-40.7	-42.6	18.1	0.00e+00	0	44	0	0	53	4363
2026-01-02 21:53:29.61	57.25	13.22	-40.6	-42.6	18.1	0.00e+00	0	44	0	0	53	4350
2026-01-02 21:53:30.61	57.43	13.26	-40.7	-42.6	18.0	0.00e+00	0	43	0	0	53	4385
2026-01-02 21:53:31.75	57.63	13.31	-40.6	-42.6	18.1	0.00e+00	0	44	0	0	53	4351
2026-01-02 21:53:32.63	57.79	13.35	-40.7	-42.6	18.0	0.00e+00	0	43	0	0	53	4369
2026-01-02 21:53:33.78	58.00	13.39	-40.7	-42.6	18.0	0.00e+00	0	43	0	0	53	4375
2026-01-02 21:53:34.68	58.17	13.43	-40.6	-42.6	18.1	0.00e+00	0	44	0	0	53	4348
2026-01-02 21:53:35.86	58.38	13.48	-40.6	-42.6	18.1	0.00e+00	0	43	0	0	53	4344
2026-01-02 21:53:36.72	58.54	13.52	-40.6	-42.6	18.1	0.00e+00	0	44	0	0	53	4348
2026-01-02 21:53:37.86	58.75	13.56	-40.5	-42.4	18.3	0.00e+00	0	44	0	0	53	4271
2026-01-02 21:53:38.80	58.92	13.60	-40.4	-42.3	18.4	0.00e+00	0	44	0	0	52	4442
2026-01-02 21:53:39.98	59.14	13.65	-40.4	-42.3	18.4	0.00e+00	0	43	0	0	52	4453
2026-01-02 21:53:40.84	59.30	13.68	-40.4	-42.3	18.4	0.00e+00	0	44	0	0	52	4473
2026-01-02 21:53:41.99	59.51	13.73	-40.4	-42.3	18.4	0.00e+00	0	44	0	0	52	4444
2026-01-02 21:53:42.85	59.67	13.77	-40.4	-42.3	18.4	0.00e+00	0	44	0	0	52	4453
2026-01-02 21:53:43.99	59.89	13.81	-40.4	-42.3	18.4	0.00e+00	0	43	0	0	52	4453
2026-01-02 21:53:44.85	60.05	13.84	-40.5	-42.4	18.3	0.00e+00	0	44	0	0	52	4506
2026-01-02 21:53:46.00	60.26	13.89	-40.3	-42.2	18.4	0.00e+00	0	44	0	0	52	4400
2026-01-02 21:53:46.86	60.42	13.92	-40.3	-42.2	18.4	0.00e+00	0	44	0	0	52	4415
2026-01-02 21:53:48.00	60.64	13.97	-40.4	-42.3	18.3	0.00e+00	0	44	0	0	52	4473
2026-01-02 21:53:48.86	60.80	14.00	-40.4	-42.3	18.4	0.00e+00	0	43	0	0	52	4478
2026-01-02 21:53:50.01	61.02	14.05	-40.4	-42.2	18.4	0.00e+00	0	43	0	0	52	4435
2026-01-02 21:53:50.87	61.18	14.08	-40.3	-42.2	18.4	0.00e+00	0	44	0	0	52	4421
2026-01-02 21:53:52.01	61.40	14.12	-40.2	-42.1	18.5	0.00e+00	0	44	0	0	52	4369
2026-01-02 21:53:52.87	61.57	14.15	-40.2	-42.0	18.6	0.00e+00	0	44	0	0	52	4329
2026-01-02 21:53:54.02	61.79	14.20	-40.2	-42.1	18.5	0.00e+00	0	43	0	0	52	4361
2026-01-02 21:53:54.88	61.95	14.23	-40.1	-42.0	18.6	0.00e+00	0	44	0	0	52	4318
2026-01-02 21:53:56.02	62.17	14.27	-40.2	-42.1	18.5	0.00e+00	0	44	0	0	52	4341
2026-01-02 21:53:56.88	62.34	14.30	-40.2	-42.0	18.6	0.00e+00	0	44	0	0	52	4336
2026-01-02 21:53:58.03	62.56	14.35	-40.3	-42.1	18.5	0.00e+00	0	44	0	0	52	4389
2026-01-02 21:53:58.89	62.73	14.38	-40.3	-42.2	18.5	0.00e+00	0	44	0	0	52	4407
2026-01-02 21:54:00.03	62.95	14.42	-40.4	-42.3	18.4	0.00e+00	0	44	0	0	52	4469
2026-01-02 21:54:00.89	63.12	14.45	-40.4	-42.4	18.4	0.00e+00	0	44	0	0	52	4496
2026-01-02 21:54:02.04	63.34	14.49	-40.3	-42.2	18.5	0.00e+00	0	44	0	0	52	4433
2026-01-02 21:54:02.90	63.51	14.52	-40.2	-42.1	18.6	0.00e+00	0	44	0	0	52	4367
2026-01-02 21:54:04.04	63.73	14.56	-40.1	-41.9	18.7	0.00e+00	0	44	0	0	52	4286
2026-01-02 21:54:04.90	63.90	14.59	-40.1	-41.9	18.7	0.00e+00	0	44	0	0	52	4270
2026-01-02 21:54:06.05	64.13	14.63	-40.1	-42.0	18.7	0.00e+00	0	43	0	0	52	4292
2026-01-02 21:54:06.91	64.30	14.66	-40.1	-41.9	18.7	0.00e+00	0	44	0	0	52	4290
2026-01-02 21:54:08.06	64.53	14.70	-40.2	-42.1	18.6	0.00e+00	0	44	0	0	52	4351
2026-01-02 21:54:09.06	64.72	14.73	-40.3	-42.1	18.5	0.00e+00	0	44	0	0	52	4386
2026-01-02 21:54:10.25	64.96	14.77	-40.2	-42.1	18.6	0.00e+00	0	43	0	0	52	4352
2026-01-02 21:54:11.14	65.14	14.80	-40.1	-42.0	18.7	0.00e+00	0	44	0	0	52	4303
2026-01-02 21:54:12.29	65.37	14.84	-40.1	-42.0	18.7	0.00e+00	0	43	0	0	52	4303
2026-01-02 21:54:13.15	65.54	14.87	-40.2	-42.0	18.6	0.00e+00	0	44	0	0	52	4324
2026-01-02 21:54:14.29	65.77	14.91	-40.3	-42.2	18.5	0.00e+00	0	43	0	0	52	4402
2026-01-02 21:54:15.31	65.98	14.94	-40.3	-42.1	18.6	0.00e+00	0	44	0	0	52	4370
2026-01-02 21:54:16.49	66.21	14.98	-40.0	-41.8	18.8	0.00e+00	0	43	0	0	52	4236
2026-01-02 21:54:17.35	66.39	15.00	-40.0	-41.8	19.0	0.00e+00	0	43	0	0	51	4447
2026-01-02 21:54:18.68	66.66	15.04	-40.1	-41.9	18.8	0.00e+00	0	44	0	0	51	4516
2026-01-02 21:54:19.40	66.80	15.07	-40.1	-42.0	18.8	0.00e+00	0	44	0	0	51	4557
2026-01-02 21:54:20.69	67.07	15.10	-40.2	-42.0	18.6	0.00e+00	0	44	0	0	51	4593
2026-01-02 21:54:21.40	67.21	15.13	-40.2	-42.1	18.6	0.00e+00	0	44	0	0	51	4611
2026-01-02 21:54:22.70	67.48	15.17	-40.4	-42.3	18.5	0.00e+00	0	44	0	0	51	4707
2026-01-02 21:54:23.51	67.64	15.19	-40.3	-42.2	18.6	0.00e+00	0	44	0	0	51	4683
2026-01-02 21:54:24.65	67.88	15.22	-40.2	-42.1	18.7	0.00e+00	0	44	0	0	51	4599
2026-01-02 21:54:25.52	68.05	15.25	-40.1	-42.0	18.8	0.00e+00	0	44	0	0	51	4550
2026-01-02 21:54:26.66	68.29	15.28	-40.2	-42.0	18.6	0.00e+00	0	44	0	0	51	4585
2026-01-02 21:54:27.52	68.47	15.30	-40.1	-41.9	18.7	0.00e+00	0	43	0	0	51	4543
2026-01-02 21:54:28.67	68.70	15.34	-40.0	-41.8	18.8	0.00e+00	0	44	0	0	51	4470
2026-01-02 21:54:29.52	68.88	15.36	-40.0	-41.8	18.9	0.00e+00	0	43	0	0	51	4471
2026-01-02 21:54:30.67	69.12	15.39	-39.9	-41.7	19.0	0.00e+00	0	44	0	0	51	4436
2026-01-02 21:54:31.53	69.30	15.42	-39.9	-41.7	19.0	0.00e+00	0	44	0	0	51	4425
2026-01-02 21:54:32.68	69.54	15.45	-40.0	-41.8	19.0	0.00e+00	0	44	0	0	51	4453
2026-01-02 21:54:33.54	69.72	15.47	-40.0	-41.8	18.9	0.00e+00	0	44	0	0	51	4481
2026-01-02 21:54:34.68	69.95	15.50	-40.0	-41.8	18.9	0.00e+00	0	43	0	0	51	4479
2026-01-02 21:54:35.60	70.15	15.52	-39.9	-41.7	19.0	0.00e+00	0	44	0	0	51	4419
2026-01-02 21:54:36.78	70.39	15.55	-40.0	-41.8	19.0	0.00e+00	0	44	0	0	51	4448
2026-01-02 21:54:37.64	70.58	15.57	-40.0	-41.9	18.9	0.00e+00	0	44	0	0	51	4500
2026-01-02 21:54:39.00	70.86	15.61	-39.9	-41.7	19.0	0.00e+00	0	44	0	0	51	4432
2026-01-02 21:54:39.72	71.01	15.62	-40.0	-41.8	18.9	0.00e+00	0	44	0	0	51	4463
2026-01-02 21:54:41.21	71.33	15.66	-40.1	-41.9	18.8	0.00e+00	0	44	0	0	51	4536
2026-01-02 21:54:41.93	71.48	15.68	-40.1	-41.9	18.8	0.00e+00	0	44	0	0	51	4526
2026-01-02 21:54:43.27	71.76	15.71	-39.9	-41.7	19.0	0.00e+00	0	43	0	0	51	4424
2026-01-02 21:54:43.98	71.91	15.72	-39.9	-41.7	19.0	0.00e+00	0	44	0	0	51	4417
2026-01-02 21:54:45.27	72.19	15.75	-39.8	-41.6	19.1	0.00e+00	0	43	0	0	51	4364
2026-01-02 21:54:45.99	72.34	15.77	-39.9	-41.6	19.0	0.00e+00	0	43	0	0	51	4383
2026-01-02 21:54:47.28	72.62	15.80	-39.9	-41.7	19.0	0.00e+00	0	44	0	0	51	4404
2026-01-02 21:54:47.99	72.77	15.81	-39.9	-41.7	19.0	0.00e+00	0	44	0	0	51	4394
2026-01-02 21:54:49.28	73.04	15.84	-39.9	-41.7	19.0	0.00e+00	0	44	0	0	51	4410
2026-01-02 21:54:50.01	73.20	15.86	-40.0	-41.8	19.0	0.00e+00	0	44	0	0	51	4456
2026-01-02 21:54:51.30	73.48	15.88	-39.9	-41.8	19.0	0.00e+00	0	44	0	0	51	4446
2026-01-02 21:54:52.02	73.63	15.90	-40.0	-41.8	19.0	0.00e+00	0	44	0	0	51	4459
2026-01-02 21:54:53.30	73.91	15.92	-39.9	-41.7	19.0	0.00e+00	0	44	0	0	51	4421
2026-01-02 21:54:54.02	74.06	15.93	-39.9	-41.7	19.0	0.00e+00	0	44	0	0	51	4420
2026-01-02 21:54:55.31	74.34	15.96	-39.9	-41.6	19.1	0.00e+00	0	44	0	0	51	4383
2026-01-02 21:54:56.03	74.49	15.97	-39.9	-41.7	19.1	0.00e+00	0	44	0	0	51	4393
2026-01-02 21:54:57.32	74.77	16.00	-39.8	-41.6	19.1	0.00e+00	0	44	0	0	51	4357
2026-01-02 21:54:58.04	74.93	16.01	-39.9	-41.7	19.0	0.00e+00	0	43	0	0	51	4419
2026-01-02 21:54:59.32	75.21	16.03	-39.9	-41.7	18.9	0.00e+00	0	44	0	0	51	4441
2026-01-02 21:55:00.04	75.36	16.04	-39.9	-41.7	19.0	0.00e+00	0	44	0	0	51	4421
2026-01-02 21:55:01.33	75.64	16.07	-39.8	-41.6	19.1	0.00e+00	0	43	0	0	51	4378
2026-01-02 21:55:02.05	75.80	16.08	-39.8	-41.6	19.2	0.00e+00	0	44	0	0	51	4360
2026-01-02 21:55:03.34	76.08	16.10	-39.8	-41.5	19.2	0.00e+00	0	44	0	0	51	4337
2026-01-02 21:55:04.06	76.24	16.11	-39.7	-41.5	19.2	0.00e+00	0	43	0	0	51	4316
2026-01-02 21:55:05.35	76.52	16.13	-39.8	-41.6	19.1	0.00e+00	0	44	0	0	51	4342
2026-01-02 21:55:06.06	76.67	16.14	-39.8	-41.6	19.0	0.00e+00	0	44	0	0	51	4383
2026-01-02 21:55:07.73	77.04	16.16	-40.0	-41.8	18.8	0.00e+00	0	44	0	0	51	4475
2026-01-02 21:55:08.31	77.16	16.17	-40.0	-41.8	18.8	0.00e+00	0	44	0	0	51	4488
2026-01-02 21:55:09.91	77.51	16.19	-40.1	-41.9	18.8	0.00e+00	0	44	0	0	51	4530
2026-01-02 21:55:10.49	77.64	16.20	-40.1	-41.9	18.8	0.00e+00	0	44	0	0	51	4530
2026-01-02 21:55:12.09	77.99	16.22	-40.1	-41.9	18.8	0.00e+00	0	44	0	0	51	4512
2026-01-02 21:55:12.71	78.13	16.23	-40.0	-41.8	18.9	0.00e+00	0	44	0	0	51	4476
2026-01-02 21:55:14.29	78.47	16.25	-40.1	-41.9	18.8	0.00e+00	0	44	0	0	51	4511
2026-01-02 21:55:14.90	78.61	16.25	-40.0	-41.8	18.8	0.00e+00	0	44	0	0	51	4477
2026-01-02 21:55:16.48	78.96	16.27	-39.9	-41.7	19.0	0.00e+00	0	43	0	0	51	4414
2026-01-02 21:55:17.07	79.08	16.28	-39.9	-41.7	19.0	0.00e+00	0	44	0	0	51	4413
2026-01-02 21:55:18.65	79.43	16.29	-40.0	-41.8	18.9	0.00e+00	0	44	0	0	51	4481
2026-01-02 21:55:19.26	79.57	16.30	-40.0	-41.9	18.8	0.00e+00	0	44	0	0	51	4506
2026-01-02 21:55:20.84	79.92	16.31	-40.0	-41.8	18.9	0.00e+00	0	44	0	0	51	4455
2026-01-02 21:55:21.63	80.09	16.32	-40.1	-41.9	18.8	0.00e+00	0	43	0	0	51	4510
2026-01-02 21:55:22.77	80.34	16.33	-40.1	-41.9	18.8	0.00e+00	0	44	0	0	51	4542
2026-01-02 21:55:23.63	80.53	16.34	-40.0	-41.8	18.9	0.00e+00	0	44	0	0	51	4481
2026-01-02 21:55:24.77	80.78	16.34	-39.9	-41.8	18.9	0.00e+00	0	44	0	0	51	4455
2026-01-02 21:55:25.63	80.98	16.35	-39.9	-41.8	19.0	0.00e+00	0	44	0	0	51	4445
2026-01-02 21:55:26.77	81.23	16.36	-39.9	-41.7	19.0	0.00e+00	0	44	0	0	51	4423
2026-01-02 21:55:27.63	81.42	16.36	-39.9	-41.7	19.0	0.00e+00	0	44	0	0	51	4418
2026-01-02 21:55:28.78	81.67	16.37	-39.9	-41.7	19.0	0.00e+00	0	44	0	0	51	4435
2026-01-02 21:55:29.64	81.86	16.37	-39.9	-41.8	19.0	0.00e+00	0	43	0	0	51	4458
2026-01-02 21:55:31.01	82.17	16.38	-40.0	-41.8	18.9	0.00e+00	0	44	0	0	51	4465
2026-01-02 21:55:31.72	82.32	16.38	-40.0	-41.9	18.9	0.00e+00	0	44	0	0	51	4494
2026-01-02 21:55:33.01	82.61	16.39	-40.1	-41.9	18.8	0.00e+00	0	43	0	0	51	4536
2026-01-02 21:55:33.72	82.77	16.39	-40.2	-42.0	18.7	0.00e+00	0	44	0	0	51	4584
2026-01-02 21:55:35.29	83.12	16.40	-40.1	-41.9	18.8	0.00e+00	0	44	0	0	51	4539
2026-01-02 21:55:35.99	83.27	16.40	-40.0	-41.9	18.9	0.00e+00	0	44	0	0	51	4507
2026-01-02 21:55:37.29	83.56	16.40	-40.0	-41.9	18.8	0.00e+00	0	44	0	0	51	4511
2026-01-02 21:55:38.00	83.72	16.40	-40.1	-42.0	18.7	0.00e+00	0	43	0	0	51	4575
2026-01-02 21:55:39.29	84.01	16.41	-40.1	-41.9	18.8	0.00e+00	0	44	0	0	51	4532
2026-01-02 21:55:40.01	84.17	16.41	-40.0	-41.9	18.8	0.00e+00	0	43	0	0	51	4519
2026-01-02 21:55:41.30	84.45	16.41	-39.9	-41.8	18.9	0.00e+00	0	44	0	0	51	4455
2026-01-02 21:55:42.01	84.61	16.41	-40.0	-41.8	18.9	0.00e+00	0	44	0	0	51	4472
2026-01-02 21:55:43.30	84.90	16.41	-39.9	-41.7	19.0	0.00e+00	0	44	0	0	51	4431
2026-01-02 21:55:44.04	85.06	16.41	-39.9	-41.7	19.0	0.00e+00	0	44	0	0	51	4428
2026-01-02 21:55:45.32	85.35	16.41	-39.8	-41.6	19.1	0.00e+00	0	44	0	0	51	4381
2026-01-02 21:55:46.04	85.51	16.41	-39.8	-41.6	19.1	0.00e+00	0	44	0	0	51	4391
2026-01-02 21:55:47.33	85.79	16.40	-39.9	-41.7	19.0	0.00e+00	0	44	0	0	51	4426
2026-01-02 21:55:48.05	85.95	16.40	-39.9	-41.7	19.1	0.00e+00	0	44	0	0	51	4411
2026-01-02 21:55:49.34	86.24	16.40	-39.9	-41.8	19.0	0.00e+00	0	44	0	0	51	4450
2026-01-02 21:55:50.05	86.40	16.40	-39.9	-41.7	19.1	0.00e+00	0	44	0	0	51	4429
2026-01-02 21:55:51.44	86.71	16.39	-39.8	-41.6	19.1	0.00e+00	0	44	0	0	51	4386
2026-01-02 21:55:52.15	86.86	16.39	-39.8	-41.6	19.1	0.00e+00	0	44	0	0	51	4389
2026-01-02 21:55:53.44	87.15	16.38	-39.8	-41.6	19.1	0.00e+00	0	44	0	0	51	4389
2026-01-02 21:55:54.16	87.31	16.38	-40.0	-41.8	19.0	0.00e+00	0	44	0	0	51	4477
2026-01-02 21:55:55.57	87.62	16.37	-39.9	-41.8	19.0	0.00e+00	0	43	0	0	51	4451
2026-01-02 21:55:56.29	87.78	16.37	-40.0	-41.9	18.9	0.00e+00	0	44	0	0	51	4496
2026-01-02 21:55:57.58	88.07	16.36	-40.2	-42.1	18.7	0.00e+00	0	44	0	0	51	4608
2026-01-02 21:55:58.30	88.23	16.36	-40.3	-42.2	18.6	0.00e+00	0	44	0	0	51	4660
2026-01-02 21:55:59.74	88.55	16.35	-40.1	-41.9	18.9	0.00e+00	0	44	0	0	51	4545
2026-01-02 21:56:00.46	88.71	16.34	-40.0	-41.8	19.0	0.00e+00	0	43	0	0	51	4465
2026-01-02 21:56:01.75	88.99	16.33	-39.9	-41.7	19.1	0.00e+00	0	44	0	0	51	4424
2026-01-02 21:56:02.47	89.15	16.33	-39.9	-41.7	19.0	0.00e+00	0	44	0	0	51	4409
2026-01-02 21:56:03.76	89.44	16.32	-40.1	-41.9	18.8	0.00e+00	0	44	0	0	51	4528
2026-01-02 21:56:04.47	89.59	16.31	-40.1	-42.0	18.7	0.00e+00	0	44	0	0	51	4571
2026-01-02 21:56:05.76	89.88	16.30	-40.2	-42.1	18.7	0.00e+00	0	43	0	0	51	4621
2026-01-02 21:56:06.48	90.04	16.29	-40.3	-42.1	18.6	0.00e+00	0	44	0	0	51	4651
2026-01-02 21:56:07.77	90.32	16.28	-40.3	-42.1	18.6	0.00e+00	0	44	0	0	51	4649
2026-01-02 21:56:08.48	90.48	16.27	-40.3	-42.1	18.6	0.00e+00	0	44	0	0	51	4649
2026-01-02 21:56:09.77	90.76	16.26	-40.3	-42.1	18.6	0.00e+00	0	44	0	0	51	4634
2026-01-02 21:56:10.49	90.92	16.25	-40.3	-42.1	18.6	0.00e+00	0	44	0	0	51	4643
2026-01-02 21:56:11.78	91.20	16.24	-40.2	-42.0	18.7	0.00e+00	0	44	0	0	51	4585
2026-01-02 21:56:12.50	91.36	16.23	-40.1	-41.9	18.7	0.00e+00	0	43	0	0	51	4543
2026-01-02 21:56:13.79	91.65	16.21	-39.9	-41.8	18.9	0.00e+00	0	43	0	0	51	4446
2026-01-02 21:56:14.50	91.80	16.20	-40.0	-41.8	18.9	0.00e+00	0	44	0	0	51	4478
2026-01-02 21:56:15.79	92.09	16.19	-40.0	-41.8	18.9	0.00e+00	0	44	0	0	51	4475
2026-01-02 21:56:16.51	92.24	16.18	-40.0	-41.8	19.0	0.00e+00	0	44	0	0	51	4455
2026-01-02 21:56:17.80	92.53	16.16	-40.0	-41.8	18.9	0.00e+00	0	44	0	0	51	4487
2026-01-02 21:56:18.51	92.68	16.15	-40.0	-41.8	19.0	0.00e+00	0	44	0	0	51	4458
2026-01-02 21:56:19.80	92.96	16.13	-40.0	-41.8	18.9	0.00e+00	0	44	0	0	51	4481
2026-01-02 21:56:20.52	93.12	16.12	-40.0	-41.9	18.8	0.00e+00	0	44	0	0	51	4508
2026-01-02 21:56:21.81	93.40	16.10	-40.0	-41.9	18.8	0.00e+00	0	44	0	0	51	4496
2026-01-02 21:56:22.60	93.57	16.09	-40.1	-42.0	18.7	0.00e+00	0	44	0	0	51	4550
2026-01-02 21:56:23.75	93.82	16.07	-40.1	-41.9	18.8	0.00e+00	0	44	0	0	51	4536
2026-01-02 21:56:24.61	94.01	16.05	-40.1	-42.0	18.8	0.00e+00	0	44	0	0	51	4560
2026-01-02 21:56:25.76	94.26	16.03	-40.0	-41.8	18.9	0.00e+00	0	44	0	0	51	4492
2026-01-02 21:56:26.62	94.45	16.02	-40.0	-41.8	19.0	0.00e+00	0	43	0	0	51	4448
2026-01-02 21:56:27.76	94.69	16.00	-40.0	-41.8	18.9	0.00e+00	0	44	0	0	51	4485
2026-01-02 21:56:28.62	94.88	15.98	-40.0	-41.8	18.9	0.00e+00	0	44	0	0	51	4457
2026-01-02 21:56:29.76	95.13	15.96	-39.9	-41.8	19.0	0.00e+00	0	44	0	0	51	4442
2026-01-02 21:56:30.62	95.31	15.95	-39.9	-41.7	19.0	0.00e+00	0	44	0	0	51	4410
2026-01-02 21:56:31.93	95.60	15.92	-40.0	-41.8	18.9	0.00e+00	0	44	0	0	51	4450
2026-01-02 21:56:32.64	95.75	15.91	-40.0	-41.9	18.9	0.00e+00	0	44	0	0	51	4497
2026-01-02 21:56:33.93	96.03	15.88	-40.0	-41.9	18.9	0.00e+00	0	44	0	0	51	4497
2026-01-02 21:56:34.65	96.18	15.87	-40.0	-41.8	18.9	0.00e+00	0	44	0	0	51	4488
2026-01-02 21:56:35.94	96.46	15.84	-40.0	-41.8	18.9	0.00e+00	0	44	0	0	51	4484
2026-01-02 21:56:36.65	96.61	15.82	-40.0	-41.8	18.9	0.00e+00	0	44	0	0	51	4470
2026-01-02 21:56:38.29	96.96	15.79	-40.0	-41.8	18.9	0.00e+00	0	44	0	0	51	4481
2026-01-02 21:56:39.13	97.14	15.77	-40.0	-41.8	18.9	0.00e+00	0	44	0	0	51	4486
2026-01-02 21:56:40.28	97.39	15.74	-40.0	-41.9	18.9	0.00e+00	0	43	0	0	51	4494
2026-01-02 21:56:41.14	97.57	15.73	-40.0	-41.8	19.0	0.00e+00	0	44	0	0	51	4447
2026-01-02 21:56:42.28	97.81	15.70	-39.7	-41.5	19.2	0.00e+00	0	44	0	0	51	4331
2026-01-02 21:56:43.14	97.99	15.68	-39.7	-41.5	19.2	0.00e+00	0	44	0	0	51	4317
2026-01-02 21:56:44.28	98.24	15.65	-39.8	-41.6	19.2	0.00e+00	0	44	0	0	51	4361
2026-01-02 21:56:45.14	98.42	15.63	-39.8	-41.6	19.1	0.00e+00	0	44	0	0	51	4380
2026-01-02 21:56:46.41	98.69	15.60	-39.8	-41.6	19.1	0.00e+00	0	44	0	0	51	4388
2026-01-02 21:56:47.13	98.84	15.58	-39.9	-41.7	19.1	0.00e+00	0	44	0	0	51	4407
2026-01-02 21:56:48.42	99.11	15.55	-39.8	-41.6	19.2	0.00e+00	0	44	0	0	51	4353
2026-01-02 21:56:49.14	99.26	15.53	-39.8	-41.6	19.1	0.00e+00	0	44	0	0	51	4388
2026-01-02 21:56:50.43	99.53	15.50	-39.8	-41.6	19.1	0.00e+00	0	44	0	0	51	4369
2026-01-02 21:56:51.16	99.69	15.48	-39.7	-41.5	19.2	0.00e+00	0	43	0	0	51	4307
2026-01-02 21:56:52.76	100.02	15.44	-39.7	-41.4	19.3	0.00e+00	0	44	0	0	51	4281
2026-01-02 21:56:53.33	100.14	15.42	-39.7	-41.5	19.2	0.00e+00	0	43	0	0	51	4306
2026-01-02 21:56:54.94	100.47	15.38	-39.8	-41.6	19.2	0.00e+00	0	44	0	0	51	4344
2026-01-02 21:56:55.51	100.59	15.36	-39.8	-41.5	19.1	0.00e+00	0	44	0	0	51	4339
2026-01-02 21:56:57.12	100.93	15.32	-40.0	-41.8	19.0	0.00e+00	0	44	0	0	51	4445
2026-01-02 21:56:57.76	101.06	15.30	-39.9	-41.7	19.0	0.00e+00	0	44	0	0	51	4440
2026-01-02 21:56:59.19	101.36	15.26	-40.0	-41.8	18.9	0.00e+00	0	43	0	0	51	4486
2026-01-02 21:56:59.90	101.50	15.24	-40.0	-41.8	19.0	0.00e+00	0	44	0	0	51	4474
2026-01-02 21:57:01.19	101.77	15.20	-40.0	-41.8	19.0	0.00e+00	0	44	0	0	51	4445
2026-01-02 21:57:01.91	101.92	15.18	-40.0	-41.8	19.0	0.00e+00	0	44	0	0	51	4468
2026-01-02 21:57:03.20	102.18	15.14	-39.9	-41.7	19.1	0.00e+00	0	44	0	0	51	4408
2026-01-02 21:57:03.92	102.33	15.12	-39.8	-41.6	19.2	0.00e+00	0	44	0	0	51	4353
2026-01-02 21:57:05.20	102.59	15.08	-39.8	-41.6	19.1	0.00e+00	0	44	0	0	51	4365
2026-01-02 21:57:05.92	102.74	15.06	-39.8	-41.6	19.2	0.00e+00	0	44	0	0	51	4344
2026-01-02 21:57:07.24	103.01	15.02	-39.8	-41.5	19.2	0.00e+00	0	44	0	0	51	4336
2026-01-02 21:57:07.96	103.15	14.99	-39.7	-41.5	19.2	0.00e+00	0	44	0	0	51	4313
2026-01-02 21:57:09.25	103.41	14.95	-39.8	-41.6	19.1	0.00e+00	0	43	0	0	51	4366
2026-01-02 21:57:09.97	103.56	14.93	-39.9	-41.7	19.0	0.00e+00	0	44	0	0	51	4426
2026-01-02 21:57:11.26	103.82	14.89	-40.0	-41.8	19.0	0.00e+00	0	43	0	0	51	4463
2026-01-02 21:57:11.97	103.96	14.86	-39.9	-41.7	19.1	0.00e+00	0	44	0	0	51	4405
2026-01-02 21:57:13.26	104.22	14.82	-39.9	-41.7	19.1	0.00e+00	0	43	0	0	51	4406
2026-01-02 21:57:13.97	104.36	14.80	-39.8	-41.6	19.1	0.00e+00	0	44	0	0	51	4366
2026-01-02 21:57:15.26	104.62	14.76	-39.9	-41.7	19.1	0.00e+00	0	44	0	0	51	4393
2026-01-02 21:57:15.97	104.76	14.73	-39.8	-41.6	19.1	0.00e+00	0	43	0	0	51	4370
2026-01-02 21:57:17.27	105.02	14.69	-39.7	-41.5	19.2	0.00e+00	0	44	0	0	51	4316
2026-01-02 21:57:17.98	105.17	14.66	-39.7	-41.5	19.2	0.00e+00	0	43	0	0	51	4313
2026-01-02 21:57:19.27	105.42	14.62	-39.8	-41.5	19.1	0.00e+00	0	44	0	0	51	4333
2026-01-02 21:57:19.99	105.56	14.59	-39.8	-41.5	19.1	0.00e+00	0	43	0	0	51	4328
2026-01-02 21:57:21.28	105.82	14.55	-39.9	-41.7	19.0	0.00e+00	0	43	0	0	51	4413
2026-01-02 21:57:21.99	105.96	14.52	-39.9	-41.7	19.0	0.00e+00	0	43	0	0	51	4429
2026-01-02 21:57:23.28	106.21	14.48	-40.0	-41.8	18.9	0.00e+00	0	43	0	0	51	4462
2026-01-02 21:57:24.00	106.35	14.45	-40.0	-41.8	18.9	0.00e+00	0	43	0	0	51	4482
2026-01-02 21:57:25.29	106.61	14.41	-40.2	-42.0	18.7	0.00e+00	0	43	0	0	51	4569
2026-01-02 21:57:26.01	106.75	14.38	-40.1	-41.9	18.8	0.00e+00	0	43	0	0	51	4528
2026-01-02 21:57:27.30	107.00	14.33	-40.1	-42.0	18.8	0.00e+00	0	44	0	0	51	4568
2026-01-02 21:57:28.01	107.14	14.31	-40.1	-42.0	18.8	0.00e+00	0	44	0	0	51	4562
2026-01-02 21:57:29.30	107.39	14.26	-40.2	-42.0	18.7	0.00e+00	0	44	0	0	51	4586
2026-01-02 21:57:30.02	107.53	14.23	-40.1	-41.9	18.8	0.00e+00	0	44	0	0	51	4526
2026-01-02 21:57:31.31	107.77	14.18	-40.1	-42.0	18.8	0.00e+00	0	43	0	0	51	4549
2026-01-02 21:57:32.02	107.91	14.16	-40.1	-41.9	18.8	0.00e+00	0	43	0	0	51	4527
2026-01-02 21:57:33.31	108.16	14.11	-40.1	-41.9	18.8	0.00e+00	0	44	0	0	51	4520
2026-01-02 21:57:34.17	108.32	14.07	-40.0	-41.8	18.9	0.00e+00	0	43	0	0	51	4455
2026-01-02 21:57:35.64	108.60	14.02	-40.1	-41.9	18.8	0.00e+00	0	43	0	0	51	4502
2026-01-02 21:57:36.35	108.74	13.99	-40.1	-41.9	18.8	0.00e+00	0	43	0	0	51	4522
2026-01-02 21:57:37.65	108.99	13.94	-40.2	-42.0	18.7	0.00e+00	0	43	0	0	51	4568
2026-01-02 21:57:38.36	109.12	13.91	-40.2	-42.1	18.7	0.00e+00	0	43	0	0	51	4614
2026-01-02 21:57:39.65	109.36	13.86	-40.4	-42.3	18.5	0.00e+00	0	43	0	0	51	4724
2026-01-02 21:57:40.41	109.51	13.83	-40.4	-42.3	18.4	0.00e+00	0	43	0	0	51	4748
2026-01-02 21:57:41.70	109.75	13.78	-40.5	-42.4	18.4	0.00e+00	0	43	0	0	51	4768
2026-01-02 21:57:42.42	109.88	13.75	-40.5	-42.4	18.4	0.00e+00	0	44	0	0	51	4770
2026-01-02 21:57:43.71	110.13	13.70	-40.6	-42.5	18.3	0.00e+00	0	44	0	0	51	4827
2026-01-02 21:57:44.43	110.26	13.67	-40.6	-42.5	18.3	0.00e+00	0	43	0	0	51	4831
2026-01-02 21:57:45.73	110.50	13.61	-40.6	-42.5	18.3	0.00e+00	0	44	0	0	51	4822
2026-01-02 21:57:46.45	110.63	13.58	-40.5	-42.4	18.3	0.00e+00	0	44	0	0	51	4804
2026-01-02 21:57:47.78	110.88	13.53	-40.5	-42.3	18.3	0.00e+00	0	44	0	0	51	4756
2026-01-02 21:57:48.50	111.01	13.50	-40.3	-42.2	18.4	0.00e+00	0	44	0	0	51	4697
2026-01-02 21:57:49.85	111.26	13.44	-40.3	-42.1	18.5	0.00e+00	0	43	0	0	51	4637
2026-01-02 21:57:50.57	111.39	13.41	-40.2	-42.1	18.5	0.00e+00	0	43	0	0	51	4621
2026-01-02 21:57:51.86	111.63	13.36	-40.3	-42.2	18.5	0.00e+00	0	44	0	0	51	4688
2026-01-02 21:57:52.58	111.76	13.33	-40.3	-42.2	18.5	0.00e+00	0	43	0	0	51	4674
2026-01-02 21:57:53.86	111.99	13.27	-40.4	-42.3	18.4	0.00e+00	0	43	0	0	51	4723
2026-01-02 21:57:54.58	112.12	13.24	-40.4	-42.4	18.4	0.00e+00	0	43	0	0	51	4763
2026-01-02 21:57:55.87	112.36	13.19	-40.4	-42.4	18.3	0.00e+00	0	44	0	0	51	4765
2026-01-02 21:57:56.59	112.49	13.16	-40.5	-42.4	18.3	0.00e+00	0	44	0	0	51	4805
2026-01-02 21:57:58.18	112.77	13.09	-40.6	-42.6	18.1	0.00e+00	0	44	0	0	52	4599
2026-01-02 21:57:59.01	112.92	13.05	-40.6	-42.6	18.1	0.00e+00	0	44	0	0	52	4613
2026-01-02 21:58:00.15	113.13	13.00	-40.6	-42.6	18.1	0.00e+00	0	43	0	0	52	4599
2026-01-02 21:58:01.01	113.28	12.96	-40.6	-42.6	18.1	0.00e+00	0	43	0	0	52	4600
2026-01-02 21:58:02.16	113.48	12.91	-40.6	-42.5	18.1	0.00e+00	0	43	0	0	52	4566
2026-01-02 21:58:03.02	113.64	12.88	-40.5	-42.4	18.2	0.00e+00	0	43	0	0	52	4502
2026-01-02 21:58:04.16	113.84	12.83	-40.4	-42.4	18.2	0.00e+00	0	43	0	0	52	4494
2026-01-02 21:58:05.02	113.99	12.79	-40.4	-42.3	18.2	0.00e+00	0	43	0	0	52	4493
2026-01-02 21:58:06.16	114.19	12.74	-40.5	-42.4	18.1	0.00e+00	0	43	0	0	52	4519
2026-01-02 21:58:07.15	114.36	12.69	-40.5	-42.4	18.1	0.00e+00	0	43	0	0	52	4513
2026-01-02 21:58:08.16	114.54	12.65	-40.6	-42.5	18.0	0.00e+00	0	44	0	0	52	4580
2026-01-02 21:58:09.16	114.71	12.60	-40.6	-42.5	18.0	0.00e+00	0	43	0	0	52	4594
2026-01-02 21:58:10.16	114.88	12.56	-40.7	-42.6	18.0	0.00e+00	0	43	0	0	52	4629
2026-01-02 21:58:11.16	115.06	12.51	-40.7	-42.6	18.0	0.00e+00	0	43	0	0	52	4627
2026-01-02 21:58:12.17	115.23	12.46	-40.8	-42.7	17.9	0.00e+00	0	44	0	0	52	4690
2026-01-02 21:58:13.17	115.40	12.42	-40.8	-42.8	17.9	0.00e+00	0	43	0	0	52	4712
2026-01-02 21:58:14.17	115.58	12.37	-40.7	-42.7	17.9	0.00e+00	0	44	0	0	52	4675
2026-01-02 21:58:15.55	115.81	12.31	-40.8	-42.7	17.9	0.00e+00	0	43	0	0	52	4692
2026-01-02 21:58:16.27	115.93	12.28	-40.8	-42.8	17.8	0.00e+00	0	43	0	0	52	4729
2026-01-02 21:58:17.56	116.15	12.22	-40.9	-42.8	17.8	0.00e+00	0	43	0	0	52	4735
2026-01-02 21:58:18.28	116.27	12.18	-40.8	-42.8	17.8	0.00e+00	0	43	0	0	52	4730
2026-01-02 21:58:19.57	116.49	12.12	-40.8	-42.8	17.8	0.00e+00	0	43	0	0	52	4727
2026-01-02 21:58:20.28	116.61	12.09	-40.8	-42.7	17.8	0.00e+00	0	43	0	0	52	4686
2026-01-02 21:58:21.57	116.83	12.03	-40.7	-42.6	17.9	0.00e+00	0	43	0	0	52	4646
2026-01-02 21:58:22.29	116.95	11.99	-40.7	-42.6	17.9	0.00e+00	0	44	0	0	52	4651
2026-01-02 21:58:23.58	117.16	11.93	-40.7	-42.6	17.9	0.00e+00	0	43	0	0	52	4639
2026-01-02 21:58:24.30	117.28	11.90	-40.7	-42.6	17.9	0.00e+00	0	43	0	0	52	4647
2026-01-02 21:58:25.59	117.50	11.84	-40.7	-42.7	17.9	0.00e+00	0	43	0	0	52	4674
2026-01-02 21:58:26.30	117.61	11.80	-40.7	-42.6	17.9	0.00e+00	0	43	0	0	52	4645
2026-01-02 21:58:27.75	117.85	11.74	-40.8	-42.7	17.8	0.00e+00	0	43	0	0	52	4703
2026-01-02 21:58:28.47	117.97	11.70	-40.8	-42.8	17.8	0.00e+00	0	43	0	0	52	4733
2026-01-02 21:58:29.84	118.19	11.64	-40.9	-42.9	17.6	0.00e+00	0	43	0	0	52	4799
2026-01-02 21:58:30.55	118.31	11.60	-40.9	-42.9	17.7	0.00e+00	0	43	0	0	52	4765
2026-01-02 21:58:31.84	118.52	11.54	-40.8	-42.8	17.8	0.00e+00	0	43	0	0	52	4713
2026-01-02 21:58:32.56	118.63	11.50	-40.9	-42.9	17.7	0.00e+00	0	43	0	0	52	4791
2026-01-02 21:58:33.84	118.84	11.44	-40.9	-42.9	17.7	0.00e+00	0	43	0	0	52	4771
2026-01-02 21:58:34.56	118.96	11.41	-40.9	-42.9	17.6	0.00e+00	0	43	0	0	52	4798
2026-01-02 21:58:35.85	119.16	11.35	-41.0	-43.0	17.6	0.00e+00	0	43	0	0	52	4816
2026-01-02 21:58:36.56	119.28	11.31	-41.0	-43.0	17.6	0.00e+00	0	44	0	0	52	4831
2026-01-02 21:58:37.85	119.48	11.25	-41.0	-43.0	17.5	0.00e+00	0	43	0	0	52	4858
2026-01-02 21:58:38.66	119.61	11.21	-41.0	-43.0	17.6	0.00e+00	0	43	0	0	52	4827
2026-01-02 21:58:39.81	119.79	11.15	-40.8	-42.8	17.7	0.00e+00	0	44	0	0	52	4748
2026-01-02 21:58:40.66	119.93	11.11	-40.8	-42.8	17.7	0.00e+00	0	43	0	0	52	4745
2026-01-02 21:58:41.81	120.11	11.05	-40.9	-42.9	17.6	0.00e+00	0	43	0	0	52	4808
2026-01-02 21:58:42.66	120.24	11.01	-41.1	-43.1	17.5	0.00e+00	0	43	0	0	52	4890
2026-01-02 21:58:43.81	120.42	10.95	-41.0	-43.0	17.5	0.00e+00	0	43	0	0	52	4850
2026-01-02 21:58:44.67	120.55	10.91	-40.9	-42.9	17.7	0.00e+00	0	43	0	0	52	4796
2026-01-02 21:58:45.81	120.73	10.86	-41.0	-43.0	17.6	0.00e+00	0	43	0	0	52	4845
2026-01-02 21:58:46.68	120.87	10.81	-41.0	-43.0	17.5	0.00e+00	0	43	0	0	52	4867
2026-01-02 21:58:47.82	121.04	10.76	-40.9	-42.9	17.6	0.00e+00	0	44	0	0	52	4811
2026-01-02 21:58:48.68	121.17	10.71	-41.0	-43.0	17.5	0.00e+00	0	44	0	0	52	4853
2026-01-02 21:58:50.05	121.38	10.64	-41.0	-43.0	17.5	0.00e+00	0	43	0	0	52	4859
2026-01-02 21:58:50.77	121.49	10.61	-41.1	-43.1	17.4	0.00e+00	0	43	0	0	52	4925
2026-01-02 21:58:52.28	121.72	10.53	-41.1	-43.1	17.4	0.00e+00	0	44	0	0	52	4915
2026-01-02 21:58:52.99	121.83	10.50	-41.1	-43.1	17.4	0.00e+00	0	43	0	0	52	4916
2026-01-02 21:58:54.28	122.02	10.43	-41.2	-43.2	17.3	0.00e+00	0	44	0	0	52	4954
2026-01-02 21:58:55.00	122.13	10.40	-41.2	-43.2	17.3	0.00e+00	0	43	0	0	53	4670
2026-01-02 21:58:56.29	122.33	10.33	-41.0	-43.1	17.4	0.00e+00	0	43	0	0	53	4599
2026-01-02 21:58:57.00	122.43	10.30	-41.0	-43.0	17.5	0.00e+00	0	43	0	0	53	4564
2026-01-02 21:58:58.29	122.62	10.23	-41.0	-43.1	17.5	0.00e+00	0	43	0	0	53	4604
2026-01-02 21:58:59.00	122.73	10.20	-41.1	-43.2	17.4	0.00e+00	0	43	0	0	53	4670
2026-01-02 21:59:00.29	122.92	10.13	-41.2	-43.3	17.3	0.00e+00	0	44	0	0	53	4716
2026-01-02 21:59:01.03	123.03	10.09	-41.4	-43.4	17.1	0.00e+00	0	43	0	0	53	4805
2026-01-02 21:59:02.31	123.22	10.03	-41.2	-43.3	17.3	0.00e+00	0	43	0	0	53	4717
2026-01-02 21:59:03.03	123.32	9.99	-41.1	-43.1	17.4	0.00e+00	0	43	0	0	53	4649
2026-01-02 21:59:04.32	123.51	9.93	-41.2	-43.2	17.3	0.00e+00	0	43	0	0	53	4702
2026-01-02 21:59:05.03	123.61	9.89	-41.1	-43.2	17.3	0.00e+00	0	43	0	0	53	4672
2026-01-02 21:59:06.32	123.80	9.82	-41.2	-43.3	17.2	0.00e+00	0	43	0	0	53	4716
2026-01-02 21:59:07.29	123.94	9.77	-41.2	-43.2	17.3	0.00e+00	0	43	0	0	53	4699
2026-01-02 21:59:08.30	124.09	9.72	-41.3	-43.3	17.2	0.00e+00	0	43	0	0	53	4740
2026-01-02 21:59:09.30	124.23	9.67	-41.3	-43.3	17.2	0.00e+00	0	43	0	0	53	4744
2026-01-02 21:59:10.30	124.37	9.62	-41.2	-43.3	17.2	0.00e+00	0	43	0	0	53	4726
2026-01-02 21:59:11.31	124.52	9.57	-41.3	-43.3	17.2	0.00e+00	0	43	0	0	53	4741
2026-01-02 21:59:12.31	124.66	9.52	-41.4	-43.4	17.1	0.00e+00	0	43	0	0	53	4808
2026-01-02 21:59:13.31	124.80	9.47	-41.3	-43.3	17.2	0.00e+00	0	43	0	0	53	4746
2026-01-02 21:59:14.31	124.94	9.41	-41.3	-43.4	17.1	0.00e+00	0	43	0	0	53	4796
2026-01-02 21:59:15.36	125.09	9.36	-41.4	-43.5	17.0	0.00e+00	0	43	0	0	53	4831
2026-01-02 21:59:16.33	125.22	9.31	-41.3	-43.4	17.1	0.00e+00	0	43	0	0	53	4789
2026-01-02 21:59:17.33	125.36	9.26	-41.4	-43.5	17.0	0.00e+00	0	43	0	0	53	4846
2026-01-02 21:59:18.34	125.50	9.21	-41.4	-43.5	16.9	0.00e+00	0	43	0	0	53	4863
2026-01-02 21:59:19.34	125.64	9.15	-41.4	-43.5	16.9	0.00e+00	0	43	0	0	53	4861
2026-01-02 21:59:20.34	125.78	9.10	-41.5	-43.7	16.8	0.00e+00	0	43	0	0	53	4935
2026-01-02 21:59:21.35	125.92	9.05	-41.6	-43.8	16.7	0.00e+00	0	43	0	0	53	5001
2026-01-02 21:59:22.35	126.06	9.00	-41.8	-44.0	16.5	0.00e+00	0	43	0	0	54	4837
2026-01-02 21:59:23.35	126.19	8.95	-49.7	-62.3	3.8	1.49e+00	0	43	104	0	69	16831
2026-01-02 21:59:24.36	126.33	8.90	-49.3	-62.3	3.8	1.49e+00	0	43	104	0	69	16860
2026-01-02 21:59:25.36	126.47	8.84	-49.5	-62.5	3.8	1.49e+00	0	44	104	0	69	17099
2026-01-02 21:59:26.37	126.60	8.79	-49.4	-62.5	3.8	1.49e+00	0	43	104	0	69	17214
2026-01-02 21:59:27.37	126.74	8.74	-49.4	-62.5	3.8	1.49e+00	0	43	104	0	69	17233
2026-01-02 21:59:28.37	126.87	8.69	-49.4	-62.6	3.8	1.49e+00	0	43	104	0	69	17385
2026-01-02 21:59:29.41	127.01	8.63	-49.6	-62.6	3.8	1.49e+00	0	43	104	0	69	17373
2026-01-02 21:59:30.44	127.15	8.58	-49.6	-62.6	3.8	1.49e+00	0	43	104	0	69	17404
2026-01-02 21:59:31.48	127.29	8.53	-49.6	-62.6	3.8	1.49e+00	0	43	104	0	69	17430
2026-01-02 21:59:32.51	127.42	8.47	-49.5	-62.7	3.8	1.49e+00	0	43	104	0	69	17571
2026-01-02 21:59:33.54	127.56	8.42	-49.6	-62.7	3.8	1.49e+00	0	43	104	0	70	16562
2026-01-02 21:59:34.57	127.70	8.37	-49.5	-62.7	3.8	1.49e+00	0	43	104	0	70	16548
2026-01-02 21:59:35.57	127.83	8.31	-49.3	-62.7	3.8	1.49e+00	0	43	104	0	70	16638
2026-01-02 21:59:36.58	127.96	8.26	-49.4	-62.7	3.8	1.49e+00	0	43	104	0	70	16542
2026-01-02 21:59:37.58	128.09	8.21	-49.5	-62.7	3.8	1.49e+00	0	43	104	0	70	16615
2026-01-02 21:59:38.59	128.22	8.16	-49.4	-62.7	3.8	1.49e+00	0	43	104	0	70	16588
2026-01-02 21:59:39.59	128.35	8.10	-49.4	-62.7	3.8	1.49e+00	0	43	104	0	70	16597
2026-01-02 21:59:40.59	128.48	8.05	-49.4	-62.7	3.8	1.49e+00	0	43	104	0	70	16584
2026-01-02 21:59:41.60	128.61	8.00	-49.5	-62.7	3.8	1.49e+00	0	43	104	0	70	16641
2026-01-02 21:59:42.60	128.74	7.95	-49.5	-62.7	3.8	1.49e+00	0	43	104	0	70	16595
2026-01-02 21:59:43.61	128.86	7.89	-49.5	-62.7	3.8	1.49e+00	0	43	104	0	70	16602
2026-01-02 21:59:44.61	128.99	7.84	-49.5	-62.7	3.8	1.49e+00	0	43	104	0	70	16593
2026-01-02 21:59:45.62	129.12	7.79	-49.4	-62.7	3.8	1.49e+00	0	43	104	0	70	16547
2026-01-02 21:59:46.62	129.25	7.74	-49.4	-62.7	3.8	1.49e+00	0	43	104	0	70	16525
2026-01-02 21:59:47.63	129.37	7.68	-49.4	-62.7	3.8	1.49e+00	0	43	104	0	70	16524
2026-01-02 21:59:48.63	129.50	7.63	-49.4	-62.7	3.8	1.49e+00	0	44	104	0	70	16515
2026-01-02 21:59:49.63	129.62	7.58	-49.4	-62.7	3.8	1.49e+00	0	43	104	0	70	16509
2026-01-02 21:59:50.64	129.75	7.53	-49.4	-62.6	3.8	1.49e+00	0	43	104	0	70	16499
2026-01-02 21:59:51.64	129.87	7.47	-49.4	-62.7	3.8	1.49e+00	0	44	104	0	70	16517
2026-01-02 21:59:52.65	130.00	7.42	-49.4	-62.6	3.8	1.49e+00	0	43	104	0	70	16463
2026-01-02 21:59:53.65	130.12	7.37	-49.4	-62.6	3.8	1.49e+00	0	43	104	0	70	16476
2026-01-02 21:59:54.66	130.24	7.32	-49.4	-62.6	3.8	1.49e+00	0	43	104	0	70	16454
2026-01-02 21:59:55.66	130.37	7.26	-49.4	-62.6	3.8	1.49e+00	0	43	104	0	70	16471
2026-01-02 21:59:56.66	130.49	7.21	-49.4	-62.6	3.8	1.49e+00	0	43	104	0	70	16474
2026-01-02 21:59:57.67	130.61	7.16	-49.4	-62.6	3.8	1.49e+00	0	43	104	0	70	16428
2026-01-02 21:59:58.67	130.73	7.11	-49.4	-62.6	3.8	1.49e+00	0	43	104	0	70	16461
2026-01-02 21:59:59.68	130.85	7.05	-49.4	-62.7	3.8	1.49e+00	0	43	104	0	70	16534
2026-01-02 22:00:00.68	130.97	7.00	-49.4	-62.6	3.8	1.49e+00	0	43	104	0	70	16443
2026-01-02 22:00:01.69	131.09	6.95	-49.4	-62.6	3.8	1.49e+00	0	43	104	0	70	16493
2026-01-02 22:00:02.69	131.21	6.90	-49.4	-62.6	3.8	1.49e+00	0	43	104	0	70	16440
2026-01-02 22:00:03.69	131.33	6.84	-49.4	-62.6	3.8	1.49e+00	0	43	104	0	70	16467
2026-01-02 22:00:04.70	131.45	6.79	-49.4	-62.6	3.8	1.49e+00	0	43	104	0	70	16492
2026-01-02 22:00:05.70	131.57	6.74	-49.4	-62.6	3.8	1.49e+00	0	43	104	0	70	16469
2026-01-02 22:00:06.70	131.69	6.69	-49.4	-62.6	3.8	1.49e+00	0	43	104	0	70	16463
2026-01-02 22:00:07.71	131.81	6.63	-49.4	-62.6	3.8	1.49e+00	0	43	104	0	70	16441
2026-01-02 22:00:08.71	131.92	6.58	-49.4	-62.6	3.8	1.49e+00	0	43	104	0	70	16456
2026-01-02 22:00:09.71	132.04	6.53	-49.4	-62.6	3.8	1.49e+00	0	43	104	0	70	16444
2026-01-02 22:00:10.72	132.16	6.48	-49.4	-62.6	3.8	1.49e+00	0	43	104	0	70	16500
2026-01-02 22:00:11.72	132.27	6.42	-49.4	-62.6	3.8	1.49e+00	0	43	104	0	70	16466
2026-01-02 22:00:12.73	132.39	6.37	-49.4	-62.6	3.8	1.49e+00	0	43	104	0	70	16448
2026-01-02 22:00:13.73	132.50	6.32	-49.4	-62.6	3.8	1.49e+00	0	43	104	0	70	16466
2026-01-02 22:00:14.74	132.62	6.27	-49.4	-62.6	3.8	1.49e+00	0	43	104	0	70	16473
2026-01-02 22:00:15.74	132.73	6.21	-49.4	-62.6	3.8	1.49e+00	0	43	104	0	70	16453
2026-01-02 22:00:16.75	132.85	6.16	-49.4	-62.6	3.8	1.49e+00	0	43	104	0	70	16405
2026-01-02 22:00:17.75	132.96	6.11	-49.4	-62.6	3.8	1.49e+00	0	43	104	0	70	16401
2026-01-02 22:00:18.75	133.07	6.06	-49.4	-62.6	3.8	1.49e+00	0	43	104	0	70	16444
2026-01-02 22:00:19.76	133.19	6.00	-49.4	-62.6	3.8	1.49e+00	0	43	104	0	70	16496
2026-01-02 22:00:20.76	133.30	5.95	-49.4	-62.6	3.8	1.49e+00	0	43	104	0	70	16392
2026-01-02 22:00:21.76	133.41	5.90	-49.4	-62.6	3.8	1.49e+00	0	43	104	0	70	16416
2026-01-02 22:00:22.77	133.52	5.85	-49.4	-62.6	3.8	1.49e+00	0	43	104	0	70	16367
2026-01-02 22:00:23.77	133.64	5.79	-49.4	-62.6	3.8	1.49e+00	0	43	104	0	70	16403
2026-01-02 22:00:24.78	133.75	5.74	-49.4	-62.6	3.8	1.49e+00	0	43	104	0	70	16428
2026-01-02 22:00:25.78	133.86	5.69	-49.4	-62.6	3.8	1.49e+00	0	43	104	0	70	16411
2026-01-02 22:00:26.79	133.97	5.64	-49.4	-62.6	3.8	1.49e+00	0	43	104	0	70	16472
2026-01-02 22:00:27.79	134.08	5.59	-49.4	-62.6	3.8	1.49e+00	0	43	104	0	70	16401
2026-01-02 22:00:28.80	134.19	5.53	-49.4	-62.6	3.8	1.49e+00	0	43	104	0	70	16379
2026-01-02 22:00:29.80	134.30	5.48	-49.4	-62.6	3.8	1.49e+00	0	43	104	0	70	16445
2026-01-02 22:00:30.80	134.40	5.43	-49.4	-62.6	3.8	1.49e+00	0	43	104	0	70	16399
2026-01-02 22:00:31.81	134.51	5.38	-49.4	-62.6	3.8	1.49e+00	0	43	104	0	70	16421
2026-01-02 22:00:32.82	134.62	5.32	-49.4	-62.6	3.8	1.49e+00	0	43	104	0	70	16415
2026-01-02 22:00:33.82	134.73	5.27	-49.4	-62.6	3.8	1.49e+00	0	43	104	0	70	16360
2026-01-02 22:00:34.82	134.84	5.22	-49.4	-62.6	3.8	1.49e+00	0	43	104	0	70	16385
2026-01-02 22:00:35.83	134.94	5.17	-49.4	-62.6	3.8	1.49e+00	0	43	104	0	70	16437
2026-01-02 22:00:36.83	135.05	5.12	-49.4	-62.6	3.8	1.49e+00	0	43	104	0	70	16378
2026-01-02 22:00:37.83	135.16	5.06	-49.4	-62.6	3.8	1.49e+00	0	43	104	0	70	16400
2026-01-02 22:00:38.84	135.26	5.01	-49.4	-62.6	3.8	1.49e+00	0	43	104	0	70	16432
2026-01-02 22:00:39.84	135.37	4.96	-49.4	-62.6	3.8	1.49e+00	0	43	104	0	70	16464

#Closed at: 2026-01-02 22:00:40
#Recorded file [0 MB]: D:/Data/31040_260103_005045.dat