passes_logs/2026/01/02/T1/T1__20260102_084314_KHAYYAM_rec.log

#Pass ID: 20260102_084314_KHAYYAM
#Satellite: KHAYYAM
#Configuration: KHAYYAM_480M
#almurnet v.1.7.20251203
#Start time: 2026-01-02 08:43:15

#Version: 2.0.20230620
#Station: T1
#Location: 37.570604 lon 55.790049 lat
#TLE: 1 53370U 22096A   25365.91236145  .00003272  00000+0  13536-3 0  9993
#TLE: 2 53370  97.3565 268.1736 0001189  73.2664 286.8704 15.24655091189095

#Time	Az	El	Level	Level2	SNR	BER	BlckErr	Temp	State	Recorded	gain1	gain2
2026-01-02 08:43:15.18	197.84	5.07	-51.0	-55.7	3.5	0.00e+00	0	46	0	0	73	24982
2026-01-02 08:43:16.17	197.93	5.15	-51.0	-55.6	3.7	0.00e+00	0	46	104	0	72	26223
2026-01-02 08:43:17.18	198.02	5.22	-51.0	-55.7	3.7	0.00e+00	0	46	104	0	72	26309
2026-01-02 08:43:18.18	198.11	5.30	-51.0	-55.7	3.7	0.00e+00	0	46	104	0	72	26305
2026-01-02 08:43:19.18	198.21	5.37	-51.0	-55.6	3.7	0.00e+00	0	46	104	0	72	26215
2026-01-02 08:43:20.19	198.30	5.45	-51.0	-55.7	3.7	0.00e+00	0	46	104	0	72	26460
2026-01-02 08:43:21.19	198.40	5.53	-51.1	-55.7	3.7	0.00e+00	0	46	104	0	72	26522
2026-01-02 08:43:22.20	198.49	5.60	-51.0	-55.7	3.7	0.00e+00	0	46	104	0	72	26468
2026-01-02 08:43:23.20	198.59	5.68	-51.0	-55.7	3.7	0.00e+00	0	46	104	0	72	26406
2026-01-02 08:43:24.21	198.68	5.75	-51.0	-55.7	3.7	0.00e+00	0	47	104	0	72	26400
2026-01-02 08:43:25.21	198.78	5.83	-51.1	-55.7	3.7	0.00e+00	0	47	104	0	72	26454
2026-01-02 08:43:26.21	198.88	5.91	-51.1	-55.7	3.7	0.00e+00	0	47	104	0	72	26580
2026-01-02 08:43:27.22	198.98	5.99	-51.0	-55.7	3.7	0.00e+00	0	47	104	0	72	26384
2026-01-02 08:43:28.22	199.08	6.06	-51.0	-55.6	3.7	0.00e+00	0	47	104	0	72	26229
2026-01-02 08:43:29.23	199.18	6.14	-51.0	-55.7	3.7	0.00e+00	0	47	104	0	72	26461
2026-01-02 08:43:30.23	199.28	6.22	-51.0	-55.7	3.7	0.00e+00	0	47	104	0	72	26359
2026-01-02 08:43:31.23	199.38	6.30	-51.0	-55.7	3.7	0.00e+00	0	47	104	0	72	26414
2026-01-02 08:43:32.24	199.48	6.38	-51.0	-55.7	3.7	0.00e+00	0	47	104	0	72	26291
2026-01-02 08:43:33.24	199.58	6.46	-51.0	-55.7	3.7	0.00e+00	0	47	104	0	72	26328
2026-01-02 08:43:34.24	199.68	6.53	-51.0	-55.7	3.7	0.00e+00	0	47	104	0	72	26370
2026-01-02 08:43:35.25	199.79	6.61	-51.0	-55.7	3.7	0.00e+00	0	47	104	0	72	26304
2026-01-02 08:43:36.25	199.89	6.69	-51.0	-55.7	3.7	0.00e+00	0	47	104	0	72	26359
2026-01-02 08:43:37.25	200.00	6.77	-51.0	-55.6	3.7	0.00e+00	0	47	104	0	72	26238
2026-01-02 08:43:38.26	200.10	6.85	-51.0	-55.7	3.7	0.00e+00	0	48	104	0	72	26374
2026-01-02 08:43:39.26	200.21	6.94	-51.0	-55.6	3.7	0.00e+00	0	47	104	0	72	26248
2026-01-02 08:43:40.26	200.32	7.02	-51.0	-55.6	3.7	0.00e+00	0	48	104	0	72	26242
2026-01-02 08:43:41.27	200.43	7.10	-51.1	-55.7	3.7	0.00e+00	0	48	104	0	72	26428
2026-01-02 08:43:42.27	200.53	7.18	-51.0	-55.6	3.7	0.00e+00	0	48	104	0	72	26206
2026-01-02 08:43:43.28	200.65	7.26	-51.0	-55.6	3.7	0.00e+00	0	48	104	0	72	26156
2026-01-02 08:43:44.28	200.75	7.34	-51.0	-55.7	3.7	0.00e+00	0	48	104	0	72	26447
2026-01-02 08:43:45.29	200.87	7.43	-51.0	-55.7	3.7	0.00e+00	0	48	104	0	72	26404
2026-01-02 08:43:46.29	200.98	7.51	-51.0	-55.7	3.7	0.00e+00	0	48	104	0	72	26501
2026-01-02 08:43:47.30	201.09	7.59	-51.0	-55.6	3.7	0.00e+00	0	48	104	0	72	26192
2026-01-02 08:43:48.30	201.20	7.67	-51.0	-55.7	3.7	0.00e+00	0	48	104	0	72	26379
2026-01-02 08:43:49.30	201.32	7.76	-51.0	-55.7	3.7	0.00e+00	0	48	104	0	72	26376
2026-01-02 08:43:50.31	201.43	7.84	-51.0	-55.7	3.7	0.00e+00	0	48	104	0	72	26331
2026-01-02 08:43:51.31	201.55	7.92	-51.0	-55.7	3.7	0.00e+00	0	48	104	0	72	26359
2026-01-02 08:43:52.31	201.67	8.01	-51.1	-55.7	3.7	0.00e+00	0	48	104	0	72	26379
2026-01-02 08:43:53.32	201.78	8.09	-51.1	-55.7	3.7	0.00e+00	0	48	104	0	72	26557
2026-01-02 08:43:54.32	201.90	8.18	-51.0	-55.7	3.7	0.00e+00	0	48	104	0	72	26438
2026-01-02 08:43:55.32	202.02	8.26	-51.1	-55.7	3.7	0.00e+00	0	48	104	0	72	26484
2026-01-02 08:43:56.32	202.14	8.35	-51.0	-55.7	3.7	0.00e+00	0	48	104	0	72	26285
2026-01-02 08:43:57.33	202.26	8.43	-51.0	-55.6	3.7	0.00e+00	0	48	104	0	72	26220
2026-01-02 08:43:58.33	202.38	8.52	-51.0	-55.7	3.7	0.00e+00	0	48	104	0	72	26383
2026-01-02 08:43:59.33	202.51	8.61	-51.0	-55.7	3.7	0.00e+00	0	48	104	0	72	26364
2026-01-02 08:44:00.34	202.63	8.69	-51.0	-55.7	3.7	0.00e+00	0	48	104	0	72	26365
2026-01-02 08:44:01.34	202.75	8.78	-51.0	-55.6	3.7	0.00e+00	0	48	104	0	72	26268
2026-01-02 08:44:02.34	202.88	8.87	-51.0	-55.7	3.6	0.00e+00	0	48	104	0	72	26351
2026-01-02 08:44:03.35	203.01	8.95	-51.0	-55.7	3.7	0.00e+00	0	48	104	0	72	26327
2026-01-02 08:44:04.35	203.13	9.04	-51.1	-55.7	3.7	0.00e+00	0	48	104	0	72	26491
2026-01-02 08:44:05.35	203.26	9.13	-51.0	-55.7	3.7	0.00e+00	0	49	104	0	72	26450
2026-01-02 08:44:06.36	203.39	9.22	-50.8	-55.5	3.7	0.00e+00	0	49	104	0	72	25740
2026-01-02 08:44:07.36	203.52	9.31	-50.7	-55.7	3.7	0.00e+00	0	49	104	0	72	26330
2026-01-02 08:44:08.37	203.65	9.40	-50.6	-55.5	3.7	0.00e+00	0	49	104	0	72	25876
2026-01-02 08:44:09.37	203.78	9.49	-50.8	-55.6	3.7	0.00e+00	0	49	104	0	72	26158
2026-01-02 08:44:10.44	203.92	9.58	-50.5	-55.4	3.7	0.00e+00	0	49	104	0	72	25606
2026-01-02 08:44:11.30	204.04	9.66	-50.6	-55.6	3.7	0.00e+00	0	49	104	0	72	26195
2026-01-02 08:44:12.43	204.19	9.76	-50.7	-55.6	3.7	0.00e+00	0	49	104	0	72	26053
2026-01-02 08:44:13.28	204.31	9.84	-50.7	-55.5	3.7	0.00e+00	0	49	104	0	72	25939
2026-01-02 08:44:14.42	204.46	9.94	-50.7	-55.6	3.7	0.00e+00	0	49	104	0	72	26048
2026-01-02 08:44:15.28	204.58	10.02	-50.6	-55.6	3.7	0.00e+00	0	49	104	0	72	26088
2026-01-02 08:44:16.41	204.73	10.12	-40.5	-41.6	12.4	0.00e+00	0	49	0	8388608	51	17483
2026-01-02 08:44:17.27	204.85	10.20	-43.9	-45.3	9.1	2.99e-02	0	49	0	58720256	59	16851
2026-01-02 08:44:18.40	205.01	10.31	-37.2	-38.2	14.3	7.60e-03	0	49	0	134217728	46	15767
2026-01-02 08:44:19.26	205.14	10.39	-35.5	-36.4	15.7	0.00e+00	0	49	0	184549376	43	15268
2026-01-02 08:44:20.40	205.30	10.49	-34.2	-35.1	16.8	0.00e+00	0	50	0	251658240	40	15517
2026-01-02 08:44:21.26	205.42	10.57	-33.4	-34.3	17.5	0.00e+00	0	49	0	301989888	38	15865
2026-01-02 08:44:22.40	205.59	10.68	-33.4	-34.3	17.5	0.00e+00	0	50	0	369098752	38	15845
2026-01-02 08:44:23.25	205.71	10.76	-33.1	-34.0	17.6	0.00e+00	0	50	0	419430400	38	15361
2026-01-02 08:44:24.38	205.88	10.87	-32.8	-33.7	17.8	0.00e+00	0	50	0	486539264	37	15685
2026-01-02 08:44:25.24	206.00	10.95	-32.7	-33.6	17.9	0.00e+00	0	50	0	536870912	37	15558
2026-01-02 08:44:26.38	206.17	11.05	-32.8	-33.7	17.8	0.00e+00	0	50	0	612368384	37	15698
2026-01-02 08:44:27.24	206.30	11.14	-32.9	-33.8	17.8	0.00e+00	0	50	0	662700032	37	15911
2026-01-02 08:44:28.38	206.48	11.25	-33.0	-33.9	17.7	0.00e+00	0	50	0	729808896	37	16018
2026-01-02 08:44:29.24	206.61	11.33	-32.9	-33.8	17.8	0.00e+00	0	50	0	780140544	37	15877
2026-01-02 08:44:30.38	206.78	11.44	-32.6	-33.5	17.9	0.00e+00	0	50	0	847249408	37	15416
2026-01-02 08:44:31.24	206.92	11.52	-32.6	-33.5	17.9	0.00e+00	0	50	0	897581056	37	15346
2026-01-02 08:44:32.38	207.10	11.63	-32.6	-33.5	17.9	0.00e+00	0	50	0	973078528	37	15372
2026-01-02 08:44:33.23	207.23	11.71	-32.6	-33.5	17.9	0.00e+00	0	50	0	1023410176	37	15393
2026-01-02 08:44:34.38	207.41	11.83	-32.5	-33.4	18.0	0.00e+00	0	50	0	1090519040	37	15206
2026-01-02 08:44:35.23	207.55	11.91	-32.4	-33.3	18.1	0.00e+00	0	50	0	1140850688	36	15986
2026-01-02 08:44:36.37	207.73	12.02	-32.3	-33.1	18.3	0.00e+00	0	50	0	1207959552	36	15638
2026-01-02 08:44:37.23	207.87	12.11	-32.3	-33.2	18.3	0.00e+00	0	50	0	1258291200	36	15719
2026-01-02 08:44:38.37	208.06	12.22	-32.4	-33.3	18.4	0.00e+00	0	50	0	1325400064	36	15839
2026-01-02 08:44:39.22	208.20	12.30	-32.3	-33.2	18.5	0.00e+00	0	50	0	1375731712	36	15711
2026-01-02 08:44:40.36	208.39	12.42	-32.3	-33.2	18.5	0.00e+00	0	50	0	1442840576	36	15690
2026-01-02 08:44:41.21	208.53	12.50	-32.4	-33.2	18.5	0.00e+00	0	50	0	1501560832	36	15821
2026-01-02 08:44:42.35	208.73	12.62	-32.0	-32.9	18.7	0.00e+00	0	50	0	1568669696	36	15181
2026-01-02 08:44:43.21	208.87	12.70	-30.8	-31.6	18.3	0.00e+00	0	50	0	1619001344	33	15633
2026-01-02 08:44:44.35	209.07	12.82	-30.8	-31.7	18.2	0.00e+00	0	50	0	1686110208	33	15700
2026-01-02 08:44:45.21	209.22	12.91	-30.8	-31.6	18.2	0.00e+00	0	51	0	1736441856	33	15581
2026-01-02 08:44:46.35	209.42	13.02	-30.8	-31.7	18.1	0.00e+00	0	50	0	1803550720	33	15694
2026-01-02 08:44:47.21	209.57	13.11	-30.8	-31.7	18.2	0.00e+00	0	51	0	1853882368	33	15694
2026-01-02 08:44:48.35	209.77	13.23	-30.9	-31.7	18.2	0.00e+00	0	51	0	1929379840	33	15809
2026-01-02 08:44:49.21	209.93	13.32	-30.7	-31.6	18.3	0.00e+00	0	51	0	1979711488	33	15567
2026-01-02 08:44:50.35	210.13	13.43	-30.5	-31.4	18.5	0.00e+00	0	51	0	2046820352	33	15179
2026-01-02 08:44:51.20	210.29	13.52	-30.7	-31.6	18.4	0.00e+00	0	51	0	2097152000	33	15502
2026-01-02 08:44:52.34	210.50	13.64	-30.4	-31.3	18.6	0.00e+00	0	51	0	2164260864	32	15853
2026-01-02 08:44:53.20	210.66	13.73	-30.3	-31.2	18.7	0.00e+00	0	51	0	2214592512	32	15749
2026-01-02 08:44:54.35	210.87	13.85	-30.4	-31.3	18.6	0.00e+00	0	51	0	2290089984	32	15904
2026-01-02 08:44:55.20	211.03	13.94	-30.3	-31.1	18.7	0.00e+00	0	51	0	2340421632	32	15590
2026-01-02 08:44:56.34	211.25	14.06	-30.1	-30.9	18.8	0.00e+00	0	51	0	2407530496	32	15266
2026-01-02 08:44:57.19	211.41	14.15	-30.0	-30.9	18.8	0.00e+00	0	51	0	2457862144	32	15221
2026-01-02 08:44:58.33	211.63	14.27	-30.0	-30.9	18.8	0.00e+00	0	51	0	2524971008	32	15185
2026-01-02 08:44:59.19	211.80	14.36	-30.1	-31.0	18.6	0.00e+00	0	51	0	2575302656	32	15410
2026-01-02 08:45:00.33	212.02	14.48	-30.2	-31.0	18.6	0.00e+00	0	51	0	2650800128	32	15407
2026-01-02 08:45:01.19	212.19	14.58	-30.0	-30.9	18.6	0.00e+00	0	51	0	2701131776	32	15231
2026-01-02 08:45:02.33	212.42	14.70	-30.0	-30.9	18.5	0.00e+00	0	51	0	2768240640	31	16041
2026-01-02 08:45:03.19	212.60	14.79	-29.8	-30.6	18.7	0.00e+00	0	51	0	2818572288	31	15632
2026-01-02 08:45:04.33	212.83	14.91	-29.8	-30.7	18.8	0.00e+00	0	51	0	2885681152	31	15661
2026-01-02 08:45:05.18	213.00	15.01	-29.7	-30.6	18.8	0.00e+00	0	51	0	2936012800	31	15564
2026-01-02 08:45:06.33	213.24	15.13	-29.9	-30.7	18.8	0.00e+00	0	51	0	3003121664	31	15759
2026-01-02 08:45:07.18	213.42	15.22	-29.7	-30.5	18.9	0.00e+00	0	51	0	3061841920	31	15472
2026-01-02 08:45:08.32	213.66	15.35	-29.6	-30.4	19.1	0.00e+00	0	51	0	3120562176	31	15258
2026-01-02 08:45:09.18	213.84	15.44	-29.6	-30.5	18.8	0.00e+00	0	51	0	3179282432	31	15323
2026-01-02 08:45:10.32	214.08	15.57	-29.4	-30.3	19.0	0.00e+00	0	51	0	3246391296	30	15943
2026-01-02 08:45:11.18	214.27	15.66	-29.4	-30.3	19.0	0.00e+00	0	51	0	3296722944	30	15917
2026-01-02 08:45:12.32	214.52	15.79	-29.5	-30.4	19.0	0.00e+00	0	51	0	3363831808	30	16038
2026-01-02 08:45:13.18	214.70	15.89	-29.3	-30.1	19.1	0.00e+00	0	51	0	3414163456	30	15588
2026-01-02 08:45:14.32	214.96	16.01	-29.3	-30.2	19.0	0.00e+00	0	51	0	3481272320	30	15689
2026-01-02 08:45:15.18	215.15	16.11	-29.2	-30.1	19.1	0.00e+00	0	51	0	3539992576	30	15587
2026-01-02 08:45:16.31	215.40	16.24	-29.1	-30.0	19.1	0.00e+00	0	51	0	3607101440	30	15301
2026-01-02 08:45:17.17	215.60	16.33	-29.1	-30.0	18.9	0.00e+00	0	51	0	3657433088	30	15410
2026-01-02 08:45:18.31	215.86	16.46	-29.0	-29.9	19.1	0.00e+00	0	51	0	3724541952	29	16040
2026-01-02 08:45:19.17	216.06	16.56	-29.0	-29.8	19.1	0.00e+00	0	51	0	3774873600	29	15957
2026-01-02 08:45:20.31	216.32	16.69	-28.9	-29.8	19.3	0.00e+00	0	51	0	3841982464	29	15855
2026-01-02 08:45:21.17	216.53	16.78	-28.8	-29.7	19.3	0.00e+00	0	51	0	3892314112	29	15699
2026-01-02 08:45:22.31	216.80	16.91	-29.0	-29.9	19.1	0.00e+00	0	51	0	3967811584	29	16102
2026-01-02 08:45:23.16	217.00	17.01	-28.9	-29.8	19.2	0.00e+00	0	51	0	4018143232	29	15900
2026-01-02 08:45:24.30	217.27	17.14	-28.6	-29.5	19.4	0.00e+00	0	51	0	4085252096	29	15377
2026-01-02 08:45:25.16	217.48	17.24	-28.7	-29.5	19.2	0.00e+00	0	51	0	4135583744	29	15449
2026-01-02 08:45:26.30	217.76	17.37	-28.6	-29.5	19.3	0.00e+00	0	51	0	4202692608	29	15356
2026-01-02 08:45:27.15	217.97	17.47	-28.7	-29.6	19.3	0.00e+00	0	51	0	4253024256	29	15478
2026-01-02 08:45:28.29	218.26	17.60	-28.6	-29.4	19.4	0.00e+00	0	51	0	4320133120	29	15256
2026-01-02 08:45:29.15	218.48	17.70	-28.5	-29.4	19.4	0.00e+00	0	51	0	4378853376	29	15129
2026-01-02 08:45:30.29	218.77	17.83	-28.5	-29.3	19.3	0.00e+00	0	51	0	4445962240	28	15956
2026-01-02 08:45:31.14	218.98	17.93	-28.5	-29.3	19.3	0.00e+00	0	51	0	4496293888	28	15965
2026-01-02 08:45:32.28	219.28	18.06	-28.4	-29.3	19.3	0.00e+00	0	52	0	4563402752	28	15856
2026-01-02 08:45:33.13	219.50	18.16	-28.3	-29.2	19.4	0.00e+00	0	51	0	4613734400	28	15667
2026-01-02 08:45:34.27	219.80	18.29	-28.3	-29.1	19.4	0.00e+00	0	51	0	4680843264	28	15652
2026-01-02 08:45:35.13	220.03	18.39	-28.3	-29.2	19.4	0.00e+00	0	51	0	4731174912	28	15683
2026-01-02 08:45:36.27	220.33	18.53	-28.1	-28.9	19.6	0.00e+00	0	51	0	4798283776	28	15224
2026-01-02 08:45:37.13	220.57	18.63	-28.1	-28.9	19.6	0.00e+00	0	51	0	4857004032	28	15291
2026-01-02 08:45:38.27	220.88	18.76	-28.1	-29.0	19.5	0.00e+00	0	51	0	4924112896	28	15347
2026-01-02 08:45:39.13	221.11	18.86	-28.1	-29.0	19.6	0.00e+00	0	51	0	4974444544	28	15380
2026-01-02 08:45:40.26	221.43	18.99	-28.1	-28.9	19.6	0.00e+00	0	51	0	5041553408	28	15241
2026-01-02 08:45:41.11	221.67	19.09	-28.0	-28.9	19.7	0.00e+00	0	51	0	5091885056	27	16111
2026-01-02 08:45:42.25	221.99	19.23	-27.9	-28.8	19.8	0.00e+00	0	51	0	5158993920	27	15852
2026-01-02 08:45:43.11	222.23	19.33	-28.0	-28.9	19.6	0.00e+00	0	51	0	5209325568	27	16056
2026-01-02 08:45:44.25	222.56	19.46	-27.9	-28.8	19.7	0.00e+00	0	51	0	5284823040	27	15911
2026-01-02 08:45:45.11	222.81	19.57	-28.0	-28.8	19.7	0.00e+00	0	51	0	5335154688	27	15942
2026-01-02 08:45:46.24	223.14	19.70	-28.0	-28.8	19.8	0.00e+00	0	51	0	5402263552	27	16002
2026-01-02 08:45:47.10	223.39	19.80	-27.7	-28.6	20.0	0.00e+00	0	51	0	5452595200	27	15564
2026-01-02 08:45:48.24	223.73	19.94	-27.8	-28.6	20.0	0.00e+00	0	52	0	5519704064	27	15579
2026-01-02 08:45:49.09	223.99	20.04	-27.8	-28.7	19.8	0.00e+00	0	51	0	5570035712	27	15675
2026-01-02 08:45:50.23	224.33	20.17	-27.8	-28.7	19.9	0.00e+00	0	51	0	5637144576	27	15692
2026-01-02 08:45:51.09	224.59	20.27	-27.6	-28.4	20.1	0.00e+00	0	52	0	5695864832	27	15275
2026-01-02 08:45:52.23	224.95	20.41	-27.5	-28.3	20.2	0.00e+00	0	51	0	5762973696	27	15072
2026-01-02 08:45:53.08	225.21	20.51	-27.4	-28.2	20.2	0.00e+00	0	52	0	5813305344	26	15798
2026-01-02 08:45:54.22	225.57	20.64	-27.5	-28.4	20.0	0.00e+00	0	52	0	5880414208	26	16054
2026-01-02 08:45:55.08	225.84	20.74	-27.3	-28.2	20.2	0.00e+00	0	51	0	5930745856	26	15710
2026-01-02 08:45:56.22	226.20	20.88	-27.4	-28.2	20.2	0.00e+00	0	52	0	5997854720	26	15759
2026-01-02 08:45:57.07	226.48	20.98	-27.3	-28.2	20.2	0.00e+00	0	52	0	6048186368	26	15759
2026-01-02 08:45:58.21	226.84	21.11	-27.4	-28.2	20.0	0.00e+00	0	52	0	6115295232	26	15826
2026-01-02 08:45:59.06	227.12	21.21	-27.2	-28.0	20.2	0.00e+00	0	52	0	6165626880	26	15416
2026-01-02 08:46:00.21	227.50	21.34	-27.3	-28.1	20.1	0.00e+00	0	52	0	6241124352	26	15646
2026-01-02 08:46:01.06	227.78	21.44	-27.3	-28.1	20.1	0.00e+00	0	51	0	6291456000	26	15596
2026-01-02 08:46:02.20	228.17	21.58	-27.3	-28.1	20.2	0.00e+00	0	52	0	6358564864	26	15566
2026-01-02 08:46:03.06	228.46	21.68	-27.1	-27.9	20.2	0.00e+00	0	52	0	6408896512	26	15255
2026-01-02 08:46:04.19	228.84	21.81	-27.1	-27.9	20.2	0.00e+00	0	52	0	6476005376	26	15260
2026-01-02 08:46:05.05	229.14	21.91	-27.1	-27.9	20.2	0.00e+00	0	52	0	6526337024	26	15263
2026-01-02 08:46:06.19	229.53	22.04	-27.0	-27.9	20.3	0.00e+00	0	52	0	6601834496	26	15196
2026-01-02 08:46:07.05	229.83	22.14	-26.9	-27.7	20.2	0.00e+00	0	52	0	6652166144	25	15793
2026-01-02 08:46:08.19	230.24	22.27	-27.0	-27.8	20.1	0.00e+00	0	52	0	6719275008	25	15930
2026-01-02 08:46:09.05	230.54	22.37	-27.0	-27.8	20.2	0.00e+00	0	52	0	6769606656	25	15961
2026-01-02 08:46:10.19	230.95	22.50	-26.8	-27.6	20.4	0.00e+00	0	52	0	6836715520	25	15591
2026-01-02 08:46:11.04	231.26	22.60	-27.0	-27.8	20.1	0.00e+00	0	52	0	6887047168	25	15973
2026-01-02 08:46:12.18	231.67	22.73	-26.7	-27.6	20.3	0.00e+00	0	52	0	6954156032	25	15547
2026-01-02 08:46:13.03	231.98	22.82	-26.8	-27.6	20.3	0.00e+00	0	52	0	7012876288	25	15576
2026-01-02 08:46:14.18	232.41	22.95	-26.6	-27.4	20.5	0.00e+00	0	52	0	7079985152	25	15271
2026-01-02 08:46:15.03	232.73	23.05	-26.7	-27.6	20.3	0.00e+00	0	52	0	7130316800	25	15559
2026-01-02 08:46:16.17	233.16	23.17	-26.8	-27.6	20.3	0.00e+00	0	52	0	7197425664	25	15599
2026-01-02 08:46:17.03	233.48	23.27	-26.5	-27.3	20.5	0.00e+00	0	52	0	7247757312	25	15081
2026-01-02 08:46:18.17	233.92	23.39	-26.6	-27.4	20.2	0.00e+00	0	52	0	7314866176	24	16146
2026-01-02 08:46:19.03	234.25	23.49	-26.7	-27.5	20.2	0.00e+00	0	52	0	7365197824	24	16353
2026-01-02 08:46:20.17	234.69	23.61	-26.7	-27.6	20.3	0.00e+00	0	52	0	7432306688	24	16423
2026-01-02 08:46:21.02	235.02	23.71	-26.4	-27.3	20.6	0.00e+00	0	52	0	7482638336	24	15855
2026-01-02 08:46:22.16	235.47	23.83	-26.4	-27.3	20.3	0.00e+00	0	52	0	7558135808	24	15910
2026-01-02 08:46:23.02	235.81	23.92	-26.5	-27.4	20.3	0.00e+00	0	52	0	7608467456	24	16057
2026-01-02 08:46:24.16	236.27	24.04	-26.3	-27.1	20.6	0.00e+00	0	52	0	7675576320	24	15577
2026-01-02 08:46:25.02	236.61	24.13	-26.4	-27.3	20.4	0.00e+00	0	52	0	7725907968	24	15854
2026-01-02 08:46:26.16	237.08	24.25	-26.6	-27.4	20.3	0.00e+00	0	52	0	7793016832	24	16198
2026-01-02 08:46:27.01	237.42	24.34	-26.4	-27.2	20.5	0.00e+00	0	52	0	7843348480	24	15789
2026-01-02 08:46:28.15	237.89	24.46	-26.2	-27.0	20.7	0.00e+00	0	52	0	7918845952	24	15418
2026-01-02 08:46:29.00	238.25	24.54	-26.2	-27.1	20.5	0.00e+00	0	52	0	7969177600	24	15482
2026-01-02 08:46:30.15	238.73	24.66	-26.4	-27.2	20.6	0.00e+00	0	52	0	8036286464	24	15746
2026-01-02 08:46:31.00	239.08	24.74	-26.2	-27.0	20.8	0.00e+00	0	52	0	8086618112	24	15455
2026-01-02 08:46:32.13	239.56	24.85	-26.1	-26.9	20.6	0.00e+00	0	52	0	8153726976	24	15227
2026-01-02 08:46:32.98	239.92	24.94	-26.2	-27.0	20.7	0.00e+00	0	52	0	8204058624	24	15472
2026-01-02 08:46:34.12	240.41	25.05	-26.0	-26.8	21.0	0.00e+00	0	52	0	8271167488	23	15939
2026-01-02 08:46:34.97	240.78	25.13	-26.2	-27.1	20.7	0.00e+00	0	52	0	8329887744	23	16433
2026-01-02 08:46:36.12	241.28	25.24	-26.1	-26.9	20.7	0.00e+00	0	52	0	8396996608	23	16131
2026-01-02 08:46:36.97	241.65	25.32	-26.1	-26.9	20.8	0.00e+00	0	52	0	8447328256	23	16143
2026-01-02 08:46:38.11	242.15	25.42	-25.9	-26.8	20.7	0.00e+00	0	52	0	8514437120	23	15891
2026-01-02 08:46:38.96	242.53	25.50	-26.0	-26.9	20.8	0.00e+00	0	52	0	8564768768	23	16028
2026-01-02 08:46:40.10	243.04	25.60	-26.1	-26.9	20.8	0.00e+00	0	52	0	8631877632	23	16125
2026-01-02 08:46:40.95	243.42	25.68	-26.1	-26.9	20.8	0.00e+00	0	52	0	8682209280	23	16112
2026-01-02 08:46:42.09	243.93	25.78	-25.9	-26.7	21.0	0.00e+00	0	52	0	8749318144	23	15793
2026-01-02 08:46:42.95	244.32	25.85	-25.9	-26.8	21.0	0.00e+00	0	52	0	8799649792	23	15855
2026-01-02 08:46:44.09	244.85	25.94	-25.7	-26.6	21.0	0.00e+00	0	52	0	8875147264	23	15540
2026-01-02 08:46:44.95	245.24	26.02	-25.9	-26.7	20.9	0.00e+00	0	52	0	8925478912	23	15761
2026-01-02 08:46:46.09	245.77	26.11	-26.0	-26.8	21.0	0.00e+00	0	52	0	8992587776	23	15930
2026-01-02 08:46:46.95	246.17	26.18	-26.0	-26.8	20.8	0.00e+00	0	52	0	9042919424	23	15986
2026-01-02 08:46:48.09	246.70	26.27	-25.7	-26.5	20.9	0.00e+00	0	52	0	9110028288	23	15433
2026-01-02 08:46:48.94	247.10	26.33	-25.7	-26.6	20.9	0.00e+00	0	52	0	9160359936	23	15476
2026-01-02 08:46:50.08	247.63	26.42	-25.7	-26.5	20.8	0.00e+00	0	52	0	9235857408	22	16302
2026-01-02 08:46:50.94	248.04	26.48	-25.6	-26.4	20.9	0.00e+00	0	52	0	9286189056	22	16129
2026-01-02 08:46:52.08	248.59	26.56	-25.7	-26.5	20.9	0.00e+00	0	52	0	9353297920	22	16378
2026-01-02 08:46:52.93	248.99	26.62	-25.5	-26.4	21.1	0.00e+00	0	52	0	9403629568	23	15188
2026-01-02 08:46:54.07	249.54	26.70	-25.6	-26.5	21.2	0.00e+00	0	52	0	9470738432	23	15347
2026-01-02 08:46:54.93	249.96	26.75	-25.7	-26.6	21.2	0.00e+00	0	52	0	9521070080	23	15492
2026-01-02 08:46:56.06	250.51	26.83	-25.6	-26.4	21.2	0.00e+00	0	52	0	9588178944	23	15229
2026-01-02 08:46:56.92	250.92	26.88	-25.5	-26.3	21.2	0.00e+00	0	52	0	9646899200	23	15105
2026-01-02 08:46:58.06	251.48	26.95	-25.6	-26.4	21.2	0.00e+00	0	52	0	9705619456	23	15293
2026-01-02 08:46:58.91	251.90	27.00	-26.0	-26.8	20.8	0.00e+00	0	52	0	9764339712	23	16005
2026-01-02 08:47:00.06	252.47	27.06	-25.4	-26.2	21.2	0.00e+00	0	52	0	9831448576	22	15810
2026-01-02 08:47:00.91	252.89	27.11	-26.0	-26.8	20.7	0.00e+00	0	52	0	9881780224	22	16896
2026-01-02 08:47:02.05	253.45	27.17	-25.1	-25.9	21.3	0.00e+00	0	52	0	9948889088	22	15248
2026-01-02 08:47:02.90	253.88	27.21	-25.2	-26.0	21.2	0.00e+00	0	52	0	9999220736	22	15467
2026-01-02 08:47:04.05	254.45	27.27	-25.4	-26.2	21.0	0.00e+00	0	52	0	10066329600	22	15831
2026-01-02 08:47:04.91	254.89	27.31	-25.6	-26.5	21.0	0.00e+00	0	52	0	10116661248	22	16282
2026-01-02 08:47:06.05	255.46	27.36	-25.2	-26.1	21.3	0.00e+00	0	52	0	10192158720	22	15529
2026-01-02 08:47:06.90	255.89	27.40	-25.4	-26.2	21.1	0.00e+00	0	52	0	10242490368	22	15806
2026-01-02 08:47:08.04	256.47	27.44	-25.3	-26.1	21.4	0.00e+00	0	52	0	10309599232	22	15618
2026-01-02 08:47:08.89	256.90	27.48	-25.6	-26.5	21.2	0.00e+00	0	52	0	10359930880	22	16226
2026-01-02 08:47:10.03	257.48	27.52	-25.4	-26.3	21.2	0.00e+00	0	52	0	10427039744	22	15871
2026-01-02 08:47:10.89	257.92	27.55	-25.7	-26.5	21.1	0.00e+00	0	52	0	10477371392	22	16319
2026-01-02 08:47:12.03	258.50	27.58	-25.3	-26.1	21.3	0.00e+00	0	52	0	10552868864	22	15574
2026-01-02 08:47:12.88	258.94	27.61	-25.4	-26.2	21.1	0.00e+00	0	52	0	10603200512	22	15744
2026-01-02 08:47:14.02	259.52	27.64	-25.5	-26.4	20.9	0.00e+00	0	52	0	10670309376	22	16110
2026-01-02 08:47:14.88	259.96	27.66	-25.2	-26.0	21.2	0.00e+00	0	52	0	10720641024	22	15466
2026-01-02 08:47:16.01	260.54	27.69	-25.4	-26.2	21.2	0.00e+00	0	52	0	10787749888	22	15715
2026-01-02 08:47:16.87	260.99	27.70	-25.5	-26.3	21.1	0.00e+00	0	52	0	10838081536	22	15996
2026-01-02 08:47:18.01	261.58	27.73	-25.1	-26.0	21.5	0.00e+00	0	52	0	10905190400	22	15339
2026-01-02 08:47:18.86	262.02	27.74	-25.3	-26.1	21.5	0.00e+00	0	52	0	10963910656	22	15597
2026-01-02 08:47:20.01	262.61	27.75	-25.4	-26.3	21.4	0.00e+00	0	52	0	11022630912	22	15837
2026-01-02 08:47:20.85	263.05	27.76	-25.2	-26.0	21.6	0.00e+00	0	52	0	11072962560	22	15421
2026-01-02 08:47:22.00	263.64	27.77	-25.6	-26.4	21.3	0.00e+00	0	52	0	11148460032	22	16184
2026-01-02 08:47:22.85	264.08	27.78	-25.4	-26.2	21.5	0.00e+00	0	52	0	11198791680	22	15822
2026-01-02 08:47:23.99	264.67	27.79	-25.2	-26.1	21.8	0.00e+00	0	52	0	11265900544	22	15522
2026-01-02 08:47:24.85	265.12	27.79	-25.3	-26.1	21.6	0.00e+00	0	52	0	11316232192	22	15625
2026-01-02 08:47:25.99	265.71	27.79	-25.4	-26.3	21.6	0.00e+00	0	52	0	11383341056	22	15896
2026-01-02 08:47:26.85	266.16	27.79	-25.6	-26.5	21.5	0.00e+00	0	52	0	11433672704	22	16287
2026-01-02 08:47:27.99	266.75	27.78	-25.3	-26.2	21.6	0.00e+00	0	52	0	11509170176	22	15654
2026-01-02 08:47:28.85	267.20	27.77	-25.4	-26.2	21.5	0.00e+00	0	52	0	11559501824	22	15776
2026-01-02 08:47:29.99	267.79	27.76	-25.6	-26.4	21.5	0.00e+00	0	52	0	11626610688	22	16183
2026-01-02 08:47:30.84	268.23	27.75	-25.3	-26.2	21.7	0.00e+00	0	52	0	11676942336	22	15707
2026-01-02 08:47:31.97	268.81	27.74	-25.8	-26.7	21.3	0.00e+00	0	52	0	11744051200	22	16640
2026-01-02 08:47:32.83	269.25	27.72	-25.8	-26.7	21.3	0.00e+00	0	52	0	11794382848	22	16594
2026-01-02 08:47:33.97	269.84	27.70	-25.6	-26.4	21.5	0.00e+00	0	52	0	11869880320	22	16156
2026-01-02 08:47:34.82	270.28	27.68	-25.5	-26.4	21.4	0.00e+00	0	52	0	11920211968	22	16065
2026-01-02 08:47:35.96	270.87	27.66	-25.8	-26.6	21.4	0.00e+00	0	52	0	11987320832	22	16466
2026-01-02 08:47:36.82	271.31	27.64	-25.9	-26.8	21.4	0.00e+00	0	52	0	12037652480	22	16827
2026-01-02 08:47:37.96	271.89	27.60	-25.7	-26.5	21.4	0.00e+00	0	52	0	12104761344	23	15405
2026-01-02 08:47:38.82	272.33	27.58	-25.8	-26.6	21.4	0.00e+00	0	52	0	12155092992	23	15642
2026-01-02 08:47:39.96	272.91	27.54	-25.9	-26.7	21.1	0.00e+00	0	52	0	12222201856	23	15779
2026-01-02 08:47:40.81	273.35	27.51	-25.7	-26.5	21.4	0.00e+00	0	52	0	12280922112	23	15373
2026-01-02 08:47:41.95	273.93	27.47	-25.8	-26.6	21.4	0.00e+00	0	52	0	12339642368	23	15546
2026-01-02 08:47:42.81	274.36	27.44	-25.8	-26.6	21.4	0.00e+00	0	52	0	12398362624	23	15643
2026-01-02 08:47:43.95	274.94	27.39	-26.0	-26.9	21.3	0.00e+00	0	52	0	12465471488	23	16037
2026-01-02 08:47:44.81	275.37	27.35	-52.9	-57.4	3.7	0.00e+00	0	52	104	12499025920	76	25526
2026-01-02 08:47:45.95	275.94	27.30	-52.7	-57.1	3.7	0.00e+00	0	52	104	12499025920	76	24807
2026-01-02 08:47:46.80	276.37	27.26	-52.7	-57.2	3.7	0.00e+00	0	52	104	12499025920	76	24841
2026-01-02 08:47:47.94	276.94	27.21	-52.9	-57.4	3.7	0.00e+00	0	52	104	12499025920	76	25454
2026-01-02 08:47:48.80	277.37	27.16	-52.9	-57.4	3.7	0.00e+00	0	52	104	12499025920	76	25477
2026-01-02 08:47:49.94	277.93	27.10	-52.7	-57.2	3.7	0.00e+00	0	52	104	12499025920	76	24918
2026-01-02 08:47:50.79	278.35	27.06	-52.8	-57.4	3.7	0.00e+00	0	52	104	12499025920	76	25493
2026-01-02 08:47:51.93	278.91	26.99	-52.9	-57.5	3.7	0.00e+00	0	52	104	12499025920	76	25772
2026-01-02 08:47:52.79	279.33	26.94	-52.5	-57.1	3.7	0.00e+00	0	52	104	12499025920	76	24621
2026-01-02 08:47:53.92	279.88	26.87	-52.5	-57.1	3.7	0.00e+00	0	52	104	12499025920	76	24706
2026-01-02 08:47:54.78	280.30	26.82	-52.5	-57.0	3.7	0.00e+00	0	52	104	12499025920	76	24486
2026-01-02 08:47:55.92	280.85	26.75	-52.7	-57.4	3.7	0.00e+00	0	52	104	12499025920	76	25526
2026-01-02 08:47:56.78	281.27	26.69	-52.8	-57.5	3.7	0.00e+00	0	51	104	12499025920	76	25760
2026-01-02 08:47:57.92	281.81	26.61	-52.7	-57.4	3.7	0.00e+00	0	51	104	12499025920	76	25406
2026-01-02 08:47:58.77	282.22	26.55	-52.9	-57.5	3.7	0.00e+00	0	52	104	12499025920	76	25870
2026-01-02 08:47:59.91	282.76	26.47	-52.9	-57.4	3.7	0.00e+00	0	51	104	12499025920	76	25624
2026-01-02 08:48:00.77	283.17	26.41	-53.0	-57.4	3.7	0.00e+00	0	51	104	12499025920	76	25676
2026-01-02 08:48:01.91	283.70	26.32	-53.0	-57.4	3.7	0.00e+00	0	51	104	12499025920	76	25501
2026-01-02 08:48:02.77	284.10	26.26	-52.9	-57.4	3.7	0.00e+00	0	51	104	12499025920	76	25650
2026-01-02 08:48:03.91	284.63	26.17	-52.9	-57.5	3.7	0.00e+00	0	51	104	12499025920	76	25783
2026-01-02 08:48:04.76	285.03	26.10	-52.9	-57.4	3.7	0.00e+00	0	51	104	12499025920	76	25401
2026-01-02 08:48:05.90	285.55	26.01	-52.9	-57.4	3.7	0.00e+00	0	51	104	12499025920	76	25445
2026-01-02 08:48:06.76	285.94	25.94	-53.0	-57.4	3.7	0.00e+00	0	51	104	12499025920	76	25628
2026-01-02 08:48:07.90	286.46	25.84	-52.9	-57.3	3.7	0.00e+00	0	51	104	12499025920	76	25200
2026-01-02 08:48:08.76	286.85	25.77	-52.9	-57.4	3.7	0.00e+00	0	51	104	12499025920	76	25628
2026-01-02 08:48:09.90	287.36	25.67	-52.8	-57.4	3.7	0.00e+00	0	51	104	12499025920	76	25474
2026-01-02 08:48:10.75	287.74	25.60	-53.0	-57.4	3.7	0.00e+00	0	51	104	12499025920	76	25453
2026-01-02 08:48:11.90	288.25	25.49	-53.0	-57.5	3.7	0.00e+00	0	51	104	12499025920	76	25826
2026-01-02 08:48:12.76	288.63	25.42	-52.5	-57.2	3.6	0.00e+00	0	51	104	12499025920	76	24832
2026-01-02 08:48:13.90	289.13	25.31	-52.5	-57.1	3.7	0.00e+00	0	51	104	12499025920	76	24806
2026-01-02 08:48:14.76	289.51	25.23	-52.5	-57.2	3.7	0.00e+00	0	51	104	12499025920	76	24889
2026-01-02 08:48:15.90	290.00	25.12	-52.7	-57.2	3.7	0.00e+00	0	51	104	12499025920	76	25006
2026-01-02 08:48:16.76	290.37	25.04	-52.6	-57.0	3.7	0.00e+00	0	51	104	12499025920	76	24483
2026-01-02 08:48:17.90	290.85	24.93	-52.7	-57.0	3.7	0.00e+00	0	51	104	12499025920	76	24511
2026-01-02 08:48:18.76	291.22	24.85	-52.6	-57.2	3.7	0.00e+00	0	51	104	12499025920	76	24970
2026-01-02 08:48:19.90	291.70	24.74	-51.9	-56.6	3.7	0.00e+00	0	51	104	12499025920	75	24586
2026-01-02 08:48:20.75	292.05	24.65	-51.7	-56.4	3.7	0.00e+00	0	51	104	12499025920	75	24216
2026-01-02 08:48:21.89	292.53	24.54	-51.8	-56.4	3.7	0.00e+00	0	51	104	12499025920	75	24042
2026-01-02 08:48:22.74	292.88	24.45	-52.2	-56.5	3.7	0.00e+00	0	51	104	12499025920	75	24492
2026-01-02 08:48:23.88	293.34	24.34	-52.6	-56.8	3.7	0.00e+00	0	51	104	12499025920	75	25258
2026-01-02 08:48:24.74	293.69	24.25	-52.7	-56.9	3.7	0.00e+00	0	51	104	12499025920	76	23985
2026-01-02 08:48:25.88	294.15	24.13	-52.6	-56.6	3.7	0.00e+00	0	51	104	12499025920	76	23369
2026-01-02 08:48:26.73	294.49	24.04	-52.5	-56.8	3.7	0.00e+00	0	51	104	12499025920	76	23915
2026-01-02 08:48:27.88	294.95	23.92	-52.6	-56.8	3.7	0.00e+00	0	51	104	12499025920	76	23943
2026-01-02 08:48:28.73	295.28	23.83	-52.5	-56.7	3.7	0.00e+00	0	51	104	12499025920	76	23560
2026-01-02 08:48:29.87	295.73	23.71	-52.7	-56.9	3.7	0.00e+00	0	51	104	12499025920	76	24029
2026-01-02 08:48:30.73	296.06	23.61	-52.7	-56.9	3.7	0.00e+00	0	51	104	12499025920	76	24019
2026-01-02 08:48:31.87	296.50	23.49	-52.7	-57.1	3.7	0.00e+00	0	51	104	12499025920	76	24544
2026-01-02 08:48:32.72	296.83	23.40	-52.6	-56.9	3.7	0.00e+00	0	51	104	12499025920	76	24133
2026-01-02 08:48:33.87	297.27	23.27	-52.8	-57.3	3.7	0.00e+00	0	51	104	12499025920	76	25234
2026-01-02 08:48:34.72	297.59	23.18	-52.7	-57.2	3.7	0.00e+00	0	51	104	12499025920	76	25043
2026-01-02 08:48:35.86	298.01	23.05	-52.2	-56.8	3.7	0.00e+00	0	51	104	12499025920	76	23814
2026-01-02 08:48:36.71	298.33	22.96	-52.3	-56.9	3.7	0.00e+00	0	51	104	12499025920	76	23997
2026-01-02 08:48:37.85	298.75	22.83	-52.1	-56.7	3.7	0.00e+00	0	51	104	12499025920	76	23516
2026-01-02 08:48:38.71	299.06	22.73	-52.4	-57.0	3.7	0.00e+00	0	51	104	12499025920	76	24287
2026-01-02 08:48:39.85	299.47	22.60	-52.6	-57.1	3.7	0.00e+00	0	51	104	12499025920	76	24766
2026-01-02 08:48:40.70	299.78	22.51	-52.7	-57.2	3.6	0.00e+00	0	51	104	12499025920	76	24810
2026-01-02 08:48:41.85	300.19	22.38	-52.5	-57.0	3.7	0.00e+00	0	51	104	12499025920	76	24282
2026-01-02 08:48:42.70	300.49	22.28	-52.5	-57.0	3.7	0.00e+00	0	51	104	12499025920	76	24451
2026-01-02 08:48:43.84	300.89	22.15	-52.5	-57.0	3.7	0.00e+00	0	51	104	12499025920	76	24498
2026-01-02 08:48:44.70	301.18	22.05	-52.4	-56.9	3.7	0.00e+00	0	51	104	12499025920	76	24231
2026-01-02 08:48:45.84	301.58	21.92	-52.8	-57.3	3.7	0.00e+00	0	51	104	12499025920	76	25189
2026-01-02 08:48:46.70	301.87	21.82	-52.9	-57.3	3.7	0.00e+00	0	51	104	12499025920	76	25189
2026-01-02 08:48:47.84	302.26	21.69	-52.6	-56.9	3.7	0.00e+00	0	51	104	12499025920	76	23965
2026-01-02 08:48:48.70	302.55	21.59	-52.7	-56.9	3.7	0.00e+00	0	51	104	12499025920	76	24153
2026-01-02 08:48:49.84	302.92	21.46	-52.3	-56.5	3.7	0.00e+00	0	51	104	12499025920	76	23093
2026-01-02 08:48:50.69	303.21	21.36	-52.5	-56.7	3.7	0.00e+00	0	51	104	12499025920	76	23445
2026-01-02 08:48:51.83	303.58	21.23	-52.8	-57.2	3.7	0.00e+00	0	51	104	12499025920	76	24828
2026-01-02 08:48:52.69	303.86	21.13	-52.5	-56.8	3.7	0.00e+00	0	51	104	12499025920	76	23737
2026-01-02 08:48:53.83	304.23	21.00	-52.7	-57.0	3.7	0.00e+00	0	51	104	12499025920	76	24426
2026-01-02 08:48:54.68	304.50	20.90	-52.8	-57.2	3.7	0.00e+00	0	51	104	12499025920	76	25069
2026-01-02 08:48:55.82	304.86	20.76	-52.8	-57.2	3.7	0.00e+00	0	51	104	12499025920	76	24899
2026-01-02 08:48:56.68	305.13	20.66	-52.8	-57.1	3.7	0.00e+00	0	51	104	12499025920	76	24660
2026-01-02 08:48:57.82	305.48	20.53	-52.8	-57.2	3.7	0.00e+00	0	51	104	12499025920	76	25081
2026-01-02 08:48:58.68	305.75	20.43	-52.7	-57.0	3.7	0.00e+00	0	51	104	12499025920	76	24458
2026-01-02 08:48:59.82	306.10	20.30	-52.3	-56.8	3.7	0.00e+00	0	51	104	12499025920	76	23837
2026-01-02 08:49:00.67	306.35	20.20	-52.3	-56.8	3.7	0.00e+00	0	51	104	12499025920	76	23842
2026-01-02 08:49:01.81	306.70	20.06	-52.3	-56.7	3.7	0.00e+00	0	51	104	12499025920	76	23447
2026-01-02 08:49:02.66	306.95	19.96	-52.1	-56.6	3.7	0.00e+00	0	51	104	12499025920	76	23305
2026-01-02 08:49:03.80	307.29	19.83	-52.0	-56.5	3.7	0.00e+00	0	51	104	12499025920	76	23090
2026-01-02 08:49:04.66	307.54	19.73	-52.2	-56.8	3.7	0.00e+00	0	51	104	12499025920	76	23925
2026-01-02 08:49:05.80	307.87	19.60	-52.2	-56.9	3.7	0.00e+00	0	51	104	12499025920	76	24172
2026-01-02 08:49:06.65	308.11	19.50	-52.5	-56.9	3.7	0.00e+00	0	51	104	12499025920	76	24003
2026-01-02 08:49:07.79	308.44	19.36	-52.5	-56.9	3.7	0.00e+00	0	51	104	12499025920	76	24229
2026-01-02 08:49:08.64	308.68	19.26	-52.6	-56.9	3.7	0.00e+00	0	51	104	12499025920	76	24043
2026-01-02 08:49:09.79	309.00	19.13	-52.9	-57.3	3.7	0.00e+00	0	51	104	12499025920	76	25352
2026-01-02 08:49:10.64	309.24	19.03	-53.0	-57.3	3.7	0.00e+00	0	51	104	12499025920	76	25367
2026-01-02 08:49:11.78	309.55	18.90	-53.0	-57.4	3.7	0.00e+00	0	51	104	12499025920	76	25437
2026-01-02 08:49:12.63	309.79	18.80	-52.8	-57.3	3.7	0.00e+00	0	51	104	12499025920	76	25168
2026-01-02 08:49:13.78	310.10	18.67	-52.4	-57.0	3.7	0.00e+00	0	51	104	12499025920	76	24486
2026-01-02 08:49:14.63	310.33	18.57	-51.8	-56.8	3.7	0.00e+00	0	51	104	12499025920	75	25097
2026-01-02 08:49:15.77	310.63	18.44	-51.9	-56.8	3.7	0.00e+00	0	51	104	12499025920	75	25199
2026-01-02 08:49:16.63	310.86	18.34	-51.8	-56.6	3.7	0.00e+00	0	51	104	12499025920	75	24792
2026-01-02 08:49:17.77	311.15	18.20	-51.8	-56.6	3.7	0.00e+00	0	51	104	12499025920	75	24685
2026-01-02 08:49:18.62	311.37	18.11	-52.0	-56.7	3.7	0.00e+00	0	51	104	12499025920	75	24907
2026-01-02 08:49:19.76	311.67	17.98	-52.0	-56.6	3.7	0.00e+00	0	51	104	12499025920	75	24788
2026-01-02 08:49:20.62	311.89	17.88	-52.0	-56.7	3.7	0.00e+00	0	51	104	12499025920	75	24997
2026-01-02 08:49:21.76	312.17	17.75	-52.4	-57.1	3.7	0.00e+00	0	51	104	12499025920	75	26087
2026-01-02 08:49:22.62	312.39	17.65	-52.5	-57.0	3.7	0.00e+00	0	51	104	12499025920	75	25962
2026-01-02 08:49:23.76	312.67	17.52	-52.4	-57.0	3.7	0.00e+00	0	51	104	12499025920	75	25967
2026-01-02 08:49:24.61	312.88	17.42	-52.5	-56.9	3.7	0.00e+00	0	51	104	12499025920	75	25626
2026-01-02 08:49:25.75	313.16	17.29	-52.5	-56.8	3.7	0.00e+00	0	51	104	12499025920	75	25212
2026-01-02 08:49:26.61	313.37	17.19	-52.2	-56.6	3.7	0.00e+00	0	51	104	12499025920	75	24680
2026-01-02 08:49:27.75	313.64	17.06	-52.3	-56.6	3.7	0.00e+00	0	51	104	12499025920	75	24669
2026-01-02 08:49:28.60	313.84	16.97	-52.0	-56.4	3.6	0.00e+00	0	51	104	12499025920	75	23969
2026-01-02 08:49:29.74	314.11	16.84	-51.7	-56.6	3.7	0.00e+00	0	51	104	12499025920	75	24633
2026-01-02 08:49:30.60	314.31	16.74	-51.3	-56.5	3.7	0.00e+00	0	51	104	12499025920	74	25799
2026-01-02 08:49:31.73	314.58	16.62	-51.5	-56.6	3.7	0.00e+00	0	51	104	12499025920	73	27614
2026-01-02 08:49:32.58	314.77	16.52	-50.8	-56.2	3.7	0.00e+00	0	51	104	12499025920	73	26391
2026-01-02 08:49:33.73	315.03	16.39	-51.2	-56.3	3.7	0.00e+00	0	51	104	12499025920	73	26882
2026-01-02 08:49:34.58	315.22	16.30	-52.0	-56.7	3.7	0.00e+00	0	51	104	12499025920	74	26554
2026-01-02 08:49:35.72	315.48	16.17	-51.8	-56.6	3.7	0.00e+00	0	51	104	12499025920	74	26179
2026-01-02 08:49:36.58	315.67	16.08	-51.9	-56.7	3.7	0.00e+00	0	51	104	12499025920	74	26411
2026-01-02 08:49:37.71	315.92	15.95	-52.2	-57.0	3.7	0.00e+00	0	51	104	12499025920	75	25723
2026-01-02 08:49:38.57	316.11	15.86	-52.3	-57.0	3.7	0.00e+00	0	51	104	12499025920	75	25914
2026-01-02 08:49:39.71	316.35	15.73	-52.3	-56.9	3.7	0.00e+00	0	51	104	12499025920	75	25621
2026-01-02 08:49:40.57	316.54	15.64	-52.2	-56.8	3.7	0.00e+00	0	51	104	12499025920	75	25371
2026-01-02 08:49:41.71	316.78	15.51	-52.1	-57.0	3.7	0.00e+00	0	51	104	12499025920	75	25974
2026-01-02 08:49:42.56	316.96	15.42	-51.7	-56.8	3.7	0.00e+00	0	51	104	12499025920	75	25127
2026-01-02 08:49:43.71	317.20	15.30	-51.8	-56.8	3.7	0.00e+00	0	51	104	12499025920	75	25130
2026-01-02 08:49:44.56	317.38	15.20	-51.7	-56.7	3.7	0.00e+00	0	51	104	12499025920	75	24938
2026-01-02 08:49:45.70	317.61	15.08	-51.8	-56.8	3.7	0.00e+00	0	51	104	12499025920	75	25168
2026-01-02 08:49:46.55	317.78	14.99	-52.0	-56.8	3.7	0.00e+00	0	51	104	12499025920	75	25281
2026-01-02 08:49:47.69	318.01	14.87	-52.0	-56.8	3.7	0.00e+00	0	51	104	12499025920	75	25211
2026-01-02 08:49:48.55	318.19	14.78	-52.1	-56.9	3.7	0.00e+00	0	51	104	12499025920	75	25423
2026-01-02 08:49:49.69	318.41	14.66	-52.3	-56.9	3.7	0.00e+00	0	51	104	12499025920	75	25515
2026-01-02 08:49:50.55	318.58	14.56	-51.8	-56.6	3.7	0.00e+00	0	51	104	12499025920	75	24640
2026-01-02 08:49:51.68	318.80	14.44	-51.8	-56.6	3.7	0.00e+00	0	51	104	12499025920	74	26167
2026-01-02 08:49:52.54	318.97	14.35	-51.4	-56.3	3.7	0.00e+00	0	51	104	12499025920	74	25199
2026-01-02 08:49:53.67	319.19	14.23	-50.8	-55.8	3.7	0.00e+00	0	51	104	12499025920	73	25152
2026-01-02 08:49:54.52	319.35	14.15	-50.7	-55.7	3.7	0.00e+00	0	51	104	12499025920	73	25045
2026-01-02 08:49:55.66	319.57	14.03	-50.6	-55.7	3.7	0.00e+00	0	51	104	12499025920	73	24878
2026-01-02 08:49:56.52	319.73	13.94	-50.4	-55.7	3.7	0.00e+00	0	51	104	12499025920	72	26423
2026-01-02 08:49:57.65	319.94	13.82	-50.4	-55.8	3.7	0.00e+00	0	51	104	12499025920	72	26869
2026-01-02 08:49:58.51	320.10	13.73	-50.5	-55.8	3.7	0.00e+00	0	51	104	12499025920	72	26833
2026-01-02 08:49:59.65	320.31	13.61	-50.8	-56.1	3.7	0.00e+00	0	51	104	12499025920	72	27768
2026-01-02 08:50:00.50	320.46	13.53	-50.6	-56.0	3.7	0.00e+00	0	51	104	12499025920	72	27512
2026-01-02 08:50:01.64	320.67	13.41	-50.5	-55.9	3.7	0.00e+00	0	51	104	12499025920	72	27058
2026-01-02 08:50:02.49	320.82	13.32	-51.2	-56.4	3.7	0.00e+00	0	51	104	12499025920	73	27102
2026-01-02 08:50:03.63	321.02	13.21	-51.8	-56.8	3.7	0.00e+00	0	51	104	12499025920	74	26585
2026-01-02 08:50:04.49	321.17	13.12	-51.8	-56.8	3.7	0.00e+00	0	51	104	12499025920	74	26660
2026-01-02 08:50:05.63	321.37	13.00	-51.7	-56.8	3.7	0.00e+00	0	51	104	12499025920	74	26633
2026-01-02 08:50:06.48	321.52	12.92	-51.4	-56.5	3.7	0.00e+00	0	51	104	12499025920	74	25800
2026-01-02 08:50:07.63	321.71	12.80	-50.5	-55.9	3.7	0.00e+00	0	51	104	12499025920	73	25451
2026-01-02 08:50:08.48	321.86	12.72	-50.2	-55.7	3.7	0.00e+00	0	51	104	12499025920	72	26398
2026-01-02 08:50:09.62	322.05	12.61	-50.0	-55.6	3.7	0.00e+00	0	51	104	12499025920	72	26121
2026-01-02 08:50:10.47	322.19	12.52	-50.2	-55.7	3.7	0.00e+00	0	51	104	12499025920	72	26510
2026-01-02 08:50:11.61	322.38	12.41	-51.0	-56.3	3.7	0.00e+00	0	51	104	12499025920	72	28294
2026-01-02 08:50:12.47	322.52	12.32	-51.6	-56.6	3.7	0.00e+00	0	51	104	12499025920	73	27679
2026-01-02 08:50:13.61	322.71	12.21	-51.8	-56.3	3.7	0.00e+00	0	51	104	12499025920	74	25110
2026-01-02 08:50:14.47	322.85	12.13	-52.1	-56.4	3.7	0.00e+00	0	51	104	12499025920	74	25479
2026-01-02 08:50:15.61	323.03	12.02	-52.2	-56.5	3.7	0.00e+00	0	51	104	12499025920	75	24468
2026-01-02 08:50:16.46	323.17	11.93	-52.1	-56.4	3.7	0.00e+00	0	51	104	12499025920	75	24006
2026-01-02 08:50:17.59	323.35	11.82	-52.0	-56.7	3.7	0.00e+00	0	51	104	12499025920	75	24840
2026-01-02 08:50:18.45	323.48	11.74	-51.2	-56.2	3.7	0.00e+00	0	51	104	12499025920	74	24980
2026-01-02 08:50:19.59	323.66	11.63	-51.0	-56.1	3.7	0.00e+00	0	51	104	12499025920	72	27810
2026-01-02 08:50:20.45	323.80	11.55	-50.8	-56.0	3.7	0.00e+00	0	51	104	12499025920	73	25875
2026-01-02 08:50:21.60	323.97	11.44	-49.7	-55.5	3.7	0.00e+00	0	51	104	12499025920	71	27381
2026-01-02 08:50:22.46	324.10	11.36	-49.8	-55.6	3.7	0.00e+00	0	51	104	12499025920	71	27529
2026-01-02 08:50:23.60	324.28	11.25	-49.9	-55.6	3.7	0.00e+00	0	51	104	12499025920	71	27537
2026-01-02 08:50:24.46	324.40	11.17	-49.8	-55.4	3.7	0.00e+00	0	51	104	12499025920	71	27097
2026-01-02 08:50:25.61	324.58	11.06	-49.8	-55.4	3.7	0.00e+00	0	51	104	12499025920	71	26898
2026-01-02 08:50:26.47	324.70	10.98	-50.0	-55.6	3.7	0.00e+00	0	51	104	12499025920	71	27664
2026-01-02 08:50:27.61	324.87	10.87	-49.9	-55.6	3.7	0.00e+00	0	51	104	12499025920	71	27530
2026-01-02 08:50:28.47	325.00	10.79	-49.8	-55.4	3.7	0.00e+00	0	51	104	12499025920	71	27042
2026-01-02 08:50:29.61	325.16	10.69	-49.7	-55.4	3.7	0.00e+00	0	51	104	12499025920	71	26930
2026-01-02 08:50:30.47	325.28	10.61	-49.8	-55.4	3.7	0.00e+00	0	51	104	12499025920	71	26942
2026-01-02 08:50:31.62	325.45	10.50	-49.5	-55.2	3.7	0.00e+00	0	51	104	12499025920	71	26534
2026-01-02 08:50:32.47	325.57	10.43	-49.8	-55.4	3.7	0.00e+00	0	51	104	12499025920	70	28771
2026-01-02 08:50:33.62	325.73	10.32	-49.8	-55.5	3.7	0.00e+00	0	51	104	12499025920	70	28848
2026-01-02 08:50:34.48	325.85	10.24	-49.8	-55.4	3.7	0.00e+00	0	51	104	12499025920	70	28601
2026-01-02 08:50:35.62	326.01	10.14	-49.7	-55.4	3.7	0.00e+00	0	51	104	12499025920	70	28523
2026-01-02 08:50:36.48	326.12	10.06	-49.6	-55.2	3.7	0.00e+00	0	51	104	12499025920	70	28088
2026-01-02 08:50:37.62	326.28	9.96	-49.4	-55.1	3.7	0.00e+00	0	51	104	12499025920	70	27763
2026-01-02 08:50:38.48	326.39	9.88	-49.4	-55.1	3.7	0.00e+00	0	51	104	12499025920	70	27633
2026-01-02 08:50:39.62	326.55	9.78	-49.4	-55.3	3.7	0.00e+00	0	51	104	12499025920	70	28247
2026-01-02 08:50:40.48	326.66	9.70	-49.5	-55.3	3.7	0.00e+00	0	51	104	12499025920	70	28361
2026-01-02 08:50:41.62	326.81	9.60	-49.6	-55.4	3.7	0.00e+00	0	51	104	12499025920	70	28805
2026-01-02 08:50:42.48	326.93	9.53	-49.5	-55.4	3.7	0.00e+00	0	51	104	12499025920	70	28529
2026-01-02 08:50:43.63	327.08	9.42	-49.9	-55.7	3.7	0.00e+00	0	51	104	12499025920	70	29519
2026-01-02 08:50:44.49	327.19	9.35	-50.3	-55.9	3.7	0.00e+00	0	51	104	12499025920	71	28665
2026-01-02 08:50:45.63	327.33	9.25	-50.8	-56.2	3.7	0.00e+00	0	51	104	12499025920	72	28076
2026-01-02 08:50:46.49	327.44	9.17	-51.0	-56.3	3.7	0.00e+00	0	51	104	12499025920	72	28389
2026-01-02 08:50:47.63	327.59	9.07	-51.2	-56.4	3.7	0.00e+00	0	51	104	12499025920	73	26950
2026-01-02 08:50:48.49	327.69	9.00	-51.7	-56.7	3.7	0.00e+00	0	51	104	12499025920	74	26331
2026-01-02 08:50:49.64	327.84	8.90	-49.4	-55.2	3.7	0.00e+00	0	51	104	12499025920	70	27987
2026-01-02 08:50:50.50	327.94	8.83	-52.1	-57.0	3.7	0.00e+00	0	51	104	12499025920	74	27416
2026-01-02 08:50:51.64	328.09	8.73	-52.0	-57.0	3.7	0.00e+00	0	51	104	12499025920	75	25816
2026-01-02 08:50:52.50	328.19	8.66	-51.9	-56.7	3.7	0.00e+00	0	51	104	12499025920	74	26328
2026-01-02 08:50:53.65	328.33	8.56	-51.3	-56.1	3.7	0.00e+00	0	51	104	12499025920	74	24574
2026-01-02 08:50:54.51	328.43	8.49	-51.8	-56.2	3.7	0.00e+00	0	51	104	12499025920	74	24929
2026-01-02 08:50:55.65	328.57	8.39	-52.2	-56.5	3.7	0.00e+00	0	51	104	12499025920	75	24397
2026-01-02 08:50:56.51	328.67	8.32	-51.9	-56.6	3.7	0.00e+00	0	51	104	12499025920	75	24719
2026-01-02 08:50:57.66	328.81	8.22	-52.6	-57.2	3.7	0.00e+00	0	51	104	12499025920	75	26378
2026-01-02 08:50:58.52	328.91	8.15	-51.8	-56.5	3.7	0.00e+00	0	52	104	12499025920	75	24519
2026-01-02 08:50:59.66	329.04	8.05	-52.2	-56.7	3.7	0.00e+00	0	51	104	12499025920	74	26557
2026-01-02 08:51:00.52	329.14	7.98	-52.4	-57.0	3.7	0.00e+00	0	51	104	12499025920	75	25892
2026-01-02 08:51:01.66	329.27	7.89	-52.3	-56.7	3.7	0.00e+00	0	51	104	12499025920	76	23442
2026-01-02 08:51:02.52	329.37	7.82	-52.8	-56.8	3.7	0.00e+00	0	51	104	12499025920	76	23874
2026-01-02 08:51:03.66	329.50	7.72	-53.0	-57.3	3.7	0.00e+00	0	51	104	12499025920	76	25240
2026-01-02 08:51:04.52	329.59	7.65	-52.7	-57.2	3.7	0.00e+00	0	51	104	12499025920	76	24829
2026-01-02 08:51:05.67	329.72	7.56	-52.9	-57.2	3.7	0.00e+00	0	51	104	12499025920	77	23670
2026-01-02 08:51:06.53	329.82	7.49	-53.0	-57.4	3.7	0.00e+00	0	51	104	12499025920	77	24025
2026-01-02 08:51:07.67	329.94	7.40	-52.8	-57.3	3.7	0.00e+00	0	51	104	12499025920	77	23834
2026-01-02 08:51:08.53	330.04	7.33	-52.8	-57.0	3.7	0.00e+00	0	51	104	12499025920	77	22995
2026-01-02 08:51:09.68	330.16	7.23	-52.2	-56.6	3.7	0.00e+00	0	51	104	12499025920	76	23223
2026-01-02 08:51:10.54	330.25	7.17	-52.5	-57.0	3.7	0.00e+00	0	51	104	12499025920	76	24319
2026-01-02 08:51:11.68	330.38	7.07	-52.5	-57.0	3.7	0.00e+00	0	51	104	12499025920	76	24334
2026-01-02 08:51:12.54	330.47	7.01	-52.5	-57.0	3.7	0.00e+00	0	51	104	12499025920	76	24292
2026-01-02 08:51:13.69	330.59	6.91	-52.4	-56.9	3.7	0.00e+00	0	51	104	12499025920	76	24204
2026-01-02 08:51:14.54	330.68	6.85	-52.4	-56.9	3.7	0.00e+00	0	51	104	12499025920	76	24228
2026-01-02 08:51:15.69	330.80	6.76	-52.4	-56.9	3.7	0.00e+00	0	51	104	12499025920	76	24157
2026-01-02 08:51:16.55	330.89	6.69	-52.4	-56.9	3.7	0.00e+00	0	52	104	12499025920	76	24127
2026-01-02 08:51:17.70	331.01	6.60	-52.4	-56.9	3.7	0.00e+00	0	51	104	12499025920	76	24207
2026-01-02 08:51:18.56	331.09	6.53	-52.4	-56.9	3.7	0.00e+00	0	51	104	12499025920	76	24172
2026-01-02 08:51:19.70	331.21	6.44	-52.5	-56.9	3.7	0.00e+00	0	51	104	12499025920	76	24215
2026-01-02 08:51:20.56	331.30	6.38	-52.4	-56.9	3.7	0.00e+00	0	51	104	12499025920	76	24218
2026-01-02 08:51:21.70	331.41	6.29	-52.4	-57.0	3.7	0.00e+00	0	51	104	12499025920	76	24252
2026-01-02 08:51:22.56	331.50	6.22	-52.5	-56.9	3.7	0.00e+00	0	51	104	12499025920	76	24225
2026-01-02 08:51:23.70	331.61	6.13	-52.4	-56.9	3.7	0.00e+00	0	51	104	12499025920	76	24174
2026-01-02 08:51:24.56	331.69	6.07	-52.5	-56.9	3.7	0.00e+00	0	51	104	12499025920	76	24150
2026-01-02 08:51:25.71	331.81	5.98	-52.4	-56.9	3.7	0.00e+00	0	51	104	12499025920	76	24140
2026-01-02 08:51:26.57	331.89	5.92	-52.5	-56.9	3.7	0.00e+00	0	51	104	12499025920	76	24151
2026-01-02 08:51:27.72	332.00	5.83	-52.4	-56.9	3.7	0.00e+00	0	51	104	12499025920	76	24203
2026-01-02 08:51:28.57	332.08	5.76	-52.5	-56.9	3.7	0.00e+00	0	51	104	12499025920	76	24215
2026-01-02 08:51:29.71	332.19	5.68	-52.4	-56.9	3.7	0.00e+00	0	51	104	12499025920	76	24134
2026-01-02 08:51:30.57	332.27	5.61	-52.4	-56.9	3.7	0.00e+00	0	51	104	12499025920	76	24085
2026-01-02 08:51:31.71	332.38	5.53	-52.4	-56.9	3.7	0.00e+00	0	51	104	12499025920	76	24121
2026-01-02 08:51:32.57	332.46	5.46	-52.4	-56.9	3.7	0.00e+00	0	51	104	12499025920	76	24069
2026-01-02 08:51:33.71	332.57	5.38	-52.4	-56.9	3.7	0.00e+00	0	51	104	12499025920	76	24148
2026-01-02 08:51:34.57	332.65	5.32	-52.4	-56.9	3.7	0.00e+00	0	51	104	12499025920	76	24127
2026-01-02 08:51:35.71	332.75	5.23	-52.4	-56.9	3.7	0.00e+00	0	51	104	12499025920	76	23999
2026-01-02 08:51:36.57	332.83	5.17	-52.4	-56.9	3.7	0.00e+00	0	51	104	12499025920	76	24069
2026-01-02 08:51:37.72	332.93	5.08	-52.4	-56.9	3.7	0.00e+00	0	51	104	12499025920	76	24086
2026-01-02 08:51:38.58	333.01	5.02	-52.4	-56.9	3.7	0.00e+00	0	51	104	12499025920	76	24048
2026-01-02 08:51:39.72	333.11	4.94	-52.4	-56.9	3.7	0.00e+00	0	51	104	12499025920	76	24157

#Closed at: 2026-01-02 08:51:40
#Recorded file [12499 MB]: D:/Data/31040_260102_114315.dat