passes_logs/2026/01/02/T1/T1__20260102_083022_SUOMI_NPP_rec.log

#Pass ID: 20260102_083022_SUOMI NPP
#Satellite: SUOMI NPP
#Configuration: NPP
#almurnet v.1.7.20251203
#Start time: 2026-01-02 08:30:23

#Version: 2.0.20230620
#Station: T1
#Location: 37.570604 lon 55.790049 lat
#TLE: 1 37849U 11061A   26001.07732418  .00000182  00000+0  10735-3 0  9990
#TLE: 2 37849  98.7795 303.2470 0002580  87.2016 272.9455 14.19520779734739

#Time	Az	El	Level	Level2	SNR	BER	BlckErr	Temp	State	Recorded	gain1	gain2
2026-01-02 08:30:23.60	113.04	5.04	-48.4	-63.6	3.8	1.49e+00	0	39	0	0	68	20647
2026-01-02 08:30:24.60	112.96	5.11	-48.4	-63.6	3.8	1.49e+00	0	39	104	0	68	20709
2026-01-02 08:30:25.60	112.89	5.17	-48.4	-63.6	3.8	1.49e+00	0	39	104	0	68	20625
2026-01-02 08:30:26.60	112.81	5.23	-48.4	-63.6	3.8	1.49e+00	0	39	104	0	68	20628
2026-01-02 08:30:27.60	112.74	5.29	-48.3	-63.6	3.8	1.49e+00	0	39	104	0	68	20577
2026-01-02 08:30:28.61	112.66	5.36	-48.3	-63.6	3.8	1.49e+00	0	39	104	0	68	20641
2026-01-02 08:30:29.61	112.58	5.42	-48.3	-63.5	3.8	1.49e+00	0	39	104	0	68	20440
2026-01-02 08:30:30.61	112.50	5.48	-48.3	-63.5	3.8	1.49e+00	0	40	104	0	68	20442
2026-01-02 08:30:31.61	112.43	5.55	-48.3	-63.5	3.8	1.49e+00	0	40	104	0	68	20376
2026-01-02 08:30:32.62	112.35	5.61	-48.3	-63.5	3.8	1.49e+00	0	40	104	0	68	20348
2026-01-02 08:30:33.61	112.27	5.67	-48.3	-63.4	3.8	1.49e+00	0	40	104	0	68	20137
2026-01-02 08:30:34.62	112.19	5.74	-48.3	-63.4	3.8	1.49e+00	0	40	104	0	68	20247
2026-01-02 08:30:35.62	112.11	5.80	-48.3	-63.4	3.8	1.49e+00	0	40	104	0	68	20232
2026-01-02 08:30:36.62	112.03	5.87	-48.3	-63.4	3.8	1.49e+00	0	40	104	0	68	20110
2026-01-02 08:30:37.63	111.95	5.93	-48.3	-63.4	3.8	1.49e+00	0	40	104	0	68	20134
2026-01-02 08:30:38.63	111.87	5.99	-48.3	-63.3	3.8	1.49e+00	0	40	104	0	68	20052
2026-01-02 08:30:39.63	111.79	6.06	-48.3	-63.3	3.8	1.49e+00	0	40	104	0	68	20034
2026-01-02 08:30:40.63	111.71	6.12	-48.3	-63.3	3.8	1.49e+00	0	40	104	0	68	20011
2026-01-02 08:30:41.63	111.63	6.19	-48.3	-63.3	3.8	1.49e+00	0	40	104	0	68	20039
2026-01-02 08:30:42.63	111.54	6.25	-48.3	-63.4	3.8	1.49e+00	0	40	104	0	68	20106
2026-01-02 08:30:43.64	111.46	6.32	-48.3	-63.4	3.8	1.49e+00	0	40	104	0	68	20106
2026-01-02 08:30:44.64	111.38	6.38	-48.3	-63.4	3.8	1.49e+00	0	40	104	0	68	20167
2026-01-02 08:30:45.64	111.30	6.45	-48.3	-63.4	3.8	1.49e+00	0	40	104	0	68	20083
2026-01-02 08:30:46.65	111.21	6.51	-48.3	-63.3	3.8	1.49e+00	0	40	104	0	68	19972
2026-01-02 08:30:47.65	111.13	6.58	-48.3	-63.1	3.8	1.49e+00	0	40	104	0	68	19470
2026-01-02 08:30:48.65	111.04	6.64	-48.3	-63.0	3.8	1.49e+00	0	40	104	0	68	19258
2026-01-02 08:30:49.66	110.96	6.71	-48.3	-62.7	3.8	1.49e+00	0	40	104	0	68	18604
2026-01-02 08:30:50.66	110.87	6.77	-48.3	-62.6	3.8	1.49e+00	0	40	104	0	68	18499
2026-01-02 08:30:51.66	110.79	6.84	-48.3	-62.5	3.8	1.49e+00	0	40	104	0	68	18201
2026-01-02 08:30:52.66	110.70	6.90	-48.3	-62.4	3.8	1.49e+00	0	40	104	0	68	18050
2026-01-02 08:30:53.67	110.62	6.97	-48.3	-62.5	3.8	1.49e+00	0	40	104	0	68	18164
2026-01-02 08:30:54.66	110.53	7.03	-48.3	-62.5	3.8	1.49e+00	0	40	104	0	68	18108
2026-01-02 08:30:55.67	110.44	7.10	-48.3	-62.3	3.8	1.49e+00	0	40	104	0	68	17871
2026-01-02 08:30:56.67	110.36	7.17	-48.3	-62.1	3.8	1.49e+00	0	40	104	0	68	17379
2026-01-02 08:30:57.67	110.27	7.23	-48.2	-61.7	3.8	1.49e+00	0	41	104	0	68	16670
2026-01-02 08:30:58.67	110.18	7.30	-48.2	-61.3	3.8	1.49e+00	0	41	104	0	68	15908
2026-01-02 08:30:59.68	110.09	7.36	-48.2	-61.1	3.9	1.49e+00	0	41	104	0	68	15498
2026-01-02 08:31:00.68	110.00	7.43	-48.2	-60.8	3.9	1.48e+00	0	40	104	0	68	14938
2026-01-02 08:31:01.68	109.91	7.50	-48.2	-60.8	4.0	1.48e+00	0	41	104	0	68	14897
2026-01-02 08:31:02.69	109.82	7.56	-48.2	-61.0	4.0	1.48e+00	0	41	104	0	68	15386
2026-01-02 08:31:03.69	109.73	7.63	-48.2	-61.7	3.8	1.49e+00	0	41	104	0	68	16550
2026-01-02 08:31:04.69	109.64	7.70	-48.3	-62.4	3.8	1.49e+00	0	41	104	0	68	17957
2026-01-02 08:31:05.69	109.55	7.76	-48.3	-63.2	3.8	1.49e+00	0	41	104	0	68	19744
2026-01-02 08:31:06.69	109.46	7.83	-48.4	-63.6	3.8	1.49e+00	0	41	104	0	68	20644
2026-01-02 08:31:07.70	109.37	7.90	-48.2	-61.6	3.8	1.49e+00	0	41	104	0	68	16368
2026-01-02 08:31:08.70	109.27	7.97	-47.7	-57.8	4.9	1.11e+00	0	41	0	0	67	11261
2026-01-02 08:31:09.70	109.18	8.03	-47.1	-54.3	7.7	2.33e-01	0	41	0	2097152	66	7933
2026-01-02 08:31:10.71	109.09	8.10	-46.3	-51.9	10.1	2.82e-02	0	41	0	4194304	64	6760
2026-01-02 08:31:11.71	108.99	8.17	-45.9	-50.8	11.4	1.68e-03	0	41	0	6291456	63	6282
2026-01-02 08:31:12.71	108.90	8.24	-45.3	-49.6	12.7	1.69e-04	0	41	0	7340032	62	5789
2026-01-02 08:31:13.72	108.80	8.30	-44.8	-48.7	13.6	2.82e-05	0	41	0	9437184	61	5534
2026-01-02 08:31:14.72	108.71	8.37	-44.5	-48.3	14.0	4.50e-06	0	41	0	11534336	61	5303
2026-01-02 08:31:15.72	108.61	8.44	-44.4	-48.0	14.3	7.00e-07	0	41	0	13631488	60	5423
2026-01-02 08:31:16.73	108.52	8.51	-44.5	-48.2	14.0	0.00e+00	0	41	0	15728640	60	5585
2026-01-02 08:31:17.73	108.42	8.58	-44.8	-48.8	13.5	3.00e-06	0	41	0	16777216	60	5936
2026-01-02 08:31:18.73	108.32	8.64	-45.3	-49.7	12.5	6.63e-05	0	41	0	18874368	61	6267
2026-01-02 08:31:19.73	108.23	8.71	-46.1	-51.4	10.8	7.28e-04	0	41	0	20971520	62	7167
2026-01-02 08:31:20.74	108.13	8.78	-46.7	-53.1	8.9	8.19e-03	0	41	0	23068672	64	7791
2026-01-02 08:31:21.74	108.03	8.85	-47.4	-55.6	6.6	6.42e-02	0	41	0	24117248	65	9735
2026-01-02 08:31:22.74	107.93	8.92	-47.8	-58.1	4.9	5.32e-01	0	41	0	26214400	66	12316
2026-01-02 08:31:23.74	107.83	8.99	-48.1	-61.3	3.8	1.40e+00	0	41	104	27262976	66	17710
2026-01-02 08:31:24.74	107.73	9.06	-47.5	-55.8	6.4	1.49e+00	0	41	104	27262976	66	9438
2026-01-02 08:31:25.75	107.63	9.13	-46.6	-52.7	9.3	7.26e-02	0	41	0	28311552	65	7028
2026-01-02 08:31:26.74	107.53	9.19	-48.2	-63.4	3.8	4.70e-01	0	41	104	29360128	67	21379
2026-01-02 08:31:27.74	107.43	9.26	-46.8	-53.3	8.6	1.49e+00	0	41	104	29360128	65	7488
2026-01-02 08:31:28.74	107.33	9.33	-47.4	-55.8	6.6	2.89e-03	0	41	0	30408704	65	10026
2026-01-02 08:31:29.74	107.23	9.40	-46.5	-52.1	9.9	4.30e-01	0	41	0	32505856	64	6888
2026-01-02 08:31:30.74	107.12	9.47	-46.1	-51.4	10.8	5.64e-03	0	41	0	34603008	64	6412
2026-01-02 08:31:31.74	107.02	9.54	-45.4	-49.8	12.6	5.50e-04	0	41	0	35651584	62	5964
2026-01-02 08:31:32.74	106.92	9.61	-44.8	-48.6	13.7	6.80e-06	0	41	0	37748736	61	5521
2026-01-02 08:31:33.74	106.81	9.68	-44.9	-48.9	13.5	1.90e-05	0	41	0	39845888	61	5672
2026-01-02 08:31:34.74	106.71	9.75	-45.1	-49.2	13.2	2.89e-05	0	41	0	41943040	61	5886
2026-01-02 08:31:35.74	106.60	9.82	-45.3	-49.6	12.7	1.75e-05	0	41	0	42991616	61	6202
2026-01-02 08:31:36.74	106.50	9.89	-45.3	-49.6	12.8	5.41e-05	0	41	0	45088768	61	6191
2026-01-02 08:31:37.74	106.39	9.96	-44.8	-48.7	13.8	1.75e-05	0	41	0	47185920	61	5530
2026-01-02 08:31:38.75	106.28	10.03	-44.6	-48.4	14.1	6.80e-06	0	41	0	49283072	61	5342
2026-01-02 08:31:39.75	106.18	10.10	-44.6	-48.3	14.1	7.00e-07	0	42	0	51380224	61	5309
2026-01-02 08:31:40.75	106.07	10.17	-44.4	-47.9	14.6	7.00e-07	0	41	0	52428800	60	5378
2026-01-02 08:31:41.76	105.96	10.24	-44.3	-47.8	14.7	7.00e-07	0	41	0	54525952	60	5282
2026-01-02 08:31:42.75	105.85	10.31	-44.3	-47.7	14.7	0.00e+00	0	41	0	56623104	60	5265
2026-01-02 08:31:43.76	105.74	10.39	-44.6	-48.3	14.1	1.50e-06	0	41	0	58720256	60	5625
2026-01-02 08:31:44.76	105.63	10.46	-44.4	-48.0	14.5	0.00e+00	0	42	0	60817408	60	5419
2026-01-02 08:31:45.76	105.52	10.53	-44.6	-48.3	14.2	3.00e-06	0	42	0	61865984	60	5626
2026-01-02 08:31:46.76	105.41	10.60	-44.6	-48.3	14.2	0.00e+00	0	42	0	63963136	60	5653
2026-01-02 08:31:47.76	105.30	10.67	-44.4	-48.0	14.5	7.00e-07	0	42	0	66060288	60	5419
2026-01-02 08:31:48.76	105.19	10.74	-44.3	-47.7	14.8	0.00e+00	0	42	0	68157440	60	5244
2026-01-02 08:31:49.77	105.07	10.81	-44.2	-47.6	14.9	1.50e-06	0	41	0	70254592	60	5218
2026-01-02 08:31:50.77	104.96	10.89	-44.1	-47.5	15.0	0.00e+00	0	42	0	71303168	60	5113
2026-01-02 08:31:51.77	104.85	10.96	-44.5	-48.1	14.4	7.00e-07	0	42	0	73400320	60	5493
2026-01-02 08:31:52.78	104.73	11.03	-44.6	-48.2	14.3	0.00e+00	0	41	0	75497472	60	5566
2026-01-02 08:31:53.78	104.62	11.10	-44.5	-48.0	14.5	0.00e+00	0	42	0	77594624	60	5452
2026-01-02 08:31:54.78	104.50	11.17	-44.3	-47.8	14.8	0.00e+00	0	42	0	79691776	60	5289
2026-01-02 08:31:55.78	104.38	11.25	-44.1	-47.4	15.1	0.00e+00	0	42	0	80740352	60	5064
2026-01-02 08:31:56.78	104.27	11.32	-43.9	-47.1	15.4	0.00e+00	0	42	0	82837504	59	5162
2026-01-02 08:31:57.78	104.15	11.39	-44.0	-47.2	15.3	0.00e+00	0	42	0	84934656	59	5221
2026-01-02 08:31:58.78	104.03	11.46	-43.8	-46.9	15.5	0.00e+00	0	42	0	87031808	59	5088
2026-01-02 08:31:59.78	103.91	11.53	-44.1	-47.3	15.2	0.00e+00	0	42	0	88080384	59	5306
2026-01-02 08:32:00.78	103.80	11.61	-44.0	-47.3	15.2	0.00e+00	0	42	0	90177536	59	5291
2026-01-02 08:32:01.79	103.67	11.68	-44.0	-47.3	15.3	0.00e+00	0	42	0	92274688	59	5290
2026-01-02 08:32:02.79	103.55	11.75	-43.8	-46.9	15.6	0.00e+00	0	42	0	94371840	59	5095
2026-01-02 08:32:03.79	103.43	11.83	-43.5	-46.5	16.0	0.00e+00	0	42	0	96468992	59	4845
2026-01-02 08:32:04.78	103.31	11.90	-43.5	-46.4	16.1	0.00e+00	0	42	0	97517568	58	5078
2026-01-02 08:32:05.79	103.19	11.97	-43.5	-46.5	16.1	0.00e+00	0	42	0	99614720	58	5103
2026-01-02 08:32:06.79	103.07	12.04	-43.2	-46.0	16.5	0.00e+00	0	42	0	101711872	58	4838
2026-01-02 08:32:07.79	102.94	12.12	-43.5	-46.4	16.1	0.00e+00	0	42	0	103809024	58	5069
2026-01-02 08:32:08.79	102.82	12.19	-43.6	-46.5	16.0	0.00e+00	0	42	0	105906176	58	5149
2026-01-02 08:32:09.79	102.70	12.26	-43.6	-46.6	16.0	0.00e+00	0	42	0	106954752	58	5183
2026-01-02 08:32:10.79	102.57	12.34	-43.5	-46.4	16.1	0.00e+00	0	42	0	109051904	58	5092
2026-01-02 08:32:11.80	102.44	12.41	-43.4	-46.2	16.3	0.00e+00	0	42	0	111149056	58	4973
2026-01-02 08:32:12.80	102.32	12.49	-43.2	-46.1	16.4	0.00e+00	0	42	0	113246208	58	4887
2026-01-02 08:32:13.80	102.19	12.56	-43.3	-46.1	16.4	0.00e+00	0	42	0	115343360	58	4919
2026-01-02 08:32:14.80	102.06	12.63	-43.1	-45.9	16.6	0.00e+00	0	42	0	116391936	58	4813
2026-01-02 08:32:15.80	101.93	12.71	-43.4	-46.3	16.2	0.00e+00	0	42	0	118489088	58	5005
2026-01-02 08:32:16.81	101.80	12.78	-43.3	-46.2	16.4	0.00e+00	0	42	0	120586240	58	4942
2026-01-02 08:32:17.81	101.67	12.86	-43.2	-46.0	16.5	0.00e+00	0	42	0	122683392	58	4846
2026-01-02 08:32:18.81	101.54	12.93	-43.1	-45.9	16.6	0.00e+00	0	42	0	124780544	58	4793
2026-01-02 08:32:19.82	101.41	13.00	-43.2	-46.1	16.5	0.00e+00	0	42	0	125829120	58	4894
2026-01-02 08:32:20.82	101.28	13.08	-43.0	-45.8	16.7	0.00e+00	0	42	0	127926272	58	4713
2026-01-02 08:32:21.82	101.15	13.15	-43.0	-45.7	16.8	0.00e+00	0	42	0	130023424	57	4960
2026-01-02 08:32:22.82	101.01	13.23	-43.0	-45.8	16.7	0.00e+00	0	42	0	132120576	57	5019
2026-01-02 08:32:23.83	100.88	13.30	-43.2	-46.0	16.5	0.00e+00	0	42	0	133169152	57	5122
2026-01-02 08:32:24.83	100.74	13.38	-43.2	-46.0	16.5	0.00e+00	0	42	0	135266304	57	5131
2026-01-02 08:32:25.83	100.61	13.45	-43.1	-45.9	16.7	0.00e+00	0	42	0	137363456	57	5083
2026-01-02 08:32:26.83	100.47	13.53	-43.0	-45.7	16.8	0.00e+00	0	42	0	139460608	57	4975
2026-01-02 08:32:27.83	100.34	13.60	-42.8	-45.5	17.0	0.00e+00	0	42	0	141557760	57	4855
2026-01-02 08:32:28.84	100.20	13.68	-42.7	-45.3	17.2	0.00e+00	0	42	0	142606336	57	4718
2026-01-02 08:32:29.84	100.06	13.75	-42.6	-45.3	17.3	0.00e+00	0	42	0	144703488	57	4708
2026-01-02 08:32:30.84	99.92	13.83	-42.9	-45.6	16.9	0.00e+00	0	42	0	146800640	57	4903
2026-01-02 08:32:31.85	99.78	13.90	-43.4	-46.3	16.3	0.00e+00	0	42	0	148897792	57	5295
2026-01-02 08:32:32.84	99.64	13.98	-43.3	-46.3	16.3	0.00e+00	0	42	0	150994944	57	5283
2026-01-02 08:32:33.84	99.50	14.05	-43.2	-46.0	16.5	0.00e+00	0	42	0	152043520	57	5150
2026-01-02 08:32:34.85	99.36	14.13	-42.8	-45.5	17.1	0.00e+00	0	42	0	154140672	57	4827
2026-01-02 08:32:35.85	99.22	14.20	-42.7	-45.2	17.3	0.00e+00	0	42	0	156237824	57	4703
2026-01-02 08:32:36.85	99.07	14.28	-42.6	-45.2	17.3	0.00e+00	0	42	0	158334976	57	4684
2026-01-02 08:32:37.85	98.93	14.35	-42.9	-45.7	16.9	0.00e+00	0	42	0	160432128	57	4934
2026-01-02 08:32:38.85	98.78	14.43	-43.4	-46.4	16.2	0.00e+00	0	42	0	161480704	57	5350
2026-01-02 08:32:39.84	98.64	14.50	-43.4	-46.4	16.2	0.00e+00	0	42	0	163577856	57	5376
2026-01-02 08:32:40.84	98.49	14.58	-43.6	-46.6	16.0	0.00e+00	0	42	0	165675008	57	5524
2026-01-02 08:32:41.84	98.35	14.65	-43.5	-46.5	16.1	0.00e+00	0	42	0	167772160	57	5423
2026-01-02 08:32:42.84	98.20	14.73	-43.2	-46.1	16.5	0.00e+00	0	42	0	168820736	57	5196
2026-01-02 08:32:43.84	98.05	14.81	-43.3	-46.1	16.5	0.00e+00	0	42	0	170917888	57	5218
2026-01-02 08:32:44.85	97.90	14.88	-43.5	-46.4	16.2	0.00e+00	0	42	0	173015040	57	5399
2026-01-02 08:32:45.85	97.75	14.96	-43.8	-46.9	15.8	0.00e+00	0	42	0	175112192	58	5386
2026-01-02 08:32:46.85	97.60	15.03	-43.9	-47.2	15.5	0.00e+00	0	42	0	177209344	58	5552
2026-01-02 08:32:47.85	97.45	15.11	-43.9	-47.1	15.6	0.00e+00	0	42	0	178257920	58	5486
2026-01-02 08:32:48.85	97.30	15.18	-43.8	-46.8	15.8	0.00e+00	0	42	0	180355072	58	5339
2026-01-02 08:32:49.86	97.14	15.26	-43.6	-46.6	16.0	0.00e+00	0	42	0	182452224	58	5212
2026-01-02 08:32:50.86	96.99	15.34	-43.6	-46.6	16.0	0.00e+00	0	42	0	184549376	58	5215
2026-01-02 08:32:51.86	96.84	15.41	-43.5	-46.5	16.2	0.00e+00	0	42	0	186646528	58	5104
2026-01-02 08:32:52.86	96.68	15.49	-43.7	-46.8	16.0	0.00e+00	0	42	0	187695104	58	5296
2026-01-02 08:32:53.86	96.52	15.56	-43.7	-46.7	16.0	0.00e+00	0	42	0	189792256	58	5250
2026-01-02 08:32:54.87	96.37	15.64	-43.5	-46.4	16.3	0.00e+00	0	42	0	191889408	58	5074
2026-01-02 08:32:55.87	96.21	15.72	-43.6	-46.6	16.1	0.00e+00	0	42	0	193986560	58	5195
2026-01-02 08:32:56.87	96.05	15.79	-43.6	-46.5	16.2	0.00e+00	0	42	0	196083712	58	5128
2026-01-02 08:32:57.87	95.89	15.87	-43.5	-46.4	16.2	0.00e+00	0	42	0	197132288	58	5095
2026-01-02 08:32:58.87	95.73	15.95	-43.7	-46.7	16.0	0.00e+00	0	42	0	199229440	58	5270
2026-01-02 08:32:59.88	95.57	16.02	-43.9	-47.1	15.6	0.00e+00	0	42	0	201326592	58	5487
2026-01-02 08:33:00.88	95.41	16.10	-44.0	-47.1	15.6	0.00e+00	0	42	0	203423744	58	5523
2026-01-02 08:33:01.88	95.24	16.17	-43.8	-46.8	15.8	0.00e+00	0	42	0	205520896	58	5325
2026-01-02 08:33:02.89	95.08	16.25	-43.8	-46.9	15.9	0.00e+00	0	42	0	206569472	58	5354
2026-01-02 08:33:03.88	94.92	16.33	-43.8	-46.9	15.8	0.00e+00	0	42	0	208666624	58	5377
2026-01-02 08:33:04.89	94.75	16.40	-43.8	-46.9	15.8	0.00e+00	0	42	0	210763776	58	5344
2026-01-02 08:33:05.89	94.58	16.48	-43.6	-46.6	16.1	0.00e+00	0	42	0	212860928	58	5178
2026-01-02 08:33:06.89	94.42	16.56	-43.5	-46.3	16.4	0.00e+00	0	42	0	213909504	58	5037
2026-01-02 08:33:07.89	94.25	16.63	-43.3	-46.0	16.6	0.00e+00	0	42	0	216006656	58	4867
2026-01-02 08:33:08.90	94.08	16.71	-43.4	-46.2	16.5	0.00e+00	0	42	0	218103808	58	4977
2026-01-02 08:33:09.90	93.91	16.78	-43.4	-46.2	16.5	0.00e+00	0	42	0	220200960	58	4968
2026-01-02 08:33:10.89	93.74	16.86	-43.6	-46.6	16.1	0.00e+00	0	42	0	222298112	58	5179
2026-01-02 08:33:11.90	93.57	16.94	-43.6	-46.6	16.1	0.00e+00	0	42	0	223346688	58	5181
2026-01-02 08:33:12.90	93.39	17.01	-43.3	-46.1	16.6	0.00e+00	0	42	0	225443840	58	4878
2026-01-02 08:33:13.91	93.22	17.09	-43.4	-46.2	16.5	0.00e+00	0	42	0	227540992	58	4951
2026-01-02 08:33:14.90	93.05	17.16	-43.2	-46.1	16.6	0.00e+00	0	42	0	229638144	58	4873
2026-01-02 08:33:15.90	92.87	17.24	-43.5	-46.4	16.3	0.00e+00	0	42	0	231735296	58	5068
2026-01-02 08:33:16.91	92.70	17.32	-43.3	-46.1	16.5	0.00e+00	0	42	0	232783872	58	4908
2026-01-02 08:33:17.91	92.52	17.39	-43.4	-46.4	16.3	0.00e+00	0	42	0	234881024	58	5049
2026-01-02 08:33:18.90	92.34	17.47	-43.5	-46.4	16.3	0.00e+00	0	42	0	236978176	58	5076
2026-01-02 08:33:19.91	92.16	17.54	-43.6	-46.6	16.1	0.00e+00	0	42	0	239075328	58	5189
2026-01-02 08:33:20.91	91.98	17.62	-43.3	-46.2	16.5	0.00e+00	0	42	0	241172480	58	4944
2026-01-02 08:33:21.91	91.80	17.69	-43.2	-46.0	16.7	0.00e+00	0	42	0	242221056	58	4840
2026-01-02 08:33:22.92	91.62	17.77	-43.3	-46.2	16.5	0.00e+00	0	42	0	244318208	58	4938
2026-01-02 08:33:23.92	91.44	17.85	-43.5	-46.5	16.2	0.00e+00	0	42	0	246415360	58	5115
2026-01-02 08:33:24.92	91.26	17.92	-43.5	-46.4	16.2	0.00e+00	0	42	0	248512512	58	5095
2026-01-02 08:33:25.92	91.07	18.00	-43.8	-46.9	15.8	0.00e+00	0	42	0	250609664	58	5351
2026-01-02 08:33:26.92	90.89	18.07	-43.7	-46.8	16.0	0.00e+00	0	42	0	251658240	58	5314
2026-01-02 08:33:27.91	90.70	18.15	-43.8	-46.9	15.9	0.00e+00	0	42	0	253755392	58	5377
2026-01-02 08:33:28.92	90.52	18.22	-43.6	-46.6	16.1	0.00e+00	0	42	0	255852544	58	5193
2026-01-02 08:33:29.92	90.33	18.30	-43.6	-46.7	16.0	0.00e+00	0	42	0	257949696	58	5252
2026-01-02 08:33:30.92	90.14	18.37	-43.6	-46.7	16.0	0.00e+00	0	42	0	258998272	58	5260
2026-01-02 08:33:31.92	89.95	18.45	-43.3	-46.2	16.5	0.00e+00	0	42	0	261095424	58	4963
2026-01-02 08:33:32.92	89.76	18.52	-43.2	-46.2	16.6	0.00e+00	0	42	0	263192576	58	4949
2026-01-02 08:33:33.93	89.57	18.60	-43.1	-45.9	16.8	0.00e+00	0	42	0	265289728	58	4801
2026-01-02 08:33:34.93	89.38	18.67	-42.7	-45.5	17.2	0.00e+00	0	42	0	267386880	57	4815
2026-01-02 08:33:35.93	89.18	18.74	-42.9	-45.7	17.0	0.00e+00	0	42	0	268435456	57	4927
2026-01-02 08:33:36.93	88.99	18.82	-42.9	-45.6	17.1	0.00e+00	0	42	0	270532608	57	4897
2026-01-02 08:33:37.93	88.79	18.89	-42.7	-45.4	17.3	0.00e+00	0	42	0	272629760	57	4811
2026-01-02 08:33:38.93	88.60	18.97	-42.8	-45.5	17.2	0.00e+00	0	42	0	274726912	57	4839
2026-01-02 08:33:39.93	88.40	19.04	-42.9	-45.7	17.1	0.00e+00	0	42	0	276824064	57	4936
2026-01-02 08:33:40.93	88.20	19.11	-42.9	-45.7	17.1	0.00e+00	0	42	0	277872640	57	4927
2026-01-02 08:33:41.94	88.00	19.19	-42.8	-45.6	17.1	0.00e+00	0	42	0	279969792	57	4877
2026-01-02 08:33:42.93	87.80	19.26	-42.7	-45.5	17.2	0.00e+00	0	42	0	282066944	57	4833
2026-01-02 08:33:43.93	87.60	19.33	-42.3	-44.9	17.8	0.00e+00	0	42	0	284164096	56	4802
2026-01-02 08:33:44.93	87.40	19.41	-42.3	-44.9	17.8	0.00e+00	0	42	0	285212672	56	4812
2026-01-02 08:33:45.93	87.20	19.48	-42.3	-45.0	17.7	0.00e+00	0	42	0	287309824	56	4825
2026-01-02 08:33:46.93	86.99	19.55	-42.1	-44.6	18.0	0.00e+00	0	42	0	289406976	56	4649
2026-01-02 08:33:47.94	86.79	19.63	-41.8	-44.4	18.1	0.00e+00	0	42	0	291504128	55	4770
2026-01-02 08:33:48.94	86.58	19.70	-41.6	-44.1	18.4	0.00e+00	0	42	0	293601280	55	4613
2026-01-02 08:33:49.94	86.38	19.77	-41.6	-44.0	18.4	0.00e+00	0	42	0	294649856	54	4847
2026-01-02 08:33:50.95	86.17	19.84	-41.5	-43.9	18.6	0.00e+00	0	42	0	296747008	54	4790
2026-01-02 08:33:51.95	85.96	19.92	-41.7	-44.2	18.3	0.00e+00	0	42	0	298844160	54	4937
2026-01-02 08:33:52.95	85.75	19.99	-41.7	-44.2	18.3	0.00e+00	0	42	0	300941312	54	4941
2026-01-02 08:33:53.95	85.54	20.06	-41.7	-44.1	18.4	0.00e+00	0	42	0	303038464	54	4910
2026-01-02 08:33:54.95	85.33	20.13	-41.8	-44.3	18.1	0.00e+00	0	42	0	304087040	54	5041
2026-01-02 08:33:55.95	85.11	20.20	-41.8	-44.3	18.2	0.00e+00	0	42	0	306184192	54	4998
2026-01-02 08:33:56.96	84.90	20.27	-41.7	-44.3	18.2	0.00e+00	0	42	0	308281344	54	4991
2026-01-02 08:33:57.96	84.68	20.34	-41.7	-44.2	18.3	0.00e+00	0	42	0	310378496	54	4965
2026-01-02 08:33:58.96	84.47	20.41	-41.6	-44.1	18.4	0.00e+00	0	42	0	312475648	54	4902
2026-01-02 08:33:59.96	84.25	20.48	-41.7	-44.2	18.3	0.00e+00	0	42	0	313524224	54	4937
2026-01-02 08:34:00.96	84.03	20.55	-41.6	-44.1	18.4	0.00e+00	0	42	0	315621376	54	4878
2026-01-02 08:34:01.96	83.81	20.62	-41.7	-44.2	18.3	0.00e+00	0	42	0	317718528	54	4966
2026-01-02 08:34:02.96	83.59	20.69	-41.6	-44.0	18.4	0.00e+00	0	42	0	319815680	54	4865
2026-01-02 08:34:03.96	83.37	20.76	-41.5	-44.0	18.5	0.00e+00	0	42	0	321912832	54	4828
2026-01-02 08:34:04.96	83.15	20.83	-41.4	-43.8	18.7	0.00e+00	0	42	0	322961408	54	4732
2026-01-02 08:34:05.97	82.93	20.90	-41.5	-44.0	18.5	0.00e+00	0	42	0	325058560	54	4825
2026-01-02 08:34:06.97	82.70	20.97	-41.7	-44.1	18.4	0.00e+00	0	42	0	327155712	54	4920
2026-01-02 08:34:07.97	82.48	21.04	-41.6	-44.0	18.4	0.00e+00	0	42	0	329252864	54	4863
2026-01-02 08:34:08.97	82.25	21.11	-41.4	-43.9	18.6	0.00e+00	0	42	0	330301440	54	4770
2026-01-02 08:34:09.98	82.03	21.17	-41.4	-43.8	18.7	0.00e+00	0	42	0	332398592	54	4741
2026-01-02 08:34:10.98	81.80	21.24	-41.4	-43.8	18.6	0.00e+00	0	42	0	334495744	54	4743
2026-01-02 08:34:11.99	81.57	21.31	-41.5	-44.0	18.5	0.00e+00	0	42	0	336592896	54	4826
2026-01-02 08:34:12.99	81.34	21.38	-41.5	-43.9	18.5	0.00e+00	0	42	0	338690048	54	4791
2026-01-02 08:34:13.99	81.11	21.44	-41.4	-43.8	18.7	0.00e+00	0	42	0	339738624	54	4709
2026-01-02 08:34:14.99	80.88	21.51	-41.1	-43.6	18.7	0.00e+00	0	42	0	341835776	54	4599
2026-01-02 08:34:15.99	80.64	21.57	-41.1	-43.5	18.8	0.00e+00	0	42	0	343932928	53	4852
2026-01-02 08:34:16.99	80.41	21.64	-41.0	-43.5	18.8	0.00e+00	0	42	0	346030080	53	4822
2026-01-02 08:34:18.00	80.17	21.70	-40.9	-43.3	18.9	0.00e+00	0	42	0	348127232	53	4759
2026-01-02 08:34:19.00	79.94	21.77	-40.9	-43.2	19.0	0.00e+00	0	42	0	349175808	53	4701
2026-01-02 08:34:20.00	79.70	21.83	-40.9	-43.3	19.0	0.00e+00	0	42	0	351272960	53	4753
2026-01-02 08:34:21.00	79.46	21.90	-41.1	-43.5	18.8	0.00e+00	0	42	0	353370112	53	4833
2026-01-02 08:34:22.00	79.22	21.96	-41.0	-43.4	18.9	0.00e+00	0	42	0	355467264	53	4776
2026-01-02 08:34:23.01	78.98	22.02	-41.0	-43.4	18.9	0.00e+00	0	42	0	357564416	53	4797
2026-01-02 08:34:24.01	78.74	22.09	-41.0	-43.5	18.9	0.00e+00	0	42	0	358612992	53	4825
2026-01-02 08:34:25.01	78.50	22.15	-41.1	-43.5	18.8	0.00e+00	0	42	0	360710144	53	4855
2026-01-02 08:34:26.01	78.26	22.21	-41.1	-43.5	18.8	0.00e+00	0	42	0	362807296	53	4839
2026-01-02 08:34:27.01	78.02	22.27	-41.1	-43.4	18.9	0.00e+00	0	42	0	364904448	53	4809
2026-01-02 08:34:28.01	77.77	22.33	-41.1	-43.5	18.9	0.00e+00	0	42	0	367001600	53	4838
2026-01-02 08:34:29.01	77.53	22.39	-41.0	-43.4	18.8	0.00e+00	0	42	0	368050176	53	4809
2026-01-02 08:34:30.01	77.28	22.46	-40.8	-43.2	19.1	0.00e+00	0	42	0	370147328	53	4677
2026-01-02 08:34:31.01	77.03	22.52	-40.7	-43.1	19.2	0.00e+00	0	42	0	372244480	53	4611
2026-01-02 08:34:32.01	76.78	22.57	-40.8	-43.2	19.1	0.00e+00	0	42	0	374341632	53	4663
2026-01-02 08:34:33.01	76.54	22.63	-40.8	-43.2	19.1	0.00e+00	0	42	0	375390208	53	4662
2026-01-02 08:34:34.01	76.29	22.69	-40.8	-43.2	19.1	0.00e+00	0	42	0	377487360	53	4673
2026-01-02 08:34:35.01	76.03	22.75	-40.9	-43.2	19.1	0.00e+00	0	42	0	379584512	53	4689
2026-01-02 08:34:36.01	75.78	22.81	-41.0	-43.4	18.9	0.00e+00	0	42	0	381681664	53	4789
2026-01-02 08:34:37.01	75.53	22.87	-41.2	-43.7	18.7	0.00e+00	0	42	0	383778816	53	4942
2026-01-02 08:34:38.01	75.28	22.92	-41.2	-43.7	18.7	0.00e+00	0	42	0	384827392	53	4932
2026-01-02 08:34:39.01	75.02	22.98	-41.3	-43.7	18.7	0.00e+00	0	42	0	386924544	53	4973
2026-01-02 08:34:40.01	74.77	23.03	-41.3	-43.7	18.7	0.00e+00	0	42	0	389021696	53	4960
2026-01-02 08:34:41.01	74.51	23.09	-41.2	-43.6	18.7	0.00e+00	0	42	0	391118848	53	4902
2026-01-02 08:34:42.02	74.25	23.14	-41.2	-43.7	18.7	0.00e+00	0	42	0	393216000	53	4930
2026-01-02 08:34:43.02	73.99	23.20	-41.3	-43.8	18.6	0.00e+00	0	42	0	394264576	53	5008
2026-01-02 08:34:44.02	73.73	23.25	-41.4	-43.8	18.6	0.00e+00	0	42	0	396361728	53	5026
2026-01-02 08:34:45.02	73.47	23.31	-41.3	-43.8	18.6	0.00e+00	0	42	0	398458880	53	4995
2026-01-02 08:34:46.03	73.21	23.36	-41.3	-43.7	18.7	0.00e+00	0	42	0	400556032	53	4933
2026-01-02 08:34:47.03	72.95	23.41	-41.3	-43.8	18.6	0.00e+00	0	42	0	402653184	53	4989
2026-01-02 08:34:48.03	72.68	23.46	-41.5	-44.0	18.5	0.00e+00	0	42	0	403701760	53	5111
2026-01-02 08:34:49.03	72.42	23.51	-41.4	-43.8	18.6	0.00e+00	0	42	0	405798912	53	5031
2026-01-02 08:34:50.03	72.15	23.56	-41.2	-43.6	18.8	0.00e+00	0	42	0	407896064	53	4890
2026-01-02 08:34:51.03	71.89	23.61	-41.2	-43.7	18.7	0.00e+00	0	42	0	409993216	53	4927
2026-01-02 08:34:52.03	71.62	23.66	-41.3	-43.7	18.7	0.00e+00	0	42	0	411041792	53	4938
2026-01-02 08:34:53.04	71.35	23.71	-41.0	-43.3	19.0	0.00e+00	0	42	0	413138944	53	4744
2026-01-02 08:34:54.03	71.09	23.76	-40.9	-43.2	19.2	0.00e+00	0	42	0	415236096	53	4656
2026-01-02 08:34:55.03	70.82	23.81	-40.6	-42.8	19.4	0.00e+00	0	42	0	417333248	53	4490
2026-01-02 08:34:56.03	70.55	23.86	-40.6	-42.9	19.4	0.00e+00	0	42	0	419430400	53	4534
2026-01-02 08:34:57.04	70.28	23.90	-40.6	-42.9	19.4	0.00e+00	0	42	0	420478976	53	4524
2026-01-02 08:34:58.04	70.01	23.95	-40.7	-43.0	19.4	0.00e+00	0	42	0	422576128	53	4553
2026-01-02 08:34:59.04	69.73	23.99	-40.7	-43.0	19.4	0.00e+00	0	42	0	424673280	53	4551
2026-01-02 08:35:00.04	69.46	24.04	-40.9	-43.2	19.1	0.00e+00	0	42	0	426770432	53	4689
2026-01-02 08:35:01.03	69.19	24.08	-41.2	-43.6	18.8	0.00e+00	0	42	0	428867584	53	4880
2026-01-02 08:35:02.03	68.92	24.13	-41.2	-43.6	18.8	0.00e+00	0	42	0	429916160	53	4884
2026-01-02 08:35:03.03	68.64	24.17	-41.5	-43.9	18.5	0.00e+00	0	42	0	432013312	53	5059
2026-01-02 08:35:04.03	68.37	24.21	-41.8	-44.3	18.2	0.00e+00	0	42	0	434110464	54	5005
2026-01-02 08:35:05.03	68.09	24.25	-42.4	-45.2	17.4	0.00e+00	0	42	0	436207616	55	5226
2026-01-02 08:35:06.03	67.81	24.29	-42.9	-45.8	16.9	0.00e+00	0	42	0	438304768	56	5315
2026-01-02 08:35:07.03	67.53	24.33	-43.4	-46.4	16.3	0.00e+00	0	42	0	439353344	57	5394
2026-01-02 08:35:08.02	67.26	24.37	-43.2	-46.1	16.6	0.00e+00	0	42	0	441450496	57	5203
2026-01-02 08:35:09.02	66.98	24.41	-43.1	-46.0	16.7	0.00e+00	0	42	0	443547648	57	5156
2026-01-02 08:35:10.03	66.70	24.45	-43.1	-46.0	16.7	0.00e+00	0	42	0	445644800	57	5112
2026-01-02 08:35:11.02	66.42	24.49	-43.0	-45.8	16.9	0.00e+00	0	42	0	446693376	57	5028
2026-01-02 08:35:12.03	66.13	24.52	-42.7	-45.5	17.2	0.00e+00	0	42	0	448790528	57	4834
2026-01-02 08:35:13.03	65.85	24.56	-42.5	-45.2	17.4	0.00e+00	0	42	0	450887680	57	4672
2026-01-02 08:35:14.03	65.57	24.59	-42.3	-45.0	17.6	0.00e+00	0	42	0	452984832	56	4857
2026-01-02 08:35:15.03	65.29	24.63	-42.3	-45.0	17.6	0.00e+00	0	42	0	455081984	56	4837
2026-01-02 08:35:16.03	65.00	24.66	-42.5	-45.3	17.3	0.00e+00	0	42	0	456130560	56	5015
2026-01-02 08:35:17.03	64.72	24.69	-42.5	-45.3	17.3	0.00e+00	0	42	0	458227712	56	5021
2026-01-02 08:35:18.03	64.43	24.73	-42.5	-45.2	17.4	0.00e+00	0	42	0	460324864	56	4955
2026-01-02 08:35:19.04	64.15	24.76	-42.4	-45.1	17.5	0.00e+00	0	42	0	462422016	56	4884
2026-01-02 08:35:20.04	63.86	24.79	-42.5	-45.2	17.4	0.00e+00	0	42	0	464519168	56	4979
2026-01-02 08:35:21.04	63.57	24.82	-42.3	-45.0	17.5	0.00e+00	0	42	0	465567744	56	4866
2026-01-02 08:35:22.04	63.29	24.85	-42.2	-44.9	17.7	0.00e+00	0	42	0	467664896	56	4780
2026-01-02 08:35:23.04	63.00	24.88	-42.4	-45.1	17.5	0.00e+00	0	42	0	469762048	56	4906
2026-01-02 08:35:24.05	62.71	24.91	-42.6	-45.4	17.2	0.00e+00	0	42	0	471859200	56	5096
2026-01-02 08:35:25.05	62.42	24.93	-42.9	-45.8	16.8	0.00e+00	0	42	0	472907776	56	5312
2026-01-02 08:35:26.05	62.13	24.96	-43.1	-46.1	16.6	0.00e+00	0	42	0	475004928	57	5212
2026-01-02 08:35:27.04	61.84	24.98	-43.0	-46.0	16.7	0.00e+00	0	42	0	477102080	57	5107
2026-01-02 08:35:28.04	61.55	25.01	-42.8	-45.8	16.9	0.00e+00	0	43	0	479199232	57	4985
2026-01-02 08:35:29.05	61.26	25.03	-42.9	-45.8	16.8	0.00e+00	0	42	0	481296384	57	5011
2026-01-02 08:35:30.04	60.97	25.06	-43.0	-46.0	16.7	0.00e+00	0	42	0	482344960	57	5101
2026-01-02 08:35:31.04	60.68	25.08	-42.9	-45.9	16.8	0.00e+00	0	42	0	484442112	57	5064
2026-01-02 08:35:32.05	60.38	25.10	-42.9	-45.9	16.8	0.00e+00	0	42	0	486539264	57	5066
2026-01-02 08:35:33.04	60.09	25.12	-42.8	-45.7	17.0	0.00e+00	0	42	0	488636416	57	4957
2026-01-02 08:35:34.05	59.80	25.14	-42.4	-45.2	17.5	0.00e+00	0	42	0	490733568	56	4935
2026-01-02 08:35:35.04	59.51	25.16	-42.5	-45.3	17.4	0.00e+00	0	42	0	491782144	56	4993
2026-01-02 08:35:36.05	59.21	25.18	-42.6	-45.4	17.2	0.00e+00	0	42	0	493879296	56	5083
2026-01-02 08:35:37.05	58.92	25.20	-42.8	-45.8	16.9	0.00e+00	0	42	0	495976448	56	5301
2026-01-02 08:35:38.05	58.62	25.21	-43.1	-46.1	16.5	0.00e+00	0	42	0	498073600	56	5515
2026-01-02 08:35:39.05	58.33	25.23	-43.3	-46.5	16.2	0.00e+00	0	42	0	500170752	57	5422
2026-01-02 08:35:40.05	58.04	25.25	-43.3	-46.4	16.3	0.00e+00	0	42	0	501219328	57	5346
2026-01-02 08:35:41.06	57.74	25.26	-43.1	-46.2	16.5	0.00e+00	0	42	0	503316480	57	5223
2026-01-02 08:35:42.06	57.44	25.27	-43.2	-46.3	16.4	0.00e+00	0	42	0	505413632	57	5285
2026-01-02 08:35:43.06	57.15	25.29	-43.2	-46.2	16.6	0.00e+00	0	42	0	507510784	57	5241
2026-01-02 08:35:44.06	56.85	25.30	-42.8	-45.7	17.0	0.00e+00	0	42	0	509607936	57	4960
2026-01-02 08:35:45.06	56.56	25.31	-42.6	-45.4	17.2	0.00e+00	0	42	0	510656512	57	4790
2026-01-02 08:35:46.06	56.26	25.32	-42.4	-45.2	17.5	0.00e+00	0	42	0	512753664	56	4933
2026-01-02 08:35:47.06	55.96	25.33	-42.2	-44.9	17.6	0.00e+00	0	42	0	514850816	56	4795
2026-01-02 08:35:48.06	55.67	25.34	-42.1	-44.8	17.9	0.00e+00	0	42	0	516947968	56	4714
2026-01-02 08:35:49.06	55.37	25.35	-42.1	-44.7	17.8	0.00e+00	0	42	0	517996544	56	4679
2026-01-02 08:35:50.06	55.07	25.35	-42.3	-45.1	17.6	0.00e+00	0	42	0	520093696	56	4883
2026-01-02 08:35:51.07	54.78	25.36	-42.7	-45.6	17.1	0.00e+00	0	42	0	522190848	56	5165
2026-01-02 08:35:52.07	54.48	25.36	-43.0	-46.1	16.6	0.00e+00	0	42	0	524288000	56	5492
2026-01-02 08:35:53.07	54.18	25.37	-43.0	-46.2	16.5	0.00e+00	0	42	0	526385152	56	5537
2026-01-02 08:35:54.08	53.88	25.37	-43.2	-46.4	16.3	0.00e+00	0	42	0	527433728	57	5360
2026-01-02 08:35:55.08	53.58	25.37	-43.1	-46.2	16.4	0.00e+00	0	42	0	529530880	57	5275
2026-01-02 08:35:56.08	53.29	25.38	-43.1	-46.2	16.4	0.00e+00	0	42	0	531628032	57	5268
2026-01-02 08:35:57.09	52.99	25.38	-43.0	-46.0	16.6	0.00e+00	0	42	0	533725184	57	5129
2026-01-02 08:35:58.09	52.69	25.38	-42.8	-45.7	16.9	0.00e+00	0	42	0	535822336	57	4976
2026-01-02 08:35:59.09	52.39	25.38	-42.6	-45.5	17.2	0.00e+00	0	42	0	536870912	57	4832
2026-01-02 08:36:00.09	52.10	25.38	-42.4	-45.2	17.4	0.00e+00	0	42	0	538968064	56	4964
2026-01-02 08:36:01.09	51.80	25.37	-42.0	-44.6	17.9	0.00e+00	0	42	0	541065216	56	4650
2026-01-02 08:36:02.09	51.50	25.37	-41.6	-44.1	18.3	0.00e+00	0	42	0	543162368	55	4638
2026-01-02 08:36:03.10	51.20	25.37	-41.4	-43.9	18.5	0.00e+00	0	42	0	545259520	54	4763
2026-01-02 08:36:04.09	50.91	25.36	-41.4	-43.9	18.5	0.00e+00	0	42	0	546308096	54	4796
2026-01-02 08:36:05.09	50.61	25.35	-41.5	-43.9	18.5	0.00e+00	0	42	0	548405248	54	4807
2026-01-02 08:36:06.09	50.32	25.35	-41.5	-43.9	18.5	0.00e+00	0	42	0	550502400	54	4807
2026-01-02 08:36:07.09	50.02	25.34	-41.4	-43.9	18.6	0.00e+00	0	42	0	552599552	54	4771
2026-01-02 08:36:08.10	49.72	25.33	-41.4	-43.9	18.6	0.00e+00	0	42	0	553648128	54	4794
2026-01-02 08:36:09.10	49.42	25.32	-41.5	-44.1	18.4	0.00e+00	0	42	0	555745280	54	4871
2026-01-02 08:36:10.10	49.13	25.31	-41.5	-44.0	18.4	0.00e+00	0	42	0	557842432	54	4841
2026-01-02 08:36:11.10	48.83	25.30	-41.3	-43.7	18.7	0.00e+00	0	42	0	559939584	54	4691
2026-01-02 08:36:12.11	48.53	25.29	-40.9	-43.3	19.1	0.00e+00	0	42	0	562036736	54	4451
2026-01-02 08:36:13.11	48.24	25.28	-40.7	-43.0	19.4	0.00e+00	0	42	0	563085312	53	4552
2026-01-02 08:36:14.11	47.94	25.27	-40.2	-42.4	19.9	0.00e+00	0	42	0	565182464	52	4519
2026-01-02 08:36:15.11	47.65	25.25	-40.3	-42.5	19.8	0.00e+00	0	42	0	567279616	52	4569
2026-01-02 08:36:16.11	47.35	25.24	-40.5	-42.7	19.6	0.00e+00	0	42	0	569376768	52	4702
2026-01-02 08:36:17.11	47.06	25.22	-40.5	-42.8	19.6	0.00e+00	0	42	0	571473920	52	4729
2026-01-02 08:36:18.11	46.77	25.20	-40.3	-42.4	19.7	0.00e+00	0	42	0	572522496	52	4537
2026-01-02 08:36:19.11	46.47	25.19	-40.0	-42.1	20.2	0.00e+00	0	42	0	574619648	52	4388
2026-01-02 08:36:20.11	46.18	25.17	-40.2	-42.4	20.0	0.00e+00	0	42	0	576716800	52	4498
2026-01-02 08:36:21.11	45.89	25.15	-40.5	-42.7	19.6	0.00e+00	0	42	0	578813952	52	4695
2026-01-02 08:36:22.11	45.59	25.13	-40.7	-42.9	19.5	0.00e+00	0	42	0	580911104	52	4813
2026-01-02 08:36:23.12	45.30	25.11	-41.0	-43.3	19.1	0.00e+00	0	42	0	581959680	52	5031
2026-01-02 08:36:24.12	45.01	25.09	-40.8	-43.1	19.3	0.00e+00	0	42	0	584056832	52	4898
2026-01-02 08:36:25.12	44.72	25.07	-40.9	-43.1	19.3	0.00e+00	0	42	0	586153984	52	4918
2026-01-02 08:36:26.12	44.42	25.04	-41.1	-43.5	19.0	0.00e+00	0	42	0	588251136	53	4827
2026-01-02 08:36:27.13	44.13	25.02	-41.5	-43.9	18.6	0.00e+00	0	42	0	590348288	53	5049
2026-01-02 08:36:28.13	43.84	25.00	-41.3	-43.6	18.8	0.00e+00	0	42	0	591396864	53	4916
2026-01-02 08:36:29.13	43.55	24.97	-41.0	-43.3	19.2	0.00e+00	0	42	0	593494016	53	4708
2026-01-02 08:36:30.13	43.26	24.94	-41.2	-43.5	18.9	0.00e+00	0	42	0	595591168	53	4870
2026-01-02 08:36:31.13	42.97	24.92	-41.3	-43.6	18.8	0.00e+00	0	42	0	597688320	53	4926
2026-01-02 08:36:32.14	42.68	24.89	-41.4	-43.7	18.7	0.00e+00	0	42	0	598736896	53	4978
2026-01-02 08:36:33.14	42.40	24.86	-41.6	-44.0	18.5	0.00e+00	0	42	0	600834048	53	5156
2026-01-02 08:36:34.14	42.11	24.83	-41.7	-44.2	18.3	0.00e+00	0	42	0	602931200	54	4933
2026-01-02 08:36:35.14	41.82	24.80	-41.7	-44.1	18.4	0.00e+00	0	42	0	605028352	54	4916
2026-01-02 08:36:36.14	41.54	24.77	-41.8	-44.3	18.3	0.00e+00	0	42	0	607125504	54	4984
2026-01-02 08:36:37.14	41.25	24.74	-42.1	-44.7	17.9	0.00e+00	0	42	0	608174080	54	5245
2026-01-02 08:36:38.14	40.97	24.71	-42.5	-45.2	17.4	0.00e+00	0	42	0	610271232	55	5257
2026-01-02 08:36:39.15	40.68	24.68	-42.6	-45.3	17.3	0.00e+00	0	42	0	612368384	55	5295
2026-01-02 08:36:40.15	40.40	24.64	-42.1	-44.6	17.9	0.00e+00	0	42	0	614465536	55	4922
2026-01-02 08:36:41.15	40.11	24.61	-41.9	-44.4	18.1	0.00e+00	0	42	0	616562688	55	4791
2026-01-02 08:36:42.15	39.83	24.57	-41.8	-44.2	18.3	0.00e+00	0	43	0	617611264	55	4704
2026-01-02 08:36:43.15	39.55	24.54	-41.9	-44.4	18.1	0.00e+00	0	42	0	619708416	55	4800
2026-01-02 08:36:44.15	39.27	24.50	-42.1	-44.7	17.8	0.00e+00	0	42	0	621805568	55	4975
2026-01-02 08:36:45.16	38.98	24.46	-42.2	-44.9	17.7	0.00e+00	0	42	0	623902720	55	5060
2026-01-02 08:36:46.16	38.71	24.43	-42.4	-45.1	17.5	0.00e+00	0	42	0	625999872	55	5203
2026-01-02 08:36:47.16	38.43	24.39	-42.6	-45.3	17.3	0.00e+00	0	42	0	627048448	55	5334
2026-01-02 08:36:48.16	38.15	24.35	-42.8	-45.6	17.1	0.00e+00	0	42	0	629145600	56	5196
2026-01-02 08:36:49.16	37.87	24.31	-43.1	-46.0	16.8	0.00e+00	0	42	0	631242752	56	5456
2026-01-02 08:36:50.17	37.59	24.27	-43.0	-45.9	16.8	0.00e+00	0	42	0	633339904	57	5064
2026-01-02 08:36:51.17	37.31	24.23	-42.9	-45.7	17.1	0.00e+00	0	42	0	635437056	57	4930
2026-01-02 08:36:52.17	37.04	24.19	-42.9	-45.7	17.0	0.00e+00	0	42	0	636485632	57	4954
2026-01-02 08:36:53.17	36.76	24.14	-42.9	-45.7	17.0	0.00e+00	0	42	0	638582784	57	4971
2026-01-02 08:36:54.17	36.49	24.10	-43.2	-46.3	16.5	0.00e+00	0	42	0	640679936	57	5288
2026-01-02 08:36:55.18	36.22	24.06	-43.2	-46.3	16.5	0.00e+00	0	42	0	642777088	57	5283
2026-01-02 08:36:56.18	35.94	24.01	-43.1	-46.0	16.7	0.00e+00	0	42	0	643825664	57	5157
2026-01-02 08:36:57.19	35.67	23.97	-42.7	-45.5	17.2	0.00e+00	0	42	0	645922816	57	4848
2026-01-02 08:36:58.19	35.40	23.92	-42.5	-45.3	17.3	0.00e+00	0	42	0	648019968	57	4758
2026-01-02 08:36:59.19	35.13	23.88	-42.5	-45.3	17.4	0.00e+00	0	43	0	650117120	56	5034
2026-01-02 08:37:00.19	34.86	23.83	-42.6	-45.4	17.2	0.00e+00	0	42	0	652214272	56	5091
2026-01-02 08:37:01.19	34.59	23.78	-42.7	-45.6	17.1	0.00e+00	0	42	0	653262848	56	5193
2026-01-02 08:37:02.20	34.32	23.73	-42.9	-45.9	16.9	0.00e+00	0	43	0	655360000	56	5357
2026-01-02 08:37:03.20	34.05	23.68	-43.2	-46.3	16.5	0.00e+00	0	43	0	657457152	57	5285
2026-01-02 08:37:04.20	33.79	23.64	-43.3	-46.4	16.3	0.00e+00	0	42	0	659554304	57	5373
2026-01-02 08:37:05.21	33.52	23.59	-43.0	-46.1	16.6	0.00e+00	0	42	0	661651456	57	5160
2026-01-02 08:37:06.21	33.26	23.53	-42.8	-45.8	16.9	0.00e+00	0	42	0	662700032	57	5000
2026-01-02 08:37:07.21	32.99	23.48	-42.6	-45.4	17.3	0.00e+00	0	42	0	664797184	57	4790
2026-01-02 08:37:08.21	32.73	23.43	-42.4	-45.2	17.5	0.00e+00	0	42	0	666894336	56	4943
2026-01-02 08:37:09.21	32.47	23.38	-42.4	-45.2	17.5	0.00e+00	0	42	0	668991488	56	4933
2026-01-02 08:37:10.21	32.21	23.33	-42.3	-45.1	17.6	0.00e+00	0	42	0	671088640	56	4887
2026-01-02 08:37:11.21	31.95	23.28	-42.4	-45.2	17.5	0.00e+00	0	42	0	672137216	56	4956
2026-01-02 08:37:12.21	31.69	23.22	-42.6	-45.5	17.2	0.00e+00	0	42	0	674234368	56	5138
2026-01-02 08:37:13.21	31.43	23.17	-42.8	-45.7	16.9	0.00e+00	0	42	0	676331520	56	5269
2026-01-02 08:37:14.22	31.17	23.11	-43.0	-46.0	16.6	0.00e+00	0	42	0	678428672	56	5447
2026-01-02 08:37:15.22	30.92	23.06	-43.5	-46.8	16.0	0.00e+00	0	42	0	680525824	57	5598
2026-01-02 08:37:16.22	30.66	23.00	-43.5	-46.8	15.9	0.00e+00	0	42	0	681574400	57	5596
2026-01-02 08:37:17.22	30.41	22.95	-43.4	-46.5	16.2	0.00e+00	0	42	0	683671552	57	5439
2026-01-02 08:37:18.22	30.15	22.89	-42.8	-45.7	17.0	0.00e+00	0	42	0	685768704	57	4952
2026-01-02 08:37:19.22	29.90	22.83	-42.6	-45.4	17.3	0.00e+00	0	42	0	687865856	57	4773
2026-01-02 08:37:20.22	29.65	22.78	-42.5	-45.4	17.3	0.00e+00	0	42	0	688914432	56	5043
2026-01-02 08:37:21.22	29.40	22.72	-42.8	-45.7	17.0	0.00e+00	0	42	0	691011584	56	5221
2026-01-02 08:37:22.22	29.15	22.66	-42.9	-45.9	16.6	0.00e+00	0	42	0	693108736	56	5347
2026-01-02 08:37:23.22	28.90	22.60	-43.1	-46.2	16.5	0.00e+00	0	42	0	695205888	56	5564
2026-01-02 08:37:24.23	28.65	22.54	-43.3	-46.5	16.1	0.00e+00	0	42	0	697303040	57	5463
2026-01-02 08:37:25.23	28.41	22.48	-43.3	-46.6	16.2	0.00e+00	0	42	0	698351616	57	5471
2026-01-02 08:37:26.23	28.16	22.42	-43.5	-46.9	15.8	0.00e+00	0	42	0	700448768	57	5663
2026-01-02 08:37:27.24	27.91	22.36	-43.5	-46.9	15.9	0.00e+00	0	42	0	702545920	58	5350
2026-01-02 08:37:28.24	27.67	22.30	-43.0	-46.2	16.5	0.00e+00	0	42	0	704643072	58	4933
2026-01-02 08:37:29.24	27.43	22.24	-42.6	-45.5	17.1	0.00e+00	0	43	0	706740224	57	4868
2026-01-02 08:37:30.24	27.18	22.18	-42.4	-45.2	17.2	0.00e+00	0	42	0	707788800	56	4980
2026-01-02 08:37:31.24	26.94	22.11	-41.8	-44.4	18.0	0.00e+00	0	43	0	709885952	55	4784
2026-01-02 08:37:32.25	26.70	22.05	-41.6	-44.2	18.2	0.00e+00	0	42	0	711983104	55	4672
2026-01-02 08:37:33.25	26.46	21.99	-41.7	-44.3	18.2	0.00e+00	0	42	0	714080256	55	4729
2026-01-02 08:37:34.25	26.22	21.93	-41.8	-44.5	17.9	0.00e+00	0	42	0	716177408	55	4854
2026-01-02 08:37:35.25	25.99	21.86	-42.1	-45.0	17.5	0.00e+00	0	42	0	717225984	55	5103
2026-01-02 08:37:36.25	25.75	21.80	-42.3	-45.3	17.2	0.00e+00	0	42	0	719323136	55	5295
2026-01-02 08:37:37.25	25.52	21.73	-42.4	-45.5	17.1	0.00e+00	0	42	0	721420288	55	5413
2026-01-02 08:37:38.26	25.28	21.67	-42.3	-45.4	17.2	0.00e+00	0	42	0	723517440	55	5344
2026-01-02 08:37:39.26	25.05	21.60	-42.1	-45.0	17.4	0.00e+00	0	42	0	725614592	55	5141
2026-01-02 08:37:40.26	24.81	21.54	-42.0	-44.8	17.6	0.00e+00	0	42	0	726663168	55	5031
2026-01-02 08:37:41.26	24.58	21.47	-41.9	-44.8	17.7	0.00e+00	0	42	0	728760320	55	5000
2026-01-02 08:37:42.26	24.35	21.41	-41.4	-44.1	18.3	0.00e+00	0	42	0	730857472	54	4879
2026-01-02 08:37:43.26	24.12	21.34	-41.3	-43.8	18.6	0.00e+00	0	42	0	732954624	54	4757
2026-01-02 08:37:44.27	23.89	21.27	-40.9	-43.3	19.1	0.00e+00	0	42	0	734003200	53	4751
2026-01-02 08:37:45.27	23.67	21.21	-40.8	-43.3	19.1	0.00e+00	0	43	0	736100352	53	4742
2026-01-02 08:37:46.27	23.44	21.14	-40.7	-43.1	19.2	0.00e+00	0	42	0	738197504	53	4621
2026-01-02 08:37:47.27	23.22	21.07	-40.9	-43.4	18.9	0.00e+00	0	42	0	740294656	53	4788
2026-01-02 08:37:48.27	22.99	21.00	-41.3	-43.9	18.5	0.00e+00	0	42	0	742391808	53	5056
2026-01-02 08:37:49.27	22.77	20.94	-41.4	-44.0	18.4	0.00e+00	0	43	0	743440384	53	5150
2026-01-02 08:37:50.27	22.55	20.87	-41.6	-44.2	18.2	0.00e+00	0	42	0	745537536	53	5268
2026-01-02 08:37:51.27	22.33	20.80	-41.5	-44.1	18.3	0.00e+00	0	42	0	747634688	53	5166
2026-01-02 08:37:52.27	22.11	20.73	-41.4	-44.0	18.4	0.00e+00	0	42	0	749731840	53	5116
2026-01-02 08:37:53.27	21.89	20.66	-41.4	-44.0	18.5	0.00e+00	0	43	0	751828992	53	5109
2026-01-02 08:37:54.28	21.67	20.59	-41.7	-44.4	18.0	0.00e+00	0	42	0	752877568	54	5048
2026-01-02 08:37:55.27	21.45	20.52	-41.6	-44.3	18.2	0.00e+00	0	42	0	754974720	54	4992
2026-01-02 08:37:56.27	21.24	20.45	-41.5	-44.1	18.4	0.00e+00	0	42	0	757071872	54	4897
2026-01-02 08:37:57.27	21.02	20.38	-41.3	-43.8	18.6	0.00e+00	0	42	0	759169024	54	4748
2026-01-02 08:37:58.27	20.81	20.31	-41.6	-44.2	18.3	0.00e+00	0	42	0	761266176	54	4938
2026-01-02 08:37:59.27	20.60	20.24	-41.5	-44.2	18.3	0.00e+00	0	42	0	762314752	54	4939
2026-01-02 08:38:00.27	20.38	20.17	-41.7	-44.4	18.0	0.00e+00	0	43	0	764411904	54	5059
2026-01-02 08:38:01.27	20.17	20.10	-41.9	-44.6	17.9	0.00e+00	0	42	0	766509056	54	5206
2026-01-02 08:38:02.28	19.96	20.03	-41.9	-44.7	17.7	0.00e+00	0	42	0	768606208	54	5239
2026-01-02 08:38:03.28	19.75	19.96	-41.8	-44.6	17.9	0.00e+00	0	42	0	769654784	54	5170
2026-01-02 08:38:04.28	19.54	19.88	-41.7	-44.4	18.0	0.00e+00	0	42	0	771751936	54	5085
2026-01-02 08:38:05.28	19.34	19.81	-41.7	-44.5	18.0	0.00e+00	0	42	0	773849088	54	5114
2026-01-02 08:38:06.29	19.13	19.74	-41.9	-44.6	17.8	0.00e+00	0	42	0	775946240	54	5212
2026-01-02 08:38:07.29	18.92	19.67	-42.0	-44.9	17.7	0.00e+00	0	42	0	778043392	54	5348
2026-01-02 08:38:08.29	18.72	19.60	-42.2	-45.1	17.3	0.00e+00	0	42	0	779091968	55	5186
2026-01-02 08:38:09.30	18.51	19.52	-42.3	-45.2	17.3	0.00e+00	0	42	0	781189120	55	5226
2026-01-02 08:38:10.29	18.31	19.45	-42.0	-44.8	17.7	0.00e+00	0	42	0	783286272	55	5001
2026-01-02 08:38:11.30	18.11	19.38	-41.6	-44.3	18.2	0.00e+00	0	42	0	785383424	55	4707
2026-01-02 08:38:12.30	17.91	19.30	-41.4	-44.0	18.5	0.00e+00	0	42	0	787480576	54	4841
2026-01-02 08:38:13.30	17.71	19.23	-41.5	-44.1	18.4	0.00e+00	0	42	0	788529152	54	4883
2026-01-02 08:38:14.30	17.51	19.16	-41.6	-44.2	18.3	0.00e+00	0	42	0	790626304	54	4960
2026-01-02 08:38:15.30	17.32	19.09	-41.9	-44.6	17.9	0.00e+00	0	42	0	792723456	54	5176
2026-01-02 08:38:16.30	17.12	19.01	-42.0	-44.8	17.7	0.00e+00	0	42	0	794820608	54	5295
2026-01-02 08:38:17.31	16.92	18.94	-41.9	-44.7	17.8	0.00e+00	0	42	0	796917760	54	5224
2026-01-02 08:38:18.31	16.73	18.86	-41.8	-44.4	18.1	0.00e+00	0	42	0	797966336	54	5069
2026-01-02 08:38:19.31	16.53	18.79	-41.5	-44.0	18.5	0.00e+00	0	42	0	800063488	54	4821
2026-01-02 08:38:20.31	16.34	18.72	-41.3	-43.7	18.7	0.00e+00	0	42	0	802160640	54	4662
2026-01-02 08:38:21.31	16.15	18.64	-41.1	-43.5	18.9	0.00e+00	0	42	0	804257792	54	4557
2026-01-02 08:38:22.31	15.96	18.57	-41.1	-43.4	18.9	0.00e+00	0	42	0	806354944	54	4541
2026-01-02 08:38:23.32	15.77	18.49	-40.9	-43.3	19.1	0.00e+00	0	42	0	807403520	53	4719
2026-01-02 08:38:24.32	15.58	18.42	-40.8	-43.1	19.2	0.00e+00	0	43	0	809500672	53	4627
2026-01-02 08:38:25.32	15.39	18.34	-41.0	-43.4	19.0	0.00e+00	0	42	0	811597824	53	4764
2026-01-02 08:38:26.32	15.20	18.27	-41.0	-43.4	19.0	0.00e+00	0	42	0	813694976	53	4776
2026-01-02 08:38:27.32	15.02	18.19	-41.1	-43.5	19.0	0.00e+00	0	42	0	814743552	53	4818
2026-01-02 08:38:28.32	14.83	18.12	-41.3	-43.7	18.7	0.00e+00	0	42	0	816840704	53	4976
2026-01-02 08:38:29.32	14.65	18.04	-41.6	-44.2	18.3	0.00e+00	0	42	0	818937856	53	5254
2026-01-02 08:38:30.33	14.47	17.97	-41.6	-44.3	18.2	0.00e+00	0	42	0	821035008	54	5005
2026-01-02 08:38:31.33	14.28	17.89	-41.5	-44.2	18.3	0.00e+00	0	42	0	823132160	54	4936
2026-01-02 08:38:32.33	14.10	17.82	-41.3	-44.0	18.5	0.00e+00	0	42	0	824180736	54	4816
2026-01-02 08:38:33.33	13.92	17.74	-40.9	-43.5	18.9	0.00e+00	0	43	0	826277888	53	4868
2026-01-02 08:38:34.33	13.74	17.67	-40.8	-43.4	19.0	0.00e+00	0	42	0	828375040	53	4788
2026-01-02 08:38:35.33	13.56	17.59	-40.8	-43.4	19.0	0.00e+00	0	42	0	830472192	53	4770
2026-01-02 08:38:36.33	13.39	17.52	-40.8	-43.3	19.1	0.00e+00	0	42	0	832569344	53	4744
2026-01-02 08:38:37.33	13.21	17.44	-40.8	-43.3	19.1	0.00e+00	0	42	0	833617920	53	4749
2026-01-02 08:38:38.33	13.03	17.37	-41.0	-43.5	18.9	0.00e+00	0	42	0	835715072	53	4835
2026-01-02 08:38:39.33	12.86	17.29	-41.2	-43.8	18.7	0.00e+00	0	42	0	837812224	53	4987
2026-01-02 08:38:40.33	12.68	17.22	-41.2	-43.9	18.6	0.00e+00	0	42	0	839909376	53	5045
2026-01-02 08:38:41.34	12.51	17.14	-41.2	-43.9	18.5	0.00e+00	0	43	0	840957952	53	5091
2026-01-02 08:38:42.34	12.34	17.06	-41.2	-43.9	18.5	0.00e+00	0	42	0	843055104	53	5088
2026-01-02 08:38:43.34	12.17	16.99	-41.3	-44.2	18.3	0.00e+00	0	42	0	845152256	53	5230
2026-01-02 08:38:44.35	11.99	16.91	-41.4	-44.3	18.2	0.00e+00	0	42	0	847249408	53	5294
2026-01-02 08:38:45.35	11.82	16.84	-41.5	-44.3	18.1	0.00e+00	0	42	0	849346560	53	5312
2026-01-02 08:38:46.35	11.66	16.76	-41.3	-44.0	18.4	0.00e+00	0	42	0	851443712	53	5155
2026-01-02 08:38:47.36	11.49	16.68	-41.2	-43.9	18.5	0.00e+00	0	42	0	852492288	53	5080
2026-01-02 08:38:48.36	11.32	16.61	-40.9	-43.4	19.1	0.00e+00	0	42	0	854589440	53	4760
2026-01-02 08:38:49.36	11.15	16.53	-40.8	-43.2	19.2	0.00e+00	0	42	0	856686592	53	4668
2026-01-02 08:38:50.36	10.99	16.46	-40.8	-43.2	19.2	0.00e+00	0	42	0	858783744	53	4681
2026-01-02 08:38:51.36	10.82	16.38	-40.7	-43.2	19.2	0.00e+00	0	42	0	859832320	53	4665
2026-01-02 08:38:52.36	10.66	16.31	-40.9	-43.4	19.0	0.00e+00	0	42	0	861929472	53	4777
2026-01-02 08:38:53.36	10.50	16.23	-41.1	-43.7	18.8	0.00e+00	0	42	0	864026624	53	4943
2026-01-02 08:38:54.36	10.33	16.15	-41.4	-44.2	18.3	0.00e+00	0	43	0	866123776	53	5220
2026-01-02 08:38:55.36	10.17	16.08	-41.7	-44.7	17.8	0.00e+00	0	43	0	868220928	54	5244
2026-01-02 08:38:56.36	10.01	16.00	-41.9	-44.9	17.6	0.00e+00	0	42	0	869269504	54	5377
2026-01-02 08:38:57.36	9.85	15.93	-41.8	-44.8	17.7	0.00e+00	0	43	0	871366656	54	5319
2026-01-02 08:38:58.36	9.70	15.85	-41.9	-44.8	17.7	0.00e+00	0	42	0	873463808	54	5333
2026-01-02 08:38:59.36	9.54	15.78	-41.8	-44.6	17.9	0.00e+00	0	42	0	875560960	54	5192
2026-01-02 08:39:00.37	9.38	15.70	-41.5	-44.2	18.2	0.00e+00	0	43	0	877658112	54	4981
2026-01-02 08:39:01.36	9.22	15.62	-41.6	-44.3	18.1	0.00e+00	0	42	0	878706688	54	5032
2026-01-02 08:39:02.37	9.07	15.55	-41.7	-44.4	18.1	0.00e+00	0	42	0	880803840	54	5053
2026-01-02 08:39:03.37	8.91	15.47	-41.5	-44.1	18.3	0.00e+00	0	42	0	882900992	54	4919
2026-01-02 08:39:04.37	8.76	15.40	-41.7	-44.5	18.0	0.00e+00	0	42	0	884998144	54	5131
2026-01-02 08:39:05.37	8.61	15.32	-41.5	-44.3	18.2	0.00e+00	0	42	0	886046720	54	5002
2026-01-02 08:39:06.37	8.45	15.25	-41.5	-44.2	18.2	0.00e+00	0	42	0	888143872	54	4966
2026-01-02 08:39:07.37	8.30	15.17	-41.5	-44.2	18.2	0.00e+00	0	42	0	890241024	54	4982
2026-01-02 08:39:08.37	8.15	15.09	-41.6	-44.4	18.0	0.00e+00	0	43	0	892338176	54	5090
2026-01-02 08:39:09.37	8.00	15.02	-41.5	-44.2	18.3	0.00e+00	0	42	0	894435328	54	4934
2026-01-02 08:39:10.37	7.85	14.94	-41.9	-44.6	17.9	0.00e+00	0	42	0	895483904	54	5207
2026-01-02 08:39:11.38	7.70	14.87	-42.0	-44.8	17.7	0.00e+00	0	43	0	897581056	54	5326
2026-01-02 08:39:12.38	7.56	14.79	-42.4	-45.3	17.2	0.00e+00	0	42	0	899678208	55	5334
2026-01-02 08:39:13.38	7.41	14.72	-42.5	-45.5	17.0	0.00e+00	0	42	0	901775360	55	5434
2026-01-02 08:39:14.38	7.26	14.64	-42.8	-46.0	16.7	0.00e+00	0	43	0	903872512	56	5444
2026-01-02 08:39:15.39	7.12	14.57	-42.7	-46.0	16.7	0.00e+00	0	42	0	904921088	56	5409
2026-01-02 08:39:16.38	6.97	14.49	-42.8	-46.0	16.6	0.00e+00	0	42	0	907018240	56	5457
2026-01-02 08:39:17.38	6.83	14.42	-42.5	-45.6	17.1	0.00e+00	0	42	0	909115392	56	5188
2026-01-02 08:39:18.39	6.69	14.34	-42.3	-45.4	17.3	0.00e+00	0	42	0	911212544	56	5060
2026-01-02 08:39:19.39	6.54	14.27	-42.0	-44.9	17.8	0.00e+00	0	43	0	913309696	56	4779
2026-01-02 08:39:20.40	6.40	14.19	-41.5	-44.2	18.2	0.00e+00	0	42	0	914358272	54	4978
2026-01-02 08:39:21.39	6.26	14.12	-41.5	-44.2	18.2	0.00e+00	0	42	0	916455424	54	4981
2026-01-02 08:39:22.39	6.12	14.04	-41.3	-44.0	18.4	0.00e+00	0	42	0	918552576	54	4854
2026-01-02 08:39:23.40	5.98	13.97	-41.3	-44.1	18.3	0.00e+00	0	42	0	920649728	54	4875
2026-01-02 08:39:24.40	5.84	13.89	-41.4	-44.2	18.3	0.00e+00	0	42	0	922746880	54	4951
2026-01-02 08:39:25.40	5.70	13.82	-41.6	-44.5	18.0	0.00e+00	0	42	0	923795456	54	5113
2026-01-02 08:39:26.39	5.57	13.74	-41.7	-44.6	17.9	0.00e+00	0	42	0	925892608	54	5192
2026-01-02 08:39:27.40	5.43	13.67	-41.6	-44.5	17.9	0.00e+00	0	43	0	927989760	54	5133
2026-01-02 08:39:28.40	5.29	13.59	-41.7	-44.7	17.7	0.00e+00	0	43	0	930086912	54	5244
2026-01-02 08:39:29.40	5.16	13.52	-41.5	-44.5	18.0	0.00e+00	0	43	0	931135488	54	5101
2026-01-02 08:39:30.40	5.02	13.44	-41.6	-44.5	17.9	0.00e+00	0	42	0	933232640	54	5128
2026-01-02 08:39:31.40	4.89	13.37	-41.5	-44.4	18.1	0.00e+00	0	42	0	935329792	54	5067
2026-01-02 08:39:32.41	4.76	13.29	-41.4	-44.2	18.2	0.00e+00	0	42	0	937426944	54	4982
2026-01-02 08:39:33.41	4.62	13.22	-41.6	-44.5	17.9	0.00e+00	0	42	0	939524096	54	5144
2026-01-02 08:39:34.45	4.49	13.14	-41.7	-44.7	17.8	0.00e+00	0	43	0	940572672	54	5219
2026-01-02 08:39:35.45	4.36	13.07	-41.8	-44.7	17.7	0.00e+00	0	42	0	942669824	54	5246
2026-01-02 08:39:36.45	4.23	13.00	-41.9	-44.8	17.7	0.00e+00	0	42	0	944766976	54	5285
2026-01-02 08:39:37.58	4.08	12.91	-42.1	-45.0	17.5	0.00e+00	0	43	0	946864128	54	5415
2026-01-02 08:39:38.44	3.97	12.85	-42.0	-44.8	17.6	0.00e+00	0	42	0	948961280	54	5300
2026-01-02 08:39:39.58	3.82	12.76	-42.0	-44.8	17.5	0.00e+00	0	43	0	951058432	54	5338
2026-01-02 08:39:40.44	3.71	12.70	-42.3	-45.1	17.4	0.00e+00	0	43	0	952107008	55	5183
2026-01-02 08:39:41.59	3.57	12.62	-42.2	-45.0	17.4	0.00e+00	0	42	0	954204160	55	5123
2026-01-02 08:39:42.45	3.46	12.55	-42.2	-45.0	17.4	0.00e+00	0	43	0	956301312	55	5108
2026-01-02 08:39:43.60	3.31	12.47	-42.2	-45.1	17.4	0.00e+00	0	43	0	958398464	55	5176
2026-01-02 08:39:44.46	3.21	12.41	-42.3	-45.4	17.1	0.00e+00	0	43	0	959447040	55	5352
2026-01-02 08:39:45.61	3.06	12.32	-42.2	-45.4	17.0	0.00e+00	0	42	0	961544192	55	5364
2026-01-02 08:39:46.83	2.91	12.23	-42.5	-45.9	16.5	0.00e+00	0	42	0	964689920	55	5675
2026-01-02 08:39:47.87	2.78	12.16	-42.4	-45.7	16.8	0.00e+00	0	43	0	965738496	55	5552
2026-01-02 08:39:48.87	2.66	12.08	-42.6	-46.0	16.5	0.00e+00	0	43	0	967835648	55	5751
2026-01-02 08:39:49.87	2.54	12.01	-42.6	-45.8	16.7	0.00e+00	0	43	0	969932800	55	5613
2026-01-02 08:39:50.87	2.42	11.94	-42.8	-46.0	16.7	0.00e+00	0	42	0	972029952	56	5403
2026-01-02 08:39:51.88	2.30	11.87	-42.8	-45.9	16.7	0.00e+00	0	43	0	974127104	56	5375
2026-01-02 08:39:52.88	2.18	11.79	-42.7	-45.8	16.8	0.00e+00	0	42	0	975175680	56	5293
2026-01-02 08:39:53.88	2.06	11.72	-42.3	-45.4	17.2	0.00e+00	0	42	0	977272832	56	5048
2026-01-02 08:39:54.88	1.94	11.65	-42.1	-45.4	17.2	0.00e+00	0	43	0	979369984	56	5064
2026-01-02 08:39:55.88	1.82	11.58	-42.1	-45.5	17.1	0.00e+00	0	43	0	981467136	56	5130
2026-01-02 08:39:56.89	1.70	11.50	-41.8	-45.3	17.1	0.00e+00	0	43	0	983564288	55	5292
2026-01-02 08:39:57.89	1.59	11.43	-41.8	-45.5	16.9	0.00e+00	0	43	0	984612864	55	5440
2026-01-02 08:39:58.89	1.47	11.36	-41.9	-45.7	16.8	0.00e+00	0	43	0	986710016	55	5536
2026-01-02 08:39:59.90	1.35	11.29	-42.0	-45.9	16.5	0.00e+00	0	43	0	988807168	55	5669
2026-01-02 08:40:00.90	1.24	11.21	-42.3	-46.1	16.4	0.00e+00	0	43	0	990904320	55	5818
2026-01-02 08:40:01.90	1.13	11.14	-42.4	-46.3	16.2	0.00e+00	0	42	0	993001472	55	5945
2026-01-02 08:40:02.90	1.01	11.07	-42.8	-46.6	16.0	0.00e+00	0	42	0	994050048	56	5849
2026-01-02 08:40:03.91	0.90	11.00	-42.9	-46.6	16.0	0.00e+00	0	43	0	996147200	56	5854
2026-01-02 08:40:04.91	0.78	10.93	-43.2	-46.9	15.7	0.00e+00	0	42	0	998244352	56	6054
2026-01-02 08:40:05.91	0.67	10.86	-43.0	-46.5	16.1	0.00e+00	0	43	0	1000341504	57	5450
2026-01-02 08:40:06.91	0.56	10.79	-43.2	-46.7	15.9	0.00e+00	0	42	0	1002438656	57	5553
2026-01-02 08:40:07.91	0.45	10.71	-43.2	-46.6	16.0	0.00e+00	0	42	0	1003487232	57	5517
2026-01-02 08:40:08.91	0.34	10.64	-43.1	-46.4	16.2	0.00e+00	0	43	0	1005584384	57	5374
2026-01-02 08:40:09.92	0.23	10.57	-43.0	-46.2	16.4	0.00e+00	0	43	0	1007681536	57	5229
2026-01-02 08:40:10.97	0.11	10.50	-42.9	-45.9	16.7	0.00e+00	0	42	0	1009778688	57	5082
2026-01-02 08:40:11.94	0.01	10.43	-43.0	-46.1	16.5	0.00e+00	0	43	0	1010827264	57	5191
2026-01-02 08:40:12.94	359.90	10.36	-42.7	-45.6	16.9	0.00e+00	0	43	0	1012924416	57	4898
2026-01-02 08:40:13.94	359.79	10.29	-42.7	-45.7	16.8	0.00e+00	0	43	0	1015021568	57	4962
2026-01-02 08:40:14.95	359.68	10.22	-42.6	-45.6	17.0	0.00e+00	0	42	0	1017118720	57	4889
2026-01-02 08:40:15.95	359.58	10.15	-42.8	-45.9	16.7	0.00e+00	0	43	0	1019215872	57	5055
2026-01-02 08:40:16.95	359.47	10.08	-42.7	-45.8	16.7	0.00e+00	0	43	0	1021313024	57	5041
2026-01-02 08:40:17.96	359.36	10.01	-42.9	-46.0	16.5	0.00e+00	0	43	0	1022361600	57	5149
2026-01-02 08:40:18.96	359.26	9.94	-43.3	-46.5	16.1	0.00e+00	0	42	0	1024458752	57	5445
2026-01-02 08:40:19.96	359.15	9.87	-43.3	-46.6	16.0	0.00e+00	0	42	0	1026555904	57	5519
2026-01-02 08:40:20.97	359.05	9.80	-43.6	-46.9	15.7	0.00e+00	0	43	0	1028653056	57	5719
2026-01-02 08:40:21.97	358.95	9.73	-43.8	-47.4	15.2	0.00e+00	0	42	0	1029701632	58	5689
2026-01-02 08:40:22.97	358.84	9.66	-43.9	-47.7	14.9	7.00e-07	0	42	0	1031798784	58	5889
2026-01-02 08:40:23.98	358.74	9.59	-43.8	-47.7	14.9	0.00e+00	0	42	0	1033895936	58	5884
2026-01-02 08:40:24.98	358.64	9.52	-43.7	-48.2	14.4	7.00e-07	0	42	0	1035993088	58	6233
2026-01-02 08:40:25.98	358.54	9.45	-43.6	-48.7	13.9	1.50e-06	0	43	0	1038090240	58	6581
2026-01-02 08:40:26.98	358.43	9.38	-43.2	-48.4	14.2	7.00e-07	0	43	0	1039138816	58	6380
2026-01-02 08:40:27.99	358.33	9.31	-43.0	-48.5	14.1	1.50e-06	0	43	0	1041235968	58	6454
2026-01-02 08:40:28.99	358.23	9.24	-42.9	-48.5	14.0	3.00e-06	0	43	0	1043333120	57	6865
2026-01-02 08:40:29.99	358.13	9.17	-42.8	-48.9	13.7	3.00e-06	0	43	0	1045430272	57	7151
2026-01-02 08:40:30.99	358.03	9.10	-42.9	-48.8	13.7	6.80e-06	0	43	0	1047527424	57	7098
2026-01-02 08:40:31.99	357.94	9.03	-42.8	-48.8	13.8	3.80e-06	0	42	0	1048576000	57	7052
2026-01-02 08:40:33.00	357.84	8.96	-46.9	-58.2	5.2	1.10e-01	0	43	0	1050673152	64	14008
2026-01-02 08:40:34.00	357.74	8.90	-47.8	-63.8	3.9	1.49e+00	0	42	104	1050673152	66	23842
2026-01-02 08:40:35.00	357.64	8.83	-46.7	-64.1	3.8	1.49e+00	0	42	104	1050673152	64	27517
2026-01-02 08:40:36.01	357.55	8.76	-47.6	-64.2	3.8	1.49e+00	0	43	104	1050673152	67	23316
2026-01-02 08:40:37.01	357.45	8.69	-49.0	-64.4	3.8	1.49e+00	0	43	104	1050673152	68	22595
2026-01-02 08:40:38.02	357.35	8.62	-48.9	-64.4	3.8	1.49e+00	0	43	104	1050673152	68	22657
2026-01-02 08:40:39.02	357.26	8.55	-49.1	-64.4	3.8	1.49e+00	0	43	104	1050673152	68	22732
2026-01-02 08:40:40.03	357.16	8.49	-49.0	-64.5	3.8	1.49e+00	0	43	104	1050673152	69	21558
2026-01-02 08:40:41.03	357.07	8.42	-48.6	-64.5	3.8	1.49e+00	0	43	104	1050673152	69	21563
2026-01-02 08:40:42.03	356.97	8.35	-48.7	-64.5	3.8	1.49e+00	0	43	104	1050673152	69	21562
2026-01-02 08:40:43.04	356.88	8.28	-48.5	-64.6	3.8	1.49e+00	0	43	104	1050673152	68	23056
2026-01-02 08:40:44.04	356.79	8.22	-49.1	-64.5	3.8	1.49e+00	0	42	104	1050673152	69	21698
2026-01-02 08:40:45.05	356.69	8.15	-49.1	-64.5	3.8	1.49e+00	0	42	104	1050673152	69	21689
2026-01-02 08:40:46.05	356.60	8.08	-49.2	-64.5	3.8	1.49e+00	0	43	104	1050673152	69	21749
2026-01-02 08:40:47.06	356.51	8.01	-49.1	-64.6	3.8	1.49e+00	0	43	104	1050673152	69	21758
2026-01-02 08:40:48.06	356.42	7.95	-49.1	-64.6	3.8	1.49e+00	0	43	104	1050673152	69	21787
2026-01-02 08:40:49.07	356.32	7.88	-49.3	-64.5	3.8	1.49e+00	0	43	104	1050673152	69	21736
2026-01-02 08:40:50.07	356.23	7.81	-49.0	-64.6	3.8	1.49e+00	0	43	104	1050673152	69	21781
2026-01-02 08:40:51.07	356.14	7.75	-49.2	-64.6	3.8	1.49e+00	0	43	104	1050673152	69	21763
2026-01-02 08:40:52.08	356.05	7.68	-49.3	-64.5	3.8	1.49e+00	0	43	104	1050673152	69	21699
2026-01-02 08:40:53.08	355.97	7.61	-49.3	-64.6	3.8	1.49e+00	0	43	104	1050673152	69	21756
2026-01-02 08:40:54.09	355.88	7.55	-49.3	-64.5	3.8	1.49e+00	0	43	104	1050673152	69	21748
2026-01-02 08:40:55.09	355.79	7.48	-49.3	-64.5	3.8	1.49e+00	0	43	104	1050673152	69	21683
2026-01-02 08:40:56.10	355.70	7.41	-49.3	-64.5	3.8	1.49e+00	0	43	104	1050673152	69	21675
2026-01-02 08:40:57.10	355.61	7.35	-49.2	-64.5	3.8	1.49e+00	0	43	104	1050673152	69	21715
2026-01-02 08:40:58.11	355.52	7.28	-49.3	-64.5	3.8	1.49e+00	0	42	104	1050673152	69	21662
2026-01-02 08:40:59.11	355.44	7.21	-49.2	-64.5	3.8	1.49e+00	0	43	104	1050673152	69	21653
2026-01-02 08:41:00.11	355.35	7.15	-49.3	-64.5	3.8	1.49e+00	0	43	104	1050673152	69	21667
2026-01-02 08:41:01.15	355.26	7.08	-49.1	-64.5	3.8	1.49e+00	0	43	104	1050673152	69	21713
2026-01-02 08:41:02.18	355.17	7.01	-49.1	-64.5	3.8	1.49e+00	0	43	104	1050673152	69	21566
2026-01-02 08:41:03.22	355.09	6.95	-49.1	-64.5	3.8	1.49e+00	0	43	104	1050673152	69	21592
2026-01-02 08:41:04.21	355.00	6.88	-49.1	-64.5	3.8	1.49e+00	0	43	104	1050673152	69	21632
2026-01-02 08:41:05.22	354.92	6.81	-49.1	-64.5	3.8	1.49e+00	0	43	104	1050673152	69	21596
2026-01-02 08:41:06.22	354.83	6.75	-49.1	-64.5	3.8	1.49e+00	0	42	104	1050673152	69	21603
2026-01-02 08:41:07.23	354.75	6.68	-49.1	-64.5	3.8	1.49e+00	0	42	104	1050673152	69	21585
2026-01-02 08:41:08.23	354.67	6.62	-49.1	-64.5	3.8	1.49e+00	0	43	104	1050673152	69	21549
2026-01-02 08:41:09.23	354.58	6.56	-49.0	-64.5	3.8	1.49e+00	0	43	104	1050673152	69	21546
2026-01-02 08:41:10.24	354.50	6.49	-49.1	-64.5	3.8	1.49e+00	0	43	104	1050673152	69	21536
2026-01-02 08:41:11.24	354.42	6.43	-49.1	-64.5	3.8	1.49e+00	0	43	104	1050673152	69	21541
2026-01-02 08:41:12.25	354.34	6.36	-49.0	-64.4	3.8	1.49e+00	0	43	104	1050673152	69	21480
2026-01-02 08:41:13.25	354.26	6.30	-49.0	-64.5	3.8	1.49e+00	0	43	104	1050673152	69	21561
2026-01-02 08:41:14.26	354.18	6.23	-49.1	-64.5	3.8	1.49e+00	0	43	104	1050673152	69	21574
2026-01-02 08:41:15.26	354.09	6.17	-49.1	-64.5	3.8	1.49e+00	0	43	104	1050673152	69	21561
2026-01-02 08:41:16.27	354.01	6.10	-49.0	-64.5	3.8	1.49e+00	0	43	104	1050673152	69	21520
2026-01-02 08:41:17.27	353.93	6.04	-49.0	-64.5	3.8	1.49e+00	0	43	104	1050673152	69	21548
2026-01-02 08:41:18.27	353.86	5.98	-48.9	-64.3	3.8	1.49e+00	0	43	104	1050673152	69	21219
2026-01-02 08:41:19.28	353.78	5.91	-48.8	-64.4	3.8	1.49e+00	0	43	104	1050673152	69	21266
2026-01-02 08:41:20.28	353.70	5.85	-48.8	-64.4	3.8	1.49e+00	0	43	104	1050673152	69	21429
2026-01-02 08:41:21.29	353.62	5.78	-48.8	-64.4	3.8	1.49e+00	0	43	104	1050673152	69	21398
2026-01-02 08:41:22.29	353.54	5.72	-48.8	-64.4	3.8	1.49e+00	0	43	104	1050673152	69	21390
2026-01-02 08:41:23.29	353.46	5.66	-48.8	-64.4	3.8	1.49e+00	0	43	104	1050673152	69	21330
2026-01-02 08:41:24.30	353.39	5.59	-48.9	-64.4	3.8	1.49e+00	0	43	104	1050673152	69	21395
2026-01-02 08:41:25.30	353.31	5.53	-48.9	-64.4	3.8	1.49e+00	0	43	104	1050673152	69	21355
2026-01-02 08:41:26.31	353.23	5.47	-48.9	-64.4	3.8	1.49e+00	0	43	104	1050673152	69	21478
2026-01-02 08:41:27.31	353.16	5.40	-48.9	-64.4	3.8	1.49e+00	0	43	104	1050673152	69	21472
2026-01-02 08:41:28.32	353.08	5.34	-49.0	-64.4	3.8	1.49e+00	0	43	104	1050673152	69	21375
2026-01-02 08:41:29.32	353.00	5.28	-49.1	-64.5	3.8	1.49e+00	0	43	104	1050673152	69	21540
2026-01-02 08:41:30.33	352.93	5.21	-49.1	-64.5	3.8	1.49e+00	0	43	104	1050673152	69	21528
2026-01-02 08:41:31.33	352.85	5.15	-49.0	-64.4	3.8	1.49e+00	0	43	104	1050673152	69	21501
2026-01-02 08:41:32.33	352.78	5.09	-49.1	-64.5	3.8	1.49e+00	0	43	104	1050673152	69	21591
2026-01-02 08:41:33.34	352.71	5.03	-49.0	-64.5	3.8	1.49e+00	0	43	104	1050673152	69	21550
2026-01-02 08:41:34.34	352.63	4.97	-49.1	-64.4	3.8	1.49e+00	0	43	104	1050673152	69	21496

#Closed at: 2026-01-02 08:41:35
#Recorded file [1050 MB]: D:/Data/31040_260102_113023.dat