passes_logs/2026/01/02/T1/T1__20260102_111055_FENGYUN_3D_rec.log

#Pass ID: 20260102_111055_FENGYUN 3D
#Satellite: FENGYUN 3D
#Configuration: FENGYUN 3D
#almurnet v.1.7.20251203
#Start time: 2026-01-02 11:10:56

#Version: 2.0.20230620
#Station: T1
#Location: 37.570604 lon 55.790049 lat
#TLE: 1 43010U 17072A   26001.33100487  .00000602  00000+0  30664-3 0  9999
#TLE: 2 43010  98.9910 332.9374 0001848 133.1047 227.0283 14.19692078421319

#Time	Az	El	Level	Level2	SNR	BER	BlckErr	Temp	State	Recorded	gain1	gain2
2026-01-02 11:10:56.49	136.18	5.05	-49.0	-61.2	3.8	8.47e-01	0	36	0	0	70	13965
2026-01-02 11:10:57.49	136.14	5.12	-49.0	-61.2	3.8	8.47e-01	0	37	104	0	70	13894
2026-01-02 11:10:58.50	136.10	5.19	-49.0	-61.1	3.8	8.46e-01	0	37	104	0	70	13834
2026-01-02 11:10:59.50	136.06	5.26	-49.0	-61.2	3.8	8.47e-01	0	37	104	0	70	13908
2026-01-02 11:11:00.50	136.02	5.33	-49.0	-61.2	3.8	8.47e-01	0	37	104	0	70	13931
2026-01-02 11:11:01.51	135.98	5.40	-49.0	-61.2	3.8	8.49e-01	0	37	104	0	70	13979
2026-01-02 11:11:02.51	135.94	5.47	-49.0	-61.2	3.8	8.46e-01	0	37	104	0	70	13998
2026-01-02 11:11:03.52	135.90	5.54	-49.0	-61.2	3.8	8.47e-01	0	37	104	0	70	14046
2026-01-02 11:11:04.52	135.86	5.61	-49.0	-61.2	3.8	8.47e-01	0	37	104	0	70	14007
2026-01-02 11:11:05.53	135.82	5.68	-49.0	-61.2	3.8	8.46e-01	0	37	104	0	70	14044
2026-01-02 11:11:06.53	135.78	5.75	-49.0	-61.1	3.8	8.47e-01	0	37	104	0	70	13883
2026-01-02 11:11:07.54	135.74	5.83	-49.0	-60.9	3.8	8.48e-01	0	37	104	0	70	13503
2026-01-02 11:11:08.54	135.70	5.90	-48.9	-60.6	3.8	8.47e-01	0	37	104	0	69	13812
2026-01-02 11:11:09.54	135.66	5.97	-48.9	-60.2	3.8	8.47e-01	0	37	104	0	69	13148
2026-01-02 11:11:10.55	135.61	6.04	-48.8	-59.7	3.8	8.47e-01	0	37	104	0	69	12476
2026-01-02 11:11:11.55	135.57	6.11	-48.8	-59.3	3.8	8.46e-01	0	37	104	0	69	11868
2026-01-02 11:11:12.56	135.53	6.19	-48.7	-58.9	4.0	8.45e-01	0	37	104	0	69	11299
2026-01-02 11:11:13.56	135.49	6.26	-48.6	-58.3	4.1	8.43e-01	0	37	104	0	69	10649
2026-01-02 11:11:14.57	135.44	6.33	-48.6	-58.4	3.9	8.43e-01	0	38	104	0	69	10748
2026-01-02 11:11:15.57	135.40	6.40	-48.6	-58.2	4.0	8.44e-01	0	37	104	0	69	10530
2026-01-02 11:11:16.58	135.36	6.48	-48.6	-58.3	3.9	8.41e-01	0	37	104	0	69	10551
2026-01-02 11:11:17.58	135.31	6.55	-48.6	-58.4	4.0	8.44e-01	0	37	104	0	69	10739
2026-01-02 11:11:18.59	135.27	6.63	-48.7	-58.7	4.0	8.45e-01	0	37	104	0	69	11095
2026-01-02 11:11:19.59	135.23	6.70	-48.7	-59.2	3.8	8.45e-01	0	38	104	0	69	11693
2026-01-02 11:11:20.59	135.18	6.77	-48.8	-59.4	3.8	8.47e-01	0	38	104	0	69	11987
2026-01-02 11:11:21.60	135.14	6.85	-48.8	-59.5	3.8	8.47e-01	0	38	104	0	69	12106
2026-01-02 11:11:22.60	135.09	6.92	-48.7	-59.3	3.8	8.46e-01	0	38	104	0	69	11887
2026-01-02 11:11:23.60	135.05	7.00	-48.7	-58.9	3.8	8.45e-01	0	37	104	0	69	11388
2026-01-02 11:11:24.61	135.00	7.07	-48.6	-58.5	4.0	8.45e-01	0	38	104	0	69	10807
2026-01-02 11:11:25.61	134.96	7.15	-48.5	-57.6	4.2	8.40e-01	0	38	0	0	69	9778
2026-01-02 11:11:26.62	134.91	7.22	-48.4	-57.0	4.4	8.31e-01	0	38	0	0	68	9617
2026-01-02 11:11:27.62	134.87	7.30	-48.1	-55.7	5.0	7.85e-01	0	38	0	0	68	8278
2026-01-02 11:11:28.63	134.82	7.37	-47.5	-53.9	6.0	6.15e-01	0	38	0	1048576	67	7184
2026-01-02 11:11:29.63	134.78	7.45	-47.0	-52.4	7.3	2.35e-01	0	38	0	6291456	66	6380
2026-01-02 11:11:30.63	134.73	7.53	-46.3	-51.0	8.7	5.06e-02	0	38	0	12582912	64	6094
2026-01-02 11:11:31.64	134.68	7.60	-45.6	-49.5	10.3	1.61e-02	0	38	0	17825792	63	5460
2026-01-02 11:11:32.64	134.64	7.68	-44.8	-48.2	11.7	1.63e-03	0	38	0	24117248	61	5244
2026-01-02 11:11:33.64	134.59	7.76	-43.9	-46.9	13.0	1.45e-04	0	38	0	29360128	59	5061
2026-01-02 11:11:34.65	134.54	7.83	-43.6	-46.5	13.5	1.60e-05	0	38	0	34603008	58	5104
2026-01-02 11:11:35.65	134.49	7.91	-42.5	-45.1	14.8	0.00e+00	0	38	0	40894464	57	4622
2026-01-02 11:11:36.66	134.44	7.99	-41.7	-44.2	15.6	0.00e+00	0	38	0	46137344	55	4653
2026-01-02 11:11:37.66	134.40	8.06	-41.2	-43.5	16.2	0.00e+00	0	38	0	51380224	54	4571
2026-01-02 11:11:38.67	134.35	8.14	-40.9	-43.1	16.5	0.00e+00	0	38	0	57671680	53	4636
2026-01-02 11:11:39.67	134.30	8.22	-40.7	-43.0	16.7	0.00e+00	0	38	0	62914560	53	4558
2026-01-02 11:11:40.68	134.25	8.30	-40.7	-43.0	16.7	0.00e+00	0	38	0	68157440	53	4565
2026-01-02 11:11:41.68	134.20	8.38	-41.0	-43.3	16.4	0.00e+00	0	38	0	74448896	53	4731
2026-01-02 11:11:42.68	134.15	8.46	-41.4	-43.8	15.9	0.00e+00	0	38	0	79691776	53	5015
2026-01-02 11:11:43.69	134.10	8.54	-42.1	-44.6	15.1	0.00e+00	0	38	0	85983232	54	5192
2026-01-02 11:11:44.69	134.05	8.61	-43.0	-45.7	14.3	0.00e+00	0	38	0	91226112	56	5221
2026-01-02 11:11:45.69	134.00	8.69	-44.1	-47.2	12.7	5.49e-05	0	38	0	97517568	58	5560
2026-01-02 11:11:46.70	133.95	8.77	-44.9	-48.5	11.4	6.81e-04	0	38	0	102760448	60	5752
2026-01-02 11:11:47.70	133.90	8.85	-46.2	-50.6	9.2	1.80e-02	0	38	0	108003328	63	6186
2026-01-02 11:11:48.70	133.85	8.93	-47.1	-52.7	7.1	9.71e-02	0	38	0	114294784	64	7416
2026-01-02 11:11:49.71	133.79	9.01	-47.9	-55.3	5.1	5.14e-01	0	38	0	117440512	66	8956
2026-01-02 11:11:50.71	133.74	9.09	-46.7	-51.6	8.1	4.68e-01	0	38	0	119537664	65	6173
2026-01-02 11:11:51.71	133.69	9.18	-47.3	-53.1	6.7	8.49e-02	0	38	0	124780544	65	7361
2026-01-02 11:11:52.72	133.64	9.26	-48.5	-58.3	4.0	8.08e-01	0	38	0	127926272	67	11831
2026-01-02 11:11:53.72	133.58	9.34	-44.7	-48.0	11.9	6.40e-01	0	38	0	127926272	61	5136
2026-01-02 11:11:54.72	133.53	9.42	-48.9	-59.2	3.9	4.53e-01	0	38	0	132120576	68	12445
2026-01-02 11:11:55.73	133.48	9.50	-46.0	-50.1	5.4	8.42e-01	0	38	104	132120576	63	5854
2026-01-02 11:11:56.73	133.42	9.58	-43.7	-46.6	13.4	1.13e-04	0	38	0	135266304	59	4892
2026-01-02 11:11:57.73	133.37	9.67	-42.9	-45.6	14.5	1.10e-06	0	38	0	141557760	57	4881
2026-01-02 11:11:58.73	133.32	9.75	-42.9	-45.5	14.6	0.00e+00	0	38	0	146800640	57	4845
2026-01-02 11:11:59.74	133.26	9.83	-42.9	-45.5	14.6	0.00e+00	0	38	0	153092096	57	4820
2026-01-02 11:12:00.74	133.20	9.91	-42.5	-45.0	15.0	0.00e+00	0	38	0	158334976	57	4592
2026-01-02 11:12:01.74	133.15	10.00	-42.3	-44.7	15.3	0.00e+00	0	38	0	163577856	56	4700
2026-01-02 11:12:02.74	133.09	10.08	-42.5	-45.0	15.1	0.00e+00	0	38	0	169869312	56	4831
2026-01-02 11:12:03.75	133.04	10.16	-41.3	-43.7	16.2	0.00e+00	0	39	0	175112192	54	4652
2026-01-02 11:12:04.75	132.98	10.25	-41.0	-43.3	16.6	0.00e+00	0	39	0	181403648	53	4708
2026-01-02 11:12:05.75	132.92	10.33	-40.7	-43.0	16.9	0.00e+00	0	39	0	186646528	53	4555
2026-01-02 11:12:06.75	132.87	10.42	-40.5	-42.6	17.2	0.00e+00	0	38	0	191889408	52	4643
2026-01-02 11:12:07.76	132.81	10.50	-40.5	-42.7	17.1	0.00e+00	0	38	0	198180864	52	4665
2026-01-02 11:12:08.76	132.75	10.59	-40.3	-42.4	17.4	0.00e+00	0	38	0	203423744	52	4530
2026-01-02 11:12:09.76	132.69	10.67	-40.1	-42.2	17.6	0.00e+00	0	38	0	208666624	52	4440
2026-01-02 11:12:10.77	132.64	10.76	-40.0	-42.1	17.8	0.00e+00	0	39	0	214958080	51	4608
2026-01-02 11:12:11.77	132.58	10.84	-39.7	-41.7	18.1	0.00e+00	0	39	0	220200960	51	4433
2026-01-02 11:12:12.77	132.52	10.93	-39.6	-41.7	18.2	0.00e+00	0	38	0	226492416	51	4413
2026-01-02 11:12:13.77	132.46	11.01	-39.6	-41.6	18.2	0.00e+00	0	38	0	231735296	51	4388
2026-01-02 11:12:14.78	132.40	11.10	-39.5	-41.5	18.3	0.00e+00	0	38	0	236978176	51	4335
2026-01-02 11:12:15.78	132.34	11.19	-39.5	-41.5	18.3	0.00e+00	0	38	0	243269632	50	4591
2026-01-02 11:12:16.78	132.28	11.28	-39.5	-41.6	18.3	0.00e+00	0	39	0	248512512	50	4605
2026-01-02 11:12:17.78	132.22	11.36	-39.4	-41.5	18.4	0.00e+00	0	39	0	253755392	50	4574
2026-01-02 11:12:18.78	132.15	11.45	-39.3	-41.4	18.4	0.00e+00	0	38	0	260046848	50	4521
2026-01-02 11:12:19.79	132.09	11.54	-39.3	-41.4	18.5	0.00e+00	0	39	0	265289728	50	4498
2026-01-02 11:12:20.79	132.03	11.63	-39.3	-41.4	18.5	0.00e+00	0	38	0	270532608	50	4514
2026-01-02 11:12:21.79	131.97	11.72	-39.4	-41.4	18.4	0.00e+00	0	39	0	276824064	50	4542
2026-01-02 11:12:22.79	131.90	11.80	-39.3	-41.4	18.5	0.00e+00	0	39	0	282066944	50	4509
2026-01-02 11:12:23.80	131.84	11.89	-39.1	-41.1	18.7	0.00e+00	0	39	0	288358400	50	4389
2026-01-02 11:12:24.80	131.78	11.98	-39.1	-41.1	18.8	0.00e+00	0	39	0	293601280	50	4366
2026-01-02 11:12:25.81	131.71	12.07	-39.1	-41.1	18.8	0.00e+00	0	39	0	299892736	50	4347
2026-01-02 11:12:26.81	131.65	12.16	-38.9	-40.9	18.9	0.00e+00	0	39	0	305135616	49	4539
2026-01-02 11:12:27.81	131.58	12.25	-38.8	-40.8	19.1	0.00e+00	0	39	0	310378496	49	4478
2026-01-02 11:12:28.81	131.52	12.34	-38.8	-40.8	19.1	0.00e+00	0	39	0	316669952	49	4466
2026-01-02 11:12:29.82	131.45	12.44	-38.9	-40.9	19.0	0.00e+00	0	39	0	321912832	49	4495
2026-01-02 11:12:30.82	131.39	12.53	-38.8	-40.8	19.1	0.00e+00	0	39	0	327155712	49	4475
2026-01-02 11:12:31.82	131.32	12.62	-38.8	-40.8	19.1	0.00e+00	0	39	0	333447168	49	4443
2026-01-02 11:12:32.83	131.25	12.71	-38.7	-40.6	19.2	0.00e+00	0	39	0	338690048	49	4379
2026-01-02 11:12:33.82	131.18	12.80	-38.7	-40.6	19.2	0.00e+00	0	39	0	343932928	49	4389
2026-01-02 11:12:34.83	131.12	12.89	-38.6	-40.5	19.4	0.00e+00	0	39	0	350224384	49	4315
2026-01-02 11:12:35.83	131.05	12.99	-38.6	-40.6	19.4	0.00e+00	0	39	0	355467264	49	4342
2026-01-02 11:12:36.83	130.98	13.08	-38.6	-40.5	19.3	0.00e+00	0	39	0	361758720	49	4326
2026-01-02 11:12:37.84	130.91	13.17	-38.6	-40.5	19.3	0.00e+00	0	39	0	367001600	49	4325
2026-01-02 11:12:38.84	130.84	13.27	-38.5	-40.4	19.4	0.00e+00	0	39	0	372244480	49	4281
2026-01-02 11:12:39.84	130.77	13.36	-38.6	-40.5	19.4	0.00e+00	0	39	0	378535936	48	4580
2026-01-02 11:12:40.85	130.70	13.46	-38.5	-40.5	19.4	0.00e+00	0	39	0	383778816	48	4555
2026-01-02 11:12:41.85	130.63	13.55	-38.7	-40.6	19.2	0.00e+00	0	39	0	390070272	48	4647
2026-01-02 11:12:42.85	130.55	13.65	-38.6	-40.6	19.3	0.00e+00	0	39	0	395313152	48	4616
2026-01-02 11:12:43.85	130.48	13.74	-38.5	-40.4	19.4	0.00e+00	0	39	0	400556032	48	4541
2026-01-02 11:12:44.86	130.41	13.84	-38.4	-40.3	19.6	0.00e+00	0	39	0	406847488	48	4477
2026-01-02 11:12:45.86	130.34	13.93	-38.5	-40.4	19.5	0.00e+00	0	39	0	412090368	48	4530
2026-01-02 11:12:46.86	130.26	14.03	-38.4	-40.3	19.6	0.00e+00	0	39	0	417333248	48	4471
2026-01-02 11:12:47.87	130.19	14.13	-38.4	-40.3	19.5	0.00e+00	0	39	0	423624704	48	4479
2026-01-02 11:12:48.87	130.11	14.22	-38.3	-40.2	19.6	0.00e+00	0	39	0	428867584	48	4417
2026-01-02 11:12:49.87	130.04	14.32	-38.3	-40.2	19.7	0.00e+00	0	39	0	435159040	48	4409
2026-01-02 11:12:50.88	129.96	14.42	-38.3	-40.2	19.7	0.00e+00	0	39	0	440401920	48	4415
2026-01-02 11:12:51.88	129.89	14.52	-38.2	-40.1	19.8	0.00e+00	0	39	0	445644800	48	4345
2026-01-02 11:12:52.89	129.81	14.62	-38.1	-40.0	19.8	0.00e+00	0	39	0	451936256	48	4328
2026-01-02 11:12:53.89	129.73	14.71	-38.1	-40.0	19.8	0.00e+00	0	39	0	457179136	48	4315
2026-01-02 11:12:54.89	129.65	14.81	-38.2	-40.1	19.8	0.00e+00	0	39	0	462422016	48	4350
2026-01-02 11:12:55.90	129.58	14.91	-38.1	-40.0	19.9	0.00e+00	0	39	0	468713472	48	4325
2026-01-02 11:12:56.90	129.50	15.01	-38.0	-39.9	20.0	0.00e+00	0	39	0	473956352	48	4261
2026-01-02 11:12:57.90	129.42	15.11	-37.8	-39.7	19.9	0.00e+00	0	39	0	480247808	47	4417
2026-01-02 11:12:58.90	129.34	15.21	-37.9	-39.8	19.8	0.00e+00	0	39	0	485490688	47	4462
2026-01-02 11:12:59.91	129.26	15.31	-37.8	-39.7	19.9	0.00e+00	0	39	0	490733568	47	4405
2026-01-02 11:13:00.91	129.18	15.41	-37.8	-39.7	20.0	0.00e+00	0	39	0	497025024	47	4398
2026-01-02 11:13:01.91	129.10	15.52	-37.9	-39.8	19.7	0.00e+00	0	39	0	502267904	47	4471
2026-01-02 11:13:02.91	129.01	15.62	-37.8	-39.7	19.9	0.00e+00	0	39	0	508559360	47	4422
2026-01-02 11:13:03.92	128.93	15.72	-37.7	-39.6	20.1	0.00e+00	0	39	0	513802240	47	4347
2026-01-02 11:13:04.92	128.85	15.82	-37.7	-39.6	20.0	0.00e+00	0	39	0	519045120	47	4378
2026-01-02 11:13:05.92	128.76	15.93	-37.6	-39.5	20.1	0.00e+00	0	39	0	525336576	47	4333
2026-01-02 11:13:06.92	128.68	16.03	-37.6	-39.5	20.1	0.00e+00	0	39	0	530579456	47	4334
2026-01-02 11:13:07.93	128.59	16.13	-37.6	-39.5	20.1	0.00e+00	0	39	0	535822336	47	4316
2026-01-02 11:13:08.93	128.51	16.24	-37.6	-39.5	20.1	0.00e+00	0	39	0	542113792	47	4311
2026-01-02 11:13:09.93	128.42	16.34	-37.7	-39.6	20.1	0.00e+00	0	39	0	547356672	47	4349
2026-01-02 11:13:10.93	128.33	16.45	-37.7	-39.6	20.0	0.00e+00	0	39	0	553648128	47	4389
2026-01-02 11:13:11.94	128.25	16.55	-37.5	-39.4	20.3	0.00e+00	0	39	0	558891008	47	4245
2026-01-02 11:13:12.94	128.16	16.66	-37.3	-39.2	20.4	0.00e+00	0	39	0	564133888	46	4425
2026-01-02 11:13:13.94	128.07	16.76	-37.3	-39.2	20.4	0.00e+00	0	39	0	570425344	46	4425
2026-01-02 11:13:14.94	127.98	16.87	-37.3	-39.2	20.4	0.00e+00	0	39	0	575668224	46	4416
2026-01-02 11:13:15.95	127.89	16.98	-37.3	-39.2	20.4	0.00e+00	0	39	0	581959680	46	4397
2026-01-02 11:13:16.95	127.80	17.08	-37.2	-39.1	20.5	0.00e+00	0	39	0	587202560	46	4377
2026-01-02 11:13:17.95	127.71	17.19	-37.3	-39.2	20.4	0.00e+00	0	39	0	592445440	46	4394
2026-01-02 11:13:18.95	127.62	17.30	-37.3	-39.2	20.4	0.00e+00	0	39	0	598736896	46	4396
2026-01-02 11:13:19.95	127.52	17.41	-37.3	-39.2	20.5	0.00e+00	0	39	0	603979776	46	4397
2026-01-02 11:13:20.96	127.43	17.52	-37.4	-39.3	20.3	0.00e+00	0	39	0	609222656	46	4467
2026-01-02 11:13:21.96	127.33	17.63	-37.5	-39.3	20.3	0.00e+00	0	39	0	615514112	46	4490
2026-01-02 11:13:22.96	127.24	17.74	-37.2	-39.1	20.5	0.00e+00	0	39	0	620756992	46	4343
2026-01-02 11:13:23.97	127.14	17.85	-37.3	-39.2	20.4	0.00e+00	0	39	0	627048448	46	4397
2026-01-02 11:13:24.97	127.05	17.96	-37.2	-39.1	20.5	0.00e+00	0	39	0	632291328	46	4373
2026-01-02 11:13:25.97	126.95	18.07	-37.3	-39.2	20.5	0.00e+00	0	39	0	637534208	46	4399
2026-01-02 11:13:26.98	126.85	18.18	-37.2	-39.1	20.5	0.00e+00	0	39	0	643825664	46	4371
2026-01-02 11:13:27.98	126.75	18.29	-37.2	-39.0	20.6	0.00e+00	0	39	0	649068544	46	4333
2026-01-02 11:13:28.98	126.65	18.40	-37.1	-38.9	20.6	0.00e+00	0	39	0	654311424	46	4271
2026-01-02 11:13:29.99	126.55	18.52	-37.1	-38.9	20.6	0.00e+00	0	39	0	660602880	46	4284
2026-01-02 11:13:30.99	126.45	18.63	-37.0	-38.9	20.7	0.00e+00	0	39	0	665845760	46	4255
2026-01-02 11:13:31.99	126.35	18.74	-36.9	-38.8	20.7	0.00e+00	0	39	0	671088640	45	4461
2026-01-02 11:13:32.99	126.25	18.86	-36.9	-38.7	20.8	0.00e+00	0	39	0	677380096	45	4428
2026-01-02 11:13:34.00	126.15	18.97	-36.8	-38.7	20.9	0.00e+00	0	39	0	682622976	45	4393
2026-01-02 11:13:35.00	126.04	19.09	-36.7	-38.5	21.0	0.00e+00	0	39	0	688914432	45	4326
2026-01-02 11:13:36.00	125.94	19.20	-36.7	-38.5	21.0	0.00e+00	0	39	0	694157312	45	4316
2026-01-02 11:13:37.00	125.83	19.32	-36.7	-38.5	21.0	0.00e+00	0	39	0	700448768	45	4308
2026-01-02 11:13:38.01	125.73	19.43	-36.7	-38.6	20.9	0.00e+00	0	39	0	705691648	45	4362
2026-01-02 11:13:39.01	125.62	19.55	-36.7	-38.5	21.0	0.00e+00	0	39	0	710934528	45	4333
2026-01-02 11:13:40.01	125.51	19.66	-36.6	-38.4	21.1	0.00e+00	0	39	0	717225984	45	4285
2026-01-02 11:13:41.01	125.40	19.78	-36.6	-38.5	21.1	0.00e+00	0	39	0	722468864	45	4299
2026-01-02 11:13:42.02	125.29	19.90	-36.7	-38.5	21.0	0.00e+00	0	39	0	727711744	45	4337
2026-01-02 11:13:43.02	125.18	20.02	-36.7	-38.6	21.0	0.00e+00	0	39	0	734003200	45	4356
2026-01-02 11:13:44.03	125.07	20.14	-36.7	-38.5	21.0	0.00e+00	0	39	0	739246080	45	4326
2026-01-02 11:13:45.03	124.96	20.26	-36.7	-38.6	21.0	0.00e+00	0	39	0	744488960	45	4360
2026-01-02 11:13:46.03	124.84	20.38	-36.6	-38.5	21.1	0.00e+00	0	39	0	750780416	45	4300
2026-01-02 11:13:47.04	124.73	20.50	-36.8	-38.6	21.0	0.00e+00	0	39	0	756023296	45	4365
2026-01-02 11:13:48.04	124.61	20.62	-36.7	-38.6	21.0	0.00e+00	0	39	0	762314752	45	4352
2026-01-02 11:13:49.04	124.50	20.74	-36.6	-38.4	21.2	0.00e+00	0	39	0	767557632	45	4257
2026-01-02 11:13:50.05	124.38	20.86	-36.7	-38.5	21.0	0.00e+00	0	39	0	773849088	45	4318
2026-01-02 11:13:51.05	124.26	20.98	-36.6	-38.4	21.1	0.00e+00	0	39	0	779091968	45	4282
2026-01-02 11:13:52.05	124.14	21.10	-36.5	-38.3	21.3	0.00e+00	0	39	0	784334848	44	4458
2026-01-02 11:13:53.06	124.02	21.23	-36.5	-38.3	21.2	0.00e+00	0	39	0	790626304	44	4471
2026-01-02 11:13:54.06	123.90	21.35	-36.6	-38.4	21.1	0.00e+00	0	39	0	795869184	44	4518
2026-01-02 11:13:55.07	123.78	21.47	-36.5	-38.3	21.2	0.00e+00	0	39	0	801112064	44	4464
2026-01-02 11:13:56.07	123.66	21.60	-36.5	-38.3	21.2	0.00e+00	0	39	0	807403520	44	4485
2026-01-02 11:13:57.08	123.53	21.72	-36.5	-38.3	21.3	0.00e+00	0	39	0	812646400	44	4453
2026-01-02 11:13:58.08	123.41	21.85	-36.6	-38.4	21.1	0.00e+00	0	39	0	817889280	44	4530
2026-01-02 11:13:59.08	123.28	21.97	-36.5	-38.4	21.2	0.00e+00	0	39	0	824180736	44	4507
2026-01-02 11:14:00.08	123.16	22.10	-36.6	-38.5	21.0	0.00e+00	0	39	0	829423616	44	4567
2026-01-02 11:14:01.09	123.03	22.23	-36.6	-38.4	21.2	0.00e+00	0	39	0	835715072	44	4539
2026-01-02 11:14:02.09	122.90	22.35	-36.6	-38.4	21.1	0.00e+00	0	39	0	840957952	44	4543
2026-01-02 11:14:03.09	122.77	22.48	-36.5	-38.3	21.2	0.00e+00	0	39	0	847249408	44	4485
2026-01-02 11:14:04.09	122.64	22.61	-36.5	-38.3	21.2	0.00e+00	0	39	0	852492288	44	4493
2026-01-02 11:14:05.10	122.50	22.74	-36.6	-38.5	21.1	0.00e+00	0	39	0	857735168	44	4550
2026-01-02 11:14:06.10	122.37	22.87	-36.4	-38.2	21.3	0.00e+00	0	39	0	864026624	44	4415
2026-01-02 11:14:07.10	122.24	23.00	-36.3	-38.1	21.4	0.00e+00	0	39	0	869269504	44	4383
2026-01-02 11:14:08.10	122.10	23.12	-36.3	-38.1	21.4	0.00e+00	0	39	0	874512384	44	4348
2026-01-02 11:14:09.10	121.97	23.25	-36.1	-37.9	21.6	0.00e+00	0	39	0	880803840	44	4245
2026-01-02 11:14:10.11	121.83	23.39	-36.0	-37.8	21.7	0.00e+00	0	39	0	886046720	44	4222
2026-01-02 11:14:11.11	121.69	23.52	-36.0	-37.8	21.7	0.00e+00	0	39	0	891289600	44	4207
2026-01-02 11:14:12.12	121.55	23.65	-36.0	-37.7	21.7	0.00e+00	0	39	0	897581056	44	4191
2026-01-02 11:14:13.12	121.41	23.78	-35.7	-37.5	21.8	0.00e+00	0	39	0	902823936	43	4328
2026-01-02 11:14:14.12	121.26	23.91	-35.8	-37.6	21.8	0.00e+00	0	39	0	909115392	43	4344
2026-01-02 11:14:15.13	121.12	24.05	-35.9	-37.6	21.7	0.00e+00	0	39	0	914358272	43	4387
2026-01-02 11:14:16.13	120.97	24.18	-36.0	-37.8	21.6	0.00e+00	0	39	0	919601152	43	4448
2026-01-02 11:14:17.13	120.83	24.32	-35.9	-37.7	21.6	0.00e+00	0	39	0	925892608	43	4440
2026-01-02 11:14:18.13	120.68	24.45	-36.0	-37.8	21.6	0.00e+00	0	39	0	931135488	43	4446
2026-01-02 11:14:19.13	120.53	24.59	-36.0	-37.8	21.6	0.00e+00	0	39	0	936378368	43	4444
2026-01-02 11:14:20.14	120.38	24.72	-35.9	-37.7	21.6	0.00e+00	0	39	0	942669824	43	4395
2026-01-02 11:14:21.14	120.23	24.86	-35.9	-37.7	21.7	0.00e+00	0	39	0	947912704	43	4395
2026-01-02 11:14:22.15	120.07	25.00	-35.7	-37.5	21.8	0.00e+00	0	39	0	954204160	43	4325
2026-01-02 11:14:23.15	119.92	25.13	-35.7	-37.5	21.8	0.00e+00	0	39	0	959447040	43	4325
2026-01-02 11:14:24.16	119.76	25.27	-35.6	-37.4	21.9	0.00e+00	0	39	0	964689920	43	4256
2026-01-02 11:14:25.16	119.61	25.41	-35.6	-37.4	21.9	0.00e+00	0	39	0	970981376	43	4277
2026-01-02 11:14:26.16	119.45	25.55	-35.8	-37.5	21.7	0.00e+00	0	39	0	976224256	43	4339
2026-01-02 11:14:27.16	119.29	25.68	-35.6	-37.4	21.8	0.00e+00	0	39	0	982515712	43	4279
2026-01-02 11:14:28.17	119.13	25.83	-35.6	-37.3	21.9	0.00e+00	0	39	0	987758592	43	4230
2026-01-02 11:14:29.17	118.96	25.96	-35.5	-37.3	22.0	0.00e+00	0	39	0	993001472	43	4218
2026-01-02 11:14:30.17	118.80	26.11	-35.6	-37.3	21.9	0.00e+00	0	39	0	999292928	43	4239
2026-01-02 11:14:31.18	118.63	26.25	-35.7	-37.4	21.8	0.00e+00	0	39	0	1004535808	43	4289
2026-01-02 11:14:32.18	118.47	26.39	-36.0	-37.8	21.5	0.00e+00	0	39	0	1009778688	43	4489
2026-01-02 11:14:33.18	118.30	26.53	-35.7	-37.5	21.8	0.00e+00	0	39	0	1016070144	43	4299
2026-01-02 11:14:34.19	118.13	26.67	-35.7	-37.5	21.8	0.00e+00	0	39	0	1021313024	43	4304
2026-01-02 11:14:35.19	117.95	26.82	-35.6	-37.4	21.9	0.00e+00	0	39	0	1026555904	43	4256
2026-01-02 11:14:36.19	117.78	26.96	-35.7	-37.5	21.8	0.00e+00	0	39	0	1032847360	42	4554
2026-01-02 11:14:37.19	117.61	27.10	-35.4	-37.2	22.0	0.00e+00	0	39	0	1038090240	42	4392
2026-01-02 11:14:38.20	117.43	27.25	-35.4	-37.1	22.1	0.00e+00	0	39	0	1044381696	42	4384
2026-01-02 11:14:39.20	117.25	27.39	-35.3	-37.1	22.1	0.00e+00	0	39	0	1049624576	42	4371
2026-01-02 11:14:40.20	117.07	27.54	-35.5	-37.3	22.0	0.00e+00	0	39	0	1055916032	42	4449
2026-01-02 11:14:41.20	116.89	27.68	-35.4	-37.2	22.0	0.00e+00	0	39	0	1061158912	42	4404
2026-01-02 11:14:42.21	116.71	27.83	-35.4	-37.1	22.1	0.00e+00	0	39	0	1066401792	42	4388
2026-01-02 11:14:43.21	116.52	27.97	-35.4	-37.1	22.1	0.00e+00	0	39	0	1072693248	42	4385
2026-01-02 11:14:44.22	116.33	28.12	-35.4	-37.1	22.1	0.00e+00	0	39	0	1077936128	42	4386
2026-01-02 11:14:45.22	116.15	28.27	-35.2	-37.0	22.2	0.00e+00	0	39	0	1083179008	42	4322
2026-01-02 11:14:46.22	115.96	28.42	-35.2	-36.9	22.3	0.00e+00	0	39	0	1089470464	42	4289
2026-01-02 11:14:47.23	115.76	28.57	-35.3	-37.0	22.2	0.00e+00	0	39	0	1094713344	42	4338
2026-01-02 11:14:48.23	115.57	28.71	-35.3	-37.1	22.2	0.00e+00	0	39	0	1099956224	42	4360
2026-01-02 11:14:49.24	115.37	28.86	-35.3	-37.1	22.2	0.00e+00	0	39	0	1106247680	42	4367
2026-01-02 11:14:50.24	115.18	29.01	-35.5	-37.3	22.0	0.00e+00	0	39	0	1111490560	42	4470
2026-01-02 11:14:51.24	114.98	29.16	-35.6	-37.4	21.9	0.00e+00	0	39	0	1117782016	42	4524
2026-01-02 11:14:52.25	114.77	29.31	-35.7	-37.5	21.8	0.00e+00	0	39	0	1123024896	42	4548
2026-01-02 11:14:53.25	114.57	29.46	-35.7	-37.5	21.8	0.00e+00	0	39	0	1129316352	42	4564
2026-01-02 11:14:54.25	114.37	29.61	-35.6	-37.4	21.9	0.00e+00	0	39	0	1134559232	42	4520
2026-01-02 11:14:55.25	114.16	29.76	-35.6	-37.4	21.9	0.00e+00	0	39	0	1139802112	42	4539
2026-01-02 11:14:56.25	113.95	29.92	-35.4	-37.2	22.1	0.00e+00	0	39	0	1146093568	42	4422
2026-01-02 11:14:57.26	113.74	30.07	-35.2	-36.9	22.4	0.00e+00	0	39	0	1151336448	42	4266
2026-01-02 11:14:58.26	113.53	30.22	-35.2	-36.9	22.3	0.00e+00	0	39	0	1156579328	42	4282
2026-01-02 11:14:59.26	113.31	30.37	-35.1	-36.9	22.4	0.00e+00	0	39	0	1162870784	42	4266
2026-01-02 11:15:00.26	113.10	30.53	-35.3	-37.1	22.2	0.00e+00	0	39	0	1168113664	42	4363
2026-01-02 11:15:01.26	112.88	30.68	-35.4	-37.2	22.1	0.00e+00	0	39	0	1173356544	42	4394
2026-01-02 11:15:02.27	112.65	30.84	-35.5	-37.3	22.0	0.00e+00	0	39	0	1179648000	42	4471
2026-01-02 11:15:03.27	112.43	30.99	-35.5	-37.3	22.0	0.00e+00	0	39	0	1184890880	42	4475
2026-01-02 11:15:04.27	112.21	31.14	-35.5	-37.3	22.0	0.00e+00	0	39	0	1191182336	42	4480
2026-01-02 11:15:05.28	111.98	31.30	-35.5	-37.3	22.0	0.00e+00	0	39	0	1196425216	42	4477
2026-01-02 11:15:06.28	111.75	31.45	-35.5	-37.3	22.0	0.00e+00	0	39	0	1201668096	42	4463
2026-01-02 11:15:07.28	111.52	31.61	-35.3	-37.1	22.1	0.00e+00	0	39	0	1207959552	42	4375
2026-01-02 11:15:08.28	111.28	31.76	-35.1	-36.8	22.4	0.00e+00	0	39	0	1213202432	42	4227
2026-01-02 11:15:09.29	111.04	31.92	-35.1	-36.8	22.4	0.00e+00	0	39	0	1218445312	42	4230
2026-01-02 11:15:10.29	110.81	32.08	-35.0	-36.8	22.4	0.00e+00	0	39	0	1224736768	42	4214
2026-01-02 11:15:11.30	110.56	32.23	-35.1	-36.8	22.4	0.00e+00	0	39	0	1229979648	42	4236
2026-01-02 11:15:12.30	110.32	32.39	-35.1	-36.9	22.4	0.00e+00	0	39	0	1236271104	42	4248
2026-01-02 11:15:13.30	110.07	32.55	-35.0	-36.8	22.4	0.00e+00	0	39	0	1241513984	42	4206
2026-01-02 11:15:14.31	109.82	32.71	-35.1	-36.8	22.4	0.00e+00	0	39	0	1246756864	42	4221
2026-01-02 11:15:15.31	109.57	32.86	-35.0	-36.8	22.5	0.00e+00	0	39	0	1253048320	42	4211
2026-01-02 11:15:16.31	109.32	33.02	-35.0	-36.8	22.5	0.00e+00	0	39	0	1258291200	42	4214
2026-01-02 11:15:17.32	109.06	33.18	-35.1	-36.8	22.4	0.00e+00	0	39	0	1264582656	42	4233
2026-01-02 11:15:18.32	108.81	33.34	-35.0	-36.7	22.5	0.00e+00	0	39	0	1269825536	42	4191
2026-01-02 11:15:19.32	108.55	33.49	-35.1	-36.9	22.4	0.00e+00	0	39	0	1275068416	42	4250
2026-01-02 11:15:20.33	108.28	33.65	-35.1	-36.9	22.4	0.00e+00	0	39	0	1281359872	42	4255
2026-01-02 11:15:21.33	108.01	33.81	-35.2	-36.9	22.3	0.00e+00	0	39	0	1286602752	42	4280
2026-01-02 11:15:22.33	107.75	33.97	-35.2	-37.0	22.2	0.00e+00	0	39	0	1291845632	42	4303
2026-01-02 11:15:23.34	107.47	34.13	-35.3	-37.0	22.1	0.00e+00	0	39	0	1298137088	42	4340
2026-01-02 11:15:24.34	107.20	34.29	-35.1	-36.9	22.3	0.00e+00	0	39	0	1303379968	42	4259
2026-01-02 11:15:25.35	106.92	34.45	-35.2	-36.9	22.3	0.00e+00	0	39	0	1309671424	42	4282
2026-01-02 11:15:26.35	106.64	34.61	-35.2	-36.9	22.3	0.00e+00	0	39	0	1314914304	42	4281
2026-01-02 11:15:27.35	106.36	34.76	-35.2	-36.9	22.3	0.00e+00	0	39	0	1320157184	42	4284
2026-01-02 11:15:28.35	106.08	34.92	-35.1	-36.8	22.4	0.00e+00	0	39	0	1326448640	42	4242
2026-01-02 11:15:29.35	105.79	35.08	-35.0	-36.8	22.4	0.00e+00	0	39	0	1331691520	42	4203
2026-01-02 11:15:30.36	105.50	35.24	-35.0	-36.8	22.4	0.00e+00	0	39	0	1337982976	42	4213
2026-01-02 11:15:31.36	105.20	35.40	-35.3	-37.0	22.3	0.00e+00	0	39	0	1343225856	42	4329
2026-01-02 11:15:32.37	104.91	35.56	-35.2	-36.9	22.3	0.00e+00	0	39	0	1348468736	42	4267
2026-01-02 11:15:33.37	104.61	35.72	-35.0	-36.8	22.4	0.00e+00	0	39	0	1354760192	42	4202
2026-01-02 11:15:34.37	104.31	35.87	-35.0	-36.8	22.5	0.00e+00	0	39	0	1360003072	42	4205
2026-01-02 11:15:35.37	104.00	36.03	-35.1	-36.8	22.5	0.00e+00	0	39	0	1365245952	42	4231
2026-01-02 11:15:36.38	103.69	36.19	-35.0	-36.8	22.5	0.00e+00	0	39	0	1371537408	42	4201
2026-01-02 11:15:37.38	103.38	36.35	-35.3	-37.0	22.2	0.00e+00	0	39	0	1376780288	42	4336
2026-01-02 11:15:38.39	103.06	36.51	-35.3	-37.1	22.2	0.00e+00	0	39	0	1382023168	42	4351
2026-01-02 11:15:39.39	102.75	36.66	-35.2	-37.0	22.2	0.00e+00	0	39	0	1388314624	42	4316
2026-01-02 11:15:40.39	102.43	36.82	-35.0	-36.7	22.5	0.00e+00	0	39	0	1393557504	42	4191
2026-01-02 11:15:41.40	102.10	36.98	-35.0	-36.8	22.5	0.00e+00	0	39	0	1399848960	42	4215
2026-01-02 11:15:42.40	101.78	37.13	-35.2	-37.0	22.3	0.00e+00	0	39	0	1405091840	42	4307
2026-01-02 11:15:43.40	101.45	37.29	-35.4	-37.1	22.1	0.00e+00	0	39	0	1411383296	42	4389
2026-01-02 11:15:44.41	101.11	37.45	-35.5	-37.3	21.9	0.00e+00	0	39	0	1416626176	42	4485
2026-01-02 11:15:45.41	100.78	37.60	-35.6	-37.5	21.9	0.00e+00	0	39	0	1421869056	42	4548
2026-01-02 11:15:46.41	100.44	37.76	-35.7	-37.5	21.8	0.00e+00	0	39	0	1428160512	42	4573
2026-01-02 11:15:47.42	100.09	37.91	-35.6	-37.4	21.9	0.00e+00	0	39	0	1433403392	42	4501
2026-01-02 11:15:48.42	99.75	38.07	-35.5	-37.3	22.1	0.00e+00	0	39	0	1438646272	42	4446
2026-01-02 11:15:49.42	99.40	38.22	-35.3	-37.1	22.2	0.00e+00	0	39	0	1444937728	42	4347
2026-01-02 11:15:50.42	99.05	38.37	-35.3	-37.1	22.2	0.00e+00	0	39	0	1450180608	42	4345
2026-01-02 11:15:51.43	98.69	38.52	-35.3	-37.1	22.2	0.00e+00	0	39	0	1456472064	42	4369
2026-01-02 11:15:52.43	98.33	38.68	-35.2	-36.9	22.4	0.00e+00	0	39	0	1461714944	42	4279
2026-01-02 11:15:53.43	97.97	38.83	-35.1	-36.8	22.5	0.00e+00	0	39	0	1466957824	42	4214
2026-01-02 11:15:54.44	97.60	38.98	-35.1	-36.8	22.5	0.00e+00	0	39	0	1473249280	42	4220
2026-01-02 11:15:55.44	97.23	39.13	-35.1	-36.9	22.4	0.00e+00	0	39	0	1478492160	42	4257
2026-01-02 11:15:56.44	96.86	39.28	-35.3	-37.1	22.2	0.00e+00	0	39	0	1483735040	42	4361
2026-01-02 11:15:57.44	96.49	39.42	-35.4	-37.2	22.1	0.00e+00	0	39	0	1490026496	42	4434
2026-01-02 11:15:58.45	96.10	39.57	-35.4	-37.1	22.2	0.00e+00	0	39	0	1495269376	42	4376
2026-01-02 11:15:59.45	95.72	39.72	-35.1	-36.8	22.5	0.00e+00	0	39	0	1501560832	42	4240
2026-01-02 11:16:00.45	95.34	39.87	-34.9	-36.6	22.6	0.00e+00	0	39	0	1506803712	41	4377
2026-01-02 11:16:01.46	94.94	40.01	-34.9	-36.6	22.7	0.00e+00	0	39	0	1512046592	41	4357
2026-01-02 11:16:02.46	94.55	40.16	-34.7	-36.5	22.8	0.00e+00	0	39	0	1518338048	41	4292
2026-01-02 11:16:03.46	94.15	40.30	-34.7	-36.5	22.8	0.00e+00	0	39	0	1523580928	41	4296
2026-01-02 11:16:04.46	93.75	40.44	-34.8	-36.6	22.7	0.00e+00	0	39	0	1529872384	41	4348
2026-01-02 11:16:05.47	93.35	40.58	-35.0	-36.7	22.5	0.00e+00	0	39	0	1535115264	41	4440
2026-01-02 11:16:06.47	92.94	40.72	-34.9	-36.6	22.6	0.00e+00	0	39	0	1540358144	41	4389
2026-01-02 11:16:07.47	92.53	40.86	-34.9	-36.6	22.6	0.00e+00	0	39	0	1546649600	41	4380
2026-01-02 11:16:08.48	92.11	41.00	-34.9	-36.7	22.6	0.00e+00	0	39	0	1551892480	41	4396
2026-01-02 11:16:09.48	91.70	41.13	-35.1	-36.8	22.5	0.00e+00	0	39	0	1557135360	41	4475
2026-01-02 11:16:10.48	91.28	41.27	-35.2	-37.0	22.4	0.00e+00	0	39	0	1563426816	41	4550
2026-01-02 11:16:11.49	90.85	41.40	-35.2	-36.9	22.4	0.00e+00	0	39	0	1568669696	41	4543
2026-01-02 11:16:12.49	90.42	41.54	-35.1	-36.8	22.6	0.00e+00	0	39	0	1573912576	41	4471
2026-01-02 11:16:13.49	89.99	41.67	-35.0	-36.7	22.7	0.00e+00	0	39	0	1580204032	41	4415
2026-01-02 11:16:14.49	89.55	41.80	-35.0	-36.8	22.6	0.00e+00	0	39	0	1585446912	41	4449
2026-01-02 11:16:15.50	89.11	41.93	-35.0	-36.8	22.6	0.00e+00	0	39	0	1591738368	41	4455
2026-01-02 11:16:16.50	88.67	42.05	-35.1	-36.8	22.5	0.00e+00	0	39	0	1596981248	41	4486
2026-01-02 11:16:17.50	88.22	42.18	-35.0	-36.8	22.5	0.00e+00	0	39	0	1603272704	41	4450
2026-01-02 11:16:18.51	87.77	42.30	-34.8	-36.5	22.8	0.00e+00	0	39	0	1608515584	41	4315
2026-01-02 11:16:19.51	87.32	42.43	-34.6	-36.3	22.9	0.00e+00	0	39	0	1613758464	41	4240
2026-01-02 11:16:20.51	86.86	42.55	-34.6	-36.3	23.0	0.00e+00	0	39	0	1620049920	41	4216
2026-01-02 11:16:21.52	86.40	42.67	-34.7	-36.4	22.8	0.00e+00	0	39	0	1625292800	41	4284
2026-01-02 11:16:22.52	85.94	42.78	-34.6	-36.3	22.9	0.00e+00	0	39	0	1630535680	41	4227
2026-01-02 11:16:23.52	85.47	42.90	-34.6	-36.3	22.9	0.00e+00	0	39	0	1636827136	41	4227
2026-01-02 11:16:24.52	85.00	43.01	-34.8	-36.5	22.8	0.00e+00	0	39	0	1642070016	41	4315
2026-01-02 11:16:25.52	84.53	43.12	-35.1	-36.8	22.5	0.00e+00	0	39	0	1647312896	41	4489
2026-01-02 11:16:26.53	84.05	43.23	-35.2	-36.9	22.4	0.00e+00	0	39	0	1653604352	41	4543
2026-01-02 11:16:27.53	83.57	43.34	-35.0	-36.8	22.6	0.00e+00	0	39	0	1658847232	41	4458
2026-01-02 11:16:28.53	83.09	43.45	-34.8	-36.6	22.7	0.00e+00	0	39	0	1665138688	41	4343
2026-01-02 11:16:29.54	82.60	43.55	-34.7	-36.5	22.8	0.00e+00	0	39	0	1670381568	41	4299
2026-01-02 11:16:30.54	82.11	43.65	-34.6	-36.3	23.0	0.00e+00	0	39	0	1675624448	41	4240
2026-01-02 11:16:31.53	81.62	43.75	-34.6	-36.3	23.0	0.00e+00	0	39	0	1681915904	41	4241
2026-01-02 11:16:32.53	81.13	43.85	-34.7	-36.4	22.9	0.00e+00	0	39	0	1687158784	41	4265
2026-01-02 11:16:33.53	80.63	43.95	-34.7	-36.5	22.8	0.00e+00	0	39	0	1693450240	41	4297
2026-01-02 11:16:34.53	80.13	44.04	-34.9	-36.6	22.7	0.00e+00	0	39	0	1698693120	41	4358
2026-01-02 11:16:35.54	79.62	44.13	-34.9	-36.6	22.7	0.00e+00	0	39	0	1703936000	41	4374
2026-01-02 11:16:36.54	79.11	44.22	-35.2	-37.0	22.4	0.00e+00	0	39	0	1710227456	41	4567
2026-01-02 11:16:37.54	78.60	44.30	-35.3	-37.0	22.3	0.00e+00	0	39	0	1715470336	41	4598
2026-01-02 11:16:38.55	78.09	44.39	-35.1	-36.9	22.4	0.00e+00	0	39	0	1720713216	41	4511
2026-01-02 11:16:39.55	77.57	44.47	-35.1	-36.9	22.4	0.00e+00	0	39	0	1727004672	41	4515
2026-01-02 11:16:40.55	77.05	44.55	-35.0	-36.7	22.5	0.00e+00	0	39	0	1732247552	41	4430
2026-01-02 11:16:41.56	76.53	44.63	-35.1	-36.8	22.4	0.00e+00	0	39	0	1738539008	41	4491
2026-01-02 11:16:42.56	76.01	44.70	-35.1	-36.9	22.5	0.00e+00	0	39	0	1743781888	41	4504
2026-01-02 11:16:43.56	75.48	44.77	-35.0	-36.7	22.7	0.00e+00	0	39	0	1749024768	41	4416
2026-01-02 11:16:44.56	74.96	44.84	-35.0	-36.8	22.6	0.00e+00	0	39	0	1755316224	41	4453
2026-01-02 11:16:45.57	74.42	44.91	-35.1	-36.9	22.5	0.00e+00	0	39	0	1760559104	41	4515
2026-01-02 11:16:46.57	73.89	44.97	-35.2	-37.0	22.4	0.00e+00	0	39	0	1765801984	41	4555
2026-01-02 11:16:47.58	73.35	45.03	-35.0	-36.7	22.6	0.00e+00	0	39	0	1772093440	41	4419
2026-01-02 11:16:48.58	72.82	45.09	-35.2	-36.9	22.5	0.00e+00	0	39	0	1777336320	41	4514
2026-01-02 11:16:49.58	72.28	45.15	-35.1	-36.9	22.5	0.00e+00	0	39	0	1783627776	41	4501
2026-01-02 11:16:50.59	71.73	45.20	-35.2	-37.0	22.4	0.00e+00	0	39	0	1788870656	41	4569
2026-01-02 11:16:51.59	71.19	45.25	-35.0	-36.7	22.6	0.00e+00	0	39	0	1794113536	41	4440
2026-01-02 11:16:52.59	70.65	45.30	-35.0	-36.7	22.6	0.00e+00	0	39	0	1800404992	41	4419
2026-01-02 11:16:53.60	70.10	45.34	-34.9	-36.7	22.7	0.00e+00	0	39	0	1805647872	41	4399
2026-01-02 11:16:54.60	69.55	45.39	-35.0	-36.8	22.6	0.00e+00	0	39	0	1811939328	41	4444
2026-01-02 11:16:55.60	69.01	45.42	-35.1	-36.9	22.5	0.00e+00	0	39	0	1817182208	41	4521
2026-01-02 11:16:56.61	68.45	45.46	-35.2	-36.9	22.5	0.00e+00	0	39	0	1822425088	41	4534
2026-01-02 11:16:57.61	67.90	45.49	-35.0	-36.7	22.6	0.00e+00	0	39	0	1828716544	41	4432
2026-01-02 11:16:58.62	67.35	45.52	-35.0	-36.7	22.7	0.00e+00	0	39	0	1833959424	41	4413
2026-01-02 11:16:59.62	66.80	45.55	-35.2	-36.9	22.5	0.00e+00	0	39	0	1839202304	41	4543
2026-01-02 11:17:00.63	66.24	45.58	-35.0	-36.7	22.7	0.00e+00	0	39	0	1845493760	41	4408
2026-01-02 11:17:01.63	65.68	45.60	-34.7	-36.4	22.8	0.00e+00	0	39	0	1850736640	41	4291
2026-01-02 11:17:02.63	65.13	45.62	-34.8	-36.5	22.8	0.00e+00	0	39	0	1857028096	41	4316
2026-01-02 11:17:03.64	64.57	45.63	-34.9	-36.6	22.7	0.00e+00	0	39	0	1862270976	41	4362
2026-01-02 11:17:04.64	64.02	45.64	-35.0	-36.7	22.6	0.00e+00	0	39	0	1867513856	41	4425
2026-01-02 11:17:05.64	63.46	45.65	-34.8	-36.6	22.7	0.00e+00	0	39	0	1873805312	41	4352
2026-01-02 11:17:06.64	62.90	45.66	-34.8	-36.5	22.8	0.00e+00	0	39	0	1879048192	41	4308
2026-01-02 11:17:07.65	62.34	45.66	-34.9	-36.6	22.8	0.00e+00	0	39	0	1885339648	41	4374
2026-01-02 11:17:08.65	61.79	45.66	-35.2	-37.0	22.5	0.00e+00	0	39	0	1890582528	41	4555
2026-01-02 11:17:09.65	61.23	45.66	-35.2	-37.0	22.4	0.00e+00	0	39	0	1895825408	41	4560
2026-01-02 11:17:10.66	60.67	45.66	-35.2	-37.0	22.5	0.00e+00	0	39	0	1902116864	41	4553
2026-01-02 11:17:11.66	60.11	45.65	-34.9	-36.6	22.8	0.00e+00	0	39	0	1907359744	41	4371
2026-01-02 11:17:12.66	59.56	45.63	-34.8	-36.5	22.8	0.00e+00	0	39	0	1912602624	41	4336
2026-01-02 11:17:13.66	59.00	45.62	-34.8	-36.5	22.8	0.00e+00	0	39	0	1918894080	41	4335
2026-01-02 11:17:14.67	58.45	45.60	-34.6	-36.3	22.9	0.00e+00	0	39	0	1924136960	41	4218
2026-01-02 11:17:15.67	57.89	45.58	-34.8	-36.5	22.8	0.00e+00	0	39	0	1929379840	41	4330
2026-01-02 11:17:16.67	57.34	45.56	-35.2	-36.9	22.4	0.00e+00	0	39	0	1935671296	41	4539
2026-01-02 11:17:17.67	56.79	45.53	-35.2	-36.9	22.5	0.00e+00	0	39	0	1940914176	41	4521
2026-01-02 11:17:18.67	56.24	45.50	-35.1	-36.8	22.6	0.00e+00	0	39	0	1947205632	41	4474
2026-01-02 11:17:19.68	55.68	45.47	-35.1	-36.8	22.6	0.00e+00	0	39	0	1952448512	41	4475
2026-01-02 11:17:20.68	55.13	45.44	-35.1	-36.8	22.6	0.00e+00	0	39	0	1958739968	41	4466
2026-01-02 11:17:21.68	54.59	45.40	-34.9	-36.7	22.7	0.00e+00	0	39	0	1963982848	41	4407
2026-01-02 11:17:22.69	54.04	45.36	-35.1	-36.8	22.5	0.00e+00	0	39	0	1969225728	41	4481
2026-01-02 11:17:23.69	53.49	45.31	-35.0	-36.7	22.6	0.00e+00	0	39	0	1975517184	41	4435
2026-01-02 11:17:24.70	52.94	45.27	-34.9	-36.6	22.8	0.00e+00	0	39	0	1980760064	41	4366
2026-01-02 11:17:25.70	52.40	45.22	-34.8	-36.5	22.8	0.00e+00	0	39	0	1986002944	41	4320
2026-01-02 11:17:26.70	51.86	45.16	-34.9	-36.7	22.6	0.00e+00	0	39	0	1992294400	41	4410
2026-01-02 11:17:27.71	51.32	45.11	-35.1	-36.9	22.5	0.00e+00	0	39	0	1997537280	41	4503
2026-01-02 11:17:28.71	50.78	45.05	-35.1	-36.8	22.5	0.00e+00	0	39	0	2002780160	41	4491
2026-01-02 11:17:29.71	50.25	44.99	-35.0	-36.8	22.6	0.00e+00	0	39	0	2009071616	41	4443
2026-01-02 11:17:30.72	49.71	44.93	-35.1	-36.8	22.6	0.00e+00	0	39	0	2014314496	41	4458
2026-01-02 11:17:31.72	49.18	44.86	-34.9	-36.7	22.7	0.00e+00	0	39	0	2020605952	41	4394
2026-01-02 11:17:32.72	48.66	44.80	-34.9	-36.6	22.8	0.00e+00	0	39	0	2025848832	41	4365
2026-01-02 11:17:33.72	48.13	44.72	-34.9	-36.6	22.7	0.00e+00	0	39	0	2031091712	41	4385
2026-01-02 11:17:34.73	47.61	44.65	-34.8	-36.5	22.9	0.00e+00	0	39	0	2037383168	41	4300
2026-01-02 11:17:35.73	47.09	44.57	-34.6	-36.3	23.0	0.00e+00	0	39	0	2042626048	41	4214
2026-01-02 11:17:36.73	46.57	44.50	-34.6	-36.3	23.0	0.00e+00	0	39	0	2048917504	41	4221
2026-01-02 11:17:37.73	46.05	44.42	-34.8	-36.5	22.8	0.00e+00	0	39	0	2054160384	41	4321
2026-01-02 11:17:38.74	45.54	44.33	-35.0	-36.7	22.6	0.00e+00	0	39	0	2059403264	41	4423
2026-01-02 11:17:39.74	45.03	44.25	-34.8	-36.5	22.8	0.00e+00	0	39	0	2065694720	41	4335
2026-01-02 11:17:40.74	44.52	44.16	-34.7	-36.4	22.9	0.00e+00	0	39	0	2070937600	41	4284
2026-01-02 11:17:41.75	44.01	44.07	-34.9	-36.7	22.7	0.00e+00	0	39	0	2076180480	41	4396
2026-01-02 11:17:42.75	43.51	43.98	-34.8	-36.6	22.8	0.00e+00	0	39	0	2082471936	41	4341
2026-01-02 11:17:43.75	43.01	43.88	-34.6	-36.3	23.0	0.00e+00	0	39	0	2087714816	41	4217
2026-01-02 11:17:44.75	42.52	43.78	-34.5	-36.2	23.1	0.00e+00	0	39	0	2094006272	41	4167
2026-01-02 11:17:45.76	42.02	43.69	-34.6	-36.3	23.0	0.00e+00	0	39	0	2099249152	41	4211
2026-01-02 11:17:46.76	41.53	43.58	-34.6	-36.3	23.0	0.00e+00	0	39	0	2104492032	41	4215
2026-01-02 11:17:47.77	41.04	43.48	-34.7	-36.4	22.9	0.00e+00	0	39	0	2110783488	41	4285
2026-01-02 11:17:48.77	40.56	43.38	-34.6	-36.3	23.0	0.00e+00	0	39	0	2116026368	41	4226
2026-01-02 11:17:49.77	40.08	43.27	-34.6	-36.3	23.0	0.00e+00	0	39	0	2121269248	41	4198
2026-01-02 11:17:50.78	39.60	43.16	-34.7	-36.4	22.9	0.00e+00	0	39	0	2127560704	41	4272
2026-01-02 11:17:51.78	39.13	43.05	-34.7	-36.5	22.8	0.00e+00	0	39	0	2132803584	41	4293
2026-01-02 11:17:52.78	38.66	42.94	-34.9	-36.6	22.7	0.00e+00	0	39	0	2139095040	41	4391
2026-01-02 11:17:53.78	38.19	42.82	-35.0	-36.7	22.6	0.00e+00	0	39	0	2144337920	41	4433
2026-01-02 11:17:54.79	37.73	42.70	-35.0	-36.7	22.6	0.00e+00	0	39	0	2149580800	41	4410
2026-01-02 11:17:55.79	37.27	42.59	-35.0	-36.8	22.6	0.00e+00	0	39	0	2155872256	41	4454
2026-01-02 11:17:56.80	36.81	42.46	-34.9	-36.6	22.7	0.00e+00	0	39	0	2161115136	41	4388
2026-01-02 11:17:57.80	36.35	42.34	-34.8	-36.6	22.7	0.00e+00	0	39	0	2167406592	41	4347
2026-01-02 11:17:58.80	35.91	42.22	-34.9	-36.7	22.7	0.00e+00	0	39	0	2172649472	41	4396
2026-01-02 11:17:59.80	35.46	42.10	-34.6	-36.3	22.9	0.00e+00	0	39	0	2177892352	41	4235
2026-01-02 11:18:00.80	35.02	41.97	-34.5	-36.3	23.0	0.00e+00	0	39	0	2184183808	41	4198
2026-01-02 11:18:01.81	34.58	41.84	-34.7	-36.4	22.9	0.00e+00	0	39	0	2189426688	41	4268
2026-01-02 11:18:02.81	34.14	41.71	-34.7	-36.4	22.9	0.00e+00	0	39	0	2194669568	41	4266
2026-01-02 11:18:03.81	33.71	41.58	-34.7	-36.4	22.8	0.00e+00	0	39	0	2200961024	41	4270
2026-01-02 11:18:04.81	33.28	41.45	-34.8	-36.5	22.7	0.00e+00	0	39	0	2206203904	41	4330
2026-01-02 11:18:05.82	32.85	41.32	-34.9	-36.6	22.6	0.00e+00	0	39	0	2211446784	41	4385
2026-01-02 11:18:06.82	32.43	41.18	-34.9	-36.6	22.6	0.00e+00	0	39	0	2217738240	41	4381
2026-01-02 11:18:07.82	32.02	41.05	-34.9	-36.7	22.5	0.00e+00	0	39	0	2222981120	41	4406
2026-01-02 11:18:08.83	31.60	40.91	-35.0	-36.7	22.5	0.00e+00	0	39	0	2229272576	41	4440
2026-01-02 11:18:09.83	31.19	40.77	-35.0	-36.7	22.6	0.00e+00	0	39	0	2234515456	41	4415
2026-01-02 11:18:10.83	30.78	40.63	-34.9	-36.6	22.6	0.00e+00	0	39	0	2240806912	41	4379
2026-01-02 11:18:11.84	30.37	40.49	-34.8	-36.5	22.7	0.00e+00	0	39	0	2246049792	41	4327
2026-01-02 11:18:12.84	29.97	40.35	-34.9	-36.6	22.7	0.00e+00	0	39	0	2251292672	41	4366
2026-01-02 11:18:13.84	29.58	40.21	-34.8	-36.5	22.7	0.00e+00	0	39	0	2257584128	41	4335
2026-01-02 11:18:14.85	29.18	40.06	-34.7	-36.5	22.8	0.00e+00	0	39	0	2262827008	41	4310
2026-01-02 11:18:15.85	28.79	39.92	-34.7	-36.4	22.8	0.00e+00	0	39	0	2268069888	41	4285
2026-01-02 11:18:16.85	28.41	39.78	-34.7	-36.4	22.8	0.00e+00	0	39	0	2274361344	41	4276
2026-01-02 11:18:17.85	28.02	39.63	-34.8	-36.5	23.3	0.00e+00	0	39	0	2279604224	41	4314
2026-01-02 11:18:18.85	27.65	39.48	-34.9	-36.6	23.2	0.00e+00	0	39	0	2284847104	41	4372
2026-01-02 11:18:19.86	27.27	39.33	-35.0	-36.6	23.2	0.00e+00	0	39	0	2291138560	41	4383
2026-01-02 11:18:20.86	26.89	39.19	-35.0	-36.7	23.1	0.00e+00	0	39	0	2296381440	41	4405
2026-01-02 11:18:21.87	26.52	39.04	-35.1	-36.8	23.1	0.00e+00	0	39	0	2302672896	41	4446
2026-01-02 11:18:22.87	26.16	38.89	-35.0	-36.7	23.1	0.00e+00	0	39	0	2307915776	41	4413
2026-01-02 11:18:23.87	25.80	38.74	-35.1	-36.7	23.1	0.00e+00	0	39	0	2313158656	41	4438
2026-01-02 11:18:24.88	25.43	38.58	-35.1	-36.7	23.1	0.00e+00	0	39	0	2319450112	41	4423
2026-01-02 11:18:25.88	25.08	38.43	-34.9	-36.6	23.2	0.00e+00	0	39	0	2324692992	41	4342
2026-01-02 11:18:26.89	24.72	38.28	-34.9	-36.5	23.3	0.00e+00	0	39	0	2330984448	41	4327
2026-01-02 11:18:27.89	24.38	38.13	-34.9	-36.5	23.2	0.00e+00	0	39	0	2336227328	41	4340
2026-01-02 11:18:28.89	24.03	37.97	-34.8	-36.5	23.2	0.00e+00	0	39	0	2341470208	41	4299
2026-01-02 11:18:29.89	23.69	37.82	-34.6	-36.2	23.5	0.00e+00	0	39	0	2347761664	41	4192
2026-01-02 11:18:30.90	23.35	37.67	-34.5	-36.2	23.5	0.00e+00	0	39	0	2353004544	41	4168
2026-01-02 11:18:31.90	23.01	37.51	-34.5	-36.1	23.6	0.00e+00	0	39	0	2358247424	41	4135
2026-01-02 11:18:32.90	22.68	37.36	-34.5	-36.2	23.6	0.00e+00	0	39	0	2364538880	41	4151
2026-01-02 11:18:33.91	22.35	37.20	-34.6	-36.2	23.6	0.00e+00	0	39	0	2369781760	41	4168
2026-01-02 11:18:34.91	22.02	37.04	-34.6	-36.2	23.5	0.00e+00	0	39	0	2376073216	41	4175
2026-01-02 11:18:35.91	21.70	36.89	-34.6	-36.2	23.5	0.00e+00	0	39	0	2381316096	41	4175
2026-01-02 11:18:36.92	21.38	36.73	-34.6	-36.3	23.5	0.00e+00	0	39	0	2386558976	41	4213
2026-01-02 11:18:37.92	21.06	36.58	-34.6	-36.3	23.5	0.00e+00	0	39	0	2392850432	41	4206
2026-01-02 11:18:38.92	20.75	36.42	-34.7	-36.4	23.4	0.00e+00	0	39	0	2398093312	41	4247
2026-01-02 11:18:39.93	20.44	36.26	-34.8	-36.4	23.4	0.00e+00	0	39	0	2404384768	41	4274
2026-01-02 11:18:40.93	20.13	36.10	-34.9	-36.6	23.2	0.00e+00	0	39	0	2409627648	41	4342
2026-01-02 11:18:41.93	19.82	35.95	-34.8	-36.5	23.3	0.00e+00	0	39	0	2414870528	41	4309
2026-01-02 11:18:42.94	19.52	35.79	-34.9	-36.5	23.3	0.00e+00	0	39	0	2421161984	41	4322
2026-01-02 11:18:43.94	19.22	35.63	-34.6	-36.3	23.5	0.00e+00	0	39	0	2426404864	41	4211
2026-01-02 11:18:44.94	18.93	35.47	-34.5	-36.1	23.6	0.00e+00	0	39	0	2431647744	40	4365
2026-01-02 11:18:45.95	18.63	35.31	-34.4	-36.1	23.7	0.00e+00	0	39	0	2437939200	40	4341
2026-01-02 11:18:46.95	18.34	35.16	-34.5	-36.1	23.6	0.00e+00	0	39	0	2443182080	40	4367
2026-01-02 11:18:47.95	18.05	35.00	-34.6	-36.2	23.6	0.00e+00	0	39	0	2449473536	40	4412
2026-01-02 11:18:48.96	17.77	34.84	-34.6	-36.2	23.5	0.00e+00	0	39	0	2454716416	40	4435
2026-01-02 11:18:49.96	17.49	34.68	-34.7	-36.3	23.5	0.00e+00	0	39	0	2459959296	40	4473
2026-01-02 11:18:50.96	17.21	34.52	-34.8	-36.5	23.3	0.00e+00	0	39	0	2466250752	40	4562
2026-01-02 11:18:51.96	16.93	34.37	-34.7	-36.3	23.4	0.00e+00	0	39	0	2471493632	40	4477
2026-01-02 11:18:52.97	16.66	34.21	-34.8	-36.4	23.4	0.00e+00	0	39	0	2476736512	40	4516
2026-01-02 11:18:53.97	16.38	34.05	-34.7	-36.4	23.4	0.00e+00	0	39	0	2483027968	40	4504
2026-01-02 11:18:54.97	16.12	33.89	-34.8	-36.5	23.3	0.00e+00	0	39	0	2488270848	40	4548
2026-01-02 11:18:55.97	15.85	33.74	-34.8	-36.5	23.3	0.00e+00	0	39	0	2494562304	40	4555
2026-01-02 11:18:56.98	15.59	33.58	-34.9	-36.5	23.2	0.00e+00	0	39	0	2499805184	40	4576
2026-01-02 11:18:57.98	15.33	33.42	-34.9	-36.5	23.3	0.00e+00	0	39	0	2505048064	40	4588
2026-01-02 11:18:58.98	15.07	33.26	-34.8	-36.4	23.3	0.00e+00	0	39	0	2511339520	40	4530
2026-01-02 11:18:59.98	14.81	33.11	-34.8	-36.5	23.3	0.00e+00	0	39	0	2516582400	40	4553
2026-01-02 11:19:00.99	14.56	32.95	-35.0	-36.7	23.2	0.00e+00	0	39	0	2522873856	40	4652
2026-01-02 11:19:01.99	14.31	32.79	-34.9	-36.6	23.2	0.00e+00	0	39	0	2528116736	40	4619
2026-01-02 11:19:02.99	14.06	32.64	-34.8	-36.5	23.3	0.00e+00	0	39	0	2533359616	40	4551
2026-01-02 11:19:04.00	13.81	32.48	-34.9	-36.5	23.2	0.00e+00	0	39	0	2539651072	40	4594
2026-01-02 11:19:05.00	13.57	32.32	-34.9	-36.5	23.2	0.00e+00	0	39	0	2544893952	40	4583
2026-01-02 11:19:06.00	13.33	32.17	-34.8	-36.5	23.3	0.00e+00	0	39	0	2550136832	40	4560
2026-01-02 11:19:07.01	13.09	32.01	-34.9	-36.5	23.2	0.00e+00	0	39	0	2556428288	40	4594
2026-01-02 11:19:08.01	12.85	31.85	-34.9	-36.6	23.2	0.00e+00	0	39	0	2561671168	40	4610
2026-01-02 11:19:09.01	12.62	31.70	-35.0	-36.6	23.2	0.00e+00	0	39	0	2567962624	40	4645
2026-01-02 11:19:10.02	12.39	31.54	-35.0	-36.7	23.2	0.00e+00	0	39	0	2573205504	40	4654
2026-01-02 11:19:11.02	12.16	31.39	-34.9	-36.6	23.2	0.00e+00	0	39	0	2578448384	40	4634
2026-01-02 11:19:12.03	11.93	31.23	-34.9	-36.6	23.2	0.00e+00	0	39	0	2584739840	40	4600
2026-01-02 11:19:13.03	11.70	31.08	-34.9	-36.5	23.2	0.00e+00	0	39	0	2589982720	40	4597
2026-01-02 11:19:14.03	11.48	30.93	-34.8	-36.5	23.3	0.00e+00	0	39	0	2596274176	40	4573
2026-01-02 11:19:15.04	11.26	30.77	-34.8	-36.5	23.2	0.00e+00	0	39	0	2601517056	40	4583
2026-01-02 11:19:16.04	11.04	30.62	-34.9	-36.5	23.2	0.00e+00	0	39	0	2606759936	40	4594
2026-01-02 11:19:17.04	10.82	30.47	-35.0	-36.6	23.1	0.00e+00	0	39	0	2613051392	40	4646
2026-01-02 11:19:18.05	10.61	30.31	-34.9	-36.6	23.1	0.00e+00	0	39	0	2618294272	40	4633
2026-01-02 11:19:19.05	10.40	30.16	-35.0	-36.6	23.2	0.00e+00	0	39	0	2623537152	40	4633
2026-01-02 11:19:20.05	10.19	30.01	-35.0	-36.6	23.2	0.00e+00	0	39	0	2629828608	40	4629
2026-01-02 11:19:21.05	9.98	29.86	-35.1	-36.8	23.1	0.00e+00	0	39	0	2635071488	40	4710
2026-01-02 11:19:22.06	9.77	29.71	-35.2	-36.9	23.0	0.00e+00	0	39	0	2641362944	41	4497
2026-01-02 11:19:23.06	9.57	29.56	-35.4	-37.1	22.7	0.00e+00	0	39	0	2646605824	41	4637
2026-01-02 11:19:24.06	9.36	29.41	-35.5	-37.2	22.6	0.00e+00	0	39	0	2651848704	41	4681
2026-01-02 11:19:25.07	9.16	29.26	-35.6	-37.3	22.6	0.00e+00	0	39	0	2658140160	41	4716
2026-01-02 11:19:26.07	8.96	29.11	-35.8	-37.5	22.4	0.00e+00	0	39	0	2663383040	42	4563
2026-01-02 11:19:27.07	8.77	28.96	-35.5	-37.2	22.6	0.00e+00	0	39	0	2668625920	42	4411
2026-01-02 11:19:28.08	8.57	28.81	-35.6	-37.3	22.6	0.00e+00	0	39	0	2674917376	42	4467
2026-01-02 11:19:29.08	8.38	28.66	-35.5	-37.2	22.7	0.00e+00	0	39	0	2680160256	42	4414
2026-01-02 11:19:30.09	8.18	28.51	-35.5	-37.2	22.6	0.00e+00	0	39	0	2686451712	42	4433
2026-01-02 11:19:31.09	7.99	28.37	-35.7	-37.4	22.5	0.00e+00	0	39	0	2691694592	42	4524
2026-01-02 11:19:32.09	7.81	28.22	-35.4	-37.1	22.7	0.00e+00	0	39	0	2696937472	42	4387
2026-01-02 11:19:33.10	7.62	28.07	-35.4	-37.0	22.8	0.00e+00	0	39	0	2703228928	42	4331
2026-01-02 11:19:34.10	7.43	27.93	-35.4	-37.0	22.8	0.00e+00	0	39	0	2708471808	42	4322
2026-01-02 11:19:35.10	7.25	27.78	-35.4	-37.1	22.8	0.00e+00	0	39	0	2714763264	42	4350
2026-01-02 11:19:36.11	7.07	27.64	-35.3	-37.0	22.8	0.00e+00	0	39	0	2720006144	42	4314
2026-01-02 11:19:37.11	6.89	27.49	-35.5	-37.1	22.7	0.00e+00	0	39	0	2725249024	42	4383
2026-01-02 11:19:38.11	6.71	27.35	-35.5	-37.2	22.7	0.00e+00	0	39	0	2731540480	42	4396
2026-01-02 11:19:39.12	6.54	27.20	-35.6	-37.3	22.6	0.00e+00	0	39	0	2736783360	42	4452
2026-01-02 11:19:40.12	6.36	27.06	-35.6	-37.3	22.5	0.00e+00	0	39	0	2742026240	42	4482
2026-01-02 11:19:41.12	6.19	26.92	-35.6	-37.3	22.5	0.00e+00	0	39	0	2748317696	42	4480
2026-01-02 11:19:42.12	6.02	26.78	-35.6	-37.3	22.5	0.00e+00	0	39	0	2753560576	42	4474
2026-01-02 11:19:43.13	5.85	26.63	-35.7	-37.4	22.5	0.00e+00	0	39	0	2759852032	42	4509
2026-01-02 11:19:44.13	5.68	26.49	-35.7	-37.4	22.4	0.00e+00	0	39	0	2765094912	42	4533
2026-01-02 11:19:45.14	5.51	26.35	-35.6	-37.3	22.6	0.00e+00	0	39	0	2770337792	42	4458
2026-01-02 11:19:46.14	5.34	26.21	-35.5	-37.2	22.6	0.00e+00	0	39	0	2776629248	42	4428
2026-01-02 11:19:47.14	5.18	26.07	-35.5	-37.1	22.7	0.00e+00	0	39	0	2781872128	42	4387
2026-01-02 11:19:48.15	5.02	25.93	-35.3	-37.0	22.8	0.00e+00	0	39	0	2788163584	42	4322
2026-01-02 11:19:49.15	4.86	25.79	-35.4	-37.1	22.8	0.00e+00	0	39	0	2793406464	42	4346
2026-01-02 11:19:50.15	4.70	25.65	-35.3	-37.0	22.8	0.00e+00	0	39	0	2798649344	42	4308
2026-01-02 11:19:51.15	4.54	25.52	-35.4	-37.0	22.8	0.00e+00	0	39	0	2804940800	42	4331
2026-01-02 11:19:52.16	4.38	25.38	-35.4	-37.1	22.7	0.00e+00	0	39	0	2810183680	42	4374
2026-01-02 11:19:53.16	4.23	25.24	-35.5	-37.1	22.7	0.00e+00	0	39	0	2815426560	42	4391
2026-01-02 11:19:54.17	4.07	25.10	-35.5	-37.2	22.7	0.00e+00	0	39	0	2821718016	42	4398
2026-01-02 11:19:55.17	3.92	24.97	-35.6	-37.3	22.6	0.00e+00	0	39	0	2826960896	42	4448
2026-01-02 11:19:56.17	3.77	24.83	-35.6	-37.3	22.5	0.00e+00	0	39	0	2832203776	42	4488
2026-01-02 11:19:57.18	3.62	24.70	-35.5	-37.2	22.6	0.00e+00	0	39	0	2838495232	42	4414
2026-01-02 11:19:58.18	3.47	24.56	-35.6	-37.3	22.5	0.00e+00	0	39	0	2843738112	42	4452
2026-01-02 11:19:59.18	3.32	24.43	-35.5	-37.2	22.7	0.00e+00	0	39	0	2850029568	42	4399
2026-01-02 11:20:00.19	3.18	24.29	-35.5	-37.2	22.6	0.00e+00	0	39	0	2855272448	42	4396
2026-01-02 11:20:01.19	3.03	24.16	-35.4	-37.1	22.7	0.00e+00	0	39	0	2861563904	42	4375
2026-01-02 11:20:02.19	2.89	24.03	-35.5	-37.2	22.6	0.00e+00	0	39	0	2866806784	42	4430
2026-01-02 11:20:03.20	2.75	23.89	-35.7	-37.4	22.5	0.00e+00	0	39	0	2872049664	42	4497
2026-01-02 11:20:04.20	2.60	23.76	-35.7	-37.4	22.4	0.00e+00	0	39	0	2878341120	42	4533
2026-01-02 11:20:05.20	2.46	23.63	-35.7	-37.4	22.4	0.00e+00	0	39	0	2883584000	42	4522
2026-01-02 11:20:06.21	2.33	23.50	-35.8	-37.5	22.3	0.00e+00	0	39	0	2888826880	42	4583
2026-01-02 11:20:07.21	2.19	23.37	-35.7	-37.5	22.4	0.00e+00	0	39	0	2895118336	42	4554
2026-01-02 11:20:08.21	2.05	23.24	-35.7	-37.4	22.5	0.00e+00	0	39	0	2900361216	42	4523
2026-01-02 11:20:09.21	1.92	23.11	-35.7	-37.4	22.5	0.00e+00	0	39	0	2905604096	42	4504
2026-01-02 11:20:10.22	1.78	22.98	-35.7	-37.4	22.5	0.00e+00	0	39	0	2911895552	42	4518
2026-01-02 11:20:11.22	1.65	22.85	-35.8	-37.5	22.3	0.00e+00	0	39	0	2917138432	42	4584
2026-01-02 11:20:12.22	1.52	22.72	-35.7	-37.4	22.4	0.00e+00	0	39	0	2923429888	42	4511
2026-01-02 11:20:13.22	1.39	22.60	-35.7	-37.5	22.4	0.00e+00	0	39	0	2928672768	42	4562
2026-01-02 11:20:14.23	1.26	22.47	-35.8	-37.5	22.3	0.00e+00	0	39	0	2933915648	42	4581
2026-01-02 11:20:15.23	1.13	22.34	-35.8	-37.6	22.3	0.00e+00	0	39	0	2940207104	42	4601
2026-01-02 11:20:16.23	1.00	22.22	-35.8	-37.5	22.3	0.00e+00	0	39	0	2945449984	42	4597
2026-01-02 11:20:17.24	0.87	22.09	-36.0	-37.7	22.1	0.00e+00	0	39	0	2951741440	42	4683
2026-01-02 11:20:18.24	0.75	21.97	-36.0	-37.7	22.1	0.00e+00	0	39	0	2956984320	42	4669
2026-01-02 11:20:19.25	0.62	21.84	-36.0	-37.7	22.1	0.00e+00	0	39	0	2962227200	42	4694
2026-01-02 11:20:20.25	0.50	21.72	-36.1	-37.8	22.1	0.00e+00	0	39	0	2968518656	42	4740
2026-01-02 11:20:21.25	0.38	21.59	-36.1	-37.8	22.1	0.00e+00	0	39	0	2973761536	42	4720
2026-01-02 11:20:22.25	0.26	21.47	-36.1	-37.8	22.0	0.00e+00	0	39	0	2979004416	42	4746
2026-01-02 11:20:23.25	0.14	21.35	-36.0	-37.7	22.1	0.00e+00	0	39	0	2985295872	42	4694
2026-01-02 11:20:24.26	0.02	21.22	-36.1	-37.8	22.0	0.00e+00	0	39	0	2990538752	42	4742
2026-01-02 11:20:25.26	359.90	21.10	-36.1	-37.8	22.0	0.00e+00	0	39	0	2996830208	42	4728
2026-01-02 11:20:26.26	359.78	20.98	-36.2	-37.9	21.9	0.00e+00	0	39	0	3002073088	43	4532
2026-01-02 11:20:27.27	359.67	20.86	-36.0	-37.7	22.1	0.00e+00	0	39	0	3007315968	43	4440
2026-01-02 11:20:28.27	359.55	20.74	-35.9	-37.6	22.1	0.00e+00	0	39	0	3013607424	43	4381
2026-01-02 11:20:29.27	359.44	20.62	-35.9	-37.6	22.2	0.00e+00	0	39	0	3018850304	43	4379
2026-01-02 11:20:30.28	359.32	20.50	-36.0	-37.7	22.1	0.00e+00	0	39	0	3025141760	43	4427
2026-01-02 11:20:31.28	359.21	20.38	-36.0	-37.7	22.1	0.00e+00	0	39	0	3030384640	43	4420
2026-01-02 11:20:32.28	359.10	20.26	-36.1	-37.8	22.0	0.00e+00	0	39	0	3035627520	43	4473
2026-01-02 11:20:33.28	358.99	20.14	-36.1	-37.9	22.0	0.00e+00	0	39	0	3041918976	43	4506
2026-01-02 11:20:34.29	358.88	20.02	-36.2	-37.9	21.9	0.00e+00	0	39	0	3047161856	43	4539
2026-01-02 11:20:35.29	358.77	19.91	-36.2	-38.0	21.8	0.00e+00	0	39	0	3052404736	43	4561
2026-01-02 11:20:36.30	358.66	19.79	-36.3	-38.0	21.8	0.00e+00	0	39	0	3058696192	43	4598
2026-01-02 11:20:37.30	358.55	19.67	-36.3	-38.1	21.8	0.00e+00	0	39	0	3063939072	43	4618
2026-01-02 11:20:38.30	358.44	19.56	-36.5	-38.3	21.6	0.00e+00	0	39	0	3070230528	43	4710
2026-01-02 11:20:39.31	358.34	19.44	-36.4	-38.2	21.6	0.00e+00	0	39	0	3075473408	43	4685
2026-01-02 11:20:40.31	358.23	19.32	-36.6	-38.3	21.5	0.00e+00	0	39	0	3080716288	43	4756
2026-01-02 11:20:41.31	358.13	19.21	-36.6	-38.4	21.5	0.00e+00	0	39	0	3087007744	43	4769
2026-01-02 11:20:42.31	358.03	19.10	-36.7	-38.5	21.4	0.00e+00	0	39	0	3092250624	43	4827
2026-01-02 11:20:43.31	357.92	18.98	-36.9	-38.7	21.4	0.00e+00	0	39	0	3097493504	44	4688
2026-01-02 11:20:44.32	357.82	18.87	-36.9	-38.8	21.3	0.00e+00	0	39	0	3103784960	44	4722
2026-01-02 11:20:45.32	357.72	18.76	-37.0	-38.9	21.2	0.00e+00	0	39	0	3109027840	44	4766
2026-01-02 11:20:46.32	357.62	18.64	-37.0	-38.9	21.2	0.00e+00	0	39	0	3114270720	44	4791
2026-01-02 11:20:47.33	357.52	18.53	-37.1	-39.0	21.1	0.00e+00	0	39	0	3120562176	44	4824
2026-01-02 11:20:48.33	357.42	18.42	-37.0	-38.8	21.2	0.00e+00	0	39	0	3125805056	44	4759
2026-01-02 11:20:49.33	357.32	18.31	-36.9	-38.8	21.2	0.00e+00	0	39	0	3132096512	44	4738
2026-01-02 11:20:50.33	357.23	18.20	-37.0	-38.8	21.2	0.00e+00	0	39	0	3137339392	44	4752
2026-01-02 11:20:51.34	357.13	18.08	-37.0	-38.8	21.2	0.00e+00	0	39	0	3143630848	44	4743
2026-01-02 11:20:52.34	357.03	17.97	-37.0	-38.8	21.2	0.00e+00	0	39	0	3148873728	44	4743
2026-01-02 11:20:53.34	356.94	17.87	-36.9	-38.7	21.3	0.00e+00	0	39	0	3154116608	44	4678
2026-01-02 11:20:54.35	356.85	17.75	-37.0	-38.8	21.3	0.00e+00	0	39	0	3160408064	44	4709
2026-01-02 11:20:55.35	356.75	17.65	-37.1	-38.9	21.2	0.00e+00	0	39	0	3165650944	44	4778
2026-01-02 11:20:56.35	356.66	17.54	-37.1	-38.8	21.2	0.00e+00	0	39	0	3170893824	44	4743
2026-01-02 11:20:57.35	356.57	17.43	-37.1	-38.9	21.2	0.00e+00	0	39	0	3177185280	44	4763
2026-01-02 11:20:58.36	356.47	17.32	-37.2	-38.9	21.1	0.00e+00	0	39	0	3182428160	45	4530
2026-01-02 11:20:59.36	356.38	17.21	-37.2	-38.9	21.1	0.00e+00	0	39	0	3187671040	45	4530
2026-01-02 11:21:00.36	356.29	17.11	-37.2	-39.0	21.0	0.00e+00	0	39	0	3193962496	45	4575
2026-01-02 11:21:01.37	356.20	17.00	-37.2	-39.0	21.1	0.00e+00	0	39	0	3199205376	45	4567
2026-01-02 11:21:02.37	356.12	16.89	-37.3	-39.1	21.0	0.00e+00	0	39	0	3205496832	45	4619
2026-01-02 11:21:03.37	356.03	16.79	-37.3	-39.1	21.0	0.00e+00	0	39	0	3210739712	45	4621
2026-01-02 11:21:04.38	355.94	16.68	-37.3	-39.1	21.0	0.00e+00	0	39	0	3217031168	45	4613
2026-01-02 11:21:05.38	355.85	16.58	-37.3	-39.2	20.8	0.00e+00	0	39	0	3222274048	45	4670
2026-01-02 11:21:06.38	355.77	16.47	-37.4	-39.3	20.7	0.00e+00	0	39	0	3227516928	45	4738
2026-01-02 11:21:07.39	355.68	16.37	-37.3	-39.2	20.8	0.00e+00	0	39	0	3233808384	45	4677
2026-01-02 11:21:08.39	355.60	16.26	-37.2	-39.1	20.9	0.00e+00	0	39	0	3239051264	45	4641
2026-01-02 11:21:09.39	355.51	16.16	-37.3	-39.2	20.8	0.00e+00	0	39	0	3244294144	45	4685
2026-01-02 11:21:10.39	355.43	16.06	-37.3	-39.3	20.7	0.00e+00	0	39	0	3250585600	45	4736
2026-01-02 11:21:11.39	355.34	15.96	-37.3	-39.3	20.7	0.00e+00	0	39	0	3255828480	45	4741
2026-01-02 11:21:12.40	355.26	15.85	-37.4	-39.4	20.7	0.00e+00	0	39	0	3261071360	45	4780
2026-01-02 11:21:13.40	355.18	15.75	-37.4	-39.4	20.6	0.00e+00	0	39	0	3267362816	45	4790
2026-01-02 11:21:14.40	355.10	15.65	-37.6	-39.6	20.5	0.00e+00	0	39	0	3272605696	45	4875
2026-01-02 11:21:15.40	355.02	15.55	-37.7	-39.6	20.5	0.00e+00	0	39	0	3278897152	45	4904
2026-01-02 11:21:16.41	354.94	15.45	-37.8	-39.7	20.4	0.00e+00	0	39	0	3284140032	46	4705
2026-01-02 11:21:17.41	354.86	15.35	-37.9	-39.8	20.3	0.00e+00	0	39	0	3289382912	46	4733
2026-01-02 11:21:18.41	354.78	15.25	-38.0	-40.0	20.1	0.00e+00	0	39	0	3295674368	46	4825
2026-01-02 11:21:19.42	354.70	15.15	-38.1	-40.1	20.1	0.00e+00	0	39	0	3300917248	46	4875
2026-01-02 11:21:20.42	354.62	15.05	-38.0	-40.0	20.1	0.00e+00	0	39	0	3306160128	46	4826
2026-01-02 11:21:21.43	354.54	14.95	-38.1	-40.1	20.1	0.00e+00	0	39	0	3312451584	46	4873
2026-01-02 11:21:22.43	354.47	14.85	-38.1	-40.1	20.0	0.00e+00	0	39	0	3317694464	46	4890
2026-01-02 11:21:23.43	354.39	14.75	-38.1	-40.1	20.0	0.00e+00	0	39	0	3323985920	46	4920
2026-01-02 11:21:24.44	354.31	14.65	-38.2	-40.3	19.8	0.00e+00	0	39	0	3329228800	47	4725
2026-01-02 11:21:25.44	354.24	14.55	-38.0	-40.1	20.0	0.00e+00	0	39	0	3334471680	47	4617
2026-01-02 11:21:26.44	354.16	14.46	-38.1	-40.2	19.9	0.00e+00	0	39	0	3340763136	47	4660
2026-01-02 11:21:27.44	354.09	14.36	-38.0	-40.1	20.0	0.00e+00	0	39	0	3346006016	47	4606
2026-01-02 11:21:28.44	354.01	14.26	-38.1	-40.1	20.0	0.00e+00	0	39	0	3352297472	47	4625
2026-01-02 11:21:29.45	353.94	14.16	-38.1	-40.1	20.0	0.00e+00	0	39	0	3357540352	47	4604
2026-01-02 11:21:30.45	353.87	14.07	-38.1	-40.0	20.0	0.00e+00	0	39	0	3362783232	47	4579
2026-01-02 11:21:31.46	353.79	13.97	-38.0	-40.0	20.1	0.00e+00	0	39	0	3369074688	47	4552
2026-01-02 11:21:32.46	353.72	13.88	-37.9	-39.8	20.2	0.00e+00	0	39	0	3374317568	47	4485
2026-01-02 11:21:33.46	353.65	13.78	-38.1	-40.0	20.1	0.00e+00	0	39	0	3379560448	47	4569
2026-01-02 11:21:34.47	353.58	13.69	-38.1	-40.0	20.0	0.00e+00	0	39	0	3385851904	47	4574
2026-01-02 11:21:35.47	353.51	13.59	-38.0	-39.9	20.1	0.00e+00	0	39	0	3391094784	47	4505
2026-01-02 11:21:36.47	353.44	13.50	-37.9	-39.9	20.1	0.00e+00	0	39	0	3396337664	47	4508
2026-01-02 11:21:37.48	353.37	13.40	-37.9	-39.9	20.1	0.00e+00	0	39	0	3402629120	47	4532
2026-01-02 11:21:38.48	353.30	13.31	-37.9	-39.9	20.1	0.00e+00	0	39	0	3407872000	47	4541
2026-01-02 11:21:39.49	353.23	13.22	-37.9	-40.0	20.0	0.00e+00	0	39	0	3414163456	47	4586
2026-01-02 11:21:40.49	353.16	13.12	-37.9	-40.1	20.0	0.00e+00	0	39	0	3419406336	47	4605
2026-01-02 11:21:41.49	353.10	13.03	-37.8	-40.0	20.1	0.00e+00	0	39	0	3425697792	47	4552
2026-01-02 11:21:42.49	353.03	12.94	-37.8	-40.1	20.0	0.00e+00	0	39	0	3430940672	47	4602
2026-01-02 11:21:43.49	352.96	12.85	-37.8	-40.1	20.0	0.00e+00	0	39	0	3436183552	47	4612
2026-01-02 11:21:44.50	352.90	12.76	-37.9	-40.2	19.9	0.00e+00	0	39	0	3442475008	47	4674
2026-01-02 11:21:45.50	352.83	12.66	-37.8	-40.1	19.9	0.00e+00	0	39	0	3447717888	47	4632
2026-01-02 11:21:46.50	352.76	12.57	-37.9	-40.2	19.9	0.00e+00	0	39	0	3452960768	47	4675
2026-01-02 11:21:47.51	352.70	12.48	-38.0	-40.3	19.8	0.00e+00	0	39	0	3459252224	47	4723
2026-01-02 11:21:48.51	352.63	12.39	-38.0	-40.3	19.8	0.00e+00	0	39	0	3464495104	47	4736
2026-01-02 11:21:49.51	352.57	12.30	-38.1	-40.4	19.7	0.00e+00	0	39	0	3469737984	47	4779
2026-01-02 11:21:50.51	352.51	12.21	-38.1	-40.4	19.7	0.00e+00	0	39	0	3476029440	47	4770
2026-01-02 11:21:51.52	352.44	12.12	-38.2	-40.4	19.6	0.00e+00	0	39	0	3481272320	47	4807
2026-01-02 11:21:52.52	352.38	12.03	-38.3	-40.5	19.5	0.00e+00	0	39	0	3487563776	47	4862
2026-01-02 11:21:53.52	352.32	11.94	-38.3	-40.5	19.5	0.00e+00	0	39	0	3492806656	47	4825
2026-01-02 11:21:54.53	352.25	11.85	-38.4	-40.5	19.6	0.00e+00	0	39	0	3499098112	47	4825
2026-01-02 11:21:55.53	352.19	11.77	-38.4	-40.5	19.5	0.00e+00	0	39	0	3504340992	47	4864
2026-01-02 11:21:56.53	352.13	11.68	-38.5	-40.6	19.4	0.00e+00	0	39	0	3509583872	47	4903
2026-01-02 11:21:57.53	352.07	11.59	-38.5	-40.6	19.4	0.00e+00	0	39	0	3515875328	47	4908
2026-01-02 11:21:58.54	352.01	11.50	-38.5	-40.6	19.4	0.00e+00	0	39	0	3521118208	47	4898
2026-01-02 11:21:59.54	351.95	11.42	-38.5	-40.6	19.4	0.00e+00	0	39	0	3526361088	47	4914
2026-01-02 11:22:00.54	351.89	11.33	-38.6	-40.7	19.3	0.00e+00	0	39	0	3532652544	47	4965
2026-01-02 11:22:01.54	351.83	11.24	-38.5	-40.6	19.4	0.00e+00	0	39	0	3537895424	47	4919
2026-01-02 11:22:02.54	351.77	11.16	-38.4	-40.7	19.4	0.00e+00	0	39	0	3543138304	47	4933
2026-01-02 11:22:03.54	351.71	11.07	-38.4	-40.8	19.3	0.00e+00	0	39	0	3549429760	47	4990
2026-01-02 11:22:04.55	351.65	10.98	-38.4	-40.7	19.3	0.00e+00	0	39	0	3554672640	47	4969
2026-01-02 11:22:05.55	351.60	10.90	-38.4	-40.7	19.3	0.00e+00	0	39	0	3560964096	47	4966
2026-01-02 11:22:06.56	351.54	10.81	-38.5	-40.8	19.2	0.00e+00	0	39	0	3566206976	47	5021
2026-01-02 11:22:07.56	351.48	10.73	-38.3	-40.7	19.3	0.00e+00	0	39	0	3571449856	47	4928
2026-01-02 11:22:08.56	351.42	10.64	-38.4	-40.7	19.3	0.00e+00	0	39	0	3577741312	47	4929
2026-01-02 11:22:09.56	351.37	10.56	-38.5	-40.8	19.2	0.00e+00	0	39	0	3582984192	47	4990
2026-01-02 11:22:10.57	351.31	10.47	-38.6	-40.9	19.1	0.00e+00	0	39	0	3588227072	47	5066
2026-01-02 11:22:11.57	351.26	10.39	-38.5	-40.7	19.3	0.00e+00	0	39	0	3594518528	47	4968
2026-01-02 11:22:12.57	351.20	10.31	-38.8	-40.9	19.3	0.00e+00	0	39	0	3599761408	48	4813
2026-01-02 11:22:13.58	351.14	10.22	-38.8	-40.8	19.4	0.00e+00	0	39	0	3606052864	48	4759
2026-01-02 11:22:14.58	351.09	10.14	-38.8	-40.8	19.4	0.00e+00	0	39	0	3611295744	48	4736
2026-01-02 11:22:15.58	351.04	10.06	-38.9	-40.9	19.3	0.00e+00	0	39	0	3616538624	48	4805
2026-01-02 11:22:16.59	350.98	9.97	-38.8	-40.8	19.3	0.00e+00	0	39	0	3622830080	48	4748
2026-01-02 11:22:17.59	350.93	9.89	-38.9	-41.0	19.2	0.00e+00	0	39	0	3628072960	48	4835
2026-01-02 11:22:18.59	350.87	9.81	-39.0	-41.0	19.2	0.00e+00	0	39	0	3634364416	48	4848
2026-01-02 11:22:19.60	350.82	9.73	-38.9	-40.9	19.3	0.00e+00	0	39	0	3639607296	48	4784
2026-01-02 11:22:20.60	350.77	9.64	-38.9	-41.0	19.2	0.00e+00	0	39	0	3644850176	48	4837
2026-01-02 11:22:21.60	350.71	9.56	-38.9	-41.1	19.1	0.00e+00	0	39	0	3651141632	48	4916
2026-01-02 11:22:22.61	350.66	9.48	-38.9	-41.0	19.1	0.00e+00	0	39	0	3656384512	48	4857
2026-01-02 11:22:23.61	350.61	9.40	-39.0	-41.2	19.0	0.00e+00	0	39	0	3661627392	48	4955
