passes_logs/2026/01/02/T1/T1__20260102_121404_NOAA_20_JPSS-1_rec.log

#Pass ID: 20260102_121404_NOAA 20 (JPSS-1)
#Satellite: NOAA 20 (JPSS-1)
#Configuration: NOAA 20
#almurnet v.1.7.20251203
#Start time: 2026-01-02 12:14:05

#Version: 2.0.20230620
#Station: T1
#Location: 37.570604 lon 55.790049 lat
#TLE: 1 43013U 17073A   26001.30344297  .00000183  00000+0  10758-3 0  9995
#TLE: 2 43013  98.7621 302.3885 0001938  59.1624 300.9742 14.19532032420790

#Time	Az	El	Level	Level2	SNR	BER	BlckErr	Temp	State	Recorded	gain1	gain2
2026-01-02 12:14:05.01	241.73	5.01	-48.2	-63.9	3.8	1.49e+00	0	39	0	0	68	21383
2026-01-02 12:14:06.01	241.86	5.05	-48.2	-63.9	3.8	1.49e+00	0	39	104	0	68	21361
2026-01-02 12:14:07.02	241.98	5.09	-48.1	-63.9	3.8	1.49e+00	0	39	104	0	68	21277
2026-01-02 12:14:08.02	242.11	5.14	-48.2	-63.9	3.8	1.49e+00	0	39	104	0	68	21388
2026-01-02 12:14:09.03	242.24	5.18	-48.2	-63.9	3.8	1.49e+00	0	39	104	0	68	21318
2026-01-02 12:14:10.03	242.37	5.22	-48.2	-63.9	3.8	1.49e+00	0	39	104	0	68	21299
2026-01-02 12:14:11.03	242.49	5.26	-48.1	-63.9	3.8	1.49e+00	0	39	104	0	68	21344
2026-01-02 12:14:12.04	242.62	5.30	-48.2	-63.9	3.8	1.49e+00	0	39	104	0	68	21267
2026-01-02 12:14:13.04	242.75	5.34	-48.2	-63.9	3.8	1.49e+00	0	40	104	0	68	21337
2026-01-02 12:14:14.05	242.88	5.38	-48.2	-63.9	3.8	1.49e+00	0	40	104	0	68	21261
2026-01-02 12:14:15.05	243.01	5.42	-48.2	-63.9	3.8	1.49e+00	0	40	104	0	68	21288
2026-01-02 12:14:16.06	243.14	5.46	-48.1	-63.9	3.8	1.49e+00	0	39	104	0	68	21330
2026-01-02 12:14:17.06	243.27	5.50	-48.2	-63.9	3.8	1.49e+00	0	40	104	0	68	21371
2026-01-02 12:14:18.07	243.40	5.54	-48.2	-63.9	3.8	1.49e+00	0	40	104	0	68	21359
2026-01-02 12:14:19.07	243.53	5.58	-48.1	-63.9	3.8	1.49e+00	0	40	104	0	68	21327
2026-01-02 12:14:20.08	243.66	5.62	-48.2	-63.9	3.8	1.49e+00	0	39	104	0	68	21272
2026-01-02 12:14:21.08	243.79	5.66	-48.1	-63.8	3.8	1.49e+00	0	40	104	0	68	21234
2026-01-02 12:14:22.08	243.92	5.70	-48.1	-63.9	3.8	1.49e+00	0	40	104	0	68	21305
2026-01-02 12:14:23.09	244.05	5.74	-48.1	-63.8	3.8	1.49e+00	0	40	104	0	68	21225
2026-01-02 12:14:24.09	244.18	5.78	-48.1	-63.8	3.8	1.49e+00	0	40	104	0	68	21258
2026-01-02 12:14:25.10	244.32	5.82	-48.1	-63.8	3.8	1.49e+00	0	40	104	0	68	21210
2026-01-02 12:14:26.10	244.45	5.86	-48.1	-63.8	3.8	1.49e+00	0	40	104	0	68	21170
2026-01-02 12:14:27.11	244.58	5.90	-48.1	-63.8	3.8	1.49e+00	0	40	104	0	68	21124
2026-01-02 12:14:28.11	244.72	5.94	-48.1	-63.8	3.8	1.49e+00	0	40	104	0	68	21165
2026-01-02 12:14:29.12	244.85	5.98	-48.1	-63.8	3.8	1.49e+00	0	40	104	0	68	21182
2026-01-02 12:14:30.12	244.99	6.02	-48.2	-63.8	3.8	1.49e+00	0	40	104	0	68	21180
2026-01-02 12:14:31.13	245.12	6.06	-48.2	-63.8	3.8	1.49e+00	0	40	104	0	68	21125
2026-01-02 12:14:32.13	245.26	6.10	-48.2	-63.8	3.8	1.49e+00	0	40	104	0	68	21060
2026-01-02 12:14:33.14	245.39	6.14	-48.1	-63.8	3.8	1.49e+00	0	40	104	0	68	21088
2026-01-02 12:14:34.14	245.53	6.17	-48.1	-63.8	3.8	1.49e+00	0	40	104	0	68	21126
2026-01-02 12:14:35.14	245.66	6.21	-48.1	-63.8	3.8	1.49e+00	0	40	104	0	68	21108
2026-01-02 12:14:36.15	245.80	6.25	-48.1	-63.7	3.8	1.49e+00	0	41	104	0	68	20997
2026-01-02 12:14:37.15	245.94	6.29	-48.0	-63.7	3.8	1.49e+00	0	41	104	0	68	20979
2026-01-02 12:14:38.16	246.07	6.33	-48.1	-63.8	3.8	1.49e+00	0	40	104	0	68	21067
2026-01-02 12:14:39.16	246.21	6.37	-48.1	-63.8	3.8	1.49e+00	0	40	104	0	68	21040
2026-01-02 12:14:40.17	246.35	6.41	-48.0	-63.8	3.8	1.49e+00	0	41	104	0	68	21068
2026-01-02 12:14:41.17	246.49	6.45	-48.0	-63.7	3.8	1.49e+00	0	40	104	0	68	20998
2026-01-02 12:14:42.18	246.63	6.48	-48.0	-63.7	3.8	1.49e+00	0	40	104	0	68	20965
2026-01-02 12:14:43.18	246.76	6.52	-47.9	-63.6	3.8	1.49e+00	0	40	104	0	67	21789
2026-01-02 12:14:44.18	246.90	6.56	-47.8	-63.5	3.8	1.49e+00	0	41	104	0	67	21723
2026-01-02 12:14:45.19	247.04	6.60	-47.9	-63.6	3.8	1.49e+00	0	40	104	0	67	21790
2026-01-02 12:14:46.19	247.18	6.64	-47.8	-63.5	3.8	1.49e+00	0	41	104	0	67	21707
2026-01-02 12:14:47.20	247.32	6.68	-47.8	-63.5	3.8	1.49e+00	0	41	104	0	67	21753
2026-01-02 12:14:48.20	247.46	6.71	-47.9	-63.5	3.8	1.49e+00	0	41	104	0	67	21713
2026-01-02 12:14:49.21	247.61	6.75	-47.8	-63.5	3.8	1.49e+00	0	41	104	0	67	21676
2026-01-02 12:14:50.21	247.75	6.79	-47.9	-63.5	3.8	1.49e+00	0	41	104	0	67	21739
2026-01-02 12:14:51.21	247.89	6.83	-47.8	-63.5	3.8	1.49e+00	0	41	104	0	67	21644
2026-01-02 12:14:52.22	248.03	6.86	-47.8	-63.5	3.8	1.49e+00	0	41	104	0	67	21641
2026-01-02 12:14:53.22	248.17	6.90	-47.8	-63.5	3.8	1.49e+00	0	41	104	0	67	21666
2026-01-02 12:14:54.23	248.32	6.94	-47.8	-63.5	3.8	1.49e+00	0	41	104	0	67	21665
2026-01-02 12:14:55.23	248.46	6.98	-47.8	-63.5	3.8	1.49e+00	0	41	104	0	67	21741
2026-01-02 12:14:56.24	248.60	7.01	-47.8	-63.5	3.8	1.49e+00	0	41	104	0	67	21706
2026-01-02 12:14:57.24	248.75	7.05	-47.8	-63.5	3.8	1.49e+00	0	41	104	0	67	21691
2026-01-02 12:14:58.24	248.89	7.09	-47.8	-63.5	3.8	1.49e+00	0	41	104	0	67	21699
2026-01-02 12:14:59.25	249.03	7.13	-47.8	-63.5	3.8	1.49e+00	0	41	104	0	67	21683
2026-01-02 12:15:00.25	249.18	7.16	-47.9	-63.5	3.8	1.49e+00	0	41	104	0	67	21564
2026-01-02 12:15:01.26	249.32	7.20	-47.9	-63.5	3.8	1.49e+00	0	41	104	0	67	21698
2026-01-02 12:15:02.26	249.47	7.24	-47.8	-63.5	3.8	1.49e+00	0	41	104	0	67	21525
2026-01-02 12:15:03.26	249.62	7.27	-47.9	-63.5	3.8	1.49e+00	0	41	104	0	67	21553
2026-01-02 12:15:04.27	249.76	7.31	-47.8	-63.5	3.8	1.49e+00	0	41	104	0	67	21523
2026-01-02 12:15:05.27	249.91	7.34	-47.8	-63.4	3.8	1.49e+00	0	41	104	0	67	21487
2026-01-02 12:15:06.28	250.06	7.38	-47.8	-63.4	3.8	1.49e+00	0	41	104	0	67	21440
2026-01-02 12:15:07.28	250.20	7.42	-47.8	-63.4	3.8	1.49e+00	0	41	104	0	67	21363
2026-01-02 12:15:08.29	250.35	7.45	-47.8	-63.4	3.8	1.49e+00	0	41	104	0	67	21383
2026-01-02 12:15:09.29	250.50	7.49	-47.7	-63.4	3.8	1.49e+00	0	41	104	0	67	21410
2026-01-02 12:15:10.29	250.65	7.52	-47.8	-63.4	3.8	1.49e+00	0	41	104	0	67	21382
2026-01-02 12:15:11.30	250.80	7.56	-47.7	-63.4	3.8	1.49e+00	0	41	104	0	67	21329
2026-01-02 12:15:12.30	250.94	7.60	-47.7	-63.4	3.8	1.49e+00	0	41	104	0	67	21466
2026-01-02 12:15:13.31	251.10	7.63	-47.8	-63.4	3.8	1.49e+00	0	41	104	0	67	21414
2026-01-02 12:15:14.31	251.24	7.67	-47.7	-63.4	3.8	1.49e+00	0	41	104	0	67	21354
2026-01-02 12:15:15.32	251.40	7.70	-47.7	-63.4	3.8	1.49e+00	0	41	104	0	67	21360
2026-01-02 12:15:16.32	251.55	7.74	-47.7	-63.3	3.8	1.49e+00	0	41	104	0	67	21199
2026-01-02 12:15:17.33	251.70	7.77	-47.8	-63.4	3.8	1.49e+00	0	41	104	0	67	21287
2026-01-02 12:15:18.33	251.85	7.81	-47.7	-63.3	3.8	1.49e+00	0	41	104	0	67	21235
2026-01-02 12:15:19.33	252.00	7.84	-47.8	-63.4	3.8	1.49e+00	0	41	104	0	67	21286
2026-01-02 12:15:20.34	252.15	7.87	-47.7	-63.4	3.8	1.49e+00	0	41	104	0	67	21353
2026-01-02 12:15:21.34	252.30	7.91	-47.7	-63.4	3.8	1.49e+00	0	41	104	0	67	21322
2026-01-02 12:15:22.34	252.45	7.94	-47.8	-63.4	3.8	1.49e+00	0	41	104	0	67	21326
2026-01-02 12:15:23.35	252.61	7.98	-47.7	-63.4	3.8	1.49e+00	0	41	104	0	67	21347
2026-01-02 12:15:24.35	252.76	8.01	-47.7	-63.3	3.8	1.49e+00	0	41	104	0	67	21237
2026-01-02 12:15:25.36	252.92	8.05	-47.7	-63.3	3.8	1.49e+00	0	41	104	0	67	21149
2026-01-02 12:15:26.36	253.07	8.08	-47.6	-63.3	3.8	1.49e+00	0	41	104	0	67	21041
2026-01-02 12:15:27.37	253.22	8.11	-47.7	-63.2	3.8	1.49e+00	0	41	104	0	67	20927
2026-01-02 12:15:28.37	253.38	8.15	-47.6	-63.2	3.8	1.49e+00	0	41	104	0	67	20861
2026-01-02 12:15:29.38	253.53	8.18	-47.6	-63.2	3.8	1.49e+00	0	41	104	0	67	20837
2026-01-02 12:15:30.38	253.69	8.21	-47.6	-63.2	3.8	1.49e+00	0	41	104	0	67	20830
2026-01-02 12:15:31.38	253.84	8.25	-47.6	-63.2	3.8	1.49e+00	0	41	104	0	67	20828
2026-01-02 12:15:32.39	254.00	8.28	-47.7	-63.2	3.8	1.49e+00	0	41	104	0	67	20799
2026-01-02 12:15:33.39	254.16	8.31	-47.6	-63.1	3.8	1.49e+00	0	41	104	0	67	20764
2026-01-02 12:15:34.40	254.31	8.34	-47.7	-63.1	3.8	1.49e+00	0	41	104	0	67	20600
2026-01-02 12:15:35.40	254.47	8.38	-47.6	-63.0	3.8	1.49e+00	0	41	104	0	67	20372
2026-01-02 12:15:36.40	254.63	8.41	-47.7	-62.8	3.8	1.49e+00	0	41	104	0	67	20049
2026-01-02 12:15:37.41	254.79	8.44	-47.6	-62.6	3.8	1.49e+00	0	41	104	0	67	19600
2026-01-02 12:15:38.41	254.94	8.47	-47.6	-62.2	3.8	1.49e+00	0	42	104	0	67	18546
2026-01-02 12:15:39.41	255.10	8.51	-47.6	-61.0	3.8	1.49e+00	0	41	104	0	67	16137
2026-01-02 12:15:40.42	255.26	8.54	-47.4	-59.5	4.3	1.46e+00	0	41	104	0	66	14408
2026-01-02 12:15:41.42	255.42	8.57	-47.3	-58.5	4.6	1.10e+00	0	41	0	1048576	66	12938
2026-01-02 12:15:42.43	255.58	8.60	-47.3	-58.4	4.7	8.72e-01	0	42	0	3145728	66	12679
2026-01-02 12:15:43.43	255.74	8.63	-47.5	-59.6	4.3	1.18e+00	0	41	0	4194304	66	14546
2026-01-02 12:15:44.44	255.90	8.66	-47.6	-62.3	3.8	1.49e+00	0	41	104	4194304	66	20000
2026-01-02 12:15:45.44	256.06	8.69	-47.7	-62.2	3.8	1.49e+00	0	42	104	4194304	66	19644
2026-01-02 12:15:46.45	256.22	8.73	-47.1	-56.6	5.7	7.42e-01	0	42	0	4194304	66	10324
2026-01-02 12:15:47.45	256.38	8.76	-46.2	-52.5	9.4	5.87e-02	0	42	0	6291456	64	7269
2026-01-02 12:15:48.45	256.54	8.79	-45.2	-49.9	12.3	1.73e-03	0	41	0	7340032	62	6041
2026-01-02 12:15:49.46	256.70	8.82	-44.4	-48.4	13.9	3.81e-05	0	42	0	9437184	60	5663
2026-01-02 12:15:50.46	256.87	8.85	-43.9	-47.6	14.6	7.00e-07	0	42	0	11534336	59	5491
2026-01-02 12:15:51.47	257.03	8.88	-44.0	-47.6	14.6	7.00e-07	0	42	0	13631488	59	5526
2026-01-02 12:15:52.47	257.19	8.91	-44.4	-48.3	13.9	0.00e+00	0	41	0	15728640	59	5961
2026-01-02 12:15:53.48	257.35	8.94	-44.9	-49.3	12.9	2.36e-05	0	42	0	16777216	60	6334
2026-01-02 12:15:54.48	257.52	8.97	-45.6	-50.9	11.3	4.08e-04	0	42	0	18874368	61	7176
2026-01-02 12:15:55.49	257.68	9.00	-46.3	-52.7	9.4	4.85e-03	0	42	0	20971520	63	7862
2026-01-02 12:15:56.49	257.84	9.02	-47.8	-59.4	4.9	3.48e-02	0	42	0	23068672	66	14341
2026-01-02 12:15:57.49	258.01	9.05	-48.0	-61.7	3.8	1.49e+00	0	42	104	23068672	66	18535
2026-01-02 12:15:58.50	258.17	9.08	-46.6	-54.5	7.4	5.43e-01	0	42	0	24117248	64	9119
2026-01-02 12:15:59.50	258.34	9.11	-46.3	-52.4	9.5	1.21e-01	0	42	0	25165824	64	7196
2026-01-02 12:16:00.50	258.50	9.14	-46.5	-52.8	9.6	1.06e-03	0	42	0	27262976	63	7962
2026-01-02 12:16:01.50	258.67	9.17	-47.0	-54.6	7.2	5.83e-01	0	42	0	29360128	65	8702
2026-01-02 12:16:02.51	258.83	9.20	-45.0	-49.1	13.1	3.93e-04	0	42	0	31457280	62	5521
2026-01-02 12:16:03.51	259.00	9.22	-44.5	-48.2	14.1	3.00e-06	0	42	0	33554432	60	5589
2026-01-02 12:16:04.51	259.16	9.25	-44.6	-48.4	13.9	2.20e-06	0	41	0	34603008	60	5707
2026-01-02 12:16:05.52	259.33	9.28	-44.6	-48.5	13.8	6.80e-06	0	42	0	36700160	60	5768
2026-01-02 12:16:06.52	259.50	9.31	-44.5	-48.4	13.9	3.80e-06	0	42	0	38797312	60	5670
2026-01-02 12:16:07.52	259.67	9.33	-44.1	-47.7	14.7	0.00e+00	0	42	0	40894464	60	5236
2026-01-02 12:16:08.53	259.83	9.36	-43.8	-47.2	15.0	0.00e+00	0	42	0	42991616	59	5271
2026-01-02 12:16:09.53	260.00	9.39	-43.8	-47.3	15.0	0.00e+00	0	42	0	44040192	59	5288
2026-01-02 12:16:10.53	260.17	9.42	-43.9	-47.4	14.9	7.00e-07	0	42	0	46137344	59	5376
2026-01-02 12:16:11.53	260.34	9.44	-43.7	-47.1	15.2	0.00e+00	0	42	0	48234496	59	5205
2026-01-02 12:16:12.54	260.51	9.47	-43.6	-47.0	15.3	0.00e+00	0	42	0	50331648	59	5108
2026-01-02 12:16:13.54	260.67	9.49	-43.6	-46.9	15.4	0.00e+00	0	42	0	52428800	59	5061
2026-01-02 12:16:14.54	260.84	9.52	-43.6	-46.9	15.4	0.00e+00	0	41	0	53477376	59	5064
2026-01-02 12:16:15.54	261.01	9.55	-43.6	-46.9	15.4	0.00e+00	0	42	0	55574528	59	5060
2026-01-02 12:16:16.55	261.18	9.57	-43.6	-46.9	15.4	0.00e+00	0	42	0	57671680	59	5096
2026-01-02 12:16:17.55	261.35	9.60	-43.5	-46.8	15.5	0.00e+00	0	41	0	59768832	59	5010
2026-01-02 12:16:18.55	261.52	9.62	-43.6	-46.8	15.5	0.00e+00	0	42	0	60817408	59	5032
2026-01-02 12:16:19.56	261.69	9.65	-43.6	-46.9	15.4	0.00e+00	0	42	0	62914560	59	5065
2026-01-02 12:16:20.56	261.86	9.67	-43.6	-46.9	15.4	0.00e+00	0	42	0	65011712	59	5059
2026-01-02 12:16:21.56	262.04	9.70	-43.6	-46.9	15.4	0.00e+00	0	42	0	67108864	59	5047
2026-01-02 12:16:22.57	262.21	9.72	-43.6	-46.9	15.4	0.00e+00	0	42	0	69206016	59	5091
2026-01-02 12:16:23.57	262.38	9.75	-43.6	-47.0	15.3	0.00e+00	0	41	0	71303168	59	5146
2026-01-02 12:16:24.57	262.55	9.77	-43.6	-47.0	15.3	0.00e+00	0	42	0	72351744	59	5146
2026-01-02 12:16:25.58	262.72	9.79	-43.6	-47.2	15.1	0.00e+00	0	42	0	74448896	59	5241
2026-01-02 12:16:26.58	262.90	9.82	-43.6	-47.2	15.1	0.00e+00	0	42	0	76546048	59	5268
2026-01-02 12:16:27.58	263.07	9.84	-43.5	-47.2	15.1	0.00e+00	0	42	0	78643200	59	5238
2026-01-02 12:16:28.58	263.24	9.86	-43.4	-47.0	15.3	0.00e+00	0	42	0	79691776	58	5456
2026-01-02 12:16:29.59	263.42	9.89	-43.4	-47.0	15.3	0.00e+00	0	42	0	81788928	58	5423
2026-01-02 12:16:30.59	263.59	9.91	-43.4	-46.9	15.4	0.00e+00	0	42	0	83886080	58	5375
2026-01-02 12:16:31.58	263.76	9.93	-43.4	-46.9	15.4	0.00e+00	0	42	0	85983232	58	5376
2026-01-02 12:16:32.58	263.93	9.95	-43.5	-47.0	15.3	0.00e+00	0	42	0	88080384	58	5415
2026-01-02 12:16:33.58	264.11	9.98	-43.4	-46.8	15.5	0.00e+00	0	42	0	89128960	58	5304
2026-01-02 12:16:34.59	264.28	10.00	-43.4	-46.7	15.6	0.00e+00	0	42	0	91226112	58	5247
2026-01-02 12:16:35.59	264.46	10.02	-43.4	-46.7	15.7	0.00e+00	0	42	0	93323264	58	5228
2026-01-02 12:16:36.59	264.63	10.04	-43.5	-46.7	15.6	0.00e+00	0	42	0	95420416	58	5252
2026-01-02 12:16:37.60	264.81	10.06	-43.5	-46.7	15.6	0.00e+00	0	42	0	97517568	58	5267
2026-01-02 12:16:38.60	264.98	10.08	-43.4	-46.6	15.7	0.00e+00	0	42	0	98566144	58	5192
2026-01-02 12:16:39.60	265.16	10.10	-43.5	-46.6	15.7	0.00e+00	0	42	0	100663296	58	5210
2026-01-02 12:16:40.60	265.33	10.12	-43.4	-46.6	15.8	0.00e+00	0	42	0	102760448	58	5170
2026-01-02 12:16:41.61	265.51	10.14	-43.5	-46.7	15.7	0.00e+00	0	42	0	104857600	58	5237
2026-01-02 12:16:42.61	265.69	10.16	-43.5	-46.7	15.7	0.00e+00	0	42	0	106954752	58	5227
2026-01-02 12:16:43.61	265.86	10.18	-43.5	-46.6	15.7	0.00e+00	0	42	0	108003328	58	5199
2026-01-02 12:16:44.62	266.04	10.20	-43.5	-46.7	15.6	0.00e+00	0	42	0	110100480	58	5248
2026-01-02 12:16:45.62	266.22	10.22	-43.5	-46.7	15.6	0.00e+00	0	42	0	112197632	58	5247
2026-01-02 12:16:46.62	266.40	10.24	-43.5	-46.7	15.6	0.00e+00	0	42	0	114294784	58	5274
2026-01-02 12:16:47.62	266.57	10.26	-43.4	-46.6	15.7	0.00e+00	0	42	0	116391936	58	5174
2026-01-02 12:16:48.62	266.75	10.28	-43.4	-46.5	15.8	0.00e+00	0	42	0	117440512	58	5139
2026-01-02 12:16:49.63	266.93	10.30	-43.4	-46.5	15.8	0.00e+00	0	42	0	119537664	58	5141
2026-01-02 12:16:50.63	267.11	10.32	-43.3	-46.4	16.0	0.00e+00	0	42	0	121634816	58	5056
2026-01-02 12:16:51.63	267.29	10.34	-43.2	-46.2	16.1	0.00e+00	0	42	0	123731968	58	4974
2026-01-02 12:16:52.63	267.46	10.35	-43.2	-46.2	16.1	0.00e+00	0	42	0	124780544	58	4970
2026-01-02 12:16:53.64	267.64	10.37	-43.2	-46.2	16.1	0.00e+00	0	42	0	126877696	58	4977
2026-01-02 12:16:54.64	267.82	10.39	-43.1	-46.1	16.2	0.00e+00	0	42	0	128974848	58	4923
2026-01-02 12:16:55.64	268.00	10.41	-43.1	-46.1	16.2	0.00e+00	0	42	0	131072000	58	4906
2026-01-02 12:16:56.65	268.18	10.42	-43.1	-46.2	16.1	0.00e+00	0	42	0	133169152	58	4977
2026-01-02 12:16:57.65	268.36	10.44	-43.3	-46.4	16.0	0.00e+00	0	42	0	134217728	58	5098
2026-01-02 12:16:58.66	268.54	10.46	-43.2	-46.3	16.0	0.00e+00	0	42	0	136314880	58	5035
2026-01-02 12:16:59.66	268.72	10.47	-43.2	-46.3	16.0	0.00e+00	0	42	0	138412032	58	5003
2026-01-02 12:17:00.66	268.90	10.49	-43.3	-46.4	16.0	0.00e+00	0	42	0	140509184	58	5070
2026-01-02 12:17:01.67	269.08	10.50	-43.4	-46.5	15.9	0.00e+00	0	42	0	142606336	58	5128
2026-01-02 12:17:02.67	269.26	10.52	-43.4	-46.5	15.8	0.00e+00	0	42	0	143654912	58	5148
2026-01-02 12:17:03.67	269.44	10.53	-43.5	-46.6	15.8	0.00e+00	0	42	0	145752064	58	5174
2026-01-02 12:17:04.67	269.62	10.55	-43.5	-46.6	15.7	0.00e+00	0	42	0	147849216	58	5211
2026-01-02 12:17:05.68	269.81	10.56	-43.5	-46.6	15.7	0.00e+00	0	42	0	149946368	58	5197
2026-01-02 12:17:06.68	269.99	10.58	-43.4	-46.6	15.8	0.00e+00	0	42	0	152043520	58	5188
2026-01-02 12:17:07.68	270.17	10.59	-43.5	-46.6	15.8	0.00e+00	0	42	0	153092096	58	5186
2026-01-02 12:17:08.69	270.35	10.61	-43.5	-46.6	15.8	0.00e+00	0	42	0	155189248	58	5189
2026-01-02 12:17:09.69	270.53	10.62	-43.4	-46.6	15.8	0.00e+00	0	42	0	157286400	58	5168
2026-01-02 12:17:10.69	270.72	10.63	-43.5	-46.6	15.8	0.00e+00	0	42	0	159383552	58	5185
2026-01-02 12:17:11.70	270.90	10.65	-43.5	-46.7	15.7	0.00e+00	0	42	0	161480704	58	5221
2026-01-02 12:17:12.70	271.08	10.66	-43.5	-46.6	15.7	0.00e+00	0	42	0	162529280	58	5211
2026-01-02 12:17:13.71	271.26	10.67	-43.5	-46.7	15.7	0.00e+00	0	42	0	164626432	58	5250
2026-01-02 12:17:14.71	271.45	10.69	-43.6	-46.9	15.4	0.00e+00	0	42	0	166723584	58	5372
2026-01-02 12:17:15.71	271.63	10.70	-43.6	-46.9	15.4	0.00e+00	0	42	0	168820736	58	5392
2026-01-02 12:17:16.72	271.81	10.71	-43.7	-47.0	15.3	0.00e+00	0	42	0	170917888	58	5463
2026-01-02 12:17:17.72	272.00	10.72	-43.8	-47.1	15.2	0.00e+00	0	42	0	171966464	58	5519
2026-01-02 12:17:18.73	272.18	10.73	-43.8	-47.2	15.2	0.00e+00	0	42	0	174063616	58	5557
2026-01-02 12:17:19.73	272.36	10.75	-43.8	-47.2	15.2	0.00e+00	0	42	0	176160768	58	5560
2026-01-02 12:17:20.74	272.55	10.76	-43.8	-47.2	15.2	0.00e+00	0	42	0	178257920	58	5563
2026-01-02 12:17:21.74	272.73	10.77	-43.8	-47.2	15.2	0.00e+00	0	42	0	180355072	58	5547
2026-01-02 12:17:22.74	272.91	10.78	-43.9	-47.3	15.0	0.00e+00	0	42	0	181403648	58	5642
2026-01-02 12:17:23.74	273.10	10.79	-43.9	-47.3	15.1	0.00e+00	0	42	0	183500800	58	5624
2026-01-02 12:17:24.75	273.28	10.80	-44.0	-47.4	15.0	0.00e+00	0	42	0	185597952	58	5684
2026-01-02 12:17:25.75	273.47	10.81	-44.0	-47.4	14.9	0.00e+00	0	42	0	187695104	58	5699
2026-01-02 12:17:26.76	273.65	10.82	-44.1	-47.5	14.9	0.00e+00	0	42	0	189792256	58	5766
2026-01-02 12:17:27.76	273.84	10.83	-44.1	-47.5	14.9	0.00e+00	0	42	0	190840832	58	5774
2026-01-02 12:17:28.76	274.02	10.84	-44.1	-47.6	14.8	0.00e+00	0	42	0	192937984	58	5827
2026-01-02 12:17:29.77	274.21	10.84	-44.1	-47.5	14.8	0.00e+00	0	42	0	195035136	59	5445
2026-01-02 12:17:30.77	274.39	10.85	-44.1	-47.6	14.8	0.00e+00	0	42	0	197132288	59	5469
2026-01-02 12:17:31.77	274.57	10.86	-44.1	-47.6	14.8	7.00e-07	0	42	0	198180864	59	5471
2026-01-02 12:17:32.78	274.76	10.87	-44.2	-47.6	14.7	0.00e+00	0	42	0	200278016	59	5520
2026-01-02 12:17:33.78	274.94	10.88	-44.2	-47.6	14.7	1.50e-06	0	42	0	202375168	59	5521
2026-01-02 12:17:34.78	275.13	10.88	-44.1	-47.6	14.8	7.00e-07	0	42	0	204472320	59	5468
2026-01-02 12:17:35.79	275.31	10.89	-44.1	-47.5	14.8	7.00e-07	0	42	0	206569472	59	5455
2026-01-02 12:17:36.79	275.50	10.90	-44.1	-47.5	14.9	0.00e+00	0	42	0	207618048	59	5420
2026-01-02 12:17:37.79	275.68	10.90	-44.0	-47.4	15.0	0.00e+00	0	42	0	209715200	59	5354
2026-01-02 12:17:38.80	275.87	10.91	-44.0	-47.3	15.0	0.00e+00	0	42	0	211812352	59	5321
2026-01-02 12:17:39.80	276.06	10.92	-44.0	-47.4	15.0	0.00e+00	0	42	0	213909504	59	5355
2026-01-02 12:17:40.80	276.24	10.92	-44.0	-47.3	15.0	0.00e+00	0	42	0	216006656	59	5319
2026-01-02 12:17:41.81	276.43	10.93	-43.8	-47.1	15.2	0.00e+00	0	42	0	217055232	59	5214
2026-01-02 12:17:42.81	276.61	10.93	-43.9	-47.3	15.1	0.00e+00	0	42	0	219152384	59	5297
2026-01-02 12:17:43.81	276.80	10.94	-43.9	-47.2	15.1	0.00e+00	0	42	0	221249536	59	5270
2026-01-02 12:17:44.82	276.98	10.94	-43.9	-47.3	15.1	0.00e+00	0	42	0	223346688	59	5295
2026-01-02 12:17:45.82	277.17	10.95	-43.9	-47.3	15.0	0.00e+00	0	42	0	225443840	59	5337
2026-01-02 12:17:46.82	277.36	10.95	-43.9	-47.3	15.0	0.00e+00	0	42	0	226492416	59	5321
2026-01-02 12:17:47.83	277.54	10.96	-43.8	-47.2	15.1	0.00e+00	0	42	0	228589568	59	5271
2026-01-02 12:17:48.83	277.73	10.96	-43.9	-47.2	15.2	0.00e+00	0	42	0	230686720	59	5265
2026-01-02 12:17:49.83	277.91	10.96	-43.9	-47.2	15.2	0.00e+00	0	42	0	232783872	59	5249
2026-01-02 12:17:50.84	278.10	10.97	-43.8	-47.2	15.2	0.00e+00	0	42	0	234881024	59	5228
2026-01-02 12:17:51.84	278.29	10.97	-43.7	-47.0	15.4	0.00e+00	0	42	0	235929600	59	5131
2026-01-02 12:17:52.84	278.47	10.97	-43.8	-47.1	15.3	7.00e-07	0	42	0	238026752	59	5191
2026-01-02 12:17:53.85	278.66	10.97	-43.7	-46.9	15.4	0.00e+00	0	42	0	240123904	59	5088
2026-01-02 12:17:54.85	278.84	10.98	-43.7	-46.9	15.4	0.00e+00	0	42	0	242221056	59	5087
2026-01-02 12:17:55.85	279.03	10.98	-43.7	-46.9	15.5	0.00e+00	0	42	0	244318208	59	5073
2026-01-02 12:17:56.85	279.22	10.98	-43.6	-46.8	15.5	0.00e+00	0	42	0	245366784	59	5040
2026-01-02 12:17:57.86	279.40	10.98	-43.5	-46.7	15.7	0.00e+00	0	42	0	247463936	59	4967
2026-01-02 12:17:58.86	279.59	10.98	-43.6	-46.8	15.5	0.00e+00	0	42	0	249561088	59	5033
2026-01-02 12:17:59.86	279.77	10.98	-43.5	-46.7	15.6	0.00e+00	0	42	0	251658240	59	4976
2026-01-02 12:18:00.87	279.96	10.98	-43.5	-46.8	15.6	0.00e+00	0	42	0	253755392	59	4984
2026-01-02 12:18:01.87	280.15	10.98	-43.6	-46.8	15.6	0.00e+00	0	42	0	254803968	59	5016
2026-01-02 12:18:02.87	280.33	10.98	-43.7	-46.9	15.5	0.00e+00	0	42	0	256901120	59	5055
2026-01-02 12:18:03.87	280.52	10.98	-43.8	-47.0	15.5	0.00e+00	0	42	0	258998272	59	5112
2026-01-02 12:18:04.88	280.71	10.98	-43.8	-47.1	15.3	0.00e+00	0	42	0	261095424	59	5166
2026-01-02 12:18:05.88	280.89	10.98	-43.7	-46.8	15.5	0.00e+00	0	42	0	262144000	59	5028
2026-01-02 12:18:06.88	281.08	10.98	-43.7	-46.9	15.5	0.00e+00	0	42	0	264241152	59	5063
2026-01-02 12:18:07.89	281.26	10.98	-43.7	-46.9	15.5	0.00e+00	0	42	0	266338304	59	5049
2026-01-02 12:18:08.89	281.45	10.98	-43.6	-46.7	15.6	0.00e+00	0	42	0	268435456	59	4970
2026-01-02 12:18:09.89	281.64	10.97	-43.6	-46.7	15.6	0.00e+00	0	42	0	270532608	59	4957
2026-01-02 12:18:10.90	281.82	10.97	-43.6	-46.8	15.6	0.00e+00	0	42	0	271581184	59	5001
2026-01-02 12:18:11.90	282.01	10.97	-43.6	-46.8	15.6	0.00e+00	0	42	0	273678336	59	5014
2026-01-02 12:18:12.90	282.19	10.97	-43.5	-46.7	15.7	0.00e+00	0	42	0	275775488	59	4938
2026-01-02 12:18:13.90	282.38	10.96	-43.5	-46.6	15.8	0.00e+00	0	42	0	277872640	59	4883
2026-01-02 12:18:14.91	282.57	10.96	-43.2	-46.1	16.3	0.00e+00	0	42	0	279969792	58	4898
2026-01-02 12:18:15.91	282.75	10.96	-43.0	-45.8	16.5	0.00e+00	0	42	0	281018368	58	4738
2026-01-02 12:18:16.91	282.94	10.95	-43.0	-45.8	16.6	0.00e+00	0	42	0	283115520	57	5023
2026-01-02 12:18:17.91	283.12	10.95	-43.0	-45.9	16.5	0.00e+00	0	42	0	285212672	57	5080
2026-01-02 12:18:18.91	283.31	10.94	-43.0	-45.9	16.4	0.00e+00	0	42	0	287309824	57	5084
2026-01-02 12:18:19.92	283.49	10.94	-43.0	-45.9	16.5	0.00e+00	0	42	0	289406976	57	5055
2026-01-02 12:18:20.92	283.68	10.93	-43.1	-46.0	16.4	0.00e+00	0	42	0	290455552	57	5139
2026-01-02 12:18:21.92	283.86	10.93	-43.1	-46.1	16.3	0.00e+00	0	42	0	292552704	57	5162
2026-01-02 12:18:22.93	284.05	10.92	-43.1	-46.1	16.3	0.00e+00	0	42	0	294649856	57	5179
2026-01-02 12:18:23.93	284.24	10.92	-43.1	-46.1	16.3	0.00e+00	0	42	0	296747008	57	5170
2026-01-02 12:18:24.93	284.42	10.91	-43.0	-45.9	16.4	0.00e+00	0	42	0	298844160	57	5097
2026-01-02 12:18:25.93	284.60	10.91	-42.9	-45.7	16.6	0.00e+00	0	42	0	299892736	57	4981
2026-01-02 12:18:26.94	284.79	10.90	-42.8	-45.6	16.8	0.00e+00	0	42	0	301989888	57	4886
2026-01-02 12:18:27.94	284.98	10.89	-42.8	-45.6	16.7	0.00e+00	0	42	0	304087040	57	4918
2026-01-02 12:18:28.94	285.16	10.89	-42.7	-45.5	16.9	0.00e+00	0	42	0	306184192	57	4842
2026-01-02 12:18:29.95	285.35	10.88	-42.7	-45.4	16.9	0.00e+00	0	42	0	308281344	57	4814
2026-01-02 12:18:30.95	285.53	10.87	-42.8	-45.6	16.8	0.00e+00	0	42	0	309329920	57	4892
2026-01-02 12:18:31.95	285.71	10.86	-42.8	-45.6	16.7	0.00e+00	0	42	0	311427072	57	4924
2026-01-02 12:18:32.96	285.90	10.85	-42.8	-45.6	16.7	0.00e+00	0	42	0	313524224	57	4909
2026-01-02 12:18:33.96	286.08	10.85	-42.8	-45.7	16.7	0.00e+00	0	42	0	315621376	57	4967
2026-01-02 12:18:34.96	286.27	10.84	-42.9	-45.8	16.6	0.00e+00	0	42	0	316669952	57	4989
2026-01-02 12:18:35.97	286.45	10.83	-42.8	-45.7	16.7	0.00e+00	0	42	0	318767104	57	4944
2026-01-02 12:18:36.97	286.64	10.82	-42.9	-45.7	16.6	0.00e+00	0	42	0	320864256	57	4971
2026-01-02 12:18:37.97	286.82	10.81	-42.9	-45.7	16.7	0.00e+00	0	42	0	322961408	57	4957
2026-01-02 12:18:38.98	287.01	10.80	-42.8	-45.7	16.7	0.00e+00	0	42	0	325058560	57	4927
2026-01-02 12:18:39.98	287.19	10.79	-42.9	-45.7	16.7	0.00e+00	0	42	0	326107136	57	4961
2026-01-02 12:18:40.98	287.37	10.78	-42.9	-45.8	16.6	0.00e+00	0	42	0	328204288	57	4984
2026-01-02 12:18:41.98	287.55	10.77	-42.8	-45.7	16.7	0.00e+00	0	42	0	330301440	57	4928
2026-01-02 12:18:42.99	287.74	10.76	-42.8	-45.6	16.7	0.00e+00	0	42	0	332398592	57	4913
2026-01-02 12:18:43.99	287.92	10.75	-42.8	-45.6	16.7	0.00e+00	0	42	0	334495744	57	4901
2026-01-02 12:18:44.99	288.10	10.74	-42.8	-45.7	16.7	0.00e+00	0	42	0	335544320	57	4928
2026-01-02 12:18:45.99	288.29	10.73	-42.9	-45.7	16.6	0.00e+00	0	42	0	337641472	57	4971
2026-01-02 12:18:47.00	288.47	10.71	-43.0	-45.8	16.5	0.00e+00	0	42	0	339738624	57	5028
2026-01-02 12:18:48.00	288.65	10.70	-42.9	-45.8	16.6	0.00e+00	0	42	0	341835776	57	4999
2026-01-02 12:18:49.00	288.84	10.69	-42.9	-45.8	16.6	0.00e+00	0	42	0	343932928	57	4984
2026-01-02 12:18:50.00	289.02	10.68	-43.0	-45.9	16.4	0.00e+00	0	42	0	344981504	57	5061
2026-01-02 12:18:51.01	289.20	10.67	-43.0	-45.9	16.4	0.00e+00	0	42	0	347078656	57	5094
2026-01-02 12:18:52.01	289.38	10.65	-43.0	-45.9	16.4	0.00e+00	0	42	0	349175808	57	5086
2026-01-02 12:18:53.01	289.56	10.64	-43.0	-45.9	16.4	0.00e+00	0	42	0	351272960	57	5075
2026-01-02 12:18:54.01	289.74	10.63	-43.0	-45.9	16.4	0.00e+00	0	42	0	353370112	57	5056
2026-01-02 12:18:55.01	289.93	10.61	-43.0	-45.8	16.5	0.00e+00	0	42	0	354418688	57	5032
2026-01-02 12:18:56.02	290.11	10.60	-43.0	-45.8	16.5	0.00e+00	0	42	0	356515840	57	5035
2026-01-02 12:18:57.02	290.29	10.58	-43.0	-45.9	16.4	0.00e+00	0	42	0	358612992	57	5092
2026-01-02 12:18:58.02	290.47	10.57	-43.1	-46.0	16.4	0.00e+00	0	42	0	360710144	57	5114
2026-01-02 12:18:59.03	290.65	10.56	-43.1	-46.0	16.4	0.00e+00	0	42	0	361758720	57	5120
2026-01-02 12:19:00.03	290.83	10.54	-43.1	-46.0	16.3	0.00e+00	0	42	0	363855872	57	5118
2026-01-02 12:19:01.03	291.01	10.53	-43.2	-46.1	16.2	0.00e+00	0	42	0	365953024	57	5212
2026-01-02 12:19:02.04	291.19	10.51	-43.1	-46.1	16.2	0.00e+00	0	42	0	368050176	57	5187
2026-01-02 12:19:03.04	291.37	10.49	-43.2	-46.2	16.2	0.00e+00	0	42	0	370147328	57	5234
2026-01-02 12:19:04.04	291.55	10.48	-43.4	-46.4	16.0	0.00e+00	0	42	0	371195904	57	5363
2026-01-02 12:19:05.04	291.73	10.46	-43.3	-46.3	16.0	0.00e+00	0	42	0	373293056	57	5326
2026-01-02 12:19:06.04	291.91	10.45	-43.4	-46.4	15.9	0.00e+00	0	42	0	375390208	57	5368
2026-01-02 12:19:07.05	292.09	10.43	-43.5	-46.6	15.8	0.00e+00	0	42	0	377487360	57	5483
2026-01-02 12:19:08.05	292.27	10.41	-43.7	-46.9	15.5	0.00e+00	0	42	0	379584512	58	5372
2026-01-02 12:19:09.05	292.45	10.40	-43.5	-46.6	15.7	0.00e+00	0	42	0	380633088	58	5205
2026-01-02 12:19:10.05	292.63	10.38	-43.6	-46.8	15.6	0.00e+00	0	42	0	382730240	58	5280
2026-01-02 12:19:11.06	292.81	10.36	-43.7	-46.8	15.5	0.00e+00	0	42	0	384827392	58	5327
2026-01-02 12:19:12.06	292.98	10.34	-43.7	-46.9	15.4	0.00e+00	0	42	0	386924544	58	5372
2026-01-02 12:19:13.07	293.16	10.33	-43.8	-47.0	15.4	0.00e+00	0	42	0	389021696	58	5426
2026-01-02 12:19:14.07	293.34	10.31	-43.8	-46.9	15.4	0.00e+00	0	42	0	390070272	58	5398
2026-01-02 12:19:15.08	293.52	10.29	-43.7	-46.9	15.5	0.00e+00	0	42	0	392167424	58	5356
2026-01-02 12:19:16.08	293.70	10.27	-43.6	-46.7	15.6	0.00e+00	0	42	0	394264576	58	5279
2026-01-02 12:19:17.08	293.87	10.25	-43.6	-46.7	15.6	0.00e+00	0	42	0	396361728	58	5273
2026-01-02 12:19:18.09	294.05	10.23	-43.6	-46.7	15.6	0.00e+00	0	42	0	398458880	58	5262
2026-01-02 12:19:19.09	294.23	10.21	-43.4	-46.4	15.9	0.00e+00	0	42	0	399507456	58	5092
2026-01-02 12:19:20.09	294.40	10.19	-43.4	-46.5	15.8	0.00e+00	0	42	0	401604608	58	5123
2026-01-02 12:19:21.10	294.58	10.17	-43.4	-46.5	15.8	0.00e+00	0	42	0	403701760	58	5117
2026-01-02 12:19:22.10	294.76	10.15	-43.3	-46.5	15.9	0.00e+00	0	42	0	405798912	58	5107
2026-01-02 12:19:23.10	294.93	10.13	-43.4	-46.5	15.7	0.00e+00	0	42	0	407896064	58	5158
2026-01-02 12:19:24.11	295.11	10.11	-43.4	-46.6	15.7	0.00e+00	0	42	0	408944640	58	5179
2026-01-02 12:19:25.11	295.28	10.09	-43.5	-46.6	15.7	0.00e+00	0	42	0	411041792	58	5198
2026-01-02 12:19:26.12	295.46	10.07	-43.5	-46.6	15.7	0.00e+00	0	42	0	413138944	58	5180
2026-01-02 12:19:27.12	295.63	10.05	-43.5	-46.7	15.6	0.00e+00	0	42	0	415236096	58	5236
2026-01-02 12:19:28.12	295.81	10.03	-43.6	-46.7	15.6	0.00e+00	0	42	0	417333248	58	5246
2026-01-02 12:19:29.12	295.98	10.01	-43.5	-46.7	15.6	0.00e+00	0	42	0	418381824	58	5227
2026-01-02 12:19:30.13	296.16	9.99	-43.5	-46.7	15.6	0.00e+00	0	42	0	420478976	58	5248
2026-01-02 12:19:31.13	296.33	9.96	-43.5	-46.7	15.6	0.00e+00	0	42	0	422576128	58	5227
2026-01-02 12:19:32.14	296.50	9.94	-43.5	-46.6	15.7	0.00e+00	0	42	0	424673280	58	5198
2026-01-02 12:19:33.14	296.68	9.92	-43.6	-46.7	15.6	0.00e+00	0	42	0	425721856	58	5265
2026-01-02 12:19:34.14	296.85	9.90	-43.5	-46.6	15.6	0.00e+00	0	42	0	427819008	58	5194
2026-01-02 12:19:35.15	297.02	9.87	-43.4	-46.5	15.7	0.00e+00	0	42	0	429916160	58	5158
2026-01-02 12:19:36.15	297.20	9.85	-43.3	-46.5	15.8	0.00e+00	0	42	0	432013312	58	5106
2026-01-02 12:19:37.15	297.37	9.83	-43.3	-46.4	15.9	0.00e+00	0	42	0	434110464	58	5071
2026-01-02 12:19:38.15	297.54	9.81	-43.3	-46.3	15.9	0.00e+00	0	42	0	435159040	58	5028
2026-01-02 12:19:39.16	297.71	9.78	-43.3	-46.3	15.9	0.00e+00	0	42	0	437256192	58	5035
2026-01-02 12:19:40.16	297.88	9.76	-43.2	-46.3	16.0	0.00e+00	0	42	0	439353344	58	4994
2026-01-02 12:19:41.17	298.05	9.73	-43.3	-46.4	15.9	0.00e+00	0	42	0	441450496	58	5050
2026-01-02 12:19:42.17	298.22	9.71	-43.3	-46.4	15.8	0.00e+00	0	42	0	443547648	58	5075
2026-01-02 12:19:43.17	298.39	9.69	-43.3	-46.4	15.8	0.00e+00	0	42	0	444596224	58	5083
2026-01-02 12:19:44.17	298.56	9.66	-43.3	-46.4	15.9	0.00e+00	0	42	0	446693376	58	5053
2026-01-02 12:19:45.18	298.74	9.64	-43.4	-46.5	15.8	0.00e+00	0	42	0	448790528	58	5120
2026-01-02 12:19:46.18	298.90	9.61	-43.4	-46.4	15.8	0.00e+00	0	42	0	450887680	58	5098
2026-01-02 12:19:47.19	299.08	9.59	-43.3	-46.4	15.9	0.00e+00	0	42	0	452984832	58	5058
2026-01-02 12:19:48.19	299.24	9.56	-43.5	-46.6	15.7	0.00e+00	0	42	0	454033408	58	5162
2026-01-02 12:19:49.19	299.41	9.54	-43.5	-46.6	15.6	0.00e+00	0	42	0	456130560	58	5184
2026-01-02 12:19:50.20	299.58	9.51	-43.6	-46.7	15.5	0.00e+00	0	42	0	458227712	58	5259
2026-01-02 12:19:51.20	299.75	9.48	-43.5	-46.7	15.5	0.00e+00	0	42	0	460324864	58	5244
2026-01-02 12:19:52.20	299.92	9.46	-43.5	-46.7	15.5	0.00e+00	0	42	0	462422016	58	5266
2026-01-02 12:19:53.21	300.09	9.43	-43.5	-46.7	15.5	0.00e+00	0	42	0	463470592	58	5256
2026-01-02 12:19:54.21	300.25	9.40	-43.6	-46.7	15.5	0.00e+00	0	42	0	465567744	58	5275
2026-01-02 12:19:55.21	300.42	9.38	-43.6	-46.8	15.5	0.00e+00	0	42	0	467664896	58	5307
2026-01-02 12:19:56.21	300.59	9.35	-43.7	-46.9	15.3	0.00e+00	0	42	0	469762048	58	5375
2026-01-02 12:19:57.22	300.75	9.32	-43.7	-47.0	15.3	0.00e+00	0	42	0	471859200	58	5409
2026-01-02 12:19:58.22	300.92	9.30	-43.7	-47.0	15.3	0.00e+00	0	42	0	472907776	58	5408
2026-01-02 12:19:59.22	301.08	9.27	-43.7	-47.0	15.2	0.00e+00	0	42	0	475004928	58	5454
2026-01-02 12:20:00.22	301.25	9.24	-43.7	-47.0	15.3	0.00e+00	0	42	0	477102080	58	5430
2026-01-02 12:20:01.23	301.42	9.21	-43.6	-46.8	15.4	7.00e-07	0	42	0	479199232	58	5332
2026-01-02 12:20:02.23	301.58	9.19	-43.5	-46.8	15.4	0.00e+00	0	42	0	481296384	58	5300
2026-01-02 12:20:03.23	301.74	9.16	-43.5	-46.8	15.4	0.00e+00	0	42	0	482344960	58	5292
2026-01-02 12:20:04.24	301.91	9.13	-43.5	-46.7	15.5	0.00e+00	0	42	0	484442112	58	5268
2026-01-02 12:20:05.24	302.07	9.10	-43.5	-46.7	15.5	0.00e+00	0	42	0	486539264	58	5262
2026-01-02 12:20:06.24	302.24	9.07	-43.5	-46.6	15.6	0.00e+00	0	42	0	488636416	58	5216
2026-01-02 12:20:07.24	302.40	9.04	-43.6	-46.8	15.4	0.00e+00	0	42	0	489684992	58	5322
2026-01-02 12:20:08.25	302.56	9.02	-43.6	-46.9	15.3	0.00e+00	0	42	0	491782144	58	5350
2026-01-02 12:20:09.25	302.73	8.99	-48.2	-62.5	3.8	1.16e+00	0	42	104	492830720	67	19311
2026-01-02 12:20:10.26	302.89	8.96	-48.4	-63.6	3.8	1.49e+00	0	42	104	492830720	67	21799
2026-01-02 12:20:11.26	303.05	8.93	-48.3	-63.8	3.8	1.49e+00	0	42	104	492830720	67	22347
2026-01-02 12:20:12.26	303.21	8.90	-48.7	-63.9	3.8	1.49e+00	0	42	104	492830720	67	22544
2026-01-02 12:20:13.27	303.38	8.87	-48.5	-64.1	3.8	1.49e+00	0	42	104	492830720	68	21845
2026-01-02 12:20:14.27	303.54	8.84	-48.6	-64.1	3.8	1.49e+00	0	42	104	492830720	68	21906
2026-01-02 12:20:15.28	303.70	8.81	-48.9	-64.1	3.8	1.49e+00	0	42	104	492830720	68	21972
2026-01-02 12:20:16.28	303.86	8.78	-48.9	-64.1	3.8	1.49e+00	0	42	104	492830720	68	22002
2026-01-02 12:20:17.29	304.02	8.75	-48.9	-64.2	3.8	1.49e+00	0	42	104	492830720	68	22076
2026-01-02 12:20:18.29	304.18	8.72	-48.8	-64.2	3.8	1.49e+00	0	42	104	492830720	68	22083
2026-01-02 12:20:19.29	304.34	8.69	-49.0	-64.2	3.8	1.49e+00	0	42	104	492830720	68	22076
2026-01-02 12:20:20.30	304.50	8.66	-48.8	-64.2	3.8	1.49e+00	0	42	104	492830720	68	22149
2026-01-02 12:20:21.30	304.66	8.63	-48.9	-64.2	3.8	1.49e+00	0	42	104	492830720	68	22072
2026-01-02 12:20:22.31	304.82	8.59	-48.9	-64.2	3.8	1.49e+00	0	42	104	492830720	68	22091
2026-01-02 12:20:23.31	304.97	8.56	-48.9	-64.2	3.8	1.49e+00	0	42	104	492830720	68	22058
2026-01-02 12:20:24.32	305.13	8.53	-48.9	-64.2	3.8	1.49e+00	0	42	104	492830720	68	22039
2026-01-02 12:20:25.32	305.29	8.50	-48.9	-64.2	3.8	1.49e+00	0	42	104	492830720	68	22048
2026-01-02 12:20:26.32	305.45	8.47	-48.9	-64.2	3.8	1.49e+00	0	42	104	492830720	68	22018
2026-01-02 12:20:27.33	305.61	8.44	-48.8	-64.2	3.8	1.49e+00	0	42	104	492830720	68	22035
2026-01-02 12:20:28.33	305.76	8.40	-48.8	-64.1	3.8	1.49e+00	0	42	104	492830720	68	21961
2026-01-02 12:20:29.34	305.92	8.37	-48.7	-64.1	3.8	1.49e+00	0	42	104	492830720	68	21917
2026-01-02 12:20:30.34	306.07	8.34	-48.7	-64.1	3.8	1.49e+00	0	42	104	492830720	68	21867
2026-01-02 12:20:31.35	306.23	8.31	-48.7	-64.1	3.8	1.49e+00	0	42	104	492830720	68	21803
2026-01-02 12:20:32.35	306.39	8.27	-48.7	-64.1	3.8	1.49e+00	0	42	104	492830720	68	21959
2026-01-02 12:20:33.36	306.54	8.24	-48.7	-64.1	3.8	1.49e+00	0	42	104	492830720	68	21763
2026-01-02 12:20:34.36	306.70	8.21	-48.7	-64.1	3.8	1.49e+00	0	42	104	492830720	68	21843
2026-01-02 12:20:35.36	306.85	8.18	-48.7	-64.0	3.8	1.49e+00	0	42	104	492830720	68	21755
2026-01-02 12:20:36.37	307.00	8.14	-48.7	-64.1	3.8	1.49e+00	0	42	104	492830720	68	21869
2026-01-02 12:20:37.37	307.16	8.11	-48.4	-63.9	3.9	1.49e+00	0	42	104	492830720	68	21346
2026-01-02 12:20:38.38	307.31	8.08	-48.5	-63.9	3.8	1.49e+00	0	42	104	492830720	68	21449
2026-01-02 12:20:39.38	307.46	8.04	-48.5	-63.9	3.8	1.49e+00	0	42	104	492830720	68	21378
2026-01-02 12:20:40.39	307.62	8.01	-48.4	-63.9	3.8	1.49e+00	0	42	104	492830720	68	21375
2026-01-02 12:20:41.39	307.77	7.98	-48.4	-63.9	3.8	1.49e+00	0	42	104	492830720	68	21375
2026-01-02 12:20:42.40	307.92	7.94	-48.4	-63.8	3.8	1.49e+00	0	42	104	492830720	68	21184
2026-01-02 12:20:43.40	308.07	7.91	-48.4	-63.9	3.8	1.49e+00	0	42	104	492830720	68	21331
2026-01-02 12:20:44.40	308.22	7.87	-48.3	-63.9	3.8	1.49e+00	0	42	104	492830720	68	21469
2026-01-02 12:20:45.41	308.38	7.84	-48.3	-63.9	3.9	1.49e+00	0	42	104	492830720	68	21298
2026-01-02 12:20:46.41	308.53	7.80	-48.4	-63.9	3.8	1.49e+00	0	42	104	492830720	68	21338
2026-01-02 12:20:47.42	308.68	7.77	-48.4	-63.8	3.9	1.49e+00	0	42	104	492830720	68	21243
2026-01-02 12:20:48.42	308.83	7.74	-48.4	-63.9	3.8	1.49e+00	0	42	104	492830720	68	21348
2026-01-02 12:20:49.42	308.97	7.70	-48.4	-63.9	3.8	1.49e+00	0	42	104	492830720	68	21327
2026-01-02 12:20:50.43	309.12	7.67	-48.4	-63.9	3.8	1.49e+00	0	42	104	492830720	68	21348
2026-01-02 12:20:51.44	309.27	7.63	-48.5	-63.9	3.8	1.49e+00	0	42	104	492830720	68	21322
2026-01-02 12:20:52.44	309.42	7.60	-48.4	-63.8	3.9	1.49e+00	0	42	104	492830720	68	21244
2026-01-02 12:20:53.44	309.57	7.56	-48.4	-63.9	3.8	1.49e+00	0	42	104	492830720	68	21394
2026-01-02 12:20:54.45	309.72	7.53	-48.5	-63.9	3.9	1.49e+00	0	42	104	492830720	68	21330
2026-01-02 12:20:55.45	309.87	7.49	-48.6	-64.1	3.8	1.49e+00	0	42	104	492830720	68	21756
2026-01-02 12:20:56.45	310.01	7.45	-48.6	-64.1	3.8	1.49e+00	0	42	104	492830720	68	21801
2026-01-02 12:20:57.46	310.16	7.42	-48.7	-64.0	3.8	1.49e+00	0	42	104	492830720	68	21748
2026-01-02 12:20:58.46	310.31	7.38	-48.6	-64.0	3.8	1.49e+00	0	42	104	492830720	68	21753
2026-01-02 12:20:59.47	310.45	7.35	-48.6	-64.1	3.8	1.49e+00	0	42	104	492830720	68	21787
2026-01-02 12:21:00.47	310.60	7.31	-48.6	-64.0	3.8	1.49e+00	0	42	104	492830720	68	21722
2026-01-02 12:21:01.48	310.74	7.28	-48.6	-64.0	3.8	1.49e+00	0	42	104	492830720	68	21716
2026-01-02 12:21:02.48	310.89	7.24	-48.6	-64.0	3.8	1.49e+00	0	42	104	492830720	68	21720
2026-01-02 12:21:03.49	311.03	7.20	-48.6	-64.0	3.8	1.49e+00	0	42	104	492830720	68	21673
2026-01-02 12:21:04.49	311.18	7.17	-48.6	-64.0	3.8	1.49e+00	0	42	104	492830720	68	21681
2026-01-02 12:21:05.49	311.32	7.13	-48.6	-64.0	3.8	1.49e+00	0	42	104	492830720	68	21755
2026-01-02 12:21:06.50	311.46	7.09	-48.6	-64.0	3.8	1.49e+00	0	42	104	492830720	68	21664
2026-01-02 12:21:07.50	311.61	7.06	-48.6	-64.1	3.8	1.49e+00	0	42	104	492830720	68	21759
2026-01-02 12:21:08.51	311.75	7.02	-48.6	-64.0	3.8	1.49e+00	0	42	104	492830720	68	21754
2026-01-02 12:21:09.51	311.89	6.98	-48.6	-64.0	3.8	1.49e+00	0	42	104	492830720	68	21641
2026-01-02 12:21:10.51	312.03	6.95	-48.6	-64.0	3.8	1.49e+00	0	42	104	492830720	68	21717
2026-01-02 12:21:11.52	312.18	6.91	-48.6	-64.0	3.8	1.49e+00	0	42	104	492830720	68	21688
2026-01-02 12:21:12.52	312.32	6.87	-48.6	-64.1	3.8	1.49e+00	0	42	104	492830720	68	21757
2026-01-02 12:21:13.53	312.46	6.83	-48.6	-64.0	3.8	1.49e+00	0	42	104	492830720	68	21654
2026-01-02 12:21:14.53	312.60	6.80	-48.6	-64.0	3.8	1.49e+00	0	42	104	492830720	68	21729
2026-01-02 12:21:15.54	312.74	6.76	-48.6	-64.0	3.8	1.49e+00	0	42	104	492830720	68	21721
2026-01-02 12:21:16.54	312.88	6.72	-48.6	-64.1	3.8	1.49e+00	0	42	104	492830720	68	21758
2026-01-02 12:21:17.55	313.02	6.69	-48.6	-64.0	3.8	1.49e+00	0	43	104	492830720	68	21654
2026-01-02 12:21:18.55	313.16	6.65	-48.6	-64.0	3.8	1.49e+00	0	43	104	492830720	68	21640
2026-01-02 12:21:19.55	313.30	6.61	-48.6	-64.0	3.8	1.49e+00	0	42	104	492830720	68	21697
2026-01-02 12:21:20.56	313.44	6.57	-48.6	-64.0	3.8	1.49e+00	0	42	104	492830720	68	21688
2026-01-02 12:21:21.56	313.58	6.53	-48.6	-64.1	3.8	1.49e+00	0	42	104	492830720	68	21789
2026-01-02 12:21:22.57	313.72	6.50	-48.6	-64.0	3.8	1.49e+00	0	42	104	492830720	68	21656
2026-01-02 12:21:23.57	313.85	6.46	-48.6	-64.0	3.8	1.49e+00	0	42	104	492830720	68	21703
2026-01-02 12:21:24.58	313.99	6.42	-48.6	-64.0	3.8	1.49e+00	0	42	104	492830720	68	21647
2026-01-02 12:21:25.58	314.13	6.38	-48.6	-64.0	3.8	1.49e+00	0	42	104	492830720	68	21697
2026-01-02 12:21:26.59	314.26	6.34	-48.6	-64.0	3.8	1.49e+00	0	42	104	492830720	68	21716
2026-01-02 12:21:27.59	314.40	6.30	-48.6	-64.0	3.8	1.49e+00	0	42	104	492830720	68	21652
2026-01-02 12:21:28.59	314.54	6.27	-48.6	-64.0	3.8	1.49e+00	0	42	104	492830720	68	21726
2026-01-02 12:21:29.60	314.67	6.23	-48.6	-64.0	3.8	1.49e+00	0	42	104	492830720	68	21655
2026-01-02 12:21:30.61	314.81	6.19	-48.6	-64.1	3.8	1.49e+00	0	43	104	492830720	68	21785
2026-01-02 12:21:31.61	314.94	6.15	-48.6	-64.0	3.8	1.49e+00	0	42	104	492830720	68	21747
2026-01-02 12:21:32.61	315.08	6.11	-48.6	-64.0	3.8	1.49e+00	0	42	104	492830720	68	21713
2026-01-02 12:21:33.62	315.21	6.07	-48.6	-64.0	3.8	1.49e+00	0	43	104	492830720	68	21703
2026-01-02 12:21:34.62	315.34	6.03	-48.6	-64.0	3.8	1.49e+00	0	42	104	492830720	68	21749
2026-01-02 12:21:35.63	315.48	5.99	-48.6	-64.0	3.8	1.49e+00	0	42	104	492830720	68	21626
2026-01-02 12:21:36.63	315.61	5.96	-48.6	-64.0	3.8	1.49e+00	0	42	104	492830720	68	21680
2026-01-02 12:21:37.64	315.74	5.92	-48.6	-64.0	3.8	1.49e+00	0	42	104	492830720	68	21682
2026-01-02 12:21:38.64	315.88	5.88	-48.6	-64.0	3.8	1.49e+00	0	42	104	492830720	68	21703
2026-01-02 12:21:39.64	316.01	5.84	-48.6	-64.0	3.8	1.49e+00	0	42	104	492830720	68	21669
2026-01-02 12:21:40.65	316.14	5.80	-48.6	-64.1	3.8	1.49e+00	0	42	104	492830720	68	21757
2026-01-02 12:21:41.65	316.27	5.76	-48.6	-64.0	3.8	1.49e+00	0	42	104	492830720	68	21722
2026-01-02 12:21:42.66	316.40	5.72	-48.6	-64.0	3.8	1.49e+00	0	42	104	492830720	68	21697
2026-01-02 12:21:43.66	316.53	5.68	-48.6	-64.0	3.8	1.49e+00	0	42	104	492830720	68	21705
2026-01-02 12:21:44.66	316.66	5.64	-48.6	-64.1	3.8	1.49e+00	0	42	104	492830720	68	21779
2026-01-02 12:21:45.67	316.79	5.60	-48.6	-64.1	3.8	1.49e+00	0	43	104	492830720	68	21801
2026-01-02 12:21:46.67	316.92	5.56	-48.6	-64.0	3.8	1.49e+00	0	42	104	492830720	68	21651
2026-01-02 12:21:47.68	317.05	5.52	-48.6	-64.0	3.8	1.49e+00	0	42	104	492830720	68	21693
2026-01-02 12:21:48.68	317.18	5.48	-48.6	-64.0	3.8	1.49e+00	0	42	104	492830720	68	21690
2026-01-02 12:21:49.69	317.31	5.44	-48.6	-64.1	3.8	1.49e+00	0	42	104	492830720	68	21763
2026-01-02 12:21:50.69	317.44	5.40	-48.6	-64.0	3.8	1.49e+00	0	42	104	492830720	68	21669
2026-01-02 12:21:51.70	317.57	5.36	-48.6	-64.0	3.8	1.49e+00	0	42	104	492830720	68	21693
2026-01-02 12:21:52.70	317.70	5.32	-48.6	-64.0	3.8	1.49e+00	0	42	104	492830720	68	21723
2026-01-02 12:21:53.70	317.82	5.28	-48.6	-64.0	3.8	1.49e+00	0	42	104	492830720	68	21685
2026-01-02 12:21:54.71	317.95	5.24	-48.6	-64.0	3.8	1.49e+00	0	42	104	492830720	68	21634
2026-01-02 12:21:55.71	318.08	5.20	-48.6	-64.0	3.8	1.49e+00	0	42	104	492830720	68	21672
2026-01-02 12:21:56.72	318.20	5.16	-48.6	-64.0	3.8	1.49e+00	0	42	104	492830720	68	21746
2026-01-02 12:21:57.72	318.33	5.12	-48.6	-64.0	3.8	1.49e+00	0	42	104	492830720	68	21679
2026-01-02 12:21:58.73	318.46	5.08	-48.6	-64.0	3.8	1.49e+00	0	42	104	492830720	68	21730
2026-01-02 12:21:59.73	318.58	5.04	-48.6	-64.0	3.8	1.49e+00	0	42	104	492830720	68	21658
2026-01-02 12:22:00.74	318.71	5.00	-48.6	-64.0	3.8	1.49e+00	0	42	104	492830720	68	21733

#Closed at: 2026-01-02 12:22:01
#Recorded file [492 MB]: D:/Data/31040_260102_151404.dat