passes_logs/2026/01/02/T1/T1__20260102_003937_NOAA_20_JPSS-1_rec.log

#Pass ID: 20260102_003937_NOAA 20 (JPSS-1)
#Satellite: NOAA 20 (JPSS-1)
#Configuration: NOAA 20
#almurnet v.1.7.20251203
#Start time: 2026-01-02 00:39:38

#Version: 2.0.20230620
#Station: T1
#Location: 37.570604 lon 55.790049 lat
#TLE: 1 43013U 17073A   26001.30344297  .00000183  00000+0  10758-3 0  9995
#TLE: 2 43013  98.7621 302.3885 0001938  59.1624 300.9742 14.19532032420790

#Time	Az	El	Level	Level2	SNR	BER	BlckErr	Temp	State	Recorded	gain1	gain2
2026-01-02 00:39:38.75	10.38	5.11	-50.0	-65.5	3.8	1.49e+00	0	39	0	0	70	22845
2026-01-02 00:39:39.75	10.33	5.18	-50.0	-65.5	3.8	1.49e+00	0	39	104	0	71	21524
2026-01-02 00:39:40.75	10.28	5.25	-50.0	-65.5	3.8	1.49e+00	0	39	104	0	71	21570
2026-01-02 00:39:41.76	10.24	5.32	-50.0	-65.5	3.8	1.49e+00	0	39	104	0	71	21582
2026-01-02 00:39:42.76	10.19	5.39	-50.0	-65.5	3.8	1.49e+00	0	39	104	0	71	21598
2026-01-02 00:39:43.76	10.14	5.46	-50.0	-65.5	3.8	1.49e+00	0	39	104	0	71	21584
2026-01-02 00:39:44.77	10.09	5.53	-50.0	-65.5	3.8	1.49e+00	0	39	104	0	71	21589
2026-01-02 00:39:45.77	10.04	5.60	-50.0	-65.5	3.8	1.49e+00	0	39	104	0	71	21512
2026-01-02 00:39:46.78	9.99	5.66	-50.0	-65.5	3.8	1.49e+00	0	39	104	0	71	21556
2026-01-02 00:39:47.78	9.94	5.73	-50.0	-65.5	3.8	1.49e+00	0	39	104	0	71	21537
2026-01-02 00:39:48.78	9.89	5.80	-50.0	-65.5	3.8	1.49e+00	0	39	104	0	71	21632
2026-01-02 00:39:49.79	9.84	5.87	-50.0	-65.5	3.8	1.49e+00	0	39	104	0	71	21587
2026-01-02 00:39:50.79	9.79	5.94	-50.0	-65.5	3.8	1.49e+00	0	39	104	0	71	21626
2026-01-02 00:39:51.79	9.74	6.01	-50.0	-65.5	3.8	1.49e+00	0	39	104	0	71	21567
2026-01-02 00:39:52.80	9.69	6.08	-50.0	-65.5	3.8	1.49e+00	0	39	104	0	71	21534
2026-01-02 00:39:53.80	9.64	6.15	-50.0	-65.5	3.8	1.49e+00	0	39	104	0	71	21512
2026-01-02 00:39:54.81	9.59	6.23	-50.0	-65.5	3.8	1.49e+00	0	39	104	0	71	21587
2026-01-02 00:39:55.81	9.54	6.30	-50.0	-65.5	3.8	1.49e+00	0	39	104	0	71	21611
2026-01-02 00:39:56.82	9.49	6.37	-50.0	-65.5	3.8	1.49e+00	0	39	104	0	71	21566
2026-01-02 00:39:57.82	9.43	6.44	-50.0	-65.5	3.8	1.49e+00	0	40	104	0	71	21651
2026-01-02 00:39:58.82	9.38	6.51	-50.0	-65.5	3.8	1.49e+00	0	40	104	0	71	21657
2026-01-02 00:39:59.83	9.33	6.58	-50.0	-65.5	3.8	1.49e+00	0	40	104	0	71	21554
2026-01-02 00:40:00.83	9.28	6.65	-50.0	-65.5	3.8	1.49e+00	0	40	104	0	71	21573
2026-01-02 00:40:01.84	9.22	6.73	-50.0	-65.5	3.8	1.49e+00	0	40	104	0	71	21613
2026-01-02 00:40:02.84	9.17	6.80	-50.0	-65.5	3.8	1.49e+00	0	40	104	0	71	21536
2026-01-02 00:40:03.84	9.12	6.87	-50.0	-65.5	3.8	1.49e+00	0	40	104	0	71	21576
2026-01-02 00:40:04.85	9.06	6.94	-50.0	-65.5	3.8	1.49e+00	0	40	104	0	71	21586
2026-01-02 00:40:05.85	9.01	7.01	-50.0	-65.5	3.8	1.49e+00	0	40	104	0	71	21650
2026-01-02 00:40:06.86	8.95	7.09	-50.0	-65.5	3.8	1.49e+00	0	40	104	0	71	21578
2026-01-02 00:40:07.86	8.90	7.16	-50.0	-65.5	3.8	1.49e+00	0	40	104	0	71	21578
2026-01-02 00:40:08.87	8.84	7.23	-50.0	-65.5	3.8	1.49e+00	0	40	104	0	71	21616
2026-01-02 00:40:09.87	8.79	7.31	-50.0	-65.5	3.8	1.49e+00	0	40	104	0	71	21669
2026-01-02 00:40:10.87	8.73	7.38	-50.0	-65.5	3.8	1.49e+00	0	40	104	0	71	21596
2026-01-02 00:40:11.88	8.68	7.45	-50.0	-65.5	3.8	1.49e+00	0	40	104	0	71	21564
2026-01-02 00:40:12.88	8.62	7.53	-50.0	-65.5	3.8	1.49e+00	0	40	104	0	71	21565
2026-01-02 00:40:13.89	8.56	7.60	-50.0	-65.5	3.8	1.49e+00	0	40	104	0	71	21594
2026-01-02 00:40:14.89	8.51	7.68	-50.0	-65.5	3.8	1.49e+00	0	40	104	0	71	21548
2026-01-02 00:40:15.89	8.45	7.75	-50.0	-65.4	3.8	1.49e+00	0	40	104	0	71	21493
2026-01-02 00:40:16.90	8.39	7.82	-50.0	-65.5	3.8	1.49e+00	0	40	104	0	71	21610
2026-01-02 00:40:17.91	8.33	7.90	-50.0	-65.4	3.8	1.49e+00	0	40	104	0	71	21501
2026-01-02 00:40:18.91	8.28	7.97	-50.0	-65.5	3.8	1.49e+00	0	40	104	0	71	21632
2026-01-02 00:40:19.91	8.22	8.05	-50.0	-65.5	3.8	1.49e+00	0	40	104	0	71	21602
2026-01-02 00:40:20.92	8.16	8.13	-50.0	-65.5	3.8	1.49e+00	0	40	104	0	71	21572
2026-01-02 00:40:21.92	8.10	8.20	-50.1	-65.5	3.8	1.49e+00	0	40	104	0	71	21563
2026-01-02 00:40:22.93	8.04	8.28	-50.0	-65.5	3.8	1.49e+00	0	40	104	0	71	21610
2026-01-02 00:40:23.93	7.98	8.35	-50.0	-65.5	3.8	1.49e+00	0	40	104	0	71	21623
2026-01-02 00:40:24.94	7.92	8.43	-50.0	-65.5	3.8	1.49e+00	0	40	104	0	71	21647
2026-01-02 00:40:25.94	7.86	8.51	-50.0	-65.5	3.8	1.49e+00	0	40	104	0	71	21583
2026-01-02 00:40:26.95	7.80	8.58	-50.0	-65.5	3.8	1.49e+00	0	40	104	0	71	21584
2026-01-02 00:40:27.95	7.74	8.66	-50.1	-65.5	3.8	1.49e+00	0	40	104	0	71	21546
2026-01-02 00:40:28.95	7.67	8.74	-50.1	-65.5	3.8	1.49e+00	0	40	104	0	71	21606
2026-01-02 00:40:29.96	7.61	8.81	-50.0	-65.5	3.8	1.49e+00	0	40	104	0	71	21525
2026-01-02 00:40:30.96	7.55	8.89	-50.1	-65.5	3.8	1.49e+00	0	40	104	0	71	21595
2026-01-02 00:40:31.97	7.49	8.97	-50.1	-65.5	3.8	1.49e+00	0	40	104	0	71	21640
2026-01-02 00:40:32.97	7.42	9.05	-50.0	-65.5	3.8	1.49e+00	0	40	104	0	71	21561
2026-01-02 00:40:33.97	7.36	9.12	-50.0	-65.5	3.8	1.49e+00	0	40	104	0	71	21628
2026-01-02 00:40:34.98	7.30	9.20	-50.0	-65.5	3.8	1.49e+00	0	40	104	0	71	21576
2026-01-02 00:40:35.99	7.23	9.28	-50.0	-65.5	3.8	1.49e+00	0	40	104	0	71	21610
2026-01-02 00:40:36.99	7.17	9.36	-50.0	-65.5	3.8	1.49e+00	0	40	104	0	71	21605
2026-01-02 00:40:37.99	7.10	9.44	-50.0	-65.5	3.8	1.49e+00	0	40	104	0	71	21598
2026-01-02 00:40:39.00	7.04	9.52	-50.1	-65.5	3.8	1.49e+00	0	40	104	0	71	21557
2026-01-02 00:40:40.00	6.97	9.60	-50.0	-65.5	3.8	1.49e+00	0	40	104	0	71	21663
2026-01-02 00:40:41.01	6.91	9.68	-50.0	-65.5	3.8	1.49e+00	0	40	104	0	71	21527
2026-01-02 00:40:42.01	6.84	9.76	-50.0	-65.5	3.8	1.49e+00	0	40	104	0	71	21628
2026-01-02 00:40:43.01	6.77	9.84	-50.0	-65.5	3.8	1.49e+00	0	40	104	0	71	21615
2026-01-02 00:40:44.02	6.71	9.92	-50.0	-65.5	3.8	1.49e+00	0	40	104	0	71	21660
2026-01-02 00:40:45.02	6.64	10.00	-50.0	-65.5	3.8	1.49e+00	0	41	104	0	71	21606
2026-01-02 00:40:46.03	6.57	10.08	-50.0	-65.5	3.8	1.49e+00	0	41	104	0	71	21589
2026-01-02 00:40:47.03	6.50	10.16	-50.0	-65.5	3.8	1.49e+00	0	41	104	0	71	21586
2026-01-02 00:40:48.04	6.43	10.24	-50.0	-65.5	3.8	1.49e+00	0	41	104	0	71	21596
2026-01-02 00:40:49.04	6.37	10.32	-50.0	-65.5	3.8	1.49e+00	0	41	104	0	71	21626
2026-01-02 00:40:50.05	6.30	10.40	-50.0	-65.5	3.8	1.49e+00	0	41	104	0	71	21552
2026-01-02 00:40:51.05	6.23	10.48	-50.0	-65.5	3.8	1.49e+00	0	41	104	0	71	21548
2026-01-02 00:40:52.05	6.16	10.57	-50.0	-65.5	3.8	1.49e+00	0	40	104	0	71	21539
2026-01-02 00:40:53.06	6.09	10.65	-50.0	-65.5	3.8	1.49e+00	0	40	104	0	71	21566
2026-01-02 00:40:54.06	6.01	10.73	-50.0	-65.5	3.8	1.49e+00	0	41	104	0	71	21567
2026-01-02 00:40:55.07	5.94	10.81	-50.0	-65.5	3.8	1.49e+00	0	41	104	0	71	21613
2026-01-02 00:40:56.07	5.87	10.90	-50.0	-65.5	3.8	1.49e+00	0	41	104	0	71	21558
2026-01-02 00:40:57.08	5.80	10.98	-50.0	-65.5	3.8	1.49e+00	0	41	104	0	71	21630
2026-01-02 00:40:58.08	5.73	11.06	-50.0	-65.5	3.8	1.49e+00	0	41	104	0	71	21578
2026-01-02 00:40:59.09	5.65	11.15	-50.0	-65.5	3.8	1.49e+00	0	41	104	0	71	21571
2026-01-02 00:41:00.09	5.58	11.23	-50.0	-65.5	3.8	1.49e+00	0	41	104	0	71	21621
2026-01-02 00:41:01.09	5.50	11.31	-50.0	-65.5	3.8	1.49e+00	0	41	104	0	71	21626
2026-01-02 00:41:02.10	5.43	11.40	-50.0	-65.5	3.8	1.49e+00	0	41	104	0	71	21609
2026-01-02 00:41:03.10	5.35	11.48	-50.0	-65.5	3.8	1.49e+00	0	41	104	0	71	21588
2026-01-02 00:41:04.11	5.28	11.57	-50.0	-65.5	3.8	1.49e+00	0	41	104	0	71	21584
2026-01-02 00:41:05.11	5.20	11.65	-50.0	-65.5	3.8	1.49e+00	0	41	104	0	71	21578
2026-01-02 00:41:06.11	5.13	11.74	-50.0	-65.5	3.8	1.49e+00	0	41	104	0	71	21533
2026-01-02 00:41:07.12	5.05	11.82	-50.0	-65.5	3.8	1.49e+00	0	41	104	0	71	21584
2026-01-02 00:41:08.12	4.97	11.91	-50.0	-65.5	3.8	1.49e+00	0	41	104	0	71	21559
2026-01-02 00:41:09.13	4.89	12.00	-50.0	-65.5	3.8	1.49e+00	0	41	104	0	71	21580
2026-01-02 00:41:10.13	4.82	12.08	-50.0	-65.5	3.8	1.49e+00	0	41	104	0	71	21643
2026-01-02 00:41:11.14	4.74	12.17	-50.0	-65.5	3.8	1.49e+00	0	41	104	0	71	21541
2026-01-02 00:41:12.14	4.66	12.25	-50.0	-65.5	3.8	1.49e+00	0	41	104	0	71	21524
2026-01-02 00:41:13.14	4.58	12.34	-50.0	-65.5	3.8	1.49e+00	0	41	104	0	71	21568
2026-01-02 00:41:14.15	4.50	12.43	-50.0	-65.5	3.8	1.49e+00	0	41	104	0	71	21518
2026-01-02 00:41:15.15	4.42	12.52	-50.0	-65.5	3.8	1.49e+00	0	41	104	0	71	21553
2026-01-02 00:41:16.16	4.34	12.60	-50.0	-65.5	3.8	1.49e+00	0	41	104	0	71	21567
2026-01-02 00:41:17.16	4.25	12.69	-50.0	-65.5	3.8	1.49e+00	0	41	104	0	71	21575
2026-01-02 00:41:18.16	4.17	12.78	-50.0	-65.5	3.8	1.49e+00	0	41	104	0	71	21558
2026-01-02 00:41:19.17	4.09	12.87	-50.0	-65.5	3.8	1.49e+00	0	41	104	0	71	21548
2026-01-02 00:41:20.17	4.01	12.96	-50.0	-65.5	3.8	1.49e+00	0	41	104	0	71	21549
2026-01-02 00:41:21.18	3.92	13.05	-50.0	-65.5	3.8	1.49e+00	0	41	104	0	71	21526
2026-01-02 00:41:22.18	3.84	13.14	-50.0	-65.5	3.8	1.49e+00	0	41	104	0	71	21549
2026-01-02 00:41:23.19	3.75	13.23	-50.0	-65.5	3.8	1.49e+00	0	41	104	0	71	21582
2026-01-02 00:41:24.19	3.67	13.32	-50.0	-65.5	3.8	1.49e+00	0	41	104	0	71	21521
2026-01-02 00:41:25.19	3.58	13.41	-50.0	-65.5	3.8	1.49e+00	0	41	104	0	71	21596
2026-01-02 00:41:26.20	3.49	13.50	-50.0	-65.5	3.8	1.49e+00	0	41	104	0	71	21534
2026-01-02 00:41:27.20	3.41	13.59	-50.0	-65.5	3.8	1.49e+00	0	41	104	0	71	21566
2026-01-02 00:41:28.21	3.32	13.68	-50.0	-65.5	3.8	1.49e+00	0	41	104	0	71	21585
2026-01-02 00:41:29.21	3.23	13.77	-50.0	-65.5	3.8	1.49e+00	0	41	104	0	71	21532
2026-01-02 00:41:30.22	3.14	13.86	-50.0	-65.5	3.8	1.49e+00	0	41	104	0	71	21519
2026-01-02 00:41:31.22	3.05	13.95	-50.0	-65.5	3.8	1.49e+00	0	41	104	0	71	21627
2026-01-02 00:41:32.23	2.96	14.05	-50.0	-65.5	3.8	1.49e+00	0	41	104	0	71	21615
2026-01-02 00:41:33.23	2.87	14.14	-50.0	-65.5	3.8	1.49e+00	0	41	104	0	71	21568
2026-01-02 00:41:34.24	2.78	14.23	-50.0	-65.5	3.8	1.49e+00	0	41	104	0	71	21622
2026-01-02 00:41:35.24	2.69	14.32	-50.0	-65.5	3.8	1.49e+00	0	41	104	0	71	21613
2026-01-02 00:41:36.25	2.60	14.42	-50.0	-65.5	3.8	1.49e+00	0	41	104	0	71	21552
2026-01-02 00:41:37.25	2.50	14.51	-50.0	-65.5	3.8	1.49e+00	0	41	104	0	71	21621
2026-01-02 00:41:38.25	2.41	14.60	-50.0	-65.5	3.8	1.49e+00	0	41	104	0	71	21555
2026-01-02 00:41:39.26	2.31	14.70	-50.0	-65.5	3.8	1.49e+00	0	41	104	0	71	21689
2026-01-02 00:41:40.26	2.22	14.79	-50.0	-65.5	3.8	1.49e+00	0	41	104	0	71	21570
2026-01-02 00:41:41.27	2.12	14.89	-50.0	-65.5	3.8	1.49e+00	0	41	104	0	71	21576
2026-01-02 00:41:42.27	2.03	14.98	-50.0	-65.5	3.8	1.49e+00	0	41	104	0	71	21606
2026-01-02 00:41:43.27	1.93	15.08	-50.0	-65.5	3.8	1.49e+00	0	41	104	0	71	21572
2026-01-02 00:41:44.28	1.83	15.17	-50.0	-65.5	3.8	1.49e+00	0	41	104	0	71	21672
2026-01-02 00:41:45.58	1.71	15.30	-50.0	-65.5	3.8	1.49e+00	0	41	104	0	71	21620
2026-01-02 00:41:46.30	1.64	15.36	-50.0	-65.5	3.8	1.49e+00	0	41	104	0	71	21556
2026-01-02 00:41:47.59	1.51	15.49	-50.0	-65.5	3.8	1.49e+00	0	41	104	0	71	21585
2026-01-02 00:41:48.31	1.44	15.56	-50.0	-65.5	3.8	1.49e+00	0	41	104	0	71	21602
2026-01-02 00:41:49.60	1.31	15.68	-50.0	-65.5	3.8	1.49e+00	0	41	104	0	71	21590
2026-01-02 00:41:50.32	1.23	15.75	-50.0	-65.5	3.8	1.49e+00	0	41	104	0	71	21546
2026-01-02 00:41:51.63	1.10	15.88	-50.0	-65.5	3.8	1.49e+00	0	41	104	0	71	21581
2026-01-02 00:41:52.35	1.03	15.95	-50.0	-65.5	3.8	1.49e+00	0	41	104	0	71	21550
2026-01-02 00:41:53.70	0.89	16.08	-50.0	-65.5	3.8	1.49e+00	0	41	104	0	71	21599
2026-01-02 00:41:54.42	0.81	16.15	-50.0	-65.5	3.8	1.49e+00	0	41	104	0	71	21563
2026-01-02 00:41:55.76	0.67	16.28	-50.0	-65.5	3.8	1.49e+00	0	41	104	0	71	21569
2026-01-02 00:41:56.47	0.60	16.35	-50.0	-65.5	3.8	1.49e+00	0	41	104	0	71	21544
2026-01-02 00:41:57.86	0.45	16.49	-50.0	-65.5	3.8	1.49e+00	0	41	104	0	71	21592
2026-01-02 00:41:58.58	0.37	16.56	-50.0	-65.5	3.8	1.49e+00	0	41	104	0	71	21555
2026-01-02 00:41:59.93	0.23	16.70	-50.0	-65.5	3.8	1.49e+00	0	41	104	0	71	21589
2026-01-02 00:42:00.65	0.15	16.77	-50.0	-65.5	3.8	1.49e+00	0	41	104	0	71	21638
2026-01-02 00:42:01.94	0.01	16.90	-50.0	-65.5	3.8	1.49e+00	0	41	104	0	71	21607
2026-01-02 00:42:02.66	359.93	16.97	-50.0	-65.5	3.8	1.49e+00	0	41	104	0	71	21592
2026-01-02 00:42:03.95	359.79	17.10	-50.0	-65.5	3.8	1.49e+00	0	41	104	0	71	21564
2026-01-02 00:42:04.66	359.71	17.17	-50.0	-65.5	3.8	1.49e+00	0	41	104	0	71	21615
2026-01-02 00:42:05.96	359.56	17.30	-50.0	-65.5	3.8	1.49e+00	0	41	104	0	71	21579
2026-01-02 00:42:06.67	359.48	17.38	-50.0	-65.5	3.8	1.49e+00	0	41	104	0	71	21559
2026-01-02 00:42:07.96	359.34	17.51	-50.0	-65.5	3.8	1.49e+00	0	41	104	0	71	21618
2026-01-02 00:42:08.68	359.25	17.58	-50.0	-65.5	3.8	1.49e+00	0	41	104	0	71	21589
2026-01-02 00:42:09.97	359.11	17.71	-50.0	-65.5	3.8	1.49e+00	0	41	104	0	71	21667
2026-01-02 00:42:10.69	359.02	17.79	-50.0	-65.5	3.8	1.49e+00	0	41	104	0	71	21664
2026-01-02 00:42:11.98	358.87	17.92	-50.0	-65.5	3.8	1.49e+00	0	41	104	0	71	21634
2026-01-02 00:42:12.70	358.79	18.00	-50.0	-65.5	3.8	1.49e+00	0	41	104	0	71	21603
2026-01-02 00:42:13.99	358.63	18.13	-50.0	-65.5	3.8	1.49e+00	0	41	104	0	71	21624
2026-01-02 00:42:14.70	358.55	18.20	-50.0	-65.5	3.8	1.49e+00	0	41	104	0	71	21607
2026-01-02 00:42:15.99	358.39	18.34	-50.0	-65.5	3.8	1.49e+00	0	41	104	0	71	21595
2026-01-02 00:42:16.71	358.31	18.41	-50.0	-65.5	3.8	1.49e+00	0	41	104	0	71	21572
2026-01-02 00:42:18.00	358.15	18.55	-50.0	-65.5	3.8	1.49e+00	0	41	104	0	71	21586
2026-01-02 00:42:18.72	358.06	18.63	-50.0	-65.5	3.8	1.49e+00	0	41	104	0	71	21555
2026-01-02 00:42:20.01	357.90	18.76	-50.0	-65.5	3.8	1.49e+00	0	41	104	0	71	21610
2026-01-02 00:42:20.73	357.81	18.84	-50.0	-65.5	3.8	1.49e+00	0	41	104	0	71	21535
2026-01-02 00:42:22.02	357.65	18.98	-50.0	-65.5	3.8	1.49e+00	0	41	104	0	71	21553
2026-01-02 00:42:22.74	357.56	19.05	-50.0	-65.5	3.8	1.49e+00	0	41	104	0	71	21600
2026-01-02 00:42:24.03	357.39	19.19	-50.0	-65.5	3.8	1.49e+00	0	41	104	0	71	21540
2026-01-02 00:42:24.74	357.30	19.27	-50.0	-65.5	3.8	1.49e+00	0	42	104	0	71	21625
2026-01-02 00:42:26.04	357.13	19.41	-50.0	-65.5	3.8	1.49e+00	0	41	104	0	71	21599
2026-01-02 00:42:26.76	357.04	19.48	-50.0	-65.5	3.8	1.49e+00	0	41	104	0	71	21618
2026-01-02 00:42:28.05	356.87	19.62	-50.0	-65.5	3.8	1.49e+00	0	41	104	0	71	21721
2026-01-02 00:42:28.76	356.78	19.70	-50.0	-65.5	3.8	1.49e+00	0	41	104	0	71	21614
2026-01-02 00:42:30.06	356.60	19.84	-50.0	-65.5	3.8	1.49e+00	0	41	104	0	71	21655
2026-01-02 00:42:30.77	356.51	19.92	-50.0	-65.5	3.8	1.49e+00	0	41	104	0	71	21619
2026-01-02 00:42:32.06	356.33	20.06	-50.0	-65.5	3.8	1.49e+00	0	41	104	0	71	21569
2026-01-02 00:42:32.78	356.23	20.14	-50.0	-65.5	3.8	1.49e+00	0	41	104	0	71	21566
2026-01-02 00:42:34.07	356.06	20.28	-50.0	-65.5	3.8	1.49e+00	0	41	104	0	71	21619
2026-01-02 00:42:34.79	355.96	20.36	-50.0	-65.5	3.8	1.49e+00	0	41	104	0	71	21646
2026-01-02 00:42:36.08	355.78	20.51	-50.0	-65.5	3.8	1.49e+00	0	41	104	0	71	21573
2026-01-02 00:42:36.79	355.68	20.58	-50.0	-65.5	3.8	1.49e+00	0	41	104	0	71	21569
2026-01-02 00:42:38.09	355.50	20.73	-50.0	-65.5	3.8	1.49e+00	0	41	104	0	71	21592
2026-01-02 00:42:38.81	355.39	20.81	-50.0	-65.5	3.8	1.49e+00	0	42	104	0	71	21665
2026-01-02 00:42:40.09	355.21	20.95	-50.0	-65.5	3.8	1.49e+00	0	41	104	0	71	21574
2026-01-02 00:42:40.81	355.11	21.03	-50.0	-65.5	3.8	1.49e+00	0	41	104	0	71	21555
2026-01-02 00:42:42.10	354.92	21.18	-50.0	-65.4	3.8	1.49e+00	0	41	104	0	71	21483
2026-01-02 00:42:42.82	354.81	21.26	-50.0	-65.5	3.8	1.49e+00	0	42	104	0	71	21580
2026-01-02 00:42:44.11	354.62	21.41	-50.0	-65.5	3.8	1.49e+00	0	42	104	0	71	21600
2026-01-02 00:42:44.83	354.51	21.49	-50.0	-65.5	3.8	1.49e+00	0	41	104	0	71	21587
2026-01-02 00:42:46.12	354.32	21.64	-50.0	-65.5	3.8	1.49e+00	0	41	104	0	71	21677
2026-01-02 00:42:46.84	354.21	21.72	-50.0	-65.5	3.8	1.49e+00	0	41	104	0	71	21630
2026-01-02 00:42:48.13	354.02	21.87	-50.0	-65.5	3.8	1.49e+00	0	42	104	0	71	21568
2026-01-02 00:42:48.85	353.91	21.95	-50.0	-65.5	3.8	1.49e+00	0	41	104	0	71	21581
2026-01-02 00:42:50.14	353.71	22.10	-50.0	-65.5	3.8	1.49e+00	0	41	104	0	71	21613
2026-01-02 00:42:50.86	353.59	22.18	-50.0	-65.5	3.8	1.49e+00	0	41	104	0	71	21578
2026-01-02 00:42:52.15	353.39	22.33	-50.0	-65.5	3.8	1.49e+00	0	41	104	0	71	21686
2026-01-02 00:42:52.87	353.28	22.41	-50.0	-65.5	3.8	1.49e+00	0	41	104	0	71	21641
2026-01-02 00:42:54.16	353.07	22.56	-50.0	-65.5	3.8	1.49e+00	0	42	104	0	71	21565
2026-01-02 00:42:54.87	352.96	22.64	-50.0	-65.5	3.8	1.49e+00	0	41	104	0	71	21640
2026-01-02 00:42:56.16	352.75	22.80	-50.0	-65.5	3.8	1.49e+00	0	42	104	0	71	21610
2026-01-02 00:42:56.88	352.63	22.88	-50.0	-65.5	3.8	1.49e+00	0	42	104	0	71	21595
2026-01-02 00:42:58.17	352.42	23.03	-50.0	-65.5	3.8	1.49e+00	0	41	104	0	71	21590
2026-01-02 00:42:58.89	352.30	23.12	-50.0	-65.5	3.8	1.49e+00	0	41	104	0	71	21619
2026-01-02 00:43:00.18	352.08	23.27	-50.0	-65.5	3.8	1.49e+00	0	42	104	0	71	21689
2026-01-02 00:43:00.90	351.96	23.35	-50.0	-65.5	3.8	1.49e+00	0	41	104	0	71	21576
2026-01-02 00:43:02.19	351.74	23.51	-50.0	-65.5	3.8	1.49e+00	0	42	104	0	71	21611
2026-01-02 00:43:02.90	351.62	23.59	-50.0	-65.5	3.8	1.49e+00	0	41	104	0	71	21615
2026-01-02 00:43:04.20	351.40	23.74	-50.1	-65.5	3.8	1.49e+00	0	41	104	0	71	21642
2026-01-02 00:43:04.91	351.28	23.83	-50.0	-65.5	3.8	1.49e+00	0	42	104	0	71	21566
2026-01-02 00:43:06.21	351.05	23.98	-50.0	-65.5	3.8	1.49e+00	0	42	104	0	71	21544
2026-01-02 00:43:06.92	350.92	24.07	-50.0	-65.5	3.8	1.49e+00	0	41	104	0	71	21604
2026-01-02 00:43:08.21	350.69	24.22	-50.0	-65.5	3.8	1.49e+00	0	41	104	0	71	21553
2026-01-02 00:43:08.93	350.57	24.31	-50.0	-65.5	3.8	1.49e+00	0	42	104	0	71	21555
2026-01-02 00:43:10.22	350.33	24.47	-50.1	-65.5	3.8	1.49e+00	0	41	104	0	71	21714
2026-01-02 00:43:10.94	350.20	24.55	-50.0	-65.5	3.8	1.49e+00	0	42	104	0	71	21577
2026-01-02 00:43:12.23	349.97	24.71	-50.0	-65.5	3.8	1.49e+00	0	42	104	0	71	21536
2026-01-02 00:43:12.94	349.83	24.80	-50.0	-65.5	3.8	1.49e+00	0	42	104	0	71	21686
2026-01-02 00:43:14.23	349.59	24.95	-50.0	-65.5	3.8	1.49e+00	0	42	104	0	71	21615
2026-01-02 00:43:14.95	349.46	25.04	-50.1	-65.5	3.8	1.49e+00	0	41	104	0	71	21576
2026-01-02 00:43:16.24	349.21	25.20	-50.0	-65.5	3.8	1.49e+00	0	41	104	0	71	21619
2026-01-02 00:43:16.96	349.08	25.29	-50.1	-65.5	3.8	1.49e+00	0	42	104	0	71	21538
2026-01-02 00:43:18.25	348.83	25.44	-50.0	-65.5	3.8	1.49e+00	0	42	104	0	71	21571
2026-01-02 00:43:18.97	348.69	25.53	-50.0	-65.5	3.8	1.49e+00	0	41	104	0	71	21665
2026-01-02 00:43:20.26	348.44	25.69	-50.1	-65.5	3.8	1.49e+00	0	42	104	0	71	21669
2026-01-02 00:43:20.97	348.30	25.78	-50.0	-65.5	3.8	1.49e+00	0	42	104	0	71	21633
2026-01-02 00:43:22.26	348.04	25.94	-50.0	-65.5	3.8	1.49e+00	0	42	104	0	71	21535
2026-01-02 00:43:22.98	347.90	26.02	-50.0	-65.5	3.8	1.49e+00	0	41	104	0	71	21621
2026-01-02 00:43:24.27	347.64	26.18	-50.0	-65.5	3.8	1.49e+00	0	42	104	0	71	21563
2026-01-02 00:43:24.99	347.49	26.27	-50.0	-65.5	3.8	1.49e+00	0	42	104	0	71	21611
2026-01-02 00:43:26.28	347.23	26.43	-50.0	-65.5	3.8	1.49e+00	0	42	104	0	71	21676
2026-01-02 00:43:27.00	347.08	26.52	-50.0	-65.5	3.8	1.49e+00	0	42	104	0	71	21636
2026-01-02 00:43:28.29	346.81	26.68	-50.0	-65.5	3.8	1.49e+00	0	42	104	0	71	21641
2026-01-02 00:43:29.01	346.66	26.77	-50.0	-65.5	3.8	1.49e+00	0	42	104	0	71	21634
2026-01-02 00:43:30.30	346.39	26.93	-50.0	-65.5	3.8	1.49e+00	0	42	104	0	71	21539
2026-01-02 00:43:31.02	346.23	27.02	-50.0	-65.5	3.8	1.49e+00	0	42	104	0	71	21572
2026-01-02 00:43:32.31	345.96	27.18	-50.1	-65.5	3.8	1.49e+00	0	42	104	0	71	21678
2026-01-02 00:43:33.03	345.80	27.27	-50.0	-65.5	3.8	1.49e+00	0	42	104	0	71	21683
2026-01-02 00:43:34.32	345.52	27.43	-50.1	-65.5	3.8	1.49e+00	0	42	104	0	71	21644
2026-01-02 00:43:35.13	345.34	27.54	-50.1	-65.5	3.8	1.49e+00	0	42	104	0	71	21609
2026-01-02 00:43:36.28	345.09	27.68	-50.1	-65.5	3.8	1.49e+00	0	42	104	0	71	21528
2026-01-02 00:43:37.14	344.89	27.79	-50.0	-65.5	3.8	1.49e+00	0	42	104	0	71	21707
2026-01-02 00:43:38.28	344.64	27.93	-50.0	-65.5	3.8	1.49e+00	0	42	104	0	71	21614
2026-01-02 00:43:39.15	344.44	28.04	-50.0	-65.5	3.8	1.49e+00	0	42	104	0	71	21599
2026-01-02 00:43:40.29	344.18	28.18	-50.1	-65.5	3.8	1.49e+00	0	42	104	0	71	21661
2026-01-02 00:43:41.15	343.98	28.29	-50.0	-65.5	3.8	1.49e+00	0	42	104	0	71	21589
2026-01-02 00:43:42.30	343.71	28.43	-50.0	-65.5	3.8	1.49e+00	0	42	104	0	71	21571
2026-01-02 00:43:43.16	343.51	28.54	-50.1	-65.5	3.8	1.49e+00	0	42	104	0	71	21561
2026-01-02 00:43:44.31	343.24	28.69	-50.0	-65.5	3.8	1.49e+00	0	42	104	0	71	21581
2026-01-02 00:43:45.17	343.03	28.80	-50.1	-65.5	3.8	1.49e+00	0	42	104	0	71	21597
2026-01-02 00:43:46.32	342.76	28.94	-50.0	-65.5	3.8	1.49e+00	0	41	104	0	71	21682
2026-01-02 00:43:47.18	342.55	29.05	-50.0	-65.5	3.8	1.49e+00	0	42	104	0	71	21623
2026-01-02 00:43:48.33	342.27	29.19	-50.0	-65.5	3.8	1.49e+00	0	42	104	0	71	21575
2026-01-02 00:43:49.19	342.06	29.30	-50.1	-65.5	3.8	1.49e+00	0	42	104	0	71	21678
2026-01-02 00:43:50.34	341.77	29.45	-50.0	-65.5	3.8	1.49e+00	0	42	104	0	71	21681
2026-01-02 00:43:51.20	341.56	29.55	-50.1	-65.5	3.8	1.49e+00	0	42	104	0	71	21657
2026-01-02 00:43:52.35	341.27	29.70	-50.0	-65.5	3.8	1.49e+00	0	42	104	0	71	21550
2026-01-02 00:43:53.21	341.05	29.81	-50.0	-65.5	3.8	1.49e+00	0	42	104	0	71	21578
2026-01-02 00:43:54.36	340.75	29.95	-50.1	-65.5	3.8	1.49e+00	0	42	104	0	71	21578
2026-01-02 00:43:55.22	340.53	30.06	-50.0	-65.5	3.8	1.49e+00	0	42	104	0	71	21614
2026-01-02 00:43:56.44	340.22	30.21	-50.0	-65.5	3.8	1.49e+00	0	42	104	0	71	21617
2026-01-02 00:43:57.30	339.99	30.32	-50.1	-65.5	3.8	1.49e+00	0	42	104	0	71	21646
2026-01-02 00:43:58.51	339.67	30.47	-50.1	-65.5	3.8	1.49e+00	0	42	104	0	71	21736
2026-01-02 00:43:59.38	339.44	30.58	-50.0	-65.5	3.8	1.49e+00	0	42	104	0	71	21615
2026-01-02 00:44:00.62	339.10	30.73	-50.1	-65.5	3.8	1.49e+00	0	42	104	0	71	21616
2026-01-02 00:44:01.47	338.87	30.84	-50.0	-65.5	3.8	1.49e+00	0	42	104	0	71	21619
2026-01-02 00:44:02.69	338.54	30.99	-50.0	-65.5	3.8	1.49e+00	0	42	104	0	71	21667
2026-01-02 00:44:03.55	338.30	31.09	-50.0	-65.5	3.8	1.49e+00	0	42	104	0	71	21644
2026-01-02 00:44:04.76	337.97	31.24	-50.0	-65.5	3.8	1.49e+00	0	42	104	0	71	21624
2026-01-02 00:44:05.62	337.73	31.35	-50.0	-65.5	3.8	1.49e+00	0	42	104	0	71	21531
2026-01-02 00:44:06.77	337.40	31.49	-50.0	-65.5	3.8	1.49e+00	0	42	104	0	71	21598
2026-01-02 00:44:07.62	337.16	31.60	-50.0	-65.5	3.8	1.49e+00	0	42	104	0	71	21644
2026-01-02 00:44:08.77	336.83	31.74	-50.0	-65.5	3.8	1.49e+00	0	42	104	0	71	21566
2026-01-02 00:44:09.63	336.58	31.84	-50.0	-65.5	3.8	1.49e+00	0	42	104	0	71	21567
2026-01-02 00:44:10.78	336.25	31.98	-50.0	-65.5	3.8	1.49e+00	0	42	104	0	71	21572
2026-01-02 00:44:11.64	336.00	32.09	-50.0	-65.5	3.8	1.49e+00	0	42	104	0	71	21601
2026-01-02 00:44:12.79	335.66	32.23	-50.0	-65.5	3.8	1.49e+00	0	42	104	0	71	21583
2026-01-02 00:44:13.65	335.40	32.33	-50.0	-65.5	3.8	1.49e+00	0	42	104	0	71	21600
2026-01-02 00:44:14.80	335.06	32.47	-50.0	-65.5	3.8	1.49e+00	0	42	104	0	71	21685
2026-01-02 00:44:15.66	334.80	32.57	-50.0	-65.5	3.8	1.49e+00	0	41	104	0	71	21547
2026-01-02 00:44:16.80	334.45	32.71	-50.0	-65.5	3.8	1.49e+00	0	42	104	0	71	21604
2026-01-02 00:44:17.67	334.19	32.81	-50.0	-65.5	3.8	1.49e+00	0	42	104	0	71	21695
2026-01-02 00:44:18.82	333.83	32.95	-50.0	-65.5	3.8	1.49e+00	0	42	104	0	71	21645
2026-01-02 00:44:19.68	333.56	33.05	-50.0	-65.5	3.8	1.49e+00	0	42	104	0	71	21567
2026-01-02 00:44:20.82	333.21	33.18	-50.0	-65.5	3.8	1.49e+00	0	42	104	0	71	21689
2026-01-02 00:44:21.69	332.93	33.29	-50.0	-65.5	3.8	1.49e+00	0	42	104	0	71	21607
2026-01-02 00:44:22.83	332.57	33.42	-50.0	-65.5	3.8	1.49e+00	0	42	104	0	71	21695
2026-01-02 00:44:23.69	332.29	33.52	-50.0	-65.5	3.8	1.49e+00	0	42	104	0	71	21648
2026-01-02 00:44:24.84	331.92	33.65	-50.0	-65.5	3.8	1.49e+00	0	42	104	0	71	21639
2026-01-02 00:44:25.70	331.64	33.75	-50.0	-65.5	3.8	1.49e+00	0	41	104	0	71	21611
2026-01-02 00:44:26.85	331.27	33.88	-50.1	-65.5	3.8	1.49e+00	0	41	104	0	71	21575
2026-01-02 00:44:27.71	330.98	33.98	-50.1	-65.5	3.8	1.49e+00	0	42	104	0	71	21565
2026-01-02 00:44:28.86	330.60	34.11	-50.0	-65.5	3.8	1.49e+00	0	42	104	0	71	21588
2026-01-02 00:44:29.72	330.31	34.20	-50.0	-65.5	3.8	1.49e+00	0	42	104	0	71	21634
2026-01-02 00:44:30.86	329.93	34.33	-50.0	-65.5	3.8	1.49e+00	0	42	104	0	71	21619
2026-01-02 00:44:31.72	329.64	34.43	-50.1	-65.5	3.8	1.49e+00	0	42	104	0	71	21585
2026-01-02 00:44:32.87	329.25	34.55	-50.1	-65.5	3.8	1.49e+00	0	42	104	0	71	21628
2026-01-02 00:44:33.73	328.95	34.65	-50.0	-65.5	3.8	1.49e+00	0	42	104	0	71	21605
2026-01-02 00:44:34.88	328.55	34.77	-50.1	-65.5	3.8	1.49e+00	0	42	104	0	71	21605
2026-01-02 00:44:35.74	328.25	34.86	-50.1	-65.5	3.8	1.49e+00	0	42	104	0	71	21650
2026-01-02 00:44:36.89	327.85	34.99	-50.0	-65.5	3.8	1.49e+00	0	42	104	0	71	21591
2026-01-02 00:44:37.75	327.55	35.08	-50.0	-65.5	3.8	1.49e+00	0	41	104	0	71	21607
2026-01-02 00:44:38.90	327.14	35.20	-50.0	-65.5	3.8	1.49e+00	0	42	104	0	71	21653
2026-01-02 00:44:39.76	326.83	35.29	-50.1	-65.5	3.8	1.49e+00	0	42	104	0	71	21648
2026-01-02 00:44:40.91	326.42	35.41	-50.0	-65.5	3.8	1.49e+00	0	42	104	0	71	21642
2026-01-02 00:44:41.77	326.11	35.49	-50.0	-65.5	3.8	1.49e+00	0	41	104	0	71	21711
2026-01-02 00:44:42.91	325.69	35.61	-50.0	-65.5	3.8	1.49e+00	0	42	104	0	71	21588
2026-01-02 00:44:43.77	325.37	35.70	-50.1	-65.5	3.8	1.49e+00	0	42	104	0	71	21555
2026-01-02 00:44:44.92	324.95	35.81	-50.0	-65.5	3.8	1.49e+00	0	42	104	0	71	21635
2026-01-02 00:44:45.78	324.63	35.89	-50.0	-65.5	3.8	1.49e+00	0	42	104	0	71	21641
2026-01-02 00:44:46.93	324.20	36.01	-50.1	-65.5	3.8	1.49e+00	0	42	104	0	71	21585
2026-01-02 00:44:47.79	323.88	36.09	-50.0	-65.5	3.8	1.49e+00	0	42	104	0	71	21626
2026-01-02 00:44:48.94	323.44	36.20	-50.1	-65.5	3.8	1.49e+00	0	42	104	0	71	21619
2026-01-02 00:44:49.80	323.12	36.28	-50.1	-65.5	3.8	1.49e+00	0	42	104	0	71	21549
2026-01-02 00:44:50.95	322.68	36.38	-50.0	-65.5	3.8	1.49e+00	0	42	104	0	71	21633
2026-01-02 00:44:51.81	322.35	36.46	-50.0	-65.5	3.8	1.49e+00	0	42	104	0	71	21641
2026-01-02 00:44:52.95	321.90	36.56	-50.1	-65.5	3.8	1.49e+00	0	42	104	0	71	21591
2026-01-02 00:44:53.81	321.57	36.64	-50.0	-65.5	3.8	1.49e+00	0	42	104	0	71	21690
2026-01-02 00:44:54.96	321.12	36.74	-50.1	-65.5	3.8	1.49e+00	0	42	104	0	71	21617
2026-01-02 00:44:55.82	320.78	36.81	-50.1	-65.5	3.8	1.49e+00	0	42	104	0	71	21642
2026-01-02 00:44:56.97	320.33	36.91	-50.1	-65.5	3.8	1.49e+00	0	42	104	0	71	21622
2026-01-02 00:44:57.83	319.99	36.98	-50.1	-65.5	3.8	1.49e+00	0	42	104	0	71	21573
2026-01-02 00:44:58.98	319.53	37.08	-50.1	-65.5	3.8	1.49e+00	0	42	104	0	71	21654
2026-01-02 00:44:59.84	319.18	37.15	-50.1	-65.5	3.8	1.49e+00	0	42	104	0	71	21611
2026-01-02 00:45:00.99	318.72	37.24	-50.1	-65.5	3.8	1.49e+00	0	42	104	0	71	21616
2026-01-02 00:45:01.84	318.37	37.30	-50.1	-65.5	3.8	1.49e+00	0	42	104	0	71	21600
2026-01-02 00:45:02.99	317.90	37.39	-50.1	-65.5	3.8	1.49e+00	0	42	104	0	71	21571
2026-01-02 00:45:03.86	317.55	37.46	-50.1	-65.5	3.8	1.49e+00	0	42	104	0	71	21652
2026-01-02 00:45:05.00	317.08	37.54	-50.0	-65.5	3.8	1.49e+00	0	42	104	0	71	21541
2026-01-02 00:45:05.86	316.72	37.60	-50.1	-65.5	3.8	1.49e+00	0	42	104	0	71	21651
2026-01-02 00:45:07.01	316.25	37.68	-50.1	-65.5	3.8	1.49e+00	0	42	104	0	71	21633
2026-01-02 00:45:07.87	315.89	37.74	-50.1	-65.5	3.8	1.49e+00	0	42	104	0	71	21672
2026-01-02 00:45:09.02	315.41	37.82	-50.1	-65.5	3.8	1.49e+00	0	42	104	0	71	21668
2026-01-02 00:45:09.88	315.05	37.87	-50.1	-65.5	3.8	1.49e+00	0	42	104	0	71	21724
2026-01-02 00:45:11.03	314.56	37.95	-50.1	-65.5	3.8	1.49e+00	0	42	104	0	71	21588
2026-01-02 00:45:11.89	314.20	38.00	-50.1	-65.5	3.8	1.49e+00	0	42	104	0	71	21732
2026-01-02 00:45:13.03	313.71	38.07	-50.1	-65.5	3.8	1.49e+00	0	42	104	0	71	21617
2026-01-02 00:45:13.89	313.35	38.12	-50.0	-65.5	3.8	1.49e+00	0	42	104	0	71	21578
2026-01-02 00:45:15.04	312.85	38.19	-50.0	-65.5	3.8	1.49e+00	0	42	104	0	71	21630
2026-01-02 00:45:15.90	312.48	38.23	-50.1	-65.5	3.8	1.49e+00	0	42	104	0	71	21610
2026-01-02 00:45:17.05	311.99	38.29	-50.1	-65.5	3.8	1.49e+00	0	42	104	0	71	21684
2026-01-02 00:45:17.91	311.62	38.34	-50.1	-65.5	3.8	1.49e+00	0	42	104	0	71	21637
2026-01-02 00:45:19.06	311.12	38.40	-50.1	-65.5	3.8	1.49e+00	0	42	104	0	71	21724
2026-01-02 00:45:19.92	310.74	38.44	-50.1	-65.5	3.8	1.49e+00	0	42	104	0	71	21644
2026-01-02 00:45:21.07	310.24	38.49	-50.1	-65.5	3.8	1.49e+00	0	42	104	0	71	21609
2026-01-02 00:45:21.93	309.86	38.53	-50.1	-65.5	3.8	1.49e+00	0	42	104	0	71	21740
2026-01-02 00:45:23.07	309.36	38.58	-50.1	-65.5	3.8	1.49e+00	0	42	104	0	71	21639
2026-01-02 00:45:23.93	308.99	38.61	-50.1	-65.5	3.8	1.49e+00	0	42	104	0	71	21638
2026-01-02 00:45:25.08	308.48	38.66	-50.1	-65.5	3.8	1.49e+00	0	42	104	0	71	21680
2026-01-02 00:45:25.94	308.10	38.69	-50.1	-65.5	3.8	1.49e+00	0	42	104	0	71	21652
2026-01-02 00:45:27.11	307.58	38.73	-50.1	-65.5	3.8	1.49e+00	0	42	104	0	71	21668
2026-01-02 00:45:27.97	307.20	38.76	-50.1	-65.5	3.8	1.49e+00	0	42	104	0	71	21629
2026-01-02 00:45:29.12	306.69	38.79	-50.1	-65.5	3.8	1.49e+00	0	42	104	0	71	21648
2026-01-02 00:45:29.98	306.30	38.82	-50.1	-65.5	3.8	1.49e+00	0	42	104	0	71	21635
2026-01-02 00:45:31.12	305.79	38.85	-50.1	-65.5	3.8	1.49e+00	0	42	104	0	71	21620
2026-01-02 00:45:31.98	305.41	38.87	-50.1	-65.5	3.8	1.49e+00	0	42	104	0	71	21678
2026-01-02 00:45:33.13	304.89	38.90	-50.1	-65.5	3.8	1.49e+00	0	42	104	0	71	21631
2026-01-02 00:45:33.99	304.51	38.91	-50.1	-65.5	3.8	1.49e+00	0	42	104	0	71	21618
2026-01-02 00:45:35.14	303.99	38.94	-50.1	-65.5	3.8	1.49e+00	0	42	104	0	71	21701
2026-01-02 00:45:36.00	303.60	38.95	-50.1	-65.5	3.8	1.49e+00	0	42	104	0	71	21635
2026-01-02 00:45:37.15	303.09	38.97	-50.1	-65.5	3.8	1.49e+00	0	42	104	0	71	21660
2026-01-02 00:45:38.01	302.70	38.98	-50.1	-65.5	3.8	1.49e+00	0	42	104	0	71	21691
2026-01-02 00:45:39.16	302.18	38.99	-50.1	-65.5	3.8	1.49e+00	0	42	104	0	71	21641
2026-01-02 00:45:40.02	301.79	39.00	-50.1	-65.5	3.8	1.49e+00	0	42	104	0	71	21644
2026-01-02 00:45:41.17	301.27	39.01	-50.1	-65.5	3.8	1.49e+00	0	42	104	0	71	21655
2026-01-02 00:45:42.03	300.88	39.01	-50.1	-65.5	3.8	1.49e+00	0	42	104	0	71	21656
2026-01-02 00:45:43.18	300.36	39.02	-50.1	-65.5	3.8	1.49e+00	0	42	104	0	71	21726
2026-01-02 00:45:44.04	299.98	39.02	-50.1	-65.5	3.8	1.49e+00	0	42	104	0	71	21650
2026-01-02 00:45:45.18	299.46	39.01	-50.1	-65.5	3.8	1.49e+00	0	42	104	0	71	21641
2026-01-02 00:45:46.05	299.07	39.01	-50.1	-65.5	3.8	1.49e+00	0	42	104	0	71	21677
2026-01-02 00:45:47.19	298.55	39.01	-50.1	-65.5	3.8	1.49e+00	0	42	104	0	71	21584
2026-01-02 00:45:48.05	298.16	39.00	-50.1	-65.5	3.8	1.49e+00	0	42	104	0	71	21645
2026-01-02 00:45:49.20	297.64	38.99	-50.1	-65.5	3.8	1.49e+00	0	42	104	0	71	21639
2026-01-02 00:45:50.06	297.26	38.98	-50.1	-65.5	3.8	1.49e+00	0	42	104	0	71	21720
2026-01-02 00:45:51.21	296.74	38.96	-50.1	-65.5	3.8	1.49e+00	0	42	104	0	71	21622
2026-01-02 00:45:52.07	296.35	38.95	-50.1	-65.5	3.8	1.49e+00	0	42	104	0	71	21701
2026-01-02 00:45:53.22	295.83	38.93	-50.1	-65.5	3.8	1.49e+00	0	41	104	0	71	21683
2026-01-02 00:45:54.08	295.45	38.91	-50.0	-65.5	3.8	1.49e+00	0	42	104	0	71	21617
2026-01-02 00:45:55.23	294.93	38.89	-50.1	-65.5	3.8	1.49e+00	0	42	104	0	71	21662
2026-01-02 00:45:56.09	294.54	38.87	-50.1	-65.5	3.8	1.49e+00	0	42	104	0	71	21644
2026-01-02 00:45:57.30	294.00	38.84	-50.1	-65.5	3.8	1.49e+00	0	42	104	0	71	21690
2026-01-02 00:45:58.16	293.62	38.82	-50.1	-65.5	3.8	1.49e+00	0	42	104	0	71	21637
2026-01-02 00:45:59.31	293.11	38.78	-50.0	-65.5	3.8	1.49e+00	0	42	104	0	71	21651
2026-01-02 00:46:00.17	292.72	38.75	-50.1	-65.5	3.8	1.49e+00	0	42	104	0	71	21708
2026-01-02 00:46:01.31	292.22	38.72	-50.1	-65.5	3.8	1.49e+00	0	42	104	0	71	21571
2026-01-02 00:46:02.17	291.84	38.69	-50.1	-65.5	3.8	1.49e+00	0	42	104	0	71	21738
2026-01-02 00:46:03.32	291.33	38.64	-50.1	-65.5	3.8	1.49e+00	0	42	104	0	71	21655
2026-01-02 00:46:04.18	290.95	38.61	-50.1	-65.5	3.8	1.49e+00	0	42	104	0	71	21638
2026-01-02 00:46:05.33	290.44	38.56	-50.1	-65.5	3.8	1.49e+00	0	42	104	0	71	21697
2026-01-02 00:46:06.19	290.06	38.53	-50.1	-65.5	3.8	1.49e+00	0	42	104	0	71	21637
2026-01-02 00:46:07.34	289.56	38.47	-50.1	-65.5	3.8	1.49e+00	0	42	104	0	71	21653
2026-01-02 00:46:08.20	289.18	38.43	-50.1	-65.5	3.8	1.49e+00	0	42	104	0	71	21688
2026-01-02 00:46:09.34	288.69	38.38	-50.1	-65.5	3.8	1.49e+00	0	42	104	0	71	21704
2026-01-02 00:46:10.21	288.31	38.34	-50.1	-65.5	3.8	1.49e+00	0	42	104	0	71	21631
2026-01-02 00:46:11.35	287.82	38.28	-50.1	-65.5	3.8	1.49e+00	0	42	104	0	71	21617
2026-01-02 00:46:12.21	287.44	38.23	-50.1	-65.5	3.8	1.49e+00	0	42	104	0	71	21644
2026-01-02 00:46:13.36	286.95	38.17	-50.1	-65.5	3.8	1.49e+00	0	42	104	0	71	21571
2026-01-02 00:46:14.22	286.58	38.12	-50.0	-65.5	3.8	1.49e+00	0	42	104	0	71	21694
2026-01-02 00:46:15.37	286.09	38.05	-50.1	-65.5	3.8	1.49e+00	0	42	104	0	71	21706
2026-01-02 00:46:16.23	285.72	38.00	-50.1	-65.5	3.8	1.49e+00	0	42	104	0	71	21661
2026-01-02 00:46:17.38	285.24	37.93	-50.1	-65.5	3.8	1.49e+00	0	42	104	0	71	21594
2026-01-02 00:46:18.24	284.87	37.87	-50.1	-65.5	3.8	1.49e+00	0	42	104	0	71	21640
2026-01-02 00:46:19.39	284.39	37.79	-50.1	-65.5	3.8	1.49e+00	0	42	104	0	71	21718
2026-01-02 00:46:20.25	284.03	37.74	-50.1	-65.5	3.8	1.49e+00	0	42	104	0	71	21594
2026-01-02 00:46:21.40	283.55	37.66	-50.1	-65.5	3.8	1.49e+00	0	42	104	0	71	21580
2026-01-02 00:46:22.26	283.19	37.60	-50.1	-65.5	3.8	1.49e+00	0	42	104	0	71	21606
2026-01-02 00:46:23.40	282.72	37.51	-50.1	-65.5	3.8	1.49e+00	0	42	104	0	71	21638
2026-01-02 00:46:24.26	282.37	37.45	-50.1	-65.6	3.8	1.49e+00	0	42	104	0	71	21765
2026-01-02 00:46:25.41	281.90	37.37	-50.1	-65.5	3.8	1.49e+00	0	42	104	0	71	21698
2026-01-02 00:46:26.27	281.55	37.30	-50.1	-65.5	3.8	1.49e+00	0	42	104	0	71	21682
2026-01-02 00:46:27.55	281.03	37.20	-50.1	-65.5	3.8	1.49e+00	0	42	104	0	71	21664
2026-01-02 00:46:28.26	280.74	37.14	-50.1	-65.6	3.8	1.49e+00	0	42	104	0	71	21767
2026-01-02 00:46:29.76	280.14	37.02	-50.1	-65.5	3.8	1.49e+00	0	42	104	0	71	21650
2026-01-02 00:46:30.48	279.85	36.96	-50.1	-65.5	3.8	1.49e+00	0	42	104	0	71	21647
2026-01-02 00:46:31.80	279.33	36.85	-50.1	-65.5	3.8	1.49e+00	0	42	104	0	71	21609
2026-01-02 00:46:32.52	279.04	36.79	-50.1	-65.5	3.8	1.49e+00	0	42	104	0	71	21655
2026-01-02 00:46:33.89	278.50	36.67	-50.1	-65.5	3.8	1.49e+00	0	42	104	0	71	21627
2026-01-02 00:46:34.61	278.22	36.61	-50.1	-65.5	3.8	1.49e+00	0	42	104	0	71	21698
2026-01-02 00:46:35.90	277.72	36.49	-50.1	-65.5	3.8	1.49e+00	0	42	104	0	71	21597
2026-01-02 00:46:36.62	277.44	36.43	-50.1	-65.5	3.8	1.49e+00	0	42	104	0	71	21581
2026-01-02 00:46:37.91	276.95	36.31	-50.1	-65.5	3.8	1.49e+00	0	42	104	0	71	21663
2026-01-02 00:46:38.63	276.67	36.24	-50.1	-65.5	3.8	1.49e+00	0	42	104	0	71	21603
2026-01-02 00:46:39.92	276.18	36.12	-50.1	-65.5	3.8	1.49e+00	0	42	104	0	71	21622
2026-01-02 00:46:40.65	275.91	36.05	-50.1	-65.5	3.8	1.49e+00	0	42	104	0	71	21661
2026-01-02 00:46:41.94	275.42	35.92	-50.1	-65.5	3.8	1.49e+00	0	42	104	0	71	21621
2026-01-02 00:46:42.66	275.15	35.85	-50.1	-65.5	3.8	1.49e+00	0	42	104	0	71	21680
2026-01-02 00:46:43.95	274.68	35.73	-50.1	-65.5	3.8	1.49e+00	0	42	104	0	71	21604
2026-01-02 00:46:44.66	274.41	35.65	-50.1	-65.5	3.8	1.49e+00	0	42	104	0	71	21670
2026-01-02 00:46:45.96	273.94	35.52	-50.1	-65.5	3.8	1.49e+00	0	42	104	0	71	21660
2026-01-02 00:46:46.67	273.68	35.45	-50.1	-65.5	3.8	1.49e+00	0	42	104	0	71	21654
2026-01-02 00:46:47.97	273.21	35.32	-50.1	-65.5	3.8	1.49e+00	0	42	104	0	71	21645
2026-01-02 00:46:48.68	272.95	35.24	-50.1	-65.5	3.8	1.49e+00	0	42	104	0	71	21669
2026-01-02 00:46:49.97	272.49	35.11	-50.1	-65.5	3.8	1.49e+00	0	42	104	0	71	21639
2026-01-02 00:46:50.69	272.24	35.03	-50.1	-65.5	3.8	1.49e+00	0	42	104	0	71	21688
2026-01-02 00:46:51.98	271.78	34.89	-50.1	-65.5	3.8	1.49e+00	0	42	104	0	71	21645
2026-01-02 00:46:52.70	271.53	34.82	-50.1	-65.5	3.8	1.49e+00	0	42	104	0	71	21667
2026-01-02 00:46:53.99	271.08	34.68	-50.1	-65.5	3.8	1.49e+00	0	42	104	0	71	21684
2026-01-02 00:46:54.71	270.83	34.60	-50.1	-65.5	3.8	1.49e+00	0	42	104	0	71	21664
2026-01-02 00:46:56.00	270.39	34.46	-50.1	-65.5	3.8	1.49e+00	0	42	104	0	71	21695
2026-01-02 00:46:56.72	270.14	34.38	-50.1	-65.5	3.8	1.49e+00	0	42	104	0	71	21658
2026-01-02 00:46:58.01	269.71	34.23	-50.1	-65.5	3.8	1.49e+00	0	42	104	0	71	21628
2026-01-02 00:46:58.73	269.46	34.15	-50.1	-65.5	3.8	1.49e+00	0	42	104	0	71	21694
2026-01-02 00:47:00.02	269.03	34.01	-50.1	-65.5	3.8	1.49e+00	0	42	104	0	71	21618
2026-01-02 00:47:00.73	268.80	33.93	-50.1	-65.5	3.8	1.49e+00	0	42	104	0	71	21674
2026-01-02 00:47:02.02	268.37	33.78	-50.1	-65.5	3.8	1.49e+00	0	42	104	0	71	21660
2026-01-02 00:47:02.74	268.14	33.70	-50.1	-65.5	3.8	1.49e+00	0	42	104	0	71	21598
2026-01-02 00:47:04.04	267.72	33.55	-50.1	-65.5	3.8	1.49e+00	0	42	104	0	71	21628
2026-01-02 00:47:04.75	267.49	33.46	-50.1	-65.5	3.8	1.49e+00	0	42	104	0	71	21711
2026-01-02 00:47:06.04	267.08	33.31	-50.1	-65.5	3.8	1.49e+00	0	42	104	0	71	21657
2026-01-02 00:47:06.76	266.85	33.23	-50.1	-65.5	3.8	1.49e+00	0	42	104	0	71	21653
2026-01-02 00:47:08.05	266.44	33.08	-50.1	-65.5	3.8	1.49e+00	0	42	104	0	71	21676
2026-01-02 00:47:08.77	266.21	32.99	-50.1	-65.5	3.8	1.49e+00	0	42	104	0	71	21653
2026-01-02 00:47:10.06	265.81	32.84	-50.1	-65.5	3.8	1.49e+00	0	42	104	0	71	21644
2026-01-02 00:47:10.78	265.59	32.75	-50.1	-65.5	3.8	1.49e+00	0	42	104	0	71	21619
2026-01-02 00:47:12.07	265.20	32.60	-50.1	-65.5	3.8	1.49e+00	0	42	104	0	71	21664
2026-01-02 00:47:12.78	264.98	32.51	-50.1	-65.5	3.8	1.49e+00	0	42	104	0	71	21623
2026-01-02 00:47:14.07	264.59	32.36	-50.1	-65.5	3.8	1.49e+00	0	42	104	0	71	21689
2026-01-02 00:47:14.79	264.38	32.27	-50.1	-65.5	3.8	1.49e+00	0	42	104	0	71	21634
2026-01-02 00:47:16.09	263.99	32.11	-50.1	-65.5	3.8	1.49e+00	0	42	104	0	71	21642
2026-01-02 00:47:16.80	263.78	32.02	-50.1	-65.5	3.8	1.49e+00	0	42	104	0	71	21699
2026-01-02 00:47:18.09	263.40	31.87	-50.1	-65.5	3.8	1.49e+00	0	42	104	0	71	21687
2026-01-02 00:47:18.81	263.19	31.78	-50.1	-65.5	3.8	1.49e+00	0	42	104	0	71	21638
2026-01-02 00:47:20.10	262.82	31.62	-50.1	-65.5	3.8	1.49e+00	0	42	104	0	71	21703
2026-01-02 00:47:20.82	262.62	31.53	-50.1	-65.5	3.8	1.49e+00	0	42	104	0	71	21731
2026-01-02 00:47:22.11	262.25	31.37	-50.1	-65.5	3.8	1.49e+00	0	42	104	0	71	21577
2026-01-02 00:47:22.82	262.05	31.28	-50.1	-65.5	3.8	1.49e+00	0	42	104	0	71	21683
2026-01-02 00:47:24.12	261.69	31.12	-50.1	-65.5	3.8	1.49e+00	0	42	104	0	71	21636
2026-01-02 00:47:24.83	261.49	31.03	-50.1	-65.5	3.8	1.49e+00	0	42	104	0	71	21641
2026-01-02 00:47:26.12	261.13	30.87	-50.1	-65.5	3.8	1.49e+00	0	42	104	0	71	21593
2026-01-02 00:47:26.84	260.94	30.78	-50.1	-65.5	3.8	1.49e+00	0	42	104	0	71	21630
2026-01-02 00:47:28.13	260.59	30.62	-50.1	-65.5	3.8	1.49e+00	0	42	104	0	71	21673
2026-01-02 00:47:28.85	260.39	30.53	-50.1	-65.5	3.8	1.49e+00	0	42	104	0	71	21684
2026-01-02 00:47:30.14	260.05	30.37	-50.1	-65.5	3.8	1.49e+00	0	42	104	0	71	21669
2026-01-02 00:47:30.86	259.86	30.28	-50.1	-65.5	3.8	1.49e+00	0	42	104	0	71	21620
2026-01-02 00:47:32.15	259.52	30.12	-50.1	-65.5	3.8	1.49e+00	0	42	104	0	71	21612
2026-01-02 00:47:32.87	259.33	30.03	-50.1	-65.5	3.8	1.49e+00	0	42	104	0	71	21695
2026-01-02 00:47:34.16	259.00	29.87	-50.1	-65.5	3.8	1.49e+00	0	42	104	0	71	21662
2026-01-02 00:47:34.88	258.81	29.78	-50.1	-65.5	3.8	1.49e+00	0	42	104	0	71	21753
2026-01-02 00:47:36.17	258.49	29.61	-50.0	-65.5	3.8	1.49e+00	0	42	104	0	71	21600
2026-01-02 00:47:36.89	258.30	29.52	-50.1	-65.5	3.8	1.49e+00	0	42	104	0	71	21624
2026-01-02 00:47:38.18	257.98	29.36	-50.1	-65.5	3.8	1.49e+00	0	42	104	0	71	21685
2026-01-02 00:47:38.90	257.80	29.27	-50.1	-65.5	3.8	1.49e+00	0	42	104	0	71	21701
2026-01-02 00:47:40.19	257.48	29.11	-50.1	-65.5	3.8	1.49e+00	0	42	104	0	71	21677
2026-01-02 00:47:40.90	257.31	29.02	-50.1	-65.5	3.8	1.49e+00	0	42	104	0	71	21690
2026-01-02 00:47:42.20	257.00	28.85	-50.1	-65.5	3.8	1.49e+00	0	42	104	0	71	21605
2026-01-02 00:47:43.14	256.77	28.74	-50.1	-65.5	3.8	1.49e+00	0	42	104	0	71	21699
2026-01-02 00:47:44.14	256.53	28.61	-50.1	-65.5	3.8	1.49e+00	0	42	104	0	71	21730
2026-01-02 00:47:45.15	256.29	28.48	-50.1	-65.5	3.8	1.49e+00	0	42	104	0	71	21636
2026-01-02 00:47:46.15	256.06	28.36	-50.1	-65.5	3.8	1.49e+00	0	42	104	0	71	21632
2026-01-02 00:47:47.15	255.82	28.23	-50.1	-65.5	3.8	1.49e+00	0	42	104	0	71	21720
2026-01-02 00:47:48.15	255.59	28.10	-50.1	-65.5	3.8	1.49e+00	0	42	104	0	71	21726
2026-01-02 00:47:49.16	255.36	27.98	-50.1	-65.5	3.8	1.49e+00	0	42	104	0	71	21708
2026-01-02 00:47:50.16	255.13	27.85	-50.1	-65.5	3.8	1.49e+00	0	42	104	0	71	21719
2026-01-02 00:47:51.17	254.90	27.72	-50.1	-65.5	3.8	1.49e+00	0	42	104	0	71	21748
2026-01-02 00:47:52.17	254.68	27.60	-50.1	-65.5	3.8	1.49e+00	0	42	104	0	71	21639
2026-01-02 00:47:53.17	254.46	27.47	-50.1	-65.5	3.8	1.49e+00	0	42	104	0	71	21706
2026-01-02 00:47:54.18	254.24	27.34	-50.1	-65.5	3.8	1.49e+00	0	42	104	0	71	21699
2026-01-02 00:47:55.18	254.02	27.22	-50.1	-65.5	3.8	1.49e+00	0	42	104	0	71	21667
2026-01-02 00:47:56.19	253.80	27.09	-50.1	-65.6	3.8	1.49e+00	0	42	104	0	71	21760
2026-01-02 00:47:57.19	253.58	26.97	-50.1	-65.5	3.8	1.49e+00	0	42	104	0	71	21672
2026-01-02 00:47:58.20	253.37	26.84	-50.1	-65.5	3.8	1.49e+00	0	42	104	0	71	21742
2026-01-02 00:47:59.20	253.15	26.72	-50.1	-65.5	3.8	1.49e+00	0	42	104	0	71	21723
2026-01-02 00:48:00.20	252.94	26.59	-50.1	-65.5	3.8	1.49e+00	0	42	104	0	71	21665
2026-01-02 00:48:01.21	252.73	26.47	-50.1	-65.5	3.8	1.49e+00	0	42	104	0	71	21742
2026-01-02 00:48:02.21	252.53	26.34	-50.1	-65.6	3.8	1.49e+00	0	42	104	0	71	21806
2026-01-02 00:48:03.22	252.32	26.22	-50.1	-65.5	3.8	1.49e+00	0	42	104	0	71	21739
2026-01-02 00:48:04.22	252.12	26.09	-50.1	-65.5	3.8	1.49e+00	0	42	104	0	71	21689
2026-01-02 00:48:05.22	251.91	25.97	-50.1	-65.5	3.8	1.49e+00	0	42	104	0	71	21699
2026-01-02 00:48:06.23	251.71	25.84	-50.1	-65.5	3.8	1.49e+00	0	42	104	0	71	21697
2026-01-02 00:48:07.23	251.51	25.72	-50.1	-65.5	3.8	1.49e+00	0	42	104	0	71	21706
2026-01-02 00:48:08.23	251.32	25.60	-50.1	-65.5	3.8	1.49e+00	0	42	104	0	71	21711
2026-01-02 00:48:09.24	251.12	25.47	-50.1	-65.5	3.8	1.49e+00	0	42	104	0	71	21741
2026-01-02 00:48:10.45	250.88	25.32	-50.1	-65.5	3.8	1.49e+00	0	42	104	0	71	21633
2026-01-02 00:48:11.34	250.71	25.21	-50.1	-65.5	3.8	1.49e+00	0	42	104	0	71	21686
2026-01-02 00:48:12.68	250.46	25.05	-50.1	-65.5	3.8	1.49e+00	0	42	104	0	71	21724
2026-01-02 00:48:13.39	250.32	24.96	-50.1	-65.5	3.8	1.49e+00	0	42	104	0	71	21737
2026-01-02 00:48:14.89	250.04	24.78	-50.1	-65.6	3.8	1.49e+00	0	42	104	0	71	21790
2026-01-02 00:48:15.61	249.91	24.69	-50.1	-65.5	3.8	1.49e+00	0	42	104	0	71	21632
2026-01-02 00:48:16.90	249.67	24.53	-50.1	-65.5	3.8	1.49e+00	0	42	104	0	71	21646
2026-01-02 00:48:17.62	249.54	24.45	-50.1	-65.5	3.8	1.49e+00	0	42	104	0	71	21707
2026-01-02 00:48:18.91	249.30	24.29	-50.1	-65.5	3.8	1.49e+00	0	42	104	0	71	21683
2026-01-02 00:48:19.63	249.17	24.20	-50.1	-65.5	3.8	1.49e+00	0	42	104	0	71	21656
2026-01-02 00:48:20.91	248.94	24.05	-50.1	-65.5	3.8	1.49e+00	0	42	104	0	71	21672
2026-01-02 00:48:21.63	248.81	23.96	-50.1	-65.5	3.8	1.49e+00	0	42	104	0	71	21609
2026-01-02 00:48:22.92	248.59	23.81	-50.1	-65.5	3.8	1.49e+00	0	42	104	0	71	21676
2026-01-02 00:48:23.64	248.46	23.72	-50.1	-65.6	3.8	1.49e+00	0	42	104	0	71	21763
2026-01-02 00:48:24.93	248.24	23.57	-50.1	-65.5	3.8	1.49e+00	0	42	104	0	71	21715
2026-01-02 00:48:25.65	248.11	23.48	-50.1	-65.5	3.8	1.49e+00	0	42	104	0	71	21643
2026-01-02 00:48:26.94	247.89	23.33	-50.1	-65.5	3.8	1.49e+00	0	42	104	0	71	21682
2026-01-02 00:48:27.66	247.77	23.24	-50.1	-65.5	3.8	1.49e+00	0	42	104	0	71	21695
2026-01-02 00:48:28.95	247.55	23.09	-50.1	-65.5	3.8	1.49e+00	0	42	104	0	71	21722
2026-01-02 00:48:29.66	247.44	23.01	-50.1	-65.5	3.8	1.49e+00	0	42	104	0	71	21661
2026-01-02 00:48:30.95	247.22	22.85	-50.1	-65.5	3.8	1.49e+00	0	42	104	0	71	21670
2026-01-02 00:48:31.67	247.10	22.77	-50.1	-65.5	3.8	1.49e+00	0	42	104	0	71	21699
2026-01-02 00:48:32.96	246.89	22.62	-50.1	-65.5	3.8	1.49e+00	0	42	104	0	71	21688
2026-01-02 00:48:33.68	246.78	22.53	-50.1	-65.5	3.8	1.49e+00	0	42	104	0	71	21670
2026-01-02 00:48:34.97	246.57	22.38	-50.1	-65.5	3.8	1.49e+00	0	42	104	0	71	21752
2026-01-02 00:48:35.69	246.46	22.30	-50.1	-65.5	3.8	1.49e+00	0	42	104	0	71	21735
2026-01-02 00:48:36.98	246.25	22.15	-50.1	-65.5	3.8	1.49e+00	0	42	104	0	71	21624
2026-01-02 00:48:37.70	246.14	22.06	-50.1	-65.5	3.8	1.49e+00	0	42	104	0	71	21719
2026-01-02 00:48:38.99	245.94	21.92	-50.1	-65.5	3.8	1.49e+00	0	42	104	0	71	21745
2026-01-02 00:48:39.71	245.83	21.83	-50.1	-65.5	3.8	1.49e+00	0	42	104	0	71	21690
2026-01-02 00:48:41.00	245.63	21.68	-50.1	-65.5	3.8	1.49e+00	0	42	104	0	71	21735
2026-01-02 00:48:41.71	245.52	21.60	-50.1	-65.5	3.8	1.49e+00	0	42	104	0	71	21730
2026-01-02 00:48:43.00	245.32	21.46	-50.1	-65.5	3.8	1.49e+00	0	42	104	0	71	21693
2026-01-02 00:48:43.72	245.22	21.37	-50.1	-65.5	3.8	1.49e+00	0	42	104	0	71	21735
2026-01-02 00:48:45.01	245.02	21.23	-50.1	-65.5	3.8	1.49e+00	0	42	104	0	71	21697
2026-01-02 00:48:45.73	244.92	21.14	-50.1	-65.5	3.8	1.49e+00	0	42	104	0	71	21668
2026-01-02 00:48:47.02	244.73	21.00	-50.1	-65.5	3.8	1.49e+00	0	42	104	0	71	21731
2026-01-02 00:48:47.74	244.62	20.92	-50.1	-65.5	3.8	1.49e+00	0	42	104	0	71	21723
2026-01-02 00:48:49.03	244.44	20.77	-50.1	-65.5	3.8	1.49e+00	0	42	104	0	71	21748
2026-01-02 00:48:49.75	244.33	20.69	-50.1	-65.5	3.8	1.49e+00	0	42	104	0	71	21717
2026-01-02 00:48:51.04	244.15	20.55	-50.1	-65.5	3.8	1.49e+00	0	42	104	0	71	21652
2026-01-02 00:48:51.75	244.05	20.47	-50.1	-65.5	3.8	1.49e+00	0	42	104	0	71	21699
2026-01-02 00:48:53.05	243.87	20.32	-50.1	-65.5	3.8	1.49e+00	0	42	104	0	71	21724
2026-01-02 00:48:53.76	243.77	20.24	-50.1	-65.6	3.8	1.49e+00	0	42	104	0	71	21773
2026-01-02 00:48:55.05	243.59	20.10	-50.1	-65.5	3.8	1.49e+00	0	42	104	0	71	21660
2026-01-02 00:48:55.77	243.49	20.02	-50.1	-65.5	3.8	1.49e+00	0	42	104	0	71	21716
2026-01-02 00:48:57.06	243.32	19.88	-50.1	-65.5	3.8	1.49e+00	0	42	104	0	71	21710
2026-01-02 00:48:57.78	243.22	19.80	-50.1	-65.5	3.8	1.49e+00	0	42	104	0	71	21705
2026-01-02 00:48:59.17	243.03	19.65	-50.1	-65.5	3.8	1.49e+00	0	42	104	0	71	21665
2026-01-02 00:48:59.88	242.94	19.57	-50.1	-65.5	3.8	1.49e+00	0	42	104	0	71	21682
2026-01-02 00:49:01.17	242.77	19.43	-50.1	-65.6	3.8	1.49e+00	0	42	104	0	71	21779
2026-01-02 00:49:01.89	242.67	19.35	-50.1	-65.5	3.8	1.49e+00	0	42	104	0	71	21652
2026-01-02 00:49:03.18	242.50	19.21	-50.1	-65.5	3.8	1.49e+00	0	42	104	0	71	21726
2026-01-02 00:49:03.90	242.41	19.14	-50.1	-65.5	3.8	1.49e+00	0	42	104	0	71	21740
2026-01-02 00:49:05.19	242.25	19.00	-50.1	-65.5	3.8	1.49e+00	0	42	104	0	71	21595
2026-01-02 00:49:05.91	242.15	18.92	-50.1	-65.6	3.8	1.49e+00	0	42	104	0	71	21777
2026-01-02 00:49:07.20	241.99	18.78	-50.1	-65.5	3.8	1.49e+00	0	42	104	0	71	21651
2026-01-02 00:49:07.92	241.90	18.71	-50.1	-65.5	3.8	1.49e+00	0	42	104	0	71	21694
2026-01-02 00:49:09.21	241.74	18.57	-50.1	-65.5	3.8	1.49e+00	0	42	104	0	71	21750
2026-01-02 00:49:09.93	241.65	18.49	-50.1	-65.5	3.8	1.49e+00	0	42	104	0	71	21684
2026-01-02 00:49:11.21	241.49	18.36	-50.1	-65.5	3.8	1.49e+00	0	42	104	0	71	21703
2026-01-02 00:49:11.93	241.40	18.28	-50.1	-65.5	3.8	1.49e+00	0	42	104	0	71	21594
2026-01-02 00:49:13.22	241.25	18.15	-50.1	-65.5	3.8	1.49e+00	0	42	104	0	71	21752
2026-01-02 00:49:13.94	241.16	18.07	-50.1	-65.5	3.8	1.49e+00	0	42	104	0	71	21634
2026-01-02 00:49:15.23	241.01	17.94	-50.1	-65.5	3.8	1.49e+00	0	42	104	0	71	21689
2026-01-02 00:49:15.94	240.92	17.86	-50.1	-65.5	3.8	1.49e+00	0	42	104	0	71	21678
2026-01-02 00:49:17.24	240.77	17.73	-50.1	-65.5	3.8	1.49e+00	0	42	104	0	71	21671
2026-01-02 00:49:17.95	240.68	17.65	-50.1	-65.5	3.8	1.49e+00	0	42	104	0	71	21715
2026-01-02 00:49:19.24	240.53	17.52	-50.1	-65.5	3.8	1.49e+00	0	42	104	0	71	21659
2026-01-02 00:49:19.96	240.45	17.45	-50.1	-65.5	3.8	1.49e+00	0	42	104	0	71	21686
2026-01-02 00:49:21.25	240.30	17.32	-50.1	-65.5	3.8	1.49e+00	0	42	104	0	71	21725
2026-01-02 00:49:21.97	240.22	17.24	-50.1	-65.5	3.8	1.49e+00	0	42	104	0	71	21710
2026-01-02 00:49:23.26	240.08	17.11	-50.1	-65.5	3.8	1.49e+00	0	42	104	0	71	21728
2026-01-02 00:49:23.98	239.99	17.04	-50.1	-65.5	3.8	1.49e+00	0	42	104	0	71	21671
2026-01-02 00:49:25.27	239.85	16.91	-50.1	-65.5	3.8	1.49e+00	0	42	104	0	71	21649
2026-01-02 00:49:25.99	239.77	16.83	-50.1	-65.5	3.8	1.49e+00	0	42	104	0	71	21729
2026-01-02 00:49:27.28	239.63	16.70	-50.1	-65.5	3.8	1.49e+00	0	42	104	0	71	21720
2026-01-02 00:49:28.25	239.52	16.61	-50.1	-65.5	3.8	1.49e+00	0	42	104	0	71	21709
2026-01-02 00:49:29.58	239.38	16.47	-50.1	-65.5	3.8	1.49e+00	0	42	104	0	71	21737
2026-01-02 00:49:30.33	239.30	16.40	-50.1	-65.5	3.8	1.49e+00	0	42	104	0	71	21718
2026-01-02 00:49:31.62	239.16	16.27	-50.1	-65.5	3.8	1.49e+00	0	42	104	0	71	21672
2026-01-02 00:49:32.34	239.08	16.20	-50.1	-65.5	3.8	1.49e+00	0	42	104	0	71	21709
2026-01-02 00:49:33.63	238.95	16.07	-50.1	-65.5	3.8	1.49e+00	0	42	104	0	71	21708
2026-01-02 00:49:34.34	238.87	16.00	-50.1	-65.5	3.8	1.49e+00	0	42	104	0	71	21628
2026-01-02 00:49:35.63	238.74	15.88	-50.1	-65.5	3.8	1.49e+00	0	42	104	0	71	21629
2026-01-02 00:49:36.35	238.66	15.81	-50.1	-65.5	3.8	1.49e+00	0	42	104	0	71	21731
2026-01-02 00:49:37.64	238.53	15.68	-50.1	-65.5	3.8	1.49e+00	0	42	104	0	71	21678
2026-01-02 00:49:38.36	238.46	15.61	-50.1	-65.5	3.8	1.49e+00	0	42	104	0	71	21664
2026-01-02 00:49:39.65	238.33	15.49	-50.1	-65.5	3.8	1.49e+00	0	42	104	0	71	21755
2026-01-02 00:49:40.37	238.25	15.42	-50.1	-65.5	3.8	1.49e+00	0	42	104	0	71	21647
2026-01-02 00:49:41.66	238.13	15.29	-50.1	-65.5	3.8	1.49e+00	0	42	104	0	71	21673
2026-01-02 00:49:42.37	238.06	15.22	-50.1	-65.5	3.8	1.49e+00	0	42	104	0	71	21671
2026-01-02 00:49:43.67	237.93	15.10	-50.1	-65.5	3.8	1.49e+00	0	42	104	0	71	21673
2026-01-02 00:49:44.38	237.86	15.03	-50.1	-65.5	3.8	1.49e+00	0	42	104	0	71	21696
2026-01-02 00:49:45.67	237.73	14.91	-50.1	-65.5	3.8	1.49e+00	0	42	104	0	71	21610
2026-01-02 00:49:46.39	237.66	14.84	-50.1	-65.5	3.8	1.49e+00	0	42	104	0	71	21745
2026-01-02 00:49:47.68	237.54	14.72	-50.1	-65.5	3.8	1.49e+00	0	42	104	0	71	21672
2026-01-02 00:49:48.40	237.47	14.65	-50.1	-65.5	3.8	1.49e+00	0	42	104	0	71	21741
2026-01-02 00:49:49.69	237.35	14.53	-50.1	-65.5	3.8	1.49e+00	0	42	104	0	71	21731
2026-01-02 00:49:50.41	237.28	14.46	-50.1	-65.5	3.8	1.49e+00	0	42	104	0	71	21679
2026-01-02 00:49:51.70	237.16	14.34	-50.1	-65.5	3.8	1.49e+00	0	42	104	0	71	21645
2026-01-02 00:49:52.42	237.09	14.27	-50.1	-65.5	3.8	1.49e+00	0	42	104	0	71	21719
2026-01-02 00:49:53.71	236.97	14.15	-50.1	-65.5	3.8	1.49e+00	0	42	104	0	71	21684
2026-01-02 00:49:54.43	236.91	14.09	-50.1	-65.5	3.8	1.49e+00	0	42	104	0	71	21710
2026-01-02 00:49:55.83	236.78	13.96	-50.1	-65.5	3.8	1.49e+00	0	42	104	0	71	21632
2026-01-02 00:49:56.55	236.71	13.89	-50.1	-65.5	3.8	1.49e+00	0	42	104	0	71	21650
2026-01-02 00:49:57.90	236.59	13.77	-50.1	-65.5	3.8	1.49e+00	0	42	104	0	71	21660
2026-01-02 00:49:58.62	236.53	13.70	-50.1	-65.5	3.8	1.49e+00	0	42	104	0	71	21639
2026-01-02 00:49:59.91	236.41	13.58	-50.1	-65.5	3.8	1.49e+00	0	42	104	0	71	21653
2026-01-02 00:50:00.63	236.35	13.52	-50.1	-65.5	3.8	1.49e+00	0	42	104	0	71	21690
2026-01-02 00:50:01.92	236.23	13.40	-50.1	-65.5	3.8	1.49e+00	0	42	104	0	71	21620
2026-01-02 00:50:02.64	236.17	13.34	-50.1	-65.5	3.8	1.49e+00	0	42	104	0	71	21635
2026-01-02 00:50:03.93	236.06	13.22	-50.1	-65.5	3.8	1.49e+00	0	42	104	0	71	21679
2026-01-02 00:50:04.65	236.00	13.16	-50.1	-65.5	3.8	1.49e+00	0	42	104	0	71	21692
2026-01-02 00:50:05.94	235.89	13.04	-50.1	-65.5	3.8	1.49e+00	0	42	104	0	71	21691
2026-01-02 00:50:06.65	235.83	12.98	-50.1	-65.5	3.8	1.49e+00	0	42	104	0	71	21743
2026-01-02 00:50:07.95	235.72	12.86	-50.1	-65.5	3.8	1.49e+00	0	42	104	0	71	21696
2026-01-02 00:50:08.66	235.66	12.80	-50.1	-65.6	3.8	1.49e+00	0	42	104	0	71	21799
2026-01-02 00:50:09.95	235.55	12.68	-50.1	-65.5	3.8	1.49e+00	0	42	104	0	71	21637
2026-01-02 00:50:10.67	235.49	12.62	-50.1	-65.5	3.8	1.49e+00	0	42	104	0	71	21687
2026-01-02 00:50:11.96	235.38	12.51	-50.1	-65.5	3.8	1.49e+00	0	42	104	0	71	21700
2026-01-02 00:50:12.68	235.33	12.44	-50.1	-65.5	3.8	1.49e+00	0	42	104	0	71	21678
2026-01-02 00:50:13.97	235.22	12.33	-50.1	-65.5	3.8	1.49e+00	0	42	104	0	71	21648
2026-01-02 00:50:14.69	235.16	12.27	-50.1	-65.5	3.8	1.49e+00	0	42	104	0	71	21671
2026-01-02 00:50:15.98	235.06	12.16	-50.1	-65.5	3.8	1.49e+00	0	42	104	0	71	21680
2026-01-02 00:50:16.70	235.00	12.09	-50.1	-65.5	3.8	1.49e+00	0	42	104	0	71	21624
2026-01-02 00:50:17.99	234.90	11.98	-50.1	-65.5	3.8	1.49e+00	0	42	104	0	71	21694
2026-01-02 00:50:18.71	234.84	11.92	-50.1	-65.5	3.8	1.49e+00	0	42	104	0	71	21722
2026-01-02 00:50:20.00	234.74	11.81	-50.1	-65.5	3.8	1.49e+00	0	42	104	0	71	21723
2026-01-02 00:50:20.72	234.68	11.75	-50.1	-65.5	3.8	1.49e+00	0	42	104	0	71	21657
2026-01-02 00:50:22.01	234.58	11.64	-50.1	-65.5	3.8	1.49e+00	0	42	104	0	71	21681
2026-01-02 00:50:22.73	234.53	11.58	-50.1	-65.5	3.8	1.49e+00	0	42	104	0	71	21659
2026-01-02 00:50:24.02	234.43	11.47	-50.1	-65.5	3.8	1.49e+00	0	42	104	0	71	21726
2026-01-02 00:50:24.73	234.37	11.41	-50.1	-65.6	3.8	1.49e+00	0	42	104	0	71	21782
2026-01-02 00:50:26.03	234.28	11.30	-50.1	-65.5	3.8	1.49e+00	0	42	104	0	71	21629
2026-01-02 00:50:26.74	234.22	11.24	-50.1	-65.5	3.8	1.49e+00	0	42	104	0	71	21701
2026-01-02 00:50:28.03	234.13	11.13	-50.1	-65.5	3.8	1.49e+00	0	42	104	0	71	21625
2026-01-02 00:50:28.75	234.07	11.07	-50.1	-65.5	3.8	1.49e+00	0	42	104	0	71	21701
2026-01-02 00:50:30.12	233.97	10.95	-50.1	-65.5	3.8	1.49e+00	0	42	104	0	71	21722
2026-01-02 00:50:30.84	233.92	10.89	-50.1	-65.5	3.8	1.49e+00	0	42	104	0	71	21734
2026-01-02 00:50:32.13	233.82	10.79	-50.1	-65.5	3.8	1.49e+00	0	42	104	0	71	21701
2026-01-02 00:50:32.84	233.77	10.73	-50.1	-65.6	3.8	1.49e+00	0	42	104	0	71	21765
2026-01-02 00:50:34.14	233.68	10.62	-50.1	-65.5	3.8	1.49e+00	0	42	104	0	71	21703
2026-01-02 00:50:34.85	233.63	10.56	-50.1	-65.5	3.8	1.49e+00	0	42	104	0	71	21714
2026-01-02 00:50:36.14	233.54	10.46	-50.1	-65.5	3.8	1.49e+00	0	42	104	0	71	21721
2026-01-02 00:50:36.86	233.48	10.40	-50.1	-65.5	3.8	1.49e+00	0	42	104	0	71	21663
2026-01-02 00:50:38.15	233.39	10.29	-50.1	-65.5	3.8	1.49e+00	0	42	104	0	71	21731
2026-01-02 00:50:38.87	233.34	10.23	-50.1	-65.5	3.8	1.49e+00	0	42	104	0	71	21672
2026-01-02 00:50:40.16	233.25	10.13	-50.1	-65.5	3.8	1.49e+00	0	42	104	0	71	21713
2026-01-02 00:50:40.88	233.20	10.07	-50.1	-65.5	3.8	1.49e+00	0	42	104	0	71	21748
2026-01-02 00:50:42.17	233.11	9.97	-50.1	-65.6	3.8	1.49e+00	0	42	104	0	71	21767
2026-01-02 00:50:42.88	233.06	9.91	-50.1	-65.5	3.8	1.49e+00	0	42	104	0	71	21660
2026-01-02 00:50:44.18	232.98	9.81	-50.1	-65.5	3.8	1.49e+00	0	42	104	0	71	21752
2026-01-02 00:50:44.89	232.93	9.75	-50.1	-65.5	3.8	1.49e+00	0	42	104	0	71	21734
2026-01-02 00:50:46.18	232.84	9.65	-50.1	-65.5	3.8	1.49e+00	0	42	104	0	71	21662
2026-01-02 00:50:46.90	232.79	9.59	-50.1	-65.5	3.8	1.49e+00	0	42	104	0	71	21733
2026-01-02 00:50:48.19	232.71	9.49	-50.1	-65.5	3.8	1.49e+00	0	42	104	0	71	21715
2026-01-02 00:50:48.91	232.66	9.43	-50.1	-65.5	3.8	1.49e+00	0	42	104	0	71	21716
2026-01-02 00:50:50.20	232.57	9.33	-50.1	-65.5	3.8	1.49e+00	0	42	104	0	71	21695
2026-01-02 00:50:50.92	232.53	9.27	-50.1	-65.5	3.8	1.49e+00	0	42	104	0	71	21595
2026-01-02 00:50:52.21	232.44	9.17	-50.1	-65.5	3.8	1.49e+00	0	42	104	0	71	21742
2026-01-02 00:50:52.92	232.40	9.11	-50.1	-65.5	3.8	1.49e+00	0	42	104	0	71	21678
2026-01-02 00:50:54.21	232.31	9.01	-50.1	-65.5	3.8	1.49e+00	0	42	104	0	71	21731
2026-01-02 00:50:54.93	232.27	8.96	-50.1	-65.5	3.8	1.49e+00	0	42	104	0	71	21734
2026-01-02 00:50:56.22	232.19	8.86	-50.1	-65.5	3.8	1.49e+00	0	42	104	0	71	21695
2026-01-02 00:50:56.94	232.14	8.80	-50.1	-65.5	3.8	1.49e+00	0	42	104	0	71	21725
2026-01-02 00:50:58.23	232.06	8.70	-50.1	-65.5	3.8	1.49e+00	0	42	104	0	71	21667
2026-01-02 00:50:58.95	232.01	8.65	-50.1	-65.5	3.8	1.49e+00	0	42	104	0	71	21705
2026-01-02 00:51:00.24	231.93	8.55	-50.1	-65.5	3.8	1.49e+00	0	42	104	0	71	21743
2026-01-02 00:51:00.96	231.89	8.49	-50.1	-65.5	3.8	1.49e+00	0	42	104	0	71	21714
2026-01-02 00:51:02.25	231.81	8.39	-50.1	-65.6	3.8	1.49e+00	0	42	104	0	71	21852
2026-01-02 00:51:02.96	231.76	8.34	-50.1	-65.5	3.8	1.49e+00	0	42	104	0	71	21662
2026-01-02 00:51:04.25	231.69	8.24	-50.1	-65.5	3.8	1.49e+00	0	42	104	0	71	21645
2026-01-02 00:51:04.97	231.64	8.19	-50.1	-65.5	3.8	1.49e+00	0	42	104	0	71	21629
2026-01-02 00:51:06.26	231.56	8.09	-50.1	-65.5	3.8	1.49e+00	0	42	104	0	71	21698
2026-01-02 00:51:06.98	231.52	8.03	-50.1	-65.6	3.8	1.49e+00	0	42	104	0	71	21765
2026-01-02 00:51:08.27	231.44	7.94	-50.1	-65.5	3.8	1.49e+00	0	42	104	0	71	21696
2026-01-02 00:51:09.04	231.40	7.88	-50.1	-65.6	3.8	1.49e+00	0	42	104	0	71	21780
2026-01-02 00:51:10.33	231.32	7.78	-50.1	-65.5	3.8	1.49e+00	0	42	104	0	71	21701
2026-01-02 00:51:11.13	231.28	7.72	-50.1	-65.6	3.8	1.49e+00	0	42	104	0	71	21759
2026-01-02 00:51:12.27	231.21	7.64	-50.1	-65.5	3.8	1.49e+00	0	42	104	0	71	21689
2026-01-02 00:51:13.33	231.15	7.56	-50.1	-65.5	3.8	1.49e+00	0	42	104	0	71	21677
2026-01-02 00:51:14.38	231.09	7.48	-50.1	-65.5	3.8	1.49e+00	0	42	104	0	71	21686
2026-01-02 00:51:15.43	231.03	7.40	-50.1	-65.5	3.8	1.49e+00	0	42	104	0	71	21720
2026-01-02 00:51:16.46	230.97	7.33	-50.1	-65.5	3.8	1.49e+00	0	42	104	0	71	21696
2026-01-02 00:51:17.46	230.91	7.25	-50.1	-65.5	3.8	1.49e+00	0	42	104	0	71	21715
2026-01-02 00:51:18.46	230.85	7.18	-50.1	-65.5	3.8	1.49e+00	0	42	104	0	71	21680
2026-01-02 00:51:19.47	230.80	7.11	-50.1	-65.5	3.8	1.49e+00	0	42	104	0	71	21700
2026-01-02 00:51:20.47	230.74	7.03	-50.1	-65.5	3.8	1.49e+00	0	42	104	0	71	21643
2026-01-02 00:51:21.47	230.69	6.96	-50.1	-65.5	3.8	1.49e+00	0	42	104	0	71	21750
2026-01-02 00:51:22.48	230.63	6.89	-50.1	-65.5	3.8	1.49e+00	0	43	104	0	71	21680
2026-01-02 00:51:23.48	230.58	6.81	-50.1	-65.5	3.8	1.49e+00	0	42	104	0	71	21729
2026-01-02 00:51:24.49	230.52	6.74	-50.1	-65.5	3.8	1.49e+00	0	42	104	0	71	21653
2026-01-02 00:51:25.49	230.47	6.67	-50.1	-65.5	3.8	1.49e+00	0	42	104	0	71	21656
2026-01-02 00:51:26.50	230.41	6.60	-50.1	-65.5	3.8	1.49e+00	0	42	104	0	71	21619
2026-01-02 00:51:27.50	230.36	6.53	-50.1	-65.5	3.8	1.49e+00	0	42	104	0	71	21658
2026-01-02 00:51:28.50	230.30	6.45	-50.1	-65.5	3.8	1.49e+00	0	42	104	0	71	21633
2026-01-02 00:51:29.51	230.25	6.38	-50.1	-65.5	3.8	1.49e+00	0	42	104	0	71	21677
2026-01-02 00:51:30.51	230.20	6.31	-50.1	-65.5	3.8	1.49e+00	0	42	104	0	71	21603
2026-01-02 00:51:31.52	230.14	6.24	-50.1	-65.5	3.8	1.49e+00	0	42	104	0	71	21730
2026-01-02 00:51:32.52	230.09	6.17	-50.1	-65.5	3.8	1.49e+00	0	42	104	0	71	21681
2026-01-02 00:51:33.52	230.04	6.10	-50.1	-65.5	3.8	1.49e+00	0	42	104	0	71	21685
2026-01-02 00:51:34.53	229.99	6.03	-50.1	-65.5	3.8	1.49e+00	0	42	104	0	71	21683
2026-01-02 00:51:35.53	229.93	5.96	-50.1	-65.5	3.8	1.49e+00	0	42	104	0	71	21750
2026-01-02 00:51:36.54	229.88	5.89	-50.1	-65.5	3.8	1.49e+00	0	42	104	0	71	21643
2026-01-02 00:51:37.54	229.83	5.82	-50.1	-65.5	3.8	1.49e+00	0	42	104	0	71	21691
2026-01-02 00:51:38.55	229.78	5.74	-50.1	-65.5	3.8	1.49e+00	0	42	104	0	71	21698
2026-01-02 00:51:39.55	229.73	5.67	-50.1	-65.5	3.8	1.49e+00	0	42	104	0	71	21677
2026-01-02 00:51:40.55	229.68	5.61	-50.1	-65.5	3.8	1.49e+00	0	42	104	0	71	21719
2026-01-02 00:51:41.57	229.63	5.53	-50.1	-65.5	3.8	1.49e+00	0	42	104	0	71	21731
2026-01-02 00:51:42.59	229.58	5.46	-50.1	-65.5	3.8	1.49e+00	0	42	104	0	71	21707
2026-01-02 00:51:43.60	229.53	5.39	-50.1	-65.5	3.8	1.49e+00	0	42	104	0	71	21617
2026-01-02 00:51:44.60	229.48	5.33	-50.1	-65.5	3.8	1.49e+00	0	42	104	0	71	21660
2026-01-02 00:51:45.61	229.43	5.26	-50.1	-65.5	3.8	1.49e+00	0	42	104	0	71	21715
2026-01-02 00:51:46.61	229.38	5.19	-50.1	-65.5	3.8	1.49e+00	0	42	104	0	71	21690
2026-01-02 00:51:47.62	229.33	5.12	-50.1	-65.5	3.8	1.49e+00	0	42	104	0	71	21680
2026-01-02 00:51:48.62	229.28	5.05	-50.1	-65.6	3.8	1.49e+00	0	42	104	0	71	21789
2026-01-02 00:51:49.62	229.23	4.98	-50.1	-65.5	3.8	1.49e+00	0	42	104	0	71	21670

#Closed at: 2026-01-02 00:51:50
#Recorded file [0 MB]: D:/Data/31040_260102_033938.dat