passes_logs/2026/01/02/T1/T1__20260102_001843_SUOMI_NPP_rec.log

#Pass ID: 20260102_001843_SUOMI NPP
#Satellite: SUOMI NPP
#Configuration: NPP
#almurnet v.1.7.20251203
#Start time: 2026-01-02 00:18:43

#Version: 2.0.20230620
#Station: T1
#Location: 37.570604 lon 55.790049 lat
#TLE: 1 37849U 11061A   26001.07732418  .00000182  00000+0  10735-3 0  9990
#TLE: 2 37849  98.7795 303.2470 0002580  87.2016 272.9455 14.19520779734739

#Time	Az	El	Level	Level2	SNR	BER	BlckErr	Temp	State	Recorded	gain1	gain2
2026-01-02 00:18:43.71	12.92	5.02	-49.9	-65.4	3.8	1.49e+00	0	36	0	0	70	22604
2026-01-02 00:18:44.71	12.90	5.09	-49.9	-65.4	3.8	1.49e+00	0	36	104	0	71	21350
2026-01-02 00:18:45.71	12.87	5.16	-49.9	-65.4	3.8	1.49e+00	0	36	104	0	71	21351
2026-01-02 00:18:46.72	12.85	5.23	-49.9	-65.4	3.8	1.49e+00	0	36	104	0	71	21360
2026-01-02 00:18:47.72	12.82	5.30	-49.9	-65.4	3.8	1.49e+00	0	36	104	0	71	21358
2026-01-02 00:18:48.72	12.79	5.38	-49.9	-65.4	3.8	1.49e+00	0	37	104	0	71	21288
2026-01-02 00:18:49.73	12.77	5.45	-49.9	-65.4	3.8	1.49e+00	0	37	104	0	71	21384
2026-01-02 00:18:50.73	12.74	5.52	-49.9	-65.4	3.8	1.49e+00	0	36	104	0	71	21367
2026-01-02 00:18:51.74	12.71	5.59	-49.9	-65.4	3.8	1.49e+00	0	37	104	0	71	21333
2026-01-02 00:18:52.74	12.69	5.66	-49.9	-65.4	3.8	1.49e+00	0	37	104	0	71	21349
2026-01-02 00:18:53.74	12.66	5.73	-49.9	-65.4	3.8	1.49e+00	0	37	104	0	71	21336
2026-01-02 00:18:54.75	12.63	5.81	-49.9	-65.4	3.8	1.49e+00	0	37	104	0	71	21328
2026-01-02 00:18:55.75	12.61	5.88	-49.9	-65.4	3.8	1.49e+00	0	37	104	0	71	21306
2026-01-02 00:18:56.76	12.58	5.95	-49.9	-65.4	3.8	1.49e+00	0	37	104	0	71	21336
2026-01-02 00:18:57.76	12.55	6.03	-49.9	-65.4	3.8	1.49e+00	0	37	104	0	71	21341
2026-01-02 00:18:58.77	12.52	6.10	-49.9	-65.4	3.8	1.49e+00	0	37	104	0	71	21353
2026-01-02 00:18:59.77	12.50	6.17	-49.9	-65.4	3.8	1.49e+00	0	37	104	0	71	21362
2026-01-02 00:19:00.78	12.47	6.25	-49.9	-65.4	3.8	1.49e+00	0	37	104	0	71	21330
2026-01-02 00:19:01.78	12.44	6.32	-49.9	-65.4	3.8	1.49e+00	0	37	104	0	71	21367
2026-01-02 00:19:02.78	12.41	6.39	-49.9	-65.4	3.8	1.49e+00	0	37	104	0	71	21388
2026-01-02 00:19:03.79	12.38	6.47	-49.9	-65.4	3.8	1.49e+00	0	37	104	0	71	21347
2026-01-02 00:19:04.79	12.35	6.54	-49.9	-65.4	3.8	1.49e+00	0	37	104	0	71	21354
2026-01-02 00:19:05.80	12.33	6.62	-49.9	-65.4	3.8	1.49e+00	0	37	104	0	71	21359
2026-01-02 00:19:06.80	12.30	6.69	-49.9	-65.4	3.8	1.49e+00	0	37	104	0	71	21350
2026-01-02 00:19:07.80	12.27	6.77	-49.9	-65.4	3.8	1.49e+00	0	37	104	0	71	21325
2026-01-02 00:19:08.81	12.24	6.84	-49.9	-65.4	3.8	1.49e+00	0	37	104	0	71	21409
2026-01-02 00:19:09.81	12.21	6.92	-49.9	-65.4	3.8	1.49e+00	0	37	104	0	71	21343
2026-01-02 00:19:10.82	12.18	6.99	-49.9	-65.4	3.8	1.49e+00	0	37	104	0	71	21327
2026-01-02 00:19:11.82	12.15	7.07	-49.9	-65.4	3.8	1.49e+00	0	37	104	0	71	21355
2026-01-02 00:19:12.82	12.12	7.15	-49.9	-65.4	3.8	1.49e+00	0	37	104	0	71	21392
2026-01-02 00:19:13.83	12.09	7.22	-49.9	-65.4	3.8	1.49e+00	0	37	104	0	71	21305
2026-01-02 00:19:14.83	12.06	7.30	-49.9	-65.4	3.8	1.49e+00	0	37	104	0	71	21394
2026-01-02 00:19:15.84	12.03	7.38	-49.9	-65.4	3.8	1.49e+00	0	38	104	0	71	21375
2026-01-02 00:19:16.84	12.00	7.45	-49.9	-65.4	3.8	1.49e+00	0	38	104	0	71	21299
2026-01-02 00:19:17.84	11.97	7.53	-49.9	-65.4	3.8	1.49e+00	0	37	104	0	71	21335
2026-01-02 00:19:18.85	11.94	7.61	-49.9	-65.4	3.8	1.49e+00	0	38	104	0	71	21376
2026-01-02 00:19:19.85	11.90	7.68	-49.9	-65.4	3.8	1.49e+00	0	38	104	0	71	21400
2026-01-02 00:19:20.86	11.87	7.76	-49.9	-65.4	3.8	1.49e+00	0	38	104	0	71	21412
2026-01-02 00:19:21.86	11.84	7.84	-49.9	-65.4	3.8	1.49e+00	0	37	104	0	71	21348
2026-01-02 00:19:22.87	11.81	7.92	-49.9	-65.4	3.8	1.49e+00	0	38	104	0	71	21374
2026-01-02 00:19:23.87	11.78	8.00	-49.9	-65.4	3.8	1.49e+00	0	38	104	0	71	21354
2026-01-02 00:19:24.87	11.74	8.08	-49.9	-65.4	3.8	1.49e+00	0	37	104	0	71	21377
2026-01-02 00:19:25.88	11.71	8.16	-49.9	-65.4	3.8	1.49e+00	0	38	104	0	71	21374
2026-01-02 00:19:26.88	11.68	8.23	-50.0	-65.4	3.8	1.49e+00	0	38	104	0	71	21362
2026-01-02 00:19:27.88	11.65	8.31	-49.9	-65.4	3.8	1.49e+00	0	38	104	0	71	21376
2026-01-02 00:19:28.89	11.61	8.39	-50.0	-65.4	3.8	1.49e+00	0	38	104	0	71	21337
2026-01-02 00:19:29.89	11.58	8.47	-50.0	-65.4	3.8	1.49e+00	0	38	104	0	71	21401
2026-01-02 00:19:30.90	11.55	8.55	-50.0	-65.4	3.8	1.49e+00	0	38	104	0	71	21358
2026-01-02 00:19:31.90	11.51	8.63	-49.9	-65.4	3.8	1.49e+00	0	38	104	0	71	21395
2026-01-02 00:19:32.90	11.48	8.72	-50.0	-65.4	3.8	1.49e+00	0	38	104	0	71	21353
2026-01-02 00:19:33.91	11.44	8.80	-50.0	-65.4	3.8	1.49e+00	0	38	104	0	71	21321
2026-01-02 00:19:34.91	11.41	8.88	-50.0	-65.4	3.8	1.49e+00	0	38	104	0	71	21360
2026-01-02 00:19:35.91	11.38	8.96	-49.9	-65.4	3.8	1.49e+00	0	38	104	0	71	21305
2026-01-02 00:19:36.92	11.34	9.04	-49.9	-65.4	3.8	1.49e+00	0	38	104	0	71	21382
2026-01-02 00:19:37.92	11.31	9.12	-49.9	-65.4	3.8	1.49e+00	0	38	104	0	71	21367
2026-01-02 00:19:38.92	11.27	9.21	-49.9	-65.4	3.8	1.49e+00	0	38	104	0	71	21303
2026-01-02 00:19:39.93	11.24	9.29	-49.9	-65.4	3.8	1.49e+00	0	38	104	0	71	21363
2026-01-02 00:19:40.94	11.20	9.37	-49.9	-65.4	3.8	1.49e+00	0	38	104	0	71	21387
2026-01-02 00:19:41.94	11.16	9.45	-50.0	-65.4	3.8	1.49e+00	0	38	104	0	71	21395
2026-01-02 00:19:42.94	11.13	9.54	-49.9	-65.4	3.8	1.49e+00	0	38	104	0	71	21403
2026-01-02 00:19:43.95	11.09	9.62	-49.9	-65.4	3.8	1.49e+00	0	38	104	0	71	21345
2026-01-02 00:19:44.95	11.06	9.71	-49.9	-65.4	3.8	1.49e+00	0	38	104	0	71	21309
2026-01-02 00:19:45.96	11.02	9.79	-49.9	-65.4	3.8	1.49e+00	0	38	104	0	71	21398
2026-01-02 00:19:46.96	10.98	9.87	-49.9	-65.4	3.8	1.49e+00	0	38	104	0	71	21348
2026-01-02 00:19:47.96	10.94	9.96	-49.9	-65.4	3.8	1.49e+00	0	38	104	0	71	21424
2026-01-02 00:19:48.97	10.91	10.04	-49.9	-65.4	3.8	1.49e+00	0	38	104	0	71	21448
2026-01-02 00:19:49.97	10.87	10.13	-49.9	-65.4	3.8	1.49e+00	0	38	104	0	71	21332
2026-01-02 00:19:50.98	10.83	10.21	-49.9	-65.4	3.8	1.49e+00	0	38	104	0	71	21385
2026-01-02 00:19:51.98	10.79	10.30	-50.0	-65.4	3.8	1.49e+00	0	38	104	0	71	21331
2026-01-02 00:19:52.99	10.75	10.39	-50.0	-65.4	3.8	1.49e+00	0	38	104	0	71	21387
2026-01-02 00:19:53.99	10.72	10.47	-49.9	-65.4	3.8	1.49e+00	0	38	104	0	71	21461
2026-01-02 00:19:54.99	10.68	10.56	-49.9	-65.4	3.8	1.49e+00	0	38	104	0	71	21377
2026-01-02 00:19:56.00	10.64	10.65	-50.0	-65.4	3.8	1.49e+00	0	39	104	0	71	21400
2026-01-02 00:19:57.00	10.60	10.73	-49.9	-65.4	3.8	1.49e+00	0	38	104	0	71	21371
2026-01-02 00:19:58.01	10.56	10.82	-49.9	-65.4	3.8	1.49e+00	0	38	104	0	71	21355
2026-01-02 00:19:59.01	10.52	10.91	-50.0	-65.4	3.8	1.49e+00	0	38	104	0	71	21427
2026-01-02 00:20:00.02	10.48	11.00	-50.0	-65.4	3.8	1.49e+00	0	38	104	0	71	21461
2026-01-02 00:20:01.02	10.44	11.09	-49.9	-65.4	3.8	1.49e+00	0	38	104	0	71	21407
2026-01-02 00:20:02.03	10.40	11.18	-50.0	-65.4	3.8	1.49e+00	0	39	104	0	71	21387
2026-01-02 00:20:03.03	10.35	11.26	-49.9	-65.4	3.8	1.49e+00	0	38	104	0	71	21413
2026-01-02 00:20:04.03	10.31	11.35	-49.9	-65.4	3.8	1.49e+00	0	39	104	0	71	21362
2026-01-02 00:20:05.04	10.27	11.44	-50.0	-65.4	3.8	1.49e+00	0	38	104	0	71	21390
2026-01-02 00:20:06.04	10.23	11.53	-49.9	-65.4	3.8	1.49e+00	0	39	104	0	71	21475
2026-01-02 00:20:07.05	10.19	11.62	-49.9	-65.4	3.8	1.49e+00	0	39	104	0	71	21373
2026-01-02 00:20:08.05	10.15	11.72	-50.0	-65.4	3.8	1.49e+00	0	39	104	0	71	21366
2026-01-02 00:20:09.05	10.10	11.81	-50.0	-65.4	3.8	1.49e+00	0	38	104	0	71	21362
2026-01-02 00:20:10.06	10.06	11.90	-50.0	-65.4	3.8	1.49e+00	0	39	104	0	71	21369
2026-01-02 00:20:11.06	10.02	11.99	-49.9	-65.4	3.8	1.49e+00	0	39	104	0	71	21379
2026-01-02 00:20:12.06	9.97	12.08	-49.9	-65.4	3.8	1.49e+00	0	38	104	0	71	21347
2026-01-02 00:20:13.07	9.93	12.17	-49.9	-65.4	3.8	1.49e+00	0	38	104	0	71	21359
2026-01-02 00:20:14.07	9.88	12.27	-49.9	-65.4	3.8	1.49e+00	0	38	104	0	71	21368
2026-01-02 00:20:15.08	9.84	12.36	-49.9	-65.4	3.8	1.49e+00	0	38	104	0	71	21356
2026-01-02 00:20:16.08	9.79	12.45	-49.9	-65.4	3.8	1.49e+00	0	39	104	0	71	21359
2026-01-02 00:20:17.09	9.75	12.55	-49.9	-65.4	3.8	1.49e+00	0	39	104	0	71	21369
2026-01-02 00:20:18.09	9.70	12.64	-49.9	-65.4	3.8	1.49e+00	0	38	104	0	71	21338
2026-01-02 00:20:19.10	9.66	12.74	-49.9	-65.4	3.8	1.49e+00	0	39	104	0	71	21435
2026-01-02 00:20:20.10	9.61	12.83	-49.9	-65.4	3.8	1.49e+00	0	39	104	0	71	21387
2026-01-02 00:20:21.10	9.57	12.92	-49.9	-65.4	3.8	1.49e+00	0	39	104	0	71	21347
2026-01-02 00:20:22.11	9.52	13.02	-50.0	-65.4	3.8	1.49e+00	0	39	104	0	71	21424
2026-01-02 00:20:23.11	9.47	13.12	-49.9	-65.5	3.8	1.49e+00	0	39	104	0	71	21507
2026-01-02 00:20:24.11	9.42	13.21	-49.9	-65.4	3.8	1.49e+00	0	39	104	0	71	21380
2026-01-02 00:20:25.12	9.38	13.31	-50.0	-65.4	3.8	1.49e+00	0	39	104	0	71	21390
2026-01-02 00:20:26.12	9.33	13.40	-50.0	-65.4	3.8	1.49e+00	0	39	104	0	71	21374
2026-01-02 00:20:27.13	9.28	13.50	-50.0	-65.5	3.8	1.49e+00	0	39	104	0	71	21515
2026-01-02 00:20:28.13	9.23	13.60	-49.9	-65.4	3.8	1.49e+00	0	39	104	0	71	21396
2026-01-02 00:20:29.17	9.18	13.70	-49.9	-65.4	3.8	1.49e+00	0	39	104	0	71	21482
2026-01-02 00:20:30.19	9.13	13.80	-50.0	-65.4	3.8	1.49e+00	0	39	104	0	71	21423
2026-01-02 00:20:31.25	9.08	13.91	-49.9	-65.4	3.8	1.49e+00	0	39	104	0	71	21426
2026-01-02 00:20:32.14	9.03	13.99	-49.9	-65.4	3.8	1.49e+00	0	39	104	0	71	21437
2026-01-02 00:20:33.18	8.98	14.10	-49.9	-65.4	3.8	1.49e+00	0	39	104	0	71	21455
2026-01-02 00:20:34.18	8.93	14.20	-49.9	-65.4	3.8	1.49e+00	0	39	104	0	71	21390
2026-01-02 00:20:35.18	8.88	14.30	-49.9	-65.4	3.8	1.49e+00	0	39	104	0	71	21282
2026-01-02 00:20:36.19	8.83	14.40	-49.9	-65.4	3.8	1.49e+00	0	39	104	0	71	21422
2026-01-02 00:20:37.19	8.77	14.50	-50.0	-65.4	3.8	1.49e+00	0	39	104	0	71	21479
2026-01-02 00:20:38.20	8.72	14.60	-50.0	-65.5	3.8	1.49e+00	0	39	104	0	71	21532
2026-01-02 00:20:39.20	8.67	14.70	-50.0	-65.4	3.8	1.49e+00	0	39	104	0	71	21396
2026-01-02 00:20:40.20	8.61	14.80	-50.0	-65.4	3.8	1.49e+00	0	39	104	0	71	21425
2026-01-02 00:20:41.21	8.56	14.91	-50.0	-65.4	3.8	1.49e+00	0	39	104	0	71	21462
2026-01-02 00:20:42.21	8.51	15.01	-50.0	-65.4	3.8	1.49e+00	0	39	104	0	71	21341
2026-01-02 00:20:43.22	8.45	15.11	-50.0	-65.4	3.8	1.49e+00	0	39	104	0	71	21395
2026-01-02 00:20:44.25	8.40	15.22	-49.9	-65.4	3.8	1.49e+00	0	39	104	0	71	21306
2026-01-02 00:20:45.25	8.34	15.32	-50.0	-65.4	3.8	1.49e+00	0	39	104	0	71	21416
2026-01-02 00:20:46.25	8.29	15.43	-50.0	-65.4	3.8	1.49e+00	0	39	104	0	71	21380
2026-01-02 00:20:47.26	8.23	15.53	-49.9	-65.4	3.8	1.49e+00	0	39	104	0	71	21497
2026-01-02 00:20:48.26	8.17	15.64	-49.9	-65.4	3.8	1.49e+00	0	39	104	0	71	21334
2026-01-02 00:20:49.27	8.12	15.74	-50.0	-65.4	3.8	1.49e+00	0	39	104	0	71	21421
2026-01-02 00:20:50.27	8.06	15.85	-50.0	-65.4	3.8	1.49e+00	0	39	104	0	71	21364
2026-01-02 00:20:51.28	8.00	15.96	-49.9	-65.4	3.8	1.49e+00	0	39	104	0	71	21400
2026-01-02 00:20:52.28	7.94	16.07	-50.0	-65.4	3.8	1.49e+00	0	39	104	0	71	21403
2026-01-02 00:20:53.29	7.88	16.17	-50.0	-65.4	3.8	1.49e+00	0	39	104	0	71	21386
2026-01-02 00:20:54.29	7.82	16.28	-50.0	-65.4	3.8	1.49e+00	0	39	104	0	71	21401
2026-01-02 00:20:55.29	7.76	16.39	-50.0	-65.4	3.8	1.49e+00	0	39	104	0	71	21448
2026-01-02 00:20:56.30	7.70	16.50	-50.0	-65.4	3.8	1.49e+00	0	39	104	0	71	21498
2026-01-02 00:20:57.30	7.64	16.61	-50.0	-65.4	3.8	1.49e+00	0	39	104	0	71	21351
2026-01-02 00:20:58.31	7.58	16.72	-50.0	-65.4	3.8	1.49e+00	0	39	104	0	71	21364
2026-01-02 00:20:59.36	7.52	16.83	-50.0	-65.4	3.8	1.49e+00	0	39	104	0	71	21402
2026-01-02 00:21:00.25	7.46	16.93	-50.0	-65.4	3.8	1.49e+00	0	39	104	0	71	21418
2026-01-02 00:21:01.39	7.39	17.06	-50.0	-65.4	3.8	1.49e+00	0	39	104	0	71	21490
2026-01-02 00:21:02.32	7.33	17.16	-50.0	-65.4	3.8	1.49e+00	0	39	104	0	71	21438
2026-01-02 00:21:03.48	7.26	17.29	-50.0	-65.4	3.8	1.49e+00	0	39	104	0	71	21428
2026-01-02 00:21:04.37	7.20	17.39	-50.0	-65.4	3.8	1.49e+00	0	39	104	0	71	21404
2026-01-02 00:21:05.71	7.12	17.54	-50.0	-65.4	3.8	1.49e+00	0	39	104	0	71	21431
2026-01-02 00:21:06.43	7.07	17.63	-50.0	-65.4	3.8	1.49e+00	0	39	104	0	71	21414
2026-01-02 00:21:07.72	6.99	17.77	-49.9	-65.4	3.8	1.49e+00	0	39	104	0	71	21489
2026-01-02 00:21:08.43	6.94	17.85	-50.0	-65.4	3.8	1.49e+00	0	39	104	0	71	21365
2026-01-02 00:21:09.73	6.85	18.00	-49.9	-65.4	3.8	1.49e+00	0	39	104	0	71	21404
2026-01-02 00:21:10.45	6.80	18.09	-50.0	-65.4	3.8	1.49e+00	0	39	104	0	71	21427
2026-01-02 00:21:11.73	6.72	18.24	-50.0	-65.4	3.8	1.49e+00	0	39	104	0	71	21363
2026-01-02 00:21:12.45	6.67	18.32	-50.0	-65.4	3.8	1.49e+00	0	39	104	0	71	21411
2026-01-02 00:21:13.74	6.58	18.47	-50.0	-65.4	3.8	1.49e+00	0	39	104	0	71	21368
2026-01-02 00:21:14.46	6.53	18.56	-50.0	-65.4	3.8	1.49e+00	0	39	104	0	71	21420
2026-01-02 00:21:15.75	6.44	18.71	-50.0	-65.4	3.8	1.49e+00	0	39	104	0	71	21502
2026-01-02 00:21:16.46	6.39	18.79	-50.0	-65.4	3.8	1.49e+00	0	39	104	0	71	21413
2026-01-02 00:21:17.76	6.30	18.95	-50.0	-65.4	3.8	1.49e+00	0	39	104	0	71	21465
2026-01-02 00:21:18.47	6.25	19.03	-50.0	-65.4	3.8	1.49e+00	0	39	104	0	71	21485
2026-01-02 00:21:19.77	6.15	19.19	-50.0	-65.4	3.8	1.49e+00	0	39	104	0	71	21427
2026-01-02 00:21:20.48	6.10	19.27	-50.0	-65.4	3.8	1.49e+00	0	39	104	0	71	21439
2026-01-02 00:21:21.77	6.01	19.43	-50.0	-65.4	3.8	1.49e+00	0	39	104	0	71	21367
2026-01-02 00:21:22.49	5.95	19.52	-50.0	-65.4	3.8	1.49e+00	0	39	104	0	71	21385
2026-01-02 00:21:23.78	5.86	19.67	-50.0	-65.4	3.8	1.49e+00	0	39	104	0	71	21388
2026-01-02 00:21:24.50	5.80	19.76	-50.0	-65.4	3.8	1.49e+00	0	39	104	0	71	21391
2026-01-02 00:21:25.79	5.71	19.92	-50.0	-65.4	3.8	1.49e+00	0	39	104	0	71	21353
2026-01-02 00:21:26.51	5.65	20.01	-50.0	-65.4	3.8	1.49e+00	0	39	104	0	71	21435
2026-01-02 00:21:27.80	5.55	20.17	-50.0	-65.4	3.8	1.49e+00	0	39	104	0	71	21435
2026-01-02 00:21:28.52	5.49	20.26	-50.0	-65.4	3.8	1.49e+00	0	39	104	0	71	21399
2026-01-02 00:21:29.81	5.39	20.42	-50.0	-65.4	3.8	1.49e+00	0	39	104	0	71	21418
2026-01-02 00:21:30.52	5.34	20.51	-50.0	-65.4	3.8	1.49e+00	0	39	104	0	71	21447
2026-01-02 00:21:31.82	5.23	20.68	-50.0	-65.4	3.8	1.49e+00	0	39	104	0	71	21328
2026-01-02 00:21:32.53	5.18	20.77	-50.0	-65.4	3.8	1.49e+00	0	39	104	0	71	21383
2026-01-02 00:21:33.83	5.07	20.94	-50.0	-65.4	3.8	1.49e+00	0	39	104	0	71	21386
2026-01-02 00:21:34.54	5.01	21.03	-50.0	-65.4	3.8	1.49e+00	0	39	104	0	71	21411
2026-01-02 00:21:35.83	4.91	21.19	-50.0	-65.4	3.8	1.49e+00	0	39	104	0	71	21347
2026-01-02 00:21:36.55	4.85	21.29	-50.0	-65.4	3.8	1.49e+00	0	39	104	0	71	21454
2026-01-02 00:21:37.84	4.74	21.46	-50.0	-65.4	3.8	1.49e+00	0	39	104	0	71	21407
2026-01-02 00:21:38.56	4.68	21.55	-50.0	-65.4	3.8	1.49e+00	0	39	104	0	71	21475
2026-01-02 00:21:39.85	4.57	21.72	-50.0	-65.4	3.8	1.49e+00	0	39	104	0	71	21387
2026-01-02 00:21:40.57	4.50	21.82	-50.0	-65.4	3.8	1.49e+00	0	39	104	0	71	21423
2026-01-02 00:21:41.86	4.39	21.99	-50.0	-65.4	3.8	1.49e+00	0	39	104	0	71	21416
2026-01-02 00:21:42.58	4.33	22.08	-50.0	-65.4	3.8	1.49e+00	0	39	104	0	71	21406
2026-01-02 00:21:43.87	4.21	22.26	-50.0	-65.4	3.8	1.49e+00	0	39	104	0	71	21383
2026-01-02 00:21:44.58	4.15	22.35	-50.0	-65.4	3.8	1.49e+00	0	39	104	0	71	21497
2026-01-02 00:21:45.88	4.03	22.53	-50.0	-65.4	3.8	1.49e+00	0	39	104	0	71	21400
2026-01-02 00:21:46.59	3.97	22.62	-50.0	-65.4	3.8	1.49e+00	0	39	104	0	71	21466
2026-01-02 00:21:47.88	3.85	22.80	-50.0	-65.4	3.8	1.49e+00	0	39	104	0	71	21392
2026-01-02 00:21:48.60	3.78	22.90	-50.0	-65.4	3.8	1.49e+00	0	39	104	0	71	21398
2026-01-02 00:21:49.89	3.66	23.08	-50.0	-65.4	3.8	1.49e+00	0	39	104	0	71	21422
2026-01-02 00:21:50.61	3.59	23.18	-50.0	-65.4	3.8	1.49e+00	0	39	104	0	71	21395
2026-01-02 00:21:51.90	3.47	23.36	-50.0	-65.4	3.8	1.49e+00	0	39	104	0	71	21437
2026-01-02 00:21:52.62	3.40	23.46	-50.0	-65.4	3.8	1.49e+00	0	39	104	0	71	21424
2026-01-02 00:21:53.91	3.27	23.64	-50.0	-65.4	3.8	1.49e+00	0	39	104	0	71	21432
2026-01-02 00:21:54.62	3.20	23.74	-50.0	-65.4	3.8	1.49e+00	0	39	104	0	71	21493
2026-01-02 00:21:55.92	3.07	23.93	-50.0	-65.4	3.8	1.49e+00	0	39	104	0	71	21501
2026-01-02 00:21:56.63	3.00	24.03	-50.0	-65.4	3.8	1.49e+00	0	39	104	0	71	21469
2026-01-02 00:21:57.93	2.87	24.21	-50.0	-65.4	3.8	1.49e+00	0	39	104	0	71	21418
2026-01-02 00:21:58.64	2.80	24.32	-50.0	-65.4	3.8	1.49e+00	0	39	104	0	71	21391
2026-01-02 00:21:59.93	2.67	24.50	-50.0	-65.4	3.8	1.49e+00	0	39	104	0	71	21482
2026-01-02 00:22:00.65	2.59	24.61	-50.0	-65.4	3.8	1.49e+00	0	39	104	0	71	21425
2026-01-02 00:22:01.94	2.46	24.80	-50.0	-65.4	3.8	1.49e+00	0	39	104	0	71	21378
2026-01-02 00:22:02.66	2.38	24.90	-50.0	-65.4	3.8	1.49e+00	0	39	104	0	71	21390
2026-01-02 00:22:03.95	2.24	25.09	-50.0	-65.4	3.8	1.49e+00	0	39	104	0	71	21408
2026-01-02 00:22:04.67	2.16	25.20	-50.0	-65.4	3.8	1.49e+00	0	39	104	0	71	21434
2026-01-02 00:22:05.96	2.02	25.39	-50.0	-65.4	3.8	1.49e+00	0	39	104	0	71	21418
2026-01-02 00:22:06.68	1.94	25.50	-50.0	-65.4	3.8	1.49e+00	0	39	104	0	71	21491
2026-01-02 00:22:07.97	1.80	25.69	-50.0	-65.4	3.8	1.49e+00	0	39	104	0	71	21446
2026-01-02 00:22:08.69	1.72	25.80	-50.0	-65.4	3.8	1.49e+00	0	39	104	0	71	21401
2026-01-02 00:22:09.98	1.57	26.00	-50.0	-65.4	3.8	1.49e+00	0	39	104	0	71	21424
2026-01-02 00:22:10.70	1.49	26.11	-50.0	-65.4	3.8	1.49e+00	0	39	104	0	71	21429
2026-01-02 00:22:11.99	1.34	26.31	-50.0	-65.4	3.8	1.49e+00	0	40	104	0	71	21394
2026-01-02 00:22:12.70	1.26	26.42	-50.0	-65.4	3.8	1.49e+00	0	39	104	0	71	21435
2026-01-02 00:22:13.99	1.10	26.62	-50.0	-65.4	3.8	1.49e+00	0	39	104	0	71	21442
2026-01-02 00:22:14.71	1.02	26.73	-50.0	-65.4	3.8	1.49e+00	0	40	104	0	71	21386
2026-01-02 00:22:16.00	0.86	26.93	-50.0	-65.4	3.8	1.49e+00	0	40	104	0	71	21408
2026-01-02 00:22:16.72	0.78	27.04	-50.0	-65.4	3.8	1.49e+00	0	39	104	0	71	21447
2026-01-02 00:22:18.01	0.62	27.25	-50.0	-65.4	3.8	1.49e+00	0	40	104	0	71	21446
2026-01-02 00:22:18.73	0.53	27.36	-50.0	-65.4	3.8	1.49e+00	0	39	104	0	71	21453
2026-01-02 00:22:20.02	0.36	27.57	-50.0	-65.4	3.8	1.49e+00	0	39	104	0	71	21393
2026-01-02 00:22:20.74	0.27	27.68	-50.0	-65.4	3.8	1.49e+00	0	39	104	0	71	21448
2026-01-02 00:22:22.03	0.11	27.89	-50.0	-65.4	3.8	1.49e+00	0	39	104	0	71	21439
2026-01-02 00:22:22.74	0.02	28.01	-50.0	-65.4	3.8	1.49e+00	0	40	104	0	71	21440
2026-01-02 00:22:24.04	359.85	28.22	-50.0	-65.4	3.8	1.49e+00	0	39	104	0	71	21443
2026-01-02 00:22:24.75	359.75	28.34	-50.0	-65.4	3.8	1.49e+00	0	39	104	0	71	21492
2026-01-02 00:22:26.05	359.58	28.55	-50.0	-65.4	3.8	1.49e+00	0	40	104	0	71	21452
2026-01-02 00:22:26.76	359.48	28.67	-50.0	-65.4	3.8	1.49e+00	0	39	104	0	71	21362
2026-01-02 00:22:28.05	359.30	28.88	-50.0	-65.4	3.8	1.49e+00	0	39	104	0	71	21420
2026-01-02 00:22:28.77	359.21	29.00	-50.0	-65.5	3.8	1.49e+00	0	40	104	0	71	21518
2026-01-02 00:22:30.06	359.03	29.22	-50.0	-65.4	3.8	1.49e+00	0	39	104	0	71	21372
2026-01-02 00:22:30.78	358.92	29.34	-50.0	-65.4	3.8	1.49e+00	0	39	104	0	71	21355
2026-01-02 00:22:32.07	358.74	29.56	-50.0	-65.4	3.8	1.49e+00	0	39	104	0	71	21397
2026-01-02 00:22:32.79	358.64	29.68	-50.0	-65.4	3.8	1.49e+00	0	40	104	0	71	21423
2026-01-02 00:22:34.08	358.45	29.90	-50.0	-65.4	3.8	1.49e+00	0	40	104	0	71	21401
2026-01-02 00:22:34.79	358.34	30.02	-50.0	-65.4	3.8	1.49e+00	0	39	104	0	71	21414
2026-01-02 00:22:36.09	358.15	30.25	-50.0	-65.4	3.8	1.49e+00	0	39	104	0	71	21429
2026-01-02 00:22:36.80	358.04	30.37	-50.0	-65.4	3.8	1.49e+00	0	40	104	0	71	21428
2026-01-02 00:22:38.09	357.85	30.60	-50.0	-65.4	3.8	1.49e+00	0	40	104	0	71	21458
2026-01-02 00:22:38.81	357.73	30.72	-50.0	-65.4	3.8	1.49e+00	0	39	104	0	71	21451
2026-01-02 00:22:40.10	357.53	30.95	-50.0	-65.4	3.8	1.49e+00	0	40	104	0	71	21441
2026-01-02 00:22:40.82	357.42	31.08	-50.0	-65.4	3.8	1.49e+00	0	40	104	0	71	21427
2026-01-02 00:22:42.11	357.21	31.30	-50.0	-65.4	3.8	1.49e+00	0	40	104	0	71	21425
2026-01-02 00:22:42.83	357.10	31.43	-50.0	-65.4	3.8	1.49e+00	0	39	104	0	71	21461
2026-01-02 00:22:44.12	356.89	31.66	-50.0	-65.4	3.8	1.49e+00	0	40	104	0	71	21452
2026-01-02 00:22:44.84	356.77	31.79	-50.0	-65.4	3.8	1.49e+00	0	39	104	0	71	21448
2026-01-02 00:22:46.13	356.55	32.03	-50.0	-65.4	3.8	1.49e+00	0	40	104	0	71	21456
2026-01-02 00:22:46.84	356.43	32.16	-50.0	-65.4	3.8	1.49e+00	0	40	104	0	71	21401
2026-01-02 00:22:48.13	356.21	32.39	-50.0	-65.4	3.8	1.49e+00	0	40	104	0	71	21488
2026-01-02 00:22:48.85	356.09	32.52	-50.0	-65.4	3.8	1.49e+00	0	40	104	0	71	21468
2026-01-02 00:22:50.14	355.86	32.76	-50.0	-65.4	3.8	1.49e+00	0	39	104	0	71	21374
2026-01-02 00:22:50.86	355.74	32.89	-50.0	-65.4	3.8	1.49e+00	0	40	104	0	71	21471
2026-01-02 00:22:52.15	355.51	33.13	-50.0	-65.4	3.8	1.49e+00	0	40	104	0	71	21444
2026-01-02 00:22:52.87	355.38	33.27	-50.0	-65.4	3.8	1.49e+00	0	39	104	0	71	21495
2026-01-02 00:22:54.16	355.14	33.51	-50.0	-65.4	3.8	1.49e+00	0	39	104	0	71	21432
2026-01-02 00:22:54.88	355.01	33.65	-50.0	-65.4	3.8	1.49e+00	0	39	104	0	71	21384
2026-01-02 00:22:56.17	354.77	33.89	-50.0	-65.4	3.8	1.49e+00	0	39	104	0	71	21456
2026-01-02 00:22:56.89	354.63	34.03	-50.0	-65.4	3.8	1.49e+00	0	40	104	0	71	21410
2026-01-02 00:22:58.18	354.38	34.27	-50.0	-65.4	3.8	1.49e+00	0	40	104	0	71	21455
2026-01-02 00:22:58.90	354.24	34.41	-50.0	-65.4	3.8	1.49e+00	0	40	104	0	71	21439
2026-01-02 00:23:00.19	353.99	34.66	-50.0	-65.4	3.8	1.49e+00	0	39	104	0	71	21456
2026-01-02 00:23:00.90	353.85	34.80	-50.0	-65.4	3.8	1.49e+00	0	40	104	0	71	21436
2026-01-02 00:23:02.19	353.59	35.05	-50.0	-65.4	3.8	1.49e+00	0	40	104	0	71	21476
2026-01-02 00:23:02.91	353.44	35.19	-50.0	-65.4	3.8	1.49e+00	0	39	104	0	71	21428
2026-01-02 00:23:04.20	353.17	35.44	-50.0	-65.5	3.8	1.49e+00	0	40	104	0	71	21513
2026-01-02 00:23:05.03	353.00	35.60	-50.0	-65.4	3.8	1.49e+00	0	39	104	0	71	21466
2026-01-02 00:23:06.18	352.76	35.83	-50.0	-65.4	3.8	1.49e+00	0	40	104	0	71	21480
2026-01-02 00:23:07.04	352.57	36.00	-50.0	-65.4	3.8	1.49e+00	0	39	104	0	71	21478
2026-01-02 00:23:08.19	352.32	36.23	-50.0	-65.4	3.8	1.49e+00	0	39	104	0	71	21440
2026-01-02 00:23:09.05	352.13	36.40	-50.0	-65.4	3.8	1.49e+00	0	40	104	0	71	21472
2026-01-02 00:23:10.20	351.88	36.63	-50.0	-65.4	3.8	1.49e+00	0	40	104	0	71	21434
2026-01-02 00:23:11.06	351.69	36.80	-50.0	-65.4	3.8	1.49e+00	0	40	104	0	71	21447
2026-01-02 00:23:12.20	351.43	37.03	-50.0	-65.4	3.8	1.49e+00	0	40	104	0	71	21424
2026-01-02 00:23:13.06	351.23	37.21	-50.0	-65.4	3.8	1.49e+00	0	40	104	0	71	21493
2026-01-02 00:23:14.21	350.96	37.44	-50.0	-65.5	3.8	1.49e+00	0	40	104	0	71	21530
2026-01-02 00:23:15.07	350.75	37.62	-50.0	-65.4	3.8	1.49e+00	0	39	104	0	71	21506
2026-01-02 00:23:16.22	350.48	37.85	-50.0	-65.4	3.8	1.49e+00	0	40	104	0	71	21441
2026-01-02 00:23:17.08	350.27	38.03	-50.0	-65.5	3.8	1.49e+00	0	40	104	0	71	21531
2026-01-02 00:23:18.23	349.99	38.26	-50.0	-65.4	3.8	1.49e+00	0	40	104	0	71	21336
2026-01-02 00:23:19.09	349.77	38.44	-50.0	-65.4	3.8	1.49e+00	0	40	104	0	71	21461
2026-01-02 00:23:20.24	349.48	38.68	-50.0	-65.4	3.8	1.49e+00	0	40	104	0	71	21473
2026-01-02 00:23:21.10	349.26	38.86	-50.0	-65.4	3.8	1.49e+00	0	39	104	0	71	21355
2026-01-02 00:23:22.25	348.96	39.10	-50.0	-65.5	3.8	1.49e+00	0	40	104	0	71	21514
2026-01-02 00:23:23.11	348.74	39.28	-50.0	-65.4	3.8	1.49e+00	0	40	104	0	71	21498
2026-01-02 00:23:24.25	348.43	39.52	-50.0	-65.4	3.8	1.49e+00	0	40	104	0	71	21447
2026-01-02 00:23:25.12	348.20	39.70	-50.0	-65.4	3.8	1.49e+00	0	40	104	0	71	21475
2026-01-02 00:23:26.27	347.89	39.94	-50.0	-65.4	3.8	1.49e+00	0	40	104	0	71	21395
2026-01-02 00:23:27.12	347.65	40.12	-50.0	-65.4	3.8	1.49e+00	0	40	104	0	71	21421
2026-01-02 00:23:28.27	347.33	40.37	-50.0	-65.4	3.8	1.49e+00	0	40	104	0	71	21494
2026-01-02 00:23:29.13	347.08	40.55	-50.0	-65.4	3.8	1.49e+00	0	40	104	0	71	21427
2026-01-02 00:23:30.28	346.75	40.79	-50.0	-65.4	3.8	1.49e+00	0	40	104	0	71	21481
2026-01-02 00:23:31.14	346.50	40.98	-50.0	-65.4	3.8	1.49e+00	0	40	104	0	71	21474
2026-01-02 00:23:32.29	346.16	41.22	-50.0	-65.4	3.8	1.49e+00	0	40	104	0	71	21482
2026-01-02 00:23:33.15	345.90	41.41	-50.0	-65.5	3.8	1.49e+00	0	40	104	0	71	21514
2026-01-02 00:23:34.30	345.55	41.65	-50.0	-65.4	3.8	1.49e+00	0	40	104	0	71	21402
2026-01-02 00:23:35.16	345.29	41.84	-50.0	-65.4	3.8	1.49e+00	0	40	104	0	71	21482
2026-01-02 00:23:36.31	344.93	42.08	-50.0	-65.4	3.8	1.49e+00	0	40	104	0	71	21458
2026-01-02 00:23:37.17	344.66	42.27	-50.0	-65.5	3.8	1.49e+00	0	40	104	0	71	21547
2026-01-02 00:23:38.32	344.29	42.52	-50.0	-65.5	3.8	1.49e+00	0	40	104	0	71	21575
2026-01-02 00:23:39.18	344.01	42.70	-50.0	-65.4	3.8	1.49e+00	0	40	104	0	71	21485
2026-01-02 00:23:40.33	343.63	42.95	-50.0	-65.4	3.8	1.49e+00	0	40	104	0	71	21426
2026-01-02 00:23:41.19	343.34	43.13	-50.0	-65.4	3.8	1.49e+00	0	40	104	0	71	21443
2026-01-02 00:23:42.33	342.96	43.38	-50.0	-65.4	3.8	1.49e+00	0	40	104	0	71	21500
2026-01-02 00:23:43.20	342.66	43.57	-50.0	-65.4	3.8	1.49e+00	0	40	104	0	71	21488
2026-01-02 00:23:44.34	342.26	43.82	-50.0	-65.4	3.8	1.49e+00	0	40	104	0	71	21414
2026-01-02 00:23:45.20	341.96	44.00	-50.0	-65.4	3.8	1.49e+00	0	40	104	0	71	21475
2026-01-02 00:23:46.35	341.54	44.25	-50.0	-65.4	3.8	1.49e+00	0	40	104	0	71	21384
2026-01-02 00:23:47.21	341.23	44.44	-50.0	-65.5	3.8	1.49e+00	0	40	104	0	71	21510
2026-01-02 00:23:48.36	340.81	44.68	-50.0	-65.4	3.8	1.49e+00	0	40	104	0	71	21486
2026-01-02 00:23:49.22	340.49	44.87	-50.0	-65.4	3.8	1.49e+00	0	40	104	0	71	21440
2026-01-02 00:23:50.37	340.05	45.12	-50.0	-65.4	3.8	1.49e+00	0	40	104	0	71	21461
2026-01-02 00:23:51.23	339.72	45.30	-50.0	-65.4	3.8	1.49e+00	0	40	104	0	71	21468
2026-01-02 00:23:52.38	339.28	45.55	-50.0	-65.4	3.8	1.49e+00	0	40	104	0	71	21413
2026-01-02 00:23:53.24	338.94	45.73	-50.0	-65.4	3.8	1.49e+00	0	40	104	0	71	21433
2026-01-02 00:23:54.43	338.46	45.99	-50.0	-65.5	3.8	1.49e+00	0	40	104	0	71	21523
2026-01-02 00:23:55.29	338.11	46.17	-50.0	-65.4	3.8	1.49e+00	0	40	104	0	71	21486
2026-01-02 00:23:56.51	337.61	46.43	-50.0	-65.5	3.8	1.49e+00	0	40	104	0	71	21511
2026-01-02 00:23:57.37	337.25	46.62	-50.0	-65.4	3.8	1.49e+00	0	40	104	0	71	21489
2026-01-02 00:23:58.58	336.74	46.87	-50.0	-65.4	3.8	1.49e+00	0	40	104	0	71	21447
2026-01-02 00:23:59.44	336.37	47.05	-50.0	-65.4	3.8	1.49e+00	0	40	104	0	71	21413
2026-01-02 00:24:00.65	335.85	47.31	-50.0	-65.4	3.8	1.49e+00	0	40	104	0	71	21494
2026-01-02 00:24:01.51	335.47	47.49	-50.0	-65.4	3.8	1.49e+00	0	40	104	0	71	21479
2026-01-02 00:24:02.72	334.93	47.74	-50.0	-65.4	3.8	1.49e+00	0	40	104	0	71	21461
2026-01-02 00:24:03.58	334.54	47.92	-50.0	-65.5	3.8	1.49e+00	0	40	104	0	71	21513
2026-01-02 00:24:04.73	334.01	48.16	-50.0	-65.5	3.8	1.49e+00	0	40	104	0	71	21514
2026-01-02 00:24:05.59	333.61	48.34	-50.0	-65.4	3.8	1.49e+00	0	40	104	0	71	21506
2026-01-02 00:24:06.74	333.06	48.57	-50.0	-65.4	3.8	1.49e+00	0	40	104	0	71	21458
2026-01-02 00:24:07.60	332.65	48.75	-50.0	-65.4	3.8	1.49e+00	0	40	104	0	71	21456
2026-01-02 00:24:08.74	332.10	48.98	-50.0	-65.4	3.8	1.49e+00	0	40	104	0	71	21463
2026-01-02 00:24:09.60	331.67	49.15	-50.0	-65.4	3.8	1.49e+00	0	39	104	0	71	21455
2026-01-02 00:24:10.75	331.10	49.38	-50.0	-65.4	3.8	1.49e+00	0	40	104	0	71	21476
2026-01-02 00:24:11.61	330.67	49.55	-50.0	-65.4	3.8	1.49e+00	0	40	104	0	71	21478
2026-01-02 00:24:12.76	330.08	49.78	-49.8	-65.4	3.8	1.49e+00	0	40	104	0	71	21461
2026-01-02 00:24:13.62	329.63	49.95	-49.9	-65.4	3.8	1.49e+00	0	40	104	0	71	21450
2026-01-02 00:24:14.79	329.02	50.17	-49.8	-65.4	3.8	1.49e+00	0	40	104	0	71	21380
2026-01-02 00:24:15.65	328.56	50.34	-49.7	-65.4	3.8	1.49e+00	0	40	104	0	71	21376
2026-01-02 00:24:16.79	327.95	50.55	-49.6	-65.4	3.8	1.49e+00	0	40	104	0	71	21483
2026-01-02 00:24:17.65	327.48	50.71	-50.0	-65.5	3.8	1.49e+00	0	40	104	0	70	22784
2026-01-02 00:24:18.80	326.84	50.93	-49.8	-65.4	3.8	1.49e+00	0	40	104	0	70	22740
2026-01-02 00:24:19.66	326.36	51.09	-49.9	-65.4	3.8	1.49e+00	0	40	104	0	70	22766
2026-01-02 00:24:20.81	325.71	51.29	-49.8	-65.4	3.8	1.49e+00	0	39	104	0	70	22779
2026-01-02 00:24:21.67	325.22	51.45	-49.9	-65.4	3.8	1.49e+00	0	40	104	0	70	22697
2026-01-02 00:24:22.82	324.55	51.65	-50.0	-65.4	3.8	1.49e+00	0	40	104	0	70	22757
2026-01-02 00:24:23.68	324.04	51.80	-50.0	-65.4	3.8	1.49e+00	0	40	104	0	70	22762
2026-01-02 00:24:24.83	323.36	52.00	-50.0	-65.4	3.8	1.49e+00	0	40	104	0	70	22711
2026-01-02 00:24:25.69	322.84	52.14	-50.0	-65.4	3.8	1.49e+00	0	40	104	0	70	22777
2026-01-02 00:24:26.84	322.14	52.34	-50.0	-65.4	3.8	1.49e+00	0	40	104	0	70	22726
2026-01-02 00:24:27.70	321.62	52.48	-50.0	-65.4	3.8	1.49e+00	0	40	104	0	70	22765
2026-01-02 00:24:28.84	320.91	52.66	-50.0	-65.4	3.8	1.49e+00	0	40	104	0	70	22761
2026-01-02 00:24:29.70	320.37	52.79	-50.0	-65.5	3.8	1.49e+00	0	40	104	0	70	22792
2026-01-02 00:24:30.85	319.64	52.97	-50.0	-65.4	3.8	1.49e+00	0	40	104	0	70	22743
2026-01-02 00:24:31.71	319.08	53.10	-50.0	-65.4	3.8	1.49e+00	0	40	104	0	70	22757
2026-01-02 00:24:32.86	318.34	53.27	-50.0	-65.4	3.8	1.49e+00	0	40	104	0	70	22771
2026-01-02 00:24:33.72	317.77	53.40	-50.0	-65.4	3.8	1.49e+00	0	40	104	0	70	22744
2026-01-02 00:24:34.87	317.01	53.56	-50.0	-65.4	3.8	1.49e+00	0	40	104	0	70	22704
2026-01-02 00:24:35.73	316.44	53.68	-50.0	-65.5	3.8	1.49e+00	0	40	104	0	70	22869
2026-01-02 00:24:36.88	315.66	53.83	-50.0	-65.4	3.8	1.49e+00	0	40	104	0	70	22686
2026-01-02 00:24:37.74	315.08	53.94	-50.0	-65.5	3.8	1.49e+00	0	40	104	0	70	22814
2026-01-02 00:24:38.89	314.29	54.09	-50.0	-65.4	3.8	1.49e+00	0	40	104	0	70	22764
2026-01-02 00:24:39.75	313.69	54.19	-50.0	-65.5	3.8	1.49e+00	0	40	104	0	70	22845
2026-01-02 00:24:40.89	312.89	54.33	-50.0	-65.5	3.8	1.49e+00	0	40	104	0	70	22799
2026-01-02 00:24:41.76	312.28	54.43	-50.0	-65.5	3.8	1.49e+00	0	40	104	0	70	22795
2026-01-02 00:24:42.90	311.47	54.55	-50.0	-65.5	3.8	1.49e+00	0	40	104	0	70	22812
2026-01-02 00:24:43.76	310.85	54.64	-50.0	-65.4	3.8	1.49e+00	0	40	104	0	70	22756
2026-01-02 00:24:44.91	310.02	54.76	-50.0	-65.5	3.8	1.49e+00	0	40	104	0	70	22822
2026-01-02 00:24:45.77	309.40	54.84	-50.0	-65.5	3.8	1.49e+00	0	40	104	0	70	22836
2026-01-02 00:24:46.92	308.56	54.95	-50.0	-65.4	3.8	1.49e+00	0	40	104	0	70	22679
2026-01-02 00:24:47.78	307.93	55.03	-50.0	-65.4	3.8	1.49e+00	0	40	104	0	70	22749
2026-01-02 00:24:48.93	307.07	55.12	-50.0	-65.4	3.8	1.49e+00	0	40	104	0	70	22708
2026-01-02 00:24:49.79	306.43	55.19	-50.0	-65.4	3.8	1.49e+00	0	40	104	0	70	22768
2026-01-02 00:24:50.94	305.57	55.27	-50.0	-65.4	3.8	1.49e+00	0	40	104	0	70	22729
2026-01-02 00:24:51.80	304.93	55.33	-50.0	-65.4	3.8	1.49e+00	0	40	104	0	70	22727
2026-01-02 00:24:52.95	304.06	55.41	-50.0	-65.5	3.8	1.49e+00	0	40	104	0	70	22791
2026-01-02 00:24:53.81	303.40	55.46	-50.0	-65.4	3.8	1.49e+00	0	40	104	0	70	22762
2026-01-02 00:24:54.96	302.52	55.52	-50.0	-65.4	3.8	1.49e+00	0	40	104	0	70	22688
2026-01-02 00:24:55.82	301.87	55.56	-50.0	-65.5	3.8	1.49e+00	0	40	104	0	70	22790
2026-01-02 00:24:56.97	300.98	55.62	-50.0	-65.4	3.8	1.49e+00	0	40	104	0	70	22742
2026-01-02 00:24:57.83	300.32	55.65	-50.0	-65.5	3.8	1.49e+00	0	40	104	0	70	22782
2026-01-02 00:24:58.97	299.44	55.69	-50.0	-65.4	3.8	1.49e+00	0	40	104	0	70	22673
2026-01-02 00:24:59.84	298.77	55.71	-50.0	-65.5	3.8	1.49e+00	0	40	104	0	70	22804
2026-01-02 00:25:00.98	297.88	55.74	-50.0	-65.5	3.8	1.49e+00	0	40	104	0	70	22799
2026-01-02 00:25:01.84	297.21	55.76	-50.0	-65.5	3.8	1.49e+00	0	40	104	0	70	22844
2026-01-02 00:25:02.99	296.32	55.77	-50.0	-65.5	3.8	1.49e+00	0	40	104	0	70	22829
2026-01-02 00:25:03.85	295.65	55.78	-50.0	-65.4	3.8	1.49e+00	0	40	104	0	70	22770
2026-01-02 00:25:05.00	294.75	55.78	-50.0	-65.4	3.8	1.49e+00	0	40	104	0	70	22770
2026-01-02 00:25:05.86	294.08	55.78	-50.0	-65.4	3.8	1.49e+00	0	40	104	0	70	22779
2026-01-02 00:25:07.01	293.19	55.77	-50.0	-65.4	3.8	1.49e+00	0	40	104	0	70	22735
2026-01-02 00:25:07.87	292.52	55.76	-50.0	-65.4	3.8	1.49e+00	0	40	104	0	70	22754
2026-01-02 00:25:09.02	291.62	55.74	-50.0	-65.4	3.8	1.49e+00	0	40	104	0	70	22709
2026-01-02 00:25:09.88	290.95	55.72	-50.0	-65.4	3.8	1.49e+00	0	40	104	0	70	22713
2026-01-02 00:25:11.03	290.06	55.69	-50.0	-65.5	3.8	1.49e+00	0	40	104	0	70	22792
2026-01-02 00:25:11.89	289.40	55.66	-50.0	-65.4	3.8	1.49e+00	0	40	104	0	70	22757
2026-01-02 00:25:13.03	288.52	55.62	-50.0	-65.4	3.8	1.49e+00	0	40	104	0	70	22713
2026-01-02 00:25:13.90	287.85	55.58	-50.0	-65.4	3.8	1.49e+00	0	40	104	0	70	22667
2026-01-02 00:25:15.04	286.97	55.53	-50.0	-65.4	3.8	1.49e+00	0	40	104	0	70	22743
2026-01-02 00:25:15.90	286.32	55.48	-50.0	-65.4	3.8	1.49e+00	0	40	104	0	70	22750
2026-01-02 00:25:17.05	285.44	55.41	-50.0	-65.4	3.8	1.49e+00	0	40	104	0	70	22717
2026-01-02 00:25:17.91	284.79	55.36	-50.0	-65.4	3.8	1.49e+00	0	40	104	0	70	22695
2026-01-02 00:25:19.06	283.92	55.28	-50.0	-65.5	3.8	1.49e+00	0	40	104	0	70	22830
2026-01-02 00:25:19.92	283.28	55.22	-50.0	-65.4	3.8	1.49e+00	0	40	104	0	70	22764
2026-01-02 00:25:21.07	282.42	55.13	-50.0	-65.5	3.8	1.49e+00	0	40	104	0	70	22861
2026-01-02 00:25:21.93	281.78	55.06	-50.0	-65.4	3.8	1.49e+00	0	40	104	0	70	22755
2026-01-02 00:25:23.08	280.93	54.96	-50.0	-65.4	3.8	1.49e+00	0	40	104	0	70	22690
2026-01-02 00:25:23.94	280.30	54.88	-50.0	-65.4	3.8	1.49e+00	0	40	104	0	70	22756
2026-01-02 00:25:25.08	279.47	54.77	-50.0	-65.4	3.8	1.49e+00	0	40	104	0	70	22737
2026-01-02 00:25:25.95	278.84	54.68	-50.0	-65.5	3.8	1.49e+00	0	40	104	0	70	22832
2026-01-02 00:25:27.10	278.02	54.56	-50.0	-65.4	3.8	1.49e+00	0	40	104	0	70	22744
2026-01-02 00:25:27.96	277.41	54.47	-50.0	-65.4	3.8	1.49e+00	0	40	104	0	70	22743
2026-01-02 00:25:29.10	276.60	54.34	-50.0	-65.4	3.8	1.49e+00	0	40	104	0	70	22701
2026-01-02 00:25:29.96	276.00	54.24	-50.0	-65.4	3.8	1.49e+00	0	40	104	0	70	22747
2026-01-02 00:25:31.11	275.20	54.10	-50.0	-65.4	3.8	1.49e+00	0	40	104	0	70	22771
2026-01-02 00:25:31.97	274.60	53.99	-50.0	-65.4	3.8	1.49e+00	0	40	104	0	70	22748
2026-01-02 00:25:33.12	273.82	53.84	-50.0	-65.5	3.8	1.49e+00	0	40	104	0	70	22815
2026-01-02 00:25:33.98	273.24	53.72	-50.0	-65.4	3.8	1.49e+00	0	40	104	0	70	22748
2026-01-02 00:25:35.13	272.46	53.57	-50.0	-65.5	3.8	1.49e+00	0	40	104	0	70	22820
2026-01-02 00:25:35.99	271.89	53.45	-50.0	-65.5	3.8	1.49e+00	0	40	104	0	70	22897
2026-01-02 00:25:37.13	271.14	53.28	-50.0	-65.5	3.8	1.49e+00	0	40	104	0	70	22819
2026-01-02 00:25:38.00	270.58	53.15	-50.0	-65.5	3.8	1.49e+00	0	40	104	0	70	22789
2026-01-02 00:25:39.15	269.84	52.98	-50.0	-65.4	3.8	1.49e+00	0	40	104	0	70	22774
2026-01-02 00:25:40.00	269.29	52.85	-50.0	-65.4	3.8	1.49e+00	0	40	104	0	70	22739
2026-01-02 00:25:41.15	268.57	52.67	-50.0	-65.4	3.8	1.49e+00	0	40	104	0	70	22753
2026-01-02 00:25:42.01	268.03	52.53	-50.0	-65.4	3.8	1.49e+00	0	40	104	0	70	22757
2026-01-02 00:25:43.16	267.32	52.34	-50.0	-65.4	3.8	1.49e+00	0	40	104	0	70	22753
2026-01-02 00:25:44.02	266.79	52.20	-50.0	-65.4	3.8	1.49e+00	0	40	104	0	70	22764
2026-01-02 00:25:45.17	266.10	52.01	-50.0	-65.5	3.8	1.49e+00	0	40	104	0	70	22862
2026-01-02 00:25:46.03	265.59	51.86	-50.0	-65.5	3.8	1.49e+00	0	40	104	0	70	22800
2026-01-02 00:25:47.18	264.91	51.66	-50.0	-65.5	3.8	1.49e+00	0	40	104	0	70	22815
2026-01-02 00:25:48.04	264.41	51.51	-50.0	-65.5	3.8	1.49e+00	0	40	104	0	70	22818
2026-01-02 00:25:49.18	263.75	51.30	-50.0	-65.5	3.8	1.49e+00	0	40	104	0	70	22838
2026-01-02 00:25:50.05	263.26	51.15	-50.0	-65.4	3.8	1.49e+00	0	40	104	0	70	22773
2026-01-02 00:25:51.20	262.61	50.94	-50.0	-65.5	3.8	1.49e+00	0	40	104	0	70	22793
2026-01-02 00:25:52.05	262.14	50.78	-50.0	-65.4	3.8	1.49e+00	0	40	104	0	70	22744
2026-01-02 00:25:53.20	261.51	50.56	-50.0	-65.5	3.8	1.49e+00	0	40	104	0	70	22839
2026-01-02 00:25:54.06	261.04	50.40	-50.0	-65.5	3.8	1.49e+00	0	40	104	0	70	22800
2026-01-02 00:25:55.21	260.43	50.18	-50.0	-65.4	3.8	1.49e+00	0	40	104	0	70	22726
2026-01-02 00:25:56.07	259.97	50.01	-50.0	-65.4	3.8	1.49e+00	0	40	104	0	70	22781
2026-01-02 00:25:57.22	259.37	49.79	-50.0	-65.5	3.8	1.49e+00	0	40	104	0	70	22853
2026-01-02 00:25:58.08	258.93	49.62	-50.0	-65.5	3.8	1.49e+00	0	40	104	0	70	22832
2026-01-02 00:25:59.23	258.35	49.39	-50.0	-65.5	3.8	1.49e+00	0	40	104	0	70	22817
2026-01-02 00:26:00.14	257.89	49.21	-50.0	-65.4	3.8	1.49e+00	0	40	104	0	70	22777
2026-01-02 00:26:01.14	257.40	49.01	-50.0	-65.5	3.8	1.49e+00	0	40	104	0	70	22799
2026-01-02 00:26:02.14	256.91	48.80	-50.0	-65.5	3.8	1.49e+00	0	40	104	0	70	22805
2026-01-02 00:26:03.15	256.42	48.60	-50.0	-65.5	3.8	1.49e+00	0	40	104	0	70	22793
2026-01-02 00:26:04.15	255.95	48.39	-50.0	-65.5	3.8	1.49e+00	0	40	104	0	70	22814
2026-01-02 00:26:05.16	255.47	48.18	-50.0	-65.5	3.8	1.49e+00	0	40	104	0	70	22783
2026-01-02 00:26:06.16	255.01	47.98	-50.0	-65.4	3.8	1.49e+00	0	40	104	0	70	22770
2026-01-02 00:26:07.17	254.55	47.77	-50.0	-65.5	3.8	1.49e+00	0	40	104	0	70	22827
2026-01-02 00:26:08.17	254.10	47.56	-50.0	-65.5	3.8	1.49e+00	0	40	104	0	70	22807
2026-01-02 00:26:09.18	253.65	47.34	-50.0	-65.5	3.8	1.49e+00	0	40	104	0	70	22785
2026-01-02 00:26:10.18	253.21	47.13	-50.0	-65.5	3.8	1.49e+00	0	40	104	0	70	22796
2026-01-02 00:26:11.18	252.78	46.92	-50.0	-65.5	3.8	1.49e+00	0	40	104	0	70	22845
2026-01-02 00:26:12.19	252.35	46.71	-50.0	-65.5	3.8	1.49e+00	0	40	104	0	70	22832
2026-01-02 00:26:13.19	251.93	46.49	-50.0	-65.4	3.8	1.49e+00	0	40	104	0	70	22737
2026-01-02 00:26:14.19	251.51	46.28	-50.0	-65.5	3.8	1.49e+00	0	40	104	0	70	22833
2026-01-02 00:26:15.20	251.10	46.06	-50.0	-65.4	3.8	1.49e+00	0	40	104	0	70	22730
2026-01-02 00:26:16.20	250.70	45.85	-50.0	-65.4	3.8	1.49e+00	0	40	104	0	70	22774
2026-01-02 00:26:17.21	250.29	45.63	-50.0	-65.4	3.8	1.49e+00	0	40	104	0	70	22777
2026-01-02 00:26:18.21	249.90	45.42	-50.0	-65.5	3.8	1.49e+00	0	40	104	0	70	22809
2026-01-02 00:26:19.22	249.51	45.20	-50.0	-65.4	3.8	1.49e+00	0	40	104	0	70	22755
2026-01-02 00:26:20.22	249.13	44.98	-50.0	-65.5	3.8	1.49e+00	0	40	104	0	70	22833
2026-01-02 00:26:21.23	248.75	44.76	-50.0	-65.5	3.8	1.49e+00	0	40	104	0	70	22800
2026-01-02 00:26:22.23	248.38	44.55	-50.0	-65.4	3.8	1.49e+00	0	40	104	0	70	22767
2026-01-02 00:26:23.23	248.01	44.33	-50.0	-65.5	3.8	1.49e+00	0	40	104	0	70	22783
2026-01-02 00:26:24.24	247.64	44.11	-50.0	-65.5	3.8	1.49e+00	0	40	104	0	70	22796
2026-01-02 00:26:25.27	247.28	43.89	-50.0	-65.5	3.8	1.49e+00	0	40	104	0	70	22798
2026-01-02 00:26:26.29	246.92	43.67	-50.0	-65.5	3.8	1.49e+00	0	40	104	0	70	22825
2026-01-02 00:26:27.34	246.55	43.44	-50.0	-65.4	3.8	1.49e+00	0	40	104	0	70	22763
2026-01-02 00:26:28.23	246.25	43.24	-50.0	-65.5	3.8	1.49e+00	0	40	104	0	70	22849
2026-01-02 00:26:29.55	245.80	42.96	-50.0	-65.5	3.8	1.49e+00	0	40	104	0	70	22837
2026-01-02 00:26:30.27	245.56	42.80	-50.0	-65.4	3.8	1.49e+00	0	40	104	0	70	22691
2026-01-02 00:26:31.78	245.07	42.48	-50.0	-65.5	3.8	1.49e+00	0	40	104	0	70	22889
2026-01-02 00:26:32.50	244.84	42.32	-50.0	-65.5	3.8	1.49e+00	0	40	104	0	70	22801
2026-01-02 00:26:33.85	244.41	42.03	-50.0	-65.4	3.8	1.49e+00	0	40	104	0	70	22779
2026-01-02 00:26:34.57	244.18	41.87	-50.0	-65.5	3.8	1.49e+00	0	40	104	0	70	22829
2026-01-02 00:26:35.92	243.77	41.58	-50.0	-65.4	3.8	1.49e+00	0	40	104	0	70	22775
2026-01-02 00:26:36.64	243.55	41.43	-50.0	-65.5	3.8	1.49e+00	0	40	104	0	70	22800
2026-01-02 00:26:37.93	243.16	41.15	-50.0	-65.5	3.8	1.49e+00	0	40	104	0	70	22789
2026-01-02 00:26:38.65	242.94	41.00	-50.0	-65.5	3.8	1.49e+00	0	40	104	0	70	22841
2026-01-02 00:26:39.94	242.57	40.72	-50.0	-65.5	3.8	1.49e+00	0	40	104	0	70	22862
2026-01-02 00:26:40.66	242.36	40.57	-50.0	-65.5	3.8	1.49e+00	0	40	104	0	70	22937
2026-01-02 00:26:41.95	241.99	40.29	-50.0	-65.5	3.8	1.49e+00	0	40	104	0	70	22804
2026-01-02 00:26:42.67	241.79	40.14	-50.0	-65.4	3.8	1.49e+00	0	40	104	0	70	22745
2026-01-02 00:26:43.95	241.43	39.87	-50.0	-65.5	3.8	1.49e+00	0	40	104	0	70	22784
2026-01-02 00:26:44.67	241.23	39.72	-50.0	-65.4	3.8	1.49e+00	0	40	104	0	70	22756
2026-01-02 00:26:45.96	240.88	39.44	-50.0	-65.5	3.8	1.49e+00	0	40	104	0	70	22846
2026-01-02 00:26:46.68	240.69	39.29	-50.0	-65.4	3.8	1.49e+00	0	40	104	0	70	22725
2026-01-02 00:26:47.97	240.35	39.02	-50.0	-65.5	3.8	1.49e+00	0	40	104	0	70	22793
2026-01-02 00:26:48.69	240.16	38.87	-50.0	-65.5	3.8	1.49e+00	0	40	104	0	70	22783
2026-01-02 00:26:49.98	239.83	38.60	-50.0	-65.5	3.8	1.49e+00	0	40	104	0	70	22812
2026-01-02 00:26:50.70	239.65	38.45	-50.0	-65.5	3.8	1.49e+00	0	40	104	0	70	22953
2026-01-02 00:26:51.99	239.33	38.18	-50.0	-65.5	3.8	1.49e+00	0	40	104	0	70	22851
2026-01-02 00:26:52.71	239.15	38.03	-50.0	-65.5	3.8	1.49e+00	0	40	104	0	70	22853
2026-01-02 00:26:54.00	238.83	37.77	-50.0	-65.5	3.8	1.49e+00	0	40	104	0	70	22834
2026-01-02 00:26:54.72	238.66	37.62	-50.0	-65.5	3.8	1.49e+00	0	40	104	0	70	22804
2026-01-02 00:26:56.01	238.35	37.36	-50.0	-65.5	3.8	1.49e+00	0	40	104	0	70	22843
2026-01-02 00:26:56.72	238.19	37.21	-50.0	-65.5	3.8	1.49e+00	0	40	104	0	70	22806
2026-01-02 00:26:58.01	237.89	36.95	-50.0	-65.5	3.8	1.49e+00	0	40	104	0	70	22799
2026-01-02 00:26:58.73	237.72	36.80	-50.0	-65.5	3.8	1.49e+00	0	40	104	0	70	22801
2026-01-02 00:27:00.02	237.43	36.54	-50.0	-65.5	3.8	1.49e+00	0	40	104	0	70	22805
2026-01-02 00:27:00.74	237.27	36.40	-50.0	-65.4	3.8	1.49e+00	0	40	104	0	70	22771
2026-01-02 00:27:02.03	236.99	36.14	-50.0	-65.5	3.8	1.49e+00	0	40	104	0	70	22844
2026-01-02 00:27:02.75	236.83	36.00	-50.0	-65.5	3.8	1.49e+00	0	40	104	0	70	22810
2026-01-02 00:27:04.04	236.55	35.74	-50.0	-65.4	3.8	1.49e+00	0	40	104	0	70	22752
2026-01-02 00:27:04.76	236.40	35.60	-50.0	-65.5	3.8	1.49e+00	0	40	104	0	70	22807
2026-01-02 00:27:06.05	236.13	35.34	-50.0	-65.4	3.8	1.49e+00	0	40	104	0	70	22776
2026-01-02 00:27:06.77	235.98	35.20	-50.0	-65.5	3.8	1.49e+00	0	40	104	0	70	22795
2026-01-02 00:27:08.06	235.71	34.95	-50.0	-65.5	3.8	1.49e+00	0	40	104	0	70	22857
2026-01-02 00:27:08.77	235.57	34.81	-50.0	-65.4	3.8	1.49e+00	0	40	104	0	70	22741
2026-01-02 00:27:10.06	235.31	34.56	-50.0	-65.5	3.8	1.49e+00	0	40	104	0	70	22823
2026-01-02 00:27:10.78	235.17	34.42	-50.0	-65.4	3.8	1.49e+00	0	40	104	0	70	22741
2026-01-02 00:27:12.07	234.92	34.17	-50.0	-65.5	3.8	1.49e+00	0	40	104	0	70	22848
2026-01-02 00:27:12.79	234.78	34.04	-50.0	-65.5	3.8	1.49e+00	0	40	104	0	70	22845
2026-01-02 00:27:14.08	234.53	33.79	-50.0	-65.4	3.8	1.49e+00	0	40	104	0	70	22743
2026-01-02 00:27:14.80	234.40	33.65	-50.0	-65.5	3.8	1.49e+00	0	40	104	0	70	22893
2026-01-02 00:27:16.09	234.16	33.41	-50.0	-65.5	3.8	1.49e+00	0	40	104	0	70	22852
2026-01-02 00:27:16.81	234.03	33.27	-50.0	-65.5	3.8	1.49e+00	0	40	104	0	70	22869
2026-01-02 00:27:18.10	233.79	33.03	-50.0	-65.5	3.8	1.49e+00	0	40	104	0	70	22839
2026-01-02 00:27:18.82	233.66	32.90	-50.0	-65.5	3.8	1.49e+00	0	40	104	0	70	22828
2026-01-02 00:27:20.11	233.43	32.66	-50.0	-65.4	3.8	1.49e+00	0	40	104	0	70	22749
2026-01-02 00:27:20.83	233.31	32.52	-50.0	-65.4	3.8	1.49e+00	0	40	104	0	70	22746
2026-01-02 00:27:22.12	233.08	32.29	-50.0	-65.5	3.8	1.49e+00	0	40	104	0	70	22855
2026-01-02 00:27:22.83	232.96	32.16	-50.0	-65.4	3.8	1.49e+00	0	40	104	0	70	22759
2026-01-02 00:27:24.13	232.74	31.92	-50.0	-65.5	3.8	1.49e+00	0	40	104	0	70	22818
2026-01-02 00:27:24.84	232.62	31.79	-50.0	-65.5	3.8	1.49e+00	0	40	104	0	70	22811
2026-01-02 00:27:26.13	232.41	31.56	-50.0	-65.5	3.8	1.49e+00	0	40	104	0	70	22888
2026-01-02 00:27:26.85	232.29	31.43	-50.0	-65.5	3.8	1.49e+00	0	40	104	0	70	22793
2026-01-02 00:27:28.14	232.08	31.19	-50.0	-65.5	3.8	1.49e+00	0	40	104	0	70	22833
2026-01-02 00:27:28.86	231.97	31.07	-50.0	-65.5	3.8	1.49e+00	0	40	104	0	70	22810
2026-01-02 00:27:30.15	231.76	30.84	-50.0	-65.5	3.8	1.49e+00	0	40	104	0	70	22878
2026-01-02 00:27:30.87	231.65	30.71	-50.0	-65.5	3.8	1.49e+00	0	40	104	0	70	22813
2026-01-02 00:27:32.16	231.45	30.48	-50.0	-65.5	3.8	1.49e+00	0	40	104	0	70	22823
2026-01-02 00:27:32.88	231.34	30.36	-50.0	-65.4	3.8	1.49e+00	0	40	104	0	70	22680
2026-01-02 00:27:34.17	231.14	30.13	-50.0	-65.5	3.8	1.49e+00	0	40	104	0	70	22856
2026-01-02 00:27:34.88	231.04	30.01	-50.0	-65.5	3.8	1.49e+00	0	40	104	0	70	22891
2026-01-02 00:27:36.17	230.84	29.79	-50.0	-65.4	3.8	1.49e+00	0	40	104	0	70	22739
2026-01-02 00:27:36.89	230.74	29.66	-50.0	-65.4	3.8	1.49e+00	0	40	104	0	70	22755
2026-01-02 00:27:38.18	230.55	29.44	-50.0	-65.4	3.8	1.49e+00	0	40	104	0	70	22745
2026-01-02 00:27:38.90	230.45	29.32	-50.0	-65.5	3.8	1.49e+00	0	40	104	0	70	22821
2026-01-02 00:27:40.19	230.26	29.10	-50.0	-65.5	3.8	1.49e+00	0	40	104	0	70	22809
2026-01-02 00:27:40.91	230.16	28.98	-50.0	-65.5	3.8	1.49e+00	0	40	104	0	70	22895
2026-01-02 00:27:42.20	229.98	28.76	-50.0	-65.5	3.8	1.49e+00	0	40	104	0	70	22893
2026-01-02 00:27:42.92	229.89	28.64	-50.0	-65.5	3.8	1.49e+00	0	40	104	0	70	22866
2026-01-02 00:27:44.21	229.71	28.43	-50.0	-65.5	3.8	1.49e+00	0	40	104	0	70	22825
2026-01-02 00:27:44.93	229.61	28.31	-50.0	-65.5	3.8	1.49e+00	0	40	104	0	70	22862
2026-01-02 00:27:46.22	229.44	28.10	-50.0	-65.4	3.8	1.49e+00	0	40	104	0	70	22758
2026-01-02 00:27:46.94	229.35	27.98	-50.0	-65.5	3.8	1.49e+00	0	40	104	0	70	22825
2026-01-02 00:27:48.36	229.16	27.75	-50.0	-65.5	3.8	1.49e+00	0	40	104	0	70	22821
2026-01-02 00:27:49.07	229.07	27.64	-50.0	-65.4	3.8	1.49e+00	0	40	104	0	70	22743
2026-01-02 00:27:50.36	228.90	27.43	-50.0	-65.5	3.8	1.49e+00	0	40	104	0	70	22827
2026-01-02 00:27:51.08	228.81	27.31	-50.0	-65.5	3.8	1.49e+00	0	40	104	0	70	22819
2026-01-02 00:27:52.37	228.65	27.11	-50.0	-65.5	3.8	1.49e+00	0	40	104	0	70	22828
2026-01-02 00:27:53.09	228.56	26.99	-50.0	-65.5	3.8	1.49e+00	0	40	104	0	70	22818
2026-01-02 00:27:54.38	228.40	26.79	-50.0	-65.5	3.8	1.49e+00	0	40	104	0	70	22858
2026-01-02 00:27:55.10	228.32	26.68	-50.0	-65.5	3.8	1.49e+00	0	40	104	0	70	22845
2026-01-02 00:27:56.39	228.16	26.47	-50.0	-65.5	3.8	1.49e+00	0	40	104	0	70	22813
2026-01-02 00:27:57.10	228.08	26.36	-50.0	-65.5	3.8	1.49e+00	0	40	104	0	70	22810
2026-01-02 00:27:58.40	227.93	26.16	-50.0	-65.5	3.8	1.49e+00	0	40	104	0	70	22823
2026-01-02 00:27:59.11	227.84	26.05	-50.0	-65.5	3.8	1.49e+00	0	40	104	0	70	22886
2026-01-02 00:28:00.40	227.69	25.85	-50.0	-65.5	3.8	1.49e+00	0	40	104	0	70	22817
2026-01-02 00:28:01.12	227.61	25.74	-50.0	-65.4	3.8	1.49e+00	0	40	104	0	70	22733
2026-01-02 00:28:02.41	227.47	25.55	-50.0	-65.5	3.8	1.49e+00	0	40	104	0	70	22887
2026-01-02 00:28:03.13	227.38	25.44	-50.0	-65.5	3.8	1.49e+00	0	40	104	0	70	22873
2026-01-02 00:28:04.42	227.24	25.25	-50.0	-65.5	3.8	1.49e+00	0	40	104	0	70	22820
2026-01-02 00:28:05.14	227.16	25.14	-50.0	-65.5	3.8	1.49e+00	0	41	104	0	70	22868
2026-01-02 00:28:06.43	227.02	24.95	-50.0	-65.5	3.8	1.49e+00	0	40	104	0	70	22855
2026-01-02 00:28:07.15	226.94	24.84	-50.0	-65.5	3.8	1.49e+00	0	40	104	0	70	22832
2026-01-02 00:28:08.44	226.81	24.65	-50.0	-65.4	3.8	1.49e+00	0	40	104	0	70	22750
2026-01-02 00:28:09.16	226.73	24.54	-50.0	-65.4	3.8	1.49e+00	0	41	104	0	70	22773
2026-01-02 00:28:10.45	226.60	24.35	-50.0	-65.5	3.8	1.49e+00	0	41	104	0	70	22820
2026-01-02 00:28:11.18	226.52	24.25	-50.0	-65.5	3.8	1.49e+00	0	40	104	0	70	22789
2026-01-02 00:28:12.47	226.39	24.06	-50.0	-65.5	3.8	1.49e+00	0	40	104	0	70	22869
2026-01-02 00:28:13.27	226.31	23.95	-50.0	-65.5	3.8	1.49e+00	0	40	104	0	70	22850
2026-01-02 00:28:14.42	226.19	23.78	-50.0	-65.5	3.8	1.49e+00	0	40	104	0	70	22820
2026-01-02 00:28:15.28	226.10	23.66	-50.0	-65.5	3.8	1.49e+00	0	41	104	0	70	22849
2026-01-02 00:28:16.43	225.99	23.50	-50.0	-65.5	3.8	1.49e+00	0	40	104	0	70	22832
2026-01-02 00:28:17.29	225.91	23.37	-50.0	-65.5	3.8	1.49e+00	0	40	104	0	70	22838
2026-01-02 00:28:18.44	225.79	23.21	-50.0	-65.5	3.8	1.49e+00	0	40	104	0	70	22875
2026-01-02 00:28:19.30	225.71	23.09	-50.0	-65.5	3.8	1.49e+00	0	40	104	0	70	22863
2026-01-02 00:28:20.44	225.60	22.93	-50.0	-65.5	3.8	1.49e+00	0	40	104	0	70	22870
2026-01-02 00:28:21.30	225.52	22.82	-50.0	-65.5	3.8	1.49e+00	0	40	104	0	70	22840
2026-01-02 00:28:22.45	225.41	22.66	-50.0	-65.5	3.8	1.49e+00	0	40	104	0	70	22819
2026-01-02 00:28:23.31	225.33	22.54	-50.0	-65.5	3.8	1.49e+00	0	40	104	0	70	22851
2026-01-02 00:28:24.46	225.23	22.38	-50.0	-65.4	3.8	1.49e+00	0	41	104	0	70	22780
2026-01-02 00:28:25.32	225.15	22.27	-50.0	-65.5	3.8	1.49e+00	0	40	104	0	70	22883
2026-01-02 00:28:26.47	225.05	22.11	-50.0	-65.5	3.8	1.49e+00	0	40	104	0	70	22903
2026-01-02 00:28:27.33	224.97	21.99	-50.0	-65.4	3.8	1.49e+00	0	40	104	0	70	22773
2026-01-02 00:28:28.48	224.87	21.84	-50.0	-65.5	3.8	1.49e+00	0	41	104	0	70	22840
2026-01-02 00:28:29.34	224.79	21.73	-50.0	-65.5	3.8	1.49e+00	0	41	104	0	70	22816
2026-01-02 00:28:30.48	224.69	21.57	-50.0	-65.5	3.8	1.49e+00	0	41	104	0	70	22846
2026-01-02 00:28:31.35	224.62	21.46	-50.0	-65.5	3.8	1.49e+00	0	40	104	0	70	22793
2026-01-02 00:28:32.49	224.52	21.31	-50.0	-65.5	3.8	1.49e+00	0	40	104	0	70	22824
2026-01-02 00:28:33.35	224.45	21.20	-50.0	-65.5	3.8	1.49e+00	0	41	104	0	70	22879
2026-01-02 00:28:34.50	224.35	21.05	-50.0	-65.5	3.8	1.49e+00	0	41	104	0	70	22799
2026-01-02 00:28:35.36	224.28	20.94	-50.0	-65.5	3.8	1.49e+00	0	40	104	0	70	22833
2026-01-02 00:28:36.59	224.18	20.78	-50.0	-65.4	3.8	1.49e+00	0	40	104	0	70	22773
2026-01-02 00:28:37.45	224.11	20.67	-50.0	-65.5	3.8	1.49e+00	0	40	104	0	70	22827
2026-01-02 00:28:38.64	224.01	20.51	-50.0	-65.5	3.8	1.49e+00	0	40	104	0	70	22876
2026-01-02 00:28:39.50	223.94	20.40	-50.0	-65.4	3.8	1.49e+00	0	40	104	0	70	22771
2026-01-02 00:28:40.73	223.84	20.25	-50.0	-65.5	3.8	1.49e+00	0	40	104	0	70	22832
2026-01-02 00:28:41.59	223.77	20.14	-50.0	-65.5	3.8	1.49e+00	0	40	104	0	70	22867
2026-01-02 00:28:42.74	223.68	20.00	-50.0	-65.5	3.8	1.49e+00	0	40	104	0	70	22836
2026-01-02 00:28:43.60	223.62	19.89	-50.0	-65.5	3.8	1.49e+00	0	40	104	0	70	22883
2026-01-02 00:28:44.75	223.53	19.75	-50.0	-65.5	3.8	1.49e+00	0	40	104	0	70	22806
2026-01-02 00:28:45.61	223.46	19.64	-50.0	-65.5	3.8	1.49e+00	0	40	104	0	70	22892
2026-01-02 00:28:46.76	223.38	19.50	-50.0	-65.4	3.8	1.49e+00	0	40	104	0	70	22759
2026-01-02 00:28:47.62	223.31	19.39	-50.0	-65.5	3.8	1.49e+00	0	40	104	0	70	22826
2026-01-02 00:28:48.76	223.23	19.25	-50.0	-65.5	3.8	1.49e+00	0	40	104	0	70	22848
2026-01-02 00:28:49.62	223.16	19.15	-50.0	-65.5	3.8	1.49e+00	0	40	104	0	70	22859
2026-01-02 00:28:50.77	223.08	19.01	-50.0	-65.5	3.8	1.49e+00	0	41	104	0	70	22974
2026-01-02 00:28:51.63	223.02	18.91	-50.0	-65.5	3.8	1.49e+00	0	40	104	0	70	22870
2026-01-02 00:28:52.78	222.93	18.77	-50.0	-65.5	3.8	1.49e+00	0	40	104	0	70	22839
2026-01-02 00:28:53.64	222.87	18.67	-50.0	-65.5	3.8	1.49e+00	0	40	104	0	70	22916
2026-01-02 00:28:54.79	222.79	18.53	-50.0	-65.5	3.8	1.49e+00	0	40	104	0	70	22842
2026-01-02 00:28:55.65	222.73	18.43	-50.0	-65.5	3.8	1.49e+00	0	40	104	0	70	22874
2026-01-02 00:28:56.80	222.65	18.29	-50.0	-65.4	3.8	1.49e+00	0	40	104	0	70	22724
2026-01-02 00:28:57.66	222.59	18.19	-50.0	-65.5	3.8	1.49e+00	0	40	104	0	70	22823
2026-01-02 00:28:58.81	222.51	18.06	-50.0	-65.5	3.8	1.49e+00	0	40	104	0	70	22828
2026-01-02 00:28:59.67	222.45	17.96	-50.0	-65.4	3.8	1.49e+00	0	41	104	0	70	22749
2026-01-02 00:29:00.82	222.37	17.82	-50.0	-65.5	3.8	1.49e+00	0	40	104	0	70	22816
2026-01-02 00:29:01.67	222.32	17.73	-50.0	-65.5	3.8	1.49e+00	0	40	104	0	70	22851
2026-01-02 00:29:02.82	222.24	17.60	-50.0	-65.5	3.8	1.49e+00	0	40	104	0	70	22803
2026-01-02 00:29:03.68	222.18	17.50	-50.0	-65.5	3.8	1.49e+00	0	40	104	0	70	22849
2026-01-02 00:29:04.83	222.11	17.37	-50.0	-65.5	3.8	1.49e+00	0	41	104	0	70	22787
2026-01-02 00:29:05.69	222.05	17.27	-50.0	-65.5	3.8	1.49e+00	0	40	104	0	70	22807
2026-01-02 00:29:06.84	221.98	17.14	-50.0	-65.5	3.8	1.49e+00	0	40	104	0	70	22896
2026-01-02 00:29:07.70	221.92	17.04	-50.0	-65.5	3.8	1.49e+00	0	40	104	0	70	22822
2026-01-02 00:29:08.85	221.85	16.91	-50.0	-65.5	3.8	1.49e+00	0	40	104	0	70	22894
2026-01-02 00:29:09.71	221.79	16.82	-50.0	-65.5	3.8	1.49e+00	0	41	104	0	70	22868
2026-01-02 00:29:10.85	221.72	16.69	-50.0	-65.5	3.8	1.49e+00	0	41	104	0	70	22836
2026-01-02 00:29:11.71	221.67	16.60	-50.0	-65.5	3.8	1.49e+00	0	40	104	0	70	22825
2026-01-02 00:29:12.86	221.60	16.47	-50.0	-65.5	3.8	1.49e+00	0	41	104	0	70	22848
2026-01-02 00:29:13.72	221.55	16.38	-50.0	-65.5	3.8	1.49e+00	0	40	104	0	70	22791
2026-01-02 00:29:14.87	221.48	16.25	-50.0	-65.5	3.8	1.49e+00	0	40	104	0	70	22815
2026-01-02 00:29:15.73	221.42	16.16	-50.0	-65.5	3.8	1.49e+00	0	40	104	0	70	22911
2026-01-02 00:29:16.88	221.36	16.03	-50.0	-65.5	3.8	1.49e+00	0	40	104	0	70	22850
2026-01-02 00:29:17.74	221.31	15.94	-50.0	-65.5	3.8	1.49e+00	0	40	104	0	70	22827
2026-01-02 00:29:18.89	221.24	15.82	-50.0	-65.5	3.8	1.49e+00	0	41	104	0	70	22870
2026-01-02 00:29:19.75	221.19	15.73	-50.0	-65.5	3.8	1.49e+00	0	41	104	0	70	22878
2026-01-02 00:29:20.89	221.12	15.61	-50.0	-65.5	3.8	1.49e+00	0	40	104	0	70	22890
2026-01-02 00:29:21.76	221.07	15.51	-50.0	-65.5	3.8	1.49e+00	0	41	104	0	70	22868
2026-01-02 00:29:22.90	221.01	15.39	-50.0	-65.5	3.8	1.49e+00	0	41	104	0	70	22891
2026-01-02 00:29:23.77	220.96	15.30	-50.0	-65.5	3.8	1.49e+00	0	40	104	0	70	22889
2026-01-02 00:29:24.91	220.89	15.18	-50.0	-65.5	3.8	1.49e+00	0	40	104	0	70	22788
2026-01-02 00:29:25.77	220.84	15.09	-50.0	-65.5	3.8	1.49e+00	0	41	104	0	70	22813
2026-01-02 00:29:26.92	220.78	14.97	-50.0	-65.5	3.8	1.49e+00	0	40	104	0	70	22871
2026-01-02 00:29:27.78	220.73	14.88	-50.0	-65.5	3.8	1.49e+00	0	41	104	0	70	22929
2026-01-02 00:29:28.93	220.67	14.77	-50.0	-65.5	3.8	1.49e+00	0	40	104	0	70	22867
2026-01-02 00:29:29.79	220.62	14.68	-50.0	-65.5	3.8	1.49e+00	0	41	104	0	70	22839
2026-01-02 00:29:30.94	220.56	14.56	-50.0	-65.5	3.8	1.49e+00	0	40	104	0	70	22873
2026-01-02 00:29:31.80	220.52	14.47	-50.0	-65.4	3.8	1.49e+00	0	40	104	0	70	22729
2026-01-02 00:29:32.95	220.45	14.36	-50.0	-65.5	3.8	1.49e+00	0	41	104	0	70	22817
2026-01-02 00:29:33.81	220.41	14.27	-50.0	-65.5	3.8	1.49e+00	0	40	104	0	70	22866
2026-01-02 00:29:34.96	220.35	14.15	-50.0	-65.5	3.8	1.49e+00	0	41	104	0	70	22792
2026-01-02 00:29:35.82	220.30	14.07	-50.0	-65.5	3.8	1.49e+00	0	40	104	0	70	22803
2026-01-02 00:29:36.97	220.24	13.95	-50.0	-65.5	3.8	1.49e+00	0	40	104	0	70	22855
2026-01-02 00:29:37.83	220.20	13.87	-50.0	-65.5	3.8	1.49e+00	0	41	104	0	70	22850
2026-01-02 00:29:38.97	220.14	13.76	-50.0	-65.5	3.8	1.49e+00	0	40	104	0	70	22828
2026-01-02 00:29:39.83	220.10	13.67	-50.0	-65.5	3.8	1.49e+00	0	40	104	0	70	22904
2026-01-02 00:29:40.98	220.04	13.56	-50.0	-65.5	3.8	1.49e+00	0	41	104	0	70	22836
2026-01-02 00:29:41.84	220.00	13.47	-50.0	-65.5	3.8	1.49e+00	0	40	104	0	70	22890
2026-01-02 00:29:42.99	219.94	13.36	-50.0	-65.5	3.8	1.49e+00	0	40	104	0	70	22918
2026-01-02 00:29:43.85	219.90	13.28	-50.0	-65.5	3.8	1.49e+00	0	40	104	0	70	22867
2026-01-02 00:29:45.00	219.84	13.17	-50.0	-65.5	3.8	1.49e+00	0	40	104	0	70	22789
2026-01-02 00:29:45.86	219.80	13.08	-50.0	-65.5	3.8	1.49e+00	0	40	104	0	70	22880
2026-01-02 00:29:47.01	219.75	12.97	-50.0	-65.5	3.8	1.49e+00	0	41	104	0	70	22877
2026-01-02 00:29:47.87	219.70	12.89	-50.0	-65.5	3.8	1.49e+00	0	40	104	0	70	22839
2026-01-02 00:29:49.02	219.65	12.78	-50.0	-65.4	3.8	1.49e+00	0	41	104	0	70	22764
2026-01-02 00:29:49.88	219.61	12.70	-50.0	-65.5	3.8	1.49e+00	0	40	104	0	70	22908
2026-01-02 00:29:51.03	219.55	12.59	-50.0	-65.5	3.8	1.49e+00	0	40	104	0	70	22882
2026-01-02 00:29:51.89	219.51	12.51	-50.0	-65.5	3.8	1.49e+00	0	40	104	0	70	22850
2026-01-02 00:29:53.03	219.46	12.40	-50.0	-65.5	3.8	1.49e+00	0	40	104	0	70	22870
2026-01-02 00:29:53.89	219.42	12.32	-50.0	-65.5	3.8	1.49e+00	0	41	104	0	70	22964
2026-01-02 00:29:55.04	219.37	12.22	-50.0	-65.5	3.8	1.49e+00	0	41	104	0	70	22937
2026-01-02 00:29:55.90	219.33	12.14	-50.0	-65.5	3.8	1.49e+00	0	41	104	0	70	22800
2026-01-02 00:29:57.05	219.28	12.03	-50.0	-65.4	3.8	1.49e+00	0	40	104	0	70	22776
2026-01-02 00:29:57.91	219.24	11.95	-50.0	-65.5	3.8	1.49e+00	0	40	104	0	70	22888
2026-01-02 00:29:59.06	219.19	11.84	-50.0	-65.4	3.8	1.49e+00	0	41	104	0	70	22759
2026-01-02 00:29:59.92	219.15	11.77	-50.0	-65.5	3.8	1.49e+00	0	41	104	0	70	22839
2026-01-02 00:30:01.08	219.10	11.66	-50.0	-65.5	3.8	1.49e+00	0	41	104	0	70	22835
2026-01-02 00:30:01.94	219.06	11.58	-50.0	-65.5	3.8	1.49e+00	0	41	104	0	70	22882
2026-01-02 00:30:03.09	219.01	11.48	-50.0	-65.5	3.8	1.49e+00	0	41	104	0	70	22896
2026-01-02 00:30:03.95	218.98	11.40	-50.0	-65.5	3.8	1.49e+00	0	40	104	0	70	22868
2026-01-02 00:30:05.10	218.93	11.30	-50.0	-65.5	3.8	1.49e+00	0	41	104	0	70	22844
2026-01-02 00:30:05.96	218.89	11.22	-50.0	-65.5	3.8	1.49e+00	0	41	104	0	70	22895
2026-01-02 00:30:07.11	218.84	11.12	-50.0	-65.5	3.8	1.49e+00	0	41	104	0	70	22920
2026-01-02 00:30:07.97	218.81	11.04	-50.0	-65.5	3.8	1.49e+00	0	41	104	0	70	22912
2026-01-02 00:30:09.12	218.76	10.94	-50.0	-65.5	3.8	1.49e+00	0	40	104	0	70	22844
2026-01-02 00:30:09.98	218.72	10.86	-50.0	-65.5	3.8	1.49e+00	0	40	104	0	70	22880
2026-01-02 00:30:11.12	218.68	10.76	-50.0	-65.5	3.8	1.49e+00	0	41	104	0	70	22867
2026-01-02 00:30:11.99	218.64	10.69	-50.0	-65.5	3.8	1.49e+00	0	40	104	0	70	22881
2026-01-02 00:30:13.13	218.59	10.59	-50.0	-65.5	3.8	1.49e+00	0	41	104	0	70	22798
2026-01-02 00:30:13.99	218.56	10.51	-50.0	-65.5	3.8	1.49e+00	0	41	104	0	70	22850
2026-01-02 00:30:15.14	218.51	10.41	-50.0	-65.5	3.8	1.49e+00	0	41	104	0	70	22961
2026-01-02 00:30:16.00	218.48	10.34	-50.0	-65.5	3.8	1.49e+00	0	41	104	0	70	22911
2026-01-02 00:30:17.15	218.43	10.24	-50.0	-65.5	3.8	1.49e+00	0	40	104	0	70	22878
2026-01-02 00:30:18.01	218.40	10.16	-50.0	-65.5	3.8	1.49e+00	0	40	104	0	70	22804
2026-01-02 00:30:19.16	218.36	10.06	-50.0	-65.5	3.8	1.49e+00	0	40	104	0	70	22907
2026-01-02 00:30:20.02	218.32	9.99	-50.0	-65.5	3.8	1.49e+00	0	41	104	0	70	22867
2026-01-02 00:30:21.17	218.28	9.89	-50.0	-65.5	3.8	1.49e+00	0	41	104	0	70	22833
2026-01-02 00:30:22.03	218.24	9.82	-50.0	-65.5	3.8	1.49e+00	0	41	104	0	70	22892
2026-01-02 00:30:23.18	218.20	9.72	-50.0	-65.5	3.8	1.49e+00	0	41	104	0	70	22931
2026-01-02 00:30:24.04	218.17	9.65	-50.0	-65.5	3.8	1.49e+00	0	40	104	0	70	22844
2026-01-02 00:30:25.18	218.13	9.55	-50.0	-65.5	3.8	1.49e+00	0	41	104	0	70	22933
2026-01-02 00:30:26.04	218.09	9.48	-50.0	-65.5	3.8	1.49e+00	0	40	104	0	70	22885
2026-01-02 00:30:27.19	218.05	9.39	-50.0	-65.5	3.8	1.49e+00	0	41	104	0	70	22908
2026-01-02 00:30:28.05	218.02	9.31	-50.0	-65.5	3.8	1.49e+00	0	41	104	0	70	22815
2026-01-02 00:30:29.20	217.98	9.22	-50.0	-65.5	3.8	1.49e+00	0	40	104	0	70	22813
2026-01-02 00:30:30.06	217.95	9.15	-50.0	-65.5	3.8	1.49e+00	0	41	104	0	70	22902
2026-01-02 00:30:31.21	217.90	9.05	-50.0	-65.5	3.8	1.49e+00	0	41	104	0	70	22842
2026-01-02 00:30:32.07	217.87	8.98	-50.0	-65.5	3.8	1.49e+00	0	41	104	0	70	22827
2026-01-02 00:30:33.22	217.83	8.89	-50.0	-65.5	3.8	1.49e+00	0	41	104	0	70	22857
2026-01-02 00:30:34.08	217.80	8.82	-50.0	-65.5	3.8	1.49e+00	0	40	104	0	70	22852
2026-01-02 00:30:35.22	217.76	8.73	-50.0	-65.5	3.8	1.49e+00	0	40	104	0	70	22879
2026-01-02 00:30:36.09	217.73	8.66	-50.0	-65.5	3.8	1.49e+00	0	40	104	0	70	22942
2026-01-02 00:30:37.23	217.69	8.56	-50.0	-65.5	3.8	1.49e+00	0	41	104	0	70	22811
2026-01-02 00:30:38.09	217.66	8.49	-50.0	-65.5	3.8	1.49e+00	0	40	104	0	70	22878
2026-01-02 00:30:39.24	217.62	8.40	-50.0	-65.5	3.8	1.49e+00	0	41	104	0	70	22855
2026-01-02 00:30:40.23	217.59	8.32	-50.0	-65.5	3.8	1.49e+00	0	41	104	0	70	22941
2026-01-02 00:30:41.44	217.54	8.23	-50.0	-65.5	3.8	1.49e+00	0	41	104	0	70	22852
2026-01-02 00:30:42.33	217.51	8.15	-50.0	-65.5	3.8	1.49e+00	0	41	104	0	70	22918
2026-01-02 00:30:43.53	217.47	8.06	-50.0	-65.5	3.8	1.49e+00	0	41	104	0	70	22861
2026-01-02 00:30:44.39	217.44	7.99	-50.0	-65.5	3.8	1.49e+00	0	41	104	0	70	22830
2026-01-02 00:30:45.75	217.40	7.88	-50.0	-65.5	3.8	1.49e+00	0	41	104	0	70	22896
2026-01-02 00:30:46.46	217.38	7.83	-50.0	-65.5	3.8	1.49e+00	0	41	104	0	70	22893
2026-01-02 00:30:47.75	217.33	7.73	-50.0	-65.5	3.8	1.49e+00	0	41	104	0	70	22900
2026-01-02 00:30:48.47	217.31	7.67	-50.0	-65.5	3.8	1.49e+00	0	40	104	0	70	22855
2026-01-02 00:30:49.76	217.27	7.57	-50.0	-65.5	3.8	1.49e+00	0	41	104	0	70	22893
2026-01-02 00:30:50.48	217.24	7.51	-50.0	-65.5	3.8	1.49e+00	0	41	104	0	70	22867
2026-01-02 00:30:51.77	217.20	7.41	-50.0	-65.5	3.8	1.49e+00	0	40	104	0	70	22866
2026-01-02 00:30:52.49	217.18	7.36	-50.0	-65.5	3.8	1.49e+00	0	41	104	0	70	22867
2026-01-02 00:30:53.78	217.14	7.26	-50.0	-65.5	3.8	1.49e+00	0	41	104	0	70	22905
2026-01-02 00:30:54.49	217.12	7.20	-50.0	-65.5	3.8	1.49e+00	0	41	104	0	70	22857
2026-01-02 00:30:55.79	217.08	7.11	-50.0	-65.5	3.8	1.49e+00	0	41	104	0	70	22812
2026-01-02 00:30:56.50	217.05	7.05	-50.0	-65.5	3.8	1.49e+00	0	40	104	0	70	22892
2026-01-02 00:30:57.79	217.01	6.95	-50.0	-65.5	3.8	1.49e+00	0	41	104	0	70	22885
2026-01-02 00:30:58.51	216.99	6.90	-50.0	-65.5	3.8	1.49e+00	0	41	104	0	70	22879
2026-01-02 00:30:59.80	216.95	6.80	-50.0	-65.5	3.8	1.49e+00	0	41	104	0	70	22918
2026-01-02 00:31:00.52	216.93	6.75	-50.0	-65.5	3.8	1.49e+00	0	41	104	0	70	22932
2026-01-02 00:31:01.81	216.89	6.65	-50.1	-65.5	3.8	1.49e+00	0	41	104	0	70	22934
2026-01-02 00:31:02.53	216.87	6.60	-50.0	-65.5	3.8	1.49e+00	0	41	104	0	70	22942
2026-01-02 00:31:03.82	216.83	6.50	-50.0	-65.5	3.8	1.49e+00	0	41	104	0	70	22859
2026-01-02 00:31:04.54	216.81	6.45	-50.0	-65.5	3.8	1.49e+00	0	41	104	0	70	22810
2026-01-02 00:31:05.82	216.77	6.35	-50.0	-65.5	3.8	1.49e+00	0	41	104	0	70	22851
2026-01-02 00:31:06.54	216.75	6.30	-50.0	-65.5	3.8	1.49e+00	0	41	104	0	70	22802
2026-01-02 00:31:07.83	216.71	6.20	-50.0	-65.5	3.8	1.49e+00	0	41	104	0	70	22888
2026-01-02 00:31:08.55	216.69	6.15	-50.0	-65.5	3.8	1.49e+00	0	41	104	0	70	22959
