passes_logs/2026/01/02/T1/T1__20260102_070929_KHAYYAM_rec.log

#Pass ID: 20260102_070929_KHAYYAM
#Satellite: KHAYYAM
#Configuration: KHAYYAM_480M
#almurnet v.1.7.20251203
#Start time: 2026-01-02 07:09:29

#Version: 2.0.20230620
#Station: T1
#Location: 37.570604 lon 55.790049 lat
#TLE: 1 53370U 22096A   25365.91236145  .00003272  00000+0  13536-3 0  9993
#TLE: 2 53370  97.3565 268.1736 0001189  73.2664 286.8704 15.24655091189095

#Time	Az	El	Level	Level2	SNR	BER	BlckErr	Temp	State	Recorded	gain1	gain2
2026-01-02 07:09:29.02	136.53	4.96	-52.3	-56.8	3.6	0.00e+00	0	41	0	0	76	23899
2026-01-02 07:09:30.02	136.46	5.04	-52.3	-56.8	3.7	0.00e+00	0	42	104	0	75	25160
2026-01-02 07:09:31.02	136.39	5.12	-52.3	-56.8	3.7	0.00e+00	0	42	104	0	75	25097
2026-01-02 07:09:32.03	136.32	5.20	-52.3	-56.8	3.7	0.00e+00	0	42	104	0	75	25179
2026-01-02 07:09:33.03	136.25	5.28	-52.3	-56.7	3.7	0.00e+00	0	42	104	0	75	25075
2026-01-02 07:09:34.03	136.18	5.35	-52.3	-56.8	3.7	0.00e+00	0	42	104	0	75	25142
2026-01-02 07:09:35.03	136.11	5.43	-52.3	-56.8	3.7	0.00e+00	0	42	104	0	75	25105
2026-01-02 07:09:36.03	136.04	5.51	-52.3	-56.8	3.7	0.00e+00	0	42	104	0	75	25212
2026-01-02 07:09:37.03	135.96	5.59	-52.3	-56.8	3.7	0.00e+00	0	42	104	0	75	25176
2026-01-02 07:09:38.04	135.89	5.67	-52.3	-56.8	3.7	0.00e+00	0	43	104	0	75	25150
2026-01-02 07:09:39.04	135.82	5.75	-52.3	-56.8	3.7	0.00e+00	0	43	104	0	75	25238
2026-01-02 07:09:40.04	135.74	5.83	-52.3	-56.8	3.7	0.00e+00	0	43	104	0	75	25104
2026-01-02 07:09:41.04	135.67	5.91	-52.3	-56.8	3.7	0.00e+00	0	43	104	0	75	25155
2026-01-02 07:09:42.04	135.59	5.99	-52.3	-56.7	3.7	0.00e+00	0	43	104	0	75	25062
2026-01-02 07:09:43.04	135.52	6.08	-52.3	-56.8	3.7	0.00e+00	0	43	104	0	75	25158
2026-01-02 07:09:44.05	135.44	6.16	-52.3	-56.7	3.7	0.00e+00	0	43	104	0	75	25066
2026-01-02 07:09:45.05	135.37	6.24	-52.3	-56.7	3.7	0.00e+00	0	43	104	0	75	25078
2026-01-02 07:09:46.05	135.29	6.32	-52.3	-56.8	3.7	0.00e+00	0	43	104	0	75	25126
2026-01-02 07:09:47.05	135.21	6.40	-52.3	-56.8	3.7	0.00e+00	0	43	104	0	75	25143
2026-01-02 07:09:48.05	135.13	6.49	-52.3	-56.7	3.7	0.00e+00	0	43	104	0	75	25077
2026-01-02 07:09:49.06	135.06	6.57	-52.3	-56.8	3.7	0.00e+00	0	43	104	0	75	25101
2026-01-02 07:09:50.06	134.98	6.65	-52.3	-56.8	3.7	0.00e+00	0	43	104	0	75	25113
2026-01-02 07:09:51.06	134.90	6.74	-52.3	-56.7	3.7	0.00e+00	0	44	104	0	75	25091
2026-01-02 07:09:52.07	134.82	6.82	-52.3	-56.7	3.7	0.00e+00	0	44	104	0	75	25071
2026-01-02 07:09:53.07	134.73	6.91	-52.3	-56.7	3.7	0.00e+00	0	44	104	0	75	25072
2026-01-02 07:09:54.07	134.65	6.99	-52.3	-56.8	3.7	0.00e+00	0	44	104	0	75	25100
2026-01-02 07:09:55.07	134.57	7.08	-52.3	-56.8	3.7	0.00e+00	0	44	104	0	75	25127
2026-01-02 07:09:56.08	134.49	7.16	-52.3	-56.7	3.7	0.00e+00	0	44	104	0	75	25013
2026-01-02 07:09:57.08	134.40	7.25	-52.3	-56.7	3.7	0.00e+00	0	44	104	0	75	25068
2026-01-02 07:09:58.08	134.32	7.33	-52.3	-56.8	3.7	0.00e+00	0	44	104	0	75	25172
2026-01-02 07:09:59.09	134.23	7.42	-52.3	-56.8	3.7	0.00e+00	0	44	104	0	75	25105
2026-01-02 07:10:00.09	134.15	7.51	-52.3	-56.8	3.7	0.00e+00	0	44	104	0	75	25146
2026-01-02 07:10:01.09	134.06	7.60	-52.3	-56.7	3.7	0.00e+00	0	44	104	0	75	25083
2026-01-02 07:10:02.09	133.98	7.68	-52.3	-56.8	3.7	0.00e+00	0	44	104	0	75	25127
2026-01-02 07:10:03.09	133.89	7.77	-52.3	-56.7	3.7	0.00e+00	0	44	104	0	75	25074
2026-01-02 07:10:04.10	133.80	7.86	-52.3	-56.7	3.7	0.00e+00	0	44	104	0	75	25049
2026-01-02 07:10:05.10	133.71	7.95	-52.3	-56.7	3.7	0.00e+00	0	44	104	0	75	24982
2026-01-02 07:10:06.10	133.62	8.04	-52.2	-56.7	3.7	0.00e+00	0	44	104	0	75	24903
2026-01-02 07:10:07.11	133.53	8.13	-52.2	-56.7	3.7	0.00e+00	0	44	104	0	75	24828
2026-01-02 07:10:08.11	133.44	8.22	-52.2	-56.6	3.7	0.00e+00	0	44	104	0	75	24725
2026-01-02 07:10:09.11	133.35	8.31	-52.2	-56.6	3.7	0.00e+00	0	44	104	0	75	24752
2026-01-02 07:10:10.12	133.25	8.40	-52.2	-56.6	3.7	0.00e+00	0	44	104	0	75	24687
2026-01-02 07:10:11.12	133.16	8.49	-52.2	-56.6	3.7	0.00e+00	0	45	104	0	75	24772
2026-01-02 07:10:12.12	133.07	8.58	-52.2	-56.6	3.7	0.00e+00	0	45	104	0	75	24757
2026-01-02 07:10:13.12	132.97	8.67	-52.3	-56.7	3.7	0.00e+00	0	45	104	0	75	24886
2026-01-02 07:10:14.13	132.88	8.76	-52.3	-56.7	3.7	0.00e+00	0	45	104	0	75	24931
2026-01-02 07:10:15.13	132.78	8.86	-52.3	-56.8	3.7	0.00e+00	0	45	104	0	75	25176
2026-01-02 07:10:16.13	132.68	8.95	-52.3	-56.7	3.7	0.00e+00	0	45	104	0	75	25051
2026-01-02 07:10:17.14	132.58	9.04	-52.3	-56.8	3.7	0.00e+00	0	45	104	0	75	25135
2026-01-02 07:10:18.14	132.48	9.14	-52.4	-56.9	3.7	0.00e+00	0	45	104	0	75	25542
2026-01-02 07:10:19.14	132.39	9.23	-52.4	-57.0	3.7	0.00e+00	0	45	104	0	75	25869
2026-01-02 07:10:20.14	132.28	9.32	-52.3	-56.8	3.7	0.00e+00	0	45	104	0	75	25186
2026-01-02 07:10:21.14	132.18	9.42	-52.5	-57.0	3.7	0.00e+00	0	45	104	0	75	25835
2026-01-02 07:10:22.15	132.08	9.52	-52.4	-56.9	3.7	0.00e+00	0	45	104	0	75	25539
2026-01-02 07:10:23.15	131.98	9.61	-52.5	-56.9	3.7	0.00e+00	0	45	104	0	75	25585
2026-01-02 07:10:24.15	131.87	9.71	-52.5	-57.1	3.7	0.00e+00	0	45	104	0	75	26089
2026-01-02 07:10:25.16	131.77	9.80	-52.6	-57.1	3.7	0.00e+00	0	45	104	0	75	26248
2026-01-02 07:10:26.16	131.66	9.90	-52.5	-56.8	3.7	0.00e+00	0	45	104	0	75	25124
2026-01-02 07:10:27.16	131.56	10.00	-52.2	-56.7	3.7	0.00e+00	0	45	104	0	75	24974
2026-01-02 07:10:28.16	131.45	10.10	-52.5	-57.0	3.7	0.00e+00	0	45	104	0	75	25835
2026-01-02 07:10:29.16	131.34	10.19	-52.2	-56.9	3.7	0.00e+00	0	45	104	0	75	25430
2026-01-02 07:10:30.16	131.23	10.29	-52.2	-56.5	3.7	0.00e+00	0	45	104	0	75	24518
2026-01-02 07:10:31.16	131.12	10.39	-51.9	-56.5	3.7	0.00e+00	0	45	104	0	75	24444
2026-01-02 07:10:32.17	131.01	10.49	-52.2	-56.8	3.7	0.00e+00	0	45	104	0	75	25158
2026-01-02 07:10:33.16	130.90	10.59	-52.2	-56.8	3.7	0.00e+00	0	45	104	0	75	25155
2026-01-02 07:10:34.17	130.79	10.69	-51.8	-56.4	3.7	0.00e+00	0	45	104	0	75	24073
2026-01-02 07:10:35.17	130.67	10.79	-51.9	-56.4	3.7	0.00e+00	0	45	104	0	75	24107
2026-01-02 07:10:36.17	130.56	10.90	-51.9	-56.6	3.7	0.00e+00	0	45	104	0	75	24537
2026-01-02 07:10:37.17	130.44	11.00	-52.2	-56.6	3.7	0.00e+00	0	46	104	0	75	24764
2026-01-02 07:10:38.17	130.33	11.10	-52.1	-56.6	3.7	0.00e+00	0	45	104	0	75	24719
2026-01-02 07:10:39.17	130.21	11.20	-52.0	-56.5	3.7	0.00e+00	0	46	104	0	75	24272
2026-01-02 07:10:40.17	130.09	11.31	-51.9	-56.4	3.7	0.00e+00	0	46	104	0	75	24103
2026-01-02 07:10:41.18	129.97	11.41	-52.3	-56.8	3.7	0.00e+00	0	46	104	0	75	25203
2026-01-02 07:10:42.18	129.85	11.51	-52.3	-56.8	3.7	0.00e+00	0	46	104	0	75	25246
2026-01-02 07:10:43.18	129.72	11.62	-52.5	-56.9	3.7	0.00e+00	0	46	104	0	75	25406
2026-01-02 07:10:44.19	129.60	11.73	-52.1	-56.6	3.7	0.00e+00	0	46	104	0	75	24625
2026-01-02 07:10:45.19	129.48	11.83	-52.5	-56.8	3.7	0.00e+00	0	46	104	0	75	25351
2026-01-02 07:10:46.19	129.35	11.94	-52.6	-56.9	3.7	0.00e+00	0	46	104	0	75	25485
2026-01-02 07:10:47.19	129.22	12.04	-52.7	-56.9	3.7	0.00e+00	0	46	104	0	75	25607
2026-01-02 07:10:48.19	129.10	12.15	-52.6	-56.9	3.7	0.00e+00	0	46	104	0	75	25630
2026-01-02 07:10:49.20	128.97	12.26	-52.6	-56.9	3.7	0.00e+00	0	46	104	0	75	25460
2026-01-02 07:10:50.20	128.84	12.37	-52.6	-56.9	3.7	0.00e+00	0	46	104	0	76	24190
2026-01-02 07:10:51.20	128.71	12.48	-52.6	-57.0	3.7	0.00e+00	0	46	104	0	76	24435
2026-01-02 07:10:52.20	128.57	12.59	-52.7	-57.0	3.7	0.00e+00	0	46	104	0	76	24418
2026-01-02 07:10:53.21	128.44	12.70	-52.7	-57.1	3.7	0.00e+00	0	46	104	0	76	24553
2026-01-02 07:10:54.21	128.30	12.81	-52.5	-57.0	3.7	0.00e+00	0	46	104	0	76	24378
2026-01-02 07:10:55.21	128.17	12.92	-52.4	-56.9	3.7	0.00e+00	0	46	104	0	76	24067
2026-01-02 07:10:56.21	128.03	13.03	-52.5	-57.1	3.7	0.00e+00	0	46	104	0	76	24524
2026-01-02 07:10:57.21	127.89	13.14	-52.6	-57.1	3.7	0.00e+00	0	46	104	0	76	24552
2026-01-02 07:10:58.21	127.75	13.25	-52.1	-56.6	3.7	0.00e+00	0	46	104	0	76	23311
2026-01-02 07:10:59.21	127.61	13.37	-52.4	-56.8	3.7	0.00e+00	0	46	104	0	76	23923
2026-01-02 07:11:00.21	127.47	13.48	-52.2	-56.8	3.7	0.00e+00	0	46	104	0	76	23921
2026-01-02 07:11:01.21	127.32	13.59	-52.4	-56.9	3.7	0.00e+00	0	46	104	0	76	23991
2026-01-02 07:11:02.21	127.18	13.71	-52.6	-57.0	3.7	0.00e+00	0	46	104	0	76	24294
2026-01-02 07:11:03.21	127.03	13.82	-52.8	-57.0	3.7	0.00e+00	0	46	104	0	76	24520
2026-01-02 07:11:04.21	126.88	13.94	-52.5	-56.9	3.7	0.00e+00	0	46	104	0	76	24190
2026-01-02 07:11:05.22	126.73	14.06	-52.9	-57.2	3.7	0.00e+00	0	46	104	0	76	24956
2026-01-02 07:11:06.22	126.58	14.17	-52.8	-57.0	3.7	0.00e+00	0	46	104	0	76	24480
2026-01-02 07:11:07.22	126.43	14.29	-53.0	-57.2	3.7	0.00e+00	0	46	104	0	76	25074
2026-01-02 07:11:08.22	126.27	14.41	-52.9	-57.1	3.7	0.00e+00	0	46	104	0	76	24767
2026-01-02 07:11:09.23	126.12	14.53	-53.1	-57.3	3.7	0.00e+00	0	46	104	0	76	25239
2026-01-02 07:11:10.23	125.96	14.65	-53.0	-57.5	3.7	0.00e+00	0	46	104	0	76	25722
2026-01-02 07:11:11.23	125.80	14.77	-53.1	-57.5	3.7	0.00e+00	0	46	104	0	76	25737
2026-01-02 07:11:12.23	125.64	14.89	-53.0	-57.3	3.7	0.00e+00	0	46	104	0	76	25178
2026-01-02 07:11:13.23	125.48	15.01	-53.1	-57.5	3.7	0.00e+00	0	46	104	0	76	25756
2026-01-02 07:11:14.23	125.32	15.13	-53.0	-57.4	3.7	0.00e+00	0	46	104	0	76	25626
2026-01-02 07:11:15.24	125.15	15.26	-52.9	-57.3	3.7	0.00e+00	0	46	104	0	76	25157
2026-01-02 07:11:16.24	124.98	15.38	-53.1	-57.5	3.7	0.00e+00	0	46	104	0	76	25740
2026-01-02 07:11:17.24	124.82	15.50	-53.0	-57.4	3.7	0.00e+00	0	46	104	0	76	25659
2026-01-02 07:11:18.24	124.65	15.63	-52.9	-57.3	3.7	0.00e+00	0	46	104	0	76	25255
2026-01-02 07:11:19.24	124.48	15.75	-52.9	-57.2	3.7	0.00e+00	0	46	104	0	76	25070
2026-01-02 07:11:20.25	124.30	15.88	-53.0	-57.4	3.7	0.00e+00	0	46	104	0	76	25583
2026-01-02 07:11:21.25	124.13	16.00	-52.9	-57.2	3.7	0.00e+00	0	46	104	0	76	25085
2026-01-02 07:11:22.25	123.95	16.13	-52.9	-57.2	3.7	0.00e+00	0	47	104	0	76	25030
2026-01-02 07:11:23.25	123.77	16.26	-52.8	-57.0	3.7	0.00e+00	0	46	104	0	76	24445
2026-01-02 07:11:24.25	123.59	16.38	-52.9	-57.2	3.7	0.00e+00	0	46	104	0	76	24960
2026-01-02 07:11:25.26	123.41	16.51	-52.9	-57.1	3.7	0.00e+00	0	46	104	0	76	24782
2026-01-02 07:11:26.26	123.22	16.64	-52.9	-57.1	3.7	0.00e+00	0	46	104	0	76	24804
2026-01-02 07:11:27.26	123.04	16.77	-52.9	-57.2	3.7	0.00e+00	0	46	104	0	76	24809
2026-01-02 07:11:28.26	122.85	16.90	-52.9	-57.2	3.7	0.00e+00	0	46	104	0	76	25038
2026-01-02 07:11:29.27	122.66	17.03	-52.9	-57.3	3.7	0.00e+00	0	46	104	0	76	25141
2026-01-02 07:11:30.26	122.47	17.16	-52.7	-57.2	3.7	0.00e+00	0	46	104	0	76	24898
2026-01-02 07:11:31.28	122.27	17.30	-52.8	-57.1	3.7	0.00e+00	0	46	104	0	76	24718
2026-01-02 07:11:32.28	122.07	17.43	-52.9	-57.4	3.7	0.00e+00	0	47	104	0	76	25497
2026-01-02 07:11:33.29	121.87	17.57	-52.9	-57.3	3.7	0.00e+00	0	46	104	0	76	25299
2026-01-02 07:11:34.29	121.67	17.70	-53.0	-57.4	3.7	0.00e+00	0	46	104	0	76	25565
2026-01-02 07:11:35.29	121.47	17.83	-52.9	-57.3	3.7	0.00e+00	0	47	104	0	76	25222
2026-01-02 07:11:36.29	121.27	17.97	-52.9	-57.4	3.7	0.00e+00	0	46	104	0	76	25486
2026-01-02 07:11:37.30	121.06	18.11	-52.9	-57.3	3.7	0.00e+00	0	47	104	0	76	25326
2026-01-02 07:11:38.30	120.85	18.24	-53.0	-57.5	3.7	0.00e+00	0	47	104	0	76	25872
2026-01-02 07:11:39.30	120.64	18.38	-53.0	-57.3	3.7	0.00e+00	0	46	104	0	76	25264
2026-01-02 07:11:40.30	120.43	18.52	-53.1	-57.5	3.7	0.00e+00	0	46	104	0	76	25870
2026-01-02 07:11:41.31	120.21	18.66	-53.1	-57.4	3.7	0.00e+00	0	47	104	0	76	25559
2026-01-02 07:11:42.31	119.99	18.80	-53.0	-57.5	3.7	0.00e+00	0	46	104	0	76	25745
2026-01-02 07:11:43.31	119.77	18.94	-52.9	-57.3	3.7	0.00e+00	0	46	104	0	76	25304
2026-01-02 07:11:44.31	119.55	19.08	-53.0	-57.5	3.7	0.00e+00	0	47	104	0	76	25718
2026-01-02 07:11:45.32	119.32	19.22	-53.0	-57.4	3.7	0.00e+00	0	47	104	0	76	25605
2026-01-02 07:11:46.32	119.09	19.36	-53.2	-57.5	3.7	0.00e+00	0	47	104	0	76	25810
2026-01-02 07:11:47.39	118.85	19.51	-53.1	-57.4	3.7	0.00e+00	0	47	104	0	76	25565
2026-01-02 07:11:48.29	118.64	19.64	-53.1	-57.5	3.7	0.00e+00	0	47	104	0	76	25723
2026-01-02 07:11:49.46	118.36	19.81	-53.1	-57.5	3.7	0.00e+00	0	47	104	0	76	25971
2026-01-02 07:11:50.40	118.14	19.94	-53.1	-57.5	3.7	0.00e+00	0	47	104	0	76	25864
2026-01-02 07:11:51.57	117.86	20.11	-53.1	-57.5	3.7	0.00e+00	0	47	104	0	76	25898
2026-01-02 07:11:52.43	117.65	20.24	-53.1	-57.6	3.7	0.00e+00	0	47	104	0	76	25984
2026-01-02 07:11:53.57	117.37	20.40	-53.0	-57.3	3.7	0.00e+00	0	47	104	0	76	25296
2026-01-02 07:11:54.43	117.16	20.53	-53.0	-57.4	3.7	0.00e+00	0	47	104	0	76	25631
2026-01-02 07:11:55.58	116.87	20.70	-53.1	-57.4	3.7	0.00e+00	0	47	104	0	76	25488
2026-01-02 07:11:56.60	116.61	20.85	-53.0	-57.3	3.7	0.00e+00	0	47	104	0	76	25321
2026-01-02 07:11:57.78	116.31	21.02	-53.2	-57.7	3.7	0.00e+00	0	47	104	0	76	26478
2026-01-02 07:11:58.64	116.08	21.15	-53.0	-57.5	3.7	0.00e+00	0	47	104	0	76	25865
2026-01-02 07:11:59.97	115.73	21.35	-53.1	-57.6	3.7	0.00e+00	0	47	104	0	76	26200
2026-01-02 07:12:00.69	115.54	21.46	-53.1	-57.7	3.7	0.00e+00	0	47	104	0	76	26322
2026-01-02 07:12:02.23	115.13	21.69	-53.2	-57.7	3.7	0.00e+00	0	47	104	0	77	24821
2026-01-02 07:12:02.94	114.93	21.80	-53.2	-57.5	3.7	0.00e+00	0	47	104	0	77	24312
2026-01-02 07:12:04.23	114.58	21.99	-53.2	-57.8	3.7	0.00e+00	0	47	104	0	77	25115
2026-01-02 07:12:04.95	114.37	22.10	-53.2	-57.6	3.7	0.00e+00	0	47	104	0	77	24562
2026-01-02 07:12:06.24	114.01	22.30	-53.2	-57.7	3.7	0.00e+00	0	47	104	0	77	24931
2026-01-02 07:12:06.96	113.80	22.41	-52.7	-57.1	3.7	0.00e+00	0	47	104	0	77	23381
2026-01-02 07:12:08.25	113.43	22.60	-53.1	-57.6	3.7	0.00e+00	0	47	104	0	77	24678
2026-01-02 07:12:08.98	113.22	22.72	-52.7	-57.3	3.7	0.00e+00	0	47	104	0	77	23849
2026-01-02 07:12:10.27	112.84	22.92	-52.7	-57.3	3.7	0.00e+00	0	47	104	0	77	23808
2026-01-02 07:12:10.99	112.62	23.03	-52.9	-57.3	3.7	0.00e+00	0	47	104	0	77	23730
2026-01-02 07:12:12.27	112.24	23.22	-52.9	-57.4	3.7	0.00e+00	0	47	104	0	77	24158
2026-01-02 07:12:12.98	112.02	23.34	-53.1	-57.6	3.7	0.00e+00	0	47	104	0	77	24784
2026-01-02 07:12:14.27	111.62	23.54	-53.0	-57.6	3.7	0.00e+00	0	47	104	0	77	24770
2026-01-02 07:12:14.99	111.40	23.65	-52.9	-57.6	3.7	0.00e+00	0	47	104	0	77	24584
2026-01-02 07:12:16.28	110.99	23.85	-53.0	-57.6	3.7	0.00e+00	0	47	104	0	77	24780
2026-01-02 07:12:17.00	110.76	23.96	-52.8	-57.5	3.7	0.00e+00	0	47	104	0	77	24386
2026-01-02 07:12:18.29	110.34	24.17	-52.9	-57.3	3.7	0.00e+00	0	47	104	0	77	23953
2026-01-02 07:12:19.01	110.11	24.28	-52.6	-57.2	3.7	0.00e+00	0	47	104	0	77	23505
2026-01-02 07:12:20.30	109.68	24.48	-52.6	-57.2	3.7	0.00e+00	0	47	104	0	77	23609
2026-01-02 07:12:21.01	109.44	24.59	-52.6	-57.2	3.7	0.00e+00	0	47	104	0	77	23612
2026-01-02 07:12:22.30	109.01	24.80	-52.8	-57.5	3.7	0.00e+00	0	47	104	0	77	24395
2026-01-02 07:12:23.02	108.76	24.91	-53.3	-57.8	3.7	0.00e+00	0	47	104	0	77	25209
2026-01-02 07:12:24.30	108.32	25.11	-53.0	-57.6	3.7	0.00e+00	0	47	104	0	77	24687
2026-01-02 07:12:25.02	108.07	25.23	-53.3	-57.8	3.7	0.00e+00	0	47	104	0	77	25306
2026-01-02 07:12:26.30	107.61	25.43	-53.2	-57.6	3.7	0.00e+00	0	47	104	0	77	24797
2026-01-02 07:12:27.02	107.36	25.54	-53.1	-57.5	3.7	0.00e+00	0	47	104	0	77	24423
2026-01-02 07:12:28.31	106.89	25.75	-53.2	-57.6	3.7	0.00e+00	0	47	104	0	77	24684
2026-01-02 07:12:29.03	106.63	25.86	-52.8	-57.2	3.7	0.00e+00	0	47	104	0	77	23652
2026-01-02 07:12:30.32	106.15	26.07	-53.1	-57.6	3.7	0.00e+00	0	47	104	0	77	24777
2026-01-02 07:12:31.03	105.88	26.18	-53.2	-57.8	3.7	0.00e+00	0	47	104	0	77	25186
2026-01-02 07:12:32.32	105.40	26.38	-53.1	-57.6	3.7	0.00e+00	0	47	104	0	77	24784
2026-01-02 07:12:33.03	105.13	26.49	-53.2	-57.8	3.7	0.00e+00	0	47	104	0	77	25232
2026-01-02 07:12:34.32	104.63	26.70	-53.1	-57.7	3.7	0.00e+00	0	47	104	0	77	24925
2026-01-02 07:12:35.04	104.35	26.81	-53.3	-57.8	3.7	0.00e+00	0	47	104	0	77	25309
2026-01-02 07:12:36.33	103.84	27.01	-53.2	-57.8	3.7	0.00e+00	0	47	104	0	77	25200
2026-01-02 07:12:37.04	103.55	27.13	-53.2	-57.7	3.7	0.00e+00	0	47	104	0	77	24861
2026-01-02 07:12:38.34	103.03	27.33	-52.9	-57.5	3.7	0.00e+00	0	47	104	0	77	24407
2026-01-02 07:12:39.07	102.73	27.44	-53.1	-57.7	3.7	0.00e+00	0	47	104	0	77	25022
2026-01-02 07:12:40.67	102.07	27.69	-53.2	-57.8	3.7	0.00e+00	0	47	104	0	77	25357
2026-01-02 07:12:41.25	101.83	27.78	-53.3	-57.9	3.7	0.00e+00	0	47	104	0	77	25553
2026-01-02 07:12:43.02	101.08	28.06	-53.2	-57.7	3.7	0.00e+00	0	47	104	0	77	24858
2026-01-02 07:12:43.59	100.83	28.15	-53.2	-57.7	3.7	0.00e+00	0	47	104	0	77	24923
2026-01-02 07:12:45.16	100.15	28.39	-53.2	-57.8	3.7	0.00e+00	0	47	104	0	77	25171
2026-01-02 07:12:45.77	99.88	28.48	-52.9	-57.2	3.7	0.00e+00	0	47	104	0	77	23675
2026-01-02 07:12:47.34	99.19	28.72	-52.5	-56.9	3.7	0.00e+00	0	47	104	0	77	22770
2026-01-02 07:12:47.93	98.92	28.81	-52.5	-56.9	3.7	0.00e+00	0	47	104	0	77	22723
2026-01-02 07:12:49.51	98.21	29.04	-52.9	-57.3	3.7	0.00e+00	0	47	104	0	77	23752
2026-01-02 07:12:50.13	97.92	29.14	-53.0	-57.4	3.7	0.00e+00	0	47	104	0	77	24030
2026-01-02 07:12:51.86	97.12	29.39	-52.8	-57.3	3.7	0.00e+00	0	47	104	0	77	23926
2026-01-02 07:12:52.44	96.85	29.48	-52.8	-57.4	3.7	0.00e+00	0	47	104	0	77	23966
2026-01-02 07:12:54.02	96.10	29.71	-53.0	-57.6	3.7	0.00e+00	0	47	104	0	77	24562
2026-01-02 07:12:54.60	95.82	29.79	-52.9	-57.5	3.7	0.00e+00	0	47	104	0	77	24379
2026-01-02 07:12:56.18	95.05	30.02	-53.1	-57.7	3.7	0.00e+00	0	47	104	0	77	24960
2026-01-02 07:12:57.08	94.61	30.14	-53.2	-57.7	3.7	0.00e+00	0	47	104	0	77	24934
2026-01-02 07:12:58.51	93.90	30.34	-53.1	-57.8	3.7	0.00e+00	0	47	104	0	77	25109
2026-01-02 07:12:59.23	93.54	30.44	-53.1	-57.8	3.7	0.00e+00	0	47	104	0	77	25221
2026-01-02 07:13:00.52	92.89	30.62	-52.7	-57.6	3.7	0.00e+00	0	47	104	0	77	24525
2026-01-02 07:13:01.24	92.53	30.71	-52.5	-57.5	3.7	0.00e+00	0	47	104	0	77	24250
2026-01-02 07:13:02.53	91.86	30.89	-52.8	-57.6	3.7	0.00e+00	0	47	104	0	77	24656
2026-01-02 07:13:03.25	91.49	30.98	-52.7	-57.6	3.7	0.00e+00	0	47	104	0	77	24536
2026-01-02 07:13:04.54	90.81	31.15	-52.8	-57.6	3.7	0.00e+00	0	47	104	0	77	24575
2026-01-02 07:13:05.26	90.43	31.24	-52.9	-57.5	3.7	0.00e+00	0	47	104	0	77	24481
2026-01-02 07:13:06.54	89.75	31.40	-52.9	-57.5	3.7	0.00e+00	0	47	104	0	77	24511
2026-01-02 07:13:07.26	89.36	31.49	-52.9	-57.5	3.7	0.00e+00	0	47	104	0	77	24379
2026-01-02 07:13:08.54	88.67	31.65	-52.9	-57.7	3.7	0.00e+00	0	47	104	0	77	24943
2026-01-02 07:13:09.26	88.28	31.73	-52.9	-57.6	3.7	0.00e+00	0	47	104	0	77	24767
2026-01-02 07:13:10.77	87.45	31.91	-52.7	-57.5	3.7	0.00e+00	0	47	104	0	76	25766
2026-01-02 07:13:11.49	87.05	31.99	-52.4	-57.3	3.7	0.00e+00	0	47	104	0	76	25311
2026-01-02 07:13:12.77	86.33	32.13	-52.2	-57.1	3.7	0.00e+00	0	47	104	0	76	24740
2026-01-02 07:13:13.49	85.92	32.21	-52.4	-57.1	3.6	0.00e+00	0	47	104	0	76	24727
2026-01-02 07:13:14.78	85.19	32.35	-52.4	-57.1	3.7	0.00e+00	0	47	104	0	76	24711
2026-01-02 07:13:15.50	84.78	32.43	-52.3	-57.1	3.7	0.00e+00	0	47	104	0	76	24750
2026-01-02 07:13:16.79	84.04	32.56	-52.5	-57.5	3.7	0.00e+00	0	47	104	0	76	25758
2026-01-02 07:13:17.50	83.62	32.63	-52.4	-57.4	3.7	0.00e+00	0	47	104	0	76	25416
2026-01-02 07:13:18.79	82.87	32.75	-52.5	-57.4	3.7	0.00e+00	0	47	104	0	76	25651
2026-01-02 07:13:19.51	82.45	32.82	-52.4	-57.4	3.7	0.00e+00	0	47	104	0	76	25414
2026-01-02 07:13:20.80	81.69	32.94	-52.4	-57.3	3.7	0.00e+00	0	47	104	0	76	25160
2026-01-02 07:13:21.66	81.18	33.02	-52.6	-57.4	3.7	0.00e+00	0	47	104	0	76	25562
2026-01-02 07:13:23.11	80.31	33.14	-52.6	-57.3	3.7	0.00e+00	0	47	104	0	76	25291
2026-01-02 07:13:23.83	79.88	33.20	-52.7	-57.6	3.7	0.00e+00	0	47	104	0	76	26056
2026-01-02 07:13:25.12	79.09	33.30	-52.9	-57.5	3.7	0.00e+00	0	47	104	0	76	25887
2026-01-02 07:13:25.83	78.66	33.35	-53.1	-57.8	3.7	0.00e+00	0	47	104	0	76	26674
2026-01-02 07:13:27.12	77.88	33.44	-53.1	-57.8	3.7	0.00e+00	0	47	104	0	76	26771
2026-01-02 07:13:27.88	77.41	33.49	-53.1	-57.9	3.7	0.00e+00	0	47	104	0	76	26947
2026-01-02 07:13:29.17	76.61	33.58	-53.0	-57.3	3.7	0.00e+00	0	47	104	0	76	25363
2026-01-02 07:13:29.88	76.17	33.62	-53.0	-57.4	3.7	0.00e+00	0	47	104	0	76	25619
2026-01-02 07:13:31.17	75.37	33.69	-52.9	-57.3	3.7	0.00e+00	0	47	104	0	76	25207
2026-01-02 07:13:31.89	74.92	33.73	-53.3	-57.7	3.7	0.00e+00	0	47	104	0	77	25072
2026-01-02 07:13:33.18	74.12	33.80	-53.1	-57.5	3.7	0.00e+00	0	47	104	0	77	24301
2026-01-02 07:13:33.89	73.67	33.83	-53.1	-57.7	3.7	0.00e+00	0	47	104	0	77	24865
2026-01-02 07:13:35.18	72.86	33.89	-53.1	-57.6	3.7	0.00e+00	0	47	104	0	77	24677
2026-01-02 07:13:35.90	72.40	33.92	-53.2	-57.8	3.7	0.00e+00	0	47	104	0	77	25320
2026-01-02 07:13:37.19	71.59	33.96	-53.4	-58.0	3.7	0.00e+00	0	47	104	0	77	25698
2026-01-02 07:13:37.90	71.14	33.99	-53.5	-58.0	3.7	0.00e+00	0	47	104	0	77	25761
2026-01-02 07:13:39.19	70.32	34.02	-53.4	-57.9	3.7	0.00e+00	0	47	104	0	77	25650
2026-01-02 07:13:39.91	69.86	34.04	-53.4	-57.9	3.7	0.00e+00	0	47	104	0	77	25647
2026-01-02 07:13:41.20	69.04	34.07	-53.4	-58.0	3.7	0.00e+00	0	47	104	0	77	25729
2026-01-02 07:13:41.98	68.54	34.08	-53.5	-57.9	3.7	0.00e+00	0	47	104	0	77	25537
2026-01-02 07:13:43.27	67.71	34.10	-53.5	-57.8	3.7	0.00e+00	0	47	104	0	77	25171
2026-01-02 07:13:44.06	67.21	34.11	-53.4	-57.8	3.7	0.00e+00	0	47	104	0	77	25226
2026-01-02 07:13:45.53	66.27	34.11	-53.5	-58.0	3.7	0.00e+00	0	47	104	0	77	25765
2026-01-02 07:13:46.24	65.81	34.11	-53.4	-57.8	3.7	0.00e+00	0	47	104	0	77	25376
2026-01-02 07:13:47.74	64.85	34.11	-53.4	-57.8	3.7	0.00e+00	0	47	104	0	77	25208
2026-01-02 07:13:48.46	64.39	34.10	-53.4	-57.9	3.7	0.00e+00	0	47	104	0	77	25562
2026-01-02 07:13:49.84	63.51	34.09	-53.2	-57.8	3.7	0.00e+00	0	47	104	0	77	25204
2026-01-02 07:13:50.56	63.05	34.08	-53.3	-57.8	3.7	0.00e+00	0	47	104	0	77	25306
2026-01-02 07:13:51.84	62.23	34.05	-53.4	-57.9	3.7	0.00e+00	0	47	104	0	77	25508
2026-01-02 07:13:52.56	61.78	34.04	-53.4	-57.8	3.7	0.00e+00	0	47	104	0	77	25248
2026-01-02 07:13:53.85	60.96	34.00	-53.4	-58.0	3.7	0.00e+00	0	47	104	0	77	25717
2026-01-02 07:13:54.56	60.50	33.98	-53.2	-57.6	3.7	0.00e+00	0	47	104	0	77	24767
2026-01-02 07:13:55.85	59.69	33.94	-53.1	-57.4	3.7	0.00e+00	0	47	104	0	77	24131
2026-01-02 07:13:56.57	59.23	33.91	-52.9	-57.2	3.7	0.00e+00	0	47	104	0	77	23663
2026-01-02 07:13:57.86	58.42	33.86	-52.9	-57.4	3.7	0.00e+00	0	47	104	0	77	24231
2026-01-02 07:13:58.57	57.97	33.82	-53.2	-57.8	3.7	0.00e+00	0	47	104	0	77	25348
2026-01-02 07:13:59.86	57.17	33.76	-53.3	-58.0	3.7	0.00e+00	0	47	104	0	77	25679
2026-01-02 07:14:00.58	56.72	33.72	-53.3	-57.9	3.7	0.00e+00	0	47	104	0	77	25609
2026-01-02 07:14:01.87	55.92	33.65	-52.9	-57.3	3.7	0.00e+00	0	47	104	0	77	23837
2026-01-02 07:14:02.59	55.47	33.61	-52.7	-56.7	3.7	0.00e+00	0	47	104	0	77	22254
2026-01-02 07:14:03.87	54.68	33.53	-52.7	-56.6	3.7	0.00e+00	0	47	104	0	77	22098
2026-01-02 07:14:04.59	54.24	33.48	-52.7	-56.6	3.7	0.00e+00	0	47	104	0	77	21924
2026-01-02 07:14:05.88	53.45	33.39	-52.6	-56.7	3.7	0.00e+00	0	47	104	0	77	22218
2026-01-02 07:14:06.60	53.01	33.34	-52.8	-57.0	3.7	0.00e+00	0	47	104	0	77	23125
2026-01-02 07:14:08.09	52.11	33.22	-53.3	-57.9	3.7	0.00e+00	0	47	104	0	77	25457
2026-01-02 07:14:09.06	51.53	33.15	-53.2	-57.8	3.7	0.00e+00	0	47	104	0	77	25212
2026-01-02 07:14:10.39	50.73	33.04	-52.8	-57.4	3.7	0.00e+00	0	47	104	0	77	24123
2026-01-02 07:14:11.13	50.29	32.97	-52.8	-57.3	3.7	0.00e+00	0	47	104	0	77	23710
2026-01-02 07:14:12.42	49.53	32.86	-53.3	-57.6	3.7	0.00e+00	0	47	104	0	77	24778
2026-01-02 07:14:13.14	49.11	32.79	-53.2	-57.6	3.7	0.00e+00	0	47	104	0	77	24563
2026-01-02 07:14:14.43	48.36	32.67	-53.2	-57.7	3.7	0.00e+00	0	47	104	0	77	24860
2026-01-02 07:14:15.14	47.94	32.60	-53.0	-57.5	3.7	0.00e+00	0	47	104	0	77	24441
2026-01-02 07:14:16.43	47.20	32.47	-53.1	-57.7	3.7	0.00e+00	0	47	104	0	77	24830
2026-01-02 07:14:17.14	46.80	32.39	-53.1	-57.6	3.7	0.00e+00	0	47	104	0	77	24685
2026-01-02 07:14:18.45	46.05	32.25	-52.9	-57.0	3.7	0.00e+00	0	47	104	0	77	22970
2026-01-02 07:14:19.16	45.65	32.18	-52.9	-57.1	3.7	0.00e+00	0	47	104	0	77	23277
2026-01-02 07:14:20.45	44.93	32.03	-52.7	-56.8	3.7	0.00e+00	0	47	104	0	77	22614
2026-01-02 07:14:21.17	44.53	31.95	-53.0	-57.3	3.7	0.00e+00	0	47	104	0	77	23894
2026-01-02 07:14:22.46	43.82	31.80	-53.1	-57.4	3.7	0.00e+00	0	47	104	0	77	24068
2026-01-02 07:14:23.17	43.43	31.72	-53.2	-57.5	3.7	0.00e+00	0	47	104	0	77	24457
2026-01-02 07:14:24.46	42.73	31.56	-53.1	-57.3	3.7	0.00e+00	0	47	104	0	77	23700
2026-01-02 07:14:25.18	42.34	31.48	-53.0	-57.1	3.7	0.00e+00	0	47	104	0	77	23240
2026-01-02 07:14:26.47	41.66	31.32	-53.1	-57.3	3.7	0.00e+00	0	47	104	0	77	23833
2026-01-02 07:14:27.18	41.28	31.23	-53.1	-57.2	3.7	0.00e+00	0	47	104	0	77	23566
2026-01-02 07:14:28.47	40.60	31.06	-52.6	-56.4	3.7	0.00e+00	0	47	104	0	77	21474
2026-01-02 07:14:29.19	40.23	30.97	-52.8	-56.8	3.7	0.00e+00	0	47	104	0	77	22396
2026-01-02 07:14:30.48	39.57	30.80	-52.8	-56.7	3.7	0.00e+00	0	47	104	0	77	22337
2026-01-02 07:14:31.20	39.20	30.70	-52.8	-56.8	3.7	0.00e+00	0	47	104	0	77	22438
2026-01-02 07:14:32.49	38.55	30.53	-53.1	-57.3	3.7	0.00e+00	0	47	104	0	77	23787
2026-01-02 07:14:33.20	38.19	30.43	-53.1	-57.3	3.7	0.00e+00	0	47	104	0	77	23863
2026-01-02 07:14:34.49	37.55	30.25	-52.6	-56.4	3.7	0.00e+00	0	47	104	0	77	21475
2026-01-02 07:14:35.21	37.19	30.15	-52.4	-56.2	3.7	0.00e+00	0	47	104	0	76	22319
2026-01-02 07:14:36.50	36.57	29.97	-52.3	-56.0	3.7	0.00e+00	0	47	104	0	76	21728
2026-01-02 07:14:37.21	36.22	29.87	-51.3	-54.4	3.7	0.00e+00	0	47	104	0	74	20215
2026-01-02 07:14:38.50	35.61	29.69	-52.2	-55.8	3.7	0.00e+00	0	47	104	0	75	22558
2026-01-02 07:14:39.22	35.27	29.58	-52.0	-55.4	3.7	0.00e+00	0	47	104	0	75	21592
2026-01-02 07:14:40.51	34.66	29.39	-51.5	-54.8	3.7	0.00e+00	0	47	104	0	75	20029
2026-01-02 07:14:41.24	34.32	29.29	-51.2	-54.3	3.7	0.00e+00	0	47	104	0	74	19964
2026-01-02 07:14:42.53	33.73	29.10	-51.6	-54.9	3.7	0.00e+00	0	47	104	0	74	21375
2026-01-02 07:14:43.24	33.41	28.99	-51.9	-55.2	3.7	0.00e+00	0	47	104	0	74	22356
2026-01-02 07:14:44.54	32.82	28.80	-51.6	-54.6	3.7	0.00e+00	0	47	104	0	74	20856
2026-01-02 07:14:45.25	32.51	28.69	-52.3	-56.5	3.7	0.00e+00	0	47	104	0	75	24265
2026-01-02 07:14:46.54	31.94	28.50	-51.7	-55.8	3.7	0.00e+00	0	47	104	0	74	23875
2026-01-02 07:14:47.26	31.62	28.39	-52.0	-56.2	3.7	0.00e+00	0	47	104	0	75	23610
2026-01-02 07:14:48.55	31.07	28.19	-52.2	-56.6	3.7	0.00e+00	0	47	104	0	75	24530
2026-01-02 07:14:49.27	30.76	28.08	-52.3	-57.0	3.7	0.00e+00	0	47	104	0	75	25740
2026-01-02 07:14:50.65	30.18	27.87	-52.4	-57.1	3.7	0.00e+00	0	47	104	0	75	25998
2026-01-02 07:14:51.36	29.88	27.76	-52.0	-56.4	3.7	0.00e+00	0	47	104	0	75	24227
2026-01-02 07:14:52.73	29.31	27.55	-51.7	-55.7	3.7	0.00e+00	0	47	104	0	75	22134
2026-01-02 07:14:53.45	29.02	27.43	-51.8	-55.8	3.7	0.00e+00	0	47	104	0	75	22404
2026-01-02 07:14:54.74	28.50	27.23	-51.9	-56.2	3.7	0.00e+00	0	47	104	0	75	23494
2026-01-02 07:14:55.45	28.22	27.12	-51.9	-56.7	3.7	0.00e+00	0	47	104	0	75	25032
2026-01-02 07:14:56.74	27.71	26.92	-52.0	-56.9	3.6	0.00e+00	0	47	104	0	75	25528
2026-01-02 07:14:57.45	27.43	26.81	-52.1	-57.0	3.7	0.00e+00	0	47	104	0	75	25874
2026-01-02 07:14:58.74	26.93	26.61	-52.4	-57.0	3.7	0.00e+00	0	47	104	0	75	25717
2026-01-02 07:14:59.46	26.65	26.49	-52.4	-56.9	3.7	0.00e+00	0	47	104	0	75	25493
2026-01-02 07:15:00.74	26.17	26.29	-52.6	-57.0	3.7	0.00e+00	0	47	104	0	75	25798
2026-01-02 07:15:01.46	25.90	26.18	-52.7	-57.1	3.7	0.00e+00	0	47	104	0	75	26172
2026-01-02 07:15:02.75	25.42	25.98	-52.9	-57.6	3.7	0.00e+00	0	47	104	0	76	26027
2026-01-02 07:15:03.56	25.13	25.85	-53.1	-57.7	3.7	0.00e+00	0	47	104	0	76	26543
2026-01-02 07:15:04.70	24.71	25.67	-52.7	-56.7	3.7	0.00e+00	0	47	104	0	76	23501
2026-01-02 07:15:05.82	24.31	25.49	-51.2	-54.5	3.7	0.00e+00	0	47	104	0	74	20423
2026-01-02 07:15:06.85	23.95	25.33	-51.3	-54.5	3.7	0.00e+00	0	47	104	0	74	20582
2026-01-02 07:15:08.01	23.55	25.15	-50.6	-53.8	3.7	0.00e+00	0	47	104	0	73	19947
2026-01-02 07:15:08.87	23.25	25.01	-50.4	-53.8	3.7	0.00e+00	0	47	104	0	72	21250
2026-01-02 07:15:10.01	22.86	24.84	-50.4	-54.1	3.7	0.00e+00	0	47	104	0	72	21898
2026-01-02 07:15:10.87	22.57	24.70	-50.4	-54.1	3.7	0.00e+00	0	47	104	0	72	21889
2026-01-02 07:15:12.02	22.19	24.52	-50.5	-53.8	3.7	0.00e+00	0	47	104	0	72	21301
2026-01-02 07:15:12.88	21.91	24.39	-50.5	-53.9	3.7	0.00e+00	0	47	104	0	72	21505
2026-01-02 07:15:14.03	21.53	24.21	-50.2	-53.3	3.7	0.00e+00	0	47	104	0	72	20102
2026-01-02 07:15:14.89	21.25	24.07	-50.3	-53.6	3.7	0.00e+00	0	47	104	0	72	20857
2026-01-02 07:15:16.03	20.89	23.89	-50.2	-53.3	3.7	0.00e+00	0	47	104	0	72	19964
2026-01-02 07:15:16.89	20.62	23.76	-50.2	-53.8	3.7	0.00e+00	0	47	104	0	72	21300
2026-01-02 07:15:18.04	20.26	23.58	-50.4	-54.0	3.7	0.00e+00	0	47	104	0	72	21636
2026-01-02 07:15:18.89	20.00	23.45	-50.8	-54.2	3.7	0.00e+00	0	47	104	0	72	22270
2026-01-02 07:15:20.07	19.64	23.27	-51.6	-55.0	3.7	0.00e+00	0	47	104	0	73	23114
2026-01-02 07:15:20.93	19.38	23.14	-52.2	-56.1	3.7	0.00e+00	0	47	104	0	75	23234
2026-01-02 07:15:22.11	19.03	22.95	-52.8	-57.3	3.7	0.00e+00	0	47	104	0	76	25353
2026-01-02 07:15:22.97	18.78	22.82	-52.5	-56.7	3.7	0.00e+00	0	47	104	0	76	23564
2026-01-02 07:15:24.12	18.44	22.65	-52.3	-56.6	3.7	0.00e+00	0	47	104	0	76	23418
2026-01-02 07:15:24.98	18.20	22.52	-52.5	-56.7	3.7	0.00e+00	0	47	104	0	76	23493
2026-01-02 07:15:26.12	17.87	22.34	-52.1	-56.6	3.7	0.00e+00	0	47	104	0	76	23377
2026-01-02 07:15:26.99	17.63	22.21	-51.8	-56.4	3.7	0.00e+00	0	47	104	0	75	24074
2026-01-02 07:15:28.13	17.31	22.04	-51.6	-56.2	3.7	0.00e+00	0	47	104	0	75	23534
2026-01-02 07:15:29.02	17.07	21.91	-51.8	-56.6	3.7	0.00e+00	0	47	104	0	75	24689
2026-01-02 07:15:30.16	16.76	21.73	-52.3	-57.2	3.7	0.00e+00	0	47	104	0	75	26391
2026-01-02 07:15:31.12	16.50	21.59	-52.4	-57.2	3.7	0.00e+00	0	47	104	0	75	26436
2026-01-02 07:15:32.30	16.18	21.42	-52.0	-56.5	3.7	0.00e+00	0	47	104	0	75	24414
2026-01-02 07:15:33.16	15.96	21.29	-52.3	-57.0	3.7	0.00e+00	0	47	104	0	75	25767
2026-01-02 07:15:34.51	15.61	21.09	-52.3	-56.8	3.7	0.00e+00	0	47	104	0	75	25206
2026-01-02 07:15:35.22	15.43	20.98	-52.3	-57.1	3.7	0.00e+00	0	47	104	0	75	26096
2026-01-02 07:15:36.51	15.10	20.79	-52.3	-57.1	3.7	0.00e+00	0	47	104	0	75	26004
2026-01-02 07:15:37.23	14.92	20.69	-52.4	-57.0	3.7	0.00e+00	0	47	104	0	75	25701
2026-01-02 07:15:38.52	14.60	20.50	-52.3	-56.6	3.7	0.00e+00	0	47	104	0	75	24749
2026-01-02 07:15:39.24	14.42	20.40	-52.3	-56.6	3.7	0.00e+00	0	47	104	0	75	24570
2026-01-02 07:15:40.86	14.03	20.16	-52.7	-56.8	3.7	0.00e+00	0	47	104	0	76	23788
2026-01-02 07:15:41.43	13.89	20.08	-52.8	-57.0	3.7	0.00e+00	0	47	104	0	76	24407
2026-01-02 07:15:43.07	13.51	19.85	-52.5	-56.6	3.7	0.00e+00	0	47	104	0	76	23323
2026-01-02 07:15:43.77	13.34	19.75	-52.6	-57.0	3.7	0.00e+00	0	47	104	0	76	24448
2026-01-02 07:15:45.06	13.04	19.56	-52.1	-56.8	3.7	0.00e+00	0	47	104	0	76	23881
2026-01-02 07:15:45.77	12.88	19.46	-51.3	-56.3	3.7	0.00e+00	0	47	104	0	74	25308
2026-01-02 07:15:47.09	12.58	19.28	-50.6	-55.9	3.7	0.00e+00	0	47	104	0	73	25453
2026-01-02 07:15:48.06	12.37	19.14	-50.9	-56.0	3.7	0.00e+00	0	47	104	0	73	25890
2026-01-02 07:15:49.38	12.08	18.96	-50.7	-55.8	3.7	0.00e+00	0	47	104	0	73	25292
2026-01-02 07:15:50.09	11.92	18.86	-50.7	-56.0	3.7	0.00e+00	0	47	104	0	73	25682
2026-01-02 07:15:51.39	11.64	18.68	-50.9	-55.7	3.7	0.00e+00	0	47	104	0	72	26514
2026-01-02 07:15:52.10	11.49	18.58	-51.1	-56.0	3.7	0.00e+00	0	47	104	0	72	27298
2026-01-02 07:15:53.39	11.22	18.41	-50.5	-55.1	3.7	0.00e+00	0	47	104	0	72	24529
2026-01-02 07:15:54.10	11.07	18.31	-51.0	-55.6	3.7	0.00e+00	0	47	104	0	72	26213
2026-01-02 07:15:55.39	10.80	18.14	-49.5	-54.1	3.7	0.00e+00	0	47	104	0	70	24744
2026-01-02 07:15:56.11	10.65	18.04	-50.3	-55.8	3.7	0.00e+00	0	47	104	0	71	28291
2026-01-02 07:15:57.40	10.39	17.87	-49.9	-54.4	3.7	0.00e+00	0	47	104	0	71	24188
2026-01-02 07:15:58.11	10.25	17.77	-50.0	-54.4	3.7	0.00e+00	0	47	104	0	71	24041
2026-01-02 07:15:59.40	10.00	17.60	-50.5	-54.9	3.7	0.00e+00	0	47	104	0	71	25411
2026-01-02 07:16:00.12	9.85	17.50	-50.6	-54.9	3.7	0.00e+00	0	47	104	0	71	25567
2026-01-02 07:16:01.41	9.60	17.33	-50.6	-55.3	3.7	0.00e+00	0	47	104	0	71	26636
2026-01-02 07:16:02.13	9.47	17.24	-50.2	-55.7	3.7	0.00e+00	0	47	104	0	72	26524
2026-01-02 07:16:03.42	9.22	17.07	-51.0	-56.1	3.7	0.00e+00	0	47	104	0	73	25980
2026-01-02 07:16:04.16	9.08	16.98	-49.6	-55.1	3.7	0.00e+00	0	47	104	0	71	26001
2026-01-02 07:16:05.77	8.78	16.77	-50.1	-55.7	3.7	0.00e+00	0	47	104	0	71	28085
2026-01-02 07:16:06.35	8.68	16.69	-50.4	-56.0	3.7	0.00e+00	0	47	104	0	71	28942
2026-01-02 07:16:07.94	8.39	16.49	-51.1	-56.3	3.7	0.00e+00	0	47	104	0	72	28412
2026-01-02 07:16:08.51	8.28	16.42	-51.3	-56.4	3.7	0.00e+00	0	47	104	0	73	26952
2026-01-02 07:16:10.09	8.00	16.22	-51.1	-56.3	3.7	0.00e+00	0	47	104	0	73	26610
2026-01-02 07:16:10.80	7.88	16.13	-50.9	-56.0	3.7	0.00e+00	0	47	104	0	73	25945
2026-01-02 07:16:12.09	7.65	15.97	-51.1	-56.2	3.7	0.00e+00	0	47	104	0	73	26571
2026-01-02 07:16:12.81	7.53	15.88	-51.2	-56.1	3.7	0.00e+00	0	47	104	0	73	26109
2026-01-02 07:16:14.09	7.31	15.72	-50.7	-56.1	3.7	0.00e+00	0	47	104	0	73	26099
2026-01-02 07:16:14.81	7.19	15.63	-51.2	-56.2	3.7	0.00e+00	0	47	104	0	73	26471
2026-01-02 07:16:16.10	6.97	15.47	-50.7	-55.9	3.7	0.00e+00	0	47	104	0	73	25623
2026-01-02 07:16:16.82	6.86	15.38	-51.3	-56.5	3.7	0.00e+00	0	47	104	0	73	27415
2026-01-02 07:16:18.11	6.64	15.23	-51.6	-56.4	3.7	0.00e+00	0	47	104	0	74	25664
2026-01-02 07:16:18.83	6.53	15.14	-50.9	-56.2	3.7	0.00e+00	0	47	104	0	73	26469
2026-01-02 07:16:20.29	6.29	14.96	-51.8	-56.8	3.7	0.00e+00	0	47	104	0	74	26765
2026-01-02 07:16:21.00	6.18	14.88	-51.3	-56.6	3.7	0.00e+00	0	47	104	0	74	26074
2026-01-02 07:16:22.29	5.98	14.73	-50.0	-55.4	3.7	0.00e+00	0	47	104	0	71	26902
2026-01-02 07:16:23.01	5.87	14.64	-50.1	-55.4	3.7	0.00e+00	0	47	104	0	71	26992
2026-01-02 07:16:24.30	5.67	14.49	-50.5	-55.7	3.7	0.00e+00	0	47	104	0	71	27966
2026-01-02 07:16:25.01	5.56	14.40	-50.5	-55.6	3.7	0.00e+00	0	47	104	0	71	27826
2026-01-02 07:16:26.30	5.36	14.25	-50.2	-55.5	3.7	0.00e+00	0	47	104	0	71	27234
2026-01-02 07:16:27.02	5.26	14.17	-49.9	-55.4	3.7	0.00e+00	0	47	104	0	71	26900
2026-01-02 07:16:28.30	5.07	14.02	-49.7	-55.0	3.7	0.00e+00	0	47	104	0	71	25763
2026-01-02 07:16:29.02	4.96	13.94	-49.7	-55.1	3.7	0.00e+00	0	47	104	0	71	25993
2026-01-02 07:16:30.31	4.77	13.79	-49.2	-54.7	3.7	0.00e+00	0	47	104	0	70	26376
2026-01-02 07:16:31.26	4.64	13.68	-49.6	-54.9	3.7	0.00e+00	0	47	104	0	70	27190
2026-01-02 07:16:32.26	4.49	13.57	-49.3	-54.9	3.7	0.00e+00	0	47	104	0	70	27064
2026-01-02 07:16:33.26	4.35	13.46	-49.2	-55.1	3.7	0.00e+00	0	48	104	0	70	27650
2026-01-02 07:16:34.27	4.21	13.34	-49.7	-55.4	3.7	0.00e+00	0	47	104	0	70	28778
2026-01-02 07:16:35.27	4.07	13.23	-49.2	-54.7	3.7	0.00e+00	0	47	104	0	70	26469
2026-01-02 07:16:36.27	3.93	13.12	-49.3	-54.9	3.7	0.00e+00	0	47	104	0	70	27144
2026-01-02 07:16:37.27	3.80	13.01	-49.4	-55.1	3.7	0.00e+00	0	47	104	0	70	27569
2026-01-02 07:16:38.27	3.66	12.90	-49.6	-55.2	3.7	0.00e+00	0	47	104	0	70	28104
2026-01-02 07:16:39.28	3.53	12.79	-49.8	-55.4	3.7	0.00e+00	0	47	104	0	70	28685
2026-01-02 07:16:40.28	3.40	12.68	-50.0	-55.6	3.7	0.00e+00	0	47	104	0	70	29244
2026-01-02 07:16:41.28	3.26	12.57	-50.4	-55.9	3.7	0.00e+00	0	47	104	0	71	28675
2026-01-02 07:16:42.29	3.13	12.46	-51.8	-56.9	3.7	0.00e+00	0	47	104	0	74	27115
2026-01-02 07:16:43.28	3.01	12.35	-50.8	-56.0	3.7	0.00e+00	0	47	104	0	73	25832
2026-01-02 07:16:44.29	2.88	12.25	-51.9	-57.1	3.7	0.00e+00	0	47	104	0	74	27685
2026-01-02 07:16:45.29	2.75	12.14	-51.5	-56.5	3.7	0.00e+00	0	47	104	0	74	25898
2026-01-02 07:16:46.29	2.63	12.03	-51.5	-56.4	3.7	0.00e+00	0	47	104	0	74	25410
2026-01-02 07:16:47.33	2.50	11.92	-51.4	-56.3	3.7	0.00e+00	0	47	104	0	74	25220
2026-01-02 07:16:48.33	2.37	11.82	-51.4	-56.5	3.7	0.00e+00	0	47	104	0	74	25701
2026-01-02 07:16:49.33	2.25	11.71	-49.0	-54.0	3.7	0.00e+00	0	47	104	0	70	24520
2026-01-02 07:16:50.33	2.13	11.61	-49.8	-55.7	3.7	0.00e+00	0	47	104	0	70	29783
2026-01-02 07:16:51.41	2.00	11.50	-51.8	-56.8	3.7	0.00e+00	0	47	104	0	74	26681
2026-01-02 07:16:52.27	1.90	11.41	-51.0	-56.3	3.7	0.00e+00	0	47	104	0	74	25229
2026-01-02 07:16:53.41	1.76	11.29	-49.9	-55.8	3.7	0.00e+00	0	47	104	0	71	28332
2026-01-02 07:16:54.27	1.66	11.21	-50.5	-56.2	3.7	0.00e+00	0	47	104	0	71	29805
2026-01-02 07:16:55.42	1.53	11.09	-51.0	-56.5	3.7	0.00e+00	0	47	104	0	72	29102
2026-01-02 07:16:56.28	1.43	11.00	-51.2	-56.6	3.7	0.00e+00	0	47	104	0	73	27760
2026-01-02 07:16:57.43	1.30	10.89	-51.3	-56.6	3.7	0.00e+00	0	47	104	0	73	27580
2026-01-02 07:16:58.28	1.21	10.80	-51.2	-56.5	3.7	0.00e+00	0	47	104	0	73	27395
2026-01-02 07:16:59.43	1.08	10.69	-47.6	-53.7	3.7	0.00e+00	0	47	104	0	67	27998
2026-01-02 07:17:00.29	0.98	10.60	-49.1	-55.1	3.7	0.00e+00	0	47	104	0	68	31046
2026-01-02 07:17:01.43	0.86	10.49	-47.5	-53.9	3.8	0.00e+00	0	47	104	0	66	30187
2026-01-02 07:17:02.29	0.77	10.40	-49.0	-55.1	3.7	0.00e+00	0	47	104	0	68	31037
2026-01-02 07:17:03.44	0.64	10.29	-48.5	-54.8	3.7	0.00e+00	0	47	104	0	68	30057
2026-01-02 07:17:04.30	0.55	10.21	-49.0	-55.2	3.7	0.00e+00	0	47	104	0	68	31395
2026-01-02 07:17:05.45	0.43	10.09	-49.5	-55.6	3.7	0.00e+00	0	47	104	0	69	31198
2026-01-02 07:17:06.30	0.34	10.01	-49.9	-55.9	3.7	0.00e+00	0	47	104	0	70	30199
2026-01-02 07:17:07.63	0.20	9.88	-50.2	-56.0	3.7	0.00e+00	0	47	104	0	71	28882
2026-01-02 07:17:08.34	0.13	9.82	-50.5	-56.1	3.7	0.00e+00	0	47	104	0	71	29378
2026-01-02 07:17:09.63	359.99	9.69	-51.0	-56.1	3.7	0.00e+00	0	47	104	0	72	27610
2026-01-02 07:17:10.35	359.92	9.62	-52.2	-56.9	3.7	0.00e+00	0	47	104	0	74	27140
2026-01-02 07:17:11.64	359.79	9.50	-50.9	-56.2	3.7	0.00e+00	0	47	104	0	73	26282
2026-01-02 07:17:12.40	359.72	9.43	-51.2	-56.4	3.7	0.00e+00	0	47	104	0	73	26961
2026-01-02 07:17:14.01	359.56	9.28	-51.7	-56.7	3.7	0.00e+00	0	47	104	0	74	26402
2026-01-02 07:17:14.59	359.50	9.23	-52.0	-56.9	3.7	0.00e+00	0	47	104	0	74	26899
2026-01-02 07:17:16.41	359.32	9.06	-52.2	-56.9	3.7	0.00e+00	0	47	104	0	74	27146
2026-01-02 07:17:16.98	359.27	9.00	-52.1	-56.8	3.7	0.00e+00	0	47	104	0	74	26872
2026-01-02 07:17:18.57	359.12	8.86	-49.3	-55.2	3.7	0.00e+00	0	47	104	0	70	28073
2026-01-02 07:17:19.15	359.06	8.80	-50.7	-55.9	3.7	0.00e+00	0	47	104	0	72	26942
2026-01-02 07:17:20.72	358.92	8.66	-49.5	-55.3	3.7	0.00e+00	0	47	104	0	70	28327
2026-01-02 07:17:21.30	358.86	8.61	-50.4	-55.8	3.7	0.00e+00	0	47	104	0	72	26743
2026-01-02 07:17:22.88	358.72	8.47	-52.6	-57.4	3.7	0.00e+00	0	47	104	0	75	27078
2026-01-02 07:17:23.46	358.66	8.41	-51.9	-56.8	3.7	0.00e+00	0	47	104	0	75	25305
2026-01-02 07:17:25.04	358.52	8.27	-53.1	-57.7	3.7	0.00e+00	0	47	104	0	77	24970
2026-01-02 07:17:25.63	358.47	8.22	-52.4	-57.2	3.7	0.00e+00	0	47	104	0	76	24897
2026-01-02 07:17:27.21	358.33	8.08	-52.0	-57.1	3.7	0.00e+00	0	47	104	0	75	26219
2026-01-02 07:17:27.78	358.28	8.03	-51.2	-56.5	3.7	0.00e+00	0	47	104	0	74	25707
2026-01-02 07:17:29.36	358.14	7.89	-53.0	-57.4	3.7	0.00e+00	0	47	104	0	77	24236
2026-01-02 07:17:29.95	358.09	7.84	-52.6	-57.0	3.7	0.00e+00	0	47	104	0	77	22918
2026-01-02 07:17:31.52	357.95	7.70	-53.0	-57.7	3.7	0.00e+00	0	47	104	0	77	25074
2026-01-02 07:17:32.10	357.91	7.65	-53.3	-57.8	3.7	0.00e+00	0	47	104	0	77	25376
2026-01-02 07:17:33.68	357.77	7.52	-53.0	-57.4	3.7	0.00e+00	0	47	104	0	77	24127
2026-01-02 07:17:34.27	357.72	7.47	-52.7	-57.6	3.7	0.00e+00	0	47	104	0	77	24701
2026-01-02 07:17:35.84	357.59	7.33	-52.9	-57.7	3.7	0.00e+00	0	47	104	0	76	26475
2026-01-02 07:17:36.43	357.54	7.28	-52.3	-57.4	3.7	0.00e+00	0	47	104	0	76	25411
2026-01-02 07:17:38.01	357.42	7.15	-53.6	-58.1	3.7	0.00e+00	0	47	104	0	77	26068
2026-01-02 07:17:38.61	357.37	7.10	-53.4	-58.0	3.7	0.00e+00	0	47	104	0	77	25705
2026-01-02 07:17:40.19	357.24	6.96	-53.5	-58.0	3.7	0.00e+00	0	47	104	0	77	25966
2026-01-02 07:17:40.78	357.19	6.91	-53.3	-57.9	3.7	0.00e+00	0	47	104	0	77	25612
2026-01-02 07:17:42.35	357.07	6.78	-53.3	-57.9	3.7	0.00e+00	0	47	104	0	77	25581
2026-01-02 07:17:42.93	357.02	6.74	-53.4	-57.8	3.7	0.00e+00	0	47	104	0	77	25120
2026-01-02 07:17:44.52	356.90	6.60	-53.0	-57.3	3.7	0.00e+00	0	47	104	0	77	23805
2026-01-02 07:17:45.09	356.86	6.56	-52.8	-57.0	3.7	0.00e+00	0	47	104	0	77	22976
2026-01-02 07:17:46.71	356.73	6.42	-52.8	-57.3	3.7	0.00e+00	0	47	104	0	76	25115
2026-01-02 07:17:47.29	356.69	6.38	-52.8	-57.3	3.7	0.00e+00	0	47	104	0	76	25182
2026-01-02 07:17:48.87	356.57	6.25	-52.7	-57.3	3.7	0.00e+00	0	47	104	0	76	25164
2026-01-02 07:17:49.45	356.53	6.20	-52.8	-57.3	3.7	0.00e+00	0	47	104	0	76	25236
2026-01-02 07:17:51.09	356.41	6.07	-52.8	-57.3	3.7	0.00e+00	0	47	104	0	76	25208
2026-01-02 07:17:51.67	356.36	6.02	-52.7	-57.3	3.7	0.00e+00	0	47	104	0	76	25175
2026-01-02 07:17:53.25	356.25	5.90	-52.7	-57.3	3.7	0.00e+00	0	47	104	0	76	25117
2026-01-02 07:17:53.83	356.21	5.85	-52.7	-57.3	3.7	0.00e+00	0	47	104	0	76	25213
2026-01-02 07:17:55.41	356.09	5.72	-52.7	-57.3	3.7	0.00e+00	0	47	104	0	76	25122
2026-01-02 07:17:56.00	356.05	5.68	-52.7	-57.3	3.7	0.00e+00	0	47	104	0	76	25133
2026-01-02 07:17:57.57	355.94	5.55	-52.7	-57.3	3.7	0.00e+00	0	47	104	0	76	25132
2026-01-02 07:17:58.16	355.90	5.51	-52.7	-57.3	3.7	0.00e+00	0	47	104	0	76	25108
2026-01-02 07:17:59.74	355.79	5.38	-52.7	-57.2	3.7	0.00e+00	0	47	104	0	76	25052
2026-01-02 07:18:00.32	355.75	5.34	-52.7	-57.2	3.7	0.00e+00	0	47	104	0	76	25044
2026-01-02 07:18:02.04	355.63	5.20	-52.7	-57.2	3.7	0.00e+00	0	47	104	0	76	25012
2026-01-02 07:18:02.61	355.60	5.16	-52.7	-57.2	3.7	0.00e+00	0	47	104	0	76	25019
2026-01-02 07:18:04.19	355.49	5.04	-52.7	-57.2	3.7	0.00e+00	0	47	104	0	76	24950
2026-01-02 07:18:04.76	355.45	5.00	-52.7	-57.2	3.7	0.00e+00	0	47	104	0	76	24975

#Closed at: 2026-01-02 07:18:06
#Recorded file [0 MB]: D:/Data/31040_260102_100929.dat