passes_logs/2026/01/02/T1/T1__20260102_133000_AQUA_rec.log

#Pass ID: 20260102_133000_AQUA
#Satellite: AQUA
#Configuration: AQUA
#almurnet v.1.7.20251203
#Start time: 2026-01-02 13:30:00

#Version: 2.0.20230620
#Station: T1
#Location: 37.570604 lon 55.790049 lat
#TLE: 1 27424U 02022A   25365.92641127  .00002078  00000+0  42628-3 0  9999
#TLE: 2 27424  98.4058 327.1196 0001962  94.7781 340.6230 14.61783896258835

#Time	Az	El	Level	Level2	SNR	BER	BlckErr	Temp	State	Recorded	gain1	gain2
2026-01-02 13:30:00.13	228.73	4.98	-49.4	-70.4	3.8	7.47e-01	0	40	0	0	70	40269
2026-01-02 13:30:01.13	228.85	5.03	-49.5	-70.4	3.8	7.45e-01	0	40	104	0	69	42674
2026-01-02 13:30:02.13	228.98	5.08	-49.4	-70.4	3.8	7.42e-01	0	41	104	0	69	42756
2026-01-02 13:30:03.13	229.11	5.13	-49.3	-70.4	3.8	7.44e-01	0	41	104	0	69	42657
2026-01-02 13:30:04.14	229.23	5.19	-49.4	-70.4	3.8	7.48e-01	0	40	104	0	69	42556
2026-01-02 13:30:05.14	229.36	5.24	-49.4	-70.3	3.8	7.47e-01	0	41	104	0	69	42347
2026-01-02 13:30:06.15	229.49	5.29	-49.4	-70.3	3.8	7.50e-01	0	41	104	0	69	42227
2026-01-02 13:30:07.15	229.62	5.34	-49.4	-70.3	3.8	7.47e-01	0	41	104	0	69	42202
2026-01-02 13:30:08.16	229.75	5.39	-49.4	-70.3	3.8	7.46e-01	0	41	104	0	69	42253
2026-01-02 13:30:09.16	229.88	5.44	-49.4	-70.3	3.8	7.47e-01	0	41	104	0	69	42240
2026-01-02 13:30:10.16	230.01	5.49	-49.4	-70.3	3.8	7.48e-01	0	41	104	0	69	42151
2026-01-02 13:30:11.17	230.14	5.55	-49.3	-70.3	3.8	7.46e-01	0	41	104	0	69	42206
2026-01-02 13:30:12.17	230.28	5.60	-49.4	-70.3	3.8	7.47e-01	0	41	104	0	69	42231
2026-01-02 13:30:13.18	230.41	5.65	-49.4	-70.3	3.8	7.42e-01	0	41	104	0	69	42168
2026-01-02 13:30:14.18	230.54	5.70	-49.4	-70.3	3.8	7.45e-01	0	41	104	0	69	42026
2026-01-02 13:30:15.19	230.68	5.75	-49.3	-70.2	3.8	7.45e-01	0	41	104	0	69	41770
2026-01-02 13:30:16.19	230.81	5.80	-49.4	-70.2	3.8	7.47e-01	0	41	104	0	69	41656
2026-01-02 13:30:17.19	230.94	5.85	-49.5	-70.2	3.8	7.41e-01	0	41	104	0	69	41477
2026-01-02 13:30:18.20	231.08	5.91	-49.4	-70.1	3.8	7.46e-01	0	41	104	0	69	41370
2026-01-02 13:30:19.20	231.21	5.96	-49.4	-70.2	3.8	7.46e-01	0	41	104	0	69	41648
2026-01-02 13:30:20.21	231.35	6.01	-49.5	-70.2	3.8	7.48e-01	0	41	104	0	69	41923
2026-01-02 13:30:21.21	231.49	6.06	-49.4	-70.3	3.8	7.42e-01	0	41	104	0	69	42181
2026-01-02 13:30:22.22	231.62	6.11	-49.3	-70.3	3.8	7.46e-01	0	41	104	0	69	42414
2026-01-02 13:30:23.22	231.76	6.16	-49.4	-70.4	3.8	7.49e-01	0	41	104	0	69	42527
2026-01-02 13:30:24.23	231.90	6.21	-49.4	-70.4	3.8	7.48e-01	0	41	104	0	69	42527
2026-01-02 13:30:25.23	232.04	6.27	-49.4	-70.4	3.8	7.45e-01	0	42	104	0	69	42441
2026-01-02 13:30:26.24	232.18	6.32	-49.4	-70.4	3.8	7.44e-01	0	42	104	0	69	42466
2026-01-02 13:30:27.24	232.32	6.37	-49.4	-70.4	3.8	7.45e-01	0	42	104	0	69	42421
2026-01-02 13:30:28.24	232.46	6.42	-49.4	-70.4	3.8	7.45e-01	0	41	104	0	69	42509
2026-01-02 13:30:29.25	232.60	6.47	-49.4	-70.4	3.8	7.48e-01	0	42	104	0	69	42431
2026-01-02 13:30:30.25	232.74	6.52	-49.3	-70.3	3.8	7.45e-01	0	42	104	0	69	42289
2026-01-02 13:30:31.26	232.88	6.57	-49.2	-70.2	3.8	7.50e-01	0	42	104	0	69	41778
2026-01-02 13:30:32.26	233.02	6.62	-49.3	-70.1	3.8	7.47e-01	0	42	104	0	69	41286
2026-01-02 13:30:33.27	233.16	6.67	-49.3	-70.0	3.8	7.47e-01	0	42	104	0	69	40938
2026-01-02 13:30:34.27	233.31	6.73	-49.3	-70.0	3.8	7.47e-01	0	42	104	0	69	40639
2026-01-02 13:30:35.28	233.45	6.78	-49.4	-69.9	3.8	7.47e-01	0	42	104	0	69	40292
2026-01-02 13:30:36.28	233.60	6.83	-49.3	-69.9	3.8	7.46e-01	0	42	104	0	69	40337
2026-01-02 13:30:37.29	233.74	6.88	-49.3	-69.9	3.8	7.44e-01	0	42	104	0	69	40127
2026-01-02 13:30:38.29	233.89	6.93	-49.3	-69.9	3.8	7.46e-01	0	42	104	0	69	40153
2026-01-02 13:30:39.29	234.03	6.98	-49.3	-70.0	3.8	7.46e-01	0	42	104	0	69	40697
2026-01-02 13:30:40.30	234.18	7.03	-49.3	-70.1	3.8	7.46e-01	0	42	104	0	69	41203
2026-01-02 13:30:41.30	234.32	7.08	-49.3	-70.2	3.8	7.45e-01	0	42	104	0	69	41650
2026-01-02 13:30:42.31	234.47	7.13	-49.3	-70.3	3.8	7.46e-01	0	42	104	0	69	41968
2026-01-02 13:30:43.31	234.62	7.18	-49.4	-70.2	3.8	7.42e-01	0	42	104	0	69	41773
2026-01-02 13:30:44.31	234.77	7.23	-49.3	-70.2	3.8	7.48e-01	0	42	104	0	69	41649
2026-01-02 13:30:45.32	234.92	7.28	-49.3	-70.2	3.8	7.46e-01	0	42	104	0	69	41697
2026-01-02 13:30:46.32	235.07	7.34	-49.3	-70.3	3.8	7.46e-01	0	42	104	0	69	41993
2026-01-02 13:30:47.33	235.22	7.39	-49.4	-70.3	3.8	7.48e-01	0	42	104	0	69	42058
2026-01-02 13:30:48.33	235.37	7.44	-49.3	-70.1	3.8	7.49e-01	0	42	104	0	69	41361
2026-01-02 13:30:49.33	235.52	7.49	-49.4	-69.9	3.8	7.46e-01	0	42	104	0	69	40191
2026-01-02 13:30:50.34	235.67	7.54	-49.3	-69.7	3.8	7.46e-01	0	42	104	0	69	39414
2026-01-02 13:30:51.34	235.82	7.59	-49.3	-69.8	3.8	7.46e-01	0	42	104	0	69	40003
2026-01-02 13:30:52.35	235.98	7.64	-49.3	-70.2	3.8	7.48e-01	0	42	104	0	69	41485
2026-01-02 13:30:53.35	236.13	7.69	-49.3	-70.3	3.8	7.49e-01	0	42	104	0	69	42237
2026-01-02 13:30:54.36	236.28	7.74	-49.3	-70.1	3.8	7.45e-01	0	42	104	0	69	41369
2026-01-02 13:30:55.36	236.44	7.79	-49.3	-69.8	3.8	7.49e-01	0	42	104	0	69	39799
2026-01-02 13:30:56.36	236.59	7.84	-49.4	-69.7	3.8	7.47e-01	0	42	104	0	69	39192
2026-01-02 13:30:57.37	236.75	7.89	-49.2	-69.7	3.8	7.48e-01	0	42	104	0	69	39358
2026-01-02 13:30:58.37	236.91	7.94	-49.3	-69.9	3.8	7.45e-01	0	42	104	0	69	40386
2026-01-02 13:30:59.37	237.06	7.99	-49.3	-70.1	3.8	7.50e-01	0	42	104	0	69	41147
2026-01-02 13:31:00.38	237.22	8.04	-49.3	-69.9	3.8	7.43e-01	0	42	104	0	69	40179
2026-01-02 13:31:01.38	237.38	8.09	-49.3	-69.5	3.8	7.43e-01	0	42	104	0	69	38361
2026-01-02 13:31:02.39	237.54	8.14	-49.4	-69.1	3.8	7.47e-01	0	42	104	0	69	36884
2026-01-02 13:31:03.39	237.70	8.19	-49.4	-69.1	3.8	7.46e-01	0	42	104	0	69	36540
2026-01-02 13:31:04.40	237.86	8.24	-49.2	-68.1	3.8	7.44e-01	0	42	104	0	69	32908
2026-01-02 13:31:05.40	238.02	8.29	-49.3	-64.7	5.0	7.09e-01	0	42	104	0	69	22187
2026-01-02 13:31:06.41	238.18	8.34	-49.0	-61.5	7.5	6.55e-01	0	43	0	1048576	69	15240
2026-01-02 13:31:07.41	238.34	8.38	-48.8	-59.6	9.4	6.31e-01	0	42	0	3145728	69	12257
2026-01-02 13:31:08.42	238.50	8.43	-48.8	-59.4	9.7	6.28e-01	0	42	0	4718592	69	12047
2026-01-02 13:31:09.42	238.66	8.48	-49.1	-61.9	7.2	6.63e-01	0	43	0	6815744	69	16102
2026-01-02 13:31:10.42	238.83	8.53	-49.3	-68.7	3.8	7.48e-01	0	42	104	7340032	69	34978
2026-01-02 13:31:11.43	238.99	8.58	-49.0	-61.0	7.7	6.51e-01	0	42	0	7340032	69	14424
2026-01-02 13:31:12.43	239.15	8.63	-47.7	-54.4	14.6	6.07e-01	0	43	0	9437184	67	7571
2026-01-02 13:31:13.42	239.32	8.68	-46.1	-50.7	18.3	6.06e-01	0	42	0	11010048	64	5906
2026-01-02 13:31:14.43	239.48	8.73	-45.1	-48.9	20.2	6.08e-01	0	43	0	13107200	62	5342
2026-01-02 13:31:15.43	239.65	8.78	-44.4	-47.9	21.2	6.07e-01	0	42	0	14680064	60	5343
2026-01-02 13:31:16.43	239.81	8.82	-44.5	-48.0	21.1	6.07e-01	0	43	0	16777216	60	5454
2026-01-02 13:31:17.43	239.98	8.87	-45.1	-48.9	20.3	6.07e-01	0	42	0	18874368	60	6006
2026-01-02 13:31:18.43	240.15	8.92	-45.9	-50.2	19.0	6.05e-01	0	42	0	20447232	62	6265
2026-01-02 13:31:19.43	240.32	8.97	-46.7	-52.0	17.2	6.07e-01	0	43	0	22544384	64	6823
2026-01-02 13:31:20.44	240.49	9.02	-47.5	-53.9	15.3	6.07e-01	0	42	0	24117248	65	8064
2026-01-02 13:31:21.44	240.65	9.06	-47.8	-55.1	14.0	6.05e-01	0	43	0	26214400	66	8719
2026-01-02 13:31:22.44	240.82	9.11	-47.9	-55.3	13.9	6.09e-01	0	43	0	28311552	67	8369
2026-01-02 13:31:23.44	240.99	9.16	-48.1	-55.6	13.1	6.09e-01	0	43	0	29884416	67	8737
2026-01-02 13:31:24.44	241.16	9.21	-47.6	-53.5	15.3	6.08e-01	0	43	0	31981568	67	6844
2026-01-02 13:31:25.44	241.34	9.25	-47.2	-52.9	16.6	6.07e-01	0	43	0	33554432	65	7199
2026-01-02 13:31:26.44	241.51	9.30	-48.3	-55.9	12.6	6.10e-01	0	42	0	35651584	68	8525
2026-01-02 13:31:27.45	241.68	9.35	-45.1	-49.0	20.1	6.08e-01	0	42	0	37224448	62	5447
2026-01-02 13:31:28.45	241.85	9.40	-44.3	-47.8	21.4	6.05e-01	0	43	0	39321600	60	5301
2026-01-02 13:31:29.45	242.03	9.44	-44.1	-47.5	21.9	6.05e-01	0	43	0	41418752	59	5410
2026-01-02 13:31:30.45	242.20	9.49	-43.9	-47.4	21.9	6.09e-01	0	43	0	42991616	59	5397
2026-01-02 13:31:31.45	242.38	9.54	-43.9	-47.6	21.8	6.07e-01	0	43	0	45088768	59	5517
2026-01-02 13:31:32.45	242.55	9.58	-43.7	-47.6	21.8	6.09e-01	0	43	0	46661632	59	5501
2026-01-02 13:31:33.45	242.73	9.63	-43.4	-47.2	22.0	6.07e-01	0	43	0	48758784	58	5558
2026-01-02 13:31:34.45	242.90	9.68	-43.4	-47.1	22.2	6.08e-01	0	43	0	50331648	58	5468
2026-01-02 13:31:35.45	243.08	9.72	-43.7	-47.1	22.2	6.05e-01	0	43	0	52428800	58	5506
2026-01-02 13:31:36.45	243.26	9.77	-43.8	-46.8	22.5	6.06e-01	0	43	0	54525952	58	5321
2026-01-02 13:31:37.45	243.44	9.81	-43.7	-46.7	22.6	6.05e-01	0	43	0	56098816	58	5228
2026-01-02 13:31:38.45	243.62	9.86	-43.6	-46.5	22.8	6.06e-01	0	43	0	58195968	58	5158
2026-01-02 13:31:39.45	243.80	9.91	-43.5	-46.5	22.8	6.07e-01	0	43	0	59768832	58	5131
2026-01-02 13:31:40.45	243.98	9.95	-43.6	-46.6	22.7	6.07e-01	0	43	0	61865984	58	5185
2026-01-02 13:31:41.45	244.16	10.00	-43.5	-46.4	22.9	6.08e-01	0	43	0	63438848	58	5046
2026-01-02 13:31:42.45	244.34	10.04	-43.6	-46.4	22.9	6.08e-01	0	43	0	65536000	58	5063
2026-01-02 13:31:43.45	244.52	10.09	-43.6	-46.4	22.9	6.07e-01	0	43	0	67633152	58	5081
2026-01-02 13:31:44.46	244.70	10.13	-43.6	-46.4	22.9	6.07e-01	0	43	0	69206016	58	5087
2026-01-02 13:31:45.46	244.89	10.18	-43.6	-46.4	22.9	6.06e-01	0	43	0	71303168	58	5083
2026-01-02 13:31:46.46	245.07	10.22	-43.6	-46.4	23.0	6.07e-01	0	43	0	72876032	58	5054
2026-01-02 13:31:47.46	245.25	10.27	-43.6	-46.4	22.9	6.08e-01	0	43	0	74973184	58	5095
2026-01-02 13:31:48.46	245.44	10.31	-43.8	-46.7	22.7	6.07e-01	0	43	0	76546048	58	5245
2026-01-02 13:31:49.46	245.62	10.36	-43.5	-46.4	22.9	6.07e-01	0	43	0	78643200	58	5083
2026-01-02 13:31:50.46	245.81	10.40	-43.3	-46.3	23.0	6.04e-01	0	43	0	80740352	58	5038
2026-01-02 13:31:51.46	246.00	10.44	-43.4	-46.4	22.9	6.07e-01	0	43	0	82313216	58	5073
2026-01-02 13:31:52.46	246.18	10.49	-43.3	-46.2	23.2	6.07e-01	0	43	0	84410368	58	4935
2026-01-02 13:31:53.47	246.37	10.53	-43.3	-46.1	23.2	6.07e-01	0	43	0	85983232	58	4903
2026-01-02 13:31:54.46	246.56	10.57	-43.4	-46.2	23.2	6.07e-01	0	43	0	88080384	58	4947
2026-01-02 13:31:55.46	246.75	10.62	-43.5	-46.3	23.1	6.06e-01	0	43	0	90177536	58	5024
2026-01-02 13:31:56.47	246.94	10.66	-43.4	-46.3	23.0	6.06e-01	0	43	0	91750400	58	5021
2026-01-02 13:31:57.47	247.13	10.70	-43.4	-46.3	23.0	6.07e-01	0	43	0	93847552	58	5038
2026-01-02 13:31:58.47	247.32	10.74	-43.3	-46.1	23.2	6.09e-01	0	43	0	95420416	58	4924
2026-01-02 13:31:59.47	247.51	10.79	-43.1	-45.9	23.4	6.08e-01	0	43	0	97517568	58	4801
2026-01-02 13:32:00.48	247.70	10.83	-43.1	-46.0	23.4	6.07e-01	0	43	0	99090432	58	4832
2026-01-02 13:32:01.47	247.89	10.87	-43.2	-46.1	23.2	6.07e-01	0	43	0	101187584	58	4904
2026-01-02 13:32:02.48	248.09	10.91	-43.2	-46.2	23.2	6.08e-01	0	43	0	103284736	58	4944
2026-01-02 13:32:03.48	248.28	10.96	-43.3	-46.2	23.1	6.06e-01	0	43	0	104857600	58	4974
2026-01-02 13:32:04.48	248.48	11.00	-43.1	-46.1	23.3	6.08e-01	0	43	0	106954752	58	4883
2026-01-02 13:32:05.49	248.67	11.04	-43.2	-46.2	23.2	6.05e-01	0	43	0	108527616	58	4936
2026-01-02 13:32:06.49	248.87	11.08	-43.2	-46.1	23.2	6.07e-01	0	43	0	110624768	58	4907
2026-01-02 13:32:07.49	249.06	11.12	-43.1	-46.1	23.3	6.06e-01	0	43	0	112721920	58	4883
2026-01-02 13:32:08.49	249.26	11.16	-43.2	-46.1	23.2	6.07e-01	0	43	0	114294784	58	4921
2026-01-02 13:32:09.50	249.46	11.20	-43.1	-46.0	23.3	6.07e-01	0	43	0	116391936	58	4870
2026-01-02 13:32:10.50	249.66	11.24	-43.2	-46.0	23.3	6.07e-01	0	43	0	117964800	58	4856
2026-01-02 13:32:11.50	249.85	11.28	-43.2	-46.0	23.4	6.07e-01	0	43	0	120061952	58	4842
2026-01-02 13:32:12.50	250.05	11.32	-43.2	-46.1	23.3	6.09e-01	0	43	0	122159104	58	4872
2026-01-02 13:32:13.50	250.25	11.36	-43.0	-46.0	23.4	6.07e-01	0	43	0	123731968	58	4826
2026-01-02 13:32:14.50	250.45	11.40	-43.2	-46.1	23.3	6.07e-01	0	43	0	125829120	58	4887
2026-01-02 13:32:15.51	250.65	11.44	-43.2	-46.0	23.3	6.06e-01	0	43	0	127401984	58	4869
2026-01-02 13:32:16.51	250.85	11.48	-43.4	-46.2	23.2	6.06e-01	0	43	0	129499136	58	4944
2026-01-02 13:32:17.51	251.06	11.52	-43.3	-46.0	23.3	6.06e-01	0	43	0	131072000	58	4869
2026-01-02 13:32:18.51	251.26	11.56	-43.2	-46.0	23.4	6.08e-01	0	43	0	133169152	58	4821
2026-01-02 13:32:19.51	251.46	11.59	-43.2	-45.9	23.5	6.04e-01	0	43	0	135266304	58	4774
2026-01-02 13:32:20.51	251.66	11.63	-43.3	-46.0	23.4	6.06e-01	0	43	0	136839168	58	4857
2026-01-02 13:32:21.51	251.87	11.67	-43.2	-46.0	23.4	6.07e-01	0	43	0	138936320	58	4848
2026-01-02 13:32:22.51	252.07	11.71	-43.2	-46.0	23.4	6.05e-01	0	43	0	140509184	58	4835
2026-01-02 13:32:23.51	252.28	11.74	-43.2	-45.9	23.5	6.06e-01	0	43	0	142606336	58	4771
2026-01-02 13:32:24.52	252.48	11.78	-43.1	-45.8	23.6	6.06e-01	0	43	0	144179200	58	4739
2026-01-02 13:32:25.52	252.69	11.82	-43.3	-46.0	23.4	6.06e-01	0	43	0	146276352	58	4840
2026-01-02 13:32:26.52	252.89	11.85	-43.3	-46.0	23.4	6.06e-01	0	43	0	148373504	58	4832
2026-01-02 13:32:27.52	253.10	11.89	-43.2	-45.9	23.5	6.04e-01	0	43	0	149946368	58	4796
2026-01-02 13:32:28.52	253.31	11.93	-43.2	-45.9	23.5	6.08e-01	0	43	0	152043520	58	4792
2026-01-02 13:32:29.52	253.52	11.96	-43.2	-46.0	23.4	6.08e-01	0	43	0	153616384	58	4842
2026-01-02 13:32:30.52	253.72	12.00	-43.2	-45.9	23.4	6.05e-01	0	43	0	155713536	58	4812
2026-01-02 13:32:31.53	253.94	12.03	-43.1	-45.9	23.5	6.08e-01	0	43	0	157286400	58	4786
2026-01-02 13:32:32.53	254.14	12.07	-43.2	-45.9	23.5	6.07e-01	0	43	0	159383552	58	4804
2026-01-02 13:32:33.53	254.35	12.10	-43.1	-45.8	23.6	6.09e-01	0	43	0	161480704	58	4735
2026-01-02 13:32:34.53	254.57	12.14	-43.1	-45.8	23.6	6.07e-01	0	43	0	163053568	58	4739
2026-01-02 13:32:35.53	254.78	12.17	-42.9	-45.7	23.7	6.06e-01	0	43	0	165150720	57	4945
2026-01-02 13:32:36.53	254.99	12.20	-43.0	-45.8	23.6	6.06e-01	0	43	0	167247872	57	4991
2026-01-02 13:32:37.53	255.20	12.24	-43.1	-45.8	23.6	6.07e-01	0	43	0	168820736	57	5013
2026-01-02 13:32:38.53	255.41	12.27	-42.9	-45.6	23.7	6.08e-01	0	43	0	170917888	57	4907
2026-01-02 13:32:39.54	255.63	12.30	-43.0	-45.8	23.6	6.07e-01	0	43	0	172490752	57	5008
2026-01-02 13:32:40.54	255.84	12.33	-43.1	-45.8	23.6	6.07e-01	0	43	0	174587904	57	5032
2026-01-02 13:32:41.54	256.05	12.37	-43.1	-45.8	23.6	6.06e-01	0	43	0	176160768	57	5006
2026-01-02 13:32:42.54	256.27	12.40	-42.9	-45.7	23.7	6.04e-01	0	43	0	178257920	57	4938
2026-01-02 13:32:43.54	256.48	12.43	-43.0	-45.7	23.6	6.05e-01	0	43	0	180355072	57	4983
2026-01-02 13:32:44.55	256.70	12.46	-43.0	-45.8	23.6	6.06e-01	0	43	0	181927936	57	4984
2026-01-02 13:32:45.55	256.92	12.49	-42.9	-45.7	23.7	6.09e-01	0	43	0	184025088	57	4936
2026-01-02 13:32:46.55	257.13	12.52	-42.9	-45.6	23.8	6.03e-01	0	43	0	185597952	57	4919
2026-01-02 13:32:47.55	257.35	12.55	-42.9	-45.6	23.8	6.07e-01	0	43	0	187695104	57	4912
2026-01-02 13:32:48.56	257.57	12.58	-43.0	-45.7	23.7	6.09e-01	0	43	0	189267968	57	4957
2026-01-02 13:32:49.56	257.79	12.61	-43.0	-45.7	23.7	6.08e-01	0	43	0	191365120	57	4936
2026-01-02 13:32:50.56	258.00	12.64	-43.0	-45.6	23.8	6.08e-01	0	43	0	193462272	57	4915
2026-01-02 13:32:51.56	258.22	12.67	-43.0	-45.7	23.8	6.06e-01	0	43	0	195035136	57	4927
2026-01-02 13:32:52.57	258.44	12.70	-43.0	-45.7	23.7	6.05e-01	0	43	0	197132288	57	4955
2026-01-02 13:32:53.57	258.66	12.73	-43.0	-45.7	23.7	6.07e-01	0	43	0	198705152	57	4973
2026-01-02 13:32:54.57	258.88	12.76	-43.0	-45.7	23.7	6.06e-01	0	43	0	200802304	57	4950
2026-01-02 13:32:55.57	259.10	12.79	-43.0	-45.8	23.7	6.07e-01	0	43	0	202375168	57	4990
2026-01-02 13:32:56.57	259.33	12.81	-42.8	-45.5	23.9	6.06e-01	0	43	0	204472320	57	4867
2026-01-02 13:32:57.57	259.55	12.84	-42.9	-45.7	23.7	6.07e-01	0	43	0	206569472	57	4938
2026-01-02 13:32:58.57	259.77	12.87	-42.8	-45.6	23.8	6.07e-01	0	43	0	208142336	57	4900
2026-01-02 13:32:59.58	259.99	12.89	-42.7	-45.5	23.9	6.05e-01	0	43	0	210239488	57	4860
2026-01-02 13:33:00.57	260.21	12.92	-42.6	-45.5	23.9	6.06e-01	0	43	0	211812352	57	4844
2026-01-02 13:33:01.57	260.44	12.95	-42.7	-45.6	23.8	6.09e-01	0	43	0	213909504	57	4876
2026-01-02 13:33:02.57	260.66	12.97	-42.8	-45.6	23.8	6.06e-01	0	43	0	215482368	57	4909
2026-01-02 13:33:03.58	260.88	13.00	-42.9	-45.6	23.7	6.09e-01	0	43	0	217579520	57	4918
2026-01-02 13:33:04.57	261.11	13.02	-42.8	-45.5	23.8	6.07e-01	0	43	0	219676672	57	4863
2026-01-02 13:33:05.58	261.33	13.04	-42.9	-45.5	23.9	6.06e-01	0	43	0	221249536	57	4864
2026-01-02 13:33:06.58	261.56	13.07	-42.9	-45.6	23.8	6.08e-01	0	43	0	223346688	57	4878
2026-01-02 13:33:07.58	261.78	13.09	-42.9	-45.6	23.8	6.07e-01	0	43	0	225443840	57	4892
2026-01-02 13:33:08.58	262.01	13.12	-42.9	-45.5	23.9	6.04e-01	0	43	0	227016704	57	4844
2026-01-02 13:33:09.57	262.23	13.14	-42.9	-45.6	23.8	6.07e-01	0	43	0	229113856	57	4879
2026-01-02 13:33:10.58	262.46	13.16	-43.0	-45.6	23.8	6.03e-01	0	43	0	230686720	57	4892
2026-01-02 13:33:11.58	262.69	13.18	-43.0	-45.6	23.8	6.05e-01	0	43	0	232783872	57	4923
2026-01-02 13:33:12.59	262.92	13.20	-42.9	-45.5	23.9	6.08e-01	0	43	0	234356736	57	4850
2026-01-02 13:33:13.59	263.14	13.23	-42.8	-45.5	23.9	6.07e-01	0	43	0	236453888	57	4839
2026-01-02 13:33:14.59	263.37	13.25	-42.8	-45.6	23.9	6.08e-01	0	43	0	238551040	57	4878
2026-01-02 13:33:15.59	263.60	13.27	-42.7	-45.4	23.9	6.08e-01	0	43	0	240123904	57	4804
2026-01-02 13:33:16.60	263.83	13.29	-42.8	-45.5	23.9	6.06e-01	0	43	0	242221056	57	4825
2026-01-02 13:33:17.60	264.06	13.31	-42.9	-45.5	23.8	6.04e-01	0	43	0	243793920	57	4866
2026-01-02 13:33:18.61	264.29	13.33	-42.8	-45.5	24.0	6.07e-01	0	43	0	245891072	57	4815
2026-01-02 13:33:19.61	264.52	13.35	-42.9	-45.5	23.9	6.07e-01	0	43	0	247463936	57	4846
2026-01-02 13:33:20.61	264.75	13.37	-42.9	-45.6	23.9	6.07e-01	0	43	0	249561088	57	4877
2026-01-02 13:33:21.62	264.98	13.38	-42.9	-45.5	23.9	6.09e-01	0	43	0	251658240	57	4858
2026-01-02 13:33:22.62	265.21	13.40	-43.0	-45.6	23.9	6.08e-01	0	43	0	253231104	57	4885
2026-01-02 13:33:23.62	265.44	13.42	-42.9	-45.6	23.9	6.07e-01	0	43	0	255328256	57	4880
2026-01-02 13:33:24.62	265.67	13.44	-43.1	-45.8	23.7	6.06e-01	0	43	0	256901120	57	5024
2026-01-02 13:33:25.63	265.90	13.45	-42.9	-45.5	23.8	6.06e-01	0	43	0	258998272	57	4869
2026-01-02 13:33:26.63	266.14	13.47	-43.0	-45.7	23.8	6.07e-01	0	43	0	261095424	57	4941
2026-01-02 13:33:27.63	266.37	13.49	-43.0	-45.7	23.7	6.04e-01	0	43	0	262668288	57	4930
2026-01-02 13:33:28.64	266.60	13.50	-43.0	-45.7	23.7	6.06e-01	0	43	0	264765440	57	4953
2026-01-02 13:33:29.64	266.83	13.52	-42.9	-45.6	23.8	6.08e-01	0	43	0	266338304	57	4884
2026-01-02 13:33:30.64	267.07	13.53	-42.8	-45.4	24.0	6.07e-01	0	43	0	268435456	57	4814
2026-01-02 13:33:31.65	267.30	13.55	-42.9	-45.6	23.8	6.07e-01	0	43	0	270532608	57	4895
2026-01-02 13:33:32.65	267.53	13.56	-42.9	-45.6	23.8	6.07e-01	0	43	0	272105472	57	4892
2026-01-02 13:33:33.66	267.77	13.57	-42.8	-45.6	23.9	6.09e-01	0	43	0	274202624	57	4871
2026-01-02 13:33:34.66	268.00	13.59	-42.8	-45.5	23.9	6.06e-01	0	43	0	275775488	57	4861
2026-01-02 13:33:35.66	268.23	13.60	-42.8	-45.5	23.9	6.06e-01	0	43	0	277872640	57	4869
2026-01-02 13:33:36.67	268.47	13.61	-42.9	-45.5	23.9	6.09e-01	0	43	0	279445504	57	4869
2026-01-02 13:33:37.67	268.70	13.62	-42.9	-45.5	23.9	6.07e-01	0	43	0	281542656	57	4858
2026-01-02 13:33:38.67	268.94	13.64	-42.9	-45.5	23.9	6.05e-01	0	43	0	283639808	57	4843
2026-01-02 13:33:39.68	269.17	13.65	-42.8	-45.5	23.9	6.06e-01	0	43	0	285212672	57	4830
2026-01-02 13:33:40.68	269.41	13.66	-42.8	-45.4	24.0	6.08e-01	0	43	0	287309824	57	4780
2026-01-02 13:33:41.69	269.65	13.67	-42.9	-45.5	23.9	6.07e-01	0	43	0	289406976	57	4831
2026-01-02 13:33:42.69	269.88	13.68	-42.9	-45.5	23.9	6.05e-01	0	43	0	290979840	57	4845
2026-01-02 13:33:43.69	270.11	13.69	-42.9	-45.6	23.9	6.06e-01	0	43	0	293076992	57	4884
2026-01-02 13:33:44.69	270.35	13.70	-42.8	-45.5	23.9	6.06e-01	0	43	0	294649856	57	4835
2026-01-02 13:33:45.70	270.59	13.70	-42.8	-45.5	23.9	6.07e-01	0	43	0	296747008	57	4843
2026-01-02 13:33:46.70	270.82	13.71	-42.9	-45.5	23.9	6.06e-01	0	43	0	298319872	57	4855
2026-01-02 13:33:47.70	271.06	13.72	-42.8	-45.5	23.9	6.08e-01	0	43	0	300417024	57	4827
2026-01-02 13:33:48.71	271.30	13.73	-42.9	-45.5	23.9	6.07e-01	0	43	0	302514176	57	4832
2026-01-02 13:33:49.71	271.53	13.73	-42.9	-45.5	23.9	6.07e-01	0	43	0	304087040	57	4865
2026-01-02 13:33:50.72	271.77	13.74	-42.9	-45.5	23.9	6.04e-01	0	43	0	306184192	57	4847
2026-01-02 13:33:51.72	272.00	13.75	-42.9	-45.5	23.9	6.08e-01	0	43	0	307757056	57	4843
2026-01-02 13:33:52.72	272.24	13.75	-42.9	-45.5	23.9	6.06e-01	0	43	0	309854208	57	4843
2026-01-02 13:33:53.72	272.48	13.76	-42.9	-45.5	23.9	6.07e-01	0	43	0	311427072	57	4865
2026-01-02 13:33:54.73	272.71	13.76	-42.8	-45.4	24.0	6.08e-01	0	43	0	313524224	57	4792
2026-01-02 13:33:55.73	272.95	13.77	-42.7	-45.3	24.1	6.04e-01	0	43	0	315621376	57	4731
2026-01-02 13:33:56.74	273.19	13.77	-42.8	-45.5	23.9	6.05e-01	0	43	0	317194240	57	4838
2026-01-02 13:33:57.74	273.43	13.77	-42.9	-45.5	23.9	6.06e-01	0	43	0	319291392	57	4857
2026-01-02 13:33:58.74	273.66	13.78	-42.9	-45.5	23.9	6.06e-01	0	43	0	320864256	57	4860
2026-01-02 13:33:59.75	273.90	13.78	-42.9	-45.5	23.9	6.06e-01	0	43	0	322961408	57	4826
2026-01-02 13:34:00.75	274.14	13.78	-42.8	-45.4	24.0	6.06e-01	0	43	0	325058560	57	4788
2026-01-02 13:34:01.75	274.37	13.78	-42.7	-45.3	24.1	6.07e-01	0	43	0	326631424	57	4752
2026-01-02 13:34:02.76	274.61	13.79	-42.7	-45.3	24.1	6.08e-01	0	43	0	328728576	57	4737
2026-01-02 13:34:03.76	274.85	13.79	-42.8	-45.4	24.0	6.08e-01	0	43	0	330301440	57	4804
2026-01-02 13:34:04.76	275.08	13.79	-42.9	-45.5	23.9	6.07e-01	0	43	0	332398592	57	4832
2026-01-02 13:34:05.77	275.32	13.79	-42.8	-45.4	24.0	6.07e-01	0	43	0	334495744	57	4791
2026-01-02 13:34:06.78	275.56	13.79	-42.9	-45.4	24.0	6.07e-01	0	43	0	336068608	57	4814
2026-01-02 13:34:07.78	275.80	13.79	-42.9	-45.6	23.9	6.07e-01	0	43	0	338165760	57	4872
2026-01-02 13:34:08.78	276.03	13.78	-42.8	-45.4	24.0	6.06e-01	0	43	0	339738624	57	4803
2026-01-02 13:34:09.78	276.27	13.78	-42.8	-45.5	23.9	6.06e-01	0	43	0	341835776	57	4819
2026-01-02 13:34:10.79	276.51	13.78	-42.7	-45.3	24.1	6.07e-01	0	43	0	343932928	57	4707
2026-01-02 13:34:11.79	276.74	13.78	-42.8	-45.4	24.1	6.07e-01	0	43	0	345505792	57	4763
2026-01-02 13:34:12.80	276.98	13.77	-42.9	-45.6	23.9	6.06e-01	0	43	0	347602944	57	4878
2026-01-02 13:34:13.80	277.22	13.77	-42.9	-45.6	23.8	6.08e-01	0	43	0	349175808	57	4901
2026-01-02 13:34:14.80	277.46	13.77	-42.8	-45.5	23.9	6.06e-01	0	43	0	351272960	57	4830
2026-01-02 13:34:15.81	277.69	13.76	-42.7	-45.4	24.0	6.08e-01	0	43	0	352845824	57	4798
2026-01-02 13:34:16.81	277.93	13.76	-42.8	-45.4	24.0	6.06e-01	0	43	0	354942976	57	4806
2026-01-02 13:34:17.81	278.17	13.75	-42.8	-45.4	24.0	6.06e-01	0	43	0	357040128	57	4799
2026-01-02 13:34:18.82	278.40	13.75	-43.0	-45.6	23.8	6.07e-01	0	43	0	358612992	57	4898
2026-01-02 13:34:19.82	278.64	13.74	-43.0	-45.6	23.8	6.05e-01	0	43	0	360710144	57	4912
2026-01-02 13:34:20.82	278.87	13.74	-42.9	-45.5	23.9	6.06e-01	0	43	0	362283008	57	4853
2026-01-02 13:34:21.83	279.11	13.73	-42.9	-45.6	23.8	6.07e-01	0	43	0	364380160	57	4900
2026-01-02 13:34:22.83	279.35	13.72	-42.9	-45.6	23.8	6.09e-01	0	43	0	366477312	57	4888
2026-01-02 13:34:23.83	279.58	13.71	-42.9	-45.5	23.8	6.07e-01	0	43	0	368050176	57	4870
2026-01-02 13:34:24.84	279.82	13.71	-42.9	-45.6	23.8	6.05e-01	0	43	0	370147328	57	4880
2026-01-02 13:34:25.84	280.05	13.70	-42.8	-45.4	24.0	6.07e-01	0	43	0	371720192	57	4794
2026-01-02 13:34:26.84	280.29	13.69	-42.7	-45.4	24.0	6.05e-01	0	43	0	373817344	57	4769
2026-01-02 13:34:27.85	280.53	13.68	-42.9	-45.5	23.9	6.05e-01	0	43	0	375914496	57	4835
2026-01-02 13:34:28.85	280.76	13.67	-42.8	-45.3	24.0	6.07e-01	0	43	0	377487360	57	4743
2026-01-02 13:34:29.85	280.99	13.66	-42.9	-45.4	24.0	6.05e-01	0	43	0	379584512	57	4791
2026-01-02 13:34:30.86	281.23	13.65	-43.0	-45.5	23.9	6.07e-01	0	43	0	381157376	57	4865
2026-01-02 13:34:31.86	281.46	13.64	-43.0	-45.6	23.8	6.08e-01	0	43	0	383254528	57	4890
2026-01-02 13:34:32.86	281.70	13.63	-42.9	-45.4	24.0	6.07e-01	0	43	0	384827392	57	4799
2026-01-02 13:34:33.87	281.93	13.61	-42.9	-45.5	23.9	6.06e-01	0	43	0	386924544	57	4819
2026-01-02 13:34:34.87	282.17	13.60	-42.9	-45.5	23.9	6.07e-01	0	43	0	389021696	57	4853
2026-01-02 13:34:35.87	282.40	13.59	-42.9	-45.5	23.9	6.06e-01	0	43	0	390594560	57	4830
2026-01-02 13:34:36.88	282.63	13.58	-42.9	-45.4	23.9	6.07e-01	0	43	0	392691712	57	4803
2026-01-02 13:34:37.88	282.87	13.56	-42.9	-45.4	23.9	6.07e-01	0	43	0	394264576	57	4809
2026-01-02 13:34:38.89	283.10	13.55	-42.9	-45.4	24.0	6.06e-01	0	43	0	396361728	57	4801
2026-01-02 13:34:39.89	283.33	13.53	-42.9	-45.5	23.9	6.06e-01	0	43	0	398458880	57	4830
2026-01-02 13:34:40.89	283.57	13.52	-43.0	-45.6	23.8	6.06e-01	0	43	0	400031744	57	4872
2026-01-02 13:34:41.90	283.80	13.50	-42.8	-45.4	23.9	6.07e-01	0	43	0	402128896	57	4794
2026-01-02 13:34:42.90	284.03	13.49	-42.8	-45.4	23.9	6.07e-01	0	43	0	403701760	57	4806
2026-01-02 13:34:43.90	284.26	13.47	-42.9	-45.6	23.8	6.04e-01	0	43	0	405798912	57	4890
2026-01-02 13:34:44.91	284.49	13.46	-42.9	-45.6	23.8	6.05e-01	0	43	0	407896064	57	4886
2026-01-02 13:34:45.91	284.73	13.44	-42.8	-45.5	23.9	6.08e-01	0	43	0	409468928	57	4827
2026-01-02 13:34:46.91	284.96	13.42	-42.8	-45.5	23.9	6.07e-01	0	43	0	411566080	57	4815
2026-01-02 13:34:47.91	285.19	13.40	-42.9	-45.6	23.8	6.06e-01	0	43	0	413138944	57	4885
2026-01-02 13:34:48.92	285.42	13.39	-42.9	-45.6	23.8	6.08e-01	0	43	0	415236096	57	4896
2026-01-02 13:34:49.92	285.65	13.37	-43.0	-45.6	23.7	6.08e-01	0	43	0	416808960	57	4925
2026-01-02 13:34:50.93	285.88	13.35	-42.9	-45.6	23.8	6.08e-01	0	43	0	418906112	57	4873
2026-01-02 13:34:51.94	286.11	13.33	-43.0	-45.7	23.7	6.05e-01	0	43	0	421003264	57	4959
2026-01-02 13:34:52.94	286.34	13.31	-42.9	-45.6	23.8	6.07e-01	0	43	0	422576128	57	4910
2026-01-02 13:34:53.94	286.56	13.29	-42.9	-45.7	23.7	6.08e-01	0	43	0	424673280	57	4936
2026-01-02 13:34:54.95	286.79	13.27	-43.0	-45.8	23.6	6.06e-01	0	43	0	426246144	57	4994
2026-01-02 13:34:55.95	287.02	13.25	-43.0	-45.7	23.7	6.06e-01	0	43	0	428343296	57	4955
2026-01-02 13:34:56.95	287.25	13.23	-43.0	-45.7	23.7	6.08e-01	0	43	0	430440448	57	4937
2026-01-02 13:34:57.96	287.48	13.21	-43.0	-45.7	23.7	6.09e-01	0	43	0	432013312	57	4929
2026-01-02 13:34:58.96	287.70	13.19	-43.1	-45.7	23.7	6.09e-01	0	43	0	434110464	57	4967
2026-01-02 13:34:59.97	287.93	13.16	-43.1	-45.8	23.6	6.06e-01	0	43	0	435683328	57	4987
2026-01-02 13:35:00.95	288.15	13.14	-43.1	-45.7	23.7	6.09e-01	0	43	0	437780480	57	4951
2026-01-02 13:35:01.95	288.38	13.12	-43.1	-45.7	23.6	6.09e-01	0	43	0	439877632	57	4978
2026-01-02 13:35:02.95	288.60	13.10	-43.1	-45.8	23.6	6.05e-01	0	43	0	441450496	57	4995
2026-01-02 13:35:03.95	288.83	13.07	-43.0	-45.7	23.7	6.08e-01	0	43	0	443547648	57	4971
2026-01-02 13:35:04.96	289.05	13.05	-43.1	-45.8	23.5	6.06e-01	0	43	0	445120512	57	5034
2026-01-02 13:35:05.96	289.28	13.02	-43.0	-45.8	23.5	6.08e-01	0	43	0	447217664	57	5012
2026-01-02 13:35:06.97	289.50	13.00	-43.0	-45.8	23.6	6.05e-01	0	43	0	448790528	57	4997
2026-01-02 13:35:07.97	289.73	12.97	-42.9	-45.8	23.6	6.06e-01	0	43	0	450887680	57	4993
2026-01-02 13:35:08.97	289.95	12.95	-43.0	-45.8	23.6	6.06e-01	0	43	0	452984832	57	5023
2026-01-02 13:35:09.98	290.17	12.92	-42.9	-45.7	23.6	6.05e-01	0	43	0	454557696	57	4964
2026-01-02 13:35:10.98	290.40	12.90	-43.0	-45.7	23.6	6.06e-01	0	43	0	456654848	57	4983
2026-01-02 13:35:11.98	290.62	12.87	-43.1	-45.8	23.6	6.07e-01	0	43	0	458227712	57	5016
2026-01-02 13:35:12.99	290.84	12.84	-43.2	-45.9	23.5	6.06e-01	0	43	0	460324864	57	5057
2026-01-02 13:35:13.99	291.06	12.82	-43.2	-45.9	23.4	6.07e-01	0	43	0	462422016	57	5100
2026-01-02 13:35:14.99	291.28	12.79	-43.2	-45.9	23.5	6.07e-01	0	43	0	463994880	57	5048
2026-01-02 13:35:16.00	291.50	12.76	-43.2	-45.8	23.5	6.09e-01	0	43	0	466092032	57	5025
2026-01-02 13:35:17.00	291.72	12.73	-43.2	-45.8	23.5	6.07e-01	0	43	0	467664896	57	5031
2026-01-02 13:35:18.00	291.94	12.71	-43.2	-45.9	23.5	6.06e-01	0	43	0	469762048	57	5050
2026-01-02 13:35:19.00	292.16	12.68	-43.3	-46.0	23.4	6.06e-01	0	43	0	471334912	57	5106
2026-01-02 13:35:20.01	292.38	12.65	-43.2	-46.0	23.4	6.07e-01	0	43	0	473432064	57	5101
2026-01-02 13:35:21.01	292.60	12.62	-43.3	-46.0	23.4	6.07e-01	0	43	0	475529216	57	5127
2026-01-02 13:35:22.02	292.81	12.59	-43.3	-46.0	23.3	6.04e-01	0	43	0	477102080	57	5133
2026-01-02 13:35:23.02	293.03	12.56	-43.3	-46.0	23.4	6.08e-01	0	43	0	479199232	57	5119
2026-01-02 13:35:24.02	293.25	12.53	-43.4	-46.2	23.2	6.07e-01	0	43	0	480772096	57	5228
2026-01-02 13:35:25.02	293.46	12.50	-43.4	-46.1	23.2	6.07e-01	0	43	0	482869248	57	5217
2026-01-02 13:35:26.02	293.68	12.47	-43.5	-46.3	23.1	6.04e-01	0	43	0	484966400	57	5283
2026-01-02 13:35:27.03	293.89	12.44	-43.3	-46.0	23.3	6.08e-01	0	43	0	486539264	57	5153
2026-01-02 13:35:28.03	294.11	12.41	-43.2	-46.0	23.4	6.07e-01	0	43	0	488636416	57	5103
2026-01-02 13:35:29.03	294.32	12.37	-43.3	-46.0	23.4	6.06e-01	0	43	0	490209280	57	5126
2026-01-02 13:35:30.04	294.54	12.34	-43.4	-46.1	23.3	6.05e-01	0	43	0	492306432	57	5201
2026-01-02 13:35:31.04	294.75	12.31	-43.4	-46.2	23.2	6.06e-01	0	43	0	494403584	57	5235
2026-01-02 13:35:32.04	294.96	12.28	-43.5	-46.3	23.1	6.05e-01	0	43	0	495976448	57	5294
2026-01-02 13:35:33.05	295.17	12.24	-43.5	-46.3	23.0	6.06e-01	0	43	0	498073600	57	5334
2026-01-02 13:35:34.05	295.39	12.21	-43.5	-46.3	23.0	6.05e-01	0	43	0	499646464	57	5325
2026-01-02 13:35:35.06	295.60	12.18	-43.4	-46.3	23.1	6.07e-01	0	43	0	501743616	57	5291
2026-01-02 13:35:36.06	295.81	12.14	-43.5	-46.4	23.0	6.07e-01	0	43	0	503316480	57	5341
2026-01-02 13:35:37.06	296.02	12.11	-43.5	-46.3	23.0	6.07e-01	0	43	0	505413632	57	5331
2026-01-02 13:35:38.06	296.23	12.07	-43.5	-46.3	23.0	6.06e-01	0	43	0	507510784	57	5316
2026-01-02 13:35:39.07	296.44	12.04	-43.5	-46.3	23.1	6.07e-01	0	43	0	509083648	57	5312
2026-01-02 13:35:40.07	296.65	12.01	-43.7	-46.5	22.9	6.06e-01	0	43	0	511180800	58	5123
2026-01-02 13:35:41.08	296.85	11.97	-43.5	-46.3	23.1	6.07e-01	0	43	0	512753664	58	5000
2026-01-02 13:35:42.08	297.06	11.93	-43.5	-46.3	23.0	6.07e-01	0	43	0	514850816	58	5021
2026-01-02 13:35:43.09	297.27	11.90	-43.6	-46.5	22.9	6.07e-01	0	43	0	516947968	58	5107
2026-01-02 13:35:44.09	297.48	11.86	-43.6	-46.6	22.8	6.07e-01	0	43	0	518520832	58	5160
2026-01-02 13:35:45.09	297.68	11.83	-43.7	-46.6	22.7	6.07e-01	0	43	0	520617984	58	5203
2026-01-02 13:35:46.09	297.89	11.79	-43.7	-46.6	22.7	6.07e-01	0	43	0	522190848	58	5214
2026-01-02 13:35:47.10	298.09	11.75	-43.6	-46.4	23.0	6.07e-01	0	43	0	524288000	58	5053
2026-01-02 13:35:48.10	298.30	11.72	-43.6	-46.4	23.0	6.05e-01	0	43	0	526385152	58	5044
2026-01-02 13:35:49.10	298.50	11.68	-43.5	-46.3	22.9	6.06e-01	0	43	0	527958016	58	5014
2026-01-02 13:35:50.11	298.70	11.64	-43.6	-46.4	22.9	6.07e-01	0	43	0	530055168	58	5100
2026-01-02 13:35:51.11	298.91	11.60	-43.7	-46.5	22.8	6.08e-01	0	43	0	531628032	58	5129
2026-01-02 13:35:52.12	299.11	11.57	-43.8	-46.7	22.6	6.06e-01	0	43	0	533725184	58	5238
2026-01-02 13:35:53.12	299.31	11.53	-43.7	-46.6	22.8	6.07e-01	0	43	0	535298048	58	5179
2026-01-02 13:35:54.12	299.51	11.49	-43.7	-46.7	22.7	6.07e-01	0	43	0	537395200	58	5238
2026-01-02 13:35:55.12	299.71	11.45	-43.7	-46.7	22.7	6.07e-01	0	43	0	539492352	58	5220
2026-01-02 13:35:56.12	299.91	11.41	-43.7	-46.7	22.7	6.05e-01	0	43	0	541065216	58	5238
2026-01-02 13:35:57.13	300.11	11.37	-43.7	-46.6	22.7	6.07e-01	0	43	0	543162368	58	5207
2026-01-02 13:35:58.14	300.31	11.33	-43.7	-46.6	22.7	6.06e-01	0	43	0	544735232	58	5172
2026-01-02 13:35:59.14	300.51	11.29	-43.8	-46.7	22.7	6.10e-01	0	43	0	546832384	58	5219
2026-01-02 13:36:00.14	300.70	11.25	-43.8	-46.7	22.7	6.06e-01	0	43	0	548929536	58	5222
2026-01-02 13:36:01.15	300.90	11.21	-43.8	-46.6	22.7	6.08e-01	0	43	0	550502400	58	5187
2026-01-02 13:36:02.15	301.10	11.17	-43.8	-46.6	22.7	6.07e-01	0	43	0	552599552	58	5205
2026-01-02 13:36:03.15	301.29	11.13	-43.9	-46.7	22.6	6.07e-01	0	44	0	554172416	58	5249
2026-01-02 13:36:04.16	301.49	11.09	-43.9	-46.7	22.6	6.07e-01	0	43	0	556269568	58	5266
2026-01-02 13:36:05.16	301.69	11.05	-43.8	-46.7	22.6	6.07e-01	0	43	0	558366720	58	5236
2026-01-02 13:36:06.17	301.88	11.01	-43.9	-46.7	22.6	6.07e-01	0	43	0	559939584	58	5271
2026-01-02 13:36:07.17	302.07	10.97	-43.9	-46.8	22.5	6.06e-01	0	43	0	562036736	58	5292
2026-01-02 13:36:08.17	302.27	10.93	-43.9	-46.8	22.5	6.06e-01	0	43	0	563609600	58	5293
2026-01-02 13:36:09.18	302.46	10.89	-43.9	-46.9	22.5	6.07e-01	0	43	0	565706752	58	5352
2026-01-02 13:36:10.18	302.65	10.85	-43.7	-46.7	22.6	6.06e-01	0	43	0	567803904	58	5276
2026-01-02 13:36:11.18	302.84	10.80	-43.6	-46.7	22.5	6.05e-01	0	43	0	569376768	58	5278
2026-01-02 13:36:12.19	303.03	10.76	-43.8	-46.9	22.4	6.07e-01	0	43	0	571473920	58	5362
2026-01-02 13:36:13.19	303.22	10.72	-43.8	-46.9	22.4	6.08e-01	0	43	0	573046784	58	5376
2026-01-02 13:36:14.20	303.41	10.68	-43.8	-46.9	22.5	6.05e-01	0	43	0	575143936	58	5347
2026-01-02 13:36:15.20	303.60	10.63	-43.8	-46.8	22.5	6.08e-01	0	43	0	576716800	58	5293
2026-01-02 13:36:16.20	303.79	10.59	-43.9	-46.8	22.5	6.08e-01	0	43	0	578813952	58	5308
2026-01-02 13:36:17.20	303.98	10.55	-43.9	-46.9	22.4	6.07e-01	0	43	0	580911104	58	5343
2026-01-02 13:36:18.21	304.17	10.50	-43.8	-46.8	22.5	6.07e-01	0	43	0	582483968	58	5292
2026-01-02 13:36:19.21	304.35	10.46	-43.9	-46.9	22.5	6.08e-01	0	43	0	584581120	58	5343
2026-01-02 13:36:20.21	304.54	10.42	-43.9	-46.9	22.4	6.06e-01	0	43	0	586153984	58	5365
2026-01-02 13:36:21.22	304.72	10.37	-43.9	-47.0	22.3	6.08e-01	0	43	0	588251136	58	5445
2026-01-02 13:36:22.22	304.91	10.33	-43.9	-47.0	22.3	6.06e-01	0	43	0	589824000	58	5436
2026-01-02 13:36:23.22	305.09	10.29	-44.0	-47.0	22.3	6.07e-01	0	43	0	591921152	58	5431
2026-01-02 13:36:24.22	305.28	10.24	-44.0	-47.0	22.3	6.08e-01	0	43	0	594018304	58	5451
2026-01-02 13:36:25.22	305.46	10.20	-43.9	-47.0	22.3	6.05e-01	0	43	0	595591168	58	5453
2026-01-02 13:36:26.22	305.64	10.15	-43.8	-46.8	22.5	6.07e-01	0	43	0	597688320	58	5297
2026-01-02 13:36:27.23	305.82	10.11	-43.8	-46.8	22.5	6.05e-01	0	43	0	599261184	58	5312
2026-01-02 13:36:28.23	306.00	10.06	-43.8	-47.0	22.3	6.05e-01	0	43	0	601358336	58	5410
2026-01-02 13:36:29.23	306.18	10.02	-43.9	-47.0	22.3	6.07e-01	0	43	0	603455488	58	5424
2026-01-02 13:36:30.23	306.36	9.97	-43.9	-47.0	22.2	6.05e-01	0	43	0	605028352	58	5463
2026-01-02 13:36:31.24	306.55	9.93	-43.9	-47.0	22.3	6.07e-01	0	43	0	607125504	58	5453
2026-01-02 13:36:32.24	306.72	9.88	-43.8	-47.0	22.3	6.08e-01	0	43	0	608698368	58	5412
2026-01-02 13:36:33.24	306.90	9.84	-43.8	-47.0	22.3	6.05e-01	0	43	0	610795520	58	5421
2026-01-02 13:36:34.25	307.08	9.79	-43.9	-47.1	22.2	6.07e-01	0	43	0	612892672	58	5468
2026-01-02 13:36:35.25	307.26	9.75	-43.8	-47.1	22.2	6.09e-01	0	43	0	614465536	58	5479
2026-01-02 13:36:36.25	307.43	9.70	-43.9	-47.2	22.1	6.06e-01	0	43	0	616562688	58	5530
2026-01-02 13:36:37.26	307.61	9.65	-43.9	-47.1	22.1	6.06e-01	0	43	0	618135552	58	5509
2026-01-02 13:36:38.26	307.79	9.61	-43.9	-47.0	22.2	6.06e-01	0	43	0	620232704	58	5448
2026-01-02 13:36:39.26	307.96	9.56	-44.0	-47.1	22.2	6.08e-01	0	43	0	621805568	58	5475
2026-01-02 13:36:40.27	308.14	9.52	-43.9	-47.0	22.3	6.07e-01	0	43	0	623902720	58	5455
2026-01-02 13:36:41.27	308.31	9.47	-43.8	-47.0	22.2	6.03e-01	0	43	0	625999872	58	5463
2026-01-02 13:36:42.27	308.48	9.42	-43.8	-47.1	22.2	6.07e-01	0	43	0	627572736	58	5472
2026-01-02 13:36:43.27	308.65	9.38	-43.8	-47.1	22.1	6.07e-01	0	43	0	629669888	58	5527
2026-01-02 13:36:44.28	308.83	9.33	-43.9	-47.2	22.1	6.05e-01	0	43	0	631767040	58	5559
2026-01-02 13:36:45.28	309.00	9.28	-44.0	-47.3	22.0	6.05e-01	0	43	0	633339904	58	5599
2026-01-02 13:36:46.28	309.17	9.24	-44.0	-47.3	22.0	6.07e-01	0	43	0	635437056	58	5637
2026-01-02 13:36:47.28	309.34	9.19	-44.0	-47.4	21.9	6.07e-01	0	43	0	637009920	58	5657
2026-01-02 13:36:48.29	309.51	9.14	-44.1	-47.3	21.9	6.06e-01	0	43	0	639107072	58	5622
2026-01-02 13:36:49.29	309.68	9.09	-44.2	-47.3	21.8	6.05e-01	0	43	0	640679936	59	5337
2026-01-02 13:36:50.29	309.84	9.05	-44.3	-47.5	21.8	6.08e-01	0	43	0	642777088	59	5403
2026-01-02 13:36:51.30	310.01	9.00	-44.2	-47.3	21.9	6.07e-01	0	43	0	644874240	59	5307
2026-01-02 13:36:52.30	310.18	8.95	-49.0	-67.1	4.3	7.37e-01	0	43	104	645398528	69	29121
2026-01-02 13:36:53.30	310.35	8.90	-50.1	-70.5	3.8	7.46e-01	0	43	104	645398528	71	38365
2026-01-02 13:36:54.31	310.51	8.86	-50.3	-70.7	3.8	7.45e-01	0	43	104	645398528	71	39522
2026-01-02 13:36:55.31	310.68	8.81	-50.4	-70.9	3.8	7.44e-01	0	43	104	645398528	71	40263
2026-01-02 13:36:56.32	310.85	8.76	-50.4	-71.0	3.8	7.44e-01	0	43	104	645398528	71	40768
2026-01-02 13:36:57.32	311.01	8.71	-50.5	-71.0	3.8	7.47e-01	0	43	104	645398528	71	40851
2026-01-02 13:36:58.32	311.17	8.66	-50.5	-71.1	3.8	7.47e-01	0	43	104	645398528	71	41147
2026-01-02 13:36:59.33	311.34	8.61	-50.4	-71.1	3.8	7.48e-01	0	43	104	645398528	71	41250
2026-01-02 13:37:00.33	311.50	8.57	-50.6	-71.1	3.8	7.43e-01	0	43	104	645398528	72	38754
2026-01-02 13:37:01.33	311.66	8.52	-50.7	-71.1	3.8	7.44e-01	0	43	104	645398528	72	38825
2026-01-02 13:37:02.33	311.82	8.47	-50.6	-71.1	3.8	7.46e-01	0	43	104	645398528	72	38827
2026-01-02 13:37:03.33	311.98	8.42	-50.6	-71.1	3.8	7.44e-01	0	43	104	645398528	72	38845
2026-01-02 13:37:04.34	312.14	8.37	-50.5	-71.1	3.8	7.41e-01	0	43	104	645398528	72	38860
2026-01-02 13:37:05.34	312.30	8.32	-50.6	-71.1	3.8	7.49e-01	0	43	104	645398528	72	38831
2026-01-02 13:37:06.35	312.46	8.27	-50.7	-71.1	3.8	7.47e-01	0	43	104	645398528	72	38908
2026-01-02 13:37:07.35	312.62	8.22	-50.5	-71.1	3.8	7.49e-01	0	43	104	645398528	72	38889
2026-01-02 13:37:08.35	312.78	8.18	-50.3	-71.1	3.8	7.48e-01	0	43	104	645398528	72	38879
2026-01-02 13:37:09.36	312.94	8.13	-50.2	-71.1	3.8	7.45e-01	0	43	104	645398528	72	38797
2026-01-02 13:37:10.37	313.10	8.08	-50.2	-71.1	3.8	7.48e-01	0	43	104	645398528	72	38771
2026-01-02 13:37:11.37	313.25	8.03	-50.3	-71.1	3.8	7.42e-01	0	43	104	645398528	72	38777
2026-01-02 13:37:12.37	313.41	7.98	-50.2	-71.1	3.8	7.47e-01	0	43	104	645398528	72	38710
2026-01-02 13:37:13.38	313.56	7.93	-50.1	-71.0	3.8	7.43e-01	0	43	104	645398528	72	38687
2026-01-02 13:37:14.38	313.72	7.88	-50.1	-71.1	3.8	7.48e-01	0	43	104	645398528	72	38709
2026-01-02 13:37:15.38	313.87	7.83	-50.1	-71.1	3.8	7.46e-01	0	43	104	645398528	72	38713
2026-01-02 13:37:16.39	314.03	7.78	-50.1	-71.0	3.8	7.43e-01	0	43	104	645398528	72	38668
2026-01-02 13:37:17.39	314.18	7.73	-50.1	-71.0	3.8	7.44e-01	0	43	104	645398528	72	38585
2026-01-02 13:37:18.40	314.33	7.68	-50.1	-71.0	3.8	7.49e-01	0	43	104	645398528	72	38640
2026-01-02 13:37:19.40	314.49	7.63	-50.1	-71.0	3.8	7.42e-01	0	43	104	645398528	72	38604
2026-01-02 13:37:20.41	314.64	7.58	-50.1	-71.0	3.8	7.46e-01	0	43	104	645398528	72	38620
2026-01-02 13:37:21.41	314.79	7.53	-50.1	-71.0	3.8	7.48e-01	0	43	104	645398528	72	38570
2026-01-02 13:37:22.42	314.94	7.48	-50.1	-71.0	3.8	7.47e-01	0	43	104	645398528	72	38566
2026-01-02 13:37:23.42	315.09	7.43	-50.1	-71.0	3.8	7.47e-01	0	43	104	645398528	72	38560
2026-01-02 13:37:24.42	315.24	7.38	-50.1	-71.0	3.8	7.43e-01	0	43	104	645398528	72	38591
2026-01-02 13:37:25.43	315.39	7.33	-50.1	-71.0	3.8	7.44e-01	0	43	104	645398528	72	38575
2026-01-02 13:37:26.43	315.54	7.28	-50.1	-71.0	3.8	7.49e-01	0	43	104	645398528	72	38528
2026-01-02 13:37:27.44	315.68	7.23	-50.1	-71.0	3.8	7.47e-01	0	43	104	645398528	72	38480
2026-01-02 13:37:28.44	315.83	7.18	-50.1	-71.0	3.8	7.42e-01	0	43	104	645398528	72	38566
2026-01-02 13:37:29.45	315.98	7.13	-50.1	-71.0	3.8	7.46e-01	0	43	104	645398528	72	38590
2026-01-02 13:37:30.45	316.12	7.08	-50.1	-71.0	3.8	7.47e-01	0	43	104	645398528	72	38517
2026-01-02 13:37:31.46	316.27	7.03	-50.1	-71.0	3.8	7.44e-01	0	43	104	645398528	72	38581
2026-01-02 13:37:32.46	316.42	6.98	-50.1	-71.0	3.8	7.46e-01	0	44	104	645398528	72	38537
2026-01-02 13:37:33.46	316.56	6.93	-50.1	-71.0	3.8	7.41e-01	0	43	104	645398528	72	38500
2026-01-02 13:37:34.47	316.70	6.88	-50.1	-71.0	3.8	7.47e-01	0	43	104	645398528	72	38429
2026-01-02 13:37:35.47	316.85	6.83	-50.1	-71.0	3.8	7.47e-01	0	43	104	645398528	72	38475
2026-01-02 13:37:36.48	316.99	6.78	-50.1	-71.0	3.8	7.46e-01	0	43	104	645398528	72	38532
2026-01-02 13:37:37.48	317.13	6.73	-50.1	-71.0	3.8	7.47e-01	0	43	104	645398528	72	38494
2026-01-02 13:37:38.48	317.27	6.68	-50.1	-71.0	3.8	7.43e-01	0	43	104	645398528	72	38518
2026-01-02 13:37:39.49	317.42	6.63	-50.1	-71.0	3.8	7.44e-01	0	43	104	645398528	72	38541
2026-01-02 13:37:40.49	317.56	6.58	-50.1	-71.0	3.8	7.48e-01	0	44	104	645398528	72	38586
2026-01-02 13:37:41.50	317.70	6.53	-50.1	-71.0	3.8	7.44e-01	0	43	104	645398528	72	38569
2026-01-02 13:37:42.50	317.84	6.48	-50.1	-71.0	3.8	7.45e-01	0	44	104	645398528	72	38477
2026-01-02 13:37:43.51	317.98	6.43	-50.1	-71.0	3.8	7.47e-01	0	43	104	645398528	72	38539
2026-01-02 13:37:44.51	318.12	6.37	-50.1	-71.0	3.8	7.46e-01	0	44	104	645398528	72	38554
2026-01-02 13:37:45.51	318.25	6.32	-50.1	-71.0	3.8	7.47e-01	0	44	104	645398528	72	38524
2026-01-02 13:37:46.52	318.39	6.27	-50.1	-71.0	3.8	7.48e-01	0	44	104	645398528	72	38568
2026-01-02 13:37:47.52	318.53	6.22	-50.1	-71.0	3.8	7.47e-01	0	43	104	645398528	72	38537
2026-01-02 13:37:48.53	318.67	6.17	-50.1	-71.0	3.8	7.45e-01	0	44	104	645398528	72	38469
2026-01-02 13:37:49.53	318.80	6.12	-50.1	-71.0	3.8	7.45e-01	0	44	104	645398528	72	38536
2026-01-02 13:37:50.53	318.94	6.07	-50.1	-71.0	3.8	7.49e-01	0	44	104	645398528	72	38457
2026-01-02 13:37:51.54	319.08	6.02	-50.1	-71.0	3.8	7.47e-01	0	44	104	645398528	72	38419
2026-01-02 13:37:52.54	319.21	5.97	-50.1	-71.0	3.8	7.46e-01	0	44	104	645398528	72	38475
2026-01-02 13:37:53.55	319.35	5.92	-50.1	-71.0	3.8	7.49e-01	0	44	104	645398528	72	38444
2026-01-02 13:37:54.55	319.48	5.87	-50.1	-71.0	3.8	7.47e-01	0	44	104	645398528	72	38444
2026-01-02 13:37:55.55	319.61	5.82	-50.1	-71.0	3.8	7.48e-01	0	44	104	645398528	72	38403
2026-01-02 13:37:56.56	319.75	5.77	-50.1	-71.0	3.8	7.44e-01	0	43	104	645398528	72	38449
2026-01-02 13:37:57.56	319.88	5.72	-50.1	-71.0	3.8	7.45e-01	0	43	104	645398528	72	38482
2026-01-02 13:37:58.57	320.01	5.66	-50.1	-71.0	3.8	7.47e-01	0	44	104	645398528	72	38455
2026-01-02 13:37:59.57	320.14	5.61	-50.1	-71.0	3.8	7.47e-01	0	44	104	645398528	72	38451
2026-01-02 13:38:00.57	320.27	5.56	-50.1	-71.0	3.8	7.45e-01	0	44	104	645398528	72	38443
2026-01-02 13:38:01.58	320.40	5.51	-50.1	-71.0	3.8	7.46e-01	0	44	104	645398528	72	38464
2026-01-02 13:38:02.58	320.53	5.46	-50.1	-71.0	3.8	7.45e-01	0	44	104	645398528	72	38428
2026-01-02 13:38:03.59	320.66	5.41	-50.1	-71.0	3.8	7.43e-01	0	44	104	645398528	72	38380
2026-01-02 13:38:04.59	320.79	5.36	-50.1	-71.0	3.8	7.50e-01	0	44	104	645398528	72	38427
2026-01-02 13:38:05.59	320.92	5.31	-50.1	-71.0	3.8	7.47e-01	0	43	104	645398528	72	38378
2026-01-02 13:38:06.60	321.05	5.26	-50.1	-71.0	3.8	7.42e-01	0	44	104	645398528	72	38359
2026-01-02 13:38:07.61	321.18	5.21	-50.1	-71.0	3.8	7.46e-01	0	44	104	645398528	72	38383
2026-01-02 13:38:08.61	321.30	5.16	-50.1	-71.0	3.8	7.47e-01	0	44	104	645398528	72	38382
2026-01-02 13:38:09.61	321.43	5.11	-50.1	-71.0	3.8	7.43e-01	0	44	104	645398528	72	38338
2026-01-02 13:38:10.62	321.56	5.05	-50.1	-71.0	3.8	7.45e-01	0	44	104	645398528	72	38379
2026-01-02 13:38:11.62	321.68	5.00	-50.1	-71.0	3.8	7.46e-01	0	43	104	645398528	72	38383

#Closed at: 2026-01-02 13:38:12
#Recorded file [645 MB]: D:/Data/31040_260102_163000.dat