passes_logs/2026/01/01/R2M6_AANII_01/R2M6_AANII_01__20260101_045942_FENGYUN_3D_rec.log

#Pass ID: 20260101_045942_FENGYUN 3D
#Satellite: FENGYUN 3D
#Configuration: FENGYUN 3D
#almurnet v.1.7.20240730
#Start time: 2026-01-01 04:59:42

#Version: 2.2.20231116
#Station: R2M6_AANII_01
#Location: 30.233357 lon 59.946436 lat
#TLE: 1 43010U 17072A   25365.48527867  .00000101  00000+0  69745-4 0  9999
#TLE: 2 43010  98.9911 332.0787 0001837 134.4748 225.6578 14.19689788421190

#Time	Az	El	Level	Level2	SNR	BER	BlckErr	Temp	State	Recorded	gain1	gain2
2026-01-01 04:59:42.37	9.17	7.00	-31.1	-37.2	4.4	8.30e-01	0	40	0	0	22	7265
2026-01-01 04:59:43.37	9.05	7.06	-30.2	-34.8	4.9	7.95e-01	0	40	104	0	20	6117
2026-01-01 04:59:44.37	8.94	7.11	-30.1	-34.4	7.7	7.63e-02	0	40	0	0	20	5878
2026-01-01 04:59:45.38	8.82	7.17	-30.1	-34.3	7.8	7.21e-02	0	40	0	5242880	20	5838
2026-01-01 04:59:46.38	8.71	7.22	-30.0	-33.9	8.0	6.40e-02	0	40	0	10485760	20	5648
2026-01-01 04:59:47.39	8.59	7.28	-30.0	-34.0	8.0	5.50e-02	0	40	0	16777216	20	5679
2026-01-01 04:59:48.40	8.47	7.33	-30.1	-34.1	8.0	7.01e-02	0	41	0	22020096	20	5730
2026-01-01 04:59:49.40	8.35	7.38	-29.8	-33.8	8.6	4.60e-02	0	40	0	28311552	19	5683
2026-01-01 04:59:50.40	8.23	7.44	-29.9	-33.8	8.7	2.12e-02	0	41	0	33554432	19	5680
2026-01-01 04:59:51.40	8.11	7.49	-29.8	-33.4	8.5	4.65e-02	0	41	0	38797312	20	5405
2026-01-01 04:59:52.40	8.00	7.55	-29.5	-32.9	9.3	2.30e-02	0	41	0	45088768	19	5300
2026-01-01 04:59:53.40	7.88	7.60	-29.1	-32.2	10.1	6.97e-03	0	41	0	50331648	18	5136
2026-01-01 04:59:54.40	7.76	7.65	-28.6	-31.3	11.0	4.79e-03	0	41	0	55574528	17	4914
2026-01-01 04:59:55.41	7.63	7.71	-28.1	-30.6	11.8	3.02e-03	0	41	0	61865984	16	4801
2026-01-01 04:59:56.41	7.51	7.76	-27.7	-29.6	12.5	5.34e-04	0	41	0	67108864	16	4460
2026-01-01 04:59:57.42	7.39	7.82	-27.2	-29.4	13.0	2.15e-03	0	41	0	72351744	14	4632
2026-01-01 04:59:58.42	7.27	7.87	-26.8	-28.9	13.6	1.57e-03	0	41	0	78643200	13	4584
2026-01-01 04:59:59.42	7.15	7.93	-26.6	-28.5	13.9	3.51e-04	0	41	0	83886080	13	4469
2026-01-01 05:00:00.42	7.02	7.98	-26.4	-28.0	14.2	1.10e-06	0	41	0	90177536	13	4330
2026-01-01 05:00:01.42	6.90	8.03	-26.3	-28.4	14.2	1.80e-03	0	41	0	95420416	12	4562
2026-01-01 05:00:02.43	6.78	8.09	-26.4	-28.5	14.2	0.00e+00	0	41	0	101711872	12	4585
2026-01-01 05:00:03.43	6.65	8.14	-26.2	-28.2	14.3	1.73e-03	0	41	0	106954752	12	4487
2026-01-01 05:00:04.44	6.53	8.20	-26.4	-28.4	14.2	1.70e-03	0	41	0	112197632	12	4566
2026-01-01 05:00:05.44	6.40	8.25	-26.4	-28.4	14.2	0.00e+00	0	41	0	118489088	12	4567
2026-01-01 05:00:06.45	6.27	8.30	-26.3	-28.2	14.3	1.77e-03	0	41	0	123731968	12	4502
2026-01-01 05:00:07.45	6.15	8.36	-26.4	-28.4	14.3	1.10e-06	0	41	0	128974848	12	4565
2026-01-01 05:00:08.46	6.02	8.41	-26.3	-28.2	14.4	2.94e-04	0	41	0	135266304	12	4503
2026-01-01 05:00:09.46	5.89	8.47	-26.2	-28.1	14.4	0.00e+00	0	41	0	140509184	12	4474
2026-01-01 05:00:10.46	5.77	8.52	-26.3	-28.4	14.3	0.00e+00	0	41	0	145752064	12	4549
2026-01-01 05:00:11.45	5.64	8.57	-26.2	-28.2	14.4	3.36e-04	0	41	0	152043520	12	4483
2026-01-01 05:00:12.46	5.51	8.63	-26.2	-27.9	14.5	0.00e+00	0	41	0	157286400	12	4409
2026-01-01 05:00:13.46	5.38	8.68	-26.1	-27.9	14.6	1.89e-03	0	41	0	163577856	12	4398
2026-01-01 05:00:14.46	5.25	8.74	-26.1	-27.8	14.6	0.00e+00	0	41	0	168820736	12	4387
2026-01-01 05:00:15.47	5.12	8.79	-26.0	-27.6	14.8	5.70e-06	0	41	0	174063616	12	4327
2026-01-01 05:00:16.48	4.99	8.84	-26.0	-27.6	14.7	0.00e+00	0	41	0	180355072	12	4326
2026-01-01 05:00:17.48	4.86	8.90	-26.1	-27.8	14.6	0.00e+00	0	41	0	185597952	12	4368
2026-01-01 05:00:18.49	4.72	8.95	-26.1	-27.8	14.7	0.00e+00	0	41	0	191889408	12	4374
2026-01-01 05:00:19.50	4.59	9.01	-26.1	-27.9	14.6	0.00e+00	0	41	0	197132288	12	4398
2026-01-01 05:00:20.50	4.46	9.06	-26.2	-28.1	14.5	1.10e-06	0	42	0	202375168	12	4457
2026-01-01 05:00:21.49	4.33	9.11	-26.3	-28.2	14.4	0.00e+00	0	41	0	208666624	12	4496
2026-01-01 05:00:22.50	4.19	9.17	-26.4	-28.4	14.3	1.10e-06	0	41	0	213909504	12	4563
2026-01-01 05:00:23.50	4.06	9.22	-26.4	-28.6	14.2	2.20e-06	0	41	0	220200960	12	4605
2026-01-01 05:00:24.50	3.92	9.27	-26.4	-28.5	14.2	1.10e-06	0	41	0	225443840	12	4584
2026-01-01 05:00:25.50	3.79	9.33	-26.4	-28.6	14.2	0.00e+00	0	41	0	230686720	12	4612
2026-01-01 05:00:26.50	3.65	9.38	-26.4	-28.1	14.3	0.00e+00	0	41	0	236978176	13	4346
2026-01-01 05:00:27.50	3.52	9.43	-26.4	-28.5	14.2	0.00e+00	0	42	0	242221056	12	4583
2026-01-01 05:00:28.50	3.38	9.49	-26.3	-28.3	14.3	0.00e+00	0	42	0	247463936	12	4532
2026-01-01 05:00:29.50	3.24	9.54	-26.3	-28.2	14.4	0.00e+00	0	42	0	253755392	12	4504
2026-01-01 05:00:30.50	3.11	9.59	-26.3	-28.2	14.5	0.00e+00	0	42	0	258998272	12	4487
2026-01-01 05:00:31.49	2.97	9.65	-26.1	-27.7	14.7	1.10e-06	0	42	0	264241152	12	4352
2026-01-01 05:00:32.49	2.83	9.70	-26.0	-27.7	14.8	0.00e+00	0	42	0	270532608	12	4335
2026-01-01 05:00:33.49	2.69	9.75	-26.0	-27.7	14.8	0.00e+00	0	42	0	275775488	12	4343
2026-01-01 05:00:34.50	2.55	9.81	-26.0	-27.6	14.8	0.00e+00	0	42	0	282066944	12	4311
2026-01-01 05:00:35.51	2.41	9.86	-26.0	-27.7	14.8	0.00e+00	0	42	0	287309824	12	4346
2026-01-01 05:00:36.52	2.27	9.91	-26.0	-27.6	14.8	0.00e+00	0	42	0	292552704	12	4337
2026-01-01 05:00:37.53	2.12	9.97	-26.1	-27.8	14.7	0.00e+00	0	42	0	298844160	12	4386
2026-01-01 05:00:38.53	1.98	10.02	-26.1	-27.8	14.7	0.00e+00	0	42	0	304087040	12	4379
2026-01-01 05:00:39.53	1.84	10.07	-26.0	-27.5	14.9	0.00e+00	0	42	0	310378496	12	4299
2026-01-01 05:00:40.53	1.70	10.12	-26.0	-27.6	14.8	0.00e+00	0	42	0	315621376	12	4319
2026-01-01 05:00:41.53	1.55	10.18	-26.0	-27.6	14.9	1.10e-06	0	42	0	320864256	12	4329
2026-01-01 05:00:42.53	1.41	10.23	-25.9	-27.4	15.0	0.00e+00	0	42	0	327155712	12	4262
2026-01-01 05:00:43.54	1.26	10.28	-26.1	-27.9	14.7	0.00e+00	0	42	0	332398592	12	4395
2026-01-01 05:00:44.54	1.12	10.33	-26.0	-27.6	14.9	0.00e+00	0	42	0	337641472	12	4317
2026-01-01 05:00:45.54	0.97	10.39	-25.9	-27.3	15.0	0.00e+00	0	42	0	343932928	12	4246
2026-01-01 05:00:46.55	0.83	10.44	-25.9	-27.9	15.1	0.00e+00	0	42	0	349175808	11	4506
2026-01-01 05:00:47.54	0.68	10.49	-25.9	-27.9	15.0	0.00e+00	0	42	0	355467264	11	4514
2026-01-01 05:00:48.54	0.53	10.54	-25.9	-27.9	15.1	0.00e+00	0	42	0	360710144	11	4514
2026-01-01 05:00:49.55	0.39	10.60	-26.0	-27.5	14.9	0.00e+00	0	42	0	365953024	12	4302
2026-01-01 05:00:50.56	0.24	10.65	-25.9	-27.4	15.0	0.00e+00	0	42	0	372244480	12	4278
2026-01-01 05:00:51.56	0.09	10.70	-25.8	-27.1	15.1	0.00e+00	0	42	0	377487360	12	4177
2026-01-01 05:00:52.57	359.94	10.75	-25.8	-27.6	15.2	0.00e+00	0	42	0	382730240	11	4433
2026-01-01 05:00:53.58	359.79	10.80	-25.8	-27.6	15.2	0.00e+00	0	42	0	389021696	11	4437
2026-01-01 05:00:54.58	359.64	10.86	-25.8	-27.7	15.2	0.00e+00	0	42	0	394264576	11	4451
2026-01-01 05:00:55.59	359.48	10.91	-26.0	-28.0	15.0	0.00e+00	0	42	0	400556032	11	4545
2026-01-01 05:00:56.59	359.33	10.96	-26.2	-27.9	14.7	0.00e+00	0	42	0	405798912	12	4413
2026-01-01 05:00:57.59	359.18	11.01	-26.1	-27.8	14.8	0.00e+00	0	42	0	411041792	12	4366
2026-01-01 05:00:58.59	359.03	11.06	-25.9	-27.4	15.1	0.00e+00	0	42	0	417333248	12	4260
2026-01-01 05:00:59.59	358.87	11.11	-26.0	-27.9	15.1	0.00e+00	0	42	0	422576128	11	4518
2026-01-01 05:01:00.59	358.72	11.16	-26.0	-27.5	15.0	0.00e+00	0	42	0	428867584	12	4286
2026-01-01 05:01:01.59	358.57	11.22	-26.1	-27.7	14.9	0.00e+00	0	42	0	434110464	12	4350
2026-01-01 05:01:02.59	358.41	11.27	-26.0	-27.5	15.0	0.00e+00	0	42	0	439353344	12	4287
2026-01-01 05:01:03.60	358.26	11.32	-25.9	-27.2	15.1	0.00e+00	0	42	0	445644800	12	4216
2026-01-01 05:01:04.60	358.10	11.37	-25.9	-27.8	15.2	0.00e+00	0	42	0	450887680	11	4467
2026-01-01 05:01:05.60	357.94	11.42	-25.1	-26.8	14.1	0.00e+00	0	42	0	456130560	11	4349
2026-01-01 05:01:06.61	357.78	11.47	-26.0	-27.9	11.7	0.00e+00	0	42	0	462422016	11	4509
2026-01-01 05:01:07.62	357.63	11.52	-26.2	-28.0	14.1	1.10e-06	0	42	0	467664896	12	4426
2026-01-01 05:01:08.62	357.47	11.57	-26.2	-28.1	14.7	0.00e+00	0	42	0	473956352	12	4460
2026-01-01 05:01:09.62	357.31	11.62	-25.9	-27.3	15.1	0.00e+00	0	42	0	479199232	12	4243
2026-01-01 05:01:10.62	357.15	11.67	-25.8	-27.6	15.3	4.16e-04	0	42	0	484442112	11	4427
2026-01-01 05:01:11.62	356.99	11.72	-25.9	-27.8	15.2	0.00e+00	0	42	0	490733568	11	4474
2026-01-01 05:01:12.63	356.83	11.77	-25.9	-27.8	15.2	1.66e-03	0	42	0	495976448	11	4474
2026-01-01 05:01:13.63	356.67	11.82	-25.8	-27.6	15.3	0.00e+00	0	42	0	502267904	11	4433
2026-01-01 05:01:14.63	356.51	11.87	-25.8	-27.5	15.4	0.00e+00	0	42	0	507510784	11	4408
2026-01-01 05:01:15.64	356.34	11.92	-25.7	-27.4	15.4	9.15e-05	0	42	0	512753664	11	4370
2026-01-01 05:01:16.64	356.18	11.97	-25.7	-27.4	15.4	0.00e+00	0	42	0	519045120	11	4365
2026-01-01 05:01:17.65	356.02	12.02	-25.7	-27.4	15.5	1.35e-03	0	42	0	524288000	11	4363
2026-01-01 05:01:18.65	355.85	12.07	-25.5	-26.9	15.7	0.00e+00	0	42	0	529530880	11	4236
2026-01-01 05:01:19.66	355.69	12.12	-25.5	-26.8	15.8	2.68e-04	0	42	0	535822336	11	4206
2026-01-01 05:01:20.66	355.52	12.17	-25.5	-26.8	15.8	0.00e+00	0	42	0	541065216	11	4200
2026-01-01 05:01:21.66	355.36	12.22	-25.3	-26.9	16.0	1.21e-03	0	42	0	546308096	10	4353
2026-01-01 05:01:22.66	355.19	12.26	-25.3	-27.0	15.9	2.59e-04	0	42	0	552599552	10	4374
2026-01-01 05:01:23.67	355.02	12.31	-25.3	-26.9	16.0	0.00e+00	0	42	0	557842432	10	4356
2026-01-01 05:01:24.67	354.86	12.36	-25.2	-26.7	16.1	1.17e-03	0	42	0	564133888	10	4303
2026-01-01 05:01:25.67	354.69	12.41	-25.2	-26.7	16.1	0.00e+00	0	42	0	569376768	10	4293
2026-01-01 05:01:26.67	354.52	12.46	-25.2	-26.8	16.0	1.20e-03	0	42	0	575668224	10	4325
2026-01-01 05:01:27.67	354.35	12.51	-25.2	-26.8	16.1	1.11e-03	0	42	0	580911104	10	4315
2026-01-01 05:01:28.68	354.18	12.55	-25.3	-26.9	16.0	3.51e-04	0	42	0	586153984	10	4332
2026-01-01 05:01:29.67	354.01	12.60	-25.4	-27.1	15.9	1.08e-03	0	43	0	592445440	10	4397
2026-01-01 05:01:30.68	353.84	12.65	-25.3	-27.0	16.0	1.22e-03	0	42	0	597688320	10	4375
2026-01-01 05:01:31.67	353.67	12.70	-25.4	-27.1	15.9	3.86e-04	0	42	0	602931200	10	4390
2026-01-01 05:01:32.67	353.50	12.74	-25.3	-27.1	16.0	1.07e-03	0	42	0	609222656	10	4388
2026-01-01 05:01:33.68	353.33	12.79	-25.4	-27.2	15.9	9.54e-04	0	42	0	614465536	10	4429
2026-01-01 05:01:34.68	353.16	12.84	-25.3	-27.0	16.0	3.26e-04	0	42	0	619708416	10	4368
2026-01-01 05:01:35.68	352.98	12.88	-25.3	-26.9	16.0	8.75e-04	0	42	0	625999872	10	4354
2026-01-01 05:01:36.68	352.81	12.93	-25.2	-26.7	16.1	8.57e-04	0	42	0	631242752	10	4285
2026-01-01 05:01:37.69	352.63	12.98	-25.2	-26.7	16.1	3.04e-04	0	42	0	637534208	10	4291
2026-01-01 05:01:38.69	352.46	13.02	-25.2	-26.7	16.2	7.38e-04	0	42	0	642777088	10	4284
2026-01-01 05:01:39.69	352.28	13.07	-25.3	-26.9	16.1	8.70e-04	0	42	0	648019968	10	4334
2026-01-01 05:01:40.70	352.11	13.11	-25.3	-26.9	16.0	2.12e-04	0	42	0	654311424	10	4352
2026-01-01 05:01:41.70	351.93	13.16	-25.4	-27.2	15.9	8.72e-04	0	43	0	659554304	10	4417
2026-01-01 05:01:42.71	351.75	13.20	-25.5	-27.3	15.8	8.37e-04	0	42	0	664797184	10	4462
2026-01-01 05:01:43.71	351.57	13.25	-25.7	-27.3	15.6	1.19e-04	0	42	0	671088640	11	4336
2026-01-01 05:01:44.71	351.39	13.29	-25.6	-27.1	15.7	0.00e+00	0	42	0	676331520	11	4293
2026-01-01 05:01:45.72	351.21	13.34	-25.5	-26.9	15.8	8.19e-04	0	42	0	681574400	11	4234
2026-01-01 05:01:46.72	351.04	13.38	-25.5	-26.8	15.8	0.00e+00	0	42	0	687865856	11	4207
2026-01-01 05:01:47.72	350.86	13.43	-25.3	-26.5	16.0	8.72e-04	0	43	0	693108736	11	4133
2026-01-01 05:01:48.73	350.67	13.47	-25.3	-26.9	16.0	0.00e+00	0	42	0	699400192	10	4349
2026-01-01 05:01:49.72	350.49	13.52	-25.1	-26.6	16.3	0.00e+00	0	42	0	704643072	10	4248
2026-01-01 05:01:50.72	350.31	13.56	-25.0	-26.3	16.4	1.15e-03	0	43	0	710934528	10	4179
2026-01-01 05:01:51.72	350.13	13.60	-25.0	-26.3	16.4	0.00e+00	0	42	0	716177408	10	4168
2026-01-01 05:01:52.73	349.95	13.65	-25.0	-26.3	16.4	1.69e-04	0	42	0	721420288	10	4164
2026-01-01 05:01:53.73	349.76	13.69	-25.1	-26.4	16.3	0.00e+00	0	42	0	727711744	10	4211
2026-01-01 05:01:54.73	349.58	13.73	-25.2	-26.7	16.2	1.15e-03	0	43	0	732954624	10	4294
2026-01-01 05:01:55.73	349.40	13.78	-25.3	-26.9	16.1	0.00e+00	0	42	0	738197504	10	4344
2026-01-01 05:01:56.73	349.21	13.82	-25.4	-27.1	16.0	0.00e+00	0	43	0	744488960	10	4399
2026-01-01 05:01:57.73	349.03	13.86	-25.4	-27.1	16.0	1.19e-03	0	43	0	749731840	10	4402
2026-01-01 05:01:58.74	348.84	13.90	-25.3	-27.0	16.1	0.00e+00	0	43	0	754974720	10	4371
2026-01-01 05:01:59.74	348.65	13.94	-25.4	-27.3	15.9	1.12e-03	0	43	0	761266176	10	4448
2026-01-01 05:02:00.74	348.47	13.99	-25.4	-27.2	15.9	0.00e+00	0	43	0	766509056	10	4414
2026-01-01 05:02:01.75	348.28	14.03	-25.3	-27.1	16.0	0.00e+00	0	43	0	772800512	10	4388
2026-01-01 05:02:02.74	348.09	14.07	-25.4	-27.2	15.9	0.00e+00	0	43	0	778043392	10	4423
2026-01-01 05:02:03.74	347.90	14.11	-25.3	-27.0	16.0	0.00e+00	0	43	0	783286272	10	4379
2026-01-01 05:02:04.74	347.71	14.15	-25.2	-26.7	16.2	0.00e+00	0	42	0	789577728	10	4277
2026-01-01 05:02:05.74	347.52	14.19	-25.1	-26.5	16.3	0.00e+00	0	43	0	794820608	10	4223
2026-01-01 05:02:06.74	347.33	14.23	-25.1	-26.5	16.3	0.00e+00	0	42	0	800063488	10	4239
2026-01-01 05:02:07.74	347.14	14.27	-25.2	-26.7	16.2	0.00e+00	0	42	0	806354944	10	4284
2026-01-01 05:02:08.74	346.95	14.31	-25.1	-26.4	16.3	0.00e+00	0	42	0	811597824	10	4209
2026-01-01 05:02:09.74	346.76	14.35	-24.8	-25.9	16.7	0.00e+00	0	43	0	816840704	10	4067
2026-01-01 05:02:10.75	346.57	14.39	-24.8	-25.9	16.7	0.00e+00	0	43	0	823132160	10	4077
2026-01-01 05:02:11.75	346.38	14.43	-24.8	-26.0	16.6	0.00e+00	0	42	0	828375040	10	4092
2026-01-01 05:02:12.76	346.18	14.47	-24.9	-26.1	16.5	0.00e+00	0	43	0	834666496	10	4120
2026-01-01 05:02:13.76	345.99	14.50	-24.9	-26.1	16.5	0.00e+00	0	42	0	839909376	10	4131
2026-01-01 05:02:14.76	345.79	14.54	-24.9	-26.1	16.6	0.00e+00	0	43	0	845152256	10	4121
2026-01-01 05:02:15.76	345.60	14.58	-24.9	-26.5	16.5	0.00e+00	0	43	0	851443712	9	4344
2026-01-01 05:02:16.77	345.40	14.62	-24.7	-26.2	16.7	0.00e+00	0	43	0	856686592	9	4274
2026-01-01 05:02:17.78	345.20	14.65	-24.7	-26.2	16.7	0.00e+00	0	43	0	862978048	9	4270
2026-01-01 05:02:18.78	345.01	14.69	-24.6	-26.0	16.8	0.00e+00	0	43	0	868220928	9	4205
2026-01-01 05:02:19.79	344.81	14.73	-24.7	-26.2	16.8	0.00e+00	0	43	0	873463808	9	4260
2026-01-01 05:02:20.79	344.61	14.76	-24.6	-26.0	16.9	0.00e+00	0	43	0	879755264	9	4204
2026-01-01 05:02:21.79	344.41	14.80	-24.5	-25.7	17.1	0.00e+00	0	43	0	884998144	9	4124
2026-01-01 05:02:22.79	344.22	14.84	-24.5	-25.7	17.0	0.00e+00	0	43	0	890241024	9	4140
2026-01-01 05:02:23.79	344.02	14.87	-24.6	-25.8	16.9	0.00e+00	0	43	0	896532480	9	4174
2026-01-01 05:02:24.80	343.82	14.91	-24.5	-25.8	17.0	0.00e+00	0	43	0	901775360	9	4151
2026-01-01 05:02:25.80	343.62	14.94	-24.5	-25.7	17.1	0.00e+00	0	43	0	908066816	9	4137
2026-01-01 05:02:26.81	343.42	14.98	-24.6	-25.9	16.9	0.00e+00	0	43	0	913309696	9	4194
2026-01-01 05:02:27.81	343.22	15.01	-24.7	-26.2	16.8	0.00e+00	0	43	0	918552576	9	4252
2026-01-01 05:02:28.82	343.01	15.05	-24.6	-25.8	17.0	0.00e+00	0	43	0	924844032	9	4166
2026-01-01 05:02:29.82	342.81	15.08	-24.4	-25.4	17.2	0.00e+00	0	43	0	930086912	9	4063
2026-01-01 05:02:30.83	342.61	15.11	-24.4	-25.6	17.1	0.00e+00	0	43	0	936378368	9	4106
2026-01-01 05:02:31.83	342.41	15.15	-24.5	-25.7	17.0	0.00e+00	0	43	0	941621248	9	4142
2026-01-01 05:02:32.83	342.20	15.18	-24.6	-26.0	16.9	0.00e+00	0	43	0	946864128	9	4225
2026-01-01 05:02:33.83	342.00	15.21	-24.6	-25.8	17.0	0.00e+00	0	42	0	953155584	9	4169
2026-01-01 05:02:34.84	341.79	15.24	-24.5	-25.8	17.0	0.00e+00	0	43	0	958398464	9	4149
2026-01-01 05:02:35.85	341.59	15.28	-24.6	-25.9	16.9	0.00e+00	0	43	0	963641344	9	4188
2026-01-01 05:02:36.85	341.38	15.31	-24.4	-25.6	17.1	0.00e+00	0	43	0	969932800	9	4096
2026-01-01 05:02:37.86	341.18	15.34	-24.3	-25.2	17.3	0.00e+00	0	43	0	975175680	9	4010
2026-01-01 05:02:38.86	340.97	15.37	-24.3	-25.7	17.3	0.00e+00	0	43	0	981467136	8	4257
2026-01-01 05:02:39.87	340.76	15.40	-24.3	-25.8	17.3	0.00e+00	0	43	0	986710016	8	4271
2026-01-01 05:02:40.87	340.56	15.43	-24.6	-25.9	17.0	0.00e+00	0	43	0	993001472	9	4182
2026-01-01 05:02:41.88	340.35	15.46	-24.5	-25.6	17.1	0.00e+00	0	43	0	998244352	9	4119
2026-01-01 05:02:42.87	340.14	15.49	-24.4	-25.4	17.2	0.00e+00	0	43	0	1003487232	9	4066
2026-01-01 05:02:43.87	339.94	15.52	-24.4	-25.5	17.2	0.00e+00	0	42	0	1009778688	9	4071
2026-01-01 05:02:44.88	339.73	15.55	-24.4	-26.1	17.1	0.00e+00	0	43	0	1015021568	8	4344
2026-01-01 05:02:45.89	339.51	15.57	-24.5	-25.7	17.0	0.00e+00	0	43	0	1020264448	9	4145
2026-01-01 05:02:46.89	339.31	15.60	-24.6	-26.0	16.9	0.00e+00	0	43	0	1026555904	9	4209
2026-01-01 05:02:47.89	339.10	15.63	-24.6	-26.0	16.9	0.00e+00	0	43	0	1031798784	9	4214
2026-01-01 05:02:48.90	338.89	15.66	-24.6	-26.0	16.9	0.00e+00	0	43	0	1037041664	9	4209
2026-01-01 05:02:49.91	338.67	15.69	-24.8	-26.3	16.7	0.00e+00	0	43	0	1043333120	9	4280
2026-01-01 05:02:50.91	338.46	15.71	-24.6	-25.9	16.9	0.00e+00	0	43	0	1048576000	9	4181
2026-01-01 05:02:51.91	338.25	15.74	-24.1	-25.3	17.0	0.00e+00	0	43	0	1054867456	9	4165
2026-01-01 05:02:52.91	338.04	15.76	-24.5	-25.7	12.7	0.00e+00	0	43	0	1060110336	9	4130
2026-01-01 05:02:53.92	337.83	15.79	-24.3	-25.4	17.2	0.00e+00	0	43	0	1066401792	9	4053
2026-01-01 05:02:54.92	337.62	15.81	-24.4	-25.9	17.2	0.00e+00	0	43	0	1071644672	8	4296
2026-01-01 05:02:55.93	337.40	15.84	-24.5	-26.1	17.1	0.00e+00	0	43	0	1076887552	8	4349
2026-01-01 05:02:56.93	337.19	15.86	-24.4	-25.9	17.2	1.43e-03	0	43	0	1083179008	8	4304
2026-01-01 05:02:57.93	336.98	15.89	-24.3	-25.7	17.3	0.00e+00	0	43	0	1088421888	8	4249
2026-01-01 05:02:58.93	336.76	15.91	-24.4	-25.9	17.2	1.36e-03	0	43	0	1093664768	8	4297
2026-01-01 05:02:59.93	336.55	15.93	-24.4	-26.0	17.2	0.00e+00	0	43	0	1099956224	8	4324
2026-01-01 05:03:00.93	336.34	15.96	-24.4	-26.0	17.1	0.00e+00	0	43	0	1105199104	8	4333
2026-01-01 05:03:01.93	336.12	15.98	-24.5	-26.1	17.2	1.50e-03	0	43	0	1111490560	8	4350
2026-01-01 05:03:02.93	335.91	16.00	-24.4	-26.1	17.2	0.00e+00	0	43	0	1116733440	8	4339
2026-01-01 05:03:03.93	335.69	16.02	-24.6	-25.9	16.9	6.06e-05	0	43	0	1121976320	9	4181
2026-01-01 05:03:04.94	335.48	16.04	-24.8	-26.4	16.7	0.00e+00	0	43	0	1128267776	9	4311
2026-01-01 05:03:05.95	335.26	16.07	-24.5	-25.8	17.0	1.46e-03	0	43	0	1133510656	9	4155
2026-01-01 05:03:06.95	335.04	16.09	-24.3	-25.3	17.3	0.00e+00	0	43	0	1138753536	9	4024
2026-01-01 05:03:07.95	334.83	16.11	-24.2	-25.5	17.4	0.00e+00	0	43	0	1145044992	8	4197
2026-01-01 05:03:08.96	334.61	16.13	-24.3	-25.7	17.3	1.56e-03	0	43	0	1150287872	8	4239
2026-01-01 05:03:09.96	334.39	16.15	-24.2	-25.6	17.4	0.00e+00	0	43	0	1155530752	8	4217
2026-01-01 05:03:10.96	334.17	16.16	-24.2	-25.5	17.4	1.52e-03	0	43	0	1161822208	8	4204
2026-01-01 05:03:11.97	333.95	16.18	-24.2	-25.6	17.4	0.00e+00	0	43	0	1167065088	8	4214
2026-01-01 05:03:12.97	333.74	16.20	-24.2	-25.6	17.4	0.00e+00	0	43	0	1173356544	8	4223
2026-01-01 05:03:13.98	333.52	16.22	-24.5	-25.8	17.0	1.41e-03	0	43	0	1178599424	9	4150
2026-01-01 05:03:14.98	333.30	16.24	-24.5	-25.7	17.1	1.39e-03	0	43	0	1184890880	9	4142
2026-01-01 05:03:15.98	333.08	16.25	-24.7	-26.2	16.8	0.00e+00	0	43	0	1190133760	9	4259
2026-01-01 05:03:16.98	332.86	16.27	-24.5	-25.7	17.1	1.42e-03	0	43	0	1195376640	9	4123
2026-01-01 05:03:17.98	332.64	16.29	-24.3	-25.7	17.3	1.54e-03	0	43	0	1201668096	8	4244
2026-01-01 05:03:18.99	332.42	16.30	-24.2	-25.7	17.3	0.00e+00	0	43	0	1206910976	8	4233
2026-01-01 05:03:19.99	332.20	16.32	-24.3	-25.9	17.2	1.48e-03	0	43	0	1212153856	8	4290
2026-01-01 05:03:20.99	331.98	16.33	-24.1	-25.4	17.5	1.40e-03	0	43	0	1218445312	8	4159
2026-01-01 05:03:22.00	331.76	16.35	-24.1	-25.3	17.5	0.00e+00	0	43	0	1223688192	8	4147
2026-01-01 05:03:23.00	331.54	16.36	-24.2	-25.5	17.4	1.38e-03	0	43	0	1228931072	8	4197
2026-01-01 05:03:24.00	331.32	16.37	-24.1	-25.5	17.4	1.24e-03	0	43	0	1235222528	8	4185
2026-01-01 05:03:25.01	331.10	16.39	-24.2	-25.5	17.5	0.00e+00	0	43	0	1240465408	8	4181
2026-01-01 05:03:26.01	330.88	16.40	-24.1	-25.4	17.5	1.30e-03	0	43	0	1246756864	8	4155
2026-01-01 05:03:27.01	330.66	16.41	-24.2	-25.5	17.4	1.51e-03	0	43	0	1251999744	8	4198
2026-01-01 05:03:28.01	330.44	16.42	-24.1	-25.3	17.6	0.00e+00	0	43	0	1257242624	8	4134
2026-01-01 05:03:29.01	330.22	16.43	-24.0	-25.1	17.7	1.55e-03	0	43	0	1263534080	8	4087
2026-01-01 05:03:30.01	330.00	16.44	-24.1	-25.4	17.4	1.58e-03	0	43	0	1268776960	8	4178
2026-01-01 05:03:31.02	329.77	16.46	-24.1	-25.4	17.5	0.00e+00	0	43	0	1274019840	8	4176
2026-01-01 05:03:32.02	329.55	16.47	-24.2	-25.7	17.4	1.51e-03	0	43	0	1280311296	8	4234
2026-01-01 05:03:33.03	329.33	16.48	-24.2	-25.5	17.4	0.00e+00	0	43	0	1285554176	8	4201
2026-01-01 05:03:34.03	329.11	16.48	-24.3	-25.7	17.3	1.14e-05	0	43	0	1291845632	8	4242
2026-01-01 05:03:35.03	328.88	16.49	-24.0	-25.2	17.5	0.00e+00	0	43	0	1297088512	8	4123
2026-01-01 05:03:36.03	328.66	16.50	-24.0	-25.1	17.6	0.00e+00	0	43	0	1302331392	8	4086
2026-01-01 05:03:37.04	328.44	16.51	-24.1	-25.3	17.5	6.98e-05	0	43	0	1308622848	8	4134
2026-01-01 05:03:38.04	328.21	16.52	-24.1	-25.3	17.6	0.00e+00	0	43	0	1313865728	8	4132
2026-01-01 05:03:39.05	327.99	16.52	-24.2	-25.6	17.4	1.28e-03	0	43	0	1320157184	8	4212
2026-01-01 05:03:40.06	327.77	16.53	-24.1	-25.4	17.5	0.00e+00	0	43	0	1325400064	8	4170
2026-01-01 05:03:41.06	327.54	16.54	-24.2	-25.7	17.4	1.27e-03	0	43	0	1330642944	8	4236
2026-01-01 05:03:42.06	327.32	16.54	-24.0	-25.1	17.7	0.00e+00	0	43	0	1336934400	8	4082
2026-01-01 05:03:43.06	327.10	16.55	-23.9	-24.8	17.8	0.00e+00	0	43	0	1342177280	8	4026
2026-01-01 05:03:44.06	326.87	16.55	-23.9	-25.4	17.8	1.26e-03	0	43	0	1347420160	7	4282
2026-01-01 05:03:45.06	326.65	16.56	-23.8	-25.2	17.8	0.00e+00	0	43	0	1353711616	7	4237
2026-01-01 05:03:46.07	326.43	16.56	-23.9	-25.5	17.7	4.57e-05	0	43	0	1358954496	7	4299
2026-01-01 05:03:47.07	326.20	16.56	-23.9	-25.5	17.6	0.00e+00	0	43	0	1365245952	7	4316
2026-01-01 05:03:48.08	325.98	16.57	-23.8	-25.3	17.8	0.00e+00	0	43	0	1370488832	7	4260
2026-01-01 05:03:49.08	325.75	16.57	-23.9	-25.3	17.7	0.00e+00	0	43	0	1375731712	7	4268
2026-01-01 05:03:50.09	325.53	16.57	-23.9	-25.5	17.7	0.00e+00	0	43	0	1382023168	7	4304
2026-01-01 05:03:51.10	325.30	16.57	-23.7	-25.1	17.9	0.00e+00	0	43	0	1387266048	7	4205
2026-01-01 05:03:52.09	325.08	16.57	-23.7	-25.0	17.9	0.00e+00	0	43	0	1393557504	7	4178
2026-01-01 05:03:53.10	324.86	16.58	-23.8	-25.1	17.9	9.29e-04	0	43	0	1398800384	7	4209
2026-01-01 05:03:54.11	324.63	16.58	-23.7	-25.0	17.9	0.00e+00	0	43	0	1404043264	7	4184
2026-01-01 05:03:55.11	324.41	16.58	-23.9	-25.4	17.6	0.00e+00	0	43	0	1410334720	7	4287
2026-01-01 05:03:56.12	324.18	16.58	-23.8	-25.2	17.8	0.00e+00	0	43	0	1415577600	7	4238
2026-01-01 05:03:57.13	323.96	16.57	-23.8	-25.3	17.7	0.00e+00	0	43	0	1421869056	7	4246
2026-01-01 05:03:58.13	323.73	16.57	-24.0	-25.5	17.6	0.00e+00	0	43	0	1427111936	7	4315
2026-01-01 05:03:59.14	323.51	16.57	-23.9	-25.5	17.7	0.00e+00	0	43	0	1432354816	7	4295
2026-01-01 05:04:00.14	323.28	16.57	-24.1	-25.2	17.6	0.00e+00	0	43	0	1438646272	8	4123
2026-01-01 05:04:01.14	323.06	16.57	-24.0	-25.2	17.6	0.00e+00	0	43	0	1443889152	8	4126
2026-01-01 05:04:02.14	322.84	16.56	-24.0	-25.2	17.6	0.00e+00	0	43	0	1449132032	8	4111
2026-01-01 05:04:03.15	322.61	16.56	-24.0	-25.2	17.6	0.00e+00	0	43	0	1455423488	8	4110
2026-01-01 05:04:04.15	322.39	16.56	-24.1	-25.3	17.5	0.00e+00	0	43	0	1460666368	8	4142
2026-01-01 05:04:05.15	322.17	16.55	-24.3	-25.7	17.3	0.00e+00	0	43	0	1466957824	8	4257
2026-01-01 05:04:06.15	321.94	16.55	-24.2	-25.6	17.4	0.00e+00	0	43	0	1472200704	8	4208
2026-01-01 05:04:07.16	321.72	16.54	-24.2	-25.6	17.4	0.00e+00	0	43	0	1477443584	8	4215
2026-01-01 05:04:08.16	321.50	16.53	-24.2	-25.6	17.4	0.00e+00	0	43	0	1483735040	8	4228
2026-01-01 05:04:09.17	321.27	16.53	-24.2	-25.6	17.3	0.00e+00	0	43	0	1488977920	8	4225
2026-01-01 05:04:10.17	321.05	16.52	-24.3	-25.8	17.2	0.00e+00	0	43	0	1495269376	8	4278
2026-01-01 05:04:11.18	320.82	16.51	-24.2	-25.6	17.3	0.00e+00	0	43	0	1500512256	8	4213
2026-01-01 05:04:12.19	320.60	16.51	-24.2	-25.6	17.4	0.00e+00	0	43	0	1505755136	8	4213
2026-01-01 05:04:13.19	320.38	16.50	-24.3	-25.7	17.3	0.00e+00	0	43	0	1512046592	8	4238
2026-01-01 05:04:14.19	320.16	16.49	-24.1	-25.4	17.5	0.00e+00	0	43	0	1517289472	8	4171
2026-01-01 05:04:15.19	319.93	16.48	-24.2	-25.6	17.3	0.00e+00	0	43	0	1522532352	8	4227
2026-01-01 05:04:16.20	319.71	16.47	-24.0	-25.2	17.6	0.00e+00	0	43	0	1528823808	8	4111
2026-01-01 05:04:17.20	319.49	16.46	-23.9	-24.8	17.8	0.00e+00	0	43	0	1534066688	8	4027
2026-01-01 05:04:18.21	319.26	16.45	-23.8	-24.8	17.8	0.00e+00	0	43	0	1540358144	8	4007
2026-01-01 05:04:19.20	319.04	16.44	-23.8	-25.3	17.8	0.00e+00	0	43	0	1545601024	7	4254
2026-01-01 05:04:20.21	318.82	16.43	-23.9	-25.4	17.6	0.00e+00	0	43	0	1550843904	7	4297
2026-01-01 05:04:21.21	318.60	16.42	-24.0	-25.6	17.6	0.00e+00	0	43	0	1557135360	7	4339
2026-01-01 05:04:22.21	318.38	16.41	-24.1	-25.4	17.4	0.00e+00	0	43	0	1562378240	8	4177
2026-01-01 05:04:23.21	318.16	16.39	-24.2	-25.5	17.4	0.00e+00	0	43	0	1567621120	8	4188
2026-01-01 05:04:24.21	317.94	16.38	-24.0	-25.2	17.6	0.00e+00	0	43	0	1573912576	8	4114
2026-01-01 05:04:25.22	317.71	16.37	-23.9	-25.0	17.7	0.00e+00	0	43	0	1579155456	8	4059
2026-01-01 05:04:26.22	317.49	16.35	-24.0	-25.0	17.7	0.00e+00	0	43	0	1584398336	8	4070
2026-01-01 05:04:27.23	317.27	16.34	-24.0	-25.1	17.6	0.00e+00	0	43	0	1590689792	8	4093
2026-01-01 05:04:28.23	317.05	16.33	-24.0	-25.1	17.6	0.00e+00	0	43	0	1595932672	8	4084
2026-01-01 05:04:29.24	316.83	16.31	-23.9	-24.9	17.7	0.00e+00	0	43	0	1602224128	8	4034
2026-01-01 05:04:30.25	316.61	16.29	-23.9	-25.0	17.7	0.00e+00	0	43	0	1607467008	8	4067
2026-01-01 05:04:31.25	316.39	16.28	-24.0	-25.1	17.6	0.00e+00	0	43	0	1613758464	8	4095
2026-01-01 05:04:32.25	316.17	16.26	-24.0	-25.1	17.6	0.00e+00	0	43	0	1619001344	8	4098
2026-01-01 05:04:33.25	315.95	16.25	-24.0	-25.2	17.6	0.00e+00	0	43	0	1624244224	8	4117
2026-01-01 05:04:34.25	315.73	16.23	-24.1	-25.3	17.5	0.00e+00	0	43	0	1630535680	8	4152
2026-01-01 05:04:35.25	315.52	16.21	-24.2	-25.5	17.4	0.00e+00	0	43	0	1635778560	8	4196
2026-01-01 05:04:36.25	315.30	16.19	-23.1	-24.4	17.5	0.00e+00	0	43	0	1641021440	8	4149
2026-01-01 05:04:37.25	315.08	16.18	-23.6	-24.7	14.5	0.00e+00	0	43	0	1647312896	8	4086
2026-01-01 05:04:38.25	314.86	16.16	-24.0	-25.2	14.3	0.00e+00	0	43	0	1652555776	8	4125
2026-01-01 05:04:39.25	314.65	16.14	-23.9	-25.0	17.6	0.00e+00	0	43	0	1657798656	8	4066
2026-01-01 05:04:40.25	314.43	16.12	-24.0	-25.1	17.5	0.00e+00	0	43	0	1664090112	8	4088
2026-01-01 05:04:41.26	314.21	16.10	-23.8	-25.2	17.8	0.00e+00	0	43	0	1669332992	7	4239
2026-01-01 05:04:42.26	313.99	16.08	-23.7	-25.0	17.8	0.00e+00	0	43	0	1675624448	7	4195
2026-01-01 05:04:43.27	313.78	16.06	-23.8	-25.2	17.8	8.34e-04	0	43	0	1680867328	7	4236
2026-01-01 05:04:44.27	313.56	16.04	-24.0	-25.2	17.5	0.00e+00	0	43	0	1687158784	8	4133
2026-01-01 05:04:45.28	313.34	16.02	-23.9	-25.6	17.5	3.62e-04	0	43	0	1692401664	7	4347
2026-01-01 05:04:46.28	313.13	15.99	-24.0	-25.3	17.4	0.00e+00	0	43	0	1697644544	8	4165
2026-01-01 05:04:47.28	312.91	15.97	-24.1	-25.5	17.3	1.58e-03	0	43	0	1703936000	8	4220
2026-01-01 05:04:48.28	312.70	15.95	-24.2	-25.7	17.2	0.00e+00	0	43	0	1709178880	8	4258
2026-01-01 05:04:49.28	312.48	15.93	-24.2	-25.5	17.3	0.00e+00	0	43	0	1714421760	8	4191
2026-01-01 05:04:50.28	312.27	15.90	-24.1	-25.4	17.4	1.12e-03	0	43	0	1720713216	8	4180
2026-01-01 05:04:51.28	312.06	15.88	-24.2	-25.6	17.3	0.00e+00	0	43	0	1725956096	8	4216
2026-01-01 05:04:52.28	311.84	15.85	-24.3	-25.9	17.2	7.79e-04	0	43	0	1731198976	8	4296
2026-01-01 05:04:53.29	311.63	15.83	-24.1	-25.4	17.4	0.00e+00	0	43	0	1737490432	8	4181
2026-01-01 05:04:54.29	311.42	15.80	-24.2	-25.6	17.3	1.40e-04	0	43	0	1742733312	8	4227
2026-01-01 05:04:55.29	311.21	15.78	-24.1	-25.5	17.4	1.07e-03	0	43	0	1749024768	8	4192
2026-01-01 05:04:56.29	310.99	15.75	-24.2	-25.6	17.3	0.00e+00	0	43	0	1754267648	8	4218
2026-01-01 05:04:57.30	310.78	15.73	-24.2	-25.6	17.3	2.62e-04	0	43	0	1759510528	8	4232
2026-01-01 05:04:58.30	310.57	15.70	-24.2	-25.7	17.2	0.00e+00	0	43	0	1765801984	8	4241
2026-01-01 05:04:59.30	310.36	15.67	-24.3	-25.8	17.2	1.18e-03	0	43	0	1771044864	8	4266
2026-01-01 05:05:00.30	310.15	15.65	-24.4	-26.0	17.1	2.59e-04	0	43	0	1776287744	8	4332
2026-01-01 05:05:01.31	309.94	15.62	-24.7	-26.1	16.8	1.12e-03	0	43	0	1782579200	9	4230
2026-01-01 05:05:02.32	309.73	15.59	-24.8	-26.4	16.6	1.07e-03	0	43	0	1787822080	9	4322
2026-01-01 05:05:03.32	309.52	15.56	-24.4	-25.6	17.0	1.81e-04	0	43	0	1794113536	9	4109
2026-01-01 05:05:04.31	309.31	15.54	-24.2	-25.6	17.3	1.13e-03	0	43	0	1799356416	8	4229
2026-01-01 05:05:05.31	309.10	15.51	-24.1	-25.3	17.4	0.00e+00	0	43	0	1804599296	8	4152
2026-01-01 05:05:06.31	308.89	15.48	-24.1	-25.3	17.4	1.40e-04	0	43	0	1810890752	8	4150
2026-01-01 05:05:07.32	308.68	15.45	-24.2	-25.6	17.3	1.29e-03	0	43	0	1816133632	8	4219
2026-01-01 05:05:08.33	308.48	15.42	-24.3	-25.8	17.2	1.20e-03	0	43	0	1822425088	8	4274
2026-01-01 05:05:09.33	308.27	15.39	-24.3	-25.8	17.1	1.66e-04	0	43	0	1827667968	8	4282
2026-01-01 05:05:10.34	308.06	15.36	-24.3	-25.7	17.2	1.17e-03	0	43	0	1832910848	8	4255
2026-01-01 05:05:11.33	307.86	15.33	-24.2	-25.6	17.3	1.07e-03	0	43	0	1839202304	8	4229
2026-01-01 05:05:12.33	307.65	15.30	-24.2	-25.6	17.2	0.00e+00	0	43	0	1844445184	8	4218
2026-01-01 05:05:13.34	307.44	15.26	-24.2	-25.7	17.2	1.16e-03	0	43	0	1849688064	8	4237
2026-01-01 05:05:14.33	307.24	15.23	-24.4	-25.9	17.1	1.38e-03	0	43	0	1855979520	8	4298
2026-01-01 05:05:15.33	307.04	15.20	-24.4	-26.1	17.0	1.57e-04	0	43	0	1861222400	8	4364
2026-01-01 05:05:16.34	306.83	15.17	-24.5	-25.8	16.9	1.36e-03	0	43	0	1866465280	9	4164
2026-01-01 05:05:17.35	306.63	15.13	-24.6	-25.9	16.8	0.00e+00	0	43	0	1872756736	9	4188
2026-01-01 05:05:18.35	306.43	15.10	-24.4	-25.4	17.1	8.46e-05	0	43	0	1877999616	9	4059
2026-01-01 05:05:19.36	306.22	15.07	-24.3	-25.4	17.1	0.00e+00	0	43	0	1884291072	9	4050
2026-01-01 05:05:20.36	306.02	15.03	-24.4	-25.5	17.0	1.20e-03	0	43	0	1889533952	9	4074
2026-01-01 05:05:21.37	305.82	15.00	-24.5	-25.7	16.9	0.00e+00	0	43	0	1894776832	9	4132
2026-01-01 05:05:22.37	305.62	14.96	-24.5	-25.7	16.9	1.34e-03	0	43	0	1901068288	9	4136
2026-01-01 05:05:23.38	305.41	14.93	-24.5	-25.8	16.9	1.59e-03	0	43	0	1906311168	9	4167
2026-01-01 05:05:24.38	305.21	14.89	-24.5	-25.8	16.9	0.00e+00	0	43	0	1912602624	9	4170
2026-01-01 05:05:25.39	305.01	14.86	-24.6	-25.9	16.8	1.60e-03	0	43	0	1917845504	9	4201
2026-01-01 05:05:26.39	304.81	14.82	-24.5	-25.8	16.9	0.00e+00	0	43	0	1923088384	9	4156
2026-01-01 05:05:27.39	304.61	14.79	-24.4	-25.4	17.1	7.09e-05	0	43	0	1929379840	9	4072
2026-01-01 05:05:28.39	304.42	14.75	-24.3	-25.8	17.1	0.00e+00	0	43	0	1934622720	8	4273
2026-01-01 05:05:29.39	304.22	14.71	-24.3	-25.8	17.1	0.00e+00	0	43	0	1939865600	8	4282
2026-01-01 05:05:30.39	304.02	14.68	-25.0	-26.3	16.9	6.80e-06	0	43	0	1946157056	9	4175
2026-01-01 05:05:31.39	303.83	14.64	-24.6	-26.0	16.7	0.00e+00	0	43	0	1951399936	9	4213
2026-01-01 05:05:32.39	303.63	14.60	-24.5	-25.7	16.9	1.38e-03	0	43	0	1957691392	9	4146
2026-01-01 05:05:33.39	303.43	14.57	-24.5	-25.6	16.9	1.10e-06	0	43	0	1962934272	9	4120
2026-01-01 05:05:34.39	303.24	14.53	-24.5	-25.7	16.9	0.00e+00	0	43	0	1968177152	9	4132
2026-01-01 05:05:35.40	303.04	14.49	-24.5	-25.8	16.9	0.00e+00	0	43	0	1974468608	9	4164
2026-01-01 05:05:36.40	302.85	14.45	-24.7	-26.1	16.7	0.00e+00	0	43	0	1979711488	9	4234
2026-01-01 05:05:37.40	302.66	14.41	-24.7	-26.1	16.7	0.00e+00	0	43	0	1984954368	9	4243
2026-01-01 05:05:38.41	302.46	14.37	-24.7	-26.1	16.7	0.00e+00	0	43	0	1991245824	9	4247
2026-01-01 05:05:39.41	302.27	14.33	-24.7	-26.2	16.6	3.40e-06	0	43	0	1996488704	9	4268
2026-01-01 05:05:40.42	302.07	14.29	-24.7	-26.0	16.7	0.00e+00	0	43	0	2002780160	9	4229
2026-01-01 05:05:41.43	301.88	14.25	-24.7	-26.1	16.7	0.00e+00	0	43	0	2008023040	9	4239
2026-01-01 05:05:42.43	301.69	14.21	-24.8	-26.3	16.6	1.10e-06	0	43	0	2013265920	9	4293
2026-01-01 05:05:43.43	301.50	14.17	-24.7	-26.1	16.7	0.00e+00	0	43	0	2019557376	9	4240
2026-01-01 05:05:44.44	301.31	14.13	-24.6	-26.0	16.7	0.00e+00	0	43	0	2024800256	9	4217
2026-01-01 05:05:45.44	301.12	14.09	-24.6	-26.0	16.7	2.20e-06	0	43	0	2031091712	9	4213
2026-01-01 05:05:46.44	300.93	14.05	-24.6	-25.9	16.8	0.00e+00	0	43	0	2036334592	9	4190
2026-01-01 05:05:47.44	300.74	14.01	-24.6	-25.9	16.8	0.00e+00	0	43	0	2041577472	9	4195
2026-01-01 05:05:48.45	300.55	13.97	-24.5	-25.7	16.8	0.00e+00	0	43	0	2047868928	9	4147
2026-01-01 05:05:49.45	300.37	13.93	-24.6	-26.1	16.7	0.00e+00	0	43	0	2053111808	9	4233
2026-01-01 05:05:50.46	300.18	13.88	-24.8	-26.3	16.5	0.00e+00	0	43	0	2058354688	9	4291
2026-01-01 05:05:51.46	299.99	13.84	-24.9	-26.5	16.4	0.00e+00	0	43	0	2064646144	9	4354
2026-01-01 05:05:52.46	299.81	13.80	-24.9	-26.5	16.4	0.00e+00	0	43	0	2069889024	9	4364
2026-01-01 05:05:53.46	299.62	13.76	-24.8	-26.4	16.5	0.00e+00	0	43	0	2075131904	9	4336
2026-01-01 05:05:54.47	299.43	13.71	-24.9	-26.5	16.4	0.00e+00	0	43	0	2081423360	9	4348
2026-01-01 05:05:55.48	299.25	13.67	-24.8	-26.5	16.4	0.00e+00	0	43	0	2086666240	9	4337
2026-01-01 05:05:56.48	299.06	13.63	-24.9	-26.7	16.3	0.00e+00	0	43	0	2092957696	9	4394
2026-01-01 05:05:57.48	298.88	13.58	-25.0	-26.4	16.2	0.00e+00	0	43	0	2098200576	10	4210
2026-01-01 05:05:58.49	298.70	13.54	-24.8	-25.9	16.5	0.00e+00	0	43	0	2104492032	10	4091
2026-01-01 05:05:59.49	298.52	13.50	-24.8	-26.4	16.5	0.00e+00	0	43	0	2109734912	9	4315
2026-01-01 05:06:00.49	298.33	13.45	-24.8	-26.3	16.5	0.00e+00	0	43	0	2114977792	9	4309
2026-01-01 05:06:01.50	298.15	13.41	-24.6	-26.0	16.7	0.00e+00	0	43	0	2121269248	9	4231
2026-01-01 05:06:02.50	297.97	13.36	-24.6	-26.0	16.7	0.00e+00	0	43	0	2126512128	9	4206
2026-01-01 05:06:03.50	297.79	13.32	-24.6	-26.0	16.7	0.00e+00	0	43	0	2131755008	9	4227
2026-01-01 05:06:04.50	297.61	13.27	-24.6	-26.0	16.7	0.00e+00	0	43	0	2138046464	9	4220
2026-01-01 05:06:05.50	297.43	13.23	-24.7	-26.2	16.5	0.00e+00	0	43	0	2143289344	9	4277
2026-01-01 05:06:06.51	297.26	13.18	-24.8	-26.3	16.5	0.00e+00	0	43	0	2149580800	9	4307
2026-01-01 05:06:07.51	297.08	13.14	-24.7	-26.3	16.5	0.00e+00	0	43	0	2154823680	9	4289
2026-01-01 05:06:08.51	296.90	13.09	-24.8	-26.4	16.5	0.00e+00	0	43	0	2160066560	9	4315
2026-01-01 05:06:09.52	296.72	13.04	-24.8	-26.3	16.5	0.00e+00	0	43	0	2166358016	9	4297
2026-01-01 05:06:10.52	296.55	13.00	-24.8	-26.3	16.5	0.00e+00	0	43	0	2171600896	9	4289
2026-01-01 05:06:11.52	296.37	12.95	-24.8	-26.3	16.5	0.00e+00	0	43	0	2177892352	9	4289
2026-01-01 05:06:12.53	296.20	12.91	-25.0	-26.4	16.2	0.00e+00	0	43	0	2183135232	10	4205
2026-01-01 05:06:13.54	296.02	12.86	-25.1	-26.6	16.0	0.00e+00	0	43	0	2188378112	10	4277
2026-01-01 05:06:14.54	295.85	12.81	-25.2	-26.7	16.0	0.00e+00	0	43	0	2194669568	10	4284
2026-01-01 05:06:15.54	295.67	12.77	-25.2	-26.8	16.0	0.00e+00	0	43	0	2199912448	10	4316
2026-01-01 05:06:16.54	295.50	12.72	-25.2	-26.7	16.0	0.00e+00	0	43	0	2205155328	10	4293
2026-01-01 05:06:17.54	295.33	12.67	-25.1	-26.6	16.0	0.00e+00	0	43	0	2211446784	10	4281
2026-01-01 05:06:18.55	295.16	12.62	-25.1	-26.5	16.1	0.00e+00	0	43	0	2216689664	10	4248
2026-01-01 05:06:19.55	294.99	12.58	-25.1	-26.6	16.1	0.00e+00	0	43	0	2222981120	10	4254
2026-01-01 05:06:20.55	294.82	12.53	-25.1	-26.6	16.1	0.00e+00	0	43	0	2228224000	10	4252
2026-01-01 05:06:21.55	294.65	12.48	-25.1	-26.5	16.1	0.00e+00	0	43	0	2233466880	10	4240
2026-01-01 05:06:22.56	294.47	12.43	-25.2	-26.7	16.0	0.00e+00	0	43	0	2239758336	10	4297
2026-01-01 05:06:23.56	294.31	12.38	-25.3	-27.1	15.8	0.00e+00	0	43	0	2245001216	10	4409
2026-01-01 05:06:24.57	294.14	12.33	-24.8	-26.4	15.5	0.00e+00	0	43	0	2250244096	10	4327
2026-01-01 05:06:25.57	293.97	12.29	-25.1	-26.5	13.4	0.00e+00	0	43	0	2256535552	10	4243
2026-01-01 05:06:26.57	293.80	12.24	-25.0	-26.4	16.1	0.00e+00	0	43	0	2261778432	10	4212
2026-01-01 05:06:27.58	293.63	12.19	-25.1	-26.5	16.1	0.00e+00	0	43	0	2268069888	10	4239
2026-01-01 05:06:28.58	293.47	12.14	-25.2	-26.8	15.9	0.00e+00	0	43	0	2273312768	10	4321
2026-01-01 05:06:29.59	293.30	12.09	-25.2	-26.7	15.9	2.40e-04	0	43	0	2278555648	10	4304
2026-01-01 05:06:30.59	293.14	12.04	-25.2	-26.9	15.8	0.00e+00	0	43	0	2284847104	10	4346
2026-01-01 05:06:31.59	292.97	11.99	-25.2	-26.8	15.9	7.28e-04	0	43	0	2290089984	10	4333
2026-01-01 05:06:32.59	292.81	11.94	-25.3	-26.9	15.8	0.00e+00	0	43	0	2296381440	10	4359
2026-01-01 05:06:33.59	292.65	11.89	-25.3	-26.9	15.8	3.02e-04	0	43	0	2301624320	10	4354
2026-01-01 05:06:34.58	292.49	11.84	-25.2	-26.8	15.9	0.00e+00	0	43	0	2306867200	10	4309
2026-01-01 05:06:35.58	292.32	11.79	-25.3	-26.9	15.8	0.00e+00	0	43	0	2313158656	10	4339
2026-01-01 05:06:36.58	292.16	11.74	-25.4	-27.1	15.7	1.82e-04	0	43	0	2318401536	10	4405
2026-01-01 05:06:37.58	292.00	11.69	-25.3	-27.1	15.7	0.00e+00	0	43	0	2323644416	10	4394
2026-01-01 05:06:38.59	291.84	11.64	-25.4	-27.2	15.6	1.10e-06	0	43	0	2329935872	10	4434
2026-01-01 05:06:39.59	291.68	11.59	-25.4	-26.8	15.6	0.00e+00	0	43	0	2335178752	11	4222
2026-01-01 05:06:40.59	291.52	11.54	-25.4	-27.3	15.6	7.95e-04	0	43	0	2340421632	10	4461
2026-01-01 05:06:41.59	291.36	11.49	-25.3	-27.1	15.7	2.86e-05	0	43	0	2346713088	10	4406
2026-01-01 05:06:42.59	291.21	11.44	-25.5	-27.3	15.5	0.00e+00	0	43	0	2351955968	10	4474
2026-01-01 05:06:43.60	291.05	11.39	-25.3	-26.6	15.7	1.15e-03	0	43	0	2358247424	11	4149
2026-01-01 05:06:44.61	290.89	11.34	-25.1	-26.1	16.0	0.00e+00	0	43	0	2363490304	11	4025
2026-01-01 05:06:45.61	290.73	11.29	-25.0	-26.4	16.0	1.18e-03	0	43	0	2368733184	10	4216
2026-01-01 05:06:46.61	290.58	11.24	-25.2	-26.7	15.9	1.22e-03	0	43	0	2375024640	10	4294
2026-01-01 05:06:47.61	290.42	11.19	-25.2	-26.8	15.8	0.00e+00	0	43	0	2380267520	10	4320
2026-01-01 05:06:48.62	290.27	11.13	-25.3	-26.9	15.7	1.33e-03	0	43	0	2385510400	10	4365
2026-01-01 05:06:49.62	290.11	11.08	-25.2	-26.9	15.8	0.00e+00	0	43	0	2391801856	10	4349
2026-01-01 05:06:50.62	289.96	11.03	-25.3	-27.0	15.7	0.00e+00	0	43	0	2397044736	10	4372
2026-01-01 05:06:51.62	289.80	10.98	-25.2	-26.8	15.8	0.00e+00	0	43	0	2402287616	10	4335
2026-01-01 05:06:52.62	289.65	10.93	-25.2	-26.8	15.8	1.52e-03	0	43	0	2408579072	10	4321
2026-01-01 05:06:53.62	289.50	10.88	-25.2	-26.8	15.8	1.10e-06	0	43	0	2413821952	10	4323
2026-01-01 05:06:54.62	289.35	10.83	-25.2	-26.9	15.7	1.45e-03	0	43	0	2420113408	10	4348
2026-01-01 05:06:55.62	289.20	10.77	-25.3	-27.0	15.6	1.28e-03	0	43	0	2425356288	10	4375
2026-01-01 05:06:56.63	289.05	10.72	-25.4	-27.2	15.6	0.00e+00	0	43	0	2431647744	10	4433
2026-01-01 05:06:57.63	288.90	10.67	-25.5	-27.4	15.4	1.21e-03	0	43	0	2436890624	10	4495
2026-01-01 05:06:58.64	288.75	10.62	-25.7	-27.3	15.2	0.00e+00	0	43	0	2442133504	11	4370
2026-01-01 05:06:59.64	288.60	10.57	-25.7	-27.4	15.1	0.00e+00	0	43	0	2448424960	11	4395
2026-01-01 05:07:00.64	288.45	10.51	-25.7	-27.4	15.1	8.82e-04	0	43	0	2453667840	11	4391
2026-01-01 05:07:01.65	288.30	10.46	-25.8	-27.6	15.0	1.07e-03	0	43	0	2458910720	11	4428
2026-01-01 05:07:02.65	288.15	10.41	-25.8	-27.6	15.0	0.00e+00	0	43	0	2465202176	11	4448
2026-01-01 05:07:03.66	288.01	10.35	-25.8	-27.7	15.0	0.00e+00	0	43	0	2470445056	11	4455
2026-01-01 05:07:04.66	287.86	10.30	-25.8	-27.6	15.0	1.04e-03	0	43	0	2475687936	11	4437
2026-01-01 05:07:05.66	287.71	10.25	-25.8	-27.7	14.9	0.00e+00	0	43	0	2481979392	11	4461
2026-01-01 05:07:06.66	287.57	10.20	-25.9	-27.9	14.8	9.06e-04	0	43	0	2487222272	11	4535
2026-01-01 05:07:07.66	287.42	10.14	-25.9	-27.8	14.9	6.73e-04	0	43	0	2493513728	11	4507
2026-01-01 05:07:08.66	287.28	10.09	-25.8	-27.8	14.9	0.00e+00	0	43	0	2498756608	11	4487
2026-01-01 05:07:09.66	287.14	10.04	-25.8	-27.7	14.9	2.87e-04	0	43	0	2503999488	11	4478
2026-01-01 05:07:10.66	286.99	9.99	-25.8	-27.7	14.9	0.00e+00	0	43	0	2510290944	11	4469
2026-01-01 05:07:11.67	286.85	9.93	-25.9	-27.9	14.8	1.48e-04	0	43	0	2515533824	11	4535
2026-01-01 05:07:12.67	286.71	9.88	-25.8	-27.1	14.9	0.00e+00	0	43	0	2521825280	12	4183
2026-01-01 05:07:13.68	286.57	9.83	-25.9	-27.8	14.8	1.58e-03	0	43	0	2527068160	11	4508
2026-01-01 05:07:14.68	286.43	9.77	-25.8	-27.6	14.9	0.00e+00	0	43	0	2532311040	11	4435
2026-01-01 05:07:15.68	286.29	9.72	-25.7	-27.5	15.0	0.00e+00	0	43	0	2538602496	11	4422
2026-01-01 05:07:16.68	286.15	9.67	-25.9	-27.9	14.7	1.63e-03	0	43	0	2543845376	11	4543
2026-01-01 05:07:17.68	286.01	9.61	-26.0	-28.0	14.6	0.00e+00	0	43	0	2549088256	11	4573
2026-01-01 05:07:18.68	285.87	9.56	-25.9	-27.5	14.6	1.57e-03	0	43	0	2555379712	12	4318
2026-01-01 05:07:19.68	285.73	9.51	-25.9	-27.9	14.7	0.00e+00	0	43	0	2560622592	11	4528
2026-01-01 05:07:20.68	285.59	9.45	-25.9	-28.0	14.7	0.00e+00	0	43	0	2566914048	11	4558
2026-01-01 05:07:21.68	285.46	9.40	-25.8	-27.8	14.8	0.00e+00	0	43	0	2572156928	11	4497
2026-01-01 05:07:22.69	285.32	9.35	-25.7	-27.4	15.0	0.00e+00	0	43	0	2577399808	11	4375
2026-01-01 05:07:23.69	285.18	9.29	-25.8	-27.6	14.9	0.00e+00	0	43	0	2583691264	11	4432
2026-01-01 05:07:24.69	285.05	9.24	-25.8	-27.6	14.9	0.00e+00	0	43	0	2588934144	11	4445
2026-01-01 05:07:25.69	284.91	9.19	-25.9	-27.8	14.7	8.33e-04	0	43	0	2594177024	11	4514
2026-01-01 05:07:26.70	284.77	9.13	-25.8	-27.7	14.8	0.00e+00	0	43	0	2600468480	11	4477
2026-01-01 05:07:27.70	284.64	9.08	-25.9	-28.0	14.6	0.00e+00	0	43	0	2605711360	11	4551
2026-01-01 05:07:28.70	284.51	9.02	-25.9	-27.4	14.6	0.00e+00	0	43	0	2610954240	12	4294
2026-01-01 05:07:29.71	284.37	8.97	-26.0	-28.1	14.5	1.10e-06	0	43	0	2617245696	11	4598
2026-01-01 05:07:30.71	284.24	8.92	-26.0	-28.1	14.6	0.00e+00	0	43	0	2622488576	11	4590
2026-01-01 05:07:31.71	284.11	8.86	-25.9	-27.9	14.7	0.00e+00	0	43	0	2628780032	11	4535
2026-01-01 05:07:32.72	283.98	8.81	-26.0	-27.6	14.5	1.10e-06	0	43	0	2634022912	12	4329
2026-01-01 05:07:33.72	283.84	8.75	-26.0	-27.8	14.3	0.00e+00	0	43	0	2640314368	12	4392
2026-01-01 05:07:34.72	283.71	8.70	-26.0	-27.7	14.3	0.00e+00	0	43	0	2645557248	12	4377
2026-01-01 05:07:35.72	283.58	8.65	-26.0	-27.8	14.3	0.00e+00	0	43	0	2650800128	12	4400
2026-01-01 05:07:36.72	283.45	8.59	-26.4	-28.5	13.9	1.10e-06	0	43	0	2657091584	12	4606
2026-01-01 05:07:37.73	283.32	8.54	-26.2	-28.2	14.1	0.00e+00	0	43	0	2662334464	12	4523
2026-01-01 05:07:38.73	283.19	8.48	-26.3	-28.2	14.0	3.40e-06	0	43	0	2667577344	12	4530
2026-01-01 05:07:39.74	283.07	8.43	-26.2	-28.1	14.1	2.20e-06	0	43	0	2673868800	12	4501
2026-01-01 05:07:40.74	282.94	8.38	-26.1	-28.0	14.2	0.00e+00	0	43	0	2679111680	12	4457
2026-01-01 05:07:41.74	282.81	8.32	-26.3	-28.4	13.9	1.10e-06	0	43	0	2684354560	12	4572
2026-01-01 05:07:42.74	282.68	8.27	-26.2	-28.1	14.1	1.10e-06	0	43	0	2690646016	12	4491
2026-01-01 05:07:43.75	282.56	8.21	-26.1	-28.0	14.2	1.10e-06	0	43	0	2695888896	12	4460
2026-01-01 05:07:44.75	282.43	8.16	-26.3	-28.3	14.0	1.10e-06	0	43	0	2702180352	12	4555
2026-01-01 05:07:45.75	282.31	8.10	-26.2	-28.2	14.0	1.10e-06	0	43	0	2707423232	12	4533
2026-01-01 05:07:46.76	282.18	8.05	-26.1	-28.0	14.2	2.20e-06	0	43	0	2712666112	12	4455
2026-01-01 05:07:47.77	282.05	7.99	-26.1	-28.0	14.2	1.10e-06	0	43	0	2718957568	12	4456
2026-01-01 05:07:48.77	281.93	7.94	-26.1	-27.9	14.2	0.00e+00	0	43	0	2724200448	12	4426
2026-01-01 05:07:49.78	281.81	7.89	-26.2	-28.2	14.0	0.00e+00	0	43	0	2730491904	12	4515
2026-01-01 05:07:50.78	281.68	7.83	-26.3	-28.3	13.9	2.20e-06	0	43	0	2735734784	12	4562
2026-01-01 05:07:51.78	281.56	7.78	-26.4	-28.6	13.8	6.80e-06	0	43	0	2740977664	12	4643
2026-01-01 05:07:52.79	281.44	7.72	-26.3	-28.3	13.9	1.10e-06	0	43	0	2747269120	12	4558
2026-01-01 05:07:53.79	281.32	7.67	-26.2	-28.1	14.1	2.20e-06	0	43	0	2752512000	12	4478
2026-01-01 05:07:54.80	281.19	7.61	-26.3	-28.3	13.9	0.00e+00	0	43	0	2757754880	12	4545
2026-01-01 05:07:55.81	281.07	7.56	-26.3	-28.3	13.9	2.20e-06	0	43	0	2764046336	12	4539
2026-01-01 05:07:56.81	280.95	7.51	-26.3	-28.3	13.9	2.20e-06	0	43	0	2769289216	12	4542
2026-01-01 05:07:57.81	280.83	7.45	-26.5	-28.3	13.6	1.02e-05	0	43	0	2775580672	13	4452
2026-01-01 05:07:58.82	280.71	7.40	-26.7	-28.8	13.3	5.70e-06	0	43	0	2780823552	13	4602
2026-01-01 05:07:59.82	280.59	7.34	-27.3	-29.7	12.4	6.75e-05	0	43	0	2787115008	14	4767
2026-01-01 05:08:00.82	280.47	7.29	-27.1	-29.4	12.6	7.78e-05	0	43	0	2792357888	14	4665
2026-01-01 05:08:01.83	280.36	7.23	-26.9	-28.8	13.0	2.86e-05	0	43	0	2797600768	14	4480
2026-01-01 05:08:02.83	280.24	7.18	-26.7	-28.8	13.2	1.14e-05	0	43	0	2803892224	13	4605
2026-01-01 05:08:03.83	280.12	7.12	-26.8	-29.0	13.1	2.17e-05	0	43	0	2809135104	13	4655
2026-01-01 05:08:04.84	280.00	7.07	-26.7	-28.8	13.2	1.37e-05	0	43	0	2814377984	13	4602
2026-01-01 05:08:05.84	279.89	7.02	-31.9	-42.2	3.8	6.08e-01	0	43	104	2818572288	24	11714
2026-01-01 05:08:06.85	279.77	6.96	-32.5	-43.6	3.8	8.46e-01	0	43	104	2818572288	25	12896

#Closed at: 2026-01-01 05:08:07
#Recorded file [2818 MB]: D:/data/31010_260101_075944.dat