passes_logs/2026/01/01/R2M6_AANII_01/R2M6_AANII_01__20260101_100025_NOAA_21_JPSS-2_rec.log

#Pass ID: 20260101_100025_NOAA 21 (JPSS-2)
#Satellite: NOAA 21 (JPSS-2)
#Configuration: NOAA 21
#almurnet v.1.7.20240730
#Start time: 2026-01-01 10:02:49

#Version: 2.2.20231116
#Station: R2M6_AANII_01
#Location: 30.233357 lon 59.946436 lat
#TLE: 1 54234U 22150A   25365.42224288  .00000199  00000+0  11529-3 0  9990
#TLE: 2 54234  98.7483 301.4995 0001320 356.2106   3.9060 14.19530300162743

#Time	Az	El	Level	Level2	SNR	BER	BlckErr	Temp	State	Recorded	gain1	gain2
2026-01-01 10:02:49.77	147.38	21.80	-33.1	-44.3	3.8	8.46e-01	0	43	0	0	26	13006
2026-01-01 10:02:50.75	147.34	21.93	-33.7	-45.3	3.8	1.49e+00	0	43	104	0	28	13658
2026-01-01 10:02:51.75	147.30	22.08	-33.8	-45.4	3.8	1.49e+00	0	43	104	0	28	13721
2026-01-01 10:02:52.74	147.26	22.22	-33.8	-45.5	3.8	1.49e+00	0	43	104	0	28	13802
2026-01-01 10:02:53.74	147.23	22.36	-33.8	-45.5	3.8	1.49e+00	0	43	104	0	28	13820
2026-01-01 10:02:54.73	147.19	22.50	-33.8	-45.5	3.8	1.49e+00	0	43	104	0	28	13789
2026-01-01 10:02:55.73	147.15	22.64	-33.9	-45.6	3.8	1.49e+00	0	43	104	0	28	13846
2026-01-01 10:02:56.73	147.11	22.79	-33.9	-45.6	3.8	1.49e+00	0	43	104	0	28	13912
2026-01-01 10:02:57.73	147.06	22.93	-33.9	-45.6	3.8	1.49e+00	0	43	104	0	28	13888
2026-01-01 10:02:58.72	147.02	23.08	-33.8	-45.5	3.8	1.49e+00	0	43	104	0	28	13857
2026-01-01 10:02:59.72	146.98	23.23	-33.8	-45.6	3.8	1.49e+00	0	43	104	0	28	13855
2026-01-01 10:03:00.71	146.94	23.37	-33.8	-45.5	3.8	1.49e+00	0	43	104	0	28	13804
2026-01-01 10:03:01.71	146.90	23.52	-33.8	-45.5	3.8	1.49e+00	0	43	104	0	28	13851
2026-01-01 10:03:02.70	146.85	23.67	-33.8	-45.5	3.8	1.49e+00	0	43	104	0	28	13839
2026-01-01 10:03:03.69	146.81	23.82	-33.8	-45.5	3.8	1.49e+00	0	43	104	0	28	13801
2026-01-01 10:03:04.68	146.77	23.97	-33.8	-45.5	3.8	1.49e+00	0	43	104	0	28	13856
2026-01-01 10:03:05.68	146.72	24.12	-33.8	-45.5	3.8	1.49e+00	0	43	104	0	28	13804
2026-01-01 10:03:06.68	146.68	24.27	-33.8	-45.5	3.8	1.49e+00	0	43	104	0	28	13846
2026-01-01 10:03:07.67	146.63	24.43	-33.8	-45.6	3.8	1.49e+00	0	43	104	0	28	13908
2026-01-01 10:03:08.66	146.59	24.58	-33.8	-45.5	3.8	1.49e+00	0	43	104	0	28	13864
2026-01-01 10:03:09.66	146.54	24.74	-33.8	-45.5	3.8	1.49e+00	0	43	104	0	28	13826
2026-01-01 10:03:10.66	146.50	24.89	-33.8	-45.5	3.8	1.49e+00	0	43	104	0	28	13864
2026-01-01 10:03:11.67	146.45	25.05	-33.8	-45.5	3.8	1.49e+00	0	43	104	0	28	13847
2026-01-01 10:03:12.67	146.40	25.21	-33.9	-45.6	3.8	1.49e+00	0	43	104	0	28	13912
2026-01-01 10:03:13.67	146.35	25.37	-33.9	-45.7	3.8	1.49e+00	0	43	104	0	28	13965
2026-01-01 10:03:14.67	146.30	25.53	-34.0	-45.8	3.8	1.49e+00	0	43	104	0	28	14027
2026-01-01 10:03:15.66	146.25	25.69	-33.9	-45.8	3.8	1.49e+00	0	43	104	0	28	14023
2026-01-01 10:03:16.65	146.20	25.85	-33.9	-45.7	3.8	1.49e+00	0	43	104	0	28	13981
2026-01-01 10:03:17.65	146.15	26.01	-33.9	-45.7	3.8	1.49e+00	0	43	104	0	28	13980
2026-01-01 10:03:18.65	146.10	26.18	-33.9	-45.6	3.8	1.49e+00	0	43	104	0	28	13876
2026-01-01 10:03:19.65	146.05	26.34	-33.8	-45.5	3.8	1.49e+00	0	43	104	0	28	13873
2026-01-01 10:03:20.64	146.00	26.51	-33.8	-45.4	3.8	1.49e+00	0	43	104	0	28	13709
2026-01-01 10:03:21.64	145.95	26.67	-33.7	-45.3	3.8	1.49e+00	0	43	104	0	28	13706
2026-01-01 10:03:22.64	145.89	26.84	-33.7	-45.2	3.8	1.49e+00	0	43	104	0	28	13581
2026-01-01 10:03:23.63	145.84	27.01	-33.6	-45.2	3.8	1.49e+00	0	43	104	0	28	13561
2026-01-01 10:03:24.64	145.79	27.18	-33.6	-45.0	3.8	1.49e+00	0	43	104	0	28	13346
2026-01-01 10:03:25.63	145.73	27.35	-33.5	-44.5	3.8	1.49e+00	0	43	104	0	28	12771
2026-01-01 10:03:26.63	145.68	27.52	-33.5	-44.8	3.8	1.49e+00	0	43	104	0	28	13322
2026-01-01 10:03:27.63	145.62	27.70	-33.5	-44.8	3.8	1.49e+00	0	43	104	0	28	13321
2026-01-01 10:03:28.63	145.56	27.87	-33.5	-44.8	3.8	1.49e+00	0	43	104	0	28	13282
2026-01-01 10:03:29.63	145.51	28.05	-33.4	-44.8	3.8	1.49e+00	0	43	104	0	28	13236
2026-01-01 10:03:30.62	145.45	28.22	-33.4	-44.4	3.8	1.49e+00	0	43	104	0	28	12792
2026-01-01 10:03:31.61	145.39	28.40	-33.4	-43.9	3.8	1.49e+00	0	43	104	0	28	12051
2026-01-01 10:03:32.61	145.33	28.58	-33.3	-43.6	3.8	1.49e+00	0	43	104	0	27	11706
2026-01-01 10:03:33.61	145.27	28.76	-33.2	-42.6	3.9	1.49e+00	0	43	104	0	27	10550
2026-01-01 10:03:34.60	145.21	28.94	-33.1	-41.8	3.9	1.48e+00	0	43	104	0	27	9769
2026-01-01 10:03:35.60	145.15	29.12	-33.0	-40.7	4.0	1.10e+00	0	43	104	0	27	8810
2026-01-01 10:03:36.60	145.08	29.30	-32.7	-39.1	5.3	1.26e+00	0	43	104	0	26	7496
2026-01-01 10:03:37.60	145.02	29.49	-32.1	-37.1	6.7	2.55e-01	0	43	0	1048576	25	6364
2026-01-01 10:03:38.59	144.96	29.67	-31.2	-34.9	9.0	3.73e-02	0	43	0	4194304	23	5461
2026-01-01 10:03:39.59	144.89	29.86	-30.1	-32.7	11.2	4.87e-03	0	43	0	7340032	21	4815
2026-01-01 10:03:40.58	144.83	30.04	-29.2	-31.1	12.9	1.75e-04	0	43	0	9437184	19	4502
2026-01-01 10:03:41.56	144.76	30.23	-28.5	-29.9	13.9	5.30e-06	0	43	0	12582912	18	4250
2026-01-01 10:03:42.56	144.70	30.42	-28.0	-29.4	14.5	7.00e-07	0	43	0	15728640	17	4200
2026-01-01 10:03:43.57	144.63	30.61	-28.1	-29.5	14.5	1.50e-06	0	43	0	18874368	17	4231
2026-01-01 10:03:44.57	144.56	30.80	-28.2	-29.7	14.3	1.50e-06	0	43	0	22020096	17	4286
2026-01-01 10:03:45.57	144.49	31.00	-27.9	-29.0	14.7	0.00e+00	0	43	0	25165824	17	4110
2026-01-01 10:03:46.56	144.42	31.19	-27.8	-29.3	14.8	0.00e+00	0	43	0	28311552	16	4279
2026-01-01 10:03:47.56	144.35	31.39	-27.7	-29.1	14.9	0.00e+00	0	43	0	31457280	16	4233
2026-01-01 10:03:48.56	144.27	31.58	-27.5	-28.7	15.2	0.00e+00	0	43	0	34603008	16	4110
2026-01-01 10:03:49.55	144.20	31.78	-27.4	-28.5	15.3	0.00e+00	0	43	0	37748736	16	4057
2026-01-01 10:03:50.55	144.13	31.98	-27.5	-28.6	15.3	0.00e+00	0	43	0	40894464	16	4084
2026-01-01 10:03:51.54	144.05	32.18	-27.6	-28.8	15.2	0.00e+00	0	43	0	44040192	16	4133
2026-01-01 10:03:52.54	143.98	32.38	-27.7	-29.2	15.0	0.00e+00	0	43	0	47185920	16	4245
2026-01-01 10:03:53.54	143.90	32.59	-27.9	-29.5	14.8	0.00e+00	0	43	0	50331648	16	4344
2026-01-01 10:03:54.54	143.82	32.79	-27.6	-28.9	15.1	2.20e-06	0	43	0	53477376	16	4182
2026-01-01 10:03:55.53	143.74	33.00	-27.5	-28.6	15.2	0.00e+00	0	43	0	56623104	16	4097
2026-01-01 10:03:56.53	143.66	33.21	-27.4	-28.4	15.3	0.00e+00	0	43	0	59768832	16	4042
2026-01-01 10:03:57.52	143.58	33.41	-27.4	-28.3	15.4	0.00e+00	0	43	0	62914560	16	4022
2026-01-01 10:03:58.52	143.50	33.63	-27.4	-28.3	15.4	0.00e+00	0	43	0	66060288	16	4007
2026-01-01 10:03:59.52	143.42	33.84	-27.4	-28.4	15.4	0.00e+00	0	43	0	69206016	16	4036
2026-01-01 10:04:00.51	143.33	34.05	-27.3	-28.3	15.5	0.00e+00	0	43	0	72351744	16	3997
2026-01-01 10:04:01.52	143.25	34.27	-27.4	-28.5	15.4	0.00e+00	0	43	0	75497472	16	4052
2026-01-01 10:04:02.52	143.16	34.48	-27.5	-28.6	15.3	0.00e+00	0	43	0	78643200	16	4099
2026-01-01 10:04:03.51	143.07	34.70	-27.6	-28.9	15.1	0.00e+00	0	43	0	81788928	16	4167
2026-01-01 10:04:04.52	142.98	34.92	-27.8	-29.2	15.0	0.00e+00	0	43	0	84934656	16	4263
2026-01-01 10:04:05.51	142.89	35.14	-27.9	-29.6	14.8	0.00e+00	0	43	0	88080384	16	4354
2026-01-01 10:04:06.50	142.80	35.36	-28.1	-30.0	14.6	0.00e+00	0	43	0	91226112	16	4468
2026-01-01 10:04:07.51	142.71	35.59	-28.3	-30.3	14.3	0.00e+00	0	43	0	94371840	16	4584
2026-01-01 10:04:08.51	142.61	35.81	-28.4	-30.6	14.2	2.20e-06	0	43	0	97517568	16	4663
2026-01-01 10:04:09.50	142.52	36.04	-28.4	-30.8	14.1	7.00e-07	0	43	0	100663296	16	4728
2026-01-01 10:04:10.49	142.42	36.26	-28.5	-30.5	14.0	3.00e-06	0	43	0	103809024	17	4511
2026-01-01 10:04:11.50	142.32	36.49	-28.6	-30.6	13.9	2.20e-06	0	43	0	106954752	17	4548
2026-01-01 10:04:12.50	142.22	36.72	-28.6	-30.6	13.9	4.50e-06	0	43	0	110100480	17	4545
2026-01-01 10:04:13.49	142.12	36.96	-28.7	-30.8	13.8	6.80e-06	0	43	0	113246208	17	4602
2026-01-01 10:04:14.49	142.02	37.19	-28.7	-30.9	13.7	8.30e-06	0	43	0	116391936	17	4645
2026-01-01 10:04:15.49	141.91	37.43	-28.8	-31.0	13.6	4.50e-06	0	43	0	118489088	17	4685
2026-01-01 10:04:16.48	141.81	37.66	-28.7	-30.8	13.8	6.80e-06	0	43	0	121634816	17	4615
2026-01-01 10:04:17.48	141.70	37.90	-28.7	-31.0	13.7	2.20e-06	0	43	0	124780544	17	4670
2026-01-01 10:04:18.49	141.59	38.14	-28.9	-31.3	13.5	7.60e-06	0	43	0	127926272	17	4776
2026-01-01 10:04:19.49	141.48	38.39	-28.9	-31.4	13.5	1.06e-05	0	43	0	131072000	17	4802
2026-01-01 10:04:20.49	141.36	38.63	-29.0	-31.2	13.3	1.83e-05	0	43	0	134217728	18	4618
2026-01-01 10:04:21.49	141.25	38.87	-29.2	-31.6	13.0	2.82e-05	0	43	0	137363456	18	4753
2026-01-01 10:04:22.49	141.13	39.12	-29.3	-31.8	12.9	5.95e-05	0	43	0	140509184	18	4838
2026-01-01 10:04:23.49	141.01	39.37	-29.1	-31.5	13.1	2.28e-05	0	43	0	143654912	18	4726
2026-01-01 10:04:24.49	140.89	39.62	-29.1	-31.3	13.2	1.52e-05	0	43	0	146800640	18	4669
2026-01-01 10:04:25.48	140.77	39.87	-28.9	-30.9	13.5	1.29e-05	0	43	0	149946368	18	4522
2026-01-01 10:04:26.49	140.65	40.13	-28.9	-30.9	13.5	9.90e-06	0	43	0	153092096	18	4514
2026-01-01 10:04:27.48	140.52	40.38	-28.9	-30.8	13.5	8.30e-06	0	43	0	156237824	18	4501
2026-01-01 10:04:28.48	140.40	40.64	-29.0	-31.1	13.4	1.37e-05	0	43	0	159383552	18	4589
2026-01-01 10:04:29.48	140.26	40.90	-29.0	-31.0	13.4	1.90e-05	0	43	0	162529280	18	4569
2026-01-01 10:04:30.46	140.14	41.15	-28.8	-30.7	13.7	6.10e-06	0	43	0	165675008	18	4452
2026-01-01 10:04:31.46	140.00	41.41	-28.8	-30.6	13.7	7.60e-06	0	43	0	168820736	18	4421
2026-01-01 10:04:32.46	139.86	41.68	-28.8	-30.7	13.6	3.80e-06	0	43	0	171966464	18	4469
2026-01-01 10:04:33.46	139.72	41.94	-29.0	-31.0	13.4	1.29e-05	0	43	0	175112192	18	4565
2026-01-01 10:04:34.46	139.58	42.21	-29.1	-31.4	13.2	2.28e-05	0	43	0	178257920	18	4695
2026-01-01 10:04:35.46	139.44	42.48	-29.2	-31.5	13.1	4.11e-05	0	43	0	181403648	18	4727
2026-01-01 10:04:36.46	139.29	42.75	-29.2	-31.5	13.1	2.44e-05	0	43	0	184549376	18	4722
2026-01-01 10:04:37.45	139.15	43.02	-29.2	-31.7	13.0	4.42e-05	0	43	0	187695104	18	4776
2026-01-01 10:04:38.45	138.99	43.29	-29.1	-31.4	13.2	3.05e-05	0	43	0	190840832	18	4687
2026-01-01 10:04:39.45	138.84	43.57	-29.2	-31.5	13.1	2.89e-05	0	43	0	193986560	18	4718
2026-01-01 10:04:40.45	138.68	43.85	-29.2	-31.6	13.1	3.05e-05	0	43	0	197132288	18	4728
2026-01-01 10:04:41.44	138.53	44.12	-29.1	-31.4	13.2	1.83e-05	0	43	0	200278016	18	4677
2026-01-01 10:04:42.43	138.36	44.40	-29.3	-31.7	13.0	3.05e-05	0	43	0	203423744	18	4794
2026-01-01 10:04:43.43	138.20	44.69	-29.4	-32.0	12.9	5.03e-05	0	43	0	206569472	18	4861
2026-01-01 10:04:44.43	138.03	44.97	-29.4	-32.0	12.9	4.11e-05	0	43	0	209715200	18	4881
2026-01-01 10:04:45.42	137.86	45.25	-29.6	-32.0	12.5	9.53e-05	0	43	0	212860928	19	4772
2026-01-01 10:04:46.42	137.69	45.54	-29.6	-32.0	12.6	1.61e-04	0	43	0	216006656	19	4763
2026-01-01 10:04:47.41	137.51	45.83	-29.2	-31.1	13.1	4.80e-05	0	43	0	219152384	19	4468
2026-01-01 10:04:48.41	137.33	46.12	-29.1	-30.8	13.4	2.36e-05	0	43	0	222298112	19	4367
2026-01-01 10:04:49.41	137.14	46.41	-29.1	-30.8	13.3	1.06e-05	0	43	0	225443840	19	4381
2026-01-01 10:04:50.40	136.96	46.71	-29.2	-31.0	13.2	2.36e-05	0	43	0	228589568	19	4428
2026-01-01 10:04:51.40	136.76	47.00	-29.3	-31.2	13.0	5.18e-05	0	43	0	230686720	19	4514
2026-01-01 10:04:52.39	136.57	47.30	-29.0	-30.4	13.6	1.52e-05	0	43	0	233832448	19	4277
2026-01-01 10:04:53.38	136.37	47.60	-28.9	-30.5	13.6	9.10e-06	0	43	0	236978176	19	4290
2026-01-01 10:04:54.38	136.17	47.90	-29.0	-30.6	13.5	1.22e-05	0	43	0	240123904	19	4326
2026-01-01 10:04:55.37	135.96	48.20	-28.8	-30.2	13.8	7.60e-06	0	43	0	243269632	19	4211
2026-01-01 10:04:56.37	135.75	48.51	-28.8	-30.7	13.7	5.30e-06	0	43	0	246415360	18	4457
2026-01-01 10:04:57.37	135.54	48.81	-28.8	-30.7	13.7	1.06e-05	0	43	0	249561088	18	4455
2026-01-01 10:04:58.37	135.32	49.12	-28.6	-30.1	14.1	5.30e-06	0	43	0	252706816	18	4287
2026-01-01 10:04:59.37	135.09	49.43	-28.6	-30.0	14.1	3.00e-06	0	43	0	255852544	18	4244
2026-01-01 10:05:00.35	134.87	49.74	-28.6	-30.2	14.0	1.50e-06	0	43	0	258998272	18	4309
2026-01-01 10:05:01.35	134.63	50.05	-28.7	-30.5	13.8	3.80e-06	0	43	0	262144000	18	4392
2026-01-01 10:05:02.35	134.39	50.37	-28.7	-30.5	13.9	2.20e-06	0	43	0	265289728	18	4402
2026-01-01 10:05:03.35	134.15	50.69	-28.5	-29.9	14.1	2.20e-06	0	43	0	268435456	18	4243
2026-01-01 10:05:04.34	133.90	51.00	-28.4	-29.7	14.3	4.50e-06	0	43	0	271581184	18	4184
2026-01-01 10:05:05.34	133.65	51.32	-28.6	-30.0	14.1	3.00e-06	0	43	0	274726912	18	4264
2026-01-01 10:05:06.34	133.39	51.64	-28.8	-30.6	13.8	3.00e-06	0	43	0	277872640	18	4420
2026-01-01 10:05:07.34	133.12	51.97	-28.9	-30.8	13.7	3.80e-06	0	43	0	281018368	18	4493
2026-01-01 10:05:08.34	132.85	52.29	-28.9	-31.0	13.6	1.52e-05	0	43	0	284164096	18	4541
2026-01-01 10:05:09.35	132.57	52.62	-28.5	-29.9	14.2	2.20e-06	0	43	0	287309824	18	4241
2026-01-01 10:05:10.34	132.28	52.95	-28.4	-29.6	14.4	7.00e-07	0	43	0	290455552	18	4151
2026-01-01 10:05:11.32	132.00	53.27	-28.4	-29.6	14.4	7.00e-07	0	43	0	293601280	18	4145
2026-01-01 10:05:12.32	131.70	53.60	-28.1	-29.4	14.8	0.00e+00	0	43	0	296747008	17	4198
2026-01-01 10:05:13.33	131.39	53.93	-28.1	-29.4	14.8	1.50e-06	0	43	0	299892736	17	4198
2026-01-01 10:05:14.32	131.08	54.26	-28.0	-29.2	14.8	0.00e+00	0	43	0	303038464	17	4141
2026-01-01 10:05:15.32	130.76	54.60	-27.8	-28.8	15.1	0.00e+00	0	43	0	306184192	17	4023
2026-01-01 10:05:16.32	130.44	54.93	-27.7	-28.9	15.3	1.50e-06	0	43	0	309329920	16	4166
2026-01-01 10:05:17.30	130.11	55.26	-27.7	-29.1	15.2	0.00e+00	0	43	0	312475648	16	4216
2026-01-01 10:05:18.30	129.77	55.60	-27.7	-29.0	15.4	0.00e+00	0	43	0	315621376	16	4177
2026-01-01 10:05:19.30	129.41	55.94	-27.3	-28.2	15.8	0.00e+00	0	43	0	318767104	16	3962
2026-01-01 10:05:20.29	129.06	56.28	-26.8	-27.5	16.2	0.00e+00	0	43	0	321912832	15	3909
2026-01-01 10:05:21.29	128.69	56.62	-27.0	-28.4	16.0	0.00e+00	0	43	0	325058560	14	4261
2026-01-01 10:05:22.29	128.31	56.96	-27.1	-28.7	15.8	3.80e-06	0	43	0	328204288	14	4343
2026-01-01 10:05:23.28	127.93	57.30	-27.0	-28.6	15.9	0.00e+00	0	43	0	331350016	14	4288
2026-01-01 10:05:24.28	127.53	57.64	-27.1	-28.7	15.9	0.00e+00	0	43	0	334495744	14	4313
2026-01-01 10:05:25.28	127.12	57.99	-27.3	-29.1	15.6	0.00e+00	0	43	0	337641472	14	4441
2026-01-01 10:05:26.27	126.71	58.33	-27.0	-28.5	16.0	0.00e+00	0	43	0	339738624	14	4271
2026-01-01 10:05:27.27	126.28	58.67	-26.7	-27.8	16.3	0.00e+00	0	43	0	342884352	14	4093
2026-01-01 10:05:28.27	125.84	59.02	-26.7	-27.8	16.3	0.00e+00	0	43	0	346030080	14	4086
2026-01-01 10:05:29.27	125.38	59.37	-26.8	-27.9	16.3	0.00e+00	0	43	0	349175808	14	4118
2026-01-01 10:05:30.26	124.92	59.71	-26.6	-27.7	16.4	0.00e+00	0	43	0	352321536	14	4042
2026-01-01 10:05:31.26	124.44	60.06	-27.0	-28.4	16.0	0.00e+00	0	43	0	355467264	14	4245
2026-01-01 10:05:32.26	123.95	60.40	-26.8	-28.0	16.2	0.00e+00	0	43	0	358612992	14	4148
2026-01-01 10:05:33.26	123.45	60.75	-26.9	-28.2	16.2	0.00e+00	0	43	0	361758720	14	4203
2026-01-01 10:05:34.26	122.93	61.09	-26.9	-28.2	16.1	0.00e+00	0	43	0	364904448	14	4192
2026-01-01 10:05:35.26	122.40	61.44	-26.3	-27.0	16.8	0.00e+00	0	43	0	368050176	14	3875
2026-01-01 10:05:36.25	121.85	61.78	-26.1	-26.9	17.1	0.00e+00	0	43	0	371195904	13	3952
2026-01-01 10:05:37.26	121.28	62.13	-26.1	-27.0	17.0	0.00e+00	0	43	0	374341632	13	3986
2026-01-01 10:05:38.26	120.70	62.47	-26.0	-26.8	17.2	0.00e+00	0	43	0	377487360	13	3924
2026-01-01 10:05:39.25	120.11	62.81	-25.9	-26.5	17.3	0.00e+00	0	43	0	380633088	13	3873
2026-01-01 10:05:40.25	119.50	63.16	-25.9	-26.5	17.3	0.00e+00	0	43	0	383778816	13	3872
2026-01-01 10:05:41.25	118.87	63.50	-25.9	-26.5	17.3	0.00e+00	0	43	0	386924544	13	3855
2026-01-01 10:05:42.25	118.22	63.84	-26.0	-26.7	17.2	0.00e+00	0	43	0	390070272	13	3916
2026-01-01 10:05:43.24	117.55	64.17	-25.9	-26.5	17.4	0.00e+00	0	43	0	393216000	13	3862
2026-01-01 10:05:44.24	116.86	64.51	-25.7	-26.6	17.5	0.00e+00	0	43	0	396361728	12	4004
2026-01-01 10:05:45.24	116.15	64.84	-25.9	-27.1	17.3	0.00e+00	0	43	0	399507456	12	4113
2026-01-01 10:05:46.23	115.43	65.17	-26.0	-27.3	17.1	0.00e+00	0	43	0	402653184	12	4183
2026-01-01 10:05:47.23	114.67	65.50	-25.9	-27.0	17.3	0.00e+00	0	43	0	405798912	12	4106
2026-01-01 10:05:48.22	113.90	65.83	-25.9	-27.0	17.3	0.00e+00	0	43	0	408944640	12	4084
2026-01-01 10:05:49.22	113.10	66.15	-25.8	-26.8	17.4	0.00e+00	0	43	0	412090368	12	4049
2026-01-01 10:05:50.21	112.29	66.47	-26.0	-27.3	17.2	0.00e+00	0	43	0	415236096	12	4179
2026-01-01 10:05:51.20	111.45	66.78	-25.9	-27.0	17.3	0.00e+00	0	43	0	418381824	12	4090
2026-01-01 10:05:52.19	110.58	67.10	-26.2	-27.8	16.9	0.00e+00	0	43	0	421527552	12	4296
2026-01-01 10:05:53.19	109.68	67.41	-26.1	-27.5	17.1	0.00e+00	0	43	0	424673280	12	4209
2026-01-01 10:05:54.18	108.76	67.71	-26.0	-27.2	17.3	0.00e+00	0	43	0	427819008	12	4131
2026-01-01 10:05:55.18	107.81	68.01	-26.1	-27.5	17.1	0.00e+00	0	43	0	430964736	12	4218
2026-01-01 10:05:56.18	106.82	68.31	-25.9	-27.1	17.2	0.00e+00	0	43	0	434110464	12	4119
2026-01-01 10:05:57.19	105.80	68.60	-25.8	-26.8	17.4	0.00e+00	0	43	0	437256192	12	4046
2026-01-01 10:05:58.19	104.75	68.89	-25.7	-26.5	17.6	0.00e+00	0	43	0	440401920	12	3977
2026-01-01 10:05:59.19	103.68	69.17	-25.8	-26.9	17.4	0.00e+00	0	43	0	443547648	12	4068
2026-01-01 10:06:00.19	102.57	69.45	-25.9	-27.0	17.3	0.00e+00	0	43	0	446693376	12	4102
2026-01-01 10:06:01.19	101.43	69.71	-26.0	-27.3	17.1	0.00e+00	0	43	0	449839104	12	4184
2026-01-01 10:06:02.19	100.26	69.98	-26.2	-27.6	17.0	0.00e+00	0	43	0	451936256	12	4260
2026-01-01 10:06:03.18	99.07	70.23	-26.4	-27.7	16.7	0.00e+00	0	43	0	455081984	13	4173
2026-01-01 10:06:04.18	97.83	70.47	-26.4	-27.6	16.8	0.00e+00	0	43	0	458227712	13	4137
2026-01-01 10:06:05.18	96.56	70.71	-26.2	-27.1	17.0	0.00e+00	0	43	0	461373440	13	4023
2026-01-01 10:06:06.17	95.27	70.94	-26.2	-27.1	17.0	0.00e+00	0	43	0	464519168	13	4026
2026-01-01 10:06:07.18	93.92	71.16	-26.3	-27.5	16.9	0.00e+00	0	43	0	467664896	13	4122
2026-01-01 10:06:08.18	92.56	71.37	-25.8	-26.3	17.4	0.00e+00	0	43	0	470810624	13	3830
2026-01-01 10:06:09.18	91.16	71.57	-25.7	-26.7	17.5	0.00e+00	0	43	0	473956352	12	4022
2026-01-01 10:06:10.18	89.72	71.76	-26.1	-27.4	17.1	0.00e+00	0	43	0	477102080	12	4204
2026-01-01 10:06:11.18	88.26	71.94	-26.4	-28.2	16.6	0.00e+00	0	43	0	480247808	12	4404
2026-01-01 10:06:12.18	86.76	72.11	-26.5	-27.9	16.6	0.00e+00	0	43	0	483393536	13	4239
2026-01-01 10:06:13.18	85.24	72.26	-26.2	-27.1	17.0	0.00e+00	0	43	0	486539264	13	4013
2026-01-01 10:06:14.18	83.69	72.41	-26.1	-27.0	17.1	0.00e+00	0	43	0	489684992	13	3986
2026-01-01 10:06:15.19	82.10	72.54	-26.2	-27.1	17.0	0.00e+00	0	43	0	492830720	13	4009
2026-01-01 10:06:16.19	80.50	72.66	-26.0	-26.8	17.2	0.00e+00	0	43	0	495976448	13	3939
2026-01-01 10:06:17.19	78.88	72.77	-25.8	-26.8	17.5	0.00e+00	0	43	0	499122176	12	4030
2026-01-01 10:06:18.19	77.23	72.86	-25.9	-27.0	17.3	0.00e+00	0	43	0	502267904	12	4083
2026-01-01 10:06:19.20	75.56	72.94	-25.3	-25.7	18.0	0.00e+00	0	43	0	505413632	12	3778
2026-01-01 10:06:20.19	73.90	73.01	-25.5	-26.7	17.8	0.00e+00	0	43	0	508559360	11	4110
2026-01-01 10:06:21.18	72.23	73.06	-26.1	-27.4	17.1	0.00e+00	0	43	0	511705088	12	4191
2026-01-01 10:06:22.17	70.55	73.10	-26.3	-27.8	16.8	0.00e+00	0	43	0	514850816	12	4309
2026-01-01 10:06:23.17	68.84	73.12	-26.2	-27.7	16.9	0.00e+00	0	43	0	517996544	12	4268
2026-01-01 10:06:24.17	67.14	73.13	-26.2	-27.7	17.0	0.00e+00	0	43	0	521142272	12	4262
2026-01-01 10:06:25.16	65.44	73.13	-26.5	-27.9	16.6	0.00e+00	0	43	0	524288000	13	4217
2026-01-01 10:06:26.16	63.74	73.11	-26.1	-27.0	17.1	0.00e+00	0	43	0	527433728	13	3985
2026-01-01 10:06:27.16	62.04	73.08	-25.7	-26.7	17.5	0.00e+00	0	43	0	530579456	12	4013
2026-01-01 10:06:28.16	60.35	73.03	-25.8	-26.8	17.4	0.00e+00	0	43	0	533725184	12	4049
2026-01-01 10:06:29.15	58.69	72.97	-25.8	-26.8	17.4	0.00e+00	0	43	0	536870912	12	4049
2026-01-01 10:06:30.15	57.02	72.89	-25.8	-26.9	17.4	0.00e+00	0	43	0	540016640	12	4052
2026-01-01 10:06:31.15	55.37	72.80	-26.0	-27.2	17.3	0.00e+00	0	43	0	543162368	12	4140
2026-01-01 10:06:32.15	53.74	72.70	-26.1	-27.5	17.1	0.00e+00	0	43	0	546308096	12	4211
2026-01-01 10:06:33.14	52.15	72.59	-26.4	-28.0	16.8	0.00e+00	0	43	0	549453824	12	4369
2026-01-01 10:06:34.14	50.56	72.46	-26.0	-27.2	17.2	0.00e+00	0	43	0	552599552	12	4148
2026-01-01 10:06:35.13	49.02	72.32	-26.0	-27.1	17.2	0.00e+00	0	43	0	555745280	12	4125
2026-01-01 10:06:36.14	47.47	72.17	-25.7	-26.6	17.6	1.50e-06	0	43	0	558891008	12	3986
2026-01-01 10:06:37.13	45.98	72.01	-25.9	-27.0	17.4	0.00e+00	0	43	0	562036736	12	4085
2026-01-01 10:06:38.13	44.51	71.83	-26.0	-27.2	17.3	0.00e+00	0	43	0	565182464	12	4129
2026-01-01 10:06:39.12	43.08	71.65	-26.2	-27.6	17.1	3.80e-06	0	43	0	567279616	12	4246
2026-01-01 10:06:40.12	41.66	71.45	-26.6	-28.0	16.5	0.00e+00	0	43	0	570425344	13	4251
2026-01-01 10:06:41.11	40.30	71.25	-26.2	-27.1	17.0	0.00e+00	0	43	0	573571072	13	4014
2026-01-01 10:06:42.11	38.95	71.03	-25.9	-26.5	17.3	8.30e-06	0	43	0	576716800	13	3864
2026-01-01 10:06:43.11	37.63	70.81	-25.9	-26.5	17.3	0.00e+00	0	43	0	579862528	13	3871
2026-01-01 10:06:44.10	36.36	70.58	-26.0	-26.8	17.1	0.00e+00	0	43	0	583008256	13	3947
2026-01-01 10:06:45.09	35.13	70.34	-25.9	-26.6	17.2	9.10e-06	0	43	0	586153984	13	3891
2026-01-01 10:06:46.09	33.91	70.09	-25.9	-26.5	17.3	0.00e+00	0	43	0	589299712	13	3859
2026-01-01 10:06:47.09	32.73	69.83	-25.7	-26.5	17.6	0.00e+00	0	43	0	592445440	12	3973
2026-01-01 10:06:48.09	31.57	69.57	-25.2	-26.0	18.2	0.00e+00	0	43	0	595591168	11	3951
2026-01-01 10:06:49.09	30.46	69.30	-25.0	-25.5	18.4	0.00e+00	0	43	0	598736896	11	3821
2026-01-01 10:06:50.08	29.38	69.02	-25.9	-27.6	17.4	0.00e+00	0	43	0	601882624	11	4345
2026-01-01 10:06:51.08	28.32	68.74	-26.4	-28.1	16.7	8.30e-06	0	43	0	605028352	12	4393
2026-01-01 10:06:52.08	27.29	68.45	-26.2	-27.7	17.0	0.00e+00	0	43	0	608174080	12	4275
2026-01-01 10:06:53.07	26.31	68.16	-25.7	-26.5	17.6	0.00e+00	0	43	0	611319808	12	3976
2026-01-01 10:06:54.07	25.34	67.86	-25.7	-26.6	17.5	3.00e-06	0	43	0	614465536	12	3997
2026-01-01 10:06:55.06	24.41	67.56	-25.9	-27.1	17.3	0.00e+00	0	43	0	617611264	12	4105
2026-01-01 10:06:56.06	23.50	67.25	-25.8	-26.8	17.4	0.00e+00	0	43	0	620756992	12	4027
2026-01-01 10:06:57.05	22.62	66.94	-25.9	-27.1	17.2	0.00e+00	0	43	0	623902720	12	4109
2026-01-01 10:06:58.05	21.76	66.62	-26.5	-28.3	16.6	0.00e+00	0	43	0	627048448	12	4448
2026-01-01 10:06:59.05	20.93	66.30	-26.4	-27.6	16.6	0.00e+00	0	43	0	630194176	13	4147
2026-01-01 10:07:00.05	20.12	65.98	-26.0	-26.7	17.2	2.20e-06	0	43	0	633339904	13	3897
2026-01-01 10:07:01.05	19.33	65.66	-26.2	-27.1	17.0	0.00e+00	0	43	0	636485632	13	4000
2026-01-01 10:07:02.06	18.56	65.32	-26.0	-26.8	17.1	0.00e+00	0	43	0	639631360	13	3933
2026-01-01 10:07:03.06	17.82	64.99	-26.4	-27.6	16.7	0.00e+00	0	43	0	642777088	13	4127
2026-01-01 10:07:04.07	17.10	64.66	-27.4	-29.3	15.6	0.00e+00	0	43	0	645922816	14	4495
2026-01-01 10:07:05.07	16.40	64.32	-27.4	-29.4	15.4	0.00e+00	0	43	0	649068544	14	4546
2026-01-01 10:07:06.07	15.72	63.99	-27.3	-29.1	15.6	0.00e+00	0	43	0	652214272	14	4454
2026-01-01 10:07:07.07	15.06	63.65	-27.0	-28.5	16.0	0.00e+00	0	43	0	655360000	14	4270
2026-01-01 10:07:08.08	14.42	63.31	-27.2	-28.9	15.8	0.00e+00	0	43	0	658505728	14	4374
2026-01-01 10:07:09.08	13.80	62.96	-27.9	-29.9	14.9	0.00e+00	0	43	0	661651456	15	4564
2026-01-01 10:07:10.09	13.19	62.62	-27.8	-29.8	15.0	0.00e+00	0	43	0	664797184	15	4529
2026-01-01 10:07:11.09	12.60	62.28	-28.5	-30.8	14.2	0.00e+00	0	43	0	667942912	16	4725
2026-01-01 10:07:12.10	12.03	61.93	-28.4	-30.2	14.3	0.00e+00	0	43	0	671088640	17	4430
2026-01-01 10:07:13.10	11.48	61.58	-28.2	-29.6	14.6	7.00e-07	0	43	0	674234368	17	4256
2026-01-01 10:07:14.11	10.93	61.24	-28.2	-29.6	14.6	1.50e-06	0	43	0	677380096	17	4243
2026-01-01 10:07:15.11	10.41	60.89	-27.7	-28.9	15.3	0.00e+00	0	43	0	680525824	16	4163
2026-01-01 10:07:16.11	9.90	60.55	-27.6	-28.8	15.4	0.00e+00	0	43	0	683671552	16	4141
2026-01-01 10:07:17.12	9.40	60.20	-28.0	-29.8	14.8	7.00e-07	0	43	0	686817280	16	4414
2026-01-01 10:07:18.12	8.92	59.85	-28.7	-30.9	13.9	0.00e+00	0	43	0	689963008	17	4621
2026-01-01 10:07:19.12	8.45	59.51	-29.4	-32.0	13.0	3.28e-05	0	43	0	693108736	18	4865
2026-01-01 10:07:20.12	8.00	59.16	-28.6	-30.0	14.1	6.80e-06	0	43	0	696254464	18	4266
2026-01-01 10:07:21.13	7.55	58.81	-27.7	-29.0	15.2	0.00e+00	0	43	0	699400192	16	4181
2026-01-01 10:07:22.14	7.11	58.47	-26.7	-27.9	16.2	0.00e+00	0	43	0	702545920	14	4106
2026-01-01 10:07:23.14	6.69	58.12	-26.3	-26.9	16.7	0.00e+00	0	43	0	705691648	14	3864
2026-01-01 10:07:24.15	6.27	57.78	-26.4	-27.6	16.7	0.00e+00	0	43	0	708837376	13	4151
2026-01-01 10:07:25.16	5.87	57.43	-26.8	-28.6	16.2	0.00e+00	0	43	0	711983104	13	4402
2026-01-01 10:07:26.16	5.48	57.09	-26.8	-28.6	16.2	0.00e+00	0	43	0	715128832	13	4404
2026-01-01 10:07:27.16	5.10	56.75	-27.3	-29.1	15.5	0.00e+00	0	43	0	718274560	14	4438
2026-01-01 10:07:28.16	4.73	56.41	-27.7	-29.6	15.0	0.00e+00	0	43	0	721420288	15	4461
2026-01-01 10:07:29.17	4.36	56.06	-27.9	-29.9	14.8	0.00e+00	0	43	0	724566016	15	4579
2026-01-01 10:07:30.17	4.01	55.73	-27.3	-28.6	15.5	0.00e+00	0	43	0	727711744	15	4189
2026-01-01 10:07:31.17	3.67	55.39	-26.7	-27.7	16.2	0.00e+00	0	43	0	730857472	14	4067
2026-01-01 10:07:32.17	3.33	55.05	-26.8	-28.1	16.1	7.00e-07	0	43	0	734003200	14	4151
2026-01-01 10:07:33.18	3.00	54.71	-26.9	-28.3	16.0	0.00e+00	0	43	0	737148928	14	4229
2026-01-01 10:07:34.18	2.68	54.38	-27.6	-29.3	15.1	0.00e+00	0	43	0	740294656	15	4377
2026-01-01 10:07:35.19	2.36	54.05	-28.7	-31.0	13.8	3.80e-06	0	43	0	743440384	17	4671
2026-01-01 10:07:36.19	2.05	53.71	-28.7	-31.0	13.8	4.50e-06	0	43	0	746586112	17	4658
2026-01-01 10:07:37.21	1.75	53.38	-28.7	-30.8	14.0	2.20e-06	0	43	0	749731840	17	4594
2026-01-01 10:07:38.21	1.46	53.05	-28.8	-31.2	13.6	8.30e-06	0	43	0	752877568	17	4736
2026-01-01 10:07:39.22	1.17	52.72	-28.5	-30.5	14.1	3.00e-06	0	43	0	756023296	17	4503
2026-01-01 10:07:40.22	0.89	52.39	-28.3	-29.9	14.4	7.00e-07	0	43	0	759169024	17	4344
2026-01-01 10:07:41.22	0.62	52.07	-27.8	-28.9	15.0	0.00e+00	0	43	0	762314752	17	4040
2026-01-01 10:07:42.23	0.35	51.74	-27.7	-28.9	15.2	0.00e+00	0	43	0	765460480	16	4166
2026-01-01 10:07:43.23	0.09	51.42	-27.8	-29.3	15.1	0.00e+00	0	43	0	768606208	16	4271
2026-01-01 10:07:44.24	359.83	51.10	-28.1	-30.0	14.7	0.00e+00	0	43	0	771751936	16	4443
2026-01-01 10:07:45.24	359.58	50.78	-28.7	-30.7	13.9	1.50e-06	0	43	0	774897664	17	4562
2026-01-01 10:07:46.25	359.33	50.46	-29.9	-32.8	12.1	1.04e-04	0	43	0	778043392	19	5026
2026-01-01 10:07:47.25	359.09	50.15	-30.4	-33.8	11.1	9.99e-04	0	43	0	781189120	20	5296
2026-01-01 10:07:48.25	358.86	49.84	-30.7	-34.1	10.5	4.95e-03	0	43	0	784334848	21	5320
2026-01-01 10:07:49.25	358.63	49.52	-30.0	-32.1	11.7	1.05e-03	0	43	0	787480576	21	4614
2026-01-01 10:07:50.25	358.40	49.22	-29.3	-30.9	12.8	1.04e-04	0	43	0	790626304	20	4308
2026-01-01 10:07:51.26	358.18	48.90	-29.0	-30.7	13.3	1.75e-05	0	43	0	792723456	19	4339
2026-01-01 10:07:52.27	357.96	48.59	-29.0	-30.5	13.4	1.22e-05	0	43	0	795869184	19	4307
2026-01-01 10:07:53.26	357.75	48.29	-29.0	-30.5	13.4	1.22e-05	0	43	0	799014912	19	4308
2026-01-01 10:07:54.27	357.54	47.99	-28.9	-30.4	13.6	1.22e-05	0	43	0	803209216	19	4253
2026-01-01 10:07:55.28	357.34	47.68	-28.6	-30.1	14.0	3.80e-06	0	43	0	806354944	18	4289
2026-01-01 10:07:56.28	357.14	47.38	-28.3	-29.8	14.4	1.50e-06	0	43	0	809500672	17	4311
2026-01-01 10:07:57.28	356.94	47.09	-28.3	-29.8	14.4	7.00e-07	0	43	0	812646400	17	4303
2026-01-01 10:07:58.28	356.75	46.79	-28.5	-30.3	14.1	4.50e-06	0	43	0	814743552	17	4456
2026-01-01 10:07:59.29	356.56	46.49	-28.8	-31.1	13.6	6.80e-06	0	43	0	817889280	17	4704
2026-01-01 10:08:00.30	356.38	46.20	-29.2	-31.7	13.0	2.13e-05	0	43	0	821035008	18	4772
2026-01-01 10:08:01.29	356.20	45.91	-29.6	-32.2	12.4	1.18e-04	0	43	0	824180736	19	4849
2026-01-01 10:08:02.30	356.02	45.62	-29.6	-32.1	12.4	1.47e-04	0	43	0	827326464	19	4806
2026-01-01 10:08:03.30	355.84	45.33	-29.4	-31.5	12.7	1.06e-04	0	43	0	830472192	19	4603
2026-01-01 10:08:04.30	355.67	45.05	-29.0	-30.7	13.2	2.51e-05	0	43	0	833617920	19	4341
2026-01-01 10:08:05.30	355.50	44.76	-29.0	-30.6	13.3	1.29e-05	0	43	0	836763648	19	4307
2026-01-01 10:08:06.30	355.34	44.48	-29.0	-30.5	13.4	2.44e-05	0	43	0	839909376	19	4288
2026-01-01 10:08:07.30	355.18	44.20	-29.0	-30.5	13.4	6.80e-06	0	43	0	843055104	19	4300
2026-01-01 10:08:08.30	355.02	43.92	-29.5	-31.8	12.6	5.03e-05	0	43	0	846200832	19	4711
2026-01-01 10:08:09.30	354.86	43.64	-29.6	-32.0	12.5	1.32e-04	0	43	0	849346560	19	4772
2026-01-01 10:08:10.31	354.71	43.37	-29.6	-32.2	12.4	1.62e-04	0	43	0	852492288	19	4828
2026-01-01 10:08:11.30	354.56	43.10	-29.6	-32.1	12.4	1.36e-04	0	43	0	855638016	19	4804
2026-01-01 10:08:12.31	354.41	42.82	-29.6	-32.1	12.5	1.66e-04	0	43	0	858783744	19	4794
2026-01-01 10:08:13.31	354.26	42.55	-29.3	-31.4	12.9	6.63e-05	0	43	0	861929472	19	4562
2026-01-01 10:08:14.31	354.12	42.29	-29.2	-31.0	13.1	3.73e-05	0	43	0	865075200	19	4452
2026-01-01 10:08:15.31	353.98	42.02	-29.2	-31.0	13.1	3.66e-05	0	43	0	868220928	19	4466
2026-01-01 10:08:16.31	353.84	41.75	-29.4	-31.7	12.7	6.56e-05	0	43	0	871366656	19	4661
2026-01-01 10:08:17.32	353.70	41.49	-29.8	-32.6	12.1	2.39e-04	0	43	0	874512384	19	4983
2026-01-01 10:08:18.32	353.57	41.23	-29.8	-32.6	12.0	2.94e-04	0	43	0	877658112	19	4998
2026-01-01 10:08:19.33	353.43	40.97	-29.6	-32.3	12.3	2.40e-04	0	43	0	880803840	19	4871
2026-01-01 10:08:20.33	353.30	40.71	-29.4	-31.6	12.6	1.44e-04	0	43	0	883949568	19	4646
2026-01-01 10:08:21.32	353.18	40.45	-29.0	-30.6	13.3	2.89e-05	0	43	0	887095296	19	4339
2026-01-01 10:08:22.33	353.05	40.20	-28.7	-30.5	13.6	1.06e-05	0	43	0	890241024	18	4411
2026-01-01 10:08:23.33	352.93	39.95	-28.6	-30.2	13.8	2.20e-06	0	43	0	893386752	18	4314
2026-01-01 10:08:24.34	352.80	39.69	-28.5	-30.0	13.9	3.80e-06	0	43	0	896532480	18	4260
2026-01-01 10:08:25.34	352.69	39.44	-28.6	-30.1	13.8	3.80e-06	0	43	0	899678208	18	4302
2026-01-01 10:08:26.34	352.57	39.19	-28.8	-30.7	13.5	9.10e-06	0	43	0	902823936	18	4469
2026-01-01 10:08:27.35	352.45	38.95	-28.9	-30.9	13.4	1.14e-05	0	43	0	905969664	18	4528
2026-01-01 10:08:28.35	352.34	38.70	-29.0	-31.0	13.2	1.60e-05	0	43	0	909115392	18	4580
2026-01-01 10:08:29.36	352.22	38.46	-29.0	-31.1	13.2	1.67e-05	0	43	0	912261120	18	4609
2026-01-01 10:08:30.36	352.11	38.22	-29.0	-31.2	13.2	3.43e-05	0	43	0	915406848	18	4636
2026-01-01 10:08:31.36	352.00	37.98	-29.0	-31.2	13.2	2.28e-05	0	43	0	918552576	18	4641
2026-01-01 10:08:32.37	351.90	37.74	-29.1	-31.4	13.1	2.13e-05	0	43	0	921698304	18	4681
2026-01-01 10:08:33.37	351.79	37.50	-29.2	-31.7	12.9	5.49e-05	0	43	0	924844032	18	4780
2026-01-01 10:08:34.37	351.69	37.26	-29.1	-31.5	13.0	4.27e-05	0	43	0	927989760	18	4737
2026-01-01 10:08:35.37	351.58	37.03	-29.1	-31.4	13.0	2.51e-05	0	43	0	931135488	18	4687
2026-01-01 10:08:36.38	351.48	36.80	-29.0	-31.3	13.1	3.73e-05	0	43	0	934281216	18	4650
2026-01-01 10:08:37.38	351.38	36.57	-28.5	-30.0	13.9	3.00e-06	0	43	0	937426944	18	4281
2026-01-01 10:08:38.39	351.28	36.34	-28.2	-29.7	14.3	2.20e-06	0	43	0	940572672	17	4290
2026-01-01 10:08:39.40	351.18	36.11	-28.0	-29.4	14.6	7.00e-07	0	43	0	943718400	17	4188
2026-01-01 10:08:40.40	351.09	35.88	-28.1	-29.4	14.5	0.00e+00	0	43	0	946864128	17	4199
2026-01-01 10:08:41.40	351.00	35.66	-28.1	-29.4	14.5	2.20e-06	0	43	0	950009856	17	4209
2026-01-01 10:08:42.41	350.90	35.43	-28.1	-29.5	14.4	0.00e+00	0	43	0	953155584	17	4236
2026-01-01 10:08:43.41	350.81	35.21	-28.3	-30.1	14.1	2.20e-06	0	43	0	956301312	17	4401
2026-01-01 10:08:44.41	350.72	34.99	-28.2	-29.8	14.3	0.00e+00	0	43	0	959447040	17	4320
2026-01-01 10:08:45.41	350.63	34.77	-28.1	-29.5	14.4	2.20e-06	0	43	0	962592768	17	4242
2026-01-01 10:08:46.41	350.54	34.55	-28.2	-29.7	14.3	2.20e-06	0	43	0	965738496	17	4299
2026-01-01 10:08:47.41	350.46	34.34	-28.2	-29.8	14.2	2.20e-06	0	43	0	968884224	17	4324
2026-01-01 10:08:48.41	350.37	34.13	-28.2	-29.6	14.4	0.00e+00	0	43	0	972029952	17	4276
2026-01-01 10:08:49.42	350.29	33.91	-28.1	-29.5	14.4	7.00e-07	0	43	0	975175680	17	4239
2026-01-01 10:08:50.41	350.21	33.70	-28.1	-29.6	14.4	7.00e-07	0	43	0	978321408	17	4263
2026-01-01 10:08:51.41	350.12	33.49	-28.2	-29.7	14.3	0.00e+00	0	43	0	981467136	17	4306
2026-01-01 10:08:52.41	350.04	33.28	-28.2	-29.7	14.3	0.00e+00	0	43	0	984612864	17	4302
2026-01-01 10:08:53.41	349.96	33.08	-28.3	-30.1	14.1	2.20e-06	0	43	0	987758592	17	4398
2026-01-01 10:08:54.41	349.89	32.87	-28.3	-30.0	14.2	1.50e-06	0	43	0	990904320	17	4369
2026-01-01 10:08:55.41	349.81	32.67	-28.4	-30.2	14.0	7.00e-07	0	43	0	994050048	17	4441
2026-01-01 10:08:56.41	349.73	32.46	-28.4	-30.2	14.0	2.20e-06	0	43	0	997195776	17	4423
2026-01-01 10:08:57.41	349.66	32.26	-28.1	-29.6	14.4	2.20e-06	0	43	0	1000341504	17	4262
2026-01-01 10:08:58.42	349.58	32.06	-28.0	-29.2	14.6	0.00e+00	0	43	0	1003487232	17	4165
2026-01-01 10:08:59.42	349.51	31.86	-27.8	-28.9	14.8	0.00e+00	0	43	0	1006632960	17	4068
2026-01-01 10:09:00.43	349.43	31.66	-27.9	-29.0	14.7	7.00e-07	0	43	0	1009778688	17	4090
2026-01-01 10:09:01.43	349.36	31.46	-27.7	-29.1	14.9	7.00e-07	0	43	0	1012924416	16	4238
2026-01-01 10:09:02.44	349.29	31.26	-27.5	-28.6	15.3	0.00e+00	0	43	0	1016070144	16	4094
2026-01-01 10:09:03.44	349.22	31.07	-27.4	-28.5	15.3	0.00e+00	0	43	0	1019215872	16	4060
2026-01-01 10:09:04.44	349.15	30.88	-27.4	-28.4	15.4	0.00e+00	0	43	0	1022361600	16	4025
2026-01-01 10:09:05.45	349.08	30.68	-26.9	-27.8	15.8	0.00e+00	0	43	0	1025507328	15	4000
2026-01-01 10:09:06.45	349.02	30.49	-26.8	-27.5	15.9	0.00e+00	0	43	0	1028653056	15	3918
2026-01-01 10:09:07.45	348.95	30.30	-26.7	-27.8	16.1	0.00e+00	0	43	0	1031798784	14	4089
2026-01-01 10:09:08.46	348.88	30.11	-26.6	-27.6	16.2	0.00e+00	0	43	0	1034944512	14	4034
2026-01-01 10:09:09.46	348.82	29.93	-26.4	-27.2	16.3	0.00e+00	0	43	0	1038090240	14	3951
2026-01-01 10:09:10.46	348.75	29.74	-26.5	-27.3	16.3	0.00e+00	0	43	0	1041235968	14	3970
2026-01-01 10:09:11.46	348.69	29.56	-26.6	-27.6	16.2	0.00e+00	0	43	0	1043333120	14	4033
2026-01-01 10:09:12.45	348.63	29.38	-26.6	-27.6	16.1	0.00e+00	0	43	0	1046478848	14	4043
2026-01-01 10:09:13.45	348.57	29.19	-26.3	-27.0	16.4	0.00e+00	0	43	0	1049624576	14	3886
2026-01-01 10:09:14.46	348.50	29.01	-26.3	-27.4	16.5	0.00e+00	0	43	0	1052770304	13	4091
2026-01-01 10:09:15.46	348.44	28.83	-26.4	-27.7	16.3	0.00e+00	0	43	0	1055916032	13	4188
2026-01-01 10:09:16.46	348.39	28.65	-26.4	-27.8	16.3	0.00e+00	0	43	0	1059061760	13	4203
2026-01-01 10:09:17.47	348.33	28.47	-26.5	-28.0	16.1	0.00e+00	0	43	0	1062207488	13	4260
2026-01-01 10:09:18.48	348.27	28.29	-26.6	-28.2	16.1	0.00e+00	0	43	0	1066401792	13	4309
2026-01-01 10:09:19.49	348.21	28.12	-26.8	-28.5	15.9	0.00e+00	0	43	0	1068498944	13	4406
2026-01-01 10:09:20.49	348.15	27.94	-26.8	-28.7	15.8	0.00e+00	0	43	0	1071644672	13	4445
2026-01-01 10:09:21.49	348.10	27.77	-26.8	-28.7	15.8	0.00e+00	0	43	0	1074790400	13	4453
2026-01-01 10:09:22.48	348.04	27.60	-26.8	-28.7	15.8	0.00e+00	0	43	0	1077936128	13	4457
2026-01-01 10:09:23.48	347.99	27.43	-26.9	-28.8	15.7	0.00e+00	0	43	0	1081081856	13	4497
2026-01-01 10:09:24.48	347.93	27.26	-27.0	-29.0	15.6	0.00e+00	0	43	0	1084227584	13	4539
2026-01-01 10:09:25.48	347.88	27.09	-27.0	-28.6	15.5	0.00e+00	0	43	0	1087373312	14	4329
2026-01-01 10:09:26.48	347.82	26.92	-27.1	-28.9	15.4	0.00e+00	0	43	0	1090519040	14	4392
2026-01-01 10:09:27.48	347.77	26.75	-27.1	-28.7	15.5	7.00e-07	0	43	0	1093664768	14	4343
2026-01-01 10:09:28.49	347.72	26.58	-27.0	-28.5	15.6	0.00e+00	0	43	0	1096810496	14	4303
2026-01-01 10:09:29.49	347.67	26.42	-27.0	-28.5	15.6	3.00e-06	0	43	0	1099956224	14	4285
2026-01-01 10:09:30.50	347.62	26.25	-26.9	-28.3	15.7	0.00e+00	0	43	0	1103101952	14	4245
2026-01-01 10:09:31.50	347.57	26.09	-26.9	-28.3	15.7	0.00e+00	0	43	0	1106247680	14	4238
2026-01-01 10:09:32.50	347.52	25.93	-26.9	-28.4	15.6	0.00e+00	0	43	0	1109393408	14	4261
2026-01-01 10:09:33.51	347.47	25.76	-26.8	-28.1	15.8	0.00e+00	0	43	0	1112539136	14	4192
2026-01-01 10:09:34.50	347.42	25.61	-26.7	-28.0	15.9	1.50e-06	0	43	0	1115684864	14	4147
2026-01-01 10:09:35.50	347.37	25.45	-26.8	-28.2	15.8	1.50e-06	0	43	0	1118830592	14	4199
2026-01-01 10:09:36.50	347.32	25.29	-26.8	-28.2	15.8	7.00e-07	0	43	0	1121976320	14	4200
2026-01-01 10:09:37.50	347.28	25.13	-26.7	-27.9	15.9	0.00e+00	0	43	0	1125122048	14	4136
2026-01-01 10:09:38.51	347.23	24.97	-26.7	-28.0	15.8	7.00e-07	0	43	0	1128267776	14	4154
2026-01-01 10:09:39.51	347.18	24.82	-26.8	-28.1	15.8	0.00e+00	0	43	0	1131413504	14	4176
2026-01-01 10:09:40.52	347.14	24.66	-26.7	-28.0	15.8	0.00e+00	0	43	0	1134559232	14	4151
2026-01-01 10:09:41.52	347.09	24.51	-26.7	-27.9	15.9	0.00e+00	0	43	0	1137704960	14	4139
2026-01-01 10:09:42.53	347.05	24.35	-26.8	-28.1	15.7	0.00e+00	0	43	0	1140850688	14	4182
2026-01-01 10:09:43.53	347.00	24.20	-26.8	-28.1	15.7	0.00e+00	0	43	0	1143996416	14	4189
2026-01-01 10:09:44.53	346.96	24.05	-26.8	-28.1	15.7	0.00e+00	0	43	0	1147142144	14	4172
2026-01-01 10:09:45.54	346.92	23.90	-26.8	-28.1	15.8	0.00e+00	0	43	0	1150287872	14	4175
2026-01-01 10:09:46.54	346.87	23.75	-26.8	-28.1	15.8	0.00e+00	0	43	0	1153433600	14	4176
2026-01-01 10:09:47.54	346.83	23.60	-26.8	-28.1	15.7	0.00e+00	0	43	0	1156579328	14	4189
2026-01-01 10:09:48.54	346.79	23.45	-26.9	-28.2	15.6	0.00e+00	0	43	0	1159725056	14	4217
2026-01-01 10:09:49.54	346.75	23.30	-26.9	-28.3	15.6	0.00e+00	0	43	0	1162870784	14	4232
2026-01-01 10:09:50.55	346.71	23.15	-26.8	-28.2	15.7	0.00e+00	0	43	0	1166016512	14	4209
2026-01-01 10:09:51.55	346.67	23.01	-26.9	-28.3	15.6	0.00e+00	0	43	0	1169162240	14	4232
2026-01-01 10:09:52.55	346.63	22.86	-26.8	-28.1	15.7	0.00e+00	0	43	0	1172307968	14	4193
2026-01-01 10:09:53.56	346.59	22.72	-26.8	-28.2	15.6	0.00e+00	0	43	0	1175453696	14	4219
2026-01-01 10:09:54.56	346.55	22.58	-26.8	-28.2	15.6	0.00e+00	0	43	0	1178599424	14	4213
2026-01-01 10:09:55.56	346.51	22.43	-26.8	-28.2	15.7	0.00e+00	0	43	0	1181745152	14	4208
2026-01-01 10:09:56.56	346.47	22.29	-26.8	-28.2	15.7	0.00e+00	0	43	0	1184890880	14	4208
2026-01-01 10:09:57.57	346.43	22.15	-26.8	-28.2	15.7	0.00e+00	0	43	0	1188036608	14	4207
2026-01-01 10:09:58.58	346.39	22.01	-26.9	-28.3	15.6	0.00e+00	0	43	0	1191182336	14	4241
2026-01-01 10:09:59.58	346.36	21.87	-27.0	-28.5	15.5	0.00e+00	0	43	0	1194328064	14	4294
2026-01-01 10:10:00.59	346.32	21.73	-27.0	-28.5	15.5	7.00e-07	0	43	0	1197473792	14	4291
2026-01-01 10:10:01.59	346.28	21.59	-26.8	-28.1	15.7	0.00e+00	0	43	0	1200619520	14	4184
2026-01-01 10:10:02.60	346.25	21.45	-26.6	-27.7	15.9	0.00e+00	0	43	0	1203765248	14	4082
2026-01-01 10:10:03.61	346.21	21.32	-26.6	-27.7	15.9	0.00e+00	0	43	0	1206910976	14	4070
2026-01-01 10:10:04.62	346.17	21.18	-26.6	-27.8	15.9	0.00e+00	0	43	0	1210056704	14	4104
2026-01-01 10:10:05.62	346.14	21.04	-26.7	-27.8	15.8	0.00e+00	0	43	0	1213202432	14	4111
2026-01-01 10:10:06.63	346.10	20.91	-26.7	-28.0	15.8	0.00e+00	0	43	0	1216348160	14	4147
2026-01-01 10:10:07.63	346.07	20.78	-26.6	-27.8	15.8	0.00e+00	0	43	0	1219493888	14	4104
2026-01-01 10:10:08.64	346.03	20.64	-26.4	-27.3	16.1	0.00e+00	0	43	0	1222639616	14	3979
2026-01-01 10:10:09.64	346.00	20.51	-26.4	-27.2	16.2	0.00e+00	0	43	0	1225785344	14	3953
2026-01-01 10:10:10.65	345.97	20.38	-26.4	-27.3	16.1	0.00e+00	0	43	0	1228931072	14	3982
2026-01-01 10:10:11.65	345.93	20.25	-26.5	-27.5	16.0	7.00e-07	0	43	0	1232076800	14	4034
2026-01-01 10:10:12.66	345.90	20.11	-26.6	-27.7	15.9	0.00e+00	0	43	0	1235222528	14	4068
2026-01-01 10:10:13.66	345.87	19.99	-26.5	-27.5	16.0	0.00e+00	0	43	0	1238368256	14	4038
2026-01-01 10:10:14.66	345.83	19.86	-26.5	-27.5	16.0	7.00e-07	0	43	0	1241513984	14	4023
2026-01-01 10:10:15.66	345.80	19.73	-26.5	-27.5	16.0	2.20e-06	0	43	0	1244659712	14	4032
2026-01-01 10:10:16.67	345.77	19.60	-26.6	-27.7	15.9	0.00e+00	0	43	0	1247805440	14	4070
2026-01-01 10:10:17.67	345.74	19.47	-26.6	-27.7	15.8	2.20e-06	0	43	0	1250951168	14	4093
2026-01-01 10:10:18.67	345.71	19.35	-26.7	-27.9	15.7	0.00e+00	0	43	0	1254096896	14	4133
2026-01-01 10:10:19.67	345.68	19.22	-26.8	-28.0	15.6	0.00e+00	0	43	0	1257242624	14	4170
2026-01-01 10:10:20.67	345.65	19.10	-26.8	-28.2	15.5	0.00e+00	0	43	0	1260388352	14	4219
2026-01-01 10:10:21.67	345.62	18.97	-26.9	-28.4	15.4	0.00e+00	0	43	0	1263534080	14	4269
2026-01-01 10:10:22.67	345.59	18.85	-26.9	-28.3	15.5	0.00e+00	0	43	0	1266679808	14	4243
2026-01-01 10:10:23.68	345.56	18.72	-26.8	-28.2	15.6	1.50e-06	0	43	0	1269825536	14	4208
2026-01-01 10:10:24.68	345.53	18.60	-26.9	-28.3	15.5	0.00e+00	0	43	0	1272971264	14	4237
2026-01-01 10:10:25.69	345.50	18.48	-26.9	-28.3	15.5	0.00e+00	0	43	0	1276116992	14	4235
2026-01-01 10:10:26.70	345.47	18.36	-26.8	-28.2	15.6	0.00e+00	0	43	0	1279262720	14	4214
2026-01-01 10:10:27.70	345.44	18.24	-26.8	-28.2	15.5	0.00e+00	0	43	0	1282408448	14	4220
2026-01-01 10:10:28.70	345.41	18.12	-26.9	-28.3	15.5	0.00e+00	0	43	0	1285554176	14	4240
2026-01-01 10:10:29.70	345.38	18.00	-26.9	-28.5	15.4	0.00e+00	0	43	0	1288699904	14	4303
2026-01-01 10:10:30.70	345.35	17.88	-27.0	-28.6	15.3	0.00e+00	0	43	0	1291845632	14	4336
2026-01-01 10:10:31.71	345.33	17.76	-27.0	-28.7	15.2	7.00e-07	0	43	0	1294991360	14	4361
2026-01-01 10:10:32.71	345.30	17.64	-27.1	-28.9	15.1	0.00e+00	0	43	0	1298137088	14	4412
2026-01-01 10:10:33.71	345.27	17.52	-27.2	-29.1	15.0	0.00e+00	0	43	0	1301282816	14	4486
2026-01-01 10:10:34.72	345.24	17.41	-27.2	-29.1	15.0	1.50e-06	0	43	0	1304428544	14	4472
2026-01-01 10:10:35.71	345.22	17.29	-27.3	-29.2	14.9	7.00e-07	0	43	0	1307574272	14	4505
2026-01-01 10:10:36.72	345.19	17.17	-27.3	-29.2	14.9	0.00e+00	0	43	0	1310720000	14	4507
2026-01-01 10:10:37.72	345.16	17.06	-27.3	-29.3	14.8	0.00e+00	0	43	0	1313865728	14	4541
2026-01-01 10:10:38.73	345.14	16.94	-27.4	-29.5	14.7	0.00e+00	0	44	0	1317011456	14	4611
2026-01-01 10:10:39.73	345.11	16.83	-27.3	-29.4	14.8	0.00e+00	0	43	0	1320157184	14	4574
2026-01-01 10:10:40.73	345.09	16.72	-27.3	-29.2	14.9	0.00e+00	0	43	0	1323302912	14	4514
2026-01-01 10:10:41.73	345.06	16.60	-27.3	-29.2	14.8	0.00e+00	0	43	0	1326448640	14	4519
2026-01-01 10:10:42.74	345.04	16.49	-27.4	-29.5	14.8	7.00e-07	0	43	0	1329594368	14	4583
2026-01-01 10:10:43.74	345.01	16.38	-27.4	-29.5	14.7	0.00e+00	0	43	0	1332740096	14	4592
2026-01-01 10:10:44.74	344.99	16.27	-27.4	-29.6	14.6	0.00e+00	0	43	0	1335885824	14	4626
2026-01-01 10:10:45.75	344.96	16.15	-27.5	-29.7	14.5	0.00e+00	0	43	0	1339031552	14	4661
2026-01-01 10:10:46.75	344.94	16.04	-27.5	-29.7	14.6	0.00e+00	0	43	0	1342177280	14	4675
2026-01-01 10:10:47.76	344.91	15.93	-27.7	-29.7	14.3	0.00e+00	0	43	0	1344274432	15	4536
2026-01-01 10:10:48.76	344.89	15.82	-27.9	-30.3	14.0	1.50e-06	0	43	0	1347420160	15	4716
2026-01-01 10:10:49.75	344.87	15.72	-27.8	-30.0	14.1	2.20e-06	0	43	0	1350565888	15	4639
2026-01-01 10:10:50.76	344.84	15.61	-27.6	-29.6	14.3	7.00e-07	0	43	0	1353711616	15	4509
2026-01-01 10:10:51.75	344.82	15.50	-27.5	-29.4	14.4	0.00e+00	0	43	0	1356857344	15	4469
2026-01-01 10:10:52.76	344.80	15.39	-27.6	-29.4	14.4	0.00e+00	0	43	0	1360003072	15	4468
2026-01-01 10:10:53.76	344.77	15.28	-27.5	-29.4	14.4	7.00e-07	0	43	0	1363148800	15	4454
2026-01-01 10:10:54.76	344.75	15.18	-27.6	-29.6	14.3	1.50e-06	0	43	0	1366294528	15	4530
2026-01-01 10:10:55.77	344.73	15.07	-27.6	-29.6	14.3	1.50e-06	0	43	0	1369440256	15	4510
2026-01-01 10:10:56.77	344.71	14.96	-27.6	-29.5	14.3	0.00e+00	0	43	0	1372585984	15	4489
2026-01-01 10:10:57.77	344.68	14.86	-27.5	-29.2	14.5	7.00e-07	0	43	0	1375731712	15	4406
2026-01-01 10:10:58.77	344.66	14.75	-27.4	-29.2	14.5	7.00e-07	0	43	0	1378877440	15	4397
2026-01-01 10:10:59.78	344.64	14.65	-27.4	-29.1	14.5	1.50e-06	0	43	0	1382023168	15	4371
2026-01-01 10:11:00.78	344.62	14.55	-27.5	-29.3	14.5	1.50e-06	0	43	0	1385168896	15	4428
2026-01-01 10:11:01.79	344.60	14.44	-27.4	-29.2	14.5	1.50e-06	0	43	0	1388314624	15	4397
2026-01-01 10:11:02.79	344.58	14.34	-27.5	-29.3	14.4	0.00e+00	0	43	0	1391460352	15	4441
2026-01-01 10:11:03.80	344.55	14.23	-27.6	-29.6	14.2	7.00e-07	0	43	0	1394606080	15	4533
2026-01-01 10:11:04.79	344.53	14.13	-27.6	-29.6	14.3	1.50e-06	0	43	0	1397751808	15	4513
2026-01-01 10:11:05.80	344.51	14.03	-27.5	-29.3	14.4	2.20e-06	0	43	0	1400897536	15	4421
2026-01-01 10:11:06.80	344.49	13.93	-27.5	-29.2	14.5	0.00e+00	0	43	0	1404043264	15	4412
2026-01-01 10:11:07.80	344.47	13.83	-27.5	-29.3	14.4	7.00e-07	0	43	0	1407188992	15	4432
2026-01-01 10:11:08.80	344.45	13.73	-27.5	-29.4	14.4	2.20e-06	0	43	0	1410334720	15	4449
2026-01-01 10:11:09.81	344.43	13.63	-27.5	-29.3	14.4	0.00e+00	0	43	0	1413480448	15	4440
2026-01-01 10:11:10.81	344.41	13.53	-27.5	-29.4	14.3	0.00e+00	0	43	0	1416626176	15	4468
2026-01-01 10:11:11.81	344.39	13.43	-27.5	-29.4	14.4	0.00e+00	0	43	0	1419771904	15	4457
2026-01-01 10:11:12.81	344.37	13.33	-27.5	-29.4	14.3	1.50e-06	0	43	0	1422917632	15	4466
2026-01-01 10:11:13.82	344.35	13.23	-27.6	-29.7	14.2	7.00e-07	0	43	0	1426063360	15	4545
2026-01-01 10:11:14.82	344.33	13.13	-27.7	-29.7	14.1	1.50e-06	0	43	0	1429209088	15	4559
2026-01-01 10:11:15.83	344.31	13.03	-27.6	-29.6	14.2	7.00e-07	0	43	0	1432354816	15	4530
2026-01-01 10:11:16.82	344.30	12.94	-27.7	-29.9	14.0	3.80e-06	0	43	0	1435500544	15	4617
2026-01-01 10:11:17.82	344.28	12.84	-27.6	-29.7	14.1	3.00e-06	0	43	0	1438646272	15	4542
2026-01-01 10:11:18.82	344.26	12.74	-27.7	-29.8	14.0	0.00e+00	0	43	0	1441792000	15	4587
2026-01-01 10:11:19.83	344.24	12.65	-27.7	-29.7	14.1	1.50e-06	0	43	0	1444937728	15	4559
2026-01-01 10:11:20.83	344.22	12.55	-27.8	-30.1	13.9	6.80e-06	0	43	0	1448083456	15	4664
2026-01-01 10:11:21.83	344.20	12.46	-27.8	-29.9	13.9	3.00e-06	0	43	0	1451229184	15	4630
2026-01-01 10:11:22.83	344.19	12.36	-27.7	-29.7	14.1	6.10e-06	0	43	0	1454374912	15	4558
2026-01-01 10:11:23.83	344.17	12.27	-27.6	-29.5	14.2	3.00e-06	0	43	0	1457520640	15	4499
2026-01-01 10:11:24.83	344.15	12.17	-27.6	-29.5	14.2	0.00e+00	0	43	0	1460666368	15	4505
2026-01-01 10:11:25.84	344.13	12.08	-27.6	-29.6	14.1	1.50e-06	0	43	0	1463812096	15	4535
2026-01-01 10:11:26.84	344.11	11.98	-27.6	-29.5	14.1	1.50e-06	0	43	0	1466957824	15	4511
2026-01-01 10:11:27.85	344.10	11.89	-27.7	-29.7	14.0	1.50e-06	0	43	0	1470103552	15	4574
2026-01-01 10:11:28.84	344.08	11.80	-27.6	-29.6	14.1	0.00e+00	0	43	0	1473249280	15	4540
2026-01-01 10:11:29.85	344.06	11.70	-27.6	-29.6	14.1	4.50e-06	0	43	0	1476395008	15	4537
2026-01-01 10:11:30.86	344.05	11.61	-27.7	-29.9	13.9	0.00e+00	0	43	0	1479540736	15	4617
2026-01-01 10:11:31.86	344.03	11.52	-27.7	-29.7	14.0	2.20e-06	0	43	0	1482686464	15	4570
2026-01-01 10:11:32.86	344.01	11.43	-27.7	-29.8	14.0	1.50e-06	0	43	0	1485832192	15	4586
2026-01-01 10:11:33.86	344.00	11.34	-27.7	-29.8	13.9	1.50e-06	0	43	0	1488977920	15	4609
2026-01-01 10:11:34.87	343.98	11.25	-27.7	-29.9	13.9	3.00e-06	0	43	0	1492123648	15	4622
2026-01-01 10:11:35.87	343.96	11.16	-27.7	-29.9	13.9	1.50e-06	0	43	0	1495269376	15	4638
2026-01-01 10:11:36.87	343.95	11.07	-27.8	-30.0	13.8	5.30e-06	0	43	0	1498415104	15	4651
2026-01-01 10:11:37.87	343.93	10.98	-27.7	-29.9	13.8	3.00e-06	0	43	0	1501560832	15	4627
2026-01-01 10:11:38.88	343.92	10.88	-27.7	-29.9	13.8	2.20e-06	0	43	0	1504706560	15	4626
2026-01-01 10:11:39.88	343.90	10.80	-27.7	-29.8	13.9	3.80e-06	0	43	0	1507852288	15	4613
2026-01-01 10:11:40.88	343.88	10.71	-27.8	-30.2	13.7	7.60e-06	0	43	0	1510998016	15	4715
2026-01-01 10:11:41.89	343.87	10.62	-27.8	-30.0	13.7	3.00e-06	0	43	0	1514143744	15	4674
2026-01-01 10:11:42.89	343.85	10.53	-27.8	-30.0	13.8	5.30e-06	0	43	0	1517289472	15	4650
2026-01-01 10:11:43.89	343.84	10.44	-27.8	-30.1	13.7	5.30e-06	0	43	0	1520435200	15	4687
2026-01-01 10:11:44.89	343.82	10.35	-27.8	-30.1	13.7	8.30e-06	0	43	0	1523580928	15	4693
2026-01-01 10:11:45.89	343.81	10.27	-27.8	-30.2	13.6	9.10e-06	0	43	0	1526726656	15	4716
2026-01-01 10:11:46.89	343.79	10.18	-27.9	-30.2	13.6	9.90e-06	0	43	0	1529872384	15	4739
2026-01-01 10:11:47.89	343.78	10.09	-27.9	-30.3	13.5	6.80e-06	0	43	0	1533018112	15	4761
2026-01-01 10:11:48.89	343.76	10.01	-27.9	-30.4	13.5	1.37e-05	0	43	0	1536163840	15	4775
2026-01-01 10:11:49.90	343.75	9.92	-28.2	-30.5	13.3	1.44e-05	0	43	0	1539309568	16	4708
2026-01-01 10:11:50.91	343.73	9.83	-28.1	-30.3	13.4	1.67e-05	0	43	0	1542455296	16	4648
2026-01-01 10:11:51.91	343.72	9.75	-28.1	-30.3	13.4	1.06e-05	0	43	0	1545601024	16	4634
2026-01-01 10:11:52.91	343.70	9.66	-28.1	-30.3	13.4	1.06e-05	0	43	0	1548746752	16	4630
2026-01-01 10:11:53.92	343.69	9.58	-28.0	-30.1	13.5	1.22e-05	0	43	0	1551892480	16	4585
2026-01-01 10:11:54.92	343.68	9.49	-28.1	-30.4	13.3	1.67e-05	0	43	0	1555038208	16	4666
2026-01-01 10:11:55.92	343.66	9.41	-28.1	-30.3	13.3	2.44e-05	0	43	0	1558183936	16	4649
2026-01-01 10:11:56.93	343.65	9.32	-28.2	-30.5	13.3	2.21e-05	0	43	0	1561329664	16	4686
2026-01-01 10:11:57.93	343.63	9.24	-28.1	-30.3	13.4	1.90e-05	0	43	0	1564475392	16	4635
2026-01-01 10:11:58.94	343.62	9.16	-28.2	-30.4	13.3	1.75e-05	0	43	0	1567621120	16	4684
2026-01-01 10:11:59.94	343.61	9.07	-28.2	-30.5	13.2	1.37e-05	0	43	0	1570766848	16	4696
2026-01-01 10:12:00.94	343.59	8.99	-28.3	-30.8	13.0	2.36e-05	0	43	0	1573912576	16	4808
2026-01-01 10:12:01.94	343.58	8.91	-28.3	-30.9	13.0	4.50e-05	0	43	0	1577058304	16	4841
2026-01-01 10:12:02.95	343.57	8.82	-28.3	-30.9	12.9	4.34e-05	0	43	0	1580204032	16	4852
2026-01-01 10:12:03.95	343.55	8.74	-28.4	-31.1	12.8	5.72e-05	0	43	0	1583349760	16	4891
2026-01-01 10:12:04.95	343.54	8.66	-28.4	-31.2	12.8	7.78e-05	0	43	0	1586495488	16	4925
2026-01-01 10:12:05.96	343.53	8.58	-28.5	-31.3	12.7	7.70e-05	0	43	0	1589641216	16	4971
2026-01-01 10:12:06.97	343.51	8.50	-28.4	-31.1	12.8	7.09e-05	0	43	0	1592786944	16	4902
2026-01-01 10:12:07.97	343.50	8.41	-28.7	-31.2	12.3	1.33e-04	0	43	0	1595932672	17	4843
2026-01-01 10:12:08.96	343.49	8.33	-28.5	-30.7	12.7	1.07e-04	0	43	0	1598029824	17	4678
2026-01-01 10:12:09.96	343.48	8.25	-28.4	-30.5	12.8	7.62e-05	0	43	0	1601175552	17	4616
2026-01-01 10:12:10.97	343.46	8.17	-28.4	-30.5	12.8	6.63e-05	0	43	0	1604321280	17	4608
2026-01-01 10:12:11.97	343.45	8.09	-28.4	-30.7	12.7	6.56e-05	0	43	0	1608515584	17	4653
2026-01-01 10:12:12.98	343.44	8.01	-28.4	-30.6	12.7	7.78e-05	0	44	0	1611661312	17	4631
2026-01-01 10:12:13.97	343.43	7.93	-28.5	-30.8	12.6	8.92e-05	0	43	0	1614807040	17	4693
2026-01-01 10:12:14.97	343.42	7.85	-28.5	-30.7	12.6	7.09e-05	0	43	0	1617952768	17	4685
2026-01-01 10:12:15.97	343.40	7.78	-28.6	-31.1	12.4	1.17e-04	0	43	0	1620049920	17	4802
2026-01-01 10:12:16.98	343.39	7.70	-28.5	-31.0	12.5	1.14e-04	0	43	0	1623195648	17	4754
2026-01-01 10:12:17.98	343.38	7.62	-28.5	-30.9	12.5	1.24e-04	0	43	0	1626341376	17	4742
2026-01-01 10:12:18.99	343.37	7.54	-28.6	-31.2	12.3	1.58e-04	0	43	0	1629487104	17	4853
2026-01-01 10:12:19.99	343.36	7.46	-28.7	-31.3	12.2	2.13e-04	0	43	0	1632632832	17	4873
2026-01-01 10:12:20.99	343.34	7.38	-28.8	-31.6	12.0	2.82e-04	0	43	0	1635778560	17	4982
2026-01-01 10:12:21.99	343.33	7.30	-28.6	-31.1	12.3	2.10e-04	0	43	0	1638924288	17	4815
2026-01-01 10:12:23.00	343.32	7.23	-28.7	-31.4	12.1	2.51e-04	0	43	0	1642070016	17	4900
2026-01-01 10:12:24.01	343.31	7.15	-28.7	-31.5	12.1	2.97e-04	0	43	0	1645215744	17	4961
2026-01-01 10:12:25.01	343.30	7.07	-32.5	-42.3	3.9	1.48e+00	0	43	104	1647312896	25	11142
2026-01-01 10:12:26.01	343.29	7.00	-33.0	-44.8	3.8	1.49e+00	0	43	104	1647312896	26	13948
2026-01-01 10:12:27.02	343.28	6.92	-33.3	-45.4	3.8	1.49e+00	0	43	104	1647312896	26	14503

#Closed at: 2026-01-01 10:12:27
#Recorded file [1647 MB]: D:/data/31010_260101_130337.dat