passes_logs/2026/01/01/R2M6_AANII_01/R2M6_AANII_01__20260101_032616_FENGYUN_3E_rec.log

#Pass ID: 20260101_032616_FENGYUN 3E
#Satellite: FENGYUN 3E
#Configuration: FENGYUN 3E
#almurnet v.1.7.20240730
#Start time: 2026-01-01 03:30:42

#Version: 2.2.20231116
#Station: R2M6_AANII_01
#Location: 30.233357 lon 59.946436 lat
#TLE: 1 49008U 21062A   25365.55977344  .00000403  00000+0  21051-3 0  9995
#TLE: 2 49008  98.7483   5.8586 0001311 170.0615 190.0588 14.19883886232790

#Time	Az	El	Level	Level2	SNR	BER	BlckErr	Temp	State	Recorded	gain1	gain2
2026-01-01 03:30:42.85	68.49	31.08	-33.1	-44.2	3.8	8.45e-01	0	43	0	0	26	13006
2026-01-01 03:30:43.83	68.81	31.17	-33.5	-43.4	3.8	8.45e-01	0	43	104	0	26	11181
2026-01-01 03:30:44.83	69.13	31.25	-33.5	-43.4	3.8	8.45e-01	0	43	104	0	26	11213
2026-01-01 03:30:45.83	69.46	31.33	-33.5	-43.4	3.8	8.47e-01	0	43	104	0	26	11231
2026-01-01 03:30:46.83	69.78	31.41	-33.6	-43.5	3.8	8.46e-01	0	43	104	0	26	11271
2026-01-01 03:30:47.83	70.11	31.49	-33.6	-43.5	3.8	8.46e-01	0	43	104	0	26	11270
2026-01-01 03:30:48.82	70.44	31.57	-33.6	-43.5	3.8	8.46e-01	0	43	104	0	26	11257
2026-01-01 03:30:49.82	70.77	31.65	-33.6	-43.5	3.8	8.46e-01	0	43	104	0	26	11279
2026-01-01 03:30:50.82	71.11	31.73	-33.6	-43.4	3.8	8.45e-01	0	43	104	0	26	11237
2026-01-01 03:30:51.81	71.44	31.80	-33.6	-43.4	3.8	8.46e-01	0	43	104	0	26	11217
2026-01-01 03:30:52.81	71.77	31.88	-33.6	-43.5	3.8	8.46e-01	0	43	104	0	26	11254
2026-01-01 03:30:53.81	72.11	31.95	-33.5	-43.4	3.8	8.47e-01	0	43	104	0	26	11208
2026-01-01 03:30:54.81	72.45	32.03	-33.5	-43.4	3.8	8.47e-01	0	43	104	0	26	11227
2026-01-01 03:30:55.82	72.80	32.10	-33.5	-43.4	3.8	8.46e-01	0	43	104	0	26	11242
2026-01-01 03:30:56.81	73.13	32.17	-33.5	-43.4	3.8	8.45e-01	0	43	104	0	26	11233
2026-01-01 03:30:57.81	73.48	32.24	-33.6	-43.4	3.8	8.45e-01	0	43	104	0	26	11223
2026-01-01 03:30:58.81	73.82	32.31	-33.6	-43.5	3.8	8.45e-01	0	43	104	0	26	11265
2026-01-01 03:30:59.81	74.17	32.38	-33.5	-43.4	3.8	8.44e-01	0	43	104	0	26	11253
2026-01-01 03:31:00.80	74.52	32.45	-33.5	-43.4	3.8	8.47e-01	0	43	104	0	26	11221
2026-01-01 03:31:01.80	74.87	32.52	-33.4	-43.1	3.8	8.46e-01	0	43	104	0	26	10998
2026-01-01 03:31:02.79	75.21	32.59	-33.4	-43.2	3.8	8.46e-01	0	43	104	0	26	11070
2026-01-01 03:31:03.79	75.57	32.65	-33.3	-43.0	3.8	8.47e-01	0	43	104	0	26	10995
2026-01-01 03:31:04.79	75.92	32.72	-33.5	-43.3	3.8	8.46e-01	0	43	104	0	26	11180
2026-01-01 03:31:05.78	76.27	32.78	-33.4	-43.2	3.8	8.46e-01	0	43	104	0	26	11127
2026-01-01 03:31:06.77	76.63	32.84	-33.4	-43.2	3.8	8.46e-01	0	43	104	0	26	11085
2026-01-01 03:31:07.77	76.99	32.90	-33.4	-43.0	3.8	8.46e-01	0	43	104	0	26	10889
2026-01-01 03:31:08.77	77.35	32.96	-33.3	-42.6	3.8	8.46e-01	0	43	104	0	26	10515
2026-01-01 03:31:09.76	77.70	33.02	-33.3	-42.8	3.8	8.46e-01	0	43	104	0	26	10820
2026-01-01 03:31:10.76	78.07	33.08	-33.2	-42.2	3.8	8.46e-01	0	43	104	0	26	10198
2026-01-01 03:31:11.76	78.43	33.13	-33.2	-42.1	3.8	8.46e-01	0	43	104	0	26	10100
2026-01-01 03:31:12.76	78.79	33.19	-33.1	-42.0	3.8	8.46e-01	0	43	104	0	26	10015
2026-01-01 03:31:13.75	79.16	33.24	-33.2	-42.3	3.8	8.46e-01	0	43	104	0	26	10246
2026-01-01 03:31:14.76	79.53	33.30	-33.2	-42.6	3.8	8.46e-01	0	43	104	0	26	10575
2026-01-01 03:31:15.76	79.90	33.35	-33.2	-42.6	3.8	8.47e-01	0	43	104	0	26	10664
2026-01-01 03:31:16.76	80.27	33.40	-33.2	-42.6	3.8	8.47e-01	0	43	104	0	26	10665
2026-01-01 03:31:17.77	80.64	33.45	-33.2	-42.4	3.8	8.47e-01	0	43	104	0	26	10345
2026-01-01 03:31:18.78	81.02	33.50	-33.1	-41.8	3.8	8.45e-01	0	43	104	0	26	9789
2026-01-01 03:31:19.78	81.39	33.55	-33.0	-41.1	3.8	8.46e-01	0	43	104	0	26	9179
2026-01-01 03:31:20.79	81.77	33.59	-32.9	-41.2	3.8	8.45e-01	0	43	104	0	25	9344
2026-01-01 03:31:21.79	82.14	33.64	-32.9	-41.0	3.8	8.46e-01	0	43	104	0	25	9162
2026-01-01 03:31:22.79	82.52	33.68	-32.9	-41.1	3.9	8.45e-01	0	43	104	0	25	9186
2026-01-01 03:31:23.80	82.90	33.72	-33.0	-41.6	3.8	8.46e-01	0	43	104	0	25	9723
2026-01-01 03:31:24.80	83.28	33.77	-33.0	-41.8	3.8	8.46e-01	0	43	104	0	25	9865
2026-01-01 03:31:25.81	83.66	33.81	-33.0	-41.5	3.8	8.46e-01	0	43	104	0	25	9571
2026-01-01 03:31:26.81	84.04	33.84	-32.9	-41.3	3.8	8.45e-01	0	43	104	0	25	9393
2026-01-01 03:31:27.81	84.42	33.88	-33.0	-41.7	3.8	8.46e-01	0	43	104	0	25	9820
2026-01-01 03:31:28.82	84.81	33.92	-33.1	-42.2	3.8	8.47e-01	0	43	104	0	25	10339
2026-01-01 03:31:29.83	85.19	33.95	-33.1	-42.4	3.8	8.46e-01	0	44	104	0	25	10542
2026-01-01 03:31:30.83	85.58	33.98	-33.1	-42.0	3.8	8.47e-01	0	44	104	0	26	10063
2026-01-01 03:31:31.83	85.96	34.01	-33.0	-41.3	3.8	8.47e-01	0	43	104	0	26	9359
2026-01-01 03:31:32.83	86.34	34.04	-31.9	-36.4	4.3	8.29e-01	0	44	104	0	24	6038
2026-01-01 03:31:33.84	86.73	34.07	-29.3	-30.7	10.4	3.28e-02	0	43	0	0	19	4262
2026-01-01 03:31:34.85	87.12	34.10	-26.5	-26.8	14.1	7.43e-05	0	43	0	7340032	14	3712
2026-01-01 03:31:35.85	87.51	34.13	-25.2	-25.4	15.7	0.00e+00	0	43	0	14680064	11	3692
2026-01-01 03:31:36.86	87.90	34.15	-25.4	-26.0	15.4	0.00e+00	0	43	0	20971520	11	3821
2026-01-01 03:31:37.86	88.29	34.17	-25.9	-26.9	14.9	3.20e-05	0	43	0	28311552	11	4060
2026-01-01 03:31:38.86	88.68	34.20	-25.5	-26.1	15.3	0.00e+00	0	43	0	35651584	11	3862
2026-01-01 03:31:39.87	89.07	34.22	-25.7	-26.5	15.1	0.00e+00	0	44	0	42991616	11	3948
2026-01-01 03:31:40.87	89.46	34.23	-25.4	-25.9	15.4	0.00e+00	0	43	0	50331648	11	3809
2026-01-01 03:31:41.87	89.85	34.25	-25.3	-25.6	15.6	0.00e+00	0	44	0	57671680	11	3722
2026-01-01 03:31:42.88	90.24	34.27	-25.2	-25.4	15.7	0.00e+00	0	43	0	65011712	11	3696
2026-01-01 03:31:43.89	90.64	34.28	-25.2	-25.4	15.7	0.00e+00	0	43	0	72351744	11	3697
2026-01-01 03:31:44.89	91.03	34.29	-25.2	-25.5	15.7	0.00e+00	0	43	0	79691776	11	3705
2026-01-01 03:31:45.89	91.42	34.31	-26.0	-27.2	14.8	0.00e+00	0	44	0	85983232	11	4128
2026-01-01 03:31:46.89	91.81	34.32	-25.4	-25.9	15.4	1.10e-06	0	43	0	93323264	11	3818
2026-01-01 03:31:47.90	92.21	34.32	-24.6	-24.6	16.4	2.51e-05	0	43	0	100663296	10	3600
2026-01-01 03:31:48.90	92.60	34.33	-23.9	-24.0	17.2	0.00e+00	0	43	0	108003328	8	3681
2026-01-01 03:31:49.90	92.99	34.34	-23.2	-23.2	17.9	2.28e-05	0	43	0	115343360	7	3590
2026-01-01 03:31:50.90	93.38	34.34	-22.7	-22.7	18.3	0.00e+00	0	43	0	122683392	6	3597
2026-01-01 03:31:51.91	93.78	34.34	-22.5	-22.2	18.6	0.00e+00	0	43	0	130023424	6	3472
2026-01-01 03:31:52.91	94.17	34.34	-22.5	-22.2	18.6	7.66e-05	0	43	0	137363456	6	3493
2026-01-01 03:31:53.92	94.57	34.34	-22.4	-22.4	18.7	0.00e+00	0	43	0	144703488	5	3630
2026-01-01 03:31:54.92	94.96	34.34	-22.3	-22.4	18.8	0.00e+00	0	43	0	152043520	5	3615
2026-01-01 03:31:55.92	95.35	34.34	-22.3	-22.3	18.8	0.00e+00	0	43	0	159383552	5	3594
2026-01-01 03:31:56.92	95.75	34.33	-22.4	-22.5	18.7	0.00e+00	0	43	0	166723584	5	3643
2026-01-01 03:31:57.93	96.14	34.33	-22.3	-22.3	18.8	0.00e+00	0	44	0	173015040	5	3594
2026-01-01 03:31:58.93	96.53	34.32	-22.3	-22.4	18.7	0.00e+00	0	43	0	180355072	5	3615
2026-01-01 03:31:59.93	96.93	34.31	-22.3	-22.3	18.8	0.00e+00	0	43	0	187695104	5	3595
2026-01-01 03:32:00.93	97.32	34.30	-22.4	-22.6	18.6	0.00e+00	0	43	0	195035136	5	3666
2026-01-01 03:32:01.94	97.71	34.29	-22.4	-22.5	18.7	0.00e+00	0	43	0	202375168	5	3645
2026-01-01 03:32:02.94	98.10	34.27	-22.6	-22.9	18.5	6.80e-06	0	43	0	209715200	5	3734
2026-01-01 03:32:03.94	98.49	34.26	-22.4	-22.5	18.7	0.00e+00	0	43	0	217055232	5	3651
2026-01-01 03:32:04.94	98.88	34.24	-22.3	-22.2	18.8	0.00e+00	0	43	0	224395264	5	3584
2026-01-01 03:32:05.95	99.28	34.22	-22.2	-22.1	18.9	0.00e+00	0	43	0	231735296	5	3555
2026-01-01 03:32:06.94	99.66	34.20	-22.1	-22.0	19.0	0.00e+00	0	43	0	238026752	5	3524
2026-01-01 03:32:07.95	100.06	34.18	-22.1	-21.9	19.0	0.00e+00	0	44	0	246415360	5	3511
2026-01-01 03:32:08.95	100.44	34.16	-22.3	-22.3	18.8	0.00e+00	0	43	0	252706816	5	3609
2026-01-01 03:32:09.96	100.84	34.14	-22.1	-22.0	18.9	0.00e+00	0	43	0	260046848	5	3531
2026-01-01 03:32:10.96	101.22	34.11	-22.3	-22.3	18.8	0.00e+00	0	43	0	267386880	5	3610
2026-01-01 03:32:11.96	101.61	34.08	-22.4	-22.4	18.7	0.00e+00	0	44	0	274726912	5	3630
2026-01-01 03:32:12.96	102.00	34.06	-22.4	-22.6	18.6	0.00e+00	0	43	0	282066944	5	3668
2026-01-01 03:32:13.97	102.39	34.03	-22.4	-22.6	18.6	0.00e+00	0	43	0	289406976	5	3658
2026-01-01 03:32:14.96	102.77	34.00	-22.4	-22.4	18.7	0.00e+00	0	43	0	296747008	5	3620
2026-01-01 03:32:15.97	103.16	33.96	-22.4	-22.5	18.7	0.00e+00	0	43	0	304087040	5	3650
2026-01-01 03:32:16.97	103.54	33.93	-22.6	-23.0	18.4	0.00e+00	0	43	0	311427072	5	3744
2026-01-01 03:32:17.97	103.92	33.90	-22.8	-23.4	18.2	0.00e+00	0	43	0	317718528	5	3832
2026-01-01 03:32:18.98	104.31	33.86	-22.7	-23.1	18.3	0.00e+00	0	43	0	325058560	5	3762
2026-01-01 03:32:19.98	104.69	33.82	-22.6	-23.0	18.4	0.00e+00	0	43	0	332398592	5	3743
2026-01-01 03:32:20.99	105.07	33.78	-22.7	-23.1	18.4	0.00e+00	0	43	0	339738624	5	3766
2026-01-01 03:32:21.99	105.45	33.74	-22.6	-22.9	18.4	0.00e+00	0	43	0	347078656	5	3728
2026-01-01 03:32:22.99	105.83	33.70	-22.5	-22.7	18.6	0.00e+00	0	43	0	354418688	5	3682
2026-01-01 03:32:24.00	106.21	33.66	-22.6	-23.0	18.4	0.00e+00	0	43	0	361758720	5	3743
2026-01-01 03:32:25.00	106.59	33.61	-22.5	-22.6	18.6	0.00e+00	0	43	0	369098752	5	3656
2026-01-01 03:32:26.00	106.96	33.57	-22.8	-23.4	18.2	0.00e+00	0	43	0	376438784	5	3835
2026-01-01 03:32:27.01	107.34	33.52	-22.5	-22.6	18.6	0.00e+00	0	43	0	383778816	5	3665
2026-01-01 03:32:28.01	107.71	33.47	-22.2	-22.1	18.8	0.00e+00	0	43	0	391118848	5	3559
2026-01-01 03:32:29.02	108.09	33.42	-22.1	-21.9	18.9	0.00e+00	0	43	0	398458880	5	3516
2026-01-01 03:32:30.02	108.46	33.37	-22.1	-21.9	18.9	0.00e+00	0	43	0	404750336	5	3506
2026-01-01 03:32:31.02	108.83	33.32	-22.1	-21.9	18.9	0.00e+00	0	44	0	412090368	5	3523
2026-01-01 03:32:32.02	109.20	33.27	-22.1	-21.9	18.9	0.00e+00	0	43	0	419430400	5	3505
2026-01-01 03:32:33.03	109.57	33.21	-22.5	-22.6	18.6	0.00e+00	0	43	0	426770432	5	3666
2026-01-01 03:32:34.04	109.94	33.16	-22.4	-22.4	18.7	0.00e+00	0	43	0	434110464	5	3632
2026-01-01 03:32:35.04	110.30	33.10	-22.7	-23.1	18.3	0.00e+00	0	43	0	441450496	5	3768
2026-01-01 03:32:36.04	110.67	33.04	-22.5	-22.6	18.6	0.00e+00	0	44	0	448790528	5	3663
2026-01-01 03:32:37.04	111.03	32.98	-22.6	-22.8	18.4	0.00e+00	0	43	0	456130560	5	3712
2026-01-01 03:32:38.04	111.39	32.92	-22.8	-23.4	18.1	0.00e+00	0	43	0	462422016	5	3836
2026-01-01 03:32:39.05	111.75	32.86	-22.8	-23.3	18.2	0.00e+00	0	43	0	470810624	5	3813
2026-01-01 03:32:40.05	112.11	32.80	-22.7	-23.0	18.3	0.00e+00	0	44	0	478150656	5	3762
2026-01-01 03:32:41.06	112.47	32.73	-22.6	-23.0	18.3	0.00e+00	0	43	0	484442112	5	3751
2026-01-01 03:32:42.06	112.83	32.67	-22.8	-23.4	18.2	0.00e+00	0	43	0	491782144	5	3834
2026-01-01 03:32:43.06	113.18	32.61	-22.8	-23.4	18.2	0.00e+00	0	44	0	499122176	5	3836
2026-01-01 03:32:44.06	113.54	32.54	-22.9	-23.5	18.1	0.00e+00	0	43	0	506462208	5	3865
2026-01-01 03:32:45.07	113.89	32.47	-22.5	-22.7	18.5	0.00e+00	0	43	0	513802240	5	3689
2026-01-01 03:32:46.07	114.24	32.40	-22.3	-22.3	18.7	1.10e-06	0	43	0	521142272	5	3595
2026-01-01 03:32:47.07	114.59	32.33	-22.3	-22.2	18.7	0.00e+00	0	43	0	528482304	5	3573
2026-01-01 03:32:48.07	114.94	32.26	-22.3	-22.3	18.7	0.00e+00	0	44	0	535822336	5	3596
2026-01-01 03:32:49.06	115.28	32.19	-22.3	-22.2	18.7	1.10e-06	0	43	0	543162368	5	3584
2026-01-01 03:32:50.07	115.63	32.12	-22.4	-22.4	18.6	0.00e+00	0	44	0	549453824	5	3632
2026-01-01 03:32:51.07	115.97	32.04	-22.5	-22.6	18.5	0.00e+00	0	43	0	556793856	5	3669
2026-01-01 03:32:52.08	116.31	31.97	-22.6	-22.9	18.4	4.50e-06	0	43	0	564133888	5	3737
2026-01-01 03:32:53.07	116.65	31.90	-22.5	-22.8	18.4	0.00e+00	0	43	0	571473920	5	3700
2026-01-01 03:32:54.08	116.99	31.82	-22.5	-22.8	18.4	0.00e+00	0	43	0	578813952	5	3710
2026-01-01 03:32:55.08	117.33	31.74	-22.6	-22.9	18.4	4.50e-06	0	43	0	586153984	5	3738
2026-01-01 03:32:56.08	117.66	31.66	-22.4	-22.6	18.5	0.00e+00	0	43	0	593494016	5	3653
2026-01-01 03:32:57.09	118.00	31.58	-22.3	-22.3	18.6	0.00e+00	0	43	0	600834048	5	3607
2026-01-01 03:32:58.09	118.33	31.50	-22.3	-22.3	18.7	2.20e-06	0	43	0	607125504	5	3599
2026-01-01 03:32:59.10	118.66	31.42	-22.2	-22.1	18.7	0.00e+00	0	43	0	615514112	5	3547
2026-01-01 03:33:00.10	118.99	31.34	-22.3	-22.3	18.7	0.00e+00	0	43	0	622854144	5	3586
2026-01-01 03:33:01.10	119.32	31.26	-22.1	-21.9	18.8	0.00e+00	0	43	0	629145600	5	3516
2026-01-01 03:33:02.11	119.65	31.18	-22.1	-22.0	18.8	0.00e+00	0	43	0	636485632	5	3523
2026-01-01 03:33:03.11	119.97	31.09	-22.2	-22.2	18.7	0.00e+00	0	43	0	643825664	5	3568
2026-01-01 03:33:04.12	120.30	31.01	-22.3	-22.4	18.6	0.00e+00	0	43	0	651165696	5	3612
2026-01-01 03:33:05.12	120.62	30.92	-22.2	-22.1	18.7	0.00e+00	0	43	0	658505728	5	3564
2026-01-01 03:33:06.12	120.94	30.84	-22.3	-22.2	18.7	0.00e+00	0	43	0	665845760	5	3583
2026-01-01 03:33:07.13	121.26	30.75	-22.2	-22.1	18.7	0.00e+00	0	44	0	673185792	5	3554
2026-01-01 03:33:08.13	121.57	30.66	-22.2	-22.2	18.7	0.00e+00	0	43	0	680525824	5	3579
2026-01-01 03:33:09.14	121.89	30.57	-22.4	-22.5	18.5	0.00e+00	0	43	0	687865856	5	3638
2026-01-01 03:33:10.15	122.20	30.49	-22.3	-22.3	18.7	0.00e+00	0	43	0	695205888	5	3591
2026-01-01 03:33:11.14	122.51	30.40	-22.3	-22.3	18.6	0.00e+00	0	43	0	701497344	5	3599
2026-01-01 03:33:12.14	122.82	30.31	-22.3	-22.3	18.6	0.00e+00	0	43	0	708837376	5	3604
2026-01-01 03:33:13.14	123.13	30.22	-22.5	-22.8	18.4	0.00e+00	0	43	0	716177408	5	3712
2026-01-01 03:33:14.15	123.43	30.13	-22.5	-22.8	18.4	0.00e+00	0	43	0	723517440	5	3697
2026-01-01 03:33:15.16	123.74	30.03	-22.7	-23.0	18.3	0.00e+00	0	43	0	730857472	5	3759
2026-01-01 03:33:16.16	124.04	29.94	-22.6	-22.9	18.3	0.00e+00	0	43	0	738197504	5	3735
2026-01-01 03:33:17.17	124.35	29.85	-22.6	-22.8	18.2	0.00e+00	0	43	0	745537536	5	3719
2026-01-01 03:33:18.17	124.64	29.75	-22.6	-23.0	18.3	0.00e+00	0	43	0	752877568	5	3753
2026-01-01 03:33:19.18	124.94	29.66	-22.4	-22.6	18.5	0.00e+00	0	43	0	760217600	5	3672
2026-01-01 03:33:20.17	125.24	29.57	-22.6	-22.8	18.3	0.00e+00	0	43	0	767557632	5	3720
2026-01-01 03:33:21.18	125.53	29.47	-22.4	-22.6	18.5	0.00e+00	0	44	0	774897664	5	3666
2026-01-01 03:33:22.18	125.82	29.38	-22.4	-22.4	18.5	3.40e-06	0	43	0	781189120	5	3624
2026-01-01 03:33:23.19	126.12	29.28	-22.4	-22.5	18.5	4.80e-05	0	43	0	788529152	5	3654
2026-01-01 03:33:24.19	126.41	29.18	-22.4	-22.4	18.6	0.00e+00	0	43	0	795869184	5	3620
2026-01-01 03:33:25.18	126.69	29.09	-22.4	-22.5	18.5	4.50e-06	0	44	0	803209216	5	3653
2026-01-01 03:33:26.19	126.98	28.99	-22.5	-22.7	18.4	0.00e+00	0	44	0	810549248	5	3694
2026-01-01 03:33:27.19	127.26	28.89	-22.6	-23.0	18.3	0.00e+00	0	43	0	817889280	5	3749
2026-01-01 03:33:28.20	127.54	28.79	-22.5	-22.8	18.3	0.00e+00	0	44	0	825229312	5	3716
2026-01-01 03:33:29.20	127.82	28.70	-22.5	-22.8	18.4	0.00e+00	0	43	0	832569344	5	3701
2026-01-01 03:33:30.20	128.10	28.60	-22.6	-22.9	18.3	0.00e+00	0	43	0	839909376	5	3736
2026-01-01 03:33:31.20	128.38	28.50	-22.3	-22.3	18.6	0.00e+00	0	43	0	847249408	5	3610
2026-01-01 03:33:32.20	128.65	28.40	-22.3	-22.2	18.6	0.00e+00	0	43	0	854589440	5	3588
2026-01-01 03:33:33.21	128.93	28.30	-22.3	-22.2	18.6	0.00e+00	0	43	0	860880896	5	3590
2026-01-01 03:33:34.21	129.20	28.20	-22.2	-22.1	18.7	0.00e+00	0	43	0	868220928	5	3549
2026-01-01 03:33:35.21	129.47	28.10	-22.3	-22.3	18.6	0.00e+00	0	43	0	875560960	5	3601
2026-01-01 03:33:36.22	129.74	28.00	-22.2	-22.1	18.7	0.00e+00	0	43	0	882900992	5	3567
2026-01-01 03:33:37.22	130.01	27.90	-22.3	-22.4	18.5	0.00e+00	0	43	0	890241024	5	3620
2026-01-01 03:33:38.22	130.27	27.80	-22.5	-22.8	18.3	0.00e+00	0	43	0	897581056	5	3700
2026-01-01 03:33:39.23	130.54	27.69	-22.5	-22.8	18.3	0.00e+00	0	43	0	904921088	5	3706
2026-01-01 03:33:40.23	130.80	27.59	-22.6	-23.0	18.2	0.00e+00	0	44	0	912261120	5	3765
2026-01-01 03:33:41.23	131.06	27.49	-22.7	-23.2	18.1	0.00e+00	0	43	0	919601152	5	3805
2026-01-01 03:33:42.24	131.32	27.39	-22.6	-23.0	18.2	0.00e+00	0	43	0	925892608	5	3761
2026-01-01 03:33:43.24	131.58	27.28	-22.7	-23.1	18.1	2.41e-04	0	44	0	933232640	5	3781
2026-01-01 03:33:44.24	131.83	27.18	-22.7	-23.1	18.1	0.00e+00	0	43	0	940572672	5	3782
2026-01-01 03:33:45.24	132.09	27.08	-22.5	-22.6	18.3	0.00e+00	0	43	0	947912704	5	3674
2026-01-01 03:33:46.24	132.34	26.98	-22.5	-22.6	18.4	0.00e+00	0	43	0	955252736	5	3662
2026-01-01 03:33:47.24	132.59	26.87	-22.5	-22.8	18.3	0.00e+00	0	43	0	962592768	5	3701
2026-01-01 03:33:48.24	132.84	26.77	-22.7	-23.1	18.1	0.00e+00	0	43	0	969932800	5	3781
2026-01-01 03:33:49.24	133.09	26.67	-22.6	-22.8	18.3	0.00e+00	0	43	0	977272832	5	3714
2026-01-01 03:33:50.24	133.33	26.56	-22.5	-22.7	18.3	0.00e+00	0	43	0	984612864	5	3683
2026-01-01 03:33:51.25	133.58	26.46	-22.6	-22.9	18.2	0.00e+00	0	43	0	990904320	5	3738
2026-01-01 03:33:52.25	133.82	26.35	-22.6	-23.0	18.2	0.00e+00	0	43	0	999292928	5	3765
2026-01-01 03:33:53.25	134.06	26.25	-22.8	-23.3	18.0	0.00e+00	0	43	0	1005584384	5	3834
2026-01-01 03:33:54.25	134.30	26.14	-22.8	-23.3	18.0	0.00e+00	0	43	0	1012924416	5	3828
2026-01-01 03:33:55.25	134.54	26.04	-22.8	-23.5	17.9	0.00e+00	0	43	0	1020264448	5	3873
2026-01-01 03:33:56.26	134.78	25.94	-22.7	-23.3	18.0	0.00e+00	0	43	0	1027604480	5	3820
2026-01-01 03:33:57.27	135.02	25.83	-22.7	-23.1	18.1	0.00e+00	0	43	0	1034944512	5	3776
2026-01-01 03:33:58.27	135.25	25.72	-22.7	-23.2	18.1	0.00e+00	0	43	0	1042284544	5	3802
2026-01-01 03:33:59.27	135.48	25.62	-22.6	-23.0	18.1	0.00e+00	0	43	0	1049624576	5	3760
2026-01-01 03:34:00.28	135.71	25.51	-22.6	-23.0	18.2	1.10e-06	0	43	0	1056964608	5	3761
2026-01-01 03:34:01.28	135.94	25.41	-22.7	-23.2	18.1	0.00e+00	0	43	0	1064304640	5	3791
2026-01-01 03:34:02.29	136.17	25.30	-22.5	-22.8	18.3	0.00e+00	0	43	0	1070596096	5	3703
2026-01-01 03:34:03.29	136.40	25.20	-22.6	-22.9	18.2	1.10e-06	0	43	0	1077936128	5	3730
2026-01-01 03:34:04.29	136.62	25.09	-22.4	-22.6	18.4	0.00e+00	0	43	0	1085276160	5	3659
2026-01-01 03:34:05.29	136.85	24.99	-22.5	-22.8	18.2	0.00e+00	0	43	0	1092616192	5	3706
2026-01-01 03:34:06.29	137.07	24.88	-22.6	-22.9	18.2	0.00e+00	0	43	0	1099956224	5	3725
2026-01-01 03:34:07.29	137.29	24.78	-22.6	-23.0	18.1	0.00e+00	0	43	0	1107296256	5	3756
2026-01-01 03:34:08.29	137.51	24.67	-22.7	-23.1	18.0	0.00e+00	0	43	0	1114636288	5	3789
2026-01-01 03:34:09.29	137.72	24.57	-22.9	-23.5	17.9	0.00e+00	0	43	0	1121976320	5	3869
2026-01-01 03:34:10.30	137.94	24.46	-22.8	-23.4	17.9	0.00e+00	0	43	0	1129316352	5	3849
2026-01-01 03:34:11.29	138.15	24.36	-22.8	-23.4	17.9	0.00e+00	0	43	0	1135607808	5	3862
2026-01-01 03:34:12.30	138.37	24.25	-22.9	-23.5	17.8	0.00e+00	0	43	0	1143996416	5	3880
2026-01-01 03:34:13.31	138.58	24.15	-22.9	-23.5	17.9	0.00e+00	0	43	0	1151336448	5	3870
2026-01-01 03:34:14.31	138.79	24.04	-22.9	-23.5	17.8	0.00e+00	0	43	0	1157627904	5	3882
2026-01-01 03:34:15.31	139.00	23.94	-22.9	-23.6	17.8	0.00e+00	0	43	0	1164967936	5	3902
2026-01-01 03:34:16.31	139.21	23.83	-22.9	-23.6	17.7	0.00e+00	0	43	0	1172307968	5	3906
2026-01-01 03:34:17.32	139.42	23.73	-22.9	-23.5	17.8	0.00e+00	0	43	0	1179648000	5	3873
2026-01-01 03:34:18.32	139.62	23.62	-22.9	-23.5	17.8	0.00e+00	0	43	0	1186988032	5	3883
2026-01-01 03:34:19.33	139.83	23.51	-22.9	-23.6	17.8	0.00e+00	0	43	0	1194328064	5	3898
2026-01-01 03:34:20.33	140.03	23.41	-23.0	-23.7	17.7	0.00e+00	0	43	0	1201668096	5	3929
2026-01-01 03:34:21.34	140.23	23.30	-23.0	-23.9	17.6	0.00e+00	0	43	0	1209008128	5	3960
2026-01-01 03:34:22.35	140.43	23.20	-22.9	-23.6	17.8	0.00e+00	0	43	0	1215299584	5	3893
2026-01-01 03:34:23.35	140.63	23.09	-23.0	-23.9	17.6	0.00e+00	0	43	0	1223688192	5	3964
2026-01-01 03:34:24.36	140.83	22.99	-23.2	-23.6	17.5	0.00e+00	0	43	0	1231028224	6	3795
2026-01-01 03:34:25.36	141.03	22.88	-23.0	-23.3	17.7	0.00e+00	0	43	0	1237319680	6	3731
2026-01-01 03:34:26.36	141.22	22.78	-23.0	-23.3	17.6	0.00e+00	0	43	0	1244659712	6	3727
2026-01-01 03:34:27.37	141.42	22.67	-23.1	-23.4	17.5	0.00e+00	0	44	0	1251999744	6	3751
2026-01-01 03:34:28.37	141.61	22.57	-23.3	-23.8	17.4	0.00e+00	0	43	0	1259339776	6	3838
2026-01-01 03:34:29.37	141.80	22.47	-23.1	-23.5	17.6	0.00e+00	0	43	0	1266679808	6	3760
2026-01-01 03:34:30.37	141.99	22.36	-23.1	-23.6	17.5	0.00e+00	0	43	0	1274019840	6	3793
2026-01-01 03:34:31.38	142.18	22.26	-23.1	-23.4	17.6	0.00e+00	0	43	0	1281359872	6	3749
2026-01-01 03:34:32.38	142.36	22.15	-23.0	-23.3	17.6	0.00e+00	0	43	0	1288699904	6	3734
2026-01-01 03:34:33.38	142.55	22.05	-23.1	-23.5	17.5	0.00e+00	0	43	0	1296039936	6	3775
2026-01-01 03:34:34.38	142.74	21.95	-23.1	-23.6	17.5	0.00e+00	0	44	0	1302331392	6	3783
2026-01-01 03:34:35.39	142.92	21.84	-23.0	-23.4	17.6	0.00e+00	0	44	0	1309671424	6	3745
2026-01-01 03:34:36.39	143.10	21.74	-23.1	-23.6	17.5	0.00e+00	0	43	0	1317011456	6	3784
2026-01-01 03:34:37.39	143.28	21.64	-23.3	-23.9	17.3	0.00e+00	0	44	0	1324351488	6	3851
2026-01-01 03:34:38.39	143.46	21.53	-23.4	-24.1	17.2	0.00e+00	0	43	0	1331691520	6	3909
2026-01-01 03:34:39.40	143.64	21.43	-23.5	-24.4	17.0	0.00e+00	0	43	0	1339031552	6	3982
2026-01-01 03:34:40.40	143.82	21.33	-23.6	-24.5	17.0	0.00e+00	0	44	0	1346371584	6	4013
2026-01-01 03:34:41.40	144.00	21.23	-23.6	-24.6	16.9	0.00e+00	0	43	0	1353711616	6	4029
2026-01-01 03:34:42.41	144.17	21.12	-23.7	-24.4	16.8	0.00e+00	0	43	0	1361051648	7	3873
2026-01-01 03:34:43.41	144.35	21.02	-23.8	-24.4	16.7	0.00e+00	0	43	0	1368391680	7	3890
2026-01-01 03:34:44.42	144.52	20.92	-23.6	-24.1	16.9	0.00e+00	0	43	0	1375731712	7	3803
2026-01-01 03:34:45.42	144.69	20.81	-23.5	-23.9	16.9	0.00e+00	0	43	0	1383071744	7	3756
2026-01-01 03:34:46.43	144.87	20.71	-23.5	-23.8	17.0	0.00e+00	0	43	0	1389363200	7	3739
2026-01-01 03:34:47.43	145.04	20.61	-23.4	-23.7	17.0	0.00e+00	0	43	0	1396703232	7	3729
2026-01-01 03:34:48.44	145.21	20.51	-23.4	-23.7	17.1	0.00e+00	0	43	0	1404043264	7	3721
2026-01-01 03:34:49.44	145.37	20.41	-23.5	-23.8	17.0	0.00e+00	0	43	0	1411383296	7	3738
2026-01-01 03:34:50.44	145.54	20.31	-23.4	-23.6	17.1	0.00e+00	0	43	0	1418723328	7	3701
2026-01-01 03:34:51.44	145.71	20.21	-23.4	-23.7	17.1	0.00e+00	0	43	0	1426063360	7	3719
2026-01-01 03:34:52.45	145.87	20.10	-23.0	-23.3	15.1	0.00e+00	0	44	0	1433403392	7	3726
2026-01-01 03:34:53.45	146.03	20.00	-23.4	-23.8	17.0	0.00e+00	0	44	0	1440743424	7	3734
2026-01-01 03:34:54.45	146.20	19.90	-23.5	-23.9	16.8	0.00e+00	0	44	0	1448083456	7	3774
2026-01-01 03:34:55.45	146.36	19.80	-23.6	-24.0	16.8	1.48e-03	0	43	0	1455423488	7	3798
2026-01-01 03:34:56.45	146.52	19.70	-23.6	-24.1	16.8	0.00e+00	0	43	0	1462763520	7	3816
2026-01-01 03:34:57.45	146.68	19.60	-23.7	-24.2	16.7	0.00e+00	0	43	0	1469054976	7	3842
2026-01-01 03:34:58.46	146.84	19.50	-23.7	-24.4	16.6	1.51e-03	0	43	0	1476395008	7	3887
2026-01-01 03:34:59.46	146.99	19.40	-23.7	-24.4	16.6	0.00e+00	0	43	0	1483735040	7	3893
2026-01-01 03:35:00.46	147.15	19.30	-23.8	-24.6	16.5	1.61e-03	0	44	0	1491075072	7	3936
2026-01-01 03:35:01.46	147.31	19.20	-23.8	-24.6	16.5	0.00e+00	0	43	0	1498415104	7	3927
2026-01-01 03:35:02.47	147.46	19.10	-24.1	-25.1	16.2	0.00e+00	0	43	0	1505755136	7	4065
2026-01-01 03:35:03.47	147.61	19.01	-24.2	-24.9	16.1	1.50e-03	0	43	0	1513095168	8	3904
2026-01-01 03:35:04.48	147.77	18.91	-24.0	-24.5	16.3	0.00e+00	0	43	0	1520435200	8	3799
2026-01-01 03:35:05.48	147.92	18.81	-23.9	-24.3	16.4	2.20e-06	0	43	0	1527775232	8	3762
2026-01-01 03:35:06.48	148.07	18.71	-23.9	-24.8	16.4	1.29e-03	0	43	0	1534066688	7	3980
2026-01-01 03:35:07.49	148.22	18.61	-24.0	-24.9	16.3	1.76e-03	0	43	0	1541406720	7	4006
2026-01-01 03:35:08.49	148.37	18.51	-23.9	-24.8	16.3	3.40e-06	0	43	0	1548746752	7	3988
2026-01-01 03:35:09.49	148.52	18.42	-23.9	-24.8	16.4	0.00e+00	0	44	0	1556086784	7	3979
2026-01-01 03:35:10.49	148.66	18.32	-23.9	-24.6	16.5	1.66e-03	0	43	0	1563426816	7	3941
2026-01-01 03:35:11.50	148.81	18.22	-23.8	-24.6	16.5	1.02e-05	0	43	0	1570766848	7	3932
2026-01-01 03:35:12.50	148.95	18.12	-23.9	-24.7	16.4	1.48e-03	0	43	0	1578106880	7	3950
2026-01-01 03:35:13.50	149.10	18.03	-23.8	-24.6	16.5	1.62e-03	0	43	0	1585446912	7	3933
2026-01-01 03:35:14.50	149.24	17.93	-24.0	-24.9	16.3	1.94e-05	0	43	0	1592786944	7	4007
2026-01-01 03:35:15.51	149.39	17.83	-24.0	-25.0	16.3	1.63e-03	0	44	0	1600126976	7	4017
2026-01-01 03:35:16.50	149.53	17.74	-24.0	-24.9	16.3	1.55e-03	0	43	0	1607467008	7	3997
2026-01-01 03:35:17.51	149.67	17.64	-24.1	-25.1	16.2	8.12e-05	0	43	0	1613758464	7	4057
2026-01-01 03:35:18.52	149.81	17.55	-24.3	-25.2	15.9	1.67e-03	0	43	0	1621098496	8	3963
2026-01-01 03:35:19.52	149.95	17.45	-24.4	-25.2	15.8	0.00e+00	0	43	0	1628438528	8	3984
2026-01-01 03:35:20.52	150.08	17.36	-24.2	-24.8	16.0	1.60e-04	0	43	0	1635778560	8	3876
2026-01-01 03:35:21.53	150.22	17.26	-24.0	-24.6	16.2	1.80e-03	0	43	0	1643118592	8	3817
2026-01-01 03:35:22.54	150.36	17.16	-24.0	-25.0	16.2	1.96e-03	0	43	0	1650458624	7	4035
2026-01-01 03:35:23.54	150.50	17.07	-24.1	-24.6	16.1	2.49e-04	0	43	0	1657798656	8	3832
2026-01-01 03:35:24.54	150.63	16.98	-24.0	-25.0	16.2	0.00e+00	0	43	0	1665138688	7	4025
2026-01-01 03:35:25.54	150.76	16.88	-24.0	-25.0	16.1	1.98e-03	0	43	0	1672478720	7	4035
2026-01-01 03:35:26.55	150.90	16.79	-24.1	-25.1	16.1	0.00e+00	0	43	0	1679818752	7	4057
2026-01-01 03:35:27.55	151.03	16.69	-24.0	-25.0	16.1	0.00e+00	0	43	0	1687158784	7	4030
2026-01-01 03:35:28.55	151.16	16.60	-24.2	-24.8	16.0	1.90e-03	0	43	0	1694498816	8	3874
2026-01-01 03:35:29.55	151.29	16.51	-24.3	-25.1	15.8	0.00e+00	0	43	0	1700790272	8	3952
2026-01-01 03:35:30.55	151.42	16.41	-24.3	-25.0	15.9	1.84e-03	0	43	0	1708130304	8	3935
2026-01-01 03:35:31.56	151.55	16.32	-24.2	-25.0	15.9	0.00e+00	0	43	0	1715470336	8	3915
2026-01-01 03:35:32.56	151.68	16.23	-24.3	-25.1	15.8	0.00e+00	0	43	0	1722810368	8	3961
2026-01-01 03:35:33.57	151.81	16.13	-24.3	-25.2	15.7	0.00e+00	0	43	0	1730150400	8	3967
2026-01-01 03:35:34.57	151.94	16.04	-24.3	-25.1	15.8	0.00e+00	0	43	0	1737490432	8	3945
2026-01-01 03:35:35.57	152.06	15.95	-24.3	-25.2	15.7	0.00e+00	0	44	0	1744830464	8	3967
2026-01-01 03:35:36.58	152.19	15.86	-24.4	-25.4	15.6	0.00e+00	0	43	0	1752170496	8	4018
2026-01-01 03:35:37.58	152.31	15.77	-24.6	-25.3	15.4	0.00e+00	0	43	0	1759510528	9	3900
2026-01-01 03:35:38.59	152.44	15.67	-24.8	-25.7	15.2	0.00e+00	0	43	0	1765801984	9	3993
2026-01-01 03:35:39.60	152.56	15.58	-24.8	-25.7	15.2	1.10e-06	0	43	0	1774190592	9	3986
2026-01-01 03:35:40.60	152.68	15.49	-24.7	-25.6	15.2	0.00e+00	0	43	0	1781530624	9	3977
2026-01-01 03:35:41.61	152.81	15.40	-24.7	-25.5	15.3	0.00e+00	0	43	0	1787822080	9	3937
2026-01-01 03:35:42.61	152.93	15.31	-24.7	-25.5	15.3	0.00e+00	0	44	0	1795162112	9	3944
2026-01-01 03:35:43.61	153.05	15.22	-24.8	-25.7	15.2	0.00e+00	0	43	0	1802502144	9	3996
2026-01-01 03:35:44.61	153.17	15.13	-24.8	-25.7	15.1	0.00e+00	0	43	0	1809842176	9	3997
2026-01-01 03:35:45.62	153.29	15.04	-24.8	-25.6	15.2	0.00e+00	0	43	0	1817182208	9	3987
2026-01-01 03:35:46.62	153.40	14.95	-24.7	-25.6	15.2	0.00e+00	0	43	0	1824522240	9	3983
2026-01-01 03:35:47.62	153.52	14.86	-24.8	-25.6	15.1	0.00e+00	0	43	0	1831862272	9	3991
2026-01-01 03:35:48.63	153.64	14.77	-24.8	-25.7	15.1	0.00e+00	0	44	0	1839202304	9	4005
2026-01-01 03:35:49.64	153.76	14.68	-24.8	-25.7	15.1	0.00e+00	0	44	0	1845493760	9	4016
2026-01-01 03:35:50.63	153.87	14.59	-25.0	-26.1	14.9	0.00e+00	0	43	0	1852833792	9	4119
2026-01-01 03:35:51.63	153.99	14.51	-24.9	-26.1	14.9	0.00e+00	0	43	0	1860173824	9	4096
2026-01-01 03:35:52.64	154.10	14.42	-25.0	-26.1	14.9	0.00e+00	0	43	0	1867513856	9	4119
2026-01-01 03:35:53.64	154.21	14.33	-24.9	-26.0	14.9	0.00e+00	0	43	0	1874853888	9	4069
2026-01-01 03:35:54.64	154.33	14.24	-24.9	-25.9	15.0	0.00e+00	0	43	0	1882193920	9	4051
2026-01-01 03:35:55.64	154.44	14.15	-24.8	-25.8	15.0	0.00e+00	0	43	0	1889533952	9	4039
2026-01-01 03:35:56.65	154.55	14.06	-25.0	-26.2	14.8	0.00e+00	0	43	0	1896873984	9	4135
2026-01-01 03:35:57.65	154.66	13.98	-25.0	-25.6	14.9	0.00e+00	0	43	0	1904214016	10	3878
2026-01-01 03:35:58.66	154.77	13.89	-24.7	-25.6	15.2	0.00e+00	0	43	0	1911554048	9	3966
2026-01-01 03:35:59.66	154.88	13.80	-24.8	-25.7	15.1	0.00e+00	0	43	0	1918894080	9	3995
2026-01-01 03:36:00.67	154.99	13.72	-24.8	-25.6	15.1	0.00e+00	0	43	0	1926234112	9	3989
2026-01-01 03:36:01.67	155.10	13.63	-24.7	-25.4	15.2	0.00e+00	0	43	0	1932525568	9	3928
2026-01-01 03:36:02.67	155.21	13.54	-24.7	-25.5	15.2	0.00e+00	0	43	0	1939865600	9	3951
2026-01-01 03:36:03.67	155.32	13.46	-24.7	-25.6	15.2	0.00e+00	0	43	0	1947205632	9	3961
2026-01-01 03:36:04.67	155.42	13.37	-24.8	-25.7	15.1	0.00e+00	0	43	0	1954545664	9	3996
2026-01-01 03:36:05.68	155.53	13.29	-24.8	-25.7	15.1	0.00e+00	0	43	0	1961885696	9	3999
2026-01-01 03:36:06.68	155.64	13.20	-24.9	-25.8	15.0	0.00e+00	0	43	0	1969225728	9	4033
2026-01-01 03:36:07.68	155.74	13.12	-24.9	-26.0	14.9	0.00e+00	0	43	0	1976565760	9	4067
2026-01-01 03:36:08.68	155.84	13.03	-25.0	-26.1	14.9	0.00e+00	0	43	0	1983905792	9	4099
2026-01-01 03:36:09.68	155.95	12.95	-25.0	-26.2	14.8	1.10e-06	0	43	0	1990197248	9	4132
2026-01-01 03:36:10.68	156.05	12.86	-25.1	-25.9	14.7	0.00e+00	0	43	0	1997537280	10	3939
2026-01-01 03:36:11.69	156.15	12.78	-25.2	-26.1	14.6	0.00e+00	0	43	0	2004877312	10	3992
2026-01-01 03:36:12.68	156.26	12.70	-25.2	-26.1	14.7	0.00e+00	0	43	0	2012217344	10	3989
2026-01-01 03:36:13.69	156.36	12.61	-25.1	-26.0	14.7	0.00e+00	0	43	0	2019557376	10	3972
2026-01-01 03:36:14.69	156.46	12.53	-25.3	-26.3	14.5	1.10e-06	0	44	0	2026897408	10	4033
2026-01-01 03:36:15.70	156.56	12.44	-25.3	-26.3	14.5	1.10e-06	0	43	0	2034237440	10	4048
2026-01-01 03:36:16.70	156.66	12.36	-25.3	-26.4	14.4	1.10e-06	0	43	0	2041577472	10	4088
2026-01-01 03:36:17.70	156.76	12.28	-25.4	-26.6	14.3	1.10e-06	0	44	0	2048917504	10	4136
2026-01-01 03:36:18.71	156.86	12.19	-25.4	-26.7	14.3	0.00e+00	0	44	0	2056257536	10	4142
2026-01-01 03:36:19.71	156.96	12.11	-25.5	-26.7	14.2	2.20e-06	0	43	0	2063597568	10	4161
2026-01-01 03:36:20.71	157.05	12.03	-25.5	-26.7	14.2	0.00e+00	0	43	0	2070937600	10	4150
2026-01-01 03:36:21.71	157.15	11.95	-25.5	-26.9	14.1	1.10e-06	0	43	0	2077229056	10	4190
2026-01-01 03:36:22.72	157.25	11.86	-25.5	-26.8	14.1	0.00e+00	0	43	0	2084569088	10	4180
2026-01-01 03:36:23.72	157.34	11.78	-25.7	-26.8	13.9	2.20e-06	0	43	0	2091909120	11	4074
2026-01-01 03:36:24.73	157.44	11.70	-26.1	-27.6	13.4	9.10e-06	0	44	0	2099249152	11	4272
2026-01-01 03:36:25.73	157.54	11.62	-25.9	-26.6	13.6	1.14e-05	0	43	0	2106589184	12	3917
2026-01-01 03:36:26.74	157.63	11.54	-25.5	-25.9	14.0	2.20e-06	0	43	0	2113929216	12	3745
2026-01-01 03:36:27.74	157.73	11.46	-25.4	-26.1	14.3	3.40e-06	0	43	0	2121269248	11	3883
2026-01-01 03:36:28.75	157.82	11.38	-25.5	-26.7	14.2	0.00e+00	0	43	0	2128609280	10	4142
2026-01-01 03:36:29.75	157.91	11.30	-25.6	-26.9	14.1	1.10e-06	0	43	0	2135949312	10	4207
2026-01-01 03:36:30.76	158.01	11.21	-25.5	-26.8	14.1	1.10e-06	0	43	0	2143289344	10	4180
2026-01-01 03:36:31.75	158.10	11.14	-25.5	-26.9	14.1	0.00e+00	0	43	0	2150629376	10	4193
2026-01-01 03:36:32.75	158.19	11.06	-25.2	-26.1	13.8	1.10e-06	0	44	0	2157969408	11	4035
2026-01-01 03:36:33.76	158.28	10.98	-25.6	-26.7	12.2	3.40e-06	0	43	0	2164260864	11	4086
2026-01-01 03:36:34.77	158.37	10.90	-25.7	-26.8	13.8	5.70e-06	0	43	0	2171600896	11	4075
2026-01-01 03:36:35.77	158.46	10.82	-25.7	-26.8	13.8	1.76e-03	0	43	0	2178940928	11	4071
2026-01-01 03:36:36.76	158.55	10.74	-25.8	-26.9	13.8	2.20e-06	0	43	0	2186280960	11	4085
2026-01-01 03:36:37.77	158.64	10.66	-25.7	-26.7	13.9	5.70e-06	0	43	0	2193620992	11	4035
2026-01-01 03:36:38.77	158.73	10.58	-25.6	-26.5	14.0	3.40e-06	0	43	0	2200961024	11	3985
2026-01-01 03:36:39.76	158.82	10.50	-25.6	-26.6	13.9	1.10e-06	0	43	0	2208301056	11	4027
2026-01-01 03:36:40.76	158.91	10.42	-25.6	-26.5	14.0	2.05e-05	0	44	0	2215641088	11	3994
2026-01-01 03:36:41.77	158.99	10.34	-25.6	-26.6	13.9	6.80e-06	0	43	0	2221932544	11	4024
2026-01-01 03:36:42.77	159.08	10.27	-25.6	-26.6	13.9	2.20e-06	0	43	0	2229272576	11	4036
2026-01-01 03:36:43.77	159.17	10.19	-25.5	-26.4	14.0	1.25e-05	0	43	0	2236612608	11	3970
2026-01-01 03:36:44.76	159.25	10.11	-25.5	-26.9	14.0	1.10e-06	0	43	0	2243952640	10	4212
2026-01-01 03:36:45.77	159.34	10.03	-25.5	-26.8	14.0	1.71e-03	0	43	0	2251292672	10	4190
2026-01-01 03:36:46.77	159.42	9.96	-25.6	-27.0	14.0	3.40e-06	0	43	0	2258632704	10	4228
2026-01-01 03:36:47.78	159.51	9.88	-25.7	-26.8	13.8	3.40e-06	0	44	0	2265972736	11	4074
2026-01-01 03:36:48.78	159.59	9.80	-25.6	-26.5	13.9	1.62e-03	0	43	0	2273312768	11	4010
2026-01-01 03:36:49.79	159.68	9.73	-25.7	-26.7	13.9	1.10e-06	0	43	0	2280652800	11	4046
2026-01-01 03:36:50.79	159.76	9.65	-25.6	-26.5	13.9	1.65e-03	0	43	0	2286944256	11	3999
2026-01-01 03:36:51.80	159.85	9.57	-25.6	-26.6	13.9	3.40e-06	0	43	0	2294284288	11	4017
2026-01-01 03:36:52.80	159.93	9.50	-25.6	-26.5	14.0	3.40e-06	0	43	0	2301624320	11	3989
2026-01-01 03:36:53.80	160.01	9.42	-25.6	-26.6	13.9	1.66e-03	0	43	0	2308964352	11	4026
2026-01-01 03:36:54.80	160.09	9.35	-25.6	-26.4	14.0	1.10e-06	0	43	0	2316304384	11	3979
2026-01-01 03:36:55.81	160.18	9.27	-25.5	-26.4	14.0	5.70e-06	0	43	0	2323644416	11	3979
2026-01-01 03:36:56.81	160.26	9.19	-25.6	-27.0	13.9	1.83e-03	0	43	0	2330984448	10	4241
2026-01-01 03:36:57.82	160.34	9.12	-25.5	-26.9	13.9	1.75e-03	0	43	0	2338324480	10	4207
2026-01-01 03:36:58.82	160.42	9.04	-25.5	-27.0	13.9	6.80e-06	0	43	0	2345664512	10	4234
2026-01-01 03:36:59.82	160.50	8.97	-25.5	-27.0	13.9	1.86e-03	0	43	0	2353004544	10	4244
2026-01-01 03:37:00.83	160.58	8.89	-25.6	-26.6	13.8	2.03e-03	0	43	0	2360344576	11	4027
2026-01-01 03:37:01.83	160.66	8.82	-25.7	-26.7	13.7	2.97e-05	0	43	0	2367684608	11	4064
2026-01-01 03:37:02.83	160.74	8.74	-25.6	-26.7	13.8	2.08e-03	0	43	0	2373976064	11	4058
2026-01-01 03:37:03.84	160.81	8.67	-25.7	-26.7	13.7	2.08e-03	0	43	0	2381316096	11	4077
2026-01-01 03:37:04.84	160.89	8.60	-25.8	-27.2	13.4	9.10e-06	0	44	0	2388656128	11	4192
2026-01-01 03:37:05.84	160.97	8.52	-25.8	-27.0	13.5	2.22e-03	0	43	0	2395996160	11	4157
2026-01-01 03:37:06.84	161.05	8.45	-25.7	-26.8	13.7	2.11e-03	0	43	0	2403336192	11	4098
2026-01-01 03:37:07.85	161.12	8.37	-25.7	-26.9	13.5	1.34e-04	0	43	0	2410676224	11	4121
2026-01-01 03:37:08.84	161.20	8.30	-25.8	-27.0	13.5	2.07e-03	0	43	0	2418016256	11	4144
2026-01-01 03:37:09.85	161.28	8.23	-25.9	-27.2	13.4	8.00e-06	0	43	0	2425356288	11	4202
2026-01-01 03:37:10.85	161.35	8.16	-25.8	-27.2	13.4	1.49e-04	0	43	0	2432696320	11	4188
2026-01-01 03:37:11.86	161.43	8.08	-25.8	-27.0	13.5	8.00e-06	0	43	0	2440036352	11	4149
2026-01-01 03:37:12.86	161.50	8.01	-25.9	-27.3	13.3	1.83e-05	0	43	0	2447376384	11	4232
2026-01-01 03:37:13.87	161.58	7.94	-25.9	-27.2	13.4	1.98e-04	0	43	0	2453667840	11	4205
2026-01-01 03:37:14.87	161.65	7.86	-26.0	-27.4	13.3	1.02e-05	0	43	0	2461007872	11	4241
2026-01-01 03:37:15.87	161.73	7.79	-26.0	-27.5	13.2	2.29e-03	0	43	0	2468347904	11	4280
2026-01-01 03:37:16.88	161.80	7.72	-26.0	-27.6	13.2	2.05e-05	0	43	0	2475687936	11	4294
2026-01-01 03:37:17.88	161.88	7.65	-26.1	-27.6	13.2	1.37e-05	0	43	0	2483027968	11	4315
2026-01-01 03:37:18.89	161.95	7.58	-26.1	-27.2	13.0	2.49e-03	0	43	0	2490368000	12	4094
2026-01-01 03:37:19.89	162.02	7.51	-26.2	-27.5	12.8	3.54e-05	0	43	0	2497708032	12	4188
2026-01-01 03:37:20.90	162.09	7.43	-26.1	-27.2	13.0	4.00e-05	0	43	0	2505048064	12	4083
2026-01-01 03:37:21.90	162.17	7.36	-26.2	-27.5	12.8	3.54e-05	0	43	0	2512388096	12	4162
2026-01-01 03:37:22.91	162.24	7.29	-26.2	-27.5	12.8	4.34e-05	0	43	0	2519728128	12	4179
2026-01-01 03:37:23.92	162.31	7.22	-26.3	-27.7	12.7	7.78e-05	0	43	0	2527068160	12	4245
2026-01-01 03:37:24.92	162.38	7.15	-26.2	-27.4	12.8	5.14e-05	0	43	0	2534408192	12	4152
2026-01-01 03:37:25.92	162.45	7.08	-26.3	-27.7	12.7	6.17e-05	0	43	0	2540699648	12	4242
2026-01-01 03:37:26.93	162.52	7.01	-31.9	-41.4	3.8	8.47e-01	0	43	104	2544893952	23	10837
2026-01-01 03:37:27.93	162.59	6.94	-32.0	-42.1	3.8	8.45e-01	0	43	104	2544893952	23	11403
2026-01-01 03:37:28.94	162.66	6.87	-32.6	-42.3	3.8	8.46e-01	0	43	104	2544893952	25	10927

#Closed at: 2026-01-01 03:37:29
#Recorded file [2544 MB]: D:/data/31010_260101_063133.dat