passes_logs/2026/01/01/R2M6_AANII_01/R2M6_AANII_01__20260101_021745_SUOMI_NPP_rec.log

#Pass ID: 20260101_021745_SUOMI NPP
#Satellite: SUOMI NPP
#Configuration: NPP
#almurnet v.1.7.20240730
#Start time: 2026-01-01 02:17:45

#Version: 2.2.20231116
#Station: R2M6_AANII_01
#Location: 30.233357 lon 59.946436 lat
#TLE: 1 37849U 11061A   25364.87906317  .00000195  00000+0  11345-3 0  9992
#TLE: 2 37849  98.7794 302.0592 0002571  89.2401 270.9069 14.19520347734561

#Time	Az	El	Level	Level2	SNR	BER	BlckErr	Temp	State	Recorded	gain1	gain2
2026-01-01 02:17:45.76	10.54	6.99	-31.5	-38.6	4.2	1.42e+00	0	40	0	0	23	8144
2026-01-01 02:17:46.75	10.45	7.05	-31.5	-38.6	4.3	1.40e+00	0	40	104	0	23	8139
2026-01-01 02:17:47.76	10.36	7.12	-31.5	-38.1	5.4	5.67e-01	0	40	0	0	23	7723
2026-01-01 02:17:48.76	10.27	7.18	-31.5	-38.6	5.5	4.72e-01	0	40	0	1048576	22	8139
2026-01-01 02:17:49.76	10.18	7.25	-31.5	-38.0	5.5	4.83e-01	0	40	0	3145728	23	7627
2026-01-01 02:17:50.76	10.09	7.31	-31.5	-38.0	5.6	4.46e-01	0	40	0	5242880	23	7595
2026-01-01 02:17:51.76	10.00	7.38	-31.5	-37.9	5.6	4.54e-01	0	41	0	7340032	23	7524
2026-01-01 02:17:52.75	9.91	7.44	-31.4	-37.9	5.9	4.04e-01	0	41	0	8388608	22	7585
2026-01-01 02:17:53.75	9.82	7.51	-31.3	-37.0	6.5	2.56e-01	0	41	0	10485760	22	6969
2026-01-01 02:17:54.76	9.73	7.57	-31.1	-36.2	7.2	1.80e-01	0	41	0	12582912	22	6440
2026-01-01 02:17:55.77	9.63	7.64	-30.8	-35.1	8.3	6.33e-02	0	41	0	14680064	21	5949
2026-01-01 02:17:56.77	9.54	7.70	-30.6	-34.4	8.9	2.96e-02	0	41	0	16777216	21	5574
2026-01-01 02:17:57.77	9.45	7.77	-30.4	-33.7	9.5	2.29e-02	0	41	0	17825792	21	5246
2026-01-01 02:17:58.77	9.35	7.83	-30.2	-33.4	10.1	1.13e-02	0	41	0	19922944	20	5234
2026-01-01 02:17:59.77	9.26	7.90	-30.3	-33.7	9.8	8.98e-03	0	41	0	22020096	20	5360
2026-01-01 02:18:00.77	9.17	7.96	-30.4	-34.2	9.5	1.74e-02	0	41	0	24117248	20	5590
2026-01-01 02:18:01.77	9.07	8.03	-30.4	-34.3	9.4	1.69e-02	0	41	0	26214400	20	5635
2026-01-01 02:18:02.78	8.97	8.10	-30.5	-34.2	9.1	1.62e-02	0	41	0	27262976	21	5471
2026-01-01 02:18:03.78	8.88	8.16	-30.5	-34.2	9.1	2.48e-02	0	41	0	29360128	21	5489
2026-01-01 02:18:04.78	8.78	8.23	-30.6	-34.2	9.2	2.75e-02	0	41	0	31457280	21	5490
2026-01-01 02:18:05.78	8.68	8.30	-30.7	-34.6	8.8	2.80e-02	0	41	0	33554432	21	5691
2026-01-01 02:18:06.79	8.59	8.36	-30.5	-34.0	9.3	2.43e-02	0	41	0	35651584	21	5390
2026-01-01 02:18:07.78	8.49	8.43	-30.4	-34.2	9.6	1.91e-02	0	41	0	36700160	20	5563
2026-01-01 02:18:08.79	8.39	8.49	-30.5	-33.9	9.4	1.64e-02	0	41	0	38797312	21	5337
2026-01-01 02:18:09.79	8.29	8.56	-30.6	-34.3	9.1	2.01e-02	0	41	0	40894464	21	5524
2026-01-01 02:18:10.80	8.19	8.63	-30.5	-34.1	9.2	2.37e-02	0	41	0	42991616	21	5431
2026-01-01 02:18:11.81	8.09	8.70	-30.3	-33.8	9.9	1.38e-02	0	41	0	45088768	20	5377
2026-01-01 02:18:12.81	7.99	8.76	-30.2	-33.6	10.0	8.12e-03	0	41	0	46137344	20	5292
2026-01-01 02:18:13.82	7.89	8.83	-30.2	-33.2	10.3	9.33e-03	0	41	0	48234496	20	5119
2026-01-01 02:18:14.82	7.79	8.90	-30.2	-33.3	10.3	5.47e-03	0	41	0	50331648	20	5149
2026-01-01 02:18:15.82	7.69	8.96	-30.1	-33.1	10.5	4.13e-03	0	41	0	52428800	20	5074
2026-01-01 02:18:16.82	7.58	9.03	-30.1	-33.1	10.5	7.75e-03	0	41	0	54525952	20	5069
2026-01-01 02:18:17.82	7.48	9.10	-30.1	-33.0	10.5	4.75e-03	0	41	0	55574528	20	5037
2026-01-01 02:18:18.83	7.38	9.17	-30.0	-32.8	10.7	6.86e-03	0	41	0	57671680	20	4963
2026-01-01 02:18:19.83	7.27	9.23	-29.9	-32.4	11.0	2.46e-03	0	41	0	59768832	20	4802
2026-01-01 02:18:20.84	7.17	9.30	-30.0	-32.7	10.7	2.61e-03	0	41	0	61865984	20	4920
2026-01-01 02:18:21.84	7.07	9.37	-30.0	-32.8	10.8	6.26e-03	0	41	0	62914560	20	4937
2026-01-01 02:18:22.83	6.96	9.44	-30.0	-32.7	10.8	2.13e-03	0	41	0	65011712	20	4892
2026-01-01 02:18:23.84	6.85	9.50	-30.0	-32.6	10.9	2.65e-03	0	41	0	67108864	20	4881
2026-01-01 02:18:24.83	6.75	9.57	-30.1	-32.9	10.7	5.76e-03	0	42	0	69206016	20	4983
2026-01-01 02:18:25.83	6.64	9.64	-29.9	-32.4	11.0	5.42e-03	0	41	0	71303168	20	4807
2026-01-01 02:18:26.83	6.54	9.71	-29.9	-32.6	11.4	1.22e-03	0	41	0	72351744	19	4940
2026-01-01 02:18:27.84	6.43	9.78	-29.8	-32.6	11.4	3.99e-03	0	41	0	74448896	19	4921
2026-01-01 02:18:28.84	6.32	9.84	-30.0	-32.9	11.1	4.03e-03	0	41	0	76546048	19	5072
2026-01-01 02:18:29.85	6.21	9.91	-29.9	-32.4	11.1	1.85e-03	0	42	0	78643200	20	4800
2026-01-01 02:18:30.85	6.10	9.98	-30.0	-32.6	11.0	1.62e-03	0	41	0	80740352	20	4842
2026-01-01 02:18:31.85	5.99	10.05	-30.0	-32.4	11.1	4.85e-03	0	41	0	81788928	20	4791
2026-01-01 02:18:32.85	5.88	10.12	-30.0	-32.4	11.1	2.21e-03	0	42	0	83886080	20	4797
2026-01-01 02:18:33.85	5.77	10.19	-30.0	-32.6	11.0	1.60e-03	0	42	0	85983232	20	4837
2026-01-01 02:18:34.85	5.66	10.26	-30.0	-32.4	11.1	5.48e-03	0	42	0	88080384	20	4786
2026-01-01 02:18:35.85	5.55	10.33	-30.1	-32.8	10.8	2.64e-03	0	42	0	90177536	20	4936
2026-01-01 02:18:36.86	5.43	10.39	-30.0	-32.4	11.1	1.92e-03	0	42	0	91226112	20	4784
2026-01-01 02:18:37.86	5.32	10.46	-29.9	-32.5	11.5	1.29e-03	0	42	0	93323264	19	4892
2026-01-01 02:18:38.87	5.21	10.53	-29.9	-32.6	11.4	1.50e-03	0	42	0	95420416	19	4929
2026-01-01 02:18:39.87	5.09	10.60	-30.0	-32.5	11.0	1.55e-03	0	42	0	97517568	20	4822
2026-01-01 02:18:40.87	4.98	10.67	-30.1	-33.0	10.7	2.68e-03	0	42	0	99614720	20	4999
2026-01-01 02:18:41.87	4.86	10.74	-30.2	-33.0	10.7	3.67e-03	0	42	0	100663296	20	5000
2026-01-01 02:18:42.88	4.75	10.81	-30.3	-33.3	10.5	6.22e-03	0	42	0	102760448	20	5141
2026-01-01 02:18:43.89	4.63	10.88	-30.2	-33.1	10.7	3.49e-03	0	42	0	104857600	20	5017
2026-01-01 02:18:44.89	4.51	10.95	-30.2	-33.1	10.7	3.25e-03	0	42	0	106954752	20	5043
2026-01-01 02:18:45.89	4.39	11.02	-30.3	-33.5	10.4	7.24e-03	0	42	0	108003328	20	5181
2026-01-01 02:18:46.89	4.28	11.09	-30.3	-33.6	10.3	5.09e-03	0	42	0	110100480	20	5253
2026-01-01 02:18:47.90	4.16	11.16	-30.5	-33.7	9.8	7.37e-03	0	42	0	112197632	21	5210
2026-01-01 02:18:48.90	4.04	11.23	-30.4	-33.4	10.1	1.19e-02	0	42	0	114294784	21	5051
2026-01-01 02:18:49.90	3.92	11.30	-30.3	-33.4	10.5	7.75e-03	0	42	0	116391936	20	5163
2026-01-01 02:18:50.90	3.80	11.37	-30.4	-33.7	10.2	4.27e-03	0	42	0	117440512	20	5281
2026-01-01 02:18:51.90	3.68	11.44	-30.3	-33.5	10.4	5.36e-03	0	42	0	119537664	20	5190
2026-01-01 02:18:52.90	3.55	11.51	-30.5	-34.0	10.0	7.52e-03	0	42	0	121634816	20	5435
2026-01-01 02:18:53.91	3.43	11.58	-30.3	-33.1	10.3	6.69e-03	0	42	0	123731968	21	4943
2026-01-01 02:18:54.91	3.31	11.65	-30.3	-33.4	10.5	3.97e-03	0	42	0	125829120	20	5158
2026-01-01 02:18:55.91	3.18	11.72	-30.2	-33.1	10.7	3.72e-03	0	42	0	126877696	20	5043
2026-01-01 02:18:56.91	3.06	11.79	-30.2	-33.1	10.7	3.37e-03	0	42	0	128974848	20	5036
2026-01-01 02:18:57.92	2.94	11.86	-30.3	-33.5	10.4	3.46e-03	0	42	0	131072000	20	5194
2026-01-01 02:18:58.92	2.81	11.93	-30.3	-33.4	10.5	4.75e-03	0	42	0	133169152	20	5170
2026-01-01 02:18:59.93	2.68	12.01	-30.2	-33.3	10.6	4.30e-03	0	42	0	135266304	20	5104
2026-01-01 02:19:00.94	2.56	12.08	-30.4	-33.7	10.3	3.90e-03	0	42	0	136314880	20	5270
2026-01-01 02:19:01.94	2.43	12.15	-30.5	-33.7	10.0	6.89e-03	0	42	0	138412032	21	5171
2026-01-01 02:19:02.95	2.30	12.22	-30.3	-33.0	10.5	6.51e-03	0	42	0	140509184	21	4897
2026-01-01 02:19:03.96	2.17	12.29	-30.1	-32.9	10.9	3.02e-03	0	42	0	142606336	20	4956
2026-01-01 02:19:04.96	2.04	12.36	-30.2	-33.0	10.8	2.51e-03	0	42	0	144703488	20	4991
2026-01-01 02:19:05.97	1.91	12.43	-30.2	-33.1	10.7	2.76e-03	0	42	0	145752064	20	5042
2026-01-01 02:19:06.97	1.78	12.50	-29.9	-32.3	11.4	1.21e-03	0	42	0	147849216	20	4694
2026-01-01 02:19:07.97	1.65	12.58	-29.9	-32.2	11.4	1.03e-03	0	42	0	149946368	20	4688
2026-01-01 02:19:08.98	1.52	12.65	-30.0	-32.3	11.4	9.80e-04	0	42	0	152043520	20	4699
2026-01-01 02:19:09.98	1.38	12.72	-29.8	-31.9	11.8	6.13e-04	0	42	0	154140672	20	4564
2026-01-01 02:19:10.98	1.25	12.79	-29.9	-32.7	11.6	7.26e-04	0	42	0	155189248	19	4927
2026-01-01 02:19:11.98	1.12	12.86	-29.9	-32.6	11.6	5.77e-04	0	42	0	157286400	19	4901
2026-01-01 02:19:12.98	0.98	12.93	-29.8	-32.3	11.8	5.36e-04	0	42	0	159383552	19	4797
2026-01-01 02:19:13.99	0.85	13.01	-29.9	-32.6	11.6	5.91e-04	0	42	0	161480704	19	4892
2026-01-01 02:19:14.99	0.71	13.08	-29.9	-32.6	11.6	6.03e-04	0	42	0	163577856	19	4898
2026-01-01 02:19:16.00	0.57	13.15	-30.0	-32.5	11.2	8.72e-04	0	42	0	164626432	20	4795
2026-01-01 02:19:17.00	0.44	13.22	-30.3	-33.5	10.6	2.86e-03	0	42	0	166723584	20	5154
2026-01-01 02:19:18.01	0.30	13.29	-30.1	-32.6	10.6	1.68e-03	0	42	0	168820736	20	4826
2026-01-01 02:19:19.01	0.16	13.37	-29.9	-32.4	11.3	7.55e-04	0	42	0	170917888	19	4828
2026-01-01 02:19:20.01	0.02	13.44	-29.7	-31.9	12.1	3.86e-04	0	42	0	173015040	19	4629
2026-01-01 02:19:21.02	359.88	13.51	-29.7	-32.0	11.9	2.88e-04	0	42	0	174063616	19	4665
2026-01-01 02:19:22.01	359.74	13.58	-30.0	-32.3	11.4	4.67e-04	0	42	0	176160768	20	4688
2026-01-01 02:19:23.02	359.60	13.65	-30.0	-32.4	11.3	9.55e-04	0	42	0	178257920	20	4754
2026-01-01 02:19:24.02	359.46	13.72	-30.1	-32.7	11.2	1.23e-03	0	42	0	180355072	20	4871
2026-01-01 02:19:25.03	359.31	13.80	-30.0	-32.5	11.3	1.04e-03	0	42	0	181403648	20	4772
2026-01-01 02:19:26.03	359.17	13.87	-30.1	-32.6	11.3	8.78e-04	0	42	0	183500800	20	4805
2026-01-01 02:19:27.04	359.02	13.94	-30.1	-32.6	11.3	4.13e-03	0	42	0	185597952	20	4809
2026-01-01 02:19:28.03	358.88	14.01	-30.0	-32.7	11.7	9.41e-04	0	42	0	187695104	19	4915
2026-01-01 02:19:29.04	358.73	14.09	-30.3	-33.2	10.9	1.37e-03	0	42	0	189792256	20	5036
2026-01-01 02:19:30.04	358.59	14.16	-30.0	-32.2	11.5	1.75e-03	0	42	0	190840832	20	4646
2026-01-01 02:19:31.04	358.44	14.23	-29.7	-31.9	12.2	3.19e-03	0	42	0	192937984	19	4620
2026-01-01 02:19:32.04	358.29	14.30	-29.5	-31.4	12.5	1.55e-04	0	42	0	195035136	19	4471
2026-01-01 02:19:33.04	358.14	14.38	-29.7	-31.9	12.2	1.46e-04	0	42	0	197132288	19	4635
2026-01-01 02:19:34.05	357.99	14.45	-29.4	-31.7	12.7	2.59e-03	0	42	0	199229440	18	4642
2026-01-01 02:19:35.05	357.84	14.52	-29.4	-31.6	12.7	8.39e-05	0	43	0	200278016	18	4625
2026-01-01 02:19:36.06	357.69	14.59	-29.4	-31.6	12.7	7.70e-05	0	42	0	202375168	18	4641
2026-01-01 02:19:37.06	357.54	14.67	-29.6	-31.6	12.4	3.05e-03	0	42	0	204472320	19	4537
2026-01-01 02:19:38.06	357.39	14.74	-29.7	-31.9	12.3	8.89e-04	0	42	0	206569472	19	4637
2026-01-01 02:19:39.07	357.23	14.81	-29.6	-31.7	12.3	1.83e-04	0	42	0	208666624	19	4583
2026-01-01 02:19:40.07	357.08	14.88	-29.7	-32.0	12.2	2.11e-04	0	42	0	209715200	19	4665
2026-01-01 02:19:41.07	356.93	14.96	-29.9	-32.5	11.8	1.09e-03	0	42	0	211812352	19	4848
2026-01-01 02:19:42.07	356.77	15.03	-29.8	-32.2	12.0	2.84e-04	0	42	0	213909504	19	4761
2026-01-01 02:19:43.07	356.62	15.10	-29.7	-31.8	12.3	2.10e-04	0	42	0	216006656	19	4612
2026-01-01 02:19:44.07	356.46	15.17	-29.6	-31.6	12.4	7.09e-04	0	42	0	218103808	19	4536
2026-01-01 02:19:45.07	356.30	15.24	-29.8	-32.1	12.1	2.62e-03	0	42	0	219152384	19	4713
2026-01-01 02:19:46.07	356.14	15.32	-29.7	-32.0	12.2	2.45e-04	0	42	0	221249536	19	4672
2026-01-01 02:19:47.08	355.98	15.39	-29.9	-32.6	11.7	2.88e-04	0	43	0	223346688	19	4890
2026-01-01 02:19:48.08	355.82	15.46	-30.0	-32.3	11.5	3.43e-03	0	42	0	225443840	20	4712
2026-01-01 02:19:49.08	355.66	15.53	-30.1	-32.6	11.3	3.68e-03	0	42	0	226492416	20	4834
2026-01-01 02:19:50.09	355.50	15.61	-30.1	-32.6	11.3	1.05e-03	0	42	0	228589568	20	4835
2026-01-01 02:19:51.09	355.34	15.68	-30.0	-32.4	11.5	3.34e-03	0	42	0	230686720	20	4757
2026-01-01 02:19:52.08	355.18	15.75	-30.0	-32.3	11.6	3.08e-03	0	42	0	232783872	20	4680
2026-01-01 02:19:53.09	355.01	15.82	-29.9	-32.1	11.7	6.28e-04	0	42	0	234881024	20	4629
2026-01-01 02:19:54.08	354.85	15.89	-29.8	-32.2	12.1	4.36e-04	0	42	0	235929600	19	4728
2026-01-01 02:19:55.09	354.68	15.97	-29.9	-32.3	12.0	2.81e-03	0	42	0	238026752	19	4767
2026-01-01 02:19:56.09	354.51	16.04	-29.8	-32.3	12.1	7.70e-04	0	43	0	240123904	19	4756
2026-01-01 02:19:57.09	354.35	16.11	-29.8	-32.1	12.2	2.61e-04	0	42	0	242221056	19	4701
2026-01-01 02:19:58.10	354.18	16.18	-29.9	-32.3	12.0	2.56e-03	0	43	0	244318208	19	4773
2026-01-01 02:19:59.10	354.01	16.26	-30.0	-32.3	11.6	1.03e-03	0	43	0	245366784	20	4686
2026-01-01 02:20:00.09	353.84	16.33	-30.1	-32.6	11.3	2.60e-03	0	42	0	247463936	20	4807
2026-01-01 02:20:01.10	353.67	16.40	-30.2	-33.0	11.1	1.28e-03	0	42	0	249561088	20	4965
2026-01-01 02:20:02.10	353.50	16.47	-30.3	-33.1	11.0	2.42e-03	0	43	0	251658240	20	5005
2026-01-01 02:20:03.10	353.33	16.54	-30.2	-33.0	11.1	3.92e-03	0	42	0	253755392	20	4939
2026-01-01 02:20:04.10	353.15	16.62	-30.2	-32.8	11.3	1.14e-03	0	43	0	254803968	20	4876
2026-01-01 02:20:05.11	352.98	16.69	-30.1	-32.5	11.4	1.60e-03	0	43	0	256901120	20	4770
2026-01-01 02:20:06.12	352.80	16.76	-29.9	-32.0	11.8	2.58e-03	0	42	0	258998272	20	4599
2026-01-01 02:20:07.13	352.62	16.83	-30.1	-32.6	11.4	2.58e-03	0	43	0	261095424	20	4807
2026-01-01 02:20:08.13	352.45	16.90	-29.8	-31.7	12.0	8.26e-04	0	43	0	263192576	20	4490
2026-01-01 02:20:09.13	352.27	16.98	-29.9	-32.4	12.0	2.30e-03	0	43	0	264241152	19	4795
2026-01-01 02:20:10.13	352.09	17.05	-30.1	-32.6	11.4	2.49e-03	0	43	0	266338304	20	4804
2026-01-01 02:20:11.14	351.91	17.12	-30.3	-33.1	11.0	1.22e-03	0	42	0	268435456	20	4992
2026-01-01 02:20:12.14	351.73	17.19	-30.0	-32.4	11.5	3.11e-03	0	43	0	270532608	20	4730
2026-01-01 02:20:13.14	351.55	17.26	-29.9	-32.0	11.8	2.48e-03	0	43	0	271581184	20	4595
2026-01-01 02:20:14.14	351.37	17.33	-29.9	-31.9	11.9	6.55e-04	0	43	0	273678336	20	4567
2026-01-01 02:20:15.14	351.19	17.40	-29.8	-32.3	12.1	2.21e-03	0	43	0	275775488	19	4757
2026-01-01 02:20:16.14	351.00	17.47	-29.8	-32.1	12.2	2.13e-03	0	43	0	277872640	19	4680
2026-01-01 02:20:17.15	350.82	17.54	-29.8	-32.1	12.2	3.78e-04	0	43	0	279969792	19	4699
2026-01-01 02:20:18.15	350.63	17.62	-29.9	-32.3	12.0	2.44e-03	0	43	0	281018368	19	4764
2026-01-01 02:20:19.15	350.45	17.69	-29.9	-32.0	11.8	2.56e-03	0	43	0	283115520	20	4592
2026-01-01 02:20:20.15	350.26	17.76	-29.9	-32.0	11.9	7.09e-04	0	43	0	285212672	20	4572
2026-01-01 02:20:21.16	350.07	17.83	-30.0	-32.7	11.9	2.51e-03	0	43	0	287309824	19	4908
2026-01-01 02:20:22.16	349.88	17.90	-29.9	-32.4	12.0	2.71e-03	0	43	0	289406976	19	4796
2026-01-01 02:20:23.17	349.69	17.97	-29.8	-32.1	12.2	6.74e-04	0	43	0	290455552	19	4677
2026-01-01 02:20:24.17	349.50	18.04	-29.9	-31.9	12.0	2.72e-03	0	43	0	292552704	20	4546
2026-01-01 02:20:25.17	349.31	18.11	-29.9	-32.2	12.2	2.01e-04	0	43	0	294649856	19	4727
2026-01-01 02:20:26.18	349.12	18.18	-29.8	-32.2	12.3	6.28e-04	0	43	0	296747008	19	4719
2026-01-01 02:20:27.18	348.92	18.25	-29.8	-32.1	12.2	2.50e-03	0	43	0	298844160	19	4702
2026-01-01 02:20:28.19	348.73	18.32	-29.8	-32.0	12.3	2.33e-03	0	43	0	299892736	19	4670
2026-01-01 02:20:29.19	348.53	18.39	-29.9	-32.4	12.0	2.18e-04	0	42	0	301989888	19	4815
2026-01-01 02:20:30.19	348.34	18.46	-29.9	-31.9	12.0	2.14e-03	0	43	0	304087040	20	4529
2026-01-01 02:20:31.19	348.14	18.52	-29.9	-32.1	11.9	2.19e-03	0	43	0	306184192	20	4599
2026-01-01 02:20:32.19	347.94	18.59	-29.9	-31.9	12.0	4.32e-04	0	42	0	308281344	20	4544
2026-01-01 02:20:33.20	347.74	18.66	-29.9	-32.2	12.2	1.44e-03	0	42	0	309329920	19	4731
2026-01-01 02:20:34.20	347.54	18.73	-29.7	-31.7	12.8	1.08e-03	0	43	0	311427072	19	4527
2026-01-01 02:20:35.21	347.34	18.80	-29.3	-30.7	13.2	3.05e-05	0	43	0	313524224	19	4205
2026-01-01 02:20:36.21	347.14	18.87	-29.2	-30.4	13.4	1.14e-05	0	43	0	315621376	19	4110
2026-01-01 02:20:37.22	346.94	18.94	-29.3	-30.6	13.1	9.76e-05	0	43	0	317718528	19	4194
2026-01-01 02:20:38.22	346.73	19.00	-29.6	-31.4	12.8	3.96e-05	0	43	0	318767104	19	4437
2026-01-01 02:20:39.22	346.53	19.07	-29.5	-31.2	12.8	3.89e-05	0	43	0	320864256	19	4396
2026-01-01 02:20:40.22	346.32	19.14	-29.5	-31.4	12.7	2.04e-03	0	43	0	322961408	19	4440
2026-01-01 02:20:41.23	346.12	19.21	-29.6	-31.7	12.5	1.07e-04	0	43	0	325058560	19	4557
2026-01-01 02:20:42.23	345.91	19.27	-29.4	-31.0	13.1	9.23e-05	0	43	0	327155712	19	4332
2026-01-01 02:20:43.23	345.70	19.34	-29.4	-31.4	13.1	2.59e-05	0	43	0	328204288	18	4531
2026-01-01 02:20:44.23	345.49	19.41	-29.1	-30.6	13.5	1.52e-05	0	43	0	330301440	18	4301
2026-01-01 02:20:45.24	345.28	19.47	-28.9	-30.1	13.9	2.43e-03	0	43	0	332398592	18	4129
2026-01-01 02:20:46.24	345.07	19.54	-29.1	-30.5	13.7	5.30e-06	0	43	0	334495744	18	4263
2026-01-01 02:20:47.24	344.86	19.60	-29.2	-30.9	13.4	8.30e-06	0	43	0	335544320	18	4386
2026-01-01 02:20:48.24	344.65	19.67	-29.4	-31.3	13.2	2.34e-03	0	43	0	337641472	18	4489
2026-01-01 02:20:49.23	344.44	19.73	-29.3	-31.2	13.2	1.52e-05	0	43	0	339738624	18	4471
2026-01-01 02:20:50.23	344.22	19.80	-29.5	-31.7	13.0	2.51e-05	0	43	0	341835776	18	4626
2026-01-01 02:20:51.24	344.01	19.86	-29.3	-31.2	13.3	2.77e-03	0	43	0	343932928	18	4456
2026-01-01 02:20:52.24	343.79	19.93	-29.4	-31.4	13.1	2.89e-05	0	43	0	344981504	18	4549
2026-01-01 02:20:53.24	343.57	19.99	-29.4	-30.9	13.1	2.59e-05	0	43	0	347078656	19	4268
2026-01-01 02:20:54.24	343.36	20.06	-29.2	-30.9	13.4	2.36e-05	0	43	0	349175808	18	4384
2026-01-01 02:20:55.23	343.14	20.12	-29.5	-31.2	13.0	2.61e-03	0	43	0	351272960	19	4356
2026-01-01 02:20:56.24	342.92	20.18	-29.3	-30.7	13.2	2.21e-05	0	43	0	353370112	19	4215
2026-01-01 02:20:57.24	342.70	20.25	-29.2	-30.8	13.5	1.06e-05	0	43	0	354418688	18	4352
2026-01-01 02:20:58.25	342.47	20.31	-29.5	-31.3	12.8	8.62e-05	0	43	0	356515840	19	4394
2026-01-01 02:20:59.25	342.25	20.37	-29.3	-30.6	13.3	1.83e-05	0	43	0	358612992	19	4181
2026-01-01 02:21:00.24	342.03	20.43	-29.3	-31.1	13.3	1.52e-05	0	43	0	360710144	18	4446
2026-01-01 02:21:01.23	341.81	20.50	-29.3	-31.2	13.2	2.59e-05	0	43	0	362807296	18	4474
2026-01-01 02:21:02.24	341.58	20.56	-29.5	-31.5	13.1	8.01e-05	0	43	0	363855872	18	4577
2026-01-01 02:21:03.24	341.35	20.62	-29.5	-31.2	12.9	5.41e-05	0	43	0	365953024	19	4367
2026-01-01 02:21:04.24	341.13	20.68	-29.2	-30.7	13.6	1.67e-05	0	43	0	368050176	18	4303
2026-01-01 02:21:05.25	340.90	20.74	-29.0	-30.4	13.7	7.60e-06	0	43	0	370147328	18	4218
2026-01-01 02:21:06.25	340.67	20.80	-29.0	-30.7	13.9	2.20e-06	0	43	0	371195904	17	4412
2026-01-01 02:21:07.25	340.44	20.86	-29.2	-30.9	13.5	4.50e-06	0	43	0	373293056	18	4388
2026-01-01 02:21:08.25	340.21	20.92	-29.4	-31.4	13.1	2.13e-05	0	43	0	375390208	18	4541
2026-01-01 02:21:09.25	339.98	20.98	-29.3	-31.0	13.5	3.07e-03	0	43	0	377487360	18	4401
2026-01-01 02:21:10.25	339.75	21.04	-28.9	-30.0	14.0	4.50e-06	0	43	0	379584512	18	4110
2026-01-01 02:21:11.26	339.51	21.10	-28.6	-29.4	14.5	1.50e-06	0	43	0	380633088	18	3920
2026-01-01 02:21:12.26	339.28	21.16	-28.5	-29.4	14.7	1.50e-06	0	43	0	382730240	17	4016
2026-01-01 02:21:13.25	339.04	21.21	-28.2	-29.3	15.1	0.00e+00	0	43	0	384827392	16	4065
2026-01-01 02:21:14.24	338.81	21.27	-28.4	-29.6	14.9	1.50e-06	0	43	0	386924544	16	4168
2026-01-01 02:21:15.25	338.57	21.33	-28.5	-29.6	14.6	0.00e+00	0	43	0	389021696	17	4060
2026-01-01 02:21:16.25	338.33	21.39	-28.6	-29.7	14.6	0.00e+00	0	43	0	390070272	17	4101
2026-01-01 02:21:17.25	338.09	21.44	-28.9	-30.0	14.2	3.80e-06	0	43	0	392167424	18	4069
2026-01-01 02:21:18.25	337.85	21.50	-28.7	-30.0	14.4	2.20e-06	0	43	0	394264576	17	4177
2026-01-01 02:21:19.25	337.61	21.55	-28.6	-29.6	14.6	0.00e+00	0	43	0	396361728	17	4075
2026-01-01 02:21:20.25	337.37	21.61	-28.3	-29.0	15.0	0.00e+00	0	43	0	397410304	17	3901
2026-01-01 02:21:21.26	337.13	21.66	-28.2	-29.1	15.2	0.00e+00	0	43	0	399507456	16	4029
2026-01-01 02:21:22.26	336.89	21.72	-28.0	-28.7	15.4	0.00e+00	0	43	0	401604608	16	3919
2026-01-01 02:21:23.26	336.64	21.77	-28.0	-28.8	15.5	0.00e+00	0	43	0	403701760	16	3920
2026-01-01 02:21:24.26	336.40	21.82	-28.1	-28.9	15.4	0.00e+00	0	43	0	405798912	16	3968
2026-01-01 02:21:25.27	336.15	21.88	-28.3	-29.4	15.1	0.00e+00	0	43	0	407896064	16	4115
2026-01-01 02:21:26.27	335.90	21.93	-28.3	-29.6	14.9	7.00e-07	0	43	0	408944640	16	4172
2026-01-01 02:21:27.27	335.65	21.98	-27.2	-28.6	14.9	7.00e-07	0	43	0	411041792	16	4190
2026-01-01 02:21:28.27	335.41	22.03	-28.4	-29.2	14.9	0.00e+00	0	43	0	413138944	17	3952
2026-01-01 02:21:29.27	335.16	22.08	-28.3	-29.4	13.3	0.00e+00	0	43	0	415236096	16	4100
2026-01-01 02:21:30.28	334.91	22.13	-28.1	-29.0	13.3	0.00e+00	0	43	0	416284672	16	3978
2026-01-01 02:21:31.28	334.66	22.18	-27.9	-28.5	15.6	0.00e+00	0	43	0	418381824	16	3855
2026-01-01 02:21:32.28	334.40	22.23	-27.7	-28.5	15.3	0.00e+00	0	43	0	420478976	15	3944
2026-01-01 02:21:33.28	334.15	22.28	-27.8	-28.7	15.5	0.00e+00	0	43	0	422576128	15	4021
2026-01-01 02:21:34.28	333.90	22.33	-28.1	-29.0	15.4	0.00e+00	0	43	0	424673280	16	3979
2026-01-01 02:21:35.28	333.64	22.38	-28.3	-29.4	15.1	0.00e+00	0	43	0	425721856	16	4098
2026-01-01 02:21:36.29	333.39	22.43	-28.3	-29.6	15.0	0.00e+00	0	43	0	427819008	16	4145
2026-01-01 02:21:37.30	333.13	22.47	-28.3	-29.5	15.1	0.00e+00	0	43	0	429916160	16	4127
2026-01-01 02:21:38.30	332.87	22.52	-28.1	-28.9	15.4	0.00e+00	0	43	0	432013312	16	3964
2026-01-01 02:21:39.30	332.62	22.57	-27.9	-29.1	15.4	0.00e+00	0	43	0	434110464	15	4112
2026-01-01 02:21:40.30	332.36	22.61	-28.1	-28.9	15.4	0.00e+00	0	43	0	435159040	16	3948
2026-01-01 02:21:41.30	332.10	22.66	-28.2	-29.3	15.2	0.00e+00	0	43	0	437256192	16	4061
2026-01-01 02:21:42.31	331.84	22.70	-28.4	-29.6	15.0	0.00e+00	0	43	0	439353344	16	4152
2026-01-01 02:21:43.31	331.58	22.74	-28.4	-29.8	14.9	0.00e+00	0	43	0	441450496	16	4206
2026-01-01 02:21:44.31	331.32	22.79	-28.5	-29.5	14.7	2.64e-03	0	43	0	443547648	17	4021
2026-01-01 02:21:45.32	331.05	22.83	-28.5	-29.9	14.8	0.00e+00	0	43	0	444596224	16	4236
2026-01-01 02:21:46.32	330.79	22.87	-28.3	-28.9	15.1	0.00e+00	0	43	0	446693376	17	3852
2026-01-01 02:21:47.33	330.53	22.91	-28.2	-29.2	15.2	2.17e-03	0	43	0	448790528	16	4045
2026-01-01 02:21:48.34	330.26	22.96	-28.0	-28.7	15.5	0.00e+00	0	43	0	450887680	16	3915
2026-01-01 02:21:49.34	330.00	23.00	-27.8	-28.7	15.7	0.00e+00	0	43	0	452984832	15	4017
2026-01-01 02:21:50.35	329.73	23.04	-27.8	-28.8	15.6	2.03e-03	0	43	0	454033408	15	4042
2026-01-01 02:21:51.35	329.46	23.07	-27.8	-28.7	15.7	2.36e-03	0	43	0	456130560	15	4009
2026-01-01 02:21:52.36	329.19	23.11	-28.1	-28.9	15.4	0.00e+00	0	43	0	458227712	16	3949
2026-01-01 02:21:53.36	328.93	23.15	-28.2	-29.2	15.3	0.00e+00	0	43	0	460324864	16	4036
2026-01-01 02:21:54.37	328.66	23.19	-28.2	-29.3	15.2	2.33e-03	0	43	0	462422016	16	4053
2026-01-01 02:21:55.37	328.39	23.23	-27.8	-28.7	15.7	2.30e-04	0	43	0	463470592	15	3998
2026-01-01 02:21:56.38	328.12	23.26	-27.7	-28.6	15.7	0.00e+00	0	43	0	465567744	15	3978
2026-01-01 02:21:57.38	327.85	23.30	-27.7	-28.6	15.7	1.90e-03	0	43	0	467664896	15	3979
2026-01-01 02:21:58.38	327.58	23.33	-27.9	-29.0	15.5	4.27e-04	0	43	0	469762048	15	4091
2026-01-01 02:21:59.39	327.30	23.37	-28.3	-29.3	15.2	0.00e+00	0	43	0	470810624	16	4060
2026-01-01 02:22:00.39	327.03	23.40	-28.5	-29.8	15.0	2.27e-03	0	43	0	472907776	16	4201
2026-01-01 02:22:01.39	326.76	23.43	-28.9	-30.3	14.3	4.45e-04	0	43	0	475004928	17	4273
2026-01-01 02:22:02.40	326.49	23.46	-29.0	-30.3	14.0	2.35e-03	0	43	0	477102080	18	4159
2026-01-01 02:22:03.40	326.21	23.50	-29.4	-31.3	13.4	9.10e-06	0	43	0	479199232	18	4465
2026-01-01 02:22:04.40	325.94	23.53	-29.5	-31.1	13.2	3.75e-04	0	43	0	480247808	19	4313
2026-01-01 02:22:05.40	325.66	23.56	-29.8	-31.9	12.7	2.35e-03	0	43	0	482344960	19	4584
2026-01-01 02:22:06.40	325.39	23.59	-29.9	-31.7	12.4	2.27e-03	0	43	0	484442112	20	4434
2026-01-01 02:22:07.41	325.11	23.61	-29.8	-31.8	12.7	7.48e-04	0	43	0	486539264	19	4566
2026-01-01 02:22:08.41	324.84	23.64	-29.8	-31.8	12.7	2.15e-03	0	43	0	488636416	19	4547
2026-01-01 02:22:09.42	324.56	23.67	-29.8	-31.9	12.6	1.75e-03	0	43	0	489684992	19	4572
2026-01-01 02:22:10.42	324.28	23.70	-29.8	-31.9	12.6	1.17e-03	0	43	0	491782144	19	4567
2026-01-01 02:22:11.42	324.00	23.72	-29.7	-31.7	12.7	5.20e-04	0	43	0	493879296	19	4526
2026-01-01 02:22:12.42	323.73	23.75	-29.7	-31.6	12.9	4.61e-04	0	43	0	495976448	19	4479
2026-01-01 02:22:13.43	323.45	23.77	-29.6	-31.3	13.0	1.19e-03	0	43	0	498073600	19	4390
2026-01-01 02:22:14.43	323.17	23.80	-29.5	-31.0	13.2	1.45e-03	0	43	0	499122176	19	4294
2026-01-01 02:22:15.43	322.89	23.82	-29.1	-30.5	13.8	1.55e-03	0	43	0	501219328	18	4240
2026-01-01 02:22:16.43	322.61	23.84	-28.8	-30.3	14.3	9.76e-04	0	43	0	503316480	17	4258
2026-01-01 02:22:17.44	322.33	23.86	-28.7	-30.0	14.4	1.50e-06	0	43	0	505413632	17	4177
2026-01-01 02:22:18.44	322.05	23.88	-28.7	-30.1	14.4	2.34e-03	0	43	0	507510784	17	4201
2026-01-01 02:22:19.45	321.76	23.90	-28.7	-30.1	14.4	1.43e-03	0	43	0	508559360	17	4202
2026-01-01 02:22:20.45	321.48	23.92	-28.8	-30.3	14.2	2.59e-03	0	43	0	510656512	17	4281
2026-01-01 02:22:21.46	321.20	23.94	-29.1	-30.5	13.8	2.68e-03	0	43	0	512753664	18	4231
2026-01-01 02:22:22.46	320.92	23.96	-29.3	-31.0	13.5	1.70e-03	0	43	0	514850816	18	4387
2026-01-01 02:22:23.46	320.63	23.98	-29.3	-31.1	13.4	2.50e-03	0	43	0	516947968	18	4417
2026-01-01 02:22:24.46	320.35	23.99	-29.3	-31.0	13.5	7.60e-06	0	43	0	517996544	18	4374
2026-01-01 02:22:25.47	320.07	24.01	-29.3	-31.1	13.5	1.60e-03	0	43	0	520093696	18	4415
2026-01-01 02:22:26.47	319.78	24.02	-29.3	-30.5	13.5	2.47e-03	0	43	0	522190848	19	4138
2026-01-01 02:22:27.47	319.50	24.04	-29.5	-31.2	13.1	1.98e-05	0	43	0	524288000	19	4349
2026-01-01 02:22:28.47	319.22	24.05	-29.7	-31.7	12.7	1.45e-03	0	43	0	526385152	19	4523
2026-01-01 02:22:29.46	318.94	24.06	-29.9	-32.4	12.3	3.34e-03	0	43	0	527433728	19	4769
2026-01-01 02:22:30.47	318.65	24.08	-30.0	-32.0	12.1	3.35e-03	0	43	0	529530880	20	4550
2026-01-01 02:22:31.47	318.37	24.09	-30.0	-32.0	11.9	3.17e-04	0	43	0	531628032	20	4554
2026-01-01 02:22:32.47	318.08	24.10	-29.9	-32.0	12.2	3.50e-03	0	43	0	533725184	20	4535
2026-01-01 02:22:33.47	317.80	24.11	-29.8	-31.8	12.6	3.16e-03	0	43	0	534773760	19	4565
2026-01-01 02:22:34.48	317.51	24.12	-29.8	-32.0	12.6	7.62e-05	0	43	0	536870912	19	4619
2026-01-01 02:22:35.47	317.23	24.13	-29.6	-31.3	12.9	5.34e-05	0	43	0	538968064	19	4401
2026-01-01 02:22:36.48	316.94	24.13	-29.7	-31.6	12.8	3.36e-03	0	43	0	541065216	19	4486
2026-01-01 02:22:37.48	316.66	24.14	-29.9	-32.1	12.5	1.66e-03	0	43	0	543162368	19	4645
2026-01-01 02:22:38.48	316.37	24.15	-29.9	-31.8	12.3	1.61e-04	0	43	0	544210944	20	4481
2026-01-01 02:22:39.49	316.08	24.15	-30.2	-32.6	11.8	3.66e-03	0	43	0	546308096	20	4750
2026-01-01 02:22:40.49	315.80	24.15	-30.3	-33.0	11.4	1.89e-03	0	43	0	548405248	20	4898
2026-01-01 02:22:41.50	315.51	24.16	-30.1	-32.5	11.8	4.20e-04	0	43	0	550502400	20	4714
2026-01-01 02:22:42.50	315.22	24.16	-29.9	-31.7	12.4	1.78e-04	0	43	0	552599552	20	4430
2026-01-01 02:22:43.50	314.94	24.16	-29.6	-31.5	12.8	6.87e-04	0	43	0	553648128	19	4445
2026-01-01 02:22:44.51	314.65	24.16	-29.5	-31.0	13.1	2.78e-03	0	43	0	555745280	19	4310
2026-01-01 02:22:45.51	314.36	24.16	-29.4	-30.8	13.3	1.83e-05	0	43	0	557842432	19	4240
2026-01-01 02:22:46.51	314.08	24.16	-29.2	-30.8	13.6	2.47e-04	0	43	0	559939584	18	4334
2026-01-01 02:22:47.52	313.79	24.16	-29.1	-30.6	13.7	3.04e-03	0	43	0	562036736	18	4261
2026-01-01 02:22:48.52	313.51	24.16	-29.2	-30.8	13.7	3.80e-06	0	43	0	563085312	18	4313
2026-01-01 02:22:49.52	313.22	24.16	-29.2	-30.9	13.6	1.14e-05	0	43	0	565182464	18	4351
2026-01-01 02:22:50.52	312.93	24.15	-29.4	-31.0	13.3	3.12e-03	0	43	0	567279616	19	4288
2026-01-01 02:22:51.52	312.65	24.15	-29.7	-31.6	12.8	3.96e-05	0	43	0	569376768	19	4491
2026-01-01 02:22:52.52	312.36	24.15	-29.8	-32.0	12.5	8.85e-05	0	43	0	571473920	19	4616
2026-01-01 02:22:53.53	312.08	24.14	-29.9	-32.2	12.3	1.27e-04	0	43	0	572522496	19	4722
2026-01-01 02:22:54.52	311.79	24.13	-29.9	-32.2	12.4	3.26e-03	0	43	0	574619648	19	4708
2026-01-01 02:22:55.53	311.51	24.13	-29.7	-31.6	12.7	9.23e-05	0	43	0	576716800	19	4513
2026-01-01 02:22:56.53	311.22	24.12	-29.6	-31.5	12.9	6.10e-05	0	43	0	578813952	19	4458
2026-01-01 02:22:57.54	310.93	24.11	-29.7	-31.5	12.9	3.02e-03	0	43	0	579862528	19	4471
2026-01-01 02:22:58.55	310.65	24.10	-29.4	-30.9	13.3	2.59e-05	0	43	0	581959680	19	4250
2026-01-01 02:22:59.55	310.36	24.09	-29.4	-30.8	13.4	1.44e-05	0	43	0	584056832	19	4218
2026-01-01 02:23:00.55	310.08	24.08	-29.2	-30.6	13.8	5.30e-06	0	43	0	586153984	18	4267
2026-01-01 02:23:01.55	309.79	24.07	-29.2	-30.9	13.6	5.30e-06	0	43	0	588251136	18	4359
2026-01-01 02:23:02.56	309.51	24.05	-29.1	-30.5	13.8	1.22e-05	0	43	0	589299712	18	4222
2026-01-01 02:23:03.55	309.23	24.04	-29.1	-30.6	13.8	6.10e-06	0	43	0	591396864	18	4252
2026-01-01 02:23:04.55	308.94	24.03	-29.1	-30.4	13.9	1.61e-04	0	43	0	593494016	18	4200
2026-01-01 02:23:05.55	308.66	24.01	-28.9	-29.9	14.2	3.00e-06	0	43	0	595591168	18	4044
2026-01-01 02:23:06.56	308.38	24.00	-28.8	-30.1	14.4	0.00e+00	0	43	0	597688320	17	4209
2026-01-01 02:23:07.56	308.09	23.98	-28.8	-30.1	14.4	0.00e+00	0	43	0	598736896	17	4204
2026-01-01 02:23:08.56	307.81	23.96	-28.9	-30.6	14.1	3.80e-06	0	43	0	600834048	17	4336
2026-01-01 02:23:09.57	307.53	23.94	-29.0	-30.3	14.0	3.80e-06	0	43	0	602931200	18	4151
2026-01-01 02:23:10.56	307.25	23.93	-29.0	-30.3	14.0	3.00e-06	0	43	0	605028352	18	4149
2026-01-01 02:23:11.57	306.96	23.91	-28.9	-29.9	14.1	1.50e-06	0	43	0	607125504	18	4036
2026-01-01 02:23:12.58	306.68	23.89	-28.6	-29.7	14.7	7.00e-07	0	43	0	608174080	17	4077
2026-01-01 02:23:13.58	306.40	23.86	-28.2	-28.7	15.3	7.00e-07	0	43	0	610271232	17	3804
2026-01-01 02:23:14.58	306.12	23.84	-28.1	-28.9	15.4	0.00e+00	0	43	0	612368384	16	3946
2026-01-01 02:23:15.58	305.84	23.82	-28.0	-28.6	15.6	0.00e+00	0	43	0	614465536	16	3878
2026-01-01 02:23:16.58	305.56	23.80	-27.9	-28.9	15.6	1.50e-06	0	43	0	616562688	15	4061
2026-01-01 02:23:17.58	305.28	23.77	-27.7	-28.4	15.9	0.00e+00	0	43	0	617611264	15	3929
2026-01-01 02:23:18.59	305.00	23.75	-27.5	-28.1	16.0	0.00e+00	0	43	0	619708416	15	3843
2026-01-01 02:23:19.59	304.72	23.72	-27.5	-27.9	16.2	0.00e+00	0	43	0	621805568	15	3784
2026-01-01 02:23:20.60	304.44	23.70	-27.5	-27.9	16.1	0.00e+00	0	43	0	623902720	15	3798
2026-01-01 02:23:21.60	304.16	23.67	-27.3	-28.1	16.3	0.00e+00	0	43	0	624951296	14	3943
2026-01-01 02:23:22.61	303.89	23.64	-27.3	-28.1	16.3	0.00e+00	0	43	0	627048448	14	3947
2026-01-01 02:23:23.60	303.61	23.62	-27.4	-28.3	16.2	0.00e+00	0	43	0	629145600	14	3999
2026-01-01 02:23:24.60	303.34	23.59	-27.6	-28.2	16.0	0.00e+00	0	43	0	631242752	15	3853
2026-01-01 02:23:25.61	303.06	23.56	-27.9	-29.0	14.1	0.00e+00	0	43	0	633339904	15	4088
2026-01-01 02:23:26.61	302.78	23.53	-27.9	-29.1	13.3	0.00e+00	0	43	0	635437056	15	4102
2026-01-01 02:23:27.62	302.51	23.50	-28.4	-29.7	13.7	0.00e+00	0	43	0	636485632	16	4155
2026-01-01 02:23:28.62	302.23	23.47	-28.3	-29.4	13.1	7.00e-07	0	43	0	638582784	16	4094
2026-01-01 02:23:29.62	301.96	23.43	-28.2	-29.1	13.8	0.00e+00	0	43	0	640679936	16	4005
2026-01-01 02:23:30.63	301.69	23.40	-28.1	-28.9	15.2	0.00e+00	0	43	0	642777088	16	3956
2026-01-01 02:23:31.63	301.41	23.37	-27.9	-29.0	15.3	7.00e-07	0	43	0	643825664	15	4087
2026-01-01 02:23:32.64	301.14	23.33	-28.0	-29.2	15.3	0.00e+00	0	43	0	645922816	15	4138
2026-01-01 02:23:33.64	300.87	23.30	-28.1	-28.8	15.5	0.00e+00	0	43	0	648019968	16	3921
2026-01-01 02:23:34.64	300.60	23.26	-27.8	-28.8	15.7	0.00e+00	0	43	0	650117120	15	4017
2026-01-01 02:23:35.65	300.33	23.23	-27.6	-28.2	16.0	2.65e-03	0	43	0	652214272	15	3874
2026-01-01 02:23:36.65	300.06	23.19	-27.4	-27.8	16.2	0.00e+00	0	43	0	653262848	15	3765
2026-01-01 02:23:37.65	299.79	23.15	-27.6	-28.3	15.9	0.00e+00	0	43	0	655360000	15	3892
2026-01-01 02:23:38.66	299.52	23.12	-28.2	-29.2	15.3	0.00e+00	0	43	0	657457152	16	4031
2026-01-01 02:23:39.65	299.26	23.08	-28.4	-29.8	15.0	1.14e-04	0	43	0	659554304	16	4191
2026-01-01 02:23:40.65	298.99	23.04	-28.5	-29.9	14.9	1.50e-06	0	43	0	661651456	16	4231
2026-01-01 02:23:41.65	298.72	23.00	-28.4	-29.6	15.0	0.00e+00	0	43	0	662700032	16	4139
2026-01-01 02:23:42.65	298.46	22.96	-28.4	-29.7	15.0	0.00e+00	0	43	0	664797184	16	4175
2026-01-01 02:23:43.65	298.20	22.92	-28.3	-29.4	15.2	0.00e+00	0	43	0	666894336	16	4080
2026-01-01 02:23:44.65	297.93	22.88	-28.6	-29.7	14.7	0.00e+00	0	43	0	668991488	17	4068
2026-01-01 02:23:45.65	297.67	22.84	-28.9	-30.4	14.3	7.00e-07	0	43	0	670040064	17	4270
2026-01-01 02:23:46.66	297.40	22.79	-28.9	-30.3	14.3	2.52e-03	0	43	0	672137216	17	4264
2026-01-01 02:23:47.67	297.14	22.75	-28.9	-30.5	14.1	3.00e-06	0	43	0	674234368	17	4323
2026-01-01 02:23:48.67	296.88	22.70	-29.0	-30.1	14.1	7.00e-07	0	43	0	676331520	18	4118
2026-01-01 02:23:49.68	296.62	22.66	-29.3	-31.0	13.6	2.79e-03	0	43	0	678428672	18	4384
2026-01-01 02:23:50.68	296.36	22.62	-29.5	-31.4	13.4	1.16e-03	0	43	0	680525824	18	4469
2026-01-01 02:23:51.68	296.10	22.57	-29.5	-30.8	13.4	1.60e-05	0	43	0	681574400	19	4189
2026-01-01 02:23:52.68	295.84	22.52	-29.4	-31.1	13.5	2.41e-03	0	43	0	683671552	18	4401
2026-01-01 02:23:53.68	295.59	22.48	-29.5	-30.9	13.3	2.07e-03	0	43	0	685768704	19	4246
2026-01-01 02:23:54.68	295.33	22.43	-29.7	-31.4	13.0	2.13e-05	0	43	0	687865856	19	4401
2026-01-01 02:23:55.68	295.07	22.38	-29.9	-32.0	12.6	6.56e-05	0	43	0	688914432	19	4585
2026-01-01 02:23:56.69	294.82	22.34	-29.9	-32.0	12.6	1.38e-03	0	43	0	691011584	19	4589
2026-01-01 02:23:57.69	294.56	22.29	-30.0	-32.3	12.5	3.36e-04	0	43	0	693108736	19	4685
2026-01-01 02:23:58.69	294.31	22.24	-29.9	-32.1	12.5	1.71e-04	0	43	0	695205888	19	4637
2026-01-01 02:23:59.69	294.06	22.19	-29.8	-31.4	12.6	1.60e-03	0	43	0	697303040	20	4301
2026-01-01 02:24:00.70	293.81	22.14	-29.9	-31.9	12.7	4.81e-04	0	43	0	698351616	19	4572
2026-01-01 02:24:01.70	293.56	22.09	-29.8	-31.8	12.7	1.08e-04	0	43	0	700448768	19	4532
2026-01-01 02:24:02.71	293.30	22.04	-29.7	-31.6	12.8	4.50e-05	0	43	0	702545920	19	4471
2026-01-01 02:24:03.71	293.05	21.98	-29.7	-31.6	12.9	2.20e-04	0	43	0	704643072	19	4468
2026-01-01 02:24:04.71	292.81	21.93	-29.7	-31.4	13.0	3.31e-04	0	43	0	706740224	19	4405
2026-01-01 02:24:05.72	292.56	21.88	-29.6	-31.2	13.2	5.79e-05	0	43	0	707788800	19	4326
2026-01-01 02:24:06.72	292.31	21.83	-29.7	-31.4	13.0	2.04e-04	0	43	0	709885952	19	4390
2026-01-01 02:24:07.72	292.06	21.77	-29.4	-30.6	13.5	4.50e-05	0	43	0	711983104	19	4145
2026-01-01 02:24:08.73	291.82	21.72	-29.3	-30.5	13.6	3.58e-04	0	43	0	714080256	19	4103
2026-01-01 02:24:09.72	291.58	21.67	-29.2	-30.0	13.9	5.30e-06	0	43	0	716177408	19	3971
2026-01-01 02:24:10.72	291.33	21.61	-29.2	-30.5	13.9	1.32e-03	0	43	0	717225984	18	4215
2026-01-01 02:24:11.73	291.09	21.56	-29.2	-30.5	13.9	1.38e-03	0	43	0	719323136	18	4222
2026-01-01 02:24:12.73	290.85	21.50	-29.1	-30.3	14.0	2.20e-06	0	43	0	721420288	18	4157
2026-01-01 02:24:13.74	290.61	21.44	-29.2	-30.6	13.8	8.69e-04	0	43	0	723517440	18	4236
2026-01-01 02:24:14.74	290.37	21.39	-29.2	-30.6	13.9	4.84e-04	0	43	0	725614592	18	4227
2026-01-01 02:24:15.74	290.13	21.33	-29.1	-30.4	14.0	2.05e-05	0	43	0	726663168	18	4166
2026-01-01 02:24:16.75	289.89	21.27	-29.1	-30.4	13.9	3.02e-04	0	43	0	728760320	18	4194
2026-01-01 02:24:17.75	289.65	21.21	-29.3	-30.9	13.6	1.51e-04	0	43	0	730857472	18	4338
2026-01-01 02:24:18.76	289.41	21.16	-29.5	-31.0	13.2	9.10e-06	0	43	0	732954624	19	4272
2026-01-01 02:24:19.76	289.18	21.10	-29.8	-31.7	12.7	4.73e-05	0	43	0	735051776	19	4510
2026-01-01 02:24:20.77	288.94	21.04	-29.8	-31.9	12.6	9.15e-05	0	43	0	736100352	19	4579
2026-01-01 02:24:21.76	288.71	20.98	-29.9	-32.1	12.6	7.01e-05	0	43	0	738197504	19	4621
2026-01-01 02:24:22.77	288.48	20.92	-29.8	-31.9	12.6	1.45e-03	0	43	0	740294656	19	4577
2026-01-01 02:24:23.77	288.24	20.86	-29.8	-31.8	12.7	1.96e-03	0	43	0	742391808	19	4532
2026-01-01 02:24:24.78	288.01	20.80	-29.7	-31.5	12.9	2.02e-04	0	43	0	743440384	19	4429
2026-01-01 02:24:25.78	287.78	20.74	-29.8	-31.7	12.8	2.40e-03	0	43	0	745537536	19	4502
2026-01-01 02:24:26.78	287.55	20.68	-29.7	-31.1	12.8	1.04e-04	0	43	0	747634688	20	4212
2026-01-01 02:24:27.79	287.32	20.62	-29.9	-31.7	12.4	2.58e-04	0	43	0	749731840	20	4419
2026-01-01 02:24:28.79	287.10	20.56	-30.2	-32.5	11.7	1.99e-03	0	43	0	751828992	20	4710
2026-01-01 02:24:29.79	286.87	20.49	-30.4	-33.2	11.3	2.08e-03	0	43	0	752877568	20	4978
2026-01-01 02:24:30.80	286.64	20.43	-30.7	-33.5	10.7	2.41e-03	0	43	0	754974720	21	5007
2026-01-01 02:24:31.79	286.42	20.37	-30.7	-33.6	10.8	4.80e-03	0	43	0	757071872	21	5046
2026-01-01 02:24:32.79	286.20	20.31	-30.5	-33.0	11.0	4.10e-03	0	43	0	759169024	21	4814
2026-01-01 02:24:33.79	285.98	20.24	-30.2	-32.0	11.8	9.25e-04	0	43	0	761266176	21	4443
2026-01-01 02:24:34.79	285.76	20.18	-29.9	-31.1	12.3	3.29e-04	0	43	0	762314752	21	4149
2026-01-01 02:24:35.80	285.53	20.12	-29.7	-31.0	12.8	8.16e-05	0	43	0	764411904	20	4193
2026-01-01 02:24:36.80	285.31	20.05	-29.5	-30.4	13.2	4.50e-05	0	43	0	766509056	20	4025
2026-01-01 02:24:37.80	285.09	19.99	-29.5	-30.4	13.2	4.18e-04	0	43	0	768606208	20	4020
2026-01-01 02:24:38.81	284.87	19.92	-29.5	-30.9	13.2	8.48e-04	0	43	0	770703360	19	4252
2026-01-01 02:24:39.81	284.66	19.86	-29.6	-31.4	12.9	5.87e-05	0	43	0	771751936	19	4413
2026-01-01 02:24:40.80	284.44	19.79	-29.5	-30.9	13.2	4.95e-05	0	43	0	773849088	19	4244
2026-01-01 02:24:41.81	284.23	19.73	-29.4	-31.2	13.3	1.73e-03	0	43	0	775946240	18	4456
2026-01-01 02:24:42.80	284.02	19.66	-29.2	-30.7	13.7	1.96e-04	0	43	0	778043392	18	4270
2026-01-01 02:24:43.81	283.80	19.60	-29.2	-30.8	13.6	8.30e-06	0	43	0	780140544	18	4311
2026-01-01 02:24:44.81	283.59	19.53	-29.3	-30.9	13.5	4.24e-04	0	43	0	781189120	18	4357
2026-01-01 02:24:45.81	283.38	19.47	-29.1	-30.3	13.9	1.06e-05	0	43	0	783286272	18	4165
2026-01-01 02:24:46.81	283.17	19.40	-28.7	-29.9	14.4	1.74e-03	0	43	0	785383424	17	4139
2026-01-01 02:24:47.82	282.96	19.33	-28.6	-29.6	14.6	0.00e+00	0	43	0	787480576	17	4054
2026-01-01 02:24:48.82	282.75	19.27	-28.3	-28.8	15.1	0.00e+00	0	43	0	788529152	17	3824
2026-01-01 02:24:49.82	282.54	19.20	-28.2	-29.2	15.2	2.03e-03	0	43	0	790626304	16	4025
2026-01-01 02:24:50.83	282.33	19.13	-28.4	-29.6	14.9	0.00e+00	0	43	0	792723456	16	4149
2026-01-01 02:24:51.83	282.13	19.06	-28.6	-29.6	14.6	7.00e-07	0	43	0	794820608	17	4058
2026-01-01 02:24:52.83	281.92	19.00	-29.1	-30.4	13.9	2.23e-03	0	43	0	796917760	18	4185
2026-01-01 02:24:53.84	281.71	18.93	-29.0	-30.2	14.0	2.08e-03	0	43	0	797966336	18	4138
2026-01-01 02:24:54.84	281.51	18.86	-29.0	-30.3	13.9	3.00e-06	0	43	0	800063488	18	4148
2026-01-01 02:24:55.84	281.31	18.79	-29.5	-31.0	13.2	9.78e-04	0	43	0	802160640	19	4275
2026-01-01 02:24:56.85	281.11	18.72	-29.6	-31.2	13.0	4.19e-05	0	43	0	804257792	19	4341
2026-01-01 02:24:57.85	280.91	18.65	-29.7	-31.6	12.7	7.70e-05	0	43	0	806354944	19	4497
2026-01-01 02:24:58.85	280.71	18.58	-29.9	-32.2	12.3	8.39e-05	0	43	0	807403520	19	4670
2026-01-01 02:24:59.84	280.51	18.52	-30.0	-32.0	12.1	2.54e-03	0	43	0	809500672	20	4530
2026-01-01 02:25:00.85	280.31	18.45	-30.2	-32.5	11.7	4.78e-04	0	43	0	811597824	20	4726
2026-01-01 02:25:01.84	280.12	18.38	-30.2	-32.6	11.6	6.91e-04	0	43	0	813694976	20	4766
2026-01-01 02:25:02.85	279.92	18.31	-30.0	-32.1	12.0	2.03e-03	0	43	0	815792128	20	4564
2026-01-01 02:25:03.86	279.72	18.24	-29.9	-31.9	12.0	2.91e-04	0	43	0	816840704	20	4498
2026-01-01 02:25:04.86	279.53	18.17	-29.9	-31.6	12.2	1.98e-04	0	43	0	818937856	20	4410
2026-01-01 02:25:05.86	279.34	18.10	-29.9	-32.2	12.2	1.54e-04	0	43	0	821035008	19	4702
2026-01-01 02:25:06.86	279.14	18.03	-29.6	-31.3	12.9	1.56e-04	0	43	0	823132160	19	4376
2026-01-01 02:25:07.86	278.95	17.96	-29.3	-30.6	13.3	2.82e-05	0	43	0	825229312	19	4179
2026-01-01 02:25:08.86	278.76	17.89	-28.9	-29.9	14.1	6.10e-06	0	43	0	826277888	18	4062
2026-01-01 02:25:09.86	278.57	17.82	-28.7	-29.4	14.4	0.00e+00	0	43	0	828375040	18	3906
2026-01-01 02:25:10.86	278.38	17.75	-28.5	-29.5	14.6	0.00e+00	0	43	0	830472192	17	4031
2026-01-01 02:25:11.87	278.20	17.68	-28.5	-29.4	14.7	7.00e-07	0	43	0	832569344	17	3995
2026-01-01 02:25:12.87	278.01	17.61	-28.6	-29.7	14.5	0.00e+00	0	43	0	833617920	17	4095
2026-01-01 02:25:13.87	277.82	17.53	-28.7	-29.9	14.4	2.33e-03	0	43	0	835715072	17	4150
2026-01-01 02:25:14.86	277.64	17.46	-29.1	-30.5	13.7	3.80e-06	0	43	0	837812224	18	4222
2026-01-01 02:25:15.87	277.45	17.39	-29.2	-30.8	13.5	6.10e-06	0	43	0	839909376	18	4320
2026-01-01 02:25:16.87	277.27	17.32	-29.5	-31.1	12.9	1.60e-05	0	43	0	842006528	19	4340
2026-01-01 02:25:17.87	277.09	17.25	-29.3	-31.1	13.3	2.28e-05	0	43	0	843055104	18	4427
2026-01-01 02:25:18.88	276.91	17.18	-29.2	-30.8	13.5	9.10e-06	0	43	0	845152256	18	4314
2026-01-01 02:25:19.88	276.72	17.11	-29.1	-30.6	13.6	6.80e-06	0	43	0	847249408	18	4270
2026-01-01 02:25:20.89	276.54	17.03	-29.2	-30.6	13.6	2.93e-03	0	43	0	849346560	18	4274
2026-01-01 02:25:21.89	276.36	16.96	-29.1	-30.5	13.7	2.20e-06	0	43	0	851443712	18	4227
2026-01-01 02:25:22.90	276.18	16.89	-29.2	-30.7	13.5	6.10e-06	0	43	0	852492288	18	4306
2026-01-01 02:25:23.91	276.01	16.82	-29.3	-30.9	13.4	1.67e-05	0	43	0	854589440	18	4369
2026-01-01 02:25:24.91	275.83	16.75	-29.3	-31.2	13.2	3.35e-05	0	43	0	856686592	18	4452
2026-01-01 02:25:25.91	275.65	16.67	-29.4	-31.2	13.2	2.21e-05	0	43	0	858783744	18	4470
2026-01-01 02:25:26.91	275.48	16.60	-29.4	-31.2	13.2	2.67e-05	0	43	0	860880896	18	4460
2026-01-01 02:25:27.91	275.31	16.53	-29.3	-31.2	13.2	2.97e-05	0	43	0	861929472	18	4443
2026-01-01 02:25:28.92	275.13	16.46	-29.3	-31.0	13.3	1.83e-05	0	43	0	864026624	18	4391
2026-01-01 02:25:29.92	274.96	16.39	-29.3	-31.0	13.3	1.83e-05	0	43	0	866123776	18	4383
2026-01-01 02:25:30.93	274.79	16.31	-29.4	-31.5	13.1	2.59e-05	0	43	0	868220928	18	4543
2026-01-01 02:25:31.93	274.62	16.24	-29.2	-30.8	13.4	1.75e-05	0	43	0	870318080	18	4328
2026-01-01 02:25:32.93	274.45	16.17	-29.0	-30.3	13.7	1.14e-05	0	43	0	871366656	18	4183
2026-01-01 02:25:33.94	274.28	16.10	-28.9	-30.1	13.9	2.20e-06	0	43	0	873463808	18	4106
2026-01-01 02:25:34.94	274.11	16.02	-28.9	-30.4	13.9	3.00e-06	0	43	0	875560960	17	4313
2026-01-01 02:25:35.94	273.94	15.95	-28.7	-30.0	14.2	5.30e-06	0	43	0	877658112	17	4191
2026-01-01 02:25:36.95	273.77	15.88	-28.8	-30.2	14.1	7.00e-07	0	43	0	879755264	17	4246
2026-01-01 02:25:37.96	273.61	15.81	-29.2	-30.7	13.5	6.80e-06	0	43	0	880803840	18	4304
2026-01-01 02:25:38.96	273.44	15.73	-28.9	-30.1	13.8	1.44e-05	0	43	0	882900992	18	4117
2026-01-01 02:25:39.97	273.28	15.66	-27.7	-29.1	13.7	3.80e-06	0	43	0	884998144	17	4236
2026-01-01 02:25:40.98	273.11	15.59	-28.9	-30.6	13.2	6.10e-06	0	43	0	887095296	17	4379
2026-01-01 02:25:41.99	272.95	15.51	-29.5	-31.1	13.3	1.14e-05	0	43	0	889192448	18	4290
2026-01-01 02:25:42.99	272.79	15.44	-28.9	-30.6	12.4	5.30e-06	0	43	0	890241024	17	4357
2026-01-01 02:25:43.99	272.63	15.37	-28.9	-30.5	12.2	4.50e-06	0	43	0	892338176	17	4336
2026-01-01 02:25:45.00	272.46	15.30	-28.5	-29.5	14.5	1.18e-04	0	43	0	894435328	17	4045
2026-01-01 02:25:46.00	272.30	15.22	-28.2	-29.3	15.0	7.00e-07	0	43	0	896532480	16	4067
2026-01-01 02:25:47.00	272.15	15.15	-28.3	-29.5	14.8	0.00e+00	0	43	0	898629632	16	4126
2026-01-01 02:25:48.00	271.99	15.08	-28.4	-29.7	14.7	3.33e-04	0	43	0	899678208	16	4186
2026-01-01 02:25:49.01	271.83	15.00	-28.4	-29.8	14.6	0.00e+00	0	43	0	901775360	16	4220
2026-01-01 02:25:50.01	271.67	14.93	-28.4	-29.8	14.6	0.00e+00	0	43	0	903872512	16	4225
2026-01-01 02:25:51.01	271.52	14.86	-28.5	-29.9	14.5	3.00e-06	0	43	0	905969664	16	4259
2026-01-01 02:25:52.01	271.37	14.79	-28.6	-29.8	14.3	2.71e-03	0	43	0	907018240	17	4127
2026-01-01 02:25:53.01	271.21	14.71	-28.9	-30.5	13.8	7.00e-07	0	43	0	909115392	17	4343
2026-01-01 02:25:54.01	271.06	14.64	-28.9	-30.5	13.8	3.00e-06	0	43	0	911212544	17	4350
2026-01-01 02:25:55.02	270.90	14.57	-29.0	-30.8	13.7	3.37e-03	0	43	0	913309696	17	4422
2026-01-01 02:25:56.02	270.75	14.50	-29.3	-31.1	13.2	9.10e-06	0	43	0	915406848	18	4421
2026-01-01 02:25:57.03	270.60	14.42	-29.3	-31.1	13.1	2.44e-05	0	43	0	916455424	18	4431
2026-01-01 02:25:58.03	270.45	14.35	-29.3	-31.2	13.0	3.81e-05	0	43	0	918552576	18	4471
2026-01-01 02:25:59.04	270.30	14.28	-29.1	-30.7	13.4	3.21e-03	0	43	0	920649728	18	4301
2026-01-01 02:26:00.04	270.15	14.21	-29.0	-30.4	13.6	6.10e-06	0	43	0	922746880	18	4199
2026-01-01 02:26:01.05	270.00	14.13	-28.7	-30.0	14.1	4.50e-06	0	43	0	924844032	17	4179
2026-01-01 02:26:02.05	269.86	14.06	-28.7	-30.1	14.0	3.40e-03	0	43	0	925892608	17	4216
2026-01-01 02:26:03.05	269.71	13.99	-28.6	-29.8	14.3	1.60e-03	0	43	0	927989760	17	4122
2026-01-01 02:26:04.05	269.56	13.92	-28.9	-30.4	13.8	7.00e-07	0	43	0	930086912	17	4321
2026-01-01 02:26:05.05	269.42	13.84	-28.8	-30.2	14.0	3.09e-03	0	43	0	932184064	17	4249
2026-01-01 02:26:06.06	269.27	13.77	-29.2	-30.8	13.3	1.49e-03	0	43	0	934281216	18	4328
2026-01-01 02:26:07.06	269.13	13.70	-29.6	-31.4	12.6	4.42e-05	0	43	0	935329792	19	4449
2026-01-01 02:26:08.06	268.99	13.63	-29.4	-31.4	12.9	8.46e-05	0	43	0	937426944	18	4545
2026-01-01 02:26:09.06	268.85	13.55	-29.9	-32.4	11.9	1.18e-03	0	43	0	939524096	19	4782
2026-01-01 02:26:10.07	268.70	13.48	-30.0	-32.1	11.6	3.44e-03	0	43	0	941621248	20	4624
2026-01-01 02:26:11.08	268.56	13.41	-29.9	-32.3	11.9	4.10e-04	0	43	0	943718400	19	4760
2026-01-01 02:26:12.08	268.42	13.34	-29.8	-32.0	12.1	4.02e-04	0	43	0	944766976	19	4657
2026-01-01 02:26:13.08	268.28	13.26	-29.7	-31.9	12.1	3.10e-03	0	43	0	946864128	19	4633
2026-01-01 02:26:14.09	268.14	13.19	-29.8	-32.1	12.0	2.96e-03	0	43	0	948961280	19	4696
2026-01-01 02:26:15.09	268.01	13.12	-30.0	-32.5	11.7	3.60e-04	0	43	0	951058432	19	4849
2026-01-01 02:26:16.09	267.87	13.05	-29.9	-32.1	11.6	3.34e-03	0	43	0	952107008	20	4622
2026-01-01 02:26:17.10	267.73	12.98	-29.6	-31.5	12.4	2.87e-03	0	43	0	954204160	19	4499
2026-01-01 02:26:18.10	267.59	12.90	-29.2	-30.4	13.2	8.08e-05	0	43	0	956301312	19	4141
2026-01-01 02:26:19.10	267.46	12.83	-28.9	-30.2	13.6	2.44e-03	0	43	0	958398464	18	4152
2026-01-01 02:26:20.10	267.33	12.76	-28.7	-30.0	14.0	2.63e-03	0	43	0	960495616	17	4203
2026-01-01 02:26:21.11	267.19	12.69	-28.6	-29.8	14.2	3.11e-04	0	43	0	962592768	17	4120
2026-01-01 02:26:22.12	267.06	12.62	-28.3	-29.5	14.6	2.65e-03	0	43	0	963641344	16	4141
2026-01-01 02:26:23.12	266.92	12.54	-28.3	-29.5	14.6	2.62e-03	0	43	0	965738496	16	4145
2026-01-01 02:26:24.12	266.79	12.47	-28.0	-28.9	15.0	6.16e-04	0	43	0	967835648	16	3973
2026-01-01 02:26:25.11	266.66	12.40	-28.4	-29.7	14.5	6.23e-04	0	43	0	969932800	16	4209
2026-01-01 02:26:26.12	266.53	12.33	-28.5	-30.1	14.3	2.73e-03	0	43	0	970981376	16	4312
2026-01-01 02:26:27.11	266.40	12.26	-28.7	-30.2	13.9	9.37e-04	0	43	0	973078528	17	4254
2026-01-01 02:26:28.12	266.27	12.19	-28.9	-30.6	13.6	2.97e-03	0	43	0	975175680	17	4376
2026-01-01 02:26:29.12	266.14	12.12	-29.1	-30.7	13.2	3.43e-03	0	43	0	977272832	18	4334
2026-01-01 02:26:30.13	266.01	12.05	-29.4	-31.4	12.7	8.69e-04	0	43	0	979369984	18	4566
2026-01-01 02:26:31.13	265.89	11.97	-29.5	-31.7	12.6	3.62e-03	0	43	0	980418560	18	4654
2026-01-01 02:26:32.13	265.76	11.90	-29.7	-31.7	12.2	3.26e-03	0	43	0	982515712	19	4573
2026-01-01 02:26:33.13	265.63	11.83	-29.5	-31.3	12.5	1.03e-03	0	43	0	984612864	19	4423
2026-01-01 02:26:34.13	265.51	11.76	-29.5	-31.1	12.6	3.14e-03	0	43	0	986710016	19	4375
2026-01-01 02:26:35.13	265.38	11.69	-29.3	-30.7	12.9	2.86e-03	0	43	0	988807168	19	4229
2026-01-01 02:26:36.14	265.26	11.62	-29.2	-31.0	13.0	1.22e-03	0	43	0	989855744	18	4431
2026-01-01 02:26:37.14	265.13	11.55	-29.0	-30.5	13.4	2.51e-03	0	43	0	991952896	18	4262
2026-01-01 02:26:38.14	265.01	11.48	-28.8	-30.4	13.7	2.72e-03	0	43	0	994050048	17	4316
2026-01-01 02:26:39.15	264.89	11.41	-28.8	-30.4	13.7	1.06e-05	0	43	0	996147200	17	4324
2026-01-01 02:26:40.15	264.77	11.34	-28.7	-30.0	13.9	2.80e-03	0	43	0	998244352	17	4217
2026-01-01 02:26:41.16	264.64	11.27	-28.9	-30.6	13.5	2.98e-03	0	43	0	999292928	17	4399
2026-01-01 02:26:42.16	264.52	11.20	-29.0	-30.4	13.3	1.80e-03	0	43	0	1001390080	18	4230
2026-01-01 02:26:43.17	264.40	11.13	-29.0	-30.5	13.3	1.60e-05	0	43	0	1003487232	18	4272
2026-01-01 02:26:44.17	264.28	11.06	-29.0	-30.5	13.2	4.46e-03	0	43	0	1005584384	18	4260
2026-01-01 02:26:45.17	264.16	10.99	-28.9	-30.2	13.4	2.55e-03	0	43	0	1007681536	18	4188
2026-01-01 02:26:46.17	264.05	10.92	-29.0	-30.5	13.2	1.98e-05	0	43	0	1008730112	18	4283
2026-01-01 02:26:47.18	263.93	10.85	-29.0	-30.9	13.3	7.24e-03	0	43	0	1010827264	17	4503
2026-01-01 02:26:48.18	263.81	10.78	-29.1	-30.8	13.0	2.56e-03	0	43	0	1012924416	18	4370
2026-01-01 02:26:49.19	263.69	10.71	-29.1	-30.8	13.0	3.05e-05	0	43	0	1015021568	18	4365
2026-01-01 02:26:50.18	263.58	10.64	-29.3	-31.2	12.7	7.01e-05	0	43	0	1016070144	18	4515
2026-01-01 02:26:51.19	263.46	10.57	-29.3	-31.3	12.6	2.40e-03	0	43	0	1018167296	18	4550
2026-01-01 02:26:52.19	263.35	10.50	-29.3	-31.3	12.7	7.19e-03	0	43	0	1020264448	18	4521
2026-01-01 02:26:53.19	263.23	10.43	-29.4	-31.8	12.3	1.13e-04	0	43	0	1022361600	18	4715
2026-01-01 02:26:54.20	263.12	10.36	-29.4	-31.7	12.3	1.43e-04	0	43	0	1024458752	18	4682
2026-01-01 02:26:55.19	263.00	10.29	-29.5	-31.4	12.2	5.32e-03	0	43	0	1025507328	19	4489
2026-01-01 02:26:56.19	262.89	10.22	-29.5	-31.4	12.2	2.75e-04	0	43	0	1027604480	19	4477
2026-01-01 02:26:57.20	262.78	10.15	-29.6	-31.8	11.9	2.68e-04	0	43	0	1029701632	19	4642
2026-01-01 02:26:58.20	262.67	10.08	-29.6	-31.7	11.9	4.38e-03	0	43	0	1031798784	19	4587
2026-01-01 02:26:59.20	262.56	10.01	-29.6	-31.6	12.1	2.75e-04	0	43	0	1033895936	19	4563
2026-01-01 02:27:00.21	262.44	9.95	-29.7	-32.0	11.8	3.69e-04	0	43	0	1034944512	19	4680
2026-01-01 02:27:01.20	262.33	9.88	-29.6	-31.7	12.0	4.39e-04	0	43	0	1037041664	19	4581
2026-01-01 02:27:02.21	262.22	9.81	-29.6	-31.9	11.9	3.07e-03	0	43	0	1039138816	19	4660
2026-01-01 02:27:03.21	262.12	9.74	-29.7	-32.1	11.7	5.09e-04	0	43	0	1041235968	19	4736
2026-01-01 02:27:04.22	262.01	9.67	-29.8	-32.2	11.6	4.73e-04	0	43	0	1043333120	19	4779
2026-01-01 02:27:05.22	261.90	9.60	-29.9	-32.6	11.3	4.82e-03	0	43	0	1044381696	19	4941
2026-01-01 02:27:06.23	261.79	9.53	-29.9	-32.4	11.0	2.03e-03	0	43	0	1046478848	20	4770
2026-01-01 02:27:07.23	261.68	9.47	-29.9	-32.4	11.0	2.20e-03	0	43	0	1048576000	20	4794
2026-01-01 02:27:08.24	261.58	9.40	-30.0	-32.7	10.8	1.79e-03	0	43	0	1050673152	20	4882
2026-01-01 02:27:09.24	261.47	9.33	-30.2	-33.1	10.5	5.58e-03	0	43	0	1052770304	20	5052
2026-01-01 02:27:10.24	261.36	9.26	-30.2	-33.2	10.3	5.07e-03	0	43	0	1053818880	20	5106
2026-01-01 02:27:11.25	261.26	9.19	-30.1	-32.9	10.6	3.94e-03	0	43	0	1055916032	20	4999
2026-01-01 02:27:12.25	261.15	9.13	-30.0	-32.8	10.7	4.13e-03	0	43	0	1058013184	20	4921
2026-01-01 02:27:13.25	261.05	9.06	-29.9	-32.4	10.9	2.55e-03	0	43	0	1060110336	20	4803
2026-01-01 02:27:14.24	260.95	8.99	-30.0	-32.7	10.7	2.16e-03	0	43	0	1061158912	20	4901
2026-01-01 02:27:15.25	260.84	8.92	-29.9	-32.3	11.0	2.03e-03	0	43	0	1063256064	20	4756
2026-01-01 02:27:16.24	260.74	8.86	-29.9	-32.4	10.9	6.45e-03	0	43	0	1065353216	20	4783
2026-01-01 02:27:17.25	260.64	8.79	-29.9	-32.4	10.9	2.70e-03	0	43	0	1067450368	20	4811
2026-01-01 02:27:18.25	260.54	8.72	-29.8	-32.4	11.3	1.31e-03	0	43	0	1069547520	19	4868
2026-01-01 02:27:19.25	260.44	8.65	-29.5	-31.7	11.8	7.06e-04	0	43	0	1071644672	19	4601
2026-01-01 02:27:20.26	260.34	8.59	-29.3	-31.6	12.2	1.96e-04	0	43	0	1072693248	18	4659
2026-01-01 02:27:21.26	260.24	8.52	-29.4	-31.8	12.1	2.33e-04	0	43	0	1074790400	18	4727
2026-01-01 02:27:22.26	260.14	8.45	-29.4	-31.7	12.1	2.52e-04	0	43	0	1076887552	18	4706
2026-01-01 02:27:23.26	260.04	8.39	-29.5	-31.6	11.8	4.66e-04	0	43	0	1078984704	19	4599
2026-01-01 02:27:24.27	259.94	8.32	-29.5	-32.0	11.9	3.63e-04	0	43	0	1080033280	18	4819
2026-01-01 02:27:25.26	259.84	8.25	-29.6	-31.9	11.5	7.97e-04	0	43	0	1082130432	19	4714
2026-01-01 02:27:26.26	259.74	8.19	-29.8	-32.6	11.0	1.49e-03	0	43	0	1084227584	19	4959
2026-01-01 02:27:27.27	259.64	8.12	-29.7	-32.4	11.3	1.19e-03	0	43	0	1086324736	19	4866
2026-01-01 02:27:28.28	259.55	8.05	-29.7	-32.4	11.2	1.01e-03	0	43	0	1088421888	19	4888
2026-01-01 02:27:29.28	259.45	7.99	-29.7	-32.3	11.2	1.38e-03	0	43	0	1089470464	19	4848
2026-01-01 02:27:30.28	259.35	7.92	-29.7	-32.3	11.3	1.24e-03	0	43	0	1091567616	19	4832
2026-01-01 02:27:31.28	259.26	7.86	-29.7	-32.4	11.2	1.66e-03	0	43	0	1093664768	19	4886
2026-01-01 02:27:32.28	259.16	7.79	-29.7	-32.4	11.2	1.36e-03	0	43	0	1095761920	19	4876
2026-01-01 02:27:33.28	259.07	7.73	-29.8	-32.8	10.9	1.43e-03	0	43	0	1097859072	19	5042
2026-01-01 02:27:34.28	258.97	7.66	-29.9	-32.8	10.8	2.21e-03	0	43	0	1098907648	19	5056
2026-01-01 02:27:35.28	258.88	7.59	-29.7	-32.4	11.1	1.50e-03	0	43	0	1101004800	19	4915
2026-01-01 02:27:36.29	258.79	7.53	-29.8	-32.6	11.0	2.03e-03	0	43	0	1103101952	19	4960
2026-01-01 02:27:37.30	258.69	7.46	-29.7	-32.2	11.0	1.45e-03	0	43	0	1105199104	19	4828
2026-01-01 02:27:38.30	258.60	7.40	-29.5	-32.1	11.7	7.55e-04	0	43	0	1107296256	18	4853
2026-01-01 02:27:39.30	258.51	7.33	-29.5	-32.1	11.7	5.29e-04	0	43	0	1108344832	18	4859
2026-01-01 02:27:40.31	258.42	7.27	-29.5	-31.8	11.6	4.14e-03	0	43	0	1110441984	19	4649
2026-01-01 02:27:41.31	258.33	7.20	-29.4	-31.9	11.8	4.08e-04	0	43	0	1112539136	18	4801
2026-01-01 02:27:42.31	258.23	7.14	-29.5	-32.1	11.7	6.68e-04	0	43	0	1114636288	18	4883
2026-01-01 02:27:43.32	258.14	7.07	-30.1	-33.3	10.4	8.44e-04	0	43	0	1116733440	20	5188
2026-01-01 02:27:44.32	258.05	7.01	-32.3	-44.9	3.8	1.49e+00	0	43	104	1116733440	24	15349
2026-01-01 02:27:45.32	257.96	6.94	-32.6	-45.0	3.8	1.49e+00	0	43	104	1116733440	25	14972
2026-01-01 02:27:46.32	257.87	6.88	-32.9	-45.5	3.8	1.49e+00	0	43	104	1116733440	25	15339

#Closed at: 2026-01-01 02:27:47
#Recorded file [1116 MB]: D:/data/31010_260101_051747.dat