passes_logs/2026/01/01/R2M6_AANII_01/R2M6_AANII_01__20260101_095357_FENGYUN_3D_rec.log

#Pass ID: 20260101_095357_FENGYUN 3D
#Satellite: FENGYUN 3D
#Configuration: FENGYUN 3D
#almurnet v.1.7.20240730
#Start time: 2026-01-01 09:53:56

#Version: 2.2.20231116
#Station: R2M6_AANII_01
#Location: 30.233357 lon 59.946436 lat
#TLE: 1 43010U 17072A   25365.48527867  .00000101  00000+0  69745-4 0  9999
#TLE: 2 43010  98.9911 332.0787 0001837 134.4748 225.6578 14.19689788421190

#Time	Az	El	Level	Level2	SNR	BER	BlckErr	Temp	State	Recorded	gain1	gain2
2026-01-01 09:53:56.80	84.64	6.97	-31.3	-37.2	4.3	8.31e-01	0	41	0	0	23	7090
2026-01-01 09:53:57.80	84.53	7.03	-30.0	-33.5	5.1	7.88e-01	0	41	104	0	21	5361
2026-01-01 09:53:58.80	84.42	7.08	-29.9	-33.1	8.4	3.99e-02	0	41	0	0	21	5208
2026-01-01 09:53:59.80	84.31	7.14	-29.9	-33.1	8.4	3.96e-02	0	41	0	5242880	21	5195
2026-01-01 09:54:00.81	84.19	7.20	-29.9	-32.9	8.6	3.92e-02	0	41	0	11534336	21	5127
2026-01-01 09:54:01.81	84.08	7.25	-29.9	-33.0	8.5	3.45e-02	0	41	0	16777216	21	5141
2026-01-01 09:54:02.81	83.97	7.31	-29.8	-32.7	8.7	2.94e-02	0	41	0	22020096	21	5027
2026-01-01 09:54:03.82	83.85	7.37	-29.8	-33.3	8.7	2.90e-02	0	41	0	28311552	20	5349
2026-01-01 09:54:04.82	83.74	7.42	-29.9	-33.5	8.6	2.92e-02	0	41	0	33554432	20	5431
2026-01-01 09:54:05.83	83.62	7.48	-30.2	-34.4	7.9	5.31e-02	0	41	0	38797312	20	5859
2026-01-01 09:54:06.83	83.51	7.54	-29.9	-33.5	8.6	4.57e-02	0	41	0	45088768	20	5459
2026-01-01 09:54:07.84	83.39	7.59	-29.5	-32.4	9.3	2.12e-02	0	41	0	50331648	20	5009
2026-01-01 09:54:08.85	83.28	7.65	-29.1	-31.6	10.3	5.63e-03	0	41	0	55574528	19	4813
2026-01-01 09:54:09.85	83.16	7.71	-28.6	-30.8	11.2	1.86e-03	0	41	0	61865984	18	4643
2026-01-01 09:54:10.84	83.05	7.76	-28.1	-30.1	11.9	3.50e-04	0	41	0	67108864	17	4512
2026-01-01 09:54:11.84	82.93	7.82	-27.7	-29.5	12.6	1.01e-04	0	41	0	73400320	16	4436
2026-01-01 09:54:12.85	82.81	7.88	-27.3	-28.6	13.2	2.28e-05	0	41	0	78643200	16	4174
2026-01-01 09:54:13.86	82.69	7.94	-26.8	-28.0	13.6	6.80e-06	0	41	0	84934656	15	4135
2026-01-01 09:54:14.86	82.57	7.99	-26.6	-28.1	13.9	1.10e-06	0	41	0	90177536	14	4250
2026-01-01 09:54:15.86	82.45	8.05	-26.6	-28.0	14.0	3.40e-06	0	41	0	95420416	14	4228
2026-01-01 09:54:16.87	82.33	8.11	-26.6	-28.0	14.0	1.10e-06	0	41	0	101711872	14	4233
2026-01-01 09:54:17.88	82.21	8.16	-26.6	-28.0	14.0	0.00e+00	0	41	0	106954752	14	4226
2026-01-01 09:54:18.88	82.09	8.22	-26.7	-28.2	13.9	1.10e-06	0	41	0	112197632	14	4287
2026-01-01 09:54:19.89	81.97	8.28	-26.5	-27.8	14.1	0.00e+00	0	41	0	118489088	14	4173
2026-01-01 09:54:20.89	81.85	8.33	-26.4	-27.6	14.2	0.00e+00	0	41	0	123731968	14	4134
2026-01-01 09:54:21.89	81.73	8.39	-26.5	-27.7	14.2	0.00e+00	0	41	0	128974848	14	4151
2026-01-01 09:54:22.89	81.61	8.45	-26.5	-27.8	14.1	0.00e+00	0	42	0	135266304	14	4182
2026-01-01 09:54:23.90	81.48	8.51	-26.5	-27.7	14.2	0.00e+00	0	42	0	140509184	14	4142
2026-01-01 09:54:24.91	81.36	8.56	-26.6	-28.1	14.0	1.10e-06	0	42	0	146800640	14	4255
2026-01-01 09:54:25.91	81.23	8.62	-26.4	-27.6	14.2	0.00e+00	0	41	0	152043520	14	4118
2026-01-01 09:54:26.91	81.11	8.68	-26.2	-27.7	14.5	0.00e+00	0	41	0	158334976	13	4244
2026-01-01 09:54:27.91	80.98	8.73	-26.3	-27.8	14.4	0.00e+00	0	42	0	163577856	13	4284
2026-01-01 09:54:28.91	80.86	8.79	-26.5	-28.2	14.2	0.00e+00	0	42	0	168820736	13	4390
2026-01-01 09:54:29.91	80.73	8.85	-26.4	-28.0	14.3	1.10e-06	0	42	0	175112192	13	4329
2026-01-01 09:54:30.92	80.61	8.90	-26.3	-27.8	14.5	0.00e+00	0	42	0	180355072	13	4268
2026-01-01 09:54:31.91	80.48	8.96	-26.3	-27.8	14.4	1.10e-06	0	42	0	185597952	13	4289
2026-01-01 09:54:32.91	80.35	9.02	-26.3	-27.8	14.4	0.00e+00	0	42	0	191889408	13	4285
2026-01-01 09:54:33.91	80.23	9.07	-26.4	-28.1	14.3	1.10e-06	0	42	0	197132288	13	4356
2026-01-01 09:54:34.92	80.10	9.13	-26.4	-28.0	14.4	0.00e+00	0	42	0	202375168	13	4328
2026-01-01 09:54:35.93	79.97	9.19	-26.4	-28.1	14.3	0.00e+00	0	42	0	208666624	13	4377
2026-01-01 09:54:36.93	79.84	9.25	-26.5	-28.2	14.2	3.40e-06	0	42	0	213909504	13	4389
2026-01-01 09:54:37.93	79.71	9.30	-26.7	-28.8	13.9	1.10e-06	0	42	0	220200960	13	4566
2026-01-01 09:54:38.93	79.58	9.36	-26.6	-28.4	14.1	2.20e-06	0	42	0	225443840	13	4454
2026-01-01 09:54:39.93	79.45	9.42	-26.4	-28.1	14.3	0.00e+00	0	42	0	230686720	13	4366
2026-01-01 09:54:40.94	79.31	9.47	-26.4	-28.0	14.4	0.00e+00	0	42	0	236978176	13	4331
2026-01-01 09:54:41.94	79.18	9.53	-26.4	-28.1	14.3	0.00e+00	0	42	0	242221056	13	4361
2026-01-01 09:54:42.94	79.05	9.59	-26.3	-27.8	14.5	0.00e+00	0	42	0	248512512	13	4294
2026-01-01 09:54:43.95	78.92	9.64	-26.4	-28.0	14.4	1.10e-06	0	42	0	253755392	13	4329
2026-01-01 09:54:44.96	78.78	9.70	-26.3	-27.9	14.5	4.50e-06	0	42	0	258998272	13	4296
2026-01-01 09:54:45.96	78.65	9.76	-26.3	-27.7	14.6	0.00e+00	0	42	0	265289728	13	4263
2026-01-01 09:54:46.97	78.51	9.82	-26.2	-27.6	14.6	0.00e+00	0	42	0	270532608	13	4216
2026-01-01 09:54:47.97	78.38	9.87	-26.2	-27.5	14.7	4.50e-06	0	42	0	275775488	13	4201
2026-01-01 09:54:48.97	78.24	9.93	-26.3	-27.7	14.6	0.00e+00	0	42	0	282066944	13	4246
2026-01-01 09:54:49.97	78.10	9.99	-26.2	-27.5	14.7	0.00e+00	0	42	0	287309824	13	4205
2026-01-01 09:54:50.98	77.97	10.04	-26.2	-27.6	14.7	2.20e-06	0	42	0	293601280	13	4222
2026-01-01 09:54:51.98	77.83	10.10	-26.2	-27.5	14.7	0.00e+00	0	42	0	298844160	13	4195
2026-01-01 09:54:52.98	77.69	10.16	-26.2	-27.5	14.7	0.00e+00	0	42	0	304087040	13	4188
2026-01-01 09:54:53.99	77.55	10.21	-26.0	-27.2	14.9	6.80e-06	0	42	0	310378496	13	4107
2026-01-01 09:54:54.99	77.41	10.27	-26.0	-27.0	15.0	0.00e+00	0	42	0	315621376	13	4065
2026-01-01 09:54:55.99	77.27	10.33	-26.2	-27.5	14.7	0.00e+00	0	42	0	321912832	13	4201
2026-01-01 09:54:56.99	77.13	10.38	-26.1	-27.3	14.8	3.40e-06	0	42	0	327155712	13	4136
2026-01-01 09:54:58.00	76.99	10.44	-26.1	-27.4	14.8	0.00e+00	0	42	0	332398592	13	4161
2026-01-01 09:54:59.00	76.85	10.49	-26.1	-27.3	14.9	0.00e+00	0	42	0	338690048	13	4152
2026-01-01 09:55:00.00	76.71	10.55	-25.9	-26.9	15.1	0.00e+00	0	42	0	343932928	13	4046
2026-01-01 09:55:01.01	76.57	10.61	-25.9	-26.9	15.1	0.00e+00	0	42	0	349175808	13	4045
2026-01-01 09:55:02.00	76.43	10.66	-26.1	-27.2	14.9	0.00e+00	0	42	0	355467264	13	4122
2026-01-01 09:55:03.01	76.28	10.72	-26.0	-27.0	15.1	0.00e+00	0	42	0	360710144	13	4059
2026-01-01 09:55:04.01	76.14	10.78	-25.9	-26.9	15.2	0.00e+00	0	42	0	367001600	13	4023
2026-01-01 09:55:05.01	75.99	10.83	-26.0	-27.1	15.0	0.00e+00	0	42	0	372244480	13	4085
2026-01-01 09:55:06.01	75.85	10.89	-25.8	-26.7	15.2	0.00e+00	0	42	0	377487360	13	3990
2026-01-01 09:55:07.01	75.70	10.94	-25.8	-27.2	15.2	0.00e+00	0	42	0	383778816	12	4223
2026-01-01 09:55:08.01	75.56	11.00	-25.8	-27.1	15.3	0.00e+00	0	42	0	389021696	12	4203
2026-01-01 09:55:09.01	75.41	11.06	-25.9	-27.3	15.2	0.00e+00	0	42	0	394264576	12	4240
2026-01-01 09:55:10.02	75.26	11.11	-25.8	-27.2	15.2	0.00e+00	0	42	0	400556032	12	4222
2026-01-01 09:55:11.02	75.11	11.17	-26.0	-27.5	15.1	0.00e+00	0	42	0	405798912	12	4307
2026-01-01 09:55:12.02	74.97	11.22	-25.9	-27.3	15.2	0.00e+00	0	42	0	411041792	12	4248
2026-01-01 09:55:13.03	74.82	11.28	-25.9	-27.4	15.2	0.00e+00	0	42	0	417333248	12	4275
2026-01-01 09:55:14.03	74.67	11.33	-26.0	-27.7	15.0	1.10e-06	0	42	0	422576128	12	4355
2026-01-01 09:55:15.03	74.52	11.39	-25.9	-27.3	15.2	0.00e+00	0	42	0	428867584	12	4238
2026-01-01 09:55:16.03	74.37	11.45	-25.8	-27.2	15.3	0.00e+00	0	42	0	434110464	12	4210
2026-01-01 09:55:17.03	74.21	11.50	-25.8	-27.1	15.3	0.00e+00	0	42	0	439353344	12	4194
2026-01-01 09:55:18.03	74.06	11.56	-25.8	-27.1	15.3	0.00e+00	0	42	0	445644800	12	4199
2026-01-01 09:55:19.03	73.91	11.61	-25.8	-27.1	15.4	0.00e+00	0	42	0	450887680	12	4180
2026-01-01 09:55:20.04	73.76	11.67	-25.8	-27.2	15.3	0.00e+00	0	42	0	456130560	12	4209
2026-01-01 09:55:21.04	73.60	11.72	-26.0	-27.6	15.1	0.00e+00	0	42	0	462422016	12	4310
2026-01-01 09:55:22.05	73.45	11.78	-25.9	-27.3	15.3	0.00e+00	0	42	0	467664896	12	4231
2026-01-01 09:55:23.05	73.29	11.83	-25.7	-26.9	15.5	0.00e+00	0	42	0	473956352	12	4144
2026-01-01 09:55:24.05	73.14	11.89	-25.7	-27.0	15.5	0.00e+00	0	43	0	479199232	12	4152
2026-01-01 09:55:25.04	72.98	11.94	-25.8	-27.2	15.3	0.00e+00	0	42	0	484442112	12	4213
2026-01-01 09:55:26.04	72.83	12.00	-25.7	-27.0	15.4	0.00e+00	0	42	0	490733568	12	4165
2026-01-01 09:55:27.04	72.67	12.05	-25.7	-27.0	15.4	0.00e+00	0	42	0	495976448	12	4161
2026-01-01 09:55:28.05	72.51	12.11	-25.8	-27.1	15.4	0.00e+00	0	42	0	502267904	12	4197
2026-01-01 09:55:29.06	72.35	12.16	-25.7	-26.8	15.5	0.00e+00	0	42	0	507510784	12	4111
2026-01-01 09:55:30.06	72.19	12.21	-25.6	-26.8	15.5	0.00e+00	0	42	0	512753664	12	4112
2026-01-01 09:55:31.06	72.03	12.27	-25.6	-26.7	15.6	0.00e+00	0	43	0	519045120	12	4100
2026-01-01 09:55:32.07	71.87	12.32	-25.5	-26.5	15.7	0.00e+00	0	42	0	524288000	12	4043
2026-01-01 09:55:33.08	71.71	12.38	-25.4	-26.3	15.8	0.00e+00	0	43	0	529530880	12	3989
2026-01-01 09:55:34.08	71.55	12.43	-25.5	-26.5	15.7	0.00e+00	0	42	0	535822336	12	4033
2026-01-01 09:55:35.08	71.39	12.48	-25.3	-26.1	16.0	0.00e+00	0	42	0	541065216	12	3924
2026-01-01 09:55:36.08	71.22	12.54	-25.3	-26.6	16.0	0.00e+00	0	42	0	546308096	11	4153
2026-01-01 09:55:37.08	71.06	12.59	-25.3	-26.6	16.1	0.00e+00	0	43	0	552599552	11	4149
2026-01-01 09:55:38.09	70.90	12.65	-25.4	-26.8	15.9	0.00e+00	0	42	0	557842432	11	4213
2026-01-01 09:55:39.09	70.73	12.70	-25.3	-26.6	16.1	0.00e+00	0	42	0	564133888	11	4153
2026-01-01 09:55:40.09	70.57	12.75	-25.3	-26.6	16.1	0.00e+00	0	42	0	569376768	11	4151
2026-01-01 09:55:41.10	70.40	12.81	-25.4	-26.8	15.9	0.00e+00	0	43	0	575668224	11	4217
2026-01-01 09:55:42.11	70.23	12.86	-25.3	-26.5	16.1	0.00e+00	0	43	0	580911104	11	4134
2026-01-01 09:55:43.11	70.07	12.91	-25.3	-26.5	16.1	0.00e+00	0	43	0	586153984	11	4142
2026-01-01 09:55:44.12	69.90	12.97	-25.4	-26.8	15.9	0.00e+00	0	43	0	592445440	11	4209
2026-01-01 09:55:45.12	69.73	13.02	-25.4	-26.7	16.0	0.00e+00	0	43	0	597688320	11	4191
2026-01-01 09:55:46.13	69.56	13.07	-25.4	-26.8	16.0	0.00e+00	0	43	0	602931200	11	4206
2026-01-01 09:55:47.13	69.39	13.12	-25.5	-26.9	15.9	0.00e+00	0	43	0	609222656	11	4232
2026-01-01 09:55:48.13	69.22	13.18	-25.7	-27.3	15.7	0.00e+00	0	43	0	614465536	11	4335
2026-01-01 09:55:49.13	69.05	13.23	-25.5	-26.9	15.9	0.00e+00	0	43	0	619708416	11	4233
2026-01-01 09:55:50.13	68.88	13.28	-25.4	-26.7	16.0	0.00e+00	0	43	0	625999872	11	4179
2026-01-01 09:55:51.13	68.71	13.33	-25.4	-26.7	16.1	0.00e+00	0	43	0	631242752	11	4169
2026-01-01 09:55:52.13	68.54	13.38	-25.4	-26.7	16.1	0.00e+00	0	43	0	637534208	11	4172
2026-01-01 09:55:53.13	68.36	13.43	-25.5	-26.8	16.1	0.00e+00	0	43	0	642777088	11	4190
2026-01-01 09:55:54.13	68.19	13.49	-25.3	-26.3	16.3	0.00e+00	0	43	0	648019968	11	4078
2026-01-01 09:55:55.14	68.02	13.54	-25.2	-26.2	16.4	0.00e+00	0	43	0	654311424	11	4041
2026-01-01 09:55:56.14	67.84	13.59	-25.3	-26.4	16.3	0.00e+00	0	43	0	659554304	11	4093
2026-01-01 09:55:57.15	67.66	13.64	-25.4	-26.6	16.2	0.00e+00	0	43	0	665845760	11	4139
2026-01-01 09:55:58.15	67.49	13.69	-25.5	-27.0	16.0	0.00e+00	0	43	0	671088640	11	4238
2026-01-01 09:55:59.15	67.31	13.74	-25.6	-27.1	15.9	0.00e+00	0	43	0	676331520	11	4271
2026-01-01 09:56:00.15	67.14	13.79	-25.6	-27.0	16.0	0.00e+00	0	43	0	682622976	11	4253
2026-01-01 09:56:01.16	66.96	13.84	-25.5	-26.9	16.1	0.00e+00	0	43	0	687865856	11	4212
2026-01-01 09:56:02.16	66.78	13.89	-25.5	-26.8	16.1	0.00e+00	0	43	0	693108736	11	4200
2026-01-01 09:56:03.17	66.60	13.94	-25.4	-26.5	16.3	0.00e+00	0	43	0	699400192	11	4124
2026-01-01 09:56:04.17	66.42	13.99	-25.4	-26.6	16.2	0.00e+00	0	43	0	704643072	11	4132
2026-01-01 09:56:05.17	66.24	14.04	-25.5	-26.8	16.1	0.00e+00	0	43	0	710934528	11	4195
2026-01-01 09:56:06.18	66.06	14.09	-25.4	-26.7	16.2	0.00e+00	0	43	0	716177408	11	4158
2026-01-01 09:56:07.19	65.87	14.14	-25.4	-26.7	16.2	0.00e+00	0	43	0	721420288	11	4161
2026-01-01 09:56:08.19	65.69	14.19	-25.5	-26.8	16.1	0.00e+00	0	43	0	727711744	11	4199
2026-01-01 09:56:09.19	65.51	14.24	-25.7	-27.2	15.9	0.00e+00	0	43	0	732954624	11	4305
2026-01-01 09:56:10.19	65.33	14.29	-25.5	-26.8	16.1	0.00e+00	0	43	0	739246080	11	4191
2026-01-01 09:56:11.20	65.14	14.33	-25.6	-27.0	16.1	0.00e+00	0	43	0	744488960	11	4231
2026-01-01 09:56:12.20	64.96	14.38	-25.8	-27.4	15.8	0.00e+00	0	43	0	749731840	11	4351
2026-01-01 09:56:13.20	64.77	14.43	-25.8	-27.4	15.8	0.00e+00	0	43	0	756023296	11	4352
2026-01-01 09:56:14.21	64.58	14.48	-25.8	-27.4	15.8	0.00e+00	0	43	0	761266176	11	4355
2026-01-01 09:56:15.21	64.40	14.53	-25.6	-27.0	16.0	0.00e+00	0	43	0	766509056	11	4242
2026-01-01 09:56:16.20	64.21	14.57	-25.5	-26.9	16.1	0.00e+00	0	43	0	772800512	11	4209
2026-01-01 09:56:17.21	64.03	14.62	-25.6	-27.1	16.0	0.00e+00	0	43	0	778043392	11	4260
2026-01-01 09:56:18.21	63.84	14.67	-25.5	-26.9	16.1	0.00e+00	0	43	0	784334848	11	4213
2026-01-01 09:56:19.21	63.65	14.71	-25.7	-27.2	16.0	0.00e+00	0	43	0	789577728	11	4303
2026-01-01 09:56:20.22	63.46	14.76	-25.4	-26.6	16.3	0.00e+00	0	43	0	794820608	11	4135
2026-01-01 09:56:21.22	63.27	14.81	-25.2	-26.1	16.5	0.00e+00	0	43	0	801112064	11	4016
2026-01-01 09:56:22.22	63.08	14.85	-25.0	-25.8	16.7	0.00e+00	0	43	0	806354944	11	3941
2026-01-01 09:56:23.22	62.89	14.90	-25.0	-25.7	16.8	0.00e+00	0	43	0	811597824	11	3919
2026-01-01 09:56:24.22	62.70	14.94	-25.1	-26.0	16.6	0.00e+00	0	43	0	817889280	11	3982
2026-01-01 09:56:25.23	62.50	14.99	-25.0	-25.8	16.7	0.00e+00	0	43	0	823132160	11	3940
2026-01-01 09:56:26.24	62.31	15.03	-25.1	-25.9	16.6	0.00e+00	0	43	0	829423616	11	3970
2026-01-01 09:56:27.24	62.12	15.08	-25.1	-26.1	16.6	0.00e+00	0	43	0	834666496	11	4003
2026-01-01 09:56:28.24	61.92	15.12	-25.0	-25.7	16.8	0.00e+00	0	43	0	839909376	11	3922
2026-01-01 09:56:29.24	61.73	15.17	-24.9	-25.5	16.9	0.00e+00	0	43	0	846200832	11	3872
2026-01-01 09:56:30.25	61.53	15.21	-24.9	-25.5	16.9	0.00e+00	0	43	0	851443712	11	3863
2026-01-01 09:56:31.26	61.33	15.26	-24.8	-25.7	17.1	0.00e+00	0	43	0	857735168	10	4026
2026-01-01 09:56:32.26	61.14	15.30	-24.8	-25.8	17.1	0.00e+00	0	43	0	862978048	10	4027
2026-01-01 09:56:33.27	60.94	15.34	-24.8	-25.9	17.0	0.00e+00	0	43	0	868220928	10	4053
2026-01-01 09:56:34.26	60.74	15.39	-24.8	-25.9	17.0	0.00e+00	0	43	0	874512384	10	4061
2026-01-01 09:56:35.27	60.54	15.43	-24.8	-25.9	17.0	0.00e+00	0	43	0	879755264	10	4053
2026-01-01 09:56:36.27	60.35	15.47	-24.7	-25.5	17.2	0.00e+00	0	43	0	884998144	10	3966
2026-01-01 09:56:37.28	60.14	15.51	-24.5	-25.2	17.3	0.00e+00	0	43	0	891289600	10	3902
2026-01-01 09:56:38.28	59.95	15.56	-24.5	-25.2	17.3	0.00e+00	0	43	0	896532480	10	3905
2026-01-01 09:56:39.29	59.74	15.60	-24.5	-25.1	17.4	0.00e+00	0	43	0	902823936	10	3865
2026-01-01 09:56:40.29	59.54	15.64	-24.5	-25.2	17.3	0.00e+00	0	43	0	908066816	10	3894
2026-01-01 09:56:41.29	59.34	15.68	-24.6	-25.4	17.3	0.00e+00	0	43	0	914358272	10	3940
2026-01-01 09:56:42.28	59.14	15.72	-24.6	-25.3	17.3	0.00e+00	0	43	0	919601152	10	3908
2026-01-01 09:56:43.30	58.94	15.76	-24.5	-25.2	17.4	0.00e+00	0	43	0	924844032	10	3881
2026-01-01 09:56:44.30	58.73	15.80	-24.5	-25.2	17.4	0.00e+00	0	43	0	931135488	10	3882
2026-01-01 09:56:45.31	58.53	15.84	-24.5	-25.2	17.3	0.00e+00	0	43	0	936378368	10	3901
2026-01-01 09:56:46.31	58.32	15.88	-24.5	-25.1	17.4	0.00e+00	0	43	0	941621248	10	3875
2026-01-01 09:56:47.32	58.12	15.92	-24.5	-25.2	17.4	0.00e+00	0	43	0	947912704	10	3887
2026-01-01 09:56:48.32	57.91	15.96	-24.5	-25.2	17.4	0.00e+00	0	43	0	953155584	10	3896
2026-01-01 09:56:49.32	57.71	16.00	-24.5	-25.2	17.4	0.00e+00	0	43	0	958398464	10	3890
2026-01-01 09:56:50.33	57.50	16.04	-24.4	-25.1	17.4	0.00e+00	0	43	0	964689920	10	3858
2026-01-01 09:56:51.33	57.29	16.08	-24.2	-25.1	17.7	0.00e+00	0	43	0	969932800	9	3969
2026-01-01 09:56:52.32	57.09	16.11	-24.2	-24.9	17.8	0.00e+00	0	43	0	976224256	9	3928
2026-01-01 09:56:53.32	56.88	16.15	-24.1	-24.8	17.8	0.00e+00	0	43	0	981467136	9	3906
2026-01-01 09:56:54.33	56.67	16.19	-24.1	-24.9	17.8	0.00e+00	0	43	0	986710016	9	3928
2026-01-01 09:56:55.33	56.46	16.22	-24.2	-25.1	17.7	0.00e+00	0	43	0	993001472	9	3973
2026-01-01 09:56:56.33	56.25	16.26	-24.2	-25.0	17.7	0.00e+00	0	43	0	998244352	9	3962
2026-01-01 09:56:57.33	56.04	16.30	-24.3	-25.2	17.6	0.00e+00	0	43	0	1003487232	9	3997
2026-01-01 09:56:58.33	55.83	16.33	-24.4	-25.4	17.5	0.00e+00	0	43	0	1009778688	9	4044
2026-01-01 09:56:59.34	55.62	16.37	-24.4	-25.5	17.5	0.00e+00	0	43	0	1015021568	9	4076
2026-01-01 09:57:00.34	55.41	16.40	-24.5	-25.6	17.4	0.00e+00	0	43	0	1021313024	9	4094
2026-01-01 09:57:01.34	55.20	16.44	-24.6	-25.8	17.3	0.00e+00	0	43	0	1026555904	9	4150
2026-01-01 09:57:02.35	54.98	16.47	-24.6	-25.8	17.3	0.00e+00	0	43	0	1031798784	9	4164
2026-01-01 09:57:03.36	54.77	16.51	-24.6	-25.8	17.3	0.00e+00	0	43	0	1038090240	9	4164
2026-01-01 09:57:04.37	54.55	16.54	-24.6	-26.0	17.2	0.00e+00	0	43	0	1043333120	9	4194
2026-01-01 09:57:05.37	54.34	16.57	-24.6	-25.8	17.3	0.00e+00	0	43	0	1049624576	9	4164
2026-01-01 09:57:06.38	54.12	16.61	-24.6	-25.9	17.3	0.00e+00	0	43	0	1054867456	9	4162
2026-01-01 09:57:07.38	53.91	16.64	-24.6	-25.8	17.3	0.00e+00	0	43	0	1060110336	9	4152
2026-01-01 09:57:08.38	53.69	16.67	-24.6	-25.8	17.3	0.00e+00	0	43	0	1066401792	9	4136
2026-01-01 09:57:09.38	53.48	16.70	-24.6	-25.9	17.3	0.00e+00	0	43	0	1071644672	9	4175
2026-01-01 09:57:10.38	53.26	16.73	-24.6	-26.0	17.2	0.00e+00	0	43	0	1076887552	9	4193
2026-01-01 09:57:11.39	53.04	16.77	-24.4	-25.5	17.5	0.00e+00	0	43	0	1083179008	9	4082
2026-01-01 09:57:12.39	52.83	16.80	-24.3	-25.3	17.6	0.00e+00	0	43	0	1088421888	9	4030
2026-01-01 09:57:13.39	52.61	16.83	-24.4	-25.5	17.5	0.00e+00	0	43	0	1094713344	9	4070
2026-01-01 09:57:14.40	52.39	16.86	-24.5	-25.6	17.4	0.00e+00	0	43	0	1099956224	9	4114
2026-01-01 09:57:15.40	52.17	16.89	-24.6	-25.9	17.3	0.00e+00	0	43	0	1105199104	9	4167
2026-01-01 09:57:16.41	51.95	16.92	-24.6	-25.8	17.3	0.00e+00	0	43	0	1111490560	9	4159
2026-01-01 09:57:17.41	51.73	16.94	-24.6	-25.8	17.3	0.00e+00	0	43	0	1116733440	9	4151
2026-01-01 09:57:18.41	51.51	16.97	-24.5	-25.6	17.4	0.00e+00	0	43	0	1123024896	9	4100
2026-01-01 09:57:19.41	51.29	17.00	-24.4	-25.5	17.5	0.00e+00	0	43	0	1128267776	9	4075
2026-01-01 09:57:20.41	51.07	17.03	-24.4	-25.4	17.6	0.00e+00	0	43	0	1133510656	9	4047
2026-01-01 09:57:21.41	50.85	17.05	-24.4	-25.4	17.5	0.00e+00	0	43	0	1139802112	9	4047
2026-01-01 09:57:22.42	50.63	17.08	-24.3	-25.2	17.7	0.00e+00	0	43	0	1145044992	9	3995
2026-01-01 09:57:23.42	50.41	17.11	-24.2	-25.1	17.7	0.00e+00	0	43	0	1150287872	9	3970
2026-01-01 09:57:24.42	50.19	17.13	-24.2	-25.1	17.7	0.00e+00	0	43	0	1156579328	9	3978
2026-01-01 09:57:25.43	49.96	17.16	-24.3	-25.2	17.7	0.00e+00	0	43	0	1161822208	9	3991
2026-01-01 09:57:26.42	49.74	17.18	-24.2	-25.1	17.7	0.00e+00	0	43	0	1167065088	9	3981
2026-01-01 09:57:27.43	49.52	17.21	-24.3	-25.3	17.6	0.00e+00	0	43	0	1173356544	9	4018
2026-01-01 09:57:28.43	49.29	17.23	-24.4	-25.4	17.5	0.00e+00	0	43	0	1178599424	9	4048
2026-01-01 09:57:29.42	49.07	17.26	-24.3	-25.2	17.6	0.00e+00	0	43	0	1184890880	9	3997
2026-01-01 09:57:30.43	48.84	17.28	-24.2	-25.0	17.7	0.00e+00	0	43	0	1190133760	9	3963
2026-01-01 09:57:31.42	48.62	17.30	-24.2	-25.0	17.8	0.00e+00	0	43	0	1195376640	9	3943
2026-01-01 09:57:32.42	48.40	17.33	-24.1	-24.7	17.9	0.00e+00	0	43	0	1201668096	9	3878
2026-01-01 09:57:33.42	48.17	17.35	-24.1	-24.7	17.9	0.00e+00	0	43	0	1206910976	9	3878
2026-01-01 09:57:34.42	47.95	17.37	-24.1	-24.8	17.9	0.00e+00	0	43	0	1212153856	9	3904
2026-01-01 09:57:35.42	47.72	17.39	-24.2	-25.0	17.8	0.00e+00	0	43	0	1218445312	9	3953
2026-01-01 09:57:36.42	47.50	17.41	-24.3	-25.1	17.7	0.00e+00	0	43	0	1223688192	9	3980
2026-01-01 09:57:37.43	47.27	17.43	-24.4	-25.4	17.5	0.00e+00	0	43	0	1228931072	9	4050
2026-01-01 09:57:38.43	47.04	17.45	-24.4	-25.4	17.6	0.00e+00	0	43	0	1235222528	9	4046
2026-01-01 09:57:39.44	46.81	17.47	-24.4	-25.5	17.5	0.00e+00	0	43	0	1240465408	9	4078
2026-01-01 09:57:40.44	46.59	17.49	-24.4	-25.5	17.5	0.00e+00	0	43	0	1246756864	9	4058
2026-01-01 09:57:41.44	46.36	17.51	-24.3	-25.1	17.7	0.00e+00	0	43	0	1251999744	9	3985
2026-01-01 09:57:42.44	46.13	17.53	-24.2	-25.1	17.7	0.00e+00	0	43	0	1258291200	9	3974
2026-01-01 09:57:43.44	45.90	17.54	-24.3	-25.1	17.7	0.00e+00	0	43	0	1263534080	9	3975
2026-01-01 09:57:44.44	45.67	17.56	-24.2	-25.1	17.7	0.00e+00	0	43	0	1268776960	9	3979
2026-01-01 09:57:45.45	45.44	17.58	-24.3	-25.2	17.6	0.00e+00	0	43	0	1275068416	9	4003
2026-01-01 09:57:46.46	45.21	17.59	-24.4	-25.4	17.5	0.00e+00	0	43	0	1280311296	9	4054
2026-01-01 09:57:47.46	44.98	17.61	-24.4	-25.5	17.5	0.00e+00	0	43	0	1285554176	9	4077
2026-01-01 09:57:48.46	44.75	17.62	-24.2	-25.0	17.8	0.00e+00	0	43	0	1291845632	9	3954
2026-01-01 09:57:49.45	44.53	17.64	-24.1	-24.8	17.9	0.00e+00	0	43	0	1297088512	9	3903
2026-01-01 09:57:50.46	44.30	17.65	-24.1	-24.9	17.9	0.00e+00	0	43	0	1302331392	9	3919
2026-01-01 09:57:51.47	44.06	17.67	-24.2	-25.0	17.8	0.00e+00	0	43	0	1308622848	9	3951
2026-01-01 09:57:52.46	43.84	17.68	-24.2	-25.1	17.7	0.00e+00	0	43	0	1313865728	9	3974
2026-01-01 09:57:53.47	43.60	17.69	-24.3	-25.1	17.7	0.00e+00	0	43	0	1320157184	9	3981
2026-01-01 09:57:54.47	43.37	17.71	-24.2	-25.0	17.7	0.00e+00	0	43	0	1325400064	9	3947
2026-01-01 09:57:55.47	43.14	17.72	-24.2	-25.0	17.8	0.00e+00	0	43	0	1330642944	9	3943
2026-01-01 09:57:56.48	42.91	17.73	-24.1	-24.8	17.9	0.00e+00	0	43	0	1336934400	9	3909
2026-01-01 09:57:57.48	42.68	17.74	-24.0	-24.6	18.0	0.00e+00	0	43	0	1342177280	9	3847
2026-01-01 09:57:58.48	42.45	17.75	-24.0	-24.5	18.0	0.00e+00	0	43	0	1347420160	9	3835
2026-01-01 09:57:59.49	42.21	17.76	-24.1	-24.7	17.9	0.00e+00	0	43	0	1353711616	9	3887
2026-01-01 09:58:00.49	41.98	17.77	-24.1	-24.8	17.9	0.00e+00	0	43	0	1358954496	9	3904
2026-01-01 09:58:01.49	41.75	17.78	-24.0	-24.7	17.9	0.00e+00	0	43	0	1365245952	9	3880
2026-01-01 09:58:02.50	41.52	17.79	-24.0	-24.6	18.0	0.00e+00	0	43	0	1370488832	9	3865
2026-01-01 09:58:03.50	41.28	17.80	-24.2	-24.9	17.8	0.00e+00	0	43	0	1375731712	9	3937
2026-01-01 09:58:04.50	41.05	17.81	-24.1	-24.8	17.8	0.00e+00	0	43	0	1382023168	9	3911
2026-01-01 09:58:05.51	40.82	17.81	-23.9	-24.4	18.1	0.00e+00	0	43	0	1387266048	9	3806
2026-01-01 09:58:06.51	40.59	17.82	-23.9	-24.3	18.1	0.00e+00	0	43	0	1393557504	9	3781
2026-01-01 09:58:07.51	40.35	17.83	-23.9	-24.4	18.1	0.00e+00	0	43	0	1398800384	9	3803
2026-01-01 09:58:08.51	40.12	17.83	-23.9	-24.4	18.1	0.00e+00	0	43	0	1404043264	9	3803
2026-01-01 09:58:09.52	39.89	17.84	-23.8	-24.2	18.2	0.00e+00	0	43	0	1410334720	9	3766
2026-01-01 09:58:10.52	39.65	17.84	-23.9	-24.3	18.1	0.00e+00	0	43	0	1415577600	9	3794
2026-01-01 09:58:11.52	39.42	17.85	-23.9	-24.4	18.1	0.00e+00	0	43	0	1420820480	9	3807
2026-01-01 09:58:12.53	39.19	17.85	-23.8	-24.3	18.1	0.00e+00	0	43	0	1427111936	9	3774
2026-01-01 09:58:13.53	38.95	17.85	-23.9	-24.4	18.0	0.00e+00	0	43	0	1432354816	9	3811
2026-01-01 09:58:14.53	38.72	17.86	-24.0	-24.5	18.0	0.00e+00	0	43	0	1437597696	9	3832
2026-01-01 09:58:15.54	38.49	17.86	-24.0	-24.6	18.0	0.00e+00	0	43	0	1443889152	9	3849
2026-01-01 09:58:16.54	38.25	17.86	-24.0	-24.7	17.9	0.00e+00	0	43	0	1449132032	9	3870
2026-01-01 09:58:17.54	38.02	17.86	-24.1	-24.8	17.9	0.00e+00	0	43	0	1455423488	9	3901
2026-01-01 09:58:18.55	37.78	17.86	-24.2	-24.9	17.8	0.00e+00	0	43	0	1460666368	9	3932
2026-01-01 09:58:19.55	37.55	17.86	-24.2	-24.9	17.8	0.00e+00	0	43	0	1466957824	9	3930
2026-01-01 09:58:20.55	37.32	17.86	-24.2	-24.9	17.8	0.00e+00	0	43	0	1472200704	9	3928
2026-01-01 09:58:21.55	37.09	17.86	-24.2	-25.1	17.7	0.00e+00	0	43	0	1477443584	9	3979
2026-01-01 09:58:22.55	36.85	17.86	-24.2	-25.1	17.7	0.00e+00	0	43	0	1483735040	9	3980
2026-01-01 09:58:23.55	36.62	17.86	-24.1	-24.9	17.8	0.00e+00	0	43	0	1488977920	9	3918
2026-01-01 09:58:24.54	36.39	17.86	-24.1	-24.7	17.9	0.00e+00	0	43	0	1494220800	9	3890
2026-01-01 09:58:25.55	36.15	17.86	-24.0	-24.6	18.0	0.00e+00	0	43	0	1500512256	9	3847
2026-01-01 09:58:26.55	35.92	17.85	-23.9	-24.5	18.0	0.00e+00	0	43	0	1505755136	9	3823
2026-01-01 09:58:27.55	35.69	17.85	-24.0	-24.5	18.0	0.00e+00	0	43	0	1510998016	9	3830
2026-01-01 09:58:28.55	35.46	17.85	-23.8	-24.3	18.1	0.00e+00	0	43	0	1517289472	9	3775
2026-01-01 09:58:29.56	35.22	17.84	-23.7	-24.5	18.2	0.00e+00	0	43	0	1522532352	8	3944
2026-01-01 09:58:30.56	34.99	17.84	-23.9	-24.8	18.1	0.00e+00	0	43	0	1528823808	8	4013
2026-01-01 09:58:31.57	34.75	17.83	-23.9	-24.9	18.1	0.00e+00	0	43	0	1534066688	8	4027
2026-01-01 09:58:32.57	34.52	17.82	-23.8	-24.7	18.1	0.00e+00	0	43	0	1539309568	8	3986
2026-01-01 09:58:33.57	34.29	17.82	-23.8	-24.7	18.1	0.00e+00	0	43	0	1545601024	8	3997
2026-01-01 09:58:34.58	34.06	17.81	-23.9	-25.0	18.0	0.00e+00	0	43	0	1550843904	8	4053
2026-01-01 09:58:35.58	33.82	17.80	-24.1	-25.3	17.8	0.00e+00	0	43	0	1556086784	8	4133
2026-01-01 09:58:36.58	33.59	17.80	-24.1	-25.3	17.8	0.00e+00	0	43	0	1562378240	8	4136
2026-01-01 09:58:37.59	33.36	17.79	-24.0	-25.1	18.0	0.00e+00	0	43	0	1567621120	8	4071
2026-01-01 09:58:38.59	33.13	17.78	-24.0	-25.1	17.9	0.00e+00	0	43	0	1573912576	8	4082
2026-01-01 09:58:39.60	32.89	17.77	-24.1	-25.2	17.9	0.00e+00	0	43	0	1579155456	8	4120
2026-01-01 09:58:40.60	32.66	17.76	-24.1	-25.2	17.8	0.00e+00	0	43	0	1584398336	8	4117
2026-01-01 09:58:41.61	32.43	17.75	-24.2	-25.6	17.7	0.00e+00	0	43	0	1590689792	8	4204
2026-01-01 09:58:42.62	32.20	17.74	-24.2	-25.6	17.6	0.00e+00	0	43	0	1595932672	8	4218
2026-01-01 09:58:43.62	31.96	17.73	-24.1	-25.2	17.9	0.00e+00	0	43	0	1602224128	8	4123
2026-01-01 09:58:44.62	31.73	17.72	-24.0	-25.1	18.0	0.00e+00	0	43	0	1607467008	8	4071
2026-01-01 09:58:45.62	31.50	17.70	-24.0	-25.1	17.9	0.00e+00	0	43	0	1612709888	8	4084
2026-01-01 09:58:46.62	31.27	17.69	-24.0	-25.1	17.9	0.00e+00	0	43	0	1619001344	8	4093
2026-01-01 09:58:47.62	31.04	17.68	-24.0	-25.1	17.9	0.00e+00	0	43	0	1624244224	8	4094
2026-01-01 09:58:48.61	30.82	17.66	-24.0	-25.0	18.0	0.00e+00	0	43	0	1629487104	8	4060
2026-01-01 09:58:49.62	30.58	17.65	-24.0	-25.0	18.0	0.00e+00	0	43	0	1635778560	8	4063
2026-01-01 09:58:50.61	30.36	17.64	-24.0	-25.2	17.9	0.00e+00	0	43	0	1641021440	8	4108
2026-01-01 09:58:51.62	30.13	17.62	-24.0	-25.1	18.0	0.00e+00	0	43	0	1646264320	8	4075
2026-01-01 09:58:52.63	29.89	17.60	-23.9	-24.8	18.1	0.00e+00	0	43	0	1652555776	8	4003
2026-01-01 09:58:53.63	29.67	17.59	-23.9	-24.9	18.1	0.00e+00	0	43	0	1657798656	8	4022
2026-01-01 09:58:54.62	29.44	17.57	-23.9	-24.9	18.0	0.00e+00	0	43	0	1664090112	8	4039
2026-01-01 09:58:55.62	29.21	17.56	-24.0	-25.1	18.0	0.00e+00	0	43	0	1669332992	8	4079
2026-01-01 09:58:56.63	28.98	17.54	-24.0	-25.1	18.0	0.00e+00	0	43	0	1674575872	8	4089
2026-01-01 09:58:57.64	28.75	17.52	-24.1	-25.2	17.9	0.00e+00	0	43	0	1680867328	8	4116
2026-01-01 09:58:58.63	28.53	17.50	-24.0	-25.2	17.9	0.00e+00	0	43	0	1686110208	8	4098
2026-01-01 09:58:59.63	28.30	17.48	-24.0	-25.1	17.9	0.00e+00	0	43	0	1691353088	8	4090
2026-01-01 09:59:00.64	28.07	17.46	-24.1	-25.4	17.8	0.00e+00	0	43	0	1697644544	8	4155
2026-01-01 09:59:01.64	27.84	17.45	-24.1	-25.3	17.9	0.00e+00	0	43	0	1702887424	8	4125
2026-01-01 09:59:02.64	27.62	17.43	-24.0	-25.2	17.9	0.00e+00	0	43	0	1709178880	8	4109
2026-01-01 09:59:03.64	27.39	17.41	-24.2	-25.4	17.8	0.00e+00	0	43	0	1714421760	8	4169
2026-01-01 09:59:04.64	27.17	17.38	-24.1	-25.3	17.8	0.00e+00	0	43	0	1719664640	8	4142
2026-01-01 09:59:05.65	26.94	17.36	-24.1	-25.3	17.9	0.00e+00	0	43	0	1725956096	8	4134
2026-01-01 09:59:06.66	26.71	17.34	-24.1	-25.3	17.8	0.00e+00	0	43	0	1731198976	8	4143
2026-01-01 09:59:07.66	26.49	17.32	-24.2	-25.4	17.8	0.00e+00	0	43	0	1737490432	8	4167
2026-01-01 09:59:08.66	26.26	17.30	-24.3	-25.8	17.6	0.00e+00	0	43	0	1742733312	8	4266
2026-01-01 09:59:09.66	26.04	17.27	-24.3	-25.8	17.6	0.00e+00	0	43	0	1747976192	8	4270
2026-01-01 09:59:10.66	25.81	17.25	-24.2	-25.6	17.7	0.00e+00	0	43	0	1754267648	8	4216
2026-01-01 09:59:11.66	25.59	17.23	-24.2	-25.5	17.7	0.00e+00	0	43	0	1759510528	8	4196
2026-01-01 09:59:12.67	25.37	17.20	-24.2	-25.6	17.7	0.00e+00	0	43	0	1764753408	8	4201
2026-01-01 09:59:13.67	25.14	17.18	-24.1	-25.4	17.8	0.00e+00	0	43	0	1771044864	8	4148
2026-01-01 09:59:14.67	24.92	17.15	-24.1	-25.2	17.9	0.00e+00	0	43	0	1776287744	8	4102
2026-01-01 09:59:15.68	24.70	17.13	-24.0	-25.1	17.9	0.00e+00	0	43	0	1781530624	8	4082
2026-01-01 09:59:16.69	24.47	17.10	-24.1	-25.2	17.9	0.00e+00	0	43	0	1787822080	8	4107
2026-01-01 09:59:17.69	24.25	17.07	-24.0	-25.2	17.9	0.00e+00	0	43	0	1793064960	8	4098
2026-01-01 09:59:18.70	24.03	17.05	-24.0	-25.1	17.9	0.00e+00	0	43	0	1799356416	8	4096
2026-01-01 09:59:19.71	23.81	17.02	-24.1	-25.3	17.9	0.00e+00	0	43	0	1804599296	8	4122
2026-01-01 09:59:20.71	23.59	16.99	-24.0	-25.0	18.0	0.00e+00	0	43	0	1810890752	8	4057
2026-01-01 09:59:21.71	23.37	16.96	-23.9	-24.8	18.1	0.00e+00	0	43	0	1816133632	8	4016
2026-01-01 09:59:22.71	23.15	16.94	-24.0	-25.2	17.9	0.00e+00	0	43	0	1821376512	8	4105
2026-01-01 09:59:23.71	22.93	16.91	-24.2	-25.4	17.8	0.00e+00	0	43	0	1827667968	8	4158
2026-01-01 09:59:24.71	22.71	16.88	-24.3	-25.7	17.6	0.00e+00	0	43	0	1832910848	8	4234
2026-01-01 09:59:25.71	22.50	16.85	-24.3	-25.6	17.7	0.00e+00	0	43	0	1838153728	8	4223
2026-01-01 09:59:26.72	22.28	16.82	-24.2	-25.6	17.7	0.00e+00	0	43	0	1844445184	8	4198
2026-01-01 09:59:27.72	22.06	16.79	-24.2	-25.5	17.7	0.00e+00	0	43	0	1849688064	8	4189
2026-01-01 09:59:28.72	21.84	16.76	-24.2	-25.5	17.7	0.00e+00	0	43	0	1855979520	8	4177
2026-01-01 09:59:29.72	21.63	16.73	-24.3	-25.6	17.6	0.00e+00	0	43	0	1861222400	8	4222
2026-01-01 09:59:30.72	21.41	16.69	-24.3	-25.8	17.6	0.00e+00	0	43	0	1866465280	8	4256
2026-01-01 09:59:31.73	21.20	16.66	-24.3	-25.7	17.6	0.00e+00	0	43	0	1872756736	8	4237
2026-01-01 09:59:32.72	20.98	16.63	-24.3	-25.7	17.6	0.00e+00	0	43	0	1877999616	8	4243
2026-01-01 09:59:33.73	20.77	16.60	-24.4	-25.9	17.5	0.00e+00	0	43	0	1883242496	8	4287
2026-01-01 09:59:34.74	20.55	16.56	-24.3	-25.6	17.7	0.00e+00	0	43	0	1889533952	8	4220
2026-01-01 09:59:35.74	20.34	16.53	-24.2	-25.5	17.8	0.00e+00	0	43	0	1894776832	8	4177
2026-01-01 09:59:36.74	20.13	16.50	-24.2	-25.6	17.7	0.00e+00	0	43	0	1901068288	8	4213
2026-01-01 09:59:37.74	19.91	16.46	-24.3	-25.7	17.6	0.00e+00	0	43	0	1906311168	8	4226
2026-01-01 09:59:38.75	19.70	16.43	-24.3	-25.7	17.6	0.00e+00	0	43	0	1911554048	8	4247
2026-01-01 09:59:39.75	19.49	16.39	-25.0	-26.5	17.4	0.00e+00	0	43	0	1917845504	9	4288
2026-01-01 09:59:40.75	19.28	16.36	-24.7	-26.2	17.1	0.00e+00	0	43	0	1923088384	9	4247
2026-01-01 09:59:41.75	19.07	16.32	-24.7	-26.0	17.2	0.00e+00	0	43	0	1929379840	9	4200
2026-01-01 09:59:42.75	18.86	16.29	-24.5	-25.6	17.4	0.00e+00	0	43	0	1934622720	9	4106
2026-01-01 09:59:43.75	18.65	16.25	-24.4	-25.5	17.5	0.00e+00	0	43	0	1939865600	9	4072
2026-01-01 09:59:44.76	18.44	16.21	-24.4	-25.5	17.4	0.00e+00	0	43	0	1946157056	9	4088
2026-01-01 09:59:45.76	18.23	16.18	-24.4	-25.5	17.5	0.00e+00	0	43	0	1951399936	9	4071
2026-01-01 09:59:46.76	18.02	16.14	-24.4	-25.4	17.5	0.00e+00	0	43	0	1956642816	9	4040
2026-01-01 09:59:47.76	17.82	16.10	-24.4	-25.5	17.4	0.00e+00	0	43	0	1962934272	9	4081
2026-01-01 09:59:48.76	17.61	16.07	-24.5	-25.6	17.4	0.00e+00	0	43	0	1968177152	9	4099
2026-01-01 09:59:49.77	17.40	16.03	-24.6	-26.0	17.2	0.00e+00	0	43	0	1973420032	9	4195
2026-01-01 09:59:50.77	17.20	15.99	-24.7	-26.1	17.2	0.00e+00	0	43	0	1979711488	9	4221
2026-01-01 09:59:51.77	16.99	15.95	-24.7	-26.2	17.1	0.00e+00	0	43	0	1984954368	9	4249
2026-01-01 09:59:52.77	16.79	15.91	-24.7	-26.1	17.1	0.00e+00	0	43	0	1991245824	9	4235
2026-01-01 09:59:53.77	16.58	15.87	-24.7	-26.1	17.1	0.00e+00	0	43	0	1996488704	9	4217
2026-01-01 09:59:54.78	16.38	15.83	-24.6	-25.8	17.2	0.00e+00	0	43	0	2001731584	9	4147
2026-01-01 09:59:55.78	16.18	15.79	-24.6	-25.9	17.2	0.00e+00	0	43	0	2008023040	9	4163
2026-01-01 09:59:56.79	15.97	15.75	-24.6	-25.9	17.2	0.00e+00	0	43	0	2013265920	9	4171
2026-01-01 09:59:57.78	15.77	15.71	-24.7	-26.0	17.2	0.00e+00	0	43	0	2018508800	9	4198
2026-01-01 09:59:58.79	15.57	15.67	-24.6	-25.9	17.2	0.00e+00	0	43	0	2024800256	9	4166
2026-01-01 09:59:59.79	15.37	15.63	-24.6	-25.8	17.3	0.00e+00	0	43	0	2030043136	9	4162
2026-01-01 10:00:00.79	15.17	15.59	-24.5	-25.7	17.3	0.00e+00	0	43	0	2036334592	9	4115
2026-01-01 10:00:01.79	14.97	15.55	-24.6	-25.8	17.3	0.00e+00	0	43	0	2041577472	9	4143
2026-01-01 10:00:02.79	14.77	15.51	-24.7	-26.1	17.1	0.00e+00	0	43	0	2046820352	9	4233
2026-01-01 10:00:03.79	14.57	15.46	-24.7	-26.0	17.1	0.00e+00	0	43	0	2053111808	9	4198
2026-01-01 10:00:04.80	14.37	15.42	-24.8	-26.2	17.0	0.00e+00	0	43	0	2058354688	9	4256
2026-01-01 10:00:05.80	14.18	15.38	-24.7	-26.1	17.1	0.00e+00	0	43	0	2064646144	9	4222
2026-01-01 10:00:06.81	13.98	15.33	-24.7	-26.0	17.1	0.00e+00	0	43	0	2069889024	9	4210
2026-01-01 10:00:07.81	13.78	15.29	-24.7	-26.2	17.0	0.00e+00	0	43	0	2075131904	9	4245
2026-01-01 10:00:08.82	13.59	15.25	-24.8	-26.2	17.0	0.00e+00	0	43	0	2081423360	9	4255
2026-01-01 10:00:09.83	13.39	15.20	-24.8	-26.4	16.9	0.00e+00	0	43	0	2086666240	9	4310
2026-01-01 10:00:10.84	13.19	15.16	-24.8	-26.4	16.9	0.00e+00	0	43	0	2092957696	9	4311
2026-01-01 10:00:11.84	13.00	15.11	-24.8	-26.4	16.9	0.00e+00	0	43	0	2098200576	9	4307
2026-01-01 10:00:12.84	12.81	15.07	-24.8	-26.3	17.0	0.00e+00	0	43	0	2103443456	9	4286
2026-01-01 10:00:13.84	12.61	15.03	-24.9	-26.4	16.9	0.00e+00	0	43	0	2109734912	9	4313
2026-01-01 10:00:14.84	12.42	14.98	-24.7	-26.1	17.1	0.00e+00	0	43	0	2114977792	9	4214
2026-01-01 10:00:15.83	12.23	14.94	-24.7	-26.0	17.1	0.00e+00	0	43	0	2120220672	9	4191
2026-01-01 10:00:16.84	12.04	14.89	-24.7	-26.1	17.1	0.00e+00	0	43	0	2126512128	9	4232
2026-01-01 10:00:17.84	11.85	14.84	-24.8	-26.4	16.9	0.00e+00	0	43	0	2131755008	9	4299
2026-01-01 10:00:18.85	11.66	14.80	-24.9	-26.6	16.8	0.00e+00	0	43	0	2138046464	9	4367
2026-01-01 10:00:19.85	11.47	14.75	-24.9	-26.6	16.8	0.00e+00	0	43	0	2143289344	9	4366
2026-01-01 10:00:20.85	11.28	14.71	-25.0	-26.7	16.7	0.00e+00	0	43	0	2148532224	9	4394
2026-01-01 10:00:21.86	11.09	14.66	-24.9	-26.5	16.8	0.00e+00	0	43	0	2154823680	9	4341
2026-01-01 10:00:22.87	10.90	14.61	-24.9	-26.5	16.9	0.00e+00	0	43	0	2160066560	9	4328
2026-01-01 10:00:23.87	10.72	14.56	-25.0	-26.7	16.8	0.00e+00	0	43	0	2165309440	9	4375
2026-01-01 10:00:24.88	10.53	14.52	-24.9	-26.1	16.8	0.00e+00	0	44	0	2171600896	10	4106
2026-01-01 10:00:25.88	10.34	14.47	-25.0	-26.2	16.7	0.00e+00	0	43	0	2176843776	10	4152
2026-01-01 10:00:26.88	10.16	14.42	-25.0	-26.3	16.7	0.00e+00	0	43	0	2182086656	10	4168
2026-01-01 10:00:27.89	9.97	14.37	-25.1	-26.4	16.7	0.00e+00	0	43	0	2188378112	10	4188
2026-01-01 10:00:28.89	9.79	14.32	-25.1	-26.4	16.7	0.00e+00	0	43	0	2193620992	10	4180
2026-01-01 10:00:29.89	9.61	14.28	-25.1	-26.4	16.7	0.00e+00	0	43	0	2199912448	10	4193
2026-01-01 10:00:30.89	9.43	14.23	-25.0	-26.3	16.7	0.00e+00	0	43	0	2205155328	10	4174
2026-01-01 10:00:31.90	9.24	14.18	-25.0	-26.3	16.7	0.00e+00	0	43	0	2211446784	10	4176
2026-01-01 10:00:32.90	9.06	14.13	-25.2	-26.6	16.5	0.00e+00	0	43	0	2216689664	10	4247
2026-01-01 10:00:33.90	8.88	14.08	-25.2	-26.7	16.5	0.00e+00	0	43	0	2221932544	10	4265
2026-01-01 10:00:34.91	8.70	14.03	-25.3	-26.8	16.4	0.00e+00	0	43	0	2228224000	10	4305
2026-01-01 10:00:35.91	8.52	13.98	-25.2	-26.6	16.5	0.00e+00	0	43	0	2233466880	10	4255
2026-01-01 10:00:36.92	8.34	13.93	-25.1	-26.5	16.6	0.00e+00	0	43	0	2238709760	10	4219
2026-01-01 10:00:37.92	8.16	13.88	-25.1	-26.5	16.6	0.00e+00	0	43	0	2245001216	10	4221
2026-01-01 10:00:38.93	7.98	13.83	-25.0	-26.3	16.7	0.00e+00	0	43	0	2250244096	10	4172
2026-01-01 10:00:39.93	7.81	13.78	-25.0	-26.3	16.7	0.00e+00	0	43	0	2255486976	10	4179
2026-01-01 10:00:40.94	7.63	13.73	-25.2	-26.7	16.5	0.00e+00	0	43	0	2261778432	10	4279
2026-01-01 10:00:41.94	7.45	13.68	-25.1	-26.6	16.5	0.00e+00	0	43	0	2267021312	10	4242
2026-01-01 10:00:42.95	7.28	13.63	-25.1	-26.5	16.6	0.00e+00	0	43	0	2273312768	10	4212
2026-01-01 10:00:43.95	7.10	13.58	-25.1	-26.5	16.6	0.00e+00	0	43	0	2278555648	10	4226
2026-01-01 10:00:44.95	6.93	13.53	-25.0	-26.2	16.7	0.00e+00	0	43	0	2284847104	10	4135
2026-01-01 10:00:45.96	6.75	13.48	-24.9	-26.0	16.8	0.00e+00	0	43	0	2290089984	10	4097
2026-01-01 10:00:46.96	6.58	13.42	-25.0	-26.3	16.7	0.00e+00	0	43	0	2295332864	10	4155
2026-01-01 10:00:47.96	6.41	13.37	-25.0	-26.3	16.7	0.00e+00	0	43	0	2301624320	10	4163
2026-01-01 10:00:48.96	6.24	13.32	-25.2	-26.7	16.5	0.00e+00	0	43	0	2306867200	10	4276
2026-01-01 10:00:49.96	6.07	13.27	-25.2	-26.7	16.4	0.00e+00	0	43	0	2312110080	10	4287
2026-01-01 10:00:50.96	5.90	13.22	-25.3	-26.9	16.4	0.00e+00	0	43	0	2318401536	10	4323
2026-01-01 10:00:51.97	5.73	13.17	-25.3	-26.8	16.4	0.00e+00	0	43	0	2323644416	10	4313
2026-01-01 10:00:52.96	5.56	13.11	-25.3	-27.0	16.3	0.00e+00	0	43	0	2328887296	10	4362
2026-01-01 10:00:53.96	5.39	13.06	-25.2	-26.6	16.5	0.00e+00	0	43	0	2335178752	10	4245
2026-01-01 10:00:54.97	5.22	13.01	-25.1	-26.5	16.6	0.00e+00	0	43	0	2340421632	10	4218
2026-01-01 10:00:55.98	5.05	12.96	-25.3	-26.8	16.4	0.00e+00	0	43	0	2346713088	10	4293
2026-01-01 10:00:56.98	4.89	12.90	-25.3	-26.9	16.3	0.00e+00	0	43	0	2351955968	10	4321
2026-01-01 10:00:57.99	4.72	12.85	-25.5	-27.3	16.1	0.00e+00	0	43	0	2358247424	10	4450
2026-01-01 10:00:58.99	4.55	12.80	-25.5	-26.8	16.1	0.00e+00	0	43	0	2363490304	11	4183
2026-01-01 10:00:59.99	4.39	12.74	-25.4	-26.6	16.2	0.00e+00	0	43	0	2368733184	11	4137
2026-01-01 10:01:01.00	4.22	12.69	-25.4	-26.6	16.2	0.00e+00	0	43	0	2375024640	11	4133
2026-01-01 10:01:02.00	4.06	12.64	-25.4	-26.5	16.3	0.00e+00	0	43	0	2380267520	11	4114
2026-01-01 10:01:03.01	3.90	12.58	-25.5	-26.8	16.1	0.00e+00	0	43	0	2385510400	11	4178
2026-01-01 10:01:04.01	3.73	12.53	-25.4	-26.7	16.2	0.00e+00	0	43	0	2391801856	11	4155
2026-01-01 10:01:05.02	3.57	12.48	-25.5	-26.8	16.0	0.00e+00	0	43	0	2397044736	11	4206
2026-01-01 10:01:06.03	3.41	12.42	-25.7	-27.4	15.7	0.00e+00	0	43	0	2402287616	11	4359
2026-01-01 10:01:07.03	3.25	12.37	-25.7	-27.3	15.8	0.00e+00	0	43	0	2408579072	11	4335
2026-01-01 10:01:08.03	3.09	12.32	-26.0	-27.9	15.5	0.00e+00	0	43	0	2413821952	11	4497
2026-01-01 10:01:09.02	2.93	12.26	-25.8	-27.6	15.6	0.00e+00	0	43	0	2420113408	11	4411
2026-01-01 10:01:10.03	2.77	12.21	-25.8	-27.4	15.7	0.00e+00	0	43	0	2425356288	11	4361
2026-01-01 10:01:11.03	2.61	12.15	-25.8	-27.5	15.7	0.00e+00	0	43	0	2430599168	11	4388
2026-01-01 10:01:12.03	2.46	12.10	-25.7	-27.3	15.7	0.00e+00	0	43	0	2436890624	11	4338
2026-01-01 10:01:13.04	2.30	12.04	-25.7	-27.3	15.8	0.00e+00	0	43	0	2442133504	11	4335
2026-01-01 10:01:14.04	2.14	11.99	-25.7	-27.4	15.6	0.00e+00	0	43	0	2448424960	11	4368
2026-01-01 10:01:15.05	1.98	11.93	-25.8	-27.6	15.6	0.00e+00	0	43	0	2453667840	11	4416
2026-01-01 10:01:16.05	1.83	11.88	-25.9	-27.8	15.4	0.00e+00	0	43	0	2458910720	11	4473
2026-01-01 10:01:17.05	1.67	11.83	-25.8	-27.7	15.5	0.00e+00	0	43	0	2465202176	11	4459
2026-01-01 10:01:18.06	1.52	11.77	-25.8	-27.7	15.5	0.00e+00	0	43	0	2470445056	11	4443
2026-01-01 10:01:19.07	1.36	11.71	-25.8	-27.6	15.6	0.00e+00	0	43	0	2475687936	11	4425
2026-01-01 10:01:20.07	1.21	11.66	-25.9	-27.8	15.4	0.00e+00	0	43	0	2481979392	11	4472
2026-01-01 10:01:21.07	1.06	11.60	-25.8	-27.5	15.7	0.00e+00	0	43	0	2487222272	11	4372
2026-01-01 10:01:22.07	0.91	11.55	-25.7	-27.3	15.7	0.00e+00	0	43	0	2493513728	11	4338
2026-01-01 10:01:23.08	0.76	11.49	-25.9	-27.7	15.6	0.00e+00	0	43	0	2498756608	11	4431
2026-01-01 10:01:24.08	0.61	11.44	-25.8	-27.6	15.6	0.00e+00	0	43	0	2503999488	11	4406
2026-01-01 10:01:25.08	0.46	11.38	-26.0	-27.9	15.4	0.00e+00	0	43	0	2510290944	11	4497
2026-01-01 10:01:26.09	0.31	11.33	-26.0	-28.0	15.4	0.00e+00	0	43	0	2515533824	11	4510
2026-01-01 10:01:27.09	0.16	11.27	-26.1	-27.6	15.3	0.00e+00	0	43	0	2521825280	12	4301
2026-01-01 10:01:28.09	0.01	11.22	-26.2	-27.9	15.1	0.00e+00	0	43	0	2527068160	12	4390
2026-01-01 10:01:29.09	359.86	11.16	-26.0	-27.5	15.3	0.00e+00	0	43	0	2532311040	12	4261
2026-01-01 10:01:30.09	359.72	11.11	-25.9	-27.2	15.5	0.00e+00	0	43	0	2538602496	12	4182
2026-01-01 10:01:31.10	359.57	11.05	-25.8	-27.1	15.5	0.00e+00	0	43	0	2543845376	12	4161
2026-01-01 10:01:32.11	359.42	10.99	-25.9	-27.2	15.5	0.00e+00	0	43	0	2549088256	12	4195
2026-01-01 10:01:33.10	359.28	10.94	-25.9	-27.3	15.4	0.00e+00	0	43	0	2555379712	12	4215
2026-01-01 10:01:34.11	359.13	10.88	-26.1	-27.6	15.2	0.00e+00	0	43	0	2560622592	12	4311
2026-01-01 10:01:35.11	358.99	10.83	-26.0	-27.5	15.3	0.00e+00	0	43	0	2566914048	12	4264
2026-01-01 10:01:36.10	358.84	10.77	-26.0	-27.5	15.3	0.00e+00	0	43	0	2572156928	12	4269
2026-01-01 10:01:37.11	358.70	10.71	-26.1	-27.6	15.2	0.00e+00	0	43	0	2577399808	12	4304
2026-01-01 10:01:38.11	358.56	10.66	-25.9	-27.3	15.4	0.00e+00	0	43	0	2583691264	12	4230
2026-01-01 10:01:39.12	358.41	10.60	-25.9	-27.2	15.4	0.00e+00	0	43	0	2588934144	12	4190
2026-01-01 10:01:40.12	358.27	10.55	-25.9	-27.3	15.4	0.00e+00	0	44	0	2594177024	12	4223
2026-01-01 10:01:41.12	358.13	10.49	-25.9	-27.2	15.4	1.10e-06	0	43	0	2600468480	12	4196
2026-01-01 10:01:42.13	357.99	10.43	-26.0	-27.5	15.3	0.00e+00	0	43	0	2605711360	12	4272
2026-01-01 10:01:43.12	357.85	10.38	-26.1	-27.8	15.1	0.00e+00	0	43	0	2610954240	12	4350
2026-01-01 10:01:44.12	357.71	10.32	-26.1	-27.6	15.2	1.10e-06	0	43	0	2617245696	12	4313
2026-01-01 10:01:45.13	357.57	10.26	-26.0	-27.5	15.2	0.00e+00	0	43	0	2622488576	12	4288
2026-01-01 10:01:46.14	357.44	10.21	-26.0	-27.6	15.2	0.00e+00	0	43	0	2628780032	12	4297
2026-01-01 10:01:47.14	357.30	10.15	-26.1	-27.8	15.1	0.00e+00	0	43	0	2634022912	12	4354
2026-01-01 10:01:48.15	357.16	10.09	-25.9	-27.4	15.3	0.00e+00	0	43	0	2640314368	12	4236
2026-01-01 10:01:49.16	357.02	10.04	-26.0	-27.4	15.3	0.00e+00	0	43	0	2645557248	12	4250
2026-01-01 10:01:50.16	356.89	9.98	-26.1	-27.7	15.1	0.00e+00	0	43	0	2650800128	12	4340
2026-01-01 10:01:51.16	356.75	9.92	-26.1	-27.7	15.1	0.00e+00	0	43	0	2657091584	12	4316
2026-01-01 10:01:52.17	356.62	9.87	-26.3	-28.1	14.9	0.00e+00	0	43	0	2662334464	12	4446
2026-01-01 10:01:53.17	356.48	9.81	-26.3	-28.1	14.9	0.00e+00	0	43	0	2667577344	12	4446
2026-01-01 10:01:54.17	356.35	9.75	-26.4	-28.5	14.6	0.00e+00	0	43	0	2673868800	12	4564
2026-01-01 10:01:55.17	356.21	9.70	-26.7	-28.5	14.3	0.00e+00	0	43	0	2679111680	13	4448
2026-01-01 10:01:56.17	356.08	9.64	-26.8	-28.8	14.1	2.20e-06	0	43	0	2684354560	13	4552
2026-01-01 10:01:57.17	355.95	9.58	-26.5	-28.2	14.5	0.00e+00	0	43	0	2690646016	13	4376
2026-01-01 10:01:58.18	355.82	9.53	-26.4	-27.9	14.7	0.00e+00	0	43	0	2695888896	13	4278
2026-01-01 10:01:59.17	355.69	9.47	-26.3	-27.7	14.8	0.00e+00	0	43	0	2702180352	13	4226
2026-01-01 10:02:00.17	355.56	9.41	-26.4	-27.9	14.7	1.10e-06	0	44	0	2707423232	13	4266
2026-01-01 10:02:01.18	355.43	9.36	-26.4	-27.9	14.6	0.00e+00	0	43	0	2712666112	13	4291
2026-01-01 10:02:02.19	355.30	9.30	-26.4	-27.9	14.7	0.00e+00	0	43	0	2718957568	13	4264
2026-01-01 10:02:03.18	355.17	9.24	-26.5	-28.1	14.5	0.00e+00	0	43	0	2724200448	13	4331
2026-01-01 10:02:04.19	355.04	9.19	-26.5	-28.0	14.6	0.00e+00	0	43	0	2730491904	13	4309
2026-01-01 10:02:05.19	354.91	9.13	-26.5	-28.1	14.5	0.00e+00	0	43	0	2735734784	13	4339
2026-01-01 10:02:06.20	354.78	9.07	-26.4	-27.9	14.6	0.00e+00	0	43	0	2740977664	13	4286
2026-01-01 10:02:07.21	354.65	9.01	-26.4	-27.9	14.6	0.00e+00	0	43	0	2747269120	13	4290
2026-01-01 10:02:08.21	354.53	8.96	-26.5	-28.1	14.5	0.00e+00	0	43	0	2752512000	13	4327
2026-01-01 10:02:09.22	354.40	8.90	-26.6	-28.4	14.4	0.00e+00	0	43	0	2757754880	13	4406
2026-01-01 10:02:10.22	354.28	8.84	-26.6	-28.4	14.3	0.00e+00	0	43	0	2764046336	13	4426
2026-01-01 10:02:11.22	354.15	8.79	-26.7	-28.6	14.2	2.20e-06	0	43	0	2769289216	13	4476
2026-01-01 10:02:12.22	354.03	8.73	-26.6	-28.4	14.3	2.20e-06	0	43	0	2775580672	13	4436
2026-01-01 10:02:13.22	353.90	8.67	-26.6	-28.3	14.4	2.20e-06	0	43	0	2780823552	13	4394
2026-01-01 10:02:14.22	353.78	8.62	-26.6	-28.5	14.2	1.10e-06	0	43	0	2786066432	13	4448
2026-01-01 10:02:15.22	353.66	8.56	-26.5	-28.0	14.5	1.10e-06	0	43	0	2792357888	13	4313
2026-01-01 10:02:16.23	353.53	8.50	-26.5	-28.2	14.4	0.00e+00	0	43	0	2797600768	13	4369
2026-01-01 10:02:17.23	353.41	8.45	-26.7	-28.5	14.2	1.10e-06	0	44	0	2802843648	13	4460
2026-01-01 10:02:18.24	353.29	8.39	-26.5	-28.1	14.4	0.00e+00	0	43	0	2809135104	13	4343
2026-01-01 10:02:19.25	353.17	8.33	-26.4	-27.9	14.5	0.00e+00	0	43	0	2814377984	13	4292
2026-01-01 10:02:20.24	353.05	8.28	-26.4	-28.0	14.5	0.00e+00	0	43	0	2820669440	13	4309
2026-01-01 10:02:21.24	352.93	8.22	-26.5	-28.1	14.4	0.00e+00	0	43	0	2825912320	13	4346
2026-01-01 10:02:22.25	352.81	8.16	-26.5	-28.2	14.4	1.10e-06	0	44	0	2831155200	13	4375
2026-01-01 10:02:23.25	352.69	8.11	-26.5	-28.2	14.4	2.20e-06	0	43	0	2837446656	13	4370
2026-01-01 10:02:24.26	352.57	8.05	-26.6	-28.4	14.3	0.00e+00	0	43	0	2842689536	13	4417
2026-01-01 10:02:25.26	352.45	7.99	-26.7	-28.5	14.2	1.10e-06	0	44	0	2848980992	13	4462
2026-01-01 10:02:26.26	352.33	7.93	-26.6	-28.5	14.2	0.00e+00	0	43	0	2854223872	13	4453
2026-01-01 10:02:27.26	352.22	7.88	-26.7	-28.6	14.1	3.40e-06	0	44	0	2859466752	13	4474
2026-01-01 10:02:28.27	352.10	7.82	-26.6	-28.5	14.2	0.00e+00	0	43	0	2865758208	13	4444
2026-01-01 10:02:29.27	351.98	7.76	-26.7	-28.7	14.0	0.00e+00	0	43	0	2871001088	13	4512
2026-01-01 10:02:30.27	351.87	7.71	-26.6	-28.5	14.2	0.00e+00	0	43	0	2876243968	13	4457
2026-01-01 10:02:31.27	351.75	7.65	-26.7	-28.6	14.1	1.10e-06	0	43	0	2882535424	13	4481
2026-01-01 10:02:32.27	351.64	7.59	-26.7	-28.6	14.1	1.10e-06	0	43	0	2887778304	13	4479
2026-01-01 10:02:33.27	351.52	7.54	-26.8	-28.9	13.9	3.40e-06	0	43	0	2893021184	13	4585
2026-01-01 10:02:34.27	351.41	7.48	-26.8	-28.8	14.0	2.20e-06	0	43	0	2899312640	13	4539
2026-01-01 10:02:35.28	351.29	7.42	-26.9	-29.2	13.7	2.20e-06	0	43	0	2904555520	13	4654
2026-01-01 10:02:36.28	351.18	7.37	-27.0	-29.2	13.7	8.00e-06	0	43	0	2910846976	13	4681
2026-01-01 10:02:37.28	351.07	7.31	-27.1	-29.2	13.5	8.00e-06	0	43	0	2916089856	14	4541
2026-01-01 10:02:38.29	350.96	7.25	-27.3	-29.6	13.2	5.70e-06	0	43	0	2922381312	14	4664
2026-01-01 10:02:39.30	350.84	7.20	-27.1	-29.0	13.5	3.40e-06	0	43	0	2927624192	14	4476
2026-01-01 10:02:40.30	350.73	7.14	-26.9	-28.6	13.7	5.70e-06	0	43	0	2932867072	14	4390
2026-01-01 10:02:41.30	350.62	7.08	-27.8	-30.2	12.7	1.10e-06	0	43	0	2939158528	15	4755
2026-01-01 10:02:42.30	350.51	7.03	-32.7	-43.1	3.8	8.42e-01	0	43	104	2940207104	25	11927

#Closed at: 2026-01-01 10:02:43
#Recorded file [2940 MB]: D:/data/31010_260101_125358.dat