passes_logs/2026/01/01/R2M6_AANII_01/R2M6_AANII_01__20260101_014808_NOAA_21_JPSS-2_rec.log

#Pass ID: 20260101_014808_NOAA 21 (JPSS-2)
#Satellite: NOAA 21 (JPSS-2)
#Configuration: NOAA 21
#almurnet v.1.7.20240730
#Start time: 2026-01-01 01:50:34

#Version: 2.2.20231116
#Station: R2M6_AANII_01
#Location: 30.233357 lon 59.946436 lat
#TLE: 1 54234U 22150A   25365.42224288  .00000199  00000+0  11529-3 0  9990
#TLE: 2 54234  98.7483 301.4995 0001320 356.2106   3.9060 14.19530300162743

#Time	Az	El	Level	Level2	SNR	BER	BlckErr	Temp	State	Recorded	gain1	gain2
2026-01-01 01:50:34.25	356.23	18.79	-32.5	-43.5	3.8	8.45e-01	0	43	0	0	25	12833
2026-01-01 01:50:35.24	356.07	18.88	-33.4	-45.7	3.8	1.49e+00	0	43	104	0	26	14821
2026-01-01 01:50:36.25	355.91	18.98	-33.5	-45.8	3.8	1.49e+00	0	43	104	0	26	14898
2026-01-01 01:50:37.25	355.75	19.07	-33.4	-45.2	3.8	1.49e+00	0	43	104	0	27	14078
2026-01-01 01:50:38.25	355.58	19.16	-33.5	-45.4	3.8	1.49e+00	0	43	104	0	27	14133
2026-01-01 01:50:39.25	355.42	19.25	-33.5	-45.4	3.8	1.49e+00	0	43	104	0	27	14154
2026-01-01 01:50:40.25	355.25	19.35	-33.6	-45.5	3.8	1.49e+00	0	43	104	0	27	14217
2026-01-01 01:50:41.25	355.09	19.44	-33.6	-45.5	3.8	1.49e+00	0	43	104	0	27	14245
2026-01-01 01:50:42.26	354.92	19.53	-33.6	-45.5	3.8	1.49e+00	0	43	104	0	27	14190
2026-01-01 01:50:43.26	354.75	19.63	-33.6	-45.5	3.8	1.49e+00	0	43	104	0	27	14221
2026-01-01 01:50:44.26	354.58	19.72	-33.6	-45.5	3.8	1.49e+00	0	43	104	0	27	14208
2026-01-01 01:50:45.26	354.41	19.81	-33.6	-45.5	3.8	1.49e+00	0	43	104	0	27	14188
2026-01-01 01:50:46.27	354.24	19.91	-33.6	-45.5	3.8	1.49e+00	0	43	104	0	27	14213
2026-01-01 01:50:47.28	354.06	20.00	-33.6	-45.5	3.8	1.49e+00	0	43	104	0	27	14156
2026-01-01 01:50:48.28	353.89	20.09	-33.6	-45.5	3.8	1.49e+00	0	43	104	0	27	14171
2026-01-01 01:50:49.28	353.71	20.19	-33.6	-45.4	3.8	1.49e+00	0	43	104	0	27	14147
2026-01-01 01:50:50.28	353.54	20.28	-33.6	-45.4	3.8	1.49e+00	0	43	104	0	27	14125
2026-01-01 01:50:51.28	353.36	20.38	-33.6	-45.5	3.8	1.49e+00	0	43	104	0	27	14164
2026-01-01 01:50:52.28	353.18	20.47	-33.5	-45.4	3.8	1.49e+00	0	43	104	0	27	14160
2026-01-01 01:50:53.28	353.00	20.56	-33.6	-45.5	3.8	1.49e+00	0	43	104	0	27	14174
2026-01-01 01:50:54.28	352.82	20.66	-33.5	-45.4	3.8	1.49e+00	0	43	104	0	27	14140
2026-01-01 01:50:55.28	352.64	20.75	-33.5	-45.4	3.8	1.49e+00	0	43	104	0	27	14172
2026-01-01 01:50:56.29	352.45	20.85	-33.5	-45.4	3.8	1.49e+00	0	43	104	0	27	14152
2026-01-01 01:50:57.29	352.27	20.94	-33.5	-45.3	3.8	1.49e+00	0	43	104	0	27	14080
2026-01-01 01:50:58.30	352.08	21.03	-33.5	-45.3	3.8	1.49e+00	0	43	104	0	27	14070
2026-01-01 01:50:59.31	351.90	21.13	-33.5	-45.8	3.8	1.49e+00	0	43	104	0	26	14860
2026-01-01 01:51:00.31	351.71	21.22	-33.4	-45.7	3.8	1.49e+00	0	43	104	0	26	14784
2026-01-01 01:51:01.31	351.52	21.32	-33.4	-45.7	3.8	1.49e+00	0	43	104	0	26	14784
2026-01-01 01:51:02.31	351.33	21.41	-33.4	-45.5	3.8	1.49e+00	0	43	104	0	26	14647
2026-01-01 01:51:03.31	351.14	21.51	-33.3	-45.4	3.8	1.49e+00	0	43	104	0	26	14498
2026-01-01 01:51:04.32	350.95	21.60	-33.2	-45.3	3.8	1.49e+00	0	43	104	0	26	14450
2026-01-01 01:51:05.32	350.75	21.69	-33.2	-45.2	3.8	1.49e+00	0	43	104	0	26	14397
2026-01-01 01:51:06.32	350.56	21.79	-33.1	-44.6	3.8	1.49e+00	0	43	104	0	26	13607
2026-01-01 01:51:07.32	350.36	21.88	-32.9	-44.5	3.8	1.49e+00	0	43	104	0	25	13565
2026-01-01 01:51:08.32	350.16	21.98	-33.0	-44.6	3.8	1.49e+00	0	43	104	0	25	13780
2026-01-01 01:51:09.32	349.97	22.07	-33.0	-44.6	3.8	1.49e+00	0	43	104	0	25	13829
2026-01-01 01:51:10.33	349.77	22.17	-33.0	-44.8	3.8	1.49e+00	0	43	104	0	25	14017
2026-01-01 01:51:11.33	349.56	22.26	-33.0	-44.9	3.8	1.49e+00	0	43	104	0	25	14226
2026-01-01 01:51:12.33	349.36	22.35	-33.0	-44.7	3.8	1.49e+00	0	43	104	0	26	13764
2026-01-01 01:51:13.33	349.16	22.45	-33.0	-44.8	3.8	1.49e+00	0	43	104	0	26	13986
2026-01-01 01:51:14.33	348.96	22.54	-33.1	-44.9	3.8	1.49e+00	0	43	104	0	26	14076
2026-01-01 01:51:15.33	348.75	22.64	-33.0	-44.9	3.8	1.49e+00	0	43	104	0	26	14055
2026-01-01 01:51:16.34	348.54	22.73	-33.0	-44.8	3.8	1.49e+00	0	43	104	0	26	13954
2026-01-01 01:51:17.34	348.33	22.82	-33.0	-44.6	3.8	1.49e+00	0	43	104	0	26	13605
2026-01-01 01:51:18.35	348.12	22.92	-33.0	-44.1	3.8	1.49e+00	0	43	104	0	26	12952
2026-01-01 01:51:19.35	347.91	23.01	-32.9	-43.9	3.8	1.49e+00	0	43	104	0	25	12771
2026-01-01 01:51:20.36	347.70	23.11	-32.9	-43.9	3.8	1.49e+00	0	43	104	0	25	12796
2026-01-01 01:51:21.36	347.48	23.20	-33.0	-44.7	3.8	1.49e+00	0	43	104	0	25	13919
2026-01-01 01:51:22.37	347.27	23.29	-33.0	-45.0	3.8	1.49e+00	0	43	104	0	26	14190
2026-01-01 01:51:23.38	347.05	23.39	-32.7	-42.2	3.9	1.49e+00	0	43	104	0	26	10705
2026-01-01 01:51:24.38	346.83	23.48	-31.9	-37.6	4.6	1.45e+00	0	43	104	0	25	6927
2026-01-01 01:51:25.37	346.62	23.57	-30.8	-34.1	8.8	1.08e-01	0	43	0	0	23	5243
2026-01-01 01:51:26.38	346.39	23.67	-30.0	-32.7	10.4	7.58e-03	0	43	0	3145728	21	4908
2026-01-01 01:51:27.38	346.17	23.76	-29.6	-31.9	11.3	1.51e-03	0	43	0	6291456	20	4742
2026-01-01 01:51:28.39	345.95	23.85	-29.6	-32.5	11.4	1.12e-03	0	43	0	9437184	19	5015
2026-01-01 01:51:29.39	345.72	23.95	-29.6	-32.6	11.2	1.24e-03	0	43	0	12582912	19	5081
2026-01-01 01:51:30.40	345.50	24.04	-29.6	-32.4	11.3	1.07e-03	0	43	0	15728640	19	5001
2026-01-01 01:51:31.40	345.27	24.13	-29.5	-32.4	11.4	1.12e-03	0	43	0	18874368	19	4981
2026-01-01 01:51:32.41	345.04	24.22	-29.5	-32.2	11.5	8.12e-04	0	43	0	22020096	19	4938
2026-01-01 01:51:33.41	344.81	24.32	-29.5	-32.3	11.4	1.19e-03	0	43	0	25165824	19	4968
2026-01-01 01:51:34.42	344.58	24.41	-29.2	-31.4	12.1	4.56e-04	0	43	0	28311552	19	4637
2026-01-01 01:51:35.42	344.35	24.50	-28.6	-30.4	13.0	5.34e-05	0	43	0	31457280	18	4432
2026-01-01 01:51:36.42	344.11	24.59	-28.0	-29.5	13.8	8.30e-06	0	43	0	34603008	17	4267
2026-01-01 01:51:37.42	343.88	24.68	-27.5	-28.8	14.6	2.20e-06	0	43	0	37748736	16	4167
2026-01-01 01:51:38.42	343.64	24.77	-26.9	-27.9	15.2	0.00e+00	0	43	0	40894464	15	4037
2026-01-01 01:51:39.43	343.40	24.86	-26.5	-27.5	15.7	0.00e+00	0	43	0	44040192	14	4054
2026-01-01 01:51:40.43	343.16	24.96	-25.4	-27.1	15.0	0.00e+00	0	43	0	47185920	12	4382
2026-01-01 01:51:41.44	342.92	25.05	-26.1	-27.7	16.1	0.00e+00	0	43	0	50331648	12	4306
2026-01-01 01:51:42.44	342.68	25.14	-26.3	-28.2	13.3	3.88e-03	0	43	0	53477376	12	4452
2026-01-01 01:51:43.45	342.43	25.23	-26.4	-28.4	14.7	0.00e+00	0	43	0	56623104	12	4509
2026-01-01 01:51:44.45	342.19	25.32	-26.4	-28.4	15.7	7.00e-07	0	43	0	59768832	12	4501
2026-01-01 01:51:45.45	341.94	25.41	-26.5	-28.4	15.6	0.00e+00	0	43	0	62914560	12	4516
2026-01-01 01:51:46.45	341.70	25.49	-26.7	-28.5	15.4	0.00e+00	0	43	0	66060288	13	4417
2026-01-01 01:51:47.46	341.45	25.58	-26.9	-29.0	15.1	0.00e+00	0	43	0	69206016	13	4559
2026-01-01 01:51:48.46	341.19	25.67	-26.9	-28.9	15.1	4.54e-03	0	43	0	72351744	13	4556
2026-01-01 01:51:49.47	340.94	25.76	-26.9	-28.9	15.1	0.00e+00	0	43	0	75497472	13	4546
2026-01-01 01:51:50.47	340.69	25.85	-27.0	-29.2	15.0	0.00e+00	0	43	0	78643200	13	4622
2026-01-01 01:51:51.47	340.43	25.93	-27.0	-28.7	15.0	0.00e+00	0	43	0	81788928	14	4383
2026-01-01 01:51:52.47	340.18	26.02	-26.9	-29.0	15.1	4.28e-03	0	43	0	84934656	13	4586
2026-01-01 01:51:53.48	339.92	26.11	-27.2	-29.2	14.7	7.00e-07	0	43	0	88080384	14	4513
2026-01-01 01:51:54.48	339.66	26.20	-27.3	-29.3	14.7	7.00e-07	0	43	0	91226112	14	4542
2026-01-01 01:51:55.48	339.40	26.28	-26.8	-28.7	15.3	0.00e+00	0	43	0	94371840	13	4477
2026-01-01 01:51:56.48	339.14	26.37	-26.5	-28.1	15.6	0.00e+00	0	43	0	97517568	13	4320
2026-01-01 01:51:57.48	338.88	26.45	-26.3	-28.2	15.9	4.06e-03	0	43	0	100663296	12	4448
2026-01-01 01:51:58.48	338.61	26.54	-26.3	-28.1	15.9	3.64e-03	0	43	0	103809024	12	4440
2026-01-01 01:51:59.48	338.35	26.62	-26.4	-28.4	15.8	0.00e+00	0	43	0	106954752	12	4497
2026-01-01 01:52:00.49	338.08	26.70	-26.4	-28.4	15.8	0.00e+00	0	43	0	110100480	12	4508
2026-01-01 01:52:01.49	337.81	26.79	-26.5	-28.0	15.7	0.00e+00	0	43	0	113246208	13	4285
2026-01-01 01:52:02.49	337.54	26.87	-26.6	-28.2	15.6	1.92e-04	0	43	0	116391936	13	4330
2026-01-01 01:52:03.50	337.26	26.95	-26.6	-28.1	15.6	3.90e-03	0	43	0	118489088	13	4323
2026-01-01 01:52:04.50	336.99	27.04	-26.5	-28.1	15.7	3.72e-03	0	43	0	121634816	13	4301
2026-01-01 01:52:05.50	336.72	27.12	-26.5	-28.0	15.7	2.85e-04	0	43	0	125829120	13	4288
2026-01-01 01:52:06.51	336.44	27.20	-26.5	-28.0	15.7	3.38e-03	0	43	0	128974848	13	4277
2026-01-01 01:52:07.51	336.16	27.28	-26.5	-28.1	15.6	3.08e-03	0	43	0	132120576	13	4309
2026-01-01 01:52:08.52	335.88	27.36	-26.9	-28.8	15.2	4.16e-04	0	43	0	135266304	13	4523
2026-01-01 01:52:09.51	335.60	27.44	-27.0	-28.5	15.1	2.36e-03	0	43	0	138412032	14	4325
2026-01-01 01:52:10.52	335.32	27.52	-26.9	-28.9	15.2	2.63e-03	0	43	0	141557760	13	4554
2026-01-01 01:52:11.52	335.03	27.60	-26.9	-28.5	15.2	0.00e+00	0	43	0	143654912	14	4317
2026-01-01 01:52:12.52	334.75	27.67	-26.6	-28.3	15.6	3.30e-03	0	43	0	146800640	13	4363
2026-01-01 01:52:13.52	334.46	27.75	-26.4	-28.4	15.8	2.98e-03	0	43	0	149946368	12	4499
2026-01-01 01:52:14.53	334.17	27.83	-26.4	-28.3	15.8	6.56e-04	0	43	0	153092096	12	4485
2026-01-01 01:52:15.53	333.89	27.91	-26.4	-28.4	15.8	9.82e-04	0	43	0	156237824	12	4495
2026-01-01 01:52:16.53	333.60	27.98	-26.5	-28.0	15.7	0.00e+00	0	43	0	159383552	13	4280
2026-01-01 01:52:17.54	333.30	28.06	-26.6	-28.3	15.6	1.17e-03	0	43	0	162529280	13	4355
2026-01-01 01:52:18.54	333.01	28.13	-26.6	-28.3	15.5	6.47e-04	0	43	0	165675008	13	4376
2026-01-01 01:52:19.54	332.72	28.20	-26.6	-28.2	15.6	2.97e-03	0	43	0	168820736	13	4327
2026-01-01 01:52:20.55	332.42	28.28	-26.6	-28.2	15.6	1.87e-03	0	43	0	171966464	13	4348
2026-01-01 01:52:21.56	332.12	28.35	-26.7	-28.5	15.4	0.00e+00	0	43	0	175112192	13	4426
2026-01-01 01:52:22.55	331.82	28.42	-26.7	-28.5	15.5	0.00e+00	0	43	0	178257920	13	4424
2026-01-01 01:52:23.55	331.52	28.49	-26.8	-28.6	15.4	1.60e-03	0	43	0	181403648	13	4456
2026-01-01 01:52:24.55	331.22	28.56	-26.8	-28.7	15.4	3.23e-03	0	43	0	184549376	13	4471
2026-01-01 01:52:25.55	330.92	28.63	-26.7	-28.4	15.5	2.41e-03	0	43	0	187695104	13	4384
2026-01-01 01:52:26.56	330.62	28.70	-26.7	-28.4	15.5	0.00e+00	0	43	0	190840832	13	4386
2026-01-01 01:52:27.55	330.31	28.77	-26.5	-28.0	15.7	0.00e+00	0	43	0	193986560	13	4281
2026-01-01 01:52:28.55	330.01	28.84	-26.4	-28.2	15.9	0.00e+00	0	43	0	197132288	12	4457
2026-01-01 01:52:29.56	329.70	28.90	-26.4	-28.2	15.7	2.30e-03	0	43	0	200278016	12	4442
2026-01-01 01:52:30.56	329.39	28.97	-26.4	-28.3	15.7	3.03e-03	0	43	0	203423744	12	4471
2026-01-01 01:52:31.56	329.08	29.03	-26.4	-28.3	15.8	0.00e+00	0	43	0	206569472	12	4489
2026-01-01 01:52:32.57	328.77	29.10	-26.5	-28.4	15.8	0.00e+00	0	43	0	209715200	12	4516
2026-01-01 01:52:33.57	328.45	29.16	-26.7	-28.5	15.5	6.16e-04	0	43	0	212860928	13	4414
2026-01-01 01:52:34.57	328.14	29.22	-26.8	-28.7	15.4	3.48e-03	0	43	0	216006656	13	4470
2026-01-01 01:52:35.58	327.82	29.29	-26.7	-28.5	15.5	0.00e+00	0	43	0	219152384	13	4412
2026-01-01 01:52:36.58	327.51	29.35	-26.7	-28.4	15.6	0.00e+00	0	43	0	222298112	13	4375
2026-01-01 01:52:37.59	327.19	29.41	-26.8	-28.7	15.4	0.00e+00	0	43	0	225443840	13	4468
2026-01-01 01:52:38.59	326.87	29.47	-27.0	-29.1	15.1	2.11e-03	0	43	0	228589568	13	4597
2026-01-01 01:52:39.60	326.54	29.53	-27.1	-28.7	15.1	1.72e-03	0	43	0	231735296	14	4375
2026-01-01 01:52:40.60	326.22	29.58	-27.1	-28.8	15.0	0.00e+00	0	43	0	234881024	14	4404
2026-01-01 01:52:41.61	325.90	29.64	-26.9	-28.9	15.3	0.00e+00	0	43	0	238026752	13	4530
2026-01-01 01:52:42.61	325.58	29.70	-26.8	-28.6	15.4	0.00e+00	0	43	0	241172480	13	4448
2026-01-01 01:52:43.61	325.25	29.75	-26.7	-28.3	15.6	0.00e+00	0	43	0	244318208	13	4372
2026-01-01 01:52:44.61	324.93	29.80	-26.8	-28.7	15.4	1.12e-04	0	43	0	247463936	13	4463
2026-01-01 01:52:45.61	324.60	29.86	-26.8	-28.6	15.4	1.96e-04	0	43	0	250609664	13	4458
2026-01-01 01:52:46.61	324.27	29.91	-26.8	-28.8	15.3	0.00e+00	0	43	0	253755392	13	4499
2026-01-01 01:52:47.62	323.94	29.96	-26.8	-28.6	15.4	0.00e+00	0	43	0	256901120	13	4437
2026-01-01 01:52:48.62	323.61	30.01	-26.7	-28.4	15.5	5.84e-04	0	43	0	260046848	13	4392
2026-01-01 01:52:49.62	323.28	30.06	-26.7	-28.5	15.5	0.00e+00	0	43	0	263192576	13	4419
2026-01-01 01:52:50.63	322.95	30.11	-26.8	-28.8	15.3	6.16e-04	0	43	0	266338304	13	4494
2026-01-01 01:52:51.62	322.62	30.15	-26.9	-28.9	15.3	6.95e-04	0	43	0	269484032	13	4526
2026-01-01 01:52:52.63	322.28	30.20	-26.9	-28.9	15.3	0.00e+00	0	43	0	272629760	13	4536
2026-01-01 01:52:53.63	321.94	30.24	-26.9	-28.8	15.3	9.68e-04	0	43	0	275775488	13	4516
2026-01-01 01:52:54.64	321.61	30.29	-26.9	-28.8	15.3	8.89e-04	0	43	0	278921216	13	4505
2026-01-01 01:52:55.64	321.27	30.33	-26.9	-28.8	15.3	0.00e+00	0	43	0	282066944	13	4507
2026-01-01 01:52:56.64	320.93	30.37	-26.9	-28.9	15.3	1.09e-03	0	43	0	285212672	13	4522
2026-01-01 01:52:57.65	320.59	30.41	-27.1	-28.7	15.1	1.22e-03	0	43	0	288358400	14	4373
2026-01-01 01:52:58.64	320.26	30.45	-26.9	-28.8	15.3	0.00e+00	0	43	0	291504128	13	4510
2026-01-01 01:52:59.65	319.91	30.49	-26.8	-28.8	15.3	9.92e-04	0	43	0	294649856	13	4499
2026-01-01 01:53:00.65	319.57	30.53	-27.1	-28.8	15.1	6.17e-04	0	43	0	297795584	14	4399
2026-01-01 01:53:01.66	319.23	30.57	-27.2	-29.0	15.0	0.00e+00	0	43	0	300941312	14	4442
2026-01-01 01:53:02.66	318.89	30.60	-27.3	-29.2	14.9	0.00e+00	0	43	0	304087040	14	4510
2026-01-01 01:53:03.66	318.54	30.64	-27.2	-29.2	14.8	1.65e-04	0	43	0	307232768	14	4506
2026-01-01 01:53:04.66	318.20	30.67	-27.4	-29.5	14.7	1.50e-06	0	43	0	310378496	14	4593
2026-01-01 01:53:05.67	317.85	30.70	-27.3	-29.4	14.8	3.13e-04	0	43	0	313524224	14	4562
2026-01-01 01:53:06.67	317.51	30.73	-27.2	-29.1	14.9	3.94e-04	0	43	0	316669952	14	4481
2026-01-01 01:53:07.67	317.16	30.76	-27.2	-29.1	14.9	0.00e+00	0	43	0	319815680	14	4478
2026-01-01 01:53:08.68	316.81	30.79	-27.2	-29.0	15.0	0.00e+00	0	43	0	322961408	14	4455
2026-01-01 01:53:09.69	316.46	30.82	-27.3	-29.4	14.8	6.17e-04	0	43	0	326107136	14	4570
2026-01-01 01:53:10.69	316.11	30.84	-27.2	-29.0	14.9	0.00e+00	0	43	0	329252864	14	4454
2026-01-01 01:53:11.69	315.76	30.87	-27.0	-28.6	15.2	4.32e-04	0	43	0	332398592	14	4340
2026-01-01 01:53:12.70	315.41	30.89	-26.8	-28.7	15.4	0.00e+00	0	43	0	335544320	13	4470
2026-01-01 01:53:13.70	315.06	30.91	-26.7	-28.4	15.6	0.00e+00	0	43	0	338690048	13	4372
2026-01-01 01:53:14.70	314.71	30.94	-26.6	-28.3	15.6	3.71e-04	0	43	0	341835776	13	4352
2026-01-01 01:53:15.70	314.36	30.96	-26.6	-28.2	15.6	3.89e-04	0	43	0	344981504	13	4337
2026-01-01 01:53:16.70	314.01	30.98	-26.7	-28.4	15.6	0.00e+00	0	43	0	348127232	13	4390
2026-01-01 01:53:17.71	313.66	30.99	-26.8	-28.6	15.5	0.00e+00	0	43	0	351272960	13	4442
2026-01-01 01:53:18.72	313.30	31.01	-26.7	-28.4	15.6	0.00e+00	0	43	0	354418688	13	4376
2026-01-01 01:53:19.72	312.95	31.03	-26.7	-28.4	15.6	0.00e+00	0	43	0	357564416	13	4393
2026-01-01 01:53:20.72	312.60	31.04	-26.8	-28.6	15.4	0.00e+00	0	43	0	360710144	13	4451
2026-01-01 01:53:21.72	312.25	31.05	-26.8	-28.7	15.3	4.09e-04	0	43	0	363855872	13	4487
2026-01-01 01:53:22.73	311.89	31.06	-26.9	-29.0	15.3	0.00e+00	0	43	0	367001600	13	4549
2026-01-01 01:53:23.73	311.54	31.07	-27.1	-28.8	15.2	0.00e+00	0	43	0	370147328	14	4378
2026-01-01 01:53:24.73	311.19	31.08	-27.1	-28.7	15.1	0.00e+00	0	43	0	373293056	14	4375
2026-01-01 01:53:25.73	310.83	31.09	-27.1	-28.7	15.2	0.00e+00	0	43	0	376438784	14	4369
2026-01-01 01:53:26.73	310.48	31.10	-27.2	-29.0	15.0	0.00e+00	0	43	0	379584512	14	4467
2026-01-01 01:53:27.74	310.12	31.10	-27.5	-29.7	14.6	0.00e+00	0	43	0	382730240	14	4660
2026-01-01 01:53:28.75	309.77	31.11	-27.4	-29.0	14.7	7.00e-07	0	43	0	385875968	15	4345
2026-01-01 01:53:29.75	309.41	31.11	-27.5	-29.8	14.5	1.50e-06	0	43	0	389021696	14	4675
2026-01-01 01:53:30.75	309.06	31.11	-27.5	-29.3	14.5	0.00e+00	0	43	0	392167424	15	4422
2026-01-01 01:53:31.75	308.70	31.11	-27.8	-29.9	14.2	3.00e-06	0	43	0	395313152	15	4607
2026-01-01 01:53:32.76	308.35	31.11	-27.5	-29.3	14.5	7.00e-07	0	43	0	398458880	15	4427
2026-01-01 01:53:33.76	307.99	31.11	-27.3	-28.8	14.8	0.00e+00	0	43	0	401604608	15	4294
2026-01-01 01:53:34.77	307.64	31.11	-27.1	-28.9	15.1	0.00e+00	0	43	0	404750336	14	4417
2026-01-01 01:53:35.77	307.28	31.10	-26.0	-27.5	14.3	0.00e+00	0	43	0	407896064	14	4286
2026-01-01 01:53:36.77	306.93	31.10	-26.6	-28.3	14.0	0.00e+00	0	43	0	411041792	13	4367
2026-01-01 01:53:37.77	306.58	31.09	-26.7	-28.5	14.5	6.10e-04	0	43	0	414187520	13	4412
2026-01-01 01:53:38.77	306.22	31.08	-26.9	-28.9	14.4	0.00e+00	0	43	0	417333248	13	4535
2026-01-01 01:53:39.77	305.87	31.07	-26.9	-28.9	15.1	0.00e+00	0	43	0	419430400	13	4524
2026-01-01 01:53:40.77	305.52	31.06	-27.0	-28.6	15.2	7.00e-07	0	43	0	422576128	14	4349
2026-01-01 01:53:41.78	305.16	31.05	-27.2	-29.1	14.9	0.00e+00	0	43	0	425721856	14	4483
2026-01-01 01:53:42.78	304.81	31.04	-27.2	-29.1	14.9	4.30e-03	0	43	0	428867584	14	4476
2026-01-01 01:53:43.78	304.46	31.03	-27.1	-28.8	15.1	0.00e+00	0	43	0	432013312	14	4401
2026-01-01 01:53:44.79	304.10	31.01	-27.2	-29.0	15.0	7.00e-07	0	43	0	435159040	14	4451
2026-01-01 01:53:45.78	303.75	30.99	-27.0	-29.0	15.2	0.00e+00	0	43	0	438304768	13	4566
2026-01-01 01:53:46.79	303.40	30.98	-26.7	-28.5	15.5	0.00e+00	0	43	0	441450496	13	4419
2026-01-01 01:53:47.79	303.05	30.96	-26.8	-28.6	15.4	3.54e-03	0	43	0	444596224	13	4453
2026-01-01 01:53:48.80	302.69	30.94	-26.8	-28.6	15.5	3.91e-03	0	43	0	447741952	13	4431
2026-01-01 01:53:49.80	302.34	30.92	-26.6	-28.1	15.7	0.00e+00	0	43	0	450887680	13	4310
2026-01-01 01:53:50.80	301.99	30.89	-26.5	-28.4	15.8	0.00e+00	0	43	0	454033408	12	4504
2026-01-01 01:53:51.81	301.64	30.87	-26.6	-28.2	15.6	0.00e+00	0	43	0	457179136	13	4347
2026-01-01 01:53:52.81	301.29	30.84	-26.9	-28.8	15.3	3.59e-04	0	43	0	460324864	13	4514
2026-01-01 01:53:53.82	300.94	30.82	-26.9	-29.0	15.3	3.89e-03	0	43	0	463470592	13	4555
2026-01-01 01:53:54.83	300.59	30.79	-27.0	-29.1	15.2	3.50e-03	0	43	0	466616320	13	4589
2026-01-01 01:53:55.83	300.24	30.76	-27.0	-29.0	15.2	0.00e+00	0	43	0	469762048	13	4578
2026-01-01 01:53:56.84	299.90	30.73	-27.0	-29.1	15.2	0.00e+00	0	43	0	472907776	13	4578
2026-01-01 01:53:57.83	299.55	30.70	-26.8	-28.6	15.5	3.86e-03	0	43	0	476053504	13	4436
2026-01-01 01:53:58.84	299.21	30.67	-26.8	-28.7	15.4	6.03e-04	0	43	0	479199232	13	4468
2026-01-01 01:53:59.83	298.86	30.64	-27.0	-28.7	15.2	3.92e-03	0	43	0	482344960	14	4352
2026-01-01 01:54:00.83	298.52	30.60	-27.2	-29.0	15.0	0.00e+00	0	43	0	485490688	14	4460
2026-01-01 01:54:01.84	298.18	30.57	-27.1	-28.9	15.0	0.00e+00	0	43	0	488636416	14	4420
2026-01-01 01:54:02.85	297.83	30.53	-27.0	-28.7	15.1	3.88e-03	0	43	0	491782144	14	4362
2026-01-01 01:54:03.85	297.49	30.49	-26.8	-28.8	15.3	3.62e-03	0	43	0	494927872	13	4495
2026-01-01 01:54:04.86	297.15	30.45	-26.6	-28.2	15.7	6.66e-04	0	43	0	498073600	13	4330
2026-01-01 01:54:05.86	296.81	30.41	-26.6	-28.1	15.7	3.68e-03	0	43	0	501219328	13	4317
2026-01-01 01:54:06.87	296.46	30.37	-26.7	-28.5	15.4	2.21e-03	0	43	0	504365056	13	4434
2026-01-01 01:54:07.87	296.13	30.33	-26.6	-28.2	15.7	4.69e-04	0	43	0	507510784	13	4332
2026-01-01 01:54:08.87	295.79	30.29	-26.5	-28.0	15.7	4.43e-03	0	43	0	510656512	13	4276
2026-01-01 01:54:09.88	295.45	30.24	-26.7	-28.4	15.6	4.22e-03	0	43	0	513802240	13	4384
2026-01-01 01:54:10.88	295.12	30.20	-26.6	-28.3	15.6	8.59e-04	0	43	0	516947968	13	4357
2026-01-01 01:54:11.88	294.78	30.15	-26.9	-28.9	15.3	0.00e+00	0	43	0	520093696	13	4519
2026-01-01 01:54:12.89	294.45	30.11	-27.1	-28.8	15.0	3.51e-03	0	43	0	523239424	14	4401
2026-01-01 01:54:13.89	294.11	30.06	-27.3	-29.4	14.7	3.02e-04	0	43	0	526385152	14	4580
2026-01-01 01:54:14.89	293.78	30.01	-27.5	-29.7	14.5	3.88e-03	0	43	0	529530880	14	4656
2026-01-01 01:54:15.89	293.45	29.96	-27.1	-28.9	15.0	4.47e-03	0	43	0	532676608	14	4424
2026-01-01 01:54:16.90	293.12	29.91	-27.0	-28.5	15.2	0.00e+00	0	43	0	535822336	14	4305
2026-01-01 01:54:17.91	292.79	29.85	-27.0	-29.0	15.2	0.00e+00	0	43	0	538968064	13	4571
2026-01-01 01:54:18.91	292.46	29.80	-27.1	-28.8	15.0	0.00e+00	0	43	0	542113792	14	4397
2026-01-01 01:54:19.92	292.13	29.75	-27.2	-29.1	14.9	3.45e-04	0	43	0	545259520	14	4478
2026-01-01 01:54:20.93	291.80	29.69	-27.3	-29.4	14.7	4.28e-03	0	43	0	548405248	14	4582
2026-01-01 01:54:21.93	291.48	29.64	-27.2	-29.2	14.8	0.00e+00	0	43	0	551550976	14	4521
2026-01-01 01:54:22.93	291.16	29.58	-27.0	-28.7	15.1	0.00e+00	0	43	0	554696704	14	4375
2026-01-01 01:54:23.93	290.84	29.52	-26.8	-28.7	15.4	9.68e-05	0	43	0	557842432	13	4480
2026-01-01 01:54:24.93	290.52	29.46	-26.6	-28.2	15.6	4.78e-03	0	43	0	560988160	13	4340
2026-01-01 01:54:25.93	290.20	29.41	-26.7	-28.5	15.5	4.44e-04	0	43	0	564133888	13	4407
2026-01-01 01:54:26.94	289.88	29.34	-26.8	-28.7	15.4	0.00e+00	0	43	0	567279616	13	4487
2026-01-01 01:54:27.95	289.56	29.28	-27.0	-29.1	15.1	0.00e+00	0	43	0	570425344	13	4609
2026-01-01 01:54:28.95	289.24	29.22	-27.0	-28.7	15.1	2.77e-04	0	43	0	573571072	14	4379
2026-01-01 01:54:29.95	288.93	29.16	-27.1	-28.8	15.0	2.96e-04	0	43	0	576716800	14	4401
2026-01-01 01:54:30.96	288.61	29.09	-26.9	-28.8	15.3	3.72e-03	0	43	0	579862528	13	4519
2026-01-01 01:54:31.95	288.30	29.03	-26.6	-28.3	15.5	0.00e+00	0	43	0	583008256	13	4372
2026-01-01 01:54:32.96	287.99	28.96	-26.5	-28.1	15.7	1.62e-04	0	43	0	586153984	13	4295
2026-01-01 01:54:33.96	287.68	28.90	-26.4	-28.3	15.8	0.00e+00	0	43	0	589299712	12	4464
2026-01-01 01:54:34.97	287.37	28.83	-26.3	-28.0	16.0	9.90e-06	0	43	0	592445440	12	4379
2026-01-01 01:54:35.97	287.06	28.76	-26.3	-28.1	15.9	1.21e-04	0	43	0	595591168	12	4424
2026-01-01 01:54:36.98	286.75	28.70	-26.4	-28.3	15.8	0.00e+00	0	43	0	598736896	12	4470
2026-01-01 01:54:37.99	286.45	28.63	-26.7	-28.4	15.5	1.21e-04	0	43	0	601882624	13	4392
2026-01-01 01:54:38.99	286.14	28.56	-26.6	-28.3	15.6	1.08e-04	0	43	0	605028352	13	4360
2026-01-01 01:54:40.00	285.84	28.48	-26.6	-28.2	15.6	0.00e+00	0	43	0	608174080	13	4346
2026-01-01 01:54:41.00	285.54	28.41	-26.5	-28.0	15.7	3.38e-04	0	43	0	611319808	13	4291
2026-01-01 01:54:42.00	285.24	28.34	-26.6	-28.2	15.6	5.73e-04	0	43	0	614465536	13	4336
2026-01-01 01:54:43.00	284.94	28.27	-26.3	-28.0	16.0	0.00e+00	0	43	0	617611264	12	4382
2026-01-01 01:54:44.00	284.65	28.20	-26.2	-27.8	16.1	8.59e-04	0	43	0	620756992	12	4347
2026-01-01 01:54:45.00	284.35	28.12	-26.3	-28.1	15.9	6.38e-04	0	43	0	623902720	12	4425
2026-01-01 01:54:46.00	284.06	28.05	-26.3	-28.1	15.9	0.00e+00	0	43	0	627048448	12	4408
2026-01-01 01:54:47.01	283.77	27.97	-26.6	-28.3	15.5	1.65e-04	0	43	0	630194176	13	4371
2026-01-01 01:54:48.00	283.48	27.90	-26.7	-28.5	15.4	0.00e+00	0	43	0	633339904	13	4440
2026-01-01 01:54:49.00	283.19	27.82	-27.0	-29.1	15.1	0.00e+00	0	43	0	636485632	13	4593
2026-01-01 01:54:50.00	282.90	27.74	-27.2	-29.1	14.8	1.46e-04	0	43	0	639631360	14	4506
2026-01-01 01:54:51.01	282.61	27.67	-27.3	-29.3	14.6	1.96e-04	0	43	0	642777088	14	4550
2026-01-01 01:54:52.02	282.32	27.59	-26.8	-28.2	15.3	7.00e-07	0	43	0	645922816	14	4235
2026-01-01 01:54:53.01	282.04	27.51	-26.5	-27.4	15.7	0.00e+00	0	43	0	649068544	14	4029
2026-01-01 01:54:54.02	281.76	27.43	-26.3	-27.1	15.9	0.00e+00	0	43	0	652214272	14	3938
2026-01-01 01:54:55.02	281.48	27.35	-26.4	-27.3	15.8	0.00e+00	0	43	0	655360000	14	3999
2026-01-01 01:54:56.02	281.20	27.27	-26.5	-27.6	15.6	0.00e+00	0	43	0	658505728	14	4081
2026-01-01 01:54:57.03	280.92	27.19	-26.5	-28.0	15.7	0.00e+00	0	43	0	661651456	13	4283
2026-01-01 01:54:58.03	280.64	27.11	-26.5	-28.1	15.6	0.00e+00	0	43	0	664797184	13	4323
2026-01-01 01:54:59.03	280.37	27.03	-26.3	-27.5	15.9	0.00e+00	0	43	0	667942912	13	4157
2026-01-01 01:55:00.03	280.09	26.94	-26.1	-27.5	16.2	0.00e+00	0	43	0	671088640	12	4267
2026-01-01 01:55:01.03	279.82	26.86	-25.8	-27.1	16.4	0.00e+00	0	43	0	674234368	12	4145
2026-01-01 01:55:02.04	279.55	26.78	-25.8	-27.5	16.5	0.00e+00	0	43	0	677380096	11	4364
2026-01-01 01:55:03.04	279.28	26.69	-25.5	-26.8	16.9	3.80e-06	0	43	0	680525824	11	4169
2026-01-01 01:55:04.04	279.01	26.61	-25.6	-26.9	16.8	0.00e+00	0	43	0	683671552	11	4212
2026-01-01 01:55:05.04	278.74	26.52	-25.9	-27.7	16.4	0.00e+00	0	43	0	686817280	11	4425
2026-01-01 01:55:06.05	278.48	26.44	-26.0	-27.4	16.3	5.16e-04	0	43	0	689963008	12	4232
2026-01-01 01:55:07.05	278.21	26.35	-26.4	-28.3	15.7	0.00e+00	0	43	0	693108736	12	4476
2026-01-01 01:55:08.06	277.95	26.27	-26.4	-28.4	15.7	0.00e+00	0	43	0	696254464	12	4504
2026-01-01 01:55:09.06	277.69	26.18	-26.5	-28.1	15.6	7.00e-07	0	43	0	699400192	13	4318
2026-01-01 01:55:10.06	277.43	26.09	-26.4	-27.7	15.7	0.00e+00	0	43	0	702545920	13	4222
2026-01-01 01:55:11.06	277.17	26.01	-26.2	-27.8	16.0	0.00e+00	0	43	0	705691648	12	4350
2026-01-01 01:55:12.07	276.91	25.92	-25.7	-26.8	16.5	3.00e-06	0	43	0	708837376	12	4083
2026-01-01 01:55:13.07	276.65	25.83	-25.6	-26.9	16.8	0.00e+00	0	43	0	711983104	11	4207
2026-01-01 01:55:14.07	276.40	25.74	-25.7	-27.2	16.6	0.00e+00	0	43	0	715128832	11	4281
2026-01-01 01:55:15.07	276.15	25.66	-25.7	-27.3	16.6	4.50e-06	0	43	0	718274560	11	4314
2026-01-01 01:55:16.07	275.90	25.57	-25.8	-27.5	16.5	0.00e+00	0	43	0	720371712	11	4354
2026-01-01 01:55:17.06	275.65	25.48	-26.1	-27.7	16.0	0.00e+00	0	43	0	723517440	12	4322
2026-01-01 01:55:18.07	275.40	25.39	-26.2	-27.9	15.9	5.30e-06	0	43	0	726663168	12	4359
2026-01-01 01:55:19.07	275.15	25.30	-27.0	-28.6	15.6	0.00e+00	0	43	0	729808896	13	4340
2026-01-01 01:55:20.07	274.91	25.21	-26.4	-27.9	15.6	0.00e+00	0	43	0	732954624	13	4257
2026-01-01 01:55:21.07	274.66	25.12	-26.4	-28.3	15.7	0.00e+00	0	43	0	736100352	12	4484
2026-01-01 01:55:22.08	274.42	25.03	-26.2	-28.0	15.8	0.00e+00	0	43	0	739246080	12	4393
2026-01-01 01:55:23.08	274.18	24.94	-26.1	-27.6	16.1	0.00e+00	0	43	0	742391808	12	4297
2026-01-01 01:55:24.08	273.94	24.85	-26.0	-27.5	16.1	9.10e-06	0	43	0	745537536	12	4263
2026-01-01 01:55:25.08	273.70	24.76	-26.2	-27.9	15.9	0.00e+00	0	43	0	748683264	12	4373
2026-01-01 01:55:26.08	273.46	24.67	-26.3	-28.0	15.8	0.00e+00	0	43	0	751828992	12	4413
2026-01-01 01:55:27.08	273.23	24.58	-26.5	-28.5	15.5	7.60e-06	0	43	0	754974720	12	4554
2026-01-01 01:55:28.09	272.99	24.48	-26.5	-28.0	15.5	0.00e+00	0	43	0	758120448	13	4297
2026-01-01 01:55:29.09	272.76	24.39	-26.5	-28.1	15.4	0.00e+00	0	43	0	761266176	13	4331
2026-01-01 01:55:30.09	272.53	24.30	-26.6	-28.2	15.4	0.00e+00	0	43	0	764411904	13	4343
2026-01-01 01:55:31.09	272.30	24.21	-26.4	-27.8	15.7	0.00e+00	0	43	0	767557632	13	4234
2026-01-01 01:55:32.10	272.06	24.11	-26.3	-27.6	15.8	0.00e+00	0	43	0	770703360	13	4178
2026-01-01 01:55:33.10	271.84	24.02	-25.7	-27.7	15.7	0.00e+00	0	43	0	773849088	12	4516
2026-01-01 01:55:34.11	271.61	23.93	-26.3	-28.0	15.8	0.00e+00	0	43	0	776994816	12	4403
2026-01-01 01:55:35.11	271.38	23.84	-26.3	-28.0	13.6	0.00e+00	0	43	0	780140544	12	4406
2026-01-01 01:55:36.11	271.16	23.74	-26.4	-28.4	13.9	0.00e+00	0	43	0	783286272	12	4526
2026-01-01 01:55:37.12	270.94	23.65	-26.6	-28.3	15.4	0.00e+00	0	43	0	786432000	13	4366
2026-01-01 01:55:38.13	270.71	23.55	-26.8	-28.8	15.0	0.00e+00	0	43	0	789577728	13	4529
2026-01-01 01:55:39.13	270.49	23.46	-26.8	-28.7	15.1	0.00e+00	0	43	0	792723456	13	4489
2026-01-01 01:55:40.13	270.28	23.37	-27.1	-28.9	14.8	0.00e+00	0	43	0	795869184	14	4439
2026-01-01 01:55:41.13	270.06	23.27	-26.8	-28.7	15.1	0.00e+00	0	43	0	799014912	13	4502
2026-01-01 01:55:42.12	269.85	23.18	-26.5	-28.1	15.5	0.00e+00	0	43	0	802160640	13	4317
2026-01-01 01:55:43.12	269.63	23.09	-26.2	-27.5	15.8	0.00e+00	0	43	0	805306368	13	4148
2026-01-01 01:55:44.13	269.42	22.99	-26.1	-27.6	16.0	8.44e-04	0	43	0	808452096	12	4291
2026-01-01 01:55:45.14	269.20	22.90	-25.9	-27.2	16.2	0.00e+00	0	43	0	811597824	12	4188
2026-01-01 01:55:46.14	268.99	22.80	-26.0	-27.3	16.2	0.00e+00	0	43	0	814743552	12	4214
2026-01-01 01:55:47.15	268.78	22.71	-25.9	-27.7	16.3	0.00e+00	0	43	0	817889280	11	4422
2026-01-01 01:55:48.15	268.57	22.61	-25.9	-27.3	16.2	3.24e-03	0	43	0	821035008	12	4200
2026-01-01 01:55:49.16	268.37	22.52	-25.8	-27.1	16.3	3.80e-06	0	43	0	824180736	12	4148
2026-01-01 01:55:50.15	268.16	22.43	-25.9	-27.8	16.2	4.32e-03	0	43	0	827326464	11	4455
2026-01-01 01:55:51.16	267.96	22.33	-26.0	-27.4	16.1	0.00e+00	0	43	0	830472192	12	4248
2026-01-01 01:55:52.16	267.75	22.24	-26.1	-27.7	15.9	0.00e+00	0	43	0	833617920	12	4324
2026-01-01 01:55:53.16	267.55	22.14	-26.2	-27.9	15.8	4.54e-03	0	43	0	836763648	12	4385
2026-01-01 01:55:54.16	267.35	22.05	-26.3	-28.2	15.6	5.00e-03	0	43	0	839909376	12	4469
2026-01-01 01:55:55.16	267.15	21.95	-26.3	-28.2	15.7	9.79e-04	0	43	0	843055104	12	4469
2026-01-01 01:55:56.17	266.95	21.86	-26.3	-28.2	15.6	5.27e-03	0	43	0	846200832	12	4467
2026-01-01 01:55:57.18	266.76	21.76	-26.5	-28.1	15.4	0.00e+00	0	43	0	849346560	13	4316
2026-01-01 01:55:58.18	266.56	21.67	-26.4	-28.4	15.5	7.96e-04	0	43	0	852492288	12	4520
2026-01-01 01:55:59.19	266.36	21.57	-26.4	-28.4	15.5	4.92e-03	0	43	0	855638016	12	4531
2026-01-01 01:56:00.19	266.17	21.48	-26.2	-28.0	15.7	4.60e-03	0	43	0	858783744	12	4404
2026-01-01 01:56:01.19	265.98	21.38	-26.1	-27.7	15.9	5.61e-04	0	43	0	861929472	12	4332
2026-01-01 01:56:02.19	265.79	21.29	-26.2	-27.9	15.7	8.08e-03	0	43	0	865075200	12	4384
2026-01-01 01:56:03.20	265.60	21.19	-26.4	-28.3	15.5	5.17e-03	0	43	0	868220928	12	4491
2026-01-01 01:56:04.20	265.41	21.10	-26.2	-27.9	15.7	6.37e-04	0	43	0	871366656	12	4375
2026-01-01 01:56:05.20	265.22	21.01	-26.2	-27.8	15.8	5.22e-03	0	43	0	874512384	12	4358
2026-01-01 01:56:06.20	265.04	20.91	-26.1	-27.8	15.8	5.14e-03	0	43	0	877658112	12	4346
2026-01-01 01:56:07.20	264.85	20.82	-26.3	-28.1	15.7	4.04e-03	0	43	0	880803840	12	4426
2026-01-01 01:56:08.21	264.67	20.72	-26.2	-28.0	15.7	4.76e-03	0	43	0	883949568	12	4396
2026-01-01 01:56:09.21	264.48	20.63	-26.3	-28.1	15.6	4.22e-03	0	43	0	887095296	12	4444
2026-01-01 01:56:10.21	264.30	20.53	-26.4	-28.4	15.4	2.78e-04	0	43	0	890241024	12	4535
2026-01-01 01:56:11.22	264.12	20.44	-26.7	-28.5	15.1	2.53e-03	0	43	0	893386752	13	4438
2026-01-01 01:56:12.23	263.94	20.34	-26.8	-28.9	14.9	8.88e-04	0	43	0	896532480	13	4551
2026-01-01 01:56:13.24	263.76	20.25	-26.5	-28.2	15.2	2.12e-03	0	43	0	899678208	13	4357
2026-01-01 01:56:14.23	263.58	20.15	-26.3	-28.1	15.6	3.37e-03	0	43	0	902823936	12	4430
2026-01-01 01:56:15.23	263.41	20.06	-26.1	-27.7	15.8	3.67e-03	0	43	0	905969664	12	4339
2026-01-01 01:56:16.24	263.23	19.97	-26.1	-27.7	15.8	9.08e-04	0	43	0	909115392	12	4324
2026-01-01 01:56:17.25	263.06	19.87	-26.2	-27.9	15.7	4.11e-03	0	43	0	912261120	12	4374
2026-01-01 01:56:18.24	262.89	19.78	-26.0	-27.6	15.9	0.00e+00	0	43	0	915406848	12	4289
2026-01-01 01:56:19.25	262.71	19.68	-26.0	-27.5	15.9	1.27e-04	0	43	0	918552576	12	4260
2026-01-01 01:56:20.25	262.54	19.59	-26.0	-27.5	15.9	3.69e-03	0	43	0	921698304	12	4276
2026-01-01 01:56:21.25	262.37	19.50	-26.1	-27.7	15.8	3.94e-03	0	43	0	924844032	12	4345
2026-01-01 01:56:22.26	262.20	19.40	-26.2	-27.8	15.7	5.67e-04	0	43	0	927989760	12	4357
2026-01-01 01:56:23.26	262.04	19.31	-26.2	-27.9	15.7	6.71e-04	0	43	0	931135488	12	4395
2026-01-01 01:56:24.26	261.87	19.22	-26.1	-27.8	15.7	0.00e+00	0	43	0	934281216	12	4354
2026-01-01 01:56:25.25	261.71	19.12	-25.9	-27.2	16.1	5.51e-04	0	43	0	937426944	12	4193
2026-01-01 01:56:26.25	261.54	19.03	-25.8	-27.6	16.2	2.83e-03	0	43	0	940572672	11	4402
2026-01-01 01:56:27.25	261.38	18.94	-25.8	-27.4	16.3	0.00e+00	0	43	0	943718400	11	4348
2026-01-01 01:56:28.26	261.21	18.84	-25.7	-27.2	16.4	1.07e-04	0	43	0	946864128	11	4292
2026-01-01 01:56:29.26	261.05	18.75	-25.8	-27.4	16.3	1.87e-04	0	43	0	950009856	11	4349
2026-01-01 01:56:30.26	260.89	18.66	-26.0	-27.9	16.0	0.00e+00	0	43	0	953155584	11	4498
2026-01-01 01:56:31.26	260.73	18.57	-26.2	-28.0	15.6	7.00e-07	0	43	0	956301312	12	4405
2026-01-01 01:56:32.26	260.58	18.47	-26.5	-28.2	15.2	9.10e-06	0	43	0	959447040	13	4365
2026-01-01 01:56:33.26	260.42	18.38	-26.7	-28.6	15.0	0.00e+00	0	43	0	962592768	13	4495
2026-01-01 01:56:34.27	260.26	18.29	-26.9	-29.1	14.7	0.00e+00	0	43	0	965738496	13	4632
2026-01-01 01:56:35.27	260.10	18.20	-26.9	-29.1	14.7	9.10e-06	0	43	0	968884224	13	4626
2026-01-01 01:56:36.28	259.95	18.11	-26.9	-29.1	14.7	4.43e-03	0	43	0	972029952	13	4642
2026-01-01 01:56:37.27	259.80	18.01	-26.9	-29.1	14.7	2.90e-04	0	43	0	974127104	13	4614
2026-01-01 01:56:38.28	259.64	17.92	-26.8	-28.9	14.8	4.27e-04	0	43	0	977272832	13	4565
2026-01-01 01:56:39.28	259.49	17.83	-26.5	-28.2	15.2	0.00e+00	0	43	0	980418560	13	4352
2026-01-01 01:56:40.28	259.34	17.74	-26.4	-27.8	15.4	0.00e+00	0	43	0	983564288	13	4242
2026-01-01 01:56:41.28	259.19	17.65	-26.3	-28.1	15.5	0.00e+00	0	43	0	986710016	12	4441
2026-01-01 01:56:42.29	259.04	17.56	-26.3	-28.3	15.4	0.00e+00	0	43	0	989855744	12	4495
2026-01-01 01:56:43.29	258.89	17.47	-26.5	-28.6	15.2	0.00e+00	0	43	0	993001472	12	4584
2026-01-01 01:56:44.30	258.74	17.37	-26.5	-28.2	15.1	9.10e-06	0	43	0	996147200	13	4376
2026-01-01 01:56:45.30	258.60	17.28	-26.7	-28.5	15.0	0.00e+00	0	43	0	999292928	13	4454
2026-01-01 01:56:46.30	258.45	17.19	-26.8	-28.8	14.8	0.00e+00	0	43	0	1002438656	13	4535
2026-01-01 01:56:47.30	258.31	17.10	-26.9	-29.1	14.6	0.00e+00	0	43	0	1005584384	13	4629
2026-01-01 01:56:48.31	258.16	17.01	-27.0	-28.8	14.5	1.50e-06	0	43	0	1008730112	14	4436
2026-01-01 01:56:49.31	258.02	16.92	-27.1	-29.0	14.4	7.00e-07	0	43	0	1011875840	14	4484
2026-01-01 01:56:50.31	257.88	16.83	-27.0	-28.8	14.5	1.50e-06	0	43	0	1015021568	14	4442
2026-01-01 01:56:51.32	257.74	16.74	-26.8	-28.8	14.8	0.00e+00	0	43	0	1018167296	13	4548
2026-01-01 01:56:52.32	257.60	16.65	-26.7	-28.6	14.9	0.00e+00	0	43	0	1021313024	13	4485
2026-01-01 01:56:53.32	257.46	16.56	-26.6	-28.4	15.0	0.00e+00	0	43	0	1024458752	13	4414
2026-01-01 01:56:54.32	257.32	16.47	-26.3	-27.8	15.4	0.00e+00	0	43	0	1027604480	13	4245
2026-01-01 01:56:55.32	257.18	16.38	-26.1	-27.7	15.7	0.00e+00	0	43	0	1030750208	12	4334
2026-01-01 01:56:56.33	257.04	16.29	-26.1	-27.6	15.7	0.00e+00	0	43	0	1033895936	12	4319
2026-01-01 01:56:57.34	256.91	16.20	-26.1	-27.7	15.7	0.00e+00	0	43	0	1037041664	12	4340
2026-01-01 01:56:58.34	256.77	16.11	-26.3	-28.2	15.4	0.00e+00	0	43	0	1040187392	12	4461
2026-01-01 01:56:59.35	256.63	16.03	-26.5	-28.1	15.2	0.00e+00	0	43	0	1043333120	13	4335
2026-01-01 01:57:00.35	256.50	15.94	-26.6	-28.3	15.0	0.00e+00	0	43	0	1046478848	13	4410
2026-01-01 01:57:01.35	256.37	15.85	-26.7	-28.6	14.9	7.00e-07	0	43	0	1049624576	13	4479
2026-01-01 01:57:02.35	256.24	15.76	-26.8	-28.8	14.7	0.00e+00	0	43	0	1052770304	13	4549
2026-01-01 01:57:03.35	256.11	15.67	-26.8	-28.9	14.7	7.00e-07	0	43	0	1055916032	13	4554
2026-01-01 01:57:04.36	255.97	15.58	-26.8	-28.9	14.7	7.00e-07	0	43	0	1059061760	13	4579
2026-01-01 01:57:05.37	255.84	15.50	-26.8	-28.9	14.7	1.50e-06	0	43	0	1062207488	13	4580
2026-01-01 01:57:06.37	255.71	15.41	-26.8	-28.9	14.7	0.00e+00	0	43	0	1065353216	13	4556
2026-01-01 01:57:07.37	255.59	15.32	-26.8	-28.9	14.7	0.00e+00	0	43	0	1068498944	13	4564
2026-01-01 01:57:08.38	255.46	15.23	-26.8	-28.8	14.7	7.00e-07	0	43	0	1071644672	13	4535
2026-01-01 01:57:09.39	255.33	15.15	-26.6	-28.3	15.0	0.00e+00	0	43	0	1074790400	13	4387
2026-01-01 01:57:10.39	255.20	15.06	-26.5	-28.2	15.1	0.00e+00	0	43	0	1077936128	13	4351
2026-01-01 01:57:11.40	255.08	14.97	-26.5	-28.1	15.1	0.00e+00	0	43	0	1081081856	13	4323
2026-01-01 01:57:12.40	254.95	14.89	-26.3	-28.3	15.3	0.00e+00	0	43	0	1084227584	12	4497
2026-01-01 01:57:13.40	254.83	14.80	-26.5	-28.6	15.1	0.00e+00	0	43	0	1087373312	12	4591
2026-01-01 01:57:14.40	254.71	14.71	-26.6	-28.4	14.9	0.00e+00	0	43	0	1090519040	13	4408
2026-01-01 01:57:15.40	254.59	14.63	-26.4	-28.0	15.1	0.00e+00	0	43	0	1093664768	13	4319
2026-01-01 01:57:16.41	254.46	14.54	-26.5	-28.6	15.0	0.00e+00	0	43	0	1096810496	12	4611
2026-01-01 01:57:17.40	254.34	14.46	-26.8	-28.8	14.7	0.00e+00	0	43	0	1099956224	13	4544
2026-01-01 01:57:18.41	254.22	14.37	-26.9	-29.2	14.4	7.00e-07	0	43	0	1103101952	13	4662
2026-01-01 01:57:19.41	254.10	14.28	-26.9	-29.0	14.5	7.00e-07	0	43	0	1106247680	13	4614
2026-01-01 01:57:20.41	253.99	14.20	-26.8	-29.0	14.5	0.00e+00	0	43	0	1109393408	13	4610
2026-01-01 01:57:21.42	253.87	14.11	-26.9	-29.1	14.4	7.00e-07	0	43	0	1112539136	13	4633
2026-01-01 01:57:22.43	253.75	14.03	-26.9	-29.2	14.3	0.00e+00	0	43	0	1115684864	13	4686
2026-01-01 01:57:23.43	253.63	13.94	-27.0	-29.0	14.2	7.00e-07	0	43	0	1118830592	14	4487
2026-01-01 01:57:24.43	253.52	13.86	-27.1	-29.1	14.2	7.00e-07	0	43	0	1121976320	14	4518
2026-01-01 01:57:25.43	253.40	13.78	-27.1	-29.0	14.2	3.00e-06	0	43	0	1125122048	14	4510
2026-01-01 01:57:26.43	253.29	13.69	-27.0	-28.8	14.3	7.00e-07	0	43	0	1128267776	14	4453
2026-01-01 01:57:27.44	253.17	13.61	-26.9	-29.1	14.4	7.00e-07	0	43	0	1131413504	13	4629
2026-01-01 01:57:28.44	253.06	13.52	-26.8	-28.9	14.5	0.00e+00	0	43	0	1134559232	13	4577
2026-01-01 01:57:29.44	252.95	13.44	-26.9	-29.2	14.4	0.00e+00	0	43	0	1137704960	13	4662
2026-01-01 01:57:30.44	252.83	13.36	-26.8	-29.0	14.5	1.50e-06	0	43	0	1140850688	13	4605
2026-01-01 01:57:31.45	252.72	13.27	-25.9	-27.7	14.8	0.00e+00	0	43	0	1143996416	13	4449
2026-01-01 01:57:32.45	252.61	13.19	-25.6	-27.5	13.4	0.00e+00	0	43	0	1147142144	12	4517
2026-01-01 01:57:33.45	252.50	13.11	-26.2	-28.0	13.6	0.00e+00	0	43	0	1150287872	12	4433
2026-01-01 01:57:34.45	252.39	13.03	-26.2	-28.0	13.1	0.00e+00	0	43	0	1153433600	12	4420
2026-01-01 01:57:35.45	252.28	12.94	-26.3	-28.2	14.7	0.00e+00	0	43	0	1156579328	12	4480
2026-01-01 01:57:36.45	252.17	12.86	-26.3	-28.3	15.1	0.00e+00	0	43	0	1159725056	12	4515
2026-01-01 01:57:37.46	252.07	12.78	-26.5	-28.6	14.9	1.14e-05	0	43	0	1162870784	12	4604
2026-01-01 01:57:38.47	251.96	12.70	-26.6	-28.4	14.7	7.00e-07	0	43	0	1166016512	13	4431
2026-01-01 01:57:39.47	251.85	12.61	-26.7	-28.8	14.5	3.17e-03	0	43	0	1169162240	13	4543
2026-01-01 01:57:40.47	251.75	12.53	-26.9	-29.0	14.3	7.00e-07	0	43	0	1172307968	13	4623
2026-01-01 01:57:41.47	251.64	12.45	-27.1	-29.1	14.1	1.50e-06	0	43	0	1175453696	14	4542
2026-01-01 01:57:42.47	251.54	12.37	-27.2	-29.4	13.8	7.00e-07	0	43	0	1178599424	14	4635
2026-01-01 01:57:43.46	251.43	12.29	-27.4	-29.7	13.7	8.92e-05	0	43	0	1181745152	14	4727
2026-01-01 01:57:44.46	251.33	12.21	-27.4	-29.9	13.6	5.18e-03	0	43	0	1184890880	14	4774
2026-01-01 01:57:45.47	251.23	12.13	-27.6	-29.8	13.3	1.37e-05	0	43	0	1188036608	15	4636
2026-01-01 01:57:46.47	251.12	12.05	-27.5	-29.6	13.4	2.51e-05	0	43	0	1191182336	15	4574
2026-01-01 01:57:47.47	251.02	11.97	-27.5	-30.1	13.5	1.83e-05	0	43	0	1194328064	14	4848
2026-01-01 01:57:48.48	250.92	11.89	-27.1	-29.7	12.7	3.85e-03	0	43	0	1197473792	14	4835
2026-01-01 01:57:49.48	250.82	11.81	-27.4	-29.9	12.4	5.22e-03	0	43	0	1200619520	14	4797
2026-01-01 01:57:50.48	250.72	11.73	-27.2	-29.4	13.8	5.67e-03	0	43	0	1203765248	14	4637
2026-01-01 01:57:51.48	250.62	11.65	-27.2	-29.2	13.9	6.10e-06	0	43	0	1206910976	14	4579
2026-01-01 01:57:52.48	250.52	11.57	-27.1	-29.1	14.0	1.52e-05	0	43	0	1210056704	14	4533
2026-01-01 01:57:53.48	250.42	11.49	-27.3	-29.5	13.8	4.84e-03	0	43	0	1213202432	14	4664
2026-01-01 01:57:54.48	250.33	11.41	-27.3	-29.7	13.6	2.53e-03	0	43	0	1216348160	14	4721
2026-01-01 01:57:55.48	250.23	11.33	-27.3	-29.6	13.7	5.94e-03	0	43	0	1219493888	14	4685
2026-01-01 01:57:56.48	250.13	11.25	-27.2	-29.5	13.8	5.30e-06	0	43	0	1222639616	14	4648
2026-01-01 01:57:57.49	250.04	11.17	-27.3	-29.6	13.6	6.10e-06	0	43	0	1224736768	14	4701
2026-01-01 01:57:58.49	249.94	11.09	-27.4	-29.8	13.6	4.18e-03	0	43	0	1227882496	14	4756
2026-01-01 01:57:59.50	249.84	11.01	-27.3	-29.5	13.7	4.47e-03	0	43	0	1232076800	14	4660
2026-01-01 01:58:00.50	249.75	10.94	-27.3	-29.6	13.7	1.05e-03	0	43	0	1235222528	14	4707
2026-01-01 01:58:01.50	249.66	10.86	-27.4	-29.9	13.5	5.86e-03	0	43	0	1238368256	14	4793
2026-01-01 01:58:02.51	249.56	10.78	-27.5	-29.6	13.3	1.06e-05	0	43	0	1241513984	15	4582
2026-01-01 01:58:03.51	249.47	10.70	-27.4	-29.8	13.5	2.33e-04	0	43	0	1244659712	14	4760
2026-01-01 01:58:04.52	249.37	10.62	-27.5	-29.6	13.3	5.77e-03	0	43	0	1247805440	15	4593
2026-01-01 01:58:05.52	249.28	10.55	-27.7	-30.1	13.0	5.32e-03	0	43	0	1249902592	15	4742
2026-01-01 01:58:06.52	249.19	10.47	-27.8	-30.3	12.9	2.85e-03	0	43	0	1253048320	15	4817
2026-01-01 01:58:07.53	249.10	10.39	-27.8	-30.5	12.8	2.16e-03	0	43	0	1256194048	15	4879
2026-01-01 01:58:08.53	249.01	10.32	-28.0	-30.8	12.5	6.24e-03	0	43	0	1259339776	15	4969
2026-01-01 01:58:09.53	248.92	10.24	-27.9	-30.7	12.6	3.37e-03	0	43	0	1262485504	15	4954
2026-01-01 01:58:10.53	248.83	10.16	-28.1	-30.7	12.5	6.80e-03	0	43	0	1265631232	16	4814
2026-01-01 01:58:11.54	248.74	10.09	-28.2	-30.7	12.5	5.84e-03	0	43	0	1268776960	16	4830
2026-01-01 01:58:12.54	248.65	10.01	-28.2	-30.7	12.5	1.02e-03	0	43	0	1271922688	16	4836
2026-01-01 01:58:13.54	248.56	9.93	-28.1	-30.6	12.5	5.42e-03	0	43	0	1275068416	16	4785
2026-01-01 01:58:14.55	248.47	9.86	-28.2	-30.9	12.4	4.85e-03	0	43	0	1278214144	16	4884
2026-01-01 01:58:15.55	248.39	9.78	-28.2	-30.9	12.4	3.43e-03	0	43	0	1281359872	16	4878
2026-01-01 01:58:16.56	248.30	9.71	-27.9	-30.6	12.6	5.96e-03	0	43	0	1284505600	15	4913
2026-01-01 01:58:17.56	248.21	9.63	-27.8	-30.3	12.8	5.26e-05	0	43	0	1287651328	15	4814
2026-01-01 01:58:18.56	248.13	9.56	-27.7	-30.1	13.0	1.34e-03	0	43	0	1290797056	15	4750
2026-01-01 01:58:19.56	248.04	9.48	-27.7	-30.2	12.9	5.34e-05	0	43	0	1293942784	15	4787
2026-01-01 01:58:20.57	247.96	9.41	-27.7	-30.1	13.0	4.87e-03	0	43	0	1297088512	15	4747
2026-01-01 01:58:21.57	247.87	9.33	-27.7	-30.0	13.0	2.92e-03	0	43	0	1300234240	15	4735
2026-01-01 01:58:22.57	247.79	9.26	-27.7	-30.2	12.9	1.64e-03	0	43	0	1303379968	15	4772
2026-01-01 01:58:23.58	247.70	9.18	-27.8	-30.3	12.8	4.42e-05	0	43	0	1306525696	15	4814
2026-01-01 01:58:24.58	247.62	9.11	-27.9	-30.6	12.6	8.69e-05	0	43	0	1309671424	15	4930
2026-01-01 01:58:25.58	247.54	9.03	-28.1	-30.7	12.4	6.67e-03	0	43	0	1312817152	16	4815
2026-01-01 01:58:26.59	247.45	8.96	-27.8	-30.4	12.7	5.09e-03	0	43	0	1315962880	15	4845
2026-01-01 01:58:27.60	247.37	8.89	-27.7	-30.1	12.9	1.32e-03	0	43	0	1319108608	15	4754
2026-01-01 01:58:28.60	247.29	8.81	-27.8	-30.4	12.7	5.72e-05	0	43	0	1322254336	15	4847
2026-01-01 01:58:29.61	247.21	8.74	-27.7	-30.2	12.8	7.62e-05	0	43	0	1325400064	15	4802
2026-01-01 01:58:30.61	247.13	8.67	-27.9	-30.5	12.6	7.62e-05	0	43	0	1328545792	15	4901
2026-01-01 01:58:31.62	247.05	8.59	-27.9	-30.7	12.5	9.06e-04	0	43	0	1331691520	15	4943
2026-01-01 01:58:32.63	246.97	8.52	-27.8	-30.5	12.6	9.99e-05	0	43	0	1334837248	15	4907
2026-01-01 01:58:33.63	246.89	8.45	-27.9	-30.6	12.5	1.14e-04	0	43	0	1337982976	15	4945
2026-01-01 01:58:34.63	246.81	8.37	-27.9	-30.8	12.4	1.40e-04	0	43	0	1341128704	15	4985
2026-01-01 01:58:35.63	246.73	8.30	-28.1	-30.7	12.3	1.53e-04	0	43	0	1344274432	16	4852
2026-01-01 01:58:36.63	246.65	8.23	-28.3	-31.2	11.9	3.32e-04	0	43	0	1347420160	16	5028
2026-01-01 01:58:37.63	246.57	8.16	-28.4	-31.3	11.9	4.90e-04	0	43	0	1350565888	16	5054
2026-01-01 01:58:38.64	246.50	8.08	-28.5	-31.6	11.7	4.64e-04	0	43	0	1353711616	16	5164
2026-01-01 01:58:39.64	246.42	8.01	-28.5	-31.3	11.6	7.97e-04	0	43	0	1356857344	17	4938
2026-01-01 01:58:40.64	246.34	7.94	-28.6	-31.4	11.5	6.72e-04	0	43	0	1360003072	17	4986
2026-01-01 01:58:41.64	246.27	7.87	-28.6	-31.5	11.4	7.93e-04	0	43	0	1363148800	17	5026
2026-01-01 01:58:42.64	246.19	7.80	-28.5	-31.1	11.6	8.01e-04	0	43	0	1366294528	17	4888
2026-01-01 01:58:43.65	246.11	7.73	-28.5	-31.2	11.6	7.57e-04	0	43	0	1369440256	17	4928
2026-01-01 01:58:44.66	246.04	7.66	-28.5	-31.3	11.6	8.59e-04	0	43	0	1372585984	17	4939
2026-01-01 01:58:45.66	245.96	7.58	-28.4	-31.5	11.7	5.91e-04	0	43	0	1375731712	16	5124
2026-01-01 01:58:46.66	245.89	7.51	-28.3	-31.2	11.9	4.54e-04	0	43	0	1378877440	16	5011
2026-01-01 01:58:47.66	245.82	7.44	-28.4	-31.5	11.7	5.00e-04	0	43	0	1382023168	16	5123
2026-01-01 01:58:48.66	245.74	7.37	-28.5	-31.2	11.5	8.09e-04	0	43	0	1385168896	17	4918
2026-01-01 01:58:49.67	245.67	7.30	-28.4	-31.4	11.8	6.35e-04	0	43	0	1388314624	16	5080
2026-01-01 01:58:50.67	245.60	7.23	-28.3	-31.3	11.9	5.61e-04	0	43	0	1391460352	16	5048
2026-01-01 01:58:51.67	245.52	7.16	-28.3	-31.2	11.9	4.61e-04	0	43	0	1394606080	16	5025
2026-01-01 01:58:52.66	245.45	7.09	-28.4	-31.4	11.7	6.71e-04	0	43	0	1397751808	16	5115
2026-01-01 01:58:53.67	245.38	7.02	-32.1	-43.7	3.8	1.10e+00	0	43	104	1399848960	24	13711
2026-01-01 01:58:54.67	245.31	6.95	-32.5	-44.8	3.8	1.49e+00	0	43	104	1399848960	24	14838
2026-01-01 01:58:55.67	245.24	6.88	-32.7	-44.7	3.8	1.49e+00	0	43	104	1399848960	25	14426
2026-01-01 01:58:56.67	245.17	6.82	-32.9	-45.2	3.8	1.49e+00	0	43	104	1399848960	25	14783

#Closed at: 2026-01-01 01:58:56
#Recorded file [1399 MB]: D:/data/31010_260101_045125.dat