passes_logs/2026/01/01/R2M6_AANII_01/R2M6_AANII_01__20260101_102954_SUOMI_NPP_rec.log

#Pass ID: 20260101_102954_SUOMI NPP
#Satellite: SUOMI NPP
#Configuration: NPP
#almurnet v.1.7.20240730
#Start time: 2026-01-01 10:29:55

#Version: 2.2.20231116
#Station: R2M6_AANII_01
#Location: 30.233357 lon 59.946436 lat
#TLE: 1 37849U 11061A   25364.87906317  .00000195  00000+0  11345-3 0  9992
#TLE: 2 37849  98.7794 302.0592 0002571  89.2401 270.9069 14.19520347734561

#Time	Az	El	Level	Level2	SNR	BER	BlckErr	Temp	State	Recorded	gain1	gain2
2026-01-01 10:29:55.32	163.56	7.06	-31.7	-37.5	4.6	1.39e+00	0	41	0	0	24	6995
2026-01-01 10:29:56.32	163.57	7.14	-31.6	-36.8	4.7	1.36e+00	0	41	104	0	24	6523
2026-01-01 10:29:57.33	163.59	7.22	-31.7	-37.1	6.3	2.38e-01	0	41	0	0	24	6715
2026-01-01 10:29:58.33	163.60	7.30	-31.6	-36.7	6.6	2.07e-01	0	41	0	1048576	24	6436
2026-01-01 10:29:59.33	163.61	7.37	-31.7	-36.8	6.5	2.12e-01	0	41	0	3145728	24	6540
2026-01-01 10:30:00.34	163.62	7.45	-31.6	-36.7	6.6	2.44e-01	0	41	0	5242880	24	6448
2026-01-01 10:30:01.34	163.63	7.53	-31.7	-36.9	6.5	2.14e-01	0	41	0	7340032	24	6561
2026-01-01 10:30:02.33	163.64	7.61	-31.6	-36.4	6.9	1.86e-01	0	41	0	9437184	24	6281
2026-01-01 10:30:03.34	163.65	7.69	-31.4	-35.7	7.4	1.47e-01	0	41	0	10485760	24	5864
2026-01-01 10:30:04.34	163.66	7.77	-31.3	-35.1	7.9	9.85e-02	0	41	0	12582912	24	5550
2026-01-01 10:30:05.34	163.67	7.85	-31.3	-35.2	7.8	7.75e-02	0	41	0	14680064	24	5621
2026-01-01 10:30:06.35	163.69	7.93	-31.3	-35.1	7.8	8.08e-02	0	41	0	16777216	24	5587
2026-01-01 10:30:07.35	163.70	8.01	-31.4	-35.5	7.5	9.34e-02	0	41	0	17825792	24	5764
2026-01-01 10:30:08.35	163.71	8.09	-31.4	-35.5	7.6	1.06e-01	0	41	0	19922944	24	5779
2026-01-01 10:30:09.35	163.72	8.17	-31.5	-35.9	7.3	1.08e-01	0	41	0	22020096	24	5952
2026-01-01 10:30:10.35	163.73	8.25	-31.5	-35.9	7.3	1.18e-01	0	41	0	24117248	24	5981
2026-01-01 10:30:11.35	163.74	8.34	-31.5	-35.9	7.3	1.33e-01	0	41	0	26214400	24	5968
2026-01-01 10:30:12.36	163.76	8.42	-31.5	-35.9	7.3	1.26e-01	0	41	0	27262976	24	5979
2026-01-01 10:30:13.36	163.77	8.50	-31.6	-36.2	7.0	1.18e-01	0	41	0	29360128	24	6148
2026-01-01 10:30:14.36	163.78	8.58	-31.5	-36.0	7.3	1.28e-01	0	41	0	31457280	24	5994
2026-01-01 10:30:15.36	163.79	8.66	-31.4	-35.3	7.8	8.90e-02	0	41	0	33554432	24	5662
2026-01-01 10:30:16.37	163.80	8.75	-31.3	-35.2	8.2	7.02e-02	0	41	0	35651584	23	5662
2026-01-01 10:30:17.37	163.82	8.83	-31.1	-34.6	8.7	4.18e-02	0	41	0	36700160	23	5398
2026-01-01 10:30:18.38	163.83	8.91	-31.0	-34.1	9.1	2.59e-02	0	41	0	38797312	23	5160
2026-01-01 10:30:19.38	163.84	9.00	-30.9	-33.7	9.4	1.96e-02	0	41	0	40894464	23	4976
2026-01-01 10:30:20.37	163.85	9.08	-30.8	-33.9	9.7	1.34e-02	0	41	0	42991616	22	5173
2026-01-01 10:30:21.38	163.86	9.17	-30.8	-33.8	9.8	9.74e-03	0	41	0	45088768	22	5095
2026-01-01 10:30:22.38	163.88	9.25	-30.7	-33.7	9.8	9.64e-03	0	42	0	46137344	22	5060
2026-01-01 10:30:23.39	163.89	9.34	-30.7	-33.6	9.9	8.34e-03	0	42	0	48234496	22	5016
2026-01-01 10:30:24.40	163.90	9.42	-30.7	-33.6	10.0	9.46e-03	0	42	0	50331648	22	5012
2026-01-01 10:30:25.40	163.91	9.51	-30.8	-33.8	9.8	9.71e-03	0	42	0	52428800	22	5118
2026-01-01 10:30:26.41	163.93	9.59	-30.9	-34.3	9.4	1.34e-02	0	42	0	54525952	22	5325
2026-01-01 10:30:27.40	163.94	9.68	-30.7	-33.7	9.9	1.13e-02	0	42	0	55574528	22	5062
2026-01-01 10:30:28.41	163.95	9.77	-30.7	-33.5	10.0	8.82e-03	0	41	0	57671680	22	4984
2026-01-01 10:30:29.40	163.96	9.85	-30.8	-33.9	9.7	9.96e-03	0	42	0	59768832	22	5135
2026-01-01 10:30:30.40	163.98	9.94	-30.8	-33.8	9.8	1.00e-02	0	42	0	61865984	22	5130
2026-01-01 10:30:31.40	163.99	10.03	-30.7	-33.6	9.9	7.73e-03	0	42	0	62914560	22	5032
2026-01-01 10:30:32.40	164.00	10.11	-30.7	-33.6	9.9	8.74e-03	0	42	0	65011712	22	5022
2026-01-01 10:30:33.40	164.01	10.20	-30.7	-33.5	10.0	8.26e-03	0	42	0	67108864	22	4990
2026-01-01 10:30:34.40	164.03	10.29	-30.8	-33.8	9.8	7.84e-03	0	42	0	69206016	22	5125
2026-01-01 10:30:35.39	164.04	10.38	-30.7	-33.5	10.0	8.41e-03	0	42	0	71303168	22	4995
2026-01-01 10:30:36.39	164.05	10.47	-30.7	-33.6	10.0	6.57e-03	0	42	0	72351744	22	5021
2026-01-01 10:30:37.39	164.07	10.55	-30.6	-33.4	10.2	8.91e-03	0	42	0	74448896	22	4932
2026-01-01 10:30:38.40	164.08	10.64	-30.6	-33.1	10.4	5.55e-03	0	42	0	76546048	22	4809
2026-01-01 10:30:39.40	164.09	10.73	-30.5	-32.8	10.6	3.41e-03	0	42	0	78643200	22	4691
2026-01-01 10:30:40.40	164.10	10.82	-30.5	-32.8	10.6	3.47e-03	0	42	0	80740352	22	4707
2026-01-01 10:30:41.40	164.12	10.91	-30.5	-32.8	10.6	3.16e-03	0	42	0	81788928	22	4695
2026-01-01 10:30:42.41	164.13	11.01	-30.5	-32.8	10.6	2.86e-03	0	42	0	83886080	22	4688
2026-01-01 10:30:43.41	164.15	11.10	-30.3	-32.3	11.1	2.11e-03	0	42	0	85983232	22	4494
2026-01-01 10:30:44.41	164.16	11.19	-30.3	-32.1	11.2	1.56e-03	0	42	0	88080384	22	4432
2026-01-01 10:30:45.41	164.17	11.28	-30.2	-32.4	11.3	1.34e-03	0	42	0	90177536	21	4635
2026-01-01 10:30:46.40	164.19	11.37	-30.3	-32.6	11.2	1.12e-03	0	42	0	91226112	21	4689
2026-01-01 10:30:47.40	164.20	11.46	-30.2	-32.4	11.3	1.26e-03	0	42	0	93323264	21	4631
2026-01-01 10:30:48.40	164.21	11.56	-30.2	-32.3	11.5	9.68e-04	0	42	0	95420416	21	4569
2026-01-01 10:30:49.40	164.23	11.65	-30.2	-32.2	11.5	8.37e-04	0	42	0	97517568	21	4536
2026-01-01 10:30:50.40	164.24	11.74	-30.2	-32.3	11.4	8.15e-04	0	42	0	98566144	21	4564
2026-01-01 10:30:51.40	164.25	11.84	-30.2	-32.1	11.5	8.93e-04	0	42	0	100663296	21	4522
2026-01-01 10:30:52.40	164.27	11.93	-30.2	-32.1	11.6	7.70e-04	0	42	0	102760448	21	4491
2026-01-01 10:30:53.40	164.28	12.02	-30.2	-32.4	11.4	8.78e-04	0	42	0	104857600	21	4609
2026-01-01 10:30:54.40	164.30	12.12	-30.3	-32.4	11.3	1.18e-03	0	42	0	106954752	21	4629
2026-01-01 10:30:55.41	164.31	12.22	-30.1	-31.9	11.7	7.12e-04	0	42	0	108003328	21	4438
2026-01-01 10:30:56.41	164.33	12.31	-30.1	-31.8	11.8	4.61e-04	0	42	0	110100480	21	4398
2026-01-01 10:30:57.41	164.34	12.41	-30.0	-31.7	12.0	3.68e-04	0	42	0	112197632	21	4362
2026-01-01 10:30:58.42	164.35	12.50	-30.0	-31.7	12.0	3.17e-04	0	42	0	114294784	21	4354
2026-01-01 10:30:59.42	164.37	12.60	-30.0	-31.5	12.1	3.17e-04	0	42	0	116391936	21	4296
2026-01-01 10:31:00.42	164.38	12.70	-29.9	-31.3	12.2	2.68e-04	0	42	0	117440512	21	4232
2026-01-01 10:31:01.43	164.40	12.80	-29.8	-31.1	12.4	2.12e-04	0	42	0	119537664	21	4145
2026-01-01 10:31:02.43	164.41	12.89	-29.9	-31.3	12.2	1.69e-04	0	42	0	121634816	21	4218
2026-01-01 10:31:03.43	164.43	12.99	-29.8	-31.0	12.4	1.54e-04	0	42	0	123731968	21	4135
2026-01-01 10:31:04.43	164.44	13.09	-29.8	-31.5	12.5	1.13e-04	0	42	0	125829120	20	4375
2026-01-01 10:31:05.43	164.46	13.19	-29.8	-31.4	12.6	1.38e-04	0	42	0	126877696	20	4315
2026-01-01 10:31:06.43	164.47	13.29	-29.7	-31.2	12.7	8.85e-05	0	42	0	128974848	20	4256
2026-01-01 10:31:07.43	164.49	13.39	-29.8	-31.4	12.6	8.31e-05	0	42	0	131072000	20	4338
2026-01-01 10:31:08.44	164.50	13.49	-29.8	-31.3	12.6	1.39e-04	0	42	0	133169152	20	4305
2026-01-01 10:31:09.45	164.52	13.59	-29.7	-31.0	12.9	7.32e-05	0	42	0	135266304	20	4199
2026-01-01 10:31:10.45	164.53	13.69	-29.7	-31.1	12.8	4.42e-05	0	42	0	136314880	20	4227
2026-01-01 10:31:11.45	164.55	13.80	-29.6	-30.8	13.0	5.11e-05	0	42	0	138412032	20	4143
2026-01-01 10:31:12.46	164.57	13.90	-29.6	-30.7	13.1	3.43e-05	0	42	0	140509184	20	4097
2026-01-01 10:31:13.46	164.58	14.00	-29.6	-30.8	13.0	2.89e-05	0	42	0	142606336	20	4127
2026-01-01 10:31:14.46	164.60	14.10	-29.4	-30.4	13.2	1.29e-05	0	43	0	143654912	20	4016
2026-01-01 10:31:15.46	164.61	14.21	-29.5	-30.4	13.2	1.90e-05	0	43	0	145752064	20	4021
2026-01-01 10:31:16.46	164.63	14.31	-29.4	-30.3	13.4	2.13e-05	0	43	0	147849216	20	3984
2026-01-01 10:31:17.46	164.65	14.42	-29.3	-30.5	13.6	1.52e-05	0	42	0	149946368	19	4122
2026-01-01 10:31:18.46	164.66	14.52	-29.4	-30.6	13.5	1.83e-05	0	43	0	152043520	19	4158
2026-01-01 10:31:19.47	164.68	14.63	-29.4	-30.6	13.6	7.60e-06	0	43	0	153092096	19	4140
2026-01-01 10:31:20.47	164.69	14.73	-29.4	-30.8	13.4	1.37e-05	0	42	0	155189248	19	4204
2026-01-01 10:31:21.48	164.71	14.84	-29.5	-30.9	13.4	2.05e-05	0	42	0	157286400	19	4228
2026-01-01 10:31:22.48	164.73	14.95	-29.3	-30.4	13.7	8.30e-06	0	43	0	159383552	19	4088
2026-01-01 10:31:23.48	164.74	15.05	-29.3	-30.4	13.7	4.50e-06	0	43	0	161480704	19	4081
2026-01-01 10:31:24.48	164.76	15.16	-29.3	-30.3	13.8	9.90e-06	0	43	0	162529280	19	4056
2026-01-01 10:31:25.48	164.78	15.27	-29.3	-30.4	13.7	1.50e-06	0	42	0	164626432	19	4086
2026-01-01 10:31:26.49	164.79	15.38	-29.4	-30.6	13.6	8.30e-06	0	42	0	166723584	19	4149
2026-01-01 10:31:27.49	164.81	15.49	-29.2	-30.3	13.8	1.06e-05	0	43	0	168820736	19	4054
2026-01-01 10:31:28.49	164.83	15.60	-29.3	-30.5	13.7	6.10e-06	0	42	0	170917888	19	4114
2026-01-01 10:31:29.50	164.85	15.71	-29.3	-30.4	13.7	7.60e-06	0	43	0	171966464	19	4090
2026-01-01 10:31:30.50	164.86	15.82	-29.2	-30.2	13.9	4.50e-06	0	42	0	174063616	19	4040
2026-01-01 10:31:31.50	164.88	15.93	-29.3	-30.3	13.8	4.50e-06	0	43	0	176160768	19	4075
2026-01-01 10:31:32.51	164.90	16.04	-29.2	-30.2	13.9	4.50e-06	0	43	0	178257920	19	4020
2026-01-01 10:31:33.51	164.92	16.15	-29.3	-30.4	13.7	1.50e-06	0	43	0	180355072	19	4087
2026-01-01 10:31:34.51	164.93	16.26	-29.3	-30.4	13.7	6.10e-06	0	43	0	181403648	19	4096
2026-01-01 10:31:35.51	164.95	16.38	-29.3	-30.4	13.8	8.30e-06	0	43	0	183500800	19	4073
2026-01-01 10:31:36.51	164.97	16.49	-29.3	-30.3	13.9	5.30e-06	0	43	0	185597952	19	4048
2026-01-01 10:31:37.52	164.99	16.61	-29.2	-30.2	13.9	1.50e-06	0	43	0	187695104	19	4029
2026-01-01 10:31:38.52	165.01	16.72	-29.3	-30.3	13.9	7.00e-07	0	43	0	188743680	19	4050
2026-01-01 10:31:39.52	165.02	16.84	-29.3	-30.3	13.8	9.10e-06	0	43	0	190840832	19	4062
2026-01-01 10:31:40.52	165.04	16.95	-29.3	-30.3	13.9	3.00e-06	0	43	0	192937984	19	4046
2026-01-01 10:31:41.52	165.06	17.07	-29.4	-30.5	13.8	6.10e-06	0	43	0	195035136	19	4102
2026-01-01 10:31:42.52	165.08	17.18	-29.3	-30.3	13.9	5.30e-06	0	43	0	197132288	19	4039
2026-01-01 10:31:43.53	165.10	17.30	-29.3	-30.2	13.9	3.00e-06	0	43	0	198180864	19	4030
2026-01-01 10:31:44.52	165.12	17.42	-29.2	-30.0	14.1	3.00e-06	0	43	0	200278016	19	3949
2026-01-01 10:31:45.53	165.14	17.54	-29.1	-29.7	14.3	1.50e-06	0	43	0	202375168	19	3874
2026-01-01 10:31:46.53	165.16	17.66	-29.1	-29.9	14.2	7.00e-07	0	43	0	204472320	19	3928
2026-01-01 10:31:47.53	165.17	17.78	-29.1	-29.7	14.3	7.00e-07	0	43	0	206569472	19	3887
2026-01-01 10:31:48.54	165.19	17.90	-29.0	-29.5	14.4	7.00e-07	0	43	0	207618048	19	3832
2026-01-01 10:31:49.55	165.21	18.02	-29.0	-29.4	14.4	7.00e-07	0	43	0	209715200	19	3799
2026-01-01 10:31:50.56	165.23	18.14	-29.0	-29.5	14.5	7.00e-07	0	43	0	211812352	19	3816
2026-01-01 10:31:51.55	165.25	18.26	-29.1	-29.6	14.3	1.50e-06	0	43	0	213909504	19	3851
2026-01-01 10:31:52.55	165.27	18.39	-29.1	-29.8	14.3	0.00e+00	0	43	0	216006656	19	3899
2026-01-01 10:31:53.54	165.29	18.51	-29.0	-29.6	14.4	7.00e-07	0	43	0	217055232	19	3841
2026-01-01 10:31:54.55	165.31	18.63	-29.2	-29.9	14.2	7.00e-07	0	43	0	219152384	19	3935
2026-01-01 10:31:55.55	165.33	18.76	-29.1	-29.9	14.2	0.00e+00	0	43	0	221249536	19	3913
2026-01-01 10:31:56.55	165.35	18.88	-29.3	-30.2	14.0	2.20e-06	0	43	0	223346688	19	4013
2026-01-01 10:31:57.55	165.37	19.01	-29.3	-30.3	14.0	2.20e-06	0	43	0	225443840	19	4031
2026-01-01 10:31:58.55	165.40	19.13	-29.2	-30.1	14.1	3.00e-06	0	43	0	226492416	19	3990
2026-01-01 10:31:59.55	165.42	19.26	-29.2	-30.1	14.1	3.00e-06	0	43	0	228589568	19	3968
2026-01-01 10:32:00.55	165.44	19.39	-29.2	-30.1	14.1	7.00e-07	0	43	0	230686720	19	3977
2026-01-01 10:32:01.55	165.46	19.52	-29.2	-30.1	14.1	7.00e-07	0	43	0	232783872	19	3968
2026-01-01 10:32:02.56	165.48	19.65	-29.3	-30.3	14.0	3.00e-06	0	43	0	233832448	19	4038
2026-01-01 10:32:03.56	165.50	19.78	-29.2	-30.1	14.2	1.50e-06	0	43	0	235929600	19	3983
2026-01-01 10:32:04.56	165.52	19.91	-29.3	-30.4	14.0	2.20e-06	0	43	0	238026752	19	4057
2026-01-01 10:32:05.57	165.55	20.04	-29.3	-30.3	14.0	5.30e-06	0	43	0	240123904	19	4015
2026-01-01 10:32:06.57	165.57	20.17	-29.2	-30.0	14.2	1.50e-06	0	43	0	242221056	19	3943
2026-01-01 10:32:07.57	165.59	20.30	-29.3	-30.2	14.1	1.50e-06	0	43	0	243269632	19	4005
2026-01-01 10:32:08.58	165.61	20.44	-29.2	-30.1	14.2	7.00e-07	0	43	0	245366784	19	3967
2026-01-01 10:32:09.58	165.63	20.57	-29.3	-30.3	14.0	2.20e-06	0	43	0	247463936	19	4048
2026-01-01 10:32:10.59	165.66	20.71	-29.4	-30.5	14.0	4.50e-06	0	43	0	249561088	19	4102
2026-01-01 10:32:11.58	165.68	20.84	-29.3	-30.3	14.0	3.00e-06	0	43	0	251658240	19	4047
2026-01-01 10:32:12.58	165.70	20.98	-29.4	-30.6	13.8	7.00e-07	0	43	0	252706816	19	4134
2026-01-01 10:32:13.58	165.73	21.11	-29.5	-30.8	13.7	9.10e-06	0	43	0	254803968	19	4187
2026-01-01 10:32:14.58	165.75	21.25	-29.6	-31.1	13.5	6.10e-06	0	43	0	256901120	19	4290
2026-01-01 10:32:15.58	165.77	21.39	-29.7	-31.5	13.3	6.80e-06	0	43	0	258998272	19	4410
2026-01-01 10:32:16.58	165.80	21.53	-29.6	-31.2	13.5	2.89e-05	0	43	0	261095424	19	4321
2026-01-01 10:32:17.58	165.82	21.67	-29.7	-31.3	13.4	1.83e-05	0	43	0	262144000	19	4346
2026-01-01 10:32:18.59	165.84	21.81	-29.9	-32.0	12.9	2.59e-05	0	43	0	264241152	19	4577
2026-01-01 10:32:19.59	165.87	21.95	-29.8	-31.6	13.2	2.67e-05	0	43	0	266338304	19	4446
2026-01-01 10:32:20.59	165.89	22.09	-29.8	-31.6	13.2	2.59e-05	0	43	0	268435456	19	4438
2026-01-01 10:32:21.60	165.92	22.24	-29.8	-31.6	13.2	2.74e-05	0	43	0	270532608	19	4439
2026-01-01 10:32:22.60	165.94	22.38	-29.9	-32.0	13.0	3.35e-05	0	43	0	271581184	19	4560
2026-01-01 10:32:23.61	165.97	22.53	-29.9	-31.8	13.1	3.50e-05	0	43	0	273678336	19	4495
2026-01-01 10:32:24.62	165.99	22.67	-29.8	-31.7	13.2	2.89e-05	0	43	0	275775488	19	4455
2026-01-01 10:32:25.62	166.02	22.82	-29.8	-31.6	13.3	3.50e-05	0	43	0	277872640	19	4443
2026-01-01 10:32:26.62	166.04	22.97	-29.9	-31.8	13.2	2.44e-05	0	43	0	279969792	19	4491
2026-01-01 10:32:27.62	166.07	23.11	-29.9	-31.9	13.1	2.51e-05	0	43	0	281018368	19	4540
2026-01-01 10:32:28.63	166.10	23.26	-29.9	-31.6	12.9	3.35e-05	0	43	0	283115520	20	4335
2026-01-01 10:32:29.63	166.12	23.41	-30.1	-31.9	12.7	8.77e-05	0	43	0	285212672	20	4430
2026-01-01 10:32:30.64	166.15	23.56	-30.1	-31.9	12.7	9.84e-05	0	43	0	287309824	20	4457
2026-01-01 10:32:31.64	166.18	23.72	-30.1	-31.9	12.7	9.15e-05	0	43	0	289406976	20	4432
2026-01-01 10:32:32.65	166.20	23.87	-30.1	-32.1	12.6	1.59e-04	0	43	0	290455552	20	4496
2026-01-01 10:32:33.65	166.23	24.02	-30.2	-32.2	12.5	1.27e-04	0	43	0	292552704	20	4529
2026-01-01 10:32:34.66	166.26	24.18	-30.2	-32.3	12.5	9.53e-05	0	43	0	294649856	20	4561
2026-01-01 10:32:35.66	166.29	24.33	-30.2	-32.3	12.5	1.73e-04	0	43	0	296747008	20	4589
2026-01-01 10:32:36.66	166.31	24.49	-30.2	-32.1	12.6	1.03e-04	0	43	0	297795584	20	4504
2026-01-01 10:32:37.66	166.34	24.64	-30.2	-32.3	12.5	6.79e-05	0	43	0	299892736	20	4567
2026-01-01 10:32:38.67	166.37	24.80	-30.3	-32.5	12.3	1.46e-04	0	43	0	301989888	20	4643
2026-01-01 10:32:39.67	166.40	24.96	-30.1	-31.8	12.8	9.46e-05	0	43	0	304087040	20	4401
2026-01-01 10:32:40.67	166.43	25.12	-30.1	-31.9	12.7	5.18e-05	0	43	0	306184192	20	4429
2026-01-01 10:32:41.67	166.46	25.28	-30.1	-32.0	12.7	6.63e-05	0	43	0	307232768	20	4473
2026-01-01 10:32:42.67	166.49	25.44	-30.0	-31.7	12.9	7.55e-05	0	43	0	309329920	20	4354
2026-01-01 10:32:43.68	166.52	25.61	-30.3	-32.5	12.3	1.43e-04	0	43	0	311427072	20	4654
2026-01-01 10:32:44.68	166.55	25.77	-30.5	-33.0	12.0	2.16e-04	0	43	0	313524224	20	4825
2026-01-01 10:32:45.68	166.58	25.94	-30.5	-33.0	12.0	1.77e-04	0	43	0	315621376	20	4816
2026-01-01 10:32:46.69	166.61	26.10	-30.4	-32.4	12.1	2.91e-04	0	43	0	316669952	21	4512
2026-01-01 10:32:47.68	166.64	26.27	-30.4	-32.2	12.1	2.90e-04	0	43	0	318767104	21	4453
2026-01-01 10:32:48.69	166.67	26.44	-30.5	-32.5	12.0	3.81e-04	0	43	0	320864256	21	4547
2026-01-01 10:32:49.70	166.70	26.61	-30.4	-32.3	12.1	3.33e-04	0	43	0	322961408	21	4495
2026-01-01 10:32:50.71	166.73	26.78	-30.2	-31.7	12.6	1.88e-04	0	43	0	325058560	21	4260
2026-01-01 10:32:51.72	166.77	26.95	-30.3	-31.9	12.4	1.52e-04	0	43	0	326107136	21	4352
2026-01-01 10:32:52.71	166.80	27.12	-30.3	-32.1	12.3	2.44e-04	0	43	0	328204288	21	4390
2026-01-01 10:32:53.71	166.83	27.29	-30.2	-31.8	12.5	1.35e-04	0	43	0	330301440	21	4305
2026-01-01 10:32:54.72	166.86	27.47	-30.5	-32.5	12.0	1.89e-04	0	43	0	332398592	21	4541
2026-01-01 10:32:55.72	166.90	27.64	-30.4	-32.4	12.1	3.51e-04	0	43	0	334495744	21	4491
2026-01-01 10:32:56.72	166.93	27.82	-30.4	-32.4	12.1	2.45e-04	0	43	0	335544320	21	4501
2026-01-01 10:32:57.71	166.97	28.00	-30.4	-32.3	12.2	2.88e-04	0	43	0	337641472	21	4463
2026-01-01 10:32:58.71	167.00	28.17	-30.5	-32.7	11.9	3.14e-04	0	43	0	339738624	21	4602
2026-01-01 10:32:59.71	167.03	28.35	-30.5	-32.5	12.0	3.23e-04	0	43	0	341835776	21	4547
2026-01-01 10:33:00.71	167.07	28.53	-30.5	-32.5	12.0	2.92e-04	0	43	0	342884352	21	4526
2026-01-01 10:33:01.71	167.10	28.72	-30.4	-32.2	12.2	4.32e-04	0	43	0	344981504	21	4432
2026-01-01 10:33:02.71	167.14	28.90	-30.3	-31.9	12.4	1.30e-04	0	43	0	347078656	21	4340
2026-01-01 10:33:03.71	167.18	29.08	-30.2	-31.7	12.7	8.08e-05	0	43	0	349175808	21	4257
2026-01-01 10:33:04.72	167.21	29.27	-30.1	-31.3	12.8	7.62e-05	0	43	0	351272960	21	4131
2026-01-01 10:33:05.72	167.25	29.46	-30.2	-31.7	12.7	4.34e-05	0	43	0	352321536	21	4259
2026-01-01 10:33:06.72	167.29	29.64	-30.5	-32.6	12.0	2.04e-04	0	43	0	354418688	21	4567
2026-01-01 10:33:07.72	167.33	29.83	-30.3	-32.0	12.4	1.25e-04	0	43	0	356515840	21	4370
2026-01-01 10:33:08.71	167.36	30.02	-30.4	-32.4	12.2	2.05e-04	0	43	0	358612992	21	4484
2026-01-01 10:33:09.72	167.40	30.22	-30.8	-33.3	11.5	8.46e-04	0	43	0	360710144	21	4829
2026-01-01 10:33:10.72	167.44	30.41	-30.8	-33.5	11.4	9.03e-04	0	43	0	361758720	21	4909
2026-01-01 10:33:11.73	167.48	30.60	-30.9	-33.8	11.3	1.02e-03	0	43	0	363855872	21	5010
2026-01-01 10:33:12.73	167.52	30.80	-30.9	-33.1	11.4	1.27e-03	0	43	0	365953024	22	4665
2026-01-01 10:33:13.74	167.56	31.00	-31.0	-33.5	11.0	1.82e-03	0	43	0	368050176	22	4826
2026-01-01 10:33:14.74	167.60	31.20	-30.8	-33.1	11.3	1.54e-03	0	43	0	370147328	22	4641
2026-01-01 10:33:15.74	167.64	31.40	-31.0	-33.5	11.0	1.51e-03	0	43	0	371195904	22	4823
2026-01-01 10:33:16.74	167.68	31.60	-31.2	-34.2	10.5	2.66e-03	0	43	0	373293056	22	5086
2026-01-01 10:33:17.74	167.73	31.80	-31.1	-33.8	10.9	2.76e-03	0	43	0	375390208	22	4925
2026-01-01 10:33:18.75	167.77	32.00	-31.3	-34.4	10.4	3.81e-03	0	43	0	377487360	22	5170
2026-01-01 10:33:19.74	167.81	32.21	-31.3	-34.5	10.3	5.81e-03	0	43	0	379584512	22	5197
2026-01-01 10:33:20.75	167.86	32.42	-31.3	-34.4	10.4	4.45e-03	0	43	0	380633088	22	5169
2026-01-01 10:33:21.75	167.90	32.62	-31.4	-34.4	10.0	4.57e-03	0	43	0	382730240	23	5080
2026-01-01 10:33:22.75	167.94	32.83	-31.3	-34.0	10.4	1.09e-02	0	43	0	384827392	23	4920
2026-01-01 10:33:23.76	167.99	33.05	-31.4	-34.5	10.0	6.84e-03	0	43	0	386924544	23	5105
2026-01-01 10:33:24.77	168.04	33.26	-31.5	-34.7	9.9	6.06e-03	0	43	0	387973120	23	5216
2026-01-01 10:33:25.78	168.08	33.48	-31.2	-33.8	10.6	3.00e-03	0	43	0	390070272	23	4839
2026-01-01 10:33:26.78	168.13	33.69	-31.1	-33.3	10.8	2.58e-03	0	43	0	392167424	23	4655
2026-01-01 10:33:27.79	168.18	33.91	-31.1	-33.2	10.9	3.01e-03	0	43	0	394264576	23	4624
2026-01-01 10:33:28.79	168.23	34.13	-31.1	-33.3	10.8	2.21e-03	0	43	0	396361728	23	4651
2026-01-01 10:33:29.79	168.27	34.35	-31.0	-32.9	11.1	1.69e-03	0	43	0	397410304	23	4485
2026-01-01 10:33:30.79	168.32	34.57	-31.1	-33.2	11.0	2.33e-03	0	43	0	399507456	23	4608
2026-01-01 10:33:31.79	168.37	34.79	-30.9	-32.8	11.3	3.34e-03	0	43	0	401604608	23	4463
2026-01-01 10:33:32.80	168.42	35.02	-30.5	-32.0	12.3	4.61e-04	0	43	0	403701760	22	4262
2026-01-01 10:33:33.80	168.48	35.24	-29.8	-30.5	13.5	2.74e-05	0	43	0	405798912	21	3912
2026-01-01 10:33:34.81	168.53	35.47	-29.4	-29.9	14.1	1.06e-05	0	43	0	406847488	20	3818
2026-01-01 10:33:35.81	168.58	35.70	-29.4	-30.4	14.3	0.00e+00	0	43	0	408944640	19	4036
2026-01-01 10:33:36.81	168.63	35.93	-29.4	-30.3	14.3	0.00e+00	0	43	0	411041792	19	4024
2026-01-01 10:33:37.81	168.69	36.17	-29.0	-29.4	14.8	4.50e-06	0	43	0	413138944	19	3778
2026-01-01 10:33:38.82	168.74	36.40	-29.3	-30.2	14.4	0.00e+00	0	43	0	415236096	19	3990
2026-01-01 10:33:39.82	168.80	36.64	-29.1	-29.7	14.7	1.50e-06	0	43	0	416284672	19	3840
2026-01-01 10:33:40.81	168.85	36.87	-29.1	-29.7	14.7	4.50e-06	0	43	0	418381824	19	3842
2026-01-01 10:33:41.82	168.91	37.12	-29.0	-29.3	14.9	0.00e+00	0	43	0	420478976	19	3740
2026-01-01 10:33:42.83	168.97	37.36	-29.0	-29.4	14.8	0.00e+00	0	43	0	422576128	19	3770
2026-01-01 10:33:43.83	169.03	37.60	-28.8	-29.0	15.1	6.80e-06	0	43	0	424673280	19	3665
2026-01-01 10:33:44.83	169.09	37.85	-28.8	-29.5	15.1	0.00e+00	0	43	0	425721856	18	3879
2026-01-01 10:33:45.84	169.15	38.09	-28.7	-29.1	15.3	0.00e+00	0	43	0	427819008	18	3779
2026-01-01 10:33:46.84	169.21	38.34	-28.5	-28.6	15.6	6.10e-06	0	43	0	429916160	18	3645
2026-01-01 10:33:47.84	169.27	38.59	-28.4	-28.9	15.7	0.00e+00	0	43	0	432013312	17	3808
2026-01-01 10:33:48.84	169.33	38.84	-28.4	-29.0	15.6	7.00e-07	0	43	0	434110464	17	3836
2026-01-01 10:33:49.84	169.40	39.10	-28.5	-29.3	15.5	5.30e-06	0	43	0	435159040	17	3911
2026-01-01 10:33:50.85	169.46	39.36	-28.5	-29.2	15.5	0.00e+00	0	43	0	437256192	17	3905
2026-01-01 10:33:51.85	169.53	39.61	-28.5	-29.1	15.6	0.00e+00	0	43	0	439353344	17	3876
2026-01-01 10:33:52.85	169.59	39.87	-28.9	-30.1	15.1	6.80e-06	0	43	0	441450496	17	4133
2026-01-01 10:33:53.85	169.66	40.13	-29.0	-29.9	14.9	0.00e+00	0	43	0	442499072	18	3991
2026-01-01 10:33:54.85	169.73	40.39	-29.2	-30.3	14.7	7.00e-07	0	43	0	444596224	18	4103
2026-01-01 10:33:55.85	169.80	40.66	-29.7	-31.0	13.9	1.29e-05	0	43	0	446693376	19	4222
2026-01-01 10:33:56.85	169.87	40.93	-29.8	-31.5	13.7	2.20e-06	0	43	0	448790528	19	4347
2026-01-01 10:33:57.86	169.94	41.20	-30.1	-31.8	13.0	2.28e-05	0	43	0	450887680	20	4376
2026-01-01 10:33:58.87	170.02	41.47	-30.2	-32.0	12.9	4.34e-05	0	43	0	451936256	20	4427
2026-01-01 10:33:59.87	170.09	41.74	-30.1	-31.8	13.0	2.44e-05	0	43	0	454033408	20	4367
2026-01-01 10:34:00.88	170.17	42.02	-30.5	-32.4	12.3	1.59e-04	0	43	0	456130560	21	4487
2026-01-01 10:34:01.88	170.25	42.30	-30.3	-31.9	12.5	1.17e-04	0	43	0	458227712	21	4329
2026-01-01 10:34:02.88	170.32	42.58	-30.6	-32.9	11.9	1.33e-04	0	43	0	460324864	21	4648
2026-01-01 10:34:03.88	170.40	42.86	-30.4	-32.1	12.4	9.07e-05	0	43	0	461373440	21	4378
2026-01-01 10:34:04.89	170.48	43.14	-30.1	-31.2	13.1	2.67e-05	0	43	0	463470592	21	4081
2026-01-01 10:34:05.89	170.57	43.43	-29.8	-30.5	13.5	3.81e-05	0	43	0	465567744	21	3900
2026-01-01 10:34:06.89	170.65	43.71	-30.0	-30.9	13.3	1.52e-05	0	43	0	467664896	21	4000
2026-01-01 10:34:07.90	170.74	44.01	-29.8	-31.0	13.5	7.60e-06	0	43	0	469762048	20	4124
2026-01-01 10:34:08.90	170.82	44.30	-29.7	-30.6	13.8	4.50e-06	0	43	0	470810624	20	4003
2026-01-01 10:34:09.91	170.91	44.59	-29.8	-30.9	13.6	4.50e-06	0	43	0	472907776	20	4086
2026-01-01 10:34:10.91	171.00	44.89	-29.8	-30.9	13.6	4.50e-06	0	43	0	475004928	20	4081
2026-01-01 10:34:11.91	171.09	45.19	-29.9	-31.3	13.3	3.20e-05	0	43	0	477102080	20	4232
2026-01-01 10:34:12.91	171.18	45.48	-30.4	-32.6	12.6	5.56e-05	0	43	0	479199232	20	4626
2026-01-01 10:34:13.92	171.28	45.79	-30.6	-32.7	12.1	1.29e-04	0	43	0	480247808	21	4579
2026-01-01 10:34:14.92	171.38	46.09	-31.0	-33.3	11.3	9.06e-04	0	43	0	482344960	22	4692
2026-01-01 10:34:15.92	171.48	46.40	-30.9	-33.0	11.5	8.82e-04	0	43	0	484442112	22	4583
2026-01-01 10:34:16.92	171.58	46.71	-31.0	-33.5	11.2	9.25e-04	0	43	0	486539264	22	4757
2026-01-01 10:34:17.92	171.68	47.02	-31.1	-33.6	11.2	1.50e-03	0	43	0	488636416	22	4808
2026-01-01 10:34:18.92	171.78	47.33	-31.2	-34.1	10.7	1.54e-03	0	43	0	489684992	22	5002
2026-01-01 10:34:19.92	171.89	47.65	-31.2	-33.9	11.0	1.77e-03	0	43	0	491782144	22	4920
2026-01-01 10:34:20.93	172.00	47.97	-31.0	-33.2	11.3	2.31e-03	0	43	0	493879296	22	4682
2026-01-01 10:34:21.93	172.11	48.29	-31.1	-33.7	11.1	2.18e-03	0	43	0	495976448	22	4848
2026-01-01 10:34:22.93	172.22	48.61	-30.8	-32.9	11.6	7.95e-04	0	43	0	498073600	22	4538
2026-01-01 10:34:23.93	172.33	48.93	-30.9	-33.0	11.6	8.93e-04	0	43	0	499122176	22	4601
2026-01-01 10:34:24.94	172.45	49.26	-30.2	-31.6	12.8	7.17e-05	0	43	0	501219328	21	4218
2026-01-01 10:34:25.94	172.57	49.59	-29.5	-30.1	14.1	1.06e-05	0	43	0	503316480	20	3865
2026-01-01 10:34:26.94	172.69	49.92	-28.7	-29.1	15.4	7.00e-07	0	43	0	505413632	18	3762
2026-01-01 10:34:27.94	172.82	50.25	-28.6	-28.8	15.6	0.00e+00	0	43	0	506462208	18	3677
2026-01-01 10:34:28.95	172.95	50.59	-28.1	-28.1	16.2	0.00e+00	0	43	0	508559360	17	3614
2026-01-01 10:34:29.95	173.08	50.93	-28.1	-28.2	16.2	0.00e+00	0	43	0	510656512	17	3631
2026-01-01 10:34:30.96	173.21	51.27	-28.6	-29.3	15.6	1.50e-06	0	43	0	512753664	17	3895
2026-01-01 10:34:31.96	173.35	51.62	-29.2	-30.3	14.8	0.00e+00	0	43	0	514850816	18	4085
2026-01-01 10:34:32.96	173.49	51.96	-29.4	-30.4	14.4	7.00e-07	0	43	0	515899392	19	4015
2026-01-01 10:34:33.96	173.63	52.31	-29.4	-30.4	14.3	7.00e-07	0	43	0	517996544	19	4037
2026-01-01 10:34:34.96	173.78	52.66	-29.7	-31.0	14.0	1.50e-06	0	43	0	520093696	19	4197
2026-01-01 10:34:35.96	173.93	53.01	-29.4	-30.4	14.3	2.20e-06	0	43	0	522190848	19	4014
2026-01-01 10:34:36.96	174.08	53.36	-29.0	-29.4	14.9	0.00e+00	0	43	0	524288000	19	3755
2026-01-01 10:34:37.97	174.24	53.72	-28.7	-29.0	15.5	0.00e+00	0	43	0	525336576	18	3738
2026-01-01 10:34:38.97	174.40	54.08	-28.6	-28.8	15.6	0.00e+00	0	43	0	527433728	18	3695
2026-01-01 10:34:39.97	174.56	54.44	-28.4	-28.4	15.9	0.00e+00	0	43	0	529530880	18	3592
2026-01-01 10:34:40.98	174.73	54.81	-28.8	-29.3	15.4	0.00e+00	0	43	0	531628032	18	3808
2026-01-01 10:34:41.98	174.90	55.17	-28.2	-28.3	16.1	0.00e+00	0	43	0	533725184	17	3669
2026-01-01 10:34:42.97	175.08	55.54	-27.8	-27.4	16.7	0.00e+00	0	43	0	534773760	17	3433
2026-01-01 10:34:43.97	175.26	55.91	-27.3	-26.8	17.3	0.00e+00	0	43	0	536870912	16	3398
2026-01-01 10:34:44.97	175.45	56.28	-26.7	-26.4	17.9	0.00e+00	0	43	0	538968064	14	3492
2026-01-01 10:34:45.97	175.64	56.65	-26.8	-26.7	17.8	0.00e+00	0	43	0	541065216	14	3547
2026-01-01 10:34:46.98	175.84	57.03	-27.1	-27.3	17.5	0.00e+00	0	43	0	543162368	14	3692
2026-01-01 10:34:47.99	176.04	57.42	-27.5	-27.7	16.9	0.00e+00	0	43	0	544210944	15	3705
2026-01-01 10:34:48.99	176.25	57.80	-27.8	-28.4	16.6	0.00e+00	0	43	0	546308096	15	3875
2026-01-01 10:34:49.99	176.46	58.18	-28.1	-28.6	16.2	0.00e+00	0	43	0	548405248	16	3821
2026-01-01 10:34:51.00	176.69	58.57	-27.7	-27.7	16.9	0.00e+00	0	43	0	550502400	16	3597
2026-01-01 10:34:52.01	176.91	58.96	-27.5	-27.3	17.1	0.00e+00	0	43	0	551550976	16	3511
2026-01-01 10:34:53.01	177.15	59.35	-27.8	-28.0	16.6	0.00e+00	0	43	0	553648128	16	3669
2026-01-01 10:34:54.01	177.39	59.74	-28.1	-28.5	16.4	0.00e+00	0	43	0	555745280	16	3799
2026-01-01 10:34:55.01	177.63	60.14	-28.5	-29.6	15.9	0.00e+00	0	43	0	557842432	16	4066
2026-01-01 10:34:56.02	177.89	60.53	-28.6	-29.2	15.6	0.00e+00	0	43	0	559939584	17	3889
2026-01-01 10:34:57.02	178.15	60.93	-28.5	-29.0	15.9	0.00e+00	0	43	0	562036736	17	3822
2026-01-01 10:34:58.03	178.43	61.34	-28.1	-28.2	16.3	0.00e+00	0	43	0	563085312	17	3629
2026-01-01 10:34:59.03	178.71	61.74	-28.3	-28.5	16.2	0.00e+00	0	43	0	565182464	17	3686
2026-01-01 10:35:00.03	179.00	62.14	-28.5	-29.1	15.8	0.00e+00	0	43	0	567279616	17	3851
2026-01-01 10:35:01.03	179.30	62.54	-28.1	-28.1	16.4	0.00e+00	0	43	0	569376768	17	3611
2026-01-01 10:35:02.02	179.60	62.95	-28.0	-27.8	16.6	0.00e+00	0	43	0	570425344	17	3530
2026-01-01 10:35:03.02	179.92	63.36	-28.3	-28.5	16.1	0.00e+00	0	43	0	572522496	17	3711
2026-01-01 10:35:04.03	180.25	63.77	-28.7	-29.5	15.6	7.00e-07	0	43	0	574619648	17	3967
2026-01-01 10:35:05.03	180.60	64.18	-29.2	-30.1	14.9	0.00e+00	0	43	0	576716800	18	4036
2026-01-01 10:35:06.04	180.95	64.60	-29.5	-30.6	14.4	0.00e+00	0	43	0	578813952	19	4071
2026-01-01 10:35:07.04	181.32	65.01	-29.5	-30.7	14.4	7.00e-07	0	43	0	579862528	19	4091
2026-01-01 10:35:08.04	181.70	65.43	-29.5	-30.6	14.4	7.00e-07	0	43	0	581959680	19	4084
2026-01-01 10:35:09.04	182.10	65.84	-29.4	-30.2	14.6	0.00e+00	0	43	0	584056832	19	3970
2026-01-01 10:35:10.04	182.51	66.26	-28.7	-29.0	15.7	0.00e+00	0	43	0	586153984	18	3722
2026-01-01 10:35:11.04	182.94	66.68	-28.5	-28.5	16.0	0.00e+00	0	43	0	588251136	18	3599
2026-01-01 10:35:12.03	183.37	67.10	-29.0	-29.9	15.1	0.00e+00	0	43	0	589299712	18	3958
2026-01-01 10:35:13.03	183.84	67.52	-30.5	-32.2	13.7	0.00e+00	0	43	0	591396864	20	4388
2026-01-01 10:35:14.04	184.32	67.94	-30.5	-32.7	12.6	3.12e-05	0	43	0	593494016	20	4658
2026-01-01 10:35:15.04	184.82	68.36	-30.7	-33.0	12.2	1.99e-04	0	43	0	595591168	21	4650
2026-01-01 10:35:16.04	185.35	68.79	-30.3	-31.6	13.0	1.17e-04	0	43	0	596639744	21	4192
2026-01-01 10:35:17.04	185.89	69.21	-30.3	-31.6	13.0	2.89e-05	0	43	0	598736896	21	4180
2026-01-01 10:35:18.04	186.46	69.63	-30.4	-31.8	12.8	3.12e-05	0	43	0	600834048	21	4266
2026-01-01 10:35:19.04	187.06	70.05	-30.7	-32.9	12.2	1.21e-04	0	43	0	602931200	21	4632
2026-01-01 10:35:20.05	187.69	70.48	-31.5	-34.3	10.5	1.10e-03	0	43	0	605028352	23	4987
2026-01-01 10:35:21.05	188.34	70.90	-31.3	-33.7	10.9	1.95e-03	0	43	0	606076928	23	4753
2026-01-01 10:35:22.05	189.02	71.32	-31.3	-33.6	10.9	4.42e-03	0	43	0	608174080	23	4710
2026-01-01 10:35:23.06	189.75	71.75	-31.4	-33.9	10.9	1.15e-03	0	43	0	610271232	23	4790
2026-01-01 10:35:24.06	190.50	72.17	-30.8	-32.2	12.0	6.86e-04	0	43	0	612368384	23	4197
2026-01-01 10:35:25.06	191.29	72.59	-30.0	-30.8	13.6	1.54e-04	0	43	0	614465536	21	3968
2026-01-01 10:35:26.06	192.12	73.00	-29.4	-30.1	14.8	7.00e-07	0	43	0	615514112	19	3938
2026-01-01 10:35:27.06	193.00	73.42	-30.1	-31.5	13.5	1.50e-06	0	43	0	617611264	20	4251
2026-01-01 10:35:28.05	193.91	73.82	-30.9	-33.4	11.9	1.20e-04	0	43	0	619708416	21	4811
2026-01-01 10:35:29.05	194.88	74.23	-31.3	-34.1	11.1	1.25e-03	0	43	0	621805568	22	4986
2026-01-01 10:35:30.06	195.91	74.64	-30.6	-31.9	12.6	4.21e-04	0	43	0	623902720	22	4186
2026-01-01 10:35:31.06	197.00	75.04	-30.4	-31.5	12.9	5.56e-05	0	43	0	624951296	22	4055
2026-01-01 10:35:32.06	198.14	75.44	-30.7	-32.8	12.3	8.54e-05	0	43	0	627048448	21	4588
2026-01-01 10:35:33.06	199.35	75.83	-30.9	-32.7	12.0	5.63e-04	0	43	0	629145600	22	4468
2026-01-01 10:35:34.06	200.63	76.22	-31.2	-33.8	11.3	1.44e-03	0	43	0	631242752	22	4851
2026-01-01 10:35:35.06	201.99	76.60	-31.6	-34.4	10.4	1.47e-03	0	43	0	632291328	23	4974
2026-01-01 10:35:36.06	203.43	76.98	-31.9	-35.1	9.4	2.29e-02	0	43	0	634388480	24	5200
2026-01-01 10:35:37.06	204.95	77.34	-31.6	-34.1	10.3	7.58e-03	0	43	0	636485632	24	4794
2026-01-01 10:35:38.06	206.57	77.70	-30.9	-32.4	11.9	1.06e-03	0	43	0	638582784	23	4260
2026-01-01 10:35:39.07	208.30	78.06	-31.2	-33.8	11.5	3.69e-04	0	43	0	640679936	22	4833
2026-01-01 10:35:40.07	210.12	78.40	-31.6	-34.5	10.4	4.25e-03	0	43	0	641728512	23	5035
2026-01-01 10:35:41.07	212.05	78.72	-31.1	-32.9	11.6	2.69e-03	0	43	0	643825664	23	4442
2026-01-01 10:35:42.08	214.12	79.04	-30.8	-32.6	12.2	3.60e-04	0	43	0	645922816	22	4404
2026-01-01 10:35:43.09	216.30	79.35	-31.7	-34.7	10.3	3.96e-03	0	43	0	648019968	23	5118
2026-01-01 10:35:44.09	218.60	79.63	-32.1	-35.9	9.0	1.29e-02	0	43	0	650117120	24	5562
2026-01-01 10:35:45.09	221.02	79.90	-31.8	-34.7	9.9	2.63e-02	0	43	0	651165696	24	5031
2026-01-01 10:35:46.09	223.57	80.15	-31.1	-32.8	11.5	8.17e-04	0	43	0	653262848	23	4385
2026-01-01 10:35:47.09	226.25	80.38	-31.2	-33.1	11.5	6.02e-04	0	43	0	655360000	23	4516
2026-01-01 10:35:48.09	229.06	80.59	-31.7	-35.0	10.0	5.51e-03	0	43	0	657457152	23	5247
2026-01-01 10:35:49.09	231.99	80.78	-31.5	-34.3	10.6	6.80e-03	0	43	0	659554304	23	4943
2026-01-01 10:35:50.10	235.07	80.94	-31.4	-33.8	11.0	1.83e-03	0	43	0	660602880	23	4740
2026-01-01 10:35:51.10	238.22	81.08	-31.5	-34.2	10.6	3.07e-03	0	43	0	662700032	23	4913
2026-01-01 10:35:52.10	241.45	81.19	-30.9	-32.4	12.0	2.18e-03	0	43	0	664797184	23	4259
2026-01-01 10:35:53.10	244.76	81.27	-30.5	-31.7	12.8	4.88e-05	0	43	0	666894336	22	4117
2026-01-01 10:35:54.11	248.15	81.32	-30.6	-32.4	12.6	3.96e-05	0	43	0	668991488	21	4451
2026-01-01 10:35:55.12	251.57	81.34	-30.9	-33.3	12.0	1.23e-04	0	43	0	670040064	21	4744
2026-01-01 10:35:56.12	254.96	81.33	-30.9	-33.5	12.0	2.83e-04	0	43	0	672137216	21	4804
2026-01-01 10:35:57.13	258.37	81.29	-30.8	-32.6	12.1	5.10e-04	0	43	0	674234368	22	4419
2026-01-01 10:35:58.13	261.70	81.22	-31.8	-35.2	10.0	9.24e-04	0	43	0	676331520	23	5328
2026-01-01 10:35:59.12	264.93	81.12	-32.6	-37.4	7.7	3.09e-02	0	43	0	678428672	25	6262
2026-01-01 10:36:00.13	268.15	81.00	-31.9	-34.5	9.6	3.74e-02	0	43	0	679477248	25	4867
2026-01-01 10:36:01.13	271.24	80.85	-32.2	-35.8	8.7	2.87e-02	0	43	0	681574400	25	5412
2026-01-01 10:36:02.13	274.21	80.67	-32.3	-36.1	8.3	7.39e-02	0	43	0	683671552	25	5594
2026-01-01 10:36:03.13	277.07	80.47	-31.8	-34.8	9.8	1.38e-02	0	43	0	685768704	24	5078
2026-01-01 10:36:04.14	279.83	80.25	-31.9	-35.2	9.5	9.71e-03	0	43	0	686817280	24	5267
2026-01-01 10:36:05.14	282.43	80.00	-32.5	-37.1	7.6	1.66e-02	0	44	0	688914432	25	6118
2026-01-01 10:36:06.15	284.93	79.74	-32.7	-37.8	7.1	1.52e-01	0	43	0	691011584	25	6515
2026-01-01 10:36:07.15	287.27	79.46	-32.3	-36.2	8.3	4.59e-02	0	43	0	693108736	25	5648
2026-01-01 10:36:08.15	289.48	79.16	-31.8	-34.2	9.6	1.99e-02	0	43	0	695205888	25	4777
2026-01-01 10:36:09.16	291.59	78.85	-31.1	-32.9	11.6	5.86e-03	0	43	0	696254464	23	4423
2026-01-01 10:36:10.16	293.57	78.53	-30.6	-32.0	12.6	1.39e-04	0	43	0	698351616	22	4233
2026-01-01 10:36:11.16	295.43	78.19	-30.3	-31.2	13.0	1.13e-04	0	43	0	700448768	22	3990
2026-01-01 10:36:12.17	297.20	77.84	-30.4	-31.4	12.9	4.34e-05	0	43	0	702545920	22	4054
2026-01-01 10:36:13.17	298.86	77.49	-30.8	-32.7	12.0	3.89e-04	0	43	0	704643072	22	4451
2026-01-01 10:36:14.17	300.41	77.13	-30.3	-31.1	13.0	3.99e-04	0	44	0	705691648	22	3958
2026-01-01 10:36:15.18	301.90	76.75	-29.0	-29.2	15.3	5.30e-06	0	43	0	707788800	19	3675
2026-01-01 10:36:16.18	303.29	76.37	-28.6	-28.8	15.8	0.00e+00	0	43	0	709885952	18	3674
2026-01-01 10:36:17.18	304.59	75.99	-29.1	-29.9	15.1	0.00e+00	0	43	0	711983104	18	3965
2026-01-01 10:36:18.18	305.83	75.60	-29.5	-30.9	14.6	2.20e-06	0	43	0	714080256	18	4268
2026-01-01 10:36:19.18	307.00	75.20	-30.4	-32.4	12.8	0.00e+00	0	43	0	715128832	20	4551
2026-01-01 10:36:20.19	308.11	74.80	-31.3	-34.1	10.9	2.75e-03	0	43	0	717225984	22	4990
2026-01-01 10:36:21.19	309.16	74.39	-31.0	-33.2	11.6	1.44e-03	0	43	0	719323136	22	4645
2026-01-01 10:36:22.20	310.16	73.98	-30.8	-32.7	11.9	4.65e-04	0	43	0	721420288	22	4477
2026-01-01 10:36:23.20	311.10	73.57	-29.6	-30.4	14.0	6.63e-05	0	43	0	723517440	20	3948
2026-01-01 10:36:24.20	311.99	73.16	-28.5	-28.6	15.8	0.00e+00	0	43	0	724566016	18	3628
2026-01-01 10:36:25.21	312.84	72.74	-28.9	-29.5	15.3	0.00e+00	0	43	0	726663168	18	3848
2026-01-01 10:36:26.21	313.65	72.33	-30.6	-32.6	12.4	0.00e+00	0	43	0	728760320	21	4520
2026-01-01 10:36:27.21	314.41	71.91	-30.9	-33.5	11.8	2.16e-04	0	43	0	730857472	21	4841
2026-01-01 10:36:28.21	315.14	71.49	-31.3	-34.2	10.9	6.50e-04	0	43	0	731906048	22	5048
2026-01-01 10:36:29.21	315.84	71.07	-32.3	-36.9	8.1	1.98e-02	0	43	0	734003200	24	6136
2026-01-01 10:36:30.22	316.51	70.64	-32.0	-35.6	9.1	8.13e-02	0	43	0	736100352	24	5482
2026-01-01 10:36:31.22	317.14	70.22	-32.0	-35.9	8.8	2.43e-02	0	43	0	738197504	24	5595
2026-01-01 10:36:32.22	317.75	69.80	-31.8	-35.1	9.3	2.35e-02	0	43	0	740294656	24	5215
2026-01-01 10:36:33.23	318.33	69.37	-31.9	-35.5	9.1	2.47e-02	0	43	0	742391808	24	5397
2026-01-01 10:36:34.23	318.88	68.95	-31.6	-34.1	10.4	1.35e-02	0	43	0	743440384	24	4816
2026-01-01 10:36:35.24	319.42	68.53	-32.3	-37.2	7.8	2.48e-02	0	43	0	745537536	24	6285
2026-01-01 10:36:36.24	319.93	68.11	-32.1	-36.3	8.3	8.05e-02	0	43	0	747634688	24	5841
2026-01-01 10:36:37.25	320.42	67.68	-30.3	-31.3	12.8	1.17e-03	0	43	0	749731840	22	4030
2026-01-01 10:36:38.24	320.89	67.27	-28.4	-28.4	15.9	0.00e+00	0	43	0	750780416	18	3575
2026-01-01 10:36:39.24	321.34	66.85	-28.1	-28.2	16.3	0.00e+00	0	43	0	752877568	17	3625
2026-01-01 10:36:40.25	321.77	66.42	-29.1	-30.1	15.0	0.00e+00	0	43	0	754974720	18	4019
2026-01-01 10:36:41.25	322.19	66.01	-29.4	-30.9	14.5	0.00e+00	0	43	0	757071872	18	4275
2026-01-01 10:36:42.25	322.59	65.59	-29.8	-31.3	13.9	1.50e-06	0	43	0	759169024	19	4302
2026-01-01 10:36:43.25	322.97	65.18	-30.0	-31.3	13.4	3.00e-06	0	43	0	760217600	20	4216
2026-01-01 10:36:44.26	323.35	64.76	-29.5	-30.1	14.2	9.10e-06	0	43	0	762314752	20	3849
2026-01-01 10:36:45.26	323.71	64.35	-29.0	-29.4	15.0	0.00e+00	0	43	0	764411904	19	3750
2026-01-01 10:36:46.27	324.06	63.93	-29.6	-30.8	14.3	0.00e+00	0	43	0	766509056	19	4139
2026-01-01 10:36:47.27	324.39	63.52	-30.3	-32.3	12.8	6.79e-05	0	43	0	768606208	20	4528
2026-01-01 10:36:48.28	324.72	63.11	-29.4	-29.8	14.4	1.60e-05	0	43	0	769654784	20	3770
2026-01-01 10:36:49.28	325.03	62.70	-28.6	-28.9	15.7	0.00e+00	0	43	0	771751936	18	3702
2026-01-01 10:36:50.29	325.34	62.30	-29.1	-29.9	15.0	0.00e+00	0	43	0	773849088	18	3983
2026-01-01 10:36:51.30	325.63	61.89	-30.0	-31.6	13.3	6.80e-06	0	43	0	775946240	20	4295
2026-01-01 10:36:52.30	325.91	61.49	-29.3	-30.0	14.6	6.10e-06	0	44	0	778043392	19	3921
2026-01-01 10:36:53.30	326.19	61.09	-28.9	-29.4	15.4	0.00e+00	0	43	0	779091968	18	3837
2026-01-01 10:36:54.30	326.45	60.69	-28.9	-29.6	15.2	0.00e+00	0	43	0	781189120	18	3879
2026-01-01 10:36:55.31	326.71	60.29	-28.6	-28.8	15.6	0.00e+00	0	43	0	783286272	18	3685
2026-01-01 10:36:56.31	326.96	59.90	-28.7	-29.0	15.7	0.00e+00	0	43	0	785383424	18	3720
2026-01-01 10:36:57.32	327.21	59.51	-29.9	-31.5	13.6	7.00e-07	0	43	0	787480576	19	4357
2026-01-01 10:36:58.32	327.44	59.12	-30.8	-33.2	11.8	1.43e-04	0	43	0	788529152	21	4768
2026-01-01 10:36:59.32	327.67	58.73	-31.8	-35.5	9.3	4.02e-03	0	43	0	790626304	23	5519
2026-01-01 10:37:00.32	327.89	58.35	-30.9	-32.5	11.6	5.51e-03	0	43	0	792723456	23	4319
2026-01-01 10:37:01.32	328.11	57.96	-30.3	-31.3	12.8	1.20e-04	0	43	0	794820608	22	4040
2026-01-01 10:37:02.33	328.32	57.58	-29.5	-30.0	14.2	1.44e-05	0	43	0	796917760	20	3837
2026-01-01 10:37:03.33	328.52	57.20	-28.9	-29.0	15.2	0.00e+00	0	43	0	797966336	19	3667
2026-01-01 10:37:04.33	328.72	56.82	-28.9	-29.1	15.1	0.00e+00	0	43	0	800063488	19	3681
2026-01-01 10:37:05.33	328.91	56.45	-29.1	-29.4	14.9	7.00e-07	0	43	0	802160640	19	3765
2026-01-01 10:37:06.34	329.10	56.07	-28.8	-29.4	15.2	0.00e+00	0	43	0	804257792	18	3832
2026-01-01 10:37:07.34	329.29	55.71	-28.8	-29.4	15.2	0.00e+00	0	43	0	805306368	18	3846
2026-01-01 10:37:08.35	329.47	55.33	-28.6	-28.9	15.5	0.00e+00	0	43	0	807403520	18	3709
2026-01-01 10:37:09.35	329.64	54.97	-28.6	-29.3	15.6	0.00e+00	0	43	0	809500672	17	3924
2026-01-01 10:37:10.35	329.81	54.61	-28.5	-29.0	15.8	0.00e+00	0	43	0	811597824	17	3823
2026-01-01 10:37:11.35	329.98	54.25	-28.9	-30.0	15.2	0.00e+00	0	43	0	813694976	17	4093
2026-01-01 10:37:12.35	330.14	53.89	-29.3	-30.6	14.5	0.00e+00	0	43	0	814743552	18	4179
2026-01-01 10:37:13.35	330.30	53.53	-29.6	-30.9	14.0	0.00e+00	0	43	0	816840704	19	4163
2026-01-01 10:37:14.36	330.45	53.18	-29.2	-29.8	14.7	1.50e-06	0	43	0	818937856	19	3857
2026-01-01 10:37:15.36	330.60	52.82	-29.1	-29.5	14.9	0.00e+00	0	43	0	821035008	19	3781
2026-01-01 10:37:16.36	330.75	52.48	-29.4	-30.4	14.3	0.00e+00	0	43	0	823132160	19	4043
2026-01-01 10:37:17.36	330.89	52.13	-29.6	-31.0	14.0	1.50e-06	0	43	0	824180736	19	4188
2026-01-01 10:37:18.36	331.03	51.78	-29.9	-31.6	13.6	1.50e-06	0	43	0	826277888	19	4383
2026-01-01 10:37:19.37	331.17	51.44	-30.8	-33.3	11.8	1.71e-04	0	43	0	828375040	21	4788
2026-01-01 10:37:20.37	331.31	51.10	-31.3	-34.6	10.4	5.82e-04	0	43	0	830472192	22	5211
2026-01-01 10:37:21.37	331.44	50.76	-31.6	-35.0	9.6	1.41e-02	0	43	0	832569344	23	5330
2026-01-01 10:37:22.37	331.57	50.43	-31.2	-33.7	10.6	7.92e-03	0	43	0	833617920	23	4760
2026-01-01 10:37:23.38	331.69	50.09	-30.4	-31.5	12.5	1.49e-03	0	43	0	835715072	22	4107
2026-01-01 10:37:24.38	331.82	49.76	-30.1	-31.3	13.0	3.96e-05	0	43	0	837812224	21	4126
2026-01-01 10:37:25.38	331.94	49.43	-30.5	-32.5	12.2	6.79e-05	0	43	0	839909376	21	4493
2026-01-01 10:37:26.38	332.06	49.11	-30.8	-33.2	11.7	1.81e-04	0	43	0	842006528	21	4772
2026-01-01 10:37:27.38	332.17	48.78	-30.7	-33.1	12.0	3.39e-04	0	43	0	843055104	21	4725
2026-01-01 10:37:28.39	332.29	48.46	-30.8	-33.2	11.8	4.13e-04	0	43	0	845152256	21	4770
2026-01-01 10:37:29.39	332.40	48.14	-31.5	-34.9	10.1	3.10e-03	0	43	0	847249408	22	5359
2026-01-01 10:37:30.40	332.51	47.82	-30.8	-32.8	11.6	2.95e-03	0	43	0	849346560	22	4521
2026-01-01 10:37:31.41	332.62	47.50	-30.5	-31.9	12.3	3.83e-04	0	43	0	850395136	22	4246
2026-01-01 10:37:32.40	332.72	47.19	-30.9	-33.2	11.5	3.35e-04	0	43	0	852492288	22	4666
2026-01-01 10:37:33.41	332.82	46.88	-31.7	-35.2	9.6	3.08e-03	0	43	0	854589440	23	5386
2026-01-01 10:37:34.41	332.92	46.57	-31.5	-34.7	10.0	1.19e-02	0	43	0	856686592	23	5214
2026-01-01 10:37:35.42	333.02	46.26	-31.6	-35.0	9.6	9.85e-03	0	43	0	858783744	23	5337
2026-01-01 10:37:36.42	333.12	45.96	-31.8	-35.8	9.0	2.83e-02	0	43	0	859832320	23	5715
2026-01-01 10:37:37.42	333.22	45.66	-31.5	-34.8	9.8	1.76e-02	0	43	0	861929472	23	5232
2026-01-01 10:37:38.43	333.31	45.36	-30.9	-32.7	11.3	2.43e-03	0	43	0	864026624	23	4423
2026-01-01 10:37:39.43	333.40	45.06	-30.4	-32.2	12.4	1.30e-04	0	43	0	866123776	21	4437
2026-01-01 10:37:40.44	333.49	44.76	-30.2	-31.5	12.8	1.32e-04	0	43	0	868220928	21	4190
2026-01-01 10:37:41.44	333.58	44.47	-29.3	-29.6	14.3	4.50e-06	0	43	0	869269504	20	3745
2026-01-01 10:37:42.45	333.67	44.17	-29.3	-30.2	14.3	1.50e-06	0	43	0	871366656	19	3987
2026-01-01 10:37:43.46	333.76	43.88	-29.5	-30.8	14.0	7.00e-07	0	43	0	873463808	19	4148
2026-01-01 10:37:44.46	333.84	43.60	-30.2	-32.2	12.6	1.75e-05	0	43	0	875560960	20	4532
2026-01-01 10:37:45.45	333.92	43.31	-30.6	-32.9	11.9	1.81e-04	0	43	0	877658112	21	4674
2026-01-01 10:37:46.45	334.01	43.03	-31.2	-34.1	10.7	7.00e-04	0	43	0	878706688	22	5028
2026-01-01 10:37:47.45	334.09	42.75	-30.8	-32.8	11.5	3.03e-03	0	43	0	880803840	22	4549
2026-01-01 10:37:48.46	334.17	42.47	-29.9	-30.7	13.2	5.56e-05	0	43	0	882900992	21	3961
2026-01-01 10:37:49.46	334.24	42.19	-29.3	-30.2	14.4	7.00e-07	0	43	0	884998144	19	3977
2026-01-01 10:37:50.46	334.32	41.92	-29.2	-29.8	14.6	0.00e+00	0	43	0	887095296	19	3875
2026-01-01 10:37:51.47	334.39	41.65	-29.1	-29.6	14.6	7.00e-07	0	43	0	888143872	19	3818
2026-01-01 10:37:52.47	334.47	41.38	-28.8	-29.4	15.2	0.00e+00	0	43	0	890241024	18	3842
2026-01-01 10:37:53.46	334.54	41.11	-29.1	-30.2	14.7	0.00e+00	0	43	0	892338176	18	4073
2026-01-01 10:37:54.46	334.61	40.84	-29.6	-31.1	13.8	2.20e-06	0	43	0	894435328	19	4232
2026-01-01 10:37:55.46	334.68	40.58	-30.2	-32.0	12.8	2.82e-05	0	43	0	896532480	20	4454
2026-01-01 10:37:56.47	334.75	40.31	-30.1	-31.8	12.8	5.56e-05	0	43	0	897581056	20	4391
2026-01-01 10:37:57.47	334.82	40.05	-29.9	-31.4	13.1	4.65e-05	0	43	0	899678208	20	4273
2026-01-01 10:37:58.46	334.89	39.80	-29.5	-30.2	13.9	2.05e-05	0	43	0	901775360	20	3901
2026-01-01 10:37:59.47	334.95	39.54	-29.2	-29.9	14.4	0.00e+00	0	43	0	903872512	19	3907
2026-01-01 10:38:00.48	335.02	39.28	-29.6	-30.9	13.8	1.50e-06	0	43	0	905969664	19	4189
2026-01-01 10:38:01.48	335.08	39.03	-29.8	-31.6	13.4	7.00e-07	0	44	0	907018240	19	4390
2026-01-01 10:38:02.48	335.15	38.78	-30.4	-32.7	12.3	8.62e-05	0	43	0	909115392	20	4691
2026-01-01 10:38:03.48	335.21	38.53	-30.6	-32.8	11.9	2.66e-04	0	43	0	911212544	21	4624
2026-01-01 10:38:04.49	335.27	38.28	-30.9	-33.6	11.2	1.28e-03	0	43	0	913309696	21	4943
2026-01-01 10:38:05.49	335.33	38.03	-30.4	-32.3	12.1	3.46e-04	0	43	0	914358272	21	4464
2026-01-01 10:38:06.49	335.39	37.79	-30.5	-32.5	12.1	2.01e-04	0	43	0	916455424	21	4523
2026-01-01 10:38:07.50	335.45	37.54	-30.5	-32.4	12.1	3.07e-04	0	43	0	918552576	21	4506
2026-01-01 10:38:08.50	335.51	37.30	-30.4	-32.3	12.3	8.31e-05	0	43	0	920649728	21	4458
2026-01-01 10:38:09.50	335.57	37.06	-30.9	-33.7	11.1	6.86e-04	0	43	0	922746880	21	4962
2026-01-01 10:38:10.51	335.63	36.82	-30.8	-32.9	11.5	1.81e-03	0	43	0	923795456	22	4577
2026-01-01 10:38:11.51	335.68	36.59	-31.3	-34.4	10.4	1.11e-03	0	44	0	925892608	22	5185
2026-01-01 10:38:12.51	335.74	36.35	-31.3	-34.6	10.2	4.67e-03	0	43	0	927989760	22	5250
2026-01-01 10:38:13.51	335.79	36.12	-31.2	-34.1	10.5	3.28e-03	0	43	0	930086912	22	5059
2026-01-01 10:38:14.51	335.85	35.89	-30.9	-33.3	11.1	4.67e-03	0	43	0	932184064	22	4737
2026-01-01 10:38:15.51	335.90	35.66	-30.7	-32.5	11.6	1.59e-03	0	43	0	933232640	22	4457
2026-01-01 10:38:16.52	335.95	35.43	-30.5	-32.0	12.0	5.08e-04	0	43	0	935329792	22	4290
2026-01-01 10:38:17.52	336.00	35.21	-30.0	-31.0	13.0	5.49e-05	0	43	0	937426944	21	4062
2026-01-01 10:38:18.53	336.05	34.98	-30.3	-32.0	12.3	3.58e-05	0	43	0	939524096	21	4361
2026-01-01 10:38:19.53	336.11	34.76	-30.2	-31.7	12.5	1.33e-04	0	44	0	941621248	21	4283
2026-01-01 10:38:20.54	336.16	34.53	-30.0	-31.1	12.9	4.50e-05	0	43	0	942669824	21	4091
2026-01-01 10:38:21.54	336.20	34.31	-30.3	-31.9	12.5	7.09e-05	0	43	0	944766976	21	4339
2026-01-01 10:38:22.54	336.25	34.10	-30.6	-32.8	11.7	3.62e-04	0	43	0	946864128	21	4650
2026-01-01 10:38:23.54	336.30	33.88	-31.1	-34.0	10.5	2.08e-03	0	43	0	948961280	22	5025
2026-01-01 10:38:24.55	336.35	33.66	-31.5	-35.1	9.7	6.72e-03	0	43	0	951058432	22	5503
2026-01-01 10:38:25.55	336.40	33.45	-31.8	-35.9	8.8	2.27e-02	0	44	0	952107008	23	5796
2026-01-01 10:38:26.55	336.44	33.24	-31.8	-35.8	8.8	4.32e-02	0	43	0	954204160	23	5719
2026-01-01 10:38:27.55	336.49	33.03	-32.0	-36.3	8.1	4.60e-02	0	43	0	956301312	24	5882
2026-01-01 10:38:28.56	336.53	32.82	-31.8	-35.6	8.6	4.44e-02	0	43	0	958398464	24	5541
2026-01-01 10:38:29.56	336.58	32.61	-31.9	-35.7	8.5	3.70e-02	0	43	0	959447040	24	5618
2026-01-01 10:38:30.57	336.62	32.40	-31.7	-35.2	8.9	4.49e-02	0	43	0	961544192	24	5339
2026-01-01 10:38:31.57	336.67	32.19	-31.6	-34.8	9.2	2.34e-02	0	43	0	963641344	24	5175
2026-01-01 10:38:32.58	336.71	31.99	-31.5	-34.1	9.7	1.56e-02	0	43	0	965738496	24	4909
2026-01-01 10:38:33.59	336.75	31.79	-31.0	-32.9	11.0	4.52e-03	0	43	0	967835648	23	4519
2026-01-01 10:38:34.59	336.79	31.58	-30.8	-32.8	11.4	1.09e-03	0	43	0	969932800	22	4558
2026-01-01 10:38:35.59	336.84	31.39	-30.1	-31.3	12.7	3.52e-04	0	43	0	970981376	21	4144
2026-01-01 10:38:36.59	336.88	31.19	-29.7	-30.7	13.5	2.13e-05	0	44	0	973078528	20	4051
2026-01-01 10:38:37.59	336.92	30.99	-29.6	-30.5	13.5	1.75e-05	0	43	0	975175680	20	4006
2026-01-01 10:38:38.58	336.96	30.80	-29.6	-30.5	13.7	1.29e-05	0	43	0	977272832	20	3980
2026-01-01 10:38:39.59	337.00	30.60	-29.5	-30.1	13.8	3.00e-06	0	43	0	978321408	20	3896
2026-01-01 10:38:40.59	337.04	30.41	-29.4	-29.9	14.0	4.50e-06	0	43	0	980418560	20	3825
2026-01-01 10:38:41.60	337.08	30.22	-29.3	-29.7	14.1	2.20e-06	0	43	0	982515712	20	3772
2026-01-01 10:38:42.60	337.12	30.03	-29.4	-30.4	14.1	1.50e-06	0	43	0	984612864	19	4045
2026-01-01 10:38:43.61	337.16	29.84	-29.3	-30.1	14.3	0.00e+00	0	43	0	986710016	19	3959
2026-01-01 10:38:44.61	337.19	29.65	-29.3	-30.1	14.2	1.50e-06	0	43	0	987758592	19	3970
2026-01-01 10:38:45.61	337.23	29.46	-29.5	-30.7	13.8	1.50e-06	0	44	0	989855744	19	4142
2026-01-01 10:38:46.62	337.27	29.27	-29.8	-31.6	13.3	6.80e-06	0	43	0	991952896	19	4413
2026-01-01 10:38:47.62	337.30	29.09	-29.9	-31.4	13.0	3.20e-05	0	43	0	994050048	20	4268
2026-01-01 10:38:48.62	337.34	28.91	-30.1	-31.8	12.7	3.58e-05	0	43	0	996147200	20	4418
2026-01-01 10:38:49.63	337.38	28.72	-30.4	-32.7	12.1	1.69e-04	0	43	0	997195776	20	4727
2026-01-01 10:38:50.63	337.41	28.54	-30.6	-33.0	11.6	6.69e-04	0	44	0	999292928	21	4727
2026-01-01 10:38:51.63	337.45	28.36	-30.9	-33.9	10.9	1.10e-03	0	43	0	1001390080	21	5088
2026-01-01 10:38:52.63	337.48	28.19	-31.1	-34.1	10.4	2.90e-03	0	43	0	1003487232	22	5081
2026-01-01 10:38:53.63	337.52	28.01	-31.1	-34.2	10.3	5.82e-03	0	43	0	1005584384	22	5111
2026-01-01 10:38:54.63	337.55	27.83	-31.0	-33.8	10.7	4.28e-03	0	43	0	1006632960	22	4944
2026-01-01 10:38:55.64	337.59	27.66	-31.2	-34.5	10.1	3.49e-03	0	43	0	1008730112	22	5243
2026-01-01 10:38:56.64	337.62	27.48	-31.1	-33.9	10.4	4.81e-03	0	44	0	1010827264	22	5004
2026-01-01 10:38:57.64	337.65	27.31	-30.7	-32.7	11.4	2.10e-03	0	43	0	1012924416	22	4546
2026-01-01 10:38:58.65	337.69	27.14	-30.5	-32.1	11.7	6.03e-04	0	43	0	1015021568	22	4331
2026-01-01 10:38:59.65	337.72	26.97	-30.2	-31.8	12.3	1.81e-04	0	43	0	1016070144	21	4315
2026-01-01 10:39:00.66	337.75	26.80	-29.9	-31.0	12.8	1.06e-04	0	43	0	1018167296	21	4056
2026-01-01 10:39:01.66	337.78	26.63	-29.8	-31.0	13.1	6.40e-05	0	43	0	1020264448	20	4166
2026-01-01 10:39:02.66	337.81	26.46	-29.6	-30.5	13.4	1.83e-05	0	43	0	1022361600	20	4020
2026-01-01 10:39:03.66	337.85	26.29	-29.3	-30.2	14.1	5.30e-06	0	43	0	1023410176	19	3993
2026-01-01 10:39:04.67	337.88	26.13	-29.0	-29.5	14.5	0.00e+00	0	43	0	1025507328	19	3818
2026-01-01 10:39:05.66	337.91	25.96	-28.8	-28.9	14.9	7.00e-07	0	43	0	1027604480	19	3656
2026-01-01 10:39:06.67	337.94	25.80	-28.7	-29.3	14.9	0.00e+00	0	43	0	1029701632	18	3853
2026-01-01 10:39:07.67	337.97	25.64	-28.7	-29.3	14.9	0.00e+00	0	43	0	1031798784	18	3850
2026-01-01 10:39:08.67	338.00	25.48	-28.7	-29.1	15.0	0.00e+00	0	44	0	1032847360	18	3796
2026-01-01 10:39:09.68	338.03	25.31	-28.5	-28.7	15.3	0.00e+00	0	43	0	1034944512	18	3692
2026-01-01 10:39:10.68	338.06	25.16	-28.5	-28.7	15.3	0.00e+00	0	43	0	1037041664	18	3682
2026-01-01 10:39:11.68	338.09	25.00	-28.4	-28.5	15.4	0.00e+00	0	43	0	1039138816	18	3632
2026-01-01 10:39:12.68	338.12	24.84	-28.6	-28.9	15.1	0.00e+00	0	43	0	1041235968	18	3746
2026-01-01 10:39:13.68	338.15	24.68	-28.5	-28.7	15.3	0.00e+00	0	44	0	1042284544	18	3694
2026-01-01 10:39:14.69	338.18	24.53	-28.3	-28.8	15.5	0.00e+00	0	43	0	1044381696	17	3806
2026-01-01 10:39:15.70	338.20	24.37	-28.3	-28.7	15.5	0.00e+00	0	43	0	1046478848	17	3776
2026-01-01 10:39:16.70	338.23	24.22	-28.2	-28.6	15.6	0.00e+00	0	43	0	1048576000	17	3753
2026-01-01 10:39:17.70	338.26	24.06	-28.2	-28.6	15.6	0.00e+00	0	43	0	1050673152	17	3751
2026-01-01 10:39:18.70	338.29	23.91	-28.2	-28.4	15.7	1.50e-06	0	43	0	1051721728	17	3711
2026-01-01 10:39:19.70	338.31	23.76	-28.0	-28.1	15.9	0.00e+00	0	43	0	1053818880	17	3631
2026-01-01 10:39:20.71	338.34	23.61	-28.3	-28.9	15.4	0.00e+00	0	43	0	1055916032	17	3828
2026-01-01 10:39:21.71	338.37	23.46	-28.4	-29.0	15.4	7.00e-07	0	43	0	1058013184	17	3853
2026-01-01 10:39:22.71	338.40	23.31	-28.3	-28.8	15.5	0.00e+00	0	43	0	1060110336	17	3805
2026-01-01 10:39:23.72	338.42	23.16	-28.3	-28.7	15.4	0.00e+00	0	43	0	1061158912	17	3795
2026-01-01 10:39:24.72	338.45	23.02	-28.5	-29.3	15.1	0.00e+00	0	43	0	1063256064	17	3951
2026-01-01 10:39:25.73	338.48	22.87	-28.7	-29.8	14.8	0.00e+00	0	43	0	1065353216	17	4083
2026-01-01 10:39:26.72	338.50	22.72	-28.7	-29.9	14.8	0.00e+00	0	43	0	1067450368	17	4108
2026-01-01 10:39:27.72	338.53	22.58	-28.9	-30.2	14.6	7.00e-07	0	43	0	1069547520	17	4195
2026-01-01 10:39:28.73	338.55	22.44	-29.0	-30.5	14.4	7.00e-07	0	43	0	1070596096	17	4293
2026-01-01 10:39:29.73	338.58	22.29	-29.2	-30.4	14.1	7.00e-07	0	43	0	1072693248	18	4171
2026-01-01 10:39:30.74	338.60	22.15	-29.1	-30.3	14.2	2.20e-06	0	43	0	1074790400	18	4130
2026-01-01 10:39:31.74	338.63	22.01	-28.9	-29.9	14.5	1.50e-06	0	43	0	1076887552	18	4009
2026-01-01 10:39:32.75	338.65	21.87	-28.9	-29.7	14.7	0.00e+00	0	43	0	1077936128	18	3946
2026-01-01 10:39:33.75	338.68	21.73	-28.6	-29.1	15.0	0.00e+00	0	43	0	1080033280	18	3787
2026-01-01 10:39:34.76	338.70	21.59	-28.5	-28.7	15.2	0.00e+00	0	43	0	1082130432	18	3686
2026-01-01 10:39:35.76	338.73	21.45	-28.5	-28.8	15.1	0.00e+00	0	43	0	1084227584	18	3725
2026-01-01 10:39:36.76	338.75	21.31	-28.3	-28.3	15.4	0.00e+00	0	43	0	1086324736	18	3599
2026-01-01 10:39:37.76	338.77	21.18	-28.3	-28.7	15.5	0.00e+00	0	43	0	1087373312	17	3783
2026-01-01 10:39:38.77	338.80	21.04	-28.1	-28.2	15.7	0.00e+00	0	43	0	1089470464	17	3670
2026-01-01 10:39:39.77	338.82	20.90	-28.1	-28.4	15.6	0.00e+00	0	43	0	1091567616	17	3702
2026-01-01 10:39:40.77	338.84	20.77	-28.1	-28.3	15.7	0.00e+00	0	43	0	1093664768	17	3696
2026-01-01 10:39:41.77	338.87	20.64	-28.2	-28.5	15.6	0.00e+00	0	43	0	1095761920	17	3741
2026-01-01 10:39:42.78	338.89	20.50	-28.3	-28.7	15.4	1.50e-06	0	43	0	1096810496	17	3785
2026-01-01 10:39:43.78	338.91	20.37	-28.2	-28.7	15.5	0.00e+00	0	43	0	1098907648	17	3778
2026-01-01 10:39:44.78	338.94	20.24	-28.4	-29.1	15.2	0.00e+00	0	43	0	1101004800	17	3879
2026-01-01 10:39:45.78	338.96	20.11	-28.6	-29.5	14.9	0.00e+00	0	43	0	1103101952	17	4002
2026-01-01 10:39:46.79	338.98	19.98	-28.4	-29.2	15.1	0.00e+00	0	43	0	1105199104	17	3910
2026-01-01 10:39:47.79	339.00	19.85	-28.5	-29.2	15.0	0.00e+00	0	43	0	1106247680	17	3924
2026-01-01 10:39:48.78	339.03	19.72	-28.4	-29.2	15.1	0.00e+00	0	43	0	1108344832	17	3914
2026-01-01 10:39:49.79	339.05	19.59	-28.5	-29.2	15.1	0.00e+00	0	43	0	1110441984	17	3933
2026-01-01 10:39:50.79	339.07	19.46	-28.8	-30.0	14.6	7.00e-07	0	43	0	1112539136	17	4148
2026-01-01 10:39:51.79	339.09	19.33	-28.6	-29.5	14.9	0.00e+00	0	43	0	1114636288	17	4012
2026-01-01 10:39:52.80	339.11	19.21	-28.4	-29.1	15.2	0.00e+00	0	43	0	1115684864	17	3885
2026-01-01 10:39:53.80	339.13	19.08	-28.5	-29.2	15.1	0.00e+00	0	43	0	1117782016	17	3937
2026-01-01 10:39:54.80	339.15	18.96	-28.3	-28.9	15.3	0.00e+00	0	43	0	1119879168	17	3845
2026-01-01 10:39:55.81	339.18	18.83	-28.3	-28.9	15.2	0.00e+00	0	43	0	1121976320	17	3857
2026-01-01 10:39:56.81	339.20	18.71	-28.3	-28.7	15.3	0.00e+00	0	43	0	1123024896	17	3793
2026-01-01 10:39:57.81	339.22	18.59	-28.3	-28.8	15.3	0.00e+00	0	43	0	1125122048	17	3813
2026-01-01 10:39:58.81	339.24	18.46	-28.3	-28.8	15.3	0.00e+00	0	43	0	1127219200	17	3819
2026-01-01 10:39:59.82	339.26	18.34	-28.4	-29.1	15.2	0.00e+00	0	44	0	1129316352	17	3889
2026-01-01 10:40:00.82	339.28	18.22	-28.5	-29.4	14.9	0.00e+00	0	43	0	1131413504	17	3989
2026-01-01 10:40:01.82	339.30	18.10	-28.6	-29.7	14.8	0.00e+00	0	43	0	1132462080	17	4073
2026-01-01 10:40:02.82	339.32	17.98	-28.6	-29.6	14.8	0.00e+00	0	43	0	1134559232	17	4033
2026-01-01 10:40:03.82	339.34	17.86	-28.7	-29.8	14.7	0.00e+00	0	43	0	1136656384	17	4086
2026-01-01 10:40:04.82	339.36	17.74	-28.7	-29.8	14.7	7.00e-07	0	43	0	1138753536	17	4103
2026-01-01 10:40:05.83	339.38	17.62	-28.8	-30.0	14.5	0.00e+00	0	43	0	1140850688	17	4162
2026-01-01 10:40:06.84	339.40	17.50	-28.9	-30.4	14.3	1.50e-06	0	43	0	1141899264	17	4260
2026-01-01 10:40:07.84	339.42	17.38	-29.0	-30.2	14.2	3.80e-06	0	43	0	1143996416	18	4105
2026-01-01 10:40:08.85	339.44	17.27	-29.3	-30.8	13.8	3.00e-06	0	43	0	1146093568	18	4299
2026-01-01 10:40:09.85	339.46	17.15	-29.2	-30.7	13.8	5.30e-06	0	43	0	1148190720	18	4267
2026-01-01 10:40:10.85	339.48	17.04	-29.4	-31.2	13.5	1.29e-05	0	43	0	1150287872	18	4428
2026-01-01 10:40:11.86	339.50	16.92	-29.4	-30.7	13.5	1.67e-05	0	43	0	1151336448	19	4183
2026-01-01 10:40:12.86	339.51	16.80	-29.2	-30.2	13.8	3.00e-06	0	43	0	1153433600	19	4026
2026-01-01 10:40:13.86	339.53	16.69	-29.4	-30.7	13.5	9.10e-06	0	44	0	1155530752	19	4164
2026-01-01 10:40:14.86	339.55	16.58	-29.5	-30.9	13.4	1.44e-05	0	43	0	1157627904	19	4225
2026-01-01 10:40:15.86	339.57	16.47	-29.5	-30.9	13.4	1.98e-05	0	43	0	1159725056	19	4227
2026-01-01 10:40:16.87	339.59	16.35	-29.5	-31.0	13.3	1.98e-05	0	43	0	1160773632	19	4265
2026-01-01 10:40:17.87	339.61	16.24	-29.6	-31.1	13.2	2.82e-05	0	43	0	1162870784	19	4299
2026-01-01 10:40:18.87	339.63	16.13	-29.5	-30.9	13.4	2.89e-05	0	43	0	1164967936	19	4228
2026-01-01 10:40:19.88	339.64	16.02	-29.6	-31.1	13.2	2.13e-05	0	43	0	1167065088	19	4307
2026-01-01 10:40:20.88	339.66	15.91	-29.8	-31.6	12.9	2.82e-05	0	43	0	1169162240	19	4473
2026-01-01 10:40:21.89	339.68	15.80	-29.7	-31.5	12.9	4.73e-05	0	43	0	1170210816	19	4433
2026-01-01 10:40:22.89	339.70	15.69	-29.6	-31.3	13.0	2.89e-05	0	43	0	1172307968	19	4376
2026-01-01 10:40:23.90	339.72	15.58	-29.7	-31.4	13.0	5.64e-05	0	43	0	1174405120	19	4404
2026-01-01 10:40:24.89	339.73	15.47	-29.7	-31.6	12.9	4.50e-05	0	44	0	1176502272	19	4468
2026-01-01 10:40:25.90	339.75	15.36	-29.6	-31.4	13.0	2.67e-05	0	44	0	1178599424	19	4391
2026-01-01 10:40:26.90	339.77	15.25	-29.7	-31.6	12.9	3.66e-05	0	43	0	1179648000	19	4454
2026-01-01 10:40:27.90	339.79	15.15	-29.7	-31.5	12.9	4.95e-05	0	43	0	1181745152	19	4430
2026-01-01 10:40:28.91	339.80	15.04	-29.7	-31.6	12.9	3.66e-05	0	43	0	1183842304	19	4488
2026-01-01 10:40:29.91	339.82	14.93	-29.9	-32.0	12.6	8.16e-05	0	43	0	1185939456	19	4611
2026-01-01 10:40:30.91	339.84	14.83	-29.7	-31.5	12.9	9.15e-05	0	43	0	1186988032	19	4422
2026-01-01 10:40:31.92	339.86	14.72	-29.7	-31.7	12.7	9.00e-05	0	43	0	1189085184	19	4490
2026-01-01 10:40:32.92	339.87	14.62	-29.8	-31.8	12.7	1.17e-04	0	43	0	1191182336	19	4524
2026-01-01 10:40:33.91	339.89	14.51	-29.9	-32.0	12.5	1.03e-04	0	43	0	1193279488	19	4610
2026-01-01 10:40:34.91	339.91	14.41	-29.9	-31.5	12.4	1.46e-04	0	44	0	1195376640	20	4366
2026-01-01 10:40:35.92	339.92	14.31	-29.9	-31.6	12.4	1.59e-04	0	44	0	1196425216	20	4387
2026-01-01 10:40:36.91	339.94	14.20	-29.8	-31.5	12.5	1.59e-04	0	43	0	1198522368	20	4375
2026-01-01 10:40:37.92	339.96	14.10	-29.8	-31.5	12.4	1.38e-04	0	43	0	1200619520	20	4361
2026-01-01 10:40:38.92	339.97	14.00	-29.9	-31.5	12.4	1.03e-04	0	43	0	1202716672	20	4372
2026-01-01 10:40:39.92	339.99	13.90	-29.9	-31.6	12.3	2.08e-04	0	43	0	1204813824	20	4399
2026-01-01 10:40:40.93	340.00	13.80	-30.0	-31.9	12.2	2.05e-04	0	43	0	1205862400	20	4500
2026-01-01 10:40:41.94	340.02	13.69	-30.0	-32.1	12.0	2.58e-04	0	43	0	1207959552	20	4562
2026-01-01 10:40:42.94	340.04	13.59	-30.1	-32.2	11.9	3.13e-04	0	43	0	1210056704	20	4609
2026-01-01 10:40:43.95	340.05	13.49	-30.1	-32.2	11.9	3.20e-04	0	43	0	1212153856	20	4597
2026-01-01 10:40:44.96	340.07	13.39	-30.1	-32.3	11.8	3.73e-04	0	43	0	1214251008	20	4647
2026-01-01 10:40:45.96	340.08	13.29	-30.1	-32.4	11.7	5.41e-04	0	43	0	1215299584	20	4682
2026-01-01 10:40:46.96	340.10	13.20	-30.1	-32.2	11.9	5.08e-04	0	43	0	1217396736	20	4619
2026-01-01 10:40:47.96	340.12	13.10	-30.1	-32.3	11.8	3.98e-04	0	43	0	1219493888	20	4631
2026-01-01 10:40:48.96	340.13	13.00	-30.1	-32.5	11.7	5.41e-04	0	44	0	1221591040	20	4701
2026-01-01 10:40:49.97	340.15	12.90	-29.9	-31.9	12.1	4.31e-04	0	44	0	1223688192	20	4496
2026-01-01 10:40:50.98	340.16	12.80	-29.9	-31.8	12.2	2.34e-04	0	43	0	1224736768	20	4467
2026-01-01 10:40:51.98	340.18	12.71	-29.8	-31.5	12.3	2.27e-04	0	43	0	1226833920	20	4385
2026-01-01 10:40:52.98	340.19	12.61	-29.8	-31.4	12.4	1.90e-04	0	43	0	1228931072	20	4329
2026-01-01 10:40:53.98	340.21	12.52	-29.8	-31.4	12.4	1.46e-04	0	43	0	1231028224	20	4352
2026-01-01 10:40:54.98	340.22	12.42	-29.9	-31.9	12.1	2.50e-04	0	43	0	1233125376	20	4507
2026-01-01 10:40:55.99	340.24	12.32	-29.8	-31.6	12.2	2.59e-04	0	43	0	1234173952	20	4401
2026-01-01 10:40:57.00	340.25	12.23	-29.8	-31.6	12.3	1.50e-04	0	44	0	1236271104	20	4404
2026-01-01 10:40:58.00	340.27	12.13	-29.9	-31.8	12.1	2.30e-04	0	43	0	1238368256	20	4471
2026-01-01 10:40:59.01	340.28	12.04	-29.8	-31.6	12.3	2.15e-04	0	43	0	1240465408	20	4398
2026-01-01 10:41:00.01	340.30	11.94	-29.9	-31.8	12.1	2.59e-04	0	43	0	1241513984	20	4481
2026-01-01 10:41:01.01	340.31	11.85	-29.7	-31.3	12.4	2.17e-04	0	43	0	1243611136	20	4322
2026-01-01 10:41:02.01	340.33	11.76	-29.9	-31.7	12.1	2.40e-04	0	43	0	1245708288	20	4453
2026-01-01 10:41:03.02	340.34	11.67	-29.8	-31.4	12.3	2.98e-04	0	43	0	1247805440	20	4362
2026-01-01 10:41:04.02	340.36	11.57	-29.8	-31.6	12.2	1.76e-04	0	43	0	1249902592	20	4413
2026-01-01 10:41:05.02	340.37	11.48	-29.9	-31.9	12.0	1.94e-04	0	43	0	1250951168	20	4515
2026-01-01 10:41:06.02	340.39	11.39	-29.9	-31.9	12.0	3.23e-04	0	43	0	1253048320	20	4526
2026-01-01 10:41:07.02	340.40	11.30	-29.8	-31.4	12.3	2.23e-04	0	43	0	1255145472	20	4347
2026-01-01 10:41:08.02	340.42	11.21	-29.9	-31.9	11.9	1.90e-04	0	43	0	1257242624	20	4539
2026-01-01 10:41:09.03	340.43	11.12	-29.9	-31.9	12.0	4.16e-04	0	43	0	1259339776	20	4514
2026-01-01 10:41:10.03	340.44	11.03	-29.9	-31.8	12.0	2.30e-04	0	43	0	1260388352	20	4484
2026-01-01 10:41:11.04	340.46	10.94	-30.0	-32.1	11.7	4.77e-04	0	43	0	1262485504	20	4599
2026-01-01 10:41:12.04	340.47	10.85	-30.0	-32.0	11.8	4.33e-04	0	43	0	1264582656	20	4560
2026-01-01 10:41:13.04	340.49	10.76	-30.0	-32.2	11.7	4.81e-04	0	43	0	1266679808	20	4616
2026-01-01 10:41:14.05	340.50	10.67	-29.9	-32.0	11.9	4.51e-04	0	44	0	1268776960	20	4547
2026-01-01 10:41:15.05	340.51	10.58	-30.0	-32.1	11.8	3.45e-04	0	43	0	1269825536	20	4601
2026-01-01 10:41:16.06	340.53	10.49	-30.1	-32.6	11.4	9.34e-04	0	43	0	1271922688	20	4763
2026-01-01 10:41:17.06	340.54	10.40	-30.1	-32.4	11.6	8.58e-04	0	44	0	1274019840	20	4689
2026-01-01 10:41:18.06	340.56	10.31	-30.1	-32.5	11.5	6.43e-04	0	43	0	1276116992	20	4726
2026-01-01 10:41:19.07	340.57	10.23	-30.1	-32.4	11.5	7.29e-04	0	43	0	1278214144	20	4704
2026-01-01 10:41:20.07	340.58	10.14	-29.9	-32.0	11.8	4.97e-04	0	43	0	1279262720	20	4556
