passes_logs/2026/01/01/R2M6_AANII_01/R2M6_AANII_01__20260101_131935_FENGYUN_3E_rec.log

#Pass ID: 20260101_131935_FENGYUN 3E
#Satellite: FENGYUN 3E
#Configuration: FENGYUN 3E
#almurnet v.1.7.20240730
#Start time: 2026-01-01 13:23:48

#Version: 2.2.20231116
#Station: R2M6_AANII_01
#Location: 30.233357 lon 59.946436 lat
#TLE: 1 49008U 21062A   25365.98258168  .00000149  00000+0  90987-4 0  9990
#TLE: 2 49008  98.7481   6.2763 0001360 169.3782 190.7423 14.19883270232859

#Time	Az	El	Level	Level2	SNR	BER	BlckErr	Temp	State	Recorded	gain1	gain2
2026-01-01 13:23:48.31	83.17	31.16	-33.3	-44.6	3.8	8.45e-01	0	43	0	0	26	13225
2026-01-01 13:23:49.30	82.86	31.26	-33.7	-42.7	3.8	8.46e-01	0	43	104	0	28	10166
2026-01-01 13:23:50.30	82.55	31.36	-33.7	-42.7	3.8	8.45e-01	0	43	104	0	28	10173
2026-01-01 13:23:51.30	82.24	31.45	-33.7	-42.8	3.8	8.46e-01	0	43	104	0	28	10221
2026-01-01 13:23:52.30	81.92	31.55	-33.7	-42.8	3.8	8.46e-01	0	43	104	0	28	10223
2026-01-01 13:23:53.30	81.60	31.64	-33.7	-42.7	3.8	8.46e-01	0	43	104	0	28	10196
2026-01-01 13:23:54.29	81.28	31.74	-33.7	-42.7	3.8	8.46e-01	0	43	104	0	28	10201
2026-01-01 13:23:55.29	80.96	31.83	-33.7	-42.8	3.8	8.47e-01	0	44	104	0	28	10201
2026-01-01 13:23:56.30	80.63	31.92	-33.7	-42.8	3.8	8.45e-01	0	43	104	0	28	10215
2026-01-01 13:23:57.29	80.31	32.01	-33.7	-42.8	3.8	8.46e-01	0	44	104	0	28	10236
2026-01-01 13:23:58.29	79.98	32.10	-33.7	-42.7	3.8	8.46e-01	0	44	104	0	28	10201
2026-01-01 13:23:59.28	79.66	32.19	-33.7	-42.7	3.8	8.46e-01	0	43	104	0	28	10200
2026-01-01 13:24:00.28	79.33	32.28	-33.7	-42.7	3.8	8.46e-01	0	43	104	0	28	10169
2026-01-01 13:24:01.27	79.00	32.37	-33.7	-42.7	3.8	8.45e-01	0	43	104	0	28	10184
2026-01-01 13:24:02.27	78.66	32.46	-33.7	-42.7	3.8	8.46e-01	0	44	104	0	28	10129
2026-01-01 13:24:03.27	78.32	32.54	-33.7	-42.7	3.8	8.46e-01	0	44	104	0	28	10189
2026-01-01 13:24:04.26	77.99	32.63	-33.7	-42.8	3.8	8.47e-01	0	43	104	0	28	10213
2026-01-01 13:24:05.25	77.65	32.71	-33.7	-42.7	3.8	8.45e-01	0	43	104	0	28	10162
2026-01-01 13:24:06.25	77.31	32.80	-33.7	-42.7	3.8	8.47e-01	0	44	104	0	28	10171
2026-01-01 13:24:07.25	76.97	32.88	-33.6	-42.6	3.8	8.47e-01	0	43	104	0	28	10115
2026-01-01 13:24:08.24	76.62	32.96	-33.8	-42.9	3.8	8.46e-01	0	44	104	0	28	10286
2026-01-01 13:24:09.24	76.28	33.04	-33.7	-42.7	3.8	8.45e-01	0	43	104	0	28	10160
2026-01-01 13:24:10.23	75.93	33.12	-33.7	-42.7	3.8	8.48e-01	0	43	104	0	28	10142
2026-01-01 13:24:11.22	75.58	33.20	-33.6	-42.6	3.8	8.46e-01	0	44	104	0	28	10082
2026-01-01 13:24:12.21	75.24	33.28	-33.6	-42.5	3.8	8.45e-01	0	44	104	0	28	10070
2026-01-01 13:24:13.21	74.88	33.36	-33.6	-42.4	3.8	8.45e-01	0	44	104	0	28	9898
2026-01-01 13:24:14.21	74.53	33.43	-33.6	-42.4	3.8	8.46e-01	0	43	104	0	28	9997
2026-01-01 13:24:15.20	74.17	33.51	-33.5	-42.2	3.8	8.47e-01	0	44	104	0	28	9813
2026-01-01 13:24:16.20	73.81	33.58	-33.5	-42.1	3.8	8.47e-01	0	44	104	0	28	9705
2026-01-01 13:24:17.19	73.46	33.65	-33.4	-42.0	3.8	8.47e-01	0	44	104	0	28	9614
2026-01-01 13:24:18.19	73.09	33.72	-33.4	-41.7	3.8	8.46e-01	0	44	104	0	28	9400
2026-01-01 13:24:19.18	72.73	33.79	-33.4	-42.1	3.8	8.45e-01	0	44	104	0	27	9720
2026-01-01 13:24:20.18	72.37	33.86	-33.4	-41.8	3.8	8.46e-01	0	44	104	0	27	9436
2026-01-01 13:24:21.18	72.00	33.93	-33.4	-41.7	3.8	8.46e-01	0	44	104	0	27	9386
2026-01-01 13:24:22.18	71.63	34.00	-33.4	-42.0	3.8	8.45e-01	0	44	104	0	27	9678
2026-01-01 13:24:23.18	71.26	34.06	-33.5	-42.4	3.8	8.48e-01	0	44	104	0	27	10021
2026-01-01 13:24:24.18	70.89	34.13	-33.5	-42.6	3.8	8.45e-01	0	44	104	0	27	10266
2026-01-01 13:24:25.17	70.52	34.19	-33.5	-42.5	3.8	8.46e-01	0	44	104	0	27	10169
2026-01-01 13:24:26.18	70.14	34.25	-33.5	-42.2	3.8	8.47e-01	0	44	104	0	27	9862
2026-01-01 13:24:27.18	69.77	34.32	-33.4	-41.9	3.8	8.45e-01	0	44	104	0	27	9560
2026-01-01 13:24:28.18	69.39	34.37	-33.3	-41.3	3.8	8.45e-01	0	44	104	0	27	9015
2026-01-01 13:24:29.18	69.01	34.43	-33.2	-40.6	3.8	8.46e-01	0	44	104	0	27	8402
2026-01-01 13:24:30.17	68.64	34.49	-33.2	-40.4	3.9	8.44e-01	0	44	104	0	27	8263
2026-01-01 13:24:31.17	68.25	34.55	-33.3	-41.1	3.8	8.46e-01	0	43	104	0	27	8813
2026-01-01 13:24:32.17	67.87	34.60	-33.4	-41.7	3.8	8.45e-01	0	44	104	0	27	9340
2026-01-01 13:24:33.18	67.48	34.65	-33.4	-42.1	3.8	8.46e-01	0	44	104	0	27	9772
2026-01-01 13:24:34.18	67.10	34.70	-33.5	-42.5	3.8	8.46e-01	0	44	104	0	27	10203
2026-01-01 13:24:35.18	66.71	34.75	-33.5	-42.3	3.8	8.46e-01	0	44	104	0	27	9965
2026-01-01 13:24:36.17	66.33	34.80	-33.4	-42.1	3.8	8.46e-01	0	44	104	0	27	9781
2026-01-01 13:24:37.17	65.94	34.85	-33.5	-42.5	3.8	8.46e-01	0	44	104	0	27	10168
2026-01-01 13:24:38.16	65.56	34.90	-33.4	-42.0	3.8	8.46e-01	0	44	104	0	27	9692
2026-01-01 13:24:39.19	65.15	34.94	-33.4	-41.5	3.8	8.46e-01	0	43	104	0	27	9216
2026-01-01 13:24:40.18	64.76	34.98	-33.0	-39.0	3.9	8.45e-01	0	44	104	0	27	7218
2026-01-01 13:24:41.18	64.37	35.03	-30.8	-33.3	8.1	2.57e-01	0	44	0	0	22	4765
2026-01-01 13:24:42.18	63.98	35.07	-28.0	-28.7	12.7	2.53e-04	0	44	0	7340032	17	3864
2026-01-01 13:24:43.18	63.58	35.10	-26.1	-26.4	14.9	0.00e+00	0	44	0	14680064	13	3709
2026-01-01 13:24:44.17	63.19	35.14	-26.0	-26.1	15.1	0.00e+00	0	44	0	22020096	13	3644
2026-01-01 13:24:45.18	62.79	35.18	-26.3	-26.9	14.7	0.00e+00	0	44	0	29360128	13	3825
2026-01-01 13:24:46.17	62.40	35.21	-26.1	-26.4	15.0	0.00e+00	0	44	0	36700160	13	3704
2026-01-01 13:24:47.16	62.00	35.24	-26.0	-26.1	15.1	0.00e+00	0	44	0	42991616	13	3644
2026-01-01 13:24:48.16	61.61	35.27	-25.9	-26.0	15.1	0.00e+00	0	44	0	50331648	13	3616
2026-01-01 13:24:49.15	61.21	35.30	-25.8	-26.2	15.3	0.00e+00	0	44	0	57671680	12	3775
2026-01-01 13:24:50.14	60.81	35.33	-25.9	-26.3	15.2	0.00e+00	0	44	0	65011712	12	3795
2026-01-01 13:24:51.13	60.42	35.36	-26.7	-27.6	14.3	1.10e-06	0	44	0	72351744	13	4000
2026-01-01 13:24:52.13	60.01	35.38	-25.8	-26.2	15.3	0.00e+00	0	44	0	79691776	12	3767
2026-01-01 13:24:53.12	59.62	35.40	-25.0	-25.0	16.3	0.00e+00	0	44	0	85983232	11	3592
2026-01-01 13:24:54.12	59.21	35.42	-24.2	-24.3	17.2	0.00e+00	0	44	0	93323264	9	3625
2026-01-01 13:24:55.12	58.81	35.44	-23.6	-23.6	17.8	0.00e+00	0	44	0	100663296	8	3567
2026-01-01 13:24:56.12	58.41	35.46	-23.1	-23.0	18.3	0.00e+00	0	44	0	108003328	7	3550
2026-01-01 13:24:57.12	58.00	35.48	-22.7	-22.6	18.7	0.00e+00	0	44	0	115343360	6	3552
2026-01-01 13:24:58.12	57.60	35.49	-22.5	-22.2	19.0	0.00e+00	0	44	0	122683392	6	3463
2026-01-01 13:24:59.12	57.19	35.51	-22.4	-22.4	19.1	0.00e+00	0	44	0	130023424	5	3610
2026-01-01 13:25:00.11	56.79	35.52	-22.5	-22.7	18.9	0.00e+00	0	44	0	137363456	5	3674
2026-01-01 13:25:01.10	56.39	35.53	-22.4	-22.4	19.1	0.00e+00	0	44	0	144703488	5	3615
2026-01-01 13:25:02.10	55.99	35.54	-22.4	-22.5	19.0	0.00e+00	0	44	0	150994944	5	3630
2026-01-01 13:25:03.09	55.58	35.54	-22.3	-22.3	19.1	0.00e+00	0	44	0	158334976	5	3599
2026-01-01 13:25:04.08	55.18	35.55	-22.4	-22.4	19.1	0.00e+00	0	44	0	165675008	5	3615
2026-01-01 13:25:05.08	54.78	35.55	-22.5	-22.8	18.9	0.00e+00	0	44	0	173015040	5	3693
2026-01-01 13:25:06.07	54.37	35.56	-22.5	-22.6	19.0	0.00e+00	0	44	0	180355072	5	3655
2026-01-01 13:25:07.07	53.97	35.56	-22.8	-23.3	18.7	0.00e+00	0	44	0	186646528	5	3806
2026-01-01 13:25:08.07	53.56	35.56	-22.5	-22.7	18.9	0.00e+00	0	44	0	193986560	5	3672
2026-01-01 13:25:09.07	53.16	35.55	-22.4	-22.5	19.0	0.00e+00	0	44	0	201326592	5	3623
2026-01-01 13:25:10.06	52.75	35.55	-22.3	-22.3	19.1	0.00e+00	0	44	0	208666624	5	3589
2026-01-01 13:25:11.06	52.35	35.54	-22.3	-22.3	19.1	0.00e+00	0	44	0	216006656	5	3591
2026-01-01 13:25:12.05	51.95	35.53	-22.3	-22.2	19.2	0.00e+00	0	44	0	223346688	5	3563
2026-01-01 13:25:13.05	51.54	35.52	-22.2	-22.0	19.3	0.00e+00	0	44	0	230686720	5	3532
2026-01-01 13:25:14.05	51.14	35.51	-22.4	-22.4	19.1	0.00e+00	0	44	0	238026752	5	3616
2026-01-01 13:25:15.06	50.73	35.50	-22.4	-22.5	19.0	0.00e+00	0	44	0	245366784	5	3633
2026-01-01 13:25:16.05	50.33	35.49	-22.6	-22.8	18.9	0.00e+00	0	44	0	251658240	5	3710
2026-01-01 13:25:17.05	49.92	35.47	-22.5	-22.6	18.9	0.00e+00	0	44	0	258998272	5	3667
2026-01-01 13:25:18.04	49.52	35.45	-22.4	-22.5	19.0	0.00e+00	0	44	0	266338304	5	3639
2026-01-01 13:25:19.03	49.12	35.43	-22.5	-22.6	19.0	0.00e+00	0	44	0	273678336	5	3655
2026-01-01 13:25:20.02	48.72	35.41	-22.2	-22.1	19.2	0.00e+00	0	44	0	281018368	5	3540
2026-01-01 13:25:21.01	48.33	35.39	-22.1	-21.9	19.3	0.00e+00	0	44	0	288358400	5	3511
2026-01-01 13:25:22.01	47.92	35.37	-22.2	-22.1	19.2	0.00e+00	0	44	0	294649856	5	3553
2026-01-01 13:25:23.00	47.53	35.34	-22.5	-22.7	18.9	0.00e+00	0	44	0	301989888	5	3682
2026-01-01 13:25:24.00	47.13	35.32	-22.3	-22.2	19.2	0.00e+00	0	44	0	309329920	5	3570
2026-01-01 13:25:24.99	46.73	35.29	-22.2	-22.1	19.2	0.00e+00	0	44	0	316669952	5	3550
2026-01-01 13:25:25.98	46.34	35.26	-22.2	-22.1	19.2	0.00e+00	0	44	0	324009984	5	3560
2026-01-01 13:25:26.97	45.94	35.23	-22.2	-22.0	19.3	0.00e+00	0	44	0	330301440	5	3529
2026-01-01 13:25:27.96	45.55	35.19	-22.1	-21.8	19.4	0.00e+00	0	44	0	337641472	5	3485
2026-01-01 13:25:28.95	45.16	35.16	-22.2	-22.0	19.2	0.00e+00	0	44	0	344981504	5	3540
2026-01-01 13:25:29.94	44.76	35.12	-22.1	-21.9	19.3	0.00e+00	0	44	0	352321536	5	3509
2026-01-01 13:25:30.93	44.37	35.09	-22.4	-22.5	19.0	0.00e+00	0	44	0	359661568	5	3633
2026-01-01 13:25:31.93	43.98	35.05	-22.3	-22.2	19.2	0.00e+00	0	44	0	367001600	5	3576
2026-01-01 13:25:32.93	43.59	35.01	-22.4	-22.4	19.1	0.00e+00	0	44	0	373293056	5	3619
2026-01-01 13:25:33.93	43.19	34.97	-22.4	-22.5	19.0	0.00e+00	0	44	0	380633088	5	3631
2026-01-01 13:25:34.92	42.81	34.92	-22.3	-22.2	19.1	0.00e+00	0	44	0	387973120	5	3580
2026-01-01 13:25:35.91	42.42	34.88	-22.2	-22.1	19.2	0.00e+00	0	44	0	395313152	5	3551
2026-01-01 13:25:36.91	42.03	34.83	-22.4	-22.5	19.0	0.00e+00	0	44	0	402653184	5	3623
2026-01-01 13:25:37.91	41.65	34.78	-22.3	-22.2	19.2	0.00e+00	0	44	0	409993216	5	3560
2026-01-01 13:25:38.90	41.26	34.74	-22.2	-22.1	19.2	0.00e+00	0	44	0	417333248	5	3544
2026-01-01 13:25:39.89	40.88	34.68	-22.3	-22.3	19.1	0.00e+00	0	44	0	423624704	5	3599
2026-01-01 13:25:40.89	40.50	34.63	-22.2	-22.1	19.2	0.00e+00	0	44	0	430964736	5	3546
2026-01-01 13:25:41.88	40.12	34.58	-22.4	-22.5	19.0	0.00e+00	0	44	0	438304768	5	3636
2026-01-01 13:25:42.87	39.74	34.53	-22.2	-22.1	19.2	0.00e+00	0	44	0	445644800	5	3556
2026-01-01 13:25:43.87	39.36	34.47	-22.1	-21.8	19.3	0.00e+00	0	44	0	452984832	5	3493
2026-01-01 13:25:44.87	38.98	34.41	-22.1	-21.8	19.3	0.00e+00	0	44	0	460324864	5	3490
2026-01-01 13:25:45.87	38.60	34.35	-22.2	-22.0	19.3	0.00e+00	0	44	0	467664896	5	3526
2026-01-01 13:25:46.86	38.23	34.29	-22.1	-21.9	19.3	0.00e+00	0	44	0	473956352	5	3509
2026-01-01 13:25:47.85	37.86	34.23	-22.3	-22.2	19.2	0.00e+00	0	44	0	481296384	5	3563
2026-01-01 13:25:48.85	37.49	34.17	-22.2	-22.1	19.1	0.00e+00	0	44	0	488636416	5	3550
2026-01-01 13:25:49.84	37.12	34.11	-22.2	-22.0	19.2	0.00e+00	0	44	0	495976448	5	3535
2026-01-01 13:25:50.84	36.75	34.04	-22.4	-22.4	19.0	0.00e+00	0	44	0	503316480	5	3619
2026-01-01 13:25:51.84	36.38	33.98	-22.2	-21.9	19.2	0.00e+00	0	44	0	510656512	5	3510
2026-01-01 13:25:52.84	36.01	33.91	-22.1	-21.8	19.3	0.00e+00	0	44	0	516947968	5	3489
2026-01-01 13:25:53.83	35.65	33.84	-22.2	-22.0	19.2	0.00e+00	0	44	0	524288000	5	3524
2026-01-01 13:25:54.82	35.29	33.77	-22.1	-21.9	19.2	0.00e+00	0	44	0	531628032	5	3511
2026-01-01 13:25:55.82	34.93	33.70	-22.2	-22.1	19.1	0.00e+00	0	44	0	538968064	5	3560
2026-01-01 13:25:56.82	34.57	33.63	-22.3	-22.2	19.1	0.00e+00	0	44	0	546308096	5	3574
2026-01-01 13:25:57.82	34.21	33.56	-22.3	-22.3	19.1	0.00e+00	0	44	0	553648128	5	3587
2026-01-01 13:25:58.81	33.85	33.48	-22.4	-22.5	19.0	0.00e+00	0	44	0	560988160	5	3641
2026-01-01 13:25:59.81	33.50	33.41	-22.3	-22.2	19.1	0.00e+00	0	44	0	568328192	5	3576
2026-01-01 13:26:00.80	33.15	33.33	-22.1	-21.9	19.2	0.00e+00	0	44	0	575668224	5	3515
2026-01-01 13:26:01.80	32.79	33.26	-22.1	-21.8	19.3	0.00e+00	0	44	0	581959680	5	3496
2026-01-01 13:26:02.79	32.45	33.18	-22.1	-21.8	19.3	0.00e+00	0	44	0	589299712	5	3493
2026-01-01 13:26:03.79	32.10	33.10	-22.1	-21.8	19.3	0.00e+00	0	44	0	596639744	5	3481
2026-01-01 13:26:04.79	31.75	33.02	-22.0	-21.7	19.3	0.00e+00	0	44	0	603979776	5	3471
2026-01-01 13:26:05.79	31.40	32.94	-22.1	-21.9	19.2	0.00e+00	0	44	0	611319808	5	3509
2026-01-01 13:26:06.79	31.06	32.85	-22.2	-22.0	19.2	0.00e+00	0	44	0	617611264	5	3520
2026-01-01 13:26:07.78	30.72	32.77	-22.2	-22.1	19.1	0.00e+00	0	44	0	624951296	5	3558
2026-01-01 13:26:08.77	30.38	32.69	-22.2	-22.1	19.1	0.00e+00	0	44	0	632291328	5	3553
2026-01-01 13:26:09.76	30.05	32.60	-22.3	-22.3	19.0	0.00e+00	0	44	0	639631360	5	3593
2026-01-01 13:26:10.74	29.72	32.52	-22.3	-22.3	19.0	0.00e+00	0	44	0	646971392	5	3582
2026-01-01 13:26:11.75	29.38	32.43	-22.5	-22.6	18.9	0.00e+00	0	44	0	654311424	5	3658
2026-01-01 13:26:12.74	29.05	32.35	-22.6	-22.9	18.6	0.00e+00	0	44	0	661651456	5	3724
2026-01-01 13:26:13.74	28.72	32.26	-22.8	-23.3	18.5	0.00e+00	0	44	0	668991488	5	3809
2026-01-01 13:26:14.74	28.39	32.17	-22.8	-23.3	18.5	0.00e+00	0	44	0	675282944	5	3811
2026-01-01 13:26:15.73	28.06	32.08	-22.9	-23.5	18.4	0.00e+00	0	44	0	682622976	5	3855
2026-01-01 13:26:16.74	27.73	31.99	-22.9	-23.5	18.4	0.00e+00	0	44	0	689963008	5	3870
2026-01-01 13:26:17.74	27.41	31.90	-23.0	-23.7	18.3	0.00e+00	0	44	0	697303040	5	3920
2026-01-01 13:26:18.74	27.09	31.80	-22.8	-23.3	18.5	0.00e+00	0	44	0	704643072	5	3819
2026-01-01 13:26:19.73	26.77	31.71	-22.6	-22.9	18.7	0.00e+00	0	44	0	711983104	5	3731
2026-01-01 13:26:20.72	26.45	31.62	-22.6	-22.8	18.7	0.00e+00	0	44	0	719323136	5	3710
2026-01-01 13:26:21.72	26.14	31.52	-22.6	-22.9	18.7	0.00e+00	0	44	0	725614592	5	3719
2026-01-01 13:26:22.72	25.82	31.43	-22.8	-23.3	18.5	0.00e+00	0	44	0	732954624	5	3826
2026-01-01 13:26:23.72	25.51	31.33	-22.9	-23.0	18.5	0.00e+00	0	44	0	740294656	6	3638
2026-01-01 13:26:24.73	25.19	31.23	-22.8	-22.7	18.5	0.00e+00	0	44	0	747634688	6	3585
2026-01-01 13:26:25.72	24.89	31.14	-22.7	-22.6	18.7	0.00e+00	0	44	0	754974720	6	3551
2026-01-01 13:26:26.71	24.58	31.04	-22.7	-22.5	18.7	0.00e+00	0	44	0	762314752	6	3539
2026-01-01 13:26:27.71	24.28	30.94	-22.5	-22.3	18.8	0.00e+00	0	44	0	769654784	6	3486
2026-01-01 13:26:28.71	23.97	30.84	-22.5	-22.1	18.9	0.00e+00	0	44	0	776994816	6	3462
2026-01-01 13:26:29.71	23.67	30.75	-22.5	-22.2	18.8	0.00e+00	0	44	0	783286272	6	3482
2026-01-01 13:26:30.71	23.37	30.65	-22.4	-22.0	18.9	0.00e+00	0	44	0	790626304	6	3440
2026-01-01 13:26:31.70	23.08	30.55	-22.3	-22.3	19.0	0.00e+00	0	44	0	797966336	5	3601
2026-01-01 13:26:32.70	22.78	30.44	-22.4	-22.4	19.0	0.00e+00	0	44	0	805306368	5	3619
2026-01-01 13:26:33.69	22.49	30.34	-22.5	-22.8	18.8	0.00e+00	0	44	0	812646400	5	3701
2026-01-01 13:26:34.69	22.20	30.24	-22.6	-22.9	18.7	0.00e+00	0	44	0	819986432	5	3719
2026-01-01 13:26:35.68	21.91	30.14	-22.6	-22.9	18.7	0.00e+00	0	44	0	826277888	5	3733
2026-01-01 13:26:36.68	21.62	30.04	-22.7	-23.2	18.6	0.00e+00	0	44	0	833617920	5	3782
2026-01-01 13:26:37.68	21.33	29.93	-22.7	-23.2	18.5	0.00e+00	0	44	0	840957952	5	3790
2026-01-01 13:26:38.68	21.05	29.83	-22.8	-23.3	18.5	0.00e+00	0	44	0	848297984	5	3826
2026-01-01 13:26:39.68	20.76	29.73	-22.7	-23.2	18.6	0.00e+00	0	44	0	855638016	5	3781
2026-01-01 13:26:40.68	20.48	29.62	-22.6	-22.9	18.7	0.00e+00	0	44	0	862978048	5	3724
2026-01-01 13:26:41.68	20.20	29.52	-22.6	-22.9	18.7	0.00e+00	0	44	0	870318080	5	3716
2026-01-01 13:26:42.67	19.93	29.41	-22.5	-22.7	18.8	0.00e+00	0	44	0	877658112	5	3688
2026-01-01 13:26:43.66	19.65	29.31	-22.6	-22.9	18.4	0.00e+00	0	44	0	884998144	5	3725
2026-01-01 13:26:44.65	19.38	29.20	-22.6	-22.9	18.7	0.00e+00	0	44	0	891289600	5	3733
2026-01-01 13:26:45.65	19.11	29.10	-22.5	-22.6	18.8	0.00e+00	0	44	0	898629632	5	3665
2026-01-01 13:26:46.65	18.84	28.99	-22.5	-22.7	18.8	0.00e+00	0	44	0	905969664	5	3686
2026-01-01 13:26:47.65	18.57	28.88	-22.6	-22.9	18.7	0.00e+00	0	44	0	913309696	5	3718
2026-01-01 13:26:48.64	18.31	28.78	-22.6	-22.9	18.7	0.00e+00	0	44	0	920649728	5	3735
2026-01-01 13:26:49.64	18.04	28.67	-22.7	-23.2	18.6	0.00e+00	0	44	0	926941184	5	3787
2026-01-01 13:26:50.64	17.78	28.56	-22.7	-23.0	18.6	0.00e+00	0	44	0	934281216	5	3753
2026-01-01 13:26:51.64	17.52	28.45	-22.6	-22.9	18.7	0.00e+00	0	44	0	941621248	5	3720
2026-01-01 13:26:52.63	17.26	28.34	-22.7	-23.1	18.5	0.00e+00	0	44	0	948961280	5	3768
2026-01-01 13:26:53.63	17.00	28.24	-22.7	-23.0	18.6	0.00e+00	0	44	0	956301312	5	3745
2026-01-01 13:26:54.62	16.75	28.13	-22.8	-23.3	18.5	0.00e+00	0	44	0	963641344	5	3807
2026-01-01 13:26:55.62	16.49	28.02	-22.9	-23.4	18.4	0.00e+00	0	44	0	970981376	5	3844
2026-01-01 13:26:56.62	16.24	27.91	-22.9	-23.5	18.3	0.00e+00	0	44	0	978321408	5	3856
2026-01-01 13:26:57.62	15.99	27.80	-22.9	-23.5	18.3	0.00e+00	0	44	0	985661440	5	3873
2026-01-01 13:26:58.61	15.74	27.69	-22.9	-23.4	18.4	0.00e+00	0	44	0	991952896	5	3845
2026-01-01 13:26:59.60	15.50	27.58	-22.8	-23.3	18.4	0.00e+00	0	44	0	999292928	5	3810
2026-01-01 13:27:00.60	15.25	27.47	-22.8	-23.4	18.4	0.00e+00	0	44	0	1006632960	5	3836
2026-01-01 13:27:01.59	15.01	27.36	-22.9	-23.4	18.4	0.00e+00	0	44	0	1013972992	5	3845
2026-01-01 13:27:02.59	14.77	27.25	-22.8	-23.2	18.5	0.00e+00	0	44	0	1021313024	5	3801
2026-01-01 13:27:03.59	14.53	27.14	-22.8	-23.4	18.4	0.00e+00	0	44	0	1028653056	5	3827
2026-01-01 13:27:04.59	14.29	27.03	-22.8	-23.4	18.3	0.00e+00	0	44	0	1034944512	5	3843
2026-01-01 13:27:05.59	14.05	26.92	-22.9	-23.6	18.3	0.00e+00	0	44	0	1042284544	5	3876
2026-01-01 13:27:06.58	13.82	26.81	-22.9	-23.6	18.3	0.00e+00	0	44	0	1049624576	5	3881
2026-01-01 13:27:07.58	13.58	26.70	-22.9	-23.6	18.3	0.00e+00	0	44	0	1056964608	5	3885
2026-01-01 13:27:08.58	13.35	26.59	-22.9	-23.6	18.3	0.00e+00	0	44	0	1064304640	5	3894
2026-01-01 13:27:09.57	13.12	26.48	-22.9	-23.6	18.3	0.00e+00	0	44	0	1071644672	5	3882
2026-01-01 13:27:10.56	12.90	26.37	-22.9	-23.5	18.3	0.00e+00	0	44	0	1078984704	5	3877
2026-01-01 13:27:11.57	12.67	26.26	-23.0	-23.8	18.2	0.00e+00	0	44	0	1086324736	5	3928
2026-01-01 13:27:12.57	12.44	26.15	-22.9	-23.6	18.3	0.00e+00	0	44	0	1092616192	5	3881
2026-01-01 13:27:13.57	12.22	26.04	-22.8	-23.4	18.3	0.00e+00	0	44	0	1099956224	5	3844
2026-01-01 13:27:14.56	12.00	25.93	-22.8	-23.3	18.4	0.00e+00	0	44	0	1107296256	5	3807
2026-01-01 13:27:15.56	11.77	25.82	-22.9	-23.5	18.3	0.00e+00	0	44	0	1114636288	5	3853
2026-01-01 13:27:16.55	11.56	25.71	-22.8	-23.3	18.4	0.00e+00	0	44	0	1121976320	5	3814
2026-01-01 13:27:17.54	11.34	25.60	-22.8	-23.2	18.4	0.00e+00	0	44	0	1129316352	5	3802
2026-01-01 13:27:18.54	11.12	25.49	-22.8	-23.4	18.3	0.00e+00	0	44	0	1135607808	5	3833
2026-01-01 13:27:19.53	10.91	25.38	-22.8	-23.3	18.3	0.00e+00	0	44	0	1142947840	5	3826
2026-01-01 13:27:20.53	10.70	25.27	-22.9	-23.5	18.2	0.00e+00	0	44	0	1150287872	5	3868
2026-01-01 13:27:21.53	10.49	25.16	-23.0	-23.7	18.2	0.00e+00	0	44	0	1157627904	5	3911
2026-01-01 13:27:22.52	10.28	25.05	-23.1	-23.9	18.1	0.00e+00	0	44	0	1164967936	5	3959
2026-01-01 13:27:23.52	10.07	24.93	-23.2	-23.7	17.9	0.00e+00	0	44	0	1172307968	6	3801
2026-01-01 13:27:24.51	9.86	24.82	-23.2	-23.7	17.9	0.00e+00	0	44	0	1179648000	6	3801
2026-01-01 13:27:25.51	9.66	24.71	-23.0	-23.2	18.1	0.00e+00	0	44	0	1186988032	6	3694
2026-01-01 13:27:26.50	9.45	24.60	-22.9	-23.1	18.3	0.00e+00	0	44	0	1193279488	6	3663
2026-01-01 13:27:27.49	9.25	24.50	-23.0	-23.2	18.2	0.00e+00	0	44	0	1200619520	6	3684
2026-01-01 13:27:28.49	9.05	24.38	-23.0	-23.3	18.2	0.00e+00	0	44	0	1207959552	6	3706
2026-01-01 13:27:29.48	8.85	24.28	-23.1	-23.4	18.1	0.00e+00	0	44	0	1215299584	6	3739
2026-01-01 13:27:30.48	8.65	24.16	-23.1	-23.5	18.0	0.00e+00	0	44	0	1222639616	6	3758
2026-01-01 13:27:31.47	8.46	24.06	-23.0	-23.2	18.1	0.00e+00	0	44	0	1229979648	6	3693
2026-01-01 13:27:32.46	8.26	23.95	-22.9	-23.0	18.3	0.00e+00	0	44	0	1236271104	6	3652
2026-01-01 13:27:33.46	8.07	23.84	-22.9	-22.9	18.3	0.00e+00	0	44	0	1243611136	6	3631
2026-01-01 13:27:34.45	7.88	23.73	-22.8	-22.8	18.4	0.00e+00	0	44	0	1250951168	6	3613
2026-01-01 13:27:35.45	7.69	23.62	-22.9	-23.0	18.3	0.00e+00	0	44	0	1258291200	6	3643
2026-01-01 13:27:36.44	7.50	23.51	-23.0	-23.3	18.1	0.00e+00	0	44	0	1265631232	6	3727
2026-01-01 13:27:37.44	7.31	23.40	-23.1	-23.4	18.1	0.00e+00	0	44	0	1272971264	6	3730
2026-01-01 13:27:38.44	7.12	23.29	-23.1	-23.5	18.0	0.00e+00	0	44	0	1279262720	6	3756
2026-01-01 13:27:39.43	6.94	23.18	-23.2	-23.7	17.9	0.00e+00	0	44	0	1286602752	6	3814
2026-01-01 13:27:40.41	6.75	23.07	-23.3	-23.9	17.8	0.00e+00	0	44	0	1293942784	6	3850
2026-01-01 13:27:41.41	6.57	22.97	-23.4	-24.1	17.7	0.00e+00	0	44	0	1301282816	6	3889
2026-01-01 13:27:42.40	6.39	22.86	-23.4	-24.0	17.7	0.00e+00	0	44	0	1308622848	6	3883
2026-01-01 13:27:43.40	6.21	22.75	-23.2	-23.7	17.9	0.00e+00	0	44	0	1315962880	6	3808
2026-01-01 13:27:44.40	6.03	22.64	-23.2	-23.6	17.9	0.00e+00	0	44	0	1323302912	6	3795
2026-01-01 13:27:45.40	5.85	22.53	-23.2	-23.7	17.8	0.00e+00	0	44	0	1330642944	6	3816
2026-01-01 13:27:46.40	5.67	22.42	-23.2	-23.6	17.9	0.00e+00	0	44	0	1336934400	6	3794
2026-01-01 13:27:47.40	5.50	22.31	-23.0	-23.3	18.1	0.00e+00	0	44	0	1344274432	6	3722
2026-01-01 13:27:48.40	5.32	22.21	-23.1	-23.3	18.0	0.00e+00	0	44	0	1351614464	6	3725
2026-01-01 13:27:49.39	5.15	22.10	-23.1	-23.5	18.0	0.00e+00	0	44	0	1358954496	6	3756
2026-01-01 13:27:50.39	4.98	21.99	-23.1	-23.5	18.0	0.00e+00	0	44	0	1366294528	6	3759
2026-01-01 13:27:51.39	4.80	21.88	-23.3	-23.8	17.8	0.00e+00	0	44	0	1373634560	6	3834
2026-01-01 13:27:52.39	4.63	21.78	-23.4	-24.0	17.7	0.00e+00	0	44	0	1379926016	6	3879
2026-01-01 13:27:53.38	4.47	21.67	-23.4	-24.1	17.6	0.00e+00	0	44	0	1387266048	6	3913
2026-01-01 13:27:54.38	4.30	21.56	-23.5	-24.2	17.6	0.00e+00	0	44	0	1394606080	6	3933
2026-01-01 13:27:55.37	4.13	21.46	-23.5	-24.4	17.5	0.00e+00	0	44	0	1401946112	6	3964
2026-01-01 13:27:56.36	3.97	21.35	-23.5	-24.3	17.5	0.00e+00	0	44	0	1409286144	6	3933
2026-01-01 13:27:57.36	3.81	21.25	-23.4	-24.1	17.6	0.00e+00	0	44	0	1416626176	6	3897
2026-01-01 13:27:58.35	3.64	21.14	-23.4	-24.1	17.6	0.00e+00	0	44	0	1423966208	6	3901
2026-01-01 13:27:59.36	3.48	21.03	-23.4	-24.1	17.6	0.00e+00	0	44	0	1431306240	6	3893
2026-01-01 13:28:00.35	3.32	20.93	-23.2	-23.6	17.9	0.00e+00	0	44	0	1438646272	6	3795
2026-01-01 13:28:01.36	3.16	20.82	-23.2	-23.7	17.8	0.00e+00	0	44	0	1444937728	6	3803
2026-01-01 13:28:02.35	3.00	20.72	-23.3	-23.8	17.8	0.00e+00	0	44	0	1452277760	6	3831
2026-01-01 13:28:03.35	2.84	20.61	-23.4	-24.1	17.6	0.00e+00	0	44	0	1459617792	6	3905
2026-01-01 13:28:04.35	2.69	20.51	-23.5	-24.3	17.5	0.00e+00	0	44	0	1466957824	6	3934
2026-01-01 13:28:05.34	2.53	20.41	-23.6	-24.5	17.4	0.00e+00	0	44	0	1474297856	6	3983
2026-01-01 13:28:06.34	2.38	20.30	-23.7	-24.2	17.3	0.00e+00	0	44	0	1480589312	7	3824
2026-01-01 13:28:07.34	2.23	20.20	-23.8	-24.5	17.1	0.00e+00	0	44	0	1487929344	7	3889
2026-01-01 13:28:08.33	2.08	20.09	-23.8	-24.5	17.1	0.00e+00	0	44	0	1495269376	7	3883
2026-01-01 13:28:09.33	1.92	19.99	-24.0	-24.8	16.9	0.00e+00	0	44	0	1502609408	7	3956
2026-01-01 13:28:10.32	1.78	19.89	-24.0	-24.8	16.9	0.00e+00	0	44	0	1509949440	7	3965
2026-01-01 13:28:11.32	1.63	19.78	-24.3	-25.0	16.7	0.00e+00	0	44	0	1517289472	8	3893
2026-01-01 13:28:12.31	1.48	19.68	-24.5	-25.4	16.4	0.00e+00	0	44	0	1524629504	8	4006
2026-01-01 13:28:13.31	1.33	19.58	-24.3	-25.0	16.6	0.00e+00	0	44	0	1531969536	8	3905
2026-01-01 13:28:14.31	1.19	19.48	-24.1	-24.7	16.8	0.00e+00	0	44	0	1539309568	8	3828
2026-01-01 13:28:15.31	1.04	19.37	-24.1	-24.5	16.8	0.00e+00	0	44	0	1545601024	8	3796
2026-01-01 13:28:16.30	0.90	19.27	-24.0	-24.4	16.9	0.00e+00	0	44	0	1552941056	8	3765
2026-01-01 13:28:17.30	0.76	19.17	-24.0	-24.4	16.9	0.00e+00	0	44	0	1560281088	8	3751
2026-01-01 13:28:18.30	0.61	19.07	-24.0	-24.4	16.9	0.00e+00	0	44	0	1567621120	8	3768
2026-01-01 13:28:19.30	0.47	18.97	-23.8	-23.9	17.2	0.00e+00	0	44	0	1574961152	8	3657
2026-01-01 13:28:20.29	0.33	18.87	-23.7	-23.8	17.2	0.00e+00	0	44	0	1582301184	8	3623
2026-01-01 13:28:21.29	0.20	18.76	-23.8	-23.8	17.2	0.00e+00	0	44	0	1588592640	8	3629
2026-01-01 13:28:22.27	0.06	18.67	-23.9	-24.0	17.1	0.00e+00	0	44	0	1595932672	8	3681
2026-01-01 13:28:23.27	359.92	18.56	-23.9	-24.1	17.0	0.00e+00	0	44	0	1603272704	8	3696
2026-01-01 13:28:24.26	359.79	18.47	-24.1	-24.5	16.8	0.00e+00	0	44	0	1610612736	8	3796
2026-01-01 13:28:25.26	359.65	18.36	-24.1	-24.7	16.7	0.00e+00	0	44	0	1617952768	8	3832
2026-01-01 13:28:26.26	359.52	18.26	-24.2	-24.8	16.6	0.00e+00	0	44	0	1625292800	8	3848
2026-01-01 13:28:27.25	359.38	18.17	-24.3	-24.9	16.6	0.00e+00	0	44	0	1632632832	8	3881
2026-01-01 13:28:28.24	359.25	18.07	-24.3	-25.0	16.5	0.00e+00	0	44	0	1638924288	8	3909
2026-01-01 13:28:29.24	359.12	17.97	-24.2	-24.8	16.7	0.00e+00	0	44	0	1646264320	8	3845
2026-01-01 13:28:30.23	358.99	17.87	-24.2	-24.8	16.6	0.00e+00	0	44	0	1653604352	8	3866
2026-01-01 13:28:31.23	358.86	17.77	-24.0	-24.4	16.8	0.00e+00	0	44	0	1660944384	8	3771
2026-01-01 13:28:32.21	358.73	17.67	-24.1	-24.6	16.8	0.00e+00	0	44	0	1668284416	8	3808
2026-01-01 13:28:33.21	358.61	17.58	-24.1	-24.7	16.7	0.00e+00	0	44	0	1675624448	8	3824
2026-01-01 13:28:34.21	358.48	17.48	-24.0	-24.4	16.8	0.00e+00	0	44	0	1682964480	8	3767
2026-01-01 13:28:35.21	358.35	17.38	-24.1	-24.5	16.8	0.00e+00	0	44	0	1689255936	8	3787
2026-01-01 13:28:36.20	358.23	17.28	-24.1	-24.6	16.7	0.00e+00	0	44	0	1696595968	8	3816
2026-01-01 13:28:37.21	358.10	17.19	-24.2	-24.9	16.6	0.00e+00	0	44	0	1703936000	8	3876
2026-01-01 13:28:38.20	357.98	17.09	-24.2	-24.8	16.6	0.00e+00	0	44	0	1711276032	8	3865
2026-01-01 13:28:39.20	357.85	16.99	-24.2	-24.9	16.6	0.00e+00	0	44	0	1718616064	8	3869
2026-01-01 13:28:40.19	357.73	16.90	-24.2	-24.9	16.6	0.00e+00	0	44	0	1725956096	8	3874
2026-01-01 13:28:41.18	357.61	16.80	-24.2	-24.9	16.6	0.00e+00	0	44	0	1732247552	8	3876
2026-01-01 13:28:42.18	357.49	16.71	-24.2	-24.8	16.6	0.00e+00	0	44	0	1739587584	8	3860
2026-01-01 13:28:43.17	357.37	16.61	-24.3	-25.0	16.5	0.00e+00	0	44	0	1746927616	8	3912
2026-01-01 13:28:44.17	357.25	16.52	-24.2	-24.8	16.6	0.00e+00	0	44	0	1754267648	8	3859
2026-01-01 13:28:45.17	357.13	16.42	-24.3	-25.0	16.5	0.00e+00	0	44	0	1761607680	8	3901
2026-01-01 13:28:46.17	357.02	16.32	-24.3	-24.9	16.5	0.00e+00	0	44	0	1768947712	8	3894
2026-01-01 13:28:47.17	356.90	16.23	-24.3	-25.1	16.4	0.00e+00	0	44	0	1776287744	8	3917
2026-01-01 13:28:48.16	356.78	16.14	-24.4	-25.2	16.4	0.00e+00	0	44	0	1783627776	8	3949
2026-01-01 13:28:49.15	356.67	16.04	-24.4	-25.3	16.3	0.00e+00	0	44	0	1789919232	8	3972
2026-01-01 13:28:50.14	356.55	15.95	-24.4	-25.3	16.3	0.00e+00	0	44	0	1797259264	8	3984
2026-01-01 13:28:51.14	356.44	15.86	-24.7	-25.3	16.0	0.00e+00	0	44	0	1804599296	9	3878
2026-01-01 13:28:52.14	356.33	15.76	-24.9	-25.7	15.8	0.00e+00	0	44	0	1811939328	9	3975
2026-01-01 13:28:53.14	356.21	15.67	-24.7	-25.4	16.0	0.00e+00	0	44	0	1819279360	9	3898
2026-01-01 13:28:54.15	356.10	15.57	-24.6	-25.1	16.2	0.00e+00	0	44	0	1826619392	9	3822
2026-01-01 13:28:55.15	355.99	15.48	-24.7	-25.3	16.0	0.00e+00	0	44	0	1833959424	9	3868
2026-01-01 13:28:56.14	355.88	15.39	-24.7	-25.4	16.0	0.00e+00	0	44	0	1841299456	9	3889
2026-01-01 13:28:57.15	355.77	15.30	-24.7	-25.4	15.9	0.00e+00	0	44	0	1848639488	9	3899
2026-01-01 13:28:58.14	355.66	15.20	-24.8	-25.5	15.9	0.00e+00	0	44	0	1854930944	9	3920
2026-01-01 13:28:59.14	355.55	15.11	-24.9	-25.7	15.8	0.00e+00	0	44	0	1862270976	9	3974
2026-01-01 13:29:00.13	355.45	15.02	-24.8	-25.7	15.8	0.00e+00	0	44	0	1869611008	9	3967
2026-01-01 13:29:01.13	355.34	14.93	-24.9	-25.7	15.8	0.00e+00	0	44	0	1876951040	9	3978
2026-01-01 13:29:02.12	355.23	14.84	-25.1	-26.1	15.5	0.00e+00	0	44	0	1884291072	9	4081
2026-01-01 13:29:03.12	355.13	14.75	-25.0	-26.1	15.6	0.00e+00	0	44	0	1891631104	9	4060
2026-01-01 13:29:04.12	355.02	14.66	-25.2	-26.0	15.4	0.00e+00	0	44	0	1897922560	10	3929
2026-01-01 13:29:05.11	354.92	14.57	-25.5	-26.7	15.0	0.00e+00	0	44	0	1905262592	10	4104
2026-01-01 13:29:06.10	354.82	14.48	-25.3	-26.2	15.3	1.10e-06	0	44	0	1912602624	10	3990
2026-01-01 13:29:07.10	354.71	14.39	-25.1	-25.8	15.5	0.00e+00	0	44	0	1919942656	10	3885
2026-01-01 13:29:08.09	354.61	14.30	-25.0	-25.6	15.5	0.00e+00	0	44	0	1927282688	10	3843
2026-01-01 13:29:09.09	354.51	14.21	-25.0	-25.6	15.5	0.00e+00	0	44	0	1934622720	10	3835
2026-01-01 13:29:10.08	354.41	14.12	-25.1	-25.7	15.5	0.00e+00	0	44	0	1940914176	10	3868
2026-01-01 13:29:11.08	354.31	14.03	-25.1	-25.7	15.5	0.00e+00	0	44	0	1948254208	10	3860
2026-01-01 13:29:12.07	354.21	13.95	-25.0	-25.5	15.6	0.00e+00	0	44	0	1955594240	10	3817
2026-01-01 13:29:13.07	354.11	13.86	-25.1	-25.7	15.5	0.00e+00	0	44	0	1962934272	10	3863
2026-01-01 13:29:14.07	354.01	13.77	-25.2	-26.0	15.3	0.00e+00	0	44	0	1970274304	10	3949
2026-01-01 13:29:15.06	353.91	13.68	-25.0	-25.6	15.5	0.00e+00	0	44	0	1977614336	10	3846
2026-01-01 13:29:16.07	353.82	13.59	-24.9	-25.2	15.7	0.00e+00	0	44	0	1984954368	10	3754
2026-01-01 13:29:17.06	353.72	13.50	-25.0	-25.4	15.6	0.00e+00	0	44	0	1992294400	10	3805
2026-01-01 13:29:18.06	353.62	13.42	-24.9	-25.4	15.7	0.00e+00	0	44	0	1998585856	10	3792
2026-01-01 13:29:19.06	353.53	13.33	-25.1	-25.7	15.5	0.00e+00	0	44	0	2005925888	10	3872
2026-01-01 13:29:20.06	353.43	13.24	-25.0	-25.5	15.6	0.00e+00	0	44	0	2013265920	10	3820
2026-01-01 13:29:21.06	353.34	13.16	-25.0	-25.5	15.6	0.00e+00	0	44	0	2020605952	10	3811
2026-01-01 13:29:22.07	353.24	13.07	-25.1	-25.7	15.5	0.00e+00	0	44	0	2027945984	10	3870
2026-01-01 13:29:23.07	353.15	12.98	-25.1	-25.8	15.4	0.00e+00	0	44	0	2035286016	10	3892
2026-01-01 13:29:24.07	353.06	12.90	-25.2	-26.0	15.3	0.00e+00	0	44	0	2042626048	10	3952
2026-01-01 13:29:25.07	352.96	12.81	-25.2	-26.1	15.2	0.00e+00	0	44	0	2049966080	10	3958
2026-01-01 13:29:26.08	352.87	12.72	-25.4	-26.4	15.0	0.00e+00	0	44	0	2056257536	10	4051
2026-01-01 13:29:27.08	352.78	12.64	-25.4	-26.5	15.0	0.00e+00	0	44	0	2063597568	10	4057
2026-01-01 13:29:28.09	352.69	12.55	-25.6	-26.8	14.8	0.00e+00	0	44	0	2070937600	10	4151
2026-01-01 13:29:29.09	352.60	12.47	-25.6	-26.3	14.7	0.00e+00	0	44	0	2078277632	11	3923
2026-01-01 13:29:30.09	352.51	12.38	-25.7	-26.6	14.6	0.00e+00	0	44	0	2085617664	11	4000
2026-01-01 13:29:31.09	352.42	12.30	-25.8	-26.9	14.5	1.10e-06	0	44	0	2092957696	11	4061
2026-01-01 13:29:32.10	352.33	12.21	-25.9	-27.0	14.4	2.20e-06	0	44	0	2100297728	11	4091
2026-01-01 13:29:33.10	352.24	12.13	-25.8	-26.9	14.4	0.00e+00	0	44	0	2107637760	11	4072
2026-01-01 13:29:34.11	352.15	12.04	-25.9	-26.9	14.4	1.10e-06	0	44	0	2114977792	11	4079
2026-01-01 13:29:35.11	352.07	11.96	-25.8	-26.9	14.4	0.00e+00	0	44	0	2122317824	11	4057
2026-01-01 13:29:36.12	351.98	11.88	-25.9	-27.0	14.4	0.00e+00	0	44	0	2129657856	11	4105
2026-01-01 13:29:37.12	351.89	11.79	-25.9	-27.0	14.4	2.20e-06	0	44	0	2136997888	11	4092
2026-01-01 13:29:38.12	351.81	11.71	-25.9	-27.0	14.4	0.00e+00	0	44	0	2143289344	11	4090
2026-01-01 13:29:39.12	351.72	11.63	-26.0	-27.2	14.3	0.00e+00	0	44	0	2150629376	11	4137
2026-01-01 13:29:40.12	351.64	11.54	-25.7	-26.6	14.6	0.00e+00	0	44	0	2157969408	11	3979
2026-01-01 13:29:41.13	351.55	11.46	-25.7	-26.5	14.7	0.00e+00	0	44	0	2165309440	11	3958
2026-01-01 13:29:42.13	351.47	11.38	-25.6	-26.5	14.7	0.00e+00	0	44	0	2172649472	11	3959
2026-01-01 13:29:43.14	351.39	11.30	-25.6	-26.4	14.7	0.00e+00	0	44	0	2179989504	11	3927
2026-01-01 13:29:44.14	351.30	11.22	-25.6	-26.3	14.7	0.00e+00	0	43	0	2187329536	11	3923
2026-01-01 13:29:45.14	351.22	11.13	-25.6	-26.3	14.7	0.00e+00	0	44	0	2194669568	11	3908
2026-01-01 13:29:46.15	351.14	11.05	-25.5	-26.2	14.8	0.00e+00	0	44	0	2202009600	11	3898
2026-01-01 13:29:47.15	351.06	10.97	-25.7	-26.6	14.6	1.10e-06	0	44	0	2209349632	11	3981
2026-01-01 13:29:48.15	350.98	10.89	-25.5	-26.2	14.7	1.10e-06	0	44	0	2216689664	11	3902
2026-01-01 13:29:49.15	350.90	10.81	-25.5	-26.2	14.8	0.00e+00	0	44	0	2224029696	11	3888
2026-01-01 13:29:50.15	350.82	10.73	-25.6	-26.4	14.6	1.10e-06	0	44	0	2230321152	11	3953
2026-01-01 13:29:51.16	350.74	10.65	-25.6	-26.5	14.6	0.00e+00	0	44	0	2237661184	11	3958
2026-01-01 13:29:52.16	350.66	10.57	-25.6	-26.4	14.6	0.00e+00	0	44	0	2245001216	11	3948
2026-01-01 13:29:53.17	350.58	10.49	-25.8	-26.7	14.4	0.00e+00	0	44	0	2252341248	11	4021
2026-01-01 13:29:54.16	350.50	10.41	-25.7	-26.6	14.5	1.10e-06	0	44	0	2259681280	11	3993
2026-01-01 13:29:55.17	350.43	10.33	-25.7	-26.7	14.4	0.00e+00	0	44	0	2267021312	11	4015
2026-01-01 13:29:56.18	350.35	10.25	-26.0	-27.2	14.2	1.10e-06	0	44	0	2274361344	11	4138
2026-01-01 13:29:57.18	350.27	10.17	-25.9	-27.0	14.3	0.00e+00	0	44	0	2281701376	11	4094
2026-01-01 13:29:58.18	350.20	10.09	-26.0	-27.2	14.1	2.20e-06	0	44	0	2287992832	11	4158
2026-01-01 13:29:59.18	350.12	10.01	-25.9	-27.0	14.3	1.10e-06	0	44	0	2295332864	11	4087
2026-01-01 13:30:00.19	350.04	9.93	-25.8	-26.8	14.4	1.10e-06	0	44	0	2302672896	11	4045
2026-01-01 13:30:01.19	349.97	9.85	-25.9	-27.1	14.2	1.10e-06	0	44	0	2310012928	11	4129
2026-01-01 13:30:02.19	349.89	9.78	-26.0	-27.2	14.1	0.00e+00	0	44	0	2317352960	11	4141
2026-01-01 13:30:03.20	349.82	9.70	-26.1	-26.9	13.9	3.40e-06	0	44	0	2324692992	12	3976
2026-01-01 13:30:04.20	349.75	9.62	-25.9	-26.6	14.1	0.00e+00	0	44	0	2332033024	12	3887
2026-01-01 13:30:05.21	349.67	9.54	-25.8	-26.4	14.2	0.00e+00	0	44	0	2339373056	12	3856
2026-01-01 13:30:06.21	349.60	9.46	-25.9	-26.5	14.2	0.00e+00	0	44	0	2346713088	12	3865
2026-01-01 13:30:07.21	349.53	9.39	-25.9	-26.7	14.1	0.00e+00	0	44	0	2354053120	12	3907
2026-01-01 13:30:08.21	349.46	9.31	-25.9	-26.6	14.1	2.20e-06	0	44	0	2361393152	12	3895
2026-01-01 13:30:09.21	349.38	9.23	-26.0	-26.7	14.0	1.10e-06	0	44	0	2368733184	12	3931
2026-01-01 13:30:10.21	349.31	9.16	-26.1	-26.9	13.9	4.50e-06	0	44	0	2375024640	12	3970
2026-01-01 13:30:11.22	349.24	9.08	-26.1	-26.9	13.9	3.40e-06	0	44	0	2382364672	12	3973
2026-01-01 13:30:12.22	349.17	9.00	-26.2	-27.3	13.7	3.40e-06	0	44	0	2389704704	12	4066
2026-01-01 13:30:13.22	349.10	8.93	-26.1	-27.1	13.8	3.40e-06	0	44	0	2397044736	12	4026
2026-01-01 13:30:14.22	349.03	8.85	-26.2	-27.4	13.6	3.40e-06	0	44	0	2404384768	12	4092
2026-01-01 13:30:15.23	348.96	8.78	-26.3	-27.5	13.5	1.02e-05	0	44	0	2411724800	12	4122
2026-01-01 13:30:16.23	348.89	8.70	-26.3	-27.5	13.5	1.14e-05	0	44	0	2419064832	12	4136
2026-01-01 13:30:17.24	348.82	8.63	-26.2	-27.3	13.6	4.50e-06	0	44	0	2426404864	12	4085
2026-01-01 13:30:18.24	348.76	8.55	-26.3	-27.6	13.4	1.37e-05	0	44	0	2432696320	12	4156
2026-01-01 13:30:19.24	348.69	8.48	-26.4	-27.6	13.4	6.80e-06	0	44	0	2440036352	12	4164
2026-01-01 13:30:20.25	348.62	8.40	-26.4	-27.7	13.4	1.60e-05	0	44	0	2448424960	12	4183
2026-01-01 13:30:21.24	348.55	8.33	-26.3	-27.5	13.5	1.02e-05	0	44	0	2454716416	12	4131
2026-01-01 13:30:22.25	348.49	8.25	-26.4	-27.7	13.3	1.25e-05	0	44	0	2462056448	12	4198
2026-01-01 13:30:23.25	348.42	8.18	-26.4	-27.9	13.3	1.94e-05	0	44	0	2469396480	12	4232
2026-01-01 13:30:24.25	348.35	8.10	-26.4	-27.7	13.3	8.00e-06	0	44	0	2476736512	12	4199
2026-01-01 13:30:25.26	348.29	8.03	-26.3	-27.6	13.4	1.71e-05	0	44	0	2484076544	12	4164
2026-01-01 13:30:26.26	348.22	7.96	-26.2	-27.4	13.5	1.25e-05	0	44	0	2491416576	12	4095
2026-01-01 13:30:27.26	348.16	7.88	-26.2	-27.3	13.5	8.00e-06	0	44	0	2498756608	12	4079
2026-01-01 13:30:28.27	348.09	7.81	-26.4	-27.6	13.3	1.94e-05	0	44	0	2506096640	12	4170
2026-01-01 13:30:29.27	348.03	7.74	-26.3	-27.4	13.5	1.02e-05	0	44	0	2513436672	12	4106
2026-01-01 13:30:30.27	347.96	7.66	-26.3	-27.5	13.5	6.80e-06	0	44	0	2519728128	12	4123
2026-01-01 13:30:31.27	347.90	7.59	-26.3	-27.6	13.4	1.02e-05	0	44	0	2527068160	12	4164
2026-01-01 13:30:32.27	347.84	7.52	-26.2	-27.2	13.6	8.00e-06	0	44	0	2534408192	12	4043
2026-01-01 13:30:33.29	347.77	7.44	-26.2	-27.3	13.5	5.70e-06	0	44	0	2541748224	12	4079
2026-01-01 13:30:34.29	347.71	7.37	-26.2	-27.3	13.5	6.80e-06	0	44	0	2549088256	12	4081
2026-01-01 13:30:35.30	347.65	7.30	-26.3	-27.5	13.4	8.00e-06	0	44	0	2556428288	12	4131
2026-01-01 13:30:36.30	347.59	7.23	-26.2	-27.2	13.5	1.25e-05	0	44	0	2563768320	12	4060
2026-01-01 13:30:37.31	347.52	7.15	-26.3	-27.5	13.4	1.48e-05	0	44	0	2571108352	12	4126
2026-01-01 13:30:38.32	347.46	7.08	-28.0	-30.0	11.1	2.20e-06	0	44	0	2578448384	15	4543
2026-01-01 13:30:39.32	347.40	7.01	-32.5	-41.0	3.8	8.43e-01	0	44	104	2579496960	24	9645
2026-01-01 13:30:40.32	347.34	6.94	-32.9	-42.6	3.8	8.46e-01	0	44	104	2579496960	25	10936

#Closed at: 2026-01-01 13:30:40
#Recorded file [2579 MB]: D:/data/31010_260101_162440.dat