passes_logs/2026/01/01/R2M6_AANII_01/R2M6_AANII_01__20260101_000736_NOAA_21_JPSS-2_rec.log

#Pass ID: 20260101_000736_NOAA 21 (JPSS-2)
#Satellite: NOAA 21 (JPSS-2)
#Configuration: NOAA 21
#almurnet v.1.7.20240730
#Start time: 2026-01-01 00:07:36

#Version: 2.2.20231116
#Station: R2M6_AANII_01
#Location: 30.233357 lon 59.946436 lat
#TLE: 1 54234U 22150A   25365.42224288  .00000199  00000+0  11529-3 0  9990
#TLE: 2 54234  98.7483 301.4995 0001320 356.2106   3.9060 14.19530300162743

#Time	Az	El	Level	Level2	SNR	BER	BlckErr	Temp	State	Recorded	gain1	gain2
2026-01-01 00:07:36.78	19.24	7.05	-29.8	-34.8	4.6	1.40e+00	0	40	0	0	19	6393
2026-01-01 00:07:37.78	19.25	7.12	-29.6	-34.1	4.7	1.40e+00	0	40	104	0	19	6056
2026-01-01 00:07:38.78	19.27	7.20	-29.7	-33.7	9.2	1.79e-02	0	40	0	0	19	5682
2026-01-01 00:07:39.78	19.28	7.28	-29.7	-33.5	9.3	1.77e-02	0	40	0	3145728	19	5597
2026-01-01 00:07:40.78	19.30	7.36	-29.7	-33.6	9.3	1.90e-02	0	40	0	5242880	19	5638
2026-01-01 00:07:41.79	19.32	7.43	-29.8	-33.9	9.0	2.13e-02	0	41	0	9437184	19	5772
2026-01-01 00:07:42.80	19.33	7.51	-29.6	-33.4	9.4	2.43e-02	0	41	0	12582912	19	5573
2026-01-01 00:07:43.80	19.35	7.59	-29.3	-32.5	10.1	1.28e-02	0	40	0	15728640	19	5169
2026-01-01 00:07:44.81	19.36	7.67	-29.5	-33.1	9.7	8.65e-03	0	40	0	18874368	19	5409
2026-01-01 00:07:45.81	19.38	7.75	-29.7	-33.5	9.4	1.64e-02	0	40	0	22020096	19	5583
2026-01-01 00:07:46.81	19.40	7.83	-29.7	-33.7	9.2	1.79e-02	0	41	0	24117248	19	5685
2026-01-01 00:07:47.81	19.41	7.91	-29.7	-33.5	9.4	1.77e-02	0	41	0	27262976	19	5597
2026-01-01 00:07:48.81	19.43	7.99	-29.4	-32.7	10.0	9.85e-03	0	41	0	30408704	19	5240
2026-01-01 00:07:49.81	19.44	8.06	-29.1	-32.2	10.6	3.97e-03	0	41	0	33554432	18	5162
2026-01-01 00:07:50.82	19.46	8.15	-28.7	-31.7	11.3	1.54e-03	0	41	0	36700160	17	5100
2026-01-01 00:07:51.82	19.48	8.23	-28.2	-30.7	11.8	4.87e-04	0	41	0	39845888	17	4774
2026-01-01 00:07:52.82	19.49	8.31	-28.2	-30.8	12.2	2.22e-04	0	41	0	42991616	16	4877
2026-01-01 00:07:53.82	19.51	8.39	-27.9	-30.7	11.9	1.47e-04	0	41	0	46137344	15	4967
2026-01-01 00:07:54.82	19.53	8.47	-28.0	-30.8	12.0	1.23e-04	0	41	0	49283072	15	5021
2026-01-01 00:07:55.83	19.54	8.55	-28.3	-31.2	12.0	2.56e-04	0	41	0	52428800	16	5021
2026-01-01 00:07:56.83	19.56	8.63	-28.2	-30.9	12.2	2.08e-04	0	41	0	55574528	16	4895
2026-01-01 00:07:57.83	19.58	8.71	-27.8	-30.6	12.5	1.04e-04	0	41	0	58720256	15	4915
2026-01-01 00:07:58.84	19.59	8.79	-27.7	-30.2	12.8	7.01e-05	0	41	0	61865984	15	4800
2026-01-01 00:07:59.84	19.61	8.88	-27.7	-30.2	12.8	5.64e-05	0	41	0	65011712	15	4780
2026-01-01 00:08:00.84	19.63	8.96	-27.6	-30.0	12.9	4.80e-05	0	41	0	68157440	15	4730
2026-01-01 00:08:01.85	19.65	9.04	-27.7	-30.2	12.8	4.57e-05	0	41	0	71303168	15	4806
2026-01-01 00:08:02.85	19.66	9.13	-27.7	-30.1	12.9	3.96e-05	0	41	0	74448896	15	4751
2026-01-01 00:08:03.86	19.68	9.21	-27.5	-29.8	13.1	1.72e-03	0	41	0	77594624	15	4648
2026-01-01 00:08:04.86	19.70	9.29	-27.4	-29.4	13.4	1.44e-05	0	41	0	80740352	15	4521
2026-01-01 00:08:05.86	19.71	9.38	-27.3	-29.6	13.5	6.10e-06	0	41	0	83886080	14	4703
2026-01-01 00:08:06.87	19.73	9.46	-27.3	-29.7	13.5	9.90e-06	0	41	0	87031808	14	4725
2026-01-01 00:08:07.87	19.75	9.55	-27.3	-29.7	13.5	8.30e-06	0	41	0	90177536	14	4724
2026-01-01 00:08:08.88	19.77	9.63	-27.3	-29.7	13.5	1.30e-03	0	41	0	93323264	14	4735
2026-01-01 00:08:09.88	19.79	9.72	-27.5	-29.7	13.1	1.21e-03	0	41	0	96468992	15	4639
2026-01-01 00:08:10.89	19.80	9.80	-27.7	-30.3	12.9	5.03e-05	0	41	0	99614720	15	4811
2026-01-01 00:08:11.89	19.82	9.89	-27.6	-29.9	13.0	4.57e-05	0	41	0	102760448	15	4685
2026-01-01 00:08:12.89	19.84	9.97	-27.4	-29.4	13.4	1.28e-03	0	41	0	105906176	15	4522
2026-01-01 00:08:13.89	19.86	10.06	-27.3	-29.6	13.6	9.90e-06	0	41	0	109051904	14	4685
2026-01-01 00:08:14.90	19.87	10.15	-27.3	-29.7	13.5	1.31e-03	0	41	0	112197632	14	4742
2026-01-01 00:08:15.90	19.89	10.23	-27.4	-29.9	13.4	1.29e-03	0	41	0	115343360	14	4786
2026-01-01 00:08:16.90	19.91	10.32	-27.3	-29.7	13.5	1.14e-05	0	41	0	118489088	14	4745
2026-01-01 00:08:17.91	19.93	10.41	-27.4	-29.9	13.4	1.48e-03	0	41	0	121634816	14	4797
2026-01-01 00:08:18.90	19.95	10.50	-27.4	-29.8	13.5	1.48e-03	0	41	0	124780544	14	4762
2026-01-01 00:08:19.91	19.97	10.58	-27.4	-29.8	13.5	9.90e-06	0	42	0	127926272	14	4778
2026-01-01 00:08:20.91	19.99	10.67	-27.3	-29.7	13.5	1.39e-03	0	42	0	131072000	14	4722
2026-01-01 00:08:21.92	20.00	10.76	-27.4	-30.0	13.4	1.38e-03	0	41	0	134217728	14	4816
2026-01-01 00:08:22.92	20.02	10.85	-26.6	-29.0	13.5	1.22e-05	0	42	0	137363456	14	4769
2026-01-01 00:08:23.93	20.04	10.94	-27.3	-29.6	13.4	1.39e-03	0	41	0	140509184	14	4704
2026-01-01 00:08:24.94	20.06	11.03	-27.3	-29.5	13.7	1.42e-03	0	42	0	143654912	14	4663
2026-01-01 00:08:25.94	20.08	11.12	-27.3	-29.7	13.6	1.06e-05	0	41	0	146800640	14	4727
2026-01-01 00:08:26.94	20.10	11.21	-27.2	-29.3	13.9	1.50e-03	0	42	0	149946368	14	4589
2026-01-01 00:08:27.94	20.12	11.30	-27.3	-29.6	13.7	3.58e-03	0	42	0	153092096	14	4699
2026-01-01 00:08:28.95	20.14	11.39	-27.1	-29.1	14.0	6.10e-06	0	41	0	156237824	14	4552
2026-01-01 00:08:29.95	20.16	11.49	-27.0	-29.4	14.1	1.61e-03	0	42	0	159383552	13	4728
2026-01-01 00:08:30.96	20.18	11.58	-26.8	-29.0	14.3	1.60e-03	0	42	0	162529280	13	4617
2026-01-01 00:08:31.97	20.20	11.67	-26.8	-29.0	14.3	0.00e+00	0	42	0	165675008	13	4621
2026-01-01 00:08:32.97	20.22	11.76	-26.9	-29.2	14.2	2.66e-04	0	42	0	168820736	13	4679
2026-01-01 00:08:33.98	20.24	11.86	-27.1	-29.1	14.1	3.80e-03	0	42	0	171966464	14	4520
2026-01-01 00:08:34.98	20.26	11.95	-27.0	-28.9	14.1	7.00e-07	0	42	0	175112192	14	4470
2026-01-01 00:08:35.98	20.28	12.04	-26.9	-29.2	14.3	1.63e-03	0	42	0	178257920	13	4671
2026-01-01 00:08:36.99	20.30	12.14	-27.0	-29.3	14.2	0.00e+00	0	42	0	181403648	13	4698
2026-01-01 00:08:37.99	20.32	12.23	-26.9	-29.2	14.3	3.95e-03	0	42	0	184549376	13	4677
2026-01-01 00:08:39.00	20.34	12.33	-27.0	-29.3	14.2	1.70e-04	0	42	0	187695104	13	4704
2026-01-01 00:08:40.00	20.36	12.42	-27.1	-29.1	14.0	3.94e-03	0	42	0	190840832	14	4548
2026-01-01 00:08:41.00	20.38	12.52	-27.3	-29.7	13.7	4.50e-06	0	42	0	193986560	14	4708
2026-01-01 00:08:42.00	20.40	12.61	-27.1	-29.1	14.1	3.00e-06	0	42	0	197132288	14	4540
2026-01-01 00:08:43.00	20.42	12.71	-27.0	-29.0	14.1	3.78e-03	0	42	0	200278016	14	4494
2026-01-01 00:08:44.00	20.44	12.80	-27.0	-28.8	14.2	3.45e-03	0	42	0	203423744	14	4451
2026-01-01 00:08:45.00	20.46	12.90	-27.0	-29.3	14.2	1.46e-04	0	42	0	206569472	13	4696
2026-01-01 00:08:46.00	20.48	13.00	-26.9	-29.2	14.3	3.52e-03	0	42	0	209715200	13	4671
2026-01-01 00:08:47.00	20.50	13.09	-26.9	-29.2	14.3	3.98e-04	0	42	0	212860928	13	4673
2026-01-01 00:08:48.00	20.52	13.19	-26.9	-29.2	14.3	1.81e-04	0	42	0	216006656	13	4667
2026-01-01 00:08:49.00	20.54	13.29	-26.7	-28.7	14.5	3.93e-03	0	42	0	219152384	13	4537
2026-01-01 00:08:50.00	20.57	13.39	-26.6	-28.5	14.7	3.85e-03	0	42	0	222298112	13	4476
2026-01-01 00:08:51.00	20.59	13.49	-26.6	-28.4	14.8	1.49e-04	0	42	0	225443840	13	4430
2026-01-01 00:08:52.00	20.61	13.59	-26.6	-28.3	14.8	3.87e-03	0	42	0	228589568	13	4417
2026-01-01 00:08:53.00	20.63	13.69	-26.6	-28.5	14.7	3.49e-03	0	42	0	231735296	13	4471
2026-01-01 00:08:54.01	20.65	13.79	-26.8	-28.8	14.5	1.40e-04	0	42	0	234881024	13	4564
2026-01-01 00:08:55.01	20.68	13.89	-26.8	-28.9	14.5	3.51e-03	0	42	0	238026752	13	4580
2026-01-01 00:08:56.01	20.70	13.99	-26.8	-28.8	14.5	3.95e-03	0	42	0	241172480	13	4562
2026-01-01 00:08:57.01	20.72	14.09	-26.7	-28.7	14.6	1.45e-04	0	42	0	244318208	13	4520
2026-01-01 00:08:58.02	20.74	14.19	-26.7	-28.6	14.7	3.92e-03	0	42	0	247463936	13	4496
2026-01-01 00:08:59.02	20.76	14.30	-26.7	-28.6	14.7	3.78e-03	0	42	0	250609664	13	4478
2026-01-01 00:09:00.03	20.79	14.40	-26.7	-28.7	14.6	1.74e-04	0	42	0	253755392	13	4535
2026-01-01 00:09:01.03	20.81	14.50	-26.7	-28.7	14.6	3.78e-03	0	42	0	256901120	13	4511
2026-01-01 00:09:02.03	20.83	14.61	-26.6	-28.3	14.8	0.00e+00	0	42	0	260046848	13	4411
2026-01-01 00:09:03.03	20.86	14.71	-26.5	-28.2	14.9	6.10e-05	0	42	0	263192576	13	4385
2026-01-01 00:09:04.04	20.88	14.82	-26.5	-28.3	14.9	3.48e-03	0	42	0	266338304	13	4397
2026-01-01 00:09:05.04	20.90	14.92	-26.5	-28.1	15.0	3.89e-03	0	42	0	269484032	13	4349
2026-01-01 00:09:06.04	20.93	15.03	-26.5	-28.3	14.9	2.51e-05	0	42	0	272629760	13	4390
2026-01-01 00:09:07.04	20.95	15.13	-26.5	-28.1	15.0	0.00e+00	0	42	0	275775488	13	4349
2026-01-01 00:09:08.05	20.97	15.24	-26.6	-28.3	14.9	0.00e+00	0	42	0	278921216	13	4398
2026-01-01 00:09:09.05	21.00	15.35	-26.7	-28.5	14.8	4.80e-05	0	42	0	282066944	13	4470
2026-01-01 00:09:10.05	21.02	15.45	-26.5	-28.2	15.0	3.85e-03	0	42	0	285212672	13	4365
2026-01-01 00:09:11.05	21.05	15.56	-26.4	-28.0	15.1	3.51e-03	0	42	0	288358400	13	4318
2026-01-01 00:09:12.06	21.07	15.67	-26.3	-28.3	15.2	0.00e+00	0	42	0	291504128	12	4505
2026-01-01 00:09:13.06	21.09	15.78	-26.3	-28.2	15.3	0.00e+00	0	42	0	294649856	12	4483
2026-01-01 00:09:14.06	21.12	15.89	-26.3	-28.2	15.3	0.00e+00	0	42	0	297795584	12	4487
2026-01-01 00:09:15.07	21.14	16.00	-26.4	-28.5	15.1	1.52e-05	0	42	0	299892736	12	4563
2026-01-01 00:09:16.07	21.17	16.11	-26.3	-28.1	15.3	3.90e-03	0	42	0	303038464	12	4464
2026-01-01 00:09:17.06	21.19	16.22	-26.2	-28.1	15.4	0.00e+00	0	42	0	306184192	12	4438
2026-01-01 00:09:18.06	21.22	16.33	-26.3	-28.1	15.4	0.00e+00	0	42	0	309329920	12	4437
2026-01-01 00:09:19.07	21.24	16.44	-26.2	-28.0	15.5	0.00e+00	0	42	0	312475648	12	4407
2026-01-01 00:09:20.07	21.27	16.56	-26.3	-28.1	15.4	3.45e-03	0	42	0	315621376	12	4464
2026-01-01 00:09:21.08	21.30	16.67	-26.2	-27.9	15.5	3.28e-05	0	42	0	318767104	12	4404
2026-01-01 00:09:22.08	21.32	16.78	-26.1	-27.8	15.6	0.00e+00	0	42	0	321912832	12	4369
2026-01-01 00:09:23.08	21.35	16.90	-26.2	-27.9	15.5	7.00e-07	0	42	0	325058560	12	4398
2026-01-01 00:09:24.09	21.37	17.01	-26.3	-28.3	15.3	0.00e+00	0	42	0	328204288	12	4495
2026-01-01 00:09:25.10	21.40	17.13	-26.3	-28.1	15.4	0.00e+00	0	42	0	331350016	12	4464
2026-01-01 00:09:26.10	21.43	17.24	-26.4	-28.4	15.2	3.70e-03	0	42	0	334495744	12	4532
2026-01-01 00:09:27.11	21.45	17.36	-26.5	-28.2	15.1	0.00e+00	0	42	0	337641472	13	4377
2026-01-01 00:09:28.11	21.48	17.48	-26.7	-28.6	14.9	0.00e+00	0	42	0	340787200	13	4470
2026-01-01 00:09:29.11	21.51	17.59	-26.6	-28.3	15.1	0.00e+00	0	42	0	343932928	13	4379
2026-01-01 00:09:30.11	21.53	17.71	-26.5	-28.2	15.1	0.00e+00	0	42	0	347078656	13	4360
2026-01-01 00:09:31.11	21.56	17.83	-26.6	-28.4	15.0	7.00e-07	0	42	0	350224384	13	4414
2026-01-01 00:09:32.11	21.59	17.95	-26.7	-28.6	14.9	0.00e+00	0	42	0	353370112	13	4470
2026-01-01 00:09:33.11	21.62	18.07	-26.6	-28.5	14.9	0.00e+00	0	42	0	356515840	13	4442
2026-01-01 00:09:34.11	21.64	18.19	-26.7	-28.6	14.9	0.00e+00	0	42	0	359661568	13	4484
2026-01-01 00:09:35.10	21.67	18.31	-26.6	-28.4	15.0	0.00e+00	0	42	0	362807296	13	4433
2026-01-01 00:09:36.10	21.70	18.43	-26.7	-28.7	14.8	0.00e+00	0	43	0	365953024	13	4494
2026-01-01 00:09:37.10	21.73	18.55	-26.8	-28.8	14.7	7.00e-07	0	42	0	369098752	13	4550
2026-01-01 00:09:38.10	21.76	18.67	-26.7	-28.7	14.8	0.00e+00	0	42	0	372244480	13	4497
2026-01-01 00:09:39.11	21.79	18.79	-26.9	-29.0	14.7	0.00e+00	0	42	0	375390208	13	4605
2026-01-01 00:09:40.11	21.82	18.92	-26.7	-28.5	14.9	0.00e+00	0	42	0	378535936	13	4463
2026-01-01 00:09:41.12	21.85	19.04	-26.6	-28.3	15.0	0.00e+00	0	42	0	381681664	13	4404
2026-01-01 00:09:42.12	21.88	19.17	-26.6	-28.3	15.1	0.00e+00	0	42	0	384827392	13	4391
2026-01-01 00:09:43.13	21.91	19.29	-26.6	-28.4	15.0	0.00e+00	0	42	0	387973120	13	4412
2026-01-01 00:09:44.13	21.94	19.42	-26.5	-28.2	14.6	0.00e+00	0	42	0	391118848	13	4357
2026-01-01 00:09:45.13	21.97	19.55	-26.4	-27.9	15.1	0.00e+00	0	42	0	394264576	13	4289
2026-01-01 00:09:46.14	22.00	19.68	-26.3	-28.3	15.4	0.00e+00	0	43	0	397410304	12	4494
2026-01-01 00:09:47.14	22.03	19.80	-26.4	-28.4	15.3	2.17e-04	0	42	0	400556032	12	4520
2026-01-01 00:09:48.14	22.06	19.93	-26.3	-28.3	15.4	2.18e-04	0	43	0	403701760	12	4485
2026-01-01 00:09:49.15	22.09	20.06	-26.4	-28.4	15.3	0.00e+00	0	43	0	406847488	12	4529
2026-01-01 00:09:50.15	22.12	20.19	-26.4	-28.3	15.4	0.00e+00	0	42	0	409993216	12	4501
2026-01-01 00:09:51.15	22.15	20.32	-26.2	-28.1	15.5	0.00e+00	0	42	0	413138944	12	4432
2026-01-01 00:09:52.15	22.18	20.45	-26.2	-28.0	15.5	0.00e+00	0	43	0	416284672	12	4424
2026-01-01 00:09:53.15	22.21	20.59	-26.2	-28.0	15.6	6.63e-05	0	42	0	419430400	12	4414
2026-01-01 00:09:54.16	22.25	20.72	-26.1	-27.7	15.7	1.50e-06	0	42	0	422576128	12	4332
2026-01-01 00:09:55.16	22.28	20.85	-26.0	-27.6	15.8	0.00e+00	0	42	0	425721856	12	4291
2026-01-01 00:09:56.17	22.31	20.99	-26.0	-27.5	15.9	0.00e+00	0	42	0	428867584	12	4268
2026-01-01 00:09:57.17	22.35	21.12	-26.0	-27.5	15.9	7.93e-05	0	42	0	432013312	12	4274
2026-01-01 00:09:58.17	22.38	21.26	-25.9	-27.2	16.0	0.00e+00	0	43	0	435159040	12	4190
2026-01-01 00:09:59.18	22.41	21.40	-25.9	-27.3	16.0	0.00e+00	0	42	0	438304768	12	4222
2026-01-01 00:10:00.18	22.45	21.53	-25.7	-26.9	16.2	0.00e+00	0	42	0	441450496	12	4124
2026-01-01 00:10:01.18	22.48	21.67	-25.7	-27.4	16.3	0.00e+00	0	43	0	444596224	11	4341
2026-01-01 00:10:02.19	22.51	21.81	-25.7	-27.3	16.4	0.00e+00	0	42	0	447741952	11	4312
2026-01-01 00:10:03.19	22.55	21.95	-25.7	-27.2	16.4	0.00e+00	0	42	0	450887680	11	4309
2026-01-01 00:10:04.19	22.58	22.09	-25.6	-27.1	16.4	0.00e+00	0	42	0	454033408	11	4282
2026-01-01 00:10:05.20	22.62	22.23	-25.6	-27.1	16.4	0.00e+00	0	42	0	457179136	11	4284
2026-01-01 00:10:06.20	22.65	22.37	-25.7	-27.2	16.4	0.00e+00	0	43	0	460324864	11	4291
2026-01-01 00:10:07.20	22.69	22.51	-25.5	-26.9	16.6	0.00e+00	0	43	0	463470592	11	4212
2026-01-01 00:10:08.20	22.73	22.66	-25.5	-26.8	16.6	0.00e+00	0	43	0	466616320	11	4199
2026-01-01 00:10:09.21	22.76	22.80	-25.5	-26.9	16.6	0.00e+00	0	42	0	469762048	11	4204
2026-01-01 00:10:10.22	22.80	22.95	-25.4	-26.6	16.7	0.00e+00	0	42	0	472907776	11	4153
2026-01-01 00:10:11.22	22.84	23.09	-25.4	-26.7	16.7	0.00e+00	0	43	0	476053504	11	4155
2026-01-01 00:10:12.23	22.87	23.24	-25.4	-26.6	16.7	0.00e+00	0	43	0	479199232	11	4135
2026-01-01 00:10:13.23	22.91	23.39	-25.4	-27.2	16.7	0.00e+00	0	42	0	482344960	10	4423
2026-01-01 00:10:14.23	22.95	23.54	-25.4	-27.1	16.7	0.00e+00	0	42	0	485490688	10	4394
2026-01-01 00:10:15.23	22.99	23.69	-25.4	-27.2	16.7	0.00e+00	0	42	0	488636416	10	4412
2026-01-01 00:10:16.23	23.02	23.84	-25.5	-26.9	16.6	0.00e+00	0	42	0	491782144	11	4228
2026-01-01 00:10:17.23	23.06	23.99	-25.7	-27.3	16.4	0.00e+00	0	42	0	494927872	11	4322
2026-01-01 00:10:18.23	23.10	24.14	-25.7	-27.4	16.3	0.00e+00	0	42	0	498073600	11	4351
2026-01-01 00:10:19.23	23.14	24.29	-25.8	-27.1	16.2	0.00e+00	0	43	0	501219328	12	4153
2026-01-01 00:10:20.24	23.18	24.44	-25.8	-27.6	16.2	0.00e+00	0	42	0	504365056	11	4405
2026-01-01 00:10:21.25	23.22	24.60	-25.6	-27.0	16.6	0.00e+00	0	43	0	507510784	11	4235
2026-01-01 00:10:22.25	23.26	24.75	-25.6	-27.1	16.5	0.00e+00	0	42	0	510656512	11	4272
2026-01-01 00:10:23.25	23.30	24.91	-25.8	-27.4	16.3	0.00e+00	0	42	0	513802240	11	4356
2026-01-01 00:10:24.26	23.34	25.07	-25.6	-27.1	16.5	0.00e+00	0	42	0	516947968	11	4275
2026-01-01 00:10:25.26	23.39	25.23	-25.9	-27.7	16.2	0.00e+00	0	42	0	520093696	11	4439
2026-01-01 00:10:26.27	23.43	25.39	-25.8	-27.5	16.3	0.00e+00	0	43	0	523239424	11	4361
2026-01-01 00:10:27.27	23.47	25.55	-25.6	-27.1	16.5	0.00e+00	0	42	0	526385152	11	4270
2026-01-01 00:10:28.27	23.51	25.71	-25.7	-27.2	16.5	0.00e+00	0	42	0	529530880	11	4286
2026-01-01 00:10:29.28	23.56	25.87	-25.8	-27.6	16.3	0.00e+00	0	42	0	532676608	11	4403
2026-01-01 00:10:30.28	23.60	26.03	-26.0	-27.6	15.9	0.00e+00	0	43	0	535822336	12	4287
2026-01-01 00:10:31.28	23.64	26.20	-26.2	-28.0	15.7	0.00e+00	0	43	0	538968064	12	4419
2026-01-01 00:10:32.28	23.69	26.36	-26.2	-28.0	15.7	0.00e+00	0	43	0	542113792	12	4410
2026-01-01 00:10:33.28	23.73	26.52	-25.9	-27.5	15.8	0.00e+00	0	43	0	545259520	12	4366
2026-01-01 00:10:34.28	23.78	26.69	-25.5	-27.4	15.4	0.00e+00	0	42	0	548405248	12	4473
2026-01-01 00:10:35.29	23.82	26.86	-26.5	-28.5	15.4	0.00e+00	0	43	0	551550976	12	4557
2026-01-01 00:10:36.29	23.87	27.03	-26.7	-28.5	15.2	0.00e+00	0	43	0	554696704	13	4433
2026-01-01 00:10:37.29	23.92	27.20	-26.9	-28.9	14.9	0.00e+00	0	43	0	557842432	13	4562
2026-01-01 00:10:38.30	23.96	27.37	-26.8	-28.7	15.0	0.00e+00	0	43	0	560988160	13	4503
2026-01-01 00:10:39.30	24.01	27.54	-26.9	-28.6	14.9	3.76e-03	0	43	0	564133888	14	4360
2026-01-01 00:10:40.31	24.06	27.72	-26.8	-28.8	15.0	3.48e-03	0	43	0	567279616	13	4521
2026-01-01 00:10:41.30	24.11	27.89	-26.7	-28.6	15.1	0.00e+00	0	43	0	570425344	13	4477
2026-01-01 00:10:42.31	24.16	28.07	-26.9	-28.9	14.9	7.00e-07	0	42	0	573571072	13	4561
2026-01-01 00:10:43.31	24.20	28.24	-26.8	-28.8	15.0	0.00e+00	0	43	0	576716800	13	4515
2026-01-01 00:10:44.32	24.25	28.42	-26.7	-28.6	15.1	0.00e+00	0	42	0	578813952	13	4473
2026-01-01 00:10:45.32	24.31	28.60	-26.7	-28.5	15.2	3.59e-03	0	43	0	581959680	13	4440
2026-01-01 00:10:46.32	24.36	28.78	-26.6	-28.3	15.3	0.00e+00	0	43	0	585105408	13	4369
2026-01-01 00:10:47.32	24.41	28.96	-26.5	-28.0	15.5	0.00e+00	0	42	0	588251136	13	4295
2026-01-01 00:10:48.33	24.46	29.14	-26.4	-27.9	15.5	0.00e+00	0	43	0	591396864	13	4271
2026-01-01 00:10:49.33	24.51	29.32	-26.4	-28.3	15.6	3.13e-03	0	43	0	594542592	12	4487
2026-01-01 00:10:50.34	24.57	29.51	-26.3	-28.0	15.7	0.00e+00	0	43	0	598736896	12	4414
2026-01-01 00:10:51.34	24.62	29.69	-26.2	-28.0	15.8	3.14e-03	0	42	0	601882624	12	4393
2026-01-01 00:10:52.34	24.67	29.88	-26.1	-27.6	16.0	3.13e-03	0	42	0	603979776	12	4297
2026-01-01 00:10:53.34	24.73	30.07	-26.0	-27.5	16.1	0.00e+00	0	42	0	607125504	12	4270
2026-01-01 00:10:54.34	24.78	30.26	-26.1	-27.6	16.0	2.59e-03	0	43	0	610271232	12	4293
2026-01-01 00:10:55.35	24.84	30.45	-26.1	-27.7	16.0	2.53e-03	0	43	0	613416960	12	4313
2026-01-01 00:10:56.35	24.90	30.64	-26.2	-27.9	15.9	0.00e+00	0	43	0	616562688	12	4361
2026-01-01 00:10:57.35	24.95	30.83	-26.2	-27.9	15.8	2.67e-03	0	43	0	619708416	12	4386
2026-01-01 00:10:58.35	25.01	31.03	-26.3	-28.1	15.7	0.00e+00	0	43	0	622854144	12	4435
2026-01-01 00:10:59.36	25.07	31.22	-26.4	-28.3	15.6	0.00e+00	0	42	0	625999872	12	4496
2026-01-01 00:11:00.36	25.13	31.42	-26.4	-28.3	15.6	2.90e-03	0	43	0	629145600	12	4478
2026-01-01 00:11:01.37	25.19	31.62	-26.5	-28.5	15.5	3.07e-03	0	43	0	632291328	12	4557
2026-01-01 00:11:02.37	25.25	31.82	-26.7	-28.5	15.3	0.00e+00	0	43	0	635437056	13	4426
2026-01-01 00:11:03.38	25.31	32.02	-26.6	-28.4	15.3	0.00e+00	0	43	0	638582784	13	4402
2026-01-01 00:11:04.39	25.37	32.22	-26.7	-28.5	15.2	3.11e-03	0	43	0	641728512	13	4448
2026-01-01 00:11:05.39	25.44	32.43	-26.8	-28.7	15.1	2.74e-05	0	43	0	644874240	13	4498
2026-01-01 00:11:06.39	25.50	32.63	-26.8	-28.8	15.1	2.83e-03	0	43	0	648019968	13	4533
2026-01-01 00:11:07.39	25.56	32.84	-26.9	-29.0	15.0	2.72e-03	0	43	0	651165696	13	4580
2026-01-01 00:11:08.39	25.63	33.04	-26.9	-28.9	15.0	3.28e-05	0	43	0	654311424	13	4545
2026-01-01 00:11:09.40	25.69	33.25	-26.9	-28.9	15.0	0.00e+00	0	43	0	657457152	13	4556
2026-01-01 00:11:10.40	25.76	33.46	-26.8	-28.7	15.2	2.28e-03	0	43	0	660602880	13	4493
2026-01-01 00:11:11.40	25.83	33.68	-26.9	-28.9	15.1	0.00e+00	0	43	0	663748608	13	4539
2026-01-01 00:11:12.39	25.89	33.89	-26.9	-29.1	15.0	1.83e-03	0	43	0	666894336	13	4596
2026-01-01 00:11:13.40	25.96	34.10	-27.1	-28.9	14.8	1.69e-03	0	42	0	670040064	14	4430
2026-01-01 00:11:14.40	26.03	34.32	-27.2	-29.2	14.6	7.00e-07	0	43	0	673185792	14	4529
2026-01-01 00:11:15.40	26.10	34.54	-27.3	-29.5	14.5	1.23e-03	0	43	0	676331520	14	4617
2026-01-01 00:11:16.40	26.18	34.75	-27.6	-29.5	14.2	1.10e-03	0	43	0	679477248	15	4495
2026-01-01 00:11:17.40	26.25	34.97	-27.4	-29.2	14.4	1.50e-06	0	43	0	682622976	15	4404
2026-01-01 00:11:18.40	26.32	35.20	-27.4	-29.5	14.5	7.39e-04	0	43	0	685768704	14	4623
2026-01-01 00:11:19.40	26.40	35.42	-27.4	-29.7	14.4	3.00e-06	0	43	0	688914432	14	4670
2026-01-01 00:11:20.41	26.47	35.65	-27.6	-29.7	14.1	0.00e+00	0	43	0	692060160	15	4558
2026-01-01 00:11:21.41	26.55	35.87	-27.7	-29.7	14.0	4.12e-04	0	42	0	695205888	15	4577
2026-01-01 00:11:22.41	26.63	36.10	-28.0	-30.5	13.6	3.59e-04	0	43	0	698351616	15	4813
2026-01-01 00:11:23.41	26.70	36.33	-28.3	-30.8	13.4	1.52e-05	0	42	0	701497344	16	4766
2026-01-01 00:11:24.42	26.78	36.56	-28.6	-31.1	12.9	4.04e-05	0	43	0	704643072	17	4760
2026-01-01 00:11:25.42	26.86	36.79	-28.8	-31.4	12.7	7.93e-05	0	43	0	707788800	17	4860
2026-01-01 00:11:26.43	26.95	37.03	-28.9	-31.8	12.4	1.52e-04	0	42	0	710934528	17	5004
2026-01-01 00:11:27.43	27.03	37.27	-29.0	-32.0	12.3	3.47e-04	0	43	0	714080256	17	5062
2026-01-01 00:11:28.43	27.11	37.50	-29.1	-31.7	12.2	2.10e-04	0	43	0	717225984	18	4862
2026-01-01 00:11:29.43	27.20	37.74	-29.1	-31.7	12.2	2.88e-04	0	43	0	720371712	18	4845
2026-01-01 00:11:30.44	27.29	37.99	-28.9	-31.1	12.5	1.24e-04	0	42	0	723517440	18	4674
2026-01-01 00:11:31.44	27.37	38.23	-28.7	-30.6	12.8	5.34e-05	0	43	0	726663168	18	4509
2026-01-01 00:11:32.44	27.46	38.47	-28.6	-30.4	13.0	5.49e-05	0	43	0	729808896	18	4448
2026-01-01 00:11:33.44	27.55	38.72	-28.4	-30.0	13.2	2.28e-05	0	43	0	732954624	18	4331
2026-01-01 00:11:34.45	27.64	38.97	-28.4	-30.5	13.3	1.75e-05	0	43	0	736100352	17	4563
2026-01-01 00:11:35.46	27.74	39.22	-28.5	-30.7	13.1	3.12e-05	0	43	0	739246080	17	4653
2026-01-01 00:11:36.47	27.83	39.47	-28.5	-30.6	13.2	2.44e-05	0	43	0	742391808	17	4615
2026-01-01 00:11:37.47	27.93	39.73	-28.5	-30.8	13.1	3.66e-05	0	43	0	745537536	17	4661
2026-01-01 00:11:38.47	28.02	39.98	-28.4	-30.4	13.3	1.67e-05	0	43	0	748683264	17	4536
2026-01-01 00:11:39.48	28.12	40.24	-28.4	-30.5	13.3	1.22e-05	0	43	0	751828992	17	4580
2026-01-01 00:11:40.48	28.22	40.50	-28.3	-30.2	13.4	2.28e-05	0	43	0	754974720	17	4484
2026-01-01 00:11:41.49	28.33	40.76	-28.2	-30.0	13.5	1.29e-05	0	43	0	758120448	17	4428
2026-01-01 00:11:42.49	28.43	41.02	-28.3	-30.1	13.5	6.10e-06	0	43	0	761266176	17	4427
2026-01-01 00:11:43.49	28.53	41.29	-28.4	-30.4	13.4	1.29e-05	0	43	0	764411904	17	4523
2026-01-01 00:11:44.49	28.64	41.55	-28.5	-30.6	13.3	1.60e-05	0	43	0	767557632	17	4595
2026-01-01 00:11:45.49	28.75	41.82	-28.4	-30.5	13.3	3.58e-05	0	43	0	770703360	17	4577
2026-01-01 00:11:46.49	28.86	42.09	-28.5	-30.6	13.2	2.74e-05	0	43	0	773849088	17	4600
2026-01-01 00:11:47.50	28.97	42.36	-28.8	-31.4	12.8	3.96e-05	0	43	0	776994816	17	4840
2026-01-01 00:11:48.49	29.08	42.63	-28.7	-31.1	12.9	6.33e-05	0	43	0	780140544	17	4741
2026-01-01 00:11:49.48	29.20	42.90	-28.2	-30.5	13.6	1.29e-05	0	43	0	783286272	16	4667
2026-01-01 00:11:50.49	29.32	43.18	-28.1	-30.1	13.8	3.80e-06	0	43	0	786432000	16	4548
2026-01-01 00:11:51.49	29.43	43.46	-28.1	-30.3	13.7	3.80e-06	0	43	0	789577728	16	4595
2026-01-01 00:11:52.49	29.56	43.74	-28.3	-30.7	13.6	1.44e-05	0	43	0	792723456	16	4723
2026-01-01 00:11:53.49	29.68	44.02	-28.3	-30.8	13.5	5.30e-06	0	43	0	795869184	16	4758
2026-01-01 00:11:54.49	29.80	44.31	-28.3	-30.8	13.5	1.44e-05	0	43	0	799014912	16	4759
2026-01-01 00:11:55.50	29.93	44.60	-28.4	-31.0	13.3	1.29e-05	0	43	0	802160640	16	4849
2026-01-01 00:11:56.50	30.06	44.89	-28.3	-30.7	13.5	1.29e-05	0	43	0	805306368	16	4738
2026-01-01 00:11:57.50	30.20	45.18	-28.3	-30.7	13.5	1.52e-05	0	43	0	808452096	16	4735
2026-01-01 00:11:58.51	30.33	45.47	-28.3	-30.5	13.6	8.30e-06	0	43	0	811597824	16	4672
2026-01-01 00:11:59.51	30.47	45.76	-28.2	-30.3	13.8	4.50e-06	0	43	0	814743552	16	4590
2026-01-01 00:12:00.52	30.61	46.06	-28.1	-30.1	13.9	3.00e-06	0	43	0	817889280	16	4538
2026-01-01 00:12:01.52	30.75	46.36	-27.8	-29.9	14.1	3.00e-06	0	43	0	821035008	15	4600
2026-01-01 00:12:02.52	30.90	46.66	-27.8	-30.0	14.1	1.50e-06	0	43	0	824180736	15	4628
2026-01-01 00:12:03.53	31.05	46.97	-28.2	-30.4	13.7	3.00e-06	0	43	0	827326464	16	4618
2026-01-01 00:12:04.53	31.20	47.27	-28.1	-30.2	13.8	3.00e-06	0	43	0	830472192	16	4557
2026-01-01 00:12:05.53	31.35	47.58	-28.0	-29.9	14.0	5.30e-06	0	43	0	832569344	16	4492
2026-01-01 00:12:06.53	31.51	47.89	-28.0	-29.9	14.0	5.30e-06	0	43	0	835715072	16	4477
2026-01-01 00:12:07.53	31.66	48.20	-27.7	-29.8	14.2	2.21e-05	0	43	0	838860800	15	4576
2026-01-01 00:12:08.53	31.83	48.51	-27.6	-29.6	14.4	1.75e-05	0	43	0	843055104	15	4503
2026-01-01 00:12:09.54	31.99	48.83	-27.6	-29.5	14.3	0.00e+00	0	43	0	846200832	15	4483
2026-01-01 00:12:10.55	32.16	49.15	-27.6	-29.4	14.4	1.60e-04	0	43	0	849346560	15	4471
2026-01-01 00:12:11.55	32.34	49.46	-27.5	-29.3	14.5	7.00e-07	0	43	0	852492288	15	4422
2026-01-01 00:12:12.56	32.52	49.79	-27.5	-29.7	14.5	2.20e-06	0	43	0	855638016	14	4669
2026-01-01 00:12:13.56	32.70	50.11	-27.7	-29.7	14.3	1.93e-04	0	43	0	857735168	15	4542
2026-01-01 00:12:14.56	32.88	50.43	-27.9	-30.2	14.0	2.30e-04	0	43	0	860880896	15	4719
2026-01-01 00:12:15.56	33.07	50.76	-28.3	-30.8	13.5	8.30e-06	0	43	0	864026624	16	4771
2026-01-01 00:12:16.56	33.26	51.09	-28.6	-30.8	13.2	2.51e-05	0	43	0	867172352	17	4671
2026-01-01 00:12:17.56	33.45	51.42	-28.5	-30.8	13.2	2.28e-05	0	43	0	870318080	17	4651
2026-01-01 00:12:18.56	33.65	51.75	-28.4	-30.5	13.4	1.29e-05	0	43	0	873463808	17	4567
2026-01-01 00:12:19.56	33.86	52.09	-28.4	-30.4	13.5	1.14e-04	0	43	0	876609536	17	4533
2026-01-01 00:12:20.57	34.07	52.43	-28.5	-30.8	13.3	9.76e-05	0	43	0	879755264	17	4649
2026-01-01 00:12:21.57	34.28	52.76	-28.4	-30.4	13.5	9.90e-06	0	43	0	882900992	17	4524
2026-01-01 00:12:22.57	34.50	53.10	-27.9	-29.6	14.2	7.00e-07	0	43	0	886046720	16	4406
2026-01-01 00:12:23.57	34.73	53.45	-27.7	-29.1	14.5	9.00e-05	0	43	0	889192448	16	4266
2026-01-01 00:12:24.58	34.96	53.79	-27.4	-29.0	14.7	0.00e+00	0	43	0	892338176	15	4345
2026-01-01 00:12:25.58	35.19	54.14	-27.0	-28.6	15.1	0.00e+00	0	43	0	895483904	14	4347
2026-01-01 00:12:26.58	35.43	54.49	-26.8	-28.2	15.4	0.00e+00	0	43	0	898629632	14	4239
2026-01-01 00:12:27.59	35.68	54.84	-26.7	-28.3	15.6	0.00e+00	0	43	0	901775360	13	4373
2026-01-01 00:12:28.59	35.93	55.19	-26.6	-28.1	15.7	0.00e+00	0	43	0	904921088	13	4318
2026-01-01 00:12:29.60	36.19	55.55	-26.5	-28.1	15.8	0.00e+00	0	43	0	908066816	13	4308
2026-01-01 00:12:30.60	36.46	55.90	-26.5	-28.1	15.7	0.00e+00	0	43	0	911212544	13	4306
2026-01-01 00:12:31.61	36.73	56.26	-26.6	-28.2	15.7	0.00e+00	0	43	0	914358272	13	4343
2026-01-01 00:12:32.61	37.01	56.62	-26.6	-28.2	15.8	0.00e+00	0	43	0	917504000	13	4327
2026-01-01 00:12:33.61	37.30	56.98	-26.4	-27.8	15.9	0.00e+00	0	43	0	920649728	13	4229
2026-01-01 00:12:34.61	37.59	57.34	-26.3	-28.0	16.0	0.00e+00	0	43	0	923795456	12	4397
2026-01-01 00:12:35.61	37.89	57.71	-26.2	-27.8	16.1	0.00e+00	0	43	0	926941184	12	4335
2026-01-01 00:12:36.61	38.20	58.07	-26.2	-27.8	16.2	0.00e+00	0	43	0	930086912	12	4339
2026-01-01 00:12:37.61	38.52	58.44	-25.9	-27.2	16.5	0.00e+00	0	43	0	933232640	12	4176
2026-01-01 00:12:38.61	38.85	58.81	-25.7	-26.8	16.8	0.00e+00	0	43	0	936378368	12	4066
2026-01-01 00:12:39.62	39.19	59.18	-26.0	-27.8	16.6	0.00e+00	0	43	0	939524096	11	4433
2026-01-01 00:12:40.62	39.53	59.55	-26.1	-27.6	16.3	0.00e+00	0	43	0	942669824	12	4285
2026-01-01 00:12:41.63	39.89	59.93	-26.4	-28.2	16.0	0.00e+00	0	43	0	945815552	12	4453
2026-01-01 00:12:42.63	40.26	60.30	-26.1	-27.1	16.3	0.00e+00	0	43	0	948961280	13	4044
2026-01-01 00:12:43.63	40.64	60.67	-25.9	-27.1	16.6	0.00e+00	0	43	0	952107008	12	4154
2026-01-01 00:12:44.62	41.02	61.05	-25.7	-26.6	16.9	0.00e+00	0	43	0	955252736	12	4018
2026-01-01 00:12:45.62	41.42	61.42	-25.6	-26.9	17.1	0.00e+00	0	43	0	958398464	11	4198
2026-01-01 00:12:46.62	41.83	61.80	-25.5	-26.7	17.2	0.00e+00	0	43	0	961544192	11	4143
2026-01-01 00:12:47.62	42.26	62.18	-25.5	-26.7	17.2	0.00e+00	0	43	0	964689920	11	4150
2026-01-01 00:12:48.61	42.69	62.55	-25.3	-26.2	17.4	0.00e+00	0	43	0	967835648	11	4013
2026-01-01 00:12:49.61	43.14	62.93	-24.9	-26.0	17.8	1.50e-06	0	43	0	970981376	10	4065
2026-01-01 00:12:50.61	43.61	63.31	-24.7	-25.6	18.0	0.00e+00	0	43	0	974127104	10	3967
2026-01-01 00:12:51.62	44.09	63.70	-24.7	-26.1	18.0	0.00e+00	0	43	0	977272832	9	4202
2026-01-01 00:12:52.61	44.58	64.07	-25.0	-26.7	17.8	4.50e-06	0	43	0	980418560	9	4359
2026-01-01 00:12:53.61	45.10	64.46	-25.2	-26.7	17.5	0.00e+00	0	43	0	983564288	10	4251
2026-01-01 00:12:54.61	45.63	64.84	-25.3	-26.8	17.4	0.00e+00	0	43	0	986710016	10	4287
2026-01-01 00:12:55.62	46.18	65.22	-25.3	-26.7	17.4	8.30e-06	0	43	0	989855744	10	4265
2026-01-01 00:12:56.62	46.75	65.60	-25.4	-27.0	17.3	0.00e+00	0	43	0	993001472	10	4333
2026-01-01 00:12:57.62	47.34	65.98	-25.3	-26.8	17.4	0.00e+00	0	43	0	996147200	10	4284
2026-01-01 00:12:58.63	47.95	66.37	-25.1	-26.3	17.7	5.30e-06	0	43	0	999292928	10	4151
2026-01-01 00:12:59.64	48.59	66.75	-25.3	-26.7	17.5	0.00e+00	0	43	0	1002438656	10	4256
2026-01-01 00:13:00.64	49.24	67.13	-25.2	-26.5	17.6	0.00e+00	0	43	0	1005584384	10	4195
2026-01-01 00:13:01.65	49.93	67.51	-25.3	-26.8	17.5	0.00e+00	0	43	0	1008730112	10	4270
2026-01-01 00:13:02.65	50.63	67.89	-25.0	-26.2	17.8	3.62e-03	0	43	0	1011875840	10	4123
2026-01-01 00:13:03.66	51.37	68.27	-24.9	-25.8	17.9	0.00e+00	0	43	0	1015021568	10	4030
2026-01-01 00:13:04.66	52.12	68.64	-24.7	-25.5	18.1	0.00e+00	0	43	0	1018167296	10	3949
2026-01-01 00:13:05.66	52.91	69.01	-24.9	-26.4	17.9	0.00e+00	0	43	0	1021313024	9	4301
2026-01-01 00:13:06.66	53.72	69.38	-25.0	-26.2	17.8	0.00e+00	0	43	0	1024458752	10	4130
2026-01-01 00:13:07.67	54.58	69.75	-25.2	-26.5	17.6	1.36e-04	0	43	0	1027604480	10	4206
2026-01-01 00:13:08.67	55.46	70.11	-25.1	-26.3	17.7	0.00e+00	0	43	0	1030750208	10	4144
2026-01-01 00:13:09.67	56.38	70.47	-25.0	-26.2	17.8	0.00e+00	0	43	0	1033895936	10	4115
2026-01-01 00:13:10.66	57.32	70.83	-24.9	-25.9	17.9	0.00e+00	0	43	0	1037041664	10	4050
2026-01-01 00:13:11.66	58.31	71.18	-24.6	-25.9	18.1	0.00e+00	0	43	0	1040187392	9	4155
2026-01-01 00:13:12.67	59.35	71.53	-24.6	-25.7	18.1	3.35e-03	0	43	0	1043333120	9	4114
2026-01-01 00:13:13.67	60.42	71.88	-24.5	-25.6	18.3	5.00e-04	0	43	0	1046478848	9	4079
2026-01-01 00:13:14.68	61.55	72.22	-24.7	-26.0	18.1	0.00e+00	0	43	0	1049624576	9	4189
2026-01-01 00:13:15.68	62.71	72.55	-24.7	-26.0	18.1	0.00e+00	0	43	0	1052770304	9	4178
2026-01-01 00:13:16.68	63.92	72.88	-25.0	-26.6	17.8	0.00e+00	0	43	0	1055916032	9	4339
2026-01-01 00:13:17.68	65.18	73.20	-25.1	-26.4	17.7	3.77e-03	0	43	0	1059061760	10	4175
2026-01-01 00:13:18.68	66.49	73.51	-25.2	-26.7	17.6	3.74e-03	0	43	0	1061158912	10	4250
2026-01-01 00:13:19.68	67.85	73.82	-25.2	-26.6	17.6	1.50e-06	0	43	0	1064304640	10	4236
2026-01-01 00:13:20.68	69.26	74.12	-25.3	-26.7	17.5	0.00e+00	0	43	0	1068498944	10	4246
2026-01-01 00:13:21.69	70.75	74.41	-25.4	-27.0	17.4	3.28e-03	0	43	0	1071644672	10	4322
2026-01-01 00:13:22.69	72.28	74.69	-25.1	-26.3	17.7	0.00e+00	0	43	0	1074790400	10	4153
2026-01-01 00:13:23.69	73.86	74.96	-25.1	-26.4	17.7	1.73e-03	0	43	0	1077936128	10	4179
2026-01-01 00:13:24.70	75.52	75.22	-25.1	-26.4	17.7	8.93e-04	0	43	0	1081081856	10	4161
2026-01-01 00:13:25.70	77.22	75.46	-25.1	-26.3	17.8	0.00e+00	0	43	0	1084227584	10	4144
2026-01-01 00:13:26.70	78.99	75.70	-25.6	-26.9	17.2	3.48e-03	0	43	0	1086324736	11	4186
2026-01-01 00:13:27.70	80.81	75.92	-25.7	-27.1	17.1	3.65e-03	0	43	0	1089470464	11	4248
2026-01-01 00:13:28.70	82.69	76.12	-25.7	-27.2	17.0	2.13e-05	0	43	0	1092616192	11	4267
2026-01-01 00:13:29.71	84.64	76.32	-26.1	-27.5	16.6	2.13e-03	0	43	0	1095761920	12	4239
2026-01-01 00:13:30.72	86.66	76.50	-26.2	-27.7	16.4	6.96e-04	0	43	0	1098907648	12	4318
2026-01-01 00:13:31.72	88.70	76.66	-26.5	-28.5	16.1	0.00e+00	0	43	0	1102053376	12	4530
2026-01-01 00:13:32.72	90.79	76.80	-26.5	-28.0	16.0	8.93e-04	0	43	0	1105199104	13	4280
2026-01-01 00:13:33.72	92.93	76.93	-26.5	-28.0	16.0	9.05e-04	0	43	0	1108344832	13	4278
2026-01-01 00:13:34.72	95.11	77.04	-26.4	-27.7	16.2	0.00e+00	0	43	0	1111490560	13	4200
2026-01-01 00:13:35.72	97.32	77.13	-26.2	-27.4	16.3	9.83e-04	0	43	0	1114636288	13	4096
2026-01-01 00:13:36.72	99.56	77.20	-26.2	-27.2	16.4	3.71e-04	0	43	0	1117782016	13	4061
2026-01-01 00:13:37.72	101.83	77.25	-26.6	-28.1	16.0	0.00e+00	0	43	0	1120927744	13	4289
2026-01-01 00:13:38.73	104.13	77.29	-26.8	-28.6	15.7	2.86e-03	0	43	0	1124073472	13	4449
2026-01-01 00:13:39.72	106.39	77.30	-26.3	-28.1	16.3	3.00e-03	0	43	0	1127219200	12	4394
2026-01-01 00:13:40.73	108.71	77.29	-26.0	-27.4	16.6	0.00e+00	0	43	0	1130364928	12	4225
2026-01-01 00:13:41.73	110.99	77.27	-25.7	-26.7	17.0	0.00e+00	0	43	0	1133510656	12	4035
2026-01-01 00:13:42.72	113.24	77.22	-25.4	-26.5	17.4	7.46e-04	0	43	0	1136656384	11	4097
2026-01-01 00:13:43.72	115.49	77.16	-25.1	-25.9	17.7	0.00e+00	0	43	0	1139802112	11	3940
2026-01-01 00:13:44.72	117.72	77.08	-25.0	-25.7	17.8	1.49e-04	0	43	0	1142947840	11	3893
2026-01-01 00:13:45.72	119.91	76.98	-24.9	-25.3	18.0	6.10e-06	0	43	0	1146093568	11	3794
2026-01-01 00:13:46.72	122.07	76.86	-25.0	-25.6	17.8	0.00e+00	0	43	0	1149239296	11	3863
2026-01-01 00:13:47.73	124.20	76.72	-25.0	-25.7	17.7	6.10e-06	0	43	0	1152385024	11	3882
2026-01-01 00:13:48.74	126.28	76.56	-25.5	-26.9	17.1	2.10e-04	0	43	0	1155530752	11	4189
2026-01-01 00:13:49.74	128.30	76.39	-25.5	-26.7	17.3	0.00e+00	0	43	0	1158676480	11	4139
2026-01-01 00:13:50.74	130.26	76.20	-25.5	-26.8	17.2	0.00e+00	0	43	0	1161822208	11	4175
2026-01-01 00:13:51.75	132.18	76.00	-25.8	-27.5	16.8	0.00e+00	0	43	0	1164967936	11	4352
2026-01-01 00:13:52.75	134.03	75.78	-26.0	-27.3	16.6	0.00e+00	0	43	0	1168113664	12	4208
2026-01-01 00:13:53.75	135.81	75.55	-25.6	-26.4	17.0	0.00e+00	0	43	0	1171259392	12	3949
2026-01-01 00:13:54.76	137.56	75.31	-25.7	-27.2	17.0	5.71e-04	0	43	0	1174405120	11	4267
2026-01-01 00:13:55.76	139.22	75.06	-25.5	-26.7	17.3	0.00e+00	0	43	0	1177550848	11	4139
2026-01-01 00:13:56.76	140.83	74.79	-25.4	-26.6	17.4	0.00e+00	0	43	0	1180696576	11	4114
2026-01-01 00:13:57.77	142.40	74.51	-25.9	-27.5	16.8	0.00e+00	0	43	0	1183842304	11	4357
2026-01-01 00:13:58.77	143.89	74.23	-26.2	-27.8	16.3	3.28e-05	0	43	0	1186988032	12	4335
2026-01-01 00:13:59.78	145.34	73.93	-26.2	-27.8	16.3	7.25e-04	0	43	0	1190133760	12	4339
2026-01-01 00:14:00.78	146.73	73.63	-26.2	-27.7	16.5	0.00e+00	0	43	0	1193279488	12	4291
2026-01-01 00:14:01.79	148.07	73.31	-27.0	-28.7	15.4	0.00e+00	0	43	0	1196425216	14	4348
2026-01-01 00:14:02.79	149.35	72.99	-26.9	-28.3	15.5	0.00e+00	0	43	0	1199570944	14	4254
2026-01-01 00:14:03.79	150.57	72.67	-26.5	-28.0	16.0	0.00e+00	0	43	0	1202716672	13	4283
2026-01-01 00:14:04.79	151.75	72.34	-26.0	-26.8	16.6	4.50e-06	0	43	0	1205862400	13	3961
2026-01-01 00:14:05.80	152.90	72.00	-25.7	-26.7	17.0	0.00e+00	0	43	0	1209008128	12	4038
2026-01-01 00:14:06.81	154.00	71.65	-25.1	-25.9	17.6	0.00e+00	0	43	0	1212153856	11	3940
2026-01-01 00:14:07.82	155.05	71.30	-25.3	-26.3	17.4	1.22e-05	0	43	0	1215299584	11	4044
2026-01-01 00:14:08.82	156.06	70.95	-25.6	-27.0	17.1	0.00e+00	0	43	0	1218445312	11	4224
2026-01-01 00:14:09.83	157.04	70.59	-26.2	-27.7	16.4	4.74e-04	0	43	0	1221591040	12	4305
2026-01-01 00:14:10.83	157.97	70.23	-25.6	-26.5	17.0	5.42e-04	0	43	0	1224736768	12	4003
2026-01-01 00:14:11.83	158.86	69.87	-25.3	-26.4	17.4	0.00e+00	0	43	0	1227882496	11	4061
2026-01-01 00:14:12.84	159.73	69.50	-25.3	-26.8	17.3	5.84e-04	0	43	0	1231028224	10	4273
2026-01-01 00:14:13.84	160.55	69.13	-25.2	-26.6	17.5	5.23e-04	0	43	0	1234173952	10	4221
2026-01-01 00:14:14.84	161.35	68.76	-25.7	-27.1	17.1	0.00e+00	0	43	0	1237319680	11	4251
2026-01-01 00:14:15.84	162.12	68.38	-25.4	-26.5	17.4	3.89e-04	0	43	0	1240465408	11	4087
2026-01-01 00:14:16.85	162.86	68.00	-25.9	-27.5	16.9	0.00e+00	0	43	0	1243611136	11	4352
2026-01-01 00:14:17.85	163.58	67.63	-25.6	-26.9	17.1	0.00e+00	0	43	0	1246756864	11	4193
2026-01-01 00:14:18.85	164.26	67.25	-25.5	-26.8	17.2	1.52e-05	0	43	0	1249902592	11	4163
2026-01-01 00:14:19.86	164.93	66.87	-25.3	-26.4	17.4	0.00e+00	0	43	0	1253048320	11	4073
2026-01-01 00:14:20.86	165.57	66.49	-25.0	-25.7	17.8	0.00e+00	0	43	0	1256194048	11	3898
2026-01-01 00:14:21.87	166.19	66.10	-25.3	-26.2	17.5	0.00e+00	0	43	0	1259339776	11	4021
2026-01-01 00:14:22.88	166.79	65.72	-25.5	-26.8	17.1	0.00e+00	0	43	0	1262485504	11	4175
2026-01-01 00:14:23.88	167.37	65.33	-25.9	-27.1	16.7	0.00e+00	0	43	0	1265631232	12	4141
2026-01-01 00:14:24.89	167.93	64.95	-25.2	-26.1	17.6	0.00e+00	0	43	0	1268776960	11	3980
2026-01-01 00:14:25.89	168.47	64.56	-25.2	-26.1	17.6	0.00e+00	0	43	0	1271922688	11	3981
2026-01-01 00:14:26.90	168.99	64.18	-25.3	-26.2	17.5	0.00e+00	0	43	0	1275068416	11	4033
2026-01-01 00:14:27.90	169.49	63.80	-24.9	-25.4	17.9	0.00e+00	0	43	0	1278214144	11	3830
2026-01-01 00:14:28.91	169.98	63.41	-25.0	-25.7	17.8	0.00e+00	0	43	0	1281359872	11	3888
2026-01-01 00:14:29.91	170.46	63.03	-25.4	-26.5	17.3	0.00e+00	0	43	0	1284505600	11	4090
2026-01-01 00:14:30.91	170.91	62.65	-25.9	-27.6	16.8	7.00e-07	0	43	0	1287651328	11	4375
2026-01-01 00:14:31.91	171.35	62.27	-25.7	-27.2	16.9	0.00e+00	0	43	0	1290797056	11	4267
2026-01-01 00:14:32.91	171.78	61.89	-25.4	-26.6	17.3	0.00e+00	0	43	0	1293942784	11	4109
2026-01-01 00:14:33.92	172.20	61.51	-25.7	-27.2	17.0	0.00e+00	0	43	0	1297088512	11	4271
2026-01-01 00:14:34.92	172.60	61.13	-25.4	-26.6	17.3	0.00e+00	0	43	0	1300234240	11	4117
2026-01-01 00:14:35.92	173.00	60.75	-25.1	-26.0	17.6	0.00e+00	0	43	0	1303379968	11	3958
2026-01-01 00:14:36.92	173.38	60.38	-25.3	-26.3	17.4	0.00e+00	0	43	0	1306525696	11	4029
2026-01-01 00:14:37.93	173.75	60.00	-25.8	-27.4	16.8	0.00e+00	0	43	0	1309671424	11	4336
2026-01-01 00:14:38.94	174.11	59.62	-26.6	-28.2	15.7	0.00e+00	0	43	0	1312817152	13	4339
2026-01-01 00:14:39.94	174.46	59.25	-26.4	-27.8	16.0	0.00e+00	0	43	0	1315962880	13	4206
2026-01-01 00:14:40.94	174.80	58.88	-25.7	-26.8	16.7	0.00e+00	0	43	0	1319108608	12	4048
2026-01-01 00:14:41.94	175.13	58.51	-25.4	-26.5	17.3	0.00e+00	0	43	0	1322254336	11	4087
2026-01-01 00:14:42.95	175.45	58.14	-25.1	-26.0	17.5	0.00e+00	0	43	0	1325400064	11	3954
2026-01-01 00:14:43.95	175.76	57.77	-25.4	-26.5	17.2	0.00e+00	0	43	0	1328545792	11	4086
2026-01-01 00:14:44.95	176.07	57.40	-26.3	-28.1	16.1	0.00e+00	0	43	0	1331691520	12	4404
2026-01-01 00:14:45.95	176.36	57.04	-27.1	-28.9	15.2	0.00e+00	0	43	0	1334837248	14	4413
2026-01-01 00:14:46.95	176.65	56.68	-27.6	-29.4	14.6	0.00e+00	0	43	0	1337982976	15	4461
2026-01-01 00:14:47.95	176.93	56.32	-27.7	-29.7	14.4	0.00e+00	0	43	0	1341128704	15	4543
2026-01-01 00:14:48.95	177.21	55.96	-27.5	-29.3	14.5	7.00e-07	0	43	0	1344274432	15	4425
2026-01-01 00:14:49.94	177.47	55.61	-27.5	-29.3	14.4	0.00e+00	0	43	0	1347420160	15	4427
2026-01-01 00:14:50.94	177.73	55.25	-26.9	-27.8	15.3	0.00e+00	0	43	0	1350565888	15	4016
2026-01-01 00:14:51.94	177.98	54.90	-26.0	-27.0	16.3	0.00e+00	0	43	0	1353711616	13	3997
2026-01-01 00:14:52.95	178.23	54.54	-25.9	-26.5	16.6	0.00e+00	0	43	0	1356857344	13	3897
2026-01-01 00:14:53.95	178.48	54.20	-26.3	-28.1	16.0	0.00e+00	0	43	0	1360003072	12	4408
2026-01-01 00:14:54.96	178.72	53.84	-26.8	-28.6	15.3	0.00e+00	0	43	0	1362100224	13	4464
2026-01-01 00:14:55.96	178.95	53.50	-27.3	-29.3	14.6	0.00e+00	0	43	0	1365245952	14	4539
2026-01-01 00:14:56.97	179.17	53.15	-27.4	-29.6	14.5	0.00e+00	0	43	0	1368391680	14	4638
2026-01-01 00:14:57.98	179.40	52.81	-27.7	-29.6	14.4	7.00e-07	0	43	0	1371537408	15	4523
2026-01-01 00:14:58.98	179.61	52.47	-27.9	-30.3	14.0	7.00e-07	0	43	0	1374683136	15	4732
2026-01-01 00:14:59.98	179.82	52.13	-28.1	-30.2	13.9	7.00e-07	0	43	0	1377828864	16	4574
2026-01-01 00:15:00.98	180.03	51.79	-28.4	-30.8	13.6	9.10e-06	0	43	0	1382023168	16	4749
2026-01-01 00:15:01.98	180.23	51.46	-28.2	-30.4	13.8	3.80e-06	0	43	0	1384120320	16	4632
2026-01-01 00:15:02.98	180.43	51.13	-27.6	-29.4	13.3	0.00e+00	0	43	0	1387266048	15	4449
2026-01-01 00:15:03.99	180.62	50.79	-27.3	-28.8	14.9	0.00e+00	0	43	0	1390411776	15	4286
2026-01-01 00:15:04.99	180.81	50.46	-27.8	-30.0	14.1	7.00e-07	0	43	0	1393557504	15	4630
2026-01-01 00:15:05.99	180.99	50.14	-27.8	-30.0	14.0	1.50e-06	0	43	0	1396703232	15	4630
2026-01-01 00:15:06.99	181.17	49.81	-28.5	-31.0	13.3	9.10e-06	0	43	0	1399848960	16	4820
2026-01-01 00:15:08.00	181.35	49.49	-28.8	-31.4	12.9	4.11e-05	0	43	0	1402994688	17	4832
2026-01-01 00:15:09.01	181.53	49.17	-29.0	-31.3	12.7	3.24e-03	0	43	0	1406140416	18	4697
2026-01-01 00:15:10.01	181.70	48.85	-28.9	-31.5	12.8	8.92e-05	0	43	0	1409286144	17	4860
2026-01-01 00:15:11.01	181.86	48.53	-28.8	-31.2	13.0	3.66e-05	0	43	0	1412431872	17	4768
2026-01-01 00:15:12.02	182.03	48.22	-28.6	-30.8	13.2	1.67e-05	0	43	0	1415577600	17	4634
2026-01-01 00:15:13.03	182.19	47.90	-28.7	-31.1	13.1	3.35e-05	0	43	0	1418723328	17	4741
2026-01-01 00:15:14.03	182.35	47.59	-28.9	-31.6	12.8	2.62e-03	0	43	0	1421869056	17	4904
2026-01-01 00:15:15.03	182.50	47.28	-28.7	-31.1	13.1	4.57e-05	0	43	0	1425014784	17	4732
2026-01-01 00:15:16.03	182.65	46.98	-28.3	-30.0	13.7	1.29e-05	0	43	0	1428160512	17	4417
2026-01-01 00:15:17.04	182.80	46.67	-28.0	-29.9	14.1	7.00e-07	0	43	0	1431306240	16	4495
2026-01-01 00:15:18.04	182.95	46.37	-27.7	-29.7	14.3	0.00e+00	0	43	0	1434451968	15	4530
2026-01-01 00:15:19.04	183.09	46.07	-28.0	-30.4	13.9	2.65e-04	0	43	0	1437597696	15	4753
2026-01-01 00:15:20.05	183.23	45.77	-28.5	-30.7	13.3	2.36e-03	0	43	0	1440743424	17	4625
2026-01-01 00:15:21.05	183.37	45.47	-29.1	-31.7	12.4	2.59e-03	0	43	0	1443889152	18	4848
2026-01-01 00:15:22.05	183.50	45.18	-29.5	-32.6	11.8	2.41e-04	0	43	0	1447034880	18	5146
2026-01-01 00:15:23.05	183.64	44.89	-29.6	-32.3	11.6	5.30e-04	0	43	0	1450180608	19	4943
2026-01-01 00:15:24.05	183.77	44.60	-29.9	-33.3	10.9	4.51e-03	0	43	0	1453326336	19	5335
2026-01-01 00:15:25.05	183.90	44.31	-29.7	-32.8	11.2	1.78e-03	0	43	0	1456472064	19	5126
2026-01-01 00:15:26.06	184.02	44.02	-29.6	-32.5	11.5	3.49e-03	0	43	0	1459617792	19	5001
2026-01-01 00:15:27.06	184.15	43.74	-29.2	-32.0	12.2	3.72e-04	0	43	0	1462763520	18	4931
2026-01-01 00:15:28.06	184.27	43.45	-28.9	-31.1	12.7	1.20e-04	0	43	0	1465909248	18	4622
2026-01-01 00:15:29.07	184.39	43.17	-28.8	-31.2	12.9	2.41e-03	0	43	0	1469054976	17	4792
2026-01-01 00:15:30.07	184.51	42.89	-29.2	-31.8	12.2	2.63e-03	0	43	0	1472200704	18	4869
2026-01-01 00:15:31.08	184.62	42.61	-29.0	-31.3	12.6	4.43e-04	0	43	0	1475346432	18	4703
2026-01-01 00:15:32.08	184.74	42.34	-29.1	-31.7	12.4	1.04e-04	0	43	0	1478492160	18	4825
2026-01-01 00:15:33.08	184.85	42.07	-28.9	-31.5	12.7	9.68e-05	0	43	0	1481637888	17	4868
2026-01-01 00:15:34.09	184.96	41.79	-28.6	-31.0	13.0	3.11e-04	0	43	0	1484783616	17	4700
2026-01-01 00:15:35.09	185.07	41.53	-28.5	-30.6	13.2	2.29e-03	0	43	0	1487929344	17	4588
2026-01-01 00:15:36.09	185.17	41.26	-28.5	-30.7	13.2	2.53e-03	0	43	0	1491075072	17	4610
2026-01-01 00:15:37.10	185.28	40.99	-28.6	-31.0	13.1	2.97e-04	0	43	0	1494220800	17	4703
2026-01-01 00:15:38.10	185.38	40.73	-28.5	-30.7	13.2	2.44e-03	0	43	0	1497366528	17	4630
2026-01-01 00:15:39.10	185.48	40.47	-28.5	-30.5	13.3	2.49e-03	0	43	0	1500512256	17	4574
2026-01-01 00:15:40.10	185.58	40.21	-29.0	-31.8	12.5	3.22e-04	0	43	0	1503657984	17	4985
2026-01-01 00:15:41.10	185.68	39.95	-28.9	-31.7	12.6	2.67e-03	0	43	0	1506803712	17	4954
2026-01-01 00:15:42.10	185.78	39.69	-29.2	-32.0	12.1	2.80e-03	0	43	0	1509949440	18	4938
2026-01-01 00:15:43.11	185.88	39.44	-28.9	-31.6	12.7	6.15e-04	0	43	0	1513095168	17	4914
2026-01-01 00:15:44.11	185.97	39.18	-28.7	-31.0	12.9	2.47e-03	0	43	0	1516240896	17	4736
2026-01-01 00:15:45.11	186.06	38.93	-28.5	-30.6	13.2	2.23e-03	0	43	0	1519386624	17	4598
2026-01-01 00:15:46.11	186.15	38.69	-28.7	-31.0	13.0	2.44e-04	0	43	0	1522532352	17	4720
2026-01-01 00:15:47.11	186.24	38.44	-28.3	-30.7	13.5	2.11e-03	0	43	0	1525678080	16	4730
2026-01-01 00:15:48.11	186.33	38.19	-27.8	-30.0	14.0	2.80e-03	0	43	0	1528823808	15	4637
2026-01-01 00:15:49.11	186.42	37.95	-27.6	-29.6	14.2	4.18e-04	0	43	0	1531969536	15	4520
2026-01-01 00:15:50.11	186.51	37.71	-27.6	-29.5	14.4	2.60e-03	0	43	0	1535115264	15	4478
2026-01-01 00:15:51.11	186.59	37.47	-27.8	-30.1	14.0	2.39e-03	0	43	0	1538260992	15	4664
2026-01-01 00:15:52.11	186.68	37.23	-27.9	-30.4	13.8	6.38e-04	0	43	0	1541406720	15	4761
2026-01-01 00:15:53.11	186.76	36.99	-28.3	-30.7	13.5	2.30e-03	0	43	0	1544552448	16	4732
2026-01-01 00:15:54.11	186.84	36.76	-27.9	-29.7	14.0	4.49e-04	0	43	0	1547698176	16	4439
2026-01-01 00:15:55.11	186.92	36.52	-27.3	-28.8	14.7	2.01e-04	0	43	0	1550843904	15	4300
2026-01-01 00:15:56.12	187.00	36.29	-27.1	-28.9	14.9	1.83e-03	0	43	0	1553989632	14	4436
2026-01-01 00:15:57.12	187.08	36.06	-27.2	-29.2	14.7	2.15e-03	0	43	0	1557135360	14	4519
2026-01-01 00:15:58.12	187.16	35.83	-27.3	-29.3	14.7	7.48e-04	0	43	0	1560281088	14	4545
2026-01-01 00:15:59.12	187.23	35.60	-27.4	-29.5	14.5	0.00e+00	0	43	0	1563426816	14	4623
2026-01-01 00:16:00.13	187.31	35.37	-27.4	-29.6	14.5	5.88e-04	0	43	0	1566572544	14	4633
2026-01-01 00:16:01.13	187.38	35.15	-27.4	-29.6	14.5	6.37e-04	0	43	0	1569718272	14	4655
2026-01-01 00:16:02.14	187.46	34.92	-27.4	-29.6	14.5	8.35e-04	0	43	0	1572864000	14	4635
2026-01-01 00:16:03.14	187.53	34.70	-27.6	-29.5	14.3	1.56e-03	0	43	0	1576009728	15	4499
2026-01-01 00:16:04.15	187.60	34.48	-27.9	-30.3	13.8	6.83e-04	0	43	0	1579155456	15	4739
2026-01-01 00:16:05.15	187.67	34.26	-27.6	-29.7	14.1	1.50e-06	0	43	0	1582301184	15	4557
2026-01-01 00:16:06.15	187.74	34.04	-27.6	-29.6	14.2	6.40e-04	0	43	0	1585446912	15	4531
2026-01-01 00:16:07.15	187.81	33.83	-27.5	-29.3	14.4	7.94e-04	0	43	0	1588592640	15	4443
2026-01-01 00:16:08.15	187.88	33.62	-27.4	-29.7	14.5	1.59e-03	0	43	0	1591738368	14	4660
2026-01-01 00:16:09.16	187.94	33.40	-27.1	-28.9	14.9	6.62e-04	0	43	0	1594884096	14	4424
2026-01-01 00:16:10.16	188.01	33.19	-27.0	-28.7	15.0	6.12e-04	0	43	0	1598029824	14	4379
2026-01-01 00:16:11.16	188.08	32.98	-27.1	-28.9	14.9	0.00e+00	0	43	0	1601175552	14	4428
2026-01-01 00:16:12.15	188.14	32.77	-26.8	-28.7	15.3	3.24e-03	0	43	0	1604321280	13	4483
2026-01-01 00:16:13.16	188.20	32.57	-26.5	-28.1	15.6	6.92e-04	0	43	0	1607467008	13	4313
2026-01-01 00:16:14.16	188.27	32.36	-26.3	-27.6	15.8	0.00e+00	0	43	0	1610612736	13	4186
2026-01-01 00:16:15.17	188.33	32.15	-26.2	-27.8	16.0	6.21e-04	0	43	0	1613758464	12	4339
2026-01-01 00:16:16.17	188.39	31.95	-25.9	-27.2	16.3	0.00e+00	0	43	0	1615855616	12	4177
2026-01-01 00:16:17.17	188.45	31.75	-25.9	-27.6	16.5	0.00e+00	0	43	0	1619001344	11	4382
2026-01-01 00:16:18.17	188.51	31.55	-26.0	-27.8	16.4	6.25e-04	0	43	0	1622147072	11	4443
2026-01-01 00:16:19.18	188.57	31.35	-25.9	-27.2	16.3	5.80e-04	0	43	0	1625292800	12	4184
2026-01-01 00:16:20.19	188.63	31.15	-26.0	-27.8	16.3	0.00e+00	0	43	0	1629487104	11	4460
2026-01-01 00:16:21.18	188.69	30.96	-26.1	-27.6	16.1	0.00e+00	0	43	0	1631584256	12	4279
2026-01-01 00:16:22.18	188.75	30.76	-26.2	-27.9	16.0	0.00e+00	0	43	0	1634729984	12	4367
2026-01-01 00:16:23.19	188.81	30.57	-26.1	-27.6	16.1	0.00e+00	0	43	0	1637875712	12	4288
2026-01-01 00:16:24.19	188.86	30.37	-26.1	-27.5	16.2	4.55e-04	0	43	0	1641021440	12	4273
2026-01-01 00:16:25.19	188.92	30.18	-26.2	-27.9	15.9	4.12e-04	0	43	0	1644167168	12	4384
2026-01-01 00:16:26.20	188.97	29.99	-26.3	-28.1	15.9	0.00e+00	0	43	0	1647312896	12	4420
2026-01-01 00:16:27.21	189.03	29.80	-26.4	-28.2	15.8	0.00e+00	0	43	0	1650458624	12	4470
2026-01-01 00:16:28.21	189.08	29.61	-26.5	-28.5	15.6	0.00e+00	0	43	0	1653604352	12	4551
2026-01-01 00:16:29.22	189.14	29.43	-26.5	-28.2	15.5	0.00e+00	0	43	0	1656750080	13	4336
2026-01-01 00:16:30.22	189.19	29.24	-26.7	-28.4	15.4	4.62e-04	0	43	0	1659895808	13	4404
2026-01-01 00:16:31.23	189.24	29.06	-26.6	-28.3	15.4	0.00e+00	0	43	0	1663041536	13	4386
2026-01-01 00:16:32.22	189.29	28.88	-26.7	-28.4	15.4	0.00e+00	0	43	0	1666187264	13	4409
2026-01-01 00:16:33.22	189.34	28.69	-26.8	-28.6	15.2	0.00e+00	0	43	0	1669332992	13	4468
2026-01-01 00:16:34.22	189.39	28.51	-26.8	-28.8	15.1	0.00e+00	0	43	0	1672478720	13	4512
2026-01-01 00:16:35.23	189.44	28.33	-26.9	-29.0	15.1	0.00e+00	0	43	0	1675624448	13	4570
2026-01-01 00:16:36.24	189.49	28.15	-27.1	-28.9	14.8	0.00e+00	0	43	0	1678770176	14	4435
2026-01-01 00:16:37.24	189.54	27.98	-27.2	-29.1	14.7	1.50e-06	0	43	0	1681915904	14	4492
2026-01-01 00:16:38.24	189.59	27.80	-27.1	-28.9	14.8	0.00e+00	0	43	0	1685061632	14	4426
2026-01-01 00:16:39.25	189.64	27.62	-27.0	-28.8	14.8	0.00e+00	0	43	0	1688207360	14	4401
2026-01-01 00:16:40.26	189.69	27.45	-27.1	-29.0	14.7	0.00e+00	0	43	0	1691353088	14	4460
2026-01-01 00:16:41.26	189.73	27.28	-27.1	-28.9	14.8	0.00e+00	0	43	0	1694498816	14	4433
2026-01-01 00:16:42.27	189.78	27.10	-27.1	-29.0	14.7	0.00e+00	0	43	0	1697644544	14	4477
2026-01-01 00:16:43.27	189.83	26.93	-27.1	-28.9	14.7	0.00e+00	0	43	0	1700790272	14	4450
2026-01-01 00:16:44.27	189.87	26.76	-27.0	-28.7	14.9	0.00e+00	0	43	0	1703936000	14	4385
2026-01-01 00:16:45.28	189.92	26.59	-26.9	-29.0	15.0	0.00e+00	0	43	0	1707081728	13	4577
2026-01-01 00:16:46.29	189.96	26.43	-26.7	-28.6	15.2	0.00e+00	0	43	0	1710227456	13	4455
2026-01-01 00:16:47.30	190.01	26.26	-26.6	-28.3	15.4	6.80e-06	0	43	0	1713373184	13	4368
2026-01-01 00:16:48.30	190.05	26.09	-26.6	-28.2	15.4	0.00e+00	0	43	0	1716518912	13	4352
2026-01-01 00:16:49.30	190.09	25.93	-26.6	-28.3	15.3	0.00e+00	0	43	0	1719664640	13	4378
2026-01-01 00:16:50.31	190.14	25.76	-26.7	-28.6	15.2	6.80e-06	0	43	0	1722810368	13	4463
2026-01-01 00:16:51.31	190.18	25.60	-26.8	-28.7	15.1	0.00e+00	0	43	0	1725956096	13	4486
2026-01-01 00:16:52.32	190.22	25.44	-26.7	-28.6	15.2	0.00e+00	0	43	0	1729101824	13	4465
2026-01-01 00:16:53.33	190.27	25.28	-26.8	-28.7	15.1	0.00e+00	0	43	0	1732247552	13	4488
2026-01-01 00:16:54.32	190.31	25.12	-26.7	-28.4	15.3	0.00e+00	0	43	0	1735393280	13	4411
2026-01-01 00:16:55.33	190.35	24.96	-26.6	-28.2	15.4	0.00e+00	0	43	0	1738539008	13	4361
2026-01-01 00:16:56.33	190.39	24.80	-26.5	-28.2	15.4	9.90e-06	0	43	0	1741684736	13	4336
2026-01-01 00:16:57.34	190.43	24.64	-26.3	-28.2	15.7	0.00e+00	0	43	0	1744830464	12	4467
2026-01-01 00:16:58.34	190.47	24.49	-26.1	-27.6	16.0	0.00e+00	0	43	0	1747976192	12	4283
2026-01-01 00:16:59.34	190.51	24.33	-25.8	-27.1	16.3	0.00e+00	0	43	0	1751121920	12	4150
2026-01-01 00:17:00.35	190.55	24.18	-25.9	-27.6	16.3	0.00e+00	0	43	0	1754267648	11	4401
2026-01-01 00:17:01.35	190.59	24.03	-25.9	-27.3	16.1	0.00e+00	0	43	0	1757413376	12	4212
2026-01-01 00:17:02.36	190.63	23.87	-25.9	-27.2	16.2	2.20e-06	0	43	0	1760559104	12	4181
2026-01-01 00:17:03.36	190.66	23.72	-26.0	-27.3	16.1	0.00e+00	0	43	0	1763704832	12	4228
2026-01-01 00:17:04.37	190.70	23.57	-26.1	-27.6	16.0	0.00e+00	0	43	0	1766850560	12	4283
2026-01-01 00:17:05.37	190.74	23.42	-26.2	-27.8	15.9	3.00e-06	0	43	0	1769996288	12	4346
2026-01-01 00:17:06.37	190.78	23.27	-25.4	-27.2	15.1	0.00e+00	0	43	0	1773142016	12	4422
2026-01-01 00:17:07.38	190.81	23.12	-26.3	-28.1	13.1	0.00e+00	0	43	0	1776287744	12	4439
2026-01-01 00:17:08.39	190.85	22.97	-26.3	-28.2	15.7	7.00e-07	0	43	0	1779433472	12	4451
2026-01-01 00:17:09.39	190.89	22.83	-26.3	-28.2	15.6	0.00e+00	0	43	0	1782579200	12	4480
2026-01-01 00:17:10.39	190.92	22.68	-26.3	-28.2	15.6	3.45e-03	0	43	0	1785724928	12	4475
2026-01-01 00:17:11.39	190.96	22.54	-26.4	-28.4	15.5	1.50e-06	0	43	0	1788870656	12	4517
2026-01-01 00:17:12.39	190.99	22.39	-26.5	-28.1	15.5	0.00e+00	0	43	0	1792016384	13	4316
2026-01-01 00:17:13.39	191.03	22.25	-26.3	-28.0	15.7	0.00e+00	0	43	0	1795162112	12	4414
2026-01-01 00:17:14.40	191.06	22.11	-26.2	-27.8	15.9	0.00e+00	0	43	0	1798307840	12	4354
2026-01-01 00:17:15.40	191.10	21.97	-26.3	-28.0	15.7	6.68e-04	0	43	0	1801453568	12	4411
2026-01-01 00:17:16.40	191.13	21.83	-26.4	-28.3	15.6	2.24e-03	0	43	0	1804599296	12	4491
2026-01-01 00:17:17.40	191.17	21.69	-26.3	-28.0	15.7	0.00e+00	0	43	0	1807745024	12	4423
2026-01-01 00:17:18.41	191.20	21.55	-26.3	-28.1	15.7	0.00e+00	0	43	0	1810890752	12	4446
2026-01-01 00:17:19.41	191.23	21.41	-26.3	-28.1	15.7	1.90e-03	0	43	0	1814036480	12	4424
2026-01-01 00:17:20.41	191.27	21.27	-26.3	-28.2	15.1	1.86e-03	0	43	0	1817182208	12	4462
2026-01-01 00:17:21.41	191.30	21.13	-26.4	-28.4	15.3	6.33e-04	0	43	0	1820327936	12	4539
2026-01-01 00:17:22.41	191.33	21.00	-26.4	-28.4	15.5	0.00e+00	0	43	0	1823473664	12	4527
2026-01-01 00:17:23.41	191.37	20.86	-26.6	-28.3	15.3	0.00e+00	0	43	0	1826619392	13	4374
2026-01-01 00:17:24.42	191.40	20.73	-26.7	-28.6	15.1	6.05e-04	0	43	0	1829765120	13	4471
2026-01-01 00:17:25.43	191.43	20.59	-27.1	-29.0	14.6	8.35e-04	0	43	0	1832910848	14	4478
2026-01-01 00:17:26.43	191.46	20.46	-26.9	-28.6	14.9	8.58e-04	0	43	0	1836056576	14	4353
2026-01-01 00:17:27.44	191.49	20.32	-26.9	-28.9	14.9	8.00e-04	0	43	0	1839202304	13	4564
2026-01-01 00:17:28.44	191.52	20.19	-26.7	-28.6	15.1	9.38e-04	0	43	0	1842348032	13	4468
2026-01-01 00:17:29.44	191.55	20.06	-26.8	-28.8	15.0	7.35e-04	0	43	0	1845493760	13	4542
2026-01-01 00:17:30.43	191.59	19.93	-26.9	-29.0	14.9	5.23e-04	0	43	0	1848639488	13	4601
2026-01-01 00:17:31.43	191.62	19.80	-26.8	-28.8	15.0	6.35e-04	0	43	0	1851785216	13	4525
2026-01-01 00:17:32.44	191.65	19.67	-26.8	-28.7	15.0	8.65e-04	0	43	0	1854930944	13	4492
2026-01-01 00:17:33.44	191.68	19.54	-26.8	-28.7	15.0	7.45e-04	0	43	0	1858076672	13	4514
2026-01-01 00:17:34.43	191.71	19.42	-26.8	-28.7	15.0	6.16e-04	0	43	0	1861222400	13	4501
2026-01-01 00:17:35.43	191.73	19.29	-26.9	-29.1	14.8	5.08e-04	0	43	0	1864368128	13	4609
2026-01-01 00:17:36.44	191.76	19.16	-27.1	-28.9	14.6	6.51e-04	0	43	0	1867513856	14	4442
2026-01-01 00:17:37.43	191.79	19.04	-26.8	-28.4	14.9	4.87e-04	0	43	0	1870659584	14	4302
2026-01-01 00:17:38.44	191.82	18.91	-26.7	-28.5	15.1	1.11e-03	0	43	0	1873805312	13	4430
2026-01-01 00:17:39.44	191.85	18.79	-26.7	-28.5	15.1	4.32e-04	0	43	0	1876951040	13	4451
2026-01-01 00:17:40.45	191.88	18.66	-26.7	-28.6	15.0	8.54e-04	0	43	0	1880096768	13	4487
2026-01-01 00:17:41.45	191.91	18.54	-26.8	-28.8	14.9	1.15e-03	0	43	0	1883242496	13	4532
2026-01-01 00:17:42.45	191.94	18.42	-26.8	-28.9	14.9	8.08e-04	0	43	0	1886388224	13	4554
2026-01-01 00:17:43.46	191.96	18.29	-26.8	-28.8	14.9	1.10e-03	0	43	0	1889533952	13	4535
2026-01-01 00:17:44.46	191.99	18.17	-26.7	-28.5	15.1	4.19e-04	0	43	0	1892679680	13	4453
2026-01-01 00:17:45.46	192.02	18.05	-26.6	-28.4	15.1	8.25e-04	0	43	0	1895825408	13	4426
2026-01-01 00:17:46.46	192.05	17.93	-26.6	-28.4	15.2	2.13e-03	0	43	0	1898971136	13	4407
2026-01-01 00:17:47.46	192.07	17.81	-26.6	-28.4	15.2	2.72e-03	0	43	0	1902116864	13	4402
2026-01-01 00:17:48.46	192.10	17.69	-26.5	-28.2	15.2	3.42e-04	0	43	0	1905262592	13	4359
2026-01-01 00:17:49.46	192.13	17.57	-26.6	-28.2	15.2	0.00e+00	0	43	0	1908408320	13	4363
2026-01-01 00:17:50.47	192.15	17.45	-26.5	-28.2	15.3	3.01e-03	0	43	0	1911554048	13	4346
2026-01-01 00:17:51.47	192.18	17.34	-26.5	-28.1	15.3	8.22e-04	0	43	0	1913651200	13	4344
2026-01-01 00:17:52.47	192.21	17.22	-26.6	-28.2	15.2	2.84e-03	0	43	0	1916796928	13	4367
2026-01-01 00:17:53.47	192.23	17.10	-26.6	-28.4	15.1	3.20e-04	0	43	0	1919942656	13	4429
2026-01-01 00:17:54.47	192.26	16.99	-26.6	-28.3	15.2	3.39e-04	0	43	0	1923088384	13	4381
2026-01-01 00:17:55.47	192.28	16.87	-26.6	-28.3	15.1	0.00e+00	0	43	0	1926234112	13	4391
2026-01-01 00:17:56.48	192.31	16.76	-26.7	-28.5	15.0	3.55e-03	0	43	0	1929379840	13	4455
2026-01-01 00:17:57.49	192.33	16.64	-26.7	-28.6	15.0	7.81e-04	0	43	0	1933574144	13	4472
2026-01-01 00:17:58.49	192.36	16.53	-26.6	-28.4	15.1	0.00e+00	0	43	0	1936719872	13	4423
2026-01-01 00:17:59.50	192.39	16.41	-26.7	-28.6	15.0	0.00e+00	0	43	0	1938817024	13	4475
2026-01-01 00:18:00.50	192.41	16.30	-26.8	-28.9	14.8	0.00e+00	0	43	0	1941962752	13	4561
2026-01-01 00:18:01.50	192.43	16.19	-27.0	-29.2	14.6	0.00e+00	0	43	0	1945108480	13	4653
2026-01-01 00:18:02.51	192.46	16.08	-27.0	-29.2	14.6	3.57e-03	0	43	0	1948254208	13	4667
2026-01-01 00:18:03.50	192.48	15.97	-27.1	-28.9	14.5	3.97e-04	0	43	0	1951399936	14	4462
2026-01-01 00:18:04.51	192.51	15.85	-27.2	-29.2	14.4	3.00e-06	0	43	0	1954545664	14	4539
2026-01-01 00:18:05.52	192.53	15.74	-27.1	-29.1	14.4	1.50e-06	0	43	0	1957691392	14	4512
2026-01-01 00:18:06.52	192.56	15.63	-27.3	-29.4	14.2	7.00e-07	0	43	0	1960837120	14	4604
2026-01-01 00:18:07.53	192.58	15.52	-27.2	-29.2	14.4	3.04e-03	0	43	0	1963982848	14	4525
2026-01-01 00:18:08.53	192.60	15.42	-27.4	-29.8	14.0	3.10e-04	0	43	0	1967128576	14	4716
2026-01-01 00:18:09.54	192.63	15.31	-27.5	-29.5	13.9	6.80e-06	0	43	0	1970274304	15	4525
2026-01-01 00:18:10.54	192.65	15.20	-27.3	-29.5	14.1	3.00e-06	0	43	0	1973420032	14	4642
2026-01-01 00:18:11.54	192.67	15.09	-27.3	-29.4	14.2	7.00e-07	0	43	0	1976565760	14	4618
2026-01-01 00:18:12.54	192.70	14.98	-27.3	-29.5	14.1	1.50e-06	0	43	0	1979711488	14	4636
2026-01-01 00:18:13.54	192.72	14.88	-27.2	-29.2	14.3	1.14e-05	0	43	0	1982857216	14	4554
2026-01-01 00:18:14.55	192.74	14.77	-27.1	-29.0	14.4	7.00e-07	0	43	0	1986002944	14	4477
2026-01-01 00:18:15.55	192.76	14.67	-27.1	-28.9	14.4	0.00e+00	0	43	0	1989148672	14	4467
2026-01-01 00:18:16.55	192.79	14.56	-27.0	-28.8	14.5	8.30e-06	0	43	0	1992294400	14	4433
2026-01-01 00:18:17.55	192.81	14.46	-27.1	-28.9	14.4	7.00e-07	0	43	0	1995440128	14	4469
2026-01-01 00:18:18.56	192.83	14.35	-27.1	-29.0	14.4	7.00e-07	0	43	0	1998585856	14	4491
2026-01-01 00:18:19.56	192.85	14.25	-27.2	-29.2	14.3	5.30e-06	0	43	0	2001731584	14	4550
2026-01-01 00:18:20.57	192.88	14.14	-27.2	-29.3	14.2	1.50e-06	0	43	0	2004877312	14	4568
2026-01-01 00:18:21.57	192.90	14.04	-27.1	-29.0	14.4	0.00e+00	0	43	0	2008023040	14	4483
2026-01-01 00:18:22.58	192.92	13.94	-27.1	-28.9	14.4	3.00e-06	0	43	0	2011168768	14	4471
2026-01-01 00:18:23.58	192.94	13.84	-27.1	-28.9	14.4	1.50e-06	0	43	0	2014314496	14	4473
2026-01-01 00:18:24.58	192.96	13.74	-27.1	-29.1	14.3	3.00e-06	0	43	0	2017460224	14	4513
2026-01-01 00:18:25.58	192.98	13.63	-27.2	-29.2	14.2	4.50e-06	0	43	0	2020605952	14	4556
2026-01-01 00:18:26.58	193.00	13.53	-27.1	-29.0	14.3	1.50e-06	0	43	0	2023751680	14	4499
2026-01-01 00:18:27.58	193.03	13.43	-27.1	-29.0	14.3	0.00e+00	0	43	0	2026897408	14	4495
2026-01-01 00:18:28.59	193.05	13.33	-27.1	-29.1	14.3	2.20e-06	0	43	0	2030043136	14	4521
2026-01-01 00:18:29.60	193.07	13.23	-27.2	-29.2	14.2	7.00e-07	0	43	0	2033188864	14	4541
2026-01-01 00:18:30.60	193.09	13.13	-27.2	-29.3	14.1	7.00e-07	0	43	0	2036334592	14	4582
2026-01-01 00:18:31.60	193.11	13.04	-27.2	-29.3	14.1	2.20e-06	0	43	0	2039480320	14	4583
2026-01-01 00:18:32.61	193.13	12.94	-27.1	-29.2	14.2	2.20e-06	0	43	0	2042626048	14	4538
2026-01-01 00:18:33.61	193.15	12.84	-27.1	-29.1	14.3	0.00e+00	0	43	0	2045771776	14	4526
2026-01-01 00:18:34.61	193.17	12.74	-27.1	-29.1	14.3	1.50e-06	0	43	0	2048917504	14	4516
2026-01-01 00:18:35.61	193.19	12.64	-27.1	-29.1	14.3	1.50e-06	0	43	0	2052063232	14	4516
2026-01-01 00:18:36.62	193.21	12.55	-27.1	-29.0	14.3	2.20e-06	0	43	0	2055208960	14	4499
2026-01-01 00:18:37.62	193.23	12.45	-27.2	-29.2	14.2	1.50e-06	0	43	0	2058354688	14	4551
2026-01-01 00:18:38.63	193.25	12.35	-27.2	-29.3	14.1	1.50e-06	0	43	0	2061500416	14	4578
2026-01-01 00:18:39.63	193.27	12.26	-27.2	-29.2	14.1	1.50e-06	0	43	0	2064646144	14	4567
2026-01-01 00:18:40.64	193.29	12.16	-27.3	-29.6	13.9	0.00e+00	0	43	0	2067791872	14	4661
2026-01-01 00:18:41.64	193.31	12.07	-27.4	-29.8	13.8	6.10e-06	0	43	0	2070937600	14	4733
2026-01-01 00:18:42.65	193.33	11.97	-27.4	-29.7	13.9	3.80e-06	0	43	0	2074083328	14	4711
2026-01-01 00:18:43.66	193.35	11.88	-27.3	-29.7	13.9	2.20e-06	0	43	0	2077229056	14	4700
2026-01-01 00:18:44.65	193.37	11.78	-27.3	-29.6	13.9	3.80e-06	0	43	0	2080374784	14	4676
2026-01-01 00:18:45.65	193.39	11.69	-27.5	-29.9	13.7	3.80e-06	0	43	0	2083520512	14	4774
2026-01-01 00:18:46.64	193.40	11.60	-27.5	-29.6	13.6	9.90e-06	0	43	0	2086666240	15	4574
2026-01-01 00:18:47.65	193.42	11.51	-27.6	-29.9	13.4	1.44e-05	0	43	0	2089811968	15	4647
2026-01-01 00:18:48.65	193.44	11.41	-27.6	-29.7	13.5	1.60e-05	0	43	0	2092957696	15	4600
2026-01-01 00:18:49.65	193.46	11.32	-27.4	-29.2	13.8	4.50e-06	0	43	0	2096103424	15	4458
2026-01-01 00:18:50.65	193.48	11.23	-27.4	-29.8	13.8	2.20e-06	0	43	0	2099249152	14	4741
2026-01-01 00:18:51.66	193.50	11.14	-27.4	-29.8	13.8	4.50e-06	0	43	0	2102394880	14	4729
2026-01-01 00:18:52.66	193.52	11.05	-27.3	-29.6	13.9	4.50e-06	0	43	0	2105540608	14	4675
2026-01-01 00:18:53.66	193.53	10.96	-27.3	-29.7	13.8	3.80e-06	0	43	0	2108686336	14	4711
2026-01-01 00:18:54.66	193.55	10.87	-27.3	-29.6	13.9	2.20e-06	0	43	0	2111832064	14	4671
2026-01-01 00:18:55.66	193.57	10.78	-27.2	-29.4	14.0	2.20e-06	0	43	0	2114977792	14	4610
2026-01-01 00:18:56.66	193.59	10.69	-27.2	-29.3	14.0	7.00e-07	0	43	0	2118123520	14	4590
2026-01-01 00:18:57.66	193.61	10.60	-27.2	-29.2	14.0	0.00e+00	0	43	0	2121269248	14	4564
2026-01-01 00:18:58.66	193.62	10.51	-27.2	-29.4	14.0	1.50e-06	0	43	0	2124414976	14	4608
2026-01-01 00:18:59.66	193.64	10.42	-27.2	-29.3	14.0	0.00e+00	0	43	0	2127560704	14	4585
2026-01-01 00:19:00.67	193.66	10.33	-27.2	-29.3	14.0	1.50e-06	0	43	0	2130706432	14	4577
2026-01-01 00:19:01.67	193.68	10.24	-27.3	-29.6	13.8	5.30e-06	0	43	0	2133852160	14	4685
2026-01-01 00:19:02.67	193.69	10.16	-27.4	-29.9	13.6	4.50e-06	0	43	0	2136997888	14	4788
