passes_logs/2026/01/01/R2M6_AANII_01/R2M6_AANII_01__20260101_031545_AQUA_rec.log

#Pass ID: 20260101_031545_AQUA
#Satellite: AQUA
#Configuration: AQUA
#almurnet v.1.7.20240730
#Start time: 2026-01-01 03:15:47

#Version: 2.2.20231116
#Station: R2M6_AANII_01
#Location: 30.233357 lon 59.946436 lat
#TLE: 1 27424U 02022A   25364.96158943  .00001951  00000+0  40088-3 0  9998
#TLE: 2 27424  98.4061 326.1389 0001917  95.3187 305.7939 14.61780362258696

#Time	Az	El	Level	Level2	SNR	BER	BlckErr	Temp	State	Recorded	gain1	gain2
2026-01-01 03:15:47.77	8.81	7.15	-31.6	-47.8	3.8	7.46e-01	0	40	0	0	23	23336
2026-01-01 03:15:48.76	8.73	7.22	-31.5	-47.4	3.8	7.44e-01	0	40	104	0	23	22442
2026-01-01 03:15:49.77	8.65	7.29	-31.5	-47.3	3.8	7.45e-01	0	40	104	0	23	22153
2026-01-01 03:15:50.77	8.57	7.37	-31.5	-47.2	3.8	7.47e-01	0	40	104	0	23	21957
2026-01-01 03:15:51.77	8.49	7.44	-31.5	-47.1	3.8	7.46e-01	0	40	104	0	23	21866
2026-01-01 03:15:52.77	8.40	7.52	-30.2	-45.4	3.8	7.45e-01	0	40	104	0	23	20690
2026-01-01 03:15:53.77	8.32	7.59	-29.6	-44.1	3.8	7.44e-01	0	41	104	0	22	18991
2026-01-01 03:15:54.78	8.24	7.67	-30.8	-45.2	3.8	7.44e-01	0	41	104	0	22	18993
2026-01-01 03:15:55.79	8.15	7.74	-30.6	-44.7	3.8	7.46e-01	0	41	104	0	21	18327
2026-01-01 03:15:56.79	8.07	7.82	-30.3	-44.1	3.8	7.48e-01	0	41	104	0	21	17610
2026-01-01 03:15:57.80	7.98	7.89	-30.1	-43.8	3.8	7.47e-01	0	41	104	0	20	17514
2026-01-01 03:15:58.80	7.90	7.97	-30.1	-43.5	3.8	7.48e-01	0	41	104	0	21	16793
2026-01-01 03:15:59.81	7.81	8.05	-30.0	-43.7	3.9	7.45e-01	0	41	104	0	20	17315
2026-01-01 03:16:00.81	7.73	8.12	-30.0	-43.5	3.8	7.43e-01	0	41	104	0	20	17117
2026-01-01 03:16:01.81	7.64	8.20	-29.9	-43.4	3.8	7.45e-01	0	41	104	0	20	16897
2026-01-01 03:16:02.81	7.55	8.28	-29.9	-43.4	3.8	7.44e-01	0	41	104	0	20	17007
2026-01-01 03:16:03.82	7.46	8.35	-30.0	-43.5	3.8	7.46e-01	0	41	104	0	20	17135
2026-01-01 03:16:04.83	7.38	8.43	-30.2	-43.5	3.8	7.43e-01	0	41	104	0	21	16762
2026-01-01 03:16:05.83	7.29	8.51	-30.4	-44.2	3.8	7.45e-01	0	41	104	0	21	17711
2026-01-01 03:16:06.84	7.20	8.59	-30.7	-44.6	3.8	7.47e-01	0	41	104	0	22	17884
2026-01-01 03:16:07.84	7.11	8.66	-31.0	-45.6	3.8	7.44e-01	0	41	104	0	22	19353
2026-01-01 03:16:08.84	7.02	8.74	-31.2	-46.0	3.8	7.44e-01	0	41	104	0	23	19729
2026-01-01 03:16:09.84	6.93	8.82	-31.5	-47.0	3.8	7.41e-01	0	41	104	0	23	21374
2026-01-01 03:16:10.85	6.83	8.90	-31.6	-47.3	3.8	7.44e-01	0	41	104	0	24	21934
2026-01-01 03:16:11.85	6.74	8.98	-31.7	-47.3	3.8	7.44e-01	0	41	104	0	24	21822
2026-01-01 03:16:12.86	6.65	9.05	-31.8	-47.7	3.8	7.44e-01	0	41	104	0	24	22583
2026-01-01 03:16:13.86	6.56	9.13	-31.9	-48.2	3.8	7.42e-01	0	41	104	0	24	23609
2026-01-01 03:16:14.86	6.46	9.21	-32.0	-48.7	3.8	7.46e-01	0	41	104	0	24	24697
2026-01-01 03:16:15.86	6.37	9.29	-32.1	-48.8	3.8	7.42e-01	0	41	104	0	25	24613
2026-01-01 03:16:16.87	6.27	9.37	-32.2	-49.4	3.8	7.41e-01	0	41	104	0	25	25925
2026-01-01 03:16:17.87	6.18	9.45	-32.3	-49.9	3.8	7.43e-01	0	41	104	0	25	27096
2026-01-01 03:16:18.87	6.08	9.53	-32.4	-50.2	3.8	7.44e-01	0	41	104	0	25	28016
2026-01-01 03:16:19.88	5.98	9.61	-32.4	-50.5	3.8	7.45e-01	0	41	104	0	25	28825
2026-01-01 03:16:20.88	5.89	9.69	-32.5	-50.8	3.8	7.45e-01	0	41	104	0	25	29760
2026-01-01 03:16:21.88	5.79	9.77	-32.5	-51.2	3.8	7.46e-01	0	41	104	0	25	30708
2026-01-01 03:16:22.88	5.69	9.85	-32.6	-51.4	3.8	7.45e-01	0	41	104	0	25	31551
2026-01-01 03:16:23.88	5.59	9.93	-32.6	-51.2	3.8	7.44e-01	0	41	104	0	25	30902
2026-01-01 03:16:24.89	5.49	10.02	-32.5	-50.9	3.8	7.45e-01	0	41	104	0	25	29916
2026-01-01 03:16:25.89	5.39	10.10	-32.5	-50.6	3.8	7.44e-01	0	41	104	0	25	28895
2026-01-01 03:16:26.90	5.29	10.18	-32.4	-50.2	3.8	7.46e-01	0	41	104	0	25	27805
2026-01-01 03:16:27.90	5.19	10.26	-32.4	-49.9	3.8	7.51e-01	0	41	104	0	25	26935
2026-01-01 03:16:28.91	5.09	10.34	-32.3	-49.5	3.8	7.44e-01	0	41	104	0	25	26065
2026-01-01 03:16:29.92	4.98	10.43	-32.3	-49.2	3.8	7.41e-01	0	41	104	0	25	25133
2026-01-01 03:16:30.92	4.88	10.51	-32.2	-48.8	3.8	7.47e-01	0	41	104	0	25	24347
2026-01-01 03:16:31.93	4.77	10.59	-32.1	-48.4	3.8	7.48e-01	0	42	104	0	25	23377
2026-01-01 03:16:32.93	4.67	10.67	-32.0	-48.2	3.8	7.42e-01	0	41	104	0	24	23331
2026-01-01 03:16:33.94	4.56	10.76	-31.8	-47.4	3.8	7.46e-01	0	42	104	0	24	21834
2026-01-01 03:16:34.94	4.46	10.84	-31.6	-46.4	3.8	7.45e-01	0	42	104	0	24	19992
2026-01-01 03:16:35.94	4.35	10.93	-31.5	-46.6	3.8	7.46e-01	0	41	104	0	23	20612
2026-01-01 03:16:36.95	4.24	11.01	-31.4	-46.4	3.8	7.44e-01	0	42	104	0	23	20249
2026-01-01 03:16:37.95	4.13	11.09	-31.4	-46.4	3.8	7.45e-01	0	42	104	0	23	20172
2026-01-01 03:16:38.96	4.02	11.18	-31.4	-46.4	3.8	7.48e-01	0	42	104	0	23	20253
2026-01-01 03:16:39.96	3.91	11.26	-31.5	-46.6	3.8	7.48e-01	0	42	104	0	23	20485
2026-01-01 03:16:40.96	3.80	11.35	-32.1	-47.4	3.8	7.45e-01	0	42	104	0	24	21047
2026-01-01 03:16:41.97	3.69	11.43	-31.5	-46.7	3.8	7.45e-01	0	42	104	0	23	20614
2026-01-01 03:16:42.96	3.58	11.52	-31.3	-45.8	3.8	7.44e-01	0	42	104	0	23	19110
2026-01-01 03:16:43.96	3.47	11.60	-30.9	-45.1	3.8	7.41e-01	0	42	104	0	22	18486
2026-01-01 03:16:44.97	3.36	11.69	-30.6	-44.0	3.8	7.47e-01	0	42	104	0	22	16960
2026-01-01 03:16:45.97	3.24	11.77	-30.3	-43.6	3.8	7.47e-01	0	41	104	0	21	16726
2026-01-01 03:16:46.98	3.13	11.86	-30.0	-42.9	3.8	7.45e-01	0	42	104	0	21	15891
2026-01-01 03:16:47.99	3.01	11.95	-29.8	-42.8	3.9	7.43e-01	0	42	104	0	20	16114
2026-01-01 03:16:48.99	2.89	12.03	-29.7	-42.5	3.8	7.43e-01	0	42	104	0	20	15733
2026-01-01 03:16:50.00	2.78	12.12	-29.6	-42.3	3.8	7.47e-01	0	41	104	0	20	15470
2026-01-01 03:16:51.00	2.66	12.21	-29.6	-42.3	3.8	7.44e-01	0	42	104	0	20	15580
2026-01-01 03:16:52.00	2.54	12.30	-29.6	-42.3	3.8	7.43e-01	0	42	104	0	20	15551
2026-01-01 03:16:53.01	2.42	12.38	-29.8	-42.7	3.8	7.45e-01	0	42	104	0	20	15950
2026-01-01 03:16:54.02	2.30	12.47	-29.9	-43.1	3.8	7.44e-01	0	42	104	0	20	16517
2026-01-01 03:16:55.02	2.18	12.56	-30.1	-43.2	3.8	7.44e-01	0	42	104	0	21	16266
2026-01-01 03:16:56.03	2.06	12.65	-30.4	-44.1	3.8	7.42e-01	0	42	104	0	21	17341
2026-01-01 03:16:57.03	1.93	12.74	-30.7	-44.5	3.8	7.41e-01	0	42	104	0	22	17506
2026-01-01 03:16:58.03	1.81	12.83	-31.0	-45.4	3.8	7.44e-01	0	42	104	0	22	18886
2026-01-01 03:16:59.03	1.69	12.91	-31.3	-45.9	3.8	7.45e-01	0	42	104	0	23	19297
2026-01-01 03:17:00.03	1.56	13.00	-31.6	-46.9	3.8	7.47e-01	0	42	104	0	23	20907
2026-01-01 03:17:01.04	1.44	13.09	-31.7	-47.0	3.8	7.45e-01	0	42	104	0	24	20791
2026-01-01 03:17:02.05	1.31	13.18	-31.9	-47.6	3.8	7.42e-01	0	42	104	0	24	21980
2026-01-01 03:17:03.06	1.18	13.27	-32.0	-48.2	3.8	7.44e-01	0	42	104	0	24	23162
2026-01-01 03:17:04.06	1.05	13.36	-32.2	-48.5	3.8	7.45e-01	0	42	104	0	25	23468
2026-01-01 03:17:05.07	0.92	13.45	-32.3	-49.1	3.8	7.48e-01	0	42	104	0	25	24702
2026-01-01 03:17:06.07	0.79	13.55	-32.2	-48.3	3.8	7.46e-01	0	42	104	0	25	23034
2026-01-01 03:17:07.07	0.66	13.64	-32.1	-47.7	3.8	7.43e-01	0	42	104	0	25	21769
2026-01-01 03:17:08.07	0.53	13.73	-32.2	-48.4	3.8	7.46e-01	0	42	104	0	25	23209
2026-01-01 03:17:09.08	0.39	13.82	-32.4	-49.1	3.8	7.44e-01	0	42	104	0	25	24765
2026-01-01 03:17:10.08	0.26	13.91	-32.5	-49.7	3.8	7.44e-01	0	42	104	0	25	26040
2026-01-01 03:17:11.08	0.13	14.00	-32.6	-50.1	3.8	7.45e-01	0	42	104	0	25	27168
2026-01-01 03:17:12.07	359.99	14.09	-32.6	-50.0	3.8	7.47e-01	0	42	104	0	26	26555
2026-01-01 03:17:13.08	359.86	14.18	-32.7	-50.5	3.8	7.45e-01	0	42	104	0	26	27819
2026-01-01 03:17:14.08	359.72	14.28	-32.6	-50.0	3.8	7.44e-01	0	42	104	0	26	26579
2026-01-01 03:17:15.08	359.58	14.37	-32.6	-49.6	3.8	7.46e-01	0	42	104	0	26	25568
2026-01-01 03:17:16.08	359.44	14.46	-32.5	-49.7	3.8	7.45e-01	0	42	104	0	25	26132
2026-01-01 03:17:17.09	359.30	14.56	-32.5	-49.4	3.8	7.47e-01	0	42	104	0	25	25303
2026-01-01 03:17:18.09	359.16	14.65	-32.4	-49.1	3.8	7.48e-01	0	42	104	0	25	24533
2026-01-01 03:17:19.10	359.02	14.74	-32.3	-48.8	3.8	7.42e-01	0	42	104	0	25	24011
2026-01-01 03:17:20.11	358.87	14.84	-32.3	-48.6	3.8	7.46e-01	0	42	104	0	25	23549
2026-01-01 03:17:21.11	358.73	14.93	-32.2	-48.2	3.8	7.44e-01	0	42	104	0	25	22715
2026-01-01 03:17:22.12	358.58	15.03	-32.1	-47.7	3.8	7.44e-01	0	42	104	0	25	21781
2026-01-01 03:17:23.11	358.44	15.12	-31.9	-47.5	3.8	7.44e-01	0	42	104	0	24	21693
2026-01-01 03:17:24.12	358.29	15.21	-31.7	-46.6	3.8	7.45e-01	0	42	104	0	24	19958
2026-01-01 03:17:25.12	358.14	15.31	-31.4	-45.6	3.8	7.48e-01	0	42	104	0	24	18376
2026-01-01 03:17:26.13	357.99	15.41	-31.5	-46.1	3.8	7.47e-01	0	42	104	0	23	19522
2026-01-01 03:17:27.13	357.84	15.50	-31.5	-46.3	3.8	7.47e-01	0	42	104	0	23	19787
2026-01-01 03:17:28.13	357.69	15.60	-31.6	-46.2	3.9	7.43e-01	0	42	104	0	24	19284
2026-01-01 03:17:29.13	357.54	15.69	-31.7	-46.5	3.8	7.44e-01	0	42	104	0	24	19832
2026-01-01 03:17:30.12	357.39	15.79	-31.6	-46.1	3.8	7.47e-01	0	42	104	0	24	19103
2026-01-01 03:17:31.13	357.23	15.88	-31.5	-46.2	3.8	7.45e-01	0	42	104	0	23	19575
2026-01-01 03:17:32.13	357.07	15.98	-31.4	-45.9	3.8	7.43e-01	0	42	104	0	23	19108
2026-01-01 03:17:33.14	356.92	16.08	-31.0	-44.7	3.8	7.45e-01	0	42	104	0	23	17355
2026-01-01 03:17:34.14	356.76	16.17	-30.6	-44.0	3.8	7.43e-01	0	42	104	0	22	16835
2026-01-01 03:17:35.15	356.60	16.27	-30.2	-43.3	3.8	7.46e-01	0	42	104	0	21	16267
2026-01-01 03:17:36.15	356.44	16.37	-29.6	-33.1	5.2	7.03e-01	0	42	104	0	21	5365
2026-01-01 03:17:37.15	356.28	16.47	-29.2	-32.4	5.3	7.05e-01	0	42	0	0	20	5231
2026-01-01 03:17:38.16	356.11	16.56	-27.8	-31.6	5.3	7.04e-01	0	42	0	0	18	5562
2026-01-01 03:17:39.16	355.95	16.66	-29.4	-33.5	5.3	7.10e-01	0	42	0	0	18	5760
2026-01-01 03:17:40.17	355.79	16.76	-29.1	-33.1	5.4	7.06e-01	0	42	0	0	18	5743
2026-01-01 03:17:41.17	355.62	16.86	-29.2	-32.9	5.3	7.04e-01	0	42	0	0	19	5523
2026-01-01 03:17:42.17	355.45	16.96	-29.4	-33.3	5.3	7.07e-01	0	42	0	0	19	5688
2026-01-01 03:17:43.18	355.28	17.06	-29.2	-32.9	5.3	7.06e-01	0	42	0	0	19	5495
2026-01-01 03:17:44.18	355.12	17.15	-29.1	-32.7	5.3	7.08e-01	0	42	0	0	19	5419
2026-01-01 03:17:45.18	354.94	17.25	-29.1	-32.7	5.3	7.11e-01	0	42	0	0	19	5420
2026-01-01 03:17:46.18	354.77	17.35	-29.2	-32.8	5.3	7.06e-01	0	42	0	0	19	5470
2026-01-01 03:17:47.18	354.60	17.45	-29.2	-32.8	5.3	7.08e-01	0	42	0	0	19	5462
2026-01-01 03:17:48.18	354.43	17.55	-29.4	-33.4	5.3	7.06e-01	0	42	0	0	19	5710
2026-01-01 03:17:49.19	354.25	17.65	-29.1	-32.8	5.3	7.08e-01	0	42	0	0	19	5450
2026-01-01 03:17:50.19	354.07	17.75	-29.0	-32.8	5.3	7.10e-01	0	42	0	0	18	5585
2026-01-01 03:17:51.19	353.90	17.85	-28.9	-32.6	5.3	7.06e-01	0	42	0	0	18	5524
2026-01-01 03:17:52.20	353.72	17.95	-28.9	-32.7	5.3	7.08e-01	0	42	0	0	18	5547
2026-01-01 03:17:53.19	353.54	18.05	-28.9	-32.6	5.3	7.09e-01	0	42	0	0	18	5495
2026-01-01 03:17:54.20	353.35	18.15	-28.9	-32.7	5.3	7.08e-01	0	42	0	0	18	5532
2026-01-01 03:17:55.20	353.17	18.25	-28.9	-32.5	5.3	7.07e-01	0	42	0	0	18	5456
2026-01-01 03:17:56.20	352.99	18.35	-28.9	-32.6	5.3	7.09e-01	0	42	0	0	18	5489
2026-01-01 03:17:57.21	352.80	18.46	-28.9	-32.7	5.3	7.04e-01	0	42	0	0	18	5539
2026-01-01 03:17:58.21	352.61	18.56	-28.9	-32.6	5.3	7.07e-01	0	42	0	0	18	5488
2026-01-01 03:17:59.21	352.42	18.66	-28.9	-32.6	5.3	7.10e-01	0	42	0	0	18	5517
2026-01-01 03:18:00.22	352.23	18.76	-29.0	-32.8	5.3	7.07e-01	0	42	0	0	18	5597
2026-01-01 03:18:01.22	352.04	18.86	-29.1	-32.6	5.3	7.08e-01	0	42	0	0	19	5374
2026-01-01 03:18:02.23	351.85	18.97	-29.1	-33.0	5.3	7.06e-01	0	42	0	0	18	5664
2026-01-01 03:18:03.23	351.65	19.07	-29.1	-33.0	5.4	7.04e-01	0	42	0	0	18	5650
2026-01-01 03:18:04.23	351.46	19.17	-29.1	-33.0	5.4	7.04e-01	0	42	0	0	18	5656
2026-01-01 03:18:05.23	351.26	19.27	-29.2	-32.7	5.3	7.09e-01	0	42	0	0	19	5416
2026-01-01 03:18:06.24	351.06	19.37	-29.2	-32.8	5.3	7.07e-01	0	42	0	0	19	5453
2026-01-01 03:18:07.24	350.86	19.48	-29.1	-32.9	5.3	7.07e-01	0	42	0	0	18	5636
2026-01-01 03:18:08.25	350.66	19.58	-29.1	-32.5	5.3	7.04e-01	0	42	0	0	19	5344
2026-01-01 03:18:09.25	350.46	19.68	-29.0	-32.3	5.3	7.06e-01	0	42	0	0	19	5268
2026-01-01 03:18:10.26	350.25	19.79	-29.0	-32.8	5.3	7.04e-01	0	42	0	0	18	5581
2026-01-01 03:18:11.27	350.05	19.89	-29.0	-32.9	5.3	7.07e-01	0	42	0	0	18	5603
2026-01-01 03:18:12.27	349.84	19.99	-29.0	-32.9	5.3	7.10e-01	0	42	0	0	18	5623
2026-01-01 03:18:13.27	349.63	20.10	-29.1	-32.6	5.3	7.06e-01	0	43	0	0	19	5389
2026-01-01 03:18:14.27	349.42	20.20	-29.3	-33.2	5.3	7.04e-01	0	42	0	0	19	5618
2026-01-01 03:18:15.28	349.21	20.30	-29.5	-33.6	5.3	7.11e-01	0	42	0	0	19	5768
2026-01-01 03:18:16.28	348.99	20.41	-29.3	-33.1	5.3	7.06e-01	0	42	0	0	19	5576
2026-01-01 03:18:17.29	348.78	20.51	-29.2	-32.7	5.3	7.06e-01	0	42	0	0	19	5422
2026-01-01 03:18:18.30	348.56	20.61	-29.1	-32.6	5.3	7.09e-01	0	42	0	0	19	5361
2026-01-01 03:18:19.31	348.34	20.72	-29.1	-32.5	5.3	7.03e-01	0	42	0	0	19	5353
2026-01-01 03:18:20.31	348.12	20.82	-29.1	-32.6	5.3	7.05e-01	0	42	0	0	19	5360
2026-01-01 03:18:21.31	347.90	20.93	-29.2	-32.7	5.3	7.05e-01	0	42	0	0	19	5424
2026-01-01 03:18:22.32	347.68	21.03	-29.2	-32.9	5.3	7.04e-01	0	42	0	0	19	5495
2026-01-01 03:18:23.32	347.45	21.13	-29.2	-32.7	5.3	7.05e-01	0	42	0	0	19	5409
2026-01-01 03:18:24.32	347.23	21.24	-29.1	-32.6	5.3	7.06e-01	0	43	0	0	19	5364
2026-01-01 03:18:25.33	347.00	21.34	-29.1	-32.6	5.3	7.05e-01	0	42	0	0	19	5379
2026-01-01 03:18:26.33	346.77	21.44	-29.1	-32.5	5.3	7.06e-01	0	42	0	0	19	5342
2026-01-01 03:18:27.33	346.54	21.55	-29.1	-32.6	5.3	7.08e-01	0	42	0	0	19	5385
2026-01-01 03:18:28.33	346.31	21.65	-29.1	-32.6	5.3	7.05e-01	0	42	0	0	19	5381
2026-01-01 03:18:29.34	346.07	21.76	-29.1	-33.0	5.3	7.05e-01	0	43	0	0	18	5658
2026-01-01 03:18:30.34	345.84	21.86	-29.2	-32.8	5.3	7.06e-01	0	43	0	0	19	5469
2026-01-01 03:18:31.35	345.60	21.96	-29.3	-33.1	5.3	7.07e-01	0	42	0	0	19	5556
2026-01-01 03:18:32.36	345.36	22.07	-29.2	-32.7	5.3	7.07e-01	0	42	0	0	19	5426
2026-01-01 03:18:33.36	345.12	22.17	-29.2	-32.8	5.3	7.09e-01	0	43	0	0	19	5452
2026-01-01 03:18:34.37	344.87	22.27	-29.3	-33.1	5.3	7.10e-01	0	42	0	0	19	5559
2026-01-01 03:18:35.37	344.63	22.38	-29.3	-33.2	5.3	7.06e-01	0	43	0	0	19	5588
2026-01-01 03:18:36.37	344.38	22.48	-29.4	-33.3	5.3	7.06e-01	0	43	0	0	19	5626
2026-01-01 03:18:37.37	344.14	22.58	-29.3	-33.0	5.3	7.08e-01	0	42	0	0	19	5544
2026-01-01 03:18:38.37	343.89	22.69	-29.3	-32.9	5.3	7.06e-01	0	42	0	0	19	5500
2026-01-01 03:18:39.38	343.63	22.79	-29.2	-32.8	5.3	7.06e-01	0	42	0	0	19	5441
2026-01-01 03:18:40.39	343.38	22.89	-29.3	-32.9	5.3	7.05e-01	0	43	0	0	19	5496
2026-01-01 03:18:41.39	343.12	23.00	-29.3	-33.0	5.3	7.07e-01	0	43	0	0	19	5523
2026-01-01 03:18:42.39	342.87	23.10	-29.2	-32.7	5.3	7.08e-01	0	42	0	0	19	5400
2026-01-01 03:18:43.40	342.61	23.20	-29.1	-32.6	5.3	7.04e-01	0	42	0	0	19	5360
2026-01-01 03:18:44.40	342.35	23.30	-29.2	-32.7	5.3	7.08e-01	0	43	0	0	19	5425
2026-01-01 03:18:45.40	342.09	23.40	-29.2	-32.9	5.3	7.08e-01	0	43	0	0	19	5484
2026-01-01 03:18:46.41	341.82	23.51	-29.2	-32.8	5.3	7.06e-01	0	42	0	0	19	5449
2026-01-01 03:18:47.41	341.56	23.61	-29.2	-32.7	5.3	7.07e-01	0	43	0	0	19	5397
2026-01-01 03:18:48.41	341.29	23.71	-29.1	-32.6	5.3	7.07e-01	0	42	0	0	19	5347
2026-01-01 03:18:49.42	341.02	23.81	-29.1	-32.6	5.3	7.10e-01	0	43	0	0	19	5380
2026-01-01 03:18:50.41	340.75	23.91	-29.2	-32.8	5.3	7.06e-01	0	43	0	0	19	5447
2026-01-01 03:18:51.42	340.48	24.01	-29.3	-33.0	5.3	7.05e-01	0	42	0	0	19	5502
2026-01-01 03:18:52.42	340.20	24.11	-29.3	-33.0	5.3	7.05e-01	0	43	0	0	19	5506
2026-01-01 03:18:53.42	339.93	24.21	-29.3	-33.0	5.3	7.08e-01	0	42	0	0	19	5535
2026-01-01 03:18:54.43	339.65	24.31	-29.4	-33.2	5.3	7.06e-01	0	42	0	0	19	5595
2026-01-01 03:18:55.43	339.37	24.41	-29.3	-33.1	5.3	7.10e-01	0	43	0	0	19	5564
2026-01-01 03:18:56.43	339.08	24.51	-29.3	-32.9	5.4	7.05e-01	0	42	0	0	19	5475
2026-01-01 03:18:57.43	338.80	24.61	-29.2	-32.7	5.3	7.10e-01	0	43	0	0	19	5410
2026-01-01 03:18:58.44	338.51	24.71	-29.2	-32.9	5.4	7.04e-01	0	43	0	0	19	5471
2026-01-01 03:18:59.44	338.22	24.81	-29.3	-33.0	5.3	7.09e-01	0	43	0	0	19	5513
2026-01-01 03:19:00.45	337.93	24.91	-29.4	-33.3	5.3	7.08e-01	0	43	0	0	19	5644
2026-01-01 03:19:01.45	337.64	25.00	-29.2	-32.8	5.3	7.03e-01	0	43	0	0	19	5457
2026-01-01 03:19:02.46	337.35	25.10	-29.1	-32.6	5.3	7.05e-01	0	43	0	0	19	5351
2026-01-01 03:19:03.47	337.05	25.20	-29.1	-32.6	5.3	7.09e-01	0	43	0	0	19	5353
2026-01-01 03:19:04.47	336.75	25.29	-29.1	-32.4	5.3	7.07e-01	0	42	0	0	19	5300
2026-01-01 03:19:05.47	336.45	25.39	-29.0	-32.9	5.3	7.10e-01	0	42	0	0	18	5601
2026-01-01 03:19:06.48	336.15	25.48	-29.1	-32.4	5.3	7.04e-01	0	43	0	0	19	5272
2026-01-01 03:19:07.48	335.85	25.58	-29.0	-32.9	5.3	7.02e-01	0	43	0	0	18	5597
2026-01-01 03:19:08.48	335.54	25.67	-29.1	-32.9	5.3	7.03e-01	0	43	0	0	18	5608
2026-01-01 03:19:09.48	335.24	25.77	-28.9	-32.5	5.3	7.08e-01	0	43	0	0	18	5459
2026-01-01 03:19:10.49	334.92	25.86	-28.9	-32.5	5.3	7.07e-01	0	42	0	0	18	5427
2026-01-01 03:19:11.49	334.61	25.95	-28.9	-32.6	5.3	7.08e-01	0	43	0	0	18	5488
2026-01-01 03:19:12.49	334.30	26.04	-29.0	-32.7	5.3	7.09e-01	0	43	0	0	18	5526
2026-01-01 03:19:13.50	333.98	26.14	-28.9	-32.5	5.3	7.10e-01	0	43	0	0	18	5436
2026-01-01 03:19:14.50	333.67	26.23	-28.9	-32.6	5.3	7.07e-01	0	43	0	0	18	5485
2026-01-01 03:19:15.51	333.35	26.32	-29.1	-32.9	5.3	7.07e-01	0	42	0	0	18	5601
2026-01-01 03:19:16.51	333.03	26.41	-29.0	-32.7	5.4	7.07e-01	0	43	0	0	18	5519
2026-01-01 03:19:17.52	332.70	26.50	-28.9	-32.6	5.3	7.09e-01	0	43	0	0	18	5466
2026-01-01 03:19:18.52	332.38	26.59	-28.9	-32.7	5.3	7.07e-01	0	42	0	0	18	5559
2026-01-01 03:19:19.52	332.05	26.67	-28.9	-32.5	5.3	7.07e-01	0	43	0	0	18	5451
2026-01-01 03:19:20.52	331.73	26.76	-29.0	-32.7	5.3	7.07e-01	0	42	0	0	18	5504
2026-01-01 03:19:21.53	331.39	26.85	-29.0	-32.7	5.3	7.09e-01	0	43	0	0	18	5501
2026-01-01 03:19:22.53	331.06	26.93	-28.9	-32.4	5.3	7.09e-01	0	43	0	0	18	5421
2026-01-01 03:19:23.54	330.73	27.02	-29.0	-32.7	5.3	7.04e-01	0	43	0	0	18	5519
2026-01-01 03:19:24.54	330.39	27.10	-28.9	-32.4	5.3	7.06e-01	0	43	0	0	18	5393
2026-01-01 03:19:25.54	330.06	27.19	-28.8	-32.2	5.3	7.06e-01	0	42	0	0	18	5316
2026-01-01 03:19:26.54	329.72	27.27	-28.8	-32.2	5.4	7.08e-01	0	43	0	0	18	5337
2026-01-01 03:19:27.54	329.38	27.35	-28.9	-32.4	5.3	7.10e-01	0	43	0	0	18	5393
2026-01-01 03:19:28.54	329.04	27.43	-28.7	-32.0	5.3	7.07e-01	0	43	0	0	18	5267
2026-01-01 03:19:29.55	328.69	27.51	-28.8	-32.1	5.4	7.03e-01	0	42	0	0	18	5297
2026-01-01 03:19:30.55	328.34	27.59	-28.7	-31.9	5.3	7.08e-01	0	43	0	0	18	5230
2026-01-01 03:19:31.55	327.99	27.67	-28.8	-32.1	5.4	7.05e-01	0	43	0	0	18	5298
2026-01-01 03:19:32.56	327.64	27.75	-28.8	-32.2	5.4	7.08e-01	0	43	0	0	18	5332
2026-01-01 03:19:33.56	327.29	27.82	-28.9	-32.4	5.3	7.06e-01	0	43	0	0	18	5386
2026-01-01 03:19:34.56	326.94	27.90	-28.7	-32.0	5.3	7.09e-01	0	43	0	0	18	5240
2026-01-01 03:19:35.56	326.58	27.97	-28.7	-31.9	5.3	7.05e-01	0	43	0	0	18	5233
2026-01-01 03:19:36.57	326.22	28.05	-28.7	-31.9	5.3	7.07e-01	0	43	0	0	18	5232
2026-01-01 03:19:37.57	325.87	28.12	-28.7	-31.9	5.3	7.07e-01	0	43	0	0	18	5203
2026-01-01 03:19:38.58	325.50	28.19	-28.8	-32.1	5.3	7.08e-01	0	43	0	0	18	5296
2026-01-01 03:19:39.58	325.14	28.26	-28.7	-31.8	5.3	7.06e-01	0	43	0	0	18	5194
2026-01-01 03:19:40.59	324.77	28.33	-28.7	-31.9	5.3	7.07e-01	0	43	0	0	18	5228
2026-01-01 03:19:41.59	324.41	28.40	-28.7	-31.8	5.3	7.12e-01	0	43	0	0	18	5197
2026-01-01 03:19:42.59	324.04	28.47	-28.7	-31.9	5.3	7.05e-01	0	43	0	0	18	5225
2026-01-01 03:19:43.60	323.67	28.53	-28.7	-31.9	5.3	7.10e-01	0	43	0	0	18	5205
2026-01-01 03:19:44.59	323.31	28.60	-28.7	-31.8	5.3	7.07e-01	0	43	0	0	18	5193
2026-01-01 03:19:45.60	322.93	28.66	-28.7	-32.0	5.3	7.08e-01	0	43	0	0	18	5266
2026-01-01 03:19:46.60	322.56	28.72	-28.8	-32.1	5.3	7.10e-01	0	42	0	0	18	5304
2026-01-01 03:19:47.60	322.19	28.79	-28.8	-32.1	5.3	7.05e-01	0	43	0	0	18	5269
2026-01-01 03:19:48.60	321.81	28.85	-29.0	-32.7	5.3	7.06e-01	0	43	0	0	18	5511
2026-01-01 03:19:49.61	321.43	28.91	-28.9	-32.4	5.3	7.11e-01	0	43	0	0	18	5402
2026-01-01 03:19:50.61	321.05	28.96	-28.9	-32.4	5.3	7.08e-01	0	43	0	0	18	5383
2026-01-01 03:19:51.61	320.67	29.02	-28.9	-32.4	5.3	7.10e-01	0	43	0	0	18	5384
2026-01-01 03:19:52.61	320.29	29.07	-28.7	-32.1	5.3	7.08e-01	0	43	0	0	18	5276
2026-01-01 03:19:53.61	319.91	29.13	-28.8	-32.2	5.3	7.08e-01	0	43	0	0	18	5326
2026-01-01 03:19:54.62	319.52	29.18	-28.7	-32.0	5.3	7.03e-01	0	43	0	0	18	5236
2026-01-01 03:19:55.62	319.13	29.23	-28.7	-32.1	5.3	7.06e-01	0	43	0	0	18	5273
2026-01-01 03:19:56.62	318.75	29.28	-28.9	-32.4	5.3	7.04e-01	0	43	0	0	18	5414
2026-01-01 03:19:57.61	318.36	29.33	-28.7	-31.9	5.3	7.06e-01	0	43	0	0	18	5220
2026-01-01 03:19:58.62	317.97	29.38	-28.7	-31.8	5.3	7.02e-01	0	43	0	0	18	5183
2026-01-01 03:19:59.63	317.58	29.43	-28.6	-31.8	5.3	7.07e-01	0	43	0	0	18	5167
2026-01-01 03:20:00.62	317.19	29.47	-28.5	-31.9	5.3	7.05e-01	0	43	0	0	17	5338
2026-01-01 03:20:01.62	316.80	29.51	-28.6	-31.7	5.3	7.05e-01	0	43	0	0	18	5143
2026-01-01 03:20:02.62	316.40	29.56	-28.6	-32.2	5.3	7.08e-01	0	43	0	0	17	5439
2026-01-01 03:20:03.63	316.00	29.60	-28.5	-31.9	5.3	7.01e-01	0	43	0	0	17	5351
2026-01-01 03:20:04.64	315.60	29.64	-28.5	-32.0	5.3	7.05e-01	0	43	0	0	17	5378
2026-01-01 03:20:05.64	315.21	29.67	-28.6	-31.7	5.3	7.08e-01	0	43	0	0	18	5144
2026-01-01 03:20:06.65	314.81	29.71	-28.7	-31.8	5.3	7.05e-01	0	43	0	0	18	5188
2026-01-01 03:20:07.65	314.41	29.75	-28.6	-31.7	5.3	7.06e-01	0	43	0	0	18	5126
2026-01-01 03:20:08.64	314.01	29.78	-28.4	-31.7	5.3	7.06e-01	0	43	0	0	17	5269
2026-01-01 03:20:09.65	313.61	29.81	-28.7	-32.0	5.3	7.07e-01	0	43	0	0	18	5251
2026-01-01 03:20:10.66	313.20	29.84	-28.9	-32.4	5.3	7.06e-01	0	43	0	0	18	5405
2026-01-01 03:20:11.66	312.80	29.87	-28.7	-31.9	5.3	7.08e-01	0	42	0	0	18	5205
2026-01-01 03:20:12.66	312.40	29.90	-29.0	-32.1	5.3	7.04e-01	0	43	0	0	19	5160
2026-01-01 03:20:13.66	311.99	29.92	-29.5	-33.6	5.3	7.08e-01	0	43	0	0	19	5740
2026-01-01 03:20:14.66	311.59	29.95	-28.9	-32.0	5.3	7.04e-01	0	43	0	0	19	5124
2026-01-01 03:20:15.67	311.18	29.97	-28.7	-31.3	5.3	7.04e-01	0	43	0	0	19	4885
2026-01-01 03:20:16.67	310.78	29.99	-29.3	-32.9	5.3	7.06e-01	0	42	0	0	19	5447
2026-01-01 03:20:17.67	310.37	30.01	-29.2	-32.8	5.3	7.05e-01	0	43	0	0	19	5412
2026-01-01 03:20:18.68	309.96	30.03	-28.4	-31.1	5.3	7.04e-01	0	43	0	0	18	4910
2026-01-01 03:20:19.68	309.55	30.05	-28.5	-30.8	5.3	7.06e-01	0	43	0	0	19	4722
2026-01-01 03:20:20.68	309.15	30.06	-29.2	-32.7	5.3	7.05e-01	0	43	0	0	19	5383
2026-01-01 03:20:21.69	308.73	30.08	-28.7	-32.0	5.3	7.08e-01	0	43	0	0	18	5236
2026-01-01 03:20:22.70	308.32	30.09	-28.1	-30.6	5.3	7.09e-01	0	43	0	0	18	4749
2026-01-01 03:20:23.70	307.91	30.10	-28.8	-31.6	5.3	7.03e-01	0	43	0	0	19	5002
2026-01-01 03:20:24.71	307.50	30.11	-29.2	-32.7	5.2	7.07e-01	0	43	0	0	19	5387
2026-01-01 03:20:25.70	307.10	30.11	-28.4	-31.1	5.3	7.04e-01	0	43	0	0	18	4931
2026-01-01 03:20:26.70	306.69	30.12	-28.3	-30.9	5.3	7.08e-01	0	43	0	0	18	4881
2026-01-01 03:20:27.69	306.28	30.12	-29.0	-32.7	5.3	7.06e-01	0	43	0	0	18	5507
2026-01-01 03:20:28.69	305.87	30.12	-28.6	-31.8	5.3	7.02e-01	0	43	0	0	18	5171
2026-01-01 03:20:29.69	305.47	30.13	-28.6	-31.7	5.3	7.06e-01	0	43	0	0	18	5126
2026-01-01 03:20:30.69	305.06	30.12	-29.4	-33.1	5.3	7.04e-01	0	43	0	0	19	5555
2026-01-01 03:20:31.69	304.65	30.12	-28.4	-31.3	5.3	7.06e-01	0	43	0	0	18	4981
2026-01-01 03:20:32.70	304.23	30.12	-28.1	-30.5	5.3	7.05e-01	0	43	0	0	18	4717
2026-01-01 03:20:33.70	303.83	30.11	-29.4	-32.9	5.3	7.04e-01	0	43	0	0	20	5358
2026-01-01 03:20:34.70	303.42	30.10	-29.3	-32.9	5.3	7.06e-01	0	43	0	0	19	5479
2026-01-01 03:20:35.70	303.01	30.10	-28.8	-32.0	5.3	7.06e-01	0	43	0	0	18	5257
2026-01-01 03:20:36.70	302.60	30.09	-29.2	-32.6	5.3	7.05e-01	0	43	0	0	19	5358
2026-01-01 03:20:37.71	302.19	30.07	-28.8	-31.6	5.3	7.07e-01	0	43	0	0	19	4967
2026-01-01 03:20:38.71	301.78	30.06	-28.7	-31.4	5.3	7.05e-01	0	43	0	0	19	4919
2026-01-01 03:20:39.71	301.37	30.04	-29.0	-32.2	5.3	7.06e-01	0	43	0	0	19	5204
2026-01-01 03:20:40.71	300.97	30.03	-28.8	-32.3	5.3	7.09e-01	0	43	0	0	18	5343
2026-01-01 03:20:41.72	300.56	30.01	-29.3	-33.0	5.3	7.08e-01	0	43	0	0	19	5515
2026-01-01 03:20:42.71	300.15	29.99	-28.8	-32.2	5.3	7.06e-01	0	43	0	0	18	5317
2026-01-01 03:20:43.72	299.74	29.97	-28.8	-31.6	5.3	7.04e-01	0	43	0	0	19	4989
2026-01-01 03:20:44.72	299.34	29.94	-29.5	-33.4	5.3	7.08e-01	0	43	0	0	19	5655
2026-01-01 03:20:45.73	298.93	29.92	-29.2	-32.7	5.3	7.04e-01	0	43	0	0	19	5381
2026-01-01 03:20:46.73	298.53	29.89	-28.9	-31.9	5.3	7.08e-01	0	43	0	0	19	5077
2026-01-01 03:20:47.73	298.12	29.87	-28.7	-31.9	5.3	7.06e-01	0	43	0	0	18	5209
2026-01-01 03:20:48.73	297.72	29.84	-28.8	-31.8	5.3	7.09e-01	0	43	0	0	19	5039
2026-01-01 03:20:49.73	297.32	29.81	-29.3	-33.0	5.3	7.06e-01	0	43	0	0	19	5511
2026-01-01 03:20:50.73	296.92	29.77	-28.7	-31.3	5.3	7.06e-01	0	43	0	0	19	4883
2026-01-01 03:20:51.73	296.52	29.74	-28.9	-31.9	5.3	7.04e-01	0	43	0	0	19	5103
2026-01-01 03:20:52.73	296.12	29.71	-29.1	-32.6	5.3	7.09e-01	0	43	0	0	19	5361
2026-01-01 03:20:53.73	295.72	29.67	-28.6	-31.1	5.3	7.07e-01	0	43	0	0	19	4823
2026-01-01 03:20:54.74	295.32	29.63	-29.4	-33.1	5.3	7.06e-01	0	43	0	0	19	5571
2026-01-01 03:20:55.75	294.92	29.59	-28.6	-31.2	5.3	7.09e-01	0	43	0	0	19	4841
2026-01-01 03:20:56.75	294.53	29.55	-28.8	-31.6	5.3	7.04e-01	0	43	0	0	19	4973
2026-01-01 03:20:57.76	294.13	29.51	-29.5	-33.6	5.3	7.08e-01	0	43	0	0	19	5747
2026-01-01 03:20:58.76	293.74	29.46	-29.0	-32.1	5.3	7.07e-01	0	43	0	0	19	5155
2026-01-01 03:20:59.76	293.35	29.42	-28.9	-32.0	5.3	7.05e-01	0	43	0	0	19	5144
2026-01-01 03:21:00.74	292.96	29.37	-29.2	-32.8	5.3	7.07e-01	0	43	0	0	19	5437
2026-01-01 03:21:01.74	292.57	29.32	-28.3	-30.8	5.3	7.03e-01	0	43	0	0	18	4834
2026-01-01 03:21:02.75	292.18	29.28	-29.4	-33.3	5.3	7.07e-01	0	43	0	0	19	5651
2026-01-01 03:21:03.75	291.79	29.22	-28.8	-31.7	5.3	7.07e-01	0	43	0	0	19	5022
2026-01-01 03:21:04.75	291.41	29.17	-29.0	-32.1	5.3	7.08e-01	0	43	0	0	19	5183
2026-01-01 03:21:05.74	291.03	29.12	-29.4	-33.3	5.3	7.05e-01	0	43	0	0	19	5639
2026-01-01 03:21:06.75	290.64	29.07	-28.7	-31.4	5.3	7.04e-01	0	43	0	0	19	4902
2026-01-01 03:21:07.74	290.26	29.01	-29.6	-33.4	5.3	7.08e-01	0	43	0	0	20	5586
2026-01-01 03:21:08.75	289.88	28.95	-28.5	-30.8	5.3	7.08e-01	0	43	0	0	19	4728
2026-01-01 03:21:09.75	289.50	28.89	-29.6	-33.5	5.3	7.05e-01	0	43	0	0	20	5611
2026-01-01 03:21:10.75	289.12	28.84	-29.0	-32.1	5.3	7.04e-01	0	43	0	0	19	5156
2026-01-01 03:21:11.76	288.74	28.77	-29.0	-32.3	5.3	7.05e-01	0	43	0	0	19	5237
2026-01-01 03:21:12.76	288.37	28.71	-29.4	-33.4	5.3	7.06e-01	0	43	0	0	19	5689
2026-01-01 03:21:13.77	287.99	28.65	-28.6	-31.2	5.3	7.05e-01	0	43	0	0	19	4847
2026-01-01 03:21:14.77	287.62	28.58	-29.5	-33.6	5.3	7.07e-01	0	43	0	0	19	5769
2026-01-01 03:21:15.78	287.24	28.52	-28.7	-31.9	5.3	7.09e-01	0	43	0	0	18	5225
2026-01-01 03:21:16.78	286.88	28.45	-29.6	-33.3	5.3	7.03e-01	0	43	0	0	20	5516
2026-01-01 03:21:17.78	286.51	28.39	-29.1	-32.5	5.2	7.05e-01	0	43	0	0	19	5319
2026-01-01 03:21:18.78	286.14	28.32	-29.2	-32.7	5.2	7.05e-01	0	43	0	0	19	5398
2026-01-01 03:21:19.78	285.78	28.25	-28.7	-31.5	5.3	7.07e-01	0	43	0	0	19	4943
2026-01-01 03:21:20.79	285.41	28.18	-29.6	-33.8	5.2	7.02e-01	0	43	0	0	19	5828
2026-01-01 03:21:21.78	285.06	28.10	-29.0	-32.1	5.3	7.05e-01	0	43	0	0	19	5176
2026-01-01 03:21:22.79	284.70	28.03	-29.5	-33.4	5.3	7.06e-01	0	43	0	0	19	5692
2026-01-01 03:21:23.79	284.34	27.96	-29.3	-33.0	5.3	7.03e-01	0	43	0	0	19	5514
2026-01-01 03:21:24.79	283.98	27.88	-29.0	-32.7	5.3	7.07e-01	0	43	0	0	18	5518
2026-01-01 03:21:25.79	283.63	27.81	-29.3	-33.1	5.3	7.07e-01	0	43	0	0	19	5548
2026-01-01 03:21:26.79	283.28	27.73	-29.2	-32.8	5.3	7.04e-01	0	43	0	0	19	5421
2026-01-01 03:21:27.79	282.93	27.65	-29.1	-32.9	5.3	7.04e-01	0	43	0	0	18	5592
2026-01-01 03:21:28.79	282.58	27.57	-29.5	-33.6	5.3	7.08e-01	0	43	0	0	19	5759
2026-01-01 03:21:29.80	282.23	27.49	-29.4	-32.9	5.3	7.07e-01	0	43	0	0	20	5357
2026-01-01 03:21:30.81	281.88	27.41	-29.4	-32.8	5.3	7.07e-01	0	43	0	0	20	5300
2026-01-01 03:21:31.81	281.54	27.33	-29.7	-33.6	5.3	7.04e-01	0	43	0	0	20	5634
2026-01-01 03:21:32.82	281.19	27.25	-29.6	-33.3	5.3	7.08e-01	0	43	0	0	20	5504
2026-01-01 03:21:33.83	280.85	27.17	-30.3	-34.7	5.2	7.05e-01	0	43	0	0	21	5988
2026-01-01 03:21:34.82	280.52	27.08	-30.2	-34.6	5.2	7.07e-01	0	43	0	0	21	5950
2026-01-01 03:21:35.82	280.18	27.00	-29.5	-33.0	5.3	7.06e-01	0	43	0	0	20	5390
2026-01-01 03:21:36.82	279.85	26.91	-29.5	-33.5	5.3	7.07e-01	0	43	0	0	19	5732
2026-01-01 03:21:37.82	279.52	26.83	-29.5	-33.2	5.3	7.06e-01	0	43	0	0	20	5481
2026-01-01 03:21:38.82	279.19	26.74	-29.6	-33.7	5.3	7.09e-01	0	43	0	0	19	5785
2026-01-01 03:21:39.82	278.86	26.65	-29.8	-33.8	5.3	7.07e-01	0	43	0	0	20	5727
2026-01-01 03:21:40.82	278.53	26.57	-29.7	-33.7	5.3	7.07e-01	0	43	0	0	20	5700
2026-01-01 03:21:41.82	278.21	26.48	-29.6	-33.4	5.2	7.07e-01	0	43	0	0	20	5552
2026-01-01 03:21:42.82	277.89	26.39	-29.6	-33.2	5.3	7.09e-01	0	43	0	0	20	5495
2026-01-01 03:21:43.83	277.56	26.30	-30.0	-34.6	5.3	7.03e-01	0	43	0	0	20	6095
2026-01-01 03:21:44.83	277.24	26.21	-29.7	-33.7	5.3	7.07e-01	0	43	0	0	20	5676
2026-01-01 03:21:45.84	276.92	26.11	-30.0	-34.4	5.2	7.05e-01	0	43	0	0	20	5989
2026-01-01 03:21:46.85	276.61	26.02	-30.1	-34.4	5.2	7.07e-01	0	43	0	0	21	5888
2026-01-01 03:21:47.85	276.29	25.93	-29.8	-33.8	5.3	7.07e-01	0	43	0	0	20	5760
2026-01-01 03:21:48.85	275.98	25.84	-29.1	-32.6	5.3	7.09e-01	0	43	0	0	19	5371
2026-01-01 03:21:49.85	275.67	25.74	-29.1	-32.6	5.3	7.05e-01	0	43	0	0	19	5355
2026-01-01 03:21:50.86	275.36	25.65	-29.6	-33.8	5.3	7.07e-01	0	43	0	0	19	5868
2026-01-01 03:21:51.86	275.06	25.55	-29.6	-33.2	5.3	7.07e-01	0	43	0	0	20	5504
2026-01-01 03:21:52.86	274.75	25.46	-29.6	-33.2	5.3	7.06e-01	0	43	0	0	20	5496
2026-01-01 03:21:53.86	274.45	25.36	-30.1	-34.3	5.2	7.06e-01	0	43	0	0	21	5827
2026-01-01 03:21:54.87	274.15	25.27	-30.1	-34.3	5.2	7.08e-01	0	43	0	0	21	5861
2026-01-01 03:21:55.87	273.85	25.17	-30.1	-34.3	5.2	7.08e-01	0	43	0	0	21	5850
2026-01-01 03:21:56.87	273.56	25.07	-30.3	-34.8	5.2	7.05e-01	0	43	0	0	21	6062
2026-01-01 03:21:57.87	273.26	24.98	-30.1	-34.2	5.2	7.07e-01	0	43	0	0	21	5800
2026-01-01 03:21:58.87	272.97	24.88	-30.4	-35.2	5.2	7.10e-01	0	43	0	0	21	6269
2026-01-01 03:21:59.87	272.68	24.78	-30.3	-34.9	5.2	7.08e-01	0	43	0	0	21	6128
2026-01-01 03:22:00.87	272.39	24.68	-30.1	-34.2	5.2	7.08e-01	0	43	0	0	21	5772
2026-01-01 03:22:01.87	272.11	24.58	-29.9	-33.7	5.2	7.05e-01	0	43	0	0	21	5582
2026-01-01 03:22:02.87	271.82	24.49	-29.9	-34.2	5.2	7.06e-01	0	43	0	0	20	5930
2026-01-01 03:22:03.88	271.54	24.38	-30.1	-34.7	5.2	7.06e-01	0	43	0	0	20	6157
2026-01-01 03:22:04.89	271.25	24.28	-30.1	-34.8	5.2	7.04e-01	0	43	0	0	20	6194
2026-01-01 03:22:05.89	270.97	24.18	-30.3	-34.9	5.2	7.07e-01	0	43	0	0	21	6091
2026-01-01 03:22:06.89	270.70	24.08	-30.6	-35.3	5.2	7.11e-01	0	43	0	0	22	6186
2026-01-01 03:22:07.89	270.42	23.98	-30.3	-34.5	5.2	7.06e-01	0	43	104	0	22	5806
2026-01-01 03:22:08.89	270.15	23.88	-30.0	-33.4	17.9	6.00e-01	0	43	104	0	21	5309
2026-01-01 03:22:09.90	269.88	23.78	-29.7	-32.4	18.5	6.05e-01	0	43	0	1572864	21	4949
2026-01-01 03:22:10.91	269.60	23.68	-29.4	-31.8	19.0	6.04e-01	0	43	0	3145728	21	4720
2026-01-01 03:22:11.91	269.34	23.58	-29.3	-32.0	19.2	6.04e-01	0	43	0	5242880	20	4884
2026-01-01 03:22:12.92	269.07	23.47	-29.5	-32.8	19.1	6.04e-01	0	43	0	7340032	19	5280
2026-01-01 03:22:13.92	268.80	23.37	-29.4	-32.5	19.2	6.04e-01	0	43	0	8912896	19	5168
2026-01-01 03:22:14.92	268.54	23.27	-29.4	-32.8	19.1	6.05e-01	0	43	0	11010048	19	5272
2026-01-01 03:22:15.91	268.28	23.17	-29.5	-32.9	19.0	6.03e-01	0	43	0	12582912	19	5313
2026-01-01 03:22:16.90	268.03	23.07	-29.5	-33.0	18.9	6.03e-01	0	43	0	14680064	19	5378
2026-01-01 03:22:17.91	267.77	22.96	-29.6	-32.7	18.7	6.02e-01	0	43	0	16777216	20	5163
2026-01-01 03:22:18.91	267.51	22.86	-29.8	-33.2	18.4	6.04e-01	0	43	0	18350080	20	5341
2026-01-01 03:22:19.92	267.26	22.76	-29.5	-32.5	18.8	6.01e-01	0	43	0	20447232	20	5078
2026-01-01 03:22:20.92	267.00	22.65	-29.7	-33.1	18.5	6.05e-01	0	43	0	22020096	20	5307
2026-01-01 03:22:21.93	266.75	22.55	-29.6	-32.7	18.7	6.01e-01	0	43	0	24117248	20	5136
2026-01-01 03:22:22.93	266.50	22.45	-29.5	-32.8	19.0	6.04e-01	0	43	0	26214400	19	5300
2026-01-01 03:22:23.93	266.26	22.34	-29.5	-32.6	18.8	6.02e-01	0	43	0	27787264	20	5101
2026-01-01 03:22:24.94	266.01	22.24	-29.5	-32.9	19.0	6.03e-01	0	43	0	29884416	19	5318
2026-01-01 03:22:25.94	265.77	22.13	-29.5	-32.9	19.0	6.02e-01	0	43	0	31457280	19	5315
2026-01-01 03:22:26.94	265.53	22.03	-29.4	-32.6	19.1	6.01e-01	0	43	0	33554432	19	5202
2026-01-01 03:22:27.95	265.28	21.93	-29.4	-32.6	19.2	6.01e-01	0	43	0	35127296	19	5213
2026-01-01 03:22:28.95	265.05	21.82	-29.3	-32.3	19.3	6.02e-01	0	43	0	37224448	19	5117
2026-01-01 03:22:29.95	264.81	21.72	-29.2	-32.2	19.4	6.02e-01	0	43	0	39321600	19	5072
2026-01-01 03:22:30.96	264.57	21.61	-29.4	-32.6	19.1	6.04e-01	0	43	0	40894464	19	5231
2026-01-01 03:22:31.96	264.34	21.51	-29.2	-32.1	19.4	6.02e-01	0	43	0	42991616	19	5050
2026-01-01 03:22:32.96	264.11	21.41	-29.0	-31.7	19.6	6.02e-01	0	43	0	44564480	19	4904
2026-01-01 03:22:33.97	263.88	21.30	-29.0	-32.1	19.7	6.06e-01	0	43	0	46661632	18	5155
2026-01-01 03:22:34.97	263.65	21.20	-29.1	-32.3	19.6	6.04e-01	0	43	0	48758784	18	5225
2026-01-01 03:22:35.97	263.42	21.09	-29.1	-32.3	19.5	6.04e-01	0	43	0	50331648	18	5237
2026-01-01 03:22:36.97	263.20	20.99	-29.0	-32.2	19.6	6.00e-01	0	43	0	52428800	18	5191
2026-01-01 03:22:37.97	262.98	20.88	-28.9	-32.0	19.7	6.03e-01	0	43	0	54001664	18	5107
2026-01-01 03:22:38.97	262.76	20.78	-29.0	-32.2	19.6	6.04e-01	0	43	0	56098816	18	5201
2026-01-01 03:22:39.97	262.54	20.68	-28.9	-31.9	19.8	6.02e-01	0	43	0	58195968	18	5102
2026-01-01 03:22:40.98	262.31	20.57	-29.0	-32.1	19.7	6.01e-01	0	43	0	59768832	18	5155
2026-01-01 03:22:41.98	262.10	20.47	-29.0	-32.2	19.6	6.00e-01	0	43	0	61865984	18	5180
2026-01-01 03:22:42.98	261.88	20.37	-29.0	-32.3	19.5	6.02e-01	0	43	0	63438848	18	5234
2026-01-01 03:22:43.98	261.67	20.26	-29.2	-32.2	19.3	6.01e-01	0	43	0	65536000	19	5078
2026-01-01 03:22:44.98	261.46	20.16	-29.4	-32.9	18.9	6.03e-01	0	43	0	67108864	19	5331
2026-01-01 03:22:45.98	261.25	20.05	-29.2	-32.3	19.2	6.06e-01	0	43	0	69206016	19	5121
2026-01-01 03:22:46.98	261.04	19.95	-29.0	-31.8	19.5	6.02e-01	0	43	0	71303168	19	4931
2026-01-01 03:22:47.99	260.83	19.85	-28.9	-31.8	19.8	6.02e-01	0	43	0	72876032	18	5072
2026-01-01 03:22:48.99	260.62	19.74	-28.9	-31.9	19.8	6.02e-01	0	43	0	74973184	18	5079
2026-01-01 03:22:50.00	260.41	19.64	-29.1	-32.4	19.4	6.02e-01	0	43	0	76546048	18	5273
2026-01-01 03:22:51.00	260.21	19.54	-29.0	-32.2	19.5	6.02e-01	0	43	0	78643200	18	5223
2026-01-01 03:22:52.00	260.01	19.43	-29.2	-32.3	19.2	6.03e-01	0	43	0	80216064	19	5120
2026-01-01 03:22:53.00	259.81	19.33	-29.5	-33.0	18.8	6.05e-01	0	43	0	82313216	19	5399
2026-01-01 03:22:54.00	259.61	19.23	-29.2	-32.2	19.2	6.04e-01	0	43	0	84410368	19	5106
2026-01-01 03:22:55.01	259.41	19.13	-29.0	-31.7	19.6	6.03e-01	0	43	0	85983232	19	4904
2026-01-01 03:22:56.01	259.22	19.02	-28.9	-32.1	19.6	6.04e-01	0	43	0	88080384	18	5155
2026-01-01 03:22:57.02	259.02	18.92	-29.0	-32.3	19.5	6.05e-01	0	43	0	89653248	18	5240
2026-01-01 03:22:58.02	258.83	18.82	-29.0	-32.2	19.6	6.02e-01	0	43	0	91750400	18	5191
2026-01-01 03:22:59.02	258.63	18.72	-29.0	-32.2	19.6	6.02e-01	0	43	0	93847552	18	5194
2026-01-01 03:23:00.02	258.44	18.61	-29.1	-32.0	19.3	6.01e-01	0	43	0	95420416	19	5021
2026-01-01 03:23:01.01	258.26	18.51	-29.0	-31.6	19.6	6.05e-01	0	43	0	97517568	19	4889
2026-01-01 03:23:02.01	258.07	18.41	-28.9	-31.5	19.7	6.03e-01	0	43	0	99090432	19	4833
2026-01-01 03:23:03.02	257.88	18.31	-28.9	-31.6	19.6	6.04e-01	0	43	0	101187584	19	4865
2026-01-01 03:23:04.02	257.69	18.21	-28.9	-31.6	19.6	6.05e-01	0	43	0	102760448	19	4870
2026-01-01 03:23:05.02	257.51	18.11	-28.9	-31.6	19.6	6.02e-01	0	43	0	104857600	19	4873
2026-01-01 03:23:06.02	257.33	18.01	-28.9	-32.1	19.6	6.04e-01	0	43	0	106954752	18	5169
2026-01-01 03:23:07.02	257.15	17.90	-28.9	-32.0	19.6	6.00e-01	0	43	0	108527616	18	5122
2026-01-01 03:23:08.03	256.97	17.80	-29.0	-32.2	19.5	6.02e-01	0	43	0	110624768	18	5212
2026-01-01 03:23:09.03	256.79	17.70	-29.2	-32.2	18.7	6.03e-01	0	43	0	112197632	19	5082
2026-01-01 03:23:10.03	256.61	17.60	-29.3	-32.6	18.9	6.05e-01	0	43	0	114294784	19	5258
2026-01-01 03:23:11.04	256.43	17.50	-29.2	-32.4	17.4	6.05e-01	0	43	0	116391936	19	5166
2026-01-01 03:23:12.04	256.26	17.40	-29.1	-32.1	17.0	6.12e-01	0	43	0	117964800	19	5071
2026-01-01 03:23:13.04	256.08	17.30	-29.2	-32.3	19.0	6.01e-01	0	43	0	120061952	19	5145
2026-01-01 03:23:14.04	255.91	17.20	-29.4	-32.8	16.9	6.04e-01	0	43	0	121634816	19	5313
2026-01-01 03:23:15.04	255.74	17.10	-29.3	-32.5	17.2	6.04e-01	0	43	0	123731968	19	5204
2026-01-01 03:23:16.04	255.57	17.00	-29.5	-33.1	18.5	6.03e-01	0	43	0	125304832	19	5434
2026-01-01 03:23:17.04	255.40	16.91	-29.3	-32.6	18.8	6.02e-01	0	43	0	127401984	19	5233
2026-01-01 03:23:18.04	255.23	16.81	-29.2	-32.3	18.9	6.01e-01	0	43	0	129499136	19	5132
2026-01-01 03:23:19.04	255.07	16.71	-29.1	-32.1	19.1	6.03e-01	0	43	0	131072000	19	5069
2026-01-01 03:23:20.04	254.90	16.61	-29.2	-32.3	19.0	6.02e-01	0	43	0	133169152	19	5123
2026-01-01 03:23:21.05	254.74	16.51	-29.2	-32.4	19.0	6.04e-01	0	43	0	134742016	19	5173
2026-01-01 03:23:22.05	254.57	16.41	-29.3	-32.6	18.9	6.04e-01	0	43	0	136839168	19	5247
2026-01-01 03:23:23.05	254.41	16.32	-29.2	-32.2	19.1	6.03e-01	0	43	0	138936320	19	5105
2026-01-01 03:23:24.05	254.25	16.22	-29.2	-32.3	19.0	6.03e-01	0	43	0	140509184	19	5139
2026-01-01 03:23:25.06	254.09	16.12	-29.4	-32.8	18.7	6.05e-01	0	43	0	142606336	19	5315
2026-01-01 03:23:26.06	253.93	16.02	-29.0	-32.4	19.2	6.01e-01	0	43	0	144179200	18	5304
2026-01-01 03:23:27.07	253.77	15.92	-28.9	-32.0	19.5	6.02e-01	0	43	0	146276352	18	5152
2026-01-01 03:23:28.07	253.62	15.83	-29.1	-32.5	19.2	6.02e-01	0	43	0	148373504	18	5345
2026-01-01 03:23:29.08	253.46	15.73	-29.0	-32.3	19.3	6.02e-01	0	43	0	149946368	18	5247
2026-01-01 03:23:30.07	253.31	15.64	-29.2	-32.3	19.0	6.04e-01	0	43	0	152043520	19	5142
2026-01-01 03:23:31.08	253.15	15.54	-29.4	-32.8	18.6	6.04e-01	0	43	0	153616384	19	5350
2026-01-01 03:23:32.09	253.00	15.44	-29.2	-32.3	18.9	6.03e-01	0	43	0	155713536	19	5156
2026-01-01 03:23:33.08	252.85	15.35	-29.1	-32.5	19.2	6.03e-01	0	43	0	157286400	18	5333
2026-01-01 03:23:34.09	252.70	15.25	-29.1	-32.1	19.1	6.01e-01	0	43	0	159383552	19	5077
2026-01-01 03:23:35.09	252.55	15.16	-29.1	-32.5	19.1	6.02e-01	0	43	0	161480704	18	5337
2026-01-01 03:23:36.09	252.40	15.06	-28.9	-32.1	19.4	6.03e-01	0	43	0	163053568	18	5183
2026-01-01 03:23:37.09	252.25	14.97	-29.0	-32.4	19.1	6.02e-01	0	43	0	165150720	18	5302
2026-01-01 03:23:38.09	252.11	14.87	-28.9	-32.0	19.4	6.04e-01	0	43	0	166723584	18	5145
2026-01-01 03:23:39.10	251.96	14.78	-28.8	-31.8	19.5	6.01e-01	0	43	0	168820736	18	5090
2026-01-01 03:23:40.10	251.82	14.68	-28.9	-32.0	19.3	6.04e-01	0	43	0	170393600	18	5151
2026-01-01 03:23:41.11	251.67	14.59	-29.0	-32.2	19.2	6.04e-01	0	43	0	172490752	18	5245
2026-01-01 03:23:42.12	251.53	14.49	-29.0	-32.3	19.1	6.03e-01	0	43	0	174587904	18	5296
2026-01-01 03:23:43.12	251.39	14.40	-29.0	-32.4	19.1	6.03e-01	0	43	0	176160768	18	5302
2026-01-01 03:23:44.13	251.25	14.31	-29.0	-32.5	19.0	6.03e-01	0	43	0	178257920	18	5339
2026-01-01 03:23:45.13	251.11	14.21	-28.9	-32.1	19.3	6.03e-01	0	43	0	180355072	18	5212
2026-01-01 03:23:46.13	250.97	14.12	-28.9	-32.1	19.3	6.01e-01	0	43	0	181927936	18	5193
2026-01-01 03:23:47.13	250.83	14.03	-28.9	-32.1	19.3	6.02e-01	0	43	0	184025088	18	5204
2026-01-01 03:23:48.14	250.70	13.94	-28.8	-31.7	19.5	6.01e-01	0	43	0	185597952	18	5062
2026-01-01 03:23:49.14	250.56	13.84	-28.8	-31.9	19.4	6.03e-01	0	43	0	187695104	18	5114
2026-01-01 03:23:50.14	250.43	13.75	-28.9	-32.2	19.2	6.02e-01	0	43	0	189267968	18	5230
2026-01-01 03:23:51.14	250.29	13.66	-28.9	-32.1	19.3	6.00e-01	0	43	0	191365120	18	5207
2026-01-01 03:23:52.15	250.16	13.57	-29.0	-32.5	19.0	6.04e-01	0	43	0	193462272	18	5339
2026-01-01 03:23:53.14	250.03	13.48	-29.0	-32.3	19.1	6.02e-01	0	43	0	195035136	18	5295
2026-01-01 03:23:54.15	249.90	13.39	-29.1	-32.2	18.9	6.05e-01	0	43	0	197132288	19	5120
2026-01-01 03:23:55.16	249.77	13.30	-29.0	-32.4	19.1	6.02e-01	0	43	0	198705152	18	5314
2026-01-01 03:23:56.16	249.64	13.21	-29.0	-32.5	19.0	6.02e-01	0	43	0	200802304	18	5351
2026-01-01 03:23:57.15	249.51	13.12	-29.1	-32.2	18.9	6.03e-01	0	43	0	202375168	19	5126
2026-01-01 03:23:58.15	249.38	13.03	-29.3	-32.5	18.7	6.01e-01	0	43	0	204472320	19	5257
2026-01-01 03:23:59.16	249.26	12.94	-29.1	-32.6	18.9	6.03e-01	0	43	0	206569472	18	5391
2026-01-01 03:24:00.16	249.13	12.85	-29.3	-32.6	18.6	6.02e-01	0	43	0	208142336	19	5278
2026-01-01 03:24:01.16	249.01	12.76	-29.5	-33.2	18.2	6.06e-01	0	43	0	210239488	19	5514
2026-01-01 03:24:02.17	248.88	12.67	-29.2	-32.5	18.6	6.03e-01	0	43	0	211812352	19	5263
2026-01-01 03:24:03.17	248.76	12.58	-29.2	-32.5	18.6	6.03e-01	0	43	0	213909504	19	5238
2026-01-01 03:24:04.18	248.63	12.49	-29.2	-32.5	18.6	6.02e-01	0	43	0	216006656	19	5238
2026-01-01 03:24:05.18	248.51	12.40	-29.3	-32.6	18.5	6.00e-01	0	43	0	217579520	19	5306
2026-01-01 03:24:06.19	248.39	12.31	-29.3	-32.9	18.3	6.02e-01	0	43	0	219676672	19	5392
2026-01-01 03:24:07.18	248.27	12.23	-29.3	-32.8	18.4	6.04e-01	0	43	0	221249536	19	5364
2026-01-01 03:24:08.19	248.15	12.14	-29.4	-33.1	18.2	6.05e-01	0	43	0	223346688	19	5513
2026-01-01 03:24:09.19	248.03	12.05	-29.5	-32.9	17.9	6.04e-01	0	43	0	225443840	20	5325
2026-01-01 03:24:10.19	247.91	11.97	-29.4	-32.9	18.3	6.03e-01	0	43	0	227016704	19	5422
2026-01-01 03:24:11.20	247.80	11.88	-29.2	-32.5	18.6	6.03e-01	0	43	0	229113856	19	5254
2026-01-01 03:24:12.20	247.68	11.79	-29.2	-32.4	18.7	6.03e-01	0	43	0	230686720	19	5219
2026-01-01 03:24:13.20	247.56	11.71	-29.3	-32.6	18.5	6.02e-01	0	43	0	232783872	19	5301
2026-01-01 03:24:14.20	247.45	11.62	-29.3	-32.7	18.5	6.01e-01	0	43	0	234356736	19	5336
2026-01-01 03:24:15.21	247.33	11.53	-29.4	-33.0	18.2	6.01e-01	0	43	0	236453888	19	5463
2026-01-01 03:24:16.21	247.22	11.45	-29.2	-32.6	18.5	6.02e-01	0	43	0	238551040	19	5288
2026-01-01 03:24:17.21	247.11	11.36	-29.1	-32.3	18.7	6.01e-01	0	43	0	240123904	19	5186
2026-01-01 03:24:18.21	247.00	11.28	-29.1	-32.2	18.8	6.03e-01	0	43	0	242221056	19	5144
2026-01-01 03:24:19.22	246.89	11.19	-29.2	-32.4	18.7	6.04e-01	0	43	0	243793920	19	5205
2026-01-01 03:24:20.22	246.78	11.11	-29.2	-32.5	18.5	6.03e-01	0	43	0	245891072	19	5266
2026-01-01 03:24:21.22	246.67	11.02	-29.1	-32.1	18.8	6.02e-01	0	43	0	247988224	19	5120
2026-01-01 03:24:22.23	246.56	10.94	-29.1	-32.3	18.7	6.01e-01	0	43	0	249561088	19	5185
2026-01-01 03:24:23.23	246.45	10.85	-29.2	-32.4	18.6	6.05e-01	0	43	0	251658240	19	5228
2026-01-01 03:24:24.23	246.34	10.77	-29.2	-32.5	18.6	6.02e-01	0	43	0	253231104	19	5243
2026-01-01 03:24:25.23	246.23	10.69	-29.3	-32.8	18.3	6.02e-01	0	43	0	255328256	19	5391
2026-01-01 03:24:26.23	246.13	10.60	-29.3	-32.8	18.4	6.04e-01	0	43	0	257425408	19	5362
2026-01-01 03:24:27.23	246.02	10.52	-29.3	-32.9	18.3	6.05e-01	0	43	0	258998272	19	5429
2026-01-01 03:24:28.24	245.92	10.44	-29.4	-33.0	18.2	6.02e-01	0	43	0	261095424	19	5469
2026-01-01 03:24:29.24	245.81	10.35	-29.4	-33.1	18.1	6.03e-01	0	43	0	262668288	19	5505
2026-01-01 03:24:30.24	245.71	10.27	-29.4	-33.2	18.0	6.04e-01	0	43	0	264765440	19	5535
2026-01-01 03:24:31.25	245.60	10.19	-29.3	-32.8	18.3	6.01e-01	0	43	0	266338304	19	5385
2026-01-01 03:24:32.24	245.50	10.11	-29.3	-32.7	18.4	6.05e-01	0	43	0	268435456	19	5340
2026-01-01 03:24:33.24	245.40	10.02	-29.3	-32.7	18.3	6.00e-01	0	43	0	270532608	19	5360
2026-01-01 03:24:34.24	245.30	9.94	-29.2	-32.4	18.5	6.03e-01	0	43	0	272105472	19	5240
2026-01-01 03:24:35.24	245.20	9.86	-29.2	-32.6	18.4	6.02e-01	0	43	0	274202624	19	5306
2026-01-01 03:24:36.24	245.10	9.78	-29.4	-33.0	18.1	6.02e-01	0	43	0	275775488	19	5466
2026-01-01 03:24:37.25	245.00	9.70	-29.2	-32.6	18.3	6.03e-01	0	43	0	277872640	19	5317
2026-01-01 03:24:38.25	244.90	9.62	-29.2	-32.6	18.4	6.01e-01	0	43	0	279445504	19	5298
2026-01-01 03:24:39.25	244.80	9.54	-29.3	-32.8	18.2	6.04e-01	0	43	0	281542656	19	5391
2026-01-01 03:24:40.25	244.71	9.46	-29.3	-32.9	18.2	6.04e-01	0	43	0	283639808	19	5427
2026-01-01 03:24:41.25	244.61	9.38	-29.3	-32.9	18.2	6.03e-01	0	43	0	285212672	19	5428
2026-01-01 03:24:42.26	244.51	9.30	-29.3	-32.9	18.1	6.04e-01	0	43	0	287309824	19	5452
2026-01-01 03:24:43.27	244.41	9.22	-29.5	-33.3	17.9	6.05e-01	0	43	0	288882688	19	5621
2026-01-01 03:24:44.27	244.32	9.14	-29.4	-33.3	17.9	6.03e-01	0	43	0	290979840	19	5585
2026-01-01 03:24:45.26	244.23	9.06	-29.5	-33.3	17.9	6.02e-01	0	43	0	293076992	19	5611
2026-01-01 03:24:46.27	244.13	8.98	-29.5	-33.4	17.8	6.04e-01	0	43	0	294649856	19	5644
2026-01-01 03:24:47.27	244.04	8.90	-29.4	-33.1	18.0	6.05e-01	0	43	0	296747008	19	5533
2026-01-01 03:24:48.27	243.95	8.82	-29.4	-33.2	17.9	6.03e-01	0	43	0	298319872	19	5586
2026-01-01 03:24:49.28	243.85	8.74	-29.5	-33.4	17.8	6.03e-01	0	43	0	300417024	19	5650
2026-01-01 03:24:50.28	243.76	8.66	-29.5	-33.6	17.6	6.01e-01	0	43	0	302514176	19	5726
2026-01-01 03:24:51.29	243.67	8.59	-29.5	-33.1	17.5	6.02e-01	0	43	0	304087040	20	5459
2026-01-01 03:24:52.29	243.58	8.51	-29.4	-32.8	17.7	6.04e-01	0	43	0	306184192	20	5328
2026-01-01 03:24:53.29	243.49	8.43	-29.5	-33.6	17.6	6.03e-01	0	43	0	307757056	19	5727
2026-01-01 03:24:54.29	243.40	8.35	-29.6	-33.7	17.6	6.03e-01	0	43	0	309854208	19	5785
2026-01-01 03:24:55.30	243.31	8.27	-29.6	-33.5	17.3	6.04e-01	0	43	0	311427072	20	5604
2026-01-01 03:24:56.30	243.22	8.20	-29.7	-33.8	17.0	6.04e-01	0	43	0	313524224	20	5751
2026-01-01 03:24:57.30	243.13	8.12	-29.5	-33.2	17.4	6.03e-01	0	43	0	315621376	20	5498
2026-01-01 03:24:58.30	243.04	8.04	-29.4	-33.0	17.5	6.04e-01	0	43	0	317194240	20	5394
2026-01-01 03:24:59.31	242.96	7.97	-29.5	-33.6	17.5	6.03e-01	0	43	0	319291392	19	5752
2026-01-01 03:25:00.31	242.87	7.89	-29.6	-33.4	17.3	6.02e-01	0	43	0	320864256	20	5573
2026-01-01 03:25:01.30	242.79	7.82	-29.6	-33.5	17.2	6.02e-01	0	43	0	322961408	20	5649
2026-01-01 03:25:02.31	242.70	7.74	-29.7	-33.8	16.9	6.04e-01	0	43	0	324534272	20	5781
2026-01-01 03:25:03.31	242.61	7.66	-29.6	-33.3	17.3	6.00e-01	0	43	0	326631424	20	5546
2026-01-01 03:25:04.31	242.53	7.59	-29.5	-33.7	16.2	6.05e-01	0	43	0	328728576	19	5793
2026-01-01 03:25:05.31	242.45	7.51	-29.5	-33.6	16.0	6.04e-01	0	43	0	330301440	19	5751
2026-01-01 03:25:06.32	242.36	7.44	-29.6	-33.3	17.2	6.04e-01	0	43	0	332398592	20	5566
2026-01-01 03:25:07.32	242.28	7.36	-29.6	-33.5	16.4	6.03e-01	0	43	0	333971456	20	5655
2026-01-01 03:25:08.32	242.20	7.29	-29.6	-33.4	17.0	6.06e-01	0	43	0	336068608	20	5611
2026-01-01 03:25:09.33	242.11	7.21	-29.8	-34.0	16.8	6.07e-01	0	43	0	338165760	20	5855
2026-01-01 03:25:10.33	242.03	7.14	-29.9	-34.4	16.4	6.05e-01	0	43	0	339738624	20	6050
2026-01-01 03:25:11.33	241.95	7.07	-30.3	-35.2	16.3	6.01e-01	0	43	0	341835776	21	6331
2026-01-01 03:25:12.33	241.87	6.99	-32.8	-52.1	3.8	7.47e-01	0	43	104	341835776	26	33144

#Closed at: 2026-01-01 03:25:13
#Recorded file [341 MB]: D:/data/31010_260101_062208.dat