passes_logs/2026/01/01/R2M6_AANII_01/R2M6_AANII_01__20260101_131203_FENGYUN_3D_rec.log

#Pass ID: 20260101_131203_FENGYUN 3D
#Satellite: FENGYUN 3D
#Configuration: FENGYUN 3D
#almurnet v.1.7.20240730
#Start time: 2026-01-01 13:12:03

#Version: 2.2.20231116
#Station: R2M6_AANII_01
#Location: 30.233357 lon 59.946436 lat
#TLE: 1 43010U 17072A   25365.97861918  .00000231  00000+0  13096-3 0  9992
#TLE: 2 43010  98.9911 332.5795 0001872 134.7521 225.3807 14.19690547421260

#Time	Az	El	Level	Level2	SNR	BER	BlckErr	Temp	State	Recorded	gain1	gain2
2026-01-01 13:12:03.73	187.43	7.04	-27.3	-29.6	5.7	7.70e-01	0	41	0	0	14	4727
2026-01-01 13:12:04.73	187.49	7.11	-28.9	-32.2	5.4	7.82e-01	0	41	104	0	17	5259
2026-01-01 13:12:05.72	187.54	7.18	-28.7	-31.6	10.7	3.36e-03	0	41	0	0	17	5051
2026-01-01 13:12:06.73	187.60	7.26	-28.8	-31.9	10.5	2.59e-03	0	41	0	5242880	17	5149
2026-01-01 13:12:07.73	187.65	7.33	-28.6	-31.2	11.0	2.76e-03	0	41	0	11534336	17	4907
2026-01-01 13:12:08.73	187.71	7.40	-28.2	-30.4	11.6	7.14e-04	0	41	0	16777216	17	4615
2026-01-01 13:12:09.73	187.76	7.48	-27.8	-29.7	12.3	2.20e-04	0	41	0	22020096	16	4513
2026-01-01 13:12:10.74	187.82	7.55	-27.4	-28.8	12.9	3.89e-05	0	41	0	28311552	16	4246
2026-01-01 13:12:11.74	187.87	7.63	-26.8	-28.0	13.5	5.70e-06	0	41	0	33554432	15	4123
2026-01-01 13:12:12.74	187.93	7.70	-26.5	-27.9	13.9	0.00e+00	0	41	0	38797312	14	4205
2026-01-01 13:12:13.74	187.99	7.78	-26.3	-27.4	14.1	1.10e-06	0	41	0	45088768	14	4073
2026-01-01 13:12:14.75	188.04	7.86	-26.2	-27.7	14.3	0.00e+00	0	42	0	50331648	13	4262
2026-01-01 13:12:15.76	188.10	7.93	-26.2	-27.6	14.3	1.10e-06	0	41	0	55574528	13	4239
2026-01-01 13:12:16.76	188.16	8.01	-26.4	-28.0	14.1	1.10e-06	0	41	0	61865984	13	4342
2026-01-01 13:12:17.76	188.22	8.08	-26.2	-27.7	14.3	0.00e+00	0	41	0	67108864	13	4244
2026-01-01 13:12:18.76	188.27	8.16	-26.1	-27.5	14.4	0.00e+00	0	42	0	73400320	13	4198
2026-01-01 13:12:19.76	188.33	8.24	-26.1	-27.3	14.5	0.00e+00	0	41	0	78643200	13	4142
2026-01-01 13:12:20.76	188.39	8.31	-26.1	-27.3	14.5	0.00e+00	0	42	0	83886080	13	4154
2026-01-01 13:12:21.76	188.45	8.39	-26.0	-27.2	14.6	0.00e+00	0	42	0	90177536	13	4125
2026-01-01 13:12:22.76	188.51	8.47	-26.0	-27.1	14.7	0.00e+00	0	42	0	95420416	13	4104
2026-01-01 13:12:23.77	188.57	8.54	-26.2	-27.5	14.4	0.00e+00	0	41	0	100663296	13	4203
2026-01-01 13:12:24.77	188.63	8.62	-26.1	-27.3	14.5	0.00e+00	0	42	0	106954752	13	4146
2026-01-01 13:12:25.77	188.69	8.70	-25.9	-27.0	14.7	0.00e+00	0	42	0	112197632	13	4066
2026-01-01 13:12:26.77	188.75	8.78	-26.0	-27.2	14.7	0.00e+00	0	42	0	117440512	13	4114
2026-01-01 13:12:27.77	188.81	8.85	-25.9	-27.0	14.8	0.00e+00	0	42	0	123731968	13	4059
2026-01-01 13:12:28.78	188.87	8.93	-25.9	-26.8	14.9	0.00e+00	0	42	0	128974848	13	4012
2026-01-01 13:12:29.78	188.93	9.01	-26.0	-27.2	14.6	0.00e+00	0	42	0	135266304	13	4127
2026-01-01 13:12:30.79	188.99	9.09	-25.9	-26.8	14.9	0.00e+00	0	42	0	140509184	13	4020
2026-01-01 13:12:31.80	189.05	9.17	-25.9	-27.0	14.8	0.00e+00	0	42	0	146800640	13	4055
2026-01-01 13:12:32.80	189.12	9.25	-25.8	-26.6	15.0	0.00e+00	0	42	0	152043520	13	3969
2026-01-01 13:12:33.80	189.18	9.33	-25.8	-27.3	14.9	0.00e+00	0	42	0	157286400	12	4243
2026-01-01 13:12:34.80	189.24	9.41	-25.8	-27.1	15.0	0.00e+00	0	42	0	163577856	12	4206
2026-01-01 13:12:35.80	189.30	9.49	-25.7	-27.1	15.0	0.00e+00	0	42	0	168820736	12	4186
2026-01-01 13:12:36.81	189.37	9.57	-25.9	-27.5	14.8	0.00e+00	0	42	0	174063616	12	4290
2026-01-01 13:12:37.81	189.43	9.65	-25.8	-27.1	15.1	0.00e+00	0	42	0	180355072	12	4184
2026-01-01 13:12:38.82	189.50	9.73	-25.6	-26.7	15.3	0.00e+00	0	42	0	185597952	12	4100
2026-01-01 13:12:39.82	189.56	9.81	-25.6	-26.7	15.3	0.00e+00	0	42	0	190840832	12	4085
2026-01-01 13:12:40.82	189.62	9.89	-25.6	-26.7	15.3	0.00e+00	0	42	0	197132288	12	4087
2026-01-01 13:12:41.82	189.69	9.98	-25.7	-26.8	15.2	0.00e+00	0	42	0	202375168	12	4120
2026-01-01 13:12:42.83	189.76	10.06	-25.6	-26.7	15.3	0.00e+00	0	42	0	208666624	12	4088
2026-01-01 13:12:43.83	189.82	10.14	-25.6	-26.6	15.3	0.00e+00	0	42	0	213909504	12	4072
2026-01-01 13:12:44.83	189.89	10.22	-25.7	-27.0	15.2	0.00e+00	0	42	0	220200960	12	4155
2026-01-01 13:12:45.83	189.95	10.30	-25.6	-26.6	15.3	0.00e+00	0	42	0	225443840	12	4072
2026-01-01 13:12:46.84	190.02	10.39	-25.5	-26.4	15.5	0.00e+00	0	42	0	230686720	12	4013
2026-01-01 13:12:47.85	190.09	10.47	-25.5	-26.5	15.5	0.00e+00	0	42	0	236978176	12	4025
2026-01-01 13:12:48.85	190.16	10.55	-25.5	-26.4	15.5	0.00e+00	0	42	0	242221056	12	4003
2026-01-01 13:12:49.85	190.22	10.64	-25.5	-26.5	15.4	0.00e+00	0	42	0	247463936	12	4026
2026-01-01 13:12:50.86	190.29	10.72	-25.5	-26.4	15.5	0.00e+00	0	42	0	253755392	12	3997
2026-01-01 13:12:51.86	190.36	10.80	-25.4	-26.3	15.6	0.00e+00	0	42	0	258998272	12	3976
2026-01-01 13:12:52.87	190.43	10.89	-25.5	-26.5	15.5	0.00e+00	0	42	0	264241152	12	4028
2026-01-01 13:12:53.87	190.50	10.97	-25.4	-26.3	15.6	9.10e-06	0	42	0	270532608	12	3988
2026-01-01 13:12:54.87	190.57	11.06	-25.3	-26.1	15.7	0.00e+00	0	42	0	275775488	12	3927
2026-01-01 13:12:55.88	190.64	11.14	-25.3	-26.6	15.8	0.00e+00	0	42	0	282066944	11	4153
2026-01-01 13:12:56.88	190.71	11.23	-25.3	-26.6	15.8	1.71e-05	0	42	0	287309824	11	4170
2026-01-01 13:12:57.89	190.78	11.32	-25.4	-26.6	15.7	0.00e+00	0	42	0	293601280	11	4179
2026-01-01 13:12:58.89	190.85	11.40	-25.3	-26.6	15.8	0.00e+00	0	42	0	298844160	11	4158
2026-01-01 13:12:59.89	190.93	11.49	-25.4	-26.7	15.7	1.10e-06	0	42	0	304087040	11	4188
2026-01-01 13:13:00.90	191.00	11.57	-25.3	-26.6	15.8	0.00e+00	0	42	0	310378496	11	4164
2026-01-01 13:13:01.90	191.07	11.66	-25.2	-26.4	15.9	0.00e+00	0	42	0	315621376	11	4115
2026-01-01 13:13:02.91	191.15	11.75	-25.4	-26.7	15.8	1.37e-05	0	42	0	320864256	11	4177
2026-01-01 13:13:03.91	191.22	11.83	-25.3	-26.4	15.9	0.00e+00	0	42	0	327155712	11	4121
2026-01-01 13:13:04.92	191.29	11.92	-25.2	-26.3	15.9	0.00e+00	0	42	0	332398592	11	4099
2026-01-01 13:13:05.92	191.37	12.01	-25.3	-26.5	15.9	1.25e-05	0	42	0	337641472	11	4133
2026-01-01 13:13:06.93	191.44	12.10	-25.2	-26.2	16.1	0.00e+00	0	42	0	343932928	11	4052
2026-01-01 13:13:07.93	191.52	12.19	-25.1	-26.2	16.1	0.00e+00	0	42	0	349175808	11	4052
2026-01-01 13:13:08.94	191.59	12.27	-25.3	-26.5	15.9	0.00e+00	0	42	0	355467264	11	4130
2026-01-01 13:13:09.94	191.67	12.36	-25.2	-26.4	16.0	0.00e+00	0	42	0	360710144	11	4111
2026-01-01 13:13:10.94	191.75	12.45	-25.3	-26.5	15.9	0.00e+00	0	42	0	367001600	11	4150
2026-01-01 13:13:11.94	191.82	12.54	-25.3	-26.4	15.9	0.00e+00	0	42	0	372244480	11	4120
2026-01-01 13:13:12.94	191.90	12.63	-25.3	-26.5	15.9	0.00e+00	0	42	0	377487360	11	4125
2026-01-01 13:13:13.95	191.98	12.72	-25.3	-26.5	15.9	0.00e+00	0	42	0	383778816	11	4131
2026-01-01 13:13:14.95	192.06	12.81	-25.3	-26.6	15.9	0.00e+00	0	43	0	389021696	11	4167
2026-01-01 13:13:15.96	192.14	12.90	-25.3	-26.4	15.9	0.00e+00	0	42	0	394264576	11	4126
2026-01-01 13:13:16.96	192.21	12.99	-25.3	-26.4	15.9	0.00e+00	0	43	0	400556032	11	4110
2026-01-01 13:13:17.96	192.29	13.08	-25.3	-26.6	15.9	1.02e-05	0	43	0	405798912	11	4160
2026-01-01 13:13:18.97	192.37	13.18	-25.2	-26.2	16.1	0.00e+00	0	43	0	411041792	11	4073
2026-01-01 13:13:19.98	192.46	13.27	-25.0	-25.9	16.3	0.00e+00	0	42	0	417333248	11	3973
2026-01-01 13:13:20.99	192.54	13.36	-25.0	-25.8	16.3	0.00e+00	0	42	0	422576128	11	3961
2026-01-01 13:13:21.99	192.62	13.45	-25.1	-26.0	16.2	0.00e+00	0	43	0	428867584	11	4011
2026-01-01 13:13:22.99	192.70	13.54	-24.9	-25.5	16.5	0.00e+00	0	42	0	434110464	11	3892
2026-01-01 13:13:24.00	192.78	13.64	-24.9	-25.5	16.5	0.00e+00	0	43	0	440401920	11	3895
2026-01-01 13:13:25.00	192.87	13.73	-25.0	-25.8	16.3	0.00e+00	0	42	0	445644800	11	3956
2026-01-01 13:13:26.00	192.95	13.82	-24.8	-25.4	16.5	0.00e+00	0	43	0	450887680	11	3850
2026-01-01 13:13:27.00	193.03	13.92	-24.7	-25.7	16.7	0.00e+00	0	43	0	457179136	10	4037
2026-01-01 13:13:28.01	193.12	14.01	-24.8	-25.8	16.6	0.00e+00	0	43	0	462422016	10	4072
2026-01-01 13:13:29.01	193.20	14.11	-24.9	-26.2	16.4	0.00e+00	0	43	0	467664896	10	4151
2026-01-01 13:13:30.01	193.29	14.20	-25.0	-26.3	16.3	0.00e+00	0	43	0	473956352	10	4199
2026-01-01 13:13:31.02	193.38	14.30	-24.9	-26.0	16.5	0.00e+00	0	43	0	479199232	10	4126
2026-01-01 13:13:32.02	193.46	14.39	-24.9	-26.0	16.5	0.00e+00	0	43	0	484442112	10	4121
2026-01-01 13:13:33.03	193.55	14.49	-24.9	-26.1	16.5	0.00e+00	0	43	0	490733568	10	4143
2026-01-01 13:13:34.03	193.64	14.58	-24.8	-25.9	16.6	0.00e+00	0	43	0	495976448	10	4083
2026-01-01 13:13:35.04	193.73	14.68	-24.8	-25.9	16.6	0.00e+00	0	43	0	502267904	10	4086
2026-01-01 13:13:36.04	193.81	14.78	-24.7	-25.7	16.7	0.00e+00	0	43	0	507510784	10	4043
2026-01-01 13:13:37.05	193.90	14.87	-25.0	-26.3	16.4	0.00e+00	0	43	0	513802240	10	4194
2026-01-01 13:13:38.05	193.99	14.97	-24.6	-25.6	16.8	0.00e+00	0	43	0	519045120	10	4003
2026-01-01 13:13:39.06	194.09	15.07	-24.4	-25.1	17.0	0.00e+00	0	43	0	524288000	10	3880
2026-01-01 13:13:40.06	194.18	15.17	-24.3	-24.8	17.2	0.00e+00	0	43	0	530579456	10	3829
2026-01-01 13:13:41.07	194.27	15.27	-24.3	-24.9	17.1	0.00e+00	0	43	0	535822336	10	3836
2026-01-01 13:13:42.08	194.36	15.37	-24.3	-25.3	17.2	0.00e+00	0	43	0	542113792	9	4039
2026-01-01 13:13:43.08	194.45	15.46	-24.3	-25.4	17.1	0.00e+00	0	43	0	547356672	9	4058
2026-01-01 13:13:44.09	194.55	15.56	-24.3	-25.3	17.2	0.00e+00	0	43	0	552599552	9	4055
2026-01-01 13:13:45.09	194.64	15.66	-24.4	-25.4	17.1	0.00e+00	0	43	0	558891008	9	4076
2026-01-01 13:13:46.09	194.74	15.76	-24.3	-25.4	17.1	0.00e+00	0	43	0	564133888	9	4064
2026-01-01 13:13:47.10	194.83	15.86	-24.4	-25.5	17.1	0.00e+00	0	43	0	569376768	9	4092
2026-01-01 13:13:48.10	194.93	15.96	-24.3	-25.3	17.2	0.00e+00	0	43	0	575668224	9	4043
2026-01-01 13:13:49.10	195.02	16.06	-24.3	-25.4	17.2	0.00e+00	0	43	0	580911104	9	4071
2026-01-01 13:13:50.10	195.12	16.17	-24.4	-25.6	17.0	0.00e+00	0	43	0	587202560	9	4115
2026-01-01 13:13:51.10	195.22	16.27	-24.2	-25.2	17.2	0.00e+00	0	43	0	592445440	9	4021
2026-01-01 13:13:52.11	195.32	16.37	-24.2	-25.2	17.3	0.00e+00	0	43	0	597688320	9	4017
2026-01-01 13:13:53.12	195.42	16.47	-24.3	-25.3	17.2	0.00e+00	0	43	0	603979776	9	4042
2026-01-01 13:13:54.12	195.52	16.57	-24.5	-25.7	17.0	0.00e+00	0	43	0	609222656	9	4138
2026-01-01 13:13:55.12	195.62	16.68	-24.3	-25.3	17.2	0.00e+00	0	43	0	614465536	9	4035
2026-01-01 13:13:56.13	195.72	16.78	-24.2	-25.0	17.4	8.00e-06	0	43	0	620756992	9	3974
2026-01-01 13:13:57.14	195.82	16.89	-24.1	-24.9	17.4	0.00e+00	0	43	0	625999872	9	3953
2026-01-01 13:13:58.14	195.92	16.99	-24.2	-25.1	17.3	0.00e+00	0	43	0	632291328	9	3991
2026-01-01 13:13:59.14	196.03	17.09	-24.0	-24.8	17.5	3.40e-06	0	43	0	637534208	9	3925
2026-01-01 13:14:00.14	196.13	17.20	-24.0	-24.7	17.5	0.00e+00	0	43	0	642777088	9	3907
2026-01-01 13:14:01.14	196.23	17.30	-24.1	-24.9	17.4	0.00e+00	0	43	0	649068544	9	3945
2026-01-01 13:14:02.15	196.34	17.41	-24.2	-25.1	17.3	0.00e+00	0	43	0	654311424	9	3988
2026-01-01 13:14:03.15	196.45	17.52	-24.0	-24.7	17.6	0.00e+00	0	43	0	660602880	9	3889
2026-01-01 13:14:04.15	196.55	17.62	-23.8	-24.3	17.7	0.00e+00	0	43	0	665845760	9	3812
2026-01-01 13:14:05.15	196.66	17.73	-23.8	-24.7	17.8	3.40e-06	0	43	0	671088640	8	3999
2026-01-01 13:14:06.16	196.77	17.84	-23.8	-24.7	17.8	0.00e+00	0	43	0	677380096	8	4005
2026-01-01 13:14:07.17	196.88	17.94	-23.7	-24.4	18.0	0.00e+00	0	43	0	682622976	8	3939
2026-01-01 13:14:08.17	196.99	18.05	-23.6	-24.4	18.0	6.80e-06	0	43	0	687865856	8	3926
2026-01-01 13:14:09.17	197.10	18.16	-23.8	-24.6	17.9	0.00e+00	0	43	0	694157312	8	3986
2026-01-01 13:14:10.18	197.21	18.27	-23.7	-24.5	18.0	0.00e+00	0	43	0	699400192	8	3953
2026-01-01 13:14:11.18	197.32	18.38	-23.7	-24.5	17.9	1.02e-05	0	43	0	705691648	8	3959
2026-01-01 13:14:12.19	197.43	18.49	-23.8	-24.7	17.9	0.00e+00	0	43	0	710934528	8	3998
2026-01-01 13:14:13.18	197.54	18.60	-23.8	-24.7	17.9	0.00e+00	0	43	0	716177408	8	3992
2026-01-01 13:14:14.18	197.66	18.70	-23.8	-24.7	17.9	0.00e+00	0	43	0	722468864	8	3999
2026-01-01 13:14:15.19	197.77	18.82	-23.8	-24.8	17.8	0.00e+00	0	43	0	727711744	8	4017
2026-01-01 13:14:16.19	197.89	18.93	-23.7	-24.5	18.0	0.00e+00	0	43	0	734003200	8	3957
2026-01-01 13:14:17.20	198.01	19.04	-23.7	-24.5	18.0	0.00e+00	0	43	0	739246080	8	3955
2026-01-01 13:14:18.20	198.12	19.15	-23.7	-24.6	18.0	0.00e+00	0	43	0	744488960	8	3974
2026-01-01 13:14:19.21	198.24	19.26	-23.6	-24.3	18.1	0.00e+00	0	43	0	750780416	8	3909
2026-01-01 13:14:20.22	198.36	19.38	-23.6	-24.3	18.1	4.50e-06	0	43	0	756023296	8	3905
2026-01-01 13:14:21.22	198.48	19.49	-23.7	-24.5	18.0	0.00e+00	0	43	0	761266176	8	3941
2026-01-01 13:14:22.21	198.60	19.60	-23.6	-24.3	18.1	0.00e+00	0	43	0	767557632	8	3905
2026-01-01 13:14:23.21	198.72	19.71	-23.6	-24.4	18.1	0.00e+00	0	43	0	772800512	8	3924
2026-01-01 13:14:24.22	198.85	19.83	-23.5	-24.2	18.2	0.00e+00	0	43	0	778043392	8	3878
2026-01-01 13:14:25.22	198.97	19.94	-23.6	-24.2	18.1	0.00e+00	0	43	0	784334848	8	3892
2026-01-01 13:14:26.23	199.09	20.06	-23.6	-24.4	18.0	0.00e+00	0	43	0	789577728	8	3929
2026-01-01 13:14:27.24	199.22	20.17	-23.6	-24.3	18.1	0.00e+00	0	43	0	795869184	8	3905
2026-01-01 13:14:28.24	199.35	20.29	-23.7	-24.4	18.0	0.00e+00	0	43	0	801112064	8	3944
2026-01-01 13:14:29.24	199.47	20.40	-23.7	-24.6	18.0	0.00e+00	0	43	0	807403520	8	3975
2026-01-01 13:14:30.25	199.60	20.52	-23.8	-24.9	17.8	0.00e+00	0	43	0	812646400	8	4043
2026-01-01 13:14:31.25	199.73	20.64	-23.8	-24.7	17.9	0.00e+00	0	43	0	817889280	8	4013
2026-01-01 13:14:32.26	199.86	20.76	-23.8	-24.8	17.9	0.00e+00	0	43	0	824180736	8	4025
2026-01-01 13:14:33.27	199.99	20.87	-23.7	-24.5	18.0	0.00e+00	0	43	0	829423616	8	3968
2026-01-01 13:14:34.28	200.13	20.99	-23.6	-24.3	18.1	0.00e+00	0	43	0	835715072	8	3899
2026-01-01 13:14:35.28	200.26	21.11	-23.6	-24.3	18.1	0.00e+00	0	43	0	840957952	8	3909
2026-01-01 13:14:36.28	200.39	21.23	-23.5	-24.1	18.2	0.00e+00	0	43	0	846200832	8	3864
2026-01-01 13:14:37.28	200.53	21.35	-23.5	-24.2	18.2	0.00e+00	0	43	0	852492288	8	3884
2026-01-01 13:14:38.28	200.66	21.47	-23.5	-24.0	18.3	0.00e+00	0	43	0	857735168	8	3844
2026-01-01 13:14:39.29	200.80	21.59	-23.5	-24.0	18.3	0.00e+00	0	43	0	862978048	8	3847
2026-01-01 13:14:40.29	200.94	21.71	-23.5	-24.0	18.3	0.00e+00	0	43	0	869269504	8	3843
2026-01-01 13:14:41.30	201.08	21.83	-23.5	-24.1	18.2	0.00e+00	0	43	0	874512384	8	3870
2026-01-01 13:14:42.30	201.22	21.95	-23.6	-24.4	18.1	0.00e+00	0	43	0	880803840	8	3922
2026-01-01 13:14:43.32	201.36	22.07	-23.5	-24.2	18.2	0.00e+00	0	43	0	886046720	8	3880
2026-01-01 13:14:44.32	201.50	22.20	-23.4	-24.0	18.4	0.00e+00	0	43	0	891289600	8	3826
2026-01-01 13:14:45.33	201.65	22.32	-23.5	-24.1	18.3	0.00e+00	0	43	0	897581056	8	3851
2026-01-01 13:14:46.33	201.79	22.44	-23.5	-24.0	18.3	0.00e+00	0	43	0	902823936	8	3843
2026-01-01 13:14:47.34	201.94	22.57	-23.3	-23.7	18.5	0.00e+00	0	43	0	909115392	8	3776
2026-01-01 13:14:48.34	202.08	22.69	-23.3	-23.8	18.5	0.00e+00	0	43	0	914358272	8	3778
2026-01-01 13:14:49.34	202.23	22.81	-23.4	-23.8	18.5	0.00e+00	0	43	0	919601152	8	3796
2026-01-01 13:14:50.34	202.38	22.94	-23.4	-23.9	18.4	0.00e+00	0	43	0	925892608	8	3812
2026-01-01 13:14:51.35	202.53	23.06	-23.5	-24.0	18.4	0.00e+00	0	43	0	931135488	8	3834
2026-01-01 13:14:52.35	202.68	23.19	-23.1	-23.8	18.7	0.00e+00	0	43	0	937426944	7	3902
2026-01-01 13:14:53.35	202.83	23.31	-23.1	-23.7	18.7	0.00e+00	0	43	0	942669824	7	3867
2026-01-01 13:14:54.35	202.98	23.44	-23.2	-24.0	18.6	0.00e+00	0	43	0	947912704	7	3939
2026-01-01 13:14:55.35	203.14	23.57	-23.2	-24.1	18.6	0.00e+00	0	43	0	954204160	7	3962
2026-01-01 13:14:56.36	203.30	23.69	-23.0	-23.6	18.8	0.00e+00	0	43	0	959447040	7	3847
2026-01-01 13:14:57.37	203.45	23.82	-23.0	-23.6	18.8	0.00e+00	0	43	0	964689920	7	3839
2026-01-01 13:14:58.37	203.61	23.95	-23.0	-23.6	18.8	0.00e+00	0	43	0	970981376	7	3836
2026-01-01 13:14:59.38	203.77	24.08	-22.7	-23.5	19.1	0.00e+00	0	43	0	976224256	6	3924
2026-01-01 13:15:00.38	203.93	24.21	-22.7	-23.5	19.1	0.00e+00	0	43	0	982515712	6	3931
2026-01-01 13:15:01.39	204.10	24.34	-22.8	-23.6	19.1	2.20e-06	0	43	0	987758592	6	3958
2026-01-01 13:15:02.38	204.26	24.46	-22.8	-23.6	19.1	0.00e+00	0	43	0	993001472	6	3951
2026-01-01 13:15:03.39	204.43	24.59	-22.7	-23.3	19.2	0.00e+00	0	43	0	999292928	6	3892
2026-01-01 13:15:04.40	204.59	24.73	-22.7	-23.4	19.2	0.00e+00	0	43	0	1004535808	6	3907
2026-01-01 13:15:05.39	204.76	24.85	-22.7	-23.3	19.2	0.00e+00	0	43	0	1010827264	6	3892
2026-01-01 13:15:06.39	204.93	24.99	-22.6	-23.3	19.2	0.00e+00	0	43	0	1016070144	6	3875
2026-01-01 13:15:07.40	205.10	25.12	-22.7	-23.5	19.1	0.00e+00	0	43	0	1021313024	6	3927
2026-01-01 13:15:08.40	205.27	25.25	-22.9	-23.8	18.9	0.00e+00	0	43	0	1027604480	6	4014
2026-01-01 13:15:09.40	205.44	25.38	-23.0	-24.0	18.9	0.00e+00	0	43	0	1032847360	6	4046
2026-01-01 13:15:10.41	205.62	25.51	-22.9	-23.8	19.0	1.10e-06	0	43	0	1038090240	6	3992
2026-01-01 13:15:11.41	205.79	25.65	-22.9	-23.8	19.0	0.00e+00	0	43	0	1044381696	6	3995
2026-01-01 13:15:12.42	205.97	25.78	-22.8	-23.6	19.1	0.00e+00	0	43	0	1049624576	6	3945
2026-01-01 13:15:13.42	206.15	25.91	-22.5	-23.1	19.4	0.00e+00	0	43	0	1054867456	6	3827
2026-01-01 13:15:14.42	206.33	26.05	-22.5	-23.1	19.4	0.00e+00	0	43	0	1061158912	6	3823
2026-01-01 13:15:15.43	206.51	26.18	-22.5	-23.1	19.4	0.00e+00	0	43	0	1066401792	6	3822
2026-01-01 13:15:16.44	206.70	26.32	-22.6	-23.2	19.3	0.00e+00	0	43	0	1072693248	6	3862
2026-01-01 13:15:17.45	206.88	26.46	-22.6	-23.3	19.3	0.00e+00	0	43	0	1077936128	6	3879
2026-01-01 13:15:18.44	207.07	26.59	-22.4	-22.7	19.5	0.00e+00	0	43	0	1084227584	6	3757
2026-01-01 13:15:19.45	207.26	26.73	-22.2	-23.0	19.6	0.00e+00	0	43	0	1089470464	5	3906
2026-01-01 13:15:20.45	207.45	26.86	-22.2	-22.9	19.7	0.00e+00	0	43	0	1094713344	5	3888
2026-01-01 13:15:21.45	207.64	27.00	-22.3	-23.1	19.6	0.00e+00	0	43	0	1101004800	5	3942
2026-01-01 13:15:22.46	207.83	27.14	-22.4	-23.2	19.5	2.20e-06	0	43	0	1106247680	5	3969
2026-01-01 13:15:23.46	208.02	27.27	-22.4	-23.2	19.5	0.00e+00	0	43	0	1111490560	5	3972
2026-01-01 13:15:24.46	208.22	27.41	-22.4	-23.3	19.4	0.00e+00	0	43	0	1117782016	5	4000
2026-01-01 13:15:25.46	208.42	27.55	-22.4	-23.3	19.4	2.20e-06	0	43	0	1123024896	5	3992
2026-01-01 13:15:26.46	208.62	27.69	-22.4	-23.3	19.5	0.00e+00	0	43	0	1128267776	5	3991
2026-01-01 13:15:27.46	208.82	27.82	-22.5	-23.4	19.4	0.00e+00	0	43	0	1134559232	5	4017
2026-01-01 13:15:28.47	209.02	27.96	-22.5	-23.6	19.4	0.00e+00	0	43	0	1139802112	5	4052
2026-01-01 13:15:29.47	209.22	28.10	-22.4	-23.4	19.4	0.00e+00	0	43	0	1146093568	5	4013
2026-01-01 13:15:30.47	209.43	28.24	-22.5	-23.5	19.4	0.00e+00	0	43	0	1151336448	5	4036
2026-01-01 13:15:31.48	209.64	28.38	-22.5	-23.5	19.4	0.00e+00	0	43	0	1157627904	5	4036
2026-01-01 13:15:32.48	209.85	28.52	-22.2	-22.9	19.7	0.00e+00	0	43	0	1162870784	5	3891
2026-01-01 13:15:33.48	210.06	28.66	-22.3	-23.0	19.7	0.00e+00	0	43	0	1168113664	5	3916
2026-01-01 13:15:34.49	210.27	28.81	-22.2	-22.8	19.8	0.00e+00	0	43	0	1174405120	5	3874
2026-01-01 13:15:35.49	210.49	28.95	-22.2	-22.9	19.7	0.00e+00	0	43	0	1179648000	5	3901
2026-01-01 13:15:36.49	210.71	29.09	-22.3	-23.0	19.6	0.00e+00	0	43	0	1184890880	5	3925
2026-01-01 13:15:37.49	210.92	29.23	-22.4	-23.3	19.5	0.00e+00	0	43	0	1191182336	5	3986
2026-01-01 13:15:38.49	211.14	29.37	-22.6	-23.7	19.5	0.00e+00	0	43	0	1196425216	5	4071
2026-01-01 13:15:39.49	211.37	29.51	-22.7	-23.8	19.4	0.00e+00	0	43	0	1201668096	5	4098
2026-01-01 13:15:40.49	211.59	29.65	-22.6	-23.7	19.5	0.00e+00	0	43	0	1207959552	5	4078
2026-01-01 13:15:41.50	211.82	29.80	-22.5	-23.5	19.6	0.00e+00	0	43	0	1213202432	5	4026
2026-01-01 13:15:42.50	212.05	29.94	-22.7	-23.8	19.5	0.00e+00	0	43	0	1219493888	5	4091
2026-01-01 13:15:43.50	212.28	30.08	-22.9	-24.2	19.3	0.00e+00	0	43	0	1224736768	5	4186
2026-01-01 13:15:44.51	212.51	30.23	-22.8	-24.1	19.3	0.00e+00	0	43	0	1229979648	5	4178
2026-01-01 13:15:45.51	212.75	30.37	-22.8	-24.1	19.3	0.00e+00	0	43	0	1236271104	5	4167
2026-01-01 13:15:46.51	212.98	30.51	-22.7	-23.9	19.4	0.00e+00	0	43	0	1241513984	5	4126
2026-01-01 13:15:47.51	213.22	30.66	-22.6	-23.7	19.5	0.00e+00	0	43	0	1246756864	5	4074
2026-01-01 13:15:48.51	213.46	30.80	-22.8	-24.0	19.4	0.00e+00	0	43	0	1253048320	5	4150
2026-01-01 13:15:49.52	213.70	30.95	-22.8	-24.0	19.4	0.00e+00	0	43	0	1258291200	5	4138
2026-01-01 13:15:50.52	213.95	31.09	-22.6	-23.6	19.6	0.00e+00	0	43	0	1263534080	5	4039
2026-01-01 13:15:51.52	214.20	31.24	-22.4	-23.3	19.8	0.00e+00	0	43	0	1269825536	5	3975
2026-01-01 13:15:52.53	214.45	31.38	-22.5	-23.4	19.7	0.00e+00	0	43	0	1275068416	5	3992
2026-01-01 13:15:53.52	214.70	31.52	-22.5	-23.4	19.7	0.00e+00	0	43	0	1281359872	5	4009
2026-01-01 13:15:54.52	214.95	31.67	-22.5	-23.4	19.7	0.00e+00	0	43	0	1286602752	5	4001
2026-01-01 13:15:55.53	215.21	31.82	-22.5	-23.4	19.7	0.00e+00	0	43	0	1292894208	5	3998
2026-01-01 13:15:56.53	215.46	31.96	-22.5	-23.5	19.6	0.00e+00	0	43	0	1298137088	5	4020
2026-01-01 13:15:57.52	215.72	32.10	-22.5	-23.5	19.7	0.00e+00	0	43	0	1303379968	5	4017
2026-01-01 13:15:58.53	215.99	32.25	-22.3	-23.0	19.9	0.00e+00	0	43	0	1309671424	5	3904
2026-01-01 13:15:59.53	216.25	32.40	-22.2	-22.8	20.0	0.00e+00	0	43	0	1314914304	5	3859
2026-01-01 13:16:00.54	216.52	32.54	-22.3	-22.9	20.0	0.00e+00	0	43	0	1320157184	5	3888
2026-01-01 13:16:01.54	216.79	32.69	-22.2	-22.8	20.0	0.00e+00	0	43	0	1326448640	5	3848
2026-01-01 13:16:02.54	217.06	32.83	-22.2	-22.8	20.0	0.00e+00	0	43	0	1331691520	5	3847
2026-01-01 13:16:03.55	217.34	32.98	-22.2	-22.7	20.1	0.00e+00	0	43	0	1336934400	5	3843
2026-01-01 13:16:04.55	217.61	33.12	-22.2	-22.9	20.0	0.00e+00	0	43	0	1343225856	5	3871
2026-01-01 13:16:05.55	217.89	33.27	-22.3	-23.0	19.9	0.00e+00	0	43	0	1348468736	5	3898
2026-01-01 13:16:06.55	218.17	33.41	-22.3	-23.1	19.9	0.00e+00	0	43	0	1354760192	5	3927
2026-01-01 13:16:07.56	218.46	33.56	-22.4	-23.2	19.9	0.00e+00	0	43	0	1360003072	5	3946
2026-01-01 13:16:08.56	218.75	33.70	-22.4	-23.3	19.8	0.00e+00	0	43	0	1365245952	5	3965
2026-01-01 13:16:09.56	219.04	33.85	-22.3	-23.1	19.9	0.00e+00	0	43	0	1371537408	5	3927
2026-01-01 13:16:10.56	219.33	33.99	-22.3	-23.0	20.0	0.00e+00	0	43	0	1376780288	5	3905
2026-01-01 13:16:11.57	219.62	34.14	-22.5	-23.3	19.8	0.00e+00	0	43	0	1382023168	5	3972
2026-01-01 13:16:12.57	219.92	34.28	-22.5	-23.5	19.7	0.00e+00	0	43	0	1388314624	5	4025
2026-01-01 13:16:13.57	220.22	34.43	-22.4	-23.2	19.9	0.00e+00	0	43	0	1393557504	5	3953
2026-01-01 13:16:14.57	220.52	34.57	-22.3	-23.1	19.9	0.00e+00	0	43	0	1398800384	5	3925
2026-01-01 13:16:15.57	220.82	34.72	-22.3	-22.9	20.0	0.00e+00	0	43	0	1405091840	5	3884
2026-01-01 13:16:16.58	221.13	34.86	-22.3	-22.9	20.0	0.00e+00	0	43	0	1410334720	5	3885
2026-01-01 13:16:17.58	221.44	35.00	-22.3	-23.0	20.0	0.00e+00	0	43	0	1416626176	5	3892
2026-01-01 13:16:18.58	221.76	35.15	-22.3	-22.9	20.0	0.00e+00	0	43	0	1421869056	5	3884
2026-01-01 13:16:19.59	222.07	35.29	-22.3	-23.1	19.9	0.00e+00	0	43	0	1428160512	5	3924
2026-01-01 13:16:20.59	222.39	35.43	-22.2	-22.9	20.0	0.00e+00	0	43	0	1433403392	5	3872
2026-01-01 13:16:21.60	222.72	35.58	-22.1	-22.6	20.2	0.00e+00	0	43	0	1438646272	5	3803
2026-01-01 13:16:22.60	223.04	35.72	-22.1	-22.6	20.1	0.00e+00	0	44	0	1444937728	5	3813
2026-01-01 13:16:23.60	223.37	35.86	-22.1	-22.6	20.1	0.00e+00	0	43	0	1450180608	5	3816
2026-01-01 13:16:24.60	223.69	36.00	-22.1	-22.5	20.2	0.00e+00	0	44	0	1455423488	5	3784
2026-01-01 13:16:25.61	224.03	36.14	-22.1	-22.5	20.2	0.00e+00	0	43	0	1461714944	5	3785
2026-01-01 13:16:26.61	224.36	36.28	-22.2	-22.7	20.1	0.00e+00	0	43	0	1466957824	5	3832
2026-01-01 13:16:27.62	224.70	36.42	-22.1	-22.7	20.1	0.00e+00	0	43	0	1472200704	5	3826
2026-01-01 13:16:28.63	225.05	36.56	-22.0	-22.3	20.3	0.00e+00	0	43	0	1478492160	5	3748
2026-01-01 13:16:29.63	225.39	36.70	-21.9	-22.2	20.4	0.00e+00	0	43	0	1483735040	5	3724
2026-01-01 13:16:30.64	225.74	36.84	-21.9	-22.2	20.4	0.00e+00	0	43	0	1490026496	5	3721
2026-01-01 13:16:31.64	226.09	36.98	-21.9	-22.1	20.4	0.00e+00	0	44	0	1495269376	5	3709
2026-01-01 13:16:32.64	226.44	37.12	-21.8	-22.0	20.5	0.00e+00	0	44	0	1501560832	5	3669
2026-01-01 13:16:33.65	226.80	37.25	-21.7	-22.3	20.6	0.00e+00	0	43	0	1506803712	4	3859
2026-01-01 13:16:34.65	227.16	37.39	-21.7	-22.3	20.6	0.00e+00	0	43	0	1512046592	4	3844
2026-01-01 13:16:35.65	227.52	37.52	-21.8	-22.5	20.5	0.00e+00	0	43	0	1518338048	4	3895
2026-01-01 13:16:36.65	227.88	37.66	-21.9	-22.6	20.4	0.00e+00	0	43	0	1523580928	4	3917
2026-01-01 13:16:37.66	228.25	37.79	-21.9	-22.6	20.4	0.00e+00	0	43	0	1528823808	4	3918
2026-01-01 13:16:38.66	228.62	37.92	-22.0	-22.8	20.3	0.00e+00	0	44	0	1535115264	4	3960
2026-01-01 13:16:39.67	228.99	38.06	-21.9	-22.7	20.4	0.00e+00	0	43	0	1540358144	4	3948
2026-01-01 13:16:40.68	229.37	38.19	-22.0	-22.8	20.3	0.00e+00	0	43	0	1546649600	4	3975
2026-01-01 13:16:41.68	229.75	38.32	-21.9	-22.6	20.4	0.00e+00	0	43	0	1551892480	4	3920
2026-01-01 13:16:42.69	230.14	38.45	-21.9	-22.6	20.4	1.10e-06	0	43	0	1557135360	4	3924
2026-01-01 13:16:43.69	230.52	38.58	-22.0	-22.8	20.3	0.00e+00	0	43	0	1563426816	4	3976
2026-01-01 13:16:44.69	230.91	38.70	-22.1	-23.0	20.2	0.00e+00	0	43	0	1568669696	4	4015
2026-01-01 13:16:45.69	231.30	38.83	-22.1	-23.1	20.2	0.00e+00	0	44	0	1574961152	4	4038
2026-01-01 13:16:46.69	231.69	38.96	-22.0	-22.8	20.3	0.00e+00	0	43	0	1580204032	4	3966
2026-01-01 13:16:47.70	232.09	39.08	-21.8	-22.5	20.5	0.00e+00	0	43	0	1585446912	4	3893
2026-01-01 13:16:48.70	232.49	39.20	-21.8	-22.5	20.5	0.00e+00	0	43	0	1591738368	4	3882
2026-01-01 13:16:49.70	232.89	39.33	-22.0	-22.9	20.3	0.00e+00	0	43	0	1596981248	4	3987
2026-01-01 13:16:50.70	233.30	39.45	-22.1	-23.2	20.2	0.00e+00	0	43	0	1602224128	4	4057
2026-01-01 13:16:51.71	233.71	39.57	-22.4	-23.7	19.9	0.00e+00	0	43	0	1608515584	4	4194
2026-01-01 13:16:52.71	234.12	39.69	-22.3	-23.5	20.0	0.00e+00	0	43	0	1613758464	4	4146
2026-01-01 13:16:53.71	234.54	39.80	-22.0	-22.8	20.4	0.00e+00	0	43	0	1619001344	4	3968
2026-01-01 13:16:54.71	234.95	39.92	-21.9	-22.7	20.4	0.00e+00	0	44	0	1625292800	4	3944
2026-01-01 13:16:55.72	235.38	40.03	-22.2	-23.3	20.1	0.00e+00	0	43	0	1630535680	4	4087
2026-01-01 13:16:56.72	235.80	40.15	-22.3	-23.4	20.1	0.00e+00	0	43	0	1636827136	4	4115
2026-01-01 13:16:57.73	236.23	40.26	-22.0	-22.9	20.3	0.00e+00	0	43	0	1642070016	4	3993
2026-01-01 13:16:58.74	236.66	40.37	-22.0	-22.8	20.4	0.00e+00	0	43	0	1648361472	4	3963
2026-01-01 13:16:59.74	237.09	40.48	-22.2	-23.2	20.2	0.00e+00	0	43	0	1653604352	4	4059
2026-01-01 13:17:00.75	237.53	40.59	-22.2	-23.3	20.1	0.00e+00	0	43	0	1658847232	4	4094
2026-01-01 13:17:01.75	237.97	40.70	-22.3	-23.5	20.0	0.00e+00	0	43	0	1665138688	4	4132
2026-01-01 13:17:02.76	238.41	40.80	-22.2	-23.3	20.1	0.00e+00	0	43	0	1670381568	4	4092
2026-01-01 13:17:03.76	238.86	40.90	-22.2	-23.3	20.1	0.00e+00	0	43	0	1675624448	4	4096
2026-01-01 13:17:04.77	239.31	41.01	-22.2	-23.3	20.1	0.00e+00	0	43	0	1681915904	4	4077
2026-01-01 13:17:05.77	239.75	41.11	-22.0	-23.0	20.3	0.00e+00	0	43	0	1687158784	4	4002
2026-01-01 13:17:06.77	240.21	41.20	-21.9	-22.7	20.4	0.00e+00	0	43	0	1692401664	4	3941
2026-01-01 13:17:07.77	240.66	41.30	-22.0	-22.9	20.3	0.00e+00	0	43	0	1698693120	4	3974
2026-01-01 13:17:08.78	241.12	41.40	-21.9	-22.6	20.5	0.00e+00	0	43	0	1703936000	4	3909
2026-01-01 13:17:09.78	241.58	41.49	-21.9	-22.6	20.5	0.00e+00	0	43	0	1710227456	4	3914
2026-01-01 13:17:10.78	242.04	41.58	-22.0	-22.8	20.4	0.00e+00	0	43	0	1715470336	4	3958
2026-01-01 13:17:11.79	242.51	41.67	-22.0	-22.9	20.3	0.00e+00	0	43	0	1721761792	4	3985
2026-01-01 13:17:12.79	242.98	41.76	-22.0	-22.9	20.3	0.00e+00	0	43	0	1727004672	4	3979
2026-01-01 13:17:13.79	243.45	41.84	-22.1	-23.1	20.2	0.00e+00	0	44	0	1732247552	4	4034
2026-01-01 13:17:14.80	243.92	41.93	-22.3	-23.5	20.0	0.00e+00	0	43	0	1738539008	4	4135
2026-01-01 13:17:15.80	244.40	42.01	-22.3	-23.5	20.0	0.00e+00	0	43	0	1743781888	4	4133
2026-01-01 13:17:16.81	244.88	42.09	-22.2	-23.4	20.1	0.00e+00	0	43	0	1749024768	4	4103
2026-01-01 13:17:17.80	245.35	42.17	-22.4	-23.6	20.0	0.00e+00	0	44	0	1755316224	4	4165
2026-01-01 13:17:18.81	245.84	42.24	-22.2	-23.4	20.1	0.00e+00	0	43	0	1760559104	4	4099
2026-01-01 13:17:19.81	246.32	42.31	-22.0	-22.9	20.3	0.00e+00	0	43	0	1765801984	4	3999
2026-01-01 13:17:20.81	246.80	42.39	-21.8	-22.5	20.5	0.00e+00	0	43	0	1772093440	4	3896
2026-01-01 13:17:21.82	247.30	42.46	-21.9	-22.7	20.4	0.00e+00	0	43	0	1777336320	4	3943
2026-01-01 13:17:22.82	247.79	42.52	-22.1	-23.0	20.3	0.00e+00	0	43	0	1783627776	4	4004
2026-01-01 13:17:23.82	248.28	42.59	-22.1	-23.1	20.2	1.10e-06	0	43	0	1788870656	4	4028
2026-01-01 13:17:24.82	248.77	42.65	-22.1	-23.2	20.2	0.00e+00	0	43	0	1794113536	4	4047
2026-01-01 13:17:25.83	249.27	42.71	-22.1	-23.0	20.3	0.00e+00	0	43	0	1800404992	4	4013
2026-01-01 13:17:26.83	249.77	42.77	-22.0	-23.0	20.3	0.00e+00	0	43	0	1805647872	4	4003
2026-01-01 13:17:27.83	250.27	42.82	-21.9	-22.6	20.5	0.00e+00	0	43	0	1811939328	4	3915
2026-01-01 13:17:28.83	250.77	42.88	-21.9	-22.6	20.5	0.00e+00	0	43	0	1817182208	4	3911
2026-01-01 13:17:29.83	251.27	42.93	-22.3	-23.4	20.1	0.00e+00	0	43	0	1822425088	4	4101
2026-01-01 13:17:30.83	251.77	42.98	-22.8	-24.1	19.5	0.00e+00	0	43	0	1828716544	5	4174
2026-01-01 13:17:31.84	252.28	43.02	-22.8	-24.1	19.5	0.00e+00	0	43	0	1833959424	5	4169
2026-01-01 13:17:32.84	252.79	43.07	-22.8	-24.0	19.5	4.50e-06	0	43	0	1840250880	5	4148
2026-01-01 13:17:33.85	253.30	43.11	-22.9	-24.2	19.4	0.00e+00	0	43	0	1845493760	5	4193
2026-01-01 13:17:34.85	253.81	43.15	-22.7	-23.8	19.6	0.00e+00	0	43	0	1850736640	5	4082
2026-01-01 13:17:35.86	254.32	43.19	-22.6	-23.6	19.8	5.70e-06	0	44	0	1857028096	5	4034
2026-01-01 13:17:36.86	254.84	43.22	-22.6	-23.5	19.8	0.00e+00	0	43	0	1862270976	5	4031
2026-01-01 13:17:37.86	255.35	43.25	-22.7	-23.8	19.6	0.00e+00	0	43	0	1867513856	5	4100
2026-01-01 13:17:38.86	255.86	43.28	-22.6	-23.5	19.8	1.10e-06	0	44	0	1873805312	5	4020
2026-01-01 13:17:39.87	256.38	43.31	-22.9	-24.2	19.5	0.00e+00	0	44	0	1879048192	5	4182
2026-01-01 13:17:40.87	256.89	43.33	-22.5	-23.5	19.8	0.00e+00	0	43	0	1884291072	5	4009
2026-01-01 13:17:41.87	257.41	43.36	-22.4	-23.1	20.0	0.00e+00	0	43	0	1890582528	5	3930
2026-01-01 13:17:42.87	257.93	43.37	-22.2	-22.9	20.1	0.00e+00	0	44	0	1895825408	5	3866
2026-01-01 13:17:43.88	258.45	43.39	-22.3	-23.0	20.1	0.00e+00	0	43	0	1902116864	5	3894
2026-01-01 13:17:44.88	258.97	43.41	-22.3	-23.1	20.0	3.40e-06	0	43	0	1907359744	5	3917
2026-01-01 13:17:45.89	259.49	43.42	-22.6	-23.7	19.7	0.00e+00	0	44	0	1913651200	5	4055
2026-01-01 13:17:46.90	260.01	43.43	-22.3	-23.0	20.0	0.00e+00	0	43	0	1918894080	5	3901
2026-01-01 13:17:47.90	260.53	43.43	-22.2	-22.7	20.2	3.40e-06	0	43	0	1924136960	5	3825
2026-01-01 13:17:48.91	261.05	43.44	-22.3	-22.9	20.1	0.00e+00	0	43	0	1930428416	5	3879
2026-01-01 13:17:49.91	261.57	43.44	-22.3	-23.0	20.1	0.00e+00	0	43	0	1935671296	5	3894
2026-01-01 13:17:50.92	262.09	43.44	-22.2	-22.7	20.2	0.00e+00	0	43	0	1940914176	5	3843
2026-01-01 13:17:51.92	262.61	43.43	-22.2	-22.8	20.2	0.00e+00	0	43	0	1947205632	5	3852
2026-01-01 13:17:52.92	263.13	43.43	-22.6	-23.5	19.8	0.00e+00	0	43	0	1952448512	5	4019
2026-01-01 13:17:53.92	263.65	43.42	-22.4	-23.3	20.0	0.00e+00	0	43	0	1957691392	5	3962
2026-01-01 13:17:54.92	264.17	43.41	-22.4	-23.2	20.0	0.00e+00	0	44	0	1963982848	5	3950
2026-01-01 13:17:55.93	264.69	43.39	-22.5	-23.4	19.9	0.00e+00	0	43	0	1969225728	5	3989
2026-01-01 13:17:56.94	265.21	43.37	-22.7	-23.8	19.7	5.70e-06	0	44	0	1975517184	5	4082
2026-01-01 13:17:57.94	265.73	43.36	-22.4	-23.1	20.0	0.00e+00	0	43	0	1980760064	5	3922
2026-01-01 13:17:58.93	266.24	43.33	-22.4	-23.3	19.9	0.00e+00	0	43	0	1987051520	5	3961
2026-01-01 13:17:59.93	266.75	43.31	-22.3	-23.0	20.1	0.00e+00	0	43	0	1992294400	5	3888
2026-01-01 13:18:00.94	267.27	43.28	-22.5	-23.4	19.9	0.00e+00	0	44	0	1997537280	5	3999
2026-01-01 13:18:01.94	267.78	43.25	-22.6	-23.7	19.7	0.00e+00	0	44	0	2003828736	5	4068
2026-01-01 13:18:02.95	268.30	43.22	-22.6	-23.7	19.7	0.00e+00	0	43	0	2009071616	5	4059
2026-01-01 13:18:03.95	268.81	43.19	-22.4	-23.3	19.9	0.00e+00	0	43	0	2014314496	5	3967
2026-01-01 13:18:04.95	269.32	43.15	-22.2	-22.9	20.1	0.00e+00	0	43	0	2020605952	5	3868
2026-01-01 13:18:05.95	269.83	43.11	-22.3	-22.9	20.1	0.00e+00	0	44	0	2025848832	5	3877
2026-01-01 13:18:06.96	270.34	43.07	-22.4	-23.1	20.0	0.00e+00	0	43	0	2031091712	5	3920
2026-01-01 13:18:07.96	270.85	43.03	-22.3	-23.0	20.1	0.00e+00	0	43	0	2037383168	5	3904
2026-01-01 13:18:08.97	271.36	42.98	-22.4	-23.2	20.0	0.00e+00	0	44	0	2042626048	5	3947
2026-01-01 13:18:09.97	271.86	42.93	-22.4	-23.1	20.0	0.00e+00	0	43	0	2048917504	5	3936
2026-01-01 13:18:10.98	272.37	42.88	-22.4	-23.1	20.0	0.00e+00	0	43	0	2054160384	5	3936
2026-01-01 13:18:11.98	272.87	42.83	-22.3	-23.0	20.1	0.00e+00	0	43	0	2060451840	5	3905
2026-01-01 13:18:12.98	273.36	42.77	-22.5	-23.4	19.9	0.00e+00	0	44	0	2065694720	5	4007
2026-01-01 13:18:13.99	273.86	42.71	-22.5	-23.4	19.9	0.00e+00	0	43	0	2070937600	5	3995
2026-01-01 13:18:14.99	274.36	42.65	-22.5	-23.3	19.9	0.00e+00	0	43	0	2077229056	5	3975
2026-01-01 13:18:15.99	274.85	42.59	-22.5	-23.4	19.9	0.00e+00	0	43	0	2082471936	5	3989
2026-01-01 13:18:17.00	275.35	42.52	-22.2	-22.7	20.2	0.00e+00	0	43	0	2087714816	5	3834
2026-01-01 13:18:18.00	275.84	42.46	-22.2	-22.9	20.1	0.00e+00	0	43	0	2094006272	5	3868
2026-01-01 13:18:19.00	276.32	42.39	-22.5	-23.5	19.8	0.00e+00	0	44	0	2099249152	5	4011
2026-01-01 13:18:20.00	276.81	42.32	-22.4	-23.2	20.0	0.00e+00	0	43	0	2104492032	5	3944
2026-01-01 13:18:21.01	277.29	42.24	-22.2	-22.9	20.2	0.00e+00	0	43	0	2110783488	5	3877
2026-01-01 13:18:22.01	277.77	42.17	-22.1	-22.6	20.3	0.00e+00	0	43	0	2116026368	5	3811
2026-01-01 13:18:23.01	278.25	42.09	-22.2	-22.8	20.2	0.00e+00	0	43	0	2122317824	5	3859
2026-01-01 13:18:24.01	278.73	42.01	-22.1	-22.6	20.3	0.00e+00	0	43	0	2127560704	5	3807
2026-01-01 13:18:25.02	279.21	41.93	-22.2	-22.8	20.2	0.00e+00	0	43	0	2132803584	5	3864
2026-01-01 13:18:26.02	279.68	41.85	-22.2	-22.8	20.2	0.00e+00	0	43	0	2139095040	5	3856
2026-01-01 13:18:27.02	280.14	41.76	-22.2	-22.8	20.2	0.00e+00	0	43	0	2144337920	5	3861
2026-01-01 13:18:28.02	280.61	41.68	-22.3	-23.1	20.1	0.00e+00	0	43	0	2149580800	5	3916
2026-01-01 13:18:29.03	281.08	41.59	-22.1	-22.6	20.3	0.00e+00	0	43	0	2155872256	5	3798
2026-01-01 13:18:30.03	281.54	41.49	-22.0	-22.4	20.4	0.00e+00	0	43	0	2161115136	5	3772
2026-01-01 13:18:31.04	282.00	41.40	-22.2	-22.7	20.2	0.00e+00	0	43	0	2167406592	5	3828
2026-01-01 13:18:32.04	282.46	41.31	-22.1	-22.6	20.2	0.00e+00	0	43	0	2172649472	5	3816
2026-01-01 13:18:33.04	282.91	41.21	-22.4	-23.2	20.0	0.00e+00	0	43	0	2177892352	5	3940
2026-01-01 13:18:34.05	283.37	41.11	-22.2	-22.9	20.1	0.00e+00	0	43	0	2184183808	5	3877
2026-01-01 13:18:35.06	283.82	41.01	-22.2	-22.8	20.2	0.00e+00	0	43	0	2189426688	5	3856
2026-01-01 13:18:36.06	284.26	40.91	-22.2	-22.9	20.2	0.00e+00	0	43	0	2195718144	5	3870
2026-01-01 13:18:37.07	284.71	40.81	-22.4	-23.1	20.0	0.00e+00	0	44	0	2200961024	5	3931
2026-01-01 13:18:38.07	285.15	40.70	-22.1	-22.5	20.3	0.00e+00	0	43	0	2206203904	5	3791
2026-01-01 13:18:39.08	285.59	40.60	-22.2	-22.7	20.2	0.00e+00	0	43	0	2212495360	5	3830
2026-01-01 13:18:40.08	286.02	40.49	-22.2	-22.8	20.2	0.00e+00	0	43	0	2217738240	5	3862
2026-01-01 13:18:41.09	286.46	40.38	-22.4	-23.1	20.0	0.00e+00	0	43	0	2224029696	5	3935
2026-01-01 13:18:42.09	286.88	40.27	-22.2	-22.8	20.2	0.00e+00	0	43	0	2229272576	5	3860
2026-01-01 13:18:43.10	287.31	40.16	-22.1	-22.6	20.3	0.00e+00	0	44	0	2234515456	5	3800
2026-01-01 13:18:44.10	287.74	40.04	-22.2	-22.7	20.2	0.00e+00	0	43	0	2240806912	5	3825
2026-01-01 13:18:45.10	288.15	39.93	-22.0	-22.3	20.4	0.00e+00	0	43	0	2246049792	5	3735
2026-01-01 13:18:46.10	288.57	39.82	-21.9	-22.1	20.5	0.00e+00	0	43	0	2251292672	5	3706
2026-01-01 13:18:47.10	288.98	39.70	-22.0	-22.3	20.5	0.00e+00	0	43	0	2257584128	5	3733
2026-01-01 13:18:48.11	289.40	39.58	-22.0	-22.4	20.4	0.00e+00	0	43	0	2262827008	5	3765
2026-01-01 13:18:49.11	289.80	39.46	-22.2	-22.8	20.2	0.00e+00	0	43	0	2269118464	5	3856
2026-01-01 13:18:50.10	290.20	39.34	-22.2	-22.8	20.2	0.00e+00	0	43	0	2274361344	5	3856
2026-01-01 13:18:51.11	290.61	39.22	-22.2	-22.9	20.1	0.00e+00	0	43	0	2279604224	5	3873
2026-01-01 13:18:52.11	291.01	39.10	-22.1	-22.6	20.3	0.00e+00	0	43	0	2285895680	5	3806
2026-01-01 13:18:53.11	291.40	38.97	-22.1	-22.6	20.3	0.00e+00	0	43	0	2291138560	5	3802
2026-01-01 13:18:54.11	291.80	38.85	-22.2	-22.8	20.1	0.00e+00	0	43	0	2296381440	5	3860
2026-01-01 13:18:55.11	292.19	38.72	-22.1	-22.5	20.3	0.00e+00	0	44	0	2302672896	5	3785
2026-01-01 13:18:56.12	292.58	38.59	-22.0	-22.3	20.4	0.00e+00	0	43	0	2307915776	5	3742
2026-01-01 13:18:57.13	292.96	38.47	-22.0	-22.4	20.3	0.00e+00	0	43	0	2314207232	5	3761
2026-01-01 13:18:58.14	293.35	38.34	-21.9	-22.3	20.4	0.00e+00	0	43	0	2319450112	5	3732
2026-01-01 13:18:59.14	293.72	38.21	-22.0	-22.3	20.4	0.00e+00	0	43	0	2324692992	5	3751
2026-01-01 13:19:00.14	294.10	38.08	-22.0	-22.3	20.4	0.00e+00	0	44	0	2330984448	5	3742
2026-01-01 13:19:01.15	294.47	37.94	-21.9	-22.3	20.4	0.00e+00	0	43	0	2336227328	5	3731
2026-01-01 13:19:02.15	294.84	37.81	-22.0	-22.4	20.3	0.00e+00	0	44	0	2342518784	5	3766
2026-01-01 13:19:03.15	295.21	37.68	-22.2	-22.8	20.1	0.00e+00	0	43	0	2347761664	5	3847
2026-01-01 13:19:04.15	295.57	37.55	-22.0	-22.4	20.4	0.00e+00	0	43	0	2353004544	5	3748
2026-01-01 13:19:05.16	295.93	37.41	-22.2	-22.9	20.1	0.00e+00	0	43	0	2359296000	5	3875
2026-01-01 13:19:06.17	296.29	37.28	-22.5	-23.4	19.8	0.00e+00	0	44	0	2364538880	5	3997
2026-01-01 13:19:07.17	296.65	37.14	-22.6	-23.6	19.7	0.00e+00	0	43	0	2369781760	5	4045
2026-01-01 13:19:08.17	297.00	37.00	-22.4	-23.3	19.9	0.00e+00	0	44	0	2376073216	5	3983
2026-01-01 13:19:09.18	297.35	36.87	-22.4	-23.3	19.9	0.00e+00	0	43	0	2381316096	5	3972
2026-01-01 13:19:10.19	297.70	36.73	-22.6	-23.5	19.8	0.00e+00	0	43	0	2387607552	5	4020
2026-01-01 13:19:11.20	298.04	36.59	-22.4	-23.1	20.0	0.00e+00	0	43	0	2392850432	5	3922
2026-01-01 13:19:12.20	298.38	36.45	-22.2	-22.8	20.1	0.00e+00	0	44	0	2398093312	5	3864
2026-01-01 13:19:13.21	298.72	36.31	-22.1	-22.7	20.2	0.00e+00	0	43	0	2404384768	5	3830
2026-01-01 13:19:14.20	299.05	36.17	-22.1	-22.6	20.2	0.00e+00	0	43	0	2409627648	5	3825
2026-01-01 13:19:15.19	299.38	36.03	-22.2	-22.7	20.1	0.00e+00	0	43	0	2415919104	5	3840
2026-01-01 13:19:16.19	299.71	35.89	-22.0	-22.5	20.3	0.00e+00	0	43	0	2421161984	5	3785
2026-01-01 13:19:17.20	300.04	35.75	-22.0	-22.4	20.3	0.00e+00	0	43	0	2426404864	5	3773
2026-01-01 13:19:18.20	300.36	35.61	-22.1	-22.7	20.2	0.00e+00	0	44	0	2432696320	5	3822
2026-01-01 13:19:19.20	300.68	35.47	-22.1	-22.7	20.2	0.00e+00	0	43	0	2437939200	5	3822
2026-01-01 13:19:20.21	301.00	35.33	-22.3	-22.9	20.0	0.00e+00	0	44	0	2443182080	5	3882
2026-01-01 13:19:21.21	301.31	35.18	-22.5	-23.4	19.8	0.00e+00	0	43	0	2449473536	5	4000
2026-01-01 13:19:22.21	301.63	35.04	-22.5	-23.4	19.8	0.00e+00	0	44	0	2454716416	5	4007
2026-01-01 13:19:23.21	301.94	34.90	-22.5	-23.4	19.8	0.00e+00	0	43	0	2459959296	5	4007
2026-01-01 13:19:24.22	302.24	34.76	-22.2	-22.9	20.1	0.00e+00	0	44	0	2466250752	5	3873
2026-01-01 13:19:25.22	302.55	34.61	-22.1	-22.6	20.2	0.00e+00	0	44	0	2471493632	5	3816
2026-01-01 13:19:26.23	302.85	34.47	-22.2	-22.7	20.1	0.00e+00	0	44	0	2477785088	5	3836
2026-01-01 13:19:27.23	303.15	34.33	-22.1	-22.5	20.2	0.00e+00	0	44	0	2483027968	5	3795
2026-01-01 13:19:28.24	303.45	34.18	-22.2	-22.7	20.1	0.00e+00	0	43	0	2489319424	5	3832
2026-01-01 13:19:29.24	303.74	34.04	-22.3	-22.9	20.0	0.00e+00	0	43	0	2494562304	5	3884
2026-01-01 13:19:30.24	304.03	33.89	-22.3	-23.0	20.0	0.00e+00	0	43	0	2499805184	5	3902
2026-01-01 13:19:31.24	304.32	33.75	-22.3	-23.1	20.0	0.00e+00	0	43	0	2506096640	5	3933
2026-01-01 13:19:32.25	304.61	33.60	-22.4	-23.2	19.9	0.00e+00	0	43	0	2511339520	5	3945
2026-01-01 13:19:33.25	304.89	33.46	-22.2	-22.8	20.1	0.00e+00	0	44	0	2516582400	5	3861
2026-01-01 13:19:34.26	305.18	33.31	-22.1	-22.6	20.2	0.00e+00	0	43	0	2522873856	5	3807
2026-01-01 13:19:35.26	305.46	33.17	-22.2	-22.7	20.1	0.00e+00	0	43	0	2528116736	5	3817
2026-01-01 13:19:36.27	305.73	33.02	-22.2	-22.7	20.1	0.00e+00	0	44	0	2533359616	5	3825
2026-01-01 13:19:37.27	306.01	32.88	-22.3	-23.0	20.0	0.00e+00	0	43	0	2539651072	5	3910
2026-01-01 13:19:38.27	306.28	32.74	-22.4	-23.2	19.8	0.00e+00	0	43	0	2544893952	5	3960
2026-01-01 13:19:39.26	306.54	32.59	-22.6	-23.6	19.7	0.00e+00	0	43	0	2551185408	5	4062
2026-01-01 13:19:40.26	306.81	32.45	-22.7	-23.9	19.5	0.00e+00	0	44	0	2556428288	5	4124
2026-01-01 13:19:41.27	307.08	32.30	-22.5	-23.5	19.7	0.00e+00	0	44	0	2561671168	5	4033
2026-01-01 13:19:42.27	307.34	32.16	-22.5	-23.4	19.8	0.00e+00	0	44	0	2567962624	5	3989
2026-01-01 13:19:43.28	307.60	32.01	-22.5	-23.4	19.8	0.00e+00	0	44	0	2573205504	5	4000
2026-01-01 13:19:44.29	307.86	31.87	-22.5	-23.4	19.7	0.00e+00	0	44	0	2579496960	5	4002
2026-01-01 13:19:45.29	308.12	31.72	-22.3	-22.9	20.0	0.00e+00	0	43	0	2584739840	5	3889
2026-01-01 13:19:46.30	308.37	31.58	-22.3	-22.9	20.0	0.00e+00	0	43	0	2589982720	5	3874
2026-01-01 13:19:47.30	308.62	31.43	-22.4	-23.1	19.9	0.00e+00	0	44	0	2596274176	5	3937
2026-01-01 13:19:48.30	308.87	31.29	-22.5	-23.4	19.7	0.00e+00	0	43	0	2601517056	5	4009
2026-01-01 13:19:49.31	309.12	31.15	-22.7	-23.8	19.6	0.00e+00	0	43	0	2606759936	5	4088
2026-01-01 13:19:50.31	309.36	31.00	-22.8	-24.1	19.4	0.00e+00	0	44	0	2613051392	5	4164
2026-01-01 13:19:51.32	309.61	30.86	-22.8	-24.1	19.4	0.00e+00	0	43	0	2618294272	5	4171
2026-01-01 13:19:52.32	309.85	30.72	-22.9	-24.2	19.4	0.00e+00	0	43	0	2624585728	5	4195
2026-01-01 13:19:53.32	310.08	30.57	-22.9	-24.3	19.3	0.00e+00	0	43	0	2629828608	5	4210
2026-01-01 13:19:54.32	310.32	30.43	-22.7	-23.9	19.5	0.00e+00	0	43	0	2635071488	5	4118
2026-01-01 13:19:55.32	310.55	30.29	-22.8	-24.0	19.5	0.00e+00	0	43	0	2641362944	5	4138
2026-01-01 13:19:56.32	310.79	30.15	-22.8	-24.1	19.4	0.00e+00	0	43	0	2646605824	5	4171
2026-01-01 13:19:57.33	311.02	30.00	-22.7	-23.8	19.5	0.00e+00	0	43	0	2652897280	5	4094
2026-01-01 13:19:58.33	311.24	29.86	-22.7	-23.8	19.5	0.00e+00	0	43	0	2658140160	5	4102
2026-01-01 13:19:59.33	311.47	29.72	-22.8	-24.1	19.4	0.00e+00	0	43	0	2663383040	5	4167
2026-01-01 13:20:00.33	311.69	29.58	-22.9	-24.2	19.3	0.00e+00	0	43	0	2669674496	5	4203
2026-01-01 13:20:01.34	311.92	29.44	-23.0	-24.1	19.2	0.00e+00	0	43	0	2674917376	6	4048
2026-01-01 13:20:02.34	312.14	29.29	-22.8	-23.6	19.4	0.00e+00	0	44	0	2680160256	6	3947
2026-01-01 13:20:03.35	312.36	29.15	-22.7	-23.5	19.5	0.00e+00	0	43	0	2686451712	6	3905
2026-01-01 13:20:04.35	312.57	29.01	-22.7	-23.4	19.5	0.00e+00	0	43	0	2691694592	6	3892
2026-01-01 13:20:05.35	312.79	28.87	-22.7	-23.4	19.5	0.00e+00	0	43	0	2697986048	6	3879
2026-01-01 13:20:06.35	313.00	28.73	-22.5	-23.0	19.7	0.00e+00	0	44	0	2703228928	6	3798
2026-01-01 13:20:07.35	313.21	28.59	-22.6	-23.1	19.7	0.00e+00	0	43	0	2708471808	6	3809
2026-01-01 13:20:08.35	313.42	28.45	-22.6	-23.1	19.6	0.00e+00	0	43	0	2714763264	6	3826
2026-01-01 13:20:09.36	313.63	28.31	-22.7	-23.3	19.5	0.00e+00	0	44	0	2720006144	6	3864
2026-01-01 13:20:10.36	313.84	28.18	-22.7	-23.4	19.5	0.00e+00	0	43	0	2725249024	6	3884
2026-01-01 13:20:11.37	314.04	28.04	-22.8	-23.5	19.4	0.00e+00	0	44	0	2731540480	6	3920
2026-01-01 13:20:12.37	314.24	27.90	-22.8	-23.5	19.4	0.00e+00	0	44	0	2736783360	6	3923
2026-01-01 13:20:13.38	314.45	27.76	-22.8	-23.6	19.4	0.00e+00	0	44	0	2743074816	6	3936
2026-01-01 13:20:14.38	314.64	27.62	-22.7	-23.3	19.5	0.00e+00	0	44	0	2748317696	6	3880
2026-01-01 13:20:15.38	314.84	27.49	-22.7	-23.3	19.6	0.00e+00	0	44	0	2753560576	6	3858
2026-01-01 13:20:16.39	315.04	27.35	-22.7	-23.3	19.5	0.00e+00	0	43	0	2759852032	6	3875
2026-01-01 13:20:17.40	315.23	27.21	-22.7	-23.3	19.5	0.00e+00	0	44	0	2765094912	6	3861
2026-01-01 13:20:18.40	315.43	27.07	-22.5	-22.9	19.7	0.00e+00	0	43	0	2771386368	6	3776
2026-01-01 13:20:19.41	315.62	26.94	-22.5	-22.9	19.7	0.00e+00	0	43	0	2776629248	6	3769
2026-01-01 13:20:20.41	315.81	26.80	-22.5	-23.0	19.7	0.00e+00	0	43	0	2781872128	6	3794
2026-01-01 13:20:21.42	316.00	26.67	-22.6	-23.1	19.6	0.00e+00	0	43	0	2788163584	6	3829
2026-01-01 13:20:22.42	316.18	26.53	-22.7	-23.3	19.5	0.00e+00	0	43	0	2793406464	6	3876
2026-01-01 13:20:23.42	316.37	26.40	-22.8	-23.6	19.4	0.00e+00	0	44	0	2798649344	6	3935
2026-01-01 13:20:24.42	316.55	26.26	-22.9	-23.8	19.3	0.00e+00	0	44	0	2804940800	6	3988
2026-01-01 13:20:25.43	316.73	26.13	-23.0	-23.9	19.2	0.00e+00	0	43	0	2810183680	6	4017
2026-01-01 13:20:26.43	316.91	26.00	-23.0	-24.0	19.2	0.00e+00	0	43	0	2816475136	6	4033
2026-01-01 13:20:27.44	317.09	25.86	-23.0	-24.0	19.2	0.00e+00	0	44	0	2821718016	6	4026
2026-01-01 13:20:28.44	317.27	25.73	-23.0	-23.9	19.2	0.00e+00	0	44	0	2826960896	6	4013
2026-01-01 13:20:29.44	317.44	25.60	-22.9	-23.8	19.2	0.00e+00	0	44	0	2833252352	6	3983
2026-01-01 13:20:30.44	317.62	25.47	-22.9	-23.8	19.2	0.00e+00	0	43	0	2838495232	6	3997
2026-01-01 13:20:31.44	317.79	25.34	-22.9	-23.8	19.2	0.00e+00	0	43	0	2844786688	6	3997
2026-01-01 13:20:32.44	317.96	25.21	-23.0	-23.9	19.2	0.00e+00	0	43	0	2850029568	6	4011
2026-01-01 13:20:33.45	318.13	25.07	-22.9	-23.8	19.2	0.00e+00	0	44	0	2855272448	6	3993
2026-01-01 13:20:34.45	318.30	24.94	-22.9	-23.8	19.2	0.00e+00	0	43	0	2861563904	6	3997
2026-01-01 13:20:35.45	318.47	24.81	-22.9	-23.9	19.2	0.00e+00	0	43	0	2866806784	6	4003
2026-01-01 13:20:36.46	318.64	24.68	-23.0	-23.9	19.2	0.00e+00	0	43	0	2872049664	6	4007
2026-01-01 13:20:37.46	318.80	24.56	-22.9	-23.7	19.3	0.00e+00	0	43	0	2878341120	6	3972
2026-01-01 13:20:38.47	318.96	24.43	-22.9	-23.7	19.3	0.00e+00	0	44	0	2883584000	6	3956
2026-01-01 13:20:39.47	319.13	24.30	-22.9	-23.7	19.3	0.00e+00	0	44	0	2888826880	6	3966
2026-01-01 13:20:40.48	319.29	24.17	-23.1	-24.1	19.1	0.00e+00	0	43	0	2895118336	6	4053
2026-01-01 13:20:41.48	319.45	24.04	-23.1	-24.1	19.0	0.00e+00	0	44	0	2900361216	6	4064
2026-01-01 13:20:42.48	319.61	23.92	-23.1	-24.2	19.0	0.00e+00	0	44	0	2906652672	6	4070
2026-01-01 13:20:43.49	319.76	23.79	-23.2	-24.4	18.9	0.00e+00	0	43	0	2911895552	6	4120
2026-01-01 13:20:44.49	319.92	23.66	-23.2	-24.5	18.9	0.00e+00	0	43	0	2918187008	6	4150
2026-01-01 13:20:45.49	320.07	23.54	-23.3	-24.6	18.8	0.00e+00	0	44	0	2923429888	6	4179
2026-01-01 13:20:46.49	320.23	23.41	-23.4	-24.8	18.7	0.00e+00	0	43	0	2928672768	6	4228
2026-01-01 13:20:47.50	320.38	23.29	-23.7	-25.0	18.3	0.00e+00	0	44	0	2934964224	7	4172
2026-01-01 13:20:48.50	320.53	23.16	-23.8	-25.2	18.2	0.00e+00	0	44	0	2940207104	7	4213
2026-01-01 13:20:49.51	320.68	23.04	-23.5	-24.6	18.6	0.00e+00	0	43	0	2945449984	7	4061
2026-01-01 13:20:50.51	320.83	22.91	-23.4	-24.2	18.7	0.00e+00	0	43	0	2951741440	7	3980
2026-01-01 13:20:51.51	320.98	22.79	-23.3	-24.1	18.8	0.00e+00	0	44	0	2956984320	7	3955
2026-01-01 13:20:52.51	321.12	22.67	-23.4	-24.2	18.7	0.00e+00	0	44	0	2962227200	7	3975
2026-01-01 13:20:53.51	321.27	22.55	-23.4	-24.4	18.7	0.00e+00	0	44	0	2968518656	7	4014
2026-01-01 13:20:54.51	321.41	22.42	-23.5	-24.4	18.6	0.00e+00	0	43	0	2973761536	7	4028
2026-01-01 13:20:55.52	321.56	22.30	-23.5	-24.5	18.6	0.00e+00	0	44	0	2980052992	7	4059
2026-01-01 13:20:56.52	321.70	22.18	-23.6	-24.7	18.5	0.00e+00	0	43	0	2985295872	7	4083
2026-01-01 13:20:57.53	321.84	22.06	-23.6	-24.7	18.4	0.00e+00	0	44	0	2991587328	7	4096
2026-01-01 13:20:58.53	321.98	21.94	-23.7	-24.8	18.4	0.00e+00	0	44	0	2996830208	7	4132
2026-01-01 13:20:59.54	322.12	21.82	-23.7	-24.9	18.3	0.00e+00	0	43	0	3002073088	7	4154
2026-01-01 13:21:00.54	322.26	21.70	-23.7	-24.9	18.3	0.00e+00	0	44	0	3008364544	7	4153
2026-01-01 13:21:01.55	322.40	21.58	-23.8	-25.1	18.2	0.00e+00	0	43	0	3013607424	7	4188
2026-01-01 13:21:02.56	322.53	21.46	-23.8	-25.1	18.2	0.00e+00	0	43	0	3018850304	7	4198
2026-01-01 13:21:03.56	322.67	21.34	-23.7	-25.0	18.3	0.00e+00	0	44	0	3025141760	7	4177
2026-01-01 13:21:04.57	322.80	21.22	-23.7	-25.0	18.3	0.00e+00	0	44	0	3030384640	7	4178
2026-01-01 13:21:05.58	322.94	21.10	-23.8	-25.1	18.2	0.00e+00	0	43	0	3036676096	7	4197
2026-01-01 13:21:06.59	323.07	20.98	-23.9	-25.3	18.1	0.00e+00	0	43	0	3041918976	7	4239
2026-01-01 13:21:07.59	323.20	20.87	-23.9	-25.4	18.0	0.00e+00	0	44	0	3048210432	7	4283
2026-01-01 13:21:08.59	323.33	20.75	-24.0	-25.5	18.0	0.00e+00	0	44	0	3053453312	7	4300
2026-01-01 13:21:09.60	323.46	20.63	-24.1	-25.4	17.8	0.00e+00	0	43	0	3058696192	8	4147
2026-01-01 13:21:10.61	323.59	20.52	-24.2	-25.4	17.8	0.00e+00	0	44	0	3064987648	8	4167
2026-01-01 13:21:11.61	323.72	20.40	-24.2	-25.6	17.7	0.00e+00	0	44	0	3070230528	8	4202
2026-01-01 13:21:12.62	323.84	20.29	-24.2	-25.6	17.7	0.00e+00	0	44	0	3075473408	8	4204
2026-01-01 13:21:13.62	323.97	20.17	-24.2	-25.6	17.7	0.00e+00	0	44	0	3081764864	8	4215
2026-01-01 13:21:14.62	324.09	20.06	-24.3	-25.6	17.7	0.00e+00	0	43	0	3087007744	8	4225
2026-01-01 13:21:15.62	324.22	19.95	-24.3	-25.7	17.7	0.00e+00	0	44	0	3092250624	8	4240
2026-01-01 13:21:16.63	324.34	19.83	-24.4	-25.9	17.5	0.00e+00	0	43	0	3098542080	8	4297
2026-01-01 13:21:17.64	324.46	19.72	-24.3	-25.8	17.6	0.00e+00	0	44	0	3103784960	8	4265
2026-01-01 13:21:18.64	324.58	19.61	-24.3	-25.8	17.6	0.00e+00	0	43	0	3110076416	8	4280
2026-01-01 13:21:19.64	324.70	19.49	-24.3	-25.8	17.6	0.00e+00	0	44	0	3115319296	8	4262
2026-01-01 13:21:20.64	324.82	19.38	-24.3	-25.7	17.7	0.00e+00	0	44	0	3121610752	8	4231
2026-01-01 13:21:21.64	324.94	19.27	-24.3	-25.8	17.6	0.00e+00	0	44	0	3126853632	8	4269
2026-01-01 13:21:22.64	325.06	19.16	-24.2	-25.6	17.7	0.00e+00	0	43	0	3132096512	8	4216
2026-01-01 13:21:23.65	325.18	19.05	-24.2	-25.5	17.7	0.00e+00	0	43	0	3138387968	8	4198
2026-01-01 13:21:24.66	325.29	18.94	-24.2	-25.6	17.7	0.00e+00	0	43	0	3143630848	8	4213
2026-01-01 13:21:25.66	325.41	18.83	-24.2	-25.6	17.7	0.00e+00	0	43	0	3148873728	8	4208
2026-01-01 13:21:26.65	325.52	18.72	-24.4	-25.9	17.5	0.00e+00	0	43	0	3155165184	8	4277
2026-01-01 13:21:27.66	325.64	18.61	-24.3	-25.8	17.6	0.00e+00	0	43	0	3160408064	8	4257
2026-01-01 13:21:28.66	325.75	18.50	-24.3	-25.7	17.6	0.00e+00	0	43	0	3165650944	8	4238
2026-01-01 13:21:29.67	325.86	18.39	-24.3	-25.6	17.6	0.00e+00	0	44	0	3171942400	8	4224
2026-01-01 13:21:30.67	325.97	18.29	-24.4	-26.0	17.4	0.00e+00	0	44	0	3177185280	8	4304
2026-01-01 13:21:31.67	326.08	18.18	-24.4	-25.5	17.4	0.00e+00	0	43	0	3183476736	9	4065
2026-01-01 13:21:32.67	326.19	18.07	-24.5	-25.6	17.4	0.00e+00	0	43	0	3188719616	9	4100
2026-01-01 13:21:33.67	326.30	17.97	-24.5	-25.7	17.3	0.00e+00	0	43	0	3193962496	9	4129
2026-01-01 13:21:34.67	326.41	17.86	-24.6	-25.8	17.3	0.00e+00	0	43	0	3200253952	9	4140
2026-01-01 13:21:35.67	326.52	17.75	-24.5	-25.8	17.2	0.00e+00	0	43	0	3205496832	9	4140
2026-01-01 13:21:36.68	326.62	17.65	-24.4	-25.5	17.4	0.00e+00	0	43	0	3211788288	9	4085
2026-01-01 13:21:37.68	326.73	17.54	-24.5	-25.6	17.4	0.00e+00	0	44	0	3217031168	9	4086
2026-01-01 13:21:38.68	326.84	17.44	-24.5	-25.7	17.3	0.00e+00	0	43	0	3222274048	9	4123
2026-01-01 13:21:39.68	326.94	17.33	-24.6	-25.9	17.2	1.10e-06	0	44	0	3228565504	9	4181
2026-01-01 13:21:40.69	327.05	17.23	-24.6	-25.8	17.2	0.00e+00	0	44	0	3233808384	9	4156
2026-01-01 13:21:41.69	327.15	17.12	-24.6	-25.8	17.2	0.00e+00	0	43	0	3239051264	9	4147
2026-01-01 13:21:42.70	327.25	17.02	-24.6	-25.9	17.2	0.00e+00	0	43	0	3245342720	9	4181
2026-01-01 13:21:43.70	327.35	16.92	-24.6	-25.9	17.2	0.00e+00	0	44	0	3250585600	9	4181
2026-01-01 13:21:44.71	327.46	16.81	-24.7	-26.2	17.0	0.00e+00	0	44	0	3256877056	9	4257
2026-01-01 13:21:45.71	327.56	16.71	-24.7	-26.2	17.0	0.00e+00	0	44	0	3262119936	9	4251
2026-01-01 13:21:46.71	327.66	16.61	-24.8	-26.4	16.9	0.00e+00	0	43	0	3267362816	9	4318
2026-01-01 13:21:47.72	327.76	16.51	-24.8	-26.4	16.9	0.00e+00	0	43	0	3273654272	9	4320
2026-01-01 13:21:48.72	327.86	16.41	-24.9	-26.6	16.8	0.00e+00	0	44	0	3278897152	9	4367
2026-01-01 13:21:49.72	327.95	16.30	-24.9	-26.5	16.8	0.00e+00	0	44	0	3284140032	9	4340
2026-01-01 13:21:50.73	328.05	16.20	-24.9	-26.6	16.8	0.00e+00	0	43	0	3290431488	9	4363
2026-01-01 13:21:51.73	328.15	16.10	-24.9	-26.6	16.7	0.00e+00	0	43	0	3295674368	9	4370
2026-01-01 13:21:52.74	328.24	16.00	-24.9	-26.7	16.7	0.00e+00	0	43	0	3301965824	9	4384
2026-01-01 13:21:53.74	328.34	15.90	-25.0	-26.2	16.7	0.00e+00	0	43	0	3307208704	10	4160
2026-01-01 13:21:54.73	328.43	15.80	-25.0	-26.3	16.6	0.00e+00	0	43	0	3312451584	10	4180
2026-01-01 13:21:55.73	328.53	15.71	-25.0	-26.3	16.6	0.00e+00	0	43	0	3318743040	10	4184
2026-01-01 13:21:56.73	328.62	15.61	-25.0	-26.3	16.6	0.00e+00	0	44	0	3323985920	10	4180
2026-01-01 13:21:57.74	328.72	15.51	-25.2	-26.7	16.4	0.00e+00	0	43	0	3330277376	10	4273
2026-01-01 13:21:58.73	328.81	15.41	-25.1	-26.5	16.5	0.00e+00	0	44	0	3335520256	10	4211
2026-01-01 13:21:59.74	328.90	15.31	-25.1	-26.6	16.5	0.00e+00	0	44	0	3340763136	10	4238
2026-01-01 13:22:00.74	328.99	15.22	-25.1	-26.5	16.5	0.00e+00	0	43	0	3347054592	10	4229
2026-01-01 13:22:01.75	329.08	15.12	-25.1	-26.4	16.6	0.00e+00	0	44	0	3352297472	10	4197
2026-01-01 13:22:02.75	329.17	15.02	-25.1	-26.5	16.5	0.00e+00	0	43	0	3357540352	10	4227
2026-01-01 13:22:03.75	329.26	14.93	-25.2	-26.6	16.4	0.00e+00	0	44	0	3363831808	10	4259
2026-01-01 13:22:04.75	329.35	14.83	-25.3	-26.8	16.3	0.00e+00	0	44	0	3369074688	10	4305
2026-01-01 13:22:05.76	329.44	14.73	-25.4	-27.0	16.2	0.00e+00	0	43	0	3374317568	10	4371
2026-01-01 13:22:06.76	329.53	14.64	-25.3	-27.0	16.2	0.00e+00	0	43	0	3380609024	10	4354
2026-01-01 13:22:07.76	329.62	14.54	-25.4	-27.1	16.1	0.00e+00	0	44	0	3385851904	10	4394
2026-01-01 13:22:08.76	329.71	14.45	-25.4	-27.1	16.1	0.00e+00	0	44	0	3392143360	10	4397
2026-01-01 13:22:09.77	329.79	14.35	-25.4	-27.2	16.1	0.00e+00	0	43	0	3397386240	10	4404
2026-01-01 13:22:10.77	329.88	14.26	-25.4	-27.2	16.1	0.00e+00	0	44	0	3402629120	10	4402
2026-01-01 13:22:11.78	329.96	14.17	-25.4	-27.1	16.1	0.00e+00	0	43	0	3408920576	10	4385
2026-01-01 13:22:12.78	330.05	14.07	-25.4	-27.1	16.1	0.00e+00	0	44	0	3414163456	10	4394
2026-01-01 13:22:13.79	330.13	13.98	-25.4	-27.1	16.1	0.00e+00	0	43	0	3420454912	10	4388
2026-01-01 13:22:14.79	330.22	13.89	-25.5	-26.9	15.9	0.00e+00	0	44	0	3425697792	11	4226
2026-01-01 13:22:15.80	330.30	13.79	-25.7	-27.3	15.8	0.00e+00	0	43	0	3430940672	11	4329
2026-01-01 13:22:16.80	330.39	13.70	-25.6	-27.1	15.8	0.00e+00	0	44	0	3437232128	11	4272
2026-01-01 13:22:17.80	330.47	13.61	-25.7	-27.3	15.7	0.00e+00	0	43	0	3442475008	11	4339
2026-01-01 13:22:18.80	330.55	13.52	-25.6	-27.1	15.8	0.00e+00	0	43	0	3447717888	11	4280
2026-01-01 13:22:19.80	330.63	13.43	-25.6	-27.1	15.8	0.00e+00	0	44	0	3454009344	11	4275
2026-01-01 13:22:20.81	330.71	13.33	-25.6	-27.1	15.9	0.00e+00	0	44	0	3459252224	11	4271
2026-01-01 13:22:21.82	330.80	13.24	-25.7	-27.4	15.7	0.00e+00	0	44	0	3465543680	11	4359
2026-01-01 13:22:22.81	330.87	13.15	-25.7	-27.3	15.7	0.00e+00	0	44	0	3470786560	11	4328
2026-01-01 13:22:23.82	330.95	13.06	-25.7	-27.2	15.8	0.00e+00	0	44	0	3476029440	11	4304
2026-01-01 13:22:24.82	331.03	12.97	-25.7	-27.2	15.7	0.00e+00	0	43	0	3482320896	11	4304
2026-01-01 13:22:25.82	331.11	12.88	-25.6	-27.1	15.8	0.00e+00	0	43	0	3487563776	11	4273
2026-01-01 13:22:26.82	331.19	12.79	-25.6	-27.2	15.7	0.00e+00	0	44	0	3492806656	11	4302
2026-01-01 13:22:27.83	331.27	12.70	-25.6	-27.2	15.7	0.00e+00	0	44	0	3499098112	11	4300
2026-01-01 13:22:28.83	331.35	12.61	-25.7	-27.3	15.7	0.00e+00	0	43	0	3504340992	11	4320
2026-01-01 13:22:29.83	331.42	12.53	-25.8	-27.5	15.6	0.00e+00	0	43	0	3510632448	11	4379
2026-01-01 13:22:30.84	331.50	12.44	-25.8	-27.5	15.5	0.00e+00	0	43	0	3515875328	11	4391
2026-01-01 13:22:31.84	331.58	12.35	-26.0	-27.9	15.3	0.00e+00	0	43	0	3521118208	11	4510
2026-01-01 13:22:32.84	331.65	12.26	-25.8	-27.1	15.4	0.00e+00	0	43	0	3527409664	12	4168
2026-01-01 13:22:33.85	331.73	12.17	-25.7	-26.8	15.5	0.00e+00	0	44	0	3532652544	12	4110
2026-01-01 13:22:34.85	331.80	12.09	-25.8	-27.1	15.4	0.00e+00	0	43	0	3538944000	12	4164
2026-01-01 13:22:35.85	331.88	12.00	-25.8	-27.1	15.4	0.00e+00	0	43	0	3544186880	12	4187
2026-01-01 13:22:36.86	331.95	11.91	-25.9	-27.3	15.3	0.00e+00	0	44	0	3549429760	12	4226
2026-01-01 13:22:37.86	332.03	11.83	-26.0	-27.6	15.1	0.00e+00	0	43	0	3555721216	12	4311
2026-01-01 13:22:38.86	332.10	11.74	-25.9	-27.4	15.2	0.00e+00	0	43	0	3560964096	12	4265
2026-01-01 13:22:39.86	332.17	11.65	-26.0	-27.4	15.2	0.00e+00	0	43	0	3566206976	12	4273
2026-01-01 13:22:40.87	332.25	11.57	-26.0	-27.6	15.1	0.00e+00	0	44	0	3572498432	12	4313
2026-01-01 13:22:41.87	332.32	11.48	-26.1	-27.7	15.0	0.00e+00	0	44	0	3577741312	12	4352
2026-01-01 13:22:42.88	332.39	11.40	-26.0	-27.6	15.1	0.00e+00	0	43	0	3584032768	12	4301
2026-01-01 13:22:43.88	332.46	11.31	-26.2	-27.9	14.9	0.00e+00	0	43	0	3589275648	12	4402
2026-01-01 13:22:44.89	332.53	11.23	-26.1	-27.7	15.0	0.00e+00	0	44	0	3594518528	12	4338
2026-01-01 13:22:45.89	332.60	11.14	-26.0	-27.5	15.1	0.00e+00	0	44	0	3600809984	12	4291
2026-01-01 13:22:46.90	332.67	11.06	-25.9	-27.3	15.2	0.00e+00	0	44	0	3606052864	12	4241
2026-01-01 13:22:47.91	332.74	10.97	-26.0	-27.6	15.1	0.00e+00	0	44	0	3612344320	12	4300
2026-01-01 13:22:48.91	332.81	10.89	-25.9	-27.3	15.2	0.00e+00	0	43	0	3617587200	12	4230
2026-01-01 13:22:49.91	332.88	10.81	-25.9	-27.2	15.3	0.00e+00	0	43	0	3622830080	12	4206
2026-01-01 13:22:50.91	332.95	10.73	-25.9	-27.4	15.2	0.00e+00	0	43	0	3629121536	12	4253
2026-01-01 13:22:51.91	333.02	10.64	-25.9	-27.2	15.2	0.00e+00	0	43	0	3634364416	12	4205
2026-01-01 13:22:52.92	333.09	10.56	-26.0	-27.4	15.1	0.00e+00	0	43	0	3639607296	12	4260
2026-01-01 13:22:53.92	333.16	10.48	-25.9	-27.2	15.2	0.00e+00	0	43	0	3645898752	12	4211
2026-01-01 13:22:54.93	333.22	10.40	-25.9	-27.2	15.2	0.00e+00	0	43	0	3651141632	12	4204
2026-01-01 13:22:55.93	333.29	10.31	-25.9	-27.3	15.1	0.00e+00	0	43	0	3657433088	12	4238
2026-01-01 13:22:56.94	333.36	10.23	-26.0	-27.5	15.0	0.00e+00	0	43	0	3662675968	12	4283
2026-01-01 13:22:57.94	333.42	10.15	-25.9	-27.2	15.2	0.00e+00	0	43	0	3667918848	12	4206
2026-01-01 13:22:58.94	333.49	10.07	-25.9	-27.4	15.1	0.00e+00	0	43	0	3674210304	12	4250
2026-01-01 13:22:59.94	333.55	9.99	-26.0	-27.6	15.0	0.00e+00	0	43	0	3679453184	12	4301
2026-01-01 13:23:00.93	333.62	9.91	-26.0	-27.4	15.1	0.00e+00	0	43	0	3685744640	12	4266
2026-01-01 13:23:01.94	333.68	9.83	-26.0	-27.5	15.0	0.00e+00	0	44	0	3690987520	12	4289
2026-01-01 13:23:02.94	333.75	9.75	-26.1	-27.8	14.9	0.00e+00	0	44	0	3696230400	12	4358
2026-01-01 13:23:03.94	333.81	9.67	-26.2	-27.9	14.8	0.00e+00	0	44	0	3702521856	12	4408
2026-01-01 13:23:04.94	333.88	9.59	-26.2	-27.9	14.8	0.00e+00	0	43	0	3707764736	12	4402
2026-01-01 13:23:05.94	333.94	9.51	-26.4	-28.4	14.5	0.00e+00	0	44	0	3713007616	12	4553
2026-01-01 13:23:06.95	334.00	9.43	-26.3	-28.3	14.6	0.00e+00	0	44	0	3719299072	12	4507
2026-01-01 13:23:07.95	334.07	9.35	-26.4	-28.5	14.4	0.00e+00	0	43	0	3724541952	12	4577
2026-01-01 13:23:08.95	334.13	9.27	-26.3	-28.3	14.5	1.10e-06	0	44	0	3729784832	12	4527
2026-01-01 13:23:09.95	334.19	9.19	-26.5	-28.6	14.3	2.20e-06	0	43	0	3736076288	12	4610
2026-01-01 13:23:10.95	334.25	9.12	-26.5	-28.1	14.3	0.00e+00	0	43	0	3741319168	13	4352
2026-01-01 13:23:11.96	334.32	9.04	-26.6	-28.4	14.1	0.00e+00	0	44	0	3747610624	13	4440
2026-01-01 13:23:12.95	334.38	8.96	-26.5	-28.2	14.2	0.00e+00	0	44	0	3752853504	13	4383
2026-01-01 13:23:13.95	334.44	8.88	-26.5	-28.3	14.2	1.10e-06	0	44	0	3758096384	13	4411
2026-01-01 13:23:14.95	334.50	8.81	-26.6	-28.5	14.1	1.10e-06	0	43	0	3764387840	13	4468
2026-01-01 13:23:15.95	334.56	8.73	-26.6	-28.4	14.1	0.00e+00	0	43	0	3769630720	13	4442
2026-01-01 13:23:16.95	334.62	8.65	-26.7	-28.7	14.0	0.00e+00	0	44	0	3774873600	13	4510
2026-01-01 13:23:17.96	334.68	8.57	-26.6	-28.5	14.0	2.20e-06	0	44	0	3781165056	13	4474
2026-01-01 13:23:18.96	334.74	8.50	-26.8	-28.8	13.9	0.00e+00	0	44	0	3786407936	13	4559
2026-01-01 13:23:19.97	334.80	8.42	-26.7	-28.6	14.0	2.20e-06	0	43	0	3791650816	13	4492
2026-01-01 13:23:20.97	334.86	8.34	-26.5	-28.3	14.2	1.10e-06	0	44	0	3797942272	13	4410
2026-01-01 13:23:21.97	334.92	8.27	-26.5	-28.1	14.2	0.00e+00	0	44	0	3803185152	13	4364
2026-01-01 13:23:22.98	334.98	8.19	-26.5	-28.2	14.2	0.00e+00	0	44	0	3809476608	13	4376
2026-01-01 13:23:23.99	335.03	8.12	-26.6	-28.3	14.1	0.00e+00	0	44	0	3814719488	13	4417
2026-01-01 13:23:24.99	335.09	8.04	-26.5	-28.2	14.2	0.00e+00	0	44	0	3821010944	13	4375
2026-01-01 13:23:25.99	335.15	7.97	-26.5	-28.3	14.2	0.00e+00	0	44	0	3826253824	13	4397
2026-01-01 13:23:26.99	335.21	7.89	-26.5	-28.3	14.1	2.20e-06	0	44	0	3831496704	13	4402
2026-01-01 13:23:28.00	335.26	7.82	-26.6	-28.5	14.0	1.10e-06	0	44	0	3837788160	13	4473
2026-01-01 13:23:29.00	335.32	7.74	-26.6	-28.4	14.1	2.20e-06	0	44	0	3843031040	13	4437
2026-01-01 13:23:30.00	335.38	7.67	-26.6	-28.4	14.1	0.00e+00	0	44	0	3848273920	13	4438
