passes_logs/2026/01/01/R2M6_AANII_01/R2M6_AANII_01__20260101_105051_NOAA_20_JPSS-1_rec.log

#Pass ID: 20260101_105051_NOAA 20 (JPSS-1)
#Satellite: NOAA 20 (JPSS-1)
#Configuration: NOAA 20
#almurnet v.1.7.20240730
#Start time: 2026-01-01 10:50:53

#Version: 2.2.20231116
#Station: R2M6_AANII_01
#Location: 30.233357 lon 59.946436 lat
#TLE: 1 43013U 17073A   25365.45761817  .00000173  00000+0  10307-3 0  9993
#TLE: 2 43013  98.7620 301.5517 0001951  60.3814 299.7557 14.19531661420675

#Time	Az	El	Level	Level2	SNR	BER	BlckErr	Temp	State	Recorded	gain1	gain2
2026-01-01 10:50:53.77	176.85	7.14	-30.4	-34.7	5.5	1.19e+00	0	41	0	0	21	5901
2026-01-01 10:50:54.77	176.88	7.21	-30.7	-35.1	5.4	1.21e+00	0	41	104	0	22	6030
2026-01-01 10:50:55.77	176.92	7.29	-30.6	-35.0	10.0	1.17e-02	0	41	0	0	22	5927
2026-01-01 10:50:56.78	176.95	7.37	-30.4	-34.1	10.6	3.82e-03	0	41	0	1048576	22	5537
2026-01-01 10:50:57.78	176.99	7.45	-30.2	-33.9	11.1	1.83e-03	0	41	0	3145728	21	5536
2026-01-01 10:50:58.79	177.02	7.52	-30.0	-33.4	11.6	1.13e-03	0	41	0	5242880	21	5310
2026-01-01 10:50:59.79	177.06	7.60	-29.9	-33.0	11.8	5.55e-04	0	41	0	7340032	21	5140
2026-01-01 10:51:00.78	177.09	7.68	-29.8	-32.9	12.0	3.70e-04	0	41	0	9437184	21	5092
2026-01-01 10:51:01.79	177.13	7.76	-29.8	-32.8	12.0	2.59e-04	0	41	0	10485760	21	5055
2026-01-01 10:51:02.79	177.17	7.83	-29.8	-33.0	12.2	2.96e-04	0	41	0	12582912	20	5256
2026-01-01 10:51:03.79	177.20	7.91	-29.8	-33.3	12.0	2.42e-04	0	41	0	14680064	20	5377
2026-01-01 10:51:04.79	177.24	7.99	-29.8	-33.2	12.1	2.70e-04	0	41	0	16777216	20	5316
2026-01-01 10:51:05.80	177.28	8.07	-29.7	-33.0	12.2	2.14e-04	0	41	0	17825792	20	5240
2026-01-01 10:51:06.80	177.31	8.15	-29.7	-33.0	12.3	2.10e-04	0	41	0	19922944	20	5240
2026-01-01 10:51:07.80	177.35	8.23	-29.8	-33.1	12.2	2.27e-04	0	41	0	22020096	20	5290
2026-01-01 10:51:08.81	177.39	8.31	-29.7	-33.0	12.3	1.98e-04	0	41	0	24117248	20	5224
2026-01-01 10:51:09.81	177.42	8.39	-29.8	-33.1	12.2	1.79e-04	0	41	0	26214400	20	5283
2026-01-01 10:51:10.81	177.46	8.47	-29.9	-33.4	12.1	2.64e-04	0	41	0	27262976	20	5375
2026-01-01 10:51:11.82	177.50	8.55	-29.9	-33.5	12.0	2.32e-04	0	41	0	29360128	20	5416
2026-01-01 10:51:12.82	177.54	8.63	-29.9	-33.3	12.1	3.20e-04	0	41	0	31457280	20	5360
2026-01-01 10:51:13.82	177.58	8.71	-30.0	-33.6	12.0	2.91e-04	0	41	0	33554432	20	5451
2026-01-01 10:51:14.83	177.62	8.79	-29.9	-33.5	12.0	4.20e-04	0	41	0	35651584	20	5423
2026-01-01 10:51:15.83	177.65	8.88	-29.9	-33.4	12.1	2.64e-04	0	41	0	36700160	20	5376
2026-01-01 10:51:16.83	177.69	8.96	-30.0	-33.7	11.9	3.42e-04	0	41	0	38797312	20	5513
2026-01-01 10:51:17.84	177.73	9.04	-30.0	-33.7	11.9	5.03e-04	0	41	0	40894464	20	5530
2026-01-01 10:51:18.85	177.77	9.12	-29.9	-33.5	12.1	3.27e-04	0	42	0	42991616	20	5409
2026-01-01 10:51:19.85	177.81	9.21	-29.8	-33.2	12.2	2.55e-04	0	42	0	45088768	20	5297
2026-01-01 10:51:20.85	177.85	9.29	-29.8	-33.1	12.3	1.85e-04	0	41	0	46137344	20	5252
2026-01-01 10:51:21.85	177.89	9.37	-29.8	-33.1	12.3	1.47e-04	0	42	0	48234496	20	5260
2026-01-01 10:51:22.85	177.93	9.45	-29.8	-32.9	12.4	2.10e-04	0	42	0	50331648	20	5197
2026-01-01 10:51:23.86	177.97	9.54	-29.9	-33.3	12.2	1.81e-04	0	41	0	52428800	20	5360
2026-01-01 10:51:24.86	178.01	9.62	-29.8	-33.0	12.4	1.83e-04	0	42	0	54525952	20	5234
2026-01-01 10:51:25.86	178.05	9.71	-29.7	-32.7	12.7	1.13e-04	0	42	0	55574528	20	5101
2026-01-01 10:51:26.86	178.09	9.79	-29.7	-32.7	12.7	7.17e-05	0	42	0	57671680	20	5081
2026-01-01 10:51:27.86	178.13	9.87	-29.6	-32.5	12.8	6.94e-05	0	42	0	59768832	20	5029
2026-01-01 10:51:28.86	178.18	9.96	-29.7	-32.8	12.6	7.55e-05	0	42	0	61865984	20	5129
2026-01-01 10:51:29.86	178.22	10.04	-29.6	-32.5	12.8	9.38e-05	0	42	0	62914560	20	5022
2026-01-01 10:51:30.87	178.26	10.13	-29.6	-32.5	12.9	4.95e-05	0	42	0	65011712	20	5005
2026-01-01 10:51:31.88	178.30	10.22	-29.7	-32.6	12.8	4.34e-05	0	42	0	67108864	20	5056
2026-01-01 10:51:32.88	178.34	10.30	-29.7	-32.7	12.7	6.40e-05	0	42	0	69206016	20	5089
2026-01-01 10:51:33.88	178.39	10.39	-29.7	-32.7	12.7	7.78e-05	0	42	0	71303168	20	5069
2026-01-01 10:51:34.88	178.43	10.48	-29.7	-32.8	12.7	6.86e-05	0	42	0	73400320	20	5113
2026-01-01 10:51:35.88	178.47	10.56	-29.8	-33.0	12.5	1.04e-04	0	42	0	74448896	20	5205
2026-01-01 10:51:36.88	178.52	10.65	-29.8	-32.9	12.6	1.59e-04	0	42	0	76546048	20	5175
2026-01-01 10:51:37.89	178.56	10.74	-29.7	-32.8	12.7	7.09e-05	0	42	0	78643200	20	5105
2026-01-01 10:51:38.89	178.60	10.83	-29.8	-33.1	12.5	9.91e-05	0	42	0	80740352	20	5239
2026-01-01 10:51:39.89	178.65	10.91	-29.8	-33.0	12.6	1.65e-04	0	42	0	81788928	20	5191
2026-01-01 10:51:40.89	178.69	11.00	-29.8	-33.0	12.5	1.10e-04	0	42	0	83886080	20	5210
2026-01-01 10:51:41.90	178.74	11.09	-30.0	-33.7	12.1	2.02e-04	0	42	0	85983232	20	5467
2026-01-01 10:51:42.91	178.78	11.18	-29.9	-33.3	12.4	2.46e-04	0	42	0	88080384	20	5303
2026-01-01 10:51:43.91	178.83	11.27	-29.8	-33.0	12.6	1.29e-04	0	42	0	90177536	20	5171
2026-01-01 10:51:44.91	178.87	11.36	-29.8	-32.8	12.7	7.85e-05	0	42	0	91226112	20	5129
2026-01-01 10:51:45.91	178.92	11.45	-29.8	-32.8	12.7	7.93e-05	0	42	0	93323264	20	5114
2026-01-01 10:51:46.91	178.96	11.54	-29.9	-33.1	12.5	6.63e-05	0	42	0	95420416	20	5237
2026-01-01 10:51:47.92	179.01	11.63	-29.8	-33.0	12.6	1.05e-04	0	42	0	97517568	20	5199
2026-01-01 10:51:48.92	179.05	11.72	-29.9	-33.2	12.5	1.20e-04	0	42	0	99614720	20	5273
2026-01-01 10:51:49.92	179.10	11.81	-30.1	-33.8	12.1	1.95e-04	0	42	0	100663296	20	5520
2026-01-01 10:51:50.93	179.15	11.91	-29.9	-33.3	12.4	1.76e-04	0	42	0	102760448	20	5310
2026-01-01 10:51:51.93	179.19	12.00	-29.8	-32.9	12.7	1.18e-04	0	42	0	104857600	20	5155
2026-01-01 10:51:52.93	179.24	12.09	-29.7	-32.7	12.9	5.72e-05	0	42	0	106954752	20	5064
2026-01-01 10:51:53.94	179.29	12.18	-29.7	-32.7	12.9	5.11e-05	0	42	0	109051904	20	5068
2026-01-01 10:51:54.94	179.34	12.28	-29.7	-32.6	13.0	3.96e-05	0	42	0	110100480	20	5008
2026-01-01 10:51:55.94	179.39	12.37	-29.8	-32.9	12.7	4.80e-05	0	42	0	112197632	20	5157
2026-01-01 10:51:56.94	179.43	12.46	-29.7	-32.7	12.9	6.10e-05	0	42	0	114294784	20	5054
2026-01-01 10:51:57.94	179.48	12.56	-29.6	-32.3	13.2	2.74e-05	0	42	0	116391936	20	4909
2026-01-01 10:51:58.94	179.53	12.65	-29.5	-31.9	13.4	1.67e-05	0	42	0	118489088	20	4774
2026-01-01 10:51:59.94	179.58	12.75	-29.5	-31.9	13.4	1.29e-05	0	42	0	119537664	20	4782
2026-01-01 10:52:00.94	179.63	12.84	-29.5	-32.0	13.4	1.90e-05	0	42	0	121634816	20	4801
2026-01-01 10:52:01.94	179.68	12.94	-29.5	-31.9	13.4	9.10e-06	0	42	0	123731968	20	4779
2026-01-01 10:52:02.95	179.73	13.03	-29.5	-32.1	13.3	1.44e-05	0	42	0	125829120	20	4839
2026-01-01 10:52:03.96	179.78	13.13	-29.5	-31.9	13.5	2.28e-05	0	42	0	126877696	20	4771
2026-01-01 10:52:04.96	179.83	13.23	-29.4	-31.8	13.5	7.60e-06	0	42	0	128974848	20	4732
2026-01-01 10:52:05.96	179.88	13.32	-29.4	-31.8	13.6	8.30e-06	0	42	0	131072000	20	4725
2026-01-01 10:52:06.96	179.94	13.42	-29.4	-31.6	13.6	1.44e-05	0	42	0	133169152	20	4675
2026-01-01 10:52:07.97	179.99	13.52	-29.4	-31.8	13.6	8.30e-06	0	42	0	135266304	20	4717
2026-01-01 10:52:08.97	180.04	13.61	-29.5	-31.9	13.5	1.06e-05	0	43	0	136314880	20	4761
2026-01-01 10:52:09.97	180.09	13.71	-29.5	-32.1	13.4	1.06e-05	0	42	0	138412032	20	4829
2026-01-01 10:52:10.98	180.15	13.81	-29.4	-31.7	13.6	8.30e-06	0	43	0	140509184	20	4706
2026-01-01 10:52:11.98	180.20	13.91	-29.4	-31.6	13.7	7.60e-06	0	42	0	142606336	20	4674
2026-01-01 10:52:12.98	180.25	14.01	-29.4	-31.7	13.6	5.30e-06	0	42	0	144703488	20	4706
2026-01-01 10:52:13.98	180.31	14.11	-29.4	-31.8	13.6	9.90e-06	0	42	0	145752064	20	4720
2026-01-01 10:52:14.98	180.36	14.21	-29.5	-32.0	13.4	1.67e-05	0	42	0	147849216	20	4801
2026-01-01 10:52:15.98	180.41	14.31	-29.5	-31.9	13.6	1.22e-05	0	42	0	149946368	20	4762
2026-01-01 10:52:16.98	180.47	14.41	-29.5	-31.9	13.5	9.10e-06	0	42	0	152043520	20	4771
2026-01-01 10:52:17.99	180.52	14.51	-29.5	-32.0	13.5	6.80e-06	0	42	0	154140672	20	4788
2026-01-01 10:52:19.00	180.58	14.62	-29.6	-32.1	13.4	1.29e-05	0	43	0	155189248	20	4838
2026-01-01 10:52:20.00	180.64	14.72	-29.5	-32.0	13.5	1.14e-05	0	42	0	157286400	20	4804
2026-01-01 10:52:21.01	180.69	14.82	-29.7	-32.5	13.2	1.37e-05	0	42	0	159383552	20	4955
2026-01-01 10:52:22.01	180.75	14.93	-29.6	-32.2	13.4	1.22e-05	0	42	0	161480704	20	4853
2026-01-01 10:52:23.01	180.81	15.03	-29.5	-31.9	13.6	7.60e-06	0	42	0	163577856	20	4743
2026-01-01 10:52:24.02	180.86	15.13	-29.5	-31.9	13.6	1.14e-05	0	42	0	164626432	20	4772
2026-01-01 10:52:25.02	180.92	15.24	-29.5	-31.9	13.6	9.10e-06	0	42	0	166723584	20	4767
2026-01-01 10:52:26.02	180.98	15.34	-29.5	-31.9	13.6	9.10e-06	0	43	0	168820736	20	4763
2026-01-01 10:52:27.03	181.04	15.45	-29.6	-32.1	13.4	6.80e-06	0	43	0	170917888	20	4823
2026-01-01 10:52:28.04	181.10	15.56	-29.4	-31.8	13.7	4.50e-06	0	43	0	173015040	20	4723
2026-01-01 10:52:29.04	181.16	15.66	-29.4	-31.8	13.7	4.50e-06	0	43	0	174063616	20	4718
2026-01-01 10:52:30.05	181.22	15.77	-29.4	-31.7	13.7	4.50e-06	0	43	0	176160768	20	4695
2026-01-01 10:52:31.05	181.28	15.88	-29.5	-32.0	13.6	9.10e-06	0	43	0	178257920	20	4784
2026-01-01 10:52:32.05	181.34	15.98	-29.5	-31.9	13.6	4.50e-06	0	43	0	180355072	20	4750
2026-01-01 10:52:33.05	181.40	16.09	-29.4	-31.7	13.8	9.90e-06	0	43	0	181403648	20	4695
2026-01-01 10:52:34.05	181.46	16.20	-29.5	-31.9	13.7	1.14e-05	0	43	0	183500800	20	4748
2026-01-01 10:52:35.06	181.52	16.31	-29.4	-31.7	13.8	3.80e-06	0	43	0	185597952	20	4684
2026-01-01 10:52:36.06	181.58	16.42	-29.4	-31.7	13.8	3.00e-06	0	43	0	187695104	20	4680
2026-01-01 10:52:37.06	181.65	16.53	-29.5	-31.8	13.7	9.90e-06	0	43	0	189792256	20	4727
2026-01-01 10:52:38.06	181.71	16.64	-29.4	-31.7	13.9	3.80e-06	0	43	0	190840832	20	4659
2026-01-01 10:52:39.06	181.77	16.75	-29.4	-31.7	13.8	8.30e-06	0	43	0	192937984	20	4663
2026-01-01 10:52:40.06	181.84	16.86	-29.5	-31.8	13.8	3.80e-06	0	43	0	195035136	20	4706
2026-01-01 10:52:41.06	181.90	16.97	-29.4	-31.7	13.8	5.30e-06	0	43	0	197132288	20	4674
2026-01-01 10:52:42.07	181.97	17.08	-29.4	-31.7	13.9	6.80e-06	0	43	0	199229440	20	4663
2026-01-01 10:52:43.07	182.03	17.19	-29.4	-31.7	13.8	6.10e-06	0	43	0	200278016	20	4680
2026-01-01 10:52:44.07	182.10	17.31	-29.6	-32.2	13.5	6.80e-06	0	43	0	202375168	20	4848
2026-01-01 10:52:45.08	182.16	17.42	-29.4	-31.8	13.8	1.75e-05	0	43	0	204472320	20	4696
2026-01-01 10:52:46.08	182.23	17.54	-29.4	-31.6	13.9	2.20e-06	0	43	0	206569472	20	4651
2026-01-01 10:52:47.07	182.30	17.65	-29.4	-31.7	13.8	5.30e-06	0	43	0	208666624	20	4673
2026-01-01 10:52:48.07	182.37	17.76	-29.4	-31.7	13.8	9.10e-06	0	43	0	209715200	20	4685
2026-01-01 10:52:49.08	182.43	17.88	-29.5	-31.8	13.8	5.30e-06	0	43	0	211812352	20	4698
2026-01-01 10:52:50.08	182.50	18.00	-29.5	-32.0	13.7	4.50e-06	0	43	0	213909504	20	4768
2026-01-01 10:52:51.08	182.57	18.11	-29.6	-32.1	13.6	1.22e-05	0	43	0	216006656	20	4830
2026-01-01 10:52:52.08	182.64	18.23	-29.6	-32.1	13.7	7.60e-06	0	43	0	218103808	20	4806
2026-01-01 10:52:53.09	182.71	18.35	-29.6	-32.2	13.5	9.90e-06	0	43	0	219152384	20	4870
2026-01-01 10:52:54.09	182.78	18.47	-29.5	-32.0	13.7	1.22e-05	0	43	0	221249536	20	4780
2026-01-01 10:52:55.10	182.85	18.58	-29.4	-31.7	13.9	6.10e-06	0	43	0	223346688	20	4689
2026-01-01 10:52:56.10	182.93	18.70	-29.5	-31.8	13.8	6.80e-06	0	43	0	225443840	20	4723
2026-01-01 10:52:57.10	183.00	18.82	-29.5	-31.8	13.8	5.30e-06	0	43	0	226492416	20	4711
2026-01-01 10:52:58.10	183.07	18.94	-29.5	-32.0	13.7	3.80e-06	0	43	0	228589568	20	4770
2026-01-01 10:52:59.10	183.14	19.06	-29.4	-31.6	13.9	2.20e-06	0	43	0	230686720	20	4658
2026-01-01 10:53:00.10	183.22	19.19	-29.5	-31.8	13.8	5.30e-06	0	43	0	232783872	20	4726
2026-01-01 10:53:01.09	183.29	19.31	-29.4	-31.7	14.0	2.20e-06	0	43	0	234881024	20	4670
2026-01-01 10:53:02.09	183.37	19.43	-29.5	-31.9	13.8	2.20e-06	0	43	0	235929600	20	4755
2026-01-01 10:53:03.10	183.44	19.55	-29.4	-31.8	13.9	5.30e-06	0	43	0	238026752	20	4708
2026-01-01 10:53:04.10	183.52	19.68	-29.5	-31.9	13.8	6.80e-06	0	43	0	240123904	20	4750
2026-01-01 10:53:05.10	183.60	19.80	-29.5	-31.8	13.9	5.30e-06	0	43	0	242221056	20	4700
2026-01-01 10:53:06.11	183.67	19.92	-29.4	-31.7	14.0	3.00e-06	0	43	0	244318208	20	4667
2026-01-01 10:53:07.12	183.75	20.05	-29.4	-31.7	14.0	1.50e-06	0	43	0	245366784	20	4659
2026-01-01 10:53:08.12	183.83	20.18	-29.4	-31.6	14.0	3.00e-06	0	43	0	247463936	20	4652
2026-01-01 10:53:09.13	183.91	20.30	-29.5	-32.0	13.8	2.20e-06	0	43	0	249561088	20	4776
2026-01-01 10:53:10.13	183.99	20.43	-29.5	-31.9	13.8	7.60e-06	0	43	0	251658240	20	4754
2026-01-01 10:53:11.14	184.07	20.56	-29.5	-31.9	13.9	6.80e-06	0	43	0	253755392	20	4733
2026-01-01 10:53:12.14	184.15	20.69	-29.5	-32.0	13.8	2.20e-06	0	43	0	254803968	20	4780
2026-01-01 10:53:13.14	184.23	20.82	-29.6	-32.1	13.7	3.00e-06	0	43	0	256901120	20	4809
2026-01-01 10:53:14.14	184.32	20.95	-29.4	-31.7	14.0	2.20e-06	0	43	0	258998272	20	4676
2026-01-01 10:53:15.14	184.40	21.08	-29.4	-31.6	14.1	3.00e-06	0	43	0	261095424	20	4641
2026-01-01 10:53:16.14	184.48	21.21	-29.4	-31.5	14.1	5.30e-06	0	43	0	263192576	20	4606
2026-01-01 10:53:17.13	184.57	21.34	-29.4	-31.6	14.1	3.00e-06	0	43	0	264241152	20	4649
2026-01-01 10:53:18.14	184.65	21.47	-29.3	-31.7	14.4	0.00e+00	0	43	0	266338304	19	4765
2026-01-01 10:53:19.14	184.74	21.60	-29.1	-31.3	14.6	0.00e+00	0	43	0	268435456	19	4642
2026-01-01 10:53:20.15	184.82	21.74	-29.0	-31.0	14.9	7.00e-07	0	43	0	270532608	19	4529
2026-01-01 10:53:21.15	184.91	21.87	-29.0	-31.1	14.8	0.00e+00	0	43	0	272629760	19	4550
2026-01-01 10:53:22.15	185.00	22.00	-29.1	-31.1	14.8	0.00e+00	0	43	0	273678336	19	4575
2026-01-01 10:53:23.15	185.09	22.14	-29.0	-30.9	15.0	0.00e+00	0	43	0	275775488	19	4482
2026-01-01 10:53:24.15	185.18	22.27	-28.9	-30.8	15.0	0.00e+00	0	43	0	277872640	19	4469
2026-01-01 10:53:25.16	185.27	22.41	-28.8	-30.4	15.3	0.00e+00	0	43	0	279969792	19	4348
2026-01-01 10:53:26.16	185.36	22.55	-28.7	-30.7	15.4	0.00e+00	0	43	0	281018368	18	4547
2026-01-01 10:53:27.16	185.45	22.69	-28.7	-30.7	15.4	0.00e+00	0	43	0	283115520	18	4543
2026-01-01 10:53:28.17	185.54	22.83	-28.8	-30.9	15.3	0.00e+00	0	43	0	285212672	18	4576
2026-01-01 10:53:29.17	185.64	22.96	-28.6	-30.5	15.6	0.00e+00	0	43	0	287309824	18	4456
2026-01-01 10:53:30.17	185.73	23.10	-28.5	-30.3	15.7	0.00e+00	0	43	0	289406976	18	4395
2026-01-01 10:53:31.18	185.83	23.25	-28.6	-30.4	15.6	0.00e+00	0	43	0	290455552	18	4428
2026-01-01 10:53:32.18	185.92	23.39	-28.6	-30.4	15.6	0.00e+00	0	43	0	292552704	18	4424
2026-01-01 10:53:33.18	186.02	23.53	-28.5	-30.1	15.8	0.00e+00	0	43	0	294649856	18	4334
2026-01-01 10:53:34.18	186.12	23.67	-28.4	-29.9	16.0	0.00e+00	0	43	0	296747008	18	4277
2026-01-01 10:53:35.18	186.21	23.81	-28.4	-30.0	15.9	0.00e+00	0	43	0	298844160	18	4304
2026-01-01 10:53:36.18	186.31	23.96	-28.5	-30.2	15.8	0.00e+00	0	43	0	299892736	18	4366
2026-01-01 10:53:37.18	186.41	24.10	-28.4	-29.8	16.0	0.00e+00	0	43	0	301989888	18	4259
2026-01-01 10:53:38.18	186.51	24.25	-28.3	-29.7	16.1	0.00e+00	0	43	0	304087040	18	4222
2026-01-01 10:53:39.18	186.62	24.39	-28.4	-29.9	16.0	0.00e+00	0	43	0	306184192	18	4269
2026-01-01 10:53:40.18	186.72	24.54	-28.4	-29.9	16.0	0.00e+00	0	43	0	308281344	18	4264
2026-01-01 10:53:41.19	186.82	24.69	-28.4	-30.0	15.9	0.00e+00	0	43	0	309329920	18	4297
2026-01-01 10:53:42.19	186.93	24.84	-28.4	-29.9	15.9	0.00e+00	0	43	0	311427072	18	4290
2026-01-01 10:53:43.20	187.03	24.99	-28.4	-29.9	16.0	0.00e+00	0	43	0	313524224	18	4286
2026-01-01 10:53:44.21	187.14	25.14	-28.3	-29.7	16.1	0.00e+00	0	43	0	315621376	18	4207
2026-01-01 10:53:45.21	187.25	25.29	-28.2	-30.0	16.2	0.00e+00	0	43	0	317718528	17	4420
2026-01-01 10:53:46.21	187.36	25.44	-28.2	-30.0	16.2	0.00e+00	0	43	0	318767104	17	4420
2026-01-01 10:53:47.22	187.47	25.59	-28.2	-30.0	16.2	0.00e+00	0	43	0	320864256	17	4396
2026-01-01 10:53:48.22	187.58	25.75	-28.2	-30.0	16.2	0.00e+00	0	43	0	322961408	17	4409
2026-01-01 10:53:49.22	187.69	25.90	-28.2	-30.0	16.2	0.00e+00	0	43	0	325058560	17	4413
2026-01-01 10:53:50.23	187.80	26.06	-28.3	-30.2	16.1	0.00e+00	0	43	0	327155712	17	4469
2026-01-01 10:53:51.23	187.92	26.21	-28.3	-30.2	16.1	0.00e+00	0	43	0	328204288	17	4465
2026-01-01 10:53:52.22	188.03	26.36	-28.4	-30.3	16.1	0.00e+00	0	43	0	330301440	17	4499
2026-01-01 10:53:53.22	188.15	26.52	-28.4	-30.4	16.0	0.00e+00	0	43	0	332398592	17	4541
2026-01-01 10:53:54.23	188.26	26.68	-28.5	-30.6	15.9	0.00e+00	0	43	0	334495744	17	4580
2026-01-01 10:53:55.23	188.38	26.84	-28.5	-30.8	15.8	0.00e+00	0	43	0	335544320	17	4638
2026-01-01 10:53:56.24	188.50	27.00	-28.7	-31.0	15.7	0.00e+00	0	43	0	337641472	17	4727
2026-01-01 10:53:57.24	188.62	27.16	-28.7	-31.1	15.6	0.00e+00	0	43	0	339738624	17	4739
2026-01-01 10:53:58.24	188.74	27.32	-28.7	-31.1	15.6	0.00e+00	0	43	0	341835776	17	4752
2026-01-01 10:53:59.24	188.87	27.48	-28.8	-31.4	15.4	0.00e+00	0	43	0	343932928	17	4846
2026-01-01 10:54:00.24	188.99	27.64	-28.9	-31.5	15.4	0.00e+00	0	43	0	344981504	17	4885
2026-01-01 10:54:01.24	189.12	27.81	-28.9	-31.6	15.3	0.00e+00	0	43	0	347078656	17	4915
2026-01-01 10:54:02.24	189.24	27.97	-28.9	-31.7	15.3	1.50e-06	0	43	0	349175808	17	4935
2026-01-01 10:54:03.24	189.37	28.13	-29.0	-31.4	15.2	0.00e+00	0	43	0	351272960	18	4733
2026-01-01 10:54:04.24	189.50	28.30	-29.1	-31.6	15.0	0.00e+00	0	43	0	353370112	18	4796
2026-01-01 10:54:05.25	189.63	28.47	-29.3	-32.0	14.8	2.20e-06	0	43	0	354418688	18	4941
2026-01-01 10:54:06.25	189.76	28.63	-29.4	-32.4	14.6	0.00e+00	0	43	0	356515840	18	5077
2026-01-01 10:54:07.26	189.90	28.80	-29.6	-32.4	14.3	0.00e+00	0	43	0	358612992	19	4947
2026-01-01 10:54:08.25	190.03	28.97	-29.8	-32.9	14.0	6.80e-06	0	43	0	360710144	19	5144
2026-01-01 10:54:09.25	190.16	29.14	-30.0	-32.9	13.5	8.30e-06	0	43	0	362807296	20	5059
2026-01-01 10:54:10.26	190.30	29.31	-30.1	-33.4	13.3	1.52e-05	0	43	0	363855872	20	5223
2026-01-01 10:54:11.26	190.44	29.49	-30.2	-33.7	13.1	2.82e-05	0	43	0	365953024	20	5332
2026-01-01 10:54:12.26	190.58	29.66	-30.3	-33.8	13.0	4.27e-05	0	43	0	368050176	20	5385
2026-01-01 10:54:13.27	190.72	29.83	-30.4	-34.2	12.7	5.72e-05	0	43	0	370147328	20	5556
2026-01-01 10:54:14.28	190.87	30.01	-30.4	-34.2	12.7	6.25e-05	0	43	0	372244480	20	5532
2026-01-01 10:54:15.28	191.01	30.18	-30.5	-34.0	12.5	8.62e-05	0	43	0	373293056	21	5352
2026-01-01 10:54:16.28	191.16	30.36	-30.7	-34.6	12.1	1.96e-04	0	43	0	375390208	21	5604
2026-01-01 10:54:17.28	191.31	30.54	-30.8	-34.8	12.0	3.08e-04	0	43	0	377487360	21	5696
2026-01-01 10:54:18.28	191.45	30.71	-31.0	-34.9	11.6	6.22e-04	0	43	0	379584512	22	5638
2026-01-01 10:54:19.29	191.61	30.89	-31.0	-35.0	11.6	7.35e-04	0	43	0	380633088	22	5656
2026-01-01 10:54:20.30	191.76	31.08	-31.2	-35.3	11.3	8.03e-04	0	43	0	382730240	22	5815
2026-01-01 10:54:21.30	191.91	31.26	-31.3	-35.7	11.0	1.76e-03	0	43	0	384827392	22	6018
2026-01-01 10:54:22.31	192.07	31.44	-31.3	-35.8	11.0	1.98e-03	0	43	0	386924544	22	6023
2026-01-01 10:54:23.31	192.23	31.62	-31.4	-36.2	10.7	2.46e-03	0	43	0	389021696	22	6212
2026-01-01 10:54:24.31	192.39	31.80	-31.5	-36.0	10.4	4.32e-03	0	43	0	390070272	23	6042
2026-01-01 10:54:25.31	192.55	31.99	-31.4	-35.7	10.6	3.62e-03	0	43	0	392167424	23	5912
2026-01-01 10:54:26.30	192.71	32.17	-31.4	-35.5	10.8	2.88e-03	0	43	0	394264576	23	5792
2026-01-01 10:54:27.30	192.87	32.36	-31.3	-35.3	11.0	2.46e-03	0	43	0	396361728	23	5702
2026-01-01 10:54:28.29	193.04	32.54	-31.3	-35.2	11.1	2.18e-03	0	43	0	398458880	23	5629
2026-01-01 10:54:29.30	193.21	32.73	-31.1	-34.7	11.3	1.24e-03	0	43	0	399507456	23	5457
2026-01-01 10:54:30.30	193.38	32.92	-31.2	-34.9	11.3	1.11e-03	0	43	0	401604608	23	5510
2026-01-01 10:54:31.30	193.55	33.11	-31.2	-34.8	11.3	1.10e-03	0	43	0	403701760	23	5482
2026-01-01 10:54:32.29	193.72	33.30	-31.2	-34.9	11.3	1.45e-03	0	43	0	405798912	23	5533
2026-01-01 10:54:33.29	193.90	33.49	-30.9	-34.0	11.9	6.77e-04	0	43	0	407896064	23	5147
2026-01-01 10:54:34.29	194.08	33.68	-30.7	-33.9	12.4	2.75e-04	0	43	0	408944640	22	5204
2026-01-01 10:54:35.30	194.26	33.88	-30.7	-33.8	12.4	1.22e-04	0	43	0	411041792	22	5145
2026-01-01 10:54:36.30	194.44	34.07	-30.7	-33.9	12.3	1.20e-04	0	43	0	413138944	22	5193
2026-01-01 10:54:37.31	194.63	34.27	-30.7	-34.0	12.3	1.75e-04	0	43	0	415236096	22	5230
2026-01-01 10:54:38.31	194.81	34.46	-30.8	-34.1	12.2	2.04e-04	0	43	0	417333248	22	5281
2026-01-01 10:54:39.31	195.00	34.66	-30.9	-34.3	12.1	2.43e-04	0	43	0	418381824	22	5360
2026-01-01 10:54:40.31	195.19	34.86	-30.9	-34.4	12.0	2.64e-04	0	43	0	420478976	22	5417
2026-01-01 10:54:41.31	195.39	35.06	-30.9	-34.4	12.0	4.50e-04	0	43	0	422576128	22	5416
2026-01-01 10:54:42.32	195.58	35.26	-30.9	-34.3	12.1	2.78e-04	0	43	0	424673280	22	5354
2026-01-01 10:54:43.33	195.78	35.46	-30.9	-34.5	12.0	2.91e-04	0	43	0	425721856	22	5420
2026-01-01 10:54:44.33	195.98	35.66	-30.8	-34.0	12.4	3.17e-04	0	43	0	427819008	22	5222
2026-01-01 10:54:45.34	196.19	35.86	-30.6	-33.6	12.6	9.15e-05	0	43	0	429916160	22	5089
2026-01-01 10:54:46.34	196.39	36.07	-30.7	-33.7	12.5	1.73e-04	0	43	0	432013312	22	5118
2026-01-01 10:54:47.34	196.60	36.27	-30.5	-33.2	12.9	7.62e-05	0	43	0	434110464	22	4922
2026-01-01 10:54:48.34	196.81	36.48	-30.2	-33.0	13.3	2.51e-05	0	43	0	435159040	21	4935
2026-01-01 10:54:49.34	197.02	36.68	-30.1	-32.7	13.5	8.30e-06	0	43	0	437256192	21	4848
2026-01-01 10:54:50.34	197.24	36.89	-30.2	-32.8	13.5	1.14e-05	0	43	0	439353344	21	4875
2026-01-01 10:54:51.34	197.46	37.10	-30.1	-32.5	13.6	1.52e-05	0	43	0	441450496	21	4788
2026-01-01 10:54:52.35	197.68	37.31	-29.9	-32.1	13.9	3.00e-06	0	43	0	443547648	21	4638
2026-01-01 10:54:53.34	197.90	37.51	-29.9	-32.0	14.0	1.50e-06	0	43	0	444596224	21	4602
2026-01-01 10:54:54.34	198.13	37.72	-30.0	-32.4	13.7	2.20e-06	0	43	0	446693376	21	4744
2026-01-01 10:54:55.34	198.36	37.93	-30.0	-32.2	13.8	7.60e-06	0	43	0	448790528	21	4687
2026-01-01 10:54:56.34	198.59	38.14	-30.1	-32.6	13.6	6.80e-06	0	43	0	450887680	21	4801
2026-01-01 10:54:57.35	198.83	38.36	-30.0	-32.5	13.7	6.80e-06	0	43	0	452984832	21	4764
2026-01-01 10:54:58.35	199.07	38.57	-30.2	-32.9	13.4	1.75e-05	0	43	0	454033408	21	4922
2026-01-01 10:54:59.35	199.31	38.79	-30.3	-33.2	13.2	2.21e-05	0	43	0	456130560	21	5041
2026-01-01 10:55:00.36	199.56	39.00	-30.3	-33.1	13.3	1.67e-05	0	43	0	458227712	21	4971
2026-01-01 10:55:01.36	199.80	39.22	-30.2	-33.0	13.4	2.21e-05	0	43	0	460324864	21	4945
2026-01-01 10:55:02.36	200.06	39.43	-30.2	-32.8	13.5	1.67e-05	0	43	0	462422016	21	4880
2026-01-01 10:55:03.36	200.31	39.65	-30.2	-33.0	13.4	9.90e-06	0	43	0	463470592	21	4946
2026-01-01 10:55:04.37	200.57	39.87	-30.3	-33.2	13.2	2.67e-05	0	43	0	465567744	21	5024
2026-01-01 10:55:05.37	200.83	40.09	-30.1	-32.6	13.6	9.10e-06	0	43	0	467664896	21	4821
2026-01-01 10:55:06.37	201.10	40.31	-30.1	-32.5	13.7	6.80e-06	0	43	0	469762048	21	4787
2026-01-01 10:55:07.38	201.37	40.53	-30.2	-32.8	13.5	1.14e-05	0	43	0	470810624	21	4883
2026-01-01 10:55:08.38	201.64	40.75	-30.1	-32.5	13.7	7.60e-06	0	43	0	472907776	21	4775
2026-01-01 10:55:09.38	201.92	40.97	-30.2	-33.0	13.4	1.14e-05	0	43	0	475004928	21	4937
2026-01-01 10:55:10.38	202.20	41.19	-30.3	-33.1	13.4	2.28e-05	0	43	0	477102080	21	4974
2026-01-01 10:55:11.38	202.48	41.42	-30.1	-32.7	13.6	1.44e-05	0	43	0	479199232	21	4856
2026-01-01 10:55:12.38	202.77	41.64	-29.9	-32.1	14.0	3.80e-06	0	43	0	480247808	21	4616
2026-01-01 10:55:13.38	203.06	41.86	-29.7	-31.9	14.4	2.20e-06	0	43	0	482344960	20	4683
2026-01-01 10:55:14.39	203.35	42.09	-29.4	-31.3	14.8	0.00e+00	0	43	0	484442112	20	4479
2026-01-01 10:55:15.39	203.65	42.31	-29.3	-31.1	14.9	0.00e+00	0	43	0	486539264	20	4408
2026-01-01 10:55:16.39	203.96	42.54	-29.4	-31.3	14.8	2.20e-06	0	43	0	488636416	20	4481
2026-01-01 10:55:17.40	204.27	42.77	-29.6	-31.8	14.5	7.00e-07	0	43	0	489684992	20	4623
2026-01-01 10:55:18.40	204.58	42.99	-29.6	-31.8	14.4	0.00e+00	0	43	0	491782144	20	4645
2026-01-01 10:55:19.40	204.90	43.22	-29.8	-32.2	14.3	0.00e+00	0	43	0	493879296	20	4764
2026-01-01 10:55:20.40	205.22	43.45	-29.9	-32.6	14.0	7.00e-07	0	43	0	495976448	20	4888
2026-01-01 10:55:21.41	205.54	43.67	-29.9	-32.6	14.0	3.00e-06	0	43	0	498073600	20	4900
2026-01-01 10:55:22.41	205.87	43.90	-29.9	-32.6	14.0	7.00e-07	0	43	0	499122176	20	4899
2026-01-01 10:55:23.41	206.21	44.13	-30.0	-32.7	13.9	3.80e-06	0	43	0	501219328	20	4945
2026-01-01 10:55:24.41	206.55	44.36	-30.3	-33.6	13.3	8.30e-06	0	43	0	503316480	20	5276
2026-01-01 10:55:25.42	206.89	44.59	-30.5	-33.8	13.0	3.43e-05	0	43	0	505413632	21	5235
2026-01-01 10:55:26.42	207.24	44.82	-30.6	-34.1	12.7	4.57e-05	0	43	0	507510784	21	5342
2026-01-01 10:55:27.43	207.60	45.05	-30.7	-34.3	12.6	5.87e-05	0	43	0	508559360	21	5448
2026-01-01 10:55:28.43	207.96	45.28	-30.9	-34.9	12.2	1.41e-04	0	43	0	510656512	21	5714
2026-01-01 10:55:29.44	208.33	45.51	-31.1	-34.9	11.9	3.28e-04	0	43	0	512753664	22	5572
2026-01-01 10:55:30.45	208.70	45.74	-31.0	-34.6	12.0	3.31e-04	0	43	0	514850816	22	5455
2026-01-01 10:55:31.45	209.08	45.97	-30.8	-34.1	12.3	2.39e-04	0	43	0	516947968	22	5260
2026-01-01 10:55:32.45	209.46	46.20	-30.8	-34.0	12.5	1.49e-04	0	43	0	517996544	22	5214
2026-01-01 10:55:33.46	209.85	46.43	-30.9	-34.3	12.3	1.75e-04	0	43	0	520093696	22	5321
2026-01-01 10:55:34.46	210.24	46.66	-31.1	-35.0	11.9	2.96e-04	0	43	0	522190848	22	5612
2026-01-01 10:55:35.46	210.63	46.88	-31.3	-35.7	11.3	8.13e-04	0	43	0	524288000	22	5935
2026-01-01 10:55:36.47	211.04	47.11	-31.7	-36.4	10.4	2.52e-03	0	43	0	526385152	23	6198
2026-01-01 10:55:37.48	211.45	47.34	-32.0	-37.3	9.7	7.63e-03	0	43	0	527433728	23	6644
2026-01-01 10:55:38.49	211.87	47.57	-32.1	-37.2	9.4	1.28e-02	0	43	0	529530880	24	6531
2026-01-01 10:55:39.49	212.29	47.80	-32.0	-37.0	9.6	1.44e-02	0	43	0	531628032	24	6403
2026-01-01 10:55:40.50	212.72	48.03	-32.0	-36.9	9.7	1.38e-02	0	43	0	533725184	24	6339
2026-01-01 10:55:41.51	213.16	48.26	-32.0	-37.0	9.6	1.19e-02	0	43	0	535822336	24	6386
2026-01-01 10:55:42.52	213.61	48.49	-32.1	-37.3	9.4	1.81e-02	0	43	0	536870912	24	6558
2026-01-01 10:55:43.52	214.05	48.71	-32.4	-38.4	8.5	2.92e-02	0	43	0	538968064	24	7230
2026-01-01 10:55:44.52	214.50	48.93	-32.6	-39.1	7.7	6.30e-02	0	43	0	541065216	25	7537
2026-01-01 10:55:45.52	214.96	49.16	-32.5	-38.7	8.0	7.87e-02	0	43	0	543162368	25	7279
2026-01-01 10:55:46.52	215.43	49.38	-32.3	-37.7	8.7	4.34e-02	0	43	0	545259520	25	6670
2026-01-01 10:55:47.52	215.90	49.60	-32.1	-36.6	9.5	1.81e-02	0	43	0	546308096	25	6092
2026-01-01 10:55:48.52	216.38	49.82	-32.0	-36.5	9.7	1.23e-02	0	43	0	548405248	25	6000
2026-01-01 10:55:49.52	216.87	50.04	-31.9	-36.0	10.0	1.01e-02	0	43	0	550502400	25	5780
2026-01-01 10:55:50.53	217.36	50.26	-31.7	-35.9	10.5	4.54e-03	0	43	0	552599552	24	5792
2026-01-01 10:55:51.53	217.86	50.48	-31.7	-35.8	10.5	3.47e-03	0	43	0	553648128	24	5760
2026-01-01 10:55:52.54	218.38	50.70	-31.7	-35.6	10.7	3.11e-03	0	43	0	555745280	24	5691
2026-01-01 10:55:53.54	218.89	50.91	-31.5	-35.1	11.1	2.22e-03	0	43	0	557842432	24	5435
2026-01-01 10:55:54.54	219.41	51.13	-31.3	-34.8	11.6	1.08e-03	0	43	0	559939584	23	5430
2026-01-01 10:55:55.55	219.95	51.34	-31.1	-34.4	11.9	5.74e-04	0	43	0	562036736	23	5258
2026-01-01 10:55:56.54	220.48	51.55	-31.3	-34.8	11.7	5.07e-04	0	43	0	563085312	23	5432
2026-01-01 10:55:57.55	221.03	51.76	-31.1	-34.4	11.9	7.74e-04	0	43	0	565182464	23	5247
2026-01-01 10:55:58.55	221.58	51.96	-30.8	-33.4	12.7	1.88e-04	0	43	0	567279616	23	4869
2026-01-01 10:55:59.55	222.14	52.17	-30.6	-33.4	13.1	3.12e-05	0	43	0	569376768	22	4951
2026-01-01 10:56:00.55	222.71	52.37	-30.5	-33.1	13.2	2.05e-05	0	43	0	571473920	22	4850
2026-01-01 10:56:01.55	223.28	52.57	-30.5	-33.0	13.3	2.13e-05	0	43	0	572522496	22	4834
2026-01-01 10:56:02.55	223.86	52.77	-30.4	-32.7	13.4	1.98e-05	0	43	0	574619648	22	4733
2026-01-01 10:56:03.56	224.46	52.97	-30.2	-32.9	13.7	6.80e-06	0	43	0	576716800	21	4876
2026-01-01 10:56:04.57	225.06	53.16	-30.3	-33.0	13.5	1.22e-05	0	43	0	578813952	21	4940
2026-01-01 10:56:05.57	225.67	53.36	-30.3	-33.0	13.6	8.30e-06	0	43	0	580911104	21	4923
2026-01-01 10:56:06.57	226.29	53.54	-30.2	-32.8	13.7	7.60e-06	0	43	0	581959680	21	4842
2026-01-01 10:56:07.57	226.91	53.73	-29.9	-32.1	14.2	3.00e-06	0	43	0	584056832	21	4613
2026-01-01 10:56:08.58	227.54	53.92	-29.6	-31.7	14.7	7.00e-07	0	43	0	586153984	20	4593
2026-01-01 10:56:09.58	228.18	54.10	-29.6	-31.7	14.7	0.00e+00	0	43	0	588251136	20	4583
2026-01-01 10:56:10.58	228.83	54.27	-29.7	-32.0	14.6	7.00e-07	0	43	0	590348288	20	4666
2026-01-01 10:56:11.59	229.49	54.45	-30.0	-32.7	14.1	7.00e-07	0	43	0	591396864	20	4931
2026-01-01 10:56:12.59	230.15	54.62	-30.1	-33.0	13.9	6.10e-06	0	43	0	593494016	20	5030
2026-01-01 10:56:13.60	230.83	54.79	-30.3	-33.4	13.7	4.50e-06	0	43	0	595591168	20	5186
2026-01-01 10:56:14.61	231.51	54.96	-30.1	-33.0	14.0	6.10e-06	0	43	0	597688320	20	5033
2026-01-01 10:56:15.61	232.20	55.12	-29.3	-31.0	15.1	7.00e-07	0	43	0	599785472	20	4380
2026-01-01 10:56:16.62	232.90	55.28	-29.1	-30.8	15.7	0.00e+00	0	43	0	600834048	19	4408
2026-01-01 10:56:17.62	233.60	55.43	-29.3	-31.4	15.3	0.00e+00	0	43	0	602931200	19	4590
2026-01-01 10:56:18.62	234.31	55.58	-29.8	-32.6	14.6	0.00e+00	0	43	0	605028352	19	4984
2026-01-01 10:56:19.62	235.02	55.73	-30.0	-32.8	14.1	2.20e-06	0	43	0	607125504	20	4947
2026-01-01 10:56:20.63	235.75	55.87	-29.7	-32.0	14.6	7.00e-07	0	43	0	608174080	20	4675
2026-01-01 10:56:21.63	236.48	56.01	-29.4	-31.2	15.1	0.00e+00	0	43	0	610271232	20	4425
2026-01-01 10:56:22.64	237.23	56.15	-29.3	-31.4	15.3	0.00e+00	0	43	0	612368384	19	4593
2026-01-01 10:56:23.64	237.97	56.28	-29.4	-31.7	15.2	0.00e+00	0	43	0	614465536	19	4689
2026-01-01 10:56:24.64	238.72	56.40	-29.5	-31.8	15.1	0.00e+00	0	43	0	616562688	19	4716
2026-01-01 10:56:25.65	239.49	56.53	-29.7	-32.3	14.8	0.00e+00	0	43	0	617611264	19	4892
2026-01-01 10:56:26.66	240.26	56.64	-29.7	-32.5	14.7	7.00e-07	0	43	0	619708416	19	4942
2026-01-01 10:56:27.66	241.03	56.76	-29.9	-32.8	14.5	7.00e-07	0	43	0	621805568	19	5045
2026-01-01 10:56:28.67	241.82	56.86	-29.7	-32.5	14.7	7.00e-07	0	43	0	623902720	19	4927
2026-01-01 10:56:29.67	242.60	56.97	-29.8	-32.7	14.6	0.00e+00	0	43	0	625999872	19	5009
2026-01-01 10:56:30.68	243.40	57.06	-30.0	-33.1	14.3	1.50e-06	0	43	0	627048448	19	5155
2026-01-01 10:56:31.69	244.20	57.16	-30.1	-33.0	14.0	7.00e-07	0	43	0	629145600	20	5014
2026-01-01 10:56:32.68	244.99	57.24	-30.4	-33.8	13.5	3.80e-06	0	43	0	631242752	20	5333
2026-01-01 10:56:33.68	245.80	57.33	-30.8	-34.3	12.8	3.73e-05	0	43	0	633339904	21	5397
2026-01-01 10:56:34.68	246.60	57.40	-30.7	-34.1	13.0	5.56e-05	0	43	0	635437056	21	5307
2026-01-01 10:56:35.68	247.42	57.47	-30.8	-34.4	12.8	3.58e-05	0	43	0	636485632	21	5454
2026-01-01 10:56:36.68	248.23	57.54	-31.3	-35.2	12.0	1.88e-04	0	43	0	638582784	22	5686
2026-01-01 10:56:37.69	249.06	57.60	-31.9	-36.9	10.4	2.66e-03	0	43	0	640679936	23	6357
2026-01-01 10:56:38.69	249.89	57.66	-31.8	-36.6	10.4	5.47e-03	0	43	0	642777088	23	6240
2026-01-01 10:56:39.70	250.73	57.71	-31.6	-35.6	11.3	2.54e-03	0	43	0	644874240	23	5764
2026-01-01 10:56:40.70	251.56	57.75	-31.4	-35.1	11.6	8.54e-04	0	43	0	645922816	23	5522
2026-01-01 10:56:41.70	252.39	57.79	-31.1	-34.3	12.2	3.80e-04	0	43	0	648019968	23	5183
2026-01-01 10:56:42.71	253.23	57.82	-31.2	-34.5	12.1	1.85e-04	0	43	0	650117120	23	5269
2026-01-01 10:56:43.72	254.08	57.85	-31.5	-35.6	11.3	8.76e-04	0	43	0	652214272	23	5725
2026-01-01 10:56:44.72	254.92	57.87	-31.8	-36.4	10.7	2.12e-03	0	43	0	654311424	23	6116
2026-01-01 10:56:45.72	255.76	57.89	-31.5	-35.5	11.3	2.26e-03	0	43	0	655360000	23	5707
2026-01-01 10:56:46.73	256.61	57.90	-31.4	-35.0	11.7	5.37e-04	0	43	0	657457152	23	5489
2026-01-01 10:56:47.72	257.44	57.90	-31.7	-36.1	10.9	1.62e-03	0	43	0	659554304	23	5984
2026-01-01 10:56:48.73	258.29	57.90	-31.5	-35.4	11.4	1.65e-03	0	43	0	661651456	23	5646
2026-01-01 10:56:49.73	259.13	57.89	-31.4	-35.2	11.6	7.26e-04	0	43	0	663748608	23	5548
2026-01-01 10:56:50.74	259.98	57.88	-31.7	-36.2	10.8	1.61e-03	0	43	0	664797184	23	6006
2026-01-01 10:56:51.73	260.81	57.86	-31.7	-36.2	10.8	5.30e-03	0	43	0	666894336	23	6022
2026-01-01 10:56:52.74	261.65	57.83	-31.2	-34.7	12.0	1.01e-03	0	43	0	668991488	23	5336
2026-01-01 10:56:53.74	262.49	57.80	-30.8	-33.9	12.9	9.23e-05	0	43	0	671088640	22	5122
2026-01-01 10:56:54.74	263.32	57.77	-30.7	-33.6	13.0	3.58e-05	0	43	0	672137216	22	5012
2026-01-01 10:56:55.74	264.16	57.73	-30.5	-32.8	13.6	2.21e-05	0	43	0	674234368	22	4737
2026-01-01 10:56:56.75	264.99	57.68	-30.5	-32.9	13.5	1.52e-05	0	43	0	676331520	22	4765
2026-01-01 10:56:57.75	265.82	57.63	-30.9	-34.1	12.7	3.28e-05	0	43	0	678428672	22	5208
2026-01-01 10:56:58.75	266.64	57.57	-31.3	-35.3	11.9	1.90e-04	0	43	0	680525824	22	5706
2026-01-01 10:56:59.75	267.46	57.51	-31.1	-34.6	12.4	3.02e-04	0	43	0	681574400	22	5402
2026-01-01 10:57:00.76	268.28	57.44	-31.0	-34.2	12.6	7.17e-05	0	43	0	683671552	22	5259
2026-01-01 10:57:01.75	269.09	57.36	-31.4	-35.6	11.7	2.37e-04	0	43	0	685768704	22	5851
2026-01-01 10:57:02.76	269.90	57.28	-31.7	-36.2	10.9	1.73e-03	0	43	0	687865856	23	6020
2026-01-01 10:57:03.76	270.70	57.20	-32.3	-37.7	9.4	9.57e-03	0	43	0	689963008	24	6682
2026-01-01 10:57:04.76	271.50	57.11	-32.8	-39.7	7.4	6.39e-02	0	43	0	691011584	25	7918
2026-01-01 10:57:05.76	272.29	57.01	-32.8	-39.6	7.4	1.51e-01	0	43	0	693108736	25	7850
2026-01-01 10:57:06.76	273.07	56.92	-32.5	-38.0	8.7	4.36e-02	0	43	0	695205888	25	6800
2026-01-01 10:57:07.77	273.86	56.81	-32.4	-37.8	8.9	2.32e-02	0	43	0	697303040	25	6674
2026-01-01 10:57:08.77	274.63	56.70	-32.5	-37.9	8.8	3.35e-02	0	43	0	699400192	25	6762
2026-01-01 10:57:09.77	275.40	56.59	-32.0	-36.3	10.0	2.10e-02	0	43	0	700448768	25	5859
2026-01-01 10:57:10.77	276.16	56.47	-31.7	-35.7	10.8	2.67e-03	0	43	0	702545920	24	5677
2026-01-01 10:57:11.77	276.91	56.34	-32.0	-36.5	10.2	3.41e-03	0	43	0	704643072	24	6094
2026-01-01 10:57:12.78	277.67	56.22	-32.1	-36.9	9.9	8.81e-03	0	43	0	706740224	24	6285
2026-01-01 10:57:13.78	278.41	56.08	-32.3	-37.9	9.2	1.75e-02	0	43	0	708837376	24	6814
2026-01-01 10:57:14.78	279.14	55.95	-31.9	-36.1	10.5	1.08e-02	0	43	0	709885952	24	5901
2026-01-01 10:57:15.78	279.87	55.81	-31.2	-34.5	12.0	1.25e-03	0	44	0	711983104	23	5284
2026-01-01 10:57:16.78	280.59	55.66	-30.6	-33.4	13.2	9.68e-05	0	43	0	714080256	22	4941
2026-01-01 10:57:17.78	281.30	55.52	-30.4	-32.7	13.6	1.60e-05	0	43	0	716177408	22	4721
2026-01-01 10:57:18.79	282.01	55.36	-29.9	-32.0	14.3	1.50e-06	0	43	0	717225984	21	4584
2026-01-01 10:57:19.80	282.71	55.21	-29.4	-31.2	15.2	0.00e+00	0	43	0	719323136	20	4418
2026-01-01 10:57:20.80	283.40	55.05	-28.8	-30.2	16.1	0.00e+00	0	43	0	721420288	19	4228
2026-01-01 10:57:21.81	284.09	54.88	-28.4	-29.7	16.7	0.00e+00	0	43	0	723517440	18	4166
2026-01-01 10:57:22.81	284.76	54.72	-28.4	-29.6	16.7	0.00e+00	0	44	0	725614592	18	4167
2026-01-01 10:57:23.81	285.42	54.55	-28.7	-30.4	16.3	0.00e+00	0	44	0	726663168	18	4394
2026-01-01 10:57:24.82	286.09	54.37	-28.5	-29.9	16.6	0.00e+00	0	43	0	728760320	18	4236
2026-01-01 10:57:25.82	286.74	54.20	-28.3	-29.5	16.8	0.00e+00	0	43	0	730857472	18	4131
2026-01-01 10:57:26.82	287.38	54.02	-28.2	-29.7	17.0	0.00e+00	0	43	0	732954624	17	4272
2026-01-01 10:57:27.83	288.02	53.83	-28.0	-29.3	17.2	0.00e+00	0	43	0	735051776	17	4176
2026-01-01 10:57:28.83	288.64	53.65	-28.0	-29.4	17.1	0.00e+00	0	43	0	736100352	17	4197
2026-01-01 10:57:29.83	289.26	53.46	-28.3	-29.9	16.8	0.00e+00	0	43	0	738197504	17	4349
2026-01-01 10:57:30.83	289.87	53.27	-28.0	-29.4	17.2	0.00e+00	0	43	0	740294656	17	4189
2026-01-01 10:57:31.84	290.48	53.08	-27.9	-29.0	17.3	0.00e+00	0	43	0	742391808	17	4107
2026-01-01 10:57:32.84	291.07	52.89	-28.0	-29.2	17.2	0.00e+00	0	43	0	744488960	17	4141
2026-01-01 10:57:33.85	291.66	52.69	-28.0	-29.3	17.2	0.00e+00	0	43	0	745537536	17	4169
2026-01-01 10:57:34.85	292.24	52.49	-28.1	-29.4	17.1	0.00e+00	0	43	0	747634688	17	4199
2026-01-01 10:57:35.85	292.81	52.29	-28.8	-31.3	16.1	0.00e+00	0	43	0	749731840	17	4748
2026-01-01 10:57:36.85	293.37	52.08	-29.3	-31.7	15.5	0.00e+00	0	43	0	751828992	18	4791
2026-01-01 10:57:37.86	293.93	51.88	-29.4	-32.2	15.3	0.00e+00	0	43	0	753926144	18	4941
2026-01-01 10:57:38.86	294.48	51.67	-29.2	-31.7	15.5	0.00e+00	0	43	0	754974720	18	4788
2026-01-01 10:57:39.86	295.02	51.46	-30.0	-33.1	14.4	0.00e+00	0	43	0	757071872	19	5136
2026-01-01 10:57:40.87	295.56	51.25	-31.5	-35.2	12.4	6.56e-05	0	43	0	759169024	22	5528
2026-01-01 10:57:41.87	296.08	51.04	-31.6	-35.9	11.0	1.10e-03	0	43	0	761266176	23	5900
2026-01-01 10:57:42.87	296.60	50.83	-31.5	-35.6	11.3	1.82e-03	0	43	0	763363328	23	5721
2026-01-01 10:57:43.87	297.11	50.61	-31.3	-34.7	11.9	6.27e-04	0	43	0	764411904	23	5349
2026-01-01 10:57:44.87	297.61	50.40	-31.4	-35.1	11.7	4.35e-04	0	43	0	766509056	23	5497
2026-01-01 10:57:45.88	298.11	50.18	-31.9	-36.8	10.4	1.82e-03	0	43	0	768606208	23	6336
2026-01-01 10:57:46.88	298.60	49.96	-32.8	-39.3	7.7	1.97e-02	0	43	0	770703360	25	7619
2026-01-01 10:57:47.89	299.09	49.74	-33.0	-40.0	6.9	1.80e-01	0	43	0	771751936	26	8048
2026-01-01 10:57:48.88	299.56	49.52	-32.5	-37.7	8.5	6.88e-02	0	43	0	773849088	26	6550
2026-01-01 10:57:49.89	300.03	49.30	-32.2	-37.0	9.4	2.12e-02	0	43	0	775946240	25	6260
2026-01-01 10:57:50.89	300.49	49.07	-32.3	-37.1	9.4	1.35e-02	0	43	0	778043392	25	6259
2026-01-01 10:57:51.90	300.95	48.85	-32.3	-37.3	9.2	1.93e-02	0	43	0	780140544	25	6385
2026-01-01 10:57:52.90	301.40	48.63	-32.6	-38.4	8.4	3.09e-02	0	43	0	781189120	25	7058
2026-01-01 10:57:53.90	301.84	48.40	-32.6	-38.6	8.2	5.97e-02	0	43	0	783286272	25	7167
2026-01-01 10:57:54.90	302.28	48.18	-32.5	-38.0	8.7	4.59e-02	0	43	0	785383424	25	6815
2026-01-01 10:57:55.90	302.71	47.95	-32.2	-37.0	9.4	2.28e-02	0	43	0	787480576	25	6210
2026-01-01 10:57:56.90	303.13	47.73	-31.8	-35.6	10.5	6.25e-03	0	43	0	789577728	25	5541
2026-01-01 10:57:57.90	303.55	47.50	-32.2	-36.8	9.6	4.79e-03	0	43	0	790626304	25	6137
2026-01-01 10:57:58.91	303.96	47.27	-32.6	-38.4	8.3	3.22e-02	0	43	0	792723456	25	7055
2026-01-01 10:57:59.91	304.37	47.04	-33.1	-40.5	6.4	1.38e-01	0	43	0	794820608	26	8396
2026-01-01 10:58:00.91	304.77	46.82	-32.7	-38.2	8.1	2.03e-01	0	43	0	796917760	26	6848
2026-01-01 10:58:01.91	305.16	46.59	-32.0	-36.3	10.0	1.46e-02	0	43	0	799014912	25	5853
2026-01-01 10:58:02.92	305.55	46.36	-31.7	-35.5	11.0	3.16e-03	0	43	0	800063488	24	5596
2026-01-01 10:58:03.92	305.93	46.13	-32.0	-36.6	10.1	2.80e-03	0	43	0	802160640	24	6121
2026-01-01 10:58:04.92	306.31	45.90	-32.3	-37.6	9.4	1.44e-02	0	43	0	804257792	24	6678
2026-01-01 10:58:05.92	306.68	45.68	-32.4	-38.3	8.8	2.55e-02	0	44	0	806354944	24	7075
2026-01-01 10:58:06.92	307.05	45.45	-32.1	-37.0	9.8	2.27e-02	0	43	0	808452096	24	6363
2026-01-01 10:58:07.93	307.41	45.22	-31.7	-35.5	11.0	5.75e-03	0	43	0	809500672	24	5601
2026-01-01 10:58:08.93	307.77	44.99	-31.2	-34.7	11.9	5.27e-04	0	43	0	811597824	23	5353
2026-01-01 10:58:09.93	308.12	44.76	-31.0	-34.0	12.4	2.05e-04	0	43	0	813694976	23	5058
2026-01-01 10:58:10.94	308.47	44.53	-31.0	-33.9	12.4	1.47e-04	0	44	0	815792128	23	5041
2026-01-01 10:58:11.94	308.81	44.31	-31.2	-34.6	11.9	2.35e-04	0	43	0	817889280	23	5309
2026-01-01 10:58:12.95	309.15	44.08	-31.5	-35.4	11.4	7.51e-04	0	43	0	818937856	23	5677
2026-01-01 10:58:13.95	309.48	43.85	-31.4	-35.3	11.5	1.23e-03	0	43	0	821035008	23	5607
2026-01-01 10:58:14.95	309.81	43.63	-31.4	-35.0	11.7	8.38e-04	0	43	0	823132160	23	5487
2026-01-01 10:58:15.94	310.13	43.40	-31.4	-35.2	11.5	6.00e-04	0	43	0	825229312	23	5563
2026-01-01 10:58:16.94	310.45	43.18	-31.6	-35.8	11.1	1.33e-03	0	43	0	826277888	23	5843
2026-01-01 10:58:17.94	310.76	42.95	-31.9	-36.7	10.4	2.64e-03	0	43	0	828375040	23	6297
2026-01-01 10:58:18.95	311.08	42.72	-31.8	-36.6	10.5	4.18e-03	0	43	0	830472192	23	6251
2026-01-01 10:58:19.94	311.38	42.50	-31.7	-36.3	10.7	3.57e-03	0	43	0	832569344	23	6084
2026-01-01 10:58:20.94	311.68	42.28	-31.8	-36.6	10.5	2.83e-03	0	43	0	834666496	23	6206
2026-01-01 10:58:21.95	311.98	42.05	-31.9	-36.7	10.4	4.27e-03	0	43	0	835715072	23	6282
2026-01-01 10:58:22.95	312.27	41.83	-32.1	-37.2	9.6	8.58e-03	0	43	0	837812224	24	6457
2026-01-01 10:58:23.95	312.56	41.61	-32.1	-37.1	9.7	1.48e-02	0	43	0	839909376	24	6419
2026-01-01 10:58:24.96	312.85	41.38	-32.0	-36.6	10.1	8.94e-03	0	43	0	842006528	24	6112
2026-01-01 10:58:25.97	313.13	41.16	-31.9	-36.3	10.3	4.72e-03	0	43	0	844103680	24	5968
2026-01-01 10:58:26.97	313.41	40.94	-32.1	-37.0	9.8	6.65e-03	0	43	0	845152256	24	6315
2026-01-01 10:58:27.97	313.68	40.72	-32.0	-36.7	10.0	9.14e-03	0	43	0	847249408	24	6188
2026-01-01 10:58:28.97	313.95	40.50	-31.9	-36.4	10.2	6.78e-03	0	43	0	849346560	24	6040
2026-01-01 10:58:29.97	314.22	40.28	-31.8	-36.1	10.4	4.87e-03	0	43	0	851443712	24	5903
2026-01-01 10:58:30.97	314.48	40.07	-31.9	-36.3	10.3	4.11e-03	0	43	0	853540864	24	5975
2026-01-01 10:58:31.98	314.75	39.85	-32.2	-37.4	9.5	1.10e-02	0	44	0	854589440	24	6545
2026-01-01 10:58:32.98	315.00	39.63	-32.2	-37.6	9.4	2.17e-02	0	43	0	856686592	24	6698
2026-01-01 10:58:33.98	315.26	39.42	-32.1	-37.1	9.7	1.96e-02	0	43	0	858783744	24	6389
2026-01-01 10:58:34.98	315.51	39.20	-31.7	-35.5	10.8	6.77e-03	0	43	0	860880896	24	5625
2026-01-01 10:58:35.98	315.75	38.99	-31.5	-34.9	11.3	1.11e-03	0	43	0	862978048	24	5345
2026-01-01 10:58:36.98	316.00	38.77	-31.7	-35.5	10.9	1.30e-03	0	43	0	864026624	24	5618
2026-01-01 10:58:37.98	316.24	38.56	-31.6	-35.4	10.9	2.11e-03	0	43	0	866123776	24	5555
2026-01-01 10:58:38.98	316.47	38.35	-32.3	-37.9	9.0	1.60e-02	0	43	0	868220928	24	6893
2026-01-01 10:58:39.98	316.71	38.14	-32.7	-39.1	7.7	7.05e-02	0	43	0	870318080	25	7547
2026-01-01 10:58:40.98	316.94	37.93	-32.5	-38.3	8.3	7.69e-02	0	43	0	871366656	25	7035
2026-01-01 10:58:41.98	317.17	37.72	-31.9	-36.1	10.0	2.38e-02	0	43	0	873463808	25	5790
2026-01-01 10:58:42.98	317.39	37.51	-31.7	-35.6	10.8	2.87e-03	0	43	0	875560960	24	5669
2026-01-01 10:58:43.98	317.61	37.30	-31.7	-35.8	10.6	2.76e-03	0	43	0	877658112	24	5754
2026-01-01 10:58:44.98	317.83	37.10	-31.6	-35.3	11.0	2.40e-03	0	43	0	879755264	24	5516
2026-01-01 10:58:45.98	318.05	36.89	-31.7	-35.7	10.7	2.50e-03	0	44	0	880803840	24	5724
2026-01-01 10:58:46.98	318.27	36.68	-32.3	-38.1	8.8	1.42e-02	0	43	0	882900992	24	7009
2026-01-01 10:58:47.99	318.48	36.48	-32.5	-38.8	8.3	4.15e-02	0	43	0	884998144	24	7438
2026-01-01 10:58:48.99	318.69	36.28	-32.7	-39.5	7.4	7.57e-02	0	43	0	887095296	25	7815
2026-01-01 10:58:49.99	318.90	36.07	-32.3	-37.7	8.8	5.26e-02	0	44	0	889192448	25	6640
2026-01-01 10:58:51.00	319.10	35.87	-31.7	-35.7	10.6	1.08e-02	0	43	0	890241024	24	5706
2026-01-01 10:58:51.99	319.30	35.67	-31.1	-34.2	12.1	1.27e-03	0	43	0	892338176	23	5169
2026-01-01 10:58:52.99	319.50	35.47	-30.5	-33.2	13.2	4.57e-05	0	43	0	894435328	22	4867
2026-01-01 10:58:53.99	319.70	35.27	-30.2	-32.6	13.8	6.10e-06	0	43	0	896532480	21	4790
2026-01-01 10:58:54.99	319.89	35.07	-30.2	-32.7	13.8	4.50e-06	0	43	0	897581056	21	4806
2026-01-01 10:58:55.99	320.08	34.88	-30.5	-33.6	13.2	8.30e-06	0	43	0	899678208	21	5142
2026-01-01 10:58:57.00	320.28	34.68	-30.9	-34.8	12.4	9.30e-05	0	43	0	901775360	21	5613
2026-01-01 10:58:58.00	320.46	34.48	-31.8	-36.8	10.3	1.50e-03	0	43	0	903872512	23	6340
2026-01-01 10:58:59.01	320.65	34.29	-31.9	-37.1	9.9	7.98e-03	0	43	0	905969664	23	6549
2026-01-01 10:59:00.01	320.83	34.09	-32.3	-38.0	8.8	2.11e-02	0	43	0	908066816	24	6956
2026-01-01 10:59:01.01	321.02	33.90	-31.9	-36.5	10.1	1.42e-02	0	43	0	909115392	24	6133
2026-01-01 10:59:02.02	321.20	33.71	-31.3	-34.5	11.5	3.06e-03	0	43	0	911212544	24	5200
2026-01-01 10:59:03.02	321.37	33.52	-30.8	-33.8	12.7	1.50e-04	0	43	0	913309696	22	5119
2026-01-01 10:59:04.02	321.55	33.33	-30.3	-32.5	13.5	1.22e-05	0	43	0	915406848	22	4636
2026-01-01 10:59:05.02	321.72	33.14	-30.3	-32.9	13.6	5.30e-06	0	43	0	916455424	21	4898
2026-01-01 10:59:06.02	321.89	32.95	-30.4	-33.2	13.4	5.30e-06	0	43	0	918552576	21	5010
2026-01-01 10:59:07.02	322.06	32.76	-30.7	-34.2	12.8	2.89e-05	0	43	0	920649728	21	5358
2026-01-01 10:59:08.03	322.23	32.57	-30.9	-34.7	12.4	1.13e-04	0	43	0	922746880	21	5574
2026-01-01 10:59:09.04	322.40	32.39	-31.1	-35.0	11.9	1.98e-04	0	43	0	924844032	22	5613
2026-01-01 10:59:10.04	322.56	32.20	-31.2	-35.3	11.7	5.55e-04	0	43	0	925892608	22	5756
2026-01-01 10:59:11.05	322.73	32.02	-31.5	-36.0	11.2	1.03e-03	0	43	0	927989760	22	6064
2026-01-01 10:59:12.05	322.89	31.83	-31.5	-35.8	11.0	1.99e-03	0	43	0	930086912	23	5865
2026-01-01 10:59:13.06	323.05	31.65	-31.7	-36.2	10.6	3.13e-03	0	43	0	932184064	23	6075
2026-01-01 10:59:14.06	323.20	31.47	-31.7	-36.4	10.6	3.46e-03	0	43	0	934281216	23	6147
2026-01-01 10:59:15.07	323.36	31.29	-31.8	-36.7	10.2	5.44e-03	0	43	0	935329792	23	6326
2026-01-01 10:59:16.07	323.51	31.11	-31.6	-36.0	10.7	4.32e-03	0	43	0	937426944	23	5963
2026-01-01 10:59:17.08	323.67	30.93	-31.6	-35.8	10.9	2.69e-03	0	43	0	939524096	23	5893
2026-01-01 10:59:18.08	323.82	30.75	-31.3	-35.1	11.4	1.45e-03	0	44	0	941621248	23	5536
2026-01-01 10:59:19.09	323.97	30.57	-31.3	-35.0	11.5	7.23e-04	0	44	0	943718400	23	5517
2026-01-01 10:59:20.10	324.12	30.40	-31.3	-34.9	11.6	8.03e-04	0	43	0	944766976	23	5455
2026-01-01 10:59:21.10	324.26	30.22	-31.0	-34.1	12.1	3.47e-04	0	43	0	946864128	23	5116
2026-01-01 10:59:22.10	324.40	30.05	-31.0	-34.1	12.1	2.71e-04	0	43	0	948961280	23	5133
2026-01-01 10:59:23.11	324.55	29.87	-31.1	-34.2	12.0	2.37e-04	0	43	0	951058432	23	5195
2026-01-01 10:59:24.11	324.69	29.70	-31.2	-34.6	11.8	4.24e-04	0	43	0	953155584	23	5327
2026-01-01 10:59:25.11	324.83	29.53	-30.9	-33.8	12.3	2.70e-04	0	43	0	954204160	23	5022
2026-01-01 10:59:26.12	324.97	29.36	-31.0	-34.0	12.2	1.61e-04	0	43	0	956301312	23	5086
2026-01-01 10:59:27.12	325.10	29.19	-31.0	-34.0	12.2	2.59e-04	0	43	0	958398464	23	5109
2026-01-01 10:59:28.12	325.24	29.02	-31.1	-34.4	11.8	2.97e-04	0	43	0	960495616	23	5277
2026-01-01 10:59:29.13	325.37	28.85	-31.4	-35.2	11.2	8.86e-04	0	43	0	962592768	23	5624
2026-01-01 10:59:30.13	325.51	28.68	-31.2	-34.7	11.6	7.48e-04	0	43	0	963641344	23	5408
2026-01-01 10:59:31.13	325.64	28.52	-31.2	-34.8	11.6	6.95e-04	0	43	0	965738496	23	5447
2026-01-01 10:59:32.14	325.77	28.35	-31.2	-34.6	11.7	7.39e-04	0	43	0	967835648	23	5359
2026-01-01 10:59:33.14	325.90	28.19	-31.0	-34.3	11.9	4.89e-04	0	43	0	969932800	23	5218
2026-01-01 10:59:34.14	326.03	28.02	-31.0	-34.2	12.0	3.75e-04	0	43	0	970981376	23	5180
2026-01-01 10:59:35.14	326.15	27.86	-30.9	-33.7	12.3	2.50e-04	0	43	0	973078528	23	4982
2026-01-01 10:59:36.14	326.28	27.70	-30.9	-33.9	12.2	1.94e-04	0	43	0	975175680	23	5062
2026-01-01 10:59:37.15	326.40	27.53	-30.7	-33.6	12.7	9.23e-05	0	43	0	977272832	22	5069
2026-01-01 10:59:38.15	326.52	27.37	-30.9	-34.3	12.3	1.23e-04	0	43	0	979369984	22	5313
2026-01-01 10:59:39.15	326.64	27.21	-31.1	-34.9	11.8	3.54e-04	0	43	0	980418560	22	5588
2026-01-01 10:59:40.15	326.76	27.06	-31.0	-34.5	12.0	4.34e-04	0	43	0	982515712	22	5436
2026-01-01 10:59:41.16	326.88	26.90	-31.0	-34.6	12.0	3.26e-04	0	43	0	984612864	22	5468
2026-01-01 10:59:42.16	327.00	26.74	-30.9	-34.5	12.1	2.53e-04	0	43	0	986710016	22	5411
2026-01-01 10:59:43.16	327.12	26.58	-31.0	-34.7	11.9	2.64e-04	0	43	0	988807168	22	5521
2026-01-01 10:59:44.16	327.23	26.43	-31.3	-35.5	11.4	7.86e-04	0	43	0	989855744	22	5872
2026-01-01 10:59:45.16	327.35	26.27	-31.3	-35.5	11.3	1.01e-03	0	43	0	991952896	22	5882
2026-01-01 10:59:46.16	327.46	26.12	-31.4	-35.8	11.1	1.25e-03	0	43	0	994050048	22	6013
2026-01-01 10:59:47.16	327.58	25.97	-31.3	-35.7	11.2	1.59e-03	0	43	0	996147200	22	5947
2026-01-01 10:59:48.16	327.69	25.81	-31.3	-35.6	11.3	1.10e-03	0	43	0	998244352	22	5903
2026-01-01 10:59:49.16	327.80	25.66	-31.3	-35.5	11.4	1.10e-03	0	43	0	999292928	22	5864
2026-01-01 10:59:50.17	327.91	25.51	-31.2	-35.4	11.5	8.51e-04	0	43	0	1001390080	22	5808
2026-01-01 10:59:51.17	328.02	25.36	-31.3	-35.5	11.3	1.20e-03	0	43	0	1003487232	22	5883
2026-01-01 10:59:52.18	328.12	25.21	-31.1	-34.9	11.7	8.77e-04	0	43	0	1005584384	22	5612
2026-01-01 10:59:53.18	328.23	25.06	-30.9	-34.3	12.2	3.87e-04	0	43	0	1007681536	22	5323
2026-01-01 10:59:54.18	328.34	24.91	-30.8	-34.0	12.3	1.86e-04	0	43	0	1008730112	22	5236
2026-01-01 10:59:55.18	328.44	24.76	-30.7	-33.8	12.6	1.03e-04	0	43	0	1010827264	22	5129
2026-01-01 10:59:56.19	328.54	24.62	-30.6	-33.6	12.6	7.62e-05	0	44	0	1012924416	22	5077
2026-01-01 10:59:57.20	328.65	24.47	-30.6	-33.4	12.8	7.85e-05	0	43	0	1015021568	22	4980
2026-01-01 10:59:58.20	328.75	24.32	-30.4	-32.8	13.2	2.82e-05	0	43	0	1016070144	22	4774
2026-01-01 10:59:59.19	328.85	24.18	-30.3	-32.8	13.2	2.82e-05	0	43	0	1018167296	22	4762
2026-01-01 11:00:00.20	328.95	24.04	-30.4	-32.8	13.1	2.67e-05	0	43	0	1020264448	22	4784
2026-01-01 11:00:01.21	329.05	23.89	-30.1	-32.6	13.6	6.10e-06	0	43	0	1022361600	21	4824
2026-01-01 11:00:02.21	329.15	23.75	-29.9	-32.2	13.8	6.80e-06	0	43	0	1024458752	21	4682
2026-01-01 11:00:03.21	329.25	23.61	-30.0	-32.2	13.9	3.80e-06	0	43	0	1026555904	21	4685
2026-01-01 11:00:04.21	329.34	23.47	-30.0	-32.5	13.7	3.00e-06	0	43	0	1027604480	21	4774
2026-01-01 11:00:05.22	329.44	23.33	-30.1	-32.7	13.5	9.90e-06	0	43	0	1029701632	21	4861
2026-01-01 11:00:06.23	329.53	23.19	-30.3	-33.3	13.1	1.98e-05	0	43	0	1031798784	21	5067
2026-01-01 11:00:07.23	329.63	23.05	-30.3	-33.3	13.1	2.44e-05	0	43	0	1033895936	21	5072
2026-01-01 11:00:08.23	329.72	22.91	-30.4	-33.5	13.0	2.74e-05	0	44	0	1034944512	21	5142
2026-01-01 11:00:09.24	329.82	22.77	-30.5	-33.8	12.7	5.11e-05	0	43	0	1037041664	21	5281
2026-01-01 11:00:10.24	329.91	22.63	-30.5	-33.8	12.8	7.55e-05	0	43	0	1039138816	21	5248
2026-01-01 11:00:11.25	330.00	22.50	-30.5	-33.9	12.6	7.01e-05	0	43	0	1041235968	21	5324
2026-01-01 11:00:12.26	330.09	22.36	-30.5	-33.8	12.7	8.16e-05	0	43	0	1043333120	21	5287
2026-01-01 11:00:13.26	330.18	22.23	-30.4	-33.5	12.9	6.71e-05	0	43	0	1044381696	21	5155
2026-01-01 11:00:14.25	330.27	22.09	-30.3	-33.3	13.1	3.50e-05	0	43	0	1046478848	21	5068
2026-01-01 11:00:15.26	330.36	21.96	-30.3	-33.3	13.1	2.67e-05	0	43	0	1048576000	21	5065
2026-01-01 11:00:16.26	330.44	21.83	-30.3	-33.2	13.2	2.97e-05	0	43	0	1050673152	21	5021
2026-01-01 11:00:17.27	330.53	21.69	-30.1	-32.6	13.5	9.90e-06	0	43	0	1052770304	21	4823
2026-01-01 11:00:18.27	330.62	21.56	-30.1	-32.6	13.5	7.60e-06	0	43	0	1053818880	21	4814
2026-01-01 11:00:19.27	330.70	21.43	-30.2	-32.9	13.4	1.60e-05	0	43	0	1055916032	21	4903
2026-01-01 11:00:20.27	330.79	21.30	-30.0	-32.4	13.7	1.29e-05	0	43	0	1058013184	21	4749
2026-01-01 11:00:21.28	330.87	21.17	-30.0	-32.3	13.7	5.30e-06	0	43	0	1060110336	21	4732
2026-01-01 11:00:22.28	330.95	21.04	-30.0	-32.4	13.7	7.60e-06	0	43	0	1062207488	21	4738
2026-01-01 11:00:23.28	331.04	20.91	-30.0	-32.4	13.6	8.30e-06	0	43	0	1063256064	21	4758
2026-01-01 11:00:24.28	331.12	20.78	-30.2	-32.8	13.4	1.83e-05	0	43	0	1065353216	21	4895
2026-01-01 11:00:25.28	331.20	20.66	-30.3	-33.2	13.1	3.89e-05	0	43	0	1067450368	21	5030
2026-01-01 11:00:26.29	331.28	20.53	-30.3	-33.3	13.1	2.05e-05	0	43	0	1069547520	21	5058
2026-01-01 11:00:27.29	331.36	20.40	-30.4	-33.5	12.9	4.27e-05	0	43	0	1071644672	21	5169
2026-01-01 11:00:28.29	331.44	20.28	-30.3	-33.3	13.0	3.73e-05	0	43	0	1072693248	21	5100
2026-01-01 11:00:29.29	331.52	20.15	-30.3	-33.3	13.0	4.65e-05	0	44	0	1074790400	21	5071
2026-01-01 11:00:30.29	331.60	20.03	-30.3	-33.3	13.0	2.89e-05	0	43	0	1076887552	21	5075
2026-01-01 11:00:31.29	331.67	19.90	-30.4	-33.6	12.8	4.11e-05	0	43	0	1078984704	21	5187
2026-01-01 11:00:32.29	331.75	19.78	-30.4	-33.6	12.7	7.93e-05	0	43	0	1080033280	21	5214
2026-01-01 11:00:33.29	331.83	19.66	-30.2	-33.0	13.1	3.96e-05	0	43	0	1082130432	21	4987
2026-01-01 11:00:34.29	331.90	19.54	-30.1	-32.7	13.4	2.21e-05	0	44	0	1084227584	21	4875
2026-01-01 11:00:35.29	331.98	19.42	-30.0	-32.5	13.5	1.14e-05	0	43	0	1086324736	21	4780
2026-01-01 11:00:36.29	332.05	19.29	-29.9	-32.3	13.7	4.50e-06	0	43	0	1088421888	21	4719
2026-01-01 11:00:37.29	332.13	19.17	-29.9	-32.1	13.7	2.20e-06	0	43	0	1089470464	21	4664
2026-01-01 11:00:38.29	332.20	19.05	-29.9	-32.1	13.8	5.30e-06	0	44	0	1091567616	21	4637
2026-01-01 11:00:39.29	332.27	18.93	-29.7	-32.2	14.0	1.50e-06	0	43	0	1093664768	20	4798
2026-01-01 11:00:40.30	332.35	18.82	-29.8	-32.5	13.8	4.50e-06	0	43	0	1095761920	20	4879
2026-01-01 11:00:41.30	332.42	18.70	-29.8	-32.5	13.8	4.50e-06	0	43	0	1097859072	20	4902
2026-01-01 11:00:42.30	332.49	18.58	-29.6	-31.8	14.2	2.20e-06	0	43	0	1098907648	20	4674
2026-01-01 11:00:43.31	332.56	18.46	-29.4	-31.4	14.5	1.50e-06	0	43	0	1101004800	20	4536
2026-01-01 11:00:44.31	332.63	18.34	-29.3	-31.6	14.7	0.00e+00	0	43	0	1103101952	19	4702
2026-01-01 11:00:45.31	332.70	18.23	-29.3	-31.6	14.7	0.00e+00	0	43	0	1105199104	19	4697
2026-01-01 11:00:46.32	332.77	18.11	-29.3	-31.5	14.8	0.00e+00	0	43	0	1107296256	19	4649
2026-01-01 11:00:47.32	332.84	18.00	-29.3	-31.6	14.7	0.00e+00	0	43	0	1108344832	19	4677
2026-01-01 11:00:48.32	332.91	17.88	-29.4	-31.7	14.7	0.00e+00	0	43	0	1110441984	19	4719
2026-01-01 11:00:49.32	332.98	17.77	-29.2	-31.4	14.8	0.00e+00	0	43	0	1112539136	19	4637
2026-01-01 11:00:50.32	333.05	17.65	-29.3	-31.5	14.8	0.00e+00	0	43	0	1114636288	19	4659
2026-01-01 11:00:51.33	333.11	17.54	-29.3	-31.7	14.7	7.00e-07	0	43	0	1116733440	19	4730
2026-01-01 11:00:52.32	333.18	17.43	-29.3	-31.6	14.7	0.00e+00	0	43	0	1117782016	19	4697
2026-01-01 11:00:53.33	333.25	17.31	-29.4	-31.8	14.6	1.50e-06	0	44	0	1119879168	19	4750
2026-01-01 11:00:54.33	333.31	17.20	-29.5	-32.0	14.5	0.00e+00	0	43	0	1121976320	19	4822
2026-01-01 11:00:55.34	333.38	17.09	-29.5	-32.1	14.4	0.00e+00	0	43	0	1124073472	19	4875
2026-01-01 11:00:56.34	333.44	16.98	-29.6	-32.4	14.2	1.50e-06	0	43	0	1125122048	19	4953
2026-01-01 11:00:57.35	333.51	16.87	-29.7	-32.6	14.0	0.00e+00	0	43	0	1127219200	19	5037
2026-01-01 11:00:58.35	333.57	16.76	-29.8	-33.0	13.8	1.50e-06	0	43	0	1129316352	19	5176
2026-01-01 11:00:59.36	333.63	16.65	-29.9	-33.1	13.7	8.30e-06	0	43	0	1131413504	19	5239
2026-01-01 11:01:00.36	333.70	16.54	-30.0	-33.5	13.5	6.10e-06	0	43	0	1133510656	19	5374
2026-01-01 11:01:01.36	333.76	16.43	-30.0	-33.2	13.3	1.14e-05	0	43	0	1135607808	20	5160
2026-01-01 11:01:02.36	333.82	16.32	-30.1	-33.4	13.1	3.58e-05	0	43	0	1136656384	20	5266
2026-01-01 11:01:03.35	333.88	16.22	-30.2	-33.5	13.0	3.66e-05	0	44	0	1138753536	20	5290
2026-01-01 11:01:04.35	333.94	16.11	-30.3	-33.8	12.8	5.34e-05	0	44	0	1140850688	20	5406
2026-01-01 11:01:05.35	334.01	16.00	-30.2	-33.7	12.8	5.49e-05	0	43	0	1142947840	20	5384
2026-01-01 11:01:06.36	334.07	15.90	-30.3	-34.0	12.7	1.01e-04	0	43	0	1143996416	20	5493
2026-01-01 11:01:07.36	334.13	15.79	-30.3	-33.9	12.7	7.40e-05	0	43	0	1146093568	20	5473
2026-01-01 11:01:08.36	334.19	15.69	-30.4	-34.1	12.6	8.62e-05	0	43	0	1148190720	20	5519
2026-01-01 11:01:09.37	334.25	15.58	-30.3	-33.9	12.7	6.71e-05	0	43	0	1150287872	20	5448
2026-01-01 11:01:10.37	334.30	15.47	-30.3	-33.8	12.8	5.49e-05	0	44	0	1152385024	20	5408
2026-01-01 11:01:11.37	334.36	15.37	-30.3	-33.8	12.8	8.08e-05	0	43	0	1153433600	20	5417
2026-01-01 11:01:12.38	334.42	15.27	-30.1	-33.4	13.1	4.19e-05	0	43	0	1155530752	20	5247
2026-01-01 11:01:13.38	334.48	15.16	-30.0	-33.2	13.2	2.44e-05	0	43	0	1157627904	20	5173
2026-01-01 11:01:14.39	334.54	15.06	-30.0	-33.1	13.2	2.05e-05	0	43	0	1159725056	20	5155
2026-01-01 11:01:15.38	334.59	14.96	-30.0	-33.1	13.3	2.05e-05	0	43	0	1161822208	20	5129
2026-01-01 11:01:16.39	334.65	14.86	-29.9	-32.7	13.5	1.52e-05	0	43	0	1162870784	20	4986
2026-01-01 11:01:17.40	334.71	14.75	-29.8	-32.5	13.6	5.30e-06	0	44	0	1164967936	20	4910
2026-01-01 11:01:18.40	334.76	14.65	-29.8	-32.6	13.5	1.44e-05	0	44	0	1167065088	20	4958
2026-01-01 11:01:19.40	334.82	14.55	-29.9	-32.7	13.5	1.44e-05	0	43	0	1169162240	20	4974
2026-01-01 11:01:20.40	334.88	14.45	-29.9	-32.9	13.3	1.67e-05	0	43	0	1170210816	20	5069
2026-01-01 11:01:21.39	334.93	14.35	-29.9	-32.7	13.4	1.14e-05	0	43	0	1172307968	20	4998
2026-01-01 11:01:22.40	334.99	14.25	-29.9	-32.7	13.4	1.22e-05	0	44	0	1174405120	20	5010
2026-01-01 11:01:23.40	335.04	14.15	-30.0	-33.1	13.2	1.83e-05	0	43	0	1176502272	20	5135
2026-01-01 11:01:24.40	335.09	14.05	-30.0	-33.1	13.1	4.42e-05	0	44	0	1178599424	20	5154
2026-01-01 11:01:25.41	335.15	13.95	-30.0	-33.2	13.1	2.44e-05	0	43	0	1180696576	20	5174
2026-01-01 11:01:26.42	335.20	13.85	-30.1	-33.4	12.9	6.10e-05	0	43	0	1181745152	20	5267
2026-01-01 11:01:27.42	335.25	13.76	-29.9	-33.0	13.2	3.81e-05	0	43	0	1183842304	20	5099
2026-01-01 11:01:28.42	335.31	13.66	-29.9	-32.8	13.3	1.90e-05	0	43	0	1185939456	20	5046
2026-01-01 11:01:29.43	335.36	13.56	-29.9	-32.8	13.3	1.98e-05	0	43	0	1188036608	20	5035
2026-01-01 11:01:30.43	335.41	13.47	-29.9	-32.8	13.3	1.67e-05	0	43	0	1189085184	20	5034
2026-01-01 11:01:31.44	335.46	13.37	-30.0	-33.1	13.1	1.98e-05	0	43	0	1191182336	20	5147
2026-01-01 11:01:32.45	335.52	13.27	-30.0	-33.2	13.0	5.11e-05	0	43	0	1193279488	20	5198
2026-01-01 11:01:33.45	335.57	13.18	-29.9	-33.0	13.2	2.13e-05	0	43	0	1195376640	20	5109
2026-01-01 11:01:34.45	335.62	13.08	-30.0	-33.1	13.1	3.66e-05	0	43	0	1197473792	20	5149
2026-01-01 11:01:35.45	335.67	12.99	-30.0	-33.2	13.0	4.73e-05	0	43	0	1198522368	20	5196
2026-01-01 11:01:36.45	335.72	12.89	-30.1	-33.3	12.9	3.12e-05	0	43	0	1200619520	20	5255
2026-01-01 11:01:37.45	335.77	12.80	-30.1	-33.6	12.7	5.72e-05	0	43	0	1202716672	20	5346
2026-01-01 11:01:38.46	335.82	12.70	-30.2	-33.6	12.7	5.56e-05	0	43	0	1204813824	20	5376
2026-01-01 11:01:39.46	335.87	12.61	-30.2	-33.9	12.5	1.14e-04	0	43	0	1206910976	20	5470
2026-01-01 11:01:40.46	335.92	12.52	-30.3	-33.9	12.4	1.43e-04	0	43	0	1207959552	20	5506
2026-01-01 11:01:41.46	335.97	12.42	-30.3	-33.9	12.5	1.52e-04	0	43	0	1210056704	20	5499
2026-01-01 11:01:42.45	336.01	12.33	-30.3	-34.1	12.3	1.52e-04	0	43	0	1212153856	20	5583
2026-01-01 11:01:43.45	336.06	12.24	-30.3	-34.2	12.2	2.29e-04	0	43	0	1214251008	20	5639
2026-01-01 11:01:44.46	336.11	12.15	-30.4	-34.3	12.2	2.13e-04	0	43	0	1215299584	20	5658
2026-01-01 11:01:45.46	336.16	12.06	-30.4	-34.0	12.0	3.23e-04	0	43	0	1217396736	21	5435
2026-01-01 11:01:46.46	336.21	11.97	-30.3	-33.7	12.2	2.33e-04	0	43	0	1219493888	21	5321
2026-01-01 11:01:47.47	336.25	11.87	-30.3	-33.7	12.2	1.77e-04	0	43	0	1221591040	21	5299
2026-01-01 11:01:48.48	336.30	11.78	-30.2	-33.4	12.4	1.51e-04	0	43	0	1223688192	21	5200
2026-01-01 11:01:49.48	336.35	11.69	-30.3	-33.5	12.3	1.52e-04	0	43	0	1225785344	21	5229
2026-01-01 11:01:50.48	336.39	11.60	-30.3	-33.8	12.2	1.99e-04	0	44	0	1226833920	21	5342
2026-01-01 11:01:51.47	336.44	11.52	-30.4	-33.9	12.0	3.20e-04	0	43	0	1228931072	21	5405
2026-01-01 11:01:52.47	336.48	11.43	-30.5	-34.1	11.9	3.55e-04	0	44	0	1231028224	21	5493
2026-01-01 11:01:53.48	336.53	11.34	-30.5	-34.2	11.8	5.06e-04	0	44	0	1233125376	21	5501
2026-01-01 11:01:54.48	336.58	11.25	-30.4	-34.0	12.0	3.75e-04	0	44	0	1234173952	21	5420
2026-01-01 11:01:55.48	336.62	11.16	-30.4	-34.1	11.9	3.49e-04	0	43	0	1236271104	21	5470
2026-01-01 11:01:56.48	336.67	11.07	-30.4	-33.9	12.0	4.10e-04	0	43	0	1238368256	21	5407
2026-01-01 11:01:57.49	336.71	10.98	-30.4	-34.1	11.9	3.03e-04	0	43	0	1240465408	21	5468
2026-01-01 11:01:58.48	336.76	10.90	-30.4	-34.1	11.8	5.93e-04	0	44	0	1242562560	21	5486
2026-01-01 11:01:59.49	336.80	10.81	-30.3	-33.6	12.2	3.60e-04	0	43	0	1243611136	21	5262
2026-01-01 11:02:00.50	336.84	10.72	-30.2	-33.3	12.4	1.49e-04	0	43	0	1245708288	21	5153
2026-01-01 11:02:01.50	336.89	10.64	-30.1	-33.2	12.5	1.32e-04	0	43	0	1247805440	21	5098
2026-01-01 11:02:02.51	336.93	10.55	-30.1	-33.1	12.5	1.12e-04	0	43	0	1249902592	21	5092
2026-01-01 11:02:03.51	336.98	10.46	-30.1	-33.1	12.5	1.28e-04	0	43	0	1251999744	21	5079
2026-01-01 11:02:04.51	337.02	10.38	-30.1	-33.1	12.6	1.09e-04	0	44	0	1253048320	21	5074
2026-01-01 11:02:05.52	337.06	10.29	-30.1	-33.0	12.6	9.46e-05	0	44	0	1255145472	21	5050
2026-01-01 11:02:06.52	337.10	10.21	-30.1	-33.1	12.5	1.15e-04	0	43	0	1257242624	21	5084
2026-01-01 11:02:07.53	337.15	10.12	-30.1	-33.2	12.4	1.17e-04	0	43	0	1259339776	21	5112
2026-01-01 11:02:08.54	337.19	10.04	-30.1	-33.2	12.4	1.43e-04	0	43	0	1261436928	21	5140
2026-01-01 11:02:09.55	337.23	9.95	-30.2	-33.3	12.4	1.46e-04	0	43	0	1262485504	21	5147
2026-01-01 11:02:10.55	337.27	9.87	-30.2	-33.3	12.3	1.69e-04	0	43	0	1264582656	21	5179
2026-01-01 11:02:11.55	337.31	9.78	-30.3	-33.6	12.1	2.78e-04	0	43	0	1266679808	21	5288
2026-01-01 11:02:12.54	337.36	9.70	-30.3	-33.6	12.1	2.77e-04	0	43	0	1268776960	21	5308
2026-01-01 11:02:13.54	337.40	9.62	-30.2	-33.6	12.1	2.86e-04	0	43	0	1270874112	21	5294
2026-01-01 11:02:14.54	337.44	9.54	-30.3	-33.7	12.0	3.59e-04	0	43	0	1271922688	21	5342
2026-01-01 11:02:15.54	337.48	9.45	-30.2	-33.5	12.1	2.59e-04	0	43	0	1274019840	21	5260
2026-01-01 11:02:16.54	337.52	9.37	-30.3	-33.7	12.0	2.85e-04	0	44	0	1276116992	21	5331
2026-01-01 11:02:17.54	337.56	9.29	-30.2	-33.5	12.1	3.54e-04	0	43	0	1278214144	21	5245
2026-01-01 11:02:18.55	337.60	9.21	-30.1	-33.2	12.3	1.88e-04	0	43	0	1279262720	21	5124
