passes_logs/2026/01/01/R2M6_AANII_01/R2M6_AANII_01__20260101_121211_SUOMI_NPP_rec.log

#Pass ID: 20260101_121211_SUOMI NPP
#Satellite: SUOMI NPP
#Configuration: NPP
#almurnet v.1.7.20240730
#Start time: 2026-01-01 12:12:13

#Version: 2.2.20231116
#Station: R2M6_AANII_01
#Location: 30.233357 lon 59.946436 lat
#TLE: 1 37849U 11061A   25364.87906317  .00000195  00000+0  11345-3 0  9992
#TLE: 2 37849  98.7794 302.0592 0002571  89.2401 270.9069 14.19520347734561

#Time	Az	El	Level	Level2	SNR	BER	BlckErr	Temp	State	Recorded	gain1	gain2
2026-01-01 12:12:13.63	220.68	7.11	-31.1	-35.4	5.1	1.20e+00	0	41	0	0	22	5932
2026-01-01 12:12:14.63	220.79	7.17	-31.5	-36.3	4.7	1.27e+00	0	41	104	0	24	6247
2026-01-01 12:12:15.63	220.89	7.23	-31.4	-35.9	7.1	2.00e-01	0	41	0	0	24	5989
2026-01-01 12:12:16.64	221.00	7.29	-31.4	-35.5	7.4	1.20e-01	0	41	0	1048576	24	5802
2026-01-01 12:12:17.64	221.11	7.35	-31.3	-35.1	7.7	1.04e-01	0	41	0	3145728	24	5581
2026-01-01 12:12:18.65	221.22	7.41	-31.2	-35.1	8.2	7.16e-02	0	41	0	5242880	23	5630
2026-01-01 12:12:19.65	221.33	7.47	-31.2	-35.1	8.2	5.08e-02	0	41	0	7340032	23	5636
2026-01-01 12:12:20.66	221.44	7.53	-31.1	-34.8	8.4	5.79e-02	0	41	0	9437184	23	5504
2026-01-01 12:12:21.67	221.55	7.59	-31.0	-34.1	9.0	3.35e-02	0	41	0	10485760	23	5153
2026-01-01 12:12:22.67	221.66	7.65	-30.9	-33.7	9.4	2.06e-02	0	41	0	12582912	23	4969
2026-01-01 12:12:23.67	221.77	7.71	-30.7	-33.5	9.8	1.15e-02	0	41	0	14680064	22	4970
2026-01-01 12:12:24.68	221.88	7.77	-30.7	-33.5	9.9	8.43e-03	0	41	0	16777216	22	4987
2026-01-01 12:12:25.68	221.99	7.83	-30.8	-33.9	9.5	1.08e-02	0	41	0	18874368	22	5162
2026-01-01 12:12:26.69	222.11	7.89	-30.8	-33.7	9.7	1.29e-02	0	41	0	19922944	22	5079
2026-01-01 12:12:27.69	222.22	7.95	-30.8	-33.7	9.7	1.17e-02	0	41	0	22020096	22	5079
2026-01-01 12:12:28.69	222.33	8.01	-30.7	-33.6	9.9	1.20e-02	0	41	0	24117248	22	5008
2026-01-01 12:12:29.68	222.44	8.07	-30.7	-33.4	10.0	6.73e-03	0	41	0	26214400	22	4930
2026-01-01 12:12:30.69	222.56	8.13	-30.6	-33.2	10.1	6.72e-03	0	41	0	28311552	22	4833
2026-01-01 12:12:31.69	222.67	8.19	-30.8	-33.8	9.7	8.58e-03	0	41	0	29360128	22	5095
2026-01-01 12:12:32.70	222.79	8.25	-30.8	-33.7	9.7	1.31e-02	0	41	0	31457280	22	5054
2026-01-01 12:12:33.71	222.90	8.31	-30.7	-33.3	10.1	7.09e-03	0	41	0	33554432	22	4885
2026-01-01 12:12:34.71	223.02	8.37	-30.5	-32.8	10.6	4.28e-03	0	41	0	35651584	22	4675
2026-01-01 12:12:35.71	223.13	8.43	-30.5	-32.7	10.6	3.69e-03	0	41	0	36700160	22	4649
2026-01-01 12:12:36.71	223.25	8.49	-30.5	-32.8	10.6	3.45e-03	0	41	0	38797312	22	4675
2026-01-01 12:12:37.71	223.37	8.55	-30.5	-32.7	10.6	3.46e-03	0	41	0	40894464	22	4628
2026-01-01 12:12:38.71	223.48	8.61	-30.4	-32.5	10.7	2.27e-03	0	42	0	42991616	22	4569
2026-01-01 12:12:39.72	223.60	8.67	-30.4	-32.4	10.9	2.33e-03	0	42	0	45088768	22	4527
2026-01-01 12:12:40.72	223.72	8.73	-30.4	-32.4	10.8	2.24e-03	0	41	0	46137344	22	4533
2026-01-01 12:12:41.72	223.84	8.79	-30.2	-32.4	11.1	2.40e-03	0	41	0	48234496	21	4637
2026-01-01 12:12:42.72	223.96	8.85	-30.1	-31.9	11.5	1.38e-03	0	41	0	50331648	21	4455
2026-01-01 12:12:43.72	224.08	8.91	-29.9	-31.4	11.8	5.24e-04	0	42	0	52428800	21	4288
2026-01-01 12:12:44.72	224.20	8.97	-29.9	-31.3	11.9	4.30e-04	0	42	0	54525952	21	4250
2026-01-01 12:12:45.72	224.32	9.03	-30.0	-31.7	11.7	4.26e-04	0	42	0	55574528	21	4377
2026-01-01 12:12:46.73	224.44	9.09	-29.9	-31.3	12.0	3.49e-04	0	42	0	57671680	21	4236
2026-01-01 12:12:47.73	224.56	9.16	-29.9	-31.3	12.0	3.28e-04	0	42	0	59768832	21	4230
2026-01-01 12:12:48.73	224.69	9.22	-30.0	-31.6	11.8	3.58e-04	0	42	0	61865984	21	4331
2026-01-01 12:12:49.74	224.81	9.28	-29.9	-31.3	12.0	4.12e-04	0	42	0	63963136	21	4235
2026-01-01 12:12:50.74	224.93	9.34	-30.0	-31.7	11.7	3.49e-04	0	42	0	65011712	21	4371
2026-01-01 12:12:51.74	225.06	9.40	-29.9	-31.3	12.0	4.71e-04	0	42	0	67108864	21	4233
2026-01-01 12:12:52.75	225.18	9.46	-29.8	-31.5	12.3	2.79e-04	0	42	0	69206016	20	4372
2026-01-01 12:12:53.75	225.31	9.52	-29.8	-31.7	12.1	1.81e-04	0	42	0	71303168	20	4433
2026-01-01 12:12:54.75	225.43	9.58	-29.8	-31.6	12.2	2.70e-04	0	42	0	73400320	20	4408
2026-01-01 12:12:55.76	225.56	9.64	-29.9	-31.7	12.1	2.16e-04	0	42	0	74448896	20	4449
2026-01-01 12:12:56.76	225.68	9.70	-29.9	-31.8	12.0	2.90e-04	0	42	0	76546048	20	4472
2026-01-01 12:12:57.76	225.81	9.77	-30.0	-32.1	11.8	5.05e-04	0	42	0	78643200	20	4576
2026-01-01 12:12:58.76	225.94	9.83	-30.0	-32.1	11.9	4.84e-04	0	42	0	80740352	20	4571
2026-01-01 12:12:59.76	226.06	9.89	-30.0	-32.1	11.8	3.45e-04	0	42	0	81788928	20	4577
2026-01-01 12:13:00.76	226.19	9.95	-30.0	-32.1	11.9	3.62e-04	0	42	0	83886080	20	4587
2026-01-01 12:13:01.76	226.32	10.01	-30.0	-32.0	12.0	4.20e-04	0	42	0	85983232	20	4535
2026-01-01 12:13:02.76	226.45	10.07	-30.1	-32.3	11.7	3.75e-04	0	42	0	88080384	20	4640
2026-01-01 12:13:03.76	226.58	10.13	-30.1	-32.3	11.8	6.13e-04	0	42	0	90177536	20	4639
2026-01-01 12:13:04.76	226.71	10.19	-29.8	-31.4	12.4	2.01e-04	0	42	0	91226112	20	4332
2026-01-01 12:13:05.76	226.84	10.25	-29.7	-31.1	12.6	9.99e-05	0	42	0	93323264	20	4255
2026-01-01 12:13:06.77	226.97	10.32	-29.8	-31.3	12.4	1.11e-04	0	42	0	95420416	20	4309
2026-01-01 12:13:07.77	227.11	10.38	-29.6	-31.0	12.7	7.55e-05	0	42	0	97517568	20	4207
2026-01-01 12:13:08.77	227.24	10.44	-29.6	-31.0	12.7	9.00e-05	0	42	0	99614720	20	4208
2026-01-01 12:13:09.78	227.37	10.50	-29.8	-31.3	12.4	1.23e-04	0	42	0	100663296	20	4314
2026-01-01 12:13:10.78	227.51	10.56	-29.7	-31.1	12.6	9.61e-05	0	42	0	102760448	20	4246
2026-01-01 12:13:11.79	227.64	10.62	-29.6	-30.9	12.7	1.09e-04	0	42	0	104857600	20	4182
2026-01-01 12:13:12.80	227.78	10.69	-29.9	-31.6	12.3	1.16e-04	0	42	0	106954752	20	4404
2026-01-01 12:13:13.79	227.91	10.75	-29.7	-31.3	12.5	2.16e-04	0	42	0	109051904	20	4291
2026-01-01 12:13:14.79	228.05	10.81	-29.7	-31.2	12.6	1.14e-04	0	42	0	110100480	20	4259
2026-01-01 12:13:15.79	228.18	10.87	-29.8	-31.3	12.5	1.68e-04	0	42	0	112197632	20	4308
2026-01-01 12:13:16.80	228.32	10.93	-29.7	-31.3	12.5	1.35e-04	0	42	0	114294784	20	4291
2026-01-01 12:13:17.80	228.46	10.99	-29.7	-31.2	12.5	1.12e-04	0	42	0	116391936	20	4275
2026-01-01 12:13:18.81	228.60	11.06	-30.0	-32.0	12.1	1.87e-04	0	42	0	118489088	20	4522
2026-01-01 12:13:19.81	228.73	11.12	-29.9	-31.7	12.2	2.94e-04	0	42	0	119537664	20	4447
2026-01-01 12:13:20.81	228.87	11.18	-29.6	-30.9	12.8	1.11e-04	0	42	0	121634816	20	4181
2026-01-01 12:13:21.82	229.01	11.24	-29.6	-31.0	12.7	6.25e-05	0	42	0	123731968	20	4197
2026-01-01 12:13:22.82	229.15	11.30	-29.5	-30.7	12.9	5.11e-05	0	42	0	125829120	20	4103
2026-01-01 12:13:23.83	229.30	11.36	-29.6	-30.9	12.8	3.96e-05	0	42	0	126877696	20	4157
2026-01-01 12:13:24.83	229.44	11.42	-29.5	-30.6	13.0	3.58e-05	0	42	0	128974848	20	4076
2026-01-01 12:13:25.83	229.58	11.49	-29.4	-30.4	13.1	3.96e-05	0	42	0	131072000	20	4038
2026-01-01 12:13:26.83	229.72	11.55	-29.4	-30.3	13.2	2.82e-05	0	42	0	133169152	20	3994
2026-01-01 12:13:27.83	229.86	11.61	-29.6	-30.8	12.9	3.58e-05	0	42	0	135266304	20	4144
2026-01-01 12:13:28.84	230.01	11.67	-29.6	-30.7	12.9	7.62e-05	0	42	0	136314880	20	4110
2026-01-01 12:13:29.84	230.15	11.73	-29.6	-30.8	12.9	3.58e-05	0	42	0	138412032	20	4136
2026-01-01 12:13:30.84	230.30	11.79	-29.8	-31.4	12.5	7.62e-05	0	42	0	140509184	20	4338
2026-01-01 12:13:31.84	230.44	11.86	-30.0	-31.9	12.1	2.49e-04	0	42	0	142606336	20	4505
2026-01-01 12:13:32.85	230.59	11.92	-30.0	-31.9	12.2	2.37e-04	0	42	0	144703488	20	4480
2026-01-01 12:13:33.85	230.74	11.98	-30.1	-32.4	11.8	2.14e-04	0	42	0	145752064	20	4669
2026-01-01 12:13:34.85	230.88	12.04	-30.1	-32.3	11.9	3.68e-04	0	42	0	147849216	20	4637
2026-01-01 12:13:35.86	231.03	12.10	-30.2	-32.6	11.7	4.26e-04	0	42	0	149946368	20	4730
2026-01-01 12:13:36.86	231.18	12.16	-30.1	-32.2	11.9	3.91e-04	0	42	0	152043520	20	4614
2026-01-01 12:13:37.87	231.33	12.23	-30.3	-32.8	11.5	4.59e-04	0	43	0	154140672	20	4823
2026-01-01 12:13:38.87	231.48	12.29	-30.1	-32.3	11.9	5.04e-04	0	42	0	155189248	20	4630
2026-01-01 12:13:39.88	231.63	12.35	-29.9	-31.7	12.3	2.27e-04	0	42	0	157286400	20	4420
2026-01-01 12:13:40.89	231.78	12.41	-29.7	-31.2	12.6	1.34e-04	0	43	0	159383552	20	4279
2026-01-01 12:13:41.89	231.94	12.47	-29.7	-31.1	12.7	5.72e-05	0	43	0	161480704	20	4219
2026-01-01 12:13:42.89	232.09	12.53	-29.7	-31.0	12.8	6.33e-05	0	42	0	163577856	20	4186
2026-01-01 12:13:43.90	232.24	12.59	-29.6	-30.9	12.8	5.34e-05	0	42	0	164626432	20	4179
2026-01-01 12:13:44.90	232.40	12.66	-29.7	-31.1	12.7	1.24e-04	0	42	0	166723584	20	4238
2026-01-01 12:13:45.90	232.55	12.72	-29.8	-31.4	12.6	9.30e-05	0	43	0	168820736	20	4310
2026-01-01 12:13:46.90	232.70	12.78	-29.6	-30.9	12.9	7.01e-05	0	43	0	170917888	20	4148
2026-01-01 12:13:47.91	232.86	12.84	-29.7	-31.0	12.8	8.31e-05	0	43	0	173015040	20	4208
2026-01-01 12:13:48.91	233.02	12.90	-29.6	-30.9	12.9	4.19e-05	0	42	0	174063616	20	4153
2026-01-01 12:13:49.91	233.17	12.96	-29.5	-30.6	13.1	4.50e-05	0	43	0	176160768	20	4063
2026-01-01 12:13:50.92	233.33	13.02	-29.5	-30.4	13.2	3.58e-05	0	43	0	178257920	20	4022
2026-01-01 12:13:51.92	233.49	13.08	-29.6	-30.9	12.9	2.97e-05	0	42	0	180355072	20	4158
2026-01-01 12:13:52.92	233.65	13.14	-29.4	-30.1	13.4	1.60e-05	0	43	0	181403648	20	3937
2026-01-01 12:13:53.92	233.80	13.21	-29.4	-30.2	13.4	1.22e-05	0	42	0	183500800	20	3938
2026-01-01 12:13:54.92	233.96	13.27	-29.5	-30.4	13.1	2.36e-05	0	43	0	185597952	20	4025
2026-01-01 12:13:55.92	234.12	13.33	-29.4	-30.2	13.4	1.29e-05	0	43	0	187695104	20	3948
2026-01-01 12:13:56.92	234.28	13.39	-29.4	-30.2	13.4	1.37e-05	0	43	0	189792256	20	3963
2026-01-01 12:13:57.92	234.45	13.45	-29.4	-30.3	13.3	1.75e-05	0	42	0	190840832	20	3979
2026-01-01 12:13:58.92	234.61	13.51	-29.4	-30.2	13.4	1.52e-05	0	42	0	192937984	20	3950
2026-01-01 12:13:59.93	234.77	13.57	-29.3	-30.0	13.5	1.22e-05	0	43	0	195035136	20	3892
2026-01-01 12:14:00.93	234.93	13.63	-29.4	-30.4	13.3	2.28e-05	0	43	0	197132288	20	4009
2026-01-01 12:14:01.93	235.10	13.69	-29.3	-30.1	13.4	1.14e-05	0	43	0	199229440	20	3913
2026-01-01 12:14:02.93	235.26	13.75	-29.4	-30.4	13.3	1.98e-05	0	43	0	200278016	20	4003
2026-01-01 12:14:03.93	235.43	13.81	-29.5	-30.4	13.2	2.67e-05	0	43	0	202375168	20	4017
2026-01-01 12:14:04.94	235.60	13.87	-29.6	-30.7	13.1	2.05e-05	0	43	0	204472320	20	4110
2026-01-01 12:14:05.95	235.76	13.93	-29.4	-30.3	13.3	2.74e-05	0	43	0	206569472	20	3980
2026-01-01 12:14:06.95	235.93	13.99	-29.5	-30.4	13.3	1.83e-05	0	43	0	208666624	20	4009
2026-01-01 12:14:07.94	236.10	14.05	-29.5	-30.4	13.3	2.05e-05	0	43	0	209715200	20	4014
2026-01-01 12:14:08.94	236.27	14.11	-29.4	-30.2	13.4	1.29e-05	0	43	0	211812352	20	3954
2026-01-01 12:14:09.94	236.43	14.17	-29.5	-30.4	13.3	1.52e-05	0	43	0	213909504	20	4006
2026-01-01 12:14:10.94	236.60	14.23	-29.5	-30.4	13.3	2.13e-05	0	43	0	216006656	20	3994
2026-01-01 12:14:11.95	236.78	14.29	-29.6	-30.7	13.1	2.28e-05	0	43	0	218103808	20	4087
2026-01-01 12:14:12.96	236.95	14.35	-29.6	-30.7	13.1	3.20e-05	0	43	0	219152384	20	4104
2026-01-01 12:14:13.96	237.12	14.41	-29.7	-31.0	12.9	2.05e-05	0	43	0	221249536	20	4187
2026-01-01 12:14:14.96	237.29	14.47	-29.8	-31.3	12.7	6.10e-05	0	43	0	223346688	20	4287
2026-01-01 12:14:15.96	237.47	14.53	-29.8	-31.4	12.7	5.95e-05	0	43	0	225443840	20	4318
2026-01-01 12:14:16.96	237.64	14.59	-29.8	-31.4	12.6	9.38e-05	0	43	0	226492416	20	4318
2026-01-01 12:14:17.96	237.81	14.65	-29.7	-31.1	12.9	7.85e-05	0	43	0	228589568	20	4211
2026-01-01 12:14:18.96	237.99	14.71	-29.8	-31.3	12.7	6.79e-05	0	43	0	230686720	20	4271
2026-01-01 12:14:19.97	238.17	14.77	-29.6	-30.7	13.2	3.66e-05	0	43	0	232783872	20	4085
2026-01-01 12:14:20.97	238.34	14.82	-29.5	-30.6	13.2	1.60e-05	0	43	0	234881024	20	4057
2026-01-01 12:14:21.98	238.52	14.88	-29.5	-30.5	13.3	1.83e-05	0	43	0	235929600	20	4034
2026-01-01 12:14:22.98	238.70	14.94	-29.4	-30.2	13.4	1.83e-05	0	43	0	238026752	20	3945
2026-01-01 12:14:23.98	238.88	15.00	-29.5	-30.4	13.3	1.44e-05	0	43	0	240123904	20	3998
2026-01-01 12:14:24.99	239.06	15.06	-29.4	-30.3	13.4	2.28e-05	0	43	0	242221056	20	3965
2026-01-01 12:14:25.99	239.24	15.12	-29.7	-30.9	13.0	2.82e-05	0	43	0	244318208	20	4156
2026-01-01 12:14:27.00	239.42	15.18	-29.8	-31.2	12.8	7.78e-05	0	43	0	245366784	20	4250
2026-01-01 12:14:28.00	239.60	15.23	-29.8	-31.3	12.8	6.33e-05	0	43	0	247463936	20	4256
2026-01-01 12:14:29.01	239.79	15.29	-29.7	-30.9	13.0	4.80e-05	0	43	0	249561088	20	4152
2026-01-01 12:14:30.01	239.97	15.35	-29.8	-31.3	12.8	5.03e-05	0	43	0	251658240	20	4261
2026-01-01 12:14:31.02	240.15	15.41	-29.5	-30.5	13.2	3.50e-05	0	43	0	253755392	20	4034
2026-01-01 12:14:32.02	240.34	15.46	-29.4	-30.2	13.5	1.44e-05	0	43	0	254803968	20	3939
2026-01-01 12:14:33.02	240.52	15.52	-29.5	-30.4	13.4	1.14e-05	0	43	0	256901120	20	4008
2026-01-01 12:14:34.02	240.71	15.58	-29.6	-30.7	13.2	1.37e-05	0	43	0	258998272	20	4086
2026-01-01 12:14:35.03	240.90	15.64	-29.4	-30.2	13.5	1.60e-05	0	43	0	261095424	20	3939
2026-01-01 12:14:36.03	241.08	15.69	-29.6	-30.6	13.2	1.44e-05	0	43	0	263192576	20	4049
2026-01-01 12:14:37.03	241.27	15.75	-29.5	-30.5	13.4	8.30e-06	0	43	0	264241152	20	4019
2026-01-01 12:14:38.03	241.46	15.81	-29.4	-30.5	13.7	9.10e-06	0	43	0	266338304	19	4096
2026-01-01 12:14:39.03	241.65	15.86	-29.5	-30.8	13.5	6.80e-06	0	43	0	268435456	19	4191
2026-01-01 12:14:40.03	241.84	15.92	-29.3	-30.4	13.8	2.20e-06	0	43	0	270532608	19	4083
2026-01-01 12:14:41.03	242.03	15.97	-29.3	-30.3	13.8	6.10e-06	0	43	0	272629760	19	4057
2026-01-01 12:14:42.04	242.22	16.03	-29.3	-30.4	13.8	4.50e-06	0	43	0	273678336	19	4056
2026-01-01 12:14:43.04	242.41	16.09	-29.5	-30.9	13.5	2.20e-06	0	43	0	275775488	19	4215
2026-01-01 12:14:44.05	242.61	16.14	-29.4	-30.5	13.7	9.90e-06	0	43	0	277872640	19	4119
2026-01-01 12:14:45.05	242.80	16.20	-29.6	-31.0	13.5	6.80e-06	0	43	0	279969792	19	4258
2026-01-01 12:14:46.05	242.99	16.25	-29.4	-30.7	13.7	9.90e-06	0	43	0	282066944	19	4153
2026-01-01 12:14:47.06	243.19	16.31	-29.4	-30.6	13.7	7.60e-06	0	43	0	283115520	19	4118
2026-01-01 12:14:48.06	243.38	16.36	-29.3	-30.4	13.8	7.60e-06	0	43	0	285212672	19	4076
2026-01-01 12:14:49.06	243.58	16.42	-29.4	-30.5	13.7	7.00e-07	0	43	0	287309824	19	4110
2026-01-01 12:14:50.06	243.78	16.47	-29.6	-31.0	13.4	9.10e-06	0	43	0	289406976	19	4246
2026-01-01 12:14:51.07	243.97	16.52	-29.3	-30.4	13.8	9.10e-06	0	43	0	290455552	19	4063
2026-01-01 12:14:52.08	244.17	16.58	-29.2	-30.1	14.0	1.50e-06	0	43	0	292552704	19	3991
2026-01-01 12:14:53.08	244.37	16.63	-29.3	-30.2	13.9	4.50e-06	0	43	0	294649856	19	4019
2026-01-01 12:14:54.08	244.57	16.69	-29.4	-30.5	13.8	7.60e-06	0	43	0	296747008	19	4086
2026-01-01 12:14:55.08	244.77	16.74	-29.5	-30.8	13.6	6.80e-06	0	43	0	298844160	19	4196
2026-01-01 12:14:56.08	244.97	16.79	-29.6	-31.2	13.3	8.30e-06	0	43	0	299892736	19	4306
2026-01-01 12:14:57.08	245.17	16.85	-29.7	-31.3	13.3	2.59e-05	0	43	0	301989888	19	4332
2026-01-01 12:14:58.09	245.38	16.90	-29.7	-31.3	13.2	9.90e-06	0	43	0	304087040	19	4349
2026-01-01 12:14:59.09	245.58	16.95	-29.8	-31.6	13.0	2.89e-05	0	43	0	306184192	19	4451
2026-01-01 12:15:00.09	245.78	17.00	-29.6	-31.1	13.4	1.52e-05	0	43	0	308281344	19	4279
2026-01-01 12:15:01.10	245.99	17.06	-29.6	-31.0	13.5	1.98e-05	0	43	0	309329920	19	4262
2026-01-01 12:15:02.10	246.19	17.11	-29.7	-31.3	13.3	2.21e-05	0	43	0	311427072	19	4347
2026-01-01 12:15:03.11	246.40	17.16	-29.7	-31.3	13.2	2.21e-05	0	43	0	313524224	19	4352
2026-01-01 12:15:04.11	246.61	17.21	-29.9	-31.9	12.8	2.89e-05	0	43	0	315621376	19	4551
2026-01-01 12:15:05.11	246.81	17.26	-29.8	-31.7	13.0	3.43e-05	0	43	0	317718528	19	4480
2026-01-01 12:15:06.12	247.02	17.31	-30.1	-32.0	12.4	5.34e-05	0	43	0	318767104	20	4473
2026-01-01 12:15:07.12	247.23	17.36	-30.0	-31.8	12.6	7.70e-05	0	43	0	320864256	20	4411
2026-01-01 12:15:08.12	247.44	17.41	-29.9	-31.3	12.9	5.18e-05	0	43	0	322961408	20	4260
2026-01-01 12:15:09.13	247.65	17.46	-29.9	-31.3	12.9	6.10e-05	0	43	0	325058560	20	4272
2026-01-01 12:15:10.13	247.86	17.51	-29.9	-31.3	12.8	6.63e-05	0	43	0	327155712	20	4273
2026-01-01 12:15:11.13	248.07	17.56	-30.0	-31.6	12.7	5.03e-05	0	43	0	328204288	20	4346
2026-01-01 12:15:12.13	248.28	17.61	-30.0	-31.8	12.6	6.56e-05	0	43	0	330301440	20	4424
2026-01-01 12:15:13.13	248.50	17.66	-30.0	-31.8	12.6	8.39e-05	0	43	0	332398592	20	4418
2026-01-01 12:15:14.14	248.71	17.71	-30.1	-32.0	12.5	8.62e-05	0	43	0	334495744	20	4471
2026-01-01 12:15:15.14	248.92	17.76	-30.2	-32.2	12.3	1.58e-04	0	43	0	336592896	20	4560
2026-01-01 12:15:16.14	249.14	17.80	-30.1	-32.0	12.5	1.65e-04	0	43	0	337641472	20	4483
2026-01-01 12:15:17.14	249.35	17.85	-30.2	-32.3	12.3	1.99e-04	0	43	0	339738624	20	4579
2026-01-01 12:15:18.15	249.57	17.90	-30.3	-32.5	12.1	2.20e-04	0	43	0	341835776	20	4673
2026-01-01 12:15:19.15	249.79	17.95	-30.2	-32.4	12.1	3.01e-04	0	43	0	343932928	20	4641
2026-01-01 12:15:20.14	250.00	17.99	-30.5	-33.1	11.7	5.01e-04	0	43	0	346030080	20	4878
2026-01-01 12:15:21.15	250.22	18.04	-30.4	-33.0	11.8	4.77e-04	0	43	0	347078656	20	4824
2026-01-01 12:15:22.16	250.44	18.09	-30.4	-33.0	11.8	4.64e-04	0	43	0	349175808	20	4834
2026-01-01 12:15:23.15	250.66	18.13	-30.5	-32.8	11.5	5.23e-04	0	43	0	351272960	21	4678
2026-01-01 12:15:24.15	250.88	18.18	-30.5	-32.7	11.6	6.90e-04	0	43	0	353370112	21	4632
2026-01-01 12:15:25.16	251.10	18.22	-30.4	-32.5	11.8	4.00e-04	0	43	0	354418688	21	4548
2026-01-01 12:15:26.16	251.32	18.27	-30.6	-32.8	11.5	6.18e-04	0	43	0	356515840	21	4685
2026-01-01 12:15:27.16	251.54	18.31	-30.6	-32.9	11.5	7.47e-04	0	43	0	358612992	21	4715
2026-01-01 12:15:28.16	251.76	18.36	-30.6	-33.1	11.3	8.01e-04	0	43	0	360710144	21	4790
2026-01-01 12:15:29.16	251.98	18.40	-30.7	-33.3	11.3	7.97e-04	0	43	0	362807296	21	4846
2026-01-01 12:15:30.17	252.21	18.44	-30.5	-32.8	11.6	8.35e-04	0	43	0	363855872	21	4680
2026-01-01 12:15:31.17	252.43	18.49	-30.4	-32.4	11.8	5.98e-04	0	43	0	365953024	21	4537
2026-01-01 12:15:32.17	252.66	18.53	-30.4	-32.4	11.9	4.22e-04	0	43	0	368050176	21	4534
2026-01-01 12:15:33.17	252.88	18.57	-30.4	-32.3	11.9	2.70e-04	0	43	0	370147328	21	4505
2026-01-01 12:15:34.17	253.11	18.61	-30.5	-32.8	11.6	5.22e-04	0	43	0	372244480	21	4672
2026-01-01 12:15:35.18	253.34	18.66	-30.5	-32.7	11.7	6.16e-04	0	43	0	373293056	21	4644
2026-01-01 12:15:36.19	253.56	18.70	-30.6	-32.8	11.5	7.37e-04	0	43	0	375390208	21	4685
2026-01-01 12:15:37.19	253.79	18.74	-30.6	-33.0	11.5	8.32e-04	0	43	0	377487360	21	4750
2026-01-01 12:15:38.20	254.02	18.78	-30.6	-32.9	11.5	8.68e-04	0	43	0	379584512	21	4696
2026-01-01 12:15:39.21	254.25	18.82	-30.4	-32.4	11.8	4.78e-04	0	43	0	381681664	21	4543
2026-01-01 12:15:40.22	254.48	18.86	-30.2	-31.9	12.3	2.90e-04	0	43	0	382730240	21	4349
2026-01-01 12:15:41.22	254.71	18.90	-30.1	-31.6	12.5	1.30e-04	0	43	0	384827392	21	4248
2026-01-01 12:15:42.22	254.94	18.94	-30.3	-32.0	12.2	1.78e-04	0	43	0	386924544	21	4385
2026-01-01 12:15:43.23	255.18	18.98	-30.2	-31.9	12.3	1.99e-04	0	43	0	389021696	21	4345
2026-01-01 12:15:44.22	255.41	19.02	-30.4	-32.3	11.9	5.03e-04	0	43	0	391118848	21	4509
2026-01-01 12:15:45.23	255.64	19.05	-30.3	-32.0	12.2	3.26e-04	0	43	0	392167424	21	4400
2026-01-01 12:15:46.23	255.87	19.09	-30.4	-32.5	11.8	5.55e-04	0	43	0	394264576	21	4555
2026-01-01 12:15:47.24	256.11	19.13	-30.3	-32.0	12.1	2.29e-04	0	43	0	396361728	21	4406
2026-01-01 12:15:48.24	256.34	19.16	-30.0	-31.3	12.7	9.15e-05	0	43	0	398458880	21	4148
2026-01-01 12:15:49.24	256.58	19.20	-30.0	-31.2	12.7	8.08e-05	0	43	0	400556032	21	4147
2026-01-01 12:15:50.24	256.81	19.24	-30.1	-31.4	12.5	1.15e-04	0	43	0	401604608	21	4210
2026-01-01 12:15:51.24	257.05	19.27	-30.0	-31.1	12.8	7.78e-05	0	43	0	403701760	21	4097
2026-01-01 12:15:52.25	257.28	19.31	-29.8	-30.7	13.0	5.11e-05	0	43	0	405798912	21	3989
2026-01-01 12:15:53.25	257.52	19.34	-29.9	-31.0	12.8	3.50e-05	0	43	0	407896064	21	4070
2026-01-01 12:15:54.25	257.76	19.38	-29.9	-30.9	12.9	2.82e-05	0	43	0	408944640	21	4045
2026-01-01 12:15:55.26	258.00	19.41	-29.8	-31.1	13.1	4.57e-05	0	43	0	411041792	20	4173
2026-01-01 12:15:56.26	258.23	19.44	-29.4	-29.9	13.8	1.52e-05	0	43	0	413138944	20	3845
2026-01-01 12:15:57.26	258.47	19.48	-29.1	-29.7	14.4	7.00e-07	0	43	0	415236096	19	3875
2026-01-01 12:15:58.26	258.71	19.51	-28.9	-29.3	14.6	7.00e-07	0	43	0	417333248	19	3769
2026-01-01 12:15:59.26	258.95	19.54	-29.1	-29.7	14.4	9.10e-06	0	43	0	418381824	19	3854
2026-01-01 12:16:00.26	259.19	19.57	-29.2	-30.0	14.2	7.00e-07	0	43	0	420478976	19	3942
2026-01-01 12:16:01.26	259.43	19.60	-29.1	-29.8	14.3	1.50e-06	0	43	0	422576128	19	3901
2026-01-01 12:16:02.26	259.67	19.63	-29.2	-29.9	14.4	5.30e-06	0	43	0	424673280	19	3908
2026-01-01 12:16:03.26	259.91	19.66	-29.0	-29.4	14.6	0.00e+00	0	43	0	426770432	19	3775
2026-01-01 12:16:04.26	260.15	19.69	-29.1	-29.7	14.4	1.50e-06	0	43	0	427819008	19	3856
2026-01-01 12:16:05.27	260.40	19.72	-28.9	-29.2	14.7	0.00e+00	0	43	0	429916160	19	3728
2026-01-01 12:16:06.27	260.64	19.75	-28.8	-29.5	14.9	0.00e+00	0	43	0	432013312	18	3911
2026-01-01 12:16:07.27	260.88	19.78	-29.2	-30.4	14.3	0.00e+00	0	43	0	434110464	18	4156
2026-01-01 12:16:08.27	261.13	19.81	-29.2	-30.4	14.3	2.20e-06	0	43	0	436207616	18	4154
2026-01-01 12:16:09.27	261.37	19.83	-29.3	-30.8	14.1	3.00e-06	0	43	0	437256192	18	4261
2026-01-01 12:16:10.27	261.61	19.86	-29.3	-30.7	14.1	4.50e-06	0	43	0	439353344	18	4233
2026-01-01 12:16:11.28	261.86	19.89	-29.2	-30.5	14.3	7.00e-07	0	43	0	441450496	18	4166
2026-01-01 12:16:12.28	262.11	19.91	-29.3	-30.6	14.2	1.50e-06	0	43	0	443547648	18	4213
2026-01-01 12:16:13.28	262.35	19.94	-29.3	-30.8	14.1	0.00e+00	0	43	0	445644800	18	4281
2026-01-01 12:16:14.29	262.60	19.96	-29.3	-30.6	14.2	0.00e+00	0	43	0	446693376	18	4210
2026-01-01 12:16:15.28	262.84	19.99	-29.4	-30.9	14.0	3.00e-06	0	43	0	448790528	18	4300
2026-01-01 12:16:16.28	263.09	20.01	-29.3	-30.8	14.0	3.00e-06	0	43	0	450887680	18	4274
2026-01-01 12:16:17.29	263.34	20.03	-29.3	-30.7	14.1	0.00e+00	0	43	0	452984832	18	4232
2026-01-01 12:16:18.29	263.59	20.06	-29.2	-30.5	14.3	2.20e-06	0	43	0	454033408	18	4171
2026-01-01 12:16:19.29	263.83	20.08	-29.2	-30.5	14.3	1.50e-06	0	43	0	456130560	18	4165
2026-01-01 12:16:20.29	264.08	20.10	-29.3	-30.7	14.2	4.50e-06	0	43	0	458227712	18	4220
2026-01-01 12:16:21.30	264.33	20.12	-29.4	-31.0	14.0	7.00e-07	0	43	0	460324864	18	4342
2026-01-01 12:16:22.29	264.58	20.14	-29.6	-30.9	13.7	9.10e-06	0	43	0	462422016	19	4217
2026-01-01 12:16:23.30	264.83	20.16	-29.4	-30.4	14.0	5.30e-06	0	43	0	463470592	19	4071
2026-01-01 12:16:24.30	265.08	20.18	-29.2	-29.9	14.3	1.50e-06	0	43	0	465567744	19	3908
2026-01-01 12:16:25.30	265.33	20.20	-28.9	-29.2	14.8	7.00e-07	0	43	0	467664896	19	3723
2026-01-01 12:16:26.31	265.58	20.22	-28.8	-29.0	14.9	7.00e-07	0	43	0	469762048	19	3665
2026-01-01 12:16:27.31	265.83	20.24	-28.9	-29.2	14.8	0.00e+00	0	43	0	471859200	19	3717
2026-01-01 12:16:28.31	266.08	20.26	-29.1	-29.6	14.5	0.00e+00	0	43	0	472907776	19	3835
2026-01-01 12:16:29.32	266.33	20.27	-29.4	-30.4	14.0	7.00e-07	0	43	0	475004928	19	4060
2026-01-01 12:16:30.32	266.59	20.29	-29.5	-30.8	13.8	7.00e-07	0	43	0	477102080	19	4173
2026-01-01 12:16:31.32	266.84	20.31	-29.5	-30.9	13.7	6.10e-06	0	43	0	479199232	19	4187
2026-01-01 12:16:32.33	267.09	20.32	-29.5	-30.8	13.8	6.80e-06	0	43	0	481296384	19	4165
2026-01-01 12:16:33.33	267.34	20.34	-29.5	-30.9	13.7	7.60e-06	0	43	0	482344960	19	4188
2026-01-01 12:16:34.33	267.59	20.35	-29.6	-31.0	13.7	9.90e-06	0	43	0	484442112	19	4239
2026-01-01 12:16:35.33	267.85	20.36	-29.7	-31.2	13.5	9.10e-06	0	43	0	486539264	19	4281
2026-01-01 12:16:36.33	268.10	20.38	-29.8	-31.6	13.3	1.75e-05	0	43	0	488636416	19	4417
2026-01-01 12:16:37.33	268.35	20.39	-30.0	-32.0	13.0	3.35e-05	0	43	0	489684992	19	4530
2026-01-01 12:16:38.33	268.60	20.40	-30.0	-31.5	12.9	3.66e-05	0	43	0	491782144	20	4306
2026-01-01 12:16:39.33	268.86	20.41	-29.9	-31.3	13.0	5.56e-05	0	43	0	493879296	20	4247
2026-01-01 12:16:40.34	269.11	20.42	-29.6	-30.5	13.6	1.67e-05	0	43	0	495976448	20	3985
2026-01-01 12:16:41.34	269.37	20.43	-29.3	-29.8	14.1	4.50e-06	0	43	0	498073600	20	3789
2026-01-01 12:16:42.35	269.62	20.44	-29.4	-30.4	14.0	3.00e-06	0	43	0	499122176	19	4049
2026-01-01 12:16:43.35	269.87	20.45	-29.4	-30.5	14.0	2.20e-06	0	43	0	501219328	19	4078
2026-01-01 12:16:44.35	270.13	20.46	-29.6	-30.9	13.7	4.50e-06	0	43	0	503316480	19	4211
2026-01-01 12:16:45.35	270.38	20.47	-29.6	-30.9	13.7	3.80e-06	0	43	0	505413632	19	4207
2026-01-01 12:16:46.35	270.64	20.48	-29.4	-30.5	13.9	3.00e-06	0	43	0	507510784	19	4088
2026-01-01 12:16:47.36	270.89	20.49	-29.3	-30.1	14.2	7.00e-07	0	43	0	508559360	19	3964
2026-01-01 12:16:48.36	271.15	20.49	-29.2	-30.0	14.3	7.00e-07	0	43	0	510656512	19	3936
2026-01-01 12:16:49.37	271.40	20.50	-29.3	-30.2	14.2	3.80e-06	0	43	0	512753664	19	3980
2026-01-01 12:16:50.37	271.66	20.50	-29.4	-30.4	14.0	2.20e-06	0	43	0	514850816	19	4062
2026-01-01 12:16:51.37	271.91	20.51	-29.6	-31.1	13.6	2.20e-06	0	43	0	516947968	19	4246
2026-01-01 12:16:52.37	272.17	20.51	-29.8	-31.4	13.4	1.90e-05	0	43	0	517996544	19	4356
2026-01-01 12:16:53.37	272.42	20.52	-29.9	-31.9	13.1	3.43e-05	0	43	0	520093696	19	4500
2026-01-01 12:16:54.37	272.68	20.52	-29.9	-32.0	13.0	3.89e-05	0	43	0	522190848	19	4535
2026-01-01 12:16:55.37	272.93	20.52	-29.9	-31.7	13.2	2.97e-05	0	43	0	524288000	19	4466
2026-01-01 12:16:56.38	273.19	20.53	-29.8	-31.7	13.2	2.67e-05	0	43	0	526385152	19	4458
2026-01-01 12:16:57.38	273.44	20.53	-30.1	-31.9	12.6	3.89e-05	0	43	0	527433728	20	4455
2026-01-01 12:16:58.38	273.70	20.53	-30.1	-32.0	12.5	1.27e-04	0	43	0	529530880	20	4481
2026-01-01 12:16:59.37	273.95	20.53	-30.0	-31.6	12.8	7.85e-05	0	43	0	531628032	20	4348
2026-01-01 12:17:00.37	274.20	20.53	-30.0	-31.8	12.8	9.30e-05	0	43	0	533725184	20	4385
2026-01-01 12:17:01.37	274.46	20.53	-29.9	-31.4	13.0	5.87e-05	0	43	0	534773760	20	4277
2026-01-01 12:17:02.38	274.72	20.53	-29.9	-31.4	13.0	3.28e-05	0	43	0	536870912	20	4259
2026-01-01 12:17:03.38	274.97	20.52	-29.9	-31.4	13.0	5.34e-05	0	43	0	538968064	20	4275
2026-01-01 12:17:04.38	275.22	20.52	-29.9	-31.3	13.0	2.28e-05	0	43	0	541065216	20	4240
2026-01-01 12:17:05.38	275.48	20.52	-30.0	-31.7	12.8	3.58e-05	0	43	0	543162368	20	4383
2026-01-01 12:17:06.38	275.73	20.52	-30.1	-31.9	12.7	1.36e-04	0	43	0	544210944	20	4427
2026-01-01 12:17:07.38	275.99	20.51	-30.0	-31.6	12.8	6.40e-05	0	43	0	546308096	20	4331
2026-01-01 12:17:08.38	276.24	20.51	-29.8	-31.1	13.2	2.74e-05	0	43	0	548405248	20	4179
2026-01-01 12:17:09.38	276.50	20.50	-29.7	-30.8	13.4	9.10e-06	0	43	0	550502400	20	4079
2026-01-01 12:17:10.38	276.75	20.50	-29.5	-30.4	13.6	6.10e-06	0	43	0	552599552	20	3965
2026-01-01 12:17:11.38	277.01	20.49	-29.6	-30.5	13.6	1.06e-05	0	43	0	553648128	20	3990
2026-01-01 12:17:12.39	277.26	20.48	-29.7	-31.0	13.3	1.67e-05	0	43	0	555745280	20	4138
2026-01-01 12:17:13.39	277.52	20.48	-29.9	-31.5	12.9	4.19e-05	0	43	0	557842432	20	4295
2026-01-01 12:17:14.39	277.77	20.47	-30.1	-31.9	12.7	5.18e-05	0	43	0	559939584	20	4439
2026-01-01 12:17:15.39	278.02	20.46	-30.0	-31.6	12.9	6.10e-05	0	43	0	562036736	20	4320
2026-01-01 12:17:16.40	278.28	20.45	-29.9	-31.3	13.0	2.82e-05	0	43	0	563085312	20	4241
2026-01-01 12:17:17.40	278.53	20.44	-29.7	-30.9	13.3	2.28e-05	0	43	0	565182464	20	4128
2026-01-01 12:17:18.40	278.78	20.43	-29.9	-31.3	13.1	1.44e-05	0	43	0	567279616	20	4236
2026-01-01 12:17:19.41	279.04	20.42	-30.0	-31.7	12.8	6.40e-05	0	43	0	569376768	20	4376
2026-01-01 12:17:20.41	279.29	20.41	-30.0	-31.6	12.8	6.02e-05	0	43	0	571473920	20	4348
2026-01-01 12:17:21.41	279.55	20.40	-30.0	-31.6	12.8	7.93e-05	0	43	0	572522496	20	4346
2026-01-01 12:17:22.42	279.80	20.38	-30.0	-31.6	12.8	5.72e-05	0	43	0	574619648	20	4329
2026-01-01 12:17:23.42	280.05	20.37	-29.8	-31.2	13.1	3.35e-05	0	43	0	576716800	20	4215
2026-01-01 12:17:24.42	280.30	20.36	-29.8	-31.0	13.2	1.90e-05	0	43	0	578813952	20	4166
2026-01-01 12:17:25.42	280.56	20.34	-29.8	-31.0	13.2	2.13e-05	0	43	0	579862528	20	4156
2026-01-01 12:17:26.42	280.81	20.33	-29.8	-31.0	13.2	3.35e-05	0	43	0	581959680	20	4145
2026-01-01 12:17:27.43	281.06	20.31	-29.6	-30.4	13.6	8.30e-06	0	43	0	584056832	20	3988
2026-01-01 12:17:28.44	281.31	20.30	-29.5	-30.3	13.7	7.60e-06	0	43	0	586153984	20	3932
2026-01-01 12:17:29.44	281.57	20.28	-29.6	-30.5	13.7	3.80e-06	0	43	0	588251136	20	3989
2026-01-01 12:17:30.44	281.82	20.26	-29.8	-31.1	13.2	1.98e-05	0	43	0	589299712	20	4180
2026-01-01 12:17:31.45	282.07	20.25	-29.8	-31.2	13.1	1.90e-05	0	43	0	591396864	20	4219
2026-01-01 12:17:32.45	282.32	20.23	-30.0	-31.6	12.8	4.04e-05	0	43	0	593494016	20	4342
2026-01-01 12:17:33.46	282.57	20.21	-30.1	-32.0	12.6	8.85e-05	0	43	0	595591168	20	4475
2026-01-01 12:17:34.46	282.82	20.19	-30.2	-32.2	12.4	1.40e-04	0	43	0	597688320	20	4527
2026-01-01 12:17:35.46	283.07	20.17	-30.0	-31.6	12.8	8.85e-05	0	43	0	598736896	20	4345
2026-01-01 12:17:36.46	283.32	20.15	-29.8	-31.2	13.1	4.04e-05	0	43	0	600834048	20	4210
2026-01-01 12:17:37.47	283.57	20.13	-29.8	-31.0	13.2	2.13e-05	0	43	0	602931200	20	4153
2026-01-01 12:17:38.48	283.82	20.11	-29.7	-30.7	13.4	1.29e-05	0	43	0	605028352	20	4046
2026-01-01 12:17:39.48	284.07	20.09	-29.6	-30.5	13.6	5.30e-06	0	43	0	607125504	20	3995
2026-01-01 12:17:40.48	284.31	20.07	-29.6	-30.6	13.4	6.80e-06	0	43	0	608174080	20	4022
2026-01-01 12:17:41.48	284.56	20.05	-29.7	-30.8	13.4	1.44e-05	0	43	0	610271232	20	4079
2026-01-01 12:17:42.48	284.81	20.02	-29.6	-30.6	13.5	5.30e-06	0	43	0	612368384	20	4034
2026-01-01 12:17:43.48	285.05	20.00	-29.8	-31.1	13.1	3.35e-05	0	43	0	614465536	20	4192
2026-01-01 12:17:44.49	285.30	19.98	-29.7	-30.8	13.4	2.74e-05	0	43	0	616562688	20	4080
2026-01-01 12:17:45.49	285.55	19.95	-29.7	-30.9	13.3	1.29e-05	0	43	0	617611264	20	4123
2026-01-01 12:17:46.49	285.79	19.93	-29.7	-30.9	13.3	1.83e-05	0	43	0	619708416	20	4114
2026-01-01 12:17:47.49	286.04	19.90	-29.7	-30.9	13.3	1.37e-05	0	43	0	621805568	20	4122
2026-01-01 12:17:48.49	286.28	19.88	-29.7	-30.9	13.3	2.28e-05	0	43	0	623902720	20	4119
2026-01-01 12:17:49.50	286.53	19.85	-29.4	-30.1	13.7	1.22e-05	0	43	0	625999872	20	3898
2026-01-01 12:17:50.50	286.77	19.82	-29.5	-30.4	13.6	8.30e-06	0	43	0	627048448	20	3990
2026-01-01 12:17:51.51	287.02	19.79	-29.6	-30.7	13.4	1.60e-05	0	43	0	629145600	20	4068
2026-01-01 12:17:52.51	287.26	19.77	-29.7	-30.8	13.3	1.60e-05	0	43	0	631242752	20	4094
2026-01-01 12:17:53.50	287.50	19.74	-29.7	-30.9	13.3	2.05e-05	0	43	0	633339904	20	4138
2026-01-01 12:17:54.50	287.74	19.71	-29.8	-31.1	13.2	2.74e-05	0	43	0	635437056	20	4174
2026-01-01 12:17:55.50	287.98	19.68	-29.6	-30.6	13.4	1.75e-05	0	43	0	636485632	20	4038
2026-01-01 12:17:56.51	288.22	19.65	-29.7	-30.7	13.4	6.80e-06	0	43	0	638582784	20	4075
2026-01-01 12:17:57.51	288.46	19.62	-29.8	-31.1	13.1	2.28e-05	0	43	0	640679936	20	4180
2026-01-01 12:17:58.52	288.71	19.59	-29.9	-31.4	13.0	2.05e-05	0	43	0	642777088	20	4270
2026-01-01 12:17:59.51	288.94	19.56	-30.1	-32.0	12.6	8.62e-05	0	43	0	643825664	20	4469
2026-01-01 12:18:00.52	289.18	19.53	-30.2	-32.2	12.4	1.31e-04	0	43	0	645922816	20	4561
2026-01-01 12:18:01.52	289.42	19.50	-30.2	-32.3	12.3	2.23e-04	0	43	0	648019968	20	4596
2026-01-01 12:18:02.53	289.66	19.46	-30.0	-31.8	12.6	1.20e-04	0	43	0	650117120	20	4423
2026-01-01 12:18:03.53	289.90	19.43	-29.8	-31.3	13.0	3.73e-05	0	43	0	652214272	20	4261
2026-01-01 12:18:04.54	290.14	19.40	-29.6	-30.7	13.3	2.59e-05	0	43	0	653262848	20	4070
2026-01-01 12:18:05.53	290.37	19.36	-29.5	-30.4	13.6	1.52e-05	0	43	0	655360000	20	3980
2026-01-01 12:18:06.54	290.61	19.33	-29.4	-30.1	13.7	9.90e-06	0	43	0	657457152	20	3916
2026-01-01 12:18:07.55	290.85	19.29	-29.4	-30.1	13.7	6.80e-06	0	43	0	659554304	20	3904
2026-01-01 12:18:08.55	291.08	19.26	-29.5	-30.5	13.5	1.22e-05	0	43	0	661651456	20	4022
2026-01-01 12:18:09.56	291.32	19.22	-29.7	-30.8	13.3	1.67e-05	0	43	0	662700032	20	4120
2026-01-01 12:18:10.56	291.55	19.19	-29.7	-31.0	13.2	2.05e-05	0	43	0	664797184	20	4167
2026-01-01 12:18:11.56	291.79	19.15	-29.7	-30.8	13.3	1.52e-05	0	43	0	666894336	20	4095
2026-01-01 12:18:12.56	292.02	19.11	-29.6	-30.7	13.4	1.67e-05	0	43	0	668991488	20	4070
2026-01-01 12:18:13.57	292.25	19.08	-29.7	-30.9	13.2	1.75e-05	0	43	0	671088640	20	4143
2026-01-01 12:18:14.57	292.49	19.04	-29.9	-31.5	12.8	5.18e-05	0	43	0	672137216	20	4307
2026-01-01 12:18:15.58	292.72	19.00	-29.9	-31.4	12.9	1.10e-04	0	43	0	674234368	20	4276
2026-01-01 12:18:16.58	292.95	18.96	-29.9	-31.6	12.8	8.92e-05	0	43	0	676331520	20	4344
2026-01-01 12:18:17.58	293.18	18.92	-29.8	-31.1	13.0	5.87e-05	0	43	0	678428672	20	4212
2026-01-01 12:18:18.58	293.41	18.89	-29.8	-31.3	12.9	3.28e-05	0	43	0	680525824	20	4280
2026-01-01 12:18:19.58	293.64	18.85	-29.8	-31.3	12.9	4.19e-05	0	43	0	681574400	20	4260
2026-01-01 12:18:20.58	293.86	18.81	-29.8	-31.3	12.9	4.42e-05	0	43	0	683671552	20	4273
2026-01-01 12:18:21.59	294.09	18.77	-29.9	-31.6	12.7	7.78e-05	0	43	0	685768704	20	4360
2026-01-01 12:18:22.60	294.32	18.72	-29.9	-31.4	12.9	1.41e-04	0	43	0	687865856	20	4302
2026-01-01 12:18:23.60	294.55	18.68	-29.5	-30.4	13.5	2.67e-05	0	43	0	689963008	20	3979
2026-01-01 12:18:24.60	294.78	18.64	-29.3	-30.3	14.0	5.30e-06	0	43	0	691011584	19	4038
2026-01-01 12:18:25.61	295.00	18.60	-29.4	-30.5	13.9	3.80e-06	0	43	0	693108736	19	4097
2026-01-01 12:18:26.61	295.23	18.56	-29.4	-30.6	13.8	8.30e-06	0	43	0	695205888	19	4114
2026-01-01 12:18:27.61	295.45	18.52	-29.4	-30.5	13.9	3.80e-06	0	43	0	697303040	19	4094
2026-01-01 12:18:28.61	295.67	18.47	-29.4	-30.5	13.9	3.80e-06	0	43	0	698351616	19	4104
2026-01-01 12:18:29.60	295.89	18.43	-29.4	-30.5	13.8	1.50e-06	0	43	0	700448768	19	4105
2026-01-01 12:18:30.61	296.12	18.39	-29.4	-30.5	13.8	6.80e-06	0	43	0	702545920	19	4100
2026-01-01 12:18:31.61	296.34	18.34	-29.3	-30.2	13.9	3.80e-06	0	43	0	704643072	19	4022
2026-01-01 12:18:32.62	296.56	18.30	-29.3	-30.3	13.9	4.50e-06	0	43	0	706740224	19	4054
2026-01-01 12:18:33.62	296.78	18.26	-29.5	-30.9	13.6	1.29e-05	0	43	0	707788800	19	4218
2026-01-01 12:18:34.62	297.00	18.21	-29.7	-31.3	13.3	1.60e-05	0	43	0	709885952	19	4335
2026-01-01 12:18:35.62	297.22	18.17	-29.8	-31.6	13.1	2.05e-05	0	43	0	711983104	19	4460
2026-01-01 12:18:36.63	297.44	18.12	-29.8	-31.7	13.1	5.03e-05	0	43	0	714080256	19	4464
2026-01-01 12:18:37.63	297.66	18.07	-29.7	-31.4	13.3	1.90e-05	0	43	0	716177408	19	4384
2026-01-01 12:18:38.64	297.88	18.03	-29.5	-30.9	13.5	6.10e-06	0	43	0	717225984	19	4231
2026-01-01 12:18:39.64	298.09	17.98	-29.5	-30.9	13.6	1.29e-05	0	43	0	719323136	19	4224
2026-01-01 12:18:40.64	298.31	17.94	-29.5	-30.8	13.7	6.80e-06	0	43	0	721420288	19	4176
2026-01-01 12:18:41.64	298.52	17.89	-29.5	-30.9	13.6	4.50e-06	0	43	0	723517440	19	4232
2026-01-01 12:18:42.64	298.74	17.84	-29.5	-30.8	13.6	1.52e-05	0	43	0	725614592	19	4203
2026-01-01 12:18:43.65	298.95	17.79	-29.5	-30.8	13.7	8.30e-06	0	43	0	726663168	19	4169
2026-01-01 12:18:44.65	299.17	17.75	-29.4	-30.7	13.8	5.30e-06	0	43	0	728760320	19	4141
2026-01-01 12:18:45.65	299.38	17.70	-29.5	-30.7	13.7	7.60e-06	0	43	0	730857472	19	4171
2026-01-01 12:18:46.65	299.59	17.65	-29.4	-30.6	13.8	6.10e-06	0	43	0	732954624	19	4114
2026-01-01 12:18:47.66	299.80	17.60	-29.5	-30.8	13.6	1.14e-05	0	43	0	735051776	19	4189
2026-01-01 12:18:48.66	300.01	17.55	-29.7	-31.3	13.3	1.44e-05	0	43	0	736100352	19	4325
2026-01-01 12:18:49.66	300.22	17.50	-29.9	-32.0	12.9	4.19e-05	0	43	0	738197504	19	4567
2026-01-01 12:18:50.67	300.44	17.45	-29.9	-31.6	12.8	7.62e-05	0	43	0	740294656	20	4343
2026-01-01 12:18:51.67	300.64	17.40	-30.2	-32.3	12.2	1.62e-04	0	43	0	742391808	20	4589
2026-01-01 12:18:52.67	300.85	17.35	-30.0	-31.8	12.5	1.66e-04	0	43	0	743440384	20	4411
2026-01-01 12:18:53.67	301.06	17.30	-29.9	-31.5	12.8	7.09e-05	0	43	0	745537536	20	4307
2026-01-01 12:18:54.68	301.27	17.25	-29.9	-31.4	12.8	3.89e-05	0	43	0	747634688	20	4284
2026-01-01 12:18:55.67	301.47	17.20	-29.9	-31.4	12.8	4.57e-05	0	43	0	749731840	20	4282
2026-01-01 12:18:56.68	301.68	17.15	-30.0	-31.8	12.6	9.00e-05	0	43	0	751828992	20	4411
2026-01-01 12:18:57.68	301.88	17.10	-29.9	-31.6	12.6	7.47e-05	0	43	0	752877568	20	4367
2026-01-01 12:18:58.68	302.08	17.05	-29.9	-31.6	12.7	8.39e-05	0	43	0	754974720	20	4346
2026-01-01 12:18:59.69	302.29	17.00	-29.9	-31.5	12.8	8.01e-05	0	43	0	757071872	20	4330
2026-01-01 12:19:00.69	302.49	16.94	-29.8	-31.3	12.9	6.10e-05	0	43	0	759169024	20	4251
2026-01-01 12:19:01.69	302.69	16.89	-29.9	-31.5	12.8	3.05e-05	0	43	0	761266176	20	4318
2026-01-01 12:19:02.70	302.90	16.84	-29.7	-31.0	13.1	3.35e-05	0	43	0	762314752	20	4150
2026-01-01 12:19:03.70	303.10	16.79	-29.7	-30.8	13.2	1.67e-05	0	43	0	764411904	20	4107
2026-01-01 12:19:04.70	303.30	16.73	-29.6	-30.8	13.2	3.12e-05	0	43	0	766509056	20	4101
2026-01-01 12:19:05.70	303.49	16.68	-29.8	-31.2	12.9	4.95e-05	0	43	0	768606208	20	4243
2026-01-01 12:19:06.71	303.69	16.63	-30.0	-31.6	12.7	5.87e-05	0	43	0	770703360	20	4371
2026-01-01 12:19:07.71	303.89	16.57	-30.1	-32.1	12.3	9.15e-05	0	43	0	771751936	20	4539
2026-01-01 12:19:08.71	304.09	16.52	-30.2	-32.5	12.0	2.04e-04	0	43	0	773849088	20	4652
2026-01-01 12:19:09.70	304.28	16.47	-30.4	-32.9	11.8	3.54e-04	0	43	0	775946240	20	4803
2026-01-01 12:19:10.70	304.48	16.41	-30.3	-32.8	11.9	6.16e-04	0	43	0	778043392	20	4775
2026-01-01 12:19:11.71	304.67	16.36	-30.6	-33.1	11.3	6.86e-04	0	43	0	780140544	21	4794
2026-01-01 12:19:12.71	304.87	16.31	-30.6	-33.2	11.2	1.17e-03	0	43	0	781189120	21	4844
2026-01-01 12:19:13.71	305.06	16.25	-30.7	-33.4	11.0	1.59e-03	0	43	0	783286272	21	4915
2026-01-01 12:19:14.71	305.25	16.20	-30.5	-32.9	11.4	1.06e-03	0	43	0	785383424	21	4715
2026-01-01 12:19:15.71	305.45	16.14	-30.4	-32.4	11.7	5.48e-04	0	43	0	787480576	21	4548
2026-01-01 12:19:16.71	305.64	16.09	-30.3	-32.1	12.0	4.33e-04	0	43	0	788529152	21	4446
2026-01-01 12:19:17.71	305.83	16.03	-30.2	-31.9	12.1	3.00e-04	0	43	0	790626304	21	4360
2026-01-01 12:19:18.72	306.02	15.98	-30.0	-31.3	12.5	1.30e-04	0	43	0	792723456	21	4192
2026-01-01 12:19:19.72	306.21	15.92	-30.0	-31.2	12.6	1.25e-04	0	43	0	794820608	21	4142
2026-01-01 12:19:20.72	306.40	15.86	-29.9	-31.0	12.7	6.71e-05	0	43	0	796917760	21	4093
2026-01-01 12:19:21.72	306.58	15.81	-30.0	-31.3	12.5	7.85e-05	0	43	0	797966336	21	4171
2026-01-01 12:19:22.73	306.77	15.75	-29.8	-30.7	12.9	6.79e-05	0	43	0	800063488	21	3994
2026-01-01 12:19:23.73	306.96	15.70	-29.8	-31.2	12.9	3.73e-05	0	43	0	802160640	20	4230
2026-01-01 12:19:24.73	307.15	15.64	-29.9	-31.4	12.8	2.67e-05	0	43	0	804257792	20	4307
2026-01-01 12:19:25.74	307.33	15.58	-30.1	-32.2	12.2	1.56e-04	0	43	0	806354944	20	4563
2026-01-01 12:19:26.74	307.52	15.53	-30.3	-32.8	11.8	4.21e-04	0	43	0	807403520	20	4773
2026-01-01 12:19:27.74	307.70	15.47	-30.5	-32.7	11.5	6.74e-04	0	43	0	809500672	21	4654
2026-01-01 12:19:28.75	307.88	15.41	-30.8	-33.7	10.8	1.94e-03	0	43	0	811597824	21	5018
2026-01-01 12:19:29.76	308.07	15.35	-30.7	-33.6	10.9	2.34e-03	0	43	0	813694976	21	4993
2026-01-01 12:19:30.76	308.25	15.30	-30.6	-33.2	11.2	1.67e-03	0	43	0	815792128	21	4824
2026-01-01 12:19:31.77	308.43	15.24	-30.6	-33.3	11.1	1.32e-03	0	43	0	816840704	21	4860
2026-01-01 12:19:32.77	308.61	15.18	-30.4	-32.6	11.6	8.52e-04	0	43	0	818937856	21	4605
2026-01-01 12:19:33.78	308.79	15.12	-30.2	-31.9	12.1	5.16e-04	0	43	0	821035008	21	4359
2026-01-01 12:19:34.77	308.97	15.07	-30.1	-31.7	12.2	3.68e-04	0	43	0	823132160	21	4323
2026-01-01 12:19:35.78	309.15	15.01	-30.1	-31.7	12.2	2.06e-04	0	43	0	825229312	21	4328
2026-01-01 12:19:36.78	309.33	14.95	-30.3	-32.2	11.9	3.32e-04	0	43	0	826277888	21	4483
2026-01-01 12:19:37.78	309.51	14.89	-30.2	-31.9	12.0	4.82e-04	0	43	0	828375040	21	4379
2026-01-01 12:19:38.78	309.68	14.83	-30.2	-31.8	12.1	4.29e-04	0	43	0	830472192	21	4360
2026-01-01 12:19:39.77	309.86	14.78	-30.1	-31.5	12.3	2.17e-04	0	43	0	832569344	21	4248
2026-01-01 12:19:40.77	310.03	14.72	-30.1	-31.6	12.3	1.90e-04	0	43	0	833617920	21	4273
2026-01-01 12:19:41.77	310.20	14.66	-29.9	-30.9	12.7	1.65e-04	0	43	0	835715072	21	4060
2026-01-01 12:19:42.77	310.38	14.60	-29.8	-31.1	12.9	5.18e-05	0	43	0	837812224	20	4206
2026-01-01 12:19:43.78	310.55	14.54	-29.9	-31.4	12.7	5.49e-05	0	43	0	839909376	20	4291
2026-01-01 12:19:44.79	310.73	14.48	-29.7	-31.0	12.9	7.01e-05	0	43	0	842006528	20	4176
2026-01-01 12:19:45.79	310.90	14.42	-29.9	-31.5	12.6	8.46e-05	0	43	0	844103680	20	4326
2026-01-01 12:19:46.79	311.07	14.36	-30.0	-31.9	12.4	9.38e-05	0	43	0	845152256	20	4459
2026-01-01 12:19:47.79	311.24	14.31	-30.1	-32.1	12.3	1.21e-04	0	43	0	847249408	20	4526
2026-01-01 12:19:48.80	311.41	14.25	-30.1	-32.2	12.2	2.17e-04	0	43	0	849346560	20	4557
2026-01-01 12:19:49.80	311.58	14.19	-30.1	-32.1	12.2	2.26e-04	0	43	0	851443712	20	4548
2026-01-01 12:19:50.80	311.75	14.13	-30.1	-32.1	12.2	2.32e-04	0	43	0	852492288	20	4550
2026-01-01 12:19:51.80	311.92	14.07	-30.0	-31.9	12.3	2.55e-04	0	43	0	854589440	20	4474
2026-01-01 12:19:52.80	312.08	14.01	-29.9	-31.6	12.5	1.56e-04	0	43	0	856686592	20	4383
2026-01-01 12:19:53.81	312.25	13.95	-30.1	-32.1	12.2	1.86e-04	0	43	0	858783744	20	4551
2026-01-01 12:19:54.81	312.42	13.89	-30.0	-32.0	12.3	2.18e-04	0	43	0	860880896	20	4497
2026-01-01 12:19:55.82	312.58	13.83	-30.0	-31.9	12.3	1.24e-04	0	43	0	861929472	20	4459
2026-01-01 12:19:56.82	312.75	13.77	-30.0	-31.8	12.4	1.67e-04	0	43	0	864026624	20	4433
2026-01-01 12:19:57.83	312.91	13.71	-30.0	-31.8	12.4	1.67e-04	0	43	0	866123776	20	4442
2026-01-01 12:19:58.83	313.07	13.65	-30.2	-32.4	12.0	2.44e-04	0	43	0	868220928	20	4628
2026-01-01 12:19:59.83	313.24	13.59	-30.1	-32.0	12.2	2.96e-04	0	43	0	870318080	20	4527
2026-01-01 12:20:00.83	313.40	13.53	-29.9	-31.5	12.6	1.78e-04	0	43	0	871366656	20	4353
2026-01-01 12:20:01.84	313.56	13.47	-29.9	-31.5	12.6	1.33e-04	0	43	0	873463808	20	4330
2026-01-01 12:20:02.84	313.72	13.41	-30.0	-31.8	12.3	1.27e-04	0	43	0	875560960	20	4451
2026-01-01 12:20:03.84	313.88	13.35	-30.0	-31.8	12.4	1.11e-04	0	43	0	877658112	20	4435
2026-01-01 12:20:04.85	314.04	13.29	-30.0	-32.0	12.3	1.44e-04	0	43	0	879755264	20	4500
2026-01-01 12:20:05.85	314.20	13.23	-30.0	-32.0	12.2	1.75e-04	0	43	0	880803840	20	4498
2026-01-01 12:20:06.85	314.36	13.17	-30.1	-32.2	12.1	2.61e-04	0	43	0	882900992	20	4566
2026-01-01 12:20:07.86	314.52	13.11	-30.2	-32.5	11.9	3.12e-04	0	43	0	884998144	20	4677
2026-01-01 12:20:08.86	314.67	13.05	-30.1	-32.2	12.1	4.29e-04	0	43	0	887095296	20	4573
2026-01-01 12:20:09.87	314.83	12.99	-29.8	-31.4	12.6	1.56e-04	0	43	0	889192448	20	4307
2026-01-01 12:20:10.87	314.99	12.92	-29.8	-31.3	12.7	8.46e-05	0	43	0	890241024	20	4283
2026-01-01 12:20:11.88	315.14	12.86	-29.6	-30.7	13.1	5.72e-05	0	43	0	892338176	20	4091
2026-01-01 12:20:12.87	315.30	12.80	-29.5	-30.4	13.3	1.67e-05	0	43	0	894435328	20	3995
2026-01-01 12:20:13.88	315.45	12.74	-29.6	-30.7	13.1	3.28e-05	0	43	0	896532480	20	4094
2026-01-01 12:20:14.88	315.60	12.68	-29.3	-29.9	13.6	1.29e-05	0	43	0	897581056	20	3862
2026-01-01 12:20:15.87	315.76	12.62	-29.3	-30.3	13.7	5.30e-06	0	43	0	899678208	19	4058
2026-01-01 12:20:16.88	315.91	12.56	-29.3	-30.5	13.6	1.29e-05	0	43	0	901775360	19	4112
2026-01-01 12:20:17.89	316.06	12.50	-29.3	-30.4	13.6	7.60e-06	0	43	0	903872512	19	4097
2026-01-01 12:20:18.89	316.21	12.44	-29.6	-31.1	13.2	1.14e-05	0	43	0	905969664	19	4309
2026-01-01 12:20:19.90	316.36	12.38	-29.7	-31.4	13.0	2.36e-05	0	43	0	907018240	19	4408
2026-01-01 12:20:20.90	316.51	12.32	-29.9	-31.9	12.6	3.66e-05	0	43	0	909115392	19	4559
2026-01-01 12:20:21.91	316.66	12.26	-30.1	-32.0	12.2	1.11e-04	0	43	0	911212544	20	4521
2026-01-01 12:20:22.91	316.81	12.20	-30.0	-32.0	12.2	2.02e-04	0	44	0	913309696	20	4503
2026-01-01 12:20:23.92	316.96	12.13	-29.9	-31.7	12.4	1.46e-04	0	43	0	915406848	20	4407
2026-01-01 12:20:24.92	317.11	12.07	-29.8	-31.4	12.5	1.45e-04	0	43	0	916455424	20	4326
2026-01-01 12:20:25.93	317.26	12.01	-29.8	-31.3	12.6	9.76e-05	0	43	0	918552576	20	4284
2026-01-01 12:20:26.93	317.40	11.95	-29.8	-31.3	12.6	7.47e-05	0	43	0	920649728	20	4297
2026-01-01 12:20:27.94	317.55	11.89	-29.7	-31.0	12.9	9.99e-05	0	43	0	922746880	20	4196
2026-01-01 12:20:28.94	317.69	11.83	-29.8	-31.2	12.7	5.95e-05	0	43	0	924844032	20	4249
2026-01-01 12:20:29.94	317.84	11.77	-29.6	-30.8	13.0	6.48e-05	0	43	0	925892608	20	4116
2026-01-01 12:20:30.94	317.98	11.71	-29.6	-30.8	12.9	4.88e-05	0	43	0	927989760	20	4138
2026-01-01 12:20:31.95	318.12	11.65	-29.7	-30.9	12.8	4.19e-05	0	43	0	930086912	20	4172
2026-01-01 12:20:32.95	318.27	11.58	-29.7	-31.2	12.7	9.53e-05	0	43	0	932184064	20	4249
2026-01-01 12:20:33.96	318.41	11.52	-29.8	-31.3	12.6	1.05e-04	0	43	0	934281216	20	4284
2026-01-01 12:20:34.97	318.55	11.46	-29.8	-31.5	12.5	1.16e-04	0	43	0	935329792	20	4349
2026-01-01 12:20:35.97	318.69	11.40	-29.9	-31.5	12.5	1.33e-04	0	43	0	937426944	20	4354
2026-01-01 12:20:36.97	318.83	11.34	-29.9	-31.5	12.4	1.27e-04	0	43	0	939524096	20	4363
2026-01-01 12:20:37.97	318.97	11.28	-29.8	-31.2	12.6	1.01e-04	0	43	0	941621248	20	4262
2026-01-01 12:20:38.98	319.11	11.22	-29.7	-30.9	12.8	4.88e-05	0	43	0	943718400	20	4171
2026-01-01 12:20:39.98	319.25	11.16	-29.5	-30.7	13.0	2.97e-05	0	43	0	944766976	20	4093
2026-01-01 12:20:40.98	319.39	11.10	-29.6	-30.8	12.9	3.96e-05	0	43	0	946864128	20	4144
2026-01-01 12:20:41.98	319.53	11.04	-29.6	-30.9	12.9	5.26e-05	0	43	0	948961280	20	4154
2026-01-01 12:20:42.98	319.66	10.97	-29.7	-31.2	12.6	6.02e-05	0	43	0	951058432	20	4257
2026-01-01 12:20:43.99	319.80	10.91	-29.8	-31.5	12.4	1.08e-04	0	43	0	953155584	20	4349
2026-01-01 12:20:44.99	319.94	10.85	-30.1	-32.4	11.8	2.55e-04	0	43	0	954204160	20	4657
2026-01-01 12:20:45.99	320.07	10.79	-30.2	-32.6	11.6	4.42e-04	0	43	0	956301312	20	4740
2026-01-01 12:20:47.00	320.21	10.73	-30.4	-33.3	11.1	8.54e-04	0	43	0	958398464	20	5001
2026-01-01 12:20:48.00	320.34	10.67	-30.4	-33.1	11.3	1.06e-03	0	43	0	960495616	20	4922
2026-01-01 12:20:49.00	320.47	10.61	-30.3	-32.8	11.5	1.16e-03	0	43	0	962592768	20	4829
2026-01-01 12:20:50.01	320.61	10.55	-30.4	-33.1	11.3	1.37e-03	0	43	0	963641344	20	4933
2026-01-01 12:20:51.01	320.74	10.49	-30.2	-32.7	11.5	1.08e-03	0	43	0	965738496	20	4774
2026-01-01 12:20:52.02	320.87	10.43	-30.2	-32.7	11.5	9.58e-04	0	43	0	967835648	20	4797
2026-01-01 12:20:53.03	321.01	10.36	-30.3	-32.8	11.5	7.33e-04	0	43	0	969932800	20	4808
2026-01-01 12:20:54.03	321.14	10.30	-30.2	-32.6	11.6	7.03e-04	0	43	0	970981376	20	4754
2026-01-01 12:20:55.03	321.27	10.24	-30.1	-32.4	11.7	4.68e-04	0	43	0	973078528	20	4674
2026-01-01 12:20:56.04	321.40	10.18	-30.1	-32.5	11.7	5.21e-04	0	43	0	975175680	20	4700
2026-01-01 12:20:57.04	321.53	10.12	-30.3	-32.8	11.4	8.49e-04	0	43	0	977272832	20	4831
2026-01-01 12:20:58.05	321.66	10.06	-30.2	-32.8	11.5	7.96e-04	0	43	0	979369984	20	4808
2026-01-01 12:20:59.05	321.79	10.00	-30.2	-32.7	11.5	8.00e-04	0	43	0	980418560	20	4776
2026-01-01 12:21:00.05	321.91	9.94	-30.2	-32.7	11.5	7.32e-04	0	43	0	982515712	20	4797
2026-01-01 12:21:01.05	322.04	9.88	-30.2	-32.7	11.5	8.46e-04	0	43	0	984612864	20	4784
2026-01-01 12:21:02.06	322.17	9.82	-30.3	-32.8	11.4	7.94e-04	0	43	0	986710016	20	4822
2026-01-01 12:21:03.06	322.29	9.76	-30.1	-32.4	11.7	6.03e-04	0	43	0	988807168	20	4676
2026-01-01 12:21:04.06	322.42	9.70	-30.1	-32.3	11.8	5.86e-04	0	43	0	989855744	20	4636
2026-01-01 12:21:05.07	322.55	9.64	-30.1	-32.2	11.8	4.65e-04	0	43	0	991952896	20	4619
2026-01-01 12:21:06.07	322.67	9.58	-30.0	-31.9	12.0	4.13e-04	0	43	0	994050048	20	4508
2026-01-01 12:21:07.07	322.80	9.52	-30.0	-32.1	11.9	3.13e-04	0	43	0	996147200	20	4575
2026-01-01 12:21:08.08	322.92	9.45	-30.0	-32.2	11.8	3.75e-04	0	43	0	998244352	20	4603
2026-01-01 12:21:09.08	323.04	9.39	-30.2	-32.6	11.5	5.30e-04	0	43	0	999292928	20	4760
2026-01-01 12:21:10.08	323.17	9.33	-30.2	-32.7	11.4	8.76e-04	0	43	0	1001390080	20	4812
2026-01-01 12:21:11.09	323.29	9.27	-30.3	-33.0	11.3	1.23e-03	0	43	0	1003487232	20	4900
2026-01-01 12:21:12.09	323.41	9.21	-30.3	-33.0	11.2	1.22e-03	0	43	0	1005584384	20	4923
2026-01-01 12:21:13.10	323.53	9.15	-30.4	-33.2	11.1	1.27e-03	0	43	0	1007681536	20	4996
2026-01-01 12:21:14.10	323.65	9.09	-30.2	-32.8	11.4	1.24e-03	0	43	0	1008730112	20	4838
2026-01-01 12:21:15.10	323.77	9.03	-30.2	-32.8	11.3	1.13e-03	0	43	0	1010827264	20	4859
2026-01-01 12:21:16.10	323.89	8.97	-30.1	-32.5	11.5	1.18e-03	0	43	0	1012924416	20	4718
2026-01-01 12:21:17.10	324.01	8.91	-30.1	-32.4	11.6	7.51e-04	0	43	0	1015021568	20	4686
2026-01-01 12:21:18.10	324.13	8.85	-29.9	-31.9	11.9	5.20e-04	0	43	0	1017118720	20	4519
2026-01-01 12:21:19.10	324.25	8.79	-30.0	-31.9	11.9	4.15e-04	0	43	0	1018167296	20	4526
2026-01-01 12:21:20.11	324.37	8.73	-29.8	-31.5	12.2	3.06e-04	0	43	0	1020264448	20	4387
2026-01-01 12:21:21.11	324.49	8.67	-29.8	-31.4	12.3	2.17e-04	0	43	0	1022361600	20	4348
2026-01-01 12:21:22.11	324.60	8.61	-29.8	-31.4	12.3	1.44e-04	0	43	0	1024458752	20	4350
2026-01-01 12:21:23.11	324.72	8.55	-29.8	-31.6	12.1	1.74e-04	0	43	0	1025507328	20	4410
2026-01-01 12:21:24.12	324.84	8.49	-29.9	-31.9	12.0	3.42e-04	0	43	0	1027604480	20	4510
2026-01-01 12:21:25.12	324.95	8.43	-30.1	-32.3	11.6	3.97e-04	0	43	0	1029701632	20	4682
2026-01-01 12:21:26.13	325.07	8.37	-30.0	-32.2	11.7	6.59e-04	0	43	0	1031798784	20	4627
2026-01-01 12:21:27.13	325.18	8.31	-30.2	-32.7	11.3	1.01e-03	0	43	0	1033895936	20	4821
2026-01-01 12:21:28.13	325.30	8.26	-30.2	-32.9	11.2	1.20e-03	0	43	0	1035993088	20	4909
2026-01-01 12:21:29.14	325.41	8.20	-30.4	-33.4	10.8	1.90e-03	0	44	0	1037041664	20	5076
2026-01-01 12:21:30.14	325.53	8.14	-30.3	-33.2	10.9	2.05e-03	0	43	0	1039138816	20	5019
2026-01-01 12:21:31.15	325.64	8.08	-30.3	-33.0	11.1	1.85e-03	0	43	0	1041235968	20	4947
2026-01-01 12:21:32.15	325.75	8.02	-30.3	-33.1	11.0	1.90e-03	0	43	0	1043333120	20	4970
2026-01-01 12:21:33.15	325.87	7.96	-30.3	-33.1	11.0	1.52e-03	0	43	0	1044381696	20	4962
2026-01-01 12:21:34.16	325.98	7.90	-30.1	-32.5	11.4	1.04e-03	0	43	0	1046478848	20	4759
2026-01-01 12:21:35.16	326.09	7.84	-30.0	-32.3	11.6	8.33e-04	0	43	0	1048576000	20	4669
2026-01-01 12:21:36.16	326.20	7.78	-30.0	-32.2	11.6	7.02e-04	0	43	0	1050673152	20	4640
2026-01-01 12:21:37.16	326.31	7.72	-30.1	-32.5	11.4	9.25e-04	0	43	0	1052770304	20	4756
2026-01-01 12:21:38.17	326.42	7.66	-29.8	-31.6	12.0	5.14e-04	0	43	0	1053818880	20	4429
2026-01-01 12:21:39.17	326.53	7.60	-29.8	-31.6	12.1	2.81e-04	0	43	0	1055916032	20	4412
2026-01-01 12:21:40.17	326.64	7.54	-29.9	-31.8	11.9	3.32e-04	0	43	0	1058013184	20	4491
2026-01-01 12:21:41.18	326.75	7.48	-29.9	-32.0	11.7	5.56e-04	0	43	0	1060110336	20	4571
2026-01-01 12:21:42.18	326.86	7.43	-29.9	-31.9	11.8	5.45e-04	0	43	0	1062207488	20	4530
2026-01-01 12:21:43.18	326.97	7.37	-30.0	-32.3	11.5	7.13e-04	0	43	0	1063256064	20	4688
2026-01-01 12:21:44.18	327.07	7.31	-30.1	-32.6	11.3	9.76e-04	0	43	0	1065353216	20	4795
2026-01-01 12:21:45.18	327.18	7.25	-30.3	-33.0	10.9	1.83e-03	0	43	0	1067450368	20	4967
2026-01-01 12:21:46.18	327.29	7.19	-30.3	-33.1	10.9	2.20e-03	0	43	0	1069547520	20	4999
2026-01-01 12:21:47.18	327.39	7.13	-30.4	-33.6	10.5	2.59e-03	0	43	0	1071644672	20	5204
2026-01-01 12:21:48.18	327.50	7.07	-30.4	-33.0	10.6	6.28e-03	0	43	0	1072693248	21	4854
2026-01-01 12:21:49.18	327.60	7.02	-32.8	-45.4	3.8	1.49e+00	0	43	104	1073741824	25	15340
2026-01-01 12:21:50.19	327.71	6.96	-33.2	-45.6	3.8	1.49e+00	0	43	104	1073741824	26	15062

#Closed at: 2026-01-01 12:21:51
#Recorded file [1073 MB]: D:/data/31010_260101_151215.dat