passes_logs/2026/01/01/R2M6_AANII_01/R2M6_AANII_01__20260101_085048_SUOMI_NPP_rec.log

#Pass ID: 20260101_085048_SUOMI NPP
#Satellite: SUOMI NPP
#Configuration: NPP
#almurnet v.1.7.20240730
#Start time: 2026-01-01 08:50:48

#Version: 2.2.20231116
#Station: R2M6_AANII_01
#Location: 30.233357 lon 59.946436 lat
#TLE: 1 37849U 11061A   25364.87906317  .00000195  00000+0  11345-3 0  9992
#TLE: 2 37849  98.7794 302.0592 0002571  89.2401 270.9069 14.19520347734561

#Time	Az	El	Level	Level2	SNR	BER	BlckErr	Temp	State	Recorded	gain1	gain2
2026-01-01 08:50:48.20	112.54	7.00	-31.8	-38.1	4.3	1.42e+00	0	40	0	0	25	7384
2026-01-01 08:50:49.20	112.46	7.07	-31.7	-37.6	4.5	1.38e+00	0	40	104	0	24	7101
2026-01-01 08:50:50.20	112.39	7.14	-31.7	-37.2	6.0	3.56e-01	0	41	0	0	24	6847
2026-01-01 08:50:51.21	112.31	7.21	-31.5	-36.6	6.6	2.39e-01	0	41	0	1048576	24	6408
2026-01-01 08:50:52.21	112.24	7.28	-31.5	-36.4	6.6	2.18e-01	0	41	0	3145728	24	6338
2026-01-01 08:50:53.21	112.16	7.35	-31.5	-36.6	6.5	2.24e-01	0	41	0	5242880	24	6435
2026-01-01 08:50:54.21	112.08	7.42	-31.5	-36.1	6.9	2.17e-01	0	41	0	7340032	24	6158
2026-01-01 08:50:55.21	112.01	7.49	-31.5	-35.9	7.1	1.46e-01	0	41	0	9437184	24	6028
2026-01-01 08:50:56.21	111.93	7.56	-31.5	-36.2	6.9	1.62e-01	0	41	0	10485760	24	6147
2026-01-01 08:50:57.21	111.85	7.63	-31.6	-36.4	6.7	1.62e-01	0	41	0	12582912	24	6294
2026-01-01 08:50:58.21	111.77	7.70	-31.7	-37.0	6.3	2.72e-01	0	41	0	14680064	24	6678
2026-01-01 08:50:59.22	111.69	7.77	-31.4	-35.7	7.3	1.76e-01	0	41	0	16777216	24	5904
2026-01-01 08:51:00.22	111.61	7.84	-31.2	-35.1	8.1	9.10e-02	0	41	0	17825792	23	5641
2026-01-01 08:51:01.22	111.53	7.91	-30.9	-33.9	9.1	2.98e-02	0	41	0	19922944	23	5065
2026-01-01 08:51:02.22	111.45	7.98	-30.6	-33.3	10.0	1.15e-02	0	41	0	22020096	22	4899
2026-01-01 08:51:03.23	111.37	8.05	-30.5	-32.9	10.3	5.35e-03	0	41	0	24117248	22	4752
2026-01-01 08:51:04.23	111.29	8.12	-30.4	-32.4	10.7	3.93e-03	0	41	0	26214400	22	4554
2026-01-01 08:51:05.24	111.21	8.19	-30.3	-32.6	11.0	1.83e-03	0	41	0	27262976	21	4693
2026-01-01 08:51:06.24	111.13	8.26	-30.5	-33.3	10.4	2.56e-03	0	41	0	29360128	21	4993
2026-01-01 08:51:07.24	111.05	8.33	-30.4	-33.1	10.6	4.60e-03	0	41	0	31457280	21	4906
2026-01-01 08:51:08.24	110.97	8.41	-30.4	-33.2	10.6	3.37e-03	0	41	0	33554432	21	4919
2026-01-01 08:51:09.24	110.88	8.48	-30.5	-33.4	10.4	4.68e-03	0	41	0	35651584	21	5021
2026-01-01 08:51:10.24	110.80	8.55	-30.5	-33.2	10.6	4.31e-03	0	41	0	36700160	21	4935
2026-01-01 08:51:11.24	110.72	8.62	-30.4	-33.1	10.6	3.81e-03	0	41	0	38797312	21	4888
2026-01-01 08:51:12.24	110.63	8.69	-30.6	-33.6	10.2	4.39e-03	0	41	0	40894464	21	5087
2026-01-01 08:51:13.25	110.55	8.77	-30.4	-33.1	10.7	3.27e-03	0	41	0	42991616	21	4883
2026-01-01 08:51:14.25	110.46	8.84	-30.7	-33.8	10.1	3.98e-03	0	41	0	45088768	21	5169
2026-01-01 08:51:15.25	110.38	8.91	-30.6	-33.6	10.3	5.11e-03	0	42	0	46137344	21	5092
2026-01-01 08:51:16.25	110.29	8.98	-30.7	-33.9	10.0	6.87e-03	0	41	0	48234496	21	5218
2026-01-01 08:51:17.26	110.20	9.06	-30.7	-33.8	10.2	5.68e-03	0	41	0	50331648	21	5162
2026-01-01 08:51:18.26	110.12	9.13	-30.5	-33.3	10.5	3.86e-03	0	42	0	52428800	21	4982
2026-01-01 08:51:19.27	110.03	9.21	-30.4	-33.0	10.8	3.13e-03	0	41	0	54525952	21	4838
2026-01-01 08:51:20.27	109.94	9.28	-30.5	-33.1	10.7	2.74e-03	0	41	0	55574528	21	4877
2026-01-01 08:51:21.27	109.85	9.35	-30.5	-33.1	10.8	2.57e-03	0	41	0	57671680	21	4863
2026-01-01 08:51:22.27	109.77	9.43	-30.4	-32.9	10.9	2.15e-03	0	41	0	59768832	21	4786
2026-01-01 08:51:23.27	109.68	9.50	-30.3	-32.4	11.2	1.93e-03	0	41	0	61865984	21	4617
2026-01-01 08:51:24.28	109.59	9.57	-30.3	-32.4	11.2	1.16e-03	0	42	0	62914560	21	4618
2026-01-01 08:51:25.28	109.50	9.65	-30.4	-32.8	11.0	1.82e-03	0	41	0	65011712	21	4763
2026-01-01 08:51:26.28	109.41	9.72	-30.4	-32.7	11.1	1.34e-03	0	42	0	67108864	21	4703
2026-01-01 08:51:27.28	109.32	9.80	-30.3	-32.5	11.3	1.36e-03	0	42	0	69206016	21	4628
2026-01-01 08:51:28.28	109.23	9.87	-30.4	-32.7	11.1	1.51e-03	0	41	0	71303168	21	4716
2026-01-01 08:51:29.29	109.13	9.95	-30.3	-32.6	11.2	1.63e-03	0	42	0	72351744	21	4669
2026-01-01 08:51:30.29	109.04	10.02	-30.3	-32.5	11.3	1.48e-03	0	42	0	74448896	21	4638
2026-01-01 08:51:31.30	108.95	10.10	-30.4	-32.7	11.1	2.04e-03	0	42	0	76546048	21	4719
2026-01-01 08:51:32.31	108.85	10.17	-30.3	-32.6	11.2	1.67e-03	0	42	0	78643200	21	4674
2026-01-01 08:51:33.32	108.76	10.25	-30.4	-32.7	11.1	1.24e-03	0	42	0	80740352	21	4722
2026-01-01 08:51:34.32	108.66	10.32	-30.4	-32.8	11.0	1.58e-03	0	42	0	81788928	21	4752
2026-01-01 08:51:35.33	108.57	10.40	-30.5	-33.1	10.9	2.05e-03	0	42	0	83886080	21	4847
2026-01-01 08:51:36.33	108.47	10.48	-30.5	-33.1	10.8	3.06e-03	0	42	0	85983232	21	4862
2026-01-01 08:51:37.33	108.38	10.55	-30.4	-32.7	11.1	1.71e-03	0	42	0	88080384	21	4718
2026-01-01 08:51:38.34	108.28	10.63	-30.3	-32.5	11.3	1.24e-03	0	42	0	90177536	21	4633
2026-01-01 08:51:39.34	108.18	10.71	-30.2	-32.2	11.5	1.07e-03	0	42	0	91226112	21	4538
2026-01-01 08:51:40.35	108.09	10.78	-30.3	-32.5	11.3	7.93e-04	0	42	0	93323264	21	4642
2026-01-01 08:51:41.35	107.99	10.86	-30.4	-32.7	11.2	1.04e-03	0	42	0	95420416	21	4694
2026-01-01 08:51:42.35	107.89	10.94	-30.3	-32.4	11.4	1.01e-03	0	42	0	97517568	21	4601
2026-01-01 08:51:43.35	107.79	11.01	-30.4	-32.8	11.2	1.65e-03	0	42	0	99614720	21	4728
2026-01-01 08:51:44.35	107.69	11.09	-30.4	-32.6	11.2	1.14e-03	0	42	0	100663296	21	4677
2026-01-01 08:51:45.36	107.59	11.17	-30.4	-32.8	11.2	1.29e-03	0	42	0	102760448	21	4730
2026-01-01 08:51:46.36	107.49	11.25	-30.3	-32.5	11.4	1.69e-03	0	42	0	104857600	21	4636
2026-01-01 08:51:47.36	107.39	11.32	-30.4	-32.7	11.2	1.87e-03	0	42	0	106954752	21	4712
2026-01-01 08:51:48.36	107.29	11.40	-30.4	-32.6	11.2	1.33e-03	0	42	0	109051904	21	4673
2026-01-01 08:51:49.37	107.19	11.48	-30.4	-32.8	11.1	1.03e-03	0	42	0	110100480	21	4745
2026-01-01 08:51:50.37	107.08	11.56	-30.4	-32.7	11.3	1.06e-03	0	42	0	112197632	21	4686
2026-01-01 08:51:51.37	106.98	11.64	-30.4	-32.5	11.3	1.24e-03	0	42	0	114294784	21	4635
2026-01-01 08:51:52.37	106.88	11.71	-30.4	-32.6	11.3	1.26e-03	0	42	0	116391936	21	4673
2026-01-01 08:51:53.37	106.77	11.79	-30.3	-32.5	11.4	1.09e-03	0	42	0	118489088	21	4640
2026-01-01 08:51:54.38	106.67	11.87	-30.2	-32.2	11.6	1.20e-03	0	42	0	119537664	21	4500
2026-01-01 08:51:55.38	106.56	11.95	-30.4	-32.6	11.3	1.19e-03	0	42	0	121634816	21	4675
2026-01-01 08:51:56.38	106.45	12.03	-30.5	-33.0	11.0	1.85e-03	0	42	0	123731968	21	4810
2026-01-01 08:51:57.38	106.35	12.11	-30.6	-33.4	10.8	1.37e-03	0	42	0	125829120	21	4950
2026-01-01 08:51:58.39	106.24	12.19	-30.5	-33.0	11.1	2.18e-03	0	42	0	126877696	21	4791
2026-01-01 08:51:59.39	106.13	12.27	-30.5	-32.9	11.1	1.58e-03	0	42	0	128974848	21	4760
2026-01-01 08:52:00.39	106.02	12.35	-30.4	-32.7	11.3	1.10e-03	0	42	0	131072000	21	4691
2026-01-01 08:52:01.39	105.91	12.43	-30.3	-32.3	11.6	8.25e-04	0	42	0	133169152	21	4549
2026-01-01 08:52:02.39	105.80	12.51	-30.2	-32.0	11.8	6.45e-04	0	42	0	135266304	21	4438
2026-01-01 08:52:03.39	105.69	12.59	-30.3	-32.4	11.5	8.15e-04	0	42	0	136314880	21	4591
2026-01-01 08:52:04.40	105.58	12.67	-30.3	-32.3	11.6	8.31e-04	0	42	0	138412032	21	4561
2026-01-01 08:52:05.41	105.47	12.75	-30.4	-32.6	11.4	5.65e-04	0	42	0	140509184	21	4659
2026-01-01 08:52:06.42	105.36	12.83	-30.3	-32.4	11.6	8.44e-04	0	42	0	142606336	21	4565
2026-01-01 08:52:07.41	105.24	12.91	-30.2	-32.1	11.7	6.23e-04	0	42	0	144703488	21	4480
2026-01-01 08:52:08.41	105.13	12.99	-30.2	-32.0	11.8	4.32e-04	0	42	0	145752064	21	4437
2026-01-01 08:52:09.41	105.02	13.07	-30.1	-31.6	12.1	4.50e-04	0	42	0	147849216	21	4312
2026-01-01 08:52:10.42	104.90	13.15	-29.9	-31.2	12.4	2.64e-04	0	42	0	149946368	21	4167
2026-01-01 08:52:11.43	104.79	13.24	-30.1	-31.6	12.2	2.10e-04	0	43	0	152043520	21	4287
2026-01-01 08:52:12.43	104.67	13.32	-30.0	-31.5	12.1	2.55e-04	0	42	0	154140672	21	4272
2026-01-01 08:52:13.43	104.55	13.40	-29.9	-31.7	12.4	9.38e-05	0	42	0	155189248	20	4400
2026-01-01 08:52:14.43	104.44	13.48	-30.0	-32.0	12.2	1.66e-04	0	42	0	157286400	20	4512
2026-01-01 08:52:15.43	104.32	13.56	-30.1	-32.3	12.0	3.00e-04	0	42	0	159383552	20	4610
2026-01-01 08:52:16.44	104.20	13.65	-30.0	-32.0	12.2	2.45e-04	0	42	0	161480704	20	4501
2026-01-01 08:52:17.45	104.08	13.73	-30.0	-31.8	12.4	2.01e-04	0	43	0	163577856	20	4446
2026-01-01 08:52:18.45	103.96	13.81	-29.9	-31.5	12.6	1.90e-04	0	42	0	164626432	20	4340
2026-01-01 08:52:19.46	103.84	13.90	-30.0	-31.8	12.4	1.42e-04	0	42	0	166723584	20	4453
2026-01-01 08:52:20.46	103.71	13.98	-30.0	-32.0	12.3	1.50e-04	0	42	0	168820736	20	4508
2026-01-01 08:52:21.46	103.59	14.06	-30.2	-32.4	12.0	1.77e-04	0	42	0	170917888	20	4660
2026-01-01 08:52:22.47	103.47	14.14	-30.2	-32.7	11.8	4.15e-04	0	42	0	173015040	20	4754
2026-01-01 08:52:23.47	103.35	14.23	-30.4	-33.2	11.4	7.10e-04	0	42	0	174063616	20	4941
2026-01-01 08:52:24.47	103.22	14.31	-30.7	-33.4	10.9	1.20e-03	0	42	0	176160768	21	4947
2026-01-01 08:52:25.47	103.10	14.39	-30.6	-33.3	11.0	2.56e-03	0	42	0	178257920	21	4902
2026-01-01 08:52:26.47	102.97	14.48	-30.4	-32.7	11.5	1.02e-03	0	42	0	180355072	21	4656
2026-01-01 08:52:27.47	102.84	14.56	-30.5	-32.7	11.6	7.24e-04	0	42	0	181403648	21	4655
2026-01-01 08:52:28.48	102.72	14.65	-30.3	-32.4	11.8	5.71e-04	0	42	0	183500800	21	4541
2026-01-01 08:52:29.48	102.59	14.73	-30.2	-32.0	11.9	3.05e-04	0	42	0	185597952	21	4425
2026-01-01 08:52:30.48	102.46	14.81	-30.3	-32.1	12.0	3.93e-04	0	42	0	187695104	21	4434
2026-01-01 08:52:31.48	102.33	14.90	-30.3	-32.2	11.8	5.23e-04	0	43	0	189792256	21	4500
2026-01-01 08:52:32.49	102.20	14.98	-30.4	-32.6	11.6	4.26e-04	0	42	0	190840832	21	4624
2026-01-01 08:52:33.48	102.07	15.07	-30.5	-32.7	11.5	9.80e-04	0	42	0	192937984	21	4670
2026-01-01 08:52:34.48	101.94	15.15	-30.1	-31.8	12.2	4.45e-04	0	42	0	195035136	21	4337
2026-01-01 08:52:35.49	101.81	15.24	-30.3	-32.2	11.9	3.25e-04	0	42	0	197132288	21	4473
2026-01-01 08:52:36.49	101.67	15.32	-30.2	-31.9	12.0	3.28e-04	0	42	0	199229440	21	4397
2026-01-01 08:52:37.50	101.54	15.41	-30.0	-31.3	12.5	8.92e-05	0	43	0	200278016	21	4190
2026-01-01 08:52:38.50	101.40	15.50	-30.2	-31.8	12.1	1.29e-04	0	42	0	202375168	21	4361
2026-01-01 08:52:39.51	101.27	15.58	-30.1	-31.6	12.3	2.78e-04	0	43	0	204472320	21	4270
2026-01-01 08:52:40.51	101.13	15.67	-30.0	-31.4	12.5	1.50e-04	0	43	0	206569472	21	4195
2026-01-01 08:52:41.50	100.99	15.75	-30.0	-31.3	12.6	1.02e-04	0	42	0	208666624	21	4164
2026-01-01 08:52:42.50	100.86	15.84	-29.8	-30.8	12.9	1.56e-04	0	43	0	209715200	21	4021
2026-01-01 08:52:43.50	100.72	15.92	-30.0	-31.3	12.6	9.15e-05	0	42	0	211812352	21	4168
2026-01-01 08:52:44.50	100.58	16.01	-29.9	-30.9	12.8	7.55e-05	0	43	0	213909504	21	4065
2026-01-01 08:52:45.51	100.44	16.10	-29.8	-31.1	13.0	3.05e-05	0	43	0	216006656	20	4199
2026-01-01 08:52:46.52	100.29	16.18	-29.8	-31.2	13.0	3.20e-05	0	43	0	218103808	20	4241
2026-01-01 08:52:47.52	100.15	16.27	-29.7	-30.9	13.1	3.81e-05	0	43	0	219152384	20	4143
2026-01-01 08:52:48.52	100.01	16.36	-29.8	-31.3	12.9	3.73e-05	0	42	0	221249536	20	4269
2026-01-01 08:52:49.53	99.87	16.45	-29.8	-31.2	13.0	4.57e-05	0	43	0	223346688	20	4226
2026-01-01 08:52:50.53	99.72	16.53	-29.7	-30.8	13.3	2.13e-05	0	43	0	225443840	20	4100
2026-01-01 08:52:51.53	99.58	16.62	-29.7	-30.9	13.2	1.22e-05	0	42	0	226492416	20	4139
2026-01-01 08:52:52.53	99.43	16.71	-29.6	-30.7	13.4	3.05e-05	0	43	0	228589568	20	4066
2026-01-01 08:52:53.54	99.28	16.79	-29.6	-30.6	13.4	1.22e-05	0	43	0	230686720	20	4032
2026-01-01 08:52:54.54	99.13	16.88	-29.7	-31.0	13.2	2.05e-05	0	43	0	232783872	20	4176
2026-01-01 08:52:55.54	98.99	16.97	-29.6	-30.7	13.3	2.89e-05	0	43	0	234881024	20	4087
2026-01-01 08:52:56.55	98.83	17.06	-29.7	-30.9	13.2	1.52e-05	0	43	0	235929600	20	4123
2026-01-01 08:52:57.55	98.68	17.15	-29.7	-30.9	13.1	2.13e-05	0	43	0	238026752	20	4148
2026-01-01 08:52:58.54	98.53	17.23	-29.6	-30.7	13.3	2.05e-05	0	43	0	240123904	20	4094
2026-01-01 08:52:59.55	98.38	17.32	-29.7	-31.0	13.0	3.43e-05	0	43	0	242221056	20	4189
2026-01-01 08:53:00.55	98.23	17.41	-29.7	-31.1	13.0	3.66e-05	0	43	0	244318208	20	4234
2026-01-01 08:53:01.56	98.07	17.50	-29.7	-31.0	13.0	4.11e-05	0	42	0	245366784	20	4197
2026-01-01 08:53:02.57	97.92	17.59	-29.6	-30.8	13.2	2.36e-05	0	43	0	247463936	20	4143
2026-01-01 08:53:03.57	97.76	17.68	-29.6	-30.6	13.3	1.98e-05	0	43	0	249561088	20	4077
2026-01-01 08:53:04.57	97.60	17.76	-29.5	-30.5	13.4	2.05e-05	0	43	0	251658240	20	4045
2026-01-01 08:53:05.57	97.44	17.85	-29.5	-30.6	13.3	1.22e-05	0	43	0	253755392	20	4058
2026-01-01 08:53:06.58	97.28	17.94	-29.6	-30.9	13.1	1.83e-05	0	43	0	254803968	20	4176
2026-01-01 08:53:07.58	97.12	18.03	-29.7	-31.1	13.0	3.28e-05	0	43	0	256901120	20	4219
2026-01-01 08:53:08.58	96.96	18.12	-29.7	-31.0	13.0	3.81e-05	0	43	0	258998272	20	4210
2026-01-01 08:53:09.58	96.80	18.21	-29.7	-30.9	13.1	3.43e-05	0	43	0	261095424	20	4177
2026-01-01 08:53:10.58	96.64	18.30	-29.6	-30.7	13.2	2.28e-05	0	43	0	263192576	20	4117
2026-01-01 08:53:11.59	96.48	18.39	-29.6	-30.9	13.0	2.21e-05	0	43	0	264241152	20	4177
2026-01-01 08:53:12.59	96.31	18.48	-29.6	-30.7	13.3	4.27e-05	0	43	0	266338304	20	4107
2026-01-01 08:53:13.59	96.15	18.57	-29.4	-30.3	13.5	1.44e-05	0	43	0	268435456	20	3984
2026-01-01 08:53:14.60	95.98	18.66	-29.5	-31.1	13.4	6.80e-06	0	43	0	270532608	19	4318
2026-01-01 08:53:15.60	95.81	18.75	-29.5	-30.9	13.5	9.90e-06	0	43	0	271581184	19	4245
2026-01-01 08:53:16.61	95.64	18.84	-29.6	-31.2	13.4	1.52e-05	0	43	0	273678336	19	4356
2026-01-01 08:53:17.61	95.47	18.93	-29.6	-31.3	13.3	1.83e-05	0	43	0	275775488	19	4372
2026-01-01 08:53:18.62	95.30	19.02	-29.7	-31.5	13.2	1.98e-05	0	43	0	277872640	19	4440
2026-01-01 08:53:19.62	95.13	19.11	-29.6	-31.4	13.3	2.74e-05	0	43	0	279969792	19	4389
2026-01-01 08:53:20.62	94.95	19.20	-29.7	-31.5	13.2	1.90e-05	0	43	0	282066944	19	4423
2026-01-01 08:53:21.62	94.78	19.29	-29.9	-32.0	12.9	4.34e-05	0	43	0	283115520	19	4600
2026-01-01 08:53:22.62	94.61	19.38	-29.9	-32.0	12.9	3.35e-05	0	43	0	285212672	19	4596
2026-01-01 08:53:23.63	94.43	19.47	-29.9	-32.1	12.8	4.95e-05	0	43	0	287309824	19	4621
2026-01-01 08:53:24.62	94.25	19.55	-29.9	-32.2	12.8	6.48e-05	0	43	0	289406976	19	4651
2026-01-01 08:53:25.63	94.07	19.65	-29.9	-31.8	12.6	1.08e-04	0	43	0	290455552	20	4432
2026-01-01 08:53:26.64	93.89	19.74	-30.1	-32.3	12.3	1.30e-04	0	43	0	292552704	20	4619
2026-01-01 08:53:27.64	93.71	19.83	-30.1	-32.2	12.4	2.32e-04	0	43	0	294649856	20	4588
2026-01-01 08:53:28.65	93.53	19.92	-30.1	-32.1	12.5	1.32e-04	0	43	0	296747008	20	4528
2026-01-01 08:53:29.65	93.35	20.01	-30.1	-32.2	12.4	1.27e-04	0	43	0	298844160	20	4559
2026-01-01 08:53:30.66	93.16	20.10	-30.2	-32.4	12.2	1.69e-04	0	43	0	300941312	20	4658
2026-01-01 08:53:31.66	92.98	20.19	-30.0	-32.0	12.5	1.04e-04	0	43	0	301989888	20	4503
2026-01-01 08:53:32.66	92.80	20.28	-30.0	-32.0	12.5	1.07e-04	0	43	0	304087040	20	4492
2026-01-01 08:53:33.66	92.61	20.37	-30.0	-32.0	12.5	7.93e-05	0	43	0	306184192	20	4501
2026-01-01 08:53:34.67	92.42	20.46	-30.0	-31.8	12.7	9.84e-05	0	43	0	308281344	20	4437
2026-01-01 08:53:35.67	92.23	20.55	-29.9	-31.6	12.9	6.79e-05	0	43	0	309329920	20	4374
2026-01-01 08:53:36.67	92.04	20.64	-30.0	-31.8	12.7	7.78e-05	0	43	0	311427072	20	4437
2026-01-01 08:53:37.67	91.85	20.73	-30.0	-31.8	12.6	8.08e-05	0	43	0	313524224	20	4454
2026-01-01 08:53:38.67	91.66	20.82	-30.3	-32.7	12.1	1.14e-04	0	43	0	315621376	20	4750
2026-01-01 08:53:39.67	91.47	20.91	-30.2	-32.6	12.1	2.66e-04	0	43	0	317718528	20	4717
2026-01-01 08:53:40.67	91.27	21.00	-30.2	-32.4	12.3	1.87e-04	0	43	0	318767104	20	4636
2026-01-01 08:53:41.67	91.08	21.09	-30.4	-32.9	11.9	3.33e-04	0	43	0	320864256	20	4825
2026-01-01 08:53:42.68	90.88	21.18	-30.2	-32.3	12.4	2.22e-04	0	43	0	322961408	20	4599
2026-01-01 08:53:43.69	90.68	21.27	-30.0	-31.9	12.6	8.77e-05	0	43	0	325058560	20	4481
2026-01-01 08:53:44.69	90.48	21.36	-29.9	-31.6	12.9	6.94e-05	0	43	0	327155712	20	4349
2026-01-01 08:53:45.69	90.28	21.45	-29.9	-31.4	13.0	4.80e-05	0	43	0	328204288	20	4312
2026-01-01 08:53:46.69	90.08	21.54	-30.0	-31.8	12.7	7.93e-05	0	43	0	330301440	20	4443
2026-01-01 08:53:47.70	89.87	21.63	-29.8	-31.3	13.0	8.92e-05	0	43	0	332398592	20	4269
2026-01-01 08:53:48.70	89.67	21.72	-29.7	-31.0	13.3	2.05e-05	0	43	0	334495744	20	4164
2026-01-01 08:53:49.70	89.46	21.81	-29.7	-31.0	13.2	2.97e-05	0	43	0	335544320	20	4178
2026-01-01 08:53:50.71	89.26	21.90	-29.8	-31.3	13.1	2.89e-05	0	43	0	337641472	20	4252
2026-01-01 08:53:51.71	89.05	21.99	-30.0	-31.7	12.8	3.12e-05	0	43	0	339738624	20	4398
2026-01-01 08:53:52.71	88.84	22.08	-29.8	-31.3	13.1	3.81e-05	0	43	0	341835776	20	4260
2026-01-01 08:53:53.71	88.63	22.17	-30.0	-31.6	12.9	4.88e-05	0	43	0	343932928	20	4376
2026-01-01 08:53:54.71	88.42	22.26	-29.7	-31.0	13.3	3.28e-05	0	43	0	346030080	20	4158
2026-01-01 08:53:55.71	88.21	22.35	-29.8	-31.3	13.1	3.58e-05	0	43	0	347078656	20	4259
2026-01-01 08:53:56.71	88.00	22.43	-29.8	-31.3	13.1	3.81e-05	0	43	0	349175808	20	4243
2026-01-01 08:53:57.71	87.78	22.52	-29.7	-31.0	13.3	2.97e-05	0	43	0	351272960	20	4171
2026-01-01 08:53:58.72	87.56	22.61	-29.7	-30.9	13.4	2.36e-05	0	43	0	353370112	20	4144
2026-01-01 08:53:59.72	87.35	22.70	-29.6	-30.8	13.4	1.14e-05	0	43	0	354418688	20	4093
2026-01-01 08:54:00.71	87.13	22.79	-29.7	-30.8	13.4	5.30e-06	0	43	0	356515840	20	4115
2026-01-01 08:54:01.72	86.91	22.88	-29.3	-30.0	14.0	6.80e-06	0	43	0	358612992	20	3863
2026-01-01 08:54:02.72	86.69	22.97	-29.0	-29.7	14.6	1.50e-06	0	43	0	360710144	19	3862
2026-01-01 08:54:03.73	86.46	23.05	-28.8	-29.1	14.9	7.00e-07	0	43	0	362807296	19	3709
2026-01-01 08:54:04.73	86.24	23.14	-28.7	-29.2	15.1	7.00e-07	0	43	0	363855872	18	3832
2026-01-01 08:54:05.73	86.02	23.23	-28.6	-29.1	15.2	0.00e+00	0	43	0	365953024	18	3808
2026-01-01 08:54:06.74	85.79	23.32	-28.7	-29.4	15.0	0.00e+00	0	43	0	368050176	18	3876
2026-01-01 08:54:07.74	85.56	23.40	-28.9	-29.9	14.7	0.00e+00	0	43	0	370147328	18	4024
2026-01-01 08:54:08.75	85.33	23.49	-29.1	-30.4	14.4	0.00e+00	0	43	0	372244480	18	4183
2026-01-01 08:54:09.75	85.10	23.58	-29.2	-30.7	14.2	1.50e-06	0	43	0	373293056	18	4272
2026-01-01 08:54:10.76	84.87	23.67	-29.4	-31.1	14.0	1.50e-06	0	43	0	375390208	18	4389
2026-01-01 08:54:11.76	84.64	23.75	-29.2	-30.5	14.3	2.20e-06	0	43	0	377487360	18	4212
2026-01-01 08:54:12.76	84.40	23.84	-29.1	-30.4	14.4	1.50e-06	0	43	0	379584512	18	4156
2026-01-01 08:54:13.77	84.16	23.92	-29.2	-30.6	14.3	7.00e-07	0	43	0	381681664	18	4224
2026-01-01 08:54:14.76	83.93	24.01	-29.2	-30.7	14.3	0.00e+00	0	43	0	382730240	18	4238
2026-01-01 08:54:15.77	83.69	24.10	-29.1	-30.3	14.5	1.50e-06	0	43	0	384827392	18	4131
2026-01-01 08:54:16.77	83.45	24.18	-29.0	-29.9	14.7	0.00e+00	0	43	0	386924544	18	4034
2026-01-01 08:54:17.77	83.21	24.27	-29.0	-30.0	14.7	0.00e+00	0	43	0	389021696	18	4050
2026-01-01 08:54:18.78	82.97	24.35	-29.0	-30.0	14.7	7.00e-07	0	43	0	391118848	18	4051
2026-01-01 08:54:19.79	82.72	24.44	-29.0	-29.9	14.7	0.00e+00	0	43	0	392167424	18	4029
2026-01-01 08:54:20.79	82.48	24.52	-29.0	-30.0	14.7	0.00e+00	0	43	0	394264576	18	4051
2026-01-01 08:54:21.80	82.23	24.60	-29.1	-30.3	14.5	7.00e-07	0	43	0	396361728	18	4119
2026-01-01 08:54:22.79	81.99	24.69	-29.2	-30.5	14.4	7.00e-07	0	43	0	398458880	18	4185
2026-01-01 08:54:23.80	81.74	24.77	-29.2	-30.6	14.3	7.00e-07	0	43	0	399507456	18	4226
2026-01-01 08:54:24.80	81.49	24.85	-29.3	-30.9	14.1	4.50e-06	0	43	0	401604608	18	4316
2026-01-01 08:54:25.81	81.24	24.94	-29.3	-30.9	14.1	1.50e-06	0	43	0	403701760	18	4317
2026-01-01 08:54:26.80	80.99	25.02	-29.2	-30.6	14.3	7.00e-07	0	43	0	405798912	18	4209
2026-01-01 08:54:27.81	80.73	25.10	-29.1	-30.3	14.5	0.00e+00	0	43	0	407896064	18	4127
2026-01-01 08:54:28.81	80.48	25.18	-29.3	-30.7	14.3	1.50e-06	0	43	0	408944640	18	4262
2026-01-01 08:54:29.82	80.22	25.26	-29.2	-30.5	14.4	1.50e-06	0	43	0	411041792	18	4193
2026-01-01 08:54:30.82	79.96	25.34	-29.2	-30.4	14.4	1.50e-06	0	43	0	413138944	18	4168
2026-01-01 08:54:31.82	79.70	25.42	-29.0	-30.1	14.7	3.00e-06	0	43	0	415236096	18	4071
2026-01-01 08:54:32.83	79.44	25.50	-29.1	-30.3	14.6	3.00e-06	0	43	0	417333248	18	4134
2026-01-01 08:54:33.84	79.18	25.58	-29.0	-30.0	14.7	7.00e-07	0	43	0	418381824	18	4047
2026-01-01 08:54:34.84	78.91	25.66	-28.8	-29.5	15.0	0.00e+00	0	43	0	420478976	18	3904
2026-01-01 08:54:35.84	78.65	25.74	-29.1	-30.1	14.7	0.00e+00	0	43	0	422576128	18	4068
2026-01-01 08:54:36.85	78.38	25.82	-29.0	-30.0	14.7	0.00e+00	0	43	0	424673280	18	4027
2026-01-01 08:54:37.85	78.12	25.90	-29.1	-30.2	14.6	0.00e+00	0	43	0	426770432	18	4107
2026-01-01 08:54:38.85	77.85	25.97	-29.4	-31.0	14.2	0.00e+00	0	43	0	427819008	18	4338
2026-01-01 08:54:39.85	77.58	26.05	-29.3	-30.8	14.3	1.50e-06	0	43	0	429916160	18	4254
2026-01-01 08:54:40.86	77.31	26.13	-29.4	-31.0	14.2	3.00e-06	0	43	0	432013312	18	4334
2026-01-01 08:54:41.86	77.04	26.20	-29.3	-30.7	14.4	0.00e+00	0	43	0	434110464	18	4241
2026-01-01 08:54:42.86	76.76	26.28	-29.2	-30.6	14.5	0.00e+00	0	43	0	436207616	18	4195
2026-01-01 08:54:43.87	76.49	26.35	-29.2	-30.4	14.5	3.00e-06	0	43	0	437256192	18	4148
2026-01-01 08:54:44.87	76.21	26.43	-29.4	-30.9	14.2	0.00e+00	0	43	0	439353344	18	4289
2026-01-01 08:54:45.88	75.93	26.50	-29.1	-30.2	14.6	7.00e-07	0	43	0	441450496	18	4087
2026-01-01 08:54:46.89	75.65	26.58	-29.2	-30.4	14.6	3.00e-06	0	43	0	443547648	18	4133
2026-01-01 08:54:47.89	75.37	26.65	-29.5	-31.1	14.1	0.00e+00	0	43	0	445644800	18	4370
2026-01-01 08:54:48.89	75.09	26.72	-29.7	-31.3	13.7	3.80e-06	0	43	0	446693376	19	4327
2026-01-01 08:54:49.90	74.81	26.79	-29.7	-31.4	13.6	1.29e-05	0	43	0	448790528	19	4347
2026-01-01 08:54:50.90	74.52	26.86	-29.5	-30.8	14.0	6.10e-06	0	43	0	450887680	19	4187
2026-01-01 08:54:51.90	74.24	26.93	-29.7	-31.3	13.6	4.50e-06	0	43	0	452984832	19	4346
2026-01-01 08:54:52.90	73.95	27.00	-29.5	-30.8	14.0	1.29e-05	0	43	0	455081984	19	4186
2026-01-01 08:54:53.90	73.66	27.07	-29.6	-31.1	13.8	3.80e-06	0	43	0	456130560	19	4271
2026-01-01 08:54:54.90	73.38	27.14	-29.5	-30.8	13.9	3.80e-06	0	43	0	458227712	19	4188
2026-01-01 08:54:55.90	73.09	27.21	-29.7	-31.2	13.7	3.80e-06	0	43	0	460324864	19	4305
2026-01-01 08:54:56.91	72.79	27.28	-29.5	-30.7	14.1	3.80e-06	0	43	0	462422016	19	4145
2026-01-01 08:54:57.91	72.50	27.34	-29.5	-30.9	13.9	7.00e-07	0	43	0	464519168	19	4195
2026-01-01 08:54:58.91	72.21	27.41	-29.5	-30.9	13.9	1.50e-06	0	43	0	465567744	19	4202
2026-01-01 08:54:59.92	71.91	27.47	-29.5	-30.9	13.9	3.00e-06	0	43	0	467664896	19	4195
2026-01-01 08:55:00.92	71.62	27.54	-29.7	-31.3	13.7	3.80e-06	0	43	0	469762048	19	4328
2026-01-01 08:55:01.93	71.32	27.60	-29.6	-31.1	13.8	9.10e-06	0	43	0	471859200	19	4261
2026-01-01 08:55:02.93	71.02	27.66	-29.6	-31.0	13.9	7.60e-06	0	43	0	472907776	19	4239
2026-01-01 08:55:03.94	70.72	27.73	-29.4	-30.4	14.2	2.20e-06	0	43	0	475004928	19	4052
2026-01-01 08:55:04.94	70.42	27.79	-29.2	-29.9	14.6	4.50e-06	0	43	0	477102080	19	3907
2026-01-01 08:55:05.94	70.12	27.85	-29.4	-30.5	14.2	2.20e-06	0	43	0	479199232	19	4092
2026-01-01 08:55:06.95	69.81	27.91	-29.5	-30.9	13.9	3.00e-06	0	43	0	481296384	19	4193
2026-01-01 08:55:07.95	69.51	27.97	-29.4	-30.6	14.1	6.80e-06	0	43	0	482344960	19	4105
2026-01-01 08:55:08.96	69.20	28.03	-29.6	-30.9	13.9	1.50e-06	0	43	0	484442112	19	4212
2026-01-01 08:55:09.97	68.89	28.09	-29.6	-30.9	14.0	3.80e-06	0	43	0	486539264	19	4204
2026-01-01 08:55:10.98	68.58	28.14	-29.5	-30.8	14.0	3.00e-06	0	43	0	488636416	19	4184
2026-01-01 08:55:11.98	68.27	28.20	-29.9	-31.8	13.4	6.10e-06	0	43	0	490733568	19	4499
2026-01-01 08:55:12.99	67.96	28.25	-29.8	-31.6	13.5	9.10e-06	0	43	0	491782144	19	4430
2026-01-01 08:55:13.99	67.65	28.31	-29.9	-32.0	13.2	1.22e-05	0	43	0	493879296	19	4563
2026-01-01 08:55:15.00	67.33	28.36	-29.7	-31.0	13.4	1.67e-05	0	43	0	495976448	20	4162
2026-01-01 08:55:16.00	67.02	28.42	-29.6	-30.7	13.6	1.83e-05	0	43	0	498073600	20	4066
2026-01-01 08:55:17.00	66.71	28.47	-29.4	-30.0	14.1	2.20e-06	0	43	0	500170752	20	3862
2026-01-01 08:55:18.01	66.39	28.52	-29.4	-30.1	14.1	2.20e-06	0	43	0	501219328	20	3882
2026-01-01 08:55:19.02	66.07	28.57	-29.4	-30.4	14.3	1.50e-06	0	43	0	503316480	19	4049
2026-01-01 08:55:20.02	65.76	28.62	-29.6	-31.1	13.9	2.20e-06	0	43	0	505413632	19	4252
2026-01-01 08:55:21.02	65.44	28.67	-29.4	-30.5	14.2	2.20e-06	0	43	0	507510784	19	4086
2026-01-01 08:55:22.03	65.12	28.71	-29.2	-29.9	14.6	0.00e+00	0	43	0	509607936	19	3895
2026-01-01 08:55:23.03	64.80	28.76	-29.3	-30.2	14.5	0.00e+00	0	43	0	510656512	19	3998
2026-01-01 08:55:24.04	64.48	28.81	-29.7	-31.3	13.7	3.00e-06	0	43	0	512753664	19	4314
2026-01-01 08:55:25.03	64.16	28.85	-29.9	-31.8	13.4	6.80e-06	0	43	0	514850816	19	4466
2026-01-01 08:55:26.04	63.83	28.90	-30.1	-31.8	13.0	2.97e-05	0	43	0	516947968	20	4392
2026-01-01 08:55:27.05	63.51	28.94	-30.7	-33.0	11.9	1.56e-04	0	43	0	519045120	21	4721
2026-01-01 08:55:28.05	63.18	28.98	-30.8	-33.4	11.5	4.88e-04	0	43	0	520093696	21	4876
2026-01-01 08:55:29.06	62.86	29.02	-31.1	-33.8	10.9	1.88e-03	0	43	0	522190848	22	4949
2026-01-01 08:55:30.06	62.53	29.06	-31.0	-33.5	11.1	1.33e-03	0	43	0	524288000	22	4831
2026-01-01 08:55:31.07	62.20	29.10	-30.8	-32.8	11.6	8.92e-04	0	43	0	526385152	22	4582
2026-01-01 08:55:32.06	61.88	29.14	-30.6	-32.5	11.8	5.13e-04	0	43	0	528482304	22	4470
2026-01-01 08:55:33.06	61.55	29.17	-30.6	-32.5	11.8	4.03e-04	0	43	0	529530880	22	4454
2026-01-01 08:55:34.07	61.22	29.21	-30.8	-33.0	11.4	4.18e-04	0	43	0	531628032	22	4667
2026-01-01 08:55:35.06	60.89	29.25	-30.8	-33.1	11.4	8.52e-04	0	43	0	533725184	22	4693
2026-01-01 08:55:36.07	60.56	29.28	-30.9	-33.5	11.1	1.40e-03	0	43	0	535822336	22	4828
2026-01-01 08:55:37.07	60.23	29.31	-30.8	-32.9	11.5	8.10e-04	0	43	0	537919488	22	4611
2026-01-01 08:55:38.07	59.90	29.34	-30.6	-32.4	11.9	6.32e-04	0	43	0	538968064	22	4433
2026-01-01 08:55:39.07	59.57	29.37	-30.6	-32.2	12.1	5.02e-04	0	43	0	541065216	22	4358
2026-01-01 08:55:40.07	59.23	29.40	-30.8	-32.8	11.7	4.66e-04	0	43	0	543162368	22	4559
2026-01-01 08:55:41.06	58.91	29.43	-30.5	-32.1	12.2	3.11e-04	0	43	0	545259520	22	4325
2026-01-01 08:55:42.06	58.57	29.46	-30.8	-33.1	11.5	4.48e-04	0	43	0	546308096	22	4661
2026-01-01 08:55:43.07	58.23	29.49	-31.1	-33.9	10.8	1.74e-03	0	43	0	548405248	22	5002
2026-01-01 08:55:44.07	57.90	29.51	-31.1	-34.1	10.7	3.06e-03	0	43	0	550502400	22	5051
2026-01-01 08:55:45.07	57.56	29.54	-31.1	-33.9	10.8	3.31e-03	0	43	0	552599552	22	4986
2026-01-01 08:55:46.07	57.23	29.56	-31.0	-33.7	11.0	2.05e-03	0	43	0	554696704	22	4904
2026-01-01 08:55:47.08	56.89	29.58	-31.1	-34.1	10.7	2.08e-03	0	43	0	555745280	22	5066
2026-01-01 08:55:48.08	56.55	29.60	-31.2	-34.2	10.6	2.99e-03	0	43	0	557842432	22	5130
2026-01-01 08:55:49.09	56.21	29.62	-31.4	-35.1	10.0	4.00e-03	0	43	0	559939584	22	5478
2026-01-01 08:55:50.10	55.87	29.64	-31.1	-34.0	10.7	2.85e-03	0	43	0	562036736	22	5036
2026-01-01 08:55:51.10	55.53	29.66	-30.9	-33.6	11.0	1.93e-03	0	43	0	564133888	22	4884
2026-01-01 08:55:52.10	55.20	29.68	-31.0	-33.7	10.9	2.11e-03	0	43	0	565182464	22	4944
2026-01-01 08:55:53.10	54.86	29.69	-31.2	-34.3	10.5	2.85e-03	0	43	0	567279616	22	5191
2026-01-01 08:55:54.10	54.52	29.71	-31.1	-34.0	10.6	3.79e-03	0	43	0	569376768	22	5038
2026-01-01 08:55:55.11	54.18	29.72	-30.8	-32.9	11.5	1.38e-03	0	43	0	571473920	22	4598
2026-01-01 08:55:56.11	53.84	29.73	-30.4	-31.6	12.4	2.67e-04	0	43	0	573571072	22	4166
2026-01-01 08:55:57.12	53.50	29.74	-30.2	-31.5	12.9	9.07e-05	0	43	0	574619648	21	4214
2026-01-01 08:55:58.12	53.16	29.75	-30.2	-31.6	12.8	7.09e-05	0	43	0	576716800	21	4240
2026-01-01 08:55:59.13	52.81	29.76	-30.5	-32.6	12.1	1.23e-04	0	43	0	578813952	21	4563
2026-01-01 08:56:00.13	52.47	29.77	-30.6	-33.0	11.9	3.19e-04	0	43	0	580911104	21	4719
2026-01-01 08:56:01.13	52.13	29.78	-30.8	-33.6	11.5	6.87e-04	0	43	0	583008256	21	4929
2026-01-01 08:56:02.13	51.79	29.78	-30.7	-33.1	11.6	6.49e-04	0	43	0	584056832	21	4771
2026-01-01 08:56:03.14	51.45	29.79	-30.8	-33.3	11.6	8.99e-04	0	43	0	586153984	21	4846
2026-01-01 08:56:04.13	51.11	29.79	-31.1	-33.7	11.1	1.39e-03	0	43	0	588251136	22	4901
2026-01-01 08:56:05.14	50.77	29.79	-30.9	-33.2	11.3	1.59e-03	0	43	0	590348288	22	4712
2026-01-01 08:56:06.14	50.43	29.79	-30.8	-32.9	11.6	9.12e-04	0	43	0	591396864	22	4579
2026-01-01 08:56:07.14	50.09	29.79	-30.6	-32.4	12.1	3.93e-04	0	43	0	593494016	22	4409
2026-01-01 08:56:08.15	49.74	29.79	-30.4	-31.8	12.4	1.68e-04	0	43	0	595591168	22	4215
2026-01-01 08:56:09.16	49.40	29.79	-30.2	-31.7	12.8	1.37e-04	0	43	0	597688320	21	4254
2026-01-01 08:56:10.16	49.06	29.78	-30.3	-31.9	12.7	9.23e-05	0	43	0	599785472	21	4317
2026-01-01 08:56:11.16	48.72	29.78	-30.2	-31.7	12.7	9.00e-05	0	43	0	600834048	21	4279
2026-01-01 08:56:12.16	48.38	29.77	-30.7	-32.9	11.9	1.52e-04	0	43	0	602931200	21	4683
2026-01-01 08:56:13.16	48.04	29.77	-30.5	-32.6	12.1	3.99e-04	0	43	0	605028352	21	4566
2026-01-01 08:56:14.16	47.70	29.76	-30.8	-33.5	11.5	6.99e-04	0	43	0	607125504	21	4891
2026-01-01 08:56:15.17	47.35	29.75	-30.5	-32.4	12.3	4.90e-04	0	43	0	609222656	21	4495
2026-01-01 08:56:16.17	47.01	29.74	-30.1	-31.5	12.9	1.20e-04	0	43	0	610271232	21	4200
2026-01-01 08:56:17.17	46.67	29.73	-29.7	-30.7	13.7	6.10e-06	0	43	0	612368384	20	4046
2026-01-01 08:56:18.18	46.33	29.71	-29.6	-30.4	13.9	1.50e-06	0	43	0	614465536	20	3978
2026-01-01 08:56:19.17	46.00	29.70	-29.7	-30.7	13.7	6.80e-06	0	43	0	616562688	20	4068
2026-01-01 08:56:20.18	45.66	29.68	-30.0	-31.5	13.2	1.75e-05	0	43	0	618659840	20	4311
2026-01-01 08:56:21.18	45.32	29.67	-30.3	-32.3	12.6	1.23e-04	0	43	0	619708416	20	4578
2026-01-01 08:56:22.19	44.98	29.65	-30.2	-32.2	12.7	1.53e-04	0	43	0	621805568	20	4544
2026-01-01 08:56:23.18	44.64	29.63	-30.2	-32.2	12.7	1.25e-04	0	43	0	623902720	20	4540
2026-01-01 08:56:24.18	44.31	29.61	-30.3	-32.5	12.5	5.49e-05	0	43	0	625999872	20	4634
2026-01-01 08:56:25.18	43.97	29.59	-30.3	-32.5	12.6	1.07e-04	0	43	0	628097024	20	4615
2026-01-01 08:56:26.18	43.63	29.57	-30.1	-31.8	13.0	5.41e-05	0	43	0	629145600	20	4386
2026-01-01 08:56:27.19	43.29	29.55	-29.9	-31.3	13.3	1.75e-05	0	43	0	631242752	20	4228
2026-01-01 08:56:28.19	42.96	29.52	-30.0	-31.6	13.1	4.04e-05	0	43	0	633339904	20	4329
2026-01-01 08:56:29.19	42.62	29.50	-30.0	-31.6	13.1	4.04e-05	0	43	0	635437056	20	4341
2026-01-01 08:56:30.19	42.29	29.47	-30.1	-31.8	13.0	4.04e-05	0	43	0	636485632	20	4410
2026-01-01 08:56:31.20	41.95	29.45	-30.2	-32.0	12.8	7.32e-05	0	43	0	638582784	20	4474
2026-01-01 08:56:32.21	41.62	29.42	-29.7	-30.9	13.5	9.90e-06	0	43	0	640679936	20	4109
2026-01-01 08:56:33.22	41.28	29.39	-29.6	-30.5	13.8	6.80e-06	0	43	0	642777088	20	3985
2026-01-01 08:56:34.22	40.95	29.36	-29.4	-30.1	14.1	7.00e-07	0	43	0	644874240	20	3874
2026-01-01 08:56:35.23	40.62	29.33	-29.7	-30.9	13.6	5.30e-06	0	43	0	646971392	20	4108
2026-01-01 08:56:36.23	40.29	29.30	-30.1	-31.9	12.8	2.82e-05	0	43	0	648019968	20	4435
2026-01-01 08:56:37.23	39.96	29.26	-29.9	-31.4	13.2	4.04e-05	0	43	0	650117120	20	4269
2026-01-01 08:56:38.24	39.62	29.23	-29.7	-30.7	13.7	1.14e-05	0	43	0	652214272	20	4073
2026-01-01 08:56:39.24	39.30	29.19	-29.6	-30.5	13.8	1.50e-06	0	43	0	654311424	20	4002
2026-01-01 08:56:40.24	38.97	29.16	-29.7	-30.9	13.5	9.90e-06	0	43	0	655360000	20	4114
2026-01-01 08:56:41.25	38.64	29.12	-30.0	-31.6	13.0	2.67e-05	0	43	0	657457152	20	4351
2026-01-01 08:56:42.24	38.32	29.08	-30.0	-31.7	13.0	5.64e-05	0	43	0	659554304	20	4385
2026-01-01 08:56:43.24	37.99	29.04	-30.1	-31.9	12.9	5.41e-05	0	43	0	661651456	20	4421
2026-01-01 08:56:44.24	37.67	29.00	-30.1	-31.9	12.9	6.25e-05	0	43	0	663748608	20	4420
2026-01-01 08:56:45.24	37.34	28.96	-29.6	-30.6	13.7	1.44e-05	0	43	0	664797184	20	4021
2026-01-01 08:56:46.24	37.02	28.92	-29.4	-30.0	14.2	1.50e-06	0	43	0	666894336	20	3859
2026-01-01 08:56:47.25	36.70	28.87	-29.4	-29.9	14.2	0.00e+00	0	43	0	668991488	20	3829
2026-01-01 08:56:48.25	36.37	28.83	-29.8	-30.9	13.5	3.80e-06	0	43	0	671088640	20	4125
2026-01-01 08:56:49.25	36.05	28.78	-29.9	-31.4	13.3	1.60e-05	0	43	0	673185792	20	4265
2026-01-01 08:56:50.26	35.73	28.74	-30.1	-31.8	12.9	4.34e-05	0	43	0	674234368	20	4398
2026-01-01 08:56:51.26	35.41	28.69	-29.9	-31.2	13.4	1.75e-05	0	43	0	676331520	20	4199
2026-01-01 08:56:52.27	35.09	28.64	-29.7	-30.9	13.6	9.90e-06	0	43	0	678428672	20	4096
2026-01-01 08:56:53.27	34.78	28.59	-29.6	-30.5	13.8	5.30e-06	0	43	0	680525824	20	3999
2026-01-01 08:56:54.27	34.46	28.55	-29.8	-31.2	13.4	1.44e-05	0	43	0	682622976	20	4198
2026-01-01 08:56:55.28	34.14	28.49	-29.9	-31.2	13.3	1.37e-05	0	43	0	683671552	20	4219
2026-01-01 08:56:56.28	33.83	28.44	-30.0	-31.7	13.0	4.27e-05	0	43	0	685768704	20	4351
2026-01-01 08:56:57.28	33.52	28.39	-30.2	-32.2	12.7	7.47e-05	0	43	0	687865856	20	4521
2026-01-01 08:56:58.29	33.21	28.34	-30.3	-32.6	12.4	1.03e-04	0	43	0	689963008	20	4648
2026-01-01 08:56:59.29	32.90	28.28	-30.1	-31.8	12.9	4.95e-05	0	43	0	692060160	20	4406
2026-01-01 08:57:00.29	32.59	28.23	-30.0	-31.7	13.0	2.28e-05	0	43	0	693108736	20	4359
2026-01-01 08:57:01.29	32.28	28.17	-30.1	-32.0	12.8	5.03e-05	0	43	0	695205888	20	4456
2026-01-01 08:57:02.30	31.97	28.12	-30.4	-32.9	12.2	1.40e-04	0	43	0	697303040	20	4761
2026-01-01 08:57:03.30	31.66	28.06	-30.8	-33.5	11.5	5.47e-04	0	43	0	699400192	21	4898
2026-01-01 08:57:04.30	31.36	28.00	-31.2	-34.4	10.4	1.77e-03	0	43	0	700448768	22	5199
2026-01-01 08:57:05.31	31.05	27.94	-31.3	-34.8	10.1	5.64e-03	0	43	0	702545920	22	5372
2026-01-01 08:57:06.31	30.75	27.88	-31.5	-34.8	9.7	9.84e-03	0	43	0	704643072	23	5287
2026-01-01 08:57:07.32	30.44	27.82	-31.4	-34.5	9.9	1.09e-02	0	43	0	706740224	23	5148
2026-01-01 08:57:08.33	30.14	27.76	-31.4	-34.7	9.8	9.11e-03	0	43	0	708837376	23	5250
2026-01-01 08:57:09.33	29.84	27.70	-31.4	-34.7	9.8	1.17e-02	0	43	0	709885952	23	5231
2026-01-01 08:57:10.33	29.55	27.64	-31.4	-34.5	9.9	7.87e-03	0	43	0	711983104	23	5150
2026-01-01 08:57:11.33	29.25	27.57	-31.3	-34.1	10.2	6.63e-03	0	43	0	714080256	23	5014
2026-01-01 08:57:12.33	28.95	27.51	-31.4	-34.6	9.8	6.09e-03	0	43	0	716177408	23	5195
2026-01-01 08:57:13.33	28.66	27.45	-31.5	-34.9	9.5	1.38e-02	0	43	0	718274560	23	5363
2026-01-01 08:57:14.33	28.37	27.38	-31.0	-33.4	10.7	1.08e-02	0	43	0	719323136	23	4737
2026-01-01 08:57:15.33	28.07	27.32	-30.5	-32.3	11.8	1.46e-03	0	43	0	721420288	22	4430
2026-01-01 08:57:16.34	27.78	27.25	-30.2	-31.9	12.4	2.19e-04	0	43	0	723517440	21	4381
2026-01-01 08:57:17.33	27.49	27.18	-30.0	-31.3	12.8	6.25e-05	0	43	0	725614592	21	4185
2026-01-01 08:57:18.34	27.20	27.11	-29.8	-30.8	13.2	3.12e-05	0	43	0	727711744	21	4015
2026-01-01 08:57:19.34	26.92	27.05	-29.8	-31.0	13.4	2.28e-05	0	43	0	728760320	20	4173
2026-01-01 08:57:20.34	26.63	26.98	-29.6	-30.5	13.7	1.29e-05	0	43	0	730857472	20	4023
2026-01-01 08:57:21.35	26.34	26.91	-29.3	-29.9	14.1	4.50e-06	0	43	0	732954624	20	3850
2026-01-01 08:57:22.36	26.06	26.83	-29.4	-30.1	14.0	2.20e-06	0	43	0	735051776	20	3897
2026-01-01 08:57:23.36	25.78	26.76	-29.9	-31.3	13.2	1.14e-05	0	43	0	737148928	20	4259
2026-01-01 08:57:24.36	25.50	26.69	-29.9	-31.5	13.0	3.50e-05	0	43	0	738197504	20	4325
2026-01-01 08:57:25.37	25.21	26.62	-29.9	-31.4	13.1	4.27e-05	0	43	0	740294656	20	4282
2026-01-01 08:57:26.37	24.94	26.55	-29.4	-30.2	13.9	8.30e-06	0	43	0	742391808	20	3915
2026-01-01 08:57:27.37	24.66	26.47	-29.4	-30.5	14.1	3.80e-06	0	43	0	744488960	19	4083
2026-01-01 08:57:28.37	24.38	26.40	-29.7	-31.3	13.6	7.60e-06	0	43	0	746586112	19	4344
2026-01-01 08:57:29.38	24.11	26.33	-30.1	-32.1	12.7	3.43e-05	0	43	0	747634688	20	4513
2026-01-01 08:57:30.38	23.83	26.25	-30.4	-32.4	12.0	2.17e-04	0	43	0	749731840	21	4536
2026-01-01 08:57:31.38	23.56	26.18	-30.3	-32.1	12.3	2.14e-04	0	43	0	751828992	21	4438
2026-01-01 08:57:32.39	23.29	26.10	-30.1	-31.5	12.7	1.04e-04	0	43	0	753926144	21	4233
2026-01-01 08:57:33.38	23.02	26.02	-30.0	-31.3	12.9	4.04e-05	0	43	0	754974720	21	4169
2026-01-01 08:57:34.39	22.75	25.95	-30.2	-32.0	12.3	1.02e-04	0	43	0	757071872	21	4428
2026-01-01 08:57:35.39	22.49	25.87	-30.5	-32.8	11.8	4.05e-04	0	43	0	759169024	21	4716
2026-01-01 08:57:36.40	22.22	25.79	-30.7	-33.4	11.4	9.05e-04	0	43	0	761266176	21	4904
2026-01-01 08:57:37.40	21.96	25.71	-30.8	-33.7	11.2	9.89e-04	0	43	0	763363328	21	5025
2026-01-01 08:57:38.41	21.69	25.63	-30.8	-33.7	11.1	1.54e-03	0	43	0	765460480	21	5008
2026-01-01 08:57:39.41	21.43	25.56	-30.6	-33.1	11.5	1.24e-03	0	43	0	766509056	21	4803
2026-01-01 08:57:40.42	21.17	25.48	-30.3	-32.2	12.2	3.26e-04	0	43	0	768606208	21	4462
2026-01-01 08:57:41.42	20.91	25.40	-29.9	-31.0	13.0	1.69e-04	0	43	0	770703360	21	4087
2026-01-01 08:57:42.42	20.65	25.32	-29.8	-30.7	13.2	1.83e-05	0	43	0	772800512	21	3988
2026-01-01 08:57:43.43	20.40	25.24	-29.5	-30.2	13.8	7.60e-06	0	43	0	773849088	20	3933
2026-01-01 08:57:44.43	20.14	25.15	-29.3	-30.3	14.2	7.00e-07	0	43	0	775946240	19	4040
2026-01-01 08:57:45.43	19.89	25.07	-29.2	-30.0	14.4	1.50e-06	0	43	0	778043392	19	3954
2026-01-01 08:57:46.43	19.64	24.99	-29.3	-30.3	14.2	1.50e-06	0	43	0	780140544	19	4030
2026-01-01 08:57:47.43	19.39	24.91	-29.2	-29.9	14.3	1.50e-06	0	43	0	782237696	19	3921
2026-01-01 08:57:48.43	19.14	24.83	-29.0	-29.4	14.8	0.00e+00	0	43	0	783286272	19	3784
2026-01-01 08:57:49.44	18.89	24.74	-28.8	-29.0	15.0	7.00e-07	0	43	0	785383424	19	3680
2026-01-01 08:57:50.44	18.64	24.66	-28.7	-29.3	15.1	0.00e+00	0	43	0	787480576	18	3841
2026-01-01 08:57:51.44	18.40	24.58	-28.6	-29.0	15.2	0.00e+00	0	43	0	789577728	18	3775
2026-01-01 08:57:52.44	18.15	24.50	-28.6	-29.0	15.2	0.00e+00	0	43	0	791674880	18	3779
2026-01-01 08:57:53.44	17.91	24.41	-28.7	-29.3	15.1	0.00e+00	0	43	0	792723456	18	3852
2026-01-01 08:57:54.44	17.67	24.33	-28.6	-29.0	15.3	0.00e+00	0	43	0	794820608	18	3774
2026-01-01 08:57:55.45	17.43	24.24	-28.5	-28.8	15.4	0.00e+00	0	43	0	796917760	18	3713
2026-01-01 08:57:56.45	17.19	24.16	-28.3	-28.3	15.7	0.00e+00	0	43	0	799014912	18	3582
2026-01-01 08:57:57.46	16.95	24.07	-28.3	-28.7	15.7	0.00e+00	0	43	0	801112064	17	3783
2026-01-01 08:57:58.46	16.71	23.99	-28.1	-28.4	15.9	0.00e+00	0	43	0	802160640	17	3701
2026-01-01 08:57:59.47	16.47	23.90	-28.4	-28.9	15.6	0.00e+00	0	43	0	804257792	17	3839
2026-01-01 08:58:00.46	16.24	23.82	-28.4	-29.1	15.5	0.00e+00	0	43	0	806354944	17	3881
2026-01-01 08:58:01.47	16.01	23.73	-28.6	-29.5	15.1	0.00e+00	0	43	0	808452096	17	3993
2026-01-01 08:58:02.48	15.78	23.64	-28.8	-30.0	14.9	0.00e+00	0	43	0	810549248	17	4154
2026-01-01 08:58:03.48	15.55	23.56	-28.8	-30.1	14.8	7.00e-07	0	43	0	811597824	17	4174
2026-01-01 08:58:04.49	15.32	23.47	-28.8	-30.2	14.8	0.00e+00	0	43	0	813694976	17	4186
2026-01-01 08:58:05.49	15.09	23.38	-28.8	-30.1	14.8	7.00e-07	0	43	0	815792128	17	4169
2026-01-01 08:58:06.50	14.86	23.29	-28.9	-30.3	14.7	7.00e-07	0	43	0	817889280	17	4223
2026-01-01 08:58:07.50	14.64	23.21	-28.9	-30.4	14.7	0.00e+00	0	43	0	818937856	17	4259
2026-01-01 08:58:08.51	14.41	23.12	-29.0	-29.9	14.6	7.00e-07	0	43	0	821035008	18	4030
2026-01-01 08:58:09.51	14.19	23.03	-28.9	-29.8	14.7	0.00e+00	0	43	0	823132160	18	3990
2026-01-01 08:58:10.51	13.97	22.94	-29.0	-30.0	14.6	0.00e+00	0	43	0	825229312	18	4041
2026-01-01 08:58:11.51	13.75	22.86	-28.9	-29.8	14.7	7.00e-07	0	43	0	827326464	18	3992
2026-01-01 08:58:12.51	13.53	22.77	-28.8	-29.5	14.9	0.00e+00	0	43	0	828375040	18	3901
2026-01-01 08:58:13.52	13.31	22.68	-28.7	-29.2	15.0	0.00e+00	0	43	0	830472192	18	3836
2026-01-01 08:58:14.51	13.10	22.59	-28.5	-28.8	15.3	0.00e+00	0	43	0	832569344	18	3731
2026-01-01 08:58:15.51	12.89	22.50	-28.0	-28.2	15.9	0.00e+00	0	43	0	834666496	17	3658
2026-01-01 08:58:16.51	12.67	22.42	-28.0	-28.0	16.0	0.00e+00	0	43	0	836763648	17	3606
2026-01-01 08:58:17.51	12.46	22.33	-27.9	-27.9	16.1	0.00e+00	0	43	0	837812224	17	3579
2026-01-01 08:58:18.52	12.25	22.24	-28.0	-28.0	16.0	0.00e+00	0	43	0	839909376	17	3609
2026-01-01 08:58:19.52	12.04	22.15	-28.2	-28.4	15.8	0.00e+00	0	43	0	842006528	17	3716
2026-01-01 08:58:20.52	11.83	22.06	-28.2	-28.5	15.7	0.00e+00	0	43	0	844103680	17	3740
2026-01-01 08:58:21.52	11.62	21.97	-28.5	-29.3	15.3	0.00e+00	0	43	0	846200832	17	3935
2026-01-01 08:58:22.52	11.42	21.88	-28.6	-29.6	15.1	0.00e+00	0	43	0	847249408	17	4031
2026-01-01 08:58:23.53	11.21	21.79	-28.8	-30.0	14.9	0.00e+00	0	43	0	849346560	17	4146
2026-01-01 08:58:24.54	11.01	21.70	-28.8	-30.0	14.9	0.00e+00	0	43	0	851443712	17	4135
2026-01-01 08:58:25.54	10.80	21.61	-28.6	-29.6	15.1	0.00e+00	0	43	0	853540864	17	4019
2026-01-01 08:58:26.54	10.60	21.52	-28.4	-29.2	15.3	0.00e+00	0	43	0	855638016	17	3907
2026-01-01 08:58:27.55	10.40	21.43	-28.6	-29.5	15.1	0.00e+00	0	43	0	856686592	17	4006
2026-01-01 08:58:28.56	10.20	21.34	-28.6	-29.4	15.2	0.00e+00	0	43	0	858783744	17	3983
2026-01-01 08:58:29.57	10.00	21.25	-28.7	-29.8	15.0	0.00e+00	0	43	0	860880896	17	4076
2026-01-01 08:58:30.57	9.81	21.16	-28.8	-30.0	14.8	0.00e+00	0	43	0	862978048	17	4141
2026-01-01 08:58:31.58	9.61	21.07	-28.6	-29.7	15.0	0.00e+00	0	43	0	865075200	17	4048
2026-01-01 08:58:32.58	9.41	20.98	-28.5	-29.2	15.3	0.00e+00	0	43	0	866123776	17	3920
2026-01-01 08:58:33.59	9.22	20.89	-28.6	-29.5	15.1	0.00e+00	0	43	0	868220928	17	3988
2026-01-01 08:58:34.59	9.03	20.80	-28.7	-29.9	14.9	0.00e+00	0	43	0	870318080	17	4108
2026-01-01 08:58:35.60	8.84	20.71	-28.8	-29.9	14.9	0.00e+00	0	43	0	872415232	17	4126
2026-01-01 08:58:36.60	8.65	20.62	-28.7	-29.9	14.8	0.00e+00	0	43	0	874512384	17	4127
2026-01-01 08:58:37.60	8.46	20.53	-28.6	-29.6	15.0	0.00e+00	0	43	0	875560960	17	4038
2026-01-01 08:58:38.61	8.27	20.44	-28.6	-29.5	15.1	0.00e+00	0	43	0	877658112	17	3993
2026-01-01 08:58:39.60	8.08	20.35	-28.3	-28.7	15.5	0.00e+00	0	43	0	879755264	17	3791
2026-01-01 08:58:40.60	7.90	20.26	-28.4	-28.9	15.5	0.00e+00	0	43	0	881852416	17	3848
2026-01-01 08:58:41.61	7.71	20.17	-28.4	-28.9	15.4	0.00e+00	0	43	0	883949568	17	3848
2026-01-01 08:58:42.61	7.53	20.08	-28.3	-28.7	15.5	0.00e+00	0	43	0	884998144	17	3798
2026-01-01 08:58:43.61	7.35	19.99	-28.4	-29.0	15.4	0.00e+00	0	43	0	887095296	17	3857
2026-01-01 08:58:44.61	7.17	19.90	-28.6	-29.5	15.1	0.00e+00	0	43	0	889192448	17	4004
2026-01-01 08:58:45.62	6.99	19.81	-28.8	-30.1	14.7	0.00e+00	0	43	0	891289600	17	4177
2026-01-01 08:58:46.63	6.81	19.72	-29.1	-30.2	14.3	2.20e-06	0	43	0	892338176	18	4105
2026-01-01 08:58:47.63	6.63	19.63	-29.3	-30.9	13.8	7.00e-07	0	43	0	894435328	18	4321
2026-01-01 08:58:48.64	6.45	19.54	-29.5	-30.8	13.7	6.10e-06	0	43	0	896532480	19	4190
2026-01-01 08:58:49.63	6.28	19.45	-29.4	-30.5	13.8	3.00e-06	0	43	0	898629632	19	4105
2026-01-01 08:58:50.64	6.10	19.36	-29.2	-29.9	14.2	7.00e-07	0	43	0	900726784	19	3944
2026-01-01 08:58:51.63	5.93	19.28	-29.0	-29.5	14.5	7.00e-07	0	43	0	901775360	19	3814
2026-01-01 08:58:52.63	5.76	19.19	-28.9	-29.3	14.6	7.00e-07	0	43	0	903872512	19	3779
2026-01-01 08:58:53.64	5.59	19.10	-28.8	-29.6	14.7	0.00e+00	0	43	0	905969664	18	3940
2026-01-01 08:58:54.65	5.41	19.01	-28.8	-29.5	14.8	0.00e+00	0	43	0	908066816	18	3911
2026-01-01 08:58:55.65	5.25	18.92	-28.5	-28.9	15.1	7.00e-07	0	43	0	910163968	18	3749
2026-01-01 08:58:56.66	5.08	18.83	-28.7	-29.2	14.9	0.00e+00	0	43	0	911212544	18	3838
2026-01-01 08:58:57.66	4.91	18.74	-28.7	-29.3	14.9	0.00e+00	0	43	0	913309696	18	3867
2026-01-01 08:58:58.67	4.74	18.65	-28.9	-29.8	14.6	0.00e+00	0	43	0	915406848	18	3996
2026-01-01 08:58:59.66	4.58	18.56	-29.1	-30.3	14.3	1.50e-06	0	43	0	917504000	18	4121
2026-01-01 08:59:00.66	4.41	18.47	-29.2	-30.6	14.1	1.50e-06	0	43	0	919601152	18	4214
2026-01-01 08:59:01.67	4.25	18.38	-29.5	-31.1	13.4	9.90e-06	0	43	0	920649728	19	4279
2026-01-01 08:59:02.67	4.09	18.29	-29.8	-31.6	13.1	1.14e-05	0	43	0	922746880	19	4460
2026-01-01 08:59:03.68	3.92	18.20	-29.9	-32.0	12.8	4.65e-05	0	43	0	924844032	19	4575
2026-01-01 08:59:04.68	3.76	18.11	-30.0	-31.8	12.6	4.73e-05	0	43	0	926941184	20	4450
2026-01-01 08:59:05.68	3.60	18.03	-30.2	-32.4	12.1	1.50e-04	0	43	0	929038336	20	4647
2026-01-01 08:59:06.68	3.45	17.94	-29.9	-31.5	12.7	1.30e-04	0	43	0	930086912	20	4348
2026-01-01 08:59:07.69	3.29	17.85	-29.7	-31.0	13.1	5.49e-05	0	43	0	932184064	20	4188
2026-01-01 08:59:08.69	3.13	17.76	-29.5	-30.5	13.4	2.59e-05	0	43	0	934281216	20	4031
2026-01-01 08:59:09.70	2.97	17.67	-29.4	-30.6	13.7	6.10e-06	0	43	0	936378368	19	4151
2026-01-01 08:59:10.70	2.82	17.58	-29.3	-30.4	13.8	3.80e-06	0	43	0	937426944	19	4097
2026-01-01 08:59:11.70	2.67	17.50	-29.3	-30.5	13.8	5.30e-06	0	43	0	939524096	19	4117
2026-01-01 08:59:12.70	2.51	17.41	-29.4	-30.6	13.7	1.29e-05	0	43	0	941621248	19	4140
2026-01-01 08:59:13.71	2.36	17.32	-29.4	-30.8	13.6	4.50e-06	0	43	0	943718400	19	4214
2026-01-01 08:59:14.71	2.21	17.23	-29.8	-31.8	12.9	1.75e-05	0	43	0	945815552	19	4522
2026-01-01 08:59:15.71	2.06	17.14	-29.7	-31.6	13.1	3.20e-05	0	43	0	946864128	19	4454
2026-01-01 08:59:16.71	1.91	17.06	-29.9	-32.0	12.8	7.01e-05	0	43	0	948961280	19	4600
2026-01-01 08:59:17.72	1.76	16.97	-29.8	-31.5	12.7	9.30e-05	0	43	0	951058432	20	4340
2026-01-01 08:59:18.72	1.61	16.88	-29.8	-31.4	12.7	7.01e-05	0	43	0	953155584	20	4328
2026-01-01 08:59:19.73	1.46	16.79	-29.6	-30.8	13.1	6.71e-05	0	43	0	955252736	20	4125
2026-01-01 08:59:20.72	1.32	16.71	-29.4	-30.3	13.5	1.52e-05	0	43	0	956301312	20	3983
2026-01-01 08:59:21.73	1.17	16.62	-29.4	-30.6	13.6	9.10e-06	0	43	0	958398464	19	4148
2026-01-01 08:59:22.73	1.03	16.53	-28.9	-29.5	14.4	3.80e-06	0	43	0	960495616	19	3829
2026-01-01 08:59:23.73	0.89	16.45	-29.0	-29.5	14.3	2.20e-06	0	43	0	962592768	19	3846
2026-01-01 08:59:24.74	0.74	16.36	-28.8	-29.3	14.5	7.00e-07	0	43	0	964689920	19	3774
2026-01-01 08:59:25.74	0.60	16.27	-28.8	-29.7	14.5	7.00e-07	0	43	0	965738496	18	3969
2026-01-01 08:59:26.75	0.46	16.19	-28.8	-29.6	14.6	0.00e+00	0	43	0	967835648	18	3940
2026-01-01 08:59:27.75	0.32	16.10	-28.9	-29.8	14.4	0.00e+00	0	43	0	969932800	18	4023
2026-01-01 08:59:28.76	0.18	16.01	-28.9	-30.0	14.3	0.00e+00	0	43	0	972029952	18	4055
2026-01-01 08:59:29.76	0.04	15.93	-28.9	-29.9	14.4	7.00e-07	0	43	0	974127104	18	4025
2026-01-01 08:59:30.75	359.91	15.84	-29.2	-30.8	13.8	1.50e-06	0	43	0	975175680	18	4298
2026-01-01 08:59:31.76	359.77	15.76	-29.3	-31.0	13.7	3.80e-06	0	43	0	977272832	18	4383
2026-01-01 08:59:32.76	359.63	15.67	-29.4	-31.2	13.5	1.50e-06	0	43	0	979369984	18	4448
2026-01-01 08:59:33.76	359.50	15.59	-29.4	-30.7	13.5	1.06e-05	0	43	0	981467136	19	4198
2026-01-01 08:59:34.76	359.36	15.50	-29.6	-31.2	13.2	1.67e-05	0	43	0	983564288	19	4324
2026-01-01 08:59:35.77	359.23	15.42	-29.5	-31.0	13.4	1.75e-05	0	43	0	984612864	19	4269
2026-01-01 08:59:36.77	359.10	15.33	-29.6	-31.2	13.2	1.29e-05	0	43	0	986710016	19	4333
2026-01-01 08:59:37.78	358.96	15.24	-29.5	-31.1	13.3	2.21e-05	0	43	0	988807168	19	4300
2026-01-01 08:59:38.77	358.83	15.16	-29.3	-30.4	13.7	9.90e-06	0	43	0	990904320	19	4092
2026-01-01 08:59:39.78	358.70	15.08	-29.4	-30.7	13.5	6.80e-06	0	43	0	991952896	19	4179
2026-01-01 08:59:40.78	358.57	14.99	-29.3	-30.5	13.6	1.75e-05	0	43	0	994050048	19	4141
2026-01-01 08:59:41.79	358.44	14.91	-29.4	-30.7	13.5	1.06e-05	0	43	0	996147200	19	4168
2026-01-01 08:59:42.79	358.31	14.82	-29.5	-30.9	13.3	1.29e-05	0	43	0	998244352	19	4261
2026-01-01 08:59:43.80	358.19	14.74	-29.7	-31.5	13.0	3.12e-05	0	43	0	1000341504	19	4438
2026-01-01 08:59:44.79	358.06	14.66	-29.8	-31.9	12.7	6.48e-05	0	43	0	1001390080	19	4580
2026-01-01 08:59:45.79	357.93	14.57	-30.0	-31.9	12.2	1.11e-04	0	43	0	1003487232	20	4498
2026-01-01 08:59:46.79	357.81	14.49	-30.4	-33.2	11.3	3.76e-04	0	43	0	1005584384	20	4967
2026-01-01 08:59:47.79	357.69	14.40	-30.5	-33.0	11.1	1.07e-03	0	43	0	1007681536	21	4826
2026-01-01 08:59:48.79	357.56	14.32	-30.6	-33.3	10.9	2.03e-03	0	43	0	1009778688	21	4934
2026-01-01 08:59:49.79	357.44	14.24	-30.7	-33.6	10.6	3.03e-03	0	43	0	1010827264	21	5065
2026-01-01 08:59:50.80	357.32	14.16	-30.5	-33.3	10.9	2.54e-03	0	43	0	1012924416	21	4913
2026-01-01 08:59:51.80	357.19	14.07	-30.4	-32.7	11.3	1.33e-03	0	43	0	1015021568	21	4712
2026-01-01 08:59:52.79	357.07	13.99	-30.3	-32.3	11.6	6.92e-04	0	43	0	1017118720	21	4553
2026-01-01 08:59:53.79	356.95	13.91	-30.2	-32.0	11.8	6.32e-04	0	43	0	1019215872	21	4443
2026-01-01 08:59:54.80	356.83	13.83	-30.1	-31.9	11.9	3.75e-04	0	43	0	1020264448	21	4403
2026-01-01 08:59:55.80	356.71	13.74	-30.3	-32.3	11.6	4.55e-04	0	43	0	1022361600	21	4538
2026-01-01 08:59:56.80	356.60	13.66	-30.2	-32.1	11.8	7.58e-04	0	43	0	1024458752	21	4472
2026-01-01 08:59:57.80	356.48	13.58	-30.2	-32.0	11.8	4.81e-04	0	43	0	1026555904	21	4454
2026-01-01 08:59:58.81	356.36	13.50	-30.1	-31.9	11.8	4.23e-04	0	43	0	1028653056	21	4421
2026-01-01 08:59:59.81	356.25	13.42	-30.3	-32.3	11.6	5.38e-04	0	43	0	1029701632	21	4567
2026-01-01 09:00:00.81	356.13	13.33	-30.3	-32.6	11.4	1.04e-03	0	43	0	1031798784	21	4643
2026-01-01 09:00:01.81	356.01	13.25	-30.5	-33.2	10.9	1.48e-03	0	43	0	1033895936	21	4882
2026-01-01 09:00:02.82	355.90	13.17	-30.5	-32.9	11.0	1.91e-03	0	43	0	1035993088	21	4788
2026-01-01 09:00:03.82	355.79	13.09	-30.3	-32.5	11.3	1.35e-03	0	43	0	1037041664	21	4652
2026-01-01 09:00:04.82	355.67	13.01	-30.4	-32.7	11.2	1.29e-03	0	43	0	1039138816	21	4713
2026-01-01 09:00:05.83	355.56	12.93	-30.6	-33.6	10.6	2.08e-03	0	43	0	1041235968	21	5056
2026-01-01 09:00:06.83	355.45	12.85	-30.7	-33.7	10.5	4.36e-03	0	43	0	1043333120	21	5094
2026-01-01 09:00:07.84	355.34	12.77	-30.8	-34.2	10.1	6.07e-03	0	43	0	1045430272	21	5302
2026-01-01 09:00:08.84	355.23	12.69	-30.9	-34.4	10.0	9.12e-03	0	43	0	1046478848	21	5399
2026-01-01 09:00:09.85	355.12	12.61	-30.9	-34.3	10.0	8.40e-03	0	43	0	1048576000	21	5382
2026-01-01 09:00:10.85	355.01	12.53	-30.9	-34.5	9.8	9.08e-03	0	43	0	1050673152	21	5473
2026-01-01 09:00:11.86	354.90	12.45	-30.8	-34.2	10.1	9.43e-03	0	43	0	1052770304	21	5306
2026-01-01 09:00:12.86	354.79	12.37	-30.8	-34.2	9.9	7.29e-03	0	43	0	1054867456	21	5331
2026-01-01 09:00:13.87	354.68	12.29	-30.8	-34.0	10.2	5.29e-03	0	43	0	1055916032	21	5226
2026-01-01 09:00:14.87	354.57	12.21	-30.9	-34.4	9.9	7.52e-03	0	43	0	1058013184	21	5413
2026-01-01 09:00:15.87	354.47	12.13	-30.8	-34.0	10.2	7.14e-03	0	43	0	1060110336	21	5242
2026-01-01 09:00:16.87	354.36	12.05	-30.6	-33.3	10.7	4.43e-03	0	43	0	1062207488	21	4951
2026-01-01 09:00:17.87	354.26	11.97	-30.4	-32.7	11.1	1.55e-03	0	43	0	1064304640	21	4733
2026-01-01 09:00:18.88	354.15	11.89	-30.2	-32.3	11.4	1.04e-03	0	43	0	1065353216	21	4579
2026-01-01 09:00:19.88	354.05	11.81	-30.1	-32.0	11.6	8.28e-04	0	43	0	1067450368	21	4476
2026-01-01 09:00:20.88	353.95	11.74	-30.1	-31.8	11.8	7.44e-04	0	43	0	1069547520	21	4402
2026-01-01 09:00:21.88	353.84	11.66	-30.2	-32.4	11.4	8.53e-04	0	43	0	1071644672	21	4597
2026-01-01 09:00:22.88	353.74	11.58	-30.3	-32.4	11.3	9.76e-04	0	43	0	1073741824	21	4618
2026-01-01 09:00:23.89	353.64	11.50	-30.3	-32.5	11.2	1.08e-03	0	43	0	1074790400	21	4650
2026-01-01 09:00:24.89	353.54	11.42	-30.3	-32.5	11.3	1.13e-03	0	43	0	1076887552	21	4649
2026-01-01 09:00:25.89	353.44	11.35	-30.3	-32.7	11.2	1.32e-03	0	43	0	1078984704	21	4710
2026-01-01 09:00:26.90	353.34	11.27	-30.4	-32.9	11.0	1.90e-03	0	43	0	1081081856	21	4784
2026-01-01 09:00:27.90	353.24	11.19	-30.4	-32.9	10.9	2.19e-03	0	43	0	1083179008	21	4809
2026-01-01 09:00:28.91	353.14	11.11	-30.4	-33.0	10.8	2.18e-03	0	43	0	1084227584	21	4827
2026-01-01 09:00:29.91	353.04	11.04	-30.5	-33.1	10.8	2.70e-03	0	43	0	1086324736	21	4885
2026-01-01 09:00:30.91	352.94	10.96	-30.4	-33.0	10.8	2.45e-03	0	43	0	1088421888	21	4845
2026-01-01 09:00:31.91	352.84	10.89	-30.3	-32.6	11.1	1.72e-03	0	43	0	1090519040	21	4686
2026-01-01 09:00:32.92	352.75	10.81	-30.2	-32.3	11.3	9.62e-04	0	43	0	1092616192	21	4579
2026-01-01 09:00:33.92	352.65	10.73	-30.1	-32.0	11.6	7.67e-04	0	43	0	1093664768	21	4478
2026-01-01 09:00:34.92	352.55	10.66	-30.1	-32.0	11.6	6.59e-04	0	43	0	1095761920	21	4477
2026-01-01 09:00:35.93	352.46	10.58	-29.9	-31.3	12.1	3.86e-04	0	43	0	1097859072	21	4231
2026-01-01 09:00:36.93	352.36	10.50	-29.9	-31.4	11.9	3.47e-04	0	43	0	1099956224	21	4271
2026-01-01 09:00:37.93	352.27	10.43	-29.7	-31.3	12.4	3.12e-04	0	43	0	1101004800	20	4310
2026-01-01 09:00:38.93	352.18	10.35	-29.5	-30.8	12.7	6.79e-05	0	43	0	1103101952	20	4154
2026-01-01 09:00:39.93	352.08	10.28	-29.4	-30.3	13.0	5.49e-05	0	43	0	1105199104	20	4023
2026-01-01 09:00:40.94	351.99	10.20	-29.4	-30.5	12.9	3.89e-05	0	43	0	1107296256	20	4084
2026-01-01 09:00:41.94	351.90	10.13	-29.4	-30.5	12.9	4.73e-05	0	43	0	1109393408	20	4064
2026-01-01 09:00:42.94	351.81	10.05	-29.5	-30.6	12.9	4.04e-05	0	43	0	1110441984	20	4095
2026-01-01 09:00:43.95	351.71	9.98	-29.5	-30.9	12.7	7.70e-05	0	43	0	1112539136	20	4184
2026-01-01 09:00:44.95	351.62	9.90	-29.8	-31.4	12.3	1.39e-04	0	43	0	1114636288	20	4371
2026-01-01 09:00:45.95	351.53	9.83	-29.7	-31.4	12.2	1.56e-04	0	43	0	1116733440	20	4371
2026-01-01 09:00:46.95	351.44	9.75	-30.0	-32.1	11.7	3.22e-04	0	43	0	1118830592	20	4608
2026-01-01 09:00:47.96	351.35	9.68	-30.1	-32.4	11.5	5.14e-04	0	43	0	1119879168	20	4714
2026-01-01 09:00:48.96	351.27	9.61	-30.2	-32.8	11.3	1.08e-03	0	43	0	1121976320	20	4847
2026-01-01 09:00:49.97	351.18	9.53	-30.3	-33.2	11.0	1.55e-03	0	43	0	1124073472	20	5003
2026-01-01 09:00:50.97	351.09	9.46	-30.5	-33.7	10.6	2.84e-03	0	43	0	1126170624	20	5241
2026-01-01 09:00:51.97	351.00	9.38	-30.6	-33.5	10.4	3.81e-03	0	43	0	1128267776	21	5071
2026-01-01 09:00:52.98	350.91	9.31	-30.5	-33.5	10.3	5.13e-03	0	43	0	1129316352	21	5058
2026-01-01 09:00:53.97	350.83	9.24	-30.7	-34.0	10.0	7.15e-03	0	43	0	1131413504	21	5278
2026-01-01 09:00:54.98	350.74	9.16	-30.7	-34.0	10.0	8.26e-03	0	43	0	1133510656	21	5277
2026-01-01 09:00:55.98	350.66	9.09	-30.7	-33.9	10.0	8.17e-03	0	43	0	1135607808	21	5235
2026-01-01 09:00:56.98	350.57	9.02	-30.7	-34.1	9.9	8.68e-03	0	43	0	1137704960	21	5318
2026-01-01 09:00:57.99	350.49	8.95	-30.7	-34.1	9.8	1.10e-02	0	43	0	1138753536	21	5330
2026-01-01 09:00:58.99	350.40	8.87	-30.7	-34.2	9.7	9.84e-03	0	43	0	1140850688	21	5373
2026-01-01 09:01:00.00	350.32	8.80	-30.7	-34.1	9.8	8.83e-03	0	43	0	1142947840	21	5327
2026-01-01 09:01:01.00	350.23	8.73	-30.8	-34.3	9.7	1.08e-02	0	43	0	1145044992	21	5408
2026-01-01 09:01:02.00	350.15	8.66	-30.7	-34.2	9.8	1.03e-02	0	43	0	1146093568	21	5374
2026-01-01 09:01:03.00	350.07	8.59	-30.7	-34.0	9.9	8.98e-03	0	43	0	1148190720	21	5302
2026-01-01 09:01:04.01	349.99	8.51	-30.8	-34.4	9.6	1.02e-02	0	43	0	1150287872	21	5470
2026-01-01 09:01:05.01	349.90	8.44	-30.8	-34.6	9.4	1.15e-02	0	43	0	1152385024	21	5541
2026-01-01 09:01:06.02	349.82	8.37	-30.6	-33.8	10.0	1.09e-02	0	43	0	1154482176	21	5211
2026-01-01 09:01:07.02	349.74	8.30	-30.6	-33.7	10.1	7.33e-03	0	43	0	1156579328	21	5152
2026-01-01 09:01:08.02	349.66	8.23	-30.5	-33.4	10.3	6.74e-03	0	43	0	1157627904	21	5042
2026-01-01 09:01:09.03	349.58	8.16	-30.4	-33.2	10.5	4.28e-03	0	43	0	1159725056	21	4942
2026-01-01 09:01:10.03	349.50	8.09	-30.5	-33.4	10.2	4.32e-03	0	43	0	1161822208	21	5043
2026-01-01 09:01:11.03	349.42	8.02	-30.4	-33.2	10.4	4.61e-03	0	43	0	1163919360	21	4964
2026-01-01 09:01:12.03	349.34	7.94	-30.3	-32.9	10.7	3.28e-03	0	43	0	1164967936	21	4829
2026-01-01 09:01:13.03	349.26	7.87	-30.4	-33.0	10.6	2.59e-03	0	43	0	1167065088	21	4873
2026-01-01 09:01:14.03	349.19	7.80	-30.3	-32.9	10.7	3.70e-03	0	43	0	1169162240	21	4820
2026-01-01 09:01:15.03	349.11	7.73	-30.3	-32.7	10.8	2.90e-03	0	43	0	1171259392	21	4780
2026-01-01 09:01:16.04	349.03	7.66	-30.3	-32.7	10.7	2.67e-03	0	43	0	1173356544	21	4776
2026-01-01 09:01:17.04	348.95	7.59	-30.3	-32.9	10.6	2.90e-03	0	43	0	1174405120	21	4838
2026-01-01 09:01:18.04	348.88	7.52	-30.4	-33.0	10.5	3.70e-03	0	43	0	1176502272	21	4878
2026-01-01 09:01:19.05	348.80	7.45	-30.4	-33.1	10.4	3.65e-03	0	43	0	1178599424	21	4903
2026-01-01 09:01:20.05	348.73	7.39	-30.4	-33.3	10.4	3.67e-03	0	43	0	1180696576	21	4987
2026-01-01 09:01:21.05	348.65	7.32	-30.5	-33.6	10.1	5.67e-03	0	43	0	1182793728	21	5115
2026-01-01 09:01:22.06	348.57	7.25	-30.5	-33.5	10.1	5.92e-03	0	43	0	1183842304	21	5110
2026-01-01 09:01:23.06	348.50	7.18	-30.5	-33.6	10.0	7.02e-03	0	43	0	1185939456	21	5144
2026-01-01 09:01:24.06	348.43	7.11	-30.5	-33.7	10.0	7.88e-03	0	43	0	1188036608	21	5178
2026-01-01 09:01:25.06	348.35	7.04	-32.7	-43.8	3.8	8.06e-01	0	43	104	1189085184	25	13050

#Closed at: 2026-01-01 09:01:25
#Recorded file [1189 MB]: D:/data/31010_260101_115050.dat