passes_logs/2026/01/01/R2M6_AANII_01/R2M6_AANII_01__20260101_082158_NOAA_21_JPSS-2_rec.log

#Pass ID: 20260101_082158_NOAA 21 (JPSS-2)
#Satellite: NOAA 21 (JPSS-2)
#Configuration: NOAA 21
#almurnet v.1.7.20240730
#Start time: 2026-01-01 08:21:59

#Version: 2.2.20231116
#Station: R2M6_AANII_01
#Location: 30.233357 lon 59.946436 lat
#TLE: 1 54234U 22150A   25365.42224288  .00000199  00000+0  11529-3 0  9990
#TLE: 2 54234  98.7483 301.4995 0001320 356.2106   3.9060 14.19530300162743

#Time	Az	El	Level	Level2	SNR	BER	BlckErr	Temp	State	Recorded	gain1	gain2
2026-01-01 08:21:59.92	99.58	7.12	-31.1	-42.5	3.8	1.49e+00	0	40	0	0	23	13321
2026-01-01 08:22:00.90	99.49	7.18	-31.1	-42.4	3.8	1.49e+00	0	41	104	0	23	13267
2026-01-01 08:22:01.91	99.39	7.24	-31.0	-42.2	3.8	1.49e+00	0	40	104	0	23	13095
2026-01-01 08:22:02.92	99.30	7.31	-30.9	-42.0	3.8	1.49e+00	0	41	104	0	23	12901
2026-01-01 08:22:03.92	99.20	7.37	-30.8	-41.9	3.8	1.49e+00	0	41	104	0	23	12855
2026-01-01 08:22:04.92	99.11	7.44	-30.7	-42.1	3.8	1.49e+00	0	41	104	0	22	13279
2026-01-01 08:22:05.93	99.01	7.50	-30.6	-41.5	3.8	1.49e+00	0	40	104	0	22	12623
2026-01-01 08:22:06.94	98.91	7.57	-30.5	-40.6	3.8	1.49e+00	0	41	104	0	22	11562
2026-01-01 08:22:07.95	98.82	7.63	-30.3	-39.2	3.9	1.49e+00	0	41	104	0	22	10053
2026-01-01 08:22:08.95	98.72	7.70	-30.2	-38.8	3.9	1.45e+00	0	41	104	0	21	9759
2026-01-01 08:22:09.95	98.62	7.76	-30.2	-37.8	4.4	1.42e+00	0	41	104	0	21	8697
2026-01-01 08:22:10.96	98.52	7.83	-30.2	-38.1	4.0	1.47e+00	0	41	104	0	21	8964
2026-01-01 08:22:11.96	98.42	7.89	-30.3	-38.7	4.2	1.45e+00	0	41	104	0	21	9473
2026-01-01 08:22:12.97	98.32	7.96	-30.3	-39.5	3.9	1.48e+00	0	41	104	0	21	10329
2026-01-01 08:22:13.97	98.22	8.02	-30.4	-39.6	4.0	1.47e+00	0	41	104	0	21	10422
2026-01-01 08:22:14.98	98.12	8.09	-30.5	-40.5	3.9	1.49e+00	0	41	104	0	21	11491
2026-01-01 08:22:15.98	98.02	8.15	-30.5	-40.9	3.8	1.49e+00	0	41	104	0	21	11987
2026-01-01 08:22:16.99	97.92	8.22	-30.5	-40.9	3.9	1.49e+00	0	41	104	0	21	11885
2026-01-01 08:22:17.99	97.82	8.28	-30.6	-41.5	3.8	1.49e+00	0	41	104	0	21	12708
2026-01-01 08:22:18.99	97.72	8.35	-30.6	-41.7	3.8	1.49e+00	0	41	104	0	21	12872
2026-01-01 08:22:19.99	97.62	8.41	-30.6	-42.1	3.8	1.49e+00	0	41	104	0	21	13462
2026-01-01 08:22:20.99	97.51	8.48	-30.6	-42.5	3.8	1.49e+00	0	41	104	0	21	14190
2026-01-01 08:22:22.00	97.41	8.54	-30.6	-42.4	3.8	1.49e+00	0	41	104	0	21	13969
2026-01-01 08:22:23.01	97.31	8.61	-30.6	-42.3	3.8	1.49e+00	0	41	104	0	21	13826
2026-01-01 08:22:24.00	97.20	8.68	-30.6	-42.3	3.8	1.49e+00	0	41	104	0	21	13996
2026-01-01 08:22:25.01	97.10	8.74	-30.5	-42.4	3.8	1.49e+00	0	41	104	0	21	14084
2026-01-01 08:22:26.01	96.99	8.81	-30.5	-42.3	3.8	1.49e+00	0	41	104	0	21	13908
2026-01-01 08:22:27.02	96.89	8.87	-30.5	-42.3	3.8	1.49e+00	0	41	104	0	21	13976
2026-01-01 08:22:28.02	96.78	8.94	-30.6	-42.4	3.8	1.49e+00	0	41	104	0	21	14113
2026-01-01 08:22:29.02	96.67	9.01	-30.6	-42.4	3.8	1.49e+00	0	41	104	0	21	14128
2026-01-01 08:22:30.02	96.57	9.07	-30.6	-42.4	3.8	1.49e+00	0	41	104	0	21	14116
2026-01-01 08:22:31.03	96.46	9.14	-30.5	-42.3	3.8	1.49e+00	0	41	104	0	21	13920
2026-01-01 08:22:32.04	96.35	9.21	-30.5	-42.1	3.8	1.49e+00	0	41	104	0	21	13758
2026-01-01 08:22:33.04	96.24	9.27	-30.5	-42.0	3.8	1.49e+00	0	41	104	0	21	13648
2026-01-01 08:22:34.05	96.13	9.34	-30.4	-42.0	3.8	1.49e+00	0	42	104	0	21	13641
2026-01-01 08:22:35.05	96.02	9.41	-30.4	-41.9	3.8	1.49e+00	0	41	104	0	21	13522
2026-01-01 08:22:36.06	95.91	9.47	-30.4	-41.6	3.8	1.49e+00	0	42	104	0	21	13103
2026-01-01 08:22:37.06	95.80	9.54	-30.4	-41.7	3.8	1.49e+00	0	42	104	0	21	13206
2026-01-01 08:22:38.06	95.69	9.61	-30.5	-41.7	3.8	1.49e+00	0	42	104	0	21	13174
2026-01-01 08:22:39.06	95.58	9.67	-30.5	-41.6	3.8	1.49e+00	0	42	104	0	21	12953
2026-01-01 08:22:40.07	95.46	9.74	-30.6	-41.4	3.8	1.49e+00	0	42	104	0	21	12534
2026-01-01 08:22:41.07	95.35	9.81	-30.7	-41.0	3.8	1.49e+00	0	42	104	0	21	11820
2026-01-01 08:22:42.07	95.24	9.87	-30.7	-40.5	3.9	1.49e+00	0	42	104	0	21	11037
2026-01-01 08:22:43.08	95.12	9.94	-30.8	-39.1	4.4	1.48e+00	0	42	104	0	21	9464
2026-01-01 08:22:44.09	95.01	10.01	-30.8	-39.0	4.0	1.33e+00	0	42	104	0	21	9291
2026-01-01 08:22:45.09	94.89	10.08	-30.5	-36.4	6.0	5.27e-01	0	42	104	0	21	7115
2026-01-01 08:22:46.10	94.78	10.15	-30.2	-34.8	7.4	1.33e-01	0	42	0	1048576	21	6091
2026-01-01 08:22:47.10	94.66	10.21	-30.0	-33.7	8.4	6.27e-02	0	42	0	4194304	21	5501
2026-01-01 08:22:48.10	94.55	10.28	-30.0	-33.5	8.8	3.17e-02	0	42	0	7340032	21	5369
2026-01-01 08:22:49.11	94.43	10.35	-30.1	-33.8	8.8	2.93e-02	0	42	0	10485760	21	5470
2026-01-01 08:22:50.11	94.31	10.42	-30.7	-35.9	7.3	9.58e-02	0	42	0	13631488	21	6520
2026-01-01 08:22:51.11	94.19	10.48	-30.8	-36.2	7.1	1.41e-01	0	42	0	16777216	21	6688
2026-01-01 08:22:52.12	94.07	10.55	-30.7	-35.6	7.7	1.17e-01	0	42	0	19922944	21	6306
2026-01-01 08:22:53.12	93.95	10.62	-30.6	-35.1	8.1	6.04e-02	0	42	0	23068672	21	6045
2026-01-01 08:22:54.12	93.83	10.69	-30.9	-35.9	7.6	8.32e-02	0	42	0	26214400	21	6439
2026-01-01 08:22:55.12	93.71	10.76	-30.8	-35.6	7.8	7.99e-02	0	42	0	29360128	21	6289
2026-01-01 08:22:56.13	93.59	10.82	-30.7	-35.4	8.0	6.22e-02	0	42	0	32505856	21	6165
2026-01-01 08:22:57.13	93.47	10.89	-30.9	-35.9	7.7	9.58e-02	0	42	0	35651584	21	6427
2026-01-01 08:22:58.13	93.35	10.96	-30.6	-34.9	8.4	5.00e-02	0	42	0	38797312	21	5926
2026-01-01 08:22:59.13	93.23	11.03	-30.3	-33.8	9.3	2.79e-02	0	42	0	41943040	21	5376
2026-01-01 08:23:00.13	93.10	11.10	-29.9	-32.6	10.1	8.78e-03	0	42	0	45088768	21	4926
2026-01-01 08:23:01.14	92.98	11.17	-29.6	-32.2	10.8	3.58e-03	0	42	0	48234496	20	4885
2026-01-01 08:23:02.14	92.85	11.23	-29.2	-31.5	11.7	7.97e-04	0	42	0	51380224	19	4705
2026-01-01 08:23:03.14	92.73	11.30	-28.9	-30.7	12.2	2.62e-04	0	42	0	54525952	19	4465
2026-01-01 08:23:04.14	92.60	11.37	-28.5	-30.4	12.8	9.61e-05	0	42	0	57671680	18	4453
2026-01-01 08:23:05.15	92.48	11.44	-28.3	-29.9	13.1	4.11e-05	0	42	0	60817408	18	4304
2026-01-01 08:23:06.15	92.35	11.51	-28.1	-29.8	13.4	2.59e-05	0	42	0	63963136	17	4369
2026-01-01 08:23:07.15	92.22	11.58	-28.1	-29.8	13.4	1.37e-05	0	42	0	67108864	17	4386
2026-01-01 08:23:08.15	92.09	11.65	-28.1	-29.7	13.5	1.29e-05	0	42	0	70254592	17	4338
2026-01-01 08:23:09.15	91.97	11.72	-27.8	-29.1	13.9	3.00e-06	0	42	0	73400320	17	4179
2026-01-01 08:23:10.16	91.84	11.79	-27.6	-29.1	14.2	4.50e-06	0	42	0	76546048	16	4270
2026-01-01 08:23:11.16	91.71	11.85	-27.4	-28.7	14.4	7.00e-07	0	42	0	78643200	16	4164
2026-01-01 08:23:12.16	91.58	11.92	-27.5	-28.7	14.4	0.00e+00	0	42	0	81788928	16	4174
2026-01-01 08:23:13.16	91.44	11.99	-27.5	-28.9	14.3	2.20e-06	0	42	0	84934656	16	4217
2026-01-01 08:23:14.17	91.31	12.06	-27.5	-28.9	14.3	7.00e-07	0	42	0	88080384	16	4226
2026-01-01 08:23:15.17	91.18	12.13	-27.7	-29.2	14.2	7.00e-07	0	42	0	91226112	16	4310
2026-01-01 08:23:16.17	91.05	12.20	-27.6	-29.1	14.3	3.80e-06	0	42	0	95420416	16	4266
2026-01-01 08:23:17.17	90.91	12.27	-27.7	-29.2	14.2	0.00e+00	0	42	0	97517568	16	4291
2026-01-01 08:23:18.16	90.78	12.34	-27.6	-29.1	14.3	0.00e+00	0	42	0	100663296	16	4276
2026-01-01 08:23:19.17	90.64	12.41	-27.6	-29.1	14.2	0.00e+00	0	42	0	103809024	16	4279
2026-01-01 08:23:20.18	90.51	12.48	-27.5	-28.9	14.4	7.00e-07	0	42	0	106954752	16	4221
2026-01-01 08:23:21.18	90.37	12.55	-27.5	-28.8	14.4	0.00e+00	0	42	0	110100480	16	4188
2026-01-01 08:23:22.19	90.23	12.62	-27.5	-28.7	14.5	0.00e+00	0	42	0	113246208	16	4163
2026-01-01 08:23:23.19	90.10	12.69	-27.6	-29.0	14.4	7.00e-07	0	42	0	116391936	16	4232
2026-01-01 08:23:24.19	89.96	12.76	-27.3	-28.4	14.7	0.00e+00	0	42	0	119537664	16	4080
2026-01-01 08:23:25.19	89.82	12.82	-27.4	-28.5	14.6	2.20e-06	0	42	0	122683392	16	4101
2026-01-01 08:23:26.19	89.68	12.89	-27.4	-28.5	14.6	0.00e+00	0	42	0	125829120	16	4113
2026-01-01 08:23:27.20	89.54	12.96	-27.4	-28.6	14.6	1.50e-06	0	42	0	128974848	16	4137
2026-01-01 08:23:28.20	89.40	13.03	-27.4	-28.7	14.6	0.00e+00	0	42	0	132120576	16	4147
2026-01-01 08:23:29.20	89.26	13.10	-27.5	-28.8	14.5	7.00e-07	0	42	0	135266304	16	4187
2026-01-01 08:23:30.20	89.11	13.17	-27.5	-28.9	14.5	7.00e-07	0	42	0	138412032	16	4212
2026-01-01 08:23:31.21	88.97	13.24	-27.6	-29.0	14.4	7.00e-07	0	42	0	141557760	16	4231
2026-01-01 08:23:32.21	88.83	13.31	-27.5	-28.9	14.5	7.00e-07	0	42	0	144703488	16	4199
2026-01-01 08:23:33.22	88.68	13.38	-27.3	-28.3	14.8	0.00e+00	0	42	0	147849216	16	4055
2026-01-01 08:23:34.21	88.54	13.45	-27.0	-28.3	15.0	0.00e+00	0	42	0	150994944	15	4146
2026-01-01 08:23:35.22	88.39	13.52	-27.0	-28.3	15.0	0.00e+00	0	42	0	154140672	15	4136
2026-01-01 08:23:36.22	88.24	13.59	-27.0	-28.2	15.0	0.00e+00	0	42	0	157286400	15	4120
2026-01-01 08:23:37.23	88.10	13.66	-27.1	-28.5	14.9	0.00e+00	0	42	0	160432128	15	4198
2026-01-01 08:23:38.23	87.95	13.73	-27.3	-28.9	14.7	7.00e-07	0	42	0	163577856	15	4314
2026-01-01 08:23:39.24	87.80	13.80	-27.2	-28.6	14.8	0.00e+00	0	42	0	166723584	15	4248
2026-01-01 08:23:40.24	87.65	13.87	-27.2	-28.7	14.7	0.00e+00	0	42	0	169869312	15	4263
2026-01-01 08:23:41.24	87.50	13.94	-27.4	-29.0	14.6	0.00e+00	0	42	0	173015040	15	4347
2026-01-01 08:23:42.24	87.35	14.01	-27.5	-29.3	14.4	7.00e-07	0	42	0	176160768	15	4444
2026-01-01 08:23:43.25	87.20	14.08	-27.4	-29.2	14.5	7.00e-07	0	43	0	179306496	15	4398
2026-01-01 08:23:44.25	87.04	14.15	-27.5	-29.2	14.5	0.00e+00	0	42	0	182452224	15	4415
2026-01-01 08:23:45.25	86.89	14.22	-27.5	-29.4	14.4	7.00e-07	0	43	0	185597952	15	4480
2026-01-01 08:23:46.26	86.74	14.29	-27.4	-29.1	14.5	1.50e-06	0	43	0	188743680	15	4388
2026-01-01 08:23:47.27	86.58	14.36	-27.4	-29.0	14.7	7.00e-07	0	42	0	191889408	15	4342
2026-01-01 08:23:48.27	86.43	14.43	-27.4	-29.1	14.6	1.50e-06	0	42	0	195035136	15	4370
2026-01-01 08:23:49.28	86.27	14.50	-27.4	-29.0	14.6	7.00e-07	0	42	0	198180864	15	4358
2026-01-01 08:23:50.29	86.11	14.57	-27.4	-29.0	14.6	0.00e+00	0	42	0	201326592	15	4363
2026-01-01 08:23:51.30	85.95	14.64	-27.4	-29.2	14.6	7.00e-07	0	42	0	204472320	15	4401
2026-01-01 08:23:52.30	85.80	14.71	-27.4	-29.2	14.6	0.00e+00	0	43	0	207618048	15	4395
2026-01-01 08:23:53.30	85.64	14.78	-27.5	-29.4	14.4	7.00e-07	0	42	0	210763776	15	4468
2026-01-01 08:23:54.30	85.48	14.85	-27.6	-29.6	14.3	3.80e-06	0	42	0	213909504	15	4525
2026-01-01 08:23:55.30	85.32	14.92	-27.5	-29.3	14.5	0.00e+00	0	43	0	217055232	15	4446
2026-01-01 08:23:56.30	85.16	14.99	-27.5	-29.4	14.4	7.00e-07	0	42	0	220200960	15	4474
2026-01-01 08:23:57.30	84.99	15.06	-27.6	-29.4	14.4	0.00e+00	0	42	0	223346688	15	4475
2026-01-01 08:23:58.30	84.83	15.13	-27.4	-29.1	14.6	7.00e-07	0	43	0	226492416	15	4362
2026-01-01 08:23:59.30	84.67	15.20	-27.3	-28.9	14.7	0.00e+00	0	42	0	229638144	15	4314
2026-01-01 08:24:00.30	84.51	15.27	-27.3	-28.9	14.8	3.80e-06	0	42	0	232783872	15	4312
2026-01-01 08:24:01.30	84.34	15.34	-27.2	-28.7	14.9	0.00e+00	0	42	0	235929600	15	4252
2026-01-01 08:24:02.31	84.17	15.41	-27.2	-28.7	14.9	0.00e+00	0	42	0	239075328	15	4257
2026-01-01 08:24:03.31	84.01	15.48	-27.3	-28.9	14.8	1.50e-06	0	42	0	242221056	15	4306
2026-01-01 08:24:04.32	83.84	15.55	-27.3	-28.9	14.8	0.00e+00	0	43	0	245366784	15	4309
2026-01-01 08:24:05.32	83.67	15.62	-27.3	-28.8	14.8	0.00e+00	0	42	0	248512512	15	4283
2026-01-01 08:24:06.32	83.50	15.69	-27.3	-28.8	14.8	0.00e+00	0	42	0	251658240	15	4286
2026-01-01 08:24:07.32	83.33	15.76	-27.1	-28.4	15.1	0.00e+00	0	42	0	254803968	15	4182
2026-01-01 08:24:08.32	83.16	15.82	-27.1	-28.4	15.1	0.00e+00	0	43	0	257949696	15	4160
2026-01-01 08:24:09.33	82.99	15.89	-27.0	-28.2	15.2	1.50e-06	0	42	0	261095424	15	4107
2026-01-01 08:24:10.33	82.82	15.96	-27.1	-28.3	15.1	0.00e+00	0	43	0	264241152	15	4146
2026-01-01 08:24:11.34	82.64	16.03	-27.1	-28.4	15.1	7.00e-07	0	43	0	267386880	15	4181
2026-01-01 08:24:12.34	82.47	16.10	-27.2	-28.6	14.9	0.00e+00	0	43	0	270532608	15	4229
2026-01-01 08:24:13.34	82.30	16.17	-27.2	-28.7	14.9	0.00e+00	0	43	0	273678336	15	4240
2026-01-01 08:24:14.34	82.12	16.24	-27.2	-28.7	14.9	0.00e+00	0	43	0	276824064	15	4246
2026-01-01 08:24:15.34	81.95	16.31	-27.3	-28.9	14.8	0.00e+00	0	43	0	279969792	15	4300
2026-01-01 08:24:16.34	81.77	16.37	-27.4	-29.0	14.7	0.00e+00	0	42	0	283115520	15	4338
2026-01-01 08:24:17.35	81.59	16.44	-27.4	-29.0	14.7	0.00e+00	0	42	0	286261248	15	4347
2026-01-01 08:24:18.35	81.41	16.51	-27.3	-28.9	14.8	0.00e+00	0	42	0	289406976	15	4307
2026-01-01 08:24:19.35	81.23	16.58	-27.3	-28.8	14.9	7.00e-07	0	43	0	292552704	15	4294
2026-01-01 08:24:20.35	81.05	16.65	-27.4	-29.1	14.7	0.00e+00	0	42	0	295698432	15	4380
2026-01-01 08:24:21.35	80.87	16.72	-27.5	-29.2	14.7	0.00e+00	0	43	0	298844160	15	4402
2026-01-01 08:24:22.36	80.69	16.78	-27.5	-29.2	14.6	0.00e+00	0	43	0	301989888	15	4404
2026-01-01 08:24:23.36	80.51	16.85	-27.6	-29.6	14.4	0.00e+00	0	43	0	305135616	15	4503
2026-01-01 08:24:24.35	80.33	16.92	-27.5	-29.2	14.6	5.30e-06	0	43	0	308281344	15	4400
2026-01-01 08:24:25.36	80.14	16.99	-27.5	-29.2	14.6	0.00e+00	0	43	0	311427072	15	4409
2026-01-01 08:24:26.36	79.95	17.05	-27.5	-29.3	14.6	0.00e+00	0	43	0	314572800	15	4428
2026-01-01 08:24:27.36	79.77	17.12	-27.6	-29.4	14.5	7.00e-07	0	43	0	317718528	15	4459
2026-01-01 08:24:28.36	79.58	17.19	-27.7	-29.8	14.3	0.00e+00	0	43	0	320864256	15	4564
2026-01-01 08:24:29.37	79.39	17.26	-27.7	-29.8	14.4	2.20e-06	0	43	0	324009984	15	4557
2026-01-01 08:24:30.37	79.21	17.32	-27.5	-29.3	14.6	0.00e+00	0	43	0	327155712	15	4418
2026-01-01 08:24:31.37	79.02	17.39	-27.5	-29.2	14.7	7.00e-07	0	43	0	330301440	15	4378
2026-01-01 08:24:32.35	78.83	17.46	-27.5	-29.2	14.7	0.00e+00	0	43	0	333447168	15	4380
2026-01-01 08:24:33.36	78.64	17.52	-27.5	-29.2	14.7	0.00e+00	0	43	0	336592896	15	4382
2026-01-01 08:24:34.36	78.45	17.59	-27.5	-29.3	14.6	7.00e-07	0	43	0	339738624	15	4430
2026-01-01 08:24:35.36	78.25	17.66	-27.5	-29.3	14.6	1.50e-06	0	43	0	342884352	15	4426
2026-01-01 08:24:36.36	78.06	17.72	-27.4	-29.0	14.8	7.00e-07	0	43	0	346030080	15	4341
2026-01-01 08:24:37.37	77.86	17.79	-27.3	-28.9	14.9	0.00e+00	0	43	0	349175808	15	4307
2026-01-01 08:24:38.37	77.67	17.85	-27.4	-29.0	14.8	0.00e+00	0	43	0	352321536	15	4318
2026-01-01 08:24:39.37	77.47	17.92	-27.3	-28.7	15.0	0.00e+00	0	43	0	355467264	15	4250
2026-01-01 08:24:40.37	77.28	17.98	-27.3	-28.7	15.0	0.00e+00	0	43	0	357564416	15	4252
2026-01-01 08:24:41.38	77.08	18.05	-27.2	-28.6	15.0	0.00e+00	0	43	0	360710144	15	4224
2026-01-01 08:24:42.39	76.88	18.12	-27.4	-28.9	14.9	0.00e+00	0	43	0	363855872	15	4316
2026-01-01 08:24:43.38	76.68	18.18	-27.3	-28.8	14.9	7.00e-07	0	43	0	367001600	15	4290
2026-01-01 08:24:44.39	76.48	18.24	-27.4	-29.0	14.8	0.00e+00	0	43	0	370147328	15	4323
2026-01-01 08:24:45.39	76.28	18.31	-27.3	-28.8	15.0	0.00e+00	0	43	0	373293056	15	4265
2026-01-01 08:24:46.40	76.07	18.37	-27.2	-28.6	15.0	0.00e+00	0	42	0	376438784	15	4227
2026-01-01 08:24:47.40	75.87	18.44	-27.2	-28.5	15.1	0.00e+00	0	43	0	379584512	15	4202
2026-01-01 08:24:48.39	75.67	18.50	-27.2	-28.4	15.1	7.00e-07	0	43	0	382730240	15	4179
2026-01-01 08:24:49.40	75.46	18.57	-27.2	-28.5	15.2	0.00e+00	0	43	0	385875968	15	4180
2026-01-01 08:24:50.40	75.26	18.63	-27.1	-28.3	15.2	0.00e+00	0	43	0	389021696	15	4155
2026-01-01 08:24:51.41	75.05	18.69	-27.2	-28.4	15.2	0.00e+00	0	43	0	392167424	15	4174
2026-01-01 08:24:52.41	74.84	18.76	-27.2	-28.5	15.1	0.00e+00	0	43	0	395313152	15	4203
2026-01-01 08:24:53.42	74.63	18.82	-27.1	-28.4	15.2	0.00e+00	0	43	0	398458880	15	4161
2026-01-01 08:24:54.43	74.42	18.88	-27.1	-28.3	15.2	0.00e+00	0	43	0	401604608	15	4133
2026-01-01 08:24:55.43	74.21	18.94	-27.1	-28.3	15.2	0.00e+00	0	43	0	404750336	15	4129
2026-01-01 08:24:56.43	74.00	19.01	-27.1	-28.3	15.2	0.00e+00	0	43	0	407896064	15	4130
2026-01-01 08:24:57.44	73.79	19.07	-27.2	-28.5	15.1	0.00e+00	0	43	0	411041792	15	4192
2026-01-01 08:24:58.44	73.58	19.13	-27.1	-28.4	15.2	0.00e+00	0	43	0	414187520	15	4157
2026-01-01 08:24:59.44	73.36	19.19	-27.2	-28.6	15.0	7.00e-07	0	43	0	417333248	15	4233
2026-01-01 08:25:00.44	73.15	19.25	-27.2	-28.6	15.1	0.00e+00	0	43	0	420478976	15	4211
2026-01-01 08:25:01.44	72.93	19.31	-27.0	-28.1	15.4	7.00e-07	0	43	0	423624704	15	4091
2026-01-01 08:25:02.44	72.72	19.37	-27.0	-28.0	15.4	9.10e-06	0	43	0	426770432	15	4066
2026-01-01 08:25:03.44	72.50	19.43	-27.0	-28.0	15.4	0.00e+00	0	43	0	429916160	15	4050
2026-01-01 08:25:04.45	72.28	19.49	-27.0	-28.0	15.4	0.00e+00	0	43	0	433061888	15	4060
2026-01-01 08:25:05.45	72.06	19.55	-27.0	-28.0	15.4	0.00e+00	0	43	0	436207616	15	4054
2026-01-01 08:25:06.45	71.84	19.61	-26.9	-27.9	15.5	7.00e-07	0	43	0	439353344	15	4042
2026-01-01 08:25:07.46	71.62	19.67	-26.9	-28.0	15.4	0.00e+00	0	43	0	442499072	15	4050
2026-01-01 08:25:08.46	71.40	19.73	-26.9	-27.9	15.5	7.00e-07	0	43	0	445644800	15	4039
2026-01-01 08:25:09.46	71.18	19.79	-26.9	-27.8	15.5	0.00e+00	0	43	0	448790528	15	4012
2026-01-01 08:25:10.46	70.96	19.85	-27.0	-28.1	15.4	0.00e+00	0	43	0	451936256	15	4094
2026-01-01 08:25:11.47	70.73	19.90	-27.0	-28.1	15.4	7.00e-07	0	43	0	455081984	15	4091
2026-01-01 08:25:12.47	70.51	19.96	-26.9	-27.8	15.5	0.00e+00	0	43	0	458227712	15	4010
2026-01-01 08:25:13.47	70.28	20.02	-26.8	-27.6	15.7	0.00e+00	0	43	0	461373440	15	3963
2026-01-01 08:25:14.48	70.06	20.07	-26.9	-28.0	15.4	5.30e-06	0	43	0	464519168	15	4048
2026-01-01 08:25:15.48	69.83	20.13	-27.0	-28.0	15.5	7.00e-07	0	43	0	467664896	15	4050
2026-01-01 08:25:16.49	69.60	20.19	-26.8	-27.7	15.6	0.00e+00	0	43	0	470810624	15	3988
2026-01-01 08:25:17.50	69.37	20.24	-26.8	-27.7	15.6	2.20e-06	0	43	0	473956352	15	3989
2026-01-01 08:25:18.50	69.14	20.30	-26.8	-27.7	15.6	0.00e+00	0	43	0	477102080	15	3995
2026-01-01 08:25:19.51	68.91	20.35	-26.9	-27.8	15.5	0.00e+00	0	43	0	480247808	15	4018
2026-01-01 08:25:20.52	68.67	20.41	-26.8	-27.7	15.6	0.00e+00	0	43	0	483393536	15	3988
2026-01-01 08:25:21.52	68.44	20.46	-26.8	-28.1	15.7	0.00e+00	0	43	0	486539264	14	4191
2026-01-01 08:25:22.52	68.21	20.52	-26.8	-28.2	15.7	0.00e+00	0	43	0	489684992	14	4205
2026-01-01 08:25:23.52	67.98	20.57	-26.7	-27.9	15.8	7.00e-07	0	43	0	492830720	14	4132
2026-01-01 08:25:24.53	67.74	20.62	-26.7	-28.0	15.8	0.00e+00	0	43	0	495976448	14	4159
2026-01-01 08:25:25.53	67.50	20.68	-26.8	-28.1	15.7	0.00e+00	0	43	0	499122176	14	4191
2026-01-01 08:25:26.54	67.27	20.73	-26.8	-28.1	15.7	0.00e+00	0	43	0	502267904	14	4182
2026-01-01 08:25:27.54	67.03	20.78	-26.7	-28.0	15.7	0.00e+00	0	43	0	505413632	14	4151
2026-01-01 08:25:28.54	66.79	20.83	-26.6	-27.7	15.9	0.00e+00	0	43	0	508559360	14	4078
2026-01-01 08:25:29.54	66.55	20.88	-26.7	-27.9	15.8	0.00e+00	0	43	0	511705088	14	4123
2026-01-01 08:25:30.55	66.31	20.93	-26.7	-27.9	15.8	0.00e+00	0	43	0	514850816	14	4121
2026-01-01 08:25:31.55	66.07	20.98	-26.7	-27.8	15.9	0.00e+00	0	43	0	517996544	14	4107
2026-01-01 08:25:32.55	65.83	21.03	-26.5	-27.5	16.0	0.00e+00	0	43	0	521142272	14	4043
2026-01-01 08:25:33.56	65.59	21.08	-26.5	-27.4	16.1	0.00e+00	0	43	0	524288000	14	3993
2026-01-01 08:25:34.56	65.35	21.13	-26.5	-27.5	16.1	0.00e+00	0	43	0	527433728	14	4022
2026-01-01 08:25:35.56	65.11	21.18	-26.5	-27.4	16.1	0.00e+00	0	43	0	530579456	14	4000
2026-01-01 08:25:36.56	64.86	21.23	-26.4	-27.2	16.2	0.00e+00	0	43	0	533725184	14	3956
2026-01-01 08:25:37.56	64.62	21.28	-26.5	-27.5	16.1	0.00e+00	0	43	0	536870912	14	4023
2026-01-01 08:25:38.56	64.37	21.32	-26.4	-27.3	16.2	0.00e+00	0	43	0	540016640	14	3976
2026-01-01 08:25:39.56	64.13	21.37	-26.4	-27.2	16.2	0.00e+00	0	43	0	543162368	14	3964
2026-01-01 08:25:40.57	63.88	21.42	-26.5	-27.4	16.1	0.00e+00	0	43	0	546308096	14	3999
2026-01-01 08:25:41.58	63.63	21.46	-26.6	-27.6	16.0	0.00e+00	0	43	0	549453824	14	4051
2026-01-01 08:25:42.58	63.38	21.51	-26.7	-27.9	15.9	0.00e+00	0	43	0	552599552	14	4133
2026-01-01 08:25:43.59	63.13	21.55	-26.7	-27.9	15.8	0.00e+00	0	43	0	555745280	14	4140
2026-01-01 08:25:44.59	62.88	21.59	-26.6	-27.6	16.0	0.00e+00	0	43	0	558891008	14	4062
2026-01-01 08:25:45.59	62.63	21.64	-26.5	-27.5	16.0	0.00e+00	0	43	0	562036736	14	4037
2026-01-01 08:25:46.59	62.38	21.68	-26.7	-27.8	15.9	0.00e+00	0	43	0	565182464	14	4110
2026-01-01 08:25:47.60	62.12	21.72	-26.7	-27.8	15.9	0.00e+00	0	43	0	568328192	14	4107
2026-01-01 08:25:48.60	61.87	21.77	-26.6	-27.7	16.0	0.00e+00	0	43	0	571473920	14	4079
2026-01-01 08:25:49.59	61.62	21.81	-26.6	-27.7	16.0	0.00e+00	0	43	0	574619648	14	4068
2026-01-01 08:25:50.60	61.37	21.85	-26.6	-27.6	16.0	0.00e+00	0	43	0	577765376	14	4040
2026-01-01 08:25:51.60	61.11	21.89	-26.7	-27.8	15.9	0.00e+00	0	43	0	580911104	14	4095
2026-01-01 08:25:52.60	60.86	21.93	-26.6	-27.7	16.0	0.00e+00	0	43	0	584056832	14	4073
2026-01-01 08:25:53.60	60.60	21.97	-26.7	-27.8	15.8	8.30e-06	0	43	0	587202560	14	4123
2026-01-01 08:25:54.61	60.34	22.01	-26.8	-28.2	15.5	9.23e-05	0	43	0	590348288	14	4206
2026-01-01 08:25:55.61	60.09	22.04	-26.8	-28.1	15.6	1.90e-05	0	43	0	593494016	14	4201
2026-01-01 08:25:56.62	59.83	22.08	-26.7	-27.9	15.7	1.44e-05	0	43	0	596639744	14	4141
2026-01-01 08:25:57.62	59.57	22.12	-26.6	-27.8	15.8	1.22e-05	0	43	0	599785472	14	4113
2026-01-01 08:25:58.62	59.31	22.16	-26.8	-28.1	15.6	2.67e-05	0	43	0	602931200	14	4190
2026-01-01 08:25:59.63	59.05	22.19	-26.7	-28.0	15.7	7.60e-06	0	43	0	606076928	14	4163
2026-01-01 08:26:00.63	58.79	22.23	-26.6	-27.8	15.8	1.29e-05	0	43	0	609222656	14	4098
2026-01-01 08:26:01.64	58.52	22.26	-26.6	-27.7	15.9	8.30e-06	0	43	0	612368384	14	4080
2026-01-01 08:26:02.64	58.26	22.30	-26.6	-27.7	15.8	6.80e-06	0	43	0	615514112	14	4088
2026-01-01 08:26:03.64	58.00	22.33	-26.9	-28.3	15.6	0.00e+00	0	43	0	618659840	14	4248
2026-01-01 08:26:04.64	57.74	22.36	-26.9	-28.3	15.5	7.00e-07	0	43	0	621805568	14	4255
2026-01-01 08:26:05.65	57.47	22.40	-26.7	-28.0	15.7	1.14e-05	0	43	0	624951296	14	4154
2026-01-01 08:26:06.65	57.21	22.43	-26.7	-27.9	15.8	3.00e-06	0	43	0	628097024	14	4144
2026-01-01 08:26:07.65	56.95	22.46	-26.7	-28.0	15.7	7.00e-07	0	43	0	631242752	14	4154
2026-01-01 08:26:08.66	56.68	22.49	-26.8	-28.1	15.6	7.00e-07	0	43	0	634388480	14	4187
2026-01-01 08:26:09.66	56.42	22.52	-26.7	-27.9	15.8	0.00e+00	0	43	0	637534208	14	4141
2026-01-01 08:26:10.67	56.15	22.55	-26.7	-27.8	15.9	3.00e-06	0	43	0	640679936	14	4104
2026-01-01 08:26:11.67	55.88	22.58	-26.7	-27.8	15.8	7.00e-07	0	43	0	643825664	14	4111
2026-01-01 08:26:12.67	55.62	22.60	-26.6	-27.8	15.8	6.10e-06	0	43	0	646971392	14	4100
2026-01-01 08:26:13.67	55.35	22.63	-26.7	-27.8	15.8	3.00e-06	0	43	0	650117120	14	4107
2026-01-01 08:26:14.68	55.08	22.66	-26.7	-28.0	15.8	1.29e-05	0	43	0	653262848	14	4146
2026-01-01 08:26:15.68	54.81	22.68	-26.7	-27.8	15.9	3.00e-06	0	43	0	656408576	14	4103
2026-01-01 08:26:16.69	54.54	22.71	-26.6	-27.6	15.8	2.21e-05	0	43	0	658505728	14	4069
2026-01-01 08:26:17.69	54.27	22.73	-26.7	-28.0	15.7	2.28e-05	0	43	0	661651456	14	4149
2026-01-01 08:26:18.70	54.00	22.76	-26.8	-28.0	15.7	1.29e-05	0	43	0	664797184	14	4169
2026-01-01 08:26:19.70	53.73	22.78	-26.8	-28.2	15.6	4.27e-05	0	43	0	667942912	14	4203
2026-01-01 08:26:20.70	53.46	22.81	-26.9	-28.4	15.5	3.73e-05	0	43	0	672137216	14	4266
2026-01-01 08:26:21.71	53.19	22.83	-26.9	-28.3	15.7	0.00e+00	0	43	0	675282944	14	4230
2026-01-01 08:26:22.72	52.92	22.85	-26.8	-28.0	15.8	0.00e+00	0	43	0	678428672	14	4169
2026-01-01 08:26:23.72	52.64	22.87	-26.7	-27.9	15.9	0.00e+00	0	43	0	680525824	14	4131
2026-01-01 08:26:24.72	52.37	22.89	-26.8	-28.1	15.8	0.00e+00	0	43	0	683671552	14	4196
2026-01-01 08:26:25.72	52.10	22.91	-26.7	-27.8	15.9	0.00e+00	0	43	0	686817280	14	4107
2026-01-01 08:26:26.73	51.83	22.93	-26.7	-27.8	15.9	0.00e+00	0	43	0	689963008	14	4108
2026-01-01 08:26:27.74	51.55	22.95	-26.7	-27.9	15.9	0.00e+00	0	43	0	693108736	14	4119
2026-01-01 08:26:28.74	51.28	22.96	-26.7	-28.0	15.9	0.00e+00	0	43	0	696254464	14	4151
2026-01-01 08:26:29.74	51.01	22.98	-26.7	-27.9	15.9	0.00e+00	0	43	0	699400192	14	4138
2026-01-01 08:26:30.74	50.73	23.00	-26.8	-28.1	15.8	0.00e+00	0	43	0	702545920	14	4183
2026-01-01 08:26:31.74	50.46	23.01	-26.7	-27.8	15.9	0.00e+00	0	43	0	705691648	14	4106
2026-01-01 08:26:32.74	50.19	23.03	-26.6	-27.6	16.1	0.00e+00	0	43	0	708837376	14	4064
2026-01-01 08:26:33.74	49.91	23.04	-26.6	-27.6	16.1	0.00e+00	0	43	0	711983104	14	4049
2026-01-01 08:26:34.74	49.64	23.05	-26.7	-27.9	15.9	0.00e+00	0	43	0	715128832	14	4138
2026-01-01 08:26:35.75	49.36	23.07	-26.7	-27.8	15.9	0.00e+00	0	43	0	718274560	14	4108
2026-01-01 08:26:36.75	49.09	23.08	-26.6	-27.7	16.0	0.00e+00	0	43	0	721420288	14	4076
2026-01-01 08:26:37.75	48.81	23.09	-26.7	-27.9	15.9	0.00e+00	0	43	0	724566016	14	4128
2026-01-01 08:26:38.76	48.53	23.10	-26.8	-28.2	15.7	6.10e-06	0	43	0	727711744	14	4209
2026-01-01 08:26:39.76	48.26	23.11	-26.9	-28.4	15.5	3.80e-06	0	43	0	730857472	14	4255
2026-01-01 08:26:40.77	47.98	23.12	-27.0	-28.6	15.5	0.00e+00	0	43	0	734003200	14	4312
2026-01-01 08:26:41.77	47.71	23.13	-26.9	-28.4	15.6	0.00e+00	0	43	0	737148928	14	4255
2026-01-01 08:26:42.77	47.43	23.13	-26.7	-28.0	15.8	7.00e-07	0	43	0	740294656	14	4152
2026-01-01 08:26:43.77	47.15	23.14	-26.7	-27.9	15.8	0.00e+00	0	43	0	743440384	14	4125
2026-01-01 08:26:44.77	46.88	23.15	-26.8	-28.0	15.8	0.00e+00	0	43	0	746586112	14	4169
2026-01-01 08:26:45.77	46.60	23.15	-26.7	-27.9	15.9	0.00e+00	0	43	0	749731840	14	4124
2026-01-01 08:26:46.77	46.33	23.16	-26.7	-27.8	15.9	0.00e+00	0	43	0	752877568	14	4106
2026-01-01 08:26:47.77	46.05	23.16	-26.8	-28.1	15.8	0.00e+00	0	43	0	756023296	14	4188
2026-01-01 08:26:48.78	45.77	23.16	-26.7	-28.0	15.8	0.00e+00	0	43	0	759169024	14	4155
2026-01-01 08:26:49.79	45.49	23.17	-26.7	-28.0	15.8	0.00e+00	0	43	0	762314752	14	4153
2026-01-01 08:26:50.80	45.21	23.17	-27.0	-28.6	15.5	7.00e-07	0	43	0	765460480	14	4308
2026-01-01 08:26:51.80	44.94	23.17	-26.8	-28.1	15.7	3.80e-06	0	43	0	768606208	14	4184
2026-01-01 08:26:52.80	44.66	23.17	-26.6	-27.6	16.0	0.00e+00	0	43	0	771751936	14	4058
2026-01-01 08:26:53.81	44.38	23.17	-26.4	-27.3	16.2	0.00e+00	0	43	0	774897664	14	3973
2026-01-01 08:26:54.81	44.11	23.17	-26.4	-27.2	16.3	0.00e+00	0	43	0	778043392	14	3953
2026-01-01 08:26:55.82	43.83	23.16	-26.4	-27.2	16.2	0.00e+00	0	43	0	781189120	14	3957
2026-01-01 08:26:56.82	43.55	23.16	-26.5	-27.5	16.0	0.00e+00	0	43	0	784334848	14	4029
2026-01-01 08:26:57.83	43.27	23.16	-26.5	-27.4	16.1	0.00e+00	0	43	0	787480576	14	3995
2026-01-01 08:26:58.83	43.00	23.15	-26.4	-27.3	16.1	4.50e-06	0	43	0	790626304	14	3966
2026-01-01 08:26:59.83	42.72	23.15	-26.6	-27.6	16.1	0.00e+00	0	43	0	793772032	14	4044
2026-01-01 08:27:00.83	42.45	23.14	-26.6	-27.6	16.1	0.00e+00	0	43	0	796917760	14	4042
2026-01-01 08:27:01.84	42.17	23.14	-26.6	-27.7	16.0	0.00e+00	0	43	0	800063488	14	4072
2026-01-01 08:27:02.84	41.89	23.13	-26.6	-27.7	16.0	0.00e+00	0	43	0	803209216	14	4087
2026-01-01 08:27:03.84	41.62	23.12	-26.7	-27.8	15.9	0.00e+00	0	43	0	806354944	14	4105
2026-01-01 08:27:04.84	41.34	23.12	-26.8	-28.2	15.8	0.00e+00	0	43	0	809500672	14	4200
2026-01-01 08:27:05.85	41.06	23.11	-26.7	-27.8	16.0	0.00e+00	0	43	0	812646400	14	4101
2026-01-01 08:27:06.85	40.79	23.10	-26.5	-27.5	16.1	0.00e+00	0	43	0	815792128	14	4033
2026-01-01 08:27:07.86	40.51	23.09	-26.5	-27.5	16.1	0.00e+00	0	43	0	818937856	14	4028
2026-01-01 08:27:08.86	40.24	23.08	-26.5	-27.4	16.1	0.00e+00	0	43	0	822083584	14	4008
2026-01-01 08:27:09.86	39.96	23.06	-26.6	-27.6	16.0	0.00e+00	0	43	0	825229312	14	4047
2026-01-01 08:27:10.87	39.69	23.05	-26.5	-27.3	16.2	0.00e+00	0	43	0	828375040	14	3984
2026-01-01 08:27:11.88	39.41	23.04	-26.4	-27.2	16.3	0.00e+00	0	43	0	831520768	14	3936
2026-01-01 08:27:12.88	39.14	23.02	-26.4	-27.2	16.3	0.00e+00	0	43	0	834666496	14	3950
2026-01-01 08:27:13.87	38.86	23.01	-26.3	-26.9	16.4	0.00e+00	0	43	0	837812224	14	3879
2026-01-01 08:27:14.87	38.59	22.99	-26.2	-27.3	16.4	0.00e+00	0	43	0	840957952	13	4087
2026-01-01 08:27:15.88	38.32	22.98	-26.2	-27.3	16.5	0.00e+00	0	43	0	844103680	13	4085
2026-01-01 08:27:16.88	38.04	22.96	-26.3	-27.4	16.4	0.00e+00	0	43	0	847249408	13	4114
2026-01-01 08:27:17.89	37.77	22.94	-26.3	-27.5	16.4	0.00e+00	0	43	0	850395136	13	4127
2026-01-01 08:27:18.89	37.50	22.93	-26.4	-27.7	16.3	0.00e+00	0	43	0	853540864	13	4181
2026-01-01 08:27:19.88	37.23	22.91	-26.4	-27.6	16.3	0.00e+00	0	43	0	856686592	13	4168
2026-01-01 08:27:20.88	36.96	22.89	-26.4	-27.8	16.2	0.00e+00	0	43	0	859832320	13	4215
2026-01-01 08:27:21.88	36.69	22.87	-26.6	-28.2	16.0	0.00e+00	0	43	0	862978048	13	4326
2026-01-01 08:27:22.88	36.42	22.85	-26.5	-27.8	16.2	0.00e+00	0	43	0	866123776	13	4219
2026-01-01 08:27:23.89	36.14	22.82	-26.6	-28.1	16.0	0.00e+00	0	43	0	869269504	13	4292
2026-01-01 08:27:24.89	35.87	22.80	-26.5	-27.9	16.2	0.00e+00	0	43	0	872415232	13	4238
2026-01-01 08:27:25.90	35.60	22.78	-26.5	-28.0	16.1	0.00e+00	0	43	0	875560960	13	4255
2026-01-01 08:27:26.90	35.33	22.76	-26.6	-28.1	16.0	0.00e+00	0	43	0	878706688	13	4306
2026-01-01 08:27:27.91	35.06	22.73	-26.6	-28.1	16.0	0.00e+00	0	43	0	881852416	13	4303
2026-01-01 08:27:28.91	34.79	22.71	-26.6	-28.1	16.0	0.00e+00	0	43	0	884998144	13	4296
2026-01-01 08:27:29.91	34.52	22.68	-26.7	-28.4	15.8	0.00e+00	0	43	0	888143872	13	4391
2026-01-01 08:27:30.91	34.26	22.66	-26.6	-28.1	16.0	0.00e+00	0	43	0	891289600	13	4281
2026-01-01 08:27:31.92	33.99	22.63	-26.4	-27.7	16.2	0.00e+00	0	43	0	894435328	13	4198
2026-01-01 08:27:32.92	33.72	22.60	-26.4	-27.6	16.3	0.00e+00	0	43	0	897581056	13	4167
2026-01-01 08:27:33.92	33.46	22.57	-26.3	-27.6	16.3	0.00e+00	0	43	0	900726784	13	4148
2026-01-01 08:27:34.92	33.19	22.54	-26.4	-27.6	16.3	0.00e+00	0	43	0	903872512	13	4164
2026-01-01 08:27:35.92	32.93	22.52	-26.6	-28.1	16.0	0.00e+00	0	43	0	907018240	13	4298
2026-01-01 08:27:36.93	32.66	22.49	-26.6	-28.2	16.0	0.00e+00	0	43	0	910163968	13	4314
2026-01-01 08:27:37.93	32.40	22.46	-26.7	-28.5	15.8	0.00e+00	0	43	0	913309696	13	4400
2026-01-01 08:27:38.94	32.13	22.42	-26.8	-28.6	15.7	0.00e+00	0	43	0	916455424	13	4441
2026-01-01 08:27:39.94	31.87	22.39	-27.0	-29.0	15.5	0.00e+00	0	43	0	919601152	13	4542
2026-01-01 08:27:40.95	31.60	22.36	-26.9	-28.3	15.7	0.00e+00	0	43	0	922746880	14	4233
2026-01-01 08:27:41.96	31.34	22.33	-26.8	-28.1	15.8	0.00e+00	0	43	0	925892608	14	4187
2026-01-01 08:27:42.96	31.08	22.29	-26.8	-28.2	15.7	0.00e+00	0	43	0	929038336	14	4208
2026-01-01 08:27:43.97	30.81	22.26	-26.8	-28.0	15.8	0.00e+00	0	43	0	932184064	14	4162
2026-01-01 08:27:44.96	30.56	22.22	-27.1	-28.8	15.4	0.00e+00	0	43	0	935329792	14	4391
2026-01-01 08:27:45.97	30.29	22.19	-26.9	-28.5	15.6	0.00e+00	0	43	0	938475520	14	4284
2026-01-01 08:27:46.97	30.04	22.15	-26.7	-27.9	15.8	0.00e+00	0	43	0	941621248	14	4143
2026-01-01 08:27:47.97	29.78	22.12	-26.6	-27.7	16.0	0.00e+00	0	43	0	944766976	14	4089
2026-01-01 08:27:48.97	29.52	22.08	-26.6	-27.7	15.9	0.00e+00	0	43	0	947912704	14	4079
2026-01-01 08:27:49.98	29.26	22.04	-26.7	-27.9	15.9	0.00e+00	0	43	0	951058432	14	4121
2026-01-01 08:27:50.98	29.01	22.00	-26.8	-28.1	15.8	0.00e+00	0	43	0	954204160	14	4172
2026-01-01 08:27:51.98	28.75	21.96	-26.8	-28.2	15.7	0.00e+00	0	43	0	957349888	14	4214
2026-01-01 08:27:52.97	28.50	21.93	-26.7	-27.8	15.9	0.00e+00	0	43	0	959447040	14	4108
2026-01-01 08:27:53.98	28.24	21.89	-26.7	-28.0	15.8	0.00e+00	0	43	0	962592768	14	4149
2026-01-01 08:27:54.99	27.98	21.85	-26.8	-28.2	15.7	0.00e+00	0	43	0	965738496	14	4207
2026-01-01 08:27:55.99	27.73	21.80	-26.9	-28.3	15.6	0.00e+00	0	43	0	968884224	14	4247
2026-01-01 08:27:57.00	27.48	21.76	-27.0	-28.7	15.4	0.00e+00	0	43	0	972029952	14	4339
2026-01-01 08:27:58.00	27.23	21.72	-27.0	-28.5	15.5	0.00e+00	0	43	0	976224256	14	4289
2026-01-01 08:27:59.01	26.97	21.68	-26.9	-28.4	15.5	0.00e+00	0	43	0	979369984	14	4268
2026-01-01 08:28:00.01	26.72	21.64	-26.9	-28.3	15.6	0.00e+00	0	43	0	981467136	14	4223
2026-01-01 08:28:01.01	26.47	21.59	-26.9	-28.3	15.6	0.00e+00	0	43	0	984612864	14	4231
2026-01-01 08:28:02.02	26.22	21.55	-27.0	-28.6	15.5	0.00e+00	0	43	0	987758592	14	4320
2026-01-01 08:28:03.03	25.97	21.50	-26.9	-28.3	15.6	0.00e+00	0	43	0	990904320	14	4255
2026-01-01 08:28:04.03	25.72	21.46	-27.2	-29.0	15.2	0.00e+00	0	43	0	994050048	14	4453
2026-01-01 08:28:05.03	25.48	21.41	-27.1	-28.9	15.2	0.00e+00	0	43	0	997195776	14	4422
2026-01-01 08:28:06.03	25.23	21.37	-27.3	-29.3	15.0	0.00e+00	0	43	0	1000341504	14	4541
2026-01-01 08:28:07.04	24.98	21.32	-27.2	-29.0	15.2	0.00e+00	0	43	0	1003487232	14	4442
2026-01-01 08:28:08.04	24.74	21.27	-27.1	-28.8	15.3	0.00e+00	0	43	0	1006632960	14	4376
2026-01-01 08:28:09.03	24.50	21.23	-27.1	-28.7	15.3	0.00e+00	0	43	0	1009778688	14	4360
2026-01-01 08:28:10.04	24.25	21.18	-27.1	-28.8	15.3	0.00e+00	0	43	0	1012924416	14	4392
2026-01-01 08:28:11.04	24.01	21.13	-27.2	-29.1	15.1	0.00e+00	0	43	0	1016070144	14	4469
2026-01-01 08:28:12.04	23.77	21.08	-26.9	-28.3	15.6	0.00e+00	0	43	0	1019215872	14	4240
2026-01-01 08:28:13.05	23.53	21.03	-26.7	-27.9	15.8	0.00e+00	0	43	0	1022361600	14	4136
2026-01-01 08:28:14.05	23.29	20.98	-26.8	-28.0	15.7	0.00e+00	0	43	0	1025507328	14	4167
2026-01-01 08:28:15.05	23.05	20.93	-27.0	-28.5	15.4	0.00e+00	0	43	0	1028653056	14	4302
2026-01-01 08:28:16.05	22.81	20.88	-27.0	-28.7	15.3	0.00e+00	0	43	0	1031798784	14	4359
2026-01-01 08:28:17.05	22.57	20.83	-27.1	-28.9	15.2	0.00e+00	0	43	0	1034944512	14	4414
2026-01-01 08:28:18.06	22.34	20.78	-27.0	-28.6	15.4	0.00e+00	0	43	0	1038090240	14	4333
2026-01-01 08:28:19.06	22.10	20.73	-26.9	-28.4	15.5	0.00e+00	0	43	0	1041235968	14	4271
2026-01-01 08:28:20.07	21.86	20.67	-26.9	-28.4	15.5	0.00e+00	0	43	0	1044381696	14	4281
2026-01-01 08:28:21.07	21.63	20.62	-26.9	-28.3	15.6	0.00e+00	0	43	0	1047527424	14	4230
2026-01-01 08:28:22.06	21.40	20.57	-26.8	-28.2	15.6	0.00e+00	0	43	0	1050673152	14	4211
2026-01-01 08:28:23.07	21.16	20.52	-26.9	-28.4	15.5	0.00e+00	0	43	0	1053818880	14	4270
2026-01-01 08:28:24.06	20.93	20.46	-26.8	-28.1	15.7	0.00e+00	0	43	0	1056964608	14	4191
2026-01-01 08:28:25.06	20.70	20.41	-26.8	-28.2	15.6	0.00e+00	0	43	0	1060110336	14	4208
2026-01-01 08:28:26.07	20.47	20.35	-26.9	-28.2	15.6	0.00e+00	0	43	0	1063256064	14	4225
2026-01-01 08:28:27.07	20.24	20.30	-26.9	-28.4	15.5	0.00e+00	0	43	0	1066401792	14	4274
2026-01-01 08:28:28.08	20.01	20.24	-26.9	-28.4	15.5	0.00e+00	0	43	0	1069547520	14	4282
2026-01-01 08:28:29.08	19.78	20.19	-27.0	-28.5	15.5	7.00e-07	0	43	0	1072693248	14	4282
2026-01-01 08:28:30.09	19.56	20.13	-27.1	-28.9	15.2	0.00e+00	0	43	0	1075838976	14	4409
2026-01-01 08:28:31.09	19.33	20.08	-26.9	-28.3	15.5	0.00e+00	0	43	0	1078984704	14	4254
2026-01-01 08:28:32.09	19.10	20.02	-26.7	-27.9	15.7	0.00e+00	0	43	0	1082130432	14	4146
2026-01-01 08:28:33.09	18.88	19.96	-26.6	-27.7	15.9	0.00e+00	0	43	0	1085276160	14	4086
2026-01-01 08:28:34.09	18.66	19.91	-26.8	-28.0	15.7	0.00e+00	0	43	0	1088421888	14	4160
2026-01-01 08:28:35.10	18.43	19.85	-26.8	-28.2	15.6	0.00e+00	0	43	0	1091567616	14	4230
2026-01-01 08:28:36.11	18.21	19.79	-27.0	-28.5	15.4	0.00e+00	0	43	0	1094713344	14	4296
2026-01-01 08:28:37.12	17.99	19.73	-27.0	-28.6	15.4	0.00e+00	0	43	0	1097859072	14	4336
2026-01-01 08:28:38.12	17.77	19.67	-26.9	-28.4	15.5	0.00e+00	0	43	0	1101004800	14	4281
2026-01-01 08:28:39.13	17.55	19.61	-26.9	-28.3	15.6	0.00e+00	0	43	0	1104150528	14	4229
2026-01-01 08:28:40.13	17.33	19.55	-26.9	-28.3	15.5	0.00e+00	0	43	0	1107296256	14	4247
2026-01-01 08:28:41.14	17.11	19.49	-27.0	-28.6	15.3	0.00e+00	0	43	0	1110441984	14	4329
2026-01-01 08:28:42.14	16.89	19.44	-26.8	-28.1	15.6	0.00e+00	0	43	0	1113587712	14	4190
2026-01-01 08:28:43.14	16.68	19.38	-26.9	-28.3	15.5	0.00e+00	0	43	0	1116733440	14	4238
2026-01-01 08:28:44.14	16.46	19.32	-26.9	-28.4	15.5	0.00e+00	0	43	0	1119879168	14	4274
2026-01-01 08:28:45.15	16.25	19.25	-26.8	-28.1	15.6	0.00e+00	0	43	0	1123024896	14	4190
2026-01-01 08:28:46.16	16.03	19.19	-26.8	-28.2	15.5	0.00e+00	0	43	0	1126170624	14	4223
2026-01-01 08:28:47.16	15.82	19.13	-27.1	-28.7	15.3	0.00e+00	0	43	0	1129316352	14	4362
2026-01-01 08:28:48.16	15.61	19.07	-27.2	-29.0	15.1	0.00e+00	0	43	0	1132462080	14	4440
2026-01-01 08:28:49.17	15.39	19.01	-27.4	-29.5	14.8	7.00e-07	0	43	0	1135607808	14	4596
2026-01-01 08:28:50.17	15.18	18.95	-27.1	-28.9	15.1	0.00e+00	0	43	0	1138753536	14	4425
2026-01-01 08:28:51.17	14.98	18.88	-27.0	-28.6	15.3	0.00e+00	0	43	0	1141899264	14	4338
2026-01-01 08:28:52.17	14.77	18.82	-26.9	-28.3	15.5	0.00e+00	0	43	0	1145044992	14	4240
2026-01-01 08:28:53.18	14.56	18.76	-26.9	-28.3	15.5	0.00e+00	0	43	0	1148190720	14	4250
2026-01-01 08:28:54.18	14.35	18.70	-26.9	-28.3	15.5	0.00e+00	0	43	0	1151336448	14	4241
2026-01-01 08:28:55.18	14.15	18.63	-26.9	-28.4	15.4	0.00e+00	0	43	0	1154482176	14	4261
2026-01-01 08:28:56.18	13.94	18.57	-27.0	-28.6	15.3	0.00e+00	0	43	0	1157627904	14	4318
2026-01-01 08:28:57.18	13.74	18.51	-26.8	-28.0	15.6	7.00e-07	0	43	0	1160773632	14	4175
2026-01-01 08:28:58.19	13.54	18.44	-26.7	-27.9	15.7	0.00e+00	0	43	0	1163919360	14	4132
2026-01-01 08:28:59.19	13.33	18.38	-26.7	-28.0	15.7	0.00e+00	0	43	0	1167065088	14	4163
2026-01-01 08:29:00.19	13.13	18.32	-26.6	-27.7	15.8	0.00e+00	0	43	0	1170210816	14	4094
2026-01-01 08:29:01.20	12.93	18.25	-26.7	-27.9	15.7	0.00e+00	0	43	0	1173356544	14	4133
2026-01-01 08:29:02.20	12.73	18.19	-26.5	-27.5	15.9	0.00e+00	0	43	0	1176502272	14	4033
2026-01-01 08:29:03.21	12.53	18.12	-26.5	-27.6	15.9	0.00e+00	0	43	0	1179648000	14	4046
2026-01-01 08:29:04.22	12.33	18.06	-26.6	-27.8	15.8	0.00e+00	0	43	0	1182793728	14	4103
2026-01-01 08:29:05.22	12.14	17.99	-26.8	-28.1	15.6	0.00e+00	0	43	0	1185939456	14	4188
2026-01-01 08:29:06.23	11.94	17.93	-27.0	-28.5	15.3	0.00e+00	0	43	0	1189085184	14	4311
2026-01-01 08:29:07.24	11.74	17.86	-27.1	-28.8	15.1	0.00e+00	0	43	0	1192230912	14	4401
2026-01-01 08:29:08.24	11.55	17.79	-27.2	-29.2	15.0	0.00e+00	0	43	0	1195376640	14	4500
2026-01-01 08:29:09.25	11.35	17.73	-27.3	-29.2	14.9	0.00e+00	0	43	0	1198522368	14	4505
2026-01-01 08:29:10.25	11.16	17.66	-27.3	-29.3	14.9	1.50e-06	0	43	0	1201668096	14	4525
2026-01-01 08:29:11.26	10.97	17.60	-27.2	-29.2	14.9	0.00e+00	0	43	0	1204813824	14	4488
2026-01-01 08:29:12.26	10.78	17.53	-27.2	-29.1	15.0	0.00e+00	0	43	0	1207959552	14	4472
2026-01-01 08:29:13.27	10.59	17.46	-27.2	-29.1	15.0	0.00e+00	0	43	0	1211105280	14	4468
2026-01-01 08:29:14.27	10.40	17.40	-27.0	-28.5	15.3	0.00e+00	0	43	0	1214251008	14	4314
2026-01-01 08:29:15.27	10.21	17.33	-27.0	-28.6	15.3	0.00e+00	0	43	0	1217396736	14	4321
2026-01-01 08:29:16.26	10.02	17.26	-27.0	-28.7	15.2	0.00e+00	0	43	0	1220542464	14	4353
2026-01-01 08:29:17.27	9.84	17.20	-26.9	-28.4	15.4	0.00e+00	0	43	0	1223688192	14	4263
2026-01-01 08:29:18.27	9.65	17.13	-26.9	-28.3	15.4	0.00e+00	0	43	0	1226833920	14	4251
2026-01-01 08:29:19.28	9.46	17.06	-26.9	-28.4	15.4	0.00e+00	0	43	0	1229979648	14	4266
2026-01-01 08:29:20.29	9.28	16.99	-26.9	-28.4	15.4	0.00e+00	0	43	0	1233125376	14	4265
2026-01-01 08:29:21.29	9.09	16.93	-26.9	-28.4	15.4	0.00e+00	0	43	0	1236271104	14	4273
2026-01-01 08:29:22.30	8.91	16.86	-26.7	-28.0	15.6	0.00e+00	0	43	0	1239416832	14	4158
2026-01-01 08:29:23.30	8.73	16.79	-26.7	-27.8	15.7	0.00e+00	0	43	0	1242562560	14	4115
2026-01-01 08:29:24.30	8.55	16.72	-26.7	-27.8	15.7	0.00e+00	0	43	0	1245708288	14	4113
2026-01-01 08:29:25.31	8.37	16.66	-26.6	-27.6	15.8	0.00e+00	0	43	0	1248854016	14	4056
2026-01-01 08:29:26.32	8.19	16.59	-26.6	-27.6	15.8	0.00e+00	0	43	0	1251999744	14	4071
2026-01-01 08:29:27.32	8.01	16.52	-26.7	-27.9	15.6	7.00e-07	0	43	0	1255145472	14	4147
2026-01-01 08:29:28.32	7.83	16.45	-26.7	-28.0	15.5	0.00e+00	0	43	0	1258291200	14	4170
2026-01-01 08:29:29.33	7.65	16.38	-26.8	-28.1	15.5	0.00e+00	0	43	0	1261436928	14	4200
2026-01-01 08:29:30.34	7.48	16.31	-26.9	-28.4	15.3	0.00e+00	0	43	0	1264582656	14	4282
2026-01-01 08:29:31.34	7.30	16.25	-27.0	-28.7	15.2	0.00e+00	0	43	0	1267728384	14	4369
2026-01-01 08:29:32.34	7.13	16.18	-27.1	-28.8	15.1	0.00e+00	0	43	0	1270874112	14	4406
2026-01-01 08:29:33.35	6.95	16.11	-27.1	-29.0	15.0	0.00e+00	0	43	0	1274019840	14	4433
2026-01-01 08:29:34.35	6.78	16.04	-27.3	-29.2	14.9	0.00e+00	0	43	0	1277165568	14	4511
2026-01-01 08:29:35.35	6.61	15.97	-27.3	-29.3	14.8	0.00e+00	0	43	0	1280311296	14	4545
2026-01-01 08:29:36.36	6.44	15.90	-27.1	-28.9	15.0	0.00e+00	0	43	0	1283457024	14	4418
2026-01-01 08:29:37.36	6.27	15.83	-27.1	-28.8	15.1	0.00e+00	0	43	0	1286602752	14	4386
2026-01-01 08:29:38.37	6.10	15.76	-27.1	-28.9	15.1	0.00e+00	0	43	0	1289748480	14	4404
2026-01-01 08:29:39.37	5.93	15.69	-27.2	-29.0	15.0	0.00e+00	0	43	0	1292894208	14	4444
2026-01-01 08:29:40.38	5.76	15.63	-27.2	-29.0	15.0	0.00e+00	0	43	0	1296039936	14	4438
2026-01-01 08:29:41.38	5.59	15.56	-27.2	-29.1	14.9	0.00e+00	0	43	0	1299185664	14	4464
2026-01-01 08:29:42.38	5.43	15.49	-27.1	-29.0	15.0	7.00e-07	0	43	0	1302331392	14	4439
2026-01-01 08:29:43.38	5.26	15.42	-27.2	-29.0	15.0	0.00e+00	0	43	0	1304428544	14	4451
2026-01-01 08:29:44.39	5.10	15.35	-27.2	-29.1	14.9	0.00e+00	0	43	0	1307574272	14	4462
2026-01-01 08:29:45.39	4.93	15.28	-27.3	-29.2	14.8	1.50e-06	0	43	0	1310720000	14	4522
2026-01-01 08:29:46.39	4.77	15.21	-27.3	-29.4	14.7	0.00e+00	0	43	0	1313865728	14	4574
2026-01-01 08:29:47.39	4.61	15.14	-27.3	-29.4	14.7	0.00e+00	0	43	0	1317011456	14	4574
2026-01-01 08:29:48.40	4.44	15.07	-27.3	-29.3	14.8	0.00e+00	0	43	0	1320157184	14	4526
2026-01-01 08:29:49.40	4.28	15.00	-27.3	-29.3	14.7	0.00e+00	0	43	0	1324351488	14	4537
2026-01-01 08:29:50.41	4.12	14.93	-27.3	-29.4	14.7	0.00e+00	0	43	0	1327497216	14	4554
2026-01-01 08:29:51.41	3.96	14.86	-27.2	-29.2	14.8	0.00e+00	0	43	0	1329594368	14	4499
2026-01-01 08:29:52.41	3.81	14.79	-27.3	-29.2	14.8	0.00e+00	0	43	0	1332740096	14	4523
2026-01-01 08:29:53.41	3.65	14.72	-27.3	-29.4	14.7	0.00e+00	0	43	0	1335885824	14	4576
2026-01-01 08:29:54.42	3.49	14.65	-27.3	-29.3	14.7	0.00e+00	0	43	0	1339031552	14	4550
2026-01-01 08:29:55.42	3.33	14.58	-27.3	-29.2	14.8	0.00e+00	0	43	0	1342177280	14	4520
2026-01-01 08:29:56.41	3.18	14.52	-27.2	-29.2	14.8	0.00e+00	0	43	0	1345323008	14	4509
2026-01-01 08:29:57.42	3.02	14.45	-27.2	-29.2	14.8	0.00e+00	0	43	0	1348468736	14	4510
2026-01-01 08:29:58.43	2.87	14.38	-27.3	-29.4	14.6	0.00e+00	0	43	0	1351614464	14	4573
2026-01-01 08:29:59.43	2.72	14.31	-27.3	-29.4	14.6	1.50e-06	0	43	0	1354760192	14	4578
2026-01-01 08:30:00.43	2.56	14.24	-27.2	-29.1	14.8	0.00e+00	0	43	0	1357905920	14	4476
2026-01-01 08:30:01.43	2.41	14.17	-27.1	-29.0	14.9	0.00e+00	0	43	0	1361051648	14	4440
2026-01-01 08:30:02.43	2.26	14.10	-27.2	-29.0	14.9	0.00e+00	0	43	0	1364197376	14	4455
2026-01-01 08:30:03.43	2.11	14.03	-27.3	-29.3	14.7	0.00e+00	0	43	0	1367343104	14	4529
2026-01-01 08:30:04.44	1.96	13.96	-27.3	-29.4	14.6	0.00e+00	0	43	0	1370488832	14	4584
2026-01-01 08:30:05.44	1.81	13.89	-27.4	-29.6	14.5	1.50e-06	0	43	0	1373634560	14	4631
2026-01-01 08:30:06.45	1.66	13.82	-27.5	-29.3	14.4	7.00e-07	0	43	0	1376780288	15	4438
2026-01-01 08:30:07.44	1.52	13.75	-27.5	-29.4	14.3	0.00e+00	0	43	0	1379926016	15	4458
2026-01-01 08:30:08.45	1.37	13.68	-27.6	-29.7	14.2	1.50e-06	0	43	0	1383071744	15	4548
2026-01-01 08:30:09.46	1.22	13.61	-27.7	-29.8	14.0	7.00e-07	0	43	0	1386217472	15	4580
2026-01-01 08:30:10.47	1.07	13.54	-27.7	-29.8	14.0	7.00e-07	0	43	0	1389363200	15	4596
2026-01-01 08:30:11.47	0.93	13.47	-27.7	-29.9	14.0	2.20e-06	0	43	0	1392508928	15	4610
2026-01-01 08:30:12.48	0.78	13.40	-27.7	-29.8	14.0	2.20e-06	0	43	0	1395654656	15	4595
2026-01-01 08:30:13.48	0.64	13.33	-27.7	-29.7	14.1	2.20e-06	0	43	0	1398800384	15	4567
2026-01-01 08:30:14.48	0.50	13.26	-27.6	-29.6	14.2	1.50e-06	0	43	0	1401946112	15	4518
2026-01-01 08:30:15.48	0.36	13.19	-27.6	-29.6	14.2	1.50e-06	0	43	0	1405091840	15	4541
2026-01-01 08:30:16.49	0.21	13.12	-27.6	-29.6	14.2	1.50e-06	0	43	0	1408237568	15	4518
2026-01-01 08:30:17.49	0.07	13.05	-27.5	-29.2	14.4	0.00e+00	0	43	0	1411383296	15	4407
2026-01-01 08:30:18.49	359.93	12.98	-27.4	-29.1	14.5	0.00e+00	0	43	0	1414529024	15	4377
2026-01-01 08:30:19.50	359.79	12.91	-27.5	-29.4	14.3	7.00e-07	0	43	0	1417674752	15	4458
2026-01-01 08:30:20.50	359.66	12.85	-27.6	-29.6	14.2	2.20e-06	0	43	0	1420820480	15	4517
2026-01-01 08:30:21.50	359.52	12.78	-27.8	-30.0	13.9	3.80e-06	0	43	0	1423966208	15	4646
2026-01-01 08:30:22.51	359.38	12.71	-27.9	-30.2	13.8	4.50e-06	0	43	0	1427111936	15	4729
2026-01-01 08:30:23.50	359.25	12.64	-27.9	-30.4	13.7	4.50e-06	0	43	0	1430257664	15	4780
2026-01-01 08:30:24.51	359.11	12.57	-28.0	-30.4	13.7	1.14e-05	0	43	0	1433403392	15	4793
2026-01-01 08:30:25.51	358.97	12.50	-28.2	-30.4	13.6	6.10e-06	0	43	0	1436549120	16	4648
2026-01-01 08:30:26.52	358.84	12.43	-28.1	-30.3	13.6	8.30e-06	0	43	0	1439694848	16	4633
2026-01-01 08:30:27.52	358.70	12.36	-28.1	-30.2	13.7	3.80e-06	0	43	0	1442840576	16	4578
2026-01-01 08:30:28.53	358.57	12.29	-28.0	-30.0	13.8	4.50e-06	0	43	0	1445986304	16	4542
2026-01-01 08:30:29.53	358.44	12.22	-27.9	-29.7	14.0	2.20e-06	0	43	0	1449132032	16	4449
2026-01-01 08:30:30.53	358.31	12.15	-28.0	-30.0	13.8	3.00e-06	0	43	0	1452277760	16	4525
2026-01-01 08:30:31.53	358.17	12.08	-27.9	-29.8	13.9	2.20e-06	0	43	0	1455423488	16	4482
2026-01-01 08:30:32.54	358.04	12.02	-27.8	-29.4	14.1	1.50e-06	0	43	0	1458569216	16	4354
2026-01-01 08:30:33.54	357.91	11.95	-27.7	-29.3	14.2	2.20e-06	0	43	0	1461714944	16	4310
2026-01-01 08:30:34.55	357.78	11.88	-27.8	-29.5	14.1	5.30e-06	0	43	0	1464860672	16	4382
2026-01-01 08:30:35.55	357.65	11.81	-27.9	-29.8	13.9	7.00e-07	0	43	0	1468006400	16	4460
2026-01-01 08:30:36.55	357.53	11.74	-28.0	-29.9	13.8	5.30e-06	0	43	0	1471152128	16	4515
2026-01-01 08:30:37.55	357.40	11.67	-27.9	-29.8	13.9	5.30e-06	0	43	0	1474297856	16	4462
2026-01-01 08:30:38.56	357.27	11.60	-28.0	-30.0	13.7	6.10e-06	0	43	0	1477443584	16	4533
2026-01-01 08:30:39.55	357.14	11.53	-28.1	-30.2	13.6	6.80e-06	0	43	0	1480589312	16	4594
2026-01-01 08:30:40.55	357.02	11.47	-28.1	-30.2	13.6	5.30e-06	0	43	0	1483735040	16	4602
2026-01-01 08:30:41.55	356.89	11.40	-28.2	-30.5	13.4	1.29e-05	0	43	0	1486880768	16	4695
2026-01-01 08:30:42.55	356.77	11.33	-28.2	-30.5	13.4	1.37e-05	0	43	0	1490026496	16	4692
2026-01-01 08:30:43.56	356.64	11.26	-28.0	-30.1	13.7	6.80e-06	0	43	0	1493172224	16	4564
2026-01-01 08:30:44.56	356.52	11.19	-28.0	-30.0	13.7	6.10e-06	0	43	0	1496317952	16	4528
2026-01-01 08:30:45.57	356.40	11.12	-28.0	-29.9	13.8	6.10e-06	0	43	0	1499463680	16	4494
2026-01-01 08:30:46.57	356.28	11.06	-27.9	-29.7	13.9	3.00e-06	0	43	0	1502609408	16	4434
2026-01-01 08:30:47.57	356.15	10.99	-27.8	-29.6	13.9	3.80e-06	0	43	0	1505755136	16	4431
2026-01-01 08:30:48.57	356.03	10.92	-27.8	-29.6	13.9	2.20e-06	0	43	0	1508900864	16	4410
2026-01-01 08:30:49.58	355.91	10.85	-27.8	-29.5	14.0	2.20e-06	0	43	0	1512046592	16	4384
2026-01-01 08:30:50.58	355.79	10.78	-27.8	-29.6	14.0	3.80e-06	0	43	0	1515192320	16	4401
2026-01-01 08:30:51.58	355.67	10.72	-27.9	-29.7	13.9	4.50e-06	0	43	0	1518338048	16	4438
2026-01-01 08:30:52.58	355.55	10.65	-28.0	-30.0	13.7	1.50e-06	0	43	0	1521483776	16	4547
2026-01-01 08:30:53.58	355.44	10.58	-28.1	-30.2	13.5	1.22e-05	0	43	0	1524629504	16	4611
2026-01-01 08:30:54.59	355.32	10.51	-28.2	-30.5	13.4	1.14e-05	0	43	0	1527775232	16	4702
2026-01-01 08:30:55.59	355.20	10.45	-28.3	-30.8	13.2	1.90e-05	0	43	0	1530920960	16	4787
2026-01-01 08:30:56.58	355.08	10.38	-28.4	-30.9	13.1	2.13e-05	0	43	0	1534066688	16	4829
2026-01-01 08:30:57.59	354.97	10.31	-28.4	-30.9	13.1	2.82e-05	0	43	0	1537212416	16	4829
2026-01-01 08:30:58.59	354.85	10.24	-28.4	-30.9	13.1	3.66e-05	0	43	0	1540358144	16	4835
2026-01-01 08:30:59.59	354.74	10.18	-28.4	-31.0	13.0	3.28e-05	0	43	0	1543503872	16	4850
2026-01-01 08:31:00.60	354.62	10.11	-28.3	-30.8	13.2	4.27e-05	0	43	0	1546649600	16	4797
2026-01-01 08:31:01.60	354.51	10.04	-28.3	-30.7	13.2	1.98e-05	0	43	0	1549795328	16	4776
2026-01-01 08:31:02.61	354.39	9.97	-28.2	-30.5	13.3	1.83e-05	0	43	0	1552941056	16	4715
2026-01-01 08:31:03.61	354.28	9.91	-28.1	-30.2	13.4	1.29e-05	0	43	0	1556086784	16	4613
2026-01-01 08:31:04.62	354.17	9.84	-28.1	-30.4	13.3	1.14e-05	0	43	0	1559232512	16	4670
2026-01-01 08:31:05.62	354.06	9.77	-28.0	-30.0	13.6	1.06e-05	0	43	0	1562378240	16	4536
2026-01-01 08:31:06.63	353.95	9.71	-27.9	-29.7	13.8	6.10e-06	0	43	0	1565523968	16	4442
2026-01-01 08:31:07.63	353.83	9.64	-27.8	-29.6	13.8	3.80e-06	0	43	0	1568669696	16	4406
2026-01-01 08:31:08.63	353.73	9.57	-27.8	-29.6	13.8	5.30e-06	0	43	0	1571815424	16	4436
2026-01-01 08:31:09.63	353.62	9.51	-27.8	-29.7	13.8	7.60e-06	0	43	0	1574961152	16	4439
2026-01-01 08:31:10.63	353.51	9.44	-27.9	-29.9	13.7	5.30e-06	0	43	0	1578106880	16	4498
2026-01-01 08:31:11.64	353.40	9.37	-28.0	-29.9	13.6	8.30e-06	0	43	0	1580204032	16	4521
2026-01-01 08:31:12.63	353.29	9.31	-28.0	-30.1	13.5	1.06e-05	0	43	0	1583349760	16	4578
2026-01-01 08:31:13.64	353.18	9.24	-28.1	-30.4	13.3	1.29e-05	0	43	0	1586495488	16	4656
2026-01-01 08:31:14.64	353.08	9.18	-28.3	-30.8	13.0	3.73e-05	0	43	0	1589641216	16	4810
2026-01-01 08:31:15.64	352.97	9.11	-28.4	-31.1	12.9	4.57e-05	0	43	0	1592786944	16	4893
2026-01-01 08:31:16.64	352.86	9.04	-28.5	-30.8	12.7	6.25e-05	0	43	0	1595932672	17	4687
2026-01-01 08:31:17.65	352.76	8.98	-28.7	-31.3	12.4	1.16e-04	0	43	0	1599078400	17	4846
2026-01-01 08:31:18.64	352.65	8.91	-28.7	-31.4	12.4	1.64e-04	0	43	0	1602224128	17	4900
2026-01-01 08:31:19.64	352.55	8.85	-28.8	-31.5	12.3	1.75e-04	0	43	0	1605369856	17	4945
2026-01-01 08:31:20.65	352.44	8.78	-28.8	-31.5	12.3	2.05e-04	0	43	0	1608515584	17	4928
2026-01-01 08:31:21.65	352.34	8.71	-28.7	-31.3	12.4	1.44e-04	0	43	0	1611661312	17	4844
2026-01-01 08:31:22.65	352.24	8.65	-28.6	-31.0	12.6	1.01e-04	0	43	0	1614807040	17	4761
2026-01-01 08:31:23.65	352.13	8.58	-28.6	-31.2	12.5	1.05e-04	0	43	0	1617952768	17	4813
2026-01-01 08:31:24.66	352.03	8.52	-28.5	-30.8	12.7	9.30e-05	0	43	0	1621098496	17	4689
2026-01-01 08:31:25.66	351.93	8.45	-28.4	-30.7	12.8	5.18e-05	0	43	0	1624244224	17	4662
2026-01-01 08:31:26.66	351.83	8.39	-28.3	-30.4	12.9	5.95e-05	0	43	0	1627389952	17	4576
2026-01-01 08:31:27.66	351.73	8.32	-28.3	-30.3	13.0	2.89e-05	0	43	0	1630535680	17	4550
2026-01-01 08:31:28.67	351.63	8.26	-28.4	-30.5	12.8	5.49e-05	0	43	0	1633681408	17	4590
2026-01-01 08:31:29.67	351.53	8.19	-28.3	-30.3	12.9	4.42e-05	0	43	0	1636827136	17	4532
2026-01-01 08:31:30.67	351.43	8.13	-28.2	-30.0	13.2	3.20e-05	0	43	0	1639972864	17	4438
2026-01-01 08:31:31.67	351.33	8.06	-28.1	-29.8	13.3	1.98e-05	0	43	0	1643118592	17	4378
2026-01-01 08:31:32.68	351.23	8.00	-28.3	-30.2	13.0	3.66e-05	0	43	0	1646264320	17	4506
2026-01-01 08:31:33.68	351.13	7.93	-28.2	-30.1	13.0	3.96e-05	0	43	0	1649410048	17	4479
2026-01-01 08:31:34.69	351.03	7.87	-28.2	-30.1	13.1	3.35e-05	0	43	0	1652555776	17	4474
2026-01-01 08:31:35.70	350.94	7.80	-28.3	-30.4	12.9	5.26e-05	0	43	0	1655701504	17	4560
2026-01-01 08:31:36.70	350.84	7.74	-28.4	-30.5	12.8	8.46e-05	0	43	0	1658847232	17	4605
2026-01-01 08:31:37.71	350.74	7.67	-28.5	-30.8	12.6	8.08e-05	0	43	0	1661992960	17	4698
2026-01-01 08:31:38.71	350.65	7.61	-28.6	-31.0	12.5	1.40e-04	0	43	0	1665138688	17	4776
2026-01-01 08:31:39.72	350.55	7.55	-28.6	-31.1	12.4	1.24e-04	0	43	0	1668284416	17	4800
2026-01-01 08:31:40.72	350.46	7.48	-28.8	-31.5	12.2	2.11e-04	0	43	0	1671430144	17	4936
2026-01-01 08:31:41.72	350.36	7.42	-28.8	-31.6	12.1	2.53e-04	0	43	0	1674575872	17	4972
2026-01-01 08:31:42.73	350.27	7.35	-28.8	-31.5	12.1	2.59e-04	0	43	0	1677721600	17	4953
2026-01-01 08:31:43.73	350.17	7.29	-28.8	-31.7	12.0	3.28e-04	0	43	0	1680867328	17	5021
2026-01-01 08:31:44.74	350.08	7.23	-28.9	-31.9	11.8	3.59e-04	0	43	0	1684013056	17	5075
2026-01-01 08:31:45.74	349.99	7.16	-28.9	-32.0	11.8	4.69e-04	0	43	0	1687158784	17	5115
2026-01-01 08:31:46.75	349.89	7.10	-28.9	-32.0	11.8	4.59e-04	0	43	0	1690304512	17	5112
2026-01-01 08:31:47.75	349.80	7.03	-32.6	-43.2	3.9	9.40e-01	0	43	104	1692401664	25	12171
2026-01-01 08:31:48.75	349.71	6.97	-33.0	-44.9	3.8	1.49e+00	0	43	104	1692401664	25	14226

#Closed at: 2026-01-01 08:31:49
#Recorded file [1692 MB]: D:/data/31010_260101_112245.dat