passes_logs/2026/01/01/R2M6_AANII_01/R2M6_AANII_01__20260101_023841_NOAA_20_JPSS-1_rec.log

#Pass ID: 20260101_023841_NOAA 20 (JPSS-1)
#Satellite: NOAA 20 (JPSS-1)
#Configuration: NOAA 20
#almurnet v.1.7.20240730
#Start time: 2026-01-01 02:38:41

#Version: 2.2.20231116
#Station: R2M6_AANII_01
#Location: 30.233357 lon 59.946436 lat
#TLE: 1 43013U 17073A   25365.45761817  .00000173  00000+0  10307-3 0  9993
#TLE: 2 43013  98.7620 301.5517 0001951  60.3814 299.7557 14.19531661420675

#Time	Az	El	Level	Level2	SNR	BER	BlckErr	Temp	State	Recorded	gain1	gain2
2026-01-01 02:38:41.24	9.21	6.99	-31.7	-41.9	4.0	1.46e+00	0	40	0	0	23	11671
2026-01-01 02:38:42.24	9.11	7.05	-31.6	-40.7	4.2	1.40e+00	0	40	104	0	23	10273
2026-01-01 02:38:43.24	9.00	7.11	-31.6	-40.7	4.7	6.53e-01	0	40	104	0	23	10265
2026-01-01 02:38:44.25	8.89	7.17	-31.6	-40.6	4.3	1.40e+00	0	40	104	0	23	10141
2026-01-01 02:38:45.24	8.79	7.23	-31.6	-40.5	5.1	6.58e-01	0	40	0	0	23	10079
2026-01-01 02:38:46.25	8.68	7.29	-31.6	-40.7	5.0	6.66e-01	0	40	0	2097152	23	10195
2026-01-01 02:38:47.25	8.57	7.34	-31.6	-40.8	5.0	7.03e-01	0	40	0	3145728	23	10339
2026-01-01 02:38:48.25	8.46	7.40	-31.7	-40.9	5.0	6.96e-01	0	40	0	5242880	23	10369
2026-01-01 02:38:49.25	8.35	7.46	-31.7	-41.2	4.8	8.14e-01	0	40	0	7340032	23	10751
2026-01-01 02:38:50.25	8.25	7.52	-31.6	-40.4	5.2	7.09e-01	0	41	0	9437184	23	9843
2026-01-01 02:38:51.24	8.14	7.58	-31.5	-39.5	5.8	4.53e-01	0	40	0	10485760	23	9043
2026-01-01 02:38:52.24	8.03	7.64	-31.4	-39.0	6.4	3.02e-01	0	41	0	12582912	22	8677
2026-01-01 02:38:53.24	7.92	7.70	-31.2	-37.9	7.2	1.92e-01	0	41	0	14680064	22	7837
2026-01-01 02:38:54.25	7.81	7.76	-31.0	-37.1	7.9	8.61e-02	0	41	0	16777216	22	7250
2026-01-01 02:38:55.25	7.70	7.81	-30.8	-36.7	8.6	4.74e-02	0	41	0	18874368	21	7084
2026-01-01 02:38:56.25	7.58	7.87	-30.7	-36.1	9.1	2.86e-02	0	41	0	19922944	21	6713
2026-01-01 02:38:57.26	7.47	7.93	-30.5	-35.5	9.5	1.82e-02	0	41	0	22020096	21	6415
2026-01-01 02:38:58.26	7.36	7.99	-30.4	-35.1	9.9	1.02e-02	0	41	0	24117248	21	6189
2026-01-01 02:38:59.26	7.24	8.05	-30.4	-35.5	10.0	8.37e-03	0	41	0	26214400	20	6460
2026-01-01 02:39:00.26	7.13	8.11	-30.4	-35.6	9.9	9.01e-03	0	41	0	28311552	20	6549
2026-01-01 02:39:01.26	7.02	8.17	-30.4	-35.5	10.0	8.59e-03	0	41	0	29360128	20	6502
2026-01-01 02:39:02.27	6.90	8.23	-30.4	-35.7	9.8	9.77e-03	0	41	0	31457280	20	6571
2026-01-01 02:39:03.27	6.79	8.29	-30.4	-35.6	9.9	8.51e-03	0	41	0	33554432	20	6539
2026-01-01 02:39:04.26	6.67	8.34	-30.5	-35.7	9.8	9.25e-03	0	41	0	35651584	20	6581
2026-01-01 02:39:05.26	6.56	8.40	-30.4	-35.6	9.9	9.09e-03	0	41	0	37748736	20	6558
2026-01-01 02:39:06.27	6.44	8.46	-30.5	-35.5	9.7	1.04e-02	0	41	0	38797312	21	6344
2026-01-01 02:39:07.27	6.32	8.52	-30.6	-35.7	9.5	1.38e-02	0	41	0	40894464	21	6495
2026-01-01 02:39:08.27	6.21	8.58	-30.5	-35.3	9.8	1.03e-02	0	41	0	42991616	21	6267
2026-01-01 02:39:09.27	6.09	8.64	-30.5	-35.3	9.8	9.36e-03	0	41	0	45088768	21	6250
2026-01-01 02:39:10.28	5.97	8.70	-30.5	-35.4	9.8	9.83e-03	0	41	0	46137344	21	6299
2026-01-01 02:39:11.28	5.85	8.76	-30.6	-35.6	9.6	1.16e-02	0	41	0	48234496	21	6408
2026-01-01 02:39:12.28	5.73	8.82	-30.5	-35.4	9.8	9.66e-03	0	41	0	50331648	21	6312
2026-01-01 02:39:13.29	5.61	8.88	-30.6	-35.5	9.7	1.20e-02	0	41	0	52428800	21	6385
2026-01-01 02:39:14.29	5.49	8.94	-30.5	-35.3	9.9	9.65e-03	0	41	0	54525952	21	6236
2026-01-01 02:39:15.29	5.37	9.00	-29.5	-34.2	9.9	7.83e-03	0	41	0	56623104	21	6152
2026-01-01 02:39:16.29	5.25	9.06	-30.4	-35.4	10.1	7.51e-03	0	41	0	57671680	20	6403
2026-01-01 02:39:17.30	5.12	9.12	-30.3	-35.2	9.9	5.40e-03	0	41	0	59768832	20	6308
2026-01-01 02:39:18.31	5.00	9.18	-30.3	-35.1	9.8	4.37e-03	0	41	0	61865984	20	6250
2026-01-01 02:39:19.31	4.88	9.24	-30.3	-34.9	10.4	3.55e-03	0	42	0	63963136	20	6135
2026-01-01 02:39:20.32	4.75	9.30	-30.2	-34.7	10.0	2.82e-03	0	41	0	65011712	20	6057
2026-01-01 02:39:21.31	4.63	9.35	-30.2	-34.6	10.1	2.47e-03	0	41	0	67108864	20	5980
2026-01-01 02:39:22.31	4.51	9.41	-30.2	-34.5	10.9	2.41e-03	0	41	0	69206016	20	5923
2026-01-01 02:39:23.31	4.38	9.47	-30.1	-34.2	11.0	1.62e-03	0	42	0	71303168	20	5822
2026-01-01 02:39:24.32	4.25	9.53	-30.1	-34.3	10.8	1.69e-03	0	41	0	73400320	20	5869
2026-01-01 02:39:25.31	4.13	9.59	-30.1	-34.4	11.0	2.38e-03	0	41	0	74448896	20	5891
2026-01-01 02:39:26.32	4.00	9.65	-30.2	-34.6	10.9	1.91e-03	0	42	0	76546048	20	5972
2026-01-01 02:39:27.32	3.87	9.71	-30.2	-34.5	11.0	2.04e-03	0	42	0	78643200	20	5943
2026-01-01 02:39:28.32	3.75	9.77	-30.1	-34.3	11.1	1.80e-03	0	41	0	80740352	20	5820
2026-01-01 02:39:29.33	3.62	9.83	-30.0	-34.1	11.2	1.38e-03	0	41	0	82837504	20	5761
2026-01-01 02:39:30.33	3.49	9.89	-30.1	-34.4	11.0	1.62e-03	0	42	0	83886080	20	5869
2026-01-01 02:39:31.34	3.36	9.95	-30.2	-34.5	11.0	1.69e-03	0	42	0	85983232	20	5926
2026-01-01 02:39:32.34	3.23	10.01	-30.2	-34.7	10.8	5.96e-03	0	42	0	88080384	20	6017
2026-01-01 02:39:33.34	3.10	10.07	-30.1	-34.3	11.1	2.03e-03	0	42	0	90177536	20	5857
2026-01-01 02:39:34.34	2.97	10.13	-30.0	-33.9	11.4	1.34e-03	0	42	0	92274688	20	5652
2026-01-01 02:39:35.35	2.83	10.19	-30.0	-33.9	11.4	3.84e-03	0	42	0	93323264	20	5653
2026-01-01 02:39:36.35	2.70	10.25	-30.0	-34.0	11.3	1.04e-03	0	42	0	95420416	20	5702
2026-01-01 02:39:37.35	2.57	10.31	-30.1	-34.1	11.2	1.11e-03	0	42	0	97517568	20	5748
2026-01-01 02:39:38.36	2.44	10.37	-30.1	-34.1	11.3	1.29e-03	0	42	0	99614720	20	5754
2026-01-01 02:39:39.37	2.30	10.43	-30.0	-34.0	11.4	4.25e-03	0	42	0	101711872	20	5687
2026-01-01 02:39:40.37	2.17	10.49	-29.9	-33.8	11.5	8.59e-04	0	42	0	102760448	20	5608
2026-01-01 02:39:41.37	2.03	10.55	-30.0	-34.3	11.6	6.98e-04	0	42	0	104857600	19	5908
2026-01-01 02:39:42.37	1.90	10.61	-30.0	-34.2	11.7	3.31e-03	0	42	0	106954752	19	5878
2026-01-01 02:39:43.38	1.76	10.67	-30.0	-33.8	11.5	1.20e-03	0	42	0	109051904	20	5603
2026-01-01 02:39:44.38	1.62	10.73	-30.0	-34.3	11.7	5.80e-04	0	42	0	110100480	19	5892
2026-01-01 02:39:45.38	1.49	10.78	-30.0	-33.9	11.5	7.87e-04	0	42	0	112197632	20	5621
2026-01-01 02:39:46.38	1.35	10.84	-30.0	-33.9	11.5	1.13e-03	0	42	0	114294784	20	5634
2026-01-01 02:39:47.38	1.21	10.90	-30.0	-34.0	11.4	1.04e-03	0	42	0	116391936	20	5670
2026-01-01 02:39:48.38	1.07	10.96	-30.0	-34.0	11.4	9.31e-04	0	42	0	118489088	20	5693
2026-01-01 02:39:49.39	0.93	11.02	-30.1	-34.3	11.2	1.50e-03	0	42	0	119537664	20	5806
2026-01-01 02:39:50.38	0.79	11.08	-30.3	-34.7	10.9	5.11e-03	0	42	0	121634816	20	6034
2026-01-01 02:39:51.39	0.65	11.14	-30.3	-35.0	10.7	2.72e-03	0	42	0	123731968	20	6135
2026-01-01 02:39:52.39	0.51	11.20	-30.3	-34.8	10.8	2.91e-03	0	42	0	125829120	20	6061
2026-01-01 02:39:53.39	0.37	11.26	-30.2	-34.6	11.0	4.88e-03	0	42	0	127926272	20	5949
2026-01-01 02:39:54.39	0.23	11.32	-30.3	-34.7	10.9	2.31e-03	0	42	0	128974848	20	6033
2026-01-01 02:39:55.40	0.08	11.38	-30.2	-34.6	11.0	2.42e-03	0	42	0	131072000	20	5968
2026-01-01 02:39:56.40	359.94	11.44	-30.3	-34.8	10.9	5.18e-03	0	42	0	133169152	20	6062
2026-01-01 02:39:57.41	359.79	11.50	-30.4	-35.1	10.6	6.89e-03	0	42	0	135266304	20	6203
2026-01-01 02:39:58.41	359.65	11.56	-30.2	-34.5	11.1	2.37e-03	0	42	0	137363456	20	5913
2026-01-01 02:39:59.41	359.50	11.61	-30.0	-33.9	11.5	3.85e-03	0	42	0	138412032	20	5641
2026-01-01 02:40:00.41	359.36	11.67	-29.9	-33.7	11.7	3.36e-03	0	42	0	140509184	20	5534
2026-01-01 02:40:01.42	359.21	11.73	-30.0	-34.1	11.8	8.87e-04	0	42	0	142606336	19	5813
2026-01-01 02:40:02.42	359.06	11.79	-30.0	-34.1	11.9	3.10e-03	0	42	0	144703488	19	5817
2026-01-01 02:40:03.42	358.92	11.85	-30.0	-34.1	11.8	3.48e-03	0	42	0	146800640	19	5817
2026-01-01 02:40:04.42	358.77	11.91	-29.9	-33.5	11.8	9.39e-04	0	42	0	147849216	20	5454
2026-01-01 02:40:05.42	358.62	11.97	-29.9	-33.6	11.8	4.78e-04	0	42	0	149946368	20	5488
2026-01-01 02:40:06.42	358.47	12.03	-29.9	-33.6	11.9	3.31e-03	0	42	0	152043520	20	5469
2026-01-01 02:40:07.42	358.32	12.09	-29.9	-33.6	11.8	9.15e-04	0	42	0	154140672	20	5479
2026-01-01 02:40:08.43	358.17	12.14	-30.0	-33.8	11.6	3.43e-03	0	42	0	155189248	20	5588
2026-01-01 02:40:09.43	358.02	12.20	-30.0	-33.9	11.6	3.40e-03	0	42	0	157286400	20	5614
2026-01-01 02:40:10.44	357.86	12.26	-30.0	-33.9	11.6	1.24e-03	0	42	0	159383552	20	5606
2026-01-01 02:40:11.44	357.71	12.32	-30.1	-34.2	11.4	3.76e-03	0	42	0	161480704	20	5778
2026-01-01 02:40:12.44	357.56	12.38	-30.1	-34.3	11.4	4.00e-03	0	42	0	163577856	20	5779
2026-01-01 02:40:13.44	357.40	12.44	-30.2	-34.3	11.3	1.91e-03	0	42	0	164626432	20	5774
2026-01-01 02:40:14.45	357.25	12.50	-30.1	-34.1	11.5	3.85e-03	0	42	0	166723584	20	5686
2026-01-01 02:40:15.45	357.09	12.55	-30.1	-34.2	11.4	3.73e-03	0	42	0	168820736	20	5753
2026-01-01 02:40:16.45	356.94	12.61	-30.2	-34.3	11.3	1.81e-03	0	42	0	170917888	20	5810
2026-01-01 02:40:17.45	356.78	12.67	-30.2	-34.3	11.3	3.81e-03	0	42	0	173015040	20	5808
2026-01-01 02:40:18.45	356.62	12.73	-30.2	-34.5	11.2	3.86e-03	0	42	0	174063616	20	5879
2026-01-01 02:40:19.46	356.46	12.79	-30.2	-34.5	11.2	1.39e-03	0	42	0	176160768	20	5903
2026-01-01 02:40:20.45	356.31	12.84	-30.3	-34.8	11.0	4.28e-03	0	42	0	178257920	20	6012
2026-01-01 02:40:21.45	356.15	12.90	-30.3	-34.8	11.0	4.64e-03	0	43	0	180355072	20	6041
2026-01-01 02:40:22.46	355.99	12.96	-30.3	-34.8	11.0	2.27e-03	0	42	0	182452224	20	6017
2026-01-01 02:40:23.46	355.83	13.02	-30.3	-34.8	11.0	4.55e-03	0	42	0	183500800	20	6032
2026-01-01 02:40:24.47	355.67	13.07	-30.4	-34.9	10.9	4.81e-03	0	42	0	185597952	20	6066
2026-01-01 02:40:25.47	355.50	13.13	-30.2	-34.5	11.2	1.95e-03	0	42	0	187695104	20	5864
2026-01-01 02:40:26.47	355.34	13.19	-30.2	-34.3	11.3	1.06e-03	0	42	0	189792256	20	5804
2026-01-01 02:40:27.47	355.18	13.25	-30.2	-34.4	11.4	3.20e-03	0	42	0	191889408	20	5818
2026-01-01 02:40:28.48	355.02	13.30	-30.2	-34.4	11.3	1.75e-03	0	42	0	192937984	20	5837
2026-01-01 02:40:29.48	354.85	13.36	-30.2	-34.4	11.3	3.37e-03	0	42	0	195035136	20	5815
2026-01-01 02:40:30.49	354.69	13.42	-30.3	-34.5	11.2	1.05e-03	0	42	0	197132288	20	5887
2026-01-01 02:40:31.49	354.52	13.47	-30.3	-34.8	11.0	2.20e-03	0	42	0	199229440	20	6003
2026-01-01 02:40:32.48	354.36	13.53	-30.3	-34.8	11.0	4.15e-03	0	42	0	200278016	20	6021
2026-01-01 02:40:33.49	354.19	13.59	-30.3	-34.8	11.0	1.84e-03	0	42	0	202375168	20	6032
2026-01-01 02:40:34.50	354.02	13.64	-30.3	-34.6	11.1	2.21e-03	0	42	0	204472320	20	5938
2026-01-01 02:40:35.50	353.85	13.70	-30.3	-34.7	11.1	3.83e-03	0	42	0	206569472	20	5975
2026-01-01 02:40:36.50	353.68	13.76	-30.3	-34.6	11.2	1.48e-03	0	42	0	208666624	20	5914
2026-01-01 02:40:37.50	353.51	13.81	-30.2	-34.2	11.5	9.90e-04	0	42	0	209715200	20	5749
2026-01-01 02:40:38.50	353.34	13.87	-30.2	-34.2	11.5	2.95e-03	0	42	0	211812352	20	5722
2026-01-01 02:40:39.49	353.18	13.92	-30.2	-34.3	11.5	2.74e-03	0	42	0	213909504	20	5773
2026-01-01 02:40:40.50	353.00	13.98	-30.3	-34.7	11.2	1.09e-03	0	42	0	216006656	20	5947
2026-01-01 02:40:41.51	352.83	14.04	-30.3	-34.5	11.2	1.63e-03	0	43	0	218103808	20	5892
2026-01-01 02:40:42.51	352.66	14.09	-30.1	-34.0	11.7	2.85e-03	0	42	0	219152384	20	5643
2026-01-01 02:40:43.52	352.48	14.15	-30.0	-33.6	11.9	3.79e-04	0	42	0	221249536	20	5454
2026-01-01 02:40:44.52	352.31	14.20	-30.0	-34.0	12.1	2.69e-04	0	43	0	223346688	19	5724
2026-01-01 02:40:45.52	352.14	14.26	-29.9	-33.9	12.2	1.79e-03	0	43	0	225443840	19	5675
2026-01-01 02:40:46.52	351.96	14.31	-29.8	-33.6	12.4	4.58e-04	0	42	0	227540992	19	5554
2026-01-01 02:40:47.53	351.78	14.37	-29.8	-33.6	12.4	1.33e-04	0	42	0	228589568	19	5570
2026-01-01 02:40:48.53	351.61	14.42	-29.9	-33.7	12.3	1.32e-04	0	43	0	230686720	19	5611
2026-01-01 02:40:49.53	351.43	14.48	-29.9	-33.9	12.1	3.68e-04	0	43	0	232783872	19	5701
2026-01-01 02:40:50.53	351.25	14.53	-30.0	-33.6	12.0	3.58e-04	0	42	0	234881024	20	5466
2026-01-01 02:40:51.54	351.07	14.58	-29.9	-33.5	12.1	4.24e-04	0	42	0	236978176	20	5426
2026-01-01 02:40:52.54	350.89	14.64	-29.9	-33.9	12.2	3.70e-04	0	43	0	238026752	19	5674
2026-01-01 02:40:53.54	350.71	14.69	-29.9	-34.0	12.2	2.32e-04	0	42	0	240123904	19	5714
2026-01-01 02:40:54.54	350.53	14.75	-30.0	-33.7	12.0	3.00e-04	0	43	0	242221056	20	5498
2026-01-01 02:40:55.55	350.35	14.80	-30.1	-34.2	11.6	4.71e-04	0	42	0	244318208	20	5714
2026-01-01 02:40:56.56	350.17	14.85	-30.1	-33.9	11.7	3.06e-03	0	42	0	246415360	20	5604
2026-01-01 02:40:57.57	349.98	14.91	-29.9	-33.4	12.2	3.11e-04	0	42	0	247463936	20	5363
2026-01-01 02:40:58.57	349.80	14.96	-29.9	-33.8	12.3	1.74e-04	0	42	0	249561088	19	5662
2026-01-01 02:40:59.58	349.61	15.01	-29.9	-33.7	12.4	2.21e-04	0	43	0	251658240	19	5583
2026-01-01 02:41:00.58	349.43	15.07	-29.8	-33.4	12.6	1.18e-04	0	43	0	253755392	19	5472
2026-01-01 02:41:01.58	349.25	15.12	-29.7	-33.2	12.7	8.23e-05	0	43	0	254803968	19	5395
2026-01-01 02:41:02.59	349.06	15.17	-29.7	-33.2	12.7	6.86e-05	0	43	0	256901120	19	5374
2026-01-01 02:41:03.60	348.87	15.22	-29.6	-33.0	12.8	6.33e-05	0	43	0	258998272	19	5321
2026-01-01 02:41:04.60	348.68	15.27	-29.6	-33.0	12.8	5.79e-05	0	42	0	261095424	19	5331
2026-01-01 02:41:05.61	348.49	15.33	-29.6	-32.9	12.9	5.72e-05	0	43	0	263192576	19	5273
2026-01-01 02:41:06.61	348.31	15.38	-29.7	-33.2	12.7	3.28e-05	0	43	0	265289728	19	5389
2026-01-01 02:41:07.61	348.12	15.43	-29.6	-33.1	12.8	1.12e-04	0	43	0	266338304	19	5345
2026-01-01 02:41:08.61	347.93	15.48	-29.4	-32.3	13.3	2.82e-05	0	43	0	268435456	19	5038
2026-01-01 02:41:09.61	347.74	15.53	-29.2	-32.2	13.7	6.10e-06	0	43	0	270532608	18	5119
2026-01-01 02:41:10.62	347.54	15.58	-29.0	-31.7	14.0	3.80e-06	0	43	0	272629760	18	4940
2026-01-01 02:41:11.62	347.35	15.63	-28.9	-31.6	14.2	7.00e-07	0	43	0	273678336	18	4878
2026-01-01 02:41:12.62	347.16	15.68	-29.0	-31.7	14.1	3.00e-06	0	42	0	275775488	18	4925
2026-01-01 02:41:13.63	346.97	15.73	-29.0	-31.7	14.1	3.80e-06	0	43	0	277872640	18	4912
2026-01-01 02:41:14.63	346.77	15.78	-29.0	-32.1	14.1	0.00e+00	0	43	0	279969792	17	5198
2026-01-01 02:41:15.63	346.58	15.83	-28.9	-32.1	14.0	1.50e-06	0	43	0	282066944	17	5198
2026-01-01 02:41:16.64	346.38	15.88	-29.0	-31.9	14.0	2.20e-06	0	43	0	283115520	18	4984
2026-01-01 02:41:17.64	346.19	15.93	-29.1	-32.1	13.8	3.80e-06	0	42	0	285212672	18	5054
2026-01-01 02:41:18.64	345.99	15.98	-29.1	-32.0	13.9	6.10e-06	0	43	0	287309824	18	5020
2026-01-01 02:41:19.65	345.79	16.03	-29.0	-32.2	13.9	4.50e-06	0	43	0	289406976	17	5232
2026-01-01 02:41:20.65	345.59	16.08	-28.9	-32.0	14.1	1.50e-06	0	43	0	291504128	17	5143
2026-01-01 02:41:21.65	345.40	16.12	-28.9	-32.0	14.2	7.00e-07	0	42	0	292552704	17	5151
2026-01-01 02:41:22.66	345.20	16.17	-28.9	-32.0	14.2	1.50e-06	0	42	0	294649856	17	5146
2026-01-01 02:41:23.66	345.00	16.22	-28.9	-32.1	14.1	0.00e+00	0	43	0	296747008	17	5174
2026-01-01 02:41:24.66	344.80	16.27	-29.1	-31.9	14.0	3.80e-06	0	43	0	298844160	18	5002
2026-01-01 02:41:25.67	344.59	16.31	-29.2	-32.2	13.8	3.80e-06	0	42	0	300941312	18	5089
2026-01-01 02:41:26.67	344.39	16.36	-29.2	-32.2	13.7	6.10e-06	0	42	0	301989888	18	5104
2026-01-01 02:41:27.67	344.19	16.41	-29.1	-32.1	13.8	2.20e-06	0	43	0	304087040	18	5067
2026-01-01 02:41:28.67	343.99	16.45	-29.2	-32.3	13.7	3.80e-06	0	43	0	306184192	18	5138
2026-01-01 02:41:29.68	343.78	16.50	-29.1	-32.1	13.8	4.50e-06	0	43	0	308281344	18	5088
2026-01-01 02:41:30.68	343.58	16.54	-29.2	-32.3	13.7	5.30e-06	0	43	0	310378496	18	5145
2026-01-01 02:41:31.69	343.37	16.59	-29.2	-32.4	13.6	8.30e-06	0	43	0	311427072	18	5180
2026-01-01 02:41:32.69	343.17	16.63	-29.2	-32.3	13.7	6.10e-06	0	43	0	313524224	18	5153
2026-01-01 02:41:33.70	342.96	16.68	-29.3	-32.5	13.5	1.29e-05	0	43	0	315621376	18	5226
2026-01-01 02:41:34.70	342.75	16.72	-29.4	-32.8	13.4	2.70e-03	0	43	0	317718528	18	5319
2026-01-01 02:41:35.71	342.55	16.77	-29.4	-32.7	13.4	1.83e-05	0	43	0	319815680	18	5295
2026-01-01 02:41:36.70	342.34	16.81	-29.3	-32.6	13.5	1.14e-05	0	43	0	320864256	18	5249
2026-01-01 02:41:37.70	342.13	16.85	-29.4	-32.7	13.5	2.64e-03	0	43	0	322961408	18	5292
2026-01-01 02:41:38.71	341.92	16.90	-29.3	-32.5	13.6	2.56e-03	0	43	0	325058560	18	5213
2026-01-01 02:41:39.71	341.71	16.94	-29.2	-32.3	13.7	1.06e-05	0	43	0	327155712	18	5144
2026-01-01 02:41:40.71	341.50	16.98	-29.3	-32.5	13.6	2.53e-03	0	42	0	329252864	18	5201
2026-01-01 02:41:41.72	341.29	17.03	-29.2	-32.4	13.7	2.80e-03	0	43	0	330301440	18	5163
2026-01-01 02:41:42.72	341.08	17.07	-29.2	-32.3	13.7	6.10e-06	0	43	0	332398592	18	5146
2026-01-01 02:41:43.72	340.87	17.11	-29.2	-32.2	13.8	2.20e-06	0	43	0	334495744	18	5088
2026-01-01 02:41:44.72	340.65	17.15	-29.1	-32.0	13.9	2.67e-03	0	43	0	336592896	18	5027
2026-01-01 02:41:45.73	340.44	17.19	-29.1	-31.9	14.0	2.44e-04	0	43	0	337641472	18	5002
2026-01-01 02:41:46.73	340.23	17.23	-29.1	-32.0	13.9	3.00e-06	0	43	0	339738624	18	5041
2026-01-01 02:41:47.74	340.01	17.27	-29.0	-31.6	14.2	2.50e-03	0	43	0	341835776	18	4885
2026-01-01 02:41:48.73	339.80	17.31	-28.8	-31.2	14.4	2.72e-04	0	43	0	343932928	18	4739
2026-01-01 02:41:49.74	339.58	17.35	-28.7	-31.5	14.5	2.47e-03	0	43	0	346030080	17	4959
2026-01-01 02:41:50.74	339.36	17.39	-28.7	-31.4	14.6	2.74e-03	0	43	0	347078656	17	4928
2026-01-01 02:41:51.74	339.15	17.43	-28.8	-31.6	14.5	2.78e-04	0	43	0	349175808	17	4992
2026-01-01 02:41:52.74	338.93	17.47	-28.9	-31.8	14.4	2.76e-03	0	43	0	351272960	17	5075
2026-01-01 02:41:53.75	338.71	17.50	-28.8	-31.8	14.4	0.00e+00	0	43	0	353370112	17	5062
2026-01-01 02:41:54.76	338.49	17.54	-28.8	-31.7	14.5	2.77e-04	0	43	0	355467264	17	5022
2026-01-01 02:41:55.77	338.27	17.58	-28.8	-31.6	14.5	2.66e-03	0	43	0	356515840	17	4989
2026-01-01 02:41:56.76	338.05	17.62	-28.7	-31.5	14.6	2.46e-03	0	43	0	358612992	17	4964
2026-01-01 02:41:57.76	337.83	17.65	-28.6	-31.2	14.7	2.14e-04	0	43	0	360710144	17	4858
2026-01-01 02:41:58.77	337.61	17.69	-28.6	-31.3	14.7	2.44e-03	0	42	0	362807296	17	4878
2026-01-01 02:41:59.77	337.39	17.73	-28.6	-31.3	14.7	2.79e-03	0	43	0	364904448	17	4878
2026-01-01 02:42:00.78	337.17	17.76	-28.7	-31.5	14.6	1.27e-04	0	43	0	365953024	17	4956
2026-01-01 02:42:01.78	336.95	17.80	-28.7	-31.4	14.6	2.64e-03	0	43	0	368050176	17	4910
2026-01-01 02:42:02.78	336.72	17.83	-28.8	-31.7	14.4	2.52e-03	0	43	0	370147328	17	5034
2026-01-01 02:42:03.78	336.50	17.86	-28.6	-31.3	14.7	1.44e-05	0	43	0	372244480	17	4868
2026-01-01 02:42:04.78	336.28	17.90	-28.5	-31.3	15.0	2.52e-03	0	43	0	374341632	16	5001
2026-01-01 02:42:05.77	336.06	17.93	-28.6	-31.2	14.8	2.30e-03	0	43	0	375390208	17	4864
2026-01-01 02:42:06.78	335.83	17.96	-28.6	-31.1	14.8	6.80e-06	0	43	0	377487360	17	4805
2026-01-01 02:42:07.78	335.60	18.00	-28.6	-31.1	14.8	2.34e-03	0	43	0	379584512	17	4836
2026-01-01 02:42:08.78	335.38	18.03	-28.6	-31.3	14.7	2.67e-03	0	43	0	381681664	17	4882
2026-01-01 02:42:09.78	335.15	18.06	-28.6	-31.1	14.8	0.00e+00	0	43	0	382730240	17	4810
2026-01-01 02:42:10.79	334.92	18.09	-28.6	-31.1	14.8	2.62e-03	0	43	0	384827392	17	4834
2026-01-01 02:42:11.79	334.70	18.12	-28.8	-31.6	14.5	8.43e-04	0	43	0	386924544	17	5008
2026-01-01 02:42:12.80	334.47	18.15	-28.8	-31.7	14.4	0.00e+00	0	43	0	389021696	17	5032
2026-01-01 02:42:13.80	334.24	18.18	-28.7	-31.4	14.6	2.50e-03	0	43	0	391118848	17	4933
2026-01-01 02:42:14.80	334.01	18.21	-28.5	-31.0	14.9	0.00e+00	0	43	0	392167424	17	4783
2026-01-01 02:42:15.80	333.78	18.24	-28.5	-30.8	15.1	0.00e+00	0	43	0	394264576	17	4719
2026-01-01 02:42:16.81	333.55	18.27	-28.5	-31.3	15.1	2.27e-03	0	43	0	396361728	16	4993
2026-01-01 02:42:17.81	333.32	18.30	-28.4	-31.1	15.2	2.49e-03	0	43	0	398458880	16	4931
2026-01-01 02:42:18.81	333.09	18.33	-28.4	-31.2	15.1	0.00e+00	0	43	0	400556032	16	4974
2026-01-01 02:42:19.82	332.86	18.35	-28.5	-31.3	15.1	2.44e-03	0	43	0	401604608	16	5004
2026-01-01 02:42:20.82	332.63	18.38	-28.6	-31.1	14.9	2.39e-03	0	43	0	403701760	17	4800
2026-01-01 02:42:21.83	332.40	18.41	-28.6	-31.2	14.8	0.00e+00	0	43	0	405798912	17	4837
2026-01-01 02:42:22.84	332.16	18.43	-28.6	-31.3	14.8	1.62e-03	0	43	0	407896064	17	4862
2026-01-01 02:42:23.84	331.93	18.46	-28.7	-31.5	14.6	2.29e-03	0	43	0	409993216	17	4940
2026-01-01 02:42:24.85	331.70	18.49	-28.7	-31.4	14.6	0.00e+00	0	43	0	411041792	17	4930
2026-01-01 02:42:25.85	331.46	18.51	-28.7	-31.4	14.7	7.00e-07	0	43	0	413138944	17	4919
2026-01-01 02:42:26.86	331.23	18.53	-28.7	-31.5	14.6	2.48e-03	0	43	0	415236096	17	4937
2026-01-01 02:42:27.86	330.99	18.56	-28.7	-31.4	14.7	0.00e+00	0	43	0	417333248	17	4905
2026-01-01 02:42:28.86	330.76	18.58	-28.8	-31.6	14.6	7.00e-07	0	43	0	419430400	17	4977
2026-01-01 02:42:29.86	330.53	18.60	-28.9	-32.0	14.3	0.00e+00	0	43	0	420478976	17	5133
2026-01-01 02:42:30.87	330.29	18.63	-29.1	-31.9	14.1	7.00e-07	0	43	0	422576128	18	4975
2026-01-01 02:42:31.87	330.05	18.65	-29.2	-32.3	13.8	3.80e-06	0	43	0	424673280	18	5134
2026-01-01 02:42:32.87	329.82	18.67	-29.3	-32.5	13.7	9.10e-06	0	43	0	426770432	18	5199
2026-01-01 02:42:33.87	329.58	18.69	-29.4	-32.7	13.6	6.10e-06	0	43	0	428867584	18	5260
2026-01-01 02:42:34.87	329.35	18.71	-29.4	-32.6	13.7	2.47e-03	0	43	0	429916160	18	5236
2026-01-01 02:42:35.87	329.11	18.73	-29.4	-32.8	13.5	9.90e-06	0	43	0	432013312	18	5297
2026-01-01 02:42:36.87	328.88	18.75	-29.4	-32.7	13.7	5.30e-06	0	43	0	434110464	18	5274
2026-01-01 02:42:37.88	328.64	18.77	-29.4	-32.9	13.5	2.65e-03	0	43	0	436207616	18	5333
2026-01-01 02:42:38.87	328.40	18.79	-29.4	-32.7	13.5	7.60e-06	0	43	0	437256192	18	5289
2026-01-01 02:42:39.87	328.16	18.80	-29.4	-32.7	13.6	4.50e-06	0	43	0	439353344	18	5276
2026-01-01 02:42:40.87	327.93	18.82	-29.4	-32.8	13.5	6.10e-06	0	43	0	441450496	18	5318
2026-01-01 02:42:41.87	327.69	18.84	-29.5	-32.6	13.3	2.35e-03	0	43	0	443547648	19	5144
2026-01-01 02:42:42.87	327.45	18.85	-29.8	-33.3	12.8	2.59e-05	0	43	0	445644800	19	5415
2026-01-01 02:42:43.87	327.21	18.87	-29.6	-32.9	13.1	4.95e-05	0	43	0	446693376	19	5239
2026-01-01 02:42:44.88	326.97	18.88	-29.4	-32.3	13.5	2.56e-03	0	43	0	448790528	19	5008
2026-01-01 02:42:45.88	326.73	18.90	-29.3	-32.5	13.7	8.30e-06	0	43	0	450887680	18	5206
2026-01-01 02:42:46.88	326.49	18.91	-29.3	-32.5	13.7	3.80e-06	0	43	0	452984832	18	5199
2026-01-01 02:42:47.89	326.25	18.93	-29.4	-32.8	13.6	9.90e-06	0	43	0	455081984	18	5298
2026-01-01 02:42:48.89	326.01	18.94	-29.4	-32.7	13.5	6.10e-06	0	43	0	456130560	18	5276
2026-01-01 02:42:49.89	325.77	18.95	-29.5	-32.6	13.4	6.80e-06	0	43	0	458227712	19	5107
2026-01-01 02:42:50.89	325.53	18.97	-29.8	-33.3	12.9	2.74e-05	0	43	0	460324864	19	5391
2026-01-01 02:42:51.90	325.29	18.98	-29.8	-33.2	12.9	5.34e-05	0	43	0	462422016	19	5369
2026-01-01 02:42:52.90	325.05	18.99	-29.7	-33.1	13.0	4.50e-05	0	43	0	464519168	19	5326
2026-01-01 02:42:53.90	324.81	19.00	-29.7	-33.1	13.0	3.89e-05	0	43	0	465567744	19	5306
2026-01-01 02:42:54.91	324.56	19.01	-29.7	-33.1	13.0	4.04e-05	0	43	0	467664896	19	5305
2026-01-01 02:42:55.91	324.32	19.02	-29.8	-33.3	12.9	4.57e-05	0	43	0	469762048	19	5397
2026-01-01 02:42:56.91	324.08	19.03	-29.6	-32.8	13.1	2.97e-05	0	43	0	471859200	19	5222
2026-01-01 02:42:57.92	323.84	19.04	-29.5	-32.5	13.4	1.37e-05	0	43	0	473956352	19	5098
2026-01-01 02:42:58.92	323.60	19.04	-29.5	-32.6	13.4	1.98e-05	0	43	0	475004928	19	5117
2026-01-01 02:42:59.92	323.36	19.05	-29.6	-32.7	13.3	1.75e-05	0	43	0	477102080	19	5160
2026-01-01 02:43:00.92	323.11	19.06	-29.7	-33.0	13.0	2.44e-05	0	43	0	479199232	19	5292
2026-01-01 02:43:01.93	322.87	19.07	-29.7	-33.1	13.0	2.59e-05	0	43	0	481296384	19	5329
2026-01-01 02:43:02.93	322.63	19.07	-29.8	-33.4	12.8	5.11e-05	0	43	0	482344960	19	5448
2026-01-01 02:43:03.94	322.38	19.08	-29.9	-33.6	12.7	7.85e-05	0	43	0	484442112	19	5519
2026-01-01 02:43:04.93	322.14	19.08	-29.9	-33.7	12.5	8.31e-05	0	43	0	486539264	19	5576
2026-01-01 02:43:05.93	321.90	19.09	-29.9	-33.7	12.6	1.13e-04	0	43	0	488636416	19	5560
2026-01-01 02:43:06.93	321.66	19.09	-29.9	-33.7	12.6	8.39e-05	0	43	0	490733568	19	5549
2026-01-01 02:43:07.93	321.42	19.09	-29.9	-33.7	12.6	6.86e-05	0	43	0	491782144	19	5561
2026-01-01 02:43:08.94	321.17	19.10	-29.7	-33.2	12.9	6.63e-05	0	43	0	493879296	19	5350
2026-01-01 02:43:09.94	320.93	19.10	-29.6	-32.9	13.0	2.82e-05	0	43	0	495976448	19	5233
2026-01-01 02:43:10.94	320.69	19.10	-29.6	-32.7	13.2	2.28e-05	0	43	0	498073600	19	5147
2026-01-01 02:43:11.95	320.44	19.10	-29.7	-32.9	13.1	1.83e-05	0	43	0	500170752	19	5249
2026-01-01 02:43:12.94	320.20	19.10	-29.5	-32.6	13.4	2.28e-05	0	43	0	501219328	19	5108
2026-01-01 02:43:13.95	319.96	19.10	-29.7	-33.1	13.0	1.06e-05	0	43	0	503316480	19	5310
2026-01-01 02:43:14.95	319.72	19.10	-29.5	-32.5	13.4	2.13e-05	0	43	0	505413632	19	5073
2026-01-01 02:43:15.94	319.48	19.10	-29.4	-32.7	13.5	2.44e-03	0	43	0	507510784	18	5295
2026-01-01 02:43:16.94	319.23	19.10	-29.5	-32.9	13.4	1.06e-05	0	43	0	509607936	18	5354
2026-01-01 02:43:17.94	318.99	19.10	-29.5	-32.6	13.3	2.05e-05	0	43	0	510656512	19	5125
2026-01-01 02:43:18.94	318.75	19.09	-29.6	-32.9	13.2	1.52e-05	0	43	0	512753664	19	5231
2026-01-01 02:43:19.95	318.51	19.09	-29.7	-33.1	13.0	2.43e-04	0	43	0	514850816	19	5305
2026-01-01 02:43:20.95	318.26	19.09	-29.8	-33.5	12.7	5.03e-05	0	43	0	516947968	19	5486
2026-01-01 02:43:21.95	318.02	19.08	-30.0	-33.4	12.4	1.02e-04	0	43	0	519045120	20	5336
2026-01-01 02:43:22.96	317.78	19.08	-29.8	-33.3	12.8	2.38e-03	0	43	0	520093696	19	5398
2026-01-01 02:43:23.96	317.53	19.07	-29.6	-32.8	13.2	3.20e-05	0	43	0	522190848	19	5198
2026-01-01 02:43:24.96	317.29	19.07	-29.4	-32.9	13.5	1.06e-05	0	43	0	524288000	18	5340
2026-01-01 02:43:25.96	317.05	19.06	-29.4	-32.7	13.6	9.10e-06	0	43	0	526385152	18	5264
2026-01-01 02:43:26.97	316.81	19.05	-29.3	-32.5	13.7	8.21e-04	0	43	0	527433728	18	5196
2026-01-01 02:43:27.97	316.57	19.04	-29.3	-32.6	13.7	4.50e-06	0	43	0	529530880	18	5226
2026-01-01 02:43:28.98	316.32	19.04	-29.4	-32.9	13.5	7.60e-06	0	43	0	531628032	18	5336
2026-01-01 02:43:29.98	316.08	19.03	-29.6	-32.9	13.2	8.75e-04	0	43	0	533725184	19	5229
2026-01-01 02:43:30.99	315.84	19.02	-29.4	-32.8	13.6	2.71e-03	0	43	0	535822336	18	5304
2026-01-01 02:43:32.00	315.59	19.01	-29.6	-32.7	13.3	1.44e-05	0	43	0	537919488	19	5158
2026-01-01 02:43:33.00	315.35	19.00	-29.8	-33.3	12.9	1.22e-03	0	43	0	538968064	19	5380
2026-01-01 02:43:34.01	315.11	18.99	-29.5	-32.4	13.5	2.54e-03	0	43	0	541065216	19	5053
2026-01-01 02:43:35.00	314.87	18.98	-29.4	-32.8	13.5	8.30e-06	0	43	0	543162368	18	5316
2026-01-01 02:43:36.01	314.63	18.97	-29.3	-32.5	13.7	1.50e-06	0	43	0	545259520	18	5195
2026-01-01 02:43:37.01	314.39	18.95	-29.3	-32.6	13.6	2.06e-03	0	43	0	546308096	18	5222
2026-01-01 02:43:38.01	314.15	18.94	-29.3	-32.5	13.7	2.38e-03	0	43	0	548405248	18	5200
2026-01-01 02:43:39.02	313.91	18.93	-29.4	-32.7	13.6	6.80e-06	0	43	0	550502400	18	5280
2026-01-01 02:43:40.01	313.67	18.91	-29.3	-32.5	13.7	2.63e-03	0	43	0	552599552	18	5189
2026-01-01 02:43:41.02	313.43	18.90	-29.1	-31.9	14.1	2.58e-03	0	43	0	554696704	18	4966
2026-01-01 02:43:42.01	313.19	18.88	-28.9	-31.5	14.4	6.17e-05	0	43	0	555745280	18	4836
2026-01-01 02:43:43.01	312.95	18.87	-28.9	-31.8	14.4	1.50e-06	0	43	0	557842432	17	5070
2026-01-01 02:43:44.02	312.71	18.85	-29.0	-32.1	14.3	2.41e-03	0	43	0	559939584	17	5159
2026-01-01 02:43:45.03	312.47	18.84	-28.8	-31.8	14.4	4.78e-04	0	43	0	562036736	17	5049
2026-01-01 02:43:46.03	312.23	18.82	-29.0	-32.1	14.3	1.50e-06	0	43	0	564133888	17	5148
2026-01-01 02:43:47.04	311.99	18.80	-29.1	-31.8	14.1	2.68e-03	0	43	0	565182464	18	4955
2026-01-01 02:43:48.05	311.75	18.78	-29.0	-31.7	14.2	2.99e-04	0	43	0	567279616	18	4908
2026-01-01 02:43:49.05	311.51	18.77	-29.1	-32.1	14.0	2.68e-03	0	43	0	569376768	18	5031
2026-01-01 02:43:50.05	311.28	18.75	-29.0	-31.7	14.2	2.63e-03	0	43	0	571473920	18	4903
2026-01-01 02:43:51.06	311.04	18.73	-28.9	-31.5	14.4	2.51e-04	0	43	0	573571072	18	4829
2026-01-01 02:43:52.06	310.80	18.71	-28.9	-31.9	14.4	2.57e-03	0	43	0	574619648	17	5093
2026-01-01 02:43:53.06	310.56	18.69	-28.8	-31.7	14.5	0.00e+00	0	43	0	576716800	17	5016
2026-01-01 02:43:54.06	310.33	18.67	-29.0	-32.1	14.2	1.33e-04	0	43	0	578813952	17	5169
2026-01-01 02:43:55.06	310.09	18.65	-28.6	-31.3	14.8	2.08e-03	0	43	0	580911104	17	4866
2026-01-01 02:43:56.06	309.86	18.62	-28.5	-30.8	15.0	2.31e-03	0	43	0	583008256	17	4721
2026-01-01 02:43:57.06	309.62	18.60	-28.3	-30.4	15.3	1.06e-05	0	43	0	584056832	17	4593
2026-01-01 02:43:58.07	309.39	18.58	-28.3	-31.0	15.3	2.30e-03	0	43	0	586153984	16	4875
2026-01-01 02:43:59.07	309.15	18.56	-28.4	-31.2	15.1	2.25e-03	0	43	0	588251136	16	4954
2026-01-01 02:44:00.07	308.92	18.53	-28.5	-31.4	15.0	0.00e+00	0	43	0	590348288	16	5023
2026-01-01 02:44:01.08	308.68	18.51	-28.7	-31.4	14.7	2.44e-03	0	43	0	591396864	17	4906
2026-01-01 02:44:02.08	308.45	18.48	-28.9	-31.9	14.3	2.27e-03	0	43	0	593494016	17	5088
2026-01-01 02:44:03.09	308.21	18.46	-28.7	-31.5	14.6	7.00e-07	0	43	0	595591168	17	4940
2026-01-01 02:44:04.09	307.98	18.43	-28.5	-31.0	14.9	2.35e-03	0	43	0	597688320	17	4778
2026-01-01 02:44:05.10	307.75	18.41	-28.4	-30.8	15.1	2.57e-03	0	43	0	599785472	17	4706
2026-01-01 02:44:06.10	307.52	18.38	-28.5	-30.9	15.0	7.00e-07	0	43	0	601882624	17	4737
2026-01-01 02:44:07.10	307.29	18.35	-28.4	-31.2	15.1	0.00e+00	0	43	0	602931200	16	4956
2026-01-01 02:44:08.11	307.05	18.32	-28.4	-31.1	15.2	2.45e-03	0	43	0	605028352	16	4912
2026-01-01 02:44:09.11	306.82	18.30	-28.4	-31.2	15.1	7.40e-05	0	43	0	607125504	16	4944
2026-01-01 02:44:10.11	306.59	18.27	-28.5	-31.3	15.0	2.33e-03	0	43	0	609222656	16	4996
2026-01-01 02:44:11.12	306.36	18.24	-28.6	-31.1	14.8	0.00e+00	0	43	0	610271232	17	4828
2026-01-01 02:44:12.11	306.14	18.21	-28.8	-31.7	14.5	7.00e-07	0	43	0	612368384	17	5031
2026-01-01 02:44:13.11	305.91	18.18	-28.8	-31.6	14.5	1.95e-03	0	43	0	614465536	17	4999
2026-01-01 02:44:14.11	305.68	18.15	-29.0	-32.1	14.2	1.50e-06	0	43	0	616562688	17	5183
2026-01-01 02:44:15.12	305.45	18.12	-29.0	-32.1	14.2	7.00e-07	0	43	0	618659840	17	5184
2026-01-01 02:44:16.11	305.22	18.09	-28.9	-32.0	14.3	2.28e-03	0	43	0	619708416	17	5139
2026-01-01 02:44:17.11	305.00	18.06	-28.9	-32.1	14.2	2.36e-03	0	43	0	621805568	17	5162
2026-01-01 02:44:18.11	304.77	18.03	-29.0	-31.8	14.1	0.00e+00	0	43	0	623902720	18	4960
2026-01-01 02:44:19.12	304.54	17.99	-28.9	-32.0	14.2	2.47e-03	0	43	0	625999872	17	5146
2026-01-01 02:44:20.13	304.32	17.96	-29.0	-32.2	14.2	2.29e-03	0	43	0	628097024	17	5192
2026-01-01 02:44:21.13	304.09	17.93	-29.0	-31.8	14.1	3.80e-06	0	43	0	629145600	18	4932
2026-01-01 02:44:22.13	303.87	17.90	-29.2	-32.4	13.7	2.27e-03	0	43	0	631242752	18	5156
2026-01-01 02:44:23.13	303.64	17.86	-29.1	-32.0	13.9	2.52e-03	0	43	0	633339904	18	5024
2026-01-01 02:44:24.14	303.42	17.83	-29.0	-31.8	14.1	3.00e-06	0	43	0	635437056	18	4945
2026-01-01 02:44:25.14	303.20	17.79	-29.0	-31.8	14.1	2.20e-06	0	43	0	637534208	18	4937
2026-01-01 02:44:26.14	302.97	17.76	-29.0	-31.8	14.1	2.24e-03	0	43	0	638582784	18	4946
2026-01-01 02:44:27.14	302.75	17.72	-29.1	-32.0	13.9	1.01e-04	0	43	0	640679936	18	5023
2026-01-01 02:44:28.15	302.53	17.69	-29.2	-32.2	13.8	3.80e-06	0	43	0	642777088	18	5093
2026-01-01 02:44:29.15	302.31	17.65	-29.3	-32.5	13.6	6.80e-06	0	43	0	644874240	18	5204
2026-01-01 02:44:30.16	302.09	17.61	-29.3	-32.6	13.6	2.14e-04	0	43	0	646971392	18	5241
2026-01-01 02:44:31.16	301.87	17.58	-29.3	-32.5	13.6	1.06e-05	0	43	0	648019968	18	5221
2026-01-01 02:44:32.16	301.65	17.54	-29.3	-32.6	13.6	6.10e-06	0	43	0	650117120	18	5238
2026-01-01 02:44:33.16	301.43	17.50	-29.2	-32.3	13.7	1.91e-04	0	43	0	652214272	18	5139
2026-01-01 02:44:34.17	301.21	17.46	-29.2	-32.2	13.8	3.00e-06	0	43	0	654311424	18	5103
2026-01-01 02:44:35.17	300.99	17.42	-29.2	-32.3	13.7	3.80e-06	0	43	0	655360000	18	5151
2026-01-01 02:44:36.16	300.78	17.39	-29.3	-32.6	13.5	1.44e-05	0	43	0	657457152	18	5261
2026-01-01 02:44:37.16	300.56	17.35	-29.2	-32.2	13.8	5.30e-06	0	43	0	659554304	18	5092
2026-01-01 02:44:38.17	300.34	17.31	-29.1	-32.0	13.9	3.80e-06	0	43	0	661651456	18	5012
2026-01-01 02:44:39.16	300.13	17.27	-29.0	-31.9	14.0	4.50e-06	0	43	0	663748608	18	4980
2026-01-01 02:44:40.16	299.91	17.23	-29.1	-31.9	14.0	5.35e-04	0	43	0	664797184	18	4996
2026-01-01 02:44:41.17	299.70	17.19	-29.1	-32.0	13.9	2.20e-06	0	43	0	666894336	18	5045
2026-01-01 02:44:42.16	299.49	17.15	-29.2	-32.3	13.7	9.90e-06	0	43	0	668991488	18	5134
2026-01-01 02:44:43.16	299.27	17.11	-29.1	-32.1	13.8	1.06e-05	0	43	0	671088640	18	5071
2026-01-01 02:44:44.17	299.06	17.06	-29.1	-32.0	13.9	2.21e-03	0	43	0	673185792	18	5033
2026-01-01 02:44:45.17	298.85	17.02	-29.1	-32.0	13.9	5.30e-06	0	43	0	674234368	18	5037
2026-01-01 02:44:46.17	298.64	16.98	-29.1	-32.1	13.8	6.10e-06	0	43	0	676331520	18	5074
2026-01-01 02:44:47.17	298.43	16.94	-29.0	-31.8	14.0	3.80e-06	0	43	0	678428672	18	4960
2026-01-01 02:44:48.17	298.22	16.89	-29.1	-32.0	13.9	4.50e-06	0	43	0	680525824	18	5021
2026-01-01 02:44:49.18	298.01	16.85	-29.2	-32.3	13.6	9.10e-06	0	43	0	681574400	18	5162
2026-01-01 02:44:50.18	297.80	16.81	-29.2	-32.2	13.7	7.60e-06	0	43	0	683671552	18	5118
2026-01-01 02:44:51.18	297.59	16.76	-29.2	-32.3	13.7	8.05e-04	0	43	0	685768704	18	5146
2026-01-01 02:44:52.18	297.38	16.72	-29.3	-32.6	13.5	9.10e-06	0	43	0	687865856	18	5273
2026-01-01 02:44:53.19	297.17	16.67	-29.3	-32.5	13.6	6.80e-06	0	43	0	689963008	18	5211
2026-01-01 02:44:54.19	296.97	16.63	-29.3	-32.6	13.5	8.30e-06	0	43	0	692060160	18	5262
2026-01-01 02:44:55.19	296.76	16.58	-29.3	-32.6	13.4	1.29e-05	0	43	0	693108736	18	5275
2026-01-01 02:44:56.19	296.56	16.54	-29.2	-32.2	13.7	6.10e-06	0	43	0	695205888	18	5111
2026-01-01 02:44:57.20	296.35	16.49	-29.1	-31.9	14.0	5.30e-06	0	43	0	697303040	18	4998
2026-01-01 02:44:58.20	296.15	16.45	-29.1	-32.0	13.9	3.80e-06	0	43	0	699400192	18	5016
2026-01-01 02:44:59.20	295.94	16.40	-29.1	-32.1	13.8	7.60e-06	0	43	0	700448768	18	5081
2026-01-01 02:45:00.21	295.74	16.35	-29.2	-32.2	13.7	1.50e-06	0	43	0	702545920	18	5107
2026-01-01 02:45:01.21	295.54	16.31	-29.3	-32.5	13.5	8.30e-06	0	43	0	704643072	18	5203
2026-01-01 02:45:02.21	295.34	16.26	-29.2	-32.4	13.6	1.06e-05	0	43	0	706740224	18	5179
2026-01-01 02:45:03.21	295.14	16.21	-29.4	-32.8	13.3	1.67e-05	0	43	0	708837376	18	5338
2026-01-01 02:45:04.22	294.93	16.17	-29.4	-32.8	13.3	1.67e-05	0	43	0	709885952	18	5336
2026-01-01 02:45:05.22	294.73	16.12	-29.6	-32.8	13.0	3.35e-05	0	43	0	711983104	19	5226
2026-01-01 02:45:06.23	294.53	16.07	-29.6	-33.0	12.8	6.63e-05	0	43	0	714080256	19	5324
2026-01-01 02:45:07.24	294.33	16.02	-28.6	-31.8	12.9	4.50e-05	0	43	0	716177408	19	5206
2026-01-01 02:45:08.25	294.14	15.97	-29.5	-32.8	12.9	3.43e-05	0	43	0	718274560	19	5218
2026-01-01 02:45:09.25	293.94	15.92	-30.0	-33.7	12.5	3.96e-05	0	43	0	719323136	19	5482
2026-01-01 02:45:10.25	293.74	15.87	-29.6	-33.0	11.4	6.40e-05	0	43	0	721420288	19	5304
2026-01-01 02:45:11.26	293.55	15.82	-29.6	-32.8	12.3	4.19e-05	0	43	0	723517440	19	5233
2026-01-01 02:45:12.26	293.35	15.78	-29.5	-33.1	12.3	2.82e-05	0	43	0	725614592	18	5469
2026-01-01 02:45:13.27	293.15	15.72	-29.5	-32.8	12.2	4.88e-05	0	43	0	727711744	19	5218
2026-01-01 02:45:14.27	292.96	15.67	-29.6	-32.8	12.9	3.89e-05	0	43	0	728760320	19	5248
2026-01-01 02:45:15.27	292.77	15.62	-29.6	-33.1	12.4	2.62e-03	0	43	0	730857472	19	5348
2026-01-01 02:45:16.27	292.58	15.57	-29.5	-33.1	13.0	3.81e-05	0	43	0	732954624	18	5454
2026-01-01 02:45:17.28	292.38	15.52	-29.4	-32.9	13.2	1.83e-05	0	43	0	735051776	18	5384
2026-01-01 02:45:18.28	292.19	15.47	-29.5	-32.7	13.0	3.05e-05	0	43	0	737148928	19	5192
2026-01-01 02:45:19.29	292.00	15.42	-29.5	-33.0	13.1	4.04e-05	0	43	0	738197504	18	5440
2026-01-01 02:45:20.29	291.81	15.37	-29.5	-32.7	13.0	2.89e-05	0	43	0	740294656	19	5188
2026-01-01 02:45:21.29	291.62	15.32	-29.5	-32.8	12.9	3.12e-05	0	43	0	742391808	19	5223
2026-01-01 02:45:22.29	291.43	15.27	-29.6	-32.9	12.8	2.63e-03	0	43	0	744488960	19	5286
2026-01-01 02:45:23.29	291.25	15.21	-29.5	-32.8	12.9	4.65e-05	0	43	0	746586112	19	5231
2026-01-01 02:45:24.29	291.06	15.16	-29.6	-32.9	12.8	4.27e-05	0	43	0	747634688	19	5292
2026-01-01 02:45:25.30	290.87	15.11	-29.7	-33.1	12.7	2.97e-03	0	43	0	749731840	19	5384
2026-01-01 02:45:26.30	290.69	15.06	-29.6	-32.9	12.8	7.55e-05	0	43	0	751828992	19	5277
2026-01-01 02:45:27.31	290.50	15.00	-29.6	-33.0	12.8	5.87e-05	0	43	0	753926144	19	5319
2026-01-01 02:45:28.31	290.32	14.95	-29.6	-33.1	12.7	7.24e-05	0	43	0	754974720	19	5378
2026-01-01 02:45:29.31	290.13	14.90	-29.8	-33.5	12.5	1.01e-04	0	43	0	757071872	19	5516
2026-01-01 02:45:30.31	289.95	14.85	-29.8	-33.7	12.3	1.46e-04	0	43	0	759169024	19	5602
2026-01-01 02:45:31.32	289.76	14.79	-29.8	-33.7	12.3	1.81e-04	0	43	0	761266176	19	5606
2026-01-01 02:45:32.32	289.58	14.74	-29.9	-34.0	12.0	3.50e-04	0	43	0	763363328	19	5739
2026-01-01 02:45:33.32	289.40	14.68	-29.9	-33.9	12.1	2.80e-04	0	43	0	764411904	19	5718
2026-01-01 02:45:34.33	289.22	14.63	-30.0	-34.1	12.0	3.12e-04	0	43	0	766509056	19	5802
2026-01-01 02:45:35.33	289.04	14.58	-29.9	-33.6	11.9	3.94e-04	0	43	0	768606208	20	5473
2026-01-01 02:45:36.33	288.86	14.52	-29.9	-33.9	12.1	3.47e-03	0	43	0	770703360	19	5694
2026-01-01 02:45:37.34	288.68	14.47	-29.8	-33.8	12.2	2.44e-04	0	43	0	772800512	19	5648
2026-01-01 02:45:38.34	288.50	14.41	-29.8	-33.5	12.3	1.72e-04	0	43	0	773849088	19	5546
2026-01-01 02:45:39.34	288.33	14.36	-29.8	-33.5	12.3	2.89e-03	0	43	0	775946240	19	5547
2026-01-01 02:45:40.35	288.15	14.30	-29.8	-33.7	12.2	2.60e-03	0	43	0	778043392	19	5627
2026-01-01 02:45:41.36	287.97	14.25	-29.9	-33.8	12.1	2.01e-04	0	43	0	780140544	19	5667
2026-01-01 02:45:42.36	287.80	14.19	-30.0	-33.6	11.8	2.66e-03	0	43	0	782237696	20	5485
2026-01-01 02:45:43.36	287.62	14.14	-30.0	-34.1	11.9	2.95e-03	0	43	0	783286272	19	5802
2026-01-01 02:45:44.37	287.45	14.08	-30.1	-34.0	11.6	4.33e-04	0	43	0	785383424	20	5642
2026-01-01 02:45:45.37	287.27	14.03	-30.1	-34.3	11.4	8.51e-04	0	43	0	787480576	20	5779
2026-01-01 02:45:46.37	287.10	13.97	-30.1	-34.3	11.4	4.07e-03	0	43	0	789577728	20	5783
2026-01-01 02:45:47.38	286.93	13.91	-30.2	-34.6	11.1	2.40e-03	0	43	0	791674880	20	5933
2026-01-01 02:45:48.38	286.76	13.86	-30.2	-34.5	11.1	1.58e-03	0	43	0	792723456	20	5916
2026-01-01 02:45:49.38	286.59	13.80	-30.1	-34.2	11.4	3.90e-03	0	43	0	794820608	20	5755
2026-01-01 02:45:50.38	286.42	13.75	-30.0	-33.9	11.6	1.58e-03	0	43	0	796917760	20	5634
2026-01-01 02:45:51.38	286.25	13.69	-30.1	-34.0	11.5	2.43e-03	0	43	0	799014912	20	5674
2026-01-01 02:45:52.39	286.08	13.63	-30.0	-33.8	11.6	4.07e-03	0	43	0	801112064	20	5595
2026-01-01 02:45:53.39	285.91	13.58	-30.2	-34.4	11.2	1.49e-03	0	43	0	802160640	20	5854
2026-01-01 02:45:54.40	285.74	13.52	-30.3	-34.7	11.0	5.17e-03	0	43	0	804257792	20	5988
2026-01-01 02:45:55.40	285.58	13.46	-30.2	-34.3	11.3	1.48e-03	0	43	0	806354944	20	5798
2026-01-01 02:45:56.41	285.41	13.40	-30.1	-34.3	11.3	2.22e-03	0	43	0	808452096	20	5805
2026-01-01 02:45:57.41	285.24	13.35	-30.1	-34.3	11.3	4.54e-03	0	43	0	810549248	20	5808
2026-01-01 02:45:58.42	285.08	13.29	-30.1	-34.3	11.2	4.48e-03	0	43	0	811597824	20	5819
2026-01-01 02:45:59.41	284.91	13.23	-30.1	-34.1	11.5	2.46e-03	0	43	0	813694976	20	5696
2026-01-01 02:46:00.41	284.75	13.18	-30.0	-33.9	11.5	3.79e-03	0	43	0	815792128	20	5633
2026-01-01 02:46:01.41	284.59	13.12	-30.0	-33.8	11.6	4.13e-03	0	43	0	817889280	20	5569
2026-01-01 02:46:02.42	284.43	13.06	-30.0	-34.2	11.8	5.80e-04	0	43	0	818937856	19	5843
2026-01-01 02:46:03.42	284.26	13.00	-29.9	-34.0	11.9	3.67e-03	0	43	0	821035008	19	5767
2026-01-01 02:46:04.42	284.10	12.95	-29.9	-34.0	12.0	3.24e-03	0	43	0	823132160	19	5745
2026-01-01 02:46:05.43	283.94	12.89	-30.0	-33.7	11.7	8.63e-04	0	43	0	825229312	20	5539
2026-01-01 02:46:06.42	283.78	12.83	-30.2	-34.4	11.2	3.99e-03	0	43	0	827326464	20	5847
2026-01-01 02:46:07.43	283.62	12.77	-30.3	-34.7	10.9	5.27e-03	0	43	0	828375040	20	6027
2026-01-01 02:46:08.43	283.47	12.71	-30.2	-34.6	11.0	2.63e-03	0	43	0	830472192	20	5974
2026-01-01 02:46:09.44	283.31	12.66	-30.3	-34.8	10.8	2.39e-03	0	43	0	832569344	20	6070
2026-01-01 02:46:10.43	283.15	12.60	-30.3	-34.9	10.8	5.70e-03	0	43	0	834666496	20	6093
2026-01-01 02:46:11.44	282.99	12.54	-30.3	-35.0	10.7	3.92e-03	0	43	0	836763648	20	6146
2026-01-01 02:46:12.43	282.84	12.48	-30.3	-35.0	10.7	6.31e-03	0	43	0	837812224	20	6145
2026-01-01 02:46:13.44	282.68	12.42	-30.3	-34.9	10.8	6.90e-03	0	43	0	839909376	20	6094
2026-01-01 02:46:14.44	282.53	12.36	-30.1	-34.3	11.2	2.90e-03	0	43	0	842006528	20	5837
2026-01-01 02:46:15.45	282.37	12.30	-29.9	-33.7	11.7	4.06e-03	0	43	0	844103680	20	5523
2026-01-01 02:46:16.45	282.22	12.25	-29.8	-33.8	12.0	3.71e-04	0	43	0	846200832	19	5683
2026-01-01 02:46:17.45	282.07	12.19	-29.8	-33.8	12.0	1.06e-03	0	43	0	847249408	19	5695
2026-01-01 02:46:18.46	281.91	12.13	-29.8	-33.7	12.1	2.94e-03	0	43	0	849346560	19	5619
2026-01-01 02:46:19.46	281.76	12.07	-29.8	-33.7	12.1	2.59e-04	0	43	0	851443712	19	5642
2026-01-01 02:46:20.46	281.61	12.01	-29.9	-33.9	11.9	1.07e-03	0	43	0	853540864	19	5717
2026-01-01 02:46:21.46	281.46	11.95	-29.9	-34.1	11.8	3.46e-03	0	43	0	855638016	19	5832
2026-01-01 02:46:22.46	281.31	11.89	-29.9	-33.6	11.7	3.59e-03	0	43	0	856686592	20	5490
2026-01-01 02:46:23.47	281.16	11.83	-29.8	-33.2	12.0	3.75e-04	0	43	0	858783744	20	5344
2026-01-01 02:46:24.47	281.01	11.78	-29.7	-33.5	12.1	3.30e-03	0	43	0	860880896	19	5560
2026-01-01 02:46:25.48	280.86	11.72	-29.7	-33.4	12.2	3.08e-03	0	43	0	862978048	19	5506
2026-01-01 02:46:26.48	280.72	11.66	-29.7	-33.6	12.2	1.86e-04	0	43	0	864026624	19	5587
2026-01-01 02:46:27.48	280.57	11.60	-29.8	-33.7	12.0	3.81e-04	0	43	0	866123776	19	5641
2026-01-01 02:46:28.49	280.42	11.54	-29.6	-33.2	12.4	3.53e-03	0	43	0	868220928	19	5447
2026-01-01 02:46:29.49	280.28	11.48	-29.6	-33.0	12.4	1.27e-04	0	43	0	870318080	19	5368
2026-01-01 02:46:30.50	280.13	11.42	-29.6	-33.1	12.4	1.33e-04	0	43	0	872415232	19	5406
2026-01-01 02:46:31.50	279.99	11.36	-29.6	-33.2	12.3	3.25e-03	0	43	0	873463808	19	5460
2026-01-01 02:46:32.50	279.84	11.30	-29.6	-33.3	12.3	1.42e-03	0	43	0	875560960	19	5471
2026-01-01 02:46:33.50	279.70	11.24	-29.7	-33.4	12.2	2.88e-04	0	43	0	877658112	19	5543
2026-01-01 02:46:34.51	279.56	11.18	-29.6	-33.1	12.4	1.82e-04	0	43	0	879755264	19	5396
2026-01-01 02:46:35.51	279.42	11.12	-29.5	-32.8	12.6	7.11e-04	0	43	0	881852416	19	5269
2026-01-01 02:46:36.52	279.27	11.06	-29.5	-33.3	12.6	1.03e-04	0	43	0	882900992	18	5592
2026-01-01 02:46:37.52	279.13	11.00	-29.4	-33.2	12.7	9.30e-05	0	43	0	884998144	18	5547
2026-01-01 02:46:38.52	278.99	10.94	-29.4	-33.2	12.6	4.21e-04	0	43	0	887095296	18	5558
2026-01-01 02:46:39.53	278.85	10.88	-29.5	-33.3	12.6	2.97e-03	0	43	0	889192448	18	5588
2026-01-01 02:46:40.53	278.71	10.82	-29.5	-32.8	12.6	1.07e-04	0	43	0	891289600	19	5280
2026-01-01 02:46:41.53	278.58	10.76	-29.4	-33.2	12.7	8.23e-05	0	43	0	892338176	18	5556
2026-01-01 02:46:42.53	278.44	10.71	-29.5	-33.4	12.5	2.93e-03	0	43	0	894435328	18	5637
2026-01-01 02:46:43.53	278.30	10.65	-29.6	-33.4	12.1	1.89e-04	0	43	0	896532480	19	5521
2026-01-01 02:46:44.54	278.16	10.59	-29.6	-33.2	12.2	2.71e-04	0	43	0	898629632	19	5466
2026-01-01 02:46:45.54	278.03	10.53	-29.4	-32.7	12.6	1.50e-04	0	43	0	900726784	19	5243
2026-01-01 02:46:46.54	277.89	10.47	-29.4	-33.1	12.7	3.05e-03	0	43	0	901775360	18	5522
2026-01-01 02:46:47.54	277.76	10.41	-29.4	-33.1	12.6	1.07e-04	0	43	0	903872512	18	5532
2026-01-01 02:46:48.54	277.62	10.35	-29.3	-33.0	12.8	8.01e-05	0	43	0	905969664	18	5464
2026-01-01 02:46:49.54	277.49	10.29	-29.3	-32.8	12.9	2.98e-03	0	43	0	908066816	18	5406
2026-01-01 02:46:50.54	277.36	10.23	-29.3	-32.8	12.9	5.03e-05	0	43	0	910163968	18	5388
2026-01-01 02:46:51.55	277.22	10.17	-29.3	-32.8	12.9	6.02e-05	0	43	0	911212544	18	5382
2026-01-01 02:46:52.55	277.09	10.11	-29.2	-32.7	12.9	6.86e-05	0	43	0	913309696	18	5355
2026-01-01 02:46:53.55	276.96	10.05	-29.2	-32.6	13.0	4.34e-05	0	43	0	915406848	18	5314
2026-01-01 02:46:54.56	276.83	9.99	-29.3	-32.7	12.9	4.19e-05	0	43	0	917504000	18	5379
2026-01-01 02:46:55.56	276.70	9.93	-29.2	-32.7	12.9	6.86e-05	0	43	0	919601152	18	5368
2026-01-01 02:46:56.56	276.57	9.87	-29.1	-32.4	13.1	1.03e-04	0	43	0	920649728	18	5249
2026-01-01 02:46:57.56	276.44	9.81	-29.0	-32.1	13.3	2.21e-05	0	43	0	922746880	18	5142
2026-01-01 02:46:58.55	276.31	9.75	-29.1	-32.3	13.2	2.44e-05	0	43	0	924844032	18	5188
2026-01-01 02:46:59.56	276.18	9.69	-29.1	-32.4	13.1	3.50e-05	0	43	0	926941184	18	5234
2026-01-01 02:47:00.56	276.05	9.63	-29.1	-32.3	13.2	2.67e-05	0	43	0	927989760	18	5195
2026-01-01 02:47:01.55	275.93	9.57	-29.2	-32.6	12.9	3.58e-05	0	43	0	930086912	18	5333
2026-01-01 02:47:02.56	275.80	9.51	-29.2	-32.6	12.9	4.88e-05	0	43	0	932184064	18	5326
2026-01-01 02:47:03.56	275.67	9.45	-29.2	-32.7	12.8	2.74e-05	0	43	0	934281216	18	5374
2026-01-01 02:47:04.56	275.55	9.39	-29.3	-32.8	12.8	5.72e-05	0	43	0	936378368	18	5414
2026-01-01 02:47:05.57	275.42	9.33	-29.3	-32.8	12.7	6.86e-05	0	43	0	937426944	18	5429
2026-01-01 02:47:06.57	275.29	9.27	-29.3	-32.9	12.7	9.38e-05	0	43	0	939524096	18	5444
2026-01-01 02:47:07.56	275.17	9.21	-29.2	-32.6	12.9	3.96e-05	0	43	0	941621248	18	5319
2026-01-01 02:47:08.56	275.05	9.16	-29.2	-32.6	12.9	4.42e-05	0	43	0	943718400	18	5344
2026-01-01 02:47:09.57	274.92	9.10	-29.3	-33.0	12.6	5.79e-05	0	43	0	945815552	18	5496
2026-01-01 02:47:10.57	274.80	9.04	-29.4	-33.1	12.6	1.13e-04	0	43	0	946864128	18	5539
2026-01-01 02:47:11.57	274.68	8.98	-29.3	-32.8	12.7	8.54e-05	0	43	0	948961280	18	5422
2026-01-01 02:47:12.56	274.56	8.92	-29.3	-32.9	12.6	8.01e-05	0	43	0	951058432	18	5471
2026-01-01 02:47:13.56	274.44	8.86	-29.3	-33.0	12.6	8.85e-05	0	43	0	953155584	18	5514
2026-01-01 02:47:14.57	274.32	8.80	-29.4	-33.2	12.5	1.26e-04	0	43	0	954204160	18	5583
2026-01-01 02:47:15.56	274.20	8.74	-29.4	-33.3	12.3	1.74e-04	0	43	0	956301312	18	5636
2026-01-01 02:47:16.57	274.08	8.68	-29.4	-33.2	12.4	1.37e-04	0	43	0	958398464	18	5569
2026-01-01 02:47:17.58	273.96	8.62	-29.4	-33.3	12.3	1.37e-04	0	43	0	960495616	18	5634
2026-01-01 02:47:18.58	273.84	8.56	-29.5	-33.0	12.2	2.53e-04	0	43	0	962592768	19	5379
2026-01-01 02:47:19.59	273.72	8.50	-29.4	-33.3	11.6	1.55e-04	0	43	0	964689920	18	5630
2026-01-01 02:47:20.59	273.60	8.44	-29.5	-33.1	10.8	1.98e-04	0	43	0	965738496	19	5464
2026-01-01 02:47:21.60	273.48	8.38	-29.7	-33.7	10.4	4.58e-04	0	43	0	967835648	19	5695
2026-01-01 02:47:22.60	273.37	8.32	-29.6	-33.3	11.8	5.20e-04	0	43	0	969932800	19	5536
2026-01-01 02:47:23.60	273.25	8.26	-29.5	-33.3	11.6	2.55e-04	0	43	0	972029952	19	5558
2026-01-01 02:47:24.60	273.13	8.20	-29.5	-33.1	11.8	5.05e-04	0	43	0	973078528	19	5474
2026-01-01 02:47:25.61	273.02	8.14	-29.3	-33.1	12.4	1.79e-04	0	43	0	975175680	18	5545
2026-01-01 02:47:26.61	272.90	8.09	-29.2	-32.9	12.5	9.61e-05	0	43	0	977272832	18	5487
2026-01-01 02:47:27.61	272.79	8.03	-29.4	-33.5	12.1	1.84e-04	0	43	0	979369984	18	5727
2026-01-01 02:47:28.62	272.67	7.97	-29.5	-33.5	12.0	3.46e-04	0	43	0	981467136	18	5763
2026-01-01 02:47:29.62	272.56	7.91	-29.5	-33.5	12.0	2.94e-04	0	43	0	982515712	18	5753
2026-01-01 02:47:30.62	272.45	7.85	-29.7	-33.7	11.5	5.70e-04	0	43	0	984612864	19	5734
2026-01-01 02:47:31.62	272.34	7.79	-29.7	-33.8	11.5	3.52e-03	0	43	0	986710016	19	5766
2026-01-01 02:47:32.62	272.22	7.73	-29.5	-33.4	11.8	6.64e-04	0	43	0	988807168	19	5576
2026-01-01 02:47:33.63	272.11	7.67	-29.5	-33.6	11.9	4.24e-04	0	43	0	990904320	18	5797
2026-01-01 02:47:34.63	272.00	7.61	-29.6	-33.4	11.7	2.73e-03	0	43	0	991952896	19	5583
2026-01-01 02:47:35.64	271.89	7.55	-29.7	-33.9	11.3	8.34e-04	0	43	0	994050048	19	5833
2026-01-01 02:47:36.64	271.78	7.49	-29.8	-34.2	11.1	1.40e-03	0	43	0	996147200	19	5965
2026-01-01 02:47:37.65	271.67	7.43	-29.8	-34.3	11.0	1.34e-03	0	43	0	998244352	19	6023
2026-01-01 02:47:38.66	271.56	7.38	-29.7	-33.9	11.3	6.40e-03	0	43	0	1000341504	19	5839
2026-01-01 02:47:39.66	271.45	7.32	-29.7	-33.7	11.5	1.25e-03	0	43	0	1001390080	19	5724
2026-01-01 02:47:40.67	271.34	7.26	-29.7	-33.9	11.3	9.17e-04	0	43	0	1003487232	19	5822
2026-01-01 02:47:41.67	271.23	7.20	-29.7	-33.8	11.4	5.19e-03	0	43	0	1005584384	19	5762
2026-01-01 02:47:42.67	271.12	7.14	-29.8	-34.1	11.2	1.80e-03	0	43	0	1007681536	19	5923
2026-01-01 02:47:43.67	271.02	7.08	-29.8	-34.2	11.1	2.19e-03	0	43	0	1009778688	19	5977
2026-01-01 02:47:44.67	270.91	7.02	-32.1	-45.8	3.8	6.23e-01	0	43	104	1010827264	24	17371

#Closed at: 2026-01-01 02:47:45
#Recorded file [1010 MB]: D:/data/31010_260101_053845.dat