passes_logs/2026/01/01/R2M6_AANII_01/R2M6_AANII_01__20260101_003709_SUOMI_NPP_rec.log

#Pass ID: 20260101_003709_SUOMI NPP
#Satellite: SUOMI NPP
#Configuration: NPP
#almurnet v.1.7.20240730
#Start time: 2026-01-01 00:37:09

#Version: 2.2.20231116
#Station: R2M6_AANII_01
#Location: 30.233357 lon 59.946436 lat
#TLE: 1 37849U 11061A   25364.87906317  .00000195  00000+0  11345-3 0  9992
#TLE: 2 37849  98.7794 302.0592 0002571  89.2401 270.9069 14.19520347734561

#Time	Az	El	Level	Level2	SNR	BER	BlckErr	Temp	State	Recorded	gain1	gain2
2026-01-01 00:37:09.53	17.13	7.03	-31.5	-38.4	4.3	1.42e+00	0	40	0	0	23	7987
2026-01-01 00:37:10.52	17.12	7.11	-31.7	-40.1	4.1	1.46e+00	0	41	104	0	23	9436
2026-01-01 00:37:11.53	17.11	7.19	-31.7	-39.6	4.8	9.66e-01	0	41	0	0	23	8895
2026-01-01 00:37:12.53	17.11	7.27	-31.7	-39.6	4.8	7.72e-01	0	41	0	1048576	23	8886
2026-01-01 00:37:13.53	17.10	7.34	-31.7	-39.2	4.9	7.94e-01	0	41	0	3145728	23	8524
2026-01-01 00:37:14.54	17.09	7.42	-31.6	-38.5	5.3	6.39e-01	0	41	0	5242880	23	7965
2026-01-01 00:37:15.54	17.08	7.50	-31.5	-37.9	5.6	4.75e-01	0	41	0	7340032	23	7479
2026-01-01 00:37:16.55	17.08	7.58	-31.5	-38.0	5.9	3.39e-01	0	41	0	9437184	22	7654
2026-01-01 00:37:17.56	17.07	7.66	-31.5	-38.0	6.0	3.05e-01	0	41	0	10485760	22	7619
2026-01-01 00:37:18.56	17.06	7.74	-31.5	-37.6	5.9	3.58e-01	0	41	0	12582912	23	7234
2026-01-01 00:37:19.56	17.05	7.82	-31.4	-37.5	6.3	2.68e-01	0	41	0	14680064	22	7271
2026-01-01 00:37:20.56	17.04	7.90	-31.4	-37.3	6.5	2.30e-01	0	41	0	16777216	22	7107
2026-01-01 00:37:21.57	17.04	7.98	-31.4	-37.5	6.4	2.22e-01	0	41	0	17825792	22	7245
2026-01-01 00:37:22.57	17.03	8.06	-31.5	-37.9	6.1	2.96e-01	0	41	0	19922944	22	7501
2026-01-01 00:37:23.58	17.02	8.14	-31.5	-37.7	6.3	2.47e-01	0	41	0	22020096	22	7361
2026-01-01 00:37:24.59	17.01	8.22	-31.5	-37.6	6.0	2.80e-01	0	41	0	24117248	23	7230
2026-01-01 00:37:25.60	17.00	8.30	-31.5	-37.4	6.1	3.66e-01	0	41	0	26214400	23	7105
2026-01-01 00:37:26.60	17.00	8.38	-31.4	-37.3	6.5	2.49e-01	0	41	0	28311552	22	7121
2026-01-01 00:37:27.61	16.99	8.46	-31.3	-36.6	7.1	1.72e-01	0	41	0	29360128	22	6617
2026-01-01 00:37:28.62	16.98	8.54	-31.2	-36.1	7.5	1.34e-01	0	41	0	31457280	22	6337
2026-01-01 00:37:29.61	16.97	8.63	-31.1	-35.7	7.8	8.54e-02	0	41	0	33554432	22	6121
2026-01-01 00:37:30.62	16.96	8.71	-31.1	-35.8	7.7	7.85e-02	0	41	0	35651584	22	6182
2026-01-01 00:37:31.62	16.95	8.79	-31.1	-35.6	7.9	8.27e-02	0	41	0	36700160	22	6061
2026-01-01 00:37:32.62	16.94	8.87	-31.2	-35.9	7.7	7.88e-02	0	41	0	38797312	22	6236
2026-01-01 00:37:33.62	16.94	8.96	-31.2	-36.1	7.5	1.25e-01	0	41	0	40894464	22	6340
2026-01-01 00:37:34.62	16.93	9.04	-31.1	-35.8	7.8	7.78e-02	0	41	0	42991616	22	6132
2026-01-01 00:37:35.62	16.92	9.12	-31.3	-36.6	7.2	9.33e-02	0	41	0	45088768	22	6615
2026-01-01 00:37:36.62	16.91	9.21	-31.3	-36.7	7.1	1.59e-01	0	41	0	46137344	22	6653
2026-01-01 00:37:37.63	16.90	9.29	-31.2	-36.1	7.6	1.08e-01	0	41	0	48234496	22	6300
2026-01-01 00:37:38.63	16.89	9.37	-31.1	-35.7	7.9	7.66e-02	0	41	0	50331648	22	6119
2026-01-01 00:37:39.63	16.88	9.46	-30.9	-35.2	8.6	4.62e-02	0	42	0	52428800	21	5925
2026-01-01 00:37:40.64	16.87	9.54	-30.7	-34.7	9.1	2.91e-02	0	42	0	54525952	21	5655
2026-01-01 00:37:41.64	16.86	9.63	-30.7	-34.5	9.2	2.17e-02	0	42	0	55574528	21	5564
2026-01-01 00:37:42.65	16.85	9.72	-30.8	-34.6	9.1	2.48e-02	0	41	0	57671680	21	5624
2026-01-01 00:37:43.65	16.84	9.80	-30.7	-34.5	9.2	2.73e-02	0	41	0	59768832	21	5584
2026-01-01 00:37:44.65	16.83	9.89	-30.6	-34.2	9.4	2.26e-02	0	42	0	61865984	21	5414
2026-01-01 00:37:45.65	16.82	9.97	-30.6	-34.2	9.5	1.57e-02	0	42	0	63963136	21	5421
2026-01-01 00:37:46.65	16.81	10.06	-30.7	-34.3	9.4	2.08e-02	0	42	0	65011712	21	5446
2026-01-01 00:37:47.65	16.80	10.15	-30.6	-33.9	9.7	1.38e-02	0	42	0	67108864	21	5304
2026-01-01 00:37:48.65	16.79	10.23	-30.6	-34.2	9.5	1.17e-02	0	42	0	69206016	21	5431
2026-01-01 00:37:49.64	16.78	10.32	-30.5	-33.8	9.7	1.74e-02	0	41	0	71303168	21	5259
2026-01-01 00:37:50.64	16.77	10.41	-30.6	-34.0	9.7	1.02e-02	0	42	0	73400320	21	5332
2026-01-01 00:37:51.64	16.76	10.50	-30.6	-34.1	9.6	1.51e-02	0	42	0	74448896	21	5359
2026-01-01 00:37:52.64	16.75	10.58	-30.6	-34.0	9.7	1.15e-02	0	42	0	76546048	21	5314
2026-01-01 00:37:53.64	16.74	10.67	-30.7	-34.5	9.4	1.51e-02	0	42	0	78643200	21	5527
2026-01-01 00:37:54.64	16.73	10.76	-30.8	-34.6	9.2	2.18e-02	0	42	0	80740352	21	5592
2026-01-01 00:37:55.64	16.72	10.85	-30.7	-34.4	9.4	1.32e-02	0	42	0	81788928	21	5497
2026-01-01 00:37:56.65	16.71	10.94	-30.8	-34.7	9.2	2.04e-02	0	42	0	83886080	21	5628
2026-01-01 00:37:57.65	16.70	11.03	-30.8	-34.8	9.1	3.03e-02	0	42	0	85983232	21	5659
2026-01-01 00:37:58.65	16.69	11.12	-30.8	-34.7	9.2	2.92e-02	0	42	0	88080384	21	5630
2026-01-01 00:37:59.65	16.68	11.21	-30.8	-34.6	9.3	1.84e-02	0	42	0	90177536	21	5586
2026-01-01 00:38:00.65	16.67	11.30	-30.7	-34.3	9.5	1.90e-02	0	42	0	91226112	21	5457
2026-01-01 00:38:01.65	16.66	11.39	-30.8	-34.4	9.5	1.72e-02	0	42	0	93323264	21	5488
2026-01-01 00:38:02.65	16.64	11.49	-30.9	-34.9	9.1	2.14e-02	0	42	0	95420416	21	5714
2026-01-01 00:38:03.65	16.63	11.58	-30.8	-34.7	9.3	1.93e-02	0	42	0	97517568	21	5604
2026-01-01 00:38:04.66	16.62	11.67	-30.8	-34.5	9.4	2.34e-02	0	42	0	99614720	21	5540
2026-01-01 00:38:05.66	16.61	11.76	-30.7	-34.2	9.7	1.76e-02	0	42	0	100663296	21	5398
2026-01-01 00:38:06.66	16.60	11.86	-30.5	-33.5	10.2	1.02e-02	0	42	0	102760448	21	5083
2026-01-01 00:38:07.67	16.59	11.95	-30.3	-33.2	10.8	6.32e-03	0	42	0	104857600	20	5060
2026-01-01 00:38:08.67	16.57	12.05	-30.2	-32.8	11.1	2.94e-03	0	42	0	106954752	20	4897
2026-01-01 00:38:09.67	16.56	12.14	-29.9	-32.1	11.6	3.88e-03	0	42	0	108003328	20	4625
2026-01-01 00:38:10.68	16.55	12.23	-29.9	-32.2	11.5	3.69e-03	0	42	0	110100480	20	4659
2026-01-01 00:38:11.68	16.54	12.33	-29.8	-32.3	11.9	1.04e-03	0	42	0	112197632	19	4769
2026-01-01 00:38:12.68	16.53	12.42	-29.8	-32.2	11.5	3.29e-03	0	42	0	114294784	19	4749
2026-01-01 00:38:13.68	16.51	12.52	-29.8	-32.3	11.8	3.47e-03	0	42	0	116391936	19	4762
2026-01-01 00:38:14.69	16.50	12.62	-30.0	-32.7	11.6	1.07e-03	0	42	0	118489088	19	4939
2026-01-01 00:38:15.69	16.49	12.71	-30.1	-32.8	11.1	3.85e-03	0	42	0	119537664	20	4862
2026-01-01 00:38:16.69	16.48	12.81	-30.0	-32.3	11.4	4.86e-03	0	42	0	121634816	20	4714
2026-01-01 00:38:17.70	16.46	12.91	-29.8	-32.2	12.0	1.14e-03	0	42	0	123731968	19	4746
2026-01-01 00:38:18.69	16.45	13.00	-29.9	-32.6	11.7	3.07e-03	0	42	0	125829120	19	4866
2026-01-01 00:38:19.70	16.44	13.10	-29.9	-32.4	11.8	3.58e-03	0	42	0	126877696	19	4807
2026-01-01 00:38:20.69	16.42	13.20	-29.9	-32.4	11.9	4.25e-04	0	42	0	128974848	19	4805
2026-01-01 00:38:21.70	16.41	13.30	-29.9	-32.5	11.8	3.58e-03	0	42	0	131072000	19	4835
2026-01-01 00:38:22.69	16.40	13.40	-29.9	-32.4	11.9	3.36e-03	0	42	0	133169152	19	4809
2026-01-01 00:38:23.70	16.38	13.50	-30.0	-32.7	11.7	9.56e-04	0	42	0	135266304	19	4916
2026-01-01 00:38:24.70	16.37	13.60	-30.0	-32.1	11.6	3.44e-03	0	42	0	136314880	20	4621
2026-01-01 00:38:25.70	16.36	13.70	-30.0	-32.3	11.5	3.41e-03	0	42	0	138412032	20	4701
2026-01-01 00:38:26.70	16.34	13.80	-30.0	-32.2	11.6	1.43e-03	0	42	0	140509184	20	4663
2026-01-01 00:38:27.71	16.33	13.90	-29.8	-32.1	12.1	1.37e-03	0	42	0	142606336	19	4686
2026-01-01 00:38:28.71	16.31	14.00	-29.8	-32.1	12.2	3.23e-03	0	42	0	144703488	19	4708
2026-01-01 00:38:29.71	16.30	14.11	-29.7	-31.9	12.3	1.02e-03	0	42	0	145752064	19	4614
2026-01-01 00:38:30.72	16.29	14.21	-29.6	-31.6	12.5	3.30e-03	0	42	0	147849216	19	4502
2026-01-01 00:38:31.72	16.27	14.31	-29.6	-31.5	12.6	3.69e-03	0	42	0	149946368	19	4500
2026-01-01 00:38:32.72	16.26	14.42	-29.7	-31.9	12.3	7.22e-04	0	42	0	152043520	19	4628
2026-01-01 00:38:33.73	16.24	14.52	-29.8	-32.0	12.2	3.15e-03	0	42	0	154140672	19	4667
2026-01-01 00:38:34.73	16.23	14.62	-29.7	-31.9	12.3	1.19e-03	0	42	0	155189248	19	4624
2026-01-01 00:38:35.74	16.21	14.73	-29.6	-31.5	12.6	7.04e-04	0	42	0	157286400	19	4470
2026-01-01 00:38:36.74	16.20	14.83	-29.4	-31.4	12.9	2.73e-03	0	42	0	159383552	18	4546
2026-01-01 00:38:37.75	16.18	14.94	-29.3	-31.2	13.1	9.20e-04	0	42	0	161480704	18	4490
2026-01-01 00:38:38.75	16.17	15.05	-29.4	-31.6	12.9	2.59e-05	0	42	0	163577856	18	4605
2026-01-01 00:38:39.75	16.15	15.15	-29.4	-31.5	13.0	2.96e-03	0	43	0	164626432	18	4563
2026-01-01 00:38:40.75	16.13	15.26	-29.3	-31.1	13.2	2.87e-03	0	42	0	166723584	18	4444
2026-01-01 00:38:41.75	16.12	15.37	-29.4	-31.5	12.9	3.20e-05	0	42	0	168820736	18	4564
2026-01-01 00:38:42.76	16.10	15.48	-29.4	-31.3	13.0	2.91e-03	0	42	0	170917888	18	4524
2026-01-01 00:38:43.76	16.09	15.59	-29.2	-30.9	13.4	2.75e-03	0	42	0	171966464	18	4369
2026-01-01 00:38:44.76	16.07	15.69	-29.1	-30.7	13.4	1.22e-05	0	43	0	174063616	18	4320
2026-01-01 00:38:45.76	16.05	15.80	-29.1	-30.6	13.5	8.88e-04	0	42	0	176160768	18	4297
2026-01-01 00:38:46.77	16.04	15.91	-29.1	-30.6	13.6	2.85e-03	0	42	0	178257920	18	4274
2026-01-01 00:38:47.77	16.02	16.02	-29.1	-30.7	13.5	6.10e-06	0	42	0	180355072	18	4301
2026-01-01 00:38:48.77	16.00	16.14	-29.1	-30.5	13.6	9.86e-04	0	42	0	181403648	18	4266
2026-01-01 00:38:49.77	15.99	16.25	-29.0	-30.5	13.6	3.54e-03	0	42	0	183500800	18	4252
2026-01-01 00:38:50.77	15.97	16.36	-29.1	-30.6	13.6	5.22e-04	0	43	0	185597952	18	4285
2026-01-01 00:38:51.77	15.95	16.47	-29.0	-30.4	13.7	8.91e-04	0	43	0	187695104	18	4213
2026-01-01 00:38:52.77	15.93	16.58	-29.1	-30.7	13.5	1.03e-03	0	42	0	189792256	18	4318
2026-01-01 00:38:53.78	15.92	16.70	-29.1	-30.6	13.5	4.75e-04	0	42	0	190840832	18	4293
2026-01-01 00:38:54.78	15.90	16.81	-29.2	-30.8	13.5	1.04e-03	0	43	0	192937984	18	4351
2026-01-01 00:38:55.79	15.88	16.93	-29.2	-30.9	13.4	1.06e-03	0	42	0	195035136	18	4387
2026-01-01 00:38:56.79	15.86	17.04	-29.2	-30.9	13.4	9.10e-06	0	43	0	197132288	18	4381
2026-01-01 00:38:57.79	15.84	17.16	-29.3	-31.0	13.3	1.10e-03	0	43	0	199229440	18	4416
2026-01-01 00:38:58.79	15.82	17.27	-29.3	-31.2	13.2	1.12e-03	0	43	0	200278016	18	4472
2026-01-01 00:38:59.79	15.81	17.39	-29.3	-31.2	13.2	1.60e-05	0	43	0	202375168	18	4477
2026-01-01 00:39:00.79	15.79	17.51	-29.6	-31.4	12.9	3.82e-03	0	43	0	204472320	19	4426
2026-01-01 00:39:01.80	15.77	17.63	-29.5	-31.1	13.0	1.07e-03	0	43	0	206569472	19	4347
2026-01-01 00:39:02.80	15.75	17.75	-29.4	-31.3	13.2	2.36e-05	0	43	0	208666624	18	4513
2026-01-01 00:39:03.81	15.73	17.87	-29.4	-31.3	13.2	9.79e-04	0	43	0	209715200	18	4494
2026-01-01 00:39:04.81	15.71	17.98	-29.6	-31.3	12.8	1.02e-03	0	43	0	211812352	19	4416
2026-01-01 00:39:05.81	15.69	18.10	-29.7	-31.7	12.6	4.42e-05	0	42	0	213909504	19	4529
2026-01-01 00:39:06.82	15.67	18.23	-29.9	-31.9	12.0	9.75e-04	0	42	0	216006656	20	4525
2026-01-01 00:39:07.82	15.65	18.35	-29.8	-32.1	12.4	3.98e-03	0	42	0	217055232	19	4660
2026-01-01 00:39:08.82	15.63	18.47	-29.8	-31.9	12.6	1.40e-04	0	42	0	219152384	19	4608
2026-01-01 00:39:09.82	15.61	18.59	-29.9	-31.7	12.3	9.73e-04	0	43	0	221249536	20	4448
2026-01-01 00:39:10.82	15.59	18.72	-30.2	-32.7	11.6	1.19e-03	0	43	0	223346688	20	4783
2026-01-01 00:39:11.82	15.57	18.84	-30.1	-32.4	11.8	5.23e-04	0	42	0	225443840	20	4673
2026-01-01 00:39:12.82	15.54	18.96	-30.2	-32.6	11.7	1.11e-03	0	43	0	226492416	20	4751
2026-01-01 00:39:13.82	15.52	19.09	-30.1	-32.3	11.8	1.47e-03	0	43	0	228589568	20	4657
2026-01-01 00:39:14.83	15.50	19.21	-29.9	-31.7	12.3	3.20e-04	0	43	0	230686720	20	4433
2026-01-01 00:39:15.83	15.48	19.34	-29.7	-31.6	12.7	6.51e-04	0	43	0	232783872	19	4509
2026-01-01 00:39:16.83	15.46	19.47	-29.8	-32.1	12.4	6.67e-04	0	43	0	234881024	19	4663
2026-01-01 00:39:17.84	15.43	19.60	-29.7	-31.3	12.6	1.94e-04	0	42	0	235929600	20	4317
2026-01-01 00:39:18.84	15.41	19.72	-29.5	-31.2	13.0	3.96e-05	0	42	0	238026752	19	4354
2026-01-01 00:39:19.84	15.39	19.85	-29.8	-32.1	12.4	6.13e-04	0	43	0	240123904	19	4660
2026-01-01 00:39:20.84	15.37	19.98	-29.7	-31.6	12.8	1.09e-04	0	43	0	242221056	19	4492
2026-01-01 00:39:21.84	15.34	20.11	-29.5	-31.0	13.1	4.11e-05	0	43	0	244318208	19	4299
2026-01-01 00:39:22.84	15.32	20.24	-29.5	-31.1	13.0	3.96e-05	0	42	0	245366784	19	4322
2026-01-01 00:39:23.84	15.30	20.37	-29.5	-31.2	12.9	2.74e-05	0	43	0	247463936	19	4375
2026-01-01 00:39:24.84	15.27	20.51	-29.4	-30.8	13.2	5.54e-04	0	43	0	249561088	19	4247
2026-01-01 00:39:25.85	15.25	20.64	-29.3	-30.5	13.5	1.98e-05	0	43	0	251658240	19	4158
2026-01-01 00:39:26.85	15.22	20.77	-29.3	-31.1	13.4	1.22e-05	0	43	0	253755392	18	4430
2026-01-01 00:39:27.86	15.20	20.91	-29.3	-31.2	13.3	4.84e-04	0	43	0	254803968	18	4467
2026-01-01 00:39:28.85	15.17	21.04	-29.2	-30.8	13.6	9.10e-06	0	43	0	256901120	18	4323
2026-01-01 00:39:29.85	15.15	21.18	-28.2	-29.7	13.7	7.60e-06	0	43	0	258998272	18	4287
2026-01-01 00:39:30.85	15.12	21.32	-29.1	-31.1	13.7	4.69e-04	0	43	0	261095424	17	4539
2026-01-01 00:39:31.85	15.10	21.45	-29.1	-30.6	13.3	4.45e-04	0	43	0	262144000	18	4262
2026-01-01 00:39:32.86	15.07	21.59	-29.1	-30.6	12.2	3.00e-06	0	43	0	264241152	18	4267
2026-01-01 00:39:33.86	15.05	21.73	-29.2	-30.7	12.8	7.60e-06	0	43	0	266338304	18	4299
2026-01-01 00:39:34.86	15.02	21.87	-29.1	-30.6	13.6	4.81e-04	0	43	0	268435456	18	4263
2026-01-01 00:39:35.87	14.99	22.01	-29.4	-31.4	13.1	8.30e-06	0	43	0	270532608	18	4504
2026-01-01 00:39:36.87	14.97	22.15	-29.2	-30.9	13.6	6.10e-06	0	43	0	271581184	18	4356
2026-01-01 00:39:37.88	14.94	22.30	-29.2	-30.8	13.7	5.30e-06	0	43	0	273678336	18	4314
2026-01-01 00:39:38.88	14.91	22.44	-29.2	-30.7	13.7	2.34e-03	0	43	0	275775488	18	4293
2026-01-01 00:39:39.89	14.88	22.58	-29.3	-31.0	13.5	6.80e-06	0	43	0	277872640	18	4398
2026-01-01 00:39:40.90	14.85	22.73	-29.3	-30.9	13.6	7.60e-06	0	43	0	279969792	18	4364
2026-01-01 00:39:41.90	14.82	22.87	-29.4	-31.2	13.4	9.10e-06	0	43	0	281018368	18	4443
2026-01-01 00:39:42.90	14.80	23.02	-29.3	-31.0	13.5	2.46e-03	0	43	0	283115520	18	4395
2026-01-01 00:39:43.90	14.77	23.17	-29.3	-31.1	13.5	8.30e-06	0	43	0	285212672	18	4408
2026-01-01 00:39:44.90	14.74	23.31	-29.2	-30.7	13.8	5.30e-06	0	43	0	287309824	18	4278
2026-01-01 00:39:45.90	14.71	23.46	-29.2	-30.7	13.8	2.26e-03	0	43	0	289406976	18	4292
2026-01-01 00:39:46.90	14.68	23.61	-29.1	-30.6	13.8	6.80e-06	0	43	0	290455552	18	4260
2026-01-01 00:39:47.90	14.65	23.76	-29.2	-30.7	13.8	5.30e-06	0	43	0	292552704	18	4271
2026-01-01 00:39:48.90	14.62	23.91	-29.5	-31.1	13.3	6.80e-06	0	43	0	294649856	19	4296
2026-01-01 00:39:49.89	14.59	24.06	-29.3	-31.0	13.6	1.87e-04	0	43	0	296747008	18	4382
2026-01-01 00:39:50.90	14.55	24.22	-29.0	-30.3	14.1	8.30e-06	0	43	0	298844160	18	4150
2026-01-01 00:39:51.91	14.52	24.37	-29.2	-30.7	13.8	7.00e-07	0	43	0	299892736	18	4265
2026-01-01 00:39:52.91	14.49	24.53	-29.2	-30.6	13.9	1.69e-04	0	43	0	301989888	18	4250
2026-01-01 00:39:53.91	14.46	24.68	-29.4	-31.3	13.5	5.30e-06	0	43	0	304087040	18	4472
2026-01-01 00:39:54.92	14.42	24.84	-29.6	-31.3	13.1	1.75e-05	0	43	0	306184192	19	4373
2026-01-01 00:39:55.92	14.39	25.00	-29.5	-31.1	13.3	2.13e-05	0	43	0	307232768	19	4297
2026-01-01 00:39:56.92	14.36	25.15	-29.5	-31.4	13.4	2.39e-03	0	43	0	309329920	18	4492
2026-01-01 00:39:57.93	14.32	25.31	-28.9	-30.3	13.3	1.75e-05	0	43	0	311427072	19	4249
2026-01-01 00:39:58.93	14.29	25.47	-29.3	-30.9	13.7	1.37e-05	0	43	0	313524224	18	4335
2026-01-01 00:39:59.93	14.26	25.64	-29.5	-31.1	12.9	2.51e-03	0	43	0	315621376	19	4293
2026-01-01 00:40:00.93	14.22	25.80	-29.2	-30.6	13.9	2.41e-03	0	43	0	316669952	18	4246
2026-01-01 00:40:01.93	14.18	25.96	-29.5	-31.4	13.5	7.60e-06	0	43	0	318767104	18	4482
2026-01-01 00:40:02.93	14.15	26.12	-29.3	-30.8	13.7	2.36e-03	0	43	0	320864256	18	4304
2026-01-01 00:40:03.94	14.11	26.29	-29.0	-30.2	14.2	2.08e-03	0	43	0	322961408	18	4110
2026-01-01 00:40:04.94	14.08	26.46	-29.0	-30.1	14.3	1.50e-06	0	43	0	325058560	18	4095
2026-01-01 00:40:05.94	14.04	26.62	-29.0	-30.6	14.3	2.69e-03	0	43	0	326107136	17	4336
2026-01-01 00:40:06.95	14.00	26.79	-29.1	-30.5	14.1	2.34e-03	0	43	0	328204288	18	4196
2026-01-01 00:40:07.96	13.96	26.96	-29.6	-31.1	13.4	1.36e-04	0	43	0	330301440	19	4292
2026-01-01 00:40:08.96	13.92	27.13	-29.4	-31.1	13.7	5.30e-06	0	43	0	332398592	18	4389
2026-01-01 00:40:09.96	13.88	27.30	-29.5	-30.9	13.5	3.13e-03	0	43	0	334495744	19	4233
2026-01-01 00:40:10.96	13.85	27.48	-29.6	-31.1	13.4	1.88e-04	0	43	0	335544320	19	4301
2026-01-01 00:40:11.97	13.80	27.65	-29.7	-31.6	13.1	1.37e-05	0	43	0	337641472	19	4450
2026-01-01 00:40:12.97	13.76	27.83	-29.6	-31.3	13.3	2.95e-03	0	43	0	339738624	19	4357
2026-01-01 00:40:13.97	13.72	28.00	-29.6	-31.3	13.3	1.45e-04	0	43	0	341835776	19	4357
2026-01-01 00:40:14.97	13.68	28.18	-29.4	-30.7	13.7	2.08e-03	0	43	0	343932928	19	4176
2026-01-01 00:40:15.97	13.64	28.36	-29.6	-31.3	13.3	6.80e-06	0	43	0	344981504	19	4364
2026-01-01 00:40:16.98	13.60	28.54	-29.5	-31.4	13.6	1.01e-04	0	43	0	347078656	18	4495
2026-01-01 00:40:17.99	13.55	28.72	-29.5	-30.8	13.6	2.10e-03	0	43	0	349175808	19	4192
2026-01-01 00:40:18.99	13.51	28.90	-29.6	-31.3	13.2	2.18e-03	0	43	0	351272960	19	4365
2026-01-01 00:40:20.00	13.47	29.08	-29.7	-31.6	13.1	1.27e-04	0	43	0	353370112	19	4441
2026-01-01 00:40:21.00	13.42	29.27	-29.9	-32.1	12.7	2.42e-03	0	43	0	354418688	19	4627
2026-01-01 00:40:22.01	13.38	29.45	-30.0	-31.7	12.6	2.07e-03	0	43	0	356515840	20	4418
2026-01-01 00:40:23.01	13.33	29.64	-30.0	-31.9	12.5	1.47e-04	0	43	0	358612992	20	4483
2026-01-01 00:40:24.01	13.29	29.83	-30.5	-33.3	11.6	2.81e-03	0	43	0	360710144	20	4955
2026-01-01 00:40:25.02	13.24	30.02	-30.4	-33.0	11.8	2.44e-03	0	43	0	362807296	20	4854
2026-01-01 00:40:26.02	13.19	30.20	-30.3	-32.8	11.9	4.89e-04	0	43	0	363855872	20	4779
2026-01-01 00:40:27.02	13.14	30.40	-30.2	-32.4	12.1	3.32e-03	0	43	0	365953024	20	4651
2026-01-01 00:40:28.03	13.09	30.59	-30.4	-32.5	11.8	3.31e-03	0	43	0	368050176	21	4569
2026-01-01 00:40:29.03	13.04	30.78	-30.8	-33.6	11.1	9.76e-04	0	43	0	370147328	21	4973
2026-01-01 00:40:30.02	12.99	30.97	-30.4	-32.5	11.7	3.31e-03	0	43	0	371195904	21	4588
2026-01-01 00:40:31.02	12.94	31.17	-30.5	-32.7	11.7	3.38e-03	0	43	0	373293056	21	4656
2026-01-01 00:40:32.03	12.89	31.37	-30.9	-34.1	10.7	1.44e-03	0	43	0	375390208	21	5198
2026-01-01 00:40:33.04	12.84	31.57	-30.8	-33.8	10.9	2.26e-03	0	43	0	377487360	21	5074
2026-01-01 00:40:34.04	12.79	31.77	-31.1	-34.3	10.2	7.28e-03	0	43	0	379584512	22	5167
2026-01-01 00:40:35.04	12.73	31.97	-31.4	-35.1	9.6	9.58e-03	0	43	0	380633088	22	5531
2026-01-01 00:40:36.04	12.68	32.17	-31.5	-35.5	9.4	1.47e-02	0	43	0	382730240	22	5747
2026-01-01 00:40:37.04	12.63	32.38	-31.5	-35.2	9.1	1.87e-02	0	43	0	384827392	23	5493
2026-01-01 00:40:38.04	12.57	32.58	-31.3	-34.3	9.8	1.85e-02	0	43	0	386924544	23	5101
2026-01-01 00:40:39.04	12.51	32.79	-31.2	-34.7	9.9	1.75e-02	0	43	0	389021696	22	5356
2026-01-01 00:40:40.04	12.46	33.00	-31.3	-34.8	9.8	1.06e-02	0	43	0	390070272	22	5419
2026-01-01 00:40:41.04	12.40	33.21	-31.3	-34.9	9.8	1.07e-02	0	43	0	392167424	22	5425
2026-01-01 00:40:42.04	12.34	33.42	-31.1	-34.1	10.3	1.25e-02	0	43	0	394264576	22	5113
2026-01-01 00:40:43.05	12.28	33.63	-31.2	-34.6	9.9	8.81e-03	0	43	0	396361728	22	5291
2026-01-01 00:40:44.05	12.22	33.84	-31.3	-34.8	9.7	7.85e-03	0	43	0	398458880	22	5403
2026-01-01 00:40:45.04	12.16	34.06	-31.0	-33.9	10.3	5.91e-03	0	43	0	399507456	22	5037
2026-01-01 00:40:46.05	12.10	34.28	-30.8	-33.1	11.0	5.56e-03	0	43	0	401604608	22	4723
2026-01-01 00:40:47.05	12.04	34.49	-30.6	-32.5	11.4	1.48e-03	0	43	0	403701760	22	4497
2026-01-01 00:40:48.06	11.97	34.72	-30.3	-32.3	12.0	2.04e-03	0	43	0	405798912	21	4501
2026-01-01 00:40:49.06	11.91	34.94	-30.0	-31.8	12.6	1.70e-03	0	43	0	407896064	20	4450
2026-01-01 00:40:50.05	11.84	35.16	-29.8	-31.2	13.0	8.08e-05	0	43	0	408944640	20	4242
2026-01-01 00:40:51.05	11.78	35.38	-29.9	-31.9	13.0	3.46e-04	0	43	0	411041792	19	4546
2026-01-01 00:40:52.06	11.71	35.61	-29.9	-31.9	13.0	1.63e-03	0	43	0	413138944	19	4552
2026-01-01 00:40:53.06	11.64	35.84	-30.0	-31.6	12.8	3.43e-05	0	43	0	415236096	20	4356
2026-01-01 00:40:54.06	11.57	36.06	-30.2	-32.3	12.4	4.04e-04	0	43	0	416284672	20	4592
2026-01-01 00:40:55.06	11.50	36.30	-30.1	-32.0	12.6	4.37e-04	0	43	0	418381824	20	4461
2026-01-01 00:40:56.06	11.43	36.53	-29.9	-31.5	13.0	1.14e-04	0	43	0	420478976	20	4303
2026-01-01 00:40:57.06	11.35	36.76	-30.0	-31.7	12.9	1.05e-03	0	43	0	422576128	20	4358
2026-01-01 00:40:58.06	11.28	37.00	-29.9	-31.4	13.0	3.71e-04	0	43	0	424673280	20	4277
2026-01-01 00:40:59.07	11.20	37.24	-29.8	-31.2	13.1	7.60e-06	0	43	0	425721856	20	4214
2026-01-01 00:41:00.07	11.13	37.47	-29.7	-31.3	13.5	5.07e-04	0	43	0	427819008	19	4331
2026-01-01 00:41:01.07	11.05	37.71	-29.5	-30.8	13.8	2.79e-04	0	43	0	429916160	19	4181
2026-01-01 00:41:02.07	10.97	37.96	-30.3	-32.5	12.4	5.11e-05	0	43	0	432013312	20	4625
2026-01-01 00:41:03.08	10.89	38.20	-30.0	-31.6	12.9	3.91e-04	0	43	0	434110464	20	4335
2026-01-01 00:41:04.08	10.81	38.45	-29.6	-31.0	13.6	1.52e-05	0	43	0	435159040	19	4247
2026-01-01 00:41:05.08	10.73	38.69	-29.7	-31.5	13.3	2.51e-05	0	43	0	437256192	19	4408
2026-01-01 00:41:06.09	10.65	38.95	-30.2	-32.3	12.5	3.26e-04	0	43	0	439353344	20	4590
2026-01-01 00:41:07.09	10.56	39.20	-30.6	-33.0	11.5	4.14e-04	0	43	0	441450496	21	4764
2026-01-01 00:41:08.10	10.47	39.45	-30.9	-33.8	11.0	1.05e-03	0	43	0	443547648	21	5053
2026-01-01 00:41:09.10	10.39	39.70	-30.9	-33.9	10.8	1.66e-03	0	43	0	444596224	21	5086
2026-01-01 00:41:10.10	10.30	39.96	-31.1	-34.1	10.4	2.09e-03	0	43	0	446693376	22	5103
2026-01-01 00:41:11.11	10.20	40.22	-31.1	-34.3	10.4	5.00e-03	0	43	0	448790528	22	5158
2026-01-01 00:41:12.11	10.11	40.48	-31.3	-34.7	10.0	1.31e-02	0	43	0	450887680	22	5363
2026-01-01 00:41:13.11	10.02	40.74	-31.3	-34.9	9.8	1.19e-02	0	43	0	452984832	22	5460
2026-01-01 00:41:14.11	9.92	41.00	-31.4	-35.3	9.5	1.52e-02	0	43	0	454033408	22	5622
2026-01-01 00:41:15.11	9.83	41.27	-31.5	-34.9	9.4	2.07e-02	0	43	0	456130560	23	5380
2026-01-01 00:41:16.12	9.73	41.54	-31.1	-34.2	10.4	9.13e-03	0	43	0	458227712	22	5135
2026-01-01 00:41:17.12	9.63	41.81	-30.7	-33.0	11.1	2.62e-03	0	43	0	460324864	22	4675
2026-01-01 00:41:18.13	9.52	42.08	-30.3	-32.3	12.0	5.60e-04	0	43	0	462422016	21	4510
2026-01-01 00:41:19.13	9.42	42.35	-30.5	-32.9	11.5	9.99e-04	0	43	0	463470592	21	4740
2026-01-01 00:41:20.14	9.31	42.63	-30.4	-32.4	11.8	4.06e-04	0	43	0	465567744	21	4580
2026-01-01 00:41:21.14	9.20	42.91	-30.4	-32.7	11.6	4.74e-04	0	43	0	467664896	21	4686
2026-01-01 00:41:22.14	9.10	43.19	-30.8	-33.8	10.9	1.62e-03	0	43	0	469762048	21	5103
2026-01-01 00:41:23.14	8.98	43.47	-31.0	-34.0	10.4	5.15e-03	0	43	0	470810624	22	5112
2026-01-01 00:41:24.15	8.87	43.75	-31.0	-34.1	10.3	3.54e-03	0	43	0	472907776	22	5140
2026-01-01 00:41:25.15	8.75	44.04	-31.1	-34.2	10.4	4.05e-03	0	43	0	475004928	22	5185
2026-01-01 00:41:26.15	8.64	44.32	-31.0	-33.9	10.5	3.90e-03	0	43	0	477102080	22	5050
2026-01-01 00:41:27.15	8.51	44.61	-31.1	-34.2	10.2	3.90e-03	0	43	0	479199232	22	5144
2026-01-01 00:41:28.16	8.39	44.90	-31.0	-34.1	10.3	4.65e-03	0	43	0	480247808	22	5129
2026-01-01 00:41:29.16	8.27	45.19	-31.0	-33.8	10.5	3.16e-03	0	43	0	482344960	22	5013
2026-01-01 00:41:30.17	8.14	45.49	-31.3	-34.9	9.6	5.06e-03	0	43	0	484442112	22	5484
2026-01-01 00:41:31.17	8.01	45.79	-30.8	-33.4	10.8	3.37e-03	0	43	0	486539264	22	4823
2026-01-01 00:41:32.17	7.88	46.09	-30.4	-32.0	11.8	8.31e-04	0	43	0	488636416	22	4348
2026-01-01 00:41:33.18	7.74	46.39	-30.3	-32.3	11.8	3.95e-04	0	43	0	489684992	21	4548
2026-01-01 00:41:34.18	7.60	46.69	-30.5	-33.0	11.4	5.93e-04	0	43	0	491782144	21	4764
2026-01-01 00:41:35.17	7.46	46.99	-30.4	-32.5	11.9	3.74e-04	0	43	0	493879296	21	4607
2026-01-01 00:41:36.17	7.32	47.30	-30.3	-32.2	12.2	4.23e-04	0	43	0	495976448	21	4490
2026-01-01 00:41:37.17	7.17	47.61	-30.2	-32.3	12.4	4.55e-04	0	43	0	498073600	20	4602
2026-01-01 00:41:38.18	7.02	47.92	-29.8	-31.0	13.3	3.96e-05	0	43	0	499122176	20	4176
2026-01-01 00:41:39.19	6.87	48.24	-29.7	-31.4	13.5	7.60e-06	0	43	0	501219328	19	4355
2026-01-01 00:41:40.19	6.72	48.55	-29.6	-31.0	13.7	6.80e-06	0	43	0	503316480	19	4227
2026-01-01 00:41:41.19	6.56	48.87	-29.1	-29.8	14.4	5.30e-06	0	43	0	505413632	19	3890
2026-01-01 00:41:42.19	6.39	49.19	-29.2	-30.0	14.2	4.50e-06	0	43	0	507510784	19	3952
2026-01-01 00:41:43.20	6.23	49.51	-28.8	-29.5	14.9	3.00e-06	0	43	0	508559360	18	3903
2026-01-01 00:41:44.19	6.06	49.83	-28.8	-29.6	14.8	0.00e+00	0	43	0	510656512	18	3940
2026-01-01 00:41:45.19	5.89	50.15	-28.8	-30.2	14.7	0.00e+00	0	43	0	512753664	17	4208
2026-01-01 00:41:46.20	5.71	50.48	-28.8	-30.1	14.6	0.00e+00	0	43	0	514850816	17	4202
2026-01-01 00:41:47.20	5.53	50.81	-28.7	-29.4	14.9	7.00e-07	0	43	0	515899392	18	3885
2026-01-01 00:41:48.21	5.34	51.15	-27.9	-29.1	14.9	0.00e+00	0	43	0	517996544	17	4098
2026-01-01 00:41:49.21	5.15	51.48	-28.9	-30.5	14.5	7.00e-07	0	43	0	520093696	17	4289
2026-01-01 00:41:50.21	4.96	51.81	-29.0	-30.2	13.8	0.00e+00	0	43	0	522190848	18	4109
2026-01-01 00:41:51.21	4.76	52.15	-28.9	-30.5	13.8	1.50e-06	0	43	0	524288000	17	4329
2026-01-01 00:41:52.21	4.56	52.49	-29.0	-30.1	14.4	7.00e-07	0	43	0	525336576	18	4098
2026-01-01 00:41:53.21	4.35	52.83	-28.9	-30.5	13.3	7.00e-07	0	43	0	527433728	17	4340
2026-01-01 00:41:54.22	4.14	53.18	-29.1	-30.5	13.5	7.00e-07	0	43	0	529530880	18	4222
2026-01-01 00:41:55.22	3.92	53.52	-29.0	-30.1	14.6	0.00e+00	0	43	0	531628032	18	4091
2026-01-01 00:41:56.21	3.70	53.86	-28.9	-30.3	14.5	0.00e+00	0	43	0	533725184	17	4230
2026-01-01 00:41:57.22	3.47	54.22	-28.6	-29.5	15.0	0.00e+00	0	43	0	534773760	17	4017
2026-01-01 00:41:58.23	3.23	54.57	-28.5	-29.4	15.2	0.00e+00	0	43	0	536870912	17	3991
2026-01-01 00:41:59.23	2.99	54.92	-28.7	-29.8	15.0	0.00e+00	0	43	0	538968064	17	4073
2026-01-01 00:42:00.23	2.75	55.28	-28.9	-30.3	14.6	0.00e+00	0	43	0	541065216	17	4250
2026-01-01 00:42:01.22	2.50	55.63	-29.2	-30.5	14.2	7.00e-07	0	43	0	543162368	18	4212
2026-01-01 00:42:02.22	2.24	55.99	-29.0	-30.3	14.6	2.11e-03	0	43	0	544210944	18	4141
2026-01-01 00:42:03.23	1.97	56.35	-29.3	-30.8	14.0	5.30e-06	0	43	0	546308096	18	4306
2026-01-01 00:42:04.23	1.70	56.71	-29.1	-30.4	14.3	7.00e-07	0	43	0	548405248	18	4185
2026-01-01 00:42:05.22	1.42	57.07	-29.3	-30.7	14.3	7.00e-07	0	43	0	550502400	18	4264
2026-01-01 00:42:06.22	1.13	57.43	-29.6	-31.1	13.6	7.60e-06	0	43	0	551550976	19	4287
2026-01-01 00:42:07.23	0.83	57.80	-29.9	-31.9	13.1	1.22e-05	0	43	0	553648128	19	4555
2026-01-01 00:42:08.23	0.53	58.17	-29.8	-31.5	13.4	3.50e-05	0	43	0	555745280	19	4408
2026-01-01 00:42:09.24	0.21	58.54	-29.4	-31.0	14.1	2.05e-03	0	43	0	557842432	18	4334
2026-01-01 00:42:10.24	359.89	58.92	-29.4	-30.4	14.2	1.50e-06	0	43	0	559939584	19	4062
2026-01-01 00:42:11.24	359.56	59.29	-29.2	-30.6	14.3	0.00e+00	0	43	0	562036736	18	4209
2026-01-01 00:42:12.24	359.22	59.66	-28.8	-30.0	15.1	2.30e-03	0	43	0	563085312	17	4118
2026-01-01 00:42:13.24	358.87	60.04	-28.3	-28.8	15.7	0.00e+00	0	43	0	565182464	17	3805
2026-01-01 00:42:14.24	358.50	60.41	-28.6	-29.4	15.4	0.00e+00	0	43	0	567279616	17	3966
2026-01-01 00:42:15.24	358.13	60.79	-29.3	-30.9	14.1	0.00e+00	0	43	0	569376768	18	4291
2026-01-01 00:42:16.23	357.75	61.16	-29.4	-31.0	14.1	1.50e-06	0	43	0	570425344	18	4342
2026-01-01 00:42:17.23	357.36	61.54	-29.2	-30.7	14.3	7.00e-07	0	43	0	572522496	18	4246
2026-01-01 00:42:18.23	356.95	61.92	-28.9	-29.8	14.9	0.00e+00	0	43	0	574619648	18	4000
2026-01-01 00:42:19.23	356.53	62.31	-29.1	-30.3	14.5	8.30e-06	0	43	0	576716800	18	4139
2026-01-01 00:42:20.22	356.10	62.68	-29.5	-30.8	13.8	2.06e-03	0	43	0	578813952	19	4203
2026-01-01 00:42:21.22	355.65	63.07	-29.6	-31.2	13.5	1.22e-05	0	43	0	579862528	19	4303
2026-01-01 00:42:22.23	355.18	63.45	-29.4	-30.6	13.9	7.60e-06	0	43	0	581959680	19	4134
2026-01-01 00:42:23.23	354.70	63.84	-28.9	-29.9	14.6	1.02e-03	0	43	0	584056832	18	4028
2026-01-01 00:42:24.23	354.20	64.22	-28.8	-30.1	14.8	0.00e+00	0	43	0	586153984	17	4185
2026-01-01 00:42:25.23	353.69	64.61	-28.4	-29.1	15.4	0.00e+00	0	43	0	588251136	17	3887
2026-01-01 00:42:26.23	353.16	64.99	-27.9	-28.2	16.5	1.99e-03	0	43	0	589299712	16	3744
2026-01-01 00:42:27.23	352.61	65.37	-27.8	-28.6	16.2	1.88e-03	0	43	0	591396864	15	3958
2026-01-01 00:42:28.24	352.04	65.76	-28.7	-29.7	15.0	0.00e+00	0	43	0	593494016	17	4047
2026-01-01 00:42:29.24	351.45	66.15	-29.3	-30.6	14.2	7.00e-07	0	43	0	595591168	18	4212
2026-01-01 00:42:30.24	350.84	66.53	-29.4	-30.9	14.1	2.29e-03	0	43	0	596639744	18	4301
2026-01-01 00:42:31.24	350.21	66.91	-29.5	-30.9	13.8	2.20e-06	0	43	0	598736896	19	4203
2026-01-01 00:42:32.24	349.55	67.29	-29.9	-31.8	13.3	1.22e-05	0	43	0	600834048	19	4483
2026-01-01 00:42:33.24	348.87	67.67	-30.1	-31.9	12.8	1.80e-03	0	43	0	602931200	20	4466
2026-01-01 00:42:34.24	348.17	68.05	-29.9	-31.5	13.0	5.34e-05	0	43	0	605028352	20	4302
2026-01-01 00:42:35.24	347.43	68.43	-30.1	-32.0	12.8	2.21e-05	0	43	0	606076928	20	4446
2026-01-01 00:42:36.24	346.67	68.80	-30.4	-32.2	12.3	2.01e-03	0	43	0	608174080	21	4428
2026-01-01 00:42:37.24	345.88	69.18	-30.4	-32.3	12.2	2.31e-04	0	43	0	610271232	21	4470
2026-01-01 00:42:38.24	345.06	69.55	-30.6	-32.8	11.8	1.95e-03	0	43	0	612368384	21	4674
2026-01-01 00:42:39.24	344.20	69.92	-30.3	-32.1	12.5	7.16e-04	0	43	0	614465536	21	4401
2026-01-01 00:42:40.25	343.30	70.29	-29.5	-30.4	13.8	2.89e-05	0	43	0	615514112	20	3962
2026-01-01 00:42:41.25	342.38	70.65	-29.1	-30.1	14.7	1.68e-03	0	43	0	617611264	18	4064
2026-01-01 00:42:42.25	341.41	71.01	-28.8	-29.4	15.0	7.00e-07	0	43	0	619708416	18	3871
2026-01-01 00:42:43.25	340.41	71.36	-28.5	-28.7	15.5	0.00e+00	0	43	0	621805568	18	3687
2026-01-01 00:42:44.26	339.36	71.71	-28.8	-29.5	15.1	8.56e-04	0	43	0	623902720	18	3878
2026-01-01 00:42:45.26	338.27	72.06	-29.8	-31.6	13.5	4.65e-04	0	43	0	624951296	19	4408
2026-01-01 00:42:46.26	337.14	72.40	-30.2	-32.3	12.6	1.37e-05	0	43	0	627048448	20	4573
2026-01-01 00:42:47.27	335.94	72.74	-30.8	-33.4	11.6	3.97e-04	0	43	0	629145600	21	4879
2026-01-01 00:42:48.27	334.72	73.06	-30.8	-33.5	11.5	8.14e-04	0	43	0	631242752	21	4895
2026-01-01 00:42:49.28	333.42	73.39	-30.0	-31.2	13.0	3.78e-04	0	43	0	632291328	21	4130
2026-01-01 00:42:50.27	332.10	73.70	-29.3	-30.1	14.6	4.34e-04	0	43	0	634388480	19	3950
2026-01-01 00:42:51.28	330.71	74.01	-29.0	-29.9	14.8	7.55e-04	0	43	0	636485632	18	3992
2026-01-01 00:42:52.28	329.26	74.30	-29.9	-31.8	13.3	5.30e-06	0	43	0	638582784	19	4494
2026-01-01 00:42:53.29	327.75	74.59	-30.7	-33.1	11.6	1.11e-03	0	43	0	640679936	21	4769
2026-01-01 00:42:54.30	326.17	74.87	-30.7	-33.1	11.7	1.13e-03	0	43	0	641728512	21	4736
2026-01-01 00:42:55.31	324.54	75.14	-30.3	-32.0	12.5	1.67e-04	0	43	0	643825664	21	4367
2026-01-01 00:42:56.30	322.88	75.40	-30.3	-32.0	12.6	1.52e-04	0	43	0	645922816	21	4370
2026-01-01 00:42:57.31	321.12	75.64	-29.8	-30.5	13.4	1.60e-05	0	43	0	648019968	21	3912
2026-01-01 00:42:58.32	319.30	75.87	-29.7	-30.9	13.5	7.60e-06	0	43	0	650117120	20	4119
2026-01-01 00:42:59.32	317.44	76.09	-29.7	-31.3	13.7	5.33e-04	0	43	0	651165696	19	4328
2026-01-01 00:43:00.32	315.52	76.29	-29.1	-30.2	14.7	0.00e+00	0	43	0	653262848	18	4065
2026-01-01 00:43:01.32	313.54	76.48	-29.7	-31.2	13.7	1.50e-06	0	43	0	655360000	19	4282
2026-01-01 00:43:02.32	311.51	76.65	-30.3	-32.4	12.6	8.31e-05	0	43	0	657457152	20	4605
2026-01-01 00:43:03.33	309.41	76.81	-30.1	-31.9	12.9	9.15e-05	0	43	0	659554304	20	4431
2026-01-01 00:43:04.33	307.28	76.94	-30.5	-32.5	12.3	1.20e-04	0	43	0	660602880	21	4507
2026-01-01 00:43:05.34	305.08	77.06	-31.2	-34.0	10.9	1.88e-03	0	43	0	662700032	22	4986
2026-01-01 00:43:06.34	302.86	77.16	-31.1	-33.8	11.1	2.54e-03	0	43	0	664797184	22	4909
2026-01-01 00:43:07.34	300.61	77.25	-31.4	-34.1	10.4	8.10e-03	0	43	0	666894336	23	4957
2026-01-01 00:43:08.34	298.34	77.31	-30.5	-31.9	12.2	4.87e-03	0	43	0	668991488	22	4228
2026-01-01 00:43:09.34	296.05	77.35	-29.6	-30.4	14.0	1.98e-03	0	43	0	670040064	20	3956
2026-01-01 00:43:10.34	293.74	77.37	-30.6	-32.8	12.1	9.38e-05	0	43	0	672137216	21	4620
2026-01-01 00:43:11.35	291.41	77.38	-31.0	-33.6	11.2	3.53e-03	0	43	0	674234368	22	4825
2026-01-01 00:43:12.35	289.10	77.36	-30.8	-32.9	11.5	3.49e-03	0	43	0	676331520	22	4574
2026-01-01 00:43:13.36	286.78	77.32	-31.8	-35.8	8.9	3.68e-03	0	43	0	678428672	23	5712
2026-01-01 00:43:14.36	284.50	77.26	-31.4	-34.1	9.8	3.08e-02	0	43	0	679477248	24	4888
2026-01-01 00:43:15.36	282.25	77.19	-30.1	-31.3	12.9	3.30e-03	0	43	0	681574400	21	4158
2026-01-01 00:43:16.36	280.02	77.09	-30.1	-31.5	12.8	2.97e-05	0	43	0	683671552	21	4231
2026-01-01 00:43:17.36	277.83	76.98	-29.6	-31.1	13.8	1.06e-05	0	43	0	685768704	19	4249
2026-01-01 00:43:18.36	275.69	76.84	-29.9	-31.6	13.5	2.61e-04	0	43	0	686817280	19	4410
2026-01-01 00:43:19.36	273.59	76.69	-31.0	-33.9	11.3	1.87e-04	0	43	0	688914432	21	5038
2026-01-01 00:43:20.37	271.52	76.53	-30.8	-32.8	11.6	8.32e-04	0	43	0	691011584	22	4525
2026-01-01 00:43:21.37	269.53	76.34	-30.3	-32.0	12.5	1.30e-04	0	43	0	693108736	21	4344
2026-01-01 00:43:22.36	267.62	76.15	-30.0	-30.9	13.4	5.03e-05	0	43	0	695205888	21	4008
2026-01-01 00:43:23.37	265.72	75.93	-29.1	-29.5	14.9	2.34e-03	0	43	0	696254464	19	3784
2026-01-01 00:43:24.37	263.90	75.70	-29.8	-31.4	13.8	1.50e-06	0	43	0	698351616	19	4336
2026-01-01 00:43:25.38	262.13	75.46	-31.2	-34.0	10.8	7.19e-04	0	43	0	700448768	22	4996
2026-01-01 00:43:26.39	260.41	75.21	-31.5	-34.9	10.3	7.35e-03	0	43	0	702545920	22	5344
2026-01-01 00:43:27.39	258.78	74.94	-31.6	-34.8	9.8	6.70e-03	0	43	0	704643072	23	5216
2026-01-01 00:43:28.39	257.20	74.67	-32.3	-37.2	7.7	4.22e-02	0	43	0	705691648	24	6355
2026-01-01 00:43:29.39	255.69	74.38	-32.0	-36.0	8.5	1.35e-01	0	43	0	707788800	24	5690
2026-01-01 00:43:30.39	254.23	74.09	-30.6	-32.2	12.0	9.08e-03	0	43	0	709885952	22	4311
2026-01-01 00:43:31.40	252.81	73.78	-30.8	-32.7	11.7	3.88e-04	0	43	0	711983104	22	4507
2026-01-01 00:43:32.40	251.47	73.47	-31.5	-35.2	10.0	3.18e-03	0	43	0	714080256	22	5493
2026-01-01 00:43:33.41	250.16	73.15	-31.8	-35.5	9.3	1.81e-02	0	43	0	715128832	23	5544
2026-01-01 00:43:34.41	248.92	72.82	-31.7	-35.2	9.5	2.23e-02	0	43	0	717225984	23	5418
2026-01-01 00:43:35.41	247.72	72.49	-31.1	-33.2	11.1	4.57e-03	0	43	0	719323136	23	4605
2026-01-01 00:43:36.42	246.57	72.15	-31.1	-33.7	11.0	7.22e-04	0	43	0	721420288	22	4874
2026-01-01 00:43:37.42	245.47	71.80	-31.4	-34.8	10.2	4.34e-03	0	43	0	723517440	22	5349
2026-01-01 00:43:38.43	244.40	71.45	-31.4	-34.7	10.3	4.47e-03	0	43	0	724566016	22	5304
2026-01-01 00:43:39.43	243.38	71.10	-31.5	-34.7	9.8	3.14e-03	0	43	0	726663168	23	5181
2026-01-01 00:43:40.43	242.41	70.74	-31.3	-33.9	10.5	1.01e-02	0	43	0	728760320	23	4847
2026-01-01 00:43:41.43	241.47	70.38	-30.9	-33.1	11.5	1.07e-03	0	43	0	730857472	22	4640
2026-01-01 00:43:42.44	240.56	70.01	-31.6	-35.1	9.8	2.46e-03	0	43	0	732954624	23	5374
2026-01-01 00:43:43.44	239.70	69.64	-31.3	-34.0	10.2	1.68e-02	0	43	0	734003200	23	4897
2026-01-01 00:43:44.44	238.87	69.27	-30.7	-32.5	11.8	5.91e-04	0	43	0	736100352	22	4450
2026-01-01 00:43:45.45	238.06	68.89	-30.8	-33.4	11.5	6.00e-04	0	43	0	738197504	21	4850
2026-01-01 00:43:46.45	237.29	68.51	-30.5	-32.7	11.9	3.81e-04	0	43	0	740294656	21	4602
2026-01-01 00:43:47.45	236.55	68.14	-30.2	-32.3	12.6	2.81e-04	0	43	0	742391808	20	4569
2026-01-01 00:43:48.45	235.83	67.76	-30.8	-33.5	11.4	7.70e-04	0	43	0	743440384	21	4915
2026-01-01 00:43:49.46	235.14	67.37	-30.9	-33.8	11.2	9.11e-04	0	43	0	745537536	21	5012
2026-01-01 00:43:50.46	234.48	66.99	-30.4	-32.4	12.2	4.39e-04	0	43	0	747634688	21	4517
2026-01-01 00:43:51.46	233.84	66.61	-30.8	-33.7	11.2	6.26e-04	0	43	0	749731840	21	4994
2026-01-01 00:43:52.46	233.22	66.22	-31.0	-33.6	10.8	1.89e-03	0	43	0	750780416	22	4888
2026-01-01 00:43:53.47	232.62	65.84	-30.5	-32.1	12.1	7.84e-04	0	43	0	752877568	22	4315
2026-01-01 00:43:54.47	232.05	65.45	-30.5	-32.4	12.3	1.31e-04	0	43	0	754974720	21	4499
2026-01-01 00:43:55.48	231.49	65.06	-30.7	-32.5	11.7	8.80e-04	0	43	0	757071872	22	4465
2026-01-01 00:43:56.48	230.96	64.68	-29.9	-31.4	12.6	1.80e-04	0	43	0	759169024	20	4267
2026-01-01 00:43:57.48	230.44	64.29	-28.7	-29.2	15.2	5.30e-06	0	43	0	760217600	18	3810
2026-01-01 00:43:58.48	229.94	63.91	-28.0	-28.6	14.5	0.00e+00	0	43	0	762314752	16	3837
2026-01-01 00:43:59.48	229.46	63.52	-27.7	-28.3	15.0	0.00e+00	0	43	0	764411904	15	3864
2026-01-01 00:44:00.48	228.99	63.14	-29.1	-30.2	14.6	0.00e+00	0	43	0	766509056	18	4102
2026-01-01 00:44:01.48	228.53	62.75	-29.7	-31.4	13.5	3.00e-06	0	43	0	768606208	19	4350
2026-01-01 00:44:02.48	228.10	62.37	-29.6	-30.9	13.9	7.00e-07	0	43	0	769654784	19	4192
2026-01-01 00:44:03.48	227.67	61.99	-29.8	-31.4	13.6	2.20e-06	0	43	0	771751936	19	4339
2026-01-01 00:44:04.48	227.26	61.61	-30.1	-32.0	12.7	2.30e-03	0	43	0	773849088	20	4454
2026-01-01 00:44:05.48	226.86	61.23	-30.7	-33.1	11.6	3.01e-04	0	43	0	775946240	21	4765
2026-01-01 00:44:06.49	226.47	60.84	-31.1	-34.0	10.6	5.61e-04	0	43	0	778043392	22	5006
2026-01-01 00:44:07.49	226.09	60.46	-31.0	-33.6	10.8	2.59e-03	0	43	0	779091968	22	4846
2026-01-01 00:44:08.50	225.73	60.08	-31.1	-33.9	10.8	4.34e-03	0	43	0	781189120	22	4979
2026-01-01 00:44:09.50	225.37	59.71	-31.3	-34.6	10.4	4.75e-03	0	43	0	783286272	22	5248
2026-01-01 00:44:10.50	225.03	59.33	-32.1	-36.7	7.8	2.42e-02	0	43	0	785383424	24	6126
2026-01-01 00:44:11.51	224.69	58.96	-32.1	-36.9	7.6	1.23e-01	0	43	0	787480576	24	6212
2026-01-01 00:44:12.52	224.37	58.58	-30.8	-32.5	11.4	8.53e-03	0	43	0	788529152	23	4384
2026-01-01 00:44:13.51	224.05	58.21	-29.9	-31.3	13.2	1.04e-04	0	43	0	790626304	20	4251
2026-01-01 00:44:14.51	223.75	57.84	-29.5	-30.6	14.0	2.05e-05	0	43	0	792723456	19	4131
2026-01-01 00:44:15.51	223.45	57.48	-29.4	-30.6	14.1	3.05e-05	0	43	0	794820608	19	4118
2026-01-01 00:44:16.52	223.16	57.11	-29.6	-31.1	13.6	1.50e-06	0	43	0	795869184	19	4282
2026-01-01 00:44:17.53	222.87	56.74	-29.9	-31.5	12.9	4.19e-05	0	43	0	797966336	20	4341
2026-01-01 00:44:18.53	222.60	56.38	-29.3	-30.0	13.8	9.10e-06	0	43	0	800063488	20	3886
2026-01-01 00:44:19.53	222.33	56.01	-29.0	-30.2	14.3	6.10e-06	0	43	0	802160640	18	4124
2026-01-01 00:44:20.53	222.07	55.66	-29.0	-30.2	14.4	3.00e-06	0	43	0	804257792	18	4106
2026-01-01 00:44:21.54	221.81	55.29	-29.3	-30.9	14.0	7.00e-07	0	43	0	805306368	18	4339
2026-01-01 00:44:22.54	221.56	54.94	-29.0	-30.0	14.6	1.57e-03	0	43	0	807403520	18	4047
2026-01-01 00:44:23.55	221.32	54.58	-28.4	-29.0	15.5	0.00e+00	0	43	0	809500672	17	3861
2026-01-01 00:44:24.55	221.09	54.23	-28.9	-30.3	14.7	0.00e+00	0	43	0	811597824	17	4242
2026-01-01 00:44:25.55	220.86	53.88	-29.2	-30.6	14.2	1.40e-03	0	43	0	813694976	18	4227
2026-01-01 00:44:26.55	220.63	53.53	-29.4	-30.5	14.0	1.53e-03	0	43	0	814743552	19	4103
2026-01-01 00:44:27.56	220.41	53.18	-29.2	-30.1	14.2	3.00e-06	0	43	0	816840704	19	3968
2026-01-01 00:44:28.56	220.20	52.84	-29.6	-31.1	13.6	1.88e-03	0	43	0	818937856	19	4293
2026-01-01 00:44:29.56	219.99	52.50	-30.1	-32.0	12.6	1.84e-03	0	43	0	821035008	20	4486
2026-01-01 00:44:30.57	219.78	52.15	-30.0	-31.8	12.6	1.17e-04	0	43	0	823132160	20	4444
2026-01-01 00:44:31.57	219.58	51.82	-29.7	-31.5	13.4	4.19e-05	0	43	0	824180736	19	4414
2026-01-01 00:44:32.58	219.39	51.48	-29.8	-31.7	13.2	1.40e-03	0	43	0	826277888	19	4466
2026-01-01 00:44:33.57	219.20	51.15	-30.5	-33.3	11.7	2.01e-04	0	43	0	828375040	20	4954
2026-01-01 00:44:34.58	219.01	50.81	-31.0	-33.9	10.5	3.76e-03	0	43	0	830472192	22	5025
2026-01-01 00:44:35.57	218.83	50.48	-31.1	-34.1	10.4	7.88e-03	0	43	0	832569344	22	5103
2026-01-01 00:44:36.58	218.65	50.15	-31.0	-33.8	10.6	5.73e-03	0	43	0	833617920	22	4993
2026-01-01 00:44:37.58	218.48	49.83	-30.5	-32.7	11.7	3.12e-03	0	43	0	835715072	21	4656
2026-01-01 00:44:38.59	218.31	49.50	-30.3	-32.7	12.0	2.48e-03	0	43	0	837812224	20	4748
2026-01-01 00:44:39.59	218.14	49.18	-30.3	-32.8	11.9	3.13e-04	0	43	0	839909376	20	4775
2026-01-01 00:44:40.59	217.98	48.86	-30.3	-32.6	12.2	2.72e-03	0	43	0	842006528	20	4711
2026-01-01 00:44:41.60	217.82	48.54	-29.9	-31.7	12.8	4.81e-04	0	43	0	843055104	20	4397
2026-01-01 00:44:42.59	217.66	48.22	-30.3	-32.7	12.1	2.46e-04	0	43	0	845152256	20	4760
2026-01-01 00:44:43.60	217.51	47.91	-30.3	-32.7	12.1	2.32e-03	0	43	0	847249408	20	4747
2026-01-01 00:44:44.60	217.36	47.60	-30.4	-33.0	11.8	2.72e-03	0	43	0	849346560	20	4865
2026-01-01 00:44:45.61	217.21	47.28	-30.0	-31.5	12.4	2.75e-04	0	43	0	850395136	21	4241
2026-01-01 00:44:46.61	217.07	46.97	-30.3	-32.6	12.1	2.83e-03	0	43	0	852492288	20	4722
2026-01-01 00:44:47.60	216.93	46.67	-30.0	-31.7	12.6	2.72e-03	0	43	0	854589440	20	4406
2026-01-01 00:44:48.61	216.79	46.37	-30.3	-32.7	12.1	2.01e-04	0	43	0	856686592	20	4763
2026-01-01 00:44:49.60	216.65	46.07	-30.6	-33.1	11.5	2.68e-03	0	43	0	858783744	21	4789
2026-01-01 00:44:50.61	216.52	45.77	-31.0	-33.8	10.6	4.36e-03	0	43	0	859832320	22	4988
2026-01-01 00:44:51.61	216.39	45.47	-30.3	-31.7	12.1	2.32e-03	0	43	0	861929472	22	4243
2026-01-01 00:44:52.61	216.26	45.17	-30.0	-31.6	13.0	2.10e-03	0	43	0	864026624	20	4317
2026-01-01 00:44:53.61	216.14	44.88	-29.5	-30.5	14.0	2.23e-03	0	43	0	866123776	19	4078
2026-01-01 00:44:54.62	216.01	44.58	-29.5	-30.8	13.9	1.91e-04	0	43	0	868220928	19	4152
2026-01-01 00:44:55.62	215.89	44.30	-29.8	-31.2	13.2	2.25e-03	0	43	0	869269504	20	4190
2026-01-01 00:44:56.62	215.77	44.01	-30.6	-32.9	11.8	2.42e-03	0	43	0	871366656	21	4692
2026-01-01 00:44:57.62	215.65	43.72	-31.1	-33.8	10.7	2.11e-03	0	43	0	873463808	22	4925
2026-01-01 00:44:58.62	215.54	43.44	-30.8	-32.8	11.5	4.46e-03	0	43	0	875560960	22	4546
2026-01-01 00:44:59.63	215.43	43.16	-30.5	-32.4	12.1	2.62e-03	0	43	0	877658112	21	4503
2026-01-01 00:45:00.64	215.32	42.87	-30.5	-32.6	11.9	6.08e-04	0	43	0	878706688	21	4570
2026-01-01 00:45:01.64	215.21	42.60	-30.6	-32.4	11.8	3.27e-03	0	43	0	880803840	22	4416
2026-01-01 00:45:02.63	215.10	42.32	-30.3	-31.9	12.4	2.01e-04	0	43	0	882900992	21	4340
2026-01-01 00:45:03.64	215.00	42.05	-29.9	-31.0	13.0	2.37e-04	0	43	0	884998144	21	4044
2026-01-01 00:45:04.64	214.89	41.77	-30.1	-31.9	12.8	1.78e-03	0	43	0	887095296	20	4444
2026-01-01 00:45:05.63	214.79	41.51	-30.8	-33.6	11.2	2.28e-03	0	43	0	888143872	21	4971
2026-01-01 00:45:06.63	214.69	41.24	-31.4	-35.0	9.9	3.65e-03	0	43	0	890241024	22	5448
2026-01-01 00:45:07.63	214.60	40.97	-32.2	-37.1	7.4	6.06e-02	0	43	0	892338176	24	6371
2026-01-01 00:45:08.63	214.50	40.71	-31.9	-35.9	8.4	1.00e-01	0	43	0	894435328	24	5707
2026-01-01 00:45:09.64	214.41	40.44	-31.4	-34.5	9.8	1.60e-02	0	43	0	896532480	23	5154
2026-01-01 00:45:10.64	214.31	40.18	-30.7	-32.6	11.6	4.07e-03	0	43	0	897581056	22	4492
2026-01-01 00:45:11.64	214.22	39.92	-30.8	-33.5	11.3	2.81e-03	0	43	0	899678208	21	4905
2026-01-01 00:45:12.64	214.13	39.67	-30.4	-32.2	12.2	8.93e-04	0	43	0	901775360	21	4443
2026-01-01 00:45:13.64	214.04	39.41	-30.2	-32.1	12.6	1.31e-04	0	43	0	903872512	20	4507
2026-01-01 00:45:14.64	213.96	39.16	-30.4	-32.7	12.1	2.38e-03	0	43	0	904921088	20	4722
2026-01-01 00:45:15.64	213.87	38.91	-30.2	-32.1	12.5	1.58e-04	0	43	0	907018240	20	4508
2026-01-01 00:45:16.65	213.79	38.65	-30.3	-32.4	12.4	9.07e-05	0	43	0	909115392	20	4598
2026-01-01 00:45:17.65	213.70	38.41	-30.1	-32.0	12.6	2.18e-03	0	43	0	911212544	20	4455
2026-01-01 00:45:18.66	213.62	38.16	-30.0	-31.6	12.9	1.05e-04	0	43	0	913309696	20	4331
2026-01-01 00:45:19.66	213.54	37.91	-30.1	-31.9	12.7	1.01e-04	0	43	0	914358272	20	4431
2026-01-01 00:45:20.66	213.46	37.67	-30.6	-32.8	11.8	1.96e-04	0	43	0	916455424	21	4673
2026-01-01 00:45:21.66	213.38	37.43	-30.9	-33.8	11.0	9.57e-04	0	43	0	918552576	21	5043
2026-01-01 00:45:22.66	213.31	37.19	-31.2	-34.3	10.2	4.83e-03	0	43	0	920649728	22	5173
2026-01-01 00:45:23.66	213.23	36.95	-30.9	-33.2	11.0	2.65e-03	0	43	0	922746880	22	4718
2026-01-01 00:45:24.67	213.16	36.71	-30.5	-32.2	11.9	5.79e-04	0	43	0	923795456	22	4349
2026-01-01 00:45:25.67	213.08	36.48	-30.7	-33.1	11.6	3.12e-03	0	43	0	925892608	21	4758
2026-01-01 00:45:26.68	213.01	36.24	-30.6	-33.0	11.6	1.05e-03	0	43	0	927989760	21	4730
2026-01-01 00:45:27.68	212.94	36.01	-30.7	-33.3	11.3	1.29e-03	0	43	0	930086912	21	4841
2026-01-01 00:45:28.68	212.87	35.78	-31.0	-33.5	10.8	4.63e-03	0	43	0	932184064	22	4846
2026-01-01 00:45:29.68	212.80	35.55	-31.3	-34.6	10.0	6.17e-03	0	43	0	933232640	22	5299
2026-01-01 00:45:30.69	212.73	35.32	-31.3	-34.1	10.0	8.50e-03	0	43	0	935329792	23	5000
2026-01-01 00:45:31.69	212.66	35.10	-31.4	-34.6	9.7	1.29e-02	0	43	0	937426944	23	5208
2026-01-01 00:45:32.69	212.60	34.87	-31.4	-35.1	9.6	1.60e-02	0	43	0	939524096	22	5518
2026-01-01 00:45:33.69	212.53	34.65	-31.2	-34.0	10.2	8.41e-03	0	43	0	941621248	23	4938
2026-01-01 00:45:34.70	212.47	34.43	-31.2	-34.3	10.2	7.52e-03	0	43	0	942669824	22	5180
2026-01-01 00:45:35.71	212.40	34.21	-31.2	-34.3	10.2	5.62e-03	0	43	0	944766976	22	5173
2026-01-01 00:45:36.71	212.34	33.99	-30.6	-32.5	11.5	1.26e-03	0	43	0	946864128	22	4476
2026-01-01 00:45:37.71	212.28	33.78	-30.2	-31.7	12.4	2.73e-04	0	43	0	948961280	21	4290
2026-01-01 00:45:38.71	212.22	33.56	-30.0	-31.6	12.8	6.79e-05	0	43	0	950009856	20	4346
2026-01-01 00:45:39.72	212.16	33.35	-29.9	-31.4	13.0	2.59e-05	0	43	0	952107008	20	4298
2026-01-01 00:45:40.72	212.10	33.13	-29.9	-31.8	13.1	3.20e-05	0	43	0	954204160	19	4503
2026-01-01 00:45:41.72	212.04	32.92	-29.8	-31.2	13.1	4.65e-05	0	43	0	956301312	20	4225
2026-01-01 00:45:42.72	211.98	32.72	-30.2	-32.4	12.3	9.84e-05	0	43	0	958398464	20	4626
2026-01-01 00:45:43.73	211.93	32.51	-30.3	-32.2	12.1	3.31e-04	0	43	0	959447040	21	4440
2026-01-01 00:45:44.74	211.87	32.30	-30.5	-33.1	11.8	2.91e-04	0	43	0	961544192	20	4882
2026-01-01 00:45:45.75	211.81	32.09	-30.9	-33.8	11.0	7.60e-04	0	43	0	963641344	21	5035
2026-01-01 00:45:46.75	211.76	31.89	-31.3	-34.8	9.8	4.17e-03	0	43	0	965738496	22	5371
2026-01-01 00:45:47.75	211.70	31.69	-31.4	-35.1	9.7	1.16e-02	0	43	0	967835648	22	5502
2026-01-01 00:45:48.76	211.65	31.48	-31.6	-35.2	9.1	1.69e-02	0	43	0	968884224	23	5508
2026-01-01 00:45:49.76	211.60	31.28	-31.6	-35.3	9.0	2.25e-02	0	43	0	970981376	23	5539
2026-01-01 00:45:50.77	211.55	31.08	-31.4	-34.6	9.6	1.21e-02	0	43	0	973078528	23	5211
2026-01-01 00:45:51.76	211.50	30.89	-31.2	-33.8	10.2	7.79e-03	0	43	0	975175680	23	4891
2026-01-01 00:45:52.76	211.45	30.70	-30.8	-33.1	11.0	4.17e-03	0	43	0	977272832	22	4698
2026-01-01 00:45:53.77	211.40	30.50	-30.6	-33.0	11.5	1.11e-03	0	43	0	978321408	21	4753
2026-01-01 00:45:54.77	211.35	30.31	-30.5	-32.7	11.6	8.38e-04	0	43	0	980418560	21	4637
2026-01-01 00:45:55.78	211.30	30.11	-30.4	-32.5	11.8	5.36e-04	0	43	0	982515712	21	4569
2026-01-01 00:45:56.78	211.25	29.92	-30.6	-33.0	11.4	9.15e-04	0	43	0	984612864	21	4752
2026-01-01 00:45:57.78	211.20	29.73	-30.9	-33.9	10.2	2.32e-03	0	43	0	986710016	21	5102
2026-01-01 00:45:58.79	211.16	29.54	-30.7	-33.3	10.8	2.35e-03	0	43	0	987758592	21	4883
2026-01-01 00:45:59.79	211.11	29.36	-30.7	-33.4	11.1	8.17e-04	0	43	0	989855744	21	4907
2026-01-01 00:46:00.80	211.06	29.17	-30.8	-33.6	10.9	1.39e-03	0	43	0	991952896	21	4995
2026-01-01 00:46:01.80	211.02	28.99	-30.7	-33.5	11.0	1.79e-03	0	43	0	994050048	21	4970
2026-01-01 00:46:02.80	210.97	28.80	-30.8	-33.7	10.8	1.76e-03	0	43	0	996147200	21	5040
2026-01-01 00:46:03.81	210.93	28.62	-30.6	-33.2	11.2	6.04e-03	0	43	0	997195776	21	4825
2026-01-01 00:46:04.81	210.89	28.44	-30.6	-33.1	11.3	1.15e-03	0	43	0	999292928	21	4805
2026-01-01 00:46:05.81	210.84	28.26	-30.5	-32.7	11.5	8.09e-04	0	43	0	1001390080	21	4644
2026-01-01 00:46:06.82	210.80	28.08	-30.0	-31.9	12.5	6.30e-04	0	43	0	1003487232	20	4472
2026-01-01 00:46:07.82	210.76	27.90	-29.9	-31.8	12.9	1.63e-03	0	43	0	1004535808	19	4515
2026-01-01 00:46:08.81	210.72	27.73	-30.0	-32.1	12.8	5.34e-05	0	43	0	1006632960	19	4601
2026-01-01 00:46:09.82	210.68	27.55	-30.2	-32.5	12.1	1.35e-04	0	43	0	1008730112	20	4663
2026-01-01 00:46:10.82	210.64	27.38	-30.2	-32.4	12.2	4.24e-03	0	43	0	1010827264	20	4630
2026-01-01 00:46:11.83	210.60	27.20	-30.7	-33.5	11.0	9.74e-04	0	43	0	1012924416	21	4963
2026-01-01 00:46:12.82	210.56	27.03	-31.0	-33.8	10.4	4.32e-03	0	43	0	1013972992	22	4993
2026-01-01 00:46:13.83	210.52	26.86	-31.0	-34.4	10.4	5.48e-03	0	43	0	1016070144	21	5316
2026-01-01 00:46:14.83	210.48	26.69	-31.2	-34.4	10.0	8.83e-03	0	43	0	1018167296	22	5249
2026-01-01 00:46:15.84	210.44	26.52	-31.1	-34.1	10.1	7.38e-03	0	43	0	1020264448	22	5109
2026-01-01 00:46:16.84	210.40	26.35	-30.7	-33.5	11.0	3.21e-03	0	43	0	1022361600	21	4960
2026-01-01 00:46:17.84	210.36	26.19	-30.5	-33.2	11.5	1.55e-03	0	43	0	1023410176	20	4938
2026-01-01 00:46:18.85	210.33	26.02	-30.3	-32.6	11.9	1.90e-03	0	43	0	1025507328	20	4698
2026-01-01 00:46:19.85	210.29	25.86	-30.0	-31.8	12.5	1.74e-04	0	43	0	1027604480	20	4414
2026-01-01 00:46:20.85	210.25	25.69	-29.9	-31.6	12.6	4.56e-04	0	43	0	1029701632	20	4375
2026-01-01 00:46:21.85	210.22	25.53	-30.0	-31.8	12.5	2.97e-03	0	43	0	1031798784	20	4432
2026-01-01 00:46:22.85	210.18	25.37	-29.7	-31.4	13.2	4.88e-05	0	43	0	1032847360	19	4365
2026-01-01 00:46:23.85	210.15	25.21	-29.7	-31.5	13.1	1.90e-05	0	43	0	1034944512	19	4396
2026-01-01 00:46:24.85	210.11	25.05	-29.8	-31.8	12.9	2.57e-03	0	43	0	1037041664	19	4497
2026-01-01 00:46:25.85	210.08	24.89	-29.6	-31.2	13.1	2.42e-03	0	43	0	1039138816	19	4323
2026-01-01 00:46:26.86	210.05	24.73	-29.9	-31.9	12.9	2.21e-05	0	43	0	1041235968	19	4533
2026-01-01 00:46:27.86	210.01	24.57	-29.8	-31.7	12.9	1.70e-03	0	43	0	1042284544	19	4475
2026-01-01 00:46:28.85	209.98	24.42	-30.0	-32.2	12.9	1.63e-03	0	43	0	1044381696	19	4637
2026-01-01 00:46:29.85	209.95	24.27	-29.7	-31.5	13.0	4.50e-05	0	43	0	1046478848	19	4422
2026-01-01 00:46:30.86	209.91	24.11	-29.7	-31.4	13.1	2.89e-05	0	43	0	1048576000	19	4394
2026-01-01 00:46:31.85	209.88	23.96	-29.5	-31.0	13.4	1.01e-03	0	43	0	1049624576	19	4247
2026-01-01 00:46:32.86	209.85	23.80	-29.6	-31.1	13.4	9.90e-06	0	43	0	1051721728	19	4280
2026-01-01 00:46:33.87	209.82	23.65	-29.5	-30.8	13.5	9.10e-06	0	43	0	1053818880	19	4191
2026-01-01 00:46:34.87	209.79	23.50	-29.5	-30.9	13.5	1.34e-03	0	43	0	1055916032	19	4227
2026-01-01 00:46:35.88	209.76	23.35	-29.7	-31.3	13.2	2.36e-05	0	43	0	1058013184	19	4358
2026-01-01 00:46:36.88	209.73	23.20	-29.6	-31.2	13.3	3.56e-04	0	43	0	1060110336	19	4314
2026-01-01 00:46:37.88	209.70	23.05	-29.7	-31.4	13.1	1.59e-03	0	43	0	1061158912	19	4374
2026-01-01 00:46:38.89	209.67	22.90	-29.6	-31.1	13.3	3.28e-05	0	43	0	1063256064	19	4279
2026-01-01 00:46:39.90	209.64	22.76	-29.5	-30.8	13.5	1.78e-03	0	43	0	1065353216	19	4215
2026-01-01 00:46:40.90	209.61	22.61	-29.5	-31.3	13.5	6.10e-06	0	43	0	1067450368	18	4436
2026-01-01 00:46:41.90	209.58	22.47	-29.7	-31.4	13.1	1.83e-05	0	43	0	1068498944	19	4393
2026-01-01 00:46:42.90	209.55	22.32	-29.6	-31.3	13.1	2.12e-03	0	43	0	1070596096	19	4360
2026-01-01 00:46:43.90	209.52	22.18	-29.7	-31.5	13.0	2.09e-03	0	43	0	1072693248	19	4418
2026-01-01 00:46:44.91	209.50	22.04	-29.6	-31.3	13.2	3.12e-05	0	43	0	1074790400	19	4366
2026-01-01 00:46:45.92	209.47	21.89	-29.8	-31.9	12.7	2.20e-03	0	43	0	1076887552	19	4563
2026-01-01 00:46:46.92	209.44	21.75	-29.8	-31.7	12.8	2.32e-03	0	43	0	1077936128	19	4507
2026-01-01 00:46:47.92	209.41	21.61	-29.9	-32.1	12.6	6.02e-05	0	43	0	1080033280	19	4629
2026-01-01 00:46:48.93	209.39	21.47	-30.0	-32.0	12.2	2.41e-03	0	43	0	1082130432	20	4512
2026-01-01 00:46:49.92	209.36	21.34	-30.1	-32.2	12.0	2.51e-03	0	43	0	1084227584	20	4600
2026-01-01 00:46:50.92	209.33	21.20	-30.1	-32.3	12.0	3.11e-04	0	43	0	1086324736	20	4639
2026-01-01 00:46:51.92	209.31	21.06	-30.1	-32.2	12.1	2.70e-03	0	43	0	1087373312	20	4580
2026-01-01 00:46:52.92	209.28	20.92	-30.3	-32.8	11.6	2.79e-03	0	43	0	1089470464	20	4820
2026-01-01 00:46:53.92	209.26	20.79	-30.3	-32.9	11.6	7.21e-04	0	43	0	1091567616	20	4848
2026-01-01 00:46:54.92	209.23	20.65	-30.3	-33.0	11.5	2.94e-03	0	43	0	1093664768	20	4875
2026-01-01 00:46:55.93	209.21	20.52	-30.5	-33.0	11.1	3.52e-03	0	43	0	1095761920	21	4791
2026-01-01 00:46:56.94	209.18	20.38	-30.5	-33.1	11.1	1.95e-03	0	43	0	1096810496	21	4815
2026-01-01 00:46:57.94	209.16	20.25	-30.6	-33.3	10.8	3.86e-03	0	43	0	1098907648	21	4924
2026-01-01 00:46:58.94	209.13	20.12	-30.7	-33.5	10.7	4.83e-03	0	43	0	1101004800	21	4989
2026-01-01 00:46:59.95	209.11	19.99	-30.6	-33.4	10.9	2.70e-03	0	43	0	1103101952	21	4933
2026-01-01 00:47:00.95	209.08	19.86	-30.6	-33.2	11.0	4.88e-03	0	43	0	1105199104	21	4882
2026-01-01 00:47:01.95	209.06	19.73	-30.6	-33.2	10.9	2.81e-03	0	43	0	1106247680	21	4875
2026-01-01 00:47:02.95	209.04	19.60	-30.6	-33.2	11.0	1.97e-03	0	43	0	1108344832	21	4853
2026-01-01 00:47:03.96	209.01	19.47	-30.6	-33.2	11.0	4.32e-03	0	43	0	1110441984	21	4857
2026-01-01 00:47:04.96	208.99	19.34	-30.6	-33.3	10.9	2.05e-03	0	43	0	1112539136	21	4898
2026-01-01 00:47:05.97	208.97	19.21	-30.6	-33.4	10.8	1.77e-03	0	43	0	1113587712	21	4958
2026-01-01 00:47:06.97	208.94	19.09	-30.6	-33.4	10.8	4.54e-03	0	43	0	1115684864	21	4942
2026-01-01 00:47:07.98	208.92	18.96	-30.5	-33.0	11.1	3.94e-03	0	43	0	1117782016	21	4787
2026-01-01 00:47:08.98	208.90	18.83	-30.5	-33.0	11.1	1.60e-03	0	43	0	1119879168	21	4801
2026-01-01 00:47:09.97	208.88	18.71	-30.4	-33.3	11.2	3.47e-03	0	43	0	1121976320	20	5008
2026-01-01 00:47:10.98	208.86	18.58	-30.6	-33.3	10.8	3.94e-03	0	43	0	1123024896	21	4931
2026-01-01 00:47:11.98	208.83	18.46	-30.4	-32.8	11.2	1.57e-03	0	43	0	1125122048	21	4722
2026-01-01 00:47:12.99	208.81	18.34	-30.3	-33.0	11.5	2.96e-03	0	43	0	1127219200	20	4875
2026-01-01 00:47:13.99	208.79	18.21	-30.2	-32.6	11.7	2.92e-03	0	43	0	1129316352	20	4734
2026-01-01 00:47:14.98	208.77	18.09	-29.8	-31.5	12.4	2.43e-04	0	43	0	1131413504	20	4360
2026-01-01 00:47:15.99	208.75	17.97	-30.0	-31.9	12.1	2.21e-04	0	43	0	1132462080	20	4494
2026-01-01 00:47:16.98	208.73	17.85	-30.1	-32.2	12.0	2.39e-03	0	43	0	1134559232	20	4603
2026-01-01 00:47:17.99	208.71	17.73	-30.1	-32.3	11.9	3.62e-04	0	43	0	1136656384	20	4643
2026-01-01 00:47:18.98	208.69	17.61	-30.0	-31.9	12.2	2.90e-04	0	43	0	1138753536	20	4480
2026-01-01 00:47:19.99	208.67	17.49	-30.0	-32.1	12.0	2.46e-03	0	43	0	1140850688	20	4580
2026-01-01 00:47:20.99	208.65	17.38	-30.1	-32.3	11.9	4.61e-04	0	43	0	1141899264	20	4637
2026-01-01 00:47:22.00	208.63	17.26	-29.9	-31.8	12.2	2.22e-04	0	43	0	1143996416	20	4477
2026-01-01 00:47:23.00	208.61	17.14	-30.0	-32.0	12.1	2.44e-04	0	43	0	1146093568	20	4532
2026-01-01 00:47:24.00	208.59	17.02	-30.0	-32.1	12.0	4.26e-04	0	43	0	1148190720	20	4577
2026-01-01 00:47:25.00	208.57	16.91	-30.0	-32.2	11.9	2.29e-03	0	43	0	1150287872	20	4612
2026-01-01 00:47:26.01	208.55	16.79	-30.0	-32.1	12.0	4.29e-04	0	43	0	1151336448	20	4569
2026-01-01 00:47:27.01	208.53	16.68	-30.1	-32.4	11.8	4.55e-04	0	43	0	1153433600	20	4664
2026-01-01 00:47:28.02	208.52	16.56	-30.3	-32.8	11.4	2.88e-03	0	43	0	1155530752	20	4837
2026-01-01 00:47:29.02	208.50	16.45	-30.1	-32.5	11.7	5.96e-04	0	43	0	1157627904	20	4705
2026-01-01 00:47:30.02	208.48	16.33	-30.3	-32.8	11.4	7.74e-04	0	43	0	1158676480	20	4847
2026-01-01 00:47:31.02	208.46	16.22	-30.3	-33.0	11.3	3.37e-03	0	43	0	1160773632	20	4892
2026-01-01 00:47:32.02	208.44	16.11	-30.3	-32.9	11.4	2.84e-03	0	43	0	1162870784	20	4867
2026-01-01 00:47:33.02	208.42	16.00	-30.3	-33.1	11.2	9.40e-04	0	43	0	1164967936	20	4930
2026-01-01 00:47:34.03	208.41	15.89	-30.4	-33.3	11.1	1.81e-03	0	43	0	1167065088	20	5011
2026-01-01 00:47:35.03	208.39	15.78	-30.4	-33.2	11.1	3.50e-03	0	43	0	1168113664	20	4980
2026-01-01 00:47:36.04	208.37	15.66	-30.5	-33.3	10.7	2.55e-03	0	43	0	1170210816	21	4924
2026-01-01 00:47:37.04	208.35	15.55	-30.5	-33.2	10.8	3.05e-03	0	43	0	1172307968	21	4897
2026-01-01 00:47:38.04	208.34	15.45	-30.4	-32.7	11.1	4.48e-03	0	43	0	1174405120	21	4721
2026-01-01 00:47:39.04	208.32	15.34	-30.4	-32.8	11.0	2.66e-03	0	43	0	1176502272	21	4741
2026-01-01 00:47:40.05	208.30	15.23	-30.5	-33.5	10.9	2.17e-03	0	43	0	1177550848	20	5133
2026-01-01 00:47:41.06	208.29	15.12	-30.6	-33.4	10.6	3.15e-03	0	43	0	1179648000	21	4982
2026-01-01 00:47:42.07	208.27	15.01	-30.8	-34.1	10.0	6.52e-03	0	43	0	1181745152	21	5269
2026-01-01 00:47:43.07	208.25	14.90	-30.5	-33.3	10.6	4.19e-03	0	43	0	1183842304	21	4942
2026-01-01 00:47:44.08	208.24	14.80	-30.4	-32.9	10.9	2.26e-03	0	43	0	1185939456	21	4796
2026-01-01 00:47:45.07	208.22	14.69	-30.5	-33.0	10.9	1.59e-03	0	43	0	1186988032	21	4840
2026-01-01 00:47:46.07	208.21	14.59	-30.3	-33.1	11.2	1.26e-03	0	43	0	1189085184	20	4950
2026-01-01 00:47:47.08	208.19	14.48	-30.3	-32.9	11.3	1.22e-03	0	43	0	1191182336	20	4877
2026-01-01 00:47:48.07	208.17	14.38	-30.2	-32.8	11.3	1.06e-03	0	43	0	1193279488	20	4859
2026-01-01 00:47:49.07	208.16	14.27	-30.1	-32.6	11.5	3.37e-03	0	43	0	1195376640	20	4755
2026-01-01 00:47:50.07	208.14	14.17	-30.1	-32.3	11.6	6.93e-04	0	43	0	1196425216	20	4669
2026-01-01 00:47:51.07	208.13	14.07	-30.1	-32.4	11.6	8.01e-04	0	43	0	1198522368	20	4705
2026-01-01 00:47:52.06	208.11	13.96	-30.0	-32.2	11.7	6.28e-04	0	43	0	1200619520	20	4614
2026-01-01 00:47:53.06	208.10	13.86	-30.0	-32.1	11.8	4.27e-04	0	43	0	1202716672	20	4612
2026-01-01 00:47:54.07	208.08	13.76	-30.0	-32.1	11.8	4.58e-04	0	43	0	1203765248	20	4582
2026-01-01 00:47:55.07	208.07	13.66	-30.0	-32.1	11.7	4.15e-04	0	43	0	1205862400	20	4607
2026-01-01 00:47:56.06	208.05	13.56	-30.0	-32.1	11.8	2.12e-03	0	43	0	1207959552	20	4600
2026-01-01 00:47:57.07	208.04	13.46	-29.8	-31.7	12.0	3.82e-04	0	43	0	1210056704	20	4457
2026-01-01 00:47:58.07	208.02	13.36	-29.9	-32.4	11.9	3.13e-04	0	43	0	1212153856	19	4802
2026-01-01 00:47:59.08	208.01	13.26	-29.9	-32.0	11.8	5.86e-04	0	43	0	1213202432	20	4560
2026-01-01 00:48:00.08	208.00	13.16	-29.8	-31.7	12.1	2.94e-04	0	43	0	1215299584	20	4451
2026-01-01 00:48:01.08	207.98	13.06	-30.1	-32.6	11.5	5.15e-04	0	43	0	1217396736	20	4764
2026-01-01 00:48:02.08	207.97	12.96	-30.1	-32.4	11.6	8.54e-04	0	43	0	1219493888	20	4699
2026-01-01 00:48:03.08	207.95	12.86	-29.9	-31.9	11.8	4.81e-04	0	43	0	1221591040	20	4546
2026-01-01 00:48:04.09	207.94	12.76	-30.0	-32.2	11.6	5.54e-04	0	43	0	1222639616	20	4634
2026-01-01 00:48:05.10	207.93	12.66	-30.1	-32.4	11.5	7.66e-04	0	43	0	1224736768	20	4710
2026-01-01 00:48:06.10	207.91	12.57	-30.0	-32.3	11.6	6.24e-04	0	43	0	1226833920	20	4687
2026-01-01 00:48:07.11	207.90	12.47	-30.1	-32.6	11.4	9.47e-04	0	43	0	1228931072	20	4771
2026-01-01 00:48:08.11	207.89	12.37	-30.1	-32.5	11.4	9.44e-04	0	43	0	1231028224	20	4766
2026-01-01 00:48:09.12	207.87	12.28	-30.1	-32.5	11.4	1.04e-03	0	43	0	1232076800	20	4743
2026-01-01 00:48:10.11	207.86	12.18	-30.1	-32.6	11.3	1.14e-03	0	43	0	1234173952	20	4804
2026-01-01 00:48:11.12	207.85	12.09	-30.3	-33.1	10.9	1.48e-03	0	43	0	1236271104	20	5000
2026-01-01 00:48:12.12	207.83	11.99	-30.3	-33.0	11.0	2.24e-03	0	43	0	1238368256	20	4961
2026-01-01 00:48:13.13	207.82	11.90	-30.3	-33.4	10.6	2.55e-03	0	43	0	1240465408	20	5102
2026-01-01 00:48:14.14	207.81	11.80	-30.2	-33.0	11.0	1.96e-03	0	43	0	1241513984	20	4939
2026-01-01 00:48:15.14	207.80	11.71	-30.3	-33.3	10.8	2.44e-03	0	43	0	1243611136	20	5057
2026-01-01 00:48:16.15	207.78	11.61	-30.3	-33.1	10.9	2.46e-03	0	43	0	1245708288	20	4998
2026-01-01 00:48:17.15	207.77	11.52	-30.4	-33.6	10.5	3.27e-03	0	43	0	1247805440	20	5188
2026-01-01 00:48:18.15	207.76	11.43	-30.4	-33.6	10.5	4.19e-03	0	43	0	1249902592	20	5206
2026-01-01 00:48:19.15	207.75	11.34	-30.5	-33.9	10.3	4.23e-03	0	43	0	1250951168	20	5312
2026-01-01 00:48:20.15	207.73	11.24	-30.5	-33.6	10.1	6.06e-03	0	43	0	1253048320	21	5112
2026-01-01 00:48:21.16	207.72	11.15	-30.6	-33.8	10.0	6.56e-03	0	43	0	1255145472	21	5180
2026-01-01 00:48:22.16	207.71	11.06	-30.6	-33.6	10.1	7.01e-03	0	43	0	1257242624	21	5135
2026-01-01 00:48:23.17	207.70	10.97	-30.5	-33.6	10.1	5.97e-03	0	43	0	1258291200	21	5111
2026-01-01 00:48:24.17	207.69	10.88	-30.7	-33.9	9.9	8.97e-03	0	43	0	1260388352	21	5258
2026-01-01 00:48:25.17	207.67	10.79	-30.6	-33.9	9.9	9.31e-03	0	43	0	1262485504	21	5248
2026-01-01 00:48:26.18	207.66	10.70	-30.6	-34.0	9.8	9.92e-03	0	43	0	1264582656	21	5276
2026-01-01 00:48:27.18	207.65	10.61	-30.6	-33.9	9.8	1.14e-02	0	43	0	1266679808	21	5263
2026-01-01 00:48:28.18	207.64	10.52	-30.7	-34.2	9.6	1.01e-02	0	43	0	1268776960	21	5379
2026-01-01 00:48:29.19	207.63	10.43	-30.7	-34.2	9.6	1.22e-02	0	43	0	1269825536	21	5383
2026-01-01 00:48:30.20	207.62	10.34	-30.8	-34.4	9.5	1.87e-02	0	43	0	1271922688	21	5470
2026-01-01 00:48:31.20	207.61	10.25	-30.7	-34.3	9.4	1.81e-02	0	43	0	1274019840	21	5439
2026-01-01 00:48:32.21	207.59	10.16	-30.8	-34.7	9.2	1.75e-02	0	43	0	1276116992	21	5616
2026-01-01 00:48:33.21	207.58	10.07	-30.7	-34.2	9.6	2.01e-02	0	43	0	1277165568	21	5372
2026-01-01 00:48:34.21	207.57	9.99	-30.8	-34.4	9.4	1.64e-02	0	43	0	1279262720	21	5481
2026-01-01 00:48:35.21	207.56	9.90	-30.8	-34.5	9.3	1.48e-02	0	43	0	1281359872	21	5526
2026-01-01 00:48:36.21	207.55	9.81	-30.7	-34.4	9.4	1.58e-02	0	43	0	1283457024	21	5512
2026-01-01 00:48:37.21	207.54	9.73	-30.9	-34.9	9.0	2.71e-02	0	43	0	1285554176	21	5726
2026-01-01 00:48:38.22	207.53	9.64	-30.7	-34.3	9.4	2.24e-02	0	43	0	1286602752	21	5428
2026-01-01 00:48:39.22	207.52	9.55	-30.8	-34.5	9.3	1.69e-02	0	43	0	1288699904	21	5530
