passes_logs/2026/01/01/R2M6_AANII_01/R2M6_AANII_01__20260101_013802_AQUA_rec.log

#Pass ID: 20260101_013802_AQUA
#Satellite: AQUA
#Configuration: AQUA
#almurnet v.1.7.20240730
#Start time: 2026-01-01 01:38:03

#Version: 2.2.20231116
#Station: R2M6_AANII_01
#Location: 30.233357 lon 59.946436 lat
#TLE: 1 27424U 02022A   25364.96158943  .00001951  00000+0  40088-3 0  9998
#TLE: 2 27424  98.4061 326.1389 0001917  95.3187 305.7939 14.61780362258696

#Time	Az	El	Level	Level2	SNR	BER	BlckErr	Temp	State	Recorded	gain1	gain2
2026-01-01 01:38:03.34	20.26	7.05	-31.2	-46.6	3.8	7.46e-01	0	40	0	0	23	21215
2026-01-01 01:38:04.33	20.29	7.13	-31.3	-46.9	3.8	7.46e-01	0	40	104	0	23	21755
2026-01-01 01:38:05.32	20.32	7.21	-30.9	-46.3	3.8	7.45e-01	0	40	104	0	23	21112
2026-01-01 01:38:06.33	20.35	7.30	-30.2	-45.6	3.8	7.45e-01	0	41	104	0	23	21259
2026-01-01 01:38:07.33	20.37	7.38	-29.9	-45.7	3.8	7.43e-01	0	40	104	0	22	22279
2026-01-01 01:38:08.33	20.40	7.46	-31.4	-47.8	3.8	7.45e-01	0	41	104	0	22	23625
2026-01-01 01:38:09.33	20.43	7.54	-31.4	-47.5	3.8	7.46e-01	0	41	104	0	23	22941
2026-01-01 01:38:10.33	20.46	7.62	-31.2	-46.7	3.8	7.46e-01	0	41	104	0	23	21438
2026-01-01 01:38:11.33	20.49	7.71	-31.0	-46.0	3.8	7.50e-01	0	41	104	0	22	20296
2026-01-01 01:38:12.34	20.52	7.79	-30.7	-45.0	3.8	7.45e-01	0	41	104	0	22	18784
2026-01-01 01:38:13.35	20.55	7.87	-30.4	-44.7	3.8	7.43e-01	0	41	104	0	21	18656
2026-01-01 01:38:14.35	20.58	7.96	-30.1	-43.9	3.8	7.43e-01	0	41	104	0	21	17494
2026-01-01 01:38:15.35	20.61	8.04	-30.1	-44.1	3.7	7.45e-01	0	41	104	0	20	18133
2026-01-01 01:38:16.35	20.64	8.13	-30.1	-43.7	3.8	7.45e-01	0	41	104	0	21	17219
2026-01-01 01:38:17.35	20.67	8.21	-29.9	-43.7	3.9	7.43e-01	0	41	104	0	20	17513
2026-01-01 01:38:18.35	20.70	8.29	-29.9	-43.6	3.8	7.47e-01	0	41	104	0	20	17478
2026-01-01 01:38:19.36	20.73	8.38	-29.8	-43.3	3.8	7.45e-01	0	41	104	0	20	16981
2026-01-01 01:38:20.36	20.76	8.47	-29.9	-43.7	3.8	7.47e-01	0	41	104	0	20	17496
2026-01-01 01:38:21.35	20.79	8.55	-30.0	-44.0	3.8	7.44e-01	0	41	104	0	20	17914
2026-01-01 01:38:22.35	20.82	8.64	-30.2	-43.8	3.8	7.45e-01	0	41	104	0	21	17419
2026-01-01 01:38:23.35	20.85	8.72	-30.3	-44.4	3.8	7.44e-01	0	41	104	0	21	18153
2026-01-01 01:38:24.35	20.89	8.81	-30.6	-45.1	3.8	7.46e-01	0	41	104	0	21	19080
2026-01-01 01:38:25.36	20.92	8.90	-30.8	-45.3	3.8	7.46e-01	0	41	104	0	22	19044
2026-01-01 01:38:26.36	20.95	8.98	-31.0	-46.1	3.8	7.44e-01	0	41	104	0	22	20348
2026-01-01 01:38:27.36	20.98	9.07	-31.3	-46.7	3.8	7.45e-01	0	41	104	0	23	21133
2026-01-01 01:38:28.36	21.01	9.16	-31.5	-47.5	3.8	7.45e-01	0	41	104	0	23	22607
2026-01-01 01:38:29.37	21.05	9.25	-31.6	-47.6	3.8	7.48e-01	0	41	104	0	23	22820
2026-01-01 01:38:30.37	21.08	9.34	-31.6	-47.5	3.8	7.49e-01	0	41	104	0	24	22242
2026-01-01 01:38:31.38	21.11	9.43	-31.7	-47.8	3.8	7.45e-01	0	41	104	0	24	22968
2026-01-01 01:38:32.37	21.14	9.52	-31.9	-48.7	3.8	7.46e-01	0	41	104	0	24	24818
2026-01-01 01:38:33.37	21.18	9.61	-32.0	-49.1	3.8	7.45e-01	0	41	104	0	24	25896
2026-01-01 01:38:34.37	21.21	9.70	-32.1	-49.5	3.8	7.50e-01	0	41	104	0	25	26509
2026-01-01 01:38:35.37	21.24	9.79	-32.3	-50.3	3.8	7.45e-01	0	41	104	0	25	28451
2026-01-01 01:38:36.37	21.28	9.88	-32.4	-50.8	3.8	7.44e-01	0	41	104	0	25	29971
2026-01-01 01:38:37.37	21.31	9.97	-32.5	-51.4	3.8	7.46e-01	0	41	104	0	25	31699
2026-01-01 01:38:38.38	21.35	10.06	-32.6	-51.8	3.8	7.46e-01	0	41	104	0	25	32875
2026-01-01 01:38:39.38	21.38	10.15	-32.6	-51.5	3.8	7.42e-01	0	41	104	0	26	31786
2026-01-01 01:38:40.39	21.41	10.25	-32.6	-51.5	3.9	7.43e-01	0	41	104	0	26	31715
2026-01-01 01:38:41.39	21.45	10.34	-32.6	-51.6	3.8	7.45e-01	0	42	104	0	26	32026
2026-01-01 01:38:42.40	21.48	10.43	-32.6	-51.6	3.8	7.45e-01	0	41	104	0	26	31839
2026-01-01 01:38:43.41	21.52	10.53	-32.6	-51.4	3.8	7.47e-01	0	41	104	0	26	31364
2026-01-01 01:38:44.41	21.56	10.62	-32.7	-51.3	3.8	7.47e-01	0	41	104	0	26	30890
2026-01-01 01:38:45.41	21.59	10.72	-32.6	-51.2	3.8	7.49e-01	0	42	104	0	26	30420
2026-01-01 01:38:46.41	21.63	10.81	-32.6	-51.3	3.8	7.45e-01	0	41	104	0	25	31019
2026-01-01 01:38:47.42	21.66	10.91	-32.4	-50.6	3.8	7.46e-01	0	42	104	0	25	29089
2026-01-01 01:38:48.43	21.70	11.00	-32.3	-49.9	3.8	7.48e-01	0	41	104	0	25	27234
2026-01-01 01:38:49.43	21.74	11.10	-32.1	-48.8	3.8	7.46e-01	0	42	104	0	25	24623
2026-01-01 01:38:50.44	21.77	11.20	-31.9	-48.1	3.8	7.44e-01	0	42	104	0	24	23211
2026-01-01 01:38:51.44	21.81	11.29	-31.7	-47.1	3.8	7.43e-01	0	42	104	0	24	21414
2026-01-01 01:38:52.44	21.85	11.39	-31.4	-46.6	3.8	7.45e-01	0	42	104	0	23	20788
2026-01-01 01:38:53.45	21.88	11.49	-31.1	-45.7	3.8	7.45e-01	0	41	104	0	23	19271
2026-01-01 01:38:54.45	21.92	11.59	-31.0	-45.6	3.8	7.43e-01	0	42	104	0	22	19297
2026-01-01 01:38:55.45	21.96	11.69	-30.9	-45.5	3.8	7.44e-01	0	42	104	0	22	19184
2026-01-01 01:38:56.46	22.00	11.78	-30.8	-45.1	3.8	7.45e-01	0	42	104	0	22	18651
2026-01-01 01:38:57.46	22.04	11.88	-30.9	-45.3	3.8	7.46e-01	0	42	104	0	22	18945
2026-01-01 01:38:58.46	22.07	11.98	-31.0	-45.6	3.8	7.46e-01	0	42	104	0	22	19363
2026-01-01 01:38:59.46	22.11	12.08	-30.9	-45.3	3.8	7.44e-01	0	42	104	0	22	18893
2026-01-01 01:39:00.46	22.15	12.18	-30.6	-44.2	3.8	7.42e-01	0	42	104	0	22	17293
2026-01-01 01:39:01.46	22.19	12.29	-30.2	-43.7	3.8	7.45e-01	0	42	104	0	21	17032
2026-01-01 01:39:02.47	22.23	12.39	-29.9	-43.3	3.8	7.42e-01	0	42	104	0	20	16881
2026-01-01 01:39:03.48	22.27	12.49	-29.8	-43.1	3.8	7.44e-01	0	42	104	0	20	16663
2026-01-01 01:39:04.48	22.31	12.59	-30.1	-43.5	3.8	7.41e-01	0	42	104	0	21	16729
2026-01-01 01:39:05.48	22.35	12.70	-30.4	-44.4	3.8	7.41e-01	0	42	104	0	21	17912
2026-01-01 01:39:06.49	22.39	12.80	-30.4	-44.4	3.8	7.45e-01	0	42	104	0	21	17918
2026-01-01 01:39:07.50	22.43	12.91	-30.3	-43.8	3.8	7.44e-01	0	42	104	0	21	17197
2026-01-01 01:39:08.51	22.48	13.01	-30.2	-43.6	3.8	7.46e-01	0	42	104	0	21	16891
2026-01-01 01:39:09.51	22.52	13.12	-30.1	-43.4	3.8	7.43e-01	0	42	104	0	21	16631
2026-01-01 01:39:10.51	22.56	13.22	-30.1	-43.8	3.8	7.40e-01	0	42	104	0	20	17435
2026-01-01 01:39:11.52	22.60	13.33	-30.3	-44.0	3.8	7.46e-01	0	42	104	0	21	17338
2026-01-01 01:39:12.52	22.64	13.44	-30.5	-44.7	3.8	7.44e-01	0	42	104	0	21	18299
2026-01-01 01:39:13.52	22.69	13.54	-30.8	-44.9	3.8	7.44e-01	0	42	104	0	22	18332
2026-01-01 01:39:14.53	22.73	13.65	-31.1	-45.8	3.8	7.45e-01	0	42	104	0	22	19647
2026-01-01 01:39:15.54	22.77	13.76	-31.4	-46.3	3.8	7.49e-01	0	42	104	0	23	20206
2026-01-01 01:39:16.54	22.82	13.87	-31.7	-47.2	3.8	7.46e-01	0	42	104	0	24	21445
2026-01-01 01:39:17.55	22.86	13.98	-32.0	-48.4	3.8	7.47e-01	0	42	104	0	24	23760
2026-01-01 01:39:18.56	22.91	14.09	-32.2	-48.7	3.8	7.44e-01	0	42	104	0	25	24093
2026-01-01 01:39:19.56	22.95	14.20	-32.2	-48.8	3.8	7.45e-01	0	42	104	0	25	24309
2026-01-01 01:39:20.57	23.00	14.31	-32.2	-48.9	3.8	7.44e-01	0	42	104	0	25	24592
2026-01-01 01:39:21.58	23.04	14.42	-32.4	-49.6	3.8	7.46e-01	0	42	104	0	25	26163
2026-01-01 01:39:22.58	23.09	14.54	-32.4	-49.9	3.8	7.44e-01	0	42	104	0	25	26850
2026-01-01 01:39:23.59	23.13	14.65	-32.6	-50.7	3.8	7.47e-01	0	42	104	0	25	29030
2026-01-01 01:39:24.60	23.18	14.76	-32.7	-51.1	3.8	7.46e-01	0	42	104	0	26	29739
2026-01-01 01:39:25.60	23.23	14.88	-32.8	-51.5	3.8	7.45e-01	0	42	104	0	26	31061
2026-01-01 01:39:26.61	23.27	14.99	-32.9	-51.9	3.8	7.46e-01	0	42	104	0	26	32162
2026-01-01 01:39:27.62	23.32	15.11	-32.8	-51.8	3.8	7.45e-01	0	42	104	0	26	32001
2026-01-01 01:39:28.62	23.37	15.22	-32.9	-51.9	3.8	7.42e-01	0	42	104	0	26	32115
2026-01-01 01:39:29.62	23.42	15.34	-32.8	-51.4	3.8	7.47e-01	0	42	104	0	26	30727
2026-01-01 01:39:30.62	23.46	15.45	-32.8	-51.5	3.8	7.43e-01	0	42	104	0	26	30924
2026-01-01 01:39:31.63	23.51	15.57	-32.8	-51.5	3.8	7.42e-01	0	42	104	0	26	30933
2026-01-01 01:39:32.63	23.56	15.69	-32.7	-51.0	3.8	7.44e-01	0	42	104	0	26	29526
2026-01-01 01:39:33.63	23.61	15.81	-32.7	-50.6	3.8	7.42e-01	0	42	104	0	26	28372
2026-01-01 01:39:34.63	23.66	15.93	-32.6	-50.0	3.8	7.47e-01	0	42	104	0	26	26782
2026-01-01 01:39:35.64	23.71	16.05	-32.5	-50.0	3.8	7.45e-01	0	42	104	0	25	27145
2026-01-01 01:39:36.64	23.76	16.17	-32.3	-49.3	3.8	7.44e-01	0	42	104	0	25	25301
2026-01-01 01:39:37.64	23.81	16.29	-32.1	-48.1	3.8	7.46e-01	0	42	104	0	25	22780
2026-01-01 01:39:38.65	23.87	16.41	-31.9	-47.5	3.8	7.49e-01	0	42	104	0	24	21840
2026-01-01 01:39:39.66	23.92	16.54	-31.6	-46.4	3.8	7.44e-01	0	42	104	0	24	19850
2026-01-01 01:39:40.65	23.97	16.66	-31.3	-46.0	3.8	7.43e-01	0	42	104	0	23	19430
2026-01-01 01:39:41.66	24.02	16.78	-30.3	-43.4	3.8	7.45e-01	0	42	104	0	22	16112
2026-01-01 01:39:42.66	24.08	16.91	-30.4	-43.6	3.8	7.48e-01	0	42	104	0	22	16371
2026-01-01 01:39:43.66	24.13	17.03	-30.3	-43.7	3.8	7.45e-01	0	42	104	0	21	16804
2026-01-01 01:39:44.66	24.18	17.16	-30.2	-43.5	3.8	7.48e-01	0	42	104	0	21	16673
2026-01-01 01:39:45.66	24.24	17.28	-29.9	-42.6	3.8	7.43e-01	0	42	104	0	21	15615
2026-01-01 01:39:46.67	24.29	17.41	-30.0	-43.3	3.8	7.47e-01	0	42	104	0	20	16733
2026-01-01 01:39:47.68	24.35	17.54	-30.1	-43.3	3.8	7.43e-01	0	42	104	0	21	16431
2026-01-01 01:39:48.68	24.40	17.67	-30.2	-43.6	3.8	7.47e-01	0	42	104	0	21	16661
2026-01-01 01:39:49.69	24.46	17.80	-30.0	-43.0	3.8	7.44e-01	0	42	104	0	21	15979
2026-01-01 01:39:50.69	24.52	17.93	-29.7	-42.6	3.8	7.44e-01	0	42	104	0	20	15814
2026-01-01 01:39:51.69	24.58	18.06	-29.8	-42.9	3.8	7.47e-01	0	42	104	0	20	16227
2026-01-01 01:39:52.69	24.63	18.19	-30.1	-43.2	3.9	7.43e-01	0	42	104	0	21	16228
2026-01-01 01:39:53.70	24.69	18.32	-30.5	-44.3	3.8	7.45e-01	0	42	104	0	21	17604
2026-01-01 01:39:54.70	24.75	18.46	-30.9	-44.9	3.8	7.44e-01	0	42	104	0	22	18080
2026-01-01 01:39:55.71	24.81	18.59	-31.2	-45.3	3.8	7.47e-01	0	42	104	0	23	18292
2026-01-01 01:39:56.71	24.87	18.72	-31.1	-45.0	3.8	7.44e-01	0	42	104	0	23	17830
2026-01-01 01:39:57.71	24.93	18.86	-30.9	-44.3	3.8	7.45e-01	0	42	104	0	23	16943
2026-01-01 01:39:58.72	24.99	19.00	-30.8	-44.6	3.8	7.47e-01	0	42	104	0	22	17654
2026-01-01 01:39:59.72	25.05	19.13	-30.7	-44.5	3.8	7.46e-01	0	42	104	0	22	17492
2026-01-01 01:40:00.72	25.11	19.27	-30.8	-44.5	3.8	7.46e-01	0	42	104	0	22	17480
2026-01-01 01:40:01.73	25.18	19.41	-31.1	-45.1	3.8	7.42e-01	0	42	104	0	23	18107
2026-01-01 01:40:02.73	25.24	19.55	-31.5	-46.4	3.8	7.41e-01	0	42	104	0	23	19956
2026-01-01 01:40:03.73	25.30	19.69	-31.9	-47.4	3.8	7.41e-01	0	42	104	0	24	21536
2026-01-01 01:40:04.74	25.37	19.83	-32.3	-48.6	3.8	7.48e-01	0	42	104	0	25	23414
2026-01-01 01:40:05.73	25.43	19.97	-32.5	-49.6	3.8	7.47e-01	0	42	104	0	25	25806
2026-01-01 01:40:06.75	25.50	20.12	-31.7	-49.2	3.8	7.45e-01	0	42	104	0	25	27040
2026-01-01 01:40:07.75	25.56	20.26	-33.4	-51.8	3.8	7.45e-01	0	42	104	0	26	30156
2026-01-01 01:40:08.76	25.63	20.41	-33.0	-51.5	3.8	7.45e-01	0	42	104	0	26	30574
2026-01-01 01:40:09.76	25.70	20.55	-33.0	-47.1	5.0	7.10e-01	0	43	104	0	26	18247
2026-01-01 01:40:10.77	25.77	20.70	-33.0	-48.6	4.0	7.40e-01	0	43	104	0	26	21561
2026-01-01 01:40:11.78	25.84	20.85	-33.1	-49.3	4.2	7.33e-01	0	43	104	0	26	23188
2026-01-01 01:40:12.78	25.90	21.00	-33.0	-49.2	4.0	7.39e-01	0	42	104	0	26	22979
2026-01-01 01:40:13.79	25.97	21.15	-33.0	-48.2	4.6	7.22e-01	0	43	104	0	26	20545
2026-01-01 01:40:14.79	26.04	21.30	-33.1	-49.5	3.9	7.42e-01	0	42	104	0	26	23858
2026-01-01 01:40:15.79	26.12	21.45	-33.1	-49.0	4.2	7.32e-01	0	43	104	0	26	22436
2026-01-01 01:40:16.79	26.19	21.60	-33.0	-46.8	4.2	7.32e-01	0	42	104	0	26	17637
2026-01-01 01:40:17.80	26.26	21.75	-32.8	-43.5	7.6	6.48e-01	0	43	0	0	26	12384
2026-01-01 01:40:18.81	26.33	21.91	-32.2	-40.1	11.1	6.14e-01	0	42	0	1572864	25	8936
2026-01-01 01:40:19.81	26.41	22.06	-32.3	-40.1	11.2	6.11e-01	0	43	0	3670016	25	8917
2026-01-01 01:40:20.81	26.48	22.22	-32.0	-38.7	12.4	6.06e-01	0	43	0	5767168	25	7777
2026-01-01 01:40:21.81	26.56	22.38	-31.8	-38.4	13.1	6.07e-01	0	43	0	7340032	24	7678
2026-01-01 01:40:22.82	26.63	22.53	-31.5	-37.4	14.3	6.02e-01	0	42	0	9437184	23	7110
2026-01-01 01:40:23.82	26.71	22.69	-31.6	-37.5	13.9	6.05e-01	0	43	0	11010048	24	7066
2026-01-01 01:40:24.83	26.79	22.85	-31.7	-37.7	13.7	6.03e-01	0	43	0	13107200	24	7189
2026-01-01 01:40:25.84	26.87	23.02	-31.2	-36.4	14.9	6.04e-01	0	43	0	15204352	23	6555
2026-01-01 01:40:26.84	26.95	23.18	-31.3	-36.5	15.0	6.04e-01	0	42	0	16777216	23	6600
2026-01-01 01:40:27.84	27.03	23.34	-31.2	-36.4	15.0	6.03e-01	0	42	0	18874368	23	6532
2026-01-01 01:40:28.85	27.11	23.51	-31.2	-36.1	15.3	6.03e-01	0	43	0	20447232	23	6388
2026-01-01 01:40:29.85	27.19	23.67	-30.8	-35.0	16.1	6.04e-01	0	42	0	22544384	23	5791
2026-01-01 01:40:30.85	27.27	23.84	-30.3	-34.4	17.1	6.03e-01	0	42	0	24641536	21	5776
2026-01-01 01:40:31.86	27.36	24.01	-30.0	-34.0	17.8	6.03e-01	0	43	0	26214400	20	5689
2026-01-01 01:40:32.86	27.44	24.18	-29.7	-33.0	18.4	6.01e-01	0	43	0	28311552	20	5281
2026-01-01 01:40:33.86	27.53	24.34	-29.4	-32.8	18.9	6.02e-01	0	43	0	29884416	19	5303
2026-01-01 01:40:34.87	27.62	24.52	-29.2	-32.1	19.3	6.03e-01	0	42	0	31981568	19	5050
2026-01-01 01:40:35.87	27.70	24.69	-28.9	-31.5	19.7	6.02e-01	0	42	0	33554432	19	4849
2026-01-01 01:40:36.87	27.79	24.86	-27.8	-30.8	19.8	6.04e-01	0	43	0	35651584	18	5077
2026-01-01 01:40:37.87	27.88	25.04	-28.9	-32.3	19.6	6.00e-01	0	43	0	37748736	17	5336
2026-01-01 01:40:38.87	27.97	25.21	-28.9	-31.8	19.8	6.02e-01	0	43	0	39321600	18	5059
2026-01-01 01:40:39.88	28.06	25.39	-28.9	-32.0	19.5	6.04e-01	0	43	0	41418752	18	5120
2026-01-01 01:40:40.88	28.15	25.57	-28.9	-31.9	19.6	6.04e-01	0	43	0	42991616	18	5082
2026-01-01 01:40:41.89	28.25	25.75	-29.0	-32.1	19.7	6.05e-01	0	43	0	45088768	18	5148
2026-01-01 01:40:42.89	28.34	25.93	-29.0	-32.2	19.6	6.03e-01	0	43	0	47185920	18	5187
2026-01-01 01:40:43.89	28.44	26.11	-29.0	-32.2	19.6	6.01e-01	0	43	0	48758784	18	5200
2026-01-01 01:40:44.90	28.53	26.29	-29.1	-32.3	19.6	6.01e-01	0	43	0	50855936	18	5230
2026-01-01 01:40:45.90	28.63	26.48	-29.2	-32.1	19.4	6.03e-01	0	42	0	52428800	19	5032
2026-01-01 01:40:46.90	28.73	26.66	-29.4	-32.6	19.1	6.01e-01	0	42	0	54525952	19	5214
2026-01-01 01:40:47.90	28.83	26.85	-29.6	-32.8	18.6	6.02e-01	0	43	0	56623104	20	5202
2026-01-01 01:40:48.90	28.93	27.04	-29.5	-32.9	18.9	6.03e-01	0	43	0	58195968	19	5329
2026-01-01 01:40:49.90	29.03	27.23	-29.7	-33.1	18.4	6.02e-01	0	43	0	60293120	20	5332
2026-01-01 01:40:50.90	29.14	27.42	-29.9	-33.7	18.1	6.04e-01	0	42	0	61865984	20	5546
2026-01-01 01:40:51.90	29.24	27.61	-29.8	-33.3	18.3	6.01e-01	0	43	0	63963136	20	5386
2026-01-01 01:40:52.89	29.35	27.80	-29.6	-32.8	18.6	6.02e-01	0	43	0	65536000	20	5192
2026-01-01 01:40:53.90	29.45	28.00	-29.6	-32.8	18.6	5.97e-01	0	43	0	67633152	20	5188
2026-01-01 01:40:54.91	29.56	28.20	-29.5	-32.4	18.9	6.02e-01	0	43	0	69730304	20	5056
2026-01-01 01:40:55.91	29.67	28.39	-29.5	-32.9	19.0	6.06e-01	0	42	0	71303168	19	5319
2026-01-01 01:40:56.91	29.79	28.59	-29.6	-32.6	18.8	6.03e-01	0	43	0	73400320	20	5131
2026-01-01 01:40:57.92	29.90	28.80	-30.0	-33.8	18.0	6.03e-01	0	43	0	74973184	20	5596
2026-01-01 01:40:58.92	30.01	29.00	-29.7	-33.1	18.4	6.01e-01	0	42	0	77070336	20	5320
2026-01-01 01:40:59.93	30.13	29.20	-29.3	-32.0	19.1	6.02e-01	0	43	0	78643200	20	4885
2026-01-01 01:41:00.93	30.25	29.41	-29.0	-32.1	19.7	6.03e-01	0	43	0	80740352	18	5166
2026-01-01 01:41:01.94	30.37	29.62	-29.3	-32.3	19.4	6.04e-01	0	43	0	82837504	19	5098
2026-01-01 01:41:02.94	30.49	29.82	-29.5	-33.0	19.0	6.03e-01	0	43	0	84410368	19	5382
2026-01-01 01:41:03.94	30.61	30.03	-29.2	-32.0	19.5	6.05e-01	0	43	0	86507520	19	5015
2026-01-01 01:41:04.94	30.73	30.24	-29.1	-31.9	19.6	6.03e-01	0	43	0	88080384	19	4974
2026-01-01 01:41:05.95	30.86	30.46	-29.3	-32.4	19.4	6.04e-01	0	43	0	90177536	19	5138
2026-01-01 01:41:06.95	30.98	30.67	-29.3	-32.3	19.4	6.03e-01	0	42	0	92274688	19	5093
2026-01-01 01:41:07.95	31.11	30.89	-29.3	-32.3	19.4	6.02e-01	0	43	0	93847552	19	5095
2026-01-01 01:41:08.96	31.24	31.11	-29.2	-32.1	19.5	6.04e-01	0	42	0	95944704	19	5044
2026-01-01 01:41:09.96	31.37	31.33	-29.2	-32.1	19.6	6.04e-01	0	43	0	97517568	19	5023
2026-01-01 01:41:10.95	31.51	31.55	-28.9	-31.8	20.0	6.02e-01	0	42	0	99614720	18	5048
2026-01-01 01:41:11.95	31.64	31.77	-28.8	-31.6	20.2	6.03e-01	0	43	0	101711872	18	4955
2026-01-01 01:41:12.96	31.78	31.99	-28.9	-31.8	20.0	6.03e-01	0	43	0	103284736	18	5056
2026-01-01 01:41:13.96	31.92	32.22	-29.1	-32.3	19.8	6.05e-01	0	43	0	105381888	18	5204
2026-01-01 01:41:14.96	32.06	32.45	-28.9	-31.8	20.0	6.03e-01	0	42	0	106954752	18	5036
2026-01-01 01:41:15.96	32.20	32.67	-28.8	-31.5	20.2	6.04e-01	0	42	0	109051904	18	4939
2026-01-01 01:41:16.97	32.35	32.91	-28.9	-31.7	20.1	6.03e-01	0	43	0	110624768	18	5002
2026-01-01 01:41:17.97	32.50	33.14	-28.8	-31.6	20.1	6.02e-01	0	43	0	112721920	18	4978
2026-01-01 01:41:18.97	32.65	33.37	-28.8	-31.5	20.2	6.03e-01	0	43	0	114819072	18	4946
2026-01-01 01:41:19.97	32.80	33.61	-28.8	-31.6	20.2	6.02e-01	0	43	0	116391936	18	4974
2026-01-01 01:41:20.98	32.95	33.85	-28.9	-31.8	20.1	6.02e-01	0	43	0	118489088	18	5027
2026-01-01 01:41:21.98	33.11	34.09	-29.0	-32.0	20.0	6.02e-01	0	43	0	120061952	18	5111
2026-01-01 01:41:22.99	33.27	34.33	-29.0	-32.0	20.0	6.05e-01	0	43	0	122159104	18	5110
2026-01-01 01:41:23.99	33.43	34.57	-29.2	-32.0	19.7	6.01e-01	0	43	0	124256256	19	4974
2026-01-01 01:41:24.99	33.59	34.82	-29.3	-32.2	19.5	6.04e-01	0	43	0	125829120	19	5066
2026-01-01 01:41:25.99	33.76	35.06	-29.3	-32.4	19.4	6.05e-01	0	43	0	127926272	19	5123
2026-01-01 01:41:26.99	33.92	35.31	-29.4	-32.6	19.3	6.03e-01	0	43	0	129499136	19	5196
2026-01-01 01:41:27.99	34.09	35.56	-29.5	-33.0	19.1	6.03e-01	0	43	0	131596288	19	5342
2026-01-01 01:41:28.99	34.27	35.81	-29.6	-33.0	19.0	6.03e-01	0	43	0	133169152	19	5355
2026-01-01 01:41:29.98	34.44	36.06	-29.5	-32.7	19.2	6.01e-01	0	43	0	135266304	19	5235
2026-01-01 01:41:30.98	34.62	36.32	-29.6	-33.1	19.1	6.03e-01	0	43	0	136839168	19	5375
2026-01-01 01:41:31.98	34.80	36.58	-29.5	-32.5	19.1	6.00e-01	0	43	0	138936320	20	5051
2026-01-01 01:41:32.98	34.99	36.83	-30.0	-33.8	18.3	6.03e-01	0	43	0	141033472	20	5552
2026-01-01 01:41:33.99	35.18	37.10	-29.9	-33.5	18.4	6.03e-01	0	43	0	142606336	20	5421
2026-01-01 01:41:34.99	35.37	37.36	-29.9	-33.3	18.5	6.00e-01	0	43	0	144703488	20	5370
2026-01-01 01:41:36.00	35.56	37.63	-30.1	-33.6	18.1	6.04e-01	0	43	0	146800640	21	5362
2026-01-01 01:41:37.00	35.76	37.89	-30.1	-33.4	18.2	6.04e-01	0	43	0	148373504	21	5294
2026-01-01 01:41:38.00	35.96	38.16	-30.0	-33.7	18.3	6.02e-01	0	43	0	150470656	20	5534
2026-01-01 01:41:39.00	36.16	38.43	-30.1	-33.6	18.1	6.02e-01	0	43	0	152043520	21	5346
2026-01-01 01:41:40.00	36.37	38.71	-30.1	-33.4	18.2	6.03e-01	0	43	0	154140672	21	5301
2026-01-01 01:41:41.00	36.58	38.98	-30.3	-34.0	17.8	6.02e-01	0	43	0	155713536	21	5537
2026-01-01 01:41:42.00	36.79	39.26	-30.1	-33.6	18.1	6.03e-01	0	43	0	157810688	21	5371
2026-01-01 01:41:43.00	37.01	39.53	-30.0	-33.7	18.3	6.04e-01	0	43	0	159907840	20	5526
2026-01-01 01:41:44.00	37.23	39.81	-30.0	-33.7	18.3	6.02e-01	0	43	0	161480704	20	5525
2026-01-01 01:41:45.00	37.46	40.10	-30.2	-33.7	18.0	6.05e-01	0	43	0	163577856	21	5401
2026-01-01 01:41:46.00	37.68	40.38	-29.9	-33.5	18.5	6.03e-01	0	43	0	165150720	20	5436
2026-01-01 01:41:47.01	37.92	40.67	-30.0	-33.7	18.4	6.03e-01	0	43	0	167247872	20	5501
2026-01-01 01:41:48.01	38.16	40.96	-30.3	-34.1	17.9	6.03e-01	0	43	0	168820736	21	5548
2026-01-01 01:41:49.01	38.40	41.25	-29.9	-33.5	18.5	6.03e-01	0	43	0	170917888	20	5421
2026-01-01 01:41:50.01	38.64	41.54	-29.6	-32.5	19.0	6.03e-01	0	42	0	173015040	20	5052
2026-01-01 01:41:51.00	38.89	41.83	-29.2	-31.6	19.6	6.03e-01	0	43	0	174587904	20	4721
2026-01-01 01:41:52.01	39.15	42.13	-29.1	-31.8	19.9	6.04e-01	0	43	0	176685056	19	4894
2026-01-01 01:41:53.02	39.41	42.43	-29.2	-32.1	19.7	6.02e-01	0	43	0	178257920	19	4998
2026-01-01 01:41:54.03	39.68	42.73	-29.3	-32.2	19.7	6.02e-01	0	43	0	180355072	19	5055
2026-01-01 01:41:55.03	39.95	43.03	-28.9	-31.2	20.3	6.03e-01	0	43	0	181927936	19	4709
2026-01-01 01:41:56.04	40.23	43.34	-28.8	-30.9	20.4	6.01e-01	0	43	0	184025088	19	4619
2026-01-01 01:41:57.04	40.51	43.64	-28.6	-30.6	20.6	6.02e-01	0	43	0	186122240	19	4506
2026-01-01 01:41:58.04	40.79	43.95	-28.7	-30.9	20.4	6.03e-01	0	43	0	187695104	19	4591
2026-01-01 01:41:59.04	41.08	44.26	-28.6	-30.4	20.7	6.05e-01	0	43	0	189792256	19	4463
2026-01-01 01:42:00.04	41.38	44.57	-28.6	-30.5	20.7	6.02e-01	0	43	0	191889408	19	4468
2026-01-01 01:42:01.04	41.68	44.88	-28.7	-30.8	20.5	6.00e-01	0	43	0	193462272	19	4577
2026-01-01 01:42:02.05	42.00	45.19	-28.6	-30.9	20.8	6.01e-01	0	43	0	195559424	18	4711
2026-01-01 01:42:03.05	42.31	45.51	-28.3	-30.3	21.1	6.04e-01	0	43	0	197132288	18	4533
2026-01-01 01:42:04.05	42.63	45.83	-28.4	-31.0	21.0	6.00e-01	0	43	0	199229440	17	4858
2026-01-01 01:42:05.06	42.96	46.15	-28.4	-31.0	20.9	6.03e-01	0	43	0	200802304	17	4879
2026-01-01 01:42:06.06	43.30	46.47	-28.3	-30.9	21.0	6.02e-01	0	43	0	202899456	17	4831
2026-01-01 01:42:07.06	43.64	46.79	-28.4	-31.0	20.9	6.05e-01	0	43	0	204996608	17	4861
2026-01-01 01:42:08.07	43.99	47.12	-28.4	-31.1	20.9	6.02e-01	0	43	0	206569472	17	4892
2026-01-01 01:42:09.08	44.35	47.45	-28.5	-31.2	20.9	6.03e-01	0	43	0	208666624	17	4932
2026-01-01 01:42:10.08	44.72	47.77	-28.2	-30.5	21.2	6.03e-01	0	43	0	210239488	17	4715
2026-01-01 01:42:11.08	45.09	48.10	-28.4	-30.9	21.0	6.05e-01	0	43	0	212336640	17	4841
2026-01-01 01:42:12.09	45.47	48.43	-28.3	-30.8	21.1	6.02e-01	0	43	0	214433792	17	4798
2026-01-01 01:42:13.09	45.86	48.76	-28.4	-31.1	20.9	6.02e-01	0	43	0	216006656	17	4885
2026-01-01 01:42:14.09	46.26	49.09	-28.3	-30.9	21.0	6.02e-01	0	43	0	218103808	17	4825
2026-01-01 01:42:15.08	46.66	49.42	-28.3	-30.7	21.1	6.03e-01	0	43	0	219676672	17	4763
2026-01-01 01:42:16.07	47.07	49.75	-28.4	-31.0	21.0	6.03e-01	0	43	0	221773824	17	4862
2026-01-01 01:42:17.08	47.50	50.09	-28.7	-31.2	20.6	6.01e-01	0	43	0	223346688	18	4816
2026-01-01 01:42:18.08	47.93	50.43	-28.4	-30.4	21.1	6.05e-01	0	43	0	225443840	18	4557
2026-01-01 01:42:19.08	48.37	50.76	-28.2	-30.6	21.2	6.02e-01	0	43	0	227016704	17	4735
2026-01-01 01:42:20.08	48.82	51.10	-28.2	-30.5	21.2	6.03e-01	0	43	0	229113856	17	4708
2026-01-01 01:42:21.08	49.29	51.44	-28.3	-30.8	21.2	6.03e-01	0	43	0	231211008	17	4788
2026-01-01 01:42:22.07	49.75	51.78	-28.3	-30.8	21.1	6.02e-01	0	43	0	232783872	17	4807
2026-01-01 01:42:23.08	50.24	52.12	-28.2	-30.5	21.3	6.01e-01	0	43	0	234881024	17	4695
2026-01-01 01:42:24.08	50.74	52.46	-28.3	-30.8	21.1	6.02e-01	0	43	0	236453888	17	4798
2026-01-01 01:42:25.08	51.25	52.80	-28.2	-30.6	21.3	6.03e-01	0	43	0	238551040	17	4719
2026-01-01 01:42:26.09	51.77	53.14	-28.4	-30.9	21.0	6.02e-01	0	43	0	240648192	17	4833
2026-01-01 01:42:27.08	52.30	53.48	-28.1	-30.3	19.4	6.04e-01	0	43	0	242221056	17	4638
2026-01-01 01:42:28.07	52.83	53.81	-28.4	-31.0	21.1	6.01e-01	0	43	0	244318208	17	4851
2026-01-01 01:42:29.07	53.39	54.15	-28.2	-30.5	21.3	6.04e-01	0	43	0	245891072	17	4703
2026-01-01 01:42:30.07	53.96	54.49	-28.5	-31.2	20.9	6.02e-01	0	43	0	247988224	17	4931
2026-01-01 01:42:31.07	54.54	54.83	-27.8	-30.3	21.0	6.03e-01	0	43	0	249561088	17	4842
2026-01-01 01:42:32.07	55.14	55.17	-28.4	-31.1	21.0	6.05e-01	0	43	0	251658240	17	4890
2026-01-01 01:42:33.07	55.75	55.51	-28.6	-31.4	20.9	6.01e-01	0	43	0	253755392	17	4996
2026-01-01 01:42:34.07	56.38	55.84	-28.9	-31.6	20.4	6.04e-01	0	43	0	255328256	18	4952
2026-01-01 01:42:35.07	57.02	56.18	-28.8	-31.5	20.5	6.01e-01	0	43	0	257425408	18	4908
2026-01-01 01:42:36.07	57.68	56.51	-29.0	-31.9	19.6	6.01e-01	0	43	0	258998272	18	5048
2026-01-01 01:42:37.08	58.36	56.85	-29.3	-32.3	19.1	6.04e-01	0	43	0	261095424	19	5068
2026-01-01 01:42:38.08	59.05	57.18	-29.5	-32.6	19.6	6.01e-01	0	43	0	262668288	19	5178
2026-01-01 01:42:39.08	59.76	57.51	-29.6	-32.5	19.3	6.03e-01	0	43	0	264765440	20	5048
2026-01-01 01:42:40.09	60.49	57.84	-29.9	-33.4	18.7	6.03e-01	0	43	0	266862592	20	5375
2026-01-01 01:42:41.09	61.24	58.16	-29.8	-33.2	18.8	6.03e-01	0	43	0	268435456	20	5274
2026-01-01 01:42:42.09	62.00	58.48	-30.3	-34.0	18.1	6.04e-01	0	43	0	270532608	21	5477
2026-01-01 01:42:43.10	62.79	58.80	-30.4	-34.1	17.9	6.03e-01	0	42	0	272105472	21	5553
2026-01-01 01:42:44.10	63.58	59.12	-30.2	-33.6	18.3	6.03e-01	0	43	0	274202624	21	5318
2026-01-01 01:42:45.10	64.40	59.43	-30.3	-34.0	18.1	6.01e-01	0	43	0	276299776	21	5481
2026-01-01 01:42:46.10	65.24	59.74	-30.3	-33.8	18.2	6.01e-01	0	43	0	277872640	21	5397
2026-01-01 01:42:47.10	66.10	60.04	-30.6	-34.4	17.5	6.04e-01	0	43	0	279969792	22	5533
2026-01-01 01:42:48.09	66.97	60.34	-30.7	-34.6	17.4	6.04e-01	0	42	0	281542656	22	5614
2026-01-01 01:42:49.09	67.87	60.63	-31.2	-35.6	16.3	6.04e-01	0	43	0	283639808	23	5981
2026-01-01 01:42:50.09	68.79	60.92	-30.9	-34.7	16.9	6.01e-01	0	43	0	285736960	23	5557
2026-01-01 01:42:51.09	69.73	61.21	-30.9	-35.0	17.1	6.05e-01	0	43	0	287309824	22	5804
2026-01-01 01:42:52.09	70.69	61.49	-31.1	-35.6	16.7	6.01e-01	0	43	0	289406976	22	6076
2026-01-01 01:42:53.09	71.67	61.76	-31.3	-35.8	16.3	6.03e-01	0	43	0	290979840	23	6033
2026-01-01 01:42:54.09	72.68	62.03	-31.4	-36.1	16.0	6.02e-01	0	43	0	293076992	23	6180
2026-01-01 01:42:55.10	73.72	62.29	-31.3	-35.7	16.3	6.03e-01	0	43	0	294649856	23	6019
2026-01-01 01:42:56.10	74.77	62.54	-31.1	-35.2	16.7	6.04e-01	0	43	0	296747008	23	5777
2026-01-01 01:42:57.10	75.84	62.79	-31.4	-36.0	16.1	6.04e-01	0	43	0	298844160	23	6138
2026-01-01 01:42:58.09	76.92	63.03	-31.0	-35.3	17.0	6.04e-01	0	43	0	300417024	22	5918
2026-01-01 01:42:59.10	78.05	63.26	-31.1	-35.1	16.7	6.01e-01	0	43	0	302514176	23	5714
2026-01-01 01:43:00.09	79.18	63.48	-31.1	-35.3	16.6	6.03e-01	0	43	0	304087040	23	5829
2026-01-01 01:43:01.09	80.34	63.69	-31.3	-35.9	16.2	6.02e-01	0	43	0	306184192	23	6087
2026-01-01 01:43:02.09	81.52	63.90	-31.1	-35.2	16.7	6.04e-01	0	43	0	307757056	23	5775
2026-01-01 01:43:03.09	82.72	64.10	-31.2	-35.6	16.4	6.05e-01	0	42	0	309854208	23	5941
2026-01-01 01:43:04.09	83.94	64.28	-31.2	-35.5	16.5	6.04e-01	0	42	0	311951360	23	5914
2026-01-01 01:43:05.09	85.18	64.46	-31.3	-35.9	16.2	6.04e-01	0	43	0	313524224	23	6116
2026-01-01 01:43:06.09	86.44	64.62	-31.4	-36.1	16.1	6.01e-01	0	43	0	315621376	23	6196
2026-01-01 01:43:07.09	87.71	64.78	-31.1	-35.2	16.6	6.02e-01	0	43	0	317194240	23	5747
2026-01-01 01:43:08.09	89.01	64.92	-31.2	-35.3	16.7	6.02e-01	0	43	0	319291392	23	5806
2026-01-01 01:43:09.09	90.32	65.06	-31.4	-36.0	16.2	6.02e-01	0	43	0	320864256	23	6132
2026-01-01 01:43:10.10	91.66	65.18	-31.2	-35.5	16.5	6.03e-01	0	43	0	322961408	23	5878
2026-01-01 01:43:11.10	92.99	65.29	-31.5	-36.4	15.9	6.01e-01	0	43	0	325058560	23	6357
2026-01-01 01:43:12.11	94.36	65.39	-31.6	-36.1	15.7	6.03e-01	0	43	0	326631424	24	6080
2026-01-01 01:43:13.11	95.72	65.47	-31.7	-36.7	15.4	6.03e-01	0	42	0	328728576	24	6383
2026-01-01 01:43:14.11	97.09	65.54	-31.7	-36.6	15.5	6.04e-01	0	43	0	330301440	24	6319
2026-01-01 01:43:15.12	98.49	65.60	-31.8	-37.0	15.0	6.04e-01	0	43	0	332398592	24	6538
2026-01-01 01:43:16.12	99.88	65.65	-31.4	-36.2	16.1	6.05e-01	0	43	0	334495744	23	6215
2026-01-01 01:43:17.12	101.27	65.69	-31.4	-36.2	16.1	6.02e-01	0	43	0	336068608	23	6238
2026-01-01 01:43:18.13	102.68	65.71	-31.5	-36.4	15.9	6.04e-01	0	43	0	338165760	23	6319
2026-01-01 01:43:19.13	104.08	65.72	-31.4	-36.2	16.1	6.04e-01	0	43	0	339738624	23	6218
2026-01-01 01:43:20.13	105.48	65.71	-31.9	-37.5	14.7	6.02e-01	0	43	0	341835776	24	6853
2026-01-01 01:43:21.13	106.87	65.69	-31.6	-36.1	15.8	6.03e-01	0	43	0	343408640	24	6092
2026-01-01 01:43:22.12	108.25	65.66	-31.2	-35.3	16.7	6.04e-01	0	43	0	345505792	23	5818
2026-01-01 01:43:23.12	109.64	65.62	-31.3	-35.7	16.5	6.04e-01	0	43	0	347602944	23	6009
2026-01-01 01:43:24.12	111.03	65.57	-31.4	-36.0	16.1	6.01e-01	0	43	0	349175808	23	6155
2026-01-01 01:43:25.12	112.40	65.50	-31.2	-35.5	16.6	6.04e-01	0	43	0	351272960	23	5921
2026-01-01 01:43:26.13	113.78	65.42	-31.0	-34.9	16.9	6.02e-01	0	42	0	352845824	23	5640
2026-01-01 01:43:27.12	115.13	65.32	-31.3	-35.9	16.3	6.04e-01	0	43	0	354942976	23	6114
2026-01-01 01:43:28.13	116.48	65.22	-31.0	-35.3	17.0	6.02e-01	0	43	0	356515840	22	5905
2026-01-01 01:43:29.13	117.81	65.10	-31.0	-35.2	17.1	6.04e-01	0	43	0	358612992	22	5864
2026-01-01 01:43:30.13	119.13	64.97	-30.9	-35.1	17.2	6.04e-01	0	43	0	360710144	22	5817
2026-01-01 01:43:31.14	120.44	64.83	-31.0	-34.7	17.1	6.02e-01	0	43	0	362283008	23	5512
2026-01-01 01:43:32.14	121.73	64.68	-30.9	-34.4	17.3	6.02e-01	0	43	0	364380160	23	5415
2026-01-01 01:43:33.14	122.99	64.52	-30.6	-34.0	17.9	6.02e-01	0	43	0	365953024	22	5370
2026-01-01 01:43:34.14	124.24	64.34	-30.8	-34.7	17.5	6.02e-01	0	43	0	368050176	22	5636
2026-01-01 01:43:35.14	125.47	64.16	-30.6	-34.1	17.8	6.04e-01	0	43	0	370147328	22	5390
2026-01-01 01:43:36.13	126.67	63.97	-30.9	-35.1	17.2	6.02e-01	0	42	0	371720192	22	5816
2026-01-01 01:43:37.14	127.87	63.77	-30.6	-34.3	17.8	6.01e-01	0	43	0	373817344	22	5456
2026-01-01 01:43:38.14	129.03	63.55	-30.7	-34.4	17.6	6.04e-01	0	43	0	375390208	22	5538
2026-01-01 01:43:39.14	130.18	63.33	-30.5	-34.4	17.9	6.04e-01	0	43	0	377487360	21	5646
2026-01-01 01:43:40.14	131.31	63.11	-30.2	-33.6	18.4	6.01e-01	0	43	0	379584512	21	5316
2026-01-01 01:43:41.14	132.41	62.87	-30.5	-34.5	17.8	6.03e-01	0	43	0	381157376	21	5707
2026-01-01 01:43:42.15	133.50	62.62	-30.2	-33.5	18.5	6.02e-01	0	43	0	383254528	21	5274
2026-01-01 01:43:43.15	134.56	62.37	-30.1	-33.4	18.6	6.04e-01	0	43	0	384827392	21	5227
2026-01-01 01:43:44.15	135.60	62.11	-30.2	-33.6	18.4	6.02e-01	0	43	0	386924544	21	5322
2026-01-01 01:43:45.16	136.62	61.84	-30.0	-33.6	18.7	6.03e-01	0	43	0	388497408	20	5444
2026-01-01 01:43:46.16	137.61	61.57	-30.0	-33.5	18.8	6.03e-01	0	43	0	390594560	20	5405
2026-01-01 01:43:47.16	138.58	61.29	-30.1	-33.5	18.5	6.05e-01	0	43	0	392691712	21	5291
2026-01-01 01:43:48.17	139.54	61.01	-30.0	-33.2	18.6	6.01e-01	0	43	0	394264576	21	5185
2026-01-01 01:43:49.16	140.46	60.72	-30.0	-33.6	18.7	6.03e-01	0	43	0	396361728	20	5469
2026-01-01 01:43:50.17	141.38	60.42	-30.0	-33.6	18.7	6.02e-01	0	43	0	397934592	20	5442
2026-01-01 01:43:51.17	142.26	60.12	-30.1	-33.4	18.6	6.04e-01	0	43	0	400031744	21	5270
2026-01-01 01:43:52.17	143.13	59.82	-30.2	-33.5	18.3	6.04e-01	0	43	0	401604608	21	5292
2026-01-01 01:43:53.18	143.98	59.51	-29.9	-32.9	18.8	6.03e-01	0	43	0	403701760	21	5078
2026-01-01 01:43:54.18	144.81	59.20	-29.9	-33.3	18.9	6.05e-01	0	43	0	405798912	20	5339
2026-01-01 01:43:55.18	145.61	58.88	-30.1	-33.8	18.6	6.02e-01	0	43	0	407371776	20	5547
2026-01-01 01:43:56.18	146.40	58.57	-30.0	-33.2	18.5	6.03e-01	0	43	0	409468928	21	5188
2026-01-01 01:43:57.19	147.17	58.24	-29.5	-32.3	19.4	6.04e-01	0	43	0	411041792	20	4959
2026-01-01 01:43:58.20	147.93	57.91	-29.8	-33.0	19.1	6.03e-01	0	43	0	413138944	20	5218
2026-01-01 01:43:59.20	148.66	57.59	-30.1	-33.8	18.6	6.05e-01	0	43	0	415236096	20	5518
2026-01-01 01:44:00.19	149.37	57.26	-30.0	-33.6	18.7	6.01e-01	0	43	0	416808960	20	5431
2026-01-01 01:44:01.20	150.07	56.93	-29.6	-32.6	19.2	6.02e-01	0	43	0	418906112	20	5067
2026-01-01 01:44:02.20	150.75	56.60	-29.8	-33.0	19.0	6.03e-01	0	43	0	420478976	20	5226
2026-01-01 01:44:03.21	151.42	56.26	-30.1	-33.4	18.5	6.03e-01	0	43	0	422576128	21	5260
2026-01-01 01:44:04.21	152.07	55.92	-29.7	-32.4	19.1	6.03e-01	0	43	0	424673280	21	4874
2026-01-01 01:44:05.22	152.71	55.58	-29.6	-32.0	19.3	6.02e-01	0	43	0	426246144	21	4759
2026-01-01 01:44:06.22	153.33	55.24	-29.5	-32.3	19.3	6.03e-01	0	43	0	428343296	20	4971
2026-01-01 01:44:07.22	153.93	54.90	-29.4	-32.5	19.7	6.03e-01	0	43	0	429916160	19	5138
2026-01-01 01:44:08.21	154.51	54.57	-29.3	-32.3	19.8	6.03e-01	0	43	0	432013312	19	5060
2026-01-01 01:44:09.21	155.09	54.23	-29.4	-32.6	19.7	6.00e-01	0	43	0	433586176	19	5155
2026-01-01 01:44:10.21	155.65	53.89	-29.5	-32.4	19.4	6.02e-01	0	43	0	435683328	20	5000
2026-01-01 01:44:11.21	156.20	53.55	-29.6	-32.5	19.2	6.03e-01	0	43	0	437780480	20	5054
2026-01-01 01:44:12.21	156.73	53.20	-29.3	-32.2	19.8	6.02e-01	0	43	0	439353344	19	5037
2026-01-01 01:44:13.22	157.26	52.86	-29.4	-32.6	19.6	6.04e-01	0	43	0	441450496	19	5176
2026-01-01 01:44:14.21	157.77	52.52	-29.5	-32.8	19.5	6.01e-01	0	43	0	443023360	19	5233
2026-01-01 01:44:15.22	158.27	52.18	-29.6	-32.6	19.3	6.04e-01	0	43	0	445120512	20	5067
2026-01-01 01:44:16.23	158.76	51.83	-29.7	-32.7	19.2	6.04e-01	0	43	0	446693376	20	5092
2026-01-01 01:44:17.23	159.24	51.49	-29.7	-32.8	19.1	6.03e-01	0	43	0	448790528	20	5149
2026-01-01 01:44:18.23	159.71	51.15	-29.9	-33.4	18.7	6.04e-01	0	43	0	450887680	20	5360
2026-01-01 01:44:19.23	160.16	50.81	-29.7	-32.8	19.1	6.02e-01	0	43	0	452460544	20	5134
2026-01-01 01:44:20.23	160.61	50.48	-29.6	-32.6	19.3	6.03e-01	0	43	0	454557696	20	5061
2026-01-01 01:44:21.23	161.04	50.14	-29.3	-31.6	19.8	6.04e-01	0	43	0	456130560	20	4728
2026-01-01 01:44:22.23	161.47	49.80	-29.6	-32.9	19.5	6.02e-01	0	43	0	458227712	19	5272
2026-01-01 01:44:23.24	161.89	49.46	-29.7	-32.9	19.1	6.01e-01	0	43	0	460324864	20	5170
2026-01-01 01:44:24.24	162.30	49.13	-29.5	-32.3	19.4	6.01e-01	0	43	0	461897728	20	4958
2026-01-01 01:44:25.24	162.70	48.80	-29.6	-32.5	19.3	6.03e-01	0	43	0	463994880	20	5030
2026-01-01 01:44:26.24	163.09	48.46	-29.8	-33.0	19.0	6.04e-01	0	43	0	465567744	20	5215
2026-01-01 01:44:27.24	163.47	48.13	-29.8	-33.0	19.0	6.04e-01	0	43	0	467664896	20	5227
2026-01-01 01:44:28.24	163.84	47.80	-29.9	-33.3	18.8	6.03e-01	0	43	0	469762048	20	5335
2026-01-01 01:44:29.24	164.21	47.48	-30.0	-33.7	18.5	6.03e-01	0	43	0	471334912	20	5486
2026-01-01 01:44:30.25	164.57	47.15	-29.9	-33.2	18.8	6.04e-01	0	43	0	473432064	20	5311
2026-01-01 01:44:31.25	164.92	46.82	-29.9	-33.5	18.6	6.03e-01	0	43	0	475004928	20	5439
2026-01-01 01:44:32.25	165.27	46.50	-29.9	-33.6	18.6	6.04e-01	0	43	0	477102080	20	5482
2026-01-01 01:44:33.26	165.61	46.17	-30.0	-33.7	18.5	6.03e-01	0	43	0	478674944	20	5518
2026-01-01 01:44:34.26	165.94	45.85	-30.0	-33.6	18.6	6.04e-01	0	43	0	480772096	20	5462
2026-01-01 01:44:35.27	166.26	45.53	-29.9	-33.5	18.6	6.03e-01	0	43	0	482869248	20	5406
2026-01-01 01:44:36.27	166.58	45.21	-29.6	-32.4	19.2	6.04e-01	0	43	0	484442112	20	5015
2026-01-01 01:44:37.28	166.89	44.89	-29.5	-32.4	19.3	6.04e-01	0	43	0	486539264	20	4996
2026-01-01 01:44:38.27	167.20	44.58	-29.4	-32.1	19.4	6.03e-01	0	43	0	488112128	20	4903
2026-01-01 01:44:39.28	167.50	44.27	-29.4	-32.5	19.6	6.04e-01	0	43	0	490209280	19	5127
2026-01-01 01:44:40.28	167.79	43.96	-29.4	-32.6	19.6	6.03e-01	0	43	0	491782144	19	5167
2026-01-01 01:44:41.28	168.08	43.65	-29.5	-32.4	19.3	6.02e-01	0	43	0	493879296	20	5018
2026-01-01 01:44:42.28	168.36	43.34	-29.5	-32.5	19.1	6.04e-01	0	43	0	495976448	20	5033
2026-01-01 01:44:43.29	168.64	43.04	-29.6	-32.5	19.1	6.03e-01	0	43	0	497549312	20	5054
2026-01-01 01:44:44.30	168.91	42.73	-29.5	-32.3	19.1	6.04e-01	0	43	0	499646464	20	4957
2026-01-01 01:44:45.30	169.18	42.43	-29.6	-32.6	18.7	6.01e-01	0	43	0	501743616	20	5095
2026-01-01 01:44:46.31	169.44	42.13	-29.8	-33.2	18.7	6.01e-01	0	43	0	503316480	20	5303
2026-01-01 01:44:47.31	169.70	41.83	-29.7	-32.7	18.8	6.01e-01	0	43	0	505413632	20	5130
2026-01-01 01:44:48.31	169.95	41.53	-29.6	-32.5	19.1	6.05e-01	0	43	0	506986496	20	5047
2026-01-01 01:44:49.31	170.20	41.24	-29.6	-32.6	19.0	6.04e-01	0	43	0	509083648	20	5069
2026-01-01 01:44:50.31	170.44	40.95	-29.7	-32.9	18.8	6.04e-01	0	43	0	510656512	20	5200
2026-01-01 01:44:51.31	170.68	40.66	-29.8	-33.0	18.7	6.02e-01	0	43	0	512753664	20	5213
2026-01-01 01:44:52.32	170.92	40.37	-29.8	-33.2	18.6	6.03e-01	0	43	0	514850816	20	5325
2026-01-01 01:44:53.32	171.15	40.08	-29.9	-33.4	18.6	6.02e-01	0	43	0	516423680	20	5386
2026-01-01 01:44:54.33	171.37	39.80	-29.8	-33.0	18.8	6.02e-01	0	43	0	518520832	20	5232
2026-01-01 01:44:55.33	171.60	39.52	-29.8	-33.0	18.8	6.01e-01	0	43	0	520093696	20	5226
2026-01-01 01:44:56.34	171.82	39.23	-30.0	-33.7	18.4	6.04e-01	0	43	0	522190848	20	5488
2026-01-01 01:44:57.34	172.03	38.96	-30.2	-33.8	18.0	6.02e-01	0	43	0	524288000	21	5419
2026-01-01 01:44:58.35	172.24	38.68	-30.1	-33.5	18.3	6.04e-01	0	43	0	525860864	21	5324
2026-01-01 01:44:59.35	172.45	38.40	-30.2	-33.8	18.0	6.05e-01	0	43	0	527958016	21	5453
2026-01-01 01:45:00.35	172.66	38.13	-30.0	-33.6	18.4	6.04e-01	0	43	0	529530880	20	5455
2026-01-01 01:45:01.35	172.86	37.86	-29.8	-33.1	18.8	6.04e-01	0	43	0	531628032	20	5260
2026-01-01 01:45:02.35	173.05	37.59	-29.7	-32.9	18.9	6.02e-01	0	43	0	533200896	20	5204
2026-01-01 01:45:03.36	173.25	37.33	-29.8	-33.0	18.8	6.04e-01	0	43	0	535298048	20	5233
2026-01-01 01:45:04.35	173.44	37.06	-29.7	-32.8	18.9	6.02e-01	0	43	0	537395200	20	5171
2026-01-01 01:45:05.35	173.63	36.80	-29.8	-33.0	18.7	6.03e-01	0	43	0	538968064	20	5258
2026-01-01 01:45:06.36	173.81	36.54	-29.7	-32.9	18.8	6.03e-01	0	43	0	541065216	20	5209
2026-01-01 01:45:07.36	174.00	36.28	-29.6	-32.7	19.0	6.02e-01	0	43	0	542638080	20	5116
2026-01-01 01:45:08.36	174.17	36.02	-29.5	-32.7	19.3	6.02e-01	0	43	0	544735232	19	5236
2026-01-01 01:45:09.37	174.35	35.77	-29.3	-32.3	19.6	6.03e-01	0	43	0	546832384	19	5074
2026-01-01 01:45:10.37	174.53	35.51	-29.3	-32.4	19.6	6.04e-01	0	43	0	548405248	19	5104
2026-01-01 01:45:11.38	174.70	35.26	-29.3	-32.4	19.5	6.03e-01	0	43	0	550502400	19	5115
2026-01-01 01:45:12.38	174.87	35.01	-29.2	-31.9	19.8	6.05e-01	0	43	0	552075264	19	4953
2026-01-01 01:45:13.38	175.03	34.76	-29.0	-31.9	20.1	6.04e-01	0	43	0	554172416	18	5070
2026-01-01 01:45:14.38	175.20	34.52	-28.5	-31.3	20.2	6.04e-01	0	43	0	555745280	18	5003
2026-01-01 01:45:15.38	175.36	34.27	-28.9	-31.8	19.9	6.01e-01	0	43	0	557842432	18	5038
2026-01-01 01:45:16.39	175.52	34.03	-29.1	-31.7	19.8	6.03e-01	0	43	0	559939584	19	4898
2026-01-01 01:45:17.39	175.67	33.79	-28.9	-31.8	20.1	6.01e-01	0	43	0	561512448	18	5033
2026-01-01 01:45:18.39	175.83	33.55	-28.7	-31.4	20.4	6.03e-01	0	43	0	563609600	18	4895
2026-01-01 01:45:19.39	175.98	33.31	-28.8	-31.5	20.3	6.03e-01	0	43	0	565182464	18	4924
2026-01-01 01:45:20.40	176.13	33.07	-28.8	-31.4	20.3	6.03e-01	0	43	0	567279616	18	4906
2026-01-01 01:45:21.40	176.28	32.84	-28.7	-31.2	20.5	6.02e-01	0	43	0	569376768	18	4814
2026-01-01 01:45:22.41	176.42	32.61	-28.7	-31.3	20.4	6.01e-01	0	43	0	570949632	18	4864
2026-01-01 01:45:23.41	176.57	32.38	-28.7	-31.3	20.4	6.01e-01	0	43	0	573046784	18	4856
2026-01-01 01:45:24.41	176.71	32.15	-28.5	-31.3	20.7	6.02e-01	0	43	0	574619648	17	4973
2026-01-01 01:45:25.41	176.85	31.92	-28.5	-31.3	20.7	6.04e-01	0	43	0	576716800	17	4973
2026-01-01 01:45:26.42	176.99	31.70	-28.7	-31.2	20.5	6.02e-01	0	43	0	578289664	18	4823
2026-01-01 01:45:27.42	177.12	31.47	-28.7	-31.3	20.4	6.02e-01	0	43	0	580386816	18	4872
2026-01-01 01:45:28.42	177.25	31.25	-28.6	-31.1	20.5	6.00e-01	0	43	0	582483968	18	4792
2026-01-01 01:45:29.42	177.39	31.03	-28.8	-31.6	20.3	6.02e-01	0	43	0	584056832	18	4949
2026-01-01 01:45:30.42	177.52	30.81	-28.9	-31.8	20.1	6.04e-01	0	43	0	586153984	18	5018
2026-01-01 01:45:31.42	177.64	30.60	-28.7	-31.2	20.4	6.02e-01	0	43	0	587726848	18	4839
2026-01-01 01:45:32.42	177.77	30.38	-28.6	-31.5	20.5	6.03e-01	0	43	0	589824000	17	5042
2026-01-01 01:45:33.42	177.90	30.17	-28.6	-31.6	20.5	6.04e-01	0	43	0	591921152	17	5070
2026-01-01 01:45:34.42	178.02	29.96	-28.8	-31.6	20.2	6.02e-01	0	43	0	593494016	18	4960
2026-01-01 01:45:35.42	178.14	29.74	-29.0	-32.2	19.9	6.05e-01	0	43	0	595591168	18	5171
2026-01-01 01:45:36.43	178.26	29.53	-29.0	-32.2	19.9	6.03e-01	0	43	0	597164032	18	5190
2026-01-01 01:45:37.43	178.38	29.33	-29.4	-32.7	19.3	6.03e-01	0	43	0	599261184	19	5250
2026-01-01 01:45:38.44	178.50	29.12	-29.6	-33.0	19.0	6.02e-01	0	43	0	601358336	19	5379
2026-01-01 01:45:39.44	178.61	28.91	-29.3	-32.4	19.4	6.03e-01	0	43	0	602931200	19	5126
2026-01-01 01:45:40.44	178.73	28.71	-29.1	-31.9	19.7	6.02e-01	0	43	0	605028352	19	4950
2026-01-01 01:45:41.44	178.84	28.51	-29.0	-32.2	19.8	6.03e-01	0	43	0	606601216	18	5176
2026-01-01 01:45:42.45	178.95	28.31	-29.0	-32.2	19.8	6.04e-01	0	43	0	608698368	18	5179
2026-01-01 01:45:43.45	179.06	28.11	-29.0	-32.0	19.9	6.04e-01	0	43	0	610271232	18	5123
2026-01-01 01:45:44.45	179.17	27.91	-28.8	-31.5	20.2	6.03e-01	0	43	0	612368384	18	4940
2026-01-01 01:45:45.46	179.28	27.71	-28.8	-31.5	20.2	6.02e-01	0	43	0	614465536	18	4929
2026-01-01 01:45:46.46	179.38	27.52	-28.8	-31.6	20.2	6.03e-01	0	43	0	616038400	18	4961
2026-01-01 01:45:47.47	179.49	27.32	-28.9	-31.7	20.1	6.04e-01	0	43	0	618135552	18	5008
2026-01-01 01:45:48.47	179.59	27.13	-28.9	-31.9	19.9	6.03e-01	0	43	0	619708416	18	5077
2026-01-01 01:45:49.47	179.70	26.94	-29.0	-32.1	19.9	6.02e-01	0	43	0	621805568	18	5125
2026-01-01 01:45:50.47	179.80	26.75	-29.3	-32.3	19.4	6.02e-01	0	43	0	623902720	19	5093
2026-01-01 01:45:51.47	179.90	26.57	-29.3	-32.3	19.4	6.04e-01	0	43	0	625475584	19	5103
2026-01-01 01:45:52.48	180.00	26.38	-29.1	-31.9	19.6	6.04e-01	0	43	0	627572736	19	4944
2026-01-01 01:45:53.48	180.09	26.19	-29.1	-32.3	19.7	6.02e-01	0	43	0	629145600	18	5208
2026-01-01 01:45:54.48	180.19	26.01	-29.1	-32.0	19.6	6.01e-01	0	43	0	631242752	19	4987
2026-01-01 01:45:55.49	180.28	25.82	-29.2	-32.1	19.6	6.05e-01	0	43	0	633339904	19	5036
2026-01-01 01:45:56.49	180.38	25.64	-29.2	-32.1	19.5	6.03e-01	0	43	0	634912768	19	5038
2026-01-01 01:45:57.49	180.47	25.46	-29.2	-32.2	19.4	6.04e-01	0	43	0	637009920	19	5091
2026-01-01 01:45:58.49	180.56	25.29	-29.3	-32.5	19.3	6.03e-01	0	43	0	638582784	19	5174
2026-01-01 01:45:59.50	180.66	25.11	-29.3	-32.3	19.4	6.04e-01	0	43	0	640679936	19	5106
2026-01-01 01:46:00.50	180.75	24.93	-29.3	-32.3	19.3	6.03e-01	0	43	0	642252800	19	5121
2026-01-01 01:46:01.49	180.83	24.76	-29.2	-32.3	19.4	6.04e-01	0	43	0	644349952	19	5098
2026-01-01 01:46:02.50	180.92	24.58	-29.3	-32.4	19.3	6.03e-01	0	43	0	646447104	19	5151
2026-01-01 01:46:03.50	181.01	24.41	-29.3	-32.4	19.3	6.02e-01	0	43	0	648019968	19	5147
2026-01-01 01:46:04.50	181.09	24.24	-29.3	-32.6	19.2	6.01e-01	0	43	0	650117120	19	5213
2026-01-01 01:46:05.51	181.18	24.06	-29.4	-32.6	19.1	6.03e-01	0	43	0	651689984	19	5238
2026-01-01 01:46:06.52	181.27	23.89	-29.3	-32.5	19.2	6.03e-01	0	43	0	653787136	19	5199
2026-01-01 01:46:07.52	181.35	23.73	-29.5	-32.9	19.0	6.01e-01	0	43	0	655360000	19	5342
2026-01-01 01:46:08.52	181.43	23.56	-29.4	-32.8	19.0	6.03e-01	0	43	0	657457152	19	5290
2026-01-01 01:46:09.52	181.51	23.39	-29.3	-32.5	19.2	6.00e-01	0	43	0	659554304	19	5200
2026-01-01 01:46:10.52	181.59	23.23	-29.4	-32.8	19.0	6.02e-01	0	43	0	661127168	19	5318
2026-01-01 01:46:11.53	181.67	23.06	-29.5	-32.9	18.9	6.03e-01	0	43	0	663224320	19	5359
2026-01-01 01:46:12.53	181.75	22.90	-29.3	-32.5	19.2	6.03e-01	0	43	0	664797184	19	5177
2026-01-01 01:46:13.54	181.83	22.74	-29.2	-32.2	19.4	6.04e-01	0	43	0	666894336	19	5072
2026-01-01 01:46:14.54	181.91	22.58	-29.1	-32.1	19.4	6.03e-01	0	43	0	668991488	19	5041
2026-01-01 01:46:15.54	181.99	22.42	-29.3	-32.5	19.2	6.03e-01	0	43	0	670564352	19	5199
2026-01-01 01:46:16.54	182.06	22.26	-29.4	-32.6	19.0	6.04e-01	0	43	0	672661504	19	5251
2026-01-01 01:46:17.55	182.14	22.10	-29.4	-32.7	19.0	6.00e-01	0	43	0	674234368	19	5284
2026-01-01 01:46:18.55	182.21	21.94	-29.3	-32.6	19.0	6.02e-01	0	43	0	676331520	19	5235
2026-01-01 01:46:19.55	182.28	21.79	-29.2	-32.2	19.3	6.01e-01	0	43	0	678428672	19	5082
2026-01-01 01:46:20.55	182.36	21.63	-29.1	-32.0	19.4	6.04e-01	0	43	0	680001536	19	5042
2026-01-01 01:46:21.56	182.43	21.48	-29.2	-32.3	19.3	6.02e-01	0	43	0	682098688	19	5131
2026-01-01 01:46:22.56	182.50	21.33	-29.2	-32.3	19.2	6.02e-01	0	43	0	683671552	19	5131
2026-01-01 01:46:23.56	182.57	21.18	-29.1	-32.1	19.3	6.04e-01	0	43	0	685768704	19	5076
2026-01-01 01:46:24.56	182.64	21.02	-29.1	-32.1	19.4	6.02e-01	0	43	0	687341568	19	5048
2026-01-01 01:46:25.56	182.71	20.88	-29.1	-32.0	19.4	6.03e-01	0	43	0	689438720	19	5047
2026-01-01 01:46:26.56	182.78	20.73	-29.2	-32.2	19.3	6.03e-01	0	43	0	691535872	19	5094
2026-01-01 01:46:27.56	182.85	20.58	-29.3	-32.5	19.1	6.01e-01	0	43	0	693108736	19	5203
2026-01-01 01:46:28.56	182.92	20.43	-29.3	-32.4	19.1	6.03e-01	0	43	0	695205888	19	5198
2026-01-01 01:46:29.57	182.98	20.28	-29.2	-32.3	19.2	6.05e-01	0	43	0	696778752	19	5157
2026-01-01 01:46:30.56	183.05	20.14	-29.6	-33.4	18.6	6.02e-01	0	43	0	698875904	19	5559
2026-01-01 01:46:31.56	183.11	20.00	-29.4	-32.5	18.6	6.03e-01	0	43	0	700448768	20	5132
2026-01-01 01:46:32.56	183.18	19.85	-29.4	-33.0	18.8	6.04e-01	0	43	0	702545920	19	5396
2026-01-01 01:46:33.58	183.24	19.71	-29.4	-32.7	18.9	6.04e-01	0	43	0	704643072	19	5305
2026-01-01 01:46:34.58	183.31	19.57	-29.1	-32.0	19.3	6.03e-01	0	43	0	706215936	19	5042
2026-01-01 01:46:35.58	183.37	19.43	-29.1	-32.1	19.3	6.01e-01	0	43	0	708313088	19	5059
2026-01-01 01:46:36.58	183.43	19.29	-29.1	-32.1	19.3	6.04e-01	0	43	0	710410240	19	5064
2026-01-01 01:46:37.59	183.50	19.15	-29.1	-32.0	19.3	6.02e-01	0	43	0	711983104	19	5042
2026-01-01 01:46:38.59	183.56	19.01	-29.0	-32.3	19.5	6.03e-01	0	43	0	714080256	18	5264
2026-01-01 01:46:39.59	183.62	18.87	-28.9	-32.1	19.6	6.03e-01	0	43	0	715653120	18	5194
2026-01-01 01:46:40.59	183.68	18.73	-29.0	-32.2	19.5	6.04e-01	0	43	0	717750272	18	5235
2026-01-01 01:46:41.59	183.74	18.60	-29.0	-32.3	19.5	6.02e-01	0	43	0	719323136	18	5261
2026-01-01 01:46:42.60	183.80	18.46	-29.2	-32.3	19.2	6.04e-01	0	43	0	721420288	19	5136
2026-01-01 01:46:43.59	183.86	18.33	-29.2	-32.2	19.2	6.01e-01	0	43	0	723517440	19	5097
2026-01-01 01:46:44.59	183.91	18.20	-29.0	-31.9	19.4	6.04e-01	0	43	0	725090304	19	4981
2026-01-01 01:46:45.60	183.97	18.06	-29.1	-32.1	19.2	6.01e-01	0	43	0	727187456	19	5072
2026-01-01 01:46:46.60	184.03	17.93	-29.3	-32.6	18.9	6.03e-01	0	43	0	728760320	19	5260
2026-01-01 01:46:47.60	184.09	17.80	-29.2	-32.2	19.1	6.04e-01	0	43	0	730857472	19	5125
2026-01-01 01:46:48.61	184.14	17.67	-29.0	-31.8	19.4	6.03e-01	0	43	0	732430336	19	4953
2026-01-01 01:46:49.61	184.20	17.54	-29.0	-32.2	19.5	6.03e-01	0	43	0	734527488	18	5232
2026-01-01 01:46:50.62	184.25	17.41	-29.0	-32.4	19.3	6.02e-01	0	43	0	736624640	18	5301
2026-01-01 01:46:51.62	184.31	17.28	-29.3	-32.5	19.0	6.01e-01	0	43	0	738197504	19	5217
2026-01-01 01:46:52.61	184.36	17.15	-29.3	-32.6	18.9	6.02e-01	0	43	0	740294656	19	5267
2026-01-01 01:46:53.61	184.42	17.03	-29.4	-32.8	18.8	6.02e-01	0	43	0	741867520	19	5338
2026-01-01 01:46:54.61	184.47	16.90	-29.2	-32.4	19.0	6.00e-01	0	43	0	743964672	19	5177
2026-01-01 01:46:55.61	184.52	16.77	-29.2	-32.3	19.0	6.04e-01	0	43	0	745537536	19	5161
2026-01-01 01:46:56.60	184.58	16.65	-29.1	-32.1	19.1	6.04e-01	0	43	0	747634688	19	5094
2026-01-01 01:46:57.60	184.63	16.53	-29.0	-31.8	19.3	6.05e-01	0	43	0	749731840	19	4971
2026-01-01 01:46:58.61	184.68	16.40	-28.9	-31.5	19.5	6.02e-01	0	43	0	751304704	19	4877
2026-01-01 01:46:59.61	184.73	16.28	-28.9	-32.0	19.5	6.02e-01	0	43	0	753401856	18	5142
2026-01-01 01:47:00.61	184.78	16.16	-28.9	-32.0	19.5	6.03e-01	0	43	0	754974720	18	5169
2026-01-01 01:47:01.61	184.83	16.04	-28.9	-32.0	19.5	6.03e-01	0	43	0	757071872	18	5168
2026-01-01 01:47:02.62	184.88	15.91	-29.0	-32.4	19.3	6.02e-01	0	43	0	759169024	18	5294
2026-01-01 01:47:03.62	184.93	15.79	-29.1	-32.2	19.1	6.04e-01	0	43	0	760741888	19	5104
2026-01-01 01:47:04.63	184.98	15.67	-29.1	-32.2	19.1	6.03e-01	0	43	0	762839040	19	5110
2026-01-01 01:47:05.63	185.03	15.56	-29.1	-32.2	19.0	6.05e-01	0	43	0	764411904	19	5121
2026-01-01 01:47:06.62	185.08	15.44	-29.2	-32.2	19.1	6.03e-01	0	43	0	766509056	19	5130
2026-01-01 01:47:07.63	185.13	15.32	-29.2	-32.3	19.0	6.02e-01	0	43	0	768081920	19	5170
2026-01-01 01:47:08.62	185.17	15.20	-27.9	-31.2	18.9	6.02e-01	0	43	0	770179072	19	5226
2026-01-01 01:47:09.62	185.22	15.09	-29.3	-32.7	18.8	6.04e-01	0	43	0	772276224	19	5299
2026-01-01 01:47:10.63	185.27	14.97	-29.3	-33.0	18.6	6.03e-01	0	43	0	773849088	18	5552
2026-01-01 01:47:11.63	185.32	14.86	-29.0	-32.5	18.8	6.05e-01	0	43	0	775946240	18	5336
2026-01-01 01:47:12.62	185.36	14.74	-29.0	-32.3	19.3	6.03e-01	0	43	0	777519104	18	5262
2026-01-01 01:47:13.62	185.41	14.63	-29.0	-32.2	18.6	6.05e-01	0	43	0	779616256	18	5253
2026-01-01 01:47:14.63	185.45	14.51	-29.0	-32.3	18.5	6.06e-01	0	43	0	781189120	18	5289
2026-01-01 01:47:15.63	185.50	14.40	-28.9	-32.2	19.2	6.02e-01	0	43	0	783286272	18	5240
2026-01-01 01:47:16.64	185.54	14.29	-28.9	-32.2	19.3	6.03e-01	0	43	0	785383424	18	5234
2026-01-01 01:47:17.64	185.59	14.18	-29.0	-32.4	19.1	6.03e-01	0	43	0	786956288	18	5328
2026-01-01 01:47:18.64	185.63	14.06	-29.0	-32.5	19.1	6.01e-01	0	43	0	789053440	18	5355
2026-01-01 01:47:19.64	185.68	13.95	-29.0	-32.5	19.1	6.03e-01	0	43	0	791150592	18	5344
2026-01-01 01:47:20.65	185.72	13.84	-29.2	-32.5	18.8	6.03e-01	0	43	0	792723456	19	5248
2026-01-01 01:47:21.65	185.76	13.73	-29.4	-33.0	18.5	6.04e-01	0	43	0	794820608	19	5445
2026-01-01 01:47:22.66	185.81	13.62	-29.5	-33.1	18.4	6.05e-01	0	43	0	796393472	19	5490
2026-01-01 01:47:23.66	185.85	13.51	-29.5	-33.4	18.2	6.01e-01	0	43	0	798490624	19	5592
2026-01-01 01:47:24.66	185.89	13.41	-29.5	-32.8	18.1	6.04e-01	0	43	0	800063488	20	5282
2026-01-01 01:47:25.67	185.94	13.30	-29.5	-33.4	18.2	6.02e-01	0	43	0	802160640	19	5600
2026-01-01 01:47:26.67	185.98	13.19	-29.4	-33.1	18.4	6.04e-01	0	43	0	804257792	19	5494
2026-01-01 01:47:27.68	186.02	13.08	-29.5	-33.2	18.3	6.05e-01	0	43	0	805830656	19	5527
2026-01-01 01:47:28.69	186.06	12.98	-29.5	-32.9	18.1	6.04e-01	0	43	0	807927808	20	5317
2026-01-01 01:47:29.69	186.10	12.87	-29.7	-33.5	17.7	6.03e-01	0	43	0	809500672	20	5543
2026-01-01 01:47:30.69	186.14	12.77	-29.7	-33.3	17.7	6.04e-01	0	43	0	811597824	20	5485
2026-01-01 01:47:31.69	186.18	12.66	-29.5	-33.4	18.1	6.02e-01	0	43	0	813694976	19	5620
2026-01-01 01:47:32.70	186.22	12.56	-29.6	-33.0	18.0	6.03e-01	0	43	0	815267840	20	5363
2026-01-01 01:47:33.69	186.26	12.45	-29.8	-33.7	17.6	6.04e-01	0	43	0	817364992	20	5635
2026-01-01 01:47:34.70	186.30	12.35	-29.8	-33.7	17.5	6.01e-01	0	43	0	818937856	20	5630
2026-01-01 01:47:35.71	186.34	12.25	-29.7	-33.3	17.7	6.02e-01	0	43	0	821035008	20	5495
2026-01-01 01:47:36.71	186.38	12.14	-29.7	-33.3	17.8	6.03e-01	0	43	0	822607872	20	5491
2026-01-01 01:47:37.71	186.42	12.04	-29.8	-33.6	17.6	6.05e-01	0	43	0	824705024	20	5596
2026-01-01 01:47:38.72	186.46	11.94	-29.7	-33.3	17.7	6.04e-01	0	43	0	826802176	20	5499
2026-01-01 01:47:39.72	186.50	11.84	-29.6	-33.2	17.8	6.03e-01	0	43	0	828375040	20	5427
2026-01-01 01:47:40.72	186.53	11.74	-29.7	-33.4	17.7	6.03e-01	0	43	0	830472192	20	5509
2026-01-01 01:47:41.73	186.57	11.64	-29.7	-33.6	17.5	6.03e-01	0	43	0	832045056	20	5589
2026-01-01 01:47:42.73	186.61	11.54	-29.7	-33.5	17.6	5.98e-01	0	43	0	834142208	20	5552
2026-01-01 01:47:43.73	186.65	11.44	-30.2	-34.5	16.6	6.05e-01	0	43	0	836239360	21	5904
2026-01-01 01:47:44.74	186.68	11.34	-30.3	-34.7	16.4	6.03e-01	0	43	0	837812224	21	5994
2026-01-01 01:47:45.74	186.72	11.24	-29.9	-33.5	17.2	6.04e-01	0	43	0	839909376	21	5461
2026-01-01 01:47:46.74	186.76	11.15	-29.7	-33.4	17.6	6.04e-01	0	43	0	841482240	20	5541
2026-01-01 01:47:47.74	186.79	11.05	-29.8	-33.6	17.5	6.02e-01	0	43	0	843579392	20	5629
2026-01-01 01:47:48.74	186.83	10.95	-29.7	-33.6	17.4	6.03e-01	0	43	0	845676544	20	5609
2026-01-01 01:47:49.74	186.86	10.86	-29.7	-33.4	17.6	6.05e-01	0	43	0	847249408	20	5546
2026-01-01 01:47:50.73	186.90	10.76	-29.6	-33.1	17.8	6.01e-01	0	43	0	849346560	20	5409
2026-01-01 01:47:51.74	186.94	10.66	-29.6	-33.2	17.7	6.04e-01	0	43	0	850919424	20	5427
2026-01-01 01:47:52.75	186.97	10.57	-29.8	-33.8	17.3	6.04e-01	0	43	0	853016576	20	5710
2026-01-01 01:47:53.75	187.01	10.47	-29.7	-33.6	17.5	6.03e-01	0	43	0	854589440	20	5622
2026-01-01 01:47:54.75	187.04	10.38	-29.7	-33.4	17.6	6.03e-01	0	43	0	856686592	20	5543
2026-01-01 01:47:55.76	187.07	10.28	-29.6	-33.3	17.6	6.04e-01	0	43	0	858783744	20	5502
2026-01-01 01:47:56.76	187.11	10.19	-29.6	-33.1	17.8	6.03e-01	0	43	0	860356608	20	5424
2026-01-01 01:47:57.76	187.14	10.10	-29.3	-32.4	18.2	6.04e-01	0	43	0	862453760	20	5145
2026-01-01 01:47:58.77	187.18	10.00	-29.2	-32.6	18.5	6.04e-01	0	43	0	864026624	19	5307
2026-01-01 01:47:59.78	187.21	9.91	-29.3	-32.8	18.3	6.01e-01	0	43	0	866123776	19	5386
2026-01-01 01:48:00.78	187.24	9.82	-29.3	-32.8	18.3	6.04e-01	0	43	0	867696640	19	5405
2026-01-01 01:48:01.79	187.28	9.73	-29.4	-33.1	18.1	6.02e-01	0	43	0	869793792	19	5505
2026-01-01 01:48:02.79	187.31	9.64	-29.4	-33.1	18.1	6.03e-01	0	43	0	871890944	19	5509
2026-01-01 01:48:03.80	187.34	9.54	-29.4	-33.1	18.1	6.03e-01	0	43	0	873463808	19	5532
2026-01-01 01:48:04.80	187.38	9.45	-29.6	-33.6	17.7	6.02e-01	0	43	0	875560960	19	5731
2026-01-01 01:48:05.80	187.41	9.36	-29.5	-32.9	17.8	6.01e-01	0	43	0	877658112	20	5346
2026-01-01 01:48:06.80	187.44	9.27	-29.4	-32.6	18.0	6.02e-01	0	43	0	879230976	20	5204
2026-01-01 01:48:07.80	187.47	9.18	-29.4	-33.3	17.9	6.02e-01	0	43	0	881328128	19	5615
2026-01-01 01:48:08.80	187.50	9.09	-29.5	-33.5	17.8	6.04e-01	0	43	0	882900992	19	5707
2026-01-01 01:48:09.79	187.53	9.01	-29.5	-33.4	17.8	6.02e-01	0	43	0	884998144	19	5650
2026-01-01 01:48:10.79	187.57	8.92	-29.4	-33.1	18.1	6.04e-01	0	43	0	886571008	19	5505
2026-01-01 01:48:11.79	187.60	8.83	-29.4	-33.1	18.0	6.04e-01	0	43	0	888668160	19	5528
2026-01-01 01:48:12.80	187.63	8.74	-29.4	-33.1	18.0	6.00e-01	0	43	0	890765312	19	5528
2026-01-01 01:48:13.80	187.66	8.65	-29.5	-33.3	17.8	6.04e-01	0	43	0	892338176	19	5633
2026-01-01 01:48:14.81	187.69	8.57	-29.4	-33.2	17.9	6.02e-01	0	43	0	894435328	19	5567
2026-01-01 01:48:15.81	187.72	8.48	-29.5	-33.3	17.8	6.02e-01	0	43	0	896008192	19	5628
2026-01-01 01:48:16.80	187.75	8.39	-29.4	-33.1	17.9	6.01e-01	0	43	0	898105344	19	5527
2026-01-01 01:48:17.81	187.78	8.31	-29.4	-33.3	17.8	6.03e-01	0	43	0	899678208	19	5612
2026-01-01 01:48:18.81	187.81	8.22	-29.4	-33.1	17.9	6.03e-01	0	43	0	901775360	19	5514
2026-01-01 01:48:19.82	187.84	8.14	-29.3	-32.9	18.0	6.03e-01	0	43	0	903872512	19	5473
2026-01-01 01:48:20.82	187.87	8.05	-29.4	-33.1	17.9	6.03e-01	0	43	0	905445376	19	5535
2026-01-01 01:48:21.82	187.90	7.97	-29.4	-33.3	17.8	6.03e-01	0	43	0	907542528	19	5609
2026-01-01 01:48:22.82	187.93	7.88	-29.5	-33.4	17.6	6.04e-01	0	43	0	909115392	19	5679
2026-01-01 01:48:23.83	187.96	7.80	-29.4	-33.2	17.8	6.04e-01	0	43	0	911212544	19	5582
2026-01-01 01:48:24.83	187.99	7.71	-29.4	-33.4	17.7	6.03e-01	0	43	0	912785408	19	5658
2026-01-01 01:48:25.83	188.02	7.63	-29.4	-33.3	17.7	6.02e-01	0	43	0	914882560	19	5622
2026-01-01 01:48:26.83	188.05	7.55	-29.5	-33.5	17.6	6.05e-01	0	43	0	916979712	19	5700
2026-01-01 01:48:27.83	188.07	7.46	-29.5	-33.5	17.6	6.03e-01	0	43	0	918552576	19	5706
2026-01-01 01:48:28.84	188.10	7.38	-29.5	-33.7	17.4	6.02e-01	0	43	0	920649728	19	5814
2026-01-01 01:48:29.84	188.13	7.30	-29.5	-33.6	17.5	6.04e-01	0	43	0	922746880	19	5773
2026-01-01 01:48:30.84	188.16	7.21	-29.6	-33.4	17.2	6.03e-01	0	43	0	924319744	20	5571
2026-01-01 01:48:31.84	188.19	7.13	-29.7	-33.9	16.9	6.02e-01	0	43	0	926416896	20	5790
2026-01-01 01:48:32.85	188.21	7.05	-32.7	-51.7	3.9	7.42e-01	0	43	104	927465472	26	32098
2026-01-01 01:48:33.85	188.24	6.97	-32.7	-52.1	3.8	7.46e-01	0	43	104	927465472	26	33825

#Closed at: 2026-01-01 01:48:34
#Recorded file [927 MB]: D:/data/31010_260101_044017.dat