passes_logs/2026/01/01/R2M6_AANII_01/R2M6_AANII_01__20260101_111413_AQUA_rec.log

#Pass ID: 20260101_111413_AQUA
#Satellite: AQUA
#Configuration: AQUA
#almurnet v.1.7.20240730
#Start time: 2026-01-01 11:14:13

#Version: 2.2.20231116
#Station: R2M6_AANII_01
#Location: 30.233357 lon 59.946436 lat
#TLE: 1 27424U 02022A   25364.96158943  .00001951  00000+0  40088-3 0  9998
#TLE: 2 27424  98.4061 326.1389 0001917  95.3187 305.7939 14.61780362258696

#Time	Az	El	Level	Level2	SNR	BER	BlckErr	Temp	State	Recorded	gain1	gain2
2026-01-01 11:14:13.29	134.28	6.96	-31.2	-37.2	5.1	7.11e-01	0	41	0	0	24	7212
2026-01-01 11:14:14.29	134.23	7.04	-31.1	-36.8	5.1	7.13e-01	0	41	104	0	24	6974
2026-01-01 11:14:15.30	134.18	7.12	-30.9	-35.5	14.8	6.09e-01	0	41	0	0	24	6119
2026-01-01 11:14:16.30	134.13	7.20	-30.8	-35.8	15.1	6.06e-01	0	40	0	1572864	23	6353
2026-01-01 11:14:17.30	134.08	7.28	-30.8	-35.7	15.1	6.05e-01	0	41	0	3670016	23	6341
2026-01-01 11:14:18.31	134.02	7.36	-30.7	-35.4	15.4	6.07e-01	0	41	0	5242880	23	6145
2026-01-01 11:14:19.31	133.97	7.44	-30.7	-35.3	15.5	6.08e-01	0	41	0	7340032	23	6080
2026-01-01 11:14:20.32	133.92	7.52	-30.8	-35.4	15.5	6.06e-01	0	41	0	9437184	23	6142
2026-01-01 11:14:21.32	133.87	7.60	-30.7	-35.1	15.6	6.08e-01	0	41	0	11010048	23	5995
2026-01-01 11:14:22.31	133.82	7.68	-30.4	-34.0	16.4	6.07e-01	0	41	0	13107200	23	5473
2026-01-01 11:14:23.31	133.76	7.76	-30.3	-34.1	16.7	6.05e-01	0	41	0	14680064	22	5623
2026-01-01 11:14:24.31	133.71	7.85	-30.1	-33.4	17.3	6.10e-01	0	41	0	16777216	22	5292
2026-01-01 11:14:25.31	133.66	7.93	-30.0	-33.3	17.4	6.03e-01	0	41	0	18350080	22	5253
2026-01-01 11:14:26.32	133.60	8.01	-30.0	-33.2	17.5	6.05e-01	0	41	0	20447232	22	5188
2026-01-01 11:14:27.32	133.55	8.09	-30.1	-33.3	17.4	6.05e-01	0	41	0	22544384	22	5215
2026-01-01 11:14:28.32	133.49	8.18	-30.1	-33.3	17.4	6.07e-01	0	41	0	24117248	22	5229
2026-01-01 11:14:29.33	133.44	8.26	-30.1	-33.4	17.4	6.07e-01	0	41	0	26214400	22	5274
2026-01-01 11:14:30.33	133.38	8.34	-30.1	-33.3	17.4	6.06e-01	0	41	0	27787264	22	5240
2026-01-01 11:14:31.34	133.33	8.43	-30.0	-33.2	17.5	6.08e-01	0	41	0	29884416	22	5170
2026-01-01 11:14:32.34	133.27	8.51	-30.0	-33.1	17.6	6.07e-01	0	41	0	31457280	22	5129
2026-01-01 11:14:33.34	133.22	8.60	-30.0	-33.0	17.7	6.06e-01	0	41	0	33554432	22	5103
2026-01-01 11:14:34.34	133.16	8.68	-30.1	-33.3	17.5	6.06e-01	0	41	0	35651584	22	5202
2026-01-01 11:14:35.35	133.10	8.77	-30.1	-33.2	17.6	6.06e-01	0	41	0	37224448	22	5165
2026-01-01 11:14:36.34	133.04	8.85	-30.0	-32.9	17.8	6.09e-01	0	41	0	39321600	22	5048
2026-01-01 11:14:37.35	132.99	8.94	-29.9	-32.8	17.9	6.06e-01	0	41	0	41418752	22	4998
2026-01-01 11:14:38.35	132.93	9.02	-29.9	-32.8	17.9	6.04e-01	0	41	0	42991616	22	5001
2026-01-01 11:14:39.35	132.87	9.11	-30.0	-32.8	17.9	6.05e-01	0	41	0	45088768	22	5014
2026-01-01 11:14:40.35	132.81	9.19	-29.9	-32.7	18.0	6.05e-01	0	41	0	46661632	22	4973
2026-01-01 11:14:41.35	132.75	9.28	-30.0	-32.9	17.9	6.07e-01	0	41	0	48758784	22	5026
2026-01-01 11:14:42.35	132.69	9.37	-30.0	-32.9	17.8	6.08e-01	0	41	0	50331648	22	5055
2026-01-01 11:14:43.36	132.63	9.45	-29.9	-33.0	18.1	6.08e-01	0	42	0	52428800	21	5200
2026-01-01 11:14:44.36	132.57	9.54	-29.9	-33.1	18.1	6.06e-01	0	41	0	54525952	21	5207
2026-01-01 11:14:45.37	132.51	9.63	-29.9	-33.0	18.1	6.07e-01	0	42	0	56098816	21	5202
2026-01-01 11:14:46.37	132.45	9.72	-29.9	-33.2	18.0	6.07e-01	0	41	0	58195968	21	5256
2026-01-01 11:14:47.37	132.38	9.81	-29.9	-33.3	18.0	6.06e-01	0	41	0	59768832	21	5294
2026-01-01 11:14:48.37	132.32	9.90	-29.9	-33.2	18.0	6.08e-01	0	42	0	61865984	21	5249
2026-01-01 11:14:49.37	132.26	9.98	-29.9	-33.2	18.0	6.04e-01	0	42	0	63438848	21	5252
2026-01-01 11:14:50.37	132.20	10.07	-29.9	-33.2	18.0	6.07e-01	0	41	0	65536000	21	5255
2026-01-01 11:14:51.37	132.13	10.16	-29.8	-33.0	18.2	6.06e-01	0	42	0	67633152	21	5168
2026-01-01 11:14:52.38	132.07	10.25	-29.9	-33.0	18.2	6.06e-01	0	42	0	69206016	21	5178
2026-01-01 11:14:53.38	132.00	10.34	-29.9	-33.0	18.2	6.05e-01	0	42	0	71303168	21	5192
2026-01-01 11:14:54.38	131.94	10.44	-29.9	-33.2	18.1	6.07e-01	0	42	0	72876032	21	5248
2026-01-01 11:14:55.38	131.87	10.53	-29.8	-32.9	18.3	6.06e-01	0	42	0	74973184	21	5132
2026-01-01 11:14:56.38	131.81	10.62	-29.8	-32.8	18.4	6.05e-01	0	42	0	76546048	21	5089
2026-01-01 11:14:57.38	131.74	10.71	-29.8	-32.8	18.4	6.06e-01	0	42	0	78643200	21	5072
2026-01-01 11:14:58.38	131.67	10.80	-29.8	-32.8	18.4	6.06e-01	0	42	0	80740352	21	5075
2026-01-01 11:14:59.39	131.61	10.89	-29.8	-32.7	18.5	6.06e-01	0	42	0	82313216	21	5050
2026-01-01 11:15:00.39	131.54	10.99	-29.7	-32.7	18.5	6.05e-01	0	42	0	84410368	21	5049
2026-01-01 11:15:01.39	131.47	11.08	-29.8	-32.8	18.4	6.07e-01	0	42	0	86507520	21	5077
2026-01-01 11:15:02.39	131.40	11.17	-29.8	-32.7	18.5	6.09e-01	0	42	0	88080384	21	5058
2026-01-01 11:15:03.40	131.33	11.27	-29.8	-33.0	18.3	6.06e-01	0	42	0	90177536	21	5164
2026-01-01 11:15:04.41	131.26	11.36	-29.9	-33.0	18.2	6.06e-01	0	42	0	91750400	21	5190
2026-01-01 11:15:05.41	131.19	11.46	-29.8	-32.9	18.3	6.04e-01	0	42	0	93847552	21	5150
2026-01-01 11:15:06.42	131.12	11.55	-29.9	-33.1	18.2	6.06e-01	0	42	0	95420416	21	5232
2026-01-01 11:15:07.42	131.05	11.65	-29.9	-33.2	18.1	6.08e-01	0	42	0	97517568	21	5270
2026-01-01 11:15:08.43	130.98	11.75	-29.8	-33.0	18.3	6.05e-01	0	42	0	99614720	21	5183
2026-01-01 11:15:09.43	130.90	11.84	-29.8	-33.0	18.3	6.07e-01	0	42	0	101187584	21	5167
2026-01-01 11:15:10.43	130.83	11.94	-29.9	-33.1	18.2	6.07e-01	0	42	0	103284736	21	5220
2026-01-01 11:15:11.44	130.76	12.04	-29.9	-33.1	18.2	6.07e-01	0	42	0	104857600	21	5200
2026-01-01 11:15:12.43	130.68	12.13	-29.9	-33.1	18.3	6.06e-01	0	42	0	106954752	21	5216
2026-01-01 11:15:13.43	130.61	12.23	-29.9	-33.2	18.2	6.08e-01	0	42	0	108527616	21	5255
2026-01-01 11:15:14.43	130.53	12.33	-29.7	-32.6	18.6	6.06e-01	0	42	0	110624768	21	5038
2026-01-01 11:15:15.43	130.46	12.43	-29.6	-32.2	18.8	6.09e-01	0	42	0	112721920	21	4887
2026-01-01 11:15:16.43	130.38	12.52	-29.6	-32.2	18.8	6.05e-01	0	42	0	114294784	21	4894
2026-01-01 11:15:17.44	130.31	12.62	-29.6	-32.2	18.9	6.07e-01	0	42	0	116391936	21	4872
2026-01-01 11:15:18.44	130.23	12.72	-29.5	-32.0	19.0	6.07e-01	0	42	0	118489088	21	4806
2026-01-01 11:15:19.45	130.15	12.82	-29.5	-32.1	19.0	6.07e-01	0	42	0	120061952	21	4823
2026-01-01 11:15:20.45	130.07	12.92	-29.5	-32.1	19.0	6.07e-01	0	42	0	122159104	21	4813
2026-01-01 11:15:21.46	129.99	13.03	-29.5	-31.8	19.1	6.06e-01	0	42	0	123731968	21	4734
2026-01-01 11:15:22.46	129.91	13.13	-29.5	-31.9	19.2	6.08e-01	0	42	0	125829120	21	4745
2026-01-01 11:15:23.46	129.83	13.23	-29.4	-31.8	19.2	6.07e-01	0	42	0	127401984	21	4709
2026-01-01 11:15:24.46	129.75	13.33	-29.4	-31.7	19.3	6.06e-01	0	42	0	129499136	21	4687
2026-01-01 11:15:25.47	129.67	13.43	-29.4	-31.8	19.2	6.08e-01	0	42	0	131596288	21	4711
2026-01-01 11:15:26.47	129.59	13.54	-29.4	-31.7	19.3	6.06e-01	0	42	0	133169152	21	4702
2026-01-01 11:15:27.47	129.50	13.64	-29.5	-31.9	19.2	6.06e-01	0	42	0	135266304	21	4767
2026-01-01 11:15:28.48	129.42	13.75	-29.5	-31.9	19.2	6.07e-01	0	42	0	136839168	21	4770
2026-01-01 11:15:29.48	129.34	13.85	-29.4	-31.7	19.3	6.08e-01	0	42	0	138936320	21	4695
2026-01-01 11:15:30.48	129.25	13.95	-29.4	-31.7	19.4	6.06e-01	0	42	0	140509184	21	4684
2026-01-01 11:15:31.49	129.16	14.06	-29.4	-31.9	19.2	6.07e-01	0	42	0	142606336	21	4757
2026-01-01 11:15:32.49	129.08	14.17	-29.5	-32.0	19.1	6.06e-01	0	42	0	144703488	21	4797
2026-01-01 11:15:33.49	128.99	14.27	-29.5	-32.0	19.1	6.06e-01	0	42	0	146276352	21	4825
2026-01-01 11:15:34.49	128.90	14.38	-29.6	-32.2	19.0	6.05e-01	0	42	0	148373504	21	4883
2026-01-01 11:15:35.50	128.82	14.49	-29.5	-32.2	19.0	6.06e-01	0	42	0	150470656	21	4876
2026-01-01 11:15:36.51	128.73	14.59	-29.4	-31.9	19.2	6.06e-01	0	42	0	152043520	21	4782
2026-01-01 11:15:37.51	128.64	14.70	-29.4	-32.0	19.2	6.06e-01	0	42	0	154140672	21	4802
2026-01-01 11:15:38.51	128.55	14.81	-29.5	-32.1	19.1	6.06e-01	0	42	0	155713536	21	4837
2026-01-01 11:15:39.51	128.46	14.92	-29.5	-32.2	19.1	6.07e-01	0	42	0	157810688	21	4880
2026-01-01 11:15:40.51	128.36	15.03	-29.5	-32.2	19.1	6.06e-01	0	42	0	159383552	21	4865
2026-01-01 11:15:41.52	128.27	15.14	-29.4	-31.7	19.4	6.06e-01	0	42	0	161480704	21	4710
2026-01-01 11:15:42.52	128.18	15.25	-29.3	-32.1	19.4	6.06e-01	0	42	0	163577856	20	4944
2026-01-01 11:15:43.52	128.08	15.36	-29.3	-32.1	19.5	6.10e-01	0	42	0	165150720	20	4925
2026-01-01 11:15:44.53	127.99	15.47	-29.3	-31.9	19.6	6.05e-01	0	42	0	167247872	20	4872
2026-01-01 11:15:45.53	127.89	15.58	-29.3	-31.9	19.6	6.06e-01	0	43	0	168820736	20	4850
2026-01-01 11:15:46.53	127.80	15.69	-29.3	-31.9	19.6	6.09e-01	0	43	0	170917888	20	4863
2026-01-01 11:15:47.53	127.70	15.81	-29.3	-31.8	19.7	6.05e-01	0	42	0	172490752	20	4806
2026-01-01 11:15:48.53	127.60	15.92	-29.3	-31.8	19.7	6.04e-01	0	43	0	174587904	20	4810
2026-01-01 11:15:49.52	127.50	16.03	-29.3	-31.8	19.7	6.06e-01	0	42	0	176685056	20	4814
2026-01-01 11:15:50.53	127.40	16.15	-29.3	-31.7	19.8	6.05e-01	0	42	0	178257920	20	4783
2026-01-01 11:15:51.53	127.30	16.26	-29.3	-31.8	19.8	6.08e-01	0	42	0	180355072	20	4803
2026-01-01 11:15:52.53	127.20	16.38	-29.3	-31.8	19.7	6.05e-01	0	42	0	181927936	20	4804
2026-01-01 11:15:53.53	127.10	16.49	-29.4	-32.0	19.6	6.05e-01	0	42	0	184025088	20	4881
2026-01-01 11:15:54.53	127.00	16.61	-29.4	-32.1	19.6	6.06e-01	0	42	0	185597952	20	4888
2026-01-01 11:15:55.54	126.89	16.73	-29.3	-31.9	19.7	6.07e-01	0	42	0	187695104	20	4842
2026-01-01 11:15:56.54	126.79	16.84	-29.4	-32.1	19.6	6.08e-01	0	42	0	189792256	20	4913
2026-01-01 11:15:57.55	126.68	16.96	-29.4	-32.1	19.6	6.06e-01	0	42	0	191365120	20	4904
2026-01-01 11:15:58.55	126.57	17.08	-29.3	-32.0	19.6	6.05e-01	0	43	0	193462272	20	4874
2026-01-01 11:15:59.55	126.47	17.20	-29.3	-31.9	19.7	6.07e-01	0	43	0	195559424	20	4861
2026-01-01 11:16:00.56	126.36	17.32	-29.4	-32.1	19.6	6.06e-01	0	42	0	197132288	20	4928
2026-01-01 11:16:01.56	126.25	17.44	-29.5	-32.4	19.5	6.05e-01	0	42	0	199229440	20	5011
2026-01-01 11:16:02.56	126.14	17.56	-29.5	-32.4	19.4	6.06e-01	0	42	0	200802304	20	5038
2026-01-01 11:16:03.56	126.03	17.68	-29.5	-32.4	19.4	6.04e-01	0	42	0	202899456	20	5008
2026-01-01 11:16:04.57	125.91	17.80	-29.5	-32.5	19.4	6.07e-01	0	43	0	204472320	20	5047
2026-01-01 11:16:05.58	125.80	17.92	-29.7	-32.9	19.1	6.06e-01	0	43	0	206569472	20	5197
2026-01-01 11:16:06.58	125.69	18.05	-29.7	-33.0	19.1	6.04e-01	0	43	0	208666624	20	5221
2026-01-01 11:16:07.58	125.57	18.17	-29.8	-33.1	19.1	6.08e-01	0	42	0	210239488	20	5250
2026-01-01 11:16:08.59	125.45	18.29	-29.8	-33.1	19.1	6.10e-01	0	43	0	212336640	20	5256
2026-01-01 11:16:09.59	125.34	18.42	-29.6	-32.6	19.4	6.09e-01	0	43	0	213909504	20	5063
2026-01-01 11:16:10.60	125.22	18.55	-29.6	-32.4	19.5	6.08e-01	0	42	0	216006656	20	4990
2026-01-01 11:16:11.60	125.10	18.67	-29.6	-32.5	19.5	6.07e-01	0	42	0	218103808	20	5026
2026-01-01 11:16:12.61	124.98	18.80	-29.7	-32.6	19.4	6.06e-01	0	43	0	219676672	20	5063
2026-01-01 11:16:13.61	124.86	18.92	-29.6	-32.5	19.5	6.06e-01	0	43	0	221773824	20	5020
2026-01-01 11:16:14.61	124.73	19.05	-29.6	-32.4	19.6	6.05e-01	0	43	0	223346688	20	4994
2026-01-01 11:16:15.61	124.61	19.18	-29.7	-32.6	19.4	6.04e-01	0	43	0	225443840	20	5069
2026-01-01 11:16:16.61	124.49	19.31	-29.8	-32.9	19.3	6.07e-01	0	43	0	227016704	20	5181
2026-01-01 11:16:17.62	124.36	19.44	-29.7	-32.8	19.4	6.07e-01	0	43	0	229113856	20	5105
2026-01-01 11:16:18.62	124.23	19.57	-29.6	-32.4	19.6	6.07e-01	0	43	0	231211008	20	4983
2026-01-01 11:16:19.62	124.10	19.70	-29.5	-32.2	19.7	6.07e-01	0	43	0	232783872	20	4898
2026-01-01 11:16:20.62	123.97	19.83	-29.5	-32.3	19.7	6.07e-01	0	43	0	234881024	20	4939
2026-01-01 11:16:21.63	123.84	19.96	-29.5	-32.2	19.7	6.07e-01	0	43	0	236453888	20	4923
2026-01-01 11:16:22.63	123.71	20.09	-29.5	-32.2	19.8	6.05e-01	0	43	0	238551040	20	4902
2026-01-01 11:16:23.63	123.58	20.22	-29.6	-32.3	19.7	6.07e-01	0	43	0	240648192	20	4950
2026-01-01 11:16:24.63	123.44	20.36	-29.5	-32.2	19.7	6.08e-01	0	43	0	242221056	20	4921
2026-01-01 11:16:25.63	123.31	20.49	-29.5	-32.1	19.8	6.06e-01	0	43	0	244318208	20	4870
2026-01-01 11:16:26.64	123.17	20.63	-29.5	-32.2	19.8	6.05e-01	0	43	0	245891072	20	4884
2026-01-01 11:16:27.64	123.03	20.76	-29.5	-32.1	19.9	6.07e-01	0	43	0	247988224	20	4855
2026-01-01 11:16:28.64	122.89	20.90	-29.5	-32.1	19.9	6.07e-01	0	43	0	250085376	20	4862
2026-01-01 11:16:29.64	122.75	21.03	-29.5	-32.2	19.8	6.07e-01	0	43	0	251658240	20	4883
2026-01-01 11:16:30.65	122.61	21.17	-29.5	-32.1	19.8	6.07e-01	0	43	0	253755392	20	4860
2026-01-01 11:16:31.66	122.46	21.31	-29.6	-32.3	19.7	6.06e-01	0	43	0	255328256	20	4940
2026-01-01 11:16:32.65	122.32	21.45	-29.6	-32.3	19.7	6.07e-01	0	43	0	257425408	20	4941
2026-01-01 11:16:33.66	122.17	21.59	-29.6	-32.5	19.7	6.07e-01	0	43	0	258998272	20	4980
2026-01-01 11:16:34.66	122.03	21.72	-29.7	-32.7	19.6	6.05e-01	0	43	0	261095424	20	5051
2026-01-01 11:16:35.67	121.88	21.87	-29.8	-32.8	19.5	6.07e-01	0	43	0	263192576	20	5092
2026-01-01 11:16:36.67	121.73	22.01	-29.8	-32.9	19.4	6.05e-01	0	43	0	264765440	20	5147
2026-01-01 11:16:37.68	121.57	22.15	-29.9	-33.0	19.4	6.06e-01	0	43	0	266862592	20	5164
2026-01-01 11:16:38.68	121.42	22.29	-29.9	-33.0	19.3	6.05e-01	0	43	0	268435456	20	5183
2026-01-01 11:16:39.69	121.26	22.43	-30.0	-33.3	19.2	6.08e-01	0	43	0	270532608	20	5289
2026-01-01 11:16:40.69	121.11	22.58	-30.0	-33.4	19.2	6.07e-01	0	43	0	272629760	20	5311
2026-01-01 11:16:41.69	120.95	22.72	-30.0	-33.3	19.2	6.05e-01	0	43	0	274202624	20	5284
2026-01-01 11:16:42.69	120.79	22.87	-29.9	-33.2	19.3	6.06e-01	0	43	0	276299776	20	5228
2026-01-01 11:16:43.70	120.63	23.01	-29.9	-33.2	19.3	6.06e-01	0	43	0	277872640	20	5255
2026-01-01 11:16:44.70	120.46	23.16	-29.9	-33.1	19.3	6.05e-01	0	43	0	279969792	20	5199
2026-01-01 11:16:45.70	120.30	23.30	-29.8	-32.9	19.4	6.06e-01	0	43	0	282066944	20	5132
2026-01-01 11:16:46.71	120.13	23.45	-29.9	-33.0	19.5	6.07e-01	0	43	0	283639808	20	5145
2026-01-01 11:16:47.71	119.96	23.60	-30.0	-33.3	19.3	6.07e-01	0	43	0	285736960	20	5273
2026-01-01 11:16:48.71	119.80	23.75	-29.9	-33.1	19.4	6.07e-01	0	43	0	287309824	20	5189
2026-01-01 11:16:49.71	119.62	23.90	-29.8	-32.9	19.5	6.07e-01	0	43	0	289406976	20	5138
2026-01-01 11:16:50.72	119.45	24.05	-30.0	-33.3	19.3	6.05e-01	0	43	0	290979840	20	5262
2026-01-01 11:16:51.72	119.28	24.20	-30.0	-33.2	19.3	6.04e-01	0	43	0	293076992	20	5243
2026-01-01 11:16:52.72	119.10	24.35	-30.0	-33.3	19.2	6.07e-01	0	43	0	295174144	20	5293
2026-01-01 11:16:53.73	118.92	24.50	-30.0	-33.4	19.2	6.07e-01	0	43	0	296747008	20	5302
2026-01-01 11:16:54.73	118.74	24.66	-30.0	-33.3	19.2	6.07e-01	0	43	0	298844160	20	5273
2026-01-01 11:16:55.73	118.56	24.81	-29.9	-33.2	19.3	6.08e-01	0	43	0	300417024	20	5227
2026-01-01 11:16:56.74	118.37	24.96	-29.9	-33.1	19.4	6.08e-01	0	43	0	302514176	20	5207
2026-01-01 11:16:57.75	118.18	25.12	-29.9	-33.1	19.4	6.07e-01	0	43	0	304611328	20	5188
2026-01-01 11:16:58.74	118.00	25.27	-30.0	-33.2	19.3	6.07e-01	0	43	0	306184192	20	5248
2026-01-01 11:16:59.75	117.81	25.43	-29.9	-33.1	19.4	6.05e-01	0	43	0	308281344	20	5206
2026-01-01 11:17:00.75	117.62	25.59	-29.8	-32.9	19.5	6.09e-01	0	43	0	309854208	20	5144
2026-01-01 11:17:01.76	117.42	25.75	-29.8	-32.8	19.6	6.07e-01	0	43	0	311951360	20	5108
2026-01-01 11:17:02.77	117.22	25.91	-29.9	-33.1	19.4	6.03e-01	0	43	0	314048512	20	5195
2026-01-01 11:17:03.78	117.02	26.07	-29.8	-32.7	19.6	6.04e-01	0	43	0	315621376	20	5051
2026-01-01 11:17:04.78	116.83	26.22	-29.6	-32.3	19.9	6.06e-01	0	43	0	317718528	20	4927
2026-01-01 11:17:05.78	116.62	26.38	-29.6	-32.3	19.9	6.07e-01	0	43	0	319291392	20	4907
2026-01-01 11:17:06.79	116.42	26.55	-29.7	-32.5	19.8	6.07e-01	0	43	0	321388544	20	4978
2026-01-01 11:17:07.79	116.21	26.71	-29.7	-32.5	19.8	6.06e-01	0	43	0	323485696	20	4978
2026-01-01 11:17:08.79	116.00	26.87	-29.7	-32.5	19.8	6.06e-01	0	43	0	325058560	20	4979
2026-01-01 11:17:09.80	115.79	27.03	-29.8	-32.8	19.6	6.05e-01	0	43	0	327155712	20	5092
2026-01-01 11:17:10.80	115.58	27.19	-29.8	-32.8	19.6	6.05e-01	0	43	0	328728576	20	5075
2026-01-01 11:17:11.80	115.36	27.36	-29.8	-32.8	19.6	6.08e-01	0	43	0	330825728	20	5080
2026-01-01 11:17:12.80	115.15	27.52	-29.8	-32.9	19.6	6.05e-01	0	43	0	332398592	20	5131
2026-01-01 11:17:13.81	114.92	27.69	-29.7	-32.7	19.7	6.06e-01	0	43	0	334495744	20	5047
2026-01-01 11:17:14.81	114.70	27.85	-29.8	-32.7	19.6	6.05e-01	0	43	0	336592896	20	5071
2026-01-01 11:17:15.81	114.48	28.02	-29.5	-32.1	20.0	6.03e-01	0	43	0	338165760	20	4838
2026-01-01 11:17:16.82	114.25	28.19	-29.3	-31.5	20.4	6.05e-01	0	43	0	340262912	20	4641
2026-01-01 11:17:17.82	114.02	28.35	-29.2	-31.3	20.5	6.06e-01	0	43	0	341835776	20	4573
2026-01-01 11:17:18.83	113.78	28.52	-29.2	-31.3	20.5	6.05e-01	0	43	0	343932928	20	4589
2026-01-01 11:17:19.83	113.55	28.69	-29.1	-31.1	20.6	6.08e-01	0	43	0	346030080	20	4530
2026-01-01 11:17:20.83	113.31	28.86	-29.2	-31.2	20.6	6.06e-01	0	43	0	347602944	20	4556
2026-01-01 11:17:21.84	113.07	29.03	-29.3	-31.4	20.5	6.07e-01	0	43	0	349700096	20	4621
2026-01-01 11:17:22.84	112.83	29.20	-29.4	-31.8	20.3	6.06e-01	0	43	0	351272960	20	4732
2026-01-01 11:17:23.85	112.58	29.37	-29.4	-31.7	20.3	6.06e-01	0	43	0	353370112	20	4705
2026-01-01 11:17:24.85	112.33	29.54	-29.3	-31.5	20.4	6.06e-01	0	43	0	355467264	20	4652
2026-01-01 11:17:25.85	112.08	29.71	-29.2	-31.3	20.5	6.05e-01	0	43	0	357040128	20	4574
2026-01-01 11:17:26.86	111.83	29.89	-29.3	-31.5	20.4	6.08e-01	0	43	0	359137280	20	4657
2026-01-01 11:17:27.86	111.57	30.06	-29.2	-31.3	20.5	6.06e-01	0	43	0	360710144	20	4574
2026-01-01 11:17:28.87	111.31	30.23	-29.2	-31.3	20.6	6.07e-01	0	43	0	362807296	20	4569
2026-01-01 11:17:29.87	111.05	30.41	-29.4	-31.7	20.4	6.06e-01	0	43	0	364380160	20	4693
2026-01-01 11:17:30.87	110.78	30.58	-29.3	-31.6	20.4	6.07e-01	0	43	0	366477312	20	4680
2026-01-01 11:17:31.88	110.51	30.76	-29.4	-31.6	20.4	6.06e-01	0	43	0	368574464	20	4680
2026-01-01 11:17:32.87	110.24	30.93	-29.3	-31.6	20.4	6.06e-01	0	43	0	370147328	20	4674
2026-01-01 11:17:33.88	109.96	31.10	-29.3	-31.6	20.4	6.08e-01	0	43	0	372244480	20	4652
2026-01-01 11:17:34.88	109.69	31.28	-29.2	-31.2	20.6	6.05e-01	0	43	0	373817344	20	4539
2026-01-01 11:17:35.88	109.41	31.46	-29.2	-31.1	20.7	6.03e-01	0	43	0	375914496	20	4518
2026-01-01 11:17:36.88	109.12	31.63	-29.3	-31.5	20.5	6.05e-01	0	43	0	377487360	20	4635
2026-01-01 11:17:37.89	108.83	31.81	-29.3	-31.5	20.5	6.08e-01	0	43	0	379584512	20	4640
2026-01-01 11:17:38.89	108.54	31.99	-29.3	-31.5	20.5	6.07e-01	0	43	0	381681664	20	4635
2026-01-01 11:17:39.89	108.25	32.16	-29.3	-31.6	20.4	6.05e-01	0	43	0	383254528	20	4672
2026-01-01 11:17:40.90	107.95	32.34	-29.3	-31.6	20.4	6.09e-01	0	43	0	385351680	20	4670
2026-01-01 11:17:41.91	107.65	32.52	-29.6	-32.4	20.0	6.04e-01	0	43	0	387448832	20	4922
2026-01-01 11:17:42.91	107.34	32.70	-29.4	-31.7	20.4	6.07e-01	0	43	0	389021696	20	4710
2026-01-01 11:17:43.91	107.04	32.88	-29.2	-31.2	20.7	6.06e-01	0	43	0	391118848	20	4551
2026-01-01 11:17:44.91	106.73	33.06	-29.2	-31.3	20.7	6.06e-01	0	43	0	392691712	20	4556
2026-01-01 11:17:45.92	106.41	33.24	-29.4	-31.6	20.5	6.05e-01	0	43	0	394788864	20	4661
2026-01-01 11:17:46.92	106.09	33.41	-29.4	-31.8	20.4	6.09e-01	0	43	0	396361728	20	4725
2026-01-01 11:17:47.92	105.77	33.59	-29.5	-32.1	20.2	6.08e-01	0	43	0	398458880	20	4812
2026-01-01 11:17:48.93	105.44	33.77	-29.6	-32.2	20.1	6.08e-01	0	43	0	400556032	20	4869
2026-01-01 11:17:49.93	105.12	33.95	-29.7	-32.5	20.0	6.06e-01	0	43	0	402128896	20	4953
2026-01-01 11:17:50.94	104.78	34.13	-29.6	-32.2	20.2	6.05e-01	0	43	0	404226048	20	4840
2026-01-01 11:17:51.94	104.44	34.31	-29.6	-32.2	20.2	6.07e-01	0	43	0	405798912	20	4843
2026-01-01 11:17:52.95	104.10	34.49	-29.6	-32.3	20.1	6.07e-01	0	43	0	407896064	20	4879
2026-01-01 11:17:53.95	103.76	34.67	-29.7	-32.5	20.0	6.07e-01	0	43	0	409993216	20	4958
2026-01-01 11:17:54.96	103.41	34.85	-29.8	-32.7	19.9	6.06e-01	0	43	0	411566080	20	5016
2026-01-01 11:17:55.96	103.05	35.03	-30.0	-33.1	19.6	6.05e-01	0	43	0	413663232	20	5171
2026-01-01 11:17:56.96	102.70	35.21	-30.0	-33.2	19.6	6.06e-01	0	43	0	415236096	20	5202
2026-01-01 11:17:57.97	102.33	35.39	-30.0	-33.2	19.6	6.06e-01	0	43	0	417333248	20	5219
2026-01-01 11:17:58.97	101.97	35.57	-30.0	-33.1	19.7	6.07e-01	0	43	0	419430400	20	5162
2026-01-01 11:17:59.97	101.60	35.74	-29.9	-33.0	19.7	6.08e-01	0	43	0	421003264	20	5145
2026-01-01 11:18:00.97	101.23	35.92	-29.9	-33.0	19.7	6.05e-01	0	43	0	423100416	20	5149
2026-01-01 11:18:01.97	100.85	36.10	-30.3	-33.4	19.2	6.07e-01	0	43	0	424673280	21	5165
2026-01-01 11:18:02.97	100.47	36.27	-30.3	-33.6	19.0	6.05e-01	0	43	0	426770432	21	5229
2026-01-01 11:18:03.97	100.09	36.45	-30.3	-33.4	19.2	6.07e-01	0	43	0	428343296	21	5159
2026-01-01 11:18:04.97	99.70	36.63	-30.3	-33.5	19.1	6.09e-01	0	43	0	430440448	21	5213
2026-01-01 11:18:05.98	99.30	36.80	-30.2	-33.2	19.3	6.06e-01	0	43	0	432537600	21	5084
2026-01-01 11:18:06.98	98.91	36.98	-30.3	-33.5	19.2	6.06e-01	0	43	0	434110464	21	5181
2026-01-01 11:18:07.98	98.50	37.15	-30.4	-33.9	18.9	6.07e-01	0	43	0	436207616	21	5332
2026-01-01 11:18:08.98	98.10	37.33	-30.5	-34.0	18.9	6.07e-01	0	43	0	437780480	21	5374
2026-01-01 11:18:09.98	97.69	37.50	-30.4	-33.7	19.0	6.07e-01	0	43	0	439877632	21	5285
2026-01-01 11:18:10.99	97.27	37.67	-30.6	-34.3	18.7	6.09e-01	0	43	0	441450496	21	5498
2026-01-01 11:18:12.00	96.84	37.85	-30.5	-33.4	18.9	6.08e-01	0	43	0	443547648	22	5049
2026-01-01 11:18:13.00	96.42	38.02	-30.3	-33.0	19.2	6.06e-01	0	43	0	445644800	22	4886
2026-01-01 11:18:14.00	95.99	38.19	-30.5	-33.4	18.9	6.06e-01	0	43	0	447217664	22	5043
2026-01-01 11:18:15.00	95.55	38.36	-30.6	-33.7	18.7	6.06e-01	0	43	0	449314816	22	5176
2026-01-01 11:18:16.01	95.11	38.52	-30.7	-33.9	18.6	6.07e-01	0	43	0	451411968	22	5239
2026-01-01 11:18:17.00	94.67	38.69	-30.6	-33.8	18.7	6.08e-01	0	43	0	452984832	22	5192
2026-01-01 11:18:18.01	94.22	38.86	-30.5	-33.5	18.9	6.07e-01	0	43	0	455081984	22	5060
2026-01-01 11:18:19.01	93.77	39.02	-30.6	-33.7	18.8	6.07e-01	0	43	0	456654848	22	5159
2026-01-01 11:18:20.02	93.31	39.19	-30.7	-33.9	18.6	6.06e-01	0	43	0	458752000	22	5237
2026-01-01 11:18:21.02	92.84	39.35	-30.8	-34.3	18.4	6.06e-01	0	43	0	460324864	22	5366
2026-01-01 11:18:22.02	92.38	39.51	-30.7	-33.9	18.6	6.08e-01	0	43	0	462422016	22	5218
2026-01-01 11:18:23.03	91.90	39.67	-30.5	-33.6	18.8	6.05e-01	0	43	0	464519168	22	5108
2026-01-01 11:18:24.03	91.43	39.83	-30.6	-33.7	18.7	6.05e-01	0	43	0	466092032	22	5154
2026-01-01 11:18:25.03	90.95	39.98	-30.5	-33.5	18.9	6.08e-01	0	43	0	468189184	22	5070
2026-01-01 11:18:26.04	90.45	40.14	-30.6	-33.7	18.8	6.07e-01	0	43	0	469762048	22	5161
2026-01-01 11:18:27.04	89.96	40.29	-30.6	-33.7	18.7	6.06e-01	0	43	0	471859200	22	5155
2026-01-01 11:18:28.04	89.47	40.45	-30.5	-33.3	19.0	6.06e-01	0	43	0	473432064	22	5022
2026-01-01 11:18:29.04	88.97	40.60	-30.4	-33.1	19.1	6.06e-01	0	43	0	475529216	22	4939
2026-01-01 11:18:30.05	88.46	40.75	-30.5	-33.4	19.0	6.05e-01	0	43	0	477626368	22	5027
2026-01-01 11:18:31.05	87.95	40.89	-30.5	-33.4	18.9	6.08e-01	0	43	0	479199232	22	5033
2026-01-01 11:18:32.05	87.44	41.04	-30.4	-33.2	19.1	6.06e-01	0	43	0	481296384	22	4966
2026-01-01 11:18:33.05	86.92	41.18	-30.4	-33.3	19.0	6.06e-01	0	43	0	482869248	22	5007
2026-01-01 11:18:34.05	86.40	41.32	-30.7	-33.9	18.6	6.06e-01	0	43	0	484966400	22	5229
2026-01-01 11:18:35.06	85.86	41.46	-30.5	-33.3	19.0	6.08e-01	0	43	0	487063552	22	5022
2026-01-01 11:18:36.06	85.33	41.59	-30.5	-33.4	18.9	6.06e-01	0	43	0	488636416	22	5029
2026-01-01 11:18:37.07	84.79	41.73	-30.3	-33.0	19.2	6.06e-01	0	43	0	490733568	22	4892
2026-01-01 11:18:38.07	84.25	41.86	-30.6	-33.6	18.9	6.08e-01	0	43	0	492306432	22	5110
2026-01-01 11:18:39.07	83.70	41.99	-30.5	-33.4	19.0	6.05e-01	0	43	0	494403584	22	5023
2026-01-01 11:18:40.08	83.14	42.12	-30.4	-33.2	19.1	6.08e-01	0	43	0	496500736	22	4968
2026-01-01 11:18:41.09	82.58	42.24	-30.5	-33.5	18.9	6.04e-01	0	43	0	498073600	22	5089
2026-01-01 11:18:42.10	82.02	42.36	-30.5	-33.6	18.8	6.06e-01	0	43	0	500170752	22	5104
2026-01-01 11:18:43.10	81.46	42.48	-30.4	-33.2	19.0	6.07e-01	0	43	0	501743616	22	4979
2026-01-01 11:18:44.10	80.89	42.60	-30.2	-32.7	19.3	6.04e-01	0	43	0	503840768	22	4801
2026-01-01 11:18:45.10	80.32	42.71	-30.3	-32.9	19.3	6.08e-01	0	43	0	505937920	22	4865
2026-01-01 11:18:46.11	79.74	42.82	-30.4	-33.2	19.0	6.07e-01	0	43	0	507510784	22	4975
2026-01-01 11:18:47.12	79.15	42.93	-30.4	-33.1	19.1	6.05e-01	0	43	0	509607936	22	4938
2026-01-01 11:18:48.12	78.57	43.03	-30.3	-32.8	19.2	6.06e-01	0	43	0	511180800	22	4836
2026-01-01 11:18:49.12	77.98	43.14	-30.1	-32.4	19.6	6.06e-01	0	43	0	513277952	22	4679
2026-01-01 11:18:50.12	77.39	43.23	-30.1	-32.4	19.6	6.05e-01	0	43	0	514850816	22	4680
2026-01-01 11:18:51.12	76.79	43.33	-30.1	-32.5	19.5	6.09e-01	0	43	0	516947968	22	4726
2026-01-01 11:18:52.12	76.20	43.42	-30.3	-32.9	19.2	6.06e-01	0	43	0	519045120	22	4875
2026-01-01 11:18:53.11	75.60	43.51	-30.2	-32.6	19.4	6.06e-01	0	43	0	520617984	22	4771
2026-01-01 11:18:54.12	74.99	43.59	-30.2	-32.6	19.5	6.07e-01	0	43	0	522715136	22	4743
2026-01-01 11:18:55.12	74.38	43.68	-30.2	-32.8	19.4	6.06e-01	0	43	0	524288000	22	4816
2026-01-01 11:18:56.13	73.76	43.76	-30.5	-33.3	19.0	6.07e-01	0	43	0	526385152	22	5009
2026-01-01 11:18:57.13	73.15	43.83	-30.2	-32.7	19.4	6.06e-01	0	43	0	527958016	22	4798
2026-01-01 11:18:58.14	72.52	43.90	-30.1	-32.4	19.5	6.06e-01	0	43	0	530055168	22	4701
2026-01-01 11:18:59.14	71.90	43.97	-30.2	-32.8	19.3	6.08e-01	0	43	0	532152320	22	4814
2026-01-01 11:19:00.14	71.28	44.03	-30.1	-32.3	19.6	6.08e-01	0	43	0	533725184	22	4653
2026-01-01 11:19:01.15	70.65	44.10	-30.2	-32.7	19.4	6.07e-01	0	43	0	535822336	22	4786
2026-01-01 11:19:02.15	70.02	44.15	-30.3	-32.8	19.3	6.06e-01	0	43	0	537919488	22	4820
2026-01-01 11:19:03.15	69.39	44.21	-30.2	-32.5	19.5	6.09e-01	0	43	0	539492352	22	4727
2026-01-01 11:19:04.14	68.77	44.26	-30.6	-33.8	18.7	6.08e-01	0	43	0	541589504	22	5168
2026-01-01 11:19:05.15	68.13	44.30	-30.3	-32.9	19.2	6.06e-01	0	43	0	543162368	22	4870
2026-01-01 11:19:06.15	67.49	44.34	-30.1	-32.4	19.5	6.08e-01	0	43	0	545259520	22	4700
2026-01-01 11:19:07.15	66.86	44.38	-29.8	-32.2	20.0	6.06e-01	0	43	0	546832384	21	4725
2026-01-01 11:19:08.16	66.21	44.42	-29.9	-32.3	19.9	6.07e-01	0	43	0	548929536	21	4779
2026-01-01 11:19:09.16	65.57	44.45	-30.2	-33.1	19.4	6.08e-01	0	43	0	551026688	21	5035
2026-01-01 11:19:10.16	64.93	44.47	-30.0	-32.7	19.6	6.07e-01	0	43	0	552599552	21	4902
2026-01-01 11:19:11.16	64.29	44.49	-29.7	-32.0	20.1	6.06e-01	0	43	0	554696704	21	4654
2026-01-01 11:19:12.17	63.64	44.51	-30.1	-32.8	19.6	6.07e-01	0	43	0	556269568	21	4940
2026-01-01 11:19:13.17	63.00	44.53	-30.0	-32.5	19.7	6.07e-01	0	43	0	558366720	21	4840
2026-01-01 11:19:14.18	62.35	44.54	-29.7	-32.0	20.1	6.07e-01	0	43	0	559939584	21	4664
2026-01-01 11:19:15.18	61.70	44.54	-29.9	-32.4	19.8	6.05e-01	0	43	0	562036736	21	4803
2026-01-01 11:19:16.19	61.05	44.55	-29.7	-32.0	20.1	6.06e-01	0	43	0	564133888	21	4654
2026-01-01 11:19:17.19	60.41	44.55	-29.9	-32.4	19.8	6.05e-01	0	43	0	565706752	21	4816
2026-01-01 11:19:18.19	59.76	44.54	-29.7	-31.9	20.1	6.06e-01	0	43	0	567803904	21	4647
2026-01-01 11:19:19.20	59.11	44.53	-29.6	-31.7	20.2	6.07e-01	0	43	0	569901056	21	4581
2026-01-01 11:19:20.19	58.48	44.52	-29.8	-32.1	20.0	6.06e-01	0	43	0	571473920	21	4706
2026-01-01 11:19:21.20	57.83	44.50	-29.6	-31.5	20.3	6.07e-01	0	43	0	573571072	21	4515
2026-01-01 11:19:22.20	57.19	44.48	-29.8	-32.2	20.0	6.06e-01	0	43	0	575143936	21	4718
2026-01-01 11:19:23.21	56.54	44.45	-29.7	-32.0	20.1	6.07e-01	0	43	0	577241088	21	4655
2026-01-01 11:19:24.21	55.90	44.42	-29.6	-31.7	20.3	6.06e-01	0	43	0	578813952	21	4562
2026-01-01 11:19:25.22	55.25	44.39	-29.9	-32.5	19.8	6.09e-01	0	43	0	580911104	21	4816
2026-01-01 11:19:26.22	54.62	44.35	-29.8	-32.2	19.9	6.07e-01	0	43	0	583008256	21	4749
2026-01-01 11:19:27.22	53.98	44.31	-29.5	-31.5	20.4	6.05e-01	0	43	0	584581120	21	4513
2026-01-01 11:19:28.23	53.34	44.27	-29.7	-31.8	20.2	6.06e-01	0	43	0	586678272	21	4607
2026-01-01 11:19:29.23	52.71	44.22	-29.8	-32.1	20.0	6.07e-01	0	43	0	588251136	21	4711
2026-01-01 11:19:30.23	52.08	44.16	-29.7	-31.8	20.1	6.07e-01	0	43	0	590348288	21	4612
2026-01-01 11:19:31.24	51.45	44.11	-29.7	-31.9	20.1	6.07e-01	0	43	0	591921152	21	4640
2026-01-01 11:19:32.24	50.82	44.05	-29.8	-32.2	19.9	6.06e-01	0	43	0	594018304	21	4749
2026-01-01 11:19:33.24	50.20	43.98	-29.7	-31.9	20.1	6.05e-01	0	43	0	596115456	21	4654
2026-01-01 11:19:34.24	49.58	43.92	-29.6	-31.6	20.3	6.06e-01	0	43	0	597688320	21	4547
2026-01-01 11:19:35.25	48.96	43.85	-29.5	-31.5	20.3	6.06e-01	0	43	0	599785472	21	4511
2026-01-01 11:19:36.25	48.34	43.77	-29.5	-31.5	20.4	6.05e-01	0	43	0	601358336	21	4501
2026-01-01 11:19:37.25	47.73	43.69	-29.7	-32.0	20.1	6.05e-01	0	43	0	603455488	21	4662
2026-01-01 11:19:38.25	47.12	43.61	-29.6	-31.7	20.2	6.06e-01	0	43	0	605552640	21	4585
2026-01-01 11:19:39.26	46.51	43.53	-29.5	-31.3	20.4	6.08e-01	0	43	0	607125504	21	4453
2026-01-01 11:19:40.26	45.91	43.44	-29.6	-31.6	20.2	6.08e-01	0	43	0	609222656	21	4561
2026-01-01 11:19:41.26	45.31	43.35	-29.5	-31.3	20.4	6.05e-01	0	43	0	610795520	21	4455
2026-01-01 11:19:42.26	44.72	43.25	-29.6	-31.5	20.3	6.05e-01	0	43	0	612892672	21	4527
2026-01-01 11:19:43.27	44.12	43.16	-29.4	-31.2	20.5	6.05e-01	0	43	0	614989824	21	4418
2026-01-01 11:19:44.28	43.53	43.05	-29.6	-31.7	20.2	6.06e-01	0	43	0	616562688	21	4580
2026-01-01 11:19:45.28	42.94	42.95	-29.5	-31.5	20.3	6.06e-01	0	43	0	618659840	21	4519
2026-01-01 11:19:46.28	42.36	42.84	-29.3	-31.4	20.7	6.06e-01	0	43	0	620232704	20	4590
2026-01-01 11:19:47.29	41.78	42.73	-29.6	-32.2	20.2	6.06e-01	0	43	0	622329856	20	4858
2026-01-01 11:19:48.30	41.21	42.62	-29.6	-32.2	20.2	6.07e-01	0	43	0	624427008	20	4865
2026-01-01 11:19:49.30	40.64	42.51	-29.6	-32.2	20.2	6.04e-01	0	43	0	625999872	20	4842
2026-01-01 11:19:50.31	40.07	42.39	-29.5	-32.0	20.3	6.06e-01	0	43	0	628097024	20	4773
2026-01-01 11:19:51.31	39.51	42.27	-29.7	-32.4	20.1	6.07e-01	0	43	0	629669888	20	4901
2026-01-01 11:19:52.32	38.95	42.14	-30.2	-33.1	19.4	6.05e-01	0	43	0	631767040	21	5044
2026-01-01 11:19:53.31	38.41	42.02	-29.8	-32.2	19.8	6.06e-01	0	43	0	633339904	21	4749
2026-01-01 11:19:54.32	37.86	41.89	-29.5	-31.4	20.4	6.08e-01	0	43	0	635437056	21	4473
2026-01-01 11:19:55.33	37.31	41.76	-29.6	-31.8	20.2	6.08e-01	0	43	0	637534208	21	4601
2026-01-01 11:19:56.33	36.77	41.62	-29.6	-31.7	20.1	6.07e-01	0	43	0	639107072	21	4582
2026-01-01 11:19:57.33	36.24	41.49	-29.7	-31.8	20.1	6.07e-01	0	43	0	641204224	21	4612
2026-01-01 11:19:58.34	35.71	41.35	-29.7	-31.9	20.0	6.05e-01	0	43	0	642777088	21	4657
2026-01-01 11:19:59.34	35.18	41.21	-29.6	-31.6	20.3	6.06e-01	0	43	0	644874240	21	4542
2026-01-01 11:20:00.35	34.66	41.07	-29.9	-32.4	19.8	6.09e-01	0	43	0	646971392	21	4814
2026-01-01 11:20:01.36	34.14	40.92	-29.8	-32.2	19.9	6.00e-01	0	43	0	648544256	21	4723
2026-01-01 11:20:02.36	33.63	40.78	-29.9	-32.3	19.8	6.02e-01	0	43	0	650641408	21	4782
2026-01-01 11:20:03.36	33.13	40.63	-30.1	-33.0	19.4	6.01e-01	0	43	0	652214272	21	5007
2026-01-01 11:20:04.36	32.63	40.48	-30.0	-32.7	19.6	6.03e-01	0	43	0	654311424	21	4899
2026-01-01 11:20:05.36	32.14	40.33	-30.1	-32.8	19.5	6.03e-01	0	43	0	656408576	21	4956
2026-01-01 11:20:06.37	31.64	40.18	-30.6	-33.9	18.5	6.01e-01	0	43	0	657981440	22	5248
2026-01-01 11:20:07.37	31.16	40.02	-30.3	-33.0	19.1	6.03e-01	0	43	0	660078592	22	4919
2026-01-01 11:20:08.37	30.68	39.87	-30.1	-32.5	19.4	6.02e-01	0	43	0	661651456	22	4723
2026-01-01 11:20:09.38	30.20	39.71	-30.0	-32.2	19.5	6.01e-01	0	43	0	663748608	22	4638
2026-01-01 11:20:10.38	29.72	39.55	-30.1	-32.4	19.5	6.04e-01	0	43	0	665321472	22	4699
2026-01-01 11:20:11.38	29.26	39.39	-30.5	-33.5	18.8	6.00e-01	0	43	0	667418624	22	5104
2026-01-01 11:20:12.39	28.79	39.23	-30.5	-33.6	18.7	6.01e-01	0	43	0	669515776	22	5118
2026-01-01 11:20:13.39	28.34	39.07	-30.4	-33.2	18.9	6.00e-01	0	43	0	671088640	22	4990
2026-01-01 11:20:14.39	27.88	38.90	-30.5	-33.5	18.7	6.01e-01	0	43	0	673185792	22	5085
2026-01-01 11:20:15.39	27.44	38.74	-30.6	-33.7	18.7	6.01e-01	0	43	0	675282944	22	5158
2026-01-01 11:20:16.40	26.99	38.57	-30.7	-34.0	18.5	6.00e-01	0	43	0	676855808	22	5275
2026-01-01 11:20:17.40	26.55	38.40	-30.8	-34.4	18.2	6.00e-01	0	43	0	678952960	22	5437
2026-01-01 11:20:18.41	26.11	38.23	-30.9	-34.5	18.1	6.01e-01	0	43	0	680525824	22	5486
2026-01-01 11:20:19.41	25.68	38.06	-30.5	-33.4	18.8	6.00e-01	0	43	0	682622976	22	5057
2026-01-01 11:20:20.42	25.26	37.89	-30.6	-33.7	18.6	6.01e-01	0	43	0	684195840	22	5168
2026-01-01 11:20:21.42	24.84	37.72	-30.8	-34.4	18.2	5.99e-01	0	43	0	686292992	22	5437
2026-01-01 11:20:22.43	24.42	37.55	-30.8	-34.3	18.3	6.01e-01	0	43	0	688390144	22	5392
2026-01-01 11:20:23.44	24.00	37.37	-30.7	-34.1	18.4	6.02e-01	0	43	0	689963008	22	5317
2026-01-01 11:20:24.44	23.60	37.20	-30.5	-33.5	18.7	5.98e-01	0	43	0	692060160	22	5099
2026-01-01 11:20:25.44	23.19	37.03	-30.1	-32.4	19.5	6.02e-01	0	43	0	693633024	22	4688
2026-01-01 11:20:26.45	22.79	36.85	-30.0	-32.1	19.6	6.05e-01	0	43	0	695730176	22	4603
2026-01-01 11:20:27.45	22.40	36.68	-30.3	-32.9	19.1	6.03e-01	0	43	0	697827328	22	4876
2026-01-01 11:20:28.46	22.01	36.50	-30.3	-33.1	18.9	6.00e-01	0	43	0	699400192	22	4936
2026-01-01 11:20:29.46	21.62	36.33	-30.1	-32.5	19.3	6.02e-01	0	43	0	701497344	22	4741
2026-01-01 11:20:30.47	21.24	36.15	-30.2	-32.7	19.3	6.01e-01	0	43	0	703070208	22	4789
2026-01-01 11:20:31.47	20.86	35.97	-30.2	-32.8	19.2	5.98e-01	0	43	0	705167360	22	4826
2026-01-01 11:20:32.47	20.49	35.80	-30.4	-33.2	18.9	6.03e-01	0	43	0	706740224	22	5004
2026-01-01 11:20:33.47	20.12	35.62	-30.4	-33.3	18.8	6.00e-01	0	43	0	708837376	22	5024
2026-01-01 11:20:34.46	19.77	35.44	-30.0	-32.2	19.5	6.00e-01	0	43	0	710934528	22	4652
2026-01-01 11:20:35.47	19.40	35.26	-29.7	-32.0	19.9	6.02e-01	0	43	0	712507392	21	4693
2026-01-01 11:20:36.48	19.04	35.08	-29.8	-32.2	19.8	6.03e-01	0	43	0	714604544	21	4748
2026-01-01 11:20:37.48	18.69	34.91	-29.9	-32.4	19.7	6.01e-01	0	43	0	716177408	21	4821
2026-01-01 11:20:38.48	18.35	34.73	-29.9	-32.6	19.5	6.03e-01	0	43	0	718274560	21	4899
2026-01-01 11:20:39.49	18.00	34.55	-29.8	-32.2	19.8	6.04e-01	0	43	0	720371712	21	4754
2026-01-01 11:20:40.49	17.66	34.37	-29.8	-32.1	19.8	6.00e-01	0	43	0	721944576	21	4723
2026-01-01 11:20:41.49	17.32	34.19	-29.9	-32.6	19.6	6.03e-01	0	43	0	724041728	21	4895
2026-01-01 11:20:42.49	16.99	34.01	-29.8	-32.3	19.6	6.02e-01	0	43	0	725614592	21	4806
2026-01-01 11:20:43.49	16.66	33.84	-29.7	-31.9	19.9	6.00e-01	0	43	0	727711744	21	4660
2026-01-01 11:20:44.49	16.34	33.66	-29.8	-32.3	19.7	6.01e-01	0	43	0	729284608	21	4799
2026-01-01 11:20:45.49	16.02	33.48	-30.1	-33.0	19.2	5.99e-01	0	43	0	731381760	21	5026
2026-01-01 11:20:46.49	15.70	33.30	-30.1	-32.9	19.3	6.03e-01	0	43	0	733478912	21	4999
2026-01-01 11:20:47.50	15.38	33.12	-30.2	-33.2	19.1	6.01e-01	0	43	0	735051776	21	5103
2026-01-01 11:20:48.50	15.07	32.95	-30.1	-33.1	19.2	6.02e-01	0	43	0	737148928	21	5065
2026-01-01 11:20:49.51	14.76	32.77	-29.9	-32.6	19.5	6.03e-01	0	43	0	738721792	21	4897
2026-01-01 11:20:50.51	14.46	32.59	-29.6	-31.8	20.0	6.02e-01	0	43	0	740818944	21	4635
2026-01-01 11:20:51.51	14.16	32.41	-29.4	-31.6	20.3	6.03e-01	0	43	0	742916096	20	4667
2026-01-01 11:20:52.51	13.87	32.24	-29.5	-32.1	20.1	5.99e-01	0	43	0	744488960	20	4829
2026-01-01 11:20:53.50	13.58	32.06	-29.7	-32.6	19.7	6.01e-01	0	43	0	746586112	20	5002
2026-01-01 11:20:54.51	13.28	31.89	-29.5	-32.0	20.1	6.00e-01	0	43	0	748158976	20	4785
2026-01-01 11:20:55.51	13.00	31.71	-29.4	-31.8	20.2	6.02e-01	0	43	0	750256128	20	4732
2026-01-01 11:20:56.51	12.71	31.53	-29.6	-32.3	19.9	6.00e-01	0	43	0	751828992	20	4891
2026-01-01 11:20:57.52	12.43	31.36	-29.8	-32.8	19.6	6.00e-01	0	43	0	753926144	20	5100
2026-01-01 11:20:58.52	12.15	31.18	-29.7	-32.4	19.8	6.03e-01	0	43	0	756023296	20	4939
2026-01-01 11:20:59.52	11.88	31.01	-29.3	-31.5	20.4	6.01e-01	0	43	0	757596160	20	4643
2026-01-01 11:21:00.52	11.61	30.84	-29.6	-32.2	20.0	6.05e-01	0	43	0	759693312	20	4876
2026-01-01 11:21:01.53	11.34	30.66	-29.8	-32.9	19.5	6.01e-01	0	43	0	761266176	20	5106
2026-01-01 11:21:02.53	11.08	30.49	-29.9	-33.0	19.5	6.01e-01	0	43	0	763363328	20	5142
2026-01-01 11:21:03.54	10.81	30.31	-29.7	-32.4	19.8	6.02e-01	0	43	0	765460480	20	4936
2026-01-01 11:21:04.54	10.55	30.14	-29.5	-31.9	20.1	6.01e-01	0	43	0	767033344	20	4777
2026-01-01 11:21:05.54	10.30	29.97	-29.5	-32.0	20.1	6.01e-01	0	43	0	769130496	20	4816
2026-01-01 11:21:06.54	10.04	29.80	-29.6	-32.2	20.0	6.02e-01	0	43	0	770703360	20	4866
2026-01-01 11:21:07.54	9.79	29.63	-29.6	-32.3	19.9	5.99e-01	0	43	0	772800512	20	4925
2026-01-01 11:21:08.54	9.55	29.46	-29.5	-32.1	20.0	6.04e-01	0	43	0	774373376	20	4850
2026-01-01 11:21:09.54	9.30	29.29	-29.4	-31.9	20.1	6.01e-01	0	43	0	776470528	20	4769
2026-01-01 11:21:10.55	9.06	29.12	-29.5	-32.1	20.0	6.01e-01	0	43	0	778567680	20	4860
2026-01-01 11:21:11.55	8.82	28.95	-29.5	-32.0	20.0	6.00e-01	0	43	0	780140544	20	4809
2026-01-01 11:21:12.55	8.58	28.78	-29.3	-31.6	20.2	5.99e-01	0	43	0	782237696	20	4689
2026-01-01 11:21:13.55	8.35	28.61	-29.4	-31.8	20.2	6.03e-01	0	43	0	783810560	20	4740
2026-01-01 11:21:14.56	8.11	28.44	-29.6	-32.2	19.9	6.00e-01	0	43	0	785907712	20	4876
2026-01-01 11:21:15.56	7.88	28.28	-29.6	-32.3	19.8	6.00e-01	0	43	0	788004864	20	4919
2026-01-01 11:21:16.56	7.66	28.11	-29.7	-32.5	19.7	6.01e-01	0	43	0	789577728	20	4992
2026-01-01 11:21:17.56	7.43	27.95	-29.6	-32.2	19.9	6.01e-01	0	43	0	791674880	20	4889
2026-01-01 11:21:18.57	7.21	27.78	-29.4	-31.7	20.2	6.00e-01	0	43	0	793247744	20	4701
2026-01-01 11:21:19.57	6.99	27.62	-29.3	-31.6	20.2	6.02e-01	0	43	0	795344896	20	4689
2026-01-01 11:21:20.57	6.77	27.45	-29.4	-31.8	20.1	6.02e-01	0	43	0	796917760	20	4762
2026-01-01 11:21:21.58	6.56	27.29	-29.5	-32.1	19.9	6.02e-01	0	43	0	799014912	20	4845
2026-01-01 11:21:22.58	6.34	27.13	-29.7	-32.6	19.7	6.02e-01	0	43	0	801112064	20	5013
2026-01-01 11:21:23.59	6.13	26.96	-29.7	-32.5	19.7	6.03e-01	0	43	0	802684928	20	4982
2026-01-01 11:21:24.60	5.92	26.80	-29.5	-32.1	19.9	6.05e-01	0	43	0	804782080	20	4854
2026-01-01 11:21:25.60	5.72	26.64	-29.6	-32.2	19.8	6.02e-01	0	43	0	806879232	20	4892
2026-01-01 11:21:26.59	5.51	26.48	-29.6	-32.3	19.7	6.00e-01	0	43	0	808452096	20	4916
2026-01-01 11:21:27.60	5.31	26.32	-29.6	-32.2	19.7	6.01e-01	0	43	0	810549248	20	4900
2026-01-01 11:21:28.61	5.11	26.16	-29.4	-31.9	20.0	6.01e-01	0	43	0	812122112	20	4773
2026-01-01 11:21:29.61	4.91	26.01	-29.3	-31.6	20.1	6.03e-01	0	43	0	814219264	20	4693
2026-01-01 11:21:30.61	4.72	25.85	-29.5	-32.0	19.9	6.01e-01	0	43	0	815792128	20	4828
2026-01-01 11:21:31.61	4.52	25.69	-29.6	-32.4	19.7	6.00e-01	0	43	0	817889280	20	4966
2026-01-01 11:21:32.61	4.33	25.54	-29.8	-32.8	19.5	6.02e-01	0	43	0	819986432	20	5103
2026-01-01 11:21:33.61	4.14	25.38	-29.8	-32.8	19.4	6.01e-01	0	43	0	821559296	20	5114
2026-01-01 11:21:34.61	3.96	25.23	-29.7	-32.7	19.5	6.01e-01	0	43	0	823656448	20	5051
2026-01-01 11:21:35.61	3.77	25.07	-29.8	-32.9	19.4	6.00e-01	0	43	0	825229312	20	5119
2026-01-01 11:21:36.62	3.59	24.92	-29.7	-32.6	19.5	6.01e-01	0	43	0	827326464	20	5015
2026-01-01 11:21:37.62	3.41	24.77	-29.5	-32.1	19.8	5.99e-01	0	43	0	828899328	20	4862
2026-01-01 11:21:38.62	3.23	24.61	-29.5	-32.1	19.8	6.01e-01	0	43	0	830996480	20	4866
2026-01-01 11:21:39.63	3.05	24.46	-29.7	-32.5	19.6	6.00e-01	0	43	0	833093632	20	4997
2026-01-01 11:21:40.63	2.87	24.31	-29.9	-33.1	19.2	6.04e-01	0	43	0	834666496	20	5219
2026-01-01 11:21:41.63	2.70	24.16	-29.8	-32.8	19.3	6.02e-01	0	43	0	836763648	20	5126
2026-01-01 11:21:42.63	2.52	24.01	-29.7	-32.6	19.5	5.99e-01	0	43	0	838336512	20	5021
2026-01-01 11:21:43.64	2.35	23.86	-29.6	-32.2	19.7	6.01e-01	0	43	0	840433664	20	4907
2026-01-01 11:21:44.64	2.18	23.71	-29.6	-32.3	19.7	6.02e-01	0	43	0	842530816	20	4937
2026-01-01 11:21:45.65	2.01	23.57	-29.6	-32.4	19.6	6.01e-01	0	43	0	844103680	20	4975
2026-01-01 11:21:46.66	1.85	23.42	-29.8	-32.8	19.4	6.02e-01	0	43	0	846200832	20	5097
2026-01-01 11:21:47.66	1.68	23.27	-29.8	-32.9	19.3	6.02e-01	0	43	0	847773696	20	5135
2026-01-01 11:21:48.66	1.52	23.13	-29.9	-33.0	19.2	6.03e-01	0	43	0	849870848	20	5193
2026-01-01 11:21:49.66	1.36	22.98	-29.8	-32.9	19.3	6.00e-01	0	43	0	851968000	20	5141
2026-01-01 11:21:50.67	1.20	22.84	-29.7	-32.8	19.4	6.00e-01	0	43	0	853540864	20	5092
2026-01-01 11:21:51.67	1.04	22.69	-29.8	-32.8	19.3	5.98e-01	0	43	0	855638016	20	5117
2026-01-01 11:21:52.67	0.89	22.55	-29.8	-32.8	19.3	6.03e-01	0	43	0	857210880	20	5119
2026-01-01 11:21:53.66	0.73	22.41	-29.9	-33.2	19.1	6.00e-01	0	43	0	859308032	20	5258
2026-01-01 11:21:54.66	0.58	22.27	-29.8	-33.0	19.2	6.00e-01	0	43	0	860880896	20	5178
2026-01-01 11:21:55.67	0.43	22.13	-29.6	-32.4	19.6	6.02e-01	0	43	0	862978048	20	4959
2026-01-01 11:21:56.67	0.28	21.99	-29.5	-32.2	19.7	6.02e-01	0	43	0	865075200	20	4899
2026-01-01 11:21:57.68	0.13	21.84	-29.6	-32.5	19.5	6.00e-01	0	43	0	866648064	20	4990
2026-01-01 11:21:58.68	359.98	21.71	-29.7	-32.6	19.4	6.01e-01	0	43	0	868745216	20	5033
2026-01-01 11:21:59.68	359.84	21.57	-29.8	-32.8	19.3	6.01e-01	0	43	0	870318080	20	5135
2026-01-01 11:22:00.67	359.69	21.43	-29.8	-32.9	19.2	6.06e-01	0	43	0	872415232	20	5151
2026-01-01 11:22:01.67	359.55	21.29	-29.6	-32.5	19.4	6.03e-01	0	43	0	873988096	20	5014
2026-01-01 11:22:02.67	359.41	21.16	-29.6	-32.4	19.5	6.03e-01	0	43	0	876085248	20	4963
2026-01-01 11:22:03.68	359.27	21.02	-29.6	-32.3	19.6	6.02e-01	0	43	0	878182400	20	4938
2026-01-01 11:22:04.68	359.13	20.89	-29.6	-32.5	19.5	5.99e-01	0	43	0	879755264	20	4999
2026-01-01 11:22:05.68	358.99	20.75	-29.6	-32.5	19.4	6.02e-01	0	43	0	881852416	20	5032
2026-01-01 11:22:06.69	358.85	20.62	-29.7	-32.6	19.4	6.01e-01	0	43	0	883425280	20	5044
2026-01-01 11:22:07.69	358.72	20.48	-29.6	-32.6	19.4	6.04e-01	0	43	0	885522432	20	5044
2026-01-01 11:22:08.69	358.58	20.35	-29.6	-32.4	19.5	6.02e-01	0	43	0	887619584	20	4987
2026-01-01 11:22:09.70	358.45	20.22	-29.5	-32.1	19.6	6.04e-01	0	43	0	889192448	20	4869
2026-01-01 11:22:10.70	358.32	20.09	-29.4	-32.0	19.8	6.01e-01	0	43	0	891289600	20	4819
2026-01-01 11:22:11.70	358.19	19.95	-29.5	-32.1	19.7	5.99e-01	0	43	0	892862464	20	4879
2026-01-01 11:22:12.70	358.06	19.82	-29.4	-31.9	19.8	6.02e-01	0	43	0	894959616	20	4802
2026-01-01 11:22:13.71	357.93	19.69	-29.4	-31.9	19.7	6.02e-01	0	43	0	897056768	20	4817
2026-01-01 11:22:14.71	357.80	19.56	-29.5	-32.1	19.6	6.01e-01	0	43	0	898629632	20	4884
2026-01-01 11:22:15.72	357.68	19.43	-29.6	-32.5	19.5	6.00e-01	0	43	0	900726784	20	5003
2026-01-01 11:22:16.72	357.55	19.31	-29.6	-32.5	19.4	6.00e-01	0	43	0	902299648	20	5034
2026-01-01 11:22:17.73	357.43	19.18	-29.7	-32.7	19.3	6.01e-01	0	43	0	904396800	20	5076
2026-01-01 11:22:18.73	357.31	19.05	-29.8	-33.0	19.1	6.04e-01	0	43	0	905969664	20	5196
2026-01-01 11:22:19.73	357.19	18.93	-29.9	-33.4	18.8	6.00e-01	0	43	0	908066816	20	5353
2026-01-01 11:22:20.73	357.07	18.80	-29.8	-33.0	19.0	5.99e-01	0	43	0	910163968	20	5211
2026-01-01 11:22:21.74	356.95	18.67	-29.7	-32.7	19.2	6.01e-01	0	43	0	911736832	20	5106
2026-01-01 11:22:22.75	356.83	18.55	-29.7	-32.6	19.3	5.98e-01	0	43	0	913833984	20	5069
2026-01-01 11:22:23.75	356.71	18.42	-29.7	-32.8	19.1	6.00e-01	0	43	0	915931136	20	5122
2026-01-01 11:22:24.76	356.59	18.30	-29.8	-32.9	19.1	5.98e-01	0	43	0	917504000	20	5172
2026-01-01 11:22:25.76	356.48	18.18	-29.7	-32.7	19.2	6.02e-01	0	43	0	919601152	20	5106
2026-01-01 11:22:26.77	356.37	18.05	-29.6	-32.5	19.4	6.02e-01	0	43	0	921174016	20	5005
2026-01-01 11:22:27.77	356.25	17.93	-29.6	-32.5	19.3	6.03e-01	0	43	0	923271168	20	5021
2026-01-01 11:22:28.77	356.14	17.81	-29.6	-32.5	19.4	6.01e-01	0	43	0	924844032	20	5016
2026-01-01 11:22:29.78	356.03	17.69	-29.6	-32.5	19.3	6.02e-01	0	43	0	926941184	20	5032
2026-01-01 11:22:30.77	355.92	17.57	-29.7	-32.9	19.1	6.01e-01	0	43	0	929038336	20	5157
2026-01-01 11:22:31.77	355.81	17.45	-29.7	-32.8	19.2	6.01e-01	0	43	0	930611200	20	5142
2026-01-01 11:22:32.77	355.70	17.33	-29.7	-32.8	19.1	6.00e-01	0	43	0	932708352	20	5146
2026-01-01 11:22:33.77	355.60	17.21	-29.7	-32.8	19.1	6.05e-01	0	43	0	934281216	20	5147
2026-01-01 11:22:34.77	355.49	17.10	-29.8	-32.9	19.0	6.02e-01	0	43	0	936378368	20	5186
2026-01-01 11:22:35.78	355.39	16.98	-29.7	-32.8	19.1	6.02e-01	0	43	0	937951232	20	5158
2026-01-01 11:22:36.78	355.28	16.86	-29.8	-33.0	19.0	6.00e-01	0	43	0	940048384	20	5209
2026-01-01 11:22:37.78	355.18	16.74	-29.9	-33.3	18.8	5.99e-01	0	43	0	942145536	20	5329
2026-01-01 11:22:38.78	355.08	16.63	-29.9	-33.2	18.8	6.01e-01	0	43	0	943718400	20	5306
2026-01-01 11:22:39.78	354.97	16.51	-29.9	-33.3	18.8	6.04e-01	0	43	0	945815552	20	5314
2026-01-01 11:22:40.79	354.87	16.40	-30.1	-33.8	18.5	6.02e-01	0	43	0	947388416	20	5524
2026-01-01 11:22:41.79	354.77	16.28	-30.0	-33.1	18.6	6.01e-01	0	43	0	949485568	21	5144
2026-01-01 11:22:42.79	354.67	16.17	-29.9	-32.7	18.8	6.01e-01	0	43	0	951582720	21	4992
2026-01-01 11:22:43.80	354.58	16.06	-29.8	-32.4	19.0	5.99e-01	0	43	0	953155584	21	4905
2026-01-01 11:22:44.80	354.48	15.94	-29.8	-32.4	19.0	6.00e-01	0	43	0	955252736	21	4905
2026-01-01 11:22:45.80	354.38	15.83	-29.7	-32.3	19.0	6.03e-01	0	43	0	956825600	21	4854
2026-01-01 11:22:46.80	354.29	15.72	-29.9	-32.8	18.8	6.03e-01	0	43	0	958922752	21	5018
2026-01-01 11:22:47.81	354.19	15.61	-29.8	-32.5	18.9	6.02e-01	0	43	0	961019904	21	4945
2026-01-01 11:22:48.81	354.10	15.50	-29.6	-32.1	19.2	6.01e-01	0	43	0	962592768	21	4799
2026-01-01 11:22:49.81	354.00	15.39	-29.5	-31.8	19.3	6.02e-01	0	43	0	964689920	21	4695
2026-01-01 11:22:50.82	353.91	15.27	-29.5	-31.8	19.4	6.00e-01	0	43	0	966262784	21	4671
2026-01-01 11:22:51.82	353.82	15.17	-29.5	-31.8	19.4	6.01e-01	0	43	0	968359936	21	4672
2026-01-01 11:22:52.83	353.72	15.06	-29.5	-31.9	19.3	6.03e-01	0	43	0	969932800	21	4708
2026-01-01 11:22:53.83	353.63	14.95	-29.5	-31.8	19.3	6.00e-01	0	43	0	972029952	21	4683
2026-01-01 11:22:54.83	353.54	14.84	-29.5	-31.9	19.3	6.02e-01	0	43	0	974127104	21	4715
2026-01-01 11:22:55.83	353.46	14.73	-29.5	-31.9	19.3	6.02e-01	0	43	0	975699968	21	4712
2026-01-01 11:22:56.84	353.37	14.62	-29.6	-32.0	19.1	6.01e-01	0	43	0	977797120	21	4772
2026-01-01 11:22:57.84	353.28	14.52	-29.6	-32.0	19.2	6.02e-01	0	43	0	979369984	21	4763
2026-01-01 11:22:58.84	353.19	14.41	-29.6	-32.1	19.1	6.01e-01	0	43	0	981467136	21	4807
2026-01-01 11:22:59.84	353.11	14.31	-29.8	-32.5	18.9	6.00e-01	0	43	0	983564288	21	4938
2026-01-01 11:23:00.84	353.02	14.20	-29.7	-32.3	18.9	6.01e-01	0	43	0	985137152	21	4879
2026-01-01 11:23:01.84	352.94	14.10	-29.6	-32.0	19.2	6.02e-01	0	43	0	987234304	21	4763
2026-01-01 11:23:02.84	352.85	13.99	-29.6	-32.0	19.1	6.00e-01	0	43	0	988807168	21	4774
2026-01-01 11:23:03.84	352.77	13.89	-29.6	-32.0	19.1	6.01e-01	0	43	0	990904320	21	4761
2026-01-01 11:23:04.85	352.69	13.78	-29.6	-32.2	19.0	6.01e-01	0	43	0	992477184	21	4832
2026-01-01 11:23:05.85	352.60	13.68	-29.7	-32.3	18.9	6.01e-01	0	43	0	994574336	21	4860
2026-01-01 11:23:06.86	352.52	13.58	-29.8	-32.6	18.7	6.03e-01	0	43	0	996671488	21	4987
2026-01-01 11:23:07.86	352.44	13.47	-29.7	-32.4	18.8	6.02e-01	0	43	0	998244352	21	4912
2026-01-01 11:23:08.86	352.36	13.37	-29.7	-32.3	18.9	6.02e-01	0	43	0	1000341504	21	4871
2026-01-01 11:23:09.87	352.28	13.27	-29.7	-32.5	18.8	5.99e-01	0	43	0	1001914368	21	4924
2026-01-01 11:23:10.88	352.20	13.17	-29.7	-32.3	18.9	6.00e-01	0	43	0	1004011520	21	4870
2026-01-01 11:23:11.88	352.12	13.07	-29.8	-32.7	18.7	6.01e-01	0	43	0	1006108672	21	5003
2026-01-01 11:23:12.87	352.04	12.97	-29.8	-32.5	18.7	6.03e-01	0	43	0	1007681536	21	4954
2026-01-01 11:23:13.87	351.97	12.87	-29.7	-32.3	18.9	6.02e-01	0	43	0	1009778688	21	4872
2026-01-01 11:23:14.87	351.89	12.77	-29.6	-32.1	19.0	6.02e-01	0	43	0	1011351552	21	4817
2026-01-01 11:23:15.88	351.81	12.67	-29.7	-32.3	18.9	6.00e-01	0	43	0	1013448704	21	4882
2026-01-01 11:23:16.87	351.74	12.57	-29.7	-32.3	18.9	6.01e-01	0	43	0	1015021568	21	4879
2026-01-01 11:23:17.87	351.66	12.47	-29.7	-32.4	18.8	6.02e-01	0	43	0	1017118720	21	4898
2026-01-01 11:23:18.88	351.59	12.37	-29.7	-32.5	18.7	6.01e-01	0	43	0	1019215872	21	4945
2026-01-01 11:23:19.88	351.51	12.28	-29.7	-32.5	18.8	6.00e-01	0	43	0	1020788736	21	4936
2026-01-01 11:23:20.87	351.44	12.18	-29.8	-32.5	18.7	6.00e-01	0	43	0	1022885888	21	4962
2026-01-01 11:23:21.88	351.37	12.08	-29.9	-32.9	18.5	6.01e-01	0	43	0	1024458752	21	5097
2026-01-01 11:23:22.88	351.30	11.99	-29.8	-32.7	18.6	6.01e-01	0	43	0	1026555904	21	5029
2026-01-01 11:23:23.89	351.22	11.89	-29.8	-32.7	18.6	6.02e-01	0	43	0	1028653056	21	5031
2026-01-01 11:23:24.89	351.15	11.80	-29.9	-32.9	18.4	6.01e-01	0	43	0	1030225920	21	5112
2026-01-01 11:23:25.90	351.08	11.70	-29.8	-32.6	18.6	6.00e-01	0	43	0	1032323072	21	5000
2026-01-01 11:23:26.90	351.01	11.60	-29.7	-32.5	18.7	6.04e-01	0	43	0	1033895936	21	4932
2026-01-01 11:23:27.91	350.94	11.51	-29.7	-32.5	18.7	6.02e-01	0	43	0	1035993088	21	4937
2026-01-01 11:23:28.91	350.87	11.42	-29.7	-32.5	18.7	5.99e-01	0	43	0	1038090240	21	4965
2026-01-01 11:23:29.92	350.80	11.32	-29.8	-32.7	18.5	6.03e-01	0	43	0	1039663104	21	5040
2026-01-01 11:23:30.92	350.73	11.23	-29.9	-33.0	18.4	6.05e-01	0	43	0	1041760256	21	5133
2026-01-01 11:23:31.92	350.67	11.13	-29.8	-32.7	18.5	6.02e-01	0	43	0	1043333120	21	5032
2026-01-01 11:23:32.92	350.60	11.04	-29.8	-32.6	18.6	6.00e-01	0	43	0	1045430272	21	4986
2026-01-01 11:23:33.92	350.53	10.95	-29.7	-32.5	18.6	6.02e-01	0	43	0	1047003136	21	4956
2026-01-01 11:23:34.92	350.47	10.86	-29.8	-32.6	18.6	6.01e-01	0	43	0	1049100288	21	4986
2026-01-01 11:23:35.92	350.40	10.77	-29.9	-33.0	18.3	6.01e-01	0	43	0	1051197440	21	5130
2026-01-01 11:23:36.93	350.34	10.67	-29.9	-33.0	18.3	6.01e-01	0	43	0	1052770304	21	5157
2026-01-01 11:23:37.93	350.27	10.58	-29.9	-33.1	18.2	6.00e-01	0	43	0	1054867456	21	5179
2026-01-01 11:23:38.94	350.21	10.49	-30.1	-33.5	18.0	5.98e-01	0	43	0	1056440320	21	5341
2026-01-01 11:23:39.94	350.14	10.40	-30.0	-33.3	18.1	6.02e-01	0	43	0	1058537472	21	5261
2026-01-01 11:23:40.95	350.08	10.31	-29.9	-33.0	18.2	6.02e-01	0	43	0	1060634624	21	5159
2026-01-01 11:23:41.95	350.02	10.22	-29.9	-33.0	18.3	6.01e-01	0	43	0	1062207488	21	5155
2026-01-01 11:23:42.96	349.95	10.13	-29.9	-33.0	18.3	6.01e-01	0	43	0	1064304640	21	5141
2026-01-01 11:23:43.96	349.89	10.04	-30.0	-33.4	18.0	6.01e-01	0	43	0	1065877504	21	5315
2026-01-01 11:23:44.96	349.83	9.95	-29.9	-33.0	18.2	6.02e-01	0	43	0	1067974656	21	5144
2026-01-01 11:23:45.97	349.77	9.87	-29.8	-32.8	18.3	6.01e-01	0	43	0	1069547520	21	5077
2026-01-01 11:23:46.97	349.71	9.78	-29.8	-32.8	18.3	6.04e-01	0	43	0	1071644672	21	5096
2026-01-01 11:23:47.97	349.65	9.69	-29.8	-32.9	18.3	6.01e-01	0	43	0	1073741824	21	5104
2026-01-01 11:23:48.98	349.59	9.60	-29.9	-33.2	18.0	6.01e-01	0	43	0	1075314688	21	5231
2026-01-01 11:23:49.98	349.53	9.52	-29.9	-33.2	18.1	6.01e-01	0	43	0	1077411840	21	5236
2026-01-01 11:23:50.98	349.47	9.43	-29.9	-33.1	18.1	5.99e-01	0	43	0	1078984704	21	5206
2026-01-01 11:23:51.98	349.41	9.34	-30.0	-33.4	17.9	6.02e-01	0	43	0	1081081856	21	5317
2026-01-01 11:23:52.98	349.35	9.26	-30.0	-33.3	17.9	6.03e-01	0	43	0	1083179008	21	5285
2026-01-01 11:23:53.98	349.29	9.17	-30.0	-33.3	18.0	6.03e-01	0	43	0	1084751872	21	5283
2026-01-01 11:23:54.98	349.23	9.09	-30.1	-33.7	17.7	6.02e-01	0	43	0	1086849024	21	5424
2026-01-01 11:23:55.99	349.18	9.00	-30.0	-33.4	17.8	6.02e-01	0	43	0	1088421888	21	5343
2026-01-01 11:23:56.99	349.12	8.91	-30.2	-33.9	17.5	6.01e-01	0	43	0	1090519040	21	5544
2026-01-01 11:23:58.00	349.06	8.83	-30.1	-33.6	17.7	6.01e-01	0	43	0	1092616192	21	5407
2026-01-01 11:23:59.00	349.01	8.74	-30.2	-33.9	17.5	6.02e-01	0	43	0	1094189056	21	5538
2026-01-01 11:24:00.01	348.95	8.66	-30.4	-34.6	17.0	6.02e-01	0	43	0	1096286208	21	5863
2026-01-01 11:24:01.01	348.90	8.58	-30.3	-34.2	17.3	6.01e-01	0	43	0	1097859072	21	5673
2026-01-01 11:24:02.01	348.84	8.49	-30.1	-33.8	17.6	6.01e-01	0	43	0	1099956224	21	5488
2026-01-01 11:24:03.01	348.79	8.41	-30.0	-33.6	17.7	6.02e-01	0	43	0	1101529088	21	5394
2026-01-01 11:24:04.01	348.73	8.33	-30.0	-33.5	17.8	6.01e-01	0	43	0	1103626240	21	5389
2026-01-01 11:24:05.01	348.68	8.24	-30.1	-33.8	17.6	6.03e-01	0	43	0	1105723392	21	5483
2026-01-01 11:24:06.01	348.63	8.16	-30.2	-34.1	17.3	6.02e-01	0	43	0	1107296256	21	5638
2026-01-01 11:24:07.01	348.57	8.08	-30.1	-33.7	17.6	5.99e-01	0	43	0	1109393408	21	5468
2026-01-01 11:24:08.02	348.52	8.00	-30.1	-33.6	17.6	6.02e-01	0	43	0	1110966272	21	5435
2026-01-01 11:24:09.02	348.47	7.92	-30.1	-33.6	17.7	6.01e-01	0	43	0	1113063424	21	5427
2026-01-01 11:24:10.03	348.41	7.83	-30.0	-33.4	17.8	6.02e-01	0	43	0	1114636288	21	5345
2026-01-01 11:24:11.03	348.36	7.75	-30.1	-33.7	17.6	6.01e-01	0	43	0	1116733440	21	5457
2026-01-01 11:24:12.03	348.31	7.67	-30.3	-34.3	17.2	6.02e-01	0	43	0	1118830592	21	5710
2026-01-01 11:24:13.04	348.26	7.59	-30.2	-34.1	17.3	6.00e-01	0	43	0	1120403456	21	5623
2026-01-01 11:24:14.03	348.21	7.51	-30.2	-34.2	17.2	6.04e-01	0	43	0	1122500608	21	5690
2026-01-01 11:24:15.04	348.16	7.43	-30.3	-34.5	17.0	6.01e-01	0	43	0	1124597760	21	5820
2026-01-01 11:24:16.04	348.11	7.35	-30.3	-34.3	17.1	6.03e-01	0	43	0	1126170624	21	5738
2026-01-01 11:24:17.04	348.06	7.27	-30.3	-34.4	17.1	6.00e-01	0	43	0	1128267776	21	5773
2026-01-01 11:24:18.04	348.01	7.19	-30.3	-34.3	17.1	6.03e-01	0	43	0	1129840640	21	5748
2026-01-01 11:24:19.05	347.96	7.11	-30.2	-34.0	17.4	6.02e-01	0	43	0	1131937792	21	5591
2026-01-01 11:24:20.05	347.91	7.04	-33.1	-46.6	4.2	7.34e-01	0	43	104	1132986368	27	16986

#Closed at: 2026-01-01 11:24:20
#Recorded file [1132 MB]: D:/data/31010_260101_141415.dat