passes_logs/2026/01/01/R2M6_AANII_01/R2M6_AANII_01__20260101_005800_NOAA_20_JPSS-1_rec.log

#Pass ID: 20260101_005800_NOAA 20 (JPSS-1)
#Satellite: NOAA 20 (JPSS-1)
#Configuration: NOAA 20
#almurnet v.1.7.20240730
#Start time: 2026-01-01 00:58:02

#Version: 2.2.20231116
#Station: R2M6_AANII_01
#Location: 30.233357 lon 59.946436 lat
#TLE: 1 43013U 17073A   25365.45761817  .00000173  00000+0  10307-3 0  9993
#TLE: 2 43013  98.7620 301.5517 0001951  60.3814 299.7557 14.19531661420675

#Time	Az	El	Level	Level2	SNR	BER	BlckErr	Temp	State	Recorded	gain1	gain2
2026-01-01 00:58:02.11	15.12	7.09	-31.0	-37.9	5.0	1.29e+00	0	40	0	0	21	7941
2026-01-01 00:58:03.11	15.10	7.17	-31.1	-37.9	4.9	1.32e+00	0	41	104	0	22	7870
2026-01-01 00:58:04.12	15.06	7.24	-31.2	-38.3	6.9	1.53e-01	0	41	0	0	22	8172
2026-01-01 00:58:05.12	15.03	7.32	-31.1	-37.5	7.5	1.24e-01	0	41	0	1048576	22	7555
2026-01-01 00:58:06.13	15.00	7.40	-30.9	-37.3	8.0	8.60e-02	0	41	0	3145728	21	7483
2026-01-01 00:58:07.13	14.97	7.47	-30.8	-36.7	8.6	5.67e-02	0	41	0	5242880	21	7093
2026-01-01 00:58:08.13	14.94	7.55	-30.7	-36.2	9.0	3.63e-02	0	41	0	7340032	21	6782
2026-01-01 00:58:09.13	14.91	7.63	-30.6	-35.7	9.4	1.89e-02	0	41	0	9437184	21	6501
2026-01-01 00:58:10.14	14.88	7.71	-30.6	-35.6	9.5	1.88e-02	0	41	0	10485760	21	6465
2026-01-01 00:58:11.14	14.85	7.78	-30.6	-35.7	9.5	1.78e-02	0	41	0	12582912	21	6470
2026-01-01 00:58:12.14	14.82	7.86	-30.5	-35.5	9.6	1.45e-02	0	41	0	14680064	21	6372
2026-01-01 00:58:13.14	14.79	7.94	-30.2	-34.8	10.5	1.02e-02	0	41	0	16777216	20	6137
2026-01-01 00:58:14.15	14.75	8.02	-30.0	-34.1	11.0	3.74e-03	0	41	0	17825792	20	5793
2026-01-01 00:58:15.15	14.72	8.10	-29.9	-34.2	11.5	1.55e-03	0	41	0	19922944	19	5895
2026-01-01 00:58:16.15	14.69	8.18	-29.7	-33.7	11.8	6.05e-04	0	41	0	22020096	19	5665
2026-01-01 00:58:17.15	14.66	8.26	-29.5	-33.3	12.4	1.26e-03	0	41	0	24117248	18	5623
2026-01-01 00:58:18.15	14.63	8.33	-29.4	-33.2	12.5	2.83e-03	0	41	0	26214400	18	5578
2026-01-01 00:58:19.16	14.59	8.41	-29.4	-33.2	12.5	1.13e-04	0	41	0	27262976	18	5568
2026-01-01 00:58:20.16	14.56	8.49	-29.5	-33.0	12.3	1.66e-04	0	41	0	29360128	19	5363
2026-01-01 00:58:21.16	14.53	8.57	-29.5	-33.1	12.3	3.25e-03	0	41	0	31457280	19	5409
2026-01-01 00:58:22.16	14.49	8.65	-29.5	-33.3	12.4	1.36e-04	0	41	0	33554432	18	5632
2026-01-01 00:58:23.16	14.46	8.74	-28.6	-33.0	12.0	8.48e-03	0	41	0	35651584	17	6030
2026-01-01 00:58:24.16	14.43	8.82	-28.9	-33.6	11.9	1.73e-02	0	41	0	36700160	17	6158
2026-01-01 00:58:25.17	14.39	8.90	-28.7	-33.1	12.1	1.44e-02	0	41	0	38797312	17	5968
2026-01-01 00:58:26.16	14.36	8.98	-28.7	-33.3	12.0	1.39e-02	0	41	0	40894464	17	6089
2026-01-01 00:58:27.16	14.32	9.06	-28.6	-33.1	12.0	1.19e-02	0	41	0	42991616	17	6055
2026-01-01 00:58:28.17	14.29	9.14	-29.6	-33.2	12.2	3.19e-03	0	41	0	45088768	19	5467
2026-01-01 00:58:29.17	14.25	9.22	-29.8	-33.8	11.8	1.43e-03	0	41	0	46137344	19	5698
2026-01-01 00:58:30.17	14.22	9.31	-29.5	-33.0	12.3	1.34e-03	0	41	0	48234496	19	5389
2026-01-01 00:58:31.18	14.18	9.39	-29.4	-32.6	12.7	1.40e-04	0	41	0	50331648	19	5226
2026-01-01 00:58:32.18	14.15	9.47	-29.3	-32.8	12.9	1.17e-03	0	41	0	52428800	18	5394
2026-01-01 00:58:33.19	14.11	9.56	-29.3	-32.7	12.9	1.12e-03	0	41	0	54525952	18	5369
2026-01-01 00:58:34.19	14.08	9.64	-29.3	-32.8	12.9	3.89e-05	0	41	0	55574528	18	5401
2026-01-01 00:58:35.18	14.04	9.72	-29.3	-32.9	12.8	1.21e-03	0	41	0	57671680	18	5429
2026-01-01 00:58:36.18	14.00	9.81	-29.3	-32.8	12.9	1.13e-03	0	42	0	59768832	18	5396
2026-01-01 00:58:37.19	13.97	9.89	-29.2	-32.4	13.2	1.90e-05	0	42	0	61865984	18	5216
2026-01-01 00:58:38.19	13.93	9.98	-29.2	-32.6	13.1	3.12e-05	0	42	0	62914560	18	5320
2026-01-01 00:58:39.19	13.89	10.06	-29.2	-32.4	13.2	1.01e-03	0	42	0	65011712	18	5244
2026-01-01 00:58:40.20	13.85	10.15	-29.3	-32.8	13.0	3.73e-05	0	42	0	67108864	18	5386
2026-01-01 00:58:41.20	13.82	10.23	-29.1	-32.3	13.3	9.22e-04	0	42	0	69206016	18	5190
2026-01-01 00:58:42.20	13.78	10.32	-29.0	-32.1	13.5	1.67e-05	0	42	0	71303168	18	5097
2026-01-01 00:58:43.21	13.74	10.40	-28.9	-32.2	13.7	3.80e-06	0	42	0	73400320	17	5273
2026-01-01 00:58:44.21	13.70	10.49	-29.0	-32.0	13.6	7.54e-04	0	42	0	74448896	18	5048
2026-01-01 00:58:45.22	13.66	10.58	-28.9	-32.2	13.7	7.60e-06	0	42	0	76546048	17	5267
2026-01-01 00:58:46.22	13.62	10.66	-28.9	-32.1	13.8	6.10e-06	0	42	0	78643200	17	5227
2026-01-01 00:58:47.22	13.58	10.75	-28.9	-32.0	13.8	8.42e-04	0	42	0	80740352	17	5193
2026-01-01 00:58:48.23	13.55	10.84	-28.9	-32.1	13.8	8.05e-04	0	42	0	81788928	17	5201
2026-01-01 00:58:49.23	13.51	10.93	-28.9	-32.2	13.7	4.50e-06	0	42	0	83886080	17	5254
2026-01-01 00:58:50.23	13.47	11.02	-28.8	-32.0	13.9	7.95e-04	0	42	0	85983232	17	5175
2026-01-01 00:58:51.23	13.43	11.10	-28.9	-32.1	13.8	7.24e-04	0	42	0	88080384	17	5195
2026-01-01 00:58:52.23	13.38	11.19	-28.8	-32.0	13.9	3.00e-06	0	42	0	90177536	17	5168
2026-01-01 00:58:53.24	13.34	11.28	-28.8	-32.0	13.9	7.04e-04	0	42	0	91226112	17	5171
2026-01-01 00:58:54.24	13.30	11.37	-28.0	-31.1	14.0	6.10e-04	0	42	0	93323264	17	5140
2026-01-01 00:58:55.25	13.26	11.46	-28.9	-32.1	13.4	5.30e-06	0	42	0	95420416	17	5212
2026-01-01 00:58:56.25	13.22	11.55	-28.8	-32.0	12.7	8.17e-04	0	42	0	97517568	17	5168
2026-01-01 00:58:57.25	13.18	11.64	-28.9	-32.2	12.4	8.46e-04	0	42	0	99614720	17	5230
2026-01-01 00:58:58.25	13.14	11.73	-28.9	-32.1	13.1	6.10e-06	0	42	0	100663296	17	5211
2026-01-01 00:58:59.26	13.09	11.82	-28.9	-32.0	13.9	2.76e-03	0	42	0	102760448	17	5183
2026-01-01 00:59:00.26	13.05	11.91	-29.0	-32.3	13.7	1.04e-03	0	42	0	104857600	17	5287
2026-01-01 00:59:01.27	13.01	12.01	-29.0	-32.0	13.7	6.10e-06	0	42	0	106954752	18	5048
2026-01-01 00:59:02.27	12.96	12.10	-29.0	-32.0	13.6	8.98e-04	0	42	0	109051904	18	5053
2026-01-01 00:59:03.27	12.92	12.19	-29.0	-32.0	13.7	5.30e-06	0	42	0	110100480	18	5043
2026-01-01 00:59:04.27	12.88	12.28	-29.0	-32.3	13.8	2.20e-06	0	42	0	112197632	17	5274
2026-01-01 00:59:05.27	12.83	12.38	-29.0	-32.3	13.8	9.09e-04	0	42	0	114294784	17	5267
2026-01-01 00:59:06.27	12.79	12.47	-29.1	-32.1	13.6	2.86e-03	0	42	0	116391936	18	5084
2026-01-01 00:59:07.28	12.74	12.56	-29.2	-32.5	13.4	1.06e-05	0	42	0	118489088	18	5227
2026-01-01 00:59:08.29	12.70	12.66	-29.4	-32.9	13.1	8.27e-04	0	42	0	119537664	18	5393
2026-01-01 00:59:09.29	12.65	12.75	-29.1	-32.2	13.6	8.22e-04	0	42	0	121634816	18	5113
2026-01-01 00:59:10.29	12.61	12.85	-28.9	-32.1	13.9	7.34e-04	0	42	0	123731968	17	5215
2026-01-01 00:59:11.30	12.56	12.94	-28.8	-31.9	14.1	8.09e-04	0	42	0	125829120	17	5118
2026-01-01 00:59:12.30	12.51	13.04	-29.0	-32.3	13.8	8.02e-04	0	42	0	126877696	17	5287
2026-01-01 00:59:13.30	12.47	13.13	-29.2	-32.3	13.5	6.98e-04	0	42	0	128974848	18	5157
2026-01-01 00:59:14.30	12.42	13.23	-29.2	-32.3	13.5	1.52e-05	0	42	0	131072000	18	5176
2026-01-01 00:59:15.31	12.37	13.32	-29.1	-32.2	13.6	7.53e-04	0	42	0	133169152	18	5122
2026-01-01 00:59:16.31	12.32	13.42	-29.2	-32.3	13.6	6.81e-04	0	42	0	135266304	18	5163
2026-01-01 00:59:17.32	12.28	13.52	-29.2	-32.3	13.5	2.64e-03	0	42	0	136314880	18	5173
2026-01-01 00:59:18.32	12.23	13.62	-29.2	-32.3	13.6	5.50e-04	0	42	0	138412032	18	5146
2026-01-01 00:59:19.32	12.18	13.71	-29.3	-32.5	13.4	6.80e-06	0	42	0	140509184	18	5241
2026-01-01 00:59:20.32	12.13	13.81	-29.4	-32.9	13.2	2.64e-03	0	42	0	142606336	18	5378
2026-01-01 00:59:21.33	12.08	13.91	-29.2	-32.3	13.6	1.44e-05	0	42	0	144703488	18	5146
2026-01-01 00:59:22.33	12.03	14.01	-29.1	-32.0	13.8	7.60e-06	0	42	0	145752064	18	5030
2026-01-01 00:59:23.34	11.98	14.11	-29.0	-31.9	13.8	2.72e-03	0	42	0	147849216	18	5010
2026-01-01 00:59:24.34	11.93	14.21	-28.9	-32.2	14.0	2.70e-03	0	42	0	149946368	17	5216
2026-01-01 00:59:25.34	11.88	14.31	-28.9	-32.1	14.0	3.00e-06	0	42	0	152043520	17	5191
2026-01-01 00:59:26.35	11.83	14.41	-28.8	-31.9	14.2	4.25e-04	0	42	0	154140672	17	5101
2026-01-01 00:59:27.35	11.77	14.51	-28.8	-31.8	14.2	2.41e-03	0	42	0	155189248	17	5090
2026-01-01 00:59:28.35	11.72	14.61	-28.9	-31.9	14.2	4.58e-04	0	42	0	157286400	17	5124
2026-01-01 00:59:29.35	11.67	14.71	-28.9	-31.9	14.2	4.42e-04	0	42	0	159383552	17	5126
2026-01-01 00:59:30.35	11.62	14.82	-28.8	-31.9	14.2	2.73e-03	0	42	0	161480704	17	5101
2026-01-01 00:59:31.36	11.56	14.92	-28.9	-32.1	14.1	5.00e-04	0	42	0	163577856	17	5187
2026-01-01 00:59:32.36	11.51	15.02	-28.9	-32.1	14.1	1.50e-06	0	42	0	164626432	17	5198
2026-01-01 00:59:33.36	11.46	15.12	-28.8	-31.8	14.3	2.70e-03	0	42	0	166723584	17	5083
2026-01-01 00:59:34.37	11.40	15.23	-28.8	-31.6	14.4	4.81e-04	0	42	0	168820736	17	5009
2026-01-01 00:59:35.37	11.35	15.33	-28.8	-31.7	14.4	2.59e-03	0	42	0	170917888	17	5019
2026-01-01 00:59:36.37	11.29	15.44	-28.8	-31.8	14.3	4.42e-04	0	42	0	173015040	17	5067
2026-01-01 00:59:37.38	11.23	15.54	-28.8	-31.7	14.3	5.13e-04	0	42	0	174063616	17	5053
2026-01-01 00:59:38.38	11.18	15.65	-28.8	-31.7	14.4	2.41e-03	0	42	0	176160768	17	5038
2026-01-01 00:59:39.39	11.12	15.75	-28.8	-31.8	14.3	6.02e-05	0	42	0	178257920	17	5088
2026-01-01 00:59:40.38	11.07	15.86	-28.8	-31.7	14.4	5.23e-04	0	42	0	180355072	17	5034
2026-01-01 00:59:41.39	11.01	15.97	-28.8	-31.8	14.3	2.73e-03	0	42	0	181403648	17	5084
2026-01-01 00:59:42.39	10.95	16.07	-28.9	-31.9	14.3	2.67e-03	0	42	0	183500800	17	5116
2026-01-01 00:59:43.40	10.89	16.18	-28.8	-31.6	14.5	4.50e-04	0	42	0	185597952	17	5008
2026-01-01 00:59:44.40	10.83	16.29	-28.8	-31.7	14.4	2.58e-03	0	42	0	187695104	17	5013
2026-01-01 00:59:45.40	10.77	16.40	-28.8	-31.7	14.4	2.38e-03	0	42	0	189792256	17	5044
2026-01-01 00:59:46.41	10.71	16.51	-28.8	-31.6	14.5	4.25e-04	0	42	0	190840832	17	4987
2026-01-01 00:59:47.41	10.65	16.62	-27.8	-30.6	14.5	2.46e-03	0	42	0	192937984	17	4970
2026-01-01 00:59:48.42	10.59	16.73	-28.8	-31.7	14.4	2.61e-03	0	43	0	195035136	17	5030
2026-01-01 00:59:49.42	10.53	16.84	-28.8	-31.7	13.9	4.05e-04	0	42	0	197132288	17	5009
2026-01-01 00:59:50.42	10.47	16.95	-28.8	-31.7	13.9	2.60e-03	0	42	0	199229440	17	5011
2026-01-01 00:59:51.43	10.41	17.06	-28.9	-31.8	14.4	2.58e-03	0	42	0	200278016	17	5069
2026-01-01 00:59:52.43	10.34	17.17	-28.9	-32.0	14.2	3.87e-04	0	43	0	202375168	17	5144
2026-01-01 00:59:53.43	10.28	17.28	-28.8	-31.7	14.5	7.83e-04	0	43	0	204472320	17	5024
2026-01-01 00:59:54.43	10.22	17.40	-28.9	-31.9	14.4	2.38e-03	0	42	0	206569472	17	5096
2026-01-01 00:59:55.44	10.15	17.51	-28.9	-31.5	14.3	3.57e-04	0	42	0	208666624	18	4846
2026-01-01 00:59:56.43	10.09	17.62	-28.8	-31.7	14.5	2.32e-03	0	43	0	209715200	17	5010
2026-01-01 00:59:57.43	10.03	17.74	-28.8	-31.6	14.5	7.00e-07	0	43	0	211812352	17	5004
2026-01-01 00:59:58.44	9.96	17.85	-28.8	-31.6	14.5	3.13e-04	0	43	0	213909504	17	4990
2026-01-01 00:59:59.44	9.89	17.97	-28.7	-31.4	14.6	2.56e-03	0	42	0	216006656	17	4933
2026-01-01 01:00:00.44	9.83	18.08	-28.7	-31.4	14.7	0.00e+00	0	42	0	218103808	17	4926
2026-01-01 01:00:01.44	9.76	18.20	-28.7	-31.3	14.8	3.14e-04	0	43	0	219152384	17	4880
2026-01-01 01:00:02.44	9.69	18.31	-28.7	-31.3	14.8	2.48e-03	0	43	0	221249536	17	4877
2026-01-01 01:00:03.44	9.62	18.43	-28.6	-31.3	14.8	2.25e-03	0	42	0	223346688	17	4871
2026-01-01 01:00:04.45	9.55	18.55	-28.6	-31.2	14.9	3.81e-04	0	42	0	225443840	17	4827
2026-01-01 01:00:05.44	9.49	18.67	-28.6	-31.3	14.8	2.29e-03	0	43	0	226492416	17	4864
2026-01-01 01:00:06.44	9.42	18.79	-28.6	-31.3	14.8	2.52e-03	0	43	0	228589568	17	4866
2026-01-01 01:00:07.45	9.35	18.91	-28.6	-31.1	15.0	4.26e-04	0	43	0	230686720	17	4794
2026-01-01 01:00:08.45	9.27	19.02	-28.6	-31.2	14.8	8.03e-04	0	43	0	232783872	17	4856
2026-01-01 01:00:09.45	9.20	19.14	-28.5	-31.0	15.0	2.37e-03	0	43	0	234881024	17	4765
2026-01-01 01:00:10.45	9.13	19.27	-28.5	-31.0	15.0	2.26e-04	0	43	0	235929600	17	4770
2026-01-01 01:00:11.46	9.06	19.39	-28.6	-31.1	15.0	3.94e-04	0	43	0	238026752	17	4804
2026-01-01 01:00:12.46	8.98	19.51	-28.5	-31.0	15.1	2.14e-03	0	42	0	240123904	17	4760
2026-01-01 01:00:13.45	8.91	19.63	-28.6	-31.1	15.0	1.83e-04	0	42	0	242221056	17	4800
2026-01-01 01:00:14.45	8.84	19.75	-28.6	-31.1	15.0	3.33e-04	0	43	0	244318208	17	4793
2026-01-01 01:00:15.46	8.76	19.88	-28.5	-30.9	15.1	7.00e-07	0	43	0	245366784	17	4735
2026-01-01 01:00:16.46	8.68	20.00	-28.5	-31.0	15.0	1.27e-04	0	43	0	247463936	17	4770
2026-01-01 01:00:17.46	8.61	20.13	-28.6	-31.0	15.0	3.07e-04	0	43	0	249561088	17	4777
2026-01-01 01:00:18.46	8.53	20.25	-28.6	-31.1	15.0	0.00e+00	0	43	0	251658240	17	4807
2026-01-01 01:00:19.47	8.45	20.38	-28.5	-30.8	15.1	5.03e-04	0	43	0	253755392	17	4709
2026-01-01 01:00:20.47	8.37	20.50	-28.4	-30.7	15.2	2.33e-03	0	43	0	254803968	17	4668
2026-01-01 01:00:21.47	8.29	20.63	-28.5	-30.8	15.1	0.00e+00	0	43	0	256901120	17	4717
2026-01-01 01:00:22.47	8.21	20.76	-28.5	-30.9	15.1	3.94e-04	0	43	0	258998272	17	4733
2026-01-01 01:00:23.47	8.13	20.88	-28.5	-30.8	15.1	2.19e-03	0	43	0	261095424	17	4719
2026-01-01 01:00:24.48	8.05	21.01	-28.5	-30.9	15.1	0.00e+00	0	43	0	263192576	17	4723
2026-01-01 01:00:25.48	7.97	21.14	-28.6	-31.1	15.1	3.14e-04	0	43	0	264241152	17	4787
2026-01-01 01:00:26.48	7.89	21.27	-28.6	-31.2	15.0	2.43e-04	0	43	0	266338304	17	4824
2026-01-01 01:00:27.49	7.80	21.40	-28.6	-31.1	15.0	2.42e-03	0	43	0	268435456	17	4799
2026-01-01 01:00:28.49	7.72	21.54	-28.6	-31.0	15.1	1.52e-04	0	43	0	270532608	17	4784
2026-01-01 01:00:29.49	7.63	21.67	-28.5	-30.7	15.3	1.23e-04	0	43	0	272629760	17	4681
2026-01-01 01:00:30.50	7.55	21.80	-28.5	-31.3	15.2	2.20e-03	0	43	0	273678336	16	4967
2026-01-01 01:00:31.50	7.46	21.93	-28.5	-30.8	15.2	1.04e-04	0	43	0	275775488	17	4700
2026-01-01 01:00:32.50	7.37	22.07	-28.4	-30.7	15.3	1.30e-04	0	43	0	277872640	17	4673
2026-01-01 01:00:33.50	7.29	22.20	-28.5	-30.9	15.2	0.00e+00	0	43	0	279969792	17	4723
2026-01-01 01:00:34.50	7.20	22.34	-28.6	-31.1	15.1	1.84e-04	0	43	0	281018368	17	4792
2026-01-01 01:00:35.51	7.11	22.47	-28.7	-31.3	14.9	2.32e-04	0	43	0	283115520	17	4864
2026-01-01 01:00:36.51	7.02	22.61	-28.5	-30.9	15.2	0.00e+00	0	43	0	285212672	17	4748
2026-01-01 01:00:37.52	6.92	22.75	-28.5	-30.9	15.2	2.84e-04	0	43	0	287309824	17	4735
2026-01-01 01:00:38.52	6.83	22.88	-28.6	-31.0	15.1	2.21e-04	0	43	0	289406976	17	4759
2026-01-01 01:00:39.52	6.74	23.02	-28.6	-31.0	15.1	0.00e+00	0	43	0	290455552	17	4775
2026-01-01 01:00:40.52	6.64	23.16	-28.7	-31.3	15.0	1.79e-04	0	43	0	292552704	17	4857
2026-01-01 01:00:41.53	6.55	23.30	-28.7	-31.3	15.0	0.00e+00	0	43	0	294649856	17	4857
2026-01-01 01:00:42.54	6.45	23.44	-28.6	-31.1	15.1	0.00e+00	0	43	0	296747008	17	4798
2026-01-01 01:00:43.53	6.36	23.58	-28.7	-31.3	15.0	2.90e-04	0	43	0	298844160	17	4874
2026-01-01 01:00:44.54	6.26	23.72	-28.7	-31.4	14.9	3.10e-04	0	43	0	299892736	17	4902
2026-01-01 01:00:45.54	6.16	23.86	-28.8	-31.6	14.8	1.50e-06	0	43	0	301989888	17	4945
2026-01-01 01:00:46.54	6.06	24.01	-28.8	-31.6	14.8	4.29e-04	0	43	0	304087040	17	4950
2026-01-01 01:00:47.54	5.96	24.15	-28.9	-31.7	14.8	4.92e-04	0	43	0	306184192	17	4989
2026-01-01 01:00:48.55	5.86	24.30	-28.8	-31.7	14.7	0.00e+00	0	43	0	308281344	17	4987
2026-01-01 01:00:49.55	5.76	24.44	-28.9	-31.9	14.6	4.56e-04	0	43	0	309329920	17	5064
2026-01-01 01:00:50.54	5.65	24.58	-29.0	-31.6	14.6	4.43e-04	0	43	0	311427072	18	4832
2026-01-01 01:00:51.55	5.55	24.73	-29.1	-31.7	14.4	0.00e+00	0	43	0	313524224	18	4898
2026-01-01 01:00:52.55	5.44	24.88	-29.2	-32.0	14.3	1.50e-06	0	43	0	315621376	18	4973
2026-01-01 01:00:53.55	5.34	25.03	-29.2	-32.2	14.2	3.35e-04	0	43	0	317718528	18	5057
2026-01-01 01:00:54.55	5.23	25.17	-29.4	-32.5	14.0	0.00e+00	0	43	0	318767104	18	5182
2026-01-01 01:00:55.55	5.12	25.32	-29.4	-32.7	13.8	4.50e-06	0	43	0	320864256	18	5248
2026-01-01 01:00:56.54	5.01	25.47	-29.5	-32.3	13.8	3.43e-04	0	43	0	322961408	19	4964
2026-01-01 01:00:57.54	4.90	25.62	-29.7	-33.0	13.4	9.10e-06	0	43	0	325058560	19	5227
2026-01-01 01:00:58.55	4.79	25.77	-29.8	-33.3	13.2	2.89e-05	0	43	0	326107136	19	5342
2026-01-01 01:00:59.55	4.68	25.93	-29.9	-33.4	13.1	1.90e-05	0	43	0	328204288	19	5399
2026-01-01 01:01:00.55	4.57	26.08	-29.9	-33.5	13.0	4.95e-05	0	43	0	330301440	19	5439
2026-01-01 01:01:01.56	4.45	26.23	-30.0	-33.6	12.9	4.70e-04	0	43	0	332398592	19	5500
2026-01-01 01:01:02.56	4.33	26.39	-30.2	-33.7	12.4	1.06e-04	0	43	0	334495744	20	5434
2026-01-01 01:01:03.57	4.21	26.54	-30.2	-33.9	12.4	1.91e-04	0	43	0	335544320	20	5499
2026-01-01 01:01:04.57	4.10	26.70	-30.1	-33.4	12.7	3.33e-04	0	43	0	337641472	20	5314
2026-01-01 01:01:05.58	3.98	26.86	-30.0	-33.3	12.8	6.25e-05	0	43	0	339738624	20	5253
2026-01-01 01:01:06.58	3.86	27.01	-30.1	-33.6	12.6	8.08e-05	0	43	0	341835776	20	5383
2026-01-01 01:01:07.59	3.73	27.17	-30.3	-34.0	12.3	2.37e-04	0	43	0	343932928	20	5564
2026-01-01 01:01:08.59	3.61	27.33	-30.3	-34.3	12.1	3.22e-03	0	43	0	344981504	20	5666
2026-01-01 01:01:09.60	3.48	27.49	-30.4	-34.4	12.1	2.62e-04	0	43	0	347078656	20	5709
2026-01-01 01:01:10.60	3.36	27.65	-30.6	-34.5	11.6	4.04e-04	0	43	0	349175808	21	5640
2026-01-01 01:01:11.59	3.23	27.81	-30.8	-35.2	11.2	9.71e-04	0	43	0	351272960	21	5950
2026-01-01 01:01:12.60	3.10	27.98	-30.8	-35.1	11.2	2.02e-03	0	43	0	353370112	21	5920
2026-01-01 01:01:13.60	2.97	28.14	-30.8	-35.2	11.1	1.48e-03	0	43	0	354418688	21	5982
2026-01-01 01:01:14.60	2.84	28.30	-30.9	-35.5	10.9	2.30e-03	0	43	0	356515840	21	6092
2026-01-01 01:01:15.60	2.71	28.47	-30.8	-35.3	11.0	1.65e-03	0	43	0	358612992	21	6044
2026-01-01 01:01:16.61	2.57	28.63	-30.8	-35.3	11.1	1.75e-03	0	43	0	360710144	21	5992
2026-01-01 01:01:17.61	2.44	28.80	-30.8	-35.2	11.1	1.63e-03	0	43	0	362807296	21	5973
2026-01-01 01:01:18.61	2.30	28.96	-30.9	-35.5	11.0	1.91e-03	0	43	0	363855872	21	6116
2026-01-01 01:01:19.61	2.16	29.13	-30.9	-35.4	11.0	5.27e-03	0	43	0	365953024	21	6038
2026-01-01 01:01:20.61	2.02	29.30	-30.6	-34.6	11.6	1.50e-03	0	43	0	368050176	21	5698
2026-01-01 01:01:21.61	1.88	29.47	-30.7	-34.7	11.5	9.31e-04	0	43	0	370147328	21	5726
2026-01-01 01:01:22.61	1.74	29.64	-30.6	-34.4	11.8	3.63e-03	0	43	0	372244480	21	5584
2026-01-01 01:01:23.62	1.59	29.81	-30.5	-34.3	11.8	6.56e-04	0	43	0	373293056	21	5538
2026-01-01 01:01:24.62	1.45	29.98	-30.5	-34.1	12.0	4.60e-04	0	43	0	375390208	21	5485
2026-01-01 01:01:25.62	1.30	30.15	-30.4	-34.5	12.1	3.18e-03	0	43	0	377487360	20	5741
2026-01-01 01:01:26.62	1.15	30.33	-30.5	-34.5	12.0	3.42e-03	0	43	0	379584512	20	5762
2026-01-01 01:01:27.62	1.00	30.50	-30.5	-34.6	12.0	2.26e-04	0	43	0	380633088	20	5768
2026-01-01 01:01:28.63	0.85	30.68	-30.4	-34.3	12.2	3.26e-04	0	43	0	382730240	20	5669
2026-01-01 01:01:29.63	0.69	30.85	-30.5	-34.3	11.9	3.38e-03	0	43	0	384827392	21	5531
2026-01-01 01:01:30.63	0.54	31.03	-30.7	-34.8	11.5	8.04e-04	0	43	0	386924544	21	5785
2026-01-01 01:01:31.63	0.38	31.21	-30.6	-34.6	11.6	8.06e-04	0	43	0	389021696	21	5681
2026-01-01 01:01:32.64	0.22	31.39	-30.4	-34.3	12.2	3.02e-03	0	43	0	390070272	20	5658
2026-01-01 01:01:33.64	0.06	31.57	-30.2	-33.7	12.6	3.57e-04	0	43	0	392167424	20	5398
2026-01-01 01:01:34.65	359.89	31.75	-30.2	-33.7	12.6	7.09e-05	0	43	0	394264576	20	5419
2026-01-01 01:01:35.66	359.72	31.93	-30.1	-33.5	12.7	6.63e-05	0	43	0	396361728	20	5331
2026-01-01 01:01:36.66	359.56	32.11	-30.0	-33.5	12.7	3.50e-04	0	43	0	398458880	20	5367
2026-01-01 01:01:37.66	359.39	32.29	-30.2	-33.8	12.5	2.98e-03	0	43	0	399507456	20	5421
2026-01-01 01:01:38.67	359.22	32.48	-30.2	-33.9	12.5	1.11e-04	0	43	0	401604608	20	5473
2026-01-01 01:01:39.67	359.04	32.66	-30.3	-33.9	12.5	4.55e-04	0	43	0	403701760	20	5488
2026-01-01 01:01:40.67	358.87	32.85	-30.2	-33.8	12.6	2.91e-03	0	43	0	405798912	20	5431
2026-01-01 01:01:41.67	358.69	33.03	-30.3	-34.2	12.4	2.69e-03	0	43	0	407896064	20	5586
2026-01-01 01:01:42.67	358.51	33.22	-30.2	-33.9	12.5	6.04e-04	0	43	0	408944640	20	5456
2026-01-01 01:01:43.68	358.33	33.41	-30.2	-33.6	12.7	2.59e-03	0	43	0	411041792	20	5366
2026-01-01 01:01:44.68	358.15	33.60	-30.2	-33.8	12.6	2.89e-03	0	43	0	413138944	20	5432
2026-01-01 01:01:45.68	357.96	33.78	-30.2	-33.8	12.6	1.33e-04	0	43	0	415236096	20	5447
2026-01-01 01:01:46.68	357.77	33.97	-30.1	-33.4	13.0	2.75e-03	0	43	0	417333248	20	5266
2026-01-01 01:01:47.68	357.58	34.16	-30.1	-33.3	12.9	2.60e-03	0	43	0	418381824	20	5246
2026-01-01 01:01:48.67	357.39	34.35	-30.2	-33.8	12.6	4.46e-04	0	43	0	420478976	20	5436
2026-01-01 01:01:49.67	357.20	34.55	-30.2	-33.9	12.6	2.76e-03	0	43	0	422576128	20	5453
2026-01-01 01:01:50.68	357.00	34.74	-30.4	-34.3	12.3	2.41e-03	0	43	0	424673280	20	5626
2026-01-01 01:01:51.69	356.80	34.94	-30.5	-34.2	12.0	5.96e-04	0	43	0	425721856	21	5470
2026-01-01 01:01:52.68	356.60	35.13	-30.6	-34.4	11.9	2.60e-03	0	43	0	427819008	21	5572
2026-01-01 01:01:53.69	356.39	35.33	-30.6	-34.4	11.8	3.07e-03	0	43	0	429916160	21	5587
2026-01-01 01:01:54.69	356.19	35.52	-30.7	-34.9	11.5	9.03e-04	0	43	0	432013312	21	5788
2026-01-01 01:01:55.69	355.98	35.72	-30.7	-34.8	11.6	3.10e-03	0	43	0	434110464	21	5766
2026-01-01 01:01:56.69	355.77	35.92	-30.7	-34.7	11.6	3.07e-03	0	43	0	435159040	21	5731
2026-01-01 01:01:57.69	355.55	36.11	-30.7	-34.8	11.6	1.08e-03	0	43	0	437256192	21	5771
2026-01-01 01:01:58.69	355.34	36.31	-30.8	-34.9	11.5	3.25e-03	0	43	0	439353344	21	5815
2026-01-01 01:01:59.70	355.11	36.52	-30.8	-35.1	11.4	3.11e-03	0	43	0	441450496	21	5880
2026-01-01 01:02:00.69	354.89	36.71	-30.8	-35.1	11.4	1.51e-03	0	43	0	443547648	21	5910
2026-01-01 01:02:01.70	354.67	36.92	-31.0	-35.6	11.1	3.65e-03	0	43	0	444596224	21	6110
2026-01-01 01:02:02.71	354.44	37.12	-31.1	-35.4	10.9	4.37e-03	0	43	0	446693376	22	5913
2026-01-01 01:02:03.71	354.21	37.32	-31.2	-35.8	10.5	3.89e-03	0	43	0	448790528	22	6140
2026-01-01 01:02:04.71	353.97	37.53	-31.1	-35.4	10.8	5.49e-03	0	43	0	450887680	22	5904
2026-01-01 01:02:05.72	353.73	37.73	-31.0	-35.1	11.0	3.91e-03	0	43	0	452984832	22	5783
2026-01-01 01:02:06.72	353.49	37.94	-31.1	-35.3	10.9	1.89e-03	0	43	0	454033408	22	5888
2026-01-01 01:02:07.72	353.25	38.15	-31.0	-35.1	11.1	4.22e-03	0	43	0	456130560	22	5789
2026-01-01 01:02:08.73	353.00	38.35	-31.1	-35.3	11.0	3.84e-03	0	43	0	458227712	22	5851
2026-01-01 01:02:09.73	352.75	38.56	-31.1	-35.4	10.9	2.23e-03	0	43	0	460324864	22	5918
2026-01-01 01:02:10.73	352.50	38.77	-31.2	-35.6	10.7	2.56e-03	0	43	0	462422016	22	5999
2026-01-01 01:02:11.74	352.24	38.98	-31.2	-35.7	10.6	6.00e-03	0	43	0	463470592	22	6059
2026-01-01 01:02:12.74	351.98	39.19	-31.3	-36.2	10.3	4.22e-03	0	43	0	465567744	22	6317
2026-01-01 01:02:13.74	351.72	39.40	-31.3	-36.0	10.4	4.67e-03	0	43	0	467664896	22	6210
2026-01-01 01:02:14.75	351.45	39.61	-31.3	-36.1	10.3	6.61e-03	0	43	0	469762048	22	6267
2026-01-01 01:02:15.75	351.18	39.82	-31.6	-36.6	9.6	8.34e-03	0	43	0	470810624	23	6421
2026-01-01 01:02:16.75	350.91	40.03	-31.5	-36.3	9.8	1.20e-02	0	43	0	472907776	23	6274
2026-01-01 01:02:17.76	350.63	40.24	-31.6	-36.6	9.6	1.12e-02	0	43	0	475004928	23	6414
2026-01-01 01:02:18.77	350.34	40.46	-31.5	-36.4	9.8	1.36e-02	0	43	0	477102080	23	6288
2026-01-01 01:02:19.78	350.05	40.67	-31.5	-36.5	9.7	1.27e-02	0	43	0	479199232	23	6349
2026-01-01 01:02:20.78	349.77	40.89	-31.5	-36.4	9.8	9.04e-03	0	43	0	481296384	23	6290
2026-01-01 01:02:21.78	349.47	41.10	-31.4	-36.5	10.0	7.18e-03	0	43	0	482344960	22	6457
2026-01-01 01:02:22.78	349.18	41.31	-31.5	-36.7	9.9	1.02e-02	0	43	0	484442112	22	6573
2026-01-01 01:02:23.78	348.88	41.53	-31.3	-36.1	10.4	6.18e-03	0	43	0	486539264	22	6240
2026-01-01 01:02:24.79	348.57	41.74	-31.0	-35.0	11.2	2.03e-03	0	43	0	488636416	22	5722
2026-01-01 01:02:25.79	348.26	41.96	-30.6	-34.4	12.0	2.14e-03	0	43	0	489684992	21	5555
2026-01-01 01:02:26.79	347.95	42.17	-30.6	-34.3	12.0	2.72e-04	0	43	0	491782144	21	5500
2026-01-01 01:02:27.80	347.63	42.39	-30.5	-34.2	12.1	2.35e-04	0	43	0	493879296	21	5458
2026-01-01 01:02:28.80	347.31	42.61	-30.6	-34.3	12.1	2.78e-04	0	43	0	495976448	21	5501
2026-01-01 01:02:29.81	346.98	42.82	-30.6	-34.4	11.9	2.19e-03	0	43	0	498073600	21	5581
2026-01-01 01:02:30.80	346.65	43.04	-30.7	-34.7	11.8	4.94e-04	0	43	0	499122176	21	5677
2026-01-01 01:02:31.80	346.32	43.25	-30.6	-34.4	11.9	4.90e-04	0	43	0	501219328	21	5570
2026-01-01 01:02:32.80	345.98	43.47	-30.5	-34.2	12.1	3.96e-04	0	43	0	503316480	21	5464
2026-01-01 01:02:33.81	345.63	43.69	-30.4	-33.9	12.3	1.70e-04	0	43	0	505413632	21	5337
2026-01-01 01:02:34.81	345.28	43.91	-30.4	-34.4	12.4	1.20e-04	0	43	0	507510784	20	5660
2026-01-01 01:02:35.81	344.93	44.12	-30.3	-34.1	12.6	1.25e-04	0	43	0	508559360	20	5524
2026-01-01 01:02:36.80	344.58	44.34	-30.5	-34.2	12.1	1.11e-04	0	43	0	510656512	21	5452
2026-01-01 01:02:37.80	344.21	44.55	-30.6	-34.2	12.1	3.20e-04	0	43	0	512753664	21	5493
2026-01-01 01:02:38.81	343.84	44.77	-30.7	-34.7	11.8	3.20e-04	0	43	0	514850816	21	5697
2026-01-01 01:02:39.81	343.47	44.99	-30.7	-34.7	11.8	8.34e-04	0	43	0	516947968	21	5687
2026-01-01 01:02:40.82	343.09	45.21	-31.0	-35.2	11.1	1.11e-03	0	43	0	517996544	22	5822
2026-01-01 01:02:41.82	342.70	45.42	-31.0	-34.9	11.3	1.55e-03	0	43	0	520093696	22	5689
2026-01-01 01:02:42.82	342.31	45.64	-30.9	-34.6	11.5	1.03e-03	0	43	0	522190848	22	5544
2026-01-01 01:02:43.82	341.92	45.85	-30.8	-34.9	11.6	6.42e-04	0	43	0	524288000	21	5780
2026-01-01 01:02:44.82	341.52	46.07	-30.7	-34.7	11.8	6.10e-04	0	43	0	526385152	21	5700
2026-01-01 01:02:45.82	341.12	46.28	-30.8	-34.8	11.7	5.97e-04	0	43	0	527433728	21	5749
2026-01-01 01:02:46.83	340.70	46.50	-30.8	-35.0	11.6	6.39e-04	0	43	0	529530880	21	5823
2026-01-01 01:02:47.83	340.28	46.71	-30.7	-34.7	11.8	4.81e-04	0	43	0	531628032	21	5683
2026-01-01 01:02:48.83	339.86	46.92	-30.7	-34.6	11.9	4.52e-04	0	43	0	533725184	21	5641
2026-01-01 01:02:49.83	339.43	47.13	-30.9	-35.3	11.4	5.33e-04	0	43	0	534773760	21	5968
2026-01-01 01:02:50.82	339.00	47.34	-31.1	-35.3	11.0	1.24e-03	0	43	0	536870912	22	5865
2026-01-01 01:02:51.83	338.56	47.55	-31.3	-36.0	10.5	2.56e-03	0	43	0	538968064	22	6183
2026-01-01 01:02:52.83	338.11	47.76	-31.2	-35.6	10.9	2.94e-03	0	43	0	541065216	22	5966
2026-01-01 01:02:53.83	337.66	47.97	-30.9	-34.8	11.4	1.76e-03	0	43	0	543162368	22	5618
2026-01-01 01:02:54.83	337.20	48.18	-30.9	-34.6	11.5	8.83e-04	0	43	0	544210944	22	5518
2026-01-01 01:02:55.83	336.74	48.39	-30.9	-35.2	11.4	1.00e-03	0	43	0	546308096	21	5928
2026-01-01 01:02:56.84	336.26	48.59	-30.9	-35.2	11.5	1.13e-03	0	43	0	548405248	21	5909
2026-01-01 01:02:57.84	335.78	48.80	-30.7	-34.6	11.9	5.58e-04	0	43	0	550502400	21	5661
2026-01-01 01:02:58.84	335.30	49.00	-30.5	-33.9	12.4	3.29e-04	0	43	0	552599552	21	5365
2026-01-01 01:02:59.84	334.81	49.20	-30.4	-33.9	12.3	1.74e-04	0	43	0	553648128	21	5345
2026-01-01 01:03:00.84	334.31	49.40	-29.6	-33.0	12.4	1.81e-04	0	43	0	555745280	21	5325
2026-01-01 01:03:01.85	333.81	49.61	-30.4	-34.1	11.9	1.98e-04	0	43	0	557842432	21	5474
2026-01-01 01:03:02.85	333.30	49.80	-30.2	-33.3	12.8	1.06e-04	0	43	0	559939584	21	5093
2026-01-01 01:03:03.85	332.78	50.00	-30.2	-33.6	12.3	4.95e-05	0	43	0	562036736	20	5326
2026-01-01 01:03:04.85	332.26	50.19	-30.0	-33.1	12.6	2.05e-05	0	43	0	563085312	20	5154
2026-01-01 01:03:05.86	331.72	50.39	-29.8	-32.6	13.5	1.37e-05	0	43	0	565182464	20	4952
2026-01-01 01:03:06.85	331.19	50.58	-29.9	-33.2	13.5	3.12e-05	0	43	0	567279616	19	5264
2026-01-01 01:03:07.86	330.64	50.77	-29.7	-32.6	13.9	4.34e-05	0	43	0	569376768	19	5068
2026-01-01 01:03:08.86	330.09	50.95	-29.5	-32.2	14.2	7.00e-07	0	43	0	571473920	19	4916
2026-01-01 01:03:09.86	329.53	51.14	-29.3	-32.1	14.6	0.00e+00	0	43	0	572522496	18	4982
2026-01-01 01:03:10.86	328.97	51.32	-29.2	-31.8	14.7	0.00e+00	0	43	0	574619648	18	4896
2026-01-01 01:03:11.87	328.39	51.50	-29.3	-32.1	14.6	4.65e-05	0	43	0	576716800	18	5004
2026-01-01 01:03:12.87	327.81	51.68	-29.2	-31.8	14.7	0.00e+00	0	43	0	578813952	18	4897
2026-01-01 01:03:13.87	327.23	51.85	-29.4	-32.3	14.5	1.50e-06	0	43	0	579862528	18	5061
2026-01-01 01:03:14.88	326.63	52.03	-29.0	-31.5	15.0	4.27e-05	0	43	0	581959680	18	4772
2026-01-01 01:03:15.88	326.03	52.20	-28.9	-31.6	15.2	0.00e+00	0	43	0	584056832	17	4909
2026-01-01 01:03:16.88	325.42	52.37	-28.8	-31.3	15.4	0.00e+00	0	43	0	586153984	17	4815
2026-01-01 01:03:17.88	324.81	52.53	-28.6	-31.0	15.5	0.00e+00	0	43	0	588251136	17	4730
2026-01-01 01:03:18.89	324.18	52.69	-28.4	-30.9	15.9	2.10e-03	0	43	0	589299712	16	4807
2026-01-01 01:03:19.89	323.56	52.85	-28.5	-30.6	15.8	0.00e+00	0	43	0	591396864	17	4600
2026-01-01 01:03:20.89	322.92	53.01	-28.5	-30.6	15.8	0.00e+00	0	43	0	593494016	17	4593
2026-01-01 01:03:21.90	322.28	53.16	-28.6	-30.8	15.7	1.89e-03	0	43	0	595591168	17	4669
2026-01-01 01:03:22.90	321.63	53.31	-28.8	-31.3	15.3	2.03e-03	0	43	0	597688320	17	4833
2026-01-01 01:03:23.91	320.97	53.46	-28.7	-31.1	15.5	0.00e+00	0	43	0	598736896	17	4745
2026-01-01 01:03:24.91	320.31	53.60	-28.9	-31.6	15.1	7.46e-04	0	43	0	600834048	17	4932
2026-01-01 01:03:25.91	319.64	53.74	-29.1	-31.6	14.8	1.27e-04	0	43	0	602931200	18	4818
2026-01-01 01:03:26.91	318.97	53.88	-29.5	-32.6	14.3	7.00e-07	0	43	0	605028352	18	5179
2026-01-01 01:03:27.91	318.29	54.01	-29.9	-33.2	13.5	3.80e-06	0	43	0	607125504	19	5287
2026-01-01 01:03:28.92	317.60	54.14	-29.8	-32.9	13.8	7.30e-04	0	43	0	608174080	19	5155
2026-01-01 01:03:29.92	316.90	54.26	-29.4	-31.9	14.4	1.50e-06	0	43	0	610271232	19	4814
2026-01-01 01:03:30.92	316.21	54.38	-29.4	-32.3	14.5	0.00e+00	0	43	0	612368384	18	5069
2026-01-01 01:03:31.93	315.50	54.50	-29.4	-32.4	14.4	7.41e-04	0	43	0	614465536	18	5092
2026-01-01 01:03:32.93	314.79	54.61	-29.2	-31.8	14.8	4.50e-06	0	43	0	616562688	18	4875
2026-01-01 01:03:33.93	314.07	54.72	-29.0	-31.3	15.1	1.77e-03	0	43	0	617611264	18	4711
2026-01-01 01:03:34.93	313.35	54.82	-28.9	-31.6	15.2	1.62e-03	0	43	0	619708416	17	4909
2026-01-01 01:03:35.93	312.63	54.92	-28.7	-31.2	15.5	3.80e-06	0	43	0	621805568	17	4772
2026-01-01 01:03:36.93	311.89	55.01	-28.8	-31.4	15.3	1.30e-03	0	43	0	623902720	17	4844
2026-01-01 01:03:37.93	311.16	55.10	-28.9	-31.6	15.2	0.00e+00	0	43	0	624951296	17	4913
2026-01-01 01:03:38.93	310.42	55.19	-28.6	-30.9	15.6	0.00e+00	0	43	0	627048448	17	4693
2026-01-01 01:03:39.94	309.67	55.27	-28.4	-30.5	15.8	1.46e-03	0	43	0	629145600	17	4570
2026-01-01 01:03:40.93	308.93	55.35	-28.4	-30.9	15.9	1.79e-03	0	43	0	631242752	16	4815
2026-01-01 01:03:41.94	308.17	55.42	-28.4	-30.9	16.0	1.65e-04	0	43	0	633339904	16	4790
2026-01-01 01:03:42.95	307.40	55.48	-28.4	-30.8	16.0	1.49e-03	0	43	0	634388480	16	4782
2026-01-01 01:03:43.95	306.64	55.55	-28.2	-30.4	16.2	1.31e-03	0	43	0	636485632	16	4656
2026-01-01 01:03:44.95	305.88	55.60	-28.0	-30.0	16.5	0.00e+00	0	43	0	638582784	16	4513
2026-01-01 01:03:45.95	305.12	55.65	-28.0	-29.9	16.5	6.59e-04	0	43	0	640679936	16	4477
2026-01-01 01:03:46.95	304.35	55.70	-28.1	-30.2	16.4	1.14e-03	0	43	0	642777088	16	4571
2026-01-01 01:03:47.95	303.58	55.74	-27.8	-29.4	16.8	0.00e+00	0	43	0	643825664	16	4350
2026-01-01 01:03:48.96	302.80	55.78	-27.6	-29.5	16.9	1.86e-03	0	43	0	645922816	15	4505
2026-01-01 01:03:49.96	302.02	55.81	-27.8	-30.1	16.5	1.98e-03	0	43	0	648019968	15	4673
2026-01-01 01:03:50.97	301.24	55.84	-27.6	-29.6	16.8	7.00e-07	0	43	0	650117120	15	4516
2026-01-01 01:03:51.97	300.46	55.86	-27.4	-29.1	17.1	2.20e-06	0	43	0	652214272	15	4389
2026-01-01 01:03:52.97	299.68	55.87	-27.6	-29.5	16.9	1.20e-03	0	43	0	653262848	15	4492
2026-01-01 01:03:53.97	298.90	55.88	-27.7	-29.9	16.7	0.00e+00	0	43	0	655360000	15	4607
2026-01-01 01:03:54.97	298.12	55.89	-28.2	-30.4	16.3	1.60e-05	0	43	0	657457152	16	4639
2026-01-01 01:03:55.97	297.34	55.89	-27.9	-29.8	16.6	0.00e+00	0	43	0	659554304	16	4446
2026-01-01 01:03:56.97	296.56	55.88	-27.8	-29.5	16.8	0.00e+00	0	43	0	661651456	16	4373
2026-01-01 01:03:57.97	295.78	55.87	-27.7	-29.7	16.8	1.63e-03	0	43	0	662700032	15	4565
2026-01-01 01:03:58.97	295.00	55.86	-27.8	-29.9	16.6	0.00e+00	0	43	0	664797184	15	4627
2026-01-01 01:03:59.97	294.22	55.84	-27.9	-30.3	16.4	2.66e-04	0	43	0	666894336	15	4757
2026-01-01 01:04:00.97	293.44	55.81	-28.1	-30.2	16.3	1.78e-03	0	43	0	668991488	16	4585
2026-01-01 01:04:01.97	292.67	55.78	-28.1	-30.3	16.3	2.09e-03	0	43	0	670040064	16	4615
2026-01-01 01:04:02.97	291.90	55.75	-28.2	-30.3	16.2	1.70e-04	0	43	0	672137216	16	4633
2026-01-01 01:04:03.97	291.12	55.70	-28.0	-30.0	16.5	2.18e-03	0	43	0	674234368	16	4530
2026-01-01 01:04:04.97	290.35	55.66	-27.5	-29.3	16.9	1.99e-03	0	43	0	676331520	15	4443
2026-01-01 01:04:05.98	289.58	55.61	-27.5	-29.3	17.0	3.56e-04	0	43	0	678428672	15	4424
2026-01-01 01:04:06.98	288.82	55.55	-27.4	-29.1	17.0	1.62e-03	0	43	0	679477248	15	4383
2026-01-01 01:04:07.98	288.06	55.49	-27.2	-29.1	17.3	1.58e-03	0	43	0	681574400	14	4477
2026-01-01 01:04:08.98	287.30	55.42	-26.9	-28.5	17.7	7.70e-05	0	43	0	683671552	14	4324
2026-01-01 01:04:09.99	286.54	55.35	-26.7	-28.5	18.0	1.69e-04	0	43	0	685768704	13	4428
2026-01-01 01:04:10.98	285.80	55.28	-26.8	-28.7	17.8	1.89e-03	0	43	0	687865856	13	4486
2026-01-01 01:04:11.98	285.05	55.20	-26.5	-28.1	18.1	0.00e+00	0	43	0	688914432	13	4327
2026-01-01 01:04:12.98	284.31	55.11	-26.5	-28.0	18.2	0.00e+00	0	43	0	691011584	13	4278
2026-01-01 01:04:13.98	283.58	55.02	-26.4	-27.7	18.4	0.00e+00	0	43	0	693108736	13	4217
2026-01-01 01:04:14.98	282.84	54.93	-26.2	-27.5	18.5	7.00e-07	0	43	0	695205888	13	4150
2026-01-01 01:04:15.99	282.11	54.83	-26.4	-28.3	18.3	1.88e-03	0	43	0	697303040	12	4501
2026-01-01 01:04:16.99	281.39	54.72	-26.3	-28.0	18.4	0.00e+00	0	43	0	698351616	12	4412
2026-01-01 01:04:17.99	280.67	54.62	-26.2	-27.9	18.5	4.50e-05	0	43	0	700448768	12	4377
2026-01-01 01:04:19.00	279.96	54.50	-26.5	-28.2	18.0	2.50e-03	0	43	0	702545920	13	4344
2026-01-01 01:04:20.00	279.25	54.39	-26.8	-28.7	17.8	0.00e+00	0	43	0	704643072	13	4496
2026-01-01 01:04:21.00	278.55	54.27	-26.8	-28.7	17.8	0.00e+00	0	43	0	705691648	13	4495
2026-01-01 01:04:22.01	277.85	54.14	-26.9	-28.9	17.8	2.07e-03	0	43	0	707788800	13	4538
2026-01-01 01:04:23.00	277.17	54.02	-27.1	-29.0	17.4	9.71e-04	0	43	0	709885952	14	4466
2026-01-01 01:04:24.01	276.48	53.88	-27.7	-29.9	16.6	0.00e+00	0	43	0	711983104	15	4624
2026-01-01 01:04:25.01	275.81	53.75	-27.9	-30.2	16.4	0.00e+00	0	43	0	714080256	15	4720
2026-01-01 01:04:26.00	275.15	53.61	-28.4	-30.9	16.0	2.20e-03	0	43	0	715128832	16	4795
2026-01-01 01:04:27.01	274.48	53.47	-28.3	-30.7	16.0	8.30e-06	0	43	0	717225984	16	4730
2026-01-01 01:04:28.01	273.82	53.32	-28.8	-31.3	15.3	0.00e+00	0	43	0	719323136	17	4843
2026-01-01 01:04:29.02	273.17	53.17	-28.9	-31.7	15.1	2.26e-03	0	43	0	721420288	17	4961
2026-01-01 01:04:30.02	272.53	53.02	-28.8	-31.4	15.3	0.00e+00	0	43	0	723517440	17	4870
2026-01-01 01:04:31.02	271.89	52.86	-29.0	-31.9	15.1	0.00e+00	0	43	0	724566016	17	5030
2026-01-01 01:04:32.01	271.27	52.70	-28.7	-30.7	15.4	0.00e+00	0	43	0	726663168	18	4526
2026-01-01 01:04:33.02	270.64	52.54	-28.4	-29.9	15.9	0.00e+00	0	43	0	728760320	18	4289
2026-01-01 01:04:34.03	270.02	52.38	-28.3	-30.7	16.0	0.00e+00	0	43	0	730857472	16	4730
2026-01-01 01:04:35.03	269.41	52.21	-28.4	-31.0	15.8	0.00e+00	0	43	0	732954624	16	4835
2026-01-01 01:04:36.04	268.81	52.04	-28.9	-31.7	15.1	0.00e+00	0	43	0	734003200	17	4969
2026-01-01 01:04:37.04	268.21	51.86	-29.0	-31.5	14.9	0.00e+00	0	43	0	736100352	18	4787
2026-01-01 01:04:38.05	267.62	51.69	-29.1	-31.6	14.9	7.60e-06	0	43	0	738197504	18	4825
2026-01-01 01:04:39.05	267.04	51.51	-29.1	-31.6	14.9	0.00e+00	0	43	0	740294656	18	4819
2026-01-01 01:04:40.06	266.46	51.33	-29.2	-31.9	14.7	0.00e+00	0	43	0	742391808	18	4927
2026-01-01 01:04:41.06	265.90	51.14	-29.1	-31.6	14.9	3.00e-06	0	43	0	743440384	18	4824
2026-01-01 01:04:42.06	265.34	50.96	-29.0	-31.3	15.0	2.46e-04	0	43	0	745537536	18	4719
2026-01-01 01:04:43.06	264.78	50.77	-29.1	-31.7	14.8	3.68e-04	0	43	0	747634688	18	4860
2026-01-01 01:04:44.07	264.23	50.58	-29.6	-32.3	14.1	3.80e-06	0	43	0	749731840	19	4964
2026-01-01 01:04:45.07	263.70	50.39	-29.9	-33.3	13.4	9.44e-04	0	43	0	751828992	19	5335
2026-01-01 01:04:46.07	263.16	50.20	-30.0	-33.2	13.2	1.46e-03	0	43	0	752877568	20	5188
2026-01-01 01:04:47.07	262.64	50.00	-30.0	-33.2	13.2	2.51e-05	0	43	0	754974720	20	5189
2026-01-01 01:04:48.07	262.12	49.81	-30.1	-33.4	13.0	1.68e-03	0	43	0	757071872	20	5240
2026-01-01 01:04:49.08	261.61	49.61	-29.9	-32.8	13.3	1.30e-03	0	43	0	759169024	20	5039
2026-01-01 01:04:50.08	261.10	49.41	-30.0	-33.2	13.2	2.89e-05	0	43	0	761266176	20	5167
2026-01-01 01:04:51.08	260.60	49.21	-30.4	-34.4	12.4	1.07e-04	0	43	0	762314752	20	5658
2026-01-01 01:04:52.08	260.11	49.00	-30.9	-35.4	11.2	1.08e-03	0	43	0	764411904	21	6029
2026-01-01 01:04:53.09	259.62	48.80	-31.3	-36.0	10.4	2.75e-03	0	43	0	766509056	22	6206
2026-01-01 01:04:54.09	259.14	48.59	-31.4	-36.4	10.1	7.36e-03	0	43	0	768606208	22	6409
2026-01-01 01:04:55.10	258.67	48.38	-31.4	-36.3	10.2	5.95e-03	0	43	0	769654784	22	6366
2026-01-01 01:04:56.10	258.20	48.18	-31.5	-36.3	9.8	6.87e-03	0	43	0	771751936	23	6268
2026-01-01 01:04:57.11	257.74	47.97	-31.5	-36.7	10.0	7.50e-03	0	43	0	773849088	22	6573
2026-01-01 01:04:58.11	257.28	47.76	-31.7	-36.9	9.4	1.38e-02	0	43	0	775946240	23	6585
2026-01-01 01:04:59.12	256.83	47.55	-31.7	-37.3	9.1	1.92e-02	0	43	0	778043392	23	6814
2026-01-01 01:05:00.12	256.39	47.33	-31.8	-37.5	8.9	3.44e-02	0	43	0	779091968	23	6940
2026-01-01 01:05:01.12	255.95	47.12	-31.8	-37.4	9.0	2.82e-02	0	43	0	781189120	23	6853
2026-01-01 01:05:02.12	255.53	46.91	-31.9	-38.0	8.5	3.43e-02	0	43	0	783286272	23	7229
2026-01-01 01:05:03.12	255.10	46.70	-32.0	-38.0	8.1	5.14e-02	0	43	0	785383424	24	7155
2026-01-01 01:05:04.13	254.68	46.48	-31.9	-38.0	8.5	5.07e-02	0	43	0	787480576	23	7266
2026-01-01 01:05:05.13	254.27	46.27	-31.7	-37.3	9.0	2.97e-02	0	43	0	788529152	23	6832
2026-01-01 01:05:06.14	253.86	46.05	-31.8	-37.5	8.8	2.70e-02	0	43	0	790626304	23	6939
2026-01-01 01:05:07.14	253.46	45.83	-31.5	-36.4	9.7	1.66e-02	0	43	0	792723456	23	6349
2026-01-01 01:05:08.14	253.06	45.62	-31.3	-35.7	10.2	7.32e-03	0	43	0	794820608	23	5977
2026-01-01 01:05:09.14	252.67	45.40	-31.4	-36.4	10.1	6.10e-03	0	43	0	796917760	22	6404
2026-01-01 01:05:10.14	252.29	45.19	-31.5	-36.5	9.6	1.01e-02	0	43	0	797966336	23	6401
2026-01-01 01:05:11.15	251.90	44.97	-31.6	-36.9	9.3	1.93e-02	0	43	0	800063488	23	6574
2026-01-01 01:05:12.15	251.53	44.75	-31.1	-35.6	10.6	6.61e-03	0	43	0	802160640	22	6004
2026-01-01 01:05:13.15	251.16	44.53	-30.8	-35.1	11.4	1.93e-03	0	43	0	804257792	21	5880
2026-01-01 01:05:14.15	250.80	44.32	-30.6	-34.3	11.9	8.52e-04	0	43	0	806354944	21	5529
2026-01-01 01:05:15.15	250.44	44.10	-30.4	-34.4	12.2	2.89e-03	0	43	0	807403520	20	5683
2026-01-01 01:05:16.16	250.08	43.88	-30.3	-34.2	12.3	1.89e-04	0	43	0	809500672	20	5581
2026-01-01 01:05:17.16	249.73	43.66	-30.5	-34.2	12.1	8.86e-04	0	43	0	811597824	21	5479
2026-01-01 01:05:18.16	249.39	43.45	-30.5	-34.1	12.1	3.21e-03	0	43	0	813694976	21	5442
2026-01-01 01:05:19.17	249.04	43.23	-30.4	-34.3	12.3	2.29e-04	0	43	0	815792128	20	5657
2026-01-01 01:05:20.16	248.71	43.01	-30.2	-33.8	12.6	1.32e-04	0	43	0	816840704	20	5414
2026-01-01 01:05:21.17	248.38	42.79	-30.3	-34.0	12.5	3.32e-03	0	43	0	818937856	20	5514
2026-01-01 01:05:22.17	248.05	42.58	-30.4	-34.4	12.2	3.33e-03	0	43	0	821035008	20	5679
2026-01-01 01:05:23.17	247.73	42.36	-30.5	-34.5	12.1	2.14e-04	0	43	0	823132160	20	5723
2026-01-01 01:05:24.17	247.41	42.14	-30.5	-34.2	12.0	3.74e-03	0	43	0	824180736	21	5495
2026-01-01 01:05:25.17	247.10	41.93	-30.9	-35.3	11.2	4.06e-03	0	43	0	826277888	21	5985
2026-01-01 01:05:26.18	246.78	41.71	-31.1	-35.5	10.7	2.17e-03	0	43	0	828375040	22	6004
2026-01-01 01:05:27.19	246.48	41.49	-31.3	-36.1	10.2	4.53e-03	0	43	0	830472192	22	6285
2026-01-01 01:05:28.19	246.18	41.28	-31.2	-35.9	10.3	8.57e-03	0	43	0	832569344	22	6185
2026-01-01 01:05:29.20	245.88	41.06	-31.4	-36.6	9.9	7.97e-03	0	43	0	833617920	22	6560
2026-01-01 01:05:30.21	245.58	40.85	-31.6	-36.9	9.3	1.26e-02	0	43	0	835715072	23	6597
2026-01-01 01:05:31.21	245.29	40.63	-31.6	-36.9	9.2	2.57e-02	0	43	0	837812224	23	6643
2026-01-01 01:05:32.20	245.01	40.42	-31.5	-36.3	9.7	1.57e-02	0	43	0	839909376	23	6284
2026-01-01 01:05:33.20	244.73	40.21	-31.3	-36.4	10.0	1.22e-02	0	43	0	842006528	22	6416
2026-01-01 01:05:34.20	244.45	40.00	-31.4	-36.5	9.9	7.90e-03	0	43	0	843055104	22	6491
2026-01-01 01:05:35.20	244.18	39.78	-31.4	-36.5	9.8	9.93e-03	0	43	0	845152256	22	6507
2026-01-01 01:05:36.21	243.90	39.57	-31.4	-36.7	9.8	1.43e-02	0	43	0	847249408	22	6598
2026-01-01 01:05:37.21	243.64	39.36	-31.4	-36.8	9.7	1.63e-02	0	43	0	849346560	22	6664
2026-01-01 01:05:38.22	243.37	39.15	-31.4	-36.6	9.8	1.17e-02	0	43	0	851443712	22	6548
2026-01-01 01:05:39.22	243.11	38.94	-31.3	-36.2	10.1	1.10e-02	0	43	0	852492288	22	6343
2026-01-01 01:05:40.22	242.85	38.73	-31.3	-36.3	10.1	9.83e-03	0	43	0	854589440	22	6382
2026-01-01 01:05:41.22	242.60	38.52	-31.1	-35.6	10.6	4.25e-03	0	43	0	856686592	22	6055
2026-01-01 01:05:42.22	242.35	38.31	-30.9	-35.6	11.0	4.63e-03	0	43	0	858783744	21	6143
2026-01-01 01:05:43.22	242.10	38.11	-30.9	-35.5	11.0	4.03e-03	0	43	0	860880896	21	6110
2026-01-01 01:05:44.23	241.85	37.90	-31.1	-35.6	10.5	2.50e-03	0	43	0	861929472	22	6057
2026-01-01 01:05:45.23	241.61	37.69	-31.0	-35.2	10.9	5.19e-03	0	43	0	864026624	22	5840
2026-01-01 01:05:46.24	241.37	37.48	-30.9	-35.4	11.0	4.16e-03	0	43	0	866123776	21	6051
2026-01-01 01:05:47.24	241.14	37.28	-30.8	-35.2	11.2	1.70e-03	0	43	0	868220928	21	5951
2026-01-01 01:05:48.23	240.91	37.08	-30.9	-35.5	10.9	2.17e-03	0	43	0	869269504	21	6130
2026-01-01 01:05:49.24	240.68	36.87	-30.8	-35.3	11.2	3.50e-03	0	43	0	871366656	21	5999
2026-01-01 01:05:50.24	240.45	36.67	-30.9	-35.4	11.1	1.38e-03	0	43	0	873463808	21	6045
2026-01-01 01:05:51.24	240.23	36.47	-31.0	-35.7	10.8	4.33e-03	0	43	0	875560960	21	6182
2026-01-01 01:05:52.25	240.01	36.27	-30.9	-35.5	10.8	4.83e-03	0	43	0	877658112	21	6131
2026-01-01 01:05:53.25	239.79	36.07	-30.6	-34.6	11.6	1.29e-03	0	43	0	878706688	21	5674
2026-01-01 01:05:54.25	239.57	35.87	-30.3	-34.2	12.3	2.62e-03	0	43	0	880803840	20	5601
2026-01-01 01:05:55.25	239.36	35.67	-30.1	-33.6	12.6	1.15e-04	0	43	0	882900992	20	5383
2026-01-01 01:05:56.26	239.15	35.47	-30.2	-33.9	12.4	1.02e-04	0	43	0	884998144	20	5478
2026-01-01 01:05:57.27	238.94	35.27	-30.2	-33.9	12.4	2.49e-03	0	43	0	887095296	20	5502
2026-01-01 01:05:58.27	238.74	35.08	-30.2	-33.8	12.6	8.46e-05	0	43	0	888143872	20	5441
2026-01-01 01:05:59.27	238.53	34.88	-30.4	-34.5	12.0	3.26e-04	0	43	0	890241024	20	5747
2026-01-01 01:06:00.28	238.33	34.68	-30.5	-34.4	11.8	8.09e-04	0	43	0	892338176	21	5586
2026-01-01 01:06:01.28	238.13	34.49	-30.8	-35.1	11.1	9.32e-04	0	43	0	894435328	21	5933
2026-01-01 01:06:02.28	237.94	34.30	-30.7	-35.0	11.2	1.24e-03	0	43	0	896532480	21	5892
2026-01-01 01:06:03.29	237.74	34.10	-30.8	-35.2	11.1	1.93e-03	0	43	0	897581056	21	5971
2026-01-01 01:06:04.29	237.55	33.91	-30.6	-34.5	11.6	1.55e-03	0	43	0	899678208	21	5653
2026-01-01 01:06:05.29	237.37	33.72	-30.5	-34.2	11.8	4.88e-04	0	43	0	901775360	21	5522
2026-01-01 01:06:06.30	237.18	33.53	-30.4	-34.0	11.9	4.32e-04	0	43	0	903872512	21	5453
2026-01-01 01:06:07.29	237.00	33.34	-30.5	-34.2	11.8	1.74e-03	0	43	0	905969664	21	5532
2026-01-01 01:06:08.30	236.81	33.16	-30.4	-33.8	12.1	4.29e-04	0	43	0	907018240	21	5359
2026-01-01 01:06:09.29	236.64	32.97	-30.3	-34.2	12.1	2.24e-04	0	43	0	909115392	20	5635
2026-01-01 01:06:10.30	236.46	32.78	-30.2	-33.9	12.4	1.69e-03	0	43	0	911212544	20	5511
2026-01-01 01:06:11.31	236.28	32.59	-30.3	-34.1	12.2	1.97e-04	0	43	0	913309696	20	5581
2026-01-01 01:06:12.31	236.11	32.41	-30.3	-34.1	12.2	2.70e-04	0	43	0	915406848	20	5570
2026-01-01 01:06:13.31	235.93	32.23	-30.3	-34.0	12.3	1.91e-04	0	43	0	916455424	20	5539
2026-01-01 01:06:14.32	235.76	32.04	-30.4	-34.3	12.1	2.43e-04	0	43	0	918552576	20	5670
2026-01-01 01:06:15.33	235.59	31.86	-30.4	-34.5	11.9	4.05e-04	0	43	0	920649728	20	5770
2026-01-01 01:06:16.33	235.43	31.68	-30.4	-34.5	11.9	3.33e-04	0	43	0	922746880	20	5776
2026-01-01 01:06:17.34	235.26	31.49	-30.6	-34.6	11.5	5.65e-04	0	43	0	924844032	21	5705
2026-01-01 01:06:18.34	235.10	31.32	-30.8	-35.2	11.1	1.46e-03	0	43	0	925892608	21	5961
2026-01-01 01:06:19.35	234.94	31.13	-30.7	-35.0	11.2	1.49e-03	0	43	0	927989760	21	5896
2026-01-01 01:06:20.35	234.78	30.96	-30.8	-35.3	11.0	2.15e-03	0	43	0	930086912	21	6023
2026-01-01 01:06:21.36	234.62	30.78	-30.7	-35.0	11.2	2.05e-03	0	43	0	932184064	21	5890
2026-01-01 01:06:22.36	234.47	30.60	-30.8	-35.2	11.1	1.51e-03	0	43	0	933232640	21	5987
2026-01-01 01:06:23.36	234.32	30.43	-30.8	-35.3	11.0	2.14e-03	0	43	0	935329792	21	6021
2026-01-01 01:06:24.36	234.16	30.25	-30.7	-35.0	11.2	1.55e-03	0	43	0	937426944	21	5880
2026-01-01 01:06:25.36	234.01	30.08	-30.7	-34.8	11.3	1.20e-03	0	43	0	939524096	21	5819
2026-01-01 01:06:26.36	233.87	29.91	-30.8	-35.2	11.0	1.70e-03	0	43	0	941621248	21	5982
2026-01-01 01:06:27.36	233.72	29.73	-30.8	-35.2	11.0	2.49e-03	0	43	0	942669824	21	5994
2026-01-01 01:06:28.36	233.57	29.56	-30.4	-34.0	11.9	1.01e-03	0	43	0	944766976	21	5457
2026-01-01 01:06:29.36	233.43	29.39	-30.1	-33.1	12.5	1.91e-04	0	43	0	946864128	21	5093
2026-01-01 01:06:30.36	233.29	29.22	-29.9	-33.1	12.8	8.46e-05	0	43	0	948961280	20	5204
2026-01-01 01:06:31.36	233.15	29.05	-29.9	-33.5	13.0	5.26e-05	0	43	0	951058432	19	5452
2026-01-01 01:06:32.36	233.01	28.89	-29.9	-33.6	12.9	3.96e-05	0	43	0	952107008	19	5489
2026-01-01 01:06:33.36	232.87	28.72	-30.1	-33.5	12.6	7.01e-05	0	43	0	954204160	20	5363
2026-01-01 01:06:34.36	232.74	28.55	-30.1	-33.7	12.4	1.27e-04	0	43	0	956301312	20	5454
2026-01-01 01:06:35.36	232.60	28.39	-30.1	-33.7	12.4	1.28e-04	0	43	0	958398464	20	5444
2026-01-01 01:06:36.37	232.47	28.22	-30.2	-33.9	12.3	2.08e-04	0	43	0	960495616	20	5502
2026-01-01 01:06:37.37	232.34	28.06	-30.0	-33.5	12.6	1.79e-04	0	43	0	961544192	20	5348
2026-01-01 01:06:38.37	232.21	27.89	-29.9	-33.2	12.7	6.27e-04	0	43	0	963641344	20	5245
2026-01-01 01:06:39.37	232.08	27.73	-29.9	-33.2	12.7	6.40e-05	0	43	0	965738496	20	5245
2026-01-01 01:06:40.38	231.95	27.57	-29.9	-33.1	12.7	9.15e-05	0	43	0	967835648	20	5214
2026-01-01 01:06:41.38	231.82	27.41	-30.0	-33.7	12.8	1.12e-03	0	43	0	969932800	19	5546
2026-01-01 01:06:42.39	231.69	27.25	-29.9	-33.5	12.9	5.64e-05	0	43	0	970981376	19	5442
2026-01-01 01:06:43.39	231.57	27.09	-29.8	-33.4	13.0	4.50e-05	0	43	0	973078528	19	5419
2026-01-01 01:06:44.39	231.45	26.93	-29.9	-33.0	12.8	6.63e-05	0	43	0	975175680	20	5166
2026-01-01 01:06:45.39	231.33	26.77	-29.8	-33.3	12.7	9.25e-04	0	43	0	977272832	19	5371
2026-01-01 01:06:46.40	231.21	26.61	-29.8	-33.3	13.0	3.50e-05	0	43	0	978321408	19	5394
2026-01-01 01:06:47.40	231.09	26.46	-29.8	-33.3	12.9	4.57e-05	0	43	0	980418560	19	5366
2026-01-01 01:06:48.40	230.97	26.30	-29.9	-33.6	12.8	1.04e-03	0	43	0	982515712	19	5510
2026-01-01 01:06:49.40	230.85	26.15	-30.0	-33.3	12.6	1.25e-04	0	43	0	984612864	20	5285
2026-01-01 01:06:50.40	230.74	25.99	-30.0	-33.3	12.6	8.46e-05	0	43	0	986710016	20	5290
2026-01-01 01:06:51.40	230.62	25.84	-30.0	-33.5	12.5	8.39e-05	0	43	0	987758592	20	5359
2026-01-01 01:06:52.40	230.51	25.69	-30.0	-33.5	12.5	1.06e-04	0	43	0	989855744	20	5368
2026-01-01 01:06:53.41	230.40	25.53	-29.9	-33.3	12.6	8.62e-05	0	43	0	991952896	20	5281
2026-01-01 01:06:54.41	230.29	25.38	-29.9	-33.6	12.8	7.62e-05	0	43	0	994050048	19	5527
2026-01-01 01:06:55.41	230.18	25.23	-29.9	-33.6	12.8	5.79e-05	0	43	0	996147200	19	5494
2026-01-01 01:06:56.41	230.07	25.08	-29.9	-33.6	12.8	1.81e-03	0	43	0	997195776	19	5497
2026-01-01 01:06:57.41	229.96	24.94	-30.0	-33.8	12.7	6.17e-05	0	43	0	999292928	19	5583
2026-01-01 01:06:58.41	229.85	24.79	-29.9	-33.1	12.7	9.76e-05	0	43	0	1001390080	20	5225
2026-01-01 01:06:59.41	229.75	24.64	-29.7	-33.2	13.0	2.41e-03	0	43	0	1003487232	19	5341
2026-01-01 01:07:00.42	229.64	24.49	-29.6	-32.7	13.4	1.21e-03	0	43	0	1005584384	19	5149
2026-01-01 01:07:01.42	229.54	24.35	-29.5	-32.4	13.6	1.22e-05	0	43	0	1006632960	19	5045
2026-01-01 01:07:02.41	229.44	24.20	-29.4	-32.8	13.6	6.80e-06	0	43	0	1008730112	18	5325
2026-01-01 01:07:03.42	229.33	24.06	-29.4	-32.8	13.6	2.22e-03	0	43	0	1010827264	18	5293
2026-01-01 01:07:04.42	229.23	23.91	-29.4	-32.7	13.7	6.80e-06	0	43	0	1012924416	18	5274
2026-01-01 01:07:05.42	229.13	23.77	-29.4	-32.7	13.6	5.30e-06	0	43	0	1015021568	18	5278
2026-01-01 01:07:06.43	229.03	23.63	-29.4	-32.7	13.7	2.29e-03	0	43	0	1016070144	18	5257
2026-01-01 01:07:07.43	228.93	23.49	-29.4	-32.7	13.6	3.48e-04	0	43	0	1018167296	18	5289
2026-01-01 01:07:08.43	228.84	23.34	-29.5	-32.5	13.4	6.10e-06	0	43	0	1020264448	19	5093
2026-01-01 01:07:09.44	228.74	23.20	-29.6	-32.8	13.2	1.22e-05	0	43	0	1022361600	19	5205
2026-01-01 01:07:10.44	228.64	23.06	-29.6	-32.9	13.2	5.79e-04	0	43	0	1023410176	19	5233
2026-01-01 01:07:11.44	228.55	22.92	-29.6	-32.7	13.4	1.14e-05	0	43	0	1025507328	19	5152
2026-01-01 01:07:12.43	228.46	22.79	-29.6	-32.7	13.3	1.37e-05	0	43	0	1027604480	19	5151
2026-01-01 01:07:13.43	228.36	22.65	-29.6	-32.7	13.3	5.90e-04	0	43	0	1029701632	19	5177
2026-01-01 01:07:14.43	228.27	22.51	-29.5	-32.7	13.3	2.39e-03	0	43	0	1031798784	19	5162
2026-01-01 01:07:15.43	228.18	22.38	-29.7	-33.0	13.1	3.12e-05	0	43	0	1032847360	19	5300
2026-01-01 01:07:16.43	228.09	22.24	-29.6	-32.9	13.1	4.80e-05	0	43	0	1034944512	19	5248
2026-01-01 01:07:17.43	228.00	22.11	-29.5	-32.6	13.3	2.95e-03	0	43	0	1037041664	19	5121
2026-01-01 01:07:18.44	227.91	21.97	-29.5	-32.6	13.3	2.76e-03	0	43	0	1039138816	19	5138
2026-01-01 01:07:19.44	227.82	21.84	-29.5	-32.5	13.4	1.60e-05	0	43	0	1041235968	19	5086
2026-01-01 01:07:20.44	227.74	21.70	-29.6	-32.8	13.2	2.79e-03	0	43	0	1042284544	19	5197
2026-01-01 01:07:21.44	227.65	21.57	-29.6	-32.7	13.3	2.55e-03	0	43	0	1044381696	19	5186
2026-01-01 01:07:22.45	227.56	21.44	-29.6	-32.8	13.2	2.44e-05	0	43	0	1046478848	19	5220
2026-01-01 01:07:23.45	227.48	21.31	-29.6	-32.9	13.1	2.28e-05	0	43	0	1048576000	19	5253
2026-01-01 01:07:24.45	227.39	21.18	-29.6	-32.8	13.2	2.82e-03	0	43	0	1049624576	19	5211
2026-01-01 01:07:25.46	227.31	21.04	-29.6	-32.8	13.2	2.89e-05	0	43	0	1051721728	19	5231
2026-01-01 01:07:26.46	227.23	20.91	-29.7	-33.2	12.9	2.36e-05	0	43	0	1053818880	19	5355
2026-01-01 01:07:27.46	227.15	20.79	-29.7	-33.2	12.9	3.00e-03	0	43	0	1055916032	19	5362
2026-01-01 01:07:28.46	227.06	20.66	-29.6	-32.9	13.1	3.20e-05	0	43	0	1058013184	19	5256
2026-01-01 01:07:29.47	226.98	20.53	-29.6	-33.0	13.0	2.91e-03	0	43	0	1060110336	19	5275
2026-01-01 01:07:30.47	226.90	20.40	-29.8	-33.3	12.8	2.77e-03	0	43	0	1061158912	19	5411
2026-01-01 01:07:31.48	226.82	20.27	-29.6	-33.0	13.0	5.34e-05	0	43	0	1063256064	19	5300
2026-01-01 01:07:32.48	226.75	20.15	-29.5	-32.7	13.2	2.56e-03	0	43	0	1065353216	19	5178
2026-01-01 01:07:33.48	226.67	20.02	-29.6	-32.8	13.1	2.74e-05	0	43	0	1067450368	19	5231
2026-01-01 01:07:34.48	226.59	19.90	-29.6	-32.8	13.1	3.00e-04	0	43	0	1068498944	19	5224
2026-01-01 01:07:35.49	226.51	19.77	-29.5	-32.6	13.3	2.89e-03	0	43	0	1070596096	19	5128
2026-01-01 01:07:36.49	226.44	19.65	-29.6	-32.8	13.1	2.78e-03	0	43	0	1072693248	19	5224
2026-01-01 01:07:37.49	226.36	19.53	-29.5	-32.6	13.3	5.89e-04	0	43	0	1074790400	19	5123
2026-01-01 01:07:38.50	226.29	19.40	-29.4	-32.9	13.4	2.99e-03	0	43	0	1076887552	18	5355
2026-01-01 01:07:39.50	226.21	19.28	-29.5	-33.0	13.3	2.45e-03	0	43	0	1077936128	18	5412
2026-01-01 01:07:40.50	226.14	19.16	-29.4	-32.8	13.4	7.38e-04	0	43	0	1080033280	18	5340
2026-01-01 01:07:41.51	226.07	19.04	-29.5	-32.6	13.2	2.72e-03	0	43	0	1082130432	19	5142
2026-01-01 01:07:42.51	225.99	18.92	-29.6	-33.0	13.0	2.71e-03	0	43	0	1084227584	19	5297
2026-01-01 01:07:43.51	225.92	18.80	-29.6	-32.9	13.0	4.69e-04	0	43	0	1086324736	19	5269
2026-01-01 01:07:44.51	225.85	18.68	-29.6	-32.9	13.0	3.04e-03	0	43	0	1087373312	19	5272
2026-01-01 01:07:45.52	225.78	18.56	-29.6	-33.0	12.9	2.76e-03	0	43	0	1089470464	19	5293
2026-01-01 01:07:46.53	225.71	18.44	-29.5	-32.6	13.2	8.60e-04	0	43	0	1091567616	19	5145
2026-01-01 01:07:47.53	225.64	18.32	-29.4	-32.9	13.4	2.78e-04	0	43	0	1093664768	18	5358
2026-01-01 01:07:48.53	225.57	18.20	-29.4	-32.9	13.3	2.44e-03	0	43	0	1095761920	18	5365
2026-01-01 01:07:49.54	225.50	18.09	-29.4	-32.7	13.4	1.02e-03	0	43	0	1096810496	18	5314
2026-01-01 01:07:50.54	225.43	17.97	-29.6	-32.8	13.0	2.01e-04	0	43	0	1098907648	19	5239
2026-01-01 01:07:51.55	225.37	17.85	-29.6	-32.8	13.0	2.75e-03	0	43	0	1101004800	19	5246
2026-01-01 01:07:52.55	225.30	17.74	-29.5	-32.5	13.2	8.67e-04	0	43	0	1103101952	19	5123
2026-01-01 01:07:53.54	225.23	17.62	-29.4	-32.8	13.3	2.59e-03	0	43	0	1105199104	18	5351
2026-01-01 01:07:54.54	225.17	17.51	-29.5	-33.0	13.2	1.22e-05	0	43	0	1106247680	18	5410
2026-01-01 01:07:55.54	225.10	17.40	-29.5	-32.6	13.2	8.19e-04	0	43	0	1108344832	19	5147
2026-01-01 01:07:56.54	225.04	17.28	-29.4	-33.0	13.2	2.56e-03	0	43	0	1110441984	18	5421
2026-01-01 01:07:57.54	224.97	17.17	-29.5	-32.7	13.0	2.97e-05	0	43	0	1112539136	19	5185
2026-01-01 01:07:58.55	224.91	17.06	-29.7	-33.1	12.8	7.71e-04	0	43	0	1113587712	19	5363
2026-01-01 01:07:59.56	224.85	16.94	-29.7	-33.2	12.7	2.39e-03	0	43	0	1115684864	19	5379
2026-01-01 01:08:00.56	224.78	16.83	-29.6	-33.0	12.8	7.47e-05	0	43	0	1117782016	19	5319
2026-01-01 01:08:01.56	224.72	16.72	-29.6	-33.0	12.9	2.47e-04	0	43	0	1119879168	19	5299
2026-01-01 01:08:02.56	224.66	16.61	-29.6	-33.1	12.8	2.32e-03	0	43	0	1121976320	19	5336
2026-01-01 01:08:03.56	224.60	16.50	-29.7	-33.3	12.6	2.03e-03	0	43	0	1124073472	19	5440
2026-01-01 01:08:04.57	224.54	16.39	-29.7	-33.2	12.7	2.81e-04	0	43	0	1125122048	19	5395
2026-01-01 01:08:05.57	224.48	16.28	-29.8	-33.5	12.5	3.07e-04	0	43	0	1127219200	19	5535
2026-01-01 01:08:06.57	224.42	16.17	-29.7	-33.4	12.5	1.78e-03	0	43	0	1129316352	19	5466
2026-01-01 01:08:07.57	224.36	16.07	-29.7	-33.2	12.7	7.32e-05	0	43	0	1131413504	19	5397
2026-01-01 01:08:08.58	224.30	15.96	-29.7	-33.2	12.7	2.36e-04	0	43	0	1132462080	19	5385
2026-01-01 01:08:09.58	224.24	15.85	-29.7	-33.3	12.6	1.93e-03	0	43	0	1134559232	19	5425
2026-01-01 01:08:10.58	224.18	15.74	-29.7	-33.4	12.5	5.76e-04	0	43	0	1136656384	19	5486
2026-01-01 01:08:11.58	224.13	15.64	-29.8	-33.6	12.4	2.69e-04	0	43	0	1138753536	19	5562
2026-01-01 01:08:12.58	224.07	15.53	-29.8	-33.5	12.4	1.78e-04	0	43	0	1140850688	19	5519
2026-01-01 01:08:13.58	224.01	15.43	-29.7	-33.2	12.6	4.76e-04	0	43	0	1141899264	19	5416
2026-01-01 01:08:14.59	223.95	15.32	-29.7	-33.3	12.6	8.77e-05	0	43	0	1143996416	19	5439
2026-01-01 01:08:15.59	223.90	15.21	-29.7	-33.4	12.4	1.44e-04	0	43	0	1146093568	19	5500
2026-01-01 01:08:16.60	223.84	15.11	-29.8	-33.5	12.4	2.42e-04	0	43	0	1148190720	19	5528
2026-01-01 01:08:17.60	223.79	15.01	-29.7	-33.3	12.5	2.45e-03	0	43	0	1150287872	19	5441
2026-01-01 01:08:18.60	223.73	14.90	-29.7	-33.3	12.5	1.06e-04	0	43	0	1151336448	19	5445
2026-01-01 01:08:19.61	223.68	14.80	-29.7	-33.3	12.5	3.42e-04	0	43	0	1153433600	19	5452
2026-01-01 01:08:20.61	223.62	14.70	-29.8	-33.5	12.3	2.88e-03	0	43	0	1155530752	19	5548
2026-01-01 01:08:21.61	223.57	14.59	-29.8	-33.5	12.3	2.27e-04	0	43	0	1157627904	19	5540
2026-01-01 01:08:22.60	223.52	14.49	-29.8	-33.7	12.2	5.69e-04	0	43	0	1158676480	19	5631
2026-01-01 01:08:23.61	223.46	14.39	-29.9	-34.0	12.0	7.39e-04	0	43	0	1160773632	19	5750
2026-01-01 01:08:24.61	223.41	14.29	-29.9	-33.9	12.1	2.61e-04	0	43	0	1162870784	19	5707
2026-01-01 01:08:25.62	223.36	14.19	-29.9	-33.9	12.0	3.00e-04	0	43	0	1164967936	19	5733
2026-01-01 01:08:26.62	223.31	14.09	-29.9	-34.1	11.9	9.54e-04	0	43	0	1167065088	19	5788
2026-01-01 01:08:27.62	223.26	13.99	-30.0	-33.8	11.6	1.80e-03	0	43	0	1169162240	20	5596
2026-01-01 01:08:28.62	223.21	13.89	-30.1	-34.1	11.4	7.86e-04	0	43	0	1170210816	20	5725
2026-01-01 01:08:29.62	223.16	13.79	-30.1	-34.1	11.4	1.14e-03	0	43	0	1172307968	20	5726
2026-01-01 01:08:30.63	223.10	13.69	-30.0	-34.0	11.5	6.82e-04	0	43	0	1174405120	20	5658
2026-01-01 01:08:31.63	223.05	13.59	-30.0	-33.9	11.6	8.35e-04	0	43	0	1176502272	20	5612
2026-01-01 01:08:32.64	223.00	13.49	-30.0	-33.7	11.7	6.61e-04	0	43	0	1177550848	20	5545
2026-01-01 01:08:33.64	222.96	13.40	-29.9	-34.1	11.8	5.05e-04	0	43	0	1179648000	19	5821
2026-01-01 01:08:34.64	222.91	13.30	-30.0	-34.3	11.7	7.62e-04	0	43	0	1181745152	19	5886
2026-01-01 01:08:35.64	222.86	13.20	-30.1	-34.2	11.3	8.64e-04	0	43	0	1183842304	20	5772
2026-01-01 01:08:36.64	222.81	13.11	-30.0	-33.9	11.5	1.02e-03	0	43	0	1185939456	20	5623
2026-01-01 01:08:37.64	222.76	13.01	-29.9	-33.5	11.8	8.87e-04	0	43	0	1186988032	20	5456
2026-01-01 01:08:38.65	222.71	12.91	-29.9	-34.0	11.8	4.08e-04	0	43	0	1189085184	19	5768
2026-01-01 01:08:39.65	222.67	12.82	-30.0	-33.9	11.4	7.10e-04	0	43	0	1191182336	20	5666
2026-01-01 01:08:40.65	222.62	12.72	-30.2	-34.7	10.9	1.44e-03	0	43	0	1193279488	20	5998
2026-01-01 01:08:41.65	222.57	12.63	-30.2	-34.5	11.0	3.25e-03	0	43	0	1195376640	20	5935
2026-01-01 01:08:42.66	222.53	12.53	-30.0	-34.0	11.4	1.18e-03	0	43	0	1196425216	20	5691
2026-01-01 01:08:43.66	222.48	12.44	-29.9	-33.5	11.8	6.55e-04	0	43	0	1198522368	20	5457
2026-01-01 01:08:44.66	222.44	12.35	-30.0	-34.3	11.2	7.46e-04	0	43	0	1200619520	19	5938
2026-01-01 01:08:45.66	222.39	12.25	-30.0	-33.8	11.4	9.08e-04	0	43	0	1202716672	20	5623
2026-01-01 01:08:46.67	222.35	12.16	-30.0	-34.3	11.1	6.65e-04	0	43	0	1204813824	19	5912
2026-01-01 01:08:47.67	222.30	12.07	-30.0	-33.8	11.1	7.22e-04	0	43	0	1205862400	20	5602
2026-01-01 01:08:48.68	222.26	11.97	-30.0	-33.9	11.4	8.05e-04	0	43	0	1207959552	20	5655
2026-01-01 01:08:49.69	222.21	11.88	-30.0	-34.1	11.3	9.35e-04	0	43	0	1210056704	20	5733
2026-01-01 01:08:50.69	222.17	11.79	-30.1	-34.1	11.2	1.26e-03	0	43	0	1212153856	20	5760
2026-01-01 01:08:51.69	222.12	11.70	-30.1	-34.3	11.1	1.10e-03	0	43	0	1214251008	20	5840
2026-01-01 01:08:52.68	222.08	11.61	-30.1	-34.3	11.1	1.87e-03	0	43	0	1215299584	20	5859
2026-01-01 01:08:53.68	222.04	11.52	-30.0	-34.1	11.3	1.59e-03	0	43	0	1217396736	20	5742
2026-01-01 01:08:54.68	222.00	11.43	-30.0	-33.9	11.3	1.04e-03	0	43	0	1219493888	20	5677
2026-01-01 01:08:55.68	221.95	11.34	-30.0	-34.0	11.3	3.49e-03	0	43	0	1221591040	20	5703
2026-01-01 01:08:56.69	221.91	11.25	-30.0	-34.0	11.3	1.16e-03	0	43	0	1222639616	20	5713
2026-01-01 01:08:57.69	221.87	11.16	-30.1	-34.3	11.1	1.40e-03	0	43	0	1224736768	20	5830
2026-01-01 01:08:58.69	221.83	11.07	-30.1	-34.2	11.1	4.04e-03	0	43	0	1226833920	20	5815
2026-01-01 01:08:59.68	221.79	10.98	-30.0	-34.2	11.2	1.46e-03	0	43	0	1228931072	20	5785
2026-01-01 01:09:00.69	221.75	10.89	-30.1	-34.4	11.0	1.74e-03	0	43	0	1231028224	20	5875
2026-01-01 01:09:01.70	221.70	10.80	-30.1	-34.4	11.0	2.12e-03	0	43	0	1232076800	20	5879
2026-01-01 01:09:02.70	221.66	10.71	-30.1	-34.3	11.0	3.91e-03	0	43	0	1234173952	20	5856
2026-01-01 01:09:03.70	221.62	10.63	-30.1	-34.2	11.1	1.75e-03	0	43	0	1236271104	20	5812
2026-01-01 01:09:04.70	221.58	10.54	-30.1	-34.3	11.0	1.88e-03	0	43	0	1238368256	20	5848
2026-01-01 01:09:05.71	221.54	10.45	-30.1	-34.2	11.1	3.59e-03	0	43	0	1240465408	20	5811
2026-01-01 01:09:06.71	221.50	10.36	-30.1	-34.5	10.9	2.05e-03	0	43	0	1241513984	20	5948
2026-01-01 01:09:07.72	221.46	10.28	-30.1	-34.3	11.0	2.28e-03	0	43	0	1243611136	20	5835
2026-01-01 01:09:08.72	221.43	10.19	-29.9	-33.9	11.3	3.00e-03	0	43	0	1245708288	20	5644
2026-01-01 01:09:09.73	221.39	10.10	-29.9	-33.8	11.4	1.20e-03	0	43	0	1247805440	20	5623
2026-01-01 01:09:10.74	221.35	10.02	-30.0	-33.9	11.3	1.21e-03	0	43	0	1249902592	20	5683
2026-01-01 01:09:11.74	221.31	9.93	-29.9	-33.8	11.4	1.13e-03	0	43	0	1250951168	20	5621
2026-01-01 01:09:12.74	221.27	9.85	-29.9	-33.9	11.3	1.59e-03	0	43	0	1253048320	20	5662
2026-01-01 01:09:13.74	221.23	9.76	-29.9	-34.2	11.4	2.84e-03	0	43	0	1255145472	19	5923
2026-01-01 01:09:14.75	221.20	9.68	-29.9	-34.3	11.4	9.50e-04	0	43	0	1257242624	19	5948
2026-01-01 01:09:15.75	221.16	9.59	-29.9	-34.3	11.4	1.40e-03	0	43	0	1259339776	19	5966
2026-01-01 01:09:16.75	221.12	9.51	-29.9	-34.3	11.4	2.81e-03	0	43	0	1260388352	19	5935
2026-01-01 01:09:17.75	221.08	9.43	-29.9	-33.9	11.2	2.90e-03	0	43	0	1262485504	20	5698
2026-01-01 01:09:18.76	221.05	9.34	-30.0	-34.1	11.1	2.10e-03	0	43	0	1264582656	20	5758
2026-01-01 01:09:19.77	221.01	9.26	-30.0	-34.0	11.1	3.73e-03	0	43	0	1266679808	20	5754
2026-01-01 01:09:20.77	220.97	9.18	-30.0	-34.2	10.9	3.55e-03	0	43	0	1268776960	20	5840
2026-01-01 01:09:21.76	220.94	9.09	-30.0	-34.1	11.0	2.11e-03	0	43	0	1269825536	20	5796
2026-01-01 01:09:22.76	220.90	9.01	-29.9	-34.0	11.1	4.00e-03	0	43	0	1271922688	20	5723
2026-01-01 01:09:23.77	220.87	8.93	-30.0	-34.2	10.9	3.78e-03	0	43	0	1274019840	20	5824
2026-01-01 01:09:24.77	220.83	8.85	-30.0	-34.3	10.8	2.45e-03	0	43	0	1276116992	20	5896
2026-01-01 01:09:25.77	220.80	8.77	-30.0	-34.3	10.8	5.20e-03	0	43	0	1277165568	20	5893
2026-01-01 01:09:26.77	220.76	8.69	-30.1	-34.4	10.8	4.60e-03	0	43	0	1279262720	20	5915
2026-01-01 01:09:27.78	220.73	8.60	-30.1	-34.5	10.6	2.96e-03	0	43	0	1281359872	20	6004
2026-01-01 01:09:28.78	220.69	8.52	-30.1	-34.5	10.7	5.24e-03	0	43	0	1283457024	20	5966
2026-01-01 01:09:29.77	220.66	8.44	-30.0	-34.4	10.7	5.48e-03	0	43	0	1285554176	20	5956
2026-01-01 01:09:30.77	220.62	8.36	-30.0	-34.4	10.7	3.84e-03	0	43	0	1286602752	20	5928
