passes_logs/2026/01/01/R2M6_AANII_01/R2M6_AANII_01__20260101_145907_FENGYUN_3E_rec.log

#Pass ID: 20260101_145907_FENGYUN 3E
#Satellite: FENGYUN 3E
#Configuration: FENGYUN 3E
#almurnet v.1.7.20240730
#Start time: 2026-01-01 14:59:07

#Version: 2.2.20231116
#Station: R2M6_AANII_01
#Location: 30.233357 lon 59.946436 lat
#TLE: 1 49008U 21062A   25365.98258168  .00000149  00000+0  90987-4 0  9990
#TLE: 2 49008  98.7481   6.2763 0001360 169.3782 190.7423 14.19883270232859

#Time	Az	El	Level	Level2	SNR	BER	BlckErr	Temp	State	Recorded	gain1	gain2
2026-01-01 14:59:07.09	172.23	6.98	-26.9	-29.1	5.6	7.64e-01	0	41	0	0	13	4667
2026-01-01 14:59:08.09	172.25	7.06	-28.8	-32.0	5.2	7.84e-01	0	41	104	0	17	5166
2026-01-01 14:59:09.10	172.28	7.14	-28.8	-31.8	8.8	3.73e-02	0	41	0	0	17	5093
2026-01-01 14:59:10.10	172.31	7.21	-28.3	-30.5	9.7	1.37e-02	0	41	0	7340032	17	4610
2026-01-01 14:59:11.11	172.33	7.29	-28.7	-31.6	8.9	2.34e-02	0	41	0	14680064	17	5004
2026-01-01 14:59:12.11	172.36	7.37	-28.2	-30.1	9.9	1.15e-02	0	41	0	22020096	17	4510
2026-01-01 14:59:13.11	172.39	7.45	-27.6	-29.2	10.8	3.40e-03	0	41	0	28311552	16	4317
2026-01-01 14:59:14.11	172.42	7.53	-26.9	-28.1	11.6	8.01e-04	0	41	0	35651584	15	4120
2026-01-01 14:59:15.11	172.44	7.60	-26.3	-27.7	12.4	2.24e-04	0	41	0	42991616	13	4230
2026-01-01 14:59:16.11	172.47	7.68	-25.8	-27.1	13.0	6.75e-05	0	41	0	50331648	12	4162
2026-01-01 14:59:17.11	172.50	7.76	-25.6	-26.6	13.4	2.17e-05	0	41	0	57671680	12	4029
2026-01-01 14:59:18.11	172.52	7.84	-26.0	-27.5	12.9	2.51e-05	0	41	0	65011712	12	4267
2026-01-01 14:59:19.11	172.55	7.92	-25.7	-26.8	13.3	2.51e-05	0	41	0	72351744	12	4065
2026-01-01 14:59:20.12	172.58	8.00	-25.8	-27.0	13.2	2.63e-05	0	41	0	79691776	12	4134
2026-01-01 14:59:21.12	172.61	8.08	-26.0	-27.4	13.0	3.77e-05	0	41	0	85983232	12	4233
2026-01-01 14:59:22.13	172.64	8.16	-25.8	-27.0	13.2	3.66e-05	0	42	0	93323264	12	4134
2026-01-01 14:59:23.14	172.67	8.24	-25.9	-27.2	13.1	3.77e-05	0	41	0	100663296	12	4195
2026-01-01 14:59:24.14	172.69	8.32	-25.8	-27.1	13.2	2.28e-05	0	42	0	108003328	12	4165
2026-01-01 14:59:25.14	172.72	8.40	-26.2	-27.8	12.7	7.09e-05	0	42	0	115343360	12	4361
2026-01-01 14:59:26.14	172.75	8.48	-25.7	-26.7	13.4	2.17e-05	0	41	0	122683392	12	4059
2026-01-01 14:59:27.15	172.78	8.56	-25.5	-26.2	13.7	6.80e-06	0	42	0	130023424	12	3937
2026-01-01 14:59:28.15	172.81	8.65	-25.2	-26.0	14.1	1.10e-06	0	42	0	137363456	11	3972
2026-01-01 14:59:29.15	172.84	8.73	-25.3	-26.4	13.9	3.40e-06	0	42	0	144703488	11	4075
2026-01-01 14:59:30.15	172.87	8.81	-25.3	-26.3	14.0	1.10e-06	0	42	0	152043520	11	4040
2026-01-01 14:59:31.16	172.90	8.89	-25.2	-26.0	14.2	4.50e-06	0	42	0	159383552	11	3975
2026-01-01 14:59:32.15	172.93	8.97	-25.2	-26.0	14.2	1.10e-06	0	42	0	166723584	11	3982
2026-01-01 14:59:33.15	172.96	9.06	-25.0	-25.8	14.3	1.10e-06	0	42	0	173015040	11	3907
2026-01-01 14:59:34.15	172.99	9.14	-25.2	-26.0	14.2	2.20e-06	0	42	0	180355072	11	3976
2026-01-01 14:59:35.15	173.02	9.22	-25.0	-25.7	14.3	3.40e-06	0	42	0	187695104	11	3902
2026-01-01 14:59:36.16	173.05	9.31	-25.1	-26.0	14.2	3.40e-06	0	42	0	195035136	11	3956
2026-01-01 14:59:37.16	173.08	9.39	-25.2	-26.1	14.2	0.00e+00	0	42	0	202375168	11	3995
2026-01-01 14:59:38.17	173.11	9.48	-25.2	-26.0	14.2	3.40e-06	0	42	0	209715200	11	3968
2026-01-01 14:59:39.17	173.14	9.56	-24.9	-25.5	14.5	0.00e+00	0	42	0	217055232	11	3848
2026-01-01 14:59:40.17	173.17	9.65	-25.2	-26.1	14.2	1.10e-06	0	42	0	224395264	11	3999
2026-01-01 14:59:41.18	173.20	9.73	-25.2	-26.1	14.2	2.20e-06	0	42	0	230686720	11	3976
2026-01-01 14:59:42.18	173.23	9.82	-25.0	-25.6	14.5	1.10e-06	0	42	0	238026752	11	3857
2026-01-01 14:59:43.18	173.26	9.90	-25.1	-25.8	14.3	2.20e-06	0	42	0	245366784	11	3915
2026-01-01 14:59:44.19	173.29	9.99	-25.1	-25.9	14.3	3.40e-06	0	42	0	252706816	11	3926
2026-01-01 14:59:45.19	173.33	10.07	-24.9	-25.5	14.5	0.00e+00	0	42	0	260046848	11	3833
2026-01-01 14:59:46.20	173.36	10.16	-24.9	-25.4	14.6	6.80e-06	0	42	0	267386880	11	3828
2026-01-01 14:59:47.21	173.39	10.25	-25.0	-25.6	14.5	1.10e-06	0	42	0	274726912	11	3857
2026-01-01 14:59:48.22	173.42	10.34	-24.9	-25.5	14.6	1.10e-06	0	42	0	282066944	11	3839
2026-01-01 14:59:49.22	173.45	10.43	-24.9	-25.5	14.5	9.10e-06	0	42	0	289406976	11	3843
2026-01-01 14:59:50.22	173.49	10.51	-24.9	-26.0	14.5	0.00e+00	0	42	0	296747008	10	4074
2026-01-01 14:59:51.22	173.52	10.60	-25.0	-26.1	14.5	0.00e+00	0	42	0	304087040	10	4104
2026-01-01 14:59:52.22	173.55	10.69	-25.0	-26.2	14.5	8.00e-06	0	42	0	311427072	10	4110
2026-01-01 14:59:53.23	173.59	10.78	-25.2	-26.5	14.3	1.10e-06	0	42	0	317718528	10	4212
2026-01-01 14:59:54.23	173.62	10.87	-24.9	-26.0	14.6	0.00e+00	0	42	0	325058560	10	4057
2026-01-01 14:59:55.24	173.65	10.96	-24.8	-25.7	14.8	0.00e+00	0	42	0	332398592	10	3982
2026-01-01 14:59:56.25	173.69	11.05	-25.0	-26.1	14.5	1.10e-06	0	42	0	339738624	10	4097
2026-01-01 14:59:57.25	173.72	11.14	-24.9	-25.9	14.7	0.00e+00	0	42	0	347078656	10	4039
2026-01-01 14:59:58.26	173.76	11.23	-24.8	-25.7	14.7	0.00e+00	0	42	0	354418688	10	3995
2026-01-01 14:59:59.26	173.79	11.32	-24.9	-25.9	14.7	0.00e+00	0	43	0	361758720	10	4033
2026-01-01 15:00:00.27	173.82	11.41	-24.8	-25.6	14.8	2.20e-06	0	42	0	369098752	10	3962
2026-01-01 15:00:01.27	173.86	11.50	-24.7	-25.6	14.9	0.00e+00	0	42	0	376438784	10	3961
2026-01-01 15:00:02.27	173.89	11.59	-24.8	-25.6	14.8	0.00e+00	0	42	0	383778816	10	3977
2026-01-01 15:00:03.27	173.93	11.69	-25.0	-26.1	14.6	0.00e+00	0	43	0	391118848	10	4079
2026-01-01 15:00:04.28	173.96	11.78	-24.8	-25.6	14.9	0.00e+00	0	42	0	398458880	10	3965
2026-01-01 15:00:05.28	174.00	11.87	-25.0	-26.0	14.6	0.00e+00	0	42	0	404750336	10	4071
2026-01-01 15:00:06.29	174.03	11.96	-25.2	-26.6	14.3	0.00e+00	0	42	0	412090368	10	4221
2026-01-01 15:00:07.29	174.07	12.06	-24.8	-25.8	14.8	0.00e+00	0	43	0	419430400	10	4003
2026-01-01 15:00:08.29	174.11	12.15	-24.6	-25.3	15.0	1.10e-06	0	42	0	426770432	10	3881
2026-01-01 15:00:09.30	174.14	12.25	-24.6	-25.2	15.1	0.00e+00	0	43	0	434110464	10	3870
2026-01-01 15:00:10.30	174.18	12.34	-24.7	-25.5	14.9	0.00e+00	0	42	0	441450496	10	3948
2026-01-01 15:00:11.30	174.22	12.43	-24.8	-25.7	14.8	0.00e+00	0	43	0	448790528	10	3994
2026-01-01 15:00:12.31	174.25	12.53	-24.9	-25.8	14.8	0.00e+00	0	42	0	456130560	10	4003
2026-01-01 15:00:13.32	174.29	12.63	-24.7	-25.5	14.9	0.00e+00	0	43	0	463470592	10	3937
2026-01-01 15:00:14.32	174.33	12.72	-24.6	-25.3	15.1	0.00e+00	0	42	0	470810624	10	3880
2026-01-01 15:00:15.32	174.36	12.82	-24.7	-25.4	15.0	0.00e+00	0	42	0	478150656	10	3929
2026-01-01 15:00:16.32	174.40	12.92	-24.6	-25.2	15.1	0.00e+00	0	42	0	484442112	10	3877
2026-01-01 15:00:17.32	174.44	13.01	-24.5	-24.9	15.2	0.00e+00	0	42	0	491782144	10	3799
2026-01-01 15:00:18.32	174.48	13.11	-24.5	-25.1	15.2	0.00e+00	0	43	0	499122176	10	3832
2026-01-01 15:00:19.32	174.52	13.21	-24.5	-25.1	15.2	0.00e+00	0	43	0	506462208	10	3830
2026-01-01 15:00:20.32	174.56	13.30	-24.4	-25.3	15.3	0.00e+00	0	43	0	513802240	9	4004
2026-01-01 15:00:21.32	174.59	13.40	-24.4	-25.3	15.3	0.00e+00	0	43	0	521142272	9	3983
2026-01-01 15:00:22.33	174.63	13.50	-24.2	-24.9	15.5	0.00e+00	0	43	0	528482304	9	3893
2026-01-01 15:00:23.33	174.67	13.60	-24.1	-24.6	15.7	0.00e+00	0	43	0	535822336	9	3822
2026-01-01 15:00:24.33	174.71	13.70	-24.0	-24.4	15.8	0.00e+00	0	43	0	543162368	9	3772
2026-01-01 15:00:25.34	174.75	13.80	-23.9	-24.6	16.0	0.00e+00	0	43	0	549453824	8	3927
2026-01-01 15:00:26.35	174.79	13.90	-23.9	-24.6	15.9	0.00e+00	0	43	0	557842432	8	3926
2026-01-01 15:00:27.35	174.83	14.00	-23.8	-24.4	16.1	0.00e+00	0	43	0	565182464	8	3881
2026-01-01 15:00:28.35	174.87	14.11	-23.8	-24.5	16.0	0.00e+00	0	43	0	571473920	8	3892
2026-01-01 15:00:29.36	174.92	14.21	-23.7	-24.4	16.1	0.00e+00	0	43	0	578813952	8	3869
2026-01-01 15:00:30.36	174.96	14.31	-23.8	-24.5	16.1	0.00e+00	0	43	0	586153984	8	3899
2026-01-01 15:00:31.36	175.00	14.41	-23.8	-24.5	16.0	0.00e+00	0	43	0	593494016	8	3901
2026-01-01 15:00:32.36	175.04	14.52	-23.7	-24.4	16.1	0.00e+00	0	43	0	600834048	8	3876
2026-01-01 15:00:33.36	175.08	14.62	-23.7	-24.3	16.2	0.00e+00	0	43	0	608174080	8	3842
2026-01-01 15:00:34.36	175.12	14.72	-24.0	-24.9	15.8	0.00e+00	0	43	0	615514112	8	3996
2026-01-01 15:00:35.37	175.17	14.83	-23.9	-24.8	15.9	0.00e+00	0	43	0	622854144	8	3977
2026-01-01 15:00:36.38	175.21	14.93	-23.9	-24.7	15.9	0.00e+00	0	43	0	630194176	8	3955
2026-01-01 15:00:37.38	175.25	15.04	-23.5	-24.0	16.3	0.00e+00	0	43	0	636485632	8	3780
2026-01-01 15:00:38.38	175.30	15.14	-23.5	-24.0	16.3	0.00e+00	0	43	0	643825664	8	3781
2026-01-01 15:00:39.38	175.34	15.25	-23.5	-23.8	16.4	0.00e+00	0	43	0	651165696	8	3754
2026-01-01 15:00:40.39	175.38	15.36	-23.4	-23.7	16.4	0.00e+00	0	43	0	658505728	8	3715
2026-01-01 15:00:41.38	175.43	15.46	-23.4	-23.7	16.5	0.00e+00	0	43	0	665845760	8	3724
2026-01-01 15:00:42.39	175.47	15.57	-23.5	-24.4	16.3	0.00e+00	0	43	0	673185792	7	3993
2026-01-01 15:00:43.38	175.52	15.68	-23.4	-24.2	16.4	0.00e+00	0	43	0	680525824	7	3950
2026-01-01 15:00:44.39	175.56	15.79	-23.5	-24.3	16.3	0.00e+00	0	43	0	687865856	7	3991
2026-01-01 15:00:45.39	175.61	15.90	-23.5	-24.4	16.3	0.00e+00	0	43	0	695205888	7	4008
2026-01-01 15:00:46.39	175.65	16.00	-23.6	-24.8	16.1	0.00e+00	0	43	0	702545920	7	4096
2026-01-01 15:00:47.40	175.70	16.12	-23.8	-25.2	15.9	0.00e+00	0	43	0	709885952	7	4218
2026-01-01 15:00:48.40	175.74	16.23	-23.8	-25.2	15.9	0.00e+00	0	43	0	716177408	7	4198
2026-01-01 15:00:49.41	175.79	16.34	-23.5	-24.4	16.3	0.00e+00	0	43	0	723517440	7	4008
2026-01-01 15:00:50.41	175.84	16.45	-23.3	-24.1	16.4	0.00e+00	0	43	0	730857472	7	3943
2026-01-01 15:00:51.41	175.89	16.56	-23.4	-24.3	16.3	0.00e+00	0	43	0	738197504	7	3995
2026-01-01 15:00:52.41	175.93	16.67	-23.2	-23.9	16.6	0.00e+00	0	43	0	745537536	7	3886
2026-01-01 15:00:53.41	175.98	16.78	-23.2	-23.9	16.6	0.00e+00	0	43	0	752877568	7	3886
2026-01-01 15:00:54.42	176.03	16.90	-23.1	-23.6	16.7	6.80e-06	0	43	0	760217600	7	3836
2026-01-01 15:00:55.42	176.08	17.01	-23.1	-23.7	16.6	0.00e+00	0	43	0	767557632	7	3844
2026-01-01 15:00:56.42	176.13	17.13	-23.0	-23.5	16.7	0.00e+00	0	43	0	774897664	7	3810
2026-01-01 15:00:57.42	176.18	17.24	-23.0	-23.5	16.8	5.70e-06	0	43	0	781189120	7	3790
2026-01-01 15:00:58.43	176.23	17.36	-23.1	-23.8	16.6	0.00e+00	0	43	0	788529152	7	3865
2026-01-01 15:00:59.43	176.28	17.47	-23.1	-23.6	16.7	0.00e+00	0	43	0	795869184	7	3835
2026-01-01 15:01:00.43	176.33	17.59	-23.1	-23.7	16.6	6.80e-06	0	43	0	803209216	7	3862
2026-01-01 15:01:01.44	176.38	17.71	-22.9	-23.3	16.8	0.00e+00	0	43	0	810549248	7	3766
2026-01-01 15:01:02.44	176.43	17.82	-23.1	-23.8	16.6	0.00e+00	0	43	0	817889280	7	3872
2026-01-01 15:01:03.45	176.48	17.94	-23.1	-23.7	16.6	9.10e-06	0	43	0	825229312	7	3855
2026-01-01 15:01:04.45	176.53	18.06	-23.0	-23.4	16.8	0.00e+00	0	43	0	832569344	7	3793
2026-01-01 15:01:05.45	176.58	18.18	-22.9	-23.3	16.8	0.00e+00	0	43	0	839909376	7	3766
2026-01-01 15:01:06.45	176.64	18.30	-22.9	-23.4	16.8	0.00e+00	0	43	0	847249408	7	3779
2026-01-01 15:01:07.46	176.69	18.42	-22.8	-23.6	16.9	0.00e+00	0	43	0	854589440	6	3952
2026-01-01 15:01:08.46	176.74	18.54	-22.9	-23.7	16.8	0.00e+00	0	43	0	861929472	6	3972
2026-01-01 15:01:09.46	176.80	18.66	-22.7	-23.5	17.0	0.00e+00	0	43	0	868220928	6	3908
2026-01-01 15:01:10.47	176.85	18.78	-22.7	-23.3	17.1	0.00e+00	0	43	0	875560960	6	3874
2026-01-01 15:01:11.47	176.91	18.91	-22.6	-23.2	17.1	0.00e+00	0	43	0	882900992	6	3849
2026-01-01 15:01:12.47	176.96	19.03	-22.6	-23.1	17.2	0.00e+00	0	43	0	890241024	6	3809
2026-01-01 15:01:13.48	177.02	19.15	-22.6	-23.0	17.2	0.00e+00	0	43	0	897581056	6	3807
2026-01-01 15:01:14.48	177.07	19.28	-22.5	-22.9	17.3	0.00e+00	0	43	0	904921088	6	3780
2026-01-01 15:01:15.49	177.13	19.40	-22.6	-23.1	17.2	3.40e-06	0	43	0	912261120	6	3809
2026-01-01 15:01:16.49	177.19	19.53	-22.5	-23.0	17.2	0.00e+00	0	43	0	919601152	6	3788
2026-01-01 15:01:17.50	177.24	19.66	-22.4	-23.2	17.3	0.00e+00	0	43	0	926941184	5	3954
2026-01-01 15:01:18.51	177.30	19.78	-22.4	-23.1	17.4	0.00e+00	0	43	0	934281216	5	3928
2026-01-01 15:01:19.51	177.36	19.91	-22.4	-23.2	17.3	0.00e+00	0	43	0	941621248	5	3950
2026-01-01 15:01:20.52	177.42	20.04	-22.5	-23.3	17.3	0.00e+00	0	43	0	947912704	5	3979
2026-01-01 15:01:21.52	177.48	20.17	-22.3	-23.0	17.5	0.00e+00	0	43	0	955252736	5	3887
2026-01-01 15:01:22.52	177.54	20.30	-22.3	-22.9	17.5	0.00e+00	0	43	0	962592768	5	3886
2026-01-01 15:01:23.53	177.60	20.43	-22.4	-23.2	17.4	0.00e+00	0	43	0	969932800	5	3950
2026-01-01 15:01:24.53	177.66	20.56	-22.3	-22.9	17.6	0.00e+00	0	43	0	977272832	5	3862
2026-01-01 15:01:25.53	177.72	20.69	-22.3	-23.0	17.5	0.00e+00	0	43	0	984612864	5	3907
2026-01-01 15:01:26.54	177.78	20.82	-22.3	-23.0	17.5	0.00e+00	0	43	0	991952896	5	3906
2026-01-01 15:01:27.54	177.84	20.96	-22.4	-23.2	17.4	0.00e+00	0	43	0	999292928	5	3956
2026-01-01 15:01:28.54	177.90	21.09	-22.4	-23.2	17.4	0.00e+00	0	43	0	1006632960	5	3962
2026-01-01 15:01:29.55	177.97	21.22	-22.3	-22.9	17.5	0.00e+00	0	43	0	1013972992	5	3878
2026-01-01 15:01:30.55	178.03	21.36	-22.4	-23.3	17.3	0.00e+00	0	43	0	1021313024	5	3982
2026-01-01 15:01:31.55	178.09	21.49	-22.4	-23.3	17.3	0.00e+00	0	43	0	1028653056	5	3989
2026-01-01 15:01:32.55	178.16	21.63	-22.4	-23.3	17.3	0.00e+00	0	43	0	1034944512	5	3989
2026-01-01 15:01:33.55	178.22	21.77	-22.5	-23.5	17.2	0.00e+00	0	43	0	1042284544	5	4045
2026-01-01 15:01:34.56	178.29	21.90	-22.5	-23.4	17.3	0.00e+00	0	43	0	1049624576	5	4015
2026-01-01 15:01:35.56	178.36	22.04	-22.5	-23.5	17.2	0.00e+00	0	43	0	1056964608	5	4041
2026-01-01 15:01:36.56	178.42	22.18	-22.5	-23.5	17.2	0.00e+00	0	43	0	1064304640	5	4045
2026-01-01 15:01:37.57	178.49	22.32	-22.6	-23.6	17.2	0.00e+00	0	43	0	1071644672	5	4069
2026-01-01 15:01:38.57	178.56	22.46	-22.5	-23.5	17.2	0.00e+00	0	43	0	1078984704	5	4022
2026-01-01 15:01:39.58	178.63	22.60	-22.5	-23.5	17.3	0.00e+00	0	43	0	1086324736	5	4028
2026-01-01 15:01:40.58	178.70	22.74	-22.5	-23.4	17.3	0.00e+00	0	43	0	1092616192	5	4017
2026-01-01 15:01:41.57	178.76	22.89	-22.5	-23.4	17.3	0.00e+00	0	43	0	1099956224	5	4008
2026-01-01 15:01:42.58	178.83	23.03	-22.5	-23.4	17.4	0.00e+00	0	43	0	1107296256	5	3994
2026-01-01 15:01:43.58	178.91	23.17	-22.5	-23.4	17.4	0.00e+00	0	43	0	1114636288	5	3995
2026-01-01 15:01:44.58	178.98	23.32	-22.4	-23.2	17.5	0.00e+00	0	44	0	1121976320	5	3947
2026-01-01 15:01:45.57	179.05	23.46	-22.3	-23.1	17.5	0.00e+00	0	44	0	1129316352	5	3918
2026-01-01 15:01:46.58	179.12	23.61	-22.4	-23.1	17.6	0.00e+00	0	43	0	1136656384	5	3919
2026-01-01 15:01:47.58	179.19	23.76	-22.2	-22.8	17.7	0.00e+00	0	43	0	1143996416	5	3854
2026-01-01 15:01:48.58	179.27	23.90	-22.3	-23.0	17.6	0.00e+00	0	43	0	1151336448	5	3892
2026-01-01 15:01:49.58	179.34	24.05	-22.3	-23.0	17.6	0.00e+00	0	43	0	1157627904	5	3893
2026-01-01 15:01:50.59	179.42	24.20	-22.3	-22.9	17.7	0.00e+00	0	43	0	1164967936	5	3872
2026-01-01 15:01:51.59	179.49	24.35	-22.3	-23.0	17.6	0.00e+00	0	43	0	1172307968	5	3907
2026-01-01 15:01:52.60	179.57	24.51	-22.2	-22.8	17.7	0.00e+00	0	43	0	1179648000	5	3846
2026-01-01 15:01:53.60	179.65	24.66	-22.2	-22.8	17.7	0.00e+00	0	44	0	1186988032	5	3844
2026-01-01 15:01:54.61	179.73	24.81	-22.2	-22.8	17.7	0.00e+00	0	43	0	1194328064	5	3853
2026-01-01 15:01:55.60	179.81	24.96	-22.0	-22.4	18.0	0.00e+00	0	43	0	1201668096	5	3752
2026-01-01 15:01:56.60	179.89	25.12	-22.2	-22.8	17.8	0.00e+00	0	43	0	1209008128	5	3830
2026-01-01 15:01:57.61	179.97	25.27	-22.3	-23.0	17.7	0.00e+00	0	43	0	1216348160	5	3878
2026-01-01 15:01:58.61	180.05	25.43	-22.3	-22.9	17.7	0.00e+00	0	43	0	1223688192	5	3862
2026-01-01 15:01:59.61	180.13	25.59	-22.1	-22.5	17.9	0.00e+00	0	43	0	1231028224	5	3781
2026-01-01 15:02:00.61	180.21	25.74	-22.1	-22.5	17.9	0.00e+00	0	43	0	1238368256	5	3786
2026-01-01 15:02:01.61	180.30	25.90	-22.1	-22.5	17.9	0.00e+00	0	43	0	1244659712	5	3786
2026-01-01 15:02:02.62	180.38	26.06	-22.1	-22.6	17.8	0.00e+00	0	43	0	1251999744	5	3806
2026-01-01 15:02:03.63	180.47	26.23	-22.1	-22.6	17.8	0.00e+00	0	43	0	1259339776	5	3807
2026-01-01 15:02:04.64	180.55	26.39	-22.1	-22.6	17.8	0.00e+00	0	43	0	1266679808	5	3813
2026-01-01 15:02:05.63	180.64	26.55	-22.2	-22.8	17.7	0.00e+00	0	43	0	1274019840	5	3862
2026-01-01 15:02:06.63	180.73	26.71	-22.1	-22.5	17.9	0.00e+00	0	43	0	1281359872	5	3777
2026-01-01 15:02:07.63	180.81	26.88	-21.9	-22.2	18.0	0.00e+00	0	43	0	1288699904	5	3722
2026-01-01 15:02:08.64	180.90	27.04	-21.8	-22.5	18.1	0.00e+00	0	43	0	1296039936	4	3879
2026-01-01 15:02:09.65	181.00	27.21	-21.8	-22.4	18.1	0.00e+00	0	43	0	1303379968	4	3866
2026-01-01 15:02:10.65	181.09	27.38	-21.6	-22.0	18.3	0.00e+00	0	43	0	1310720000	4	3774
2026-01-01 15:02:11.66	181.18	27.55	-21.7	-22.1	18.3	0.00e+00	0	43	0	1318060032	4	3783
2026-01-01 15:02:12.66	181.27	27.72	-21.6	-22.1	18.3	0.00e+00	0	43	0	1324351488	4	3783
2026-01-01 15:02:13.67	181.37	27.89	-21.5	-21.8	18.5	0.00e+00	0	43	0	1331691520	4	3715
2026-01-01 15:02:14.67	181.46	28.06	-21.4	-21.6	18.5	1.10e-06	0	44	0	1339031552	4	3683
2026-01-01 15:02:15.67	181.56	28.23	-21.4	-21.7	18.5	0.00e+00	0	43	0	1346371584	4	3702
2026-01-01 15:02:16.66	181.65	28.40	-21.6	-22.6	18.3	0.00e+00	0	43	0	1353711616	3	4012
2026-01-01 15:02:17.66	181.75	28.57	-21.5	-22.4	18.4	1.10e-06	0	43	0	1361051648	3	3964
2026-01-01 15:02:18.66	181.85	28.75	-22.0	-22.2	19.0	0.00e+00	0	44	0	1368391680	4	3685
2026-01-01 15:02:19.66	181.95	28.92	-22.3	-22.7	18.8	0.00e+00	0	43	0	1375731712	4	3795
2026-01-01 15:02:20.67	182.05	29.10	-22.2	-22.5	18.9	2.20e-06	0	43	0	1383071744	4	3752
2026-01-01 15:02:21.68	182.15	29.28	-22.1	-22.4	19.0	0.00e+00	0	43	0	1389363200	4	3731
2026-01-01 15:02:22.68	182.26	29.46	-22.1	-22.5	18.9	0.00e+00	0	43	0	1396703232	4	3742
2026-01-01 15:02:23.69	182.36	29.64	-22.2	-22.6	18.9	0.00e+00	0	43	0	1404043264	4	3777
2026-01-01 15:02:24.68	182.47	29.82	-22.2	-22.6	18.9	0.00e+00	0	43	0	1411383296	4	3764
2026-01-01 15:02:25.68	182.57	30.00	-22.3	-22.8	18.8	0.00e+00	0	43	0	1418723328	4	3808
2026-01-01 15:02:26.68	182.68	30.18	-22.3	-22.9	18.7	0.00e+00	0	44	0	1426063360	4	3834
2026-01-01 15:02:27.69	182.79	30.37	-22.4	-22.4	18.7	0.00e+00	0	43	0	1433403392	5	3626
2026-01-01 15:02:28.69	182.90	30.56	-22.3	-22.2	18.8	0.00e+00	0	43	0	1440743424	5	3588
2026-01-01 15:02:29.70	183.01	30.74	-22.4	-22.5	18.7	0.00e+00	0	43	0	1448083456	5	3649
2026-01-01 15:02:30.70	183.13	30.93	-22.4	-22.4	18.7	0.00e+00	0	43	0	1455423488	5	3628
2026-01-01 15:02:31.70	183.24	31.12	-22.4	-22.6	18.7	0.00e+00	0	43	0	1462763520	5	3668
2026-01-01 15:02:32.71	183.36	31.31	-22.4	-22.5	18.7	0.00e+00	0	43	0	1470103552	5	3651
2026-01-01 15:02:33.71	183.47	31.50	-22.5	-22.8	18.6	0.00e+00	0	43	0	1476395008	5	3699
2026-01-01 15:02:34.71	183.59	31.69	-22.6	-23.0	18.5	0.00e+00	0	43	0	1483735040	5	3750
2026-01-01 15:02:35.72	183.71	31.89	-22.6	-23.0	18.4	0.00e+00	0	43	0	1491075072	5	3765
2026-01-01 15:02:36.72	183.83	32.08	-22.5	-22.7	18.6	0.00e+00	0	43	0	1498415104	5	3697
2026-01-01 15:02:37.72	183.95	32.28	-22.5	-22.7	18.6	0.00e+00	0	43	0	1505755136	5	3677
2026-01-01 15:02:38.72	184.08	32.47	-22.6	-23.0	18.5	0.00e+00	0	43	0	1513095168	5	3744
2026-01-01 15:02:39.72	184.20	32.67	-22.8	-23.4	18.3	0.00e+00	0	43	0	1520435200	5	3833
2026-01-01 15:02:40.73	184.33	32.87	-22.8	-23.4	18.3	0.00e+00	0	43	0	1527775232	5	3855
2026-01-01 15:02:41.73	184.46	33.07	-22.6	-23.0	18.5	0.00e+00	0	43	0	1534066688	5	3752
2026-01-01 15:02:42.74	184.59	33.27	-22.8	-23.4	18.3	0.00e+00	0	43	0	1541406720	5	3852
2026-01-01 15:02:43.74	184.72	33.47	-22.7	-23.2	18.4	0.00e+00	0	43	0	1549795328	5	3791
2026-01-01 15:02:44.75	184.85	33.68	-22.8	-23.2	18.4	0.00e+00	0	43	0	1556086784	5	3809
2026-01-01 15:02:45.75	184.98	33.88	-22.7	-23.1	18.4	0.00e+00	0	43	0	1563426816	5	3784
2026-01-01 15:02:46.76	185.12	34.09	-22.6	-22.9	18.5	0.00e+00	0	43	0	1570766848	5	3742
2026-01-01 15:02:47.76	185.26	34.30	-22.4	-22.6	18.6	0.00e+00	0	43	0	1578106880	5	3666
2026-01-01 15:02:48.76	185.40	34.51	-22.6	-23.0	18.5	0.00e+00	0	43	0	1585446912	5	3754
2026-01-01 15:02:49.76	185.54	34.72	-22.5	-22.8	18.6	0.00e+00	0	43	0	1592786944	5	3713
2026-01-01 15:02:50.77	185.68	34.93	-22.6	-22.8	18.6	0.00e+00	0	43	0	1600126976	5	3719
2026-01-01 15:02:51.76	185.83	35.14	-22.5	-22.7	18.7	0.00e+00	0	43	0	1607467008	5	3682
2026-01-01 15:02:52.77	185.97	35.35	-22.2	-22.1	18.9	0.00e+00	0	43	0	1614807040	5	3551
2026-01-01 15:02:53.77	186.12	35.57	-22.4	-22.4	18.8	0.00e+00	0	43	0	1621098496	5	3619
2026-01-01 15:02:54.77	186.27	35.78	-22.4	-22.4	18.8	0.00e+00	0	44	0	1628438528	5	3621
2026-01-01 15:02:55.78	186.43	36.00	-22.3	-22.4	18.8	0.00e+00	0	43	0	1635778560	5	3611
2026-01-01 15:02:56.78	186.58	36.22	-22.3	-22.4	18.8	0.00e+00	0	43	0	1643118592	5	3612
2026-01-01 15:02:57.78	186.74	36.44	-22.4	-22.6	18.7	0.00e+00	0	43	0	1650458624	5	3660
2026-01-01 15:02:58.79	186.90	36.66	-22.1	-21.9	19.1	0.00e+00	0	43	0	1657798656	5	3512
2026-01-01 15:02:59.79	187.06	36.88	-22.5	-22.8	18.6	0.00e+00	0	44	0	1665138688	5	3698
2026-01-01 15:03:00.79	187.22	37.11	-22.4	-22.6	18.8	0.00e+00	0	43	0	1672478720	5	3658
2026-01-01 15:03:01.80	187.38	37.33	-22.4	-22.4	18.8	0.00e+00	0	43	0	1679818752	5	3631
2026-01-01 15:03:02.81	187.55	37.56	-22.3	-22.3	18.9	0.00e+00	0	44	0	1687158784	5	3599
2026-01-01 15:03:03.81	187.72	37.79	-22.2	-22.1	19.0	0.00e+00	0	43	0	1694498816	5	3543
2026-01-01 15:03:04.81	187.89	38.02	-22.9	-23.5	18.3	0.00e+00	0	43	0	1700790272	5	3857
2026-01-01 15:03:05.82	188.07	38.25	-22.7	-23.1	18.5	0.00e+00	0	44	0	1708130304	5	3771
2026-01-01 15:03:06.82	188.25	38.48	-22.8	-23.3	18.4	0.00e+00	0	43	0	1715470336	5	3819
2026-01-01 15:03:07.82	188.42	38.71	-22.7	-23.0	18.5	0.00e+00	0	43	0	1722810368	5	3757
2026-01-01 15:03:08.83	188.61	38.94	-22.7	-22.6	18.5	0.00e+00	0	43	0	1730150400	6	3560
2026-01-01 15:03:09.83	188.79	39.18	-23.0	-23.2	18.2	0.00e+00	0	44	0	1737490432	6	3694
2026-01-01 15:03:10.83	188.98	39.42	-22.8	-22.9	18.4	0.00e+00	0	43	0	1744830464	6	3621
2026-01-01 15:03:11.83	189.17	39.65	-22.7	-22.6	18.5	0.00e+00	0	43	0	1752170496	6	3564
2026-01-01 15:03:12.83	189.36	39.89	-22.7	-22.6	18.5	0.00e+00	0	43	0	1759510528	6	3573
2026-01-01 15:03:13.84	189.55	40.13	-23.0	-23.2	18.2	0.00e+00	0	43	0	1765801984	6	3706
2026-01-01 15:03:14.84	189.75	40.37	-23.1	-23.5	18.0	0.00e+00	0	44	0	1773142016	6	3773
2026-01-01 15:03:15.84	189.95	40.62	-23.0	-23.2	18.2	0.00e+00	0	44	0	1781530624	6	3698
2026-01-01 15:03:16.84	190.16	40.86	-22.7	-22.7	18.5	0.00e+00	0	43	0	1787822080	6	3571
2026-01-01 15:03:17.85	190.36	41.11	-22.7	-22.6	18.5	0.00e+00	0	43	0	1795162112	6	3561
2026-01-01 15:03:18.85	190.57	41.35	-22.9	-22.9	18.4	0.00e+00	0	43	0	1802502144	6	3629
2026-01-01 15:03:19.86	190.79	41.60	-22.8	-22.8	18.4	0.00e+00	0	43	0	1809842176	6	3604
2026-01-01 15:03:20.86	191.00	41.85	-22.6	-22.3	18.7	0.00e+00	0	43	0	1817182208	6	3503
2026-01-01 15:03:21.86	191.22	42.10	-22.5	-22.2	18.8	0.00e+00	0	43	0	1824522240	6	3469
2026-01-01 15:03:22.86	191.45	42.35	-22.6	-22.5	18.6	0.00e+00	0	44	0	1831862272	6	3534
2026-01-01 15:03:23.86	191.67	42.60	-22.6	-22.5	18.6	0.00e+00	0	43	0	1839202304	6	3535
2026-01-01 15:03:24.87	191.90	42.86	-22.3	-22.3	18.9	0.00e+00	0	43	0	1846542336	5	3604
2026-01-01 15:03:25.87	192.14	43.11	-23.3	-23.9	17.9	0.00e+00	0	43	0	1852833792	6	3852
2026-01-01 15:03:26.87	192.37	43.37	-23.2	-23.7	18.0	0.00e+00	0	43	0	1860173824	6	3804
2026-01-01 15:03:27.88	192.62	43.63	-23.5	-24.3	17.7	0.00e+00	0	44	0	1867513856	6	3950
2026-01-01 15:03:28.89	192.86	43.89	-23.4	-23.6	17.8	0.00e+00	0	43	0	1874853888	7	3690
2026-01-01 15:03:29.89	193.11	44.15	-22.9	-22.5	18.3	0.00e+00	0	43	0	1882193920	7	3443
2026-01-01 15:03:30.89	193.36	44.41	-23.4	-23.6	17.8	0.00e+00	0	43	0	1889533952	7	3689
2026-01-01 15:03:31.90	193.62	44.67	-23.3	-23.3	18.0	0.00e+00	0	44	0	1896873984	7	3623
2026-01-01 15:03:32.90	193.88	44.93	-23.3	-23.3	18.0	0.00e+00	0	44	0	1904214016	7	3607
2026-01-01 15:03:33.90	194.15	45.20	-23.4	-23.7	17.8	0.00e+00	0	43	0	1911554048	7	3696
2026-01-01 15:03:34.91	194.42	45.47	-23.3	-23.4	18.0	0.00e+00	0	44	0	1918894080	7	3622
2026-01-01 15:03:35.91	194.69	45.73	-23.1	-23.5	18.2	0.00e+00	0	44	0	1926234112	6	3748
2026-01-01 15:03:36.91	194.97	46.00	-23.5	-24.2	17.8	0.00e+00	0	44	0	1932525568	6	3913
2026-01-01 15:03:37.91	195.26	46.27	-23.3	-23.9	17.9	0.00e+00	0	44	0	1939865600	6	3861
2026-01-01 15:03:38.91	195.54	46.54	-23.3	-23.8	18.0	0.00e+00	0	43	0	1947205632	6	3825
2026-01-01 15:03:39.92	195.84	46.81	-23.4	-24.1	17.8	0.00e+00	0	44	0	1954545664	6	3894
2026-01-01 15:03:40.92	196.14	47.08	-23.5	-23.8	17.7	0.00e+00	0	44	0	1961885696	7	3729
2026-01-01 15:03:41.92	196.44	47.35	-23.8	-24.4	17.5	0.00e+00	0	43	0	1969225728	7	3853
2026-01-01 15:03:42.93	196.75	47.63	-23.8	-24.5	17.4	0.00e+00	0	44	0	1976565760	7	3879
2026-01-01 15:03:43.93	197.07	47.90	-24.2	-24.8	17.0	0.00e+00	0	43	0	1983905792	8	3840
2026-01-01 15:03:44.93	197.38	48.17	-24.1	-24.5	17.2	0.00e+00	0	43	0	1991245824	8	3783
2026-01-01 15:03:45.94	197.71	48.45	-24.4	-24.8	16.3	0.00e+00	0	43	0	1997537280	9	3762
2026-01-01 15:03:46.94	198.04	48.73	-23.8	-24.0	17.4	0.00e+00	0	43	0	2005925888	8	3666
2026-01-01 15:03:47.95	198.38	49.01	-24.2	-24.7	17.1	0.00e+00	0	43	0	2013265920	8	3836
2026-01-01 15:03:48.96	198.73	49.29	-24.2	-24.8	17.0	0.00e+00	0	43	0	2019557376	8	3845
2026-01-01 15:03:49.96	199.08	49.57	-24.4	-25.1	16.9	0.00e+00	0	43	0	2026897408	8	3929
2026-01-01 15:03:50.96	199.43	49.84	-23.8	-23.9	17.4	0.00e+00	0	43	0	2034237440	8	3643
2026-01-01 15:03:51.96	199.80	50.12	-24.3	-24.4	17.0	0.00e+00	0	44	0	2041577472	9	3659
2026-01-01 15:03:52.96	200.16	50.40	-24.7	-25.3	16.5	0.00e+00	0	43	0	2048917504	9	3856
2026-01-01 15:03:53.96	200.54	50.68	-24.3	-24.4	17.0	0.00e+00	0	43	0	2056257536	9	3646
2026-01-01 15:03:54.97	200.92	50.97	-24.5	-25.0	16.7	0.00e+00	0	44	0	2063597568	9	3782
2026-01-01 15:03:55.98	201.32	51.25	-24.1	-24.1	17.1	0.00e+00	0	43	0	2070937600	9	3593
2026-01-01 15:03:56.97	201.71	51.53	-23.8	-24.0	17.5	0.00e+00	0	43	0	2078277632	8	3653
2026-01-01 15:03:57.97	202.11	51.81	-24.0	-24.4	17.3	0.00e+00	0	43	0	2084569088	8	3746
2026-01-01 15:03:58.98	202.53	52.09	-24.7	-25.3	16.6	0.00e+00	0	44	0	2091909120	9	3852
2026-01-01 15:03:59.98	202.95	52.38	-24.7	-25.3	16.5	0.00e+00	0	44	0	2099249152	9	3873
2026-01-01 15:04:00.98	203.38	52.66	-24.6	-25.1	16.6	0.00e+00	0	44	0	2106589184	9	3821
2026-01-01 15:04:01.99	203.82	52.94	-24.6	-25.2	16.5	0.00e+00	0	44	0	2113929216	9	3846
2026-01-01 15:04:02.99	204.26	53.22	-24.7	-25.3	16.6	0.00e+00	0	43	0	2121269248	9	3861
2026-01-01 15:04:04.00	204.72	53.51	-24.8	-25.6	16.4	0.00e+00	0	43	0	2128609280	9	3942
2026-01-01 15:04:05.00	205.18	53.79	-24.5	-24.8	16.8	0.00e+00	0	43	0	2135949312	9	3752
2026-01-01 15:04:06.01	205.66	54.07	-24.3	-24.5	16.9	0.00e+00	0	43	0	2143289344	9	3665
2026-01-01 15:04:07.01	206.14	54.35	-24.0	-23.7	17.3	0.00e+00	0	43	0	2150629376	9	3506
2026-01-01 15:04:08.02	206.63	54.63	-24.2	-24.3	17.1	0.00e+00	0	44	0	2157969408	9	3622
2026-01-01 15:04:09.02	207.13	54.91	-23.8	-23.9	17.6	0.00e+00	0	44	0	2164260864	8	3638
2026-01-01 15:04:10.03	207.64	55.19	-23.6	-23.4	17.8	0.00e+00	0	44	0	2171600896	8	3541
2026-01-01 15:04:11.04	208.17	55.48	-23.7	-23.6	17.7	0.00e+00	0	44	0	2178940928	8	3577
2026-01-01 15:04:12.04	208.70	55.75	-23.7	-23.8	17.6	0.00e+00	0	43	0	2186280960	8	3616
2026-01-01 15:04:13.05	209.24	56.03	-23.6	-23.9	17.8	0.00e+00	0	43	0	2193620992	7	3750
2026-01-01 15:04:14.05	209.79	56.31	-23.8	-24.3	17.5	0.00e+00	0	44	0	2200961024	7	3845
2026-01-01 15:04:15.06	210.36	56.58	-24.0	-24.9	17.3	0.00e+00	0	43	0	2208301056	7	3968
2026-01-01 15:04:16.05	210.93	56.85	-24.4	-25.1	16.9	0.00e+00	0	44	0	2215641088	8	3918
2026-01-01 15:04:17.06	211.52	57.12	-24.2	-24.8	17.1	0.00e+00	0	43	0	2222981120	8	3847
2026-01-01 15:04:18.06	212.11	57.39	-23.9	-24.0	17.5	0.00e+00	0	44	0	2230321152	8	3665
2026-01-01 15:04:19.06	212.72	57.66	-23.9	-24.2	17.5	0.00e+00	0	43	0	2237661184	8	3695
2026-01-01 15:04:20.06	213.34	57.93	-24.1	-24.5	17.3	0.00e+00	0	43	0	2245001216	8	3773
2026-01-01 15:04:21.06	213.97	58.19	-23.7	-23.7	17.7	0.00e+00	0	43	0	2251292672	8	3595
2026-01-01 15:04:22.07	214.62	58.45	-23.4	-23.4	18.0	0.00e+00	0	44	0	2258632704	7	3640
2026-01-01 15:04:23.07	215.28	58.71	-23.4	-23.5	18.0	0.00e+00	0	44	0	2265972736	7	3656
2026-01-01 15:04:24.07	215.94	58.97	-23.6	-23.9	17.8	0.00e+00	0	44	0	2273312768	7	3731
2026-01-01 15:04:25.08	216.63	59.23	-23.9	-24.6	17.5	0.00e+00	0	43	0	2280652800	7	3892
2026-01-01 15:04:26.08	217.33	59.48	-23.9	-24.6	17.4	0.00e+00	0	43	0	2287992832	7	3916
2026-01-01 15:04:27.08	218.04	59.73	-24.2	-24.7	17.1	0.00e+00	0	43	0	2295332864	8	3835
2026-01-01 15:04:28.09	218.77	59.98	-24.0	-24.3	17.4	0.00e+00	0	43	0	2302672896	8	3721
2026-01-01 15:04:29.08	219.50	60.22	-23.4	-23.1	18.0	0.00e+00	0	44	0	2310012928	8	3459
2026-01-01 15:04:30.08	220.25	60.46	-24.0	-24.3	17.4	0.00e+00	0	43	0	2316304384	8	3727
2026-01-01 15:04:31.08	221.01	60.69	-24.1	-24.5	17.2	0.00e+00	0	43	0	2323644416	8	3779
2026-01-01 15:04:32.08	221.79	60.92	-23.9	-24.0	17.5	0.00e+00	0	44	0	2330984448	8	3675
2026-01-01 15:04:33.08	222.58	61.15	-23.8	-23.9	17.6	0.00e+00	0	44	0	2338324480	8	3638
2026-01-01 15:04:34.09	223.40	61.38	-23.9	-24.1	17.5	0.00e+00	0	43	0	2345664512	8	3683
2026-01-01 15:04:35.10	224.23	61.60	-23.9	-24.1	17.5	0.00e+00	0	44	0	2353004544	8	3690
2026-01-01 15:04:36.10	225.07	61.82	-23.5	-23.2	18.0	0.00e+00	0	43	0	2360344576	8	3486
2026-01-01 15:04:37.10	225.92	62.03	-23.4	-23.6	18.0	0.00e+00	0	43	0	2367684608	7	3664
2026-01-01 15:04:38.12	226.80	62.24	-23.5	-23.7	17.8	0.00e+00	0	44	0	2375024640	7	3701
2026-01-01 15:04:39.12	227.68	62.44	-23.5	-23.8	17.9	0.00e+00	0	43	0	2382364672	7	3726
2026-01-01 15:04:40.13	228.58	62.64	-23.4	-23.6	18.0	0.00e+00	0	44	0	2389704704	7	3668
2026-01-01 15:04:41.14	229.50	62.83	-23.5	-23.8	17.9	0.00e+00	0	43	0	2395996160	7	3719
2026-01-01 15:04:42.14	230.42	63.01	-23.7	-24.2	17.7	0.00e+00	0	44	0	2403336192	7	3817
2026-01-01 15:04:43.14	231.36	63.19	-23.4	-23.7	17.9	0.00e+00	0	44	0	2410676224	7	3692
2026-01-01 15:04:44.14	232.31	63.36	-23.2	-23.2	18.2	0.00e+00	0	44	0	2418016256	7	3589
2026-01-01 15:04:45.15	233.29	63.53	-23.1	-23.0	18.3	0.00e+00	0	44	0	2425356288	7	3550
2026-01-01 15:04:46.16	234.28	63.70	-22.8	-22.9	18.6	0.00e+00	0	43	0	2432696320	6	3610
2026-01-01 15:04:47.16	235.27	63.85	-22.7	-22.5	18.8	0.00e+00	0	44	0	2440036352	6	3537
2026-01-01 15:04:48.15	236.26	64.00	-23.0	-23.1	18.5	0.00e+00	0	44	0	2447376384	6	3655
2026-01-01 15:04:49.16	237.29	64.14	-22.7	-22.5	18.8	0.00e+00	0	44	0	2454716416	6	3542
2026-01-01 15:04:50.16	238.32	64.27	-23.0	-23.2	18.4	0.00e+00	0	44	0	2462056448	6	3696
2026-01-01 15:04:51.17	239.37	64.40	-23.0	-23.2	18.4	0.00e+00	0	44	0	2469396480	6	3694
2026-01-01 15:04:52.17	240.43	64.52	-23.0	-23.2	18.5	0.00e+00	0	43	0	2476736512	6	3692
2026-01-01 15:04:53.17	241.49	64.63	-22.8	-22.8	18.6	0.00e+00	0	44	0	2483027968	6	3603
2026-01-01 15:04:54.17	242.56	64.73	-22.8	-22.7	18.6	0.00e+00	0	44	0	2490368000	6	3573
2026-01-01 15:04:55.18	243.65	64.83	-23.0	-23.1	18.5	0.00e+00	0	43	0	2497708032	6	3665
2026-01-01 15:04:56.19	244.76	64.92	-22.6	-22.3	18.8	0.00e+00	0	44	0	2505048064	6	3496
2026-01-01 15:04:57.19	245.86	65.00	-22.3	-22.2	19.2	0.00e+00	0	43	0	2512388096	5	3574
2026-01-01 15:04:58.19	246.96	65.07	-22.4	-22.4	19.1	0.00e+00	0	44	0	2519728128	5	3603
2026-01-01 15:04:59.19	248.08	65.13	-22.3	-22.2	19.1	0.00e+00	0	44	0	2527068160	5	3567
2026-01-01 15:05:00.19	249.19	65.18	-22.3	-22.2	19.2	0.00e+00	0	44	0	2534408192	5	3554
2026-01-01 15:05:01.19	250.32	65.23	-22.4	-22.5	18.9	0.00e+00	0	44	0	2540699648	5	3619
2026-01-01 15:05:02.18	251.44	65.27	-23.1	-23.9	18.3	0.00e+00	0	43	0	2548039680	5	3942
2026-01-01 15:05:03.19	252.58	65.30	-23.6	-24.0	17.8	0.00e+00	0	43	0	2555379712	7	3755
2026-01-01 15:05:04.19	253.71	65.32	-23.3	-23.4	18.1	0.00e+00	0	43	0	2562719744	7	3627
2026-01-01 15:05:05.18	254.84	65.33	-22.9	-22.5	18.6	0.00e+00	0	43	0	2570059776	7	3433
2026-01-01 15:05:06.19	255.98	65.33	-22.7	-22.5	18.9	0.00e+00	0	44	0	2577399808	6	3532
2026-01-01 15:05:07.19	257.12	65.33	-22.7	-22.6	18.7	1.10e-06	0	44	0	2584739840	6	3562
2026-01-01 15:05:08.20	258.27	65.31	-22.6	-22.4	18.9	0.00e+00	0	44	0	2592079872	6	3505
2026-01-01 15:05:09.20	259.40	65.29	-23.1	-23.4	18.4	0.00e+00	0	44	0	2599419904	6	3719
2026-01-01 15:05:10.20	260.53	65.26	-23.1	-23.4	18.4	0.00e+00	0	44	0	2606759936	6	3731
2026-01-01 15:05:11.21	261.67	65.22	-23.3	-23.7	18.2	0.00e+00	0	44	0	2614099968	6	3801
2026-01-01 15:05:12.21	262.79	65.17	-22.8	-22.9	18.7	0.00e+00	0	43	0	2621440000	6	3605
2026-01-01 15:05:13.21	263.91	65.11	-22.6	-22.4	18.9	0.00e+00	0	44	0	2627731456	6	3505
2026-01-01 15:05:14.22	265.03	65.04	-22.5	-22.2	18.9	0.00e+00	0	43	0	2635071488	6	3467
2026-01-01 15:05:15.22	266.13	64.97	-22.6	-22.4	18.8	0.00e+00	0	44	0	2642411520	6	3504
2026-01-01 15:05:16.22	267.23	64.89	-22.6	-22.5	18.7	0.00e+00	0	44	0	2649751552	6	3519
2026-01-01 15:05:17.23	268.33	64.80	-22.5	-22.2	18.8	0.00e+00	0	43	0	2657091584	6	3472
2026-01-01 15:05:18.23	269.41	64.70	-22.6	-22.3	18.8	0.00e+00	0	44	0	2664431616	6	3497
2026-01-01 15:05:19.23	270.48	64.59	-22.5	-22.2	18.8	0.00e+00	0	43	0	2671771648	6	3470
2026-01-01 15:05:20.24	271.54	64.48	-22.4	-22.4	19.0	0.00e+00	0	44	0	2679111680	5	3600
2026-01-01 15:05:21.24	272.59	64.36	-22.7	-23.0	18.7	0.00e+00	0	43	0	2686451712	5	3751
2026-01-01 15:05:22.24	273.63	64.23	-22.8	-23.2	18.6	0.00e+00	0	43	0	2692743168	5	3794
2026-01-01 15:05:23.24	274.65	64.09	-23.0	-23.8	18.3	0.00e+00	0	43	0	2700083200	5	3927
2026-01-01 15:05:24.25	275.68	63.95	-23.1	-23.4	18.2	0.00e+00	0	44	0	2708471808	6	3732
2026-01-01 15:05:25.25	276.68	63.80	-23.3	-23.8	18.1	0.00e+00	0	44	0	2714763264	6	3824
2026-01-01 15:05:26.25	277.66	63.65	-23.2	-23.7	18.1	0.00e+00	0	44	0	2722103296	6	3795
2026-01-01 15:05:27.26	278.65	63.48	-23.5	-24.2	17.8	0.00e+00	0	44	0	2729443328	6	3919
2026-01-01 15:05:28.26	279.61	63.31	-23.4	-24.1	18.1	0.00e+00	0	44	0	2736783360	6	3890
2026-01-01 15:05:29.27	280.56	63.14	-23.6	-24.0	17.2	0.00e+00	0	44	0	2744123392	7	3766
2026-01-01 15:05:30.26	281.49	62.96	-23.2	-23.1	17.9	0.00e+00	0	43	0	2751463424	7	3567
2026-01-01 15:05:31.27	282.41	62.77	-23.1	-23.0	18.1	0.00e+00	0	44	0	2758803456	7	3529
2026-01-01 15:05:32.27	283.32	62.58	-23.4	-23.4	18.1	0.00e+00	0	43	0	2766143488	7	3634
2026-01-01 15:05:33.27	284.21	62.38	-23.4	-23.6	18.0	0.00e+00	0	44	0	2772434944	7	3672
2026-01-01 15:05:34.27	285.08	62.18	-23.6	-24.1	17.8	0.00e+00	0	44	0	2779774976	7	3776
2026-01-01 15:05:35.28	285.95	61.97	-23.9	-24.5	17.5	0.00e+00	0	44	0	2787115008	7	3882
2026-01-01 15:05:36.28	286.79	61.76	-23.9	-24.6	17.5	0.00e+00	0	44	0	2794455040	7	3901
2026-01-01 15:05:37.28	287.63	61.54	-23.9	-24.6	17.5	0.00e+00	0	43	0	2801795072	7	3903
2026-01-01 15:05:38.29	288.45	61.32	-24.0	-24.3	17.4	0.00e+00	0	43	0	2809135104	8	3722
2026-01-01 15:05:39.29	289.25	61.09	-24.0	-24.3	17.4	0.00e+00	0	43	0	2816475136	8	3723
2026-01-01 15:05:40.29	290.04	60.87	-24.0	-24.2	17.5	0.00e+00	0	43	0	2823815168	8	3716
2026-01-01 15:05:41.29	290.81	60.63	-23.8	-23.9	17.6	0.00e+00	0	44	0	2831155200	8	3639
2026-01-01 15:05:42.30	291.58	60.39	-23.7	-23.6	17.8	0.00e+00	0	44	0	2838495232	8	3564
2026-01-01 15:05:43.30	292.33	60.15	-23.8	-23.8	17.6	0.00e+00	0	44	0	2845835264	8	3617
2026-01-01 15:05:44.31	293.06	59.91	-23.9	-24.1	17.5	0.00e+00	0	43	0	2853175296	8	3686
2026-01-01 15:05:45.31	293.78	59.66	-24.1	-24.5	17.4	0.00e+00	0	43	0	2859466752	8	3773
2026-01-01 15:05:46.32	294.49	59.41	-24.1	-24.4	17.4	0.00e+00	0	43	0	2866806784	8	3760
2026-01-01 15:05:47.32	295.18	59.16	-24.2	-24.7	17.2	0.00e+00	0	44	0	2874146816	8	3826
2026-01-01 15:05:48.32	295.86	58.91	-23.9	-24.1	17.5	0.00e+00	0	44	0	2881486848	8	3680
2026-01-01 15:05:49.33	296.53	58.65	-24.0	-24.3	17.4	0.00e+00	0	43	0	2888826880	8	3729
2026-01-01 15:05:50.33	297.18	58.39	-24.1	-24.6	17.3	0.00e+00	0	43	0	2896166912	8	3782
2026-01-01 15:05:51.34	297.83	58.12	-24.1	-24.5	17.3	0.00e+00	0	44	0	2903506944	8	3775
2026-01-01 15:05:52.34	298.46	57.86	-23.9	-24.1	17.5	0.00e+00	0	44	0	2910846976	8	3686
2026-01-01 15:05:53.33	299.06	57.60	-23.8	-24.0	17.5	0.00e+00	0	43	0	2918187008	8	3653
2026-01-01 15:05:54.34	299.67	57.33	-23.8	-23.9	17.6	0.00e+00	0	44	0	2924478464	8	3634
2026-01-01 15:05:55.34	300.26	57.06	-23.7	-23.7	17.7	0.00e+00	0	44	0	2931818496	8	3591
2026-01-01 15:05:56.34	300.84	56.79	-23.9	-24.1	17.5	0.00e+00	0	44	0	2939158528	8	3693
2026-01-01 15:05:57.35	301.42	56.51	-24.1	-24.6	17.2	0.00e+00	0	43	0	2946498560	8	3787
2026-01-01 15:05:58.35	301.97	56.24	-24.1	-24.6	17.3	0.00e+00	0	44	0	2953838592	8	3802
2026-01-01 15:05:59.35	302.52	55.97	-24.3	-25.0	17.0	0.00e+00	0	44	0	2961178624	8	3891
2026-01-01 15:06:00.36	303.06	55.69	-24.1	-24.6	17.2	0.00e+00	0	44	0	2968518656	8	3802
2026-01-01 15:06:01.36	303.59	55.41	-24.0	-24.2	17.4	0.00e+00	0	44	0	2975858688	8	3709
2026-01-01 15:06:02.36	304.10	55.13	-24.0	-24.4	17.3	0.00e+00	0	43	0	2983198720	8	3738
2026-01-01 15:06:03.37	304.61	54.85	-24.2	-24.7	17.2	0.00e+00	0	44	0	2990538752	8	3804
2026-01-01 15:06:04.37	305.11	54.58	-24.4	-25.2	16.7	0.00e+00	0	43	0	2997878784	8	3948
2026-01-01 15:06:05.38	305.60	54.29	-24.6	-25.2	16.6	0.00e+00	0	44	0	3004170240	9	3827
2026-01-01 15:06:06.38	306.07	54.01	-24.4	-24.6	17.0	0.00e+00	0	44	0	3011510272	9	3699
2026-01-01 15:06:07.38	306.54	53.73	-24.2	-24.2	17.2	0.00e+00	0	44	0	3018850304	9	3601
2026-01-01 15:06:08.38	307.00	53.45	-24.1	-24.0	17.2	0.00e+00	0	44	0	3026190336	9	3568
2026-01-01 15:06:09.38	307.45	53.17	-23.9	-24.1	17.5	0.00e+00	0	43	0	3033530368	8	3673
2026-01-01 15:06:10.38	307.89	52.89	-23.9	-24.1	17.5	0.00e+00	0	44	0	3040870400	8	3681
2026-01-01 15:06:11.39	308.33	52.61	-24.1	-24.5	17.2	0.00e+00	0	44	0	3048210432	8	3771
2026-01-01 15:06:12.39	308.75	52.33	-24.3	-25.0	17.0	1.10e-06	0	44	0	3055550464	8	3890
2026-01-01 15:06:13.40	309.18	52.05	-24.3	-25.1	17.0	0.00e+00	0	44	0	3062890496	8	3904
2026-01-01 15:06:14.40	309.58	51.76	-24.5	-25.4	16.8	1.10e-06	0	44	0	3070230528	8	3982
2026-01-01 15:06:15.40	309.99	51.48	-24.3	-25.0	17.0	0.00e+00	0	44	0	3077570560	8	3894
2026-01-01 15:06:16.41	310.38	51.20	-24.4	-25.2	16.9	0.00e+00	0	44	0	3084910592	8	3945
2026-01-01 15:06:17.41	310.77	50.92	-24.5	-25.4	16.8	0.00e+00	0	44	0	3091202048	8	3984
2026-01-01 15:06:18.41	311.15	50.64	-24.6	-25.1	16.6	4.50e-06	0	44	0	3098542080	9	3813
2026-01-01 15:06:19.42	311.53	50.36	-24.9	-25.7	16.4	0.00e+00	0	44	0	3105882112	9	3947
2026-01-01 15:06:20.43	311.90	50.08	-24.7	-25.2	16.6	0.00e+00	0	44	0	3113222144	9	3836
2026-01-01 15:06:21.44	312.26	49.80	-24.6	-25.0	16.7	0.00e+00	0	44	0	3120562176	9	3788
2026-01-01 15:06:22.44	312.61	49.52	-24.5	-24.8	16.8	0.00e+00	0	44	0	3127902208	9	3745
2026-01-01 15:06:23.45	312.96	49.24	-24.5	-24.8	16.6	0.00e+00	0	44	0	3135242240	9	3738
2026-01-01 15:06:24.45	313.30	48.97	-24.2	-24.2	17.1	0.00e+00	0	43	0	3142582272	9	3605
2026-01-01 15:06:25.45	313.64	48.69	-23.8	-23.8	17.6	0.00e+00	0	44	0	3149922304	8	3606
2026-01-01 15:06:26.44	313.96	48.42	-23.5	-23.2	17.9	0.00e+00	0	43	0	3157262336	8	3494
2026-01-01 15:06:27.45	314.29	48.14	-23.4	-23.5	18.0	0.00e+00	0	44	0	3164602368	7	3657
2026-01-01 15:06:28.45	314.61	47.87	-23.4	-23.5	18.0	0.00e+00	0	44	0	3170893824	7	3649
2026-01-01 15:06:29.45	314.92	47.60	-23.3	-23.4	18.1	0.00e+00	0	44	0	3178233856	7	3618
2026-01-01 15:06:30.45	315.23	47.33	-23.3	-23.4	18.0	0.00e+00	0	44	0	3185573888	7	3639
2026-01-01 15:06:31.45	315.53	47.06	-23.5	-23.7	17.9	0.00e+00	0	44	0	3192913920	7	3701
2026-01-01 15:06:32.45	315.82	46.79	-23.5	-23.7	17.9	0.00e+00	0	43	0	3200253952	7	3707
2026-01-01 15:06:33.46	316.12	46.52	-23.2	-23.1	18.1	0.00e+00	0	44	0	3207593984	7	3570
2026-01-01 15:06:34.46	316.40	46.25	-23.0	-22.7	18.4	0.00e+00	0	44	0	3214934016	7	3478
2026-01-01 15:06:35.47	316.69	45.98	-22.9	-22.9	18.5	0.00e+00	0	43	0	3222274048	6	3625
2026-01-01 15:06:36.47	316.97	45.71	-22.8	-22.8	18.6	0.00e+00	0	43	0	3229614080	6	3598
2026-01-01 15:06:37.48	317.24	45.45	-22.7	-22.7	18.6	0.00e+00	0	44	0	3235905536	6	3571
2026-01-01 15:06:38.48	317.51	45.18	-22.7	-22.6	18.6	0.00e+00	0	44	0	3243245568	6	3566
2026-01-01 15:06:39.49	317.77	44.92	-22.6	-22.4	18.7	0.00e+00	0	44	0	3250585600	6	3520
2026-01-01 15:06:40.49	318.03	44.66	-22.7	-22.7	18.6	0.00e+00	0	44	0	3257925632	6	3571
2026-01-01 15:06:41.49	318.29	44.40	-22.9	-22.9	18.5	0.00e+00	0	44	0	3265265664	6	3626
2026-01-01 15:06:42.50	318.54	44.13	-23.0	-23.3	18.3	0.00e+00	0	44	0	3272605696	6	3714
2026-01-01 15:06:43.50	318.79	43.88	-23.1	-23.3	18.3	0.00e+00	0	44	0	3279945728	6	3722
2026-01-01 15:06:44.50	319.03	43.62	-23.1	-23.5	17.4	0.00e+00	0	44	0	3287285760	6	3751
2026-01-01 15:06:45.50	319.27	43.36	-22.9	-22.9	18.5	0.00e+00	0	44	0	3294625792	6	3621
2026-01-01 15:06:46.51	319.51	43.11	-22.5	-22.2	18.8	0.00e+00	0	43	0	3301965824	6	3467
2026-01-01 15:06:47.52	319.74	42.85	-22.4	-22.0	18.9	0.00e+00	0	44	0	3309305856	6	3425
2026-01-01 15:06:48.52	319.97	42.60	-22.3	-22.4	19.0	0.00e+00	0	44	0	3316645888	5	3605
2026-01-01 15:06:49.51	320.20	42.35	-22.5	-22.6	18.8	0.00e+00	0	44	0	3322937344	5	3658
2026-01-01 15:06:50.52	320.42	42.10	-22.6	-22.8	18.7	0.00e+00	0	44	0	3330277376	5	3699
2026-01-01 15:06:51.52	320.64	41.85	-22.6	-23.0	18.6	0.00e+00	0	44	0	3337617408	5	3738
2026-01-01 15:06:52.53	320.85	41.60	-22.7	-23.2	18.5	0.00e+00	0	44	0	3344957440	5	3777
2026-01-01 15:06:53.54	321.07	41.35	-22.8	-23.3	18.5	0.00e+00	0	44	0	3352297472	5	3802
2026-01-01 15:06:54.54	321.28	41.11	-22.7	-23.1	18.6	0.00e+00	0	44	0	3359637504	5	3762
2026-01-01 15:06:55.55	321.48	40.86	-22.5	-22.8	18.7	0.00e+00	0	44	0	3366977536	5	3693
2026-01-01 15:06:56.56	321.69	40.62	-22.5	-22.6	18.8	0.00e+00	0	43	0	3374317568	5	3657
2026-01-01 15:06:57.56	321.89	40.38	-22.5	-22.6	18.8	0.00e+00	0	44	0	3381657600	5	3646
2026-01-01 15:06:58.56	322.09	40.14	-22.6	-22.9	18.7	0.00e+00	0	43	0	3388997632	5	3717
2026-01-01 15:06:59.56	322.28	39.90	-22.8	-23.2	18.6	0.00e+00	0	44	0	3396337664	5	3801
2026-01-01 15:07:00.57	322.47	39.66	-22.9	-23.6	18.3	0.00e+00	0	44	0	3402629120	5	3884
2026-01-01 15:07:01.58	322.66	39.42	-23.1	-23.5	18.2	0.00e+00	0	44	0	3409969152	6	3756
2026-01-01 15:07:02.58	322.85	39.19	-23.1	-23.4	18.2	0.00e+00	0	44	0	3417309184	6	3729
2026-01-01 15:07:03.59	323.03	38.95	-23.1	-23.5	18.2	0.00e+00	0	44	0	3424649216	6	3769
2026-01-01 15:07:04.58	323.21	38.72	-23.3	-23.8	18.0	0.00e+00	0	44	0	3431989248	6	3815
2026-01-01 15:07:05.59	323.39	38.49	-23.3	-23.8	17.8	0.00e+00	0	44	0	3439329280	6	3835
2026-01-01 15:07:06.59	323.57	38.26	-23.2	-23.6	18.1	0.00e+00	0	44	0	3446669312	6	3768
2026-01-01 15:07:07.60	323.74	38.03	-23.2	-23.6	18.1	0.00e+00	0	43	0	3454009344	6	3792
2026-01-01 15:07:08.60	323.91	37.80	-23.3	-23.9	17.9	0.00e+00	0	44	0	3461349376	6	3842
2026-01-01 15:07:09.61	324.08	37.58	-23.2	-23.6	18.1	0.00e+00	0	44	0	3468689408	6	3774
2026-01-01 15:07:10.61	324.25	37.35	-22.8	-22.9	18.4	0.00e+00	0	43	0	3476029440	6	3631
2026-01-01 15:07:11.61	324.41	37.13	-22.8	-22.8	18.5	0.00e+00	0	43	0	3483369472	6	3595
2026-01-01 15:07:12.61	324.58	36.91	-22.8	-22.7	18.5	0.00e+00	0	44	0	3489660928	6	3589
2026-01-01 15:07:13.61	324.73	36.69	-22.7	-22.7	18.6	0.00e+00	0	44	0	3497000960	6	3572
2026-01-01 15:07:14.61	324.89	36.47	-22.8	-22.8	18.5	1.10e-06	0	44	0	3504340992	6	3598
2026-01-01 15:07:15.61	325.05	36.25	-22.7	-22.6	18.5	0.00e+00	0	44	0	3511681024	6	3560
2026-01-01 15:07:16.62	325.20	36.03	-22.4	-22.4	18.9	0.00e+00	0	44	0	3519021056	5	3609
2026-01-01 15:07:17.62	325.36	35.82	-22.3	-22.3	18.9	0.00e+00	0	44	0	3526361088	5	3594
2026-01-01 15:07:18.62	325.50	35.60	-22.4	-22.5	18.9	0.00e+00	0	44	0	3533701120	5	3637
2026-01-01 15:07:19.63	325.65	35.39	-22.3	-22.4	18.9	0.00e+00	0	44	0	3541041152	5	3611
2026-01-01 15:07:20.62	325.80	35.18	-22.3	-22.2	19.0	0.00e+00	0	44	0	3547332608	5	3571
2026-01-01 15:07:21.63	325.94	34.97	-22.4	-22.6	18.8	0.00e+00	0	44	0	3554672640	5	3654
2026-01-01 15:07:22.63	326.09	34.76	-22.5	-22.6	18.8	0.00e+00	0	44	0	3562012672	5	3661
2026-01-01 15:07:23.64	326.23	34.55	-22.4	-22.5	18.8	0.00e+00	0	44	0	3569352704	5	3637
2026-01-01 15:07:24.64	326.37	34.34	-22.5	-22.7	18.7	0.00e+00	0	44	0	3576692736	5	3685
2026-01-01 15:07:25.65	326.51	34.13	-22.6	-22.9	18.6	0.00e+00	0	44	0	3584032768	5	3725
2026-01-01 15:07:26.65	326.64	33.93	-22.8	-23.3	18.4	0.00e+00	0	43	0	3591372800	5	3818
2026-01-01 15:07:27.65	326.78	33.72	-22.8	-23.2	18.5	0.00e+00	0	44	0	3598712832	5	3799
2026-01-01 15:07:28.65	326.91	33.52	-22.6	-22.9	18.6	0.00e+00	0	43	0	3606052864	5	3735
2026-01-01 15:07:29.66	327.04	33.32	-22.6	-22.8	18.6	0.00e+00	0	44	0	3613392896	5	3708
2026-01-01 15:07:30.66	327.17	33.12	-22.6	-22.9	18.7	0.00e+00	0	44	0	3620732928	5	3725
2026-01-01 15:07:31.66	327.30	32.92	-22.7	-23.1	18.5	0.00e+00	0	44	0	3628072960	5	3778
2026-01-01 15:07:32.66	327.42	32.72	-22.8	-23.4	18.4	0.00e+00	0	44	0	3634364416	5	3840
2026-01-01 15:07:33.66	327.55	32.53	-22.7	-23.2	18.5	0.00e+00	0	44	0	3641704448	5	3791
2026-01-01 15:07:34.67	327.67	32.33	-22.7	-23.2	18.5	0.00e+00	0	44	0	3649044480	5	3785
2026-01-01 15:07:35.66	327.79	32.14	-22.9	-23.5	18.3	0.00e+00	0	44	0	3656384512	5	3862
2026-01-01 15:07:36.67	327.91	31.94	-22.8	-23.2	18.4	0.00e+00	0	44	0	3663724544	5	3808
2026-01-01 15:07:37.67	328.03	31.75	-22.7	-23.2	18.4	0.00e+00	0	44	0	3671064576	5	3792
2026-01-01 15:07:38.67	328.15	31.56	-22.7	-23.2	18.4	0.00e+00	0	44	0	3678404608	5	3802
2026-01-01 15:07:39.67	328.27	31.37	-23.0	-23.8	18.2	0.00e+00	0	44	0	3685744640	5	3937
2026-01-01 15:07:40.67	328.38	31.18	-22.9	-23.1	18.3	0.00e+00	0	44	0	3693084672	6	3663
2026-01-01 15:07:41.67	328.49	31.00	-22.6	-22.5	18.6	0.00e+00	0	43	0	3699376128	6	3534
2026-01-01 15:07:42.68	328.61	30.81	-22.5	-22.3	18.7	0.00e+00	0	44	0	3706716160	6	3496
2026-01-01 15:07:43.68	328.72	30.62	-22.5	-22.3	18.7	0.00e+00	0	44	0	3714056192	6	3494
2026-01-01 15:07:44.68	328.83	30.44	-22.5	-22.3	18.6	0.00e+00	0	44	0	3721396224	6	3498
2026-01-01 15:07:45.69	328.94	30.25	-22.5	-22.3	18.7	0.00e+00	0	44	0	3728736256	6	3495
2026-01-01 15:07:46.69	329.05	30.07	-22.6	-22.5	18.5	0.00e+00	0	44	0	3736076288	6	3532
2026-01-01 15:07:47.69	329.15	29.89	-22.7	-22.5	18.5	0.00e+00	0	44	0	3743416320	6	3546
2026-01-01 15:07:48.70	329.26	29.71	-22.8	-22.8	18.5	0.00e+00	0	44	0	3750756352	6	3598
2026-01-01 15:07:49.70	329.36	29.53	-22.8	-22.8	18.4	0.00e+00	0	44	0	3758096384	6	3602
2026-01-01 15:07:50.71	329.47	29.35	-22.8	-22.8	18.4	0.00e+00	0	44	0	3765436416	6	3596
2026-01-01 15:07:51.71	329.57	29.17	-22.9	-23.1	18.3	0.00e+00	0	44	0	3772776448	6	3661
2026-01-01 15:07:52.70	329.67	29.00	-23.0	-23.2	18.2	0.00e+00	0	44	0	3779067904	6	3687
2026-01-01 15:07:53.70	329.77	28.83	-22.9	-23.1	18.2	0.00e+00	0	44	0	3786407936	6	3674
2026-01-01 15:07:54.70	329.87	28.65	-23.0	-23.3	18.2	0.00e+00	0	44	0	3793747968	6	3704
2026-01-01 15:07:55.71	329.97	28.48	-23.2	-23.7	17.9	0.00e+00	0	44	0	3801088000	6	3792
2026-01-01 15:07:56.71	330.06	28.31	-23.1	-23.4	18.1	0.00e+00	0	44	0	3808428032	6	3739
2026-01-01 15:07:57.71	330.16	28.14	-22.9	-23.1	18.2	0.00e+00	0	44	0	3815768064	6	3669
2026-01-01 15:07:58.72	330.26	27.96	-22.8	-22.9	18.2	0.00e+00	0	44	0	3823108096	6	3620
2026-01-01 15:07:59.72	330.35	27.80	-22.9	-23.0	18.3	0.00e+00	0	44	0	3830448128	6	3636
2026-01-01 15:08:00.72	330.44	27.63	-23.1	-23.4	18.0	0.00e+00	0	44	0	3837788160	6	3738
2026-01-01 15:08:01.73	330.54	27.46	-23.0	-23.3	18.1	0.00e+00	0	44	0	3844079616	6	3709
2026-01-01 15:08:02.73	330.63	27.29	-22.8	-22.9	18.4	0.00e+00	0	44	0	3851419648	6	3617
2026-01-01 15:08:03.74	330.72	27.13	-22.8	-22.8	18.4	0.00e+00	0	44	0	3858759680	6	3615
2026-01-01 15:08:04.74	330.81	26.96	-22.9	-23.1	18.2	0.00e+00	0	44	0	3866099712	6	3662
2026-01-01 15:08:05.74	330.90	26.80	-22.9	-23.0	18.2	0.00e+00	0	44	0	3873439744	6	3656
2026-01-01 15:08:06.75	330.99	26.64	-22.9	-23.1	18.2	0.00e+00	0	44	0	3880779776	6	3659
2026-01-01 15:08:07.75	331.07	26.47	-22.9	-23.0	18.2	0.00e+00	0	44	0	3888119808	6	3655
2026-01-01 15:08:08.75	331.16	26.31	-23.0	-23.2	18.2	0.00e+00	0	44	0	3895459840	6	3689
2026-01-01 15:08:09.75	331.24	26.16	-22.9	-23.1	18.2	0.00e+00	0	44	0	3902799872	6	3670
2026-01-01 15:08:10.75	331.33	26.00	-22.9	-23.1	18.2	0.00e+00	0	44	0	3910139904	6	3667
2026-01-01 15:08:11.75	331.41	25.84	-23.0	-23.1	18.2	0.00e+00	0	43	0	3917479936	6	3681
2026-01-01 15:08:12.76	331.49	25.68	-22.8	-22.8	18.3	0.00e+00	0	44	0	3923771392	6	3615
2026-01-01 15:08:13.77	331.58	25.52	-22.8	-22.8	18.4	0.00e+00	0	44	0	3931111424	6	3606
2026-01-01 15:08:14.77	331.66	25.37	-22.8	-22.8	18.4	0.00e+00	0	44	0	3938451456	6	3596
2026-01-01 15:08:15.78	331.74	25.21	-22.9	-23.0	18.2	0.00e+00	0	44	0	3945791488	6	3650
2026-01-01 15:08:16.78	331.82	25.06	-22.9	-22.9	18.3	0.00e+00	0	44	0	3953131520	6	3634
2026-01-01 15:08:17.79	331.90	24.90	-22.8	-22.8	18.3	0.00e+00	0	44	0	3960471552	6	3593
2026-01-01 15:08:18.79	331.98	24.75	-23.0	-23.2	18.1	0.00e+00	0	44	0	3967811584	6	3687
2026-01-01 15:08:19.80	332.06	24.60	-22.8	-22.7	18.2	0.00e+00	0	44	0	3975151616	6	3593
2026-01-01 15:08:20.80	332.13	24.45	-22.7	-22.7	18.4	0.00e+00	0	44	0	3982491648	6	3584
2026-01-01 15:08:21.80	332.21	24.30	-22.7	-22.7	18.4	0.00e+00	0	44	0	3989831680	6	3582
2026-01-01 15:08:22.80	332.28	24.15	-22.9	-23.1	18.2	0.00e+00	0	44	0	3997171712	6	3670
2026-01-01 15:08:23.81	332.36	24.00	-22.8	-22.9	18.3	0.00e+00	0	44	0	4004511744	6	3618
2026-01-01 15:08:24.81	332.43	23.86	-22.7	-22.6	18.4	0.00e+00	0	44	0	4010803200	6	3557
2026-01-01 15:08:25.81	332.51	23.71	-22.7	-22.5	18.5	0.00e+00	0	44	0	4018143232	6	3542
2026-01-01 15:08:26.82	332.58	23.56	-22.8	-22.8	18.3	0.00e+00	0	44	0	4025483264	6	3602
2026-01-01 15:08:27.82	332.65	23.42	-22.8	-22.7	18.4	0.00e+00	0	44	0	4032823296	6	3587
2026-01-01 15:08:28.82	332.73	23.28	-22.9	-23.0	18.2	0.00e+00	0	44	0	4040163328	6	3642
2026-01-01 15:08:29.82	332.80	23.13	-22.9	-23.0	18.2	0.00e+00	0	44	0	4047503360	6	3654
2026-01-01 15:08:30.83	332.87	22.99	-23.0	-23.3	18.1	0.00e+00	0	44	0	4054843392	6	3713
2026-01-01 15:08:31.83	332.94	22.85	-23.0	-23.2	18.1	0.00e+00	0	44	0	4062183424	6	3702
2026-01-01 15:08:32.83	333.01	22.71	-23.1	-23.6	17.9	0.00e+00	0	44	0	4069523456	6	3771
2026-01-01 15:08:33.84	333.08	22.56	-23.1	-23.5	18.0	0.00e+00	0	44	0	4075814912	6	3755
2026-01-01 15:08:34.84	333.14	22.43	-23.1	-23.5	17.9	0.00e+00	0	44	0	4083154944	6	3758
2026-01-01 15:08:35.85	333.21	22.29	-23.1	-23.6	17.9	0.00e+00	0	44	0	4091543552	6	3777
2026-01-01 15:08:36.86	333.28	22.15	-23.2	-23.7	17.8	0.00e+00	0	44	0	4097835008	6	3803
2026-01-01 15:08:37.86	333.35	22.01	-23.3	-23.8	17.8	0.00e+00	0	44	0	4105175040	6	3825
2026-01-01 15:08:38.85	333.41	21.87	-23.3	-23.9	17.6	0.00e+00	0	44	0	4112515072	6	3841
2026-01-01 15:08:39.86	333.48	21.74	-23.3	-23.9	17.7	0.00e+00	0	44	0	4119855104	6	3848
2026-01-01 15:08:40.86	333.54	21.60	-23.4	-24.0	17.6	0.00e+00	0	44	0	4127195136	6	3879
2026-01-01 15:08:41.86	333.61	21.47	-23.4	-24.1	17.6	0.00e+00	0	44	0	4134535168	6	3905
2026-01-01 15:08:42.87	333.67	21.33	-23.4	-24.1	17.5	0.00e+00	0	44	0	4141875200	6	3901
2026-01-01 15:08:43.87	333.73	21.20	-23.5	-24.2	17.5	0.00e+00	0	44	0	4149215232	6	3924
2026-01-01 15:08:44.87	333.80	21.07	-23.4	-24.2	17.5	0.00e+00	0	44	0	4155506688	6	3923
2026-01-01 15:08:45.88	333.86	20.93	-23.5	-24.2	17.5	0.00e+00	0	44	0	4162846720	6	3930
2026-01-01 15:08:46.88	333.92	20.80	-23.6	-24.5	17.4	0.00e+00	0	44	0	4170186752	6	3988
2026-01-01 15:08:47.89	333.98	20.67	-23.5	-23.9	17.4	0.00e+00	0	44	0	4177526784	7	3738
2026-01-01 15:08:48.89	334.04	20.54	-23.6	-24.0	17.4	0.00e+00	0	44	0	4184866816	7	3768
2026-01-01 15:08:49.91	334.10	20.41	-23.6	-24.0	17.4	0.00e+00	0	44	0	4192206848	7	3764
2026-01-01 15:08:50.91	334.16	20.28	-23.6	-24.1	17.3	0.00e+00	0	44	0	4199546880	7	3793
2026-01-01 15:08:51.91	334.22	20.15	-23.6	-23.9	17.4	0.00e+00	0	44	0	4206886912	7	3754
2026-01-01 15:08:52.92	334.28	20.03	-23.6	-24.0	17.3	0.00e+00	0	44	0	4214226944	7	3772
2026-01-01 15:08:53.92	334.34	19.90	-23.6	-23.9	17.4	0.00e+00	0	44	0	4221566976	7	3751
2026-01-01 15:08:54.92	334.40	19.77	-23.5	-23.8	17.4	0.00e+00	0	44	0	4228907008	7	3735
2026-01-01 15:08:55.92	334.46	19.65	-23.6	-24.1	17.3	0.00e+00	0	44	0	4236247040	7	3788
2026-01-01 15:08:56.92	334.51	19.52	-23.6	-24.0	17.3	0.00e+00	0	44	0	4242538496	7	3767
2026-01-01 15:08:57.93	334.57	19.40	-23.7	-24.2	17.2	0.00e+00	0	44	0	4249878528	7	3822
2026-01-01 15:08:58.93	334.63	19.27	-23.7	-24.1	17.2	0.00e+00	0	43	0	4257218560	7	3798
2026-01-01 15:08:59.93	334.68	19.15	-23.7	-24.1	17.2	0.00e+00	0	44	0	4264558592	7	3806
2026-01-01 15:09:00.93	334.74	19.03	-23.7	-24.3	17.1	0.00e+00	0	44	0	4271898624	7	3841
2026-01-01 15:09:01.93	334.79	18.91	-23.8	-24.5	17.0	0.00e+00	0	44	0	4279238656	7	3886
2026-01-01 15:09:02.93	334.85	18.79	-23.8	-24.5	17.0	0.00e+00	0	44	0	4286578688	7	3887
2026-01-01 15:09:03.92	334.90	18.67	-24.0	-24.8	16.9	0.00e+00	0	44	0	4293918720	7	3955
2026-01-01 15:09:04.93	334.96	18.55	-23.9	-24.7	16.9	0.00e+00	0	44	0	4300210176	7	3927
2026-01-01 15:09:05.93	335.01	18.43	-24.0	-24.9	16.8	0.00e+00	0	44	0	4307550208	7	3984
2026-01-01 15:09:06.94	335.06	18.31	-23.9	-24.7	16.9	0.00e+00	0	44	0	4314890240	7	3932
2026-01-01 15:09:07.95	335.12	18.19	-24.2	-24.8	16.6	0.00e+00	0	44	0	4322230272	8	3854
2026-01-01 15:09:08.95	335.17	18.07	-24.7	-25.4	16.0	0.00e+00	0	44	0	4329570304	9	3884
2026-01-01 15:09:09.96	335.22	17.95	-24.4	-24.6	16.4	0.00e+00	0	44	0	4336910336	9	3713
2026-01-01 15:09:10.95	335.27	17.84	-24.1	-24.1	16.7	0.00e+00	0	44	0	4344250368	9	3605
2026-01-01 15:09:11.96	335.32	17.72	-23.9	-23.7	16.9	0.00e+00	0	44	0	4351590400	9	3515
2026-01-01 15:09:12.95	335.37	17.60	-23.9	-23.7	16.9	0.00e+00	0	44	0	4358930432	9	3507
2026-01-01 15:09:13.96	335.42	17.49	-24.0	-23.8	16.9	0.00e+00	0	44	0	4366270464	9	3530
2026-01-01 15:09:14.97	335.48	17.37	-24.1	-24.0	16.7	0.00e+00	0	44	0	4373610496	9	3581
2026-01-01 15:09:15.97	335.53	17.26	-24.0	-23.9	16.8	0.00e+00	0	44	0	4380950528	9	3560
2026-01-01 15:09:16.97	335.57	17.14	-24.1	-24.1	16.7	0.00e+00	0	44	0	4387241984	9	3597
2026-01-01 15:09:17.97	335.62	17.03	-24.3	-24.5	16.5	0.00e+00	0	44	0	4394582016	9	3687
2026-01-01 15:09:18.97	335.67	16.92	-24.2	-24.4	16.5	0.00e+00	0	44	0	4401922048	9	3656
2026-01-01 15:09:19.98	335.72	16.81	-24.4	-24.6	16.4	0.00e+00	0	44	0	4409262080	9	3712
2026-01-01 15:09:20.98	335.77	16.69	-24.3	-24.6	16.4	0.00e+00	0	44	0	4416602112	9	3706
2026-01-01 15:09:21.98	335.82	16.58	-24.5	-24.9	16.2	0.00e+00	0	44	0	4423942144	9	3774
2026-01-01 15:09:22.99	335.87	16.47	-24.4	-24.7	16.3	0.00e+00	0	44	0	4431282176	9	3731
2026-01-01 15:09:23.99	335.91	16.36	-24.5	-25.0	16.2	0.00e+00	0	44	0	4438622208	9	3799
2026-01-01 15:09:25.00	335.96	16.25	-24.5	-24.9	16.2	0.00e+00	0	44	0	4445962240	9	3776
2026-01-01 15:09:26.01	336.01	16.14	-24.6	-25.2	16.0	0.00e+00	0	44	0	4453302272	9	3855
2026-01-01 15:09:27.01	336.05	16.03	-24.6	-25.2	16.0	0.00e+00	0	44	0	4460642304	9	3857
2026-01-01 15:09:28.02	336.10	15.92	-24.9	-25.7	15.7	0.00e+00	0	44	0	4467982336	9	3974
2026-01-01 15:09:29.02	336.14	15.81	-24.6	-25.1	16.1	0.00e+00	0	44	0	4474273792	9	3829
2026-01-01 15:09:30.03	336.19	15.71	-24.4	-24.8	16.3	0.00e+00	0	44	0	4481613824	9	3744
2026-01-01 15:09:31.03	336.24	15.60	-24.4	-24.6	16.3	0.00e+00	0	44	0	4488953856	9	3721
2026-01-01 15:09:32.04	336.28	15.49	-24.4	-24.7	16.3	0.00e+00	0	44	0	4496293888	9	3722
2026-01-01 15:09:33.04	336.33	15.39	-24.4	-24.7	16.3	0.00e+00	0	44	0	4503633920	9	3721
2026-01-01 15:09:34.05	336.37	15.28	-24.4	-24.8	16.2	0.00e+00	0	44	0	4510973952	9	3751
2026-01-01 15:09:35.05	336.41	15.18	-24.4	-24.7	16.3	0.00e+00	0	44	0	4518313984	9	3737
2026-01-01 15:09:36.05	336.46	15.07	-24.5	-24.9	16.2	0.00e+00	0	44	0	4525654016	9	3791
2026-01-01 15:09:37.05	336.50	14.97	-24.7	-25.3	15.9	0.00e+00	0	44	0	4532994048	9	3883
2026-01-01 15:09:38.06	336.54	14.86	-24.5	-25.0	16.1	0.00e+00	0	44	0	4540334080	9	3812
2026-01-01 15:09:39.06	336.59	14.76	-24.5	-24.9	16.1	0.00e+00	0	44	0	4547674112	9	3779
2026-01-01 15:09:40.06	336.63	14.66	-24.6	-25.1	16.0	0.00e+00	0	44	0	4553965568	9	3825
2026-01-01 15:09:41.07	336.67	14.55	-24.5	-24.9	16.1	0.00e+00	0	44	0	4561305600	9	3783
2026-01-01 15:09:42.08	336.71	14.45	-24.6	-25.1	16.1	0.00e+00	0	44	0	4568645632	9	3818
2026-01-01 15:09:43.08	336.76	14.35	-24.5	-25.0	16.1	0.00e+00	0	44	0	4575985664	9	3797
2026-01-01 15:09:44.09	336.80	14.25	-24.5	-25.1	16.0	0.00e+00	0	44	0	4583325696	9	3815
2026-01-01 15:09:45.08	336.84	14.15	-24.5	-25.0	16.0	0.00e+00	0	44	0	4590665728	9	3815
2026-01-01 15:09:46.08	336.88	14.05	-24.6	-25.1	16.0	0.00e+00	0	44	0	4598005760	9	3825
2026-01-01 15:09:47.08	336.92	13.95	-24.6	-25.3	15.9	0.00e+00	0	44	0	4605345792	9	3868
2026-01-01 15:09:48.09	336.96	13.85	-24.6	-25.1	16.0	0.00e+00	0	44	0	4612685824	9	3831
2026-01-01 15:09:49.10	337.00	13.75	-24.6	-25.3	15.9	0.00e+00	0	44	0	4620025856	9	3866
2026-01-01 15:09:50.10	337.04	13.65	-24.6	-25.2	15.9	0.00e+00	0	44	0	4627365888	9	3861
2026-01-01 15:09:51.10	337.08	13.55	-24.7	-25.4	15.8	0.00e+00	0	44	0	4634705920	9	3896
2026-01-01 15:09:52.10	337.12	13.45	-24.8	-25.7	15.6	0.00e+00	0	44	0	4640997376	9	3971
2026-01-01 15:09:53.11	337.16	13.35	-24.7	-25.5	15.8	0.00e+00	0	44	0	4648337408	9	3923
2026-01-01 15:09:54.11	337.20	13.25	-24.8	-25.5	15.7	0.00e+00	0	44	0	4655677440	9	3934
2026-01-01 15:09:55.11	337.24	13.16	-24.8	-25.6	15.7	0.00e+00	0	44	0	4663017472	9	3944
2026-01-01 15:09:56.11	337.28	13.06	-24.9	-25.8	15.6	0.00e+00	0	44	0	4670357504	9	3992
2026-01-01 15:09:57.12	337.32	12.96	-24.9	-25.8	15.6	0.00e+00	0	44	0	4677697536	9	4008
2026-01-01 15:09:58.12	337.35	12.87	-24.9	-25.9	15.5	0.00e+00	0	44	0	4685037568	9	4013
2026-01-01 15:09:59.12	337.39	12.77	-25.1	-26.2	15.3	0.00e+00	0	44	0	4692377600	9	4103
2026-01-01 15:10:00.12	337.43	12.68	-25.0	-25.6	15.4	0.00e+00	0	44	0	4698669056	10	3853
2026-01-01 15:10:01.12	337.47	12.58	-25.0	-25.6	15.4	0.00e+00	0	44	0	4706009088	10	3848
2026-01-01 15:10:02.12	337.50	12.49	-25.1	-25.8	15.3	0.00e+00	0	44	0	4713349120	10	3888
2026-01-01 15:10:03.12	337.54	12.40	-25.1	-25.8	15.3	0.00e+00	0	44	0	4720689152	10	3896
2026-01-01 15:10:04.13	337.58	12.30	-25.2	-26.0	15.2	0.00e+00	0	44	0	4728029184	10	3953
2026-01-01 15:10:05.13	337.62	12.21	-25.2	-26.0	15.2	1.10e-06	0	44	0	4735369216	10	3948
2026-01-01 15:10:06.14	337.65	12.11	-25.4	-26.4	15.0	0.00e+00	0	44	0	4742709248	10	4040
2026-01-01 15:10:07.14	337.69	12.02	-25.3	-26.3	15.0	0.00e+00	0	44	0	4750049280	10	4013
2026-01-01 15:10:08.15	337.73	11.93	-25.4	-26.4	14.9	1.10e-06	0	44	0	4757389312	10	4056
2026-01-01 15:10:09.14	337.76	11.84	-25.4	-26.4	15.0	0.00e+00	0	44	0	4764729344	10	4041
2026-01-01 15:10:10.15	337.80	11.75	-25.4	-26.4	14.9	0.00e+00	0	44	0	4772069376	10	4055
2026-01-01 15:10:11.16	337.83	11.65	-25.5	-26.6	14.8	0.00e+00	0	44	0	4779409408	10	4105
2026-01-01 15:10:12.17	337.87	11.56	-25.5	-26.7	14.7	0.00e+00	0	44	0	4785700864	10	4132
2026-01-01 15:10:13.17	337.90	11.47	-25.7	-26.5	14.6	0.00e+00	0	44	0	4793040896	11	3973
2026-01-01 15:10:14.18	337.94	11.38	-25.9	-27.0	14.3	1.10e-06	0	44	0	4800380928	11	4092
2026-01-01 15:10:15.18	337.97	11.29	-25.7	-26.7	14.5	0.00e+00	0	44	0	4807720960	11	4012
2026-01-01 15:10:16.19	338.01	11.20	-25.7	-26.6	14.5	0.00e+00	0	44	0	4815060992	11	3989
2026-01-01 15:10:17.19	338.04	11.11	-25.7	-26.7	14.4	1.10e-06	0	44	0	4822401024	11	4015
2026-01-01 15:10:18.19	338.08	11.02	-25.8	-26.9	14.3	0.00e+00	0	44	0	4829741056	11	4061
2026-01-01 15:10:19.19	338.11	10.93	-25.9	-27.0	14.3	0.00e+00	0	44	0	4837081088	11	4090
2026-01-01 15:10:20.19	338.15	10.85	-25.8	-26.8	14.4	1.10e-06	0	43	0	4844421120	11	4055
2026-01-01 15:10:21.20	338.18	10.76	-26.0	-27.2	14.2	2.20e-06	0	44	0	4851761152	11	4135
2026-01-01 15:10:22.20	338.21	10.67	-25.9	-27.1	14.2	2.20e-06	0	43	0	4859101184	11	4123
2026-01-01 15:10:23.20	338.25	10.58	-26.0	-26.9	14.0	1.10e-06	0	44	0	4866441216	12	3965
2026-01-01 15:10:24.21	338.28	10.49	-26.3	-27.5	13.6	1.48e-05	0	44	0	4872732672	12	4126
2026-01-01 15:10:25.21	338.31	10.41	-26.1	-26.9	13.9	6.80e-06	0	43	0	4880072704	12	3980
2026-01-01 15:10:26.22	338.35	10.32	-25.8	-26.4	14.2	2.20e-06	0	44	0	4887412736	12	3852
2026-01-01 15:10:27.22	338.38	10.23	-25.7	-26.2	14.3	1.10e-06	0	44	0	4894752768	12	3799
2026-01-01 15:10:28.23	338.41	10.15	-25.7	-26.1	14.4	1.10e-06	0	44	0	4902092800	12	3779
2026-01-01 15:10:29.24	338.44	10.06	-25.8	-26.3	14.3	1.10e-06	0	44	0	4909432832	12	3826
2026-01-01 15:10:30.25	338.48	9.98	-25.7	-26.1	14.4	3.40e-06	0	44	0	4916772864	12	3783
2026-01-01 15:10:31.25	338.51	9.89	-25.8	-26.4	14.2	2.20e-06	0	44	0	4924112896	12	3845
2026-01-01 15:10:32.26	338.54	9.81	-25.8	-26.2	14.3	5.70e-06	0	44	0	4931452928	12	3806
2026-01-01 15:10:33.26	338.57	9.72	-25.8	-26.3	14.2	1.10e-06	0	44	0	4938792960	12	3824
