passes_logs/2026/01/01/R2M6_AANII_01/R2M6_AANII_01__20260101_125145_AQUA_rec.log

#Pass ID: 20260101_125145_AQUA
#Satellite: AQUA
#Configuration: AQUA
#almurnet v.1.7.20240730
#Start time: 2026-01-01 12:51:44

#Version: 2.2.20231116
#Station: R2M6_AANII_01
#Location: 30.233357 lon 59.946436 lat
#TLE: 1 27424U 02022A   25365.92641128  .00002078  00000+0  42628-3 0  9990
#TLE: 2 27424  98.4058 327.1196 0001962  94.7781 340.6230 14.61783896258835

#Time	Az	El	Level	Level2	SNR	BER	BlckErr	Temp	State	Recorded	gain1	gain2
2026-01-01 12:51:44.58	188.82	6.96	-30.3	-35.1	5.2	7.07e-01	0	40	0	0	22	6267
2026-01-01 12:51:45.58	188.88	7.03	-31.0	-37.5	5.0	7.08e-01	0	40	104	0	23	7539
2026-01-01 12:51:46.58	188.95	7.11	-31.2	-37.2	13.5	6.10e-01	0	41	0	0	23	7239
2026-01-01 12:51:47.58	189.01	7.19	-31.1	-36.8	13.9	6.12e-01	0	40	0	1572864	23	6947
2026-01-01 12:51:48.59	189.08	7.27	-31.1	-36.8	14.0	6.10e-01	0	41	0	3670016	23	6934
2026-01-01 12:51:49.59	189.14	7.35	-31.0	-36.7	14.0	6.09e-01	0	41	0	5242880	23	6869
2026-01-01 12:51:50.59	189.20	7.42	-30.8	-35.6	14.9	6.07e-01	0	41	0	7340032	23	6245
2026-01-01 12:51:51.58	189.27	7.50	-30.5	-34.7	15.6	6.06e-01	0	41	0	8912896	23	5804
2026-01-01 12:51:52.58	189.33	7.58	-30.3	-34.5	16.1	6.06e-01	0	41	0	11010048	22	5804
2026-01-01 12:51:53.58	189.40	7.66	-30.1	-33.9	16.6	6.08e-01	0	41	0	13107200	22	5525
2026-01-01 12:51:54.59	189.46	7.74	-30.0	-33.3	17.0	6.08e-01	0	41	0	14680064	22	5292
2026-01-01 12:51:55.59	189.53	7.82	-29.9	-33.1	17.1	6.06e-01	0	41	0	16777216	22	5203
2026-01-01 12:51:56.60	189.60	7.90	-29.8	-33.4	17.2	6.06e-01	0	41	0	18350080	21	5438
2026-01-01 12:51:57.61	189.67	7.98	-29.8	-33.4	17.3	6.04e-01	0	41	0	20447232	21	5432
2026-01-01 12:51:58.61	189.73	8.06	-29.8	-33.2	17.4	6.04e-01	0	41	0	22020096	21	5340
2026-01-01 12:51:59.61	189.80	8.14	-29.7	-32.8	17.6	6.07e-01	0	41	0	24117248	21	5197
2026-01-01 12:52:00.62	189.87	8.22	-29.7	-32.8	17.7	6.07e-01	0	41	0	26214400	21	5175
2026-01-01 12:52:01.62	189.94	8.31	-29.6	-32.7	17.7	6.09e-01	0	41	0	27787264	21	5144
2026-01-01 12:52:02.62	190.01	8.39	-29.7	-32.8	17.7	6.08e-01	0	41	0	29884416	21	5183
2026-01-01 12:52:03.62	190.08	8.47	-29.7	-32.9	17.7	6.08e-01	0	41	0	31457280	21	5195
2026-01-01 12:52:04.63	190.15	8.55	-29.6	-32.7	17.8	6.06e-01	0	41	0	33554432	21	5113
2026-01-01 12:52:05.64	190.22	8.63	-29.6	-32.5	18.0	6.06e-01	0	41	0	35651584	21	5056
2026-01-01 12:52:06.64	190.29	8.72	-29.6	-32.7	17.8	6.06e-01	0	41	0	37224448	21	5123
2026-01-01 12:52:07.64	190.36	8.80	-29.6	-32.7	17.8	6.06e-01	0	41	0	39321600	21	5144
2026-01-01 12:52:08.65	190.43	8.88	-29.6	-32.5	18.0	6.06e-01	0	41	0	40894464	21	5056
2026-01-01 12:52:09.65	190.50	8.97	-29.6	-32.5	18.0	6.05e-01	0	41	0	42991616	21	5037
2026-01-01 12:52:10.65	190.58	9.05	-29.5	-32.3	18.1	6.07e-01	0	41	0	45088768	21	4967
2026-01-01 12:52:11.65	190.65	9.13	-29.5	-32.4	18.0	6.08e-01	0	41	0	46661632	21	5026
2026-01-01 12:52:12.66	190.72	9.22	-29.5	-32.2	18.2	6.06e-01	0	41	0	48758784	21	4942
2026-01-01 12:52:13.67	190.80	9.30	-29.5	-32.4	18.1	6.07e-01	0	42	0	50331648	21	4994
2026-01-01 12:52:14.67	190.87	9.39	-29.5	-32.2	18.2	6.03e-01	0	42	0	52428800	21	4934
2026-01-01 12:52:15.67	190.95	9.47	-29.4	-32.2	18.3	6.06e-01	0	41	0	54001664	21	4916
2026-01-01 12:52:16.67	191.02	9.56	-29.5	-32.3	18.2	6.07e-01	0	41	0	56098816	21	4954
2026-01-01 12:52:17.67	191.10	9.65	-29.6	-32.5	18.1	6.06e-01	0	41	0	58195968	21	5025
2026-01-01 12:52:18.68	191.17	9.73	-29.5	-32.4	18.1	6.07e-01	0	42	0	59768832	21	4988
2026-01-01 12:52:19.69	191.25	9.82	-29.5	-32.3	18.2	6.04e-01	0	42	0	61865984	21	4953
2026-01-01 12:52:20.69	191.33	9.91	-29.5	-32.3	18.2	6.07e-01	0	41	0	63438848	21	4976
2026-01-01 12:52:21.69	191.40	9.99	-29.5	-32.4	18.2	6.07e-01	0	42	0	65536000	21	4984
2026-01-01 12:52:22.69	191.48	10.08	-29.4	-32.1	18.3	6.03e-01	0	42	0	67633152	21	4884
2026-01-01 12:52:23.69	191.56	10.17	-29.4	-32.5	18.4	6.05e-01	0	42	0	69206016	20	5129
2026-01-01 12:52:24.69	191.64	10.25	-29.4	-32.6	18.3	6.07e-01	0	42	0	71303168	20	5159
2026-01-01 12:52:25.70	191.72	10.34	-29.5	-32.9	18.2	6.07e-01	0	42	0	72876032	20	5281
2026-01-01 12:52:26.69	191.80	10.43	-29.5	-32.7	18.3	6.05e-01	0	42	0	74973184	20	5230
2026-01-01 12:52:27.70	191.88	10.52	-29.3	-32.2	18.6	6.06e-01	0	42	0	76546048	20	5039
2026-01-01 12:52:28.70	191.96	10.61	-29.3	-32.2	18.6	6.06e-01	0	42	0	78643200	20	5039
2026-01-01 12:52:29.71	192.04	10.70	-29.3	-32.2	18.7	6.07e-01	0	42	0	80740352	20	5010
2026-01-01 12:52:30.72	192.12	10.79	-29.3	-32.1	18.7	6.07e-01	0	42	0	82313216	20	4987
2026-01-01 12:52:31.72	192.21	10.88	-29.3	-32.3	18.6	6.05e-01	0	42	0	84410368	20	5061
2026-01-01 12:52:32.72	192.29	10.97	-29.3	-32.3	18.6	6.07e-01	0	42	0	85983232	20	5041
2026-01-01 12:52:33.72	192.37	11.06	-29.3	-32.1	18.7	6.07e-01	0	42	0	88080384	20	4999
2026-01-01 12:52:34.72	192.46	11.15	-29.4	-32.5	18.5	6.06e-01	0	42	0	90177536	20	5133
2026-01-01 12:52:35.72	192.54	11.24	-29.4	-32.4	18.5	6.05e-01	0	42	0	91750400	20	5113
2026-01-01 12:52:36.73	192.63	11.33	-29.3	-32.1	18.8	6.06e-01	0	42	0	93847552	20	4967
2026-01-01 12:52:37.73	192.71	11.43	-29.3	-32.2	18.7	6.07e-01	0	42	0	95420416	20	5004
2026-01-01 12:52:38.73	192.80	11.52	-29.3	-32.2	18.7	6.06e-01	0	42	0	97517568	20	5029
2026-01-01 12:52:39.73	192.88	11.61	-29.4	-32.4	18.6	6.08e-01	0	42	0	99090432	20	5100
2026-01-01 12:52:40.73	192.97	11.70	-29.4	-32.3	18.6	6.07e-01	0	42	0	101187584	20	5045
2026-01-01 12:52:41.73	193.06	11.80	-29.3	-32.1	18.8	6.07e-01	0	42	0	103284736	20	4979
2026-01-01 12:52:42.72	193.15	11.89	-29.3	-32.1	18.8	6.06e-01	0	42	0	104857600	20	4964
2026-01-01 12:52:43.73	193.24	11.98	-29.3	-32.0	18.9	6.04e-01	0	42	0	106954752	20	4939
2026-01-01 12:52:44.72	193.32	12.08	-29.3	-32.1	18.8	6.07e-01	0	42	0	108527616	20	4961
2026-01-01 12:52:45.73	193.41	12.17	-29.3	-32.2	18.7	6.07e-01	0	42	0	110624768	20	5016
2026-01-01 12:52:46.74	193.51	12.27	-29.3	-32.1	18.8	6.08e-01	0	42	0	112721920	20	4987
2026-01-01 12:52:47.73	193.60	12.36	-29.2	-31.9	18.9	6.07e-01	0	42	0	114294784	20	4910
2026-01-01 12:52:48.73	193.69	12.46	-29.3	-32.1	18.8	6.06e-01	0	42	0	116391936	20	4977
2026-01-01 12:52:49.73	193.78	12.55	-29.2	-32.0	18.9	6.07e-01	0	42	0	117964800	20	4925
2026-01-01 12:52:50.73	193.87	12.65	-29.2	-31.9	18.9	6.07e-01	0	42	0	120061952	20	4913
2026-01-01 12:52:51.73	193.97	12.75	-29.3	-32.0	18.8	6.05e-01	0	42	0	121634816	20	4951
2026-01-01 12:52:52.72	194.06	12.84	-29.2	-31.9	18.9	6.07e-01	0	42	0	123731968	20	4903
2026-01-01 12:52:53.73	194.16	12.94	-29.2	-31.7	19.1	6.07e-01	0	42	0	125304832	20	4828
2026-01-01 12:52:54.72	194.25	13.04	-29.1	-31.7	19.1	6.04e-01	0	42	0	127401984	20	4824
2026-01-01 12:52:55.73	194.35	13.14	-29.1	-31.6	19.1	6.06e-01	0	42	0	129499136	20	4798
2026-01-01 12:52:56.73	194.45	13.24	-29.1	-31.6	19.1	6.06e-01	0	42	0	131072000	20	4797
2026-01-01 12:52:57.73	194.54	13.34	-29.2	-31.9	19.0	6.06e-01	0	42	0	133169152	20	4880
2026-01-01 12:52:58.73	194.64	13.43	-29.2	-31.9	19.0	6.07e-01	0	42	0	135266304	20	4904
2026-01-01 12:52:59.73	194.74	13.53	-29.2	-31.9	19.0	6.07e-01	0	42	0	136839168	20	4894
2026-01-01 12:53:00.73	194.84	13.63	-29.2	-31.9	19.0	6.07e-01	0	42	0	138936320	20	4892
2026-01-01 12:53:01.74	194.94	13.74	-29.3	-32.2	18.8	6.06e-01	0	42	0	140509184	20	4980
2026-01-01 12:53:02.74	195.04	13.84	-29.2	-31.9	19.0	6.07e-01	0	42	0	142606336	20	4882
2026-01-01 12:53:03.75	195.15	13.94	-29.1	-31.6	19.2	6.06e-01	0	42	0	144179200	20	4771
2026-01-01 12:53:04.75	195.25	14.04	-29.1	-31.4	19.3	6.05e-01	0	42	0	146276352	20	4727
2026-01-01 12:53:05.75	195.35	14.14	-29.1	-31.6	19.2	6.06e-01	0	42	0	148373504	20	4782
2026-01-01 12:53:06.75	195.45	14.24	-29.1	-31.6	19.2	6.08e-01	0	42	0	149946368	20	4791
2026-01-01 12:53:07.75	195.56	14.35	-29.3	-31.9	19.0	6.04e-01	0	42	0	152043520	20	4909
2026-01-01 12:53:08.76	195.67	14.45	-29.2	-31.8	19.1	6.06e-01	0	42	0	153616384	20	4858
2026-01-01 12:53:09.77	195.77	14.56	-29.1	-31.4	19.3	6.06e-01	0	42	0	155713536	20	4724
2026-01-01 12:53:10.77	195.88	14.66	-29.0	-31.3	19.4	6.06e-01	0	42	0	157286400	20	4673
2026-01-01 12:53:11.77	195.99	14.76	-29.0	-31.3	19.4	6.09e-01	0	42	0	159383552	20	4678
2026-01-01 12:53:12.78	196.10	14.87	-29.0	-31.2	19.5	6.05e-01	0	42	0	161480704	20	4648
2026-01-01 12:53:13.78	196.21	14.98	-29.0	-31.1	19.5	6.07e-01	0	42	0	163053568	20	4621
2026-01-01 12:53:14.78	196.32	15.08	-28.9	-31.1	19.6	6.05e-01	0	42	0	165150720	20	4605
2026-01-01 12:53:15.78	196.43	15.19	-29.0	-31.4	19.4	6.06e-01	0	42	0	167247872	20	4694
2026-01-01 12:53:16.78	196.54	15.29	-29.0	-31.2	19.5	6.09e-01	0	43	0	168820736	20	4628
2026-01-01 12:53:17.79	196.65	15.40	-28.9	-31.1	19.6	6.08e-01	0	42	0	170917888	20	4603
2026-01-01 12:53:18.80	196.77	15.51	-29.0	-31.1	19.6	6.05e-01	0	42	0	172490752	20	4624
2026-01-01 12:53:19.80	196.88	15.62	-29.0	-31.3	19.5	6.08e-01	0	42	0	174587904	20	4666
2026-01-01 12:53:20.81	197.00	15.73	-29.0	-31.1	19.6	6.06e-01	0	42	0	176160768	20	4620
2026-01-01 12:53:21.81	197.11	15.84	-28.9	-31.1	19.6	6.05e-01	0	42	0	178257920	20	4594
2026-01-01 12:53:22.81	197.23	15.94	-28.9	-31.0	19.7	6.07e-01	0	42	0	180355072	20	4573
2026-01-01 12:53:23.82	197.35	16.05	-28.9	-31.0	19.6	6.07e-01	0	42	0	181927936	20	4578
2026-01-01 12:53:24.82	197.47	16.16	-29.0	-31.3	19.5	6.05e-01	0	43	0	184025088	20	4677
2026-01-01 12:53:25.82	197.59	16.28	-28.9	-31.1	19.6	6.06e-01	0	42	0	185597952	20	4597
2026-01-01 12:53:26.82	197.71	16.39	-29.0	-31.2	19.6	6.07e-01	0	42	0	187695104	20	4645
2026-01-01 12:53:27.83	197.83	16.50	-29.0	-31.1	19.7	6.06e-01	0	43	0	189792256	20	4597
2026-01-01 12:53:28.83	197.95	16.61	-28.9	-30.9	19.8	6.05e-01	0	42	0	191365120	20	4534
2026-01-01 12:53:29.84	198.08	16.72	-28.9	-31.0	19.7	6.06e-01	0	42	0	193462272	20	4571
2026-01-01 12:53:30.84	198.20	16.84	-28.9	-31.4	19.8	6.07e-01	0	42	0	195035136	19	4809
2026-01-01 12:53:31.84	198.33	16.95	-28.9	-31.4	19.9	6.07e-01	0	43	0	197132288	19	4796
2026-01-01 12:53:32.85	198.46	17.06	-29.1	-31.8	19.6	6.07e-01	0	42	0	198705152	19	4936
2026-01-01 12:53:33.85	198.58	17.18	-29.0	-31.6	19.8	6.06e-01	0	43	0	200802304	19	4848
2026-01-01 12:53:34.85	198.71	17.29	-29.0	-31.5	19.8	6.07e-01	0	43	0	202899456	19	4837
2026-01-01 12:53:35.85	198.84	17.41	-29.0	-31.6	19.8	6.07e-01	0	43	0	204472320	19	4878
2026-01-01 12:53:36.86	198.97	17.52	-29.0	-31.7	19.7	6.03e-01	0	43	0	206569472	19	4907
2026-01-01 12:53:37.87	199.10	17.64	-29.1	-31.8	19.7	6.07e-01	0	43	0	208142336	19	4933
2026-01-01 12:53:38.87	199.24	17.76	-29.0	-31.7	19.7	6.07e-01	0	43	0	210239488	19	4900
2026-01-01 12:53:39.86	199.37	17.87	-29.0	-31.6	19.8	6.07e-01	0	42	0	212336640	19	4846
2026-01-01 12:53:40.86	199.50	17.99	-29.0	-31.7	19.8	6.08e-01	0	42	0	213909504	19	4890
2026-01-01 12:53:41.87	199.64	18.11	-29.0	-31.5	19.8	6.06e-01	0	43	0	216006656	19	4841
2026-01-01 12:53:42.86	199.77	18.23	-29.0	-31.7	19.8	6.07e-01	0	43	0	217579520	19	4881
2026-01-01 12:53:43.87	199.91	18.35	-29.1	-31.8	19.7	6.09e-01	0	43	0	219676672	19	4916
2026-01-01 12:53:44.87	200.05	18.46	-29.3	-32.3	19.4	6.07e-01	0	43	0	221249536	19	5086
2026-01-01 12:53:45.87	200.19	18.58	-29.2	-32.0	19.6	6.06e-01	0	43	0	223346688	19	5006
2026-01-01 12:53:46.87	200.33	18.70	-29.0	-31.7	19.8	6.06e-01	0	43	0	225443840	19	4895
2026-01-01 12:53:47.87	200.48	18.82	-29.0	-31.6	19.8	6.05e-01	0	43	0	227016704	19	4849
2026-01-01 12:53:48.88	200.62	18.95	-29.0	-31.5	19.9	6.06e-01	0	43	0	229113856	19	4837
2026-01-01 12:53:49.88	200.76	19.07	-29.1	-31.9	19.7	6.04e-01	0	43	0	230686720	19	4966
2026-01-01 12:53:50.88	200.91	19.19	-29.0	-31.6	19.8	6.05e-01	0	43	0	232783872	19	4866
2026-01-01 12:53:51.88	201.06	19.31	-29.1	-31.7	19.8	6.06e-01	0	43	0	234881024	19	4889
2026-01-01 12:53:52.89	201.21	19.44	-29.2	-32.1	19.6	6.06e-01	0	43	0	236453888	19	5029
2026-01-01 12:53:53.89	201.36	19.56	-29.1	-31.9	19.7	6.06e-01	0	43	0	238551040	19	4955
2026-01-01 12:53:54.89	201.51	19.68	-29.1	-31.8	19.8	6.05e-01	0	43	0	240123904	19	4923
2026-01-01 12:53:55.89	201.66	19.81	-29.1	-31.8	19.8	6.05e-01	0	43	0	242221056	19	4903
2026-01-01 12:53:56.90	201.81	19.94	-29.0	-31.5	20.0	6.05e-01	0	43	0	243793920	19	4808
2026-01-01 12:53:57.89	201.97	20.06	-28.9	-31.3	20.1	6.06e-01	0	43	0	245891072	19	4748
2026-01-01 12:53:58.90	202.12	20.19	-28.9	-31.4	20.0	6.08e-01	0	43	0	247988224	19	4774
2026-01-01 12:53:59.90	202.28	20.31	-29.0	-31.6	19.9	6.06e-01	0	43	0	249561088	19	4860
2026-01-01 12:54:00.90	202.44	20.44	-29.1	-31.9	19.7	6.04e-01	0	43	0	251658240	19	4954
2026-01-01 12:54:01.91	202.60	20.57	-29.2	-32.0	19.6	6.08e-01	0	43	0	253231104	19	5001
2026-01-01 12:54:02.91	202.76	20.70	-29.2	-32.0	19.7	6.06e-01	0	43	0	255328256	19	4983
2026-01-01 12:54:03.91	202.92	20.83	-29.1	-31.9	19.7	6.06e-01	0	43	0	257425408	19	4955
2026-01-01 12:54:04.91	203.09	20.95	-29.2	-32.0	19.7	6.07e-01	0	43	0	258998272	19	4995
2026-01-01 12:54:05.92	203.25	21.09	-29.2	-32.0	19.7	6.04e-01	0	43	0	261095424	19	4980
2026-01-01 12:54:06.93	203.42	21.22	-29.3	-32.3	19.5	6.05e-01	0	43	0	262668288	19	5094
2026-01-01 12:54:07.93	203.59	21.35	-29.2	-32.0	19.7	6.08e-01	0	43	0	264765440	19	4993
2026-01-01 12:54:08.93	203.76	21.48	-29.0	-31.6	19.9	6.06e-01	0	43	0	266862592	19	4858
2026-01-01 12:54:09.94	203.93	21.61	-29.0	-31.5	20.0	6.07e-01	0	43	0	268435456	19	4812
2026-01-01 12:54:10.95	204.11	21.74	-29.1	-31.8	19.9	6.06e-01	0	43	0	270532608	19	4907
2026-01-01 12:54:11.95	204.28	21.88	-29.1	-31.7	19.9	6.05e-01	0	43	0	272105472	19	4874
2026-01-01 12:54:12.96	204.46	22.01	-29.2	-32.0	19.8	6.05e-01	0	43	0	274202624	19	4976
2026-01-01 12:54:13.96	204.64	22.15	-29.2	-32.1	19.7	6.06e-01	0	43	0	275775488	19	5010
2026-01-01 12:54:14.96	204.81	22.28	-29.3	-32.3	19.6	6.08e-01	0	43	0	277872640	19	5079
2026-01-01 12:54:15.96	204.99	22.41	-29.2	-32.0	19.7	6.06e-01	0	43	0	279969792	19	4997
2026-01-01 12:54:16.96	205.18	22.55	-29.1	-31.9	19.8	6.07e-01	0	43	0	281542656	19	4931
2026-01-01 12:54:17.96	205.36	22.68	-29.2	-32.0	19.7	6.07e-01	0	42	0	283639808	19	4977
2026-01-01 12:54:18.96	205.54	22.82	-29.1	-31.8	19.8	6.08e-01	0	43	0	285212672	19	4935
2026-01-01 12:54:19.96	205.73	22.96	-29.0	-31.7	20.0	6.07e-01	0	43	0	287309824	19	4869
2026-01-01 12:54:20.96	205.92	23.09	-29.1	-31.7	19.9	6.06e-01	0	43	0	289406976	19	4880
2026-01-01 12:54:21.97	206.11	23.23	-29.2	-32.0	19.7	6.06e-01	0	43	0	290979840	19	4999
2026-01-01 12:54:22.96	206.30	23.37	-29.1	-31.8	19.9	6.06e-01	0	43	0	293076992	19	4909
2026-01-01 12:54:23.96	206.50	23.51	-29.0	-31.5	20.0	6.08e-01	0	43	0	294649856	19	4816
2026-01-01 12:54:24.96	206.69	23.65	-29.0	-31.6	20.0	6.06e-01	0	43	0	296747008	19	4828
2026-01-01 12:54:25.96	206.89	23.79	-29.0	-31.5	20.1	6.06e-01	0	43	0	298319872	19	4810
2026-01-01 12:54:26.97	207.09	23.93	-29.1	-31.7	20.0	6.05e-01	0	43	0	300417024	19	4879
2026-01-01 12:54:27.97	207.29	24.07	-29.1	-31.7	20.0	6.06e-01	0	43	0	302514176	19	4865
2026-01-01 12:54:28.97	207.49	24.21	-29.0	-31.6	20.0	6.06e-01	0	43	0	304087040	19	4826
2026-01-01 12:54:29.97	207.70	24.35	-29.1	-31.8	20.0	6.09e-01	0	43	0	306184192	19	4900
2026-01-01 12:54:30.98	207.91	24.49	-29.0	-31.6	20.0	6.05e-01	0	43	0	307757056	19	4845
2026-01-01 12:54:31.97	208.11	24.63	-29.0	-31.5	20.1	6.07e-01	0	43	0	309854208	19	4824
2026-01-01 12:54:32.98	208.33	24.78	-29.1	-31.9	19.9	6.06e-01	0	43	0	311951360	19	4934
2026-01-01 12:54:33.99	208.54	24.92	-29.1	-31.8	19.9	6.07e-01	0	43	0	313524224	19	4925
2026-01-01 12:54:34.99	208.75	25.07	-29.1	-31.7	20.0	6.09e-01	0	43	0	315621376	19	4883
2026-01-01 12:54:35.99	208.97	25.21	-29.1	-31.6	20.0	6.06e-01	0	43	0	317194240	19	4850
2026-01-01 12:54:36.99	209.19	25.35	-29.1	-31.7	20.0	6.07e-01	0	43	0	319291392	19	4887
2026-01-01 12:54:38.00	209.41	25.50	-29.0	-31.5	20.1	6.06e-01	0	43	0	320864256	19	4803
2026-01-01 12:54:38.99	209.63	25.64	-29.0	-31.6	20.1	6.07e-01	0	43	0	322961408	19	4838
2026-01-01 12:54:39.99	209.86	25.79	-29.1	-31.7	20.0	6.10e-01	0	43	0	325058560	19	4868
2026-01-01 12:54:40.99	210.08	25.94	-29.0	-31.6	20.1	6.06e-01	0	43	0	326631424	19	4835
2026-01-01 12:54:41.99	210.31	26.08	-29.2	-32.0	19.9	6.08e-01	0	43	0	328728576	19	4958
2026-01-01 12:54:42.99	210.54	26.23	-29.2	-31.9	19.9	6.05e-01	0	43	0	330301440	19	4950
2026-01-01 12:54:44.00	210.78	26.38	-29.1	-31.8	20.0	6.06e-01	0	43	0	332398592	19	4895
2026-01-01 12:54:45.00	211.01	26.53	-29.1	-31.8	20.0	6.07e-01	0	43	0	334495744	19	4902
2026-01-01 12:54:46.01	211.25	26.68	-29.3	-32.2	19.8	6.06e-01	0	43	0	336068608	19	5041
2026-01-01 12:54:47.00	211.49	26.82	-29.1	-31.8	20.0	6.06e-01	0	43	0	338165760	19	4899
2026-01-01 12:54:48.01	211.74	26.97	-29.3	-32.2	19.8	6.06e-01	0	43	0	339738624	19	5030
2026-01-01 12:54:49.01	211.98	27.12	-29.1	-31.7	20.0	6.06e-01	0	43	0	341835776	19	4864
2026-01-01 12:54:50.01	212.23	27.27	-29.1	-31.7	20.0	6.06e-01	0	43	0	343408640	19	4875
2026-01-01 12:54:51.01	212.48	27.42	-29.2	-31.9	19.9	6.07e-01	0	43	0	345505792	19	4951
2026-01-01 12:54:52.02	212.73	27.57	-29.1	-31.7	20.1	6.03e-01	0	43	0	347602944	19	4855
2026-01-01 12:54:53.02	212.98	27.73	-29.1	-31.8	20.0	6.08e-01	0	43	0	349175808	19	4901
2026-01-01 12:54:54.02	213.24	27.88	-29.1	-31.6	20.1	6.06e-01	0	43	0	351272960	19	4840
2026-01-01 12:54:55.02	213.50	28.03	-29.0	-31.5	20.2	6.04e-01	0	43	0	352845824	19	4792
2026-01-01 12:54:56.03	213.76	28.18	-29.0	-31.5	20.2	6.07e-01	0	43	0	354942976	19	4796
2026-01-01 12:54:57.03	214.03	28.33	-29.0	-31.5	20.2	6.05e-01	0	43	0	357040128	19	4805
2026-01-01 12:54:58.03	214.29	28.48	-28.9	-31.1	20.4	6.06e-01	0	43	0	358612992	19	4675
2026-01-01 12:54:59.04	214.57	28.64	-29.0	-31.5	20.2	6.04e-01	0	43	0	360710144	19	4805
2026-01-01 12:55:00.04	214.84	28.79	-29.0	-31.5	20.2	6.04e-01	0	43	0	362283008	19	4783
2026-01-01 12:55:01.05	215.11	28.94	-29.1	-31.6	20.1	6.06e-01	0	43	0	364380160	19	4842
2026-01-01 12:55:02.06	215.39	29.10	-29.0	-31.4	20.3	6.06e-01	0	43	0	365953024	19	4749
2026-01-01 12:55:03.06	215.67	29.25	-29.0	-31.4	20.3	6.07e-01	0	43	0	368050176	19	4756
2026-01-01 12:55:04.06	215.96	29.41	-29.0	-31.5	20.2	6.07e-01	0	43	0	370147328	19	4805
2026-01-01 12:55:05.07	216.24	29.56	-29.0	-31.4	20.3	6.06e-01	0	43	0	371720192	19	4769
2026-01-01 12:55:06.08	216.54	29.72	-29.0	-31.3	20.3	6.05e-01	0	43	0	373817344	19	4742
2026-01-01 12:55:07.07	216.82	29.87	-28.9	-31.1	20.5	6.05e-01	0	43	0	375914496	19	4673
2026-01-01 12:55:08.08	217.12	30.02	-28.9	-31.3	20.3	6.06e-01	0	43	0	377487360	19	4733
2026-01-01 12:55:09.08	217.42	30.18	-29.0	-31.6	20.2	6.07e-01	0	43	0	379584512	19	4808
2026-01-01 12:55:10.09	217.72	30.33	-29.1	-31.6	20.2	6.08e-01	0	43	0	381157376	19	4819
2026-01-01 12:55:11.09	218.02	30.49	-29.0	-31.3	20.4	6.05e-01	0	43	0	383254528	19	4734
2026-01-01 12:55:12.09	218.33	30.64	-29.0	-31.5	20.2	6.06e-01	0	43	0	384827392	19	4783
2026-01-01 12:55:13.09	218.63	30.79	-28.9	-31.1	20.5	6.07e-01	0	43	0	386924544	19	4661
2026-01-01 12:55:14.10	218.95	30.95	-29.0	-31.4	20.3	6.05e-01	0	43	0	389021696	19	4750
2026-01-01 12:55:15.10	219.26	31.10	-29.1	-31.6	20.2	6.06e-01	0	43	0	390594560	19	4833
2026-01-01 12:55:16.10	219.58	31.26	-29.0	-31.5	20.2	6.03e-01	0	43	0	392691712	19	4803
2026-01-01 12:55:17.11	219.90	31.41	-28.9	-31.1	20.5	6.08e-01	0	43	0	394264576	19	4660
2026-01-01 12:55:18.11	220.23	31.57	-29.0	-31.6	20.2	6.09e-01	0	43	0	396361728	19	4805
2026-01-01 12:55:19.12	220.56	31.72	-29.1	-31.7	20.1	6.07e-01	0	43	0	398458880	19	4865
2026-01-01 12:55:20.13	220.89	31.88	-28.9	-31.2	20.4	6.04e-01	0	43	0	400031744	19	4689
2026-01-01 12:55:21.13	221.22	32.03	-29.1	-31.6	20.2	6.06e-01	0	43	0	402128896	19	4808
2026-01-01 12:55:22.13	221.56	32.18	-29.4	-32.5	19.7	6.04e-01	0	43	0	403701760	19	5126
2026-01-01 12:55:23.13	221.90	32.34	-29.4	-32.5	19.6	6.07e-01	0	43	0	405798912	19	5143
2026-01-01 12:55:24.13	222.24	32.49	-29.4	-32.5	19.7	6.06e-01	0	43	0	407896064	19	5120
2026-01-01 12:55:25.13	222.59	32.64	-29.5	-32.6	19.6	6.06e-01	0	43	0	409468928	19	5183
2026-01-01 12:55:26.13	222.94	32.79	-29.5	-32.3	19.4	6.07e-01	0	43	0	411566080	20	4965
2026-01-01 12:55:27.13	223.29	32.95	-29.4	-31.9	19.7	6.04e-01	0	43	0	413138944	20	4833
2026-01-01 12:55:28.13	223.65	33.10	-29.3	-31.8	19.7	6.07e-01	0	43	0	415236096	20	4798
2026-01-01 12:55:29.13	224.01	33.25	-29.4	-32.0	19.7	6.05e-01	0	43	0	416808960	20	4836
2026-01-01 12:55:30.14	224.37	33.40	-29.5	-32.1	19.5	6.07e-01	0	43	0	418906112	20	4893
2026-01-01 12:55:31.14	224.74	33.55	-29.2	-31.4	20.0	6.06e-01	0	43	0	421003264	20	4669
2026-01-01 12:55:32.15	225.11	33.70	-29.1	-31.2	20.1	6.06e-01	0	43	0	422576128	20	4598
2026-01-01 12:55:33.15	225.48	33.85	-29.2	-31.4	20.0	6.07e-01	0	43	0	424673280	20	4659
2026-01-01 12:55:34.15	225.86	34.00	-29.2	-31.4	20.0	6.06e-01	0	43	0	426246144	20	4654
2026-01-01 12:55:35.15	226.24	34.15	-29.1	-31.3	20.1	6.03e-01	0	43	0	428343296	20	4626
2026-01-01 12:55:36.16	226.63	34.30	-29.3	-31.8	19.8	6.07e-01	0	43	0	429916160	20	4784
2026-01-01 12:55:37.16	227.02	34.44	-29.1	-31.3	20.0	6.05e-01	0	43	0	432013312	20	4626
2026-01-01 12:55:38.16	227.41	34.59	-29.2	-31.5	20.0	6.06e-01	0	43	0	434110464	20	4679
2026-01-01 12:55:39.16	227.80	34.73	-29.5	-32.2	19.5	6.05e-01	0	43	0	435683328	20	4924
2026-01-01 12:55:40.17	228.20	34.88	-29.1	-31.3	20.1	6.07e-01	0	43	0	437780480	20	4616
2026-01-01 12:55:41.18	228.61	35.03	-29.1	-31.3	20.1	6.06e-01	0	43	0	439877632	20	4627
2026-01-01 12:55:42.18	229.01	35.17	-29.2	-31.6	19.9	6.04e-01	0	43	0	441450496	20	4713
2026-01-01 12:55:43.18	229.42	35.31	-29.1	-31.3	20.1	6.06e-01	0	43	0	443547648	20	4612
2026-01-01 12:55:44.17	229.83	35.45	-29.2	-31.5	19.9	6.08e-01	0	43	0	445120512	20	4688
2026-01-01 12:55:45.18	230.25	35.59	-29.3	-31.7	19.9	6.05e-01	0	43	0	447217664	20	4757
2026-01-01 12:55:46.18	230.67	35.73	-29.4	-32.0	19.7	6.05e-01	0	43	0	448790528	20	4843
2026-01-01 12:55:47.18	231.09	35.87	-29.2	-31.5	19.9	6.06e-01	0	43	0	450887680	20	4678
2026-01-01 12:55:48.18	231.52	36.01	-29.2	-31.5	20.0	6.08e-01	0	43	0	452984832	20	4679
2026-01-01 12:55:49.18	231.95	36.14	-29.3	-31.8	19.8	6.06e-01	0	43	0	454557696	20	4781
2026-01-01 12:55:50.19	232.38	36.28	-29.1	-31.3	20.1	6.05e-01	0	43	0	456654848	20	4621
2026-01-01 12:55:51.20	232.83	36.41	-29.3	-31.7	19.9	6.08e-01	0	43	0	458227712	20	4734
2026-01-01 12:55:52.20	233.27	36.55	-29.6	-32.5	19.4	6.07e-01	0	43	0	460324864	20	5016
2026-01-01 12:55:53.20	233.71	36.68	-29.3	-31.8	19.8	6.08e-01	0	43	0	461897728	20	4776
2026-01-01 12:55:54.19	234.16	36.80	-29.3	-31.7	19.9	6.04e-01	0	43	0	463994880	20	4728
2026-01-01 12:55:55.20	234.61	36.93	-29.4	-32.0	19.6	6.07e-01	0	43	0	466092032	20	4853
2026-01-01 12:55:56.20	235.07	37.06	-29.4	-31.9	19.7	6.07e-01	0	43	0	467664896	20	4806
2026-01-01 12:55:57.20	235.53	37.19	-29.5	-32.1	19.7	6.07e-01	0	43	0	469762048	20	4884
2026-01-01 12:55:58.20	235.99	37.31	-29.5	-32.3	19.5	6.06e-01	0	43	0	471334912	20	4941
2026-01-01 12:55:59.21	236.46	37.43	-29.5	-32.1	19.6	6.06e-01	0	43	0	473432064	20	4887
2026-01-01 12:56:00.21	236.93	37.55	-29.3	-31.7	19.8	6.04e-01	0	43	0	475004928	20	4754
2026-01-01 12:56:01.21	237.40	37.67	-29.2	-31.3	20.1	6.04e-01	0	43	0	477102080	20	4621
2026-01-01 12:56:02.22	237.88	37.79	-29.3	-31.7	19.9	6.08e-01	0	43	0	479199232	20	4746
2026-01-01 12:56:03.22	238.36	37.91	-29.3	-31.6	19.9	6.06e-01	0	43	0	480772096	20	4715
2026-01-01 12:56:04.22	238.85	38.02	-29.3	-31.7	19.9	6.06e-01	0	43	0	482869248	20	4730
2026-01-01 12:56:05.23	239.34	38.14	-29.4	-31.8	19.8	6.05e-01	0	43	0	484966400	20	4787
2026-01-01 12:56:06.24	239.83	38.25	-29.3	-31.7	19.9	6.04e-01	0	43	0	486539264	20	4755
2026-01-01 12:56:07.24	240.33	38.35	-29.3	-31.7	19.9	6.09e-01	0	43	0	488636416	20	4725
2026-01-01 12:56:08.25	240.83	38.46	-29.4	-32.0	19.7	6.08e-01	0	43	0	490209280	20	4831
2026-01-01 12:56:09.25	241.33	38.57	-29.3	-31.5	20.0	6.05e-01	0	43	0	492306432	20	4683
2026-01-01 12:56:10.26	241.84	38.67	-29.4	-31.9	19.8	6.09e-01	0	43	0	493879296	20	4791
2026-01-01 12:56:11.26	242.34	38.77	-29.2	-31.5	20.0	6.08e-01	0	43	0	495976448	20	4669
2026-01-01 12:56:12.26	242.85	38.87	-29.4	-32.0	19.7	6.08e-01	0	43	0	498073600	20	4849
2026-01-01 12:56:13.27	243.37	38.96	-29.3	-31.7	19.9	6.05e-01	0	43	0	499646464	20	4736
2026-01-01 12:56:14.27	243.89	39.06	-29.3	-31.6	19.9	6.07e-01	0	43	0	501743616	20	4714
2026-01-01 12:56:15.27	244.40	39.15	-29.2	-31.5	20.0	6.06e-01	0	43	0	503316480	20	4657
2026-01-01 12:56:16.27	244.93	39.24	-29.2	-31.3	20.2	6.04e-01	0	43	0	505413632	20	4596
2026-01-01 12:56:17.28	245.46	39.32	-29.2	-31.3	20.1	6.04e-01	0	43	0	507510784	20	4603
2026-01-01 12:56:18.29	245.99	39.41	-29.0	-30.8	20.4	6.07e-01	0	43	0	509083648	20	4449
2026-01-01 12:56:19.29	246.52	39.49	-29.2	-31.4	20.1	6.05e-01	0	43	0	511180800	20	4652
2026-01-01 12:56:20.29	247.05	39.57	-29.2	-31.5	20.1	6.08e-01	0	43	0	512753664	20	4656
2026-01-01 12:56:21.29	247.58	39.65	-29.3	-31.6	20.0	6.05e-01	0	43	0	514850816	20	4706
2026-01-01 12:56:22.29	248.12	39.72	-29.4	-31.8	19.8	6.09e-01	0	43	0	516423680	20	4772
2026-01-01 12:56:23.29	248.66	39.79	-29.1	-31.1	20.3	6.07e-01	0	43	0	518520832	20	4542
2026-01-01 12:56:24.30	249.21	39.86	-29.2	-31.3	20.1	6.08e-01	0	43	0	520617984	20	4619
2026-01-01 12:56:25.30	249.75	39.93	-29.3	-31.5	20.1	6.06e-01	0	43	0	522190848	20	4669
2026-01-01 12:56:26.31	250.31	39.99	-29.4	-32.0	19.7	6.05e-01	0	43	0	524288000	20	4838
2026-01-01 12:56:27.31	250.86	40.05	-29.1	-31.1	20.3	6.06e-01	0	43	0	525860864	20	4536
2026-01-01 12:56:28.31	251.41	40.11	-29.2	-31.4	20.1	6.06e-01	0	43	0	527958016	20	4652
2026-01-01 12:56:29.31	251.96	40.16	-29.3	-31.6	20.0	6.07e-01	0	43	0	530055168	20	4707
2026-01-01 12:56:30.31	252.51	40.22	-29.3	-31.6	20.0	6.06e-01	0	43	0	531628032	20	4691
2026-01-01 12:56:31.31	253.07	40.27	-29.3	-31.6	20.0	6.05e-01	0	43	0	533725184	20	4690
2026-01-01 12:56:32.31	253.63	40.31	-29.4	-31.9	19.8	6.07e-01	0	43	0	535298048	20	4801
2026-01-01 12:56:33.32	254.19	40.36	-29.3	-31.6	20.0	6.06e-01	0	43	0	537395200	20	4709
2026-01-01 12:56:34.32	254.75	40.40	-29.2	-31.4	20.1	6.06e-01	0	43	0	539492352	20	4637
2026-01-01 12:56:35.32	255.32	40.44	-29.2	-31.3	20.2	6.03e-01	0	43	0	541065216	20	4602
2026-01-01 12:56:36.33	255.89	40.47	-29.0	-31.0	20.4	6.08e-01	0	43	0	543162368	20	4501
2026-01-01 12:56:37.33	256.45	40.50	-29.3	-31.5	20.1	6.08e-01	0	43	0	544735232	20	4673
2026-01-01 12:56:38.33	257.02	40.53	-29.1	-31.1	20.3	6.05e-01	0	43	0	546832384	20	4550
2026-01-01 12:56:39.34	257.59	40.56	-29.2	-31.4	20.1	6.07e-01	0	43	0	548405248	20	4633
2026-01-01 12:56:40.34	258.16	40.58	-29.2	-31.3	20.3	6.06e-01	0	43	0	550502400	20	4590
2026-01-01 12:56:41.35	258.73	40.60	-29.2	-31.3	20.2	6.06e-01	0	43	0	552599552	20	4609
2026-01-01 12:56:42.35	259.30	40.62	-29.1	-31.2	20.3	6.07e-01	0	43	0	554172416	20	4565
2026-01-01 12:56:43.35	259.87	40.63	-28.9	-30.7	20.6	6.07e-01	0	43	0	556269568	20	4406
2026-01-01 12:56:44.36	260.44	40.64	-29.1	-31.2	20.3	6.06e-01	0	43	0	557842432	20	4570
2026-01-01 12:56:45.37	261.02	40.65	-29.1	-31.1	20.3	6.06e-01	0	43	0	559939584	20	4532
2026-01-01 12:56:46.37	261.59	40.65	-29.1	-31.1	20.3	6.05e-01	0	43	0	562036736	20	4544
2026-01-01 12:56:47.37	262.16	40.65	-29.0	-30.9	20.5	6.07e-01	0	43	0	563609600	20	4480
2026-01-01 12:56:48.37	262.73	40.65	-29.0	-30.9	20.4	6.05e-01	0	43	0	565706752	20	4470
2026-01-01 12:56:49.37	263.30	40.64	-29.2	-31.3	20.2	6.06e-01	0	43	0	567279616	20	4607
2026-01-01 12:56:50.37	263.87	40.64	-29.2	-31.5	20.1	6.06e-01	0	43	0	569376768	20	4666
2026-01-01 12:56:51.37	264.44	40.62	-29.1	-31.2	20.3	6.03e-01	0	43	0	571473920	20	4580
2026-01-01 12:56:52.37	265.01	40.61	-29.3	-31.5	20.0	6.07e-01	0	43	0	573046784	20	4678
2026-01-01 12:56:53.37	265.58	40.59	-29.5	-32.1	19.7	6.06e-01	0	43	0	575143936	20	4882
2026-01-01 12:56:54.37	266.15	40.57	-29.4	-32.0	19.8	6.07e-01	0	43	0	576716800	20	4824
2026-01-01 12:56:55.38	266.72	40.55	-29.5	-32.2	19.7	6.08e-01	0	43	0	578813952	20	4894
2026-01-01 12:56:56.39	267.29	40.52	-29.6	-32.5	19.5	6.06e-01	0	43	0	580386816	20	5020
2026-01-01 12:56:57.38	267.85	40.49	-29.5	-32.2	19.6	6.03e-01	0	43	0	582483968	20	4913
2026-01-01 12:56:58.39	268.42	40.46	-29.6	-32.3	19.7	6.06e-01	0	43	0	584581120	20	4930
2026-01-01 12:56:59.39	268.98	40.42	-29.6	-32.4	19.5	6.07e-01	0	43	0	586153984	20	4986
2026-01-01 12:57:00.39	269.54	40.39	-29.6	-32.4	19.6	6.06e-01	0	43	0	588251136	20	4959
2026-01-01 12:57:01.39	270.10	40.34	-29.7	-32.6	19.4	6.06e-01	0	43	0	589824000	20	5058
2026-01-01 12:57:02.39	270.66	40.30	-29.5	-32.2	19.6	6.06e-01	0	43	0	591921152	20	4905
2026-01-01 12:57:03.39	271.22	40.25	-29.2	-31.3	20.2	6.06e-01	0	43	0	593494016	20	4605
2026-01-01 12:57:04.39	271.78	40.20	-29.4	-32.0	19.8	6.05e-01	0	43	0	595591168	20	4826
2026-01-01 12:57:05.39	272.33	40.15	-29.3	-31.7	20.0	6.06e-01	0	43	0	597688320	20	4740
2026-01-01 12:57:06.40	272.89	40.09	-29.5	-32.1	19.8	6.08e-01	0	43	0	599261184	20	4863
2026-01-01 12:57:07.40	273.44	40.03	-29.5	-32.2	19.7	6.07e-01	0	43	0	601358336	20	4897
2026-01-01 12:57:08.40	273.98	39.97	-29.5	-32.1	19.8	6.05e-01	0	43	0	602931200	20	4850
2026-01-01 12:57:09.40	274.53	39.91	-29.4	-31.9	19.9	6.05e-01	0	43	0	605028352	20	4790
2026-01-01 12:57:10.40	275.07	39.84	-29.4	-32.0	19.8	6.05e-01	0	43	0	607125504	20	4831
2026-01-01 12:57:11.40	275.61	39.77	-29.5	-32.1	19.8	6.06e-01	0	43	0	608698368	20	4849
2026-01-01 12:57:12.40	276.15	39.70	-29.5	-32.2	19.7	6.06e-01	0	43	0	610795520	20	4881
2026-01-01 12:57:13.40	276.69	39.63	-29.5	-32.2	19.7	6.06e-01	0	43	0	612368384	20	4904
2026-01-01 12:57:14.40	277.22	39.55	-29.4	-31.9	19.9	6.07e-01	0	43	0	614465536	20	4790
2026-01-01 12:57:15.41	277.76	39.47	-29.3	-31.6	20.1	6.06e-01	0	43	0	616038400	20	4682
2026-01-01 12:57:16.40	278.28	39.39	-29.4	-31.8	19.9	6.06e-01	0	43	0	618135552	20	4776
2026-01-01 12:57:17.41	278.81	39.30	-29.4	-31.9	19.9	6.06e-01	0	43	0	620232704	20	4796
2026-01-01 12:57:18.41	279.33	39.22	-29.4	-31.8	20.0	6.05e-01	0	43	0	621805568	20	4752
2026-01-01 12:57:19.41	279.85	39.13	-29.4	-31.8	19.9	6.05e-01	0	43	0	623902720	20	4753
2026-01-01 12:57:20.41	280.37	39.04	-29.4	-31.9	19.9	6.06e-01	0	43	0	625475584	20	4794
2026-01-01 12:57:21.41	280.88	38.94	-29.4	-31.8	19.9	6.06e-01	0	43	0	627572736	20	4771
2026-01-01 12:57:22.41	281.39	38.85	-29.4	-31.8	19.9	6.07e-01	0	43	0	629145600	20	4762
2026-01-01 12:57:23.41	281.90	38.75	-29.4	-31.7	20.0	6.04e-01	0	43	0	631242752	20	4742
2026-01-01 12:57:24.41	282.41	38.65	-29.3	-31.7	20.0	6.08e-01	0	43	0	633339904	20	4738
2026-01-01 12:57:25.41	282.91	38.55	-29.5	-32.0	19.8	6.07e-01	0	43	0	634912768	20	4829
2026-01-01 12:57:26.41	283.41	38.44	-29.3	-31.7	20.0	6.04e-01	0	43	0	637009920	20	4713
2026-01-01 12:57:27.41	283.90	38.33	-29.2	-31.4	20.2	6.05e-01	0	43	0	638582784	20	4626
2026-01-01 12:57:28.41	284.39	38.23	-29.6	-32.4	19.6	6.07e-01	0	43	0	640679936	20	4966
2026-01-01 12:57:29.41	284.88	38.12	-29.4	-31.8	19.9	6.07e-01	0	43	0	642252800	20	4776
2026-01-01 12:57:30.42	285.37	38.00	-29.5	-32.0	19.8	6.06e-01	0	43	0	644349952	20	4843
2026-01-01 12:57:31.43	285.86	37.89	-29.5	-32.2	19.7	6.06e-01	0	43	0	646447104	20	4901
2026-01-01 12:57:32.43	286.33	37.77	-29.5	-32.1	19.7	6.08e-01	0	43	0	648019968	20	4853
2026-01-01 12:57:33.43	286.81	37.66	-29.3	-31.7	20.0	6.07e-01	0	43	0	650117120	20	4729
2026-01-01 12:57:34.43	287.28	37.54	-29.4	-31.8	19.9	6.06e-01	0	43	0	652214272	20	4774
2026-01-01 12:57:35.43	287.75	37.42	-29.2	-31.5	20.1	6.07e-01	0	43	0	653787136	20	4658
2026-01-01 12:57:36.44	288.22	37.29	-29.2	-31.3	20.2	6.05e-01	0	43	0	655884288	20	4598
2026-01-01 12:57:37.44	288.68	37.17	-29.3	-31.7	20.0	6.05e-01	0	43	0	657457152	20	4736
2026-01-01 12:57:38.44	289.13	37.04	-29.3	-31.7	19.9	6.07e-01	0	43	0	659554304	20	4745
2026-01-01 12:57:39.44	289.59	36.92	-29.1	-31.2	20.2	6.06e-01	0	43	0	661127168	20	4571
2026-01-01 12:57:40.44	290.04	36.79	-29.2	-31.4	20.2	6.08e-01	0	43	0	663224320	20	4642
2026-01-01 12:57:41.44	290.48	36.66	-29.3	-31.7	20.0	6.06e-01	0	43	0	665321472	20	4742
2026-01-01 12:57:42.44	290.92	36.53	-29.2	-31.5	20.1	6.08e-01	0	43	0	666894336	20	4650
2026-01-01 12:57:43.45	291.37	36.40	-29.3	-31.6	20.0	6.06e-01	0	43	0	668991488	20	4683
2026-01-01 12:57:44.45	291.80	36.26	-29.2	-31.4	20.1	6.08e-01	0	43	0	670564352	20	4618
2026-01-01 12:57:45.46	292.24	36.13	-29.2	-31.4	20.1	6.04e-01	0	43	0	672661504	20	4640
2026-01-01 12:57:46.46	292.67	35.99	-29.1	-31.2	20.2	6.05e-01	0	43	0	674234368	20	4577
2026-01-01 12:57:47.47	293.10	35.85	-29.1	-31.2	20.3	6.06e-01	0	43	0	676331520	20	4574
2026-01-01 12:57:48.47	293.52	35.71	-29.2	-31.3	20.2	6.08e-01	0	43	0	678428672	20	4594
2026-01-01 12:57:49.48	293.94	35.57	-29.1	-31.1	20.3	6.04e-01	0	43	0	680001536	20	4525
2026-01-01 12:57:50.48	294.35	35.44	-28.9	-30.7	20.5	6.09e-01	0	43	0	682098688	20	4409
2026-01-01 12:57:51.48	294.76	35.29	-28.9	-30.7	20.5	6.07e-01	0	43	0	683671552	20	4425
2026-01-01 12:57:52.48	295.17	35.15	-28.9	-31.2	20.6	6.07e-01	0	43	0	685768704	19	4655
2026-01-01 12:57:53.49	295.58	35.01	-29.1	-31.5	20.5	6.07e-01	0	43	0	687865856	19	4754
2026-01-01 12:57:54.49	295.97	34.87	-29.2	-31.8	20.2	6.06e-01	0	43	0	689438720	19	4866
2026-01-01 12:57:55.49	296.37	34.72	-29.0	-31.3	20.5	6.03e-01	0	43	0	691535872	19	4708
2026-01-01 12:57:56.50	296.77	34.58	-29.1	-31.7	20.3	6.06e-01	0	43	0	693108736	19	4827
2026-01-01 12:57:57.49	297.15	34.43	-29.1	-31.7	20.3	6.07e-01	0	43	0	695205888	19	4835
2026-01-01 12:57:58.50	297.54	34.28	-28.9	-31.1	20.6	6.05e-01	0	43	0	697303040	19	4654
2026-01-01 12:57:59.50	297.92	34.14	-28.7	-30.7	20.9	6.07e-01	0	43	0	698875904	19	4515
2026-01-01 12:58:00.51	298.30	33.99	-28.7	-30.6	20.9	6.07e-01	0	43	0	700973056	19	4482
2026-01-01 12:58:01.51	298.68	33.84	-28.8	-30.9	20.8	6.07e-01	0	43	0	702545920	19	4590
2026-01-01 12:58:02.52	299.05	33.69	-28.8	-31.0	20.7	6.06e-01	0	43	0	704643072	19	4597
2026-01-01 12:58:03.52	299.42	33.54	-28.8	-30.8	20.8	6.06e-01	0	43	0	706740224	19	4556
2026-01-01 12:58:04.52	299.78	33.39	-28.7	-30.6	20.9	6.06e-01	0	43	0	708313088	19	4493
2026-01-01 12:58:05.52	300.14	33.24	-28.6	-30.4	21.0	6.03e-01	0	43	0	710410240	19	4440
2026-01-01 12:58:06.52	300.50	33.09	-28.5	-30.3	21.1	6.06e-01	0	43	0	711983104	19	4384
2026-01-01 12:58:07.52	300.86	32.94	-28.6	-30.4	21.0	6.04e-01	0	43	0	714080256	19	4421
2026-01-01 12:58:08.52	301.21	32.79	-28.6	-30.5	21.0	6.06e-01	0	43	0	715653120	19	4457
2026-01-01 12:58:09.53	301.56	32.64	-28.5	-30.2	21.1	6.04e-01	0	43	0	717750272	19	4373
2026-01-01 12:58:10.53	301.90	32.49	-28.7	-30.6	20.9	6.07e-01	0	43	0	719847424	19	4491
2026-01-01 12:58:11.53	302.24	32.33	-28.7	-30.6	20.9	6.04e-01	0	43	0	721420288	19	4474
2026-01-01 12:58:12.53	302.58	32.18	-28.4	-30.0	21.2	6.08e-01	0	43	0	723517440	19	4308
2026-01-01 12:58:13.54	302.92	32.03	-28.4	-30.0	21.3	6.08e-01	0	43	0	725090304	19	4298
2026-01-01 12:58:14.54	303.25	31.88	-28.4	-30.0	21.2	6.07e-01	0	43	0	727187456	19	4317
2026-01-01 12:58:15.54	303.58	31.72	-28.5	-30.1	21.2	6.06e-01	0	43	0	729284608	19	4332
2026-01-01 12:58:16.54	303.90	31.57	-28.6	-30.3	21.1	6.07e-01	0	43	0	730857472	19	4407
2026-01-01 12:58:17.55	304.23	31.42	-28.6	-30.5	21.0	6.08e-01	0	43	0	732954624	19	4447
2026-01-01 12:58:18.55	304.55	31.26	-28.7	-30.5	20.9	6.07e-01	0	43	0	734527488	19	4472
2026-01-01 12:58:19.55	304.86	31.11	-28.7	-30.6	20.9	6.07e-01	0	43	0	736624640	19	4477
2026-01-01 12:58:20.55	305.18	30.96	-28.6	-30.3	21.0	6.07e-01	0	43	0	738197504	19	4409
2026-01-01 12:58:21.56	305.49	30.80	-28.6	-30.3	21.1	6.06e-01	0	43	0	740294656	19	4411
2026-01-01 12:58:22.55	305.79	30.65	-28.6	-30.4	21.0	6.07e-01	0	43	0	742391808	19	4436
2026-01-01 12:58:23.55	306.10	30.50	-28.7	-30.5	20.9	6.06e-01	0	43	0	743964672	19	4471
2026-01-01 12:58:24.55	306.40	30.34	-28.6	-30.5	20.9	6.06e-01	0	43	0	746061824	19	4461
2026-01-01 12:58:25.55	306.69	30.19	-28.6	-30.3	21.1	6.07e-01	0	43	0	747634688	19	4402
2026-01-01 12:58:26.56	306.99	30.04	-28.6	-30.5	20.9	6.08e-01	0	43	0	749731840	19	4451
2026-01-01 12:58:27.57	307.29	29.88	-28.7	-30.7	20.8	6.07e-01	0	43	0	751828992	19	4519
2026-01-01 12:58:28.57	307.58	29.73	-28.7	-30.7	20.8	6.08e-01	0	43	0	753401856	19	4519
2026-01-01 12:58:29.57	307.86	29.58	-28.6	-30.4	20.9	6.08e-01	0	43	0	755499008	19	4442
2026-01-01 12:58:30.58	308.15	29.42	-28.6	-30.4	21.0	6.07e-01	0	43	0	757071872	19	4417
2026-01-01 12:58:31.58	308.43	29.27	-28.6	-30.5	20.9	6.08e-01	0	43	0	759169024	19	4461
2026-01-01 12:58:32.58	308.71	29.12	-28.8	-30.9	20.7	6.06e-01	0	43	0	760741888	19	4594
2026-01-01 12:58:33.58	308.99	28.97	-28.9	-31.2	20.5	6.07e-01	0	43	0	762839040	19	4693
2026-01-01 12:58:34.59	309.26	28.81	-29.0	-31.3	20.4	6.05e-01	0	43	0	764936192	19	4729
2026-01-01 12:58:35.59	309.53	28.66	-29.0	-31.4	20.4	6.00e-01	0	43	0	766509056	19	4729
2026-01-01 12:58:36.59	309.80	28.51	-29.0	-31.4	20.4	6.01e-01	0	43	0	768606208	19	4747
2026-01-01 12:58:37.60	310.07	28.36	-29.0	-31.4	20.4	6.00e-01	0	43	0	770179072	19	4737
2026-01-01 12:58:38.61	310.33	28.21	-29.0	-31.5	20.3	6.01e-01	0	43	0	772276224	19	4773
2026-01-01 12:58:39.61	310.59	28.06	-29.0	-31.5	20.3	6.02e-01	0	43	0	774373376	19	4777
2026-01-01 12:58:40.61	310.85	27.91	-29.1	-31.6	20.3	6.01e-01	0	43	0	775946240	19	4812
2026-01-01 12:58:41.61	311.11	27.76	-29.1	-31.7	20.2	6.01e-01	0	43	0	778043392	19	4856
2026-01-01 12:58:42.61	311.36	27.61	-29.3	-32.1	20.0	6.02e-01	0	43	0	779616256	19	4963
2026-01-01 12:58:43.61	311.61	27.46	-29.2	-31.9	20.1	6.02e-01	0	43	0	781713408	19	4897
2026-01-01 12:58:44.61	311.86	27.31	-29.0	-31.4	20.4	6.02e-01	0	43	0	783286272	19	4742
2026-01-01 12:58:45.61	312.10	27.16	-29.0	-31.3	20.4	6.01e-01	0	43	0	785383424	19	4720
2026-01-01 12:58:46.61	312.35	27.01	-29.1	-31.5	20.3	5.99e-01	0	43	0	787480576	19	4788
2026-01-01 12:58:47.62	312.59	26.86	-29.1	-31.7	20.2	6.02e-01	0	43	0	789053440	19	4848
2026-01-01 12:58:48.62	312.83	26.71	-29.1	-31.7	20.2	6.04e-01	0	43	0	791150592	19	4846
2026-01-01 12:58:49.62	313.07	26.57	-29.2	-31.8	20.1	6.01e-01	0	43	0	792723456	19	4882
2026-01-01 12:58:50.62	313.30	26.42	-29.1	-31.7	20.2	6.02e-01	0	43	0	794820608	19	4843
2026-01-01 12:58:51.62	313.53	26.27	-29.1	-31.6	20.2	6.02e-01	0	43	0	796917760	19	4809
2026-01-01 12:58:52.62	313.76	26.13	-29.2	-31.8	20.1	6.00e-01	0	43	0	798490624	19	4899
2026-01-01 12:58:53.63	313.99	25.98	-29.2	-31.9	20.0	6.02e-01	0	43	0	800587776	19	4927
2026-01-01 12:58:54.63	314.22	25.84	-29.2	-32.0	20.0	6.01e-01	0	43	0	802160640	19	4959
2026-01-01 12:58:55.63	314.44	25.69	-29.3	-32.3	19.8	6.02e-01	0	43	0	804257792	19	5046
2026-01-01 12:58:56.63	314.66	25.55	-29.3	-32.2	19.8	6.03e-01	0	43	0	805830656	19	5014
2026-01-01 12:58:57.63	314.88	25.40	-29.3	-32.2	19.8	6.03e-01	0	43	0	807927808	19	5029
2026-01-01 12:58:58.63	315.10	25.26	-29.4	-32.4	19.7	6.01e-01	0	43	0	810024960	19	5093
2026-01-01 12:58:59.64	315.32	25.12	-29.3	-32.3	19.8	6.03e-01	0	43	0	811597824	19	5046
2026-01-01 12:59:00.64	315.53	24.97	-29.2	-32.0	20.0	6.02e-01	0	43	0	813694976	19	4933
2026-01-01 12:59:01.65	315.75	24.83	-29.2	-31.9	20.0	6.03e-01	0	43	0	815267840	19	4906
2026-01-01 12:59:02.65	315.96	24.69	-29.2	-32.0	20.0	6.02e-01	0	43	0	817364992	19	4949
2026-01-01 12:59:03.65	316.16	24.55	-29.3	-32.3	19.8	6.00e-01	0	43	0	819462144	19	5041
2026-01-01 12:59:04.66	316.37	24.40	-29.3	-32.2	19.8	6.02e-01	0	43	0	821035008	19	5036
2026-01-01 12:59:05.66	316.58	24.26	-29.4	-32.5	19.7	6.02e-01	0	43	0	823132160	19	5129
2026-01-01 12:59:06.66	316.78	24.12	-29.5	-32.6	19.6	6.01e-01	0	43	0	824705024	19	5173
2026-01-01 12:59:07.67	316.98	23.98	-29.5	-32.8	19.4	6.03e-01	0	43	0	826802176	19	5260
2026-01-01 12:59:08.67	317.18	23.84	-29.4	-32.6	19.5	6.04e-01	0	43	0	828899328	19	5155
2026-01-01 12:59:09.68	317.38	23.70	-29.3	-32.3	19.7	6.03e-01	0	43	0	830472192	19	5068
2026-01-01 12:59:10.68	317.57	23.57	-29.4	-32.4	19.7	6.02e-01	0	43	0	832569344	19	5080
2026-01-01 12:59:11.68	317.76	23.43	-29.3	-32.1	19.8	5.98e-01	0	43	0	834142208	19	4993
2026-01-01 12:59:12.68	317.96	23.29	-29.2	-31.9	19.9	6.03e-01	0	43	0	836239360	19	4910
2026-01-01 12:59:13.68	318.15	23.16	-29.1	-31.8	20.0	6.03e-01	0	43	0	837812224	19	4895
2026-01-01 12:59:14.69	318.34	23.02	-29.1	-31.8	20.0	6.01e-01	0	43	0	839909376	19	4884
2026-01-01 12:59:15.69	318.52	22.88	-29.2	-32.0	19.9	6.00e-01	0	43	0	842006528	19	4946
2026-01-01 12:59:16.70	318.71	22.75	-29.2	-31.9	20.0	6.02e-01	0	43	0	843579392	19	4907
2026-01-01 12:59:17.70	318.89	22.61	-29.1	-31.7	20.1	6.04e-01	0	43	0	845676544	19	4853
2026-01-01 12:59:18.71	319.07	22.48	-29.2	-32.0	19.9	6.01e-01	0	43	0	847249408	19	4949
2026-01-01 12:59:19.71	319.25	22.34	-29.2	-32.0	19.9	6.03e-01	0	43	0	849346560	19	4975
2026-01-01 12:59:20.72	319.43	22.21	-29.3	-32.2	19.8	6.03e-01	0	43	0	851443712	19	5022
2026-01-01 12:59:21.72	319.61	22.08	-29.3	-32.1	19.8	6.00e-01	0	43	0	853016576	19	5020
2026-01-01 12:59:22.72	319.79	21.94	-29.2	-32.1	19.8	6.00e-01	0	43	0	855113728	19	4991
2026-01-01 12:59:23.72	319.96	21.81	-29.3	-32.3	19.7	6.00e-01	0	43	0	856686592	19	5089
2026-01-01 12:59:24.72	320.13	21.68	-29.3	-32.2	19.7	6.01e-01	0	43	0	858783744	19	5030
2026-01-01 12:59:25.72	320.30	21.55	-29.1	-31.9	19.9	6.02e-01	0	43	0	860880896	19	4915
2026-01-01 12:59:26.72	320.47	21.42	-29.1	-31.8	19.9	6.01e-01	0	43	0	862453760	19	4894
2026-01-01 12:59:27.73	320.64	21.29	-29.1	-31.7	20.0	6.03e-01	0	43	0	864550912	19	4871
2026-01-01 12:59:28.73	320.81	21.16	-29.1	-31.8	19.9	6.01e-01	0	43	0	866123776	19	4909
2026-01-01 12:59:29.74	320.97	21.03	-29.3	-32.1	19.7	6.00e-01	0	43	0	868220928	19	5014
2026-01-01 12:59:30.74	321.14	20.90	-29.2	-32.0	19.8	6.02e-01	0	43	0	869793792	19	4960
2026-01-01 12:59:31.74	321.30	20.77	-29.1	-31.8	20.0	6.01e-01	0	43	0	871890944	19	4904
2026-01-01 12:59:32.75	321.46	20.65	-29.1	-31.8	19.9	6.03e-01	0	43	0	873988096	19	4902
2026-01-01 12:59:33.75	321.62	20.52	-29.1	-31.8	19.9	6.02e-01	0	43	0	875560960	19	4897
2026-01-01 12:59:34.75	321.78	20.39	-29.1	-31.8	19.9	6.01e-01	0	43	0	877658112	19	4908
2026-01-01 12:59:35.75	321.93	20.27	-29.2	-32.1	19.8	6.02e-01	0	43	0	879230976	19	4987
2026-01-01 12:59:36.75	322.09	20.14	-29.1	-31.9	19.9	6.01e-01	0	43	0	881328128	19	4921
2026-01-01 12:59:37.76	322.25	20.02	-29.1	-31.7	20.0	6.03e-01	0	43	0	882900992	19	4869
2026-01-01 12:59:38.76	322.40	19.89	-29.1	-31.8	19.9	6.02e-01	0	43	0	884998144	19	4897
2026-01-01 12:59:39.76	322.55	19.77	-29.2	-32.1	19.8	6.01e-01	0	43	0	887095296	19	5002
2026-01-01 12:59:40.77	322.70	19.64	-29.3	-32.2	19.7	6.03e-01	0	43	0	888668160	19	5044
2026-01-01 12:59:41.76	322.85	19.52	-29.3	-32.2	19.7	6.03e-01	0	43	0	890765312	19	5048
2026-01-01 12:59:42.77	323.00	19.40	-29.3	-32.4	19.5	6.03e-01	0	43	0	892338176	19	5120
2026-01-01 12:59:43.77	323.15	19.28	-29.3	-32.2	19.7	6.02e-01	0	43	0	894435328	19	5041
2026-01-01 12:59:44.78	323.29	19.16	-29.2	-32.1	19.7	6.05e-01	0	43	0	896532480	19	5000
2026-01-01 12:59:45.78	323.44	19.03	-29.3	-32.1	19.7	6.03e-01	0	43	0	898105344	19	5026
2026-01-01 12:59:46.78	323.58	18.91	-29.2	-31.9	19.8	6.03e-01	0	43	0	900202496	19	4951
2026-01-01 12:59:47.78	323.72	18.79	-29.3	-32.3	19.6	6.02e-01	0	43	0	901775360	19	5072
2026-01-01 12:59:48.79	323.86	18.67	-29.1	-31.9	19.8	6.01e-01	0	43	0	903872512	19	4927
2026-01-01 12:59:49.79	324.00	18.56	-29.0	-31.5	20.0	6.02e-01	0	43	0	905969664	19	4804
2026-01-01 12:59:50.80	324.14	18.44	-28.9	-31.3	20.1	6.01e-01	0	43	0	907542528	19	4727
2026-01-01 12:59:51.80	324.28	18.32	-28.9	-31.2	20.2	6.00e-01	0	43	0	909639680	19	4686
2026-01-01 12:59:52.80	324.42	18.20	-28.8	-31.1	20.2	6.00e-01	0	43	0	911212544	19	4671
2026-01-01 12:59:53.80	324.55	18.08	-28.8	-31.1	20.2	6.04e-01	0	43	0	913309696	19	4677
2026-01-01 12:59:54.81	324.69	17.97	-28.9	-31.2	20.2	6.01e-01	0	43	0	914882560	19	4693
2026-01-01 12:59:55.81	324.82	17.85	-28.9	-31.2	20.2	6.01e-01	0	43	0	916979712	19	4713
2026-01-01 12:59:56.81	324.95	17.73	-29.0	-31.5	20.0	6.01e-01	0	43	0	919076864	19	4796
2026-01-01 12:59:57.81	325.08	17.62	-29.0	-31.4	20.1	6.02e-01	0	43	0	920649728	19	4781
2026-01-01 12:59:58.82	325.22	17.50	-29.0	-31.5	20.0	6.01e-01	0	43	0	922746880	19	4819
2026-01-01 12:59:59.82	325.34	17.39	-29.0	-31.6	19.9	6.03e-01	0	43	0	924844032	19	4857
2026-01-01 13:00:00.82	325.47	17.28	-29.0	-31.7	19.9	6.01e-01	0	43	0	926416896	19	4863
2026-01-01 13:00:01.82	325.60	17.16	-29.0	-31.6	19.9	6.03e-01	0	43	0	928514048	19	4848
2026-01-01 13:00:02.83	325.73	17.05	-29.1	-31.8	19.8	6.02e-01	0	43	0	930086912	19	4899
2026-01-01 13:00:03.83	325.85	16.94	-29.0	-31.6	20.0	6.01e-01	0	43	0	932184064	19	4836
2026-01-01 13:00:04.82	325.98	16.83	-29.0	-31.6	20.0	6.01e-01	0	43	0	933756928	19	4835
2026-01-01 13:00:05.82	326.10	16.71	-29.0	-31.6	19.9	6.01e-01	0	43	0	935854080	19	4845
2026-01-01 13:00:06.83	326.22	16.60	-29.1	-31.8	19.7	6.03e-01	0	43	0	937951232	19	4925
2026-01-01 13:00:07.83	326.34	16.49	-29.0	-31.6	19.9	6.00e-01	0	43	0	939524096	19	4855
2026-01-01 13:00:08.84	326.47	16.38	-29.0	-31.6	19.9	6.00e-01	0	43	0	941621248	19	4842
2026-01-01 13:00:09.84	326.59	16.27	-29.0	-31.5	19.9	6.01e-01	0	43	0	943194112	19	4816
2026-01-01 13:00:10.85	326.70	16.16	-29.0	-31.7	19.9	6.02e-01	0	43	0	945291264	19	4866
2026-01-01 13:00:11.85	326.82	16.05	-29.0	-31.5	19.9	6.01e-01	0	43	0	946864128	19	4799
2026-01-01 13:00:12.85	326.94	15.94	-28.9	-31.3	20.1	5.99e-01	0	43	0	948961280	19	4729
2026-01-01 13:00:13.85	327.06	15.84	-29.0	-31.5	19.9	6.01e-01	0	43	0	951058432	19	4808
2026-01-01 13:00:14.85	327.17	15.73	-28.9	-31.4	20.0	6.04e-01	0	43	0	952631296	19	4778
2026-01-01 13:00:15.86	327.29	15.62	-29.0	-31.5	19.9	6.01e-01	0	43	0	954728448	19	4827
2026-01-01 13:00:16.86	327.40	15.51	-28.9	-31.4	19.9	6.01e-01	0	43	0	956301312	19	4789
2026-01-01 13:00:17.86	327.51	15.41	-29.0	-31.5	19.8	6.03e-01	0	43	0	958398464	19	4832
2026-01-01 13:00:18.87	327.63	15.30	-29.0	-31.5	19.8	6.00e-01	0	43	0	960495616	19	4826
2026-01-01 13:00:19.87	327.74	15.20	-29.0	-31.7	19.8	6.01e-01	0	43	0	962068480	19	4870
2026-01-01 13:00:20.87	327.85	15.09	-29.0	-31.6	19.8	6.02e-01	0	43	0	964165632	19	4862
2026-01-01 13:00:21.88	327.96	14.98	-29.0	-31.7	19.8	6.01e-01	0	43	0	965738496	19	4872
2026-01-01 13:00:22.89	328.07	14.88	-29.1	-32.0	19.6	6.04e-01	0	43	0	967835648	19	4977
2026-01-01 13:00:23.89	328.18	14.78	-29.1	-31.8	19.6	6.03e-01	0	43	0	969932800	19	4920
2026-01-01 13:00:24.89	328.28	14.67	-29.0	-31.7	19.7	6.00e-01	0	43	0	971505664	19	4881
2026-01-01 13:00:25.89	328.39	14.57	-29.1	-31.8	19.7	6.04e-01	0	43	0	973602816	19	4913
2026-01-01 13:00:26.89	328.49	14.47	-29.1	-31.9	19.6	6.02e-01	0	43	0	975175680	19	4978
2026-01-01 13:00:27.89	328.60	14.36	-29.2	-32.0	19.6	6.02e-01	0	43	0	977272832	19	5001
2026-01-01 13:00:28.89	328.70	14.26	-29.2	-32.1	19.5	5.99e-01	0	43	0	978845696	19	5013
2026-01-01 13:00:29.89	328.81	14.16	-29.2	-32.1	19.4	6.04e-01	0	43	0	980942848	19	5053
2026-01-01 13:00:30.89	328.91	14.06	-29.4	-32.6	19.2	6.03e-01	0	43	0	983040000	19	5207
2026-01-01 13:00:31.90	329.01	13.96	-29.2	-32.2	19.3	6.03e-01	0	43	0	984612864	19	5077
2026-01-01 13:00:32.91	329.12	13.86	-29.2	-32.0	19.4	6.01e-01	0	43	0	986710016	19	5020
2026-01-01 13:00:33.91	329.22	13.76	-29.1	-32.0	19.5	6.05e-01	0	43	0	988282880	19	5007
2026-01-01 13:00:34.91	329.32	13.66	-29.2	-32.1	19.4	6.02e-01	0	43	0	990380032	19	5040
2026-01-01 13:00:35.92	329.42	13.56	-29.4	-32.6	19.1	6.01e-01	0	43	0	992477184	19	5207
2026-01-01 13:00:36.92	329.51	13.46	-29.2	-32.2	19.3	6.02e-01	0	43	0	994050048	19	5066
2026-01-01 13:00:37.93	329.61	13.36	-29.1	-32.0	19.5	6.02e-01	0	43	0	996147200	19	4995
2026-01-01 13:00:38.93	329.71	13.26	-29.1	-31.9	19.5	6.02e-01	0	43	0	997720064	19	4956
2026-01-01 13:00:39.93	329.81	13.17	-29.1	-32.0	19.5	6.03e-01	0	43	0	999817216	19	4993
2026-01-01 13:00:40.94	329.90	13.07	-29.1	-32.0	19.4	6.03e-01	0	43	0	1001390080	19	5016
2026-01-01 13:00:41.94	330.00	12.97	-29.2	-32.1	19.4	6.04e-01	0	43	0	1003487232	19	5023
2026-01-01 13:00:42.93	330.09	12.88	-29.2	-32.2	19.3	6.03e-01	0	43	0	1005584384	19	5067
2026-01-01 13:00:43.94	330.19	12.78	-29.2	-32.2	19.4	6.02e-01	0	43	0	1007157248	19	5063
2026-01-01 13:00:44.94	330.28	12.68	-29.2	-32.3	19.2	6.01e-01	0	43	0	1009254400	19	5103
2026-01-01 13:00:45.94	330.37	12.59	-29.4	-32.7	19.0	6.01e-01	0	43	0	1010827264	19	5260
2026-01-01 13:00:46.95	330.47	12.49	-29.3	-32.4	19.2	6.02e-01	0	43	0	1012924416	19	5150
2026-01-01 13:00:47.95	330.56	12.40	-29.2	-32.2	19.2	6.01e-01	0	43	0	1015021568	19	5099
2026-01-01 13:00:48.96	330.65	12.30	-29.2	-32.3	19.2	6.01e-01	0	43	0	1016594432	19	5111
2026-01-01 13:00:49.97	330.74	12.21	-29.2	-32.3	19.2	6.01e-01	0	43	0	1018691584	19	5106
2026-01-01 13:00:50.97	330.83	12.11	-29.3	-32.6	19.0	5.99e-01	0	43	0	1020264448	19	5214
2026-01-01 13:00:51.96	330.92	12.02	-29.2	-32.3	19.2	6.00e-01	0	43	0	1022361600	19	5109
2026-01-01 13:00:52.96	331.01	11.93	-29.1	-32.1	19.3	6.02e-01	0	43	0	1023934464	19	5029
2026-01-01 13:00:53.97	331.10	11.83	-29.2	-32.2	19.2	6.04e-01	0	43	0	1026031616	19	5091
2026-01-01 13:00:54.97	331.18	11.74	-29.2	-32.1	19.3	6.02e-01	0	43	0	1028128768	19	5051
2026-01-01 13:00:55.97	331.27	11.65	-29.2	-32.3	19.2	6.01e-01	0	43	0	1029701632	19	5111
2026-01-01 13:00:56.97	331.36	11.56	-29.3	-32.4	19.1	6.02e-01	0	43	0	1031798784	19	5175
2026-01-01 13:00:57.97	331.44	11.47	-29.2	-32.2	19.1	6.02e-01	0	43	0	1033371648	19	5100
2026-01-01 13:00:58.98	331.53	11.38	-29.2	-32.3	19.1	6.01e-01	0	43	0	1035468800	19	5113
2026-01-01 13:00:59.98	331.61	11.28	-29.2	-32.2	19.2	6.01e-01	0	43	0	1037565952	19	5091
2026-01-01 13:01:00.99	331.70	11.19	-29.3	-32.6	18.9	6.01e-01	0	43	0	1039138816	19	5229
2026-01-01 13:01:01.99	331.78	11.10	-29.3	-32.5	19.0	6.04e-01	0	43	0	1041235968	19	5187
2026-01-01 13:01:02.99	331.87	11.01	-29.4	-32.7	18.8	6.02e-01	0	43	0	1042808832	19	5293
2026-01-01 13:01:04.00	331.95	10.92	-29.3	-32.5	19.0	6.02e-01	0	43	0	1044905984	19	5197
2026-01-01 13:01:05.00	332.03	10.83	-29.3	-32.4	19.0	6.02e-01	0	43	0	1046478848	19	5165
2026-01-01 13:01:06.00	332.11	10.75	-29.3	-32.5	18.9	6.02e-01	0	43	0	1048576000	19	5214
2026-01-01 13:01:07.01	332.20	10.66	-29.3	-32.5	19.0	5.99e-01	0	43	0	1050673152	19	5214
2026-01-01 13:01:08.01	332.28	10.57	-29.4	-32.7	18.8	6.03e-01	0	43	0	1052246016	19	5276
2026-01-01 13:01:09.01	332.36	10.48	-29.4	-32.7	18.9	6.00e-01	0	43	0	1054343168	19	5271
2026-01-01 13:01:10.02	332.44	10.39	-29.3	-32.6	18.9	6.05e-01	0	43	0	1056440320	19	5242
2026-01-01 13:01:11.02	332.52	10.31	-29.4	-32.7	18.8	6.03e-01	0	43	0	1058013184	19	5296
2026-01-01 13:01:12.03	332.60	10.22	-29.4	-32.9	18.7	6.04e-01	0	43	0	1060110336	19	5360
2026-01-01 13:01:13.03	332.67	10.13	-29.4	-32.9	18.7	6.00e-01	0	43	0	1061683200	19	5346
2026-01-01 13:01:14.03	332.75	10.04	-29.5	-33.2	18.5	6.01e-01	0	43	0	1063780352	19	5470
2026-01-01 13:01:15.03	332.83	9.96	-29.5	-32.9	18.7	6.03e-01	0	43	0	1065353216	19	5380
2026-01-01 13:01:16.04	332.91	9.87	-29.5	-33.1	18.5	5.99e-01	0	43	0	1067450368	19	5456
2026-01-01 13:01:17.03	332.98	9.79	-29.6	-32.9	18.3	5.99e-01	0	43	0	1069547520	20	5273
2026-01-01 13:01:18.04	333.06	9.70	-29.8	-33.4	17.9	6.02e-01	0	43	0	1071120384	20	5487
2026-01-01 13:01:19.04	333.13	9.62	-29.6	-32.9	18.2	6.01e-01	0	43	0	1073217536	20	5258
2026-01-01 13:01:20.04	333.21	9.53	-29.5	-32.7	18.4	6.02e-01	0	43	0	1074790400	20	5180
2026-01-01 13:01:21.03	333.28	9.45	-29.5	-32.7	18.4	5.99e-01	0	43	0	1076887552	20	5214
2026-01-01 13:01:22.04	333.36	9.36	-29.6	-32.8	18.3	6.02e-01	0	43	0	1078460416	20	5253
2026-01-01 13:01:23.04	333.43	9.28	-29.6	-32.9	18.2	6.01e-01	0	43	0	1080557568	20	5281
2026-01-01 13:01:24.04	333.50	9.20	-29.6	-33.0	18.2	6.00e-01	0	43	0	1082654720	20	5301
2026-01-01 13:01:25.05	333.58	9.11	-29.7	-33.2	18.1	6.00e-01	0	43	0	1084227584	20	5389
2026-01-01 13:01:26.05	333.65	9.03	-29.7	-33.3	18.0	6.02e-01	0	43	0	1086324736	20	5425
2026-01-01 13:01:27.06	333.72	8.95	-29.8	-33.5	17.8	5.98e-01	0	43	0	1087897600	20	5527
2026-01-01 13:01:28.06	333.79	8.86	-29.7	-33.3	18.0	6.03e-01	0	43	0	1089994752	20	5425
2026-01-01 13:01:29.06	333.87	8.78	-29.8	-33.7	17.7	6.00e-01	0	43	0	1092091904	20	5597
2026-01-01 13:01:30.06	333.94	8.70	-29.7	-33.2	18.0	6.04e-01	0	43	0	1093664768	20	5415
2026-01-01 13:01:31.07	334.01	8.62	-29.7	-33.2	18.0	6.00e-01	0	43	0	1095761920	20	5405
2026-01-01 13:01:32.06	334.08	8.54	-29.7	-33.2	18.0	5.99e-01	0	43	0	1097334784	20	5397
2026-01-01 13:01:33.07	334.15	8.46	-29.7	-33.2	18.0	6.02e-01	0	43	0	1099431936	20	5410
2026-01-01 13:01:34.08	334.22	8.37	-29.8	-33.5	17.7	6.01e-01	0	43	0	1101529088	20	5528
2026-01-01 13:01:35.08	334.29	8.29	-29.9	-33.9	17.5	6.01e-01	0	43	0	1103101952	20	5690
2026-01-01 13:01:36.08	334.35	8.21	-29.9	-34.0	17.3	6.04e-01	0	43	0	1105199104	20	5771
2026-01-01 13:01:37.09	334.42	8.13	-29.9	-33.8	17.5	6.01e-01	0	43	0	1106771968	20	5664
2026-01-01 13:01:38.09	334.49	8.05	-29.8	-33.7	17.6	6.01e-01	0	43	0	1108869120	20	5628
2026-01-01 13:01:39.09	334.56	7.97	-29.9	-34.0	17.4	6.00e-01	0	43	0	1110441984	20	5751
2026-01-01 13:01:40.09	334.62	7.90	-29.9	-33.9	17.5	6.01e-01	0	43	0	1112539136	20	5692
2026-01-01 13:01:41.10	334.69	7.82	-29.9	-33.9	17.4	6.03e-01	0	43	0	1114636288	20	5721
2026-01-01 13:01:42.10	334.76	7.74	-30.1	-34.5	16.9	6.01e-01	0	43	0	1116209152	20	5974
2026-01-01 13:01:43.10	334.82	7.66	-29.9	-34.1	17.3	6.01e-01	0	43	0	1118306304	20	5797
2026-01-01 13:01:44.10	334.89	7.58	-29.8	-33.8	17.5	6.00e-01	0	43	0	1119879168	20	5658
2026-01-01 13:01:45.10	334.95	7.50	-29.8	-33.6	17.6	6.03e-01	0	43	0	1121976320	20	5592
2026-01-01 13:01:46.10	335.02	7.42	-29.7	-33.5	17.6	6.01e-01	0	43	0	1123549184	20	5552
2026-01-01 13:01:47.10	335.08	7.35	-29.8	-33.8	17.5	6.02e-01	0	43	0	1125646336	20	5657
2026-01-01 13:01:48.10	335.15	7.27	-29.8	-33.7	17.5	6.02e-01	0	43	0	1127743488	20	5625
2026-01-01 13:01:49.11	335.21	7.19	-29.8	-33.6	17.5	6.01e-01	0	43	0	1129316352	20	5615
2026-01-01 13:01:50.12	335.28	7.11	-29.9	-34.0	17.4	6.01e-01	0	43	0	1131413504	20	5756
2026-01-01 13:01:51.12	335.34	7.04	-33.1	-52.1	3.8	7.42e-01	0	43	104	1131937792	27	32005

#Closed at: 2026-01-01 13:01:52
#Recorded file [1131 MB]: D:/data/31010_260101_155146.dat