passes_logs/2026/01/01/R2M6_AANII_01/R2M6_AANII_01__20260101_234849_NOAA_21_JPSS-2_rec.log

#Pass ID: 20260101_234849_NOAA 21 (JPSS-2)
#Satellite: NOAA 21 (JPSS-2)
#Configuration: NOAA 21
#almurnet v.1.7.20240730
#Start time: 2026-01-01 23:48:49

#Version: 2.2.20231116
#Station: R2M6_AANII_01
#Location: 30.233357 lon 59.946436 lat
#TLE: 1 54234U 22150A   26001.26806856  .00000185  00000+0  10843-3 0  9990
#TLE: 2 54234  98.7484 302.3349 0001277 353.3887   6.7272 14.19530660162860

#Time	Az	El	Level	Level2	SNR	BER	BlckErr	Temp	State	Recorded	gain1	gain2
2026-01-01 23:48:49.41	21.08	7.01	-30.6	-36.5	4.4	1.43e+00	0	41	0	0	21	7099
2026-01-01 23:48:50.42	21.11	7.08	-31.1	-37.8	4.2	1.44e+00	0	41	104	0	22	7770
2026-01-01 23:48:51.43	21.14	7.16	-31.1	-37.3	5.9	3.66e-01	0	41	0	0	22	7309
2026-01-01 23:48:52.43	21.18	7.23	-31.0	-36.7	6.3	2.73e-01	0	41	0	3145728	22	6947
2026-01-01 23:48:53.44	21.21	7.31	-31.0	-36.8	6.2	2.65e-01	0	41	0	6291456	22	7001
2026-01-01 23:48:54.44	21.24	7.39	-31.1	-37.3	5.9	3.65e-01	0	41	0	9437184	22	7286
2026-01-01 23:48:55.44	21.28	7.46	-31.0	-36.4	6.5	2.67e-01	0	41	0	12582912	22	6753
2026-01-01 23:48:56.45	21.31	7.54	-31.1	-36.9	6.2	3.02e-01	0	41	0	15728640	22	7025
2026-01-01 23:48:57.45	21.35	7.62	-30.8	-35.6	7.1	1.67e-01	0	41	0	18874368	22	6264
2026-01-01 23:48:58.45	21.38	7.69	-30.8	-36.4	6.8	1.85e-01	0	41	0	22020096	21	6827
2026-01-01 23:48:59.45	21.41	7.77	-31.0	-36.9	6.5	2.19e-01	0	41	0	24117248	21	7114
2026-01-01 23:49:00.45	21.45	7.85	-31.2	-37.4	5.9	3.10e-01	0	41	0	27262976	22	7325
2026-01-01 23:49:01.46	21.48	7.93	-31.0	-36.6	6.4	2.35e-01	0	41	0	30408704	22	6850
2026-01-01 23:49:02.45	21.52	8.01	-31.3	-37.8	5.7	3.45e-01	0	41	0	33554432	22	7607
2026-01-01 23:49:03.45	21.55	8.08	-31.3	-37.7	5.8	4.13e-01	0	41	0	36700160	22	7503
2026-01-01 23:49:04.46	21.59	8.16	-31.0	-36.4	6.5	2.46e-01	0	41	0	39845888	22	6713
2026-01-01 23:49:05.46	21.62	8.24	-30.7	-35.7	7.3	1.34e-01	0	41	0	42991616	21	6405
2026-01-01 23:49:06.46	21.66	8.32	-30.2	-34.0	8.5	5.05e-02	0	41	0	46137344	21	5598
2026-01-01 23:49:07.47	21.69	8.40	-29.8	-33.7	9.5	3.06e-02	0	41	0	49283072	19	5626
2026-01-01 23:49:08.47	21.73	8.48	-29.4	-33.1	10.3	9.11e-03	0	41	0	52428800	18	5502
2026-01-01 23:49:09.47	21.77	8.56	-29.1	-32.2	10.9	2.92e-03	0	41	0	55574528	18	5153
2026-01-01 23:49:10.46	21.80	8.64	-28.8	-31.7	11.5	9.28e-04	0	41	0	58720256	17	5071
2026-01-01 23:49:11.47	21.84	8.72	-28.7	-31.5	11.7	4.07e-03	0	41	0	61865984	17	4981
2026-01-01 23:49:12.47	21.88	8.80	-28.4	-31.4	12.1	2.87e-04	0	42	0	65011712	16	5044
2026-01-01 23:49:13.48	21.91	8.88	-28.4	-31.3	12.2	2.05e-03	0	41	0	68157440	16	5031
2026-01-01 23:49:14.48	21.95	8.96	-28.5	-31.5	12.0	2.44e-04	0	41	0	71303168	16	5111
2026-01-01 23:49:15.48	21.99	9.04	-28.7	-31.5	11.7	4.96e-04	0	42	0	74448896	17	4990
2026-01-01 23:49:16.48	22.02	9.12	-28.8	-31.8	11.5	1.08e-03	0	42	0	77594624	17	5094
2026-01-01 23:49:17.48	22.06	9.21	-28.4	-30.8	12.2	4.16e-03	0	42	0	80740352	17	4752
2026-01-01 23:49:18.49	22.10	9.29	-28.2	-30.7	12.6	1.56e-04	0	41	0	83886080	16	4799
2026-01-01 23:49:19.49	22.14	9.37	-27.8	-30.5	12.9	4.95e-05	0	42	0	87031808	15	4863
2026-01-01 23:49:20.49	22.17	9.45	-27.7	-30.1	13.2	3.58e-05	0	41	0	90177536	15	4732
2026-01-01 23:49:21.50	22.21	9.54	-27.7	-30.2	13.1	3.94e-03	0	42	0	93323264	15	4770
2026-01-01 23:49:22.50	22.25	9.62	-27.8	-30.4	13.0	1.88e-04	0	42	0	96468992	15	4828
2026-01-01 23:49:23.51	22.29	9.70	-27.8	-30.4	12.9	1.17e-03	0	42	0	99614720	15	4846
2026-01-01 23:49:24.51	22.33	9.79	-27.6	-29.9	13.3	1.83e-05	0	42	0	102760448	15	4664
2026-01-01 23:49:25.52	22.37	9.87	-27.4	-29.4	13.5	1.11e-04	0	42	0	105906176	15	4527
2026-01-01 23:49:26.52	22.41	9.96	-27.2	-29.5	13.8	3.65e-03	0	42	0	109051904	14	4655
2026-01-01 23:49:27.52	22.45	10.04	-27.3	-29.5	13.8	3.34e-03	0	42	0	112197632	14	4670
2026-01-01 23:49:28.53	22.49	10.13	-27.3	-29.6	13.7	6.80e-06	0	41	0	115343360	14	4699
2026-01-01 23:49:29.53	22.53	10.21	-27.4	-29.8	13.6	3.34e-03	0	42	0	118489088	14	4767
2026-01-01 23:49:30.53	22.57	10.30	-27.2	-29.4	13.9	3.85e-03	0	42	0	121634816	14	4632
2026-01-01 23:49:31.53	22.61	10.38	-27.2	-29.3	13.9	1.50e-06	0	42	0	124780544	14	4608
2026-01-01 23:49:32.53	22.65	10.47	-27.2	-29.2	14.0	3.76e-03	0	42	0	127926272	14	4566
2026-01-01 23:49:33.53	22.69	10.55	-27.1	-29.2	14.0	3.50e-03	0	42	0	131072000	14	4563
2026-01-01 23:49:34.53	22.73	10.64	-27.1	-29.1	14.1	7.00e-07	0	42	0	134217728	14	4540
2026-01-01 23:49:35.53	22.77	10.73	-27.1	-29.1	14.1	3.42e-03	0	42	0	137363456	14	4534
2026-01-01 23:49:36.54	22.81	10.81	-27.0	-29.0	14.2	3.02e-03	0	42	0	140509184	14	4491
2026-01-01 23:49:37.53	22.85	10.90	-27.1	-29.0	14.2	2.20e-06	0	42	0	143654912	14	4498
2026-01-01 23:49:38.54	22.89	10.99	-27.0	-28.9	14.2	2.45e-03	0	42	0	146800640	14	4477
2026-01-01 23:49:39.55	22.93	11.08	-27.0	-28.9	14.2	2.46e-03	0	42	0	149946368	14	4477
2026-01-01 23:49:40.55	22.98	11.17	-26.9	-28.7	14.3	0.00e+00	0	42	0	153092096	14	4417
2026-01-01 23:49:41.55	23.02	11.25	-26.9	-29.1	14.4	2.35e-03	0	42	0	156237824	13	4655
2026-01-01 23:49:42.55	23.06	11.34	-26.8	-28.8	14.5	2.31e-03	0	42	0	159383552	13	4562
2026-01-01 23:49:43.55	23.10	11.43	-26.8	-28.9	14.5	0.00e+00	0	42	0	162529280	13	4575
2026-01-01 23:49:44.55	23.15	11.52	-26.8	-28.8	14.6	1.96e-03	0	42	0	165675008	13	4544
2026-01-01 23:49:45.56	23.19	11.61	-26.7	-28.7	14.6	0.00e+00	0	42	0	168820736	13	4530
2026-01-01 23:49:46.57	23.24	11.70	-26.7	-28.7	14.6	7.00e-07	0	42	0	171966464	13	4526
2026-01-01 23:49:47.57	23.28	11.79	-26.8	-28.9	14.5	2.00e-03	0	42	0	175112192	13	4565
2026-01-01 23:49:48.57	23.32	11.88	-26.8	-29.0	14.5	2.03e-03	0	42	0	178257920	13	4610
2026-01-01 23:49:49.57	23.37	11.98	-26.8	-28.8	14.5	1.50e-06	0	42	0	181403648	13	4557
2026-01-01 23:49:50.57	23.41	12.07	-26.7	-28.6	14.7	7.00e-07	0	42	0	184549376	13	4498
2026-01-01 23:49:51.57	23.46	12.16	-26.8	-28.8	14.6	7.00e-07	0	42	0	187695104	13	4541
2026-01-01 23:49:52.57	23.50	12.25	-26.8	-28.8	14.6	0.00e+00	0	42	0	190840832	13	4551
2026-01-01 23:49:53.57	23.55	12.34	-26.8	-28.9	14.6	2.04e-03	0	42	0	193986560	13	4578
2026-01-01 23:49:54.57	23.59	12.43	-26.8	-29.0	14.5	7.00e-07	0	42	0	197132288	13	4602
2026-01-01 23:49:55.57	23.64	12.53	-27.0	-29.2	14.4	1.50e-06	0	42	0	200278016	13	4680
2026-01-01 23:49:56.57	23.68	12.62	-26.8	-28.9	14.6	0.00e+00	0	42	0	203423744	13	4577
2026-01-01 23:49:57.57	23.73	12.72	-26.8	-28.9	14.6	7.00e-07	0	42	0	206569472	13	4573
2026-01-01 23:49:58.58	23.78	12.81	-26.8	-28.8	14.7	0.00e+00	0	42	0	209715200	13	4535
2026-01-01 23:49:59.58	23.82	12.90	-26.8	-28.8	14.6	0.00e+00	0	42	0	212860928	13	4541
2026-01-01 23:50:00.58	23.87	13.00	-26.8	-29.0	14.5	0.00e+00	0	42	0	216006656	13	4597
2026-01-01 23:50:01.58	23.92	13.09	-27.0	-28.8	14.4	7.00e-07	0	42	0	219152384	14	4432
2026-01-01 23:50:02.58	23.96	13.19	-27.1	-29.2	14.2	1.50e-06	0	42	0	222298112	14	4548
2026-01-01 23:50:03.58	24.01	13.29	-27.1	-29.1	14.2	2.90e-03	0	42	0	225443840	14	4507
2026-01-01 23:50:04.59	24.06	13.38	-26.9	-29.0	14.5	7.00e-07	0	42	0	228589568	13	4597
2026-01-01 23:50:05.59	24.11	13.48	-26.8	-28.8	14.7	1.50e-06	0	42	0	231735296	13	4548
2026-01-01 23:50:06.59	24.16	13.58	-26.8	-28.9	14.6	7.00e-07	0	42	0	234881024	13	4587
2026-01-01 23:50:07.60	24.21	13.67	-26.8	-28.9	14.6	0.00e+00	0	42	0	238026752	13	4576
2026-01-01 23:50:08.60	24.26	13.77	-26.9	-29.0	14.5	7.00e-07	0	42	0	241172480	13	4605
2026-01-01 23:50:09.60	24.31	13.87	-27.1	-28.9	14.3	0.00e+00	0	42	0	244318208	14	4476
2026-01-01 23:50:10.60	24.36	13.97	-26.9	-28.5	14.6	0.00e+00	0	42	0	247463936	14	4331
2026-01-01 23:50:11.61	24.41	14.07	-26.8	-28.9	14.7	7.00e-07	0	42	0	250609664	13	4558
2026-01-01 23:50:12.61	24.46	14.17	-26.7	-28.6	14.8	0.00e+00	0	43	0	252706816	13	4489
2026-01-01 23:50:13.62	24.51	14.27	-26.8	-28.8	14.7	0.00e+00	0	42	0	256901120	13	4547
2026-01-01 23:50:14.62	24.56	14.37	-26.8	-28.8	14.7	0.00e+00	0	42	0	260046848	13	4560
2026-01-01 23:50:15.63	24.61	14.47	-26.7	-28.5	14.8	7.00e-07	0	42	0	263192576	13	4466
2026-01-01 23:50:16.62	24.66	14.57	-26.6	-28.4	15.0	0.00e+00	0	42	0	266338304	13	4422
2026-01-01 23:50:17.63	24.72	14.67	-26.6	-28.4	15.0	0.00e+00	0	42	0	269484032	13	4422
2026-01-01 23:50:18.63	24.77	14.77	-26.5	-28.2	15.1	0.00e+00	0	42	0	272629760	13	4375
2026-01-01 23:50:19.63	24.82	14.87	-26.4	-27.9	15.2	0.00e+00	0	42	0	275775488	13	4297
2026-01-01 23:50:20.64	24.88	14.98	-26.4	-28.4	15.2	0.00e+00	0	42	0	277872640	12	4551
2026-01-01 23:50:21.64	24.93	15.08	-26.4	-28.0	15.2	0.00e+00	0	42	0	281018368	13	4316
2026-01-01 23:50:22.65	24.98	15.19	-26.5	-28.1	15.2	0.00e+00	0	43	0	284164096	13	4329
2026-01-01 23:50:23.65	25.04	15.29	-26.4	-28.4	15.3	0.00e+00	0	42	0	287309824	12	4539
2026-01-01 23:50:24.66	25.09	15.39	-26.5	-28.6	15.2	0.00e+00	0	42	0	290455552	12	4587
2026-01-01 23:50:25.66	25.15	15.50	-26.5	-28.1	15.2	0.00e+00	0	42	0	293601280	13	4325
2026-01-01 23:50:26.67	25.20	15.60	-26.3	-27.8	15.4	0.00e+00	0	42	0	297795584	13	4257
2026-01-01 23:50:27.68	25.26	15.71	-26.3	-27.7	15.4	0.00e+00	0	42	0	300941312	13	4235
2026-01-01 23:50:28.69	25.31	15.82	-26.3	-28.3	15.4	0.00e+00	0	42	0	303038464	12	4497
2026-01-01 23:50:29.69	25.37	15.92	-26.4	-28.5	15.3	0.00e+00	0	42	0	306184192	12	4553
2026-01-01 23:50:30.70	25.43	16.03	-26.6	-28.4	15.0	0.00e+00	0	42	0	309329920	13	4433
2026-01-01 23:50:31.70	25.49	16.14	-26.6	-28.3	15.1	0.00e+00	0	42	0	312475648	13	4397
2026-01-01 23:50:32.71	25.54	16.25	-26.5	-28.1	15.2	0.00e+00	0	42	0	315621376	13	4328
2026-01-01 23:50:33.71	25.60	16.36	-26.3	-27.8	15.4	0.00e+00	0	42	0	318767104	13	4235
2026-01-01 23:50:34.72	25.66	16.47	-26.3	-27.7	15.4	0.00e+00	0	43	0	322961408	13	4232
2026-01-01 23:50:35.73	25.72	16.58	-26.3	-28.2	15.4	7.00e-07	0	43	0	325058560	12	4484
2026-01-01 23:50:36.73	25.78	16.69	-26.3	-28.2	15.4	0.00e+00	0	43	0	328204288	12	4468
2026-01-01 23:50:37.74	25.84	16.80	-26.3	-28.1	15.4	0.00e+00	0	43	0	331350016	12	4452
2026-01-01 23:50:38.74	25.90	16.91	-26.3	-28.1	15.5	0.00e+00	0	43	0	334495744	12	4438
2026-01-01 23:50:39.75	25.96	17.02	-26.2	-28.1	15.5	7.00e-07	0	42	0	337641472	12	4438
2026-01-01 23:50:40.75	26.02	17.13	-26.3	-28.2	15.5	0.00e+00	0	43	0	340787200	12	4469
2026-01-01 23:50:41.75	26.08	17.24	-26.3	-28.1	15.5	0.00e+00	0	43	0	343932928	12	4451
2026-01-01 23:50:42.76	26.14	17.36	-26.4	-28.3	15.4	0.00e+00	0	42	0	347078656	12	4502
2026-01-01 23:50:43.76	26.20	17.47	-26.4	-28.4	15.4	0.00e+00	0	43	0	350224384	12	4519
2026-01-01 23:50:44.76	26.27	17.58	-26.4	-28.4	15.3	0.00e+00	0	43	0	353370112	12	4539
2026-01-01 23:50:45.77	26.33	17.70	-25.6	-27.7	15.0	0.00e+00	0	43	0	356515840	12	4595
2026-01-01 23:50:46.77	26.39	17.81	-26.0	-27.8	14.7	0.00e+00	0	43	0	359661568	13	4444
2026-01-01 23:50:47.78	26.46	17.93	-26.6	-28.3	15.1	0.00e+00	0	43	0	362807296	13	4398
2026-01-01 23:50:48.78	26.52	18.04	-26.6	-28.3	13.9	0.00e+00	0	43	0	365953024	13	4379
2026-01-01 23:50:49.78	26.59	18.16	-26.7	-28.5	13.9	0.00e+00	0	43	0	369098752	13	4441
2026-01-01 23:50:50.79	26.65	18.28	-26.8	-28.8	14.9	0.00e+00	0	43	0	372244480	13	4541
2026-01-01 23:50:51.79	26.72	18.39	-26.8	-28.7	14.7	0.00e+00	0	43	0	375390208	13	4500
2026-01-01 23:50:52.80	26.78	18.51	-26.7	-28.7	14.9	0.00e+00	0	43	0	378535936	13	4510
2026-01-01 23:50:53.79	26.85	18.63	-26.7	-28.6	15.0	0.00e+00	0	43	0	381681664	13	4489
2026-01-01 23:50:54.79	26.92	18.75	-26.8	-28.7	14.9	0.00e+00	0	43	0	384827392	13	4507
2026-01-01 23:50:55.79	26.98	18.87	-26.9	-28.9	14.8	8.15e-04	0	43	0	387973120	13	4577
2026-01-01 23:50:56.79	27.05	18.99	-27.0	-29.2	14.6	0.00e+00	0	43	0	391118848	13	4642
2026-01-01 23:50:57.78	27.12	19.10	-26.8	-28.9	14.8	0.00e+00	0	43	0	394264576	13	4565
2026-01-01 23:50:58.79	27.19	19.23	-27.1	-29.0	13.8	0.00e+00	0	43	0	397410304	14	4476
2026-01-01 23:50:59.80	27.26	19.35	-27.3	-29.5	12.9	0.00e+00	0	43	0	400556032	14	4632
2026-01-01 23:51:00.80	27.33	19.47	-27.3	-29.4	14.3	5.63e-04	0	43	0	403701760	14	4610
2026-01-01 23:51:01.80	27.40	19.59	-27.2	-29.1	13.9	0.00e+00	0	43	0	406847488	14	4518
2026-01-01 23:51:02.80	27.47	19.72	-27.1	-29.0	14.5	1.50e-06	0	43	0	409993216	14	4491
2026-01-01 23:51:03.80	27.54	19.84	-26.9	-29.1	14.7	0.00e+00	0	43	0	413138944	13	4620
2026-01-01 23:51:04.81	27.61	19.96	-27.0	-28.7	14.7	0.00e+00	0	43	0	416284672	14	4380
2026-01-01 23:51:05.82	27.69	20.09	-27.0	-28.8	14.7	7.00e-07	0	43	0	419430400	14	4415
2026-01-01 23:51:06.82	27.76	20.22	-26.8	-28.8	14.9	5.96e-04	0	43	0	422576128	13	4525
2026-01-01 23:51:07.81	27.83	20.34	-27.2	-29.1	14.5	9.15e-04	0	43	0	425721856	14	4513
2026-01-01 23:51:08.82	27.91	20.47	-26.9	-28.5	14.9	0.00e+00	0	43	0	428867584	14	4335
2026-01-01 23:51:09.82	27.98	20.59	-26.6	-28.4	15.2	0.00e+00	0	43	0	432013312	13	4408
2026-01-01 23:51:10.82	28.06	20.72	-26.5	-28.0	15.4	7.00e-07	0	43	0	435159040	13	4300
2026-01-01 23:51:11.82	28.14	20.85	-26.4	-27.9	15.4	4.57e-05	0	43	0	438304768	13	4270
2026-01-01 23:51:12.82	28.21	20.98	-26.5	-28.5	15.4	6.56e-04	0	43	0	441450496	12	4568
2026-01-01 23:51:13.82	28.29	21.11	-26.3	-27.6	15.6	0.00e+00	0	43	0	444596224	13	4189
2026-01-01 23:51:14.82	28.37	21.24	-26.4	-27.8	15.5	0.00e+00	0	43	0	447741952	13	4260
2026-01-01 23:51:15.82	28.45	21.37	-26.3	-28.1	15.6	0.00e+00	0	43	0	450887680	12	4439
2026-01-01 23:51:16.83	28.53	21.50	-26.4	-28.3	15.5	9.34e-04	0	43	0	454033408	12	4484
2026-01-01 23:51:17.83	28.61	21.63	-26.1	-27.7	15.9	3.59e-04	0	43	0	457179136	12	4328
2026-01-01 23:51:18.83	28.69	21.77	-25.9	-27.4	16.0	0.00e+00	0	43	0	460324864	12	4236
2026-01-01 23:51:19.83	28.77	21.90	-26.0	-27.9	16.1	0.00e+00	0	43	0	463470592	11	4479
2026-01-01 23:51:20.84	28.85	22.04	-25.8	-27.5	16.3	1.11e-03	0	43	0	466616320	11	4369
2026-01-01 23:51:21.85	28.93	22.17	-25.7	-27.3	16.4	0.00e+00	0	43	0	469762048	11	4322
2026-01-01 23:51:22.85	29.02	22.31	-25.8	-27.5	16.4	2.23e-03	0	43	0	472907776	11	4367
2026-01-01 23:51:23.85	29.10	22.44	-25.6	-27.1	16.5	1.92e-03	0	43	0	476053504	11	4261
2026-01-01 23:51:24.86	29.19	22.58	-25.6	-27.1	16.5	0.00e+00	0	43	0	479199232	11	4266
2026-01-01 23:51:25.87	29.27	22.72	-25.5	-26.9	16.6	2.13e-03	0	43	0	482344960	11	4219
2026-01-01 23:51:26.87	29.36	22.86	-25.5	-26.8	16.7	2.30e-03	0	43	0	485490688	11	4200
2026-01-01 23:51:27.87	29.44	23.00	-25.5	-26.8	16.7	6.28e-04	0	43	0	488636416	11	4188
2026-01-01 23:51:28.88	29.53	23.14	-25.5	-26.8	16.7	3.16e-03	0	43	0	491782144	11	4191
2026-01-01 23:51:29.89	29.62	23.28	-25.5	-26.8	16.7	2.61e-03	0	43	0	494927872	11	4182
2026-01-01 23:51:30.90	29.71	23.42	-25.6	-27.0	16.6	0.00e+00	0	43	0	498073600	11	4239
2026-01-01 23:51:31.90	29.80	23.56	-25.6	-27.1	16.6	1.96e-03	0	43	0	501219328	11	4279
2026-01-01 23:51:32.89	29.89	23.70	-25.6	-27.1	16.6	1.07e-03	0	43	0	504365056	11	4258
2026-01-01 23:51:33.90	29.98	23.85	-25.5	-26.9	16.7	5.13e-04	0	43	0	507510784	11	4212
2026-01-01 23:51:34.90	30.07	23.99	-25.6	-27.0	16.7	1.09e-03	0	43	0	510656512	11	4235
2026-01-01 23:51:35.91	30.17	24.14	-25.6	-27.0	16.6	0.00e+00	0	43	0	513802240	11	4229
2026-01-01 23:51:36.92	30.26	24.28	-25.7	-27.3	16.5	5.02e-04	0	43	0	516947968	11	4326
2026-01-01 23:51:37.92	30.36	24.43	-25.7	-27.2	16.6	7.63e-04	0	43	0	520093696	11	4284
2026-01-01 23:51:38.92	30.45	24.58	-25.7	-27.4	16.4	6.71e-05	0	43	0	523239424	11	4334
2026-01-01 23:51:39.92	30.55	24.72	-26.1	-27.6	16.0	5.23e-04	0	43	0	526385152	12	4290
2026-01-01 23:51:40.93	30.65	24.87	-25.8	-27.0	16.3	5.20e-04	0	43	0	529530880	12	4141
2026-01-01 23:51:41.93	30.75	25.02	-25.8	-27.0	16.3	0.00e+00	0	43	0	532676608	12	4143
2026-01-01 23:51:42.93	30.84	25.17	-25.9	-27.7	16.3	3.16e-04	0	43	0	535822336	11	4421
2026-01-01 23:51:43.93	30.94	25.32	-25.9	-27.7	16.3	6.92e-04	0	43	0	538968064	11	4435
2026-01-01 23:51:44.94	31.05	25.47	-26.1	-27.6	16.0	0.00e+00	0	43	0	542113792	12	4301
2026-01-01 23:51:45.94	31.15	25.63	-26.4	-28.4	15.6	4.37e-04	0	43	0	545259520	12	4531
2026-01-01 23:51:46.95	31.25	25.78	-26.2	-27.4	15.8	3.94e-04	0	43	0	548405248	13	4139
2026-01-01 23:51:47.96	31.36	25.94	-26.2	-28.0	15.8	6.33e-04	0	43	0	551550976	12	4389
2026-01-01 23:51:48.96	31.46	26.09	-26.3	-28.1	15.7	3.33e-04	0	43	0	554696704	12	4423
2026-01-01 23:51:49.96	31.57	26.24	-26.2	-27.9	15.8	3.40e-04	0	43	0	557842432	12	4387
2026-01-01 23:51:50.97	31.67	26.40	-26.3	-28.1	15.8	0.00e+00	0	43	0	560988160	12	4432
2026-01-01 23:51:51.97	31.78	26.56	-26.3	-28.1	15.8	2.87e-04	0	43	0	564133888	12	4421
2026-01-01 23:51:52.97	31.89	26.72	-26.4	-28.3	15.7	3.34e-04	0	43	0	567279616	12	4479
2026-01-01 23:51:53.98	32.00	26.88	-26.3	-28.1	15.8	0.00e+00	0	43	0	570425344	12	4433
2026-01-01 23:51:54.98	32.11	27.04	-26.3	-28.0	15.8	3.49e-04	0	43	0	573571072	12	4396
2026-01-01 23:51:55.98	32.22	27.20	-26.3	-28.2	15.7	4.13e-04	0	43	0	576716800	12	4464
2026-01-01 23:51:56.98	32.34	27.36	-26.3	-28.1	15.8	0.00e+00	0	43	0	579862528	12	4421
2026-01-01 23:51:57.98	32.45	27.52	-26.4	-28.4	15.6	4.94e-04	0	43	0	583008256	12	4519
2026-01-01 23:51:58.98	32.56	27.68	-26.5	-28.0	15.6	0.00e+00	0	43	0	586153984	13	4288
2026-01-01 23:51:59.98	32.68	27.84	-26.6	-28.2	15.5	0.00e+00	0	43	0	589299712	13	4351
2026-01-01 23:52:00.98	32.80	28.01	-26.7	-28.4	15.3	4.55e-04	0	43	0	592445440	13	4410
2026-01-01 23:52:01.99	32.92	28.18	-26.8	-28.6	15.2	4.40e-04	0	43	0	595591168	13	4468
2026-01-01 23:52:02.99	33.04	28.34	-26.7	-28.5	15.3	0.00e+00	0	43	0	598736896	13	4428
2026-01-01 23:52:03.99	33.16	28.51	-26.8	-28.8	15.2	0.00e+00	0	43	0	601882624	13	4506
2026-01-01 23:52:05.00	33.28	28.68	-27.0	-28.8	14.9	0.00e+00	0	43	0	603979776	14	4402
2026-01-01 23:52:06.00	33.40	28.85	-26.9	-28.4	15.1	0.00e+00	0	43	0	607125504	14	4289
2026-01-01 23:52:07.01	33.53	29.02	-26.9	-28.4	15.1	4.03e-04	0	43	0	610271232	14	4299
2026-01-01 23:52:08.01	33.66	29.19	-26.9	-28.5	15.1	4.44e-04	0	43	0	613416960	14	4317
2026-01-01 23:52:09.02	33.78	29.36	-26.9	-28.5	15.1	0.00e+00	0	43	0	617611264	14	4315
2026-01-01 23:52:10.03	33.91	29.54	-26.9	-28.4	15.1	0.00e+00	0	43	0	620756992	14	4289
2026-01-01 23:52:11.03	34.04	29.71	-26.8	-28.8	15.1	0.00e+00	0	43	0	623902720	13	4522
2026-01-01 23:52:12.03	34.18	29.88	-26.6	-28.3	15.4	0.00e+00	0	43	0	625999872	13	4384
2026-01-01 23:52:13.04	34.31	30.06	-26.7	-28.4	15.3	2.46e-04	0	43	0	629145600	13	4415
2026-01-01 23:52:14.04	34.44	30.24	-26.6	-28.2	15.4	0.00e+00	0	43	0	632291328	13	4357
2026-01-01 23:52:15.04	34.58	30.41	-26.6	-28.2	15.5	0.00e+00	0	43	0	635437056	13	4342
2026-01-01 23:52:16.04	34.72	30.59	-26.8	-28.6	15.2	0.00e+00	0	43	0	638582784	13	4459
2026-01-01 23:52:17.05	34.86	30.77	-26.5	-28.2	15.5	0.00e+00	0	43	0	641728512	13	4334
2026-01-01 23:52:18.05	35.00	30.95	-26.4	-27.8	15.7	0.00e+00	0	43	0	644874240	13	4230
2026-01-01 23:52:19.05	35.14	31.13	-26.3	-27.6	15.8	0.00e+00	0	43	0	648019968	13	4190
2026-01-01 23:52:20.04	35.28	31.31	-26.3	-27.6	15.8	0.00e+00	0	43	0	651165696	13	4193
2026-01-01 23:52:21.04	35.42	31.49	-26.4	-27.8	15.7	0.00e+00	0	43	0	654311424	13	4247
2026-01-01 23:52:22.05	35.57	31.68	-26.4	-28.3	15.8	0.00e+00	0	43	0	657457152	12	4478
2026-01-01 23:52:23.05	35.72	31.86	-26.4	-28.3	15.8	7.61e-04	0	43	0	660602880	12	4472
2026-01-01 23:52:24.06	35.87	32.05	-26.4	-28.4	15.7	0.00e+00	0	43	0	663748608	12	4507
2026-01-01 23:52:25.06	36.02	32.24	-26.3	-28.1	15.8	0.00e+00	0	43	0	666894336	12	4438
2026-01-01 23:52:26.05	36.17	32.42	-26.3	-28.2	15.8	0.00e+00	0	43	0	670040064	12	4457
2026-01-01 23:52:27.06	36.33	32.61	-26.4	-28.3	15.8	0.00e+00	0	43	0	673185792	12	4481
2026-01-01 23:52:28.06	36.48	32.80	-26.4	-28.4	15.7	4.87e-04	0	43	0	676331520	12	4521
2026-01-01 23:52:29.06	36.64	32.99	-26.4	-28.4	15.7	0.00e+00	0	43	0	679477248	12	4511
2026-01-01 23:52:30.07	36.80	33.18	-26.5	-28.1	15.6	0.00e+00	0	43	0	682622976	13	4328
2026-01-01 23:52:31.07	36.96	33.38	-26.7	-28.5	15.4	0.00e+00	0	43	0	685768704	13	4415
2026-01-01 23:52:32.08	37.13	33.57	-26.6	-28.3	15.6	0.00e+00	0	43	0	688914432	13	4364
2026-01-01 23:52:33.08	37.30	33.77	-26.6	-28.3	15.5	0.00e+00	0	43	0	692060160	13	4358
2026-01-01 23:52:34.08	37.46	33.96	-26.8	-28.8	15.3	0.00e+00	0	43	0	695205888	13	4509
2026-01-01 23:52:35.08	37.63	34.16	-27.0	-28.7	15.0	0.00e+00	0	43	0	698351616	14	4385
2026-01-01 23:52:36.09	37.81	34.36	-27.3	-29.4	14.7	0.00e+00	0	43	0	701497344	14	4564
2026-01-01 23:52:37.10	37.98	34.56	-27.6	-29.5	14.3	0.00e+00	0	43	0	704643072	15	4488
2026-01-01 23:52:38.10	38.16	34.75	-27.7	-29.9	14.1	7.00e-07	0	43	0	707788800	15	4607
2026-01-01 23:52:39.11	38.34	34.96	-28.0	-30.4	13.8	6.80e-06	0	43	0	710934528	15	4770
2026-01-01 23:52:40.11	38.52	35.16	-27.9	-30.2	13.9	1.50e-06	0	43	0	714080256	15	4704
2026-01-01 23:52:41.11	38.70	35.36	-28.1	-30.3	13.7	1.50e-06	0	43	0	717225984	16	4608
2026-01-01 23:52:42.10	38.88	35.56	-27.8	-29.6	14.2	1.50e-06	0	43	0	720371712	16	4392
2026-01-01 23:52:43.11	39.07	35.77	-27.7	-29.3	14.3	1.50e-06	0	43	0	723517440	16	4314
2026-01-01 23:52:44.12	39.26	35.97	-27.7	-29.1	14.4	0.00e+00	0	43	0	726663168	16	4264
2026-01-01 23:52:45.13	39.45	36.18	-27.7	-29.1	14.4	0.00e+00	0	43	0	729808896	16	4257
2026-01-01 23:52:46.12	39.64	36.39	-27.6	-28.9	14.5	0.00e+00	0	43	0	732954624	16	4206
2026-01-01 23:52:47.13	39.84	36.60	-27.6	-29.0	14.5	1.50e-06	0	43	0	736100352	16	4236
2026-01-01 23:52:48.13	40.04	36.81	-27.7	-29.2	14.4	0.00e+00	0	43	0	739246080	16	4281
2026-01-01 23:52:49.13	40.24	37.02	-27.8	-29.4	14.3	7.00e-07	0	43	0	742391808	16	4355
2026-01-01 23:52:50.14	40.45	37.23	-27.7	-29.2	14.4	1.50e-06	0	43	0	745537536	16	4279
2026-01-01 23:52:51.14	40.65	37.44	-27.8	-29.4	14.3	7.00e-07	0	43	0	748683264	16	4327
2026-01-01 23:52:52.14	40.86	37.65	-27.8	-29.5	14.3	1.50e-06	0	43	0	751828992	16	4363
2026-01-01 23:52:53.14	41.07	37.87	-27.7	-29.2	14.4	7.00e-07	0	43	0	754974720	16	4292
2026-01-01 23:52:54.14	41.29	38.08	-27.7	-29.3	14.3	0.00e+00	0	43	0	758120448	16	4302
2026-01-01 23:52:55.14	41.50	38.30	-27.8	-29.5	14.1	1.50e-06	0	43	0	761266176	16	4376
2026-01-01 23:52:56.15	41.73	38.52	-27.8	-29.4	13.8	1.50e-06	0	43	0	764411904	16	4343
2026-01-01 23:52:57.14	41.95	38.73	-27.9	-29.6	14.2	2.20e-06	0	43	0	767557632	16	4385
2026-01-01 23:52:58.14	42.17	38.95	-28.0	-30.0	13.9	1.50e-06	0	43	0	770703360	16	4522
2026-01-01 23:52:59.14	42.40	39.17	-27.9	-30.3	13.9	2.20e-06	0	43	0	773849088	15	4713
2026-01-01 23:53:00.14	42.63	39.39	-28.3	-30.5	13.7	9.10e-06	0	43	0	776994816	16	4679
2026-01-01 23:53:01.15	42.87	39.61	-28.2	-30.4	13.7	6.10e-06	0	43	0	780140544	16	4644
2026-01-01 23:53:02.15	43.11	39.83	-28.3	-30.5	13.7	5.69e-04	0	43	0	783286272	16	4675
2026-01-01 23:53:03.16	43.35	40.06	-28.3	-30.6	13.6	1.29e-05	0	43	0	786432000	16	4698
2026-01-01 23:53:04.16	43.60	40.28	-28.4	-30.9	13.4	7.60e-06	0	43	0	789577728	16	4787
2026-01-01 23:53:05.17	43.85	40.51	-28.4	-30.9	13.4	1.14e-05	0	43	0	792723456	16	4791
2026-01-01 23:53:06.18	44.10	40.74	-28.5	-30.7	13.3	1.75e-05	0	43	0	795869184	17	4616
2026-01-01 23:53:07.18	44.36	40.96	-28.3	-30.0	13.7	1.23e-04	0	43	0	799014912	17	4414
2026-01-01 23:53:08.18	44.61	41.19	-28.2	-29.9	13.8	5.41e-05	0	43	0	802160640	17	4360
2026-01-01 23:53:09.19	44.88	41.42	-28.3	-30.1	13.7	7.60e-06	0	43	0	805306368	17	4433
2026-01-01 23:53:10.19	45.15	41.65	-28.4	-30.3	13.5	1.06e-05	0	43	0	808452096	17	4483
2026-01-01 23:53:11.19	45.41	41.88	-28.4	-30.3	13.5	9.90e-06	0	43	0	811597824	17	4503
2026-01-01 23:53:12.20	45.69	42.11	-28.4	-30.4	13.5	9.90e-06	0	43	0	814743552	17	4519
2026-01-01 23:53:13.20	45.97	42.34	-28.3	-30.2	13.6	5.03e-05	0	43	0	817889280	17	4476
2026-01-01 23:53:14.20	46.25	42.57	-28.5	-30.5	13.4	1.61e-04	0	43	0	821035008	17	4554
2026-01-01 23:53:15.21	46.54	42.81	-28.4	-30.5	13.4	6.10e-06	0	43	0	824180736	17	4541
2026-01-01 23:53:16.20	46.82	43.04	-28.4	-30.4	13.5	1.58e-04	0	43	0	827326464	17	4524
2026-01-01 23:53:17.20	47.12	43.27	-28.6	-30.8	13.2	1.29e-04	0	43	0	830472192	17	4666
2026-01-01 23:53:18.21	47.42	43.51	-28.8	-31.5	12.8	5.95e-05	0	43	0	833617920	17	4870
2026-01-01 23:53:19.21	47.72	43.74	-28.8	-31.4	12.9	8.08e-05	0	43	0	836763648	17	4862
2026-01-01 23:53:20.22	48.03	43.98	-28.9	-31.6	12.8	1.54e-04	0	43	0	839909376	17	4903
2026-01-01 23:53:21.22	48.34	44.22	-28.9	-31.6	12.8	5.79e-05	0	43	0	843055104	17	4903
2026-01-01 23:53:22.23	48.66	44.46	-28.6	-30.8	13.3	2.82e-04	0	43	0	846200832	17	4660
2026-01-01 23:53:23.23	48.98	44.69	-28.7	-31.0	13.2	4.65e-04	0	43	0	849346560	17	4709
2026-01-01 23:53:24.24	49.31	44.93	-28.9	-31.5	12.9	3.96e-05	0	43	0	852492288	17	4864
2026-01-01 23:53:25.24	49.64	45.17	-28.9	-31.5	12.9	1.96e-04	0	43	0	855638016	17	4875
2026-01-01 23:53:26.24	49.97	45.41	-28.8	-31.3	13.0	3.46e-04	0	43	0	858783744	17	4814
2026-01-01 23:53:27.23	50.31	45.65	-28.6	-30.8	13.2	2.82e-05	0	43	0	861929472	17	4658
2026-01-01 23:53:28.23	50.65	45.88	-28.5	-30.6	13.4	1.26e-04	0	43	0	865075200	17	4573
2026-01-01 23:53:29.23	51.00	46.12	-28.5	-30.7	13.4	3.20e-05	0	43	0	868220928	17	4619
2026-01-01 23:53:30.24	51.36	46.37	-28.6	-30.9	13.3	1.06e-05	0	43	0	871366656	17	4673
2026-01-01 23:53:31.25	51.73	46.61	-28.3	-30.1	13.6	6.80e-06	0	43	0	874512384	17	4428
2026-01-01 23:53:32.25	52.10	46.85	-28.4	-30.3	13.6	5.03e-05	0	43	0	877658112	17	4488
2026-01-01 23:53:33.26	52.47	47.09	-28.4	-30.3	13.6	8.30e-06	0	43	0	879755264	17	4485
2026-01-01 23:53:34.26	52.85	47.33	-28.4	-30.4	13.4	2.45e-04	0	43	0	882900992	17	4529
2026-01-01 23:53:35.27	53.24	47.57	-28.8	-31.3	13.0	3.73e-05	0	43	0	887095296	17	4806
2026-01-01 23:53:36.27	53.63	47.81	-28.7	-31.1	13.1	3.05e-05	0	43	0	890241024	17	4755
2026-01-01 23:53:37.27	54.02	48.05	-28.9	-31.6	12.8	4.57e-05	0	43	0	893386752	17	4920
2026-01-01 23:53:38.27	54.42	48.29	-28.9	-31.5	12.8	3.20e-04	0	43	0	896532480	17	4886
2026-01-01 23:53:39.28	54.84	48.53	-28.6	-30.7	13.3	2.05e-05	0	43	0	899678208	17	4623
2026-01-01 23:53:40.28	55.25	48.77	-28.4	-30.4	13.5	9.10e-06	0	43	0	902823936	17	4521
2026-01-01 23:53:41.28	55.67	49.01	-28.6	-30.7	13.3	1.06e-05	0	43	0	904921088	17	4628
2026-01-01 23:53:42.27	56.09	49.25	-28.6	-30.8	13.3	1.67e-05	0	43	0	908066816	17	4645
2026-01-01 23:53:43.27	56.53	49.49	-28.4	-30.4	13.6	8.30e-06	0	43	0	911212544	17	4513
2026-01-01 23:53:44.28	56.97	49.73	-28.4	-30.3	13.5	1.22e-04	0	43	0	914358272	17	4496
2026-01-01 23:53:45.28	57.42	49.96	-28.1	-29.5	14.1	7.00e-07	0	43	0	917504000	17	4251
2026-01-01 23:53:46.29	57.88	50.20	-27.9	-29.1	14.3	0.00e+00	0	43	0	920649728	17	4126
2026-01-01 23:53:47.29	58.34	50.44	-27.8	-29.5	14.4	7.00e-07	0	43	0	923795456	16	4353
2026-01-01 23:53:48.30	58.82	50.68	-28.0	-29.9	14.2	1.50e-06	0	43	0	926941184	16	4467
2026-01-01 23:53:49.31	59.30	50.91	-27.8	-29.4	14.4	6.94e-05	0	43	0	930086912	16	4333
2026-01-01 23:53:50.31	59.78	51.15	-27.9	-29.6	14.4	0.00e+00	0	43	0	933232640	16	4372
2026-01-01 23:53:51.32	60.28	51.38	-27.9	-29.7	14.3	7.00e-07	0	43	0	936378368	16	4406
2026-01-01 23:53:52.32	60.78	51.61	-27.9	-29.7	14.4	0.00e+00	0	43	0	939524096	16	4414
2026-01-01 23:53:53.33	61.29	51.85	-27.5	-28.7	14.9	0.00e+00	0	43	0	942669824	16	4129
2026-01-01 23:53:54.33	61.80	52.08	-27.4	-28.4	15.0	0.00e+00	0	43	0	945815552	16	4046
2026-01-01 23:53:55.33	62.32	52.30	-27.5	-28.8	14.8	0.00e+00	0	43	0	948961280	16	4159
2026-01-01 23:53:56.33	62.86	52.53	-27.5	-28.7	14.8	0.00e+00	0	43	0	952107008	16	4140
2026-01-01 23:53:57.33	63.39	52.76	-27.5	-28.6	14.9	0.00e+00	0	43	0	955252736	16	4101
2026-01-01 23:53:58.33	63.94	52.98	-27.4	-28.6	15.0	0.00e+00	0	43	0	958398464	16	4093
2026-01-01 23:53:59.33	64.50	53.20	-27.7	-29.2	14.5	7.00e-07	0	43	0	961544192	16	4285
2026-01-01 23:54:00.34	65.07	53.42	-27.9	-29.7	14.3	0.00e+00	0	43	0	964689920	16	4410
2026-01-01 23:54:01.34	65.64	53.64	-28.2	-30.3	13.9	2.20e-06	0	43	0	967835648	16	4619
2026-01-01 23:54:02.34	66.22	53.86	-27.9	-29.8	14.2	7.00e-07	0	43	0	970981376	16	4443
2026-01-01 23:54:03.35	66.82	54.08	-27.6	-28.9	14.7	0.00e+00	0	43	0	974127104	16	4194
2026-01-01 23:54:04.36	67.42	54.29	-27.3	-28.2	15.2	0.00e+00	0	43	0	977272832	16	4006
2026-01-01 23:54:05.36	68.03	54.50	-27.0	-28.6	15.4	0.00e+00	0	43	0	980418560	14	4312
2026-01-01 23:54:06.36	68.64	54.71	-27.2	-29.0	15.1	0.00e+00	0	43	0	983564288	14	4428
2026-01-01 23:54:07.36	69.27	54.91	-27.1	-28.9	15.1	0.00e+00	0	43	0	986710016	14	4423
2026-01-01 23:54:08.37	69.91	55.12	-27.2	-29.0	15.1	0.00e+00	0	43	0	989855744	14	4447
2026-01-01 23:54:09.37	70.55	55.32	-27.3	-29.2	15.0	0.00e+00	0	43	0	993001472	14	4507
2026-01-01 23:54:10.38	71.21	55.52	-27.2	-29.2	15.0	0.00e+00	0	43	0	996147200	14	4500
2026-01-01 23:54:11.38	71.87	55.71	-27.3	-29.2	15.1	0.00e+00	0	43	0	999292928	14	4500
2026-01-01 23:54:12.38	72.55	55.90	-27.2	-29.1	15.0	0.00e+00	0	43	0	1002438656	14	4474
2026-01-01 23:54:13.39	73.23	56.09	-27.2	-29.0	15.1	0.00e+00	0	43	0	1005584384	14	4455
2026-01-01 23:54:14.39	73.92	56.27	-27.1	-28.9	15.2	0.00e+00	0	43	0	1008730112	14	4407
2026-01-01 23:54:15.38	74.61	56.45	-27.1	-28.9	15.2	0.00e+00	0	43	0	1011875840	14	4412
2026-01-01 23:54:16.39	75.33	56.63	-26.9	-28.4	15.5	0.00e+00	0	43	0	1015021568	14	4262
2026-01-01 23:54:17.38	76.04	56.80	-26.9	-28.4	15.5	0.00e+00	0	43	0	1018167296	14	4271
2026-01-01 23:54:18.39	76.77	56.98	-27.2	-29.0	15.2	0.00e+00	0	43	0	1021313024	14	4441
2026-01-01 23:54:19.39	77.50	57.14	-27.3	-29.3	15.0	0.00e+00	0	43	0	1024458752	14	4532
2026-01-01 23:54:20.39	78.24	57.31	-27.2	-29.1	15.1	0.00e+00	0	43	0	1027604480	14	4477
2026-01-01 23:54:21.39	79.00	57.46	-26.7	-27.9	15.7	0.00e+00	0	43	0	1030750208	14	4132
2026-01-01 23:54:22.39	79.76	57.62	-26.2	-27.3	16.4	0.00e+00	0	43	0	1033895936	13	4078
2026-01-01 23:54:23.40	80.53	57.77	-26.2	-27.2	16.3	0.00e+00	0	43	0	1037041664	13	4065
2026-01-01 23:54:24.41	81.32	57.91	-26.3	-27.5	16.3	0.00e+00	0	43	0	1040187392	13	4132
2026-01-01 23:54:25.42	82.11	58.06	-26.3	-27.5	16.3	0.00e+00	0	43	0	1043333120	13	4143
2026-01-01 23:54:26.42	82.91	58.19	-26.1	-27.0	16.5	0.00e+00	0	43	0	1046478848	13	4016
2026-01-01 23:54:27.43	83.72	58.32	-26.1	-27.0	16.5	0.00e+00	0	43	0	1049624576	13	3993
2026-01-01 23:54:28.43	84.53	58.45	-26.2	-27.4	16.3	0.00e+00	0	43	0	1052770304	13	4101
2026-01-01 23:54:29.44	85.35	58.57	-26.4	-27.8	16.1	0.00e+00	0	43	0	1055916032	13	4212
2026-01-01 23:54:30.44	86.18	58.69	-26.6	-28.3	15.8	0.00e+00	0	43	0	1059061760	13	4343
2026-01-01 23:54:31.44	87.01	58.80	-26.4	-27.7	16.2	0.00e+00	0	43	0	1062207488	13	4180
2026-01-01 23:54:32.45	87.85	58.90	-26.3	-27.9	16.3	0.00e+00	0	43	0	1065353216	12	4360
2026-01-01 23:54:33.45	88.70	59.00	-26.3	-28.1	16.2	0.00e+00	0	43	0	1068498944	12	4423
2026-01-01 23:54:34.46	89.56	59.10	-26.4	-27.6	16.2	0.00e+00	0	43	0	1071644672	13	4168
2026-01-01 23:54:35.46	90.42	59.19	-26.4	-28.3	16.1	0.00e+00	0	43	0	1074790400	12	4478
2026-01-01 23:54:36.47	91.29	59.27	-26.5	-27.9	16.1	0.00e+00	0	43	0	1077936128	13	4230
2026-01-01 23:54:37.47	92.16	59.35	-26.5	-27.9	16.0	0.00e+00	0	43	0	1081081856	13	4241
2026-01-01 23:54:38.48	93.04	59.42	-26.5	-27.9	16.1	0.00e+00	0	43	0	1084227584	13	4238
2026-01-01 23:54:39.48	93.92	59.48	-26.5	-28.0	15.9	0.00e+00	0	43	0	1087373312	13	4267
2026-01-01 23:54:40.48	94.80	59.54	-26.1	-27.3	16.2	0.00e+00	0	43	0	1090519040	13	4145
2026-01-01 23:54:41.49	95.69	59.60	-26.3	-27.4	16.3	0.00e+00	0	43	0	1093664768	13	4116
2026-01-01 23:54:42.50	96.59	59.64	-26.3	-28.0	14.5	0.00e+00	0	43	0	1096810496	12	4370
2026-01-01 23:54:43.49	97.47	59.68	-26.2	-27.9	15.5	0.00e+00	0	43	0	1099956224	12	4353
2026-01-01 23:54:44.50	98.38	59.72	-26.2	-27.7	16.4	0.00e+00	0	43	0	1103101952	12	4298
2026-01-01 23:54:45.50	99.27	59.74	-26.0	-27.3	16.7	0.00e+00	0	43	0	1106247680	12	4189
2026-01-01 23:54:46.50	100.17	59.77	-26.1	-27.6	16.4	4.49e-04	0	43	0	1109393408	12	4265
2026-01-01 23:54:47.50	101.07	59.78	-26.3	-28.1	16.1	0.00e+00	0	43	0	1112539136	12	4418
2026-01-01 23:54:48.51	101.98	59.79	-26.1	-27.7	16.4	5.30e-06	0	43	0	1115684864	12	4288
2026-01-01 23:54:49.51	102.88	59.79	-25.8	-27.3	16.9	0.00e+00	0	43	0	1118830592	11	4301
2026-01-01 23:54:50.51	103.78	59.79	-25.9	-27.6	16.8	0.00e+00	0	43	0	1121976320	11	4382
2026-01-01 23:54:51.51	104.68	59.78	-25.9	-27.5	16.9	1.84e-03	0	43	0	1125122048	11	4350
2026-01-01 23:54:52.51	105.58	59.76	-25.9	-27.2	16.7	1.26e-03	0	43	0	1128267776	12	4150
2026-01-01 23:54:53.51	106.48	59.74	-26.0	-27.4	16.5	0.00e+00	0	43	0	1131413504	12	4220
2026-01-01 23:54:54.51	107.38	59.71	-26.3	-28.0	16.1	0.00e+00	0	43	0	1134559232	12	4390
2026-01-01 23:54:55.52	108.28	59.68	-26.7	-28.3	15.7	0.00e+00	0	43	0	1137704960	13	4368
2026-01-01 23:54:56.53	109.18	59.64	-26.5	-28.0	16.0	0.00e+00	0	43	0	1140850688	13	4260
2026-01-01 23:54:57.53	110.07	59.59	-26.3	-27.4	16.3	3.21e-04	0	43	0	1143996416	13	4096
2026-01-01 23:54:58.53	110.96	59.53	-26.7	-28.3	15.8	2.59e-05	0	43	0	1147142144	13	4338
2026-01-01 23:54:59.53	111.84	59.47	-27.2	-29.0	15.2	0.00e+00	0	43	0	1150287872	14	4434
2026-01-01 23:55:00.52	112.71	59.41	-27.4	-29.4	15.0	7.00e-07	0	43	0	1153433600	14	4540
2026-01-01 23:55:01.52	113.58	59.34	-27.4	-29.5	14.9	7.00e-07	0	43	0	1156579328	14	4572
2026-01-01 23:55:02.52	114.45	59.26	-27.1	-28.8	15.3	0.00e+00	0	43	0	1159725056	14	4387
2026-01-01 23:55:03.52	115.31	59.18	-26.8	-28.2	15.7	7.00e-07	0	43	0	1162870784	14	4198
2026-01-01 23:55:04.52	116.17	59.09	-26.3	-27.0	16.2	0.00e+00	0	43	0	1166016512	14	3902
2026-01-01 23:55:05.52	117.02	58.99	-26.0	-26.8	16.6	0.00e+00	0	43	0	1169162240	13	3958
2026-01-01 23:55:06.51	117.86	58.89	-26.3	-27.6	16.2	0.00e+00	0	43	0	1172307968	13	4159
2026-01-01 23:55:07.52	118.71	58.79	-26.4	-27.8	16.1	3.00e-06	0	43	0	1175453696	13	4219
2026-01-01 23:55:08.52	119.54	58.68	-26.4	-27.7	16.2	0.00e+00	0	43	0	1178599424	13	4202
2026-01-01 23:55:09.52	120.36	58.56	-26.3	-27.5	16.3	0.00e+00	0	43	0	1180696576	13	4120
2026-01-01 23:55:10.53	121.19	58.44	-26.3	-27.5	16.3	3.80e-06	0	43	0	1183842304	13	4132
2026-01-01 23:55:11.53	122.00	58.31	-26.5	-28.0	15.9	0.00e+00	0	43	0	1186988032	13	4277
2026-01-01 23:55:12.53	122.80	58.18	-26.8	-28.6	15.5	3.00e-06	0	43	0	1190133760	13	4449
2026-01-01 23:55:13.53	123.59	58.04	-27.1	-28.9	15.3	4.80e-05	0	43	0	1193279488	14	4409
2026-01-01 23:55:14.52	124.37	57.90	-27.1	-28.8	15.3	0.00e+00	0	43	0	1196425216	14	4394
2026-01-01 23:55:15.53	125.16	57.76	-26.6	-27.6	15.9	1.30e-04	0	43	0	1199570944	14	4064
2026-01-01 23:55:16.52	125.92	57.61	-26.3	-27.4	16.4	4.76e-04	0	43	0	1202716672	13	4107
2026-01-01 23:55:17.53	126.69	57.45	-26.4	-27.8	16.1	0.00e+00	0	43	0	1205862400	13	4212
2026-01-01 23:55:18.53	127.44	57.29	-26.9	-28.8	15.5	2.02e-03	0	43	0	1209008128	13	4506
2026-01-01 23:55:19.53	128.18	57.13	-27.1	-28.9	15.2	2.05e-03	0	43	0	1212153856	14	4400
2026-01-01 23:55:20.53	128.92	56.96	-27.1	-28.8	15.3	0.00e+00	0	43	0	1215299584	14	4385
2026-01-01 23:55:21.54	129.65	56.79	-27.3	-29.3	14.9	2.81e-03	0	43	0	1218445312	14	4524
2026-01-01 23:55:22.55	130.38	56.62	-27.3	-29.3	15.0	3.27e-03	0	43	0	1221591040	14	4522
2026-01-01 23:55:23.55	131.08	56.44	-26.8	-28.2	15.7	0.00e+00	0	43	0	1224736768	14	4207
2026-01-01 23:55:24.55	131.78	56.26	-26.3	-27.5	16.3	0.00e+00	0	43	0	1227882496	13	4138
2026-01-01 23:55:25.55	132.47	56.07	-26.8	-28.6	15.6	0.00e+00	0	43	0	1231028224	13	4439
2026-01-01 23:55:26.55	133.15	55.88	-27.3	-29.2	15.0	0.00e+00	0	43	0	1234173952	14	4506
2026-01-01 23:55:27.55	133.82	55.69	-27.1	-28.9	15.2	2.42e-03	0	43	0	1237319680	14	4417
2026-01-01 23:55:28.55	134.48	55.50	-27.1	-28.8	15.3	2.57e-03	0	43	0	1240465408	14	4375
2026-01-01 23:55:29.56	135.14	55.30	-26.9	-28.4	15.4	0.00e+00	0	43	0	1243611136	14	4274
2026-01-01 23:55:30.57	135.79	55.09	-26.7	-28.4	15.7	0.00e+00	0	43	0	1246756864	13	4380
2026-01-01 23:55:31.58	136.44	54.89	-26.6	-28.2	15.9	0.00e+00	0	43	0	1249902592	13	4322
2026-01-01 23:55:32.58	137.06	54.68	-26.6	-28.3	15.9	0.00e+00	0	43	0	1253048320	13	4339
2026-01-01 23:55:33.58	137.68	54.47	-26.8	-28.6	15.7	1.17e-03	0	43	0	1256194048	13	4426
2026-01-01 23:55:34.58	138.29	54.26	-27.1	-28.8	15.3	0.00e+00	0	43	0	1259339776	14	4372
2026-01-01 23:55:35.58	138.88	54.05	-27.0	-28.6	15.4	0.00e+00	0	43	0	1262485504	14	4329
2026-01-01 23:55:36.59	139.48	53.83	-27.5	-29.6	14.8	0.00e+00	0	43	0	1265631232	14	4631
2026-01-01 23:55:37.59	140.06	53.62	-27.8	-29.9	14.4	0.00e+00	0	43	0	1268776960	15	4589
2026-01-01 23:55:38.59	140.63	53.40	-28.0	-29.9	14.3	3.00e-06	0	43	0	1271922688	16	4463
2026-01-01 23:55:39.59	141.20	53.18	-27.5	-29.2	14.8	2.20e-06	0	43	0	1275068416	15	4380
2026-01-01 23:55:40.59	141.76	52.95	-27.2	-29.1	15.1	0.00e+00	0	43	0	1278214144	14	4449
2026-01-01 23:55:41.59	142.30	52.73	-27.4	-29.6	14.9	0.00e+00	0	43	0	1281359872	14	4603
2026-01-01 23:55:42.59	142.84	52.50	-27.4	-29.0	14.9	7.00e-07	0	43	0	1284505600	15	4317
2026-01-01 23:55:43.59	143.37	52.27	-27.2	-29.1	15.1	2.51e-03	0	43	0	1287651328	14	4472
2026-01-01 23:55:44.59	143.90	52.05	-27.4	-29.5	14.9	0.00e+00	0	43	0	1290797056	14	4590
2026-01-01 23:55:45.59	144.41	51.82	-27.6	-29.5	14.6	1.50e-06	0	43	0	1293942784	15	4476
2026-01-01 23:55:46.59	144.92	51.58	-27.8	-29.9	14.4	7.00e-07	0	43	0	1297088512	15	4591
2026-01-01 23:55:47.60	145.42	51.35	-27.6	-29.6	14.6	0.00e+00	0	43	0	1300234240	15	4488
2026-01-01 23:55:48.60	145.92	51.12	-27.6	-29.4	14.7	0.00e+00	0	43	0	1303379968	15	4426
2026-01-01 23:55:49.60	146.40	50.88	-27.8	-30.0	14.3	1.50e-06	0	43	0	1306525696	15	4638
2026-01-01 23:55:50.60	146.88	50.65	-27.9	-30.1	14.2	3.00e-06	0	43	0	1309671424	15	4639
2026-01-01 23:55:51.61	147.35	50.41	-27.8	-29.8	14.4	7.00e-07	0	43	0	1312817152	15	4574
2026-01-01 23:55:52.62	147.82	50.17	-27.9	-30.2	14.2	3.80e-06	0	43	0	1315962880	15	4697
2026-01-01 23:55:53.62	148.27	49.93	-28.3	-30.6	13.8	1.50e-06	0	43	0	1319108608	16	4695
2026-01-01 23:55:54.62	148.72	49.69	-29.2	-31.7	12.6	7.17e-05	0	43	0	1322254336	18	4825
2026-01-01 23:55:55.62	149.16	49.45	-29.5	-32.2	11.9	3.68e-04	0	43	0	1325400064	19	4887
2026-01-01 23:55:56.62	149.60	49.21	-29.6	-32.4	11.7	4.55e-04	0	43	0	1328545792	19	4963
2026-01-01 23:55:57.61	150.02	48.98	-29.6	-32.3	11.8	5.54e-04	0	43	0	1331691520	19	4930
2026-01-01 23:55:58.61	150.44	48.74	-29.2	-31.7	12.5	1.93e-04	0	43	0	1334837248	18	4838
2026-01-01 23:55:59.61	150.86	48.50	-28.6	-30.3	13.4	1.67e-05	0	43	0	1337982976	18	4371
2026-01-01 23:56:00.62	151.27	48.25	-28.4	-29.7	13.8	3.80e-06	0	43	0	1341128704	18	4205
2026-01-01 23:56:01.62	151.67	48.01	-28.8	-30.8	13.1	6.80e-06	0	43	0	1344274432	18	4537
2026-01-01 23:56:02.63	152.07	47.77	-29.1	-31.7	12.6	7.24e-05	0	43	0	1347420160	18	4817
2026-01-01 23:56:03.64	152.46	47.52	-29.2	-31.8	12.4	1.23e-04	0	43	0	1350565888	18	4878
2026-01-01 23:56:04.65	152.85	47.28	-28.9	-31.1	12.8	4.73e-05	0	43	0	1353711616	18	4641
2026-01-01 23:56:05.66	153.23	47.04	-28.5	-30.1	13.5	1.29e-05	0	43	0	1356857344	18	4327
2026-01-01 23:56:06.66	153.61	46.80	-28.4	-30.3	13.6	1.79e-04	0	43	0	1360003072	17	4474
2026-01-01 23:56:07.66	153.97	46.56	-28.3	-30.0	13.8	4.50e-06	0	43	0	1363148800	17	4402
2026-01-01 23:56:08.66	154.33	46.32	-28.1	-29.6	14.1	2.20e-06	0	43	0	1366294528	17	4285
2026-01-01 23:56:09.66	154.69	46.08	-28.1	-29.6	14.1	7.00e-07	0	43	0	1369440256	17	4270
2026-01-01 23:56:10.67	155.04	45.83	-28.3	-30.0	13.8	3.00e-06	0	43	0	1372585984	17	4400
2026-01-01 23:56:11.66	155.39	45.60	-28.9	-31.5	13.0	3.28e-05	0	43	0	1375731712	17	4882
2026-01-01 23:56:12.67	155.73	45.35	-29.4	-32.3	12.1	1.85e-04	0	43	0	1378877440	18	5053
2026-01-01 23:56:13.68	156.07	45.11	-29.4	-31.9	12.0	4.37e-04	0	43	0	1382023168	19	4801
2026-01-01 23:56:14.68	156.40	44.87	-29.4	-31.8	12.1	2.52e-04	0	43	0	1385168896	19	4758
2026-01-01 23:56:15.68	156.72	44.63	-29.3	-31.5	12.3	1.98e-04	0	43	0	1388314624	19	4658
2026-01-01 23:56:16.69	157.05	44.39	-29.3	-31.6	12.3	1.61e-04	0	43	0	1391460352	19	4688
2026-01-01 23:56:17.68	157.36	44.16	-29.2	-31.3	12.4	1.56e-04	0	43	0	1394606080	19	4575
2026-01-01 23:56:18.69	157.67	43.92	-28.8	-30.8	13.0	5.03e-05	0	43	0	1397751808	18	4527
2026-01-01 23:56:19.70	157.98	43.68	-28.6	-30.2	13.3	1.90e-05	0	43	0	1400897536	18	4362
2026-01-01 23:56:20.70	158.29	43.44	-28.7	-30.6	13.2	2.13e-05	0	43	0	1404043264	18	4468
2026-01-01 23:56:21.70	158.58	43.21	-28.6	-30.9	13.2	2.97e-05	0	43	0	1407188992	17	4669
2026-01-01 23:56:22.70	158.88	42.97	-28.6	-30.8	13.4	1.22e-05	0	43	0	1409286144	17	4626
2026-01-01 23:56:23.70	159.17	42.74	-28.8	-31.4	13.0	2.67e-05	0	43	0	1412431872	17	4827
2026-01-01 23:56:24.71	159.46	42.51	-28.9	-31.5	12.9	5.41e-05	0	43	0	1416626176	17	4882
2026-01-01 23:56:25.71	159.74	42.27	-28.8	-31.4	12.9	4.19e-05	0	43	0	1419771904	17	4826
2026-01-01 23:56:26.72	160.02	42.04	-28.8	-31.4	12.9	3.50e-05	0	43	0	1422917632	17	4834
2026-01-01 23:56:27.72	160.29	41.81	-28.7	-31.0	13.2	3.35e-05	0	43	0	1426063360	17	4710
2026-01-01 23:56:28.72	160.56	41.58	-28.2	-29.9	13.8	5.30e-06	0	43	0	1429209088	17	4357
2026-01-01 23:56:29.72	160.83	41.35	-27.8	-29.0	14.3	2.20e-06	0	43	0	1432354816	17	4112
2026-01-01 23:56:30.72	161.09	41.12	-28.0	-29.8	14.1	1.50e-06	0	43	0	1434451968	16	4438
2026-01-01 23:56:31.73	161.35	40.89	-28.2	-30.3	13.9	5.30e-06	0	43	0	1437597696	16	4581
2026-01-01 23:56:32.73	161.60	40.66	-28.7	-31.2	13.1	2.67e-05	0	43	0	1440743424	17	4770
2026-01-01 23:56:33.73	161.85	40.43	-28.9	-31.1	12.8	6.86e-05	0	43	0	1443889152	18	4635
2026-01-01 23:56:34.73	162.10	40.21	-28.7	-31.2	13.1	3.66e-05	0	43	0	1447034880	17	4773
2026-01-01 23:56:35.73	162.35	39.98	-28.8	-31.3	12.9	4.27e-05	0	43	0	1450180608	17	4827
2026-01-01 23:56:36.74	162.59	39.76	-28.5	-30.7	13.3	1.60e-05	0	43	0	1453326336	17	4629
2026-01-01 23:56:37.74	162.83	39.53	-28.4	-30.4	13.4	1.37e-05	0	43	0	1456472064	17	4534
2026-01-01 23:56:38.74	163.06	39.31	-28.4	-30.4	13.4	1.52e-05	0	43	0	1459617792	17	4535
2026-01-01 23:56:39.73	163.29	39.09	-28.4	-30.8	13.5	9.90e-06	0	43	0	1462763520	16	4753
2026-01-01 23:56:40.74	163.52	38.87	-28.3	-30.5	13.8	3.80e-06	0	43	0	1465909248	16	4667
2026-01-01 23:56:41.73	163.75	38.65	-28.4	-30.8	13.6	1.14e-05	0	43	0	1469054976	16	4775
2026-01-01 23:56:42.74	163.97	38.43	-28.4	-30.8	13.6	8.30e-06	0	43	0	1472200704	16	4754
2026-01-01 23:56:43.75	164.20	38.21	-28.0	-30.0	14.1	3.80e-06	0	43	0	1475346432	16	4506
2026-01-01 23:56:44.75	164.41	38.00	-27.2	-29.0	14.3	5.30e-06	0	43	0	1478492160	16	4395
2026-01-01 23:56:45.76	164.63	37.78	-27.7	-29.8	14.2	2.56e-04	0	43	0	1481637888	15	4581
2026-01-01 23:56:46.76	164.84	37.56	-27.7	-29.8	14.3	7.00e-07	0	43	0	1484783616	15	4583
2026-01-01 23:56:47.76	165.05	37.35	-27.9	-30.1	13.8	7.60e-06	0	43	0	1487929344	15	4676
2026-01-01 23:56:48.76	165.26	37.14	-28.1	-30.2	13.9	1.50e-06	0	43	0	1491075072	16	4577
2026-01-01 23:56:49.77	165.46	36.92	-28.3	-30.6	13.7	3.00e-06	0	43	0	1494220800	16	4717
2026-01-01 23:56:50.77	165.66	36.71	-28.4	-30.8	13.5	5.03e-04	0	43	0	1497366528	16	4788
2026-01-01 23:56:51.77	165.86	36.50	-28.3	-30.7	13.6	5.12e-04	0	43	0	1500512256	16	4754
2026-01-01 23:56:52.78	166.06	36.29	-28.2	-30.5	13.7	7.00e-07	0	43	0	1503657984	16	4666
2026-01-01 23:56:53.78	166.25	36.09	-27.9	-29.6	14.2	1.06e-05	0	43	0	1506803712	16	4404
2026-01-01 23:56:54.78	166.44	35.88	-27.5	-29.2	14.6	7.00e-07	0	43	0	1509949440	15	4403
2026-01-01 23:56:55.78	166.63	35.67	-27.7	-29.6	14.3	7.00e-07	0	43	0	1513095168	15	4526
2026-01-01 23:56:56.79	166.82	35.47	-27.5	-29.3	14.5	1.35e-03	0	43	0	1516240896	15	4437
2026-01-01 23:56:57.79	167.00	35.26	-27.5	-29.3	14.5	0.00e+00	0	43	0	1519386624	15	4426
2026-01-01 23:56:58.80	167.19	35.06	-27.7	-29.7	14.3	7.00e-07	0	43	0	1522532352	15	4534
2026-01-01 23:56:59.80	167.37	34.86	-27.7	-29.8	14.2	9.90e-06	0	43	0	1525678080	15	4592
2026-01-01 23:57:00.80	167.54	34.65	-28.3	-30.6	13.6	2.05e-03	0	43	0	1528823808	16	4718
2026-01-01 23:57:01.81	167.72	34.45	-28.2	-30.3	13.8	7.60e-06	0	43	0	1531969536	16	4621
2026-01-01 23:57:02.82	167.90	34.25	-27.8	-30.1	14.0	2.25e-03	0	43	0	1535115264	15	4667
2026-01-01 23:57:03.82	168.07	34.05	-27.8	-30.0	14.1	2.01e-03	0	43	0	1538260992	15	4655
2026-01-01 23:57:04.82	168.24	33.86	-27.7	-29.8	14.2	7.00e-07	0	43	0	1541406720	15	4581
2026-01-01 23:57:05.82	168.40	33.66	-27.7	-29.8	14.2	2.03e-03	0	43	0	1544552448	15	4593
2026-01-01 23:57:06.82	168.57	33.47	-27.4	-29.1	14.6	2.17e-03	0	43	0	1547698176	15	4366
2026-01-01 23:57:07.83	168.73	33.27	-27.3	-28.8	14.8	0.00e+00	0	43	0	1550843904	15	4292
2026-01-01 23:57:08.83	168.90	33.08	-27.5	-29.4	14.5	2.34e-03	0	43	0	1553989632	15	4460
2026-01-01 23:57:09.83	169.06	32.88	-27.1	-28.4	15.0	7.00e-07	0	43	0	1557135360	15	4174
2026-01-01 23:57:10.83	169.21	32.69	-26.8	-28.2	15.4	0.00e+00	0	43	0	1560281088	14	4223
2026-01-01 23:57:11.84	169.37	32.50	-26.5	-28.1	15.7	2.06e-03	0	43	0	1563426816	13	4302
2026-01-01 23:57:12.85	169.53	32.31	-26.4	-28.2	15.9	1.81e-03	0	43	0	1566572544	12	4444
2026-01-01 23:57:13.85	169.68	32.12	-26.2	-27.9	16.1	0.00e+00	0	43	0	1569718272	12	4370
2026-01-01 23:57:14.85	169.83	31.94	-26.1	-27.7	16.2	0.00e+00	0	43	0	1572864000	12	4301
2026-01-01 23:57:15.86	169.98	31.75	-26.2	-27.8	16.2	0.00e+00	0	43	0	1576009728	12	4324
2026-01-01 23:57:16.86	170.13	31.56	-26.3	-28.1	16.0	7.00e-07	0	43	0	1579155456	12	4421
2026-01-01 23:57:17.86	170.27	31.38	-26.3	-28.0	16.0	1.90e-03	0	43	0	1582301184	12	4395
2026-01-01 23:57:18.87	170.42	31.19	-26.3	-28.1	16.0	1.74e-03	0	43	0	1585446912	12	4420
2026-01-01 23:57:19.87	170.56	31.01	-26.3	-28.1	16.0	0.00e+00	0	43	0	1588592640	12	4421
2026-01-01 23:57:20.87	170.70	30.83	-26.5	-28.5	15.7	0.00e+00	0	43	0	1591738368	12	4543
2026-01-01 23:57:21.88	170.84	30.65	-26.5	-28.0	15.8	1.54e-03	0	43	0	1594884096	13	4272
2026-01-01 23:57:22.88	170.98	30.47	-26.5	-27.9	15.8	1.01e-04	0	43	0	1598029824	13	4252
2026-01-01 23:57:23.89	171.12	30.29	-26.7	-28.4	15.5	1.59e-03	0	43	0	1601175552	13	4385
2026-01-01 23:57:24.88	171.25	30.11	-26.6	-28.3	15.5	0.00e+00	0	43	0	1604321280	13	4375
2026-01-01 23:57:25.89	171.39	29.93	-26.7	-28.6	15.4	0.00e+00	0	43	0	1607467008	13	4462
2026-01-01 23:57:26.90	171.52	29.76	-26.9	-28.9	15.2	1.92e-03	0	43	0	1610612736	13	4542
2026-01-01 23:57:27.90	171.65	29.58	-26.8	-28.7	15.3	1.78e-03	0	43	0	1613758464	13	4470
2026-01-01 23:57:28.91	171.78	29.41	-26.8	-28.7	15.4	1.94e-04	0	43	0	1616904192	13	4479
2026-01-01 23:57:29.90	171.91	29.23	-26.7	-28.5	15.4	0.00e+00	0	43	0	1620049920	13	4435
2026-01-01 23:57:30.91	172.04	29.06	-26.7	-28.4	15.5	0.00e+00	0	43	0	1623195648	13	4394
2026-01-01 23:57:31.92	172.17	28.89	-26.7	-28.6	15.4	0.00e+00	0	43	0	1626341376	13	4444
2026-01-01 23:57:32.92	172.29	28.72	-26.6	-28.2	15.6	1.66e-04	0	43	0	1629487104	13	4332
2026-01-01 23:57:33.93	172.41	28.55	-26.6	-28.3	15.6	1.32e-03	0	43	0	1632632832	13	4357
2026-01-01 23:57:34.94	172.54	28.38	-26.8	-28.6	15.4	0.00e+00	0	43	0	1635778560	13	4452
2026-01-01 23:57:35.94	172.66	28.21	-26.4	-27.8	15.8	0.00e+00	0	43	0	1638924288	13	4229
2026-01-01 23:57:36.94	172.78	28.04	-26.2	-27.8	16.1	0.00e+00	0	43	0	1642070016	12	4342
2026-01-01 23:57:37.94	172.89	27.88	-26.1	-27.6	16.2	0.00e+00	0	43	0	1645215744	12	4286
2026-01-01 23:57:38.94	173.01	27.71	-26.2	-27.8	16.1	0.00e+00	0	43	0	1648361472	12	4343
2026-01-01 23:57:39.94	173.13	27.55	-26.3	-28.0	16.0	0.00e+00	0	43	0	1651507200	12	4391
2026-01-01 23:57:40.95	173.24	27.38	-26.5	-28.1	15.6	0.00e+00	0	43	0	1654652928	13	4302
2026-01-01 23:57:41.95	173.36	27.22	-26.3	-27.5	15.9	0.00e+00	0	43	0	1657798656	13	4152
2026-01-01 23:57:42.96	173.47	27.06	-26.1	-27.7	16.1	3.43e-04	0	43	0	1660944384	12	4303
2026-01-01 23:57:43.97	173.58	26.89	-26.1	-27.5	16.2	0.00e+00	0	43	0	1664090112	12	4264
2026-01-01 23:57:44.96	173.69	26.74	-26.4	-28.2	15.8	4.00e-04	0	43	0	1667235840	12	4456
2026-01-01 23:57:45.96	173.80	26.58	-26.0	-27.5	16.2	0.00e+00	0	43	0	1670381568	12	4255
2026-01-01 23:57:46.97	173.91	26.42	-26.1	-27.6	16.2	0.00e+00	0	43	0	1673527296	12	4284
2026-01-01 23:57:47.97	174.02	26.26	-26.3	-28.1	15.9	0.00e+00	0	43	0	1676673024	12	4419
2026-01-01 23:57:48.97	174.12	26.10	-26.2	-27.8	16.1	5.00e-04	0	43	0	1679818752	12	4325
2026-01-01 23:57:49.97	174.23	25.95	-26.2	-27.8	16.0	0.00e+00	0	43	0	1682964480	12	4343
2026-01-01 23:57:50.97	174.33	25.79	-26.4	-28.2	15.8	0.00e+00	0	43	0	1686110208	12	4462
2026-01-01 23:57:51.97	174.44	25.64	-26.4	-28.4	15.7	0.00e+00	0	43	0	1689255936	12	4505
2026-01-01 23:57:52.97	174.54	25.49	-26.7	-28.4	15.4	0.00e+00	0	43	0	1692401664	13	4402
2026-01-01 23:57:53.97	174.64	25.33	-27.0	-28.8	15.0	5.13e-04	0	43	0	1695547392	14	4396
2026-01-01 23:57:54.97	174.74	25.18	-26.8	-28.6	15.3	5.31e-04	0	43	0	1698693120	13	4464
2026-01-01 23:57:55.96	174.84	25.03	-26.5	-28.2	15.6	0.00e+00	0	43	0	1701838848	13	4332
2026-01-01 23:57:56.96	174.94	24.88	-26.7	-28.6	15.3	0.00e+00	0	43	0	1704984576	13	4452
2026-01-01 23:57:57.96	175.03	24.73	-26.5	-28.1	15.6	0.00e+00	0	43	0	1708130304	13	4317
2026-01-01 23:57:58.96	175.13	24.58	-26.4	-27.9	15.7	0.00e+00	0	43	0	1710227456	13	4251
2026-01-01 23:57:59.96	175.23	24.44	-26.5	-28.0	15.6	6.17e-04	0	43	0	1713373184	13	4279
2026-01-01 23:58:00.96	175.32	24.29	-26.5	-28.1	15.5	6.58e-04	0	43	0	1716518912	13	4320
2026-01-01 23:58:01.96	175.42	24.14	-26.6	-28.3	15.4	0.00e+00	0	43	0	1719664640	13	4389
2026-01-01 23:58:02.97	175.51	23.99	-26.5	-28.1	15.6	0.00e+00	0	43	0	1722810368	13	4319
2026-01-01 23:58:03.97	175.60	23.85	-26.4	-27.9	15.7	5.46e-04	0	43	0	1725956096	13	4252
2026-01-01 23:58:04.98	175.69	23.70	-26.4	-27.8	15.7	0.00e+00	0	43	0	1729101824	13	4232
2026-01-01 23:58:05.97	175.78	23.56	-26.5	-28.5	15.6	4.48e-04	0	43	0	1732247552	12	4538
2026-01-01 23:58:06.98	175.88	23.42	-26.3	-28.0	15.8	0.00e+00	0	43	0	1735393280	12	4406
2026-01-01 23:58:07.98	175.96	23.28	-26.2	-28.0	15.9	0.00e+00	0	43	0	1738539008	12	4387
2026-01-01 23:58:08.98	176.05	23.13	-26.3	-28.0	15.8	0.00e+00	0	43	0	1741684736	12	4405
2026-01-01 23:58:09.98	176.14	22.99	-26.1	-27.7	16.0	5.78e-04	0	43	0	1744830464	12	4331
2026-01-01 23:58:10.99	176.23	22.85	-26.2	-27.9	15.9	3.00e-06	0	43	0	1747976192	12	4378
2026-01-01 23:58:11.99	176.31	22.71	-26.2	-27.9	15.9	7.69e-04	0	43	0	1751121920	12	4356
2026-01-01 23:58:13.00	176.40	22.57	-26.2	-27.8	15.9	0.00e+00	0	43	0	1754267648	12	4349
2026-01-01 23:58:14.00	176.49	22.44	-26.3	-28.1	15.8	0.00e+00	0	43	0	1757413376	12	4412
2026-01-01 23:58:15.01	176.57	22.30	-26.1	-27.7	16.0	1.20e-03	0	43	0	1760559104	12	4312
2026-01-01 23:58:16.01	176.65	22.16	-26.1	-27.5	16.1	1.25e-03	0	43	0	1763704832	12	4267
2026-01-01 23:58:17.01	176.74	22.03	-26.0	-27.4	16.1	3.80e-06	0	43	0	1766850560	12	4243
2026-01-01 23:58:18.02	176.82	21.89	-26.0	-27.3	16.2	1.05e-03	0	43	0	1769996288	12	4204
2026-01-01 23:58:19.02	176.90	21.75	-26.1	-27.5	16.1	0.00e+00	0	43	0	1773142016	12	4266
2026-01-01 23:58:20.02	176.98	21.62	-26.0	-27.4	16.1	0.00e+00	0	43	0	1776287744	12	4246
2026-01-01 23:58:21.02	177.06	21.49	-26.2	-27.8	15.9	8.49e-04	0	43	0	1779433472	12	4335
2026-01-01 23:58:22.02	177.14	21.35	-26.4	-28.4	15.6	9.66e-04	0	43	0	1782579200	12	4506
2026-01-01 23:58:23.02	177.22	21.22	-26.3	-28.1	15.7	1.14e-05	0	43	0	1785724928	12	4432
2026-01-01 23:58:24.03	177.30	21.09	-26.3	-28.1	15.8	0.00e+00	0	43	0	1788870656	12	4431
2026-01-01 23:58:25.03	177.38	20.96	-26.4	-28.2	15.7	7.41e-04	0	43	0	1792016384	12	4470
2026-01-01 23:58:26.03	177.45	20.83	-26.5	-28.5	15.5	1.44e-05	0	43	0	1795162112	12	4559
2026-01-01 23:58:27.03	177.53	20.70	-26.6	-28.3	15.3	6.26e-04	0	43	0	1798307840	13	4386
2026-01-01 23:58:28.03	177.60	20.57	-26.7	-28.6	15.2	6.29e-04	0	43	0	1801453568	13	4475
2026-01-01 23:58:29.04	177.68	20.44	-26.7	-28.4	15.3	1.29e-05	0	43	0	1804599296	13	4421
2026-01-01 23:58:30.04	177.75	20.31	-26.8	-28.8	15.1	1.98e-04	0	43	0	1807745024	13	4521
2026-01-01 23:58:31.04	177.83	20.19	-26.7	-28.5	15.3	6.45e-04	0	43	0	1810890752	13	4429
2026-01-01 23:58:32.05	177.90	20.06	-26.5	-28.1	15.5	1.22e-05	0	43	0	1814036480	13	4316
2026-01-01 23:58:33.05	177.97	19.93	-26.4	-28.4	15.6	7.68e-04	0	43	0	1817182208	12	4524
2026-01-01 23:58:34.06	178.05	19.81	-26.4	-28.4	15.6	6.98e-04	0	43	0	1820327936	12	4515
2026-01-01 23:58:35.07	178.12	19.68	-26.5	-28.2	15.4	0.00e+00	0	43	0	1823473664	13	4342
2026-01-01 23:58:36.07	178.19	19.56	-26.5	-28.2	15.4	7.28e-04	0	43	0	1826619392	13	4347
2026-01-01 23:58:37.08	178.26	19.43	-26.8	-28.7	15.1	7.26e-04	0	43	0	1829765120	13	4509
2026-01-01 23:58:38.08	178.33	19.31	-26.5	-28.6	14.1	1.67e-05	0	43	0	1832910848	12	4601
2026-01-01 23:58:39.08	178.40	19.19	-26.5	-28.5	13.8	9.08e-04	0	43	0	1836056576	12	4566
2026-01-01 23:58:40.09	178.47	19.07	-26.5	-28.5	15.4	1.10e-03	0	43	0	1839202304	12	4554
2026-01-01 23:58:41.08	178.54	18.95	-26.5	-28.1	15.3	2.62e-03	0	43	0	1842348032	13	4326
2026-01-01 23:58:42.08	178.60	18.82	-26.7	-28.5	15.1	1.05e-03	0	43	0	1845493760	13	4456
2026-01-01 23:58:43.08	178.67	18.70	-27.0	-28.8	14.7	1.17e-03	0	43	0	1848639488	14	4425
2026-01-01 23:58:44.08	178.74	18.59	-26.8	-28.8	15.0	1.06e-05	0	43	0	1851785216	13	4536
2026-01-01 23:58:45.09	178.81	18.47	-26.7	-28.5	15.1	1.43e-03	0	43	0	1854930944	13	4451
2026-01-01 23:58:46.09	178.87	18.35	-26.8	-28.9	15.0	0.00e+00	0	43	0	1858076672	13	4550
2026-01-01 23:58:47.10	178.94	18.23	-26.8	-28.8	15.0	9.90e-06	0	43	0	1861222400	13	4524
2026-01-01 23:58:48.11	179.00	18.11	-26.8	-28.9	15.0	1.59e-03	0	43	0	1864368128	13	4555
2026-01-01 23:58:49.11	179.07	17.99	-26.9	-28.9	14.9	1.18e-03	0	43	0	1867513856	13	4565
2026-01-01 23:58:50.12	179.13	17.88	-26.8	-28.8	15.0	0.00e+00	0	43	0	1870659584	13	4519
2026-01-01 23:58:51.12	179.20	17.76	-26.8	-28.9	14.9	2.78e-03	0	43	0	1873805312	13	4557
2026-01-01 23:58:52.12	179.26	17.64	-26.9	-28.9	14.9	7.00e-07	0	43	0	1876951040	13	4574
2026-01-01 23:58:53.12	179.32	17.53	-26.9	-29.0	14.9	2.92e-03	0	43	0	1880096768	13	4595
2026-01-01 23:58:54.12	179.38	17.42	-26.9	-29.0	14.9	1.05e-03	0	43	0	1883242496	13	4591
2026-01-01 23:58:55.13	179.45	17.30	-26.9	-28.9	14.9	9.36e-04	0	43	0	1886388224	13	4575
2026-01-01 23:58:56.13	179.51	17.19	-26.9	-28.9	14.9	2.83e-03	0	43	0	1889533952	13	4575
2026-01-01 23:58:57.13	179.57	17.07	-26.9	-29.0	14.8	2.68e-03	0	43	0	1892679680	13	4592
2026-01-01 23:58:58.13	179.63	16.96	-26.9	-29.1	14.8	0.00e+00	0	43	0	1895825408	13	4609
2026-01-01 23:58:59.14	179.69	16.85	-27.0	-29.2	14.7	7.00e-07	0	43	0	1898971136	13	4647
2026-01-01 23:59:00.14	179.75	16.74	-26.9	-29.1	14.8	3.17e-03	0	43	0	1902116864	13	4640
2026-01-01 23:59:01.14	179.81	16.63	-27.2	-29.2	14.5	0.00e+00	0	43	0	1905262592	14	4548
2026-01-01 23:59:02.14	179.87	16.52	-27.3	-29.5	14.3	2.42e-03	0	43	0	1908408320	14	4633
2026-01-01 23:59:03.14	179.92	16.41	-27.2	-29.2	14.5	2.33e-03	0	43	0	1911554048	14	4531
2026-01-01 23:59:04.15	179.98	16.30	-27.0	-28.9	14.6	8.24e-04	0	43	0	1914699776	14	4439
2026-01-01 23:59:05.15	180.04	16.19	-27.0	-28.9	14.6	1.99e-03	0	43	0	1917845504	14	4439
2026-01-01 23:59:06.15	180.10	16.08	-27.0	-29.3	14.7	1.72e-03	0	43	0	1920991232	13	4670
2026-01-01 23:59:07.16	180.15	15.97	-27.1	-29.0	14.5	0.00e+00	0	43	0	1924136960	14	4489
2026-01-01 23:59:08.16	180.21	15.86	-26.9	-29.1	14.7	1.15e-03	0	43	0	1927282688	13	4631
2026-01-01 23:59:09.17	180.27	15.75	-26.9	-28.9	14.8	1.44e-03	0	43	0	1930428416	13	4571
2026-01-01 23:59:10.17	180.32	15.65	-26.9	-29.1	14.7	0.00e+00	0	43	0	1933574144	13	4623
2026-01-01 23:59:11.17	180.38	15.54	-27.1	-29.0	14.5	1.07e-03	0	43	0	1936719872	14	4489
2026-01-01 23:59:12.17	180.43	15.44	-27.3	-29.5	14.2	6.97e-04	0	43	0	1939865600	14	4644
2026-01-01 23:59:13.18	180.49	15.33	-27.3	-29.4	14.3	1.50e-06	0	43	0	1943011328	14	4588
2026-01-01 23:59:14.18	180.54	15.22	-27.5	-29.5	13.9	6.68e-04	0	43	0	1946157056	15	4520
2026-01-01 23:59:15.17	180.59	15.12	-27.6	-29.7	13.8	9.90e-06	0	43	0	1949302784	15	4576
2026-01-01 23:59:16.17	180.65	15.02	-27.5	-29.5	13.9	1.07e-03	0	43	0	1952448512	15	4519
2026-01-01 23:59:17.18	180.70	14.91	-27.7	-29.8	13.7	7.95e-04	0	43	0	1955594240	15	4615
2026-01-01 23:59:18.18	180.75	14.81	-27.8	-30.2	13.5	8.99e-04	0	43	0	1958739968	15	4737
2026-01-01 23:59:19.19	180.81	14.71	-27.6	-29.8	13.7	6.10e-06	0	43	0	1960837120	15	4603
2026-01-01 23:59:20.19	180.86	14.60	-27.5	-29.5	13.9	4.50e-06	0	43	0	1963982848	15	4529
2026-01-01 23:59:21.19	180.91	14.50	-27.5	-29.5	13.9	3.80e-06	0	43	0	1967128576	15	4513
2026-01-01 23:59:22.20	180.96	14.40	-27.5	-29.5	13.9	4.50e-06	0	43	0	1970274304	15	4526
2026-01-01 23:59:23.20	181.01	14.30	-27.6	-29.7	13.8	7.85e-04	0	43	0	1973420032	15	4587
2026-01-01 23:59:24.21	181.07	14.20	-27.5	-29.4	13.9	4.50e-06	0	43	0	1977614336	15	4490
2026-01-01 23:59:25.21	181.12	14.10	-27.4	-29.2	14.1	0.00e+00	0	43	0	1980760064	15	4428
2026-01-01 23:59:26.21	181.17	14.00	-27.3	-29.5	14.2	3.00e-06	0	43	0	1983905792	14	4638
2026-01-01 23:59:27.21	181.22	13.90	-27.4	-29.7	14.1	0.00e+00	0	43	0	1986002944	14	4685
2026-01-01 23:59:28.22	181.27	13.80	-27.4	-29.6	14.1	2.20e-06	0	43	0	1989148672	14	4664
2026-01-01 23:59:29.22	181.31	13.70	-27.4	-29.6	14.1	2.20e-06	0	43	0	1992294400	14	4671
2026-01-01 23:59:30.22	181.36	13.60	-27.5	-29.3	14.0	4.50e-06	0	43	0	1995440128	15	4469
2026-01-01 23:59:31.23	181.41	13.50	-27.3	-28.9	14.2	1.50e-06	0	43	0	1998585856	15	4350
2026-01-01 23:59:32.22	181.46	13.40	-27.2	-29.3	14.2	7.00e-07	0	43	0	2001731584	14	4582
2026-01-01 23:59:33.22	181.51	13.31	-27.3	-29.4	14.2	8.96e-04	0	43	0	2004877312	14	4598
2026-01-01 23:59:34.23	181.56	13.21	-27.5	-29.4	13.9	5.30e-06	0	43	0	2008023040	15	4483
2026-01-01 23:59:35.23	181.60	13.11	-27.3	-29.0	14.2	7.00e-07	0	43	0	2011168768	15	4363
2026-01-01 23:59:36.22	181.65	13.02	-27.4	-29.7	14.0	1.50e-06	0	43	0	2014314496	14	4697
2026-01-01 23:59:37.23	181.70	12.92	-27.2	-29.2	14.3	3.00e-06	0	43	0	2017460224	14	4554
2026-01-01 23:59:38.23	181.74	12.82	-27.2	-29.3	14.2	7.00e-07	0	43	0	2020605952	14	4583
2026-01-01 23:59:39.23	181.79	12.73	-27.3	-29.5	14.1	2.20e-06	0	43	0	2023751680	14	4639
2026-01-01 23:59:40.24	181.84	12.63	-27.4	-29.7	14.0	3.80e-06	0	43	0	2026897408	14	4706
2026-01-01 23:59:41.24	181.88	12.54	-27.3	-29.6	14.1	2.20e-06	0	43	0	2030043136	14	4659
2026-01-01 23:59:42.25	181.93	12.44	-27.6	-29.6	13.7	3.00e-06	0	43	0	2033188864	15	4560
2026-01-01 23:59:43.24	181.97	12.35	-27.8	-30.1	13.4	1.90e-05	0	43	0	2036334592	15	4723
2026-01-01 23:59:44.25	182.02	12.26	-27.5	-29.5	13.8	7.60e-06	0	43	0	2039480320	15	4519
2026-01-01 23:59:45.25	182.06	12.16	-27.3	-28.9	14.1	1.50e-06	0	43	0	2042626048	15	4351
2026-01-01 23:59:46.24	182.11	12.07	-27.2	-29.3	14.2	7.00e-07	0	43	0	2045771776	14	4578
2026-01-01 23:59:47.25	182.15	11.98	-27.3	-29.6	14.0	5.30e-06	0	43	0	2048917504	14	4661
2026-01-01 23:59:48.25	182.20	11.89	-27.2	-29.3	14.2	6.10e-06	0	43	0	2052063232	14	4567
2026-01-01 23:59:49.26	182.24	11.79	-27.2	-29.3	14.2	0.00e+00	0	43	0	2055208960	14	4580
2026-01-01 23:59:50.26	182.28	11.70	-27.3	-29.5	14.0	3.00e-06	0	43	0	2058354688	14	4650
2026-01-01 23:59:51.26	182.33	11.61	-27.2	-29.3	14.2	1.50e-06	0	43	0	2061500416	14	4563
2026-01-01 23:59:52.27	182.37	11.52	-27.2	-29.2	14.2	1.50e-06	0	43	0	2064646144	14	4558
2026-01-01 23:59:53.28	182.41	11.43	-27.2	-29.3	14.1	2.20e-06	0	43	0	2067791872	14	4589
2026-01-01 23:59:54.28	182.45	11.34	-27.5	-29.9	13.8	2.20e-06	0	43	0	2070937600	14	4776
2026-01-01 23:59:55.28	182.50	11.25	-27.6	-29.8	13.6	2.36e-05	0	43	0	2074083328	15	4618
2026-01-01 23:59:56.29	182.54	11.16	-27.8	-30.2	13.3	1.14e-05	0	43	0	2077229056	15	4756
2026-01-01 23:59:57.29	182.58	11.07	-27.6	-29.8	13.6	1.22e-05	0	43	0	2080374784	15	4613
2026-01-01 23:59:58.29	182.62	10.98	-27.5	-29.6	13.7	9.90e-06	0	43	0	2083520512	15	4546
2026-01-01 23:59:59.29	182.66	10.89	-27.5	-29.5	13.7	4.50e-06	0	43	0	2086666240	15	4531
2026-01-02 00:00:00.29	182.70	10.80	-27.5	-29.6	13.7	5.30e-06	0	43	0	2089811968	15	4558
2026-01-02 00:00:01.29	182.75	10.72	-27.5	-29.6	13.7	3.80e-06	0	43	0	2092957696	15	4555
2026-01-02 00:00:02.29	182.79	10.63	-27.7	-30.1	13.3	1.22e-05	0	43	0	2096103424	15	4705
2026-01-02 00:00:03.29	182.83	10.54	-27.6	-29.8	13.5	6.80e-06	0	43	0	2099249152	15	4618
2026-01-02 00:00:04.29	182.87	10.46	-27.4	-29.2	13.9	2.20e-06	0	43	0	2102394880	15	4451
2026-01-02 00:00:05.29	182.91	10.37	-27.4	-29.2	13.9	3.80e-06	0	43	0	2105540608	15	4447
2026-01-02 00:00:06.29	182.95	10.28	-27.4	-29.7	13.8	7.60e-06	0	43	0	2108686336	14	4723
2026-01-02 00:00:07.30	182.99	10.20	-27.4	-29.9	13.8	5.30e-06	0	43	0	2111832064	14	4758
2026-01-02 00:00:08.30	183.02	10.11	-27.5	-30.0	13.7	3.80e-06	0	43	0	2114977792	14	4805
2026-01-02 00:00:09.31	183.06	10.02	-27.5	-29.6	13.6	3.00e-06	0	43	0	2118123520	15	4562
2026-01-02 00:00:10.31	183.10	9.94	-27.6	-29.8	13.5	2.13e-05	0	43	0	2121269248	15	4643
2026-01-02 00:00:11.31	183.14	9.85	-27.7	-29.9	13.4	1.14e-05	0	43	0	2124414976	15	4673
2026-01-02 00:00:12.32	183.18	9.77	-27.7	-30.0	13.4	1.14e-05	0	43	0	2127560704	15	4684
2026-01-02 00:00:13.32	183.22	9.68	-27.7	-30.1	13.3	1.60e-05	0	43	0	2130706432	15	4722
2026-01-02 00:00:14.33	183.26	9.60	-27.8	-30.2	13.2	2.36e-05	0	43	0	2133852160	15	4774
2026-01-02 00:00:15.33	183.29	9.51	-27.8	-30.3	13.2	2.36e-05	0	43	0	2136997888	15	4791
