passes_logs/2026/01/01/R2M6_AANII_01/R2M6_AANII_01__20260101_113141_FENGYUN_3D_rec.log

#Pass ID: 20260101_113141_FENGYUN 3D
#Satellite: FENGYUN 3D
#Configuration: FENGYUN 3D
#almurnet v.1.7.20240730
#Start time: 2026-01-01 11:31:41

#Version: 2.2.20231116
#Station: R2M6_AANII_01
#Location: 30.233357 lon 59.946436 lat
#TLE: 1 43010U 17072A   25365.48527867  .00000101  00000+0  69745-4 0  9999
#TLE: 2 43010  98.9911 332.0787 0001837 134.4748 225.6578 14.19689788421190

#Time	Az	El	Level	Level2	SNR	BER	BlckErr	Temp	State	Recorded	gain1	gain2
2026-01-01 11:31:41.09	135.19	6.96	-29.5	-32.3	5.3	7.90e-01	0	41	0	0	20	4965
2026-01-01 11:31:42.09	135.15	7.04	-29.9	-33.4	5.2	7.95e-01	0	41	104	0	20	5430
2026-01-01 11:31:43.10	135.11	7.12	-29.8	-33.2	8.9	2.65e-02	0	41	0	0	20	5332
2026-01-01 11:31:44.11	135.07	7.19	-29.5	-32.4	9.4	1.45e-02	0	41	0	5242880	20	4989
2026-01-01 11:31:45.11	135.03	7.27	-29.7	-32.7	9.2	1.57e-02	0	41	0	11534336	20	5106
2026-01-01 11:31:46.11	134.99	7.34	-29.5	-32.2	9.5	1.20e-02	0	41	0	16777216	20	4932
2026-01-01 11:31:47.11	134.95	7.42	-29.2	-32.0	10.2	6.34e-03	0	41	0	22020096	19	4925
2026-01-01 11:31:48.12	134.91	7.50	-29.1	-31.6	10.4	3.83e-03	0	41	0	28311552	19	4806
2026-01-01 11:31:49.13	134.87	7.58	-28.9	-31.1	10.8	2.58e-03	0	41	0	33554432	19	4635
2026-01-01 11:31:50.12	134.83	7.65	-28.9	-31.0	10.8	2.09e-03	0	41	0	38797312	19	4619
2026-01-01 11:31:51.13	134.79	7.73	-28.9	-31.1	10.7	2.03e-03	0	41	0	45088768	19	4646
2026-01-01 11:31:52.14	134.75	7.81	-28.7	-31.0	11.2	1.21e-03	0	41	0	50331648	18	4697
2026-01-01 11:31:53.13	134.71	7.89	-28.8	-31.5	10.9	1.41e-03	0	41	0	55574528	18	4876
2026-01-01 11:31:54.14	134.67	7.96	-28.5	-30.5	11.5	8.65e-04	0	41	0	61865984	18	4547
2026-01-01 11:31:55.15	134.63	8.04	-28.1	-30.0	12.2	2.46e-04	0	41	0	67108864	17	4479
2026-01-01 11:31:56.14	134.59	8.12	-27.7	-29.6	12.7	5.95e-05	0	41	0	73400320	16	4466
2026-01-01 11:31:57.15	134.55	8.20	-27.5	-29.1	13.1	1.94e-05	0	41	0	78643200	16	4325
2026-01-01 11:31:58.15	134.51	8.28	-27.7	-29.5	12.8	3.89e-05	0	42	0	84934656	16	4437
2026-01-01 11:31:59.16	134.47	8.36	-27.7	-29.4	12.9	3.20e-05	0	42	0	90177536	16	4416
2026-01-01 11:32:00.16	134.42	8.44	-27.6	-29.2	13.0	3.43e-05	0	41	0	95420416	16	4360
2026-01-01 11:32:01.17	134.38	8.52	-27.6	-29.4	12.9	2.86e-05	0	41	0	101711872	16	4403
2026-01-01 11:32:02.18	134.34	8.60	-27.7	-29.6	12.7	5.37e-05	0	41	0	106954752	16	4474
2026-01-01 11:32:03.18	134.30	8.68	-27.7	-29.5	12.9	3.20e-05	0	42	0	112197632	16	4425
2026-01-01 11:32:04.18	134.25	8.76	-27.7	-29.4	13.0	2.28e-05	0	42	0	118489088	16	4392
2026-01-01 11:32:05.19	134.21	8.84	-27.5	-29.1	13.1	1.60e-05	0	41	0	123731968	16	4309
2026-01-01 11:32:06.19	134.17	8.92	-27.7	-29.4	13.0	1.60e-05	0	42	0	130023424	16	4382
2026-01-01 11:32:07.20	134.12	9.00	-27.8	-29.8	12.7	4.00e-05	0	42	0	135266304	16	4504
2026-01-01 11:32:08.20	134.08	9.08	-27.5	-28.9	13.3	1.02e-05	0	42	0	140509184	16	4251
2026-01-01 11:32:09.20	134.03	9.17	-27.0	-28.3	13.7	4.50e-06	0	42	0	146800640	15	4207
2026-01-01 11:32:10.21	133.99	9.25	-26.9	-28.1	13.9	2.20e-06	0	42	0	152043520	15	4135
2026-01-01 11:32:11.20	133.94	9.33	-26.7	-28.3	14.1	1.10e-06	0	42	0	158334976	14	4299
2026-01-01 11:32:12.21	133.90	9.41	-26.7	-28.1	14.2	0.00e+00	0	42	0	163577856	14	4237
2026-01-01 11:32:13.21	133.85	9.50	-26.8	-28.3	14.1	0.00e+00	0	42	0	168820736	14	4309
2026-01-01 11:32:14.21	133.81	9.58	-26.8	-28.3	14.1	1.10e-06	0	42	0	175112192	14	4317
2026-01-01 11:32:15.21	133.76	9.66	-26.6	-28.0	14.3	0.00e+00	0	42	0	180355072	14	4221
2026-01-01 11:32:16.22	133.71	9.75	-26.7	-28.1	14.3	0.00e+00	0	42	0	185597952	14	4237
2026-01-01 11:32:17.22	133.67	9.83	-26.7	-28.1	14.3	2.20e-06	0	42	0	191889408	14	4247
2026-01-01 11:32:18.22	133.62	9.91	-26.6	-27.9	14.3	0.00e+00	0	42	0	197132288	14	4203
2026-01-01 11:32:19.23	133.57	10.00	-26.7	-28.1	14.3	1.10e-06	0	42	0	202375168	14	4234
2026-01-01 11:32:20.24	133.53	10.08	-26.7	-28.1	14.3	5.70e-06	0	42	0	208666624	14	4247
2026-01-01 11:32:21.24	133.48	10.17	-26.7	-28.2	14.3	0.00e+00	0	42	0	213909504	14	4256
2026-01-01 11:32:22.24	133.43	10.25	-26.6	-27.9	14.4	1.10e-06	0	42	0	220200960	14	4195
2026-01-01 11:32:23.23	133.38	10.34	-26.5	-27.7	14.5	0.00e+00	0	42	0	225443840	14	4143
2026-01-01 11:32:24.24	133.33	10.42	-26.5	-27.7	14.6	0.00e+00	0	42	0	230686720	14	4129
2026-01-01 11:32:25.24	133.28	10.51	-26.5	-27.8	14.5	2.20e-06	0	42	0	236978176	14	4149
2026-01-01 11:32:26.25	133.23	10.60	-26.6	-27.9	14.4	0.00e+00	0	42	0	242221056	14	4190
2026-01-01 11:32:27.26	133.18	10.68	-26.6	-27.9	14.4	0.00e+00	0	42	0	248512512	14	4195
2026-01-01 11:32:28.26	133.13	10.77	-26.6	-27.8	14.5	0.00e+00	0	42	0	253755392	14	4171
2026-01-01 11:32:29.26	133.08	10.86	-26.6	-27.9	14.5	0.00e+00	0	42	0	258998272	14	4185
2026-01-01 11:32:30.26	133.03	10.94	-26.5	-27.7	14.6	0.00e+00	0	42	0	265289728	14	4130
2026-01-01 11:32:31.27	132.98	11.03	-26.6	-27.8	14.5	0.00e+00	0	42	0	270532608	14	4170
2026-01-01 11:32:32.28	132.93	11.12	-26.7	-28.1	14.4	0.00e+00	0	42	0	275775488	14	4252
2026-01-01 11:32:33.28	132.88	11.21	-26.6	-27.9	14.5	1.10e-06	0	42	0	282066944	14	4186
2026-01-01 11:32:34.29	132.83	11.30	-26.7	-28.1	14.4	2.20e-06	0	42	0	287309824	14	4243
2026-01-01 11:32:35.29	132.78	11.39	-26.7	-28.2	14.3	0.00e+00	0	42	0	293601280	14	4278
2026-01-01 11:32:36.30	132.72	11.48	-26.6	-28.0	14.4	1.10e-06	0	42	0	298844160	14	4219
2026-01-01 11:32:37.30	132.67	11.57	-26.5	-27.8	14.6	0.00e+00	0	42	0	305135616	14	4156
2026-01-01 11:32:38.31	132.62	11.66	-26.5	-27.8	14.6	0.00e+00	0	42	0	310378496	14	4159
2026-01-01 11:32:39.31	132.56	11.75	-26.5	-27.8	14.6	0.00e+00	0	42	0	315621376	14	4158
2026-01-01 11:32:40.30	132.51	11.83	-26.5	-27.7	14.6	0.00e+00	0	42	0	321912832	14	4144
2026-01-01 11:32:41.31	132.46	11.93	-26.5	-27.8	14.6	0.00e+00	0	43	0	327155712	14	4159
2026-01-01 11:32:42.31	132.40	12.02	-26.3	-27.3	14.8	0.00e+00	0	42	0	332398592	14	4039
2026-01-01 11:32:43.31	132.35	12.11	-26.2	-27.6	15.0	0.00e+00	0	42	0	338690048	13	4218
2026-01-01 11:32:44.31	132.29	12.20	-26.2	-27.6	15.0	0.00e+00	0	43	0	343932928	13	4203
2026-01-01 11:32:45.32	132.24	12.29	-26.2	-27.5	15.0	0.00e+00	0	42	0	349175808	13	4193
2026-01-01 11:32:46.32	132.18	12.38	-26.2	-27.6	14.9	0.00e+00	0	42	0	355467264	13	4222
2026-01-01 11:32:47.32	132.12	12.48	-26.1	-27.4	15.1	0.00e+00	0	43	0	360710144	13	4153
2026-01-01 11:32:48.33	132.07	12.57	-26.1	-27.2	15.2	0.00e+00	0	42	0	367001600	13	4112
2026-01-01 11:32:49.33	132.01	12.66	-26.2	-27.5	15.1	0.00e+00	0	42	0	372244480	13	4180
2026-01-01 11:32:50.33	131.95	12.76	-26.2	-27.5	15.0	0.00e+00	0	42	0	377487360	13	4195
2026-01-01 11:32:51.33	131.89	12.85	-26.1	-27.3	15.2	0.00e+00	0	42	0	383778816	13	4119
2026-01-01 11:32:52.33	131.84	12.94	-26.1	-27.2	15.2	0.00e+00	0	42	0	389021696	13	4113
2026-01-01 11:32:53.33	131.78	13.04	-26.1	-27.3	15.2	0.00e+00	0	42	0	394264576	13	4119
2026-01-01 11:32:54.32	131.72	13.13	-26.0	-27.2	15.3	0.00e+00	0	42	0	400556032	13	4091
2026-01-01 11:32:55.33	131.66	13.23	-26.1	-27.2	15.3	0.00e+00	0	42	0	405798912	13	4105
2026-01-01 11:32:56.33	131.60	13.32	-26.1	-27.4	15.2	0.00e+00	0	42	0	411041792	13	4139
2026-01-01 11:32:57.33	131.54	13.42	-26.0	-27.0	15.4	0.00e+00	0	42	0	417333248	13	4049
2026-01-01 11:32:58.33	131.48	13.51	-25.9	-26.9	15.5	0.00e+00	0	43	0	422576128	13	4004
2026-01-01 11:32:59.33	131.42	13.61	-26.0	-27.0	15.4	0.00e+00	0	43	0	428867584	13	4037
2026-01-01 11:33:00.34	131.36	13.71	-26.0	-27.0	15.5	0.00e+00	0	42	0	434110464	13	4034
2026-01-01 11:33:01.34	131.30	13.81	-26.1	-27.2	15.3	0.00e+00	0	43	0	439353344	13	4092
2026-01-01 11:33:02.34	131.23	13.90	-26.1	-27.2	15.3	0.00e+00	0	43	0	445644800	13	4112
2026-01-01 11:33:03.35	131.17	14.00	-25.9	-26.9	15.5	0.00e+00	0	43	0	450887680	13	4018
2026-01-01 11:33:04.35	131.11	14.10	-25.7	-26.9	15.8	0.00e+00	0	43	0	457179136	12	4140
2026-01-01 11:33:05.35	131.04	14.20	-25.7	-26.8	15.8	0.00e+00	0	43	0	462422016	12	4109
2026-01-01 11:33:06.36	130.98	14.30	-25.7	-26.8	15.8	0.00e+00	0	43	0	467664896	12	4107
2026-01-01 11:33:07.37	130.91	14.40	-25.7	-26.9	15.8	0.00e+00	0	43	0	473956352	12	4122
2026-01-01 11:33:08.37	130.85	14.50	-25.6	-26.6	15.9	0.00e+00	0	43	0	479199232	12	4061
2026-01-01 11:33:09.37	130.78	14.60	-25.6	-26.6	15.9	0.00e+00	0	43	0	484442112	12	4058
2026-01-01 11:33:10.38	130.72	14.70	-25.5	-26.5	16.0	0.00e+00	0	43	0	490733568	12	4029
2026-01-01 11:33:11.38	130.65	14.80	-25.5	-26.4	16.1	0.00e+00	0	43	0	495976448	12	3997
2026-01-01 11:33:12.39	130.58	14.90	-25.5	-26.3	16.1	0.00e+00	0	43	0	502267904	12	3988
2026-01-01 11:33:13.38	130.52	15.00	-25.4	-26.3	16.1	0.00e+00	0	43	0	507510784	12	3976
2026-01-01 11:33:14.38	130.45	15.10	-25.4	-26.2	16.2	0.00e+00	0	43	0	512753664	12	3952
2026-01-01 11:33:15.38	130.38	15.21	-25.6	-26.6	16.1	0.00e+00	0	43	0	519045120	12	4036
2026-01-01 11:33:16.38	130.31	15.31	-25.6	-26.7	16.0	0.00e+00	0	43	0	524288000	12	4066
2026-01-01 11:33:17.38	130.24	15.41	-25.4	-26.2	16.3	0.00e+00	0	43	0	529530880	12	3934
2026-01-01 11:33:18.38	130.17	15.52	-25.3	-26.0	16.4	3.40e-06	0	43	0	535822336	12	3888
2026-01-01 11:33:19.38	130.10	15.62	-25.3	-26.4	16.5	0.00e+00	0	43	0	541065216	11	4099
2026-01-01 11:33:20.39	130.03	15.72	-25.3	-26.5	16.4	0.00e+00	0	43	0	546308096	11	4132
2026-01-01 11:33:21.39	129.96	15.83	-25.4	-26.6	16.4	2.20e-06	0	43	0	552599552	11	4144
2026-01-01 11:33:22.40	129.89	15.94	-25.4	-26.7	16.4	0.00e+00	0	43	0	557842432	11	4160
2026-01-01 11:33:23.40	129.82	16.04	-25.3	-26.5	16.5	0.00e+00	0	43	0	564133888	11	4109
2026-01-01 11:33:24.39	129.75	16.15	-25.3	-26.5	16.5	2.20e-06	0	43	0	569376768	11	4111
2026-01-01 11:33:25.40	129.67	16.25	-25.4	-26.6	16.5	0.00e+00	0	43	0	575668224	11	4140
2026-01-01 11:33:26.40	129.60	16.36	-25.3	-26.5	16.5	0.00e+00	0	43	0	580911104	11	4126
2026-01-01 11:33:27.40	129.52	16.47	-25.3	-26.5	16.5	1.10e-06	0	43	0	586153984	11	4111
2026-01-01 11:33:28.39	129.45	16.57	-25.2	-26.3	16.6	0.00e+00	0	43	0	592445440	11	4076
2026-01-01 11:33:29.40	129.37	16.68	-25.2	-26.3	16.6	0.00e+00	0	43	0	597688320	11	4069
2026-01-01 11:33:30.41	129.30	16.79	-25.3	-26.4	16.6	1.10e-06	0	43	0	602931200	11	4083
2026-01-01 11:33:31.41	129.22	16.90	-25.3	-26.4	16.6	0.00e+00	0	43	0	609222656	11	4095
2026-01-01 11:33:32.42	129.14	17.01	-25.2	-26.2	16.7	0.00e+00	0	43	0	614465536	11	4047
2026-01-01 11:33:33.42	129.07	17.12	-25.2	-26.2	16.7	0.00e+00	0	43	0	619708416	11	4047
2026-01-01 11:33:34.43	128.99	17.23	-25.2	-26.2	16.7	0.00e+00	0	43	0	625999872	11	4054
2026-01-01 11:33:35.44	128.91	17.34	-25.1	-25.9	16.8	0.00e+00	0	43	0	631242752	11	3969
2026-01-01 11:33:36.44	128.83	17.45	-25.1	-25.9	16.9	0.00e+00	0	43	0	637534208	11	3976
2026-01-01 11:33:37.45	128.75	17.57	-25.1	-25.9	16.9	0.00e+00	0	43	0	642777088	11	3975
2026-01-01 11:33:38.45	128.67	17.68	-25.0	-25.8	16.9	0.00e+00	0	43	0	649068544	11	3941
2026-01-01 11:33:39.45	128.58	17.79	-25.0	-25.8	17.0	0.00e+00	0	43	0	654311424	11	3934
2026-01-01 11:33:40.45	128.50	17.90	-25.1	-26.1	16.8	0.00e+00	0	43	0	659554304	11	4011
2026-01-01 11:33:41.46	128.42	18.02	-25.1	-26.0	16.8	0.00e+00	0	43	0	665845760	11	4001
2026-01-01 11:33:42.46	128.34	18.13	-25.0	-25.8	16.9	0.00e+00	0	43	0	671088640	11	3936
2026-01-01 11:33:43.46	128.25	18.25	-25.0	-25.9	16.9	0.00e+00	0	43	0	676331520	11	3958
2026-01-01 11:33:44.46	128.17	18.36	-25.0	-25.9	16.9	0.00e+00	0	43	0	682622976	11	3961
2026-01-01 11:33:45.47	128.08	18.48	-25.0	-25.9	16.9	0.00e+00	0	43	0	687865856	11	3963
2026-01-01 11:33:46.46	128.00	18.59	-25.1	-26.0	16.9	0.00e+00	0	43	0	693108736	11	3988
2026-01-01 11:33:47.47	127.91	18.71	-25.1	-26.1	16.8	0.00e+00	0	43	0	699400192	11	4012
2026-01-01 11:33:48.47	127.82	18.83	-25.1	-26.0	16.8	0.00e+00	0	43	0	704643072	11	4004
2026-01-01 11:33:49.48	127.73	18.94	-24.9	-25.6	17.1	0.00e+00	0	43	0	710934528	11	3898
2026-01-01 11:33:50.48	127.64	19.06	-24.9	-25.6	17.1	0.00e+00	0	43	0	716177408	11	3883
2026-01-01 11:33:51.48	127.56	19.18	-24.8	-25.5	17.2	0.00e+00	0	43	0	721420288	11	3860
2026-01-01 11:33:52.49	127.46	19.30	-24.8	-25.4	17.2	0.00e+00	0	43	0	727711744	11	3844
2026-01-01 11:33:53.49	127.37	19.42	-24.8	-25.3	17.2	0.00e+00	0	43	0	732954624	11	3829
2026-01-01 11:33:54.50	127.28	19.54	-24.6	-25.5	17.4	0.00e+00	0	43	0	739246080	10	3974
2026-01-01 11:33:55.50	127.19	19.66	-24.6	-25.4	17.5	0.00e+00	0	43	0	744488960	10	3948
2026-01-01 11:33:56.50	127.10	19.78	-24.5	-25.2	17.6	0.00e+00	0	43	0	749731840	10	3908
2026-01-01 11:33:57.50	127.00	19.90	-24.4	-24.9	17.8	0.00e+00	0	43	0	756023296	10	3830
2026-01-01 11:33:58.51	126.91	20.02	-24.3	-24.8	17.8	0.00e+00	0	43	0	761266176	10	3800
2026-01-01 11:33:59.51	126.81	20.14	-24.3	-24.8	17.8	0.00e+00	0	43	0	766509056	10	3802
2026-01-01 11:34:00.51	126.72	20.27	-24.2	-25.1	18.0	0.00e+00	0	43	0	772800512	9	3976
2026-01-01 11:34:01.51	126.62	20.39	-24.1	-24.9	18.0	0.00e+00	0	43	0	778043392	9	3938
2026-01-01 11:34:02.52	126.52	20.51	-24.2	-25.0	18.0	0.00e+00	0	43	0	784334848	9	3965
2026-01-01 11:34:03.52	126.42	20.64	-24.2	-25.1	17.9	0.00e+00	0	43	0	789577728	9	3984
2026-01-01 11:34:04.52	126.32	20.76	-24.2	-25.1	18.0	0.00e+00	0	43	0	794820608	9	3982
2026-01-01 11:34:05.52	126.22	20.89	-24.2	-25.0	18.0	0.00e+00	0	43	0	801112064	9	3969
2026-01-01 11:34:06.52	126.12	21.01	-24.2	-25.0	18.0	0.00e+00	0	43	0	806354944	9	3961
2026-01-01 11:34:07.52	126.02	21.14	-24.2	-25.1	17.9	0.00e+00	0	43	0	811597824	9	3987
2026-01-01 11:34:08.52	125.92	21.27	-24.3	-25.2	17.9	0.00e+00	0	43	0	817889280	9	4002
2026-01-01 11:34:09.53	125.81	21.40	-24.2	-25.0	18.0	0.00e+00	0	43	0	823132160	9	3968
2026-01-01 11:34:10.53	125.71	21.52	-24.3	-25.2	17.9	0.00e+00	0	43	0	829423616	9	4003
2026-01-01 11:34:11.53	125.60	21.65	-24.3	-25.2	17.9	0.00e+00	0	43	0	834666496	9	4015
2026-01-01 11:34:12.54	125.50	21.78	-24.2	-25.1	17.9	0.00e+00	0	43	0	839909376	9	3996
2026-01-01 11:34:13.54	125.39	21.91	-24.4	-25.4	17.8	0.00e+00	0	43	0	846200832	9	4054
2026-01-01 11:34:14.55	125.28	22.04	-24.4	-25.5	17.8	0.00e+00	0	43	0	851443712	9	4074
2026-01-01 11:34:15.55	125.17	22.17	-24.2	-25.0	18.0	0.00e+00	0	43	0	857735168	9	3968
2026-01-01 11:34:16.55	125.06	22.30	-24.1	-24.9	18.1	0.00e+00	0	43	0	862978048	9	3935
2026-01-01 11:34:17.55	124.95	22.44	-24.2	-25.1	18.0	0.00e+00	0	43	0	868220928	9	3984
2026-01-01 11:34:18.55	124.84	22.57	-24.1	-24.9	18.1	0.00e+00	0	43	0	874512384	9	3933
2026-01-01 11:34:19.56	124.72	22.70	-24.2	-25.0	18.1	0.00e+00	0	43	0	879755264	9	3958
2026-01-01 11:34:20.56	124.61	22.84	-24.2	-25.0	18.1	0.00e+00	0	43	0	884998144	9	3955
2026-01-01 11:34:21.57	124.49	22.97	-24.0	-24.6	18.2	0.00e+00	0	43	0	891289600	9	3871
2026-01-01 11:34:22.57	124.38	23.11	-24.0	-24.6	18.3	0.00e+00	0	43	0	896532480	9	3867
2026-01-01 11:34:23.57	124.26	23.24	-23.9	-24.5	18.4	0.00e+00	0	43	0	902823936	9	3829
2026-01-01 11:34:24.57	124.14	23.38	-23.9	-24.4	18.4	0.00e+00	0	43	0	908066816	9	3817
2026-01-01 11:34:25.58	124.02	23.51	-23.8	-24.2	18.5	0.00e+00	0	43	0	913309696	9	3777
2026-01-01 11:34:26.58	123.90	23.65	-23.8	-24.2	18.5	0.00e+00	0	43	0	919601152	9	3767
2026-01-01 11:34:27.58	123.78	23.79	-23.9	-24.5	18.3	0.00e+00	0	43	0	924844032	9	3841
2026-01-01 11:34:28.59	123.66	23.93	-23.9	-24.5	18.3	0.00e+00	0	43	0	930086912	9	3848
2026-01-01 11:34:29.59	123.54	24.07	-23.8	-24.2	18.5	2.20e-06	0	43	0	936378368	9	3772
2026-01-01 11:34:30.59	123.41	24.21	-23.8	-24.7	18.5	0.00e+00	0	43	0	941621248	8	3995
2026-01-01 11:34:31.59	123.29	24.34	-23.7	-24.6	18.5	0.00e+00	0	43	0	946864128	8	3968
2026-01-01 11:34:32.60	123.16	24.49	-23.7	-24.6	18.5	0.00e+00	0	43	0	953155584	8	3970
2026-01-01 11:34:33.60	123.03	24.63	-23.8	-24.6	18.5	0.00e+00	0	43	0	958398464	8	3978
2026-01-01 11:34:34.60	122.90	24.77	-23.8	-24.7	18.5	0.00e+00	0	43	0	964689920	8	3996
2026-01-01 11:34:35.60	122.77	24.91	-23.7	-24.6	18.5	1.10e-06	0	43	0	969932800	8	3962
2026-01-01 11:34:36.61	122.64	25.06	-23.6	-24.3	18.7	0.00e+00	0	43	0	976224256	8	3896
2026-01-01 11:34:37.61	122.50	25.20	-23.6	-24.3	18.7	0.00e+00	0	43	0	981467136	8	3907
2026-01-01 11:34:38.61	122.37	25.34	-23.7	-24.5	18.6	3.40e-06	0	43	0	986710016	8	3957
2026-01-01 11:34:39.61	122.24	25.49	-23.8	-24.7	18.5	0.00e+00	0	43	0	993001472	8	3992
2026-01-01 11:34:40.62	122.10	25.63	-23.9	-24.9	18.4	0.00e+00	0	43	0	998244352	8	4029
2026-01-01 11:34:41.62	121.96	25.78	-23.7	-24.6	18.6	0.00e+00	0	43	0	1003487232	8	3961
2026-01-01 11:34:42.62	121.82	25.93	-23.5	-24.1	18.8	0.00e+00	0	43	0	1009778688	8	3850
2026-01-01 11:34:43.62	121.68	26.07	-23.5	-24.1	18.8	0.00e+00	0	43	0	1015021568	8	3852
2026-01-01 11:34:44.63	121.54	26.22	-23.5	-24.1	18.8	0.00e+00	0	43	0	1020264448	8	3842
2026-01-01 11:34:45.63	121.39	26.37	-23.7	-24.5	18.6	0.00e+00	0	43	0	1026555904	8	3943
2026-01-01 11:34:46.63	121.25	26.52	-23.6	-24.2	18.7	0.00e+00	0	43	0	1031798784	8	3875
2026-01-01 11:34:47.64	121.10	26.67	-23.3	-23.6	19.1	0.00e+00	0	43	0	1038090240	8	3734
2026-01-01 11:34:48.64	120.96	26.82	-23.1	-23.7	19.2	0.00e+00	0	43	0	1043333120	7	3872
2026-01-01 11:34:49.64	120.81	26.97	-23.1	-23.7	19.2	0.00e+00	0	43	0	1048576000	7	3861
2026-01-01 11:34:50.64	120.66	27.12	-23.1	-23.8	19.2	0.00e+00	0	43	0	1054867456	7	3900
2026-01-01 11:34:51.64	120.51	27.28	-23.3	-24.1	19.0	0.00e+00	0	43	0	1060110336	7	3969
2026-01-01 11:34:52.64	120.35	27.43	-23.3	-24.3	18.9	0.00e+00	0	43	0	1065353216	7	4003
2026-01-01 11:34:53.64	120.20	27.58	-23.4	-24.4	18.9	0.00e+00	0	43	0	1071644672	7	4032
2026-01-01 11:34:54.64	120.04	27.74	-23.3	-24.3	19.0	0.00e+00	0	43	0	1076887552	7	4000
2026-01-01 11:34:55.64	119.89	27.89	-23.3	-24.2	19.0	0.00e+00	0	43	0	1082130432	7	3980
2026-01-01 11:34:56.64	119.73	28.05	-23.2	-24.0	19.1	0.00e+00	0	43	0	1088421888	7	3933
2026-01-01 11:34:57.64	119.57	28.20	-23.1	-23.8	19.2	0.00e+00	0	43	0	1093664768	7	3894
2026-01-01 11:34:58.64	119.40	28.36	-23.2	-24.0	19.1	0.00e+00	0	43	0	1099956224	7	3930
2026-01-01 11:34:59.65	119.24	28.52	-23.2	-23.9	19.2	0.00e+00	0	43	0	1105199104	7	3914
2026-01-01 11:35:00.65	119.07	28.67	-23.2	-24.0	19.1	0.00e+00	0	43	0	1111490560	7	3930
2026-01-01 11:35:01.65	118.91	28.83	-23.1	-23.8	19.2	0.00e+00	0	43	0	1116733440	7	3891
2026-01-01 11:35:02.65	118.74	28.99	-23.1	-23.8	19.2	0.00e+00	0	43	0	1121976320	7	3883
2026-01-01 11:35:03.65	118.57	29.15	-23.2	-23.9	19.2	0.00e+00	0	43	0	1128267776	7	3908
2026-01-01 11:35:04.65	118.39	29.31	-23.3	-24.1	19.0	0.00e+00	0	43	0	1133510656	7	3970
2026-01-01 11:35:05.66	118.22	29.47	-23.4	-24.3	19.0	0.00e+00	0	43	0	1138753536	7	3999
2026-01-01 11:35:06.67	118.04	29.64	-23.5	-24.5	18.9	0.00e+00	0	43	0	1145044992	7	4069
2026-01-01 11:35:07.67	117.86	29.80	-23.4	-24.4	18.9	0.00e+00	0	43	0	1150287872	7	4021
2026-01-01 11:35:08.66	117.69	29.96	-23.2	-24.0	19.1	0.00e+00	0	43	0	1155530752	7	3923
2026-01-01 11:35:09.66	117.50	30.12	-23.1	-23.8	19.2	0.00e+00	0	43	0	1161822208	7	3878
2026-01-01 11:35:10.66	117.32	30.29	-23.1	-23.8	19.2	0.00e+00	0	43	0	1167065088	7	3885
2026-01-01 11:35:11.67	117.13	30.45	-23.0	-23.4	19.4	0.00e+00	0	43	0	1173356544	7	3801
2026-01-01 11:35:12.66	116.95	30.61	-22.9	-23.3	19.5	0.00e+00	0	43	0	1178599424	7	3777
2026-01-01 11:35:13.66	116.76	30.78	-23.2	-23.9	19.3	0.00e+00	0	43	0	1183842304	7	3895
2026-01-01 11:35:14.66	116.57	30.95	-23.2	-23.9	19.2	0.00e+00	0	43	0	1190133760	7	3905
2026-01-01 11:35:15.67	116.37	31.11	-23.1	-23.6	19.3	0.00e+00	0	43	0	1195376640	7	3848
2026-01-01 11:35:16.67	116.18	31.28	-23.0	-23.5	19.4	0.00e+00	0	43	0	1200619520	7	3806
2026-01-01 11:35:17.68	115.98	31.45	-23.0	-23.6	19.4	0.00e+00	0	43	0	1206910976	7	3836
2026-01-01 11:35:18.68	115.78	31.62	-23.0	-23.5	19.4	0.00e+00	0	43	0	1212153856	7	3814
2026-01-01 11:35:19.69	115.58	31.79	-22.9	-23.2	19.5	0.00e+00	0	43	0	1217396736	7	3745
2026-01-01 11:35:20.69	115.38	31.96	-22.8	-23.1	19.6	0.00e+00	0	43	0	1223688192	7	3726
2026-01-01 11:35:21.70	115.17	32.13	-22.8	-23.2	19.6	0.00e+00	0	43	0	1228931072	7	3737
2026-01-01 11:35:22.71	114.96	32.30	-22.7	-23.3	19.8	3.40e-06	0	43	0	1235222528	6	3882
2026-01-01 11:35:23.71	114.75	32.48	-22.8	-23.6	19.6	0.00e+00	0	43	0	1240465408	6	3957
2026-01-01 11:35:24.71	114.54	32.65	-22.8	-23.7	19.6	0.00e+00	0	43	0	1246756864	6	3964
2026-01-01 11:35:25.71	114.32	32.82	-23.0	-24.1	19.4	0.00e+00	0	43	0	1251999744	6	4066
2026-01-01 11:35:26.72	114.10	32.99	-23.2	-24.4	19.2	0.00e+00	0	43	0	1257242624	6	4152
2026-01-01 11:35:27.72	113.88	33.17	-23.2	-24.3	19.2	0.00e+00	0	43	0	1263534080	6	4123
2026-01-01 11:35:28.73	113.66	33.34	-23.1	-24.1	19.3	0.00e+00	0	43	0	1268776960	6	4074
2026-01-01 11:35:29.73	113.44	33.52	-23.0	-24.1	19.4	0.00e+00	0	43	0	1274019840	6	4055
2026-01-01 11:35:30.73	113.21	33.69	-23.2	-24.4	19.2	0.00e+00	0	43	0	1280311296	6	4129
2026-01-01 11:35:31.73	112.98	33.87	-23.1	-24.2	19.3	0.00e+00	0	43	0	1285554176	6	4098
2026-01-01 11:35:32.74	112.75	34.04	-23.3	-24.7	19.1	0.00e+00	0	43	0	1290797056	6	4206
2026-01-01 11:35:33.74	112.51	34.22	-23.4	-24.9	19.0	0.00e+00	0	43	0	1297088512	6	4259
2026-01-01 11:35:34.74	112.28	34.40	-23.6	-24.8	18.8	3.40e-06	0	43	0	1302331392	7	4135
2026-01-01 11:35:35.75	112.04	34.58	-23.5	-24.5	18.9	0.00e+00	0	43	0	1308622848	7	4063
2026-01-01 11:35:36.75	111.79	34.75	-23.1	-23.8	19.3	0.00e+00	0	43	0	1313865728	7	3891
2026-01-01 11:35:37.76	111.55	34.93	-23.0	-23.4	19.5	0.00e+00	0	43	0	1320157184	7	3800
2026-01-01 11:35:38.76	111.30	35.11	-23.0	-23.5	19.5	0.00e+00	0	43	0	1325400064	7	3804
2026-01-01 11:35:39.76	111.05	35.29	-22.9	-23.2	19.6	0.00e+00	0	43	0	1330642944	7	3754
2026-01-01 11:35:40.76	110.80	35.47	-22.7	-23.3	19.7	0.00e+00	0	43	0	1336934400	6	3884
2026-01-01 11:35:41.76	110.54	35.65	-22.6	-23.2	19.8	0.00e+00	0	43	0	1342177280	6	3857
2026-01-01 11:35:42.76	110.28	35.83	-22.8	-23.5	19.7	0.00e+00	0	43	0	1347420160	6	3921
2026-01-01 11:35:43.76	110.02	36.01	-22.7	-23.3	19.8	0.00e+00	0	43	0	1353711616	6	3876
2026-01-01 11:35:44.76	109.76	36.19	-22.6	-23.3	19.8	0.00e+00	0	43	0	1358954496	6	3864
2026-01-01 11:35:45.77	109.49	36.37	-22.8	-23.6	19.6	0.00e+00	0	43	0	1364197376	6	3953
2026-01-01 11:35:46.78	109.22	36.56	-23.0	-24.0	19.5	0.00e+00	0	43	0	1370488832	6	4042
2026-01-01 11:35:47.78	108.94	36.74	-22.9	-23.9	19.5	0.00e+00	0	43	0	1375731712	6	4012
2026-01-01 11:35:48.77	108.67	36.92	-23.0	-23.9	19.5	0.00e+00	0	43	0	1382023168	6	4025
2026-01-01 11:35:49.78	108.39	37.10	-23.1	-24.2	19.4	0.00e+00	0	43	0	1387266048	6	4095
2026-01-01 11:35:50.78	108.10	37.28	-23.0	-24.1	19.5	0.00e+00	0	43	0	1392508928	6	4061
2026-01-01 11:35:51.78	107.82	37.47	-22.9	-23.7	19.6	0.00e+00	0	43	0	1398800384	6	3971
2026-01-01 11:35:52.78	107.53	37.65	-22.8	-23.6	19.7	0.00e+00	0	43	0	1404043264	6	3932
2026-01-01 11:35:53.78	107.24	37.83	-23.0	-24.0	19.5	0.00e+00	0	43	0	1409286144	6	4029
2026-01-01 11:35:54.79	106.94	38.01	-22.9	-23.8	19.6	0.00e+00	0	43	0	1415577600	6	3987
2026-01-01 11:35:55.80	106.64	38.20	-23.1	-24.1	19.5	0.00e+00	0	43	0	1420820480	6	4066
2026-01-01 11:35:56.80	106.33	38.38	-22.9	-23.7	19.7	0.00e+00	0	43	0	1427111936	6	3955
2026-01-01 11:35:57.80	106.03	38.57	-22.6	-23.2	19.9	0.00e+00	0	43	0	1432354816	6	3857
2026-01-01 11:35:58.81	105.72	38.75	-22.7	-23.4	19.8	0.00e+00	0	43	0	1437597696	6	3894
2026-01-01 11:35:59.81	105.40	38.93	-22.8	-23.6	19.7	0.00e+00	0	43	0	1443889152	6	3954
2026-01-01 11:36:00.82	105.08	39.12	-22.9	-23.9	19.6	0.00e+00	0	43	0	1449132032	6	4005
2026-01-01 11:36:01.82	104.76	39.30	-23.2	-24.5	19.3	0.00e+00	0	43	0	1455423488	6	4155
2026-01-01 11:36:02.83	104.44	39.49	-23.2	-24.3	19.4	0.00e+00	0	43	0	1460666368	6	4118
2026-01-01 11:36:03.82	104.11	39.67	-23.0	-24.1	19.5	0.00e+00	0	43	0	1465909248	6	4065
2026-01-01 11:36:04.82	103.78	39.85	-22.9	-23.8	19.6	0.00e+00	0	43	0	1472200704	6	3999
2026-01-01 11:36:05.83	103.44	40.03	-22.9	-23.7	19.7	0.00e+00	0	43	0	1477443584	6	3970
2026-01-01 11:36:06.83	103.10	40.22	-23.0	-24.1	19.5	0.00e+00	0	43	0	1482686464	6	4052
2026-01-01 11:36:07.83	102.76	40.40	-23.2	-24.4	19.4	0.00e+00	0	43	0	1488977920	6	4127
2026-01-01 11:36:08.83	102.42	40.58	-23.2	-24.5	19.3	0.00e+00	0	43	0	1494220800	6	4152
2026-01-01 11:36:09.83	102.07	40.76	-23.3	-24.6	19.3	0.00e+00	0	43	0	1499463680	6	4190
2026-01-01 11:36:10.83	101.71	40.94	-23.3	-24.7	19.2	0.00e+00	0	43	0	1505755136	6	4199
2026-01-01 11:36:11.84	101.35	41.13	-23.4	-24.8	19.2	0.00e+00	0	43	0	1510998016	6	4249
2026-01-01 11:36:12.84	100.99	41.31	-23.5	-24.7	19.0	0.00e+00	0	43	0	1517289472	7	4090
2026-01-01 11:36:13.84	100.62	41.49	-23.7	-24.9	18.9	0.00e+00	0	43	0	1522532352	7	4154
2026-01-01 11:36:14.84	100.25	41.67	-23.2	-23.9	19.4	0.00e+00	0	43	0	1527775232	7	3905
2026-01-01 11:36:15.85	99.87	41.85	-22.8	-23.0	19.8	0.00e+00	0	43	0	1534066688	7	3698
2026-01-01 11:36:16.85	99.49	42.03	-22.7	-23.3	19.9	0.00e+00	0	43	0	1539309568	6	3862
2026-01-01 11:36:17.85	99.11	42.20	-22.9	-23.7	19.7	0.00e+00	0	43	0	1545601024	6	3970
2026-01-01 11:36:18.85	98.72	42.38	-22.9	-23.8	19.7	0.00e+00	0	43	0	1550843904	6	3982
2026-01-01 11:36:19.85	98.33	42.56	-23.0	-24.0	19.6	0.00e+00	0	43	0	1556086784	6	4040
2026-01-01 11:36:20.86	97.93	42.74	-22.9	-23.9	19.6	0.00e+00	0	43	0	1562378240	6	4013
2026-01-01 11:36:21.86	97.53	42.91	-22.9	-23.8	19.7	0.00e+00	0	43	0	1567621120	6	4002
2026-01-01 11:36:22.87	97.12	43.09	-22.9	-23.9	19.6	0.00e+00	0	43	0	1572864000	6	4001
2026-01-01 11:36:23.87	96.71	43.26	-22.7	-23.4	19.9	0.00e+00	0	43	0	1579155456	6	3897
2026-01-01 11:36:24.87	96.30	43.43	-22.8	-23.6	19.8	0.00e+00	0	43	0	1584398336	6	3930
2026-01-01 11:36:25.87	95.88	43.60	-23.0	-24.0	19.6	0.00e+00	0	43	0	1590689792	6	4039
2026-01-01 11:36:26.88	95.45	43.78	-22.9	-23.7	19.7	0.00e+00	0	43	0	1595932672	6	3975
2026-01-01 11:36:27.89	95.02	43.95	-22.7	-23.4	19.9	0.00e+00	0	43	0	1601175552	6	3902
2026-01-01 11:36:28.90	94.58	44.12	-22.8	-23.6	19.8	0.00e+00	0	43	0	1607467008	6	3944
2026-01-01 11:36:29.90	94.15	44.29	-22.7	-23.3	19.9	0.00e+00	0	43	0	1612709888	6	3874
2026-01-01 11:36:30.91	93.70	44.46	-22.7	-23.4	19.9	0.00e+00	0	43	0	1619001344	6	3888
2026-01-01 11:36:31.91	93.25	44.62	-22.8	-23.5	19.9	0.00e+00	0	43	0	1624244224	6	3917
2026-01-01 11:36:32.91	92.80	44.78	-22.8	-23.6	19.8	0.00e+00	0	43	0	1629487104	6	3935
2026-01-01 11:36:33.91	92.35	44.95	-22.6	-23.2	20.0	0.00e+00	0	43	0	1635778560	6	3833
2026-01-01 11:36:34.91	91.89	45.11	-22.6	-23.1	20.1	0.00e+00	0	43	0	1641021440	6	3812
2026-01-01 11:36:35.92	91.42	45.27	-22.9	-23.7	19.8	0.00e+00	0	43	0	1647312896	6	3958
2026-01-01 11:36:36.92	90.95	45.43	-22.8	-23.6	19.8	0.00e+00	0	43	0	1652555776	6	3937
2026-01-01 11:36:37.92	90.47	45.58	-22.8	-23.6	19.8	0.00e+00	0	43	0	1657798656	6	3940
2026-01-01 11:36:38.92	89.99	45.74	-22.8	-23.6	19.9	0.00e+00	0	43	0	1664090112	6	3928
2026-01-01 11:36:39.92	89.51	45.89	-22.9	-23.7	19.8	0.00e+00	0	43	0	1669332992	6	3963
2026-01-01 11:36:40.92	89.02	46.04	-23.3	-24.6	19.4	0.00e+00	0	43	0	1674575872	6	4191
2026-01-01 11:36:41.92	88.53	46.19	-23.3	-24.6	19.3	0.00e+00	0	43	0	1680867328	6	4183
2026-01-01 11:36:42.93	88.03	46.34	-23.6	-24.8	19.0	0.00e+00	0	43	0	1686110208	7	4116
2026-01-01 11:36:43.94	87.52	46.49	-23.6	-24.7	19.0	0.00e+00	0	43	0	1691353088	7	4101
2026-01-01 11:36:44.94	87.01	46.64	-23.3	-24.1	19.3	0.00e+00	0	43	0	1697644544	7	3951
2026-01-01 11:36:45.95	86.49	46.78	-23.1	-23.6	19.6	0.00e+00	0	43	0	1702887424	7	3825
2026-01-01 11:36:46.96	85.97	46.92	-23.3	-24.0	19.4	0.00e+00	0	43	0	1709178880	7	3925
2026-01-01 11:36:47.96	85.45	47.06	-23.5	-24.5	19.2	0.00e+00	0	43	0	1714421760	7	4046
2026-01-01 11:36:48.97	84.92	47.20	-23.5	-24.6	19.1	0.00e+00	0	43	0	1720713216	7	4076
2026-01-01 11:36:49.97	84.39	47.33	-23.5	-24.5	19.2	0.00e+00	0	43	0	1725956096	7	4048
2026-01-01 11:36:50.97	83.85	47.46	-23.6	-24.7	19.1	0.00e+00	0	43	0	1731198976	7	4099
2026-01-01 11:36:51.98	83.31	47.59	-23.4	-24.3	19.3	0.00e+00	0	43	0	1737490432	7	3999
2026-01-01 11:36:52.98	82.76	47.72	-23.4	-24.3	19.3	0.00e+00	0	43	0	1742733312	7	3992
2026-01-01 11:36:53.98	82.22	47.84	-23.5	-24.5	19.1	0.00e+00	0	43	0	1747976192	7	4052
2026-01-01 11:36:54.98	81.66	47.96	-23.5	-24.5	19.2	0.00e+00	0	43	0	1754267648	7	4038
2026-01-01 11:36:55.97	81.11	48.08	-23.4	-24.3	19.3	0.00e+00	0	43	0	1759510528	7	3986
2026-01-01 11:36:56.98	80.54	48.20	-23.4	-24.4	19.3	0.00e+00	0	43	0	1764753408	7	4008
2026-01-01 11:36:57.98	79.98	48.31	-23.4	-24.3	19.3	0.00e+00	0	43	0	1771044864	7	4002
2026-01-01 11:36:58.98	79.41	48.42	-23.5	-24.6	19.1	0.00e+00	0	43	0	1776287744	7	4060
2026-01-01 11:36:59.99	78.83	48.53	-23.6	-24.7	19.1	0.00e+00	0	43	0	1782579200	7	4090
2026-01-01 11:37:00.99	78.25	48.64	-23.6	-24.7	19.1	0.00e+00	0	43	0	1787822080	7	4091
2026-01-01 11:37:01.99	77.67	48.74	-23.6	-24.8	19.0	0.00e+00	0	43	0	1794113536	7	4121
2026-01-01 11:37:03.00	77.08	48.84	-23.9	-25.3	18.8	0.00e+00	0	43	0	1799356416	7	4242
2026-01-01 11:37:04.00	76.49	48.94	-23.6	-24.7	19.0	0.00e+00	0	43	0	1804599296	7	4103
2026-01-01 11:37:05.01	75.89	49.03	-23.3	-24.1	19.4	0.00e+00	0	43	0	1810890752	7	3944
2026-01-01 11:37:06.01	75.29	49.12	-23.3	-24.0	19.4	0.00e+00	0	43	0	1816133632	7	3927
2026-01-01 11:37:07.02	74.69	49.21	-23.5	-24.6	19.1	0.00e+00	0	43	0	1821376512	7	4055
2026-01-01 11:37:08.02	74.08	49.29	-23.4	-24.3	19.3	0.00e+00	0	43	0	1827667968	7	3985
2026-01-01 11:37:09.03	73.47	49.37	-23.2	-23.9	19.5	0.00e+00	0	43	0	1832910848	7	3884
2026-01-01 11:37:10.03	72.86	49.45	-23.4	-24.2	19.3	0.00e+00	0	43	0	1838153728	7	3965
2026-01-01 11:37:11.03	72.25	49.52	-23.3	-24.2	19.3	0.00e+00	0	43	0	1844445184	7	3966
2026-01-01 11:37:12.04	71.63	49.59	-23.2	-23.9	19.5	0.00e+00	0	43	0	1849688064	7	3900
2026-01-01 11:37:13.05	71.00	49.66	-23.0	-23.5	19.7	0.00e+00	0	43	0	1855979520	7	3796
2026-01-01 11:37:14.04	70.39	49.72	-23.2	-23.9	19.5	0.00e+00	0	43	0	1861222400	7	3891
2026-01-01 11:37:15.05	69.76	49.78	-23.4	-24.3	19.3	0.00e+00	0	43	0	1867513856	7	3996
2026-01-01 11:37:16.05	69.13	49.84	-23.8	-25.1	18.9	0.00e+00	0	43	0	1872756736	7	4188
2026-01-01 11:37:17.06	68.50	49.89	-23.5	-24.5	19.2	0.00e+00	0	43	0	1877999616	7	4046
2026-01-01 11:37:18.06	67.87	49.94	-23.4	-24.2	19.3	0.00e+00	0	43	0	1884291072	7	3960
2026-01-01 11:37:19.07	67.23	49.98	-23.6	-24.8	19.0	0.00e+00	0	43	0	1889533952	7	4121
2026-01-01 11:37:20.07	66.60	50.03	-23.7	-25.1	18.9	0.00e+00	0	43	0	1894776832	7	4186
2026-01-01 11:37:21.08	65.95	50.06	-23.7	-24.8	19.2	0.00e+00	0	43	0	1901068288	7	4107
2026-01-01 11:37:22.08	65.32	50.10	-23.2	-23.9	19.6	0.00e+00	0	43	0	1906311168	7	3878
2026-01-01 11:37:23.08	64.68	50.13	-23.1	-23.5	19.8	0.00e+00	0	43	0	1911554048	7	3799
2026-01-01 11:37:24.08	64.04	50.15	-23.2	-23.9	19.6	0.00e+00	0	43	0	1917845504	7	3885
2026-01-01 11:37:25.08	63.40	50.18	-23.1	-23.7	19.7	0.00e+00	0	43	0	1923088384	7	3834
2026-01-01 11:37:26.09	62.75	50.19	-23.1	-23.5	19.8	0.00e+00	0	43	0	1929379840	7	3800
2026-01-01 11:37:27.09	62.11	50.21	-23.2	-23.9	19.6	0.00e+00	0	43	0	1934622720	7	3883
2026-01-01 11:37:28.09	61.46	50.22	-23.3	-24.0	19.6	0.00e+00	0	43	0	1940914176	7	3911
2026-01-01 11:37:29.10	60.82	50.23	-23.7	-24.8	19.2	0.00e+00	0	43	0	1946157056	7	4095
2026-01-01 11:37:30.10	60.17	50.23	-23.7	-24.9	19.1	0.00e+00	0	43	0	1951399936	7	4140
2026-01-01 11:37:31.09	59.53	50.23	-23.9	-25.3	18.9	0.00e+00	0	43	0	1957691392	7	4229
2026-01-01 11:37:32.10	58.89	50.23	-23.6	-24.8	19.2	0.00e+00	0	43	0	1962934272	7	4089
2026-01-01 11:37:33.09	58.25	50.22	-23.4	-24.2	19.5	0.00e+00	0	43	0	1968177152	7	3962
2026-01-01 11:37:34.10	57.60	50.21	-23.2	-23.9	19.7	0.00e+00	0	43	0	1974468608	7	3875
2026-01-01 11:37:35.10	56.96	50.19	-23.3	-24.1	19.5	0.00e+00	0	43	0	1979711488	7	3922
2026-01-01 11:37:36.11	56.31	50.17	-23.3	-24.0	19.6	0.00e+00	0	43	0	1984954368	7	3905
2026-01-01 11:37:37.11	55.67	50.15	-23.5	-24.4	19.4	0.00e+00	0	43	0	1991245824	7	4004
2026-01-01 11:37:38.11	55.03	50.12	-23.7	-24.8	19.1	0.00e+00	0	43	0	1996488704	7	4111
2026-01-01 11:37:39.11	54.39	50.09	-23.4	-24.2	19.5	0.00e+00	0	43	0	2002780160	7	3956
2026-01-01 11:37:40.11	53.76	50.05	-23.3	-24.0	19.6	0.00e+00	0	43	0	2008023040	7	3907
2026-01-01 11:37:41.11	53.12	50.01	-23.4	-24.3	19.4	0.00e+00	0	43	0	2013265920	7	3975
2026-01-01 11:37:42.11	52.49	49.97	-23.4	-24.2	19.5	0.00e+00	0	43	0	2019557376	7	3965
2026-01-01 11:37:43.11	51.86	49.93	-23.7	-24.8	19.2	0.00e+00	0	43	0	2024800256	7	4104
2026-01-01 11:37:44.10	51.23	49.88	-23.7	-24.9	19.1	0.00e+00	0	43	0	2030043136	7	4119
2026-01-01 11:37:45.11	50.60	49.82	-23.4	-24.3	19.4	0.00e+00	0	43	0	2036334592	7	3969
2026-01-01 11:37:46.12	49.97	49.77	-23.2	-23.7	19.7	0.00e+00	0	43	0	2041577472	7	3847
2026-01-01 11:37:47.12	49.35	49.70	-23.1	-23.6	19.7	0.00e+00	0	43	0	2046820352	7	3818
2026-01-01 11:37:48.13	48.72	49.64	-23.2	-23.9	19.6	0.00e+00	0	43	0	2053111808	7	3882
2026-01-01 11:37:49.13	48.11	49.57	-23.3	-24.1	19.5	0.00e+00	0	43	0	2058354688	7	3933
2026-01-01 11:37:50.13	47.49	49.50	-23.7	-24.8	19.1	0.00e+00	0	43	0	2064646144	7	4111
2026-01-01 11:37:51.13	46.88	49.43	-23.4	-24.3	19.4	0.00e+00	0	43	0	2069889024	7	3972
2026-01-01 11:37:52.13	46.27	49.35	-23.3	-24.1	19.5	0.00e+00	0	43	0	2075131904	7	3930
2026-01-01 11:37:53.14	45.66	49.27	-23.6	-24.6	19.2	0.00e+00	0	43	0	2081423360	7	4059
2026-01-01 11:37:54.14	45.06	49.18	-23.6	-24.7	19.2	0.00e+00	0	43	0	2086666240	7	4096
2026-01-01 11:37:55.15	44.45	49.10	-23.4	-24.2	19.4	0.00e+00	0	43	0	2092957696	7	3958
2026-01-01 11:37:56.15	43.86	49.00	-23.2	-23.8	19.6	0.00e+00	0	43	0	2098200576	7	3863
2026-01-01 11:37:57.16	43.26	48.91	-23.3	-24.0	19.6	0.00e+00	0	43	0	2103443456	7	3911
2026-01-01 11:37:58.16	42.67	48.81	-23.2	-23.9	19.6	0.00e+00	0	43	0	2109734912	7	3883
2026-01-01 11:37:59.16	42.09	48.71	-23.1	-23.5	19.8	0.00e+00	0	43	0	2114977792	7	3804
2026-01-01 11:38:00.16	41.51	48.61	-23.2	-23.8	19.7	0.00e+00	0	43	0	2120220672	7	3863
2026-01-01 11:38:01.17	40.93	48.50	-23.5	-24.5	19.3	0.00e+00	0	43	0	2126512128	7	4026
2026-01-01 11:38:02.17	40.36	48.40	-23.6	-24.7	19.2	0.00e+00	0	43	0	2131755008	7	4068
2026-01-01 11:38:03.17	39.79	48.28	-23.7	-24.9	19.1	0.00e+00	0	43	0	2138046464	7	4123
2026-01-01 11:38:04.18	39.22	48.17	-23.7	-25.0	19.0	0.00e+00	0	43	0	2143289344	7	4146
2026-01-01 11:38:05.18	38.66	48.05	-23.6	-24.6	19.2	0.00e+00	0	43	0	2148532224	7	4061
2026-01-01 11:38:06.18	38.11	47.93	-23.6	-24.6	19.2	0.00e+00	0	43	0	2154823680	7	4047
2026-01-01 11:38:07.19	37.55	47.81	-23.6	-24.7	19.2	0.00e+00	0	43	0	2160066560	7	4082
2026-01-01 11:38:08.19	37.00	47.68	-23.6	-24.7	19.2	0.00e+00	0	43	0	2165309440	7	4074
2026-01-01 11:38:09.19	36.46	47.56	-23.9	-24.8	18.9	0.00e+00	0	43	0	2171600896	8	3996
2026-01-01 11:38:10.20	35.92	47.43	-23.4	-23.8	19.4	0.00e+00	0	43	0	2176843776	8	3760
2026-01-01 11:38:11.19	35.39	47.30	-23.0	-23.5	19.8	0.00e+00	0	43	0	2183135232	7	3786
2026-01-01 11:38:12.20	34.86	47.16	-22.8	-23.0	20.0	0.00e+00	0	43	0	2188378112	7	3682
2026-01-01 11:38:13.20	34.33	47.03	-22.8	-23.4	20.0	0.00e+00	0	43	0	2193620992	6	3888
2026-01-01 11:38:14.21	33.81	46.89	-22.8	-23.4	20.1	0.00e+00	0	43	0	2199912448	6	3883
2026-01-01 11:38:15.21	33.29	46.74	-22.6	-23.2	20.2	0.00e+00	0	43	0	2205155328	6	3820
2026-01-01 11:38:16.22	32.78	46.60	-22.6	-23.0	20.3	0.00e+00	0	43	0	2211446784	6	3789
2026-01-01 11:38:17.22	32.27	46.46	-22.6	-23.0	20.3	0.00e+00	0	43	0	2216689664	6	3781
2026-01-01 11:38:18.22	31.77	46.31	-22.3	-22.5	20.5	0.00e+00	0	44	0	2221932544	6	3673
2026-01-01 11:38:19.22	31.28	46.16	-22.2	-22.7	20.6	0.00e+00	0	43	0	2228224000	5	3818
2026-01-01 11:38:20.23	30.78	46.01	-22.3	-22.9	20.5	0.00e+00	0	43	0	2233466880	5	3860
2026-01-01 11:38:21.23	30.30	45.86	-22.5	-23.3	20.3	0.00e+00	0	43	0	2238709760	5	3977
2026-01-01 11:38:22.24	29.81	45.70	-22.7	-23.7	20.1	0.00e+00	0	44	0	2245001216	5	4059
2026-01-01 11:38:23.24	29.33	45.55	-22.6	-23.6	20.2	0.00e+00	0	43	0	2250244096	5	4030
2026-01-01 11:38:24.25	28.86	45.39	-22.8	-23.9	20.0	0.00e+00	0	43	0	2256535552	5	4118
2026-01-01 11:38:25.25	28.39	45.23	-22.9	-24.3	19.8	0.00e+00	0	43	0	2261778432	5	4211
2026-01-01 11:38:26.26	27.92	45.07	-22.9	-24.2	19.9	0.00e+00	0	43	0	2267021312	5	4191
2026-01-01 11:38:27.26	27.46	44.91	-22.9	-24.3	19.8	0.00e+00	0	43	0	2273312768	5	4203
2026-01-01 11:38:28.26	27.01	44.75	-23.2	-24.3	19.6	0.00e+00	0	43	0	2278555648	6	4099
2026-01-01 11:38:29.26	26.56	44.58	-23.4	-24.3	19.3	0.00e+00	0	43	0	2284847104	7	3979
2026-01-01 11:38:30.26	26.12	44.42	-22.9	-23.3	19.8	0.00e+00	0	43	0	2290089984	7	3755
2026-01-01 11:38:31.27	25.67	44.25	-22.6	-23.1	20.2	0.00e+00	0	43	0	2295332864	6	3801
2026-01-01 11:38:32.27	25.24	44.08	-22.3	-22.5	20.5	0.00e+00	0	44	0	2301624320	6	3678
2026-01-01 11:38:33.28	24.81	43.91	-22.2	-22.7	20.6	0.00e+00	0	43	0	2306867200	5	3814
2026-01-01 11:38:34.28	24.38	43.74	-22.3	-22.9	20.5	0.00e+00	0	43	0	2312110080	5	3860
2026-01-01 11:38:35.29	23.96	43.57	-22.4	-23.2	20.4	0.00e+00	0	43	0	2318401536	5	3933
2026-01-01 11:38:36.29	23.54	43.40	-22.3	-22.9	20.5	0.00e+00	0	43	0	2323644416	5	3880
2026-01-01 11:38:37.30	23.12	43.22	-22.4	-23.2	20.4	0.00e+00	0	43	0	2329935872	5	3939
2026-01-01 11:38:38.31	22.71	43.05	-22.6	-23.5	20.2	0.00e+00	0	43	0	2335178752	5	4015
2026-01-01 11:38:39.31	22.31	42.87	-22.6	-23.7	20.1	0.00e+00	0	44	0	2340421632	5	4056
2026-01-01 11:38:40.31	21.91	42.70	-22.7	-23.9	20.0	0.00e+00	0	43	0	2346713088	5	4101
2026-01-01 11:38:41.32	21.51	42.52	-22.6	-23.5	20.2	0.00e+00	0	43	0	2351955968	5	4024
2026-01-01 11:38:42.32	21.12	42.35	-22.6	-23.7	20.1	0.00e+00	0	43	0	2358247424	5	4053
2026-01-01 11:38:43.33	20.73	42.17	-22.7	-23.9	20.0	0.00e+00	0	43	0	2363490304	5	4104
2026-01-01 11:38:44.33	20.35	41.99	-22.5	-23.3	20.2	0.00e+00	0	43	0	2368733184	5	3972
2026-01-01 11:38:45.33	19.98	41.81	-22.4	-23.2	20.3	0.00e+00	0	43	0	2375024640	5	3938
2026-01-01 11:38:46.32	19.61	41.63	-22.5	-23.4	20.2	0.00e+00	0	43	0	2380267520	5	3987
2026-01-01 11:38:47.33	19.24	41.45	-22.6	-23.6	20.1	0.00e+00	0	43	0	2385510400	5	4029
2026-01-01 11:38:48.34	18.87	41.27	-22.6	-23.7	20.1	0.00e+00	0	43	0	2391801856	5	4058
2026-01-01 11:38:49.33	18.51	41.09	-22.7	-23.7	20.0	0.00e+00	0	43	0	2397044736	5	4069
2026-01-01 11:38:50.34	18.15	40.91	-22.7	-23.7	20.1	0.00e+00	0	43	0	2402287616	5	4066
2026-01-01 11:38:51.34	17.80	40.73	-22.7	-23.7	20.0	0.00e+00	0	43	0	2408579072	5	4072
2026-01-01 11:38:52.35	17.45	40.55	-22.7	-23.8	20.0	0.00e+00	0	43	0	2413821952	5	4074
2026-01-01 11:38:53.34	17.11	40.37	-22.6	-23.6	20.1	0.00e+00	0	44	0	2420113408	5	4025
2026-01-01 11:38:54.35	16.76	40.19	-22.7	-23.7	20.0	0.00e+00	0	43	0	2425356288	5	4069
2026-01-01 11:38:55.35	16.43	40.00	-22.5	-23.4	20.2	0.00e+00	0	43	0	2431647744	5	3994
2026-01-01 11:38:56.35	16.09	39.82	-22.4	-23.3	20.2	0.00e+00	0	43	0	2436890624	5	3955
2026-01-01 11:38:57.36	15.76	39.64	-22.4	-23.2	20.3	0.00e+00	0	43	0	2442133504	5	3942
2026-01-01 11:38:58.36	15.43	39.46	-22.3	-23.0	20.4	0.00e+00	0	44	0	2448424960	5	3890
2026-01-01 11:38:59.36	15.11	39.27	-22.4	-23.1	20.3	0.00e+00	0	43	0	2453667840	5	3919
2026-01-01 11:39:00.36	14.79	39.09	-22.5	-23.3	20.2	0.00e+00	0	43	0	2458910720	5	3975
2026-01-01 11:39:01.36	14.48	38.91	-22.5	-23.4	20.1	0.00e+00	0	43	0	2465202176	5	3997
2026-01-01 11:39:02.37	14.17	38.72	-22.4	-23.2	20.3	0.00e+00	0	43	0	2470445056	5	3938
2026-01-01 11:39:03.37	13.86	38.54	-22.4	-23.2	20.3	0.00e+00	0	43	0	2475687936	5	3944
2026-01-01 11:39:04.38	13.55	38.36	-22.5	-23.3	20.2	0.00e+00	0	44	0	2481979392	5	3966
2026-01-01 11:39:05.38	13.25	38.18	-22.5	-23.5	20.1	0.00e+00	0	43	0	2487222272	5	4002
2026-01-01 11:39:06.39	12.95	37.99	-22.5	-23.4	20.2	0.00e+00	0	43	0	2493513728	5	3998
2026-01-01 11:39:07.39	12.66	37.81	-22.6	-23.5	20.1	0.00e+00	0	43	0	2498756608	5	4021
2026-01-01 11:39:08.39	12.37	37.63	-22.5	-23.4	20.1	0.00e+00	0	43	0	2503999488	5	4003
2026-01-01 11:39:09.40	12.08	37.44	-22.6	-23.6	20.0	0.00e+00	0	43	0	2510290944	5	4040
2026-01-01 11:39:10.40	11.79	37.26	-22.6	-23.6	20.0	0.00e+00	0	43	0	2515533824	5	4043
2026-01-01 11:39:11.40	11.51	37.08	-22.4	-23.2	20.2	0.00e+00	0	43	0	2521825280	5	3938
2026-01-01 11:39:12.41	11.23	36.90	-22.4	-23.1	20.3	0.00e+00	0	43	0	2527068160	5	3917
2026-01-01 11:39:13.42	10.95	36.72	-22.4	-23.1	20.3	0.00e+00	0	43	0	2532311040	5	3925
2026-01-01 11:39:14.43	10.68	36.53	-22.3	-23.0	20.4	0.00e+00	0	44	0	2538602496	5	3883
2026-01-01 11:39:15.43	10.41	36.35	-22.3	-22.9	20.4	0.00e+00	0	43	0	2543845376	5	3875
2026-01-01 11:39:16.44	10.14	36.17	-22.3	-22.9	20.4	0.00e+00	0	44	0	2549088256	5	3867
2026-01-01 11:39:17.45	9.88	35.99	-22.2	-22.8	20.4	0.00e+00	0	43	0	2555379712	5	3845
2026-01-01 11:39:18.46	9.62	35.81	-22.3	-23.0	20.3	0.00e+00	0	43	0	2560622592	5	3909
2026-01-01 11:39:19.46	9.36	35.63	-22.3	-23.1	20.3	0.00e+00	0	43	0	2566914048	5	3920
2026-01-01 11:39:20.47	9.10	35.45	-22.2	-22.9	20.4	0.00e+00	0	43	0	2572156928	5	3872
2026-01-01 11:39:21.47	8.85	35.27	-22.3	-23.0	20.3	0.00e+00	0	43	0	2578448384	5	3900
2026-01-01 11:39:22.48	8.60	35.09	-22.3	-23.0	20.3	0.00e+00	0	43	0	2583691264	5	3900
2026-01-01 11:39:23.48	8.36	34.91	-22.1	-22.6	20.5	0.00e+00	0	44	0	2588934144	5	3810
2026-01-01 11:39:24.48	8.11	34.74	-22.1	-22.5	20.6	0.00e+00	0	43	0	2595225600	5	3774
2026-01-01 11:39:25.49	7.87	34.56	-22.1	-22.5	20.6	0.00e+00	0	43	0	2600468480	5	3773
2026-01-01 11:39:26.49	7.63	34.38	-22.1	-22.6	20.5	0.00e+00	0	43	0	2605711360	5	3799
2026-01-01 11:39:27.49	7.40	34.20	-22.2	-22.8	20.4	0.00e+00	0	43	0	2612002816	5	3850
2026-01-01 11:39:28.50	7.17	34.03	-22.3	-23.0	20.3	0.00e+00	0	43	0	2617245696	5	3888
2026-01-01 11:39:29.50	6.94	33.85	-22.4	-23.2	20.2	0.00e+00	0	43	0	2623537152	5	3953
2026-01-01 11:39:30.50	6.71	33.68	-22.6	-23.6	20.0	0.00e+00	0	43	0	2628780032	5	4035
2026-01-01 11:39:31.51	6.48	33.50	-22.7	-23.8	19.9	0.00e+00	0	43	0	2634022912	5	4092
2026-01-01 11:39:32.51	6.26	33.33	-22.7	-23.7	19.9	0.00e+00	0	43	0	2640314368	5	4080
2026-01-01 11:39:33.51	6.04	33.16	-22.7	-23.8	19.9	0.00e+00	0	43	0	2645557248	5	4091
2026-01-01 11:39:34.52	5.82	32.98	-22.6	-23.6	19.9	0.00e+00	0	43	0	2651848704	5	4047
2026-01-01 11:39:35.52	5.60	32.81	-22.3	-23.1	20.2	0.00e+00	0	43	0	2657091584	5	3910
2026-01-01 11:39:36.52	5.39	32.64	-22.3	-23.0	20.3	0.00e+00	0	43	0	2662334464	5	3895
2026-01-01 11:39:37.53	5.18	32.47	-22.5	-23.3	20.1	0.00e+00	0	43	0	2668625920	5	3977
2026-01-01 11:39:38.53	4.97	32.29	-22.6	-23.7	19.9	0.00e+00	0	43	0	2673868800	5	4063
2026-01-01 11:39:39.54	4.76	32.12	-22.8	-23.9	19.8	0.00e+00	0	43	0	2679111680	5	4128
2026-01-01 11:39:40.54	4.56	31.95	-22.8	-24.0	19.8	0.00e+00	0	43	0	2685403136	5	4143
2026-01-01 11:39:41.54	4.36	31.79	-22.8	-24.0	19.7	0.00e+00	0	43	0	2690646016	5	4142
2026-01-01 11:39:42.54	4.16	31.62	-22.9	-24.2	19.6	0.00e+00	0	43	0	2696937472	5	4198
2026-01-01 11:39:43.54	3.96	31.45	-22.9	-23.8	19.6	0.00e+00	0	43	0	2702180352	6	3977
2026-01-01 11:39:44.54	3.76	31.28	-22.9	-23.7	19.7	0.00e+00	0	43	0	2707423232	6	3952
2026-01-01 11:39:45.55	3.57	31.11	-22.9	-23.8	19.6	0.00e+00	0	43	0	2713714688	6	3970
2026-01-01 11:39:46.56	3.37	30.95	-22.9	-23.8	19.6	0.00e+00	0	43	0	2718957568	6	3985
2026-01-01 11:39:47.56	3.19	30.78	-23.0	-23.9	19.5	0.00e+00	0	44	0	2725249024	6	4011
2026-01-01 11:39:48.57	3.00	30.61	-23.0	-23.9	19.6	0.00e+00	0	43	0	2730491904	6	4005
2026-01-01 11:39:49.57	2.81	30.45	-22.9	-23.7	19.7	0.00e+00	0	43	0	2735734784	6	3943
2026-01-01 11:39:50.58	2.62	30.29	-22.9	-23.7	19.6	0.00e+00	0	44	0	2742026240	6	3949
2026-01-01 11:39:51.57	2.44	30.12	-22.9	-23.8	19.6	0.00e+00	0	44	0	2747269120	6	3978
2026-01-01 11:39:52.58	2.26	29.96	-23.0	-23.9	19.6	0.00e+00	0	44	0	2752512000	6	4004
2026-01-01 11:39:53.58	2.09	29.80	-23.0	-24.0	19.5	0.00e+00	0	44	0	2758803456	6	4023
2026-01-01 11:39:54.58	1.91	29.64	-23.1	-24.0	19.5	0.00e+00	0	43	0	2764046336	6	4034
2026-01-01 11:39:55.59	1.73	29.48	-23.1	-24.2	19.4	0.00e+00	0	43	0	2770337792	6	4085
2026-01-01 11:39:56.59	1.56	29.32	-23.1	-24.2	19.4	0.00e+00	0	43	0	2775580672	6	4073
2026-01-01 11:39:57.60	1.39	29.15	-23.2	-24.3	19.3	0.00e+00	0	44	0	2780823552	6	4102
2026-01-01 11:39:58.59	1.22	29.00	-23.2	-24.4	19.3	0.00e+00	0	43	0	2787115008	6	4118
2026-01-01 11:39:59.59	1.05	28.84	-23.3	-24.6	19.2	0.00e+00	0	43	0	2792357888	6	4166
2026-01-01 11:40:00.60	0.88	28.68	-23.3	-24.6	19.2	0.00e+00	0	43	0	2798649344	6	4181
2026-01-01 11:40:01.60	0.72	28.52	-23.2	-24.3	19.3	0.00e+00	0	43	0	2803892224	6	4107
2026-01-01 11:40:02.60	0.56	28.37	-23.1	-24.2	19.4	0.00e+00	0	43	0	2809135104	6	4089
2026-01-01 11:40:03.60	0.40	28.21	-23.1	-24.1	19.4	0.00e+00	0	43	0	2815426560	6	4049
2026-01-01 11:40:04.61	0.24	28.06	-23.1	-24.1	19.4	0.00e+00	0	43	0	2820669440	6	4054
2026-01-01 11:40:05.61	0.08	27.90	-23.1	-24.1	19.4	0.00e+00	0	43	0	2825912320	6	4039
2026-01-01 11:40:06.61	359.92	27.75	-23.0	-24.0	19.5	0.00e+00	0	43	0	2832203776	6	4023
2026-01-01 11:40:07.62	359.77	27.59	-23.1	-24.1	19.4	0.00e+00	0	43	0	2837446656	6	4047
2026-01-01 11:40:08.62	359.61	27.44	-23.1	-24.2	19.4	0.00e+00	0	43	0	2843738112	6	4065
2026-01-01 11:40:09.62	359.46	27.29	-23.1	-24.2	19.4	0.00e+00	0	43	0	2848980992	6	4080
2026-01-01 11:40:10.63	359.31	27.14	-23.2	-24.4	19.2	0.00e+00	0	43	0	2854223872	6	4132
2026-01-01 11:40:11.63	359.16	26.98	-23.2	-24.4	19.3	0.00e+00	0	43	0	2860515328	6	4119
2026-01-01 11:40:12.63	359.01	26.83	-23.2	-24.3	19.3	0.00e+00	0	43	0	2865758208	6	4096
2026-01-01 11:40:13.63	358.87	26.69	-23.2	-24.3	19.3	0.00e+00	0	43	0	2871001088	6	4099
2026-01-01 11:40:14.64	358.72	26.53	-23.2	-24.4	19.2	0.00e+00	0	43	0	2877292544	6	4122
2026-01-01 11:40:15.64	358.58	26.39	-23.2	-24.4	19.3	0.00e+00	0	43	0	2882535424	6	4113
2026-01-01 11:40:16.64	358.44	26.24	-23.1	-24.2	19.3	0.00e+00	0	43	0	2887778304	6	4076
2026-01-01 11:40:17.64	358.30	26.09	-23.1	-24.2	19.3	0.00e+00	0	43	0	2894069760	6	4073
2026-01-01 11:40:18.65	358.15	25.94	-23.2	-24.3	19.3	0.00e+00	0	43	0	2899312640	6	4103
2026-01-01 11:40:19.65	358.02	25.80	-23.2	-24.4	19.3	0.00e+00	0	43	0	2905604096	6	4115
2026-01-01 11:40:20.66	357.88	25.65	-23.2	-24.4	19.2	0.00e+00	0	43	0	2910846976	6	4126
2026-01-01 11:40:21.67	357.74	25.51	-23.2	-24.3	19.3	0.00e+00	0	43	0	2917138432	6	4107
2026-01-01 11:40:22.67	357.61	25.36	-23.2	-24.3	19.3	0.00e+00	0	43	0	2922381312	6	4096
2026-01-01 11:40:23.67	357.48	25.22	-23.3	-24.5	19.2	0.00e+00	0	43	0	2927624192	6	4154
2026-01-01 11:40:24.68	357.34	25.07	-23.3	-24.6	19.1	0.00e+00	0	43	0	2933915648	6	4163
2026-01-01 11:40:25.68	357.21	24.93	-23.4	-24.8	19.0	0.00e+00	0	43	0	2939158528	6	4224
2026-01-01 11:40:26.68	357.08	24.79	-23.4	-24.3	19.0	0.00e+00	0	43	0	2944401408	7	4002
2026-01-01 11:40:27.67	356.96	24.65	-23.2	-24.0	19.1	0.00e+00	0	43	0	2950692864	7	3911
2026-01-01 11:40:28.68	356.83	24.51	-23.2	-23.9	19.2	0.00e+00	0	43	0	2955935744	7	3892
2026-01-01 11:40:29.68	356.70	24.37	-23.2	-23.9	19.2	0.00e+00	0	43	0	2961178624	7	3899
2026-01-01 11:40:30.69	356.58	24.23	-23.3	-24.1	19.1	0.00e+00	0	43	0	2967470080	7	3940
2026-01-01 11:40:31.68	356.46	24.09	-23.4	-24.4	18.9	0.00e+00	0	43	0	2972712960	7	4003
2026-01-01 11:40:32.69	356.33	23.95	-23.4	-24.2	19.0	0.00e+00	0	43	0	2979004416	7	3954
2026-01-01 11:40:33.69	356.21	23.82	-23.3	-24.1	19.1	0.00e+00	0	43	0	2984247296	7	3935
2026-01-01 11:40:34.69	356.09	23.68	-23.3	-24.1	19.1	0.00e+00	0	43	0	2989490176	7	3938
2026-01-01 11:40:35.69	355.97	23.54	-23.4	-24.2	19.0	0.00e+00	0	44	0	2995781632	7	3969
2026-01-01 11:40:36.69	355.85	23.41	-23.4	-24.2	19.0	0.00e+00	0	43	0	3001024512	7	3962
2026-01-01 11:40:37.70	355.74	23.27	-23.6	-24.7	18.8	0.00e+00	0	43	0	3007315968	7	4087
2026-01-01 11:40:38.69	355.62	23.14	-23.6	-24.6	18.8	0.00e+00	0	43	0	3012558848	7	4058
2026-01-01 11:40:39.69	355.51	23.00	-23.4	-24.3	19.0	0.00e+00	0	43	0	3017801728	7	3983
2026-01-01 11:40:40.70	355.39	22.87	-23.4	-24.2	19.0	0.00e+00	0	43	0	3024093184	7	3975
2026-01-01 11:40:41.71	355.28	22.74	-23.5	-24.5	18.9	0.00e+00	0	43	0	3029336064	7	4025
2026-01-01 11:40:42.71	355.17	22.60	-23.6	-24.6	18.8	0.00e+00	0	43	0	3034578944	7	4067
2026-01-01 11:40:43.71	355.06	22.47	-23.6	-24.7	18.7	0.00e+00	0	43	0	3040870400	7	4095
2026-01-01 11:40:44.71	354.95	22.34	-23.7	-25.0	18.6	0.00e+00	0	43	0	3046113280	7	4154
2026-01-01 11:40:45.72	354.84	22.21	-23.7	-24.9	18.6	0.00e+00	0	44	0	3052404736	7	4145
2026-01-01 11:40:46.72	354.73	22.08	-23.7	-24.9	18.6	0.00e+00	0	43	0	3057647616	7	4145
2026-01-01 11:40:47.73	354.62	21.95	-23.7	-25.0	18.6	0.00e+00	0	43	0	3062890496	7	4158
2026-01-01 11:40:48.73	354.51	21.82	-23.7	-25.0	18.6	0.00e+00	0	44	0	3069181952	7	4153
2026-01-01 11:40:49.73	354.41	21.69	-23.9	-25.3	18.4	0.00e+00	0	43	0	3074424832	7	4239
2026-01-01 11:40:50.72	354.30	21.57	-23.9	-25.3	18.4	0.00e+00	0	43	0	3079667712	7	4243
2026-01-01 11:40:51.72	354.20	21.44	-23.9	-25.3	18.4	0.00e+00	0	43	0	3085959168	7	4234
2026-01-01 11:40:52.73	354.10	21.31	-23.9	-25.3	18.4	0.00e+00	0	43	0	3091202048	7	4236
2026-01-01 11:40:53.72	354.00	21.19	-23.9	-25.3	18.4	0.00e+00	0	43	0	3096444928	7	4251
2026-01-01 11:40:54.73	353.90	21.06	-23.9	-25.3	18.4	0.00e+00	0	43	0	3102736384	7	4253
2026-01-01 11:40:55.72	353.80	20.93	-24.0	-25.5	18.3	0.00e+00	0	43	0	3107979264	7	4289
2026-01-01 11:40:56.73	353.70	20.81	-23.9	-24.9	18.4	0.00e+00	0	43	0	3114270720	8	4013
2026-01-01 11:40:57.73	353.60	20.68	-23.8	-24.7	18.4	0.00e+00	0	44	0	3119513600	8	3990
2026-01-01 11:40:58.74	353.50	20.56	-23.9	-24.8	18.4	0.00e+00	0	44	0	3124756480	8	3993
2026-01-01 11:40:59.74	353.40	20.44	-23.9	-24.8	18.4	0.00e+00	0	43	0	3131047936	8	4002
2026-01-01 11:41:00.75	353.31	20.31	-23.9	-24.9	18.3	0.00e+00	0	43	0	3136290816	8	4024
2026-01-01 11:41:01.74	353.21	20.19	-23.9	-24.9	18.3	0.00e+00	0	43	0	3141533696	8	4031
2026-01-01 11:41:02.74	353.12	20.07	-24.1	-25.2	18.2	0.00e+00	0	43	0	3147825152	8	4109
2026-01-01 11:41:03.74	353.02	19.95	-24.0	-25.1	18.2	0.00e+00	0	43	0	3153068032	8	4080
2026-01-01 11:41:04.74	352.93	19.83	-24.0	-25.0	18.3	0.00e+00	0	43	0	3158310912	8	4054
2026-01-01 11:41:05.74	352.84	19.71	-24.1	-25.2	18.2	0.00e+00	0	43	0	3164602368	8	4091
2026-01-01 11:41:06.74	352.75	19.59	-24.1	-25.2	18.2	0.00e+00	0	43	0	3169845248	8	4095
2026-01-01 11:41:07.74	352.66	19.47	-24.1	-25.4	18.1	0.00e+00	0	43	0	3176136704	8	4138
2026-01-01 11:41:08.75	352.57	19.35	-24.1	-25.3	18.1	0.00e+00	0	43	0	3181379584	8	4137
2026-01-01 11:41:09.75	352.48	19.23	-24.2	-25.5	18.0	0.00e+00	0	43	0	3187671040	8	4176
2026-01-01 11:41:10.76	352.39	19.12	-24.2	-25.5	18.0	0.00e+00	0	43	0	3192913920	8	4166
2026-01-01 11:41:11.77	352.30	19.00	-24.2	-25.5	18.0	0.00e+00	0	43	0	3198156800	8	4180
2026-01-01 11:41:12.78	352.21	18.88	-24.3	-25.8	17.8	0.00e+00	0	43	0	3204448256	8	4257
2026-01-01 11:41:13.79	352.12	18.76	-24.3	-25.8	17.8	0.00e+00	0	43	0	3209691136	8	4245
2026-01-01 11:41:14.78	352.04	18.65	-24.4	-26.0	17.7	0.00e+00	0	43	0	3214934016	8	4304
2026-01-01 11:41:15.78	351.96	18.53	-24.6	-25.8	17.6	0.00e+00	0	43	0	3221225472	9	4134
2026-01-01 11:41:16.78	351.87	18.42	-24.8	-26.2	17.3	0.00e+00	0	43	0	3226468352	9	4249
2026-01-01 11:41:17.78	351.79	18.30	-24.7	-26.0	17.4	0.00e+00	0	44	0	3231711232	9	4201
2026-01-01 11:41:18.78	351.70	18.19	-24.6	-25.8	17.6	0.00e+00	0	43	0	3238002688	9	4139
2026-01-01 11:41:19.78	351.62	18.08	-24.5	-25.7	17.6	0.00e+00	0	43	0	3243245568	9	4118
2026-01-01 11:41:20.78	351.54	17.96	-24.5	-25.7	17.6	0.00e+00	0	43	0	3249537024	9	4115
2026-01-01 11:41:21.79	351.46	17.85	-24.7	-26.0	17.4	0.00e+00	0	43	0	3254779904	9	4210
2026-01-01 11:41:22.78	351.38	17.74	-24.6	-25.9	17.5	0.00e+00	0	43	0	3260022784	9	4171
2026-01-01 11:41:23.79	351.30	17.63	-24.5	-25.6	17.7	0.00e+00	0	43	0	3266314240	9	4089
2026-01-01 11:41:24.79	351.22	17.52	-24.5	-25.6	17.7	0.00e+00	0	43	0	3271557120	9	4080
2026-01-01 11:41:25.80	351.14	17.40	-24.5	-25.6	17.6	0.00e+00	0	43	0	3277848576	9	4101
2026-01-01 11:41:26.81	351.06	17.29	-24.6	-25.9	17.5	0.00e+00	0	44	0	3283091456	9	4179
2026-01-01 11:41:27.81	350.98	17.18	-24.7	-26.0	17.4	0.00e+00	0	44	0	3288334336	9	4206
2026-01-01 11:41:28.82	350.91	17.07	-24.7	-26.2	17.3	0.00e+00	0	43	0	3294625792	9	4235
2026-01-01 11:41:29.82	350.83	16.96	-24.9	-26.5	17.1	0.00e+00	0	43	0	3299868672	9	4324
2026-01-01 11:41:30.82	350.75	16.86	-24.9	-26.4	17.2	0.00e+00	0	43	0	3305111552	9	4308
2026-01-01 11:41:31.82	350.68	16.75	-24.9	-26.4	17.2	0.00e+00	0	43	0	3311403008	9	4307
2026-01-01 11:41:32.82	350.61	16.64	-24.9	-26.6	17.1	0.00e+00	0	44	0	3316645888	9	4338
2026-01-01 11:41:33.83	350.53	16.53	-25.0	-26.7	17.0	0.00e+00	0	43	0	3322937344	9	4367
2026-01-01 11:41:34.83	350.46	16.43	-24.9	-26.6	17.1	0.00e+00	0	43	0	3328180224	9	4341
2026-01-01 11:41:35.84	350.38	16.32	-25.0	-26.7	17.1	0.00e+00	0	43	0	3333423104	9	4368
2026-01-01 11:41:36.85	350.31	16.21	-25.0	-26.6	17.1	0.00e+00	0	43	0	3339714560	9	4361
2026-01-01 11:41:37.85	350.24	16.11	-25.1	-26.4	16.9	0.00e+00	0	43	0	3344957440	10	4177
2026-01-01 11:41:38.85	350.17	16.00	-25.3	-26.8	16.7	0.00e+00	0	43	0	3351248896	10	4275
2026-01-01 11:41:39.85	350.10	15.90	-25.2	-26.6	16.8	0.00e+00	0	43	0	3356491776	10	4235
2026-01-01 11:41:40.86	350.03	15.79	-25.2	-26.7	16.8	0.00e+00	0	43	0	3361734656	10	4264
2026-01-01 11:41:41.85	349.96	15.69	-25.2	-26.6	16.8	0.00e+00	0	43	0	3368026112	10	4235
2026-01-01 11:41:42.86	349.89	15.58	-25.2	-26.5	16.8	0.00e+00	0	43	0	3373268992	10	4221
2026-01-01 11:41:43.86	349.82	15.48	-25.3	-26.9	16.6	0.00e+00	0	43	0	3378511872	10	4307
2026-01-01 11:41:44.87	349.75	15.38	-25.2	-26.7	16.7	0.00e+00	0	43	0	3384803328	10	4264
2026-01-01 11:41:45.88	349.68	15.27	-25.2	-26.7	16.7	0.00e+00	0	43	0	3390046208	10	4257
2026-01-01 11:41:46.88	349.61	15.17	-25.3	-26.8	16.7	0.00e+00	0	43	0	3396337664	10	4296
2026-01-01 11:41:47.87	349.55	15.07	-25.3	-26.8	16.7	0.00e+00	0	43	0	3401580544	10	4285
2026-01-01 11:41:48.87	349.48	14.97	-25.3	-26.8	16.7	0.00e+00	0	43	0	3406823424	10	4284
2026-01-01 11:41:49.87	349.42	14.87	-25.4	-27.0	16.5	0.00e+00	0	43	0	3413114880	10	4355
2026-01-01 11:41:50.87	349.35	14.77	-25.3	-26.9	16.6	0.00e+00	0	43	0	3418357760	10	4323
2026-01-01 11:41:51.87	349.29	14.67	-25.3	-26.9	16.6	0.00e+00	0	44	0	3423600640	10	4312
2026-01-01 11:41:52.87	349.22	14.57	-25.4	-27.0	16.5	0.00e+00	0	43	0	3429892096	10	4352
2026-01-01 11:41:53.87	349.16	14.47	-25.4	-27.1	16.5	0.00e+00	0	43	0	3435134976	10	4373
2026-01-01 11:41:54.87	349.09	14.37	-25.4	-27.1	16.4	0.00e+00	0	43	0	3440377856	10	4388
2026-01-01 11:41:55.87	349.03	14.27	-25.4	-27.1	16.5	0.00e+00	0	44	0	3446669312	10	4372
2026-01-01 11:41:56.87	348.97	14.18	-25.4	-27.2	16.4	0.00e+00	0	43	0	3451912192	10	4401
2026-01-01 11:41:57.87	348.91	14.08	-25.4	-27.0	16.5	0.00e+00	0	43	0	3458203648	10	4364
2026-01-01 11:41:58.87	348.85	13.98	-25.5	-27.2	16.4	0.00e+00	0	44	0	3463446528	10	4400
2026-01-01 11:41:59.87	348.78	13.88	-25.4	-27.1	16.5	0.00e+00	0	43	0	3468689408	10	4368
2026-01-01 11:42:00.88	348.72	13.79	-25.5	-27.3	16.3	0.00e+00	0	43	0	3474980864	10	4442
2026-01-01 11:42:01.88	348.66	13.69	-25.4	-26.6	16.4	0.00e+00	0	43	0	3480223744	11	4136
2026-01-01 11:42:02.89	348.60	13.59	-25.4	-26.5	16.5	0.00e+00	0	44	0	3485466624	11	4108
2026-01-01 11:42:03.89	348.54	13.50	-25.4	-26.5	16.5	0.00e+00	0	43	0	3491758080	11	4110
2026-01-01 11:42:04.90	348.48	13.40	-25.3	-26.5	16.5	0.00e+00	0	44	0	3497000960	11	4099
2026-01-01 11:42:05.91	348.42	13.31	-25.5	-26.7	16.4	0.00e+00	0	43	0	3503292416	11	4155
2026-01-01 11:42:06.91	348.36	13.21	-25.5	-26.7	16.3	0.00e+00	0	44	0	3508535296	11	4165
2026-01-01 11:42:07.91	348.31	13.12	-25.7	-27.2	16.1	0.00e+00	0	43	0	3513778176	11	4301
2026-01-01 11:42:08.91	348.25	13.02	-25.6	-27.0	16.2	0.00e+00	0	44	0	3520069632	11	4232
2026-01-01 11:42:09.92	348.19	12.93	-25.6	-27.1	16.1	0.00e+00	0	43	0	3525312512	11	4256
2026-01-01 11:42:10.92	348.13	12.83	-25.7	-27.2	16.1	0.00e+00	0	44	0	3531603968	11	4291
2026-01-01 11:42:11.91	348.08	12.74	-25.6	-27.1	16.1	0.00e+00	0	43	0	3536846848	11	4250
2026-01-01 11:42:12.91	348.02	12.65	-25.8	-27.5	15.9	0.00e+00	0	44	0	3542089728	11	4364
2026-01-01 11:42:13.91	347.97	12.56	-25.8	-27.4	16.0	0.00e+00	0	43	0	3548381184	11	4328
2026-01-01 11:42:14.92	347.91	12.46	-25.7	-27.3	16.0	0.00e+00	0	44	0	3553624064	11	4308
2026-01-01 11:42:15.92	347.86	12.37	-25.7	-27.3	16.0	0.00e+00	0	44	0	3558866944	11	4309
2026-01-01 11:42:16.92	347.80	12.28	-25.9	-27.7	15.7	0.00e+00	0	43	0	3565158400	11	4441
2026-01-01 11:42:17.93	347.75	12.19	-25.8	-27.6	15.8	0.00e+00	0	44	0	3570401280	11	4397
2026-01-01 11:42:18.93	347.69	12.10	-25.9	-27.7	15.7	0.00e+00	0	43	0	3575644160	11	4416
2026-01-01 11:42:19.93	347.64	12.01	-25.9	-27.7	15.8	0.00e+00	0	44	0	3581935616	11	4419
2026-01-01 11:42:20.94	347.59	11.92	-25.9	-27.8	15.7	0.00e+00	0	43	0	3587178496	11	4445
2026-01-01 11:42:21.93	347.53	11.83	-25.8	-27.6	15.8	0.00e+00	0	43	0	3593469952	11	4393
2026-01-01 11:42:22.94	347.48	11.74	-26.0	-27.9	15.6	0.00e+00	0	43	0	3598712832	11	4477
2026-01-01 11:42:23.94	347.43	11.65	-25.9	-27.2	15.7	0.00e+00	0	43	0	3603955712	12	4175
2026-01-01 11:42:24.95	347.38	11.56	-26.0	-27.4	15.5	0.00e+00	0	43	0	3610247168	12	4236
2026-01-01 11:42:25.95	347.33	11.47	-26.1	-27.8	15.3	0.00e+00	0	44	0	3615490048	12	4345
2026-01-01 11:42:26.95	347.27	11.38	-26.3	-28.1	15.1	0.00e+00	0	44	0	3621781504	12	4449
2026-01-01 11:42:27.96	347.22	11.29	-26.2	-27.9	15.3	0.00e+00	0	43	0	3627024384	12	4365
2026-01-01 11:42:28.96	347.17	11.21	-26.1	-27.7	15.3	0.00e+00	0	43	0	3632267264	12	4335
2026-01-01 11:42:29.97	347.12	11.12	-26.2	-28.0	15.2	0.00e+00	0	43	0	3638558720	12	4403
2026-01-01 11:42:30.97	347.07	11.03	-26.2	-28.0	15.2	0.00e+00	0	43	0	3643801600	12	4404
2026-01-01 11:42:31.97	347.02	10.94	-26.3	-28.2	15.0	0.00e+00	0	43	0	3649044480	12	4454
2026-01-01 11:42:32.98	346.97	10.86	-26.2	-27.9	15.2	0.00e+00	0	44	0	3655335936	12	4369
2026-01-01 11:42:33.99	346.92	10.77	-26.1	-27.7	15.3	0.00e+00	0	43	0	3660578816	12	4330
2026-01-01 11:42:34.99	346.88	10.68	-26.2	-27.9	15.2	0.00e+00	0	43	0	3666870272	12	4369
2026-01-01 11:42:35.99	346.83	10.60	-26.2	-27.8	15.2	0.00e+00	0	43	0	3672113152	12	4361
2026-01-01 11:42:37.00	346.78	10.51	-26.2	-28.0	15.1	0.00e+00	0	43	0	3678404608	12	4417
2026-01-01 11:42:38.00	346.73	10.43	-26.2	-27.9	15.2	0.00e+00	0	43	0	3683647488	12	4375
2026-01-01 11:42:39.01	346.68	10.34	-26.2	-28.0	15.1	0.00e+00	0	43	0	3688890368	12	4406
2026-01-01 11:42:40.01	346.64	10.26	-26.3	-28.2	15.0	0.00e+00	0	44	0	3695181824	12	4456
2026-01-01 11:42:41.01	346.59	10.17	-26.4	-28.3	14.9	0.00e+00	0	44	0	3700424704	12	4489
2026-01-01 11:42:42.02	346.54	10.09	-26.3	-28.1	15.0	0.00e+00	0	44	0	3705667584	12	4437
2026-01-01 11:42:43.01	346.50	10.00	-26.3	-28.1	15.0	0.00e+00	0	43	0	3711959040	12	4444
2026-01-01 11:42:44.01	346.45	9.92	-26.4	-28.3	14.9	0.00e+00	0	43	0	3717201920	12	4499
2026-01-01 11:42:45.01	346.41	9.84	-26.3	-28.2	15.0	0.00e+00	0	43	0	3722444800	12	4468
2026-01-01 11:42:46.01	346.36	9.75	-26.4	-28.3	14.9	0.00e+00	0	44	0	3728736256	12	4509
2026-01-01 11:42:47.01	346.32	9.67	-26.4	-28.3	14.9	0.00e+00	0	44	0	3733979136	12	4502
2026-01-01 11:42:48.02	346.27	9.59	-26.5	-28.5	14.7	0.00e+00	0	43	0	3740270592	12	4562
2026-01-01 11:42:49.02	346.23	9.51	-26.4	-28.3	14.9	0.00e+00	0	44	0	3745513472	12	4506
2026-01-01 11:42:50.02	346.18	9.42	-26.5	-28.6	14.7	0.00e+00	0	43	0	3750756352	12	4570
2026-01-01 11:42:51.02	346.14	9.34	-26.4	-28.4	14.8	1.10e-06	0	43	0	3757047808	12	4532
2026-01-01 11:42:52.03	346.09	9.26	-26.5	-28.6	14.7	0.00e+00	0	43	0	3762290688	12	4576
2026-01-01 11:42:53.04	346.05	9.18	-26.5	-28.1	14.6	1.10e-06	0	43	0	3767533568	13	4334
2026-01-01 11:42:54.05	346.01	9.10	-26.7	-28.6	14.4	0.00e+00	0	43	0	3773825024	13	4460
2026-01-01 11:42:55.04	345.96	9.02	-26.5	-28.1	14.6	1.10e-06	0	43	0	3779067904	13	4342
2026-01-01 11:42:56.04	345.92	8.93	-26.6	-28.4	14.5	0.00e+00	0	43	0	3784310784	13	4430
2026-01-01 11:42:57.04	345.88	8.85	-26.7	-28.6	14.4	0.00e+00	0	43	0	3790602240	13	4465
2026-01-01 11:42:58.05	345.84	8.77	-26.7	-28.5	14.4	1.10e-06	0	43	0	3795845120	13	4439
2026-01-01 11:42:59.05	345.79	8.69	-26.9	-28.9	14.1	0.00e+00	0	43	0	3802136576	13	4570
2026-01-01 11:43:00.05	345.75	8.61	-26.7	-28.5	14.4	0.00e+00	0	43	0	3807379456	13	4443
2026-01-01 11:43:01.05	345.71	8.53	-26.6	-28.4	14.5	1.10e-06	0	43	0	3813670912	13	4420
2026-01-01 11:43:02.05	345.67	8.46	-26.6	-28.4	14.4	2.20e-06	0	43	0	3818913792	13	4426
2026-01-01 11:43:03.06	345.63	8.38	-26.6	-28.3	14.5	0.00e+00	0	44	0	3824156672	13	4389
2026-01-01 11:43:04.06	345.59	8.30	-26.7	-28.6	14.3	0.00e+00	0	43	0	3830448128	13	4486
2026-01-01 11:43:05.07	345.55	8.22	-26.6	-28.4	14.4	1.10e-06	0	43	0	3835691008	13	4426
2026-01-01 11:43:06.07	345.51	8.14	-26.8	-28.7	14.2	0.00e+00	0	43	0	3840933888	13	4512
2026-01-01 11:43:07.08	345.47	8.06	-26.6	-28.5	14.3	0.00e+00	0	43	0	3847225344	13	4441
2026-01-01 11:43:08.08	345.43	7.98	-26.7	-28.6	14.2	2.20e-06	0	43	0	3852468224	13	4492
2026-01-01 11:43:09.09	345.39	7.91	-26.7	-28.6	14.2	0.00e+00	0	44	0	3857711104	13	4472
2026-01-01 11:43:10.08	345.35	7.83	-26.8	-28.9	14.1	1.10e-06	0	43	0	3864002560	13	4554
