passes_logs/2026/01/01/R2M6_AANII_01/R2M6_AANII_01__20260101_225902_NOAA_20_JPSS-1_rec.log

#Pass ID: 20260101_225902_NOAA 20 (JPSS-1)
#Satellite: NOAA 20 (JPSS-1)
#Configuration: NOAA 20
#almurnet v.1.7.20240730
#Start time: 2026-01-01 22:59:01

#Version: 2.2.20231116
#Station: R2M6_AANII_01
#Location: 30.233357 lon 59.946436 lat
#TLE: 1 43013U 17073A   26001.30344297  .00000183  00000+0  10758-3 0  9995
#TLE: 2 43013  98.7621 302.3885 0001938  59.1624 300.9742 14.19532032420790

#Time	Az	El	Level	Level2	SNR	BER	BlckErr	Temp	State	Recorded	gain1	gain2
2026-01-01 22:59:01.98	27.40	6.97	-30.9	-36.9	5.2	1.20e+00	0	41	0	0	21	7193
2026-01-01 22:59:02.97	27.48	7.04	-31.7	-39.9	4.5	1.34e+00	0	41	104	0	23	9248
2026-01-01 22:59:03.98	27.56	7.11	-31.7	-39.9	5.7	4.51e-01	0	41	0	0	23	9307
2026-01-01 22:59:04.99	27.64	7.17	-31.6	-39.4	6.0	3.29e-01	0	41	0	1048576	23	8805
2026-01-01 22:59:05.99	27.72	7.24	-31.7	-40.0	5.7	3.77e-01	0	41	0	3145728	23	9361
2026-01-01 22:59:07.00	27.80	7.31	-31.6	-39.4	6.1	3.63e-01	0	41	0	5242880	23	8787
2026-01-01 22:59:08.00	27.88	7.38	-31.5	-38.6	6.6	2.25e-01	0	41	0	7340032	23	8165
2026-01-01 22:59:09.01	27.97	7.44	-31.4	-38.0	7.1	1.50e-01	0	41	0	9437184	23	7710
2026-01-01 22:59:10.01	28.05	7.51	-31.3	-37.7	7.7	1.12e-01	0	41	0	10485760	22	7560
2026-01-01 22:59:11.01	28.13	7.58	-31.1	-37.2	8.2	7.71e-02	0	41	0	12582912	22	7194
2026-01-01 22:59:12.00	28.21	7.65	-31.0	-36.4	8.8	3.91e-02	0	41	0	14680064	22	6733
2026-01-01 22:59:13.00	28.30	7.72	-30.9	-36.5	9.1	2.73e-02	0	41	0	16777216	21	6900
2026-01-01 22:59:14.00	28.38	7.78	-31.0	-36.9	8.8	2.80e-02	0	41	0	17825792	21	7142
2026-01-01 22:59:15.00	28.46	7.85	-30.7	-35.9	9.5	1.60e-02	0	41	0	19922944	21	6563
2026-01-01 22:59:16.00	28.55	7.92	-30.6	-35.4	9.9	1.05e-02	0	41	0	22020096	21	6264
2026-01-01 22:59:17.00	28.63	7.99	-30.4	-34.8	10.5	5.58e-03	0	41	0	24117248	21	5955
2026-01-01 22:59:18.00	28.72	8.06	-30.3	-34.5	10.7	3.31e-03	0	41	0	26214400	21	5821
2026-01-01 22:59:19.01	28.80	8.13	-30.3	-34.8	11.0	2.86e-03	0	41	0	27262976	20	6033
2026-01-01 22:59:20.01	28.89	8.20	-30.3	-34.8	10.9	2.10e-03	0	41	0	29360128	20	6051
2026-01-01 22:59:21.01	28.98	8.27	-30.4	-35.2	10.5	3.34e-03	0	41	0	31457280	20	6274
2026-01-01 22:59:22.01	29.06	8.33	-30.2	-34.6	11.0	2.86e-03	0	41	0	33554432	20	5966
2026-01-01 22:59:23.01	29.15	8.40	-30.0	-34.0	11.5	9.92e-04	0	41	0	35651584	20	5669
2026-01-01 22:59:24.02	29.24	8.47	-29.9	-33.7	11.7	1.32e-03	0	41	0	36700160	20	5532
2026-01-01 22:59:25.02	29.33	8.54	-30.1	-34.0	11.4	2.51e-03	0	41	0	38797312	20	5697
2026-01-01 22:59:26.03	29.42	8.61	-30.1	-34.3	11.3	9.63e-04	0	41	0	40894464	20	5804
2026-01-01 22:59:27.03	29.50	8.68	-30.3	-34.9	10.8	2.03e-03	0	41	0	42991616	20	6102
2026-01-01 22:59:28.03	29.59	8.75	-30.2	-34.4	11.2	2.53e-03	0	41	0	45088768	20	5871
2026-01-01 22:59:29.03	29.68	8.83	-30.2	-34.3	11.3	1.09e-03	0	41	0	46137344	20	5819
2026-01-01 22:59:30.03	29.77	8.90	-30.2	-34.4	11.3	1.45e-03	0	41	0	48234496	20	5858
2026-01-01 22:59:31.03	29.86	8.97	-30.1	-34.2	11.4	1.17e-03	0	42	0	50331648	20	5739
2026-01-01 22:59:32.03	29.95	9.04	-30.1	-34.2	11.4	9.21e-04	0	41	0	52428800	20	5774
2026-01-01 22:59:33.03	30.05	9.11	-30.2	-34.3	11.3	1.11e-03	0	41	0	54525952	20	5801
2026-01-01 22:59:34.03	30.14	9.18	-30.3	-34.9	10.9	1.68e-03	0	42	0	55574528	20	6069
2026-01-01 22:59:35.03	30.23	9.25	-30.1	-34.2	11.4	1.43e-03	0	41	0	57671680	20	5761
2026-01-01 22:59:36.04	30.32	9.32	-30.0	-33.8	11.8	6.57e-04	0	42	0	59768832	20	5551
2026-01-01 22:59:37.04	30.42	9.39	-29.9	-33.5	12.0	5.41e-04	0	42	0	61865984	20	5424
2026-01-01 22:59:38.04	30.51	9.46	-29.8	-33.6	12.3	2.59e-04	0	42	0	62914560	19	5571
2026-01-01 22:59:39.04	30.60	9.54	-29.9	-33.9	12.1	2.33e-04	0	42	0	65011712	19	5717
2026-01-01 22:59:40.04	30.70	9.61	-29.9	-33.9	12.2	6.07e-04	0	42	0	67108864	19	5698
2026-01-01 22:59:41.05	30.79	9.68	-30.0	-34.1	12.0	2.97e-04	0	42	0	69206016	19	5772
2026-01-01 22:59:42.05	30.89	9.75	-29.8	-33.7	12.3	7.61e-04	0	42	0	71303168	19	5588
2026-01-01 22:59:43.06	30.98	9.83	-29.6	-33.1	12.7	1.01e-04	0	42	0	72351744	19	5353
2026-01-01 22:59:44.06	31.08	9.90	-29.6	-33.1	12.7	8.39e-05	0	42	0	74448896	19	5349
2026-01-01 22:59:45.05	31.17	9.97	-29.6	-33.1	12.7	6.65e-04	0	42	0	76546048	19	5366
2026-01-01 22:59:46.06	31.27	10.04	-29.6	-32.9	12.8	5.41e-05	0	42	0	78643200	19	5301
2026-01-01 22:59:47.06	31.37	10.12	-29.6	-32.9	12.8	6.86e-05	0	42	0	80740352	19	5277
2026-01-01 22:59:48.07	31.47	10.19	-29.5	-32.8	12.9	7.86e-04	0	42	0	81788928	19	5243
2026-01-01 22:59:49.06	31.57	10.26	-29.6	-32.9	12.8	8.75e-04	0	42	0	83886080	19	5288
2026-01-01 22:59:50.06	31.66	10.34	-29.7	-33.3	12.5	9.53e-05	0	42	0	85983232	19	5456
2026-01-01 22:59:51.07	31.77	10.41	-29.7	-33.2	12.7	8.97e-04	0	42	0	88080384	19	5393
2026-01-01 22:59:52.07	31.86	10.48	-29.8	-33.5	12.5	8.29e-04	0	42	0	90177536	19	5508
2026-01-01 22:59:53.08	31.97	10.56	-29.9	-33.8	12.3	1.58e-04	0	42	0	91226112	19	5627
2026-01-01 22:59:54.08	32.07	10.63	-29.9	-33.9	12.2	2.30e-04	0	42	0	93323264	19	5693
2026-01-01 22:59:55.08	32.17	10.71	-29.9	-33.4	12.1	8.41e-04	0	42	0	95420416	20	5395
2026-01-01 22:59:56.09	32.27	10.78	-30.1	-33.9	11.8	3.58e-04	0	42	0	97517568	20	5587
2026-01-01 22:59:57.09	32.37	10.86	-30.2	-34.3	11.5	8.33e-04	0	42	0	99614720	20	5792
2026-01-01 22:59:58.10	32.48	10.93	-30.1	-33.9	11.8	1.02e-03	0	42	0	100663296	20	5590
2026-01-01 22:59:59.10	32.58	11.01	-30.1	-34.0	11.7	6.14e-04	0	42	0	102760448	20	5629
2026-01-01 23:00:00.10	32.68	11.08	-29.9	-33.5	12.1	4.09e-04	0	42	0	104857600	20	5421
2026-01-01 23:00:01.10	32.79	11.16	-30.0	-33.5	12.1	2.20e-04	0	42	0	106954752	20	5410
2026-01-01 23:00:02.10	32.89	11.23	-29.9	-33.4	12.2	2.10e-04	0	42	0	108003328	20	5365
2026-01-01 23:00:03.10	33.00	11.31	-30.0	-33.5	12.2	2.17e-04	0	42	0	110100480	20	5414
2026-01-01 23:00:04.10	33.10	11.38	-30.0	-33.5	12.2	2.39e-04	0	42	0	112197632	20	5406
2026-01-01 23:00:05.11	33.21	11.46	-30.1	-34.1	11.8	3.53e-04	0	42	0	114294784	20	5659
2026-01-01 23:00:06.11	33.32	11.53	-30.2	-34.3	11.6	6.06e-04	0	42	0	116391936	20	5752
2026-01-01 23:00:07.11	33.42	11.61	-30.0	-33.7	12.0	4.00e-04	0	42	0	117440512	20	5501
2026-01-01 23:00:08.11	33.53	11.69	-29.8	-33.1	12.4	1.81e-04	0	42	0	119537664	20	5252
2026-01-01 23:00:09.11	33.64	11.76	-29.8	-32.9	12.6	1.47e-04	0	42	0	121634816	20	5153
2026-01-01 23:00:10.11	33.75	11.84	-29.9	-33.9	12.3	1.36e-04	0	42	0	123731968	19	5663
2026-01-01 23:00:11.12	33.86	11.92	-29.9	-33.6	12.6	1.13e-04	0	42	0	125829120	19	5553
2026-01-01 23:00:12.12	33.97	11.99	-30.1	-33.8	12.0	1.76e-04	0	42	0	126877696	20	5544
2026-01-01 23:00:13.12	34.08	12.07	-30.2	-34.2	11.6	6.94e-04	0	42	0	128974848	20	5711
2026-01-01 23:00:14.13	34.19	12.15	-29.8	-33.2	12.4	2.91e-04	0	42	0	131072000	20	5288
2026-01-01 23:00:15.13	34.30	12.22	-29.7	-33.4	12.2	9.30e-05	0	42	0	133169152	19	5477
2026-01-01 23:00:16.14	34.42	12.30	-29.7	-33.2	12.6	5.97e-04	0	42	0	135266304	19	5402
2026-01-01 23:00:17.14	34.53	12.38	-29.8	-33.5	12.5	8.69e-05	0	42	0	136314880	19	5525
2026-01-01 23:00:18.14	34.64	12.46	-29.8	-33.4	12.3	8.54e-05	0	42	0	138412032	19	5467
2026-01-01 23:00:19.15	34.76	12.53	-29.8	-33.6	12.2	8.46e-05	0	42	0	140509184	19	5546
2026-01-01 23:00:20.15	34.87	12.61	-29.9	-33.6	12.5	1.31e-04	0	42	0	142606336	19	5563
2026-01-01 23:00:21.16	34.99	12.69	-29.8	-33.5	12.2	9.23e-05	0	42	0	144703488	19	5518
2026-01-01 23:00:22.16	35.10	12.77	-29.9	-33.6	12.3	8.31e-05	0	42	0	145752064	19	5537
2026-01-01 23:00:23.15	35.22	12.85	-29.7	-33.2	12.9	5.03e-05	0	42	0	147849216	19	5394
2026-01-01 23:00:24.16	35.34	12.93	-29.8	-33.5	12.4	9.91e-05	0	42	0	149946368	19	5501
2026-01-01 23:00:25.16	35.46	13.00	-29.6	-32.9	12.7	4.88e-05	0	42	0	152043520	19	5268
2026-01-01 23:00:26.16	35.57	13.08	-29.6	-32.7	13.2	2.21e-05	0	43	0	153092096	19	5170
2026-01-01 23:00:27.17	35.69	13.16	-29.5	-32.5	13.1	1.83e-05	0	42	0	155189248	19	5081
2026-01-01 23:00:28.16	35.81	13.24	-29.5	-32.6	13.1	1.90e-05	0	42	0	157286400	19	5151
2026-01-01 23:00:29.17	35.93	13.32	-29.6	-32.7	13.2	1.90e-05	0	42	0	159383552	19	5179
2026-01-01 23:00:30.17	36.05	13.40	-29.6	-32.8	13.1	2.43e-04	0	42	0	161480704	19	5201
2026-01-01 23:00:31.17	36.17	13.48	-29.7	-33.1	12.9	3.05e-05	0	42	0	162529280	19	5337
2026-01-01 23:00:32.17	36.30	13.56	-29.8	-33.3	12.8	4.42e-05	0	42	0	164626432	19	5409
2026-01-01 23:00:33.17	36.42	13.64	-29.8	-33.3	12.8	6.33e-05	0	42	0	166723584	19	5411
2026-01-01 23:00:34.17	36.54	13.72	-29.8	-33.4	12.7	5.41e-05	0	42	0	168820736	19	5435
2026-01-01 23:00:35.17	36.66	13.80	-29.8	-33.5	12.8	6.48e-05	0	42	0	170917888	19	5474
2026-01-01 23:00:36.17	36.79	13.88	-29.8	-33.3	12.7	5.41e-05	0	42	0	171966464	19	5425
2026-01-01 23:00:37.17	36.91	13.96	-29.7	-33.2	12.8	4.34e-05	0	43	0	174063616	19	5351
2026-01-01 23:00:38.17	37.04	14.04	-29.6	-33.0	13.1	2.89e-05	0	42	0	176160768	19	5266
2026-01-01 23:00:39.17	37.17	14.12	-29.8	-33.3	12.8	3.35e-05	0	42	0	178257920	19	5387
2026-01-01 23:00:40.17	37.29	14.20	-29.8	-33.5	12.7	4.80e-05	0	43	0	180355072	19	5490
2026-01-01 23:00:41.18	37.42	14.28	-29.7	-33.1	13.0	5.49e-05	0	43	0	181403648	19	5334
2026-01-01 23:00:42.18	37.55	14.36	-29.7	-33.0	13.1	2.21e-05	0	42	0	183500800	19	5261
2026-01-01 23:00:43.18	37.68	14.44	-29.7	-33.0	13.1	2.89e-05	0	42	0	185597952	19	5276
2026-01-01 23:00:44.18	37.81	14.53	-29.7	-32.9	13.3	2.36e-05	0	42	0	187695104	19	5228
2026-01-01 23:00:45.19	37.94	14.61	-29.7	-32.9	13.2	3.20e-05	0	42	0	189792256	19	5235
2026-01-01 23:00:46.19	38.07	14.69	-29.7	-33.0	13.2	1.90e-05	0	43	0	190840832	19	5265
2026-01-01 23:00:47.19	38.20	14.77	-29.6	-32.9	13.2	2.59e-05	0	43	0	192937984	19	5231
2026-01-01 23:00:48.19	38.34	14.85	-29.7	-33.0	13.1	2.67e-05	0	42	0	195035136	19	5285
2026-01-01 23:00:49.19	38.47	14.94	-29.7	-32.9	13.2	1.90e-05	0	42	0	197132288	19	5228
2026-01-01 23:00:50.20	38.60	15.02	-29.6	-32.8	13.3	1.90e-05	0	43	0	198180864	19	5180
2026-01-01 23:00:51.20	38.74	15.10	-29.7	-33.0	13.1	2.28e-05	0	43	0	200278016	19	5281
2026-01-01 23:00:52.20	38.87	15.18	-29.5	-32.5	13.4	1.06e-05	0	43	0	202375168	19	5094
2026-01-01 23:00:53.20	39.01	15.27	-29.6	-32.7	13.4	1.60e-05	0	43	0	204472320	19	5143
2026-01-01 23:00:54.20	39.15	15.35	-29.7	-33.0	13.2	2.19e-04	0	43	0	206569472	19	5260
2026-01-01 23:00:55.21	39.29	15.43	-29.6	-32.7	13.4	8.30e-06	0	43	0	207618048	19	5155
2026-01-01 23:00:56.21	39.42	15.52	-29.5	-32.5	13.5	9.10e-06	0	43	0	209715200	19	5087
2026-01-01 23:00:57.22	39.56	15.60	-29.6	-32.7	13.4	1.44e-05	0	43	0	211812352	19	5135
2026-01-01 23:00:58.22	39.70	15.68	-29.6	-32.6	13.4	6.48e-05	0	43	0	213909504	19	5118
2026-01-01 23:00:59.22	39.84	15.77	-29.5	-32.6	13.5	6.80e-06	0	42	0	216006656	19	5098
2026-01-01 23:01:00.21	39.98	15.85	-29.5	-32.9	13.7	5.30e-06	0	43	0	217055232	18	5320
2026-01-01 23:01:01.21	40.13	15.93	-29.5	-32.6	13.5	1.37e-05	0	43	0	219152384	19	5115
2026-01-01 23:01:02.21	40.27	16.02	-29.6	-32.8	13.4	1.06e-05	0	43	0	221249536	19	5171
2026-01-01 23:01:03.22	40.41	16.10	-29.5	-32.4	13.6	1.29e-05	0	43	0	223346688	19	5032
2026-01-01 23:01:04.22	40.56	16.18	-29.4	-32.3	13.7	9.10e-06	0	43	0	225443840	19	4980
2026-01-01 23:01:05.23	40.70	16.27	-29.5	-32.3	13.7	1.44e-05	0	43	0	226492416	19	4992
2026-01-01 23:01:06.23	40.85	16.35	-29.5	-32.4	13.6	6.80e-06	0	43	0	228589568	19	5048
2026-01-01 23:01:07.24	41.00	16.44	-29.4	-32.1	13.8	9.90e-06	0	43	0	230686720	19	4939
2026-01-01 23:01:08.25	41.15	16.52	-29.4	-32.0	13.9	1.50e-06	0	43	0	232783872	19	4895
2026-01-01 23:01:09.25	41.30	16.61	-29.4	-32.1	13.9	3.00e-06	0	43	0	234881024	19	4905
2026-01-01 23:01:10.25	41.45	16.69	-29.3	-31.8	14.0	2.20e-06	0	42	0	235929600	19	4813
2026-01-01 23:01:11.25	41.60	16.78	-29.3	-31.8	14.1	1.50e-06	0	43	0	238026752	19	4807
2026-01-01 23:01:12.25	41.75	16.86	-29.3	-31.8	14.1	2.20e-06	0	43	0	240123904	19	4823
2026-01-01 23:01:13.25	41.90	16.95	-29.4	-32.1	13.9	7.00e-07	0	43	0	242221056	19	4913
2026-01-01 23:01:14.26	42.05	17.03	-29.5	-32.4	13.7	1.50e-06	0	43	0	244318208	19	5034
2026-01-01 23:01:15.26	42.20	17.12	-29.4	-32.0	13.9	1.52e-05	0	43	0	245366784	19	4897
2026-01-01 23:01:16.27	42.36	17.21	-29.4	-32.2	13.9	3.80e-06	0	43	0	247463936	19	4942
2026-01-01 23:01:17.27	42.52	17.29	-29.4	-32.2	13.8	5.30e-06	0	43	0	249561088	19	4951
2026-01-01 23:01:18.27	42.67	17.38	-29.4	-32.1	13.9	3.00e-06	0	43	0	251658240	19	4919
2026-01-01 23:01:19.28	42.83	17.46	-29.4	-32.2	13.8	7.00e-07	0	43	0	252706816	19	4962
2026-01-01 23:01:20.27	42.99	17.55	-29.4	-32.2	13.8	1.50e-06	0	43	0	254803968	19	4958
2026-01-01 23:01:21.28	43.15	17.63	-29.6	-32.8	13.4	2.13e-05	0	43	0	256901120	19	5173
2026-01-01 23:01:22.28	43.30	17.72	-29.3	-31.7	14.1	4.50e-06	0	43	0	258998272	19	4791
2026-01-01 23:01:23.28	43.46	17.81	-29.2	-31.5	14.3	0.00e+00	0	43	0	261095424	19	4714
2026-01-01 23:01:24.28	43.63	17.89	-29.1	-31.4	14.4	0.00e+00	0	43	0	262144000	19	4658
2026-01-01 23:01:25.29	43.79	17.98	-29.0	-31.1	14.5	7.00e-07	0	43	0	264241152	19	4592
2026-01-01 23:01:26.28	43.95	18.07	-29.0	-31.1	14.5	7.00e-07	0	43	0	266338304	19	4585
2026-01-01 23:01:27.28	44.11	18.15	-29.1	-31.3	14.4	0.00e+00	0	43	0	268435456	19	4657
2026-01-01 23:01:28.28	44.28	18.24	-29.2	-31.5	14.3	1.50e-06	0	43	0	270532608	19	4717
2026-01-01 23:01:29.28	44.44	18.33	-29.1	-31.4	14.4	1.50e-06	0	43	0	271581184	19	4667
2026-01-01 23:01:30.29	44.61	18.41	-29.1	-31.3	14.5	7.00e-07	0	43	0	273678336	19	4627
2026-01-01 23:01:31.29	44.78	18.50	-29.1	-31.2	14.5	7.00e-07	0	43	0	275775488	19	4616
2026-01-01 23:01:32.30	44.95	18.59	-29.1	-31.3	14.4	7.00e-07	0	43	0	277872640	19	4647
2026-01-01 23:01:33.30	45.12	18.67	-29.0	-31.1	14.6	7.00e-07	0	43	0	279969792	19	4569
2026-01-01 23:01:34.31	45.29	18.76	-29.0	-31.1	14.6	7.00e-07	0	43	0	281018368	19	4561
2026-01-01 23:01:35.31	45.46	18.85	-28.8	-31.0	15.0	0.00e+00	0	43	0	283115520	18	4647
2026-01-01 23:01:36.31	45.64	18.94	-28.8	-30.9	15.0	0.00e+00	0	43	0	285212672	18	4625
2026-01-01 23:01:37.31	45.81	19.02	-28.8	-31.0	15.0	0.00e+00	0	43	0	287309824	18	4650
2026-01-01 23:01:38.32	45.98	19.11	-28.8	-31.0	15.0	0.00e+00	0	43	0	289406976	18	4640
2026-01-01 23:01:39.32	46.16	19.20	-28.8	-31.0	15.0	3.00e-06	0	43	0	290455552	18	4644
2026-01-01 23:01:40.33	46.34	19.29	-28.8	-31.0	15.0	0.00e+00	0	43	0	292552704	18	4625
2026-01-01 23:01:41.33	46.51	19.37	-28.8	-30.9	15.1	0.00e+00	0	43	0	294649856	18	4611
2026-01-01 23:01:42.33	46.69	19.46	-28.7	-30.8	15.1	1.35e-04	0	43	0	296747008	18	4573
2026-01-01 23:01:43.33	46.87	19.55	-28.7	-30.8	15.1	1.50e-06	0	43	0	298844160	18	4574
2026-01-01 23:01:44.34	47.05	19.64	-28.6	-30.6	15.2	3.06e-04	0	43	0	299892736	18	4504
2026-01-01 23:01:45.33	47.23	19.72	-28.6	-31.0	15.3	0.00e+00	0	43	0	301989888	17	4752
2026-01-01 23:01:46.33	47.41	19.81	-28.5	-30.8	15.4	0.00e+00	0	43	0	304087040	17	4678
2026-01-01 23:01:47.33	47.60	19.90	-28.5	-30.9	15.4	6.85e-04	0	43	0	306184192	17	4713
2026-01-01 23:01:48.33	47.78	19.99	-28.7	-31.2	15.2	0.00e+00	0	43	0	307232768	17	4813
2026-01-01 23:01:49.33	47.97	20.07	-28.5	-30.8	15.4	0.00e+00	0	43	0	309329920	17	4696
2026-01-01 23:01:50.33	48.15	20.16	-28.5	-30.8	15.4	9.35e-04	0	43	0	311427072	17	4676
2026-01-01 23:01:51.33	48.34	20.25	-28.5	-30.7	15.5	8.40e-04	0	43	0	313524224	17	4663
2026-01-01 23:01:52.33	48.53	20.34	-28.6	-30.9	15.3	0.00e+00	0	43	0	315621376	17	4718
2026-01-01 23:01:53.33	48.72	20.42	-28.4	-30.6	15.5	4.81e-04	0	43	0	316669952	17	4620
2026-01-01 23:01:54.34	48.91	20.51	-28.3	-30.8	15.7	6.86e-04	0	43	0	318767104	16	4805
2026-01-01 23:01:55.34	49.10	20.60	-28.3	-30.7	15.8	0.00e+00	0	43	0	320864256	16	4753
2026-01-01 23:01:56.35	49.30	20.69	-28.4	-31.1	15.5	0.00e+00	0	43	0	322961408	16	4894
2026-01-01 23:01:57.34	49.49	20.78	-28.7	-31.2	15.2	4.20e-04	0	43	0	325058560	17	4807
2026-01-01 23:01:58.35	49.68	20.86	-28.8	-31.4	15.1	7.00e-07	0	43	0	326107136	17	4893
2026-01-01 23:01:59.35	49.88	20.95	-28.5	-30.8	15.4	0.00e+00	0	43	0	328204288	17	4696
2026-01-01 23:02:00.35	50.08	21.04	-28.7	-31.1	15.3	5.18e-05	0	43	0	330301440	17	4797
2026-01-01 23:02:01.36	50.28	21.13	-28.7	-31.3	15.1	1.50e-06	0	43	0	332398592	17	4856
2026-01-01 23:02:02.37	50.48	21.22	-28.7	-31.3	15.1	0.00e+00	0	43	0	334495744	17	4854
2026-01-01 23:02:03.37	50.68	21.30	-28.9	-31.7	15.0	1.50e-06	0	43	0	335544320	17	4969
2026-01-01 23:02:04.37	50.88	21.39	-28.9	-31.8	14.9	7.00e-07	0	43	0	337641472	17	5021
2026-01-01 23:02:05.37	51.08	21.48	-29.1	-31.7	14.6	0.00e+00	0	43	0	339738624	18	4877
2026-01-01 23:02:06.38	51.29	21.57	-29.3	-32.1	14.3	3.00e-06	0	43	0	341835776	18	5021
2026-01-01 23:02:07.38	51.49	21.65	-29.0	-31.5	14.8	7.00e-07	0	43	0	343932928	18	4782
2026-01-01 23:02:08.38	51.70	21.74	-28.8	-31.0	15.1	8.62e-05	0	43	0	344981504	18	4636
2026-01-01 23:02:09.39	51.91	21.83	-28.7	-30.7	15.3	0.00e+00	0	43	0	347078656	18	4537
2026-01-01 23:02:10.39	52.12	21.91	-28.7	-30.8	15.3	0.00e+00	0	43	0	349175808	18	4563
2026-01-01 23:02:11.40	52.33	22.00	-28.8	-30.9	15.1	8.08e-05	0	43	0	351272960	18	4610
2026-01-01 23:02:12.40	52.54	22.09	-28.8	-30.9	15.2	0.00e+00	0	43	0	352321536	18	4592
2026-01-01 23:02:13.41	52.75	22.18	-28.8	-31.0	15.1	0.00e+00	0	43	0	354418688	18	4627
2026-01-01 23:02:14.42	52.97	22.26	-28.8	-31.5	15.0	0.00e+00	0	43	0	356515840	17	4905
2026-01-01 23:02:15.42	53.18	22.35	-28.8	-31.4	15.1	6.18e-04	0	43	0	358612992	17	4877
2026-01-01 23:02:16.42	53.39	22.44	-28.8	-31.4	15.1	0.00e+00	0	43	0	360710144	17	4868
2026-01-01 23:02:17.41	53.61	22.52	-28.8	-31.4	15.1	0.00e+00	0	43	0	361758720	17	4882
2026-01-01 23:02:18.42	53.83	22.61	-28.8	-31.4	15.1	7.32e-04	0	43	0	363855872	17	4866
2026-01-01 23:02:19.42	54.05	22.70	-28.8	-31.4	15.1	0.00e+00	0	43	0	365953024	17	4882
2026-01-01 23:02:20.43	54.27	22.78	-28.7	-31.1	15.3	0.00e+00	0	43	0	368050176	17	4785
2026-01-01 23:02:21.43	54.49	22.87	-28.6	-31.0	15.4	0.00e+00	0	43	0	370147328	17	4731
2026-01-01 23:02:22.43	54.71	22.95	-28.6	-30.9	15.5	0.00e+00	0	43	0	371195904	17	4695
2026-01-01 23:02:23.43	54.93	23.04	-28.6	-31.1	15.4	0.00e+00	0	43	0	373293056	17	4756
2026-01-01 23:02:24.44	55.16	23.13	-28.7	-31.1	15.3	0.00e+00	0	43	0	375390208	17	4781
2026-01-01 23:02:25.44	55.39	23.21	-28.7	-31.1	15.3	0.00e+00	0	43	0	377487360	17	4782
2026-01-01 23:02:26.44	55.61	23.30	-28.7	-31.3	15.2	0.00e+00	0	43	0	379584512	17	4842
2026-01-01 23:02:27.45	55.84	23.38	-28.8	-31.5	15.1	0.00e+00	0	43	0	380633088	17	4900
2026-01-01 23:02:28.46	56.08	23.47	-28.9	-31.6	15.0	0.00e+00	0	43	0	382730240	17	4947
2026-01-01 23:02:29.46	56.31	23.55	-29.0	-31.5	14.8	7.00e-07	0	43	0	384827392	18	4789
2026-01-01 23:02:30.46	56.54	23.64	-29.0	-31.6	14.8	0.00e+00	0	43	0	386924544	18	4812
2026-01-01 23:02:31.46	56.77	23.72	-29.1	-31.8	14.6	7.00e-07	0	43	0	389021696	18	4883
2026-01-01 23:02:32.46	57.01	23.80	-29.1	-31.6	14.8	0.00e+00	0	43	0	390070272	18	4837
2026-01-01 23:02:33.47	57.24	23.89	-29.2	-31.9	14.6	1.50e-06	0	43	0	392167424	18	4939
2026-01-01 23:02:34.47	57.48	23.97	-29.3	-32.2	14.4	7.00e-07	0	43	0	394264576	18	5025
2026-01-01 23:02:35.47	57.72	24.06	-29.1	-31.7	14.7	7.00e-07	0	43	0	396361728	18	4867
2026-01-01 23:02:36.47	57.96	24.14	-29.1	-31.7	14.7	0.00e+00	0	43	0	397410304	18	4851
2026-01-01 23:02:37.47	58.20	24.22	-29.2	-31.9	14.6	0.00e+00	0	43	0	399507456	18	4921
2026-01-01 23:02:38.47	58.44	24.30	-29.2	-32.1	14.5	0.00e+00	0	43	0	401604608	18	4989
2026-01-01 23:02:39.47	58.68	24.39	-29.3	-32.2	14.5	0.00e+00	0	43	0	403701760	18	5023
2026-01-01 23:02:40.47	58.93	24.47	-29.3	-32.2	14.4	0.00e+00	0	43	0	405798912	18	5043
2026-01-01 23:02:41.48	59.18	24.55	-29.3	-32.3	14.4	1.50e-06	0	43	0	406847488	18	5058
2026-01-01 23:02:42.48	59.42	24.63	-29.3	-32.2	14.5	1.50e-06	0	43	0	408944640	18	5027
2026-01-01 23:02:43.48	59.67	24.71	-29.4	-32.5	14.3	1.50e-06	0	43	0	411041792	18	5127
2026-01-01 23:02:44.49	59.92	24.79	-29.3	-32.3	14.3	1.50e-06	0	43	0	413138944	18	5070
2026-01-01 23:02:45.49	60.17	24.87	-29.3	-32.3	14.4	0.00e+00	0	43	0	415236096	18	5073
2026-01-01 23:02:46.49	60.43	24.96	-29.4	-32.5	14.1	1.50e-06	0	43	0	416284672	18	5157
2026-01-01 23:02:47.49	60.68	25.03	-29.4	-32.3	14.3	1.50e-06	0	43	0	418381824	18	5081
2026-01-01 23:02:48.49	60.93	25.11	-29.5	-32.2	14.1	2.20e-06	0	43	0	420478976	19	4915
2026-01-01 23:02:49.50	61.19	25.19	-29.7	-32.7	13.8	2.20e-06	0	43	0	422576128	19	5116
2026-01-01 23:02:50.50	61.45	25.27	-29.8	-33.2	13.5	8.30e-06	0	43	0	424673280	19	5294
2026-01-01 23:02:51.50	61.71	25.35	-29.9	-33.2	13.4	9.90e-06	0	43	0	425721856	19	5307
2026-01-01 23:02:52.50	61.97	25.43	-29.9	-32.8	13.4	1.52e-05	0	43	0	427819008	20	5029
2026-01-01 23:02:53.50	62.23	25.51	-29.9	-33.3	13.4	4.20e-04	0	43	0	429916160	19	5311
2026-01-01 23:02:54.50	62.49	25.58	-30.0	-33.0	13.2	1.37e-05	0	43	0	432013312	20	5111
2026-01-01 23:02:55.49	62.75	25.66	-30.0	-33.0	13.2	2.05e-05	0	43	0	434110464	20	5113
2026-01-01 23:02:56.49	63.01	25.74	-30.0	-33.2	13.1	3.30e-04	0	43	0	435159040	20	5198
2026-01-01 23:02:57.50	63.28	25.81	-30.1	-33.4	13.0	3.28e-05	0	43	0	437256192	20	5245
2026-01-01 23:02:58.50	63.55	25.89	-30.2	-33.6	12.8	8.62e-05	0	43	0	439353344	20	5363
2026-01-01 23:02:59.51	63.82	25.96	-30.3	-34.0	12.6	8.16e-05	0	43	0	441450496	20	5498
2026-01-01 23:03:00.51	64.09	26.04	-30.3	-34.1	12.4	1.30e-04	0	43	0	442499072	20	5555
2026-01-01 23:03:01.51	64.36	26.11	-30.3	-34.0	12.6	9.53e-05	0	43	0	444596224	20	5504
2026-01-01 23:03:02.51	64.63	26.19	-30.4	-34.3	12.4	1.54e-04	0	43	0	446693376	20	5621
2026-01-01 23:03:03.52	64.91	26.26	-30.3	-34.1	12.5	1.11e-04	0	43	0	448790528	20	5536
2026-01-01 23:03:04.52	65.18	26.33	-30.3	-34.0	12.6	8.23e-05	0	43	0	450887680	20	5489
2026-01-01 23:03:05.52	65.46	26.41	-30.3	-34.0	12.6	1.03e-04	0	43	0	451936256	20	5502
2026-01-01 23:03:06.52	65.73	26.48	-30.4	-34.3	12.4	1.24e-04	0	43	0	454033408	20	5645
2026-01-01 23:03:07.52	66.01	26.55	-30.5	-34.1	12.1	2.28e-04	0	43	0	456130560	21	5444
2026-01-01 23:03:08.53	66.29	26.62	-30.6	-34.5	11.9	3.16e-04	0	43	0	458227712	21	5599
2026-01-01 23:03:09.53	66.58	26.69	-30.7	-34.5	11.8	4.78e-04	0	43	0	460324864	21	5626
2026-01-01 23:03:10.54	66.86	26.76	-30.7	-34.7	11.7	4.42e-04	0	43	0	461373440	21	5696
2026-01-01 23:03:11.54	67.14	26.83	-30.7	-34.7	11.7	6.06e-04	0	43	0	463470592	21	5695
2026-01-01 23:03:12.55	67.43	26.90	-30.6	-34.2	12.1	3.96e-04	0	43	0	465567744	21	5491
2026-01-01 23:03:13.55	67.72	26.97	-30.4	-33.8	12.3	1.94e-04	0	43	0	467664896	21	5304
2026-01-01 23:03:14.55	68.00	27.04	-30.4	-33.9	12.3	1.55e-04	0	43	0	469762048	21	5351
2026-01-01 23:03:15.56	68.29	27.10	-30.4	-33.9	12.3	2.13e-04	0	43	0	470810624	21	5347
2026-01-01 23:03:16.55	68.58	27.17	-30.4	-33.7	12.4	1.18e-04	0	43	0	472907776	21	5272
2026-01-01 23:03:17.55	68.87	27.23	-30.3	-33.5	12.6	1.04e-04	0	43	0	475004928	21	5204
2026-01-01 23:03:18.55	69.16	27.30	-30.4	-33.7	12.5	8.08e-05	0	43	0	477102080	21	5271
2026-01-01 23:03:19.56	69.46	27.37	-30.5	-34.0	12.3	1.30e-04	0	43	0	479199232	21	5386
2026-01-01 23:03:20.56	69.75	27.43	-30.4	-33.8	12.4	2.19e-04	0	43	0	480247808	21	5328
2026-01-01 23:03:21.57	70.05	27.49	-30.3	-33.5	12.6	1.09e-04	0	43	0	482344960	21	5193
2026-01-01 23:03:22.57	70.34	27.55	-30.4	-33.6	12.5	4.29e-04	0	43	0	484442112	21	5234
2026-01-01 23:03:23.57	70.64	27.62	-30.4	-34.3	12.4	1.01e-04	0	43	0	486539264	20	5614
2026-01-01 23:03:24.57	70.94	27.68	-30.4	-34.2	12.4	1.31e-04	0	43	0	488636416	20	5592
2026-01-01 23:03:25.57	71.24	27.74	-30.4	-34.2	12.5	2.54e-04	0	43	0	489684992	20	5566
2026-01-01 23:03:26.58	71.54	27.80	-30.3	-33.9	12.7	1.11e-04	0	43	0	491782144	20	5460
2026-01-01 23:03:27.58	71.84	27.86	-30.3	-34.0	12.6	8.77e-05	0	43	0	493879296	20	5499
2026-01-01 23:03:28.58	72.15	27.92	-30.2	-33.7	12.8	8.16e-05	0	43	0	495976448	20	5364
2026-01-01 23:03:29.59	72.45	27.97	-30.2	-33.5	12.9	4.73e-05	0	43	0	498073600	20	5300
2026-01-01 23:03:30.59	72.76	28.03	-30.3	-33.9	12.7	6.79e-05	0	43	0	499122176	20	5451
2026-01-01 23:03:31.60	73.07	28.09	-30.5	-34.1	12.2	1.45e-04	0	43	0	501219328	21	5419
2026-01-01 23:03:32.60	73.38	28.14	-30.8	-34.9	11.7	3.65e-04	0	43	0	503316480	21	5758
2026-01-01 23:03:33.61	73.69	28.20	-31.0	-35.5	11.2	8.05e-04	0	43	0	505413632	21	6039
2026-01-01 23:03:34.61	74.00	28.25	-31.2	-35.7	10.7	2.15e-03	0	43	0	506462208	22	6038
2026-01-01 23:03:35.62	74.31	28.31	-31.3	-36.1	10.5	3.14e-03	0	43	0	508559360	22	6238
2026-01-01 23:03:36.62	74.62	28.36	-31.3	-36.0	10.5	4.00e-03	0	43	0	510656512	22	6186
2026-01-01 23:03:37.62	74.93	28.41	-31.2	-35.7	10.7	2.67e-03	0	43	0	512753664	22	6025
2026-01-01 23:03:38.61	75.24	28.46	-31.2	-35.6	10.8	2.40e-03	0	43	0	514850816	22	5972
2026-01-01 23:03:39.62	75.56	28.51	-31.1	-35.5	10.9	2.27e-03	0	43	0	515899392	22	5924
2026-01-01 23:03:40.62	75.88	28.56	-31.2	-35.6	10.9	1.81e-03	0	43	0	517996544	22	5978
2026-01-01 23:03:41.62	76.19	28.61	-31.1	-35.2	11.1	2.11e-03	0	43	0	520093696	22	5816
2026-01-01 23:03:42.62	76.51	28.65	-30.9	-34.7	11.4	1.04e-03	0	43	0	522190848	22	5590
2026-01-01 23:03:43.63	76.83	28.70	-30.8	-34.5	11.6	7.03e-04	0	43	0	524288000	22	5488
2026-01-01 23:03:44.63	77.15	28.75	-30.8	-34.4	11.7	5.65e-04	0	43	0	525336576	22	5466
2026-01-01 23:03:45.63	77.47	28.79	-30.8	-34.3	11.7	5.13e-04	0	43	0	527433728	22	5416
2026-01-01 23:03:46.63	77.79	28.83	-30.8	-34.6	11.6	6.58e-04	0	43	0	529530880	22	5529
2026-01-01 23:03:47.64	78.11	28.88	-30.9	-34.6	11.5	8.34e-04	0	43	0	531628032	22	5550
2026-01-01 23:03:48.65	78.44	28.92	-30.9	-34.7	11.5	7.56e-04	0	43	0	533725184	22	5566
2026-01-01 23:03:49.65	78.76	28.96	-30.8	-34.5	11.6	7.07e-04	0	43	0	534773760	22	5493
2026-01-01 23:03:50.66	79.09	29.00	-30.8	-34.5	11.6	6.29e-04	0	43	0	536870912	22	5473
2026-01-01 23:03:51.67	79.42	29.04	-30.9	-34.7	11.5	7.45e-04	0	43	0	538968064	22	5588
2026-01-01 23:03:52.67	79.74	29.08	-30.9	-34.9	11.3	1.01e-03	0	43	0	541065216	22	5656
2026-01-01 23:03:53.67	80.07	29.12	-31.0	-35.0	11.2	1.35e-03	0	43	0	543162368	22	5733
2026-01-01 23:03:54.68	80.40	29.15	-31.0	-35.1	11.2	1.45e-03	0	43	0	544210944	22	5783
2026-01-01 23:03:55.68	80.73	29.19	-31.0	-35.1	11.2	1.51e-03	0	43	0	546308096	22	5751
2026-01-01 23:03:56.69	81.06	29.22	-31.0	-34.9	11.3	1.18e-03	0	43	0	548405248	22	5686
2026-01-01 23:03:57.69	81.39	29.26	-31.0	-35.2	11.1	1.56e-03	0	43	0	550502400	22	5813
2026-01-01 23:03:58.69	81.72	29.29	-30.9	-34.8	11.4	1.40e-03	0	43	0	552599552	22	5632
2026-01-01 23:03:59.69	82.05	29.32	-30.9	-34.7	11.4	9.23e-04	0	43	0	553648128	22	5587
2026-01-01 23:04:00.69	82.38	29.35	-30.8	-34.5	11.5	1.03e-03	0	43	0	555745280	22	5523
2026-01-01 23:04:01.69	82.71	29.38	-30.7	-34.3	11.8	4.71e-04	0	43	0	557842432	22	5414
2026-01-01 23:04:02.69	83.05	29.41	-30.7	-34.1	11.9	4.61e-04	0	43	0	559939584	22	5341
2026-01-01 23:04:03.69	83.38	29.44	-30.7	-34.2	11.8	5.05e-04	0	43	0	562036736	22	5365
2026-01-01 23:04:04.69	83.71	29.46	-30.7	-34.3	11.8	5.26e-04	0	43	0	563085312	22	5404
2026-01-01 23:04:05.69	84.05	29.49	-30.9	-34.8	11.4	7.62e-04	0	43	0	565182464	22	5636
2026-01-01 23:04:06.69	84.38	29.51	-31.0	-35.2	11.1	1.25e-03	0	43	0	567279616	22	5832
2026-01-01 23:04:07.70	84.72	29.54	-31.0	-35.0	11.2	1.76e-03	0	43	0	569376768	22	5740
2026-01-01 23:04:08.71	85.06	29.56	-30.9	-34.8	11.4	1.14e-03	0	43	0	570425344	22	5632
2026-01-01 23:04:09.71	85.39	29.58	-31.1	-35.3	11.0	1.37e-03	0	43	0	572522496	22	5872
2026-01-01 23:04:10.71	85.73	29.60	-31.0	-35.1	11.2	1.88e-03	0	43	0	574619648	22	5760
2026-01-01 23:04:11.71	86.07	29.62	-30.8	-34.5	11.6	1.02e-03	0	43	0	576716800	22	5490
2026-01-01 23:04:12.71	86.41	29.64	-30.8	-34.4	11.7	6.45e-04	0	43	0	578813952	22	5468
2026-01-01 23:04:13.72	86.75	29.66	-30.7	-33.9	12.0	5.28e-04	0	43	0	579862528	22	5256
2026-01-01 23:04:14.72	87.08	29.67	-30.8	-34.3	11.8	4.06e-04	0	43	0	581959680	22	5398
2026-01-01 23:04:15.72	87.42	29.69	-30.7	-34.1	11.9	4.31e-04	0	43	0	584056832	22	5320
2026-01-01 23:04:16.72	87.76	29.70	-30.7	-34.0	12.0	3.65e-04	0	43	0	586153984	22	5270
2026-01-01 23:04:17.73	88.10	29.71	-30.9	-34.9	11.4	4.68e-04	0	43	0	588251136	22	5656
2026-01-01 23:04:18.74	88.45	29.73	-30.9	-34.7	11.4	1.15e-03	0	43	0	589299712	22	5588
2026-01-01 23:04:19.73	88.78	29.74	-30.8	-34.3	11.8	6.61e-04	0	43	0	591396864	22	5392
2026-01-01 23:04:20.73	89.12	29.75	-30.6	-33.7	12.2	4.22e-04	0	43	0	593494016	22	5164
2026-01-01 23:04:21.74	89.47	29.75	-30.2	-33.2	12.9	7.62e-05	0	43	0	595591168	21	5067
2026-01-01 23:04:22.74	89.81	29.76	-30.1	-32.8	13.1	4.80e-05	0	43	0	597688320	21	4932
2026-01-01 23:04:23.75	90.15	29.77	-30.1	-32.8	13.2	2.51e-05	0	43	0	598736896	21	4909
2026-01-01 23:04:24.74	90.49	29.77	-29.9	-32.4	13.4	1.44e-05	0	43	0	600834048	21	4784
2026-01-01 23:04:25.75	90.83	29.78	-29.8	-32.6	13.6	9.10e-06	0	43	0	602931200	20	4940
2026-01-01 23:04:26.75	91.17	29.78	-30.0	-33.0	13.3	9.90e-06	0	43	0	605028352	20	5101
2026-01-01 23:04:27.75	91.51	29.78	-30.0	-33.1	13.3	1.60e-05	0	43	0	607125504	20	5132
2026-01-01 23:04:28.75	91.85	29.78	-30.1	-33.4	13.0	2.82e-05	0	43	0	608174080	20	5273
2026-01-01 23:04:29.75	92.19	29.78	-30.1	-33.5	13.0	4.42e-05	0	43	0	610271232	20	5286
2026-01-01 23:04:30.75	92.53	29.78	-30.3	-33.9	12.7	5.87e-05	0	43	0	612368384	20	5466
2026-01-01 23:04:31.75	92.87	29.78	-30.4	-34.4	12.3	1.52e-04	0	43	0	614465536	20	5696
2026-01-01 23:04:32.75	93.21	29.78	-30.3	-33.4	12.7	1.21e-04	0	43	0	615514112	21	5153
2026-01-01 23:04:33.75	93.55	29.77	-30.2	-33.0	12.9	5.41e-05	0	43	0	617611264	21	5019
2026-01-01 23:04:34.75	93.90	29.77	-30.1	-32.9	13.0	3.58e-05	0	43	0	619708416	21	4955
2026-01-01 23:04:35.76	94.24	29.76	-30.2	-33.2	12.9	4.19e-05	0	43	0	621805568	21	5064
2026-01-01 23:04:36.76	94.58	29.75	-30.3	-33.4	12.7	6.10e-05	0	43	0	623902720	21	5142
2026-01-01 23:04:37.76	94.92	29.74	-30.5	-34.1	12.2	1.15e-04	0	43	0	624951296	21	5440
2026-01-01 23:04:38.77	95.26	29.73	-30.6	-34.5	11.9	2.76e-04	0	43	0	627048448	21	5621
2026-01-01 23:04:39.77	95.60	29.72	-30.9	-35.5	11.2	9.35e-04	0	43	0	629145600	21	6104
2026-01-01 23:04:40.77	95.94	29.71	-31.1	-35.4	10.9	1.87e-03	0	43	0	631242752	22	5934
2026-01-01 23:04:41.78	96.28	29.70	-31.1	-35.4	10.9	2.21e-03	0	43	0	633339904	22	5952
2026-01-01 23:04:42.78	96.62	29.68	-30.9	-34.9	11.3	1.62e-03	0	43	0	634388480	22	5703
2026-01-01 23:04:43.78	96.96	29.67	-30.8	-34.3	11.7	7.32e-04	0	43	0	636485632	22	5442
2026-01-01 23:04:44.78	97.30	29.65	-30.8	-34.5	11.6	6.53e-04	0	43	0	638582784	22	5491
2026-01-01 23:04:45.78	97.64	29.64	-31.0	-35.0	11.3	1.10e-03	0	43	0	640679936	22	5712
2026-01-01 23:04:46.79	97.98	29.62	-31.0	-35.1	11.2	1.34e-03	0	43	0	642777088	22	5761
2026-01-01 23:04:47.79	98.31	29.60	-31.0	-35.1	11.2	1.32e-03	0	43	0	643825664	22	5770
2026-01-01 23:04:48.79	98.65	29.58	-31.3	-36.1	10.5	3.31e-03	0	43	0	645922816	22	6244
2026-01-01 23:04:49.80	98.99	29.55	-32.0	-37.0	9.9	7.75e-03	0	43	0	648019968	23	6428
2026-01-01 23:04:50.80	99.33	29.53	-31.7	-36.9	9.4	1.36e-02	0	43	0	650117120	23	6617
2026-01-01 23:04:51.81	99.67	29.51	-31.6	-36.7	9.5	1.83e-02	0	43	0	652214272	23	6509
2026-01-01 23:04:52.81	100.00	29.48	-31.6	-36.9	9.5	1.45e-02	0	43	0	653262848	23	6593
2026-01-01 23:04:53.81	100.34	29.46	-31.4	-35.8	10.2	1.03e-02	0	43	0	655360000	23	6029
2026-01-01 23:04:54.81	100.67	29.43	-31.1	-35.0	10.8	4.24e-03	0	43	0	657457152	23	5642
2026-01-01 23:04:55.81	101.00	29.40	-31.0	-34.6	11.2	1.70e-03	0	43	0	659554304	23	5451
2026-01-01 23:04:56.80	101.33	29.37	-31.0	-34.5	11.2	1.45e-03	0	43	0	660602880	23	5401
2026-01-01 23:04:57.80	101.66	29.34	-30.9	-34.6	11.5	1.08e-03	0	43	0	662700032	22	5542
2026-01-01 23:04:58.81	102.00	29.31	-30.8	-34.3	11.7	6.93e-04	0	43	0	664797184	22	5399
2026-01-01 23:04:59.81	102.33	29.28	-30.6	-33.9	12.0	3.78e-04	0	43	0	666894336	22	5241
2026-01-01 23:05:00.81	102.66	29.25	-30.6	-33.9	12.1	5.36e-04	0	43	0	668991488	22	5232
2026-01-01 23:05:01.82	102.99	29.22	-30.6	-34.2	12.1	2.99e-04	0	43	0	670040064	21	5489
2026-01-01 23:05:02.82	103.32	29.18	-30.9	-35.1	11.5	5.68e-04	0	43	0	672137216	21	5875
2026-01-01 23:05:03.82	103.65	29.14	-31.1	-35.3	11.0	1.50e-03	0	43	0	674234368	22	5865
2026-01-01 23:05:04.82	103.98	29.11	-31.2	-35.8	10.6	2.57e-03	0	43	0	676331520	22	6102
2026-01-01 23:05:05.83	104.31	29.07	-31.2	-35.8	10.6	3.48e-03	0	43	0	678428672	22	6096
2026-01-01 23:05:06.82	104.63	29.03	-31.1	-35.3	11.0	2.25e-03	0	43	0	679477248	22	5880
2026-01-01 23:05:07.82	104.96	28.99	-30.9	-34.8	11.3	1.60e-03	0	43	0	681574400	22	5647
2026-01-01 23:05:08.82	105.28	28.95	-30.9	-34.8	11.3	9.63e-04	0	43	0	683671552	22	5650
2026-01-01 23:05:09.83	105.61	28.91	-31.2	-35.6	10.8	2.86e-03	0	43	0	685768704	22	6010
2026-01-01 23:05:10.83	105.93	28.87	-31.0	-35.0	11.2	2.73e-03	0	43	0	687865856	22	5728
2026-01-01 23:05:11.83	106.25	28.83	-30.7	-34.1	11.8	8.78e-04	0	43	0	688914432	22	5337
2026-01-01 23:05:12.83	106.57	28.78	-30.3	-33.0	12.6	3.23e-04	0	43	0	691011584	22	4897
2026-01-01 23:05:13.84	106.90	28.74	-30.0	-32.7	13.1	6.79e-05	0	43	0	693108736	21	4895
2026-01-01 23:05:14.85	107.22	28.69	-29.9	-32.4	13.3	1.75e-05	0	43	0	695205888	21	4778
2026-01-01 23:05:15.84	107.53	28.64	-30.0	-32.7	13.1	1.44e-05	0	43	0	697303040	21	4887
2026-01-01 23:05:16.85	107.86	28.60	-30.0	-32.7	13.1	3.50e-05	0	43	0	698351616	21	4904
2026-01-01 23:05:17.85	108.17	28.55	-30.1	-33.0	13.0	3.96e-05	0	43	0	700448768	21	5006
2026-01-01 23:05:18.86	108.49	28.50	-30.2	-33.2	12.8	5.34e-05	0	43	0	702545920	21	5072
2026-01-01 23:05:19.86	108.81	28.45	-30.2	-33.2	12.8	6.17e-05	0	43	0	704643072	21	5068
2026-01-01 23:05:20.86	109.12	28.40	-30.3	-33.4	12.6	7.85e-05	0	43	0	705691648	21	5150
2026-01-01 23:05:21.87	109.44	28.34	-30.1	-32.9	13.0	5.11e-05	0	43	0	707788800	21	4969
2026-01-01 23:05:22.87	109.75	28.29	-30.0	-32.5	13.3	3.35e-05	0	43	0	709885952	21	4828
2026-01-01 23:05:23.87	110.06	28.24	-29.9	-32.2	13.4	8.30e-06	0	43	0	711983104	21	4729
2026-01-01 23:05:24.86	110.36	28.18	-29.8	-32.1	13.5	1.29e-05	0	43	0	714080256	21	4684
2026-01-01 23:05:25.87	110.68	28.13	-29.9	-32.4	13.3	1.44e-05	0	43	0	715128832	21	4789
2026-01-01 23:05:26.87	110.98	28.07	-29.7	-32.2	13.7	1.29e-05	0	43	0	717225984	20	4820
2026-01-01 23:05:27.87	111.29	28.02	-29.7	-32.3	13.7	6.10e-06	0	43	0	719323136	20	4866
2026-01-01 23:05:28.87	111.60	27.96	-30.0	-33.1	13.2	6.79e-05	0	43	0	721420288	20	5143
2026-01-01 23:05:29.88	111.90	27.90	-30.1	-33.4	13.0	4.42e-05	0	43	0	723517440	20	5269
2026-01-01 23:05:30.87	112.20	27.84	-30.4	-34.3	12.3	2.55e-04	0	43	0	724566016	20	5650
2026-01-01 23:05:31.87	112.51	27.78	-30.6	-34.4	11.9	4.69e-04	0	43	0	726663168	21	5562
2026-01-01 23:05:32.88	112.81	27.72	-30.7	-34.7	11.6	4.10e-04	0	43	0	728760320	21	5724
2026-01-01 23:05:33.88	113.11	27.66	-31.0	-35.6	11.1	1.39e-03	0	43	0	730857472	21	6123
2026-01-01 23:05:34.88	113.41	27.60	-30.9	-34.9	11.2	2.17e-03	0	43	0	732954624	22	5675
2026-01-01 23:05:35.89	113.71	27.54	-30.7	-34.3	11.6	1.00e-03	0	43	0	734003200	22	5426
2026-01-01 23:05:36.88	114.00	27.48	-30.7	-34.2	11.7	6.06e-04	0	43	0	736100352	22	5378
2026-01-01 23:05:37.88	114.30	27.41	-30.6	-33.8	12.0	4.86e-04	0	43	0	738197504	22	5236
2026-01-01 23:05:38.89	114.60	27.35	-30.5	-33.6	12.1	2.97e-04	0	43	0	740294656	22	5134
2026-01-01 23:05:39.89	114.89	27.28	-30.4	-33.4	12.2	1.80e-04	0	43	0	742391808	22	5056
2026-01-01 23:05:40.89	115.18	27.22	-30.4	-33.9	12.2	1.65e-04	0	43	0	743440384	21	5366
2026-01-01 23:05:41.89	115.47	27.15	-30.2	-33.2	12.7	1.16e-04	0	43	0	745537536	21	5110
2026-01-01 23:05:42.90	115.77	27.08	-30.3	-33.6	12.4	8.92e-05	0	43	0	747634688	21	5243
2026-01-01 23:05:43.90	116.06	27.02	-30.3	-33.7	12.3	1.58e-04	0	43	0	749731840	21	5281
2026-01-01 23:05:44.90	116.34	26.95	-30.6	-34.6	11.6	3.27e-04	0	43	0	750780416	21	5697
2026-01-01 23:05:45.90	116.63	26.88	-30.6	-34.5	11.7	6.53e-04	0	43	0	752877568	21	5655
2026-01-01 23:05:46.90	116.91	26.81	-30.7	-34.9	11.5	6.91e-04	0	43	0	754974720	21	5815
2026-01-01 23:05:47.90	117.20	26.74	-30.6	-34.5	11.7	7.54e-04	0	43	0	757071872	21	5645
2026-01-01 23:05:48.91	117.48	26.67	-30.5	-34.2	12.0	4.42e-04	0	43	0	759169024	21	5522
2026-01-01 23:05:49.92	117.77	26.60	-30.6	-34.3	11.9	4.02e-04	0	43	0	760217600	21	5564
2026-01-01 23:05:50.92	118.05	26.53	-30.5	-34.3	11.9	4.15e-04	0	43	0	762314752	21	5569
2026-01-01 23:05:51.92	118.33	26.46	-30.5	-34.3	11.9	4.65e-04	0	43	0	764411904	21	5553
2026-01-01 23:05:52.92	118.60	26.38	-30.5	-34.3	11.9	7.96e-04	0	43	0	766509056	21	5534
2026-01-01 23:05:53.93	118.88	26.31	-30.4	-33.9	12.2	2.68e-04	0	43	0	768606208	21	5376
2026-01-01 23:05:54.92	119.16	26.24	-30.1	-33.5	12.7	1.23e-04	0	43	0	769654784	20	5334
2026-01-01 23:05:55.93	119.43	26.16	-30.0	-33.1	13.1	8.01e-05	0	43	0	771751936	20	5146
2026-01-01 23:05:56.93	119.70	26.09	-29.9	-32.9	13.2	2.28e-05	0	43	0	773849088	20	5082
2026-01-01 23:05:57.94	119.98	26.01	-29.8	-32.7	13.3	1.90e-05	0	43	0	775946240	20	5018
2026-01-01 23:05:58.93	120.25	25.94	-30.0	-33.1	13.1	3.66e-05	0	43	0	778043392	20	5144
2026-01-01 23:05:59.94	120.52	25.86	-29.7	-32.3	13.6	2.13e-05	0	43	0	779091968	20	4866
2026-01-01 23:06:00.95	120.79	25.79	-29.6	-32.4	13.9	5.30e-06	0	43	0	781189120	19	5009
2026-01-01 23:06:01.95	121.05	25.71	-29.5	-32.2	14.1	3.00e-06	0	43	0	783286272	19	4915
2026-01-01 23:06:02.95	121.32	25.63	-29.5	-32.3	13.9	0.00e+00	0	43	0	785383424	19	4969
2026-01-01 23:06:03.96	121.59	25.55	-29.5	-32.4	13.9	2.20e-06	0	43	0	787480576	19	4996
2026-01-01 23:06:04.96	121.85	25.48	-29.8	-33.0	13.5	8.30e-06	0	43	0	788529152	19	5217
2026-01-01 23:06:05.97	122.11	25.40	-29.8	-33.2	13.3	1.22e-05	0	43	0	790626304	19	5315
2026-01-01 23:06:06.97	122.37	25.32	-29.9	-33.0	13.0	9.68e-05	0	43	0	792723456	20	5133
2026-01-01 23:06:07.96	122.63	25.24	-29.7	-32.4	13.5	1.60e-05	0	43	0	794820608	20	4904
2026-01-01 23:06:08.97	122.89	25.16	-29.6	-32.1	13.7	1.22e-05	0	43	0	795869184	20	4802
2026-01-01 23:06:09.97	123.14	25.08	-29.5	-31.9	13.8	3.00e-06	0	43	0	797966336	20	4738
2026-01-01 23:06:10.98	123.40	25.00	-29.8	-32.5	13.5	9.10e-06	0	43	0	800063488	20	4938
2026-01-01 23:06:11.99	123.66	24.92	-29.7	-32.4	13.5	1.22e-05	0	43	0	802160640	20	4892
2026-01-01 23:06:13.00	123.91	24.84	-29.9	-32.9	13.2	1.98e-05	0	43	0	804257792	20	5087
2026-01-01 23:06:14.00	124.16	24.76	-29.7	-32.3	13.5	1.67e-05	0	43	0	806354944	20	4884
2026-01-01 23:06:15.00	124.41	24.68	-29.5	-31.7	13.9	4.50e-06	0	43	0	807403520	20	4662
2026-01-01 23:06:16.00	124.66	24.59	-29.4	-31.5	14.0	1.50e-06	0	43	0	809500672	20	4590
2026-01-01 23:06:17.00	124.91	24.51	-29.4	-32.2	14.0	2.20e-06	0	43	0	811597824	19	4925
2026-01-01 23:06:18.00	125.16	24.43	-29.5	-32.3	13.9	7.00e-07	0	43	0	813694976	19	4973
2026-01-01 23:06:19.00	125.40	24.35	-29.8	-33.2	13.3	9.10e-06	0	43	0	814743552	19	5306
2026-01-01 23:06:20.01	125.65	24.26	-29.8	-33.3	13.3	1.90e-05	0	43	0	816840704	19	5347
2026-01-01 23:06:21.01	125.89	24.18	-30.0	-33.6	13.0	2.97e-05	0	43	0	818937856	19	5494
2026-01-01 23:06:22.02	126.13	24.10	-29.7	-32.9	13.5	1.83e-05	0	43	0	821035008	19	5200
2026-01-01 23:06:23.02	126.37	24.01	-29.4	-32.2	14.0	4.50e-06	0	43	0	823132160	19	4926
2026-01-01 23:06:24.03	126.61	23.93	-29.4	-32.0	14.1	4.95e-05	0	43	0	824180736	19	4855
2026-01-01 23:06:25.03	126.85	23.84	-29.6	-32.7	13.7	4.50e-06	0	43	0	826277888	19	5103
2026-01-01 23:06:26.04	127.09	23.76	-29.8	-33.3	13.3	5.30e-06	0	43	0	828375040	19	5336
2026-01-01 23:06:27.04	127.32	23.67	-30.1	-33.5	12.7	3.20e-05	0	43	0	830472192	20	5334
2026-01-01 23:06:28.05	127.56	23.59	-30.5	-34.6	11.9	2.27e-04	0	43	0	832569344	20	5808
2026-01-01 23:06:29.05	127.79	23.50	-30.3	-34.1	12.2	2.73e-04	0	43	0	833617920	20	5606
2026-01-01 23:06:30.05	128.02	23.42	-30.0	-33.4	12.8	1.34e-04	0	43	0	835715072	20	5276
2026-01-01 23:06:31.05	128.25	23.33	-29.8	-32.7	13.2	2.26e-04	0	43	0	837812224	20	5042
2026-01-01 23:06:32.05	128.48	23.25	-29.8	-32.6	13.3	1.52e-05	0	43	0	839909376	20	5004
2026-01-01 23:06:33.05	128.71	23.16	-30.1	-33.5	12.7	3.89e-05	0	43	0	842006528	20	5362
2026-01-01 23:06:34.06	128.94	23.08	-30.1	-33.6	12.6	9.99e-05	0	43	0	843055104	20	5399
2026-01-01 23:06:35.06	129.16	22.99	-30.4	-34.5	11.9	2.51e-04	0	43	0	845152256	20	5790
2026-01-01 23:06:36.07	129.39	22.90	-30.3	-34.3	12.1	3.06e-04	0	43	0	847249408	20	5705
2026-01-01 23:06:37.07	129.61	22.82	-30.0	-33.4	12.7	1.78e-04	0	43	0	849346560	20	5314
2026-01-01 23:06:38.07	129.83	22.73	-29.7	-32.5	13.3	2.36e-05	0	43	0	851443712	20	4967
2026-01-01 23:06:39.08	130.06	22.64	-29.5	-31.8	13.7	6.10e-06	0	43	0	852492288	20	4720
2026-01-01 23:06:40.08	130.28	22.56	-29.5	-32.1	13.6	6.80e-06	0	43	0	854589440	20	4803
2026-01-01 23:06:41.09	130.50	22.47	-29.9	-33.0	13.0	2.59e-05	0	43	0	856686592	20	5156
2026-01-01 23:06:42.09	130.71	22.38	-30.4	-34.4	12.0	2.34e-04	0	43	0	858783744	20	5710
2026-01-01 23:06:43.10	130.93	22.29	-30.4	-34.6	11.8	4.19e-04	0	43	0	860880896	20	5832
2026-01-01 23:06:44.09	131.14	22.21	-30.7	-34.9	11.3	8.09e-04	0	43	0	861929472	21	5839
2026-01-01 23:06:45.09	131.35	22.12	-30.6	-34.6	11.5	8.55e-04	0	43	0	864026624	21	5731
2026-01-01 23:06:46.09	131.57	22.03	-30.3	-33.8	12.0	5.57e-04	0	43	0	866123776	21	5358
2026-01-01 23:06:47.09	131.78	21.94	-30.1	-33.3	12.4	2.01e-04	0	43	0	868220928	21	5168
2026-01-01 23:06:48.09	131.99	21.86	-30.1	-33.2	12.4	5.10e-04	0	43	0	869269504	21	5136
2026-01-01 23:06:49.09	132.20	21.77	-30.2	-33.9	12.3	5.32e-04	0	43	0	871366656	20	5502
2026-01-01 23:06:50.10	132.40	21.68	-30.6	-34.6	11.4	4.45e-04	0	43	0	873463808	21	5735
2026-01-01 23:06:51.09	132.61	21.59	-30.6	-34.5	11.5	8.95e-04	0	43	0	875560960	21	5701
2026-01-01 23:06:52.10	132.82	21.50	-30.5	-34.4	11.6	1.43e-03	0	43	0	877658112	21	5621
2026-01-01 23:06:53.10	133.02	21.42	-30.7	-34.9	11.2	1.24e-03	0	43	0	878706688	21	5876
2026-01-01 23:06:54.11	133.22	21.33	-30.8	-35.3	10.8	2.13e-03	0	43	0	880803840	21	6074
2026-01-01 23:06:55.11	133.43	21.24	-30.2	-34.0	12.1	1.52e-03	0	43	0	882900992	20	5586
2026-01-01 23:06:56.11	133.63	21.15	-29.9	-33.2	12.8	9.99e-05	0	43	0	884998144	20	5233
2026-01-01 23:06:57.11	133.83	21.06	-30.0	-33.2	12.7	6.56e-05	0	43	0	887095296	20	5257
2026-01-01 23:06:58.12	134.03	20.97	-29.9	-33.2	12.7	4.10e-04	0	43	0	888143872	20	5223
2026-01-01 23:06:59.12	134.22	20.89	-29.9	-33.0	12.9	4.42e-05	0	43	0	890241024	20	5156
2026-01-01 23:07:00.12	134.42	20.80	-29.9	-33.1	12.7	2.98e-04	0	43	0	892338176	20	5218
2026-01-01 23:07:01.13	134.62	20.71	-30.0	-33.3	12.6	7.24e-05	0	43	0	894435328	20	5290
2026-01-01 23:07:02.13	134.81	20.62	-30.0	-33.3	12.6	9.61e-05	0	43	0	896532480	20	5285
2026-01-01 23:07:03.14	135.01	20.53	-30.2	-34.0	12.1	6.00e-04	0	43	0	897581056	20	5579
2026-01-01 23:07:04.13	135.20	20.44	-29.7	-32.6	13.1	6.02e-04	0	43	0	899678208	20	5018
2026-01-01 23:07:05.14	135.39	20.35	-29.4	-31.8	13.6	1.67e-05	0	43	0	901775360	20	4713
2026-01-01 23:07:06.14	135.58	20.27	-29.2	-32.2	14.0	1.03e-03	0	43	0	903872512	18	5074
2026-01-01 23:07:07.13	135.76	20.18	-29.5	-32.9	13.6	1.27e-03	0	43	0	905969664	18	5324
2026-01-01 23:07:08.14	135.95	20.09	-29.4	-32.8	13.7	1.37e-05	0	43	0	907018240	18	5290
2026-01-01 23:07:09.15	136.14	20.00	-29.6	-32.8	13.3	1.10e-03	0	43	0	909115392	19	5199
2026-01-01 23:07:10.15	136.33	19.91	-29.8	-33.2	13.0	9.38e-04	0	43	0	911212544	19	5368
2026-01-01 23:07:11.16	136.51	19.82	-29.6	-32.7	13.3	3.35e-05	0	43	0	913309696	19	5147
2026-01-01 23:07:12.16	136.70	19.74	-29.4	-32.3	13.6	8.69e-05	0	43	0	914358272	19	5007
2026-01-01 23:07:13.16	136.88	19.65	-29.3	-31.9	13.9	4.04e-05	0	43	0	916455424	19	4879
2026-01-01 23:07:14.17	137.06	19.56	-29.4	-32.2	13.7	3.80e-06	0	43	0	918552576	19	4961
2026-01-01 23:07:15.17	137.24	19.47	-29.4	-32.2	13.7	5.30e-06	0	43	0	920649728	19	4962
2026-01-01 23:07:16.17	137.42	19.38	-29.2	-32.3	13.9	2.82e-04	0	43	0	922746880	18	5126
2026-01-01 23:07:17.17	137.60	19.29	-29.4	-32.8	13.6	4.50e-06	0	43	0	923795456	18	5318
2026-01-01 23:07:18.16	137.78	19.21	-29.2	-32.2	13.9	3.50e-04	0	43	0	925892608	18	5085
2026-01-01 23:07:19.17	137.95	19.12	-29.1	-31.9	14.1	3.46e-04	0	43	0	927989760	18	4987
2026-01-01 23:07:20.16	138.13	19.03	-29.0	-31.6	14.4	7.00e-07	0	43	0	930086912	18	4857
2026-01-01 23:07:21.16	138.30	18.94	-28.8	-31.1	14.7	2.55e-04	0	43	0	932184064	18	4694
2026-01-01 23:07:22.17	138.48	18.85	-28.8	-31.2	14.6	1.50e-06	0	43	0	933232640	18	4727
2026-01-01 23:07:23.17	138.65	18.77	-28.8	-31.3	14.5	1.22e-05	0	43	0	935329792	18	4768
2026-01-01 23:07:24.17	138.82	18.68	-28.6	-31.1	14.9	3.95e-04	0	43	0	937426944	17	4837
2026-01-01 23:07:25.17	138.99	18.59	-28.6	-31.3	14.8	4.75e-04	0	43	0	939524096	17	4895
2026-01-01 23:07:26.17	139.16	18.50	-28.6	-31.3	14.8	0.00e+00	0	43	0	941621248	17	4904
2026-01-01 23:07:27.18	139.33	18.42	-28.8	-31.8	14.5	5.29e-04	0	43	0	942669824	17	5066
2026-01-01 23:07:28.18	139.50	18.33	-28.9	-31.9	14.4	4.97e-04	0	43	0	944766976	17	5128
2026-01-01 23:07:29.18	139.67	18.24	-29.0	-31.7	14.2	7.00e-07	0	43	0	946864128	18	4920
2026-01-01 23:07:30.18	139.83	18.15	-29.1	-32.0	14.0	4.45e-04	0	43	0	948961280	18	5023
2026-01-01 23:07:31.18	140.00	18.07	-29.1	-32.1	14.0	5.35e-04	0	43	0	950009856	18	5065
2026-01-01 23:07:32.18	140.16	17.98	-29.2	-32.2	13.9	2.20e-06	0	43	0	952107008	18	5107
2026-01-01 23:07:33.18	140.32	17.89	-29.2	-32.3	13.8	6.10e-06	0	43	0	954204160	18	5134
2026-01-01 23:07:34.18	140.48	17.81	-29.3	-32.4	13.7	7.59e-04	0	43	0	956301312	18	5197
2026-01-01 23:07:35.17	140.64	17.72	-29.2	-32.2	13.8	7.60e-06	0	43	0	958398464	18	5124
2026-01-01 23:07:36.17	140.80	17.63	-29.1	-32.2	13.8	3.80e-06	0	43	0	959447040	18	5092
2026-01-01 23:07:37.18	140.97	17.55	-29.1	-32.1	13.9	5.30e-06	0	43	0	961544192	18	5060
2026-01-01 23:07:38.18	141.12	17.46	-29.2	-32.2	13.8	7.60e-06	0	43	0	963641344	18	5095
2026-01-01 23:07:39.18	141.28	17.37	-29.0	-31.8	14.0	2.28e-05	0	43	0	965738496	18	4976
2026-01-01 23:07:40.18	141.44	17.29	-29.0	-31.8	14.0	3.80e-06	0	43	0	967835648	18	4972
2026-01-01 23:07:41.19	141.60	17.20	-29.1	-32.1	13.8	2.20e-06	0	43	0	968884224	18	5081
2026-01-01 23:07:42.19	141.75	17.11	-29.5	-33.0	13.2	1.59e-03	0	43	0	970981376	18	5420
2026-01-01 23:07:43.19	141.91	17.03	-29.1	-32.1	13.8	8.30e-06	0	43	0	973078528	18	5078
2026-01-01 23:07:44.20	142.06	16.94	-29.2	-32.5	13.5	5.30e-06	0	43	0	975175680	18	5224
2026-01-01 23:07:45.21	142.21	16.85	-29.2	-32.3	13.6	1.82e-03	0	43	0	977272832	18	5152
2026-01-01 23:07:46.21	142.37	16.77	-29.3	-32.7	13.4	9.10e-06	0	43	0	978321408	18	5295
2026-01-01 23:07:47.22	142.52	16.68	-29.4	-33.0	13.1	2.13e-05	0	43	0	980418560	18	5422
2026-01-01 23:07:48.21	142.67	16.60	-29.4	-32.9	13.2	4.04e-05	0	43	0	982515712	18	5380
2026-01-01 23:07:49.22	142.82	16.51	-29.5	-32.8	12.9	1.66e-03	0	43	0	984612864	19	5228
2026-01-01 23:07:50.22	142.97	16.43	-29.7	-33.3	12.4	1.22e-04	0	43	0	986710016	19	5473
2026-01-01 23:07:51.23	143.11	16.34	-29.5	-32.7	12.9	7.32e-05	0	43	0	987758592	19	5210
2026-01-01 23:07:52.23	143.26	16.25	-29.4	-32.9	13.1	1.52e-03	0	43	0	989855744	18	5409
2026-01-01 23:07:53.23	143.41	16.17	-29.6	-33.0	12.6	6.79e-05	0	43	0	991952896	19	5344
2026-01-01 23:07:54.23	143.55	16.09	-29.7	-33.3	12.4	1.43e-04	0	43	0	994050048	19	5479
2026-01-01 23:07:55.24	143.70	16.00	-29.8	-33.7	12.2	1.53e-04	0	43	0	996147200	19	5610
2026-01-01 23:07:56.25	143.84	15.91	-29.9	-34.1	11.9	4.07e-04	0	43	0	997195776	19	5795
2026-01-01 23:07:57.25	143.99	15.83	-29.8	-33.6	12.2	2.70e-04	0	43	0	999292928	19	5582
2026-01-01 23:07:58.25	144.13	15.75	-29.8	-33.7	12.1	2.33e-04	0	43	0	1001390080	19	5658
2026-01-01 23:07:59.25	144.27	15.66	-29.8	-33.8	12.1	3.07e-04	0	43	0	1003487232	19	5674
2026-01-01 23:08:00.25	144.41	15.58	-29.8	-33.7	12.1	2.61e-04	0	43	0	1004535808	19	5648
2026-01-01 23:08:01.26	144.55	15.49	-29.9	-33.6	11.7	5.61e-04	0	43	0	1006632960	20	5528
2026-01-01 23:08:02.26	144.69	15.41	-29.7	-32.8	12.3	3.13e-04	0	43	0	1008730112	20	5196
2026-01-01 23:08:03.26	144.83	15.33	-29.6	-33.0	12.6	9.91e-05	0	43	0	1010827264	19	5352
2026-01-01 23:08:04.27	144.97	15.24	-29.5	-32.9	12.7	8.85e-05	0	43	0	1012924416	19	5313
2026-01-01 23:08:05.27	145.10	15.16	-29.6	-33.1	12.5	6.79e-05	0	43	0	1013972992	19	5407
2026-01-01 23:08:06.27	145.24	15.08	-29.9	-33.9	12.0	1.80e-04	0	43	0	1016070144	19	5741
2026-01-01 23:08:07.28	145.37	14.99	-29.9	-34.0	11.9	3.22e-04	0	43	0	1018167296	19	5777
2026-01-01 23:08:08.28	145.51	14.91	-29.9	-34.1	11.8	3.35e-04	0	43	0	1020264448	19	5853
2026-01-01 23:08:09.29	145.64	14.82	-29.9	-33.8	11.6	5.33e-04	0	43	0	1022361600	20	5608
2026-01-01 23:08:10.29	145.78	14.74	-30.0	-34.4	11.6	7.27e-04	0	43	0	1023410176	19	5999
2026-01-01 23:08:11.30	145.91	14.66	-29.9	-33.9	11.5	8.06e-04	0	43	0	1025507328	20	5699
2026-01-01 23:08:12.30	146.04	14.58	-30.0	-34.2	11.3	1.25e-03	0	43	0	1027604480	20	5822
2026-01-01 23:08:13.31	146.17	14.49	-30.2	-34.7	10.9	2.06e-03	0	43	0	1029701632	20	6069
2026-01-01 23:08:14.31	146.30	14.41	-30.1	-34.5	11.0	2.00e-03	0	43	0	1031798784	20	5980
2026-01-01 23:08:15.31	146.43	14.33	-30.1	-34.5	11.0	2.15e-03	0	43	0	1032847360	20	6009
2026-01-01 23:08:16.31	146.56	14.25	-29.8	-33.7	11.6	1.43e-03	0	43	0	1034944512	20	5614
2026-01-01 23:08:17.31	146.69	14.17	-29.1	-33.2	11.5	7.28e-04	0	43	0	1037041664	20	5747
2026-01-01 23:08:18.31	146.82	14.08	-29.9	-34.1	11.5	6.56e-04	0	43	0	1039138816	19	5870
2026-01-01 23:08:19.31	146.95	14.00	-29.9	-34.2	11.6	4.71e-04	0	43	0	1041235968	19	5932
2026-01-01 23:08:20.31	147.07	13.92	-29.8	-34.0	11.1	7.92e-04	0	43	0	1042284544	19	5839
2026-01-01 23:08:21.32	147.20	13.84	-29.7	-33.4	11.5	2.43e-04	0	43	0	1044381696	19	5570
2026-01-01 23:08:22.32	147.32	13.76	-29.7	-33.4	12.2	1.50e-04	0	43	0	1046478848	19	5557
2026-01-01 23:08:23.32	147.45	13.68	-29.6	-33.3	12.2	2.54e-03	0	43	0	1048576000	19	5519
2026-01-01 23:08:24.32	147.57	13.60	-29.6	-33.2	12.4	1.46e-04	0	43	0	1049624576	19	5433
2026-01-01 23:08:25.32	147.69	13.52	-29.7	-33.5	12.2	2.32e-04	0	43	0	1051721728	19	5576
2026-01-01 23:08:26.33	147.82	13.44	-29.7	-33.4	12.2	2.06e-04	0	43	0	1053818880	19	5533
2026-01-01 23:08:27.33	147.94	13.36	-29.8	-33.8	12.0	4.18e-04	0	43	0	1055916032	19	5728
2026-01-01 23:08:28.33	148.06	13.28	-29.8	-33.8	11.9	3.33e-04	0	43	0	1058013184	19	5697
2026-01-01 23:08:29.33	148.18	13.20	-29.9	-34.1	11.7	6.15e-04	0	43	0	1060110336	19	5847
2026-01-01 23:08:30.33	148.30	13.12	-29.9	-34.0	11.9	3.07e-03	0	43	0	1061158912	19	5775
2026-01-01 23:08:31.33	148.42	13.04	-29.8	-33.9	11.9	3.64e-04	0	43	0	1063256064	19	5738
2026-01-01 23:08:32.33	148.54	12.96	-29.9	-34.2	11.7	5.46e-04	0	43	0	1065353216	19	5880
2026-01-01 23:08:33.33	148.65	12.88	-30.0	-34.3	11.6	3.43e-03	0	43	0	1067450368	19	5965
2026-01-01 23:08:34.33	148.77	12.80	-29.9	-34.3	11.6	9.50e-04	0	43	0	1068498944	19	5937
2026-01-01 23:08:35.34	148.89	12.72	-29.9	-34.1	11.7	4.96e-04	0	43	0	1070596096	19	5862
2026-01-01 23:08:36.34	149.00	12.64	-29.8	-33.9	11.9	6.51e-04	0	43	0	1072693248	19	5768
2026-01-01 23:08:37.34	149.12	12.56	-29.7	-33.6	12.0	6.06e-04	0	43	0	1074790400	19	5664
2026-01-01 23:08:38.34	149.23	12.48	-29.7	-33.7	12.0	3.34e-04	0	43	0	1076887552	19	5711
2026-01-01 23:08:39.35	149.35	12.40	-29.6	-33.3	12.2	2.71e-04	0	43	0	1077936128	19	5540
2026-01-01 23:08:40.35	149.46	12.33	-29.7	-33.6	12.0	6.10e-04	0	43	0	1080033280	19	5664
2026-01-01 23:08:41.35	149.58	12.25	-29.8	-33.8	11.9	3.29e-03	0	43	0	1082130432	19	5733
2026-01-01 23:08:42.35	149.69	12.17	-29.5	-32.9	12.5	2.17e-04	0	43	0	1084227584	19	5334
2026-01-01 23:08:43.35	149.80	12.09	-29.4	-32.6	12.7	1.01e-04	0	43	0	1086324736	19	5221
2026-01-01 23:08:44.34	149.91	12.02	-29.3	-32.9	12.9	2.50e-03	0	43	0	1087373312	18	5425
2026-01-01 23:08:45.34	150.02	11.94	-29.3	-33.0	12.8	2.27e-03	0	43	0	1089470464	18	5489
2026-01-01 23:08:46.34	150.13	11.86	-29.4	-33.2	12.6	5.34e-05	0	43	0	1091567616	18	5592
2026-01-01 23:08:47.34	150.24	11.78	-29.4	-33.2	12.6	2.36e-03	0	43	0	1093664768	18	5589
2026-01-01 23:08:48.34	150.35	11.71	-29.5	-33.5	12.4	2.77e-03	0	43	0	1095761920	18	5716
2026-01-01 23:08:49.34	150.46	11.63	-29.6	-33.4	12.1	2.17e-04	0	43	0	1096810496	19	5568
2026-01-01 23:08:50.34	150.57	11.55	-29.6	-33.4	12.0	2.88e-04	0	43	0	1098907648	19	5602
2026-01-01 23:08:51.35	150.68	11.48	-29.6	-33.6	11.9	3.04e-03	0	43	0	1101004800	19	5683
2026-01-01 23:08:52.35	150.78	11.40	-29.6	-33.6	11.8	8.15e-04	0	43	0	1103101952	19	5706
2026-01-01 23:08:53.35	150.89	11.32	-29.5	-33.3	12.0	3.82e-04	0	43	0	1104150528	19	5589
2026-01-01 23:08:54.35	150.99	11.25	-29.6	-33.6	11.8	3.08e-03	0	43	0	1106247680	19	5698
2026-01-01 23:08:55.36	151.10	11.17	-29.5	-33.4	12.0	7.48e-04	0	43	0	1108344832	19	5609
2026-01-01 23:08:56.36	151.21	11.09	-29.4	-33.5	12.3	1.50e-03	0	43	0	1110441984	18	5746
2026-01-01 23:08:57.36	151.31	11.02	-29.4	-33.4	12.3	1.79e-04	0	43	0	1112539136	18	5706
2026-01-01 23:08:58.36	151.41	10.94	-29.3	-33.2	12.4	5.29e-04	0	43	0	1113587712	18	5624
2026-01-01 23:08:59.36	151.52	10.87	-29.3	-33.1	12.5	2.97e-03	0	43	0	1115684864	18	5571
2026-01-01 23:09:00.36	151.62	10.79	-29.3	-33.1	12.5	1.22e-04	0	43	0	1117782016	18	5562
2026-01-01 23:09:01.36	151.72	10.72	-29.3	-33.2	12.4	5.28e-04	0	43	0	1119879168	18	5606
2026-01-01 23:09:02.37	151.82	10.64	-29.4	-33.3	12.4	2.97e-03	0	43	0	1121976320	18	5643
2026-01-01 23:09:03.37	151.93	10.57	-29.3	-33.1	12.5	2.62e-03	0	43	0	1123024896	18	5589
2026-01-01 23:09:04.38	152.03	10.49	-29.4	-33.5	12.2	5.70e-04	0	43	0	1125122048	18	5762
2026-01-01 23:09:05.38	152.13	10.42	-29.6	-33.7	11.7	3.03e-03	0	43	0	1127219200	19	5752
2026-01-01 23:09:06.38	152.23	10.34	-29.5	-33.4	11.9	3.44e-03	0	43	0	1129316352	19	5621
2026-01-01 23:09:07.39	152.33	10.27	-29.6	-33.7	11.7	3.77e-04	0	43	0	1131413504	19	5750
2026-01-01 23:09:08.39	152.43	10.19	-29.6	-33.6	11.7	3.53e-03	0	43	0	1132462080	19	5710
2026-01-01 23:09:09.39	152.52	10.12	-29.6	-33.9	11.5	3.65e-03	0	43	0	1134559232	19	5856
2026-01-01 23:09:10.40	152.62	10.05	-29.5	-33.5	11.7	1.12e-03	0	43	0	1136656384	19	5715
2026-01-01 23:09:11.40	152.72	9.97	-29.6	-33.9	11.4	3.53e-03	0	43	0	1138753536	19	5917
2026-01-01 23:09:12.40	152.82	9.90	-29.6	-33.9	11.4	3.90e-03	0	43	0	1140850688	19	5918
2026-01-01 23:09:13.41	152.92	9.83	-29.6	-33.8	11.5	1.24e-03	0	43	0	1141899264	19	5833
2026-01-01 23:09:14.42	153.01	9.75	-29.5	-33.5	11.7	3.35e-03	0	43	0	1143996416	19	5698
2026-01-01 23:09:15.42	153.11	9.68	-29.5	-33.4	11.8	3.32e-03	0	43	0	1146093568	19	5650
2026-01-01 23:09:16.43	153.20	9.61	-29.4	-33.2	11.9	9.92e-04	0	43	0	1148190720	19	5556
2026-01-01 23:09:17.43	153.30	9.53	-29.4	-33.6	12.0	3.07e-03	0	43	0	1150287872	18	5838
2026-01-01 23:09:18.44	153.39	9.46	-29.3	-33.5	12.0	3.09e-03	0	43	0	1151336448	18	5820
2026-01-01 23:09:19.44	153.49	9.39	-29.4	-33.8	11.8	8.14e-04	0	43	0	1153433600	18	5959
2026-01-01 23:09:20.44	153.58	9.31	-29.3	-33.5	12.0	3.25e-03	0	43	0	1155530752	18	5824
2026-01-01 23:09:21.44	153.67	9.24	-29.1	-33.1	12.2	2.59e-04	0	43	0	1157627904	18	5709
2026-01-01 23:09:22.45	153.77	9.17	-29.2	-33.3	12.0	5.90e-04	0	43	0	1158676480	18	5787
2026-01-01 23:09:23.45	153.86	9.10	-29.3	-33.6	11.9	2.89e-03	0	43	0	1160773632	18	5917
2026-01-01 23:09:24.46	153.95	9.03	-29.2	-33.3	12.1	3.17e-03	0	43	0	1162870784	18	5767
2026-01-01 23:09:25.46	154.04	8.95	-29.3	-33.6	11.8	3.65e-04	0	43	0	1164967936	18	5905
2026-01-01 23:09:26.47	154.13	8.88	-29.4	-33.9	11.7	3.17e-03	0	43	0	1167065088	18	6035
2026-01-01 23:09:27.47	154.22	8.81	-29.4	-34.0	11.6	3.46e-03	0	43	0	1168113664	18	6091
2026-01-01 23:09:28.47	154.31	8.74	-29.5	-33.5	11.7	6.45e-04	0	43	0	1170210816	19	5697
2026-01-01 23:09:29.47	154.40	8.67	-29.6	-33.6	11.6	3.43e-03	0	43	0	1172307968	19	5745
2026-01-01 23:09:30.47	154.49	8.60	-29.6	-33.8	11.5	3.29e-03	0	43	0	1174405120	19	5811
2026-01-01 23:09:31.47	154.58	8.53	-29.6	-33.9	11.4	1.04e-03	0	43	0	1176502272	19	5866
2026-01-01 23:09:32.47	154.67	8.46	-29.6	-33.8	11.5	6.94e-04	0	43	0	1177550848	19	5831
2026-01-01 23:09:33.47	154.75	8.39	-29.5	-33.5	11.6	3.46e-03	0	43	0	1179648000	19	5701
2026-01-01 23:09:34.47	154.84	8.32	-29.5	-33.5	11.6	9.66e-04	0	43	0	1181745152	19	5726
2026-01-01 23:09:35.48	154.93	8.25	-29.6	-33.9	11.3	1.15e-03	0	43	0	1183842304	19	5899
2026-01-01 23:09:36.48	155.02	8.18	-29.4	-33.8	11.8	1.61e-03	0	43	0	1185939456	18	5964
2026-01-01 23:09:37.48	155.10	8.11	-29.4	-33.8	11.7	1.06e-03	0	43	0	1186988032	18	6003
2026-01-01 23:09:38.49	155.19	8.04	-29.5	-33.7	11.4	7.93e-04	0	43	0	1189085184	19	5859
2026-01-01 23:09:39.49	155.27	7.97	-29.7	-34.4	10.9	1.55e-03	0	43	0	1191182336	19	6157
2026-01-01 23:09:40.50	155.36	7.90	-29.7	-34.3	11.0	2.25e-03	0	43	0	1193279488	19	6126
2026-01-01 23:09:41.51	155.45	7.83	-29.6	-33.8	11.4	4.23e-03	0	43	0	1195376640	19	5868
2026-01-01 23:09:42.51	155.53	7.76	-29.6	-33.8	11.5	8.77e-04	0	43	0	1196425216	19	5797
2026-01-01 23:09:43.51	155.61	7.69	-29.6	-33.5	11.7	6.54e-04	0	43	0	1198522368	19	5665
2026-01-01 23:09:44.51	155.70	7.62	-29.7	-33.8	11.5	3.41e-03	0	43	0	1200619520	19	5805
2026-01-01 23:09:45.52	155.78	7.55	-29.5	-33.4	11.8	6.46e-04	0	43	0	1202716672	19	5589
2026-01-01 23:09:46.52	155.86	7.48	-29.8	-34.0	11.4	6.90e-04	0	43	0	1203765248	19	5874
2026-01-01 23:09:47.53	155.95	7.41	-29.8	-34.3	11.2	3.85e-03	0	43	0	1205862400	19	6003
2026-01-01 23:09:48.53	156.03	7.34	-29.7	-34.0	11.4	9.88e-04	0	43	0	1207959552	19	5893
2026-01-01 23:09:49.54	156.11	7.28	-29.9	-34.6	10.9	2.08e-03	0	43	0	1210056704	19	6209
2026-01-01 23:09:50.54	156.19	7.21	-29.7	-34.2	11.1	2.36e-03	0	43	0	1212153856	19	6043
2026-01-01 23:09:51.55	156.27	7.14	-29.9	-34.9	10.5	4.45e-03	0	43	0	1214251008	19	6397
2026-01-01 23:09:52.55	156.35	7.07	-31.6	-45.9	3.8	2.70e-01	0	43	104	1215299584	23	18552
2026-01-01 23:09:53.55	156.43	7.00	-32.1	-46.5	3.8	1.49e+00	0	43	104	1215299584	24	18793
2026-01-01 23:09:54.54	156.51	6.94	-32.9	-47.4	3.8	1.49e+00	0	43	104	1215299584	25	19187

#Closed at: 2026-01-01 23:09:54
#Recorded file [1215 MB]: D:/data/31010_260102_015903.dat