passes_logs/2026/01/01/R2M6_AANII_01/R2M6_AANII_01__20260101_050628_FENGYUN_3E_rec.log

#Pass ID: 20260101_050628_FENGYUN 3E
#Satellite: FENGYUN 3E
#Configuration: FENGYUN 3E
#almurnet v.1.7.20240730
#Start time: 2026-01-01 05:08:14

#Version: 2.2.20231116
#Station: R2M6_AANII_01
#Location: 30.233357 lon 59.946436 lat
#TLE: 1 49008U 21062A   25365.55977344  .00000403  00000+0  21051-3 0  9995
#TLE: 2 49008  98.7483   5.8586 0001311 170.0615 190.0588 14.19883886232790

#Time	Az	El	Level	Level2	SNR	BER	BlckErr	Temp	State	Recorded	gain1	gain2
2026-01-01 05:08:14.42	12.30	16.65	-32.8	-44.3	3.8	8.47e-01	0	43	0	0	25	13418
2026-01-01 05:08:15.41	12.26	16.76	-33.5	-43.2	3.8	8.47e-01	0	43	104	0	26	11080
2026-01-01 05:08:16.40	12.21	16.87	-33.5	-43.3	3.8	8.46e-01	0	43	104	0	26	11179
2026-01-01 05:08:17.40	12.16	16.98	-33.5	-43.4	3.8	8.46e-01	0	43	104	0	26	11203
2026-01-01 05:08:18.41	12.11	17.10	-33.5	-43.4	3.8	8.46e-01	0	43	104	0	26	11231
2026-01-01 05:08:19.41	12.06	17.21	-33.6	-43.5	3.8	8.45e-01	0	43	104	0	26	11294
2026-01-01 05:08:20.41	12.02	17.32	-33.6	-43.5	3.8	8.47e-01	0	43	104	0	26	11290
2026-01-01 05:08:21.40	11.97	17.44	-33.6	-43.5	3.8	8.46e-01	0	43	104	0	26	11282
2026-01-01 05:08:22.40	11.92	17.55	-33.6	-43.5	3.8	8.47e-01	0	43	104	0	26	11262
2026-01-01 05:08:23.40	11.87	17.67	-33.6	-43.5	3.8	8.46e-01	0	43	104	0	26	11297
2026-01-01 05:08:24.41	11.82	17.78	-33.6	-43.5	3.8	8.46e-01	0	43	104	0	26	11241
2026-01-01 05:08:25.40	11.77	17.90	-33.5	-43.4	3.8	8.46e-01	0	43	104	0	26	11262
2026-01-01 05:08:26.40	11.71	18.02	-33.6	-43.5	3.8	8.46e-01	0	43	104	0	26	11299
2026-01-01 05:08:27.40	11.66	18.13	-33.5	-43.4	3.8	8.47e-01	0	43	104	0	26	11232
2026-01-01 05:08:28.40	11.61	18.25	-33.5	-43.4	3.8	8.46e-01	0	43	104	0	26	11232
2026-01-01 05:08:29.39	11.56	18.37	-33.6	-43.5	3.8	8.47e-01	0	43	104	0	26	11279
2026-01-01 05:08:30.39	11.51	18.49	-33.5	-43.4	3.8	8.46e-01	0	43	104	0	26	11228
2026-01-01 05:08:31.39	11.45	18.61	-33.5	-43.4	3.8	8.46e-01	0	43	104	0	26	11262
2026-01-01 05:08:32.38	11.40	18.73	-33.6	-43.0	3.8	8.46e-01	0	43	104	0	27	10653
2026-01-01 05:08:33.38	11.34	18.85	-33.6	-43.1	3.8	8.47e-01	0	43	104	0	27	10679
2026-01-01 05:08:34.37	11.29	18.97	-33.6	-43.1	3.8	8.46e-01	0	43	104	0	27	10717
2026-01-01 05:08:35.38	11.23	19.09	-33.6	-43.0	3.8	8.46e-01	0	43	104	0	27	10614
2026-01-01 05:08:36.37	11.18	19.21	-33.6	-43.0	3.8	8.47e-01	0	43	104	0	27	10658
2026-01-01 05:08:37.37	11.12	19.34	-33.5	-43.4	3.8	8.47e-01	0	43	104	0	26	11269
2026-01-01 05:08:38.37	11.07	19.46	-33.5	-43.3	3.8	8.46e-01	0	43	104	0	26	11165
2026-01-01 05:08:39.36	11.01	19.58	-33.5	-43.3	3.8	8.45e-01	0	43	104	0	26	11215
2026-01-01 05:08:40.37	10.95	19.71	-33.5	-43.3	3.8	8.45e-01	0	43	104	0	26	11163
2026-01-01 05:08:41.36	10.89	19.83	-33.4	-43.2	3.8	8.46e-01	0	43	104	0	26	11132
2026-01-01 05:08:42.37	10.83	19.96	-33.4	-43.1	3.8	8.47e-01	0	43	104	0	26	10991
2026-01-01 05:08:43.36	10.78	20.09	-33.3	-43.0	3.8	8.46e-01	0	43	104	0	26	10965
2026-01-01 05:08:44.36	10.72	20.21	-33.3	-42.9	3.8	8.46e-01	0	43	104	0	26	10893
2026-01-01 05:08:45.36	10.66	20.34	-33.2	-42.6	3.8	8.47e-01	0	43	104	0	26	10631
2026-01-01 05:08:46.35	10.60	20.47	-32.9	-40.6	3.8	8.45e-01	0	43	104	0	26	8771
2026-01-01 05:08:47.35	10.53	20.60	-32.4	-38.0	4.3	8.34e-01	0	43	104	0	26	6847
2026-01-01 05:08:48.35	10.47	20.73	-32.2	-38.0	4.5	8.23e-01	0	43	0	0	24	7034
2026-01-01 05:08:49.36	10.41	20.86	-32.0	-37.2	4.8	8.05e-01	0	43	0	0	24	6500
2026-01-01 05:08:50.34	10.35	20.99	-31.8	-36.3	5.3	7.48e-01	0	43	0	0	24	6009
2026-01-01 05:08:51.34	10.28	21.12	-31.6	-35.9	5.7	6.93e-01	0	43	0	0	23	5907
2026-01-01 05:08:52.34	10.22	21.25	-31.5	-35.9	6.0	3.58e-01	0	43	0	6291456	22	5984
2026-01-01 05:08:53.33	10.15	21.38	-31.4	-35.5	6.2	3.12e-01	0	43	0	13631488	22	5794
2026-01-01 05:08:54.34	10.09	21.52	-31.4	-35.7	6.1	3.07e-01	0	44	0	20971520	22	5892
2026-01-01 05:08:55.34	10.02	21.65	-31.7	-36.1	5.6	5.04e-01	0	43	0	27262976	23	6010
2026-01-01 05:08:56.34	9.96	21.79	-32.0	-37.6	4.9	7.54e-01	0	43	0	28311552	23	6847
2026-01-01 05:08:57.34	9.89	21.92	-32.3	-38.7	4.3	8.27e-01	0	43	0	28311552	24	7506
2026-01-01 05:08:58.34	9.82	22.06	-32.3	-38.6	4.3	8.32e-01	0	43	0	28311552	24	7425
2026-01-01 05:08:59.33	9.75	22.20	-31.7	-35.8	5.4	7.42e-01	0	43	0	28311552	24	5779
2026-01-01 05:09:00.33	9.68	22.33	-30.4	-32.5	8.0	9.98e-02	0	43	0	35651584	22	4570
2026-01-01 05:09:01.32	9.62	22.47	-29.1	-30.5	10.4	8.64e-03	0	43	0	41943040	19	4199
2026-01-01 05:09:02.31	9.55	22.61	-28.0	-28.7	12.1	3.07e-04	0	43	0	49283072	17	3893
2026-01-01 05:09:03.31	9.47	22.75	-26.8	-27.4	13.6	1.71e-05	0	43	0	56623104	14	3875
2026-01-01 05:09:04.31	9.40	22.89	-26.0	-26.3	14.5	0.00e+00	0	43	0	63963136	13	3697
2026-01-01 05:09:05.31	9.33	23.03	-25.7	-26.0	14.9	1.10e-06	0	44	0	71303168	12	3741
2026-01-01 05:09:06.31	9.26	23.17	-25.8	-26.6	14.9	0.00e+00	0	43	0	78643200	11	3984
2026-01-01 05:09:07.31	9.18	23.32	-26.0	-27.3	14.5	0.00e+00	0	43	0	85983232	11	4153
2026-01-01 05:09:08.32	9.11	23.46	-26.4	-27.7	13.9	1.10e-06	0	43	0	93323264	12	4153
2026-01-01 05:09:09.32	9.03	23.61	-27.2	-28.3	13.0	3.08e-05	0	43	0	100663296	14	4116
2026-01-01 05:09:10.33	8.96	23.75	-26.8	-27.5	13.5	1.37e-05	0	43	0	108003328	14	3914
2026-01-01 05:09:11.32	8.88	23.90	-26.4	-27.1	14.0	4.50e-06	0	43	0	114294784	13	3894
2026-01-01 05:09:12.33	8.80	24.04	-26.7	-27.7	13.7	3.40e-06	0	43	0	121634816	13	4042
2026-01-01 05:09:13.33	8.72	24.19	-26.1	-26.3	14.4	0.00e+00	0	43	0	128974848	13	3717
2026-01-01 05:09:14.33	8.64	24.34	-25.6	-25.8	15.0	0.00e+00	0	43	0	136314880	12	3678
2026-01-01 05:09:15.32	8.56	24.49	-25.4	-25.9	15.3	0.00e+00	0	43	0	143654912	11	3808
2026-01-01 05:09:16.32	8.48	24.64	-25.4	-26.4	15.3	0.00e+00	0	43	0	150994944	10	4035
2026-01-01 05:09:17.32	8.40	24.79	-25.9	-26.9	14.8	0.00e+00	0	43	0	158334976	11	4047
2026-01-01 05:09:18.32	8.32	24.94	-26.2	-27.2	14.3	3.40e-06	0	43	0	164626432	12	4015
2026-01-01 05:09:19.31	8.24	25.09	-25.6	-25.8	15.1	0.00e+00	0	43	0	171966464	12	3678
2026-01-01 05:09:20.31	8.15	25.24	-25.0	-25.1	15.8	0.00e+00	0	43	0	179306496	11	3615
2026-01-01 05:09:21.30	8.07	25.39	-24.5	-24.5	16.4	0.00e+00	0	43	0	186646528	10	3592
2026-01-01 05:09:22.30	7.98	25.55	-24.1	-24.0	16.9	0.00e+00	0	43	0	193986560	9	3582
2026-01-01 05:09:23.30	7.90	25.70	-23.7	-23.7	17.3	0.00e+00	0	43	0	201326592	8	3610
2026-01-01 05:09:24.29	7.81	25.86	-23.5	-23.8	17.5	0.00e+00	0	43	0	208666624	7	3717
2026-01-01 05:09:25.29	7.72	26.02	-23.4	-24.1	17.6	0.00e+00	0	43	0	216006656	6	3897
2026-01-01 05:09:26.28	7.63	26.17	-23.4	-24.2	17.5	0.00e+00	0	43	0	222298112	6	3919
2026-01-01 05:09:27.28	7.54	26.33	-23.2	-23.6	17.8	0.00e+00	0	43	0	229638144	6	3796
2026-01-01 05:09:28.29	7.45	26.49	-23.1	-23.4	17.9	0.00e+00	0	43	0	236978176	6	3748
2026-01-01 05:09:29.29	7.36	26.65	-23.0	-23.3	18.0	0.00e+00	0	43	0	244318208	6	3709
2026-01-01 05:09:30.28	7.27	26.81	-23.1	-23.4	17.9	0.00e+00	0	44	0	251658240	6	3738
2026-01-01 05:09:31.28	7.17	26.97	-23.1	-23.5	17.9	0.00e+00	0	43	0	258998272	6	3771
2026-01-01 05:09:32.27	7.08	27.14	-23.2	-23.8	17.8	0.00e+00	0	43	0	265289728	6	3825
2026-01-01 05:09:33.26	6.98	27.30	-23.0	-23.1	18.1	0.00e+00	0	43	0	272629760	6	3680
2026-01-01 05:09:34.25	6.89	27.46	-23.0	-23.3	18.0	0.00e+00	0	43	0	279969792	6	3713
2026-01-01 05:09:35.25	6.79	27.63	-22.8	-22.8	18.2	0.00e+00	0	43	0	287309824	6	3611
2026-01-01 05:09:36.24	6.69	27.79	-22.6	-22.9	18.5	0.00e+00	0	43	0	294649856	5	3731
2026-01-01 05:09:37.24	6.59	27.96	-22.7	-23.2	18.3	0.00e+00	0	44	0	301989888	5	3795
2026-01-01 05:09:38.23	6.49	28.13	-22.8	-23.3	18.3	0.00e+00	0	43	0	309329920	5	3811
2026-01-01 05:09:39.22	6.39	28.30	-22.5	-22.8	18.5	0.00e+00	0	43	0	315621376	5	3700
2026-01-01 05:09:40.22	6.29	28.47	-22.5	-22.7	18.6	0.00e+00	0	43	0	324009984	5	3681
2026-01-01 05:09:41.21	6.18	28.64	-22.4	-22.5	18.6	0.00e+00	0	43	0	330301440	5	3643
2026-01-01 05:09:42.21	6.08	28.81	-22.4	-22.6	18.6	0.00e+00	0	43	0	337641472	5	3656
2026-01-01 05:09:43.21	5.97	28.98	-22.4	-23.0	18.6	0.00e+00	0	43	0	344981504	4	3859
2026-01-01 05:09:44.21	5.86	29.16	-22.3	-22.8	18.8	0.00e+00	0	43	0	352321536	4	3817
2026-01-01 05:09:45.20	5.75	29.33	-22.2	-22.6	18.8	0.00e+00	0	43	0	359661568	4	3775
2026-01-01 05:09:46.20	5.64	29.50	-22.4	-22.9	18.8	0.00e+00	0	43	0	365953024	4	3835
2026-01-01 05:09:47.20	5.53	29.68	-22.2	-22.5	18.9	0.00e+00	0	43	0	373293056	4	3739
2026-01-01 05:09:48.20	5.42	29.86	-22.1	-22.3	19.1	0.00e+00	0	43	0	380633088	4	3701
2026-01-01 05:09:49.19	5.30	30.04	-22.1	-22.4	19.0	0.00e+00	0	43	0	387973120	4	3715
2026-01-01 05:09:50.19	5.19	30.22	-22.1	-22.3	19.1	0.00e+00	0	43	0	395313152	4	3706
2026-01-01 05:09:51.18	5.07	30.40	-22.1	-22.4	19.0	0.00e+00	0	43	0	402653184	4	3726
2026-01-01 05:09:52.17	4.95	30.58	-22.2	-22.6	18.9	0.00e+00	0	43	0	409993216	4	3758
2026-01-01 05:09:53.17	4.83	30.76	-22.0	-22.2	19.1	0.00e+00	0	43	0	416284672	4	3685
2026-01-01 05:09:54.17	4.71	30.94	-22.0	-22.1	19.2	0.00e+00	0	43	0	423624704	4	3654
2026-01-01 05:09:55.16	4.59	31.13	-22.1	-22.3	19.1	0.00e+00	0	43	0	430964736	4	3693
2026-01-01 05:09:56.15	4.47	31.31	-22.3	-22.9	18.8	0.00e+00	0	43	0	438304768	4	3823
2026-01-01 05:09:57.15	4.34	31.50	-22.2	-22.5	19.0	0.00e+00	0	43	0	445644800	4	3745
2026-01-01 05:09:58.15	4.22	31.69	-22.2	-22.5	19.0	0.00e+00	0	44	0	452984832	4	3736
2026-01-01 05:09:59.14	4.09	31.87	-22.2	-22.7	18.9	0.00e+00	0	43	0	460324864	4	3782
2026-01-01 05:10:00.14	3.96	32.06	-22.3	-22.8	18.8	0.00e+00	0	43	0	467664896	4	3818
2026-01-01 05:10:01.13	3.83	32.25	-22.6	-22.8	18.6	0.00e+00	0	43	0	473956352	5	3710
2026-01-01 05:10:02.12	3.70	32.44	-21.8	-22.0	15.6	0.00e+00	0	43	0	481296384	5	3649
2026-01-01 05:10:03.13	3.56	32.64	-22.4	-23.0	13.7	0.00e+00	0	43	0	488636416	4	3859
2026-01-01 05:10:04.12	3.42	32.83	-22.5	-23.2	18.6	0.00e+00	0	43	0	495976448	4	3905
2026-01-01 05:10:05.11	3.29	33.03	-22.4	-23.1	18.7	0.00e+00	0	43	0	503316480	4	3871
2026-01-01 05:10:06.11	3.15	33.22	-22.5	-23.2	18.6	0.00e+00	0	43	0	509607936	4	3911
2026-01-01 05:10:07.11	3.00	33.42	-22.6	-22.8	18.6	0.00e+00	0	43	0	516947968	5	3715
2026-01-01 05:10:08.11	2.86	33.62	-22.8	-23.4	18.2	0.00e+00	0	43	0	524288000	5	3845
2026-01-01 05:10:09.10	2.72	33.82	-22.6	-22.9	18.4	0.00e+00	0	43	0	531628032	5	3744
2026-01-01 05:10:10.10	2.57	34.02	-22.5	-22.7	18.3	0.00e+00	0	43	0	538968064	5	3687
2026-01-01 05:10:11.10	2.42	34.22	-22.5	-22.6	12.2	0.00e+00	0	44	0	546308096	5	3662
2026-01-01 05:10:12.09	2.27	34.42	-22.6	-22.9	17.8	0.00e+00	0	43	0	553648128	5	3717
2026-01-01 05:10:13.08	2.12	34.62	-22.3	-22.4	18.8	0.00e+00	0	43	0	560988160	5	3607
2026-01-01 05:10:14.08	1.96	34.83	-22.3	-22.3	18.8	0.00e+00	0	43	0	568328192	5	3603
2026-01-01 05:10:15.07	1.81	35.03	-22.2	-22.5	19.0	0.00e+00	0	44	0	574619648	4	3741
2026-01-01 05:10:16.07	1.65	35.24	-22.1	-22.3	19.1	0.00e+00	0	43	0	581959680	4	3705
2026-01-01 05:10:17.07	1.49	35.45	-22.1	-22.4	18.7	0.00e+00	0	43	0	589299712	4	3734
2026-01-01 05:10:18.07	1.32	35.66	-22.3	-22.8	18.9	1.49e-03	0	43	0	596639744	4	3802
2026-01-01 05:10:19.07	1.16	35.87	-22.1	-22.4	18.4	0.00e+00	0	43	0	603979776	4	3718
2026-01-01 05:10:20.06	0.99	36.08	-22.0	-22.2	18.9	0.00e+00	0	43	0	611319808	4	3664
2026-01-01 05:10:21.06	0.82	36.29	-22.1	-22.3	19.1	1.46e-03	0	43	0	617611264	4	3698
2026-01-01 05:10:22.06	0.65	36.51	-22.2	-22.6	18.9	0.00e+00	0	44	0	624951296	4	3766
2026-01-01 05:10:23.05	0.48	36.72	-22.0	-22.2	19.2	0.00e+00	0	43	0	632291328	4	3670
2026-01-01 05:10:24.05	0.30	36.94	-22.1	-22.3	19.1	0.00e+00	0	43	0	639631360	4	3689
2026-01-01 05:10:25.05	0.12	37.16	-22.2	-22.6	19.0	0.00e+00	0	43	0	646971392	4	3757
2026-01-01 05:10:26.04	359.94	37.37	-22.2	-22.6	19.0	1.35e-03	0	43	0	654311424	4	3753
2026-01-01 05:10:27.04	359.76	37.59	-22.6	-22.9	18.6	0.00e+00	0	44	0	661651456	5	3727
2026-01-01 05:10:28.04	359.57	37.81	-22.4	-22.4	18.8	0.00e+00	0	43	0	668991488	5	3617
2026-01-01 05:10:29.03	359.38	38.03	-22.4	-22.5	18.8	1.53e-03	0	43	0	675282944	5	3628
2026-01-01 05:10:30.03	359.19	38.26	-22.5	-22.6	18.7	0.00e+00	0	43	0	682622976	5	3658
2026-01-01 05:10:31.02	359.00	38.48	-22.4	-23.0	18.8	0.00e+00	0	43	0	689963008	4	3853
2026-01-01 05:10:32.02	358.80	38.70	-22.5	-22.7	18.6	0.00e+00	0	43	0	697303040	5	3690
2026-01-01 05:10:33.01	358.60	38.93	-22.7	-23.2	18.4	0.00e+00	0	43	0	704643072	5	3788
2026-01-01 05:10:34.01	358.40	39.15	-22.8	-23.4	18.4	2.44e-04	0	44	0	711983104	5	3829
2026-01-01 05:10:35.01	358.19	39.38	-22.6	-23.0	18.5	0.00e+00	0	44	0	718274560	5	3747
2026-01-01 05:10:36.01	357.99	39.61	-22.6	-23.0	18.6	0.00e+00	0	43	0	725614592	5	3738
2026-01-01 05:10:37.01	357.77	39.84	-22.8	-23.3	18.4	1.90e-04	0	43	0	732954624	5	3824
2026-01-01 05:10:38.00	357.56	40.07	-22.4	-22.6	18.8	0.00e+00	0	43	0	740294656	5	3660
2026-01-01 05:10:39.00	357.34	40.31	-22.7	-23.2	18.5	1.42e-03	0	43	0	747634688	5	3783
2026-01-01 05:10:40.00	357.12	40.54	-22.8	-23.3	18.4	0.00e+00	0	43	0	754974720	5	3819
2026-01-01 05:10:40.99	356.90	40.77	-22.6	-22.9	18.6	0.00e+00	0	43	0	762314752	5	3714
2026-01-01 05:10:41.99	356.67	41.01	-22.6	-22.9	18.6	1.23e-03	0	43	0	769654784	5	3718
2026-01-01 05:10:42.99	356.44	41.25	-22.7	-23.2	18.5	0.00e+00	0	44	0	776994816	5	3791
2026-01-01 05:10:44.00	356.20	41.49	-22.9	-23.5	18.3	1.21e-03	0	43	0	783286272	5	3861
2026-01-01 05:10:44.99	355.97	41.72	-23.0	-23.8	18.1	1.33e-03	0	43	0	790626304	5	3932
2026-01-01 05:10:45.99	355.72	41.96	-22.7	-23.2	18.5	0.00e+00	0	43	0	797966336	5	3782
2026-01-01 05:10:46.98	355.48	42.20	-22.8	-23.3	18.4	1.20e-03	0	43	0	805306368	5	3822
2026-01-01 05:10:47.98	355.23	42.44	-22.9	-23.6	18.3	0.00e+00	0	43	0	812646400	5	3877
2026-01-01 05:10:48.97	354.98	42.69	-22.9	-22.9	18.4	2.25e-04	0	44	0	819986432	6	3635
2026-01-01 05:10:49.97	354.72	42.93	-22.8	-23.4	18.4	1.15e-03	0	43	0	827326464	5	3842
2026-01-01 05:10:50.97	354.46	43.17	-22.9	-23.5	18.3	0.00e+00	0	43	0	833617920	5	3866
2026-01-01 05:10:51.97	354.20	43.42	-22.6	-22.8	18.7	1.93e-04	0	43	0	840957952	5	3711
2026-01-01 05:10:52.97	353.93	43.67	-22.6	-22.8	18.6	1.10e-03	0	43	0	848297984	5	3706
2026-01-01 05:10:53.97	353.65	43.91	-23.0	-23.1	18.3	0.00e+00	0	43	0	855638016	6	3675
2026-01-01 05:10:54.97	353.37	44.16	-23.1	-23.5	18.1	2.33e-04	0	43	0	862978048	6	3768
2026-01-01 05:10:55.97	353.09	44.41	-23.4	-24.0	17.8	0.00e+00	0	43	0	870318080	6	3885
2026-01-01 05:10:56.97	352.80	44.66	-23.7	-24.2	17.5	1.21e-03	0	43	0	877658112	7	3816
2026-01-01 05:10:57.97	352.51	44.91	-23.5	-23.8	17.7	1.37e-04	0	43	0	883949568	7	3727
2026-01-01 05:10:58.96	352.22	45.16	-23.3	-23.3	17.9	0.00e+00	0	43	0	891289600	7	3621
2026-01-01 05:10:59.96	351.92	45.41	-23.1	-23.4	18.1	1.09e-03	0	43	0	898629632	6	3734
2026-01-01 05:11:00.95	351.62	45.66	-22.9	-23.1	18.3	1.10e-06	0	43	0	905969664	6	3663
2026-01-01 05:11:01.95	351.30	45.92	-23.0	-23.3	18.2	1.21e-03	0	43	0	913309696	6	3700
2026-01-01 05:11:02.94	350.99	46.17	-22.9	-23.5	18.3	1.36e-03	0	43	0	920649728	5	3874
2026-01-01 05:11:03.95	350.67	46.43	-22.9	-23.5	18.4	9.04e-05	0	43	0	927989760	5	3858
2026-01-01 05:11:04.94	350.34	46.68	-22.8	-23.2	18.5	1.48e-03	0	43	0	935329792	5	3788
2026-01-01 05:11:05.94	350.01	46.94	-23.1	-23.4	18.2	1.36e-03	0	43	0	942669824	6	3734
2026-01-01 05:11:06.93	349.68	47.19	-23.3	-23.8	18.0	1.42e-04	0	43	0	948961280	6	3819
2026-01-01 05:11:07.93	349.33	47.45	-23.4	-24.0	17.8	1.26e-03	0	43	0	956301312	6	3882
2026-01-01 05:11:08.93	348.99	47.70	-23.6	-24.0	17.6	0.00e+00	0	43	0	963641344	7	3771
2026-01-01 05:11:09.92	348.63	47.96	-23.6	-24.1	17.5	6.80e-06	0	43	0	970981376	7	3791
2026-01-01 05:11:10.91	348.28	48.21	-24.0	-24.9	17.1	7.33e-04	0	43	0	978321408	7	3996
2026-01-01 05:11:11.91	347.91	48.47	-23.8	-24.4	17.4	8.51e-04	0	43	0	984612864	7	3849
2026-01-01 05:11:12.91	347.54	48.73	-23.6	-24.0	17.6	0.00e+00	0	43	0	991952896	7	3766
2026-01-01 05:11:13.90	347.16	48.99	-23.3	-23.4	17.9	8.90e-04	0	43	0	999292928	7	3622
2026-01-01 05:11:14.89	346.78	49.24	-23.5	-23.8	17.7	9.33e-04	0	44	0	1006632960	7	3712
2026-01-01 05:11:15.88	346.39	49.50	-23.2	-23.1	18.1	0.00e+00	0	43	0	1013972992	7	3568
2026-01-01 05:11:16.88	345.99	49.76	-23.1	-23.5	18.1	0.00e+00	0	44	0	1021313024	6	3746
2026-01-01 05:11:17.88	345.59	50.02	-23.3	-23.8	18.0	1.22e-03	0	43	0	1028653056	6	3823
2026-01-01 05:11:18.88	345.17	50.28	-23.4	-24.0	17.9	0.00e+00	0	43	0	1035993088	6	3872
2026-01-01 05:11:19.88	344.75	50.53	-23.4	-23.6	17.8	1.20e-03	0	43	0	1043333120	7	3682
2026-01-01 05:11:20.88	344.32	50.79	-23.6	-23.9	17.6	1.33e-03	0	43	0	1049624576	7	3744
2026-01-01 05:11:21.87	343.89	51.05	-23.7	-24.2	17.5	0.00e+00	0	43	0	1056964608	7	3816
2026-01-01 05:11:22.87	343.45	51.31	-23.8	-24.3	17.4	1.42e-03	0	43	0	1064304640	7	3845
2026-01-01 05:11:23.87	343.00	51.56	-24.0	-24.8	17.2	1.38e-03	0	43	0	1071644672	7	3943
2026-01-01 05:11:24.87	342.54	51.82	-24.7	-25.5	16.3	0.00e+00	0	43	0	1078984704	9	3908
2026-01-01 05:11:25.87	342.08	52.08	-24.3	-25.0	16.9	1.47e-03	0	44	0	1086324736	8	3902
2026-01-01 05:11:26.87	341.60	52.33	-24.4	-25.2	16.8	1.38e-03	0	43	0	1092616192	8	3940
2026-01-01 05:11:27.87	341.12	52.59	-23.9	-24.1	17.3	0.00e+00	0	43	0	1101004800	8	3694
2026-01-01 05:11:28.87	340.63	52.84	-23.6	-24.1	17.6	1.23e-03	0	43	0	1107296256	7	3782
2026-01-01 05:11:29.86	340.13	53.09	-23.4	-24.1	17.9	0.00e+00	0	43	0	1114636288	6	3899
2026-01-01 05:11:30.86	339.62	53.34	-22.9	-23.1	18.4	0.00e+00	0	43	0	1121976320	6	3659
2026-01-01 05:11:31.86	339.11	53.59	-23.1	-23.5	18.2	9.51e-04	0	43	0	1129316352	6	3743
2026-01-01 05:11:32.86	338.58	53.84	-23.3	-23.9	18.0	0.00e+00	0	43	0	1136656384	6	3837
2026-01-01 05:11:33.86	338.04	54.09	-23.7	-24.2	17.5	0.00e+00	0	43	0	1143996416	7	3806
2026-01-01 05:11:34.85	337.50	54.34	-24.0	-24.2	17.2	0.00e+00	0	43	0	1150287872	8	3713
2026-01-01 05:11:35.84	336.96	54.58	-24.3	-25.0	16.9	8.97e-04	0	43	0	1157627904	8	3897
2026-01-01 05:11:36.84	336.39	54.83	-24.1	-24.6	17.1	0.00e+00	0	43	0	1164967936	8	3796
2026-01-01 05:11:37.85	335.81	55.07	-23.8	-24.4	17.4	0.00e+00	0	43	0	1172307968	7	3868
2026-01-01 05:11:38.85	335.23	55.31	-23.4	-23.5	17.9	7.79e-04	0	43	0	1179648000	7	3649
2026-01-01 05:11:39.84	334.64	55.55	-23.4	-23.5	17.9	0.00e+00	0	44	0	1186988032	7	3651
2026-01-01 05:11:40.84	334.03	55.78	-23.5	-23.8	17.7	0.00e+00	0	43	0	1194328064	7	3730
2026-01-01 05:11:41.84	333.42	56.02	-23.7	-24.2	17.5	0.00e+00	0	43	0	1201668096	7	3806
2026-01-01 05:11:42.84	332.79	56.25	-24.2	-24.6	17.1	0.00e+00	0	43	0	1209008128	8	3810
2026-01-01 05:11:43.83	332.17	56.48	-24.2	-24.7	17.0	8.52e-04	0	43	0	1215299584	8	3826
2026-01-01 05:11:44.83	331.52	56.71	-24.0	-24.2	17.2	0.00e+00	0	43	0	1222639616	8	3714
2026-01-01 05:11:45.81	330.88	56.93	-24.0	-24.3	17.3	0.00e+00	0	43	0	1229979648	8	3721
2026-01-01 05:11:46.80	330.21	57.15	-23.6	-23.4	17.7	9.21e-04	0	43	0	1237319680	8	3530
2026-01-01 05:11:47.80	329.54	57.36	-23.2	-23.6	18.1	0.00e+00	0	43	0	1244659712	6	3784
2026-01-01 05:11:48.80	328.85	57.58	-23.4	-24.1	17.8	0.00e+00	0	43	0	1250951168	6	3901
2026-01-01 05:11:49.79	328.15	57.79	-23.6	-23.9	17.6	0.00e+00	0	44	0	1258291200	7	3740
2026-01-01 05:11:50.79	327.44	58.00	-23.6	-24.0	17.6	0.00e+00	0	43	0	1265631232	7	3757
2026-01-01 05:11:51.79	326.72	58.21	-23.7	-24.3	17.4	0.00e+00	0	43	0	1272971264	7	3830
2026-01-01 05:11:52.79	325.99	58.41	-23.9	-24.0	17.4	0.00e+00	0	44	0	1280311296	8	3675
2026-01-01 05:11:53.78	325.25	58.60	-24.0	-24.3	17.3	0.00e+00	0	43	0	1287651328	8	3733
2026-01-01 05:11:54.78	324.49	58.80	-23.9	-24.1	17.4	0.00e+00	0	44	0	1294991360	8	3682
2026-01-01 05:11:55.77	323.73	58.99	-23.7	-23.6	17.6	0.00e+00	0	44	0	1302331392	8	3565
2026-01-01 05:11:56.77	322.95	59.17	-23.8	-24.5	17.4	0.00e+00	0	43	0	1308622848	7	3873
2026-01-01 05:11:57.77	322.17	59.36	-23.8	-24.3	17.5	0.00e+00	0	44	0	1315962880	7	3834
2026-01-01 05:11:58.77	321.36	59.53	-23.6	-24.0	17.7	0.00e+00	0	43	0	1323302912	7	3766
2026-01-01 05:11:59.77	320.55	59.71	-23.8	-24.4	17.4	0.00e+00	0	43	0	1330642944	7	3864
2026-01-01 05:12:00.76	319.74	59.87	-23.7	-23.8	17.5	0.00e+00	0	44	0	1337982976	8	3608
2026-01-01 05:12:01.75	318.92	60.03	-23.8	-23.8	17.5	0.00e+00	0	44	0	1345323008	8	3629
2026-01-01 05:12:02.75	318.07	60.19	-23.9	-24.1	17.4	0.00e+00	0	43	0	1352663040	8	3679
2026-01-01 05:12:03.75	317.22	60.34	-23.6	-23.4	17.7	0.00e+00	0	43	0	1358954496	8	3541
2026-01-01 05:12:04.75	316.36	60.49	-23.2	-23.1	18.1	0.00e+00	0	43	0	1366294528	7	3569
2026-01-01 05:12:05.75	315.48	60.63	-23.2	-23.6	18.1	0.00e+00	0	43	0	1373634560	6	3774
2026-01-01 05:12:06.74	314.61	60.77	-23.2	-23.7	18.1	0.00e+00	0	43	0	1380974592	6	3809
2026-01-01 05:12:07.74	313.72	60.90	-23.6	-24.1	17.6	0.00e+00	0	44	0	1388314624	7	3792
2026-01-01 05:12:08.74	312.81	61.02	-23.9	-24.6	17.3	0.00e+00	0	44	0	1395654656	7	3909
2026-01-01 05:12:09.73	311.91	61.14	-23.7	-24.2	17.6	0.00e+00	0	43	0	1402994688	7	3812
2026-01-01 05:12:10.72	311.00	61.25	-23.4	-23.6	17.8	0.00e+00	0	43	0	1410334720	7	3676
2026-01-01 05:12:11.72	310.08	61.36	-23.5	-23.7	17.8	0.00e+00	0	44	0	1416626176	7	3690
2026-01-01 05:12:12.71	309.15	61.46	-23.4	-23.5	17.9	0.00e+00	0	44	0	1423966208	7	3661
2026-01-01 05:12:13.72	308.20	61.55	-23.4	-23.6	17.8	0.00e+00	0	43	0	1431306240	7	3677
2026-01-01 05:12:14.73	307.24	61.64	-23.6	-24.1	17.6	0.00e+00	0	43	0	1438646272	7	3778
2026-01-01 05:12:15.73	306.29	61.72	-23.6	-24.1	17.6	0.00e+00	0	44	0	1445986304	7	3775
2026-01-01 05:12:16.74	305.32	61.79	-23.7	-24.1	17.6	0.00e+00	0	43	0	1453326336	7	3787
2026-01-01 05:12:17.74	304.35	61.86	-23.8	-24.4	17.5	0.00e+00	0	44	0	1460666368	7	3850
2026-01-01 05:12:18.75	303.37	61.91	-23.6	-23.9	17.7	0.00e+00	0	43	0	1468006400	7	3733
2026-01-01 05:12:19.75	302.39	61.97	-23.3	-23.3	18.0	0.00e+00	0	44	0	1475346432	7	3620
2026-01-01 05:12:20.75	301.41	62.01	-23.4	-24.0	17.9	0.00e+00	0	43	0	1481637888	6	3868
2026-01-01 05:12:21.76	300.42	62.05	-23.5	-23.8	17.8	0.00e+00	0	44	0	1488977920	7	3734
2026-01-01 05:12:22.76	299.43	62.08	-23.6	-24.1	17.7	0.00e+00	0	43	0	1496317952	7	3786
2026-01-01 05:12:23.75	298.45	62.10	-24.0	-24.8	17.2	0.00e+00	0	44	0	1503657984	7	3962
2026-01-01 05:12:24.76	297.45	62.11	-23.9	-24.2	17.3	0.00e+00	0	43	0	1510998016	8	3711
2026-01-01 05:12:25.76	296.46	62.12	-23.4	-23.6	17.8	0.00e+00	0	43	0	1518338048	7	3673
2026-01-01 05:12:26.76	295.47	62.12	-23.0	-22.8	18.3	0.00e+00	0	43	0	1525678080	7	3492
2026-01-01 05:12:27.76	294.48	62.12	-22.8	-22.8	18.5	0.00e+00	0	43	0	1533018112	6	3604
2026-01-01 05:12:28.76	293.49	62.10	-22.9	-23.1	18.4	0.00e+00	0	43	0	1540358144	6	3653
2026-01-01 05:12:29.76	292.50	62.08	-23.1	-23.4	18.2	0.00e+00	0	43	0	1546649600	6	3730
2026-01-01 05:12:30.77	291.51	62.05	-23.3	-23.8	18.0	0.00e+00	0	44	0	1555038208	6	3829
2026-01-01 05:12:31.78	290.51	62.02	-23.0	-23.2	18.3	0.00e+00	0	43	0	1562378240	6	3676
2026-01-01 05:12:32.78	289.53	61.97	-22.8	-22.8	18.5	0.00e+00	0	44	0	1568669696	6	3607
2026-01-01 05:12:33.78	288.56	61.92	-22.9	-23.0	18.4	0.00e+00	0	43	0	1576009728	6	3652
2026-01-01 05:12:34.78	287.58	61.86	-22.9	-23.0	18.4	0.00e+00	0	44	0	1583349760	6	3653
2026-01-01 05:12:35.79	286.61	61.80	-23.1	-23.4	18.2	0.00e+00	0	44	0	1590689792	6	3738
2026-01-01 05:12:36.79	285.64	61.73	-23.5	-24.3	17.7	0.00e+00	0	43	0	1598029824	6	3935
2026-01-01 05:12:37.80	284.68	61.65	-23.7	-24.1	17.6	0.00e+00	0	44	0	1605369856	7	3799
2026-01-01 05:12:38.80	283.73	61.56	-23.6	-24.0	17.6	0.00e+00	0	43	0	1612709888	7	3782
2026-01-01 05:12:39.81	282.77	61.47	-23.4	-23.7	17.8	0.00e+00	0	44	0	1620049920	7	3692
2026-01-01 05:12:40.81	281.84	61.37	-23.5	-23.8	17.7	0.00e+00	0	43	0	1626341376	7	3726
2026-01-01 05:12:41.82	280.90	61.26	-23.4	-23.5	17.8	0.00e+00	0	44	0	1633681408	7	3644
2026-01-01 05:12:42.81	279.99	61.15	-23.7	-24.1	17.6	0.00e+00	0	43	0	1641021440	7	3793
2026-01-01 05:12:43.82	279.07	61.03	-24.0	-24.8	17.2	0.00e+00	0	43	0	1648361472	7	3951
2026-01-01 05:12:44.82	278.16	60.91	-24.2	-24.7	17.0	0.00e+00	0	44	0	1655701504	8	3822
2026-01-01 05:12:45.82	277.27	60.78	-24.0	-24.3	17.3	0.00e+00	0	43	0	1663041536	8	3738
2026-01-01 05:12:46.82	276.38	60.64	-24.0	-24.3	17.2	0.00e+00	0	43	0	1670381568	8	3737
2026-01-01 05:12:47.82	275.51	60.50	-23.7	-23.6	17.6	0.00e+00	0	44	0	1677721600	8	3567
2026-01-01 05:12:48.83	274.64	60.35	-23.9	-24.1	17.4	0.00e+00	0	43	0	1685061632	8	3686
2026-01-01 05:12:49.83	273.78	60.20	-24.2	-24.8	17.0	0.00e+00	0	43	0	1692401664	8	3847
2026-01-01 05:12:50.84	272.93	60.04	-24.0	-24.3	17.2	0.00e+00	0	44	0	1699741696	8	3734
2026-01-01 05:12:51.84	272.09	59.88	-23.8	-23.8	17.4	0.00e+00	0	44	0	1707081728	8	3630
2026-01-01 05:12:52.84	271.27	59.71	-23.9	-24.7	17.3	0.00e+00	0	44	0	1713373184	7	3936
2026-01-01 05:12:53.84	270.46	59.54	-23.9	-24.5	17.4	0.00e+00	0	43	0	1720713216	7	3892
2026-01-01 05:12:54.85	269.65	59.36	-23.6	-23.9	17.6	0.00e+00	0	43	0	1728053248	7	3752
2026-01-01 05:12:55.85	268.86	59.18	-23.4	-23.6	17.8	0.00e+00	0	43	0	1735393280	7	3663
2026-01-01 05:12:56.85	268.08	58.99	-23.5	-24.3	17.7	0.00e+00	0	43	0	1742733312	6	3950
2026-01-01 05:12:57.86	267.30	58.80	-23.3	-23.9	17.9	0.00e+00	0	44	0	1750073344	6	3852
2026-01-01 05:12:58.86	266.54	58.60	-23.2	-23.6	18.0	0.00e+00	0	43	0	1757413376	6	3767
2026-01-01 05:12:59.86	265.80	58.40	-23.2	-23.6	18.1	0.00e+00	0	43	0	1764753408	6	3777
2026-01-01 05:13:00.86	265.06	58.20	-23.2	-23.5	18.1	0.00e+00	0	44	0	1772093440	6	3764
2026-01-01 05:13:01.87	264.33	57.99	-23.4	-24.0	17.9	0.00e+00	0	43	0	1778384896	6	3870
2026-01-01 05:13:02.87	263.62	57.78	-23.8	-24.4	17.4	0.00e+00	0	43	0	1785724928	7	3872
2026-01-01 05:13:03.88	262.91	57.57	-23.7	-24.1	17.4	0.00e+00	0	43	0	1794113536	7	3806
2026-01-01 05:13:04.88	262.22	57.35	-23.4	-23.6	17.8	0.00e+00	0	43	0	1800404992	7	3684
2026-01-01 05:13:05.88	261.54	57.13	-23.6	-24.1	17.5	0.00e+00	0	44	0	1807745024	7	3790
2026-01-01 05:13:06.88	260.87	56.91	-23.7	-24.1	17.5	0.00e+00	0	43	0	1815085056	7	3799
2026-01-01 05:13:07.89	260.21	56.68	-23.2	-23.7	14.5	0.00e+00	0	43	0	1822425088	7	3822
2026-01-01 05:13:08.89	259.56	56.45	-23.5	-23.7	17.7	0.00e+00	0	43	0	1829765120	7	3700
2026-01-01 05:13:09.89	258.92	56.22	-23.5	-23.7	16.7	0.00e+00	0	43	0	1837105152	7	3695
2026-01-01 05:13:10.88	258.30	55.99	-23.9	-24.6	17.3	0.00e+00	0	43	0	1844445184	7	3917
2026-01-01 05:13:11.88	257.69	55.76	-23.9	-24.2	17.2	0.00e+00	0	43	0	1851785216	8	3720
2026-01-01 05:13:12.88	257.08	55.52	-23.7	-24.2	17.5	0.00e+00	0	44	0	1858076672	7	3811
2026-01-01 05:13:13.89	256.48	55.28	-23.5	-23.7	17.7	0.00e+00	0	43	0	1865416704	7	3706
2026-01-01 05:13:14.89	255.90	55.04	-23.4	-23.5	17.8	0.00e+00	0	43	0	1872756736	7	3664
2026-01-01 05:13:15.90	255.32	54.79	-23.5	-23.7	17.7	0.00e+00	0	44	0	1880096768	7	3695
2026-01-01 05:13:16.89	254.76	54.55	-24.0	-24.8	17.1	0.00e+00	0	44	0	1887436800	7	3955
2026-01-01 05:13:17.90	254.20	54.30	-23.9	-24.2	17.2	0.00e+00	0	44	0	1894776832	8	3718
2026-01-01 05:13:18.90	253.65	54.05	-23.6	-24.0	17.6	0.00e+00	0	44	0	1902116864	7	3763
2026-01-01 05:13:19.90	253.12	53.80	-23.4	-24.2	17.6	1.59e-03	0	44	0	1909456896	6	3908
2026-01-01 05:13:20.91	252.59	53.55	-23.7	-24.3	17.4	0.00e+00	0	43	0	1916796928	7	3837
2026-01-01 05:13:21.91	252.07	53.29	-24.2	-24.7	16.9	0.00e+00	0	43	0	1923088384	8	3837
2026-01-01 05:13:22.91	251.56	53.04	-24.1	-24.6	17.0	1.33e-03	0	44	0	1930428416	8	3793
2026-01-01 05:13:23.91	251.06	52.79	-23.7	-23.8	17.4	0.00e+00	0	43	0	1937768448	8	3606
2026-01-01 05:13:24.92	250.56	52.53	-23.5	-23.8	17.7	4.32e-04	0	43	0	1945108480	7	3723
2026-01-01 05:13:25.93	250.08	52.27	-23.5	-23.9	17.6	0.00e+00	0	43	0	1952448512	7	3741
2026-01-01 05:13:26.92	249.61	52.02	-23.8	-24.4	17.3	0.00e+00	0	43	0	1959788544	7	3874
2026-01-01 05:13:27.92	249.14	51.76	-23.7	-24.1	17.5	1.05e-03	0	44	0	1967128576	7	3795
2026-01-01 05:13:28.93	248.68	51.50	-23.6	-24.0	17.5	0.00e+00	0	43	0	1974468608	7	3778
2026-01-01 05:13:29.93	248.23	51.24	-23.4	-23.7	17.7	2.77e-04	0	44	0	1981808640	7	3699
2026-01-01 05:13:30.94	247.78	50.98	-23.4	-24.1	17.7	1.70e-03	0	44	0	1989148672	6	3904
2026-01-01 05:13:31.94	247.35	50.72	-23.6	-24.1	17.5	1.66e-03	0	43	0	1996488704	7	3784
2026-01-01 05:13:32.94	246.92	50.46	-23.8	-24.4	17.3	5.96e-04	0	43	0	2002780160	7	3867
2026-01-01 05:13:33.94	246.50	50.20	-23.7	-24.2	17.4	2.00e-03	0	44	0	2010120192	7	3826
2026-01-01 05:13:34.95	246.08	49.94	-23.8	-24.3	17.3	2.11e-03	0	43	0	2017460224	7	3850
2026-01-01 05:13:35.95	245.68	49.68	-23.7	-24.2	17.4	1.85e-04	0	44	0	2024800256	7	3819
2026-01-01 05:13:36.96	245.27	49.42	-23.6	-23.9	17.5	1.93e-03	0	44	0	2032140288	7	3758
2026-01-01 05:13:37.96	244.88	49.16	-23.6	-24.0	17.5	1.83e-03	0	44	0	2039480320	7	3775
2026-01-01 05:13:38.96	244.50	48.90	-23.5	-24.3	17.6	2.88e-04	0	44	0	2046820352	6	3949
2026-01-01 05:13:39.97	244.11	48.64	-23.1	-23.5	18.0	1.45e-03	0	44	0	2054160384	6	3761
2026-01-01 05:13:40.98	243.74	48.37	-22.9	-23.0	18.2	9.49e-04	0	43	0	2061500416	6	3655
2026-01-01 05:13:41.98	243.37	48.11	-23.1	-23.4	18.1	0.00e+00	0	43	0	2068840448	6	3734
2026-01-01 05:13:42.98	243.01	47.86	-23.2	-23.6	17.9	3.43e-04	0	44	0	2076180480	6	3791
2026-01-01 05:13:43.98	242.66	47.60	-23.1	-23.5	18.0	0.00e+00	0	43	0	2083520512	6	3754
2026-01-01 05:13:44.98	242.31	47.34	-22.9	-23.6	18.1	1.98e-04	0	43	0	2089811968	5	3885
2026-01-01 05:13:45.99	241.96	47.08	-22.6	-22.9	18.4	0.00e+00	0	43	0	2097152000	5	3721
2026-01-01 05:13:46.99	241.63	46.82	-22.3	-22.3	18.8	0.00e+00	0	43	0	2104492032	5	3589
2026-01-01 05:13:47.99	241.30	46.56	-22.5	-22.6	18.6	0.00e+00	0	43	0	2111832064	5	3667
2026-01-01 05:13:48.99	240.97	46.31	-22.4	-22.5	18.7	0.00e+00	0	44	0	2119172096	5	3645
2026-01-01 05:13:49.99	240.65	46.05	-22.6	-23.0	18.5	6.75e-04	0	44	0	2126512128	5	3748
2026-01-01 05:13:51.00	240.33	45.80	-22.6	-22.8	18.4	0.00e+00	0	44	0	2133852160	5	3710
2026-01-01 05:13:52.00	240.02	45.54	-22.7	-23.2	18.3	0.00e+00	0	44	0	2141192192	5	3793
2026-01-01 05:13:53.01	239.71	45.28	-23.1	-23.9	18.0	1.29e-03	0	43	0	2148532224	5	3954
2026-01-01 05:13:54.01	239.41	45.03	-22.8	-23.3	18.3	0.00e+00	0	44	0	2154823680	5	3820
2026-01-01 05:13:55.01	239.12	44.78	-22.8	-23.3	18.3	0.00e+00	0	44	0	2162163712	5	3826
2026-01-01 05:13:56.01	238.83	44.53	-22.8	-23.4	18.2	0.00e+00	0	44	0	2169503744	5	3845
2026-01-01 05:13:57.02	238.54	44.27	-22.8	-23.4	18.2	0.00e+00	0	44	0	2176843776	5	3839
2026-01-01 05:13:58.02	238.25	44.02	-22.9	-23.6	18.1	1.26e-03	0	44	0	2184183808	5	3879
2026-01-01 05:13:59.02	237.98	43.78	-22.6	-22.9	18.4	0.00e+00	0	43	0	2191523840	5	3738
2026-01-01 05:14:00.03	237.70	43.52	-22.5	-22.6	18.6	0.00e+00	0	43	0	2198863872	5	3667
2026-01-01 05:14:01.03	237.43	43.28	-22.5	-22.7	18.5	0.00e+00	0	43	0	2206203904	5	3685
2026-01-01 05:14:02.04	237.17	43.03	-22.5	-22.8	18.5	0.00e+00	0	44	0	2213543936	5	3703
2026-01-01 05:14:03.04	236.91	42.78	-22.8	-23.4	18.2	0.00e+00	0	43	0	2220883968	5	3848
2026-01-01 05:14:04.04	236.65	42.54	-22.5	-22.8	18.5	0.00e+00	0	43	0	2228224000	5	3717
2026-01-01 05:14:05.04	236.40	42.29	-22.4	-22.4	18.7	0.00e+00	0	44	0	2234515456	5	3618
2026-01-01 05:14:06.05	236.14	42.05	-22.2	-22.1	18.8	0.00e+00	0	43	0	2241855488	5	3549
2026-01-01 05:14:07.05	235.90	41.81	-22.3	-22.7	18.8	0.00e+00	0	44	0	2249195520	4	3791
2026-01-01 05:14:08.05	235.66	41.57	-22.2	-22.7	18.8	0.00e+00	0	44	0	2256535552	4	3778
2026-01-01 05:14:09.06	235.42	41.32	-22.4	-22.9	18.7	0.00e+00	0	44	0	2263875584	4	3841
2026-01-01 05:14:10.06	235.18	41.09	-22.3	-22.8	18.7	0.00e+00	0	44	0	2271215616	4	3810
2026-01-01 05:14:11.07	234.95	40.85	-22.4	-22.9	18.7	0.00e+00	0	44	0	2278555648	4	3841
2026-01-01 05:14:12.07	234.72	40.61	-22.3	-22.7	18.8	0.00e+00	0	44	0	2285895680	4	3795
2026-01-01 05:14:13.07	234.50	40.37	-22.3	-22.7	18.8	0.00e+00	0	43	0	2293235712	4	3792
2026-01-01 05:14:14.07	234.28	40.14	-22.3	-22.8	18.7	0.00e+00	0	43	0	2299527168	4	3814
2026-01-01 05:14:15.07	234.06	39.91	-22.5	-23.1	18.5	0.00e+00	0	44	0	2306867200	4	3878
2026-01-01 05:14:16.06	233.85	39.68	-22.5	-23.1	18.5	0.00e+00	0	43	0	2314207232	4	3890
2026-01-01 05:14:17.06	233.64	39.44	-22.6	-23.0	18.0	0.00e+00	0	43	0	2321547264	5	3756
2026-01-01 05:14:18.07	233.43	39.21	-23.0	-23.8	17.9	0.00e+00	0	43	0	2328887296	5	3949
2026-01-01 05:14:19.08	233.22	38.98	-22.7	-23.1	18.3	0.00e+00	0	44	0	2336227328	5	3766
2026-01-01 05:14:20.08	233.02	38.75	-22.4	-22.5	18.6	0.00e+00	0	43	0	2343567360	5	3646
2026-01-01 05:14:21.08	232.82	38.53	-22.4	-22.4	18.6	0.00e+00	0	43	0	2350907392	5	3630
2026-01-01 05:14:22.08	232.62	38.30	-22.4	-22.5	18.5	0.00e+00	0	43	0	2358247424	5	3648
2026-01-01 05:14:23.09	232.43	38.07	-22.3	-22.2	18.7	0.00e+00	0	43	0	2365587456	5	3582
2026-01-01 05:14:24.08	232.24	37.85	-22.4	-22.4	18.6	0.00e+00	0	44	0	2372927488	5	3627
2026-01-01 05:14:25.09	232.05	37.63	-22.3	-22.3	18.7	0.00e+00	0	44	0	2379218944	5	3603
2026-01-01 05:14:26.09	231.86	37.41	-22.3	-22.4	18.7	0.00e+00	0	43	0	2386558976	5	3612
2026-01-01 05:14:27.09	231.68	37.19	-22.5	-22.7	18.5	0.00e+00	0	43	0	2393899008	5	3691
2026-01-01 05:14:28.09	231.49	36.97	-22.3	-22.3	18.7	0.00e+00	0	43	0	2401239040	5	3596
2026-01-01 05:14:29.09	231.32	36.75	-22.2	-22.1	18.8	0.00e+00	0	43	0	2408579072	5	3552
2026-01-01 05:14:30.09	231.14	36.53	-22.4	-22.4	18.6	0.00e+00	0	44	0	2415919104	5	3628
2026-01-01 05:14:31.09	230.97	36.32	-22.3	-22.8	18.6	0.00e+00	0	43	0	2423259136	4	3807
2026-01-01 05:14:32.09	230.79	36.10	-22.5	-23.2	18.4	0.00e+00	0	43	0	2430599168	4	3919
2026-01-01 05:14:33.10	230.62	35.89	-22.5	-23.2	18.5	0.00e+00	0	44	0	2437939200	4	3909
2026-01-01 05:14:34.10	230.46	35.67	-22.5	-23.3	18.4	0.00e+00	0	44	0	2444230656	4	3941
2026-01-01 05:14:35.10	230.29	35.46	-22.6	-23.0	18.3	0.00e+00	0	44	0	2451570688	5	3765
2026-01-01 05:14:36.10	230.13	35.25	-22.8	-23.4	18.1	0.00e+00	0	44	0	2458910720	5	3847
2026-01-01 05:14:37.11	229.97	35.04	-22.4	-22.5	18.5	0.00e+00	0	43	0	2466250752	5	3652
2026-01-01 05:14:38.11	229.81	34.83	-22.3	-22.2	18.7	0.00e+00	0	43	0	2473590784	5	3585
2026-01-01 05:14:39.12	229.65	34.62	-22.3	-22.2	18.7	0.00e+00	0	43	0	2480930816	5	3578
2026-01-01 05:14:40.13	229.49	34.42	-22.4	-22.4	18.6	0.00e+00	0	43	0	2488270848	5	3628
2026-01-01 05:14:41.13	229.34	34.21	-22.2	-22.0	18.8	0.00e+00	0	43	0	2495610880	5	3537
2026-01-01 05:14:42.13	229.19	34.01	-22.1	-21.8	18.9	0.00e+00	0	43	0	2502950912	5	3495
2026-01-01 05:14:43.14	229.04	33.80	-22.1	-22.3	18.9	0.00e+00	0	43	0	2510290944	4	3709
2026-01-01 05:14:44.14	228.89	33.60	-22.1	-22.5	18.8	0.00e+00	0	44	0	2517630976	4	3745
2026-01-01 05:14:45.14	228.75	33.40	-22.4	-22.9	18.5	0.00e+00	0	43	0	2524971008	4	3849
2026-01-01 05:14:46.15	228.60	33.20	-22.1	-22.3	18.8	0.00e+00	0	43	0	2531262464	4	3709
2026-01-01 05:14:47.15	228.46	33.00	-22.0	-22.1	18.9	0.00e+00	0	43	0	2538602496	4	3666
2026-01-01 05:14:48.15	228.32	32.81	-22.0	-22.2	18.9	0.00e+00	0	43	0	2545942528	4	3676
2026-01-01 05:14:49.15	228.19	32.61	-22.1	-22.4	18.8	0.00e+00	0	43	0	2553282560	4	3731
2026-01-01 05:14:50.16	228.05	32.42	-22.1	-22.4	18.8	0.00e+00	0	43	0	2560622592	4	3731
2026-01-01 05:14:51.16	227.91	32.22	-22.2	-22.5	18.8	0.00e+00	0	44	0	2567962624	4	3743
2026-01-01 05:14:52.15	227.78	32.03	-22.3	-22.8	18.6	0.00e+00	0	43	0	2575302656	4	3809
2026-01-01 05:14:53.16	227.65	31.84	-22.3	-22.8	18.6	0.00e+00	0	43	0	2582642688	4	3815
2026-01-01 05:14:54.17	227.52	31.65	-22.4	-23.0	18.6	0.00e+00	0	43	0	2588934144	4	3857
2026-01-01 05:14:55.17	227.39	31.46	-22.4	-22.9	18.6	0.00e+00	0	43	0	2596274176	4	3844
2026-01-01 05:14:56.17	227.26	31.27	-22.4	-23.1	18.5	0.00e+00	0	44	0	2603614208	4	3874
2026-01-01 05:14:57.17	227.14	31.08	-21.9	-22.6	18.0	0.00e+00	0	43	0	2610954240	4	3877
2026-01-01 05:14:58.18	227.01	30.89	-22.4	-23.1	13.3	0.00e+00	0	43	0	2618294272	4	3897
2026-01-01 05:14:59.18	226.89	30.71	-22.3	-22.9	18.3	0.00e+00	0	43	0	2625634304	4	3839
2026-01-01 05:15:00.19	226.77	30.52	-22.4	-23.0	18.4	0.00e+00	0	44	0	2632974336	4	3856
2026-01-01 05:15:01.20	226.65	30.34	-22.4	-23.0	18.5	0.00e+00	0	43	0	2640314368	4	3858
2026-01-01 05:15:02.20	226.53	30.16	-22.5	-23.2	18.3	0.00e+00	0	43	0	2647654400	4	3914
2026-01-01 05:15:03.21	226.41	29.97	-22.4	-22.9	18.6	1.02e-03	0	43	0	2654994432	4	3845
2026-01-01 05:15:04.21	226.30	29.79	-22.4	-23.1	18.4	0.00e+00	0	44	0	2662334464	4	3883
2026-01-01 05:15:05.21	226.18	29.61	-22.6	-23.3	18.3	0.00e+00	0	44	0	2669674496	4	3939
2026-01-01 05:15:06.21	226.07	29.44	-22.5	-23.1	18.4	0.00e+00	0	43	0	2675965952	4	3887
2026-01-01 05:15:07.22	225.96	29.26	-22.7	-23.1	18.2	0.00e+00	0	43	0	2683305984	5	3771
2026-01-01 05:15:08.23	225.84	29.08	-22.9	-23.6	17.9	0.00e+00	0	44	0	2691694592	5	3890
2026-01-01 05:15:09.23	225.74	28.90	-22.7	-23.2	18.2	0.00e+00	0	44	0	2697986048	5	3806
2026-01-01 05:15:10.23	225.63	28.73	-22.7	-23.2	18.1	1.05e-03	0	43	0	2705326080	5	3795
2026-01-01 05:15:11.23	225.52	28.56	-22.7	-23.2	18.1	0.00e+00	0	43	0	2712666112	5	3812
2026-01-01 05:15:12.23	225.42	28.38	-22.7	-23.2	18.1	1.07e-03	0	43	0	2720006144	5	3796
2026-01-01 05:15:13.23	225.31	28.21	-22.8	-23.3	18.1	1.28e-03	0	43	0	2727346176	5	3839
2026-01-01 05:15:14.24	225.21	28.04	-22.9	-23.5	18.0	0.00e+00	0	43	0	2734686208	5	3878
2026-01-01 05:15:15.24	225.10	27.87	-22.7	-23.0	18.2	1.34e-03	0	43	0	2742026240	5	3765
2026-01-01 05:15:16.24	225.00	27.70	-22.6	-22.9	18.3	1.32e-03	0	43	0	2749366272	5	3738
2026-01-01 05:15:17.25	224.90	27.53	-22.6	-23.0	18.2	7.78e-05	0	43	0	2756706304	5	3756
2026-01-01 05:15:18.26	224.80	27.37	-22.7	-23.2	18.1	1.47e-03	0	44	0	2762997760	5	3795
2026-01-01 05:15:19.26	224.71	27.20	-22.6	-22.9	18.2	0.00e+00	0	44	0	2770337792	5	3729
2026-01-01 05:15:20.26	224.61	27.04	-22.5	-22.7	18.4	2.48e-04	0	44	0	2777677824	5	3690
2026-01-01 05:15:21.27	224.51	26.87	-22.5	-22.8	18.4	1.29e-03	0	43	0	2785017856	5	3698
2026-01-01 05:15:22.27	224.42	26.71	-22.6	-22.8	18.2	1.40e-03	0	43	0	2792357888	5	3720
2026-01-01 05:15:23.27	224.32	26.54	-22.7	-23.2	18.1	3.44e-04	0	43	0	2799697920	5	3799
2026-01-01 05:15:24.27	224.23	26.38	-22.7	-23.1	18.1	0.00e+00	0	43	0	2807037952	5	3791
2026-01-01 05:15:25.28	224.14	26.22	-22.7	-23.3	18.1	1.27e-03	0	43	0	2814377984	5	3816
2026-01-01 05:15:26.28	224.05	26.06	-22.7	-23.2	18.1	5.86e-04	0	43	0	2821718016	5	3813
2026-01-01 05:15:27.28	223.96	25.90	-22.8	-23.3	18.0	1.01e-03	0	44	0	2829058048	5	3834
2026-01-01 05:15:28.28	223.87	25.75	-22.8	-23.4	18.0	8.46e-04	0	43	0	2836398080	5	3847
2026-01-01 05:15:29.29	223.78	25.59	-22.8	-23.4	18.0	0.00e+00	0	43	0	2842689536	5	3844
2026-01-01 05:15:30.29	223.69	25.43	-22.8	-23.3	18.0	8.17e-04	0	43	0	2850029568	5	3838
2026-01-01 05:15:31.29	223.61	25.28	-22.7	-23.2	18.0	2.93e-04	0	43	0	2857369600	5	3811
2026-01-01 05:15:32.29	223.52	25.12	-22.8	-23.3	18.0	0.00e+00	0	44	0	2864709632	5	3830
2026-01-01 05:15:33.30	223.43	24.97	-22.8	-23.5	17.9	3.40e-06	0	43	0	2872049664	5	3867
2026-01-01 05:15:34.30	223.35	24.81	-22.7	-23.1	18.1	0.00e+00	0	44	0	2879389696	5	3787
2026-01-01 05:15:35.30	223.27	24.66	-22.7	-23.1	18.1	0.00e+00	0	44	0	2886729728	5	3789
2026-01-01 05:15:36.30	223.19	24.51	-22.8	-23.3	18.1	1.21e-03	0	43	0	2894069760	5	3819
2026-01-01 05:15:37.30	223.10	24.36	-22.7	-23.1	18.1	0.00e+00	0	43	0	2901409792	5	3776
2026-01-01 05:15:38.30	223.02	24.21	-22.7	-23.1	18.1	0.00e+00	0	43	0	2907701248	5	3771
2026-01-01 05:15:39.30	222.94	24.06	-22.7	-23.1	18.1	0.00e+00	0	43	0	2915041280	5	3778
2026-01-01 05:15:40.30	222.87	23.92	-22.7	-23.1	18.1	0.00e+00	0	44	0	2922381312	5	3773
2026-01-01 05:15:41.31	222.79	23.77	-22.8	-23.3	18.0	0.00e+00	0	43	0	2929721344	5	3820
2026-01-01 05:15:42.31	222.71	23.62	-22.6	-22.9	18.2	0.00e+00	0	43	0	2937061376	5	3729
2026-01-01 05:15:43.31	222.63	23.47	-22.5	-22.8	18.2	1.69e-03	0	43	0	2944401408	5	3714
2026-01-01 05:15:44.31	222.56	23.33	-22.5	-22.8	18.2	0.00e+00	0	44	0	2951741440	5	3719
2026-01-01 05:15:45.31	222.48	23.19	-22.5	-22.8	18.2	0.00e+00	0	43	0	2959081472	5	3711
2026-01-01 05:15:46.32	222.41	23.04	-22.6	-22.9	18.2	0.00e+00	0	44	0	2965372928	5	3731
2026-01-01 05:15:47.32	222.33	22.90	-22.5	-22.8	18.2	0.00e+00	0	44	0	2973761536	5	3708
2026-01-01 05:15:48.33	222.26	22.75	-22.5	-22.8	18.3	0.00e+00	0	43	0	2981101568	5	3714
2026-01-01 05:15:49.33	222.19	22.61	-22.5	-22.7	18.2	0.00e+00	0	44	0	2987393024	5	3692
2026-01-01 05:15:50.33	222.11	22.47	-22.6	-23.0	18.0	0.00e+00	0	44	0	2994733056	5	3753
2026-01-01 05:15:51.34	222.04	22.33	-22.7	-23.1	18.0	0.00e+00	0	43	0	3002073088	5	3790
2026-01-01 05:15:52.34	221.97	22.19	-22.6	-22.9	18.1	0.00e+00	0	44	0	3009413120	5	3728
2026-01-01 05:15:53.34	221.90	22.06	-22.5	-23.3	18.2	4.50e-06	0	43	0	3016753152	4	3926
2026-01-01 05:15:54.35	221.83	21.92	-22.6	-22.9	18.1	0.00e+00	0	43	0	3024093184	5	3727
2026-01-01 05:15:55.35	221.76	21.78	-22.6	-22.8	18.2	0.00e+00	0	43	0	3031433216	5	3721
2026-01-01 05:15:56.35	221.70	21.64	-22.6	-23.0	18.1	3.40e-06	0	44	0	3038773248	5	3756
2026-01-01 05:15:57.35	221.63	21.51	-22.6	-23.0	18.1	0.00e+00	0	43	0	3046113280	5	3748
2026-01-01 05:15:58.36	221.56	21.37	-22.7	-23.2	18.0	0.00e+00	0	44	0	3052404736	5	3792
2026-01-01 05:15:59.35	221.50	21.24	-22.7	-23.1	18.0	1.10e-06	0	43	0	3059744768	5	3783
2026-01-01 05:16:00.36	221.43	21.10	-22.8	-23.3	17.9	0.00e+00	0	44	0	3067084800	5	3828
2026-01-01 05:16:01.36	221.37	20.97	-22.8	-23.5	17.8	0.00e+00	0	43	0	3074424832	5	3863
2026-01-01 05:16:02.37	221.30	20.84	-22.9	-23.6	17.7	4.50e-06	0	44	0	3081764864	5	3895
2026-01-01 05:16:03.37	221.24	20.71	-23.0	-23.7	17.7	0.00e+00	0	44	0	3089104896	5	3921
2026-01-01 05:16:04.37	221.17	20.58	-23.0	-23.9	17.6	0.00e+00	0	44	0	3096444928	5	3958
2026-01-01 05:16:05.37	221.11	20.45	-23.1	-23.9	17.6	1.10e-06	0	44	0	3103784960	5	3981
2026-01-01 05:16:06.37	221.05	20.32	-23.2	-23.7	17.5	0.00e+00	0	44	0	3111124992	6	3811
2026-01-01 05:16:07.38	220.99	20.19	-23.2	-23.8	17.4	0.00e+00	0	43	0	3118465024	6	3835
2026-01-01 05:16:08.38	220.93	20.06	-23.2	-23.8	17.4	0.00e+00	0	43	0	3125805056	6	3832
2026-01-01 05:16:09.38	220.87	19.93	-23.3	-24.0	17.3	0.00e+00	0	43	0	3133145088	6	3886
2026-01-01 05:16:10.39	220.81	19.80	-23.2	-23.7	17.4	0.00e+00	0	43	0	3139436544	6	3825
2026-01-01 05:16:11.40	220.75	19.67	-23.3	-23.8	17.4	1.10e-06	0	43	0	3146776576	6	3842
2026-01-01 05:16:12.40	220.69	19.55	-23.3	-23.9	17.3	0.00e+00	0	44	0	3154116608	6	3865
2026-01-01 05:16:13.40	220.63	19.42	-23.3	-24.0	17.3	0.00e+00	0	43	0	3161456640	6	3885
2026-01-01 05:16:14.41	220.57	19.30	-23.3	-23.9	17.3	2.20e-06	0	44	0	3168796672	6	3868
2026-01-01 05:16:15.40	220.51	19.17	-23.3	-23.9	17.3	0.00e+00	0	43	0	3176136704	6	3868
2026-01-01 05:16:16.40	220.46	19.05	-23.4	-24.1	17.2	0.00e+00	0	43	0	3183476736	6	3901
2026-01-01 05:16:17.41	220.40	18.93	-23.3	-24.0	17.3	0.00e+00	0	43	0	3190816768	6	3885
2026-01-01 05:16:18.41	220.34	18.80	-23.4	-24.3	17.1	0.00e+00	0	44	0	3197108224	6	3950
2026-01-01 05:16:19.42	220.29	18.68	-23.4	-24.2	17.1	0.00e+00	0	44	0	3204448256	6	3931
2026-01-01 05:16:20.42	220.23	18.56	-23.5	-24.3	17.1	0.00e+00	0	44	0	3211788288	6	3963
2026-01-01 05:16:21.43	220.18	18.44	-23.4	-24.2	17.1	0.00e+00	0	43	0	3219128320	6	3932
2026-01-01 05:16:22.43	220.12	18.32	-23.5	-24.3	17.0	0.00e+00	0	44	0	3226468352	6	3971
2026-01-01 05:16:23.44	220.07	18.20	-23.6	-24.1	16.9	0.00e+00	0	43	0	3233808384	7	3817
2026-01-01 05:16:24.44	220.02	18.08	-23.8	-24.6	16.7	0.00e+00	0	43	0	3241148416	7	3914
2026-01-01 05:16:25.45	219.96	17.96	-24.0	-24.9	16.5	0.00e+00	0	44	0	3248488448	7	3999
2026-01-01 05:16:26.45	219.91	17.84	-23.7	-24.4	16.8	0.00e+00	0	44	0	3255828480	7	3875
2026-01-01 05:16:27.45	219.86	17.72	-23.7	-24.3	16.8	0.00e+00	0	43	0	3263168512	7	3867
2026-01-01 05:16:28.46	219.81	17.61	-23.8	-24.4	16.7	0.00e+00	0	43	0	3270508544	7	3877
2026-01-01 05:16:29.46	219.76	17.49	-23.8	-24.4	16.7	0.00e+00	0	44	0	3277848576	7	3888
2026-01-01 05:16:30.46	219.71	17.37	-23.7	-24.3	16.8	0.00e+00	0	43	0	3284140032	7	3855
2026-01-01 05:16:31.47	219.65	17.26	-23.7	-24.4	16.7	0.00e+00	0	44	0	3291480064	7	3871
2026-01-01 05:16:32.47	219.60	17.14	-23.8	-24.5	16.7	0.00e+00	0	44	0	3298820096	7	3904
2026-01-01 05:16:33.47	219.56	17.03	-23.8	-24.5	16.6	0.00e+00	0	43	0	3306160128	7	3896
2026-01-01 05:16:34.48	219.51	16.91	-23.9	-24.8	16.5	0.00e+00	0	43	0	3313500160	7	3964
2026-01-01 05:16:35.48	219.46	16.80	-24.1	-25.1	16.3	0.00e+00	0	43	0	3320840192	7	4056
2026-01-01 05:16:36.48	219.41	16.69	-24.2	-24.9	16.2	0.00e+00	0	43	0	3328180224	8	3899
2026-01-01 05:16:37.48	219.36	16.58	-24.2	-25.0	16.2	0.00e+00	0	43	0	3335520256	8	3908
2026-01-01 05:16:38.49	219.31	16.46	-24.2	-24.8	16.2	0.00e+00	0	44	0	3342860288	8	3855
2026-01-01 05:16:39.49	219.27	16.35	-24.2	-24.9	16.2	0.00e+00	0	43	0	3350200320	8	3881
2026-01-01 05:16:40.49	219.22	16.24	-24.2	-24.8	16.2	0.00e+00	0	43	0	3357540352	8	3877
2026-01-01 05:16:41.50	219.17	16.13	-24.2	-24.9	16.2	0.00e+00	0	43	0	3363831808	8	3895
2026-01-01 05:16:42.50	219.13	16.02	-24.2	-24.9	16.2	0.00e+00	0	43	0	3371171840	8	3885
2026-01-01 05:16:43.50	219.08	15.91	-24.3	-25.1	16.1	0.00e+00	0	44	0	3378511872	8	3934
2026-01-01 05:16:44.50	219.04	15.80	-24.4	-25.3	15.9	0.00e+00	0	43	0	3385851904	8	3979
2026-01-01 05:16:45.51	218.99	15.69	-24.2	-24.8	16.2	0.00e+00	0	43	0	3393191936	8	3874
2026-01-01 05:16:46.51	218.95	15.59	-24.1	-24.7	15.8	0.00e+00	0	43	0	3400531968	8	3848
2026-01-01 05:16:47.51	218.90	15.48	-24.1	-24.7	15.5	0.00e+00	0	43	0	3407872000	8	3849
2026-01-01 05:16:48.52	218.86	15.37	-24.2	-24.8	16.2	9.38e-05	0	43	0	3415212032	8	3859
2026-01-01 05:16:49.52	218.81	15.26	-24.2	-24.7	16.3	0.00e+00	0	43	0	3422552064	8	3851
2026-01-01 05:16:50.53	218.77	15.16	-24.3	-25.1	16.0	3.50e-04	0	44	0	3429892096	8	3939
2026-01-01 05:16:51.53	218.73	15.05	-24.4	-25.2	16.0	0.00e+00	0	44	0	3437232128	8	3960
2026-01-01 05:16:52.52	218.68	14.95	-24.3	-25.0	16.1	0.00e+00	0	44	0	3444572160	8	3916
2026-01-01 05:16:53.53	218.64	14.84	-24.3	-25.0	16.1	3.43e-04	0	43	0	3450863616	8	3929
2026-01-01 05:16:54.52	218.60	14.74	-24.3	-25.1	16.0	0.00e+00	0	43	0	3458203648	8	3942
2026-01-01 05:16:55.53	218.56	14.63	-24.3	-25.1	16.0	8.92e-05	0	43	0	3465543680	8	3946
2026-01-01 05:16:56.53	218.52	14.53	-24.4	-25.3	15.9	0.00e+00	0	43	0	3472883712	8	3983
2026-01-01 05:16:57.54	218.48	14.43	-24.4	-25.3	15.9	0.00e+00	0	43	0	3480223744	8	3989
2026-01-01 05:16:58.54	218.43	14.32	-24.5	-25.6	15.8	9.95e-05	0	43	0	3487563776	8	4060
2026-01-01 05:16:59.54	218.39	14.22	-24.6	-25.1	15.7	0.00e+00	0	43	0	3494903808	9	3848
2026-01-01 05:17:00.54	218.35	14.12	-24.5	-25.0	15.8	2.69e-04	0	43	0	3502243840	9	3814
2026-01-01 05:17:01.54	218.31	14.02	-24.5	-25.1	15.7	1.45e-04	0	43	0	3509583872	9	3835
2026-01-01 05:17:02.54	218.27	13.92	-24.6	-25.1	15.7	0.00e+00	0	43	0	3515875328	9	3850
2026-01-01 05:17:03.55	218.23	13.82	-24.6	-25.2	15.6	3.19e-04	0	44	0	3523215360	9	3864
2026-01-01 05:17:04.55	218.20	13.72	-24.6	-25.2	15.6	0.00e+00	0	43	0	3530555392	9	3874
2026-01-01 05:17:05.56	218.16	13.61	-24.6	-25.2	15.6	4.00e-04	0	44	0	3537895424	9	3866
2026-01-01 05:17:06.56	218.12	13.52	-24.7	-25.5	15.5	6.67e-04	0	44	0	3545235456	9	3945
2026-01-01 05:17:07.57	218.08	13.42	-24.8	-25.7	15.4	9.49e-05	0	44	0	3552575488	9	3971
2026-01-01 05:17:08.57	218.04	13.32	-24.7	-25.5	15.5	7.01e-04	0	44	0	3559915520	9	3933
2026-01-01 05:17:09.57	218.00	13.22	-24.7	-25.5	15.5	5.68e-04	0	44	0	3567255552	9	3927
2026-01-01 05:17:10.57	217.97	13.12	-24.7	-25.5	15.5	1.15e-04	0	43	0	3573547008	9	3944
2026-01-01 05:17:11.57	217.93	13.02	-24.8	-25.7	15.3	5.81e-04	0	43	0	3581935616	9	3996
2026-01-01 05:17:12.57	217.89	12.93	-24.9	-25.8	15.3	5.79e-04	0	44	0	3589275648	9	4024
2026-01-01 05:17:13.58	217.86	12.83	-24.9	-25.9	15.3	9.95e-05	0	43	0	3595567104	9	4028
2026-01-01 05:17:14.59	217.82	12.73	-24.9	-25.8	15.3	0.00e+00	0	43	0	3602907136	9	4014
2026-01-01 05:17:15.59	217.78	12.64	-24.9	-26.0	15.2	6.02e-04	0	43	0	3610247168	9	4062
2026-01-01 05:17:16.59	217.75	12.54	-24.9	-25.9	15.2	6.98e-05	0	44	0	3617587200	9	4050
2026-01-01 05:17:17.60	217.71	12.44	-25.0	-26.1	15.2	0.00e+00	0	43	0	3624927232	9	4085
2026-01-01 05:17:18.60	217.68	12.35	-25.1	-25.9	14.9	9.81e-04	0	43	0	3632267264	10	3937
2026-01-01 05:17:19.60	217.64	12.26	-25.4	-26.5	14.6	0.00e+00	0	43	0	3639607296	10	4083
2026-01-01 05:17:20.61	217.61	12.16	-25.4	-26.5	14.6	1.16e-03	0	43	0	3646947328	10	4087
2026-01-01 05:17:21.61	217.57	12.07	-25.2	-26.1	14.9	1.07e-03	0	43	0	3654287360	10	3971
2026-01-01 05:17:22.61	217.54	11.97	-25.1	-25.8	15.0	0.00e+00	0	44	0	3660578816	10	3911
2026-01-01 05:17:23.62	217.50	11.88	-25.1	-25.8	15.0	1.06e-03	0	43	0	3667918848	10	3916
2026-01-01 05:17:24.61	217.47	11.79	-25.2	-26.0	14.8	0.00e+00	0	44	0	3675258880	10	3966
2026-01-01 05:17:25.62	217.43	11.69	-25.1	-25.9	14.9	0.00e+00	0	43	0	3682598912	10	3947
2026-01-01 05:17:26.62	217.40	11.60	-25.1	-25.9	14.9	1.06e-03	0	44	0	3689938944	10	3930
2026-01-01 05:17:27.62	217.37	11.51	-25.1	-25.9	14.9	1.10e-06	0	44	0	3697278976	10	3944
2026-01-01 05:17:28.62	217.33	11.42	-25.1	-25.9	14.9	2.15e-04	0	44	0	3704619008	10	3947
2026-01-01 05:17:29.62	217.30	11.33	-25.1	-25.9	14.9	0.00e+00	0	43	0	3711959040	10	3945
2026-01-01 05:17:30.63	217.27	11.24	-25.1	-25.9	14.9	0.00e+00	0	44	0	3719299072	10	3948
2026-01-01 05:17:31.63	217.24	11.15	-25.1	-25.9	14.9	0.00e+00	0	43	0	3726639104	10	3946
2026-01-01 05:17:32.64	217.20	11.05	-25.2	-26.1	14.8	0.00e+00	0	44	0	3733979136	10	3974
2026-01-01 05:17:33.64	217.17	10.97	-25.3	-26.2	14.7	1.10e-06	0	43	0	3740270592	10	4008
2026-01-01 05:17:34.65	217.14	10.87	-25.2	-26.1	14.8	0.00e+00	0	43	0	3747610624	10	3989
2026-01-01 05:17:35.65	217.11	10.79	-25.2	-26.0	14.8	0.00e+00	0	44	0	3754950656	10	3968
2026-01-01 05:17:36.66	217.08	10.70	-25.4	-26.5	14.6	1.10e-06	0	43	0	3762290688	10	4083
2026-01-01 05:17:37.67	217.05	10.61	-25.3	-26.3	14.6	1.10e-06	0	43	0	3769630720	10	4044
2026-01-01 05:17:38.67	217.02	10.52	-25.3	-26.3	14.6	0.00e+00	0	43	0	3776970752	10	4038
2026-01-01 05:17:39.67	216.98	10.43	-25.3	-26.2	14.7	0.00e+00	0	44	0	3784310784	10	4011
2026-01-01 05:17:40.67	216.95	10.34	-25.2	-26.1	14.7	0.00e+00	0	44	0	3791650816	10	3982
2026-01-01 05:17:41.68	216.92	10.26	-25.3	-26.3	14.6	0.00e+00	0	44	0	3798990848	10	4032
2026-01-01 05:17:42.68	216.89	10.17	-25.3	-26.3	14.7	0.00e+00	0	44	0	3806330880	10	4024
2026-01-01 05:17:43.68	216.86	10.08	-25.2	-26.2	14.7	0.00e+00	0	43	0	3813670912	10	3995
2026-01-01 05:17:44.69	216.83	9.99	-25.3	-26.2	14.7	0.00e+00	0	44	0	3821010944	10	4003
2026-01-01 05:17:45.69	216.80	9.91	-25.3	-26.4	14.6	0.00e+00	0	44	0	3827302400	10	4049
2026-01-01 05:17:46.69	216.78	9.82	-25.3	-26.4	14.5	1.10e-06	0	43	0	3834642432	10	4053
2026-01-01 05:17:47.69	216.75	9.74	-25.4	-26.5	14.5	0.00e+00	0	43	0	3841982464	10	4087
2026-01-01 05:17:48.70	216.72	9.65	-25.4	-26.4	14.5	1.10e-06	0	44	0	3849322496	10	4070
2026-01-01 05:17:49.70	216.69	9.57	-25.3	-26.4	14.6	0.00e+00	0	44	0	3856662528	10	4052
2026-01-01 05:17:50.71	216.66	9.48	-25.4	-26.5	14.5	0.00e+00	0	43	0	3864002560	10	4082
2026-01-01 05:17:51.71	216.63	9.40	-25.4	-26.6	14.4	0.00e+00	0	43	0	3871342592	10	4110
2026-01-01 05:17:52.72	216.60	9.31	-25.4	-26.5	14.4	2.20e-06	0	43	0	3878682624	10	4079
2026-01-01 05:17:53.72	216.57	9.23	-25.4	-26.6	14.4	0.00e+00	0	43	0	3886022656	10	4118
2026-01-01 05:17:54.72	216.55	9.14	-25.5	-26.7	14.3	0.00e+00	0	43	0	3893362688	10	4126
2026-01-01 05:17:55.73	216.52	9.06	-25.5	-26.8	14.2	0.00e+00	0	43	0	3900702720	10	4171
2026-01-01 05:17:56.73	216.49	8.98	-25.4	-26.5	14.4	0.00e+00	0	43	0	3908042752	10	4095
2026-01-01 05:17:57.73	216.46	8.89	-25.5	-26.8	14.2	0.00e+00	0	44	0	3914334208	10	4171
2026-01-01 05:17:58.72	216.44	8.81	-25.5	-26.2	14.3	0.00e+00	0	43	0	3921674240	11	3919
2026-01-01 05:17:59.73	216.41	8.73	-25.6	-26.4	14.1	1.10e-06	0	44	0	3929014272	11	3959
2026-01-01 05:18:00.73	216.38	8.65	-25.5	-26.3	14.2	0.00e+00	0	44	0	3936354304	11	3942
2026-01-01 05:18:01.73	216.36	8.57	-25.7	-26.6	14.0	1.10e-06	0	43	0	3943694336	11	4000
2026-01-01 05:18:02.74	216.33	8.48	-25.7	-26.7	14.0	5.70e-06	0	44	0	3951034368	11	4045
2026-01-01 05:18:03.74	216.30	8.40	-25.7	-26.7	14.0	3.40e-06	0	44	0	3958374400	11	4039
2026-01-01 05:18:04.75	216.28	8.32	-25.7	-26.8	13.9	5.70e-06	0	44	0	3965714432	11	4063
2026-01-01 05:18:05.75	216.25	8.24	-25.9	-27.2	13.7	3.40e-06	0	44	0	3972005888	11	4163
2026-01-01 05:18:06.75	216.23	8.16	-26.0	-27.3	13.6	6.80e-06	0	43	0	3979345920	11	4210
2026-01-01 05:18:07.75	216.20	8.08	-26.0	-27.3	13.6	2.20e-06	0	43	0	3986685952	11	4214
2026-01-01 05:18:08.76	216.17	8.00	-26.0	-27.4	13.5	4.50e-06	0	44	0	3994025984	11	4220
2026-01-01 05:18:09.76	216.15	7.92	-26.0	-27.4	13.5	4.50e-06	0	44	0	4001366016	11	4220
2026-01-01 05:18:10.77	216.12	7.84	-26.0	-27.4	13.5	9.10e-06	0	43	0	4008706048	11	4243
2026-01-01 05:18:11.77	216.10	7.76	-25.9	-27.2	13.6	5.70e-06	0	44	0	4016046080	11	4171
2026-01-01 05:18:12.78	216.07	7.68	-25.8	-27.0	13.7	6.80e-06	0	44	0	4023386112	11	4133
2026-01-01 05:18:13.78	216.05	7.60	-25.9	-27.2	13.6	3.40e-06	0	43	0	4030726144	11	4163
2026-01-01 05:18:14.78	216.02	7.52	-25.9	-27.1	13.7	3.40e-06	0	44	0	4038066176	11	4147
2026-01-01 05:18:15.78	216.00	7.45	-26.0	-27.4	13.5	3.40e-06	0	44	0	4045406208	11	4243
2026-01-01 05:18:16.79	215.97	7.37	-26.1	-27.6	13.4	8.00e-06	0	44	0	4052746240	11	4274
2026-01-01 05:18:17.79	215.95	7.29	-26.0	-26.9	13.4	1.48e-05	0	43	0	4059037696	12	4001
2026-01-01 05:18:18.78	215.93	7.21	-26.0	-27.0	13.3	1.37e-05	0	44	0	4066377728	12	4036
2026-01-01 05:18:19.78	215.90	7.14	-26.0	-27.0	13.3	1.25e-05	0	43	0	4073717760	12	4022
2026-01-01 05:18:20.78	215.88	7.06	-32.1	-41.0	3.8	7.18e-01	0	44	104	4078960640	24	9999
2026-01-01 05:18:21.79	215.85	6.98	-32.5	-42.5	3.8	8.45e-01	0	43	104	4078960640	24	11278

#Closed at: 2026-01-01 05:18:22
#Recorded file [4078 MB]: D:/data/31010_260101_080847.dat