passes_logs/2026/01/01/R2M6_AANII_01/R2M6_AANII_01__20260101_223828_SUOMI_NPP_rec.log

#Pass ID: 20260101_223828_SUOMI NPP
#Satellite: SUOMI NPP
#Configuration: NPP
#almurnet v.1.7.20240730
#Start time: 2026-01-01 22:38:30

#Version: 2.2.20231116
#Station: R2M6_AANII_01
#Location: 30.233357 lon 59.946436 lat
#TLE: 1 37849U 11061A   26001.07732418  .00000182  00000+0  10735-3 0  9990
#TLE: 2 37849  98.7795 303.2470 0002580  87.2016 272.9455 14.19520779734739

#Time	Az	El	Level	Level2	SNR	BER	BlckErr	Temp	State	Recorded	gain1	gain2
2026-01-01 22:38:30.46	32.12	7.11	-31.5	-38.8	4.2	1.40e+00	0	40	0	0	23	8343
2026-01-01 22:38:31.45	32.23	7.16	-31.7	-39.7	4.1	1.43e+00	0	41	104	0	23	9035
2026-01-01 22:38:32.45	32.33	7.22	-31.7	-39.7	4.7	8.53e-01	0	41	0	0	23	9043
2026-01-01 22:38:33.46	32.44	7.28	-31.7	-39.5	4.8	8.52e-01	0	41	0	1048576	23	8893
2026-01-01 22:38:34.46	32.54	7.34	-31.7	-39.6	4.8	7.93e-01	0	41	0	3145728	23	8934
2026-01-01 22:38:35.46	32.65	7.40	-31.7	-39.5	4.8	7.60e-01	0	41	0	5242880	23	8795
2026-01-01 22:38:36.46	32.75	7.46	-31.7	-39.7	4.7	8.10e-01	0	41	0	7340032	23	8972
2026-01-01 22:38:37.47	32.86	7.52	-31.8	-39.9	4.7	8.76e-01	0	41	0	9437184	23	9145
2026-01-01 22:38:38.47	32.97	7.58	-31.8	-39.8	4.7	8.32e-01	0	41	0	10485760	23	9082
2026-01-01 22:38:39.48	33.08	7.64	-31.8	-39.8	4.7	8.62e-01	0	41	0	12582912	23	9074
2026-01-01 22:38:40.48	33.18	7.70	-31.8	-39.6	4.8	7.80e-01	0	41	0	14680064	23	8811
2026-01-01 22:38:41.48	33.29	7.76	-31.8	-39.3	5.0	7.07e-01	0	41	0	16777216	23	8572
2026-01-01 22:38:42.48	33.40	7.82	-31.7	-38.8	5.3	5.94e-01	0	41	0	17825792	23	8157
2026-01-01 22:38:43.49	33.51	7.88	-31.6	-38.3	5.5	4.68e-01	0	41	0	19922944	23	7777
2026-01-01 22:38:44.49	33.62	7.94	-31.6	-38.2	5.7	4.38e-01	0	41	0	22020096	23	7647
2026-01-01 22:38:45.48	33.73	8.00	-31.6	-37.9	5.9	3.79e-01	0	41	0	24117248	23	7466
2026-01-01 22:38:46.48	33.84	8.06	-31.6	-37.7	6.0	3.58e-01	0	41	0	26214400	23	7317
2026-01-01 22:38:47.49	33.95	8.12	-31.6	-38.1	5.8	3.44e-01	0	41	0	27262976	23	7558
2026-01-01 22:38:48.49	34.06	8.18	-31.6	-38.0	5.7	4.55e-01	0	41	0	29360128	23	7481
2026-01-01 22:38:49.50	34.17	8.24	-31.4	-37.0	6.5	3.03e-01	0	41	0	31457280	23	6816
2026-01-01 22:38:50.51	34.29	8.30	-31.3	-36.6	7.2	1.50e-01	0	41	0	33554432	22	6610
2026-01-01 22:38:51.50	34.40	8.36	-31.1	-35.8	7.8	8.55e-02	0	41	0	35651584	22	6171
2026-01-01 22:38:52.50	34.51	8.43	-30.9	-34.9	8.5	5.48e-02	0	41	0	36700160	22	5694
2026-01-01 22:38:53.50	34.63	8.49	-30.8	-34.9	8.8	4.10e-02	0	41	0	38797312	21	5752
2026-01-01 22:38:54.51	34.74	8.55	-30.5	-33.9	9.6	1.25e-02	0	41	0	40894464	21	5281
2026-01-01 22:38:55.51	34.85	8.61	-30.3	-33.5	10.3	7.96e-03	0	41	0	42991616	20	5226
2026-01-01 22:38:56.52	34.97	8.67	-30.2	-33.2	10.4	5.57e-03	0	41	0	45088768	20	5105
2026-01-01 22:38:57.53	35.09	8.73	-29.9	-32.3	11.1	1.74e-03	0	41	0	46137344	20	4745
2026-01-01 22:38:58.53	35.20	8.79	-29.9	-32.2	11.3	1.95e-03	0	41	0	48234496	20	4683
2026-01-01 22:38:59.53	35.32	8.85	-30.0	-32.8	11.4	1.33e-03	0	41	0	50331648	19	4992
2026-01-01 22:39:00.54	35.44	8.91	-29.9	-32.2	11.4	9.13e-04	0	41	0	52428800	20	4667
2026-01-01 22:39:01.54	35.55	8.97	-29.9	-32.3	11.3	1.27e-03	0	41	0	54525952	20	4715
2026-01-01 22:39:02.54	35.67	9.03	-29.9	-32.3	11.3	1.89e-03	0	41	0	55574528	20	4709
2026-01-01 22:39:03.53	35.79	9.10	-29.9	-32.0	11.6	9.50e-04	0	41	0	57671680	20	4583
2026-01-01 22:39:04.54	35.91	9.16	-29.9	-32.4	11.7	8.22e-04	0	42	0	59768832	19	4833
2026-01-01 22:39:05.54	36.03	9.22	-29.7	-31.9	12.1	5.84e-04	0	41	0	61865984	19	4644
2026-01-01 22:39:06.54	36.15	9.28	-29.8	-32.1	11.9	4.74e-04	0	42	0	62914560	19	4712
2026-01-01 22:39:07.54	36.27	9.34	-29.8	-32.1	12.0	3.43e-04	0	42	0	65011712	19	4704
2026-01-01 22:39:08.55	36.39	9.40	-29.7	-32.0	12.0	6.84e-04	0	42	0	67108864	19	4677
2026-01-01 22:39:09.55	36.51	9.46	-29.7	-32.0	12.0	3.90e-04	0	42	0	69206016	19	4681
2026-01-01 22:39:10.56	36.63	9.53	-29.8	-32.2	11.9	3.64e-04	0	41	0	71303168	19	4747
2026-01-01 22:39:11.57	36.76	9.59	-29.8	-32.1	12.1	3.54e-04	0	42	0	73400320	19	4720
2026-01-01 22:39:12.57	36.88	9.65	-29.6	-31.7	12.2	1.80e-04	0	42	0	74448896	19	4562
2026-01-01 22:39:13.56	37.00	9.71	-29.8	-32.0	12.1	3.53e-04	0	42	0	76546048	19	4655
2026-01-01 22:39:14.56	37.12	9.77	-29.6	-31.7	12.3	2.10e-04	0	42	0	78643200	19	4537
2026-01-01 22:39:15.56	37.25	9.83	-29.7	-31.8	12.3	1.40e-04	0	42	0	80740352	19	4592
2026-01-01 22:39:16.56	37.37	9.89	-29.7	-31.7	12.3	3.39e-04	0	42	0	81788928	19	4566
2026-01-01 22:39:17.56	37.50	9.96	-29.6	-31.5	12.4	1.52e-04	0	42	0	83886080	19	4500
2026-01-01 22:39:18.56	37.62	10.02	-29.6	-31.6	12.4	1.05e-04	0	42	0	85983232	19	4526
2026-01-01 22:39:19.56	37.75	10.08	-29.6	-31.5	12.4	3.20e-04	0	42	0	88080384	19	4485
2026-01-01 22:39:20.56	37.87	10.14	-29.7	-31.9	12.2	2.66e-04	0	42	0	90177536	19	4611
2026-01-01 22:39:21.57	38.00	10.20	-29.7	-31.8	12.3	1.82e-04	0	42	0	91226112	19	4585
2026-01-01 22:39:22.58	38.13	10.27	-29.6	-31.6	12.4	2.47e-04	0	42	0	93323264	19	4522
2026-01-01 22:39:23.58	38.26	10.33	-29.7	-31.8	12.3	2.39e-04	0	42	0	95420416	19	4592
2026-01-01 22:39:24.59	38.39	10.39	-29.6	-31.7	12.4	1.68e-04	0	42	0	97517568	19	4549
2026-01-01 22:39:25.59	38.52	10.45	-29.8	-32.1	12.1	2.37e-04	0	42	0	99614720	19	4688
2026-01-01 22:39:26.60	38.65	10.51	-29.8	-32.0	12.2	3.08e-04	0	42	0	100663296	19	4665
2026-01-01 22:39:27.60	38.78	10.58	-29.8	-32.1	12.0	2.38e-04	0	42	0	102760448	19	4711
2026-01-01 22:39:28.61	38.91	10.64	-29.8	-32.2	12.0	2.84e-04	0	42	0	104857600	19	4743
2026-01-01 22:39:29.61	39.04	10.70	-29.9	-31.9	11.8	5.16e-04	0	42	0	106954752	20	4548
2026-01-01 22:39:30.61	39.17	10.76	-29.9	-31.9	11.8	5.85e-04	0	42	0	109051904	20	4556
2026-01-01 22:39:31.61	39.31	10.82	-29.8	-31.8	11.9	4.24e-04	0	42	0	110100480	20	4511
2026-01-01 22:39:32.61	39.44	10.89	-29.9	-32.1	11.7	5.29e-04	0	42	0	112197632	20	4612
2026-01-01 22:39:33.60	39.57	10.95	-29.9	-31.9	11.9	4.36e-04	0	42	0	114294784	20	4529
2026-01-01 22:39:34.61	39.71	11.01	-29.9	-31.9	11.9	4.63e-04	0	42	0	116391936	20	4531
2026-01-01 22:39:35.61	39.84	11.07	-29.9	-31.9	11.8	3.32e-04	0	42	0	118489088	20	4534
2026-01-01 22:39:36.61	39.98	11.14	-30.0	-32.1	11.7	5.06e-04	0	42	0	119537664	20	4610
2026-01-01 22:39:37.62	40.11	11.20	-30.0	-32.2	11.7	7.09e-04	0	42	0	121634816	20	4627
2026-01-01 22:39:38.62	40.25	11.26	-29.7	-31.4	12.2	3.20e-04	0	42	0	123731968	20	4357
2026-01-01 22:39:39.62	40.39	11.32	-29.8	-31.6	12.1	3.28e-04	0	42	0	125829120	20	4435
2026-01-01 22:39:40.62	40.52	11.38	-29.7	-31.2	12.4	3.69e-04	0	42	0	126877696	20	4292
2026-01-01 22:39:41.62	40.66	11.45	-29.7	-31.4	12.2	2.90e-04	0	42	0	128974848	20	4363
2026-01-01 22:39:42.63	40.80	11.51	-29.7	-31.4	12.2	2.47e-04	0	42	0	131072000	20	4366
2026-01-01 22:39:43.62	40.94	11.57	-29.7	-31.4	12.4	2.19e-04	0	42	0	133169152	20	4359
2026-01-01 22:39:44.63	41.08	11.63	-29.7	-31.4	12.2	1.59e-04	0	42	0	135266304	20	4363
2026-01-01 22:39:45.63	41.22	11.70	-29.7	-31.3	12.3	2.05e-04	0	42	0	136314880	20	4337
2026-01-01 22:39:46.63	41.36	11.76	-29.6	-31.1	12.4	1.87e-04	0	42	0	138412032	20	4272
2026-01-01 22:39:47.64	41.50	11.82	-29.5	-30.7	12.7	8.62e-05	0	42	0	140509184	20	4145
2026-01-01 22:39:48.63	41.64	11.88	-29.5	-30.8	12.7	8.01e-05	0	42	0	142606336	20	4170
2026-01-01 22:39:49.63	41.79	11.95	-29.4	-30.5	12.8	9.76e-05	0	42	0	144703488	20	4069
2026-01-01 22:39:50.63	41.93	12.01	-29.4	-30.4	12.9	2.74e-05	0	42	0	145752064	20	4049
2026-01-01 22:39:51.63	42.07	12.07	-29.4	-30.8	13.0	2.82e-05	0	42	0	147849216	19	4232
2026-01-01 22:39:52.63	42.22	12.13	-29.3	-30.4	13.3	2.59e-05	0	42	0	149946368	19	4130
2026-01-01 22:39:53.63	42.36	12.19	-29.4	-30.8	13.1	2.21e-05	0	42	0	152043520	19	4239
2026-01-01 22:39:54.63	42.51	12.26	-29.3	-30.5	13.3	3.35e-05	0	42	0	153092096	19	4157
2026-01-01 22:39:55.63	42.65	12.32	-29.4	-30.8	13.1	3.35e-05	0	42	0	155189248	19	4234
2026-01-01 22:39:56.63	42.80	12.38	-29.5	-31.1	12.9	2.74e-05	0	42	0	157286400	19	4340
2026-01-01 22:39:57.63	42.95	12.44	-29.5	-31.1	12.9	5.49e-05	0	42	0	159383552	19	4320
2026-01-01 22:39:58.63	43.09	12.51	-29.5	-31.1	12.9	6.56e-05	0	42	0	161480704	19	4344
2026-01-01 22:39:59.63	43.24	12.57	-29.7	-31.7	12.5	7.24e-05	0	42	0	162529280	19	4531
2026-01-01 22:40:00.63	43.39	12.63	-29.8	-31.9	12.3	1.75e-04	0	42	0	164626432	19	4614
2026-01-01 22:40:01.64	43.54	12.69	-29.6	-31.5	12.7	5.16e-04	0	42	0	166723584	19	4469
2026-01-01 22:40:02.64	43.69	12.76	-29.7	-31.8	12.4	1.04e-04	0	42	0	168820736	19	4551
2026-01-01 22:40:03.64	43.84	12.82	-29.7	-31.6	12.6	8.69e-05	0	42	0	170917888	19	4500
2026-01-01 22:40:04.64	44.00	12.88	-29.8	-31.9	12.5	4.70e-04	0	42	0	171966464	19	4595
2026-01-01 22:40:05.64	44.15	12.94	-29.7	-31.6	12.6	1.07e-04	0	42	0	174063616	19	4497
2026-01-01 22:40:06.65	44.30	13.01	-29.8	-31.8	12.5	1.25e-04	0	42	0	176160768	19	4580
2026-01-01 22:40:07.65	44.46	13.07	-29.7	-31.7	12.6	3.48e-04	0	42	0	178257920	19	4523
2026-01-01 22:40:08.66	44.61	13.13	-29.5	-31.1	12.9	4.42e-05	0	42	0	180355072	19	4342
2026-01-01 22:40:09.66	44.77	13.19	-29.4	-30.8	13.2	3.73e-05	0	42	0	181403648	19	4225
2026-01-01 22:40:10.66	44.92	13.25	-29.5	-31.1	13.0	6.48e-05	0	42	0	183500800	19	4319
2026-01-01 22:40:11.67	45.08	13.32	-29.5	-31.0	13.1	4.88e-05	0	43	0	185597952	19	4299
2026-01-01 22:40:12.67	45.23	13.38	-29.6	-31.4	12.8	4.57e-05	0	42	0	187695104	19	4427
2026-01-01 22:40:13.67	45.39	13.44	-29.6	-31.3	12.9	6.71e-05	0	42	0	189792256	19	4376
2026-01-01 22:40:14.67	45.55	13.50	-29.7	-31.7	12.6	8.92e-05	0	42	0	190840832	19	4511
2026-01-01 22:40:15.67	45.71	13.56	-29.8	-32.0	12.4	1.39e-04	0	42	0	192937984	19	4618
2026-01-01 22:40:16.67	45.87	13.63	-29.9	-32.1	12.4	2.04e-04	0	42	0	195035136	19	4663
2026-01-01 22:40:17.68	46.03	13.69	-29.8	-31.9	12.5	1.23e-04	0	42	0	197132288	19	4585
2026-01-01 22:40:18.68	46.19	13.75	-29.8	-31.8	12.6	9.30e-05	0	43	0	198180864	19	4537
2026-01-01 22:40:19.68	46.35	13.81	-29.7	-31.5	12.8	6.17e-05	0	42	0	200278016	19	4445
2026-01-01 22:40:20.69	46.51	13.87	-29.7	-31.5	12.8	7.70e-05	0	42	0	202375168	19	4455
2026-01-01 22:40:21.70	46.68	13.94	-29.7	-31.6	12.8	4.95e-05	0	43	0	204472320	19	4465
2026-01-01 22:40:22.70	46.84	14.00	-29.7	-31.5	12.8	6.25e-05	0	42	0	206569472	19	4446
2026-01-01 22:40:23.71	47.01	14.06	-29.6	-31.3	12.8	5.26e-05	0	43	0	207618048	19	4398
2026-01-01 22:40:24.71	47.17	14.12	-29.8	-31.8	12.6	5.11e-05	0	42	0	209715200	19	4553
2026-01-01 22:40:25.72	47.34	14.18	-29.8	-32.0	12.5	1.17e-04	0	42	0	211812352	19	4621
2026-01-01 22:40:26.72	47.50	14.25	-30.0	-31.9	12.1	1.27e-04	0	42	0	213909504	20	4510
2026-01-01 22:40:27.72	47.67	14.31	-29.9	-31.8	12.2	1.61e-04	0	42	0	216006656	20	4462
2026-01-01 22:40:28.72	47.84	14.37	-29.8	-31.4	12.5	1.57e-04	0	42	0	217055232	20	4335
2026-01-01 22:40:29.73	48.01	14.43	-29.8	-31.9	12.6	1.29e-04	0	43	0	219152384	19	4582
2026-01-01 22:40:30.73	48.17	14.49	-29.8	-32.0	12.5	1.22e-04	0	43	0	221249536	19	4602
2026-01-01 22:40:31.74	48.34	14.55	-29.6	-31.4	12.9	9.00e-05	0	42	0	223346688	19	4423
2026-01-01 22:40:32.74	48.51	14.61	-29.5	-31.1	13.1	2.97e-05	0	42	0	225443840	19	4296
2026-01-01 22:40:33.75	48.69	14.67	-29.5	-30.9	13.2	2.05e-05	0	43	0	226492416	19	4260
2026-01-01 22:40:34.75	48.86	14.74	-29.4	-30.6	13.5	2.67e-05	0	43	0	228589568	19	4151
2026-01-01 22:40:35.75	49.03	14.80	-29.4	-30.6	13.5	6.10e-06	0	42	0	230686720	19	4152
2026-01-01 22:40:36.76	49.20	14.86	-29.3	-30.5	13.5	1.44e-05	0	43	0	232783872	19	4133
2026-01-01 22:40:37.76	49.38	14.92	-29.3	-30.4	13.6	1.67e-05	0	43	0	234881024	19	4093
2026-01-01 22:40:38.76	49.55	14.98	-29.5	-31.0	13.2	9.90e-06	0	43	0	235929600	19	4266
2026-01-01 22:40:39.76	49.72	15.04	-29.3	-30.5	13.5	1.14e-05	0	42	0	238026752	19	4163
2026-01-01 22:40:40.76	49.90	15.10	-29.3	-30.5	13.5	1.22e-05	0	43	0	240123904	19	4107
2026-01-01 22:40:41.77	50.08	15.16	-29.4	-30.8	13.4	5.30e-06	0	43	0	242221056	19	4199
2026-01-01 22:40:42.77	50.25	15.22	-29.4	-30.7	13.2	1.44e-05	0	43	0	244318208	19	4188
2026-01-01 22:40:43.78	50.43	15.28	-29.4	-30.6	13.2	7.60e-06	0	43	0	245366784	19	4158
2026-01-01 22:40:44.78	50.61	15.34	-29.5	-31.0	13.3	1.44e-05	0	43	0	247463936	19	4271
2026-01-01 22:40:45.77	50.79	15.40	-29.5	-31.1	13.0	2.51e-05	0	43	0	249561088	19	4297
2026-01-01 22:40:46.78	50.97	15.46	-29.5	-31.0	13.2	1.83e-05	0	43	0	251658240	19	4267
2026-01-01 22:40:47.78	51.15	15.52	-29.5	-31.0	13.2	2.36e-05	0	43	0	253755392	19	4284
2026-01-01 22:40:48.78	51.33	15.58	-29.5	-30.9	13.3	1.52e-05	0	43	0	254803968	19	4236
2026-01-01 22:40:49.78	51.51	15.64	-29.5	-31.0	13.2	1.43e-03	0	43	0	256901120	19	4278
2026-01-01 22:40:50.78	51.69	15.70	-29.5	-31.1	13.2	3.35e-05	0	43	0	258998272	19	4307
2026-01-01 22:40:51.79	51.88	15.76	-29.4	-30.7	13.4	2.82e-05	0	43	0	261095424	19	4175
2026-01-01 22:40:52.80	52.06	15.81	-29.3	-30.8	13.7	1.14e-05	0	43	0	262144000	18	4302
2026-01-01 22:40:53.80	52.25	15.87	-29.3	-30.8	13.6	9.10e-06	0	43	0	264241152	18	4310
2026-01-01 22:40:54.80	52.43	15.93	-29.4	-31.2	13.4	1.14e-05	0	43	0	266338304	18	4426
2026-01-01 22:40:55.80	52.62	15.99	-29.4	-31.1	13.5	9.90e-06	0	43	0	268435456	18	4401
2026-01-01 22:40:56.79	52.80	16.05	-29.4	-31.2	13.5	1.29e-05	0	43	0	270532608	18	4441
2026-01-01 22:40:57.80	52.99	16.11	-29.5	-31.4	13.3	1.22e-05	0	43	0	271581184	18	4481
2026-01-01 22:40:58.80	53.18	16.17	-29.5	-31.1	13.2	2.59e-05	0	43	0	273678336	19	4304
2026-01-01 22:40:59.80	53.37	16.22	-29.7	-31.5	13.0	3.35e-05	0	43	0	275775488	19	4445
2026-01-01 22:41:00.80	53.56	16.28	-29.6	-31.3	13.1	4.11e-05	0	43	0	277872640	19	4376
2026-01-01 22:41:01.80	53.75	16.34	-29.8	-31.7	12.9	3.89e-05	0	43	0	279969792	19	4491
2026-01-01 22:41:02.81	53.94	16.40	-29.6	-31.3	13.0	3.66e-05	0	43	0	281018368	19	4380
2026-01-01 22:41:03.81	54.13	16.45	-29.7	-31.4	13.0	6.40e-04	0	43	0	283115520	19	4410
2026-01-01 22:41:04.82	54.33	16.51	-29.7	-31.4	13.1	2.13e-05	0	42	0	285212672	19	4393
2026-01-01 22:41:05.82	54.52	16.57	-29.7	-31.5	13.0	2.89e-05	0	43	0	287309824	19	4437
2026-01-01 22:41:06.82	54.71	16.62	-29.7	-31.6	13.0	4.93e-04	0	43	0	289406976	19	4446
2026-01-01 22:41:07.82	54.91	16.68	-29.7	-31.5	13.0	5.10e-04	0	43	0	290455552	19	4422
2026-01-01 22:41:08.82	55.10	16.74	-30.0	-31.8	12.4	9.30e-05	0	43	0	292552704	20	4459
2026-01-01 22:41:09.83	55.30	16.79	-30.0	-31.9	12.2	2.67e-04	0	43	0	294649856	20	4490
2026-01-01 22:41:10.84	55.50	16.85	-30.2	-32.6	11.9	6.40e-04	0	43	0	296747008	20	4718
2026-01-01 22:41:11.84	55.70	16.91	-30.1	-32.2	12.1	3.17e-04	0	43	0	298844160	20	4570
2026-01-01 22:41:12.84	55.89	16.96	-30.1	-32.3	12.1	2.37e-04	0	43	0	299892736	20	4617
2026-01-01 22:41:13.84	56.09	17.02	-30.1	-32.1	12.1	7.78e-04	0	43	0	301989888	20	4566
2026-01-01 22:41:14.84	56.29	17.07	-30.1	-32.1	12.2	2.37e-04	0	43	0	304087040	20	4550
2026-01-01 22:41:15.85	56.49	17.13	-30.2	-32.4	11.9	3.42e-04	0	43	0	306184192	20	4649
2026-01-01 22:41:16.85	56.69	17.18	-30.1	-32.3	12.0	1.62e-03	0	43	0	307232768	20	4612
2026-01-01 22:41:17.85	56.90	17.24	-30.2	-32.4	12.0	2.65e-04	0	43	0	309329920	20	4655
2026-01-01 22:41:18.85	57.10	17.29	-30.2	-32.6	11.8	2.10e-03	0	43	0	311427072	20	4721
2026-01-01 22:41:19.85	57.30	17.35	-30.3	-32.9	11.7	4.94e-04	0	43	0	313524224	20	4823
2026-01-01 22:41:20.86	57.51	17.40	-30.2	-32.6	11.9	4.53e-04	0	43	0	315621376	20	4704
2026-01-01 22:41:21.86	57.71	17.45	-30.2	-32.5	11.9	1.51e-03	0	43	0	316669952	20	4667
2026-01-01 22:41:22.87	57.92	17.51	-30.3	-32.7	11.8	4.39e-04	0	43	0	318767104	20	4759
2026-01-01 22:41:23.87	58.12	17.56	-30.6	-33.2	11.1	1.05e-03	0	43	0	320864256	21	4851
2026-01-01 22:41:24.87	58.33	17.61	-30.5	-32.7	11.4	1.95e-03	0	43	0	322961408	21	4674
2026-01-01 22:41:25.88	58.54	17.67	-30.5	-32.9	11.3	1.67e-03	0	43	0	325058560	21	4742
2026-01-01 22:41:26.88	58.75	17.72	-30.7	-33.3	11.0	2.18e-03	0	43	0	326107136	21	4894
2026-01-01 22:41:27.89	58.96	17.77	-30.6	-33.1	11.2	2.72e-03	0	43	0	328204288	21	4827
2026-01-01 22:41:28.88	59.16	17.82	-30.5	-33.0	11.3	2.23e-03	0	43	0	330301440	21	4769
2026-01-01 22:41:29.88	59.37	17.88	-30.5	-32.9	11.3	1.04e-03	0	43	0	332398592	21	4728
2026-01-01 22:41:30.89	59.59	17.93	-30.7	-33.3	11.0	2.17e-03	0	43	0	334495744	21	4903
2026-01-01 22:41:31.90	59.80	17.98	-30.7	-33.6	10.8	2.56e-03	0	43	0	335544320	21	5010
2026-01-01 22:41:32.90	60.01	18.03	-30.8	-33.7	10.8	3.26e-03	0	43	0	337641472	21	5052
2026-01-01 22:41:33.90	60.23	18.08	-30.8	-33.8	10.6	4.25e-03	0	43	0	339738624	21	5101
2026-01-01 22:41:34.90	60.44	18.13	-30.8	-34.0	10.5	4.52e-03	0	43	0	341835776	21	5154
2026-01-01 22:41:35.91	60.66	18.18	-30.6	-33.3	11.1	2.18e-03	0	43	0	343932928	21	4873
2026-01-01 22:41:36.91	60.87	18.23	-30.3	-32.7	11.8	6.35e-04	0	43	0	344981504	20	4757
2026-01-01 22:41:37.92	61.09	18.28	-30.2	-32.5	12.0	3.94e-04	0	43	0	347078656	20	4669
2026-01-01 22:41:38.92	61.30	18.33	-30.1	-32.0	12.3	2.49e-04	0	43	0	349175808	20	4506
2026-01-01 22:41:39.93	61.52	18.38	-30.2	-32.3	12.1	2.10e-04	0	43	0	351272960	20	4590
2026-01-01 22:41:40.93	61.74	18.43	-30.1	-32.1	12.3	1.35e-04	0	43	0	353370112	20	4549
2026-01-01 22:41:41.93	61.96	18.48	-30.1	-32.2	12.2	2.59e-04	0	43	0	354418688	20	4553
2026-01-01 22:41:42.94	62.18	18.53	-30.1	-32.2	12.2	5.77e-04	0	43	0	356515840	20	4556
2026-01-01 22:41:43.94	62.40	18.57	-30.2	-32.4	12.1	2.53e-04	0	43	0	358612992	20	4630
2026-01-01 22:41:44.94	62.62	18.62	-30.1	-32.2	12.2	1.65e-04	0	43	0	360710144	20	4569
2026-01-01 22:41:45.95	62.84	18.67	-30.3	-32.7	11.8	1.20e-03	0	43	0	362807296	20	4761
2026-01-01 22:41:46.95	63.07	18.72	-29.9	-31.6	12.6	1.49e-03	0	43	0	363855872	20	4381
2026-01-01 22:41:47.95	63.29	18.76	-29.8	-31.3	12.8	4.95e-05	0	43	0	365953024	20	4266
2026-01-01 22:41:48.95	63.51	18.81	-29.9	-32.0	12.8	1.66e-03	0	43	0	368050176	19	4562
2026-01-01 22:41:49.96	63.74	18.85	-30.0	-31.8	12.5	1.78e-03	0	43	0	370147328	20	4438
2026-01-01 22:41:50.96	63.96	18.90	-30.0	-31.9	12.4	1.69e-04	0	43	0	372244480	20	4458
2026-01-01 22:41:51.97	64.19	18.94	-30.0	-31.7	12.5	1.48e-03	0	43	0	373293056	20	4396
2026-01-01 22:41:52.97	64.41	18.99	-29.9	-31.5	12.6	1.57e-03	0	43	0	375390208	20	4342
2026-01-01 22:41:53.98	64.64	19.03	-29.8	-31.4	12.7	6.56e-05	0	43	0	377487360	20	4299
2026-01-01 22:41:54.98	64.87	19.08	-29.9	-32.1	12.6	5.49e-05	0	43	0	379584512	19	4624
2026-01-01 22:41:55.98	65.10	19.12	-29.9	-32.0	12.7	1.64e-03	0	43	0	380633088	19	4574
2026-01-01 22:41:56.99	65.33	19.17	-30.1	-32.1	12.3	1.08e-04	0	43	0	382730240	20	4526
2026-01-01 22:41:57.99	65.56	19.21	-30.4	-33.0	11.6	4.49e-04	0	43	0	384827392	20	4855
2026-01-01 22:41:58.99	65.79	19.25	-30.3	-32.6	11.9	6.18e-04	0	43	0	386924544	20	4715
2026-01-01 22:42:00.00	66.02	19.29	-30.7	-33.3	11.1	9.32e-04	0	43	0	389021696	21	4897
2026-01-01 22:42:01.00	66.25	19.34	-30.2	-31.9	12.0	3.74e-04	0	43	0	390070272	21	4373
2026-01-01 22:42:02.00	66.48	19.38	-30.4	-32.9	11.7	6.06e-04	0	43	0	392167424	20	4831
2026-01-01 22:42:03.01	66.72	19.42	-30.0	-31.9	12.4	2.41e-04	0	43	0	394264576	20	4468
2026-01-01 22:42:04.01	66.95	19.46	-29.7	-31.3	13.2	2.89e-05	0	43	0	396361728	19	4341
2026-01-01 22:42:05.01	67.18	19.50	-29.5	-30.8	13.5	1.60e-05	0	43	0	398458880	19	4195
2026-01-01 22:42:06.01	67.42	19.54	-29.5	-30.9	13.5	1.52e-05	0	43	0	399507456	19	4237
2026-01-01 22:42:07.01	67.65	19.58	-29.6	-31.2	13.3	4.94e-04	0	43	0	401604608	19	4320
2026-01-01 22:42:08.01	67.89	19.62	-29.5	-31.0	13.4	1.06e-05	0	43	0	403701760	19	4266
2026-01-01 22:42:09.02	68.12	19.66	-29.3	-30.4	13.8	6.80e-06	0	43	0	405798912	19	4065
2026-01-01 22:42:10.02	68.36	19.69	-28.9	-29.8	14.5	7.00e-07	0	43	0	407896064	18	3995
2026-01-01 22:42:11.03	68.60	19.73	-28.7	-29.2	14.9	0.00e+00	0	43	0	408944640	18	3829
2026-01-01 22:42:12.04	68.84	19.77	-28.7	-29.4	14.8	0.00e+00	0	43	0	411041792	18	3880
2026-01-01 22:42:13.05	69.08	19.81	-28.8	-29.4	14.8	3.50e-05	0	43	0	413138944	18	3888
2026-01-01 22:42:14.05	69.32	19.84	-29.0	-30.0	14.4	1.28e-04	0	43	0	415236096	18	4054
2026-01-01 22:42:15.05	69.56	19.88	-29.2	-30.5	14.1	7.00e-07	0	43	0	417333248	18	4188
2026-01-01 22:42:16.05	69.80	19.91	-29.1	-30.4	14.1	1.50e-06	0	43	0	418381824	18	4172
2026-01-01 22:42:17.05	70.04	19.95	-29.2	-30.7	13.9	3.80e-06	0	43	0	420478976	18	4253
2026-01-01 22:42:18.05	70.28	19.98	-29.0	-30.1	14.3	0.00e+00	0	43	0	422576128	18	4071
2026-01-01 22:42:19.05	70.52	20.02	-29.0	-29.9	14.4	7.00e-07	0	43	0	424673280	18	4036
2026-01-01 22:42:20.05	70.76	20.05	-29.0	-30.2	14.3	3.00e-06	0	43	0	425721856	18	4105
2026-01-01 22:42:21.04	71.00	20.09	-29.0	-30.2	14.2	0.00e+00	0	43	0	427819008	18	4093
2026-01-01 22:42:22.04	71.24	20.12	-29.1	-30.3	14.2	7.00e-07	0	43	0	429916160	18	4145
2026-01-01 22:42:23.04	71.49	20.15	-29.3	-30.7	14.0	3.00e-06	0	43	0	432013312	18	4267
2026-01-01 22:42:24.04	71.73	20.18	-29.1	-30.3	14.2	4.50e-06	0	43	0	434110464	18	4129
2026-01-01 22:42:25.05	71.98	20.21	-29.1	-30.3	14.2	0.00e+00	0	43	0	435159040	18	4142
2026-01-01 22:42:26.05	72.22	20.25	-29.3	-30.7	13.9	3.00e-06	0	43	0	437256192	18	4252
2026-01-01 22:42:27.05	72.47	20.28	-29.1	-30.4	14.1	2.20e-06	0	43	0	439353344	18	4161
2026-01-01 22:42:28.06	72.72	20.31	-29.1	-30.3	14.2	1.50e-06	0	43	0	441450496	18	4144
2026-01-01 22:42:29.06	72.96	20.34	-29.3	-31.0	13.8	6.80e-06	0	43	0	443547648	18	4344
2026-01-01 22:42:30.06	73.21	20.36	-29.3	-31.0	13.8	6.80e-06	0	43	0	444596224	18	4335
2026-01-01 22:42:31.07	73.46	20.39	-29.3	-30.8	14.0	6.10e-06	0	43	0	446693376	18	4285
2026-01-01 22:42:32.07	73.71	20.42	-29.2	-30.6	14.0	3.80e-06	0	43	0	448790528	18	4227
2026-01-01 22:42:33.08	73.96	20.45	-29.2	-30.5	14.0	2.20e-06	0	43	0	450887680	18	4205
2026-01-01 22:42:34.08	74.21	20.48	-28.9	-29.9	14.5	7.00e-07	0	43	0	452984832	18	4009
2026-01-01 22:42:35.08	74.46	20.50	-29.0	-29.9	14.4	3.00e-06	0	43	0	454033408	18	4023
2026-01-01 22:42:36.08	74.70	20.53	-29.3	-30.8	14.0	1.50e-06	0	43	0	456130560	18	4277
2026-01-01 22:42:37.08	74.95	20.55	-29.4	-31.1	13.6	4.50e-06	0	43	0	458227712	18	4384
2026-01-01 22:42:38.07	75.20	20.58	-29.6	-31.1	13.3	8.30e-06	0	43	0	460324864	19	4272
2026-01-01 22:42:39.07	75.45	20.60	-29.8	-31.7	12.9	2.82e-05	0	43	0	462422016	19	4491
2026-01-01 22:42:40.08	75.71	20.63	-29.6	-31.0	13.4	1.60e-05	0	43	0	463470592	19	4258
2026-01-01 22:42:41.09	75.96	20.65	-29.3	-30.4	13.8	1.29e-05	0	43	0	465567744	19	4086
2026-01-01 22:42:42.09	76.21	20.67	-29.4	-30.7	13.6	6.10e-06	0	43	0	467664896	19	4155
2026-01-01 22:42:43.10	76.47	20.70	-29.4	-30.6	13.7	4.50e-06	0	43	0	469762048	19	4140
2026-01-01 22:42:44.10	76.72	20.72	-29.6	-31.2	13.3	1.37e-05	0	43	0	470810624	19	4317
2026-01-01 22:42:45.09	76.97	20.74	-29.7	-31.4	13.2	1.60e-05	0	43	0	472907776	19	4382
2026-01-01 22:42:46.09	77.22	20.76	-29.6	-31.1	13.4	1.52e-05	0	43	0	475004928	19	4295
2026-01-01 22:42:47.10	77.48	20.78	-29.5	-30.7	13.6	1.29e-05	0	43	0	477102080	19	4173
2026-01-01 22:42:48.11	77.74	20.80	-29.3	-30.3	13.9	3.80e-06	0	43	0	479199232	19	4033
2026-01-01 22:42:49.11	77.99	20.82	-29.2	-30.0	14.1	1.98e-05	0	43	0	481296384	19	3961
2026-01-01 22:42:50.10	78.24	20.84	-29.4	-30.6	13.7	9.10e-06	0	43	0	482344960	19	4122
2026-01-01 22:42:51.11	78.50	20.86	-29.3	-30.4	13.8	4.50e-06	0	43	0	484442112	19	4085
2026-01-01 22:42:52.11	78.75	20.87	-29.4	-30.6	13.7	5.87e-05	0	43	0	486539264	19	4126
2026-01-01 22:42:53.11	79.01	20.89	-29.4	-30.6	13.7	9.90e-06	0	43	0	488636416	19	4144
2026-01-01 22:42:54.11	79.27	20.91	-29.4	-30.5	13.8	4.50e-06	0	43	0	489684992	19	4093
2026-01-01 22:42:55.11	79.52	20.92	-29.3	-30.4	13.9	2.41e-04	0	43	0	491782144	19	4066
2026-01-01 22:42:56.12	79.78	20.94	-29.3	-30.4	13.9	4.50e-06	0	43	0	493879296	19	4067
2026-01-01 22:42:57.12	80.04	20.95	-29.2	-30.2	14.0	4.50e-06	0	43	0	495976448	19	4003
2026-01-01 22:42:58.12	80.29	20.97	-29.4	-31.0	13.8	2.20e-06	0	43	0	498073600	18	4355
2026-01-01 22:42:59.12	80.55	20.98	-29.6	-31.1	13.4	1.29e-05	0	43	0	499122176	19	4292
2026-01-01 22:43:00.12	80.81	20.99	-29.8	-31.6	13.1	4.36e-04	0	43	0	501219328	19	4445
2026-01-01 22:43:01.13	81.07	21.01	-29.6	-31.2	13.3	2.44e-05	0	43	0	503316480	19	4309
2026-01-01 22:43:02.14	81.33	21.02	-29.5	-30.9	13.5	1.14e-05	0	43	0	505413632	19	4237
2026-01-01 22:43:03.14	81.58	21.03	-29.5	-30.8	13.6	3.36e-04	0	43	0	507510784	19	4180
2026-01-01 22:43:04.14	81.84	21.04	-29.5	-30.9	13.5	3.04e-04	0	43	0	508559360	19	4224
2026-01-01 22:43:05.15	82.10	21.05	-29.7	-31.5	13.2	1.52e-05	0	43	0	510656512	19	4396
2026-01-01 22:43:06.15	82.36	21.06	-29.8	-31.6	13.1	1.54e-04	0	43	0	512753664	19	4432
2026-01-01 22:43:07.15	82.62	21.07	-30.0	-31.8	12.6	1.20e-04	0	43	0	514850816	20	4413
2026-01-01 22:43:08.15	82.88	21.08	-30.1	-32.0	12.4	1.44e-04	0	43	0	515899392	20	4501
2026-01-01 22:43:09.16	83.14	21.08	-29.9	-31.6	12.7	1.12e-04	0	43	0	517996544	20	4370
2026-01-01 22:43:10.16	83.40	21.09	-29.7	-30.9	13.1	2.74e-05	0	43	0	520093696	20	4130
2026-01-01 22:43:11.16	83.66	21.10	-29.7	-30.9	13.2	2.44e-05	0	43	0	522190848	20	4132
2026-01-01 22:43:12.16	83.92	21.10	-29.8	-31.3	12.8	3.50e-05	0	43	0	524288000	20	4274
2026-01-01 22:43:13.17	84.18	21.11	-29.6	-30.8	13.2	1.57e-04	0	43	0	526385152	20	4098
2026-01-01 22:43:14.18	84.44	21.11	-29.7	-30.9	13.1	4.34e-05	0	43	0	527433728	20	4142
2026-01-01 22:43:15.18	84.70	21.12	-29.6	-31.1	13.4	1.79e-04	0	43	0	529530880	19	4284
2026-01-01 22:43:16.18	84.96	21.12	-29.6	-31.1	13.4	7.17e-05	0	43	0	531628032	19	4291
2026-01-01 22:43:17.19	85.22	21.13	-29.7	-31.4	13.2	1.52e-05	0	43	0	533725184	19	4377
2026-01-01 22:43:18.19	85.48	21.13	-29.4	-30.6	13.7	7.60e-06	0	43	0	534773760	19	4136
2026-01-01 22:43:19.19	85.74	21.13	-29.4	-30.5	13.7	9.10e-06	0	43	0	536870912	19	4101
2026-01-01 22:43:20.20	86.00	21.13	-29.5	-30.9	13.5	1.60e-05	0	43	0	538968064	19	4222
2026-01-01 22:43:21.20	86.26	21.13	-29.7	-31.5	13.2	2.89e-05	0	43	0	541065216	19	4398
2026-01-01 22:43:22.20	86.52	21.13	-29.8	-31.6	13.0	5.49e-05	0	43	0	543162368	19	4459
2026-01-01 22:43:23.20	86.78	21.13	-29.6	-31.3	13.3	2.74e-05	0	43	0	544210944	19	4333
2026-01-01 22:43:24.20	87.04	21.13	-29.6	-31.2	13.3	6.25e-05	0	43	0	546308096	19	4327
2026-01-01 22:43:25.21	87.30	21.13	-29.7	-31.4	13.2	9.53e-05	0	43	0	548405248	19	4386
2026-01-01 22:43:26.21	87.56	21.13	-29.7	-31.3	13.3	2.74e-05	0	43	0	550502400	19	4361
2026-01-01 22:43:27.20	87.82	21.12	-29.6	-31.2	13.3	3.89e-05	0	43	0	552599552	19	4318
2026-01-01 22:43:28.20	88.08	21.12	-29.7	-31.4	13.2	3.50e-05	0	43	0	553648128	19	4365
2026-01-01 22:43:29.21	88.34	21.12	-29.7	-31.4	13.1	2.89e-05	0	43	0	555745280	19	4377
2026-01-01 22:43:30.20	88.60	21.11	-29.5	-30.8	13.5	6.56e-05	0	43	0	557842432	19	4207
2026-01-01 22:43:31.21	88.86	21.11	-29.5	-30.9	13.5	8.23e-05	0	43	0	559939584	19	4218
2026-01-01 22:43:32.21	89.12	21.10	-29.4	-30.5	13.7	5.30e-06	0	43	0	562036736	19	4115
2026-01-01 22:43:33.22	89.38	21.09	-29.4	-30.5	13.7	4.50e-06	0	43	0	563085312	19	4107
2026-01-01 22:43:34.22	89.64	21.09	-29.3	-30.5	13.8	3.58e-05	0	43	0	565182464	19	4098
2026-01-01 22:43:35.21	89.90	21.08	-29.5	-30.8	13.6	9.90e-06	0	43	0	567279616	19	4194
2026-01-01 22:43:36.22	90.16	21.07	-29.4	-30.6	13.7	6.80e-06	0	43	0	569376768	19	4130
2026-01-01 22:43:37.23	90.42	21.06	-29.8	-31.6	13.1	8.23e-05	0	43	0	571473920	19	4431
2026-01-01 22:43:38.23	90.68	21.05	-29.6	-31.2	13.3	2.13e-05	0	43	0	572522496	19	4328
2026-01-01 22:43:39.23	90.94	21.04	-29.4	-30.7	13.6	1.50e-04	0	43	0	574619648	19	4177
2026-01-01 22:43:40.24	91.20	21.03	-29.5	-30.8	13.6	7.60e-06	0	43	0	576716800	19	4187
2026-01-01 22:43:41.24	91.46	21.02	-29.4	-30.6	13.7	1.50e-06	0	43	0	578813952	19	4123
2026-01-01 22:43:42.24	91.71	21.01	-29.4	-30.6	13.7	1.06e-05	0	43	0	579862528	19	4142
2026-01-01 22:43:43.24	91.97	21.00	-29.4	-30.7	13.6	1.44e-05	0	43	0	581959680	19	4176
2026-01-01 22:43:44.24	92.23	20.99	-29.3	-30.5	13.8	6.10e-06	0	43	0	584056832	19	4094
2026-01-01 22:43:45.24	92.49	20.97	-29.4	-30.6	13.7	3.80e-06	0	43	0	586153984	19	4123
2026-01-01 22:43:46.25	92.75	20.96	-29.3	-30.4	13.9	8.30e-06	0	43	0	588251136	19	4067
2026-01-01 22:43:47.25	93.00	20.94	-29.5	-30.9	13.6	8.30e-06	0	43	0	589299712	19	4227
2026-01-01 22:43:48.25	93.26	20.93	-29.5	-30.9	13.5	3.00e-06	0	43	0	591396864	19	4225
2026-01-01 22:43:49.25	93.52	20.91	-29.3	-30.4	13.8	2.20e-06	0	43	0	593494016	19	4078
2026-01-01 22:43:50.25	93.77	20.90	-29.4	-30.5	13.8	6.80e-06	0	43	0	595591168	19	4106
2026-01-01 22:43:51.25	94.03	20.88	-29.4	-30.7	13.6	6.80e-06	0	43	0	597688320	19	4165
2026-01-01 22:43:52.26	94.29	20.86	-29.3	-30.4	13.8	1.67e-05	0	43	0	598736896	19	4075
2026-01-01 22:43:53.26	94.54	20.85	-29.2	-30.2	13.9	5.30e-06	0	43	0	600834048	19	4017
2026-01-01 22:43:54.27	94.80	20.83	-29.3	-30.3	13.9	2.20e-06	0	43	0	602931200	19	4056
2026-01-01 22:43:55.27	95.05	20.81	-29.3	-30.5	13.8	6.10e-06	0	43	0	605028352	19	4104
2026-01-01 22:43:56.26	95.31	20.79	-29.3	-30.3	13.8	1.22e-05	0	43	0	607125504	19	4061
2026-01-01 22:43:57.26	95.56	20.77	-29.2	-30.1	14.0	1.37e-05	0	43	0	608174080	19	3985
2026-01-01 22:43:58.27	95.82	20.75	-29.3	-30.5	13.8	2.20e-06	0	43	0	610271232	19	4101
2026-01-01 22:43:59.26	96.07	20.73	-29.4	-30.7	13.6	1.06e-05	0	43	0	612368384	19	4182
2026-01-01 22:44:00.26	96.32	20.71	-29.4	-30.6	13.7	6.10e-06	0	43	0	614465536	19	4139
2026-01-01 22:44:01.26	96.57	20.68	-29.4	-30.6	13.6	4.50e-06	0	43	0	616562688	19	4152
2026-01-01 22:44:02.27	96.83	20.66	-29.5	-30.8	13.5	9.90e-06	0	43	0	617611264	19	4206
2026-01-01 22:44:03.27	97.08	20.64	-29.7	-31.5	13.1	1.22e-05	0	43	0	619708416	19	4414
2026-01-01 22:44:04.27	97.33	20.61	-29.8	-31.7	12.9	7.55e-05	0	43	0	621805568	19	4477
2026-01-01 22:44:05.28	97.58	20.59	-29.5	-30.9	13.5	1.75e-05	0	43	0	623902720	19	4232
2026-01-01 22:44:06.27	97.83	20.57	-29.3	-30.4	13.8	4.50e-06	0	43	0	624951296	19	4077
2026-01-01 22:44:07.27	98.08	20.54	-29.1	-29.9	14.1	2.20e-06	0	43	0	627048448	19	3935
2026-01-01 22:44:08.28	98.34	20.51	-29.2	-30.1	14.0	1.50e-06	0	43	0	629145600	19	3992
2026-01-01 22:44:09.28	98.59	20.49	-29.3	-30.5	13.7	3.00e-06	0	43	0	631242752	19	4094
2026-01-01 22:44:10.28	98.84	20.46	-29.1	-29.9	14.1	3.80e-06	0	43	0	633339904	19	3940
2026-01-01 22:44:11.28	99.08	20.43	-29.3	-30.3	13.9	3.80e-06	0	43	0	634388480	19	4046
2026-01-01 22:44:12.29	99.34	20.41	-29.2	-30.7	13.9	5.30e-06	0	43	0	636485632	18	4261
2026-01-01 22:44:13.29	99.58	20.38	-29.1	-30.3	14.1	3.80e-06	0	43	0	638582784	18	4148
2026-01-01 22:44:14.30	99.83	20.35	-28.9	-29.8	14.5	0.00e+00	0	43	0	640679936	18	3998
2026-01-01 22:44:15.30	100.08	20.32	-28.8	-29.6	14.5	0.00e+00	0	43	0	642777088	18	3949
2026-01-01 22:44:16.30	100.33	20.29	-28.8	-29.6	14.6	3.80e-06	0	43	0	643825664	18	3952
2026-01-01 22:44:17.30	100.57	20.26	-28.8	-29.6	14.6	0.00e+00	0	43	0	645922816	18	3952
2026-01-01 22:44:18.30	100.82	20.23	-29.0	-30.2	14.3	0.00e+00	0	43	0	648019968	18	4113
2026-01-01 22:44:19.31	101.07	20.20	-29.1	-30.3	14.1	3.80e-06	0	43	0	650117120	18	4155
2026-01-01 22:44:20.31	101.31	20.16	-29.2	-30.6	14.0	8.30e-06	0	43	0	652214272	18	4222
2026-01-01 22:44:21.31	101.56	20.13	-29.3	-30.8	13.9	3.80e-06	0	43	0	653262848	18	4286
2026-01-01 22:44:22.31	101.80	20.10	-29.2	-30.5	14.0	6.80e-06	0	43	0	655360000	18	4212
2026-01-01 22:44:23.31	102.04	20.07	-29.2	-30.6	13.9	2.20e-06	0	43	0	657457152	18	4246
2026-01-01 22:44:24.32	102.29	20.03	-29.1	-30.4	14.0	2.20e-06	0	43	0	659554304	18	4168
2026-01-01 22:44:25.32	102.53	20.00	-29.3	-30.8	13.9	2.20e-06	0	43	0	661651456	18	4285
2026-01-01 22:44:26.32	102.77	19.96	-29.0	-30.1	14.2	0.00e+00	0	43	0	662700032	18	4081
2026-01-01 22:44:27.33	103.02	19.93	-29.1	-30.3	14.2	1.50e-06	0	43	0	664797184	18	4132
2026-01-01 22:44:28.33	103.26	19.89	-29.0	-30.0	14.3	3.80e-06	0	43	0	666894336	18	4065
2026-01-01 22:44:29.33	103.50	19.86	-28.8	-29.7	14.4	0.00e+00	0	43	0	668991488	18	4020
2026-01-01 22:44:30.33	103.74	19.82	-29.1	-30.3	14.0	1.50e-06	0	43	0	670040064	18	4159
2026-01-01 22:44:31.33	103.97	19.78	-29.2	-30.6	14.0	8.30e-06	0	43	0	672137216	18	4224
2026-01-01 22:44:32.33	104.21	19.75	-29.1	-30.5	13.8	7.00e-07	0	43	0	674234368	18	4194
2026-01-01 22:44:33.33	104.45	19.71	-29.1	-30.4	13.9	1.50e-06	0	43	0	676331520	18	4181
2026-01-01 22:44:34.33	104.69	19.67	-29.3	-30.9	13.7	2.20e-06	0	43	0	678428672	18	4330
2026-01-01 22:44:35.33	104.92	19.63	-29.2	-30.7	13.9	5.30e-06	0	43	0	679477248	18	4270
2026-01-01 22:44:36.33	105.16	19.59	-29.1	-30.3	14.1	3.80e-06	0	43	0	681574400	18	4138
2026-01-01 22:44:37.33	105.40	19.55	-29.0	-30.0	14.3	2.20e-06	0	43	0	683671552	18	4048
2026-01-01 22:44:38.33	105.63	19.51	-29.0	-30.1	14.3	7.00e-07	0	43	0	685768704	18	4070
2026-01-01 22:44:39.34	105.87	19.47	-29.1	-30.4	14.1	4.50e-06	0	43	0	687865856	18	4168
2026-01-01 22:44:40.34	106.10	19.43	-29.2	-30.6	13.9	4.50e-06	0	43	0	688914432	18	4242
2026-01-01 22:44:41.34	106.33	19.39	-29.4	-31.2	13.5	1.60e-05	0	43	0	691011584	18	4423
2026-01-01 22:44:42.34	106.57	19.35	-29.4	-31.2	13.6	5.30e-06	0	43	0	693108736	18	4427
2026-01-01 22:44:43.35	106.80	19.31	-29.5	-31.1	13.3	2.13e-05	0	43	0	695205888	19	4282
2026-01-01 22:44:44.35	107.03	19.27	-29.5	-30.8	13.5	9.10e-06	0	43	0	697303040	19	4212
2026-01-01 22:44:45.36	107.27	19.22	-29.2	-30.0	13.9	2.87e-04	0	43	0	698351616	19	3973
2026-01-01 22:44:46.36	107.50	19.18	-29.1	-29.9	14.1	8.30e-06	0	43	0	700448768	19	3944
2026-01-01 22:44:47.36	107.72	19.14	-28.9	-30.0	14.3	1.50e-06	0	43	0	702545920	18	4048
2026-01-01 22:44:48.37	107.96	19.09	-28.9	-29.7	14.4	6.86e-05	0	43	0	704643072	18	3982
2026-01-01 22:44:49.38	108.19	19.05	-28.9	-29.8	14.5	7.00e-07	0	43	0	706740224	18	3997
2026-01-01 22:44:50.38	108.41	19.00	-29.0	-30.1	14.2	7.00e-07	0	43	0	707788800	18	4079
2026-01-01 22:44:51.38	108.64	18.96	-29.0	-30.0	14.3	7.62e-05	0	43	0	709885952	18	4064
2026-01-01 22:44:52.38	108.87	18.91	-29.0	-30.2	14.2	2.20e-06	0	43	0	711983104	18	4116
2026-01-01 22:44:53.38	109.09	18.87	-29.1	-30.4	14.1	7.00e-07	0	43	0	714080256	18	4163
2026-01-01 22:44:54.38	109.32	18.82	-29.1	-30.5	14.0	7.00e-07	0	43	0	715128832	18	4202
2026-01-01 22:44:55.39	109.54	18.78	-29.3	-30.8	13.8	7.60e-06	0	43	0	717225984	18	4307
2026-01-01 22:44:56.39	109.77	18.73	-29.5	-30.9	13.4	5.34e-05	0	43	0	719323136	19	4229
2026-01-01 22:44:57.39	109.99	18.68	-29.6	-31.1	13.3	2.28e-05	0	43	0	721420288	19	4314
2026-01-01 22:44:58.39	110.21	18.63	-29.9	-32.0	12.6	8.62e-05	0	43	0	723517440	19	4614
2026-01-01 22:44:59.39	110.43	18.59	-30.0	-31.9	12.3	3.53e-04	0	43	0	724566016	20	4484
2026-01-01 22:45:00.40	110.66	18.54	-30.0	-31.9	12.3	1.69e-04	0	43	0	726663168	20	4468
2026-01-01 22:45:01.40	110.88	18.49	-29.9	-31.5	12.6	1.63e-04	0	43	0	728760320	20	4357
2026-01-01 22:45:02.41	111.10	18.44	-29.7	-30.9	13.0	2.96e-04	0	43	0	730857472	20	4173
2026-01-01 22:45:03.41	111.32	18.39	-29.7	-31.4	13.1	2.08e-04	0	43	0	732954624	19	4380
2026-01-01 22:45:04.41	111.53	18.34	-29.6	-31.3	13.1	5.03e-05	0	43	0	734003200	19	4368
2026-01-01 22:45:05.41	111.75	18.29	-29.7	-31.5	13.0	2.23e-04	0	43	0	736100352	19	4447
2026-01-01 22:45:06.41	111.97	18.24	-30.0	-32.2	12.5	1.91e-04	0	43	0	738197504	19	4665
2026-01-01 22:45:07.42	112.19	18.19	-29.9	-31.6	12.5	1.41e-04	0	43	0	740294656	20	4372
2026-01-01 22:45:08.42	112.40	18.14	-29.9	-31.6	12.5	2.97e-04	0	43	0	742391808	20	4382
2026-01-01 22:45:09.42	112.62	18.09	-29.8	-31.2	12.8	8.69e-05	0	43	0	743440384	20	4265
2026-01-01 22:45:10.43	112.83	18.04	-29.7	-31.2	12.8	5.56e-05	0	43	0	745537536	20	4246
2026-01-01 22:45:11.43	113.05	17.99	-29.7	-31.2	12.8	4.65e-05	0	43	0	747634688	20	4255
2026-01-01 22:45:12.44	113.26	17.94	-29.6	-30.9	12.9	7.17e-05	0	43	0	749731840	20	4156
2026-01-01 22:45:13.44	113.47	17.89	-29.5	-30.6	13.2	2.51e-05	0	43	0	751828992	20	4070
2026-01-01 22:45:14.44	113.68	17.84	-29.5	-30.6	13.2	1.98e-05	0	43	0	752877568	20	4063
2026-01-01 22:45:15.45	113.90	17.78	-29.4	-30.4	13.3	1.60e-05	0	43	0	754974720	20	4010
2026-01-01 22:45:16.45	114.11	17.73	-29.6	-30.8	13.0	2.67e-05	0	43	0	757071872	20	4123
2026-01-01 22:45:17.45	114.32	17.68	-29.8	-31.3	12.7	5.11e-05	0	43	0	759169024	20	4293
2026-01-01 22:45:18.45	114.52	17.62	-30.0	-31.8	12.3	1.07e-04	0	43	0	760217600	20	4463
2026-01-01 22:45:19.45	114.73	17.57	-30.0	-32.0	12.2	1.51e-04	0	43	0	762314752	20	4513
2026-01-01 22:45:20.45	114.94	17.52	-30.1	-32.3	12.0	4.19e-04	0	43	0	764411904	20	4625
2026-01-01 22:45:21.45	115.14	17.46	-30.4	-33.0	11.5	4.29e-04	0	43	0	766509056	20	4890
2026-01-01 22:45:22.45	115.35	17.41	-30.3	-32.8	11.6	8.15e-04	0	43	0	768606208	20	4812
2026-01-01 22:45:23.45	115.55	17.36	-30.2	-32.6	11.8	6.55e-04	0	43	0	769654784	20	4729
2026-01-01 22:45:24.45	115.76	17.30	-30.3	-32.8	11.7	7.43e-04	0	43	0	771751936	20	4816
2026-01-01 22:45:25.45	115.96	17.25	-30.3	-32.7	11.7	5.25e-04	0	43	0	773849088	20	4788
2026-01-01 22:45:26.45	116.16	17.19	-30.2	-32.7	11.6	6.83e-04	0	43	0	775946240	20	4786
2026-01-01 22:45:27.45	116.37	17.14	-30.1	-32.2	11.9	3.64e-04	0	43	0	778043392	20	4615
2026-01-01 22:45:28.45	116.57	17.08	-30.0	-32.0	12.1	2.30e-04	0	43	0	779091968	20	4554
2026-01-01 22:45:29.45	116.77	17.03	-30.0	-31.9	12.1	2.29e-04	0	43	0	781189120	20	4516
2026-01-01 22:45:30.45	116.97	16.97	-30.0	-32.0	12.1	2.47e-04	0	43	0	783286272	20	4554
2026-01-01 22:45:31.46	117.17	16.91	-30.1	-32.5	11.8	3.54e-04	0	43	0	785383424	20	4705
2026-01-01 22:45:32.46	117.37	16.86	-30.2	-32.7	11.5	7.70e-04	0	43	0	787480576	20	4772
2026-01-01 22:45:33.46	117.56	16.80	-30.3	-32.8	11.5	6.38e-04	0	43	0	788529152	20	4823
2026-01-01 22:45:34.47	117.76	16.74	-30.2	-32.6	11.6	6.65e-04	0	43	0	790626304	20	4753
2026-01-01 22:45:35.47	117.96	16.69	-30.1	-32.4	11.8	5.64e-04	0	43	0	792723456	20	4672
2026-01-01 22:45:36.48	118.16	16.63	-30.1	-32.2	12.0	4.15e-04	0	43	0	794820608	20	4591
2026-01-01 22:45:37.48	118.35	16.57	-29.8	-31.5	12.4	1.88e-04	0	43	0	796917760	20	4359
2026-01-01 22:45:38.49	118.55	16.52	-29.7	-31.1	12.6	1.75e-04	0	43	0	797966336	20	4247
2026-01-01 22:45:39.50	118.74	16.46	-29.7	-31.1	12.6	9.68e-05	0	43	0	800063488	20	4244
2026-01-01 22:45:40.50	118.93	16.40	-29.6	-31.0	12.8	9.38e-05	0	43	0	802160640	20	4192
2026-01-01 22:45:41.49	119.12	16.34	-29.8	-32.0	12.5	2.68e-04	0	43	0	804257792	19	4616
2026-01-01 22:45:42.49	119.32	16.28	-29.8	-31.8	12.6	1.07e-04	0	43	0	805306368	19	4556
2026-01-01 22:45:43.50	119.51	16.23	-29.7	-31.6	12.8	8.08e-05	0	43	0	807403520	19	4464
2026-01-01 22:45:44.50	119.70	16.17	-29.7	-31.6	12.7	1.29e-04	0	43	0	809500672	19	4489
2026-01-01 22:45:45.50	119.89	16.11	-29.7	-31.6	12.8	6.79e-05	0	43	0	811597824	19	4492
2026-01-01 22:45:46.51	120.08	16.05	-29.7	-31.6	12.8	9.15e-05	0	43	0	813694976	19	4472
2026-01-01 22:45:47.52	120.27	15.99	-29.7	-31.6	12.8	1.01e-04	0	43	0	815792128	19	4473
2026-01-01 22:45:48.52	120.45	15.93	-29.8	-31.9	12.6	1.98e-04	0	43	0	816840704	19	4588
2026-01-01 22:45:49.52	120.64	15.87	-30.0	-32.0	12.1	1.86e-04	0	43	0	818937856	20	4533
2026-01-01 22:45:50.53	120.83	15.81	-29.9	-31.9	12.1	2.67e-04	0	43	0	821035008	20	4508
2026-01-01 22:45:51.53	121.01	15.75	-30.0	-32.1	12.0	3.12e-04	0	43	0	823132160	20	4561
2026-01-01 22:45:52.53	121.19	15.69	-30.0	-31.9	12.1	2.68e-04	0	43	0	824180736	20	4508
2026-01-01 22:45:53.53	121.38	15.64	-29.9	-31.6	12.3	1.90e-04	0	43	0	826277888	20	4403
2026-01-01 22:45:54.54	121.56	15.57	-29.7	-31.1	12.7	1.38e-04	0	43	0	828375040	20	4220
2026-01-01 22:45:55.54	121.74	15.51	-29.6	-30.8	12.9	6.40e-05	0	43	0	830472192	20	4126
2026-01-01 22:45:56.54	121.93	15.46	-29.5	-30.6	13.0	4.27e-05	0	43	0	832569344	20	4073
2026-01-01 22:45:57.54	122.11	15.40	-29.3	-30.5	13.4	1.14e-05	0	43	0	833617920	19	4128
2026-01-01 22:45:58.55	122.29	15.33	-29.3	-30.6	13.4	1.98e-05	0	43	0	835715072	19	4153
2026-01-01 22:45:59.55	122.47	15.27	-29.5	-31.1	13.1	2.67e-05	0	43	0	837812224	19	4316
2026-01-01 22:46:00.55	122.64	15.21	-29.6	-31.2	12.9	4.88e-05	0	43	0	839909376	19	4365
2026-01-01 22:46:01.55	122.82	15.15	-29.8	-32.0	12.5	6.63e-05	0	43	0	842006528	19	4608
2026-01-01 22:46:02.55	123.00	15.09	-29.8	-32.0	12.4	1.74e-04	0	43	0	843055104	19	4618
2026-01-01 22:46:03.56	123.18	15.03	-29.8	-31.9	12.5	1.05e-04	0	43	0	845152256	19	4589
2026-01-01 22:46:04.56	123.35	14.97	-29.8	-31.8	12.5	1.03e-04	0	43	0	847249408	19	4564
2026-01-01 22:46:05.57	123.53	14.91	-29.5	-31.2	13.0	9.07e-05	0	43	0	849346560	19	4349
2026-01-01 22:46:06.57	123.70	14.85	-29.6	-31.3	12.9	3.20e-05	0	43	0	851443712	19	4376
2026-01-01 22:46:07.58	123.88	14.79	-29.5	-31.1	13.0	3.43e-05	0	43	0	852492288	19	4332
2026-01-01 22:46:08.58	124.05	14.73	-29.5	-31.1	13.0	3.43e-05	0	43	0	854589440	19	4320
2026-01-01 22:46:09.59	124.22	14.66	-29.6	-31.3	12.9	6.10e-05	0	43	0	856686592	19	4379
2026-01-01 22:46:10.60	124.40	14.60	-29.9	-32.1	12.3	1.20e-04	0	43	0	858783744	19	4659
2026-01-01 22:46:11.60	124.57	14.54	-30.0	-32.0	12.0	3.29e-04	0	43	0	860880896	20	4551
2026-01-01 22:46:12.60	124.74	14.48	-30.0	-32.1	11.9	3.73e-04	0	43	0	861929472	20	4574
2026-01-01 22:46:13.61	124.91	14.42	-30.0	-32.1	11.4	5.52e-04	0	43	0	864026624	20	4586
2026-01-01 22:46:14.61	125.08	14.35	-29.8	-32.1	11.9	3.20e-04	0	43	0	866123776	19	4665
2026-01-01 22:46:15.61	125.25	14.29	-29.8	-32.0	12.4	1.77e-04	0	43	0	868220928	19	4616
2026-01-01 22:46:16.61	125.41	14.23	-29.8	-31.9	12.4	1.51e-04	0	43	0	870318080	19	4609
2026-01-01 22:46:17.61	125.58	14.17	-29.7	-31.7	12.5	1.17e-04	0	43	0	871366656	19	4523
2026-01-01 22:46:18.61	125.75	14.11	-29.6	-31.3	12.9	6.17e-05	0	43	0	873463808	19	4393
2026-01-01 22:46:19.61	125.91	14.05	-29.6	-31.4	12.7	2.04e-04	0	43	0	875560960	19	4422
2026-01-01 22:46:20.61	126.08	13.98	-29.6	-31.4	12.7	7.01e-05	0	43	0	877658112	19	4418
2026-01-01 22:46:21.62	126.24	13.92	-29.6	-31.4	12.7	1.17e-04	0	43	0	878706688	19	4430
2026-01-01 22:46:22.62	126.40	13.86	-29.5	-31.0	13.0	6.02e-05	0	43	0	880803840	19	4303
2026-01-01 22:46:23.62	126.57	13.80	-29.5	-31.1	12.9	4.95e-05	0	43	0	882900992	19	4331
2026-01-01 22:46:24.63	126.73	13.73	-29.5	-31.1	12.9	6.10e-05	0	43	0	884998144	19	4343
2026-01-01 22:46:25.63	126.89	13.67	-29.5	-31.2	12.8	4.19e-05	0	43	0	887095296	19	4366
2026-01-01 22:46:26.63	127.05	13.61	-29.5	-31.1	12.9	5.03e-05	0	43	0	888143872	19	4318
2026-01-01 22:46:27.63	127.21	13.55	-29.2	-30.2	13.5	1.98e-05	0	43	0	890241024	19	4044
2026-01-01 22:46:28.64	127.37	13.48	-28.9	-29.6	13.9	9.90e-06	0	43	0	892338176	19	3877
2026-01-01 22:46:29.64	127.53	13.42	-28.9	-29.6	13.9	5.30e-06	0	43	0	894435328	19	3877
2026-01-01 22:46:30.64	127.69	13.36	-29.0	-29.8	13.7	7.60e-06	0	43	0	896532480	19	3956
2026-01-01 22:46:31.65	127.85	13.30	-29.1	-30.1	13.5	1.06e-05	0	43	0	897581056	19	4040
2026-01-01 22:46:32.65	128.00	13.23	-29.3	-30.6	13.2	1.98e-05	0	43	0	899678208	19	4182
2026-01-01 22:46:33.65	128.16	13.17	-29.3	-30.9	12.9	3.50e-05	0	43	0	901775360	19	4319
2026-01-01 22:46:34.65	128.32	13.11	-29.5	-31.2	12.7	5.87e-05	0	43	0	903872512	19	4395
2026-01-01 22:46:35.65	128.47	13.05	-29.5	-31.3	12.6	6.40e-05	0	43	0	905969664	19	4429
2026-01-01 22:46:36.65	128.63	12.98	-29.7	-31.7	12.4	9.68e-05	0	43	0	907018240	19	4555
2026-01-01 22:46:37.65	128.78	12.92	-29.8	-32.0	12.3	1.56e-04	0	43	0	909115392	19	4640
2026-01-01 22:46:38.65	128.93	12.86	-29.6	-31.4	12.6	1.56e-04	0	43	0	911212544	19	4441
2026-01-01 22:46:39.66	129.09	12.79	-29.7	-31.8	12.3	1.14e-04	0	43	0	913309696	19	4589
2026-01-01 22:46:40.66	129.24	12.73	-29.7	-31.8	12.3	2.38e-04	0	43	0	915406848	19	4591
2026-01-01 22:46:41.67	129.39	12.67	-29.7	-31.7	12.4	2.70e-04	0	43	0	916455424	19	4542
2026-01-01 22:46:42.67	129.54	12.60	-29.7	-31.9	12.3	1.71e-04	0	43	0	918552576	19	4605
2026-01-01 22:46:43.67	129.69	12.54	-29.8	-31.7	12.0	6.36e-04	0	43	0	920649728	20	4469
2026-01-01 22:46:44.67	129.84	12.48	-29.9	-31.8	11.9	5.00e-04	0	43	0	922746880	20	4502
2026-01-01 22:46:45.67	129.99	12.42	-30.0	-32.2	11.6	5.82e-04	0	43	0	923795456	20	4636
2026-01-01 22:46:46.67	130.13	12.35	-29.9	-32.0	11.7	5.71e-04	0	43	0	925892608	20	4562
2026-01-01 22:46:47.68	130.28	12.29	-29.8	-31.7	12.0	4.58e-04	0	43	0	927989760	20	4463
2026-01-01 22:46:48.67	130.43	12.23	-29.6	-31.1	12.3	2.45e-04	0	43	0	930086912	20	4273
2026-01-01 22:46:49.68	130.58	12.16	-29.5	-31.2	12.6	9.99e-05	0	43	0	932184064	19	4396
2026-01-01 22:46:50.68	130.72	12.10	-29.3	-30.7	13.0	2.50e-04	0	43	0	933232640	19	4223
2026-01-01 22:46:51.69	130.87	12.04	-29.1	-30.2	13.3	2.13e-05	0	43	0	935329792	19	4076
2026-01-01 22:46:52.69	131.01	11.97	-29.1	-30.7	13.3	4.24e-04	0	43	0	937426944	18	4325
2026-01-01 22:46:53.69	131.16	11.91	-29.1	-30.6	13.4	1.75e-05	0	43	0	939524096	18	4279
2026-01-01 22:46:54.69	131.30	11.85	-29.2	-30.8	13.2	1.75e-05	0	43	0	941621248	18	4361
2026-01-01 22:46:55.70	131.44	11.79	-29.3	-31.1	13.0	6.26e-04	0	43	0	942669824	18	4465
2026-01-01 22:46:56.70	131.58	11.72	-29.3	-31.3	12.9	4.04e-04	0	43	0	944766976	18	4513
2026-01-01 22:46:57.71	131.73	11.66	-29.4	-31.5	12.8	5.87e-05	0	43	0	946864128	18	4565
2026-01-01 22:46:58.70	131.87	11.60	-29.4	-31.5	12.7	4.62e-04	0	43	0	948961280	18	4585
2026-01-01 22:46:59.71	132.01	11.53	-29.4	-31.2	12.6	4.04e-04	0	43	0	951058432	19	4390
2026-01-01 22:47:00.71	132.15	11.47	-29.6	-31.7	12.3	1.10e-04	0	43	0	952107008	19	4562
2026-01-01 22:47:01.71	132.29	11.41	-29.5	-31.5	12.4	5.89e-04	0	43	0	954204160	19	4503
2026-01-01 22:47:02.71	132.42	11.34	-29.6	-31.7	12.2	6.13e-04	0	43	0	956301312	19	4589
2026-01-01 22:47:03.72	132.56	11.28	-29.7	-31.9	12.1	2.35e-04	0	43	0	958398464	19	4655
2026-01-01 22:47:04.72	132.70	11.22	-29.8	-32.1	12.0	1.32e-03	0	43	0	960495616	19	4715
2026-01-01 22:47:05.71	132.84	11.16	-29.9	-32.6	11.6	1.60e-03	0	43	0	961544192	19	4911
2026-01-01 22:47:06.72	132.97	11.09	-30.1	-32.6	11.2	7.32e-04	0	43	0	963641344	20	4833
2026-01-01 22:47:07.72	133.11	11.03	-30.1	-32.6	11.2	1.40e-03	0	43	0	965738496	20	4808
2026-01-01 22:47:08.73	133.25	10.97	-30.3	-33.5	10.5	3.51e-03	0	43	0	967835648	20	5179
2026-01-01 22:47:09.73	133.38	10.90	-30.3	-33.5	10.5	5.48e-03	0	43	0	968884224	20	5179
2026-01-01 22:47:10.73	133.51	10.84	-30.1	-32.8	10.9	2.01e-03	0	43	0	970981376	20	4916
2026-01-01 22:47:11.74	133.65	10.78	-29.9	-32.3	11.3	1.98e-03	0	43	0	973078528	20	4729
2026-01-01 22:47:12.75	133.78	10.71	-29.8	-31.9	11.5	9.53e-04	0	43	0	975175680	20	4593
2026-01-01 22:47:13.75	133.92	10.65	-29.6	-31.3	12.0	8.28e-04	0	43	0	977272832	20	4390
2026-01-01 22:47:14.75	134.05	10.59	-29.6	-31.8	12.1	3.16e-04	0	43	0	978321408	19	4641
2026-01-01 22:47:15.76	134.18	10.53	-29.3	-31.0	12.6	2.16e-04	0	43	0	980418560	19	4367
2026-01-01 22:47:16.76	134.31	10.46	-29.2	-30.7	12.8	3.30e-04	0	43	0	982515712	19	4271
2026-01-01 22:47:17.76	134.44	10.40	-29.2	-30.7	12.8	4.42e-05	0	43	0	984612864	19	4265
2026-01-01 22:47:18.77	134.57	10.34	-29.1	-30.4	13.0	3.89e-05	0	43	0	986710016	19	4157
2026-01-01 22:47:19.77	134.70	10.28	-29.2	-31.0	12.9	1.85e-04	0	43	0	987758592	18	4439
2026-01-01 22:47:20.77	134.83	10.21	-29.2	-30.9	13.0	4.34e-05	0	43	0	989855744	18	4417
2026-01-01 22:47:21.77	134.96	10.15	-29.4	-31.6	12.5	8.31e-05	0	43	0	991952896	18	4647
2026-01-01 22:47:22.78	135.08	10.09	-29.5	-31.3	12.4	4.97e-04	0	43	0	994050048	19	4429
2026-01-01 22:47:23.78	135.21	10.03	-29.6	-31.6	12.2	5.74e-04	0	43	0	996147200	19	4531
2026-01-01 22:47:24.78	135.34	9.96	-29.6	-31.7	12.1	1.75e-04	0	43	0	997195776	19	4600
2026-01-01 22:47:25.78	135.46	9.90	-29.7	-31.9	12.0	2.52e-04	0	43	0	999292928	19	4657
2026-01-01 22:47:26.79	135.59	9.84	-29.8	-32.2	11.7	6.38e-04	0	43	0	1001390080	19	4773
2026-01-01 22:47:27.79	135.71	9.78	-29.7	-32.0	11.8	4.26e-04	0	43	0	1003487232	19	4708
2026-01-01 22:47:28.79	135.84	9.71	-29.8	-32.2	11.7	5.32e-04	0	43	0	1005584384	19	4772
2026-01-01 22:47:29.79	135.96	9.65	-29.7	-32.0	11.8	5.60e-04	0	43	0	1006632960	19	4705
2026-01-01 22:47:30.80	136.09	9.59	-29.8	-32.3	11.6	5.50e-04	0	43	0	1008730112	19	4819
2026-01-01 22:47:31.80	136.21	9.53	-29.8	-32.2	11.7	8.51e-04	0	43	0	1010827264	19	4768
2026-01-01 22:47:32.80	136.33	9.47	-29.9	-32.7	11.4	9.12e-04	0	43	0	1012924416	19	4946
2026-01-01 22:47:33.81	136.46	9.40	-30.0	-32.6	11.0	1.53e-03	0	43	0	1015021568	20	4856
2026-01-01 22:47:34.81	136.58	9.34	-30.1	-32.9	10.7	2.46e-03	0	43	0	1016070144	20	4956
2026-01-01 22:47:35.81	136.70	9.28	-30.2	-33.2	10.5	3.41e-03	0	43	0	1018167296	20	5085
2026-01-01 22:47:36.81	136.82	9.22	-30.2	-33.3	10.3	5.17e-03	0	43	0	1020264448	20	5171
2026-01-01 22:47:37.81	136.94	9.16	-30.2	-33.4	10.3	5.58e-03	0	43	0	1022361600	20	5196
2026-01-01 22:47:38.82	137.06	9.09	-30.3	-33.8	9.9	6.56e-03	0	43	0	1024458752	20	5381
2026-01-01 22:47:39.81	137.18	9.03	-30.2	-33.3	10.3	6.38e-03	0	43	0	1025507328	20	5178
2026-01-01 22:47:40.81	137.29	8.97	-30.2	-33.6	10.0	6.78e-03	0	43	0	1027604480	20	5306
2026-01-01 22:47:41.81	137.41	8.91	-30.1	-33.1	10.5	5.07e-03	0	43	0	1029701632	20	5063
2026-01-01 22:47:42.81	137.53	8.85	-29.9	-32.6	10.8	4.17e-03	0	43	0	1031798784	20	4860
2026-01-01 22:47:43.82	137.65	8.79	-29.9	-32.5	10.8	1.88e-03	0	43	0	1032847360	20	4855
2026-01-01 22:47:44.82	137.76	8.72	-29.9	-32.3	11.0	1.92e-03	0	43	0	1034944512	20	4748
2026-01-01 22:47:45.83	137.88	8.66	-29.7	-31.8	11.4	1.21e-03	0	43	0	1037041664	20	4586
2026-01-01 22:47:46.83	138.00	8.60	-29.9	-32.9	11.1	1.31e-03	0	43	0	1039138816	19	5046
2026-01-01 22:47:47.84	138.11	8.54	-29.8	-32.4	11.3	1.70e-03	0	43	0	1041235968	19	4874
2026-01-01 22:47:48.84	138.23	8.48	-29.8	-32.7	11.1	1.07e-03	0	43	0	1042284544	19	4975
2026-01-01 22:47:49.84	138.34	8.42	-29.9	-32.5	10.8	1.87e-03	0	43	0	1044381696	20	4847
2026-01-01 22:47:50.85	138.45	8.36	-29.9	-32.5	10.8	2.76e-03	0	43	0	1046478848	20	4837
2026-01-01 22:47:51.85	138.57	8.29	-30.0	-32.6	10.7	2.34e-03	0	43	0	1048576000	20	4892
2026-01-01 22:47:52.85	138.68	8.23	-30.1	-33.0	10.5	2.90e-03	0	43	0	1050673152	20	5026
2026-01-01 22:47:53.85	138.79	8.17	-30.0	-32.7	10.6	2.96e-03	0	43	0	1051721728	20	4936
2026-01-01 22:47:54.86	138.91	8.11	-30.0	-32.7	10.6	2.27e-03	0	43	0	1053818880	20	4917
2026-01-01 22:47:55.85	139.02	8.05	-30.0	-32.9	10.5	4.36e-03	0	43	0	1055916032	20	4993
2026-01-01 22:47:56.85	139.13	7.99	-30.0	-32.9	10.4	3.88e-03	0	43	0	1058013184	20	5037
2026-01-01 22:47:57.84	139.24	7.93	-30.0	-32.9	10.4	5.54e-03	0	43	0	1060110336	20	5030
2026-01-01 22:47:58.84	139.35	7.87	-30.1	-33.3	10.1	5.65e-03	0	43	0	1061158912	20	5182
2026-01-01 22:47:59.84	139.46	7.81	-30.0	-33.0	10.4	5.07e-03	0	43	0	1063256064	20	5055
2026-01-01 22:48:00.85	139.57	7.75	-29.9	-32.7	10.6	6.28e-03	0	43	0	1065353216	20	4923
2026-01-01 22:48:01.86	139.68	7.69	-29.8	-32.1	10.9	1.84e-03	0	43	0	1067450368	20	4728
2026-01-01 22:48:02.86	139.78	7.63	-29.8	-32.3	10.8	1.91e-03	0	43	0	1068498944	20	4796
2026-01-01 22:48:03.86	139.89	7.57	-29.7	-32.2	10.8	2.59e-03	0	43	0	1070596096	20	4786
2026-01-01 22:48:04.86	140.00	7.51	-29.8	-32.6	10.5	2.86e-03	0	43	0	1072693248	20	4940
2026-01-01 22:48:05.86	140.11	7.44	-29.9	-32.7	10.4	3.57e-03	0	43	0	1074790400	20	5017
2026-01-01 22:48:06.86	140.21	7.38	-29.8	-33.0	10.6	5.19e-03	0	43	0	1076887552	19	5208
2026-01-01 22:48:07.87	140.32	7.32	-29.9	-33.3	10.3	5.12e-03	0	43	0	1077936128	19	5362
2026-01-01 22:48:08.87	140.43	7.26	-29.9	-33.6	10.0	6.34e-03	0	43	0	1080033280	19	5499
2026-01-01 22:48:09.86	140.53	7.20	-29.7	-32.9	10.5	5.11e-03	0	43	0	1082130432	19	5209
2026-01-01 22:48:10.86	140.63	7.14	-29.7	-33.1	10.4	3.31e-03	0	43	0	1084227584	19	5276
2026-01-01 22:48:11.86	140.74	7.08	-29.8	-33.1	10.3	5.23e-03	0	43	0	1086324736	19	5294
2026-01-01 22:48:12.86	140.84	7.02	-32.1	-44.3	3.8	1.31e+00	0	43	104	1087373312	24	14668
2026-01-01 22:48:13.86	140.95	6.97	-32.7	-45.2	3.8	1.49e+00	0	43	104	1087373312	25	15099

#Closed at: 2026-01-01 22:48:13
#Recorded file [1087 MB]: D:/data/31010_260102_013832.dat