passes_logs/2026/01/01/R2M6_AANII_01/R2M6_AANII_01__20260101_164205_FENGYUN_3E_rec.log

#Pass ID: 20260101_164205_FENGYUN 3E
#Satellite: FENGYUN 3E
#Configuration: FENGYUN 3E
#almurnet v.1.7.20240730
#Start time: 2026-01-01 16:42:05

#Version: 2.2.20231116
#Station: R2M6_AANII_01
#Location: 30.233357 lon 59.946436 lat
#TLE: 1 49008U 21062A   25365.98258168  .00000149  00000+0  90987-4 0  9990
#TLE: 2 49008  98.7481   6.2763 0001360 169.3782 190.7423 14.19883270232859

#Time	Az	El	Level	Level2	SNR	BER	BlckErr	Temp	State	Recorded	gain1	gain2
2026-01-01 16:42:05.32	231.72	7.00	-27.5	-29.5	5.6	7.29e-01	0	41	0	0	14	4518
2026-01-01 16:42:06.33	231.84	7.06	-29.8	-33.3	4.9	7.79e-01	0	41	104	0	19	5361
2026-01-01 16:42:07.33	231.96	7.11	-29.8	-32.9	7.6	1.05e-01	0	41	0	0	19	5179
2026-01-01 16:42:08.33	232.08	7.16	-29.8	-33.0	7.6	9.02e-02	0	41	0	7340032	19	5222
2026-01-01 16:42:09.33	232.20	7.21	-29.8	-33.1	7.5	1.33e-01	0	41	0	14680064	19	5259
2026-01-01 16:42:10.34	232.33	7.27	-29.4	-31.9	8.3	6.05e-02	0	41	0	22020096	19	4802
2026-01-01 16:42:11.33	232.45	7.32	-29.3	-32.0	8.6	4.93e-02	0	41	0	28311552	18	4906
2026-01-01 16:42:12.33	232.57	7.37	-28.7	-30.3	9.7	1.47e-02	0	41	0	35651584	18	4341
2026-01-01 16:42:13.34	232.70	7.42	-28.4	-29.6	10.2	7.70e-03	0	41	0	42991616	18	4129
2026-01-01 16:42:14.34	232.82	7.47	-28.1	-29.9	10.6	4.81e-03	0	41	0	50331648	16	4424
2026-01-01 16:42:15.34	232.94	7.53	-27.8	-29.1	11.1	2.16e-03	0	41	0	57671680	16	4186
2026-01-01 16:42:16.34	233.07	7.58	-27.6	-28.5	11.6	1.06e-03	0	41	0	65011712	16	4013
2026-01-01 16:42:17.34	233.19	7.63	-27.2	-28.2	11.8	5.60e-04	0	41	0	72351744	15	4024
2026-01-01 16:42:18.35	233.32	7.68	-27.2	-28.7	11.9	1.21e-03	0	41	0	79691776	14	4282
2026-01-01 16:42:19.35	233.45	7.73	-27.1	-28.4	12.0	5.94e-04	0	41	0	85983232	14	4204
2026-01-01 16:42:20.35	233.57	7.79	-26.7	-28.1	12.5	7.74e-04	0	41	0	93323264	13	4213
2026-01-01 16:42:21.35	233.70	7.84	-26.5	-28.0	12.9	5.95e-04	0	42	0	100663296	12	4296
2026-01-01 16:42:22.35	233.83	7.89	-26.5	-28.0	12.9	3.54e-05	0	41	0	108003328	12	4275
2026-01-01 16:42:23.36	233.96	7.94	-26.5	-27.6	12.8	5.41e-04	0	41	0	115343360	13	4061
2026-01-01 16:42:24.37	234.09	7.99	-26.3	-27.5	13.2	4.89e-04	0	42	0	122683392	12	4159
2026-01-01 16:42:25.37	234.22	8.05	-26.2	-27.4	13.3	1.94e-05	0	42	0	130023424	12	4117
2026-01-01 16:42:26.37	234.35	8.10	-26.0	-26.9	13.5	4.74e-04	0	42	0	137363456	12	4000
2026-01-01 16:42:27.37	234.48	8.15	-26.1	-27.1	13.5	1.37e-05	0	42	0	144703488	12	4045
2026-01-01 16:42:28.37	234.61	8.20	-26.1	-27.1	13.4	1.37e-05	0	42	0	150994944	12	4054
2026-01-01 16:42:29.38	234.74	8.25	-26.2	-27.4	13.3	1.60e-05	0	42	0	159383552	12	4109
2026-01-01 16:42:30.39	234.87	8.31	-26.1	-27.0	13.5	2.40e-05	0	42	0	166723584	12	4024
2026-01-01 16:42:31.39	235.00	8.36	-25.9	-26.7	13.7	9.10e-06	0	42	0	173015040	12	3942
2026-01-01 16:42:32.39	235.13	8.41	-25.9	-27.1	13.9	2.20e-06	0	42	0	180355072	11	4126
2026-01-01 16:42:33.39	235.27	8.46	-25.8	-27.0	13.9	3.11e-04	0	42	0	187695104	11	4099
2026-01-01 16:42:34.39	235.40	8.51	-25.8	-27.0	13.9	5.70e-06	0	42	0	195035136	11	4100
2026-01-01 16:42:35.40	235.53	8.57	-25.8	-26.8	14.0	3.40e-06	0	42	0	202375168	11	4057
2026-01-01 16:42:36.40	235.67	8.62	-25.7	-26.7	14.1	2.20e-06	0	42	0	209715200	11	4034
2026-01-01 16:42:37.40	235.80	8.67	-25.6	-26.5	14.2	3.40e-06	0	42	0	217055232	11	3991
2026-01-01 16:42:38.41	235.94	8.72	-25.7	-26.7	14.1	4.65e-04	0	42	0	224395264	11	4043
2026-01-01 16:42:39.42	236.07	8.77	-25.6	-26.4	14.3	3.40e-06	0	42	0	230686720	11	3965
2026-01-01 16:42:40.43	236.21	8.82	-25.7	-26.6	14.2	2.20e-06	0	42	0	239075328	11	4010
2026-01-01 16:42:41.43	236.35	8.88	-25.8	-26.8	14.0	3.40e-06	0	42	0	246415360	11	4064
2026-01-01 16:42:42.43	236.48	8.93	-25.7	-26.6	14.2	2.20e-06	0	42	0	252706816	11	4009
2026-01-01 16:42:43.43	236.62	8.98	-25.7	-26.8	14.1	2.20e-06	0	42	0	260046848	11	4048
2026-01-01 16:42:44.44	236.76	9.03	-25.6	-26.5	14.3	2.20e-06	0	42	0	267386880	11	3984
2026-01-01 16:42:45.44	236.90	9.08	-25.7	-26.5	14.2	2.20e-06	0	42	0	274726912	11	3989
2026-01-01 16:42:46.45	237.04	9.13	-25.7	-26.6	14.2	3.40e-06	0	42	0	282066944	11	4005
2026-01-01 16:42:47.45	237.18	9.19	-25.6	-26.3	14.4	1.10e-06	0	42	0	289406976	11	3925
2026-01-01 16:42:48.45	237.32	9.24	-25.5	-26.7	14.4	0.00e+00	0	42	0	296747008	10	4129
2026-01-01 16:42:49.45	237.46	9.29	-25.4	-26.5	14.6	0.00e+00	0	42	0	304087040	10	4075
2026-01-01 16:42:50.46	237.60	9.34	-25.5	-26.6	14.5	1.10e-06	0	42	0	311427072	10	4122
2026-01-01 16:42:51.46	237.74	9.39	-25.5	-26.2	14.4	1.10e-06	0	42	0	317718528	11	3913
2026-01-01 16:42:52.46	237.88	9.44	-25.5	-26.1	14.5	2.20e-06	0	42	0	325058560	11	3885
2026-01-01 16:42:53.47	238.02	9.49	-25.5	-26.1	14.5	1.10e-06	0	42	0	332398592	11	3887
2026-01-01 16:42:54.47	238.17	9.54	-25.6	-26.4	14.4	0.00e+00	0	42	0	339738624	11	3952
2026-01-01 16:42:55.48	238.31	9.60	-25.5	-26.3	14.4	0.00e+00	0	42	0	347078656	11	3923
2026-01-01 16:42:56.48	238.45	9.65	-25.4	-26.6	14.5	2.20e-06	0	42	0	354418688	10	4093
2026-01-01 16:42:57.48	238.60	9.70	-25.5	-26.8	14.4	2.20e-06	0	42	0	361758720	10	4155
2026-01-01 16:42:58.49	238.74	9.75	-25.4	-26.6	14.5	1.10e-06	0	42	0	369098752	10	4101
2026-01-01 16:42:59.49	238.89	9.80	-25.5	-26.7	14.5	2.20e-06	0	42	0	376438784	10	4132
2026-01-01 16:43:00.49	239.03	9.85	-25.5	-26.8	14.5	1.10e-06	0	42	0	383778816	10	4147
2026-01-01 16:43:01.50	239.18	9.90	-25.6	-26.4	14.4	3.40e-06	0	42	0	391118848	11	3949
2026-01-01 16:43:02.49	239.32	9.95	-25.8	-26.8	14.2	1.10e-06	0	42	0	398458880	11	4046
2026-01-01 16:43:03.50	239.47	10.00	-25.8	-26.8	14.1	2.20e-06	0	42	0	404750336	11	4064
2026-01-01 16:43:04.50	239.62	10.05	-25.6	-26.4	14.4	2.20e-06	0	43	0	412090368	11	3948
2026-01-01 16:43:05.51	239.77	10.10	-25.6	-26.4	14.4	1.10e-06	0	43	0	419430400	11	3959
2026-01-01 16:43:06.50	239.92	10.15	-25.8	-26.9	14.1	0.00e+00	0	42	0	426770432	11	4085
2026-01-01 16:43:07.51	240.07	10.20	-25.9	-27.0	14.1	3.40e-06	0	42	0	434110464	11	4104
2026-01-01 16:43:08.51	240.21	10.25	-25.9	-27.1	14.0	1.10e-06	0	42	0	441450496	11	4138
2026-01-01 16:43:09.52	240.37	10.30	-25.9	-27.0	14.0	5.70e-06	0	43	0	448790528	11	4120
2026-01-01 16:43:10.52	240.52	10.35	-25.7	-26.6	14.3	3.40e-06	0	43	0	456130560	11	4013
2026-01-01 16:43:11.52	240.67	10.40	-25.5	-26.2	14.5	0.00e+00	0	43	0	462422016	11	3900
2026-01-01 16:43:12.53	240.82	10.45	-25.4	-26.0	14.7	0.00e+00	0	43	0	470810624	11	3842
2026-01-01 16:43:13.54	240.97	10.50	-25.5	-26.2	14.5	2.20e-06	0	42	0	478150656	11	3905
2026-01-01 16:43:14.54	241.12	10.55	-25.5	-26.2	14.5	1.10e-06	0	43	0	484442112	11	3901
2026-01-01 16:43:15.55	241.28	10.60	-25.6	-26.3	14.5	0.00e+00	0	43	0	491782144	11	3937
2026-01-01 16:43:16.55	241.43	10.65	-25.5	-26.2	14.5	1.10e-06	0	43	0	499122176	11	3901
2026-01-01 16:43:17.55	241.59	10.70	-25.3	-25.8	14.7	0.00e+00	0	43	0	506462208	11	3814
2026-01-01 16:43:18.56	241.74	10.75	-25.2	-25.6	14.9	0.00e+00	0	43	0	513802240	11	3746
2026-01-01 16:43:19.56	241.90	10.80	-25.3	-25.8	14.8	0.00e+00	0	43	0	521142272	11	3796
2026-01-01 16:43:20.57	242.05	10.85	-25.3	-25.8	14.7	1.10e-06	0	43	0	528482304	11	3804
2026-01-01 16:43:21.57	242.21	10.90	-25.3	-26.2	14.8	2.20e-06	0	43	0	535822336	10	4003
2026-01-01 16:43:22.57	242.36	10.95	-25.3	-26.3	14.8	0.00e+00	0	43	0	543162368	10	4027
2026-01-01 16:43:23.58	242.52	11.00	-25.3	-26.3	14.8	0.00e+00	0	43	0	549453824	10	4030
2026-01-01 16:43:24.57	242.68	11.05	-25.4	-26.5	14.7	0.00e+00	0	43	0	556793856	10	4076
2026-01-01 16:43:25.58	242.84	11.10	-25.4	-26.4	14.7	0.00e+00	0	43	0	565182464	10	4062
2026-01-01 16:43:26.58	243.00	11.15	-25.4	-26.6	14.6	0.00e+00	0	43	0	571473920	10	4096
2026-01-01 16:43:27.59	243.16	11.19	-25.5	-26.7	14.6	1.10e-06	0	43	0	578813952	10	4129
2026-01-01 16:43:28.60	243.32	11.24	-25.4	-26.4	14.7	1.10e-06	0	43	0	586153984	10	4057
2026-01-01 16:43:29.60	243.48	11.29	-25.3	-26.3	14.8	0.00e+00	0	43	0	593494016	10	4035
2026-01-01 16:43:30.61	243.64	11.34	-25.2	-26.1	14.9	0.00e+00	0	43	0	600834048	10	3967
2026-01-01 16:43:31.61	243.80	11.39	-25.3	-26.2	14.8	0.00e+00	0	43	0	608174080	10	4005
2026-01-01 16:43:32.61	243.96	11.44	-25.4	-26.6	14.7	0.00e+00	0	43	0	615514112	10	4096
2026-01-01 16:43:33.62	244.12	11.49	-25.3	-26.3	14.8	0.00e+00	0	43	0	622854144	10	4030
2026-01-01 16:43:34.62	244.29	11.53	-25.3	-26.2	14.9	0.00e+00	0	43	0	630194176	10	3997
2026-01-01 16:43:35.62	244.45	11.58	-25.3	-26.3	14.8	0.00e+00	0	43	0	636485632	10	4020
2026-01-01 16:43:36.62	244.61	11.63	-25.2	-26.1	14.9	0.00e+00	0	43	0	643825664	10	3968
2026-01-01 16:43:37.62	244.78	11.68	-25.3	-26.2	14.8	0.00e+00	0	43	0	651165696	10	4005
2026-01-01 16:43:38.62	244.94	11.72	-25.4	-26.5	14.7	0.00e+00	0	43	0	658505728	10	4076
2026-01-01 16:43:39.63	245.11	11.77	-25.4	-26.5	14.7	0.00e+00	0	43	0	665845760	10	4073
2026-01-01 16:43:40.63	245.27	11.82	-25.2	-26.1	14.9	0.00e+00	0	43	0	673185792	10	3985
2026-01-01 16:43:41.63	245.44	11.86	-25.1	-25.9	15.0	0.00e+00	0	43	0	680525824	10	3932
2026-01-01 16:43:42.63	245.60	11.91	-25.1	-25.9	15.0	0.00e+00	0	43	0	687865856	10	3930
2026-01-01 16:43:43.64	245.77	11.96	-25.0	-25.7	15.2	0.00e+00	0	43	0	695205888	10	3873
2026-01-01 16:43:44.64	245.94	12.01	-25.1	-26.2	15.1	0.00e+00	0	43	0	702545920	9	4113
2026-01-01 16:43:45.65	246.11	12.05	-25.1	-25.8	15.1	0.00e+00	0	43	0	709885952	10	3902
2026-01-01 16:43:46.65	246.28	12.10	-24.4	-25.2	14.4	0.00e+00	0	43	0	716177408	10	3977
2026-01-01 16:43:47.65	246.45	12.14	-25.2	-26.6	12.7	1.11e-03	0	43	0	723517440	9	4207
2026-01-01 16:43:48.65	246.62	12.19	-25.2	-26.0	15.0	0.00e+00	0	43	0	730857472	10	3943
2026-01-01 16:43:49.65	246.79	12.24	-25.1	-25.9	15.0	0.00e+00	0	43	0	738197504	10	3918
2026-01-01 16:43:50.66	246.96	12.28	-25.1	-25.9	15.1	0.00e+00	0	43	0	745537536	10	3920
2026-01-01 16:43:51.66	247.13	12.33	-25.1	-25.8	15.1	0.00e+00	0	43	0	752877568	10	3913
2026-01-01 16:43:52.66	247.30	12.37	-25.1	-25.8	15.1	1.09e-03	0	43	0	760217600	10	3912
2026-01-01 16:43:53.66	247.47	12.42	-25.1	-25.7	15.2	0.00e+00	0	43	0	767557632	10	3880
2026-01-01 16:43:54.67	247.65	12.47	-25.1	-25.8	15.2	0.00e+00	0	43	0	774897664	10	3907
2026-01-01 16:43:55.67	247.82	12.51	-25.1	-25.9	15.1	0.00e+00	0	43	0	781189120	10	3916
2026-01-01 16:43:56.67	247.99	12.55	-24.8	-25.7	15.5	0.00e+00	0	43	0	788529152	9	3982
2026-01-01 16:43:57.67	248.17	12.60	-24.8	-25.6	15.5	0.00e+00	0	43	0	795869184	9	3945
2026-01-01 16:43:58.67	248.34	12.64	-24.8	-25.6	15.5	0.00e+00	0	43	0	803209216	9	3956
2026-01-01 16:43:59.67	248.52	12.69	-24.8	-25.6	15.5	0.00e+00	0	43	0	810549248	9	3958
2026-01-01 16:44:00.68	248.69	12.73	-24.8	-25.7	15.4	0.00e+00	0	43	0	817889280	9	3994
2026-01-01 16:44:01.68	248.87	12.78	-24.8	-25.6	15.5	0.00e+00	0	43	0	825229312	9	3955
2026-01-01 16:44:02.68	249.05	12.82	-24.8	-25.6	15.5	9.04e-05	0	43	0	832569344	9	3962
2026-01-01 16:44:03.69	249.23	12.87	-24.8	-25.7	15.5	0.00e+00	0	43	0	839909376	9	3972
2026-01-01 16:44:04.70	249.41	12.91	-24.8	-25.7	15.5	1.67e-04	0	43	0	847249408	9	3969
2026-01-01 16:44:05.70	249.58	12.95	-24.8	-25.5	15.6	1.51e-04	0	43	0	854589440	9	3939
2026-01-01 16:44:06.70	249.76	13.00	-24.6	-25.3	15.7	0.00e+00	0	43	0	860880896	9	3886
2026-01-01 16:44:07.71	249.94	13.04	-24.5	-24.9	15.9	8.89e-04	0	43	0	868220928	9	3797
2026-01-01 16:44:08.71	250.12	13.08	-24.6	-25.3	15.7	0.00e+00	0	43	0	875560960	9	3871
2026-01-01 16:44:09.72	250.31	13.13	-24.6	-25.3	15.7	1.10e-06	0	43	0	882900992	9	3872
2026-01-01 16:44:10.72	250.49	13.17	-24.6	-25.3	15.7	1.04e-03	0	43	0	890241024	9	3880
2026-01-01 16:44:11.71	250.67	13.21	-24.7	-25.5	15.6	0.00e+00	0	43	0	897581056	9	3941
2026-01-01 16:44:12.71	250.85	13.25	-24.7	-25.4	15.6	3.40e-06	0	43	0	904921088	9	3913
2026-01-01 16:44:13.71	251.03	13.29	-24.6	-25.2	15.8	1.11e-03	0	43	0	912261120	9	3863
2026-01-01 16:44:14.71	251.21	13.34	-24.5	-25.5	15.9	1.07e-03	0	43	0	919601152	8	4042
2026-01-01 16:44:15.72	251.40	13.38	-24.5	-25.4	15.9	1.10e-06	0	43	0	925892608	8	4018
2026-01-01 16:44:16.73	251.58	13.42	-24.5	-25.4	15.9	1.02e-03	0	43	0	934281216	8	4005
2026-01-01 16:44:17.73	251.77	13.46	-24.6	-25.6	15.8	8.91e-04	0	43	0	941621248	8	4066
2026-01-01 16:44:18.73	251.95	13.50	-24.7	-25.5	15.6	3.40e-06	0	43	0	947912704	9	3917
2026-01-01 16:44:19.73	252.14	13.54	-24.8	-25.7	15.5	1.99e-04	0	43	0	955252736	9	3981
2026-01-01 16:44:20.73	252.32	13.58	-24.8	-25.5	15.6	0.00e+00	0	43	0	962592768	9	3935
2026-01-01 16:44:21.73	252.51	13.62	-24.7	-25.4	15.7	1.10e-06	0	43	0	969932800	9	3908
2026-01-01 16:44:22.74	252.70	13.66	-24.7	-25.4	15.7	2.17e-05	0	43	0	977272832	9	3901
2026-01-01 16:44:23.74	252.88	13.70	-24.7	-25.4	15.6	0.00e+00	0	43	0	984612864	9	3916
2026-01-01 16:44:24.74	253.07	13.74	-25.0	-26.0	15.3	0.00e+00	0	43	0	991952896	9	4065
2026-01-01 16:44:25.75	253.26	13.78	-24.9	-25.7	15.5	4.30e-04	0	43	0	999292928	9	3983
2026-01-01 16:44:26.75	253.45	13.82	-24.6	-25.1	15.9	0.00e+00	0	43	0	1006632960	9	3831
2026-01-01 16:44:27.75	253.64	13.86	-24.3	-24.6	16.1	0.00e+00	0	43	0	1012924416	9	3723
2026-01-01 16:44:28.75	253.83	13.90	-24.4	-25.2	16.1	0.00e+00	0	43	0	1020264448	8	3957
2026-01-01 16:44:29.75	254.02	13.94	-24.3	-25.1	16.1	6.82e-04	0	43	0	1027604480	8	3943
2026-01-01 16:44:30.76	254.21	13.98	-24.4	-25.3	16.0	0.00e+00	0	43	0	1034944512	8	3984
2026-01-01 16:44:31.76	254.40	14.01	-24.4	-25.2	16.1	0.00e+00	0	43	0	1042284544	8	3970
2026-01-01 16:44:32.77	254.60	14.05	-24.5	-25.4	15.9	3.04e-04	0	43	0	1049624576	8	4022
2026-01-01 16:44:33.77	254.79	14.09	-24.6	-25.6	15.9	4.50e-06	0	43	0	1056964608	8	4071
2026-01-01 16:44:34.77	254.98	14.13	-24.5	-25.0	15.9	0.00e+00	0	43	0	1064304640	9	3812
2026-01-01 16:44:35.78	255.17	14.17	-24.5	-25.0	16.0	0.00e+00	0	43	0	1071644672	9	3803
2026-01-01 16:44:36.78	255.37	14.20	-24.5	-25.0	15.9	1.10e-06	0	43	0	1077936128	9	3818
2026-01-01 16:44:37.78	255.56	14.24	-24.4	-25.4	16.0	1.02e-03	0	43	0	1085276160	8	4005
2026-01-01 16:44:38.78	255.76	14.28	-24.4	-25.3	16.0	0.00e+00	0	43	0	1092616192	8	3995
2026-01-01 16:44:39.78	255.95	14.31	-24.4	-25.3	16.0	1.10e-06	0	43	0	1099956224	8	3994
2026-01-01 16:44:40.79	256.15	14.35	-24.7	-25.4	15.7	0.00e+00	0	43	0	1107296256	9	3908
2026-01-01 16:44:41.79	256.34	14.38	-24.6	-25.2	15.8	0.00e+00	0	43	0	1114636288	9	3847
2026-01-01 16:44:42.79	256.54	14.42	-24.4	-24.8	16.1	4.50e-06	0	43	0	1121976320	9	3763
2026-01-01 16:44:43.80	256.74	14.45	-24.4	-25.3	16.1	0.00e+00	0	43	0	1129316352	8	3984
2026-01-01 16:44:44.80	256.94	14.49	-24.4	-25.3	16.0	0.00e+00	0	43	0	1136656384	8	3992
2026-01-01 16:44:45.80	257.13	14.52	-24.4	-25.3	16.0	0.00e+00	0	43	0	1143996416	8	3984
2026-01-01 16:44:46.80	257.33	14.56	-24.5	-25.5	15.9	0.00e+00	0	43	0	1151336448	8	4034
2026-01-01 16:44:47.81	257.53	14.59	-24.4	-25.2	16.1	0.00e+00	0	43	0	1157627904	8	3957
2026-01-01 16:44:48.82	257.73	14.63	-24.3	-25.1	16.2	0.00e+00	0	43	0	1164967936	8	3940
2026-01-01 16:44:49.82	257.93	14.66	-24.3	-25.0	16.2	0.00e+00	0	43	0	1172307968	8	3908
2026-01-01 16:44:50.83	258.13	14.69	-24.4	-25.3	16.1	0.00e+00	0	43	0	1179648000	8	3989
2026-01-01 16:44:51.84	258.33	14.73	-24.3	-25.0	16.2	2.20e-06	0	43	0	1186988032	8	3911
2026-01-01 16:44:52.84	258.54	14.76	-24.4	-25.2	16.1	0.00e+00	0	43	0	1194328064	8	3953
2026-01-01 16:44:53.85	258.74	14.79	-24.3	-24.9	16.3	0.00e+00	0	43	0	1201668096	8	3897
2026-01-01 16:44:54.85	258.94	14.82	-24.2	-24.9	16.3	0.00e+00	0	43	0	1209008128	8	3882
2026-01-01 16:44:55.85	259.14	14.86	-24.3	-25.1	16.2	0.00e+00	0	43	0	1216348160	8	3938
2026-01-01 16:44:56.85	259.34	14.89	-24.3	-25.1	16.2	0.00e+00	0	43	0	1223688192	8	3933
2026-01-01 16:44:57.86	259.55	14.92	-24.3	-25.1	16.2	0.00e+00	0	43	0	1231028224	8	3935
2026-01-01 16:44:58.86	259.75	14.95	-24.4	-25.2	16.2	0.00e+00	0	43	0	1238368256	8	3955
2026-01-01 16:44:59.86	259.95	14.98	-24.3	-25.0	16.2	0.00e+00	0	44	0	1244659712	8	3907
2026-01-01 16:45:00.87	260.16	15.01	-24.3	-25.0	16.3	0.00e+00	0	43	0	1251999744	8	3908
2026-01-01 16:45:01.87	260.36	15.04	-24.2	-24.8	16.3	0.00e+00	0	43	0	1259339776	8	3862
2026-01-01 16:45:02.87	260.57	15.07	-24.3	-25.0	16.3	0.00e+00	0	43	0	1266679808	8	3911
2026-01-01 16:45:03.87	260.77	15.10	-24.2	-24.9	16.3	0.00e+00	0	43	0	1274019840	8	3881
2026-01-01 16:45:04.88	260.98	15.13	-24.3	-25.0	16.2	0.00e+00	0	43	0	1281359872	8	3907
2026-01-01 16:45:05.88	261.19	15.16	-24.3	-24.9	16.3	0.00e+00	0	43	0	1288699904	8	3896
2026-01-01 16:45:06.88	261.39	15.19	-24.2	-24.9	16.3	0.00e+00	0	43	0	1296039936	8	3878
2026-01-01 16:45:07.89	261.60	15.21	-24.4	-25.2	16.2	0.00e+00	0	43	0	1303379968	8	3966
2026-01-01 16:45:08.90	261.81	15.24	-24.3	-25.1	16.2	0.00e+00	0	43	0	1310720000	8	3932
2026-01-01 16:45:09.89	262.02	15.27	-24.4	-25.2	16.2	0.00e+00	0	43	0	1318060032	8	3960
2026-01-01 16:45:10.90	262.23	15.30	-24.3	-25.0	16.3	0.00e+00	0	43	0	1324351488	8	3899
2026-01-01 16:45:11.90	262.43	15.32	-24.2	-24.8	16.4	0.00e+00	0	43	0	1331691520	8	3856
2026-01-01 16:45:12.90	262.64	15.35	-24.2	-24.8	16.4	0.00e+00	0	43	0	1339031552	8	3871
2026-01-01 16:45:13.90	262.85	15.38	-24.1	-24.5	16.5	0.00e+00	0	43	0	1346371584	8	3801
2026-01-01 16:45:14.91	263.06	15.40	-24.0	-24.9	16.6	0.00e+00	0	43	0	1353711616	7	3981
2026-01-01 16:45:15.91	263.27	15.43	-23.9	-24.7	16.6	0.00e+00	0	43	0	1361051648	7	3953
2026-01-01 16:45:16.91	263.48	15.45	-23.9	-24.8	16.6	0.00e+00	0	43	0	1368391680	7	3964
2026-01-01 16:45:17.91	263.69	15.48	-24.1	-25.0	16.5	0.00e+00	0	43	0	1375731712	7	4026
2026-01-01 16:45:18.91	263.90	15.50	-24.0	-25.0	16.5	0.00e+00	0	43	0	1383071744	7	4017
2026-01-01 16:45:19.90	264.11	15.53	-24.1	-24.7	16.4	0.00e+00	0	43	0	1389363200	8	3829
2026-01-01 16:45:20.91	264.32	15.55	-24.4	-25.2	16.1	0.00e+00	0	43	0	1396703232	8	3970
2026-01-01 16:45:21.90	264.53	15.57	-24.2	-24.9	16.3	0.00e+00	0	43	0	1404043264	8	3882
2026-01-01 16:45:22.91	264.75	15.60	-24.2	-24.9	16.3	0.00e+00	0	43	0	1411383296	8	3886
2026-01-01 16:45:23.92	264.96	15.62	-24.2	-24.8	16.4	0.00e+00	0	43	0	1418723328	8	3874
2026-01-01 16:45:24.92	265.17	15.64	-24.2	-24.7	16.4	0.00e+00	0	43	0	1426063360	8	3841
2026-01-01 16:45:25.93	265.39	15.67	-24.1	-24.6	16.5	0.00e+00	0	43	0	1433403392	8	3806
2026-01-01 16:45:26.93	265.60	15.69	-24.2	-24.7	16.4	0.00e+00	0	44	0	1440743424	8	3850
2026-01-01 16:45:27.93	265.82	15.71	-24.1	-24.5	16.5	0.00e+00	0	43	0	1448083456	8	3791
2026-01-01 16:45:28.93	266.03	15.73	-23.9	-24.7	16.7	0.00e+00	0	43	0	1455423488	7	3944
2026-01-01 16:45:29.94	266.24	15.75	-24.0	-24.8	16.6	0.00e+00	0	43	0	1462763520	7	3963
2026-01-01 16:45:30.94	266.46	15.77	-23.9	-24.8	16.6	0.00e+00	0	43	0	1469054976	7	3955
2026-01-01 16:45:31.95	266.68	15.79	-24.1	-25.0	16.5	0.00e+00	0	43	0	1476395008	7	4019
2026-01-01 16:45:32.95	266.89	15.81	-24.1	-25.0	16.5	0.00e+00	0	43	0	1483735040	7	4027
2026-01-01 16:45:33.95	267.11	15.83	-24.2	-24.8	16.4	0.00e+00	0	43	0	1491075072	8	3870
2026-01-01 16:45:34.95	267.32	15.85	-24.4	-25.4	16.1	0.00e+00	0	43	0	1498415104	8	3996
2026-01-01 16:45:35.95	267.54	15.87	-24.3	-25.1	16.2	0.00e+00	0	43	0	1505755136	8	3939
2026-01-01 16:45:36.95	267.75	15.89	-24.5	-25.5	16.0	0.00e+00	0	43	0	1513095168	8	4030
2026-01-01 16:45:37.95	267.97	15.90	-24.8	-25.6	15.7	0.00e+00	0	43	0	1520435200	9	3946
2026-01-01 16:45:38.96	268.19	15.92	-24.8	-25.7	15.6	0.00e+00	0	43	0	1527775232	9	3982
2026-01-01 16:45:39.96	268.40	15.94	-24.2	-25.0	15.7	0.00e+00	0	43	0	1534066688	9	3927
2026-01-01 16:45:40.97	268.62	15.95	-23.3	-24.4	12.5	0.00e+00	0	43	0	1541406720	8	4069
2026-01-01 16:45:41.97	268.84	15.97	-24.8	-25.5	15.6	0.00e+00	0	43	0	1548746752	9	3936
2026-01-01 16:45:42.98	269.06	15.99	-24.6	-25.6	15.9	1.67e-03	0	43	0	1556086784	8	4056
2026-01-01 16:45:43.98	269.27	16.00	-24.6	-25.6	15.9	0.00e+00	0	43	0	1563426816	8	4055
2026-01-01 16:45:44.98	269.49	16.02	-24.6	-25.2	15.9	8.00e-06	0	43	0	1570766848	9	3852
2026-01-01 16:45:45.99	269.71	16.03	-25.1	-26.2	15.4	0.00e+00	0	43	0	1578106880	9	4100
2026-01-01 16:45:46.99	269.93	16.05	-24.7	-25.5	15.8	0.00e+00	0	44	0	1585446912	9	3916
2026-01-01 16:45:48.00	270.15	16.06	-24.4	-24.7	16.2	1.10e-06	0	43	0	1592786944	9	3732
2026-01-01 16:45:49.00	270.37	16.07	-24.1	-24.7	16.5	0.00e+00	0	43	0	1600126976	8	3824
2026-01-01 16:45:50.00	270.59	16.09	-23.9	-24.7	16.7	5.57e-04	0	44	0	1607467008	7	3951
2026-01-01 16:45:51.00	270.81	16.10	-24.1	-24.7	16.4	0.00e+00	0	44	0	1614807040	8	3838
2026-01-01 16:45:52.00	271.03	16.11	-24.1	-24.6	16.5	0.00e+00	0	43	0	1621098496	8	3815
2026-01-01 16:45:53.00	271.24	16.12	-24.1	-24.6	16.5	2.72e-04	0	43	0	1628438528	8	3821
2026-01-01 16:45:54.01	271.47	16.14	-24.2	-24.8	16.4	0.00e+00	0	44	0	1635778560	8	3865
2026-01-01 16:45:55.01	271.69	16.15	-24.3	-25.0	16.3	4.18e-04	0	43	0	1643118592	8	3913
2026-01-01 16:45:56.01	271.90	16.16	-24.5	-25.4	16.1	4.59e-04	0	44	0	1650458624	8	4007
2026-01-01 16:45:57.02	272.13	16.17	-24.3	-25.1	16.2	0.00e+00	0	43	0	1657798656	8	3932
2026-01-01 16:45:58.02	272.35	16.18	-24.6	-25.6	16.0	7.28e-04	0	43	0	1665138688	8	4053
2026-01-01 16:45:59.03	272.57	16.19	-24.3	-25.0	16.3	7.26e-04	0	44	0	1672478720	8	3916
2026-01-01 16:46:00.03	272.79	16.20	-24.1	-24.6	16.5	2.20e-06	0	43	0	1679818752	8	3808
2026-01-01 16:46:01.03	273.01	16.21	-24.0	-24.4	16.6	4.74e-04	0	43	0	1687158784	8	3774
2026-01-01 16:46:02.03	273.23	16.22	-24.1	-25.0	16.5	4.26e-04	0	43	0	1694498816	7	4018
2026-01-01 16:46:03.04	273.45	16.22	-23.9	-24.7	16.7	5.70e-06	0	44	0	1700790272	7	3944
2026-01-01 16:46:04.04	273.67	16.23	-23.9	-24.8	16.7	7.56e-04	0	43	0	1708130304	7	3959
2026-01-01 16:46:05.05	273.90	16.24	-23.8	-24.6	16.8	9.52e-04	0	43	0	1715470336	7	3907
2026-01-01 16:46:06.05	274.12	16.25	-23.9	-24.7	16.7	4.50e-06	0	43	0	1722810368	7	3936
2026-01-01 16:46:07.06	274.34	16.25	-23.9	-24.7	16.7	0.00e+00	0	43	0	1730150400	7	3936
2026-01-01 16:46:08.06	274.56	16.26	-23.9	-24.7	16.7	1.30e-03	0	43	0	1737490432	7	3944
2026-01-01 16:46:09.06	274.78	16.26	-23.9	-24.8	16.6	0.00e+00	0	43	0	1744830464	7	3959
2026-01-01 16:46:10.06	275.00	16.27	-23.9	-24.6	16.7	1.22e-03	0	43	0	1752170496	7	3928
2026-01-01 16:46:11.07	275.23	16.27	-24.1	-24.7	16.4	9.98e-04	0	43	0	1759510528	8	3838
2026-01-01 16:46:12.06	275.45	16.28	-24.0	-24.4	16.6	0.00e+00	0	43	0	1765801984	8	3770
2026-01-01 16:46:13.07	275.67	16.28	-24.0	-24.4	16.6	2.02e-04	0	43	0	1773142016	8	3763
2026-01-01 16:46:14.07	275.89	16.29	-24.1	-24.7	16.4	0.00e+00	0	44	0	1780482048	8	3835
2026-01-01 16:46:15.08	276.11	16.29	-24.1	-24.6	16.5	0.00e+00	0	43	0	1787822080	8	3810
2026-01-01 16:46:16.07	276.33	16.29	-24.1	-24.6	16.5	3.48e-04	0	43	0	1795162112	8	3808
2026-01-01 16:46:17.08	276.56	16.29	-24.2	-24.8	16.4	0.00e+00	0	43	0	1802502144	8	3867
2026-01-01 16:46:18.08	276.78	16.30	-24.2	-24.9	16.3	0.00e+00	0	43	0	1809842176	8	3888
2026-01-01 16:46:19.08	277.00	16.30	-24.2	-24.8	16.4	0.00e+00	0	43	0	1817182208	8	3868
2026-01-01 16:46:20.08	277.22	16.30	-24.3	-25.0	16.3	0.00e+00	0	44	0	1824522240	8	3901
2026-01-01 16:46:21.08	277.44	16.30	-24.3	-25.0	16.3	0.00e+00	0	43	0	1831862272	8	3915
2026-01-01 16:46:22.09	277.67	16.30	-24.3	-25.0	16.3	0.00e+00	0	44	0	1839202304	8	3911
2026-01-01 16:46:23.09	277.89	16.30	-24.3	-25.0	16.3	0.00e+00	0	44	0	1846542336	8	3907
2026-01-01 16:46:24.09	278.11	16.30	-24.1	-24.5	16.5	0.00e+00	0	44	0	1852833792	8	3792
2026-01-01 16:46:25.09	278.33	16.30	-24.0	-24.8	16.6	0.00e+00	0	43	0	1860173824	7	3965
2026-01-01 16:46:26.10	278.56	16.30	-24.0	-24.9	16.5	0.00e+00	0	44	0	1867513856	7	3989
2026-01-01 16:46:27.10	278.78	16.30	-24.2	-24.8	16.4	0.00e+00	0	44	0	1874853888	8	3856
2026-01-01 16:46:28.10	279.00	16.29	-24.5	-25.4	16.0	0.00e+00	0	44	0	1882193920	8	4013
2026-01-01 16:46:29.11	279.22	16.29	-24.1	-24.7	16.4	0.00e+00	0	44	0	1889533952	8	3833
2026-01-01 16:46:30.11	279.44	16.29	-23.9	-24.2	16.7	0.00e+00	0	43	0	1896873984	8	3716
2026-01-01 16:46:31.11	279.66	16.29	-23.8	-24.6	16.8	0.00e+00	0	44	0	1904214016	7	3915
2026-01-01 16:46:32.12	279.89	16.28	-23.9	-24.7	16.7	0.00e+00	0	43	0	1910505472	7	3930
2026-01-01 16:46:33.12	280.11	16.28	-23.9	-24.7	16.7	0.00e+00	0	44	0	1917845504	7	3948
2026-01-01 16:46:34.12	280.33	16.27	-24.0	-24.8	16.6	0.00e+00	0	43	0	1925185536	7	3971
2026-01-01 16:46:35.13	280.55	16.27	-24.2	-24.8	16.4	0.00e+00	0	43	0	1932525568	8	3863
2026-01-01 16:46:36.13	280.77	16.26	-24.3	-25.0	16.3	0.00e+00	0	43	0	1939865600	8	3917
2026-01-01 16:46:37.13	281.00	16.26	-24.2	-24.7	16.4	0.00e+00	0	43	0	1947205632	8	3845
2026-01-01 16:46:38.14	281.22	16.25	-24.1	-24.7	16.4	0.00e+00	0	43	0	1954545664	8	3831
2026-01-01 16:46:39.13	281.44	16.24	-24.2	-24.7	16.4	0.00e+00	0	43	0	1961885696	8	3845
2026-01-01 16:46:40.13	281.66	16.24	-24.3	-25.0	16.3	0.00e+00	0	43	0	1969225728	8	3907
2026-01-01 16:46:41.13	281.88	16.23	-24.4	-25.3	16.1	0.00e+00	0	44	0	1976565760	8	3979
2026-01-01 16:46:42.14	282.10	16.22	-24.3	-25.0	16.3	0.00e+00	0	43	0	1983905792	8	3915
2026-01-01 16:46:43.13	282.32	16.22	-24.2	-24.8	16.4	0.00e+00	0	43	0	1991245824	8	3857
2026-01-01 16:46:44.14	282.54	16.21	-24.2	-24.8	16.4	0.00e+00	0	43	0	1997537280	8	3852
2026-01-01 16:46:45.14	282.76	16.20	-24.1	-24.5	16.5	0.00e+00	0	44	0	2004877312	8	3801
2026-01-01 16:46:46.15	282.98	16.19	-24.2	-24.9	16.3	0.00e+00	0	44	0	2012217344	8	3884
2026-01-01 16:46:47.15	283.20	16.18	-24.3	-25.0	16.3	0.00e+00	0	44	0	2019557376	8	3907
2026-01-01 16:46:48.16	283.42	16.17	-24.2	-24.8	16.4	0.00e+00	0	44	0	2026897408	8	3854
2026-01-01 16:46:49.16	283.64	16.16	-24.2	-24.8	16.4	0.00e+00	0	43	0	2034237440	8	3862
2026-01-01 16:46:50.17	283.87	16.15	-24.3	-24.9	16.3	0.00e+00	0	43	0	2041577472	8	3895
2026-01-01 16:46:51.17	284.08	16.14	-24.1	-24.7	16.4	0.00e+00	0	44	0	2048917504	8	3837
2026-01-01 16:46:52.18	284.31	16.12	-24.1	-24.6	16.5	0.00e+00	0	43	0	2056257536	8	3819
2026-01-01 16:46:53.18	284.52	16.11	-24.2	-24.9	16.4	0.00e+00	0	43	0	2063597568	8	3885
2026-01-01 16:46:54.18	284.74	16.10	-24.2	-24.8	16.4	0.00e+00	0	43	0	2070937600	8	3858
2026-01-01 16:46:55.19	284.96	16.09	-24.4	-25.3	16.1	0.00e+00	0	43	0	2077229056	8	3978
2026-01-01 16:46:56.19	285.18	16.07	-24.2	-24.8	16.4	0.00e+00	0	44	0	2084569088	8	3873
2026-01-01 16:46:57.20	285.40	16.06	-24.1	-24.6	16.5	0.00e+00	0	44	0	2091909120	8	3811
2026-01-01 16:46:58.20	285.62	16.05	-24.2	-24.8	16.4	0.00e+00	0	44	0	2099249152	8	3863
2026-01-01 16:46:59.19	285.84	16.03	-24.2	-24.7	16.4	0.00e+00	0	44	0	2106589184	8	3840
2026-01-01 16:47:00.19	286.05	16.02	-24.2	-24.9	16.3	0.00e+00	0	44	0	2113929216	8	3881
2026-01-01 16:47:01.20	286.27	16.00	-24.5	-25.4	16.1	0.00e+00	0	44	0	2121269248	8	3999
2026-01-01 16:47:02.20	286.49	15.99	-24.5	-25.4	16.0	0.00e+00	0	44	0	2128609280	8	4015
2026-01-01 16:47:03.21	286.71	15.97	-24.4	-25.4	16.1	0.00e+00	0	44	0	2135949312	8	3999
2026-01-01 16:47:04.21	286.93	15.95	-24.4	-25.3	16.1	0.00e+00	0	43	0	2142240768	8	3991
2026-01-01 16:47:05.21	287.14	15.94	-24.4	-25.3	16.1	0.00e+00	0	44	0	2149580800	8	3973
2026-01-01 16:47:06.22	287.36	15.92	-24.4	-25.2	16.1	0.00e+00	0	44	0	2156920832	8	3960
2026-01-01 16:47:07.23	287.58	15.90	-24.5	-25.5	16.0	0.00e+00	0	43	0	2164260864	8	4023
2026-01-01 16:47:08.23	287.79	15.88	-24.8	-25.5	15.7	0.00e+00	0	43	0	2171600896	9	3932
2026-01-01 16:47:09.24	288.01	15.87	-24.4	-24.9	16.0	0.00e+00	0	44	0	2178940928	9	3774
2026-01-01 16:47:10.24	288.23	15.85	-24.2	-24.9	16.3	0.00e+00	0	44	0	2186280960	8	3889
2026-01-01 16:47:11.24	288.44	15.83	-24.2	-24.8	16.3	0.00e+00	0	43	0	2193620992	8	3868
2026-01-01 16:47:12.25	288.66	15.81	-24.2	-24.8	16.4	0.00e+00	0	44	0	2200961024	8	3857
2026-01-01 16:47:13.25	288.87	15.79	-24.2	-24.9	16.3	0.00e+00	0	43	0	2208301056	8	3890
2026-01-01 16:47:14.26	289.09	15.77	-24.2	-24.9	16.3	0.00e+00	0	43	0	2215641088	8	3891
2026-01-01 16:47:15.26	289.30	15.75	-24.2	-24.8	16.4	0.00e+00	0	43	0	2222981120	8	3855
2026-01-01 16:47:16.26	289.51	15.73	-24.3	-24.9	16.3	0.00e+00	0	43	0	2229272576	8	3899
2026-01-01 16:47:17.27	289.73	15.71	-24.3	-25.1	16.2	1.10e-06	0	44	0	2236612608	8	3929
2026-01-01 16:47:18.28	289.94	15.69	-24.3	-25.0	16.2	0.00e+00	0	44	0	2245001216	8	3918
2026-01-01 16:47:19.28	290.16	15.66	-24.3	-25.1	16.2	0.00e+00	0	44	0	2251292672	8	3928
2026-01-01 16:47:20.28	290.37	15.64	-24.4	-25.2	16.1	0.00e+00	0	44	0	2258632704	8	3959
2026-01-01 16:47:21.29	290.58	15.62	-24.3	-25.0	16.3	0.00e+00	0	43	0	2265972736	8	3910
2026-01-01 16:47:22.29	290.79	15.60	-24.3	-25.0	16.2	0.00e+00	0	44	0	2273312768	8	3914
2026-01-01 16:47:23.29	291.01	15.57	-24.4	-25.2	16.1	0.00e+00	0	43	0	2280652800	8	3956
2026-01-01 16:47:24.29	291.22	15.55	-24.5	-25.4	16.0	0.00e+00	0	43	0	2287992832	8	4012
2026-01-01 16:47:25.29	291.43	15.53	-23.3	-24.0	15.9	0.00e+00	0	43	0	2295332864	8	3894
2026-01-01 16:47:26.30	291.64	15.50	-24.2	-24.8	16.3	0.00e+00	0	44	0	2302672896	8	3873
2026-01-01 16:47:27.30	291.85	15.48	-24.3	-25.0	15.5	0.00e+00	0	43	0	2308964352	8	3918
2026-01-01 16:47:28.30	292.06	15.45	-24.3	-25.1	16.2	0.00e+00	0	44	0	2316304384	8	3923
2026-01-01 16:47:29.31	292.27	15.43	-24.2	-24.8	16.4	0.00e+00	0	44	0	2323644416	8	3862
2026-01-01 16:47:30.32	292.48	15.40	-24.3	-25.0	16.3	0.00e+00	0	44	0	2330984448	8	3899
2026-01-01 16:47:31.32	292.69	15.38	-24.2	-24.9	16.3	0.00e+00	0	43	0	2338324480	8	3884
2026-01-01 16:47:32.32	292.90	15.35	-24.4	-25.2	16.2	0.00e+00	0	43	0	2345664512	8	3951
2026-01-01 16:47:33.32	293.11	15.32	-24.4	-25.3	16.1	6.87e-04	0	43	0	2353004544	8	3975
2026-01-01 16:47:34.32	293.31	15.30	-24.3	-25.1	16.2	0.00e+00	0	43	0	2360344576	8	3937
2026-01-01 16:47:35.33	293.52	15.27	-24.4	-25.2	16.2	3.40e-06	0	44	0	2367684608	8	3952
2026-01-01 16:47:36.33	293.73	15.24	-24.4	-25.3	16.1	0.00e+00	0	44	0	2375024640	8	3976
2026-01-01 16:47:37.34	293.94	15.21	-24.4	-25.2	16.1	9.97e-04	0	44	0	2382364672	8	3953
2026-01-01 16:47:38.34	294.14	15.19	-24.4	-25.3	16.0	0.00e+00	0	44	0	2389704704	8	3989
2026-01-01 16:47:39.34	294.35	15.16	-24.5	-25.5	15.9	0.00e+00	0	43	0	2395996160	8	4029
2026-01-01 16:47:40.34	294.55	15.13	-24.4	-25.2	16.1	1.01e-03	0	44	0	2403336192	8	3947
2026-01-01 16:47:41.34	294.76	15.10	-24.3	-25.1	16.1	2.20e-06	0	44	0	2410676224	8	3946
2026-01-01 16:47:42.35	294.96	15.07	-24.4	-25.2	16.1	8.65e-04	0	44	0	2418016256	8	3969
2026-01-01 16:47:43.34	295.17	15.04	-24.4	-25.4	16.0	3.66e-04	0	44	0	2425356288	8	4005
2026-01-01 16:47:44.34	295.37	15.01	-24.6	-25.1	15.9	0.00e+00	0	44	0	2432696320	9	3831
2026-01-01 16:47:45.34	295.57	14.98	-24.5	-25.0	16.0	9.10e-06	0	44	0	2440036352	9	3794
2026-01-01 16:47:46.35	295.78	14.95	-24.5	-25.5	16.0	4.10e-04	0	44	0	2447376384	8	4041
2026-01-01 16:47:47.34	295.98	14.92	-24.6	-25.1	15.9	1.10e-06	0	44	0	2454716416	9	3839
2026-01-01 16:47:48.35	296.18	14.89	-24.5	-25.1	15.9	1.07e-03	0	44	0	2461007872	9	3824
2026-01-01 16:47:49.35	296.38	14.86	-24.5	-25.5	16.0	1.05e-03	0	44	0	2468347904	8	4028
2026-01-01 16:47:50.35	296.58	14.83	-24.5	-25.4	16.0	1.10e-06	0	44	0	2475687936	8	4018
2026-01-01 16:47:51.36	296.79	14.79	-24.4	-25.4	16.0	1.15e-03	0	44	0	2483027968	8	4006
2026-01-01 16:47:52.36	296.99	14.76	-24.5	-25.4	16.0	1.07e-03	0	44	0	2490368000	8	4003
2026-01-01 16:47:53.36	297.19	14.73	-24.4	-25.3	16.0	3.40e-06	0	44	0	2497708032	8	3981
2026-01-01 16:47:54.36	297.39	14.70	-24.5	-25.6	15.9	1.03e-03	0	44	0	2505048064	8	4058
2026-01-01 16:47:55.36	297.59	14.66	-24.7	-25.5	15.6	8.30e-04	0	44	0	2512388096	9	3940
2026-01-01 16:47:56.36	297.78	14.63	-24.8	-25.7	15.5	0.00e+00	0	44	0	2518679552	9	3985
2026-01-01 16:47:57.36	297.98	14.60	-24.5	-25.0	15.9	1.82e-04	0	44	0	2526019584	9	3818
2026-01-01 16:47:58.37	298.18	14.56	-24.4	-24.7	16.1	2.47e-04	0	44	0	2533359616	9	3732
2026-01-01 16:47:59.37	298.38	14.53	-24.2	-24.3	16.3	0.00e+00	0	44	0	2540699648	9	3646
2026-01-01 16:48:00.38	298.58	14.49	-24.3	-25.1	16.1	8.60e-04	0	44	0	2548039680	8	3941
2026-01-01 16:48:01.38	298.77	14.46	-24.3	-25.2	16.1	0.00e+00	0	44	0	2555379712	8	3955
2026-01-01 16:48:02.38	298.97	14.42	-24.3	-25.1	16.1	0.00e+00	0	43	0	2562719744	8	3932
2026-01-01 16:48:03.38	299.17	14.39	-24.4	-25.2	16.1	1.33e-03	0	43	0	2570059776	8	3969
2026-01-01 16:48:04.38	299.36	14.35	-24.4	-25.4	16.0	0.00e+00	0	44	0	2577399808	8	3998
2026-01-01 16:48:05.39	299.56	14.32	-24.5	-25.5	15.9	3.40e-06	0	44	0	2584739840	8	4035
2026-01-01 16:48:06.40	299.75	14.28	-24.6	-25.2	15.8	0.00e+00	0	44	0	2592079872	9	3845
2026-01-01 16:48:07.40	299.95	14.25	-24.6	-25.6	15.8	0.00e+00	0	44	0	2599419904	8	4061
2026-01-01 16:48:08.41	300.14	14.21	-24.6	-25.2	15.8	5.70e-06	0	44	0	2605711360	9	3863
2026-01-01 16:48:09.41	300.33	14.17	-24.6	-25.2	15.8	0.00e+00	0	44	0	2613051392	9	3851
2026-01-01 16:48:10.42	300.53	14.14	-24.8	-25.5	15.6	0.00e+00	0	44	0	2620391424	9	3931
2026-01-01 16:48:11.43	300.72	14.10	-24.9	-25.7	15.5	0.00e+00	0	44	0	2627731456	9	3989
2026-01-01 16:48:12.43	300.91	14.06	-24.7	-25.4	15.7	0.00e+00	0	44	0	2635071488	9	3903
2026-01-01 16:48:13.43	301.10	14.02	-24.7	-25.4	15.7	0.00e+00	0	44	0	2642411520	9	3894
2026-01-01 16:48:14.44	301.30	13.98	-24.7	-25.4	15.6	0.00e+00	0	44	0	2649751552	9	3915
2026-01-01 16:48:15.44	301.49	13.95	-24.8	-25.7	15.5	0.00e+00	0	44	0	2657091584	9	3970
2026-01-01 16:48:16.45	301.68	13.91	-24.8	-25.7	15.5	0.00e+00	0	44	0	2664431616	9	3984
2026-01-01 16:48:17.45	301.87	13.87	-24.9	-25.8	15.5	0.00e+00	0	44	0	2671771648	9	4003
2026-01-01 16:48:18.45	302.05	13.83	-24.9	-25.8	15.4	0.00e+00	0	44	0	2679111680	9	4016
2026-01-01 16:48:19.46	302.24	13.79	-24.9	-25.8	15.4	0.00e+00	0	44	0	2685403136	9	4014
2026-01-01 16:48:20.46	302.43	13.75	-24.9	-25.9	15.3	0.00e+00	0	44	0	2692743168	9	4038
2026-01-01 16:48:21.46	302.62	13.71	-25.1	-25.8	15.2	0.00e+00	0	43	0	2700083200	10	3893
2026-01-01 16:48:22.46	302.80	13.67	-25.2	-25.9	15.1	0.00e+00	0	43	0	2707423232	10	3922
2026-01-01 16:48:23.47	302.99	13.63	-25.2	-25.9	15.1	0.00e+00	0	44	0	2714763264	10	3924
2026-01-01 16:48:24.47	303.18	13.59	-25.2	-25.9	15.1	0.00e+00	0	44	0	2722103296	10	3923
2026-01-01 16:48:25.48	303.36	13.55	-25.1	-25.8	15.2	0.00e+00	0	44	0	2729443328	10	3908
2026-01-01 16:48:26.48	303.55	13.51	-25.1	-25.7	15.3	0.00e+00	0	44	0	2736783360	10	3867
2026-01-01 16:48:27.49	303.73	13.47	-25.0	-26.0	15.3	0.00e+00	0	44	0	2744123392	9	4048
2026-01-01 16:48:28.49	303.92	13.43	-24.9	-25.9	15.4	0.00e+00	0	44	0	2751463424	9	4040
2026-01-01 16:48:29.49	304.10	13.39	-25.0	-26.2	15.3	0.00e+00	0	44	0	2758803456	9	4103
2026-01-01 16:48:30.49	304.28	13.35	-25.4	-26.4	14.9	0.00e+00	0	43	0	2766143488	10	4042
2026-01-01 16:48:31.50	304.47	13.31	-25.4	-26.0	14.8	0.00e+00	0	44	0	2772434944	11	3858
2026-01-01 16:48:32.50	304.65	13.26	-25.2	-25.5	15.1	0.00e+00	0	44	0	2779774976	11	3717
2026-01-01 16:48:33.50	304.83	13.22	-25.0	-25.6	15.3	1.10e-06	0	44	0	2787115008	10	3846
2026-01-01 16:48:34.50	305.01	13.18	-25.0	-26.1	15.3	0.00e+00	0	44	0	2794455040	9	4068
2026-01-01 16:48:35.51	305.19	13.14	-25.1	-25.8	15.2	0.00e+00	0	44	0	2801795072	10	3884
2026-01-01 16:48:36.51	305.37	13.10	-25.1	-26.2	15.2	0.00e+00	0	44	0	2809135104	9	4108
2026-01-01 16:48:37.52	305.55	13.05	-25.1	-25.7	15.2	0.00e+00	0	44	0	2816475136	10	3881
2026-01-01 16:48:38.52	305.73	13.01	-25.0	-25.7	15.2	0.00e+00	0	44	0	2823815168	10	3867
2026-01-01 16:48:39.52	305.91	12.97	-25.0	-26.2	15.2	0.00e+00	0	44	0	2831155200	9	4094
2026-01-01 16:48:40.52	306.09	12.92	-25.1	-25.8	15.1	0.00e+00	0	44	0	2837446656	10	3905
2026-01-01 16:48:41.52	306.26	12.88	-25.1	-25.8	15.2	0.00e+00	0	44	0	2844786688	10	3893
2026-01-01 16:48:42.53	306.44	12.84	-25.1	-25.8	15.1	0.00e+00	0	44	0	2852126720	10	3910
2026-01-01 16:48:43.53	306.62	12.79	-25.1	-26.3	15.2	0.00e+00	0	44	0	2859466752	9	4122
2026-01-01 16:48:44.53	306.79	12.75	-25.4	-26.5	14.7	0.00e+00	0	44	0	2866806784	10	4068
2026-01-01 16:48:45.54	306.97	12.71	-25.5	-26.6	14.7	1.10e-06	0	44	0	2874146816	10	4097
2026-01-01 16:48:46.54	307.14	12.66	-25.3	-26.2	14.9	0.00e+00	0	44	0	2881486848	10	3999
2026-01-01 16:48:47.54	307.32	12.62	-25.2	-26.0	15.0	0.00e+00	0	44	0	2888826880	10	3949
2026-01-01 16:48:48.55	307.49	12.57	-25.1	-25.8	15.1	0.00e+00	0	44	0	2896166912	10	3915
2026-01-01 16:48:49.55	307.66	12.53	-25.1	-25.9	15.1	0.00e+00	0	44	0	2903506944	10	3920
2026-01-01 16:48:50.55	307.84	12.48	-25.2	-26.0	15.1	0.00e+00	0	44	0	2910846976	10	3943
2026-01-01 16:48:51.55	308.01	12.44	-25.2	-26.0	15.0	0.00e+00	0	44	0	2917138432	10	3963
2026-01-01 16:48:52.56	308.18	12.39	-25.2	-26.1	15.0	0.00e+00	0	44	0	2924478464	10	3965
2026-01-01 16:48:53.56	308.35	12.35	-25.1	-25.9	15.1	0.00e+00	0	44	0	2931818496	10	3915
2026-01-01 16:48:54.57	308.52	12.30	-25.1	-25.9	15.1	1.10e-06	0	44	0	2939158528	10	3923
2026-01-01 16:48:55.57	308.69	12.26	-25.1	-25.9	15.1	0.00e+00	0	44	0	2946498560	10	3916
2026-01-01 16:48:56.57	308.86	12.21	-25.2	-25.9	15.1	0.00e+00	0	44	0	2953838592	10	3929
2026-01-01 16:48:57.57	309.03	12.17	-25.1	-25.9	15.1	0.00e+00	0	44	0	2961178624	10	3924
2026-01-01 16:48:58.58	309.20	12.12	-25.1	-25.8	15.1	0.00e+00	0	44	0	2968518656	10	3904
2026-01-01 16:48:59.58	309.37	12.07	-25.2	-26.0	15.0	0.00e+00	0	44	0	2975858688	10	3957
2026-01-01 16:49:00.58	309.54	12.03	-25.2	-26.0	15.0	0.00e+00	0	44	0	2983198720	10	3946
2026-01-01 16:49:01.58	309.70	11.98	-25.0	-25.5	15.2	0.00e+00	0	44	0	2990538752	10	3836
2026-01-01 16:49:02.59	309.87	11.94	-25.1	-25.7	15.1	0.00e+00	0	44	0	2997878784	10	3882
2026-01-01 16:49:03.60	310.04	11.89	-25.3	-26.3	14.8	1.10e-06	0	44	0	3004170240	10	4020
2026-01-01 16:49:04.60	310.20	11.84	-25.4	-26.6	14.7	0.00e+00	0	44	0	3011510272	10	4090
2026-01-01 16:49:05.61	310.37	11.79	-25.5	-26.7	14.6	0.00e+00	0	43	0	3018850304	10	4129
2026-01-01 16:49:06.61	310.53	11.75	-25.6	-26.8	14.6	0.00e+00	0	44	0	3026190336	10	4148
2026-01-01 16:49:07.61	310.70	11.70	-25.7	-26.6	14.4	1.10e-06	0	44	0	3033530368	11	4002
2026-01-01 16:49:08.61	310.86	11.65	-25.7	-26.5	14.4	1.10e-06	0	44	0	3040870400	11	3976
2026-01-01 16:49:09.62	311.02	11.61	-25.6	-26.4	14.5	0.00e+00	0	44	0	3048210432	11	3957
2026-01-01 16:49:10.62	311.19	11.56	-25.6	-26.4	14.5	0.00e+00	0	44	0	3055550464	11	3933
2026-01-01 16:49:11.62	311.35	11.51	-25.5	-26.1	14.7	1.10e-06	0	44	0	3061841920	11	3868
2026-01-01 16:49:12.62	311.51	11.46	-25.4	-26.5	14.7	0.00e+00	0	44	0	3069181952	10	4080
2026-01-01 16:49:13.62	311.67	11.42	-25.5	-26.6	14.6	1.10e-06	0	44	0	3076521984	10	4096
2026-01-01 16:49:14.63	311.83	11.37	-25.4	-26.6	14.6	0.00e+00	0	44	0	3083862016	10	4109
2026-01-01 16:49:15.63	311.99	11.32	-24.8	-26.0	14.6	1.10e-06	0	44	0	3091202048	10	4112
2026-01-01 16:49:16.64	312.15	11.27	-25.5	-26.6	14.6	0.00e+00	0	44	0	3098542080	10	4103
2026-01-01 16:49:17.64	312.31	11.22	-25.4	-26.4	14.6	1.10e-06	0	44	0	3105882112	10	4058
2026-01-01 16:49:18.64	312.47	11.18	-25.4	-26.6	14.6	0.00e+00	0	44	0	3113222144	10	4094
2026-01-01 16:49:19.65	312.63	11.13	-25.4	-26.6	14.7	1.10e-06	0	44	0	3120562176	10	4095
2026-01-01 16:49:20.66	312.79	11.08	-25.6	-26.8	14.5	0.00e+00	0	44	0	3127902208	10	4164
2026-01-01 16:49:21.66	312.94	11.03	-25.8	-26.9	14.2	1.10e-06	0	44	0	3135242240	11	4070
2026-01-01 16:49:22.66	313.10	10.98	-25.8	-26.9	14.2	0.00e+00	0	44	0	3142582272	11	4074
2026-01-01 16:49:23.66	313.25	10.93	-25.7	-26.6	14.3	1.10e-06	0	44	0	3148873728	11	4007
2026-01-01 16:49:24.67	313.41	10.88	-25.6	-26.4	14.4	0.00e+00	0	44	0	3156213760	11	3955
2026-01-01 16:49:25.67	313.57	10.84	-25.7	-26.5	14.3	0.00e+00	0	44	0	3163553792	11	3986
2026-01-01 16:49:26.67	313.72	10.79	-25.6	-26.4	14.4	0.00e+00	0	44	0	3170893824	11	3958
2026-01-01 16:49:27.68	313.87	10.74	-25.5	-26.2	14.5	5.01e-04	0	44	0	3178233856	11	3906
2026-01-01 16:49:28.68	314.03	10.69	-25.5	-26.1	14.6	0.00e+00	0	44	0	3185573888	11	3884
2026-01-01 16:49:29.69	314.18	10.64	-25.4	-26.5	14.6	4.19e-04	0	44	0	3192913920	10	4082
2026-01-01 16:49:30.69	314.33	10.59	-25.5	-26.7	14.5	3.01e-04	0	43	0	3200253952	10	4138
2026-01-01 16:49:31.69	314.49	10.54	-25.6	-26.5	14.4	0.00e+00	0	44	0	3207593984	11	3968
2026-01-01 16:49:32.69	314.64	10.49	-25.5	-26.2	14.5	2.08e-04	0	44	0	3214934016	11	3896
2026-01-01 16:49:33.69	314.79	10.44	-25.3	-25.8	14.8	1.10e-06	0	44	0	3222274048	11	3798
2026-01-01 16:49:34.70	314.94	10.39	-25.4	-25.9	14.7	0.00e+00	0	44	0	3229614080	11	3835
2026-01-01 16:49:35.71	315.09	10.34	-25.4	-26.0	14.6	1.34e-04	0	44	0	3235905536	11	3854
2026-01-01 16:49:36.71	315.24	10.29	-25.5	-26.1	14.6	3.40e-06	0	44	0	3243245568	11	3864
2026-01-01 16:49:37.71	315.39	10.24	-25.5	-26.3	14.5	3.40e-06	0	44	0	3250585600	11	3920
2026-01-01 16:49:38.71	315.54	10.19	-25.6	-26.5	14.4	1.03e-04	0	44	0	3257925632	11	3968
2026-01-01 16:49:39.72	315.68	10.14	-25.7	-26.6	14.3	4.23e-05	0	44	0	3265265664	11	3990
2026-01-01 16:49:40.73	315.83	10.09	-25.8	-26.8	14.2	1.10e-06	0	44	0	3272605696	11	4047
2026-01-01 16:49:41.72	315.98	10.04	-25.8	-27.0	14.1	2.20e-06	0	43	0	3279945728	11	4095
2026-01-01 16:49:42.73	316.13	9.99	-26.0	-27.3	13.9	3.40e-06	0	44	0	3287285760	11	4175
2026-01-01 16:49:43.73	316.27	9.94	-25.9	-27.1	14.0	5.70e-06	0	43	0	3294625792	11	4131
2026-01-01 16:49:44.73	316.42	9.89	-25.9	-27.1	14.0	3.40e-06	0	44	0	3301965824	11	4126
2026-01-01 16:49:45.74	316.56	9.84	-26.0	-27.2	13.9	4.50e-06	0	44	0	3309305856	11	4169
2026-01-01 16:49:46.74	316.71	9.79	-26.0	-27.4	13.8	5.70e-06	0	44	0	3315597312	11	4200
2026-01-01 16:49:47.75	316.85	9.74	-26.0	-27.2	13.9	6.80e-06	0	44	0	3322937344	11	4171
2026-01-01 16:49:48.75	316.99	9.69	-26.1	-27.0	13.7	5.70e-06	0	44	0	3330277376	12	3991
2026-01-01 16:49:49.75	317.14	9.64	-26.2	-27.3	13.5	8.00e-06	0	44	0	3337617408	12	4092
2026-01-01 16:49:50.75	317.28	9.59	-26.1	-27.1	13.6	2.39e-04	0	44	0	3344957440	12	4030
2026-01-01 16:49:51.75	317.42	9.54	-26.0	-26.8	13.8	3.40e-06	0	44	0	3352297472	12	3950
2026-01-01 16:49:52.76	317.56	9.49	-25.7	-26.1	14.2	2.20e-06	0	44	0	3359637504	12	3785
2026-01-01 16:49:53.76	317.71	9.44	-25.9	-27.1	14.0	1.10e-06	0	44	0	3366977536	11	4129
2026-01-01 16:49:54.77	317.85	9.39	-26.0	-27.2	13.9	8.50e-04	0	44	0	3374317568	11	4168
2026-01-01 16:49:55.78	317.99	9.34	-25.7	-26.6	14.2	2.20e-06	0	44	0	3381657600	11	4004
2026-01-01 16:49:56.78	318.13	9.29	-25.5	-26.7	14.4	2.20e-06	0	44	0	3388997632	10	4132
2026-01-01 16:49:57.78	318.27	9.23	-25.5	-26.7	14.5	9.39e-04	0	43	0	3396337664	10	4125
2026-01-01 16:49:58.79	318.41	9.18	-25.6	-26.9	14.3	0.00e+00	0	44	0	3402629120	10	4184
2026-01-01 16:49:59.79	318.54	9.13	-25.7	-26.5	14.3	1.10e-06	0	44	0	3409969152	11	3988
2026-01-01 16:50:00.79	318.68	9.08	-25.6	-26.4	14.3	1.10e-06	0	44	0	3417309184	11	3949
2026-01-01 16:50:01.80	318.82	9.03	-25.6	-26.4	14.3	1.10e-06	0	43	0	3424649216	11	3942
2026-01-01 16:50:02.80	318.96	8.98	-25.7	-26.7	14.1	4.42e-04	0	44	0	3431989248	11	4027
2026-01-01 16:50:03.80	319.09	8.93	-25.8	-26.8	14.1	2.20e-06	0	44	0	3439329280	11	4066
2026-01-01 16:50:04.80	319.23	8.88	-25.8	-26.8	14.1	0.00e+00	0	44	0	3446669312	11	4060
2026-01-01 16:50:05.80	319.36	8.83	-25.9	-27.2	13.9	2.20e-06	0	44	0	3454009344	11	4157
2026-01-01 16:50:06.81	319.50	8.78	-26.1	-27.6	13.6	5.70e-06	0	44	0	3461349376	11	4264
2026-01-01 16:50:07.81	319.64	8.72	-26.2	-27.2	13.5	1.60e-05	0	44	0	3467640832	12	4063
2026-01-01 16:50:08.82	319.77	8.67	-26.3	-27.6	13.2	2.17e-05	0	44	0	3474980864	12	4162
2026-01-01 16:50:09.82	319.90	8.62	-26.2	-27.3	13.4	1.71e-05	0	44	0	3482320896	12	4088
2026-01-01 16:50:10.83	320.04	8.57	-26.2	-27.2	13.4	1.60e-05	0	44	0	3489660928	12	4075
2026-01-01 16:50:11.83	320.17	8.52	-26.3	-27.6	13.2	2.17e-05	0	44	0	3497000960	12	4163
2026-01-01 16:50:12.84	320.30	8.47	-26.4	-27.7	13.2	2.86e-05	0	44	0	3504340992	12	4185
2026-01-01 16:50:13.83	320.43	8.42	-26.3	-27.6	13.2	2.17e-05	0	44	0	3511681024	12	4164
2026-01-01 16:50:14.83	320.57	8.36	-26.5	-28.0	13.0	4.69e-05	0	44	0	3519021056	12	4284
2026-01-01 16:50:15.84	320.70	8.31	-26.4	-27.7	13.2	3.31e-05	0	43	0	3526361088	12	4195
2026-01-01 16:50:16.84	320.83	8.26	-26.2	-27.3	13.4	1.02e-05	0	43	0	3533701120	12	4087
2026-01-01 16:50:17.84	320.96	8.21	-26.1	-27.1	13.5	1.14e-05	0	43	0	3541041152	12	4032
2026-01-01 16:50:18.85	321.09	8.16	-26.2	-27.3	13.4	1.48e-05	0	44	0	3547332608	12	4084
2026-01-01 16:50:19.86	321.22	8.11	-26.1	-27.0	13.5	2.05e-05	0	44	0	3554672640	12	4018
2026-01-01 16:50:20.86	321.35	8.06	-25.9	-26.7	13.7	8.00e-06	0	44	0	3562012672	12	3937
2026-01-01 16:50:21.87	321.48	8.00	-26.0	-27.4	13.6	1.02e-05	0	44	0	3569352704	11	4234
2026-01-01 16:50:22.86	321.60	7.95	-25.9	-27.1	13.8	5.70e-06	0	44	0	3576692736	11	4136
2026-01-01 16:50:23.87	321.73	7.90	-25.9	-27.1	13.9	4.50e-06	0	44	0	3584032768	11	4136
2026-01-01 16:50:24.88	321.86	7.85	-25.8	-26.9	13.9	1.10e-06	0	44	0	3591372800	11	4071
2026-01-01 16:50:25.88	321.99	7.80	-25.8	-26.9	13.9	2.20e-06	0	44	0	3598712832	11	4093
2026-01-01 16:50:26.88	322.11	7.75	-25.9	-27.1	13.8	9.10e-06	0	44	0	3606052864	11	4123
2026-01-01 16:50:27.88	322.24	7.69	-25.9	-27.1	13.8	4.50e-06	0	44	0	3613392896	11	4151
2026-01-01 16:50:28.89	322.36	7.64	-25.9	-27.1	13.8	5.70e-06	0	44	0	3620732928	11	4140
2026-01-01 16:50:29.89	322.49	7.59	-26.0	-27.4	13.6	4.50e-06	0	44	0	3628072960	11	4217
2026-01-01 16:50:30.89	322.61	7.54	-26.0	-27.3	13.6	1.94e-05	0	44	0	3634364416	11	4205
2026-01-01 16:50:31.89	322.74	7.49	-26.0	-27.4	13.5	1.25e-05	0	43	0	3641704448	11	4230
2026-01-01 16:50:32.90	322.86	7.44	-26.1	-27.1	13.4	1.48e-05	0	44	0	3649044480	12	4040
2026-01-01 16:50:33.91	322.99	7.38	-26.1	-27.1	13.4	2.51e-05	0	44	0	3656384512	12	4051
2026-01-01 16:50:34.91	323.11	7.33	-26.2	-27.3	13.3	2.05e-05	0	44	0	3663724544	12	4099
2026-01-01 16:50:35.91	323.23	7.28	-26.2	-27.3	13.3	2.17e-05	0	44	0	3671064576	12	4086
2026-01-01 16:50:36.92	323.35	7.23	-26.3	-27.6	13.1	3.31e-05	0	44	0	3678404608	12	4159
2026-01-01 16:50:37.92	323.47	7.18	-26.3	-27.6	13.1	3.31e-05	0	44	0	3685744640	12	4174
2026-01-01 16:50:38.92	323.60	7.13	-26.4	-27.8	13.0	3.08e-05	0	44	0	3692036096	12	4227
2026-01-01 16:50:39.93	323.72	7.07	-26.4	-27.7	13.0	4.11e-05	0	44	0	3699376128	12	4214
2026-01-01 16:50:40.93	323.84	7.02	-32.4	-41.9	3.8	8.46e-01	0	44	104	3703570432	24	10777
2026-01-01 16:50:41.93	323.96	6.97	-32.7	-42.1	3.8	8.46e-01	0	44	104	3703570432	25	10707

#Closed at: 2026-01-01 16:50:42
#Recorded file [3703 MB]: D:/data/31010_260101_194207.dat