passes_logs/2026/01/01/R2M6_AANII_01/R2M6_AANII_01__20260101_114146_NOAA_21_JPSS-2_rec.log

#Pass ID: 20260101_114146_NOAA 21 (JPSS-2)
#Satellite: NOAA 21 (JPSS-2)
#Configuration: NOAA 21
#almurnet v.1.7.20240730
#Start time: 2026-01-01 11:43:28

#Version: 2.2.20231116
#Station: R2M6_AANII_01
#Location: 30.233357 lon 59.946436 lat
#TLE: 1 54234U 22150A   25365.42224288  .00000199  00000+0  11529-3 0  9990
#TLE: 2 54234  98.7483 301.4995 0001320 356.2106   3.9060 14.19530300162743

#Time	Az	El	Level	Level2	SNR	BER	BlckErr	Temp	State	Recorded	gain1	gain2
2026-01-01 11:43:28.35	215.49	14.53	-33.4	-44.8	3.8	8.46e-01	0	43	0	0	26	13337
2026-01-01 11:43:29.35	215.62	14.61	-33.9	-45.6	3.8	1.49e+00	0	43	104	0	28	13921
2026-01-01 11:43:30.34	215.75	14.69	-33.9	-45.7	3.8	1.49e+00	0	43	104	0	28	13944
2026-01-01 11:43:31.33	215.89	14.77	-33.9	-45.8	3.8	1.49e+00	0	43	104	0	28	14012
2026-01-01 11:43:32.34	216.03	14.86	-34.0	-45.8	3.8	1.49e+00	0	43	104	0	28	14018
2026-01-01 11:43:33.34	216.16	14.94	-34.0	-45.8	3.8	1.49e+00	0	43	104	0	28	14093
2026-01-01 11:43:34.33	216.30	15.02	-34.0	-45.9	3.8	1.49e+00	0	43	104	0	28	14104
2026-01-01 11:43:35.33	216.44	15.10	-34.0	-45.8	3.8	1.49e+00	0	43	104	0	28	14028
2026-01-01 11:43:36.33	216.58	15.18	-34.0	-45.8	3.8	1.49e+00	0	43	104	0	28	14048
2026-01-01 11:43:37.32	216.72	15.26	-34.0	-45.8	3.8	1.49e+00	0	43	104	0	28	14064
2026-01-01 11:43:38.33	216.86	15.35	-34.0	-45.8	3.8	1.49e+00	0	43	104	0	28	14060
2026-01-01 11:43:39.33	217.00	15.43	-34.0	-45.8	3.8	1.49e+00	0	43	104	0	28	14094
2026-01-01 11:43:40.32	217.14	15.51	-34.0	-45.8	3.8	1.49e+00	0	43	104	0	28	14030
2026-01-01 11:43:41.33	217.29	15.59	-34.0	-45.8	3.8	1.49e+00	0	43	104	0	28	14039
2026-01-01 11:43:42.32	217.43	15.67	-34.0	-45.8	3.8	1.49e+00	0	43	104	0	28	14066
2026-01-01 11:43:43.32	217.57	15.76	-34.0	-45.8	3.8	1.49e+00	0	43	104	0	28	14058
2026-01-01 11:43:44.31	217.72	15.84	-34.0	-45.8	3.8	1.49e+00	0	43	104	0	28	14039
2026-01-01 11:43:45.30	217.86	15.92	-34.0	-45.8	3.8	1.49e+00	0	43	104	0	28	14077
2026-01-01 11:43:46.30	218.01	16.00	-34.0	-45.8	3.8	1.49e+00	0	43	104	0	28	14029
2026-01-01 11:43:47.30	218.16	16.09	-33.9	-45.7	3.8	1.49e+00	0	43	104	0	28	14021
2026-01-01 11:43:48.29	218.30	16.17	-33.9	-45.7	3.8	1.49e+00	0	43	104	0	28	14001
2026-01-01 11:43:49.28	218.45	16.25	-33.9	-45.7	3.8	1.49e+00	0	43	104	0	28	13999
2026-01-01 11:43:50.27	218.60	16.33	-33.9	-45.6	3.8	1.49e+00	0	43	104	0	28	13911
2026-01-01 11:43:51.27	218.75	16.42	-33.8	-45.6	3.8	1.49e+00	0	43	104	0	28	13888
2026-01-01 11:43:52.27	218.90	16.50	-33.8	-45.5	3.8	1.49e+00	0	43	104	0	28	13853
2026-01-01 11:43:53.27	219.06	16.58	-33.8	-45.4	3.8	1.49e+00	0	43	104	0	28	13792
2026-01-01 11:43:54.27	219.21	16.67	-33.7	-45.3	3.8	1.49e+00	0	43	104	0	28	13604
2026-01-01 11:43:55.26	219.36	16.75	-33.7	-45.2	3.8	1.49e+00	0	43	104	0	28	13610
2026-01-01 11:43:56.26	219.52	16.84	-33.6	-45.2	3.8	1.49e+00	0	43	104	0	28	13578
2026-01-01 11:43:57.26	219.67	16.92	-33.6	-45.1	3.8	1.49e+00	0	43	104	0	28	13520
2026-01-01 11:43:58.26	219.83	17.00	-33.6	-45.0	3.8	1.49e+00	0	43	104	0	28	13404
2026-01-01 11:43:59.26	219.99	17.09	-33.5	-44.9	3.8	1.49e+00	0	43	104	0	28	13339
2026-01-01 11:44:00.26	220.15	17.17	-33.5	-44.8	3.8	1.49e+00	0	43	104	0	28	13327
2026-01-01 11:44:01.26	220.31	17.26	-33.4	-44.5	3.8	1.49e+00	0	43	104	0	28	13065
2026-01-01 11:44:02.26	220.47	17.34	-33.3	-44.4	3.8	1.49e+00	0	43	104	0	27	12942
2026-01-01 11:44:03.27	220.63	17.43	-33.2	-44.3	3.8	1.49e+00	0	43	104	0	27	12944
2026-01-01 11:44:04.26	220.79	17.51	-33.2	-44.5	3.8	1.49e+00	0	43	104	0	27	13160
2026-01-01 11:44:05.26	220.95	17.60	-33.2	-44.6	3.8	1.49e+00	0	43	104	0	27	13295
2026-01-01 11:44:06.26	221.12	17.68	-33.3	-44.7	3.8	1.49e+00	0	43	104	0	27	13379
2026-01-01 11:44:07.25	221.28	17.76	-33.3	-44.7	3.8	1.49e+00	0	43	104	0	27	13391
2026-01-01 11:44:08.25	221.45	17.85	-33.2	-44.5	3.8	1.49e+00	0	43	104	0	27	13129
2026-01-01 11:44:09.24	221.61	17.93	-33.2	-44.1	3.8	1.49e+00	0	43	104	0	27	12673
2026-01-01 11:44:10.23	221.78	18.02	-33.2	-43.7	3.8	1.49e+00	0	43	104	0	27	12145
2026-01-01 11:44:11.22	221.94	18.10	-33.2	-43.7	3.8	1.49e+00	0	43	104	0	27	12055
2026-01-01 11:44:12.22	222.11	18.19	-33.2	-44.1	3.8	1.49e+00	0	43	104	0	27	12614
2026-01-01 11:44:13.22	222.28	18.27	-33.3	-44.8	3.8	1.49e+00	0	43	104	0	27	13576
2026-01-01 11:44:14.23	222.46	18.36	-33.2	-44.5	3.8	1.49e+00	0	43	104	0	27	13143
2026-01-01 11:44:15.23	222.63	18.44	-32.9	-41.7	3.9	1.49e+00	0	43	104	0	27	9899
2026-01-01 11:44:16.21	222.80	18.53	-32.2	-38.5	4.2	1.45e+00	0	43	104	0	25	7481
2026-01-01 11:44:17.21	222.97	18.61	-31.1	-34.8	8.6	6.52e-02	0	43	104	0	23	5512
2026-01-01 11:44:18.21	223.15	18.70	-30.0	-32.6	10.8	3.96e-03	0	43	0	1048576	21	4827
2026-01-01 11:44:19.21	223.32	18.78	-29.3	-31.5	12.3	2.62e-04	0	43	0	4194304	19	4646
2026-01-01 11:44:20.20	223.50	18.87	-28.8	-30.3	13.0	5.26e-05	0	43	0	7340032	19	4284
2026-01-01 11:44:21.20	223.67	18.95	-28.7	-30.6	13.2	2.13e-05	0	43	0	10485760	18	4477
2026-01-01 11:44:22.20	223.85	19.04	-29.0	-31.3	12.8	5.64e-05	0	43	0	13631488	18	4682
2026-01-01 11:44:23.20	224.03	19.12	-29.5	-32.2	11.8	3.17e-04	0	43	0	16777216	19	4903
2026-01-01 11:44:24.20	224.21	19.21	-29.5	-32.2	11.9	4.68e-04	0	43	0	19922944	19	4882
2026-01-01 11:44:25.20	224.39	19.30	-29.3	-31.6	12.3	1.80e-04	0	43	0	23068672	19	4679
2026-01-01 11:44:26.21	224.58	19.38	-29.4	-31.9	12.1	3.24e-04	0	43	0	26214400	19	4776
2026-01-01 11:44:27.20	224.76	19.47	-29.1	-31.1	12.6	1.27e-04	0	43	0	29360128	19	4520
2026-01-01 11:44:28.20	224.95	19.55	-28.8	-30.2	13.1	4.73e-05	0	43	0	32505856	19	4264
2026-01-01 11:44:29.20	225.13	19.64	-28.5	-30.1	13.4	1.29e-05	0	43	0	35651584	18	4336
2026-01-01 11:44:30.19	225.32	19.72	-28.4	-29.8	13.7	7.00e-07	0	43	0	38797312	18	4227
2026-01-01 11:44:31.20	225.51	19.81	-28.2	-29.9	13.9	1.14e-05	0	43	0	41943040	17	4369
2026-01-01 11:44:32.20	225.69	19.89	-28.1	-29.7	14.0	5.30e-06	0	43	0	45088768	17	4311
2026-01-01 11:44:33.19	225.88	19.98	-27.7	-29.2	14.6	1.50e-06	0	43	0	48234496	16	4264
2026-01-01 11:44:34.19	226.07	20.07	-27.3	-28.4	15.1	0.00e+00	0	43	0	51380224	16	4043
2026-01-01 11:44:35.18	226.26	20.15	-26.9	-27.9	15.5	0.00e+00	0	43	0	54525952	15	4027
2026-01-01 11:44:36.18	226.46	20.24	-26.8	-28.1	15.7	0.00e+00	0	43	0	57671680	14	4189
2026-01-01 11:44:37.18	226.65	20.32	-26.8	-28.2	15.6	8.30e-06	0	43	0	60817408	14	4228
2026-01-01 11:44:38.18	226.84	20.41	-26.7	-28.0	15.7	0.00e+00	0	43	0	63963136	14	4152
2026-01-01 11:44:39.17	227.04	20.49	-26.8	-28.0	15.7	0.00e+00	0	43	0	67108864	14	4177
2026-01-01 11:44:40.17	227.24	20.58	-26.6	-27.7	15.9	1.06e-05	0	43	0	70254592	14	4077
2026-01-01 11:44:41.16	227.43	20.66	-26.6	-27.6	15.9	0.00e+00	0	43	0	73400320	14	4067
2026-01-01 11:44:42.16	227.63	20.75	-26.6	-27.7	15.9	0.00e+00	0	43	0	76546048	14	4078
2026-01-01 11:44:43.16	227.83	20.83	-26.5	-27.5	16.0	0.00e+00	0	43	0	79691776	14	4045
2026-01-01 11:44:44.15	228.03	20.92	-26.6	-27.6	16.0	0.00e+00	0	43	0	82837504	14	4059
2026-01-01 11:44:45.15	228.23	21.00	-26.7	-27.9	15.8	0.00e+00	0	43	0	85983232	14	4134
2026-01-01 11:44:46.15	228.44	21.09	-26.7	-27.8	15.8	6.10e-06	0	43	0	89128960	14	4114
2026-01-01 11:44:47.15	228.64	21.17	-26.8	-28.2	15.6	0.00e+00	0	43	0	92274688	14	4230
2026-01-01 11:44:48.14	228.84	21.26	-26.7	-27.9	15.8	0.00e+00	0	43	0	95420416	14	4139
2026-01-01 11:44:49.14	229.05	21.34	-26.6	-27.7	15.9	0.00e+00	0	43	0	98566144	14	4097
2026-01-01 11:44:50.12	229.25	21.42	-26.6	-27.7	15.9	0.00e+00	0	43	0	101711872	14	4088
2026-01-01 11:44:51.11	229.46	21.51	-26.6	-27.6	16.0	0.00e+00	0	43	0	103809024	14	4049
2026-01-01 11:44:52.11	229.67	21.59	-26.6	-27.6	16.0	0.00e+00	0	43	0	106954752	14	4054
2026-01-01 11:44:53.11	229.88	21.68	-26.7	-28.0	15.8	0.00e+00	0	43	0	110100480	14	4150
2026-01-01 11:44:54.10	230.09	21.76	-26.8	-28.1	15.7	0.00e+00	0	43	0	113246208	14	4192
2026-01-01 11:44:55.09	230.30	21.84	-26.6	-27.7	15.9	3.00e-06	0	43	0	116391936	14	4091
2026-01-01 11:44:56.09	230.52	21.93	-26.6	-27.7	16.0	0.00e+00	0	43	0	119537664	14	4072
2026-01-01 11:44:57.09	230.73	22.01	-26.5	-27.6	16.0	0.00e+00	0	43	0	122683392	14	4045
2026-01-01 11:44:58.08	230.95	22.09	-26.6	-27.7	16.0	0.00e+00	0	43	0	125829120	14	4070
2026-01-01 11:44:59.09	231.17	22.18	-26.7	-28.0	15.8	0.00e+00	0	43	0	128974848	14	4161
2026-01-01 11:45:00.07	231.38	22.26	-26.5	-27.6	16.1	0.00e+00	0	43	0	132120576	14	4047
2026-01-01 11:45:01.07	231.60	22.34	-26.8	-28.1	15.7	0.00e+00	0	43	0	135266304	14	4192
2026-01-01 11:45:02.06	231.82	22.43	-26.5	-27.4	16.1	0.00e+00	0	43	0	138412032	14	3992
2026-01-01 11:45:03.06	232.05	22.51	-26.3	-27.1	16.3	0.00e+00	0	43	0	141557760	14	3924
2026-01-01 11:45:04.05	232.27	22.59	-26.2	-27.3	16.4	0.00e+00	0	43	0	144703488	13	4084
2026-01-01 11:45:05.05	232.49	22.67	-26.3	-27.6	16.3	0.00e+00	0	43	0	147849216	13	4151
2026-01-01 11:45:06.04	232.72	22.76	-26.3	-27.5	16.4	0.00e+00	0	43	0	150994944	13	4141
2026-01-01 11:45:07.04	232.94	22.84	-26.3	-27.4	16.4	0.00e+00	0	43	0	154140672	13	4113
2026-01-01 11:45:08.04	233.17	22.92	-26.3	-27.5	16.3	0.00e+00	0	43	0	157286400	13	4142
2026-01-01 11:45:09.04	233.40	23.00	-26.3	-27.5	16.3	0.00e+00	0	43	0	160432128	13	4140
2026-01-01 11:45:10.04	233.63	23.08	-26.4	-27.7	16.3	0.00e+00	0	43	0	163577856	13	4179
2026-01-01 11:45:11.03	233.86	23.16	-26.3	-27.5	16.3	0.00e+00	0	43	0	166723584	13	4142
2026-01-01 11:45:12.03	234.09	23.25	-26.4	-27.7	16.3	0.00e+00	0	43	0	169869312	13	4177
2026-01-01 11:45:13.02	234.33	23.33	-26.3	-27.5	16.4	0.00e+00	0	43	0	173015040	13	4124
2026-01-01 11:45:14.01	234.56	23.41	-26.2	-27.3	16.5	0.00e+00	0	43	0	176160768	13	4069
2026-01-01 11:45:15.01	234.79	23.49	-26.3	-27.6	16.3	0.00e+00	0	43	0	179306496	13	4146
2026-01-01 11:45:16.00	235.03	23.57	-26.1	-27.1	16.6	0.00e+00	0	43	0	182452224	13	4029
2026-01-01 11:45:17.00	235.27	23.65	-26.1	-27.1	16.6	0.00e+00	0	43	0	185597952	13	4022
2026-01-01 11:45:17.99	235.51	23.73	-26.2	-27.3	16.5	0.00e+00	0	43	0	188743680	13	4073
2026-01-01 11:45:18.99	235.75	23.81	-26.2	-27.1	16.6	0.00e+00	0	43	0	190840832	13	4037
2026-01-01 11:45:19.97	235.99	23.88	-26.2	-27.3	16.5	0.00e+00	0	43	0	193986560	13	4082
2026-01-01 11:45:20.97	236.23	23.96	-26.4	-27.8	16.2	0.00e+00	0	43	0	197132288	13	4213
2026-01-01 11:45:21.97	236.47	24.04	-26.4	-27.8	16.2	0.00e+00	0	43	0	200278016	13	4204
2026-01-01 11:45:22.96	236.72	24.12	-26.6	-28.2	16.0	0.00e+00	0	43	0	203423744	13	4317
2026-01-01 11:45:23.96	236.96	24.20	-26.5	-28.0	16.1	0.00e+00	0	43	0	206569472	13	4268
2026-01-01 11:45:24.96	237.21	24.27	-26.7	-28.3	15.9	0.00e+00	0	43	0	209715200	13	4360
2026-01-01 11:45:25.94	237.46	24.35	-26.5	-27.9	16.1	0.00e+00	0	43	0	212860928	13	4248
2026-01-01 11:45:26.94	237.71	24.43	-26.6	-28.1	16.1	0.00e+00	0	43	0	216006656	13	4290
2026-01-01 11:45:27.94	237.96	24.50	-26.6	-28.2	16.0	0.00e+00	0	43	0	219152384	13	4304
2026-01-01 11:45:28.94	238.21	24.58	-26.7	-28.4	15.9	0.00e+00	0	43	0	222298112	13	4362
2026-01-01 11:45:29.93	238.47	24.66	-26.6	-28.2	16.0	0.00e+00	0	43	0	225443840	13	4327
2026-01-01 11:45:30.92	238.72	24.73	-26.7	-28.4	15.9	0.00e+00	0	43	0	228589568	13	4380
2026-01-01 11:45:31.92	238.98	24.81	-26.9	-28.8	15.7	0.00e+00	0	43	0	231735296	13	4497
2026-01-01 11:45:32.91	239.23	24.88	-27.0	-28.6	15.6	0.00e+00	0	43	0	234881024	14	4310
2026-01-01 11:45:33.92	239.49	24.96	-27.3	-29.1	15.3	0.00e+00	0	43	0	238026752	14	4471
2026-01-01 11:45:34.91	239.75	25.03	-27.1	-28.7	15.5	0.00e+00	0	43	0	241172480	14	4349
2026-01-01 11:45:35.92	240.01	25.10	-27.0	-28.5	15.6	0.00e+00	0	43	0	244318208	14	4289
2026-01-01 11:45:36.91	240.27	25.18	-26.9	-28.4	15.6	0.00e+00	0	43	0	247463936	14	4260
2026-01-01 11:45:37.91	240.54	25.25	-27.0	-28.6	15.6	0.00e+00	0	43	0	250609664	14	4324
2026-01-01 11:45:38.91	240.80	25.32	-27.0	-28.6	15.6	0.00e+00	0	43	0	253755392	14	4312
2026-01-01 11:45:39.91	241.07	25.39	-27.3	-29.3	15.2	7.00e-07	0	43	0	256901120	14	4502
2026-01-01 11:45:40.91	241.34	25.47	-27.1	-28.8	15.4	0.00e+00	0	43	0	260046848	14	4376
2026-01-01 11:45:41.91	241.61	25.54	-27.0	-28.5	15.6	0.00e+00	0	43	0	263192576	14	4284
2026-01-01 11:45:42.91	241.88	25.61	-27.0	-28.6	15.5	0.00e+00	0	43	0	266338304	14	4310
2026-01-01 11:45:43.91	242.15	25.68	-27.3	-29.1	15.3	0.00e+00	0	43	0	269484032	14	4474
2026-01-01 11:45:44.91	242.42	25.75	-27.3	-29.2	15.2	0.00e+00	0	43	0	272629760	14	4492
2026-01-01 11:45:45.91	242.69	25.82	-27.4	-29.4	15.1	0.00e+00	0	43	0	275775488	14	4544
2026-01-01 11:45:46.90	242.96	25.88	-27.2	-28.9	15.4	0.00e+00	0	43	0	278921216	14	4413
2026-01-01 11:45:47.90	243.24	25.95	-27.0	-28.5	15.7	0.00e+00	0	43	0	282066944	14	4274
2026-01-01 11:45:48.89	243.51	26.02	-26.9	-28.3	15.7	0.00e+00	0	43	0	285212672	14	4232
2026-01-01 11:45:49.88	243.79	26.09	-26.9	-28.3	15.7	0.00e+00	0	43	0	288358400	14	4225
2026-01-01 11:45:50.88	244.07	26.15	-27.1	-28.8	15.5	0.00e+00	0	43	0	291504128	14	4369
2026-01-01 11:45:51.88	244.35	26.22	-27.0	-28.6	15.6	0.00e+00	0	43	0	294649856	14	4307
2026-01-01 11:45:52.88	244.63	26.28	-27.0	-28.5	15.6	0.00e+00	0	43	0	297795584	14	4296
2026-01-01 11:45:53.89	244.92	26.35	-27.1	-28.8	15.5	0.00e+00	0	43	0	300941312	14	4367
2026-01-01 11:45:54.89	245.20	26.41	-27.1	-28.7	15.5	0.00e+00	0	43	0	303038464	14	4352
2026-01-01 11:45:55.89	245.48	26.48	-27.1	-28.7	15.5	0.00e+00	0	43	0	306184192	14	4338
2026-01-01 11:45:56.89	245.77	26.54	-27.1	-28.7	15.5	0.00e+00	0	43	0	309329920	14	4347
2026-01-01 11:45:57.89	246.06	26.60	-26.9	-28.2	15.8	0.00e+00	0	43	0	312475648	14	4211
2026-01-01 11:45:58.89	246.34	26.67	-26.6	-27.6	16.2	0.00e+00	0	43	0	315621376	14	4049
2026-01-01 11:45:59.88	246.63	26.73	-26.5	-27.4	16.2	0.00e+00	0	43	0	318767104	14	4005
2026-01-01 11:46:00.87	246.92	26.79	-26.5	-27.4	16.3	0.00e+00	0	43	0	321912832	14	3986
2026-01-01 11:46:01.87	247.21	26.85	-26.6	-27.5	16.2	0.00e+00	0	43	0	325058560	14	4026
2026-01-01 11:46:02.87	247.50	26.91	-26.7	-27.9	16.0	0.00e+00	0	43	0	328204288	14	4115
2026-01-01 11:46:03.87	247.79	26.96	-26.8	-28.0	15.9	0.00e+00	0	43	0	331350016	14	4156
2026-01-01 11:46:04.86	248.09	27.02	-27.0	-28.4	15.7	0.00e+00	0	43	0	334495744	14	4264
2026-01-01 11:46:05.87	248.38	27.08	-26.8	-28.1	15.9	0.00e+00	0	43	0	337641472	14	4177
2026-01-01 11:46:06.86	248.68	27.14	-26.6	-27.7	16.1	0.00e+00	0	43	0	340787200	14	4058
2026-01-01 11:46:07.87	248.98	27.19	-26.6	-27.5	16.2	0.00e+00	0	43	0	343932928	14	4025
2026-01-01 11:46:08.87	249.28	27.25	-26.7	-27.8	16.0	7.60e-06	0	43	0	347078656	14	4097
2026-01-01 11:46:09.86	249.57	27.30	-26.6	-27.7	16.1	0.00e+00	0	43	0	350224384	14	4060
2026-01-01 11:46:10.86	249.87	27.36	-26.6	-27.7	16.1	0.00e+00	0	43	0	353370112	14	4077
2026-01-01 11:46:11.86	250.18	27.41	-26.7	-27.9	16.0	0.00e+00	0	43	0	356515840	14	4124
2026-01-01 11:46:12.86	250.48	27.46	-26.7	-27.9	16.0	0.00e+00	0	43	0	359661568	14	4125
2026-01-01 11:46:13.86	250.78	27.51	-26.8	-28.0	16.0	0.00e+00	0	43	0	362807296	14	4135
2026-01-01 11:46:14.85	251.08	27.56	-26.5	-27.5	16.2	7.60e-06	0	43	0	365953024	14	4015
2026-01-01 11:46:15.85	251.39	27.61	-26.5	-27.4	16.3	0.00e+00	0	43	0	369098752	14	4000
2026-01-01 11:46:16.85	251.70	27.66	-26.6	-27.7	16.1	0.00e+00	0	43	0	372244480	14	4069
2026-01-01 11:46:17.85	252.00	27.71	-26.7	-28.0	16.0	6.80e-06	0	43	0	375390208	14	4140
2026-01-01 11:46:18.85	252.31	27.76	-27.0	-28.5	15.7	0.00e+00	0	43	0	378535936	14	4277
2026-01-01 11:46:19.84	252.62	27.81	-26.9	-28.3	15.8	0.00e+00	0	43	0	381681664	14	4243
2026-01-01 11:46:20.83	252.92	27.85	-26.8	-28.2	15.9	1.06e-05	0	43	0	384827392	14	4199
2026-01-01 11:46:21.83	253.23	27.90	-26.9	-28.2	15.9	0.00e+00	0	43	0	387973120	14	4216
2026-01-01 11:46:22.84	253.55	27.94	-27.0	-28.6	15.7	0.00e+00	0	43	0	391118848	14	4301
2026-01-01 11:46:23.83	253.86	27.98	-26.8	-28.1	15.8	8.30e-06	0	43	0	394264576	14	4184
2026-01-01 11:46:24.83	254.17	28.03	-26.9	-28.2	15.9	0.00e+00	0	43	0	397410304	14	4202
2026-01-01 11:46:25.84	254.49	28.07	-26.9	-28.4	15.8	0.00e+00	0	43	0	400556032	14	4243
2026-01-01 11:46:26.84	254.80	28.11	-27.0	-28.5	15.7	5.30e-06	0	43	0	403701760	14	4292
2026-01-01 11:46:27.84	255.12	28.15	-27.0	-28.6	15.6	0.00e+00	0	43	0	406847488	14	4319
2026-01-01 11:46:28.84	255.44	28.19	-27.0	-28.6	15.6	0.00e+00	0	43	0	409993216	14	4306
2026-01-01 11:46:29.83	255.75	28.23	-27.1	-28.7	15.6	0.00e+00	0	43	0	413138944	14	4346
2026-01-01 11:46:30.83	256.07	28.27	-27.3	-29.1	15.4	0.00e+00	0	43	0	416284672	14	4459
2026-01-01 11:46:31.83	256.39	28.30	-27.2	-29.0	15.5	0.00e+00	0	43	0	419430400	14	4424
2026-01-01 11:46:32.83	256.70	28.34	-27.0	-28.6	15.7	2.20e-06	0	43	0	422576128	14	4301
2026-01-01 11:46:33.83	257.02	28.37	-27.0	-28.4	15.8	0.00e+00	0	43	0	425721856	14	4262
2026-01-01 11:46:34.82	257.34	28.41	-26.9	-28.3	15.8	0.00e+00	0	43	0	428867584	14	4231
2026-01-01 11:46:35.82	257.66	28.44	-27.0	-28.5	15.7	0.00e+00	0	43	0	432013312	14	4291
2026-01-01 11:46:36.81	257.98	28.47	-26.8	-28.1	15.9	0.00e+00	0	43	0	434110464	14	4181
2026-01-01 11:46:37.81	258.30	28.51	-26.9	-28.4	15.8	0.00e+00	0	43	0	437256192	14	4252
2026-01-01 11:46:38.81	258.63	28.54	-27.0	-28.5	15.7	0.00e+00	0	43	0	440401920	14	4271
2026-01-01 11:46:39.80	258.95	28.56	-27.1	-28.8	15.5	0.00e+00	0	43	0	443547648	14	4379
2026-01-01 11:46:40.79	259.27	28.59	-27.1	-28.8	15.5	0.00e+00	0	43	0	446693376	14	4372
2026-01-01 11:46:41.80	259.60	28.62	-27.2	-28.9	15.5	4.50e-06	0	43	0	449839104	14	4392
2026-01-01 11:46:42.80	259.92	28.65	-27.1	-28.7	15.6	0.00e+00	0	43	0	452984832	14	4331
2026-01-01 11:46:43.79	260.25	28.67	-27.0	-28.5	15.7	0.00e+00	0	43	0	456130560	14	4278
2026-01-01 11:46:44.79	260.57	28.70	-27.1	-28.8	15.5	0.00e+00	0	43	0	459276288	14	4358
2026-01-01 11:46:45.79	260.90	28.72	-27.1	-28.8	15.5	0.00e+00	0	43	0	462422016	14	4357
2026-01-01 11:46:46.79	261.23	28.74	-27.0	-28.6	15.6	0.00e+00	0	43	0	465567744	14	4312
2026-01-01 11:46:47.78	261.55	28.77	-26.9	-28.4	15.8	0.00e+00	0	43	0	468713472	14	4246
2026-01-01 11:46:48.78	261.88	28.79	-27.0	-28.4	15.8	0.00e+00	0	43	0	471859200	14	4267
2026-01-01 11:46:49.78	262.21	28.81	-27.1	-28.8	15.5	0.00e+00	0	43	0	475004928	14	4371
2026-01-01 11:46:50.77	262.53	28.83	-27.0	-28.5	15.7	0.00e+00	0	43	0	478150656	14	4280
2026-01-01 11:46:51.76	262.86	28.84	-26.9	-28.3	15.8	0.00e+00	0	43	0	481296384	14	4239
2026-01-01 11:46:52.76	263.19	28.86	-27.0	-28.4	15.8	0.00e+00	0	43	0	484442112	14	4259
2026-01-01 11:46:53.75	263.51	28.88	-27.0	-28.5	15.7	0.00e+00	0	43	0	487587840	14	4290
2026-01-01 11:46:54.75	263.85	28.89	-27.0	-28.6	15.6	0.00e+00	0	43	0	490733568	14	4307
2026-01-01 11:46:55.75	264.18	28.90	-26.9	-28.4	15.8	0.00e+00	0	43	0	493879296	14	4245
2026-01-01 11:46:56.75	264.51	28.92	-26.8	-28.2	15.9	0.00e+00	0	43	0	497025024	14	4188
2026-01-01 11:46:57.75	264.84	28.93	-27.0	-28.4	15.8	0.00e+00	0	43	0	500170752	14	4256
2026-01-01 11:46:58.75	265.17	28.94	-27.0	-28.4	15.8	0.00e+00	0	43	0	503316480	14	4263
2026-01-01 11:46:59.75	265.50	28.95	-27.1	-28.7	15.6	0.00e+00	0	43	0	506462208	14	4342
2026-01-01 11:47:00.74	265.83	28.96	-27.1	-28.9	15.5	0.00e+00	0	43	0	509607936	14	4383
2026-01-01 11:47:01.75	266.16	28.97	-27.1	-28.7	15.6	0.00e+00	0	43	0	512753664	14	4349
2026-01-01 11:47:02.76	266.50	28.97	-27.0	-28.6	15.6	0.00e+00	0	43	0	515899392	14	4324
2026-01-01 11:47:03.75	266.83	28.98	-27.2	-29.0	15.4	0.00e+00	0	43	0	519045120	14	4422
2026-01-01 11:47:04.74	267.16	28.98	-27.1	-28.8	15.6	0.00e+00	0	43	0	522190848	14	4358
2026-01-01 11:47:05.73	267.49	28.99	-26.9	-28.4	15.7	0.00e+00	0	43	0	525336576	14	4244
2026-01-01 11:47:06.73	267.82	28.99	-26.9	-28.3	15.8	0.00e+00	0	43	0	528482304	14	4221
2026-01-01 11:47:07.72	268.15	28.99	-26.9	-28.3	15.8	0.00e+00	0	43	0	531628032	14	4230
2026-01-01 11:47:08.71	268.48	28.99	-27.0	-28.6	15.7	0.00e+00	0	43	0	534773760	14	4298
2026-01-01 11:47:09.71	268.81	28.99	-26.9	-28.4	15.8	0.00e+00	0	43	0	537919488	14	4247
2026-01-01 11:47:10.70	269.14	28.99	-26.9	-28.2	15.9	0.00e+00	0	43	0	540016640	14	4198
2026-01-01 11:47:11.70	269.47	28.99	-27.0	-28.5	15.7	0.00e+00	0	43	0	543162368	14	4281
2026-01-01 11:47:12.69	269.80	28.98	-27.0	-28.5	15.7	0.00e+00	0	43	0	546308096	14	4290
2026-01-01 11:47:13.68	270.13	28.98	-27.0	-28.5	15.7	0.00e+00	0	43	0	549453824	14	4284
2026-01-01 11:47:14.69	270.46	28.97	-27.0	-28.6	15.6	0.00e+00	0	43	0	552599552	14	4306
2026-01-01 11:47:15.68	270.79	28.97	-26.9	-28.4	15.8	0.00e+00	0	43	0	555745280	14	4248
2026-01-01 11:47:16.69	271.13	28.96	-27.0	-28.4	15.7	0.00e+00	0	43	0	558891008	14	4266
2026-01-01 11:47:17.70	271.46	28.95	-27.0	-28.6	15.6	0.00e+00	0	43	0	562036736	14	4304
2026-01-01 11:47:18.70	271.79	28.94	-27.1	-28.7	15.6	0.00e+00	0	43	0	565182464	14	4354
2026-01-01 11:47:19.70	272.12	28.93	-27.1	-28.7	15.6	0.00e+00	0	43	0	568328192	14	4332
2026-01-01 11:47:20.69	272.45	28.92	-27.1	-28.8	15.5	0.00e+00	0	43	0	571473920	14	4366
2026-01-01 11:47:21.68	272.78	28.91	-27.3	-29.2	15.3	0.00e+00	0	44	0	574619648	14	4486
2026-01-01 11:47:22.68	273.11	28.89	-27.2	-29.1	15.4	0.00e+00	0	43	0	577765376	14	4445
2026-01-01 11:47:23.67	273.43	28.88	-27.1	-28.7	15.6	0.00e+00	0	43	0	580911104	14	4332
2026-01-01 11:47:24.66	273.76	28.86	-27.0	-28.5	15.8	0.00e+00	0	43	0	584056832	14	4277
2026-01-01 11:47:25.65	274.09	28.85	-26.9	-28.4	15.8	0.00e+00	0	43	0	587202560	14	4250
2026-01-01 11:47:26.64	274.41	28.83	-27.0	-28.6	15.6	0.00e+00	0	43	0	590348288	14	4307
2026-01-01 11:47:27.63	274.74	28.81	-27.0	-28.5	15.7	0.00e+00	0	43	0	593494016	14	4269
2026-01-01 11:47:28.63	275.07	28.79	-27.0	-28.6	15.7	0.00e+00	0	43	0	596639744	14	4305
2026-01-01 11:47:29.63	275.39	28.77	-27.0	-28.4	15.7	0.00e+00	0	43	0	599785472	14	4265
2026-01-01 11:47:30.62	275.72	28.75	-26.8	-28.1	15.9	0.00e+00	0	43	0	602931200	14	4170
2026-01-01 11:47:31.62	276.04	28.73	-26.8	-28.2	15.9	0.00e+00	0	43	0	606076928	14	4190
2026-01-01 11:47:32.61	276.37	28.70	-26.9	-28.3	15.8	0.00e+00	0	43	0	609222656	14	4240
2026-01-01 11:47:33.62	276.70	28.68	-26.9	-28.4	15.8	0.00e+00	0	43	0	612368384	14	4249
2026-01-01 11:47:34.62	277.02	28.65	-27.0	-28.6	15.6	0.00e+00	0	43	0	615514112	14	4306
2026-01-01 11:47:35.61	277.34	28.63	-27.0	-28.5	15.7	0.00e+00	0	43	0	618659840	14	4280
2026-01-01 11:47:36.61	277.67	28.60	-26.8	-28.0	16.0	0.00e+00	0	43	0	621805568	14	4162
2026-01-01 11:47:37.60	277.99	28.57	-26.7	-27.8	16.1	0.00e+00	0	43	0	624951296	14	4085
2026-01-01 11:47:38.59	278.31	28.54	-26.7	-27.9	16.0	0.00e+00	0	43	0	628097024	14	4118
2026-01-01 11:47:39.58	278.63	28.51	-26.7	-27.9	16.1	0.00e+00	0	43	0	631242752	14	4112
2026-01-01 11:47:40.58	278.95	28.48	-26.7	-27.9	16.0	0.00e+00	0	43	0	633339904	14	4130
2026-01-01 11:47:41.58	279.27	28.45	-26.6	-27.7	16.1	0.00e+00	0	43	0	636485632	14	4067
2026-01-01 11:47:42.57	279.59	28.42	-26.7	-27.9	16.1	0.00e+00	0	43	0	639631360	14	4111
2026-01-01 11:47:43.57	279.91	28.38	-26.8	-28.0	16.0	0.00e+00	0	43	0	642777088	14	4143
2026-01-01 11:47:44.57	280.23	28.35	-26.8	-28.0	16.0	0.00e+00	0	43	0	645922816	14	4144
2026-01-01 11:47:45.56	280.55	28.31	-26.7	-27.9	16.0	0.00e+00	0	43	0	649068544	14	4122
2026-01-01 11:47:46.56	280.86	28.28	-26.7	-27.8	16.1	0.00e+00	0	43	0	652214272	14	4100
2026-01-01 11:47:47.57	281.18	28.24	-26.8	-28.0	16.0	0.00e+00	0	43	0	655360000	14	4142
2026-01-01 11:47:48.56	281.50	28.20	-26.7	-27.8	16.0	0.00e+00	0	43	0	658505728	14	4098
2026-01-01 11:47:49.56	281.81	28.16	-26.7	-27.8	16.1	0.00e+00	0	43	0	661651456	14	4098
2026-01-01 11:47:50.55	282.13	28.12	-26.7	-27.9	16.0	0.00e+00	0	43	0	664797184	14	4127
2026-01-01 11:47:51.55	282.44	28.08	-26.9	-28.2	15.9	0.00e+00	0	43	0	667942912	14	4201
2026-01-01 11:47:52.55	282.75	28.04	-26.9	-28.2	15.8	0.00e+00	0	43	0	671088640	14	4215
2026-01-01 11:47:53.56	283.07	28.00	-26.9	-28.2	15.9	0.00e+00	0	43	0	674234368	14	4198
2026-01-01 11:47:54.55	283.38	27.95	-26.8	-28.1	15.9	0.00e+00	0	43	0	677380096	14	4190
2026-01-01 11:47:55.55	283.69	27.91	-26.8	-28.0	16.0	0.00e+00	0	43	0	680525824	14	4147
2026-01-01 11:47:56.54	284.00	27.86	-26.7	-27.9	16.1	0.00e+00	0	43	0	683671552	14	4113
2026-01-01 11:47:57.53	284.30	27.82	-26.7	-27.9	16.1	0.00e+00	0	43	0	686817280	14	4115
2026-01-01 11:47:58.53	284.61	27.77	-26.8	-28.1	15.9	0.00e+00	0	43	0	689963008	14	4172
2026-01-01 11:47:59.53	284.92	27.72	-26.9	-28.4	15.7	0.00e+00	0	43	0	693108736	14	4261
2026-01-01 11:48:00.52	285.22	27.68	-27.0	-28.5	15.7	0.00e+00	0	43	0	696254464	14	4288
2026-01-01 11:48:01.51	285.52	27.63	-27.0	-28.6	15.7	7.00e-07	0	43	0	699400192	14	4311
2026-01-01 11:48:02.51	285.83	27.58	-27.0	-28.6	15.7	0.00e+00	0	43	0	702545920	14	4306
2026-01-01 11:48:03.50	286.13	27.53	-27.0	-28.5	15.7	0.00e+00	0	44	0	705691648	14	4287
2026-01-01 11:48:04.51	286.43	27.48	-27.1	-28.7	15.6	0.00e+00	0	43	0	708837376	14	4336
2026-01-01 11:48:05.51	286.74	27.42	-27.0	-28.7	15.6	0.00e+00	0	43	0	711983104	14	4332
2026-01-01 11:48:06.51	287.04	27.37	-27.0	-28.6	15.6	0.00e+00	0	43	0	715128832	14	4323
2026-01-01 11:48:07.50	287.33	27.32	-27.0	-28.5	15.7	0.00e+00	0	43	0	718274560	14	4280
2026-01-01 11:48:08.50	287.63	27.26	-27.0	-28.5	15.7	0.00e+00	0	44	0	721420288	14	4299
2026-01-01 11:48:09.50	287.93	27.21	-27.0	-28.5	15.7	0.00e+00	0	43	0	724566016	14	4299
2026-01-01 11:48:10.49	288.22	27.15	-27.0	-28.5	15.7	0.00e+00	0	43	0	727711744	14	4291
2026-01-01 11:48:11.50	288.52	27.10	-27.0	-28.6	15.6	0.00e+00	0	43	0	730857472	14	4310
2026-01-01 11:48:12.50	288.82	27.04	-26.9	-28.4	15.7	0.00e+00	0	43	0	734003200	14	4253
2026-01-01 11:48:13.49	289.11	26.98	-27.0	-28.4	15.7	0.00e+00	0	43	0	737148928	14	4272
2026-01-01 11:48:14.49	289.40	26.93	-27.0	-28.5	15.7	0.00e+00	0	43	0	740294656	14	4288
2026-01-01 11:48:15.48	289.69	26.87	-27.0	-28.6	15.6	0.00e+00	0	43	0	742391808	14	4321
2026-01-01 11:48:16.47	289.98	26.81	-27.1	-28.8	15.5	0.00e+00	0	44	0	745537536	14	4378
2026-01-01 11:48:17.47	290.27	26.75	-27.1	-28.7	15.6	0.00e+00	0	43	0	748683264	14	4325
2026-01-01 11:48:18.47	290.56	26.69	-26.9	-28.3	15.8	0.00e+00	0	43	0	751828992	14	4218
2026-01-01 11:48:19.46	290.84	26.63	-26.9	-28.2	15.8	0.00e+00	0	43	0	754974720	14	4211
2026-01-01 11:48:20.45	291.12	26.57	-26.9	-28.2	15.8	0.00e+00	0	43	0	758120448	14	4204
2026-01-01 11:48:21.46	291.41	26.50	-26.8	-28.1	15.9	0.00e+00	0	43	0	761266176	14	4166
2026-01-01 11:48:22.46	291.70	26.44	-26.8	-28.1	15.9	7.00e-07	0	43	0	764411904	14	4169
2026-01-01 11:48:23.47	291.98	26.37	-26.9	-28.4	15.7	0.00e+00	0	43	0	767557632	14	4245
2026-01-01 11:48:24.47	292.26	26.31	-27.0	-28.4	15.7	0.00e+00	0	43	0	770703360	14	4249
2026-01-01 11:48:25.46	292.54	26.25	-26.6	-27.7	16.1	0.00e+00	0	43	0	773849088	14	4056
2026-01-01 11:48:26.46	292.82	26.18	-26.4	-27.1	16.4	0.00e+00	0	43	0	776994816	14	3916
2026-01-01 11:48:27.46	293.10	26.11	-26.2	-27.2	16.6	0.00e+00	0	43	0	780140544	13	4057
2026-01-01 11:48:28.45	293.37	26.05	-26.3	-27.4	16.5	0.00e+00	0	43	0	783286272	13	4091
2026-01-01 11:48:29.45	293.65	25.98	-26.2	-27.3	16.5	0.00e+00	0	43	0	786432000	13	4084
2026-01-01 11:48:30.45	293.92	25.91	-26.3	-27.4	16.5	0.00e+00	0	43	0	789577728	13	4097
2026-01-01 11:48:31.45	294.20	25.84	-26.4	-27.7	16.3	0.00e+00	0	43	0	792723456	13	4168
2026-01-01 11:48:32.44	294.47	25.78	-26.4	-27.7	16.3	0.00e+00	0	43	0	795869184	13	4167
2026-01-01 11:48:33.43	294.74	25.71	-26.4	-27.6	16.4	0.00e+00	0	43	0	799014912	13	4144
2026-01-01 11:48:34.43	295.01	25.64	-26.3	-27.6	16.4	0.00e+00	0	43	0	802160640	13	4139
2026-01-01 11:48:35.42	295.27	25.57	-26.3	-27.5	16.4	0.00e+00	0	43	0	805306368	13	4130
2026-01-01 11:48:36.42	295.54	25.50	-26.4	-27.6	16.4	0.00e+00	0	43	0	808452096	13	4146
2026-01-01 11:48:37.42	295.81	25.43	-26.4	-27.6	16.4	0.00e+00	0	43	0	811597824	13	4152
2026-01-01 11:48:38.41	296.07	25.36	-26.2	-27.2	16.6	0.00e+00	0	43	0	814743552	13	4058
2026-01-01 11:48:39.41	296.34	25.29	-26.2	-27.2	16.6	0.00e+00	0	43	0	817889280	13	4040
2026-01-01 11:48:40.41	296.60	25.21	-26.3	-27.4	16.5	0.00e+00	0	43	0	821035008	13	4097
2026-01-01 11:48:41.41	296.86	25.14	-26.3	-27.5	16.5	0.00e+00	0	43	0	824180736	13	4115
2026-01-01 11:48:42.41	297.12	25.07	-26.5	-27.9	16.3	0.00e+00	0	43	0	827326464	13	4227
2026-01-01 11:48:43.41	297.38	24.99	-26.7	-28.2	16.1	0.00e+00	0	43	0	830472192	13	4324
2026-01-01 11:48:44.40	297.64	24.92	-26.7	-28.4	16.0	0.00e+00	0	43	0	833617920	13	4357
2026-01-01 11:48:45.40	297.89	24.85	-26.8	-28.5	15.9	0.00e+00	0	43	0	836763648	13	4393
2026-01-01 11:48:46.40	298.15	24.77	-26.8	-28.7	15.8	0.00e+00	0	43	0	839909376	13	4445
2026-01-01 11:48:47.39	298.40	24.70	-26.8	-28.6	15.8	0.00e+00	0	43	0	843055104	13	4427
2026-01-01 11:48:48.39	298.66	24.62	-26.8	-28.5	15.9	0.00e+00	0	43	0	846200832	13	4404
2026-01-01 11:48:49.39	298.91	24.55	-26.7	-28.4	15.9	0.00e+00	0	43	0	849346560	13	4379
2026-01-01 11:48:50.38	299.16	24.47	-26.6	-28.2	16.1	0.00e+00	0	43	0	852492288	13	4303
2026-01-01 11:48:51.39	299.41	24.39	-26.6	-28.2	16.1	0.00e+00	0	43	0	854589440	13	4303
2026-01-01 11:48:52.38	299.66	24.32	-26.5	-28.0	16.2	0.00e+00	0	43	0	857735168	13	4251
2026-01-01 11:48:53.38	299.90	24.24	-26.6	-28.2	16.1	0.00e+00	0	43	0	860880896	13	4306
2026-01-01 11:48:54.39	300.15	24.16	-26.8	-28.5	15.9	0.00e+00	0	43	0	864026624	13	4410
2026-01-01 11:48:55.39	300.40	24.08	-26.9	-28.9	15.7	0.00e+00	0	43	0	867172352	13	4505
2026-01-01 11:48:56.38	300.64	24.01	-27.0	-29.0	15.6	0.00e+00	0	43	0	870318080	13	4550
2026-01-01 11:48:57.38	300.88	23.93	-27.1	-28.7	15.5	0.00e+00	0	43	0	873463808	14	4353
2026-01-01 11:48:58.37	301.12	23.85	-27.0	-28.6	15.6	0.00e+00	0	44	0	876609536	14	4301
2026-01-01 11:48:59.37	301.36	23.77	-26.9	-28.4	15.7	0.00e+00	0	43	0	879755264	14	4272
2026-01-01 11:49:00.36	301.60	23.69	-26.8	-28.2	15.8	0.00e+00	0	43	0	882900992	14	4204
2026-01-01 11:49:01.37	301.84	23.61	-26.7	-27.9	16.0	0.00e+00	0	43	0	886046720	14	4117
2026-01-01 11:49:02.38	302.08	23.53	-26.6	-27.6	16.1	0.00e+00	0	43	0	889192448	14	4050
2026-01-01 11:49:03.39	302.32	23.45	-26.6	-27.6	16.1	0.00e+00	0	43	0	892338176	14	4043
2026-01-01 11:49:04.39	302.55	23.37	-26.6	-27.6	16.1	0.00e+00	0	43	0	895483904	14	4047
2026-01-01 11:49:05.39	302.79	23.29	-26.7	-27.9	15.9	0.00e+00	0	43	0	898629632	14	4118
2026-01-01 11:49:06.39	303.02	23.21	-26.6	-27.7	16.0	0.00e+00	0	43	0	901775360	14	4070
2026-01-01 11:49:07.40	303.25	23.13	-26.7	-27.9	16.0	0.00e+00	0	43	0	904921088	14	4120
2026-01-01 11:49:08.39	303.48	23.05	-26.8	-28.1	15.8	0.00e+00	0	43	0	908066816	14	4175
2026-01-01 11:49:09.40	303.71	22.97	-26.8	-28.0	15.9	0.00e+00	0	44	0	911212544	14	4159
2026-01-01 11:49:10.40	303.94	22.89	-26.8	-28.1	15.8	0.00e+00	0	43	0	914358272	14	4186
2026-01-01 11:49:11.41	304.17	22.80	-26.7	-28.0	15.9	0.00e+00	0	43	0	917504000	14	4144
2026-01-01 11:49:12.41	304.39	22.72	-26.7	-27.8	16.0	0.00e+00	0	43	0	920649728	14	4098
2026-01-01 11:49:13.42	304.62	22.64	-26.6	-27.8	16.0	0.00e+00	0	43	0	923795456	14	4088
2026-01-01 11:49:14.41	304.84	22.56	-26.7	-27.8	15.9	0.00e+00	0	43	0	926941184	14	4106
2026-01-01 11:49:15.41	305.06	22.47	-26.7	-27.8	16.0	0.00e+00	0	43	0	930086912	14	4101
2026-01-01 11:49:16.41	305.28	22.39	-26.7	-27.8	16.0	0.00e+00	0	43	0	933232640	14	4102
2026-01-01 11:49:17.41	305.50	22.31	-26.6	-27.6	16.1	0.00e+00	0	43	0	936378368	14	4052
2026-01-01 11:49:18.41	305.72	22.23	-26.6	-27.7	16.0	0.00e+00	0	43	0	939524096	14	4074
2026-01-01 11:49:19.41	305.94	22.14	-26.7	-27.8	15.9	0.00e+00	0	43	0	942669824	14	4110
2026-01-01 11:49:20.42	306.15	22.06	-26.8	-28.0	15.8	0.00e+00	0	43	0	945815552	14	4162
2026-01-01 11:49:21.42	306.37	21.98	-26.8	-28.0	15.8	0.00e+00	0	43	0	948961280	14	4164
2026-01-01 11:49:22.42	306.58	21.89	-26.8	-28.2	15.7	0.00e+00	0	44	0	952107008	14	4212
2026-01-01 11:49:23.42	306.80	21.81	-26.8	-28.2	15.8	0.00e+00	0	43	0	955252736	14	4200
2026-01-01 11:49:24.42	307.01	21.73	-26.8	-28.1	15.8	0.00e+00	0	43	0	958398464	14	4185
2026-01-01 11:49:25.42	307.22	21.64	-26.7	-27.9	15.9	0.00e+00	0	43	0	961544192	14	4136
2026-01-01 11:49:26.43	307.43	21.56	-26.7	-27.8	16.0	0.00e+00	0	43	0	964689920	14	4094
2026-01-01 11:49:27.43	307.64	21.47	-26.5	-27.5	16.1	0.00e+00	0	43	0	967835648	14	4027
2026-01-01 11:49:28.43	307.84	21.39	-26.5	-27.5	16.1	0.00e+00	0	43	0	970981376	14	4021
2026-01-01 11:49:29.44	308.05	21.30	-26.5	-27.4	16.2	0.00e+00	0	43	0	974127104	14	4008
2026-01-01 11:49:30.44	308.26	21.22	-26.6	-27.6	16.0	0.00e+00	0	43	0	977272832	14	4050
2026-01-01 11:49:31.44	308.46	21.14	-26.4	-27.2	16.2	0.00e+00	0	43	0	980418560	14	3959
2026-01-01 11:49:32.45	308.67	21.05	-26.3	-27.1	16.3	0.00e+00	0	43	0	983564288	14	3918
2026-01-01 11:49:33.46	308.87	20.97	-26.3	-27.1	16.3	0.00e+00	0	43	0	986710016	14	3919
2026-01-01 11:49:34.46	309.07	20.88	-26.4	-27.2	16.3	0.00e+00	0	43	0	989855744	14	3948
2026-01-01 11:49:35.46	309.27	20.80	-26.5	-27.4	16.2	0.00e+00	0	43	0	993001472	14	3988
2026-01-01 11:49:36.46	309.47	20.71	-26.5	-27.4	16.2	0.00e+00	0	43	0	996147200	14	3997
2026-01-01 11:49:37.47	309.67	20.63	-26.5	-27.4	16.2	0.00e+00	0	44	0	999292928	14	3995
2026-01-01 11:49:38.47	309.86	20.54	-26.5	-27.5	16.1	0.00e+00	0	43	0	1002438656	14	4027
2026-01-01 11:49:39.48	310.06	20.46	-26.6	-27.6	16.0	0.00e+00	0	43	0	1005584384	14	4055
2026-01-01 11:49:40.48	310.25	20.37	-26.5	-27.5	16.1	0.00e+00	0	43	0	1008730112	14	4029
2026-01-01 11:49:41.48	310.45	20.29	-26.6	-27.7	16.0	0.00e+00	0	44	0	1011875840	14	4081
2026-01-01 11:49:42.49	310.64	20.20	-26.7	-27.8	15.9	0.00e+00	0	43	0	1015021568	14	4107
2026-01-01 11:49:43.48	310.83	20.12	-26.7	-27.9	15.9	0.00e+00	0	43	0	1018167296	14	4122
2026-01-01 11:49:44.49	311.02	20.03	-26.7	-27.9	15.8	0.00e+00	0	43	0	1021313024	14	4127
2026-01-01 11:49:45.49	311.21	19.95	-26.7	-28.0	15.8	0.00e+00	0	43	0	1024458752	14	4145
2026-01-01 11:49:46.49	311.40	19.86	-26.8	-28.0	15.8	0.00e+00	0	43	0	1027604480	14	4164
2026-01-01 11:49:47.50	311.59	19.78	-26.8	-28.1	15.7	0.00e+00	0	43	0	1030750208	14	4191
2026-01-01 11:49:48.50	311.77	19.69	-26.9	-28.3	15.6	0.00e+00	0	43	0	1033895936	14	4224
2026-01-01 11:49:49.50	311.96	19.61	-26.9	-28.2	15.6	0.00e+00	0	43	0	1037041664	14	4222
2026-01-01 11:49:50.51	312.14	19.52	-26.9	-28.3	15.6	0.00e+00	0	43	0	1040187392	14	4238
2026-01-01 11:49:51.51	312.33	19.44	-27.0	-28.6	15.4	0.00e+00	0	43	0	1043333120	14	4323
2026-01-01 11:49:52.52	312.51	19.35	-27.1	-28.7	15.3	0.00e+00	0	43	0	1046478848	14	4365
2026-01-01 11:49:53.52	312.69	19.26	-26.9	-28.4	15.4	0.00e+00	0	43	0	1049624576	14	4279
2026-01-01 11:49:54.52	312.87	19.18	-26.9	-28.3	15.6	0.00e+00	0	43	0	1052770304	14	4228
2026-01-01 11:49:55.52	313.05	19.10	-26.8	-28.2	15.6	0.00e+00	0	44	0	1055916032	14	4208
2026-01-01 11:49:56.53	313.23	19.01	-26.9	-28.4	15.5	0.00e+00	0	43	0	1059061760	14	4262
2026-01-01 11:49:57.52	313.41	18.93	-26.9	-28.5	15.4	0.00e+00	0	44	0	1062207488	14	4290
2026-01-01 11:49:58.53	313.58	18.84	-27.0	-28.6	15.3	0.00e+00	0	43	0	1065353216	14	4317
2026-01-01 11:49:59.54	313.76	18.75	-27.2	-29.2	14.4	0.00e+00	0	43	0	1068498944	14	4543
2026-01-01 11:50:00.54	313.93	18.67	-27.2	-29.2	14.5	0.00e+00	0	43	0	1071644672	14	4528
2026-01-01 11:50:01.54	314.11	18.59	-27.2	-29.1	14.5	1.50e-06	0	43	0	1074790400	14	4506
2026-01-01 11:50:02.54	314.28	18.50	-27.2	-29.1	14.6	0.00e+00	0	43	0	1077936128	14	4504
2026-01-01 11:50:03.55	314.45	18.42	-27.1	-28.9	15.2	0.00e+00	0	43	0	1081081856	14	4410
2026-01-01 11:50:04.55	314.62	18.33	-27.3	-29.3	15.0	0.00e+00	0	43	0	1084227584	14	4532
2026-01-01 11:50:05.56	314.80	18.25	-27.4	-29.4	14.9	0.00e+00	0	43	0	1087373312	14	4553
2026-01-01 11:50:06.56	314.96	18.16	-27.2	-29.1	15.1	0.00e+00	0	43	0	1090519040	14	4453
2026-01-01 11:50:07.56	315.13	18.08	-27.1	-28.7	15.3	0.00e+00	0	43	0	1093664768	14	4365
2026-01-01 11:50:08.57	315.30	17.99	-27.0	-28.7	15.4	7.00e-07	0	44	0	1096810496	14	4341
2026-01-01 11:50:09.57	315.47	17.91	-27.0	-28.5	15.4	0.00e+00	0	43	0	1099956224	14	4302
2026-01-01 11:50:10.58	315.63	17.82	-27.0	-28.5	15.4	0.00e+00	0	43	0	1103101952	14	4292
2026-01-01 11:50:11.58	315.80	17.74	-27.1	-28.8	15.3	0.00e+00	0	43	0	1106247680	14	4368
2026-01-01 11:50:12.59	315.96	17.65	-27.1	-28.8	15.2	0.00e+00	0	43	0	1108344832	14	4392
2026-01-01 11:50:13.58	316.12	17.57	-27.1	-28.8	15.2	0.00e+00	0	43	0	1111490560	14	4389
2026-01-01 11:50:14.59	316.28	17.49	-27.2	-29.0	15.2	0.00e+00	0	43	0	1114636288	14	4428
2026-01-01 11:50:15.60	316.45	17.40	-27.2	-29.1	15.0	0.00e+00	0	43	0	1117782016	14	4482
2026-01-01 11:50:16.59	316.60	17.32	-27.3	-29.2	15.0	0.00e+00	0	43	0	1120927744	14	4502
2026-01-01 11:50:17.59	316.76	17.23	-27.3	-29.2	15.0	0.00e+00	0	43	0	1124073472	14	4501
2026-01-01 11:50:18.60	316.92	17.15	-27.3	-29.4	14.9	0.00e+00	0	43	0	1127219200	14	4553
2026-01-01 11:50:19.61	317.08	17.07	-27.4	-29.4	14.9	0.00e+00	0	43	0	1130364928	14	4570
2026-01-01 11:50:20.61	317.24	16.98	-27.3	-29.3	15.0	0.00e+00	0	43	0	1133510656	14	4521
2026-01-01 11:50:21.61	317.39	16.90	-27.4	-29.6	14.8	0.00e+00	0	43	0	1136656384	14	4624
2026-01-01 11:50:22.62	317.55	16.82	-27.4	-29.6	14.8	7.00e-07	0	43	0	1139802112	14	4623
2026-01-01 11:50:23.62	317.70	16.73	-27.4	-29.7	14.8	0.00e+00	0	43	0	1142947840	14	4642
2026-01-01 11:50:24.63	317.86	16.65	-27.5	-29.2	14.7	0.00e+00	0	43	0	1146093568	15	4404
2026-01-01 11:50:25.62	318.01	16.57	-27.5	-29.2	14.7	7.00e-07	0	43	0	1149239296	15	4409
2026-01-01 11:50:26.62	318.16	16.48	-27.5	-29.3	14.7	7.00e-07	0	43	0	1152385024	15	4412
2026-01-01 11:50:27.62	318.31	16.40	-27.5	-29.4	14.6	7.00e-07	0	43	0	1155530752	15	4437
2026-01-01 11:50:28.62	318.46	16.32	-27.5	-29.2	14.7	7.00e-07	0	43	0	1158676480	15	4391
2026-01-01 11:50:29.62	318.61	16.24	-27.4	-29.1	14.8	0.00e+00	0	43	0	1161822208	15	4356
2026-01-01 11:50:30.62	318.76	16.15	-27.3	-28.9	14.9	7.00e-07	0	43	0	1164967936	15	4301
2026-01-01 11:50:31.63	318.91	16.07	-27.4	-28.9	14.9	0.00e+00	0	43	0	1168113664	15	4318
2026-01-01 11:50:32.63	319.05	15.99	-27.2	-28.7	15.0	0.00e+00	0	43	0	1171259392	15	4234
2026-01-01 11:50:33.63	319.20	15.91	-27.1	-28.3	15.2	0.00e+00	0	43	0	1174405120	15	4139
2026-01-01 11:50:34.64	319.34	15.82	-27.1	-28.2	15.2	0.00e+00	0	43	0	1177550848	15	4104
2026-01-01 11:50:35.63	319.49	15.74	-27.0	-28.2	15.2	0.00e+00	0	43	0	1180696576	15	4103
2026-01-01 11:50:36.64	319.63	15.66	-27.1	-28.3	15.2	0.00e+00	0	43	0	1183842304	15	4139
2026-01-01 11:50:37.64	319.78	15.58	-27.1	-28.3	15.2	0.00e+00	0	43	0	1186988032	15	4134
2026-01-01 11:50:38.64	319.92	15.50	-27.1	-28.4	15.1	0.00e+00	0	43	0	1190133760	15	4173
2026-01-01 11:50:39.65	320.06	15.41	-27.2	-28.4	15.1	0.00e+00	0	43	0	1193279488	15	4174
2026-01-01 11:50:40.65	320.20	15.33	-27.1	-28.4	15.1	0.00e+00	0	43	0	1196425216	15	4173
2026-01-01 11:50:41.66	320.34	15.25	-27.2	-28.6	15.0	7.00e-07	0	43	0	1199570944	15	4217
2026-01-01 11:50:42.66	320.48	15.17	-27.2	-28.6	15.0	0.00e+00	0	43	0	1202716672	15	4231
2026-01-01 11:50:43.66	320.62	15.09	-27.3	-28.8	14.9	0.00e+00	0	43	0	1205862400	15	4262
2026-01-01 11:50:44.66	320.76	15.01	-27.4	-29.0	14.8	0.00e+00	0	43	0	1209008128	15	4329
2026-01-01 11:50:45.66	320.89	14.93	-27.4	-29.1	14.7	7.00e-07	0	43	0	1212153856	15	4372
2026-01-01 11:50:46.67	321.03	14.85	-27.5	-29.3	14.5	0.00e+00	0	43	0	1215299584	15	4436
2026-01-01 11:50:47.67	321.17	14.76	-27.6	-29.5	14.5	0.00e+00	0	43	0	1218445312	15	4478
2026-01-01 11:50:48.67	321.30	14.68	-27.6	-29.5	14.4	0.00e+00	0	43	0	1221591040	15	4486
2026-01-01 11:50:49.67	321.43	14.60	-27.7	-29.7	14.3	7.00e-07	0	43	0	1224736768	15	4536
2026-01-01 11:50:50.67	321.57	14.52	-27.6	-29.6	14.4	1.50e-06	0	43	0	1227882496	15	4505
2026-01-01 11:50:51.68	321.70	14.44	-27.6	-29.4	14.5	2.20e-06	0	43	0	1231028224	15	4463
2026-01-01 11:50:52.68	321.83	14.36	-27.7	-29.7	14.3	1.50e-06	0	43	0	1234173952	15	4551
2026-01-01 11:50:53.68	321.96	14.28	-27.6	-29.5	14.4	0.00e+00	0	43	0	1237319680	15	4488
2026-01-01 11:50:54.69	322.10	14.20	-27.6	-29.5	14.4	0.00e+00	0	43	0	1240465408	15	4486
2026-01-01 11:50:55.69	322.23	14.12	-27.6	-29.7	14.2	2.20e-06	0	43	0	1243611136	15	4541
2026-01-01 11:50:56.70	322.36	14.04	-27.6	-29.6	14.2	2.20e-06	0	43	0	1246756864	15	4520
2026-01-01 11:50:57.70	322.49	13.96	-27.7	-29.7	14.1	1.50e-06	0	43	0	1249902592	15	4559
2026-01-01 11:50:58.71	322.61	13.88	-27.7	-29.9	13.5	5.30e-06	0	43	0	1253048320	15	4643
2026-01-01 11:50:59.71	322.74	13.81	-27.6	-29.7	13.6	6.80e-06	0	43	0	1256194048	15	4583
2026-01-01 11:51:00.71	322.87	13.73	-27.6	-29.7	13.7	9.90e-06	0	43	0	1259339776	15	4583
2026-01-01 11:51:01.71	322.99	13.65	-27.7	-29.9	13.7	6.80e-06	0	43	0	1262485504	15	4619
2026-01-01 11:51:02.71	323.12	13.57	-27.7	-29.9	13.7	4.50e-06	0	43	0	1265631232	15	4638
2026-01-01 11:51:03.71	323.24	13.49	-27.8	-30.2	13.5	3.80e-06	0	43	0	1268776960	15	4731
2026-01-01 11:51:04.72	323.37	13.41	-27.8	-30.2	13.6	9.90e-06	0	43	0	1271922688	15	4719
2026-01-01 11:51:05.72	323.49	13.33	-27.9	-30.3	13.5	9.10e-06	0	44	0	1275068416	15	4750
2026-01-01 11:51:06.73	323.62	13.26	-27.9	-30.3	13.5	9.10e-06	0	43	0	1278214144	15	4765
2026-01-01 11:51:07.72	323.74	13.18	-27.8	-30.1	13.5	9.90e-06	0	43	0	1281359872	15	4701
2026-01-01 11:51:08.73	323.86	13.10	-27.8	-30.1	13.6	8.30e-06	0	44	0	1284505600	15	4703
2026-01-01 11:51:09.73	323.98	13.02	-27.9	-30.4	13.3	1.22e-05	0	43	0	1287651328	15	4801
2026-01-01 11:51:10.74	324.10	12.94	-28.1	-30.3	13.4	1.22e-05	0	43	0	1290797056	16	4625
2026-01-01 11:51:11.73	324.22	12.87	-27.9	-29.9	13.7	1.14e-05	0	43	0	1293942784	16	4497
2026-01-01 11:51:12.74	324.34	12.79	-27.9	-29.7	13.8	1.50e-06	0	43	0	1297088512	16	4431
2026-01-01 11:51:13.74	324.46	12.71	-27.9	-29.7	13.8	7.60e-06	0	43	0	1300234240	16	4435
2026-01-01 11:51:14.74	324.58	12.63	-27.9	-29.8	13.7	3.80e-06	0	43	0	1303379968	16	4475
2026-01-01 11:51:15.74	324.69	12.56	-28.0	-30.0	13.6	8.30e-06	0	43	0	1306525696	16	4539
2026-01-01 11:51:16.74	324.81	12.48	-28.0	-30.0	13.6	6.10e-06	0	43	0	1309671424	16	4554
2026-01-01 11:51:17.74	324.93	12.41	-28.0	-30.1	13.6	8.30e-06	0	43	0	1312817152	16	4561
2026-01-01 11:51:18.74	325.04	12.33	-28.1	-30.3	13.4	1.22e-05	0	43	0	1315962880	16	4626
2026-01-01 11:51:19.74	325.16	12.25	-28.1	-30.2	13.4	1.52e-05	0	43	0	1319108608	16	4611
2026-01-01 11:51:20.74	325.27	12.18	-28.1	-30.2	13.4	1.14e-05	0	43	0	1322254336	16	4603
2026-01-01 11:51:21.75	325.39	12.10	-28.2	-30.4	13.3	1.37e-05	0	43	0	1325400064	16	4661
2026-01-01 11:51:22.75	325.50	12.02	-28.2	-30.5	13.3	1.52e-05	0	43	0	1328545792	16	4672
2026-01-01 11:51:23.75	325.61	11.95	-28.3	-30.7	13.1	2.59e-05	0	43	0	1331691520	16	4759
2026-01-01 11:51:24.76	325.73	11.87	-28.2	-30.4	13.3	1.75e-05	0	43	0	1334837248	16	4650
2026-01-01 11:51:25.76	325.84	11.80	-28.1	-30.3	13.4	1.14e-05	0	43	0	1337982976	16	4623
2026-01-01 11:51:26.77	325.95	11.72	-28.2	-30.4	13.3	2.28e-05	0	43	0	1341128704	16	4672
2026-01-01 11:51:27.78	326.06	11.64	-28.2	-30.5	13.2	2.13e-05	0	43	0	1344274432	16	4688
2026-01-01 11:51:28.78	326.17	11.57	-28.4	-31.1	12.9	3.66e-05	0	43	0	1347420160	16	4874
2026-01-01 11:51:29.80	326.28	11.49	-28.3	-30.4	13.0	4.65e-05	0	43	0	1350565888	17	4540
2026-01-01 11:51:30.80	326.39	11.42	-28.2	-29.9	13.3	2.36e-05	0	43	0	1353711616	17	4403
2026-01-01 11:51:31.81	326.50	11.34	-28.1	-29.8	13.3	1.60e-05	0	43	0	1356857344	17	4363
2026-01-01 11:51:32.81	326.61	11.27	-28.0	-29.7	13.4	1.37e-05	0	43	0	1360003072	17	4333
2026-01-01 11:51:33.81	326.72	11.19	-28.1	-29.9	13.3	1.44e-05	0	43	0	1363148800	17	4401
2026-01-01 11:51:34.81	326.82	11.12	-28.2	-30.0	13.3	2.82e-05	0	43	0	1366294528	17	4425
2026-01-01 11:51:35.82	326.93	11.05	-28.2	-30.0	13.2	2.36e-05	0	43	0	1369440256	17	4423
2026-01-01 11:51:36.81	327.04	10.97	-28.2	-30.0	13.3	1.90e-05	0	43	0	1372585984	17	4434
2026-01-01 11:51:37.81	327.14	10.90	-28.3	-30.1	13.1	2.28e-05	0	43	0	1375731712	17	4477
2026-01-01 11:51:38.81	327.24	10.83	-28.3	-30.3	13.2	1.20e-04	0	43	0	1378877440	17	4523
2026-01-01 11:51:39.82	327.35	10.75	-28.3	-30.3	13.3	2.28e-05	0	43	0	1382023168	17	4505
2026-01-01 11:51:40.82	327.45	10.68	-28.2	-29.9	13.6	5.30e-06	0	43	0	1384120320	17	4385
2026-01-01 11:51:41.82	327.56	10.60	-28.2	-29.9	13.6	1.14e-05	0	43	0	1387266048	17	4391
2026-01-01 11:51:42.82	327.66	10.53	-28.2	-29.9	13.5	1.52e-05	0	43	0	1390411776	17	4400
2026-01-01 11:51:43.82	327.76	10.46	-28.2	-29.9	13.5	9.90e-06	0	43	0	1393557504	17	4380
2026-01-01 11:51:44.83	327.86	10.39	-28.3	-30.2	13.3	9.90e-06	0	44	0	1396703232	17	4468
2026-01-01 11:51:45.84	327.97	10.31	-28.2	-30.0	13.4	1.14e-05	0	43	0	1399848960	17	4423
2026-01-01 11:51:46.84	328.07	10.24	-28.2	-29.9	13.5	1.44e-05	0	43	0	1402994688	17	4389
2026-01-01 11:51:47.84	328.17	10.17	-28.3	-30.1	13.4	1.29e-05	0	43	0	1406140416	17	4464
2026-01-01 11:51:48.84	328.27	10.09	-28.2	-30.1	13.4	1.14e-05	0	44	0	1409286144	17	4442
2026-01-01 11:51:49.84	328.37	10.02	-28.3	-30.3	13.3	2.05e-05	0	43	0	1412431872	17	4499
2026-01-01 11:51:50.84	328.47	9.95	-28.3	-30.2	13.3	2.13e-05	0	44	0	1415577600	17	4486
2026-01-01 11:51:51.84	328.56	9.88	-28.3	-30.2	13.3	2.82e-05	0	44	0	1418723328	17	4492
2026-01-01 11:51:52.85	328.66	9.81	-28.4	-30.5	13.1	3.20e-05	0	43	0	1421869056	17	4581
2026-01-01 11:51:53.85	328.76	9.74	-28.3	-30.3	13.2	1.67e-05	0	44	0	1425014784	17	4520
2026-01-01 11:51:54.85	328.86	9.66	-28.3	-30.3	13.2	2.13e-05	0	44	0	1428160512	17	4514
2026-01-01 11:51:55.85	328.96	9.59	-28.3	-30.3	13.2	1.90e-05	0	43	0	1431306240	17	4524
2026-01-01 11:51:56.85	329.05	9.52	-28.3	-30.3	13.2	3.12e-05	0	43	0	1434451968	17	4520
2026-01-01 11:51:57.85	329.15	9.45	-28.5	-30.7	12.9	5.11e-05	0	43	0	1437597696	17	4653
2026-01-01 11:51:58.85	329.24	9.38	-28.4	-30.5	13.0	3.58e-05	0	44	0	1440743424	17	4593
2026-01-01 11:51:59.86	329.34	9.31	-28.4	-30.6	13.0	4.27e-05	0	44	0	1443889152	17	4619
2026-01-01 11:52:00.87	329.43	9.24	-28.6	-30.9	12.8	5.49e-05	0	43	0	1447034880	17	4724
2026-01-01 11:52:01.87	329.53	9.17	-28.5	-30.8	12.9	4.57e-05	0	43	0	1450180608	17	4675
2026-01-01 11:52:02.87	329.62	9.10	-28.6	-30.9	12.8	8.62e-05	0	44	0	1453326336	17	4718
2026-01-01 11:52:03.87	329.71	9.03	-28.6	-30.9	12.8	5.72e-05	0	43	0	1456472064	17	4727
2026-01-01 11:52:04.88	329.81	8.96	-28.5	-30.9	12.8	6.63e-05	0	43	0	1459617792	17	4704
2026-01-01 11:52:05.88	329.90	8.89	-28.6	-31.1	12.7	5.87e-05	0	43	0	1462763520	17	4766
2026-01-01 11:52:06.87	329.99	8.82	-28.6	-31.0	12.7	8.08e-05	0	43	0	1465909248	17	4740
2026-01-01 11:52:07.87	330.08	8.75	-28.6	-30.9	12.7	8.54e-05	0	43	0	1469054976	17	4727
2026-01-01 11:52:08.87	330.17	8.68	-28.6	-31.1	12.6	9.46e-05	0	43	0	1472200704	17	4782
2026-01-01 11:52:09.87	330.26	8.61	-28.5	-30.9	12.7	6.71e-05	0	43	0	1475346432	17	4703
2026-01-01 11:52:10.87	330.35	8.54	-28.5	-30.8	12.8	5.03e-05	0	43	0	1478492160	17	4687
2026-01-01 11:52:11.88	330.45	8.47	-28.7	-31.2	12.6	1.07e-04	0	43	0	1481637888	17	4817
2026-01-01 11:52:12.88	330.53	8.40	-28.6	-30.9	12.7	6.79e-05	0	43	0	1484783616	17	4729
2026-01-01 11:52:13.88	330.62	8.33	-28.5	-30.9	12.7	6.94e-05	0	43	0	1487929344	17	4723
2026-01-01 11:52:14.89	330.71	8.26	-28.7	-31.2	12.5	8.16e-05	0	43	0	1491075072	17	4811
2026-01-01 11:52:15.89	330.80	8.19	-28.7	-31.2	12.5	1.19e-04	0	43	0	1494220800	17	4827
2026-01-01 11:52:16.90	330.89	8.13	-28.7	-31.4	12.3	1.69e-04	0	43	0	1497366528	17	4897
2026-01-01 11:52:17.90	330.98	8.06	-28.7	-31.2	12.4	1.40e-04	0	43	0	1500512256	17	4832
2026-01-01 11:52:18.90	331.06	7.99	-28.7	-31.2	12.4	1.12e-04	0	43	0	1503657984	17	4839
2026-01-01 11:52:19.91	331.15	7.92	-28.7	-31.4	12.3	1.53e-04	0	43	0	1506803712	17	4895
2026-01-01 11:52:20.91	331.24	7.85	-28.7	-31.4	12.3	1.72e-04	0	44	0	1509949440	17	4900
2026-01-01 11:52:21.91	331.32	7.78	-28.8	-31.5	12.3	1.91e-04	0	43	0	1513095168	17	4924
2026-01-01 11:52:22.91	331.41	7.72	-28.9	-31.7	12.1	2.48e-04	0	43	0	1516240896	17	5001
2026-01-01 11:52:23.91	331.50	7.65	-28.9	-31.7	12.1	2.53e-04	0	43	0	1519386624	17	4998
2026-01-01 11:52:24.92	331.58	7.58	-28.8	-31.6	12.1	2.71e-04	0	43	0	1522532352	17	4980
2026-01-01 11:52:25.92	331.67	7.51	-28.8	-31.7	12.1	2.64e-04	0	43	0	1525678080	17	5004
2026-01-01 11:52:26.92	331.75	7.45	-28.9	-31.9	12.0	3.07e-04	0	43	0	1528823808	17	5063
2026-01-01 11:52:27.92	331.83	7.38	-29.1	-31.9	11.7	5.59e-04	0	43	0	1531969536	18	4951
2026-01-01 11:52:28.92	331.92	7.31	-29.2	-32.1	11.5	8.33e-04	0	43	0	1535115264	18	5047
2026-01-01 11:52:29.92	332.00	7.25	-29.1	-32.0	11.5	8.24e-04	0	43	0	1538260992	18	4993
2026-01-01 11:52:30.93	332.08	7.18	-29.1	-31.8	11.7	5.11e-04	0	43	0	1541406720	18	4933
2026-01-01 11:52:31.93	332.16	7.11	-29.0	-31.7	11.7	5.21e-04	0	43	0	1544552448	18	4907
2026-01-01 11:52:32.93	332.25	7.05	-32.8	-44.4	3.8	1.49e+00	0	43	104	1545601024	25	13685

#Closed at: 2026-01-01 11:52:33
#Recorded file [1545 MB]: D:/data/31010_260101_144417.dat