passes_logs/2026/01/01/R2M6_AANII_01/R2M6_AANII_01__20260101_091104_NOAA_20_JPSS-1_rec.log

#Pass ID: 20260101_091104_NOAA 20 (JPSS-1)
#Satellite: NOAA 20 (JPSS-1)
#Configuration: NOAA 20
#almurnet v.1.7.20240730
#Start time: 2026-01-01 09:11:04

#Version: 2.2.20231116
#Station: R2M6_AANII_01
#Location: 30.233357 lon 59.946436 lat
#TLE: 1 43013U 17073A   25365.45761817  .00000173  00000+0  10307-3 0  9993
#TLE: 2 43013  98.7620 301.5517 0001951  60.3814 299.7557 14.19531661420675

#Time	Az	El	Level	Level2	SNR	BER	BlckErr	Temp	State	Recorded	gain1	gain2
2026-01-01 09:11:04.50	125.18	7.02	-31.5	-38.1	4.8	1.32e+00	0	40	0	0	24	7674
2026-01-01 09:11:05.50	125.13	7.10	-31.5	-38.1	4.7	1.33e+00	0	41	104	0	24	7737
2026-01-01 09:11:06.50	125.07	7.17	-31.4	-37.5	7.1	1.82e-01	0	41	0	0	24	7292
2026-01-01 09:11:07.51	125.02	7.24	-31.4	-37.3	7.3	1.19e-01	0	41	0	1048576	24	7140
2026-01-01 09:11:08.51	124.96	7.32	-31.4	-37.5	7.2	1.34e-01	0	41	0	3145728	24	7257
2026-01-01 09:11:09.52	124.90	7.39	-31.4	-37.4	7.2	1.45e-01	0	41	0	5242880	24	7202
2026-01-01 09:11:10.52	124.85	7.47	-31.4	-37.1	7.4	1.09e-01	0	41	0	7340032	24	7011
2026-01-01 09:11:11.53	124.79	7.54	-31.3	-36.9	7.7	9.96e-02	0	41	0	9437184	24	6866
2026-01-01 09:11:12.53	124.73	7.62	-31.3	-37.1	7.5	8.90e-02	0	41	0	10485760	24	6963
2026-01-01 09:11:13.54	124.67	7.69	-31.5	-37.9	7.0	1.15e-01	0	41	0	12582912	24	7503
2026-01-01 09:11:14.55	124.61	7.77	-31.5	-38.0	6.9	1.95e-01	0	41	0	14680064	24	7551
2026-01-01 09:11:15.55	124.56	7.84	-31.3	-37.0	7.7	1.27e-01	0	41	0	16777216	24	6884
2026-01-01 09:11:16.55	124.50	7.92	-31.2	-36.5	8.4	6.63e-02	0	41	0	17825792	23	6701
2026-01-01 09:11:17.56	124.44	7.99	-30.9	-35.5	9.3	2.35e-02	0	41	0	19922944	23	6113
2026-01-01 09:11:18.55	124.38	8.07	-30.7	-35.0	10.0	1.06e-02	0	41	0	22020096	22	5956
2026-01-01 09:11:19.56	124.32	8.14	-30.4	-34.2	10.7	5.36e-03	0	41	0	24117248	22	5562
2026-01-01 09:11:20.56	124.26	8.22	-30.2	-34.0	11.2	1.64e-03	0	41	0	26214400	21	5543
2026-01-01 09:11:21.56	124.20	8.30	-30.1	-33.6	11.5	9.81e-04	0	41	0	28311552	21	5397
2026-01-01 09:11:22.56	124.14	8.37	-30.0	-33.2	11.8	5.93e-04	0	41	0	29360128	21	5217
2026-01-01 09:11:23.57	124.08	8.45	-30.1	-33.4	11.7	5.08e-04	0	41	0	31457280	21	5307
2026-01-01 09:11:24.57	124.01	8.53	-30.2	-33.7	11.5	7.85e-04	0	41	0	33554432	21	5418
2026-01-01 09:11:25.58	123.95	8.60	-30.2	-33.9	11.3	1.05e-03	0	41	0	35651584	21	5521
2026-01-01 09:11:26.58	123.89	8.68	-30.3	-34.1	11.2	1.27e-03	0	41	0	36700160	21	5605
2026-01-01 09:11:27.58	123.83	8.76	-30.3	-34.2	11.2	1.52e-03	0	41	0	38797312	21	5622
2026-01-01 09:11:28.59	123.76	8.84	-30.3	-34.1	11.2	1.42e-03	0	41	0	40894464	21	5610
2026-01-01 09:11:29.59	123.70	8.91	-30.3	-34.2	11.2	1.44e-03	0	41	0	42991616	21	5629
2026-01-01 09:11:30.58	123.64	8.99	-30.3	-34.1	11.2	1.25e-03	0	41	0	45088768	21	5599
2026-01-01 09:11:31.59	123.57	9.07	-30.2	-33.9	11.4	1.21e-03	0	41	0	46137344	21	5509
2026-01-01 09:11:32.59	123.51	9.15	-30.2	-33.8	11.5	8.11e-04	0	41	0	48234496	21	5424
2026-01-01 09:11:33.60	123.44	9.23	-30.2	-33.7	11.5	8.57e-04	0	41	0	50331648	21	5408
2026-01-01 09:11:34.59	123.38	9.31	-30.2	-33.8	11.5	1.03e-03	0	42	0	52428800	21	5453
2026-01-01 09:11:35.60	123.31	9.39	-30.2	-33.7	11.6	7.07e-04	0	41	0	54525952	21	5393
2026-01-01 09:11:36.60	123.25	9.46	-30.2	-33.7	11.6	7.16e-04	0	42	0	55574528	21	5418
2026-01-01 09:11:37.60	123.18	9.54	-30.2	-33.9	11.4	1.04e-03	0	41	0	57671680	21	5500
2026-01-01 09:11:38.60	123.12	9.62	-30.3	-34.0	11.4	9.12e-04	0	41	0	59768832	21	5536
2026-01-01 09:11:39.61	123.05	9.70	-30.3	-34.0	11.4	1.10e-03	0	42	0	61865984	21	5542
2026-01-01 09:11:40.61	122.98	9.78	-30.2	-33.8	11.6	8.94e-04	0	42	0	63963136	21	5433
2026-01-01 09:11:41.61	122.91	9.86	-30.2	-33.6	11.7	5.90e-04	0	42	0	65011712	21	5360
2026-01-01 09:11:42.61	122.85	9.95	-30.1	-33.6	11.7	6.78e-04	0	42	0	67108864	21	5337
2026-01-01 09:11:43.62	122.78	10.03	-30.1	-33.5	11.8	4.52e-04	0	42	0	69206016	21	5287
2026-01-01 09:11:44.62	122.71	10.11	-30.1	-33.5	11.8	4.43e-04	0	42	0	71303168	21	5298
2026-01-01 09:11:45.63	122.64	10.19	-30.2	-33.7	11.7	6.21e-04	0	42	0	73400320	21	5389
2026-01-01 09:11:46.64	122.57	10.27	-30.2	-33.7	11.7	5.55e-04	0	42	0	74448896	21	5387
2026-01-01 09:11:47.64	122.50	10.35	-30.2	-33.9	11.5	5.93e-04	0	42	0	76546048	21	5482
2026-01-01 09:11:48.64	122.43	10.44	-30.2	-33.8	11.6	8.46e-04	0	42	0	78643200	21	5433
2026-01-01 09:11:49.64	122.36	10.52	-30.2	-33.6	11.7	5.69e-04	0	42	0	80740352	21	5357
2026-01-01 09:11:50.65	122.29	10.60	-30.2	-33.7	11.7	4.91e-04	0	42	0	81788928	21	5393
2026-01-01 09:11:51.65	122.21	10.68	-30.1	-33.5	11.9	4.99e-04	0	42	0	83886080	21	5304
2026-01-01 09:11:52.65	122.14	10.77	-30.1	-33.5	11.9	4.68e-04	0	42	0	85983232	21	5295
2026-01-01 09:11:53.66	122.07	10.85	-30.1	-33.4	11.9	4.81e-04	0	42	0	88080384	21	5250
2026-01-01 09:11:54.66	122.00	10.93	-30.0	-33.1	12.2	2.26e-04	0	42	0	90177536	21	5118
2026-01-01 09:11:55.66	121.92	11.02	-30.0	-33.1	12.2	1.84e-04	0	42	0	91226112	21	5124
2026-01-01 09:11:56.66	121.85	11.10	-30.0	-33.0	12.3	2.18e-04	0	42	0	93323264	21	5080
2026-01-01 09:11:57.66	121.77	11.18	-30.0	-33.0	12.2	1.98e-04	0	42	0	95420416	21	5094
2026-01-01 09:11:58.67	121.70	11.27	-30.0	-33.2	12.1	2.35e-04	0	42	0	97517568	21	5155
2026-01-01 09:11:59.67	121.62	11.35	-30.0	-33.2	12.2	2.49e-04	0	42	0	99614720	21	5156
2026-01-01 09:12:00.67	121.55	11.44	-30.0	-33.1	12.2	2.21e-04	0	42	0	100663296	21	5137
2026-01-01 09:12:01.67	121.47	11.52	-30.1	-33.4	12.0	2.78e-04	0	42	0	102760448	21	5229
2026-01-01 09:12:02.67	121.40	11.61	-30.1	-33.3	12.1	3.29e-04	0	42	0	104857600	21	5188
2026-01-01 09:12:03.68	121.32	11.69	-30.0	-33.1	12.3	2.02e-04	0	42	0	106954752	21	5110
2026-01-01 09:12:04.68	121.24	11.78	-30.0	-33.0	12.3	1.87e-04	0	42	0	109051904	21	5074
2026-01-01 09:12:05.68	121.16	11.87	-30.0	-32.9	12.3	2.10e-04	0	42	0	110100480	21	5058
2026-01-01 09:12:06.69	121.09	11.95	-30.0	-33.1	12.2	1.86e-04	0	42	0	112197632	21	5138
2026-01-01 09:12:07.70	121.01	12.04	-30.0	-33.0	12.3	2.29e-04	0	42	0	114294784	21	5068
2026-01-01 09:12:08.70	120.93	12.13	-30.0	-32.9	12.4	1.36e-04	0	42	0	116391936	21	5031
2026-01-01 09:12:09.71	120.85	12.22	-30.0	-32.9	12.4	1.51e-04	0	42	0	118489088	21	5055
2026-01-01 09:12:10.71	120.77	12.30	-30.0	-33.0	12.3	1.39e-04	0	42	0	119537664	21	5089
2026-01-01 09:12:11.71	120.69	12.39	-30.0	-33.0	12.3	1.79e-04	0	42	0	121634816	21	5087
2026-01-01 09:12:12.72	120.60	12.48	-30.0	-32.9	12.4	1.56e-04	0	42	0	123731968	21	5031
2026-01-01 09:12:13.71	120.52	12.57	-30.0	-33.0	12.3	1.65e-04	0	42	0	125829120	21	5078
2026-01-01 09:12:14.71	120.44	12.65	-30.2	-33.5	12.0	2.49e-04	0	42	0	127926272	21	5289
2026-01-01 09:12:15.71	120.36	12.74	-30.2	-33.5	12.1	3.58e-04	0	42	0	128974848	21	5259
2026-01-01 09:12:16.71	120.27	12.83	-30.2	-33.7	11.8	2.92e-04	0	42	0	131072000	21	5384
2026-01-01 09:12:17.72	120.19	12.92	-30.2	-33.5	12.0	5.26e-04	0	42	0	133169152	21	5296
2026-01-01 09:12:18.72	120.11	13.01	-30.1	-33.3	12.2	2.42e-04	0	42	0	135266304	21	5189
2026-01-01 09:12:19.72	120.02	13.10	-30.1	-33.1	12.3	1.48e-04	0	42	0	136314880	21	5139
2026-01-01 09:12:20.72	119.94	13.19	-30.1	-33.2	12.3	1.80e-04	0	42	0	138412032	21	5145
2026-01-01 09:12:21.72	119.85	13.28	-30.0	-32.9	12.5	1.82e-04	0	42	0	140509184	21	5009
2026-01-01 09:12:22.73	119.76	13.37	-30.0	-32.8	12.5	1.15e-04	0	42	0	142606336	21	5012
2026-01-01 09:12:23.73	119.68	13.46	-30.0	-32.9	12.5	9.99e-05	0	42	0	144703488	21	5034
2026-01-01 09:12:24.74	119.59	13.55	-30.0	-32.8	12.5	1.26e-04	0	42	0	145752064	21	5003
2026-01-01 09:12:25.73	119.50	13.64	-29.9	-32.6	12.7	8.46e-05	0	42	0	147849216	21	4933
2026-01-01 09:12:26.73	119.41	13.74	-30.0	-32.9	12.6	8.54e-05	0	42	0	149946368	21	5016
2026-01-01 09:12:27.74	119.32	13.83	-30.0	-32.8	12.6	8.08e-05	0	42	0	152043520	21	4970
2026-01-01 09:12:28.73	119.23	13.92	-29.9	-32.6	12.8	7.47e-05	0	43	0	154140672	21	4912
2026-01-01 09:12:29.73	119.14	14.01	-29.9	-32.6	12.8	6.86e-05	0	42	0	155189248	21	4912
2026-01-01 09:12:30.74	119.05	14.10	-29.9	-32.5	12.8	7.01e-05	0	42	0	157286400	21	4872
2026-01-01 09:12:31.74	118.96	14.20	-29.9	-32.6	12.8	5.11e-05	0	42	0	159383552	21	4904
2026-01-01 09:12:32.74	118.87	14.29	-29.8	-32.4	12.9	4.73e-05	0	42	0	161480704	21	4838
2026-01-01 09:12:33.74	118.77	14.38	-29.9	-32.6	12.8	5.95e-05	0	42	0	163577856	21	4920
2026-01-01 09:12:34.75	118.68	14.48	-29.9	-32.5	12.8	6.79e-05	0	43	0	164626432	21	4880
2026-01-01 09:12:35.75	118.59	14.57	-29.8	-32.4	13.0	4.27e-05	0	42	0	166723584	21	4812
2026-01-01 09:12:36.75	118.49	14.67	-29.8	-32.3	13.0	3.96e-05	0	42	0	168820736	21	4800
2026-01-01 09:12:37.75	118.40	14.76	-29.8	-32.4	12.9	4.11e-05	0	42	0	170917888	21	4833
2026-01-01 09:12:38.75	118.30	14.86	-29.8	-32.3	13.0	5.41e-05	0	42	0	171966464	21	4812
2026-01-01 09:12:39.75	118.21	14.95	-29.9	-32.5	12.9	3.81e-05	0	42	0	174063616	21	4867
2026-01-01 09:12:40.75	118.11	15.05	-29.8	-32.4	13.0	4.80e-05	0	43	0	176160768	21	4813
2026-01-01 09:12:41.75	118.01	15.14	-29.8	-32.2	13.1	4.04e-05	0	43	0	178257920	21	4774
2026-01-01 09:12:42.75	117.91	15.24	-29.8	-32.7	13.1	2.89e-05	0	43	0	180355072	20	5037
2026-01-01 09:12:43.76	117.81	15.34	-29.9	-32.9	12.9	2.97e-05	0	42	0	181403648	20	5137
2026-01-01 09:12:44.77	117.71	15.43	-29.7	-32.6	13.2	3.96e-05	0	43	0	183500800	20	4997
2026-01-01 09:12:45.77	117.61	15.53	-29.7	-32.4	13.3	1.98e-05	0	43	0	185597952	20	4940
2026-01-01 09:12:46.77	117.51	15.63	-29.7	-32.6	13.2	2.28e-05	0	43	0	187695104	20	4994
2026-01-01 09:12:47.77	117.41	15.72	-29.7	-32.4	13.3	1.67e-05	0	43	0	189792256	20	4947
2026-01-01 09:12:48.78	117.31	15.82	-29.7	-32.6	13.2	2.21e-05	0	43	0	190840832	20	4994
2026-01-01 09:12:49.78	117.20	15.92	-29.8	-32.8	13.0	3.05e-05	0	42	0	192937984	20	5088
2026-01-01 09:12:50.78	117.10	16.02	-29.8	-32.7	13.1	2.97e-05	0	42	0	195035136	20	5046
2026-01-01 09:12:51.78	116.99	16.12	-29.7	-32.6	13.2	2.59e-05	0	42	0	197132288	20	5023
2026-01-01 09:12:52.78	116.89	16.22	-29.7	-32.5	13.2	1.90e-05	0	43	0	199229440	20	4968
2026-01-01 09:12:53.79	116.78	16.32	-29.8	-32.7	13.1	2.36e-05	0	43	0	200278016	20	5051
2026-01-01 09:12:54.79	116.68	16.42	-29.8	-32.7	13.1	2.74e-05	0	43	0	202375168	20	5039
2026-01-01 09:12:55.80	116.57	16.52	-29.8	-32.9	13.1	1.60e-05	0	43	0	204472320	20	5105
2026-01-01 09:12:56.81	116.46	16.62	-29.9	-33.2	12.8	5.26e-05	0	43	0	206569472	20	5215
2026-01-01 09:12:57.82	116.35	16.72	-29.9	-33.1	12.9	5.64e-05	0	43	0	208666624	20	5208
2026-01-01 09:12:58.82	116.24	16.82	-29.9	-33.0	13.0	4.95e-05	0	43	0	209715200	20	5151
2026-01-01 09:12:59.83	116.13	16.92	-30.0	-33.2	12.9	4.65e-05	0	43	0	211812352	20	5219
2026-01-01 09:13:00.83	116.02	17.02	-29.9	-33.1	13.0	4.04e-05	0	43	0	213909504	20	5175
2026-01-01 09:13:01.83	115.91	17.13	-29.9	-33.0	13.0	3.66e-05	0	43	0	216006656	20	5163
2026-01-01 09:13:02.84	115.79	17.23	-29.8	-32.9	13.1	3.43e-05	0	43	0	218103808	20	5095
2026-01-01 09:13:03.84	115.68	17.33	-29.9	-32.9	13.1	2.82e-05	0	43	0	219152384	20	5117
2026-01-01 09:13:04.84	115.57	17.43	-30.0	-33.2	12.9	4.57e-05	0	43	0	221249536	20	5208
2026-01-01 09:13:05.85	115.45	17.54	-29.9	-32.9	13.1	4.57e-05	0	43	0	223346688	20	5104
2026-01-01 09:13:06.85	115.33	17.64	-29.8	-32.6	13.3	2.21e-05	0	43	0	225443840	20	5009
2026-01-01 09:13:07.85	115.22	17.75	-29.8	-32.6	13.3	2.13e-05	0	43	0	226492416	20	5009
2026-01-01 09:13:08.86	115.10	17.85	-29.7	-32.5	13.4	1.52e-05	0	43	0	228589568	20	4965
2026-01-01 09:13:09.86	114.98	17.95	-29.8	-32.8	13.2	2.21e-05	0	43	0	230686720	20	5046
2026-01-01 09:13:10.87	114.86	18.06	-29.7	-32.5	13.4	2.05e-05	0	43	0	232783872	20	4938
2026-01-01 09:13:11.88	114.74	18.17	-29.7	-32.5	13.4	1.29e-05	0	43	0	234881024	20	4945
2026-01-01 09:13:12.88	114.62	18.27	-29.7	-32.4	13.5	1.67e-05	0	43	0	236978176	20	4902
2026-01-01 09:13:13.89	114.50	18.38	-29.7	-32.5	13.4	1.29e-05	0	43	0	238026752	20	4958
2026-01-01 09:13:14.89	114.37	18.48	-29.7	-32.5	13.4	1.83e-05	0	43	0	240123904	20	4958
2026-01-01 09:13:15.89	114.25	18.59	-29.8	-32.7	13.3	1.60e-05	0	43	0	242221056	20	5018
2026-01-01 09:13:16.89	114.13	18.70	-29.7	-32.5	13.4	1.44e-05	0	43	0	244318208	20	4956
2026-01-01 09:13:17.90	114.00	18.80	-29.7	-32.5	13.4	1.22e-05	0	43	0	245366784	20	4965
2026-01-01 09:13:18.90	113.87	18.91	-29.7	-32.3	13.5	1.14e-05	0	43	0	247463936	20	4895
2026-01-01 09:13:19.91	113.75	19.02	-29.7	-32.6	13.4	1.22e-05	0	43	0	249561088	20	4977
2026-01-01 09:13:20.90	113.62	19.13	-29.7	-32.4	13.5	1.60e-05	0	43	0	251658240	20	4909
2026-01-01 09:13:21.90	113.49	19.23	-29.8	-32.7	13.3	1.90e-05	0	43	0	253755392	20	5039
2026-01-01 09:13:22.90	113.36	19.34	-29.8	-32.7	13.3	2.28e-05	0	43	0	254803968	20	5032
2026-01-01 09:13:23.90	113.23	19.45	-29.9	-32.9	13.2	1.29e-05	0	43	0	256901120	20	5100
2026-01-01 09:13:24.90	113.10	19.56	-29.8	-32.7	13.3	2.13e-05	0	43	0	258998272	20	5019
2026-01-01 09:13:25.90	112.97	19.67	-29.8	-32.6	13.4	1.52e-05	0	43	0	261095424	20	4980
2026-01-01 09:13:26.91	112.83	19.78	-29.8	-32.7	13.3	1.83e-05	0	43	0	263192576	20	5019
2026-01-01 09:13:27.91	112.70	19.89	-29.8	-32.7	13.4	1.22e-05	0	43	0	264241152	20	5019
2026-01-01 09:13:28.91	112.56	20.00	-29.9	-32.9	13.2	1.98e-05	0	43	0	266338304	20	5108
2026-01-01 09:13:29.91	112.42	20.11	-30.0	-33.1	13.0	1.37e-05	0	43	0	268435456	20	5178
2026-01-01 09:13:30.91	112.29	20.22	-30.0	-33.2	13.0	3.81e-05	0	43	0	270532608	20	5207
2026-01-01 09:13:31.91	112.15	20.33	-30.0	-33.2	13.0	2.74e-05	0	43	0	272629760	20	5200
2026-01-01 09:13:32.92	112.01	20.45	-30.1	-33.4	12.9	3.96e-05	0	43	0	273678336	20	5292
2026-01-01 09:13:33.92	111.87	20.56	-30.0	-33.2	13.1	4.34e-05	0	43	0	275775488	20	5193
2026-01-01 09:13:34.92	111.73	20.67	-30.0	-33.1	13.1	2.89e-05	0	43	0	277872640	20	5152
2026-01-01 09:13:35.92	111.58	20.78	-30.0	-33.2	13.1	3.35e-05	0	43	0	279969792	20	5195
2026-01-01 09:13:36.92	111.44	20.90	-30.0	-33.2	13.1	3.73e-05	0	43	0	282066944	20	5204
2026-01-01 09:13:37.92	111.30	21.01	-30.1	-33.4	12.9	3.73e-05	0	43	0	283115520	20	5294
2026-01-01 09:13:38.93	111.15	21.12	-30.1	-33.5	12.9	4.11e-05	0	43	0	285212672	20	5326
2026-01-01 09:13:39.93	111.00	21.24	-30.1	-33.4	12.9	4.11e-05	0	43	0	287309824	20	5297
2026-01-01 09:13:40.93	110.85	21.35	-30.2	-33.8	12.7	7.47e-05	0	43	0	289406976	20	5451
2026-01-01 09:13:41.93	110.70	21.47	-30.1	-33.5	12.9	6.56e-05	0	43	0	290455552	20	5308
2026-01-01 09:13:42.94	110.55	21.58	-30.0	-33.2	13.1	3.58e-05	0	43	0	292552704	20	5213
2026-01-01 09:13:43.93	110.40	21.69	-30.0	-33.1	13.2	2.44e-05	0	43	0	294649856	20	5173
2026-01-01 09:13:44.94	110.25	21.81	-30.0	-33.2	13.1	3.20e-05	0	43	0	296747008	20	5193
2026-01-01 09:13:45.94	110.09	21.93	-29.9	-33.0	13.2	2.89e-05	0	43	0	298844160	20	5121
2026-01-01 09:13:46.94	109.94	22.04	-30.0	-33.3	13.1	2.51e-05	0	43	0	299892736	20	5224
2026-01-01 09:13:47.95	109.78	22.16	-30.1	-33.4	13.0	2.36e-05	0	43	0	301989888	20	5263
2026-01-01 09:13:48.95	109.62	22.28	-30.0	-33.1	13.2	3.05e-05	0	43	0	304087040	20	5141
2026-01-01 09:13:49.95	109.47	22.39	-29.9	-32.8	13.4	1.60e-05	0	43	0	306184192	20	5033
2026-01-01 09:13:50.95	109.31	22.51	-29.9	-32.7	13.5	1.22e-05	0	43	0	308281344	20	5019
2026-01-01 09:13:51.95	109.15	22.63	-30.0	-33.2	13.2	1.90e-05	0	43	0	309329920	20	5174
2026-01-01 09:13:52.95	108.98	22.75	-29.9	-32.9	13.4	2.28e-05	0	43	0	311427072	20	5071
2026-01-01 09:13:53.96	108.82	22.86	-29.8	-32.7	13.6	9.90e-06	0	43	0	313524224	20	4984
2026-01-01 09:13:54.96	108.65	22.98	-29.8	-32.7	13.5	1.14e-05	0	43	0	315621376	20	4977
2026-01-01 09:13:55.96	108.49	23.10	-29.8	-32.4	13.7	9.90e-06	0	43	0	317718528	20	4896
2026-01-01 09:13:56.95	108.32	23.22	-29.7	-32.3	13.8	7.60e-06	0	43	0	318767104	20	4846
2026-01-01 09:13:57.96	108.15	23.34	-29.8	-32.5	13.7	7.60e-06	0	43	0	320864256	20	4924
2026-01-01 09:13:58.96	107.98	23.46	-29.8	-32.4	13.7	6.10e-06	0	43	0	322961408	20	4894
2026-01-01 09:13:59.97	107.81	23.58	-29.8	-32.5	13.7	5.30e-06	0	43	0	325058560	20	4904
2026-01-01 09:14:00.97	107.64	23.70	-29.8	-32.6	13.6	9.10e-06	0	43	0	327155712	20	4962
2026-01-01 09:14:01.97	107.46	23.82	-29.8	-32.5	13.7	6.10e-06	0	43	0	328204288	20	4937
2026-01-01 09:14:02.98	107.29	23.94	-29.9	-32.9	13.4	7.60e-06	0	43	0	330301440	20	5056
2026-01-01 09:14:03.97	107.11	24.06	-30.0	-33.0	13.4	1.83e-05	0	43	0	332398592	20	5096
2026-01-01 09:14:04.98	106.93	24.18	-30.0	-33.0	13.4	1.29e-05	0	43	0	334495744	20	5114
2026-01-01 09:14:05.98	106.75	24.30	-30.0	-33.1	13.3	1.29e-05	0	43	0	335544320	20	5137
2026-01-01 09:14:06.98	106.57	24.43	-30.0	-33.2	13.3	1.90e-05	0	43	0	337641472	20	5175
2026-01-01 09:14:07.98	106.39	24.55	-30.0	-33.1	13.3	1.75e-05	0	43	0	339738624	20	5137
2026-01-01 09:14:08.98	106.21	24.67	-30.1	-33.3	13.2	1.52e-05	0	43	0	341835776	20	5225
2026-01-01 09:14:09.99	106.02	24.79	-30.1	-33.4	13.1	2.36e-05	0	43	0	343932928	20	5253
2026-01-01 09:14:10.99	105.83	24.92	-30.2	-33.5	13.0	2.36e-05	0	43	0	344981504	20	5311
2026-01-01 09:14:11.99	105.65	25.04	-30.2	-33.7	13.0	3.58e-05	0	43	0	347078656	20	5372
2026-01-01 09:14:12.99	105.46	25.16	-30.1	-33.5	13.1	1.60e-05	0	43	0	349175808	20	5268
2026-01-01 09:14:13.98	105.27	25.28	-30.1	-33.4	13.2	2.21e-05	0	43	0	351272960	20	5234
2026-01-01 09:14:14.98	105.08	25.41	-30.2	-33.6	13.1	2.13e-05	0	43	0	353370112	20	5308
2026-01-01 09:14:15.99	104.88	25.53	-30.2	-33.6	13.1	2.51e-05	0	43	0	354418688	20	5306
2026-01-01 09:14:16.99	104.68	25.65	-30.2	-33.7	13.0	3.35e-05	0	43	0	356515840	20	5353
2026-01-01 09:14:17.99	104.49	25.78	-30.3	-33.9	12.9	4.95e-05	0	43	0	358612992	20	5436
2026-01-01 09:14:18.99	104.29	25.90	-30.4	-34.2	12.7	7.24e-05	0	43	0	360710144	20	5567
2026-01-01 09:14:19.99	104.09	26.03	-30.6	-34.2	12.3	1.16e-04	0	43	0	362807296	21	5449
2026-01-01 09:14:20.99	103.89	26.15	-30.8	-34.8	11.9	2.66e-04	0	43	0	363855872	21	5727
2026-01-01 09:14:21.99	103.68	26.28	-30.8	-34.9	11.9	3.81e-04	0	43	0	365953024	21	5752
2026-01-01 09:14:22.99	103.48	26.40	-30.8	-35.0	11.8	4.67e-04	0	43	0	368050176	21	5800
2026-01-01 09:14:24.00	103.27	26.53	-30.9	-35.2	11.6	6.03e-04	0	43	0	370147328	21	5893
2026-01-01 09:14:25.00	103.06	26.65	-31.0	-35.0	11.4	7.76e-04	0	43	0	371195904	22	5717
2026-01-01 09:14:26.00	102.85	26.78	-31.2	-35.5	11.1	1.34e-03	0	43	0	373293056	22	5929
2026-01-01 09:14:27.01	102.64	26.91	-31.0	-35.1	11.4	1.44e-03	0	43	0	375390208	22	5731
2026-01-01 09:14:28.00	102.43	27.03	-31.1	-35.2	11.3	1.08e-03	0	43	0	377487360	22	5797
2026-01-01 09:14:29.01	102.21	27.16	-31.1	-35.3	11.3	1.09e-03	0	43	0	379584512	22	5813
2026-01-01 09:14:30.01	101.99	27.28	-31.2	-35.6	11.0	1.15e-03	0	43	0	380633088	22	5972
2026-01-01 09:14:31.01	101.77	27.41	-31.3	-36.0	10.8	1.80e-03	0	43	0	382730240	22	6177
2026-01-01 09:14:32.02	101.55	27.54	-31.3	-36.0	10.7	2.79e-03	0	43	0	384827392	22	6167
2026-01-01 09:14:33.03	101.33	27.66	-31.3	-36.1	10.6	2.83e-03	0	43	0	386924544	22	6207
2026-01-01 09:14:34.03	101.10	27.79	-31.2	-35.6	11.0	2.35e-03	0	43	0	389021696	22	5987
2026-01-01 09:14:35.03	100.88	27.92	-31.2	-35.4	11.2	1.76e-03	0	43	0	390070272	22	5885
2026-01-01 09:14:36.03	100.65	28.04	-31.2	-35.5	11.1	1.72e-03	0	43	0	392167424	22	5941
2026-01-01 09:14:37.04	100.42	28.17	-31.2	-35.5	11.2	1.40e-03	0	43	0	394264576	22	5913
2026-01-01 09:14:38.04	100.19	28.30	-31.4	-36.2	10.6	1.88e-03	0	43	0	396361728	22	6275
2026-01-01 09:14:39.05	99.95	28.43	-31.2	-35.7	11.0	2.26e-03	0	43	0	398458880	22	6011
2026-01-01 09:14:40.05	99.72	28.55	-31.5	-36.5	10.4	2.91e-03	0	43	0	399507456	22	6406
2026-01-01 09:14:41.05	99.48	28.68	-31.4	-36.2	10.6	3.73e-03	0	43	0	401604608	22	6283
2026-01-01 09:14:42.06	99.24	28.81	-31.6	-36.3	10.2	4.93e-03	0	43	0	403701760	23	6193
2026-01-01 09:14:43.07	99.00	28.94	-31.7	-36.8	9.8	8.24e-03	0	43	0	405798912	23	6469
2026-01-01 09:14:44.06	98.76	29.06	-31.5	-36.1	10.4	7.36e-03	0	43	0	407896064	23	6074
2026-01-01 09:14:45.06	98.51	29.19	-31.5	-36.2	10.3	4.39e-03	0	43	0	408944640	23	6122
2026-01-01 09:14:46.07	98.26	29.32	-31.6	-36.2	10.3	4.80e-03	0	43	0	411041792	23	6142
2026-01-01 09:14:47.07	98.02	29.44	-31.6	-36.5	10.1	5.77e-03	0	43	0	413138944	23	6278
2026-01-01 09:14:48.07	97.77	29.57	-31.6	-36.3	10.2	6.65e-03	0	43	0	415236096	23	6219
2026-01-01 09:14:49.08	97.51	29.70	-31.6	-36.3	10.2	6.13e-03	0	43	0	417333248	23	6209
2026-01-01 09:14:50.09	97.25	29.83	-31.6	-36.5	10.1	6.97e-03	0	43	0	418381824	23	6306
2026-01-01 09:14:51.09	97.00	29.95	-31.6	-36.2	10.3	6.35e-03	0	43	0	420478976	23	6169
2026-01-01 09:14:52.10	96.74	30.08	-31.5	-36.0	10.4	4.17e-03	0	43	0	422576128	23	6024
2026-01-01 09:14:53.10	96.48	30.21	-31.4	-35.5	10.8	3.35e-03	0	43	0	424673280	23	5813
2026-01-01 09:14:54.10	96.21	30.33	-31.3	-35.2	11.1	2.14e-03	0	43	0	425721856	23	5650
2026-01-01 09:14:55.11	95.95	30.46	-31.2	-35.0	11.2	1.43e-03	0	43	0	427819008	23	5574
2026-01-01 09:14:56.11	95.68	30.59	-31.2	-35.0	11.2	1.33e-03	0	43	0	429916160	23	5578
2026-01-01 09:14:57.11	95.41	30.71	-31.2	-35.1	11.2	1.27e-03	0	43	0	432013312	23	5612
2026-01-01 09:14:58.11	95.14	30.84	-31.3	-35.3	11.1	1.51e-03	0	43	0	434110464	23	5689
2026-01-01 09:14:59.11	94.87	30.96	-31.4	-35.5	10.9	1.87e-03	0	43	0	436207616	23	5802
2026-01-01 09:15:00.11	94.59	31.09	-31.2	-34.8	11.4	1.30e-03	0	43	0	437256192	23	5462
2026-01-01 09:15:01.10	94.32	31.21	-31.0	-34.1	11.9	5.47e-04	0	43	0	439353344	23	5188
2026-01-01 09:15:02.10	94.04	31.34	-31.0	-34.3	11.8	4.82e-04	0	43	0	441450496	23	5253
2026-01-01 09:15:03.11	93.76	31.46	-31.0	-34.2	11.9	4.18e-04	0	43	0	443547648	23	5207
2026-01-01 09:15:04.11	93.47	31.59	-31.0	-34.3	11.7	3.91e-04	0	43	0	444596224	23	5275
2026-01-01 09:15:05.11	93.19	31.71	-31.2	-34.9	11.3	5.99e-04	0	43	0	446693376	23	5504
2026-01-01 09:15:06.12	92.89	31.84	-31.3	-35.3	11.0	1.60e-03	0	43	0	448790528	23	5707
2026-01-01 09:15:07.12	92.60	31.96	-31.5	-35.7	10.8	2.49e-03	0	43	0	450887680	23	5891
2026-01-01 09:15:08.12	92.31	32.08	-31.5	-35.9	10.7	2.78e-03	0	43	0	452984832	23	5944
2026-01-01 09:15:09.12	92.02	32.21	-31.6	-36.1	10.5	3.44e-03	0	43	0	454033408	23	6049
2026-01-01 09:15:10.13	91.72	32.33	-31.7	-36.4	10.3	4.84e-03	0	43	0	456130560	23	6221
2026-01-01 09:15:11.13	91.42	32.45	-31.8	-36.9	9.9	7.64e-03	0	43	0	458227712	23	6477
2026-01-01 09:15:12.13	91.12	32.57	-31.7	-36.6	10.1	7.84e-03	0	43	0	460324864	23	6335
2026-01-01 09:15:13.13	90.81	32.69	-31.8	-36.8	10.0	6.20e-03	0	43	0	462422016	23	6399
2026-01-01 09:15:14.14	90.50	32.82	-31.8	-36.9	10.0	7.87e-03	0	43	0	463470592	23	6446
2026-01-01 09:15:15.15	90.19	32.94	-31.9	-37.0	9.8	8.79e-03	0	43	0	465567744	23	6516
2026-01-01 09:15:16.15	89.88	33.06	-32.0	-37.5	9.5	1.30e-02	0	43	0	467664896	23	6806
2026-01-01 09:15:17.16	89.56	33.18	-32.1	-37.6	9.0	1.88e-02	0	43	0	469762048	24	6743
2026-01-01 09:15:18.17	89.25	33.30	-32.2	-38.0	8.7	3.01e-02	0	43	0	471859200	24	7007
2026-01-01 09:15:19.16	88.93	33.41	-32.2	-37.7	9.0	2.60e-02	0	43	0	472907776	24	6786
2026-01-01 09:15:20.17	88.61	33.53	-32.3	-38.5	8.4	3.82e-02	0	43	0	475004928	24	7286
2026-01-01 09:15:21.17	88.29	33.65	-32.2	-37.9	8.8	3.92e-02	0	43	0	477102080	24	6944
2026-01-01 09:15:22.18	87.96	33.77	-32.2	-37.9	8.8	3.25e-02	0	43	0	479199232	24	6900
2026-01-01 09:15:23.18	87.63	33.88	-32.3	-38.0	8.7	2.90e-02	0	43	0	481296384	24	7008
2026-01-01 09:15:24.18	87.30	34.00	-32.4	-38.6	8.3	3.66e-02	0	43	0	482344960	24	7340
2026-01-01 09:15:25.19	86.97	34.11	-32.4	-38.9	8.0	5.41e-02	0	43	0	484442112	24	7572
2026-01-01 09:15:26.20	86.63	34.23	-32.5	-38.8	7.7	8.38e-02	0	43	0	486539264	25	7419
2026-01-01 09:15:27.20	86.29	34.34	-32.6	-39.1	7.5	9.45e-02	0	43	0	488636416	25	7570
2026-01-01 09:15:28.21	85.95	34.46	-32.5	-38.7	7.8	8.92e-02	0	43	0	490733568	25	7304
2026-01-01 09:15:29.22	85.61	34.57	-32.7	-39.3	7.4	1.13e-01	0	43	0	491782144	25	7714
2026-01-01 09:15:30.22	85.26	34.68	-32.5	-38.5	7.9	9.00e-02	0	43	0	493879296	25	7224
2026-01-01 09:15:31.21	84.92	34.79	-32.4	-37.9	8.5	5.53e-02	0	43	0	495976448	25	6799
2026-01-01 09:15:32.21	84.57	34.90	-32.2	-37.2	9.0	2.96e-02	0	43	0	498073600	25	6417
2026-01-01 09:15:33.22	84.22	35.01	-32.2	-37.1	9.0	2.41e-02	0	43	0	499122176	25	6374
2026-01-01 09:15:34.22	83.86	35.12	-32.2	-37.1	9.1	2.71e-02	0	43	0	501219328	25	6329
2026-01-01 09:15:35.22	83.51	35.22	-32.0	-36.5	9.5	1.85e-02	0	43	0	503316480	25	6057
2026-01-01 09:15:36.22	83.15	35.33	-32.1	-36.9	9.2	1.61e-02	0	43	0	505413632	25	6234
2026-01-01 09:15:37.23	82.79	35.43	-32.1	-37.0	9.2	2.20e-02	0	43	0	507510784	25	6279
2026-01-01 09:15:38.22	82.43	35.54	-32.0	-36.4	9.6	1.71e-02	0	43	0	508559360	25	5973
2026-01-01 09:15:39.23	82.06	35.64	-31.8	-35.9	10.0	7.88e-03	0	43	0	510656512	25	5740
2026-01-01 09:15:40.23	81.69	35.74	-31.8	-35.8	10.0	7.18e-03	0	43	0	512753664	25	5718
2026-01-01 09:15:41.24	81.32	35.84	-31.8	-35.7	10.1	7.62e-03	0	43	0	514850816	25	5651
2026-01-01 09:15:42.24	80.95	35.94	-31.7	-35.9	10.4	5.64e-03	0	43	0	516947968	24	5846
2026-01-01 09:15:43.25	80.57	36.04	-31.3	-34.7	11.3	1.71e-03	0	43	0	517996544	24	5284
2026-01-01 09:15:44.26	80.19	36.14	-31.1	-34.5	11.7	6.91e-04	0	43	0	520093696	23	5319
2026-01-01 09:15:45.26	79.81	36.24	-31.1	-34.5	11.8	5.13e-04	0	43	0	522190848	23	5292
2026-01-01 09:15:46.26	79.43	36.33	-31.0	-34.3	11.9	4.81e-04	0	43	0	524288000	23	5237
2026-01-01 09:15:47.26	79.05	36.43	-30.8	-33.6	12.4	2.16e-04	0	43	0	526385152	23	4943
2026-01-01 09:15:48.26	78.67	36.52	-30.6	-33.6	12.7	9.00e-05	0	43	0	527433728	22	5065
2026-01-01 09:15:49.27	78.28	36.61	-30.6	-33.5	12.8	6.79e-05	0	43	0	529530880	22	5021
2026-01-01 09:15:50.27	77.89	36.70	-30.6	-33.4	12.8	8.01e-05	0	43	0	531628032	22	4987
2026-01-01 09:15:51.26	77.50	36.79	-30.5	-33.3	12.9	6.63e-05	0	43	0	533725184	22	4927
2026-01-01 09:15:52.27	77.10	36.88	-30.6	-33.5	12.8	4.95e-05	0	43	0	535822336	22	5008
2026-01-01 09:15:53.26	76.71	36.97	-30.7	-33.7	12.7	8.69e-05	0	43	0	536870912	22	5080
2026-01-01 09:15:54.26	76.31	37.05	-30.5	-33.1	13.1	4.04e-05	0	43	0	538968064	22	4858
2026-01-01 09:15:55.27	75.91	37.14	-30.1	-32.7	13.6	1.14e-05	0	43	0	541065216	21	4831
2026-01-01 09:15:56.27	75.51	37.22	-30.1	-32.5	13.8	9.90e-06	0	43	0	543162368	21	4770
2026-01-01 09:15:57.27	75.10	37.30	-30.2	-32.8	13.6	5.30e-06	0	43	0	545259520	21	4865
2026-01-01 09:15:58.28	74.69	37.38	-30.2	-32.8	13.6	1.22e-05	0	43	0	546308096	21	4866
2026-01-01 09:15:59.27	74.29	37.46	-30.0	-32.3	13.9	4.50e-06	0	43	0	548405248	21	4676
2026-01-01 09:16:00.27	73.88	37.54	-30.0	-32.4	13.9	1.50e-06	0	43	0	550502400	21	4712
2026-01-01 09:16:01.28	73.46	37.61	-30.1	-32.7	13.6	2.20e-06	0	43	0	552599552	21	4830
2026-01-01 09:16:02.27	73.05	37.68	-30.1	-32.7	13.6	9.90e-06	0	43	0	553648128	21	4835
2026-01-01 09:16:03.27	72.64	37.76	-30.2	-32.8	13.5	9.90e-06	0	43	0	555745280	21	4874
2026-01-01 09:16:04.27	72.22	37.83	-30.0	-32.3	13.9	4.50e-06	0	43	0	557842432	21	4690
2026-01-01 09:16:05.28	71.80	37.90	-30.0	-32.2	13.9	4.50e-06	0	43	0	559939584	21	4671
2026-01-01 09:16:06.28	71.38	37.96	-29.9	-32.1	13.9	5.30e-06	0	43	0	562036736	21	4626
2026-01-01 09:16:07.28	70.95	38.03	-29.6	-31.9	14.5	2.20e-06	0	43	0	563085312	20	4653
2026-01-01 09:16:08.29	70.52	38.09	-29.4	-31.3	14.8	0.00e+00	0	43	0	565182464	20	4467
2026-01-01 09:16:09.29	70.10	38.16	-29.2	-31.3	15.2	0.00e+00	0	43	0	567279616	19	4555
2026-01-01 09:16:10.30	69.67	38.22	-29.2	-31.3	15.2	3.80e-06	0	43	0	569376768	19	4572
2026-01-01 09:16:11.29	69.24	38.28	-29.4	-31.7	14.9	0.00e+00	0	43	0	571473920	19	4705
2026-01-01 09:16:12.29	68.81	38.33	-29.5	-31.9	14.8	0.00e+00	0	43	0	572522496	19	4763
2026-01-01 09:16:13.29	68.38	38.39	-29.5	-32.1	14.7	0.00e+00	0	43	0	574619648	19	4829
2026-01-01 09:16:14.29	67.94	38.44	-29.4	-31.8	14.9	0.00e+00	0	43	0	576716800	19	4721
2026-01-01 09:16:15.29	67.51	38.49	-29.4	-31.8	14.9	0.00e+00	0	43	0	578813952	19	4742
2026-01-01 09:16:16.30	67.07	38.54	-29.6	-32.3	14.6	2.20e-06	0	43	0	579862528	19	4903
2026-01-01 09:16:17.30	66.63	38.59	-29.6	-32.3	14.5	0.00e+00	0	43	0	581959680	19	4913
2026-01-01 09:16:18.31	66.19	38.64	-29.6	-32.2	14.6	0.00e+00	0	43	0	584056832	19	4890
2026-01-01 09:16:19.30	65.75	38.68	-29.5	-32.0	14.7	2.20e-06	0	43	0	586153984	19	4814
2026-01-01 09:16:20.31	65.31	38.73	-29.5	-32.1	14.6	7.00e-07	0	43	0	588251136	19	4852
2026-01-01 09:16:21.32	64.86	38.77	-29.3	-31.6	15.0	0.00e+00	0	43	0	590348288	19	4665
2026-01-01 09:16:22.32	64.42	38.81	-29.4	-31.9	14.9	4.50e-06	0	43	0	591396864	19	4754
2026-01-01 09:16:23.32	63.97	38.84	-29.3	-31.5	15.0	0.00e+00	0	43	0	593494016	19	4640
2026-01-01 09:16:24.33	63.52	38.88	-29.3	-31.5	15.1	0.00e+00	0	43	0	595591168	19	4631
2026-01-01 09:16:25.34	63.07	38.91	-29.5	-31.9	14.8	1.50e-06	0	43	0	597688320	19	4765
2026-01-01 09:16:26.35	62.62	38.94	-29.6	-32.2	14.7	7.00e-07	0	43	0	598736896	19	4851
2026-01-01 09:16:27.35	62.17	38.97	-29.5	-31.9	14.7	7.00e-07	0	43	0	600834048	19	4769
2026-01-01 09:16:28.34	61.73	39.00	-29.3	-31.5	15.0	3.80e-06	0	43	0	602931200	19	4637
2026-01-01 09:16:29.35	61.27	39.02	-29.4	-31.6	15.0	0.00e+00	0	43	0	605028352	19	4681
2026-01-01 09:16:30.35	60.82	39.05	-29.6	-32.2	14.7	0.00e+00	0	43	0	607125504	19	4866
2026-01-01 09:16:31.35	60.37	39.07	-29.6	-32.2	14.6	0.00e+00	0	43	0	608174080	19	4865
2026-01-01 09:16:32.35	59.92	39.09	-29.5	-32.1	14.7	0.00e+00	0	43	0	610271232	19	4826
2026-01-01 09:16:33.36	59.46	39.10	-29.6	-32.3	14.6	1.50e-06	0	44	0	612368384	19	4893
2026-01-01 09:16:34.36	59.01	39.12	-29.8	-32.7	14.3	7.00e-07	0	43	0	614465536	19	5042
2026-01-01 09:16:35.36	58.56	39.13	-29.9	-33.1	14.0	3.00e-06	0	43	0	616562688	19	5198
2026-01-01 09:16:36.37	58.10	39.14	-30.0	-32.9	13.8	1.50e-06	0	43	0	617611264	20	5028
2026-01-01 09:16:37.37	57.65	39.15	-30.2	-33.4	13.4	8.30e-06	0	43	0	619708416	20	5210
2026-01-01 09:16:38.37	57.19	39.16	-30.4	-34.0	13.1	1.22e-05	0	43	0	621805568	20	5414
2026-01-01 09:16:39.37	56.74	39.16	-30.5	-33.8	12.9	3.50e-05	0	43	0	623902720	21	5246
2026-01-01 09:16:40.37	56.28	39.17	-30.4	-33.5	13.1	3.58e-05	0	44	0	625999872	21	5110
2026-01-01 09:16:41.38	55.83	39.17	-30.3	-33.3	13.2	1.98e-05	0	43	0	627048448	21	5042
2026-01-01 09:16:42.39	55.37	39.16	-30.4	-33.4	13.2	2.28e-05	0	43	0	629145600	21	5092
2026-01-01 09:16:43.39	54.91	39.16	-30.6	-33.9	12.8	3.89e-05	0	43	0	631242752	21	5261
2026-01-01 09:16:44.39	54.46	39.16	-30.6	-33.9	12.9	5.26e-05	0	43	0	633339904	21	5277
2026-01-01 09:16:45.39	54.01	39.15	-30.8	-34.5	12.3	1.48e-04	0	43	0	635437056	21	5545
2026-01-01 09:16:46.40	53.55	39.14	-30.9	-34.8	12.2	1.69e-04	0	43	0	636485632	21	5645
2026-01-01 09:16:47.40	53.10	39.13	-31.1	-35.0	11.8	4.34e-04	0	43	0	638582784	22	5614
2026-01-01 09:16:48.40	52.64	39.11	-31.0	-34.6	12.0	4.22e-04	0	43	0	640679936	22	5462
2026-01-01 09:16:49.41	52.19	39.10	-31.0	-34.8	11.9	3.33e-04	0	43	0	642777088	22	5528
2026-01-01 09:16:50.41	51.74	39.08	-31.2	-35.1	11.7	4.41e-04	0	43	0	644874240	22	5698
2026-01-01 09:16:51.41	51.28	39.06	-31.4	-35.8	11.2	1.27e-03	0	43	0	645922816	22	6003
2026-01-01 09:16:52.40	50.84	39.04	-31.3	-35.7	11.2	1.40e-03	0	43	0	648019968	22	5960
2026-01-01 09:16:53.40	50.39	39.01	-31.4	-35.9	11.1	1.25e-03	0	43	0	650117120	22	6037
2026-01-01 09:16:54.41	49.93	38.99	-31.5	-35.8	10.7	3.14e-03	0	43	0	652214272	23	5879
2026-01-01 09:16:55.40	49.49	38.96	-31.6	-36.0	10.7	2.60e-03	0	43	0	653262848	23	5973
2026-01-01 09:16:56.40	49.04	38.93	-31.6	-36.0	10.6	3.12e-03	0	43	0	655360000	23	5996
2026-01-01 09:16:57.41	48.59	38.90	-31.7	-36.3	10.4	5.57e-03	0	43	0	657457152	23	6151
2026-01-01 09:16:58.42	48.14	38.87	-31.6	-36.0	10.7	3.31e-03	0	43	0	659554304	23	5981
2026-01-01 09:16:59.43	47.69	38.83	-31.6	-36.1	10.6	3.11e-03	0	43	0	661651456	23	6054
2026-01-01 09:17:00.43	47.25	38.79	-31.6	-36.2	10.5	2.83e-03	0	43	0	662700032	23	6111
2026-01-01 09:17:01.44	46.80	38.75	-31.7	-36.6	10.1	5.14e-03	0	43	0	664797184	23	6281
2026-01-01 09:17:02.44	46.36	38.71	-31.8	-36.9	9.9	8.00e-03	0	43	0	666894336	23	6429
2026-01-01 09:17:03.45	45.91	38.67	-31.9	-37.3	9.7	9.28e-03	0	43	0	668991488	23	6678
2026-01-01 09:17:04.46	45.47	38.62	-31.8	-36.9	10.0	1.07e-02	0	43	0	671088640	23	6453
2026-01-01 09:17:05.47	45.03	38.57	-31.7	-36.5	10.3	7.04e-03	0	43	0	672137216	23	6249
2026-01-01 09:17:06.47	44.59	38.53	-31.7	-36.3	10.4	4.75e-03	0	43	0	674234368	23	6160
2026-01-01 09:17:07.48	44.15	38.47	-31.8	-36.6	10.2	5.64e-03	0	43	0	676331520	23	6289
2026-01-01 09:17:08.47	43.72	38.42	-31.8	-36.7	10.1	6.21e-03	0	43	0	678428672	23	6334
2026-01-01 09:17:09.48	43.29	38.37	-31.8	-36.6	10.1	7.27e-03	0	43	0	680525824	23	6314
2026-01-01 09:17:10.48	42.86	38.31	-31.6	-36.0	10.5	4.71e-03	0	43	0	681574400	23	6021
2026-01-01 09:17:11.49	42.42	38.25	-31.5	-35.8	10.8	2.71e-03	0	43	0	683671552	23	5875
2026-01-01 09:17:12.49	41.99	38.19	-31.3	-35.0	11.3	1.65e-03	0	43	0	685768704	23	5518
2026-01-01 09:17:13.49	41.57	38.13	-31.1	-34.5	11.8	7.02e-04	0	43	0	687865856	23	5300
2026-01-01 09:17:14.49	41.14	38.07	-31.1	-34.4	11.8	4.39e-04	0	43	0	689963008	23	5278
2026-01-01 09:17:15.49	40.72	38.00	-31.0	-34.0	12.0	4.55e-04	0	43	0	691011584	23	5121
2026-01-01 09:17:16.49	40.30	37.94	-30.9	-33.9	12.2	1.65e-04	0	43	0	693108736	23	5078
2026-01-01 09:17:17.50	39.87	37.87	-30.8	-34.0	12.4	2.54e-04	0	43	0	695205888	22	5213
2026-01-01 09:17:18.50	39.46	37.80	-30.3	-32.8	13.3	4.34e-05	0	43	0	697303040	22	4755
2026-01-01 09:17:19.50	39.04	37.73	-30.1	-32.6	13.6	7.60e-06	0	43	0	698351616	21	4807
2026-01-01 09:17:20.51	38.62	37.66	-29.8	-31.9	14.1	3.00e-06	0	43	0	700448768	21	4566
2026-01-01 09:17:21.51	38.21	37.58	-29.6	-31.7	14.6	0.00e+00	0	43	0	702545920	20	4590
2026-01-01 09:17:22.52	37.80	37.51	-29.5	-31.4	14.7	7.00e-07	0	43	0	704643072	20	4515
2026-01-01 09:17:23.52	37.39	37.43	-29.4	-31.2	14.9	7.00e-07	0	43	0	706740224	20	4449
2026-01-01 09:17:24.52	36.98	37.35	-29.5	-31.6	14.6	7.00e-07	0	43	0	708837376	20	4583
2026-01-01 09:17:25.53	36.57	37.27	-29.5	-31.6	14.7	0.00e+00	0	43	0	709885952	20	4564
2026-01-01 09:17:26.53	36.17	37.19	-29.3	-31.1	14.9	0.00e+00	0	43	0	711983104	20	4397
2026-01-01 09:17:27.53	35.77	37.10	-29.4	-31.1	14.9	0.00e+00	0	43	0	714080256	20	4425
2026-01-01 09:17:28.53	35.37	37.02	-29.4	-31.3	14.8	0.00e+00	0	43	0	716177408	20	4465
2026-01-01 09:17:29.54	34.97	36.93	-29.4	-31.3	14.8	7.00e-07	0	43	0	717225984	20	4467
2026-01-01 09:17:30.53	34.58	36.85	-29.5	-31.6	14.7	7.00e-07	0	43	0	719323136	20	4558
2026-01-01 09:17:31.54	34.19	36.76	-29.5	-31.5	14.6	0.00e+00	0	43	0	721420288	20	4554
2026-01-01 09:17:32.54	33.80	36.67	-29.3	-31.1	14.8	0.00e+00	0	43	0	723517440	20	4423
2026-01-01 09:17:33.54	33.41	36.58	-29.2	-31.3	15.2	7.00e-07	0	43	0	725614592	19	4560
2026-01-01 09:17:34.54	33.02	36.49	-29.3	-31.4	15.1	0.00e+00	0	43	0	726663168	19	4608
2026-01-01 09:17:35.54	32.64	36.39	-29.5	-31.9	14.8	0.00e+00	0	43	0	728760320	19	4766
2026-01-01 09:17:36.54	32.26	36.30	-29.5	-32.1	14.6	0.00e+00	0	43	0	730857472	19	4845
2026-01-01 09:17:37.55	31.88	36.20	-29.6	-32.4	14.5	0.00e+00	0	43	0	732954624	19	4944
2026-01-01 09:17:38.55	31.50	36.11	-29.8	-32.7	14.3	0.00e+00	0	43	0	735051776	19	5040
2026-01-01 09:17:39.55	31.13	36.01	-29.9	-33.2	14.0	3.80e-06	0	44	0	736100352	19	5215
2026-01-01 09:17:40.56	30.75	35.91	-29.8	-32.4	14.0	2.20e-06	0	43	0	738197504	20	4842
2026-01-01 09:17:41.56	30.38	35.81	-29.8	-32.3	14.1	2.20e-06	0	43	0	740294656	20	4794
2026-01-01 09:17:42.56	30.02	35.71	-29.8	-32.3	14.1	3.00e-06	0	43	0	742391808	20	4807
2026-01-01 09:17:43.56	29.65	35.60	-29.9	-32.7	13.9	3.00e-06	0	43	0	744488960	20	4956
2026-01-01 09:17:44.57	29.28	35.50	-30.0	-32.9	13.7	7.60e-06	0	43	0	745537536	20	5008
2026-01-01 09:17:45.57	28.92	35.40	-29.9	-32.7	13.8	5.30e-06	0	43	0	747634688	20	4940
2026-01-01 09:17:46.57	28.57	35.29	-29.9	-32.7	13.8	1.50e-06	0	43	0	749731840	20	4970
2026-01-01 09:17:47.57	28.21	35.19	-30.0	-32.9	13.7	3.00e-06	0	43	0	751828992	20	5013
2026-01-01 09:17:48.58	27.85	35.08	-30.0	-32.8	13.8	6.10e-06	0	43	0	753926144	20	4995
2026-01-01 09:17:49.58	27.50	34.97	-29.9	-32.7	13.8	3.00e-06	0	43	0	754974720	20	4947
2026-01-01 09:17:50.59	27.15	34.86	-30.0	-32.8	13.7	4.50e-06	0	43	0	757071872	20	4980
2026-01-01 09:17:51.58	26.81	34.75	-30.0	-32.9	13.7	7.60e-06	0	43	0	759169024	20	5028
2026-01-01 09:17:52.58	26.46	34.64	-30.0	-32.8	13.7	9.90e-06	0	43	0	761266176	20	4996
2026-01-01 09:17:53.59	26.12	34.53	-30.0	-33.0	13.7	1.14e-05	0	43	0	762314752	20	5049
2026-01-01 09:17:54.59	25.78	34.42	-30.0	-32.8	13.7	6.80e-06	0	43	0	764411904	20	4984
2026-01-01 09:17:55.58	25.45	34.31	-30.0	-33.0	13.6	3.00e-06	0	43	0	766509056	20	5061
2026-01-01 09:17:56.59	25.11	34.19	-30.0	-32.9	13.7	6.80e-06	0	43	0	768606208	20	5009
2026-01-01 09:17:57.59	24.78	34.08	-30.0	-33.0	13.6	4.50e-06	0	43	0	770703360	20	5052
2026-01-01 09:17:58.59	24.45	33.97	-30.1	-33.1	13.5	1.90e-05	0	43	0	771751936	20	5113
2026-01-01 09:17:59.60	24.12	33.85	-30.1	-33.1	13.5	7.60e-06	0	43	0	773849088	20	5099
2026-01-01 09:18:00.60	23.79	33.73	-30.2	-33.5	13.3	9.10e-06	0	43	0	775946240	20	5248
2026-01-01 09:18:01.60	23.47	33.62	-30.4	-33.9	13.0	2.97e-05	0	43	0	778043392	20	5423
2026-01-01 09:18:02.60	23.15	33.50	-30.5	-33.8	12.8	4.88e-05	0	43	0	780140544	21	5257
2026-01-01 09:18:03.60	22.83	33.38	-30.6	-34.2	12.4	8.92e-05	0	43	0	781189120	21	5434
2026-01-01 09:18:04.61	22.51	33.26	-30.6	-34.2	12.5	1.96e-04	0	43	0	783286272	21	5425
2026-01-01 09:18:05.62	22.19	33.14	-30.7	-34.3	12.4	1.26e-04	0	43	0	785383424	21	5473
2026-01-01 09:18:06.62	21.88	33.03	-30.8	-34.6	12.2	2.15e-04	0	43	0	787480576	21	5607
2026-01-01 09:18:07.62	21.57	32.91	-30.9	-35.0	12.0	3.65e-04	0	43	0	789577728	21	5745
2026-01-01 09:18:08.62	21.27	32.79	-30.9	-35.1	11.9	3.81e-04	0	43	0	790626304	21	5796
2026-01-01 09:18:09.62	20.96	32.67	-31.1	-34.9	11.7	5.31e-04	0	43	0	792723456	22	5618
2026-01-01 09:18:10.62	20.66	32.54	-31.0	-34.8	11.8	5.69e-04	0	43	0	794820608	22	5562
2026-01-01 09:18:11.62	20.36	32.42	-31.1	-35.0	11.7	6.22e-04	0	43	0	796917760	22	5633
2026-01-01 09:18:12.63	20.06	32.30	-31.1	-35.2	11.4	8.67e-04	0	43	0	799014912	22	5751
2026-01-01 09:18:13.63	19.77	32.18	-31.2	-35.4	11.3	1.38e-03	0	43	0	800063488	22	5835
2026-01-01 09:18:14.64	19.47	32.06	-31.2	-35.5	11.3	1.29e-03	0	43	0	802160640	22	5874
2026-01-01 09:18:15.64	19.18	31.93	-31.3	-35.7	11.0	1.35e-03	0	44	0	804257792	22	5981
2026-01-01 09:18:16.64	18.89	31.81	-31.2	-35.4	11.2	1.58e-03	0	43	0	806354944	22	5850
2026-01-01 09:18:17.64	18.61	31.69	-31.2	-35.4	11.3	1.30e-03	0	43	0	807403520	22	5835
2026-01-01 09:18:18.65	18.32	31.56	-31.2	-35.4	11.3	1.08e-03	0	43	0	809500672	22	5841
2026-01-01 09:18:19.65	18.04	31.44	-31.2	-35.4	11.3	1.31e-03	0	43	0	811597824	22	5826
2026-01-01 09:18:20.65	17.76	31.31	-31.3	-35.6	11.1	1.30e-03	0	43	0	813694976	22	5952
2026-01-01 09:18:21.65	17.48	31.19	-31.3	-35.8	10.9	2.15e-03	0	43	0	815792128	22	6025
2026-01-01 09:18:22.64	17.21	31.07	-31.4	-36.0	10.8	2.27e-03	0	43	0	816840704	22	6147
2026-01-01 09:18:23.64	16.93	30.94	-31.3	-35.8	10.9	2.32e-03	0	43	0	818937856	22	6046
2026-01-01 09:18:24.64	16.66	30.82	-31.1	-35.1	11.5	1.36e-03	0	44	0	821035008	22	5708
2026-01-01 09:18:25.65	16.39	30.69	-31.0	-34.8	11.7	8.86e-04	0	43	0	823132160	22	5571
2026-01-01 09:18:26.66	16.12	30.56	-31.0	-34.7	11.7	5.52e-04	0	43	0	825229312	22	5546
2026-01-01 09:18:27.66	15.86	30.44	-31.0	-34.7	11.8	7.84e-04	0	43	0	826277888	22	5516
2026-01-01 09:18:28.66	15.59	30.31	-31.0	-34.8	11.7	4.17e-04	0	43	0	828375040	22	5581
2026-01-01 09:18:29.66	15.33	30.19	-31.0	-34.9	11.6	6.73e-04	0	43	0	830472192	22	5618
2026-01-01 09:18:30.67	15.07	30.06	-31.0	-34.8	11.6	5.77e-04	0	43	0	832569344	22	5591
2026-01-01 09:18:31.67	14.82	29.93	-30.9	-34.6	11.8	5.78e-04	0	43	0	834666496	22	5488
2026-01-01 09:18:32.68	14.56	29.81	-30.9	-34.5	11.9	3.62e-04	0	43	0	835715072	22	5444
2026-01-01 09:18:33.68	14.31	29.68	-30.9	-34.6	11.8	4.82e-04	0	43	0	837812224	22	5473
2026-01-01 09:18:34.68	14.06	29.55	-30.8	-34.2	12.1	4.42e-04	0	43	0	839909376	22	5343
2026-01-01 09:18:35.69	13.80	29.43	-30.7	-33.7	12.4	2.76e-04	0	43	0	842006528	22	5141
2026-01-01 09:18:36.69	13.56	29.30	-30.5	-33.4	12.6	8.16e-05	0	43	0	844103680	22	5031
2026-01-01 09:18:37.70	13.31	29.17	-30.7	-33.9	12.2	1.23e-04	0	43	0	845152256	22	5223
2026-01-01 09:18:38.70	13.07	29.05	-30.7	-33.9	12.2	1.85e-04	0	43	0	847249408	22	5216
2026-01-01 09:18:39.70	12.83	28.92	-30.7	-34.0	12.2	2.07e-04	0	44	0	849346560	22	5265
2026-01-01 09:18:40.71	12.59	28.79	-30.6	-33.7	12.4	1.69e-04	0	43	0	851443712	22	5126
2026-01-01 09:18:41.71	12.35	28.67	-30.4	-33.2	12.8	1.01e-04	0	43	0	853540864	22	4920
2026-01-01 09:18:42.71	12.11	28.54	-30.3	-32.8	13.0	3.28e-05	0	43	0	854589440	22	4791
2026-01-01 09:18:43.72	11.88	28.41	-30.4	-32.9	12.9	5.72e-05	0	43	0	856686592	22	4840
2026-01-01 09:18:44.72	11.65	28.29	-30.4	-33.1	12.8	4.04e-05	0	43	0	858783744	22	4909
2026-01-01 09:18:45.72	11.42	28.16	-30.4	-33.2	12.7	6.63e-05	0	44	0	860880896	22	4943
2026-01-01 09:18:46.72	11.19	28.03	-30.5	-33.4	12.7	8.54e-05	0	43	0	862978048	22	5002
2026-01-01 09:18:47.72	10.97	27.91	-30.6	-33.6	12.4	1.01e-04	0	43	0	864026624	22	5093
2026-01-01 09:18:48.73	10.74	27.78	-30.5	-33.4	12.6	1.40e-04	0	43	0	866123776	22	5016
2026-01-01 09:18:49.73	10.52	27.65	-30.4	-33.0	12.8	8.31e-05	0	43	0	868220928	22	4888
2026-01-01 09:18:50.73	10.30	27.53	-30.3	-32.9	12.9	5.26e-05	0	43	0	870318080	22	4818
2026-01-01 09:18:51.73	10.08	27.40	-30.4	-33.5	12.8	4.57e-05	0	43	0	871366656	21	5167
2026-01-01 09:18:52.74	9.86	27.28	-30.3	-33.2	13.0	5.95e-05	0	43	0	873463808	21	5072
2026-01-01 09:18:53.74	9.64	27.15	-30.3	-33.4	12.9	2.82e-05	0	43	0	875560960	21	5141
2026-01-01 09:18:54.74	9.43	27.03	-30.2	-33.2	13.0	5.41e-05	0	43	0	877658112	21	5052
2026-01-01 09:18:55.74	9.22	26.90	-30.1	-32.9	13.2	1.67e-05	0	43	0	879755264	21	4935
2026-01-01 09:18:56.75	9.01	26.77	-30.1	-32.8	13.2	1.83e-05	0	43	0	880803840	21	4923
2026-01-01 09:18:57.75	8.80	26.65	-30.1	-32.7	13.3	1.75e-05	0	43	0	882900992	21	4880
2026-01-01 09:18:58.76	8.59	26.52	-30.1	-32.9	13.2	1.83e-05	0	43	0	884998144	21	4935
2026-01-01 09:18:59.76	8.38	26.40	-30.1	-32.9	13.2	2.21e-05	0	43	0	887095296	21	4937
2026-01-01 09:19:00.77	8.18	26.27	-30.2	-33.0	13.1	3.89e-05	0	43	0	889192448	21	4983
2026-01-01 09:19:01.77	7.98	26.15	-30.1	-32.6	13.4	2.74e-05	0	43	0	890241024	21	4834
2026-01-01 09:19:02.78	7.78	26.02	-30.0	-32.6	13.3	1.67e-05	0	43	0	892338176	21	4845
2026-01-01 09:19:03.78	7.58	25.90	-30.1	-32.9	13.2	2.28e-05	0	43	0	894435328	21	4945
2026-01-01 09:19:04.78	7.38	25.78	-30.1	-32.8	13.2	2.74e-05	0	43	0	896532480	21	4917
2026-01-01 09:19:05.78	7.18	25.65	-30.0	-32.6	13.4	2.28e-05	0	43	0	898629632	21	4836
2026-01-01 09:19:06.78	6.99	25.53	-30.1	-32.9	13.1	1.67e-05	0	43	0	899678208	21	4940
2026-01-01 09:19:07.78	6.80	25.41	-30.1	-32.9	13.1	2.67e-05	0	44	0	901775360	21	4961
2026-01-01 09:19:08.79	6.60	25.28	-30.4	-33.6	12.6	5.26e-05	0	43	0	903872512	21	5231
2026-01-01 09:19:09.80	6.41	25.16	-30.3	-33.3	12.8	1.04e-04	0	43	0	905969664	21	5117
2026-01-01 09:19:10.80	6.23	25.04	-30.1	-33.0	13.1	3.89e-05	0	43	0	908066816	21	4975
2026-01-01 09:19:11.80	6.04	24.91	-30.1	-32.8	13.2	3.66e-05	0	43	0	909115392	21	4932
2026-01-01 09:19:12.80	5.85	24.79	-30.0	-32.5	13.4	1.75e-05	0	43	0	911212544	21	4815
2026-01-01 09:19:13.81	5.67	24.67	-30.1	-32.8	13.2	2.21e-05	0	43	0	913309696	21	4909
2026-01-01 09:19:14.81	5.49	24.55	-30.1	-32.7	13.2	2.82e-05	0	43	0	915406848	21	4879
2026-01-01 09:19:15.81	5.31	24.43	-30.0	-32.7	13.3	1.83e-05	0	43	0	917504000	21	4863
2026-01-01 09:19:16.81	5.13	24.31	-30.1	-32.8	13.2	2.05e-05	0	43	0	918552576	21	4902
2026-01-01 09:19:17.81	4.95	24.19	-30.3	-33.3	12.8	2.44e-05	0	43	0	920649728	21	5092
2026-01-01 09:19:18.82	4.77	24.06	-30.1	-32.9	13.1	5.72e-05	0	43	0	922746880	21	4943
2026-01-01 09:19:19.82	4.60	23.94	-30.0	-32.6	13.3	2.97e-05	0	43	0	924844032	21	4828
2026-01-01 09:19:20.83	4.42	23.82	-30.0	-32.5	13.3	1.98e-05	0	43	0	925892608	21	4824
2026-01-01 09:19:21.83	4.25	23.70	-30.0	-32.6	13.3	7.60e-06	0	43	0	927989760	21	4827
2026-01-01 09:19:22.83	4.08	23.58	-30.0	-32.5	13.3	2.97e-05	0	43	0	930086912	21	4819
2026-01-01 09:19:23.83	3.91	23.47	-30.0	-32.6	13.2	1.83e-05	0	43	0	932184064	21	4856
2026-01-01 09:19:24.84	3.74	23.35	-30.3	-33.3	12.8	4.42e-05	0	43	0	934281216	21	5112
2026-01-01 09:19:25.84	3.57	23.23	-30.2	-33.1	12.9	5.49e-05	0	43	0	935329792	21	5039
2026-01-01 09:19:26.84	3.40	23.11	-30.2	-33.1	12.9	5.64e-05	0	43	0	937426944	21	5030
2026-01-01 09:19:27.83	3.24	22.99	-30.3	-33.4	12.7	6.71e-05	0	43	0	939524096	21	5147
2026-01-01 09:19:28.84	3.08	22.87	-30.3	-33.5	12.6	1.09e-04	0	43	0	941621248	21	5185
2026-01-01 09:19:29.84	2.92	22.76	-30.4	-33.7	12.5	9.61e-05	0	43	0	943718400	21	5275
2026-01-01 09:19:30.84	2.75	22.64	-30.3	-33.5	12.6	1.17e-04	0	43	0	944766976	21	5183
2026-01-01 09:19:31.84	2.60	22.52	-30.3	-33.3	12.8	8.16e-05	0	43	0	946864128	21	5095
2026-01-01 09:19:32.85	2.44	22.41	-30.2	-33.2	12.8	6.79e-05	0	43	0	948961280	21	5085
2026-01-01 09:19:33.85	2.28	22.29	-30.2	-33.1	12.9	6.94e-05	0	43	0	951058432	21	5042
2026-01-01 09:19:34.86	2.12	22.17	-30.2	-33.1	12.9	4.88e-05	0	43	0	953155584	21	5027
2026-01-01 09:19:35.86	1.97	22.06	-30.3	-33.3	12.8	6.33e-05	0	43	0	954204160	21	5106
2026-01-01 09:19:36.86	1.81	21.94	-30.3	-33.3	12.7	6.02e-05	0	44	0	956301312	21	5123
2026-01-01 09:19:37.86	1.66	21.83	-30.3	-33.6	12.5	1.03e-04	0	43	0	958398464	21	5220
2026-01-01 09:19:38.86	1.51	21.71	-30.3	-33.4	12.6	1.14e-04	0	44	0	960495616	21	5167
2026-01-01 09:19:39.85	1.36	21.60	-30.2	-33.1	12.8	6.33e-05	0	43	0	962592768	21	5039
2026-01-01 09:19:40.86	1.21	21.48	-30.2	-33.1	12.9	5.79e-05	0	43	0	963641344	21	5035
2026-01-01 09:19:41.86	1.06	21.37	-30.3	-33.5	12.6	7.32e-05	0	43	0	965738496	21	5186
2026-01-01 09:19:42.86	0.92	21.26	-30.3	-33.4	12.6	1.14e-04	0	43	0	967835648	21	5152
2026-01-01 09:19:43.86	0.77	21.14	-30.4	-33.9	12.3	9.00e-05	0	43	0	969932800	21	5350
2026-01-01 09:19:44.87	0.62	21.03	-30.5	-34.0	12.2	2.27e-04	0	43	0	970981376	21	5405
2026-01-01 09:19:45.86	0.48	20.92	-30.6	-34.3	12.0	2.71e-04	0	43	0	973078528	21	5534
2026-01-01 09:19:46.86	0.34	20.81	-30.5	-34.0	12.2	3.18e-04	0	43	0	975175680	21	5392
2026-01-01 09:19:47.86	0.20	20.69	-30.4	-33.9	12.2	1.74e-04	0	43	0	977272832	21	5379
2026-01-01 09:19:48.86	0.06	20.58	-30.5	-34.0	12.2	2.53e-04	0	43	0	979369984	21	5386
2026-01-01 09:19:49.87	359.92	20.47	-30.4	-33.9	12.3	1.98e-04	0	43	0	980418560	21	5348
2026-01-01 09:19:50.87	359.78	20.36	-30.5	-34.0	12.1	2.46e-04	0	43	0	982515712	21	5421
2026-01-01 09:19:51.88	359.64	20.25	-30.4	-33.7	12.4	1.83e-04	0	43	0	984612864	21	5277
2026-01-01 09:19:52.88	359.50	20.14	-30.2	-33.3	12.7	1.13e-04	0	43	0	986710016	21	5115
2026-01-01 09:19:53.88	359.37	20.03	-30.2	-33.2	12.7	8.23e-05	0	43	0	988807168	21	5084
2026-01-01 09:19:54.88	359.23	19.92	-30.2	-33.3	12.7	8.39e-05	0	43	0	989855744	21	5139
2026-01-01 09:19:55.88	359.10	19.81	-30.2	-33.2	12.7	8.16e-05	0	43	0	991952896	21	5109
2026-01-01 09:19:56.89	358.97	19.70	-30.3	-33.6	12.4	1.22e-04	0	43	0	994050048	21	5234
2026-01-01 09:19:57.89	358.84	19.59	-30.2	-33.2	12.7	8.39e-05	0	43	0	996147200	21	5088
2026-01-01 09:19:58.90	358.71	19.48	-30.1	-33.0	12.8	5.64e-05	0	43	0	998244352	21	5020
2026-01-01 09:19:59.90	358.58	19.37	-30.1	-33.0	12.8	5.41e-05	0	43	0	999292928	21	5010
2026-01-01 09:20:00.90	358.45	19.26	-30.1	-33.0	12.8	6.10e-05	0	43	0	1001390080	21	5006
2026-01-01 09:20:01.90	358.32	19.16	-30.2	-33.3	12.6	9.30e-05	0	43	0	1003487232	21	5126
2026-01-01 09:20:02.91	358.19	19.05	-30.2	-33.2	12.6	9.15e-05	0	43	0	1005584384	21	5114
2026-01-01 09:20:03.91	358.07	18.94	-30.2	-33.4	12.5	6.56e-05	0	43	0	1007681536	21	5192
2026-01-01 09:20:04.90	357.94	18.84	-30.2	-33.3	12.5	1.13e-04	0	43	0	1008730112	21	5152
2026-01-01 09:20:05.91	357.82	18.73	-30.2	-33.3	12.5	1.04e-04	0	44	0	1010827264	21	5129
2026-01-01 09:20:06.91	357.69	18.62	-30.2	-33.2	12.5	1.27e-04	0	43	0	1012924416	21	5113
2026-01-01 09:20:07.92	357.57	18.52	-30.2	-33.4	12.5	1.02e-04	0	43	0	1015021568	21	5168
2026-01-01 09:20:08.92	357.45	18.41	-30.2	-33.2	12.6	1.02e-04	0	43	0	1016070144	21	5107
2026-01-01 09:20:09.93	357.33	18.30	-30.2	-33.1	12.7	7.70e-05	0	43	0	1018167296	21	5080
2026-01-01 09:20:10.93	357.21	18.20	-30.2	-33.2	12.6	8.54e-05	0	43	0	1020264448	21	5086
2026-01-01 09:20:11.93	357.09	18.10	-30.1	-33.0	12.7	7.70e-05	0	43	0	1022361600	21	5036
2026-01-01 09:20:12.94	356.97	17.99	-30.1	-33.0	12.7	7.09e-05	0	43	0	1024458752	21	5035
2026-01-01 09:20:13.94	356.85	17.89	-30.2	-33.2	12.6	8.01e-05	0	43	0	1025507328	21	5108
2026-01-01 09:20:14.94	356.74	17.78	-30.1	-33.0	12.7	9.07e-05	0	43	0	1027604480	21	5050
2026-01-01 09:20:15.95	356.62	17.68	-30.1	-33.1	12.7	9.07e-05	0	43	0	1029701632	21	5055
2026-01-01 09:20:16.95	356.51	17.58	-30.0	-32.8	12.8	6.79e-05	0	43	0	1031798784	21	4962
2026-01-01 09:20:17.95	356.39	17.47	-30.1	-32.9	12.8	5.79e-05	0	43	0	1033895936	21	5011
2026-01-01 09:20:18.95	356.28	17.37	-30.0	-32.7	12.9	4.65e-05	0	43	0	1034944512	21	4919
2026-01-01 09:20:19.95	356.17	17.27	-30.0	-32.7	12.9	4.57e-05	0	43	0	1037041664	21	4917
2026-01-01 09:20:20.95	356.06	17.17	-29.9	-32.5	13.0	4.42e-05	0	43	0	1039138816	21	4851
2026-01-01 09:20:21.96	355.95	17.07	-30.1	-32.9	12.8	6.17e-05	0	43	0	1041235968	21	4986
2026-01-01 09:20:22.96	355.84	16.97	-29.9	-32.5	13.0	4.95e-05	0	43	0	1043333120	21	4838
2026-01-01 09:20:23.96	355.73	16.86	-29.8	-32.3	13.2	3.20e-05	0	43	0	1044381696	21	4766
2026-01-01 09:20:24.96	355.62	16.76	-29.9	-32.4	13.1	2.74e-05	0	43	0	1046478848	21	4815
2026-01-01 09:20:25.96	355.51	16.66	-29.9	-32.4	13.0	2.89e-05	0	43	0	1048576000	21	4817
2026-01-01 09:20:26.96	355.40	16.56	-30.0	-32.8	12.8	3.43e-05	0	43	0	1050673152	21	4960
2026-01-01 09:20:27.96	355.30	16.47	-30.1	-33.1	12.6	6.63e-05	0	43	0	1052770304	21	5074
2026-01-01 09:20:28.97	355.19	16.37	-30.2	-33.3	12.5	1.18e-04	0	43	0	1053818880	21	5149
2026-01-01 09:20:29.97	355.09	16.27	-30.2	-33.4	12.3	1.47e-04	0	43	0	1055916032	21	5206
2026-01-01 09:20:30.96	354.98	16.17	-30.3	-33.6	12.2	1.65e-04	0	43	0	1058013184	21	5264
2026-01-01 09:20:31.97	354.88	16.07	-30.3	-33.8	12.1	2.59e-04	0	43	0	1060110336	21	5361
2026-01-01 09:20:32.97	354.78	15.97	-30.3	-33.6	12.2	2.53e-04	0	43	0	1061158912	21	5298
2026-01-01 09:20:33.98	354.67	15.87	-30.4	-34.1	11.8	3.70e-04	0	43	0	1063256064	21	5489
2026-01-01 09:20:34.97	354.57	15.78	-30.3	-33.7	12.1	4.05e-04	0	43	0	1065353216	21	5320
2026-01-01 09:20:35.97	354.47	15.68	-30.2	-33.5	12.3	2.13e-04	0	43	0	1067450368	21	5229
2026-01-01 09:20:36.97	354.37	15.58	-30.2	-33.4	12.3	1.74e-04	0	43	0	1069547520	21	5204
2026-01-01 09:20:37.98	354.27	15.49	-30.2	-33.3	12.4	1.65e-04	0	43	0	1070596096	21	5176
2026-01-01 09:20:38.97	354.18	15.39	-30.2	-33.6	12.2	2.00e-04	0	43	0	1072693248	21	5268
2026-01-01 09:20:39.98	354.08	15.29	-30.1	-33.3	12.4	1.57e-04	0	43	0	1074790400	21	5151
2026-01-01 09:20:40.97	353.98	15.20	-30.2	-33.5	12.2	1.73e-04	0	43	0	1076887552	21	5234
2026-01-01 09:20:41.98	353.88	15.10	-30.2	-33.3	12.3	1.88e-04	0	43	0	1078984704	21	5181
2026-01-01 09:20:42.98	353.79	15.01	-30.3	-33.6	12.1	1.70e-04	0	43	0	1080033280	21	5282
2026-01-01 09:20:43.99	353.69	14.91	-30.2	-33.5	12.2	2.50e-04	0	43	0	1082130432	21	5237
2026-01-01 09:20:44.99	353.60	14.82	-30.3	-33.7	12.1	2.21e-04	0	44	0	1084227584	21	5323
2026-01-01 09:20:46.00	353.50	14.72	-30.4	-34.1	11.8	4.16e-04	0	43	0	1086324736	21	5493
2026-01-01 09:20:47.00	353.41	14.63	-30.3	-33.9	11.9	4.12e-04	0	43	0	1088421888	21	5408
2026-01-01 09:20:48.00	353.32	14.54	-30.5	-34.2	11.6	4.64e-04	0	43	0	1089470464	21	5559
2026-01-01 09:20:49.00	353.22	14.44	-30.4	-33.9	11.8	5.10e-04	0	44	0	1091567616	21	5434
2026-01-01 09:20:50.00	353.13	14.35	-30.5	-34.3	11.6	5.77e-04	0	43	0	1093664768	21	5610
2026-01-01 09:20:51.01	353.04	14.26	-30.4	-34.0	11.8	6.38e-04	0	44	0	1095761920	21	5470
2026-01-01 09:20:52.01	352.95	14.16	-30.4	-34.0	11.8	5.24e-04	0	43	0	1097859072	21	5479
2026-01-01 09:20:53.01	352.86	14.07	-30.4	-34.1	11.6	6.31e-04	0	43	0	1098907648	21	5525
2026-01-01 09:20:54.01	352.77	13.98	-30.5	-34.3	11.6	6.41e-04	0	43	0	1101004800	21	5613
2026-01-01 09:20:55.02	352.68	13.89	-30.7	-34.9	11.1	9.52e-04	0	43	0	1103101952	21	5872
2026-01-01 09:20:56.02	352.59	13.80	-30.6	-34.6	11.4	1.15e-03	0	43	0	1105199104	21	5708
2026-01-01 09:20:57.02	352.50	13.71	-30.5	-34.3	11.5	7.80e-04	0	43	0	1106247680	21	5597
2026-01-01 09:20:58.03	352.42	13.61	-30.5	-34.4	11.5	8.10e-04	0	43	0	1108344832	21	5638
2026-01-01 09:20:59.03	352.33	13.52	-30.5	-34.4	11.4	9.26e-04	0	43	0	1110441984	21	5657
2026-01-01 09:21:00.03	352.24	13.43	-30.6	-34.8	11.2	1.34e-03	0	43	0	1112539136	21	5807
2026-01-01 09:21:01.03	352.16	13.34	-30.5	-34.5	11.4	1.15e-03	0	43	0	1114636288	21	5691
2026-01-01 09:21:02.03	352.07	13.25	-30.5	-34.4	11.4	9.70e-04	0	43	0	1115684864	21	5661
2026-01-01 09:21:03.03	351.99	13.16	-30.5	-34.5	11.4	9.25e-04	0	43	0	1117782016	21	5665
2026-01-01 09:21:04.04	351.91	13.07	-30.5	-34.5	11.3	1.06e-03	0	43	0	1119879168	21	5717
2026-01-01 09:21:05.04	351.82	12.98	-30.6	-34.9	11.1	1.26e-03	0	43	0	1121976320	21	5858
2026-01-01 09:21:06.05	351.74	12.90	-30.6	-34.8	11.1	1.48e-03	0	43	0	1124073472	21	5844
2026-01-01 09:21:07.04	351.66	12.81	-30.6	-34.9	11.0	1.57e-03	0	43	0	1125122048	21	5908
2026-01-01 09:21:08.05	351.58	12.72	-30.7	-35.0	10.9	1.96e-03	0	43	0	1127219200	21	5950
2026-01-01 09:21:09.05	351.49	12.63	-30.7	-35.0	11.0	1.88e-03	0	43	0	1129316352	21	5915
2026-01-01 09:21:10.05	351.41	12.54	-30.7	-35.3	10.8	2.45e-03	0	43	0	1131413504	21	6071
2026-01-01 09:21:11.05	351.33	12.46	-30.7	-35.2	10.8	2.60e-03	0	43	0	1133510656	21	6037
2026-01-01 09:21:12.05	351.25	12.37	-30.8	-35.4	10.6	2.83e-03	0	43	0	1134559232	21	6143
2026-01-01 09:21:13.05	351.17	12.28	-30.7	-35.2	10.8	2.85e-03	0	43	0	1136656384	21	6023
2026-01-01 09:21:14.05	351.10	12.20	-30.7	-35.3	10.7	3.01e-03	0	43	0	1138753536	21	6090
2026-01-01 09:21:15.05	351.02	12.11	-30.7	-35.2	10.8	2.94e-03	0	43	0	1140850688	21	6037
2026-01-01 09:21:16.05	350.94	12.02	-30.8	-35.4	10.6	2.88e-03	0	43	0	1141899264	21	6155
2026-01-01 09:21:17.06	350.86	11.94	-30.7	-35.3	10.7	3.00e-03	0	43	0	1143996416	21	6079
2026-01-01 09:21:18.06	350.79	11.85	-30.7	-35.1	10.8	2.52e-03	0	43	0	1146093568	21	5978
2026-01-01 09:21:19.06	350.71	11.77	-30.7	-35.3	10.7	2.41e-03	0	44	0	1148190720	21	6066
2026-01-01 09:21:20.06	350.63	11.68	-30.7	-35.2	10.7	2.84e-03	0	43	0	1150287872	21	6060
2026-01-01 09:21:21.06	350.56	11.60	-30.8	-35.4	10.6	3.10e-03	0	43	0	1152385024	21	6134
2026-01-01 09:21:22.06	350.48	11.51	-30.9	-35.8	10.3	4.05e-03	0	43	0	1153433600	21	6354
2026-01-01 09:21:23.07	350.41	11.43	-30.7	-35.3	10.6	3.83e-03	0	43	0	1155530752	21	6103
2026-01-01 09:21:24.07	350.33	11.34	-30.6	-35.0	10.8	2.77e-03	0	43	0	1157627904	21	5948
2026-01-01 09:21:25.07	350.26	11.26	-30.6	-34.9	10.9	2.05e-03	0	43	0	1159725056	21	5908
2026-01-01 09:21:26.07	350.19	11.17	-30.6	-35.0	10.8	2.26e-03	0	44	0	1160773632	21	5955
2026-01-01 09:21:27.07	350.11	11.09	-30.6	-34.9	10.9	2.28e-03	0	43	0	1162870784	21	5912
2026-01-01 09:21:28.08	350.04	11.01	-30.6	-35.0	10.8	2.32e-03	0	43	0	1164967936	21	5971
2026-01-01 09:21:29.08	349.97	10.92	-30.7	-35.2	10.7	2.72e-03	0	43	0	1167065088	21	6048
2026-01-01 09:21:30.09	349.90	10.84	-30.8	-35.4	10.5	3.59e-03	0	44	0	1169162240	21	6166
2026-01-01 09:21:31.09	349.83	10.76	-30.7	-35.2	10.6	3.45e-03	0	43	0	1170210816	21	6076
2026-01-01 09:21:32.09	349.76	10.68	-30.7	-35.4	10.5	3.65e-03	0	43	0	1172307968	21	6140
2026-01-01 09:21:33.10	349.69	10.59	-30.7	-35.2	10.6	3.40e-03	0	43	0	1174405120	21	6060
2026-01-01 09:21:34.09	349.62	10.51	-30.8	-35.6	10.3	4.88e-03	0	43	0	1176502272	21	6252
2026-01-01 09:21:35.10	349.55	10.43	-30.7	-35.3	10.5	4.21e-03	0	43	0	1178599424	21	6123
2026-01-01 09:21:36.10	349.48	10.35	-30.7	-35.4	10.5	3.73e-03	0	43	0	1179648000	21	6157
2026-01-01 09:21:37.10	349.41	10.27	-30.8	-35.5	10.4	4.43e-03	0	43	0	1181745152	21	6226
2026-01-01 09:21:38.10	349.34	10.19	-30.8	-35.6	10.2	5.33e-03	0	43	0	1183842304	21	6291
2026-01-01 09:21:39.10	349.27	10.11	-30.8	-35.6	10.3	4.66e-03	0	43	0	1185939456	21	6281
2026-01-01 09:21:40.11	349.21	10.02	-30.8	-35.7	10.2	5.84e-03	0	43	0	1188036608	21	6332
2026-01-01 09:21:41.11	349.14	9.94	-30.8	-35.8	10.1	5.78e-03	0	44	0	1189085184	21	6361
2026-01-01 09:21:42.11	349.07	9.86	-30.9	-36.0	9.9	7.49e-03	0	43	0	1191182336	21	6493
2026-01-01 09:21:43.11	349.01	9.79	-30.8	-35.8	10.1	7.30e-03	0	43	0	1193279488	21	6366
2026-01-01 09:21:44.11	348.94	9.71	-30.8	-35.7	10.2	5.97e-03	0	43	0	1195376640	21	6349
2026-01-01 09:21:45.11	348.87	9.63	-30.8	-35.7	10.2	5.93e-03	0	43	0	1197473792	21	6346
2026-01-01 09:21:46.11	348.81	9.55	-30.9	-35.9	10.0	7.23e-03	0	44	0	1198522368	21	6456
2026-01-01 09:21:47.11	348.74	9.47	-30.8	-35.9	10.0	8.67e-03	0	44	0	1200619520	21	6455
2026-01-01 09:21:48.11	348.68	9.39	-30.9	-36.2	9.8	9.62e-03	0	43	0	1202716672	21	6595
2026-01-01 09:21:49.11	348.62	9.31	-30.9	-36.2	9.7	1.10e-02	0	43	0	1204813824	21	6628
2026-01-01 09:21:50.12	348.55	9.23	-30.9	-36.2	9.8	1.08e-02	0	43	0	1205862400	21	6602
2026-01-01 09:21:51.12	348.49	9.15	-31.0	-36.0	9.6	1.27e-02	0	43	0	1207959552	22	6364
2026-01-01 09:21:52.13	348.43	9.08	-30.9	-35.7	9.7	1.24e-02	0	43	0	1210056704	22	6263
2026-01-01 09:21:53.13	348.36	9.00	-30.9	-35.7	9.7	1.01e-02	0	43	0	1212153856	22	6250
2026-01-01 09:21:54.14	348.30	8.92	-31.0	-36.0	9.5	1.38e-02	0	43	0	1214251008	22	6417
2026-01-01 09:21:55.14	348.24	8.84	-31.0	-35.9	9.5	1.49e-02	0	43	0	1215299584	22	6348
2026-01-01 09:21:56.14	348.18	8.77	-31.0	-36.0	9.4	1.70e-02	0	43	0	1217396736	22	6429
2026-01-01 09:21:57.15	348.12	8.69	-30.9	-35.8	9.6	1.38e-02	0	43	0	1219493888	22	6286
2026-01-01 09:21:58.15	348.06	8.61	-30.9	-35.5	9.8	9.92e-03	0	43	0	1221591040	22	6163
2026-01-01 09:21:59.16	347.99	8.53	-30.8	-35.4	9.9	8.75e-03	0	44	0	1223688192	22	6087
2026-01-01 09:22:00.16	347.93	8.46	-30.8	-35.4	10.0	7.89e-03	0	43	0	1224736768	22	6093
2026-01-01 09:22:01.14	347.88	8.38	-30.9	-35.7	9.6	1.08e-02	0	43	0	1226833920	22	6241
2026-01-01 09:22:02.15	347.82	8.31	-30.8	-35.2	10.0	8.52e-03	0	44	0	1228931072	22	6014
2026-01-01 09:22:03.15	347.76	8.23	-30.8	-35.4	9.9	7.60e-03	0	43	0	1231028224	22	6107
2026-01-01 09:22:04.16	347.70	8.16	-30.8	-35.2	10.0	8.62e-03	0	43	0	1233125376	22	6017
2026-01-01 09:22:05.16	347.64	8.08	-30.8	-35.2	10.0	7.18e-03	0	43	0	1234173952	22	6012
2026-01-01 09:22:06.16	347.58	8.00	-30.8	-35.2	10.0	7.97e-03	0	44	0	1236271104	22	6014
2026-01-01 09:22:07.16	347.52	7.93	-30.7	-35.1	10.1	6.78e-03	0	43	0	1238368256	22	5954
2026-01-01 09:22:08.16	347.47	7.86	-30.7	-35.1	10.1	7.33e-03	0	43	0	1240465408	22	5965
2026-01-01 09:22:09.17	347.41	7.78	-30.8	-35.4	9.8	8.97e-03	0	43	0	1242562560	22	6111
2026-01-01 09:22:10.17	347.35	7.71	-30.7	-35.2	10.0	8.53e-03	0	43	0	1243611136	22	5995
2026-01-01 09:22:11.17	347.29	7.63	-30.8	-35.3	9.8	9.81e-03	0	43	0	1245708288	22	6080
2026-01-01 09:22:12.17	347.24	7.56	-30.8	-35.4	9.8	9.58e-03	0	43	0	1247805440	22	6099
2026-01-01 09:22:13.17	347.18	7.48	-30.8	-35.4	9.8	1.02e-02	0	43	0	1249902592	22	6133
2026-01-01 09:22:14.18	347.13	7.41	-30.7	-35.1	10.0	9.35e-03	0	43	0	1250951168	22	5989
2026-01-01 09:22:15.17	347.07	7.34	-30.7	-35.3	9.8	1.02e-02	0	43	0	1253048320	22	6061
2026-01-01 09:22:16.17	347.02	7.26	-30.8	-35.4	9.7	1.10e-02	0	43	0	1255145472	22	6144
2026-01-01 09:22:17.17	346.96	7.19	-30.8	-35.7	9.5	1.25e-02	0	44	0	1257242624	22	6293
2026-01-01 09:22:18.17	346.91	7.12	-30.8	-35.6	9.6	1.24e-02	0	44	0	1259339776	22	6237
2026-01-01 09:22:19.18	346.85	7.05	-32.7	-46.1	3.8	1.49e+00	0	43	104	1259339776	25	16901
2026-01-01 09:22:20.18	346.80	6.97	-33.0	-47.4	3.8	1.49e+00	0	44	104	1259339776	25	18866

#Closed at: 2026-01-01 09:22:21
#Recorded file [1259 MB]: D:/data/31010_260101_121106.dat