passes_logs/2026/01/01/R2M6_AANII_01/R2M6_AANII_01__20260101_064706_FENGYUN_3E_rec.log

#Pass ID: 20260101_064706_FENGYUN 3E
#Satellite: FENGYUN 3E
#Configuration: FENGYUN 3E
#almurnet v.1.7.20240730
#Start time: 2026-01-01 06:47:06

#Version: 2.2.20231116
#Station: R2M6_AANII_01
#Location: 30.233357 lon 59.946436 lat
#TLE: 1 49008U 21062A   25365.55977344  .00000403  00000+0  21051-3 0  9995
#TLE: 2 49008  98.7483   5.8586 0001311 170.0615 190.0588 14.19883886232790

#Time	Az	El	Level	Level2	SNR	BER	BlckErr	Temp	State	Recorded	gain1	gain2
2026-01-01 06:47:06.19	9.62	6.96	-30.4	-34.3	4.7	8.05e-01	0	40	0	0	20	5648
2026-01-01 06:47:07.19	9.52	7.02	-30.1	-33.4	4.9	7.92e-01	0	41	104	0	20	5271
2026-01-01 06:47:08.19	9.42	7.08	-30.0	-33.4	7.6	1.12e-01	0	41	0	0	19	5335
2026-01-01 06:47:09.20	9.32	7.14	-29.9	-33.1	7.8	9.27e-02	0	41	0	7340032	19	5204
2026-01-01 06:47:10.20	9.22	7.21	-30.0	-33.5	7.5	1.15e-01	0	41	0	14680064	19	5384
2026-01-01 06:47:11.20	9.11	7.27	-29.9	-33.0	7.9	8.11e-02	0	41	0	20971520	19	5183
2026-01-01 06:47:12.21	9.01	7.33	-29.8	-32.7	8.1	7.96e-02	0	41	0	28311552	19	5035
2026-01-01 06:47:13.21	8.91	7.39	-29.8	-32.7	8.1	6.93e-02	0	41	0	35651584	19	5024
2026-01-01 06:47:14.21	8.81	7.45	-29.8	-32.7	8.1	6.07e-02	0	41	0	42991616	19	5019
2026-01-01 06:47:15.22	8.70	7.51	-29.7	-32.4	8.3	7.13e-02	0	41	0	50331648	19	4929
2026-01-01 06:47:16.23	8.60	7.57	-29.2	-31.4	9.4	2.70e-02	0	41	0	57671680	18	4681
2026-01-01 06:47:17.24	8.49	7.63	-28.6	-30.4	10.3	9.15e-03	0	41	0	65011712	17	4442
2026-01-01 06:47:18.24	8.39	7.69	-28.1	-29.8	11.0	2.06e-03	0	41	0	72351744	16	4366
2026-01-01 06:47:19.25	8.28	7.75	-27.6	-29.0	11.7	3.81e-03	0	41	0	79691776	15	4248
2026-01-01 06:47:20.25	8.17	7.82	-27.2	-28.7	12.2	2.41e-04	0	41	0	87031808	14	4247
2026-01-01 06:47:21.25	8.07	7.88	-27.0	-28.1	12.6	2.77e-03	0	41	0	94371840	14	4077
2026-01-01 06:47:22.25	7.96	7.94	-26.6	-27.7	13.1	2.56e-03	0	41	0	101711872	13	4072
2026-01-01 06:47:23.25	7.85	8.00	-26.6	-27.8	13.0	2.17e-05	0	41	0	108003328	13	4104
2026-01-01 06:47:24.26	7.75	8.06	-26.7	-28.0	12.9	2.57e-03	0	41	0	115343360	13	4166
2026-01-01 06:47:25.26	7.64	8.12	-26.7	-27.9	12.9	3.20e-05	0	41	0	122683392	13	4128
2026-01-01 06:47:26.27	7.53	8.18	-26.7	-27.9	12.9	4.11e-05	0	41	0	130023424	13	4149
2026-01-01 06:47:27.27	7.42	8.25	-26.8	-28.1	12.9	4.46e-05	0	41	0	137363456	13	4182
2026-01-01 06:47:28.28	7.31	8.31	-26.7	-27.9	13.0	4.46e-05	0	41	0	144703488	13	4135
2026-01-01 06:47:29.28	7.20	8.37	-26.7	-28.0	12.9	4.70e-04	0	41	0	152043520	13	4165
2026-01-01 06:47:30.29	7.09	8.43	-26.8	-28.2	12.8	4.00e-05	0	41	0	159383552	13	4204
2026-01-01 06:47:31.29	6.98	8.49	-26.9	-28.3	12.7	7.89e-05	0	41	0	166723584	13	4240
2026-01-01 06:47:32.30	6.86	8.56	-26.8	-28.2	12.8	4.23e-05	0	42	0	174063616	13	4207
2026-01-01 06:47:33.30	6.75	8.62	-27.0	-28.6	12.5	6.98e-05	0	41	0	181403648	13	4327
2026-01-01 06:47:34.30	6.64	8.68	-27.1	-28.4	12.5	1.33e-04	0	42	0	187695104	14	4155
2026-01-01 06:47:35.30	6.53	8.74	-26.8	-27.6	12.9	4.80e-05	0	41	0	195035136	14	3947
2026-01-01 06:47:36.30	6.41	8.80	-26.4	-27.1	13.5	1.71e-05	0	41	0	202375168	13	3931
2026-01-01 06:47:37.30	6.30	8.86	-26.4	-27.7	13.4	1.25e-05	0	42	0	209715200	12	4188
2026-01-01 06:47:38.30	6.19	8.93	-26.5	-27.9	13.3	1.02e-05	0	42	0	217055232	12	4229
2026-01-01 06:47:39.31	6.07	8.99	-26.5	-28.0	13.2	2.17e-05	0	42	0	224395264	12	4280
2026-01-01 06:47:40.31	5.95	9.05	-26.4	-27.7	13.4	1.71e-05	0	42	0	231735296	12	4181
2026-01-01 06:47:41.32	5.84	9.11	-26.4	-27.7	13.4	1.25e-05	0	42	0	239075328	12	4197
2026-01-01 06:47:42.32	5.72	9.17	-26.4	-27.8	13.4	1.25e-05	0	42	0	246415360	12	4210
2026-01-01 06:47:43.32	5.60	9.24	-26.5	-27.9	13.3	1.48e-05	0	42	0	252706816	12	4242
2026-01-01 06:47:44.32	5.49	9.30	-26.5	-28.0	13.3	1.37e-05	0	42	0	260046848	12	4261
2026-01-01 06:47:45.33	5.37	9.36	-26.7	-27.8	13.1	2.28e-05	0	42	0	267386880	13	4115
2026-01-01 06:47:46.33	5.25	9.42	-26.9	-28.3	12.8	6.52e-05	0	42	0	274726912	13	4251
2026-01-01 06:47:47.34	5.13	9.49	-26.6	-27.6	13.2	2.74e-05	0	42	0	282066944	13	4042
2026-01-01 06:47:48.34	5.01	9.55	-26.5	-27.9	13.4	9.10e-06	0	42	0	289406976	12	4232
2026-01-01 06:47:49.35	4.89	9.61	-26.5	-28.0	13.3	1.25e-05	0	42	0	296747008	12	4259
2026-01-01 06:47:50.35	4.77	9.67	-26.4	-27.6	13.5	9.10e-06	0	42	0	304087040	12	4143
2026-01-01 06:47:51.35	4.65	9.74	-26.3	-27.5	13.6	5.70e-06	0	42	0	311427072	12	4125
2026-01-01 06:47:52.35	4.53	9.80	-26.3	-27.4	13.7	3.40e-06	0	42	0	318767104	12	4112
2026-01-01 06:47:53.35	4.40	9.86	-26.3	-27.4	13.7	1.10e-06	0	42	0	326107136	12	4092
2026-01-01 06:47:54.36	4.28	9.92	-26.2	-27.2	13.8	1.10e-06	0	42	0	333447168	12	4045
2026-01-01 06:47:55.36	4.16	9.99	-26.2	-27.2	13.8	5.70e-06	0	42	0	339738624	12	4057
2026-01-01 06:47:56.37	4.03	10.05	-26.3	-27.5	13.7	3.40e-06	0	42	0	347078656	12	4115
2026-01-01 06:47:57.36	3.91	10.11	-26.2	-27.2	13.8	6.80e-06	0	42	0	354418688	12	4042
2026-01-01 06:47:58.37	3.78	10.18	-26.1	-27.1	13.8	2.20e-06	0	42	0	361758720	12	4023
2026-01-01 06:47:59.37	3.66	10.24	-26.1	-27.1	13.9	2.20e-06	0	42	0	369098752	12	4010
2026-01-01 06:48:00.37	3.53	10.30	-26.1	-27.1	13.9	9.10e-06	0	42	0	376438784	12	4012
2026-01-01 06:48:01.38	3.40	10.36	-26.1	-27.0	13.9	3.40e-06	0	42	0	383778816	12	3997
2026-01-01 06:48:02.39	3.28	10.43	-26.2	-27.3	13.8	2.20e-06	0	42	0	391118848	12	4064
2026-01-01 06:48:03.40	3.15	10.49	-26.2	-27.3	13.8	9.10e-06	0	42	0	398458880	12	4074
2026-01-01 06:48:04.40	3.02	10.55	-26.3	-27.4	13.7	5.70e-06	0	42	0	405798912	12	4106
2026-01-01 06:48:05.41	2.89	10.62	-26.3	-27.5	13.6	8.00e-06	0	42	0	413138944	12	4136
2026-01-01 06:48:06.42	2.76	10.68	-26.4	-27.7	13.5	3.40e-06	0	42	0	419430400	12	4186
2026-01-01 06:48:07.43	2.63	10.74	-26.4	-27.6	13.6	3.40e-06	0	42	0	426770432	12	4150
2026-01-01 06:48:08.42	2.50	10.81	-26.6	-28.1	13.3	5.70e-06	0	42	0	434110464	12	4288
2026-01-01 06:48:09.42	2.37	10.87	-26.6	-27.6	13.4	9.10e-06	0	42	0	441450496	13	4032
2026-01-01 06:48:10.43	2.23	10.93	-26.4	-27.2	13.6	8.00e-06	0	42	0	448790528	13	3943
2026-01-01 06:48:11.43	2.10	10.99	-26.3	-27.4	13.8	8.00e-06	0	42	0	456130560	12	4096
2026-01-01 06:48:12.44	1.97	11.06	-26.3	-27.4	13.7	3.40e-06	0	42	0	463470592	12	4107
2026-01-01 06:48:13.44	1.83	11.12	-26.3	-27.4	13.7	5.70e-06	0	42	0	470810624	12	4098
2026-01-01 06:48:14.45	1.70	11.18	-26.1	-27.0	14.0	3.40e-06	0	42	0	478150656	12	3998
2026-01-01 06:48:15.45	1.56	11.25	-26.2	-27.3	13.8	3.40e-06	0	42	0	485490688	12	4073
2026-01-01 06:48:16.46	1.43	11.31	-26.1	-27.0	14.0	1.10e-06	0	42	0	492830720	12	3997
2026-01-01 06:48:17.47	1.29	11.37	-26.0	-26.8	14.1	2.20e-06	0	43	0	500170752	12	3931
2026-01-01 06:48:18.47	1.15	11.44	-26.0	-26.8	14.1	0.00e+00	0	42	0	506462208	12	3935
2026-01-01 06:48:19.48	1.01	11.50	-26.0	-26.9	14.1	1.10e-06	0	42	0	513802240	12	3951
2026-01-01 06:48:20.49	0.88	11.56	-25.3	-26.1	14.1	0.00e+00	0	42	0	522190848	12	3933
2026-01-01 06:48:21.50	0.74	11.63	-25.4	-26.5	11.4	1.10e-06	0	42	0	528482304	11	4114
2026-01-01 06:48:22.50	0.60	11.69	-25.9	-27.0	14.1	0.00e+00	0	42	0	535822336	11	4087
2026-01-01 06:48:23.50	0.46	11.75	-25.8	-26.7	14.4	1.10e-06	0	42	0	543162368	11	4010
2026-01-01 06:48:24.50	0.32	11.82	-25.8	-26.7	14.5	0.00e+00	0	42	0	550502400	11	4017
2026-01-01 06:48:25.50	0.18	11.88	-25.8	-26.7	14.5	0.00e+00	0	42	0	557842432	11	4019
2026-01-01 06:48:26.50	0.04	11.94	-25.9	-26.9	14.4	2.07e-03	0	42	0	565182464	11	4076
2026-01-01 06:48:27.51	359.89	12.01	-26.0	-27.3	14.2	2.20e-06	0	42	0	572522496	11	4163
2026-01-01 06:48:28.51	359.75	12.07	-26.1	-27.5	14.1	3.40e-06	0	43	0	579862528	11	4216
2026-01-01 06:48:29.51	359.61	12.13	-25.9	-27.1	14.3	0.00e+00	0	42	0	586153984	11	4108
2026-01-01 06:48:30.52	359.46	12.19	-25.9	-27.1	14.3	1.10e-06	0	42	0	593494016	11	4107
2026-01-01 06:48:31.52	359.32	12.26	-26.0	-27.2	14.3	3.74e-04	0	43	0	600834048	11	4141
2026-01-01 06:48:32.53	359.17	12.32	-25.9	-27.1	14.4	1.10e-06	0	42	0	608174080	11	4111
2026-01-01 06:48:33.53	359.03	12.38	-26.0	-27.2	14.3	0.00e+00	0	42	0	615514112	11	4135
2026-01-01 06:48:34.53	358.88	12.45	-26.0	-27.3	14.3	3.57e-04	0	43	0	622854144	11	4162
2026-01-01 06:48:35.53	358.73	12.51	-26.0	-27.3	14.2	2.20e-06	0	43	0	630194176	11	4175
2026-01-01 06:48:36.53	358.58	12.57	-26.0	-27.3	14.2	2.00e-03	0	42	0	637534208	11	4181
2026-01-01 06:48:37.52	358.44	12.63	-26.1	-26.9	14.1	1.10e-06	0	43	0	644874240	12	3971
2026-01-01 06:48:38.53	358.29	12.70	-26.3	-27.4	13.9	1.10e-06	0	43	0	651165696	12	4091
2026-01-01 06:48:39.53	358.14	12.76	-26.2	-27.3	13.9	2.33e-03	0	43	0	658505728	12	4060
2026-01-01 06:48:40.53	357.99	12.82	-26.0	-26.8	14.2	0.00e+00	0	43	0	665845760	12	3950
2026-01-01 06:48:41.53	357.84	12.88	-26.1	-27.1	14.1	2.16e-03	0	43	0	673185792	12	4005
2026-01-01 06:48:42.53	357.68	12.95	-26.0	-26.9	14.2	2.09e-03	0	43	0	680525824	12	3955
2026-01-01 06:48:43.53	357.53	13.01	-25.9	-27.1	14.4	1.10e-06	0	43	0	687865856	11	4103
2026-01-01 06:48:44.53	357.38	13.07	-25.8	-26.9	14.5	2.05e-03	0	43	0	695205888	11	4048
2026-01-01 06:48:45.53	357.23	13.13	-25.9	-27.1	14.4	0.00e+00	0	43	0	702545920	11	4097
2026-01-01 06:48:46.54	357.07	13.20	-25.9	-27.0	14.4	4.36e-04	0	43	0	709885952	11	4095
2026-01-01 06:48:47.54	356.92	13.26	-25.7	-26.5	14.7	1.82e-03	0	43	0	717225984	11	3963
2026-01-01 06:48:48.54	356.76	13.32	-25.5	-26.6	15.0	2.01e-03	0	43	0	724566016	10	4081
2026-01-01 06:48:49.54	356.60	13.38	-25.6	-26.7	14.9	3.75e-04	0	43	0	731906048	10	4128
2026-01-01 06:48:50.55	356.45	13.44	-25.4	-26.5	15.0	0.00e+00	0	43	0	738197504	10	4065
2026-01-01 06:48:51.55	356.29	13.51	-25.4	-26.5	15.1	1.79e-03	0	43	0	745537536	10	4062
2026-01-01 06:48:52.55	356.13	13.57	-25.4	-26.5	15.1	3.71e-04	0	43	0	752877568	10	4056
2026-01-01 06:48:53.56	355.97	13.63	-25.4	-26.4	15.1	1.57e-03	0	43	0	760217600	10	4045
2026-01-01 06:48:54.56	355.81	13.69	-25.5	-26.6	15.0	1.48e-03	0	43	0	767557632	10	4078
2026-01-01 06:48:55.56	355.65	13.75	-25.5	-26.6	15.0	0.00e+00	0	43	0	774897664	10	4083
2026-01-01 06:48:56.56	355.49	13.82	-25.4	-26.5	15.0	1.34e-03	0	43	0	782237696	10	4067
2026-01-01 06:48:57.56	355.33	13.88	-25.5	-26.6	15.0	1.53e-03	0	43	0	789577728	10	4098
2026-01-01 06:48:58.57	355.16	13.94	-25.5	-26.6	15.0	0.00e+00	0	43	0	795869184	10	4088
2026-01-01 06:48:59.57	355.00	14.00	-25.5	-26.7	14.9	1.59e-03	0	43	0	803209216	10	4114
2026-01-01 06:49:00.57	354.84	14.06	-25.4	-26.4	15.1	0.00e+00	0	43	0	810549248	10	4034
2026-01-01 06:49:01.57	354.67	14.12	-25.4	-26.5	15.1	3.75e-04	0	43	0	817889280	10	4059
2026-01-01 06:49:02.58	354.51	14.19	-25.4	-26.4	15.1	1.53e-03	0	43	0	825229312	10	4044
2026-01-01 06:49:03.58	354.34	14.25	-25.4	-26.4	15.1	0.00e+00	0	43	0	832569344	10	4053
2026-01-01 06:49:04.59	354.17	14.31	-25.4	-26.3	15.2	4.35e-04	0	43	0	839909376	10	4016
2026-01-01 06:49:05.59	354.00	14.37	-25.3	-26.1	15.3	0.00e+00	0	43	0	847249408	10	3961
2026-01-01 06:49:06.59	353.84	14.43	-25.4	-26.4	15.1	0.00e+00	0	43	0	854589440	10	4027
2026-01-01 06:49:07.59	353.67	14.49	-25.4	-26.5	15.1	0.00e+00	0	43	0	861929472	10	4061
2026-01-01 06:49:08.60	353.50	14.55	-25.4	-26.5	15.1	0.00e+00	0	43	0	869269504	10	4051
2026-01-01 06:49:09.60	353.33	14.61	-25.5	-26.6	15.1	1.36e-03	0	43	0	876609536	10	4080
2026-01-01 06:49:10.60	353.16	14.67	-25.4	-26.3	15.2	0.00e+00	0	43	0	882900992	10	4024
2026-01-01 06:49:11.60	352.99	14.73	-25.4	-26.4	15.1	0.00e+00	0	43	0	890241024	10	4050
2026-01-01 06:49:12.61	352.81	14.79	-25.4	-26.3	15.2	0.00e+00	0	43	0	897581056	10	4017
2026-01-01 06:49:13.62	352.64	14.86	-25.4	-26.5	15.1	0.00e+00	0	43	0	904921088	10	4049
2026-01-01 06:49:14.62	352.46	14.92	-25.4	-26.4	15.1	0.00e+00	0	43	0	912261120	10	4049
2026-01-01 06:49:15.63	352.29	14.98	-25.3	-26.3	15.2	0.00e+00	0	43	0	919601152	10	4005
2026-01-01 06:49:16.63	352.11	15.04	-25.3	-26.2	15.3	0.00e+00	0	43	0	926941184	10	3987
2026-01-01 06:49:17.64	351.93	15.10	-25.3	-26.3	15.2	0.00e+00	0	43	0	934281216	10	4002
2026-01-01 06:49:18.64	351.76	15.16	-25.2	-26.0	15.4	0.00e+00	0	43	0	941621248	10	3951
2026-01-01 06:49:19.64	351.58	15.21	-25.1	-25.7	15.5	0.00e+00	0	43	0	948961280	10	3869
2026-01-01 06:49:20.65	351.40	15.27	-25.2	-25.9	15.4	0.00e+00	0	43	0	956301312	10	3926
2026-01-01 06:49:21.65	351.22	15.33	-25.0	-25.6	15.6	0.00e+00	0	43	0	963641344	10	3845
2026-01-01 06:49:22.66	351.04	15.39	-24.9	-25.8	15.8	0.00e+00	0	43	0	969932800	9	3999
2026-01-01 06:49:23.67	350.86	15.45	-24.8	-25.6	15.9	0.00e+00	0	43	0	977272832	9	3957
2026-01-01 06:49:24.68	350.68	15.51	-24.8	-25.6	15.9	0.00e+00	0	43	0	984612864	9	3937
2026-01-01 06:49:25.68	350.50	15.57	-24.7	-25.4	16.0	0.00e+00	0	43	0	991952896	9	3910
2026-01-01 06:49:26.67	350.32	15.63	-24.8	-25.5	15.9	0.00e+00	0	43	0	999292928	9	3924
2026-01-01 06:49:27.68	350.13	15.69	-24.7	-25.4	16.0	0.00e+00	0	43	0	1006632960	9	3891
2026-01-01 06:49:28.69	349.95	15.75	-24.7	-25.3	16.0	0.00e+00	0	43	0	1013972992	9	3875
2026-01-01 06:49:29.69	349.76	15.80	-24.7	-25.4	16.0	0.00e+00	0	43	0	1021313024	9	3885
2026-01-01 06:49:30.69	349.58	15.86	-24.6	-25.3	16.1	0.00e+00	0	43	0	1028653056	9	3861
2026-01-01 06:49:31.69	349.39	15.92	-24.7	-25.4	16.0	0.00e+00	0	43	0	1035993088	9	3900
2026-01-01 06:49:32.69	349.20	15.98	-24.7	-25.4	16.0	0.00e+00	0	43	0	1043333120	9	3884
2026-01-01 06:49:33.70	349.01	16.03	-24.7	-25.4	16.0	0.00e+00	0	43	0	1049624576	9	3888
2026-01-01 06:49:34.70	348.83	16.09	-24.7	-25.4	16.0	0.00e+00	0	43	0	1056964608	9	3907
2026-01-01 06:49:35.70	348.64	16.15	-24.7	-25.5	16.0	0.00e+00	0	43	0	1064304640	9	3913
2026-01-01 06:49:36.71	348.45	16.21	-24.7	-25.4	16.0	0.00e+00	0	43	0	1071644672	9	3888
2026-01-01 06:49:37.71	348.26	16.26	-24.7	-25.4	16.0	0.00e+00	0	43	0	1078984704	9	3896
2026-01-01 06:49:38.71	348.06	16.32	-24.8	-25.6	15.9	0.00e+00	0	43	0	1086324736	9	3936
2026-01-01 06:49:39.71	347.87	16.37	-24.7	-25.4	16.1	0.00e+00	0	43	0	1093664768	9	3884
2026-01-01 06:49:40.72	347.68	16.43	-24.6	-25.0	16.2	0.00e+00	0	43	0	1101004800	9	3810
2026-01-01 06:49:41.72	347.49	16.49	-24.5	-24.9	16.3	0.00e+00	0	43	0	1108344832	9	3784
2026-01-01 06:49:42.73	347.29	16.54	-24.5	-24.9	16.3	0.00e+00	0	43	0	1114636288	9	3764
2026-01-01 06:49:43.73	347.09	16.60	-24.6	-25.2	16.1	0.00e+00	0	43	0	1121976320	9	3835
2026-01-01 06:49:44.74	346.90	16.65	-24.5	-25.0	16.2	0.00e+00	0	43	0	1130364928	9	3806
2026-01-01 06:49:45.74	346.70	16.71	-24.4	-24.8	16.4	0.00e+00	0	43	0	1136656384	9	3744
2026-01-01 06:49:46.75	346.50	16.76	-24.3	-24.5	16.5	0.00e+00	0	43	0	1143996416	9	3690
2026-01-01 06:49:47.75	346.31	16.82	-24.4	-25.2	16.5	0.00e+00	0	43	0	1151336448	8	3942
2026-01-01 06:49:48.75	346.11	16.87	-24.3	-25.0	16.5	0.00e+00	0	43	0	1158676480	8	3893
2026-01-01 06:49:49.75	345.91	16.93	-24.3	-25.0	16.5	0.00e+00	0	43	0	1166016512	8	3911
2026-01-01 06:49:50.76	345.71	16.98	-24.3	-25.0	16.5	0.00e+00	0	43	0	1173356544	8	3906
2026-01-01 06:49:51.75	345.51	17.03	-24.3	-25.0	16.5	0.00e+00	0	43	0	1180696576	8	3900
2026-01-01 06:49:52.76	345.30	17.09	-24.3	-24.9	16.6	0.00e+00	0	43	0	1188036608	8	3891
2026-01-01 06:49:53.76	345.10	17.14	-24.4	-25.2	16.4	0.00e+00	0	43	0	1195376640	8	3940
2026-01-01 06:49:54.76	344.90	17.19	-24.4	-25.2	16.4	0.00e+00	0	43	0	1201668096	8	3953
2026-01-01 06:49:55.76	344.70	17.24	-24.5	-25.5	16.3	0.00e+00	0	43	0	1209008128	8	4013
2026-01-01 06:49:56.76	344.49	17.30	-24.5	-25.4	16.3	0.00e+00	0	43	0	1216348160	8	4011
2026-01-01 06:49:57.77	344.29	17.35	-24.6	-25.6	16.2	0.00e+00	0	43	0	1223688192	8	4040
2026-01-01 06:49:58.77	344.08	17.40	-24.5	-25.0	16.3	0.00e+00	0	43	0	1231028224	9	3793
2026-01-01 06:49:59.78	343.87	17.45	-24.5	-25.0	16.3	0.00e+00	0	43	0	1238368256	9	3801
2026-01-01 06:50:00.78	343.66	17.50	-24.7	-25.3	16.1	0.00e+00	0	43	0	1245708288	9	3874
2026-01-01 06:50:01.78	343.46	17.55	-24.5	-25.0	16.3	0.00e+00	0	43	0	1253048320	9	3788
2026-01-01 06:50:02.79	343.25	17.60	-24.5	-25.4	16.3	0.00e+00	0	43	0	1260388352	8	3990
2026-01-01 06:50:03.79	343.04	17.66	-24.5	-25.5	16.3	0.00e+00	0	43	0	1267728384	8	4033
2026-01-01 06:50:04.79	342.83	17.70	-24.4	-25.2	16.4	0.00e+00	0	43	0	1275068416	8	3951
2026-01-01 06:50:05.80	342.62	17.76	-24.3	-25.0	16.6	0.00e+00	0	43	0	1281359872	8	3896
2026-01-01 06:50:06.80	342.40	17.80	-24.3	-24.9	16.6	0.00e+00	0	43	0	1288699904	8	3882
2026-01-01 06:50:07.81	342.19	17.85	-24.2	-24.8	16.6	0.00e+00	0	43	0	1296039936	8	3861
2026-01-01 06:50:08.81	341.98	17.90	-24.2	-24.7	16.7	0.00e+00	0	43	0	1303379968	8	3840
2026-01-01 06:50:09.81	341.76	17.95	-24.1	-24.7	16.7	4.57e-05	0	43	0	1310720000	8	3822
2026-01-01 06:50:10.81	341.55	18.00	-24.1	-24.5	16.8	0.00e+00	0	43	0	1318060032	8	3783
2026-01-01 06:50:11.82	341.33	18.05	-24.0	-24.8	16.9	1.89e-03	0	43	0	1325400064	7	3964
2026-01-01 06:50:12.82	341.12	18.09	-23.9	-24.7	16.9	0.00e+00	0	43	0	1332740096	7	3941
2026-01-01 06:50:13.83	340.90	18.14	-24.0	-24.8	16.9	0.00e+00	0	43	0	1340080128	7	3951
2026-01-01 06:50:14.83	340.68	18.19	-24.1	-25.0	16.8	1.77e-03	0	43	0	1346371584	7	3999
2026-01-01 06:50:15.84	340.46	18.24	-24.0	-24.8	16.9	0.00e+00	0	43	0	1354760192	7	3964
2026-01-01 06:50:16.84	340.25	18.28	-24.1	-24.6	16.8	1.72e-03	0	43	0	1362100224	8	3811
2026-01-01 06:50:17.85	340.02	18.33	-24.3	-24.9	16.6	1.99e-03	0	43	0	1368391680	8	3882
2026-01-01 06:50:18.85	339.80	18.37	-24.2	-24.9	16.6	1.07e-04	0	43	0	1375731712	8	3877
2026-01-01 06:50:19.85	339.58	18.42	-24.2	-24.8	16.7	1.96e-03	0	43	0	1383071744	8	3861
2026-01-01 06:50:20.85	339.36	18.46	-24.2	-24.8	16.7	0.00e+00	0	43	0	1390411776	8	3846
2026-01-01 06:50:21.85	339.14	18.51	-24.4	-25.2	16.5	1.70e-04	0	43	0	1397751808	8	3942
2026-01-01 06:50:22.85	338.92	18.55	-24.5	-25.3	16.4	1.88e-03	0	43	0	1405091840	8	3988
2026-01-01 06:50:23.85	338.70	18.60	-24.3	-24.9	16.6	1.83e-03	0	43	0	1412431872	8	3888
2026-01-01 06:50:24.85	338.47	18.64	-24.2	-24.9	16.6	1.88e-04	0	43	0	1419771904	8	3871
2026-01-01 06:50:25.86	338.25	18.68	-24.1	-24.6	16.7	1.77e-03	0	43	0	1426063360	8	3814
2026-01-01 06:50:26.86	338.02	18.72	-24.1	-24.7	16.8	1.94e-03	0	43	0	1433403392	8	3824
2026-01-01 06:50:27.86	337.80	18.77	-24.2	-24.9	16.6	1.77e-04	0	43	0	1440743424	8	3868
2026-01-01 06:50:28.87	337.57	18.81	-24.1	-24.6	16.8	1.91e-03	0	43	0	1448083456	8	3812
2026-01-01 06:50:29.87	337.34	18.85	-24.4	-25.1	16.5	1.94e-03	0	43	0	1455423488	8	3929
2026-01-01 06:50:30.87	337.12	18.89	-24.1	-24.6	16.8	7.09e-05	0	43	0	1462763520	8	3801
2026-01-01 06:50:31.88	336.89	18.93	-23.9	-24.6	17.0	1.85e-03	0	43	0	1470103552	7	3902
2026-01-01 06:50:32.88	336.66	18.97	-24.0	-24.8	16.9	1.60e-03	0	43	0	1477443584	7	3955
2026-01-01 06:50:33.89	336.43	19.01	-23.8	-24.4	17.1	0.00e+00	0	43	0	1484783616	7	3869
2026-01-01 06:50:34.89	336.20	19.05	-23.7	-24.2	17.3	1.67e-03	0	43	0	1492123648	7	3810
2026-01-01 06:50:35.89	335.97	19.09	-23.7	-24.3	17.2	0.00e+00	0	43	0	1499463680	7	3836
2026-01-01 06:50:36.89	335.74	19.13	-23.7	-24.1	17.3	0.00e+00	0	43	0	1506803712	7	3808
2026-01-01 06:50:37.90	335.50	19.17	-23.5	-23.9	17.4	0.00e+00	0	43	0	1513095168	7	3740
2026-01-01 06:50:38.90	335.27	19.20	-23.5	-23.8	17.4	0.00e+00	0	43	0	1520435200	7	3734
2026-01-01 06:50:39.90	335.04	19.24	-23.6	-24.1	17.3	0.00e+00	0	43	0	1527775232	7	3799
2026-01-01 06:50:40.91	334.80	19.28	-23.5	-23.8	17.4	0.00e+00	0	43	0	1535115264	7	3726
2026-01-01 06:50:41.91	334.57	19.31	-23.4	-23.7	17.5	0.00e+00	0	43	0	1542455296	7	3692
2026-01-01 06:50:42.92	334.33	19.35	-23.4	-23.7	17.5	0.00e+00	0	43	0	1549795328	7	3701
2026-01-01 06:50:43.92	334.10	19.38	-23.4	-23.7	17.5	0.00e+00	0	43	0	1557135360	7	3694
2026-01-01 06:50:44.93	333.86	19.42	-23.4	-23.7	17.5	1.68e-03	0	43	0	1564475392	7	3698
2026-01-01 06:50:45.93	333.62	19.45	-23.4	-23.5	17.6	0.00e+00	0	43	0	1571815424	7	3650
2026-01-01 06:50:46.93	333.39	19.49	-23.4	-24.1	17.6	0.00e+00	0	43	0	1578106880	6	3893
2026-01-01 06:50:47.93	333.15	19.52	-23.3	-24.0	17.6	0.00e+00	0	43	0	1585446912	6	3864
2026-01-01 06:50:48.94	332.91	19.55	-23.4	-24.0	17.6	0.00e+00	0	43	0	1593835520	6	3871
2026-01-01 06:50:49.94	332.67	19.59	-23.5	-24.4	17.4	0.00e+00	0	43	0	1600126976	6	3970
2026-01-01 06:50:50.95	332.43	19.62	-23.6	-24.1	17.3	0.00e+00	0	43	0	1607467008	7	3790
2026-01-01 06:50:51.94	332.19	19.65	-23.6	-23.9	17.4	0.00e+00	0	43	0	1614807040	7	3747
2026-01-01 06:50:52.95	331.95	19.68	-23.7	-24.2	17.3	0.00e+00	0	43	0	1622147072	7	3817
2026-01-01 06:50:53.95	331.71	19.71	-23.6	-24.1	17.3	0.00e+00	0	43	0	1629487104	7	3793
2026-01-01 06:50:54.96	331.47	19.74	-23.8	-24.4	17.2	0.00e+00	0	43	0	1636827136	7	3859
2026-01-01 06:50:55.96	331.23	19.77	-23.8	-24.5	17.1	0.00e+00	0	43	0	1644167168	7	3881
2026-01-01 06:50:56.96	330.99	19.80	-23.7	-24.1	17.3	0.00e+00	0	43	0	1651507200	7	3802
2026-01-01 06:50:57.97	330.74	19.83	-23.6	-24.0	17.3	0.00e+00	0	43	0	1657798656	7	3783
2026-01-01 06:50:58.97	330.50	19.86	-23.7	-24.1	17.3	0.00e+00	0	43	0	1665138688	7	3801
2026-01-01 06:50:59.98	330.25	19.89	-23.6	-24.0	17.4	0.00e+00	0	43	0	1672478720	7	3771
2026-01-01 06:51:00.99	330.01	19.91	-23.6	-24.0	17.4	0.00e+00	0	43	0	1679818752	7	3762
2026-01-01 06:51:01.99	329.76	19.94	-23.5	-23.8	17.5	0.00e+00	0	43	0	1687158784	7	3734
2026-01-01 06:51:03.00	329.52	19.97	-23.6	-23.9	17.4	0.00e+00	0	43	0	1694498816	7	3759
2026-01-01 06:51:04.00	329.27	19.99	-23.5	-23.8	17.5	0.00e+00	0	43	0	1701838848	7	3725
2026-01-01 06:51:05.01	329.03	20.02	-23.5	-23.8	17.5	0.00e+00	0	43	0	1709178880	7	3723
2026-01-01 06:51:06.01	328.78	20.04	-23.5	-23.7	17.5	0.00e+00	0	43	0	1716518912	7	3712
2026-01-01 06:51:07.02	328.53	20.07	-23.5	-23.7	17.5	0.00e+00	0	43	0	1723858944	7	3711
2026-01-01 06:51:08.03	328.28	20.09	-23.6	-24.1	17.3	0.00e+00	0	43	0	1731198976	7	3791
2026-01-01 06:51:09.03	328.04	20.11	-23.5	-23.9	17.5	0.00e+00	0	43	0	1738539008	7	3737
2026-01-01 06:51:10.03	327.79	20.13	-23.4	-24.2	17.5	0.00e+00	0	43	0	1744830464	6	3927
2026-01-01 06:51:11.03	327.54	20.16	-23.6	-24.1	17.3	0.00e+00	0	43	0	1752170496	7	3796
2026-01-01 06:51:12.04	327.29	20.18	-23.7	-24.3	17.3	0.00e+00	0	43	0	1760559104	7	3841
2026-01-01 06:51:13.05	327.04	20.20	-23.9	-24.7	17.0	0.00e+00	0	43	0	1766850560	7	3934
2026-01-01 06:51:14.05	326.79	20.22	-23.7	-24.3	17.2	0.00e+00	0	43	0	1774190592	7	3834
2026-01-01 06:51:15.05	326.54	20.24	-23.6	-24.0	17.4	0.00e+00	0	43	0	1781530624	7	3776
2026-01-01 06:51:16.06	326.29	20.26	-23.6	-24.1	17.3	0.00e+00	0	43	0	1788870656	7	3794
2026-01-01 06:51:17.07	326.04	20.28	-23.7	-24.2	17.3	0.00e+00	0	43	0	1796210688	7	3815
2026-01-01 06:51:18.07	325.79	20.29	-23.8	-24.5	17.1	0.00e+00	0	43	0	1803550720	7	3888
2026-01-01 06:51:19.08	325.54	20.31	-23.6	-24.0	17.4	0.00e+00	0	43	0	1810890752	7	3779
2026-01-01 06:51:20.09	325.29	20.33	-23.5	-23.9	17.5	0.00e+00	0	43	0	1818230784	7	3742
2026-01-01 06:51:21.09	325.04	20.34	-23.6	-24.0	17.4	0.00e+00	0	43	0	1825570816	7	3778
2026-01-01 06:51:22.10	324.78	20.36	-23.6	-24.0	17.4	0.00e+00	0	43	0	1832910848	7	3763
2026-01-01 06:51:23.10	324.53	20.37	-23.6	-24.1	17.3	0.00e+00	0	43	0	1840250880	7	3781
2026-01-01 06:51:24.11	324.28	20.39	-23.9	-24.5	17.1	0.00e+00	0	43	0	1846542336	7	3896
2026-01-01 06:51:25.11	324.03	20.40	-23.6	-24.0	17.4	0.00e+00	0	43	0	1853882368	7	3764
2026-01-01 06:51:26.11	323.77	20.42	-23.5	-23.7	17.6	0.00e+00	0	43	0	1861222400	7	3705
2026-01-01 06:51:27.12	323.52	20.43	-23.5	-23.7	17.5	0.00e+00	0	43	0	1868562432	7	3704
2026-01-01 06:51:28.12	323.27	20.44	-23.5	-24.3	17.4	0.00e+00	0	43	0	1875902464	6	3956
2026-01-01 06:51:29.12	323.01	20.45	-23.5	-24.3	17.5	0.00e+00	0	43	0	1883242496	6	3954
2026-01-01 06:51:30.13	322.76	20.46	-23.5	-24.3	17.5	0.00e+00	0	43	0	1890582528	6	3956
2026-01-01 06:51:31.13	322.51	20.47	-23.6	-24.1	17.3	0.00e+00	0	43	0	1897922560	7	3784
2026-01-01 06:51:32.13	322.25	20.48	-23.5	-23.8	17.5	0.00e+00	0	43	0	1905262592	7	3729
2026-01-01 06:51:33.13	322.00	20.49	-23.4	-23.6	17.6	0.00e+00	0	43	0	1911554048	7	3689
2026-01-01 06:51:34.13	321.75	20.50	-23.4	-24.2	17.5	0.00e+00	0	43	0	1918894080	6	3919
2026-01-01 06:51:35.14	321.49	20.51	-23.4	-24.1	17.6	0.00e+00	0	43	0	1926234112	6	3888
2026-01-01 06:51:36.14	321.24	20.52	-23.4	-24.1	17.6	0.00e+00	0	43	0	1933574144	6	3889
2026-01-01 06:51:37.14	320.98	20.52	-23.4	-24.2	17.5	2.05e-04	0	43	0	1940914176	6	3922
2026-01-01 06:51:38.14	320.73	20.53	-23.4	-24.0	17.6	0.00e+00	0	43	0	1948254208	6	3882
2026-01-01 06:51:39.14	320.48	20.54	-23.4	-24.2	17.5	0.00e+00	0	43	0	1955594240	6	3920
2026-01-01 06:51:40.15	320.22	20.54	-23.3	-23.9	17.7	0.00e+00	0	43	0	1962934272	6	3854
2026-01-01 06:51:41.15	319.97	20.55	-23.3	-23.8	17.7	0.00e+00	0	43	0	1970274304	6	3837
2026-01-01 06:51:42.15	319.71	20.55	-23.3	-24.0	17.6	3.70e-04	0	43	0	1977614336	6	3863
2026-01-01 06:51:43.16	319.46	20.55	-23.3	-23.8	17.7	0.00e+00	0	44	0	1984954368	6	3839
2026-01-01 06:51:44.16	319.20	20.56	-23.3	-23.8	17.7	0.00e+00	0	43	0	1992294400	6	3833
2026-01-01 06:51:45.16	318.95	20.56	-23.3	-24.0	17.7	8.52e-04	0	43	0	1998585856	6	3868
2026-01-01 06:51:46.17	318.69	20.56	-23.4	-24.0	17.6	0.00e+00	0	43	0	2005925888	6	3878
2026-01-01 06:51:47.17	318.44	20.56	-23.4	-24.1	17.6	9.74e-04	0	43	0	2013265920	6	3902
2026-01-01 06:51:48.17	318.18	20.56	-23.3	-23.9	17.6	0.00e+00	0	43	0	2020605952	6	3864
2026-01-01 06:51:49.17	317.93	20.56	-23.3	-23.9	17.7	0.00e+00	0	43	0	2027945984	6	3858
2026-01-01 06:51:50.18	317.67	20.56	-23.3	-23.8	17.7	1.23e-03	0	43	0	2035286016	6	3835
2026-01-01 06:51:51.18	317.42	20.56	-23.4	-24.1	17.6	0.00e+00	0	43	0	2042626048	6	3897
2026-01-01 06:51:52.18	317.16	20.56	-23.3	-23.8	17.7	1.47e-03	0	43	0	2049966080	6	3834
2026-01-01 06:51:53.19	316.90	20.55	-23.2	-23.6	17.8	1.82e-04	0	43	0	2056257536	6	3783
2026-01-01 06:51:54.19	316.65	20.55	-23.3	-23.9	17.7	6.46e-04	0	43	0	2064646144	6	3847
2026-01-01 06:51:55.20	316.39	20.55	-23.1	-23.5	17.9	1.52e-03	0	43	0	2071986176	6	3767
2026-01-01 06:51:56.20	316.14	20.54	-23.2	-23.7	17.8	1.67e-03	0	43	0	2078277632	6	3809
2026-01-01 06:51:57.20	315.89	20.54	-23.3	-23.9	17.7	6.87e-04	0	43	0	2085617664	6	3857
2026-01-01 06:51:58.21	315.63	20.53	-23.4	-24.2	17.5	1.76e-03	0	43	0	2092957696	6	3921
2026-01-01 06:51:59.21	315.37	20.52	-23.5	-24.2	17.5	1.69e-03	0	43	0	2100297728	6	3923
2026-01-01 06:52:00.20	315.12	20.52	-23.5	-24.4	17.4	6.75e-04	0	43	0	2107637760	6	3966
2026-01-01 06:52:01.21	314.87	20.51	-23.7	-24.2	17.2	1.80e-03	0	43	0	2114977792	7	3823
2026-01-01 06:52:02.22	314.61	20.50	-23.9	-24.6	17.1	1.62e-03	0	43	0	2122317824	7	3911
2026-01-01 06:52:03.21	314.36	20.49	-23.7	-24.3	17.2	4.31e-04	0	43	0	2129657856	7	3831
2026-01-01 06:52:04.21	314.11	20.48	-23.8	-24.5	17.1	1.48e-03	0	43	0	2136997888	7	3889
2026-01-01 06:52:05.22	313.85	20.47	-23.5	-23.8	17.5	1.63e-03	0	43	0	2143289344	7	3735
2026-01-01 06:52:06.23	313.60	20.46	-23.3	-23.9	17.6	0.00e+00	0	43	0	2150629376	6	3863
2026-01-01 06:52:07.23	313.34	20.45	-23.3	-23.8	17.7	1.59e-03	0	43	0	2157969408	6	3834
2026-01-01 06:52:08.23	313.09	20.44	-23.3	-23.9	17.6	1.57e-03	0	43	0	2165309440	6	3858
2026-01-01 06:52:09.23	312.84	20.43	-23.5	-24.2	17.5	2.13e-04	0	43	0	2172649472	6	3926
2026-01-01 06:52:10.24	312.58	20.42	-23.7	-24.2	17.3	1.66e-03	0	43	0	2179989504	7	3809
2026-01-01 06:52:11.24	312.33	20.40	-23.5	-23.8	17.5	0.00e+00	0	44	0	2187329536	7	3726
2026-01-01 06:52:12.25	312.08	20.39	-23.4	-23.5	17.6	5.95e-05	0	43	0	2194669568	7	3662
2026-01-01 06:52:13.25	311.83	20.37	-23.3	-24.0	17.6	0.00e+00	0	43	0	2202009600	6	3866
2026-01-01 06:52:14.26	311.57	20.36	-23.3	-23.9	17.7	0.00e+00	0	43	0	2209349632	6	3850
2026-01-01 06:52:15.26	311.32	20.34	-23.2	-23.7	17.8	6.17e-05	0	43	0	2216689664	6	3804
2026-01-01 06:52:16.26	311.07	20.33	-23.2	-23.7	17.8	0.00e+00	0	43	0	2224029696	6	3811
2026-01-01 06:52:17.27	310.82	20.31	-23.1	-23.5	17.9	1.72e-03	0	43	0	2230321152	6	3749
2026-01-01 06:52:18.27	310.57	20.29	-23.1	-23.4	17.9	0.00e+00	0	43	0	2237661184	6	3741
2026-01-01 06:52:19.28	310.31	20.28	-23.1	-23.5	17.8	0.00e+00	0	43	0	2245001216	6	3770
2026-01-01 06:52:20.28	310.07	20.26	-23.2	-23.6	17.8	1.53e-03	0	43	0	2252341248	6	3773
2026-01-01 06:52:21.28	309.82	20.24	-23.3	-23.8	17.7	0.00e+00	0	43	0	2259681280	6	3822
2026-01-01 06:52:22.29	309.56	20.22	-23.4	-24.0	17.6	0.00e+00	0	43	0	2267021312	6	3878
2026-01-01 06:52:23.29	309.32	20.20	-23.4	-24.1	17.6	0.00e+00	0	43	0	2274361344	6	3895
2026-01-01 06:52:24.29	309.07	20.18	-23.5	-24.2	17.5	0.00e+00	0	43	0	2281701376	6	3931
2026-01-01 06:52:25.30	308.82	20.16	-23.4	-24.1	17.5	0.00e+00	0	43	0	2289041408	6	3906
2026-01-01 06:52:26.30	308.57	20.13	-23.4	-24.1	17.5	0.00e+00	0	43	0	2296381440	6	3895
2026-01-01 06:52:27.31	308.32	20.11	-23.2	-23.8	17.7	0.00e+00	0	43	0	2303721472	6	3822
2026-01-01 06:52:28.31	308.07	20.09	-23.1	-23.5	17.9	0.00e+00	0	43	0	2310012928	6	3771
2026-01-01 06:52:29.31	307.83	20.07	-23.1	-23.5	17.9	0.00e+00	0	43	0	2317352960	6	3758
2026-01-01 06:52:30.31	307.58	20.04	-23.1	-23.5	17.8	0.00e+00	0	43	0	2324692992	6	3762
2026-01-01 06:52:31.32	307.33	20.02	-23.2	-23.7	17.7	0.00e+00	0	43	0	2332033024	6	3807
2026-01-01 06:52:32.32	307.09	19.99	-23.2	-23.8	17.7	0.00e+00	0	43	0	2339373056	6	3819
2026-01-01 06:52:33.32	306.84	19.97	-23.4	-24.0	17.6	0.00e+00	0	43	0	2346713088	6	3876
2026-01-01 06:52:34.32	306.60	19.94	-23.3	-23.9	17.6	0.00e+00	0	43	0	2354053120	6	3854
2026-01-01 06:52:35.33	306.35	19.91	-23.3	-24.0	17.6	0.00e+00	0	43	0	2361393152	6	3870
2026-01-01 06:52:36.33	306.11	19.89	-23.4	-24.0	17.6	0.00e+00	0	43	0	2368733184	6	3879
2026-01-01 06:52:37.33	305.86	19.86	-23.3	-23.9	17.6	0.00e+00	0	43	0	2375024640	6	3861
2026-01-01 06:52:38.33	305.62	19.83	-23.3	-23.9	17.7	0.00e+00	0	43	0	2382364672	6	3843
2026-01-01 06:52:39.33	305.38	19.80	-23.4	-24.0	17.6	0.00e+00	0	43	0	2389704704	6	3872
2026-01-01 06:52:40.34	305.13	19.77	-23.4	-24.1	17.5	0.00e+00	0	43	0	2397044736	6	3890
2026-01-01 06:52:41.34	304.89	19.74	-23.3	-23.8	17.7	0.00e+00	0	43	0	2404384768	6	3839
2026-01-01 06:52:42.34	304.65	19.71	-23.2	-23.7	17.7	0.00e+00	0	43	0	2411724800	6	3817
2026-01-01 06:52:43.35	304.41	19.68	-23.3	-24.0	17.6	0.00e+00	0	43	0	2419064832	6	3870
2026-01-01 06:52:44.35	304.17	19.65	-23.4	-24.0	17.6	0.00e+00	0	43	0	2426404864	6	3879
2026-01-01 06:52:45.35	303.93	19.62	-23.3	-24.0	17.6	0.00e+00	0	43	0	2433744896	6	3865
2026-01-01 06:52:46.36	303.69	19.59	-23.4	-24.1	17.5	0.00e+00	0	43	0	2441084928	6	3895
2026-01-01 06:52:47.36	303.45	19.56	-23.4	-24.2	17.5	0.00e+00	0	43	0	2448424960	6	3921
2026-01-01 06:52:48.37	303.21	19.52	-23.3	-23.9	17.6	0.00e+00	0	43	0	2454716416	6	3852
2026-01-01 06:52:49.38	302.97	19.49	-23.3	-23.9	17.6	0.00e+00	0	43	0	2462056448	6	3860
2026-01-01 06:52:50.38	302.73	19.45	-23.4	-24.1	17.5	0.00e+00	0	43	0	2469396480	6	3889
2026-01-01 06:52:51.38	302.49	19.42	-23.4	-24.0	17.6	0.00e+00	0	43	0	2476736512	6	3878
2026-01-01 06:52:52.39	302.25	19.38	-23.4	-24.2	17.5	0.00e+00	0	43	0	2484076544	6	3921
2026-01-01 06:52:53.39	302.02	19.35	-23.5	-24.3	17.4	0.00e+00	0	43	0	2491416576	6	3947
2026-01-01 06:52:54.39	301.78	19.31	-23.6	-24.1	17.3	0.00e+00	0	43	0	2498756608	7	3793
2026-01-01 06:52:55.40	301.55	19.28	-23.6	-24.0	17.3	0.00e+00	0	43	0	2506096640	7	3772
2026-01-01 06:52:56.40	301.31	19.24	-23.7	-24.3	17.2	0.00e+00	0	43	0	2513436672	7	3841
2026-01-01 06:52:57.40	301.08	19.20	-23.8	-24.4	17.1	0.00e+00	0	43	0	2520776704	7	3867
2026-01-01 06:52:58.40	300.85	19.17	-23.8	-24.4	17.1	0.00e+00	0	43	0	2528116736	7	3860
2026-01-01 06:52:59.41	300.61	19.13	-23.7	-24.3	17.2	0.00e+00	0	43	0	2535456768	7	3841
2026-01-01 06:53:00.41	300.38	19.09	-23.7	-24.1	17.2	0.00e+00	0	43	0	2541748224	7	3801
2026-01-01 06:53:01.42	300.15	19.05	-23.6	-24.0	17.3	0.00e+00	0	43	0	2549088256	7	3776
2026-01-01 06:53:02.42	299.92	19.01	-23.6	-24.0	17.3	0.00e+00	0	43	0	2556428288	7	3777
2026-01-01 06:53:03.42	299.69	18.97	-23.6	-24.1	17.3	0.00e+00	0	43	0	2563768320	7	3785
2026-01-01 06:53:04.43	299.46	18.93	-23.6	-24.0	17.3	0.00e+00	0	43	0	2571108352	7	3769
2026-01-01 06:53:05.43	299.23	18.89	-23.6	-24.1	17.2	0.00e+00	0	43	0	2578448384	7	3799
2026-01-01 06:53:06.44	299.00	18.85	-23.5	-23.8	17.4	0.00e+00	0	43	0	2585788416	7	3738
2026-01-01 06:53:07.44	298.77	18.81	-23.5	-23.9	17.4	0.00e+00	0	43	0	2593128448	7	3741
2026-01-01 06:53:08.44	298.54	18.76	-23.6	-23.9	17.3	0.00e+00	0	43	0	2600468480	7	3754
2026-01-01 06:53:09.44	298.32	18.72	-23.6	-24.1	17.3	0.00e+00	0	43	0	2607808512	7	3788
2026-01-01 06:53:10.44	298.09	18.68	-23.7	-24.1	17.2	0.00e+00	0	43	0	2615148544	7	3803
2026-01-01 06:53:11.44	297.87	18.64	-23.7	-24.2	17.2	0.00e+00	0	43	0	2622488576	7	3818
2026-01-01 06:53:12.44	297.64	18.59	-23.7	-24.2	17.2	0.00e+00	0	43	0	2628780032	7	3824
2026-01-01 06:53:13.45	297.42	18.55	-23.7	-24.2	17.1	0.00e+00	0	43	0	2636120064	7	3824
2026-01-01 06:53:14.45	297.20	18.51	-23.7	-24.1	17.2	0.00e+00	0	43	0	2643460096	7	3805
2026-01-01 06:53:15.45	296.97	18.46	-23.6	-24.1	17.2	0.00e+00	0	43	0	2650800128	7	3793
2026-01-01 06:53:16.45	296.75	18.42	-23.7	-24.2	17.1	0.00e+00	0	43	0	2658140160	7	3822
2026-01-01 06:53:17.45	296.53	18.37	-23.8	-24.4	17.1	0.00e+00	0	43	0	2665480192	7	3860
2026-01-01 06:53:18.46	296.31	18.33	-23.8	-24.4	17.0	0.00e+00	0	43	0	2672820224	7	3869
2026-01-01 06:53:19.46	296.09	18.28	-23.7	-24.3	17.1	0.00e+00	0	43	0	2680160256	7	3834
2026-01-01 06:53:20.47	295.87	18.23	-23.7	-24.2	17.2	0.00e+00	0	43	0	2686451712	7	3811
2026-01-01 06:53:21.47	295.65	18.19	-23.8	-24.5	16.9	0.00e+00	0	43	0	2693791744	7	3883
2026-01-01 06:53:22.47	295.43	18.14	-23.4	-24.0	16.5	0.00e+00	0	43	0	2701131776	7	3866
2026-01-01 06:53:23.48	295.21	18.09	-22.2	-23.2	16.2	0.00e+00	0	43	0	2708471808	6	4067
2026-01-01 06:53:24.48	295.00	18.04	-23.8	-24.6	12.1	0.00e+00	0	43	0	2715811840	7	3912
2026-01-01 06:53:25.48	294.78	18.00	-23.8	-24.5	16.4	0.00e+00	0	43	0	2723151872	7	3882
2026-01-01 06:53:26.48	294.57	17.95	-23.8	-24.5	17.0	0.00e+00	0	43	0	2730491904	7	3879
2026-01-01 06:53:27.48	294.35	17.90	-23.8	-24.5	17.0	2.16e-03	0	43	0	2737831936	7	3892
2026-01-01 06:53:28.48	294.14	17.85	-23.8	-24.4	17.0	0.00e+00	0	43	0	2745171968	7	3857
2026-01-01 06:53:29.48	293.93	17.80	-23.7	-24.3	17.1	0.00e+00	0	44	0	2751463424	7	3842
2026-01-01 06:53:30.48	293.72	17.75	-23.7	-24.2	17.1	0.00e+00	0	43	0	2758803456	7	3812
2026-01-01 06:53:31.48	293.50	17.70	-23.7	-24.2	17.1	0.00e+00	0	44	0	2766143488	7	3814
2026-01-01 06:53:32.49	293.29	17.65	-23.8	-24.4	17.0	2.80e-04	0	43	0	2773483520	7	3860
2026-01-01 06:53:33.49	293.08	17.60	-23.8	-24.5	17.0	0.00e+00	0	43	0	2780823552	7	3891
2026-01-01 06:53:34.50	292.87	17.55	-23.8	-24.4	17.0	1.99e-03	0	43	0	2788163584	7	3871
2026-01-01 06:53:35.50	292.66	17.50	-23.8	-24.5	17.0	1.69e-04	0	44	0	2795503616	7	3881
2026-01-01 06:53:36.51	292.45	17.45	-23.9	-24.7	16.9	0.00e+00	0	43	0	2802843648	7	3941
2026-01-01 06:53:37.51	292.25	17.40	-23.9	-24.8	16.8	1.94e-03	0	43	0	2810183680	7	3951
2026-01-01 06:53:38.51	292.04	17.34	-23.9	-24.8	16.8	0.00e+00	0	43	0	2817523712	7	3959
2026-01-01 06:53:39.52	291.83	17.29	-23.9	-24.6	16.9	1.86e-03	0	43	0	2824863744	7	3925
2026-01-01 06:53:40.52	291.63	17.24	-23.9	-24.6	16.9	1.62e-03	0	43	0	2832203776	7	3929
2026-01-01 06:53:41.53	291.42	17.19	-24.0	-24.8	16.8	0.00e+00	0	43	0	2838495232	7	3971
2026-01-01 06:53:42.53	291.22	17.13	-23.9	-24.8	16.8	1.64e-03	0	43	0	2845835264	7	3950
2026-01-01 06:53:43.54	291.01	17.08	-23.9	-24.7	16.8	1.79e-03	0	43	0	2854223872	7	3940
2026-01-01 06:53:44.54	290.81	17.03	-23.9	-24.7	16.8	0.00e+00	0	43	0	2860515328	7	3946
2026-01-01 06:53:45.54	290.61	16.97	-23.8	-24.5	16.9	1.95e-03	0	43	0	2867855360	7	3894
2026-01-01 06:53:46.54	290.41	16.92	-23.9	-24.6	16.9	1.90e-03	0	43	0	2875195392	7	3927
2026-01-01 06:53:47.55	290.21	16.86	-24.0	-24.8	16.7	2.97e-04	0	43	0	2882535424	7	3960
2026-01-01 06:53:48.55	290.01	16.81	-24.1	-25.0	16.6	0.00e+00	0	43	0	2889875456	7	4025
2026-01-01 06:53:49.55	289.81	16.76	-24.4	-25.2	16.3	2.00e-03	0	43	0	2897215488	8	3950
2026-01-01 06:53:50.55	289.61	16.70	-24.4	-25.3	16.3	3.58e-04	0	43	0	2904555520	8	3972
2026-01-01 06:53:51.56	289.41	16.65	-24.5	-25.4	16.2	6.87e-04	0	43	0	2911895552	8	4015
2026-01-01 06:53:52.56	289.22	16.59	-24.5	-25.0	16.1	2.31e-03	0	43	0	2918187008	9	3805
2026-01-01 06:53:53.56	289.02	16.54	-24.4	-25.3	16.2	0.00e+00	0	43	0	2925527040	8	3984
2026-01-01 06:53:54.57	288.82	16.48	-24.5	-25.4	16.2	2.30e-03	0	43	0	2932867072	8	4001
2026-01-01 06:53:55.57	288.63	16.42	-24.5	-25.3	16.2	2.20e-03	0	43	0	2940207104	8	3987
2026-01-01 06:53:56.58	288.43	16.37	-24.4	-25.2	16.2	0.00e+00	0	43	0	2947547136	8	3960
2026-01-01 06:53:57.57	288.24	16.31	-24.4	-25.1	16.3	2.07e-03	0	43	0	2954887168	8	3938
2026-01-01 06:53:58.57	288.05	16.25	-24.4	-25.3	16.2	0.00e+00	0	43	0	2962227200	8	3977
2026-01-01 06:53:59.57	287.86	16.20	-24.5	-25.5	16.1	3.23e-04	0	43	0	2969567232	8	4021
2026-01-01 06:54:00.57	287.67	16.14	-24.5	-24.9	16.2	1.68e-03	0	43	0	2976907264	9	3783
2026-01-01 06:54:01.57	287.48	16.08	-24.5	-25.4	16.2	0.00e+00	0	43	0	2983198720	8	4002
2026-01-01 06:54:02.57	287.29	16.03	-24.5	-25.3	16.2	3.51e-04	0	43	0	2990538752	8	3989
2026-01-01 06:54:03.57	287.10	15.97	-24.3	-25.0	16.4	0.00e+00	0	43	0	2997878784	8	3909
2026-01-01 06:54:04.58	286.91	15.91	-24.3	-25.1	16.4	0.00e+00	0	43	0	3005218816	8	3929
2026-01-01 06:54:05.58	286.73	15.85	-24.3	-25.1	16.3	8.44e-04	0	43	0	3012558848	8	3929
2026-01-01 06:54:06.59	286.54	15.79	-24.4	-25.3	16.2	0.00e+00	0	43	0	3019898880	8	3970
2026-01-01 06:54:07.59	286.35	15.74	-24.4	-25.3	16.2	2.08e-03	0	43	0	3027238912	8	3978
2026-01-01 06:54:08.60	286.17	15.68	-24.6	-25.2	15.9	0.00e+00	0	43	0	3034578944	9	3864
2026-01-01 06:54:09.60	285.98	15.62	-24.9	-25.7	15.7	0.00e+00	0	43	0	3041918976	9	3980
2026-01-01 06:54:10.60	285.80	15.56	-24.9	-25.7	15.7	0.00e+00	0	44	0	3049259008	9	3984
2026-01-01 06:54:11.60	285.62	15.50	-24.6	-25.3	15.9	0.00e+00	0	43	0	3056599040	9	3864
2026-01-01 06:54:12.60	285.44	15.44	-24.5	-25.0	16.1	0.00e+00	0	43	0	3062890496	9	3811
2026-01-01 06:54:13.61	285.25	15.38	-24.5	-25.5	16.1	0.00e+00	0	43	0	3070230528	8	4021
2026-01-01 06:54:14.61	285.07	15.32	-24.4	-25.3	16.2	0.00e+00	0	43	0	3077570560	8	3970
2026-01-01 06:54:15.62	284.89	15.26	-24.4	-25.3	16.2	0.00e+00	0	43	0	3084910592	8	3989
2026-01-01 06:54:16.62	284.71	15.21	-24.4	-25.2	16.2	0.00e+00	0	43	0	3092250624	8	3963
2026-01-01 06:54:17.62	284.54	15.15	-24.4	-25.2	16.2	0.00e+00	0	43	0	3099590656	8	3966
2026-01-01 06:54:18.62	284.36	15.09	-24.6	-25.6	16.0	0.00e+00	0	43	0	3106930688	8	4065
2026-01-01 06:54:19.63	284.18	15.03	-24.8	-25.6	15.7	0.00e+00	0	43	0	3114270720	9	3949
2026-01-01 06:54:20.63	284.00	14.97	-24.8	-25.5	15.8	0.00e+00	0	43	0	3121610752	9	3939
2026-01-01 06:54:21.64	283.83	14.91	-24.7	-25.5	15.8	0.00e+00	0	43	0	3127902208	9	3928
2026-01-01 06:54:22.64	283.65	14.84	-24.7	-25.5	15.8	0.00e+00	0	43	0	3136290816	9	3916
2026-01-01 06:54:23.64	283.48	14.78	-24.7	-25.4	15.9	0.00e+00	0	43	0	3143630848	9	3892
2026-01-01 06:54:24.64	283.31	14.72	-24.7	-25.4	15.8	0.00e+00	0	43	0	3149922304	9	3896
2026-01-01 06:54:25.65	283.13	14.66	-24.7	-25.4	15.9	0.00e+00	0	43	0	3157262336	9	3895
2026-01-01 06:54:26.65	282.96	14.60	-24.7	-25.4	15.8	0.00e+00	0	43	0	3164602368	9	3902
2026-01-01 06:54:27.65	282.79	14.54	-24.7	-25.4	15.8	0.00e+00	0	43	0	3171942400	9	3907
2026-01-01 06:54:28.66	282.62	14.48	-24.9	-25.7	15.6	0.00e+00	0	43	0	3179282432	9	3981
2026-01-01 06:54:29.66	282.45	14.42	-24.8	-25.6	15.7	0.00e+00	0	43	0	3186622464	9	3959
2026-01-01 06:54:30.67	282.28	14.36	-24.6	-25.2	15.9	0.00e+00	0	43	0	3193962496	9	3863
2026-01-01 06:54:31.67	282.11	14.30	-24.6	-25.1	16.0	0.00e+00	0	43	0	3201302528	9	3841
2026-01-01 06:54:32.67	281.94	14.24	-24.6	-25.1	16.0	0.00e+00	0	43	0	3208642560	9	3830
2026-01-01 06:54:33.67	281.78	14.17	-24.6	-25.3	15.9	0.00e+00	0	43	0	3214934016	9	3870
2026-01-01 06:54:34.67	281.61	14.11	-24.6	-25.2	15.9	0.00e+00	0	43	0	3222274048	9	3850
2026-01-01 06:54:35.68	281.44	14.05	-24.6	-25.6	15.9	0.00e+00	0	43	0	3229614080	8	4060
2026-01-01 06:54:36.69	281.28	13.99	-24.6	-25.2	15.9	0.00e+00	0	43	0	3236954112	9	3842
2026-01-01 06:54:37.69	281.11	13.93	-24.6	-25.2	15.9	0.00e+00	0	43	0	3244294144	9	3851
2026-01-01 06:54:38.69	280.95	13.86	-24.7	-25.4	15.8	0.00e+00	0	43	0	3251634176	9	3891
2026-01-01 06:54:39.70	280.79	13.80	-24.8	-25.5	15.7	0.00e+00	0	43	0	3258974208	9	3939
2026-01-01 06:54:40.70	280.62	13.74	-24.8	-25.6	15.7	0.00e+00	0	43	0	3266314240	9	3940
2026-01-01 06:54:41.71	280.46	13.68	-24.9	-25.8	15.5	0.00e+00	0	43	0	3273654272	9	4010
2026-01-01 06:54:42.71	280.30	13.62	-24.9	-25.8	15.6	0.00e+00	0	43	0	3280994304	9	3994
2026-01-01 06:54:43.72	280.14	13.55	-24.8	-25.7	15.6	0.00e+00	0	43	0	3288334336	9	3967
2026-01-01 06:54:44.72	279.98	13.49	-24.9	-25.8	15.6	0.00e+00	0	44	0	3294625792	9	4004
2026-01-01 06:54:45.73	279.82	13.43	-25.0	-26.0	15.4	0.00e+00	0	43	0	3301965824	9	4058
2026-01-01 06:54:46.73	279.66	13.37	-25.0	-26.0	15.4	0.00e+00	0	43	0	3310354432	9	4056
2026-01-01 06:54:47.73	279.51	13.30	-25.1	-26.2	15.3	0.00e+00	0	43	0	3316645888	9	4101
2026-01-01 06:54:48.74	279.35	13.24	-25.1	-26.2	15.3	0.00e+00	0	43	0	3323985920	9	4109
2026-01-01 06:54:49.74	279.19	13.18	-25.1	-25.8	15.2	0.00e+00	0	43	0	3331325952	10	3905
2026-01-01 06:54:50.75	279.03	13.11	-25.3	-26.3	15.0	1.10e-06	0	43	0	3338665984	10	4026
2026-01-01 06:54:51.75	278.88	13.05	-25.3	-26.1	15.1	0.00e+00	0	43	0	3346006016	10	3969
2026-01-01 06:54:52.75	278.73	12.99	-25.1	-25.8	15.2	0.00e+00	0	43	0	3353346048	10	3904
2026-01-01 06:54:53.76	278.57	12.93	-25.1	-25.8	15.3	0.00e+00	0	43	0	3360686080	10	3893
2026-01-01 06:54:54.76	278.42	12.86	-25.0	-25.6	15.4	0.00e+00	0	43	0	3368026112	10	3856
2026-01-01 06:54:55.77	278.27	12.80	-25.0	-26.2	15.3	0.00e+00	0	43	0	3375366144	9	4093
2026-01-01 06:54:56.78	278.11	12.74	-24.9	-26.0	15.5	0.00e+00	0	43	0	3381657600	9	4041
2026-01-01 06:54:57.79	277.96	12.67	-24.8	-25.7	15.6	0.00e+00	0	43	0	3390046208	9	3975
2026-01-01 06:54:58.78	277.81	12.61	-24.9	-25.9	15.5	0.00e+00	0	43	0	3397386240	9	4015
2026-01-01 06:54:59.79	277.66	12.55	-24.9	-25.9	15.5	0.00e+00	0	43	0	3403677696	9	4018
2026-01-01 06:55:00.79	277.51	12.49	-25.0	-26.0	15.4	0.00e+00	0	43	0	3411017728	9	4062
2026-01-01 06:55:01.78	277.37	12.42	-25.0	-26.1	15.4	0.00e+00	0	43	0	3418357760	9	4065
2026-01-01 06:55:02.79	277.22	12.36	-25.1	-26.2	15.3	0.00e+00	0	43	0	3425697792	9	4107
2026-01-01 06:55:03.79	277.07	12.30	-25.2	-26.0	15.2	0.00e+00	0	43	0	3433037824	10	3944
2026-01-01 06:55:04.79	276.93	12.23	-25.2	-26.1	15.1	0.00e+00	0	43	0	3440377856	10	3962
2026-01-01 06:55:05.80	276.78	12.17	-25.3	-26.1	15.1	0.00e+00	0	43	0	3447717888	10	3978
2026-01-01 06:55:06.80	276.64	12.11	-25.4	-26.4	14.9	0.00e+00	0	43	0	3455057920	10	4046
2026-01-01 06:55:07.80	276.49	12.04	-25.3	-26.2	15.1	0.00e+00	0	43	0	3461349376	10	3985
2026-01-01 06:55:08.81	276.35	11.98	-25.3	-26.3	15.0	0.00e+00	0	43	0	3468689408	10	4015
2026-01-01 06:55:09.81	276.20	11.92	-25.3	-26.2	15.1	0.00e+00	0	43	0	3476029440	10	3994
2026-01-01 06:55:10.81	276.06	11.85	-25.2	-26.0	15.1	0.00e+00	0	43	0	3483369472	10	3944
2026-01-01 06:55:11.81	275.92	11.79	-25.3	-26.3	14.9	0.00e+00	0	43	0	3490709504	10	4019
2026-01-01 06:55:12.81	275.78	11.73	-25.3	-26.2	15.0	0.00e+00	0	43	0	3498049536	10	4001
2026-01-01 06:55:13.82	275.64	11.66	-25.4	-26.4	14.9	0.00e+00	0	43	0	3505389568	10	4047
2026-01-01 06:55:14.83	275.50	11.60	-25.4	-26.5	14.8	0.00e+00	0	43	0	3512729600	10	4072
2026-01-01 06:55:15.83	275.36	11.54	-25.4	-26.4	14.9	0.00e+00	0	43	0	3520069632	10	4045
2026-01-01 06:55:16.83	275.22	11.47	-25.4	-26.5	14.9	0.00e+00	0	43	0	3526361088	10	4064
2026-01-01 06:55:17.82	275.08	11.41	-25.4	-26.5	14.8	0.00e+00	0	43	0	3533701120	10	4074
2026-01-01 06:55:18.83	274.94	11.35	-25.4	-26.3	14.9	0.00e+00	0	43	0	3541041152	10	4032
2026-01-01 06:55:19.83	274.81	11.29	-25.4	-26.5	14.8	0.00e+00	0	43	0	3548381184	10	4063
2026-01-01 06:55:20.84	274.67	11.22	-25.4	-26.3	14.9	0.00e+00	0	43	0	3555721216	10	4030
2026-01-01 06:55:21.84	274.53	11.16	-25.5	-26.7	14.7	0.00e+00	0	43	0	3563061248	10	4122
2026-01-01 06:55:22.85	274.40	11.09	-25.3	-26.3	14.9	0.00e+00	0	43	0	3570401280	10	4025
2026-01-01 06:55:23.85	274.26	11.03	-25.2	-26.0	15.1	0.00e+00	0	43	0	3577741312	10	3949
2026-01-01 06:55:24.85	274.13	10.97	-25.3	-26.1	15.0	0.00e+00	0	43	0	3585081344	10	3976
2026-01-01 06:55:25.85	274.00	10.91	-25.2	-26.1	15.0	0.00e+00	0	43	0	3592421376	10	3970
2026-01-01 06:55:26.85	273.86	10.84	-25.3	-26.3	14.9	0.00e+00	0	43	0	3599761408	10	4018
2026-01-01 06:55:27.86	273.73	10.78	-25.3	-26.3	14.9	0.00e+00	0	43	0	3607101440	10	4015
2026-01-01 06:55:28.85	273.60	10.72	-25.4	-26.4	14.8	0.00e+00	0	43	0	3613392896	10	4053
2026-01-01 06:55:29.86	273.47	10.65	-25.4	-26.5	14.8	0.00e+00	0	43	0	3620732928	10	4070
2026-01-01 06:55:30.86	273.34	10.59	-25.5	-26.7	14.7	0.00e+00	0	43	0	3628072960	10	4119
2026-01-01 06:55:31.87	273.21	10.53	-25.6	-26.8	14.6	0.00e+00	0	43	0	3635412992	10	4154
2026-01-01 06:55:32.87	273.08	10.46	-25.6	-26.4	14.5	0.00e+00	0	43	0	3642753024	11	3952
2026-01-01 06:55:33.87	272.95	10.40	-25.8	-26.8	14.3	0.00e+00	0	43	0	3650093056	11	4043
2026-01-01 06:55:34.88	272.82	10.34	-25.7	-26.7	14.4	0.00e+00	0	43	0	3657433088	11	4013
2026-01-01 06:55:35.88	272.69	10.27	-25.8	-26.9	14.3	0.00e+00	0	43	0	3664773120	11	4064
2026-01-01 06:55:36.89	272.56	10.21	-25.7	-26.7	14.4	1.10e-06	0	44	0	3672113152	11	4013
2026-01-01 06:55:37.89	272.44	10.15	-25.8	-26.8	14.3	1.10e-06	0	43	0	3679453184	11	4042
2026-01-01 06:55:38.89	272.31	10.09	-25.8	-26.8	14.3	0.00e+00	0	43	0	3686793216	11	4046
2026-01-01 06:55:39.90	272.19	10.02	-25.8	-26.8	14.3	1.10e-06	0	43	0	3693084672	11	4045
2026-01-01 06:55:40.90	272.06	9.96	-25.7	-26.7	14.4	0.00e+00	0	43	0	3700424704	11	4016
2026-01-01 06:55:41.91	271.94	9.90	-25.7	-26.6	14.4	0.00e+00	0	43	0	3707764736	11	4007
2026-01-01 06:55:42.91	271.81	9.83	-25.7	-26.7	14.3	0.00e+00	0	43	0	3715104768	11	4012
2026-01-01 06:55:43.92	271.69	9.77	-25.9	-27.0	14.2	1.10e-06	0	43	0	3722444800	11	4107
2026-01-01 06:55:44.92	271.57	9.71	-25.7	-26.7	14.3	0.00e+00	0	43	0	3729784832	11	4029
2026-01-01 06:55:45.93	271.44	9.64	-25.8	-26.8	14.2	1.10e-06	0	43	0	3737124864	11	4054
2026-01-01 06:55:46.93	271.32	9.58	-25.9	-27.0	14.2	2.20e-06	0	43	0	3744464896	11	4094
2026-01-01 06:55:47.94	271.20	9.52	-25.9	-27.2	14.0	2.20e-06	0	43	0	3751804928	11	4146
2026-01-01 06:55:48.94	271.08	9.46	-25.9	-27.0	14.1	0.00e+00	0	43	0	3759144960	11	4111
2026-01-01 06:55:49.95	270.96	9.39	-26.0	-27.2	14.0	0.00e+00	0	43	0	3766484992	11	4160
2026-01-01 06:55:50.95	270.84	9.33	-25.8	-26.9	14.1	2.20e-06	0	43	0	3773825024	11	4080
2026-01-01 06:55:51.95	270.72	9.27	-25.8	-26.9	14.2	1.10e-06	0	43	0	3780116480	11	4070
2026-01-01 06:55:52.96	270.60	9.20	-25.8	-27.0	14.1	1.10e-06	0	43	0	3787456512	11	4092
2026-01-01 06:55:53.96	270.48	9.14	-25.7	-26.7	14.3	1.10e-06	0	43	0	3794796544	11	4012
2026-01-01 06:55:54.96	270.36	9.08	-25.8	-26.8	14.2	3.40e-06	0	43	0	3802136576	11	4044
2026-01-01 06:55:55.96	270.25	9.02	-25.7	-26.6	14.4	0.00e+00	0	43	0	3809476608	11	3987
2026-01-01 06:55:56.97	270.13	8.96	-25.6	-26.5	14.4	0.00e+00	0	43	0	3816816640	11	3976
2026-01-01 06:55:57.97	270.01	8.89	-25.7	-26.7	14.3	0.00e+00	0	44	0	3824156672	11	4015
2026-01-01 06:55:58.97	269.90	8.83	-25.7	-26.6	14.3	0.00e+00	0	43	0	3831496704	11	4011
2026-01-01 06:55:59.97	269.78	8.77	-25.8	-26.7	14.2	0.00e+00	0	43	0	3838836736	11	4034
2026-01-01 06:56:00.97	269.67	8.71	-25.8	-27.0	14.1	0.00e+00	0	43	0	3845128192	11	4090
2026-01-01 06:56:01.96	269.56	8.65	-25.8	-27.0	14.1	3.40e-06	0	43	0	3852468224	11	4094
2026-01-01 06:56:02.96	269.44	8.58	-26.0	-27.3	13.9	1.10e-06	0	43	0	3859808256	11	4172
2026-01-01 06:56:03.96	269.33	8.52	-26.0	-27.4	13.8	3.40e-06	0	43	0	3867148288	11	4206
2026-01-01 06:56:04.97	269.22	8.46	-26.0	-27.4	13.8	4.50e-06	0	44	0	3874488320	11	4199
2026-01-01 06:56:05.97	269.11	8.40	-26.0	-26.9	13.7	6.80e-06	0	43	0	3881828352	12	3996
2026-01-01 06:56:06.97	269.00	8.34	-25.9	-26.7	13.8	4.50e-06	0	43	0	3889168384	12	3935
2026-01-01 06:56:07.97	268.88	8.27	-25.9	-26.7	13.8	4.50e-06	0	43	0	3896508416	12	3944
2026-01-01 06:56:08.98	268.77	8.21	-25.9	-26.6	13.9	5.70e-06	0	43	0	3902799872	12	3906
2026-01-01 06:56:09.98	268.66	8.15	-25.9	-26.7	13.8	3.40e-06	0	43	0	3910139904	12	3943
2026-01-01 06:56:10.97	268.56	8.09	-25.9	-26.7	13.8	6.80e-06	0	43	0	3917479936	12	3920
2026-01-01 06:56:11.97	268.45	8.03	-26.0	-26.8	13.8	2.20e-06	0	43	0	3924819968	12	3959
2026-01-01 06:56:12.97	268.34	7.97	-26.3	-27.4	13.4	5.70e-06	0	43	0	3932160000	12	4125
2026-01-01 06:56:13.96	268.23	7.91	-26.1	-27.0	13.6	4.50e-06	0	43	0	3939500032	12	3999
2026-01-01 06:56:14.96	268.12	7.84	-26.0	-26.8	13.7	8.00e-06	0	43	0	3946840064	12	3966
2026-01-01 06:56:15.97	268.02	7.78	-26.0	-27.0	13.6	2.20e-06	0	43	0	3954180096	12	4001
2026-01-01 06:56:16.97	267.91	7.72	-26.2	-27.3	13.5	5.70e-06	0	43	0	3961520128	12	4081
2026-01-01 06:56:17.97	267.80	7.66	-26.3	-27.5	13.3	1.71e-05	0	43	0	3967811584	12	4127
2026-01-01 06:56:18.98	267.70	7.60	-26.3	-27.6	13.3	9.10e-06	0	43	0	3975151616	12	4164
2026-01-01 06:56:19.98	267.59	7.54	-26.4	-27.8	13.1	3.43e-05	0	43	0	3983540224	12	4215
2026-01-01 06:56:20.99	267.48	7.48	-26.4	-27.9	13.1	2.28e-05	0	43	0	3989831680	12	4250
2026-01-01 06:56:21.99	267.38	7.41	-26.7	-27.9	12.8	5.49e-05	0	44	0	3997171712	13	4143
2026-01-01 06:56:23.00	267.28	7.35	-26.6	-27.6	12.9	4.34e-05	0	43	0	4004511744	13	4081
2026-01-01 06:56:24.01	267.17	7.29	-26.5	-27.6	12.9	3.43e-05	0	43	0	4011851776	13	4061
2026-01-01 06:56:25.00	267.07	7.23	-26.5	-27.5	13.0	2.63e-05	0	43	0	4019191808	13	4048
2026-01-01 06:56:26.00	266.97	7.17	-26.4	-27.4	13.1	2.28e-05	0	43	0	4026531840	13	3999
2026-01-01 06:56:27.00	266.86	7.11	-26.5	-27.4	13.0	3.89e-05	0	43	0	4033871872	13	4025
2026-01-01 06:56:28.01	266.76	7.05	-32.5	-42.1	3.8	8.45e-01	0	43	104	4037017600	24	10889
2026-01-01 06:56:29.02	266.66	6.99	-32.7	-42.3	3.8	8.45e-01	0	43	104	4037017600	25	10883
2026-01-01 06:56:30.02	266.56	6.93	-33.0	-42.9	3.8	8.47e-01	0	43	104	4037017600	25	11266
2026-01-01 06:56:31.02	266.46	6.87	-33.2	-42.8	3.8	8.45e-01	0	44	104	4037017600	26	10846

#Closed at: 2026-01-01 06:56:31
#Recorded file [4037 MB]: D:/data/31010_260101_094708.dat