passes_logs/2025/01/23/LEX_Murmansk/LEX_Murmansk__20250123_110611_NOAA_18_rec.log

#Pass ID: 20250123_110611_NOAA 18
#Satellite: NOAA 18
#Configuration: NOAA 18
#Start time: 2025-01-23 11:06:06.458784

#LorettStation: 1.0.0 05.05.2024
#Station: LEX_Murmansk
#Location: 33.156738 lon 68.926811 lat
#TLE: 1 28654U 05018A   25022.24143052  .00000458  00000+0  26647-3 0  9995
#TLE: 2 28654  98.8556 103.2235 0014680 159.1096 201.0679 14.13493787 14203

#Time	Az	El	Level	SNR
2025-01-23 11:06:18.619887	23.1	16.3	-90.9	5.6
2025-01-23 11:06:19.773458	23.1	16.4	-90.8	2.7
2025-01-23 11:06:20.918031	23.0	16.5	-90.6	3.1
2025-01-23 11:06:22.069114	22.9	16.6	-90.6	3.8
2025-01-23 11:06:23.214074	22.8	16.7	-91.1	4.4
2025-01-23 11:06:24.369509	22.8	16.9	-90.8	4.1
2025-01-23 11:06:25.525647	22.7	17.0	-90.8	4.3
2025-01-23 11:06:26.678897	22.6	17.1	-91.0	5.7
2025-01-23 11:06:27.837063	22.5	17.3	-90.6	5.8
2025-01-23 11:06:28.998860	22.5	17.4	-90.8	6.1
2025-01-23 11:06:30.145089	22.4	17.5	-90.5	5.5
2025-01-23 11:06:31.291516	22.3	17.6	-90.4	9.7
2025-01-23 11:06:32.454991	22.2	17.8	-91.0	8.9
2025-01-23 11:06:33.598705	22.2	17.9	-91.1	8.3
2025-01-23 11:06:34.753239	22.1	18.0	-91.0	9.4
2025-01-23 11:06:35.902215	22.0	18.2	-91.2	8.4
2025-01-23 11:06:37.056244	21.9	18.3	-91.0	8.2
2025-01-23 11:06:38.209595	21.8	18.4	-90.9	6.8
2025-01-23 11:06:39.353500	21.7	18.5	-90.7	7.5
2025-01-23 11:06:40.500446	21.7	18.7	-91.0	4.7
2025-01-23 11:06:41.658363	21.6	18.8	-90.5	5.8
2025-01-23 11:06:42.819957	21.5	19.0	-91.1	5.5
2025-01-23 11:06:43.982822	21.4	19.1	-90.2	8.6
2025-01-23 11:06:45.141892	21.3	19.2	-91.2	7.1
2025-01-23 11:06:46.298024	21.2	19.4	-91.1	8.5
2025-01-23 11:06:47.460128	21.1	19.5	-90.6	6.5
2025-01-23 11:06:48.621621	21.1	19.6	-90.8	4.5
2025-01-23 11:06:49.788202	21.0	19.8	-90.4	9.5
2025-01-23 11:06:50.936246	20.9	19.9	-90.8	9.1
2025-01-23 11:06:52.075296	20.8	20.1	-90.6	9.5
2025-01-23 11:06:53.225468	20.7	20.2	-90.6	6.7
2025-01-23 11:06:54.389009	20.6	20.3	-91.2	7.3
2025-01-23 11:06:55.540331	20.5	20.5	-90.8	2.7
2025-01-23 11:06:56.690059	20.4	20.6	-91.1	9.3
2025-01-23 11:06:57.836195	20.3	20.8	-91.2	7.9
2025-01-23 11:06:58.991378	20.2	20.9	-90.9	7.2
2025-01-23 11:07:00.140486	20.1	21.1	-90.4	8.8
2025-01-23 11:07:01.291812	20.0	21.2	-90.5	6.7
2025-01-23 11:07:02.440282	19.9	21.3	-90.7	6.8
2025-01-23 11:07:03.591045	19.8	21.5	-91.0	7.5
2025-01-23 11:07:04.746819	19.7	21.6	-90.8	9.9
2025-01-23 11:07:05.909222	19.6	21.8	-91.0	9.2
2025-01-23 11:07:07.074175	19.5	21.9	-90.9	8.3
2025-01-23 11:07:08.228383	19.4	22.1	-90.6	10.4
2025-01-23 11:07:09.383086	19.3	22.2	-90.9	13.3
2025-01-23 11:07:10.531886	19.2	22.4	-90.5	7.2
2025-01-23 11:07:11.684415	19.1	22.6	-91.0	12.4
2025-01-23 11:07:12.831396	19.0	22.7	-90.8	9.9
2025-01-23 11:07:13.988752	18.8	22.9	-90.6	4.8
2025-01-23 11:07:15.149120	18.7	23.0	-90.6	8.3
2025-01-23 11:07:16.305379	18.6	23.2	-90.5	10.7
2025-01-23 11:07:17.455333	18.5	23.3	-90.6	11.8
2025-01-23 11:07:18.603472	18.4	23.5	-90.4	14.0
2025-01-23 11:07:19.763010	18.3	23.6	-90.5	10.2
2025-01-23 11:07:20.918745	18.2	23.8	-90.7	10.0
2025-01-23 11:07:22.077647	18.0	24.0	-90.7	9.1
2025-01-23 11:07:23.226792	17.9	24.1	-91.1	11.6
2025-01-23 11:07:24.375622	17.8	24.3	-90.7	11.1
2025-01-23 11:07:25.530967	17.7	24.4	-91.0	12.4
2025-01-23 11:07:26.687855	17.5	24.6	-90.9	10.6
2025-01-23 11:07:27.839008	17.4	24.8	-91.1	11.3
2025-01-23 11:07:29.001115	17.3	24.9	-91.0	6.1
2025-01-23 11:07:30.165761	17.2	25.1	-91.0	9.3
2025-01-23 11:07:31.325055	17.0	25.3	-90.6	9.4
2025-01-23 11:07:32.489456	16.9	25.4	-91.1	5.5
2025-01-23 11:07:33.640161	16.8	25.6	-91.0	9.1
2025-01-23 11:07:34.795709	16.6	25.8	-90.8	10.8
2025-01-23 11:07:35.954219	16.5	26.0	-90.9	11.5
2025-01-23 11:07:37.106142	16.4	26.1	-90.3	10.0
2025-01-23 11:07:38.252332	16.2	26.3	-90.1	10.5
2025-01-23 11:07:39.405212	16.1	26.5	-89.6	8.1
2025-01-23 11:07:40.558627	15.9	26.6	-90.0	8.4
2025-01-23 11:07:41.713978	15.8	26.8	-90.2	8.4
2025-01-23 11:07:42.864385	15.6	27.0	-90.3	9.0
2025-01-23 11:07:44.026421	15.5	27.2	-90.3	8.8
2025-01-23 11:07:45.186296	15.3	27.4	-90.4	7.4
2025-01-23 11:07:46.342093	15.2	27.5	-90.2	4.8
2025-01-23 11:07:47.498748	15.0	27.7	-90.3	3.6
2025-01-23 11:07:48.656741	14.9	27.9	-90.8	5.9
2025-01-23 11:07:49.810418	14.7	28.1	-91.0	7.6
2025-01-23 11:07:50.963671	14.6	28.3	-91.2	5.9
2025-01-23 11:07:52.118255	14.4	28.4	-91.0	7.6
2025-01-23 11:07:53.270409	14.3	28.6	-90.7	5.9
2025-01-23 11:07:54.420375	14.1	28.8	-90.8	6.4
2025-01-23 11:07:55.574330	13.9	29.0	-91.2	9.4
2025-01-23 11:07:56.736986	13.8	29.2	-91.4	9.6
2025-01-23 11:07:57.889016	13.6	29.4	-91.5	8.2
2025-01-23 11:07:59.044166	13.4	29.6	-91.2	10.1
2025-01-23 11:08:00.203066	13.2	29.8	-91.0	11.5
2025-01-23 11:08:01.344299	13.1	29.9	-90.8	11.3
2025-01-23 11:08:02.495123	12.9	30.1	-90.9	10.2
2025-01-23 11:08:03.657158	12.7	30.3	-91.1	7.2
2025-01-23 11:08:04.808938	12.5	30.5	-91.1	8.8
2025-01-23 11:08:05.961767	12.3	30.7	-91.4	6.7
2025-01-23 11:08:07.114914	12.2	30.9	-91.2	8.0
2025-01-23 11:08:08.276243	12.0	31.1	-90.9	10.7
2025-01-23 11:08:09.433523	11.8	31.3	-91.0	8.2
2025-01-23 11:08:10.588797	11.6	31.5	-91.4	9.9
2025-01-23 11:08:11.737751	11.4	31.7	-91.0	11.8
2025-01-23 11:08:12.905367	11.2	31.9	-91.0	13.0
2025-01-23 11:08:14.057530	11.0	32.1	-91.1	11.3
2025-01-23 11:08:15.218006	10.8	32.3	-90.6	11.2
2025-01-23 11:08:16.373979	10.6	32.5	-90.8	9.9
2025-01-23 11:08:17.536993	10.4	32.7	-90.8	8.3
2025-01-23 11:08:18.683822	10.2	32.9	-90.9	11.5
2025-01-23 11:08:19.839380	9.9	33.1	-91.0	13.0
2025-01-23 11:08:20.998711	9.7	33.4	-91.3	15.4
2025-01-23 11:08:22.158947	9.5	33.6	-90.9	14.8
2025-01-23 11:08:23.313147	9.3	33.8	-91.0	15.1
2025-01-23 11:08:24.474497	9.0	34.0	-91.1	8.1
2025-01-23 11:08:25.624057	8.8	34.2	-91.3	6.9
2025-01-23 11:08:26.779461	8.6	34.4	-91.4	13.6
2025-01-23 11:08:27.931583	8.3	34.6	-91.2	8.2
2025-01-23 11:08:29.094905	8.1	34.8	-90.4	9.2
2025-01-23 11:08:30.249442	7.9	35.1	-90.8	14.3
2025-01-23 11:08:31.403258	7.6	35.3	-91.4	14.8
2025-01-23 11:08:32.560453	7.4	35.5	-90.9	15.7
2025-01-23 11:08:33.715937	7.1	35.7	-91.2	18.3
2025-01-23 11:08:34.871978	6.9	35.9	-91.3	13.0
2025-01-23 11:08:36.031574	6.6	36.1	-91.0	11.8
2025-01-23 11:08:37.176498	6.3	36.4	-90.8	13.3
2025-01-23 11:08:38.334752	6.1	36.6	-90.7	12.7
2025-01-23 11:08:39.484775	5.8	36.8	-91.1	14.0
2025-01-23 11:08:40.635113	5.5	37.0	-90.9	15.1
2025-01-23 11:08:41.798640	5.3	37.2	-90.9	13.7
2025-01-23 11:08:42.958448	5.0	37.5	-91.1	11.2
2025-01-23 11:08:44.108926	4.7	37.7	-90.5	10.1
2025-01-23 11:08:45.257196	4.4	37.9	-90.8	11.1
2025-01-23 11:08:46.412817	4.1	38.1	-90.7	6.9
2025-01-23 11:08:47.569081	3.8	38.4	-91.2	7.5
2025-01-23 11:08:48.728085	3.5	38.6	-90.1	14.7
2025-01-23 11:08:49.877221	3.2	38.8	-90.3	13.7
2025-01-23 11:08:51.027436	2.9	39.1	-90.9	16.3
2025-01-23 11:08:52.176866	2.6	39.3	-90.2	16.7
2025-01-23 11:08:53.333275	2.3	39.5	-90.5	18.0
2025-01-23 11:08:54.482259	1.9	39.7	-91.2	17.7
2025-01-23 11:08:55.635466	1.6	40.0	-90.9	16.9
2025-01-23 11:08:56.794585	1.3	40.2	-91.1	20.3
2025-01-23 11:08:57.952981	0.9	40.4	-91.0	13.3
2025-01-23 11:08:59.111905	0.6	40.7	-90.8	15.3
2025-01-23 11:09:00.257397	0.3	40.9	-90.7	18.7
2025-01-23 11:09:01.419167	359.9	41.1	-89.4	17.0
2025-01-23 11:09:02.573915	359.5	41.4	-89.8	16.6
2025-01-23 11:09:03.729708	359.2	41.6	-89.7	16.6
2025-01-23 11:09:04.884268	358.8	41.8	-89.8	14.3
2025-01-23 11:09:06.045518	358.4	42.1	-89.4	10.1
2025-01-23 11:09:07.198130	358.0	42.3	-90.4	17.0
2025-01-23 11:09:08.353811	357.7	42.5	-90.7	16.6
2025-01-23 11:09:09.508808	357.3	42.8	-90.7	9.0
2025-01-23 11:09:10.671628	356.9	43.0	-91.0	17.6
2025-01-23 11:09:11.830799	356.5	43.2	-91.1	16.4
2025-01-23 11:09:12.985490	356.1	43.5	-91.0	14.3
2025-01-23 11:09:14.135574	355.6	43.7	-91.0	18.3
2025-01-23 11:09:15.286911	355.2	43.9	-90.8	19.3
2025-01-23 11:09:16.447609	354.8	44.2	-90.9	20.3
2025-01-23 11:09:17.610474	354.4	44.4	-91.2	16.7
2025-01-23 11:09:18.767920	353.9	44.6	-91.4	20.4
2025-01-23 11:09:19.924047	353.5	44.9	-91.2	14.4
2025-01-23 11:09:21.076254	353.0	45.1	-91.2	13.0
2025-01-23 11:09:22.230413	352.6	45.3	-90.1	18.9
2025-01-23 11:09:23.381673	352.1	45.5	-90.5	14.3
2025-01-23 11:09:24.546092	351.6	45.8	-91.2	17.1
2025-01-23 11:09:25.702400	351.1	46.0	-90.8	19.8
2025-01-23 11:09:26.861177	350.7	46.2	-90.8	18.8
2025-01-23 11:09:28.014034	350.2	46.4	-91.0	18.4
2025-01-23 11:09:29.164261	349.7	46.7	-90.4	17.9
2025-01-23 11:09:30.311570	349.2	46.9	-91.0	15.4
2025-01-23 11:09:31.462114	348.6	47.1	-91.3	9.7
2025-01-23 11:09:32.621017	348.1	47.3	-91.2	9.4
2025-01-23 11:09:33.777630	347.6	47.5	-91.0	16.1
2025-01-23 11:09:34.936397	347.0	47.8	-91.1	7.2
2025-01-23 11:09:36.092378	346.5	48.0	-90.8	6.8
2025-01-23 11:09:37.244439	346.0	48.2	-90.6	14.7
2025-01-23 11:09:38.387947	345.4	48.4	-90.7	11.9
2025-01-23 11:09:39.540592	344.8	48.6	-91.0	12.0
2025-01-23 11:09:40.692528	344.3	48.8	-91.1	14.2
2025-01-23 11:09:41.843499	343.7	49.0	-91.1	10.1
2025-01-23 11:09:42.995927	343.1	49.2	-90.9	13.3
2025-01-23 11:09:44.151935	342.5	49.4	-91.4	10.9
2025-01-23 11:09:45.316131	341.9	49.6	-91.2	15.2
2025-01-23 11:09:46.470900	341.3	49.8	-91.2	12.4
2025-01-23 11:09:47.623295	340.6	50.0	-90.9	11.1
2025-01-23 11:09:48.784000	340.0	50.2	-91.5	18.0
2025-01-23 11:09:49.938885	339.4	50.4	-91.2	13.3
2025-01-23 11:09:51.102997	338.7	50.5	-91.3	14.4
2025-01-23 11:09:52.255512	338.1	50.7	-91.0	12.8
2025-01-23 11:09:53.415054	337.4	50.9	-91.0	9.3
2025-01-23 11:09:54.568497	336.7	51.1	-91.3	9.4
2025-01-23 11:09:55.717327	336.1	51.2	-91.0	8.6
2025-01-23 11:09:56.871076	335.4	51.4	-91.1	8.5
2025-01-23 11:09:58.025536	334.7	51.6	-91.4	13.2
2025-01-23 11:09:59.175897	334.0	51.7	-90.8	14.5
2025-01-23 11:10:00.325003	333.3	51.9	-90.9	10.6
2025-01-23 11:10:01.480425	332.6	52.0	-91.0	12.8
2025-01-23 11:10:02.630860	331.8	52.2	-91.3	12.6
2025-01-23 11:10:03.792071	331.1	52.3	-91.1	13.2
2025-01-23 11:10:04.946458	330.4	52.4	-91.5	8.9
2025-01-23 11:10:06.102624	329.6	52.6	-88.8	4.5
2025-01-23 11:10:07.260815	328.9	52.7	-89.0	5.0
2025-01-23 11:10:08.409115	328.1	52.8	-89.3	8.5
2025-01-23 11:10:09.566330	327.4	52.9	-89.4	8.1
2025-01-23 11:10:10.718106	326.6	53.0	-89.5	13.9
2025-01-23 11:10:11.873927	325.8	53.1	-89.7	10.7
2025-01-23 11:10:13.027558	325.0	53.3	-89.2	9.8
2025-01-23 11:10:14.176831	324.3	53.3	-89.3	15.1
2025-01-23 11:10:15.328995	323.5	53.4	-91.3	17.7
2025-01-23 11:10:16.492819	322.7	53.5	-91.2	11.2
2025-01-23 11:10:17.650359	321.9	53.6	-91.4	11.2
2025-01-23 11:10:18.796008	321.1	53.7	-91.2	9.2
2025-01-23 11:10:19.949724	320.3	53.7	-91.3	11.5
2025-01-23 11:10:21.103829	319.5	53.8	-90.1	12.8
2025-01-23 11:10:22.259143	318.6	53.9	-90.7	17.7
2025-01-23 11:10:23.412840	317.8	53.9	-91.2	17.8
2025-01-23 11:10:24.572532	317.0	54.0	-91.2	18.6
2025-01-23 11:10:25.717252	316.2	54.0	-90.6	18.9
2025-01-23 11:10:26.867830	315.4	54.0	-91.3	16.0
2025-01-23 11:10:28.023554	314.5	54.1	-90.7	15.1
2025-01-23 11:10:29.172234	313.7	54.1	-91.0	12.4
2025-01-23 11:10:30.324984	312.9	54.1	-90.9	15.9
2025-01-23 11:10:31.477519	312.1	54.1	-91.6	14.8
2025-01-23 11:10:32.628361	311.2	54.1	-91.1	15.3
2025-01-23 11:10:33.781373	310.4	54.1	-91.2	18.0
2025-01-23 11:10:34.930462	309.6	54.1	-91.2	12.0
2025-01-23 11:10:36.089390	308.7	54.1	-91.1	11.1
2025-01-23 11:10:37.241040	307.9	54.1	-90.8	15.8
2025-01-23 11:10:38.398256	307.1	54.0	-90.8	12.9
2025-01-23 11:10:39.552138	306.3	54.0	-91.4	10.5
2025-01-23 11:10:40.701267	305.4	54.0	-91.2	17.7
2025-01-23 11:10:41.845977	304.6	53.9	-89.7	14.1
2025-01-23 11:10:43.005303	303.8	53.9	-90.3	10.9
2025-01-23 11:10:44.160333	303.0	53.8	-90.1	16.8
2025-01-23 11:10:45.313336	302.2	53.8	-89.6	14.1
2025-01-23 11:10:46.475980	301.4	53.7	-90.3	12.0
2025-01-23 11:10:47.628920	300.6	53.6	-90.1	13.9
2025-01-23 11:10:48.782066	299.8	53.5	-91.0	17.6
2025-01-23 11:10:49.939771	299.0	53.4	-91.1	12.1
2025-01-23 11:10:51.092548	298.2	53.4	-91.0	11.6
2025-01-23 11:10:52.247263	297.4	53.3	-91.0	18.0
2025-01-23 11:10:53.397047	296.6	53.2	-91.1	12.6
2025-01-23 11:10:54.552446	295.8	53.1	-91.0	12.2
2025-01-23 11:10:55.714154	295.1	52.9	-91.5	17.6
2025-01-23 11:10:56.866365	294.3	52.8	-91.0	15.7
2025-01-23 11:10:58.024341	293.5	52.7	-91.1	14.9
2025-01-23 11:10:59.180797	292.8	52.6	-91.2	16.4
2025-01-23 11:11:00.333673	292.1	52.4	-90.6	17.7
2025-01-23 11:11:01.479431	291.3	52.3	-91.4	15.2
2025-01-23 11:11:02.633497	290.6	52.2	-91.3	16.8
2025-01-23 11:11:03.789998	289.9	52.0	-91.5	19.1
2025-01-23 11:11:04.948191	289.1	51.9	-91.4	16.7
2025-01-23 11:11:06.110925	288.4	51.7	-91.0	18.1
2025-01-23 11:11:07.264589	287.7	51.6	-91.0	18.2
2025-01-23 11:11:08.419997	287.0	51.4	-90.5	15.5
2025-01-23 11:11:09.571834	286.3	51.2	-89.8	14.8
2025-01-23 11:11:10.728341	285.7	51.1	-91.0	20.1
2025-01-23 11:11:11.881444	285.0	50.9	-90.9	18.4
2025-01-23 11:11:13.029458	284.3	50.7	-91.2	16.4
2025-01-23 11:11:14.185370	283.7	50.6	-91.1	18.7
2025-01-23 11:11:15.345451	283.0	50.4	-91.2	16.8
2025-01-23 11:11:16.505936	282.4	50.2	-91.2	15.3
2025-01-23 11:11:17.665887	281.7	50.0	-90.9	18.8
2025-01-23 11:11:18.814058	281.1	49.8	-90.9	17.4
2025-01-23 11:11:19.969991	280.5	49.6	-91.1	14.7
2025-01-23 11:11:21.118758	279.9	49.4	-90.9	11.8
2025-01-23 11:11:22.276401	279.3	49.2	-90.9	16.2
2025-01-23 11:11:23.435354	278.7	49.0	-91.0	11.8
2025-01-23 11:11:24.597558	278.1	48.8	-91.0	10.7
2025-01-23 11:11:25.755566	277.5	48.6	-90.9	17.2
2025-01-23 11:11:26.909697	277.0	48.4	-91.3	11.2
2025-01-23 11:11:28.061851	276.4	48.2	-91.1	9.8
2025-01-23 11:11:29.221842	275.8	48.0	-91.0	15.6
2025-01-23 11:11:30.381269	275.3	47.8	-91.1	10.9
2025-01-23 11:11:31.534937	274.8	47.5	-91.3	10.8
2025-01-23 11:11:32.678372	274.2	47.3	-90.8	14.8
2025-01-23 11:11:33.830814	273.7	47.1	-91.0	15.0
2025-01-23 11:11:34.985995	273.2	46.9	-91.0	10.2
2025-01-23 11:11:36.137469	272.7	46.7	-91.0	15.5
2025-01-23 11:11:37.291042	272.2	46.4	-90.3	17.5
2025-01-23 11:11:38.445471	271.7	46.2	-90.7	11.3
2025-01-23 11:11:39.604568	271.2	46.0	-91.2	12.3
2025-01-23 11:11:40.765805	270.7	45.8	-91.3	20.2
2025-01-23 11:11:41.915542	270.2	45.5	-90.7	12.2
2025-01-23 11:11:43.071133	269.8	45.3	-90.9	13.2
2025-01-23 11:11:44.234350	269.3	45.1	-90.5	20.5
2025-01-23 11:11:45.387982	268.8	44.8	-90.9	14.9
2025-01-23 11:11:46.544417	268.4	44.6	-91.0	14.4
2025-01-23 11:11:47.695322	268.0	44.4	-91.1	18.1
2025-01-23 11:11:48.851577	267.5	44.1	-91.2	19.5
2025-01-23 11:11:50.001661	267.1	43.9	-91.0	16.8
2025-01-23 11:11:51.151990	266.7	43.7	-90.7	15.6
2025-01-23 11:11:52.298086	266.3	43.4	-90.4	15.8
2025-01-23 11:11:53.463958	265.8	43.2	-91.0	14.4
2025-01-23 11:11:54.609211	265.4	43.0	-91.1	16.4
2025-01-23 11:11:55.787152	265.0	42.7	-90.9	15.8
2025-01-23 11:11:56.945476	264.6	42.5	-91.0	16.2
2025-01-23 11:11:58.082024	264.3	42.3	-91.0	12.5
2025-01-23 11:11:59.203965	263.9	42.0	-91.0	11.8
2025-01-23 11:12:00.326712	263.5	41.8	-90.5	10.9
2025-01-23 11:12:01.448458	263.2	41.6	-91.3	11.4
2025-01-23 11:12:02.568503	262.8	41.4	-91.1	11.5
2025-01-23 11:12:03.688757	262.5	41.1	-91.0	12.4
2025-01-23 11:12:04.809336	262.1	40.9	-91.2	11.4
2025-01-23 11:12:05.943509	261.8	40.7	-91.0	7.2
2025-01-23 11:12:07.084082	261.4	40.5	-91.1	5.4
2025-01-23 11:12:08.214489	261.1	40.2	-91.1	7.1
2025-01-23 11:12:09.335104	260.8	40.0	-91.2	4.4
2025-01-23 11:12:10.456421	260.4	39.8	-91.2	4.0
2025-01-23 11:12:11.576640	260.1	39.6	-91.4	6.2
2025-01-23 11:12:12.698896	259.8	39.3	-91.3	10.3
2025-01-23 11:12:13.819604	259.5	39.1	-91.4	12.5
2025-01-23 11:12:14.946087	259.2	38.9	-91.2	6.0
2025-01-23 11:12:16.100445	258.9	38.7	-91.2	7.3
2025-01-23 11:12:17.248994	258.6	38.4	-91.2	7.3
2025-01-23 11:12:18.399689	258.3	38.2	-91.2	7.8
2025-01-23 11:12:19.556146	258.0	38.0	-91.1	13.1
2025-01-23 11:12:20.713798	257.7	37.7	-91.0	10.6
2025-01-23 11:12:21.871224	257.4	37.5	-91.4	12.2
2025-01-23 11:12:23.026604	257.1	37.3	-91.4	9.0
2025-01-23 11:12:24.176388	256.8	37.1	-91.1	10.1
2025-01-23 11:12:25.327908	256.6	36.8	-91.3	11.3
2025-01-23 11:12:26.476283	256.3	36.6	-91.0	6.9
2025-01-23 11:12:27.634195	256.0	36.4	-90.9	8.7
2025-01-23 11:12:28.792467	255.8	36.2	-91.1	9.2
2025-01-23 11:12:29.949269	255.5	36.0	-91.0	6.7
2025-01-23 11:12:31.112719	255.2	35.7	-90.7	6.2
2025-01-23 11:12:32.264458	255.0	35.5	-91.1	6.0
2025-01-23 11:12:33.417700	254.7	35.3	-91.3	7.0
2025-01-23 11:12:34.570479	254.5	35.1	-91.4	5.8
2025-01-23 11:12:35.722742	254.2	34.9	-91.4	12.6
2025-01-23 11:12:36.881151	254.0	34.6	-91.4	8.9
2025-01-23 11:12:38.036645	253.8	34.4	-91.3	9.9
2025-01-23 11:12:39.190129	253.5	34.2	-90.8	14.3
2025-01-23 11:12:40.341624	253.3	34.0	-90.9	13.9
2025-01-23 11:12:41.495274	253.1	33.8	-91.4	12.7
2025-01-23 11:12:42.645185	252.8	33.6	-91.3	15.4
2025-01-23 11:12:43.799381	252.6	33.4	-91.5	18.4
2025-01-23 11:12:44.959466	252.4	33.2	-91.2	18.2
2025-01-23 11:12:46.120337	252.2	32.9	-90.9	19.6
2025-01-23 11:12:47.278579	252.0	32.7	-91.2	20.3
2025-01-23 11:12:48.425101	251.8	32.5	-90.8	18.2
2025-01-23 11:12:49.587242	251.5	32.3	-90.8	14.8
2025-01-23 11:12:50.739066	251.3	32.1	-91.2	19.3
2025-01-23 11:12:51.902836	251.1	31.9	-90.8	15.0
2025-01-23 11:12:53.053488	250.9	31.7	-91.0	13.0
2025-01-23 11:12:54.210212	250.7	31.5	-91.0	18.7
2025-01-23 11:12:55.366687	250.5	31.3	-91.1	16.9
2025-01-23 11:12:56.525945	250.3	31.1	-91.3	14.7
2025-01-23 11:12:57.681572	250.2	30.9	-91.1	20.0
2025-01-23 11:12:58.838074	250.0	30.7	-91.2	19.5
2025-01-23 11:12:59.995395	249.8	30.5	-91.5	19.4
2025-01-23 11:13:01.146150	249.6	30.3	-91.0	20.1
2025-01-23 11:13:02.296796	249.4	30.1	-90.8	20.0
2025-01-23 11:13:03.451893	249.2	29.9	-91.5	20.2
2025-01-23 11:13:04.608612	249.1	29.7	-91.3	20.5
2025-01-23 11:13:05.751808	248.9	29.5	-91.5	20.9
2025-01-23 11:13:06.905480	248.7	29.4	-91.3	17.6
2025-01-23 11:13:08.066509	248.5	29.2	-90.6	13.6
2025-01-23 11:13:09.225418	248.4	29.0	-90.9	17.2
2025-01-23 11:13:10.375480	248.2	28.8	-91.3	11.9
2025-01-23 11:13:11.525002	248.0	28.6	-90.9	10.4
2025-01-23 11:13:12.675837	247.9	28.4	-91.1	16.2
2025-01-23 11:13:13.823372	247.7	28.2	-91.4	16.2
2025-01-23 11:13:14.976005	247.6	28.0	-91.5	11.5
2025-01-23 11:13:16.128863	247.4	27.9	-90.9	13.8
2025-01-23 11:13:17.287882	247.2	27.7	-91.0	16.7
2025-01-23 11:13:18.440016	247.1	27.5	-91.0	14.7
2025-01-23 11:13:19.597568	246.9	27.3	-91.2	16.1
2025-01-23 11:13:20.750948	246.8	27.1	-91.5	15.7
2025-01-23 11:13:21.907989	246.6	27.0	-91.2	17.0
2025-01-23 11:13:23.061044	246.5	26.8	-91.4	15.7
2025-01-23 11:13:24.221939	246.3	26.6	-91.0	15.7
2025-01-23 11:13:25.380101	246.2	26.4	-91.2	12.5
2025-01-23 11:13:26.540185	246.1	26.3	-91.1	9.9
2025-01-23 11:13:27.691190	245.9	26.1	-91.6	10.8
2025-01-23 11:13:28.845585	245.8	25.9	-91.1	10.1
2025-01-23 11:13:29.998533	245.6	25.7	-91.1	8.4
2025-01-23 11:13:31.155995	245.5	25.6	-91.0	8.5
2025-01-23 11:13:32.310295	245.4	25.4	-90.9	10.4
2025-01-23 11:13:33.470623	245.2	25.2	-91.4	10.0
2025-01-23 11:13:34.619811	245.1	25.1	-91.2	10.8
2025-01-23 11:13:35.768237	245.0	24.9	-91.1	11.1
2025-01-23 11:13:36.913967	244.8	24.7	-91.0	11.3
2025-01-23 11:13:38.072455	244.7	24.6	-90.9	9.9
2025-01-23 11:13:39.231556	244.6	24.4	-90.7	9.1
2025-01-23 11:13:40.382250	244.5	24.2	-91.3	6.0
2025-01-23 11:13:41.534863	244.3	24.1	-91.3	5.6
2025-01-23 11:13:42.681138	244.2	23.9	-90.1	7.3
2025-01-23 11:13:43.832446	244.1	23.7	-89.5	6.2
2025-01-23 11:13:44.992025	244.0	23.6	-90.0	5.0
2025-01-23 11:13:46.147716	243.9	23.4	-89.8	3.7
2025-01-23 11:13:47.297169	243.7	23.3	-89.6	6.4
2025-01-23 11:13:48.456689	243.6	23.1	-89.7	4.7
2025-01-23 11:13:49.605694	243.5	22.9	-91.5	5.0
2025-01-23 11:13:50.757284	243.4	22.8	-91.4	6.5
2025-01-23 11:13:51.910446	243.3	22.6	-90.9	5.0
2025-01-23 11:13:53.060021	243.2	22.5	-91.1	2.0
2025-01-23 11:13:54.217924	243.1	22.3	-90.8	5.0
2025-01-23 11:13:55.372364	243.0	22.2	-91.5	5.9
2025-01-23 11:13:56.532835	242.8	22.0	-91.1	4.8
2025-01-23 11:13:57.683860	242.7	21.9	-91.3	10.9
2025-01-23 11:13:58.843199	242.6	21.7	-91.2	6.4
2025-01-23 11:13:59.998008	242.5	21.6	-91.3	6.9
2025-01-23 11:14:01.157678	242.4	21.4	-90.5	7.4
2025-01-23 11:14:02.309669	242.3	21.3	-91.3	9.8
2025-01-23 11:14:03.467657	242.2	21.1	-91.1	9.1
2025-01-23 11:14:04.620428	242.1	21.0	-90.8	10.6
2025-01-23 11:14:05.775955	242.0	20.8	-91.4	5.9
2025-01-23 11:14:06.934606	241.9	20.7	-90.9	7.0
2025-01-23 11:14:08.088114	241.8	20.5	-90.6	9.2
2025-01-23 11:14:09.241054	241.7	20.4	-89.7	10.4
2025-01-23 11:14:10.397785	241.6	20.2	-89.8	6.4
2025-01-23 11:14:11.549797	241.5	20.1	-90.2	7.7
2025-01-23 11:14:12.701282	241.4	20.0	-89.6	7.4
2025-01-23 11:14:13.846176	241.3	19.8	-89.8	5.3
2025-01-23 11:14:14.995312	241.3	19.7	-90.1	4.8
2025-01-23 11:14:16.144703	241.2	19.5	-90.6	8.3
2025-01-23 11:14:17.294864	241.1	19.4	-90.8	9.0
2025-01-23 11:14:18.457490	241.0	19.3	-90.5	6.7
2025-01-23 11:14:19.621070	240.9	19.1	-90.7	7.1
2025-01-23 11:14:20.779550	240.8	19.0	-91.2	9.8
2025-01-23 11:14:21.936154	240.7	18.9	-90.4	9.4
2025-01-23 11:14:23.091796	240.6	18.7	-90.6	9.4
2025-01-23 11:14:24.243478	240.5	18.6	-90.6	9.5
2025-01-23 11:14:25.396508	240.5	18.4	-91.1	10.9
2025-01-23 11:14:26.548604	240.4	18.3	-90.7	7.4
2025-01-23 11:14:27.706456	240.3	18.2	-91.1	10.1
2025-01-23 11:14:28.858772	240.2	18.0	-90.7	9.5
2025-01-23 11:14:30.013119	240.1	17.9	-90.9	6.2
2025-01-23 11:14:31.169698	240.0	17.8	-90.7	9.1
2025-01-23 11:14:32.327759	240.0	17.7	-90.5	9.2
2025-01-23 11:14:33.480901	239.9	17.5	-91.0	8.6
2025-01-23 11:14:34.640220	239.8	17.4	-90.8	9.3
2025-01-23 11:14:35.792765	239.7	17.3	-91.1	8.9
2025-01-23 11:14:36.953556	239.7	17.1	-91.3	7.3
2025-01-23 11:14:38.109529	239.6	17.0	-90.3	8.5
2025-01-23 11:14:39.268297	239.5	16.9	-91.0	7.8
2025-01-23 11:14:40.421808	239.4	16.8	-91.2	6.8
2025-01-23 11:14:41.575378	239.3	16.6	-91.4	6.3
2025-01-23 11:14:42.725142	239.3	16.5	-90.8	11.1
2025-01-23 11:14:43.882234	239.2	16.4	-90.9	6.9
2025-01-23 11:14:45.042392	239.1	16.3	-90.6	4.2
2025-01-23 11:14:46.198844	239.1	16.1	-90.6	10.5
2025-01-23 11:14:47.361113	239.0	16.0	-90.8	9.6
2025-01-23 11:14:48.509592	238.9	15.9	-91.3	7.3
2025-01-23 11:14:49.665240	238.8	15.8	-91.3	11.3
2025-01-23 11:14:50.814983	238.8	15.6	-91.3	11.7
2025-01-23 11:14:51.963841	238.7	15.5	-90.9	9.1
2025-01-23 11:14:53.116678	238.6	15.4	-90.8	10.0
2025-01-23 11:14:54.273890	238.6	15.3	-91.0	10.7
2025-01-23 11:14:55.420592	238.5	15.2	-91.3	9.4
2025-01-23 11:14:56.592045	238.4	15.0	-91.0	8.0
2025-01-23 11:14:57.750569	238.4	14.9	-91.2	8.4
2025-01-23 11:14:58.910611	238.3	14.8	-91.2	7.0
2025-01-23 11:15:00.065048	238.2	14.7	-91.0	5.1
2025-01-23 11:15:01.213852	238.2	14.6	-90.8	7.8
2025-01-23 11:15:02.370563	238.1	14.5	-90.9	8.9
#Closed at: 2025-01-23 11:06:11.409873