passes_logs/2025/01/23/LEX_Murmansk/LEX_Murmansk__20250123_090200_NOAA_19_rec.log

#Pass ID: 20250123_090200_NOAA 19
#Satellite: NOAA 19
#Configuration: NOAA 19
#Start time: 2025-01-23 09:01:55.783616

#LorettStation: 1.0.0 05.05.2024
#Station: LEX_Murmansk
#Location: 33.156738 lon 68.926811 lat
#TLE: 1 33591U 09005A   25022.22545190  .00000382  00000+0  22773-3 0  9990
#TLE: 2 33591  99.0184  86.0433 0014227  38.0135 322.2038 14.13265658822568

#Time	Az	El	Level	SNR
2025-01-23 09:02:08.009530	25.7	16.3	-90.4	3.8
2025-01-23 09:02:09.166747	25.7	16.5	-90.2	0.7
2025-01-23 09:02:10.323310	25.7	16.6	-89.9	2.3
2025-01-23 09:02:11.483897	25.7	16.7	-90.3	4.0
2025-01-23 09:02:12.643811	25.7	16.8	-90.5	2.3
2025-01-23 09:02:13.803450	25.6	17.0	-90.5	2.7
2025-01-23 09:02:14.953708	25.6	17.1	-90.2	4.9
2025-01-23 09:02:16.109263	25.6	17.2	-90.2	1.5
2025-01-23 09:02:17.264427	25.6	17.4	-90.2	3.0
2025-01-23 09:02:18.418553	25.6	17.5	-90.5	3.5
2025-01-23 09:02:19.570937	25.6	17.6	-90.4	3.7
2025-01-23 09:02:20.723283	25.6	17.8	-90.7	4.8
2025-01-23 09:02:21.887965	25.6	17.9	-90.4	7.6
2025-01-23 09:02:23.042149	25.6	18.1	-90.1	6.4
2025-01-23 09:02:24.198385	25.6	18.2	-90.3	5.0
2025-01-23 09:02:25.355183	25.6	18.3	-90.2	0.2
2025-01-23 09:02:26.519905	25.6	18.5	-90.8	3.3
2025-01-23 09:02:27.676582	25.6	18.6	-90.3	1.9
2025-01-23 09:02:28.832040	25.6	18.8	-90.1	2.6
2025-01-23 09:02:29.984580	25.6	18.9	-90.2	4.6
2025-01-23 09:02:31.133951	25.6	19.0	-90.2	8.1
2025-01-23 09:02:32.288166	25.6	19.2	-89.7	9.7
2025-01-23 09:02:33.447508	25.6	19.3	-89.8	7.9
2025-01-23 09:02:34.597205	25.6	19.5	-89.9	6.0
2025-01-23 09:02:35.751364	25.6	19.6	-89.6	4.7
2025-01-23 09:02:36.902336	25.6	19.8	-90.2	6.8
2025-01-23 09:02:38.057341	25.6	19.9	-89.6	4.7
2025-01-23 09:02:39.217855	25.6	20.1	-89.8	5.5
2025-01-23 09:02:40.365847	25.6	20.2	-90.0	4.8
2025-01-23 09:02:41.517987	25.6	20.4	-90.0	3.3
2025-01-23 09:02:42.678052	25.6	20.5	-89.7	2.3
2025-01-23 09:02:43.826993	25.6	20.7	-89.6	2.8
2025-01-23 09:02:44.982470	25.6	20.8	-89.9	4.4
2025-01-23 09:02:46.132817	25.5	21.0	-89.5	6.5
2025-01-23 09:02:47.292436	25.5	21.1	-89.3	5.1
2025-01-23 09:02:48.442982	25.5	21.3	-89.7	7.0
2025-01-23 09:02:49.599938	25.5	21.4	-90.5	6.9
2025-01-23 09:02:50.757866	25.5	21.6	-90.3	3.8
2025-01-23 09:02:51.917269	25.5	21.8	-90.7	6.3
2025-01-23 09:02:53.073108	25.5	21.9	-89.9	6.3
2025-01-23 09:02:54.233002	25.5	22.1	-90.5	8.0
2025-01-23 09:02:55.398050	25.5	22.2	-90.4	8.7
2025-01-23 09:02:56.549715	25.5	22.4	-90.5	6.3
2025-01-23 09:02:57.709431	25.5	22.6	-90.6	2.3
2025-01-23 09:02:58.872214	25.5	22.7	-90.6	2.5
2025-01-23 09:03:00.021989	25.5	22.9	-90.2	3.9
2025-01-23 09:03:01.168134	25.5	23.1	-90.1	2.7
2025-01-23 09:03:02.317159	25.5	23.2	-90.3	6.9
2025-01-23 09:03:03.474783	25.5	23.4	-90.8	8.8
2025-01-23 09:03:04.635398	25.5	23.6	-90.6	12.5
2025-01-23 09:03:05.790195	25.4	23.8	-90.6	8.4
2025-01-23 09:03:06.942305	25.4	23.9	-90.6	8.9
2025-01-23 09:03:08.095727	25.4	24.1	-90.1	7.3
2025-01-23 09:03:09.256183	25.4	24.3	-90.1	8.6
2025-01-23 09:03:10.399897	25.4	24.5	-90.2	11.5
2025-01-23 09:03:11.553532	25.4	24.6	-90.5	11.4
2025-01-23 09:03:12.719410	25.4	24.8	-90.5	5.0
2025-01-23 09:03:13.879016	25.4	25.0	-90.8	2.4
2025-01-23 09:03:15.034501	25.4	25.2	-90.5	4.7
2025-01-23 09:03:16.192216	25.4	25.4	-90.4	2.3
2025-01-23 09:03:17.352922	25.4	25.5	-90.5	1.0
2025-01-23 09:03:18.510026	25.4	25.7	-90.4	4.4
2025-01-23 09:03:19.668984	25.4	25.9	-90.5	8.4
2025-01-23 09:03:20.819612	25.4	26.1	-90.7	7.0
2025-01-23 09:03:21.965636	25.3	26.3	-90.7	8.5
2025-01-23 09:03:23.118360	25.3	26.5	-90.2	7.3
2025-01-23 09:03:24.275654	25.3	26.7	-90.2	4.3
2025-01-23 09:03:25.420010	25.3	26.9	-90.3	7.8
2025-01-23 09:03:26.570105	25.3	27.1	-91.1	7.0
2025-01-23 09:03:27.726561	25.3	27.2	-90.2	7.4
2025-01-23 09:03:28.881463	25.3	27.4	-90.6	5.4
2025-01-23 09:03:30.037495	25.3	27.6	-90.7	4.8
2025-01-23 09:03:31.194896	25.3	27.8	-90.4	2.2
2025-01-23 09:03:32.347949	25.3	28.0	-89.2	1.0
2025-01-23 09:03:33.501060	25.2	28.2	-90.1	5.4
2025-01-23 09:03:34.652723	25.2	28.5	-90.1	7.6
2025-01-23 09:03:35.813950	25.2	28.7	-90.0	9.0
2025-01-23 09:03:36.977405	25.2	28.9	-89.7	5.4
2025-01-23 09:03:38.128947	25.2	29.1	-89.7	7.1
2025-01-23 09:03:39.283320	25.2	29.3	-89.8	4.6
2025-01-23 09:03:40.435100	25.2	29.5	-89.8	6.8
2025-01-23 09:03:41.590343	25.2	29.7	-89.7	6.8
2025-01-23 09:03:42.749572	25.2	29.9	-90.3	6.8
2025-01-23 09:03:43.909358	25.1	30.1	-90.8	8.9
2025-01-23 09:03:45.065081	25.1	30.4	-90.2	4.0
2025-01-23 09:03:46.225134	25.1	30.6	-90.3	3.9
2025-01-23 09:03:47.385748	25.1	30.8	-90.3	2.6
2025-01-23 09:03:48.541939	25.1	31.0	-90.8	3.7
2025-01-23 09:03:49.702052	25.1	31.3	-90.5	1.5
2025-01-23 09:03:50.855785	25.1	31.5	-90.7	5.4
2025-01-23 09:03:52.013028	25.1	31.7	-90.7	6.0
2025-01-23 09:03:53.163347	25.0	31.9	-90.5	7.0
2025-01-23 09:03:54.319083	25.0	32.2	-90.4	5.9
2025-01-23 09:03:55.466621	25.0	32.4	-90.8	6.0
2025-01-23 09:03:56.624871	25.0	32.6	-90.8	3.0
2025-01-23 09:03:57.775058	25.0	32.9	-89.6	4.3
2025-01-23 09:03:58.932609	25.0	33.1	-90.2	3.3
2025-01-23 09:04:00.083977	24.9	33.4	-89.3	5.6
2025-01-23 09:04:01.233491	24.9	33.6	-90.7	5.3
2025-01-23 09:04:02.390878	24.9	33.8	-90.5	4.4
2025-01-23 09:04:03.547721	24.9	34.1	-90.7	4.5
2025-01-23 09:04:04.709257	24.9	34.3	-90.8	1.9
2025-01-23 09:04:05.865548	24.9	34.6	-90.5	2.6
2025-01-23 09:04:07.022832	24.8	34.9	-90.5	2.6
2025-01-23 09:04:08.184254	24.8	35.1	-90.3	3.4
2025-01-23 09:04:09.353344	24.8	35.4	-90.7	6.5
2025-01-23 09:04:10.509959	24.8	35.6	-90.8	6.6
2025-01-23 09:04:11.668781	24.8	35.9	-90.5	7.7
2025-01-23 09:04:12.833541	24.8	36.2	-90.9	5.2
2025-01-23 09:04:13.988522	24.7	36.4	-90.6	8.3
2025-01-23 09:04:15.147499	24.7	36.7	-90.5	4.4
2025-01-23 09:04:16.308374	24.7	37.0	-90.2	6.3
2025-01-23 09:04:17.463811	24.7	37.2	-90.7	10.9
2025-01-23 09:04:18.609134	24.6	37.5	-90.5	12.2
2025-01-23 09:04:19.756510	24.6	37.8	-90.7	12.4
2025-01-23 09:04:20.905972	24.6	38.1	-90.8	10.1
2025-01-23 09:04:22.062134	24.6	38.3	-90.3	5.3
2025-01-23 09:04:23.213859	24.6	38.6	-89.7	3.8
2025-01-23 09:04:24.368331	24.5	38.9	-90.5	5.6
2025-01-23 09:04:25.521776	24.5	39.2	-90.1	5.7
2025-01-23 09:04:26.679312	24.5	39.5	-90.0	5.7
2025-01-23 09:04:27.831847	24.5	39.8	-90.5	11.8
2025-01-23 09:04:28.985824	24.4	40.1	-90.5	16.3
2025-01-23 09:04:30.144569	24.4	40.4	-90.5	15.0
2025-01-23 09:04:31.296264	24.4	40.7	-90.0	9.7
2025-01-23 09:04:32.451643	24.4	41.0	-90.3	11.0
2025-01-23 09:04:33.613392	24.3	41.3	-89.3	10.3
2025-01-23 09:04:34.773416	24.3	41.6	-89.7	9.9
2025-01-23 09:04:35.930866	24.3	41.9	-89.8	15.3
2025-01-23 09:04:37.087478	24.2	42.2	-90.0	15.7
2025-01-23 09:04:38.243423	24.2	42.5	-88.6	12.0
2025-01-23 09:04:39.399239	24.2	42.9	-88.4	10.6
2025-01-23 09:04:40.543920	24.1	43.2	-88.1	6.8
2025-01-23 09:04:41.706307	24.1	43.5	-89.2	3.8
2025-01-23 09:04:42.868024	24.1	43.8	-89.7	6.6
2025-01-23 09:04:44.028744	24.0	44.2	-89.0	6.3
2025-01-23 09:04:45.178180	24.0	44.5	-89.0	5.8
2025-01-23 09:04:46.341369	24.0	44.8	-87.7	7.8
2025-01-23 09:04:47.493674	23.9	45.2	-87.8	11.0
2025-01-23 09:04:48.658197	23.9	45.5	-88.7	13.6
2025-01-23 09:04:49.813654	23.8	45.9	-88.5	11.4
2025-01-23 09:04:50.973071	23.8	46.2	-88.7	9.4
2025-01-23 09:04:52.124002	23.8	46.6	-87.5	8.8
2025-01-23 09:04:53.286388	23.7	46.9	-83.3	5.8
2025-01-23 09:04:54.439306	23.7	47.3	-88.4	10.4
2025-01-23 09:04:55.587516	23.6	47.6	-88.5	11.2
2025-01-23 09:04:56.746799	23.6	48.0	-90.8	10.8
2025-01-23 09:04:57.903649	23.5	48.4	-90.7	12.0
2025-01-23 09:04:59.053895	23.5	48.7	-89.6	9.5
2025-01-23 09:05:00.204198	23.4	49.1	-90.6	4.3
2025-01-23 09:05:01.364859	23.4	49.5	-90.5	5.7
2025-01-23 09:05:02.523671	23.3	49.8	-90.7	5.5
2025-01-23 09:05:03.674235	23.3	50.2	-90.6	4.3
2025-01-23 09:05:04.832503	23.2	50.6	-88.4	3.4
2025-01-23 09:05:05.991902	23.2	51.0	-89.2	5.0
2025-01-23 09:05:07.155265	23.1	51.4	-89.8	7.2
2025-01-23 09:05:08.312611	23.1	51.8	-89.4	10.1
2025-01-23 09:05:09.473022	23.0	52.2	-89.5	11.8
2025-01-23 09:05:10.632652	22.9	52.6	-89.2	11.3
2025-01-23 09:05:11.784475	22.9	53.0	-89.3	8.9
2025-01-23 09:05:12.943498	22.8	53.4	-89.4	4.8
2025-01-23 09:05:14.097665	22.7	53.8	-89.7	1.3
2025-01-23 09:05:15.247985	22.7	54.2	-89.4	3.5
2025-01-23 09:05:16.406503	22.6	54.6	-86.8	2.4
2025-01-23 09:05:17.570525	22.5	55.1	-88.4	7.4
2025-01-23 09:05:18.719447	22.4	55.5	-85.5	5.1
2025-01-23 09:05:19.871916	22.3	55.9	-86.5	6.8
2025-01-23 09:05:21.013355	22.3	56.3	-88.8	8.0
2025-01-23 09:05:22.164164	22.2	56.7	-86.3	4.8
2025-01-23 09:05:23.320372	22.1	57.2	-85.9	4.3
2025-01-23 09:05:24.478365	22.0	57.6	-86.5	3.8
2025-01-23 09:05:25.639844	21.9	58.1	-83.2	3.9
2025-01-23 09:05:26.795395	21.8	58.5	-86.5	2.0
2025-01-23 09:05:27.951091	21.7	59.0	-88.9	5.2
2025-01-23 09:05:29.104029	21.6	59.4	-85.6	5.0
2025-01-23 09:05:30.261837	21.5	59.9	-84.1	6.5
2025-01-23 09:05:31.415980	21.4	60.3	-88.7	13.7
2025-01-23 09:05:32.567921	21.3	60.8	-85.0	11.6
2025-01-23 09:05:33.719876	21.1	61.2	-88.9	14.5
2025-01-23 09:05:34.873955	21.0	61.7	-85.4	11.3
2025-01-23 09:05:36.028441	20.9	62.2	-83.4	10.5
2025-01-23 09:05:37.183268	20.7	62.7	-84.9	7.8
2025-01-23 09:05:38.334649	20.6	63.1	-83.2	5.1
2025-01-23 09:05:39.492712	20.4	63.6	-86.3	8.8
2025-01-23 09:05:40.646775	20.3	64.1	-86.9	4.3
2025-01-23 09:05:41.802833	20.1	64.6	-88.7	5.4
2025-01-23 09:05:42.952594	19.9	65.1	-87.8	12.0
2025-01-23 09:05:44.106237	19.8	65.6	-87.6	13.9
2025-01-23 09:05:45.251286	19.6	66.0	-85.2	12.0
2025-01-23 09:05:46.403663	19.4	66.5	-86.8	13.6
2025-01-23 09:05:47.570586	19.2	67.1	-88.4	12.7
2025-01-23 09:05:48.725272	19.0	67.6	-88.3	8.1
2025-01-23 09:05:49.884928	18.7	68.1	-88.6	6.9
2025-01-23 09:05:51.037508	18.5	68.6	-88.9	6.7
2025-01-23 09:05:52.196117	18.2	69.1	-89.8	2.6
2025-01-23 09:05:53.356332	18.0	69.6	-89.4	1.8
2025-01-23 09:05:54.513007	17.7	70.1	-89.7	4.7
2025-01-23 09:05:55.664678	17.4	70.6	-90.6	4.5
2025-01-23 09:05:56.822996	17.1	71.1	-90.1	6.0
2025-01-23 09:05:57.973989	16.8	71.7	-90.6	10.8
2025-01-23 09:05:59.130619	16.4	72.2	-90.4	12.6
2025-01-23 09:06:00.281092	16.0	72.7	-89.8	13.1
2025-01-23 09:06:01.431138	15.6	73.2	-88.6	14.7
2025-01-23 09:06:02.586568	15.2	73.8	-89.7	13.7
2025-01-23 09:06:03.743890	14.7	74.3	-90.2	13.3
2025-01-23 09:06:04.896575	14.2	74.8	-90.1	9.9
2025-01-23 09:06:06.049847	13.7	75.4	-90.7	8.7
2025-01-23 09:06:07.213398	13.1	75.9	-90.2	8.7
2025-01-23 09:06:08.372637	12.5	76.4	-89.8	7.4
2025-01-23 09:06:09.526615	11.8	77.0	-89.6	12.4
2025-01-23 09:06:10.682810	11.1	77.5	-90.2	8.7
2025-01-23 09:06:11.845087	10.3	78.0	-90.4	7.5
2025-01-23 09:06:13.007161	9.4	78.6	-90.6	11.5
2025-01-23 09:06:14.164054	8.4	79.1	-90.6	11.9
2025-01-23 09:06:15.317331	7.4	79.6	-90.0	8.8
2025-01-23 09:06:16.475712	6.2	80.2	-90.0	13.7
2025-01-23 09:06:17.626102	4.8	80.7	-90.0	14.9
2025-01-23 09:06:18.780772	3.4	81.2	-90.1	9.6
2025-01-23 09:06:19.943266	1.7	81.7	-89.9	15.6
2025-01-23 09:06:21.100068	359.8	82.2	-90.5	16.7
2025-01-23 09:06:22.256909	357.6	82.7	-90.6	17.1
2025-01-23 09:06:23.412209	355.1	83.2	-90.6	20.1
2025-01-23 09:06:24.575187	352.2	83.7	-90.5	20.7
2025-01-23 09:06:25.732773	348.9	84.1	-90.6	20.4
2025-01-23 09:06:26.889349	345.0	84.6	-90.2	18.4
2025-01-23 09:06:28.048016	340.5	85.0	-90.6	17.1
2025-01-23 09:06:29.204171	335.2	85.3	-90.5	14.5
2025-01-23 09:06:30.359209	329.0	85.7	-90.0	12.2
2025-01-23 09:06:31.514203	322.0	85.9	-90.8	12.6
2025-01-23 09:06:32.666205	314.1	86.1	-90.6	10.0
2025-01-23 09:06:33.821592	305.6	86.2	-90.4	8.3
2025-01-23 09:06:34.976752	296.7	86.3	-90.3	9.3
2025-01-23 09:06:36.129817	287.9	86.2	-90.3	9.9
2025-01-23 09:06:37.288849	279.6	86.1	-90.5	6.0
2025-01-23 09:06:38.448420	271.9	85.8	-90.3	9.9
2025-01-23 09:06:39.602281	265.2	85.6	-90.3	9.1
2025-01-23 09:06:40.756043	259.4	85.2	-90.7	6.2
2025-01-23 09:06:41.914488	254.4	84.8	-90.2	10.8
2025-01-23 09:06:43.072205	250.1	84.4	-90.5	8.9
2025-01-23 09:06:44.225277	246.4	84.0	-90.1	5.6
2025-01-23 09:06:45.377782	243.3	83.5	-90.1	12.3
2025-01-23 09:06:46.541139	240.5	83.0	-90.0	12.4
2025-01-23 09:06:47.704713	238.2	82.5	-90.6	6.4
2025-01-23 09:06:48.873398	236.1	82.0	-90.7	8.2
2025-01-23 09:06:50.010703	234.3	81.5	-90.8	10.7
2025-01-23 09:06:51.162252	232.7	81.0	-90.2	9.3
2025-01-23 09:06:52.311625	231.3	80.5	-90.4	6.8
2025-01-23 09:06:53.468185	230.0	80.0	-90.5	11.9
2025-01-23 09:06:54.633411	228.8	79.4	-90.7	11.8
2025-01-23 09:06:55.790518	227.8	78.9	-90.7	8.6
2025-01-23 09:06:56.947180	226.9	78.4	-90.8	10.2
2025-01-23 09:06:58.102715	226.0	77.8	-90.4	10.5
2025-01-23 09:06:59.251119	225.2	77.3	-90.2	9.0
2025-01-23 09:07:00.399160	224.5	76.8	-90.3	10.4
2025-01-23 09:07:01.554121	223.9	76.3	-90.9	11.8
2025-01-23 09:07:02.712621	223.3	75.7	-90.6	8.7
2025-01-23 09:07:03.871321	222.7	75.2	-90.8	16.7
2025-01-23 09:07:05.027745	222.2	74.7	-90.4	11.8
2025-01-23 09:07:06.182058	221.7	74.1	-90.5	17.5
2025-01-23 09:07:07.336788	221.2	73.6	-90.6	16.7
2025-01-23 09:07:08.492520	220.8	73.1	-90.5	10.8
2025-01-23 09:07:09.655097	220.4	72.5	-90.7	15.4
2025-01-23 09:07:10.800548	220.0	72.0	-90.5	15.7
2025-01-23 09:07:11.961923	219.7	71.5	-90.9	9.7
2025-01-23 09:07:13.119729	219.4	71.0	-90.5	10.2
2025-01-23 09:07:14.271834	219.1	70.5	-90.6	15.3
2025-01-23 09:07:15.425561	218.8	69.9	-90.6	11.3
2025-01-23 09:07:16.581374	218.5	69.4	-90.7	9.4
2025-01-23 09:07:17.740143	218.2	68.9	-90.8	18.1
2025-01-23 09:07:18.894499	218.0	68.4	-90.7	11.0
2025-01-23 09:07:20.048143	217.8	67.9	-90.7	7.2
2025-01-23 09:07:21.203098	217.5	67.4	-90.5	13.8
2025-01-23 09:07:22.360606	217.3	66.9	-90.2	15.1
2025-01-23 09:07:23.519780	217.1	66.4	-90.5	8.1
2025-01-23 09:07:24.679197	216.9	65.9	-90.8	16.5
2025-01-23 09:07:25.845494	216.7	65.4	-90.7	16.0
2025-01-23 09:07:27.006115	216.6	64.9	-90.3	7.8
2025-01-23 09:07:28.165220	216.4	64.4	-90.2	14.8
2025-01-23 09:07:29.318247	216.2	63.9	-90.3	15.4
2025-01-23 09:07:30.476846	216.1	63.4	-90.6	7.8
2025-01-23 09:07:31.632668	215.9	63.0	-90.3	10.1
2025-01-23 09:07:32.787557	215.8	62.5	-90.7	15.8
2025-01-23 09:07:33.944679	215.6	62.0	-90.4	11.5
2025-01-23 09:07:35.099733	215.5	61.5	-89.8	8.9
2025-01-23 09:07:36.260551	215.4	61.1	-89.9	15.8
2025-01-23 09:07:37.413164	215.3	60.6	-90.1	13.8
2025-01-23 09:07:38.569196	215.1	60.2	-90.2	12.8
2025-01-23 09:07:39.724472	215.0	59.7	-90.5	16.6
2025-01-23 09:07:40.870697	214.9	59.2	-90.6	16.9
2025-01-23 09:07:42.025095	214.8	58.8	-90.5	15.5
2025-01-23 09:07:43.180698	214.7	58.4	-90.2	15.8
2025-01-23 09:07:44.342347	214.6	57.9	-90.1	17.2
2025-01-23 09:07:45.497476	214.5	57.5	-90.5	18.3
2025-01-23 09:07:46.649005	214.4	57.0	-90.3	17.7
2025-01-23 09:07:47.808548	214.4	56.6	-90.5	16.9
2025-01-23 09:07:48.967832	214.3	56.2	-90.7	16.5
2025-01-23 09:07:50.109160	214.2	55.7	-90.4	13.6
2025-01-23 09:07:51.253075	214.1	55.3	-90.3	15.5
2025-01-23 09:07:52.402400	214.0	54.9	-90.4	13.5
2025-01-23 09:07:53.560484	214.0	54.5	-90.9	11.8
2025-01-23 09:07:54.718019	213.9	54.1	-90.9	16.0
2025-01-23 09:07:55.878290	213.8	53.7	-90.6	10.7
2025-01-23 09:07:57.031829	213.7	53.2	-90.9	7.5
2025-01-23 09:07:58.188893	213.7	52.8	-90.7	15.7
2025-01-23 09:07:59.341163	213.6	52.4	-90.1	13.0
2025-01-23 09:08:00.496942	213.5	52.0	-90.5	7.3
2025-01-23 09:08:01.656012	213.5	51.6	-90.5	14.0
2025-01-23 09:08:02.807347	213.4	51.3	-90.5	14.9
2025-01-23 09:08:03.964516	213.4	50.9	-89.2	6.1
2025-01-23 09:08:05.123410	213.3	50.5	-89.7	6.8
2025-01-23 09:08:06.270055	213.3	50.1	-90.4	9.5
2025-01-23 09:08:07.426854	213.2	49.7	-90.5	9.6
2025-01-23 09:08:08.578219	213.2	49.3	-90.7	10.6
2025-01-23 09:08:09.726132	213.1	49.0	-90.6	10.4
2025-01-23 09:08:10.888835	213.1	48.6	-90.3	10.3
2025-01-23 09:08:12.046493	213.0	48.2	-90.3	12.0
2025-01-23 09:08:13.209889	213.0	47.9	-90.2	6.3
2025-01-23 09:08:14.365426	212.9	47.5	-90.4	6.0
2025-01-23 09:08:15.519616	212.9	47.2	-90.5	8.7
2025-01-23 09:08:16.674131	212.8	46.8	-90.7	11.0
2025-01-23 09:08:17.835540	212.8	46.4	-90.8	11.7
2025-01-23 09:08:18.985477	212.7	46.1	-90.9	8.6
2025-01-23 09:08:20.144097	212.7	45.7	-90.4	9.8
2025-01-23 09:08:21.301224	212.7	45.4	-90.5	13.5
2025-01-23 09:08:22.456689	212.6	45.1	-90.7	6.1
2025-01-23 09:08:23.610908	212.6	44.7	-90.8	6.4
2025-01-23 09:08:24.770652	212.5	44.4	-90.6	8.3
2025-01-23 09:08:25.918010	212.5	44.1	-90.7	6.5
2025-01-23 09:08:27.074722	212.5	43.7	-90.4	8.1
2025-01-23 09:08:28.233417	212.4	43.4	-90.1	10.8
2025-01-23 09:08:29.379742	212.4	43.1	-90.4	9.1
2025-01-23 09:08:30.525942	212.4	42.8	-90.8	12.8
2025-01-23 09:08:31.680859	212.3	42.4	-90.5	11.6
2025-01-23 09:08:32.833294	212.3	42.1	-90.4	10.2
2025-01-23 09:08:33.995018	212.3	41.8	-90.6	11.7
2025-01-23 09:08:35.154155	212.3	41.5	-90.1	11.7
2025-01-23 09:08:36.308997	212.2	41.2	-90.2	10.3
2025-01-23 09:08:37.462858	212.2	40.9	-90.4	7.1
2025-01-23 09:08:38.615633	212.2	40.6	-90.7	4.7
2025-01-23 09:08:39.774409	212.1	40.3	-90.7	10.0
2025-01-23 09:08:40.931723	212.1	40.0	-89.7	4.0
2025-01-23 09:08:42.088220	212.1	39.7	-89.9	3.9
2025-01-23 09:08:43.242323	212.1	39.4	-89.6	7.3
2025-01-23 09:08:44.392279	212.0	39.1	-89.5	4.4
2025-01-23 09:08:45.550902	212.0	38.8	-89.8	4.3
2025-01-23 09:08:46.706193	212.0	38.5	-90.1	5.8
2025-01-23 09:08:47.871301	212.0	38.3	-90.8	4.5
2025-01-23 09:08:49.021681	211.9	38.0	-90.4	5.4
2025-01-23 09:08:50.183198	211.9	37.7	-90.6	5.3
2025-01-23 09:08:51.341626	211.9	37.4	-90.7	8.0
2025-01-23 09:08:52.487964	211.9	37.2	-91.1	6.5
2025-01-23 09:08:53.646466	211.9	36.9	-91.0	6.4
2025-01-23 09:08:54.801184	211.8	36.6	-90.9	9.8
2025-01-23 09:08:55.959047	211.8	36.3	-91.0	6.3
2025-01-23 09:08:57.119862	211.8	36.1	-90.7	5.8
2025-01-23 09:08:58.278907	211.8	35.8	-90.6	8.3
2025-01-23 09:08:59.439976	211.7	35.5	-90.8	5.4
2025-01-23 09:09:00.589103	211.7	35.3	-90.9	5.6
2025-01-23 09:09:01.738625	211.7	35.0	-90.4	9.9
2025-01-23 09:09:02.886457	211.7	34.8	-90.9	7.2
2025-01-23 09:09:04.036397	211.7	34.5	-90.8	7.3
2025-01-23 09:09:05.197188	211.7	34.3	-90.7	8.2
2025-01-23 09:09:06.353684	211.6	34.0	-90.5	8.6
2025-01-23 09:09:07.515913	211.6	33.8	-90.7	6.0
2025-01-23 09:09:08.667570	211.6	33.5	-90.9	3.5
2025-01-23 09:09:09.817004	211.6	33.3	-90.6	5.8
2025-01-23 09:09:10.967715	211.6	33.1	-90.7	4.3
2025-01-23 09:09:12.128913	211.6	32.8	-90.5	1.7
2025-01-23 09:09:13.284437	211.5	32.6	-90.6	3.2
2025-01-23 09:09:14.444047	211.5	32.3	-90.8	2.4
2025-01-23 09:09:15.592714	211.5	32.1	-90.8	3.6
2025-01-23 09:09:16.743590	211.5	31.9	-91.0	2.0
2025-01-23 09:09:17.894234	211.5	31.7	-90.8	0.8
2025-01-23 09:09:19.047729	211.5	31.4	-90.5	2.0
2025-01-23 09:09:20.194946	211.5	31.2	-90.8	1.9
2025-01-23 09:09:21.343712	211.4	31.0	-90.8	5.0
2025-01-23 09:09:22.503838	211.4	30.8	-91.0	3.0
2025-01-23 09:09:23.651948	211.4	30.5	-90.6	5.4
2025-01-23 09:09:24.808783	211.4	30.3	-90.7	6.1
2025-01-23 09:09:25.953705	211.4	30.1	-90.4	7.8
2025-01-23 09:09:27.110892	211.4	29.9	-90.5	7.4
2025-01-23 09:09:28.267933	211.4	29.7	-90.7	11.3
2025-01-23 09:09:29.422169	211.4	29.5	-90.7	5.5
2025-01-23 09:09:30.581637	211.3	29.2	-90.8	4.4
2025-01-23 09:09:31.734684	211.3	29.0	-90.9	8.0
2025-01-23 09:09:32.896064	211.3	28.8	-90.3	6.7
2025-01-23 09:09:34.050174	211.3	28.6	-90.6	6.5
2025-01-23 09:09:35.204964	211.3	28.4	-90.2	10.5
2025-01-23 09:09:36.358389	211.3	28.2	-90.4	7.0
2025-01-23 09:09:37.514015	211.3	28.0	-91.0	8.3
2025-01-23 09:09:38.653495	211.3	27.8	-91.0	7.6
2025-01-23 09:09:39.803839	211.3	27.6	-90.7	8.5
2025-01-23 09:09:40.961460	211.2	27.4	-90.8	5.2
2025-01-23 09:09:42.114537	211.2	27.2	-90.7	3.5
2025-01-23 09:09:43.267454	211.2	27.0	-90.6	9.4
2025-01-23 09:09:44.430580	211.2	26.8	-90.3	5.5
2025-01-23 09:09:45.586063	211.2	26.6	-91.0	4.0
2025-01-23 09:09:46.748902	211.2	26.4	-90.6	6.4
2025-01-23 09:09:47.894952	211.2	26.2	-90.6	2.5
2025-01-23 09:09:49.050905	211.2	26.1	-90.6	4.7
2025-01-23 09:09:50.207894	211.2	25.9	-90.6	7.7
2025-01-23 09:09:51.371433	211.2	25.7	-90.2	5.3
2025-01-23 09:09:52.522093	211.2	25.5	-89.9	5.5
2025-01-23 09:09:53.676697	211.1	25.3	-89.9	7.3
2025-01-23 09:09:54.829724	211.1	25.1	-90.0	8.3
2025-01-23 09:09:55.987093	211.1	25.0	-89.6	6.3
2025-01-23 09:09:57.148320	211.1	24.8	-89.5	7.7
2025-01-23 09:09:58.297445	211.1	24.6	-90.5	7.2
2025-01-23 09:09:59.453555	211.1	24.4	-90.7	3.3
2025-01-23 09:10:00.606441	211.1	24.2	-90.7	6.1
2025-01-23 09:10:01.760411	211.1	24.1	-90.6	8.9
2025-01-23 09:10:02.916584	211.1	23.9	-90.8	7.2
2025-01-23 09:10:04.070339	211.1	23.7	-89.5	6.2
2025-01-23 09:10:05.222596	211.1	23.6	-89.8	8.0
2025-01-23 09:10:06.377014	211.1	23.4	-90.0	7.2
2025-01-23 09:10:07.536212	211.1	23.2	-89.9	6.0
2025-01-23 09:10:08.684486	211.0	23.0	-90.2	8.7
2025-01-23 09:10:09.848465	211.0	22.9	-90.1	6.3
2025-01-23 09:10:10.998632	211.0	22.7	-90.2	4.1
2025-01-23 09:10:12.152192	211.0	22.5	-89.7	5.8
2025-01-23 09:10:13.310336	211.0	22.4	-89.4	6.8
2025-01-23 09:10:14.452533	211.0	22.2	-89.6	3.1
2025-01-23 09:10:15.613806	211.0	22.1	-90.5	4.2
2025-01-23 09:10:16.763805	211.0	21.9	-90.6	7.8
2025-01-23 09:10:17.920972	211.0	21.7	-90.4	7.8
2025-01-23 09:10:19.076114	211.0	21.6	-90.5	5.3
2025-01-23 09:10:20.233023	211.0	21.4	-90.4	6.7
2025-01-23 09:10:21.387446	211.0	21.3	-90.2	5.5
2025-01-23 09:10:22.539219	211.0	21.1	-90.4	6.0
2025-01-23 09:10:23.688173	211.0	21.0	-90.0	4.0
2025-01-23 09:10:24.842021	211.0	20.8	-90.6	6.5
2025-01-23 09:10:25.995260	211.0	20.6	-90.9	5.3
2025-01-23 09:10:27.150200	211.0	20.5	-90.6	6.3
2025-01-23 09:10:28.298460	211.0	20.3	-90.5	8.2
2025-01-23 09:10:29.443001	210.9	20.2	-90.7	4.8
2025-01-23 09:10:30.592137	210.9	20.0	-90.8	5.4
2025-01-23 09:10:31.742573	210.9	19.9	-90.5	3.4
2025-01-23 09:10:32.905639	210.9	19.7	-90.4	5.3
2025-01-23 09:10:34.055231	210.9	19.6	-90.4	5.5
2025-01-23 09:10:35.212610	210.9	19.5	-90.3	2.4
2025-01-23 09:10:36.375630	210.9	19.3	-90.3	3.6
2025-01-23 09:10:37.536136	210.9	19.2	-90.6	4.5
2025-01-23 09:10:38.696584	210.9	19.0	-91.0	4.0
2025-01-23 09:10:39.845374	210.9	18.9	-90.5	2.6
2025-01-23 09:10:41.004115	210.9	18.7	-90.8	0.9
2025-01-23 09:10:42.155854	210.9	18.6	-90.5	2.6
2025-01-23 09:10:43.315059	210.9	18.5	-90.8	3.7
2025-01-23 09:10:44.466302	210.9	18.3	-90.9	3.1
2025-01-23 09:10:45.628093	210.9	18.2	-90.7	4.3
2025-01-23 09:10:46.779930	210.9	18.0	-91.1	4.1
2025-01-23 09:10:47.938051	210.9	17.9	-91.0	4.3
2025-01-23 09:10:49.096366	210.9	17.8	-90.5	5.1
2025-01-23 09:10:50.254252	210.9	17.6	-90.4	4.9
2025-01-23 09:10:51.416718	210.9	17.5	-90.9	5.1
2025-01-23 09:10:52.580186	210.9	17.4	-91.0	3.8
2025-01-23 09:10:53.735288	210.9	17.2	-90.9	6.4
2025-01-23 09:10:54.890549	210.9	17.1	-91.0	4.8
2025-01-23 09:10:56.049220	210.9	17.0	-90.7	5.1
2025-01-23 09:10:57.208581	210.9	16.8	-90.5	5.5
2025-01-23 09:10:58.365225	210.9	16.7	-90.2	5.6
2025-01-23 09:10:59.519332	210.8	16.6	-90.8	4.5
2025-01-23 09:11:00.669581	210.8	16.4	-90.7	4.0
2025-01-23 09:11:01.827759	210.8	16.3	-90.9	5.3
2025-01-23 09:11:02.979324	210.8	16.2	-90.8	6.4
2025-01-23 09:11:04.131708	210.8	16.1	-91.0	4.7
2025-01-23 09:11:05.282174	210.8	15.9	-90.2	4.3
2025-01-23 09:11:06.444395	210.8	15.8	-90.7	1.5
2025-01-23 09:11:07.582490	210.8	15.7	-90.3	2.8
2025-01-23 09:11:08.749286	210.8	15.6	-90.6	3.3
2025-01-23 09:11:09.896790	210.8	15.4	-91.0	3.6
2025-01-23 09:11:11.048421	210.8	15.3	-91.1	2.9
2025-01-23 09:11:12.206846	210.8	15.2	-90.6	3.6
2025-01-23 09:11:13.361152	210.8	15.1	-90.4	2.8
2025-01-23 09:11:14.512747	210.8	14.9	-90.7	3.2
2025-01-23 09:11:15.672638	210.8	14.8	-90.9	4.7
2025-01-23 09:11:16.824920	210.8	14.7	-90.7	5.5
2025-01-23 09:11:17.988893	210.8	14.6	-90.7	4.2
2025-01-23 09:11:19.144304	210.8	14.5	-90.9	4.4
#Closed at: 2025-01-23 09:02:00.697874