passes_logs/2025/01/23/LEX_Murmansk/LEX_Murmansk__20250123_172117_NOAA_19_rec.log

#Pass ID: 20250123_172117_NOAA 19
#Satellite: NOAA 19
#Configuration: NOAA 19
#Start time: 2025-01-23 17:21:12.832390

#LorettStation: 1.0.0 05.05.2024
#Station: LEX_Murmansk
#Location: 33.156738 lon 68.926811 lat
#TLE: 1 33591U 09005A   25023.14581638  .00000359  00000+0  21554-3 0  9999
#TLE: 2 33591  99.0183  86.9707 0014184  35.5055 324.7058 14.13266334822690

#Time	Az	El	Level	SNR
2025-01-23 17:21:24.997686	140.8	16.3	-90.2	1.1
2025-01-23 17:21:26.163321	140.8	16.5	-89.4	0.5
2025-01-23 17:21:27.326350	140.7	16.6	-90.1	1.7
2025-01-23 17:21:28.488519	140.7	16.7	-89.1	3.0
2025-01-23 17:21:29.649048	140.7	16.8	-89.7	2.1
2025-01-23 17:21:30.822694	140.7	17.0	-89.9	4.4
2025-01-23 17:21:31.983320	140.6	17.1	-90.1	3.9
2025-01-23 17:21:33.149727	140.6	17.3	-89.6	1.5
2025-01-23 17:21:34.299673	140.6	17.4	-89.4	3.3
2025-01-23 17:21:35.466407	140.6	17.5	-89.0	5.2
2025-01-23 17:21:36.625757	140.5	17.7	-89.4	6.1
2025-01-23 17:21:37.785086	140.5	17.8	-88.8	3.3
2025-01-23 17:21:38.943865	140.5	17.9	-89.5	4.0
2025-01-23 17:21:40.103641	140.4	18.1	-89.5	6.0
2025-01-23 17:21:41.267711	140.4	18.2	-88.9	4.3
2025-01-23 17:21:42.427068	140.4	18.4	-89.2	4.3
2025-01-23 17:21:43.587902	140.4	18.5	-90.1	4.3
2025-01-23 17:21:44.748922	140.3	18.6	-90.1	2.7
2025-01-23 17:21:45.916158	140.3	18.8	-89.9	2.6
2025-01-23 17:21:47.075347	140.3	18.9	-90.3	2.4
2025-01-23 17:21:48.240581	140.2	19.1	-89.7	2.4
2025-01-23 17:21:49.405015	140.2	19.2	-89.7	2.7
2025-01-23 17:21:50.568016	140.2	19.4	-90.0	7.1
2025-01-23 17:21:51.731290	140.2	19.5	-90.0	5.7
2025-01-23 17:21:52.894147	140.1	19.7	-90.1	7.1
2025-01-23 17:21:54.053487	140.1	19.8	-89.9	6.2
2025-01-23 17:21:55.218017	140.1	20.0	-89.9	5.3
2025-01-23 17:21:56.387069	140.0	20.1	-89.9	6.8
2025-01-23 17:21:57.552583	140.0	20.3	-89.6	7.8
2025-01-23 17:21:58.718764	140.0	20.4	-89.8	5.7
2025-01-23 17:21:59.879371	139.9	20.6	-89.2	4.6
2025-01-23 17:22:01.038683	139.9	20.7	-89.4	3.8
2025-01-23 17:22:02.187191	139.9	20.9	-90.1	1.6
2025-01-23 17:22:03.334742	139.8	21.0	-89.9	2.9
2025-01-23 17:22:04.492605	139.8	21.2	-90.1	2.6
2025-01-23 17:22:05.658456	139.8	21.3	-90.0	7.9
2025-01-23 17:22:06.822947	139.7	21.5	-89.8	9.5
2025-01-23 17:22:07.987493	139.7	21.7	-89.9	8.9
2025-01-23 17:22:09.155520	139.7	21.8	-89.8	7.4
2025-01-23 17:22:10.315967	139.6	22.0	-89.7	4.9
2025-01-23 17:22:11.483084	139.6	22.1	-90.2	8.8
2025-01-23 17:22:12.648202	139.5	22.3	-90.3	9.8
2025-01-23 17:22:13.809432	139.5	22.5	-89.8	9.9
2025-01-23 17:22:14.970294	139.5	22.6	-90.2	10.6
2025-01-23 17:22:16.134090	139.4	22.8	-89.7	6.4
2025-01-23 17:22:17.294950	139.4	23.0	-89.6	3.0
2025-01-23 17:22:18.458298	139.4	23.1	-90.1	2.8
2025-01-23 17:22:19.623928	139.3	23.3	-89.9	3.5
2025-01-23 17:22:20.797952	139.3	23.5	-90.2	2.9
2025-01-23 17:22:21.955800	139.2	23.7	-90.4	6.4
2025-01-23 17:22:23.121936	139.2	23.8	-89.3	7.3
2025-01-23 17:22:24.298061	139.1	24.0	-89.7	10.1
2025-01-23 17:22:25.457750	139.1	24.2	-90.3	8.3
2025-01-23 17:22:26.622096	139.1	24.4	-90.3	6.4
2025-01-23 17:22:27.787504	139.0	24.5	-89.8	6.9
2025-01-23 17:22:28.953092	139.0	24.7	-89.9	8.9
2025-01-23 17:22:30.121160	138.9	24.9	-89.8	9.2
2025-01-23 17:22:31.287896	138.9	25.1	-89.2	7.9
2025-01-23 17:22:32.451264	138.8	25.3	-89.9	5.9
2025-01-23 17:22:33.632782	138.8	25.5	-90.1	4.6
2025-01-23 17:22:34.787583	138.7	25.6	-90.1	2.5
2025-01-23 17:22:35.953611	138.7	25.8	-89.9	3.6
2025-01-23 17:22:37.114322	138.6	26.0	-90.0	3.7
2025-01-23 17:22:38.279277	138.6	26.2	-89.5	4.9
2025-01-23 17:22:39.445738	138.5	26.4	-89.9	4.4
2025-01-23 17:22:40.607323	138.5	26.6	-89.9	8.0
2025-01-23 17:22:41.770832	138.4	26.8	-90.1	6.1
2025-01-23 17:22:42.931716	138.4	27.0	-90.0	4.5
2025-01-23 17:22:44.091951	138.3	27.2	-89.6	6.0
2025-01-23 17:22:45.259684	138.3	27.4	-89.8	3.8
2025-01-23 17:22:46.427631	138.2	27.6	-89.7	5.7
2025-01-23 17:22:47.589733	138.2	27.8	-90.0	7.5
2025-01-23 17:22:48.756668	138.1	28.0	-90.0	4.6
2025-01-23 17:22:49.920112	138.1	28.2	-90.2	2.7
2025-01-23 17:22:51.090852	138.0	28.4	-89.9	4.1
2025-01-23 17:22:52.247380	138.0	28.6	-89.6	2.4
2025-01-23 17:22:53.410060	137.9	28.8	-89.9	2.6
2025-01-23 17:22:54.568484	137.8	29.0	-89.8	3.4
2025-01-23 17:22:55.727337	137.8	29.2	-90.1	2.9
2025-01-23 17:22:56.869646	137.7	29.4	-89.7	2.7
2025-01-23 17:22:57.990711	137.7	29.6	-90.1	1.4
2025-01-23 17:22:59.140661	137.6	29.8	-89.7	1.2
2025-01-23 17:23:00.297750	137.5	30.1	-89.6	3.8
2025-01-23 17:23:01.456646	137.5	30.3	-89.9	2.7
2025-01-23 17:23:02.615785	137.4	30.5	-90.6	3.1
2025-01-23 17:23:03.781207	137.3	30.7	-90.0	2.8
2025-01-23 17:23:04.940837	137.3	30.9	-90.2	5.5
2025-01-23 17:23:06.105036	137.2	31.2	-89.8	3.4
2025-01-23 17:23:07.267896	137.1	31.4	-89.8	3.2
2025-01-23 17:23:08.434351	137.1	31.6	-89.6	0.9
2025-01-23 17:23:09.597642	137.0	31.9	-89.8	3.6
2025-01-23 17:23:10.764266	136.9	32.1	-90.2	3.0
2025-01-23 17:23:11.921397	136.9	32.3	-90.1	6.1
2025-01-23 17:23:13.084887	136.8	32.6	-89.7	6.2
2025-01-23 17:23:14.241125	136.7	32.8	-89.6	8.2
2025-01-23 17:23:15.403059	136.6	33.0	-89.4	7.6
2025-01-23 17:23:16.566799	136.6	33.3	-89.2	6.3
2025-01-23 17:23:17.734256	136.5	33.5	-89.7	1.6
2025-01-23 17:23:18.897673	136.4	33.8	-89.4	4.6
2025-01-23 17:23:20.059085	136.3	34.0	-89.7	6.6
2025-01-23 17:23:21.222690	136.2	34.3	-89.4	6.1
2025-01-23 17:23:22.381393	136.1	34.5	-89.2	9.7
2025-01-23 17:23:23.547315	136.1	34.8	-90.1	7.2
2025-01-23 17:23:24.706736	136.0	35.0	-90.1	3.4
2025-01-23 17:23:25.872501	135.9	35.3	-90.3	4.2
2025-01-23 17:23:27.036072	135.8	35.5	-89.6	4.3
2025-01-23 17:23:28.203085	135.7	35.8	-89.5	2.4
2025-01-23 17:23:29.368731	135.6	36.0	-89.9	6.9
2025-01-23 17:23:30.531109	135.5	36.3	-90.0	10.9
2025-01-23 17:23:31.695859	135.4	36.6	-89.4	12.8
2025-01-23 17:23:32.860105	135.3	36.8	-89.5	10.4
2025-01-23 17:23:34.023878	135.2	37.1	-89.6	8.8
2025-01-23 17:23:35.191571	135.1	37.4	-89.5	6.6
2025-01-23 17:23:36.353620	135.0	37.7	-89.8	6.1
2025-01-23 17:23:37.521834	134.9	37.9	-89.8	9.5
2025-01-23 17:23:38.685404	134.8	38.2	-89.6	7.9
2025-01-23 17:23:39.848180	134.7	38.5	-90.2	9.8
2025-01-23 17:23:41.010217	134.6	38.8	-90.2	10.9
2025-01-23 17:23:42.175873	134.5	39.1	-90.2	6.8
2025-01-23 17:23:43.356084	134.4	39.4	-89.8	0.9
2025-01-23 17:23:44.524088	134.3	39.7	-89.4	4.9
2025-01-23 17:23:45.688342	134.1	39.9	-89.8	3.0
2025-01-23 17:23:46.844185	134.0	40.2	-89.9	4.1
2025-01-23 17:23:48.004786	133.9	40.5	-90.5	8.0
2025-01-23 17:23:49.173401	133.8	40.8	-89.9	8.6
2025-01-23 17:23:50.338976	133.6	41.1	-90.4	9.7
2025-01-23 17:23:51.513419	133.5	41.4	-89.9	9.4
2025-01-23 17:23:52.673899	133.4	41.8	-89.9	9.9
2025-01-23 17:23:53.838305	133.2	42.1	-90.2	5.9
2025-01-23 17:23:54.998439	133.1	42.4	-89.9	8.2
2025-01-23 17:23:56.158421	133.0	42.7	-89.3	8.5
2025-01-23 17:23:57.325522	132.8	43.0	-88.7	9.6
2025-01-23 17:23:58.489725	132.7	43.3	-89.2	14.8
2025-01-23 17:23:59.653052	132.5	43.6	-88.9	12.3
2025-01-23 17:24:00.816787	132.4	44.0	-88.5	6.7
2025-01-23 17:24:01.976704	132.2	44.3	-88.9	4.4
2025-01-23 17:24:03.144676	132.1	44.6	-89.1	3.4
2025-01-23 17:24:04.301298	131.9	44.9	-89.1	0.2
2025-01-23 17:24:05.462070	131.7	45.3	-89.3	3.5
2025-01-23 17:24:06.622041	131.6	45.6	-89.1	4.8
2025-01-23 17:24:07.786429	131.4	46.0	-89.5	4.5
2025-01-23 17:24:08.952747	131.2	46.3	-89.8	8.7
2025-01-23 17:24:10.116123	131.0	46.6	-90.4	9.8
2025-01-23 17:24:11.279577	130.8	47.0	-89.4	9.7
2025-01-23 17:24:12.446731	130.6	47.3	-89.5	7.4
2025-01-23 17:24:13.608103	130.5	47.7	-89.6	4.4
2025-01-23 17:24:14.761687	130.3	48.0	-90.3	2.4
2025-01-23 17:24:15.926776	130.1	48.4	-90.0	0.3
2025-01-23 17:24:17.091089	129.8	48.7	-89.4	6.1
2025-01-23 17:24:18.258535	129.6	49.1	-89.6	2.9
2025-01-23 17:24:19.422228	129.4	49.5	-89.6	4.8
2025-01-23 17:24:20.583270	129.2	49.8	-90.2	3.6
2025-01-23 17:24:21.751739	129.0	50.2	-90.6	3.9
2025-01-23 17:24:22.909775	128.7	50.6	-90.0	5.3
2025-01-23 17:24:24.076941	128.5	50.9	-89.7	3.9
2025-01-23 17:24:25.228811	128.2	51.3	-90.0	3.0
2025-01-23 17:24:26.385401	128.0	51.7	-90.2	4.0
2025-01-23 17:24:27.547872	127.7	52.1	-89.1	1.5
2025-01-23 17:24:28.713562	127.5	52.5	-89.2	1.9
2025-01-23 17:24:29.879017	127.2	52.8	-88.5	3.8
2025-01-23 17:24:31.045108	126.9	53.2	-89.6	8.2
2025-01-23 17:24:32.207008	126.6	53.6	-89.0	13.1
2025-01-23 17:24:33.372608	126.3	54.0	-89.3	4.0
2025-01-23 17:24:34.535934	126.0	54.4	-89.5	13.8
2025-01-23 17:24:35.711447	125.7	54.8	-88.9	3.5
2025-01-23 17:24:36.873973	125.4	55.2	-88.8	4.4
2025-01-23 17:24:38.039876	125.0	55.6	-89.7	8.9
2025-01-23 17:24:39.209852	124.7	56.0	-89.0	3.1
2025-01-23 17:24:40.366393	124.3	56.4	-89.6	7.0
2025-01-23 17:24:41.530514	124.0	56.8	-90.5	8.8
2025-01-23 17:24:42.696980	123.6	57.2	-90.4	13.6
2025-01-23 17:24:43.877038	123.2	57.6	-90.5	13.4
2025-01-23 17:24:45.030473	122.8	58.0	-90.0	12.7
2025-01-23 17:24:46.195135	122.4	58.5	-89.8	7.8
2025-01-23 17:24:47.359590	122.0	58.9	-89.7	2.5
2025-01-23 17:24:48.523176	121.6	59.3	-89.5	5.5
2025-01-23 17:24:49.688121	121.1	59.7	-89.9	3.2
2025-01-23 17:24:50.851763	120.6	60.1	-89.6	1.9
2025-01-23 17:24:52.012347	120.2	60.5	-90.2	4.9
2025-01-23 17:24:53.177330	119.7	60.9	-89.5	5.2
2025-01-23 17:24:54.337052	119.1	61.4	-90.2	6.7
2025-01-23 17:24:55.498970	118.6	61.8	-90.0	6.1
2025-01-23 17:24:56.661678	118.1	62.2	-89.9	14.8
2025-01-23 17:24:57.827584	117.5	62.6	-90.0	15.1
2025-01-23 17:24:58.987866	116.9	63.0	-90.0	10.3
2025-01-23 17:25:00.147751	116.3	63.5	-89.8	14.7
2025-01-23 17:25:01.302622	115.7	63.9	-89.6	4.2
2025-01-23 17:25:02.467137	115.0	64.3	-90.1	5.6
2025-01-23 17:25:03.629629	114.3	64.7	-89.7	7.5
2025-01-23 17:25:04.790170	113.6	65.1	-89.5	3.9
2025-01-23 17:25:05.954018	112.9	65.6	-90.6	5.0
2025-01-23 17:25:07.118084	112.1	66.0	-90.4	6.3
2025-01-23 17:25:08.285174	111.3	66.4	-89.6	5.0
2025-01-23 17:25:09.449308	110.5	66.8	-90.1	16.4
2025-01-23 17:25:10.614272	109.7	67.2	-89.9	14.2
2025-01-23 17:25:11.778888	108.8	67.6	-90.0	19.9
2025-01-23 17:25:12.946222	107.8	68.0	-90.7	9.8
2025-01-23 17:25:14.108923	106.9	68.4	-90.4	10.1
2025-01-23 17:25:15.267261	105.9	68.8	-90.2	7.4
2025-01-23 17:25:16.433095	104.8	69.2	-90.1	9.7
2025-01-23 17:25:17.596894	103.8	69.6	-89.6	7.7
2025-01-23 17:25:18.763226	102.6	70.0	-90.2	5.2
2025-01-23 17:25:19.927858	101.4	70.3	-89.6	5.0
2025-01-23 17:25:21.095033	100.2	70.7	-90.2	3.0
2025-01-23 17:25:22.254367	99.0	71.1	-90.2	3.5
2025-01-23 17:25:23.415242	97.6	71.4	-90.0	4.4
2025-01-23 17:25:24.571514	96.3	71.7	-90.4	6.4
2025-01-23 17:25:25.736526	94.8	72.1	-90.2	1.9
2025-01-23 17:25:26.899572	93.3	72.4	-90.4	1.9
2025-01-23 17:25:28.063980	91.8	72.7	-90.1	7.0
2025-01-23 17:25:29.228460	90.2	73.0	-90.0	6.4
2025-01-23 17:25:30.391324	88.5	73.3	-90.0	15.2
2025-01-23 17:25:31.550029	86.8	73.6	-90.0	15.7
2025-01-23 17:25:32.709497	85.0	73.8	-90.2	10.8
2025-01-23 17:25:33.874623	83.2	74.1	-90.2	11.6
2025-01-23 17:25:35.031444	81.3	74.3	-90.0	14.5
2025-01-23 17:25:36.197468	79.3	74.5	-89.7	12.0
2025-01-23 17:25:37.355515	77.3	74.7	-90.0	11.1
2025-01-23 17:25:38.519801	75.3	74.9	-90.3	12.3
2025-01-23 17:25:39.681616	73.2	75.0	-89.9	10.7
2025-01-23 17:25:40.850050	71.0	75.2	-90.0	10.3
2025-01-23 17:25:42.016788	68.8	75.3	-90.1	8.7
2025-01-23 17:25:43.181488	66.6	75.4	-89.9	10.8
2025-01-23 17:25:44.346761	64.3	75.5	-90.2	6.2
2025-01-23 17:25:45.507097	62.0	75.5	-90.1	10.4
2025-01-23 17:25:46.672873	59.8	75.5	-90.3	9.3
2025-01-23 17:25:47.837867	57.5	75.5	-90.4	4.7
2025-01-23 17:25:49.010574	55.2	75.5	-90.1	6.6
2025-01-23 17:25:50.175491	52.9	75.5	-90.2	5.5
2025-01-23 17:25:51.343012	50.6	75.4	-90.4	4.0
2025-01-23 17:25:52.499576	48.4	75.3	-90.1	8.5
2025-01-23 17:25:53.660777	46.2	75.2	-90.0	3.8
2025-01-23 17:25:54.823963	44.0	75.1	-90.4	2.7
2025-01-23 17:25:55.985452	41.9	75.0	-90.1	5.9
2025-01-23 17:25:57.151394	39.8	74.8	-90.3	6.5
2025-01-23 17:25:58.315890	37.7	74.6	-90.2	4.6
2025-01-23 17:25:59.481039	35.7	74.4	-90.2	6.9
2025-01-23 17:26:00.644348	33.8	74.2	-90.0	4.0
2025-01-23 17:26:01.804365	31.9	74.0	-89.6	5.1
2025-01-23 17:26:02.971164	30.1	73.7	-90.3	6.2
2025-01-23 17:26:04.128634	28.3	73.5	-89.5	11.3
2025-01-23 17:26:05.290468	26.6	73.2	-89.8	11.0
2025-01-23 17:26:06.449712	25.0	72.9	-89.9	11.3
2025-01-23 17:26:07.609083	23.4	72.6	-89.6	11.4
2025-01-23 17:26:08.768929	21.9	72.3	-90.1	9.9
2025-01-23 17:26:09.933471	20.5	72.0	-90.2	9.5
2025-01-23 17:26:11.097870	19.0	71.6	-90.0	11.7
2025-01-23 17:26:12.276945	17.7	71.3	-89.5	11.1
2025-01-23 17:26:13.440597	16.4	70.9	-89.1	12.4
2025-01-23 17:26:14.598833	15.1	70.6	-88.8	14.2
2025-01-23 17:26:15.762607	13.9	70.2	-89.0	14.4
2025-01-23 17:26:16.926867	12.8	69.8	-89.6	16.4
2025-01-23 17:26:18.094227	11.6	69.4	-89.1	13.1
2025-01-23 17:26:19.257144	10.6	69.0	-88.9	14.2
2025-01-23 17:26:20.424000	9.5	68.7	-89.4	12.9
2025-01-23 17:26:21.589114	8.6	68.3	-89.2	12.9
2025-01-23 17:26:22.749362	7.6	67.9	-89.3	15.1
2025-01-23 17:26:23.912961	6.7	67.5	-89.3	13.0
2025-01-23 17:26:25.066872	5.8	67.1	-89.0	15.1
2025-01-23 17:26:26.231909	5.0	66.7	-88.8	15.4
2025-01-23 17:26:27.396331	4.2	66.2	-89.1	14.3
2025-01-23 17:26:28.563671	3.4	65.8	-89.1	14.2
2025-01-23 17:26:29.728753	2.7	65.4	-90.0	13.3
2025-01-23 17:26:30.893436	1.9	65.0	-89.6	14.9
2025-01-23 17:26:32.054992	1.2	64.6	-89.1	15.4
2025-01-23 17:26:33.220248	0.6	64.2	-89.3	11.6
2025-01-23 17:26:34.382312	359.9	63.7	-88.8	11.5
2025-01-23 17:26:35.541168	359.3	63.3	-89.3	11.8
2025-01-23 17:26:36.701528	358.7	62.9	-89.5	11.5
2025-01-23 17:26:37.866135	358.1	62.5	-89.1	7.6
2025-01-23 17:26:39.040748	357.6	62.1	-89.1	11.9
2025-01-23 17:26:40.202186	357.0	61.6	-89.3	8.6
2025-01-23 17:26:41.373898	356.5	61.2	-89.2	5.3
2025-01-23 17:26:42.540070	356.0	60.8	-88.6	9.8
2025-01-23 17:26:43.704095	355.5	60.4	-89.9	6.9
2025-01-23 17:26:44.864457	355.0	60.0	-88.9	5.7
2025-01-23 17:26:46.020536	354.6	59.6	-89.7	8.6
2025-01-23 17:26:47.179783	354.1	59.2	-89.3	2.7
2025-01-23 17:26:48.343501	353.7	58.7	-88.8	4.2
2025-01-23 17:26:49.509887	353.3	58.3	-89.0	7.9
2025-01-23 17:26:50.674716	352.9	57.9	-89.1	6.4
2025-01-23 17:26:51.835626	352.5	57.5	-89.4	5.4
2025-01-23 17:26:53.004696	352.1	57.1	-89.3	7.3
2025-01-23 17:26:54.166178	351.7	56.7	-89.3	7.8
2025-01-23 17:26:55.330458	351.4	56.3	-89.2	6.6
2025-01-23 17:26:56.494235	351.0	55.9	-89.3	11.7
2025-01-23 17:26:57.657280	350.7	55.5	-89.8	11.1
2025-01-23 17:26:58.818340	350.4	55.1	-90.4	9.0
2025-01-23 17:26:59.978168	350.0	54.7	-89.8	13.1
2025-01-23 17:27:01.133596	349.7	54.3	-89.4	13.8
2025-01-23 17:27:02.297748	349.4	53.9	-89.5	11.2
2025-01-23 17:27:03.460597	349.1	53.5	-89.0	12.6
2025-01-23 17:27:04.628307	348.9	53.1	-88.5	11.5
2025-01-23 17:27:05.787335	348.6	52.8	-89.6	15.4
2025-01-23 17:27:06.948405	348.3	52.4	-89.2	13.8
2025-01-23 17:27:08.112647	348.0	52.0	-89.0	14.0
2025-01-23 17:27:09.276928	347.8	51.6	-89.5	11.6
2025-01-23 17:27:10.443349	347.5	51.2	-90.1	10.9
2025-01-23 17:27:11.607512	347.3	50.9	-90.4	12.5
2025-01-23 17:27:12.774540	347.0	50.5	-90.2	5.0
2025-01-23 17:27:13.934507	346.8	50.1	-90.1	6.5
2025-01-23 17:27:15.090037	346.6	49.8	-90.2	8.8
2025-01-23 17:27:16.254695	346.4	49.4	-90.2	4.6
2025-01-23 17:27:17.418153	346.2	49.1	-89.7	6.2
2025-01-23 17:27:18.583396	345.9	48.7	-89.9	8.2
2025-01-23 17:27:19.747436	345.7	48.3	-89.7	4.0
2025-01-23 17:27:20.912828	345.5	48.0	-90.3	7.3
2025-01-23 17:27:22.075598	345.3	47.6	-89.1	7.7
2025-01-23 17:27:23.241801	345.1	47.3	-88.7	5.9
2025-01-23 17:27:24.405144	345.0	46.9	-88.6	8.2
2025-01-23 17:27:25.567012	344.8	46.6	-88.4	10.7
2025-01-23 17:27:26.732691	344.6	46.3	-88.8	14.3
2025-01-23 17:27:27.906353	344.4	45.9	-88.7	14.0
2025-01-23 17:27:29.073568	344.2	45.6	-89.2	12.5
2025-01-23 17:27:30.237065	344.1	45.2	-89.6	13.7
2025-01-23 17:27:31.403255	343.9	44.9	-88.9	16.6
2025-01-23 17:27:32.573029	343.8	44.6	-90.0	14.7
2025-01-23 17:27:33.735425	343.6	44.3	-90.0	11.3
2025-01-23 17:27:34.898068	343.4	43.9	-89.6	11.3
2025-01-23 17:27:36.056906	343.3	43.6	-89.6	10.3
2025-01-23 17:27:37.219196	343.1	43.3	-89.4	7.1
2025-01-23 17:27:38.382510	343.0	43.0	-89.3	6.2
2025-01-23 17:27:39.549689	342.9	42.7	-89.4	9.2
2025-01-23 17:27:40.711900	342.7	42.4	-89.1	4.0
2025-01-23 17:27:41.878980	342.6	42.0	-89.4	7.9
2025-01-23 17:27:43.042851	342.4	41.7	-89.7	7.7
2025-01-23 17:27:44.208078	342.3	41.4	-89.5	6.2
2025-01-23 17:27:45.364631	342.2	41.1	-89.7	8.9
2025-01-23 17:27:46.524986	342.1	40.8	-89.4	12.8
2025-01-23 17:27:47.690818	341.9	40.5	-89.7	12.7
2025-01-23 17:27:48.851053	341.8	40.2	-90.3	12.3
2025-01-23 17:27:50.017309	341.7	39.9	-90.1	14.0
2025-01-23 17:27:51.182169	341.6	39.7	-90.2	14.9
2025-01-23 17:27:52.338810	341.5	39.4	-89.9	13.9
2025-01-23 17:27:53.510601	341.3	39.1	-89.9	11.6
2025-01-23 17:27:54.668341	341.2	38.8	-89.7	9.2
2025-01-23 17:27:55.826560	341.1	38.5	-90.0	6.6
2025-01-23 17:27:56.992264	341.0	38.2	-89.9	9.5
2025-01-23 17:27:58.157074	340.9	38.0	-89.5	6.2
2025-01-23 17:27:59.315095	340.8	37.7	-89.4	5.0
2025-01-23 17:28:00.476427	340.7	37.4	-89.5	7.4
2025-01-23 17:28:01.640003	340.6	37.1	-89.3	10.6
2025-01-23 17:28:02.808255	340.5	36.9	-89.7	9.3
2025-01-23 17:28:03.969368	340.4	36.6	-89.8	7.4
2025-01-23 17:28:05.130467	340.3	36.3	-89.5	7.8
2025-01-23 17:28:06.293002	340.2	36.1	-89.8	7.8
2025-01-23 17:28:07.453460	340.1	35.8	-89.4	9.2
2025-01-23 17:28:08.620676	340.0	35.6	-89.7	7.3
2025-01-23 17:28:09.779900	340.0	35.3	-89.4	6.3
2025-01-23 17:28:10.948014	339.9	35.1	-89.3	8.6
2025-01-23 17:28:12.105609	339.8	34.8	-89.3	5.7
2025-01-23 17:28:13.270571	339.7	34.6	-89.2	2.2
2025-01-23 17:28:14.429687	339.6	34.3	-89.4	4.5
2025-01-23 17:28:15.593187	339.5	34.1	-89.9	6.2
2025-01-23 17:28:16.761144	339.5	33.8	-89.7	2.9
2025-01-23 17:28:17.923008	339.4	33.6	-90.2	6.5
2025-01-23 17:28:19.085614	339.3	33.3	-90.0	6.4
2025-01-23 17:28:20.253918	339.2	33.1	-89.3	3.9
2025-01-23 17:28:21.420626	339.1	32.9	-89.4	7.0
2025-01-23 17:28:22.579839	339.1	32.6	-90.1	6.4
2025-01-23 17:28:23.751479	339.0	32.4	-90.1	6.4
2025-01-23 17:28:24.915043	338.9	32.2	-89.6	7.1
2025-01-23 17:28:26.073488	338.9	31.9	-89.7	9.8
2025-01-23 17:28:27.237679	338.8	31.7	-89.7	7.5
2025-01-23 17:28:28.401220	338.7	31.5	-89.9	4.9
2025-01-23 17:28:29.564573	338.6	31.2	-89.6	7.9
2025-01-23 17:28:30.725599	338.6	31.0	-89.7	2.6
2025-01-23 17:28:31.889888	338.5	30.8	-89.5	2.4
2025-01-23 17:28:33.052005	338.5	30.6	-89.6	4.1
2025-01-23 17:28:34.218297	338.4	30.4	-89.6	2.5
2025-01-23 17:28:35.377611	338.3	30.1	-90.0	6.2
2025-01-23 17:28:36.532715	338.3	29.9	-89.7	6.5
2025-01-23 17:28:37.695872	338.2	29.7	-89.1	8.5
2025-01-23 17:28:38.856289	338.1	29.5	-90.1	10.7
2025-01-23 17:28:40.023243	338.1	29.3	-89.9	10.8
2025-01-23 17:28:41.188812	338.0	29.1	-89.1	8.5
2025-01-23 17:28:42.354563	338.0	28.9	-89.4	5.6
2025-01-23 17:28:43.519195	337.9	28.7	-89.7	5.2
2025-01-23 17:28:44.683062	337.8	28.5	-89.9	2.0
2025-01-23 17:28:45.840404	337.8	28.3	-89.1	0.4
2025-01-23 17:28:47.003645	337.7	28.1	-89.6	2.2
2025-01-23 17:28:48.162800	337.7	27.9	-89.8	2.8
2025-01-23 17:28:49.327486	337.6	27.7	-89.0	1.3
2025-01-23 17:28:50.491552	337.6	27.5	-90.0	6.8
2025-01-23 17:28:51.656648	337.5	27.3	-89.7	4.2
2025-01-23 17:28:52.818979	337.5	27.1	-89.4	6.2
2025-01-23 17:28:53.978500	337.4	26.9	-90.0	6.7
2025-01-23 17:28:55.142044	337.4	26.7	-89.1	4.3
2025-01-23 17:28:56.302319	337.3	26.5	-89.4	4.4
2025-01-23 17:28:57.463151	337.3	26.3	-89.6	7.6
2025-01-23 17:28:58.623199	337.2	26.1	-89.4	8.9
2025-01-23 17:28:59.786191	337.2	25.9	-89.6	5.1
2025-01-23 17:29:00.946311	337.1	25.7	-89.4	2.9
2025-01-23 17:29:02.115442	337.1	25.6	-89.5	4.0
2025-01-23 17:29:03.282565	337.0	25.4	-89.8	3.8
2025-01-23 17:29:04.443605	337.0	25.2	-90.1	5.0
2025-01-23 17:29:05.603069	337.0	25.0	-89.9	6.8
2025-01-23 17:29:06.767039	336.9	24.8	-90.0	4.3
2025-01-23 17:29:07.934350	336.9	24.7	-90.1	5.8
2025-01-23 17:29:09.096530	336.8	24.5	-90.1	6.5
2025-01-23 17:29:10.263904	336.8	24.3	-89.2	5.7
2025-01-23 17:29:11.429190	336.7	24.1	-88.8	5.5
2025-01-23 17:29:12.595712	336.7	23.9	-90.2	3.4
2025-01-23 17:29:13.761605	336.7	23.8	-90.0	2.3
2025-01-23 17:29:14.924412	336.6	23.6	-90.3	6.6
2025-01-23 17:29:16.084431	336.6	23.4	-89.3	2.6
2025-01-23 17:29:17.250592	336.5	23.3	-88.8	2.4
2025-01-23 17:29:18.418159	336.5	23.1	-88.7	1.4
2025-01-23 17:29:19.583490	336.5	22.9	-89.3	6.2
2025-01-23 17:29:20.747218	336.4	22.8	-89.1	4.7
2025-01-23 17:29:21.904861	336.4	22.6	-89.2	9.6
2025-01-23 17:29:23.067779	336.3	22.4	-88.8	6.5
2025-01-23 17:29:24.233407	336.3	22.3	-88.9	8.8
2025-01-23 17:29:25.396244	336.3	22.1	-89.0	6.2
2025-01-23 17:29:26.557642	336.2	21.9	-88.7	5.1
2025-01-23 17:29:27.720608	336.2	21.8	-89.6	3.9
2025-01-23 17:29:28.883065	336.2	21.6	-89.6	4.6
2025-01-23 17:29:30.047003	336.1	21.5	-89.6	7.1
2025-01-23 17:29:31.211510	336.1	21.3	-89.1	1.4
2025-01-23 17:29:32.382029	336.1	21.2	-89.7	3.2
2025-01-23 17:29:33.541643	336.0	21.0	-89.2	4.7
2025-01-23 17:29:34.705290	336.0	20.8	-90.3	1.4
2025-01-23 17:29:35.864319	336.0	20.7	-90.3	3.4
2025-01-23 17:29:37.026284	335.9	20.5	-90.2	8.6
2025-01-23 17:29:38.189889	335.9	20.4	-90.1	3.9
2025-01-23 17:29:39.355631	335.9	20.2	-90.4	3.2
2025-01-23 17:29:40.515963	335.8	20.1	-89.9	4.0
2025-01-23 17:29:41.683848	335.8	19.9	-90.0	2.5
2025-01-23 17:29:42.848991	335.8	19.8	-90.2	2.7
2025-01-23 17:29:44.012738	335.7	19.6	-90.4	3.8
2025-01-23 17:29:45.174492	335.7	19.5	-89.8	2.6
2025-01-23 17:29:46.334722	335.7	19.4	-89.8	0.3
2025-01-23 17:29:47.501198	335.7	19.2	-90.0	2.4
2025-01-23 17:29:48.665568	335.6	19.1	-89.7	6.5
2025-01-23 17:29:49.831506	335.6	18.9	-89.7	3.5
2025-01-23 17:29:50.992322	335.6	18.8	-89.9	6.3
2025-01-23 17:29:52.153865	335.5	18.6	-90.0	9.6
2025-01-23 17:29:53.319573	335.5	18.5	-90.4	5.7
2025-01-23 17:29:54.479327	335.5	18.4	-89.4	2.8
2025-01-23 17:29:55.639373	335.5	18.2	-89.7	3.9
2025-01-23 17:29:56.793888	335.4	18.1	-90.6	3.5
2025-01-23 17:29:57.959715	335.4	17.9	-90.4	2.6
2025-01-23 17:29:59.116499	335.4	17.8	-89.8	2.3
2025-01-23 17:30:00.275498	335.4	17.7	-89.8	1.3
2025-01-23 17:30:01.435870	335.3	17.5	-90.2	1.7
2025-01-23 17:30:02.604085	335.3	17.4	-90.1	3.3
2025-01-23 17:30:03.766688	335.3	17.3	-89.6	2.5
2025-01-23 17:30:04.934856	335.3	17.1	-89.5	2.2
2025-01-23 17:30:06.093459	335.2	17.0	-89.5	3.8
2025-01-23 17:30:07.250746	335.2	16.9	-89.6	3.4
2025-01-23 17:30:08.415269	335.2	16.7	-89.5	3.1
2025-01-23 17:30:09.578292	335.2	16.6	-89.7	1.2
2025-01-23 17:30:10.746369	335.1	16.5	-89.8	2.5
2025-01-23 17:30:11.910444	335.1	16.3	-89.7	4.2
2025-01-23 17:30:13.400303	335.1	16.2	-89.9	2.0
2025-01-23 17:30:14.565689	335.1	16.1	-89.6	2.9
2025-01-23 17:30:15.728748	335.0	15.9	-89.6	0.7
2025-01-23 17:30:16.887807	335.0	15.8	-89.9	3.9
2025-01-23 17:30:18.046925	335.0	15.7	-90.1	3.4
2025-01-23 17:30:19.212078	335.0	15.6	-90.1	5.1
2025-01-23 17:30:20.377052	334.9	15.4	-90.5	2.6
2025-01-23 17:30:21.548662	334.9	15.3	-90.4	3.8
2025-01-23 17:30:22.713990	334.9	15.2	-90.1	1.3
2025-01-23 17:30:23.881189	334.9	15.1	-89.7	4.1
2025-01-23 17:30:25.046067	334.9	14.9	-89.8	3.3
2025-01-23 17:30:26.198358	334.8	14.8	-89.6	3.3
2025-01-23 17:30:27.361714	334.8	14.7	-89.5	1.2
2025-01-23 17:30:28.525846	334.8	14.6	-89.5	3.2
2025-01-23 17:30:29.669219	334.8	14.5	-89.5	3.5
#Closed at: 2025-01-23 17:21:17.810357