passes_logs/2025/01/23/LEX_Murmansk/LEX_Murmansk__20250123_192520_NOAA_18_rec.log

#Pass ID: 20250123_192520_NOAA 18
#Satellite: NOAA 18
#Configuration: NOAA 18
#Start time: 2025-01-23 19:25:15.054849

#LorettStation: 1.0.0 05.05.2024
#Station: LEX_Murmansk
#Location: 33.156738 lon 68.926811 lat
#TLE: 1 28654U 05018A   25023.16165176  .00000420  00000+0  24625-3 0  9991
#TLE: 2 28654  98.8554 104.1346 0014722 156.5601 203.6245 14.13494494 14331

#Time	Az	El	Level	SNR
2025-01-23 19:25:27.332984	169.2	16.3	-91.3	5.7
2025-01-23 19:25:28.482199	169.2	16.4	-91.7	8.0
2025-01-23 19:25:29.632145	169.3	16.6	-92.1	6.2
2025-01-23 19:25:30.778914	169.3	16.7	-92.1	5.1
2025-01-23 19:25:31.934702	169.4	16.8	-91.3	5.5
2025-01-23 19:25:33.083459	169.4	16.9	-92.1	3.7
2025-01-23 19:25:34.233311	169.5	17.1	-91.6	5.0
2025-01-23 19:25:35.379308	169.5	17.2	-91.4	5.0
2025-01-23 19:25:36.525842	169.6	17.3	-92.2	2.6
2025-01-23 19:25:37.678890	169.6	17.5	-92.1	5.7
2025-01-23 19:25:38.829764	169.7	17.6	-92.3	4.8
2025-01-23 19:25:39.978123	169.7	17.7	-92.4	4.5
2025-01-23 19:25:41.136609	169.8	17.9	-91.6	4.3
2025-01-23 19:25:42.285921	169.8	18.0	-91.9	8.0
2025-01-23 19:25:43.434005	169.9	18.1	-91.8	7.0
2025-01-23 19:25:44.581232	169.9	18.3	-92.3	7.3
2025-01-23 19:25:45.723829	170.0	18.4	-92.5	9.2
2025-01-23 19:25:46.861299	170.0	18.5	-92.6	7.0
2025-01-23 19:25:47.981141	170.1	18.7	-92.4	7.3
2025-01-23 19:25:49.101171	170.1	18.8	-91.6	9.7
2025-01-23 19:25:50.224286	170.2	18.9	-91.6	12.0
2025-01-23 19:25:51.344963	170.2	19.1	-91.6	12.0
2025-01-23 19:25:52.465389	170.3	19.2	-92.5	8.9
2025-01-23 19:25:53.586002	170.3	19.3	-92.4	6.7
2025-01-23 19:25:54.706327	170.4	19.5	-91.2	7.3
2025-01-23 19:25:55.828595	170.4	19.6	-92.5	8.1
2025-01-23 19:25:56.954101	170.5	19.8	-92.2	3.6
2025-01-23 19:25:58.102406	170.6	19.9	-92.2	8.1
2025-01-23 19:25:59.254965	170.6	20.1	-91.3	8.8
2025-01-23 19:26:00.398178	170.7	20.2	-91.8	7.5
2025-01-23 19:26:01.540025	170.7	20.3	-92.6	10.3
2025-01-23 19:26:02.685014	170.8	20.5	-92.1	11.7
2025-01-23 19:26:03.829859	170.8	20.6	-92.5	11.9
2025-01-23 19:26:04.979653	170.9	20.8	-92.6	6.9
2025-01-23 19:26:06.123683	171.0	20.9	-92.5	5.3
2025-01-23 19:26:07.271619	171.0	21.1	-92.3	3.8
2025-01-23 19:26:08.419606	171.1	21.2	-92.5	4.3
2025-01-23 19:26:09.573733	171.2	21.4	-92.2	4.0
2025-01-23 19:26:10.717252	171.2	21.5	-92.4	7.0
2025-01-23 19:26:11.862893	171.3	21.7	-92.4	4.0
2025-01-23 19:26:13.010856	171.3	21.8	-92.0	4.2
2025-01-23 19:26:14.157144	171.4	22.0	-92.0	6.1
2025-01-23 19:26:15.303417	171.5	22.2	-92.4	6.9
2025-01-23 19:26:16.448058	171.5	22.3	-92.3	10.9
2025-01-23 19:26:17.590861	171.6	22.5	-92.0	10.6
2025-01-23 19:26:18.734850	171.7	22.6	-91.9	11.8
2025-01-23 19:26:19.886699	171.7	22.8	-92.1	7.3
2025-01-23 19:26:21.029169	171.8	23.0	-92.3	10.6
2025-01-23 19:26:22.176187	171.9	23.1	-91.5	9.9
2025-01-23 19:26:23.318601	171.9	23.3	-91.6	9.9
2025-01-23 19:26:24.464476	172.0	23.4	-92.2	9.9
2025-01-23 19:26:25.612914	172.1	23.6	-91.8	8.2
2025-01-23 19:26:26.754832	172.2	23.8	-92.0	11.0
2025-01-23 19:26:27.904680	172.2	23.9	-92.3	2.4
2025-01-23 19:26:29.047203	172.3	24.1	-92.1	4.4
2025-01-23 19:26:30.196580	172.4	24.3	-91.9	13.2
2025-01-23 19:26:31.343259	172.5	24.4	-91.9	12.5
2025-01-23 19:26:32.492870	172.5	24.6	-92.1	11.5
2025-01-23 19:26:33.643503	172.6	24.8	-92.3	11.1
2025-01-23 19:26:34.795774	172.7	25.0	-92.4	13.5
2025-01-23 19:26:35.938330	172.8	25.1	-92.5	10.5
2025-01-23 19:26:37.083570	172.8	25.3	-91.6	11.3
2025-01-23 19:26:38.229840	172.9	25.5	-92.2	10.9
2025-01-23 19:26:39.378392	173.0	25.7	-92.0	10.3
2025-01-23 19:26:40.523648	173.1	25.8	-91.9	7.5
2025-01-23 19:26:41.669381	173.2	26.0	-92.1	10.0
2025-01-23 19:26:42.817689	173.2	26.2	-91.5	9.5
2025-01-23 19:26:43.961157	173.3	26.4	-91.5	4.8
2025-01-23 19:26:45.110642	173.4	26.6	-91.6	7.7
2025-01-23 19:26:46.254487	173.5	26.8	-92.1	9.2
2025-01-23 19:26:47.401751	173.6	26.9	-91.3	7.8
2025-01-23 19:26:48.551313	173.7	27.1	-92.0	12.6
2025-01-23 19:26:49.710477	173.8	27.3	-91.9	14.0
2025-01-23 19:26:50.852382	173.8	27.5	-91.7	10.5
2025-01-23 19:26:52.000423	173.9	27.7	-91.6	6.2
2025-01-23 19:26:53.146905	174.0	27.9	-92.0	6.2
2025-01-23 19:26:54.297632	174.1	28.1	-91.9	10.5
2025-01-23 19:26:55.443592	174.2	28.3	-92.4	10.4
2025-01-23 19:26:56.591574	174.3	28.5	-92.0	13.0
2025-01-23 19:26:57.737944	174.4	28.7	-92.3	11.3
2025-01-23 19:26:58.888817	174.5	28.9	-90.5	6.7
2025-01-23 19:27:00.035590	174.6	29.1	-92.0	6.0
2025-01-23 19:27:01.176373	174.7	29.3	-92.0	11.7
2025-01-23 19:27:02.322657	174.8	29.5	-92.1	10.4
2025-01-23 19:27:03.467152	174.9	29.7	-92.0	4.1
2025-01-23 19:27:04.615339	175.0	29.9	-92.4	11.5
2025-01-23 19:27:05.760436	175.1	30.1	-91.1	10.0
2025-01-23 19:27:06.908069	175.2	30.3	-92.5	11.0
2025-01-23 19:27:08.051833	175.3	30.5	-92.5	11.2
2025-01-23 19:27:09.195276	175.4	30.7	-91.8	9.7
2025-01-23 19:27:10.339456	175.5	30.9	-92.0	6.5
2025-01-23 19:27:11.485535	175.7	31.1	-92.1	8.3
2025-01-23 19:27:12.630784	175.8	31.4	-91.8	8.6
2025-01-23 19:27:13.783517	175.9	31.6	-92.1	9.7
2025-01-23 19:27:14.931705	176.0	31.8	-92.2	9.8
2025-01-23 19:27:16.081422	176.1	32.0	-91.5	9.0
2025-01-23 19:27:17.237476	176.2	32.2	-91.0	10.5
2025-01-23 19:27:18.383457	176.3	32.5	-91.5	6.9
2025-01-23 19:27:19.528893	176.5	32.7	-92.3	5.9
2025-01-23 19:27:20.676579	176.6	32.9	-92.1	12.5
2025-01-23 19:27:21.827287	176.7	33.1	-91.8	16.0
2025-01-23 19:27:22.979286	176.8	33.4	-91.0	11.7
2025-01-23 19:27:24.129806	177.0	33.6	-91.3	15.0
2025-01-23 19:27:25.284552	177.1	33.8	-91.6	18.7
2025-01-23 19:27:26.431611	177.2	34.1	-91.9	13.8
2025-01-23 19:27:27.580359	177.4	34.3	-92.4	11.7
2025-01-23 19:27:28.722185	177.5	34.5	-92.1	14.6
2025-01-23 19:27:29.870431	177.6	34.8	-91.9	12.8
2025-01-23 19:27:31.017010	177.8	35.0	-91.8	16.0
2025-01-23 19:27:32.168538	177.9	35.3	-91.7	8.4
2025-01-23 19:27:33.322636	178.1	35.5	-91.8	14.1
2025-01-23 19:27:34.468819	178.2	35.7	-92.2	10.2
2025-01-23 19:27:35.614020	178.4	36.0	-92.2	10.1
2025-01-23 19:27:36.761329	178.5	36.2	-92.1	11.3
2025-01-23 19:27:37.910587	178.7	36.5	-91.4	5.7
2025-01-23 19:27:39.060245	178.8	36.7	-91.5	7.4
2025-01-23 19:27:40.209572	179.0	37.0	-91.9	13.2
2025-01-23 19:27:41.353531	179.1	37.3	-91.8	14.4
2025-01-23 19:27:42.497301	179.3	37.5	-91.9	17.5
2025-01-23 19:27:43.649592	179.5	37.8	-92.2	17.8
2025-01-23 19:27:44.793488	179.6	38.0	-92.4	14.4
2025-01-23 19:27:45.943647	179.8	38.3	-91.8	10.3
2025-01-23 19:27:47.101831	180.0	38.6	-92.0	13.6
2025-01-23 19:27:48.250840	180.1	38.8	-91.8	14.1
2025-01-23 19:27:49.401552	180.3	39.1	-92.1	7.7
2025-01-23 19:27:50.547779	180.5	39.4	-92.2	10.5
2025-01-23 19:27:51.695518	180.7	39.6	-91.9	9.1
2025-01-23 19:27:52.844094	180.9	39.9	-92.0	11.2
2025-01-23 19:27:53.998154	181.1	40.2	-91.9	7.1
2025-01-23 19:27:55.145356	181.2	40.5	-92.5	11.3
2025-01-23 19:27:56.295510	181.4	40.7	-91.8	14.3
2025-01-23 19:27:57.448056	181.6	41.0	-91.8	6.2
2025-01-23 19:27:58.586538	181.8	41.3	-92.7	13.1
2025-01-23 19:27:59.734342	182.0	41.6	-92.2	12.7
2025-01-23 19:28:00.874952	182.3	41.9	-92.6	16.5
2025-01-23 19:28:02.022378	182.5	42.2	-91.7	18.1
2025-01-23 19:28:03.167764	182.7	42.4	-89.8	10.5
2025-01-23 19:28:04.314763	182.9	42.7	-92.2	14.8
2025-01-23 19:28:05.457740	183.1	43.0	-92.2	13.7
2025-01-23 19:28:06.599954	183.4	43.3	-92.4	16.8
2025-01-23 19:28:07.747650	183.6	43.6	-92.4	16.3
2025-01-23 19:28:08.894971	183.8	43.9	-91.8	10.7
2025-01-23 19:28:10.039477	184.1	44.2	-91.8	16.4
2025-01-23 19:28:11.188714	184.3	44.5	-92.2	16.6
2025-01-23 19:28:12.334862	184.6	44.8	-91.8	11.6
2025-01-23 19:28:13.482050	184.8	45.1	-92.3	12.3
2025-01-23 19:28:14.628610	185.1	45.4	-92.0	8.2
2025-01-23 19:28:15.778012	185.3	45.7	-91.8	6.8
2025-01-23 19:28:16.925744	185.6	46.0	-92.0	6.4
2025-01-23 19:28:18.074283	185.9	46.4	-92.1	9.5
2025-01-23 19:28:19.222030	186.2	46.7	-91.8	15.0
2025-01-23 19:28:20.370654	186.4	47.0	-91.9	12.4
2025-01-23 19:28:21.513516	186.7	47.3	-92.3	18.1
2025-01-23 19:28:22.658695	187.0	47.6	-91.9	17.3
2025-01-23 19:28:23.805143	187.3	47.9	-92.1	16.7
2025-01-23 19:28:24.956270	187.6	48.3	-92.2	15.4
2025-01-23 19:28:26.099590	188.0	48.6	-91.1	11.6
2025-01-23 19:28:27.248373	188.3	48.9	-92.1	16.1
2025-01-23 19:28:28.395922	188.6	49.2	-92.4	4.9
2025-01-23 19:28:29.539732	189.0	49.6	-92.6	12.2
2025-01-23 19:28:30.688084	189.3	49.9	-92.1	17.9
2025-01-23 19:28:31.834891	189.6	50.2	-91.9	17.8
2025-01-23 19:28:32.981021	190.0	50.5	-92.4	18.0
2025-01-23 19:28:34.124899	190.4	50.9	-92.0	9.5
2025-01-23 19:28:35.270253	190.7	51.2	-92.0	13.3
2025-01-23 19:28:36.413161	191.1	51.5	-92.0	10.5
2025-01-23 19:28:37.557894	191.5	51.9	-92.2	10.7
2025-01-23 19:28:38.721271	191.9	52.2	-92.1	11.7
2025-01-23 19:28:39.875912	192.3	52.6	-92.2	6.6
2025-01-23 19:28:41.020037	192.7	52.9	-92.1	8.3
2025-01-23 19:28:42.167784	193.2	53.2	-92.0	15.1
2025-01-23 19:28:43.318944	193.6	53.6	-91.7	14.2
2025-01-23 19:28:44.464180	194.1	53.9	-92.2	8.4
2025-01-23 19:28:45.615681	194.5	54.3	-92.3	8.6
2025-01-23 19:28:46.762504	195.0	54.6	-92.0	13.8
2025-01-23 19:28:47.906043	195.5	54.9	-91.9	13.8
2025-01-23 19:28:49.056811	196.0	55.3	-91.9	13.9
2025-01-23 19:28:50.201118	196.5	55.6	-91.9	18.5
2025-01-23 19:28:51.350820	197.0	56.0	-91.8	17.4
2025-01-23 19:28:52.496366	197.5	56.3	-92.3	13.7
2025-01-23 19:28:53.642499	198.1	56.6	-92.0	17.4
2025-01-23 19:28:54.792418	198.6	57.0	-92.1	17.3
2025-01-23 19:28:55.935391	199.2	57.3	-92.2	15.4
2025-01-23 19:28:57.081266	199.8	57.7	-91.7	15.0
2025-01-23 19:28:58.230561	200.4	58.0	-92.1	11.8
2025-01-23 19:28:59.375649	201.0	58.3	-92.1	16.8
2025-01-23 19:29:00.525776	201.6	58.7	-92.0	12.5
2025-01-23 19:29:01.670064	202.3	59.0	-92.4	6.3
2025-01-23 19:29:02.819330	202.9	59.3	-92.6	10.7
2025-01-23 19:29:03.962338	203.6	59.7	-91.9	9.4
2025-01-23 19:29:05.113664	204.3	60.0	-91.7	13.8
2025-01-23 19:29:06.257843	205.0	60.3	-91.8	14.7
2025-01-23 19:29:07.407982	205.7	60.6	-91.8	9.2
2025-01-23 19:29:08.557153	206.5	61.0	-92.3	6.1
2025-01-23 19:29:09.708312	207.3	61.3	-92.4	21.4
2025-01-23 19:29:10.858589	208.1	61.6	-92.5	12.4
2025-01-23 19:29:12.001936	208.9	61.9	-91.3	10.7
2025-01-23 19:29:13.153099	209.7	62.2	-91.9	17.6
2025-01-23 19:29:14.302281	210.6	62.5	-92.1	20.6
2025-01-23 19:29:15.449902	211.4	62.8	-92.6	23.1
2025-01-23 19:29:16.597283	212.3	63.1	-91.8	16.1
2025-01-23 19:29:17.743308	213.2	63.4	-92.2	22.4
2025-01-23 19:29:18.893533	214.2	63.7	-92.4	20.4
2025-01-23 19:29:20.045287	215.2	64.0	-91.9	19.4
2025-01-23 19:29:21.194140	216.1	64.3	-92.0	21.7
2025-01-23 19:29:22.336330	217.2	64.5	-92.1	21.4
2025-01-23 19:29:23.483677	218.2	64.8	-92.2	13.3
2025-01-23 19:29:24.635850	219.3	65.1	-92.5	19.2
2025-01-23 19:29:25.783823	220.3	65.3	-92.3	21.0
2025-01-23 19:29:26.929582	221.4	65.6	-92.2	17.0
2025-01-23 19:29:28.075996	222.6	65.8	-92.0	12.8
2025-01-23 19:29:29.224015	223.7	66.0	-91.6	18.3
2025-01-23 19:29:30.372836	224.9	66.3	-92.1	13.9
2025-01-23 19:29:31.522776	226.1	66.5	-92.3	22.5
2025-01-23 19:29:32.674689	227.4	66.7	-92.1	21.4
2025-01-23 19:29:33.818388	228.6	66.9	-92.1	16.6
2025-01-23 19:29:34.966329	229.9	67.0	-92.6	13.4
2025-01-23 19:29:36.118349	231.2	67.2	-92.1	17.8
2025-01-23 19:29:37.262334	232.5	67.4	-92.0	22.6
2025-01-23 19:29:38.409439	233.8	67.5	-91.8	15.0
2025-01-23 19:29:39.562996	235.2	67.7	-92.4	19.1
2025-01-23 19:29:40.713124	236.6	67.8	-92.1	19.3
2025-01-23 19:29:41.863391	238.0	67.9	-92.2	21.4
2025-01-23 19:29:43.010947	239.4	68.0	-92.4	14.5
2025-01-23 19:29:44.159256	240.8	68.1	-91.6	21.6
2025-01-23 19:29:45.306401	242.2	68.2	-91.8	22.0
2025-01-23 19:29:46.450429	243.6	68.3	-91.8	13.7
2025-01-23 19:29:47.592951	245.1	68.3	-91.3	12.0
2025-01-23 19:29:48.740876	246.5	68.4	-92.0	19.7
2025-01-23 19:29:49.887838	248.0	68.4	-92.0	11.6
2025-01-23 19:29:51.033086	249.5	68.4	-92.2	14.0
2025-01-23 19:29:52.179731	250.9	68.4	-91.6	21.3
2025-01-23 19:29:53.321339	252.4	68.4	-91.5	23.4
2025-01-23 19:29:54.466276	253.9	68.4	-92.1	13.5
2025-01-23 19:29:55.609640	255.3	68.4	-92.1	20.7
2025-01-23 19:29:56.758986	256.8	68.3	-92.2	21.9
2025-01-23 19:29:57.907063	258.2	68.3	-92.0	16.1
2025-01-23 19:29:59.056726	259.7	68.2	-91.7	15.0
2025-01-23 19:30:00.201674	261.1	68.1	-92.2	19.0
2025-01-23 19:30:01.350157	262.5	68.0	-91.8	24.8
2025-01-23 19:30:02.497464	263.9	67.9	-91.5	18.6
2025-01-23 19:30:03.645039	265.3	67.8	-91.9	25.7
2025-01-23 19:30:04.797972	266.7	67.6	-92.3	28.4
2025-01-23 19:30:05.944012	268.0	67.5	-92.1	21.9
2025-01-23 19:30:07.090818	269.4	67.3	-91.9	21.2
2025-01-23 19:30:08.235388	270.7	67.2	-92.0	25.8
2025-01-23 19:30:09.384939	272.0	67.0	-92.0	24.7
2025-01-23 19:30:10.532363	273.2	66.8	-91.9	25.4
2025-01-23 19:30:11.679146	274.5	66.6	-91.8	22.5
2025-01-23 19:30:12.832175	275.7	66.4	-92.0	24.8
2025-01-23 19:30:13.979593	276.9	66.2	-91.9	21.9
2025-01-23 19:30:15.129279	278.1	66.0	-91.6	21.4
2025-01-23 19:30:16.276064	279.2	65.8	-92.2	23.1
2025-01-23 19:30:17.421482	280.4	65.5	-92.3	20.5
2025-01-23 19:30:18.561072	281.5	65.3	-92.3	20.0
2025-01-23 19:30:19.706196	282.5	65.0	-92.3	14.3
2025-01-23 19:30:20.854668	283.6	64.8	-92.0	8.4
2025-01-23 19:30:21.999986	284.6	64.5	-92.5	10.7
2025-01-23 19:30:23.147162	285.6	64.2	-91.8	11.3
2025-01-23 19:30:24.297490	286.6	63.9	-91.8	12.4
2025-01-23 19:30:25.442216	287.6	63.7	-92.7	6.3
2025-01-23 19:30:26.589118	288.5	63.4	-92.4	10.9
2025-01-23 19:30:27.736618	289.4	63.1	-92.2	14.7
2025-01-23 19:30:28.881168	290.3	62.8	-92.4	13.1
2025-01-23 19:30:30.030384	291.2	62.5	-92.4	13.2
2025-01-23 19:30:31.174617	292.0	62.2	-91.7	11.0
2025-01-23 19:30:32.323449	292.9	61.9	-91.7	12.9
2025-01-23 19:30:33.470844	293.7	61.5	-92.5	15.8
2025-01-23 19:30:34.620613	294.4	61.2	-92.1	18.9
2025-01-23 19:30:35.771509	295.2	60.9	-92.1	13.0
2025-01-23 19:30:36.917495	296.0	60.6	-92.6	16.5
2025-01-23 19:30:38.065312	296.7	60.3	-92.1	16.9
2025-01-23 19:30:39.202515	297.4	59.9	-91.8	18.0
2025-01-23 19:30:40.351206	298.1	59.6	-92.2	17.5
2025-01-23 19:30:41.495392	298.8	59.3	-91.7	16.5
2025-01-23 19:30:42.642375	299.4	58.9	-92.2	20.1
2025-01-23 19:30:43.790745	300.1	58.6	-92.5	18.9
2025-01-23 19:30:44.943047	300.7	58.3	-92.5	15.3
2025-01-23 19:30:46.093545	301.3	57.9	-92.0	16.3
2025-01-23 19:30:47.240782	301.9	57.6	-92.0	19.9
2025-01-23 19:30:48.394334	302.5	57.2	-91.9	16.4
2025-01-23 19:30:49.555764	303.1	56.9	-92.2	16.9
2025-01-23 19:30:50.703728	303.6	56.6	-92.0	19.6
2025-01-23 19:30:51.853082	304.2	56.2	-92.2	18.5
2025-01-23 19:30:52.997323	304.7	55.9	-92.2	14.6
2025-01-23 19:30:54.146174	305.2	55.5	-92.4	21.2
2025-01-23 19:30:55.298463	305.7	55.2	-92.1	21.7
2025-01-23 19:30:56.445265	306.2	54.9	-91.8	12.0
2025-01-23 19:30:57.597592	306.7	54.5	-92.2	15.2
2025-01-23 19:30:58.745212	307.1	54.2	-92.4	17.7
2025-01-23 19:30:59.894009	307.6	53.8	-92.6	15.7
2025-01-23 19:31:01.037156	308.0	53.5	-92.7	12.2
2025-01-23 19:31:02.190018	308.5	53.2	-92.4	13.6
2025-01-23 19:31:03.341781	308.9	52.8	-92.5	14.5
2025-01-23 19:31:04.488562	309.3	52.5	-92.0	9.7
2025-01-23 19:31:05.635004	309.7	52.1	-92.4	14.8
2025-01-23 19:31:06.778747	310.1	51.8	-92.5	17.0
2025-01-23 19:31:07.925197	310.5	51.5	-92.4	11.1
2025-01-23 19:31:09.075669	310.9	51.1	-92.2	7.8
2025-01-23 19:31:10.219319	311.3	50.8	-92.0	12.3
2025-01-23 19:31:11.367449	311.6	50.5	-91.9	13.3
2025-01-23 19:31:12.517687	312.0	50.1	-92.4	10.7
2025-01-23 19:31:13.663147	312.3	49.8	-92.4	13.1
2025-01-23 19:31:14.808879	312.7	49.5	-92.2	13.7
2025-01-23 19:31:15.959421	313.0	49.2	-92.0	13.9
2025-01-23 19:31:17.105784	313.4	48.8	-92.2	15.8
2025-01-23 19:31:18.258216	313.7	48.5	-92.1	17.6
2025-01-23 19:31:19.403999	314.0	48.2	-91.9	12.9
2025-01-23 19:31:20.550853	314.3	47.9	-92.3	14.8
2025-01-23 19:31:21.695815	314.6	47.5	-92.5	13.4
2025-01-23 19:31:22.846073	314.9	47.2	-92.1	15.7
2025-01-23 19:31:23.993204	315.2	46.9	-92.5	9.8
2025-01-23 19:31:25.138771	315.5	46.6	-92.1	12.8
2025-01-23 19:31:26.285101	315.7	46.3	-91.9	18.0
2025-01-23 19:31:27.433228	316.0	46.0	-92.3	8.1
2025-01-23 19:31:28.582468	316.3	45.7	-92.4	11.7
2025-01-23 19:31:29.727540	316.6	45.4	-92.4	10.9
2025-01-23 19:31:30.875989	316.8	45.0	-92.3	11.7
2025-01-23 19:31:32.027246	317.1	44.7	-92.4	12.4
2025-01-23 19:31:33.176603	317.3	44.4	-92.2	16.5
2025-01-23 19:31:34.321925	317.6	44.1	-92.0	19.1
2025-01-23 19:31:35.469254	317.8	43.8	-92.7	13.1
2025-01-23 19:31:36.615427	318.0	43.5	-92.0	11.2
2025-01-23 19:31:37.764413	318.3	43.2	-92.5	12.8
2025-01-23 19:31:38.920548	318.5	42.9	-92.5	14.3
2025-01-23 19:31:40.070155	318.7	42.7	-92.2	20.1
2025-01-23 19:31:41.216502	318.9	42.4	-92.3	19.8
2025-01-23 19:31:42.366186	319.2	42.1	-92.3	16.2
2025-01-23 19:31:43.511443	319.4	41.8	-91.9	16.8
2025-01-23 19:31:44.656420	319.6	41.5	-92.1	16.8
2025-01-23 19:31:45.806496	319.8	41.2	-92.5	16.7
2025-01-23 19:31:46.949073	320.0	40.9	-92.1	12.2
2025-01-23 19:31:48.097469	320.2	40.7	-92.5	10.6
2025-01-23 19:31:49.243946	320.4	40.4	-92.7	12.9
2025-01-23 19:31:50.392762	320.6	40.1	-92.5	12.5
2025-01-23 19:31:51.537306	320.8	39.8	-92.5	12.2
2025-01-23 19:31:52.684705	320.9	39.6	-92.7	16.4
2025-01-23 19:31:53.832691	321.1	39.3	-92.4	18.2
2025-01-23 19:31:54.976639	321.3	39.0	-92.6	12.3
2025-01-23 19:31:56.128051	321.5	38.8	-92.5	15.8
2025-01-23 19:31:57.271905	321.7	38.5	-92.1	15.0
2025-01-23 19:31:58.421151	321.8	38.2	-92.5	10.9
2025-01-23 19:31:59.570079	322.0	38.0	-92.8	14.8
2025-01-23 19:32:00.714727	322.2	37.7	-92.7	17.3
2025-01-23 19:32:01.865108	322.3	37.4	-92.6	15.1
2025-01-23 19:32:03.012151	322.5	37.2	-92.7	12.0
2025-01-23 19:32:04.166955	322.6	36.9	-92.5	14.1
2025-01-23 19:32:05.307949	322.8	36.7	-92.2	17.8
2025-01-23 19:32:06.461517	323.0	36.4	-92.5	5.9
2025-01-23 19:32:07.608949	323.1	36.2	-92.7	13.5
2025-01-23 19:32:08.758007	323.3	35.9	-92.4	12.5
2025-01-23 19:32:09.901160	323.4	35.7	-92.7	5.2
2025-01-23 19:32:11.048309	323.5	35.4	-92.5	4.9
2025-01-23 19:32:12.201304	323.7	35.2	-92.4	14.2
2025-01-23 19:32:13.348372	323.8	35.0	-92.1	13.7
2025-01-23 19:32:14.497229	324.0	34.7	-92.0	9.5
2025-01-23 19:32:15.645825	324.1	34.5	-92.4	18.7
2025-01-23 19:32:16.789647	324.2	34.2	-92.3	18.8
2025-01-23 19:32:17.937701	324.4	34.0	-92.4	15.8
2025-01-23 19:32:19.088649	324.5	33.8	-91.3	12.1
2025-01-23 19:32:20.235920	324.6	33.5	-92.4	19.0
2025-01-23 19:32:21.386488	324.8	33.3	-92.0	15.0
2025-01-23 19:32:22.532027	324.9	33.1	-92.4	18.6
2025-01-23 19:32:23.680806	325.0	32.9	-92.7	13.5
2025-01-23 19:32:24.825253	325.1	32.6	-92.0	17.8
2025-01-23 19:32:25.972529	325.3	32.4	-92.8	5.8
2025-01-23 19:32:27.111798	325.4	32.2	-92.3	8.1
2025-01-23 19:32:28.260128	325.5	32.0	-92.0	12.0
2025-01-23 19:32:29.407144	325.6	31.7	-92.7	9.9
2025-01-23 19:32:30.554159	325.7	31.5	-92.8	10.8
2025-01-23 19:32:31.701442	325.8	31.3	-92.5	5.6
2025-01-23 19:32:32.851459	326.0	31.1	-92.4	20.5
2025-01-23 19:32:34.000941	326.1	30.9	-92.6	16.4
2025-01-23 19:32:35.144741	326.2	30.7	-91.7	17.1
2025-01-23 19:32:36.291493	326.3	30.5	-92.0	14.8
2025-01-23 19:32:37.438238	326.4	30.2	-92.8	10.7
2025-01-23 19:32:38.590614	326.5	30.0	-92.4	3.7
2025-01-23 19:32:39.733863	326.6	29.8	-92.2	12.0
2025-01-23 19:32:40.884882	326.7	29.6	-92.4	4.9
2025-01-23 19:32:42.031155	326.8	29.4	-92.5	3.9
2025-01-23 19:32:43.167800	326.9	29.2	-92.1	7.4
2025-01-23 19:32:44.314545	327.0	29.0	-92.0	6.3
2025-01-23 19:32:45.461438	327.1	28.8	-92.4	6.8
2025-01-23 19:32:46.611765	327.2	28.6	-92.3	7.6
2025-01-23 19:32:47.757559	327.3	28.4	-92.4	8.4
2025-01-23 19:32:48.904766	327.4	28.2	-92.4	6.9
2025-01-23 19:32:50.053552	327.5	28.0	-92.2	2.9
2025-01-23 19:32:51.198320	327.6	27.8	-91.9	4.3
2025-01-23 19:32:52.348569	327.7	27.7	-92.2	6.6
2025-01-23 19:32:53.493354	327.8	27.5	-92.4	6.5
2025-01-23 19:32:54.640251	327.8	27.3	-92.6	10.6
2025-01-23 19:32:55.798309	327.9	27.1	-92.3	7.1
2025-01-23 19:32:56.946063	328.0	26.9	-92.6	8.2
2025-01-23 19:32:58.094193	328.1	26.7	-92.1	7.2
2025-01-23 19:32:59.241369	328.2	26.5	-92.4	10.0
2025-01-23 19:33:00.389651	328.3	26.3	-92.7	4.0
2025-01-23 19:33:01.535790	328.4	26.2	-92.4	7.3
2025-01-23 19:33:02.683009	328.5	26.0	-92.7	12.1
2025-01-23 19:33:03.830059	328.5	25.8	-92.6	9.0
2025-01-23 19:33:04.977228	328.6	25.6	-92.0	7.6
2025-01-23 19:33:06.125719	328.7	25.4	-92.5	7.2
2025-01-23 19:33:07.275179	328.8	25.3	-92.5	11.8
2025-01-23 19:33:08.423764	328.9	25.1	-91.8	5.6
2025-01-23 19:33:09.570449	328.9	24.9	-92.7	2.7
2025-01-23 19:33:10.716351	329.0	24.7	-92.2	10.3
2025-01-23 19:33:11.865533	329.1	24.6	-92.6	5.0
2025-01-23 19:33:13.022828	329.2	24.4	-92.8	5.0
2025-01-23 19:33:14.172529	329.2	24.2	-91.9	11.3
2025-01-23 19:33:15.319217	329.3	24.1	-92.1	7.5
2025-01-23 19:33:16.465524	329.4	23.9	-92.0	4.6
2025-01-23 19:33:17.612007	329.5	23.7	-92.1	5.2
2025-01-23 19:33:18.761379	329.5	23.6	-92.5	11.5
2025-01-23 19:33:19.906218	329.6	23.4	-92.8	10.3
2025-01-23 19:33:21.053236	329.7	23.2	-92.5	4.5
2025-01-23 19:33:22.195727	329.7	23.1	-92.5	4.6
2025-01-23 19:33:23.342281	329.8	22.9	-92.8	6.7
2025-01-23 19:33:24.483366	329.9	22.7	-92.3	7.3
2025-01-23 19:33:25.633693	329.9	22.6	-92.4	4.4
2025-01-23 19:33:26.779424	330.0	22.4	-92.6	7.5
2025-01-23 19:33:27.926232	330.1	22.3	-92.2	7.5
2025-01-23 19:33:29.073098	330.1	22.1	-92.1	6.0
2025-01-23 19:33:30.219645	330.2	22.0	-91.9	6.4
2025-01-23 19:33:31.367876	330.3	21.8	-92.4	12.9
2025-01-23 19:33:32.513786	330.3	21.6	-92.5	4.8
2025-01-23 19:33:33.666153	330.4	21.5	-92.4	9.6
2025-01-23 19:33:34.812935	330.5	21.3	-92.5	9.6
2025-01-23 19:33:35.962472	330.5	21.2	-91.8	14.3
2025-01-23 19:33:37.113953	330.6	21.0	-92.1	7.7
2025-01-23 19:33:38.261595	330.7	20.9	-92.2	6.2
2025-01-23 19:33:39.407191	330.7	20.7	-92.7	6.2
2025-01-23 19:33:40.556052	330.8	20.6	-92.0	7.0
2025-01-23 19:33:41.702843	330.8	20.4	-92.3	5.4
2025-01-23 19:33:42.856825	330.9	20.3	-92.5	6.5
2025-01-23 19:33:44.001554	331.0	20.1	-92.2	3.3
2025-01-23 19:33:45.148095	331.0	20.0	-92.0	4.0
2025-01-23 19:33:46.300633	331.1	19.9	-92.2	4.5
2025-01-23 19:33:47.447151	331.1	19.7	-92.0	3.7
2025-01-23 19:33:48.595554	331.2	19.6	-92.4	4.6
2025-01-23 19:33:49.743638	331.2	19.4	-92.5	5.5
2025-01-23 19:33:50.893867	331.3	19.3	-92.5	4.5
2025-01-23 19:33:52.041265	331.4	19.1	-92.8	5.2
2025-01-23 19:33:53.192139	331.4	19.0	-91.9	5.6
2025-01-23 19:33:54.336093	331.5	18.9	-92.3	5.7
2025-01-23 19:33:55.485916	331.5	18.7	-92.5	5.1
2025-01-23 19:33:56.637565	331.6	18.6	-92.1	5.4
2025-01-23 19:33:57.780316	331.6	18.5	-92.3	5.5
2025-01-23 19:33:58.925573	331.7	18.3	-92.4	3.9
2025-01-23 19:34:00.074612	331.7	18.2	-91.8	4.4
2025-01-23 19:34:01.216737	331.8	18.1	-91.9	4.0
2025-01-23 19:34:02.372488	331.8	17.9	-92.3	3.8
2025-01-23 19:34:03.513345	331.9	17.8	-92.1	4.0
2025-01-23 19:34:04.660803	331.9	17.7	-92.3	3.1
2025-01-23 19:34:05.808742	332.0	17.5	-92.8	4.2
2025-01-23 19:34:06.957368	332.0	17.4	-92.3	5.7
2025-01-23 19:34:08.107762	332.1	17.3	-92.1	4.2
2025-01-23 19:34:09.253657	332.1	17.1	-92.2	5.3
2025-01-23 19:34:10.401307	332.2	17.0	-92.5	5.2
2025-01-23 19:34:11.549950	332.2	16.9	-92.3	4.6
2025-01-23 19:34:12.696496	332.3	16.7	-92.5	5.8
2025-01-23 19:34:13.846773	332.3	16.6	-92.7	5.3
2025-01-23 19:34:14.988111	332.4	16.5	-92.3	5.6
2025-01-23 19:34:16.133913	332.4	16.4	-92.2	7.4
2025-01-23 19:34:17.274341	332.5	16.2	-92.1	4.8
2025-01-23 19:34:18.419183	332.5	16.1	-91.8	3.2
2025-01-23 19:34:19.566522	332.6	16.0	-91.8	3.8
2025-01-23 19:34:20.712041	332.6	15.9	-91.9	4.6
2025-01-23 19:34:21.859969	332.7	15.7	-92.1	4.4
2025-01-23 19:34:23.002048	332.7	15.6	-92.2	5.9
2025-01-23 19:34:24.149371	332.7	15.5	-91.7	8.0
2025-01-23 19:34:25.306887	332.8	15.4	-91.5	9.0
2025-01-23 19:34:26.446872	332.8	15.3	-92.2	8.0
2025-01-23 19:34:27.593816	332.9	15.1	-92.0	10.2
2025-01-23 19:34:28.747032	332.9	15.0	-92.1	10.0
2025-01-23 19:34:29.897411	333.0	14.9	-92.6	9.9
2025-01-23 19:34:31.044711	333.0	14.8	-92.3	9.7
2025-01-23 19:34:32.193296	333.1	14.7	-91.8	6.4
2025-01-23 19:34:33.335629	333.1	14.6	-92.3	4.8
#Closed at: 2025-01-23 19:25:20.126371