passes_logs/2026/01/19/R2.0S_Moscow/R2.0S_Moscow__20260119_225105_FENGYUN_3G_rec.log

#Pass ID: 20260119_225105_FENGYUN 3G
#Satellite: FENGYUN 3G
#Configuration: FENGYUN 3G
#almurnet v.1.7.20251203
#Start time: 2026-01-19 22:51:06

#Version: 2.2.20231116
#Station: R2.0S_Moscow
#Location: 37.707566 lon 55.798166 lat
#TLE: 1 56232U 23055A   26019.29402138  .00031930  00000+0  49376-3 0  9997
#TLE: 2 56232  49.9940  33.7754 0004164  48.8313 311.3013 15.53733440156869

#Time	Az	El	Level	Level2	SNR	BER	BlckErr	Temp	State	Recorded	gain1	gain2
2026-01-19 22:51:06.92	262.49	2.11	-44.1	-62.2	3.8	8.45e-01	0	52	0	0	60	27905
2026-01-19 22:51:07.92	262.41	2.18	-44.1	-62.2	3.8	8.43e-01	0	52	104	0	60	27827
2026-01-19 22:51:08.93	262.33	2.24	-44.1	-62.2	3.8	8.46e-01	0	53	104	0	60	27715
2026-01-19 22:51:09.94	262.25	2.30	-44.1	-62.2	3.8	8.45e-01	0	53	104	0	60	27733
2026-01-19 22:51:10.95	262.17	2.37	-44.1	-62.1	3.8	8.45e-01	0	53	104	0	60	27548
2026-01-19 22:51:11.96	262.09	2.43	-44.1	-62.1	3.8	8.46e-01	0	53	104	0	60	27557
2026-01-19 22:51:12.98	262.00	2.50	-44.1	-62.1	3.8	8.45e-01	0	53	104	0	60	27587
2026-01-19 22:51:13.99	261.92	2.57	-44.1	-62.1	3.8	8.45e-01	0	53	104	0	60	27475
2026-01-19 22:51:15.00	261.84	2.63	-44.1	-62.0	3.8	8.47e-01	0	53	104	0	60	27365
2026-01-19 22:51:16.01	261.75	2.70	-44.1	-62.0	3.8	8.46e-01	0	53	104	0	60	27267
2026-01-19 22:51:17.02	261.67	2.76	-44.1	-62.0	3.8	8.46e-01	0	53	104	0	60	27387
2026-01-19 22:51:18.03	261.58	2.83	-44.1	-62.1	3.8	8.47e-01	0	53	104	0	60	27426
2026-01-19 22:51:19.04	261.50	2.89	-44.1	-62.1	3.8	8.46e-01	0	53	104	0	60	27405
2026-01-19 22:51:20.05	261.41	2.96	-44.1	-62.1	3.8	8.46e-01	0	53	104	0	60	27496
2026-01-19 22:51:21.06	261.32	3.03	-44.1	-62.1	3.8	8.45e-01	0	54	104	0	60	27626
2026-01-19 22:51:22.07	261.23	3.09	-44.1	-62.2	3.8	8.46e-01	0	53	104	0	60	27800
2026-01-19 22:51:23.08	261.15	3.16	-44.1	-62.2	3.8	8.46e-01	0	53	104	0	60	27844
2026-01-19 22:51:24.09	261.06	3.23	-44.1	-62.2	3.8	8.46e-01	0	54	104	0	60	27877
2026-01-19 22:51:25.10	260.97	3.30	-44.1	-62.2	3.8	8.45e-01	0	54	104	0	60	27834
2026-01-19 22:51:26.11	260.88	3.36	-44.1	-62.2	3.8	8.47e-01	0	53	104	0	60	27845
2026-01-19 22:51:27.12	260.78	3.43	-44.1	-62.2	3.8	8.47e-01	0	54	104	0	60	27858
2026-01-19 22:51:28.13	260.69	3.50	-44.1	-62.1	3.8	8.47e-01	0	54	104	0	60	27558
2026-01-19 22:51:29.14	260.60	3.57	-44.1	-61.9	3.8	8.45e-01	0	54	104	0	60	26988
2026-01-19 22:51:30.15	260.51	3.64	-44.1	-61.8	3.8	8.45e-01	0	54	104	0	60	26594
2026-01-19 22:51:31.16	260.41	3.70	-44.1	-61.6	3.8	8.46e-01	0	54	104	0	60	26142
2026-01-19 22:51:32.17	260.32	3.77	-44.1	-61.6	3.8	8.45e-01	0	54	104	0	60	26044
2026-01-19 22:51:33.18	260.23	3.84	-44.1	-61.6	3.8	8.47e-01	0	54	104	0	60	25926
2026-01-19 22:51:34.19	260.13	3.91	-44.1	-61.7	3.8	8.47e-01	0	54	104	0	60	26331
2026-01-19 22:51:35.20	260.03	3.98	-44.1	-61.9	3.8	8.46e-01	0	54	104	0	60	26951
2026-01-19 22:51:36.21	259.94	4.05	-44.1	-62.0	3.8	8.46e-01	0	54	104	0	60	27215
2026-01-19 22:51:37.22	259.84	4.12	-44.1	-62.1	3.8	8.46e-01	0	54	104	0	60	27446
2026-01-19 22:51:38.23	259.74	4.19	-44.1	-62.1	3.8	8.45e-01	0	54	104	0	60	27641
2026-01-19 22:51:39.25	259.64	4.26	-44.1	-62.1	3.8	8.47e-01	0	55	104	0	60	27615
2026-01-19 22:51:40.26	259.54	4.33	-44.1	-62.2	3.8	8.47e-01	0	54	104	0	60	27726
2026-01-19 22:51:41.27	259.44	4.40	-44.1	-62.1	3.8	8.47e-01	0	54	104	0	60	27698
2026-01-19 22:51:42.28	259.34	4.47	-44.1	-62.1	3.8	8.46e-01	0	55	104	0	60	27594
2026-01-19 22:51:43.29	259.24	4.54	-44.1	-62.0	3.8	8.46e-01	0	55	104	0	60	27360
2026-01-19 22:51:44.30	259.14	4.61	-44.1	-62.1	3.8	8.46e-01	0	55	104	0	60	27425
2026-01-19 22:51:45.31	259.04	4.69	-44.1	-62.1	3.8	8.45e-01	0	55	104	0	60	27619
2026-01-19 22:51:46.32	258.93	4.76	-44.1	-62.0	3.8	8.46e-01	0	55	104	0	60	27155
2026-01-19 22:51:47.33	258.83	4.83	-44.1	-61.6	3.8	8.46e-01	0	55	104	0	60	26097
2026-01-19 22:51:48.34	258.72	4.90	-44.1	-61.4	3.8	8.46e-01	0	55	104	0	60	25449
2026-01-19 22:51:49.35	258.62	4.98	-44.1	-61.0	3.8	8.47e-01	0	55	104	0	60	24208
2026-01-19 22:51:50.36	258.51	5.05	-44.1	-60.8	3.8	8.47e-01	0	55	104	0	60	23614
2026-01-19 22:51:51.38	258.40	5.12	-44.0	-60.5	3.8	8.46e-01	0	55	104	0	60	23011
2026-01-19 22:51:52.39	258.29	5.19	-44.1	-60.4	3.8	8.45e-01	0	55	104	0	60	22686
2026-01-19 22:51:53.39	258.18	5.27	-44.1	-60.7	3.8	8.45e-01	0	55	104	0	60	23359
2026-01-19 22:51:54.41	258.07	5.34	-44.1	-61.1	3.8	8.45e-01	0	55	104	0	60	24546
2026-01-19 22:51:55.42	257.96	5.42	-44.1	-61.4	3.8	8.46e-01	0	55	104	0	60	25356
2026-01-19 22:51:56.43	257.85	5.49	-44.1	-61.8	3.8	8.46e-01	0	55	104	0	60	26717
2026-01-19 22:51:57.44	257.74	5.56	-44.1	-62.0	3.8	8.47e-01	0	55	104	0	60	27079
2026-01-19 22:51:58.45	257.62	5.64	-44.1	-61.9	3.8	8.47e-01	0	56	104	0	60	26911
2026-01-19 22:51:59.46	257.51	5.71	-44.1	-61.4	3.8	8.46e-01	0	55	104	0	60	25553
2026-01-19 22:52:00.47	257.40	5.79	-44.1	-61.1	3.8	8.46e-01	0	56	104	0	60	24602
2026-01-19 22:52:01.48	257.28	5.86	-44.1	-60.7	3.8	8.47e-01	0	56	104	0	60	23507
2026-01-19 22:52:02.49	257.16	5.94	-44.0	-60.1	3.8	8.45e-01	0	56	104	0	60	21949
2026-01-19 22:52:03.50	257.05	6.02	-44.0	-59.9	3.8	8.45e-01	0	56	104	0	60	21466
2026-01-19 22:52:04.51	256.93	6.09	-44.0	-59.7	3.9	8.44e-01	0	56	104	0	60	20830
2026-01-19 22:52:05.52	256.81	6.17	-44.0	-59.2	4.0	8.43e-01	0	56	0	0	60	19814
2026-01-19 22:52:06.53	256.69	6.24	-44.0	-58.9	4.1	8.43e-01	0	56	0	0	60	19099
2026-01-19 22:52:07.54	256.57	6.32	-44.0	-58.7	4.2	8.41e-01	0	56	0	0	60	18688
2026-01-19 22:52:08.55	256.44	6.40	-44.1	-58.1	4.3	8.38e-01	0	56	0	0	59	18383
2026-01-19 22:52:09.56	256.32	6.48	-44.0	-57.7	4.5	8.38e-01	0	56	0	0	59	17587
2026-01-19 22:52:10.57	256.20	6.55	-44.0	-56.8	4.9	8.29e-01	0	56	0	0	59	15863
2026-01-19 22:52:11.58	256.07	6.63	-43.9	-55.7	5.5	7.92e-01	0	56	0	0	59	14033
2026-01-19 22:52:12.59	255.95	6.71	-43.8	-54.6	6.4	5.36e-01	0	56	0	524288	59	12355
2026-01-19 22:52:13.60	255.82	6.79	-43.6	-53.3	7.5	5.36e-01	0	56	0	2097152	59	10646
2026-01-19 22:52:14.61	255.69	6.87	-43.5	-52.6	8.3	1.42e-01	0	56	0	3145728	59	9794
2026-01-19 22:52:15.62	255.56	6.95	-43.4	-52.0	8.9	4.82e-02	0	56	0	4194304	58	9609
2026-01-19 22:52:16.63	255.44	7.02	-43.4	-51.9	9.0	4.82e-02	0	56	0	5242880	58	9572
2026-01-19 22:52:17.65	255.30	7.10	-43.5	-52.1	8.8	2.21e-02	0	56	0	6291456	58	9813
2026-01-19 22:52:18.66	255.17	7.18	-43.6	-53.2	7.7	3.09e-02	0	57	0	7340032	58	11092
2026-01-19 22:52:19.67	255.04	7.26	-43.8	-54.9	6.3	3.09e-02	0	56	0	8388608	58	13510
2026-01-19 22:52:20.68	254.91	7.34	-44.1	-58.0	4.4	1.43e-01	0	56	0	8912896	58	19259
2026-01-19 22:52:21.69	254.77	7.43	-44.1	-60.9	3.8	7.65e-01	0	56	104	8912896	58	27066
2026-01-19 22:52:22.70	254.63	7.51	-44.0	-57.9	4.4	7.65e-01	0	56	0	8912896	58	19076
2026-01-19 22:52:23.71	254.50	7.59	-43.6	-53.4	7.4	8.43e-01	0	57	0	9437184	58	11360
2026-01-19 22:52:24.72	254.36	7.67	-43.1	-50.2	10.7	3.60e-01	0	56	0	10485760	58	7868
2026-01-19 22:52:25.73	254.22	7.75	-42.5	-48.2	12.8	5.23e-03	0	57	0	11534336	57	6635
2026-01-19 22:52:26.74	254.08	7.83	-42.0	-47.0	14.1	5.23e-03	0	57	0	12582912	56	6104
2026-01-19 22:52:27.75	253.94	7.91	-41.6	-46.2	14.8	2.74e-05	0	57	0	13631488	55	5869
2026-01-19 22:52:28.76	253.80	8.00	-41.6	-46.2	14.7	0.00e+00	0	57	0	14680064	55	5895
2026-01-19 22:52:29.77	253.65	8.08	-42.1	-47.2	14.0	0.00e+00	0	57	0	16252928	55	6641
2026-01-19 22:52:30.78	253.51	8.16	-42.6	-48.5	12.7	2.20e-06	0	57	0	17301504	55	7668
2026-01-19 22:52:31.79	253.36	8.25	-43.8	-55.0	7.8	1.26e-04	0	57	0	18350080	58	13587
2026-01-19 22:52:32.80	253.22	8.33	-43.0	-49.8	11.5	1.26e-04	0	57	0	18874368	57	7943
2026-01-19 22:52:33.81	253.07	8.41	-42.6	-48.8	12.8	3.31e-01	0	57	0	19922944	55	7990
2026-01-19 22:52:34.83	252.92	8.50	-41.4	-45.7	15.3	9.48e-03	0	57	0	20971520	54	5881
2026-01-19 22:52:35.84	252.77	8.58	-41.3	-45.4	15.6	4.57e-05	0	57	0	22544384	54	5716
2026-01-19 22:52:36.85	252.62	8.67	-41.2	-45.2	15.9	4.57e-05	0	57	0	23592960	54	5550
2026-01-19 22:52:37.85	252.46	8.75	-41.1	-45.0	16.1	0.00e+00	0	57	0	24641536	54	5439
2026-01-19 22:52:38.87	252.31	8.84	-41.0	-44.8	16.3	0.00e+00	0	57	0	25690112	54	5337
2026-01-19 22:52:39.87	252.15	8.92	-41.0	-44.8	16.3	0.00e+00	0	57	0	26738688	53	5618
2026-01-19 22:52:40.88	252.00	9.01	-40.9	-44.8	16.4	0.00e+00	0	57	0	27787264	53	5602
2026-01-19 22:52:41.89	251.84	9.09	-41.1	-45.0	16.2	0.00e+00	0	57	0	29360128	53	5749
2026-01-19 22:52:42.90	251.68	9.18	-41.0	-44.9	16.3	0.00e+00	0	57	0	30408704	53	5664
2026-01-19 22:52:43.91	251.52	9.27	-41.0	-44.8	16.3	0.00e+00	0	57	0	31457280	53	5653
2026-01-19 22:52:44.92	251.36	9.35	-41.0	-44.8	16.3	0.00e+00	0	57	0	32505856	53	5634
2026-01-19 22:52:45.93	251.19	9.44	-41.0	-44.8	16.3	0.00e+00	0	57	0	33554432	53	5648
2026-01-19 22:52:46.94	251.03	9.53	-40.9	-44.6	16.6	0.00e+00	0	57	0	34603008	53	5513
2026-01-19 22:52:47.95	250.86	9.62	-40.9	-44.6	16.6	0.00e+00	0	57	0	36175872	53	5479
2026-01-19 22:52:48.96	250.70	9.71	-41.0	-44.7	16.5	0.00e+00	0	57	0	37224448	53	5574
2026-01-19 22:52:49.97	250.53	9.79	-41.0	-44.8	16.4	0.00e+00	0	57	0	38273024	53	5596
2026-01-19 22:52:50.98	250.36	9.88	-41.0	-44.7	16.5	0.00e+00	0	57	0	39321600	53	5585
2026-01-19 22:52:51.99	250.19	9.97	-41.0	-44.7	16.5	0.00e+00	0	57	0	40370176	53	5581
2026-01-19 22:52:52.99	250.01	10.06	-40.9	-44.7	16.6	0.00e+00	0	57	0	41418752	53	5531
2026-01-19 22:52:54.00	249.84	10.15	-40.9	-44.5	16.7	0.00e+00	0	57	0	42991616	53	5461
2026-01-19 22:52:55.01	249.66	10.24	-40.9	-44.5	16.7	0.00e+00	0	57	0	44040192	53	5456
2026-01-19 22:52:56.02	249.49	10.33	-40.8	-44.4	16.9	0.00e+00	0	58	0	45088768	53	5367
2026-01-19 22:52:57.03	249.31	10.42	-40.7	-44.2	17.1	0.00e+00	0	57	0	46137344	53	5232
2026-01-19 22:52:58.04	249.13	10.51	-40.7	-44.2	17.1	0.00e+00	0	57	0	47185920	53	5228
2026-01-19 22:52:59.05	248.95	10.60	-40.7	-44.3	17.0	0.00e+00	0	58	0	48234496	53	5289
2026-01-19 22:53:00.06	248.76	10.69	-40.7	-44.2	17.0	0.00e+00	0	58	0	49807360	53	5265
2026-01-19 22:53:01.07	248.58	10.78	-40.7	-44.2	17.1	0.00e+00	0	58	0	50855936	53	5221
2026-01-19 22:53:02.08	248.39	10.88	-40.7	-44.1	17.1	0.00e+00	0	58	0	51904512	53	5206
2026-01-19 22:53:03.09	248.20	10.97	-40.6	-43.9	17.3	0.00e+00	0	58	0	52953088	53	5096
2026-01-19 22:53:04.10	248.01	11.06	-40.6	-43.9	17.4	0.00e+00	0	58	0	54001664	53	5075
2026-01-19 22:53:05.11	247.82	11.15	-40.5	-43.7	17.6	0.00e+00	0	58	0	55050240	52	5278
2026-01-19 22:53:06.12	247.63	11.25	-40.5	-43.8	17.6	0.00e+00	0	58	0	56098816	52	5286
2026-01-19 22:53:07.13	247.43	11.34	-40.4	-43.6	17.7	0.00e+00	0	58	0	57671680	52	5190
2026-01-19 22:53:08.14	247.24	11.43	-40.3	-43.5	17.9	0.00e+00	0	58	0	58720256	52	5125
2026-01-19 22:53:09.15	247.04	11.53	-40.3	-43.5	17.8	0.00e+00	0	58	0	59768832	52	5120
2026-01-19 22:53:10.16	246.84	11.62	-40.3	-43.4	17.9	0.00e+00	0	58	0	60817408	52	5074
2026-01-19 22:53:11.16	246.64	11.72	-40.3	-43.4	17.9	0.00e+00	0	58	0	61865984	52	5093
2026-01-19 22:53:12.17	246.44	11.81	-40.3	-43.5	17.9	0.00e+00	0	58	0	63438848	52	5124
2026-01-19 22:53:13.18	246.23	11.90	-40.3	-43.4	18.0	0.00e+00	0	58	0	64487424	52	5065
2026-01-19 22:53:14.19	246.03	12.00	-40.4	-43.6	17.8	0.00e+00	0	58	0	65536000	52	5166
2026-01-19 22:53:15.20	245.82	12.10	-40.3	-43.4	18.0	0.00e+00	0	58	0	66584576	52	5084
2026-01-19 22:53:16.21	245.61	12.19	-40.3	-43.4	18.0	0.00e+00	0	58	0	67633152	52	5085
2026-01-19 22:53:17.22	245.40	12.29	-40.3	-43.4	18.1	0.00e+00	0	58	0	68681728	52	5043
2026-01-19 22:53:18.23	245.18	12.38	-40.2	-43.2	18.1	0.00e+00	0	58	0	70254592	52	4983
2026-01-19 22:53:19.24	244.97	12.48	-40.0	-43.0	18.4	0.00e+00	0	58	0	71303168	52	4819
2026-01-19 22:53:20.25	244.75	12.58	-39.9	-42.8	18.7	0.00e+00	0	58	0	72351744	51	4998
2026-01-19 22:53:21.26	244.53	12.67	-40.0	-42.9	18.7	0.00e+00	0	58	0	73400320	51	5048
2026-01-19 22:53:22.27	244.31	12.77	-40.1	-43.0	18.5	0.00e+00	0	58	0	74448896	51	5135
2026-01-19 22:53:23.28	244.08	12.87	-40.1	-43.0	18.5	0.00e+00	0	58	0	75497472	51	5142
2026-01-19 22:53:24.28	243.86	12.96	-40.1	-43.1	18.5	0.00e+00	0	58	0	77070336	51	5182
2026-01-19 22:53:25.29	243.63	13.06	-40.2	-43.3	18.3	0.00e+00	0	58	0	78118912	51	5289
2026-01-19 22:53:26.30	243.40	13.16	-40.2	-43.2	18.3	0.00e+00	0	58	0	79167488	51	5265
2026-01-19 22:53:27.32	243.17	13.26	-40.3	-43.3	18.2	0.00e+00	0	58	0	80216064	51	5327
2026-01-19 22:53:28.32	242.94	13.36	-40.2	-43.2	18.4	0.00e+00	0	58	0	81264640	51	5244
2026-01-19 22:53:29.34	242.70	13.46	-40.2	-43.2	18.4	0.00e+00	0	58	0	82313216	51	5239
2026-01-19 22:53:30.34	242.47	13.56	-40.1	-43.1	18.5	0.00e+00	0	58	0	83886080	51	5174
2026-01-19 22:53:31.35	242.23	13.65	-40.1	-43.0	18.6	0.00e+00	0	58	0	84934656	51	5103
2026-01-19 22:53:32.36	241.99	13.75	-40.0	-42.8	18.8	0.00e+00	0	58	0	85983232	51	5009
2026-01-19 22:53:33.37	241.74	13.85	-39.9	-42.8	18.8	0.00e+00	0	58	0	87031808	51	4989
2026-01-19 22:53:34.38	241.50	13.95	-39.8	-42.6	19.0	0.00e+00	0	58	0	88080384	51	4899
2026-01-19 22:53:35.39	241.25	14.05	-39.9	-42.8	18.8	0.00e+00	0	58	0	89128960	51	4992
2026-01-19 22:53:36.40	241.00	14.15	-40.1	-43.0	18.5	0.00e+00	0	58	0	90701824	51	5136
2026-01-19 22:53:37.41	240.75	14.25	-40.0	-42.8	18.8	0.00e+00	0	59	0	91750400	51	5005
2026-01-19 22:53:38.42	240.49	14.35	-39.8	-42.5	19.1	0.00e+00	0	58	0	92798976	51	4830
2026-01-19 22:53:39.43	240.24	14.45	-39.8	-42.5	19.1	0.00e+00	0	59	0	93847552	51	4856
2026-01-19 22:53:40.44	239.98	14.55	-39.8	-42.5	19.2	0.00e+00	0	59	0	94896128	51	4826
2026-01-19 22:53:41.45	239.72	14.66	-39.8	-42.6	19.1	0.00e+00	0	58	0	95944704	51	4878
2026-01-19 22:53:42.46	239.45	14.76	-39.5	-42.2	19.5	0.00e+00	0	59	0	96993280	51	4660
2026-01-19 22:53:43.47	239.19	14.86	-39.3	-41.9	19.8	0.00e+00	0	58	0	98566144	50	4762
2026-01-19 22:53:44.48	238.92	14.96	-39.4	-41.9	19.8	0.00e+00	0	59	0	99614720	50	4789
2026-01-19 22:53:45.49	238.65	15.06	-39.3	-41.8	19.9	0.00e+00	0	59	0	100663296	50	4719
2026-01-19 22:53:46.50	238.37	15.16	-39.4	-41.9	19.8	0.00e+00	0	59	0	101711872	50	4773
2026-01-19 22:53:47.51	238.10	15.26	-39.4	-42.0	19.7	0.00e+00	0	59	0	102760448	50	4852
2026-01-19 22:53:48.52	237.82	15.36	-39.5	-42.1	19.5	0.00e+00	0	59	0	103809024	50	4917
2026-01-19 22:53:49.52	237.54	15.46	-39.6	-42.2	19.5	0.00e+00	0	59	0	105381888	50	4964
2026-01-19 22:53:50.53	237.26	15.56	-39.5	-42.1	19.5	0.00e+00	0	59	0	106430464	50	4920
2026-01-19 22:53:51.54	236.98	15.67	-39.6	-42.2	19.5	0.00e+00	0	59	0	107479040	50	4946
2026-01-19 22:53:52.55	236.69	15.77	-39.6	-42.2	19.5	0.00e+00	0	59	0	108527616	50	4937
2026-01-19 22:53:53.56	236.40	15.87	-39.3	-41.8	19.9	0.00e+00	0	59	0	109576192	50	4729
2026-01-19 22:53:54.57	236.11	15.97	-39.2	-41.6	20.1	0.00e+00	0	59	0	111149056	50	4634
2026-01-19 22:53:55.58	235.81	16.07	-39.0	-41.3	20.3	0.00e+00	0	59	0	112197632	50	4488
2026-01-19 22:53:56.59	235.51	16.17	-38.9	-41.3	20.4	0.00e+00	0	59	0	113246208	49	4735
2026-01-19 22:53:57.60	235.21	16.28	-38.9	-41.3	20.4	0.00e+00	0	59	0	114294784	49	4708
2026-01-19 22:53:58.61	234.91	16.38	-38.9	-41.3	20.4	0.00e+00	0	59	0	115343360	49	4714
2026-01-19 22:53:59.62	234.61	16.48	-39.2	-41.7	20.1	0.00e+00	0	59	0	116391936	49	4935
2026-01-19 22:54:00.63	234.30	16.58	-39.3	-41.8	19.9	0.00e+00	0	59	0	117964800	49	5008
2026-01-19 22:54:01.64	233.99	16.68	-39.4	-42.0	19.8	0.00e+00	0	59	0	119013376	49	5114
2026-01-19 22:54:02.65	233.68	16.78	-39.3	-41.8	20.0	0.00e+00	0	59	0	120061952	49	5005
2026-01-19 22:54:03.66	233.36	16.88	-39.3	-41.8	19.9	0.00e+00	0	59	0	121110528	49	5011
2026-01-19 22:54:04.67	233.04	16.98	-39.3	-41.8	19.9	0.00e+00	0	59	0	122159104	49	5020
2026-01-19 22:54:05.68	232.72	17.08	-39.2	-41.7	20.0	0.00e+00	0	59	0	123207680	49	4947
2026-01-19 22:54:06.69	232.40	17.18	-39.1	-41.5	20.2	0.00e+00	0	59	0	124780544	49	4870
2026-01-19 22:54:07.70	232.07	17.28	-39.0	-41.3	20.4	0.00e+00	0	59	0	125829120	49	4750
2026-01-19 22:54:08.71	231.74	17.38	-38.7	-40.9	20.8	0.00e+00	0	59	0	126877696	49	4543
2026-01-19 22:54:09.72	231.41	17.48	-38.6	-40.9	20.9	0.00e+00	0	59	0	127926272	49	4504
2026-01-19 22:54:10.73	231.08	17.58	-38.6	-40.8	21.0	0.00e+00	0	59	0	128974848	49	4449
2026-01-19 22:54:11.73	230.74	17.68	-38.7	-40.9	20.9	0.00e+00	0	59	0	130023424	49	4544
2026-01-19 22:54:12.74	230.40	17.78	-38.9	-41.2	20.5	0.00e+00	0	59	0	131596288	49	4699
2026-01-19 22:54:13.75	230.06	17.88	-39.0	-41.4	20.4	0.00e+00	0	59	0	132644864	49	4790
2026-01-19 22:54:14.76	229.71	17.98	-39.0	-41.4	20.4	0.00e+00	0	59	0	133693440	49	4766
2026-01-19 22:54:15.77	229.37	18.07	-39.4	-41.9	19.9	0.00e+00	0	59	0	134742016	49	5056
2026-01-19 22:54:16.78	229.01	18.17	-39.3	-41.8	19.9	0.00e+00	0	59	0	135790592	49	5021
2026-01-19 22:54:17.79	228.66	18.27	-39.3	-41.8	20.0	0.00e+00	0	59	0	136839168	49	5018
2026-01-19 22:54:18.80	228.30	18.37	-39.2	-41.6	20.2	0.00e+00	0	59	0	137887744	49	4896
2026-01-19 22:54:19.81	227.94	18.46	-39.1	-41.4	20.4	0.00e+00	0	59	0	139460608	49	4796
2026-01-19 22:54:20.82	227.58	18.56	-38.7	-41.0	20.8	0.00e+00	0	59	0	140509184	49	4574
2026-01-19 22:54:21.83	227.22	18.65	-38.5	-40.6	21.1	0.00e+00	0	59	0	141557760	49	4391
2026-01-19 22:54:22.84	226.85	18.75	-38.3	-40.5	21.3	0.00e+00	0	59	0	142606336	48	4572
2026-01-19 22:54:23.85	226.48	18.84	-38.6	-40.8	21.0	0.00e+00	0	59	0	143654912	48	4755
2026-01-19 22:54:24.86	226.10	18.94	-38.8	-41.0	20.8	0.00e+00	0	59	0	144703488	48	4852
2026-01-19 22:54:25.86	225.73	19.03	-38.6	-40.8	21.1	0.00e+00	0	59	0	146276352	48	4709
2026-01-19 22:54:26.87	225.35	19.12	-38.9	-41.2	20.6	0.00e+00	0	59	0	147324928	48	4948
2026-01-19 22:54:27.88	224.97	19.21	-38.8	-41.1	20.8	0.00e+00	0	59	0	148373504	48	4882
2026-01-19 22:54:28.89	224.59	19.30	-39.0	-41.4	20.5	0.00e+00	0	59	0	149422080	48	5047
2026-01-19 22:54:29.90	224.20	19.40	-38.9	-41.2	20.7	0.00e+00	0	59	0	150470656	48	4939
2026-01-19 22:54:30.91	223.81	19.49	-39.1	-41.4	20.4	0.00e+00	0	59	0	151519232	48	5087
2026-01-19 22:54:31.92	223.41	19.57	-39.0	-41.3	20.5	0.00e+00	0	59	0	153092096	48	5023
2026-01-19 22:54:32.93	223.02	19.66	-38.9	-41.2	20.7	0.00e+00	0	59	0	154140672	48	4941
2026-01-19 22:54:33.94	222.62	19.75	-38.6	-40.9	21.0	0.00e+00	0	59	0	155189248	48	4763
2026-01-19 22:54:34.95	222.22	19.84	-38.7	-40.9	21.0	0.00e+00	0	59	0	156237824	48	4774
2026-01-19 22:54:35.96	221.81	19.92	-38.7	-40.9	21.0	0.00e+00	0	59	0	157286400	48	4774
2026-01-19 22:54:36.97	221.41	20.01	-38.5	-40.7	21.1	0.00e+00	0	59	0	158334976	48	4692
2026-01-19 22:54:37.98	221.00	20.09	-38.3	-40.5	21.4	0.00e+00	0	59	0	159907840	48	4548
2026-01-19 22:54:38.99	220.58	20.18	-38.0	-40.1	21.7	0.00e+00	0	60	0	160956416	48	4368
2026-01-19 22:54:40.00	220.17	20.26	-38.0	-40.0	21.9	0.00e+00	0	59	0	162004992	48	4322
2026-01-19 22:54:41.01	219.75	20.34	-37.9	-40.0	21.8	0.00e+00	0	59	0	163053568	47	4575
2026-01-19 22:54:42.01	219.33	20.42	-37.9	-39.9	21.9	0.00e+00	0	60	0	164102144	47	4531
2026-01-19 22:54:43.02	218.91	20.50	-38.1	-40.1	21.7	0.00e+00	0	60	0	165675008	47	4647
2026-01-19 22:54:44.03	218.49	20.58	-38.1	-40.2	21.6	0.00e+00	0	59	0	166723584	47	4699
2026-01-19 22:54:45.04	218.06	20.65	-38.2	-40.3	21.5	0.00e+00	0	60	0	167772160	47	4746
2026-01-19 22:54:46.05	217.63	20.73	-38.1	-40.2	21.6	0.00e+00	0	60	0	168820736	47	4703
2026-01-19 22:54:47.06	217.19	20.81	-38.2	-40.3	21.6	0.00e+00	0	60	0	169869312	47	4720
2026-01-19 22:54:48.07	216.76	20.88	-38.3	-40.4	21.5	0.00e+00	0	59	0	170917888	47	4775
2026-01-19 22:54:49.08	216.32	20.95	-38.2	-40.4	21.5	0.00e+00	0	59	0	172490752	47	4771
2026-01-19 22:54:50.09	215.88	21.02	-38.4	-40.5	21.3	0.00e+00	0	60	0	173539328	47	4867
2026-01-19 22:54:51.10	215.43	21.09	-38.4	-40.5	21.4	0.00e+00	0	60	0	174587904	47	4846
2026-01-19 22:54:52.11	214.99	21.16	-38.4	-40.5	21.4	0.00e+00	0	60	0	175636480	47	4842
2026-01-19 22:54:53.12	214.54	21.23	-38.1	-40.2	21.7	0.00e+00	0	60	0	176685056	47	4689
2026-01-19 22:54:54.13	214.09	21.29	-38.2	-40.3	21.6	0.00e+00	0	60	0	177733632	47	4719
2026-01-19 22:54:55.14	213.64	21.36	-38.2	-40.3	21.6	0.00e+00	0	60	0	178782208	47	4716
2026-01-19 22:54:56.15	213.18	21.42	-38.2	-40.3	21.5	0.00e+00	0	60	0	180355072	47	4759
2026-01-19 22:54:57.16	212.72	21.48	-38.4	-40.5	21.4	0.00e+00	0	59	0	181403648	47	4858
2026-01-19 22:54:58.17	212.26	21.54	-38.4	-40.5	21.4	0.00e+00	0	60	0	182452224	47	4869
2026-01-19 22:54:59.18	211.80	21.60	-38.4	-40.5	21.3	0.00e+00	0	60	0	183500800	47	4850
2026-01-19 22:55:00.18	211.34	21.66	-38.3	-40.5	21.4	0.00e+00	0	60	0	184549376	47	4832
2026-01-19 22:55:01.20	210.87	21.72	-38.3	-40.4	21.5	0.00e+00	0	60	0	185597952	47	4789
2026-01-19 22:55:02.21	210.40	21.77	-38.1	-40.2	21.6	0.00e+00	0	60	0	187170816	47	4701
2026-01-19 22:55:03.22	209.94	21.82	-38.1	-40.2	21.6	0.00e+00	0	60	0	188219392	47	4689
2026-01-19 22:55:04.22	209.47	21.87	-38.2	-40.3	21.6	0.00e+00	0	60	0	189267968	47	4726
2026-01-19 22:55:05.24	208.99	21.92	-38.0	-40.0	21.9	0.00e+00	0	60	0	190316544	47	4572
2026-01-19 22:55:06.25	208.52	21.97	-38.0	-40.0	21.9	0.00e+00	0	60	0	191365120	47	4578
2026-01-19 22:55:07.25	208.04	22.02	-38.0	-40.0	21.8	0.00e+00	0	60	0	192413696	47	4586
2026-01-19 22:55:08.26	207.56	22.06	-37.9	-40.0	21.9	0.00e+00	0	59	0	193986560	47	4568
2026-01-19 22:55:09.28	207.08	22.10	-38.0	-40.1	21.8	0.00e+00	0	60	0	195035136	47	4606
2026-01-19 22:55:10.29	206.60	22.15	-37.9	-40.0	21.9	0.00e+00	0	60	0	196083712	47	4561
2026-01-19 22:55:11.30	206.12	22.18	-37.8	-39.8	22.1	0.00e+00	0	60	0	197132288	47	4461
2026-01-19 22:55:12.31	205.63	22.22	-37.8	-39.8	22.1	0.00e+00	0	60	0	198180864	47	4472
2026-01-19 22:55:13.31	205.15	22.26	-37.8	-39.8	22.0	0.00e+00	0	60	0	199229440	47	4468
2026-01-19 22:55:14.32	204.66	22.29	-37.9	-39.9	22.0	0.00e+00	0	60	0	200802304	47	4509
2026-01-19 22:55:15.33	204.17	22.32	-37.9	-39.9	22.0	0.00e+00	0	60	0	201850880	47	4512
2026-01-19 22:55:16.34	203.69	22.35	-37.9	-39.9	22.0	0.00e+00	0	60	0	202899456	47	4506
2026-01-19 22:55:17.35	203.19	22.38	-37.6	-39.6	22.2	0.00e+00	0	60	0	203948032	47	4364
2026-01-19 22:55:18.36	202.70	22.41	-37.6	-39.6	22.3	0.00e+00	0	60	0	204996608	47	4365
2026-01-19 22:55:19.37	202.21	22.43	-37.6	-39.5	22.3	0.00e+00	0	60	0	206569472	47	4337
2026-01-19 22:55:20.38	201.72	22.45	-37.5	-39.4	22.5	0.00e+00	0	60	0	207618048	46	4509
2026-01-19 22:55:21.39	201.22	22.47	-37.5	-39.4	22.5	0.00e+00	0	60	0	208666624	46	4518
2026-01-19 22:55:22.40	200.73	22.49	-37.5	-39.5	22.4	0.00e+00	0	60	0	209715200	46	4554
2026-01-19 22:55:23.41	200.23	22.51	-37.6	-39.5	22.3	0.00e+00	0	60	0	210763776	46	4596
2026-01-19 22:55:24.42	199.74	22.52	-37.6	-39.6	22.3	0.00e+00	0	60	0	211812352	46	4599
2026-01-19 22:55:25.43	199.24	22.53	-37.8	-39.9	22.0	0.00e+00	0	60	0	213385216	46	4772
2026-01-19 22:55:26.43	198.75	22.55	-38.1	-40.2	21.7	0.00e+00	0	60	0	214433792	46	4963
2026-01-19 22:55:27.44	198.25	22.55	-38.3	-40.4	21.5	0.00e+00	0	60	0	215482368	47	4810
2026-01-19 22:55:28.45	197.75	22.56	-38.2	-40.3	21.5	0.00e+00	0	60	0	216530944	47	4755
2026-01-19 22:55:29.46	197.25	22.56	-38.1	-40.2	21.7	0.00e+00	0	60	0	217579520	47	4669
2026-01-19 22:55:30.47	196.76	22.57	-38.0	-40.1	21.8	0.00e+00	0	60	0	218628096	47	4610
2026-01-19 22:55:31.48	196.26	22.57	-37.9	-40.0	21.9	0.00e+00	0	60	0	219676672	47	4547
2026-01-19 22:55:32.49	195.76	22.57	-37.8	-39.8	22.0	0.00e+00	0	60	0	221249536	47	4456
2026-01-19 22:55:33.50	195.26	22.56	-37.6	-39.6	22.2	0.00e+00	0	60	0	222298112	47	4370
2026-01-19 22:55:34.51	194.76	22.56	-37.5	-39.4	22.5	0.00e+00	0	60	0	223346688	46	4513
2026-01-19 22:55:35.52	194.27	22.55	-37.5	-39.4	22.4	0.00e+00	0	60	0	224395264	46	4518
2026-01-19 22:55:36.53	193.77	22.54	-37.5	-39.5	22.4	0.00e+00	0	60	0	225443840	46	4562
2026-01-19 22:55:37.54	193.27	22.53	-37.7	-39.7	22.2	0.00e+00	0	60	0	226492416	46	4669
2026-01-19 22:55:38.56	192.77	22.52	-37.8	-39.8	22.1	0.00e+00	0	60	0	228065280	46	4711
2026-01-19 22:55:39.57	192.27	22.50	-38.1	-40.2	21.7	0.00e+00	0	60	0	229113856	46	4931
2026-01-19 22:55:40.58	191.78	22.48	-38.2	-40.3	21.5	0.00e+00	0	60	0	230162432	46	5026
2026-01-19 22:55:41.58	191.29	22.46	-38.4	-40.5	21.3	0.00e+00	0	60	0	231211008	47	4870
2026-01-19 22:55:42.59	190.80	22.44	-38.3	-40.5	21.3	0.00e+00	0	60	0	232259584	47	4841
2026-01-19 22:55:43.60	190.30	22.42	-38.3	-40.5	21.4	0.00e+00	0	60	0	233308160	47	4826
2026-01-19 22:55:44.61	189.81	22.40	-38.1	-40.2	21.7	0.00e+00	0	60	0	234881024	47	4657
2026-01-19 22:55:45.62	189.32	22.37	-38.0	-40.0	21.8	0.00e+00	0	60	0	235929600	47	4582
2026-01-19 22:55:46.63	188.83	22.34	-37.8	-39.9	21.9	0.00e+00	0	60	0	236978176	47	4494
2026-01-19 22:55:47.64	188.34	22.31	-37.8	-39.9	21.8	0.00e+00	0	60	0	238026752	47	4506
2026-01-19 22:55:48.65	187.85	22.28	-37.6	-39.6	22.2	0.00e+00	0	60	0	239075328	47	4358
2026-01-19 22:55:49.66	187.37	22.24	-37.3	-39.2	22.5	0.00e+00	0	60	0	240123904	46	4414
2026-01-19 22:55:50.67	186.88	22.21	-37.2	-39.1	22.7	0.00e+00	0	60	0	241696768	46	4351
2026-01-19 22:55:51.68	186.40	22.17	-37.4	-39.4	22.4	0.00e+00	0	60	0	242745344	46	4510
2026-01-19 22:55:52.69	185.91	22.13	-37.7	-39.7	22.0	0.00e+00	0	60	0	243793920	46	4656
2026-01-19 22:55:53.70	185.43	22.09	-37.8	-39.9	21.9	0.00e+00	0	60	0	244842496	46	4767
2026-01-19 22:55:54.71	184.95	22.04	-37.8	-39.8	21.9	0.00e+00	0	60	0	245891072	46	4752
2026-01-19 22:55:55.72	184.47	22.00	-37.6	-39.6	22.1	0.00e+00	0	60	0	246939648	46	4634
2026-01-19 22:55:56.73	184.00	21.95	-37.4	-39.4	22.4	0.00e+00	0	60	0	248512512	46	4507
2026-01-19 22:55:57.74	183.52	21.90	-37.3	-39.3	22.5	0.00e+00	0	60	0	249561088	46	4446
2026-01-19 22:55:58.75	183.05	21.85	-37.6	-39.6	22.2	0.00e+00	0	60	0	250609664	46	4639
2026-01-19 22:55:59.76	182.58	21.80	-37.9	-39.9	21.8	0.00e+00	0	60	0	251658240	46	4800
2026-01-19 22:56:00.77	182.11	21.75	-38.4	-40.6	21.2	0.00e+00	0	60	0	252706816	47	4880
2026-01-19 22:56:01.78	181.64	21.69	-38.5	-40.7	21.0	0.00e+00	0	60	0	254279680	47	4978
2026-01-19 22:56:02.79	181.18	21.64	-38.6	-40.9	21.0	0.00e+00	0	60	0	255328256	47	5053
2026-01-19 22:56:03.80	180.72	21.58	-38.7	-40.9	20.9	0.00e+00	0	60	0	256376832	48	4812
2026-01-19 22:56:04.81	180.26	21.52	-38.4	-40.6	21.1	0.00e+00	0	60	0	257425408	48	4627
2026-01-19 22:56:05.82	179.80	21.46	-38.2	-40.3	21.5	0.00e+00	0	60	0	258473984	48	4490
2026-01-19 22:56:06.83	179.34	21.39	-38.1	-40.2	21.5	0.00e+00	0	60	0	259522560	48	4412
2026-01-19 22:56:07.84	178.89	21.33	-38.1	-40.2	21.6	0.00e+00	0	60	0	260571136	48	4415
2026-01-19 22:56:08.85	178.43	21.27	-38.2	-40.4	21.4	0.00e+00	0	60	0	262144000	48	4498
2026-01-19 22:56:09.86	177.98	21.20	-38.5	-40.7	21.1	0.00e+00	0	60	0	263192576	48	4699
2026-01-19 22:56:10.86	177.54	21.13	-38.9	-41.1	20.8	0.00e+00	0	60	0	264241152	48	4912
2026-01-19 22:56:11.88	177.09	21.06	-38.9	-41.2	20.4	0.00e+00	0	60	0	265289728	48	4980
2026-01-19 22:56:12.89	176.65	20.99	-38.5	-40.7	21.1	0.00e+00	0	60	0	266338304	48	4678
2026-01-19 22:56:13.90	176.21	20.92	-38.1	-40.2	21.6	0.00e+00	0	60	0	267386880	48	4426
2026-01-19 22:56:14.90	175.78	20.85	-38.1	-40.2	21.6	0.00e+00	0	60	0	268959744	48	4415
2026-01-19 22:56:15.91	175.34	20.77	-38.3	-40.4	21.4	0.00e+00	0	60	0	270008320	48	4540
2026-01-19 22:56:16.93	174.90	20.70	-38.5	-40.6	21.3	0.00e+00	0	61	0	271056896	48	4645
2026-01-19 22:56:17.94	174.47	20.62	-38.5	-40.6	21.2	0.00e+00	0	60	0	272105472	48	4634
2026-01-19 22:56:18.94	174.05	20.54	-38.5	-40.7	21.2	0.00e+00	0	60	0	273154048	48	4666
2026-01-19 22:56:19.96	173.62	20.46	-38.3	-40.3	21.5	0.00e+00	0	60	0	274202624	48	4489
2026-01-19 22:56:20.97	173.20	20.38	-38.2	-40.2	21.6	0.00e+00	0	60	0	275775488	48	4437
2026-01-19 22:56:21.98	172.78	20.30	-38.3	-40.5	21.4	0.00e+00	0	60	0	276824064	48	4552
2026-01-19 22:56:22.98	172.37	20.22	-38.4	-40.5	21.4	0.00e+00	0	60	0	277872640	48	4566
2026-01-19 22:56:24.00	171.95	20.14	-38.5	-40.7	21.2	0.00e+00	0	60	0	278921216	48	4654
2026-01-19 22:56:25.01	171.54	20.05	-38.3	-40.5	21.4	0.00e+00	0	60	0	279969792	48	4566
2026-01-19 22:56:26.02	171.13	19.97	-38.4	-40.6	21.3	0.00e+00	0	60	0	281018368	48	4626
2026-01-19 22:56:27.02	170.72	19.88	-38.6	-40.9	21.0	0.00e+00	0	60	0	282591232	48	4770
2026-01-19 22:56:28.03	170.32	19.80	-38.8	-41.1	20.7	0.00e+00	0	61	0	283639808	48	4900
2026-01-19 22:56:29.04	169.92	19.71	-38.8	-41.1	20.7	0.00e+00	0	60	0	284688384	48	4910
2026-01-19 22:56:30.05	169.52	19.62	-38.9	-41.3	20.6	0.00e+00	0	60	0	285736960	48	4994
2026-01-19 22:56:31.06	169.13	19.53	-39.0	-41.3	20.6	0.00e+00	0	60	0	286785536	48	5022
2026-01-19 22:56:32.07	168.74	19.44	-38.8	-41.1	20.8	0.00e+00	0	60	0	287834112	48	4916
2026-01-19 22:56:33.08	168.35	19.35	-38.7	-40.9	20.9	0.00e+00	0	60	0	289406976	48	4809
2026-01-19 22:56:34.09	167.96	19.26	-38.4	-40.6	21.4	0.00e+00	0	60	0	290455552	48	4616
2026-01-19 22:56:35.10	167.58	19.17	-38.3	-40.4	21.6	0.00e+00	0	60	0	291504128	48	4507
2026-01-19 22:56:36.11	167.19	19.08	-38.5	-40.7	21.3	0.00e+00	0	60	0	292552704	48	4657
2026-01-19 22:56:37.12	166.82	18.99	-38.8	-41.1	20.9	0.00e+00	0	60	0	293601280	48	4882
2026-01-19 22:56:38.13	166.44	18.89	-39.1	-41.5	20.5	0.00e+00	0	60	0	295174144	48	5118
2026-01-19 22:56:39.14	166.07	18.80	-39.2	-41.6	20.4	0.00e+00	0	61	0	296222720	48	5162
2026-01-19 22:56:40.15	165.70	18.70	-39.2	-41.6	20.3	0.00e+00	0	60	0	297271296	49	4903
2026-01-19 22:56:41.16	165.33	18.61	-39.1	-41.5	20.5	0.00e+00	0	60	0	298319872	49	4833
2026-01-19 22:56:42.17	164.97	18.51	-39.0	-41.3	20.7	0.00e+00	0	60	0	299368448	49	4724
2026-01-19 22:56:43.18	164.61	18.42	-38.8	-41.1	20.8	0.00e+00	0	60	0	300417024	49	4631
2026-01-19 22:56:44.19	164.25	18.32	-38.7	-41.0	21.0	0.00e+00	0	60	0	301465600	49	4556
2026-01-19 22:56:45.20	163.89	18.22	-38.5	-40.7	21.2	0.00e+00	0	61	0	303038464	49	4434
2026-01-19 22:56:46.21	163.54	18.13	-38.6	-40.7	21.2	0.00e+00	0	60	0	304087040	49	4440
2026-01-19 22:56:47.22	163.19	18.03	-38.7	-40.9	21.1	0.00e+00	0	60	0	305135616	49	4530
2026-01-19 22:56:48.22	162.84	17.93	-38.9	-41.2	20.7	0.00e+00	0	61	0	306184192	49	4698
2026-01-19 22:56:49.23	162.50	17.83	-38.9	-41.3	20.7	0.00e+00	0	60	0	307232768	49	4713
2026-01-19 22:56:50.24	162.16	17.73	-39.0	-41.3	20.7	0.00e+00	0	61	0	308281344	49	4715
2026-01-19 22:56:51.25	161.82	17.63	-38.9	-41.2	20.8	0.00e+00	0	60	0	309854208	49	4698
2026-01-19 22:56:52.26	161.48	17.54	-38.9	-41.3	20.7	0.00e+00	0	61	0	310902784	49	4708
2026-01-19 22:56:53.27	161.15	17.44	-39.0	-41.3	20.7	0.00e+00	0	60	0	311951360	49	4746
2026-01-19 22:56:54.28	160.82	17.34	-38.9	-41.2	20.8	0.00e+00	0	60	0	312999936	49	4656
2026-01-19 22:56:55.29	160.49	17.24	-38.9	-41.2	20.7	0.00e+00	0	61	0	314048512	49	4687
2026-01-19 22:56:56.30	160.17	17.14	-39.0	-41.4	20.6	0.00e+00	0	61	0	315097088	49	4780
2026-01-19 22:56:57.31	159.84	17.03	-39.1	-41.4	20.5	0.00e+00	0	61	0	316669952	49	4804
2026-01-19 22:56:58.32	159.52	16.93	-39.1	-41.4	20.6	0.00e+00	0	61	0	317718528	49	4810
2026-01-19 22:56:59.33	159.20	16.83	-39.1	-41.5	20.4	0.00e+00	0	60	0	318767104	49	4867
2026-01-19 22:57:00.34	158.89	16.73	-39.1	-41.5	20.5	0.00e+00	0	61	0	319815680	49	4829
2026-01-19 22:57:01.35	158.58	16.63	-39.0	-41.4	20.6	0.00e+00	0	60	0	320864256	49	4800
2026-01-19 22:57:02.36	158.27	16.53	-39.2	-41.6	20.4	0.00e+00	0	61	0	321912832	49	4901
2026-01-19 22:57:03.37	157.96	16.43	-39.2	-41.6	20.4	0.00e+00	0	61	0	323485696	49	4912
2026-01-19 22:57:04.37	157.66	16.33	-39.4	-41.9	20.1	0.00e+00	0	61	0	324534272	49	5078
2026-01-19 22:57:05.38	157.36	16.23	-39.4	-41.9	20.1	0.00e+00	0	60	0	325582848	49	5082
2026-01-19 22:57:06.39	157.06	16.13	-39.4	-41.9	20.1	0.00e+00	0	60	0	326631424	49	5078
2026-01-19 22:57:07.40	156.76	16.02	-39.2	-41.7	20.3	0.00e+00	0	61	0	327680000	49	4945
2026-01-19 22:57:08.41	156.47	15.92	-39.2	-41.6	20.4	0.00e+00	0	60	0	328728576	49	4907
2026-01-19 22:57:09.42	156.18	15.82	-39.3	-41.8	20.2	0.00e+00	0	60	0	330301440	49	5002
2026-01-19 22:57:10.43	155.89	15.72	-39.4	-41.9	20.1	0.00e+00	0	61	0	331350016	49	5055
2026-01-19 22:57:11.44	155.60	15.62	-39.5	-42.1	19.9	0.00e+00	0	61	0	332398592	49	5191
2026-01-19 22:57:12.45	155.32	15.52	-39.6	-42.3	19.8	0.00e+00	0	60	0	333447168	49	5280
2026-01-19 22:57:13.46	155.04	15.41	-39.5	-42.0	20.0	0.00e+00	0	60	0	334495744	49	5133
2026-01-19 22:57:14.47	154.76	15.31	-39.5	-42.0	19.9	0.00e+00	0	60	0	335544320	49	5159
2026-01-19 22:57:15.48	154.48	15.21	-39.6	-42.2	19.8	0.00e+00	0	61	0	337117184	49	5243
2026-01-19 22:57:16.49	154.21	15.11	-39.7	-42.4	19.6	0.00e+00	0	61	0	338165760	50	5062
2026-01-19 22:57:17.50	153.93	15.01	-39.7	-42.3	19.6	0.00e+00	0	61	0	339214336	50	5032
2026-01-19 22:57:18.51	153.66	14.91	-39.7	-42.4	19.6	0.00e+00	0	60	0	340262912	50	5055
2026-01-19 22:57:19.52	153.40	14.81	-39.8	-42.4	19.5	0.00e+00	0	61	0	341311488	50	5097
2026-01-19 22:57:20.53	153.13	14.71	-39.7	-42.4	19.5	0.00e+00	0	61	0	342360064	50	5055
2026-01-19 22:57:21.54	152.87	14.60	-39.7	-42.4	19.5	0.00e+00	0	60	0	343932928	50	5089
2026-01-19 22:57:22.55	152.61	14.50	-39.8	-42.5	19.4	0.00e+00	0	60	0	344981504	50	5138
2026-01-19 22:57:23.56	152.35	14.40	-39.7	-42.4	19.5	0.00e+00	0	61	0	346030080	50	5095
2026-01-19 22:57:24.57	152.09	14.30	-39.8	-42.4	19.5	0.00e+00	0	61	0	347078656	50	5095
2026-01-19 22:57:25.58	151.84	14.20	-39.9	-42.7	19.2	0.00e+00	0	61	0	348127232	50	5223
2026-01-19 22:57:26.59	151.59	14.10	-39.9	-42.7	19.2	0.00e+00	0	60	0	349175808	50	5271
2026-01-19 22:57:27.60	151.34	14.00	-39.9	-42.6	19.3	0.00e+00	0	60	0	350748672	50	5191
2026-01-19 22:57:28.61	151.09	13.90	-39.9	-42.7	19.2	0.00e+00	0	61	0	351797248	50	5222
2026-01-19 22:57:29.62	150.85	13.80	-39.9	-42.7	19.2	0.00e+00	0	61	0	352845824	50	5235
2026-01-19 22:57:30.63	150.60	13.70	-40.0	-42.8	19.0	0.00e+00	0	61	0	353894400	50	5321
2026-01-19 22:57:31.64	150.36	13.60	-40.1	-43.0	18.8	0.00e+00	0	61	0	354942976	50	5444
2026-01-19 22:57:32.65	150.12	13.50	-40.1	-43.0	18.8	0.00e+00	0	61	0	355991552	50	5461
2026-01-19 22:57:33.66	149.89	13.41	-40.1	-43.0	18.8	0.00e+00	0	61	0	357564416	50	5440
2026-01-19 22:57:34.67	149.65	13.31	-40.0	-42.8	18.9	0.00e+00	0	61	0	358612992	50	5328
2026-01-19 22:57:35.68	149.42	13.21	-40.0	-42.9	18.9	0.00e+00	0	61	0	359661568	50	5357
2026-01-19 22:57:36.69	149.19	13.11	-39.9	-42.7	19.0	0.00e+00	0	61	0	360710144	50	5277
2026-01-19 22:57:37.70	148.96	13.01	-39.9	-42.8	19.0	0.00e+00	0	61	0	361758720	50	5323
2026-01-19 22:57:38.70	148.74	12.92	-40.0	-42.9	18.9	0.00e+00	0	61	0	362807296	50	5355
2026-01-19 22:57:39.71	148.51	12.82	-40.0	-42.9	18.9	0.00e+00	0	60	0	364380160	50	5358
2026-01-19 22:57:40.73	148.29	12.72	-40.1	-43.1	18.6	0.00e+00	0	61	0	365428736	50	5515
2026-01-19 22:57:41.73	148.07	12.62	-40.2	-43.3	18.4	0.00e+00	0	61	0	366477312	51	5307
2026-01-19 22:57:42.74	147.85	12.53	-40.3	-43.4	18.3	0.00e+00	0	61	0	367525888	51	5355
2026-01-19 22:57:43.75	147.63	12.43	-40.3	-43.4	18.2	0.00e+00	0	61	0	368574464	51	5382
2026-01-19 22:57:44.76	147.42	12.33	-40.3	-43.5	18.2	0.00e+00	0	61	0	369623040	51	5422
2026-01-19 22:57:45.77	147.20	12.24	-40.3	-43.5	18.2	0.00e+00	0	61	0	371195904	51	5411
2026-01-19 22:57:46.78	146.99	12.14	-40.4	-43.6	18.0	0.00e+00	0	61	0	372244480	51	5508
2026-01-19 22:57:47.79	146.78	12.05	-40.5	-43.7	18.0	0.00e+00	0	61	0	373293056	51	5585
2026-01-19 22:57:48.80	146.57	11.95	-40.6	-43.9	17.8	0.00e+00	0	61	0	374341632	51	5657
2026-01-19 22:57:49.81	146.37	11.85	-40.5	-43.7	18.0	0.00e+00	0	61	0	375390208	51	5549
2026-01-19 22:57:50.82	146.16	11.76	-40.6	-43.8	17.8	0.00e+00	0	61	0	376438784	51	5655
2026-01-19 22:57:51.83	145.96	11.67	-40.4	-43.7	18.0	0.00e+00	0	61	0	378011648	51	5533
2026-01-19 22:57:52.84	145.76	11.57	-40.4	-43.6	18.0	0.00e+00	0	61	0	379060224	51	5497
2026-01-19 22:57:53.85	145.56	11.48	-40.4	-43.6	18.0	0.00e+00	0	61	0	380108800	51	5480
2026-01-19 22:57:54.85	145.37	11.38	-40.4	-43.6	18.0	0.00e+00	0	61	0	381157376	51	5476
2026-01-19 22:57:55.86	145.17	11.29	-40.5	-43.8	17.8	0.00e+00	0	61	0	382205952	51	5597
2026-01-19 22:57:56.87	144.98	11.20	-40.5	-43.9	17.6	0.00e+00	0	61	0	383254528	51	5682
2026-01-19 22:57:57.88	144.78	11.10	-40.6	-43.9	17.5	0.00e+00	0	61	0	384827392	51	5722
2026-01-19 22:57:58.89	144.59	11.01	-40.6	-44.0	17.5	0.00e+00	0	61	0	385875968	51	5724
2026-01-19 22:57:59.90	144.40	10.92	-40.5	-43.9	17.6	0.00e+00	0	61	0	386924544	51	5663
2026-01-19 22:58:00.91	144.22	10.83	-40.5	-43.8	17.6	0.00e+00	0	61	0	387973120	51	5655
2026-01-19 22:58:01.92	144.03	10.74	-40.4	-43.8	17.6	0.00e+00	0	61	0	389021696	51	5599
2026-01-19 22:58:02.93	143.84	10.64	-40.4	-43.8	17.7	0.00e+00	0	60	0	390070272	51	5594
2026-01-19 22:58:03.94	143.66	10.55	-40.4	-43.8	17.6	0.00e+00	0	61	0	391643136	51	5631
2026-01-19 22:58:04.95	143.48	10.46	-40.6	-44.0	17.3	0.00e+00	0	61	0	392691712	51	5780
2026-01-19 22:58:05.96	143.30	10.37	-40.6	-44.1	17.2	0.00e+00	0	61	0	393740288	51	5818
2026-01-19 22:58:06.97	143.12	10.28	-40.6	-44.2	17.0	0.00e+00	0	61	0	394788864	51	5891
2026-01-19 22:58:07.98	142.94	10.19	-40.7	-44.4	16.9	0.00e+00	0	61	0	395837440	51	6005
2026-01-19 22:58:08.99	142.77	10.10	-40.6	-44.3	16.7	0.00e+00	0	61	0	396886016	52	5646
2026-01-19 22:58:10.00	142.60	10.01	-40.6	-44.4	16.7	0.00e+00	0	61	0	398458880	52	5663
2026-01-19 22:58:11.01	142.42	9.92	-40.6	-44.3	16.7	0.00e+00	0	61	0	399507456	52	5652
2026-01-19 22:58:12.02	142.25	9.83	-40.7	-44.5	16.5	0.00e+00	0	61	0	400556032	52	5756
2026-01-19 22:58:13.03	142.08	9.74	-40.7	-44.6	16.4	0.00e+00	0	61	0	401604608	52	5807
2026-01-19 22:58:14.03	141.92	9.66	-40.8	-44.7	16.3	0.00e+00	0	61	0	402653184	52	5872
2026-01-19 22:58:15.04	141.75	9.57	-40.8	-44.8	16.1	0.00e+00	0	61	0	403701760	52	5979
2026-01-19 22:58:16.05	141.58	9.48	-40.8	-44.8	16.2	0.00e+00	0	61	0	405274624	52	5942
2026-01-19 22:58:17.06	141.42	9.39	-40.7	-44.6	16.3	0.00e+00	0	61	0	406323200	52	5853
2026-01-19 22:58:18.07	141.26	9.31	-40.7	-44.6	16.3	0.00e+00	0	61	0	407371776	52	5833
2026-01-19 22:58:19.08	141.09	9.22	-40.8	-44.9	15.9	0.00e+00	0	61	0	408420352	52	6013
2026-01-19 22:58:20.09	140.93	9.13	-40.6	-44.7	16.0	0.00e+00	0	61	0	409468928	52	5881
2026-01-19 22:58:21.10	140.77	9.05	-40.6	-44.7	16.0	0.00e+00	0	61	0	410517504	52	5902
2026-01-19 22:58:22.11	140.62	8.96	-40.6	-44.8	15.8	0.00e+00	0	61	0	412090368	52	5986
2026-01-19 22:58:23.12	140.46	8.87	-40.8	-45.1	15.5	0.00e+00	0	61	0	413138944	52	6186
2026-01-19 22:58:24.13	140.31	8.79	-40.7	-45.1	15.4	0.00e+00	0	61	0	414187520	52	6162
2026-01-19 22:58:25.14	140.15	8.70	-40.8	-45.4	15.0	0.00e+00	0	61	0	415236096	52	6420
2026-01-19 22:58:26.15	140.00	8.62	-40.5	-44.8	15.6	0.00e+00	0	61	0	416284672	52	5963
2026-01-19 22:58:27.16	139.85	8.53	-40.9	-45.8	14.6	0.00e+00	0	61	0	417333248	52	6663
2026-01-19 22:58:28.17	139.70	8.45	-40.4	-44.7	15.5	0.00e+00	0	61	0	418906112	52	5901
2026-01-19 22:58:29.18	139.55	8.37	-40.4	-44.6	15.7	4.50e-06	0	61	0	419954688	51	6189
2026-01-19 22:58:30.19	139.40	8.28	-40.8	-46.2	13.9	2.33e-04	0	61	0	421003264	52	7025
2026-01-19 22:58:31.19	139.25	8.20	-37.0	-49.4	9.9	2.34e-03	0	61	0	422051840	52	10113
2026-01-19 22:58:32.20	139.11	8.12	-42.3	-52.5	7.0	2.34e-03	0	61	0	423100416	55	12136
2026-01-19 22:58:33.21	138.96	8.03	-42.5	-55.2	5.0	1.44e-01	0	61	0	424148992	55	16645
2026-01-19 22:58:34.22	138.82	7.95	-42.6	-60.3	4.1	7.42e-01	0	61	104	424148992	54	31795
2026-01-19 22:58:35.23	138.68	7.87	-44.0	-62.7	3.8	7.42e-01	0	61	104	424148992	59	31176
2026-01-19 22:58:36.24	138.54	7.79	-45.1	-63.3	3.8	8.41e-01	0	61	104	424148992	60	31808
2026-01-19 22:58:37.25	138.40	7.70	-45.3	-63.5	3.8	8.46e-01	0	61	104	424148992	61	30710
2026-01-19 22:58:38.26	138.26	7.62	-45.4	-63.7	3.8	8.46e-01	0	61	104	424148992	61	31371
2026-01-19 22:58:39.27	138.12	7.54	-45.5	-63.8	3.8	8.47e-01	0	61	104	424148992	61	31637
2026-01-19 22:58:40.28	137.99	7.46	-45.6	-63.9	3.8	8.45e-01	0	61	104	424148992	61	32075
2026-01-19 22:58:41.29	137.85	7.38	-45.7	-63.9	3.8	8.45e-01	0	61	104	424148992	61	32093
2026-01-19 22:58:42.30	137.72	7.30	-45.8	-64.0	3.8	8.46e-01	0	61	104	424148992	62	30643
2026-01-19 22:58:43.32	137.58	7.22	-45.7	-63.9	3.8	8.45e-01	0	61	104	424148992	62	30351
2026-01-19 22:58:44.33	137.45	7.14	-45.7	-63.8	3.8	8.46e-01	0	61	104	424148992	62	30030
2026-01-19 22:58:45.34	137.32	7.06	-45.6	-63.8	3.8	8.46e-01	0	61	104	424148992	62	29876
2026-01-19 22:58:46.35	137.19	6.98	-45.5	-63.7	3.8	8.46e-01	0	61	104	424148992	62	29348
2026-01-19 22:58:47.36	137.06	6.90	-45.5	-63.6	3.8	8.47e-01	0	61	104	424148992	62	29205
2026-01-19 22:58:48.37	136.93	6.82	-45.5	-63.6	3.8	8.47e-01	0	61	104	424148992	62	29157
2026-01-19 22:58:49.38	136.80	6.74	-45.4	-63.4	3.8	8.47e-01	0	61	104	424148992	62	28628
2026-01-19 22:58:50.39	136.67	6.66	-45.4	-63.5	3.8	8.47e-01	0	61	104	424148992	62	28794
2026-01-19 22:58:51.40	136.55	6.59	-45.4	-63.5	3.8	8.47e-01	0	61	104	424148992	62	28800
2026-01-19 22:58:52.41	136.42	6.51	-45.4	-63.5	3.8	8.45e-01	0	61	104	424148992	62	28743
2026-01-19 22:58:53.42	136.30	6.43	-45.4	-63.5	3.8	8.47e-01	0	61	104	424148992	62	28768
2026-01-19 22:58:54.43	136.18	6.35	-45.4	-63.5	3.8	8.47e-01	0	61	104	424148992	62	28688
2026-01-19 22:58:55.44	136.06	6.28	-45.4	-63.5	3.8	8.46e-01	0	61	104	424148992	62	28687
2026-01-19 22:58:56.45	135.93	6.20	-45.4	-63.5	3.8	8.45e-01	0	61	104	424148992	62	28697
2026-01-19 22:58:57.46	135.81	6.12	-45.4	-63.5	3.8	8.45e-01	0	61	104	424148992	62	28731
2026-01-19 22:58:58.47	135.70	6.05	-45.3	-63.4	3.8	8.45e-01	0	61	104	424148992	62	28625
2026-01-19 22:58:59.48	135.58	5.97	-45.3	-63.4	3.8	8.47e-01	0	61	104	424148992	62	28679
2026-01-19 22:59:00.49	135.46	5.89	-45.3	-63.5	3.8	8.46e-01	0	61	104	424148992	62	28702
2026-01-19 22:59:01.50	135.34	5.82	-45.4	-63.4	3.8	8.46e-01	0	61	104	424148992	62	28597
2026-01-19 22:59:02.51	135.23	5.74	-45.3	-63.4	3.8	8.46e-01	0	61	104	424148992	62	28669
2026-01-19 22:59:03.52	135.11	5.67	-45.4	-63.4	3.8	8.46e-01	0	61	104	424148992	62	28591
2026-01-19 22:59:04.53	135.00	5.59	-45.3	-63.5	3.8	8.46e-01	0	61	104	424148992	62	28698
2026-01-19 22:59:05.54	134.89	5.52	-45.3	-63.4	3.8	8.46e-01	0	61	104	424148992	62	28599
2026-01-19 22:59:06.55	134.77	5.45	-45.3	-63.4	3.8	8.45e-01	0	61	104	424148992	62	28637
2026-01-19 22:59:07.56	134.66	5.37	-45.3	-63.4	3.8	8.45e-01	0	61	104	424148992	62	28542
2026-01-19 22:59:08.57	134.55	5.30	-45.3	-63.4	3.8	8.46e-01	0	61	104	424148992	62	28576
2026-01-19 22:59:09.58	134.44	5.22	-45.3	-63.4	3.8	8.47e-01	0	61	104	424148992	62	28616
2026-01-19 22:59:10.59	134.33	5.15	-45.3	-63.4	3.8	8.45e-01	0	61	104	424148992	62	28540
2026-01-19 22:59:11.60	134.22	5.08	-45.3	-63.4	3.8	8.45e-01	0	61	104	424148992	62	28587
2026-01-19 22:59:12.62	134.12	5.00	-45.3	-63.4	3.8	8.46e-01	0	61	104	424148992	62	28547
2026-01-19 22:59:13.62	134.01	4.93	-45.3	-63.4	3.8	8.46e-01	0	61	104	424148992	62	28490
2026-01-19 22:59:14.63	133.90	4.86	-45.3	-63.4	3.8	8.46e-01	0	61	104	424148992	62	28498
2026-01-19 22:59:15.65	133.80	4.79	-45.3	-63.4	3.8	8.46e-01	0	61	104	424148992	62	28467
2026-01-19 22:59:16.66	133.69	4.71	-45.3	-63.4	3.8	8.47e-01	0	61	104	424148992	62	28571
2026-01-19 22:59:17.67	133.59	4.64	-45.3	-63.4	3.8	8.47e-01	0	61	104	424148992	62	28569
2026-01-19 22:59:18.68	133.49	4.57	-45.3	-63.4	3.8	8.48e-01	0	61	104	424148992	62	28500
2026-01-19 22:59:19.69	133.38	4.50	-45.3	-63.4	3.8	8.46e-01	0	61	104	424148992	62	28538
2026-01-19 22:59:20.70	133.28	4.43	-45.3	-63.4	3.8	8.46e-01	0	61	104	424148992	62	28448
2026-01-19 22:59:21.71	133.18	4.36	-45.3	-63.4	3.8	8.46e-01	0	61	104	424148992	62	28552
2026-01-19 22:59:22.72	133.08	4.29	-45.3	-63.4	3.8	8.46e-01	0	61	104	424148992	62	28577
2026-01-19 22:59:23.73	132.98	4.22	-45.3	-63.4	3.8	8.48e-01	0	61	104	424148992	62	28511
2026-01-19 22:59:24.74	132.88	4.15	-45.3	-63.4	3.8	8.48e-01	0	61	104	424148992	62	28602
2026-01-19 22:59:25.75	132.79	4.08	-45.3	-63.4	3.8	8.46e-01	0	61	104	424148992	62	28544
2026-01-19 22:59:26.76	132.69	4.01	-45.3	-63.4	3.8	8.46e-01	0	61	104	424148992	62	28597
2026-01-19 22:59:27.77	132.59	3.94	-45.3	-63.4	3.8	8.46e-01	0	61	104	424148992	62	28523
2026-01-19 22:59:28.78	132.49	3.87	-45.3	-63.4	3.8	8.47e-01	0	61	104	424148992	62	28499
2026-01-19 22:59:29.79	132.40	3.80	-45.3	-63.4	3.8	8.46e-01	0	61	104	424148992	62	28529
2026-01-19 22:59:30.80	132.30	3.73	-45.3	-63.4	3.8	8.46e-01	0	61	104	424148992	62	28492
2026-01-19 22:59:31.81	132.21	3.66	-45.3	-63.4	3.8	8.47e-01	0	61	104	424148992	62	28536
2026-01-19 22:59:32.82	132.12	3.59	-45.3	-63.4	3.8	8.46e-01	0	61	104	424148992	62	28556
2026-01-19 22:59:33.83	132.02	3.52	-45.3	-63.4	3.8	8.46e-01	0	61	104	424148992	62	28436
2026-01-19 22:59:34.84	131.93	3.46	-45.3	-63.4	3.8	8.46e-01	0	61	104	424148992	62	28450
2026-01-19 22:59:35.86	131.84	3.39	-45.3	-63.4	3.8	8.45e-01	0	61	104	424148992	62	28484
2026-01-19 22:59:36.87	131.75	3.32	-45.3	-63.4	3.8	8.45e-01	0	61	104	424148992	62	28390
2026-01-19 22:59:37.88	131.66	3.25	-45.3	-63.4	3.8	8.45e-01	0	61	104	424148992	62	28459
2026-01-19 22:59:38.89	131.57	3.19	-45.3	-63.4	3.8	8.45e-01	0	61	104	424148992	62	28565
2026-01-19 22:59:39.90	131.48	3.12	-45.3	-63.4	3.8	8.46e-01	0	61	104	424148992	62	28460
2026-01-19 22:59:40.91	131.39	3.05	-45.3	-63.4	3.8	8.46e-01	0	61	104	424148992	62	28471
2026-01-19 22:59:41.92	131.30	2.99	-45.3	-63.4	3.8	8.47e-01	0	61	104	424148992	62	28525
2026-01-19 22:59:42.93	131.22	2.92	-45.3	-63.4	3.8	8.46e-01	0	61	104	424148992	62	28437
2026-01-19 22:59:43.94	131.13	2.85	-45.3	-63.4	3.8	8.46e-01	0	61	104	424148992	62	28497
2026-01-19 22:59:44.95	131.04	2.79	-45.3	-63.4	3.8	8.46e-01	0	61	104	424148992	62	28437
2026-01-19 22:59:45.96	130.96	2.72	-45.3	-63.4	3.8	8.46e-01	0	61	104	424148992	62	28407
2026-01-19 22:59:46.97	130.87	2.65	-45.3	-63.4	3.8	8.46e-01	0	61	104	424148992	62	28437
2026-01-19 22:59:47.98	130.79	2.59	-45.3	-63.4	3.8	8.46e-01	0	61	104	424148992	62	28357
2026-01-19 22:59:48.99	130.70	2.52	-45.3	-63.4	3.8	8.47e-01	0	61	104	424148992	62	28473
2026-01-19 22:59:50.00	130.62	2.46	-45.3	-63.4	3.8	8.46e-01	0	61	104	424148992	62	28461
2026-01-19 22:59:51.01	130.54	2.39	-45.3	-63.4	3.8	8.46e-01	0	61	104	424148992	62	28456
2026-01-19 22:59:52.02	130.45	2.33	-45.3	-63.4	3.8	8.45e-01	0	61	104	424148992	62	28391
2026-01-19 22:59:53.03	130.37	2.26	-45.3	-63.4	3.8	8.47e-01	0	61	104	424148992	62	28397
2026-01-19 22:59:54.04	130.29	2.20	-45.3	-63.4	3.8	8.47e-01	0	61	104	424148992	62	28463
2026-01-19 22:59:55.05	130.21	2.14	-45.3	-63.4	3.8	8.45e-01	0	61	104	424148992	62	28389
2026-01-19 22:59:56.06	130.13	2.07	-45.3	-63.4	3.8	8.46e-01	0	61	104	424148992	62	28471
2026-01-19 22:59:57.07	130.05	2.01	-45.3	-63.4	3.8	8.46e-01	0	61	104	424148992	62	28448
2026-01-19 22:59:58.09	129.97	1.94	-45.3	-63.4	3.8	8.46e-01	0	62	104	424148992	62	28389
2026-01-19 22:59:59.10	129.89	1.88	-45.3	-63.4	3.8	8.46e-01	0	61	104	424148992	62	28419

#Closed at: 2026-01-19 22:59:59
#Recorded file [424 MB]: D:/lorett/data/31039_260120_015106.dat