passes_logs/2026/01/19/R2.0S_Moscow/R2.0S_Moscow__20260119_042222_FENGYUN_3E_rec.log

#Pass ID: 20260119_042222_FENGYUN 3E
#Satellite: FENGYUN 3E
#Configuration: FENGYUN 3E
#almurnet v.1.7.20251203
#Start time: 2026-01-19 04:22:22

#Version: 2.2.20231116
#Station: R2.0S_Moscow
#Location: 37.707566 lon 55.798166 lat
#TLE: 1 49008U 21062A   26017.96535346 -.00000182  00000+0 -64922-4 0  9998
#TLE: 2 49008  98.7483  23.0589 0002171 131.9722 228.1640 14.19885139235265

#Time	Az	El	Level	Level2	SNR	BER	BlckErr	Temp	State	Recorded	gain1	gain2
2026-01-19 04:22:22.04	14.37	1.99	-43.1	-54.0	3.8	8.47e-01	0	52	0	0	57	12227
2026-01-19 04:22:23.05	14.36	2.05	-43.1	-54.1	3.8	8.47e-01	0	52	104	0	57	12237
2026-01-19 04:22:24.06	14.34	2.12	-43.1	-54.1	3.8	8.46e-01	0	53	104	0	57	12254
2026-01-19 04:22:25.07	14.33	2.18	-43.0	-54.0	3.8	8.47e-01	0	53	104	0	57	12223
2026-01-19 04:22:26.08	14.31	2.25	-43.0	-54.0	3.8	8.47e-01	0	53	104	0	57	12227
2026-01-19 04:22:27.09	14.30	2.31	-43.1	-54.1	3.8	8.46e-01	0	53	104	0	57	12246
2026-01-19 04:22:28.10	14.28	2.38	-43.0	-54.0	3.8	8.46e-01	0	53	104	0	57	12234
2026-01-19 04:22:29.11	14.27	2.44	-43.0	-54.0	3.8	8.45e-01	0	53	104	0	57	12209
2026-01-19 04:22:30.12	14.25	2.51	-43.1	-54.1	3.8	8.46e-01	0	53	104	0	57	12269
2026-01-19 04:22:31.13	14.24	2.57	-43.1	-54.1	3.8	8.47e-01	0	53	104	0	57	12238
2026-01-19 04:22:32.14	14.22	2.64	-43.1	-54.0	3.8	8.45e-01	0	53	104	0	57	12221
2026-01-19 04:22:33.15	14.21	2.70	-43.1	-54.0	3.8	8.46e-01	0	53	104	0	57	12216
2026-01-19 04:22:34.16	14.19	2.77	-43.1	-54.0	3.8	8.45e-01	0	53	104	0	57	12230
2026-01-19 04:22:35.17	14.18	2.83	-43.1	-54.0	3.8	8.46e-01	0	53	104	0	57	12214
2026-01-19 04:22:36.18	14.16	2.90	-43.1	-54.1	3.8	8.46e-01	0	53	104	0	57	12247
2026-01-19 04:22:37.19	14.14	2.97	-43.1	-54.0	3.8	8.46e-01	0	53	104	0	57	12223
2026-01-19 04:22:38.20	14.13	3.03	-43.1	-54.1	3.8	8.46e-01	0	53	104	0	57	12238
2026-01-19 04:22:39.21	14.11	3.10	-43.1	-54.0	3.8	8.46e-01	0	54	104	0	57	12210
2026-01-19 04:22:40.22	14.10	3.17	-43.1	-54.0	3.8	8.46e-01	0	54	104	0	57	12225
2026-01-19 04:22:41.24	14.08	3.23	-43.1	-54.0	3.8	8.47e-01	0	54	104	0	57	12199
2026-01-19 04:22:42.25	14.06	3.30	-43.0	-54.0	3.8	8.47e-01	0	54	104	0	57	12162
2026-01-19 04:22:43.26	14.05	3.37	-43.0	-54.0	3.8	8.45e-01	0	54	104	0	57	12187
2026-01-19 04:22:44.27	14.03	3.43	-43.1	-53.9	3.8	8.47e-01	0	54	104	0	57	12078
2026-01-19 04:22:45.28	14.01	3.50	-43.0	-53.9	3.8	8.46e-01	0	54	104	0	57	12031
2026-01-19 04:22:46.29	14.00	3.57	-43.0	-53.8	3.8	8.47e-01	0	54	104	0	57	11925
2026-01-19 04:22:47.30	13.98	3.64	-43.0	-53.7	3.8	8.46e-01	0	54	104	0	57	11716
2026-01-19 04:22:48.31	13.96	3.71	-43.0	-53.6	3.8	8.46e-01	0	54	104	0	57	11589
2026-01-19 04:22:49.32	13.95	3.77	-43.0	-53.4	3.8	8.46e-01	0	54	104	0	57	11384
2026-01-19 04:22:50.33	13.93	3.84	-43.0	-53.4	3.8	8.46e-01	0	54	104	0	56	11981
2026-01-19 04:22:51.34	13.91	3.91	-42.9	-53.1	3.8	8.46e-01	0	55	104	0	56	11682
2026-01-19 04:22:52.35	13.89	3.98	-42.9	-53.0	3.8	8.46e-01	0	55	104	0	56	11532
2026-01-19 04:22:53.36	13.88	4.05	-42.9	-52.9	3.8	8.45e-01	0	55	104	0	56	11305
2026-01-19 04:22:54.37	13.86	4.12	-42.9	-52.6	3.8	8.45e-01	0	55	104	0	56	11026
2026-01-19 04:22:55.38	13.84	4.19	-42.9	-52.8	3.8	8.46e-01	0	55	104	0	56	11184
2026-01-19 04:22:56.39	13.82	4.25	-42.9	-52.5	3.8	8.46e-01	0	55	104	0	56	10805
2026-01-19 04:22:57.40	13.81	4.32	-42.8	-52.4	3.8	8.44e-01	0	55	104	0	56	10677
2026-01-19 04:22:58.41	13.79	4.39	-42.8	-52.4	3.8	8.46e-01	0	55	104	0	56	10709
2026-01-19 04:22:59.42	13.77	4.46	-42.8	-52.3	3.8	8.46e-01	0	55	104	0	56	10570
2026-01-19 04:23:00.43	13.75	4.53	-42.8	-52.4	3.8	8.46e-01	0	55	104	0	56	10666
2026-01-19 04:23:01.44	13.73	4.60	-42.8	-52.4	3.8	8.44e-01	0	55	104	0	56	10657
2026-01-19 04:23:02.45	13.71	4.67	-42.8	-52.2	3.9	8.46e-01	0	55	104	0	56	10435
2026-01-19 04:23:03.46	13.70	4.74	-42.9	-52.5	3.8	8.46e-01	0	55	104	0	56	10840
2026-01-19 04:23:04.47	13.68	4.82	-42.9	-52.6	3.8	8.45e-01	0	55	104	0	56	10965
2026-01-19 04:23:05.48	13.66	4.89	-42.8	-52.4	3.8	8.45e-01	0	55	104	0	56	10668
2026-01-19 04:23:06.49	13.64	4.96	-42.8	-52.3	3.8	8.46e-01	0	56	104	0	56	10643
2026-01-19 04:23:07.50	13.62	5.03	-42.9	-52.5	3.8	8.45e-01	0	56	104	0	56	10836
2026-01-19 04:23:08.51	13.60	5.10	-42.9	-52.5	3.8	8.45e-01	0	56	104	0	56	10802
2026-01-19 04:23:09.52	13.58	5.17	-42.8	-52.1	3.8	8.46e-01	0	56	104	0	56	10389
2026-01-19 04:23:10.53	13.56	5.24	-42.8	-51.8	3.8	8.45e-01	0	56	104	0	56	10058
2026-01-19 04:23:11.55	13.54	5.32	-42.7	-51.5	4.0	8.44e-01	0	56	104	0	56	9708
2026-01-19 04:23:12.56	13.52	5.39	-42.7	-51.5	3.8	8.44e-01	0	56	104	0	56	9705
2026-01-19 04:23:13.57	13.50	5.46	-42.7	-51.2	4.0	8.43e-01	0	56	104	0	56	9304
2026-01-19 04:23:14.58	13.48	5.53	-42.6	-50.9	4.1	8.40e-01	0	56	0	0	56	8970
2026-01-19 04:23:15.59	13.46	5.61	-42.6	-50.6	4.2	8.39e-01	0	56	0	0	56	8728
2026-01-19 04:23:16.60	13.44	5.68	-42.5	-50.2	4.3	8.32e-01	0	56	0	0	56	8324
2026-01-19 04:23:17.61	13.42	5.75	-42.5	-50.2	4.3	8.35e-01	0	56	0	0	56	8322
2026-01-19 04:23:18.62	13.40	5.83	-42.4	-50.2	4.2	8.33e-01	0	56	0	0	55	8797
2026-01-19 04:23:19.63	13.38	5.90	-42.4	-50.2	4.2	8.36e-01	0	56	0	0	55	8845
2026-01-19 04:23:20.64	13.36	5.97	-42.4	-50.5	4.1	8.39e-01	0	56	0	0	55	9145
2026-01-19 04:23:21.65	13.34	6.05	-42.5	-51.0	4.1	8.40e-01	0	56	0	0	55	9609
2026-01-19 04:23:22.66	13.32	6.12	-42.6	-51.6	3.8	8.45e-01	0	56	104	0	55	10392
2026-01-19 04:23:23.67	13.30	6.20	-42.7	-52.4	3.8	8.45e-01	0	56	104	0	55	11321
2026-01-19 04:23:24.68	13.28	6.27	-42.8	-53.1	3.8	8.46e-01	0	56	104	0	55	12299
2026-01-19 04:23:25.69	13.26	6.35	-42.8	-53.5	3.8	8.45e-01	0	57	104	0	55	12920
2026-01-19 04:23:26.70	13.24	6.42	-42.8	-53.3	3.8	8.46e-01	0	56	104	0	55	12540
2026-01-19 04:23:27.72	13.22	6.50	-42.7	-52.3	3.8	8.44e-01	0	57	104	0	55	11170
2026-01-19 04:23:28.73	13.19	6.57	-42.4	-50.6	4.1	8.43e-01	0	57	0	0	55	9233
2026-01-19 04:23:29.74	13.17	6.65	-42.1	-49.0	4.6	8.17e-01	0	56	0	0	55	7666
2026-01-19 04:23:30.75	13.15	6.72	-41.7	-47.3	5.6	7.40e-01	0	57	0	0	54	6699
2026-01-19 04:23:31.76	13.13	6.80	-41.3	-46.3	6.4	3.06e-01	0	57	0	6291456	53	6339
2026-01-19 04:23:32.77	13.11	6.88	-40.9	-45.2	7.4	1.33e-01	0	57	0	13631488	52	5865
2026-01-19 04:23:33.78	13.08	6.95	-40.4	-44.1	8.6	4.91e-02	0	57	0	20971520	51	5466
2026-01-19 04:23:34.79	13.06	7.03	-40.0	-43.3	9.4	2.24e-02	0	57	0	27262976	51	5012
2026-01-19 04:23:35.80	13.04	7.11	-39.6	-42.5	10.2	7.50e-03	0	57	0	35651584	50	4851
2026-01-19 04:23:36.81	13.02	7.18	-39.3	-42.1	10.6	3.99e-03	0	57	0	42991616	49	4917
2026-01-19 04:23:37.82	12.99	7.26	-39.1	-41.8	10.9	2.80e-03	0	57	0	49283072	49	4740
2026-01-19 04:23:38.83	12.97	7.34	-39.0	-41.6	11.1	1.94e-03	0	57	0	56623104	49	4632
2026-01-19 04:23:39.84	12.95	7.42	-38.7	-41.2	11.6	9.42e-04	0	57	0	63963136	48	4683
2026-01-19 04:23:40.85	12.93	7.50	-38.8	-41.3	11.5	7.45e-04	0	57	0	71303168	48	4713
2026-01-19 04:23:41.86	12.90	7.57	-38.9	-41.5	11.3	1.13e-03	0	57	0	78643200	48	4818
2026-01-19 04:23:42.87	12.88	7.65	-38.9	-41.5	11.3	1.14e-03	0	57	0	85983232	48	4833
2026-01-19 04:23:43.89	12.85	7.73	-39.2	-41.9	10.9	2.16e-03	0	57	0	93323264	48	5057
2026-01-19 04:23:44.90	12.83	7.81	-39.3	-42.0	10.7	2.72e-03	0	57	0	100663296	48	5152
2026-01-19 04:23:45.91	12.81	7.89	-39.6	-42.6	10.2	5.59e-03	0	57	0	108003328	48	5500
2026-01-19 04:23:46.92	12.78	7.97	-39.8	-42.9	9.7	1.07e-02	0	58	0	115343360	49	5398
2026-01-19 04:23:47.93	12.76	8.05	-40.2	-43.6	9.0	1.89e-02	0	57	0	122683392	49	5831
2026-01-19 04:23:48.94	12.73	8.13	-41.5	-46.1	7.0	6.35e-02	0	57	0	130023424	52	6511
2026-01-19 04:23:49.95	12.71	8.21	-39.9	-43.0	9.8	4.25e-03	0	57	0	137363456	49	5458
2026-01-19 04:23:50.96	12.68	8.29	-42.7	-52.2	3.8	4.66e-01	0	57	104	142606336	54	11793
2026-01-19 04:23:51.97	12.66	8.37	-41.6	-46.0	7.3	9.14e-02	0	58	0	145752064	53	6097
2026-01-19 04:23:52.98	12.63	8.45	-40.4	-44.3	8.2	6.07e-03	0	58	0	152043520	50	5934
2026-01-19 04:23:53.99	12.61	8.53	-38.8	-41.3	11.4	1.62e-03	0	58	0	159383552	48	4743
2026-01-19 04:23:54.99	12.58	8.62	-38.8	-41.3	11.4	1.05e-03	0	58	0	166723584	48	4717
2026-01-19 04:23:56.00	12.56	8.70	-38.6	-41.0	11.7	5.08e-04	0	58	0	174063616	48	4595
2026-01-19 04:23:57.01	12.53	8.78	-38.5	-40.9	12.0	4.68e-04	0	58	0	181403648	48	4498
2026-01-19 04:23:58.02	12.51	8.86	-38.3	-40.7	12.0	3.42e-04	0	58	0	188743680	47	4675
2026-01-19 04:23:59.03	12.48	8.95	-38.3	-40.6	12.1	3.33e-04	0	58	0	196083712	47	4603
2026-01-19 04:24:00.04	12.45	9.03	-38.4	-40.8	11.9	3.55e-04	0	58	0	203423744	47	4711
2026-01-19 04:24:01.05	12.43	9.11	-38.4	-40.7	11.9	3.72e-04	0	58	0	210763776	47	4704
2026-01-19 04:24:02.06	12.40	9.19	-38.3	-40.6	12.1	3.27e-04	0	58	0	218103808	47	4629
2026-01-19 04:24:03.07	12.37	9.28	-38.3	-40.5	12.2	2.49e-04	0	58	0	225443840	47	4589
2026-01-19 04:24:04.08	12.35	9.36	-38.4	-40.7	12.1	3.80e-04	0	58	0	232783872	47	4674
2026-01-19 04:24:05.09	12.32	9.45	-38.2	-40.5	12.3	2.37e-04	0	58	0	240123904	47	4585
2026-01-19 04:24:06.10	12.29	9.53	-38.3	-40.6	12.2	2.43e-04	0	58	0	247463936	47	4608
2026-01-19 04:24:07.11	12.27	9.62	-38.2	-40.5	12.3	1.96e-04	0	58	0	254803968	47	4572
2026-01-19 04:24:08.12	12.24	9.70	-38.1	-40.3	12.5	1.50e-04	0	58	0	262144000	47	4455
2026-01-19 04:24:09.13	12.21	9.79	-37.9	-40.1	12.7	9.72e-05	0	58	0	269484032	46	4627
2026-01-19 04:24:10.14	12.18	9.87	-37.8	-39.9	12.9	5.83e-05	0	58	0	276824064	46	4521
2026-01-19 04:24:11.15	12.15	9.96	-37.9	-40.1	12.7	9.38e-05	0	58	0	284164096	46	4602
2026-01-19 04:24:12.16	12.13	10.05	-37.9	-40.0	12.8	5.83e-05	0	58	0	291504128	46	4562
2026-01-19 04:24:13.17	12.10	10.13	-37.9	-40.0	12.9	5.37e-05	0	58	0	297795584	46	4557
2026-01-19 04:24:14.18	12.07	10.22	-37.8	-39.9	12.9	7.43e-05	0	58	0	305135616	46	4537
2026-01-19 04:24:15.19	12.04	10.31	-37.9	-40.0	12.9	3.66e-05	0	59	0	312475648	46	4568
2026-01-19 04:24:16.20	12.01	10.39	-38.0	-40.2	12.6	1.15e-04	0	58	0	319815680	46	4675
2026-01-19 04:24:17.21	11.98	10.48	-38.0	-40.1	12.8	6.63e-05	0	58	0	327155712	46	4628
2026-01-19 04:24:18.22	11.95	10.57	-38.0	-40.2	12.7	8.46e-05	0	59	0	334495744	46	4666
2026-01-19 04:24:19.23	11.92	10.66	-38.0	-40.2	12.7	7.89e-05	0	59	0	341835776	46	4670
2026-01-19 04:24:20.24	11.89	10.75	-38.0	-40.2	12.7	8.58e-05	0	58	0	349175808	46	4653
2026-01-19 04:24:21.25	11.86	10.84	-38.1	-40.2	12.8	7.32e-05	0	58	0	356515840	46	4676
2026-01-19 04:24:22.26	11.83	10.93	-38.1	-40.2	12.7	1.02e-04	0	59	0	363855872	46	4693
2026-01-19 04:24:23.27	11.80	11.02	-38.0	-40.0	13.0	6.06e-05	0	59	0	371195904	46	4584
2026-01-19 04:24:24.28	11.77	11.11	-37.9	-40.0	13.1	4.69e-05	0	59	0	378535936	46	4558
2026-01-19 04:24:25.29	11.74	11.20	-37.8	-39.7	13.3	2.28e-05	0	59	0	385875968	46	4431
2026-01-19 04:24:26.30	11.71	11.29	-37.7	-39.7	13.5	1.48e-05	0	59	0	393216000	46	4399
2026-01-19 04:24:27.31	11.67	11.38	-37.8	-39.8	13.4	1.83e-05	0	59	0	400556032	46	4456
2026-01-19 04:24:28.32	11.64	11.47	-37.9	-39.9	13.4	1.71e-05	0	59	0	407896064	46	4499
2026-01-19 04:24:29.33	11.61	11.56	-37.8	-39.8	13.5	1.60e-05	0	59	0	415236096	46	4456
2026-01-19 04:24:30.34	11.58	11.65	-37.8	-39.7	13.5	1.14e-05	0	59	0	422576128	46	4428
2026-01-19 04:24:31.35	11.55	11.75	-37.8	-39.8	13.5	1.25e-05	0	59	0	429916160	46	4458
2026-01-19 04:24:32.36	11.51	11.84	-37.8	-39.7	13.6	9.10e-06	0	59	0	437256192	46	4404
2026-01-19 04:24:33.37	11.48	11.93	-37.7	-39.6	13.7	5.70e-06	0	59	0	444596224	46	4388
2026-01-19 04:24:34.38	11.45	12.02	-37.9	-39.9	13.5	4.50e-06	0	59	0	450887680	46	4497
2026-01-19 04:24:35.39	11.41	12.12	-37.8	-39.6	13.8	3.40e-06	0	59	0	458227712	46	4382
2026-01-19 04:24:36.40	11.38	12.21	-37.9	-39.8	13.7	8.00e-06	0	59	0	466616320	46	4455
2026-01-19 04:24:37.41	11.35	12.31	-37.9	-39.8	13.7	6.80e-06	0	59	0	472907776	46	4443
2026-01-19 04:24:38.42	11.31	12.40	-37.9	-39.8	13.8	1.14e-05	0	59	0	480247808	46	4450
2026-01-19 04:24:39.43	11.28	12.50	-37.9	-39.8	13.8	5.70e-06	0	59	0	487587840	46	4464
2026-01-19 04:24:40.44	11.24	12.59	-37.9	-39.8	13.8	5.70e-06	0	59	0	494927872	46	4489
2026-01-19 04:24:41.45	11.21	12.69	-37.9	-39.7	14.0	3.40e-06	0	59	0	502267904	46	4426
2026-01-19 04:24:42.46	11.17	12.78	-37.9	-39.7	14.0	2.20e-06	0	59	0	509607936	46	4417
2026-01-19 04:24:43.46	11.14	12.88	-37.7	-39.5	14.2	1.10e-06	0	59	0	516947968	46	4330
2026-01-19 04:24:44.47	11.10	12.98	-37.8	-39.5	14.3	1.10e-06	0	59	0	524288000	46	4328
2026-01-19 04:24:45.48	11.07	13.07	-37.7	-39.5	14.4	0.00e+00	0	59	0	531628032	46	4305
2026-01-19 04:24:46.50	11.03	13.17	-37.8	-39.6	14.3	0.00e+00	0	59	0	538968064	46	4350
2026-01-19 04:24:47.51	10.99	13.27	-38.0	-39.8	14.1	1.10e-06	0	59	0	546308096	46	4464
2026-01-19 04:24:48.52	10.96	13.37	-37.9	-39.7	14.3	1.10e-06	0	59	0	553648128	46	4406
2026-01-19 04:24:49.53	10.92	13.47	-37.9	-39.7	14.4	2.20e-06	0	59	0	560988160	46	4398
2026-01-19 04:24:50.53	10.88	13.57	-37.7	-39.4	14.7	0.00e+00	0	59	0	568328192	46	4276
2026-01-19 04:24:51.54	10.84	13.67	-37.6	-39.2	14.8	0.00e+00	0	59	0	575668224	46	4178
2026-01-19 04:24:52.56	10.81	13.77	-37.7	-39.4	14.7	0.00e+00	0	59	0	583008256	46	4283
2026-01-19 04:24:53.57	10.77	13.87	-37.8	-39.6	14.5	1.10e-06	0	59	0	590348288	46	4353
2026-01-19 04:24:54.58	10.73	13.97	-37.8	-39.6	14.6	0.00e+00	0	59	0	597688320	46	4341
2026-01-19 04:24:55.59	10.69	14.07	-37.8	-39.5	14.7	0.00e+00	0	60	0	603979776	46	4311
2026-01-19 04:24:56.60	10.65	14.17	-37.6	-39.3	14.9	0.00e+00	0	60	0	612368384	46	4208
2026-01-19 04:24:57.61	10.61	14.27	-37.6	-39.3	14.9	0.00e+00	0	59	0	619708416	46	4217
2026-01-19 04:24:58.61	10.57	14.38	-37.8	-39.5	14.7	0.00e+00	0	59	0	625999872	46	4300
2026-01-19 04:24:59.62	10.53	14.48	-37.7	-39.4	14.8	2.20e-06	0	59	0	633339904	46	4260
2026-01-19 04:25:00.63	10.49	14.58	-37.7	-39.3	14.9	0.00e+00	0	59	0	640679936	46	4220
2026-01-19 04:25:01.64	10.45	14.69	-37.7	-39.3	15.0	0.00e+00	0	60	0	648019968	46	4214
2026-01-19 04:25:02.65	10.41	14.79	-37.8	-39.4	14.9	0.00e+00	0	60	0	655360000	46	4269
2026-01-19 04:25:03.66	10.37	14.90	-37.6	-39.2	15.1	1.10e-06	0	59	0	662700032	46	4182
2026-01-19 04:25:04.67	10.33	15.00	-37.7	-39.3	15.1	0.00e+00	0	60	0	670040064	46	4218
2026-01-19 04:25:05.68	10.29	15.11	-37.7	-39.4	15.0	0.00e+00	0	59	0	677380096	46	4246
2026-01-19 04:25:06.69	10.25	15.21	-37.8	-39.4	14.9	0.00e+00	0	60	0	684720128	46	4285
2026-01-19 04:25:07.70	10.20	15.32	-37.8	-39.4	15.0	0.00e+00	0	60	0	692060160	46	4284
2026-01-19 04:25:08.71	10.16	15.43	-37.6	-39.2	15.2	0.00e+00	0	60	0	699400192	46	4175
2026-01-19 04:25:09.72	10.12	15.53	-37.6	-39.3	15.2	0.00e+00	0	60	0	706740224	46	4200
2026-01-19 04:25:10.73	10.07	15.64	-37.6	-39.2	15.4	0.00e+00	0	60	0	714080256	46	4147
2026-01-19 04:25:11.74	10.03	15.75	-37.6	-39.2	15.3	0.00e+00	0	60	0	721420288	46	4159
2026-01-19 04:25:12.75	9.99	15.86	-37.5	-39.0	15.5	0.00e+00	0	60	0	728760320	45	4317
2026-01-19 04:25:13.77	9.94	15.97	-37.6	-39.2	15.3	0.00e+00	0	60	0	736100352	45	4411
2026-01-19 04:25:14.77	9.90	16.08	-37.5	-39.0	15.5	0.00e+00	0	60	0	743440384	45	4329
2026-01-19 04:25:15.78	9.85	16.19	-37.6	-39.1	15.4	0.00e+00	0	60	0	749731840	45	4380
2026-01-19 04:25:16.79	9.81	16.30	-37.5	-39.1	15.5	0.00e+00	0	60	0	757071872	45	4343
2026-01-19 04:25:17.80	9.76	16.41	-37.4	-39.0	15.6	0.00e+00	0	60	0	765460480	45	4296
2026-01-19 04:25:18.81	9.71	16.52	-37.3	-38.8	15.8	0.00e+00	0	60	0	771751936	45	4234
2026-01-19 04:25:19.82	9.67	16.63	-37.3	-38.8	15.9	0.00e+00	0	60	0	779091968	45	4195
2026-01-19 04:25:20.83	9.62	16.75	-37.3	-38.8	15.8	0.00e+00	0	60	0	786432000	45	4240
2026-01-19 04:25:21.84	9.57	16.86	-37.2	-38.7	16.0	0.00e+00	0	60	0	793772032	45	4148
2026-01-19 04:25:22.85	9.53	16.97	-37.1	-38.6	16.1	0.00e+00	0	60	0	801112064	45	4102
2026-01-19 04:25:23.86	9.48	17.09	-37.1	-38.6	16.1	0.00e+00	0	60	0	808452096	45	4110
2026-01-19 04:25:24.87	9.43	17.20	-37.1	-38.5	16.2	0.00e+00	0	60	0	815792128	45	4079
2026-01-19 04:25:25.88	9.38	17.32	-37.1	-38.5	16.2	0.00e+00	0	60	0	823132160	45	4061
2026-01-19 04:25:26.89	9.33	17.43	-37.0	-38.4	16.3	0.00e+00	0	60	0	830472192	44	4262
2026-01-19 04:25:27.90	9.28	17.55	-36.9	-38.3	16.4	0.00e+00	0	60	0	837812224	44	4232
2026-01-19 04:25:28.91	9.23	17.67	-36.9	-38.3	16.4	0.00e+00	0	60	0	845152256	44	4220
2026-01-19 04:25:29.92	9.18	17.78	-36.8	-38.2	16.6	0.00e+00	0	60	0	852492288	44	4153
2026-01-19 04:25:30.93	9.13	17.90	-36.8	-38.2	16.6	0.00e+00	0	60	0	859832320	44	4169
2026-01-19 04:25:31.94	9.08	18.02	-36.8	-38.1	16.6	0.00e+00	0	60	0	867172352	44	4143
2026-01-19 04:25:32.95	9.03	18.14	-36.8	-38.2	16.6	0.00e+00	0	60	0	874512384	44	4152
2026-01-19 04:25:33.96	8.97	18.26	-36.7	-38.1	16.7	0.00e+00	0	60	0	881852416	44	4117
2026-01-19 04:25:34.97	8.92	18.38	-36.9	-38.2	16.6	0.00e+00	0	60	0	889192448	44	4182
2026-01-19 04:25:35.98	8.87	18.50	-36.7	-38.1	16.7	0.00e+00	0	60	0	896532480	44	4108
2026-01-19 04:25:36.99	8.81	18.62	-36.7	-38.0	16.8	0.00e+00	0	60	0	902823936	44	4072
2026-01-19 04:25:38.00	8.76	18.74	-36.8	-38.2	16.7	0.00e+00	0	60	0	911212544	44	4153
2026-01-19 04:25:39.01	8.70	18.86	-36.6	-37.9	16.9	0.00e+00	0	60	0	918552576	44	4043
2026-01-19 04:25:40.02	8.65	18.99	-36.6	-37.9	16.9	0.00e+00	0	60	0	924844032	44	4040
2026-01-19 04:25:41.03	8.59	19.11	-36.7	-38.0	16.8	0.00e+00	0	60	0	932184064	44	4079
2026-01-19 04:25:42.04	8.54	19.23	-36.7	-38.0	16.9	0.00e+00	0	60	0	939524096	44	4069
2026-01-19 04:25:43.05	8.48	19.36	-36.7	-38.0	16.8	0.00e+00	0	60	0	946864128	44	4075
2026-01-19 04:25:44.06	8.42	19.48	-36.7	-38.0	16.8	0.00e+00	0	60	0	954204160	44	4082
2026-01-19 04:25:45.07	8.37	19.61	-36.7	-38.0	16.9	0.00e+00	0	60	0	961544192	44	4072
2026-01-19 04:25:46.08	8.31	19.74	-36.6	-38.0	16.9	0.00e+00	0	60	0	968884224	44	4055
2026-01-19 04:25:47.09	8.25	19.86	-36.6	-38.0	16.9	0.00e+00	0	61	0	976224256	44	4065
2026-01-19 04:25:48.10	8.19	19.99	-36.6	-38.0	16.9	0.00e+00	0	60	0	983564288	44	4054
2026-01-19 04:25:49.11	8.13	20.12	-36.3	-37.6	17.1	0.00e+00	0	60	0	990904320	43	4105
2026-01-19 04:25:50.12	8.07	20.25	-36.4	-37.7	17.0	0.00e+00	0	60	0	998244352	43	4154
2026-01-19 04:25:51.13	8.01	20.38	-36.3	-37.6	17.1	0.00e+00	0	60	0	1005584384	43	4125
2026-01-19 04:25:52.13	7.95	20.51	-36.3	-37.6	17.1	0.00e+00	0	61	0	1012924416	43	4136
2026-01-19 04:25:53.15	7.89	20.64	-36.3	-37.6	17.1	0.00e+00	0	60	0	1020264448	43	4119
2026-01-19 04:25:54.16	7.82	20.77	-36.3	-37.6	17.1	0.00e+00	0	60	0	1027604480	43	4142
2026-01-19 04:25:55.16	7.76	20.90	-36.4	-37.6	17.1	0.00e+00	0	60	0	1034944512	43	4140
2026-01-19 04:25:56.17	7.70	21.03	-36.2	-37.5	17.3	0.00e+00	0	60	0	1042284544	43	4057
2026-01-19 04:25:57.18	7.63	21.17	-36.3	-37.5	17.2	0.00e+00	0	60	0	1048576000	43	4097
2026-01-19 04:25:58.19	7.57	21.30	-36.1	-37.4	17.3	0.00e+00	0	60	0	1055916032	43	4027
2026-01-19 04:25:59.20	7.50	21.44	-36.1	-37.4	17.4	0.00e+00	0	60	0	1064304640	43	4012
2026-01-19 04:26:00.21	7.44	21.57	-36.2	-37.4	17.4	0.00e+00	0	60	0	1070596096	43	4041
2026-01-19 04:26:01.22	7.37	21.71	-36.0	-37.3	17.5	0.00e+00	0	60	0	1077936128	43	3980
2026-01-19 04:26:02.23	7.31	21.85	-35.9	-37.1	17.7	0.00e+00	0	60	0	1085276160	42	4135
2026-01-19 04:26:03.24	7.24	21.98	-35.9	-37.1	17.7	0.00e+00	0	60	0	1092616192	42	4131
2026-01-19 04:26:04.24	7.17	22.12	-35.9	-37.1	17.7	0.00e+00	0	61	0	1099956224	42	4140
2026-01-19 04:26:05.25	7.10	22.26	-35.8	-37.0	17.8	0.00e+00	0	61	0	1107296256	42	4064
2026-01-19 04:26:06.26	7.03	22.40	-35.8	-37.1	17.8	0.00e+00	0	61	0	1114636288	42	4102
2026-01-19 04:26:07.27	6.96	22.54	-36.0	-37.3	17.6	0.00e+00	0	61	0	1121976320	42	4218
2026-01-19 04:26:08.28	6.89	22.68	-35.8	-37.0	17.8	0.00e+00	0	60	0	1129316352	42	4083
2026-01-19 04:26:09.29	6.82	22.82	-35.8	-37.0	17.8	0.00e+00	0	61	0	1136656384	42	4090
2026-01-19 04:26:10.30	6.75	22.97	-35.9	-37.1	17.7	0.00e+00	0	61	0	1143996416	42	4136
2026-01-19 04:26:11.31	6.67	23.11	-36.0	-37.3	17.6	0.00e+00	0	61	0	1151336448	42	4200
2026-01-19 04:26:12.32	6.60	23.25	-36.0	-37.3	17.6	0.00e+00	0	61	0	1158676480	42	4197
2026-01-19 04:26:13.33	6.52	23.40	-36.1	-37.3	17.5	0.00e+00	0	61	0	1166016512	42	4237
2026-01-19 04:26:14.34	6.45	23.54	-36.0	-37.2	17.6	0.00e+00	0	61	0	1173356544	42	4179
2026-01-19 04:26:15.35	6.37	23.69	-36.0	-37.2	17.6	0.00e+00	0	61	0	1180696576	42	4192
2026-01-19 04:26:16.36	6.30	23.84	-35.9	-37.1	17.8	0.00e+00	0	60	0	1188036608	42	4132
2026-01-19 04:26:17.37	6.22	23.99	-35.8	-37.1	17.8	0.00e+00	0	61	0	1195376640	42	4102
2026-01-19 04:26:18.38	6.14	24.14	-35.9	-37.1	17.7	0.00e+00	0	61	0	1201668096	42	4118
2026-01-19 04:26:19.39	6.06	24.29	-35.8	-37.0	17.8	0.00e+00	0	61	0	1209008128	42	4089
2026-01-19 04:26:20.40	5.98	24.44	-35.8	-37.0	17.9	0.00e+00	0	61	0	1217396736	42	4065
2026-01-19 04:26:21.41	5.90	24.59	-35.8	-37.0	17.8	0.00e+00	0	61	0	1223688192	42	4093
2026-01-19 04:26:22.41	5.82	24.74	-35.9	-37.1	17.7	0.00e+00	0	61	0	1231028224	42	4143
2026-01-19 04:26:23.42	5.74	24.89	-36.0	-37.2	17.7	0.00e+00	0	61	0	1238368256	42	4163
2026-01-19 04:26:24.43	5.65	25.04	-36.0	-37.2	17.6	0.00e+00	0	61	0	1245708288	42	4190
2026-01-19 04:26:25.45	5.57	25.20	-36.1	-37.4	17.5	0.00e+00	0	61	0	1253048320	42	4264
2026-01-19 04:26:26.46	5.48	25.36	-36.1	-37.3	17.5	0.00e+00	0	61	0	1260388352	42	4239
2026-01-19 04:26:27.46	5.40	25.51	-36.3	-37.6	17.4	0.00e+00	0	61	0	1267728384	42	4342
2026-01-19 04:26:28.47	5.31	25.67	-36.3	-37.5	17.4	0.00e+00	0	61	0	1275068416	42	4332
2026-01-19 04:26:29.48	5.22	25.83	-36.3	-37.6	17.3	0.00e+00	0	61	0	1282408448	42	4370
2026-01-19 04:26:30.49	5.14	25.98	-36.2	-37.5	17.4	0.00e+00	0	61	0	1289748480	42	4302
2026-01-19 04:26:31.50	5.05	26.14	-36.2	-37.5	17.4	0.00e+00	0	61	0	1297088512	42	4294
2026-01-19 04:26:32.51	4.96	26.30	-36.1	-37.4	17.5	0.00e+00	0	61	0	1304428544	42	4266
2026-01-19 04:26:33.52	4.86	26.47	-36.2	-37.4	17.5	0.00e+00	0	60	0	1311768576	42	4272
2026-01-19 04:26:34.53	4.77	26.63	-36.1	-37.4	17.5	0.00e+00	0	61	0	1319108608	42	4257
2026-01-19 04:26:35.54	4.68	26.79	-36.1	-37.3	17.6	0.00e+00	0	61	0	1325400064	42	4223
2026-01-19 04:26:36.55	4.58	26.96	-36.1	-37.4	17.5	0.00e+00	0	61	0	1333788672	42	4249
2026-01-19 04:26:37.56	4.49	27.12	-36.0	-37.2	17.7	0.00e+00	0	61	0	1341128704	42	4174
2026-01-19 04:26:38.57	4.39	27.29	-36.0	-37.2	17.7	0.00e+00	0	61	0	1347420160	42	4191
2026-01-19 04:26:39.58	4.30	27.45	-36.0	-37.2	17.7	0.00e+00	0	61	0	1354760192	42	4161
2026-01-19 04:26:40.59	4.20	27.62	-35.9	-37.1	17.9	0.00e+00	0	61	0	1362100224	42	4108
2026-01-19 04:26:41.60	4.10	27.79	-35.8	-37.0	17.9	0.00e+00	0	61	0	1369440256	42	4079
2026-01-19 04:26:42.61	4.00	27.96	-35.7	-36.9	18.0	0.00e+00	0	61	0	1376780288	42	4024
2026-01-19 04:26:43.62	3.90	28.13	-35.6	-36.8	18.2	0.00e+00	0	61	0	1384120320	42	3964
2026-01-19 04:26:44.63	3.79	28.30	-35.5	-36.7	18.3	0.00e+00	0	61	0	1391460352	41	4148
2026-01-19 04:26:45.64	3.69	28.48	-35.4	-36.6	18.3	0.00e+00	0	61	0	1398800384	41	4126
2026-01-19 04:26:46.65	3.58	28.65	-35.4	-36.5	18.4	0.00e+00	0	61	0	1406140416	41	4080
2026-01-19 04:26:47.66	3.48	28.82	-35.4	-36.5	18.4	0.00e+00	0	61	0	1413480448	41	4070
2026-01-19 04:26:48.67	3.37	29.00	-35.3	-36.4	18.5	0.00e+00	0	61	0	1420820480	41	4029
2026-01-19 04:26:49.68	3.26	29.18	-35.4	-36.5	18.4	0.00e+00	0	61	0	1428160512	41	4085
2026-01-19 04:26:50.69	3.15	29.35	-35.3	-36.4	18.5	0.00e+00	0	61	0	1435500544	41	4041
2026-01-19 04:26:51.70	3.04	29.53	-35.3	-36.4	18.5	0.00e+00	0	61	0	1442840576	41	4032
2026-01-19 04:26:52.71	2.93	29.71	-35.3	-36.4	18.6	0.00e+00	0	61	0	1450180608	41	4022
2026-01-19 04:26:53.72	2.81	29.89	-35.3	-36.5	18.5	0.00e+00	0	61	0	1457520640	41	4067
2026-01-19 04:26:54.73	2.70	30.07	-35.2	-36.3	18.6	0.00e+00	0	61	0	1464860672	41	3992
2026-01-19 04:26:55.74	2.58	30.26	-35.2	-36.3	18.6	0.00e+00	0	61	0	1472200704	41	3988
2026-01-19 04:26:56.75	2.46	30.44	-35.2	-36.3	18.7	0.00e+00	0	61	0	1479540736	41	3980
2026-01-19 04:26:57.76	2.34	30.62	-35.2	-36.4	18.6	0.00e+00	0	61	0	1486880768	41	4008
2026-01-19 04:26:58.76	2.22	30.81	-35.1	-36.2	18.7	0.00e+00	0	61	0	1494220800	41	3956
2026-01-19 04:26:59.78	2.10	31.00	-35.1	-36.2	18.7	0.00e+00	0	61	0	1500512256	41	3949
2026-01-19 04:27:00.79	1.98	31.18	-35.2	-36.3	18.6	0.00e+00	0	61	0	1507852288	41	3997
2026-01-19 04:27:01.80	1.85	31.37	-35.3	-36.4	18.6	0.00e+00	0	61	0	1516240896	41	4011
2026-01-19 04:27:02.80	1.73	31.56	-35.3	-36.4	18.6	0.00e+00	0	61	0	1522532352	41	4033
2026-01-19 04:27:03.81	1.60	31.75	-35.3	-36.5	18.5	0.00e+00	0	61	0	1529872384	41	4064
2026-01-19 04:27:04.82	1.47	31.94	-35.3	-36.5	18.5	0.00e+00	0	61	0	1537212416	41	4058
2026-01-19 04:27:05.83	1.34	32.14	-35.4	-36.5	18.5	0.00e+00	0	61	0	1544552448	41	4076
2026-01-19 04:27:06.84	1.20	32.33	-35.5	-36.7	18.4	0.00e+00	0	61	0	1551892480	41	4147
2026-01-19 04:27:07.85	1.07	32.53	-35.6	-36.7	18.3	0.00e+00	0	61	0	1559232512	41	4172
2026-01-19 04:27:08.86	0.93	32.72	-35.6	-36.7	18.3	0.00e+00	0	61	0	1566572544	41	4180
2026-01-19 04:27:09.87	0.79	32.92	-35.6	-36.8	18.3	0.00e+00	0	61	0	1573912576	41	4195
2026-01-19 04:27:10.88	0.65	33.12	-35.6	-36.8	18.2	0.00e+00	0	61	0	1581252608	41	4208
2026-01-19 04:27:11.89	0.51	33.32	-35.6	-36.8	18.3	0.00e+00	0	61	0	1588592640	41	4200
2026-01-19 04:27:12.90	0.37	33.52	-35.6	-36.8	18.3	0.00e+00	0	61	0	1595932672	41	4211
2026-01-19 04:27:13.91	0.22	33.72	-35.6	-36.8	18.3	0.00e+00	0	61	0	1603272704	41	4205
2026-01-19 04:27:14.92	0.08	33.93	-35.6	-36.7	18.3	0.00e+00	0	61	0	1610612736	41	4179
2026-01-19 04:27:15.93	359.93	34.13	-35.5	-36.7	18.3	0.00e+00	0	61	0	1617952768	41	4159
2026-01-19 04:27:16.94	359.78	34.34	-35.5	-36.7	18.4	0.00e+00	0	61	0	1625292800	41	4147
2026-01-19 04:27:17.95	359.62	34.54	-35.4	-36.5	18.5	0.00e+00	0	61	0	1632632832	41	4077
2026-01-19 04:27:18.96	359.47	34.75	-35.4	-36.5	18.5	0.00e+00	0	61	0	1639972864	41	4098
2026-01-19 04:27:19.97	359.31	34.96	-35.4	-36.5	18.5	0.00e+00	0	61	0	1647312896	41	4073
2026-01-19 04:27:20.98	359.15	35.17	-35.3	-36.4	18.7	0.00e+00	0	61	0	1653604352	41	4013
2026-01-19 04:27:21.98	358.99	35.38	-35.3	-36.5	18.6	0.00e+00	0	61	0	1660944384	41	4054
2026-01-19 04:27:22.99	358.83	35.59	-35.4	-36.5	18.6	0.00e+00	0	61	0	1668284416	41	4063
2026-01-19 04:27:24.00	358.67	35.80	-35.4	-36.6	18.5	0.00e+00	0	61	0	1675624448	41	4103
2026-01-19 04:27:25.01	358.50	36.02	-35.5	-36.6	18.4	0.00e+00	0	61	0	1682964480	41	4137
2026-01-19 04:27:26.02	358.33	36.23	-35.5	-36.6	18.4	0.00e+00	0	61	0	1690304512	41	4141
2026-01-19 04:27:27.03	358.16	36.45	-35.4	-36.5	18.5	0.00e+00	0	61	0	1697644544	41	4073
2026-01-19 04:27:28.04	357.98	36.67	-35.4	-36.5	18.6	0.00e+00	0	61	0	1704984576	41	4068
2026-01-19 04:27:29.05	357.81	36.89	-35.3	-36.4	18.6	0.00e+00	0	61	0	1712324608	41	4044
2026-01-19 04:27:30.06	357.63	37.11	-35.2	-36.4	18.7	0.00e+00	0	61	0	1719664640	41	4009
2026-01-19 04:27:31.07	357.44	37.33	-35.4	-36.5	18.5	0.00e+00	0	61	0	1727004672	41	4095
2026-01-19 04:27:32.08	357.26	37.55	-35.4	-36.5	18.6	0.00e+00	0	61	0	1734344704	41	4057
2026-01-19 04:27:33.09	357.07	37.78	-35.4	-36.6	18.5	0.00e+00	0	61	0	1741684736	41	4116
2026-01-19 04:27:34.10	356.88	38.00	-35.5	-36.7	18.4	0.00e+00	0	61	0	1749024768	41	4155
2026-01-19 04:27:35.11	356.69	38.23	-35.5	-36.6	18.5	0.00e+00	0	61	0	1756364800	41	4131
2026-01-19 04:27:36.12	356.50	38.46	-35.6	-36.8	18.3	0.00e+00	0	61	0	1763704832	41	4217
2026-01-19 04:27:37.13	356.30	38.68	-35.7	-36.8	18.3	0.00e+00	0	61	0	1771044864	41	4238
2026-01-19 04:27:38.14	356.10	38.91	-35.8	-36.9	18.1	0.00e+00	0	61	0	1777336320	41	4291
2026-01-19 04:27:39.15	355.89	39.14	-35.8	-37.0	18.1	0.00e+00	0	61	0	1785724928	41	4298
2026-01-19 04:27:40.16	355.69	39.38	-35.9	-37.1	18.1	0.00e+00	0	61	0	1793064960	41	4357
2026-01-19 04:27:41.17	355.48	39.61	-35.9	-37.1	18.0	0.00e+00	0	61	0	1799356416	41	4359
2026-01-19 04:27:42.18	355.26	39.84	-36.0	-37.2	17.9	0.00e+00	0	61	0	1806696448	41	4398
2026-01-19 04:27:43.19	355.05	40.08	-35.9	-37.0	18.1	0.00e+00	0	61	0	1814036480	41	4337
2026-01-19 04:27:44.20	354.83	40.32	-35.9	-37.1	18.0	0.00e+00	0	61	0	1821376512	41	4363
2026-01-19 04:27:45.21	354.61	40.55	-35.9	-37.0	18.1	0.00e+00	0	61	0	1828716544	41	4334
2026-01-19 04:27:46.22	354.38	40.79	-36.0	-37.2	17.9	0.00e+00	0	61	0	1836056576	41	4419
2026-01-19 04:27:47.23	354.15	41.03	-35.8	-36.9	18.1	0.00e+00	0	61	0	1843396608	41	4291
2026-01-19 04:27:48.24	353.92	41.27	-35.6	-36.8	18.3	0.00e+00	0	61	0	1850736640	41	4218
2026-01-19 04:27:49.25	353.68	41.51	-35.7	-36.8	18.3	0.00e+00	0	61	0	1858076672	41	4238
2026-01-19 04:27:50.26	353.44	41.76	-35.6	-36.7	18.4	0.00e+00	0	61	0	1865416704	41	4170
2026-01-19 04:27:51.27	353.20	42.00	-35.6	-36.7	18.4	0.00e+00	0	61	0	1872756736	41	4188
2026-01-19 04:27:52.28	352.95	42.25	-35.7	-36.8	18.3	0.00e+00	0	61	0	1880096768	41	4228
2026-01-19 04:27:53.29	352.70	42.49	-35.7	-36.8	18.3	1.10e-06	0	61	0	1887436800	41	4234
2026-01-19 04:27:54.30	352.45	42.74	-35.7	-36.9	18.2	0.00e+00	0	61	0	1894776832	41	4257
2026-01-19 04:27:55.31	352.19	42.99	-35.8	-37.0	18.1	0.00e+00	0	61	0	1902116864	41	4308
2026-01-19 04:27:56.32	351.92	43.23	-36.2	-37.5	17.7	0.00e+00	0	61	0	1909456896	41	4560
2026-01-19 04:27:57.33	351.66	43.48	-35.8	-37.0	18.2	0.00e+00	0	61	0	1916796928	42	4066
2026-01-19 04:27:58.34	351.38	43.74	-35.8	-37.0	18.1	0.00e+00	0	61	0	1924136960	42	4069
2026-01-19 04:27:59.35	351.11	43.99	-35.8	-37.0	18.2	0.00e+00	0	61	0	1931476992	42	4079
2026-01-19 04:28:00.36	350.83	44.24	-36.1	-37.3	17.9	0.00e+00	0	62	0	1938817024	42	4215
2026-01-19 04:28:01.37	350.54	44.49	-35.8	-36.9	18.2	0.00e+00	0	61	0	1946157056	42	4029
2026-01-19 04:28:02.38	350.25	44.75	-36.1	-37.4	17.8	0.00e+00	0	61	0	1952448512	42	4243
2026-01-19 04:28:03.39	349.96	45.00	-36.1	-37.3	17.9	0.00e+00	0	61	0	1959788544	42	4201
2026-01-19 04:28:04.40	349.66	45.26	-36.2	-37.4	17.8	0.00e+00	0	62	0	1968177152	42	4264
2026-01-19 04:28:05.41	349.36	45.51	-35.9	-37.1	18.0	0.00e+00	0	62	0	1974468608	42	4143
2026-01-19 04:28:06.42	349.05	45.77	-36.1	-37.3	17.9	0.00e+00	0	61	0	1981808640	42	4208
2026-01-19 04:28:07.43	348.73	46.03	-35.8	-36.9	18.2	0.00e+00	0	61	0	1989148672	41	4279
2026-01-19 04:28:08.44	348.41	46.29	-35.8	-37.0	18.1	0.00e+00	0	61	0	1996488704	41	4318
2026-01-19 04:28:09.45	348.09	46.55	-35.9	-37.0	18.1	0.00e+00	0	61	0	2003828736	41	4338
2026-01-19 04:28:10.46	347.76	46.81	-36.0	-37.2	17.9	0.00e+00	0	61	0	2011168768	41	4428
2026-01-19 04:28:11.47	347.42	47.07	-35.9	-37.1	18.0	0.00e+00	0	61	0	2018508800	41	4375
2026-01-19 04:28:12.48	347.08	47.33	-36.3	-37.6	17.6	0.00e+00	0	62	0	2025848832	42	4353
2026-01-19 04:28:13.49	346.73	47.59	-36.5	-37.8	17.4	0.00e+00	0	61	0	2033188864	42	4470
2026-01-19 04:28:14.50	346.38	47.85	-36.7	-38.0	17.2	0.00e+00	0	62	0	2040528896	43	4302
2026-01-19 04:28:15.51	346.02	48.11	-36.7	-38.0	17.2	0.00e+00	0	61	0	2047868928	43	4312
2026-01-19 04:28:16.52	345.65	48.38	-36.5	-37.8	17.4	0.00e+00	0	61	0	2055208960	43	4216
2026-01-19 04:28:17.53	345.28	48.64	-37.1	-38.5	16.9	0.00e+00	0	62	0	2062548992	44	4297
2026-01-19 04:28:18.54	344.90	48.90	-37.0	-38.3	17.1	0.00e+00	0	61	0	2069889024	44	4225
2026-01-19 04:28:19.55	344.52	49.17	-36.9	-38.3	17.1	0.00e+00	0	61	0	2077229056	44	4195
2026-01-19 04:28:20.56	344.12	49.43	-36.9	-38.2	17.2	0.00e+00	0	61	0	2084569088	44	4151
2026-01-19 04:28:21.57	343.73	49.69	-36.7	-37.9	17.4	0.00e+00	0	62	0	2091909120	44	4028
2026-01-19 04:28:22.58	343.32	49.96	-36.5	-37.7	17.5	0.00e+00	0	61	0	2098200576	43	4178
2026-01-19 04:28:23.59	342.91	50.22	-36.4	-37.7	17.5	0.00e+00	0	62	0	2106589184	43	4154
2026-01-19 04:28:24.60	342.49	50.48	-36.5	-37.7	17.5	0.00e+00	0	62	0	2113929216	43	4166
2026-01-19 04:28:25.61	342.06	50.75	-36.5	-37.7	17.4	0.00e+00	0	61	0	2120220672	43	4193
2026-01-19 04:28:26.62	341.62	51.01	-36.4	-37.6	17.6	0.00e+00	0	62	0	2127560704	43	4124
2026-01-19 04:28:27.63	341.18	51.27	-36.9	-38.2	17.0	0.00e+00	0	62	0	2134900736	43	4404
2026-01-19 04:28:28.64	340.73	51.54	-36.8	-38.1	17.1	0.00e+00	0	61	0	2142240768	43	4348
2026-01-19 04:28:29.65	340.27	51.80	-37.0	-38.3	16.9	0.00e+00	0	62	0	2149580800	43	4469
2026-01-19 04:28:30.66	339.80	52.06	-37.4	-38.8	16.7	0.00e+00	0	61	0	2156920832	44	4454
2026-01-19 04:28:31.67	339.33	52.32	-37.6	-39.0	16.4	0.00e+00	0	62	0	2164260864	44	4563
2026-01-19 04:28:32.68	338.84	52.58	-36.9	-38.1	17.2	0.00e+00	0	62	0	2171600896	44	4129
2026-01-19 04:28:33.69	338.35	52.84	-37.1	-38.4	17.0	0.00e+00	0	61	0	2178940928	45	4027
2026-01-19 04:28:34.70	337.85	53.10	-36.8	-38.1	17.3	0.00e+00	0	62	0	2186280960	44	4123
2026-01-19 04:28:35.71	337.34	53.36	-36.5	-37.7	17.6	0.00e+00	0	62	0	2193620992	44	3952
2026-01-19 04:28:36.72	336.82	53.61	-36.4	-37.6	17.6	0.00e+00	0	62	0	2200961024	43	4128
2026-01-19 04:28:37.73	336.29	53.87	-36.5	-37.7	17.5	0.00e+00	0	61	0	2208301056	42	4431
2026-01-19 04:28:38.74	335.75	54.12	-36.6	-37.8	17.4	0.00e+00	0	62	0	2215641088	43	4229
2026-01-19 04:28:39.75	335.20	54.37	-36.9	-38.2	17.0	0.00e+00	0	62	0	2222981120	43	4396
2026-01-19 04:28:40.76	334.64	54.63	-37.1	-38.5	16.7	0.00e+00	0	62	0	2230321152	43	4549
2026-01-19 04:28:41.77	334.07	54.87	-37.1	-38.5	16.7	0.00e+00	0	62	0	2237661184	43	4570
2026-01-19 04:28:42.78	333.50	55.12	-36.9	-38.2	17.1	0.00e+00	0	61	0	2245001216	44	4170
2026-01-19 04:28:43.79	332.91	55.37	-37.0	-38.3	17.1	0.00e+00	0	62	0	2251292672	44	4198
2026-01-19 04:28:44.80	332.31	55.61	-36.6	-37.9	17.4	0.00e+00	0	62	0	2259681280	44	4029
2026-01-19 04:28:45.81	331.70	55.86	-36.6	-37.9	17.4	0.00e+00	0	62	0	2267021312	44	4005
2026-01-19 04:28:46.82	331.08	56.10	-36.7	-38.0	17.3	0.00e+00	0	62	0	2273312768	44	4065
2026-01-19 04:28:47.83	330.45	56.33	-37.2	-38.5	16.8	0.00e+00	0	62	0	2280652800	44	4330
2026-01-19 04:28:48.84	329.81	56.57	-37.1	-38.5	16.8	0.00e+00	0	62	0	2287992832	44	4305
2026-01-19 04:28:49.84	329.16	56.80	-37.2	-38.5	16.8	0.00e+00	0	62	0	2295332864	44	4322
2026-01-19 04:28:50.85	328.49	57.03	-37.0	-38.3	17.0	0.00e+00	0	62	0	2302672896	44	4234
2026-01-19 04:28:51.86	327.82	57.26	-36.6	-37.9	17.5	0.00e+00	0	62	0	2310012928	44	4010
2026-01-19 04:28:52.87	327.13	57.48	-36.3	-37.4	17.6	0.00e+00	0	62	0	2317352960	43	4045
2026-01-19 04:28:53.88	326.43	57.70	-36.3	-37.5	17.7	0.00e+00	0	62	0	2324692992	42	4300
2026-01-19 04:28:54.89	325.73	57.92	-36.4	-37.7	17.4	0.00e+00	0	62	0	2332033024	42	4405
2026-01-19 04:28:55.90	325.00	58.13	-36.6	-37.9	17.2	0.00e+00	0	62	0	2339373056	43	4254
2026-01-19 04:28:56.91	324.27	58.35	-37.0	-38.3	16.8	0.00e+00	0	62	0	2346713088	43	4468
2026-01-19 04:28:57.92	323.53	58.55	-37.1	-38.5	16.7	0.00e+00	0	62	0	2354053120	43	4552
2026-01-19 04:28:58.93	322.77	58.76	-37.0	-38.3	16.9	0.00e+00	0	62	0	2361393152	43	4470
2026-01-19 04:28:59.94	322.00	58.96	-37.2	-38.5	16.8	0.00e+00	0	62	0	2368733184	44	4313
2026-01-19 04:29:00.95	321.22	59.15	-37.3	-38.6	16.6	0.00e+00	0	62	0	2376073216	44	4362
2026-01-19 04:29:01.96	320.43	59.34	-37.3	-38.7	16.7	0.00e+00	0	62	0	2383413248	44	4412
2026-01-19 04:29:02.97	319.63	59.53	-37.0	-38.3	16.9	0.00e+00	0	62	0	2390753280	44	4232
2026-01-19 04:29:03.98	318.82	59.71	-36.8	-38.0	16.9	0.00e+00	0	62	0	2397044736	44	4091
2026-01-19 04:29:04.99	317.99	59.89	-36.7	-37.9	16.8	0.00e+00	0	62	0	2404384768	44	4047
2026-01-19 04:29:06.00	317.15	60.06	-36.6	-37.9	16.5	0.00e+00	0	62	0	2412773376	44	4015
2026-01-19 04:29:07.00	316.31	60.22	-36.9	-38.2	16.2	0.00e+00	0	62	0	2419064832	44	4147
2026-01-19 04:29:08.01	315.46	60.39	-37.1	-38.4	15.9	0.00e+00	0	62	0	2426404864	44	4281
2026-01-19 04:29:09.02	314.59	60.54	-36.8	-38.0	16.8	0.00e+00	0	62	0	2433744896	44	4096
2026-01-19 04:29:10.03	313.71	60.69	-36.2	-37.4	17.8	0.00e+00	0	62	0	2441084928	43	4019
2026-01-19 04:29:11.04	312.82	60.84	-36.0	-37.2	17.1	0.00e+00	0	62	0	2448424960	42	4151
2026-01-19 04:29:12.05	311.91	60.98	-36.0	-37.1	16.0	0.00e+00	0	62	0	2455764992	42	4144
2026-01-19 04:29:13.06	311.00	61.11	-36.4	-37.6	14.7	0.00e+00	0	62	0	2463105024	42	4376
2026-01-19 04:29:14.07	310.08	61.24	-36.9	-38.2	14.2	0.00e+00	0	62	0	2470445056	43	4410
2026-01-19 04:29:15.08	309.15	61.36	-36.5	-37.8	15.0	0.00e+00	0	62	0	2477785088	43	4217
2026-01-19 04:29:16.09	308.22	61.47	-36.2	-37.4	16.0	0.00e+00	0	62	0	2485125120	43	4027
2026-01-19 04:29:17.10	307.27	61.58	-35.9	-37.1	16.9	0.00e+00	0	62	0	2492465152	42	4135
2026-01-19 04:29:18.11	306.31	61.68	-35.9	-37.1	17.4	0.00e+00	0	62	0	2499805184	42	4129
2026-01-19 04:29:19.12	305.35	61.77	-36.2	-37.4	17.6	0.00e+00	0	62	0	2507145216	42	4280
2026-01-19 04:29:20.13	304.38	61.86	-36.4	-37.6	16.5	0.00e+00	0	62	0	2514485248	42	4385
2026-01-19 04:29:21.14	303.41	61.94	-36.4	-37.6	14.9	0.00e+00	0	62	0	2521825280	42	4375
2026-01-19 04:29:22.15	302.42	62.01	-36.3	-37.5	14.2	0.00e+00	0	62	0	2529165312	42	4339
2026-01-19 04:29:23.16	301.43	62.08	-36.3	-37.5	15.0	0.00e+00	0	62	0	2536505344	42	4312
2026-01-19 04:29:24.17	300.44	62.14	-36.2	-37.4	15.8	0.00e+00	0	62	0	2543845376	42	4259
2026-01-19 04:29:25.18	299.44	62.19	-36.1	-37.3	15.9	0.00e+00	0	62	0	2550136832	42	4207
2026-01-19 04:29:26.19	298.44	62.23	-36.2	-37.4	16.0	0.00e+00	0	62	0	2557476864	42	4262
2026-01-19 04:29:27.20	297.44	62.27	-36.5	-37.7	16.4	0.00e+00	0	62	0	2565865472	42	4436
2026-01-19 04:29:28.21	296.43	62.30	-36.5	-37.7	16.9	0.00e+00	0	62	0	2572156928	42	4440
2026-01-19 04:29:29.22	295.42	62.32	-36.7	-38.0	16.8	0.00e+00	0	62	0	2579496960	43	4296
2026-01-19 04:29:30.23	294.41	62.33	-36.6	-37.9	16.9	0.00e+00	0	62	0	2586836992	43	4282
2026-01-19 04:29:31.24	293.40	62.34	-36.4	-37.7	17.1	0.00e+00	0	62	0	2594177024	43	4150
2026-01-19 04:29:32.25	292.38	62.34	-35.9	-37.1	17.7	0.00e+00	0	62	0	2601517056	42	4123
2026-01-19 04:29:33.26	291.37	62.33	-35.8	-37.0	17.8	0.00e+00	0	62	0	2608857088	42	4056
2026-01-19 04:29:34.27	290.36	62.31	-36.0	-37.2	17.6	0.00e+00	0	62	0	2616197120	42	4187
2026-01-19 04:29:35.28	289.35	62.29	-36.3	-37.5	17.5	0.00e+00	0	62	0	2623537152	42	4332
2026-01-19 04:29:36.29	288.35	62.25	-36.1	-37.4	17.8	0.00e+00	0	62	0	2630877184	42	4244
2026-01-19 04:29:37.30	287.34	62.21	-35.9	-37.0	18.0	0.00e+00	0	62	0	2638217216	42	4098
2026-01-19 04:29:38.31	286.34	62.17	-35.7	-36.9	18.3	0.00e+00	0	62	0	2645557248	42	4016
2026-01-19 04:29:39.32	285.34	62.11	-35.8	-37.0	18.2	0.00e+00	0	62	0	2652897280	42	4079
2026-01-19 04:29:40.33	284.35	62.05	-36.0	-37.2	17.9	0.00e+00	0	62	0	2660237312	42	4177
2026-01-19 04:29:41.34	283.37	61.98	-36.2	-37.4	17.6	0.00e+00	0	62	0	2667577344	42	4281
2026-01-19 04:29:42.35	282.39	61.91	-36.4	-37.6	17.5	0.00e+00	0	62	0	2674917376	42	4388
2026-01-19 04:29:43.36	281.41	61.82	-36.5	-37.8	17.4	0.00e+00	0	62	0	2682257408	42	4456
2026-01-19 04:29:44.37	280.44	61.73	-36.4	-37.6	17.6	0.00e+00	0	62	0	2689597440	42	4370
2026-01-19 04:29:45.38	279.48	61.64	-36.2	-37.5	17.7	0.00e+00	0	62	0	2695888896	42	4303
2026-01-19 04:29:46.39	278.53	61.53	-36.2	-37.4	17.8	0.00e+00	0	62	0	2703228928	42	4256
2026-01-19 04:29:47.40	277.59	61.42	-36.4	-37.6	17.6	0.00e+00	0	62	0	2711617536	42	4362
2026-01-19 04:29:48.40	276.66	61.31	-36.6	-37.9	17.3	0.00e+00	0	62	0	2717908992	42	4520
2026-01-19 04:29:49.41	275.74	61.18	-36.9	-38.2	16.9	0.00e+00	0	62	0	2725249024	43	4407
2026-01-19 04:29:50.42	274.82	61.05	-36.8	-38.1	17.1	0.00e+00	0	62	0	2732589056	43	4376
2026-01-19 04:29:51.43	273.91	60.92	-36.6	-37.9	17.3	0.00e+00	0	62	0	2739929088	43	4263
2026-01-19 04:29:52.44	273.01	60.78	-36.4	-37.6	17.5	0.00e+00	0	62	0	2747269120	43	4140
2026-01-19 04:29:53.45	272.13	60.63	-36.5	-37.8	17.4	0.00e+00	0	62	0	2754609152	43	4203
2026-01-19 04:29:54.46	271.25	60.48	-36.7	-38.0	17.2	0.00e+00	0	62	0	2761949184	43	4300
2026-01-19 04:29:55.48	270.37	60.32	-36.9	-38.2	17.0	0.00e+00	0	62	0	2769289216	43	4411
2026-01-19 04:29:56.48	269.53	60.15	-36.6	-37.9	17.2	0.00e+00	0	62	0	2776629248	43	4257
2026-01-19 04:29:57.50	268.67	59.98	-36.8	-38.1	17.1	0.00e+00	0	62	0	2783969280	43	4377
2026-01-19 04:29:58.51	267.84	59.81	-36.8	-38.1	17.1	0.00e+00	0	62	0	2791309312	43	4369
2026-01-19 04:29:59.52	267.02	59.63	-36.8	-38.1	17.0	0.00e+00	0	62	0	2798649344	43	4382
2026-01-19 04:30:00.53	266.21	59.44	-36.5	-37.7	17.5	0.00e+00	0	62	0	2805989376	43	4183
2026-01-19 04:30:01.54	265.41	59.25	-36.4	-37.7	17.5	0.00e+00	0	62	0	2813329408	43	4166
2026-01-19 04:30:02.55	264.62	59.06	-36.2	-37.4	17.8	0.00e+00	0	62	0	2820669440	43	4035
2026-01-19 04:30:03.56	263.85	58.86	-36.3	-37.5	17.7	0.00e+00	0	62	0	2828009472	43	4088
2026-01-19 04:30:04.57	263.08	58.66	-36.3	-37.5	17.6	0.00e+00	0	62	0	2835349504	43	4097
2026-01-19 04:30:05.58	262.33	58.46	-36.3	-37.5	17.7	0.00e+00	0	62	0	2842689536	43	4055
2026-01-19 04:30:06.59	261.59	58.25	-36.2	-37.5	17.7	0.00e+00	0	62	0	2848980992	43	4053
2026-01-19 04:30:07.60	260.86	58.03	-36.6	-37.9	17.3	0.00e+00	0	62	0	2857369600	43	4274
2026-01-19 04:30:08.61	260.15	57.82	-36.7	-38.1	17.0	0.00e+00	0	62	0	2864709632	43	4343
2026-01-19 04:30:09.62	259.44	57.60	-36.7	-37.9	17.2	0.00e+00	0	62	0	2871001088	43	4286
2026-01-19 04:30:10.62	258.75	57.38	-36.7	-37.9	17.3	0.00e+00	0	62	0	2878341120	43	4281
2026-01-19 04:30:11.63	258.07	57.15	-36.8	-38.1	17.1	0.00e+00	0	62	0	2885681152	43	4363
2026-01-19 04:30:12.64	257.40	56.92	-36.9	-38.2	17.0	0.00e+00	0	62	0	2893021184	43	4423
2026-01-19 04:30:13.65	256.74	56.69	-36.8	-38.0	17.1	0.00e+00	0	62	0	2900361216	43	4337
2026-01-19 04:30:14.66	256.09	56.45	-36.6	-37.9	17.3	0.00e+00	0	62	0	2907701248	43	4252
2026-01-19 04:30:15.67	255.45	56.22	-36.6	-37.8	17.3	0.00e+00	0	62	0	2915041280	43	4241
2026-01-19 04:30:16.68	254.82	55.98	-36.7	-37.9	17.3	0.00e+00	0	62	0	2922381312	43	4284
2026-01-19 04:30:17.69	254.21	55.74	-36.7	-38.0	17.2	0.00e+00	0	62	0	2929721344	43	4310
2026-01-19 04:30:18.70	253.60	55.49	-36.6	-37.9	17.3	0.00e+00	0	62	0	2937061376	43	4254
2026-01-19 04:30:19.71	253.00	55.25	-36.5	-37.7	17.4	0.00e+00	0	62	0	2944401408	43	4193
2026-01-19 04:30:20.72	252.42	55.00	-36.5	-37.8	17.4	0.00e+00	0	62	0	2951741440	43	4204
2026-01-19 04:30:21.73	251.84	54.75	-36.7	-37.9	17.2	0.00e+00	0	62	0	2959081472	43	4288
2026-01-19 04:30:22.75	251.27	54.50	-36.8	-38.1	17.1	0.00e+00	0	62	0	2966421504	43	4381
2026-01-19 04:30:23.75	250.72	54.25	-36.8	-38.1	17.1	0.00e+00	0	62	0	2973761536	43	4362
2026-01-19 04:30:24.77	250.17	53.99	-36.6	-37.8	17.3	0.00e+00	0	62	0	2981101568	43	4235
2026-01-19 04:30:25.78	249.64	53.73	-36.6	-37.9	17.2	0.00e+00	0	62	0	2988441600	43	4274
2026-01-19 04:30:26.79	249.11	53.48	-36.9	-38.2	17.0	0.00e+00	0	62	0	2994733056	43	4435
2026-01-19 04:30:27.79	248.60	53.22	-36.9	-38.2	17.0	0.00e+00	0	62	0	3003121664	43	4436
2026-01-19 04:30:28.80	248.09	52.96	-36.8	-38.0	17.2	0.00e+00	0	62	0	3010461696	43	4339
2026-01-19 04:30:29.81	247.59	52.70	-36.6	-37.9	17.3	0.00e+00	0	62	0	3016753152	43	4261
2026-01-19 04:30:30.82	247.10	52.44	-36.7	-38.0	17.2	0.00e+00	0	62	0	3024093184	43	4307
2026-01-19 04:30:31.83	246.62	52.18	-36.7	-38.0	17.2	0.00e+00	0	62	0	3031433216	43	4330
2026-01-19 04:30:32.84	246.15	51.92	-36.8	-38.1	17.1	0.00e+00	0	62	0	3038773248	43	4375
2026-01-19 04:30:33.85	245.68	51.66	-36.6	-37.8	17.3	0.00e+00	0	62	0	3046113280	43	4239
2026-01-19 04:30:34.86	245.23	51.39	-36.4	-37.7	17.5	0.00e+00	0	62	0	3053453312	43	4156
2026-01-19 04:30:35.87	244.78	51.13	-36.5	-37.8	17.4	0.00e+00	0	62	0	3060793344	43	4219
2026-01-19 04:30:36.88	244.34	50.86	-36.6	-37.9	17.3	0.00e+00	0	62	0	3068133376	43	4259
2026-01-19 04:30:37.89	243.90	50.60	-36.6	-37.8	17.3	0.00e+00	0	62	0	3075473408	43	4237
2026-01-19 04:30:38.90	243.48	50.34	-36.6	-37.9	17.3	0.00e+00	0	62	0	3082813440	43	4283
2026-01-19 04:30:39.91	243.06	50.07	-36.6	-37.9	17.3	0.00e+00	0	62	0	3090153472	43	4264
2026-01-19 04:30:40.92	242.65	49.81	-36.6	-37.9	17.2	0.00e+00	0	62	0	3097493504	43	4288
2026-01-19 04:30:41.93	242.25	49.54	-36.7	-38.0	17.2	0.00e+00	0	62	0	3104833536	43	4300
2026-01-19 04:30:42.94	241.85	49.28	-36.6	-37.9	17.3	0.00e+00	0	62	0	3112173568	43	4266
2026-01-19 04:30:43.95	241.46	49.01	-36.5	-37.8	17.4	0.00e+00	0	62	0	3119513600	43	4223
2026-01-19 04:30:44.96	241.08	48.75	-36.5	-37.8	17.4	0.00e+00	0	62	0	3126853632	43	4208
2026-01-19 04:30:45.97	240.70	48.49	-36.5	-37.7	17.5	0.00e+00	0	62	0	3134193664	43	4172
2026-01-19 04:30:46.98	240.33	48.22	-36.3	-37.5	17.6	0.00e+00	0	62	0	3141533696	43	4077
2026-01-19 04:30:47.99	239.97	47.96	-36.3	-37.5	17.6	0.00e+00	0	62	0	3147825152	43	4091
2026-01-19 04:30:49.00	239.61	47.69	-36.2	-37.5	17.7	0.00e+00	0	62	0	3156213760	43	4061
2026-01-19 04:30:50.01	239.26	47.43	-36.0	-37.2	18.0	0.00e+00	0	62	0	3163553792	42	4154
2026-01-19 04:30:51.02	238.91	47.17	-35.7	-36.9	18.3	0.00e+00	0	62	0	3169845248	42	4011
2026-01-19 04:30:52.03	238.57	46.91	-35.6	-36.8	18.4	0.00e+00	0	62	0	3177185280	42	3974
2026-01-19 04:30:53.04	238.24	46.65	-35.7	-36.8	18.3	0.00e+00	0	62	0	3184525312	42	4001
2026-01-19 04:30:54.05	237.91	46.39	-35.8	-37.0	18.1	0.00e+00	0	62	0	3191865344	42	4087
2026-01-19 04:30:55.06	237.58	46.13	-35.9	-37.1	18.1	0.00e+00	0	62	0	3199205376	42	4102
2026-01-19 04:30:56.06	237.27	45.87	-35.9	-37.1	18.0	0.00e+00	0	62	0	3206545408	42	4114
2026-01-19 04:30:57.07	236.96	45.61	-35.8	-37.0	18.2	0.00e+00	0	62	0	3213885440	42	4069
2026-01-19 04:30:58.08	236.65	45.35	-35.9	-37.1	18.1	0.00e+00	0	62	0	3221225472	42	4112
2026-01-19 04:30:59.09	236.35	45.10	-35.9	-37.1	18.0	0.00e+00	0	62	0	3228565504	42	4136
2026-01-19 04:31:00.10	236.05	44.84	-36.0	-37.2	18.0	0.00e+00	0	62	0	3235905536	42	4152
2026-01-19 04:31:01.11	235.75	44.58	-35.9	-37.2	18.1	0.00e+00	0	62	0	3243245568	42	4147
2026-01-19 04:31:02.12	235.47	44.33	-35.9	-37.1	18.1	0.00e+00	0	62	0	3250585600	42	4119
2026-01-19 04:31:03.13	235.18	44.07	-35.6	-36.8	18.4	0.00e+00	0	62	0	3257925632	42	3975
2026-01-19 04:31:04.14	234.90	43.82	-35.5	-36.6	18.5	0.00e+00	0	62	0	3265265664	42	3907
2026-01-19 04:31:05.15	234.63	43.57	-35.4	-36.6	18.6	0.00e+00	0	62	0	3272605696	41	4107
2026-01-19 04:31:06.16	234.36	43.32	-35.5	-36.6	18.4	0.00e+00	0	62	0	3279945728	41	4145
2026-01-19 04:31:07.17	234.09	43.07	-35.4	-36.6	18.5	0.00e+00	0	62	0	3287285760	41	4118
2026-01-19 04:31:08.18	233.83	42.82	-35.5	-36.7	18.5	0.00e+00	0	62	0	3293577216	41	4160
2026-01-19 04:31:09.19	233.57	42.57	-35.5	-36.7	18.4	0.00e+00	0	62	0	3300917248	41	4164
2026-01-19 04:31:10.20	233.32	42.32	-35.4	-36.6	18.6	0.00e+00	0	62	0	3309305856	41	4109
2026-01-19 04:31:11.21	233.07	42.07	-35.4	-36.5	18.6	0.00e+00	0	62	0	3315597312	41	4098
2026-01-19 04:31:12.22	232.82	41.83	-35.4	-36.5	18.6	0.00e+00	0	62	0	3322937344	41	4069
2026-01-19 04:31:13.23	232.58	41.59	-35.3	-36.4	18.6	0.00e+00	0	62	0	3330277376	41	4049
2026-01-19 04:31:14.24	232.34	41.34	-35.4	-36.6	18.5	0.00e+00	0	62	0	3337617408	41	4099
2026-01-19 04:31:15.25	232.10	41.10	-35.4	-36.6	18.5	0.00e+00	0	62	0	3344957440	41	4118
2026-01-19 04:31:16.26	231.87	40.86	-35.4	-36.5	18.6	0.00e+00	0	62	0	3352297472	41	4091
2026-01-19 04:31:17.27	231.64	40.62	-35.4	-36.5	18.6	0.00e+00	0	62	0	3359637504	41	4098
2026-01-19 04:31:18.28	231.42	40.38	-35.4	-36.5	18.6	0.00e+00	0	62	0	3366977536	41	4075
2026-01-19 04:31:19.29	231.20	40.14	-35.4	-36.6	18.6	0.00e+00	0	62	0	3374317568	41	4103
2026-01-19 04:31:20.30	230.98	39.90	-35.4	-36.5	18.5	0.00e+00	0	62	0	3381657600	41	4092
2026-01-19 04:31:21.31	230.76	39.67	-35.6	-36.7	18.4	0.00e+00	0	62	0	3388997632	41	4177
2026-01-19 04:31:22.32	230.55	39.43	-35.6	-36.8	18.3	0.00e+00	0	62	0	3396337664	41	4206
2026-01-19 04:31:23.33	230.34	39.20	-35.6	-36.8	18.3	0.00e+00	0	62	0	3403677696	41	4220
2026-01-19 04:31:24.34	230.14	38.97	-35.6	-36.8	18.3	0.00e+00	0	62	0	3411017728	41	4213
2026-01-19 04:31:25.35	229.93	38.74	-35.5	-36.7	18.3	0.00e+00	0	62	0	3418357760	41	4166
2026-01-19 04:31:26.36	229.73	38.51	-35.5	-36.6	18.5	0.00e+00	0	62	0	3425697792	41	4125
2026-01-19 04:31:27.37	229.54	38.28	-35.4	-36.6	18.5	0.00e+00	0	62	0	3433037824	41	4119
2026-01-19 04:31:28.38	229.34	38.05	-35.3	-36.4	18.7	0.00e+00	0	62	0	3440377856	41	4047
2026-01-19 04:31:29.39	229.15	37.82	-35.4	-36.5	18.5	0.00e+00	0	62	0	3446669312	41	4090
2026-01-19 04:31:30.40	228.96	37.60	-35.3	-36.4	18.6	0.00e+00	0	62	0	3455057920	41	4047
2026-01-19 04:31:31.41	228.77	37.37	-35.3	-36.5	18.7	0.00e+00	0	62	0	3462397952	41	4055
2026-01-19 04:31:32.42	228.59	37.15	-35.4	-36.5	18.6	0.00e+00	0	62	0	3468689408	41	4081
2026-01-19 04:31:33.42	228.41	36.93	-35.4	-36.5	18.6	0.00e+00	0	62	0	3476029440	41	4092
2026-01-19 04:31:34.43	228.23	36.71	-35.4	-36.5	18.5	0.00e+00	0	62	0	3483369472	41	4084
2026-01-19 04:31:35.44	228.06	36.49	-35.3	-36.5	18.5	0.00e+00	0	62	0	3490709504	41	4060
2026-01-19 04:31:36.45	227.88	36.27	-35.4	-36.5	18.6	0.00e+00	0	62	0	3498049536	41	4083
2026-01-19 04:31:37.46	227.71	36.05	-35.4	-36.6	18.5	0.00e+00	0	62	0	3505389568	41	4111
2026-01-19 04:31:38.47	227.54	35.84	-35.5	-36.7	18.4	0.00e+00	0	62	0	3512729600	41	4146
2026-01-19 04:31:39.48	227.37	35.62	-35.6	-36.8	18.3	0.00e+00	0	62	0	3520069632	41	4215
2026-01-19 04:31:40.49	227.21	35.41	-35.6	-36.8	18.3	0.00e+00	0	62	0	3527409664	41	4208
2026-01-19 04:31:41.50	227.04	35.20	-35.6	-36.7	18.3	0.00e+00	0	62	0	3534749696	41	4190
2026-01-19 04:31:42.51	226.88	34.98	-35.6	-36.8	18.3	0.00e+00	0	62	0	3542089728	41	4209
2026-01-19 04:31:43.52	226.72	34.77	-35.4	-36.6	18.5	0.00e+00	0	62	0	3549429760	41	4121
2026-01-19 04:31:44.53	226.57	34.57	-35.2	-36.3	18.7	0.00e+00	0	62	0	3556769792	41	3992
2026-01-19 04:31:45.54	226.41	34.36	-35.1	-36.2	18.8	0.00e+00	0	62	0	3564109824	41	3939
2026-01-19 04:31:46.55	226.26	34.15	-35.1	-36.2	18.8	0.00e+00	0	62	0	3571449856	41	3935
2026-01-19 04:31:47.55	226.11	33.95	-35.1	-36.2	18.9	0.00e+00	0	62	0	3578789888	41	3930
2026-01-19 04:31:48.56	225.96	33.74	-35.2	-36.3	18.8	0.00e+00	0	62	0	3586129920	41	3967
2026-01-19 04:31:49.58	225.82	33.54	-35.1	-36.3	18.8	0.00e+00	0	62	0	3592421376	41	3961
2026-01-19 04:31:50.59	225.67	33.33	-35.2	-36.3	18.8	0.00e+00	0	62	0	3599761408	41	3966
2026-01-19 04:31:51.59	225.53	33.13	-35.1	-36.3	18.8	0.00e+00	0	62	0	3608150016	41	3959
2026-01-19 04:31:52.60	225.39	32.93	-35.3	-36.4	18.7	0.00e+00	0	62	0	3614441472	41	4018
2026-01-19 04:31:53.61	225.25	32.74	-35.2	-36.3	18.7	0.00e+00	0	62	0	3621781504	41	3986
2026-01-19 04:31:54.62	225.11	32.54	-35.2	-36.3	18.7	0.00e+00	0	62	0	3629121536	41	3991
2026-01-19 04:31:55.63	224.97	32.34	-35.3	-36.4	18.6	0.00e+00	0	62	0	3636461568	41	4025
2026-01-19 04:31:56.64	224.84	32.15	-35.3	-36.5	18.6	0.00e+00	0	62	0	3643801600	41	4056
2026-01-19 04:31:57.65	224.71	31.95	-35.4	-36.5	18.5	0.00e+00	0	62	0	3651141632	41	4071
2026-01-19 04:31:58.66	224.57	31.76	-35.4	-36.5	18.5	0.00e+00	0	62	0	3658481664	41	4078
2026-01-19 04:31:59.67	224.44	31.56	-35.4	-36.6	18.4	0.00e+00	0	62	0	3665821696	41	4119
2026-01-19 04:32:00.68	224.32	31.37	-35.4	-36.5	18.5	0.00e+00	0	62	0	3673161728	41	4080
2026-01-19 04:32:01.69	224.19	31.18	-35.4	-36.5	18.5	0.00e+00	0	62	0	3680501760	41	4095
2026-01-19 04:32:02.70	224.06	30.99	-35.4	-36.5	18.5	0.00e+00	0	62	0	3687841792	41	4075
2026-01-19 04:32:03.71	223.94	30.81	-35.4	-36.5	18.5	0.00e+00	0	62	0	3695181824	41	4086
2026-01-19 04:32:04.71	223.82	30.62	-35.4	-36.5	18.4	0.00e+00	0	62	0	3702521856	41	4085
2026-01-19 04:32:05.72	223.70	30.43	-35.4	-36.5	18.5	0.00e+00	0	62	0	3709861888	41	4078
2026-01-19 04:32:06.73	223.58	30.25	-35.4	-36.5	18.5	0.00e+00	0	62	0	3717201920	41	4075
2026-01-19 04:32:07.74	223.46	30.07	-35.4	-36.5	18.5	0.00e+00	0	62	0	3723493376	41	4095
2026-01-19 04:32:08.75	223.35	29.88	-35.5	-36.6	18.4	0.00e+00	0	62	0	3731881984	41	4131
2026-01-19 04:32:09.76	223.23	29.70	-35.5	-36.6	18.3	0.00e+00	0	62	0	3739222016	41	4145
2026-01-19 04:32:10.77	223.12	29.52	-35.6	-36.8	18.2	0.00e+00	0	62	0	3745513472	41	4216
2026-01-19 04:32:11.78	223.00	29.34	-35.6	-36.8	18.2	0.00e+00	0	62	0	3752853504	41	4212
2026-01-19 04:32:12.79	222.89	29.16	-35.6	-36.8	18.3	0.00e+00	0	62	0	3760193536	41	4194
2026-01-19 04:32:13.80	222.78	28.98	-35.7	-36.8	18.2	0.00e+00	0	62	0	3767533568	41	4238
2026-01-19 04:32:14.81	222.67	28.81	-35.7	-36.8	18.2	0.00e+00	0	62	0	3774873600	41	4236
2026-01-19 04:32:15.82	222.56	28.63	-35.7	-36.9	18.2	0.00e+00	0	62	0	3782213632	41	4252
2026-01-19 04:32:16.83	222.46	28.46	-35.7	-36.8	18.2	0.00e+00	0	62	0	3789553664	41	4239
2026-01-19 04:32:17.84	222.35	28.28	-35.7	-36.8	18.2	0.00e+00	0	62	0	3796893696	41	4242
2026-01-19 04:32:18.85	222.25	28.11	-35.6	-36.8	18.2	0.00e+00	0	62	0	3804233728	41	4230
2026-01-19 04:32:19.85	222.15	27.94	-35.7	-36.9	18.1	0.00e+00	0	62	0	3811573760	41	4254
2026-01-19 04:32:20.86	222.04	27.77	-35.6	-36.7	18.3	0.00e+00	0	62	0	3818913792	41	4180
2026-01-19 04:32:21.87	221.94	27.60	-35.5	-36.7	18.3	0.00e+00	0	62	0	3826253824	41	4168
2026-01-19 04:32:22.88	221.84	27.43	-35.6	-36.7	18.3	0.00e+00	0	62	0	3833593856	41	4183
2026-01-19 04:32:23.89	221.75	27.26	-35.5	-36.7	18.3	0.00e+00	0	62	0	3840933888	41	4170
2026-01-19 04:32:24.90	221.65	27.09	-35.5	-36.6	18.3	0.00e+00	0	62	0	3848273920	41	4135
2026-01-19 04:32:25.91	221.55	26.93	-35.4	-36.6	18.4	0.00e+00	0	62	0	3855613952	41	4108
2026-01-19 04:32:26.92	221.46	26.76	-35.6	-36.7	18.2	0.00e+00	0	62	0	3862953984	41	4180
2026-01-19 04:32:27.93	221.36	26.60	-35.6	-36.8	18.1	0.00e+00	0	62	0	3869245440	41	4202
2026-01-19 04:32:28.94	221.27	26.43	-35.7	-36.9	18.1	0.00e+00	0	62	0	3876585472	41	4279
2026-01-19 04:32:29.95	221.18	26.27	-35.7	-36.9	18.1	0.00e+00	0	62	0	3884974080	41	4271
2026-01-19 04:32:30.96	221.08	26.11	-35.7	-36.9	18.0	0.00e+00	0	62	0	3891265536	41	4281
2026-01-19 04:32:31.97	220.99	25.95	-35.8	-37.0	17.9	0.00e+00	0	62	0	3898605568	41	4338
2026-01-19 04:32:32.98	220.90	25.79	-35.8	-37.0	17.9	0.00e+00	0	62	0	3905945600	41	4323
2026-01-19 04:32:33.99	220.81	25.63	-35.8	-37.0	18.0	0.00e+00	0	62	0	3913285632	41	4304
2026-01-19 04:32:35.00	220.73	25.47	-35.8	-37.0	17.9	0.00e+00	0	62	0	3920625664	41	4328
2026-01-19 04:32:36.00	220.64	25.32	-35.9	-37.1	17.8	0.00e+00	0	62	0	3927965696	41	4362
2026-01-19 04:32:37.01	220.55	25.16	-35.9	-37.1	17.9	0.00e+00	0	62	0	3935305728	41	4354
2026-01-19 04:32:38.02	220.47	25.00	-35.8	-37.0	17.9	0.00e+00	0	62	0	3942645760	41	4336
2026-01-19 04:32:39.03	220.39	24.85	-35.8	-37.0	18.0	0.00e+00	0	62	0	3949985792	41	4298
2026-01-19 04:32:40.04	220.30	24.70	-35.8	-37.0	17.9	0.00e+00	0	62	0	3957325824	41	4311
2026-01-19 04:32:41.05	220.22	24.54	-35.7	-36.9	18.1	0.00e+00	0	62	0	3964665856	41	4246
2026-01-19 04:32:42.06	220.14	24.39	-35.6	-36.8	18.1	0.00e+00	0	62	0	3972005888	41	4230
2026-01-19 04:32:43.07	220.06	24.24	-35.7	-36.9	18.0	0.00e+00	0	62	0	3979345920	41	4282
2026-01-19 04:32:44.08	219.98	24.09	-35.6	-36.8	18.1	0.00e+00	0	62	0	3986685952	41	4231
2026-01-19 04:32:45.09	219.90	23.94	-35.7	-36.9	18.1	0.00e+00	0	62	0	3994025984	41	4246
2026-01-19 04:32:46.10	219.82	23.79	-35.6	-36.8	18.1	0.00e+00	0	62	0	4001366016	41	4215
2026-01-19 04:32:47.11	219.74	23.64	-35.7	-36.8	18.1	0.00e+00	0	62	0	4008706048	41	4231
2026-01-19 04:32:48.12	219.66	23.49	-35.6	-36.8	18.1	0.00e+00	0	62	0	4016046080	41	4203
2026-01-19 04:32:49.13	219.59	23.35	-35.6	-36.8	18.1	0.00e+00	0	62	0	4022337536	41	4206
2026-01-19 04:32:50.14	219.51	23.20	-35.7	-36.9	18.0	0.00e+00	0	62	0	4029677568	41	4253
2026-01-19 04:32:51.15	219.44	23.06	-35.6	-36.8	18.1	0.00e+00	0	62	0	4038066176	41	4204
2026-01-19 04:32:52.16	219.36	22.91	-35.7	-36.9	18.0	0.00e+00	0	62	0	4044357632	41	4247
2026-01-19 04:32:53.17	219.29	22.77	-35.8	-37.0	17.9	0.00e+00	0	62	0	4051697664	41	4309
2026-01-19 04:32:54.18	219.22	22.62	-35.6	-36.8	18.0	0.00e+00	0	62	0	4059037696	41	4231
2026-01-19 04:32:55.19	219.14	22.48	-35.7	-36.9	18.0	0.00e+00	0	62	0	4066377728	41	4268
2026-01-19 04:32:56.20	219.07	22.34	-35.7	-36.9	18.0	0.00e+00	0	62	0	4073717760	41	4269
2026-01-19 04:32:57.21	219.00	22.20	-35.7	-36.9	18.0	0.00e+00	0	62	0	4081057792	41	4252
2026-01-19 04:32:58.22	218.93	22.06	-35.7	-36.9	17.9	0.00e+00	0	62	0	4088397824	41	4288
2026-01-19 04:32:59.23	218.86	21.92	-35.7	-36.9	17.9	0.00e+00	0	62	0	4095737856	41	4270
2026-01-19 04:33:00.24	218.79	21.78	-35.7	-36.9	17.9	0.00e+00	0	62	0	4103077888	41	4267
2026-01-19 04:33:01.25	218.72	21.64	-35.7	-36.9	17.9	0.00e+00	0	62	0	4110417920	41	4282
2026-01-19 04:33:02.26	218.66	21.51	-35.8	-37.0	17.9	0.00e+00	0	62	0	4117757952	41	4306
2026-01-19 04:33:03.27	218.59	21.37	-35.8	-37.0	17.8	0.00e+00	0	62	0	4125097984	41	4326
2026-01-19 04:33:04.28	218.52	21.24	-35.9	-37.1	17.8	0.00e+00	0	62	0	4132438016	41	4359
2026-01-19 04:33:05.29	218.46	21.10	-36.0	-37.2	17.7	0.00e+00	0	62	0	4139778048	41	4411
2026-01-19 04:33:06.30	218.39	20.97	-36.0	-37.2	17.6	0.00e+00	0	62	0	4147118080	41	4439
2026-01-19 04:33:07.31	218.33	20.83	-36.1	-37.4	17.5	0.00e+00	0	62	0	4154458112	41	4495
2026-01-19 04:33:08.32	218.26	20.70	-36.2	-37.4	17.4	0.00e+00	0	62	0	4161798144	42	4286
2026-01-19 04:33:09.33	218.20	20.57	-36.3	-37.6	17.3	0.00e+00	0	62	0	4169138176	42	4345
2026-01-19 04:33:10.34	218.14	20.43	-36.2	-37.5	17.4	0.00e+00	0	62	0	4175429632	42	4297
2026-01-19 04:33:11.35	218.07	20.30	-36.3	-37.6	17.3	1.10e-06	0	62	0	4183818240	42	4349
2026-01-19 04:33:12.36	218.01	20.17	-36.3	-37.6	17.3	0.00e+00	0	62	0	4190109696	42	4349
2026-01-19 04:33:13.37	217.95	20.04	-36.4	-37.7	17.2	0.00e+00	0	62	0	4197449728	42	4425
2026-01-19 04:33:14.38	217.89	19.91	-36.4	-37.7	17.2	0.00e+00	0	62	0	4204789760	42	4416
2026-01-19 04:33:15.39	217.83	19.79	-36.4	-37.6	17.2	0.00e+00	0	62	0	4212129792	42	4387
2026-01-19 04:33:16.40	217.77	19.66	-36.5	-37.8	17.1	0.00e+00	0	62	0	4219469824	42	4456
2026-01-19 04:33:17.41	217.71	19.53	-36.5	-37.8	17.0	0.00e+00	0	62	0	4226809856	42	4479
2026-01-19 04:33:18.42	217.65	19.40	-36.5	-37.8	17.0	0.00e+00	0	62	0	4234149888	42	4476
2026-01-19 04:33:19.43	217.60	19.28	-36.5	-37.8	17.0	0.00e+00	0	62	0	4241489920	42	4449
2026-01-19 04:33:20.44	217.54	19.15	-36.4	-37.7	17.1	0.00e+00	0	62	0	4248829952	42	4427
2026-01-19 04:33:21.45	217.48	19.03	-36.4	-37.7	17.1	0.00e+00	0	62	0	4256169984	42	4438
2026-01-19 04:33:22.46	217.42	18.90	-36.4	-37.7	17.1	0.00e+00	0	62	0	4263510016	42	4415
2026-01-19 04:33:23.47	217.37	18.78	-36.5	-37.8	17.0	0.00e+00	0	62	0	4270850048	42	4451
2026-01-19 04:33:24.48	217.31	18.66	-36.5	-37.8	17.0	0.00e+00	0	62	0	4278190080	42	4493
2026-01-19 04:33:25.49	217.26	18.53	-36.5	-37.8	17.0	0.00e+00	0	62	0	4285530112	42	4475
2026-01-19 04:33:26.50	217.20	18.41	-36.5	-37.8	17.0	0.00e+00	0	62	0	4292870144	42	4471
2026-01-19 04:33:27.51	217.15	18.29	-36.5	-37.9	17.0	0.00e+00	0	62	0	4300210176	42	4495
2026-01-19 04:33:28.52	217.09	18.17	-36.6	-37.9	16.9	0.00e+00	0	62	0	4307550208	42	4527
2026-01-19 04:33:29.53	217.04	18.05	-36.6	-37.9	16.9	0.00e+00	0	62	0	4314890240	42	4535
2026-01-19 04:33:30.54	216.99	17.93	-36.6	-37.9	16.8	0.00e+00	0	62	0	4321181696	42	4532
2026-01-19 04:33:31.55	216.94	17.81	-36.6	-38.0	16.8	0.00e+00	0	62	0	4329570304	42	4549
2026-01-19 04:33:32.56	216.88	17.69	-36.7	-38.1	16.7	0.00e+00	0	62	0	4336910336	43	4352
2026-01-19 04:33:33.57	216.83	17.58	-36.7	-38.1	16.7	0.00e+00	0	62	0	4343201792	43	4355
2026-01-19 04:33:34.58	216.78	17.46	-36.8	-38.2	16.6	0.00e+00	0	62	0	4350541824	43	4398
2026-01-19 04:33:35.59	216.73	17.34	-36.8	-38.2	16.6	0.00e+00	0	62	0	4357881856	43	4426
2026-01-19 04:33:36.60	216.68	17.22	-36.8	-38.2	16.6	0.00e+00	0	62	0	4365221888	43	4423
2026-01-19 04:33:37.61	216.63	17.11	-36.9	-38.3	16.5	0.00e+00	0	62	0	4372561920	43	4454
2026-01-19 04:33:38.62	216.58	16.99	-36.9	-38.3	16.4	0.00e+00	0	62	0	4379901952	43	4493
2026-01-19 04:33:39.63	216.53	16.88	-37.0	-38.4	16.3	0.00e+00	0	62	0	4387241984	43	4532
2026-01-19 04:33:40.63	216.48	16.77	-37.1	-38.5	16.2	0.00e+00	0	62	0	4394582016	43	4572
2026-01-19 04:33:41.64	216.43	16.65	-37.1	-38.5	16.3	0.00e+00	0	62	0	4401922048	43	4569
2026-01-19 04:33:42.65	216.39	16.54	-37.1	-38.5	16.2	0.00e+00	0	62	0	4409262080	43	4570
2026-01-19 04:33:43.66	216.34	16.43	-37.0	-38.4	16.3	6.80e-06	0	62	0	4416602112	43	4534
2026-01-19 04:33:44.67	216.29	16.31	-37.0	-38.5	16.2	0.00e+00	0	62	0	4423942144	43	4560
2026-01-19 04:33:45.68	216.24	16.20	-36.9	-38.4	16.3	0.00e+00	0	62	0	4431282176	43	4506
2026-01-19 04:33:46.69	216.20	16.09	-37.0	-38.4	16.3	0.00e+00	0	62	0	4438622208	43	4504
2026-01-19 04:33:47.70	216.15	15.98	-37.0	-38.4	16.2	0.00e+00	0	62	0	4445962240	43	4540
2026-01-19 04:33:48.71	216.11	15.87	-37.1	-38.5	16.2	0.00e+00	0	62	0	4453302272	43	4583
2026-01-19 04:33:49.72	216.06	15.76	-37.1	-38.5	16.1	0.00e+00	0	62	0	4460642304	43	4589
2026-01-19 04:33:50.73	216.01	15.65	-37.1	-38.5	16.2	0.00e+00	0	62	0	4467982336	43	4586
2026-01-19 04:33:51.74	215.97	15.54	-37.1	-38.5	16.2	0.00e+00	0	62	0	4474273792	43	4584
2026-01-19 04:33:52.75	215.93	15.43	-37.1	-38.5	16.1	1.10e-06	0	62	0	4482662400	43	4595
2026-01-19 04:33:53.77	215.88	15.32	-37.1	-38.6	16.1	0.00e+00	0	62	0	4488953856	43	4622
2026-01-19 04:33:54.78	215.84	15.22	-37.4	-38.8	16.0	0.00e+00	0	62	0	4496293888	44	4478
2026-01-19 04:33:55.79	215.79	15.11	-37.3	-38.8	16.0	0.00e+00	0	62	0	4503633920	44	4464
2026-01-19 04:33:56.79	215.75	15.00	-37.4	-38.9	15.9	0.00e+00	0	62	0	4510973952	44	4519
2026-01-19 04:33:57.80	215.71	14.90	-37.4	-38.9	15.9	0.00e+00	0	62	0	4518313984	44	4506
