passes_logs/2026/01/19/R2.0S_Moscow/R2.0S_Moscow__20260119_115320_NOAA_20_JPSS-1_rec.log

#Pass ID: 20260119_115320_NOAA 20 (JPSS-1)
#Satellite: NOAA 20 (JPSS-1)
#Configuration: NOAA 20
#almurnet v.1.7.20251203
#Start time: 2026-01-19 11:53:20

#Version: 2.2.20231116
#Station: R2.0S_Moscow
#Location: 37.707566 lon 55.798166 lat
#TLE: 1 43013U 17073A   26017.93796159  .00000077  00000+0  57252-4 0  9992
#TLE: 2 43013  98.7639 318.8464 0001390  34.9771 325.1496 14.19536703423157

#Time	Az	El	Level	Level2	SNR	BER	BlckErr	Temp	State	Recorded	gain1	gain2
2026-01-19 11:53:20.81	221.84	2.04	-44.1	-58.8	3.8	1.49e+00	0	54	0	0	60	18824
2026-01-19 11:53:21.81	221.93	2.09	-44.1	-58.8	3.8	1.49e+00	0	54	104	0	60	18790
2026-01-19 11:53:22.82	222.02	2.14	-44.1	-58.8	3.8	1.49e+00	0	54	104	0	60	18805
2026-01-19 11:53:23.83	222.11	2.19	-44.1	-58.8	3.8	1.49e+00	0	54	104	0	60	18740
2026-01-19 11:53:24.84	222.20	2.23	-44.1	-58.8	3.8	1.49e+00	0	54	104	0	60	18776
2026-01-19 11:53:25.85	222.29	2.28	-44.1	-58.8	3.8	1.49e+00	0	54	104	0	60	18774
2026-01-19 11:53:26.86	222.38	2.33	-44.1	-58.8	3.8	1.49e+00	0	54	104	0	60	18816
2026-01-19 11:53:27.87	222.48	2.38	-44.1	-58.7	3.8	1.49e+00	0	54	104	0	60	18715
2026-01-19 11:53:28.88	222.57	2.43	-44.1	-58.8	3.8	1.49e+00	0	54	104	0	60	18733
2026-01-19 11:53:29.90	222.66	2.48	-44.1	-58.8	3.8	1.49e+00	0	54	104	0	60	18798
2026-01-19 11:53:30.91	222.76	2.53	-44.1	-58.8	3.8	1.49e+00	0	55	104	0	60	18753
2026-01-19 11:53:31.92	222.85	2.58	-44.1	-58.8	3.8	1.49e+00	0	55	104	0	60	18780
2026-01-19 11:53:32.93	222.95	2.63	-44.1	-58.8	3.8	1.49e+00	0	55	104	0	60	18820
2026-01-19 11:53:33.94	223.04	2.68	-44.1	-58.7	3.8	1.49e+00	0	55	104	0	60	18714
2026-01-19 11:53:34.95	223.14	2.73	-44.1	-58.8	3.8	1.49e+00	0	55	104	0	60	18733
2026-01-19 11:53:35.96	223.23	2.78	-44.1	-58.7	3.8	1.49e+00	0	55	104	0	60	18695
2026-01-19 11:53:36.97	223.33	2.83	-44.1	-58.7	3.8	1.49e+00	0	55	104	0	60	18720
2026-01-19 11:53:37.98	223.42	2.88	-44.1	-58.8	3.8	1.49e+00	0	55	104	0	60	18773
2026-01-19 11:53:38.99	223.52	2.93	-44.1	-58.8	3.8	1.49e+00	0	55	104	0	60	18841
2026-01-19 11:53:40.00	223.62	2.98	-44.1	-58.8	3.8	1.49e+00	0	55	104	0	60	18801
2026-01-19 11:53:41.01	223.71	3.03	-44.1	-58.8	3.8	1.49e+00	0	56	104	0	60	18800
2026-01-19 11:53:42.02	223.81	3.08	-44.1	-58.8	3.8	1.49e+00	0	55	104	0	60	18782
2026-01-19 11:53:43.03	223.91	3.13	-44.1	-58.8	3.8	1.49e+00	0	56	104	0	60	18736
2026-01-19 11:53:44.04	224.00	3.18	-44.1	-58.8	3.8	1.49e+00	0	55	104	0	60	18734
2026-01-19 11:53:45.05	224.10	3.23	-44.1	-58.7	3.8	1.49e+00	0	56	104	0	60	18724
2026-01-19 11:53:46.06	224.20	3.28	-44.1	-58.8	3.8	1.49e+00	0	56	104	0	60	18755
2026-01-19 11:53:47.07	224.30	3.33	-44.1	-58.7	3.8	1.49e+00	0	56	104	0	60	18729
2026-01-19 11:53:48.08	224.40	3.38	-44.1	-58.8	3.8	1.49e+00	0	56	104	0	60	18827
2026-01-19 11:53:49.09	224.50	3.43	-44.1	-58.8	3.8	1.49e+00	0	56	104	0	60	18817
2026-01-19 11:53:50.10	224.60	3.48	-44.1	-58.8	3.8	1.49e+00	0	56	104	0	60	18777
2026-01-19 11:53:51.12	224.70	3.53	-44.1	-58.8	3.8	1.49e+00	0	56	104	0	60	18746
2026-01-19 11:53:52.13	224.80	3.58	-44.1	-58.8	3.8	1.49e+00	0	56	104	0	60	18766
2026-01-19 11:53:53.14	224.90	3.63	-44.1	-58.8	3.8	1.49e+00	0	56	104	0	60	18734
2026-01-19 11:53:54.15	225.00	3.68	-44.1	-58.7	3.8	1.49e+00	0	56	104	0	60	18713
2026-01-19 11:53:55.16	225.10	3.73	-44.1	-58.8	3.8	1.49e+00	0	56	104	0	60	18769
2026-01-19 11:53:56.17	225.20	3.78	-44.1	-58.7	3.8	1.49e+00	0	56	104	0	60	18731
2026-01-19 11:53:57.18	225.30	3.83	-44.1	-58.8	3.8	1.49e+00	0	56	104	0	60	18758
2026-01-19 11:53:58.19	225.41	3.88	-44.1	-58.8	3.8	1.49e+00	0	56	104	0	60	18740
2026-01-19 11:53:59.20	225.51	3.93	-44.1	-58.8	3.8	1.49e+00	0	56	104	0	60	18794
2026-01-19 11:54:00.21	225.61	3.98	-44.1	-58.8	3.8	1.49e+00	0	56	104	0	60	18783
2026-01-19 11:54:01.22	225.72	4.03	-44.1	-58.8	3.8	1.49e+00	0	57	104	0	60	18756
2026-01-19 11:54:02.23	225.82	4.08	-44.1	-58.7	3.8	1.49e+00	0	56	104	0	60	18730
2026-01-19 11:54:03.24	225.92	4.13	-44.1	-58.8	3.8	1.49e+00	0	57	104	0	60	18743
2026-01-19 11:54:04.25	226.03	4.18	-44.1	-58.8	3.8	1.49e+00	0	57	104	0	60	18769
2026-01-19 11:54:05.26	226.13	4.23	-44.1	-58.8	3.8	1.49e+00	0	57	104	0	60	18751
2026-01-19 11:54:06.28	226.24	4.28	-44.1	-58.7	3.8	1.49e+00	0	57	104	0	60	18710
2026-01-19 11:54:07.29	226.34	4.33	-44.1	-58.7	3.8	1.49e+00	0	57	104	0	60	18677
2026-01-19 11:54:08.30	226.45	4.38	-44.1	-58.8	3.8	1.49e+00	0	57	104	0	60	18751
2026-01-19 11:54:09.31	226.56	4.43	-44.1	-58.7	3.8	1.49e+00	0	57	104	0	60	18729
2026-01-19 11:54:10.32	226.66	4.48	-44.1	-58.7	3.8	1.49e+00	0	57	104	0	60	18692
2026-01-19 11:54:11.33	226.77	4.54	-44.1	-58.7	3.8	1.49e+00	0	57	104	0	60	18699
2026-01-19 11:54:12.34	226.88	4.59	-44.1	-58.7	3.8	1.49e+00	0	57	104	0	60	18684
2026-01-19 11:54:13.35	226.98	4.64	-44.1	-58.8	3.8	1.49e+00	0	57	104	0	60	18738
2026-01-19 11:54:14.36	227.09	4.69	-44.1	-58.7	3.8	1.49e+00	0	57	104	0	60	18644
2026-01-19 11:54:15.37	227.20	4.74	-44.1	-58.7	3.8	1.49e+00	0	57	104	0	60	18654
2026-01-19 11:54:16.38	227.31	4.79	-44.1	-58.7	3.8	1.49e+00	0	57	104	0	60	18712
2026-01-19 11:54:17.39	227.42	4.84	-44.1	-58.7	3.8	1.49e+00	0	57	104	0	60	18646
2026-01-19 11:54:18.40	227.53	4.89	-44.1	-58.7	3.8	1.49e+00	0	57	104	0	60	18698
2026-01-19 11:54:19.41	227.64	4.94	-44.1	-58.8	3.8	1.49e+00	0	57	104	0	60	18743
2026-01-19 11:54:20.42	227.75	4.99	-44.1	-58.8	3.8	1.49e+00	0	57	104	0	60	18743
2026-01-19 11:54:21.43	227.86	5.04	-44.1	-58.7	3.8	1.49e+00	0	57	104	0	60	18726
2026-01-19 11:54:22.44	227.97	5.09	-44.1	-58.8	3.8	1.49e+00	0	57	104	0	60	18749
2026-01-19 11:54:23.45	228.08	5.14	-44.1	-58.7	3.8	1.49e+00	0	58	104	0	60	18725
2026-01-19 11:54:24.46	228.19	5.19	-44.1	-58.8	3.8	1.49e+00	0	57	104	0	60	18734
2026-01-19 11:54:25.47	228.30	5.24	-44.1	-58.7	3.8	1.49e+00	0	57	104	0	60	18671
2026-01-19 11:54:26.48	228.41	5.29	-44.1	-58.8	3.8	1.49e+00	0	58	104	0	60	18779
2026-01-19 11:54:27.49	228.53	5.34	-44.1	-58.7	3.8	1.49e+00	0	58	104	0	60	18716
2026-01-19 11:54:28.50	228.64	5.39	-44.1	-58.7	3.8	1.49e+00	0	58	104	0	60	18597
2026-01-19 11:54:29.52	228.75	5.45	-44.1	-58.7	3.8	1.49e+00	0	58	104	0	60	18564
2026-01-19 11:54:30.53	228.87	5.50	-44.1	-58.7	3.8	1.49e+00	0	58	104	0	60	18650
2026-01-19 11:54:31.54	228.98	5.55	-44.1	-58.7	3.8	1.49e+00	0	58	104	0	60	18609
2026-01-19 11:54:32.55	229.10	5.60	-44.1	-58.6	3.8	1.49e+00	0	58	104	0	60	18517
2026-01-19 11:54:33.56	229.21	5.65	-44.1	-58.6	3.8	1.49e+00	0	58	104	0	60	18494
2026-01-19 11:54:34.57	229.33	5.70	-44.1	-58.7	3.8	1.49e+00	0	58	104	0	60	18565
2026-01-19 11:54:35.58	229.44	5.75	-44.1	-58.6	3.8	1.49e+00	0	58	104	0	60	18466
2026-01-19 11:54:36.59	229.56	5.80	-44.1	-58.6	3.8	1.49e+00	0	58	104	0	60	18488
2026-01-19 11:54:37.60	229.68	5.85	-44.1	-58.6	3.8	1.49e+00	0	58	104	0	60	18491
2026-01-19 11:54:38.61	229.79	5.90	-44.1	-58.6	3.8	1.49e+00	0	58	104	0	60	18511
2026-01-19 11:54:39.62	229.91	5.95	-44.1	-58.6	3.8	1.49e+00	0	58	104	0	60	18435
2026-01-19 11:54:40.63	230.03	6.00	-44.1	-58.6	3.8	1.49e+00	0	58	104	0	60	18324
2026-01-19 11:54:41.63	230.14	6.05	-44.1	-58.6	3.8	1.49e+00	0	58	104	0	60	18328
2026-01-19 11:54:42.64	230.26	6.10	-44.1	-58.5	3.8	1.49e+00	0	58	104	0	60	18205
2026-01-19 11:54:43.65	230.38	6.15	-44.1	-58.5	3.8	1.49e+00	0	58	104	0	60	18125
2026-01-19 11:54:44.66	230.50	6.20	-44.1	-58.5	3.8	1.49e+00	0	59	104	0	60	18097
2026-01-19 11:54:45.67	230.62	6.25	-44.1	-58.3	3.8	1.49e+00	0	58	104	0	60	17866
2026-01-19 11:54:46.68	230.74	6.30	-44.1	-58.2	3.8	1.49e+00	0	59	104	0	60	17634
2026-01-19 11:54:47.69	230.86	6.36	-44.1	-58.2	3.8	1.49e+00	0	58	104	0	60	17566
2026-01-19 11:54:48.70	230.98	6.41	-44.1	-58.1	3.8	1.49e+00	0	58	104	0	60	17312
2026-01-19 11:54:49.71	231.10	6.46	-44.1	-58.0	3.8	1.49e+00	0	59	104	0	60	17108
2026-01-19 11:54:50.72	231.22	6.51	-44.1	-57.8	3.8	1.49e+00	0	58	104	0	60	16723
2026-01-19 11:54:51.73	231.35	6.56	-44.1	-57.6	3.8	1.49e+00	0	58	104	0	60	16483
2026-01-19 11:54:52.75	231.47	6.61	-44.1	-57.5	3.8	1.49e+00	0	59	104	0	60	16164
2026-01-19 11:54:53.76	231.59	6.66	-44.0	-57.2	3.8	1.49e+00	0	59	104	0	60	15706
2026-01-19 11:54:54.77	231.72	6.71	-44.0	-56.9	3.8	1.49e+00	0	59	104	0	60	15207
2026-01-19 11:54:55.78	231.84	6.76	-44.0	-56.6	3.9	1.49e+00	0	59	104	0	60	14560
2026-01-19 11:54:56.79	231.96	6.81	-44.0	-56.4	3.8	1.48e+00	0	59	104	0	60	14233
2026-01-19 11:54:57.80	232.09	6.86	-44.0	-55.7	4.0	1.48e+00	0	59	0	0	59	13989
2026-01-19 11:54:58.81	232.21	6.91	-44.0	-55.2	4.1	1.42e+00	0	59	0	0	59	13208
2026-01-19 11:54:59.82	232.34	6.96	-43.9	-54.7	4.3	1.36e+00	0	59	0	0	59	12444
2026-01-19 11:55:00.83	232.46	7.01	-43.9	-54.4	4.4	1.27e+00	74	59	0	1048576	59	11979
2026-01-19 11:55:01.84	232.59	7.06	-43.9	-53.9	4.6	1.04e+00	0	59	0	3145728	59	11333
2026-01-19 11:55:02.85	232.72	7.11	-43.8	-53.5	4.8	8.41e-01	0	59	0	4194304	59	10850
2026-01-19 11:55:03.86	232.84	7.16	-43.8	-53.4	4.8	7.95e-01	0	59	0	6291456	59	10704
2026-01-19 11:55:04.87	232.97	7.21	-43.8	-53.3	4.9	7.33e-01	0	59	0	8388608	59	10542
2026-01-19 11:55:05.88	233.10	7.26	-43.8	-53.3	4.9	7.22e-01	0	59	0	10485760	59	10558
2026-01-19 11:55:06.89	233.23	7.31	-43.8	-53.4	4.8	7.76e-01	0	59	0	12582912	59	10754
2026-01-19 11:55:07.90	233.36	7.36	-43.8	-53.7	4.7	7.90e-01	0	59	0	13631488	59	11039
2026-01-19 11:55:08.91	233.49	7.41	-43.9	-54.0	4.6	9.61e-01	0	59	0	15728640	59	11454
2026-01-19 11:55:09.92	233.62	7.46	-43.9	-54.1	4.5	1.00e+00	6	59	0	17825792	59	11678
2026-01-19 11:55:10.93	233.75	7.51	-43.9	-54.1	4.5	1.08e+00	0	59	0	19922944	59	11564
2026-01-19 11:55:11.94	233.88	7.57	-43.8	-53.5	4.8	8.81e-01	0	59	0	22020096	59	10883
2026-01-19 11:55:12.95	234.01	7.62	-43.7	-52.7	5.2	6.61e-01	0	59	0	24117248	59	9858
2026-01-19 11:55:13.96	234.14	7.67	-43.5	-51.7	5.9	4.67e-01	0	59	0	25165824	59	8766
2026-01-19 11:55:14.97	234.27	7.72	-43.3	-50.6	6.8	2.82e-01	0	59	0	27262976	58	8258
2026-01-19 11:55:15.99	234.40	7.77	-43.1	-49.8	7.5	1.30e-01	0	59	0	29360128	58	7538
2026-01-19 11:55:17.00	234.54	7.82	-42.9	-49.0	8.3	6.76e-02	0	60	0	31457280	57	7269
2026-01-19 11:55:18.01	234.67	7.87	-42.7	-48.5	8.8	4.21e-02	0	59	0	33554432	57	6816
2026-01-19 11:55:19.02	234.80	7.92	-42.6	-48.1	9.3	2.13e-02	0	59	0	34603008	57	6508
2026-01-19 11:55:20.03	234.94	7.97	-42.6	-48.0	9.3	1.87e-02	0	59	0	36700160	57	6466
2026-01-19 11:55:21.04	235.07	8.02	-42.6	-48.1	9.2	1.72e-02	0	60	0	38797312	57	6561
2026-01-19 11:55:22.04	235.21	8.06	-42.8	-48.3	9.1	1.47e-02	0	59	0	40894464	57	6710
2026-01-19 11:55:23.05	235.34	8.11	-44.1	-58.2	3.8	7.44e-01	0	59	104	41943040	58	19791
2026-01-19 11:55:24.06	235.48	8.16	-43.9	-53.1	5.2	6.10e-01	0	60	0	41943040	58	10991
2026-01-19 11:55:25.07	235.61	8.21	-43.1	-49.4	8.0	5.37e-02	0	60	0	44040192	57	7548
2026-01-19 11:55:26.08	235.75	8.26	-43.9	-53.7	4.7	1.49e-01	0	60	0	46137344	58	11729
2026-01-19 11:55:27.09	235.89	8.31	-42.6	-47.9	9.5	1.11e-01	0	60	0	47185920	57	6389
2026-01-19 11:55:28.10	236.02	8.36	-42.5	-47.7	9.8	1.22e-02	0	59	0	49283072	57	6206
2026-01-19 11:55:29.11	236.16	8.41	-42.5	-47.7	9.7	1.23e-02	0	60	0	51380224	57	6259
2026-01-19 11:55:30.12	236.30	8.46	-42.6	-47.8	9.7	1.15e-02	0	59	0	53477376	57	6276
2026-01-19 11:55:31.13	236.44	8.51	-42.5	-47.6	9.8	1.06e-02	0	60	0	55574528	57	6201
2026-01-19 11:55:32.14	236.58	8.56	-42.5	-47.5	9.9	9.02e-03	0	59	0	57671680	56	6483
2026-01-19 11:55:33.15	236.72	8.61	-42.5	-47.7	9.8	9.01e-03	0	60	0	58720256	56	6593
2026-01-19 11:55:34.16	236.86	8.66	-42.5	-47.5	10.0	8.98e-03	0	60	0	60817408	56	6481
2026-01-19 11:55:35.17	237.00	8.71	-42.5	-47.5	10.0	7.92e-03	0	60	0	62914560	56	6474
2026-01-19 11:55:36.18	237.14	8.76	-42.5	-47.6	9.9	6.99e-03	0	60	0	65011712	56	6516
2026-01-19 11:55:37.19	237.28	8.81	-42.5	-47.4	10.1	7.98e-03	0	60	0	67108864	56	6397
2026-01-19 11:55:38.20	237.42	8.86	-42.4	-47.3	10.2	6.50e-03	0	60	0	68157440	56	6347
2026-01-19 11:55:39.21	237.57	8.91	-42.4	-47.3	10.2	6.21e-03	0	60	0	70254592	56	6337
2026-01-19 11:55:40.22	237.71	8.95	-42.4	-47.2	10.3	6.23e-03	0	60	0	72351744	56	6273
2026-01-19 11:55:41.23	237.85	9.00	-42.4	-47.3	10.3	5.26e-03	0	60	0	74448896	56	6279
2026-01-19 11:55:42.24	238.00	9.05	-42.3	-47.1	10.4	4.43e-03	0	60	0	76546048	56	6170
2026-01-19 11:55:43.25	238.14	9.10	-42.4	-47.2	10.4	4.23e-03	0	60	0	77594624	56	6226
2026-01-19 11:55:44.25	238.29	9.15	-42.3	-47.0	10.6	4.65e-03	0	60	0	79691776	56	6074
2026-01-19 11:55:45.26	238.43	9.20	-42.3	-46.9	10.6	3.22e-03	0	60	0	81788928	56	6044
2026-01-19 11:55:46.27	238.58	9.25	-42.2	-46.8	10.8	2.81e-03	0	60	0	83886080	56	5950
2026-01-19 11:55:47.29	238.73	9.30	-42.2	-46.8	10.8	2.46e-03	0	60	0	85983232	56	5974
2026-01-19 11:55:48.29	238.87	9.34	-42.2	-46.8	10.8	2.35e-03	0	60	0	87031808	56	5966
2026-01-19 11:55:49.31	239.02	9.39	-42.3	-46.9	10.8	2.52e-03	0	60	0	89128960	56	6007
2026-01-19 11:55:50.32	239.17	9.44	-42.3	-46.8	10.8	2.84e-03	0	60	0	91226112	56	5977
2026-01-19 11:55:51.32	239.31	9.49	-42.2	-46.7	10.9	1.96e-03	0	60	0	93323264	56	5883
2026-01-19 11:55:52.33	239.46	9.54	-42.2	-46.6	11.0	2.01e-03	0	60	0	95420416	56	5836
2026-01-19 11:55:53.34	239.61	9.58	-42.2	-46.6	11.0	2.03e-03	0	60	0	96468992	56	5834
2026-01-19 11:55:54.35	239.76	9.63	-42.2	-46.6	11.0	1.86e-03	0	60	0	98566144	56	5831
2026-01-19 11:55:55.36	239.91	9.68	-42.1	-46.4	11.2	1.48e-03	0	60	0	100663296	56	5706
2026-01-19 11:55:56.37	240.06	9.73	-42.1	-46.5	11.2	1.37e-03	0	60	0	102760448	56	5727
2026-01-19 11:55:57.38	240.21	9.78	-42.1	-46.4	11.3	1.19e-03	0	60	0	104857600	56	5663
2026-01-19 11:55:58.39	240.36	9.82	-42.0	-46.3	11.4	1.13e-03	0	60	0	105906176	56	5615
2026-01-19 11:55:59.40	240.52	9.87	-42.0	-46.2	11.5	9.23e-04	0	60	0	108003328	56	5536
2026-01-19 11:56:00.41	240.67	9.92	-41.8	-46.0	11.5	8.32e-04	0	60	0	110100480	55	5739
2026-01-19 11:56:01.42	240.82	9.97	-41.8	-46.0	11.4	9.15e-04	0	60	0	112197632	55	5774
2026-01-19 11:56:02.43	240.98	10.01	-41.8	-46.0	11.5	9.48e-04	0	60	0	114294784	55	5776
2026-01-19 11:56:03.44	241.13	10.06	-41.9	-46.1	11.5	8.85e-04	0	60	0	115343360	55	5792
2026-01-19 11:56:04.45	241.28	10.11	-41.9	-46.2	11.3	1.05e-03	0	60	0	117440512	55	5871
2026-01-19 11:56:05.45	241.44	10.16	-41.9	-46.1	11.4	1.08e-03	0	60	0	119537664	55	5821
2026-01-19 11:56:06.46	241.59	10.20	-41.9	-46.1	11.4	1.03e-03	0	60	0	121634816	55	5840
2026-01-19 11:56:07.47	241.75	10.25	-41.9	-46.2	11.4	1.13e-03	0	60	0	123731968	55	5860
2026-01-19 11:56:08.48	241.91	10.30	-42.0	-46.3	11.2	1.25e-03	0	60	0	125829120	55	5929
2026-01-19 11:56:09.49	242.06	10.34	-41.9	-46.2	11.3	1.19e-03	0	60	0	126877696	55	5894
2026-01-19 11:56:10.50	242.22	10.39	-42.0	-46.4	11.2	1.37e-03	0	60	0	128974848	55	6006
2026-01-19 11:56:11.51	242.38	10.44	-42.0	-46.3	11.2	1.39e-03	0	60	0	131072000	55	5952
2026-01-19 11:56:12.52	242.54	10.48	-41.9	-46.2	11.3	1.11e-03	0	60	0	133169152	55	5905
2026-01-19 11:56:13.53	242.69	10.53	-42.0	-46.2	11.3	1.10e-03	0	61	0	135266304	55	5908
2026-01-19 11:56:14.54	242.85	10.57	-41.9	-46.2	11.3	1.06e-03	0	60	0	136314880	55	5889
2026-01-19 11:56:15.55	243.01	10.62	-41.9	-46.1	11.4	1.10e-03	0	61	0	138412032	55	5837
2026-01-19 11:56:16.56	243.17	10.67	-42.0	-46.2	11.3	1.00e-03	0	60	0	140509184	55	5899
2026-01-19 11:56:17.57	243.33	10.71	-41.9	-46.1	11.4	9.47e-04	0	61	0	142606336	55	5840
2026-01-19 11:56:18.57	243.49	10.76	-41.9	-46.1	11.4	9.62e-04	0	61	0	144703488	55	5848
2026-01-19 11:56:19.59	243.66	10.80	-42.0	-46.2	11.4	1.08e-03	0	61	0	145752064	55	5887
2026-01-19 11:56:20.60	243.82	10.85	-41.9	-46.2	11.4	1.13e-03	0	61	0	147849216	55	5873
2026-01-19 11:56:21.61	243.98	10.89	-42.0	-46.2	11.4	1.21e-03	0	61	0	149946368	55	5902
2026-01-19 11:56:22.62	244.15	10.94	-42.0	-46.2	11.3	1.12e-03	0	61	0	152043520	55	5922
2026-01-19 11:56:23.63	244.31	10.98	-42.0	-46.3	11.3	1.18e-03	0	60	0	154140672	55	5926
2026-01-19 11:56:24.64	244.47	11.03	-42.0	-46.2	11.4	1.01e-03	0	61	0	155189248	55	5869
2026-01-19 11:56:25.65	244.64	11.07	-42.0	-46.3	11.3	1.10e-03	0	61	0	157286400	55	5948
2026-01-19 11:56:26.65	244.80	11.12	-41.9	-46.1	11.5	1.09e-03	0	61	0	159383552	55	5843
2026-01-19 11:56:27.66	244.97	11.16	-41.9	-46.0	11.5	9.58e-04	0	61	0	161480704	55	5782
2026-01-19 11:56:28.67	245.13	11.21	-41.9	-46.1	11.4	7.70e-04	0	61	0	163577856	55	5853
2026-01-19 11:56:29.68	245.30	11.25	-42.0	-46.2	11.4	9.46e-04	0	61	0	164626432	55	5911
2026-01-19 11:56:30.69	245.47	11.30	-42.0	-46.2	11.4	1.07e-03	0	61	0	166723584	55	5899
2026-01-19 11:56:31.70	245.64	11.34	-42.0	-46.3	11.2	1.08e-03	0	61	0	168820736	55	5982
2026-01-19 11:56:32.71	245.80	11.38	-42.0	-46.4	11.2	1.38e-03	0	61	0	170917888	55	6012
2026-01-19 11:56:33.72	245.97	11.43	-42.1	-46.5	11.1	1.88e-03	0	61	0	173015040	55	6073
2026-01-19 11:56:34.73	246.14	11.47	-42.0	-46.3	11.2	1.33e-03	0	61	0	174063616	55	5986
2026-01-19 11:56:35.74	246.31	11.52	-42.0	-46.3	11.3	1.15e-03	0	61	0	176160768	55	5968
2026-01-19 11:56:36.75	246.48	11.56	-42.1	-46.4	11.2	1.32e-03	0	61	0	178257920	55	6017
2026-01-19 11:56:37.76	246.65	11.60	-42.1	-46.4	11.2	1.42e-03	0	61	0	180355072	55	6032
2026-01-19 11:56:38.77	246.82	11.65	-42.1	-46.4	11.2	1.45e-03	0	61	0	182452224	55	6022
2026-01-19 11:56:39.78	246.99	11.69	-42.1	-46.4	11.2	1.26e-03	0	61	0	183500800	55	6016
2026-01-19 11:56:40.79	247.17	11.73	-42.1	-46.4	11.2	1.46e-03	0	61	0	185597952	55	6047
2026-01-19 11:56:41.80	247.34	11.77	-42.1	-46.5	11.1	1.46e-03	0	61	0	187695104	55	6064
2026-01-19 11:56:42.81	247.51	11.82	-42.2	-46.6	11.0	1.65e-03	0	61	0	189792256	55	6165
2026-01-19 11:56:43.81	247.68	11.86	-42.2	-46.7	10.9	2.07e-03	0	61	0	191889408	55	6244
2026-01-19 11:56:44.82	247.86	11.90	-42.2	-46.7	10.9	2.02e-03	0	61	0	193986560	55	6235
2026-01-19 11:56:45.83	248.03	11.94	-42.2	-46.8	10.8	2.29e-03	0	61	0	195035136	55	6299
2026-01-19 11:56:46.84	248.21	11.98	-42.3	-46.9	10.8	2.98e-03	0	61	0	197132288	55	6357
2026-01-19 11:56:47.85	248.38	12.03	-42.3	-46.8	10.8	2.69e-03	0	61	0	199229440	55	6346
2026-01-19 11:56:48.86	248.56	12.07	-42.3	-47.0	10.6	2.91e-03	0	61	0	201326592	55	6430
2026-01-19 11:56:49.87	248.73	12.11	-42.3	-46.9	10.7	3.06e-03	0	61	0	203423744	55	6406
2026-01-19 11:56:50.88	248.91	12.15	-42.3	-46.8	10.8	2.73e-03	0	61	0	204472320	55	6313
2026-01-19 11:56:51.89	249.09	12.19	-42.3	-46.9	10.7	2.86e-03	0	61	0	206569472	55	6375
2026-01-19 11:56:52.90	249.26	12.23	-42.3	-46.9	10.7	3.23e-03	0	61	0	208666624	55	6405
2026-01-19 11:56:53.91	249.44	12.27	-42.4	-47.1	10.5	3.52e-03	0	61	0	210763776	55	6511
2026-01-19 11:56:54.92	249.62	12.31	-42.4	-47.2	10.4	4.29e-03	0	61	0	212860928	55	6635
2026-01-19 11:56:55.93	249.80	12.35	-42.5	-47.3	10.2	5.53e-03	0	61	0	213909504	55	6720
2026-01-19 11:56:56.94	249.98	12.39	-42.5	-47.4	10.1	6.28e-03	0	61	0	216006656	55	6772
2026-01-19 11:56:57.95	250.16	12.43	-42.5	-47.5	10.1	6.53e-03	0	61	0	218103808	55	6805
2026-01-19 11:56:58.95	250.34	12.47	-42.5	-47.5	10.1	6.61e-03	0	61	0	220200960	55	6809
2026-01-19 11:56:59.96	250.52	12.51	-42.6	-47.6	10.0	7.98e-03	0	61	0	222298112	55	6906
2026-01-19 11:57:00.97	250.70	12.55	-42.6	-47.6	9.9	8.68e-03	0	61	0	223346688	55	6939
2026-01-19 11:57:01.98	250.88	12.59	-42.5	-47.5	10.1	7.94e-03	0	61	0	225443840	55	6827
2026-01-19 11:57:02.99	251.07	12.63	-42.5	-47.5	10.1	6.37e-03	0	61	0	227540992	55	6803
2026-01-19 11:57:04.00	251.25	12.67	-42.5	-47.5	10.1	6.48e-03	0	61	0	229638144	55	6826
2026-01-19 11:57:05.01	251.43	12.70	-42.5	-47.4	10.2	6.42e-03	0	61	0	231735296	55	6795
2026-01-19 11:57:06.02	251.62	12.74	-42.5	-47.5	10.1	6.73e-03	0	61	0	232783872	55	6836
2026-01-19 11:57:07.03	251.80	12.78	-42.6	-47.7	9.9	7.54e-03	0	61	0	234881024	55	6967
2026-01-19 11:57:08.04	251.98	12.82	-42.6	-47.7	9.8	9.39e-03	0	61	0	236978176	55	7033
2026-01-19 11:57:09.05	252.17	12.86	-42.7	-47.8	9.7	1.08e-02	0	61	0	239075328	55	7112
2026-01-19 11:57:10.06	252.36	12.89	-42.9	-48.1	9.7	1.20e-02	0	61	0	241172480	56	6903
2026-01-19 11:57:11.07	252.54	12.93	-42.9	-48.2	9.6	1.20e-02	0	61	0	242221056	56	6966
2026-01-19 11:57:12.08	252.73	12.97	-42.9	-48.1	9.6	1.27e-02	0	61	0	244318208	56	6929
2026-01-19 11:57:13.09	252.91	13.00	-42.9	-48.1	9.6	1.28e-02	0	61	0	246415360	56	6946
2026-01-19 11:57:14.10	253.10	13.04	-42.9	-48.1	9.6	1.25e-02	0	61	0	248512512	56	6936
2026-01-19 11:57:15.11	253.29	13.08	-42.9	-48.1	9.6	1.29e-02	0	61	0	250609664	56	6958
2026-01-19 11:57:16.12	253.48	13.11	-42.9	-48.1	9.6	1.25e-02	0	61	0	251658240	56	6959
2026-01-19 11:57:17.13	253.67	13.15	-42.9	-48.1	9.7	1.23e-02	0	61	0	253755392	56	6909
2026-01-19 11:57:18.14	253.86	13.18	-42.9	-48.1	9.7	1.19e-02	0	61	0	255852544	56	6898
2026-01-19 11:57:19.14	254.04	13.22	-42.8	-47.8	9.9	8.99e-03	0	61	0	257949696	56	6716
2026-01-19 11:57:20.15	254.23	13.25	-42.8	-47.9	9.9	8.67e-03	0	61	0	260046848	56	6759
2026-01-19 11:57:21.16	254.42	13.29	-42.8	-47.9	9.8	1.03e-02	0	61	0	262144000	56	6794
2026-01-19 11:57:22.17	254.62	13.32	-42.9	-48.1	9.6	1.14e-02	0	61	0	263192576	56	6946
2026-01-19 11:57:23.18	254.81	13.36	-42.9	-48.2	9.5	1.33e-02	0	61	0	265289728	56	7037
2026-01-19 11:57:24.19	255.00	13.39	-43.0	-48.3	9.4	1.53e-02	0	61	0	267386880	56	7115
2026-01-19 11:57:25.20	255.19	13.42	-43.0	-48.5	9.2	1.91e-02	0	61	0	269484032	56	7242
2026-01-19 11:57:26.21	255.38	13.46	-43.0	-48.5	9.2	1.90e-02	0	61	0	270532608	56	7278
2026-01-19 11:57:27.22	255.58	13.49	-43.1	-48.6	9.1	2.15e-02	0	61	0	272629760	56	7359
2026-01-19 11:57:28.22	255.77	13.52	-43.0	-48.5	9.2	2.14e-02	0	61	0	274726912	56	7265
2026-01-19 11:57:29.23	255.96	13.56	-43.0	-48.5	9.2	1.91e-02	0	61	0	276824064	56	7241
2026-01-19 11:57:30.24	256.16	13.59	-43.0	-48.5	9.3	1.89e-02	0	61	0	278921216	56	7208
2026-01-19 11:57:31.25	256.35	13.62	-43.0	-48.5	9.3	1.71e-02	0	62	0	279969792	56	7207
2026-01-19 11:57:32.26	256.55	13.65	-42.9	-48.1	9.6	1.44e-02	0	62	0	282066944	56	6949
2026-01-19 11:57:33.27	256.74	13.69	-42.9	-48.0	9.8	1.18e-02	0	61	0	284164096	56	6865
2026-01-19 11:57:34.28	256.94	13.72	-42.8	-48.0	9.8	1.08e-02	0	62	0	286261248	56	6832
2026-01-19 11:57:35.29	257.13	13.75	-42.8	-47.9	9.8	9.60e-03	0	62	0	288358400	56	6762
2026-01-19 11:57:36.30	257.33	13.78	-42.8	-48.0	9.8	9.93e-03	0	62	0	290455552	56	6816
2026-01-19 11:57:37.31	257.53	13.81	-42.9	-48.0	9.8	1.01e-02	0	61	0	291504128	56	6828
2026-01-19 11:57:38.32	257.73	13.84	-42.8	-47.9	9.9	9.86e-03	0	61	0	293601280	56	6780
2026-01-19 11:57:39.33	257.92	13.87	-42.9	-48.0	9.7	1.02e-02	0	61	0	295698432	56	6868
2026-01-19 11:57:40.34	258.12	13.90	-42.8	-48.0	9.8	1.05e-02	0	61	0	297795584	56	6831
2026-01-19 11:57:41.35	258.32	13.93	-42.9	-48.0	9.7	1.08e-02	0	61	0	299892736	56	6869
2026-01-19 11:57:42.36	258.52	13.96	-42.9	-48.1	9.7	1.12e-02	0	61	0	300941312	56	6897
2026-01-19 11:57:43.37	258.72	13.99	-42.9	-48.2	9.6	1.26e-02	0	61	0	303038464	56	6978
2026-01-19 11:57:44.38	258.92	14.02	-42.9	-48.2	9.6	1.30e-02	0	62	0	305135616	56	7024
2026-01-19 11:57:45.38	259.12	14.05	-42.8	-47.9	9.9	1.11e-02	0	62	0	307232768	56	6772
2026-01-19 11:57:46.39	259.32	14.07	-42.7	-47.6	10.3	7.07e-03	0	62	0	309329920	56	6502
2026-01-19 11:57:47.40	259.52	14.10	-42.6	-47.2	10.6	4.37e-03	0	61	0	310378496	56	6254
2026-01-19 11:57:48.41	259.72	14.13	-42.5	-47.1	10.7	2.95e-03	0	62	0	312475648	56	6158
2026-01-19 11:57:49.42	259.92	14.16	-42.5	-47.0	10.8	2.58e-03	0	61	0	314572800	56	6078
2026-01-19 11:57:50.43	260.12	14.18	-42.3	-46.7	11.1	1.90e-03	0	61	0	316669952	56	5876
2026-01-19 11:57:51.44	260.33	14.21	-42.3	-46.6	11.2	1.26e-03	0	61	0	318767104	56	5845
2026-01-19 11:57:52.45	260.53	14.24	-42.3	-46.7	11.2	1.47e-03	0	62	0	319815680	56	5871
2026-01-19 11:57:53.46	260.73	14.26	-42.4	-46.7	11.1	1.42e-03	0	61	0	321912832	56	5905
2026-01-19 11:57:54.47	260.93	14.29	-42.3	-46.7	11.2	1.49e-03	0	61	0	324009984	56	5886
2026-01-19 11:57:55.48	261.14	14.31	-42.4	-46.8	11.0	1.77e-03	0	61	0	326107136	56	5970
2026-01-19 11:57:56.49	261.34	14.34	-42.3	-46.7	11.1	1.88e-03	0	62	0	328204288	56	5912
2026-01-19 11:57:57.50	261.55	14.36	-42.4	-46.7	11.1	1.52e-03	0	62	0	329252864	56	5897
2026-01-19 11:57:58.51	261.75	14.39	-42.4	-46.7	11.1	1.60e-03	0	62	0	331350016	56	5922
2026-01-19 11:57:59.52	261.96	14.41	-42.3	-46.6	11.2	1.54e-03	0	62	0	333447168	56	5853
2026-01-19 11:58:00.53	262.16	14.44	-42.3	-46.6	11.2	1.38e-03	0	62	0	335544320	56	5851
2026-01-19 11:58:01.54	262.37	14.46	-42.3	-46.6	11.2	1.37e-03	0	62	0	337641472	56	5843
2026-01-19 11:58:02.55	262.57	14.48	-42.3	-46.6	11.3	1.18e-03	0	61	0	338690048	56	5796
2026-01-19 11:58:03.56	262.78	14.51	-42.3	-46.5	11.4	9.63e-04	0	61	0	340787200	56	5754
2026-01-19 11:58:04.57	262.99	14.53	-42.2	-46.4	11.5	9.04e-04	0	61	0	342884352	56	5715
2026-01-19 11:58:05.57	263.19	14.55	-42.2	-46.4	11.5	8.48e-04	0	62	0	344981504	56	5716
2026-01-19 11:58:06.58	263.40	14.57	-42.2	-46.5	11.4	9.31e-04	0	62	0	347078656	56	5735
2026-01-19 11:58:07.59	263.61	14.60	-42.2	-46.5	11.4	1.11e-03	0	62	0	348127232	56	5756
2026-01-19 11:58:08.60	263.81	14.62	-42.3	-46.6	11.3	1.19e-03	0	62	0	350224384	56	5812
2026-01-19 11:58:09.61	264.02	14.64	-42.3	-46.7	11.2	1.35e-03	0	62	0	352321536	56	5868
2026-01-19 11:58:10.62	264.23	14.66	-42.4	-46.8	11.0	1.77e-03	0	62	0	354418688	56	5985
2026-01-19 11:58:11.63	264.44	14.68	-42.4	-46.9	10.9	2.11e-03	0	62	0	356515840	56	6049
2026-01-19 11:58:12.64	264.65	14.70	-42.5	-47.1	10.7	2.53e-03	0	62	0	358612992	56	6154
2026-01-19 11:58:13.65	264.86	14.72	-42.6	-47.2	10.6	2.85e-03	0	62	0	359661568	56	6252
2026-01-19 11:58:14.65	265.06	14.74	-42.6	-47.2	10.6	3.58e-03	0	62	0	361758720	56	6268
2026-01-19 11:58:15.66	265.27	14.76	-42.6	-47.3	10.6	3.44e-03	0	62	0	363855872	56	6289
2026-01-19 11:58:16.67	265.48	14.78	-42.6	-47.4	10.4	4.28e-03	0	62	0	365953024	56	6385
2026-01-19 11:58:17.68	265.69	14.79	-42.6	-47.4	10.4	4.33e-03	0	62	0	368050176	56	6381
2026-01-19 11:58:18.69	265.90	14.81	-42.6	-47.4	10.4	4.74e-03	0	62	0	369098752	56	6387
2026-01-19 11:58:19.70	266.12	14.83	-42.6	-47.4	10.4	4.83e-03	0	62	0	371195904	56	6364
2026-01-19 11:58:20.71	266.33	14.85	-42.6	-47.4	10.4	4.41e-03	0	62	0	373293056	56	6395
2026-01-19 11:58:21.72	266.54	14.86	-42.7	-47.6	10.2	5.26e-03	0	62	0	375390208	56	6514
2026-01-19 11:58:22.73	266.75	14.88	-42.6	-47.4	10.4	5.31e-03	0	62	0	377487360	56	6403
2026-01-19 11:58:23.73	266.96	14.90	-42.6	-47.5	10.4	4.49e-03	0	62	0	378535936	56	6423
2026-01-19 11:58:24.74	267.17	14.91	-42.7	-47.6	10.2	5.64e-03	0	62	0	380633088	56	6499
2026-01-19 11:58:25.75	267.38	14.93	-42.7	-47.6	10.3	5.17e-03	0	62	0	382730240	56	6499
2026-01-19 11:58:26.76	267.59	14.94	-42.7	-47.5	10.2	5.48e-03	0	62	0	384827392	56	6484
2026-01-19 11:58:27.77	267.81	14.96	-42.7	-47.5	10.3	5.19e-03	0	62	0	386924544	56	6445
2026-01-19 11:58:28.78	268.02	14.97	-42.6	-47.4	10.4	4.91e-03	0	62	0	387973120	56	6382
2026-01-19 11:58:29.79	268.23	14.99	-42.6	-47.4	10.4	5.30e-03	0	62	0	390070272	56	6413
2026-01-19 11:58:30.80	268.44	15.00	-42.5	-47.3	10.5	4.20e-03	0	62	0	392167424	56	6280
2026-01-19 11:58:31.81	268.66	15.01	-42.6	-47.3	10.5	4.04e-03	0	62	0	394264576	56	6332
2026-01-19 11:58:32.82	268.87	15.03	-42.6	-47.3	10.4	4.54e-03	0	62	0	396361728	56	6347
2026-01-19 11:58:33.83	269.08	15.04	-42.6	-47.4	10.4	4.48e-03	0	62	0	397410304	56	6394
2026-01-19 11:58:34.84	269.30	15.05	-42.6	-47.3	10.5	4.36e-03	0	62	0	399507456	56	6339
2026-01-19 11:58:35.85	269.51	15.06	-42.6	-47.4	10.4	4.80e-03	0	62	0	401604608	56	6414
2026-01-19 11:58:36.86	269.73	15.07	-42.6	-47.4	10.4	4.23e-03	0	62	0	403701760	56	6373
2026-01-19 11:58:37.87	269.94	15.08	-42.6	-47.4	10.4	4.37e-03	0	62	0	405798912	56	6392
2026-01-19 11:58:38.88	270.15	15.10	-42.5	-47.2	10.6	4.37e-03	0	62	0	406847488	56	6267
2026-01-19 11:58:39.89	270.37	15.11	-42.5	-47.2	10.6	3.51e-03	0	62	0	408944640	56	6218
2026-01-19 11:58:40.90	270.58	15.12	-42.5	-47.2	10.6	3.47e-03	0	62	0	411041792	56	6256
2026-01-19 11:58:41.91	270.80	15.13	-42.5	-47.2	10.6	3.44e-03	0	62	0	413138944	56	6267
2026-01-19 11:58:42.92	271.01	15.13	-42.5	-47.3	10.6	3.48e-03	0	62	0	415236096	56	6288
2026-01-19 11:58:43.93	271.23	15.14	-42.5	-47.3	10.5	3.80e-03	0	62	0	416284672	56	6282
2026-01-19 11:58:44.94	271.44	15.15	-42.5	-47.2	10.6	3.55e-03	0	62	0	418381824	56	6219
2026-01-19 11:58:45.95	271.66	15.16	-42.5	-47.3	10.6	3.37e-03	0	62	0	420478976	56	6280
2026-01-19 11:58:46.96	271.87	15.17	-42.5	-47.2	10.6	3.68e-03	0	62	0	422576128	56	6254
2026-01-19 11:58:47.97	272.09	15.18	-42.5	-47.2	10.5	3.59e-03	0	62	0	424673280	56	6263
2026-01-19 11:58:48.98	272.30	15.18	-42.5	-47.2	10.6	3.76e-03	0	62	0	426770432	56	6218
2026-01-19 11:58:49.99	272.52	15.19	-42.5	-47.1	10.6	3.11e-03	0	62	0	427819008	56	6191
2026-01-19 11:58:51.00	272.74	15.20	-42.5	-47.1	10.7	2.92e-03	0	62	0	429916160	56	6188
2026-01-19 11:58:52.01	272.95	15.20	-42.5	-47.0	10.7	2.85e-03	0	62	0	432013312	56	6128
2026-01-19 11:58:53.02	273.17	15.21	-42.4	-47.0	10.7	2.73e-03	0	62	0	434110464	56	6129
2026-01-19 11:58:54.03	273.38	15.21	-42.4	-47.0	10.8	2.75e-03	0	62	0	436207616	56	6103
2026-01-19 11:58:55.04	273.60	15.22	-42.4	-47.0	10.8	2.60e-03	0	62	0	437256192	56	6087
2026-01-19 11:58:56.05	273.82	15.22	-42.4	-46.9	10.9	2.47e-03	0	62	0	439353344	56	6048
2026-01-19 11:58:57.06	274.03	15.22	-42.4	-46.8	10.9	2.23e-03	0	62	0	441450496	56	5992
2026-01-19 11:58:58.06	274.25	15.23	-42.4	-46.9	10.9	2.09e-03	0	62	0	443547648	56	6049
2026-01-19 11:58:59.07	274.46	15.23	-42.4	-47.0	10.8	2.34e-03	0	62	0	445644800	56	6073
2026-01-19 11:59:00.08	274.68	15.23	-42.4	-47.0	10.8	2.50e-03	0	62	0	446693376	56	6096
2026-01-19 11:59:01.09	274.89	15.24	-42.5	-47.2	10.6	3.05e-03	0	62	0	448790528	56	6203
2026-01-19 11:59:02.10	275.11	15.24	-42.4	-47.0	10.8	3.21e-03	0	62	0	450887680	56	6108
2026-01-19 11:59:03.11	275.33	15.24	-42.4	-46.9	10.9	2.12e-03	0	62	0	452984832	56	6012
2026-01-19 11:59:04.12	275.54	15.24	-42.3	-46.8	11.0	2.14e-03	0	62	0	455081984	56	5967
2026-01-19 11:59:05.13	275.76	15.24	-42.3	-46.8	11.0	2.02e-03	0	62	0	456130560	56	5943
2026-01-19 11:59:06.14	275.98	15.24	-42.3	-46.8	11.0	2.08e-03	0	62	0	458227712	56	5966
2026-01-19 11:59:07.15	276.19	15.24	-42.3	-46.7	11.1	1.61e-03	0	62	0	460324864	56	5890
2026-01-19 11:59:08.16	276.41	15.24	-42.3	-46.6	11.2	1.67e-03	0	62	0	462422016	56	5845
2026-01-19 11:59:09.17	276.62	15.24	-42.2	-46.6	11.2	1.36e-03	0	62	0	464519168	56	5810
2026-01-19 11:59:10.18	276.84	15.24	-42.2	-46.6	11.2	1.35e-03	0	62	0	465567744	56	5816
2026-01-19 11:59:11.19	277.06	15.24	-42.2	-46.6	11.2	1.48e-03	0	62	0	467664896	56	5825
2026-01-19 11:59:12.20	277.27	15.24	-42.2	-46.7	11.1	1.49e-03	0	62	0	469762048	56	5858
2026-01-19 11:59:13.21	277.49	15.24	-42.2	-46.6	11.1	1.59e-03	0	62	0	471859200	56	5852
2026-01-19 11:59:14.21	277.70	15.23	-42.3	-46.7	11.1	1.56e-03	0	62	0	473956352	56	5893
2026-01-19 11:59:15.22	277.92	15.23	-42.3	-46.7	11.1	1.84e-03	0	62	0	475004928	56	5875
2026-01-19 11:59:16.23	278.14	15.23	-42.2	-46.6	11.1	1.71e-03	0	62	0	477102080	56	5845
2026-01-19 11:59:17.24	278.35	15.22	-42.2	-46.6	11.2	1.42e-03	0	62	0	479199232	56	5830
2026-01-19 11:59:18.25	278.57	15.22	-42.2	-46.6	11.2	1.40e-03	0	62	0	481296384	56	5836
2026-01-19 11:59:19.26	278.78	15.22	-42.2	-46.5	11.3	1.30e-03	0	62	0	483393536	56	5725
2026-01-19 11:59:20.27	279.00	15.21	-42.1	-46.4	11.4	9.62e-04	0	62	0	484442112	56	5680
2026-01-19 11:59:21.28	279.22	15.21	-42.1	-46.2	11.6	8.64e-04	0	62	0	486539264	56	5557
2026-01-19 11:59:22.29	279.43	15.20	-41.8	-45.9	11.7	5.35e-04	0	62	0	488636416	55	5693
2026-01-19 11:59:23.30	279.65	15.19	-41.9	-46.1	11.5	6.24e-04	0	62	0	490733568	55	5837
2026-01-19 11:59:24.31	279.86	15.19	-42.0	-46.2	11.4	9.18e-04	0	62	0	492830720	55	5890
2026-01-19 11:59:25.32	280.08	15.18	-41.9	-46.2	11.4	9.52e-04	0	62	0	494927872	55	5873
2026-01-19 11:59:26.33	280.29	15.17	-41.9	-46.2	11.3	1.07e-03	0	62	0	495976448	55	5902
2026-01-19 11:59:27.34	280.51	15.17	-42.0	-46.3	11.3	1.11e-03	0	62	0	498073600	55	5968
2026-01-19 11:59:28.35	280.72	15.16	-42.0	-46.3	11.2	1.37e-03	0	62	0	500170752	55	5975
2026-01-19 11:59:29.36	280.94	15.15	-41.9	-46.2	11.4	9.97e-04	0	62	0	502267904	55	5880
2026-01-19 11:59:30.37	281.15	15.14	-41.8	-46.0	11.6	8.48e-04	0	62	0	504365056	55	5764
2026-01-19 11:59:31.38	281.37	15.13	-41.9	-46.0	11.5	7.41e-04	0	62	0	505413632	55	5781
2026-01-19 11:59:32.39	281.58	15.12	-41.8	-46.0	11.6	6.66e-04	0	62	0	507510784	55	5732
2026-01-19 11:59:33.40	281.80	15.11	-41.8	-45.9	11.7	6.01e-04	0	62	0	509607936	55	5699
2026-01-19 11:59:34.41	282.01	15.10	-41.8	-45.8	11.7	5.48e-04	0	62	0	511705088	55	5654
2026-01-19 11:59:35.42	282.22	15.09	-41.7	-45.8	11.8	5.37e-04	0	62	0	513802240	55	5636
2026-01-19 11:59:36.43	282.44	15.08	-41.8	-45.9	11.7	5.89e-04	0	62	0	514850816	55	5662
2026-01-19 11:59:37.44	282.65	15.07	-41.8	-45.9	11.7	5.69e-04	0	62	0	516947968	55	5677
2026-01-19 11:59:38.45	282.87	15.06	-41.8	-45.9	11.7	5.88e-04	0	62	0	519045120	55	5684
2026-01-19 11:59:39.46	283.08	15.05	-41.8	-46.0	11.6	6.48e-04	0	62	0	521142272	55	5738
2026-01-19 11:59:40.47	283.29	15.04	-41.9	-46.1	11.5	7.67e-04	0	62	0	523239424	55	5791
2026-01-19 11:59:41.48	283.51	15.02	-41.7	-45.8	11.8	6.45e-04	0	62	0	524288000	55	5622
2026-01-19 11:59:42.49	283.72	15.01	-41.8	-45.9	11.7	5.28e-04	0	62	0	526385152	55	5677
2026-01-19 11:59:43.50	283.93	15.00	-41.8	-46.0	11.5	5.71e-04	0	62	0	528482304	55	5776
2026-01-19 11:59:44.51	284.14	14.98	-41.9	-46.2	11.3	8.68e-04	0	62	0	530579456	55	5882
2026-01-19 11:59:45.52	284.36	14.97	-41.9	-46.2	11.3	1.15e-03	0	62	0	532676608	55	5916
2026-01-19 11:59:46.53	284.57	14.96	-42.0	-46.3	11.2	1.30e-03	0	62	0	533725184	55	5979
2026-01-19 11:59:47.54	284.78	14.94	-41.9	-46.3	11.2	1.59e-03	0	62	0	535822336	55	5969
2026-01-19 11:59:48.55	284.99	14.93	-41.9	-46.2	11.2	1.24e-03	0	62	0	537919488	55	5918
2026-01-19 11:59:49.56	285.20	14.91	-41.9	-46.2	11.3	1.23e-03	0	62	0	540016640	55	5903
2026-01-19 11:59:50.57	285.42	14.89	-41.9	-46.1	11.4	1.15e-03	0	62	0	542113792	55	5809
2026-01-19 11:59:51.58	285.63	14.88	-41.9	-46.2	11.3	1.05e-03	0	62	0	543162368	55	5884
2026-01-19 11:59:52.59	285.84	14.86	-41.8	-46.0	11.5	1.04e-03	0	62	0	545259520	55	5773
2026-01-19 11:59:53.60	286.05	14.84	-41.8	-46.1	11.4	9.00e-04	0	62	0	547356672	55	5807
2026-01-19 11:59:54.61	286.26	14.83	-41.8	-46.1	11.3	9.91e-04	0	62	0	549453824	55	5831
2026-01-19 11:59:55.61	286.47	14.81	-41.9	-46.2	11.2	1.14e-03	0	62	0	551550976	55	5867
2026-01-19 11:59:56.62	286.68	14.79	-41.9	-46.2	11.2	1.38e-03	0	62	0	552599552	55	5895
2026-01-19 11:59:57.63	286.89	14.77	-41.9	-46.3	11.1	1.40e-03	0	62	0	554696704	55	5937
2026-01-19 11:59:58.64	287.10	14.76	-41.9	-46.4	11.0	1.70e-03	0	62	0	556793856	55	6002
2026-01-19 11:59:59.65	287.30	14.74	-41.9	-46.3	11.1	1.89e-03	0	62	0	558891008	55	5951
2026-01-19 12:00:00.66	287.51	14.72	-41.7	-45.9	11.5	1.25e-03	0	62	0	560988160	55	5697
2026-01-19 12:00:01.67	287.72	14.70	-41.7	-45.8	11.5	7.63e-04	0	62	0	563085312	55	5646
2026-01-19 12:00:02.68	287.93	14.68	-41.7	-45.9	11.4	9.02e-04	0	62	0	564133888	55	5692
2026-01-19 12:00:03.69	288.14	14.66	-41.7	-46.0	11.4	9.93e-04	0	62	0	566231040	55	5727
2026-01-19 12:00:04.70	288.35	14.64	-41.8	-46.1	11.3	1.10e-03	0	62	0	568328192	55	5811
2026-01-19 12:00:05.71	288.55	14.62	-41.8	-46.1	11.3	1.21e-03	0	62	0	570425344	55	5812
2026-01-19 12:00:06.72	288.76	14.59	-41.8	-46.1	11.2	1.23e-03	0	62	0	572522496	55	5850
2026-01-19 12:00:07.73	288.97	14.57	-41.8	-46.2	11.2	1.49e-03	0	62	0	573571072	55	5872
2026-01-19 12:00:08.74	289.17	14.55	-41.9	-46.3	11.0	1.85e-03	0	62	0	575668224	55	5963
2026-01-19 12:00:09.75	289.38	14.53	-41.9	-46.3	11.0	1.92e-03	0	62	0	577765376	55	5944
2026-01-19 12:00:10.76	289.59	14.51	-41.8	-46.1	11.2	1.41e-03	0	62	0	579862528	55	5850
2026-01-19 12:00:11.77	289.79	14.48	-41.7	-46.0	11.3	1.24e-03	0	62	0	581959680	55	5730
2026-01-19 12:00:12.78	290.00	14.46	-41.7	-45.9	11.3	1.07e-03	0	62	0	583008256	55	5721
2026-01-19 12:00:13.79	290.20	14.44	-41.7	-45.8	11.4	9.79e-04	0	62	0	585105408	55	5653
2026-01-19 12:00:14.80	290.41	14.41	-41.6	-45.7	11.6	7.02e-04	0	62	0	587202560	55	5555
2026-01-19 12:00:15.81	290.61	14.39	-41.5	-45.6	11.8	5.96e-04	0	62	0	589299712	55	5473
2026-01-19 12:00:16.82	290.81	14.36	-41.5	-45.4	11.8	5.07e-04	0	62	0	591396864	55	5398
2026-01-19 12:00:17.83	291.02	14.34	-41.4	-45.4	11.8	5.03e-04	0	62	0	592445440	54	5710
2026-01-19 12:00:18.84	291.22	14.31	-41.4	-45.4	11.9	5.28e-04	0	62	0	594542592	54	5664
2026-01-19 12:00:19.85	291.42	14.29	-41.3	-45.1	12.1	3.15e-04	0	62	0	596639744	54	5522
2026-01-19 12:00:20.86	291.63	14.26	-41.3	-45.0	12.3	2.17e-04	0	62	0	598736896	54	5456
2026-01-19 12:00:21.86	291.83	14.24	-41.3	-45.1	12.2	2.67e-04	0	62	0	600834048	54	5472
2026-01-19 12:00:22.88	292.03	14.21	-41.3	-45.2	12.1	2.50e-04	0	62	0	601882624	54	5545
2026-01-19 12:00:23.89	292.23	14.18	-41.4	-45.3	11.9	3.51e-04	0	62	0	603979776	54	5640
2026-01-19 12:00:24.90	292.43	14.16	-41.5	-45.5	11.8	4.14e-04	0	62	0	606076928	54	5727
2026-01-19 12:00:25.91	292.64	14.13	-41.5	-45.6	11.6	5.79e-04	0	62	0	608174080	54	5823
2026-01-19 12:00:26.92	292.84	14.10	-41.5	-45.6	11.6	7.78e-04	0	62	0	610271232	54	5796
2026-01-19 12:00:27.93	293.04	14.08	-41.5	-45.7	11.4	7.91e-04	0	62	0	611319808	54	5902
2026-01-19 12:00:28.94	293.24	14.05	-41.5	-45.6	11.6	9.19e-04	0	62	0	613416960	54	5829
2026-01-19 12:00:29.95	293.44	14.02	-41.5	-45.6	11.6	7.80e-04	0	62	0	615514112	54	5789
2026-01-19 12:00:30.96	293.63	13.99	-41.4	-45.5	11.7	6.08e-04	0	62	0	617611264	54	5735
2026-01-19 12:00:31.97	293.83	13.96	-41.4	-45.4	11.8	5.03e-04	0	62	0	619708416	54	5660
2026-01-19 12:00:32.97	294.03	13.93	-41.4	-45.3	11.9	3.95e-04	0	62	0	620756992	54	5597
2026-01-19 12:00:33.98	294.23	13.90	-41.3	-45.1	12.2	2.51e-04	0	62	0	622854144	54	5469
2026-01-19 12:00:34.99	294.42	13.87	-41.3	-45.0	12.2	2.14e-04	0	62	0	624951296	54	5462
2026-01-19 12:00:36.00	294.62	13.84	-41.2	-44.9	12.3	2.04e-04	0	62	0	627048448	54	5381
2026-01-19 12:00:37.02	294.82	13.81	-41.2	-45.0	12.2	1.83e-04	0	62	0	629145600	54	5449
2026-01-19 12:00:38.02	295.01	13.78	-41.3	-45.1	12.2	1.95e-04	0	62	0	631242752	54	5467
2026-01-19 12:00:39.03	295.21	13.75	-41.2	-45.0	12.2	2.14e-04	0	62	0	632291328	54	5464
2026-01-19 12:00:40.04	295.41	13.72	-41.3	-45.1	12.2	2.55e-04	0	62	0	634388480	54	5495
2026-01-19 12:00:41.05	295.60	13.69	-41.3	-45.2	12.0	2.85e-04	0	62	0	636485632	54	5563
2026-01-19 12:00:42.06	295.80	13.66	-41.3	-45.2	12.0	3.46e-04	0	62	0	638582784	54	5563
2026-01-19 12:00:43.07	295.99	13.63	-41.4	-45.4	11.9	3.52e-04	0	62	0	640679936	54	5670
2026-01-19 12:00:44.08	296.18	13.59	-41.4	-45.5	11.7	5.49e-04	0	62	0	641728512	54	5740
2026-01-19 12:00:45.09	296.38	13.56	-41.5	-45.5	11.8	5.63e-04	0	62	0	643825664	54	5742
2026-01-19 12:00:46.10	296.57	13.53	-41.5	-45.6	11.7	5.51e-04	0	62	0	645922816	54	5811
2026-01-19 12:00:47.11	296.76	13.50	-41.6	-45.7	11.6	6.20e-04	0	62	0	648019968	54	5858
2026-01-19 12:00:48.12	296.96	13.46	-41.6	-45.6	11.7	5.79e-04	0	62	0	650117120	54	5828
2026-01-19 12:00:49.13	297.15	13.43	-41.6	-45.6	11.7	4.84e-04	0	62	0	651165696	54	5852
2026-01-19 12:00:50.14	297.34	13.40	-41.5	-45.4	11.9	3.97e-04	0	62	0	653262848	54	5707
2026-01-19 12:00:51.15	297.53	13.36	-41.4	-45.3	12.1	3.13e-04	0	62	0	655360000	54	5637
2026-01-19 12:00:52.16	297.72	13.33	-41.5	-45.4	12.0	3.38e-04	0	62	0	657457152	54	5674
2026-01-19 12:00:53.17	297.91	13.29	-41.5	-45.4	12.0	3.49e-04	0	62	0	659554304	54	5703
2026-01-19 12:00:54.18	298.10	13.26	-41.6	-45.6	11.9	3.83e-04	0	62	0	660602880	54	5790
2026-01-19 12:00:55.19	298.29	13.22	-41.5	-45.4	12.0	3.19e-04	0	62	0	662700032	54	5679
2026-01-19 12:00:56.20	298.48	13.19	-41.5	-45.5	12.0	3.12e-04	0	62	0	664797184	54	5740
2026-01-19 12:00:57.21	298.67	13.15	-41.5	-45.5	12.0	3.56e-04	0	62	0	666894336	54	5749
2026-01-19 12:00:58.22	298.85	13.12	-41.5	-45.4	12.1	3.04e-04	0	62	0	668991488	54	5690
2026-01-19 12:00:59.22	299.04	13.08	-41.6	-45.5	12.0	2.84e-04	0	62	0	670040064	54	5734
2026-01-19 12:01:00.23	299.23	13.05	-41.6	-45.5	12.0	3.39e-04	0	62	0	672137216	54	5780
2026-01-19 12:01:01.25	299.41	13.01	-41.6	-45.6	11.9	3.86e-04	0	62	0	674234368	54	5853
2026-01-19 12:01:02.25	299.60	12.97	-41.7	-45.7	11.8	4.22e-04	0	62	0	676331520	54	5895
2026-01-19 12:01:03.26	299.78	12.94	-41.7	-45.9	11.6	5.68e-04	0	62	0	678428672	54	5993
2026-01-19 12:01:04.27	299.97	12.90	-41.8	-46.1	11.5	8.13e-04	0	62	0	679477248	54	6132
2026-01-19 12:01:05.28	300.15	12.86	-41.9	-46.1	11.4	9.74e-04	0	62	0	681574400	54	6195
2026-01-19 12:01:06.30	300.34	12.83	-41.9	-46.3	11.2	1.27e-03	0	62	0	683671552	54	6290
2026-01-19 12:01:07.30	300.52	12.79	-41.9	-46.3	11.2	1.53e-03	0	62	0	685768704	54	6295
2026-01-19 12:01:08.31	300.71	12.75	-41.9	-46.3	11.2	1.31e-03	0	62	0	687865856	54	6325
2026-01-19 12:01:09.32	300.89	12.71	-42.0	-46.4	11.1	1.66e-03	0	62	0	688914432	54	6349
2026-01-19 12:01:10.33	301.07	12.68	-42.0	-46.4	11.0	1.60e-03	0	62	0	691011584	54	6417
2026-01-19 12:01:11.34	301.25	12.64	-42.1	-46.6	10.9	2.17e-03	0	62	0	693108736	54	6530
2026-01-19 12:01:12.35	301.43	12.60	-42.1	-46.6	10.8	2.28e-03	0	62	0	695205888	54	6528
2026-01-19 12:01:13.36	301.62	12.56	-42.1	-46.6	10.8	2.82e-03	0	62	0	697303040	54	6564
2026-01-19 12:01:14.37	301.80	12.52	-42.1	-46.8	10.7	3.01e-03	0	62	0	699400192	54	6657
2026-01-19 12:01:15.38	301.98	12.48	-42.2	-46.8	10.6	3.13e-03	0	62	0	700448768	54	6705
2026-01-19 12:01:16.39	302.16	12.44	-42.2	-46.9	10.5	3.66e-03	0	62	0	702545920	54	6788
2026-01-19 12:01:17.40	302.33	12.40	-42.2	-46.8	10.6	3.29e-03	0	62	0	704643072	54	6704
2026-01-19 12:01:18.41	302.51	12.36	-42.2	-46.8	10.6	3.18e-03	0	62	0	706740224	54	6700
2026-01-19 12:01:19.42	302.69	12.32	-42.1	-46.7	10.7	3.21e-03	0	62	0	708837376	54	6634
2026-01-19 12:01:20.42	302.87	12.28	-42.1	-46.8	10.7	2.94e-03	0	62	0	709885952	54	6661
2026-01-19 12:01:21.43	303.04	12.24	-42.1	-46.8	10.7	2.96e-03	0	62	0	711983104	54	6654
2026-01-19 12:01:22.44	303.22	12.20	-42.1	-46.8	10.7	3.23e-03	0	62	0	714080256	54	6652
2026-01-19 12:01:23.45	303.40	12.16	-42.2	-46.9	10.5	3.41e-03	0	62	0	716177408	54	6773
2026-01-19 12:01:24.46	303.57	12.12	-42.2	-46.9	10.5	3.91e-03	0	62	0	718274560	55	6417
2026-01-19 12:01:25.47	303.75	12.08	-42.3	-47.2	10.2	5.63e-03	0	62	0	719323136	55	6620
2026-01-19 12:01:26.48	303.92	12.04	-42.4	-47.5	9.9	8.35e-03	0	62	0	721420288	55	6857
2026-01-19 12:01:27.49	304.10	12.00	-42.5	-47.8	9.6	1.05e-02	0	62	0	723517440	55	7070
2026-01-19 12:01:28.49	304.27	11.96	-42.6	-48.0	9.3	1.47e-02	0	62	0	725614592	55	7272
2026-01-19 12:01:29.51	304.45	11.92	-42.7	-48.2	9.1	2.16e-02	0	62	0	727711744	55	7441
2026-01-19 12:01:30.52	304.62	11.87	-42.7	-48.3	9.0	2.40e-02	0	62	0	728760320	55	7535
2026-01-19 12:01:31.53	304.79	11.83	-42.9	-48.6	9.0	2.46e-02	0	62	0	730857472	56	7291
2026-01-19 12:01:32.54	304.96	11.79	-43.0	-48.8	8.7	3.04e-02	0	62	0	732954624	56	7491
2026-01-19 12:01:33.54	305.13	11.75	-43.0	-48.9	8.5	3.81e-02	0	62	0	735051776	56	7627
2026-01-19 12:01:34.55	305.30	11.71	-43.1	-49.3	8.2	4.74e-02	0	62	0	737148928	56	7919
2026-01-19 12:01:35.57	305.48	11.66	-43.1	-49.5	8.0	6.49e-02	0	62	0	738197504	56	8130
2026-01-19 12:01:36.58	305.65	11.62	-43.2	-49.5	8.0	6.97e-02	0	62	0	740294656	56	8159
2026-01-19 12:01:37.59	305.82	11.58	-43.2	-49.6	7.9	7.56e-02	0	62	0	742391808	56	8245
2026-01-19 12:01:38.59	305.98	11.54	-43.1	-49.4	8.0	7.98e-02	0	62	0	744488960	56	8069
2026-01-19 12:01:39.60	306.15	11.49	-43.1	-49.4	8.1	6.37e-02	0	62	0	746586112	56	7997
2026-01-19 12:01:40.61	306.32	11.45	-43.1	-49.2	8.3	5.52e-02	0	62	0	747634688	56	7831
2026-01-19 12:01:41.62	306.49	11.41	-43.0	-48.8	8.6	4.82e-02	0	62	0	749731840	56	7535
2026-01-19 12:01:42.63	306.65	11.36	-42.9	-48.6	8.8	3.34e-02	0	62	0	751828992	56	7344
2026-01-19 12:01:43.64	306.82	11.32	-42.9	-48.6	8.9	2.89e-02	0	62	0	753926144	56	7304
2026-01-19 12:01:44.65	306.99	11.28	-42.9	-48.6	8.9	2.78e-02	0	62	0	756023296	56	7306
2026-01-19 12:01:45.66	307.15	11.23	-42.9	-48.6	8.8	2.96e-02	0	62	0	757071872	56	7306
2026-01-19 12:01:46.67	307.32	11.19	-42.8	-48.4	9.0	2.48e-02	0	62	0	759169024	56	7197
2026-01-19 12:01:47.68	307.48	11.14	-42.8	-48.6	8.9	2.67e-02	0	62	0	761266176	56	7320
2026-01-19 12:01:48.69	307.65	11.10	-42.8	-48.5	8.9	2.60e-02	0	62	0	763363328	56	7227
2026-01-19 12:01:49.70	307.81	11.05	-42.8	-48.5	8.9	2.64e-02	0	62	0	765460480	56	7279
2026-01-19 12:01:50.70	307.97	11.01	-42.9	-48.6	8.8	2.97e-02	0	62	0	766509056	56	7343
2026-01-19 12:01:51.71	308.14	10.97	-42.9	-48.8	8.7	3.47e-02	0	62	0	768606208	56	7485
2026-01-19 12:01:52.72	308.30	10.92	-43.0	-49.0	8.4	4.19e-02	0	62	0	770703360	56	7672
2026-01-19 12:01:53.74	308.46	10.88	-43.0	-49.2	8.3	4.94e-02	0	62	0	772800512	56	7821
2026-01-19 12:01:54.74	308.62	10.83	-43.1	-49.4	8.0	5.46e-02	0	62	0	774897664	56	8027
2026-01-19 12:01:55.75	308.78	10.79	-43.1	-49.4	8.0	6.86e-02	0	62	0	775946240	56	8046
2026-01-19 12:01:56.76	308.94	10.74	-43.1	-49.5	7.9	7.29e-02	0	62	0	778043392	56	8109
2026-01-19 12:01:57.77	309.10	10.70	-43.1	-49.6	7.8	7.66e-02	0	62	0	780140544	56	8211
2026-01-19 12:01:58.78	309.26	10.65	-43.1	-49.5	7.9	7.26e-02	0	62	0	782237696	56	8114
2026-01-19 12:01:59.79	309.42	10.60	-43.1	-49.4	8.0	7.05e-02	0	62	0	784334848	56	8034
2026-01-19 12:02:00.80	309.58	10.56	-43.1	-49.3	8.1	6.71e-02	0	62	0	785383424	56	7979
2026-01-19 12:02:01.81	309.74	10.51	-43.0	-49.2	8.2	5.61e-02	0	62	0	787480576	56	7831
2026-01-19 12:02:02.82	309.90	10.47	-42.9	-48.9	8.5	4.58e-02	0	62	0	789577728	56	7557
2026-01-19 12:02:03.82	310.05	10.42	-42.8	-48.6	8.8	3.73e-02	0	62	0	791674880	56	7345
2026-01-19 12:02:04.83	310.21	10.38	-42.9	-48.7	8.6	3.66e-02	0	62	0	793772032	56	7457
2026-01-19 12:02:05.84	310.36	10.33	-42.9	-48.8	8.5	4.03e-02	0	62	0	795869184	56	7537
2026-01-19 12:02:06.85	310.52	10.28	-42.9	-48.8	8.6	3.85e-02	0	62	0	796917760	56	7475
2026-01-19 12:02:07.86	310.67	10.24	-42.9	-48.8	8.5	4.09e-02	0	62	0	799014912	56	7492
2026-01-19 12:02:08.87	310.83	10.19	-42.8	-48.8	8.6	4.22e-02	0	62	0	801112064	56	7476
2026-01-19 12:02:09.88	310.98	10.14	-42.8	-48.8	8.6	3.83e-02	0	62	0	803209216	56	7468
2026-01-19 12:02:10.89	311.14	10.10	-42.8	-48.6	8.8	3.37e-02	0	62	0	805306368	56	7312
2026-01-19 12:02:11.90	311.29	10.05	-42.6	-48.2	9.2	2.45e-02	0	62	0	806354944	56	6972
2026-01-19 12:02:12.91	311.44	10.00	-42.5	-47.8	9.6	1.62e-02	0	62	0	808452096	56	6647
2026-01-19 12:02:13.92	311.60	9.96	-42.5	-47.7	9.6	1.24e-02	0	62	0	810549248	56	6614
2026-01-19 12:02:14.93	311.75	9.91	-42.5	-47.7	9.6	1.34e-02	0	62	0	812646400	56	6639
2026-01-19 12:02:15.94	311.90	9.86	-42.4	-47.7	9.6	1.27e-02	0	62	0	814743552	56	6579
2026-01-19 12:02:16.95	312.05	9.82	-42.5	-47.8	9.5	1.37e-02	0	62	0	815792128	56	6655
2026-01-19 12:02:17.96	312.20	9.77	-42.5	-47.8	9.5	1.41e-02	0	62	0	817889280	56	6655
2026-01-19 12:02:18.96	312.35	9.72	-42.5	-47.7	9.6	1.34e-02	0	62	0	819986432	56	6606
2026-01-19 12:02:19.98	312.50	9.67	-42.5	-48.0	9.3	1.66e-02	0	62	0	822083584	56	6804
2026-01-19 12:02:20.98	312.65	9.63	-42.5	-47.8	9.5	1.47e-02	0	62	0	824180736	56	6668
2026-01-19 12:02:21.99	312.79	9.58	-42.6	-48.0	9.3	1.64e-02	0	62	0	825229312	56	6837
2026-01-19 12:02:23.00	312.94	9.53	-42.6	-48.0	9.3	1.95e-02	0	62	0	827326464	56	6849
2026-01-19 12:02:24.01	313.09	9.48	-42.5	-47.9	9.3	1.80e-02	0	62	0	829423616	56	6794
2026-01-19 12:02:25.02	313.24	9.44	-42.5	-48.0	9.2	1.82e-02	0	62	0	831520768	56	6836
2026-01-19 12:02:26.03	313.38	9.39	-42.6	-48.1	9.1	1.94e-02	0	62	0	833617920	56	6944
2026-01-19 12:02:27.04	313.53	9.34	-42.5	-48.0	9.3	2.03e-02	0	62	0	834666496	56	6840
2026-01-19 12:02:28.05	313.68	9.29	-42.6	-48.2	9.0	2.23e-02	0	62	0	836763648	56	6994
2026-01-19 12:02:29.06	313.82	9.24	-42.6	-48.2	9.0	2.31e-02	0	62	0	838860800	56	7005
2026-01-19 12:02:30.07	313.97	9.20	-42.6	-48.3	9.0	2.25e-02	0	62	0	840957952	56	7072
2026-01-19 12:02:31.08	314.11	9.15	-42.6	-48.2	9.0	2.57e-02	0	62	0	843055104	56	7008
2026-01-19 12:02:32.09	314.25	9.10	-42.6	-48.2	9.0	2.59e-02	0	62	0	844103680	56	7015
2026-01-19 12:02:33.10	314.40	9.05	-42.6	-48.1	9.1	2.55e-02	0	62	0	846200832	56	6914
2026-01-19 12:02:34.11	314.54	9.00	-42.4	-47.8	9.5	1.65e-02	0	62	0	848297984	56	6651
2026-01-19 12:02:35.12	314.68	8.95	-42.4	-47.6	9.7	1.21e-02	0	62	0	850395136	56	6503
2026-01-19 12:02:36.13	314.82	8.91	-42.3	-47.4	9.9	9.46e-03	0	62	0	852492288	56	6357
2026-01-19 12:02:37.14	314.97	8.86	-42.3	-47.3	10.0	8.38e-03	0	62	0	853540864	56	6308
2026-01-19 12:02:38.15	315.11	8.81	-42.2	-47.3	10.0	8.25e-03	0	62	0	855638016	56	6284
2026-01-19 12:02:39.16	315.25	8.76	-42.1	-47.0	10.3	6.32e-03	0	62	0	857735168	56	6068
2026-01-19 12:02:40.17	315.39	8.71	-42.1	-46.9	10.3	4.73e-03	0	62	0	859832320	56	6042
2026-01-19 12:02:41.18	315.53	8.66	-42.2	-47.0	10.2	6.04e-03	0	62	0	861929472	56	6120
2026-01-19 12:02:42.19	315.67	8.61	-42.3	-47.3	9.9	7.75e-03	0	62	0	864026624	56	6296
2026-01-19 12:02:43.20	315.81	8.56	-42.3	-47.3	9.9	8.35e-03	0	62	0	865075200	56	6338
2026-01-19 12:02:44.21	315.94	8.52	-42.4	-47.5	9.8	9.33e-03	0	62	0	867172352	56	6456
2026-01-19 12:02:45.22	316.08	8.47	-42.4	-47.6	9.6	1.17e-02	0	62	0	869269504	56	6546
2026-01-19 12:02:46.23	316.22	8.42	-42.4	-47.6	9.6	1.33e-02	0	62	0	871366656	56	6529
2026-01-19 12:02:47.24	316.36	8.37	-42.4	-47.5	9.7	1.11e-02	0	62	0	873463808	56	6473
2026-01-19 12:02:48.24	316.49	8.32	-42.4	-47.6	9.7	1.08e-02	0	62	0	874512384	56	6523
2026-01-19 12:02:49.25	316.63	8.27	-42.3	-47.4	9.9	1.04e-02	0	62	0	876609536	56	6361
2026-01-19 12:02:50.26	316.76	8.22	-42.3	-47.4	9.8	1.01e-02	0	62	0	878706688	56	6409
2026-01-19 12:02:51.27	316.90	8.17	-42.3	-47.4	9.8	9.71e-03	0	62	0	880803840	56	6397
2026-01-19 12:02:52.28	317.03	8.12	-42.3	-47.3	9.9	7.97e-03	0	62	0	882900992	56	6324
2026-01-19 12:02:53.29	317.17	8.07	-42.3	-47.4	9.8	8.70e-03	0	62	0	883949568	56	6388
2026-01-19 12:02:54.30	317.30	8.03	-42.3	-47.4	9.8	9.41e-03	0	62	0	886046720	56	6388
2026-01-19 12:02:55.31	317.44	7.98	-44.5	-58.2	3.8	1.44e+00	0	62	104	887095296	59	18602
2026-01-19 12:02:56.32	317.57	7.93	-44.7	-59.3	3.8	1.49e+00	0	62	104	887095296	60	19935
2026-01-19 12:02:57.33	317.70	7.88	-44.9	-59.5	3.8	1.49e+00	0	62	104	887095296	60	20398
2026-01-19 12:02:58.34	317.83	7.83	-45.0	-59.6	3.8	1.49e+00	0	62	104	887095296	60	20772
2026-01-19 12:02:59.35	317.97	7.78	-45.2	-59.7	3.8	1.49e+00	0	62	104	887095296	60	20980
2026-01-19 12:03:00.36	318.10	7.73	-45.2	-59.8	3.8	1.49e+00	0	62	104	887095296	61	20015
2026-01-19 12:03:01.37	318.23	7.68	-45.3	-59.9	3.8	1.49e+00	0	62	104	887095296	61	20086
2026-01-19 12:03:02.38	318.36	7.63	-45.3	-59.9	3.8	1.49e+00	0	62	104	887095296	61	20166
2026-01-19 12:03:03.40	318.49	7.58	-45.3	-59.9	3.8	1.49e+00	0	62	104	887095296	61	20151
2026-01-19 12:03:04.41	318.62	7.53	-45.3	-59.8	3.8	1.49e+00	0	62	104	887095296	61	20036
2026-01-19 12:03:05.42	318.75	7.48	-45.3	-59.8	3.8	1.49e+00	0	62	104	887095296	61	19930
2026-01-19 12:03:06.43	318.88	7.43	-45.2	-59.8	3.8	1.49e+00	0	62	104	887095296	61	19967
2026-01-19 12:03:07.44	319.01	7.38	-45.3	-59.8	3.8	1.49e+00	0	62	104	887095296	61	19889
2026-01-19 12:03:08.45	319.13	7.33	-45.1	-59.8	3.8	1.49e+00	0	62	104	887095296	61	19948
2026-01-19 12:03:09.46	319.26	7.28	-45.2	-59.9	3.8	1.49e+00	0	62	104	887095296	61	20233
2026-01-19 12:03:10.47	319.39	7.23	-45.2	-59.7	3.8	1.49e+00	0	62	104	887095296	61	19820
2026-01-19 12:03:11.48	319.51	7.18	-45.1	-59.8	3.8	1.49e+00	0	62	104	887095296	61	19872
2026-01-19 12:03:12.49	319.64	7.13	-45.2	-59.7	3.8	1.49e+00	0	62	104	887095296	61	19824
2026-01-19 12:03:13.50	319.77	7.08	-45.2	-59.8	3.8	1.49e+00	0	62	104	887095296	61	19906
2026-01-19 12:03:14.51	319.89	7.03	-45.2	-59.8	3.8	1.49e+00	0	62	104	887095296	61	19856
2026-01-19 12:03:15.52	320.02	6.98	-45.2	-59.7	3.8	1.49e+00	0	62	104	887095296	60	20974
2026-01-19 12:03:16.53	320.14	6.93	-45.2	-59.7	3.8	1.49e+00	0	62	104	887095296	60	21014
2026-01-19 12:03:17.54	320.27	6.88	-45.2	-59.8	3.8	1.49e+00	0	62	104	887095296	60	21064
2026-01-19 12:03:18.55	320.39	6.83	-45.2	-59.8	3.8	1.49e+00	0	62	104	887095296	60	21060
2026-01-19 12:03:19.56	320.51	6.78	-45.2	-59.7	3.8	1.49e+00	0	62	104	887095296	60	20975
2026-01-19 12:03:20.57	320.64	6.73	-45.0	-59.7	3.8	1.49e+00	0	62	104	887095296	60	20936
2026-01-19 12:03:21.58	320.76	6.68	-45.2	-59.7	3.8	1.49e+00	0	62	104	887095296	60	20948
2026-01-19 12:03:22.59	320.88	6.63	-45.2	-59.7	3.8	1.49e+00	0	62	104	887095296	60	20954
2026-01-19 12:03:23.60	321.00	6.58	-44.8	-59.7	3.8	1.49e+00	0	62	104	887095296	60	20940
2026-01-19 12:03:24.62	321.13	6.53	-45.1	-59.7	3.8	1.49e+00	0	62	104	887095296	60	21011
2026-01-19 12:03:25.63	321.25	6.48	-45.2	-59.7	3.8	1.49e+00	0	62	104	887095296	60	20993
2026-01-19 12:03:26.64	321.37	6.43	-45.1	-59.7	3.8	1.49e+00	0	62	104	887095296	60	20928
2026-01-19 12:03:27.65	321.49	6.38	-45.2	-59.7	3.8	1.49e+00	0	62	104	887095296	60	20935
2026-01-19 12:03:28.66	321.61	6.33	-45.1	-59.7	3.8	1.49e+00	0	62	104	887095296	60	20974
2026-01-19 12:03:29.67	321.73	6.28	-45.2	-59.7	3.8	1.49e+00	0	62	104	887095296	60	20926
2026-01-19 12:03:30.68	321.84	6.23	-45.2	-59.7	3.8	1.49e+00	0	62	104	887095296	60	20912
2026-01-19 12:03:31.69	321.96	6.19	-45.2	-59.7	3.8	1.49e+00	0	62	104	887095296	60	20923
2026-01-19 12:03:32.70	322.08	6.14	-45.2	-59.7	3.8	1.49e+00	0	62	104	887095296	60	20975
2026-01-19 12:03:33.71	322.20	6.09	-45.2	-59.7	3.8	1.49e+00	0	62	104	887095296	60	20882
2026-01-19 12:03:34.72	322.32	6.04	-45.2	-59.7	3.8	1.49e+00	0	62	104	887095296	60	20796
2026-01-19 12:03:35.73	322.43	5.99	-45.2	-59.7	3.8	1.49e+00	0	62	104	887095296	60	20958
2026-01-19 12:03:36.74	322.55	5.94	-45.2	-59.7	3.8	1.49e+00	0	62	104	887095296	60	20922
2026-01-19 12:03:37.75	322.67	5.89	-45.1	-59.7	3.8	1.49e+00	0	62	104	887095296	60	20876
2026-01-19 12:03:38.76	322.78	5.84	-45.0	-59.7	3.8	1.49e+00	0	62	104	887095296	60	20804
2026-01-19 12:03:39.77	322.90	5.79	-45.1	-59.7	3.8	1.49e+00	0	62	104	887095296	60	20855
2026-01-19 12:03:40.78	323.01	5.74	-45.1	-59.7	3.8	1.49e+00	0	62	104	887095296	60	20918
2026-01-19 12:03:41.79	323.13	5.69	-44.9	-59.7	3.8	1.49e+00	0	62	104	887095296	60	20795
2026-01-19 12:03:42.80	323.24	5.64	-45.1	-59.7	3.8	1.49e+00	0	62	104	887095296	60	20851
2026-01-19 12:03:43.81	323.36	5.59	-45.2	-59.7	3.8	1.49e+00	0	62	104	887095296	60	20883
2026-01-19 12:03:44.82	323.47	5.54	-45.1	-59.7	3.8	1.49e+00	0	62	104	887095296	60	20892
2026-01-19 12:03:45.83	323.58	5.49	-45.1	-59.7	3.8	1.49e+00	0	62	104	887095296	60	20851
2026-01-19 12:03:46.85	323.70	5.44	-45.2	-59.7	3.8	1.49e+00	0	62	104	887095296	60	20862
2026-01-19 12:03:47.86	323.81	5.39	-45.1	-59.7	3.8	1.49e+00	0	62	104	887095296	60	20810
2026-01-19 12:03:48.87	323.92	5.34	-45.1	-59.7	3.8	1.49e+00	0	62	104	887095296	60	20903
2026-01-19 12:03:49.88	324.03	5.29	-45.1	-59.7	3.8	1.49e+00	0	62	104	887095296	60	20805
2026-01-19 12:03:50.89	324.15	5.24	-45.1	-59.7	3.8	1.49e+00	0	62	104	887095296	60	20888
2026-01-19 12:03:51.90	324.26	5.19	-45.1	-59.7	3.8	1.49e+00	0	62	104	887095296	60	20793
2026-01-19 12:03:52.91	324.37	5.14	-45.1	-59.7	3.8	1.49e+00	0	62	104	887095296	60	20823
2026-01-19 12:03:53.92	324.48	5.09	-45.1	-59.7	3.8	1.49e+00	0	62	104	887095296	60	20810
2026-01-19 12:03:54.93	324.59	5.04	-45.1	-59.7	3.8	1.49e+00	0	62	104	887095296	60	20841
2026-01-19 12:03:55.94	324.70	4.99	-45.1	-59.7	3.8	1.49e+00	0	62	104	887095296	60	20892
2026-01-19 12:03:56.95	324.81	4.94	-45.1	-59.7	3.8	1.49e+00	0	62	104	887095296	60	20800
2026-01-19 12:03:57.96	324.91	4.89	-44.9	-59.7	3.8	1.49e+00	0	62	104	887095296	60	20811
2026-01-19 12:03:58.97	325.02	4.84	-45.1	-59.7	3.8	1.49e+00	0	62	104	887095296	60	20878
2026-01-19 12:03:59.98	325.13	4.79	-45.1	-59.7	3.8	1.49e+00	0	62	104	887095296	60	20847
2026-01-19 12:04:00.99	325.24	4.74	-45.1	-59.6	3.8	1.49e+00	0	62	104	887095296	60	20772
2026-01-19 12:04:02.01	325.35	4.69	-45.0	-59.6	3.8	1.49e+00	0	62	104	887095296	60	20713
2026-01-19 12:04:03.02	325.45	4.64	-44.1	-59.7	3.8	1.49e+00	0	62	104	887095296	60	20869
2026-01-19 12:04:04.03	325.56	4.59	-45.1	-59.7	3.8	1.49e+00	0	62	104	887095296	60	20810
2026-01-19 12:04:05.04	325.67	4.54	-45.1	-59.7	3.8	1.49e+00	0	62	104	887095296	60	20927
2026-01-19 12:04:06.05	325.77	4.49	-45.1	-59.7	3.8	1.49e+00	0	62	104	887095296	60	20816
2026-01-19 12:04:07.06	325.88	4.44	-45.1	-59.6	3.8	1.49e+00	0	62	104	887095296	60	20724
2026-01-19 12:04:08.07	325.99	4.39	-45.1	-59.6	3.8	1.49e+00	0	62	104	887095296	60	20737
2026-01-19 12:04:09.08	326.09	4.34	-44.9	-59.6	3.8	1.49e+00	0	62	104	887095296	60	20744
2026-01-19 12:04:10.09	326.19	4.29	-45.1	-59.6	3.8	1.49e+00	0	62	104	887095296	60	20748
2026-01-19 12:04:11.10	326.30	4.24	-45.1	-59.7	3.8	1.49e+00	0	62	104	887095296	60	20777
2026-01-19 12:04:12.11	326.40	4.19	-45.1	-59.6	3.8	1.49e+00	0	62	104	887095296	60	20677
2026-01-19 12:04:13.12	326.51	4.14	-45.1	-59.6	3.8	1.49e+00	0	62	104	887095296	60	20727
2026-01-19 12:04:14.14	326.61	4.09	-45.1	-59.6	3.8	1.49e+00	0	62	104	887095296	60	20752
2026-01-19 12:04:15.14	326.71	4.04	-45.1	-59.6	3.8	1.49e+00	0	62	104	887095296	60	20775
2026-01-19 12:04:16.15	326.82	3.99	-45.0	-59.6	3.8	1.49e+00	0	62	104	887095296	60	20703
2026-01-19 12:04:17.17	326.92	3.94	-45.1	-59.6	3.8	1.49e+00	0	62	104	887095296	60	20713
2026-01-19 12:04:18.18	327.02	3.89	-45.0	-59.6	3.8	1.49e+00	0	63	104	887095296	60	20746
2026-01-19 12:04:19.19	327.12	3.84	-45.1	-59.6	3.8	1.49e+00	0	62	104	887095296	60	20753
2026-01-19 12:04:20.19	327.22	3.79	-45.1	-59.6	3.8	1.49e+00	0	62	104	887095296	60	20754
2026-01-19 12:04:21.21	327.33	3.74	-45.0	-59.6	3.8	1.49e+00	0	62	104	887095296	60	20769
2026-01-19 12:04:22.22	327.43	3.69	-45.1	-59.7	3.8	1.49e+00	0	62	104	887095296	60	20824
2026-01-19 12:04:23.23	327.53	3.64	-45.1	-59.6	3.8	1.49e+00	0	62	104	887095296	60	20771
2026-01-19 12:04:24.24	327.63	3.59	-45.1	-59.6	3.8	1.49e+00	0	63	104	887095296	60	20694
2026-01-19 12:04:25.25	327.73	3.55	-45.1	-59.7	3.8	1.49e+00	0	62	104	887095296	60	20778
2026-01-19 12:04:26.26	327.83	3.50	-45.1	-59.6	3.8	1.49e+00	0	62	104	887095296	60	20701
2026-01-19 12:04:27.27	327.93	3.45	-45.1	-59.6	3.8	1.49e+00	0	63	104	887095296	60	20756
2026-01-19 12:04:28.28	328.02	3.40	-45.1	-59.6	3.8	1.49e+00	0	62	104	887095296	60	20746
2026-01-19 12:04:29.29	328.12	3.35	-45.1	-59.6	3.8	1.49e+00	0	62	104	887095296	60	20720
2026-01-19 12:04:30.30	328.22	3.30	-45.1	-59.6	3.8	1.49e+00	0	62	104	887095296	60	20728
2026-01-19 12:04:31.31	328.32	3.25	-45.1	-59.6	3.8	1.49e+00	0	62	104	887095296	60	20723
2026-01-19 12:04:32.32	328.42	3.20	-45.1	-59.6	3.8	1.49e+00	0	62	104	887095296	60	20735
2026-01-19 12:04:33.33	328.51	3.15	-45.1	-59.6	3.8	1.49e+00	0	62	104	887095296	60	20734
2026-01-19 12:04:34.34	328.61	3.10	-45.1	-59.6	3.8	1.49e+00	0	62	104	887095296	60	20711
2026-01-19 12:04:35.35	328.71	3.05	-45.1	-59.6	3.8	1.49e+00	0	63	104	887095296	60	20699
2026-01-19 12:04:36.36	328.80	3.00	-45.1	-59.6	3.8	1.49e+00	0	62	104	887095296	60	20708
2026-01-19 12:04:37.37	328.90	2.95	-45.1	-59.6	3.8	1.49e+00	0	62	104	887095296	60	20751
2026-01-19 12:04:38.38	329.00	2.91	-45.1	-59.6	3.8	1.49e+00	0	62	104	887095296	60	20752
2026-01-19 12:04:39.39	329.09	2.86	-45.1	-59.6	3.8	1.49e+00	0	62	104	887095296	60	20716
2026-01-19 12:04:40.40	329.19	2.81	-45.1	-59.6	3.8	1.49e+00	0	63	104	887095296	60	20700
2026-01-19 12:04:41.41	329.28	2.76	-45.1	-59.7	3.8	1.49e+00	0	63	104	887095296	60	20792
2026-01-19 12:04:42.42	329.37	2.71	-45.1	-59.6	3.8	1.49e+00	0	62	104	887095296	60	20761
2026-01-19 12:04:43.43	329.47	2.66	-45.1	-59.6	3.8	1.49e+00	0	62	104	887095296	60	20766
2026-01-19 12:04:44.44	329.56	2.61	-45.1	-59.6	3.8	1.49e+00	0	63	104	887095296	60	20717
2026-01-19 12:04:45.45	329.66	2.56	-45.0	-59.6	3.8	1.49e+00	0	62	104	887095296	60	20712
2026-01-19 12:04:46.47	329.75	2.51	-45.1	-59.6	3.8	1.49e+00	0	63	104	887095296	60	20707
2026-01-19 12:04:47.48	329.84	2.46	-45.0	-59.6	3.8	1.49e+00	0	62	104	887095296	60	20728
2026-01-19 12:04:48.49	329.94	2.41	-45.1	-59.6	3.8	1.49e+00	0	62	104	887095296	60	20758
2026-01-19 12:04:49.50	330.03	2.37	-45.1	-59.6	3.8	1.49e+00	0	62	104	887095296	60	20660
2026-01-19 12:04:50.51	330.12	2.32	-45.1	-59.6	3.8	1.49e+00	0	62	104	887095296	60	20661
2026-01-19 12:04:51.52	330.21	2.27	-45.1	-59.6	3.8	1.49e+00	0	62	104	887095296	60	20669
2026-01-19 12:04:52.53	330.30	2.22	-45.0	-59.6	3.8	1.49e+00	0	63	104	887095296	60	20710
2026-01-19 12:04:53.54	330.40	2.17	-45.1	-59.6	3.8	1.49e+00	0	62	104	887095296	60	20609
2026-01-19 12:04:54.55	330.49	2.12	-45.1	-59.6	3.8	1.49e+00	0	62	104	887095296	60	20682
2026-01-19 12:04:55.56	330.58	2.07	-45.1	-59.6	3.8	1.49e+00	0	63	104	887095296	60	20726
2026-01-19 12:04:56.57	330.67	2.03	-45.1	-59.6	3.8	1.49e+00	0	62	104	887095296	60	20771
2026-01-19 12:04:57.58	330.76	1.98	-45.0	-59.6	3.8	1.49e+00	0	62	104	887095296	60	20642
2026-01-19 12:04:58.59	330.85	1.93	-44.7	-59.6	3.8	1.49e+00	0	63	104	887095296	60	20668

#Closed at: 2026-01-19 12:04:59
#Recorded file [887 MB]: D:/lorett/data/31039_260119_145320.dat