passes_logs/2026/01/19/R2.0S_Moscow/R2.0S_Moscow__20260119_002012_NOAA_20_JPSS-1_rec.log

#Pass ID: 20260119_002012_NOAA 20 (JPSS-1)
#Satellite: NOAA 20 (JPSS-1)
#Configuration: NOAA 20
#almurnet v.1.7.20251203
#Start time: 2026-01-19 00:20:13

#Version: 2.2.20231116
#Station: R2.0S_Moscow
#Location: 37.707566 lon 55.798166 lat
#TLE: 1 43013U 17073A   26017.93796159  .00000077  00000+0  57252-4 0  9992
#TLE: 2 43013  98.7639 318.8464 0001390  34.9771 325.1496 14.19536703423157

#Time	Az	El	Level	Level2	SNR	BER	BlckErr	Temp	State	Recorded	gain1	gain2
2026-01-19 00:20:13.28	13.47	2.07	-41.3	-55.9	3.8	1.49e+00	0	53	0	0	54	19121
2026-01-19 00:20:14.30	13.44	2.14	-41.3	-55.9	3.8	1.49e+00	0	53	104	0	54	19055
2026-01-19 00:20:15.31	13.42	2.20	-41.3	-55.9	3.8	1.49e+00	0	54	104	0	54	19101
2026-01-19 00:20:16.32	13.39	2.26	-41.3	-55.9	3.8	1.49e+00	0	53	104	0	54	19110
2026-01-19 00:20:17.33	13.37	2.33	-41.3	-55.9	3.8	1.49e+00	0	53	104	0	54	19081
2026-01-19 00:20:18.34	13.34	2.39	-41.3	-55.9	3.8	1.49e+00	0	53	104	0	54	19121
2026-01-19 00:20:19.35	13.31	2.46	-41.3	-55.9	3.8	1.49e+00	0	54	104	0	54	19036
2026-01-19 00:20:20.36	13.29	2.52	-41.3	-55.9	3.8	1.49e+00	0	54	104	0	54	19064
2026-01-19 00:20:21.37	13.26	2.59	-41.3	-55.9	3.8	1.49e+00	0	54	104	0	54	19058
2026-01-19 00:20:22.38	13.24	2.65	-41.3	-55.9	3.8	1.49e+00	0	54	104	0	54	19033
2026-01-19 00:20:23.39	13.21	2.71	-41.3	-55.9	3.8	1.49e+00	0	54	104	0	54	19076
2026-01-19 00:20:24.40	13.18	2.78	-41.3	-55.9	3.8	1.49e+00	0	54	104	0	54	19033
2026-01-19 00:20:25.41	13.16	2.84	-41.3	-55.9	3.8	1.49e+00	0	54	104	0	54	19067
2026-01-19 00:20:26.42	13.13	2.91	-41.3	-55.9	3.8	1.49e+00	0	54	104	0	54	19072
2026-01-19 00:20:27.44	13.10	2.98	-41.3	-55.9	3.8	1.49e+00	0	55	104	0	54	19042
2026-01-19 00:20:28.44	13.08	3.04	-41.3	-55.9	3.8	1.49e+00	0	54	104	0	54	19052
2026-01-19 00:20:29.46	13.05	3.11	-41.3	-55.9	3.8	1.49e+00	0	54	104	0	54	19063
2026-01-19 00:20:30.47	13.02	3.17	-41.3	-55.9	3.8	1.49e+00	0	54	104	0	54	19034
2026-01-19 00:20:31.48	12.99	3.24	-41.3	-55.9	3.8	1.49e+00	0	54	104	0	54	19032
2026-01-19 00:20:32.49	12.97	3.31	-41.3	-55.9	3.8	1.49e+00	0	55	104	0	54	19002
2026-01-19 00:20:33.50	12.94	3.37	-41.3	-55.9	3.8	1.49e+00	0	55	104	0	54	19027
2026-01-19 00:20:34.51	12.91	3.44	-41.3	-55.9	3.8	1.49e+00	0	55	104	0	54	19034
2026-01-19 00:20:35.52	12.88	3.50	-41.3	-55.9	3.8	1.49e+00	0	55	104	0	54	19016
2026-01-19 00:20:36.53	12.85	3.57	-41.3	-55.9	3.8	1.49e+00	0	55	104	0	54	19012
2026-01-19 00:20:37.54	12.83	3.64	-41.3	-55.9	3.8	1.49e+00	0	55	104	0	54	19022
2026-01-19 00:20:38.55	12.80	3.71	-41.3	-55.9	3.8	1.49e+00	0	55	104	0	54	18975
2026-01-19 00:20:39.56	12.77	3.77	-41.3	-55.9	3.8	1.49e+00	0	55	104	0	54	18970
2026-01-19 00:20:40.57	12.74	3.84	-41.3	-55.9	3.8	1.49e+00	0	55	104	0	54	18960
2026-01-19 00:20:41.58	12.71	3.91	-41.3	-55.8	3.8	1.49e+00	0	55	104	0	54	18922
2026-01-19 00:20:42.59	12.68	3.97	-41.3	-55.9	3.8	1.49e+00	0	55	104	0	54	18971
2026-01-19 00:20:43.60	12.65	4.04	-41.3	-55.8	3.8	1.49e+00	0	55	104	0	54	18896
2026-01-19 00:20:44.62	12.62	4.11	-41.3	-55.8	3.8	1.49e+00	0	55	104	0	54	18812
2026-01-19 00:20:45.63	12.59	4.18	-41.3	-55.8	3.8	1.49e+00	0	56	104	0	54	18751
2026-01-19 00:20:46.64	12.56	4.25	-41.3	-55.7	3.8	1.49e+00	0	55	104	0	54	18655
2026-01-19 00:20:47.65	12.54	4.32	-41.3	-55.7	3.8	1.49e+00	0	56	104	0	54	18639
2026-01-19 00:20:48.66	12.51	4.39	-41.3	-55.7	3.8	1.49e+00	0	55	104	0	54	18553
2026-01-19 00:20:49.67	12.47	4.45	-41.3	-55.7	3.8	1.49e+00	0	55	104	0	54	18538
2026-01-19 00:20:50.68	12.44	4.52	-41.3	-55.6	3.8	1.49e+00	0	56	104	0	54	18499
2026-01-19 00:20:51.69	12.41	4.59	-41.3	-55.6	3.8	1.49e+00	0	56	104	0	54	18389
2026-01-19 00:20:52.70	12.38	4.66	-41.3	-55.6	3.8	1.49e+00	0	56	104	0	54	18327
2026-01-19 00:20:53.71	12.35	4.73	-41.3	-55.4	3.8	1.49e+00	0	56	104	0	54	18058
2026-01-19 00:20:54.72	12.32	4.80	-41.3	-55.4	3.8	1.49e+00	0	56	104	0	54	17945
2026-01-19 00:20:55.73	12.29	4.87	-41.3	-55.4	3.8	1.49e+00	0	56	104	0	54	17891
2026-01-19 00:20:56.74	12.26	4.94	-41.3	-55.4	3.8	1.49e+00	0	56	104	0	54	18035
2026-01-19 00:20:57.75	12.23	5.01	-41.3	-55.4	3.8	1.49e+00	0	56	104	0	54	17978
2026-01-19 00:20:58.76	12.20	5.08	-41.3	-55.3	3.8	1.49e+00	0	56	104	0	54	17848
2026-01-19 00:20:59.77	12.16	5.15	-41.3	-55.3	3.8	1.49e+00	0	56	104	0	54	17704
2026-01-19 00:21:00.78	12.13	5.22	-41.3	-55.4	3.8	1.49e+00	0	56	104	0	54	17988
2026-01-19 00:21:01.80	12.10	5.29	-41.2	-55.2	3.8	1.49e+00	0	56	104	0	54	17516
2026-01-19 00:21:02.81	12.07	5.37	-41.2	-55.0	3.8	1.49e+00	0	56	104	0	54	17096
2026-01-19 00:21:03.82	12.04	5.44	-41.2	-54.6	3.8	1.49e+00	0	56	104	0	54	16469
2026-01-19 00:21:04.83	12.00	5.51	-41.2	-54.4	3.8	1.49e+00	0	56	104	0	54	16122
2026-01-19 00:21:05.84	11.97	5.58	-41.2	-54.1	3.8	1.49e+00	0	56	104	0	54	15541
2026-01-19 00:21:06.85	11.94	5.65	-41.2	-53.8	3.8	1.48e+00	0	56	104	0	54	14976
2026-01-19 00:21:07.86	11.90	5.72	-41.1	-53.4	3.8	1.48e+00	0	57	104	0	54	14363
2026-01-19 00:21:08.87	11.87	5.80	-41.1	-53.4	3.9	1.47e+00	0	57	104	0	54	14241
2026-01-19 00:21:09.88	11.84	5.87	-41.1	-53.2	4.0	1.48e+00	0	57	104	0	54	13973
2026-01-19 00:21:10.89	11.80	5.94	-41.1	-53.2	4.0	1.47e+00	0	57	104	0	54	13944
2026-01-19 00:21:11.90	11.77	6.01	-41.1	-53.4	3.8	1.48e+00	0	57	104	0	54	14334
2026-01-19 00:21:12.91	11.73	6.09	-41.1	-53.6	3.8	1.48e+00	0	57	104	0	54	14557
2026-01-19 00:21:13.92	11.70	6.16	-41.2	-53.7	3.8	1.49e+00	0	57	104	0	54	14853
2026-01-19 00:21:14.93	11.67	6.23	-41.2	-54.1	3.9	1.49e+00	0	57	104	0	54	15443
2026-01-19 00:21:15.94	11.63	6.31	-41.2	-54.7	3.8	1.49e+00	0	57	104	0	54	16540
2026-01-19 00:21:16.95	11.60	6.38	-41.2	-55.1	3.8	1.49e+00	0	57	104	0	54	17319
2026-01-19 00:21:17.96	11.56	6.45	-41.3	-55.4	3.8	1.49e+00	0	57	104	0	54	18043
2026-01-19 00:21:18.97	11.53	6.53	-41.3	-55.6	3.8	1.49e+00	0	57	104	0	54	18468
2026-01-19 00:21:19.98	11.49	6.60	-41.3	-55.7	3.8	1.49e+00	0	57	104	0	54	18635
2026-01-19 00:21:20.99	11.45	6.68	-41.3	-55.6	3.8	1.49e+00	0	57	104	0	54	18306
2026-01-19 00:21:22.00	11.42	6.75	-41.2	-55.2	3.8	1.49e+00	0	57	104	0	54	17507
2026-01-19 00:21:23.01	11.38	6.83	-41.2	-54.7	3.8	1.49e+00	0	57	104	0	54	16666
2026-01-19 00:21:24.02	11.35	6.90	-41.2	-54.3	3.8	1.49e+00	0	57	104	0	54	15920
2026-01-19 00:21:25.03	11.31	6.98	-41.2	-53.9	3.8	1.49e+00	0	57	104	0	54	15158
2026-01-19 00:21:26.05	11.27	7.05	-41.1	-53.1	4.0	1.49e+00	0	57	104	0	54	13734
2026-01-19 00:21:27.06	11.23	7.13	-41.1	-52.7	4.1	1.44e+00	0	57	0	0	54	13159
2026-01-19 00:21:28.07	11.20	7.21	-41.0	-52.3	4.2	1.41e+00	0	57	0	0	54	12590
2026-01-19 00:21:29.08	11.16	7.28	-41.0	-52.3	4.2	1.38e+00	0	58	0	0	54	12535
2026-01-19 00:21:30.09	11.12	7.36	-41.0	-52.2	4.2	1.38e+00	0	57	0	0	54	12466
2026-01-19 00:21:31.10	11.08	7.43	-41.0	-52.0	4.3	1.36e+00	0	58	0	0	54	12144
2026-01-19 00:21:32.11	11.05	7.51	-41.0	-51.8	4.3	1.32e+00	29	58	0	0	54	11930
2026-01-19 00:21:33.12	11.01	7.59	-41.0	-51.9	4.4	1.31e+00	66	58	0	2097152	54	11984
2026-01-19 00:21:34.13	10.97	7.67	-41.0	-52.2	4.2	1.34e+00	0	58	0	2097152	54	12476
2026-01-19 00:21:35.14	10.93	7.74	-41.1	-52.6	4.1	1.41e+00	0	58	0	2097152	54	13050
2026-01-19 00:21:36.15	10.89	7.82	-41.1	-52.9	4.0	1.44e+00	0	58	0	2097152	54	13538
2026-01-19 00:21:37.16	10.85	7.90	-41.1	-53.2	4.0	1.47e+00	0	58	104	2097152	54	13936
2026-01-19 00:21:38.17	10.81	7.98	-41.1	-53.4	3.8	1.48e+00	0	58	104	2097152	54	14371
2026-01-19 00:21:39.18	10.77	8.06	-41.2	-53.9	3.8	1.48e+00	0	58	104	2097152	54	15091
2026-01-19 00:21:40.19	10.73	8.13	-40.8	-54.8	3.8	1.49e+00	0	58	104	2097152	53	17850
2026-01-19 00:21:41.20	10.69	8.21	-41.8	-53.7	4.0	1.48e+00	0	58	104	2097152	54	14786
2026-01-19 00:21:42.21	10.65	8.29	-40.7	-55.2	3.8	1.49e+00	0	58	104	2097152	53	18621
2026-01-19 00:21:43.22	10.61	8.37	-41.3	-55.7	3.8	1.49e+00	0	58	104	2097152	53	19749
2026-01-19 00:21:44.23	10.57	8.45	-41.7	-56.1	3.8	1.49e+00	0	58	104	2097152	54	19395
2026-01-19 00:21:45.24	10.53	8.53	-41.4	-54.6	3.8	1.49e+00	0	58	104	2097152	54	16358
2026-01-19 00:21:46.25	10.49	8.61	-41.3	-54.7	3.8	1.49e+00	0	58	104	2097152	54	16586
2026-01-19 00:21:47.26	10.45	8.69	-41.3	-54.8	3.8	1.49e+00	0	58	104	2097152	54	16732
2026-01-19 00:21:48.27	10.40	8.77	-41.2	-54.6	3.8	1.49e+00	0	58	104	2097152	54	16347
2026-01-19 00:21:49.28	10.36	8.85	-41.5	-54.3	3.8	1.49e+00	0	58	104	2097152	54	15784
2026-01-19 00:21:50.29	10.32	8.93	-40.7	-55.2	3.8	1.49e+00	0	58	104	2097152	53	18632
2026-01-19 00:21:51.30	10.28	9.02	-41.2	-55.3	3.8	1.49e+00	0	58	104	2097152	53	18806
2026-01-19 00:21:52.31	10.23	9.10	-41.4	-55.6	3.8	1.49e+00	0	58	104	2097152	53	19596
2026-01-19 00:21:53.32	10.19	9.18	-41.2	-55.2	3.8	1.49e+00	0	59	104	2097152	53	18645
2026-01-19 00:21:54.33	10.15	9.26	-41.2	-55.5	3.8	1.49e+00	0	59	104	2097152	53	19238
2026-01-19 00:21:55.34	10.10	9.34	-41.1	-55.6	3.8	1.49e+00	0	58	104	2097152	53	19586
2026-01-19 00:21:56.35	10.06	9.43	-41.1	-55.6	3.8	1.49e+00	0	59	104	2097152	53	19463
2026-01-19 00:21:57.36	10.02	9.51	-41.2	-55.7	3.8	1.49e+00	0	58	104	2097152	53	19673
2026-01-19 00:21:58.37	9.97	9.59	-40.7	-55.3	3.8	1.49e+00	0	59	104	2097152	53	18848
2026-01-19 00:21:59.38	9.93	9.68	-41.0	-55.6	3.8	1.49e+00	0	58	104	2097152	53	19451
2026-01-19 00:22:00.38	9.88	9.76	-41.1	-55.7	3.8	1.49e+00	0	58	104	2097152	53	19688
2026-01-19 00:22:01.39	9.84	9.84	-41.1	-55.6	3.8	1.49e+00	0	59	104	2097152	53	19402
2026-01-19 00:22:02.40	9.79	9.93	-40.7	-55.4	3.8	1.49e+00	0	59	104	2097152	53	19101
2026-01-19 00:22:03.41	9.74	10.01	-41.0	-55.6	3.8	1.49e+00	0	59	104	2097152	53	19530
2026-01-19 00:22:04.42	9.70	10.09	-41.1	-55.7	3.8	1.49e+00	0	59	104	2097152	53	19837
2026-01-19 00:22:05.43	9.65	10.18	-41.1	-55.4	3.8	1.49e+00	0	59	104	2097152	53	19101
2026-01-19 00:22:06.44	9.60	10.26	-40.6	-55.1	3.8	1.49e+00	0	59	104	2097152	53	18307
2026-01-19 00:22:07.45	9.56	10.35	-40.6	-55.2	3.8	1.49e+00	0	59	104	2097152	53	18652
2026-01-19 00:22:08.46	9.51	10.44	-40.6	-55.1	3.8	1.49e+00	0	59	104	2097152	53	18414
2026-01-19 00:22:09.47	9.46	10.52	-40.6	-55.3	3.8	1.49e+00	0	59	104	2097152	53	18882
2026-01-19 00:22:10.48	9.41	10.61	-40.6	-55.3	3.8	1.49e+00	0	59	104	2097152	53	18922
2026-01-19 00:22:11.49	9.37	10.70	-40.7	-55.4	3.8	1.49e+00	0	59	104	2097152	53	18963
2026-01-19 00:22:12.50	9.32	10.78	-40.7	-55.3	3.8	1.49e+00	0	59	104	2097152	53	18854
2026-01-19 00:22:13.51	9.27	10.87	-41.0	-55.1	3.8	1.49e+00	0	59	104	2097152	53	18451
2026-01-19 00:22:14.52	9.22	10.96	-42.1	-54.2	3.8	1.49e+00	0	59	104	2097152	54	15633
2026-01-19 00:22:15.53	9.17	11.04	-41.7	-54.0	4.0	1.42e+00	0	59	0	2097152	55	14432
2026-01-19 00:22:16.54	9.12	11.13	-41.5	-55.1	3.8	1.49e+00	0	59	104	2097152	54	17447
2026-01-19 00:22:17.55	9.07	11.22	-41.9	-51.9	4.7	9.58e-01	0	59	0	2097152	54	12092
2026-01-19 00:22:18.56	9.02	11.31	-41.8	-51.6	4.9	8.18e-01	0	59	0	4194304	54	11578
2026-01-19 00:22:19.57	8.97	11.40	-41.7	-50.7	5.3	6.55e-01	0	59	0	6291456	54	10479
2026-01-19 00:22:20.58	8.92	11.49	-41.6	-49.9	5.8	4.86e-01	0	59	0	7340032	54	9598
2026-01-19 00:22:21.59	8.86	11.58	-41.4	-49.1	6.5	2.78e-01	0	59	0	9437184	54	8725
2026-01-19 00:22:22.60	8.81	11.67	-41.9	-49.5	6.6	1.74e-01	0	59	0	11534336	54	9171
2026-01-19 00:22:23.61	8.76	11.76	-42.1	-50.6	5.6	9.14e-01	0	59	0	13631488	55	9792
2026-01-19 00:22:24.62	8.71	11.85	-41.2	-49.3	6.6	7.61e-02	0	59	0	15728640	53	9458
2026-01-19 00:22:25.62	8.65	11.94	-42.0	-51.5	5.0	1.49e+00	0	59	104	15728640	54	11479
2026-01-19 00:22:26.63	8.60	12.03	-40.7	-46.6	8.9	8.43e-01	0	59	0	16777216	53	6931
2026-01-19 00:22:27.64	8.55	12.12	-40.7	-46.9	8.3	2.88e-01	0	59	0	18874368	53	7142
2026-01-19 00:22:28.65	8.49	12.21	-40.6	-46.3	9.2	1.83e-02	0	59	0	20971520	53	6661
2026-01-19 00:22:29.66	8.44	12.30	-40.7	-46.4	9.1	1.94e-02	0	60	0	22020096	53	6730
2026-01-19 00:22:30.67	8.38	12.40	-40.7	-46.1	9.6	1.40e-02	0	59	0	24117248	53	6517
2026-01-19 00:22:31.68	8.33	12.49	-40.8	-46.1	9.6	1.33e-02	0	59	0	26214400	53	6512
2026-01-19 00:22:32.69	8.27	12.58	-41.0	-46.4	9.5	1.63e-02	0	59	0	28311552	53	6733
2026-01-19 00:22:33.70	8.22	12.67	-41.1	-46.5	9.4	1.77e-02	0	59	0	30408704	53	6851
2026-01-19 00:22:34.71	8.16	12.77	-41.1	-46.7	9.2	1.84e-02	0	59	0	31457280	53	6980
2026-01-19 00:22:35.71	8.11	12.86	-41.1	-46.5	9.5	1.49e-02	0	59	0	33554432	53	6831
2026-01-19 00:22:36.72	8.05	12.96	-41.2	-46.4	9.7	1.39e-02	0	60	0	35651584	53	6801
2026-01-19 00:22:37.74	7.99	13.05	-41.2	-46.3	9.8	1.28e-02	0	59	0	37748736	53	6719
2026-01-19 00:22:38.74	7.93	13.15	-41.1	-45.9	10.4	7.75e-03	0	59	0	39845888	53	6402
2026-01-19 00:22:39.75	7.87	13.24	-41.0	-45.4	11.0	3.18e-03	0	60	0	41943040	53	6049
2026-01-19 00:22:40.76	7.82	13.34	-40.9	-45.2	11.4	9.47e-04	0	60	0	42991616	53	5856
2026-01-19 00:22:41.77	7.76	13.43	-41.0	-45.2	11.4	1.02e-03	0	59	0	45088768	53	5920
2026-01-19 00:22:42.78	7.70	13.53	-41.2	-45.6	11.1	1.52e-03	0	60	0	47185920	53	6200
2026-01-19 00:22:43.79	7.64	13.63	-41.3	-45.9	10.9	2.26e-03	0	60	0	49283072	53	6355
2026-01-19 00:22:44.80	7.58	13.72	-41.3	-45.8	11.0	2.12e-03	0	60	0	51380224	53	6295
2026-01-19 00:22:45.81	7.52	13.82	-41.2	-45.4	11.5	1.38e-03	0	60	0	52428800	53	6032
2026-01-19 00:22:46.82	7.46	13.92	-41.2	-45.3	11.6	6.74e-04	0	60	0	54525952	53	5987
2026-01-19 00:22:47.83	7.39	14.02	-41.3	-45.6	11.4	8.46e-04	0	59	0	56623104	53	6146
2026-01-19 00:22:48.84	7.33	14.11	-41.4	-45.7	11.3	1.06e-03	0	60	0	58720256	53	6262
2026-01-19 00:22:49.85	7.27	14.21	-41.3	-45.5	11.5	8.56e-04	0	60	0	60817408	53	6106
2026-01-19 00:22:50.86	7.21	14.31	-41.3	-45.4	11.7	5.63e-04	0	60	0	61865984	53	5999
2026-01-19 00:22:51.87	7.14	14.41	-41.3	-45.5	11.7	5.02e-04	0	60	0	63963136	53	6066
2026-01-19 00:22:52.87	7.08	14.51	-41.4	-45.6	11.5	7.73e-04	0	60	0	66060288	53	6162
2026-01-19 00:22:53.88	7.02	14.61	-41.3	-45.5	11.6	7.26e-04	0	60	0	68157440	53	6070
2026-01-19 00:22:54.89	6.95	14.71	-41.3	-45.3	11.8	5.09e-04	0	60	0	70254592	53	5963
2026-01-19 00:22:55.90	6.89	14.81	-41.3	-45.4	11.8	4.04e-04	0	60	0	71303168	53	6009
2026-01-19 00:22:56.91	6.82	14.91	-41.4	-45.5	11.6	5.36e-04	0	60	0	73400320	53	6113
2026-01-19 00:22:57.92	6.75	15.02	-41.3	-45.4	11.8	5.07e-04	0	60	0	75497472	53	6007
2026-01-19 00:22:58.93	6.69	15.12	-41.4	-45.5	11.8	4.29e-04	0	60	0	77594624	53	6075
2026-01-19 00:22:59.94	6.62	15.22	-41.4	-45.5	11.8	5.84e-04	0	60	0	79691776	53	6079
2026-01-19 00:23:00.95	6.55	15.32	-41.3	-45.3	11.9	4.65e-04	0	60	0	80740352	53	5986
2026-01-19 00:23:01.96	6.48	15.43	-41.4	-45.4	11.9	4.29e-04	0	60	0	82837504	53	6053
2026-01-19 00:23:02.97	6.42	15.53	-41.4	-45.5	11.8	4.72e-04	0	60	0	84934656	53	6092
2026-01-19 00:23:03.98	6.35	15.64	-41.5	-45.5	11.8	4.94e-04	0	60	0	87031808	53	6121
2026-01-19 00:23:04.99	6.28	15.74	-41.4	-45.4	11.9	4.26e-04	0	60	0	89128960	53	6050
2026-01-19 00:23:06.00	6.21	15.85	-41.4	-45.3	12.0	3.13e-04	0	60	0	90177536	53	5952
2026-01-19 00:23:07.01	6.14	15.95	-41.4	-45.4	11.9	3.39e-04	0	60	0	92274688	53	6053
2026-01-19 00:23:08.02	6.07	16.06	-41.5	-45.4	12.0	3.46e-04	0	60	0	94371840	53	6045
2026-01-19 00:23:09.03	5.99	16.16	-41.5	-45.6	11.9	3.69e-04	0	60	0	96468992	53	6155
2026-01-19 00:23:10.03	5.92	16.27	-41.4	-45.4	12.1	2.66e-04	0	60	0	98566144	53	6015
2026-01-19 00:23:11.04	5.85	16.38	-41.5	-45.5	12.0	3.69e-04	0	60	0	99614720	53	6087
2026-01-19 00:23:12.05	5.78	16.48	-41.5	-45.4	12.1	2.84e-04	0	60	0	101711872	53	6033
2026-01-19 00:23:13.07	5.70	16.59	-41.5	-45.6	11.9	3.75e-04	0	60	0	103809024	53	6135
2026-01-19 00:23:14.07	5.63	16.70	-41.5	-45.6	11.9	3.17e-04	0	60	0	105906176	53	6136
2026-01-19 00:23:15.09	5.55	16.81	-41.5	-45.5	12.0	3.23e-04	0	60	0	108003328	53	6105
2026-01-19 00:23:16.10	5.48	16.92	-41.5	-45.5	12.0	3.26e-04	0	60	0	110100480	53	6100
2026-01-19 00:23:17.11	5.40	17.03	-41.5	-45.5	12.0	2.90e-04	0	60	0	111149056	53	6129
2026-01-19 00:23:18.11	5.32	17.14	-41.6	-45.6	12.0	3.26e-04	0	60	0	113246208	53	6164
2026-01-19 00:23:19.12	5.25	17.25	-41.6	-45.5	12.1	3.63e-04	0	60	0	115343360	53	6114
2026-01-19 00:23:20.13	5.17	17.36	-41.6	-45.6	12.0	2.85e-04	0	60	0	117440512	53	6163
2026-01-19 00:23:21.14	5.09	17.47	-41.6	-45.5	12.1	3.80e-04	0	60	0	119537664	53	6128
2026-01-19 00:23:22.15	5.01	17.58	-41.6	-45.6	12.0	3.54e-04	0	60	0	120586240	53	6173
2026-01-19 00:23:23.16	4.93	17.69	-41.7	-45.7	12.0	2.93e-04	0	60	0	122683392	53	6228
2026-01-19 00:23:24.17	4.85	17.81	-41.7	-45.6	12.0	3.37e-04	0	60	0	124780544	53	6197
2026-01-19 00:23:25.18	4.77	17.92	-41.6	-45.6	12.1	3.38e-04	0	60	0	126877696	53	6177
2026-01-19 00:23:26.19	4.69	18.03	-41.7	-45.6	12.1	3.34e-04	0	60	0	128974848	54	5835
2026-01-19 00:23:27.20	4.61	18.15	-41.7	-45.6	12.1	2.62e-04	0	60	0	130023424	54	5846
2026-01-19 00:23:28.21	4.52	18.26	-41.7	-45.6	12.1	2.90e-04	0	60	0	132120576	54	5817
2026-01-19 00:23:29.23	4.44	18.38	-41.7	-45.6	12.2	2.39e-04	0	60	0	134217728	54	5797
2026-01-19 00:23:30.24	4.36	18.49	-41.7	-45.6	12.2	2.08e-04	0	60	0	136314880	54	5804
2026-01-19 00:23:31.25	4.27	18.61	-41.7	-45.5	12.2	1.98e-04	0	60	0	138412032	54	5782
2026-01-19 00:23:32.26	4.19	18.73	-41.7	-45.5	12.2	1.98e-04	0	60	0	139460608	54	5768
2026-01-19 00:23:33.27	4.10	18.84	-41.8	-45.7	12.1	2.34e-04	0	60	0	141557760	54	5901
2026-01-19 00:23:34.28	4.01	18.96	-41.7	-45.7	12.1	2.55e-04	0	60	0	143654912	54	5862
2026-01-19 00:23:35.29	3.92	19.08	-41.8	-45.8	11.9	3.07e-04	0	60	0	145752064	54	5977
2026-01-19 00:23:36.29	3.84	19.20	-41.7	-45.6	12.2	2.66e-04	0	60	0	147849216	54	5840
2026-01-19 00:23:37.30	3.75	19.32	-41.7	-45.6	12.2	2.43e-04	0	60	0	148897792	54	5843
2026-01-19 00:23:38.31	3.66	19.44	-41.8	-45.7	12.1	2.67e-04	0	60	0	150994944	54	5893
2026-01-19 00:23:39.32	3.57	19.56	-41.8	-45.8	12.0	3.14e-04	0	60	0	153092096	54	5926
2026-01-19 00:23:40.33	3.48	19.68	-41.9	-45.8	12.0	3.46e-04	0	60	0	155189248	54	5980
2026-01-19 00:23:41.34	3.38	19.80	-41.9	-45.9	11.9	3.17e-04	0	60	0	157286400	54	6019
2026-01-19 00:23:42.35	3.29	19.92	-41.9	-45.9	11.9	4.09e-04	0	60	0	158334976	54	6032
2026-01-19 00:23:43.36	3.20	20.04	-41.9	-45.9	11.9	3.01e-04	0	60	0	160432128	54	6011
2026-01-19 00:23:44.37	3.10	20.16	-41.9	-45.9	12.0	3.78e-04	0	60	0	162529280	54	6038
2026-01-19 00:23:45.38	3.01	20.29	-41.9	-46.0	11.9	4.10e-04	0	60	0	164626432	54	6089
2026-01-19 00:23:46.39	2.91	20.41	-41.9	-46.0	11.9	3.97e-04	0	60	0	166723584	54	6099
2026-01-19 00:23:47.40	2.81	20.53	-41.9	-46.0	11.9	3.58e-04	0	60	0	167772160	54	6071
2026-01-19 00:23:48.41	2.72	20.66	-42.0	-46.0	11.9	4.01e-04	0	60	0	169869312	54	6090
2026-01-19 00:23:49.42	2.62	20.78	-42.0	-46.0	11.8	4.94e-04	0	61	0	171966464	54	6130
2026-01-19 00:23:50.43	2.52	20.91	-42.0	-46.1	11.8	4.90e-04	0	61	0	174063616	54	6193
2026-01-19 00:23:51.43	2.42	21.04	-42.1	-46.2	11.7	6.08e-04	0	60	0	176160768	54	6241
2026-01-19 00:23:52.44	2.32	21.16	-42.1	-46.3	11.5	6.32e-04	0	61	0	178257920	54	6333
2026-01-19 00:23:53.45	2.22	21.29	-42.1	-46.3	11.5	7.42e-04	0	60	0	179306496	54	6339
2026-01-19 00:23:54.46	2.12	21.42	-42.2	-46.5	11.4	8.06e-04	0	60	0	181403648	54	6463
2026-01-19 00:23:55.47	2.01	21.55	-42.2	-46.6	11.3	1.14e-03	0	61	0	183500800	55	6163
2026-01-19 00:23:56.48	1.91	21.68	-42.2	-46.6	11.3	9.69e-04	0	60	0	185597952	55	6157
2026-01-19 00:23:57.49	1.80	21.80	-42.3	-46.7	11.2	1.18e-03	0	60	0	187695104	55	6232
2026-01-19 00:23:58.50	1.70	21.93	-42.3	-46.7	11.2	1.23e-03	0	61	0	188743680	55	6224
2026-01-19 00:23:59.51	1.59	22.07	-42.3	-46.8	11.1	1.62e-03	0	60	0	190840832	55	6287
2026-01-19 00:24:00.52	1.48	22.20	-42.4	-47.0	10.9	1.83e-03	0	61	0	192937984	55	6441
2026-01-19 00:24:01.53	1.37	22.33	-42.4	-47.0	11.0	2.13e-03	0	61	0	195035136	55	6437
2026-01-19 00:24:02.54	1.26	22.46	-42.4	-46.9	11.0	1.84e-03	0	61	0	197132288	55	6356
2026-01-19 00:24:03.55	1.15	22.59	-42.4	-46.9	11.0	1.93e-03	0	61	0	198180864	55	6377
2026-01-19 00:24:04.56	1.04	22.73	-42.4	-47.0	10.9	2.09e-03	0	61	0	200278016	55	6462
2026-01-19 00:24:05.57	0.93	22.86	-42.5	-47.0	10.9	2.50e-03	0	61	0	202375168	55	6486
2026-01-19 00:24:06.58	0.81	23.00	-42.5	-47.2	10.7	2.70e-03	0	61	0	204472320	55	6616
2026-01-19 00:24:07.59	0.70	23.13	-42.5	-47.2	10.7	2.65e-03	0	61	0	206569472	55	6591
2026-01-19 00:24:08.60	0.58	23.27	-42.6	-47.3	10.6	3.17e-03	0	60	0	207618048	55	6654
2026-01-19 00:24:09.60	0.46	23.40	-42.6	-47.2	10.7	2.83e-03	0	61	0	209715200	55	6619
2026-01-19 00:24:10.61	0.35	23.54	-42.6	-47.4	10.5	3.31e-03	0	61	0	211812352	55	6737
2026-01-19 00:24:11.62	0.23	23.68	-42.6	-47.4	10.6	3.80e-03	0	61	0	213909504	55	6732
2026-01-19 00:24:12.63	0.11	23.82	-42.6	-47.4	10.5	4.27e-03	0	61	0	216006656	55	6757
2026-01-19 00:24:13.64	359.99	23.95	-42.7	-47.5	10.4	4.32e-03	0	61	0	217055232	55	6824
2026-01-19 00:24:14.65	359.86	24.09	-42.6	-47.4	10.5	4.68e-03	0	61	0	219152384	55	6750
2026-01-19 00:24:15.66	359.74	24.23	-42.6	-47.3	10.6	3.66e-03	0	61	0	221249536	55	6679
2026-01-19 00:24:16.66	359.62	24.37	-42.6	-47.3	10.6	3.41e-03	0	61	0	223346688	55	6676
2026-01-19 00:24:17.67	359.49	24.51	-42.6	-47.3	10.5	3.58e-03	0	60	0	225443840	55	6717
2026-01-19 00:24:18.68	359.36	24.66	-42.6	-47.3	10.6	3.48e-03	0	60	0	226492416	55	6700
2026-01-19 00:24:19.69	359.23	24.80	-42.6	-47.3	10.6	3.84e-03	0	61	0	228589568	55	6710
2026-01-19 00:24:20.70	359.10	24.94	-42.7	-47.5	10.4	3.68e-03	0	61	0	230686720	55	6855
2026-01-19 00:24:21.71	358.97	25.08	-42.7	-47.6	10.4	4.24e-03	0	61	0	232783872	55	6885
2026-01-19 00:24:22.72	358.84	25.23	-42.9	-47.8	10.3	4.80e-03	0	61	0	234881024	56	6683
2026-01-19 00:24:23.73	358.71	25.37	-42.9	-47.9	10.2	5.42e-03	0	61	0	235929600	56	6749
2026-01-19 00:24:24.74	358.57	25.52	-43.0	-48.0	10.1	6.53e-03	0	61	0	238026752	56	6822
2026-01-19 00:24:25.75	358.44	25.67	-43.0	-48.1	10.0	7.42e-03	0	61	0	240123904	56	6933
2026-01-19 00:24:26.76	358.30	25.81	-43.1	-48.2	9.9	8.30e-03	0	61	0	242221056	56	7016
2026-01-19 00:24:27.77	358.16	25.96	-43.1	-48.3	9.8	9.89e-03	0	61	0	244318208	56	7110
2026-01-19 00:24:28.78	358.02	26.11	-43.1	-48.4	9.7	1.08e-02	0	61	0	245366784	56	7146
2026-01-19 00:24:29.79	357.88	26.26	-43.2	-48.4	9.7	8.68e-03	0	61	0	247463936	56	7170
2026-01-19 00:24:30.80	357.74	26.41	-43.1	-48.3	9.8	1.01e-02	0	61	0	249561088	56	7087
2026-01-19 00:24:31.81	357.60	26.56	-43.1	-48.3	9.8	9.85e-03	0	61	0	251658240	56	7076
2026-01-19 00:24:32.82	357.45	26.71	-43.2	-48.3	9.7	1.15e-02	0	61	0	253755392	56	7120
2026-01-19 00:24:33.83	357.31	26.86	-43.2	-48.5	9.6	1.21e-02	0	61	0	254803968	57	6873
2026-01-19 00:24:34.84	357.16	27.01	-43.2	-48.5	9.6	1.17e-02	0	61	0	256901120	57	6804
2026-01-19 00:24:35.85	357.01	27.16	-43.2	-48.4	9.7	1.28e-02	0	61	0	258998272	57	6780
2026-01-19 00:24:36.86	356.86	27.31	-43.2	-48.3	9.8	1.19e-02	0	61	0	261095424	57	6712
2026-01-19 00:24:37.87	356.70	27.47	-43.2	-48.5	9.7	1.10e-02	0	61	0	263192576	57	6842
2026-01-19 00:24:38.88	356.55	27.62	-43.2	-48.3	9.8	1.10e-02	0	61	0	264241152	57	6713
2026-01-19 00:24:39.89	356.40	27.78	-43.2	-48.3	9.9	8.23e-03	0	61	0	266338304	57	6652
2026-01-19 00:24:40.90	356.24	27.93	-43.1	-48.2	10.0	7.68e-03	0	61	0	268435456	57	6573
2026-01-19 00:24:41.91	356.08	28.09	-43.1	-48.1	10.1	7.57e-03	0	61	0	270532608	57	6504
2026-01-19 00:24:42.92	355.92	28.25	-43.1	-48.1	10.1	6.09e-03	0	61	0	272629760	57	6507
2026-01-19 00:24:43.93	355.76	28.40	-43.1	-47.9	10.3	5.55e-03	0	61	0	274726912	57	6413
2026-01-19 00:24:44.94	355.59	28.56	-43.1	-48.0	10.2	5.95e-03	0	61	0	275775488	57	6482
2026-01-19 00:24:45.95	355.43	28.72	-43.1	-48.0	10.2	5.41e-03	0	61	0	277872640	57	6443
2026-01-19 00:24:46.96	355.26	28.88	-43.0	-47.7	10.5	4.29e-03	0	61	0	279969792	57	6257
2026-01-19 00:24:47.96	355.10	29.04	-43.0	-47.7	10.5	4.18e-03	0	61	0	282066944	57	6259
2026-01-19 00:24:48.97	354.93	29.20	-43.0	-47.8	10.5	3.85e-03	0	61	0	284164096	57	6307
2026-01-19 00:24:49.98	354.75	29.36	-43.0	-47.6	10.6	3.29e-03	0	61	0	285212672	57	6197
2026-01-19 00:24:50.99	354.58	29.52	-43.0	-47.7	10.6	3.44e-03	0	61	0	287309824	57	6251
2026-01-19 00:24:52.00	354.41	29.69	-43.0	-47.8	10.5	3.96e-03	0	61	0	289406976	57	6287
2026-01-19 00:24:53.01	354.23	29.85	-43.0	-47.8	10.4	4.24e-03	0	61	0	291504128	57	6326
2026-01-19 00:24:54.02	354.05	30.01	-43.1	-48.0	10.3	5.15e-03	0	61	0	293601280	57	6441
2026-01-19 00:24:55.03	353.87	30.18	-43.1	-48.1	10.3	5.35e-03	0	61	0	294649856	57	6515
2026-01-19 00:24:56.04	353.68	30.34	-43.2	-48.1	10.2	6.74e-03	0	61	0	296747008	57	6552
2026-01-19 00:24:57.05	353.50	30.51	-43.2	-48.2	10.1	5.68e-03	0	61	0	298844160	57	6586
2026-01-19 00:24:58.06	353.31	30.68	-43.2	-48.3	10.0	6.97e-03	0	61	0	300941312	57	6655
2026-01-19 00:24:59.07	353.12	30.84	-43.2	-48.3	10.1	7.76e-03	0	61	0	303038464	57	6650
2026-01-19 00:25:00.08	352.93	31.01	-43.3	-48.4	9.9	8.92e-03	0	61	0	304087040	57	6767
2026-01-19 00:25:01.09	352.74	31.18	-43.3	-48.4	9.8	9.02e-03	0	61	0	306184192	57	6791
2026-01-19 00:25:02.10	352.55	31.35	-43.3	-48.4	9.9	8.32e-03	0	61	0	308281344	57	6733
2026-01-19 00:25:03.11	352.35	31.52	-43.3	-48.5	9.8	1.01e-02	0	61	0	310378496	57	6844
2026-01-19 00:25:04.12	352.15	31.69	-43.3	-48.6	9.7	1.15e-02	0	61	0	312475648	57	6890
2026-01-19 00:25:05.13	351.95	31.86	-43.4	-48.7	9.6	1.10e-02	0	61	0	313524224	57	6967
2026-01-19 00:25:06.13	351.75	32.03	-43.4	-48.7	9.5	1.29e-02	0	61	0	315621376	57	7034
2026-01-19 00:25:07.14	351.54	32.20	-43.5	-48.9	9.4	1.66e-02	0	61	0	317718528	57	7135
2026-01-19 00:25:08.15	351.34	32.37	-43.5	-48.9	9.3	1.74e-02	0	61	0	319815680	57	7194
2026-01-19 00:25:09.16	351.13	32.54	-43.5	-48.9	9.3	1.76e-02	0	61	0	321912832	57	7188
2026-01-19 00:25:10.17	350.91	32.72	-43.5	-49.0	9.3	1.71e-02	0	61	0	322961408	57	7213
2026-01-19 00:25:11.18	350.70	32.89	-43.5	-48.9	9.3	1.63e-02	0	61	0	325058560	57	7173
2026-01-19 00:25:12.19	350.48	33.06	-43.5	-49.0	9.3	1.76e-02	0	61	0	327155712	57	7220
2026-01-19 00:25:13.20	350.26	33.24	-43.5	-49.0	9.3	1.74e-02	0	61	0	329252864	57	7249
2026-01-19 00:25:14.21	350.04	33.41	-43.6	-49.3	9.0	2.18e-02	0	61	0	331350016	57	7463
2026-01-19 00:25:15.22	349.82	33.59	-43.7	-49.5	8.7	2.82e-02	0	61	0	332398592	57	7640
2026-01-19 00:25:16.23	349.59	33.77	-43.6	-49.4	8.9	2.80e-02	0	61	0	334495744	57	7555
2026-01-19 00:25:17.24	349.36	33.94	-43.6	-49.2	9.1	2.53e-02	0	61	0	336592896	57	7414
2026-01-19 00:25:18.25	349.13	34.12	-43.6	-49.2	9.1	2.52e-02	0	61	0	338690048	57	7404
2026-01-19 00:25:19.26	348.90	34.30	-43.6	-49.2	9.1	2.23e-02	0	61	0	340787200	57	7389
2026-01-19 00:25:20.26	348.66	34.48	-43.6	-49.3	8.9	2.39e-02	0	61	0	342884352	57	7514
2026-01-19 00:25:21.27	348.42	34.66	-43.6	-49.2	9.0	2.60e-02	0	61	0	343932928	57	7436
2026-01-19 00:25:22.28	348.18	34.84	-43.5	-49.0	9.3	2.29e-02	0	61	0	346030080	57	7241
2026-01-19 00:25:23.29	347.94	35.02	-43.6	-49.1	9.2	1.92e-02	0	61	0	348127232	57	7324
2026-01-19 00:25:24.30	347.69	35.20	-43.4	-48.4	9.9	1.28e-02	0	61	0	350224384	57	6792
2026-01-19 00:25:25.31	347.44	35.38	-43.3	-48.4	10.0	7.50e-03	0	61	0	352321536	57	6733
2026-01-19 00:25:26.32	347.18	35.56	-43.4	-48.5	9.9	8.32e-03	0	61	0	353370112	57	6804
2026-01-19 00:25:27.33	346.93	35.74	-43.3	-48.3	10.1	7.07e-03	0	61	0	355467264	57	6673
2026-01-19 00:25:28.33	346.67	35.92	-43.3	-48.2	10.1	6.12e-03	0	61	0	357564416	57	6621
2026-01-19 00:25:29.34	346.41	36.10	-43.3	-48.3	10.0	7.79e-03	0	61	0	359661568	57	6714
2026-01-19 00:25:30.35	346.15	36.28	-43.3	-48.3	10.1	7.41e-03	0	61	0	361758720	57	6671
2026-01-19 00:25:31.36	345.88	36.47	-43.3	-48.2	10.2	6.97e-03	0	61	0	362807296	57	6593
2026-01-19 00:25:32.37	345.61	36.65	-43.3	-48.3	10.1	5.71e-03	0	61	0	364904448	57	6652
2026-01-19 00:25:33.38	345.33	36.83	-43.3	-48.2	10.2	6.58e-03	0	61	0	367001600	57	6593
2026-01-19 00:25:34.39	345.06	37.02	-43.3	-48.2	10.2	5.54e-03	0	61	0	369098752	57	6620
2026-01-19 00:25:35.40	344.78	37.20	-43.3	-48.2	10.2	6.13e-03	0	61	0	371195904	57	6598
2026-01-19 00:25:36.41	344.49	37.38	-43.2	-48.0	10.4	5.40e-03	0	61	0	372244480	57	6441
2026-01-19 00:25:37.42	344.21	37.57	-43.2	-48.0	10.4	4.93e-03	0	61	0	374341632	57	6437
2026-01-19 00:25:38.43	343.92	37.75	-43.2	-48.0	10.4	4.26e-03	0	61	0	376438784	57	6461
2026-01-19 00:25:39.44	343.62	37.94	-43.3	-48.3	10.1	4.76e-03	0	61	0	378535936	57	6649
2026-01-19 00:25:40.45	343.32	38.12	-43.4	-48.4	9.9	7.08e-03	0	61	0	380633088	57	6792
2026-01-19 00:25:41.46	343.02	38.31	-43.5	-48.7	9.7	9.07e-03	0	61	0	381681664	57	6969
2026-01-19 00:25:42.46	342.72	38.49	-43.5	-48.8	9.5	1.48e-02	0	61	0	383778816	57	7070
2026-01-19 00:25:43.47	342.42	38.68	-43.5	-48.7	9.7	1.22e-02	0	61	0	385875968	57	7024
2026-01-19 00:25:44.48	342.11	38.86	-43.5	-48.6	9.8	1.14e-02	0	61	0	387973120	57	6926
2026-01-19 00:25:45.49	341.79	39.05	-43.5	-48.8	9.6	1.33e-02	0	61	0	390070272	57	7103
2026-01-19 00:25:46.50	341.47	39.23	-43.6	-49.0	9.4	1.68e-02	0	61	0	391118848	57	7246
2026-01-19 00:25:47.51	341.15	39.42	-43.6	-48.9	9.5	1.47e-02	0	61	0	393216000	57	7131
2026-01-19 00:25:48.52	340.83	39.60	-43.5	-48.8	9.6	1.48e-02	0	61	0	395313152	57	7048
2026-01-19 00:25:49.53	340.50	39.79	-43.5	-48.7	9.6	1.43e-02	0	61	0	397410304	57	7014
2026-01-19 00:25:50.54	340.16	39.97	-43.5	-48.6	9.7	1.02e-02	0	61	0	399507456	57	6930
2026-01-19 00:25:51.55	339.83	40.16	-43.5	-48.5	9.8	1.04e-02	0	62	0	400556032	57	6873
2026-01-19 00:25:52.56	339.49	40.34	-43.4	-48.4	9.9	8.96e-03	0	61	0	402653184	57	6783
2026-01-19 00:25:53.57	339.14	40.53	-43.4	-48.4	10.0	9.57e-03	0	61	0	404750336	57	6739
2026-01-19 00:25:54.58	338.79	40.71	-43.4	-48.3	10.2	7.33e-03	0	61	0	406847488	57	6650
2026-01-19 00:25:55.59	338.44	40.90	-43.4	-48.3	10.0	7.83e-03	0	61	0	408944640	57	6708
2026-01-19 00:25:56.60	338.08	41.08	-43.5	-48.6	9.9	7.18e-03	0	61	0	411041792	57	6897
2026-01-19 00:25:57.61	337.72	41.26	-43.6	-48.9	9.4	1.09e-02	0	61	0	412090368	57	7188
2026-01-19 00:25:58.62	337.36	41.45	-43.9	-49.7	8.7	2.97e-02	0	61	0	414187520	58	7450
2026-01-19 00:25:59.63	336.99	41.63	-44.0	-50.0	8.4	4.69e-02	0	61	0	416284672	58	7672
2026-01-19 00:26:00.64	336.62	41.81	-43.9	-49.9	8.4	4.82e-02	0	61	0	418381824	58	7573
2026-01-19 00:26:01.65	336.24	41.99	-43.8	-49.5	8.9	3.12e-02	0	61	0	420478976	58	7208
2026-01-19 00:26:02.66	335.86	42.17	-43.8	-49.4	8.9	2.57e-02	0	61	0	421527552	58	7173
2026-01-19 00:26:03.67	335.47	42.35	-43.7	-49.2	9.1	1.94e-02	0	61	0	423624704	58	7038
2026-01-19 00:26:04.67	335.08	42.53	-43.7	-49.2	9.2	2.20e-02	0	61	0	425721856	58	6996
2026-01-19 00:26:05.68	334.69	42.71	-43.7	-49.1	9.3	2.25e-02	0	61	0	427819008	58	6926
2026-01-19 00:26:06.69	334.29	42.89	-43.6	-49.0	9.4	1.65e-02	0	61	0	429916160	58	6846
2026-01-19 00:26:07.70	333.88	43.07	-43.7	-49.2	9.3	1.60e-02	0	61	0	430964736	58	6963
2026-01-19 00:26:08.71	333.47	43.25	-43.8	-49.5	8.9	2.48e-02	0	61	0	433061888	58	7263
2026-01-19 00:26:09.72	333.06	43.42	-43.7	-49.3	9.0	2.68e-02	0	61	0	435159040	58	7118
2026-01-19 00:26:10.73	332.64	43.60	-43.6	-48.9	9.4	2.20e-02	0	61	0	437256192	58	6783
2026-01-19 00:26:11.74	332.22	43.77	-43.6	-48.8	9.7	1.37e-02	0	61	0	439353344	58	6648
2026-01-19 00:26:12.75	331.79	43.95	-43.4	-48.4	10.0	9.42e-03	0	61	0	440401920	58	6420
2026-01-19 00:26:13.76	331.36	44.12	-43.5	-48.6	9.9	7.24e-03	0	61	0	442499072	58	6498
2026-01-19 00:26:14.77	330.93	44.29	-43.6	-49.0	9.4	1.33e-02	0	61	0	444596224	58	6822
2026-01-19 00:26:15.78	330.48	44.46	-43.8	-49.4	9.0	2.11e-02	0	62	0	446693376	58	7134
2026-01-19 00:26:16.79	330.04	44.63	-43.7	-49.2	9.2	2.40e-02	0	61	0	448790528	58	6998
2026-01-19 00:26:17.80	329.59	44.80	-43.6	-48.9	9.6	1.47e-02	0	61	0	449839104	58	6737
2026-01-19 00:26:18.81	329.13	44.96	-43.3	-48.1	10.3	8.27e-03	0	61	0	451936256	58	6186
2026-01-19 00:26:19.82	328.67	45.13	-43.1	-47.6	10.8	3.51e-03	0	62	0	454033408	58	5852
2026-01-19 00:26:20.82	328.21	45.29	-43.1	-47.7	10.9	2.22e-03	0	61	0	456130560	58	5874
2026-01-19 00:26:21.83	327.74	45.45	-43.2	-47.8	10.6	3.25e-03	0	61	0	458227712	58	5983
2026-01-19 00:26:22.84	327.27	45.61	-43.3	-47.9	10.5	3.90e-03	0	61	0	459276288	58	6061
2026-01-19 00:26:23.85	326.79	45.77	-43.2	-47.8	10.6	3.92e-03	0	61	0	461373440	58	5989
2026-01-19 00:26:24.86	326.30	45.93	-43.3	-48.0	10.5	3.16e-03	0	61	0	463470592	58	6088
2026-01-19 00:26:25.87	325.81	46.09	-43.2	-47.8	10.7	3.42e-03	0	61	0	465567744	58	5949
2026-01-19 00:26:26.88	325.32	46.24	-43.2	-47.7	10.7	3.18e-03	0	61	0	467664896	58	5905
2026-01-19 00:26:27.89	324.82	46.39	-43.2	-47.8	10.7	3.16e-03	0	61	0	468713472	58	5946
2026-01-19 00:26:28.90	324.31	46.54	-43.1	-47.6	10.9	2.77e-03	0	61	0	470810624	58	5824
2026-01-19 00:26:29.91	323.80	46.69	-43.1	-47.6	10.9	1.88e-03	0	61	0	472907776	58	5809
2026-01-19 00:26:30.92	323.29	46.84	-43.0	-47.4	11.1	1.47e-03	0	61	0	475004928	57	6018
2026-01-19 00:26:31.93	322.77	46.98	-42.9	-47.2	11.3	1.29e-03	0	62	0	477102080	57	5857
2026-01-19 00:26:32.94	322.25	47.12	-42.9	-47.0	11.5	1.12e-03	0	61	0	479199232	57	5775
2026-01-19 00:26:33.95	321.72	47.26	-42.8	-47.0	11.5	9.14e-04	0	62	0	480247808	57	5757
2026-01-19 00:26:34.96	321.19	47.40	-42.9	-47.2	11.2	9.73e-04	0	62	0	482344960	57	5916
2026-01-19 00:26:35.97	320.65	47.54	-43.0	-47.4	11.0	1.50e-03	0	61	0	484442112	57	6036
2026-01-19 00:26:36.98	320.11	47.67	-43.2	-47.8	10.6	2.09e-03	0	62	0	486539264	57	6292
2026-01-19 00:26:37.99	319.56	47.80	-43.3	-48.1	10.2	4.63e-03	0	62	0	488636416	57	6552
2026-01-19 00:26:39.00	319.01	47.93	-43.3	-48.2	10.2	6.54e-03	0	61	0	489684992	57	6615
2026-01-19 00:26:40.00	318.46	48.06	-43.4	-48.4	10.0	7.20e-03	0	61	0	491782144	57	6792
2026-01-19 00:26:41.01	317.89	48.18	-43.5	-48.6	9.8	9.64e-03	0	62	0	493879296	57	6887
2026-01-19 00:26:42.02	317.33	48.30	-43.6	-48.9	9.5	1.41e-02	0	61	0	495976448	57	7171
2026-01-19 00:26:43.03	316.76	48.42	-43.7	-49.1	9.3	1.76e-02	0	62	0	497025024	57	7307
2026-01-19 00:26:44.04	316.19	48.53	-43.7	-49.2	9.2	2.03e-02	0	62	0	499122176	57	7428
2026-01-19 00:26:45.05	315.61	48.64	-43.9	-49.6	8.7	2.97e-02	0	61	0	501219328	58	7331
2026-01-19 00:26:46.06	315.02	48.75	-43.9	-49.7	8.6	3.45e-02	0	62	0	503316480	58	7441
2026-01-19 00:26:47.07	314.44	48.86	-44.0	-50.2	8.1	4.85e-02	0	61	0	505413632	58	7867
2026-01-19 00:26:48.08	313.85	48.96	-44.1	-50.5	7.8	6.78e-02	0	61	0	507510784	58	8099
2026-01-19 00:26:49.09	313.25	49.06	-44.1	-50.4	7.9	8.20e-02	0	61	0	508559360	58	8048
2026-01-19 00:26:50.10	312.65	49.16	-44.0	-50.1	8.2	7.80e-02	0	61	0	510656512	58	7765
2026-01-19 00:26:51.11	312.05	49.26	-43.9	-49.7	8.6	4.53e-02	0	62	0	512753664	58	7448
2026-01-19 00:26:52.12	311.44	49.35	-44.0	-50.0	8.3	4.89e-02	0	61	0	514850816	58	7714
2026-01-19 00:26:53.13	310.83	49.43	-44.0	-50.1	8.2	5.18e-02	0	61	0	516947968	58	7795
2026-01-19 00:26:54.14	310.22	49.52	-43.9	-49.8	8.6	4.50e-02	0	61	0	517996544	58	7486
2026-01-19 00:26:55.15	309.60	49.60	-43.7	-49.0	9.3	2.29e-02	0	62	0	520093696	58	6878
2026-01-19 00:26:56.16	308.99	49.68	-43.6	-48.9	9.5	1.51e-02	0	61	0	522190848	58	6726
2026-01-19 00:26:57.17	308.36	49.75	-43.6	-49.0	9.4	1.54e-02	0	62	0	524288000	58	6842
2026-01-19 00:26:58.18	307.74	49.82	-43.8	-49.4	8.9	2.40e-02	0	61	0	526385152	58	7202
2026-01-19 00:26:59.19	307.11	49.89	-43.7	-49.3	9.0	3.15e-02	0	61	0	527433728	58	7054
2026-01-19 00:27:00.20	306.48	49.95	-43.6	-48.8	9.6	1.72e-02	0	62	0	529530880	58	6654
2026-01-19 00:27:01.21	305.84	50.01	-43.4	-48.4	9.9	1.01e-02	0	61	0	531628032	58	6388
2026-01-19 00:27:02.22	305.21	50.07	-43.2	-47.9	10.5	7.08e-03	0	62	0	533725184	58	6028
2026-01-19 00:27:03.23	304.57	50.12	-43.2	-47.7	10.7	3.28e-03	0	61	0	535822336	58	5898
2026-01-19 00:27:04.23	303.93	50.17	-43.2	-47.8	10.6	2.90e-03	0	61	0	536870912	58	5962
2026-01-19 00:27:05.24	303.29	50.21	-43.0	-47.3	11.1	2.60e-03	0	61	0	538968064	58	5645
2026-01-19 00:27:06.25	302.64	50.25	-43.0	-47.4	11.0	2.07e-03	0	61	0	541065216	58	5706
2026-01-19 00:27:07.26	302.00	50.29	-42.9	-47.1	11.2	1.43e-03	0	62	0	543162368	57	5844
2026-01-19 00:27:08.27	301.35	50.32	-42.9	-47.1	11.3	9.99e-04	0	61	0	545259520	57	5818
2026-01-19 00:27:09.28	300.70	50.35	-42.8	-47.0	11.4	1.11e-03	0	62	0	546308096	57	5768
2026-01-19 00:27:10.29	300.05	50.38	-42.7	-46.8	11.7	5.15e-04	0	62	0	548405248	57	5601
2026-01-19 00:27:11.30	299.40	50.40	-42.6	-46.6	11.9	4.70e-04	0	61	0	550502400	57	5481
2026-01-19 00:27:12.31	298.75	50.42	-42.6	-46.5	12.0	3.70e-04	0	61	0	552599552	57	5415
2026-01-19 00:27:13.32	298.09	50.43	-42.6	-46.5	11.9	4.59e-04	0	62	0	554696704	57	5451
2026-01-19 00:27:14.33	297.44	50.44	-42.5	-46.3	12.2	3.00e-04	0	61	0	555745280	57	5314
2026-01-19 00:27:15.34	296.78	50.45	-42.5	-46.4	12.1	2.83e-04	0	61	0	557842432	56	5660
2026-01-19 00:27:16.35	296.13	50.45	-42.6	-46.5	12.0	4.12e-04	0	61	0	559939584	56	5777
2026-01-19 00:27:17.35	295.48	50.45	-42.5	-46.2	12.3	3.04e-04	0	61	0	562036736	56	5579
2026-01-19 00:27:18.36	294.83	50.44	-42.3	-46.0	12.4	1.43e-04	0	62	0	564133888	56	5424
2026-01-19 00:27:19.37	294.17	50.43	-42.2	-45.7	12.8	6.56e-05	0	62	0	565182464	56	5242
2026-01-19 00:27:20.38	293.52	50.42	-42.2	-45.7	12.8	5.18e-05	0	62	0	567279616	56	5254
2026-01-19 00:27:21.39	292.87	50.40	-42.3	-45.8	12.6	5.95e-05	0	62	0	569376768	56	5337
2026-01-19 00:27:22.40	292.22	50.38	-42.6	-46.5	12.0	1.46e-04	0	61	0	571473920	56	5755
2026-01-19 00:27:23.41	291.57	50.35	-42.8	-46.9	11.5	6.47e-04	0	61	0	573571072	56	6054
2026-01-19 00:27:24.42	290.92	50.32	-42.9	-47.1	11.3	1.23e-03	0	62	0	575668224	56	6144
2026-01-19 00:27:25.43	290.27	50.29	-42.8	-47.0	11.5	9.73e-04	0	62	0	576716800	56	6082
2026-01-19 00:27:26.44	289.62	50.25	-42.7	-46.7	11.7	6.61e-04	0	62	0	578813952	56	5871
2026-01-19 00:27:27.45	288.98	50.21	-42.6	-46.5	11.9	4.84e-04	0	61	0	580911104	56	5776
2026-01-19 00:27:28.46	288.33	50.17	-42.7	-46.7	11.8	4.16e-04	0	61	0	583008256	56	5885
2026-01-19 00:27:29.47	287.69	50.12	-42.7	-46.8	11.6	6.06e-04	0	62	0	585105408	56	5951
2026-01-19 00:27:30.48	287.05	50.07	-42.8	-46.9	11.5	7.39e-04	0	62	0	586153984	56	6036
2026-01-19 00:27:31.49	286.41	50.01	-42.7	-46.9	11.5	9.70e-04	0	61	0	588251136	56	5995
2026-01-19 00:27:32.50	285.78	49.95	-42.8	-47.0	11.4	9.47e-04	0	61	0	590348288	56	6099
2026-01-19 00:27:33.51	285.15	49.89	-42.9	-47.2	11.2	1.16e-03	0	62	0	592445440	56	6205
2026-01-19 00:27:34.52	284.52	49.82	-42.8	-46.9	11.5	1.19e-03	0	62	0	594542592	56	6014
2026-01-19 00:27:35.53	283.89	49.75	-42.7	-46.9	11.6	7.97e-04	0	62	0	595591168	56	6002
2026-01-19 00:27:36.53	283.28	49.68	-42.6	-46.6	11.8	5.86e-04	0	62	0	597688320	56	5811
2026-01-19 00:27:37.54	282.65	49.60	-42.7	-46.7	11.7	4.90e-04	0	62	0	599785472	56	5877
2026-01-19 00:27:38.55	282.04	49.52	-42.8	-46.9	11.5	5.73e-04	0	62	0	601882624	56	6028
2026-01-19 00:27:39.56	281.42	49.43	-42.9	-47.3	11.1	1.37e-03	0	62	0	603979776	56	6304
2026-01-19 00:27:40.57	280.81	49.34	-43.0	-47.4	11.0	1.61e-03	0	61	0	605028352	56	6384
2026-01-19 00:27:41.58	280.21	49.25	-42.9	-47.2	11.2	1.53e-03	0	61	0	607125504	56	6258
2026-01-19 00:27:42.59	279.60	49.16	-42.9	-47.2	11.1	1.59e-03	0	62	0	609222656	56	6262
2026-01-19 00:27:43.60	279.00	49.06	-43.1	-47.6	10.7	2.52e-03	0	62	0	611319808	56	6549
2026-01-19 00:27:44.61	278.41	48.96	-42.9	-47.3	11.1	2.32e-03	0	62	0	613416960	56	6340
2026-01-19 00:27:45.62	277.82	48.86	-42.9	-47.2	11.2	1.80e-03	0	62	0	614465536	56	6248
2026-01-19 00:27:46.63	277.23	48.75	-42.9	-47.2	11.2	1.51e-03	0	62	0	616562688	56	6246
2026-01-19 00:27:47.64	276.65	48.64	-43.1	-47.7	10.6	2.37e-03	0	62	0	618659840	56	6596
2026-01-19 00:27:48.64	276.07	48.53	-43.2	-48.0	10.4	2.79e-03	0	62	0	620756992	57	6449
2026-01-19 00:27:49.65	275.50	48.41	-43.3	-48.2	10.1	7.14e-03	0	62	0	622854144	57	6604
2026-01-19 00:27:50.66	274.93	48.30	-43.5	-48.8	9.5	1.05e-02	0	61	0	623902720	57	7042
2026-01-19 00:27:51.67	274.36	48.17	-43.4	-48.6	9.7	1.43e-02	0	62	0	625999872	57	6894
2026-01-19 00:27:52.68	273.80	48.05	-43.3	-48.2	10.1	8.57e-03	0	62	0	628097024	57	6622
2026-01-19 00:27:53.69	273.24	47.92	-43.2	-48.0	10.3	5.55e-03	0	62	0	630194176	57	6489
2026-01-19 00:27:54.70	272.69	47.80	-43.3	-48.2	10.2	5.75e-03	0	62	0	632291328	57	6599
2026-01-19 00:27:55.71	272.14	47.66	-43.2	-48.0	10.4	4.83e-03	0	62	0	633339904	57	6432
2026-01-19 00:27:56.72	271.60	47.53	-43.3	-48.2	10.2	5.34e-03	0	62	0	635437056	57	6586
2026-01-19 00:27:57.73	271.06	47.39	-43.3	-48.3	10.0	7.75e-03	0	62	0	637534208	57	6674
2026-01-19 00:27:58.74	270.52	47.26	-43.4	-48.4	9.9	9.00e-03	0	62	0	639631360	57	6782
2026-01-19 00:27:59.75	269.99	47.12	-43.4	-48.3	10.0	7.84e-03	0	62	0	641728512	57	6723
2026-01-19 00:28:00.76	269.47	46.97	-43.4	-48.5	9.8	9.53e-03	0	62	0	643825664	57	6854
2026-01-19 00:28:01.77	268.95	46.83	-43.5	-48.6	9.6	1.16e-02	0	62	0	644874240	57	6958
2026-01-19 00:28:02.78	268.44	46.68	-43.4	-48.5	9.8	1.05e-02	0	61	0	646971392	57	6838
2026-01-19 00:28:03.79	267.93	46.53	-43.2	-47.8	10.4	6.21e-03	0	62	0	649068544	57	6340
2026-01-19 00:28:04.80	267.42	46.38	-43.0	-47.4	11.0	2.97e-03	0	62	0	651165696	57	6019
2026-01-19 00:28:05.80	266.92	46.23	-42.9	-47.2	11.2	1.57e-03	0	62	0	653262848	57	5904
2026-01-19 00:28:06.81	266.43	46.08	-42.8	-47.0	11.4	1.14e-03	0	62	0	654311424	57	5727
2026-01-19 00:28:07.83	265.93	45.92	-42.8	-46.9	11.5	7.41e-04	0	62	0	656408576	57	5676
2026-01-19 00:28:08.84	265.45	45.76	-42.9	-47.3	11.1	1.28e-03	0	62	0	658505728	57	5938
2026-01-19 00:28:09.85	264.97	45.60	-43.1	-47.6	10.8	2.35e-03	0	62	0	660602880	57	6158
2026-01-19 00:28:10.86	264.49	45.44	-43.1	-47.6	10.8	2.98e-03	0	62	0	662700032	57	6176
2026-01-19 00:28:11.87	264.02	45.28	-43.0	-47.4	10.9	2.63e-03	0	62	0	663748608	57	6048
2026-01-19 00:28:12.88	263.55	45.11	-42.8	-47.0	11.3	1.49e-03	0	62	0	665845760	57	5780
2026-01-19 00:28:13.89	263.09	44.95	-42.7	-46.7	11.8	7.48e-04	0	62	0	667942912	57	5548
2026-01-19 00:28:14.89	262.64	44.78	-42.5	-46.3	12.2	2.69e-04	0	62	0	670040064	56	5607
2026-01-19 00:28:15.91	262.18	44.61	-42.4	-46.2	12.3	1.80e-04	0	62	0	672137216	56	5542
2026-01-19 00:28:16.92	261.74	44.44	-42.5	-46.3	12.1	2.02e-04	0	61	0	673185792	56	5634
2026-01-19 00:28:17.93	261.29	44.27	-42.6	-46.6	11.9	3.36e-04	0	62	0	675282944	56	5806
2026-01-19 00:28:18.94	260.86	44.10	-42.8	-46.9	11.5	6.53e-04	0	62	0	677380096	56	6049
2026-01-19 00:28:19.95	260.42	43.93	-42.8	-47.0	11.4	1.17e-03	0	62	0	679477248	56	6127
2026-01-19 00:28:20.96	260.00	43.75	-42.8	-47.0	11.4	1.05e-03	0	62	0	681574400	56	6073
2026-01-19 00:28:21.97	259.57	43.58	-42.5	-46.4	12.0	4.86e-04	0	62	0	682622976	56	5708
2026-01-19 00:28:22.97	259.16	43.40	-42.4	-46.2	12.2	2.10e-04	0	62	0	684720128	56	5560
2026-01-19 00:28:23.98	258.74	43.23	-42.4	-46.2	12.3	1.84e-04	0	61	0	686817280	56	5542
2026-01-19 00:28:24.99	258.33	43.05	-42.5	-46.5	12.0	2.78e-04	0	62	0	688914432	56	5727
2026-01-19 00:28:26.00	257.93	42.87	-42.5	-46.4	12.0	3.41e-04	0	62	0	691011584	56	5706
2026-01-19 00:28:27.01	257.53	42.69	-42.7	-46.7	11.7	3.85e-04	0	62	0	692060160	56	5909
2026-01-19 00:28:28.02	257.13	42.51	-42.8	-46.9	11.5	7.86e-04	0	62	0	694157312	56	6028
2026-01-19 00:28:29.03	256.74	42.33	-42.8	-47.1	11.2	1.20e-03	0	62	0	696254464	56	6178
2026-01-19 00:28:30.04	256.35	42.15	-42.7	-46.9	11.4	1.24e-03	0	62	0	698351616	56	6047
2026-01-19 00:28:31.05	255.97	41.97	-42.6	-46.7	11.7	6.58e-04	0	62	0	700448768	56	5894
2026-01-19 00:28:32.05	255.60	41.79	-42.4	-46.3	12.1	3.12e-04	0	62	0	701497344	56	5609
2026-01-19 00:28:33.06	255.22	41.60	-42.3	-45.9	12.5	1.96e-04	0	62	0	703594496	56	5400
2026-01-19 00:28:34.07	254.85	41.42	-42.2	-45.8	12.6	7.93e-05	0	62	0	705691648	56	5313
2026-01-19 00:28:35.08	254.49	41.24	-42.3	-45.9	12.5	1.25e-04	0	61	0	707788800	56	5397
2026-01-19 00:28:36.09	254.12	41.05	-42.5	-46.3	12.1	1.91e-04	0	62	0	709885952	56	5643
2026-01-19 00:28:37.10	253.77	40.87	-42.7	-46.9	11.6	5.12e-04	0	62	0	711983104	56	5999
2026-01-19 00:28:38.11	253.41	40.68	-42.7	-46.8	11.6	9.43e-04	0	62	0	713031680	56	5965
2026-01-19 00:28:39.13	253.06	40.50	-42.6	-46.6	11.8	5.55e-04	0	62	0	715128832	56	5802
2026-01-19 00:28:40.14	252.71	40.31	-42.6	-46.6	11.9	4.17e-04	0	61	0	717225984	56	5812
2026-01-19 00:28:41.15	252.37	40.12	-42.4	-46.2	12.2	2.46e-04	0	62	0	719323136	56	5590
2026-01-19 00:28:42.16	252.03	39.94	-42.5	-46.4	11.9	2.79e-04	0	62	0	721420288	56	5709
2026-01-19 00:28:43.17	251.70	39.75	-42.6	-46.7	11.7	4.78e-04	0	62	0	722468864	56	5890
2026-01-19 00:28:44.18	251.37	39.57	-42.7	-46.8	11.6	6.64e-04	0	62	0	724566016	56	5946
2026-01-19 00:28:45.19	251.04	39.38	-42.9	-47.2	11.1	1.16e-03	0	62	0	726663168	56	6270
2026-01-19 00:28:46.20	250.72	39.20	-42.9	-47.3	11.0	1.62e-03	0	62	0	728760320	56	6329
2026-01-19 00:28:47.21	250.40	39.01	-43.0	-47.4	10.9	1.75e-03	0	62	0	730857472	56	6401
2026-01-19 00:28:48.21	250.09	38.83	-42.9	-47.2	11.2	1.43e-03	0	62	0	731906048	56	6247
2026-01-19 00:28:49.22	249.78	38.64	-42.9	-47.4	11.0	1.56e-03	0	62	0	734003200	56	6370
2026-01-19 00:28:50.23	249.47	38.45	-43.0	-47.5	10.8	2.03e-03	0	62	0	736100352	56	6454
2026-01-19 00:28:51.24	249.17	38.27	-43.0	-47.6	10.7	2.70e-03	0	62	0	738197504	56	6515
2026-01-19 00:28:52.25	248.86	38.08	-42.9	-47.4	10.9	2.52e-03	0	62	0	740294656	56	6395
2026-01-19 00:28:53.26	248.57	37.90	-43.0	-47.5	10.8	2.27e-03	0	62	0	741343232	56	6476
2026-01-19 00:28:54.27	248.27	37.71	-43.0	-47.6	10.7	2.64e-03	0	62	0	743440384	56	6558
2026-01-19 00:28:55.28	247.98	37.52	-43.1	-47.8	10.5	3.25e-03	0	62	0	745537536	56	6669
2026-01-19 00:28:56.29	247.69	37.34	-43.3	-48.3	10.0	5.10e-03	0	62	0	747634688	57	6710
2026-01-19 00:28:57.30	247.41	37.15	-43.4	-48.5	9.7	9.43e-03	0	62	0	749731840	57	6877
2026-01-19 00:28:58.31	247.13	36.97	-43.4	-48.7	9.6	1.27e-02	0	62	0	750780416	57	7004
2026-01-19 00:28:59.32	246.85	36.79	-43.5	-48.7	9.4	1.46e-02	0	62	0	752877568	57	7034
2026-01-19 00:29:00.33	246.58	36.60	-43.5	-48.8	9.5	1.46e-02	0	62	0	754974720	57	7046
2026-01-19 00:29:01.34	246.30	36.42	-43.4	-48.7	9.5	1.38e-02	0	62	0	757071872	57	7012
2026-01-19 00:29:02.35	246.04	36.23	-43.5	-48.9	9.4	1.54e-02	0	62	0	759169024	57	7148
2026-01-19 00:29:03.36	245.77	36.05	-43.4	-48.7	9.5	1.29e-02	0	62	0	760217600	57	7018
2026-01-19 00:29:04.37	245.51	35.87	-43.5	-49.0	9.3	1.53e-02	0	62	0	762314752	57	7254
2026-01-19 00:29:05.38	245.25	35.69	-43.6	-49.2	9.0	1.97e-02	0	62	0	764411904	57	7402
2026-01-19 00:29:06.39	244.99	35.50	-43.7	-49.4	8.8	2.53e-02	0	62	0	766509056	57	7604
2026-01-19 00:29:07.40	244.74	35.32	-43.6	-49.3	9.0	2.98e-02	0	62	0	768606208	57	7473
2026-01-19 00:29:08.41	244.49	35.14	-43.6	-49.1	9.1	2.40e-02	0	62	0	769654784	57	7330
2026-01-19 00:29:09.42	244.24	34.96	-43.5	-48.8	9.3	1.85e-02	0	62	0	771751936	57	7105
2026-01-19 00:29:10.43	243.99	34.78	-43.5	-48.9	9.3	1.70e-02	0	62	0	773849088	57	7176
2026-01-19 00:29:11.44	243.75	34.60	-43.5	-48.8	9.4	1.48e-02	0	62	0	775946240	57	7070
2026-01-19 00:29:12.45	243.51	34.42	-43.5	-49.0	9.2	1.59e-02	0	62	0	778043392	57	7244
2026-01-19 00:29:13.46	243.27	34.24	-43.5	-49.0	9.2	1.87e-02	0	62	0	780140544	57	7222
2026-01-19 00:29:14.47	243.04	34.06	-43.6	-49.2	9.0	2.24e-02	0	62	0	781189120	57	7415
2026-01-19 00:29:15.48	242.80	33.88	-43.6	-49.2	9.0	2.67e-02	0	62	0	783286272	57	7428
2026-01-19 00:29:16.48	242.58	33.71	-43.8	-49.7	8.5	4.21e-02	0	62	0	785383424	58	7404
2026-01-19 00:29:17.49	242.35	33.53	-43.7	-49.6	8.6	4.18e-02	0	62	0	787480576	58	7309
2026-01-19 00:29:18.51	242.12	33.35	-43.7	-49.6	8.5	3.60e-02	0	62	0	789577728	58	7340
2026-01-19 00:29:19.52	241.90	33.17	-43.7	-49.5	8.7	3.48e-02	0	62	0	790626304	58	7234
2026-01-19 00:29:20.53	241.68	33.00	-43.7	-49.5	8.7	3.75e-02	0	62	0	792723456	58	7238
2026-01-19 00:29:21.54	241.46	32.82	-43.6	-49.4	8.8	3.32e-02	0	62	0	794820608	58	7138
2026-01-19 00:29:22.55	241.25	32.65	-43.7	-49.4	8.7	3.11e-02	0	62	0	796917760	58	7202
2026-01-19 00:29:23.56	241.04	32.47	-43.5	-49.0	9.2	2.49e-02	0	62	0	799014912	58	6844
2026-01-19 00:29:24.56	240.83	32.30	-43.5	-48.9	9.4	1.95e-02	0	62	0	800063488	58	6737
2026-01-19 00:29:25.58	240.62	32.13	-43.4	-48.6	9.5	1.59e-02	0	62	0	802160640	58	6564
2026-01-19 00:29:26.58	240.41	31.96	-43.5	-48.9	9.3	1.54e-02	0	62	0	804257792	58	6751
2026-01-19 00:29:27.59	240.21	31.79	-43.5	-48.9	9.3	1.88e-02	0	62	0	806354944	58	6791
2026-01-19 00:29:28.60	240.01	31.61	-43.5	-49.0	9.2	2.02e-02	0	62	0	808452096	58	6836
2026-01-19 00:29:29.61	239.81	31.44	-43.5	-49.0	9.2	2.31e-02	0	62	0	809500672	58	6846
2026-01-19 00:29:30.62	239.61	31.27	-43.5	-49.0	9.2	2.01e-02	0	62	0	811597824	58	6810
2026-01-19 00:29:31.63	239.41	31.10	-43.5	-48.9	9.3	1.81e-02	0	62	0	813694976	58	6749
2026-01-19 00:29:32.64	239.22	30.94	-43.5	-49.0	9.2	1.90e-02	0	62	0	815792128	58	6837
2026-01-19 00:29:33.65	239.03	30.77	-43.5	-49.0	9.2	1.81e-02	0	62	0	817889280	58	6811
2026-01-19 00:29:34.66	238.84	30.60	-43.5	-48.9	9.3	2.01e-02	0	61	0	818937856	58	6774
2026-01-19 00:29:35.67	238.65	30.43	-43.5	-48.9	9.3	2.03e-02	0	62	0	821035008	58	6776
2026-01-19 00:29:36.68	238.47	30.27	-43.4	-48.8	9.4	1.73e-02	0	62	0	823132160	58	6665
2026-01-19 00:29:37.69	238.28	30.10	-43.4	-48.7	9.5	1.61e-02	0	62	0	825229312	58	6595
2026-01-19 00:29:38.70	238.10	29.94	-43.3	-48.4	9.8	1.20e-02	0	62	0	827326464	58	6392
2026-01-19 00:29:39.70	237.92	29.77	-43.3	-48.3	9.9	8.55e-03	0	62	0	828375040	58	6318
2026-01-19 00:29:40.71	237.75	29.61	-43.1	-48.0	10.2	6.60e-03	0	62	0	830472192	58	6087
2026-01-19 00:29:41.73	237.57	29.44	-43.2	-48.1	10.1	5.80e-03	0	62	0	832569344	58	6150
2026-01-19 00:29:42.73	237.40	29.28	-43.1	-47.9	10.3	5.61e-03	0	62	0	834666496	58	6018
2026-01-19 00:29:43.74	237.22	29.12	-43.2	-48.1	10.2	6.07e-03	0	62	0	836763648	58	6141
2026-01-19 00:29:44.75	237.05	28.96	-43.2	-48.2	10.0	6.89e-03	0	62	0	837812224	58	6228
2026-01-19 00:29:45.76	236.88	28.80	-43.2	-48.2	10.1	7.03e-03	0	62	0	839909376	58	6206
2026-01-19 00:29:46.77	236.72	28.64	-43.2	-48.2	10.0	7.42e-03	0	62	0	842006528	58	6207
2026-01-19 00:29:47.78	236.55	28.48	-43.2	-48.1	10.1	6.70e-03	0	62	0	844103680	58	6196
2026-01-19 00:29:48.79	236.39	28.32	-43.2	-48.2	10.0	8.12e-03	0	62	0	846200832	58	6234
2026-01-19 00:29:49.80	236.22	28.16	-43.2	-48.2	10.0	7.78e-03	0	62	0	848297984	58	6233
2026-01-19 00:29:50.81	236.06	28.00	-43.1	-48.0	10.2	7.83e-03	0	62	0	849346560	58	6118
2026-01-19 00:29:51.82	235.90	27.85	-43.0	-47.7	10.5	4.64e-03	0	62	0	851443712	58	5905
2026-01-19 00:29:52.83	235.75	27.69	-43.0	-47.6	10.6	3.42e-03	0	62	0	853540864	58	5833
2026-01-19 00:29:53.84	235.59	27.54	-42.9	-47.6	10.6	3.12e-03	0	62	0	855638016	57	6140
2026-01-19 00:29:54.85	235.44	27.38	-43.0	-47.6	10.6	3.32e-03	0	62	0	857735168	57	6196
2026-01-19 00:29:55.86	235.28	27.23	-43.0	-47.7	10.5	3.54e-03	0	62	0	858783744	57	6223
2026-01-19 00:29:56.87	235.13	27.07	-43.0	-47.7	10.5	4.03e-03	0	62	0	860880896	57	6248
2026-01-19 00:29:57.88	234.98	26.92	-42.9	-47.6	10.7	3.80e-03	0	62	0	862978048	57	6140
2026-01-19 00:29:58.89	234.83	26.77	-42.9	-47.6	10.6	3.29e-03	0	62	0	865075200	57	6161
2026-01-19 00:29:59.90	234.69	26.62	-42.9	-47.6	10.7	3.23e-03	0	62	0	867172352	57	6134
2026-01-19 00:30:00.90	234.54	26.47	-42.8	-47.3	11.0	2.25e-03	0	62	0	868220928	57	5926
2026-01-19 00:30:01.92	234.40	26.31	-42.8	-47.2	11.0	1.89e-03	0	62	0	870318080	57	5919
2026-01-19 00:30:02.93	234.25	26.16	-42.8	-47.2	10.9	1.86e-03	0	62	0	872415232	57	5915
2026-01-19 00:30:03.93	234.11	26.02	-42.8	-47.3	10.9	1.88e-03	0	62	0	874512384	57	5989
2026-01-19 00:30:04.94	233.97	25.87	-42.9	-47.5	10.7	2.49e-03	0	62	0	876609536	57	6101
2026-01-19 00:30:05.95	233.83	25.72	-43.0	-47.7	10.5	3.44e-03	0	62	0	877658112	57	6216
2026-01-19 00:30:06.96	233.69	25.57	-43.0	-47.8	10.4	4.25e-03	0	62	0	879755264	57	6276
2026-01-19 00:30:07.97	233.56	25.43	-43.1	-47.9	10.3	4.52e-03	0	62	0	881852416	57	6405
2026-01-19 00:30:08.98	233.42	25.28	-43.0	-47.9	10.3	5.24e-03	0	62	0	883949568	57	6366
2026-01-19 00:30:09.99	233.29	25.14	-43.0	-47.8	10.3	5.17e-03	0	62	0	886046720	57	6347
2026-01-19 00:30:11.00	233.16	24.99	-43.0	-47.8	10.4	4.67e-03	0	62	0	887095296	57	6278
2026-01-19 00:30:12.01	233.03	24.85	-42.9	-47.6	10.5	4.07e-03	0	62	0	889192448	57	6184
2026-01-19 00:30:13.02	232.90	24.70	-42.8	-47.4	10.8	2.56e-03	0	62	0	891289600	57	6006
2026-01-19 00:30:14.03	232.77	24.56	-42.8	-47.2	11.0	2.13e-03	0	61	0	893386752	57	5899
2026-01-19 00:30:15.03	232.64	24.42	-42.7	-47.1	11.1	1.72e-03	0	62	0	895483904	57	5817
2026-01-19 00:30:16.04	232.51	24.28	-42.7	-47.1	11.1	1.52e-03	0	62	0	896532480	57	5819
2026-01-19 00:30:17.05	232.39	24.14	-42.7	-47.1	11.1	1.54e-03	0	61	0	898629632	57	5848
2026-01-19 00:30:18.06	232.26	24.00	-42.7	-47.0	11.2	1.80e-03	0	62	0	900726784	57	5788
2026-01-19 00:30:19.07	232.14	23.86	-42.6	-46.9	11.3	1.16e-03	0	62	0	902823936	57	5704
2026-01-19 00:30:20.08	232.02	23.72	-42.7	-47.0	11.2	1.43e-03	0	62	0	904921088	57	5751
2026-01-19 00:30:21.09	231.90	23.58	-42.6	-46.9	11.3	1.14e-03	0	62	0	905969664	57	5692
2026-01-19 00:30:22.10	231.78	23.44	-42.7	-47.0	11.2	1.33e-03	0	62	0	908066816	57	5752
2026-01-19 00:30:23.11	231.66	23.30	-42.7	-47.1	11.1	1.42e-03	0	62	0	910163968	57	5791
2026-01-19 00:30:24.12	231.54	23.16	-42.7	-47.0	11.2	1.40e-03	0	62	0	912261120	57	5774
2026-01-19 00:30:25.13	231.42	23.03	-42.7	-47.2	11.0	1.77e-03	0	62	0	914358272	57	5873
2026-01-19 00:30:26.13	231.31	22.89	-42.7	-47.2	11.0	2.00e-03	0	62	0	916455424	57	5873
2026-01-19 00:30:27.14	231.19	22.76	-42.7	-47.1	11.0	2.00e-03	0	62	0	917504000	57	5836
2026-01-19 00:30:28.16	231.08	22.62	-42.6	-47.0	11.2	1.42e-03	0	62	0	919601152	57	5726
2026-01-19 00:30:29.16	230.97	22.49	-42.6	-46.9	11.3	1.33e-03	0	62	0	921698304	57	5687
2026-01-19 00:30:30.17	230.86	22.36	-42.6	-46.9	11.3	1.24e-03	0	62	0	923795456	57	5677
2026-01-19 00:30:31.18	230.75	22.22	-42.6	-46.9	11.3	1.08e-03	0	62	0	925892608	57	5680
2026-01-19 00:30:32.19	230.64	22.09	-42.7	-47.1	11.1	1.24e-03	0	62	0	926941184	57	5816
2026-01-19 00:30:33.20	230.53	21.96	-42.6	-47.0	11.2	1.49e-03	0	62	0	929038336	57	5738
2026-01-19 00:30:34.21	230.42	21.83	-42.6	-46.9	11.2	1.36e-03	0	62	0	931135488	57	5706
2026-01-19 00:30:35.22	230.31	21.70	-42.7	-47.1	11.1	1.49e-03	0	62	0	933232640	57	5810
2026-01-19 00:30:36.23	230.21	21.57	-42.7	-47.1	11.0	1.67e-03	0	62	0	934281216	57	5834
2026-01-19 00:30:37.24	230.10	21.44	-42.7	-47.2	11.0	1.66e-03	0	62	0	936378368	57	5866
2026-01-19 00:30:38.25	230.00	21.31	-42.7	-47.1	11.0	1.76e-03	0	62	0	938475520	57	5832
2026-01-19 00:30:39.26	229.89	21.18	-42.7	-47.1	11.1	1.64e-03	0	62	0	940572672	57	5806
2026-01-19 00:30:40.27	229.79	21.05	-42.6	-46.9	11.3	1.35e-03	0	62	0	942669824	57	5667
2026-01-19 00:30:41.29	229.69	20.93	-42.6	-47.0	11.2	1.29e-03	0	62	0	944766976	57	5726
2026-01-19 00:30:42.30	229.59	20.80	-42.6	-46.8	11.3	1.24e-03	0	62	0	945815552	57	5640
2026-01-19 00:30:43.30	229.49	20.67	-42.5	-46.8	11.4	1.04e-03	0	62	0	947912704	57	5623
2026-01-19 00:30:44.32	229.39	20.55	-42.6	-46.8	11.3	1.11e-03	0	62	0	950009856	57	5641
2026-01-19 00:30:45.32	229.29	20.42	-42.6	-46.9	11.2	1.33e-03	0	62	0	952107008	57	5710
2026-01-19 00:30:46.33	229.19	20.30	-42.6	-46.9	11.2	1.57e-03	0	62	0	954204160	57	5720
2026-01-19 00:30:47.34	229.10	20.17	-42.6	-47.0	11.1	1.30e-03	0	62	0	955252736	57	5781
2026-01-19 00:30:48.35	229.00	20.05	-42.7	-47.1	11.0	1.61e-03	0	62	0	957349888	57	5853
2026-01-19 00:30:49.36	228.91	19.93	-42.7	-47.1	11.0	1.97e-03	0	62	0	959447040	57	5811
2026-01-19 00:30:50.37	228.81	19.81	-42.7	-47.1	11.0	1.81e-03	0	62	0	961544192	57	5841
2026-01-19 00:30:51.38	228.72	19.68	-42.7	-47.1	11.0	1.98e-03	0	62	0	963641344	57	5844
2026-01-19 00:30:52.39	228.62	19.56	-42.7	-47.1	11.0	2.08e-03	0	62	0	964689920	57	5851
2026-01-19 00:30:53.40	228.53	19.44	-42.7	-47.2	10.9	2.10e-03	0	62	0	966787072	57	5880
2026-01-19 00:30:54.41	228.44	19.32	-42.7	-47.2	10.9	2.28e-03	0	62	0	968884224	57	5889
2026-01-19 00:30:55.42	228.35	19.20	-42.7	-47.3	10.8	2.46e-03	0	62	0	970981376	57	5926
2026-01-19 00:30:56.43	228.26	19.08	-42.6	-46.9	11.2	2.05e-03	0	62	0	973078528	57	5713
2026-01-19 00:30:57.43	228.17	18.96	-42.6	-46.9	11.2	1.34e-03	0	62	0	974127104	57	5701
2026-01-19 00:30:58.44	228.08	18.85	-42.6	-46.9	11.2	1.21e-03	0	62	0	976224256	57	5694
2026-01-19 00:30:59.45	228.00	18.73	-42.5	-46.8	11.3	1.13e-03	0	62	0	978321408	56	5950
2026-01-19 00:31:00.46	227.91	18.61	-42.5	-46.9	11.2	1.19e-03	0	62	0	980418560	56	6006
2026-01-19 00:31:01.47	227.82	18.49	-42.6	-47.0	11.1	1.64e-03	0	62	0	982515712	56	6114
2026-01-19 00:31:02.48	227.74	18.38	-42.6	-47.0	11.1	1.53e-03	0	61	0	983564288	56	6099
2026-01-19 00:31:03.49	227.65	18.26	-42.6	-47.1	11.0	1.60e-03	0	62	0	985661440	56	6169
2026-01-19 00:31:04.50	227.57	18.15	-42.7	-47.2	10.9	2.29e-03	0	62	0	987758592	56	6248
2026-01-19 00:31:05.51	227.48	18.03	-42.7	-47.3	10.7	2.75e-03	0	62	0	989855744	56	6331
2026-01-19 00:31:06.52	227.40	17.92	-42.8	-47.5	10.6	3.21e-03	0	62	0	991952896	56	6444
2026-01-19 00:31:07.53	227.32	17.80	-42.8	-47.5	10.5	3.76e-03	0	62	0	993001472	56	6490
2026-01-19 00:31:08.54	227.24	17.69	-42.8	-47.6	10.4	4.44e-03	0	62	0	995098624	56	6538
2026-01-19 00:31:09.55	227.16	17.58	-42.9	-47.9	10.2	5.06e-03	0	62	0	997195776	56	6728
2026-01-19 00:31:10.56	227.08	17.46	-42.9	-47.9	10.0	6.93e-03	0	62	0	999292928	56	6797
2026-01-19 00:31:11.57	227.00	17.35	-42.9	-47.9	10.1	7.37e-03	0	62	0	1001390080	56	6756
2026-01-19 00:31:12.58	226.92	17.24	-42.9	-47.9	10.1	7.09e-03	0	62	0	1002438656	56	6741
2026-01-19 00:31:13.59	226.84	17.13	-42.9	-47.9	10.0	7.49e-03	0	62	0	1004535808	56	6781
2026-01-19 00:31:14.60	226.76	17.02	-42.9	-47.9	10.1	6.27e-03	0	62	0	1006632960	56	6738
2026-01-19 00:31:15.60	226.68	16.91	-42.8	-47.5	10.5	4.88e-03	0	62	0	1008730112	56	6473
2026-01-19 00:31:16.61	226.61	16.80	-42.8	-47.7	10.3	4.84e-03	0	62	0	1010827264	56	6572
2026-01-19 00:31:17.62	226.53	16.69	-42.8	-47.6	10.4	5.21e-03	0	62	0	1012924416	56	6504
2026-01-19 00:31:18.63	226.45	16.58	-42.8	-47.5	10.4	4.19e-03	0	62	0	1013972992	56	6492
2026-01-19 00:31:19.64	226.38	16.47	-42.8	-47.5	10.4	4.66e-03	0	62	0	1016070144	56	6492
2026-01-19 00:31:20.65	226.30	16.36	-42.7	-47.4	10.5	3.88e-03	0	62	0	1018167296	56	6396
2026-01-19 00:31:21.66	226.23	16.25	-42.8	-47.5	10.5	4.00e-03	0	62	0	1020264448	56	6444
2026-01-19 00:31:22.67	226.16	16.15	-42.8	-47.6	10.4	4.24e-03	0	62	0	1022361600	56	6504
2026-01-19 00:31:23.68	226.08	16.04	-42.7	-47.4	10.5	3.95e-03	0	62	0	1023410176	56	6395
2026-01-19 00:31:24.69	226.01	15.93	-42.8	-47.5	10.4	4.38e-03	0	62	0	1025507328	56	6463
2026-01-19 00:31:25.70	225.94	15.83	-42.8	-47.6	10.4	4.45e-03	0	62	0	1027604480	56	6537
2026-01-19 00:31:26.71	225.87	15.72	-42.7	-47.5	10.4	4.62e-03	0	62	0	1029701632	56	6444
2026-01-19 00:31:27.72	225.80	15.62	-42.8	-47.5	10.4	4.65e-03	0	62	0	1031798784	56	6486
2026-01-19 00:31:28.73	225.73	15.51	-42.7	-47.5	10.4	4.73e-03	0	62	0	1032847360	56	6457
2026-01-19 00:31:29.74	225.66	15.41	-42.7	-47.4	10.5	3.99e-03	0	62	0	1034944512	56	6418
2026-01-19 00:31:30.75	225.59	15.30	-42.7	-47.4	10.5	3.99e-03	0	62	0	1037041664	56	6376
2026-01-19 00:31:31.76	225.52	15.20	-42.7	-47.4	10.5	3.84e-03	0	62	0	1039138816	56	6386
2026-01-19 00:31:32.77	225.45	15.09	-42.6	-47.3	10.6	3.48e-03	0	62	0	1041235968	56	6290
2026-01-19 00:31:33.78	225.38	14.99	-42.7	-47.4	10.6	3.74e-03	0	62	0	1042284544	56	6355
2026-01-19 00:31:34.79	225.31	14.89	-42.7	-47.4	10.5	3.95e-03	0	62	0	1044381696	56	6368
2026-01-19 00:31:35.80	225.25	14.79	-42.7	-47.4	10.5	4.20e-03	0	62	0	1046478848	56	6362
2026-01-19 00:31:36.81	225.18	14.69	-42.7	-47.4	10.5	3.87e-03	0	62	0	1048576000	56	6395
2026-01-19 00:31:37.82	225.11	14.58	-42.7	-47.4	10.5	4.37e-03	0	62	0	1050673152	56	6414
2026-01-19 00:31:38.83	225.05	14.48	-42.7	-47.5	10.4	4.17e-03	0	62	0	1051721728	56	6421
2026-01-19 00:31:39.84	224.98	14.38	-42.7	-47.4	10.5	3.96e-03	0	62	0	1053818880	56	6394
2026-01-19 00:31:40.85	224.92	14.28	-42.7	-47.6	10.3	4.85e-03	0	62	0	1055916032	56	6546
2026-01-19 00:31:41.86	224.85	14.18	-42.7	-47.6	10.2	5.27e-03	0	62	0	1058013184	56	6570
2026-01-19 00:31:42.87	224.79	14.08	-42.8	-47.7	10.1	6.35e-03	0	62	0	1060110336	56	6622
2026-01-19 00:31:43.87	224.73	13.98	-42.8	-47.9	10.0	6.95e-03	0	62	0	1061158912	56	6725
2026-01-19 00:31:44.88	224.67	13.89	-42.8	-47.8	10.0	7.56e-03	0	62	0	1063256064	56	6680
2026-01-19 00:31:45.89	224.60	13.79	-42.9	-48.0	9.8	8.66e-03	0	62	0	1065353216	56	6835
2026-01-19 00:31:46.90	224.54	13.69	-42.9	-48.0	9.8	1.07e-02	0	62	0	1067450368	56	6836
2026-01-19 00:31:47.91	224.48	13.59	-42.9	-48.1	9.7	1.05e-02	0	62	0	1069547520	56	6939
2026-01-19 00:31:48.92	224.42	13.49	-42.9	-48.2	9.6	1.28e-02	0	62	0	1070596096	56	6994
2026-01-19 00:31:49.93	224.36	13.40	-42.9	-48.2	9.5	1.30e-02	0	62	0	1072693248	56	7026
2026-01-19 00:31:50.94	224.30	13.30	-43.0	-48.3	9.5	1.34e-02	0	62	0	1074790400	56	7066
2026-01-19 00:31:51.95	224.24	13.20	-42.9	-48.2	9.5	1.38e-02	0	62	0	1076887552	56	7022
2026-01-19 00:31:52.96	224.18	13.11	-43.0	-48.3	9.4	1.53e-02	0	62	0	1078984704	56	7084
2026-01-19 00:31:53.97	224.12	13.01	-43.0	-48.3	9.4	1.60e-02	0	62	0	1081081856	56	7114
2026-01-19 00:31:54.98	224.06	12.92	-42.9	-48.2	9.5	1.56e-02	0	62	0	1082130432	56	7014
2026-01-19 00:31:55.99	224.00	12.82	-42.9	-48.3	9.4	1.49e-02	0	62	0	1084227584	56	7063
