passes_logs/2026/01/19/R2.0S_Moscow/R2.0S_Moscow__20260119_231102_NOAA_21_JPSS-2_rec.log

#Pass ID: 20260119_231102_NOAA 21 (JPSS-2)
#Satellite: NOAA 21 (JPSS-2)
#Configuration: NOAA-21
#almurnet v.1.7.20251203
#Start time: 2026-01-19 23:11:01

#Version: 2.2.20231116
#Station: R2.0S_Moscow
#Location: 37.707566 lon 55.798166 lat
#TLE: 1 54234U 22150A   26019.31231101  .00000073  00000+0  55355-4 0  9994
#TLE: 2 54234  98.7504 320.1599 0000604 258.3686 101.7423 14.19535697165426

#Time	Az	El	Level	Level2	SNR	BER	BlckErr	Temp	State	Recorded	gain1	gain2
2026-01-19 23:11:01.83	18.47	1.99	-41.8	-54.5	3.8	1.49e+00	0	53	0	0	55	15239
2026-01-19 23:11:02.85	18.50	2.05	-41.8	-54.5	3.8	1.49e+00	0	53	104	0	54	16200
2026-01-19 23:11:03.86	18.53	2.12	-41.8	-54.5	3.8	1.49e+00	0	53	104	0	54	16166
2026-01-19 23:11:04.87	18.55	2.18	-41.8	-54.5	3.8	1.49e+00	0	53	104	0	54	16217
2026-01-19 23:11:05.88	18.58	2.24	-41.8	-54.5	3.8	1.49e+00	0	53	104	0	54	16194
2026-01-19 23:11:06.89	18.60	2.31	-41.8	-54.5	3.8	1.49e+00	0	53	104	0	54	16178
2026-01-19 23:11:07.90	18.63	2.37	-41.8	-54.5	3.8	1.49e+00	0	53	104	0	54	16172
2026-01-19 23:11:08.91	18.66	2.44	-41.7	-54.5	3.8	1.49e+00	0	53	104	0	54	16261
2026-01-19 23:11:09.92	18.68	2.50	-41.8	-54.4	3.8	1.49e+00	0	54	104	0	54	16123
2026-01-19 23:11:10.93	18.71	2.57	-41.8	-54.5	3.8	1.49e+00	0	54	104	0	54	16190
2026-01-19 23:11:11.94	18.74	2.63	-41.8	-54.5	3.8	1.49e+00	0	54	104	0	54	16197
2026-01-19 23:11:12.95	18.76	2.69	-41.7	-54.4	3.8	1.49e+00	0	54	104	0	54	16125
2026-01-19 23:11:13.96	18.79	2.76	-41.8	-54.5	3.8	1.49e+00	0	54	104	0	54	16148
2026-01-19 23:11:14.97	18.82	2.82	-41.8	-54.5	3.8	1.49e+00	0	54	104	0	54	16180
2026-01-19 23:11:15.98	18.84	2.89	-41.8	-54.5	3.8	1.49e+00	0	54	104	0	54	16197
2026-01-19 23:11:16.99	18.87	2.95	-41.8	-54.5	3.8	1.49e+00	0	54	104	0	54	16207
2026-01-19 23:11:18.00	18.90	3.02	-41.8	-54.5	3.8	1.49e+00	0	54	104	0	54	16196
2026-01-19 23:11:19.01	18.92	3.09	-41.7	-54.5	3.8	1.49e+00	0	54	104	0	54	16170
2026-01-19 23:11:20.02	18.95	3.15	-41.7	-54.5	3.8	1.49e+00	0	54	104	0	54	16166
2026-01-19 23:11:21.03	18.98	3.22	-41.8	-54.5	3.8	1.49e+00	0	54	104	0	54	16192
2026-01-19 23:11:22.04	19.01	3.28	-41.8	-54.5	3.8	1.49e+00	0	54	104	0	54	16189
2026-01-19 23:11:23.05	19.03	3.35	-41.7	-54.5	3.8	1.49e+00	0	55	104	0	54	16191
2026-01-19 23:11:24.06	19.06	3.42	-41.8	-54.5	3.8	1.49e+00	0	55	104	0	54	16197
2026-01-19 23:11:25.07	19.09	3.48	-41.8	-54.5	3.8	1.49e+00	0	55	104	0	54	16155
2026-01-19 23:11:26.08	19.12	3.55	-41.7	-54.5	3.8	1.49e+00	0	55	104	0	54	16172
2026-01-19 23:11:27.09	19.15	3.62	-41.8	-54.5	3.8	1.49e+00	0	55	104	0	54	16220
2026-01-19 23:11:28.10	19.17	3.68	-41.7	-54.5	3.8	1.49e+00	0	55	104	0	54	16174
2026-01-19 23:11:29.11	19.20	3.75	-41.7	-54.5	3.8	1.49e+00	0	55	104	0	54	16203
2026-01-19 23:11:30.12	19.23	3.82	-41.7	-54.5	3.8	1.49e+00	0	55	104	0	54	16159
2026-01-19 23:11:31.13	19.26	3.88	-41.7	-54.5	3.8	1.49e+00	0	55	104	0	54	16181
2026-01-19 23:11:32.14	19.29	3.95	-41.8	-54.5	3.8	1.49e+00	0	55	104	0	54	16146
2026-01-19 23:11:33.15	19.32	4.02	-41.7	-54.5	3.8	1.49e+00	0	55	104	0	54	16190
2026-01-19 23:11:34.16	19.35	4.09	-41.7	-54.5	3.8	1.49e+00	0	55	104	0	54	16174
2026-01-19 23:11:35.17	19.38	4.16	-41.7	-54.5	3.8	1.49e+00	0	55	104	0	54	16134
2026-01-19 23:11:36.18	19.40	4.22	-41.7	-54.5	3.8	1.49e+00	0	55	104	0	54	16163
2026-01-19 23:11:37.20	19.43	4.29	-41.7	-54.5	3.8	1.49e+00	0	55	104	0	54	16171
2026-01-19 23:11:38.21	19.46	4.36	-41.7	-54.5	3.8	1.49e+00	0	55	104	0	54	16131
2026-01-19 23:11:39.22	19.49	4.43	-41.7	-54.5	3.8	1.49e+00	0	55	104	0	54	16150
2026-01-19 23:11:40.23	19.52	4.50	-41.8	-54.5	3.8	1.49e+00	0	55	104	0	54	16143
2026-01-19 23:11:41.24	19.55	4.57	-41.8	-54.5	3.8	1.49e+00	0	56	104	0	54	16189
2026-01-19 23:11:42.25	19.58	4.64	-41.7	-54.5	3.8	1.49e+00	0	56	104	0	54	16143
2026-01-19 23:11:43.26	19.61	4.71	-41.7	-54.5	3.8	1.49e+00	0	56	104	0	54	16151
2026-01-19 23:11:44.27	19.64	4.78	-41.7	-54.4	3.8	1.49e+00	0	56	104	0	54	16126
2026-01-19 23:11:45.28	19.67	4.85	-41.8	-54.5	3.8	1.49e+00	0	56	104	0	54	16178
2026-01-19 23:11:46.29	19.70	4.92	-41.8	-54.5	3.8	1.49e+00	0	56	104	0	54	16181
2026-01-19 23:11:47.30	19.73	4.99	-41.7	-54.5	3.8	1.49e+00	0	56	104	0	54	16145
2026-01-19 23:11:48.31	19.76	5.06	-41.8	-54.5	3.8	1.49e+00	0	56	104	0	54	16130
2026-01-19 23:11:49.32	19.79	5.13	-41.7	-54.5	3.8	1.49e+00	0	56	104	0	54	16129
2026-01-19 23:11:50.33	19.82	5.20	-41.7	-54.5	3.8	1.49e+00	0	56	104	0	54	16159
2026-01-19 23:11:51.34	19.85	5.27	-41.7	-54.4	3.8	1.49e+00	0	56	104	0	54	16116
2026-01-19 23:11:52.35	19.89	5.34	-41.7	-54.5	3.8	1.49e+00	0	56	104	0	54	16152
2026-01-19 23:11:53.37	19.92	5.41	-41.7	-54.5	3.8	1.49e+00	0	56	104	0	54	16154
2026-01-19 23:11:54.38	19.95	5.48	-41.8	-54.5	3.8	1.49e+00	0	56	104	0	54	16129
2026-01-19 23:11:55.39	19.98	5.56	-41.7	-54.5	3.8	1.49e+00	0	56	104	0	54	16170
2026-01-19 23:11:56.40	20.01	5.63	-41.7	-54.4	3.8	1.49e+00	0	56	104	0	54	16123
2026-01-19 23:11:57.41	20.04	5.70	-41.8	-54.5	3.8	1.49e+00	0	56	104	0	54	16139
2026-01-19 23:11:58.42	20.08	5.77	-41.7	-54.5	3.8	1.49e+00	0	56	104	0	54	16162
2026-01-19 23:11:59.43	20.11	5.84	-41.8	-54.5	3.8	1.49e+00	0	57	104	0	54	16177
2026-01-19 23:12:00.44	20.14	5.92	-41.8	-54.4	3.8	1.49e+00	0	56	104	0	54	16122
2026-01-19 23:12:01.45	20.17	5.99	-41.8	-54.5	3.8	1.49e+00	0	57	104	0	54	16166
2026-01-19 23:12:02.46	20.20	6.06	-41.8	-54.5	3.8	1.49e+00	0	57	104	0	54	16165
2026-01-19 23:12:03.47	20.24	6.14	-41.8	-54.5	3.8	1.49e+00	0	57	104	0	54	16150
2026-01-19 23:12:04.48	20.27	6.21	-41.8	-54.5	3.8	1.49e+00	0	57	104	0	54	16168
2026-01-19 23:12:05.49	20.30	6.28	-41.8	-54.5	3.8	1.49e+00	0	57	104	0	54	16134
2026-01-19 23:12:06.50	20.33	6.36	-41.8	-54.5	3.8	1.49e+00	0	57	104	0	54	16137
2026-01-19 23:12:07.51	20.37	6.43	-41.7	-54.4	3.8	1.49e+00	0	57	104	0	54	16123
2026-01-19 23:12:08.52	20.40	6.51	-41.8	-54.5	3.8	1.49e+00	0	57	104	0	54	16181
2026-01-19 23:12:09.53	20.43	6.58	-41.7	-54.5	3.8	1.49e+00	0	57	104	0	54	16161
2026-01-19 23:12:10.54	20.47	6.65	-41.8	-54.5	3.8	1.49e+00	0	57	104	0	54	16159
2026-01-19 23:12:11.55	20.50	6.73	-41.8	-54.4	3.8	1.49e+00	0	57	104	0	54	16099
2026-01-19 23:12:12.57	20.54	6.80	-41.7	-54.4	3.8	1.49e+00	0	57	104	0	54	16088
2026-01-19 23:12:13.57	20.57	6.88	-41.7	-54.4	3.8	1.49e+00	0	57	104	0	54	16046
2026-01-19 23:12:14.58	20.60	6.96	-41.7	-54.4	3.8	1.49e+00	0	57	104	0	54	16068
2026-01-19 23:12:15.60	20.64	7.03	-41.7	-54.4	3.8	1.49e+00	0	57	104	0	54	15985
2026-01-19 23:12:16.61	20.67	7.11	-41.7	-54.4	3.8	1.49e+00	0	57	104	0	54	15949
2026-01-19 23:12:17.62	20.71	7.18	-41.7	-54.3	3.8	1.49e+00	0	57	104	0	54	15846
2026-01-19 23:12:18.63	20.74	7.26	-41.7	-54.3	3.8	1.49e+00	0	57	104	0	54	15786
2026-01-19 23:12:19.64	20.78	7.34	-41.7	-54.1	3.8	1.49e+00	0	57	104	0	54	15563
2026-01-19 23:12:20.65	20.81	7.41	-41.7	-54.0	3.8	1.49e+00	0	57	104	0	54	15371
2026-01-19 23:12:21.66	20.85	7.49	-41.7	-53.8	3.8	1.49e+00	0	57	104	0	54	14882
2026-01-19 23:12:22.67	20.88	7.57	-41.6	-53.2	3.8	1.49e+00	0	57	104	0	54	13927
2026-01-19 23:12:23.68	20.92	7.65	-41.5	-52.5	3.8	1.49e+00	0	58	104	0	54	12869
2026-01-19 23:12:24.69	20.95	7.72	-41.4	-51.0	4.2	1.47e+00	0	57	104	0	54	10803
2026-01-19 23:12:25.70	20.99	7.80	-41.2	-50.4	4.0	1.34e+00	0	58	104	0	54	10095
2026-01-19 23:12:26.71	21.03	7.88	-41.0	-48.5	5.2	6.71e-01	0	57	0	1048576	54	8117
2026-01-19 23:12:27.72	21.06	7.96	-40.7	-47.2	6.1	3.55e-01	0	58	0	4194304	53	7376
2026-01-19 23:12:28.73	21.10	8.04	-40.4	-46.3	6.9	1.89e-01	0	58	0	8388608	52	7044
2026-01-19 23:12:29.74	21.13	8.12	-41.2	-47.5	6.2	1.83e-01	0	58	0	11534336	52	8142
2026-01-19 23:12:30.75	21.17	8.19	-41.6	-53.6	3.8	1.01e+00	0	58	104	12582912	53	15530
2026-01-19 23:12:31.76	21.21	8.27	-39.9	-43.7	10.1	1.34e+00	0	58	104	12582912	51	5591
2026-01-19 23:12:32.77	21.24	8.35	-41.2	-45.7	8.5	1.76e-02	0	58	0	14680064	52	6641
2026-01-19 23:12:33.78	21.28	8.43	-40.8	-47.6	6.1	2.61e-02	0	58	0	17825792	52	8195
2026-01-19 23:12:34.79	21.32	8.51	-40.7	-45.4	8.4	2.52e-01	0	58	0	18874368	52	6392
2026-01-19 23:12:35.79	21.36	8.59	-40.6	-44.8	9.2	2.39e-02	0	58	0	22020096	52	5924
2026-01-19 23:12:36.81	21.40	8.67	-40.4	-44.2	9.8	1.18e-02	0	58	0	25165824	52	5564
2026-01-19 23:12:37.81	21.43	8.75	-40.3	-43.9	10.2	7.32e-03	0	58	0	28311552	52	5373
2026-01-19 23:12:38.82	21.47	8.84	-40.2	-43.6	10.6	3.62e-03	0	58	0	31457280	52	5211
2026-01-19 23:12:39.83	21.51	8.92	-40.3	-43.9	10.3	4.31e-03	0	58	0	34603008	52	5379
2026-01-19 23:12:40.84	21.55	9.00	-40.4	-44.1	10.1	6.35e-03	0	58	0	37748736	52	5475
2026-01-19 23:12:41.85	21.59	9.08	-40.4	-44.0	10.3	6.62e-03	0	58	0	40894464	52	5423
2026-01-19 23:12:42.86	21.63	9.16	-40.2	-43.6	10.8	2.73e-03	0	58	0	44040192	52	5183
2026-01-19 23:12:43.87	21.66	9.25	-40.3	-43.8	10.6	2.73e-03	0	58	0	47185920	52	5311
2026-01-19 23:12:44.88	21.70	9.33	-40.4	-44.0	10.5	5.48e-03	0	58	0	50331648	52	5413
2026-01-19 23:12:45.89	21.74	9.41	-40.0	-43.2	11.2	1.58e-03	0	58	0	53477376	52	4969
2026-01-19 23:12:46.90	21.78	9.49	-40.3	-43.8	10.8	1.95e-03	0	58	0	56623104	52	5286
2026-01-19 23:12:47.91	21.82	9.58	-40.2	-43.6	11.0	2.46e-03	0	59	0	59768832	52	5184
2026-01-19 23:12:48.92	21.86	9.66	-40.2	-43.5	11.1	1.41e-03	0	58	0	62914560	52	5133
2026-01-19 23:12:49.93	21.90	9.75	-40.2	-43.4	11.2	1.45e-03	0	58	0	66060288	52	5072
2026-01-19 23:12:50.94	21.94	9.83	-40.3	-43.6	11.1	1.41e-03	0	59	0	69206016	52	5193
2026-01-19 23:12:51.95	21.98	9.91	-40.2	-43.4	11.3	1.39e-03	0	58	0	72351744	52	5064
2026-01-19 23:12:52.96	22.03	10.00	-40.3	-43.5	11.3	1.03e-03	0	59	0	75497472	52	5129
2026-01-19 23:12:53.97	22.07	10.08	-40.4	-43.6	11.1	1.77e-03	0	58	0	78643200	52	5202
2026-01-19 23:12:54.98	22.11	10.17	-40.4	-43.6	11.2	1.34e-03	0	59	0	81788928	52	5177
2026-01-19 23:12:55.99	22.15	10.26	-40.4	-43.5	11.3	1.18e-03	0	59	0	84934656	52	5143
2026-01-19 23:12:57.00	22.19	10.34	-40.4	-43.5	11.4	1.10e-03	0	58	0	88080384	52	5136
2026-01-19 23:12:58.01	22.23	10.43	-40.3	-43.4	11.5	9.34e-04	0	59	0	91226112	52	5077
2026-01-19 23:12:59.03	22.28	10.52	-40.3	-43.4	11.5	7.34e-04	0	59	0	94371840	52	5043
2026-01-19 23:13:00.04	22.32	10.60	-40.3	-43.3	11.6	7.22e-04	0	59	0	97517568	52	5027
2026-01-19 23:13:01.05	22.36	10.69	-40.3	-43.3	11.6	6.22e-04	0	59	0	100663296	52	5020
2026-01-19 23:13:02.06	22.40	10.78	-40.3	-43.3	11.6	7.22e-04	0	59	0	103809024	52	5011
2026-01-19 23:13:03.07	22.45	10.86	-40.3	-43.3	11.7	5.61e-04	0	59	0	106954752	52	5006
2026-01-19 23:13:04.07	22.49	10.95	-40.3	-43.3	11.8	5.84e-04	0	59	0	110100480	52	4996
2026-01-19 23:13:05.08	22.53	11.04	-40.3	-43.3	11.8	5.09e-04	0	59	0	114294784	52	4998
2026-01-19 23:13:06.09	22.58	11.13	-40.3	-43.2	11.9	4.18e-04	0	59	0	117440512	52	4972
2026-01-19 23:13:07.10	22.62	11.22	-40.3	-43.3	11.8	5.15e-04	0	59	0	119537664	52	4995
2026-01-19 23:13:08.12	22.67	11.31	-40.3	-43.3	11.9	4.07e-04	0	59	0	122683392	52	4994
2026-01-19 23:13:09.12	22.71	11.40	-40.3	-43.2	12.0	3.76e-04	0	59	0	125829120	52	4934
2026-01-19 23:13:10.13	22.76	11.49	-40.3	-43.2	11.9	3.40e-04	0	59	0	130023424	52	4966
2026-01-19 23:13:11.14	22.80	11.58	-40.4	-43.3	11.8	4.50e-04	0	59	0	133169152	52	5028
2026-01-19 23:13:12.16	22.85	11.67	-40.3	-43.3	11.9	3.95e-04	0	59	0	136314880	52	4985
2026-01-19 23:13:13.17	22.89	11.76	-40.3	-43.2	12.0	3.46e-04	0	59	0	139460608	52	4963
2026-01-19 23:13:14.18	22.94	11.85	-40.4	-43.3	11.9	3.69e-04	0	59	0	141557760	52	5006
2026-01-19 23:13:15.19	22.99	11.94	-40.3	-43.2	12.0	3.40e-04	0	59	0	145752064	52	4963
2026-01-19 23:13:16.19	23.03	12.03	-40.2	-43.0	12.2	2.55e-04	0	59	0	148897792	52	4863
2026-01-19 23:13:17.20	23.08	12.13	-40.2	-43.0	12.3	2.00e-04	0	59	0	152043520	52	4837
2026-01-19 23:13:18.21	23.12	12.22	-40.2	-43.0	12.2	2.23e-04	0	59	0	155189248	52	4870
2026-01-19 23:13:19.22	23.17	12.31	-40.2	-43.0	12.2	2.53e-04	0	59	0	158334976	52	4852
2026-01-19 23:13:20.23	23.22	12.40	-40.2	-42.9	12.3	1.72e-04	0	59	0	161480704	52	4811
2026-01-19 23:13:21.24	23.27	12.50	-40.2	-42.9	12.4	1.47e-04	0	59	0	164626432	52	4814
2026-01-19 23:13:22.25	23.31	12.59	-40.2	-42.9	12.4	1.46e-04	0	59	0	167772160	52	4781
2026-01-19 23:13:23.26	23.36	12.69	-40.2	-42.9	12.4	1.44e-04	0	59	0	170917888	52	4800
2026-01-19 23:13:24.27	23.41	12.78	-40.2	-42.9	12.4	1.91e-04	0	59	0	174063616	52	4808
2026-01-19 23:13:25.27	23.46	12.88	-40.2	-42.9	12.4	1.46e-04	0	59	0	177209344	52	4806
2026-01-19 23:13:26.28	23.51	12.97	-40.2	-42.9	12.5	1.40e-04	0	59	0	180355072	52	4794
2026-01-19 23:13:27.29	23.56	13.07	-40.2	-43.0	12.4	1.34e-04	0	60	0	183500800	52	4834
2026-01-19 23:13:28.30	23.61	13.16	-40.2	-42.9	12.4	1.32e-04	0	59	0	186646528	52	4797
2026-01-19 23:13:29.31	23.66	13.26	-40.2	-42.9	12.5	1.18e-04	0	60	0	189792256	52	4798
2026-01-19 23:13:30.32	23.71	13.36	-40.2	-42.9	12.5	1.28e-04	0	60	0	192937984	52	4795
2026-01-19 23:13:31.33	23.76	13.45	-40.2	-42.9	12.6	1.07e-04	0	59	0	196083712	52	4774
2026-01-19 23:13:32.34	23.81	13.55	-40.2	-42.9	12.6	9.61e-05	0	60	0	199229440	52	4772
2026-01-19 23:13:33.35	23.86	13.65	-40.2	-42.8	12.6	1.07e-04	0	59	0	202375168	52	4753
2026-01-19 23:13:34.36	23.91	13.75	-40.2	-42.9	12.6	8.31e-05	0	60	0	205520896	52	4766
2026-01-19 23:13:35.37	23.97	13.85	-40.2	-42.9	12.6	8.46e-05	0	60	0	208666624	52	4774
2026-01-19 23:13:36.38	24.02	13.94	-40.3	-43.0	12.5	1.25e-04	0	60	0	211812352	52	4817
2026-01-19 23:13:37.39	24.07	14.04	-40.2	-42.8	12.7	7.78e-05	0	60	0	214958080	52	4750
2026-01-19 23:13:38.40	24.12	14.14	-40.1	-42.8	12.7	7.70e-05	0	60	0	218103808	52	4723
2026-01-19 23:13:39.41	24.18	14.24	-40.2	-42.8	12.7	7.09e-05	0	60	0	221249536	52	4745
2026-01-19 23:13:40.42	24.23	14.34	-40.2	-42.9	12.6	9.91e-05	0	60	0	224395264	52	4796
2026-01-19 23:13:41.43	24.28	14.45	-40.3	-43.0	12.5	9.99e-05	0	60	0	227540992	52	4828
2026-01-19 23:13:42.44	24.34	14.55	-40.2	-42.9	12.6	6.40e-05	0	60	0	230686720	52	4770
2026-01-19 23:13:43.44	24.39	14.65	-40.2	-42.9	12.7	8.69e-05	0	60	0	233832448	52	4763
2026-01-19 23:13:44.45	24.45	14.75	-40.3	-43.0	12.6	7.78e-05	0	60	0	236978176	52	4815
2026-01-19 23:13:45.47	24.50	14.85	-40.2	-42.8	12.7	8.16e-05	0	60	0	240123904	52	4753
2026-01-19 23:13:46.48	24.56	14.96	-40.2	-42.8	12.7	6.86e-05	0	60	0	243269632	52	4744
2026-01-19 23:13:47.49	24.61	15.06	-40.2	-42.8	12.7	7.78e-05	0	60	0	246415360	52	4759
2026-01-19 23:13:48.50	24.67	15.16	-40.2	-42.9	12.7	6.56e-05	0	60	0	249561088	52	4761
2026-01-19 23:13:49.51	24.73	15.27	-40.2	-42.9	12.7	7.01e-05	0	60	0	252706816	52	4770
2026-01-19 23:13:50.52	24.78	15.37	-40.2	-42.9	12.7	7.17e-05	0	60	0	255852544	52	4781
2026-01-19 23:13:51.53	24.84	15.48	-40.3	-42.9	12.7	8.62e-05	0	60	0	258998272	52	4789
2026-01-19 23:13:52.54	24.90	15.58	-40.2	-42.8	12.8	8.08e-05	0	60	0	262144000	52	4744
2026-01-19 23:13:53.55	24.96	15.69	-40.2	-42.8	12.9	5.95e-05	0	60	0	265289728	52	4712
2026-01-19 23:13:54.56	25.01	15.80	-40.2	-42.8	12.8	5.18e-05	0	60	0	268435456	52	4754
2026-01-19 23:13:55.57	25.07	15.90	-40.2	-42.8	12.8	7.09e-05	0	60	0	271581184	52	4749
2026-01-19 23:13:56.58	25.13	16.01	-40.2	-42.9	12.7	6.63e-05	0	60	0	274726912	52	4761
2026-01-19 23:13:57.58	25.19	16.12	-40.2	-42.8	12.8	5.95e-05	0	60	0	277872640	52	4749
2026-01-19 23:13:58.59	25.25	16.23	-40.1	-42.7	12.9	4.27e-05	0	60	0	281018368	52	4686
2026-01-19 23:13:59.60	25.31	16.34	-40.1	-42.7	12.9	4.50e-05	0	60	0	284164096	52	4678
2026-01-19 23:14:00.61	25.37	16.44	-40.2	-42.8	12.9	6.86e-05	0	60	0	287309824	52	4728
2026-01-19 23:14:01.62	25.43	16.55	-40.2	-42.8	12.8	6.17e-05	0	60	0	290455552	52	4752
2026-01-19 23:14:02.63	25.50	16.66	-40.3	-43.0	12.7	7.40e-05	0	60	0	293601280	52	4837
2026-01-19 23:14:03.65	25.56	16.78	-40.3	-42.9	12.8	6.48e-05	0	60	0	296747008	52	4773
2026-01-19 23:14:04.66	25.62	16.89	-40.3	-42.9	12.8	5.26e-05	0	60	0	299892736	52	4813
2026-01-19 23:14:05.67	25.68	17.00	-40.3	-42.9	12.8	5.49e-05	0	60	0	303038464	52	4805
2026-01-19 23:14:06.68	25.75	17.11	-40.3	-43.0	12.7	6.40e-05	0	60	0	306184192	52	4825
2026-01-19 23:14:07.69	25.81	17.22	-40.3	-42.9	12.8	5.26e-05	0	60	0	309329920	52	4796
2026-01-19 23:14:08.70	25.88	17.34	-40.3	-42.9	12.8	7.24e-05	0	60	0	312475648	52	4791
2026-01-19 23:14:09.71	25.94	17.45	-40.3	-42.9	12.9	4.42e-05	0	60	0	315621376	52	4779
2026-01-19 23:14:10.72	26.01	17.56	-40.4	-43.0	12.8	7.55e-05	0	60	0	318767104	52	4836
2026-01-19 23:14:11.73	26.07	17.68	-40.4	-43.0	12.7	7.09e-05	0	60	0	321912832	52	4867
2026-01-19 23:14:12.74	26.14	17.79	-40.5	-43.1	12.6	1.01e-04	0	60	0	325058560	52	4916
2026-01-19 23:14:13.75	26.21	17.91	-40.5	-43.1	12.7	8.85e-05	0	60	0	328204288	52	4901
2026-01-19 23:14:14.76	26.27	18.03	-40.5	-43.1	12.6	9.84e-05	0	60	0	331350016	52	4914
2026-01-19 23:14:15.77	26.34	18.14	-40.4	-43.0	12.7	6.33e-05	0	60	0	334495744	52	4864
2026-01-19 23:14:16.78	26.41	18.26	-40.4	-43.0	12.8	6.48e-05	0	60	0	337641472	52	4825
2026-01-19 23:14:17.79	26.48	18.38	-40.4	-43.0	12.8	7.24e-05	0	60	0	340787200	52	4852
2026-01-19 23:14:18.80	26.55	18.50	-40.5	-43.1	12.7	7.70e-05	0	60	0	343932928	52	4897
2026-01-19 23:14:19.81	26.62	18.61	-40.5	-43.1	12.6	9.68e-05	0	60	0	347078656	52	4924
2026-01-19 23:14:20.82	26.69	18.73	-40.5	-43.2	12.6	9.38e-05	0	60	0	350224384	52	4952
2026-01-19 23:14:21.83	26.76	18.85	-40.6	-43.2	12.5	8.92e-05	0	60	0	353370112	52	4982
2026-01-19 23:14:22.83	26.83	18.97	-40.5	-43.2	12.6	9.53e-05	0	60	0	356515840	52	4950
2026-01-19 23:14:23.84	26.90	19.09	-40.6	-43.3	12.5	1.04e-04	0	61	0	359661568	52	4991
2026-01-19 23:14:24.85	26.97	19.21	-40.4	-43.1	12.8	7.70e-05	0	60	0	362807296	52	4873
2026-01-19 23:14:25.86	27.04	19.34	-40.4	-43.0	12.8	6.17e-05	0	60	0	365953024	52	4826
2026-01-19 23:14:26.87	27.12	19.46	-40.4	-43.0	12.8	7.70e-05	0	60	0	369098752	52	4854
2026-01-19 23:14:27.88	27.19	19.58	-40.5	-43.1	12.7	8.77e-05	0	60	0	372244480	52	4884
2026-01-19 23:14:28.89	27.26	19.71	-40.4	-43.0	12.8	6.02e-05	0	60	0	375390208	52	4843
2026-01-19 23:14:29.91	27.34	19.83	-40.4	-43.0	12.8	6.17e-05	0	61	0	378535936	52	4842
2026-01-19 23:14:30.91	27.42	19.96	-40.4	-43.0	12.8	6.17e-05	0	61	0	381681664	52	4837
2026-01-19 23:14:31.93	27.49	20.08	-40.4	-43.0	12.9	4.73e-05	0	60	0	384827392	52	4831
2026-01-19 23:14:32.94	27.57	20.21	-40.3	-42.8	13.1	4.04e-05	0	60	0	387973120	52	4727
2026-01-19 23:14:33.95	27.65	20.33	-40.2	-42.7	13.2	2.51e-05	0	60	0	391118848	52	4654
2026-01-19 23:14:34.96	27.72	20.46	-40.2	-42.6	13.2	3.73e-05	0	61	0	394264576	52	4650
2026-01-19 23:14:35.97	27.80	20.59	-40.2	-42.6	13.2	1.83e-05	0	60	0	397410304	52	4650
2026-01-19 23:14:36.98	27.88	20.72	-40.1	-42.4	13.4	1.22e-05	0	60	0	400556032	52	4537
2026-01-19 23:14:37.98	27.96	20.85	-40.0	-42.4	13.5	1.60e-05	0	61	0	403701760	52	4496
2026-01-19 23:14:38.99	28.04	20.98	-40.0	-42.4	13.6	8.30e-06	0	60	0	406847488	51	4765
2026-01-19 23:14:40.00	28.12	21.11	-40.0	-42.3	13.6	4.50e-06	0	60	0	409993216	51	4749
2026-01-19 23:14:41.01	28.20	21.24	-39.9	-42.2	13.8	1.14e-05	0	61	0	413138944	51	4663
2026-01-19 23:14:42.02	28.29	21.37	-39.8	-42.1	13.9	3.00e-06	0	61	0	416284672	51	4616
2026-01-19 23:14:43.03	28.37	21.50	-39.8	-42.0	14.0	1.50e-06	0	61	0	419430400	51	4574
2026-01-19 23:14:44.04	28.45	21.63	-39.8	-42.1	13.9	4.50e-06	0	60	0	422576128	51	4606
2026-01-19 23:14:45.05	28.54	21.77	-39.7	-41.9	14.1	3.00e-06	0	61	0	425721856	51	4524
2026-01-19 23:14:46.06	28.62	21.90	-39.7	-41.9	14.1	1.50e-06	0	61	0	428867584	51	4533
2026-01-19 23:14:47.06	28.71	22.03	-39.7	-41.9	14.1	3.00e-06	0	61	0	432013312	51	4507
2026-01-19 23:14:48.07	28.79	22.17	-39.5	-41.6	14.4	7.00e-07	0	60	0	435159040	51	4372
2026-01-19 23:14:49.08	28.88	22.31	-39.5	-41.5	14.4	1.50e-06	0	60	0	438304768	50	4597
2026-01-19 23:14:50.09	28.97	22.44	-39.5	-41.5	14.5	7.00e-07	0	60	0	441450496	50	4587
2026-01-19 23:14:51.10	29.06	22.58	-39.4	-41.4	14.6	1.50e-06	0	61	0	444596224	50	4528
2026-01-19 23:14:52.11	29.15	22.72	-39.4	-41.4	14.6	0.00e+00	0	61	0	447741952	50	4524
2026-01-19 23:14:53.12	29.24	22.86	-39.4	-41.4	14.6	7.00e-07	0	61	0	450887680	50	4539
2026-01-19 23:14:54.13	29.33	23.00	-39.3	-41.4	14.7	7.00e-07	0	61	0	455081984	50	4497
2026-01-19 23:14:55.14	29.42	23.14	-39.3	-41.4	14.7	0.00e+00	0	60	0	458227712	50	4506
2026-01-19 23:14:56.15	29.51	23.28	-39.4	-41.4	14.7	7.00e-07	0	61	0	460324864	50	4522
2026-01-19 23:14:57.16	29.61	23.42	-39.4	-41.4	14.6	7.00e-07	0	61	0	463470592	50	4534
2026-01-19 23:14:58.17	29.70	23.56	-39.3	-41.3	14.7	0.00e+00	0	60	0	466616320	50	4488
2026-01-19 23:14:59.18	29.80	23.70	-39.3	-41.3	14.7	7.00e-07	0	61	0	470810624	50	4487
2026-01-19 23:15:00.19	29.89	23.85	-39.4	-41.4	14.7	0.00e+00	0	61	0	473956352	50	4530
2026-01-19 23:15:01.20	29.99	23.99	-39.4	-41.4	14.7	0.00e+00	0	61	0	477102080	50	4545
2026-01-19 23:15:02.21	30.09	24.14	-39.4	-41.4	14.7	7.00e-07	0	61	0	480247808	50	4538
2026-01-19 23:15:03.22	30.19	24.28	-39.5	-41.5	14.6	0.00e+00	0	61	0	482344960	50	4589
2026-01-19 23:15:04.23	30.28	24.43	-39.5	-41.6	14.5	0.00e+00	0	61	0	485490688	50	4609
2026-01-19 23:15:05.23	30.38	24.58	-39.6	-41.6	14.5	0.00e+00	0	61	0	489684992	50	4650
2026-01-19 23:15:06.24	30.49	24.72	-39.6	-41.7	14.4	7.00e-07	0	61	0	492830720	50	4700
2026-01-19 23:15:07.25	30.59	24.87	-39.6	-41.7	14.4	7.00e-07	0	61	0	495976448	50	4672
2026-01-19 23:15:08.27	30.69	25.02	-39.6	-41.8	14.4	1.50e-06	0	61	0	499122176	50	4723
2026-01-19 23:15:09.28	30.80	25.17	-39.7	-41.9	14.2	7.00e-07	0	60	0	502267904	50	4779
2026-01-19 23:15:10.29	30.90	25.33	-39.7	-41.8	14.4	1.50e-06	0	61	0	505413632	50	4724
2026-01-19 23:15:11.30	31.01	25.48	-39.7	-41.9	14.3	0.00e+00	0	61	0	508559360	50	4788
2026-01-19 23:15:12.31	31.11	25.63	-39.8	-42.0	14.2	7.00e-07	0	61	0	511705088	50	4822
2026-01-19 23:15:13.32	31.22	25.78	-39.9	-42.1	14.1	3.00e-06	0	61	0	514850816	50	4888
2026-01-19 23:15:14.33	31.33	25.94	-39.9	-42.2	14.0	1.50e-06	0	61	0	517996544	50	4937
2026-01-19 23:15:15.34	31.44	26.09	-39.9	-42.2	14.0	2.20e-06	0	61	0	521142272	50	4937
2026-01-19 23:15:16.35	31.55	26.25	-39.9	-42.1	14.0	3.00e-06	0	61	0	524288000	50	4924
2026-01-19 23:15:17.35	31.66	26.40	-40.0	-42.3	13.9	4.50e-06	0	61	0	527433728	50	5012
2026-01-19 23:15:18.37	31.78	26.56	-40.2	-42.5	13.7	3.00e-06	0	61	0	530579456	50	5110
2026-01-19 23:15:19.38	31.89	26.72	-40.2	-42.5	13.6	8.30e-06	0	61	0	533725184	50	5144
2026-01-19 23:15:20.38	32.00	26.88	-40.3	-42.6	13.6	9.90e-06	0	61	0	536870912	51	4906
2026-01-19 23:15:21.40	32.12	27.04	-40.3	-42.7	13.5	1.52e-05	0	61	0	540016640	51	4946
2026-01-19 23:15:22.40	32.24	27.20	-40.3	-42.7	13.4	8.30e-06	0	61	0	543162368	51	4969
2026-01-19 23:15:23.42	32.36	27.36	-40.3	-42.7	13.4	1.06e-05	0	61	0	546308096	51	4978
2026-01-19 23:15:24.42	32.48	27.52	-40.3	-42.7	13.5	1.06e-05	0	61	0	549453824	51	4936
2026-01-19 23:15:25.43	32.60	27.69	-40.4	-42.8	13.4	2.13e-05	0	61	0	552599552	51	5007
2026-01-19 23:15:26.44	32.72	27.85	-40.4	-42.8	13.3	1.98e-05	0	61	0	555745280	51	5023
2026-01-19 23:15:27.45	32.84	28.02	-40.4	-42.9	13.3	1.67e-05	0	61	0	558891008	51	5048
2026-01-19 23:15:28.46	32.97	28.18	-40.4	-42.8	13.4	1.90e-05	0	61	0	562036736	51	4985
2026-01-19 23:15:29.47	33.09	28.35	-40.4	-42.8	13.4	1.52e-05	0	61	0	565182464	51	4992
2026-01-19 23:15:30.48	33.22	28.52	-40.3	-42.7	13.5	1.60e-05	0	61	0	568328192	51	4960
2026-01-19 23:15:31.49	33.35	28.69	-40.4	-42.8	13.4	1.06e-05	0	61	0	571473920	51	4987
2026-01-19 23:15:32.50	33.48	28.86	-40.4	-42.7	13.4	1.22e-05	0	61	0	574619648	51	4973
2026-01-19 23:15:33.51	33.61	29.03	-40.4	-42.7	13.4	9.90e-06	0	61	0	577765376	51	4982
2026-01-19 23:15:34.52	33.74	29.20	-40.4	-42.9	13.3	2.36e-05	0	61	0	580911104	51	5045
2026-01-19 23:15:35.53	33.88	29.37	-40.3	-42.7	13.5	1.60e-05	0	61	0	584056832	51	4969
2026-01-19 23:15:36.54	34.01	29.54	-40.3	-42.7	13.5	1.22e-05	0	61	0	587202560	51	4954
2026-01-19 23:15:37.55	34.15	29.72	-40.4	-42.8	13.4	1.44e-05	0	61	0	590348288	51	5018
2026-01-19 23:15:38.55	34.28	29.89	-40.4	-42.8	13.4	1.83e-05	0	61	0	593494016	51	5019
2026-01-19 23:15:39.56	34.42	30.06	-40.4	-42.8	13.4	1.60e-05	0	61	0	596639744	51	5015
2026-01-19 23:15:40.57	34.56	30.24	-40.4	-42.8	13.4	1.06e-05	0	61	0	599785472	51	5003
2026-01-19 23:15:41.58	34.71	30.42	-40.3	-42.6	13.6	1.22e-05	0	61	0	602931200	51	4899
2026-01-19 23:15:42.59	34.85	30.60	-40.2	-42.6	13.6	7.60e-06	0	61	0	606076928	51	4885
2026-01-19 23:15:43.60	35.00	30.78	-40.3	-42.6	13.5	6.10e-06	0	61	0	609222656	51	4925
2026-01-19 23:15:44.61	35.14	30.96	-40.2	-42.5	13.7	9.10e-06	0	61	0	612368384	51	4861
2026-01-19 23:15:45.62	35.29	31.14	-40.2	-42.5	13.7	3.80e-06	0	61	0	615514112	51	4849
2026-01-19 23:15:46.63	35.44	31.32	-40.1	-42.3	13.9	4.50e-06	0	61	0	618659840	51	4749
2026-01-19 23:15:47.64	35.59	31.50	-40.1	-42.3	13.9	2.20e-06	0	61	0	621805568	51	4752
2026-01-19 23:15:48.64	35.75	31.68	-40.1	-42.4	13.8	7.00e-07	0	62	0	624951296	51	4788
2026-01-19 23:15:49.65	35.90	31.87	-40.2	-42.5	13.8	2.20e-06	0	61	0	628097024	51	4823
2026-01-19 23:15:50.66	36.06	32.05	-40.2	-42.6	13.7	5.30e-06	0	61	0	631242752	51	4881
2026-01-19 23:15:51.67	36.22	32.24	-40.3	-42.6	13.6	6.10e-06	0	61	0	634388480	51	4921
2026-01-19 23:15:52.68	36.38	32.43	-40.2	-42.5	13.7	3.80e-06	0	61	0	637534208	51	4858
2026-01-19 23:15:53.69	36.54	32.62	-40.3	-42.6	13.6	8.30e-06	0	61	0	640679936	51	4915
2026-01-19 23:15:54.70	36.71	32.81	-40.3	-42.6	13.6	7.00e-07	0	61	0	643825664	51	4916
2026-01-19 23:15:55.71	36.87	33.00	-40.2	-42.5	13.7	9.10e-06	0	61	0	646971392	51	4860
2026-01-19 23:15:56.72	37.04	33.19	-40.3	-42.6	13.6	9.10e-06	0	61	0	650117120	51	4907
2026-01-19 23:15:57.73	37.21	33.38	-40.3	-42.7	13.6	4.50e-06	0	61	0	653262848	51	4931
2026-01-19 23:15:58.74	37.38	33.57	-40.5	-42.9	13.3	1.44e-05	0	61	0	656408576	51	5081
2026-01-19 23:15:59.75	37.56	33.77	-40.7	-43.2	13.1	1.83e-05	0	61	0	659554304	51	5222
2026-01-19 23:16:00.76	37.73	33.96	-40.8	-43.3	12.9	5.49e-05	0	61	0	662700032	52	5030
2026-01-19 23:16:01.77	37.91	34.16	-40.9	-43.6	12.6	6.56e-05	0	61	0	665845760	52	5169
2026-01-19 23:16:02.78	38.09	34.36	-41.2	-44.0	12.3	1.28e-04	0	62	0	668991488	52	5416
2026-01-19 23:16:03.80	38.28	34.56	-41.3	-44.1	12.0	2.62e-04	0	61	0	672137216	53	5216
2026-01-19 23:16:04.80	38.46	34.76	-41.4	-44.4	11.7	5.00e-04	0	61	0	675282944	53	5359
2026-01-19 23:16:05.81	38.65	34.96	-41.5	-44.5	11.7	5.87e-04	0	61	0	678428672	53	5443
2026-01-19 23:16:06.82	38.84	35.16	-41.5	-44.6	11.6	7.05e-04	0	61	0	681574400	53	5478
2026-01-19 23:16:07.83	39.03	35.36	-41.6	-44.6	11.5	7.39e-04	0	61	0	684720128	53	5517
2026-01-19 23:16:08.84	39.22	35.56	-41.6	-44.7	11.4	9.57e-04	0	61	0	687865856	53	5576
2026-01-19 23:16:09.85	39.42	35.77	-41.5	-44.4	11.7	7.06e-04	0	61	0	691011584	53	5399
2026-01-19 23:16:10.86	39.62	35.97	-41.5	-44.5	11.7	6.06e-04	0	61	0	694157312	53	5425
2026-01-19 23:16:11.87	39.82	36.18	-41.5	-44.5	11.6	5.61e-04	0	61	0	697303040	53	5433
2026-01-19 23:16:12.88	40.02	36.38	-41.4	-44.3	11.9	4.45e-04	0	61	0	700448768	53	5309
2026-01-19 23:16:13.89	40.23	36.59	-41.3	-44.2	12.0	3.58e-04	0	62	0	703594496	53	5263
2026-01-19 23:16:14.90	40.44	36.80	-41.3	-44.2	12.0	3.07e-04	0	61	0	706740224	53	5270
2026-01-19 23:16:15.91	40.65	37.01	-41.4	-44.3	11.9	3.07e-04	0	61	0	709885952	53	5292
2026-01-19 23:16:16.92	40.86	37.22	-41.3	-44.2	12.0	3.38e-04	0	61	0	713031680	53	5254
2026-01-19 23:16:17.93	41.08	37.43	-41.3	-44.2	12.0	3.55e-04	0	61	0	716177408	53	5270
2026-01-19 23:16:18.93	41.30	37.64	-41.3	-44.1	12.1	3.30e-04	0	61	0	719323136	53	5189
2026-01-19 23:16:19.94	41.52	37.85	-41.3	-44.1	12.1	2.78e-04	0	61	0	722468864	53	5217
2026-01-19 23:16:20.95	41.74	38.07	-41.2	-43.9	12.3	1.73e-04	0	62	0	725614592	53	5073
2026-01-19 23:16:21.96	41.97	38.28	-41.1	-43.8	12.4	1.75e-04	0	61	0	728760320	53	5011
2026-01-19 23:16:22.97	42.20	38.50	-41.0	-43.7	12.5	1.39e-04	0	61	0	731906048	53	4944
2026-01-19 23:16:23.98	42.44	38.71	-41.1	-43.8	12.4	1.42e-04	0	61	0	735051776	53	5037
2026-01-19 23:16:24.99	42.68	38.93	-41.3	-44.1	12.1	2.26e-04	0	61	0	738197504	53	5177
2026-01-19 23:16:26.00	42.92	39.15	-41.5	-44.6	11.7	4.86e-04	0	61	0	741343232	53	5474
2026-01-19 23:16:27.01	43.16	39.37	-41.6	-44.6	11.6	6.99e-04	0	61	0	744488960	53	5523
2026-01-19 23:16:28.02	43.41	39.59	-41.6	-44.7	11.4	9.75e-04	0	61	0	747634688	53	5573
2026-01-19 23:16:29.03	43.66	39.81	-41.6	-44.6	11.5	7.29e-04	0	61	0	750780416	53	5526
2026-01-19 23:16:30.04	43.91	40.03	-41.7	-44.8	11.4	8.03e-04	0	61	0	753926144	53	5607
2026-01-19 23:16:31.05	44.17	40.25	-41.6	-44.6	11.6	7.90e-04	0	61	0	757071872	53	5513
2026-01-19 23:16:32.06	44.43	40.48	-41.7	-44.7	11.4	8.29e-04	0	61	0	760217600	53	5581
2026-01-19 23:16:33.07	44.69	40.70	-41.7	-44.8	11.4	1.02e-03	0	61	0	763363328	54	5308
2026-01-19 23:16:34.08	44.96	40.93	-41.9	-45.1	11.2	1.44e-03	0	61	0	766509056	54	5468
2026-01-19 23:16:35.09	45.23	41.15	-41.9	-45.1	11.2	1.37e-03	0	61	0	769654784	54	5487
2026-01-19 23:16:36.10	45.51	41.38	-41.8	-45.0	11.2	1.37e-03	0	61	0	772800512	54	5403
2026-01-19 23:16:37.11	45.79	41.60	-41.9	-45.2	11.0	1.84e-03	0	61	0	775946240	54	5569
2026-01-19 23:16:38.12	46.07	41.83	-42.0	-45.4	10.8	2.34e-03	0	61	0	779091968	54	5678
2026-01-19 23:16:39.13	46.36	42.06	-42.0	-45.3	10.9	2.36e-03	0	61	0	782237696	54	5617
2026-01-19 23:16:40.14	46.65	42.29	-42.0	-45.3	10.9	2.15e-03	0	61	0	785383424	54	5611
2026-01-19 23:16:41.15	46.94	42.52	-41.9	-45.1	11.2	1.61e-03	0	61	0	788529152	54	5469
2026-01-19 23:16:42.16	47.24	42.75	-41.9	-45.1	11.2	1.75e-03	0	61	0	791674880	54	5477
2026-01-19 23:16:43.17	47.55	42.98	-42.0	-45.2	11.0	1.79e-03	0	62	0	794820608	54	5554
2026-01-19 23:16:44.18	47.85	43.21	-42.1	-45.6	10.7	2.63e-03	0	62	0	797966336	54	5795
2026-01-19 23:16:45.19	48.17	43.44	-42.2	-45.7	10.5	4.13e-03	0	62	0	801112064	55	5572
2026-01-19 23:16:46.20	48.48	43.67	-42.2	-45.7	10.5	4.20e-03	0	61	0	804257792	55	5563
2026-01-19 23:16:47.21	48.81	43.91	-42.2	-45.7	10.6	3.46e-03	0	61	0	807403520	55	5536
2026-01-19 23:16:48.22	49.13	44.14	-42.1	-45.4	10.8	2.60e-03	0	62	0	810549248	55	5382
2026-01-19 23:16:49.23	49.46	44.37	-42.1	-45.4	10.8	2.41e-03	0	61	0	814743552	55	5399
2026-01-19 23:16:50.24	49.80	44.61	-42.0	-45.2	11.0	1.79e-03	0	62	0	817889280	55	5272
2026-01-19 23:16:51.25	50.14	44.84	-42.0	-45.2	11.0	1.79e-03	0	61	0	821035008	55	5256
2026-01-19 23:16:52.26	50.48	45.07	-41.9	-45.0	11.2	1.52e-03	0	61	0	823132160	55	5148
2026-01-19 23:16:53.27	50.84	45.31	-41.7	-44.8	11.5	8.78e-04	0	62	0	826277888	55	5016
2026-01-19 23:16:54.28	51.19	45.54	-41.6	-44.6	11.7	6.50e-04	0	62	0	829423616	55	4896
2026-01-19 23:16:55.29	51.55	45.78	-41.6	-44.6	11.6	6.19e-04	0	61	0	833617920	55	4901
2026-01-19 23:16:56.30	51.92	46.01	-41.5	-44.4	11.8	4.64e-04	0	61	0	836763648	55	4790
2026-01-19 23:16:57.31	52.29	46.25	-41.5	-44.4	11.9	5.05e-04	0	62	0	839909376	55	4786
2026-01-19 23:16:58.32	52.67	46.48	-41.7	-44.7	11.5	6.94e-04	0	62	0	843055104	54	5240
2026-01-19 23:16:59.33	53.05	46.72	-41.7	-44.8	11.4	9.80e-04	0	62	0	846200832	54	5297
2026-01-19 23:17:00.33	53.44	46.95	-41.8	-44.9	11.3	1.08e-03	0	62	0	849346560	54	5363
2026-01-19 23:17:01.34	53.83	47.19	-41.9	-45.0	11.2	1.47e-03	0	62	0	852492288	54	5459
2026-01-19 23:17:02.36	54.24	47.43	-41.8	-44.9	11.3	1.20e-03	0	62	0	855638016	54	5394
2026-01-19 23:17:03.36	54.64	47.66	-41.7	-44.7	11.5	1.11e-03	0	62	0	858783744	54	5259
2026-01-19 23:17:04.37	55.05	47.89	-41.6	-44.6	11.6	6.87e-04	0	62	0	861929472	54	5207
2026-01-19 23:17:05.38	55.47	48.13	-41.5	-44.4	11.9	5.40e-04	0	61	0	865075200	54	5057
2026-01-19 23:17:06.39	55.90	48.36	-41.4	-44.1	12.1	2.96e-04	0	62	0	868220928	54	4925
2026-01-19 23:17:07.40	56.33	48.59	-41.3	-44.1	12.2	2.17e-04	0	62	0	871366656	54	4895
2026-01-19 23:17:08.41	56.77	48.83	-41.3	-44.1	12.2	2.23e-04	0	61	0	874512384	54	4881
2026-01-19 23:17:09.42	57.21	49.06	-41.2	-43.9	12.5	1.47e-04	0	61	0	877658112	54	4780
2026-01-19 23:17:10.43	57.66	49.29	-41.1	-43.8	12.5	1.39e-04	0	62	0	880803840	54	4735
2026-01-19 23:17:11.44	58.12	49.52	-41.2	-43.8	12.4	1.18e-04	0	61	0	883949568	54	4759
2026-01-19 23:17:12.45	58.59	49.75	-41.1	-43.7	12.6	9.23e-05	0	61	0	887095296	54	4695
2026-01-19 23:17:13.45	59.05	49.98	-41.2	-43.9	12.4	1.19e-04	0	62	0	890241024	54	4793
2026-01-19 23:17:14.46	59.53	50.21	-41.2	-43.8	12.5	1.04e-04	0	61	0	893386752	54	4750
2026-01-19 23:17:15.47	60.02	50.44	-41.3	-44.1	12.3	1.36e-04	0	62	0	896532480	54	4878
2026-01-19 23:17:16.49	60.52	50.66	-41.3	-44.0	12.3	1.50e-04	0	62	0	899678208	54	4850
2026-01-19 23:17:17.50	61.02	50.89	-41.3	-44.1	12.2	1.76e-04	0	62	0	902823936	54	4877
2026-01-19 23:17:18.51	61.53	51.11	-41.4	-44.2	12.1	2.60e-04	0	62	0	905969664	54	4980
2026-01-19 23:17:19.52	62.05	51.34	-41.6	-44.6	11.7	5.58e-04	0	61	0	909115392	54	5172
2026-01-19 23:17:20.53	62.57	51.56	-41.6	-44.6	11.7	6.35e-04	0	62	0	912261120	54	5175
2026-01-19 23:17:21.54	63.10	51.78	-41.5	-44.4	12.0	3.84e-04	0	61	0	915406848	54	5081
2026-01-19 23:17:22.55	63.64	52.00	-41.4	-44.2	12.1	2.32e-04	0	61	0	918552576	54	4963
2026-01-19 23:17:23.55	64.18	52.21	-41.3	-44.0	12.3	1.90e-04	0	61	0	921698304	54	4832
2026-01-19 23:17:24.56	64.74	52.43	-41.2	-43.8	12.5	1.42e-04	0	62	0	924844032	54	4753
2026-01-19 23:17:25.57	65.30	52.64	-41.1	-43.7	12.6	1.03e-04	0	62	0	927989760	54	4702
2026-01-19 23:17:26.58	65.88	52.85	-41.2	-43.9	12.5	9.15e-05	0	61	0	931135488	54	4768
2026-01-19 23:17:27.59	66.46	53.06	-40.9	-43.4	12.9	5.11e-05	0	62	0	934281216	53	4790
2026-01-19 23:17:28.60	67.04	53.27	-40.9	-43.4	13.0	4.19e-05	0	62	0	937426944	53	4790
2026-01-19 23:17:29.61	67.64	53.47	-40.7	-43.2	13.1	2.67e-05	0	61	0	940572672	53	4660
2026-01-19 23:17:30.62	68.25	53.68	-40.9	-43.4	12.8	3.28e-05	0	62	0	943718400	53	4789
2026-01-19 23:17:31.63	68.86	53.88	-41.0	-43.6	12.7	7.93e-05	0	62	0	946864128	53	4905
2026-01-19 23:17:32.64	69.48	54.08	-41.2	-43.9	12.4	1.09e-04	0	61	0	950009856	53	5050
2026-01-19 23:17:33.65	70.11	54.27	-41.1	-43.7	12.5	1.24e-04	0	61	0	953155584	53	4972
2026-01-19 23:17:34.66	70.75	54.46	-40.9	-43.5	12.8	7.09e-05	0	61	0	956301312	53	4843
2026-01-19 23:17:35.67	71.40	54.65	-40.9	-43.4	12.9	3.89e-05	0	62	0	959447040	53	4789
2026-01-19 23:17:36.68	72.06	54.84	-40.8	-43.3	13.1	4.04e-05	0	61	0	962592768	53	4720
2026-01-19 23:17:37.69	72.72	55.02	-40.9	-43.4	13.0	3.66e-05	0	62	0	965738496	53	4774
2026-01-19 23:17:38.70	73.40	55.20	-40.8	-43.3	13.0	3.50e-05	0	62	0	968884224	53	4734
2026-01-19 23:17:39.70	74.07	55.38	-40.8	-43.3	13.0	3.12e-05	0	62	0	972029952	53	4755
2026-01-19 23:17:40.71	74.76	55.55	-40.6	-43.0	13.4	1.22e-05	0	62	0	975175680	53	4572
2026-01-19 23:17:41.73	75.47	55.73	-40.3	-42.5	13.9	6.80e-06	0	61	0	978321408	52	4577
2026-01-19 23:17:42.73	76.17	55.89	-40.4	-42.7	13.7	4.50e-06	0	62	0	981467136	52	4678
2026-01-19 23:17:43.75	76.89	56.06	-40.4	-42.7	13.7	9.10e-06	0	62	0	984612864	52	4693
2026-01-19 23:17:44.76	77.61	56.21	-40.6	-43.1	13.3	1.83e-05	0	62	0	987758592	52	4891
2026-01-19 23:17:45.76	78.34	56.37	-40.8	-43.3	13.1	3.73e-05	0	62	0	990904320	52	5005
2026-01-19 23:17:46.77	79.08	56.52	-40.2	-42.5	14.0	4.50e-06	0	62	0	994050048	52	4548
2026-01-19 23:17:47.78	79.83	56.67	-39.9	-41.9	14.6	1.50e-06	0	62	0	997195776	51	4516
2026-01-19 23:17:48.79	80.58	56.81	-39.9	-41.9	14.6	0.00e+00	0	61	0	1000341504	51	4527
2026-01-19 23:17:49.80	81.35	56.95	-39.9	-42.0	14.5	0.00e+00	0	62	0	1003487232	51	4590
2026-01-19 23:17:50.81	82.12	57.08	-40.0	-42.0	14.4	0.00e+00	0	62	0	1006632960	51	4598
2026-01-19 23:17:51.82	82.90	57.21	-39.8	-41.9	14.6	0.00e+00	0	62	0	1009778688	51	4494
2026-01-19 23:17:52.83	83.69	57.33	-39.6	-41.6	14.9	0.00e+00	0	62	0	1012924416	51	4348
2026-01-19 23:17:53.84	84.48	57.45	-39.7	-41.7	14.8	0.00e+00	0	62	0	1016070144	51	4411
2026-01-19 23:17:54.85	85.28	57.57	-39.8	-41.9	14.6	0.00e+00	0	62	0	1019215872	51	4496
2026-01-19 23:17:55.85	86.08	57.68	-39.9	-42.0	14.5	3.00e-06	0	62	0	1022361600	51	4572
2026-01-19 23:17:56.86	86.89	57.78	-40.1	-42.2	14.3	2.20e-06	0	61	0	1025507328	51	4684
2026-01-19 23:17:57.87	87.71	57.88	-40.3	-42.6	13.9	2.20e-06	0	62	0	1028653056	51	4899
2026-01-19 23:17:58.88	88.54	57.97	-40.4	-42.7	13.8	4.50e-06	0	62	0	1031798784	51	4945
2026-01-19 23:17:59.89	89.37	58.06	-40.1	-42.3	14.2	0.00e+00	0	62	0	1034944512	51	4713
2026-01-19 23:18:00.90	90.20	58.15	-39.8	-41.8	14.7	0.00e+00	0	62	0	1038090240	51	4482
2026-01-19 23:18:01.91	91.04	58.22	-39.9	-42.0	14.5	1.50e-06	0	62	0	1041235968	51	4587
2026-01-19 23:18:02.92	91.89	58.29	-40.0	-42.1	14.4	0.00e+00	0	62	0	1044381696	51	4631
2026-01-19 23:18:03.93	92.74	58.36	-39.9	-42.0	14.4	0.00e+00	0	62	0	1047527424	51	4582
2026-01-19 23:18:04.94	93.59	58.42	-39.8	-41.8	14.6	0.00e+00	0	62	0	1050673152	51	4485
2026-01-19 23:18:05.94	94.44	58.47	-39.8	-41.9	14.6	0.00e+00	0	61	0	1053818880	51	4494
2026-01-19 23:18:06.95	95.30	58.52	-39.8	-41.8	14.7	0.00e+00	0	62	0	1056964608	51	4461
2026-01-19 23:18:07.97	96.18	58.57	-39.6	-41.6	14.8	0.00e+00	0	62	0	1060110336	51	4390
2026-01-19 23:18:08.97	97.04	58.60	-39.6	-41.6	14.9	0.00e+00	0	62	0	1063256064	51	4369
2026-01-19 23:18:09.98	97.90	58.63	-39.8	-41.9	14.6	7.00e-07	0	62	0	1066401792	51	4508
2026-01-19 23:18:10.99	98.78	58.66	-40.1	-42.2	14.1	7.00e-07	0	62	0	1069547520	51	4682
2026-01-19 23:18:12.00	99.65	58.68	-40.0	-42.2	14.0	3.80e-06	0	62	0	1072693248	51	4684
2026-01-19 23:18:13.01	100.52	58.69	-40.0	-42.2	14.2	2.20e-06	0	62	0	1075838976	51	4664
2026-01-19 23:18:14.02	101.40	58.70	-40.0	-42.1	14.3	7.00e-07	0	62	0	1078984704	51	4616
2026-01-19 23:18:15.03	102.27	58.70	-40.0	-42.1	14.3	1.50e-06	0	62	0	1082130432	51	4613
2026-01-19 23:18:16.04	103.14	58.69	-39.8	-41.9	14.4	0.00e+00	0	62	0	1085276160	51	4507
2026-01-19 23:18:17.05	104.02	58.68	-39.7	-41.7	14.6	7.00e-07	0	62	0	1088421888	51	4417
2026-01-19 23:18:18.06	104.89	58.66	-39.6	-41.6	14.7	7.00e-07	0	62	0	1091567616	51	4359
2026-01-19 23:18:19.07	105.76	58.64	-39.6	-41.6	14.7	0.00e+00	0	62	0	1094713344	51	4354
2026-01-19 23:18:20.08	106.63	58.61	-40.0	-42.1	14.1	2.20e-06	0	61	0	1097859072	51	4616
2026-01-19 23:18:21.09	107.50	58.57	-40.1	-42.3	14.0	4.50e-06	0	62	0	1101004800	51	4733
2026-01-19 23:18:22.10	108.36	58.53	-40.0	-42.1	14.2	1.50e-06	0	62	0	1104150528	51	4629
2026-01-19 23:18:23.11	109.23	58.48	-40.0	-42.1	14.2	1.50e-06	0	62	0	1107296256	51	4625
2026-01-19 23:18:24.12	110.09	58.43	-40.3	-42.5	13.9	1.50e-06	0	62	0	1110441984	51	4840
2026-01-19 23:18:25.13	110.94	58.37	-40.1	-42.3	14.0	3.80e-06	0	62	0	1113587712	51	4739
2026-01-19 23:18:26.14	111.79	58.30	-40.1	-42.3	14.1	1.50e-06	0	62	0	1116733440	51	4722
2026-01-19 23:18:27.15	112.64	58.23	-40.1	-42.3	14.1	2.20e-06	0	62	0	1119879168	51	4736
2026-01-19 23:18:28.16	113.48	58.16	-40.4	-42.7	13.7	3.80e-06	0	62	0	1123024896	51	4951
2026-01-19 23:18:29.17	114.32	58.07	-40.3	-42.6	13.9	4.50e-06	0	62	0	1126170624	51	4874
2026-01-19 23:18:30.18	115.15	57.99	-39.8	-41.9	14.5	7.00e-07	0	62	0	1129316352	51	4498
2026-01-19 23:18:31.19	115.98	57.89	-40.0	-42.2	14.2	7.00e-07	0	62	0	1132462080	51	4658
2026-01-19 23:18:32.20	116.80	57.79	-40.3	-42.5	13.9	3.00e-06	0	62	0	1135607808	51	4837
2026-01-19 23:18:33.21	117.61	57.69	-40.3	-42.5	13.9	2.20e-06	0	62	0	1138753536	51	4868
2026-01-19 23:18:34.22	118.42	57.58	-40.1	-42.3	14.1	1.50e-06	0	62	0	1141899264	51	4726
2026-01-19 23:18:35.23	119.23	57.47	-40.2	-42.4	14.0	2.20e-06	0	62	0	1145044992	51	4810
2026-01-19 23:18:36.24	120.02	57.35	-40.2	-42.4	14.0	3.00e-06	0	62	0	1148190720	51	4791
2026-01-19 23:18:37.25	120.81	57.22	-40.3	-42.5	14.0	2.20e-06	0	61	0	1151336448	51	4841
2026-01-19 23:18:38.26	121.59	57.10	-40.3	-42.5	13.9	2.20e-06	0	62	0	1154482176	51	4850
2026-01-19 23:18:39.27	122.36	56.96	-40.6	-42.9	13.5	1.22e-05	0	62	0	1157627904	51	5091
2026-01-19 23:18:40.28	123.13	56.82	-40.7	-43.1	13.2	2.21e-05	0	62	0	1160773632	52	4919
2026-01-19 23:18:41.29	123.89	56.68	-40.5	-42.8	13.6	6.80e-06	0	62	0	1163919360	52	4723
2026-01-19 23:18:42.29	124.63	56.54	-40.4	-42.8	13.5	1.37e-05	0	62	0	1167065088	52	4736
2026-01-19 23:18:43.30	125.37	56.39	-40.5	-42.9	13.4	8.30e-06	0	61	0	1170210816	52	4765
2026-01-19 23:18:44.32	126.12	56.23	-40.6	-43.0	13.3	2.67e-05	0	62	0	1173356544	52	4834
2026-01-19 23:18:45.33	126.84	56.07	-40.6	-43.1	13.3	1.90e-05	0	62	0	1176502272	52	4871
2026-01-19 23:18:46.34	127.56	55.91	-40.9	-43.4	12.9	2.51e-05	0	62	0	1180696576	52	5079
2026-01-19 23:18:47.35	128.27	55.74	-41.0	-43.7	12.6	7.17e-05	0	62	0	1183842304	52	5245
2026-01-19 23:18:48.36	128.97	55.57	-40.8	-43.4	12.9	6.33e-05	0	62	0	1186988032	52	5081
2026-01-19 23:18:49.37	129.66	55.40	-40.6	-43.0	13.4	1.67e-05	0	62	0	1189085184	52	4818
2026-01-19 23:18:50.38	130.35	55.22	-40.5	-42.8	13.4	9.10e-06	0	62	0	1192230912	52	4754
2026-01-19 23:18:51.39	131.02	55.04	-41.0	-43.6	12.7	3.89e-05	0	62	0	1196425216	52	5190
2026-01-19 23:18:52.40	131.69	54.85	-41.2	-43.9	12.4	1.34e-04	0	62	0	1199570944	53	5053
2026-01-19 23:18:53.41	132.35	54.67	-41.0	-43.7	12.6	1.32e-04	0	62	0	1202716672	53	4947
2026-01-19 23:18:54.41	132.99	54.48	-41.0	-43.7	12.6	8.39e-05	0	62	0	1205862400	53	4930
2026-01-19 23:18:55.42	133.63	54.29	-41.1	-43.8	12.5	1.52e-04	0	62	0	1209008128	53	4991
2026-01-19 23:18:56.43	134.27	54.09	-40.9	-43.4	12.8	7.09e-05	0	62	0	1212153856	53	4809
2026-01-19 23:18:57.44	134.89	53.89	-40.6	-43.0	13.3	1.67e-05	0	62	0	1215299584	53	4567
2026-01-19 23:18:58.45	135.51	53.69	-40.7	-43.1	13.2	2.44e-05	0	62	0	1218445312	53	4609
2026-01-19 23:18:59.47	136.12	53.49	-40.8	-43.3	13.0	4.42e-05	0	62	0	1221591040	53	4742
2026-01-19 23:19:00.47	136.71	53.28	-40.7	-43.2	13.1	2.97e-05	0	62	0	1224736768	53	4658
2026-01-19 23:19:01.48	137.30	53.07	-40.9	-43.5	12.9	3.35e-05	0	62	0	1227882496	53	4818
2026-01-19 23:19:02.49	137.89	52.86	-41.3	-44.1	12.2	1.93e-04	0	62	0	1231028224	53	5163
2026-01-19 23:19:03.50	138.46	52.65	-41.4	-44.3	11.9	4.44e-04	0	62	0	1234173952	53	5336
2026-01-19 23:19:04.51	139.03	52.44	-41.2	-44.0	12.2	2.54e-04	0	62	0	1237319680	53	5115
2026-01-19 23:19:05.52	139.59	52.22	-41.1	-43.7	12.5	1.30e-04	0	62	0	1240465408	53	4968
2026-01-19 23:19:06.53	140.14	52.00	-41.1	-43.8	12.3	1.82e-04	0	62	0	1243611136	53	5037
2026-01-19 23:19:07.54	140.68	51.78	-41.2	-43.9	12.3	2.02e-04	0	62	0	1246756864	53	5052
2026-01-19 23:19:08.55	141.21	51.56	-41.0	-43.5	12.7	1.11e-04	0	62	0	1249902592	53	4858
2026-01-19 23:19:09.56	141.74	51.34	-40.9	-43.5	12.7	7.55e-05	0	62	0	1253048320	53	4859
2026-01-19 23:19:10.57	142.26	51.12	-41.3	-44.1	12.2	2.19e-04	0	62	0	1256194048	53	5170
2026-01-19 23:19:11.58	142.77	50.89	-41.4	-44.2	12.0	2.84e-04	0	62	0	1259339776	53	5251
2026-01-19 23:19:12.59	143.27	50.67	-41.3	-44.1	12.1	3.26e-04	0	62	0	1262485504	53	5218
2026-01-19 23:19:13.60	143.77	50.44	-41.3	-44.0	12.1	2.23e-04	0	62	0	1265631232	53	5154
2026-01-19 23:19:14.61	144.25	50.21	-41.5	-44.4	11.8	4.43e-04	0	62	0	1268776960	53	5349
2026-01-19 23:19:15.62	144.74	49.98	-41.4	-44.3	11.8	5.39e-04	0	62	0	1271922688	53	5338
2026-01-19 23:19:16.63	145.21	49.75	-41.3	-44.1	12.1	3.16e-04	0	62	0	1275068416	53	5182
2026-01-19 23:19:17.64	145.68	49.52	-41.3	-44.2	12.1	2.62e-04	0	62	0	1278214144	53	5223
2026-01-19 23:19:18.65	146.14	49.29	-41.5	-44.5	11.8	4.20e-04	0	62	0	1281359872	53	5406
2026-01-19 23:19:19.66	146.59	49.05	-42.0	-45.2	11.0	1.27e-03	0	62	0	1284505600	54	5560
2026-01-19 23:19:20.68	147.04	48.82	-42.2	-45.8	10.4	3.61e-03	0	62	0	1287651328	55	5599
2026-01-19 23:19:21.69	147.48	48.58	-42.5	-46.4	9.8	9.65e-03	0	62	0	1290797056	55	6009
2026-01-19 23:19:22.70	147.91	48.35	-42.5	-46.2	9.8	1.03e-02	0	62	0	1293942784	55	5919
2026-01-19 23:19:23.71	148.34	48.12	-42.3	-46.0	10.1	7.97e-03	0	62	0	1297088512	55	5742
2026-01-19 23:19:24.72	148.76	47.88	-42.1	-45.5	10.6	3.39e-03	0	62	0	1300234240	55	5416
2026-01-19 23:19:25.73	149.18	47.64	-41.8	-45.0	11.2	1.63e-03	0	62	0	1303379968	55	5101
2026-01-19 23:19:26.74	149.58	47.41	-41.7	-44.8	11.3	1.14e-03	0	62	0	1306525696	55	5037
2026-01-19 23:19:27.75	149.99	47.17	-41.9	-45.1	11.0	1.50e-03	0	62	0	1309671424	55	5188
2026-01-19 23:19:28.76	150.38	46.94	-42.0	-45.3	10.8	2.34e-03	0	62	0	1312817152	55	5339
2026-01-19 23:19:29.77	150.77	46.70	-42.1	-45.5	10.6	3.29e-03	0	62	0	1315962880	55	5456
2026-01-19 23:19:30.78	151.16	46.46	-42.2	-45.6	10.6	3.49e-03	0	62	0	1319108608	55	5487
2026-01-19 23:19:31.79	151.53	46.23	-42.0	-45.4	10.8	2.43e-03	0	62	0	1322254336	55	5342
2026-01-19 23:19:32.79	151.90	45.99	-41.9	-45.1	11.0	2.29e-03	0	62	0	1325400064	55	5185
2026-01-19 23:19:33.80	152.27	45.76	-41.7	-44.7	11.5	1.11e-03	0	62	0	1328545792	55	4952
2026-01-19 23:19:34.81	152.63	45.52	-41.4	-44.3	11.9	4.80e-04	0	62	0	1331691520	54	4999
2026-01-19 23:19:35.82	152.99	45.28	-41.3	-44.0	12.1	2.97e-04	0	62	0	1334837248	54	4870
2026-01-19 23:19:36.83	153.34	45.05	-41.6	-44.6	11.6	5.45e-04	0	62	0	1337982976	54	5165
2026-01-19 23:19:37.84	153.69	44.81	-41.9	-45.2	10.9	1.76e-03	0	62	0	1341128704	54	5547
2026-01-19 23:19:38.85	154.03	44.58	-41.9	-45.2	10.9	2.16e-03	0	62	0	1344274432	54	5535
2026-01-19 23:19:39.86	154.37	44.34	-42.0	-45.3	10.8	2.60e-03	0	62	0	1347420160	54	5628
2026-01-19 23:19:40.87	154.70	44.11	-42.1	-45.5	10.6	2.49e-03	0	62	0	1350565888	54	5758
2026-01-19 23:19:41.88	155.03	43.87	-42.2	-45.7	10.4	4.65e-03	0	62	0	1353711616	55	5554
2026-01-19 23:19:42.89	155.35	43.64	-42.2	-45.7	10.4	5.76e-03	0	62	0	1356857344	55	5557
2026-01-19 23:19:43.90	155.67	43.41	-42.0	-45.3	10.7	3.15e-03	0	62	0	1360003072	55	5324
2026-01-19 23:19:44.91	155.98	43.17	-41.8	-45.0	11.1	1.82e-03	0	62	0	1363148800	55	5115
2026-01-19 23:19:45.92	156.29	42.94	-41.7	-44.8	11.3	1.38e-03	0	62	0	1366294528	55	5010
2026-01-19 23:19:46.93	156.59	42.71	-41.6	-44.7	11.4	9.81e-04	0	62	0	1369440256	55	4935
2026-01-19 23:19:47.94	156.89	42.48	-41.4	-44.2	11.9	4.42e-04	0	62	0	1372585984	54	4955
2026-01-19 23:19:48.95	157.19	42.25	-41.4	-44.3	11.8	5.55e-04	0	62	0	1375731712	54	4997
2026-01-19 23:19:49.96	157.48	42.02	-41.6	-44.6	11.4	6.81e-04	0	62	0	1378877440	54	5216
2026-01-19 23:19:50.97	157.77	41.79	-41.9	-45.2	10.9	1.92e-03	0	62	0	1382023168	54	5531
2026-01-19 23:19:51.98	158.05	41.56	-42.2	-45.7	10.2	4.99e-03	0	62	0	1385168896	54	5908
2026-01-19 23:19:52.99	158.33	41.33	-42.2	-45.8	10.2	6.45e-03	0	62	0	1388314624	55	5599
2026-01-19 23:19:54.00	158.61	41.10	-41.9	-45.1	10.8	3.47e-03	0	62	0	1391460352	55	5213
2026-01-19 23:19:55.01	158.88	40.88	-41.5	-44.4	11.6	9.80e-04	0	62	0	1394606080	55	4792
2026-01-19 23:19:56.02	159.15	40.65	-41.3	-44.2	11.8	5.19e-04	0	62	0	1397751808	54	4948
2026-01-19 23:19:57.03	159.41	40.43	-41.3	-44.1	11.9	3.87e-04	0	62	0	1400897536	54	4895
2026-01-19 23:19:58.04	159.68	40.20	-41.5	-44.5	11.5	8.44e-04	0	62	0	1404043264	54	5113
2026-01-19 23:19:59.04	159.93	39.98	-41.7	-44.8	11.3	1.11e-03	0	62	0	1407188992	54	5280
2026-01-19 23:20:00.05	160.19	39.76	-41.7	-44.9	11.1	1.41e-03	0	62	0	1410334720	54	5352
2026-01-19 23:20:01.05	160.43	39.54	-41.8	-45.1	10.9	2.15e-03	0	62	0	1413480448	54	5477
2026-01-19 23:20:02.06	160.68	39.32	-41.9	-45.1	10.8	2.55e-03	0	62	0	1416626176	54	5505
2026-01-19 23:20:03.07	160.93	39.10	-41.9	-45.1	10.8	2.38e-03	0	62	0	1419771904	54	5515
2026-01-19 23:20:04.08	161.17	38.88	-41.9	-45.3	10.7	3.07e-03	0	62	0	1422917632	54	5607
2026-01-19 23:20:05.09	161.40	38.66	-42.0	-45.4	10.6	3.90e-03	0	62	0	1426063360	54	5665
2026-01-19 23:20:06.10	161.64	38.44	-41.8	-45.0	11.0	2.26e-03	0	62	0	1429209088	54	5409
2026-01-19 23:20:07.11	161.87	38.22	-41.6	-44.7	11.4	1.11e-03	0	62	0	1432354816	54	5223
2026-01-19 23:20:08.12	162.10	38.01	-41.5	-44.5	11.5	8.19e-04	0	62	0	1435500544	54	5127
2026-01-19 23:20:09.13	162.33	37.79	-41.4	-44.3	11.8	6.09e-04	0	62	0	1438646272	54	4992
2026-01-19 23:20:10.14	162.55	37.58	-41.2	-44.0	12.0	3.89e-04	0	62	0	1441792000	54	4867
2026-01-19 23:20:11.15	162.77	37.36	-41.1	-43.8	12.2	2.35e-04	0	62	0	1444937728	54	4747
2026-01-19 23:20:12.16	162.99	37.15	-40.9	-43.5	12.5	1.36e-04	0	62	0	1448083456	53	4855
2026-01-19 23:20:13.17	163.20	36.94	-40.8	-43.4	12.6	9.38e-05	0	62	0	1451229184	53	4782
2026-01-19 23:20:14.18	163.41	36.73	-40.9	-43.5	12.5	1.12e-04	0	62	0	1454374912	53	4867
2026-01-19 23:20:15.19	163.62	36.52	-41.2	-44.0	11.9	2.35e-04	0	62	0	1457520640	53	5129
2026-01-19 23:20:16.20	163.83	36.31	-41.4	-44.4	11.5	7.27e-04	0	62	0	1460666368	53	5402
2026-01-19 23:20:17.21	164.03	36.10	-41.6	-44.7	11.3	1.13e-03	0	62	0	1463812096	53	5543
2026-01-19 23:20:18.21	164.23	35.90	-41.4	-44.4	11.5	8.64e-04	0	62	0	1466957824	53	5396
2026-01-19 23:20:19.22	164.43	35.69	-41.2	-44.1	11.9	4.51e-04	0	62	0	1470103552	53	5184
2026-01-19 23:20:20.24	164.63	35.48	-41.1	-43.9	12.1	3.20e-04	0	62	0	1473249280	53	5088
2026-01-19 23:20:21.25	164.82	35.28	-41.1	-44.0	12.0	2.73e-04	0	62	0	1476395008	53	5108
2026-01-19 23:20:22.26	165.01	35.08	-40.8	-43.4	12.6	1.53e-04	0	62	0	1479540736	53	4796
2026-01-19 23:20:23.27	165.20	34.87	-40.6	-43.1	12.9	6.10e-05	0	62	0	1482686464	53	4644
2026-01-19 23:20:24.28	165.39	34.67	-40.6	-43.1	12.9	4.80e-05	0	62	0	1485832192	53	4651
2026-01-19 23:20:25.29	165.58	34.47	-40.8	-43.4	12.6	7.55e-05	0	62	0	1488977920	53	4776
2026-01-19 23:20:26.30	165.76	34.27	-41.1	-43.8	12.2	2.32e-04	0	62	0	1492123648	53	5028
2026-01-19 23:20:27.31	165.94	34.08	-41.2	-44.0	12.0	3.04e-04	0	62	0	1495269376	53	5139
2026-01-19 23:20:28.32	166.12	33.88	-41.2	-44.0	11.9	3.52e-04	0	62	0	1498415104	53	5158
2026-01-19 23:20:29.33	166.29	33.68	-41.2	-44.1	11.8	4.61e-04	0	62	0	1502609408	53	5196
2026-01-19 23:20:30.34	166.47	33.49	-41.2	-44.0	11.9	4.42e-04	0	62	0	1504706560	53	5155
2026-01-19 23:20:31.35	166.64	33.29	-41.0	-43.8	12.1	2.62e-04	0	62	0	1507852288	53	5014
2026-01-19 23:20:32.36	166.81	33.10	-41.0	-43.7	12.2	1.96e-04	0	62	0	1510998016	53	4935
2026-01-19 23:20:33.37	166.98	32.91	-40.9	-43.5	12.4	1.66e-04	0	62	0	1514143744	53	4865
2026-01-19 23:20:34.38	167.15	32.71	-40.6	-43.2	12.7	9.07e-05	0	62	0	1517289472	53	4684
2026-01-19 23:20:35.38	167.31	32.52	-40.7	-43.3	12.7	8.16e-05	0	62	0	1521483776	53	4731
2026-01-19 23:20:36.40	167.47	32.33	-40.6	-43.2	12.7	5.72e-05	0	62	0	1524629504	53	4678
2026-01-19 23:20:37.41	167.63	32.14	-40.5	-43.1	12.9	6.25e-05	0	62	0	1526726656	53	4603
2026-01-19 23:20:38.42	167.79	31.96	-40.3	-42.6	13.4	1.75e-05	0	62	0	1529872384	52	4640
2026-01-19 23:20:39.43	167.95	31.77	-40.0	-42.3	13.7	7.60e-06	0	62	0	1533018112	52	4458
2026-01-19 23:20:40.44	168.11	31.58	-40.1	-42.3	13.7	9.90e-06	0	62	0	1537212416	51	4730
2026-01-19 23:20:41.44	168.26	31.40	-40.1	-42.4	13.6	6.80e-06	0	62	0	1540358144	51	4805
2026-01-19 23:20:42.45	168.41	31.22	-40.2	-42.5	13.5	1.60e-05	0	62	0	1543503872	51	4857
2026-01-19 23:20:43.47	168.56	31.03	-40.2	-42.5	13.5	9.90e-06	0	62	0	1546649600	51	4816
2026-01-19 23:20:44.48	168.71	30.85	-40.2	-42.5	13.5	1.29e-05	0	62	0	1549795328	51	4826
2026-01-19 23:20:45.49	168.86	30.67	-40.1	-42.4	13.6	7.60e-06	0	62	0	1552941056	51	4808
2026-01-19 23:20:46.50	169.00	30.49	-40.1	-42.4	13.6	9.90e-06	0	62	0	1556086784	51	4784
2026-01-19 23:20:47.51	169.15	30.31	-40.2	-42.5	13.4	1.14e-05	0	62	0	1559232512	51	4859
2026-01-19 23:20:48.52	169.29	30.13	-40.3	-42.7	13.3	1.75e-05	0	62	0	1562378240	51	4939
2026-01-19 23:20:49.53	169.43	29.95	-40.3	-42.7	13.3	2.21e-05	0	62	0	1565523968	51	4948
2026-01-19 23:20:50.54	169.57	29.78	-40.3	-42.7	13.2	2.51e-05	0	62	0	1568669696	51	4973
2026-01-19 23:20:51.55	169.71	29.60	-40.4	-42.8	13.1	3.05e-05	0	62	0	1571815424	51	5007
2026-01-19 23:20:52.56	169.84	29.43	-40.4	-42.8	13.1	2.89e-05	0	62	0	1574961152	51	5021
2026-01-19 23:20:53.57	169.98	29.25	-40.5	-43.0	12.9	4.11e-05	0	62	0	1578106880	51	5104
2026-01-19 23:20:54.58	170.11	29.08	-40.5	-43.0	12.9	4.04e-05	0	62	0	1581252608	51	5122
2026-01-19 23:20:55.59	170.25	28.91	-40.5	-43.0	12.9	4.50e-05	0	62	0	1584398336	51	5118
2026-01-19 23:20:56.59	170.38	28.74	-40.4	-42.8	13.1	3.12e-05	0	62	0	1587544064	51	4998
2026-01-19 23:20:57.60	170.50	28.57	-40.3	-42.7	13.2	2.89e-05	0	62	0	1590689792	51	4964
2026-01-19 23:20:58.61	170.63	28.40	-40.2	-42.5	13.4	1.60e-05	0	62	0	1593835520	51	4845
2026-01-19 23:20:59.62	170.76	28.23	-40.1	-42.4	13.5	1.60e-05	0	62	0	1596981248	51	4792
2026-01-19 23:21:00.63	170.89	28.06	-40.0	-42.3	13.6	6.80e-06	0	62	0	1600126976	51	4713
2026-01-19 23:21:01.64	171.01	27.89	-39.8	-42.0	13.8	7.60e-06	0	62	0	1603272704	51	4589
2026-01-19 23:21:02.65	171.13	27.73	-39.8	-42.0	13.8	6.10e-06	0	62	0	1606418432	51	4579
2026-01-19 23:21:03.66	171.26	27.56	-39.9	-42.1	13.8	5.30e-06	0	62	0	1609564160	51	4618
2026-01-19 23:21:04.67	171.38	27.40	-39.8	-42.0	13.9	6.10e-06	0	62	0	1612709888	51	4560
2026-01-19 23:21:05.68	171.50	27.24	-39.9	-42.1	13.8	4.50e-06	0	62	0	1615855616	51	4611
2026-01-19 23:21:06.69	171.61	27.07	-39.9	-42.1	13.7	8.30e-06	0	62	0	1619001344	51	4647
2026-01-19 23:21:07.70	171.73	26.91	-39.9	-42.1	13.8	3.80e-06	0	62	0	1622147072	51	4616
2026-01-19 23:21:08.71	171.85	26.75	-39.9	-42.1	13.8	8.30e-06	0	62	0	1625292800	51	4637
2026-01-19 23:21:09.72	171.96	26.59	-39.9	-42.1	13.8	6.80e-06	0	62	0	1628438528	51	4634
2026-01-19 23:21:10.73	172.08	26.43	-39.8	-42.0	13.9	6.10e-06	0	62	0	1631584256	51	4591
2026-01-19 23:21:11.74	172.19	26.27	-39.6	-41.7	14.2	4.50e-06	0	62	0	1634729984	51	4439
2026-01-19 23:21:12.75	172.30	26.12	-39.6	-41.6	14.3	0.00e+00	0	62	0	1637875712	51	4391
2026-01-19 23:21:13.76	172.41	25.96	-39.6	-41.6	14.2	3.00e-06	0	62	0	1641021440	51	4391
2026-01-19 23:21:14.77	172.52	25.80	-39.6	-41.7	14.2	7.00e-07	0	62	0	1644167168	51	4421
2026-01-19 23:21:15.78	172.63	25.65	-39.6	-41.7	14.2	2.20e-06	0	62	0	1647312896	51	4412
2026-01-19 23:21:16.79	172.74	25.49	-39.7	-41.8	14.1	1.50e-06	0	62	0	1650458624	51	4453
2026-01-19 23:21:17.80	172.84	25.34	-39.8	-41.9	13.9	3.80e-06	0	62	0	1653604352	51	4532
2026-01-19 23:21:18.81	172.95	25.19	-39.8	-42.0	13.9	5.30e-06	0	62	0	1656750080	51	4567
2026-01-19 23:21:19.82	173.05	25.04	-39.9	-42.1	13.8	5.30e-06	0	62	0	1659895808	51	4629
2026-01-19 23:21:20.83	173.16	24.88	-39.9	-42.2	13.7	7.60e-06	0	62	0	1663041536	51	4674
2026-01-19 23:21:21.84	173.26	24.73	-39.9	-42.2	13.7	4.50e-06	0	62	0	1666187264	51	4658
2026-01-19 23:21:22.85	173.36	24.58	-40.0	-42.3	13.6	6.10e-06	0	62	0	1669332992	51	4711
2026-01-19 23:21:23.85	173.46	24.44	-40.0	-42.3	13.5	7.60e-06	0	62	0	1672478720	51	4750
2026-01-19 23:21:24.87	173.56	24.29	-40.1	-42.4	13.4	9.90e-06	0	62	0	1675624448	51	4783
2026-01-19 23:21:25.87	173.66	24.14	-40.1	-42.5	13.3	1.90e-05	0	62	0	1678770176	51	4836
2026-01-19 23:21:26.89	173.76	23.99	-40.1	-42.5	13.3	2.21e-05	0	62	0	1681915904	51	4845
2026-01-19 23:21:27.90	173.86	23.85	-40.3	-42.7	13.1	2.13e-05	0	62	0	1685061632	51	4951
2026-01-19 23:21:28.91	173.95	23.70	-40.3	-42.7	13.1	2.97e-05	0	62	0	1688207360	51	4958
2026-01-19 23:21:29.92	174.05	23.56	-40.2	-42.6	13.2	1.90e-05	0	62	0	1691353088	51	4877
2026-01-19 23:21:30.93	174.14	23.41	-40.2	-42.6	13.2	2.59e-05	0	62	0	1694498816	51	4899
2026-01-19 23:21:31.94	174.24	23.27	-40.2	-42.6	13.2	3.66e-05	0	62	0	1697644544	51	4873
2026-01-19 23:21:32.95	174.33	23.13	-40.1	-42.5	13.3	2.44e-05	0	62	0	1700790272	51	4833
2026-01-19 23:21:33.96	174.42	22.99	-40.2	-42.6	13.2	2.13e-05	0	62	0	1703936000	51	4888
2026-01-19 23:21:34.97	174.51	22.85	-40.1	-42.5	13.2	2.13e-05	0	62	0	1707081728	51	4841
2026-01-19 23:21:35.98	174.60	22.71	-40.1	-42.5	13.3	2.05e-05	0	62	0	1710227456	51	4842
2026-01-19 23:21:36.99	174.69	22.57	-40.0	-42.3	13.4	2.21e-05	0	62	0	1713373184	51	4750
2026-01-19 23:21:38.00	174.78	22.43	-40.0	-42.3	13.4	1.29e-05	0	62	0	1716518912	51	4747
2026-01-19 23:21:39.00	174.87	22.29	-40.0	-42.3	13.4	9.90e-06	0	62	0	1719664640	51	4742
2026-01-19 23:21:40.01	174.96	22.15	-40.0	-42.3	13.5	1.29e-05	0	62	0	1722810368	51	4727
2026-01-19 23:21:41.03	175.04	22.01	-40.0	-42.3	13.4	1.37e-05	0	62	0	1725956096	51	4747
2026-01-19 23:21:42.04	175.13	21.88	-39.9	-42.2	13.6	1.22e-05	0	62	0	1729101824	51	4680
2026-01-19 23:21:43.04	175.21	21.74	-39.8	-42.1	13.7	9.10e-06	0	62	0	1732247552	51	4614
2026-01-19 23:21:44.06	175.30	21.61	-39.7	-41.8	14.0	3.80e-06	0	62	0	1735393280	51	4482
2026-01-19 23:21:45.07	175.38	21.47	-39.6	-41.7	14.1	2.20e-06	0	62	0	1738539008	51	4436
2026-01-19 23:21:46.08	175.47	21.34	-39.6	-41.7	14.0	1.50e-06	0	62	0	1741684736	51	4428
2026-01-19 23:21:47.09	175.55	21.21	-39.6	-41.8	14.0	5.30e-06	0	62	0	1744830464	51	4466
2026-01-19 23:21:48.10	175.63	21.08	-39.6	-41.8	13.9	2.20e-06	0	62	0	1747976192	51	4470
2026-01-19 23:21:49.11	175.71	20.94	-39.7	-41.8	13.9	3.00e-06	0	62	0	1751121920	51	4490
2026-01-19 23:21:50.12	175.79	20.81	-39.8	-42.0	13.7	7.00e-07	0	62	0	1754267648	51	4571
2026-01-19 23:21:51.13	175.87	20.68	-39.9	-42.1	13.6	1.14e-05	0	62	0	1757413376	51	4629
2026-01-19 23:21:52.14	175.95	20.55	-39.9	-42.2	13.5	9.90e-06	0	62	0	1760559104	51	4674
2026-01-19 23:21:53.15	176.03	20.42	-40.0	-42.3	13.4	1.75e-05	0	62	0	1763704832	51	4745
2026-01-19 23:21:54.16	176.11	20.30	-40.0	-42.4	13.3	1.90e-05	0	62	0	1766850560	51	4792
2026-01-19 23:21:55.17	176.19	20.17	-40.1	-42.5	13.2	1.90e-05	0	62	0	1769996288	51	4854
2026-01-19 23:21:56.18	176.26	20.04	-40.1	-42.5	13.2	2.51e-05	0	62	0	1773142016	51	4846
2026-01-19 23:21:57.19	176.34	19.91	-40.1	-42.6	13.2	2.28e-05	0	62	0	1776287744	51	4881
2026-01-19 23:21:58.20	176.42	19.79	-40.1	-42.5	13.2	1.44e-05	0	62	0	1779433472	51	4828
2026-01-19 23:21:59.21	176.49	19.66	-40.1	-42.5	13.2	2.36e-05	0	62	0	1782579200	51	4865
2026-01-19 23:22:00.22	176.56	19.54	-40.1	-42.5	13.3	1.52e-05	0	62	0	1785724928	51	4823
2026-01-19 23:22:01.22	176.64	19.41	-40.0	-42.3	13.5	1.14e-05	0	62	0	1788870656	51	4731
2026-01-19 23:22:02.23	176.71	19.29	-40.0	-42.3	13.4	2.13e-05	0	62	0	1792016384	51	4728
2026-01-19 23:22:03.24	176.78	19.17	-40.0	-42.3	13.4	1.06e-05	0	62	0	1795162112	51	4754
2026-01-19 23:22:04.24	176.86	19.05	-39.9	-42.2	13.5	9.90e-06	0	62	0	1798307840	51	4704
2026-01-19 23:22:05.25	176.93	18.92	-40.0	-42.3	13.4	1.44e-05	0	62	0	1801453568	51	4757
2026-01-19 23:22:06.26	177.00	18.80	-40.0	-42.3	13.4	1.90e-05	0	62	0	1804599296	51	4744
2026-01-19 23:22:07.27	177.07	18.68	-40.0	-42.4	13.3	1.60e-05	0	62	0	1807745024	51	4782
2026-01-19 23:22:08.28	177.14	18.56	-40.0	-42.4	13.3	2.13e-05	0	62	0	1810890752	51	4799
2026-01-19 23:22:09.29	177.21	18.44	-40.1	-42.5	13.2	2.67e-05	0	62	0	1814036480	51	4850
2026-01-19 23:22:10.31	177.28	18.32	-40.1	-42.5	13.2	3.05e-05	0	62	0	1817182208	51	4855
2026-01-19 23:22:11.32	177.35	18.20	-40.1	-42.6	13.0	3.58e-05	0	62	0	1820327936	51	4899
2026-01-19 23:22:12.33	177.41	18.08	-40.2	-42.6	13.0	4.19e-05	0	62	0	1823473664	51	4919
2026-01-19 23:22:13.34	177.48	17.97	-40.2	-42.7	12.9	5.18e-05	0	62	0	1826619392	51	4976
2026-01-19 23:22:14.35	177.55	17.85	-40.3	-42.8	12.9	3.58e-05	0	62	0	1829765120	51	4987
2026-01-19 23:22:15.36	177.62	17.73	-40.3	-42.8	12.9	4.88e-05	0	62	0	1832910848	51	5010
2026-01-19 23:22:16.37	177.68	17.62	-40.3	-42.9	12.8	5.95e-05	0	62	0	1836056576	51	5044
2026-01-19 23:22:17.38	177.75	17.50	-40.4	-43.0	12.6	8.62e-05	0	62	0	1839202304	51	5141
2026-01-19 23:22:18.39	177.81	17.39	-40.3	-42.9	12.7	7.09e-05	0	62	0	1842348032	51	5073
2026-01-19 23:22:19.39	177.88	17.27	-40.3	-42.9	12.7	6.86e-05	0	62	0	1845493760	51	5065
2026-01-19 23:22:20.40	177.94	17.16	-40.4	-43.0	12.7	8.01e-05	0	62	0	1848639488	51	5106
2026-01-19 23:22:21.41	178.00	17.04	-40.3	-42.9	12.8	6.25e-05	0	62	0	1851785216	51	5057
2026-01-19 23:22:22.42	178.07	16.93	-40.4	-43.0	12.7	7.70e-05	0	62	0	1854930944	51	5112
2026-01-19 23:22:23.43	178.13	16.82	-40.4	-43.0	12.6	1.04e-04	0	62	0	1859125248	51	5128
2026-01-19 23:22:24.44	178.19	16.71	-40.4	-43.0	12.6	8.85e-05	0	62	0	1862270976	51	5130
2026-01-19 23:22:25.45	178.25	16.59	-40.4	-43.0	12.6	9.00e-05	0	62	0	1864368128	51	5145
2026-01-19 23:22:26.46	178.31	16.48	-40.4	-43.0	12.6	9.00e-05	0	62	0	1867513856	51	5146
2026-01-19 23:22:27.47	178.38	16.37	-40.4	-43.1	12.5	9.61e-05	0	62	0	1870659584	51	5172
2026-01-19 23:22:28.48	178.44	16.26	-40.5	-43.2	12.4	1.47e-04	0	62	0	1874853888	51	5240
2026-01-19 23:22:29.49	178.50	16.15	-40.5	-43.2	12.4	1.46e-04	0	62	0	1877999616	51	5244
2026-01-19 23:22:30.50	178.56	16.04	-40.4	-43.1	12.5	1.01e-04	0	62	0	1881145344	51	5177
2026-01-19 23:22:31.51	178.62	15.94	-40.5	-43.2	12.5	1.41e-04	0	62	0	1884291072	51	5223
2026-01-19 23:22:32.52	178.67	15.83	-40.5	-43.2	12.4	1.54e-04	0	62	0	1887436800	51	5262
2026-01-19 23:22:33.53	178.73	15.72	-40.5	-43.2	12.4	1.43e-04	0	62	0	1890582528	51	5254
2026-01-19 23:22:34.54	178.79	15.61	-40.5	-43.2	12.3	1.69e-04	0	62	0	1893728256	51	5269
2026-01-19 23:22:35.55	178.85	15.50	-40.5	-43.2	12.4	1.55e-04	0	62	0	1896873984	51	5250
2026-01-19 23:22:36.56	178.91	15.40	-40.5	-43.2	12.3	1.64e-04	0	62	0	1900019712	51	5258
2026-01-19 23:22:37.57	178.96	15.29	-40.5	-43.2	12.3	1.91e-04	0	62	0	1903165440	51	5265
2026-01-19 23:22:38.58	179.02	15.19	-40.5	-43.2	12.3	1.69e-04	0	62	0	1906311168	51	5248
2026-01-19 23:22:39.59	179.08	15.08	-40.5	-43.2	12.3	1.88e-04	0	62	0	1909456896	51	5279
2026-01-19 23:22:40.60	179.13	14.98	-40.5	-43.2	12.3	1.75e-04	0	62	0	1912602624	51	5255
