passes_logs/2026/01/19/R2.0S_Moscow/R2.0S_Moscow__20260119_125232_AQUA_rec.log

#Pass ID: 20260119_125232_AQUA
#Satellite: AQUA
#Configuration: AQUA
#almurnet v.1.7.20251203
#Start time: 2026-01-19 12:52:32

#Version: 2.2.20231116
#Station: R2.0S_Moscow
#Location: 37.707566 lon 55.798166 lat
#TLE: 1 27424U 02022A   26018.92652823  .00000914  00000+0  19290-3 0  9996
#TLE: 2 27424  98.4089 345.4199 0001997  73.4625 351.8991 14.61828815261466

#Time	Az	El	Level	Level2	SNR	BER	BlckErr	Temp	State	Recorded	gain1	gain2
2026-01-19 12:52:32.79	199.67	2.04	-44.9	-63.6	3.8	7.48e-01	0	55	0	0	61	30907
2026-01-19 12:52:33.79	199.74	2.10	-45.0	-63.6	3.8	7.42e-01	0	55	104	0	60	32772
2026-01-19 12:52:34.80	199.81	2.16	-44.9	-63.6	3.8	7.45e-01	0	55	104	0	60	32699
2026-01-19 12:52:35.81	199.88	2.22	-45.0	-63.6	3.8	7.47e-01	0	55	104	0	60	32680
2026-01-19 12:52:36.82	199.95	2.28	-44.9	-63.6	3.8	7.43e-01	0	55	104	0	60	32751
2026-01-19 12:52:37.83	200.02	2.34	-45.0	-63.6	3.8	7.46e-01	0	55	104	0	60	32703
2026-01-19 12:52:38.84	200.09	2.40	-45.0	-63.6	3.8	7.43e-01	0	55	104	0	60	32811
2026-01-19 12:52:39.84	200.16	2.46	-45.0	-63.6	3.8	7.46e-01	0	55	104	0	60	32702
2026-01-19 12:52:40.86	200.23	2.53	-45.0	-63.6	3.8	7.44e-01	0	55	104	0	60	32724
2026-01-19 12:52:41.86	200.30	2.59	-45.0	-63.6	3.8	7.45e-01	0	55	104	0	60	32591
2026-01-19 12:52:42.87	200.37	2.65	-44.9	-63.5	3.8	7.43e-01	0	55	104	0	60	32550
2026-01-19 12:52:43.88	200.44	2.71	-44.9	-63.6	3.8	7.44e-01	0	56	104	0	60	32804
2026-01-19 12:52:44.90	200.52	2.77	-44.9	-63.6	3.8	7.46e-01	0	56	104	0	60	32688
2026-01-19 12:52:45.91	200.59	2.83	-44.9	-63.6	3.8	7.42e-01	0	55	104	0	60	32677
2026-01-19 12:52:46.92	200.66	2.90	-44.9	-63.6	3.8	7.46e-01	0	56	104	0	60	32613
2026-01-19 12:52:47.93	200.74	2.96	-44.9	-63.6	3.8	7.41e-01	0	56	104	0	60	32676
2026-01-19 12:52:48.94	200.81	3.02	-44.9	-63.6	3.8	7.44e-01	0	56	104	0	60	32628
2026-01-19 12:52:49.95	200.89	3.08	-44.9	-63.6	3.8	7.47e-01	0	56	104	0	60	32701
2026-01-19 12:52:50.96	200.96	3.15	-44.9	-63.6	3.8	7.45e-01	0	56	104	0	60	32702
2026-01-19 12:52:51.97	201.03	3.21	-44.9	-63.6	3.8	7.45e-01	0	56	104	0	60	32664
2026-01-19 12:52:52.98	201.11	3.27	-44.9	-63.6	3.8	7.50e-01	0	56	104	0	60	32615
2026-01-19 12:52:53.99	201.19	3.33	-44.9	-63.6	3.8	7.45e-01	0	56	104	0	60	32602
2026-01-19 12:52:55.01	201.26	3.40	-44.9	-63.6	3.8	7.46e-01	0	56	104	0	60	32630
2026-01-19 12:52:56.02	201.34	3.46	-44.9	-63.6	3.8	7.43e-01	0	56	104	0	60	32604
2026-01-19 12:52:57.03	201.41	3.53	-44.9	-63.6	3.8	7.46e-01	0	56	104	0	60	32649
2026-01-19 12:52:58.04	201.49	3.59	-44.9	-63.5	3.8	7.47e-01	0	56	104	0	60	32527
2026-01-19 12:52:59.05	201.57	3.65	-44.9	-63.6	3.8	7.48e-01	0	56	104	0	60	32642
2026-01-19 12:53:00.06	201.65	3.72	-44.9	-63.6	3.8	7.46e-01	0	57	104	0	60	32690
2026-01-19 12:53:01.07	201.72	3.78	-44.9	-63.6	3.8	7.42e-01	0	56	104	0	60	32699
2026-01-19 12:53:02.08	201.80	3.84	-44.9	-63.6	3.8	7.45e-01	0	57	104	0	60	32685
2026-01-19 12:53:03.09	201.88	3.91	-44.9	-63.6	3.8	7.45e-01	0	57	104	0	60	32655
2026-01-19 12:53:04.10	201.96	3.97	-44.9	-63.6	3.8	7.45e-01	0	57	104	0	60	32660
2026-01-19 12:53:05.11	202.04	4.04	-44.9	-63.6	3.8	7.47e-01	0	57	104	0	60	32563
2026-01-19 12:53:06.12	202.12	4.10	-44.9	-63.6	3.8	7.45e-01	0	57	104	0	60	32610
2026-01-19 12:53:07.13	202.20	4.17	-44.9	-63.6	3.8	7.46e-01	0	57	104	0	60	32629
2026-01-19 12:53:08.14	202.28	4.23	-44.9	-63.6	3.8	7.44e-01	0	57	104	0	60	32635
2026-01-19 12:53:09.15	202.36	4.29	-44.9	-63.6	3.8	7.44e-01	0	57	104	0	60	32560
2026-01-19 12:53:10.16	202.44	4.36	-44.9	-63.5	3.8	7.44e-01	0	57	104	0	60	32508
2026-01-19 12:53:11.17	202.52	4.43	-44.9	-63.6	3.8	7.44e-01	0	57	104	0	60	32572
2026-01-19 12:53:12.18	202.61	4.49	-44.9	-63.6	3.8	7.43e-01	0	57	104	0	60	32671
2026-01-19 12:53:13.19	202.69	4.56	-44.9	-63.6	3.8	7.42e-01	0	57	104	0	60	32564
2026-01-19 12:53:14.20	202.77	4.62	-44.9	-63.5	3.8	7.43e-01	0	57	104	0	60	32489
2026-01-19 12:53:15.21	202.85	4.69	-44.9	-63.5	3.8	7.42e-01	0	57	104	0	60	32525
2026-01-19 12:53:16.22	202.94	4.75	-44.9	-63.6	3.8	7.46e-01	0	57	104	0	60	32559
2026-01-19 12:53:17.23	203.02	4.82	-44.9	-63.5	3.8	7.44e-01	0	58	104	0	60	32486
2026-01-19 12:53:18.25	203.11	4.89	-44.9	-63.5	3.8	7.44e-01	0	58	104	0	60	32481
2026-01-19 12:53:19.26	203.19	4.95	-44.9	-63.5	3.8	7.44e-01	0	58	104	0	60	32381
2026-01-19 12:53:20.27	203.28	5.02	-44.9	-63.5	3.8	7.47e-01	0	58	104	0	60	32533
2026-01-19 12:53:21.28	203.36	5.08	-44.9	-63.5	3.8	7.49e-01	0	57	104	0	60	32352
2026-01-19 12:53:22.29	203.45	5.15	-44.9	-63.5	3.8	7.44e-01	0	58	104	0	60	32445
2026-01-19 12:53:23.30	203.53	5.22	-44.9	-63.5	3.8	7.45e-01	0	58	104	0	60	32245
2026-01-19 12:53:24.31	203.62	5.28	-44.9	-63.3	3.8	7.49e-01	0	58	104	0	60	31534
2026-01-19 12:53:25.32	203.71	5.35	-44.9	-63.2	3.8	7.47e-01	0	58	104	0	60	31292
2026-01-19 12:53:26.33	203.80	5.42	-44.9	-63.1	3.8	7.46e-01	0	58	104	0	60	30997
2026-01-19 12:53:27.34	203.88	5.49	-44.9	-63.1	3.8	7.45e-01	0	58	104	0	60	30793
2026-01-19 12:53:28.35	203.97	5.55	-44.9	-62.9	3.8	7.46e-01	0	58	104	0	60	30284
2026-01-19 12:53:29.36	204.06	5.62	-44.9	-62.7	3.8	7.46e-01	0	58	104	0	60	29357
2026-01-19 12:53:30.37	204.15	5.69	-44.9	-62.1	3.8	7.43e-01	0	58	104	0	60	27700
2026-01-19 12:53:31.39	204.24	5.76	-44.8	-61.2	4.0	7.40e-01	0	58	104	0	60	24710
2026-01-19 12:53:32.40	204.33	5.83	-44.8	-61.0	3.8	7.41e-01	0	58	104	0	60	24218
2026-01-19 12:53:33.41	204.42	5.89	-44.8	-60.1	4.2	7.33e-01	0	58	104	0	60	21826
2026-01-19 12:53:34.42	204.51	5.96	-44.8	-59.8	3.9	7.41e-01	0	58	104	0	60	21200
2026-01-19 12:53:35.43	204.61	6.03	-44.8	-58.6	4.7	7.18e-01	0	58	104	0	60	18312
2026-01-19 12:53:36.44	204.70	6.10	-44.7	-58.0	5.0	7.11e-01	0	58	0	0	60	17198
2026-01-19 12:53:37.45	204.79	6.17	-44.7	-57.5	5.3	6.99e-01	0	58	0	0	60	16154
2026-01-19 12:53:38.46	204.88	6.24	-44.6	-56.7	5.8	6.91e-01	19	58	0	524288	60	14832
2026-01-19 12:53:39.47	204.98	6.31	-44.5	-55.6	6.7	6.71e-01	92	58	0	2097152	60	13036
2026-01-19 12:53:40.48	205.07	6.37	-44.5	-54.8	7.5	6.55e-01	91	58	0	4194304	60	11822
2026-01-19 12:53:41.49	205.16	6.44	-44.3	-53.8	8.4	6.40e-01	23	58	0	5767168	60	10631
2026-01-19 12:53:42.50	205.26	6.51	-44.3	-53.4	8.9	6.35e-01	2	58	0	7864320	60	10096
2026-01-19 12:53:43.51	205.36	6.58	-44.2	-52.8	9.5	6.29e-01	0	58	0	9437184	60	9418
2026-01-19 12:53:44.52	205.45	6.65	-44.1	-52.4	9.9	6.25e-01	0	59	0	11534336	60	9005
2026-01-19 12:53:45.53	205.55	6.72	-44.0	-52.0	10.3	6.21e-01	0	59	0	13631488	60	8636
2026-01-19 12:53:46.54	205.64	6.79	-44.2	-52.1	10.7	6.17e-01	0	59	0	15204352	59	9192
2026-01-19 12:53:47.55	205.74	6.86	-44.2	-51.9	10.8	6.18e-01	0	59	0	17301504	59	9037
2026-01-19 12:53:48.56	205.84	6.93	-44.3	-52.2	10.5	6.21e-01	0	59	0	19398656	59	9346
2026-01-19 12:53:49.58	205.94	7.00	-44.3	-52.6	10.1	6.24e-01	0	59	0	20971520	59	9799
2026-01-19 12:53:50.59	206.04	7.08	-44.4	-52.7	10.0	6.26e-01	0	59	0	23068672	59	9873
2026-01-19 12:53:51.60	206.14	7.15	-44.4	-53.1	9.6	6.28e-01	0	59	0	24641536	59	10388
2026-01-19 12:53:52.61	206.24	7.22	-44.5	-53.4	9.3	6.33e-01	0	59	0	26738688	59	10717
2026-01-19 12:53:53.62	206.34	7.29	-44.4	-53.1	9.6	6.32e-01	0	59	0	28835840	59	10354
2026-01-19 12:53:54.63	206.44	7.36	-44.3	-52.6	10.1	6.24e-01	0	59	0	30408704	59	9749
2026-01-19 12:53:55.64	206.54	7.43	-44.1	-51.6	11.1	6.17e-01	0	59	0	32505856	59	8746
2026-01-19 12:53:56.65	206.64	7.50	-43.9	-50.5	12.2	6.11e-01	0	59	0	34078720	59	7709
2026-01-19 12:53:57.66	206.74	7.57	-43.6	-49.8	13.0	6.11e-01	0	59	0	36175872	59	7079
2026-01-19 12:53:58.67	206.85	7.65	-43.3	-48.8	13.8	6.08e-01	0	59	0	38273024	58	6691
2026-01-19 12:53:59.68	206.95	7.72	-43.1	-48.1	14.7	6.05e-01	0	59	0	39845888	58	6189
2026-01-19 12:54:00.69	207.05	7.79	-42.8	-47.5	15.4	6.06e-01	0	59	0	41943040	57	6096
2026-01-19 12:54:01.70	207.16	7.86	-42.7	-47.3	15.6	6.07e-01	0	59	0	44040192	57	5955
2026-01-19 12:54:02.71	207.26	7.94	-42.6	-47.1	15.8	6.06e-01	0	59	0	45613056	57	5809
2026-01-19 12:54:03.72	207.37	8.01	-42.7	-47.3	15.6	6.07e-01	0	59	0	47710208	57	5948
2026-01-19 12:54:04.73	207.47	8.08	-45.2	-61.3	3.8	7.47e-01	0	59	104	49283072	60	25160
2026-01-19 12:54:05.75	207.58	8.15	-44.1	-51.7	13.1	6.11e-01	0	59	0	49283072	58	9297
2026-01-19 12:54:06.75	207.69	8.23	-43.5	-48.8	14.7	6.06e-01	0	59	0	49283072	57	7042
2026-01-19 12:54:07.76	207.80	8.30	-43.7	-49.2	13.9	6.07e-01	0	60	0	51380224	59	6632
2026-01-19 12:54:08.77	207.90	8.37	-43.6	-49.5	14.1	6.09e-01	0	59	0	53477376	57	7681
2026-01-19 12:54:09.78	208.01	8.45	-42.7	-47.0	15.9	6.07e-01	0	59	0	55050240	57	5767
2026-01-19 12:54:10.79	208.12	8.52	-42.6	-46.9	16.2	6.06e-01	0	59	0	57147392	57	5659
2026-01-19 12:54:11.80	208.23	8.59	-42.5	-46.8	16.3	6.07e-01	0	60	0	58720256	57	5603
2026-01-19 12:54:12.81	208.34	8.67	-42.5	-46.7	16.5	6.05e-01	0	59	0	60817408	57	5538
2026-01-19 12:54:13.82	208.46	8.74	-42.6	-46.8	16.3	6.06e-01	0	59	0	62914560	57	5651
2026-01-19 12:54:14.83	208.57	8.82	-42.5	-46.6	16.5	6.06e-01	0	60	0	64487424	57	5503
2026-01-19 12:54:15.84	208.68	8.89	-42.5	-46.6	16.5	6.07e-01	0	59	0	66584576	57	5522
2026-01-19 12:54:16.85	208.79	8.97	-42.5	-46.5	16.7	6.06e-01	0	59	0	68157440	57	5453
2026-01-19 12:54:17.86	208.91	9.04	-42.4	-46.4	16.8	6.07e-01	0	60	0	70254592	56	5671
2026-01-19 12:54:18.87	209.02	9.12	-42.4	-46.4	16.8	6.07e-01	0	60	0	72351744	56	5710
2026-01-19 12:54:19.88	209.14	9.19	-42.5	-46.5	16.8	6.05e-01	0	60	0	73924608	56	5728
2026-01-19 12:54:20.88	209.25	9.27	-42.5	-46.5	16.7	6.07e-01	0	60	0	76021760	56	5728
2026-01-19 12:54:21.89	209.37	9.34	-42.4	-46.3	16.9	6.06e-01	0	60	0	78118912	56	5614
2026-01-19 12:54:22.90	209.48	9.42	-42.5	-46.4	16.8	6.05e-01	0	60	0	79691776	56	5711
2026-01-19 12:54:23.91	209.60	9.49	-42.5	-46.5	16.8	6.07e-01	0	60	0	81788928	56	5741
2026-01-19 12:54:24.92	209.72	9.57	-42.4	-46.4	16.8	6.06e-01	0	60	0	83361792	56	5715
2026-01-19 12:54:25.93	209.84	9.65	-42.5	-46.5	16.8	6.08e-01	0	60	0	85458944	56	5735
2026-01-19 12:54:26.94	209.96	9.72	-42.4	-46.4	16.8	6.06e-01	0	60	0	87556096	56	5716
2026-01-19 12:54:27.95	210.08	9.80	-42.4	-46.4	16.9	6.05e-01	0	60	0	89128960	56	5662
2026-01-19 12:54:28.96	210.20	9.87	-42.4	-46.3	17.0	6.06e-01	0	60	0	91226112	56	5631
2026-01-19 12:54:29.97	210.32	9.95	-42.3	-46.2	17.1	6.06e-01	0	60	0	92798976	56	5580
2026-01-19 12:54:30.98	210.44	10.03	-42.4	-46.2	17.1	6.07e-01	0	60	0	94896128	56	5591
2026-01-19 12:54:31.99	210.57	10.11	-42.4	-46.2	17.0	6.08e-01	0	60	0	96468992	56	5587
2026-01-19 12:54:33.00	210.69	10.18	-42.4	-46.3	17.0	6.07e-01	0	60	0	98566144	56	5638
2026-01-19 12:54:34.00	210.81	10.26	-42.4	-46.3	17.1	6.07e-01	0	60	0	100663296	56	5603
2026-01-19 12:54:35.01	210.94	10.34	-42.4	-46.2	17.2	6.06e-01	0	60	0	102236160	56	5555
2026-01-19 12:54:36.02	211.06	10.41	-42.4	-46.2	17.2	6.04e-01	0	60	0	104333312	56	5566
2026-01-19 12:54:37.03	211.19	10.49	-42.4	-46.2	17.2	6.04e-01	0	60	0	106430464	56	5568
2026-01-19 12:54:38.04	211.32	10.57	-42.4	-46.1	17.3	6.04e-01	0	60	0	108003328	56	5504
2026-01-19 12:54:39.05	211.44	10.65	-42.4	-46.1	17.3	6.05e-01	0	60	0	110100480	56	5492
2026-01-19 12:54:40.06	211.57	10.73	-42.3	-46.1	17.3	6.06e-01	0	60	0	111673344	56	5471
2026-01-19 12:54:41.07	211.70	10.81	-42.4	-46.1	17.3	6.06e-01	0	60	0	113770496	56	5494
2026-01-19 12:54:42.08	211.83	10.88	-42.3	-46.1	17.4	6.05e-01	0	60	0	115867648	56	5473
2026-01-19 12:54:43.09	211.96	10.96	-42.4	-46.1	17.3	6.05e-01	0	60	0	117440512	56	5508
2026-01-19 12:54:44.10	212.09	11.04	-42.4	-46.1	17.3	6.04e-01	0	60	0	119537664	56	5523
2026-01-19 12:54:45.11	212.22	11.12	-42.4	-46.1	17.4	6.06e-01	0	60	0	121634816	56	5492
2026-01-19 12:54:46.12	212.36	11.20	-42.4	-46.0	17.4	6.07e-01	0	60	0	123207680	56	5454
2026-01-19 12:54:47.13	212.49	11.28	-42.3	-46.0	17.5	6.06e-01	0	61	0	125304832	56	5416
2026-01-19 12:54:48.14	212.62	11.36	-42.3	-45.9	17.6	6.06e-01	0	60	0	126877696	56	5365
2026-01-19 12:54:49.15	212.76	11.44	-42.3	-45.9	17.5	6.07e-01	0	60	0	128974848	56	5393
2026-01-19 12:54:50.16	212.90	11.52	-42.3	-45.9	17.6	6.07e-01	0	60	0	131072000	56	5351
2026-01-19 12:54:51.17	213.03	11.60	-42.3	-46.0	17.5	6.06e-01	0	60	0	132644864	56	5425
2026-01-19 12:54:52.17	213.17	11.68	-42.4	-46.0	17.5	6.08e-01	0	60	0	134742016	56	5435
2026-01-19 12:54:53.18	213.31	11.76	-42.4	-46.0	17.5	6.07e-01	0	60	0	136314880	56	5421
2026-01-19 12:54:54.19	213.45	11.84	-42.4	-46.1	17.4	6.05e-01	0	61	0	138412032	56	5495
2026-01-19 12:54:55.20	213.58	11.92	-42.4	-46.0	17.5	6.07e-01	0	61	0	140509184	56	5421
2026-01-19 12:54:56.21	213.73	12.00	-42.4	-46.0	17.5	6.08e-01	0	60	0	142082048	56	5443
2026-01-19 12:54:57.22	213.87	12.08	-42.3	-45.9	17.6	6.05e-01	0	60	0	144179200	56	5393
2026-01-19 12:54:58.23	214.01	12.16	-42.4	-46.0	17.5	6.07e-01	0	61	0	145752064	56	5424
2026-01-19 12:54:59.24	214.15	12.25	-42.3	-45.8	17.7	6.06e-01	0	61	0	147849216	56	5319
2026-01-19 12:55:00.25	214.30	12.33	-42.3	-45.8	17.7	6.05e-01	0	61	0	149946368	56	5331
2026-01-19 12:55:01.25	214.44	12.41	-42.3	-45.8	17.7	6.07e-01	0	60	0	151519232	56	5319
2026-01-19 12:55:02.26	214.58	12.49	-42.3	-45.8	17.7	6.05e-01	0	61	0	153616384	56	5305
2026-01-19 12:55:03.27	214.73	12.57	-42.3	-45.8	17.8	6.05e-01	0	61	0	155189248	56	5298
2026-01-19 12:55:04.28	214.88	12.65	-42.3	-45.8	17.8	6.06e-01	0	61	0	157286400	56	5293
2026-01-19 12:55:05.29	215.03	12.74	-42.3	-45.9	17.7	6.05e-01	0	60	0	159383552	56	5353
2026-01-19 12:55:06.30	215.17	12.82	-42.3	-45.9	17.7	6.04e-01	0	61	0	160956416	56	5361
2026-01-19 12:55:07.31	215.32	12.90	-42.2	-45.7	17.8	6.06e-01	0	60	0	163053568	55	5549
2026-01-19 12:55:08.32	215.48	12.98	-42.1	-45.7	17.8	6.05e-01	0	60	0	164626432	55	5542
2026-01-19 12:55:09.33	215.63	13.07	-42.1	-45.6	17.9	6.07e-01	0	61	0	166723584	55	5506
2026-01-19 12:55:10.34	215.78	13.15	-42.2	-45.6	17.8	6.04e-01	0	61	0	168820736	55	5516
2026-01-19 12:55:11.35	215.93	13.23	-42.2	-45.6	17.9	6.06e-01	0	61	0	170393600	55	5516
2026-01-19 12:55:12.36	216.09	13.31	-42.2	-45.6	17.9	6.07e-01	0	61	0	172490752	55	5508
2026-01-19 12:55:13.37	216.24	13.40	-42.2	-45.6	17.9	6.04e-01	0	61	0	174587904	55	5513
2026-01-19 12:55:14.38	216.40	13.48	-42.2	-45.6	17.9	6.06e-01	0	61	0	176160768	55	5478
2026-01-19 12:55:15.39	216.56	13.56	-42.1	-45.6	17.9	6.07e-01	0	61	0	178257920	55	5516
2026-01-19 12:55:16.40	216.71	13.65	-42.2	-45.7	17.8	6.06e-01	0	61	0	179830784	55	5561
2026-01-19 12:55:17.41	216.87	13.73	-42.2	-45.7	17.7	6.07e-01	0	61	0	181927936	55	5566
2026-01-19 12:55:18.42	217.03	13.82	-42.3	-45.8	17.7	6.07e-01	0	61	0	184025088	55	5624
2026-01-19 12:55:19.42	217.19	13.90	-42.2	-45.6	17.9	6.04e-01	0	61	0	185597952	55	5506
2026-01-19 12:55:20.43	217.35	13.98	-42.1	-45.6	17.9	6.06e-01	0	61	0	187695104	55	5498
2026-01-19 12:55:21.44	217.51	14.07	-42.2	-45.6	18.0	6.08e-01	0	61	0	189792256	55	5494
2026-01-19 12:55:22.45	217.68	14.15	-42.2	-45.6	17.9	6.06e-01	0	61	0	191365120	55	5492
2026-01-19 12:55:23.46	217.84	14.24	-42.1	-45.5	17.9	6.07e-01	0	61	0	193462272	54	5780
2026-01-19 12:55:24.47	218.01	14.32	-42.1	-45.4	18.1	6.06e-01	0	61	0	195035136	54	5710
2026-01-19 12:55:25.48	218.18	14.41	-42.1	-45.4	18.1	6.08e-01	0	61	0	197132288	54	5707
2026-01-19 12:55:26.49	218.34	14.49	-42.0	-45.5	18.1	6.03e-01	0	61	0	199229440	54	5730
2026-01-19 12:55:27.50	218.51	14.58	-42.1	-45.5	18.0	6.05e-01	0	61	0	200802304	54	5762
2026-01-19 12:55:28.51	218.68	14.66	-41.7	-45.3	18.2	6.07e-01	0	61	0	202899456	54	5631
2026-01-19 12:55:29.52	218.85	14.75	-42.0	-45.3	18.3	6.04e-01	0	61	0	204472320	54	5634
2026-01-19 12:55:30.53	219.02	14.83	-41.9	-45.4	18.2	6.07e-01	0	61	0	206569472	54	5659
2026-01-19 12:55:31.54	219.20	14.92	-42.1	-45.4	18.2	6.05e-01	0	61	0	208666624	54	5699
2026-01-19 12:55:32.55	219.37	15.00	-42.1	-45.5	18.1	6.04e-01	0	61	0	210239488	54	5730
2026-01-19 12:55:33.56	219.54	15.09	-42.1	-45.6	18.0	6.05e-01	0	61	0	212336640	54	5808
2026-01-19 12:55:34.57	219.72	15.18	-41.9	-45.4	18.1	6.06e-01	0	61	0	213909504	54	5718
2026-01-19 12:55:35.58	219.90	15.26	-42.0	-45.3	18.3	6.05e-01	0	61	0	216006656	54	5625
2026-01-19 12:55:36.59	220.07	15.35	-41.9	-45.2	18.4	6.05e-01	0	61	0	218103808	54	5579
2026-01-19 12:55:37.60	220.25	15.43	-42.0	-45.2	18.4	6.05e-01	0	61	0	219676672	54	5581
2026-01-19 12:55:38.61	220.43	15.52	-41.9	-45.2	18.3	6.06e-01	0	61	0	221773824	54	5583
2026-01-19 12:55:39.62	220.61	15.61	-41.9	-45.1	18.5	6.06e-01	0	61	0	223346688	54	5511
2026-01-19 12:55:40.63	220.80	15.69	-41.9	-45.1	18.5	6.06e-01	0	61	0	225443840	54	5505
2026-01-19 12:55:41.63	220.98	15.78	-42.0	-45.2	18.5	6.05e-01	0	61	0	227540992	54	5547
2026-01-19 12:55:42.64	221.16	15.86	-42.0	-45.2	18.5	6.09e-01	0	61	0	229113856	54	5547
2026-01-19 12:55:43.65	221.35	15.95	-41.9	-45.2	18.5	6.08e-01	0	61	0	231211008	54	5532
2026-01-19 12:55:44.66	221.53	16.04	-41.8	-45.1	18.5	6.06e-01	0	61	0	232783872	54	5521
2026-01-19 12:55:45.67	221.72	16.12	-42.0	-45.2	18.5	6.05e-01	0	61	0	234881024	54	5565
2026-01-19 12:55:46.68	221.91	16.21	-42.0	-45.3	18.4	6.06e-01	0	61	0	236978176	54	5601
2026-01-19 12:55:47.69	222.10	16.30	-41.8	-45.2	18.4	6.07e-01	0	61	0	238551040	54	5589
2026-01-19 12:55:48.70	222.29	16.38	-42.0	-45.2	18.4	6.07e-01	0	61	0	240648192	54	5587
2026-01-19 12:55:49.71	222.48	16.47	-41.9	-45.3	18.4	6.08e-01	0	61	0	242745344	54	5596
2026-01-19 12:55:50.72	222.68	16.56	-41.9	-45.1	18.5	6.05e-01	0	61	0	244318208	54	5517
2026-01-19 12:55:51.73	222.87	16.64	-42.0	-45.2	18.5	6.05e-01	0	61	0	246415360	54	5536
2026-01-19 12:55:52.74	223.07	16.73	-41.9	-45.1	18.5	6.08e-01	0	61	0	247988224	54	5524
2026-01-19 12:55:53.75	223.26	16.82	-41.9	-45.1	18.5	6.07e-01	0	61	0	250085376	54	5525
2026-01-19 12:55:54.76	223.46	16.91	-41.9	-45.1	18.6	6.06e-01	0	61	0	252182528	54	5496
2026-01-19 12:55:55.77	223.66	16.99	-41.9	-45.0	18.7	6.05e-01	0	61	0	253755392	54	5434
2026-01-19 12:55:56.78	223.86	17.08	-41.9	-45.0	18.6	6.06e-01	0	61	0	255852544	54	5453
2026-01-19 12:55:57.79	224.06	17.17	-41.9	-45.1	18.6	6.05e-01	0	61	0	257949696	54	5515
2026-01-19 12:55:58.80	224.27	17.25	-42.0	-45.2	18.4	6.05e-01	0	61	0	259522560	54	5589
2026-01-19 12:55:59.81	224.47	17.34	-42.1	-45.3	18.4	6.06e-01	0	61	0	261619712	54	5627
2026-01-19 12:56:00.82	224.67	17.43	-42.1	-45.4	18.4	6.06e-01	0	61	0	263192576	54	5659
2026-01-19 12:56:01.83	224.88	17.52	-42.0	-45.3	18.4	6.08e-01	0	61	0	265289728	54	5609
2026-01-19 12:56:02.83	225.09	17.60	-42.0	-45.3	18.5	6.07e-01	0	61	0	266862592	54	5597
2026-01-19 12:56:03.84	225.30	17.69	-42.0	-45.2	18.5	6.07e-01	0	61	0	268959744	54	5567
2026-01-19 12:56:04.85	225.51	17.78	-42.0	-45.2	18.6	6.07e-01	0	61	0	271056896	54	5543
2026-01-19 12:56:05.86	225.72	17.86	-42.1	-45.3	18.4	6.05e-01	0	61	0	272629760	54	5623
2026-01-19 12:56:06.87	225.93	17.95	-42.0	-45.2	18.5	6.06e-01	0	62	0	274726912	54	5591
2026-01-19 12:56:07.88	226.14	18.04	-42.0	-45.2	18.5	6.05e-01	0	62	0	276299776	54	5577
2026-01-19 12:56:08.89	226.36	18.12	-42.0	-45.2	18.5	6.06e-01	0	61	0	278396928	54	5586
2026-01-19 12:56:09.90	226.58	18.21	-42.0	-45.2	18.5	6.06e-01	0	61	0	280494080	54	5560
2026-01-19 12:56:10.91	226.79	18.30	-42.0	-45.3	18.5	6.06e-01	0	61	0	282066944	54	5610
2026-01-19 12:56:11.92	227.01	18.39	-42.0	-45.2	18.5	6.06e-01	0	61	0	284164096	54	5569
2026-01-19 12:56:12.93	227.23	18.47	-42.1	-45.3	18.4	6.08e-01	0	61	0	286261248	54	5647
2026-01-19 12:56:13.94	227.46	18.56	-42.1	-45.3	18.4	6.03e-01	0	61	0	287834112	54	5620
2026-01-19 12:56:14.95	227.68	18.65	-41.9	-45.1	18.6	6.05e-01	0	62	0	289931264	54	5512
2026-01-19 12:56:15.96	227.90	18.73	-42.0	-45.3	18.5	6.06e-01	0	61	0	291504128	54	5595
2026-01-19 12:56:16.97	228.13	18.82	-42.0	-45.1	18.6	6.06e-01	0	61	0	293601280	54	5510
2026-01-19 12:56:17.98	228.36	18.91	-42.0	-45.2	18.6	6.08e-01	0	61	0	295698432	54	5559
2026-01-19 12:56:18.99	228.58	18.99	-42.0	-45.2	18.6	6.07e-01	0	61	0	297271296	54	5529
2026-01-19 12:56:20.00	228.81	19.08	-42.0	-45.2	18.6	6.04e-01	0	61	0	299368448	54	5565
2026-01-19 12:56:21.00	229.04	19.16	-42.0	-45.2	18.6	6.05e-01	0	61	0	300941312	54	5557
2026-01-19 12:56:22.01	229.27	19.25	-42.0	-45.2	18.5	6.06e-01	0	61	0	303038464	54	5585
2026-01-19 12:56:23.02	229.51	19.34	-42.1	-45.2	18.5	6.09e-01	0	62	0	305135616	54	5589
2026-01-19 12:56:24.03	229.74	19.42	-42.0	-45.2	18.6	6.06e-01	0	61	0	306708480	54	5541
2026-01-19 12:56:25.04	229.98	19.51	-42.0	-45.2	18.6	6.05e-01	0	62	0	308805632	54	5531
2026-01-19 12:56:26.05	230.22	19.59	-41.9	-45.1	18.7	6.07e-01	0	62	0	310902784	54	5479
2026-01-19 12:56:27.06	230.46	19.68	-42.0	-45.2	18.6	6.06e-01	0	62	0	312475648	54	5552
2026-01-19 12:56:28.07	230.70	19.76	-42.0	-45.2	18.6	6.05e-01	0	61	0	314572800	54	5564
2026-01-19 12:56:29.08	230.94	19.85	-42.0	-45.2	18.5	6.06e-01	0	61	0	316145664	54	5591
2026-01-19 12:56:30.09	231.18	19.93	-42.0	-45.2	18.6	6.06e-01	0	62	0	318242816	54	5533
2026-01-19 12:56:31.10	231.43	20.02	-42.1	-45.3	18.6	6.06e-01	0	62	0	320339968	54	5595
2026-01-19 12:56:32.11	231.67	20.10	-42.1	-45.3	18.5	6.05e-01	0	62	0	321912832	54	5628
2026-01-19 12:56:33.12	231.92	20.19	-42.1	-45.3	18.5	6.06e-01	0	62	0	324009984	54	5655
2026-01-19 12:56:34.13	232.17	20.27	-42.0	-45.2	18.6	6.08e-01	0	62	0	325582848	54	5581
2026-01-19 12:56:35.14	232.42	20.36	-42.0	-45.2	18.6	6.07e-01	0	62	0	327680000	54	5548
2026-01-19 12:56:36.15	232.67	20.44	-42.1	-45.4	18.4	6.07e-01	0	62	0	329777152	54	5704
2026-01-19 12:56:37.15	232.92	20.52	-42.2	-45.5	18.3	6.06e-01	0	62	0	331350016	55	5411
2026-01-19 12:56:38.16	233.18	20.60	-42.2	-45.4	18.4	6.05e-01	0	62	0	333447168	55	5402
2026-01-19 12:56:39.17	233.43	20.69	-42.1	-45.4	18.4	6.06e-01	0	62	0	335020032	55	5348
2026-01-19 12:56:40.18	233.69	20.77	-42.1	-45.4	18.4	6.06e-01	0	62	0	337117184	55	5376
2026-01-19 12:56:41.19	233.95	20.85	-42.2	-45.4	18.4	6.06e-01	0	61	0	339214336	55	5372
2026-01-19 12:56:42.20	234.21	20.94	-42.1	-45.3	18.5	6.06e-01	0	62	0	340787200	55	5300
2026-01-19 12:56:43.21	234.47	21.02	-42.0	-45.2	18.6	6.06e-01	0	62	0	342884352	55	5265
2026-01-19 12:56:44.22	234.73	21.10	-42.1	-45.3	18.5	6.06e-01	0	62	0	344457216	55	5285
2026-01-19 12:56:45.23	235.00	21.18	-42.1	-45.3	18.5	6.07e-01	0	62	0	346554368	55	5330
2026-01-19 12:56:46.24	235.27	21.26	-42.1	-45.3	18.5	6.07e-01	0	62	0	348651520	55	5306
2026-01-19 12:56:47.25	235.53	21.34	-42.2	-45.4	18.4	6.07e-01	0	62	0	350224384	55	5385
2026-01-19 12:56:48.26	235.80	21.42	-42.2	-45.4	18.4	6.05e-01	0	62	0	352321536	55	5394
2026-01-19 12:56:49.27	236.07	21.50	-42.2	-45.5	18.3	6.07e-01	0	62	0	354418688	55	5414
2026-01-19 12:56:50.28	236.34	21.58	-42.2	-45.4	18.4	6.06e-01	0	62	0	355991552	55	5398
2026-01-19 12:56:51.29	236.62	21.66	-42.2	-45.5	18.3	6.05e-01	0	62	0	358088704	55	5432
2026-01-19 12:56:52.30	236.89	21.74	-42.2	-45.5	18.3	6.06e-01	0	62	0	359661568	55	5457
2026-01-19 12:56:53.31	237.17	21.82	-42.3	-45.5	18.2	6.07e-01	0	62	0	361758720	55	5462
2026-01-19 12:56:54.32	237.44	21.90	-42.3	-45.5	18.3	6.08e-01	0	62	0	363855872	55	5463
2026-01-19 12:56:55.33	237.72	21.98	-42.2	-45.5	18.3	6.04e-01	0	62	0	365428736	55	5444
2026-01-19 12:56:56.34	238.00	22.05	-42.3	-45.6	18.2	6.07e-01	0	62	0	367525888	55	5479
2026-01-19 12:56:57.35	238.29	22.13	-42.3	-45.7	18.2	6.05e-01	0	62	0	369098752	55	5559
2026-01-19 12:56:58.35	238.57	22.21	-42.3	-45.7	18.2	6.07e-01	0	62	0	371195904	55	5545
2026-01-19 12:56:59.37	238.85	22.28	-42.4	-45.7	18.1	6.06e-01	0	62	0	373293056	55	5567
2026-01-19 12:57:00.38	239.14	22.36	-42.3	-45.6	18.2	6.06e-01	0	62	0	374865920	55	5526
2026-01-19 12:57:01.39	239.43	22.43	-42.3	-45.7	18.2	6.07e-01	0	62	0	376963072	55	5546
2026-01-19 12:57:02.39	239.71	22.51	-42.4	-45.8	18.0	6.08e-01	0	62	0	379060224	55	5640
2026-01-19 12:57:03.40	240.00	22.58	-42.4	-45.8	18.1	6.08e-01	0	62	0	380633088	55	5606
2026-01-19 12:57:04.41	240.30	22.66	-42.4	-45.8	18.1	6.06e-01	0	62	0	382730240	55	5606
2026-01-19 12:57:05.42	240.59	22.73	-42.3	-45.7	18.2	6.05e-01	0	62	0	384303104	55	5537
2026-01-19 12:57:06.43	240.88	22.80	-42.3	-45.6	18.2	6.05e-01	0	62	0	386400256	55	5522
2026-01-19 12:57:07.44	241.18	22.87	-42.3	-45.6	18.3	6.06e-01	0	62	0	388497408	55	5480
2026-01-19 12:57:08.45	241.48	22.95	-42.3	-45.5	18.3	6.05e-01	0	62	0	390070272	55	5450
2026-01-19 12:57:09.46	241.78	23.02	-42.3	-45.6	18.3	6.06e-01	0	62	0	392167424	55	5474
2026-01-19 12:57:10.47	242.08	23.09	-42.4	-45.7	18.1	6.03e-01	0	62	0	393740288	55	5570
2026-01-19 12:57:11.48	242.38	23.16	-42.4	-45.8	18.0	6.07e-01	0	62	0	395837440	55	5622
2026-01-19 12:57:12.49	242.68	23.23	-42.4	-45.7	18.1	6.06e-01	0	62	0	397410304	55	5561
2026-01-19 12:57:13.49	242.98	23.30	-42.4	-45.8	18.1	6.08e-01	0	62	0	399507456	55	5593
2026-01-19 12:57:14.50	243.29	23.36	-42.4	-45.8	18.0	6.05e-01	0	62	0	401604608	55	5626
2026-01-19 12:57:15.51	243.59	23.43	-42.5	-45.9	18.0	6.05e-01	0	62	0	403177472	55	5672
2026-01-19 12:57:16.52	243.90	23.50	-42.4	-45.9	17.9	6.05e-01	0	62	0	405274624	55	5670
2026-01-19 12:57:17.53	244.21	23.56	-42.5	-46.0	17.9	6.06e-01	0	62	0	407371776	55	5755
2026-01-19 12:57:18.54	244.52	23.63	-42.4	-45.7	18.1	6.04e-01	0	62	0	408944640	55	5585
2026-01-19 12:57:19.55	244.84	23.70	-42.3	-45.6	18.3	6.07e-01	0	62	0	411041792	55	5466
2026-01-19 12:57:20.56	245.15	23.76	-42.4	-45.8	18.0	6.07e-01	0	62	0	412614656	55	5635
2026-01-19 12:57:21.57	245.46	23.82	-42.4	-45.8	18.0	6.04e-01	0	62	0	414711808	55	5626
2026-01-19 12:57:22.58	245.78	23.89	-42.3	-45.6	18.3	6.04e-01	0	62	0	416808960	55	5507
2026-01-19 12:57:23.59	246.10	23.95	-42.4	-45.8	18.0	6.06e-01	0	62	0	418381824	55	5643
2026-01-19 12:57:24.60	246.42	24.01	-42.5	-46.0	17.9	6.08e-01	0	62	0	420478976	55	5764
2026-01-19 12:57:25.61	246.74	24.07	-42.5	-46.0	17.9	6.06e-01	0	62	0	422576128	55	5724
2026-01-19 12:57:26.62	247.06	24.13	-42.5	-46.0	17.9	6.04e-01	0	62	0	424148992	55	5750
2026-01-19 12:57:27.63	247.38	24.19	-42.4	-45.8	18.0	6.08e-01	0	62	0	426246144	55	5640
2026-01-19 12:57:28.64	247.71	24.25	-42.3	-45.6	18.2	6.09e-01	0	62	0	427819008	55	5522
2026-01-19 12:57:29.65	248.03	24.31	-42.4	-45.8	18.1	6.09e-01	0	62	0	429916160	55	5630
2026-01-19 12:57:30.66	248.36	24.36	-42.4	-45.8	18.0	6.08e-01	0	62	0	432013312	55	5637
2026-01-19 12:57:31.66	248.68	24.42	-42.3	-45.5	18.3	6.06e-01	0	62	0	433586176	55	5462
2026-01-19 12:57:32.68	249.01	24.48	-42.4	-45.7	18.2	6.06e-01	0	62	0	435683328	55	5559
2026-01-19 12:57:33.69	249.34	24.53	-42.6	-46.1	17.8	6.07e-01	0	62	0	437256192	55	5821
2026-01-19 12:57:34.70	249.67	24.58	-42.4	-45.7	18.2	6.05e-01	0	62	0	439353344	55	5560
2026-01-19 12:57:35.70	250.00	24.64	-42.4	-45.7	18.2	6.07e-01	0	62	0	441450496	55	5573
2026-01-19 12:57:36.71	250.34	24.69	-42.4	-45.9	18.0	6.05e-01	0	62	0	443023360	55	5660
2026-01-19 12:57:37.72	250.67	24.74	-42.4	-45.7	18.2	6.04e-01	0	62	0	445120512	55	5564
2026-01-19 12:57:38.73	251.01	24.79	-42.5	-45.9	18.0	6.05e-01	0	62	0	446693376	55	5674
2026-01-19 12:57:39.74	251.34	24.84	-42.4	-45.8	18.1	6.05e-01	0	62	0	448790528	55	5639
2026-01-19 12:57:40.75	251.68	24.89	-42.4	-45.8	18.1	6.05e-01	0	62	0	450887680	55	5607
2026-01-19 12:57:41.76	252.02	24.93	-42.3	-45.7	18.2	6.05e-01	0	62	0	452460544	55	5541
2026-01-19 12:57:42.77	252.36	24.98	-42.4	-45.8	18.0	6.05e-01	0	62	0	454557696	55	5648
2026-01-19 12:57:43.78	252.70	25.03	-42.4	-45.8	18.0	6.05e-01	0	62	0	456130560	55	5640
2026-01-19 12:57:44.79	253.04	25.07	-42.3	-45.7	18.2	6.06e-01	0	62	0	458227712	55	5547
2026-01-19 12:57:45.80	253.38	25.12	-42.4	-45.9	18.0	6.06e-01	0	62	0	460324864	55	5658
2026-01-19 12:57:46.81	253.73	25.16	-42.4	-45.7	18.2	6.04e-01	0	62	0	461897728	55	5553
2026-01-19 12:57:47.81	254.07	25.20	-42.3	-45.6	18.3	6.06e-01	0	62	0	463994880	55	5512
2026-01-19 12:57:48.82	254.42	25.24	-42.4	-45.7	18.1	6.09e-01	0	62	0	465567744	55	5589
2026-01-19 12:57:49.83	254.76	25.28	-42.4	-45.8	18.1	6.06e-01	0	62	0	467664896	55	5623
2026-01-19 12:57:50.84	255.11	25.32	-42.5	-45.9	18.0	6.06e-01	0	62	0	469762048	55	5685
2026-01-19 12:57:51.85	255.46	25.36	-42.4	-45.8	18.0	6.06e-01	0	62	0	471334912	55	5647
2026-01-19 12:57:52.86	255.81	25.39	-42.3	-45.7	18.2	6.05e-01	0	62	0	473432064	55	5543
2026-01-19 12:57:53.87	256.16	25.43	-42.4	-45.8	18.1	6.06e-01	0	62	0	475529216	55	5601
2026-01-19 12:57:54.88	256.51	25.47	-42.4	-45.7	18.1	6.06e-01	0	62	0	477102080	55	5552
2026-01-19 12:57:55.89	256.86	25.50	-42.4	-45.7	18.2	6.04e-01	0	62	0	479199232	55	5559
2026-01-19 12:57:56.90	257.21	25.53	-42.4	-45.8	18.1	6.08e-01	0	62	0	480772096	55	5606
2026-01-19 12:57:57.91	257.56	25.56	-42.4	-45.7	18.2	6.07e-01	0	62	0	482869248	55	5557
2026-01-19 12:57:58.92	257.92	25.59	-42.4	-45.7	18.2	6.06e-01	0	62	0	484966400	55	5572
2026-01-19 12:57:59.93	258.27	25.62	-42.3	-45.7	18.2	6.05e-01	0	62	0	486539264	55	5534
2026-01-19 12:58:00.94	258.63	25.65	-42.4	-45.7	18.2	6.06e-01	0	62	0	488636416	55	5555
2026-01-19 12:58:01.95	258.98	25.68	-42.4	-45.7	18.1	6.07e-01	0	62	0	490733568	55	5572
2026-01-19 12:58:02.96	259.34	25.71	-42.4	-45.8	18.1	6.06e-01	0	62	0	492306432	55	5626
2026-01-19 12:58:03.97	259.69	25.73	-42.3	-45.6	18.3	6.07e-01	0	62	0	494403584	55	5505
2026-01-19 12:58:04.98	260.05	25.75	-42.3	-45.6	18.2	6.03e-01	0	62	0	495976448	55	5514
2026-01-19 12:58:05.98	260.41	25.78	-42.4	-45.7	18.2	6.05e-01	0	62	0	498073600	55	5567
2026-01-19 12:58:06.99	260.76	25.80	-42.4	-45.7	18.1	6.07e-01	0	62	0	500170752	55	5586
2026-01-19 12:58:08.00	261.12	25.82	-42.3	-45.6	18.3	6.07e-01	0	62	0	501743616	55	5489
2026-01-19 12:58:09.01	261.48	25.84	-42.4	-45.7	18.1	6.04e-01	0	62	0	503840768	55	5592
2026-01-19 12:58:10.02	261.84	25.86	-42.5	-45.9	18.0	6.05e-01	0	62	0	505413632	55	5685
2026-01-19 12:58:11.03	262.20	25.88	-42.5	-45.9	18.0	6.06e-01	0	62	0	507510784	55	5680
2026-01-19 12:58:12.04	262.56	25.89	-42.4	-45.7	18.1	6.05e-01	0	62	0	509607936	55	5587
2026-01-19 12:58:13.05	262.92	25.91	-42.3	-45.6	18.2	6.05e-01	0	62	0	511180800	55	5510
2026-01-19 12:58:14.06	263.28	25.92	-42.3	-45.6	18.3	6.08e-01	0	62	0	513277952	55	5524
2026-01-19 12:58:15.07	263.65	25.93	-42.3	-45.6	18.3	6.06e-01	0	62	0	514850816	55	5509
2026-01-19 12:58:16.07	264.00	25.95	-42.3	-45.6	18.2	6.05e-01	0	62	0	516947968	55	5517
2026-01-19 12:58:17.08	264.37	25.96	-42.3	-45.6	18.3	6.07e-01	0	62	0	519045120	55	5487
2026-01-19 12:58:18.09	264.73	25.96	-42.3	-45.5	18.4	6.07e-01	0	62	0	520617984	55	5442
2026-01-19 12:58:19.10	265.09	25.97	-42.3	-45.6	18.3	6.07e-01	0	62	0	522715136	55	5476
2026-01-19 12:58:20.11	265.45	25.98	-42.3	-45.6	18.3	6.04e-01	0	62	0	524288000	55	5494
2026-01-19 12:58:21.12	265.82	25.99	-42.4	-45.8	18.1	6.06e-01	0	62	0	526385152	55	5596
2026-01-19 12:58:22.13	266.18	25.99	-42.3	-45.6	18.3	6.07e-01	0	62	0	528482304	55	5487
2026-01-19 12:58:23.14	266.54	25.99	-42.2	-45.4	18.5	6.05e-01	0	62	0	530055168	55	5391
2026-01-19 12:58:24.15	266.90	26.00	-42.3	-45.6	18.3	6.07e-01	0	62	0	532152320	55	5510
2026-01-19 12:58:25.16	267.27	26.00	-42.4	-45.7	18.1	6.06e-01	0	62	0	533725184	55	5589
2026-01-19 12:58:26.17	267.63	26.00	-42.4	-45.7	18.1	6.07e-01	0	62	0	535822336	55	5588
2026-01-19 12:58:27.18	267.99	26.00	-42.3	-45.7	18.2	6.04e-01	0	62	0	537919488	55	5541
2026-01-19 12:58:28.19	268.36	25.99	-42.3	-45.5	18.4	6.07e-01	0	62	0	539492352	55	5430
2026-01-19 12:58:29.20	268.72	25.99	-42.3	-45.6	18.3	6.06e-01	0	62	0	541589504	55	5503
2026-01-19 12:58:30.21	269.08	25.99	-42.3	-45.6	18.2	6.05e-01	0	62	0	543686656	55	5523
2026-01-19 12:58:31.22	269.44	25.98	-42.5	-45.9	18.0	6.05e-01	0	62	0	545259520	55	5695
2026-01-19 12:58:32.22	269.80	25.97	-42.4	-45.8	18.1	6.06e-01	0	62	0	547356672	55	5611
2026-01-19 12:58:33.23	270.16	25.96	-42.3	-45.6	18.2	6.03e-01	0	62	0	548929536	55	5528
2026-01-19 12:58:34.24	270.53	25.96	-42.2	-45.5	18.4	6.07e-01	0	62	0	551026688	55	5437
2026-01-19 12:58:35.25	270.89	25.94	-42.3	-45.6	18.3	6.04e-01	0	62	0	553123840	55	5475
2026-01-19 12:58:36.26	271.25	25.93	-42.3	-45.7	18.2	6.06e-01	0	62	0	554696704	55	5541
2026-01-19 12:58:37.27	271.61	25.92	-42.3	-45.6	18.3	6.06e-01	0	62	0	556793856	55	5481
2026-01-19 12:58:38.28	271.97	25.91	-42.3	-45.6	18.3	6.05e-01	0	62	0	558366720	55	5470
2026-01-19 12:58:39.29	272.33	25.89	-42.3	-45.6	18.2	6.07e-01	0	62	0	560463872	55	5524
2026-01-19 12:58:40.30	272.69	25.87	-42.3	-45.7	18.2	6.07e-01	0	62	0	562561024	55	5536
2026-01-19 12:58:41.31	273.05	25.86	-42.2	-45.3	18.5	6.05e-01	0	62	0	564133888	55	5338
2026-01-19 12:58:42.32	273.41	25.84	-42.2	-45.4	18.5	6.08e-01	0	62	0	566231040	55	5386
2026-01-19 12:58:43.33	273.77	25.82	-42.3	-45.7	18.2	6.06e-01	0	62	0	567803904	55	5542
2026-01-19 12:58:44.34	274.13	25.80	-42.3	-45.6	18.2	6.06e-01	0	62	0	569901056	55	5519
2026-01-19 12:58:45.35	274.49	25.78	-42.3	-45.6	18.3	6.07e-01	0	62	0	571998208	55	5493
2026-01-19 12:58:46.36	274.84	25.75	-42.3	-45.6	18.3	6.06e-01	0	62	0	573571072	55	5465
2026-01-19 12:58:47.37	275.20	25.73	-42.2	-45.4	18.4	6.07e-01	0	62	0	575668224	55	5389
2026-01-19 12:58:48.38	275.56	25.70	-42.2	-45.5	18.4	6.04e-01	0	62	0	577241088	55	5415
2026-01-19 12:58:49.39	275.91	25.68	-42.3	-45.6	18.3	6.05e-01	0	62	0	579338240	55	5491
2026-01-19 12:58:50.39	276.26	25.65	-42.2	-45.5	18.4	6.06e-01	0	62	0	581435392	55	5413
2026-01-19 12:58:51.40	276.62	25.62	-42.2	-45.5	18.4	6.06e-01	0	62	0	583008256	55	5422
2026-01-19 12:58:52.41	276.97	25.59	-42.3	-45.7	18.2	6.06e-01	0	62	0	585105408	55	5538
2026-01-19 12:58:53.42	277.32	25.56	-42.3	-45.6	18.2	6.05e-01	0	62	0	587202560	55	5492
2026-01-19 12:58:54.43	277.68	25.53	-42.3	-45.7	18.2	6.07e-01	0	62	0	588775424	55	5544
2026-01-19 12:58:55.44	278.03	25.50	-42.4	-45.7	18.2	6.05e-01	0	62	0	590872576	55	5552
2026-01-19 12:58:56.45	278.38	25.46	-42.3	-45.6	18.3	6.04e-01	0	62	0	592445440	55	5473
2026-01-19 12:58:57.46	278.73	25.43	-42.2	-45.5	18.4	6.05e-01	0	62	0	594542592	55	5431
2026-01-19 12:58:58.47	279.08	25.39	-42.2	-45.4	18.4	6.06e-01	0	62	0	596639744	55	5393
2026-01-19 12:58:59.47	279.42	25.36	-42.3	-45.6	18.3	6.06e-01	0	62	0	598212608	55	5496
2026-01-19 12:59:00.48	279.77	25.32	-42.2	-45.5	18.4	6.06e-01	0	62	0	600309760	55	5422
2026-01-19 12:59:01.49	280.12	25.28	-42.3	-45.5	18.3	6.06e-01	0	62	0	601882624	55	5452
2026-01-19 12:59:02.50	280.46	25.24	-42.3	-45.7	18.2	6.08e-01	0	62	0	603979776	55	5532
2026-01-19 12:59:03.51	280.81	25.20	-42.3	-45.5	18.3	6.05e-01	0	62	0	606076928	55	5461
2026-01-19 12:59:04.52	281.15	25.16	-42.2	-45.5	18.3	6.06e-01	0	62	0	607649792	55	5447
2026-01-19 12:59:05.53	281.49	25.11	-42.3	-45.6	18.3	6.07e-01	0	62	0	609746944	55	5465
2026-01-19 12:59:06.54	281.83	25.07	-42.2	-45.5	18.3	6.04e-01	0	62	0	611844096	55	5443
2026-01-19 12:59:07.55	282.18	25.03	-42.2	-45.5	18.4	6.05e-01	0	62	0	613416960	55	5412
2026-01-19 12:59:08.56	282.52	24.98	-42.2	-45.5	18.4	6.04e-01	0	62	0	615514112	55	5424
2026-01-19 12:59:09.57	282.85	24.93	-42.2	-45.4	18.4	6.06e-01	0	62	0	617086976	55	5373
2026-01-19 12:59:10.58	283.19	24.89	-42.3	-45.6	18.3	6.05e-01	0	62	0	619184128	55	5479
2026-01-19 12:59:11.59	283.53	24.84	-42.3	-45.6	18.2	6.06e-01	0	62	0	621281280	55	5505
2026-01-19 12:59:12.60	283.86	24.79	-42.3	-45.6	18.2	6.06e-01	0	62	0	622854144	55	5501
2026-01-19 12:59:13.61	284.20	24.74	-42.2	-45.5	18.3	6.06e-01	0	62	0	624951296	55	5444
2026-01-19 12:59:14.62	284.53	24.69	-42.2	-45.5	18.3	6.06e-01	0	62	0	626524160	55	5430
2026-01-19 12:59:15.63	284.86	24.64	-42.2	-45.4	18.4	6.05e-01	0	62	0	628621312	55	5385
2026-01-19 12:59:16.64	285.20	24.58	-42.2	-45.4	18.4	6.06e-01	0	62	0	630194176	55	5370
2026-01-19 12:59:17.65	285.53	24.53	-42.3	-45.6	18.2	6.08e-01	0	62	0	632291328	55	5497
2026-01-19 12:59:18.65	285.85	24.48	-42.2	-45.5	18.3	6.06e-01	0	62	0	634388480	55	5448
2026-01-19 12:59:19.66	286.18	24.42	-42.2	-45.4	18.4	6.05e-01	0	62	0	635961344	55	5372
2026-01-19 12:59:20.67	286.51	24.37	-42.2	-45.5	18.3	6.05e-01	0	62	0	638058496	55	5453
2026-01-19 12:59:21.68	286.83	24.31	-42.3	-45.6	18.3	6.07e-01	0	62	0	640155648	55	5481
2026-01-19 12:59:22.69	287.15	24.25	-42.2	-45.5	18.3	6.07e-01	0	62	0	641728512	55	5454
2026-01-19 12:59:23.70	287.48	24.19	-42.2	-45.5	18.4	6.05e-01	0	62	0	643825664	55	5408
2026-01-19 12:59:24.71	287.80	24.13	-42.3	-45.6	18.2	6.07e-01	0	62	0	645398528	55	5514
2026-01-19 12:59:25.72	288.12	24.07	-42.3	-45.7	18.2	6.07e-01	0	62	0	647495680	55	5534
2026-01-19 12:59:26.73	288.44	24.01	-42.3	-45.7	18.1	6.07e-01	0	62	0	649592832	55	5536
2026-01-19 12:59:27.74	288.76	23.95	-42.3	-45.6	18.2	6.06e-01	0	62	0	651165696	55	5490
2026-01-19 12:59:28.75	289.07	23.89	-42.4	-45.7	18.1	6.07e-01	0	62	0	653262848	55	5585
2026-01-19 12:59:29.76	289.39	23.83	-42.3	-45.6	18.2	6.07e-01	0	62	0	655360000	55	5503
2026-01-19 12:59:30.77	289.70	23.76	-42.2	-45.4	18.4	6.05e-01	0	62	0	656932864	55	5371
2026-01-19 12:59:31.78	290.01	23.70	-42.2	-45.4	18.4	6.08e-01	0	62	0	659030016	55	5365
2026-01-19 12:59:32.79	290.32	23.64	-42.2	-45.4	18.4	6.06e-01	0	62	0	660602880	55	5378
2026-01-19 12:59:33.80	290.63	23.57	-42.2	-45.6	18.3	6.06e-01	0	62	0	662700032	55	5467
2026-01-19 12:59:34.80	290.94	23.51	-42.3	-45.7	18.1	6.07e-01	0	62	0	664797184	55	5561
2026-01-19 12:59:35.81	291.25	23.44	-42.3	-45.6	18.2	6.04e-01	0	62	0	666370048	55	5528
2026-01-19 12:59:36.82	291.55	23.37	-42.3	-45.6	18.2	6.03e-01	0	62	0	668467200	55	5495
2026-01-19 12:59:37.83	291.86	23.30	-42.3	-45.6	18.2	6.06e-01	0	62	0	670040064	55	5512
2026-01-19 12:59:38.84	292.16	23.24	-42.2	-45.5	18.3	6.06e-01	0	62	0	672137216	55	5420
2026-01-19 12:59:39.85	292.46	23.17	-42.2	-45.5	18.3	6.07e-01	0	62	0	674234368	55	5427
2026-01-19 12:59:40.86	292.76	23.10	-42.3	-45.6	18.3	6.06e-01	0	62	0	675807232	55	5469
2026-01-19 12:59:41.87	293.06	23.03	-42.2	-45.5	18.3	6.04e-01	0	62	0	677904384	55	5409
2026-01-19 12:59:42.88	293.36	22.96	-42.2	-45.5	18.3	6.05e-01	0	62	0	679477248	55	5419
2026-01-19 12:59:43.89	293.65	22.88	-42.3	-45.6	18.2	6.05e-01	0	62	0	681574400	55	5501
2026-01-19 12:59:44.89	293.95	22.81	-42.2	-45.6	18.2	6.05e-01	0	62	0	683671552	55	5473
2026-01-19 12:59:45.90	294.24	22.74	-42.3	-45.6	18.2	6.05e-01	0	62	0	685244416	55	5504
2026-01-19 12:59:46.91	294.53	22.67	-42.2	-45.6	18.2	6.05e-01	0	62	0	687341568	55	5486
2026-01-19 12:59:47.92	294.82	22.59	-42.2	-45.5	18.2	6.07e-01	0	62	0	688914432	55	5443
2026-01-19 12:59:48.93	295.11	22.52	-42.2	-45.5	18.2	6.04e-01	0	62	0	691011584	55	5460
2026-01-19 12:59:49.94	295.40	22.45	-42.2	-45.4	18.4	6.06e-01	0	62	0	693108736	55	5384
2026-01-19 12:59:50.95	295.69	22.37	-42.2	-45.4	18.3	6.07e-01	0	62	0	694681600	55	5394
2026-01-19 12:59:51.96	295.97	22.30	-42.2	-45.5	18.3	6.04e-01	0	62	0	696778752	55	5423
2026-01-19 12:59:52.97	296.25	22.22	-42.2	-45.5	18.3	6.04e-01	0	62	0	698351616	55	5443
2026-01-19 12:59:53.98	296.54	22.15	-42.2	-45.6	18.2	6.05e-01	0	62	0	700448768	55	5481
2026-01-19 12:59:54.99	296.82	22.07	-42.2	-45.6	18.2	6.08e-01	0	62	0	702545920	55	5483
2026-01-19 12:59:56.00	297.09	21.99	-42.2	-45.5	18.3	6.03e-01	0	62	0	704118784	55	5409
2026-01-19 12:59:57.01	297.37	21.91	-42.2	-45.5	18.2	6.04e-01	0	62	0	706215936	55	5462
2026-01-19 12:59:58.02	297.65	21.84	-42.1	-45.4	18.4	6.08e-01	0	62	0	708313088	55	5380
2026-01-19 12:59:59.03	297.92	21.76	-42.1	-45.3	18.4	6.06e-01	0	62	0	709885952	55	5314
2026-01-19 13:00:00.04	298.20	21.68	-42.1	-45.4	18.4	6.03e-01	0	62	0	711983104	55	5355
2026-01-19 13:00:01.05	298.47	21.60	-42.1	-45.4	18.4	6.06e-01	0	62	0	713555968	55	5358
2026-01-19 13:00:02.06	298.74	21.52	-42.1	-45.3	18.4	6.05e-01	0	62	0	715653120	55	5333
2026-01-19 13:00:03.07	299.01	21.44	-42.2	-45.5	18.3	6.06e-01	0	62	0	717750272	55	5410
2026-01-19 13:00:04.08	299.28	21.36	-42.2	-45.5	18.2	6.05e-01	0	62	0	719323136	55	5448
2026-01-19 13:00:05.09	299.54	21.28	-42.1	-45.4	18.3	6.05e-01	0	62	0	721420288	55	5386
2026-01-19 13:00:06.10	299.81	21.20	-42.1	-45.4	18.3	6.06e-01	0	62	0	723517440	55	5398
2026-01-19 13:00:07.11	300.07	21.12	-42.0	-45.2	18.5	6.06e-01	0	62	0	725090304	55	5274
2026-01-19 13:00:08.12	300.33	21.04	-42.0	-45.2	18.5	6.06e-01	0	62	0	727187456	55	5228
2026-01-19 13:00:09.13	300.59	20.96	-42.1	-45.3	18.4	6.07e-01	0	62	0	728760320	55	5330
2026-01-19 13:00:10.14	300.85	20.88	-42.1	-45.4	18.3	6.06e-01	0	62	0	730857472	55	5361
2026-01-19 13:00:11.14	301.11	20.80	-42.1	-45.5	18.3	6.05e-01	0	62	0	732954624	55	5403
2026-01-19 13:00:12.15	301.36	20.71	-42.0	-45.3	18.5	6.07e-01	0	62	0	734527488	55	5283
2026-01-19 13:00:13.16	301.62	20.63	-42.0	-45.3	18.4	6.06e-01	0	62	0	736624640	55	5281
2026-01-19 13:00:14.17	301.87	20.55	-42.0	-45.2	18.5	6.05e-01	0	62	0	738197504	55	5266
2026-01-19 13:00:15.18	302.12	20.47	-42.0	-45.2	18.5	6.05e-01	0	62	0	740294656	55	5263
2026-01-19 13:00:16.19	302.37	20.38	-42.0	-45.3	18.4	6.06e-01	0	62	0	742391808	55	5308
2026-01-19 13:00:17.20	302.62	20.30	-42.1	-45.3	18.4	6.05e-01	0	62	0	743964672	55	5314
2026-01-19 13:00:18.21	302.87	20.22	-42.1	-45.3	18.4	6.07e-01	0	62	0	746061824	55	5328
2026-01-19 13:00:19.22	303.12	20.13	-42.1	-45.4	18.3	6.05e-01	0	62	0	747634688	55	5370
2026-01-19 13:00:20.23	303.36	20.05	-42.1	-45.4	18.3	6.04e-01	0	62	0	749731840	55	5351
2026-01-19 13:00:21.24	303.61	19.97	-42.1	-45.4	18.3	6.06e-01	0	62	0	751828992	55	5357
2026-01-19 13:00:22.25	303.85	19.88	-42.1	-45.3	18.3	6.04e-01	0	62	0	753401856	55	5339
2026-01-19 13:00:23.26	304.09	19.80	-42.0	-45.3	18.4	6.05e-01	0	62	0	755499008	55	5295
2026-01-19 13:00:24.27	304.33	19.71	-41.9	-45.1	18.6	6.06e-01	0	62	0	757071872	55	5199
2026-01-19 13:00:25.28	304.57	19.63	-41.9	-45.1	18.6	6.04e-01	0	62	0	759169024	55	5173
2026-01-19 13:00:26.29	304.80	19.54	-42.0	-45.2	18.5	6.05e-01	0	62	0	761266176	55	5234
2026-01-19 13:00:27.30	305.04	19.46	-41.9	-45.1	18.6	6.06e-01	0	62	0	762839040	55	5201
2026-01-19 13:00:28.31	305.27	19.37	-42.0	-45.3	18.4	6.07e-01	0	62	0	764936192	55	5282
2026-01-19 13:00:29.32	305.50	19.29	-42.0	-45.2	18.4	6.04e-01	0	62	0	766509056	55	5274
2026-01-19 13:00:30.33	305.74	19.20	-42.0	-45.2	18.5	6.05e-01	0	62	0	768606208	55	5259
2026-01-19 13:00:31.34	305.97	19.12	-42.0	-45.2	18.4	6.04e-01	0	62	0	770703360	55	5276
2026-01-19 13:00:32.34	306.19	19.03	-41.9	-45.1	18.6	6.05e-01	0	62	0	772276224	55	5166
2026-01-19 13:00:33.35	306.42	18.95	-41.9	-45.1	18.6	6.06e-01	0	62	0	774373376	55	5172
2026-01-19 13:00:34.37	306.65	18.86	-42.0	-45.2	18.5	6.05e-01	0	62	0	776470528	55	5239
2026-01-19 13:00:35.38	306.87	18.77	-42.0	-45.3	18.4	6.06e-01	0	62	0	778043392	55	5286
2026-01-19 13:00:36.38	307.09	18.69	-42.0	-45.2	18.4	6.04e-01	0	62	0	780140544	55	5258
2026-01-19 13:00:37.39	307.32	18.60	-42.0	-45.2	18.4	6.06e-01	0	62	0	781713408	55	5258
2026-01-19 13:00:38.40	307.54	18.52	-42.0	-45.2	18.4	6.03e-01	0	62	0	783810560	55	5243
2026-01-19 13:00:39.41	307.76	18.43	-41.9	-45.1	18.5	6.07e-01	0	62	0	785907712	55	5185
2026-01-19 13:00:40.42	307.97	18.34	-41.9	-45.1	18.6	6.06e-01	0	62	0	787480576	55	5171
2026-01-19 13:00:41.43	308.19	18.26	-42.0	-45.2	18.4	6.04e-01	0	62	0	789577728	55	5242
2026-01-19 13:00:42.44	308.41	18.17	-42.0	-45.2	18.4	6.08e-01	0	62	0	791674880	55	5258
2026-01-19 13:00:43.45	308.62	18.09	-41.9	-45.1	18.5	6.08e-01	0	62	0	793247744	55	5213
2026-01-19 13:00:44.46	308.83	18.00	-41.9	-45.2	18.5	6.06e-01	0	62	0	795344896	55	5220
2026-01-19 13:00:45.47	309.05	17.91	-41.9	-45.2	18.5	6.08e-01	0	62	0	796917760	55	5219
2026-01-19 13:00:46.48	309.26	17.83	-41.9	-45.2	18.5	6.07e-01	0	62	0	799014912	55	5224
2026-01-19 13:00:47.49	309.47	17.74	-41.9	-45.1	18.5	6.06e-01	0	62	0	801112064	55	5205
2026-01-19 13:00:48.50	309.67	17.65	-41.9	-45.1	18.5	6.07e-01	0	62	0	802684928	55	5208
2026-01-19 13:00:49.51	309.88	17.57	-41.9	-45.1	18.5	6.09e-01	0	62	0	804782080	55	5208
2026-01-19 13:00:50.52	310.09	17.48	-41.8	-45.0	18.6	6.07e-01	0	62	0	806354944	55	5143
2026-01-19 13:00:51.53	310.29	17.40	-41.9	-45.0	18.5	6.04e-01	0	62	0	808452096	55	5155
2026-01-19 13:00:52.54	310.49	17.31	-41.9	-45.1	18.5	6.08e-01	0	62	0	810024960	55	5171
2026-01-19 13:00:53.55	310.70	17.22	-41.8	-45.0	18.6	6.06e-01	0	62	0	812122112	55	5156
2026-01-19 13:00:54.56	310.90	17.14	-41.9	-45.1	18.1	6.05e-01	0	62	0	814219264	55	5168
2026-01-19 13:00:55.57	311.10	17.05	-41.9	-45.2	18.4	6.05e-01	0	62	0	815792128	55	5254
2026-01-19 13:00:56.57	311.29	16.96	-41.9	-45.2	18.4	6.06e-01	0	62	0	817889280	55	5260
2026-01-19 13:00:57.59	311.49	16.88	-41.9	-45.2	18.4	6.05e-01	0	62	0	819986432	55	5248
2026-01-19 13:00:58.60	311.69	16.79	-41.9	-45.2	18.4	6.06e-01	0	62	0	821559296	55	5244
2026-01-19 13:00:59.61	311.88	16.70	-42.0	-45.2	18.3	6.07e-01	0	62	0	823656448	55	5268
2026-01-19 13:01:00.61	312.07	16.62	-41.9	-45.1	18.5	6.08e-01	0	62	0	825229312	55	5173
2026-01-19 13:01:01.62	312.27	16.53	-41.9	-45.1	18.4	6.07e-01	0	62	0	827326464	55	5202
2026-01-19 13:01:02.63	312.46	16.45	-41.9	-45.2	18.4	6.06e-01	0	62	0	829423616	55	5229
2026-01-19 13:01:03.64	312.65	16.36	-41.9	-45.2	18.3	6.07e-01	0	62	0	830996480	55	5262
2026-01-19 13:01:04.65	312.84	16.28	-41.9	-45.2	18.3	6.06e-01	0	62	0	833093632	55	5269
2026-01-19 13:01:05.66	313.03	16.19	-41.9	-45.2	18.3	6.05e-01	0	62	0	834666496	55	5266
2026-01-19 13:01:06.67	313.21	16.10	-41.9	-45.2	18.3	6.09e-01	0	62	0	836763648	55	5240
2026-01-19 13:01:07.68	313.40	16.02	-41.9	-45.2	18.4	6.06e-01	0	62	0	838860800	55	5230
2026-01-19 13:01:08.69	313.58	15.93	-41.8	-45.1	18.5	6.08e-01	0	62	0	840433664	55	5163
2026-01-19 13:01:09.70	313.77	15.85	-41.8	-45.0	18.5	6.08e-01	0	62	0	842530816	55	5125
2026-01-19 13:01:10.71	313.95	15.76	-41.8	-45.1	18.5	6.06e-01	0	62	0	844627968	55	5163
2026-01-19 13:01:11.72	314.13	15.67	-41.9	-45.2	18.4	6.05e-01	0	62	0	846200832	55	5227
2026-01-19 13:01:12.73	314.31	15.59	-41.9	-45.2	18.3	6.05e-01	0	62	0	848297984	55	5245
2026-01-19 13:01:13.74	314.49	15.50	-41.9	-45.1	18.4	6.03e-01	0	62	0	849870848	55	5215
2026-01-19 13:01:14.75	314.67	15.42	-41.9	-45.2	18.3	6.07e-01	0	62	0	851968000	55	5251
2026-01-19 13:01:15.76	314.85	15.33	-41.9	-45.1	18.4	6.06e-01	0	62	0	854065152	55	5215
2026-01-19 13:01:16.77	315.02	15.25	-41.8	-45.1	18.4	6.06e-01	0	62	0	855638016	55	5185
2026-01-19 13:01:17.78	315.20	15.16	-41.9	-45.2	18.3	6.06e-01	0	62	0	857735168	55	5264
2026-01-19 13:01:18.79	315.37	15.08	-41.9	-45.2	18.3	6.05e-01	0	62	0	859308032	55	5271
2026-01-19 13:01:19.80	315.54	14.99	-42.0	-45.4	18.1	6.07e-01	0	62	0	861405184	55	5357
2026-01-19 13:01:20.81	315.72	14.91	-42.0	-45.4	18.1	6.07e-01	0	62	0	863502336	55	5379
2026-01-19 13:01:21.82	315.89	14.82	-42.0	-45.4	18.1	6.06e-01	0	62	0	865075200	55	5361
2026-01-19 13:01:22.83	316.06	14.74	-42.0	-45.4	18.1	6.05e-01	0	62	0	867172352	55	5353
2026-01-19 13:01:23.84	316.23	14.66	-42.0	-45.3	18.1	6.05e-01	0	62	0	869269504	55	5319
2026-01-19 13:01:24.85	316.39	14.57	-41.9	-45.3	18.2	6.07e-01	0	62	0	870842368	55	5288
2026-01-19 13:01:25.86	316.56	14.49	-41.9	-45.2	18.2	6.06e-01	0	62	0	872939520	55	5271
2026-01-19 13:01:26.87	316.73	14.40	-41.9	-45.2	18.3	6.07e-01	0	62	0	874512384	55	5244
2026-01-19 13:01:27.88	316.89	14.32	-41.9	-45.2	18.3	6.04e-01	0	62	0	876609536	55	5229
2026-01-19 13:01:28.89	317.06	14.24	-42.0	-45.4	18.1	6.06e-01	0	62	0	878706688	55	5356
2026-01-19 13:01:29.90	317.22	14.15	-41.9	-45.3	18.2	6.05e-01	0	62	0	880279552	55	5281
2026-01-19 13:01:30.91	317.38	14.07	-41.9	-45.3	18.2	6.06e-01	0	62	0	882376704	55	5295
2026-01-19 13:01:31.92	317.54	13.98	-41.9	-45.3	18.2	6.06e-01	0	62	0	883949568	55	5319
2026-01-19 13:01:32.93	317.70	13.90	-42.0	-45.4	18.0	6.06e-01	0	62	0	886046720	55	5381
2026-01-19 13:01:33.94	317.86	13.82	-41.9	-45.2	18.2	6.05e-01	0	62	0	887619584	55	5269
2026-01-19 13:01:34.95	318.02	13.74	-41.9	-45.3	18.1	6.07e-01	0	62	0	889716736	55	5304
2026-01-19 13:01:35.96	318.18	13.65	-41.9	-45.3	18.1	6.07e-01	0	62	0	891813888	55	5322
2026-01-19 13:01:36.97	318.34	13.57	-41.9	-45.3	18.1	6.07e-01	0	62	0	893386752	55	5328
2026-01-19 13:01:37.98	318.49	13.49	-42.0	-45.4	18.0	6.06e-01	0	62	0	895483904	55	5378
2026-01-19 13:01:38.99	318.65	13.40	-42.0	-45.4	18.0	6.07e-01	0	62	0	897581056	55	5375
2026-01-19 13:01:40.00	318.80	13.32	-42.0	-45.4	18.0	6.07e-01	0	62	0	899153920	55	5392
2026-01-19 13:01:41.01	318.95	13.24	-42.1	-45.5	17.9	6.06e-01	0	62	0	901251072	55	5448
2026-01-19 13:01:42.01	319.10	13.16	-42.0	-45.5	17.9	6.06e-01	0	62	0	902823936	55	5432
2026-01-19 13:01:43.02	319.25	13.08	-42.0	-45.5	17.9	6.06e-01	0	62	0	904921088	55	5422
2026-01-19 13:01:44.03	319.41	12.99	-42.0	-45.5	17.9	6.05e-01	0	62	0	907018240	55	5433
2026-01-19 13:01:45.04	319.55	12.91	-42.0	-45.5	17.9	6.05e-01	0	62	0	908591104	55	5448
2026-01-19 13:01:46.05	319.70	12.83	-42.0	-45.5	17.9	6.06e-01	0	62	0	910688256	55	5443
2026-01-19 13:01:47.06	319.85	12.75	-42.0	-45.5	17.9	6.06e-01	0	62	0	912785408	55	5428
2026-01-19 13:01:48.07	320.00	12.67	-42.1	-45.6	17.8	6.07e-01	0	62	0	914358272	55	5489
2026-01-19 13:01:49.08	320.14	12.59	-42.1	-45.6	17.8	6.09e-01	0	62	0	916455424	55	5495
2026-01-19 13:01:50.09	320.29	12.51	-42.1	-45.7	17.6	6.07e-01	0	62	0	918028288	55	5573
2026-01-19 13:01:51.10	320.43	12.43	-42.1	-45.6	17.7	6.04e-01	0	62	0	920125440	55	5522
2026-01-19 13:01:52.11	320.58	12.34	-42.1	-45.6	17.8	6.07e-01	0	62	0	922222592	55	5496
2026-01-19 13:01:53.12	320.72	12.26	-42.1	-45.7	17.6	6.08e-01	0	62	0	923795456	55	5548
2026-01-19 13:01:54.13	320.86	12.18	-42.1	-45.6	17.7	6.05e-01	0	62	0	925892608	55	5502
2026-01-19 13:01:55.14	321.00	12.10	-42.1	-45.6	17.8	6.04e-01	0	62	0	927465472	55	5494
2026-01-19 13:01:56.15	321.14	12.02	-42.1	-45.8	17.6	6.07e-01	0	62	0	929562624	55	5594
2026-01-19 13:01:57.16	321.28	11.94	-42.1	-45.7	17.6	6.08e-01	0	62	0	931659776	55	5576
2026-01-19 13:01:58.17	321.42	11.86	-42.1	-45.7	17.6	6.04e-01	0	62	0	933232640	55	5582
2026-01-19 13:01:59.17	321.56	11.78	-42.1	-45.7	17.5	6.07e-01	0	62	0	935329792	55	5591
2026-01-19 13:02:00.19	321.70	11.70	-42.1	-45.8	17.5	6.06e-01	0	62	0	936902656	55	5600
2026-01-19 13:02:01.19	321.83	11.63	-42.1	-45.7	17.6	6.04e-01	0	62	0	938999808	55	5568
2026-01-19 13:02:02.20	321.97	11.55	-42.1	-45.7	17.6	6.06e-01	0	62	0	941096960	55	5559
2026-01-19 13:02:03.21	322.10	11.47	-42.1	-45.8	17.5	6.07e-01	0	62	0	942669824	55	5606
2026-01-19 13:02:04.22	322.24	11.39	-42.2	-45.8	17.5	6.05e-01	0	62	0	944766976	55	5650
2026-01-19 13:02:05.23	322.37	11.31	-42.1	-45.8	17.5	6.04e-01	0	62	0	946339840	55	5612
2026-01-19 13:02:06.24	322.50	11.23	-42.1	-45.8	17.5	6.06e-01	0	62	0	948436992	55	5595
2026-01-19 13:02:07.25	322.64	11.15	-42.1	-45.7	17.5	6.04e-01	0	62	0	950534144	55	5587
2026-01-19 13:02:08.26	322.77	11.07	-42.1	-45.8	17.5	6.06e-01	0	62	0	952107008	55	5605
2026-01-19 13:02:09.27	322.90	11.00	-42.2	-45.8	17.4	6.05e-01	0	62	0	954204160	55	5646
2026-01-19 13:02:10.28	323.03	10.92	-42.2	-45.8	17.4	6.06e-01	0	62	0	955777024	55	5649
2026-01-19 13:02:11.29	323.16	10.84	-42.2	-45.9	17.4	6.06e-01	0	62	0	957874176	55	5669
2026-01-19 13:02:12.30	323.28	10.76	-42.2	-45.9	17.3	6.06e-01	0	62	0	959971328	55	5705
2026-01-19 13:02:13.30	323.41	10.69	-42.2	-45.9	17.3	6.05e-01	0	62	0	961544192	55	5714
2026-01-19 13:02:14.31	323.54	10.61	-42.2	-46.0	17.3	6.05e-01	0	62	0	963641344	55	5734
2026-01-19 13:02:15.32	323.66	10.53	-42.3	-46.1	17.1	6.07e-01	0	62	0	965738496	55	5822
2026-01-19 13:02:16.33	323.79	10.45	-42.3	-46.2	17.0	6.05e-01	0	62	0	967311360	55	5905
2026-01-19 13:02:17.34	323.91	10.38	-42.3	-46.2	17.0	6.05e-01	0	62	0	969408512	55	5892
2026-01-19 13:02:18.35	324.04	10.30	-42.3	-46.3	16.9	6.06e-01	0	62	0	970981376	55	5925
2026-01-19 13:02:19.36	324.16	10.22	-42.3	-46.2	17.0	6.07e-01	0	62	0	973078528	55	5886
2026-01-19 13:02:20.37	324.28	10.15	-42.3	-46.2	17.0	6.07e-01	0	62	0	975175680	55	5892
2026-01-19 13:02:21.38	324.41	10.07	-42.4	-46.3	16.9	6.06e-01	0	62	0	976748544	55	5964
2026-01-19 13:02:22.39	324.53	10.00	-42.3	-46.2	17.0	6.06e-01	0	62	0	978845696	55	5889
2026-01-19 13:02:23.40	324.65	9.92	-42.3	-46.2	16.9	6.09e-01	0	62	0	980942848	55	5909
2026-01-19 13:02:24.41	324.77	9.84	-42.3	-46.3	16.8	6.08e-01	0	62	0	982515712	55	5934
2026-01-19 13:02:25.42	324.89	9.77	-42.3	-46.3	16.9	6.05e-01	0	62	0	984612864	55	5951
2026-01-19 13:02:26.43	325.01	9.69	-42.3	-46.2	16.9	6.04e-01	0	62	0	986185728	55	5893
2026-01-19 13:02:27.43	325.12	9.62	-42.4	-46.4	16.8	6.06e-01	0	62	0	988282880	55	5993
2026-01-19 13:02:28.44	325.24	9.54	-42.4	-46.4	16.8	6.04e-01	0	62	0	990380032	55	6008
2026-01-19 13:02:29.45	325.36	9.47	-42.4	-46.4	16.7	6.08e-01	0	62	0	991952896	55	6036
2026-01-19 13:02:30.46	325.48	9.39	-42.3	-46.3	16.8	6.06e-01	0	62	0	994050048	55	5942
2026-01-19 13:02:31.47	325.59	9.32	-42.3	-46.3	16.8	6.06e-01	0	62	0	995622912	55	5957
2026-01-19 13:02:32.48	325.71	9.24	-42.3	-46.3	16.7	6.06e-01	0	62	0	997720064	55	5977
2026-01-19 13:02:33.49	325.82	9.17	-42.3	-46.3	16.7	6.06e-01	0	62	0	999817216	55	5968
2026-01-19 13:02:34.50	325.94	9.10	-42.3	-46.3	16.7	6.06e-01	0	62	0	1001390080	55	5940
2026-01-19 13:02:35.51	326.05	9.02	-42.4	-46.4	16.6	6.04e-01	0	62	0	1003487232	55	6052
2026-01-19 13:02:36.52	326.16	8.95	-42.4	-46.4	16.6	6.06e-01	0	62	0	1005060096	55	6022
2026-01-19 13:02:37.53	326.27	8.87	-42.4	-46.6	16.4	6.00e-01	0	62	0	1007157248	55	6166
2026-01-19 13:02:38.54	326.38	8.80	-42.3	-46.4	16.6	5.98e-01	0	62	0	1009254400	55	6040
2026-01-19 13:02:39.55	326.50	8.73	-42.4	-46.5	16.5	6.02e-01	0	62	0	1010827264	55	6120
2026-01-19 13:02:40.56	326.61	8.65	-42.4	-46.5	16.5	6.01e-01	0	62	0	1012924416	55	6129
2026-01-19 13:02:41.57	326.72	8.58	-42.4	-46.5	16.5	6.00e-01	0	62	0	1014497280	55	6104
2026-01-19 13:02:42.58	326.83	8.51	-42.3	-46.4	16.6	6.01e-01	0	62	0	1016594432	55	6011
2026-01-19 13:02:43.59	326.93	8.43	-42.3	-46.4	16.5	6.01e-01	0	62	0	1018691584	55	6035
2026-01-19 13:02:44.59	327.04	8.36	-42.4	-46.6	16.3	5.99e-01	0	62	0	1020264448	55	6177
2026-01-19 13:02:45.60	327.15	8.29	-42.4	-46.6	16.4	6.04e-01	0	62	0	1022361600	55	6143
2026-01-19 13:02:46.61	327.26	8.22	-42.4	-46.7	16.3	6.01e-01	0	62	0	1023934464	55	6208
2026-01-19 13:02:47.62	327.36	8.15	-42.4	-46.6	16.3	5.99e-01	0	62	0	1026031616	55	6174
2026-01-19 13:02:48.63	327.47	8.07	-42.4	-46.7	16.2	6.01e-01	0	62	0	1028128768	55	6224
2026-01-19 13:02:49.64	327.57	8.00	-44.9	-59.3	3.3	7.42e-01	0	62	104	1029701632	60	19924
2026-01-19 13:02:50.65	327.68	7.93	-45.5	-63.5	3.8	7.47e-01	0	62	104	1029701632	61	30491
2026-01-19 13:02:51.66	327.78	7.86	-45.8	-64.4	3.8	7.43e-01	0	62	104	1029701632	62	31817
2026-01-19 13:02:52.67	327.89	7.79	-46.0	-64.6	3.8	7.42e-01	0	62	104	1029701632	62	32724
2026-01-19 13:02:53.68	327.99	7.72	-46.1	-64.8	3.8	7.49e-01	0	62	104	1029701632	62	33320
2026-01-19 13:02:54.69	328.09	7.64	-46.2	-64.9	3.8	7.46e-01	0	62	104	1029701632	63	31932
2026-01-19 13:02:55.70	328.19	7.57	-46.3	-64.9	3.8	7.42e-01	0	62	104	1029701632	63	32086
2026-01-19 13:02:56.71	328.30	7.50	-46.4	-65.0	3.8	7.43e-01	0	62	104	1029701632	63	32309
2026-01-19 13:02:57.72	328.40	7.43	-46.3	-65.0	3.8	7.45e-01	0	62	104	1029701632	63	32535
2026-01-19 13:02:58.73	328.50	7.36	-46.3	-65.0	3.8	7.44e-01	0	62	104	1029701632	63	32438
2026-01-19 13:02:59.74	328.60	7.29	-46.4	-64.9	3.9	7.46e-01	0	62	104	1029701632	63	31863
2026-01-19 13:03:00.75	328.70	7.22	-46.3	-64.0	3.8	7.44e-01	0	62	104	1029701632	62	30485
2026-01-19 13:03:01.76	328.80	7.15	-46.3	-64.8	3.8	7.47e-01	0	62	104	1029701632	63	31481
2026-01-19 13:03:02.78	328.90	7.08	-46.4	-64.9	3.8	7.48e-01	0	62	104	1029701632	63	32039
2026-01-19 13:03:03.79	328.99	7.01	-46.0	-64.8	3.8	7.48e-01	0	62	104	1029701632	63	31487
2026-01-19 13:03:04.80	329.09	6.94	-45.9	-64.7	3.8	7.48e-01	0	62	104	1029701632	63	31375
2026-01-19 13:03:05.81	329.19	6.87	-46.3	-64.8	3.8	7.44e-01	0	62	104	1029701632	63	31781
2026-01-19 13:03:06.82	329.29	6.80	-46.3	-64.8	3.8	7.45e-01	0	62	104	1029701632	63	31762
2026-01-19 13:03:07.83	329.38	6.73	-46.3	-64.8	3.8	7.43e-01	0	62	104	1029701632	63	31749
2026-01-19 13:03:08.84	329.48	6.66	-45.7	-64.8	3.8	7.45e-01	0	62	104	1029701632	63	31730
2026-01-19 13:03:09.85	329.57	6.59	-45.6	-64.8	3.8	7.43e-01	0	62	104	1029701632	62	33490
2026-01-19 13:03:10.86	329.67	6.53	-45.9	-64.8	3.8	7.44e-01	0	62	104	1029701632	62	33540
2026-01-19 13:03:11.87	329.76	6.46	-46.0	-64.8	3.8	7.45e-01	0	62	104	1029701632	62	33634
2026-01-19 13:03:12.88	329.86	6.39	-46.0	-64.8	3.8	7.45e-01	0	62	104	1029701632	62	33477
2026-01-19 13:03:13.89	329.95	6.32	-45.9	-64.8	3.8	7.45e-01	0	62	104	1029701632	62	33461
2026-01-19 13:03:14.90	330.04	6.25	-46.1	-64.8	3.8	7.44e-01	0	62	104	1029701632	62	33555
2026-01-19 13:03:15.91	330.14	6.18	-46.1	-64.8	3.8	7.43e-01	0	62	104	1029701632	62	33467
2026-01-19 13:03:16.92	330.23	6.12	-46.2	-64.8	3.8	7.47e-01	0	62	104	1029701632	62	33492
2026-01-19 13:03:17.93	330.32	6.05	-46.0	-64.8	3.8	7.46e-01	0	62	104	1029701632	62	33505
2026-01-19 13:03:18.95	330.41	5.98	-45.2	-64.7	3.8	7.48e-01	0	62	104	1029701632	61	35250
2026-01-19 13:03:19.96	330.50	5.91	-44.7	-64.7	3.8	7.48e-01	0	62	104	1029701632	60	37286
2026-01-19 13:03:20.97	330.59	5.85	-44.5	-64.8	3.8	7.43e-01	0	62	104	1029701632	60	37477
2026-01-19 13:03:21.98	330.68	5.78	-45.2	-64.8	3.8	7.43e-01	0	62	104	1029701632	61	35481
2026-01-19 13:03:22.99	330.77	5.71	-44.7	-64.7	3.8	7.42e-01	0	62	104	1029701632	61	35250
2026-01-19 13:03:24.00	330.86	5.64	-46.2	-64.8	3.8	7.45e-01	0	62	104	1029701632	63	31596
2026-01-19 13:03:25.01	330.95	5.58	-46.2	-64.8	3.8	7.43e-01	0	62	104	1029701632	63	31583
2026-01-19 13:03:26.02	331.04	5.51	-46.2	-64.8	3.8	7.45e-01	0	62	104	1029701632	63	31625
2026-01-19 13:03:27.03	331.13	5.44	-46.2	-64.8	3.8	7.44e-01	0	62	104	1029701632	63	31633
2026-01-19 13:03:28.04	331.21	5.38	-46.2	-64.8	3.8	7.43e-01	0	62	104	1029701632	63	31624
2026-01-19 13:03:29.05	331.30	5.31	-46.2	-64.8	3.8	7.46e-01	0	62	104	1029701632	63	31608
2026-01-19 13:03:30.06	331.39	5.25	-46.2	-64.8	3.8	7.44e-01	0	62	104	1029701632	63	31586
2026-01-19 13:03:31.07	331.47	5.18	-46.2	-64.8	3.8	7.46e-01	0	62	104	1029701632	63	31590
2026-01-19 13:03:32.08	331.56	5.11	-46.2	-64.8	3.8	7.45e-01	0	62	104	1029701632	63	31642
2026-01-19 13:03:33.10	331.64	5.05	-46.1	-64.8	3.7	7.46e-01	0	62	104	1029701632	62	33358
2026-01-19 13:03:34.11	331.73	4.98	-46.2	-64.8	3.8	7.46e-01	0	62	104	1029701632	63	31534
2026-01-19 13:03:35.12	331.81	4.92	-46.2	-64.8	3.8	7.46e-01	0	62	104	1029701632	63	31578
2026-01-19 13:03:36.13	331.90	4.85	-46.2	-64.9	3.7	7.42e-01	0	62	104	1029701632	63	31851
2026-01-19 13:03:37.14	331.98	4.79	-45.9	-64.8	3.8	7.48e-01	0	62	104	1029701632	63	31534
2026-01-19 13:03:38.15	332.07	4.72	-46.2	-64.8	3.8	7.48e-01	0	62	104	1029701632	63	31565
2026-01-19 13:03:39.16	332.15	4.66	-46.2	-64.8	3.8	7.49e-01	0	62	104	1029701632	62	33597
2026-01-19 13:03:40.17	332.23	4.59	-46.2	-64.8	3.8	7.44e-01	0	62	104	1029701632	63	31495
2026-01-19 13:03:41.18	332.31	4.53	-46.2	-64.8	3.8	7.45e-01	0	62	104	1029701632	63	31603
2026-01-19 13:03:42.19	332.40	4.46	-46.2	-64.8	3.8	7.43e-01	0	62	104	1029701632	63	31560
2026-01-19 13:03:43.20	332.48	4.40	-46.2	-64.8	3.8	7.46e-01	0	62	104	1029701632	63	31499
2026-01-19 13:03:44.21	332.56	4.33	-46.1	-64.8	3.8	7.47e-01	0	62	104	1029701632	63	31550
2026-01-19 13:03:45.22	332.64	4.27	-46.2	-64.8	3.7	7.43e-01	0	62	104	1029701632	62	33329
2026-01-19 13:03:46.23	332.72	4.21	-46.2	-64.8	3.8	7.46e-01	0	62	104	1029701632	63	31501
2026-01-19 13:03:47.24	332.80	4.14	-46.0	-64.9	3.9	7.52e-01	0	62	104	1029701632	62	33917
2026-01-19 13:03:48.25	332.88	4.08	-45.9	-64.7	3.8	7.44e-01	0	62	104	1029701632	62	33242
2026-01-19 13:03:49.26	332.96	4.02	-46.2	-64.7	3.8	7.48e-01	0	62	104	1029701632	62	33144
2026-01-19 13:03:50.27	333.04	3.95	-45.5	-64.8	3.8	7.44e-01	0	62	104	1029701632	62	33429
2026-01-19 13:03:51.28	333.12	3.89	-46.2	-64.8	3.8	7.49e-01	0	62	104	1029701632	63	31546
2026-01-19 13:03:52.29	333.19	3.83	-46.2	-64.8	3.8	7.46e-01	0	62	104	1029701632	62	33448
2026-01-19 13:03:53.30	333.27	3.76	-46.1	-64.8	3.8	7.46e-01	0	62	104	1029701632	63	31566
2026-01-19 13:03:54.31	333.35	3.70	-46.2	-64.8	3.8	7.45e-01	0	62	104	1029701632	62	33425
2026-01-19 13:03:55.32	333.43	3.64	-46.2	-64.8	3.8	7.47e-01	0	62	104	1029701632	63	31536
2026-01-19 13:03:56.33	333.50	3.57	-44.3	-64.4	3.9	7.50e-01	0	62	104	1029701632	60	36084
2026-01-19 13:03:57.34	333.58	3.51	-46.0	-64.8	3.8	7.46e-01	0	62	104	1029701632	62	33397
2026-01-19 13:03:58.35	333.66	3.45	-46.2	-64.8	3.8	7.46e-01	0	62	104	1029701632	62	33372
2026-01-19 13:03:59.36	333.73	3.39	-46.2	-64.8	3.8	7.43e-01	0	62	104	1029701632	62	33380
2026-01-19 13:04:00.37	333.81	3.32	-46.2	-64.8	3.8	7.47e-01	0	62	104	1029701632	62	33333
2026-01-19 13:04:01.38	333.88	3.26	-46.2	-64.8	3.8	7.48e-01	0	62	104	1029701632	62	33385
2026-01-19 13:04:02.39	333.96	3.20	-46.0	-64.7	3.8	7.46e-01	0	62	104	1029701632	62	33197
2026-01-19 13:04:03.40	334.03	3.14	-46.2	-64.8	3.8	7.45e-01	0	62	104	1029701632	62	33423
2026-01-19 13:04:04.41	334.11	3.08	-46.2	-64.8	3.8	7.48e-01	0	62	104	1029701632	62	33383
2026-01-19 13:04:05.42	334.18	3.01	-46.1	-64.8	3.8	7.41e-01	0	62	104	1029701632	62	33441
2026-01-19 13:04:06.43	334.26	2.95	-46.2	-64.8	3.8	7.43e-01	0	62	104	1029701632	62	33334
2026-01-19 13:04:07.45	334.33	2.89	-46.2	-64.8	3.8	7.45e-01	0	62	104	1029701632	62	33348
