passes_logs/2026/01/19/R2.0S_Moscow/R2.0S_Moscow__20260119_110121_NOAA_21_JPSS-2_rec.log

#Pass ID: 20260119_110121_NOAA 21 (JPSS-2)
#Satellite: NOAA 21 (JPSS-2)
#Configuration: NOAA-21
#almurnet v.1.7.20251203
#Start time: 2026-01-19 11:02:51

#Version: 2.2.20231116
#Station: R2.0S_Moscow
#Location: 37.707566 lon 55.798166 lat
#TLE: 1 54234U 22150A   26017.90260625  .00000050  00000+0  44518-4 0  9994
#TLE: 2 54234  98.7502 318.7672 0000612 269.1755  90.9351 14.19535344165221

#Time	Az	El	Level	Level2	SNR	BER	BlckErr	Temp	State	Recorded	gain1	gain2
2026-01-19 11:02:51.59	199.16	7.91	-45.0	-56.7	3.8	8.45e-01	0	62	0	0	60	14874
2026-01-19 11:02:52.59	199.24	7.98	-45.4	-57.7	3.8	1.49e+00	0	62	104	0	62	14828
2026-01-19 11:02:53.60	199.32	8.05	-45.4	-57.7	3.8	1.49e+00	0	62	104	0	62	14836
2026-01-19 11:02:54.61	199.40	8.13	-45.3	-57.7	3.8	1.49e+00	0	62	104	0	62	14850
2026-01-19 11:02:55.62	199.47	8.20	-45.3	-57.6	3.8	1.49e+00	0	62	104	0	62	14704
2026-01-19 11:02:56.63	199.55	8.27	-45.2	-57.6	3.8	1.49e+00	0	62	104	0	62	14608
2026-01-19 11:02:57.65	199.63	8.34	-45.1	-57.5	3.8	1.49e+00	0	62	104	0	62	14396
2026-01-19 11:02:58.66	199.71	8.42	-44.9	-57.3	3.8	1.49e+00	0	62	104	0	61	14957
2026-01-19 11:02:59.67	199.79	8.49	-44.7	-57.0	3.8	1.49e+00	0	62	104	0	61	14390
2026-01-19 11:03:00.68	199.87	8.57	-43.4	-55.6	3.8	1.49e+00	0	62	104	0	58	14685
2026-01-19 11:03:01.69	199.95	8.64	-44.2	-56.4	3.8	1.49e+00	0	62	104	0	59	15084
2026-01-19 11:03:02.70	200.04	8.71	-44.2	-56.3	3.8	1.49e+00	0	62	104	0	59	14987
2026-01-19 11:03:03.71	200.12	8.79	-44.2	-56.3	3.8	1.49e+00	0	62	104	0	59	14965
2026-01-19 11:03:04.72	200.20	8.86	-44.2	-56.2	3.8	1.49e+00	0	62	104	0	59	14787
2026-01-19 11:03:05.73	200.28	8.94	-44.2	-56.1	3.8	1.49e+00	0	62	104	0	59	14705
2026-01-19 11:03:06.74	200.36	9.01	-44.1	-56.1	3.8	1.49e+00	0	62	104	0	59	14617
2026-01-19 11:03:07.75	200.45	9.09	-44.1	-56.0	3.8	1.49e+00	0	62	104	0	59	14501
2026-01-19 11:03:08.76	200.53	9.16	-44.1	-55.9	3.8	1.49e+00	0	62	104	0	59	14236
2026-01-19 11:03:09.77	200.62	9.24	-44.1	-55.8	3.8	1.49e+00	0	62	104	0	59	14205
2026-01-19 11:03:10.78	200.70	9.31	-44.1	-55.7	3.8	1.49e+00	0	62	104	0	59	13975
2026-01-19 11:03:11.79	200.78	9.39	-44.1	-55.6	3.8	1.49e+00	0	62	104	0	59	13857
2026-01-19 11:03:12.80	200.87	9.46	-44.0	-55.4	3.8	1.49e+00	0	62	104	0	59	13479
2026-01-19 11:03:13.81	200.96	9.54	-44.0	-55.2	3.8	1.49e+00	0	62	104	0	59	13159
2026-01-19 11:03:14.82	201.04	9.62	-44.0	-54.9	3.8	1.49e+00	0	62	104	0	59	12698
2026-01-19 11:03:15.83	201.13	9.69	-43.9	-54.3	3.9	1.49e+00	0	62	104	0	59	11896
2026-01-19 11:03:16.84	201.22	9.77	-43.9	-54.0	3.8	1.48e+00	0	62	104	0	59	11470
2026-01-19 11:03:17.85	201.30	9.85	-43.8	-53.3	4.1	1.48e+00	0	62	104	0	59	10654
2026-01-19 11:03:18.86	201.39	9.92	-43.7	-52.9	4.2	1.46e+00	0	62	104	0	59	10096
2026-01-19 11:03:19.87	201.48	10.00	-43.7	-52.3	4.4	1.46e+00	0	62	104	0	59	9463
2026-01-19 11:03:20.88	201.57	10.08	-43.6	-51.8	4.6	1.20e+00	2	62	104	0	59	8891
2026-01-19 11:03:21.89	201.66	10.15	-43.4	-51.1	4.9	9.61e-01	0	62	104	0	58	8689
2026-01-19 11:03:22.90	201.75	10.23	-43.3	-50.6	5.1	6.45e-01	0	62	0	3145728	58	8221
2026-01-19 11:03:23.91	201.84	10.31	-43.2	-50.0	5.5	5.10e-01	0	62	0	6291456	58	7715
2026-01-19 11:03:24.92	201.93	10.39	-43.1	-49.6	5.7	4.27e-01	0	62	0	9437184	58	7332
2026-01-19 11:03:25.93	202.02	10.47	-43.0	-49.4	5.9	3.65e-01	0	62	0	12582912	58	7199
2026-01-19 11:03:26.94	202.11	10.54	-43.0	-49.4	5.9	3.55e-01	0	62	0	15728640	58	7131
2026-01-19 11:03:27.95	202.20	10.62	-43.0	-49.3	6.0	3.41e-01	0	62	0	18874368	58	7062
2026-01-19 11:03:28.96	202.29	10.70	-43.0	-49.4	5.9	3.47e-01	0	62	0	22020096	58	7134
2026-01-19 11:03:29.97	202.39	10.78	-43.1	-49.7	5.7	4.07e-01	0	62	0	25165824	58	7375
2026-01-19 11:03:30.98	202.48	10.86	-43.1	-49.9	5.6	4.46e-01	0	62	0	28311552	58	7574
2026-01-19 11:03:31.99	202.58	10.94	-43.2	-50.1	5.4	5.20e-01	0	62	0	31457280	58	7801
2026-01-19 11:03:33.00	202.67	11.02	-43.2	-50.0	5.4	5.19e-01	0	62	0	34603008	58	7714
2026-01-19 11:03:34.01	202.76	11.10	-43.1	-49.9	5.5	4.94e-01	0	62	0	37748736	58	7562
2026-01-19 11:03:35.02	202.86	11.18	-42.9	-49.2	6.0	3.76e-01	0	62	0	40894464	57	7386
2026-01-19 11:03:36.03	202.96	11.26	-42.7	-48.3	6.7	2.18e-01	0	62	0	44040192	57	6701
2026-01-19 11:03:37.04	203.05	11.34	-42.3	-47.3	7.6	1.10e-01	0	62	0	47185920	56	6339
2026-01-19 11:03:38.05	203.15	11.42	-42.0	-46.5	8.5	4.83e-02	0	62	0	50331648	56	5739
2026-01-19 11:03:39.06	203.25	11.50	-41.4	-45.3	9.5	2.04e-02	0	62	0	53477376	54	5609
2026-01-19 11:03:40.07	203.34	11.58	-41.0	-44.6	10.2	7.90e-03	0	62	0	56623104	54	5190
2026-01-19 11:03:41.08	203.44	11.66	-40.7	-44.0	10.8	3.51e-03	0	62	0	59768832	53	5114
2026-01-19 11:03:42.09	203.54	11.74	-40.5	-43.7	11.2	1.69e-03	0	62	0	62914560	53	4942
2026-01-19 11:03:43.10	203.64	11.82	-40.4	-43.4	11.4	9.98e-04	0	62	0	66060288	52	5093
2026-01-19 11:03:44.11	203.74	11.90	-40.4	-43.4	11.4	9.76e-04	0	62	0	69206016	52	5098
2026-01-19 11:03:45.12	203.84	11.99	-40.5	-43.7	11.1	1.37e-03	0	62	0	72351744	52	5253
2026-01-19 11:03:46.13	203.94	12.07	-43.7	-53.3	4.1	1.48e+00	0	62	104	73400320	58	11202
2026-01-19 11:03:47.14	204.05	12.15	-44.3	-54.4	3.9	5.40e-01	0	62	104	74448896	59	12013
2026-01-19 11:03:48.15	204.15	12.23	-42.1	-48.0	6.4	1.37e-01	0	62	0	75497472	55	7239
2026-01-19 11:03:49.16	204.25	12.32	-41.5	-45.1	10.1	1.44e-02	0	62	0	78643200	54	5525
2026-01-19 11:03:50.17	204.35	12.40	-42.6	-49.6	5.2	5.74e-01	0	62	0	81788928	55	8722
2026-01-19 11:03:51.18	204.46	12.48	-40.3	-43.3	11.9	4.18e-04	0	62	0	84934656	52	5000
2026-01-19 11:03:52.19	204.56	12.56	-40.3	-43.3	11.9	3.96e-04	0	62	0	88080384	52	4988
2026-01-19 11:03:53.20	204.67	12.65	-40.3	-43.2	12.1	3.07e-04	0	62	0	91226112	52	4943
2026-01-19 11:03:54.21	204.77	12.73	-40.4	-43.1	12.2	2.72e-04	0	62	0	94371840	52	4924
2026-01-19 11:03:55.22	204.88	12.82	-40.4	-43.1	12.2	1.85e-04	0	62	0	97517568	52	4894
2026-01-19 11:03:56.24	204.99	12.90	-40.4	-43.1	12.3	1.88e-04	0	62	0	100663296	52	4915
2026-01-19 11:03:57.25	205.09	12.98	-40.4	-43.1	12.3	1.92e-04	0	62	0	104857600	52	4894
2026-01-19 11:03:58.26	205.20	13.07	-40.5	-43.2	12.2	1.93e-04	0	62	0	108003328	52	4957
2026-01-19 11:03:59.27	205.31	13.15	-40.4	-43.1	12.4	1.74e-04	0	62	0	110100480	52	4885
2026-01-19 11:04:00.28	205.42	13.24	-40.4	-43.1	12.3	1.68e-04	0	62	0	113246208	52	4926
2026-01-19 11:04:01.29	205.53	13.32	-40.4	-43.1	12.3	1.70e-04	0	62	0	116391936	52	4898
2026-01-19 11:04:02.30	205.64	13.41	-40.4	-43.0	12.4	1.43e-04	0	62	0	120586240	52	4854
2026-01-19 11:04:03.31	205.75	13.49	-40.4	-43.0	12.5	1.27e-04	0	62	0	123731968	52	4832
2026-01-19 11:04:04.32	205.86	13.58	-40.4	-43.1	12.4	1.56e-04	0	62	0	126877696	52	4887
2026-01-19 11:04:05.33	205.98	13.67	-40.3	-43.0	12.5	1.34e-04	0	62	0	130023424	52	4828
2026-01-19 11:04:06.34	206.09	13.75	-40.4	-43.1	12.5	1.25e-04	0	62	0	133169152	52	4872
2026-01-19 11:04:07.35	206.20	13.84	-40.4	-43.0	12.5	1.19e-04	0	62	0	136314880	52	4843
2026-01-19 11:04:08.35	206.32	13.92	-40.3	-42.9	12.5	8.92e-05	0	62	0	139460608	52	4807
2026-01-19 11:04:09.36	206.43	14.01	-40.4	-43.0	12.5	1.16e-04	0	62	0	142606336	52	4835
2026-01-19 11:04:10.37	206.55	14.10	-40.4	-43.0	12.5	1.15e-04	0	62	0	145752064	52	4828
2026-01-19 11:04:11.38	206.66	14.18	-40.4	-43.0	12.5	1.17e-04	0	62	0	148897792	52	4860
2026-01-19 11:04:12.39	206.78	14.27	-40.4	-43.1	12.5	1.18e-04	0	62	0	152043520	52	4873
2026-01-19 11:04:13.40	206.90	14.36	-40.5	-43.1	12.4	1.27e-04	0	62	0	155189248	52	4917
2026-01-19 11:04:14.41	207.01	14.45	-40.4	-43.1	12.4	1.50e-04	0	62	0	158334976	52	4893
2026-01-19 11:04:15.42	207.13	14.53	-40.4	-43.1	12.4	1.46e-04	0	62	0	161480704	52	4883
2026-01-19 11:04:16.43	207.25	14.62	-40.4	-43.1	12.5	1.12e-04	0	62	0	164626432	52	4900
2026-01-19 11:04:17.44	207.37	14.71	-40.4	-43.1	12.5	9.99e-05	0	62	0	167772160	52	4878
2026-01-19 11:04:18.45	207.49	14.80	-40.4	-43.1	12.5	1.14e-04	0	62	0	170917888	52	4891
2026-01-19 11:04:19.46	207.61	14.89	-40.5	-43.2	12.5	1.05e-04	0	62	0	174063616	52	4930
2026-01-19 11:04:20.47	207.74	14.98	-40.5	-43.1	12.5	1.06e-04	0	62	0	177209344	52	4896
2026-01-19 11:04:21.48	207.86	15.06	-40.5	-43.2	12.5	1.20e-04	0	62	0	180355072	52	4931
2026-01-19 11:04:22.49	207.98	15.15	-40.5	-43.1	12.5	1.20e-04	0	62	0	183500800	52	4913
2026-01-19 11:04:23.49	208.11	15.24	-40.4	-43.0	12.6	9.23e-05	0	62	0	186646528	52	4870
2026-01-19 11:04:24.50	208.23	15.33	-40.5	-43.2	12.5	1.34e-04	0	62	0	189792256	52	4939
2026-01-19 11:04:25.51	208.36	15.42	-40.5	-43.2	12.5	1.38e-04	0	62	0	192937984	52	4948
2026-01-19 11:04:26.52	208.48	15.51	-40.5	-43.2	12.5	1.36e-04	0	62	0	196083712	52	4937
2026-01-19 11:04:27.53	208.61	15.60	-40.6	-43.2	12.4	1.31e-04	0	62	0	199229440	52	4963
2026-01-19 11:04:28.54	208.74	15.69	-40.5	-43.2	12.5	1.40e-04	0	62	0	202375168	52	4955
2026-01-19 11:04:29.55	208.87	15.78	-40.6	-43.2	12.4	1.46e-04	0	62	0	205520896	52	4976
2026-01-19 11:04:30.56	209.00	15.87	-40.6	-43.3	12.4	1.35e-04	0	62	0	208666624	52	4986
2026-01-19 11:04:31.57	209.13	15.97	-40.6	-43.2	12.5	1.23e-04	0	62	0	211812352	52	4967
2026-01-19 11:04:32.58	209.26	16.06	-40.6	-43.3	12.4	1.43e-04	0	62	0	214958080	52	5013
2026-01-19 11:04:33.59	209.39	16.15	-40.6	-43.3	12.5	1.48e-04	0	62	0	218103808	52	4992
2026-01-19 11:04:34.59	209.52	16.24	-40.6	-43.3	12.5	1.35e-04	0	62	0	221249536	52	4993
2026-01-19 11:04:35.60	209.66	16.33	-40.6	-43.2	12.5	1.20e-04	0	62	0	224395264	52	4972
2026-01-19 11:04:36.61	209.79	16.42	-40.6	-43.2	12.5	1.14e-04	0	62	0	227540992	52	4974
2026-01-19 11:04:37.62	209.93	16.52	-40.6	-43.3	12.4	1.42e-04	0	62	0	230686720	52	5013
2026-01-19 11:04:38.63	210.06	16.61	-40.7	-43.4	12.3	1.51e-04	0	62	0	233832448	52	5060
2026-01-19 11:04:39.64	210.20	16.70	-40.6	-43.2	12.5	1.50e-04	0	62	0	236978176	52	4979
2026-01-19 11:04:40.65	210.34	16.79	-40.5	-43.2	12.5	1.46e-04	0	62	0	240123904	52	4947
2026-01-19 11:04:41.66	210.47	16.89	-40.5	-43.2	12.5	1.05e-04	0	62	0	243269632	52	4950
2026-01-19 11:04:42.67	210.61	16.98	-40.6	-43.2	12.5	1.13e-04	0	62	0	246415360	52	4967
2026-01-19 11:04:43.68	210.75	17.07	-40.5	-43.2	12.6	1.07e-04	0	62	0	249561088	52	4939
2026-01-19 11:04:44.69	210.89	17.17	-40.5	-43.1	12.7	7.93e-05	0	62	0	252706816	52	4897
2026-01-19 11:04:45.70	211.04	17.26	-40.5	-43.1	12.7	7.47e-05	0	62	0	255852544	52	4891
2026-01-19 11:04:46.71	211.18	17.36	-40.5	-43.1	12.7	7.70e-05	0	62	0	258998272	52	4903
2026-01-19 11:04:47.71	211.32	17.45	-40.5	-43.1	12.7	1.04e-04	0	62	0	262144000	52	4902
2026-01-19 11:04:48.73	211.47	17.54	-40.5	-43.1	12.7	7.85e-05	0	62	0	265289728	52	4896
2026-01-19 11:04:49.74	211.61	17.64	-40.5	-43.1	12.7	7.93e-05	0	62	0	268435456	52	4907
2026-01-19 11:04:50.75	211.76	17.73	-40.4	-42.9	12.9	4.95e-05	0	62	0	271581184	52	4774
2026-01-19 11:04:51.76	211.90	17.83	-40.3	-42.9	13.0	4.50e-05	0	62	0	274726912	52	4761
2026-01-19 11:04:52.77	212.05	17.92	-40.4	-42.9	12.8	5.26e-05	0	62	0	277872640	52	4813
2026-01-19 11:04:53.78	212.20	18.02	-40.3	-42.8	13.0	4.57e-05	0	62	0	281018368	52	4753
2026-01-19 11:04:54.79	212.35	18.12	-40.4	-42.9	12.8	4.80e-05	0	62	0	284164096	52	4808
2026-01-19 11:04:55.80	212.50	18.21	-40.4	-42.9	12.9	4.27e-05	0	62	0	287309824	52	4793
2026-01-19 11:04:56.81	212.65	18.31	-40.3	-42.8	13.0	4.11e-05	0	62	0	290455552	52	4754
2026-01-19 11:04:57.81	212.80	18.40	-40.3	-42.8	13.0	4.50e-05	0	62	0	293601280	52	4753
2026-01-19 11:04:58.82	212.96	18.50	-40.4	-42.8	13.0	3.50e-05	0	62	0	296747008	52	4754
2026-01-19 11:04:59.83	213.11	18.60	-40.3	-42.7	13.1	3.20e-05	0	62	0	299892736	52	4683
2026-01-19 11:05:00.84	213.27	18.69	-40.3	-42.8	13.0	3.43e-05	0	62	0	303038464	52	4729
2026-01-19 11:05:01.85	213.42	18.79	-40.2	-42.6	13.2	2.51e-05	0	62	0	306184192	52	4644
2026-01-19 11:05:02.86	213.58	18.89	-40.2	-42.6	13.3	1.37e-05	0	62	0	309329920	52	4599
2026-01-19 11:05:03.87	213.74	18.98	-40.2	-42.6	13.2	1.83e-05	0	62	0	312475648	52	4626
2026-01-19 11:05:04.88	213.90	19.08	-40.3	-42.7	13.2	2.36e-05	0	62	0	315621376	52	4672
2026-01-19 11:05:05.89	214.06	19.18	-40.2	-42.7	13.2	2.82e-05	0	62	0	318767104	52	4663
2026-01-19 11:05:06.90	214.22	19.28	-40.3	-42.8	13.0	3.73e-05	0	62	0	321912832	52	4726
2026-01-19 11:05:07.91	214.38	19.37	-40.4	-42.9	12.9	4.34e-05	0	62	0	325058560	52	4803
2026-01-19 11:05:08.92	214.54	19.47	-40.3	-42.8	13.1	3.66e-05	0	62	0	328204288	52	4715
2026-01-19 11:05:09.93	214.71	19.57	-40.3	-42.8	13.1	3.28e-05	0	62	0	331350016	52	4707
2026-01-19 11:05:10.94	214.87	19.67	-40.3	-42.7	13.1	3.28e-05	0	62	0	334495744	52	4681
2026-01-19 11:05:11.95	215.04	19.77	-40.3	-42.7	13.1	2.36e-05	0	62	0	337641472	52	4682
2026-01-19 11:05:12.96	215.21	19.87	-40.2	-42.6	13.4	2.36e-05	0	62	0	340787200	51	4884
2026-01-19 11:05:13.97	215.37	19.96	-40.1	-42.4	13.5	6.80e-06	0	62	0	343932928	51	4776
2026-01-19 11:05:14.98	215.54	20.06	-40.1	-42.4	13.6	8.30e-06	0	62	0	347078656	51	4761
2026-01-19 11:05:15.99	215.71	20.16	-40.1	-42.4	13.5	1.44e-05	0	62	0	350224384	51	4776
2026-01-19 11:05:17.00	215.89	20.26	-40.0	-42.3	13.7	1.06e-05	0	62	0	353370112	51	4730
2026-01-19 11:05:18.01	216.06	20.36	-40.0	-42.3	13.6	5.30e-06	0	62	0	356515840	51	4714
2026-01-19 11:05:19.02	216.23	20.46	-40.1	-42.4	13.6	1.29e-05	0	62	0	359661568	51	4768
2026-01-19 11:05:20.03	216.41	20.56	-40.0	-42.3	13.7	5.30e-06	0	62	0	362807296	51	4708
2026-01-19 11:05:21.04	216.58	20.66	-40.0	-42.2	13.7	3.00e-06	0	62	0	365953024	51	4692
2026-01-19 11:05:22.05	216.76	20.76	-40.0	-42.3	13.6	3.00e-06	0	62	0	369098752	51	4708
2026-01-19 11:05:23.06	216.94	20.86	-39.9	-42.1	13.8	5.30e-06	0	62	0	372244480	51	4633
2026-01-19 11:05:24.06	217.12	20.96	-39.9	-42.1	13.9	4.50e-06	0	62	0	375390208	51	4613
2026-01-19 11:05:25.07	217.30	21.06	-39.8	-42.1	13.9	3.80e-06	0	62	0	378535936	51	4599
2026-01-19 11:05:26.08	217.48	21.16	-39.9	-42.1	13.8	3.80e-06	0	62	0	381681664	51	4632
2026-01-19 11:05:27.09	217.66	21.26	-39.9	-42.1	13.8	6.10e-06	0	62	0	384827392	51	4624
2026-01-19 11:05:28.10	217.84	21.36	-39.9	-42.1	13.8	3.00e-06	0	62	0	387973120	51	4628
2026-01-19 11:05:29.12	218.03	21.46	-39.8	-42.0	13.9	4.50e-06	0	62	0	391118848	51	4576
2026-01-19 11:05:30.13	218.22	21.56	-39.8	-41.9	14.0	3.80e-06	0	62	0	394264576	51	4544
2026-01-19 11:05:31.14	218.40	21.66	-39.7	-41.9	14.1	3.00e-06	0	62	0	397410304	51	4513
2026-01-19 11:05:32.15	218.59	21.77	-39.6	-41.7	14.3	0.00e+00	0	62	0	400556032	51	4414
2026-01-19 11:05:33.16	218.78	21.87	-39.6	-41.7	14.3	1.50e-06	0	62	0	403701760	51	4415
2026-01-19 11:05:34.17	218.97	21.97	-39.6	-41.6	14.3	1.50e-06	0	62	0	406847488	51	4391
2026-01-19 11:05:35.18	219.17	22.07	-39.5	-41.6	14.4	0.00e+00	0	62	0	409993216	51	4356
2026-01-19 11:05:36.19	219.36	22.17	-39.5	-41.6	14.4	2.20e-06	0	62	0	413138944	51	4379
2026-01-19 11:05:37.20	219.55	22.27	-39.6	-41.7	14.3	7.00e-07	0	62	0	416284672	50	4652
2026-01-19 11:05:38.21	219.75	22.37	-39.5	-41.6	14.4	0.00e+00	0	62	0	419430400	50	4634
2026-01-19 11:05:39.22	219.95	22.48	-39.5	-41.6	14.3	2.20e-06	0	62	0	422576128	50	4640
2026-01-19 11:05:40.22	220.14	22.58	-39.6	-41.7	14.3	1.50e-06	0	62	0	425721856	50	4657
2026-01-19 11:05:41.23	220.34	22.68	-39.4	-41.5	14.5	0.00e+00	0	62	0	428867584	50	4558
2026-01-19 11:05:42.24	220.54	22.78	-39.4	-41.5	14.5	7.00e-07	0	62	0	432013312	50	4550
2026-01-19 11:05:43.25	220.75	22.88	-39.5	-41.5	14.4	1.50e-06	0	62	0	435159040	50	4594
2026-01-19 11:05:44.26	220.95	22.98	-39.4	-41.5	14.5	2.20e-06	0	62	0	438304768	50	4553
2026-01-19 11:05:45.27	221.16	23.08	-39.4	-41.5	14.5	7.00e-07	0	62	0	441450496	50	4567
2026-01-19 11:05:46.28	221.36	23.19	-39.5	-41.5	14.4	0.00e+00	0	62	0	444596224	50	4589
2026-01-19 11:05:47.29	221.57	23.29	-39.5	-41.6	14.4	0.00e+00	0	62	0	447741952	50	4599
2026-01-19 11:05:48.30	221.78	23.39	-39.5	-41.5	14.5	7.00e-07	0	62	0	450887680	50	4575
2026-01-19 11:05:49.31	221.99	23.49	-39.5	-41.6	14.4	1.50e-06	0	62	0	454033408	50	4610
2026-01-19 11:05:50.32	222.20	23.59	-39.6	-41.7	14.3	1.50e-06	0	62	0	457179136	50	4669
2026-01-19 11:05:51.33	222.41	23.70	-39.6	-41.7	14.3	1.50e-06	0	62	0	460324864	50	4686
2026-01-19 11:05:52.34	222.63	23.80	-39.7	-41.8	14.2	0.00e+00	0	62	0	464519168	50	4718
2026-01-19 11:05:53.35	222.84	23.90	-39.6	-41.7	14.2	1.50e-06	0	62	0	467664896	50	4683
2026-01-19 11:05:54.36	223.06	24.00	-39.7	-41.9	14.1	7.00e-07	0	62	0	470810624	50	4769
2026-01-19 11:05:55.37	223.28	24.10	-39.6	-41.7	14.2	3.00e-06	0	62	0	473956352	50	4701
2026-01-19 11:05:56.38	223.50	24.21	-39.6	-41.7	14.2	7.00e-07	0	62	0	476053504	50	4698
2026-01-19 11:05:57.39	223.72	24.31	-39.6	-41.7	14.3	7.00e-07	0	62	0	479199232	50	4675
2026-01-19 11:05:58.40	223.94	24.41	-39.6	-41.8	14.2	7.00e-07	0	62	0	483393536	50	4713
2026-01-19 11:05:59.41	224.16	24.51	-39.7	-41.8	14.2	7.00e-07	0	62	0	486539264	50	4750
2026-01-19 11:06:00.42	224.39	24.61	-39.6	-41.8	14.3	3.00e-06	0	62	0	489684992	50	4709
2026-01-19 11:06:01.43	224.62	24.71	-39.7	-41.8	14.3	0.00e+00	0	62	0	492830720	50	4712
2026-01-19 11:06:02.44	224.84	24.82	-39.7	-41.8	14.2	3.00e-06	0	62	0	495976448	50	4759
2026-01-19 11:06:03.45	225.07	24.92	-39.7	-41.8	14.2	2.20e-06	0	62	0	499122176	50	4727
2026-01-19 11:06:04.46	225.31	25.02	-39.8	-41.9	14.1	1.50e-06	0	62	0	502267904	50	4780
2026-01-19 11:06:05.46	225.54	25.12	-39.8	-41.9	14.1	2.20e-06	0	62	0	505413632	50	4787
2026-01-19 11:06:06.48	225.77	25.22	-39.8	-42.0	14.0	7.00e-07	0	62	0	508559360	50	4827
2026-01-19 11:06:07.49	226.01	25.32	-39.8	-42.0	14.0	1.50e-06	0	62	0	511705088	50	4818
2026-01-19 11:06:08.50	226.24	25.42	-39.9	-42.1	13.9	9.90e-06	0	62	0	514850816	50	4887
2026-01-19 11:06:09.50	226.48	25.52	-40.0	-42.2	13.8	5.30e-06	0	62	0	517996544	50	4952
2026-01-19 11:06:10.51	226.72	25.62	-40.0	-42.3	13.7	1.29e-05	0	62	0	521142272	50	5005
2026-01-19 11:06:11.52	226.96	25.72	-40.1	-42.3	13.6	7.60e-06	0	62	0	524288000	50	5037
2026-01-19 11:06:12.53	227.20	25.82	-40.1	-42.4	13.6	7.60e-06	0	62	0	527433728	50	5082
2026-01-19 11:06:13.54	227.45	25.92	-40.1	-42.4	13.6	9.10e-06	0	62	0	530579456	50	5079
2026-01-19 11:06:14.55	227.69	26.02	-40.1	-42.4	13.6	8.30e-06	0	62	0	533725184	50	5089
2026-01-19 11:06:15.56	227.94	26.12	-40.1	-42.4	13.6	8.30e-06	0	62	0	536870912	50	5054
2026-01-19 11:06:16.57	228.19	26.22	-40.1	-42.3	13.7	7.60e-06	0	62	0	540016640	50	5031
2026-01-19 11:06:17.59	228.44	26.32	-40.0	-42.3	13.8	6.10e-06	0	62	0	543162368	50	4986
2026-01-19 11:06:18.60	228.70	26.42	-40.0	-42.3	13.8	6.10e-06	0	62	0	546308096	50	5004
2026-01-19 11:06:19.61	228.95	26.52	-40.0	-42.3	13.8	6.10e-06	0	62	0	549453824	50	4991
2026-01-19 11:06:20.62	229.20	26.62	-40.0	-42.2	13.9	6.80e-06	0	62	0	552599552	50	4940
2026-01-19 11:06:21.62	229.46	26.72	-40.0	-42.3	13.8	9.10e-06	0	62	0	555745280	50	5003
2026-01-19 11:06:22.63	229.72	26.82	-40.0	-42.3	13.8	5.30e-06	0	62	0	558891008	50	4989
2026-01-19 11:06:23.64	229.98	26.91	-40.1	-42.3	13.8	3.80e-06	0	62	0	562036736	50	5030
2026-01-19 11:06:24.65	230.24	27.01	-40.2	-42.5	13.6	9.90e-06	0	62	0	565182464	50	5111
2026-01-19 11:06:25.66	230.50	27.11	-40.2	-42.4	13.6	4.50e-06	0	62	0	568328192	50	5097
2026-01-19 11:06:26.67	230.76	27.21	-40.2	-42.6	13.5	8.30e-06	0	62	0	571473920	51	4889
2026-01-19 11:06:27.68	231.03	27.30	-40.3	-42.6	13.4	9.10e-06	0	62	0	574619648	51	4926
2026-01-19 11:06:28.69	231.30	27.40	-40.4	-42.8	13.2	1.98e-05	0	62	0	577765376	51	5018
2026-01-19 11:06:29.70	231.57	27.50	-40.4	-42.8	13.2	2.89e-05	0	62	0	580911104	51	5026
2026-01-19 11:06:30.71	231.84	27.59	-40.4	-42.8	13.3	2.28e-05	0	62	0	584056832	51	4999
2026-01-19 11:06:31.72	232.11	27.69	-40.2	-42.6	13.5	1.14e-05	0	62	0	587202560	51	4872
2026-01-19 11:06:32.73	232.38	27.78	-40.1	-42.4	13.7	9.10e-06	0	62	0	590348288	51	4762
2026-01-19 11:06:33.74	232.66	27.88	-40.1	-42.3	13.7	6.80e-06	0	62	0	593494016	51	4756
2026-01-19 11:06:34.75	232.94	27.97	-40.1	-42.4	13.7	6.10e-06	0	62	0	596639744	51	4764
2026-01-19 11:06:35.76	233.22	28.07	-40.1	-42.4	13.6	1.14e-05	0	62	0	599785472	51	4801
2026-01-19 11:06:36.77	233.50	28.16	-40.2	-42.6	13.5	7.60e-06	0	62	0	602931200	51	4875
2026-01-19 11:06:37.78	233.78	28.25	-40.2	-42.6	13.4	9.90e-06	0	62	0	606076928	51	4897
2026-01-19 11:06:38.78	234.06	28.34	-40.3	-42.7	13.3	1.22e-05	0	62	0	609222656	51	4941
2026-01-19 11:06:39.79	234.34	28.44	-40.3	-42.7	13.3	1.75e-05	0	62	0	612368384	51	4946
2026-01-19 11:06:40.80	234.63	28.53	-40.3	-42.7	13.3	1.75e-05	0	62	0	615514112	51	4968
2026-01-19 11:06:41.81	234.92	28.62	-40.5	-42.9	13.1	3.05e-05	0	62	0	618659840	51	5078
2026-01-19 11:06:42.82	235.21	28.71	-40.5	-42.9	13.0	3.58e-05	0	62	0	621805568	51	5099
2026-01-19 11:06:43.83	235.50	28.80	-40.5	-42.9	13.1	2.97e-05	0	62	0	624951296	51	5077
2026-01-19 11:06:44.84	235.79	28.89	-40.5	-42.9	13.1	3.35e-05	0	62	0	628097024	51	5083
2026-01-19 11:06:45.85	236.09	28.98	-40.4	-42.9	13.1	1.67e-05	0	62	0	631242752	51	5050
2026-01-19 11:06:46.86	236.39	29.07	-40.2	-42.5	13.5	1.60e-05	0	62	0	634388480	51	4841
2026-01-19 11:06:47.87	236.68	29.16	-40.2	-42.5	13.6	8.30e-06	0	62	0	637534208	51	4818
2026-01-19 11:06:48.88	236.98	29.25	-40.2	-42.6	13.4	1.14e-05	0	62	0	640679936	51	4886
2026-01-19 11:06:49.89	237.28	29.33	-40.3	-42.6	13.4	1.44e-05	0	62	0	643825664	51	4902
2026-01-19 11:06:50.90	237.59	29.42	-40.2	-42.5	13.5	5.30e-06	0	62	0	646971392	51	4860
2026-01-19 11:06:51.91	237.89	29.51	-40.4	-42.7	13.3	1.37e-05	0	62	0	650117120	51	4979
2026-01-19 11:06:52.92	238.20	29.59	-40.3	-42.7	13.4	1.29e-05	0	62	0	653262848	51	4949
2026-01-19 11:06:53.93	238.50	29.68	-40.2	-42.4	13.6	6.80e-06	0	62	0	656408576	51	4812
2026-01-19 11:06:54.94	238.81	29.76	-40.1	-42.3	13.7	5.30e-06	0	62	0	659554304	51	4752
2026-01-19 11:06:55.95	239.12	29.84	-40.0	-42.2	13.9	5.30e-06	0	62	0	662700032	51	4671
2026-01-19 11:06:56.96	239.44	29.93	-39.9	-42.1	13.9	4.50e-06	0	62	0	665845760	51	4629
2026-01-19 11:06:57.97	239.75	30.01	-40.0	-42.2	13.9	7.00e-07	0	62	0	668991488	51	4689
2026-01-19 11:06:58.98	240.07	30.09	-40.0	-42.2	13.8	5.30e-06	0	62	0	672137216	51	4665
2026-01-19 11:06:59.99	240.38	30.17	-39.9	-42.1	13.9	2.20e-06	0	62	0	675282944	51	4643
2026-01-19 11:07:01.00	240.70	30.25	-40.0	-42.1	13.9	3.00e-06	0	62	0	678428672	51	4651
2026-01-19 11:07:02.01	241.02	30.33	-40.0	-42.2	13.9	3.80e-06	0	62	0	681574400	51	4678
2026-01-19 11:07:03.02	241.34	30.41	-40.0	-42.3	13.8	2.20e-06	0	62	0	684720128	51	4709
2026-01-19 11:07:04.02	241.66	30.49	-40.1	-42.4	13.7	3.80e-06	0	62	0	687865856	51	4766
2026-01-19 11:07:05.04	241.99	30.56	-40.1	-42.3	13.7	7.00e-07	0	62	0	691011584	51	4747
2026-01-19 11:07:06.04	242.31	30.64	-40.0	-42.2	13.8	4.50e-06	0	62	0	694157312	51	4700
2026-01-19 11:07:07.05	242.64	30.71	-40.2	-42.4	13.6	1.06e-05	0	62	0	697303040	51	4805
2026-01-19 11:07:08.06	242.97	30.79	-40.3	-42.6	13.4	1.22e-05	0	62	0	700448768	51	4911
2026-01-19 11:07:09.07	243.30	30.86	-40.3	-42.7	13.3	1.44e-05	0	62	0	703594496	51	4944
2026-01-19 11:07:10.08	243.63	30.93	-40.2	-42.6	13.5	1.14e-05	0	62	0	706740224	51	4872
2026-01-19 11:07:11.09	243.97	31.01	-40.1	-42.4	13.7	6.10e-06	0	62	0	709885952	51	4767
2026-01-19 11:07:12.10	244.30	31.08	-40.0	-42.3	13.8	3.00e-06	0	62	0	713031680	51	4717
2026-01-19 11:07:13.11	244.64	31.15	-40.0	-42.3	13.7	3.80e-06	0	62	0	716177408	51	4717
2026-01-19 11:07:14.12	244.98	31.22	-40.2	-42.5	13.6	8.30e-06	0	62	0	719323136	51	4854
2026-01-19 11:07:15.13	245.32	31.29	-40.4	-42.8	13.3	1.67e-05	0	62	0	722468864	51	4984
2026-01-19 11:07:16.14	245.66	31.35	-40.5	-43.0	13.1	3.73e-05	0	62	0	725614592	51	5126
2026-01-19 11:07:17.15	246.00	31.42	-40.6	-43.1	12.9	4.04e-05	0	62	0	728760320	51	5182
2026-01-19 11:07:18.16	246.34	31.49	-40.6	-43.1	13.0	4.50e-05	0	62	0	731906048	51	5167
2026-01-19 11:07:19.16	246.68	31.55	-40.5	-42.9	13.1	3.73e-05	0	62	0	735051776	51	5099
2026-01-19 11:07:20.17	247.03	31.61	-40.5	-42.9	13.2	2.28e-05	0	62	0	738197504	51	5057
2026-01-19 11:07:21.18	247.38	31.68	-40.5	-42.9	13.1	2.97e-05	0	62	0	741343232	51	5098
2026-01-19 11:07:22.20	247.73	31.74	-40.4	-42.8	13.2	2.21e-05	0	62	0	744488960	51	5008
2026-01-19 11:07:23.21	248.08	31.80	-40.6	-43.0	13.0	3.12e-05	0	62	0	747634688	51	5143
2026-01-19 11:07:24.22	248.43	31.86	-40.6	-43.1	13.0	2.74e-05	0	62	0	750780416	51	5193
2026-01-19 11:07:25.23	248.78	31.92	-40.7	-43.2	12.9	4.04e-05	0	62	0	753926144	51	5223
2026-01-19 11:07:26.24	249.14	31.97	-40.6	-43.0	13.0	4.27e-05	0	62	0	757071872	51	5157
2026-01-19 11:07:27.25	249.49	32.03	-40.5	-43.0	13.0	3.28e-05	0	62	0	760217600	51	5131
2026-01-19 11:07:28.26	249.85	32.08	-40.6	-43.1	12.9	4.95e-05	0	62	0	763363328	51	5204
2026-01-19 11:07:29.27	250.20	32.14	-40.6	-43.2	12.7	7.40e-05	0	62	0	766509056	52	4946
2026-01-19 11:07:30.27	250.56	32.19	-40.7	-43.3	12.6	7.47e-05	0	62	0	769654784	52	5020
2026-01-19 11:07:31.28	250.92	32.24	-40.6	-43.1	12.8	6.79e-05	0	62	0	772800512	52	4888
2026-01-19 11:07:32.29	251.28	32.29	-40.6	-43.0	12.9	4.34e-05	0	62	0	775946240	52	4868
2026-01-19 11:07:33.30	251.64	32.34	-40.4	-42.8	13.2	2.28e-05	0	62	0	779091968	52	4726
2026-01-19 11:07:34.31	252.00	32.39	-40.4	-42.8	13.1	2.74e-05	0	62	0	782237696	52	4755
2026-01-19 11:07:35.32	252.37	32.44	-40.4	-42.8	13.1	2.21e-05	0	62	0	785383424	52	4741
2026-01-19 11:07:36.33	252.73	32.48	-40.3	-42.7	13.2	1.60e-05	0	62	0	788529152	52	4686
2026-01-19 11:07:37.34	253.10	32.53	-40.4	-42.8	13.2	1.83e-05	0	62	0	791674880	52	4707
2026-01-19 11:07:38.35	253.47	32.57	-40.4	-42.8	13.2	2.67e-05	0	62	0	794820608	52	4727
2026-01-19 11:07:39.36	253.83	32.62	-40.3	-42.7	13.3	2.13e-05	0	62	0	797966336	52	4652
2026-01-19 11:07:40.37	254.20	32.66	-40.2	-42.5	13.4	1.14e-05	0	62	0	801112064	52	4580
2026-01-19 11:07:41.38	254.57	32.70	-40.2	-42.5	13.5	1.44e-05	0	62	0	804257792	52	4551
2026-01-19 11:07:42.39	254.94	32.73	-40.2	-42.5	13.5	6.10e-06	0	62	0	807403520	52	4560
2026-01-19 11:07:43.40	255.31	32.77	-40.2	-42.6	13.3	1.06e-05	0	62	0	811597824	52	4605
2026-01-19 11:07:44.41	255.69	32.81	-40.3	-42.7	13.3	1.98e-05	0	62	0	813694976	52	4657
2026-01-19 11:07:45.42	256.06	32.84	-40.4	-42.8	13.1	2.97e-05	0	62	0	816840704	52	4755
2026-01-19 11:07:46.42	256.43	32.88	-40.4	-42.7	13.2	2.51e-05	0	62	0	819986432	52	4695
2026-01-19 11:07:47.43	256.80	32.91	-40.5	-42.9	13.1	3.20e-05	0	62	0	823132160	52	4778
2026-01-19 11:07:48.44	257.18	32.94	-40.6	-43.1	12.8	5.72e-05	0	62	0	826277888	52	4899
2026-01-19 11:07:49.45	257.55	32.97	-40.7	-43.3	12.7	5.49e-05	0	63	0	830472192	52	4986
2026-01-19 11:07:50.46	257.93	33.00	-40.7	-43.3	12.7	7.47e-05	0	62	0	833617920	52	5011
2026-01-19 11:07:51.47	258.31	33.02	-40.8	-43.4	12.6	8.39e-05	0	62	0	836763648	52	5059
2026-01-19 11:07:52.48	258.69	33.05	-40.6	-43.0	12.9	6.33e-05	0	62	0	838860800	52	4870
2026-01-19 11:07:53.49	259.06	33.07	-40.4	-42.9	13.1	4.04e-05	0	62	0	842006528	52	4784
2026-01-19 11:07:54.50	259.44	33.10	-40.5	-42.9	13.0	2.89e-05	0	62	0	846200832	52	4792
2026-01-19 11:07:55.51	259.82	33.12	-40.4	-42.8	13.1	2.82e-05	0	62	0	849346560	52	4756
2026-01-19 11:07:56.52	260.20	33.14	-40.4	-42.9	13.1	2.36e-05	0	62	0	852492288	52	4777
2026-01-19 11:07:57.53	260.58	33.16	-40.5	-43.0	13.0	3.66e-05	0	62	0	855638016	52	4817
2026-01-19 11:07:58.54	260.96	33.18	-40.3	-42.7	13.2	1.98e-05	0	62	0	858783744	52	4693
2026-01-19 11:07:59.55	261.34	33.19	-40.3	-42.7	13.2	1.83e-05	0	62	0	861929472	52	4685
2026-01-19 11:08:00.56	261.73	33.21	-40.3	-42.7	13.3	1.60e-05	0	62	0	865075200	52	4669
2026-01-19 11:08:01.57	262.11	33.22	-40.5	-42.9	13.1	3.05e-05	0	62	0	868220928	52	4794
2026-01-19 11:08:02.58	262.49	33.23	-40.5	-43.0	12.9	4.27e-05	0	62	0	871366656	52	4850
2026-01-19 11:08:03.59	262.87	33.24	-40.6	-43.2	12.8	5.41e-05	0	62	0	874512384	52	4949
2026-01-19 11:08:04.60	263.25	33.25	-40.7	-43.3	12.7	8.08e-05	0	62	0	877658112	52	4987
2026-01-19 11:08:05.61	263.64	33.26	-40.8	-43.4	12.6	7.55e-05	0	62	0	880803840	52	5071
2026-01-19 11:08:06.62	264.02	33.27	-40.9	-43.5	12.4	1.40e-04	0	62	0	883949568	52	5148
2026-01-19 11:08:07.63	264.40	33.27	-40.8	-43.4	12.5	1.06e-04	0	62	0	887095296	52	5086
2026-01-19 11:08:08.64	264.78	33.27	-40.8	-43.4	12.6	9.91e-05	0	62	0	890241024	52	5043
2026-01-19 11:08:09.65	265.17	33.28	-40.6	-43.1	12.8	6.17e-05	0	62	0	893386752	52	4899
2026-01-19 11:08:10.66	265.55	33.28	-40.5	-43.0	12.9	3.35e-05	0	63	0	896532480	52	4849
2026-01-19 11:08:11.67	265.93	33.28	-40.5	-43.0	13.0	5.26e-05	0	62	0	899678208	52	4842
2026-01-19 11:08:12.67	266.31	33.27	-40.5	-42.9	13.0	4.27e-05	0	62	0	902823936	52	4801
2026-01-19 11:08:13.69	266.70	33.27	-40.4	-42.8	13.1	2.82e-05	0	62	0	905969664	52	4747
2026-01-19 11:08:14.70	267.08	33.27	-40.4	-42.9	13.1	3.05e-05	0	62	0	909115392	52	4768
2026-01-19 11:08:15.71	267.47	33.26	-40.6	-43.2	12.7	7.17e-05	0	62	0	912261120	52	4952
2026-01-19 11:08:16.71	267.84	33.25	-40.8	-43.5	12.4	1.36e-04	0	62	0	915406848	52	5123
2026-01-19 11:08:17.72	268.23	33.24	-40.9	-43.6	12.4	1.22e-04	0	62	0	918552576	52	5182
2026-01-19 11:08:18.73	268.61	33.23	-40.9	-43.6	12.4	1.86e-04	0	62	0	921698304	52	5192
2026-01-19 11:08:19.74	268.99	33.22	-40.8	-43.4	12.5	1.27e-04	0	62	0	924844032	52	5078
2026-01-19 11:08:20.75	269.37	33.21	-40.8	-43.4	12.5	9.07e-05	0	62	0	927989760	52	5082
2026-01-19 11:08:21.76	269.75	33.19	-40.8	-43.5	12.4	1.63e-04	0	62	0	931135488	52	5118
2026-01-19 11:08:22.77	270.13	33.18	-40.7	-43.3	12.6	9.23e-05	0	62	0	934281216	52	5029
2026-01-19 11:08:23.78	270.51	33.16	-40.6	-43.1	12.9	5.72e-05	0	62	0	937426944	52	4882
2026-01-19 11:08:24.79	270.89	33.14	-40.5	-42.9	13.0	3.66e-05	0	62	0	940572672	52	4800
2026-01-19 11:08:25.80	271.27	33.12	-40.4	-42.9	13.1	2.82e-05	0	62	0	943718400	52	4762
2026-01-19 11:08:26.81	271.65	33.10	-40.5	-43.0	13.0	3.89e-05	0	62	0	946864128	52	4817
2026-01-19 11:08:27.82	272.03	33.08	-40.4	-42.8	13.1	2.74e-05	0	62	0	950009856	52	4738
2026-01-19 11:08:28.83	272.41	33.06	-40.4	-42.8	13.1	2.67e-05	0	62	0	953155584	52	4728
2026-01-19 11:08:29.84	272.79	33.03	-40.3	-42.8	13.2	2.59e-05	0	62	0	956301312	52	4706
2026-01-19 11:08:30.85	273.16	33.00	-40.2	-42.6	13.4	1.44e-05	0	62	0	959447040	52	4602
2026-01-19 11:08:31.86	273.54	32.98	-40.2	-42.5	13.5	8.30e-06	0	62	0	962592768	52	4575
2026-01-19 11:08:32.87	273.91	32.95	-40.2	-42.6	13.4	1.22e-05	0	62	0	965738496	52	4602
2026-01-19 11:08:33.88	274.29	32.92	-40.4	-42.8	13.2	1.67e-05	0	62	0	968884224	52	4734
2026-01-19 11:08:34.89	274.66	32.88	-40.5	-43.0	13.0	2.67e-05	0	62	0	972029952	52	4841
2026-01-19 11:08:35.90	275.04	32.85	-40.6	-43.1	12.9	5.64e-05	0	62	0	975175680	52	4899
2026-01-19 11:08:36.91	275.41	32.82	-40.6	-43.1	12.9	5.49e-05	0	62	0	978321408	52	4885
2026-01-19 11:08:37.92	275.78	32.78	-40.6	-43.1	12.8	4.95e-05	0	62	0	981467136	52	4905
2026-01-19 11:08:38.93	276.15	32.74	-40.6	-43.1	12.8	4.88e-05	0	62	0	984612864	52	4913
2026-01-19 11:08:39.94	276.52	32.70	-40.6	-43.1	12.9	5.79e-05	0	62	0	987758592	52	4898
2026-01-19 11:08:40.95	276.89	32.66	-40.5	-42.9	13.0	3.66e-05	0	62	0	990904320	52	4803
2026-01-19 11:08:41.96	277.26	32.62	-40.5	-42.9	13.1	3.81e-05	0	62	0	994050048	52	4799
2026-01-19 11:08:42.97	277.63	32.58	-40.4	-42.9	13.1	2.13e-05	0	62	0	997195776	52	4768
2026-01-19 11:08:43.98	277.99	32.54	-40.4	-42.7	13.2	2.59e-05	0	63	0	1000341504	52	4694
2026-01-19 11:08:44.99	278.36	32.49	-40.5	-43.0	13.0	3.66e-05	0	62	0	1003487232	52	4818
2026-01-19 11:08:46.00	278.72	32.45	-40.5	-43.0	13.0	4.80e-05	0	62	0	1006632960	52	4829
2026-01-19 11:08:47.01	279.09	32.40	-40.4	-42.8	13.1	3.35e-05	0	62	0	1009778688	52	4736
2026-01-19 11:08:48.02	279.45	32.35	-40.4	-42.8	13.1	3.12e-05	0	62	0	1012924416	52	4758
2026-01-19 11:08:49.03	279.81	32.31	-40.5	-42.9	13.0	2.82e-05	0	62	0	1016070144	52	4793
2026-01-19 11:08:50.04	280.17	32.25	-40.4	-42.9	13.1	2.44e-05	0	62	0	1019215872	52	4774
2026-01-19 11:08:51.05	280.53	32.20	-40.5	-42.9	13.0	3.58e-05	0	62	0	1022361600	52	4813
2026-01-19 11:08:52.06	280.89	32.15	-40.5	-43.0	12.9	2.51e-05	0	62	0	1025507328	52	4831
2026-01-19 11:08:53.07	281.24	32.10	-40.6	-43.1	12.8	4.80e-05	0	62	0	1028653056	52	4902
2026-01-19 11:08:54.07	281.60	32.04	-40.6	-43.1	12.8	4.80e-05	0	62	0	1031798784	52	4890
2026-01-19 11:08:55.08	281.95	31.99	-40.5	-43.1	12.8	5.49e-05	0	62	0	1034944512	52	4882
2026-01-19 11:08:56.09	282.30	31.93	-40.6	-43.2	12.7	6.94e-05	0	62	0	1038090240	52	4945
2026-01-19 11:08:57.10	282.66	31.87	-40.5	-43.0	12.9	4.80e-05	0	62	0	1041235968	52	4825
2026-01-19 11:08:58.11	283.01	31.81	-40.5	-42.9	13.0	4.27e-05	0	62	0	1044381696	52	4803
2026-01-19 11:08:59.12	283.36	31.75	-40.5	-42.9	13.0	3.20e-05	0	62	0	1047527424	52	4814
2026-01-19 11:09:00.13	283.70	31.69	-40.4	-42.9	13.0	3.89e-05	0	62	0	1050673152	52	4792
2026-01-19 11:09:01.14	284.05	31.63	-40.5	-43.0	12.9	4.34e-05	0	62	0	1053818880	52	4823
2026-01-19 11:09:02.15	284.40	31.57	-40.5	-43.0	13.0	5.41e-05	0	62	0	1056964608	52	4815
2026-01-19 11:09:03.16	284.74	31.50	-40.5	-42.9	13.0	3.50e-05	0	62	0	1060110336	52	4808
2026-01-19 11:09:04.17	285.08	31.44	-40.3	-42.7	13.2	2.74e-05	0	62	0	1063256064	52	4699
2026-01-19 11:09:05.18	285.42	31.37	-40.3	-42.6	13.3	2.97e-05	0	62	0	1066401792	52	4635
2026-01-19 11:09:06.19	285.76	31.30	-40.4	-42.8	13.0	2.97e-05	0	62	0	1069547520	52	4750
2026-01-19 11:09:07.20	286.10	31.24	-40.4	-42.8	13.1	2.89e-05	0	62	0	1072693248	52	4739
2026-01-19 11:09:08.21	286.44	31.17	-40.3	-42.7	13.2	2.36e-05	0	62	0	1075838976	52	4679
2026-01-19 11:09:09.22	286.77	31.10	-40.4	-42.8	13.2	2.51e-05	0	62	0	1078984704	52	4708
2026-01-19 11:09:10.23	287.11	31.03	-40.4	-42.8	13.2	2.21e-05	0	62	0	1082130432	52	4732
2026-01-19 11:09:11.24	287.44	30.96	-40.3	-42.7	13.2	2.51e-05	0	62	0	1085276160	52	4689
2026-01-19 11:09:12.24	287.77	30.88	-40.3	-42.6	13.3	2.59e-05	0	62	0	1088421888	52	4650
2026-01-19 11:09:13.25	288.10	30.81	-40.3	-42.6	13.3	2.21e-05	0	62	0	1091567616	52	4649
2026-01-19 11:09:14.26	288.43	30.74	-40.2	-42.6	13.3	1.37e-05	0	63	0	1094713344	52	4622
2026-01-19 11:09:15.27	288.76	30.66	-40.2	-42.5	13.4	1.22e-05	0	62	0	1097859072	52	4573
2026-01-19 11:09:16.28	289.08	30.59	-40.1	-42.4	13.5	9.90e-06	0	62	0	1101004800	52	4532
2026-01-19 11:09:17.29	289.40	30.51	-40.0	-42.3	13.7	5.30e-06	0	62	0	1104150528	52	4466
2026-01-19 11:09:18.30	289.73	30.43	-40.1	-42.3	13.6	1.14e-05	0	62	0	1107296256	52	4491
2026-01-19 11:09:19.31	290.05	30.36	-40.2	-42.5	13.4	4.50e-06	0	62	0	1110441984	52	4579
2026-01-19 11:09:20.32	290.37	30.28	-40.3	-42.6	13.3	1.60e-05	0	62	0	1113587712	52	4643
2026-01-19 11:09:21.33	290.68	30.20	-40.4	-42.8	13.1	2.74e-05	0	62	0	1116733440	52	4750
2026-01-19 11:09:22.34	291.00	30.12	-40.3	-42.7	13.2	2.51e-05	0	62	0	1119879168	52	4693
2026-01-19 11:09:23.35	291.32	30.04	-40.3	-42.7	13.3	1.83e-05	0	62	0	1123024896	52	4665
2026-01-19 11:09:24.36	291.63	29.96	-40.2	-42.5	13.4	1.06e-05	0	62	0	1126170624	52	4593
2026-01-19 11:09:25.38	291.94	29.87	-40.1	-42.4	13.5	1.44e-05	0	62	0	1129316352	52	4539
2026-01-19 11:09:26.38	292.25	29.79	-40.0	-42.3	13.6	8.30e-06	0	62	0	1132462080	52	4478
2026-01-19 11:09:27.39	292.56	29.71	-40.0	-42.3	13.6	8.30e-06	0	62	0	1135607808	52	4469
2026-01-19 11:09:28.40	292.87	29.62	-40.1	-42.4	13.5	1.29e-05	0	62	0	1138753536	52	4541
2026-01-19 11:09:29.41	293.17	29.54	-40.1	-42.3	13.6	1.75e-05	0	62	0	1141899264	52	4490
2026-01-19 11:09:30.42	293.47	29.45	-40.1	-42.4	13.5	5.30e-06	0	62	0	1145044992	52	4511
2026-01-19 11:09:31.43	293.78	29.37	-40.1	-42.4	13.5	6.80e-06	0	62	0	1148190720	52	4535
2026-01-19 11:09:32.44	294.08	29.28	-40.2	-42.5	13.4	1.90e-05	0	62	0	1151336448	52	4582
2026-01-19 11:09:33.45	294.38	29.19	-40.2	-42.5	13.4	2.13e-05	0	62	0	1154482176	52	4593
2026-01-19 11:09:34.46	294.67	29.11	-40.2	-42.6	13.4	1.52e-05	0	62	0	1157627904	52	4600
2026-01-19 11:09:35.47	294.97	29.02	-40.1	-42.4	13.5	1.29e-05	0	62	0	1160773632	52	4511
2026-01-19 11:09:36.48	295.26	28.93	-40.0	-42.3	13.6	8.30e-06	0	62	0	1163919360	52	4451
2026-01-19 11:09:37.49	295.55	28.84	-39.9	-42.2	13.8	6.80e-06	0	62	0	1167065088	51	4654
2026-01-19 11:09:38.50	295.85	28.75	-39.9	-42.0	13.9	1.50e-06	0	62	0	1171259392	51	4590
2026-01-19 11:09:39.51	296.13	28.66	-39.9	-42.2	13.7	3.80e-06	0	62	0	1174405120	51	4667
2026-01-19 11:09:40.52	296.42	28.57	-40.0	-42.3	13.6	1.06e-05	0	62	0	1177550848	51	4739
2026-01-19 11:09:41.53	296.71	28.48	-40.1	-42.4	13.6	5.30e-06	0	62	0	1179648000	51	4765
2026-01-19 11:09:42.55	297.00	28.38	-40.1	-42.3	13.6	1.14e-05	0	62	0	1183842304	51	4738
2026-01-19 11:09:43.56	297.28	28.29	-40.0	-42.3	13.7	8.30e-06	0	62	0	1186988032	51	4715
2026-01-19 11:09:44.57	297.56	28.20	-40.0	-42.2	13.7	7.60e-06	0	62	0	1190133760	51	4654
2026-01-19 11:09:45.58	297.84	28.11	-39.9	-42.1	13.8	5.30e-06	0	62	0	1193279488	51	4625
2026-01-19 11:09:46.59	298.12	28.01	-40.0	-42.2	13.7	8.30e-06	0	62	0	1196425216	51	4666
2026-01-19 11:09:47.60	298.39	27.92	-39.8	-42.0	13.9	3.00e-06	0	62	0	1199570944	51	4587
2026-01-19 11:09:48.61	298.67	27.83	-39.8	-42.0	13.9	3.80e-06	0	62	0	1202716672	51	4560
2026-01-19 11:09:49.61	298.94	27.73	-39.6	-41.7	14.1	7.00e-07	0	62	0	1205862400	51	4428
2026-01-19 11:09:50.63	299.21	27.64	-39.6	-41.7	14.2	7.00e-07	0	62	0	1209008128	51	4409
2026-01-19 11:09:51.64	299.48	27.54	-39.6	-41.7	14.1	2.20e-06	0	62	0	1212153856	51	4441
2026-01-19 11:09:52.65	299.75	27.45	-39.7	-41.8	14.1	2.20e-06	0	62	0	1215299584	51	4468
2026-01-19 11:09:53.65	300.02	27.35	-39.6	-41.6	14.3	1.50e-06	0	62	0	1218445312	51	4387
2026-01-19 11:09:54.67	300.28	27.25	-39.5	-41.6	14.3	7.00e-07	0	62	0	1221591040	51	4366
2026-01-19 11:09:55.68	300.55	27.16	-39.6	-41.6	14.2	7.00e-07	0	62	0	1224736768	51	4384
2026-01-19 11:09:56.69	300.81	27.06	-39.5	-41.6	14.3	7.00e-07	0	62	0	1227882496	51	4373
2026-01-19 11:09:57.70	301.07	26.96	-39.5	-41.6	14.3	3.00e-06	0	62	0	1231028224	50	4617
2026-01-19 11:09:58.70	301.33	26.87	-39.6	-41.7	14.2	3.00e-06	0	62	0	1234173952	50	4654
2026-01-19 11:09:59.71	301.58	26.77	-39.7	-41.9	13.9	2.20e-06	0	62	0	1237319680	50	4795
2026-01-19 11:10:00.72	301.84	26.67	-39.8	-42.0	13.9	2.20e-06	0	62	0	1240465408	50	4817
2026-01-19 11:10:01.73	302.09	26.58	-39.8	-42.0	13.9	3.00e-06	0	62	0	1243611136	50	4841
2026-01-19 11:10:02.74	302.35	26.48	-39.8	-42.0	13.9	3.80e-06	0	62	0	1246756864	50	4855
2026-01-19 11:10:03.75	302.60	26.38	-39.7	-41.9	14.0	3.00e-06	0	62	0	1249902592	50	4770
2026-01-19 11:10:04.76	302.85	26.28	-39.7	-41.9	14.0	1.50e-06	0	62	0	1253048320	50	4767
2026-01-19 11:10:05.77	303.10	26.18	-39.6	-41.7	14.2	7.00e-07	0	63	0	1256194048	50	4655
2026-01-19 11:10:06.78	303.34	26.08	-39.6	-41.7	14.2	3.00e-06	0	62	0	1259339776	50	4686
2026-01-19 11:10:07.79	303.59	25.98	-39.7	-41.8	14.0	2.20e-06	0	62	0	1262485504	50	4755
2026-01-19 11:10:08.80	303.83	25.88	-39.7	-41.9	14.0	4.50e-06	0	62	0	1265631232	50	4802
2026-01-19 11:10:09.81	304.08	25.78	-39.7	-41.9	14.0	2.20e-06	0	62	0	1268776960	50	4789
2026-01-19 11:10:10.82	304.32	25.68	-39.8	-42.0	13.9	5.30e-06	0	62	0	1271922688	50	4828
2026-01-19 11:10:11.82	304.55	25.59	-39.9	-42.1	13.8	7.60e-06	0	62	0	1275068416	50	4896
2026-01-19 11:10:12.83	304.79	25.49	-39.8	-42.1	13.8	9.10e-06	0	62	0	1278214144	50	4876
2026-01-19 11:10:13.84	305.03	25.39	-39.8	-42.0	13.8	2.20e-06	0	62	0	1281359872	50	4863
2026-01-19 11:10:14.85	305.26	25.29	-39.8	-42.0	13.9	4.50e-06	0	62	0	1284505600	50	4837
2026-01-19 11:10:15.86	305.50	25.19	-39.7	-41.8	14.0	3.00e-06	0	62	0	1287651328	50	4757
2026-01-19 11:10:16.87	305.73	25.09	-39.6	-41.8	14.1	3.80e-06	0	62	0	1290797056	50	4708
2026-01-19 11:10:17.88	305.96	24.98	-39.7	-41.9	14.0	3.80e-06	0	62	0	1293942784	50	4772
2026-01-19 11:10:18.89	306.19	24.88	-39.6	-41.7	14.2	2.20e-06	0	62	0	1297088512	50	4684
2026-01-19 11:10:19.90	306.41	24.78	-39.6	-41.8	14.1	7.00e-07	0	62	0	1300234240	50	4707
2026-01-19 11:10:20.91	306.64	24.68	-39.6	-41.7	14.2	1.50e-06	0	62	0	1303379968	50	4674
2026-01-19 11:10:21.92	306.87	24.58	-39.6	-41.8	14.1	2.20e-06	0	62	0	1306525696	50	4722
2026-01-19 11:10:22.93	307.09	24.48	-39.7	-41.8	14.1	3.00e-06	0	62	0	1309671424	50	4729
2026-01-19 11:10:23.94	307.31	24.38	-39.6	-41.7	14.1	7.00e-07	0	62	0	1312817152	50	4694
2026-01-19 11:10:24.95	307.53	24.28	-39.5	-41.6	14.2	0.00e+00	0	62	0	1315962880	50	4645
2026-01-19 11:10:25.96	307.75	24.18	-39.6	-41.8	14.1	1.50e-06	0	62	0	1319108608	50	4711
2026-01-19 11:10:26.97	307.97	24.08	-39.7	-41.8	14.0	3.00e-06	0	62	0	1322254336	50	4746
2026-01-19 11:10:27.98	308.19	23.98	-39.7	-41.9	13.9	4.50e-06	0	62	0	1325400064	50	4793
2026-01-19 11:10:28.99	308.40	23.87	-39.7	-41.9	14.0	1.50e-06	0	62	0	1328545792	50	4776
2026-01-19 11:10:30.00	308.61	23.77	-39.8	-42.0	13.8	3.00e-06	0	62	0	1331691520	50	4827
2026-01-19 11:10:31.01	308.83	23.67	-39.8	-42.0	13.8	3.80e-06	0	62	0	1334837248	50	4831
2026-01-19 11:10:32.02	309.04	23.57	-39.9	-42.1	13.7	6.80e-06	0	62	0	1337982976	50	4915
2026-01-19 11:10:33.02	309.25	23.47	-39.9	-42.1	13.7	5.30e-06	0	62	0	1341128704	50	4895
2026-01-19 11:10:34.03	309.45	23.37	-39.9	-42.1	13.7	9.10e-06	0	62	0	1344274432	50	4916
2026-01-19 11:10:35.04	309.66	23.27	-39.9	-42.1	13.7	6.80e-06	0	63	0	1347420160	50	4915
2026-01-19 11:10:36.05	309.87	23.17	-39.8	-42.1	13.7	6.10e-06	0	62	0	1350565888	50	4894
2026-01-19 11:10:37.06	310.07	23.07	-39.9	-42.1	13.7	5.30e-06	0	62	0	1353711616	50	4918
2026-01-19 11:10:38.07	310.27	22.97	-39.8	-42.0	13.8	4.50e-06	0	62	0	1356857344	50	4848
2026-01-19 11:10:39.08	310.48	22.87	-39.8	-42.0	13.8	7.00e-07	0	62	0	1360003072	50	4823
2026-01-19 11:10:40.09	310.68	22.76	-39.9	-42.1	13.7	1.06e-05	0	62	0	1363148800	50	4909
2026-01-19 11:10:41.10	310.88	22.66	-39.8	-42.1	13.6	7.60e-06	0	62	0	1366294528	50	4891
2026-01-19 11:10:42.11	311.07	22.56	-39.8	-42.0	13.8	3.80e-06	0	62	0	1369440256	50	4821
2026-01-19 11:10:43.12	311.27	22.46	-39.7	-42.0	13.8	5.30e-06	0	62	0	1372585984	50	4826
2026-01-19 11:10:44.13	311.47	22.36	-39.7	-41.9	13.8	6.10e-06	0	62	0	1375731712	50	4800
2026-01-19 11:10:45.13	311.66	22.26	-39.8	-42.0	13.7	3.80e-06	0	62	0	1378877440	50	4843
2026-01-19 11:10:46.14	311.85	22.16	-39.7	-42.0	13.8	7.60e-06	0	62	0	1382023168	50	4817
2026-01-19 11:10:47.15	312.04	22.06	-39.7	-41.9	13.8	5.30e-06	0	62	0	1385168896	50	4782
2026-01-19 11:10:48.16	312.24	21.96	-39.7	-41.9	13.9	1.50e-06	0	62	0	1388314624	50	4767
2026-01-19 11:10:49.17	312.42	21.86	-39.8	-42.0	13.8	2.20e-06	0	62	0	1391460352	50	4820
2026-01-19 11:10:50.18	312.61	21.76	-39.8	-42.0	13.7	6.10e-06	0	63	0	1394606080	50	4868
2026-01-19 11:10:51.19	312.80	21.66	-39.7	-41.9	13.8	5.30e-06	0	62	0	1397751808	50	4779
2026-01-19 11:10:52.20	312.99	21.56	-39.7	-41.9	13.8	3.80e-06	0	62	0	1400897536	50	4802
2026-01-19 11:10:53.20	313.17	21.46	-39.7	-41.9	13.9	2.20e-06	0	62	0	1404043264	50	4793
2026-01-19 11:10:54.20	313.35	21.36	-39.8	-42.0	13.8	2.20e-06	0	62	0	1407188992	50	4820
2026-01-19 11:10:55.21	313.53	21.26	-39.7	-41.8	13.9	4.50e-06	0	63	0	1410334720	50	4741
2026-01-19 11:10:56.23	313.72	21.16	-39.7	-41.8	13.9	1.50e-06	0	62	0	1413480448	50	4752
2026-01-19 11:10:57.24	313.90	21.06	-39.7	-41.9	13.8	3.00e-06	0	62	0	1416626176	50	4807
2026-01-19 11:10:58.25	314.08	20.96	-39.7	-41.9	13.8	2.20e-06	0	62	0	1419771904	50	4808
2026-01-19 11:10:59.26	314.25	20.86	-39.8	-42.0	13.8	1.50e-06	0	63	0	1422917632	50	4836
2026-01-19 11:11:00.27	314.43	20.76	-39.9	-42.1	13.6	5.30e-06	0	63	0	1426063360	50	4912
2026-01-19 11:11:01.28	314.61	20.67	-39.9	-42.2	13.5	8.30e-06	0	62	0	1429209088	50	4978
2026-01-19 11:11:02.29	314.78	20.57	-39.9	-42.2	13.5	1.06e-05	0	62	0	1432354816	50	4975
2026-01-19 11:11:03.30	314.96	20.47	-40.1	-42.4	13.3	1.83e-05	0	63	0	1435500544	50	5082
2026-01-19 11:11:04.31	315.13	20.37	-40.1	-42.4	13.3	1.98e-05	0	62	0	1438646272	50	5085
2026-01-19 11:11:05.32	315.30	20.27	-40.0	-42.3	13.4	1.22e-05	0	62	0	1441792000	50	5014
2026-01-19 11:11:06.33	315.47	20.17	-39.9	-42.2	13.5	9.90e-06	0	62	0	1444937728	50	4974
2026-01-19 11:11:07.34	315.64	20.07	-39.9	-42.3	13.5	8.30e-06	0	62	0	1448083456	50	4997
2026-01-19 11:11:08.34	315.81	19.98	-40.0	-42.3	13.4	1.83e-05	0	62	0	1451229184	50	5038
2026-01-19 11:11:09.35	315.97	19.88	-40.0	-42.3	13.4	1.14e-05	0	63	0	1454374912	50	5037
2026-01-19 11:11:10.36	316.14	19.78	-40.0	-42.3	13.4	1.22e-05	0	62	0	1457520640	50	5012
2026-01-19 11:11:11.37	316.30	19.68	-39.9	-42.2	13.5	9.90e-06	0	62	0	1460666368	50	4964
2026-01-19 11:11:12.38	316.47	19.59	-39.9	-42.2	13.5	9.90e-06	0	62	0	1463812096	50	4962
2026-01-19 11:11:13.40	316.63	19.49	-39.9	-42.1	13.6	1.14e-05	0	62	0	1466957824	50	4924
2026-01-19 11:11:14.41	316.80	19.39	-39.8	-42.0	13.7	7.60e-06	0	62	0	1470103552	50	4856
2026-01-19 11:11:15.42	316.96	19.29	-39.8	-42.0	13.7	5.30e-06	0	63	0	1473249280	50	4855
2026-01-19 11:11:16.42	317.11	19.20	-39.7	-42.0	13.7	6.80e-06	0	62	0	1476395008	50	4825
2026-01-19 11:11:17.43	317.27	19.10	-39.8	-42.0	13.7	6.80e-06	0	63	0	1479540736	50	4841
2026-01-19 11:11:18.44	317.43	19.01	-39.8	-42.0	13.7	7.60e-06	0	63	0	1482686464	50	4863
2026-01-19 11:11:19.45	317.59	18.91	-39.8	-42.1	13.6	6.80e-06	0	62	0	1485832192	50	4880
2026-01-19 11:11:20.46	317.75	18.81	-39.8	-42.1	13.6	6.80e-06	0	62	0	1488977920	50	4895
2026-01-19 11:11:21.47	317.90	18.72	-39.9	-42.1	13.5	1.22e-05	0	62	0	1492123648	50	4925
2026-01-19 11:11:22.48	318.06	18.62	-39.8	-42.1	13.6	8.30e-06	0	62	0	1495269376	50	4899
2026-01-19 11:11:23.49	318.21	18.53	-39.8	-42.1	13.5	1.14e-05	0	63	0	1498415104	50	4903
2026-01-19 11:11:24.50	318.36	18.43	-39.8	-42.0	13.6	5.30e-06	0	62	0	1501560832	50	4850
2026-01-19 11:11:25.51	318.51	18.34	-39.8	-42.1	13.6	1.06e-05	0	62	0	1504706560	50	4881
2026-01-19 11:11:26.52	318.66	18.24	-39.8	-42.0	13.6	9.10e-06	0	62	0	1507852288	50	4862
2026-01-19 11:11:27.53	318.81	18.15	-39.8	-42.0	13.6	5.30e-06	0	62	0	1510998016	50	4863
2026-01-19 11:11:28.54	318.96	18.05	-39.8	-42.1	13.5	7.60e-06	0	62	0	1515192320	50	4887
2026-01-19 11:11:29.56	319.11	17.96	-39.8	-42.1	13.5	9.90e-06	0	62	0	1517289472	50	4918
2026-01-19 11:11:30.57	319.26	17.86	-39.8	-42.1	13.5	9.10e-06	0	62	0	1520435200	50	4925
2026-01-19 11:11:31.58	319.40	17.77	-39.9	-42.2	13.5	9.10e-06	0	62	0	1523580928	50	4942
2026-01-19 11:11:32.58	319.55	17.67	-39.9	-42.3	13.4	1.44e-05	0	62	0	1527775232	50	5018
2026-01-19 11:11:33.59	319.69	17.58	-39.9	-42.3	13.4	1.60e-05	0	62	0	1530920960	50	4987
2026-01-19 11:11:34.60	319.84	17.49	-39.9	-42.2	13.5	1.22e-05	0	62	0	1534066688	50	4929
2026-01-19 11:11:35.61	319.98	17.39	-39.9	-42.2	13.5	9.90e-06	0	62	0	1537212416	50	4943
2026-01-19 11:11:36.62	320.12	17.30	-39.9	-42.2	13.4	1.60e-05	0	62	0	1540358144	50	4974
2026-01-19 11:11:37.63	320.26	17.21	-39.9	-42.2	13.4	9.90e-06	0	62	0	1542455296	50	4953
2026-01-19 11:11:38.64	320.40	17.11	-39.9	-42.2	13.4	1.44e-05	0	62	0	1546649600	50	4978
2026-01-19 11:11:39.65	320.54	17.02	-39.9	-42.2	13.4	9.10e-06	0	62	0	1549795328	50	4961
2026-01-19 11:11:40.66	320.68	16.93	-39.9	-42.3	13.4	1.83e-05	0	62	0	1552941056	50	4984
2026-01-19 11:11:41.67	320.82	16.84	-39.9	-42.2	13.4	1.22e-05	0	62	0	1556086784	50	4978
2026-01-19 11:11:42.68	320.95	16.75	-39.9	-42.3	13.3	1.14e-05	0	63	0	1559232512	50	5009
2026-01-19 11:11:43.69	321.09	16.65	-39.9	-42.3	13.3	1.60e-05	0	62	0	1562378240	50	4994
2026-01-19 11:11:44.70	321.23	16.56	-40.0	-42.4	13.3	2.36e-05	0	63	0	1565523968	50	5060
2026-01-19 11:11:45.71	321.36	16.47	-40.0	-42.4	13.3	1.60e-05	0	62	0	1568669696	50	5053
2026-01-19 11:11:46.72	321.49	16.38	-40.1	-42.5	13.1	2.82e-05	0	62	0	1571815424	50	5148
2026-01-19 11:11:47.73	321.63	16.29	-40.1	-42.6	13.0	2.89e-05	0	62	0	1574961152	50	5161
2026-01-19 11:11:48.74	321.76	16.20	-40.2	-42.7	12.9	3.73e-05	0	62	0	1578106880	50	5238
2026-01-19 11:11:49.75	321.89	16.11	-40.2	-42.7	12.9	3.66e-05	0	62	0	1581252608	51	4961
2026-01-19 11:11:50.76	322.02	16.02	-40.2	-42.8	12.8	5.26e-05	0	62	0	1584398336	51	4988
2026-01-19 11:11:51.77	322.15	15.93	-40.2	-42.7	12.9	4.27e-05	0	62	0	1587544064	51	4953
2026-01-19 11:11:52.78	322.28	15.84	-40.2	-42.7	12.8	6.63e-05	0	62	0	1590689792	51	4982
2026-01-19 11:11:53.79	322.41	15.75	-40.3	-42.8	12.8	5.72e-05	0	63	0	1593835520	51	5003
2026-01-19 11:11:54.80	322.54	15.66	-40.3	-42.8	12.7	7.32e-05	0	63	0	1596981248	51	5028
2026-01-19 11:11:55.81	322.66	15.57	-40.3	-42.9	12.7	7.40e-05	0	63	0	1600126976	51	5058
2026-01-19 11:11:56.82	322.79	15.48	-40.4	-43.1	12.5	1.13e-04	0	62	0	1603272704	51	5167
2026-01-19 11:11:57.82	322.91	15.39	-40.5	-43.1	12.4	1.12e-04	0	62	0	1606418432	51	5202
2026-01-19 11:11:58.83	323.04	15.30	-40.5	-43.2	12.4	1.43e-04	0	63	0	1609564160	51	5231
2026-01-19 11:11:59.84	323.16	15.21	-40.5	-43.2	12.4	1.50e-04	0	62	0	1612709888	51	5252
2026-01-19 11:12:00.85	323.28	15.12	-40.5	-43.2	12.3	1.47e-04	0	63	0	1615855616	51	5279
2026-01-19 11:12:01.86	323.41	15.04	-40.5	-43.2	12.4	1.59e-04	0	63	0	1619001344	51	5247
2026-01-19 11:12:02.87	323.53	14.95	-40.5	-43.2	12.4	1.50e-04	0	63	0	1622147072	51	5239
2026-01-19 11:12:03.88	323.65	14.86	-40.5	-43.2	12.4	1.37e-04	0	62	0	1625292800	51	5224
2026-01-19 11:12:04.89	323.77	14.77	-40.5	-43.1	12.4	1.30e-04	0	63	0	1628438528	51	5194
2026-01-19 11:12:05.90	323.89	14.69	-40.5	-43.2	12.4	1.38e-04	0	62	0	1631584256	51	5231
2026-01-19 11:12:06.91	324.01	14.60	-40.5	-43.1	12.4	1.59e-04	0	62	0	1634729984	51	5211
2026-01-19 11:12:07.92	324.13	14.51	-40.6	-43.2	12.3	1.68e-04	0	62	0	1637875712	51	5278
2026-01-19 11:12:08.93	324.25	14.42	-40.5	-43.2	12.3	1.95e-04	0	62	0	1641021440	51	5235
2026-01-19 11:12:09.94	324.36	14.34	-40.6	-43.3	12.2	1.72e-04	0	63	0	1644167168	51	5302
2026-01-19 11:12:10.95	324.48	14.25	-40.7	-43.4	12.0	2.91e-04	0	62	0	1647312896	51	5395
2026-01-19 11:12:11.97	324.60	14.16	-40.7	-43.5	11.9	3.10e-04	0	62	0	1650458624	51	5447
2026-01-19 11:12:12.98	324.71	14.08	-40.7	-43.5	11.9	3.85e-04	0	63	0	1653604352	52	5138
2026-01-19 11:12:13.99	324.83	13.99	-40.7	-43.5	11.9	3.56e-04	0	62	0	1656750080	52	5139
2026-01-19 11:12:14.99	324.94	13.91	-40.6	-43.4	11.9	3.89e-04	0	62	0	1659895808	52	5100
2026-01-19 11:12:16.00	325.05	13.82	-40.6	-43.5	11.9	3.43e-04	0	62	0	1663041536	52	5114
2026-01-19 11:12:17.01	325.16	13.74	-40.6	-43.5	11.9	3.39e-04	0	62	0	1666187264	52	5105
2026-01-19 11:12:18.02	325.28	13.65	-40.6	-43.4	12.0	3.56e-04	0	62	0	1669332992	52	5071
2026-01-19 11:12:19.04	325.39	13.57	-40.6	-43.4	12.0	3.81e-04	0	62	0	1672478720	52	5082
2026-01-19 11:12:20.05	325.50	13.48	-40.7	-43.6	11.8	4.54e-04	0	63	0	1675624448	52	5171
2026-01-19 11:12:21.06	325.61	13.40	-40.6	-43.3	12.0	2.96e-04	0	63	0	1678770176	52	5039
2026-01-19 11:12:22.07	325.72	13.31	-40.6	-43.3	12.1	2.36e-04	0	62	0	1681915904	52	5021
2026-01-19 11:12:23.08	325.83	13.23	-40.5	-43.3	12.0	2.97e-04	0	62	0	1685061632	52	5032
2026-01-19 11:12:24.09	325.94	13.15	-40.5	-43.3	12.1	3.09e-04	0	62	0	1688207360	52	5013
2026-01-19 11:12:25.10	326.05	13.06	-40.6	-43.4	12.0	3.55e-04	0	62	0	1691353088	52	5054
2026-01-19 11:12:26.11	326.15	12.98	-40.5	-43.3	12.0	3.33e-04	0	62	0	1694498816	52	5040
2026-01-19 11:12:27.12	326.26	12.90	-40.6	-43.5	11.8	5.03e-04	0	62	0	1697644544	52	5126
2026-01-19 11:12:28.12	326.36	12.81	-40.6	-43.5	11.8	4.36e-04	0	62	0	1700790272	52	5119
2026-01-19 11:12:29.13	326.47	12.73	-40.6	-43.5	11.8	4.20e-04	0	62	0	1703936000	52	5110
2026-01-19 11:12:30.14	326.58	12.65	-40.6	-43.5	11.7	5.36e-04	0	62	0	1707081728	52	5145
2026-01-19 11:12:31.16	326.68	12.57	-40.7	-43.6	11.6	5.92e-04	0	62	0	1710227456	52	5210
2026-01-19 11:12:32.17	326.78	12.48	-40.7	-43.7	11.6	6.18e-04	0	62	0	1713373184	52	5240
2026-01-19 11:12:33.18	326.89	12.40	-40.8	-43.8	11.5	8.67e-04	0	62	0	1716518912	52	5286
2026-01-19 11:12:34.19	326.99	12.32	-40.7	-43.6	11.7	6.08e-04	0	62	0	1719664640	52	5172
2026-01-19 11:12:35.20	327.09	12.24	-40.7	-43.6	11.6	6.74e-04	0	62	0	1722810368	52	5211
2026-01-19 11:12:36.20	327.19	12.16	-40.7	-43.6	11.7	6.39e-04	0	63	0	1725956096	52	5162
2026-01-19 11:12:37.21	327.29	12.08	-40.6	-43.5	11.7	5.41e-04	0	62	0	1729101824	52	5144
2026-01-19 11:12:38.22	327.40	12.00	-40.7	-43.7	11.6	7.05e-04	0	63	0	1732247552	52	5228
2026-01-19 11:12:39.23	327.50	11.91	-40.6	-43.5	11.7	5.06e-04	0	62	0	1735393280	52	5136
2026-01-19 11:12:40.24	327.60	11.83	-40.7	-43.6	11.6	6.11e-04	0	62	0	1738539008	52	5208
2026-01-19 11:12:41.25	327.69	11.75	-40.7	-43.6	11.6	6.15e-04	0	63	0	1741684736	52	5190
2026-01-19 11:12:42.26	327.79	11.67	-40.7	-43.7	11.6	6.75e-04	0	63	0	1744830464	52	5226
2026-01-19 11:12:43.27	327.89	11.59	-40.6	-43.5	11.7	6.14e-04	0	62	0	1747976192	52	5156
2026-01-19 11:12:44.28	327.99	11.51	-40.6	-43.5	11.7	6.11e-04	0	62	0	1751121920	52	5139
2026-01-19 11:12:45.29	328.09	11.43	-40.6	-43.6	11.6	6.48e-04	0	62	0	1754267648	52	5176
2026-01-19 11:12:46.30	328.18	11.35	-40.7	-43.6	11.5	8.04e-04	0	63	0	1757413376	52	5213
2026-01-19 11:12:47.31	328.28	11.28	-40.7	-43.7	11.4	8.46e-04	0	62	0	1760559104	52	5263
2026-01-19 11:12:48.32	328.37	11.20	-40.6	-43.6	11.6	7.66e-04	0	62	0	1763704832	52	5180
2026-01-19 11:12:49.33	328.47	11.12	-40.7	-43.7	11.4	8.05e-04	0	62	0	1766850560	52	5270
2026-01-19 11:12:50.34	328.56	11.04	-40.7	-43.7	11.5	9.25e-04	0	62	0	1769996288	52	5241
2026-01-19 11:12:51.35	328.66	10.96	-40.7	-43.6	11.5	8.26e-04	0	62	0	1773142016	52	5217
2026-01-19 11:12:52.36	328.75	10.88	-40.7	-43.7	11.5	7.44e-04	0	62	0	1776287744	52	5219
2026-01-19 11:12:53.37	328.84	10.80	-40.6	-43.6	11.6	6.87e-04	0	62	0	1779433472	52	5167
2026-01-19 11:12:54.38	328.94	10.73	-40.7	-43.8	11.3	9.90e-04	0	62	0	1782579200	52	5293
2026-01-19 11:12:55.39	329.03	10.65	-40.7	-43.8	11.3	1.25e-03	0	63	0	1785724928	52	5324
2026-01-19 11:12:56.40	329.12	10.57	-40.7	-43.7	11.4	1.11e-03	0	62	0	1788870656	52	5256
2026-01-19 11:12:57.41	329.21	10.49	-40.7	-43.8	11.3	1.11e-03	0	62	0	1792016384	52	5290
2026-01-19 11:12:58.42	329.30	10.42	-40.8	-43.9	11.2	1.28e-03	0	63	0	1795162112	52	5352
2026-01-19 11:12:59.43	329.39	10.34	-40.7	-43.8	11.2	1.36e-03	0	63	0	1798307840	52	5331
2026-01-19 11:13:00.44	329.48	10.26	-40.7	-43.9	11.2	1.46e-03	0	62	0	1801453568	52	5343
2026-01-19 11:13:01.45	329.57	10.18	-40.8	-43.9	11.2	1.46e-03	0	62	0	1804599296	52	5359
2026-01-19 11:13:02.45	329.66	10.11	-40.8	-44.0	11.0	1.57e-03	0	63	0	1807745024	52	5418
2026-01-19 11:13:03.47	329.75	10.03	-40.8	-44.0	11.0	1.88e-03	0	63	0	1810890752	52	5410
2026-01-19 11:13:04.48	329.84	9.96	-40.8	-44.0	10.9	2.06e-03	0	62	0	1814036480	52	5463
2026-01-19 11:13:05.49	329.93	9.88	-40.9	-44.1	10.9	2.01e-03	0	62	0	1817182208	52	5465
2026-01-19 11:13:06.49	330.01	9.80	-40.9	-44.2	10.8	2.51e-03	0	62	0	1820327936	52	5544
2026-01-19 11:13:07.50	330.10	9.73	-40.9	-44.2	10.7	2.71e-03	0	63	0	1823473664	52	5575
2026-01-19 11:13:08.52	330.19	9.65	-40.9	-44.1	10.8	2.36e-03	0	63	0	1826619392	52	5507
2026-01-19 11:13:09.53	330.27	9.58	-40.8	-44.1	10.9	2.03e-03	0	62	0	1829765120	52	5490
2026-01-19 11:13:10.54	330.36	9.50	-40.8	-44.0	10.9	2.24e-03	0	62	0	1832910848	52	5458
2026-01-19 11:13:11.55	330.44	9.43	-40.7	-43.9	11.0	1.89e-03	0	63	0	1836056576	52	5384
2026-01-19 11:13:12.56	330.53	9.35	-40.7	-44.0	10.9	2.00e-03	0	63	0	1839202304	52	5408
2026-01-19 11:13:13.57	330.61	9.28	-40.8	-44.0	10.8	2.32e-03	0	62	0	1842348032	52	5450
2026-01-19 11:13:14.58	330.70	9.20	-40.8	-44.0	10.8	2.40e-03	0	63	0	1845493760	52	5456
2026-01-19 11:13:15.59	330.78	9.13	-40.7	-43.9	10.9	2.07e-03	0	62	0	1849688064	52	5375
2026-01-19 11:13:16.60	330.86	9.06	-40.7	-43.9	10.9	2.12e-03	0	62	0	1852833792	52	5368
2026-01-19 11:13:17.61	330.95	8.98	-40.7	-44.0	10.9	2.31e-03	0	62	0	1854930944	52	5406
2026-01-19 11:13:18.61	331.03	8.91	-40.7	-44.0	10.9	2.04e-03	0	63	0	1858076672	52	5411
2026-01-19 11:13:19.62	331.11	8.84	-40.7	-43.9	10.9	2.37e-03	0	63	0	1861222400	52	5381
2026-01-19 11:13:20.63	331.19	8.76	-40.7	-43.9	10.9	2.18e-03	0	62	0	1864368128	52	5383
2026-01-19 11:13:21.64	331.27	8.69	-40.6	-43.9	10.9	2.26e-03	0	62	0	1868562432	52	5363
2026-01-19 11:13:22.65	331.35	8.62	-40.7	-44.0	10.7	2.72e-03	0	62	0	1871708160	52	5438
2026-01-19 11:13:23.66	331.43	8.54	-40.8	-44.1	10.6	2.83e-03	0	62	0	1874853888	52	5504
2026-01-19 11:13:24.68	331.51	8.47	-40.6	-43.9	10.8	2.40e-03	0	62	0	1877999616	52	5376
2026-01-19 11:13:25.69	331.59	8.40	-40.7	-44.0	10.7	2.25e-03	0	62	0	1881145344	52	5434
2026-01-19 11:13:26.70	331.67	8.32	-40.7	-44.0	10.7	3.03e-03	0	62	0	1884291072	52	5464
2026-01-19 11:13:27.71	331.75	8.25	-40.7	-44.1	10.6	3.39e-03	0	63	0	1887436800	52	5494
2026-01-19 11:13:28.72	331.83	8.18	-40.8	-44.2	10.4	4.11e-03	0	63	0	1890582528	52	5557
2026-01-19 11:13:29.73	331.91	8.11	-40.7	-44.1	10.5	3.95e-03	0	63	0	1893728256	52	5492
2026-01-19 11:13:30.74	331.99	8.04	-40.7	-44.1	10.5	3.92e-03	0	63	0	1896873984	52	5503
2026-01-19 11:13:31.75	332.06	7.97	-43.2	-50.5	4.1	6.34e-02	0	62	104	1898971136	58	8130
2026-01-19 11:13:32.76	332.14	7.89	-44.6	-56.4	3.8	1.49e+00	0	63	104	1898971136	59	15166
2026-01-19 11:13:33.77	332.22	7.82	-44.8	-57.1	3.8	1.49e+00	0	62	104	1898971136	60	15550
2026-01-19 11:13:34.78	332.29	7.75	-45.0	-57.3	3.8	1.49e+00	0	62	104	1898971136	60	15816
2026-01-19 11:13:35.79	332.37	7.68	-45.1	-57.4	3.8	1.49e+00	0	63	104	1898971136	60	16127
2026-01-19 11:13:36.80	332.45	7.61	-45.2	-57.5	3.8	1.49e+00	0	62	104	1898971136	60	16264
2026-01-19 11:13:37.81	332.52	7.54	-45.3	-57.6	3.8	1.49e+00	0	63	104	1898971136	61	15540
2026-01-19 11:13:38.82	332.60	7.47	-45.3	-57.6	3.8	1.49e+00	0	63	104	1898971136	61	15559
2026-01-19 11:13:39.83	332.67	7.40	-45.3	-57.7	3.8	1.49e+00	0	63	104	1898971136	61	15582
2026-01-19 11:13:40.84	332.75	7.33	-45.3	-57.6	3.8	1.49e+00	0	63	104	1898971136	61	15577
2026-01-19 11:13:41.85	332.82	7.26	-45.3	-57.7	3.8	1.49e+00	0	62	104	1898971136	61	15602
2026-01-19 11:13:42.86	332.89	7.19	-43.9	-57.1	3.8	1.49e+00	0	62	104	1898971136	60	15409
2026-01-19 11:13:43.87	332.97	7.12	-45.3	-57.6	3.8	1.49e+00	0	62	104	1898971136	61	15558
2026-01-19 11:13:44.88	333.04	7.05	-45.3	-57.6	3.8	1.49e+00	0	62	104	1898971136	61	15516
2026-01-19 11:13:45.89	333.11	6.98	-45.3	-57.6	3.8	1.49e+00	0	62	104	1898971136	61	15424
2026-01-19 11:13:46.90	333.18	6.91	-45.0	-57.5	3.8	1.49e+00	0	62	104	1898971136	61	15393
2026-01-19 11:13:47.91	333.26	6.84	-45.1	-57.5	3.8	1.49e+00	0	63	104	1898971136	61	15363
2026-01-19 11:13:48.92	333.33	6.77	-45.2	-57.6	3.8	1.49e+00	0	62	104	1898971136	61	15473
2026-01-19 11:13:49.93	333.40	6.70	-45.2	-57.5	3.8	1.49e+00	0	63	104	1898971136	61	15371
2026-01-19 11:13:50.94	333.47	6.64	-45.2	-57.5	3.8	1.49e+00	0	63	104	1898971136	61	15335
2026-01-19 11:13:51.95	333.54	6.57	-45.0	-57.5	3.8	1.49e+00	0	62	104	1898971136	61	15350
2026-01-19 11:13:52.96	333.61	6.50	-45.2	-57.5	3.8	1.49e+00	0	62	104	1898971136	61	15369
2026-01-19 11:13:53.97	333.68	6.43	-45.2	-57.5	3.8	1.49e+00	0	63	104	1898971136	61	15388
2026-01-19 11:13:54.98	333.75	6.36	-45.2	-57.6	3.8	1.49e+00	0	63	104	1898971136	61	15451
2026-01-19 11:13:55.99	333.82	6.29	-45.2	-57.5	3.8	1.49e+00	0	63	104	1898971136	61	15367
2026-01-19 11:13:57.00	333.89	6.23	-45.2	-57.5	3.8	1.49e+00	0	63	104	1898971136	61	15386
2026-01-19 11:13:58.01	333.96	6.16	-45.2	-57.5	3.8	1.49e+00	0	63	104	1898971136	61	15295
2026-01-19 11:13:59.02	334.03	6.09	-45.2	-57.5	3.8	1.49e+00	0	62	104	1898971136	61	15360
2026-01-19 11:14:00.03	334.10	6.02	-45.2	-57.5	3.8	1.49e+00	0	63	104	1898971136	61	15351
2026-01-19 11:14:01.04	334.17	5.96	-45.2	-57.5	3.8	1.49e+00	0	63	104	1898971136	61	15374
2026-01-19 11:14:02.05	334.23	5.89	-45.1	-57.5	3.8	1.49e+00	0	63	104	1898971136	60	16200
2026-01-19 11:14:03.06	334.30	5.82	-45.2	-57.5	3.8	1.49e+00	0	62	104	1898971136	61	15371
2026-01-19 11:14:04.07	334.37	5.76	-45.2	-57.5	3.8	1.49e+00	0	62	104	1898971136	61	15357
2026-01-19 11:14:05.08	334.44	5.69	-45.1	-57.5	3.8	1.49e+00	0	62	104	1898971136	61	15374
2026-01-19 11:14:06.09	334.50	5.62	-45.2	-57.5	3.8	1.49e+00	0	63	104	1898971136	61	15306
2026-01-19 11:14:07.10	334.57	5.56	-45.2	-57.5	3.8	1.49e+00	0	63	104	1898971136	61	15308
2026-01-19 11:14:08.11	334.63	5.49	-45.2	-57.5	3.8	1.49e+00	0	63	104	1898971136	61	15328
2026-01-19 11:14:09.12	334.70	5.42	-45.2	-57.5	3.8	1.49e+00	0	62	104	1898971136	61	15345
2026-01-19 11:14:10.14	334.77	5.36	-45.2	-57.5	3.8	1.49e+00	0	63	104	1898971136	61	15397
2026-01-19 11:14:11.14	334.83	5.29	-45.2	-57.5	3.8	1.49e+00	0	62	104	1898971136	61	15361
2026-01-19 11:14:12.15	334.90	5.23	-45.2	-57.5	3.8	1.49e+00	0	62	104	1898971136	61	15314
2026-01-19 11:14:13.17	334.96	5.16	-45.2	-57.5	3.8	1.49e+00	0	63	104	1898971136	60	16265
2026-01-19 11:14:14.18	335.03	5.10	-45.2	-57.5	3.8	1.49e+00	0	62	104	1898971136	60	16216
2026-01-19 11:14:15.19	335.09	5.03	-45.2	-57.5	3.8	1.49e+00	0	63	104	1898971136	60	16157
2026-01-19 11:14:16.20	335.15	4.97	-45.2	-57.6	3.8	1.49e+00	0	62	104	1898971136	60	16364
2026-01-19 11:14:17.20	335.22	4.90	-45.2	-57.5	3.8	1.49e+00	0	63	104	1898971136	60	16251
2026-01-19 11:14:18.21	335.28	4.84	-45.2	-57.5	3.8	1.49e+00	0	63	104	1898971136	60	16266
2026-01-19 11:14:19.22	335.34	4.77	-45.2	-57.5	3.8	1.49e+00	0	63	104	1898971136	60	16243
2026-01-19 11:14:20.23	335.41	4.71	-45.2	-57.5	3.8	1.49e+00	0	63	104	1898971136	60	16284
