passes_logs/2026/01/19/R2.0S_Moscow/R2.0S_Moscow__20260119_074252_NOAA_21_JPSS-2_rec.log

#Pass ID: 20260119_074252_NOAA 21 (JPSS-2)
#Satellite: NOAA 21 (JPSS-2)
#Configuration: NOAA-21
#almurnet v.1.7.20251203
#Start time: 2026-01-19 07:42:53

#Version: 2.2.20231116
#Station: R2.0S_Moscow
#Location: 37.707566 lon 55.798166 lat
#TLE: 1 54234U 22150A   26017.90260625  .00000050  00000+0  44518-4 0  9994
#TLE: 2 54234  98.7502 318.7672 0000612 269.1755  90.9351 14.19535344165221

#Time	Az	El	Level	Level2	SNR	BER	BlckErr	Temp	State	Recorded	gain1	gain2
2026-01-19 07:42:53.98	95.21	2.06	-40.3	-52.7	3.8	1.49e+00	0	52	0	0	51	15698
2026-01-19 07:42:54.98	95.13	2.11	-39.8	-52.5	3.8	1.49e+00	0	52	104	0	51	15385
2026-01-19 07:42:55.99	95.04	2.16	-40.3	-52.7	3.8	1.49e+00	0	52	104	0	51	15739
2026-01-19 07:42:57.00	94.95	2.22	-40.2	-52.7	3.8	1.49e+00	0	52	104	0	51	15649
2026-01-19 07:42:58.01	94.87	2.27	-40.3	-52.7	3.8	1.49e+00	0	52	104	0	51	15707
2026-01-19 07:42:59.02	94.78	2.32	-40.1	-52.7	3.8	1.49e+00	0	53	104	0	51	15644
2026-01-19 07:43:00.03	94.69	2.37	-40.3	-52.7	3.8	1.49e+00	0	53	104	0	51	15740
2026-01-19 07:43:01.05	94.60	2.42	-40.1	-52.6	3.8	1.49e+00	0	53	104	0	51	15518
2026-01-19 07:43:02.06	94.51	2.47	-39.6	-52.4	3.8	1.49e+00	0	53	104	0	51	15138
2026-01-19 07:43:03.07	94.42	2.52	-39.9	-52.6	3.8	1.49e+00	0	53	104	0	51	15481
2026-01-19 07:43:04.08	94.33	2.57	-40.2	-52.7	3.8	1.49e+00	0	53	104	0	51	15669
2026-01-19 07:43:05.09	94.24	2.62	-39.7	-52.5	3.8	1.49e+00	0	53	104	0	50	16249
2026-01-19 07:43:06.10	94.15	2.68	-40.3	-52.7	3.8	1.49e+00	0	53	104	0	51	15679
2026-01-19 07:43:07.11	94.06	2.73	-40.3	-52.7	3.8	1.49e+00	0	53	104	0	51	15699
2026-01-19 07:43:08.12	93.97	2.78	-40.3	-52.7	3.8	1.49e+00	0	53	104	0	51	15707
2026-01-19 07:43:09.13	93.88	2.83	-40.3	-52.7	3.8	1.49e+00	0	53	104	0	50	16610
2026-01-19 07:43:10.14	93.79	2.88	-40.1	-52.7	3.8	1.49e+00	0	53	104	0	51	15601
2026-01-19 07:43:11.15	93.70	2.93	-39.9	-52.6	3.8	1.49e+00	0	53	104	0	51	15418
2026-01-19 07:43:12.16	93.60	2.98	-40.3	-52.7	3.8	1.49e+00	0	53	104	0	51	15680
2026-01-19 07:43:13.17	93.51	3.03	-40.2	-52.7	3.8	1.49e+00	0	54	104	0	51	15635
2026-01-19 07:43:14.18	93.42	3.09	-40.3	-52.7	3.8	1.49e+00	0	54	104	0	51	15694
2026-01-19 07:43:15.20	93.33	3.14	-40.1	-52.7	3.8	1.49e+00	0	54	104	0	51	15625
2026-01-19 07:43:16.21	93.23	3.19	-40.0	-52.7	3.8	1.49e+00	0	54	104	0	51	15640
2026-01-19 07:43:17.22	93.14	3.24	-39.9	-52.6	3.8	1.49e+00	0	54	104	0	51	15562
2026-01-19 07:43:18.23	93.04	3.29	-40.3	-52.7	3.8	1.49e+00	0	54	104	0	51	15651
2026-01-19 07:43:19.24	92.95	3.34	-40.3	-52.7	3.8	1.49e+00	0	54	104	0	51	15640
2026-01-19 07:43:20.25	92.86	3.39	-40.1	-52.6	3.8	1.49e+00	0	54	104	0	51	15561
2026-01-19 07:43:21.26	92.76	3.45	-40.0	-52.6	3.8	1.49e+00	0	54	104	0	51	15545
2026-01-19 07:43:22.27	92.66	3.50	-40.3	-52.7	3.8	1.49e+00	0	54	104	0	51	15685
2026-01-19 07:43:23.28	92.57	3.55	-39.9	-52.6	3.8	1.49e+00	0	54	104	0	51	15494
2026-01-19 07:43:24.29	92.47	3.60	-40.2	-52.7	3.8	1.49e+00	0	54	104	0	51	15583
2026-01-19 07:43:25.30	92.38	3.65	-40.3	-52.7	3.8	1.49e+00	0	54	104	0	51	15701
2026-01-19 07:43:26.31	92.28	3.70	-39.7	-52.5	3.8	1.49e+00	0	54	104	0	50	16273
2026-01-19 07:43:27.32	92.18	3.76	-40.3	-52.7	3.8	1.49e+00	0	54	104	0	51	15723
2026-01-19 07:43:28.33	92.08	3.81	-40.3	-52.7	3.8	1.49e+00	0	54	104	0	51	15676
2026-01-19 07:43:29.34	91.99	3.86	-40.3	-52.7	3.8	1.49e+00	0	54	104	0	51	15638
2026-01-19 07:43:30.35	91.89	3.91	-39.9	-52.6	3.8	1.49e+00	0	55	104	0	51	15497
2026-01-19 07:43:31.36	91.79	3.96	-39.7	-52.5	3.8	1.49e+00	0	55	104	0	50	16213
2026-01-19 07:43:32.37	91.69	4.01	-40.3	-52.7	3.8	1.49e+00	0	55	104	0	51	15731
2026-01-19 07:43:33.38	91.59	4.07	-40.0	-52.6	3.8	1.49e+00	0	55	104	0	51	15506
2026-01-19 07:43:34.40	91.49	4.12	-40.0	-52.6	3.8	1.49e+00	0	55	104	0	51	15551
2026-01-19 07:43:35.41	91.39	4.17	-40.1	-52.6	3.8	1.49e+00	0	55	104	0	51	15520
2026-01-19 07:43:36.42	91.29	4.22	-40.3	-52.7	3.8	1.49e+00	0	55	104	0	51	15653
2026-01-19 07:43:37.43	91.19	4.27	-39.4	-52.5	3.8	1.49e+00	0	55	104	0	51	15250
2026-01-19 07:43:38.44	91.09	4.33	-40.3	-52.7	3.8	1.49e+00	0	55	104	0	51	15675
2026-01-19 07:43:39.45	90.99	4.38	-40.2	-52.7	3.8	1.49e+00	0	55	104	0	51	15660
2026-01-19 07:43:40.46	90.89	4.43	-40.1	-52.7	3.8	1.49e+00	0	55	104	0	51	15624
2026-01-19 07:43:41.47	90.78	4.48	-40.2	-52.7	3.8	1.49e+00	0	55	104	0	51	15648
2026-01-19 07:43:42.48	90.68	4.53	-40.0	-52.6	3.8	1.49e+00	0	55	104	0	51	15437
2026-01-19 07:43:43.49	90.58	4.58	-40.3	-52.7	3.8	1.49e+00	0	55	104	0	51	15667
2026-01-19 07:43:44.50	90.47	4.64	-38.9	-52.2	3.8	1.49e+00	0	55	104	0	50	15692
2026-01-19 07:43:45.51	90.37	4.69	-40.0	-52.6	3.8	1.49e+00	0	55	104	0	50	16375
2026-01-19 07:43:46.52	90.27	4.74	-40.2	-52.6	3.8	1.49e+00	0	55	104	0	51	15527
2026-01-19 07:43:47.53	90.16	4.79	-39.6	-52.5	3.8	1.49e+00	0	56	104	0	50	16163
2026-01-19 07:43:48.54	90.06	4.84	-39.0	-52.2	3.8	1.49e+00	0	56	104	0	50	15684
2026-01-19 07:43:49.55	89.95	4.90	-40.1	-52.6	3.8	1.49e+00	0	55	104	0	51	15462
2026-01-19 07:43:50.56	89.85	4.95	-39.7	-52.6	3.8	1.49e+00	0	56	104	0	50	16326
2026-01-19 07:43:51.57	89.74	5.00	-40.2	-52.7	3.8	1.49e+00	0	56	104	0	51	15647
2026-01-19 07:43:52.58	89.63	5.05	-39.8	-52.5	3.8	1.49e+00	0	56	104	0	50	16184
2026-01-19 07:43:53.59	89.53	5.11	-40.3	-52.7	3.8	1.49e+00	0	56	104	0	51	15671
2026-01-19 07:43:54.60	89.42	5.16	-40.1	-52.7	3.8	1.49e+00	0	56	104	0	50	16534
2026-01-19 07:43:55.61	89.31	5.21	-39.7	-52.5	3.8	1.49e+00	0	56	104	0	51	15335
2026-01-19 07:43:56.62	89.20	5.26	-40.2	-52.6	3.8	1.49e+00	0	56	104	0	51	15521
2026-01-19 07:43:57.63	89.10	5.31	-40.1	-52.6	3.8	1.49e+00	0	56	104	0	51	15580
2026-01-19 07:43:58.65	88.99	5.37	-40.2	-52.7	3.8	1.49e+00	0	56	104	0	51	15618
2026-01-19 07:43:59.66	88.88	5.42	-39.8	-52.6	3.8	1.49e+00	0	56	104	0	51	15485
2026-01-19 07:44:00.67	88.77	5.47	-39.9	-52.5	3.8	1.49e+00	0	56	104	0	51	15379
2026-01-19 07:44:01.68	88.66	5.52	-40.2	-52.7	3.8	1.49e+00	0	56	104	0	51	15662
2026-01-19 07:44:02.69	88.55	5.57	-40.0	-52.6	3.8	1.49e+00	0	56	104	0	51	15452
2026-01-19 07:44:03.70	88.44	5.63	-40.1	-52.6	3.8	1.49e+00	0	56	104	0	51	15541
2026-01-19 07:44:04.71	88.33	5.68	-40.2	-52.7	3.8	1.49e+00	0	56	104	0	51	15652
2026-01-19 07:44:05.72	88.21	5.73	-40.2	-52.7	3.8	1.49e+00	0	57	104	0	51	15618
2026-01-19 07:44:06.73	88.10	5.78	-40.2	-52.7	3.8	1.49e+00	0	56	104	0	51	15610
2026-01-19 07:44:07.74	87.99	5.84	-40.2	-52.7	3.8	1.49e+00	0	56	104	0	51	15598
2026-01-19 07:44:08.75	87.88	5.89	-40.1	-52.7	3.8	1.49e+00	0	57	104	0	51	15596
2026-01-19 07:44:09.76	87.76	5.94	-40.2	-52.7	3.8	1.49e+00	0	57	104	0	50	16516
2026-01-19 07:44:10.77	87.65	5.99	-40.1	-52.6	3.8	1.49e+00	0	56	104	0	51	15435
2026-01-19 07:44:11.78	87.54	6.04	-40.0	-52.6	3.8	1.49e+00	0	57	104	0	51	15472
2026-01-19 07:44:12.79	87.42	6.10	-39.8	-52.5	3.8	1.49e+00	0	56	104	0	51	15315
2026-01-19 07:44:13.80	87.31	6.15	-39.5	-52.4	3.8	1.49e+00	0	57	104	0	50	15982
2026-01-19 07:44:14.81	87.19	6.20	-40.2	-52.7	3.8	1.49e+00	0	57	104	0	51	15603
2026-01-19 07:44:15.82	87.08	6.25	-40.2	-52.7	3.8	1.49e+00	0	57	104	0	50	16509
2026-01-19 07:44:16.83	86.96	6.30	-40.2	-52.7	3.8	1.49e+00	0	57	104	0	51	15609
2026-01-19 07:44:17.84	86.84	6.36	-40.1	-52.6	3.8	1.49e+00	0	57	104	0	51	15487
2026-01-19 07:44:18.85	86.73	6.41	-40.0	-52.6	3.8	1.49e+00	0	57	104	0	51	15471
2026-01-19 07:44:19.86	86.61	6.46	-40.2	-52.7	3.8	1.49e+00	0	57	104	0	51	15633
2026-01-19 07:44:20.87	86.49	6.51	-39.7	-52.5	3.8	1.49e+00	0	57	104	0	50	16177
2026-01-19 07:44:21.88	86.37	6.57	-40.2	-52.6	3.8	1.49e+00	0	57	104	0	51	15515
2026-01-19 07:44:22.89	86.25	6.62	-39.9	-52.6	3.8	1.49e+00	0	57	104	0	51	15473
2026-01-19 07:44:23.90	86.14	6.67	-40.1	-52.6	3.8	1.49e+00	0	57	104	0	51	15572
2026-01-19 07:44:24.91	86.02	6.72	-39.9	-52.5	3.8	1.49e+00	0	57	104	0	50	16269
2026-01-19 07:44:25.92	85.90	6.77	-40.3	-52.7	3.8	1.49e+00	0	57	104	0	51	15651
2026-01-19 07:44:26.93	85.78	6.83	-40.3	-52.7	3.8	1.49e+00	0	57	104	0	51	15685
2026-01-19 07:44:27.94	85.65	6.88	-40.3	-52.7	3.8	1.49e+00	0	57	104	0	51	15647
2026-01-19 07:44:28.95	85.53	6.93	-40.2	-52.7	3.8	1.49e+00	0	57	104	0	51	15652
2026-01-19 07:44:29.97	85.41	6.98	-40.0	-52.6	3.8	1.49e+00	0	57	104	0	51	15481
2026-01-19 07:44:30.98	85.29	7.03	-40.2	-52.7	3.8	1.49e+00	0	57	104	0	51	15646
2026-01-19 07:44:31.99	85.17	7.09	-40.1	-52.6	3.8	1.49e+00	0	57	104	0	51	15521
2026-01-19 07:44:33.00	85.04	7.14	-40.0	-52.6	3.8	1.49e+00	0	57	104	0	51	15548
2026-01-19 07:44:34.01	84.92	7.19	-39.7	-52.5	3.9	1.49e+00	0	57	104	0	51	15376
2026-01-19 07:44:35.02	84.79	7.24	-40.2	-52.7	3.8	1.49e+00	0	57	104	0	51	15702
2026-01-19 07:44:36.03	84.67	7.29	-40.0	-52.6	3.8	1.49e+00	0	58	104	0	51	15483
2026-01-19 07:44:37.04	84.55	7.35	-40.2	-52.7	3.8	1.49e+00	0	57	104	0	51	15643
2026-01-19 07:44:38.05	84.42	7.40	-40.0	-52.6	3.8	1.49e+00	0	57	104	0	51	15482
2026-01-19 07:44:39.06	84.29	7.45	-40.2	-52.7	3.8	1.49e+00	0	57	104	0	51	15603
2026-01-19 07:44:40.07	84.17	7.50	-40.2	-52.7	3.8	1.49e+00	0	58	104	0	50	16550
2026-01-19 07:44:41.08	84.04	7.55	-40.3	-52.7	3.8	1.49e+00	0	58	104	0	51	15627
2026-01-19 07:44:42.09	83.91	7.60	-40.1	-52.6	3.8	1.49e+00	0	58	104	0	51	15517
2026-01-19 07:44:43.10	83.79	7.66	-39.9	-52.6	3.8	1.49e+00	0	57	104	0	51	15489
2026-01-19 07:44:44.11	83.66	7.71	-39.8	-52.6	3.8	1.49e+00	0	58	104	0	51	15410
2026-01-19 07:44:45.12	83.53	7.76	-40.1	-52.6	3.8	1.49e+00	0	58	104	0	50	16455
2026-01-19 07:44:46.13	83.40	7.81	-40.0	-52.6	3.8	1.49e+00	0	58	104	0	51	15530
2026-01-19 07:44:47.14	83.27	7.86	-40.1	-52.6	3.8	1.49e+00	0	58	104	0	51	15491
2026-01-19 07:44:48.15	83.14	7.91	-40.2	-52.6	3.8	1.49e+00	0	58	104	0	51	15574
2026-01-19 07:44:49.16	83.01	7.97	-40.3	-52.7	3.8	1.49e+00	0	58	104	0	51	15641
2026-01-19 07:44:50.17	82.88	8.02	-40.2	-52.7	3.8	1.49e+00	0	58	104	0	51	15602
2026-01-19 07:44:51.18	82.75	8.07	-40.3	-52.7	3.8	1.49e+00	0	58	104	0	51	15697
2026-01-19 07:44:52.19	82.62	8.12	-40.0	-52.7	3.8	1.49e+00	0	58	104	0	51	15582
2026-01-19 07:44:53.20	82.49	8.17	-39.9	-52.5	3.8	1.49e+00	0	58	104	0	51	15359
2026-01-19 07:44:54.21	82.35	8.22	-40.1	-52.7	3.8	1.49e+00	0	58	104	0	51	15683
2026-01-19 07:44:55.22	82.22	8.27	-40.3	-52.7	3.8	1.49e+00	0	58	104	0	51	15730
2026-01-19 07:44:56.23	82.09	8.33	-39.9	-52.7	3.8	1.49e+00	0	58	104	0	51	15670
2026-01-19 07:44:57.23	81.95	8.38	-39.7	-52.5	3.8	1.49e+00	0	58	104	0	51	15382
2026-01-19 07:44:58.24	81.82	8.43	-40.1	-52.7	3.8	1.49e+00	0	58	104	0	51	15633
2026-01-19 07:44:59.25	81.68	8.48	-39.9	-52.6	3.8	1.49e+00	0	58	104	0	51	15569
2026-01-19 07:45:00.26	81.55	8.53	-40.0	-52.7	3.8	1.49e+00	0	58	104	0	51	15622
2026-01-19 07:45:01.27	81.41	8.58	-39.9	-52.6	3.8	1.49e+00	0	58	104	0	51	15553
2026-01-19 07:45:02.28	81.27	8.63	-40.3	-52.8	3.8	1.49e+00	0	58	104	0	51	15778
2026-01-19 07:45:03.29	81.14	8.68	-40.1	-52.6	3.8	1.49e+00	0	58	104	0	51	15530
2026-01-19 07:45:04.30	81.00	8.73	-40.3	-52.8	3.8	1.49e+00	0	58	104	0	51	15772
2026-01-19 07:45:05.31	80.86	8.78	-40.2	-52.7	3.8	1.49e+00	0	58	104	0	51	15653
2026-01-19 07:45:06.32	80.72	8.84	-40.0	-52.7	3.8	1.49e+00	0	58	104	0	51	15634
2026-01-19 07:45:07.32	80.59	8.89	-40.2	-52.7	3.8	1.49e+00	0	58	104	0	51	15702
2026-01-19 07:45:08.33	80.45	8.94	-40.3	-52.8	3.8	1.49e+00	0	58	104	0	51	15875
2026-01-19 07:45:09.34	80.31	8.99	-40.2	-52.8	3.8	1.49e+00	0	58	104	0	51	15767
2026-01-19 07:45:10.35	80.17	9.04	-40.4	-52.8	3.8	1.49e+00	0	58	104	0	51	15923
2026-01-19 07:45:11.36	80.03	9.09	-40.2	-52.7	3.8	1.49e+00	0	58	104	0	51	15688
2026-01-19 07:45:12.37	79.88	9.14	-40.3	-52.7	3.8	1.49e+00	0	59	104	0	51	15752
2026-01-19 07:45:13.38	79.74	9.19	-39.9	-52.7	3.8	1.49e+00	0	58	104	0	50	16614
2026-01-19 07:45:14.39	79.60	9.24	-40.3	-52.9	3.8	1.49e+00	0	59	104	0	51	15959
2026-01-19 07:45:15.40	79.46	9.29	-40.4	-53.0	3.8	1.49e+00	0	59	104	0	51	16254
2026-01-19 07:45:16.41	79.31	9.34	-40.3	-52.9	3.8	1.49e+00	0	58	104	0	51	16112
2026-01-19 07:45:17.42	79.17	9.39	-40.6	-53.1	3.8	1.49e+00	0	59	104	0	51	16332
2026-01-19 07:45:18.43	79.02	9.44	-40.6	-53.1	3.8	1.49e+00	0	59	104	0	52	15418
2026-01-19 07:45:19.43	78.88	9.49	-40.3	-52.9	3.8	1.49e+00	0	59	104	0	51	16106
2026-01-19 07:45:20.44	78.74	9.54	-40.6	-53.1	3.8	1.49e+00	0	59	104	0	51	16375
2026-01-19 07:45:21.45	78.59	9.59	-40.6	-53.2	3.8	1.49e+00	0	59	104	0	52	15710
2026-01-19 07:45:22.46	78.44	9.64	-40.7	-53.2	3.8	1.49e+00	0	59	104	0	52	15699
2026-01-19 07:45:23.47	78.30	9.69	-40.6	-53.0	3.8	1.49e+00	0	59	104	0	52	15328
2026-01-19 07:45:24.48	78.15	9.74	-40.7	-53.2	3.8	1.49e+00	0	59	104	0	52	15675
2026-01-19 07:45:25.49	78.00	9.79	-40.9	-53.4	3.8	1.49e+00	0	59	104	0	52	15959
2026-01-19 07:45:26.50	77.85	9.84	-40.8	-53.3	3.8	1.49e+00	0	59	104	0	52	15808
2026-01-19 07:45:27.51	77.70	9.88	-40.8	-53.2	3.8	1.49e+00	0	59	104	0	52	15673
2026-01-19 07:45:28.52	77.55	9.93	-40.8	-53.3	3.8	1.49e+00	0	59	104	0	52	15893
2026-01-19 07:45:29.53	77.40	9.98	-41.0	-53.3	3.8	1.49e+00	0	59	104	0	52	15928
2026-01-19 07:45:30.54	77.25	10.03	-40.9	-53.4	3.8	1.49e+00	0	59	104	0	52	15969
2026-01-19 07:45:31.55	77.10	10.08	-40.9	-53.3	3.8	1.49e+00	0	59	104	0	52	15883
2026-01-19 07:45:32.56	76.95	10.13	-40.9	-53.4	3.8	1.49e+00	0	59	104	0	52	16023
2026-01-19 07:45:33.57	76.80	10.18	-41.0	-53.5	3.8	1.49e+00	0	59	104	0	52	16194
2026-01-19 07:45:34.58	76.65	10.23	-41.0	-53.4	3.8	1.49e+00	0	59	104	0	52	16103
2026-01-19 07:45:35.59	76.49	10.28	-41.0	-53.4	3.8	1.49e+00	0	59	104	0	52	16069
2026-01-19 07:45:36.59	76.34	10.32	-41.0	-53.5	3.8	1.49e+00	0	59	104	0	52	16200
2026-01-19 07:45:37.60	76.19	10.37	-41.1	-53.6	3.8	1.49e+00	0	59	104	0	52	16375
2026-01-19 07:45:38.61	76.03	10.42	-41.0	-53.4	3.8	1.49e+00	0	59	104	0	52	16126
2026-01-19 07:45:39.62	75.88	10.47	-41.0	-53.5	3.8	1.49e+00	0	59	104	0	52	16140
2026-01-19 07:45:40.63	75.72	10.52	-41.1	-53.5	3.8	1.49e+00	0	59	104	0	52	16313
2026-01-19 07:45:41.64	75.57	10.56	-41.1	-53.6	3.8	1.49e+00	0	59	104	0	53	15417
2026-01-19 07:45:42.65	75.41	10.61	-41.0	-53.5	3.8	1.49e+00	0	59	104	0	53	15238
2026-01-19 07:45:43.66	75.25	10.66	-41.0	-53.4	3.8	1.49e+00	0	59	104	0	53	15179
2026-01-19 07:45:44.67	75.09	10.71	-41.1	-53.6	3.8	1.49e+00	0	59	104	0	53	15440
2026-01-19 07:45:45.68	74.94	10.75	-41.0	-53.5	3.8	1.49e+00	0	59	104	0	53	15340
2026-01-19 07:45:46.69	74.78	10.80	-41.0	-53.5	3.8	1.49e+00	0	59	104	0	53	15311
2026-01-19 07:45:47.70	74.62	10.85	-41.1	-53.5	3.8	1.49e+00	0	59	104	0	53	15343
2026-01-19 07:45:48.71	74.46	10.90	-41.0	-53.5	3.8	1.49e+00	0	59	104	0	53	15305
2026-01-19 07:45:49.72	74.30	10.94	-40.9	-53.5	3.8	1.49e+00	0	59	104	0	53	15243
2026-01-19 07:45:50.73	74.14	10.99	-41.1	-53.6	3.8	1.49e+00	0	59	104	0	53	15422
2026-01-19 07:45:51.74	73.98	11.04	-41.2	-53.6	3.8	1.49e+00	0	59	104	0	53	15510
2026-01-19 07:45:52.75	73.81	11.08	-40.9	-53.4	3.8	1.49e+00	0	59	104	0	53	15155
2026-01-19 07:45:53.76	73.65	11.13	-40.9	-53.4	3.8	1.49e+00	0	59	104	0	53	15223
2026-01-19 07:45:54.77	73.49	11.17	-41.0	-53.5	3.8	1.49e+00	0	59	104	0	53	15306
2026-01-19 07:45:55.78	73.33	11.22	-41.0	-53.5	3.8	1.49e+00	0	59	104	0	53	15244
2026-01-19 07:45:56.79	73.16	11.27	-40.9	-53.4	3.8	1.49e+00	0	59	104	0	53	15204
2026-01-19 07:45:57.80	73.00	11.31	-41.2	-53.6	3.8	1.49e+00	0	59	104	0	53	15505
2026-01-19 07:45:58.81	72.83	11.36	-40.9	-53.4	3.8	1.49e+00	0	59	104	0	53	15136
2026-01-19 07:45:59.82	72.67	11.40	-40.9	-53.5	3.8	1.49e+00	0	60	104	0	53	15252
2026-01-19 07:46:00.82	72.50	11.45	-41.1	-53.6	3.8	1.49e+00	0	60	104	0	53	15433
2026-01-19 07:46:01.83	72.34	11.49	-41.2	-53.7	3.8	1.49e+00	0	59	104	0	53	15626
2026-01-19 07:46:02.84	72.17	11.54	-41.0	-53.5	3.8	1.49e+00	0	59	104	0	53	15304
2026-01-19 07:46:03.85	72.00	11.58	-41.1	-53.6	3.8	1.49e+00	0	60	104	0	53	15486
2026-01-19 07:46:04.86	71.83	11.63	-41.2	-53.6	3.8	1.49e+00	0	60	104	0	53	15545
2026-01-19 07:46:05.87	71.67	11.67	-41.1	-53.6	3.8	1.49e+00	0	59	104	0	53	15538
2026-01-19 07:46:06.88	71.50	11.72	-41.1	-53.7	3.8	1.49e+00	0	59	104	0	53	15615
2026-01-19 07:46:07.89	71.33	11.76	-41.2	-53.7	3.8	1.49e+00	0	59	104	0	53	15675
2026-01-19 07:46:08.90	71.16	11.81	-41.0	-53.5	3.8	1.49e+00	0	60	104	0	53	15355
2026-01-19 07:46:09.90	70.99	11.85	-41.1	-53.6	3.8	1.49e+00	0	60	104	0	53	15402
2026-01-19 07:46:10.91	70.82	11.89	-41.2	-53.7	3.8	1.49e+00	0	60	104	0	53	15667
2026-01-19 07:46:11.92	70.64	11.94	-41.2	-53.7	3.8	1.49e+00	0	60	104	0	53	15668
2026-01-19 07:46:12.93	70.47	11.98	-41.1	-53.5	3.8	1.49e+00	0	59	104	0	53	15364
2026-01-19 07:46:13.94	70.30	12.02	-41.1	-53.5	3.8	1.49e+00	0	60	104	0	53	15399
2026-01-19 07:46:14.95	70.13	12.07	-41.1	-53.6	3.8	1.49e+00	0	60	104	0	53	15493
2026-01-19 07:46:15.96	69.95	12.11	-41.2	-53.7	3.8	1.49e+00	0	60	104	0	53	15728
2026-01-19 07:46:16.97	69.78	12.15	-41.3	-53.7	3.8	1.49e+00	0	60	104	0	53	15720
2026-01-19 07:46:17.98	69.60	12.19	-41.2	-53.7	3.8	1.49e+00	0	60	104	0	53	15633
2026-01-19 07:46:18.99	69.43	12.24	-41.0	-53.5	3.8	1.49e+00	0	60	104	0	53	15312
2026-01-19 07:46:20.00	69.25	12.28	-41.4	-53.8	3.8	1.49e+00	0	60	104	0	53	15877
2026-01-19 07:46:21.01	69.08	12.32	-41.5	-53.9	3.8	1.49e+00	0	60	104	0	53	15997
2026-01-19 07:46:22.01	68.90	12.36	-41.3	-53.8	3.8	1.49e+00	0	60	104	0	53	15867
2026-01-19 07:46:23.02	68.72	12.40	-41.1	-53.5	3.8	1.49e+00	0	60	104	0	53	15391
2026-01-19 07:46:24.03	68.55	12.45	-41.4	-53.9	3.8	1.49e+00	0	60	104	0	53	16030
2026-01-19 07:46:25.04	68.37	12.49	-41.4	-53.8	3.8	1.49e+00	0	60	104	0	53	15894
2026-01-19 07:46:26.05	68.19	12.53	-41.4	-53.9	3.8	1.49e+00	0	60	104	0	53	16066
2026-01-19 07:46:27.06	68.01	12.57	-41.2	-53.7	3.8	1.49e+00	0	60	104	0	53	15659
2026-01-19 07:46:28.07	67.83	12.61	-41.4	-53.9	3.8	1.49e+00	0	60	104	0	53	16051
2026-01-19 07:46:29.08	67.65	12.65	-41.3	-53.8	3.8	1.49e+00	0	60	104	0	53	15799
2026-01-19 07:46:30.09	67.47	12.69	-41.5	-54.0	3.8	1.49e+00	0	60	104	0	53	16215
2026-01-19 07:46:31.10	67.29	12.73	-41.4	-53.8	3.8	1.49e+00	0	60	104	0	53	15865
2026-01-19 07:46:32.11	67.11	12.77	-41.6	-54.0	3.8	1.49e+00	0	60	104	0	53	16307
2026-01-19 07:46:33.12	66.93	12.81	-41.3	-53.8	3.8	1.49e+00	0	60	104	0	53	15765
2026-01-19 07:46:34.13	66.74	12.85	-41.5	-54.1	3.8	1.49e+00	0	60	104	0	53	16379
2026-01-19 07:46:35.14	66.56	12.89	-41.4	-53.8	3.8	1.49e+00	0	60	104	0	53	15884
2026-01-19 07:46:36.15	66.38	12.93	-41.9	-54.1	3.8	1.49e+00	0	60	104	0	54	15547
2026-01-19 07:46:37.16	66.19	12.96	-41.3	-53.9	3.8	1.49e+00	0	60	104	0	54	15119
2026-01-19 07:46:38.17	66.01	13.00	-41.7	-54.2	3.8	1.49e+00	0	60	104	0	54	15734
2026-01-19 07:46:39.17	65.82	13.04	-41.5	-54.0	3.8	1.49e+00	0	60	104	0	54	15383
2026-01-19 07:46:40.18	65.64	13.08	-42.3	-54.6	3.8	1.49e+00	0	60	104	0	55	15487
2026-01-19 07:46:41.19	65.45	13.12	-41.5	-54.1	3.8	1.49e+00	0	60	104	0	54	15481
2026-01-19 07:46:42.20	65.27	13.15	-41.7	-54.2	3.8	1.49e+00	0	60	104	0	54	15720
2026-01-19 07:46:43.21	65.08	13.19	-41.4	-53.8	3.8	1.49e+00	0	60	104	0	54	14977
2026-01-19 07:46:44.22	64.89	13.23	-41.7	-54.2	3.8	1.49e+00	0	60	104	0	54	15690
2026-01-19 07:46:45.23	64.70	13.26	-41.7	-54.1	3.8	1.49e+00	0	60	104	0	54	15569
2026-01-19 07:46:46.24	64.51	13.30	-41.8	-54.3	3.8	1.49e+00	0	60	104	0	54	15931
2026-01-19 07:46:47.25	64.33	13.34	-42.0	-54.6	3.8	1.49e+00	0	60	104	0	54	16409
2026-01-19 07:46:48.26	64.14	13.37	-41.8	-54.4	3.8	1.49e+00	0	60	104	0	54	16126
2026-01-19 07:46:49.27	63.95	13.41	-43.2	-53.7	3.9	1.49e+00	0	60	104	0	57	12417
2026-01-19 07:46:50.28	63.76	13.44	-43.1	-53.8	3.8	1.49e+00	0	60	104	0	57	12615
2026-01-19 07:46:51.29	63.57	13.48	-42.7	-54.3	3.8	1.49e+00	0	60	104	0	57	13282
2026-01-19 07:46:52.30	63.37	13.51	-42.4	-49.7	5.2	1.10e+00	0	60	0	0	56	8346
2026-01-19 07:46:53.31	63.18	13.55	-42.4	-49.5	5.4	5.35e-01	0	60	0	3145728	56	8139
2026-01-19 07:46:54.32	62.99	13.58	-42.3	-48.6	6.2	3.25e-01	0	60	0	6291456	56	7289
2026-01-19 07:46:55.33	62.80	13.62	-41.7	-46.8	7.7	1.17e-01	0	60	0	9437184	55	6289
2026-01-19 07:46:56.34	62.61	13.65	-41.0	-45.0	9.7	1.54e-02	0	60	0	12582912	54	5407
2026-01-19 07:46:57.35	62.41	13.68	-40.7	-44.3	10.5	3.72e-03	0	60	0	15728640	53	5291
2026-01-19 07:46:58.36	62.22	13.72	-40.7	-44.2	10.6	2.34e-03	0	60	0	18874368	53	5227
2026-01-19 07:46:59.37	62.02	13.75	-40.7	-44.2	10.6	3.92e-03	0	60	0	22020096	53	5248
2026-01-19 07:47:00.37	61.83	13.78	-40.4	-43.6	11.3	1.88e-03	0	60	0	25165824	52	5206
2026-01-19 07:47:01.38	61.64	13.81	-40.4	-43.6	11.3	8.43e-04	0	60	0	28311552	52	5169
2026-01-19 07:47:02.39	61.44	13.85	-40.3	-43.4	11.6	7.72e-04	0	60	0	31457280	52	5042
2026-01-19 07:47:03.40	61.24	13.88	-40.4	-43.6	11.5	1.04e-03	0	60	0	34603008	52	5169
2026-01-19 07:47:04.41	61.05	13.91	-40.3	-43.2	11.8	3.62e-04	0	60	0	37748736	52	4983
2026-01-19 07:47:05.42	60.85	13.94	-40.1	-43.0	12.0	3.49e-04	0	60	0	40894464	52	4852
2026-01-19 07:47:06.43	60.65	13.97	-40.2	-43.1	12.0	3.49e-04	0	60	0	44040192	52	4881
2026-01-19 07:47:07.44	60.46	14.00	-40.2	-43.1	12.0	1.72e-04	0	60	0	47185920	52	4908
2026-01-19 07:47:08.45	60.26	14.03	-40.2	-43.1	12.1	2.53e-04	0	60	0	50331648	52	4886
2026-01-19 07:47:09.46	60.06	14.06	-40.3	-43.2	12.0	2.72e-04	0	60	0	53477376	52	4934
2026-01-19 07:47:10.47	59.86	14.09	-40.3	-43.2	12.0	2.84e-04	0	60	0	56623104	52	4970
2026-01-19 07:47:11.48	59.66	14.12	-40.3	-43.2	12.0	2.75e-04	0	60	0	59768832	52	4973
2026-01-19 07:47:12.49	59.46	14.15	-40.2	-43.1	12.2	2.75e-04	0	60	0	62914560	52	4894
2026-01-19 07:47:13.50	59.26	14.18	-40.3	-43.1	12.2	2.83e-04	0	60	0	66060288	52	4899
2026-01-19 07:47:14.51	59.06	14.21	-40.2	-43.1	12.2	1.94e-04	0	60	0	69206016	52	4888
2026-01-19 07:47:15.52	58.86	14.24	-40.4	-43.3	12.0	3.78e-04	0	60	0	72351744	52	5009
2026-01-19 07:47:16.53	58.66	14.26	-40.4	-43.4	11.9	3.76e-04	0	60	0	75497472	52	5046
2026-01-19 07:47:17.54	58.46	14.29	-40.4	-43.3	11.9	3.08e-04	0	60	0	78643200	52	5036
2026-01-19 07:47:18.55	58.26	14.32	-40.5	-43.5	11.8	3.12e-04	0	61	0	81788928	52	5101
2026-01-19 07:47:19.56	58.05	14.35	-40.5	-43.5	11.8	4.26e-04	0	61	0	84934656	52	5105
2026-01-19 07:47:20.57	57.85	14.37	-40.4	-43.2	12.0	3.52e-04	0	60	0	88080384	52	4979
2026-01-19 07:47:21.58	57.65	14.40	-40.5	-43.5	11.8	3.98e-04	0	60	0	91226112	52	5113
2026-01-19 07:47:22.58	57.45	14.42	-40.5	-43.5	11.8	4.04e-04	0	60	0	94371840	52	5127
2026-01-19 07:47:23.59	57.24	14.45	-40.3	-43.2	12.1	2.89e-04	0	60	0	97517568	52	4945
2026-01-19 07:47:24.60	57.04	14.47	-40.4	-43.3	12.0	2.91e-04	0	60	0	100663296	52	5016
2026-01-19 07:47:25.61	56.83	14.50	-40.4	-43.3	12.1	2.65e-04	0	60	0	103809024	52	4990
2026-01-19 07:47:26.62	56.63	14.52	-40.3	-43.2	12.2	2.52e-04	0	60	0	106954752	52	4927
2026-01-19 07:47:27.63	56.42	14.55	-40.3	-43.1	12.2	1.87e-04	0	60	0	110100480	52	4921
2026-01-19 07:47:28.64	56.22	14.57	-40.3	-43.1	12.2	2.05e-04	0	60	0	113246208	52	4913
2026-01-19 07:47:29.65	56.01	14.60	-40.3	-43.0	12.3	1.64e-04	0	61	0	116391936	52	4860
2026-01-19 07:47:30.65	55.81	14.62	-40.1	-42.8	12.6	1.14e-04	0	61	0	119537664	52	4746
2026-01-19 07:47:31.66	55.60	14.64	-40.2	-42.9	12.5	1.46e-04	0	60	0	122683392	52	4774
2026-01-19 07:47:32.67	55.40	14.66	-40.2	-42.9	12.5	1.32e-04	0	61	0	125829120	52	4808
2026-01-19 07:47:33.68	55.19	14.69	-40.3	-43.1	12.4	1.44e-04	0	60	0	128974848	52	4879
2026-01-19 07:47:34.70	54.98	14.71	-40.2	-42.9	12.5	1.30e-04	0	61	0	132120576	52	4812
2026-01-19 07:47:35.70	54.77	14.73	-40.2	-42.9	12.5	1.15e-04	0	60	0	135266304	52	4773
2026-01-19 07:47:36.71	54.57	14.75	-40.1	-42.8	12.7	1.05e-04	0	60	0	138412032	52	4706
2026-01-19 07:47:37.72	54.36	14.77	-40.2	-42.9	12.5	1.06e-04	0	60	0	141557760	52	4780
2026-01-19 07:47:38.73	54.15	14.79	-40.3	-43.0	12.4	1.40e-04	0	60	0	144703488	52	4843
2026-01-19 07:47:39.74	53.94	14.81	-40.2	-42.9	12.5	1.51e-04	0	60	0	147849216	52	4809
2026-01-19 07:47:40.75	53.73	14.83	-40.2	-42.9	12.5	1.03e-04	0	61	0	150994944	52	4783
2026-01-19 07:47:41.76	53.52	14.85	-40.2	-42.9	12.6	9.84e-05	0	61	0	154140672	52	4761
2026-01-19 07:47:42.77	53.31	14.87	-40.2	-43.0	12.5	1.64e-04	0	61	0	157286400	52	4820
2026-01-19 07:47:43.78	53.10	14.89	-40.3	-43.1	12.3	1.56e-04	0	61	0	160432128	52	4875
2026-01-19 07:47:44.79	52.89	14.91	-40.3	-43.0	12.4	1.83e-04	0	61	0	163577856	52	4860
2026-01-19 07:47:45.80	52.68	14.92	-40.1	-42.8	12.6	1.15e-04	0	61	0	166723584	52	4756
2026-01-19 07:47:46.81	52.47	14.94	-40.2	-42.9	12.6	1.01e-04	0	61	0	169869312	52	4790
2026-01-19 07:47:47.82	52.26	14.96	-40.1	-42.7	12.7	8.08e-05	0	61	0	173015040	52	4698
2026-01-19 07:47:48.83	52.05	14.97	-40.1	-42.8	12.7	6.10e-05	0	61	0	176160768	52	4715
2026-01-19 07:47:49.84	51.84	14.99	-40.1	-42.7	12.8	6.33e-05	0	61	0	179306496	52	4672
2026-01-19 07:47:50.85	51.63	15.01	-40.1	-42.8	12.7	8.85e-05	0	61	0	182452224	52	4724
2026-01-19 07:47:51.86	51.42	15.02	-40.1	-42.8	12.7	8.08e-05	0	61	0	185597952	52	4713
2026-01-19 07:47:52.87	51.20	15.04	-40.1	-42.8	12.7	7.70e-05	0	61	0	188743680	52	4712
2026-01-19 07:47:53.88	50.99	15.05	-40.2	-42.8	12.6	9.15e-05	0	61	0	191889408	52	4747
2026-01-19 07:47:54.89	50.78	15.07	-40.2	-42.8	12.7	9.76e-05	0	61	0	195035136	52	4743
2026-01-19 07:47:55.90	50.57	15.08	-40.2	-42.9	12.6	9.91e-05	0	61	0	198180864	52	4777
2026-01-19 07:47:56.91	50.35	15.09	-40.3	-43.0	12.5	1.13e-04	0	61	0	201326592	52	4834
2026-01-19 07:47:57.92	50.14	15.11	-40.3	-43.1	12.4	1.31e-04	0	61	0	204472320	52	4885
2026-01-19 07:47:58.93	49.93	15.12	-40.4	-43.2	12.3	1.79e-04	0	61	0	207618048	52	4930
2026-01-19 07:47:59.94	49.71	15.13	-40.5	-43.4	12.1	1.85e-04	0	61	0	210763776	52	5088
2026-01-19 07:48:00.95	49.50	15.14	-40.4	-43.3	12.2	2.10e-04	0	61	0	213909504	52	4988
2026-01-19 07:48:01.96	49.29	15.15	-40.4	-43.2	12.3	1.90e-04	0	61	0	217055232	52	4944
2026-01-19 07:48:02.97	49.07	15.17	-40.3	-43.1	12.5	1.48e-04	0	61	0	220200960	52	4876
2026-01-19 07:48:03.98	48.86	15.18	-40.3	-43.0	12.6	9.00e-05	0	61	0	223346688	52	4825
2026-01-19 07:48:04.99	48.64	15.19	-40.3	-43.0	12.5	1.30e-04	0	61	0	226492416	52	4833
2026-01-19 07:48:06.00	48.43	15.20	-40.3	-43.0	12.5	9.53e-05	0	61	0	229638144	52	4828
2026-01-19 07:48:07.01	48.22	15.21	-40.2	-42.9	12.6	1.11e-04	0	61	0	232783872	52	4772
2026-01-19 07:48:08.02	48.00	15.22	-40.3	-43.0	12.5	1.01e-04	0	61	0	235929600	52	4833
2026-01-19 07:48:09.03	47.79	15.22	-40.2	-42.9	12.6	1.07e-04	0	60	0	239075328	52	4811
2026-01-19 07:48:10.04	47.57	15.23	-40.2	-42.9	12.6	9.84e-05	0	60	0	242221056	52	4809
2026-01-19 07:48:11.05	47.36	15.24	-40.2	-42.8	12.7	8.31e-05	0	61	0	245366784	52	4748
2026-01-19 07:48:12.06	47.14	15.25	-40.2	-42.9	12.6	9.68e-05	0	61	0	248512512	52	4779
2026-01-19 07:48:13.07	46.93	15.26	-40.2	-42.9	12.6	7.70e-05	0	61	0	251658240	52	4796
2026-01-19 07:48:14.08	46.71	15.26	-40.3	-43.0	12.6	1.14e-04	0	61	0	254803968	52	4817
2026-01-19 07:48:15.09	46.50	15.27	-40.3	-43.0	12.5	1.05e-04	0	61	0	257949696	52	4831
2026-01-19 07:48:16.10	46.28	15.28	-40.4	-43.1	12.4	1.86e-04	0	61	0	261095424	52	4919
2026-01-19 07:48:17.11	46.07	15.28	-40.3	-43.1	12.4	1.47e-04	0	61	0	264241152	52	4882
2026-01-19 07:48:18.12	45.85	15.29	-40.4	-43.2	12.3	1.88e-04	0	61	0	267386880	52	4933
2026-01-19 07:48:19.13	45.63	15.29	-40.4	-43.2	12.2	2.02e-04	0	61	0	270532608	52	4975
2026-01-19 07:48:20.14	45.42	15.30	-40.3	-43.0	12.5	1.51e-04	0	61	0	273678336	52	4863
2026-01-19 07:48:21.15	45.20	15.30	-40.3	-43.1	12.4	1.20e-04	0	61	0	276824064	52	4877
2026-01-19 07:48:22.16	44.99	15.30	-40.4	-43.1	12.4	1.75e-04	0	61	0	279969792	52	4914
2026-01-19 07:48:23.17	44.77	15.31	-40.4	-43.2	12.3	1.54e-04	0	61	0	283115520	52	4929
2026-01-19 07:48:24.18	44.55	15.31	-40.4	-43.2	12.4	1.41e-04	0	61	0	286261248	52	4937
2026-01-19 07:48:25.19	44.34	15.31	-40.4	-43.2	12.3	2.05e-04	0	61	0	289406976	52	4967
2026-01-19 07:48:26.20	44.12	15.31	-40.4	-43.2	12.4	1.47e-04	0	61	0	292552704	52	4927
2026-01-19 07:48:27.20	43.91	15.31	-40.5	-43.3	12.2	1.67e-04	0	61	0	295698432	52	5006
2026-01-19 07:48:28.22	43.69	15.32	-40.5	-43.3	12.2	2.13e-04	0	61	0	298844160	52	5014
2026-01-19 07:48:29.22	43.48	15.32	-40.4	-43.3	12.2	1.98e-04	0	61	0	301989888	52	5004
2026-01-19 07:48:30.23	43.26	15.32	-40.4	-43.2	12.3	1.58e-04	0	61	0	306184192	52	4975
2026-01-19 07:48:31.24	43.05	15.32	-40.3	-43.1	12.4	1.52e-04	0	61	0	309329920	52	4909
2026-01-19 07:48:32.25	42.83	15.32	-40.3	-43.0	12.5	1.27e-04	0	61	0	312475648	52	4870
2026-01-19 07:48:33.26	42.61	15.31	-40.3	-43.0	12.6	1.23e-04	0	61	0	314572800	52	4823
2026-01-19 07:48:34.27	42.40	15.31	-40.3	-43.0	12.5	1.08e-04	0	61	0	317718528	52	4869
2026-01-19 07:48:35.28	42.18	15.31	-40.2	-42.9	12.6	1.22e-04	0	61	0	320864256	52	4810
2026-01-19 07:48:36.29	41.97	15.31	-40.2	-43.0	12.5	9.30e-05	0	61	0	325058560	52	4823
2026-01-19 07:48:37.30	41.75	15.31	-40.2	-42.9	12.5	1.47e-04	0	61	0	328204288	52	4814
2026-01-19 07:48:38.30	41.54	15.30	-40.3	-43.0	12.5	1.27e-04	0	61	0	331350016	52	4858
2026-01-19 07:48:39.31	41.32	15.30	-40.3	-43.0	12.5	1.40e-04	0	61	0	334495744	52	4839
2026-01-19 07:48:40.32	41.10	15.30	-40.3	-43.0	12.5	1.08e-04	0	61	0	336592896	52	4851
2026-01-19 07:48:41.34	40.89	15.29	-40.2	-42.9	12.6	1.04e-04	0	61	0	340787200	52	4814
2026-01-19 07:48:42.34	40.67	15.29	-40.2	-42.9	12.6	8.92e-05	0	61	0	343932928	52	4803
2026-01-19 07:48:43.35	40.46	15.28	-40.3	-43.1	12.4	1.07e-04	0	61	0	347078656	52	4903
2026-01-19 07:48:44.36	40.24	15.28	-40.4	-43.2	12.4	1.46e-04	0	61	0	350224384	52	4935
2026-01-19 07:48:45.37	40.03	15.27	-40.4	-43.3	12.2	2.01e-04	0	61	0	353370112	52	4990
2026-01-19 07:48:46.38	39.81	15.26	-40.3	-43.1	12.4	1.45e-04	0	61	0	356515840	52	4892
2026-01-19 07:48:47.39	39.60	15.26	-40.4	-43.1	12.4	1.74e-04	0	61	0	359661568	52	4915
2026-01-19 07:48:48.40	39.38	15.25	-40.3	-43.2	12.3	1.48e-04	0	61	0	362807296	52	4933
2026-01-19 07:48:49.41	39.17	15.24	-40.4	-43.2	12.4	1.57e-04	0	61	0	365953024	52	4935
2026-01-19 07:48:50.42	38.95	15.24	-40.5	-43.3	12.2	1.99e-04	0	61	0	369098752	52	4999
2026-01-19 07:48:51.43	38.74	15.23	-40.3	-43.1	12.4	1.28e-04	0	61	0	372244480	52	4881
2026-01-19 07:48:52.44	38.52	15.22	-40.3	-43.0	12.6	9.84e-05	0	61	0	375390208	52	4826
2026-01-19 07:48:53.45	38.31	15.21	-40.3	-43.0	12.6	1.01e-04	0	61	0	378535936	52	4815
2026-01-19 07:48:54.46	38.09	15.20	-40.1	-42.8	12.7	7.85e-05	0	61	0	381681664	52	4725
2026-01-19 07:48:55.47	37.88	15.19	-40.1	-42.8	12.8	6.86e-05	0	61	0	384827392	52	4712
2026-01-19 07:48:56.48	37.67	15.18	-40.1	-42.8	12.7	7.17e-05	0	61	0	387973120	52	4739
2026-01-19 07:48:57.49	37.45	15.17	-40.2	-42.9	12.7	7.70e-05	0	61	0	391118848	52	4785
2026-01-19 07:48:58.49	37.24	15.16	-40.2	-42.9	12.6	9.07e-05	0	61	0	394264576	52	4802
2026-01-19 07:48:59.50	37.03	15.15	-40.3	-43.0	12.5	1.02e-04	0	61	0	397410304	52	4828
2026-01-19 07:49:00.51	36.81	15.14	-40.3	-43.0	12.6	1.04e-04	0	61	0	400556032	52	4826
2026-01-19 07:49:01.52	36.60	15.12	-40.4	-43.1	12.4	1.28e-04	0	61	0	403701760	52	4918
2026-01-19 07:49:02.53	36.39	15.11	-40.3	-43.0	12.5	1.22e-04	0	61	0	406847488	52	4837
2026-01-19 07:49:03.54	36.17	15.10	-40.3	-43.0	12.5	1.33e-04	0	61	0	409993216	52	4823
2026-01-19 07:49:04.55	35.96	15.08	-40.3	-43.0	12.6	1.16e-04	0	61	0	413138944	52	4837
2026-01-19 07:49:05.56	35.75	15.07	-40.2	-42.9	12.6	8.08e-05	0	61	0	416284672	52	4809
2026-01-19 07:49:06.57	35.54	15.06	-40.2	-42.8	12.7	6.79e-05	0	61	0	419430400	52	4757
2026-01-19 07:49:07.58	35.33	15.04	-40.2	-42.9	12.6	7.32e-05	0	61	0	422576128	52	4805
2026-01-19 07:49:08.59	35.11	15.03	-40.3	-43.0	12.5	1.05e-04	0	61	0	425721856	52	4842
2026-01-19 07:49:09.60	34.90	15.01	-40.2	-42.8	12.7	8.01e-05	0	61	0	428867584	52	4748
2026-01-19 07:49:10.61	34.69	15.00	-40.2	-42.8	12.7	8.77e-05	0	61	0	432013312	52	4752
2026-01-19 07:49:11.62	34.48	14.98	-40.3	-43.0	12.5	1.03e-04	0	61	0	435159040	52	4846
2026-01-19 07:49:12.63	34.27	14.96	-40.3	-43.1	12.4	1.25e-04	0	61	0	438304768	52	4894
2026-01-19 07:49:13.64	34.06	14.95	-40.4	-43.1	12.4	1.44e-04	0	61	0	441450496	52	4918
2026-01-19 07:49:14.65	33.85	14.93	-40.3	-43.1	12.4	1.56e-04	0	61	0	444596224	52	4903
2026-01-19 07:49:15.66	33.64	14.91	-40.3	-43.0	12.5	8.46e-05	0	61	0	447741952	52	4833
2026-01-19 07:49:16.67	33.43	14.89	-40.1	-42.8	12.8	9.07e-05	0	61	0	450887680	52	4713
2026-01-19 07:49:17.68	33.22	14.88	-40.1	-42.7	12.8	5.11e-05	0	61	0	454033408	52	4678
2026-01-19 07:49:18.69	33.01	14.86	-40.1	-42.7	12.8	4.19e-05	0	61	0	457179136	52	4680
2026-01-19 07:49:19.70	32.80	14.84	-40.1	-42.8	12.7	7.85e-05	0	61	0	460324864	52	4733
2026-01-19 07:49:20.71	32.59	14.82	-40.1	-42.8	12.8	4.95e-05	0	61	0	463470592	52	4716
2026-01-19 07:49:21.72	32.38	14.80	-40.2	-42.9	12.7	7.09e-05	0	61	0	466616320	52	4768
2026-01-19 07:49:22.73	32.17	14.78	-40.2	-42.9	12.7	8.62e-05	0	61	0	469762048	52	4761
2026-01-19 07:49:23.74	31.97	14.76	-40.2	-42.8	12.7	7.09e-05	0	61	0	472907776	52	4758
2026-01-19 07:49:24.75	31.76	14.74	-40.2	-42.9	12.6	8.39e-05	0	61	0	476053504	52	4768
2026-01-19 07:49:25.76	31.55	14.72	-40.3	-43.0	12.6	1.17e-04	0	61	0	479199232	52	4829
2026-01-19 07:49:26.77	31.34	14.69	-40.2	-42.9	12.6	1.09e-04	0	61	0	482344960	52	4813
2026-01-19 07:49:27.78	31.14	14.67	-40.2	-42.9	12.6	8.31e-05	0	61	0	485490688	52	4802
2026-01-19 07:49:28.79	30.93	14.65	-40.3	-43.0	12.5	1.17e-04	0	61	0	488636416	52	4849
2026-01-19 07:49:29.80	30.73	14.63	-40.4	-43.2	12.4	1.71e-04	0	61	0	491782144	52	4934
2026-01-19 07:49:30.81	30.52	14.60	-40.4	-43.2	12.4	1.76e-04	0	61	0	494927872	52	4944
2026-01-19 07:49:31.82	30.31	14.58	-40.4	-43.2	12.3	1.72e-04	0	61	0	498073600	52	4960
2026-01-19 07:49:32.83	30.11	14.56	-40.4	-43.3	12.2	2.08e-04	0	61	0	501219328	52	5008
2026-01-19 07:49:33.84	29.90	14.53	-40.4	-43.3	12.2	2.29e-04	0	61	0	504365056	52	4993
2026-01-19 07:49:34.85	29.70	14.51	-40.4	-43.3	12.2	1.98e-04	0	61	0	507510784	52	4995
2026-01-19 07:49:35.86	29.50	14.48	-40.2	-42.9	12.6	1.33e-04	0	61	0	510656512	52	4801
2026-01-19 07:49:36.86	29.29	14.46	-40.2	-42.8	12.6	7.70e-05	0	61	0	513802240	52	4758
2026-01-19 07:49:37.88	29.09	14.43	-40.2	-42.9	12.6	9.30e-05	0	61	0	516947968	52	4776
2026-01-19 07:49:38.89	28.89	14.41	-40.2	-43.0	12.5	1.14e-04	0	61	0	520093696	52	4831
2026-01-19 07:49:39.90	28.68	14.38	-40.3	-43.0	12.5	1.32e-04	0	61	0	523239424	52	4833
2026-01-19 07:49:40.90	28.48	14.36	-40.3	-43.1	12.4	1.11e-04	0	61	0	526385152	52	4909
2026-01-19 07:49:41.91	28.28	14.33	-40.3	-43.1	12.4	1.75e-04	0	61	0	529530880	52	4883
2026-01-19 07:49:42.92	28.08	14.30	-40.4	-43.2	12.3	1.50e-04	0	61	0	532676608	52	4957
2026-01-19 07:49:43.93	27.88	14.27	-40.4	-43.2	12.3	1.86e-04	0	61	0	535822336	52	4970
2026-01-19 07:49:44.94	27.68	14.25	-40.4	-43.3	12.2	2.34e-04	0	61	0	538968064	52	5024
2026-01-19 07:49:45.95	27.48	14.22	-40.4	-43.2	12.3	2.17e-04	0	61	0	542113792	52	4961
2026-01-19 07:49:46.96	27.28	14.19	-40.3	-43.2	12.3	2.18e-04	0	61	0	545259520	52	4937
2026-01-19 07:49:47.97	27.08	14.16	-40.3	-43.1	12.3	1.63e-04	0	61	0	548405248	52	4925
2026-01-19 07:49:48.98	26.88	14.13	-40.3	-43.1	12.3	2.09e-04	0	61	0	551550976	52	4913
2026-01-19 07:49:49.99	26.68	14.10	-40.3	-43.1	12.4	1.86e-04	0	61	0	554696704	52	4909
2026-01-19 07:49:51.00	26.48	14.07	-40.3	-43.0	12.4	1.43e-04	0	61	0	557842432	52	4860
2026-01-19 07:49:52.01	26.28	14.04	-40.3	-43.1	12.4	1.47e-04	0	61	0	560988160	52	4888
2026-01-19 07:49:53.02	26.09	14.01	-40.2	-42.9	12.5	1.52e-04	0	61	0	564133888	52	4811
2026-01-19 07:49:54.02	25.89	13.98	-40.2	-43.0	12.5	1.14e-04	0	61	0	567279616	52	4831
2026-01-19 07:49:55.03	25.69	13.95	-40.2	-43.0	12.4	1.33e-04	0	61	0	570425344	52	4841
2026-01-19 07:49:56.04	25.50	13.92	-40.3	-43.1	12.4	1.83e-04	0	61	0	573571072	52	4882
2026-01-19 07:49:57.05	25.30	13.89	-40.3	-43.0	12.4	1.66e-04	0	61	0	576716800	52	4861
2026-01-19 07:49:58.06	25.11	13.86	-40.3	-43.0	12.4	1.54e-04	0	61	0	579862528	52	4869
2026-01-19 07:49:59.07	24.91	13.83	-40.3	-43.1	12.3	2.01e-04	0	61	0	583008256	52	4924
2026-01-19 07:50:00.08	24.72	13.80	-40.3	-43.2	12.2	1.87e-04	0	61	0	586153984	52	4945
2026-01-19 07:50:01.09	24.52	13.76	-40.4	-43.2	12.2	2.28e-04	0	61	0	589299712	52	4971
2026-01-19 07:50:02.10	24.33	13.73	-40.5	-43.4	12.0	2.63e-04	0	61	0	592445440	52	5052
2026-01-19 07:50:03.11	24.13	13.70	-40.5	-43.3	12.1	2.88e-04	0	61	0	595591168	52	5041
2026-01-19 07:50:04.12	23.94	13.66	-40.5	-43.4	12.0	2.94e-04	0	61	0	598736896	52	5049
2026-01-19 07:50:05.13	23.75	13.63	-40.5	-43.5	11.9	3.86e-04	0	61	0	601882624	52	5120
2026-01-19 07:50:06.14	23.56	13.60	-40.5	-43.5	11.9	3.96e-04	0	61	0	605028352	52	5106
2026-01-19 07:50:07.15	23.36	13.56	-40.5	-43.4	12.0	3.08e-04	0	61	0	608174080	52	5044
2026-01-19 07:50:08.16	23.17	13.53	-40.6	-43.5	11.9	4.04e-04	0	61	0	611319808	52	5142
2026-01-19 07:50:09.18	22.98	13.49	-40.5	-43.5	11.9	3.57e-04	0	61	0	614465536	52	5113
2026-01-19 07:50:10.18	22.79	13.46	-40.4	-43.3	12.0	2.93e-04	0	61	0	617611264	52	5037
2026-01-19 07:50:11.19	22.60	13.42	-40.4	-43.4	12.0	3.39e-04	0	61	0	620756992	52	5046
2026-01-19 07:50:12.20	22.41	13.39	-40.4	-43.3	12.1	3.37e-04	0	61	0	623902720	52	5012
2026-01-19 07:50:13.21	22.22	13.35	-40.5	-43.4	12.0	3.09e-04	0	61	0	627048448	52	5059
2026-01-19 07:50:14.22	22.04	13.32	-40.4	-43.4	12.0	4.00e-04	0	61	0	630194176	52	5057
2026-01-19 07:50:15.23	21.85	13.28	-40.5	-43.5	11.8	3.83e-04	0	61	0	633339904	52	5130
2026-01-19 07:50:16.24	21.66	13.24	-40.5	-43.5	11.8	3.65e-04	0	61	0	636485632	52	5124
2026-01-19 07:50:17.25	21.47	13.21	-40.5	-43.5	11.8	4.74e-04	0	61	0	639631360	52	5131
2026-01-19 07:50:18.26	21.29	13.17	-40.4	-43.4	12.0	3.41e-04	0	61	0	642777088	52	5045
2026-01-19 07:50:19.27	21.10	13.13	-40.3	-43.2	12.1	2.73e-04	0	61	0	645922816	52	4965
2026-01-19 07:50:20.28	20.92	13.09	-40.4	-43.3	12.0	2.97e-04	0	61	0	649068544	52	5014
2026-01-19 07:50:21.29	20.73	13.06	-40.4	-43.2	12.0	3.01e-04	0	61	0	652214272	52	4979
2026-01-19 07:50:22.30	20.55	13.02	-40.3	-43.1	12.2	2.01e-04	0	61	0	655360000	52	4907
2026-01-19 07:50:23.31	20.36	12.98	-40.3	-43.2	12.1	2.89e-04	0	61	0	658505728	52	4952
2026-01-19 07:50:24.32	20.18	12.94	-40.4	-43.3	12.0	2.76e-04	0	61	0	661651456	52	4995
2026-01-19 07:50:25.33	20.00	12.90	-40.4	-43.4	11.9	4.00e-04	0	61	0	664797184	52	5061
2026-01-19 07:50:26.34	19.81	12.86	-40.3	-43.3	12.0	3.02e-04	0	61	0	668991488	52	4984
2026-01-19 07:50:27.35	19.63	12.83	-40.4	-43.3	11.9	3.20e-04	0	61	0	672137216	52	5034
2026-01-19 07:50:28.36	19.45	12.79	-40.4	-43.3	12.0	2.72e-04	0	61	0	675282944	52	5007
2026-01-19 07:50:29.37	19.27	12.75	-40.3	-43.3	12.0	3.90e-04	0	61	0	677380096	52	4989
2026-01-19 07:50:30.38	19.09	12.71	-40.4	-43.3	11.9	3.11e-04	0	61	0	680525824	52	5001
2026-01-19 07:50:31.39	18.91	12.67	-40.3	-43.2	12.0	3.41e-04	0	61	0	684720128	52	4970
2026-01-19 07:50:32.40	18.73	12.63	-40.3	-43.2	11.9	3.52e-04	0	61	0	687865856	52	4981
2026-01-19 07:50:33.41	18.55	12.59	-40.3	-43.1	12.1	2.61e-04	0	61	0	691011584	52	4924
2026-01-19 07:50:34.42	18.37	12.55	-40.2	-43.1	12.1	2.60e-04	0	61	0	694157312	52	4876
2026-01-19 07:50:35.43	18.19	12.50	-40.3	-43.1	12.1	2.66e-04	0	61	0	697303040	52	4919
2026-01-19 07:50:36.44	18.01	12.46	-40.3	-43.3	11.9	3.55e-04	0	61	0	700448768	52	4994
2026-01-19 07:50:37.45	17.84	12.42	-40.4	-43.3	11.9	4.11e-04	0	61	0	703594496	52	5037
2026-01-19 07:50:38.46	17.66	12.38	-40.4	-43.4	11.8	4.78e-04	0	61	0	706740224	52	5069
2026-01-19 07:50:39.47	17.48	12.34	-40.4	-43.4	11.8	6.08e-04	0	61	0	709885952	52	5091
2026-01-19 07:50:40.48	17.31	12.30	-40.5	-43.5	11.6	6.94e-04	0	61	0	713031680	52	5156
2026-01-19 07:50:41.48	17.14	12.26	-40.6	-43.8	11.4	8.76e-04	0	61	0	716177408	52	5301
2026-01-19 07:50:42.50	16.96	12.21	-40.6	-43.8	11.4	9.85e-04	0	61	0	719323136	52	5313
2026-01-19 07:50:43.51	16.78	12.17	-40.6	-43.7	11.4	9.15e-04	0	61	0	722468864	52	5259
2026-01-19 07:50:44.52	16.61	12.13	-40.6	-43.8	11.3	1.18e-03	0	61	0	725614592	52	5326
2026-01-19 07:50:45.53	16.44	12.09	-40.5	-43.7	11.4	8.32e-04	0	61	0	728760320	52	5226
2026-01-19 07:50:46.54	16.27	12.04	-40.4	-43.5	11.6	7.60e-04	0	61	0	731906048	52	5121
2026-01-19 07:50:47.54	16.10	12.00	-40.5	-43.7	11.5	8.46e-04	0	61	0	735051776	52	5225
2026-01-19 07:50:48.55	15.92	11.96	-40.5	-43.6	11.5	8.94e-04	0	61	0	738197504	52	5178
2026-01-19 07:50:49.56	15.75	11.91	-40.5	-43.7	11.3	1.11e-03	0	61	0	741343232	52	5246
2026-01-19 07:50:50.57	15.58	11.87	-40.5	-43.7	11.3	9.86e-04	0	61	0	744488960	52	5235
2026-01-19 07:50:51.58	15.41	11.83	-40.6	-43.8	11.2	1.23e-03	0	61	0	747634688	52	5313
2026-01-19 07:50:52.59	15.24	11.78	-40.7	-44.0	11.0	1.99e-03	0	61	0	750780416	52	5403
2026-01-19 07:50:53.60	15.07	11.74	-40.6	-43.8	11.1	1.40e-03	0	61	0	753926144	52	5312
2026-01-19 07:50:54.61	14.91	11.69	-40.6	-43.9	11.0	1.83e-03	0	61	0	757071872	52	5378
2026-01-19 07:50:55.62	14.74	11.65	-40.7	-44.1	10.8	2.35e-03	0	61	0	760217600	52	5486
2026-01-19 07:50:56.63	14.57	11.61	-40.7	-44.0	10.8	2.43e-03	0	61	0	763363328	52	5460
2026-01-19 07:50:57.64	14.40	11.56	-40.7	-44.1	10.8	3.04e-03	0	61	0	766509056	52	5467
2026-01-19 07:50:58.65	14.24	11.52	-40.6	-44.0	10.8	2.69e-03	0	61	0	769654784	52	5450
2026-01-19 07:50:59.66	14.07	11.47	-40.6	-44.0	10.8	2.38e-03	0	61	0	772800512	52	5456
2026-01-19 07:51:00.66	13.91	11.43	-40.6	-43.9	10.9	2.14e-03	0	61	0	775946240	52	5377
2026-01-19 07:51:01.68	13.74	11.38	-40.5	-43.8	11.0	2.08e-03	0	61	0	779091968	52	5293
2026-01-19 07:51:02.69	13.58	11.33	-40.5	-43.8	10.9	2.07e-03	0	61	0	782237696	52	5300
2026-01-19 07:51:03.70	13.41	11.29	-40.4	-43.8	10.9	1.88e-03	0	61	0	785383424	52	5281
2026-01-19 07:51:04.70	13.25	11.24	-40.5	-43.9	10.8	2.39e-03	0	61	0	788529152	52	5369
2026-01-19 07:51:05.71	13.09	11.20	-40.5	-44.0	10.6	3.29e-03	0	61	0	791674880	52	5423
2026-01-19 07:51:06.72	12.93	11.15	-40.5	-44.0	10.6	3.67e-03	0	61	0	794820608	52	5419
2026-01-19 07:51:07.74	12.76	11.11	-40.5	-44.1	10.5	3.99e-03	0	61	0	797966336	52	5472
2026-01-19 07:51:08.75	12.60	11.06	-40.7	-44.5	9.8	9.02e-03	0	61	0	801112064	52	5769
2026-01-19 07:51:09.76	12.44	11.01	-40.6	-44.5	9.8	1.14e-02	0	61	0	804257792	52	5750
2026-01-19 07:51:10.77	12.28	10.97	-40.5	-44.4	9.7	1.10e-02	0	61	0	807403520	52	5694
2026-01-19 07:51:11.78	12.12	10.92	-40.6	-44.6	9.4	1.49e-02	0	61	0	810549248	52	5796
2026-01-19 07:51:12.79	11.96	10.87	-40.7	-44.9	8.9	2.52e-02	0	61	0	813694976	52	6054
2026-01-19 07:51:13.80	11.80	10.83	-40.6	-45.0	8.7	3.34e-02	0	61	0	816840704	52	6108
2026-01-19 07:51:14.81	11.65	10.78	-40.5	-44.8	8.8	3.03e-02	0	61	0	819986432	52	5968
2026-01-19 07:51:15.82	11.49	10.73	-40.5	-44.8	8.8	2.79e-02	0	61	0	823132160	52	5943
2026-01-19 07:51:16.82	11.33	10.68	-40.6	-45.2	8.4	4.38e-02	0	61	0	826277888	52	6203
2026-01-19 07:51:17.83	11.18	10.64	-40.8	-45.9	7.5	7.83e-02	0	61	0	829423616	52	6746
2026-01-19 07:51:18.84	11.02	10.59	-40.9	-46.6	6.7	1.70e-01	0	61	0	832569344	52	7371
2026-01-19 07:51:19.85	10.87	10.54	-41.1	-47.6	5.8	3.41e-01	0	61	0	835715072	52	8257
2026-01-19 07:51:20.86	10.71	10.49	-41.2	-48.7	5.0	6.49e-01	0	61	0	838860800	52	9282
2026-01-19 07:51:21.87	10.56	10.45	-41.2	-50.2	3.9	1.27e+00	0	61	104	839909376	52	11111
2026-01-19 07:51:22.88	10.40	10.40	-41.2	-50.7	4.1	1.47e+00	0	61	104	839909376	52	11742
2026-01-19 07:51:23.89	10.25	10.35	-41.0	-52.8	3.8	1.49e+00	0	61	104	839909376	52	14979
2026-01-19 07:51:24.90	10.10	10.30	-41.5	-53.1	3.8	1.49e+00	0	62	104	839909376	53	14617
2026-01-19 07:51:25.91	9.94	10.25	-40.9	-53.2	3.8	1.49e+00	0	61	104	839909376	53	14875
2026-01-19 07:51:26.92	9.79	10.20	-40.8	-53.1	3.8	1.49e+00	0	61	104	839909376	53	14551
2026-01-19 07:51:27.93	9.64	10.16	-41.3	-53.2	3.8	1.49e+00	0	61	104	839909376	53	14713
2026-01-19 07:51:28.94	9.49	10.11	-40.9	-53.4	3.8	1.49e+00	0	61	104	839909376	53	15069
2026-01-19 07:51:29.94	9.34	10.06	-40.8	-53.3	3.8	1.49e+00	0	61	104	839909376	53	14999
2026-01-19 07:51:30.95	9.19	10.01	-40.8	-53.3	3.8	1.49e+00	0	61	104	839909376	53	14960
2026-01-19 07:51:31.96	9.04	9.96	-40.6	-53.1	3.8	1.49e+00	0	61	104	839909376	53	14622
2026-01-19 07:51:32.97	8.89	9.91	-41.0	-53.2	3.8	1.49e+00	0	61	104	839909376	53	14874
2026-01-19 07:51:33.98	8.74	9.86	-40.4	-52.9	3.8	1.49e+00	0	61	104	839909376	52	15076
2026-01-19 07:51:34.99	8.60	9.81	-40.3	-52.7	3.8	1.49e+00	0	61	104	839909376	52	14712
2026-01-19 07:51:36.00	8.45	9.76	-40.7	-53.2	3.8	1.49e+00	0	61	104	839909376	52	15643
2026-01-19 07:51:37.01	8.30	9.72	-40.2	-52.6	3.8	1.49e+00	0	61	104	839909376	52	14668
2026-01-19 07:51:38.02	8.16	9.67	-40.2	-52.6	3.8	1.49e+00	0	61	104	839909376	52	14572
2026-01-19 07:51:39.03	8.01	9.62	-40.1	-52.5	3.8	1.49e+00	0	61	104	839909376	52	14481
2026-01-19 07:51:40.03	7.87	9.57	-40.0	-52.4	3.8	1.49e+00	0	62	104	839909376	52	14248
2026-01-19 07:51:41.04	7.72	9.52	-40.1	-52.5	3.8	1.49e+00	0	61	104	839909376	52	14493
2026-01-19 07:51:42.05	7.58	9.47	-40.4	-52.8	3.8	1.49e+00	0	61	104	839909376	52	14981
2026-01-19 07:51:43.06	7.43	9.42	-40.6	-53.0	3.8	1.49e+00	0	61	104	839909376	52	15349
2026-01-19 07:51:44.07	7.29	9.37	-40.1	-52.5	3.8	1.49e+00	0	61	104	839909376	52	14421
2026-01-19 07:51:45.08	7.15	9.32	-40.1	-52.5	3.8	1.49e+00	0	61	104	839909376	52	14385
2026-01-19 07:51:46.09	7.01	9.27	-40.3	-52.7	3.8	1.49e+00	0	61	104	839909376	52	14738
2026-01-19 07:51:47.10	6.86	9.22	-40.4	-52.8	3.8	1.49e+00	0	62	104	839909376	52	15010
2026-01-19 07:51:48.11	6.72	9.17	-40.0	-52.4	3.8	1.49e+00	0	61	104	839909376	52	14264
2026-01-19 07:51:49.12	6.58	9.12	-40.0	-52.4	3.8	1.49e+00	0	61	104	839909376	52	14319
2026-01-19 07:51:50.13	6.44	9.07	-40.1	-52.5	3.8	1.49e+00	0	61	104	839909376	52	14539
2026-01-19 07:51:51.14	6.30	9.02	-40.3	-52.7	3.8	1.49e+00	0	61	104	839909376	52	14810
2026-01-19 07:51:52.15	6.16	8.97	-40.1	-52.4	3.8	1.49e+00	0	61	104	839909376	51	15172
2026-01-19 07:51:53.16	6.02	8.92	-40.0	-52.5	3.8	1.49e+00	0	62	104	839909376	51	15252
2026-01-19 07:51:54.17	5.89	8.87	-40.1	-52.5	3.8	1.49e+00	0	61	104	839909376	51	15334
2026-01-19 07:51:55.18	5.75	8.82	-40.3	-52.7	3.8	1.49e+00	0	62	104	839909376	51	15651
2026-01-19 07:51:56.19	5.61	8.76	-40.0	-52.4	3.8	1.49e+00	0	61	104	839909376	51	15173
2026-01-19 07:51:57.20	5.47	8.71	-40.0	-52.5	3.8	1.49e+00	0	61	104	839909376	51	15235
2026-01-19 07:51:58.21	5.34	8.66	-40.1	-52.5	3.8	1.49e+00	0	61	104	839909376	51	15310
2026-01-19 07:51:59.22	5.20	8.61	-40.1	-52.6	3.8	1.49e+00	0	61	104	839909376	51	15451
2026-01-19 07:52:00.22	5.07	8.56	-40.0	-52.4	3.8	1.49e+00	0	62	104	839909376	51	15157
2026-01-19 07:52:01.23	4.93	8.51	-40.0	-52.4	3.8	1.49e+00	0	62	104	839909376	51	15201
2026-01-19 07:52:02.24	4.80	8.46	-40.1	-52.5	3.8	1.49e+00	0	61	104	839909376	51	15276
2026-01-19 07:52:03.25	4.67	8.41	-40.1	-52.5	3.8	1.49e+00	0	61	104	839909376	51	15316
2026-01-19 07:52:04.26	4.53	8.36	-40.0	-52.4	3.8	1.49e+00	0	62	104	839909376	51	15122
2026-01-19 07:52:05.27	4.40	8.31	-40.0	-52.5	3.8	1.49e+00	0	61	104	839909376	51	15245
2026-01-19 07:52:06.28	4.27	8.26	-40.0	-52.5	3.8	1.49e+00	0	62	104	839909376	51	15250
2026-01-19 07:52:07.29	4.14	8.21	-40.1	-52.5	3.8	1.49e+00	0	62	104	839909376	51	15310
2026-01-19 07:52:08.30	4.00	8.15	-40.0	-52.4	3.8	1.49e+00	0	62	104	839909376	51	15182
2026-01-19 07:52:09.31	3.87	8.10	-40.0	-52.4	3.8	1.49e+00	0	61	104	839909376	51	15169
2026-01-19 07:52:10.32	3.74	8.05	-40.0	-52.5	3.8	1.49e+00	0	61	104	839909376	51	15229
2026-01-19 07:52:11.33	3.61	8.00	-40.0	-52.6	3.8	1.49e+00	0	62	104	839909376	51	15406
2026-01-19 07:52:12.34	3.48	7.95	-42.5	-54.8	3.8	1.49e+00	0	62	104	839909376	55	15904
2026-01-19 07:52:13.35	3.35	7.90	-44.7	-57.2	3.8	1.49e+00	0	62	104	839909376	60	15683
2026-01-19 07:52:14.36	3.22	7.85	-45.1	-57.6	3.8	1.49e+00	0	62	104	839909376	60	16354
2026-01-19 07:52:15.37	3.10	7.79	-45.3	-57.8	3.8	1.49e+00	0	62	104	839909376	61	15777
2026-01-19 07:52:16.38	2.97	7.74	-45.4	-57.9	3.8	1.49e+00	0	62	104	839909376	61	16037
2026-01-19 07:52:17.39	2.84	7.69	-45.5	-58.0	3.8	1.49e+00	0	61	104	839909376	61	16246
2026-01-19 07:52:18.40	2.71	7.64	-45.6	-58.1	3.8	1.49e+00	0	62	104	839909376	61	16356
2026-01-19 07:52:19.41	2.59	7.59	-45.2	-58.0	3.8	1.49e+00	0	62	104	839909376	61	16261
2026-01-19 07:52:20.42	2.46	7.54	-45.5	-58.0	3.8	1.49e+00	0	62	104	839909376	61	16252
2026-01-19 07:52:21.43	2.34	7.48	-45.5	-57.9	3.8	1.49e+00	0	61	104	839909376	61	16127
2026-01-19 07:52:22.44	2.21	7.43	-45.5	-57.9	3.8	1.49e+00	0	61	104	839909376	61	16021
2026-01-19 07:52:23.45	2.09	7.38	-45.4	-57.8	3.8	1.49e+00	0	62	104	839909376	61	15774
2026-01-19 07:52:24.46	1.96	7.33	-45.4	-57.7	3.8	1.49e+00	0	62	104	839909376	61	15759
2026-01-19 07:52:25.47	1.84	7.28	-45.4	-57.7	3.8	1.49e+00	0	61	104	839909376	61	15724
2026-01-19 07:52:26.48	1.72	7.23	-45.3	-57.7	3.8	1.49e+00	0	62	104	839909376	61	15658
2026-01-19 07:52:27.49	1.59	7.17	-45.3	-57.6	3.8	1.49e+00	0	62	104	839909376	61	15564
2026-01-19 07:52:28.50	1.47	7.12	-45.3	-57.6	3.8	1.49e+00	0	62	104	839909376	61	15567
2026-01-19 07:52:29.51	1.35	7.07	-45.3	-57.7	3.8	1.49e+00	0	62	104	839909376	61	15594
2026-01-19 07:52:30.52	1.23	7.02	-45.3	-57.6	3.8	1.49e+00	0	62	104	839909376	61	15527
2026-01-19 07:52:31.53	1.11	6.97	-45.3	-57.6	3.8	1.49e+00	0	62	104	839909376	61	15573
2026-01-19 07:52:32.54	0.99	6.92	-45.3	-57.6	3.8	1.49e+00	0	62	104	839909376	61	15532
2026-01-19 07:52:33.55	0.87	6.86	-45.2	-57.6	3.8	1.49e+00	0	62	104	839909376	61	15538
2026-01-19 07:52:34.56	0.75	6.81	-45.3	-57.6	3.8	1.49e+00	0	61	104	839909376	61	15555
2026-01-19 07:52:35.57	0.63	6.76	-45.3	-57.6	3.8	1.49e+00	0	62	104	839909376	61	15504
2026-01-19 07:52:36.58	0.51	6.71	-45.2	-57.6	3.8	1.49e+00	0	62	104	839909376	61	15548
2026-01-19 07:52:37.59	0.39	6.66	-45.3	-57.6	3.8	1.49e+00	0	62	104	839909376	61	15521
2026-01-19 07:52:38.60	0.27	6.60	-45.1	-57.6	3.8	1.49e+00	0	62	104	839909376	61	15491
2026-01-19 07:52:39.61	0.16	6.55	-45.3	-57.6	3.8	1.49e+00	0	62	104	839909376	61	15451
2026-01-19 07:52:40.62	0.04	6.50	-45.3	-57.6	3.8	1.49e+00	0	62	104	839909376	61	15491
2026-01-19 07:52:41.63	359.92	6.45	-45.3	-57.6	3.8	1.49e+00	0	62	104	839909376	61	15515
2026-01-19 07:52:42.64	359.81	6.40	-45.2	-57.6	3.8	1.49e+00	0	62	104	839909376	61	15533
2026-01-19 07:52:43.65	359.69	6.34	-45.3	-57.6	3.8	1.49e+00	0	62	104	839909376	61	15537
2026-01-19 07:52:44.66	359.58	6.29	-45.2	-57.6	3.8	1.49e+00	0	62	104	839909376	61	15476
2026-01-19 07:52:45.67	359.46	6.24	-45.3	-57.6	3.8	1.49e+00	0	62	104	839909376	61	15491
2026-01-19 07:52:46.68	359.35	6.19	-45.3	-57.6	3.8	1.49e+00	0	62	104	839909376	61	15549
2026-01-19 07:52:47.69	359.23	6.14	-45.3	-57.6	3.8	1.49e+00	0	62	104	839909376	61	15543
2026-01-19 07:52:48.70	359.12	6.08	-45.3	-57.6	3.8	1.49e+00	0	62	104	839909376	61	15490
2026-01-19 07:52:49.71	359.01	6.03	-45.3	-57.6	3.8	1.49e+00	0	62	104	839909376	61	15493
2026-01-19 07:52:50.72	358.89	5.98	-45.3	-57.6	3.8	1.49e+00	0	61	104	839909376	61	15458
2026-01-19 07:52:51.73	358.78	5.93	-45.3	-57.6	3.8	1.49e+00	0	62	104	839909376	61	15504
2026-01-19 07:52:52.74	358.67	5.88	-45.2	-57.6	3.8	1.49e+00	0	62	104	839909376	61	15477
2026-01-19 07:52:53.75	358.56	5.82	-45.3	-57.6	3.8	1.49e+00	0	62	104	839909376	61	15527
2026-01-19 07:52:54.76	358.45	5.77	-45.1	-57.6	3.8	1.49e+00	0	62	104	839909376	61	15479
2026-01-19 07:52:55.77	358.34	5.72	-45.3	-57.6	3.8	1.49e+00	0	62	104	839909376	61	15423
2026-01-19 07:52:56.78	358.22	5.67	-45.3	-57.6	3.8	1.49e+00	0	62	104	839909376	61	15447
2026-01-19 07:52:57.79	358.11	5.62	-45.3	-57.6	3.8	1.49e+00	0	62	104	839909376	61	15461
2026-01-19 07:52:58.80	358.01	5.56	-45.3	-57.6	3.8	1.49e+00	0	62	104	839909376	61	15456
2026-01-19 07:52:59.81	357.90	5.51	-45.2	-57.6	3.8	1.49e+00	0	62	104	839909376	61	15450
2026-01-19 07:53:00.82	357.79	5.46	-45.2	-57.6	3.8	1.49e+00	0	62	104	839909376	61	15431
2026-01-19 07:53:01.83	357.68	5.41	-45.2	-57.6	3.8	1.49e+00	0	62	104	839909376	61	15461
2026-01-19 07:53:02.84	357.57	5.36	-45.3	-57.6	3.8	1.49e+00	0	61	104	839909376	61	15455
2026-01-19 07:53:03.85	357.46	5.30	-45.3	-57.6	3.8	1.49e+00	0	62	104	839909376	61	15418
2026-01-19 07:53:04.86	357.36	5.25	-45.2	-57.6	3.8	1.49e+00	0	62	104	839909376	61	15483
2026-01-19 07:53:05.87	357.25	5.20	-45.3	-57.6	3.8	1.49e+00	0	62	104	839909376	61	15449
2026-01-19 07:53:06.88	357.14	5.15	-45.2	-57.6	3.8	1.49e+00	0	62	104	839909376	61	15470
2026-01-19 07:53:07.89	357.04	5.10	-45.3	-57.6	3.8	1.49e+00	0	62	104	839909376	61	15481
2026-01-19 07:53:08.90	356.93	5.04	-45.3	-57.6	3.8	1.49e+00	0	62	104	839909376	61	15450
2026-01-19 07:53:09.91	356.83	4.99	-45.2	-57.6	3.8	1.49e+00	0	62	104	839909376	61	15413
2026-01-19 07:53:10.92	356.72	4.94	-45.2	-57.6	3.8	1.49e+00	0	62	104	839909376	61	15479
2026-01-19 07:53:11.93	356.62	4.89	-45.3	-57.6	3.8	1.49e+00	0	62	104	839909376	61	15461
2026-01-19 07:53:12.94	356.51	4.84	-45.2	-57.6	3.8	1.49e+00	0	62	104	839909376	61	15415
2026-01-19 07:53:13.95	356.41	4.78	-45.3	-57.6	3.8	1.49e+00	0	62	104	839909376	61	15413
2026-01-19 07:53:14.96	356.31	4.73	-45.2	-57.6	3.8	1.49e+00	0	62	104	839909376	61	15427
2026-01-19 07:53:15.97	356.20	4.68	-45.2	-57.5	3.8	1.49e+00	0	62	104	839909376	61	15376
2026-01-19 07:53:16.98	356.10	4.63	-45.2	-57.6	3.8	1.49e+00	0	62	104	839909376	61	15416
2026-01-19 07:53:17.99	356.00	4.58	-45.2	-57.6	3.8	1.49e+00	0	62	104	839909376	61	15459
2026-01-19 07:53:19.00	355.90	4.53	-45.2	-57.6	3.8	1.49e+00	0	62	104	839909376	61	15409
2026-01-19 07:53:20.01	355.80	4.47	-45.2	-57.6	3.8	1.49e+00	0	62	104	839909376	61	15418
2026-01-19 07:53:21.02	355.70	4.42	-45.2	-57.5	3.8	1.49e+00	0	62	104	839909376	61	15383
2026-01-19 07:53:22.03	355.60	4.37	-45.2	-57.6	3.8	1.49e+00	0	62	104	839909376	61	15463
2026-01-19 07:53:23.04	355.50	4.32	-45.2	-57.6	3.8	1.49e+00	0	62	104	839909376	61	15477
2026-01-19 07:53:24.05	355.40	4.27	-45.2	-57.6	3.8	1.49e+00	0	62	104	839909376	61	15420
2026-01-19 07:53:25.06	355.30	4.21	-45.2	-57.6	3.8	1.49e+00	0	62	104	839909376	61	15439
2026-01-19 07:53:26.07	355.20	4.16	-45.2	-57.6	3.8	1.49e+00	0	62	104	839909376	61	15425
2026-01-19 07:53:27.08	355.10	4.11	-45.3	-57.6	3.8	1.49e+00	0	62	104	839909376	61	15474
2026-01-19 07:53:28.09	355.00	4.06	-45.2	-57.6	3.8	1.49e+00	0	62	104	839909376	61	15427
2026-01-19 07:53:29.10	354.90	4.01	-45.2	-57.6	3.8	1.49e+00	0	62	104	839909376	61	15447
2026-01-19 07:53:30.11	354.80	3.96	-45.3	-57.5	3.8	1.49e+00	0	62	104	839909376	61	15377
2026-01-19 07:53:31.12	354.71	3.90	-45.2	-57.6	3.8	1.49e+00	0	62	104	839909376	61	15483
2026-01-19 07:53:32.13	354.61	3.85	-45.2	-57.5	3.8	1.49e+00	0	62	104	839909376	61	15391
2026-01-19 07:53:33.14	354.51	3.80	-45.2	-57.5	3.8	1.49e+00	0	61	104	839909376	61	15391
2026-01-19 07:53:34.15	354.42	3.75	-45.3	-57.5	3.8	1.49e+00	0	62	104	839909376	61	15399
2026-01-19 07:53:35.17	354.32	3.70	-45.2	-57.6	3.8	1.49e+00	0	62	104	839909376	61	15421
2026-01-19 07:53:36.17	354.23	3.65	-45.2	-57.5	3.8	1.49e+00	0	62	104	839909376	61	15391
2026-01-19 07:53:37.18	354.13	3.60	-45.2	-57.6	3.8	1.49e+00	0	62	104	839909376	61	15433
2026-01-19 07:53:38.20	354.03	3.54	-45.2	-57.5	3.8	1.49e+00	0	62	104	839909376	61	15378
2026-01-19 07:53:39.20	353.94	3.49	-45.2	-57.6	3.8	1.49e+00	0	62	104	839909376	61	15411
2026-01-19 07:53:40.21	353.85	3.44	-45.2	-57.5	3.8	1.49e+00	0	62	104	839909376	61	15395
2026-01-19 07:53:41.22	353.75	3.39	-45.2	-57.6	3.8	1.49e+00	0	62	104	839909376	61	15478
2026-01-19 07:53:42.23	353.66	3.34	-45.2	-57.6	3.8	1.49e+00	0	62	104	839909376	61	15521
2026-01-19 07:53:43.24	353.57	3.29	-45.2	-57.6	3.8	1.49e+00	0	62	104	839909376	61	15442
2026-01-19 07:53:44.25	353.47	3.24	-45.1	-57.6	3.8	1.49e+00	0	62	104	839909376	61	15464
2026-01-19 07:53:45.26	353.38	3.18	-45.2	-57.5	3.8	1.49e+00	0	62	104	839909376	61	15385
2026-01-19 07:53:46.27	353.29	3.13	-45.2	-57.6	3.8	1.49e+00	0	62	104	839909376	61	15444
2026-01-19 07:53:47.28	353.20	3.08	-45.2	-57.6	3.8	1.49e+00	0	61	104	839909376	61	15431
2026-01-19 07:53:48.30	353.10	3.03	-45.2	-57.6	3.8	1.49e+00	0	62	104	839909376	61	15423
2026-01-19 07:53:49.30	353.01	2.98	-45.2	-57.6	3.8	1.49e+00	0	61	104	839909376	61	15442
2026-01-19 07:53:50.31	352.92	2.93	-45.2	-57.6	3.8	1.49e+00	0	62	104	839909376	61	15402
2026-01-19 07:53:51.32	352.83	2.88	-45.2	-57.5	3.8	1.49e+00	0	62	104	839909376	61	15382
2026-01-19 07:53:52.33	352.74	2.83	-45.2	-57.5	3.8	1.49e+00	0	62	104	839909376	61	15389
2026-01-19 07:53:53.34	352.65	2.78	-45.2	-57.5	3.8	1.49e+00	0	62	104	839909376	61	15379
2026-01-19 07:53:54.35	352.56	2.72	-45.2	-57.5	3.8	1.49e+00	0	62	104	839909376	61	15382
2026-01-19 07:53:55.36	352.47	2.67	-45.1	-57.5	3.8	1.49e+00	0	62	104	839909376	61	15365
2026-01-19 07:53:56.37	352.38	2.62	-45.1	-57.5	3.8	1.49e+00	0	62	104	839909376	61	15390
2026-01-19 07:53:57.38	352.30	2.57	-45.2	-57.6	3.8	1.49e+00	0	62	104	839909376	61	15417
2026-01-19 07:53:58.39	352.21	2.52	-45.2	-57.5	3.8	1.49e+00	0	62	104	839909376	61	15393
2026-01-19 07:53:59.40	352.12	2.47	-45.2	-57.5	3.8	1.49e+00	0	62	104	839909376	61	15343
2026-01-19 07:54:00.41	352.03	2.42	-45.2	-57.5	3.8	1.49e+00	0	62	104	839909376	61	15339
2026-01-19 07:54:01.42	351.95	2.37	-45.2	-57.5	3.8	1.49e+00	0	62	104	839909376	61	15379
2026-01-19 07:54:02.43	351.86	2.32	-45.2	-57.5	3.8	1.49e+00	0	62	104	839909376	61	15367
2026-01-19 07:54:03.44	351.77	2.27	-45.2	-57.6	3.8	1.49e+00	0	62	104	839909376	61	15448
2026-01-19 07:54:04.45	351.69	2.22	-45.0	-57.5	3.8	1.49e+00	0	62	104	839909376	61	15332
2026-01-19 07:54:05.46	351.60	2.16	-45.2	-57.6	3.8	1.49e+00	0	62	104	839909376	61	15416
2026-01-19 07:54:06.47	351.51	2.11	-45.2	-57.5	3.8	1.49e+00	0	62	104	839909376	61	15368
2026-01-19 07:54:07.48	351.43	2.06	-45.2	-57.5	3.8	1.49e+00	0	62	104	839909376	61	15382
2026-01-19 07:54:08.49	351.34	2.01	-45.2	-57.5	3.8	1.49e+00	0	62	104	839909376	61	15360
2026-01-19 07:54:09.50	351.26	1.96	-45.2	-57.5	3.8	1.49e+00	0	62	104	839909376	61	15389
2026-01-19 07:54:10.51	351.17	1.91	-45.2	-57.5	3.8	1.49e+00	0	62	104	839909376	61	15371

#Closed at: 2026-01-19 07:54:11
#Recorded file [839 MB]: D:/lorett/data/31039_260119_104253.dat