passes_logs/2026/01/19/R2.0S_Moscow/R2.0S_Moscow__20260119_014008_SUOMI_NPP_rec.log

#Pass ID: 20260119_014008_SUOMI NPP
#Satellite: SUOMI NPP
#Configuration: NPP
#almurnet v.1.7.20251203
#Start time: 2026-01-19 01:40:07

#Version: 2.2.20231116
#Station: R2.0S_Moscow
#Location: 37.707566 lon 55.798166 lat
#TLE: 1 37849U 11061A   26017.92342359  .00000077  00000+0  57567-4 0  9990
#TLE: 2 37849  98.7814 319.9468 0002389  58.5705 301.5704 14.19525998737125

#Time	Az	El	Level	Level2	SNR	BER	BlckErr	Temp	State	Recorded	gain1	gain2
2026-01-19 01:40:07.88	9.60	1.99	-39.7	-54.8	3.8	1.49e+00	0	52	0	0	51	19844
2026-01-19 01:40:08.88	9.53	2.04	-39.7	-54.8	3.8	1.49e+00	0	52	104	0	50	21031
2026-01-19 01:40:09.89	9.46	2.10	-39.7	-54.7	3.8	1.49e+00	0	52	104	0	50	21011
2026-01-19 01:40:10.90	9.38	2.15	-39.7	-54.7	3.8	1.49e+00	0	52	104	0	50	20977
2026-01-19 01:40:11.91	9.31	2.21	-39.7	-54.8	3.8	1.49e+00	0	52	104	0	50	21025
2026-01-19 01:40:12.92	9.23	2.26	-39.7	-54.7	3.8	1.49e+00	0	52	104	0	50	20993
2026-01-19 01:40:13.93	9.16	2.32	-39.7	-54.8	3.8	1.49e+00	0	53	104	0	50	21025
2026-01-19 01:40:14.95	9.08	2.37	-39.7	-54.7	3.8	1.49e+00	0	53	104	0	50	20948
2026-01-19 01:40:15.96	9.01	2.43	-39.7	-54.7	3.8	1.49e+00	0	53	104	0	50	20977
2026-01-19 01:40:16.97	8.93	2.48	-39.7	-54.7	3.8	1.49e+00	0	53	104	0	50	20996
2026-01-19 01:40:17.98	8.85	2.54	-39.7	-54.7	3.8	1.49e+00	0	53	104	0	50	20970
2026-01-19 01:40:18.99	8.78	2.59	-39.7	-54.7	3.8	1.49e+00	0	53	104	0	50	20973
2026-01-19 01:40:20.00	8.70	2.65	-39.7	-54.8	3.8	1.49e+00	0	53	104	0	50	21019
2026-01-19 01:40:21.01	8.62	2.70	-39.7	-54.7	3.8	1.49e+00	0	53	104	0	50	20985
2026-01-19 01:40:22.02	8.55	2.76	-39.7	-54.8	3.8	1.49e+00	0	53	104	0	50	21072
2026-01-19 01:40:23.03	8.47	2.81	-39.7	-54.7	3.8	1.49e+00	0	53	104	0	50	20949
2026-01-19 01:40:24.04	8.39	2.87	-39.7	-54.7	3.8	1.49e+00	0	53	104	0	50	20950
2026-01-19 01:40:25.05	8.31	2.92	-39.7	-54.7	3.8	1.49e+00	0	53	104	0	50	20984
2026-01-19 01:40:26.06	8.23	2.98	-39.7	-54.7	3.8	1.49e+00	0	53	104	0	50	20912
2026-01-19 01:40:27.07	8.15	3.03	-39.7	-54.7	3.8	1.49e+00	0	54	104	0	50	20969
2026-01-19 01:40:28.08	8.07	3.09	-39.7	-54.7	3.8	1.49e+00	0	54	104	0	50	20953
2026-01-19 01:40:29.09	7.99	3.14	-39.7	-54.7	3.8	1.49e+00	0	54	104	0	50	20965
2026-01-19 01:40:30.10	7.91	3.20	-39.7	-54.7	3.8	1.49e+00	0	53	104	0	50	20955
2026-01-19 01:40:31.11	7.83	3.26	-39.7	-54.7	3.8	1.49e+00	0	54	104	0	50	20931
2026-01-19 01:40:32.12	7.75	3.31	-39.7	-54.7	3.8	1.49e+00	0	54	104	0	50	20954
2026-01-19 01:40:33.13	7.67	3.37	-39.7	-54.8	3.8	1.49e+00	0	54	104	0	50	21026
2026-01-19 01:40:34.14	7.59	3.42	-39.7	-54.7	3.8	1.49e+00	0	54	104	0	50	20989
2026-01-19 01:40:35.15	7.51	3.48	-39.7	-54.7	3.8	1.49e+00	0	54	104	0	50	20967
2026-01-19 01:40:36.16	7.43	3.54	-39.7	-54.7	3.8	1.49e+00	0	54	104	0	50	20913
2026-01-19 01:40:37.18	7.34	3.59	-39.7	-54.7	3.8	1.49e+00	0	54	104	0	50	20961
2026-01-19 01:40:38.18	7.26	3.65	-39.7	-54.7	3.8	1.49e+00	0	54	104	0	50	20945
2026-01-19 01:40:39.19	7.18	3.70	-39.7	-54.7	3.8	1.49e+00	0	54	104	0	50	20918
2026-01-19 01:40:40.21	7.09	3.76	-39.7	-54.7	3.8	1.49e+00	0	54	104	0	50	20975
2026-01-19 01:40:41.22	7.01	3.82	-39.7	-54.7	3.8	1.49e+00	0	54	104	0	50	20974
2026-01-19 01:40:42.23	6.93	3.87	-39.7	-54.7	3.8	1.49e+00	0	55	104	0	50	20954
2026-01-19 01:40:43.24	6.84	3.93	-39.7	-54.7	3.8	1.49e+00	0	54	104	0	50	20979
2026-01-19 01:40:44.25	6.76	3.99	-39.7	-54.7	3.8	1.49e+00	0	55	104	0	50	20970
2026-01-19 01:40:45.26	6.67	4.04	-39.7	-54.7	3.8	1.49e+00	0	55	104	0	50	20910
2026-01-19 01:40:46.27	6.59	4.10	-39.7	-54.7	3.8	1.49e+00	0	55	104	0	50	20971
2026-01-19 01:40:47.28	6.50	4.16	-39.7	-54.7	3.8	1.49e+00	0	55	104	0	50	20920
2026-01-19 01:40:48.29	6.41	4.21	-39.7	-54.7	3.8	1.49e+00	0	55	104	0	50	20902
2026-01-19 01:40:49.30	6.33	4.27	-39.7	-54.7	3.8	1.49e+00	0	55	104	0	50	20949
2026-01-19 01:40:50.31	6.24	4.33	-39.7	-54.7	3.8	1.49e+00	0	55	104	0	50	20953
2026-01-19 01:40:51.32	6.15	4.38	-39.7	-54.7	3.8	1.49e+00	0	55	104	0	50	20968
2026-01-19 01:40:52.33	6.07	4.44	-39.7	-54.7	3.8	1.49e+00	0	55	104	0	50	20970
2026-01-19 01:40:53.34	5.98	4.50	-39.7	-54.7	3.8	1.49e+00	0	55	104	0	50	20893
2026-01-19 01:40:54.34	5.89	4.55	-39.7	-54.7	3.8	1.49e+00	0	55	104	0	50	20926
2026-01-19 01:40:55.35	5.80	4.61	-39.7	-54.7	3.8	1.49e+00	0	55	104	0	50	20937
2026-01-19 01:40:56.36	5.71	4.67	-39.7	-54.7	3.8	1.49e+00	0	55	104	0	50	20921
2026-01-19 01:40:57.37	5.62	4.73	-39.7	-54.7	3.8	1.49e+00	0	55	104	0	50	20932
2026-01-19 01:40:58.38	5.53	4.78	-39.7	-54.7	3.8	1.49e+00	0	55	104	0	50	20926
2026-01-19 01:40:59.39	5.44	4.84	-39.7	-54.7	3.8	1.49e+00	0	55	104	0	50	20958
2026-01-19 01:41:00.40	5.35	4.90	-39.7	-54.7	3.8	1.49e+00	0	56	104	0	50	20933
2026-01-19 01:41:01.41	5.26	4.95	-39.7	-54.7	3.8	1.49e+00	0	55	104	0	50	20914
2026-01-19 01:41:02.43	5.17	5.01	-39.7	-54.7	3.8	1.49e+00	0	56	104	0	50	20894
2026-01-19 01:41:03.44	5.08	5.07	-39.7	-54.7	3.8	1.49e+00	0	56	104	0	50	20914
2026-01-19 01:41:04.45	4.99	5.13	-39.7	-54.7	3.8	1.49e+00	0	55	104	0	50	20925
2026-01-19 01:41:05.46	4.90	5.19	-39.7	-54.7	3.8	1.49e+00	0	56	104	0	50	20932
2026-01-19 01:41:06.47	4.80	5.24	-39.7	-54.7	3.8	1.49e+00	0	56	104	0	50	20928
2026-01-19 01:41:07.48	4.71	5.30	-39.7	-54.7	3.8	1.49e+00	0	56	104	0	50	20932
2026-01-19 01:41:08.49	4.62	5.36	-39.7	-54.7	3.8	1.49e+00	0	56	104	0	50	20935
2026-01-19 01:41:09.50	4.52	5.42	-39.7	-54.7	3.8	1.49e+00	0	56	104	0	50	20886
2026-01-19 01:41:10.51	4.43	5.48	-39.7	-54.7	3.8	1.49e+00	0	56	104	0	50	20964
2026-01-19 01:41:11.52	4.33	5.53	-39.7	-54.7	3.8	1.49e+00	0	56	104	0	50	20959
2026-01-19 01:41:12.53	4.24	5.59	-39.7	-54.7	3.8	1.49e+00	0	56	104	0	50	20946
2026-01-19 01:41:13.54	4.14	5.65	-39.7	-54.7	3.8	1.49e+00	0	56	104	0	50	20938
2026-01-19 01:41:14.55	4.05	5.71	-39.7	-54.7	3.8	1.49e+00	0	56	104	0	50	20918
2026-01-19 01:41:15.56	3.95	5.77	-39.7	-54.7	3.8	1.49e+00	0	56	104	0	50	20904
2026-01-19 01:41:16.57	3.85	5.82	-39.7	-54.7	3.8	1.49e+00	0	56	104	0	50	20950
2026-01-19 01:41:17.58	3.76	5.88	-39.7	-54.7	3.8	1.49e+00	0	56	104	0	50	20946
2026-01-19 01:41:18.59	3.66	5.94	-39.7	-54.7	3.8	1.49e+00	0	56	104	0	50	20960
2026-01-19 01:41:19.60	3.56	6.00	-39.7	-54.7	3.8	1.49e+00	0	56	104	0	50	20902
2026-01-19 01:41:20.61	3.46	6.06	-39.7	-54.7	3.8	1.49e+00	0	56	104	0	50	20962
2026-01-19 01:41:21.62	3.37	6.12	-39.7	-54.7	3.8	1.49e+00	0	57	104	0	50	20917
2026-01-19 01:41:22.63	3.27	6.17	-39.7	-54.7	3.8	1.49e+00	0	57	104	0	50	20922
2026-01-19 01:41:23.64	3.17	6.23	-39.7	-54.7	3.8	1.49e+00	0	57	104	0	50	20969
2026-01-19 01:41:24.65	3.07	6.29	-39.7	-54.7	3.8	1.49e+00	0	57	104	0	50	20903
2026-01-19 01:41:25.66	2.97	6.35	-39.7	-54.7	3.8	1.49e+00	0	57	104	0	50	20930
2026-01-19 01:41:26.68	2.87	6.41	-39.7	-54.7	3.8	1.49e+00	0	57	104	0	50	20909
2026-01-19 01:41:27.69	2.76	6.47	-39.7	-54.7	3.8	1.49e+00	0	57	104	0	50	20909
2026-01-19 01:41:28.70	2.66	6.53	-39.7	-54.7	3.8	1.49e+00	0	57	104	0	50	20884
2026-01-19 01:41:29.71	2.56	6.59	-39.7	-54.7	3.8	1.49e+00	0	57	104	0	50	20941
2026-01-19 01:41:30.72	2.46	6.65	-39.7	-54.7	3.8	1.49e+00	0	57	104	0	50	20830
2026-01-19 01:41:31.73	2.36	6.70	-39.7	-54.7	3.8	1.49e+00	0	57	104	0	50	20949
2026-01-19 01:41:32.74	2.25	6.76	-39.7	-54.7	3.8	1.49e+00	0	57	104	0	50	20948
2026-01-19 01:41:33.75	2.15	6.82	-39.7	-54.7	3.8	1.49e+00	0	57	104	0	50	20975
2026-01-19 01:41:34.76	2.04	6.88	-39.7	-54.7	3.8	1.49e+00	0	57	104	0	50	20924
2026-01-19 01:41:35.77	1.94	6.94	-39.7	-54.7	3.8	1.49e+00	0	57	104	0	50	20938
2026-01-19 01:41:36.78	1.83	7.00	-39.7	-54.7	3.8	1.49e+00	0	57	104	0	50	20955
2026-01-19 01:41:37.79	1.73	7.06	-39.7	-54.7	3.8	1.49e+00	0	57	104	0	50	20935
2026-01-19 01:41:38.80	1.62	7.12	-39.7	-54.7	3.8	1.49e+00	0	57	104	0	50	20970
2026-01-19 01:41:39.81	1.52	7.18	-39.7	-54.7	3.8	1.49e+00	0	57	104	0	50	20893
2026-01-19 01:41:40.82	1.41	7.24	-39.7	-54.7	3.8	1.49e+00	0	57	104	0	50	20907
2026-01-19 01:41:41.83	1.30	7.30	-39.7	-54.7	3.8	1.49e+00	0	57	104	0	50	20922
2026-01-19 01:41:42.84	1.20	7.36	-39.7	-54.7	3.8	1.49e+00	0	57	104	0	50	20902
2026-01-19 01:41:43.85	1.09	7.42	-39.7	-54.7	3.8	1.49e+00	0	57	104	0	50	20899
2026-01-19 01:41:44.86	0.98	7.48	-39.7	-54.7	3.8	1.49e+00	0	57	104	0	50	20959
2026-01-19 01:41:45.87	0.87	7.54	-39.7	-54.7	3.8	1.49e+00	0	57	104	0	50	20912
2026-01-19 01:41:46.88	0.76	7.59	-39.7	-54.7	3.8	1.49e+00	0	57	104	0	50	20897
2026-01-19 01:41:47.89	0.65	7.65	-39.7	-54.7	3.8	1.49e+00	0	58	104	0	50	20945
2026-01-19 01:41:48.90	0.54	7.71	-39.7	-54.7	3.8	1.49e+00	0	58	104	0	50	20934
2026-01-19 01:41:49.91	0.43	7.77	-39.7	-54.7	3.8	1.49e+00	0	58	104	0	50	20854
2026-01-19 01:41:50.92	0.32	7.83	-39.7	-54.7	3.8	1.49e+00	0	58	104	0	50	20952
2026-01-19 01:41:51.93	0.20	7.89	-39.7	-54.7	3.8	1.49e+00	0	58	104	0	50	20919
2026-01-19 01:41:52.94	0.09	7.95	-39.7	-54.7	3.8	1.49e+00	0	58	104	0	50	20979
2026-01-19 01:41:53.95	359.98	8.01	-39.7	-54.7	3.8	1.49e+00	0	58	104	0	50	20957
2026-01-19 01:41:54.96	359.87	8.07	-39.5	-54.8	3.8	1.49e+00	0	58	104	0	50	21087
2026-01-19 01:41:55.97	359.75	8.13	-39.8	-54.8	3.8	1.49e+00	0	57	104	0	50	21236
2026-01-19 01:41:56.98	359.64	8.19	-39.6	-54.8	3.8	1.49e+00	0	58	104	0	50	21129
2026-01-19 01:41:57.99	359.52	8.25	-39.7	-54.8	3.8	1.49e+00	0	58	104	0	50	21247
2026-01-19 01:41:59.00	359.41	8.31	-39.8	-54.8	3.8	1.49e+00	0	58	104	0	50	21181
2026-01-19 01:42:00.01	359.29	8.37	-39.7	-54.9	3.8	1.49e+00	0	58	104	0	50	21375
2026-01-19 01:42:01.02	359.18	8.43	-39.7	-54.7	3.8	1.49e+00	0	58	104	0	50	20991
2026-01-19 01:42:02.03	359.06	8.49	-39.9	-54.8	3.8	1.49e+00	0	58	104	0	50	21202
2026-01-19 01:42:03.04	358.94	8.55	-39.6	-54.9	3.8	1.49e+00	0	58	104	0	50	21271
2026-01-19 01:42:04.05	358.82	8.61	-39.6	-54.9	3.8	1.49e+00	0	58	104	0	50	21283
2026-01-19 01:42:05.06	358.71	8.67	-39.7	-54.7	3.8	1.49e+00	0	58	104	0	50	20926
2026-01-19 01:42:06.07	358.59	8.73	-39.7	-54.8	3.8	1.49e+00	0	58	104	0	50	21165
2026-01-19 01:42:07.08	358.47	8.80	-39.5	-54.8	3.8	1.49e+00	0	58	104	0	50	21152
2026-01-19 01:42:08.09	358.35	8.86	-39.8	-54.9	3.8	1.49e+00	0	58	104	0	50	21273
2026-01-19 01:42:09.10	358.23	8.92	-39.6	-54.7	3.8	1.49e+00	0	58	104	0	50	20866
2026-01-19 01:42:10.11	358.11	8.98	-39.5	-54.8	3.8	1.49e+00	0	58	104	0	50	21140
2026-01-19 01:42:11.12	357.99	9.04	-39.7	-54.8	3.8	1.49e+00	0	58	104	0	50	21019
2026-01-19 01:42:12.13	357.86	9.10	-39.8	-54.8	3.8	1.49e+00	0	58	104	0	50	21245
2026-01-19 01:42:13.14	357.74	9.16	-39.6	-54.7	3.8	1.49e+00	0	58	104	0	50	20950
2026-01-19 01:42:14.15	357.62	9.22	-39.6	-54.8	3.8	1.49e+00	0	58	104	0	50	21174
2026-01-19 01:42:15.16	357.50	9.28	-39.8	-54.8	3.8	1.49e+00	0	58	104	0	50	21025
2026-01-19 01:42:16.17	357.37	9.34	-39.8	-54.9	3.8	1.49e+00	0	58	104	0	50	21351
2026-01-19 01:42:17.18	357.25	9.40	-39.6	-54.7	3.8	1.49e+00	0	58	104	0	50	20965
2026-01-19 01:42:18.19	357.12	9.46	-39.6	-54.8	3.8	1.49e+00	0	58	104	0	50	21136
2026-01-19 01:42:19.19	357.00	9.52	-39.6	-54.8	3.8	1.49e+00	0	58	104	0	50	21067
2026-01-19 01:42:20.20	356.87	9.58	-40.0	-54.9	3.8	1.49e+00	0	58	104	0	50	21453
2026-01-19 01:42:21.21	356.75	9.64	-39.6	-54.7	3.8	1.49e+00	0	59	104	0	50	20918
2026-01-19 01:42:22.22	356.62	9.70	-39.7	-54.9	3.8	1.49e+00	0	58	104	0	50	21332
2026-01-19 01:42:23.23	356.49	9.76	-39.5	-54.8	3.8	1.49e+00	0	59	104	0	50	21046
2026-01-19 01:42:24.24	356.36	9.82	-40.0	-55.0	3.8	1.49e+00	0	59	104	0	50	21614
2026-01-19 01:42:25.25	356.23	9.88	-39.7	-54.7	3.8	1.49e+00	0	58	104	0	50	20941
2026-01-19 01:42:26.26	356.10	9.94	-40.1	-55.0	3.8	1.49e+00	0	59	104	0	50	21656
2026-01-19 01:42:27.27	355.97	10.00	-39.6	-54.8	3.8	1.49e+00	0	59	104	0	50	21140
2026-01-19 01:42:28.28	355.84	10.07	-40.0	-55.1	3.8	1.49e+00	0	59	104	0	51	20561
2026-01-19 01:42:29.29	355.71	10.13	-39.9	-54.8	3.8	1.49e+00	0	59	104	0	51	19930
2026-01-19 01:42:30.30	355.58	10.19	-40.3	-55.1	3.8	1.49e+00	0	59	104	0	51	20611
2026-01-19 01:42:31.31	355.45	10.25	-39.7	-54.9	3.8	1.49e+00	0	59	104	0	51	20158
2026-01-19 01:42:32.32	355.32	10.31	-40.2	-55.1	3.8	1.49e+00	0	59	104	0	51	20718
2026-01-19 01:42:33.33	355.18	10.37	-40.2	-54.9	3.8	1.49e+00	0	59	104	0	51	20204
2026-01-19 01:42:34.34	355.05	10.43	-40.4	-55.1	3.8	1.49e+00	0	59	104	0	51	20757
2026-01-19 01:42:35.35	354.91	10.49	-40.2	-55.0	3.8	1.49e+00	0	59	104	0	51	20533
2026-01-19 01:42:36.36	354.78	10.55	-40.3	-55.2	3.8	1.49e+00	0	59	104	0	51	20801
2026-01-19 01:42:37.36	354.65	10.61	-40.3	-55.0	3.8	1.49e+00	0	59	104	0	51	20479
2026-01-19 01:42:38.37	354.51	10.67	-40.4	-55.1	3.8	1.49e+00	0	59	104	0	51	20737
2026-01-19 01:42:39.38	354.37	10.73	-40.3	-55.1	3.8	1.49e+00	0	59	104	0	51	20706
2026-01-19 01:42:40.39	354.24	10.79	-40.4	-55.1	3.8	1.49e+00	0	59	104	0	51	20756
2026-01-19 01:42:41.40	354.10	10.85	-40.3	-55.0	3.8	1.49e+00	0	59	104	0	51	20529
2026-01-19 01:42:42.41	353.96	10.91	-40.3	-55.1	3.8	1.49e+00	0	59	104	0	51	20635
2026-01-19 01:42:43.42	353.82	10.97	-40.4	-55.1	3.8	1.49e+00	0	59	104	0	51	20704
2026-01-19 01:42:44.43	353.68	11.03	-40.3	-55.1	3.8	1.49e+00	0	59	104	0	51	20615
2026-01-19 01:42:45.44	353.54	11.10	-40.4	-55.1	3.8	1.49e+00	0	59	104	0	51	20544
2026-01-19 01:42:46.45	353.40	11.16	-40.3	-55.2	3.8	1.49e+00	0	59	104	0	51	20858
2026-01-19 01:42:47.46	353.26	11.22	-40.4	-55.1	3.8	1.49e+00	0	59	104	0	51	20711
2026-01-19 01:42:48.47	353.12	11.28	-40.2	-55.2	3.8	1.49e+00	0	59	104	0	51	20787
2026-01-19 01:42:49.48	352.97	11.34	-40.5	-55.3	3.8	1.49e+00	0	59	104	0	51	21123
2026-01-19 01:42:50.49	352.83	11.40	-40.4	-55.3	3.8	1.49e+00	0	59	104	0	52	19927
2026-01-19 01:42:51.50	352.69	11.46	-40.2	-55.1	3.8	1.49e+00	0	59	104	0	52	19578
2026-01-19 01:42:52.51	352.54	11.52	-40.5	-55.3	3.8	1.49e+00	0	59	104	0	52	19964
2026-01-19 01:42:53.52	352.40	11.58	-40.6	-55.3	3.8	1.49e+00	0	59	104	0	52	19978
2026-01-19 01:42:54.53	352.25	11.64	-40.8	-55.4	3.8	1.49e+00	0	59	104	0	52	20297
2026-01-19 01:42:55.54	352.11	11.70	-40.6	-55.3	3.8	1.49e+00	0	59	104	0	52	20022
2026-01-19 01:42:56.54	351.96	11.76	-40.7	-55.3	3.8	1.49e+00	0	59	104	0	52	20064
2026-01-19 01:42:57.55	351.81	11.82	-40.7	-55.4	3.8	1.49e+00	0	59	104	0	52	20082
2026-01-19 01:42:58.57	351.66	11.88	-40.7	-55.3	3.8	1.49e+00	0	59	104	0	52	20059
2026-01-19 01:42:59.57	351.52	11.94	-40.7	-55.3	3.8	1.49e+00	0	59	104	0	52	20038
2026-01-19 01:43:00.58	351.37	12.00	-40.6	-55.3	3.8	1.49e+00	0	59	104	0	52	19947
2026-01-19 01:43:01.59	351.22	12.06	-40.9	-55.5	3.8	1.49e+00	0	59	104	0	52	20419
2026-01-19 01:43:02.60	351.07	12.12	-40.6	-55.3	3.8	1.49e+00	0	59	104	0	52	20034
2026-01-19 01:43:03.61	350.91	12.18	-40.6	-55.4	3.8	1.49e+00	0	59	104	0	52	20079
2026-01-19 01:43:04.62	350.76	12.24	-40.7	-55.4	3.8	1.49e+00	0	59	104	0	52	20198
2026-01-19 01:43:05.63	350.61	12.30	-40.7	-55.4	3.8	1.49e+00	0	59	104	0	52	20176
2026-01-19 01:43:06.64	350.46	12.36	-40.8	-55.4	3.8	1.49e+00	0	59	104	0	52	20235
2026-01-19 01:43:07.64	350.30	12.42	-40.9	-55.6	3.8	1.49e+00	0	59	104	0	52	20702
2026-01-19 01:43:08.65	350.15	12.48	-40.7	-55.2	3.8	1.49e+00	0	59	104	0	52	19639
2026-01-19 01:43:09.66	350.00	12.54	-40.8	-55.4	3.8	1.49e+00	0	59	104	0	52	20096
2026-01-19 01:43:10.67	349.84	12.60	-40.9	-55.5	3.8	1.49e+00	0	60	104	0	52	20537
2026-01-19 01:43:11.68	349.68	12.66	-40.8	-55.5	3.8	1.49e+00	0	59	104	0	52	20342
2026-01-19 01:43:12.70	349.52	12.72	-40.8	-55.5	3.8	1.49e+00	0	59	104	0	52	20513
2026-01-19 01:43:13.70	349.37	12.77	-40.8	-55.5	3.8	1.49e+00	0	59	104	0	52	20532
2026-01-19 01:43:14.71	349.21	12.83	-41.0	-55.8	3.8	1.49e+00	0	60	104	0	52	21130
2026-01-19 01:43:15.73	349.05	12.89	-40.9	-55.7	3.8	1.49e+00	0	59	104	0	52	20944
2026-01-19 01:43:16.73	348.89	12.95	-41.1	-55.8	3.8	1.49e+00	0	60	104	0	52	21168
2026-01-19 01:43:17.74	348.73	13.01	-41.3	-55.9	3.8	1.49e+00	0	60	104	0	53	20232
2026-01-19 01:43:18.76	348.57	13.07	-41.0	-55.8	3.8	1.49e+00	0	59	104	0	53	19953
2026-01-19 01:43:19.77	348.41	13.13	-41.2	-55.9	3.8	1.49e+00	0	60	104	0	53	20204
2026-01-19 01:43:20.77	348.25	13.19	-41.2	-55.8	3.8	1.49e+00	0	60	104	0	53	19874
2026-01-19 01:43:21.78	348.08	13.25	-41.2	-55.9	3.8	1.49e+00	0	60	104	0	53	20230
2026-01-19 01:43:22.79	347.92	13.30	-41.3	-55.9	3.8	1.49e+00	0	59	104	0	53	20172
2026-01-19 01:43:23.80	347.76	13.36	-41.2	-55.9	3.8	1.49e+00	0	60	104	0	53	20236
2026-01-19 01:43:24.81	347.59	13.42	-41.2	-55.9	3.8	1.49e+00	0	60	104	0	53	20076
2026-01-19 01:43:25.82	347.43	13.48	-41.2	-55.9	3.8	1.49e+00	0	60	104	0	53	20164
2026-01-19 01:43:26.83	347.26	13.54	-41.2	-55.9	3.8	1.49e+00	0	59	104	0	53	20144
2026-01-19 01:43:27.84	347.09	13.60	-41.4	-56.1	3.8	1.49e+00	0	60	104	0	53	20573
2026-01-19 01:43:28.85	346.93	13.65	-41.2	-55.8	3.8	1.49e+00	0	60	104	0	53	20070
2026-01-19 01:43:29.86	346.76	13.71	-41.1	-55.7	3.8	1.49e+00	0	60	104	0	53	19694
2026-01-19 01:43:30.87	346.59	13.77	-41.2	-55.9	3.8	1.49e+00	0	60	104	0	53	20237
2026-01-19 01:43:31.88	346.42	13.83	-41.4	-56.0	3.8	1.49e+00	0	60	104	0	53	20531
2026-01-19 01:43:32.89	346.25	13.89	-41.1	-55.7	3.8	1.49e+00	0	60	104	0	53	19695
2026-01-19 01:43:33.90	346.08	13.94	-40.8	-55.5	3.8	1.49e+00	0	60	104	0	53	19222
2026-01-19 01:43:34.91	345.91	14.00	-41.3	-55.9	3.8	1.49e+00	0	60	104	0	53	20080
2026-01-19 01:43:35.92	345.73	14.06	-41.1	-55.8	3.8	1.49e+00	0	60	104	0	53	19870
2026-01-19 01:43:36.93	345.56	14.11	-40.9	-55.6	3.8	1.49e+00	0	60	104	0	53	19410
2026-01-19 01:43:37.94	345.39	14.17	-40.8	-55.5	3.8	1.49e+00	0	60	104	0	53	19339
2026-01-19 01:43:38.95	345.21	14.23	-41.0	-55.6	3.8	1.49e+00	0	60	104	0	53	19564
2026-01-19 01:43:39.96	345.04	14.28	-41.0	-55.7	3.8	1.49e+00	0	60	104	0	53	19817
2026-01-19 01:43:40.97	344.86	14.34	-41.0	-55.7	3.8	1.49e+00	0	60	104	0	53	19678
2026-01-19 01:43:41.98	344.69	14.40	-40.6	-55.4	3.8	1.49e+00	0	60	104	0	53	19074
2026-01-19 01:43:42.99	344.51	14.45	-40.8	-55.5	3.8	1.49e+00	0	60	104	0	53	19202
2026-01-19 01:43:44.00	344.33	14.51	-41.1	-55.7	3.8	1.49e+00	0	60	104	0	53	19794
2026-01-19 01:43:45.01	344.15	14.57	-40.8	-55.5	3.8	1.49e+00	0	60	104	0	53	19242
2026-01-19 01:43:46.02	343.98	14.62	-40.7	-55.4	3.8	1.49e+00	0	60	104	0	53	19073
2026-01-19 01:43:47.03	343.80	14.68	-40.7	-55.5	3.8	1.49e+00	0	60	104	0	53	19296
2026-01-19 01:43:48.04	343.62	14.73	-40.7	-55.4	3.8	1.49e+00	0	60	104	0	53	19092
2026-01-19 01:43:49.05	343.43	14.79	-40.7	-55.4	3.8	1.49e+00	0	60	104	0	53	19041
2026-01-19 01:43:50.05	343.25	14.84	-40.8	-55.4	3.8	1.49e+00	0	60	104	0	53	19167
2026-01-19 01:43:51.06	343.07	14.90	-40.6	-55.4	3.8	1.49e+00	0	60	104	0	53	18981
2026-01-19 01:43:52.07	342.89	14.95	-40.8	-55.4	3.8	1.49e+00	0	60	104	0	53	19090
2026-01-19 01:43:53.08	342.70	15.01	-40.7	-55.4	3.8	1.49e+00	0	60	104	0	53	19007
2026-01-19 01:43:54.09	342.52	15.06	-40.7	-55.3	3.8	1.49e+00	0	60	104	0	53	18892
2026-01-19 01:43:55.10	342.34	15.12	-40.8	-55.4	3.8	1.49e+00	0	60	104	0	53	19159
2026-01-19 01:43:56.11	342.15	15.17	-40.8	-55.4	3.8	1.49e+00	0	60	104	0	53	19027
2026-01-19 01:43:57.12	341.96	15.22	-40.7	-55.3	3.8	1.49e+00	0	60	104	0	53	18878
2026-01-19 01:43:58.13	341.78	15.28	-40.6	-55.5	3.8	1.49e+00	0	60	104	0	53	19375
2026-01-19 01:43:59.14	341.59	15.33	-40.8	-55.4	3.8	1.49e+00	0	60	104	0	53	19077
2026-01-19 01:44:00.15	341.40	15.38	-40.5	-55.4	3.8	1.49e+00	0	60	104	0	53	19034
2026-01-19 01:44:01.16	341.21	15.44	-40.7	-55.4	3.8	1.49e+00	0	60	104	0	53	19131
2026-01-19 01:44:02.17	341.02	15.49	-40.9	-55.8	3.8	1.49e+00	0	60	104	0	53	19991
2026-01-19 01:44:03.18	340.83	15.54	-40.6	-55.3	3.8	1.49e+00	0	60	104	0	53	18893
2026-01-19 01:44:04.19	340.64	15.60	-40.6	-55.6	3.8	1.49e+00	0	60	104	0	53	19408
2026-01-19 01:44:05.20	340.45	15.65	-40.9	-55.6	3.8	1.49e+00	0	60	104	0	53	19449
2026-01-19 01:44:06.21	340.25	15.70	-41.6	-55.5	3.8	1.49e+00	0	60	104	0	54	18167
2026-01-19 01:44:07.22	340.06	15.75	-40.6	-55.6	3.8	1.49e+00	0	60	104	0	53	19580
2026-01-19 01:44:08.22	339.87	15.80	-41.1	-55.7	3.8	1.49e+00	0	60	104	0	53	19826
2026-01-19 01:44:09.23	339.67	15.86	-41.7	-55.7	3.8	1.49e+00	0	60	104	0	53	19642
2026-01-19 01:44:10.24	339.48	15.91	-42.4	-53.1	4.3	1.44e+00	0	60	0	0	55	13092
2026-01-19 01:44:11.25	339.28	15.96	-41.2	-54.8	3.8	1.46e+00	0	60	104	0	54	16861
2026-01-19 01:44:12.26	339.08	16.01	-41.7	-49.5	6.3	1.34e+00	0	60	0	0	54	9081
2026-01-19 01:44:13.27	338.89	16.06	-41.5	-48.0	7.8	1.20e-01	0	60	0	2097152	54	7650
2026-01-19 01:44:14.28	338.69	16.11	-41.4	-47.3	8.7	4.72e-02	0	61	0	4194304	54	7085
2026-01-19 01:44:15.29	338.49	16.16	-41.2	-46.7	9.4	2.64e-02	0	60	0	5242880	54	6579
2026-01-19 01:44:16.30	338.29	16.21	-41.1	-46.3	10.0	9.66e-03	0	60	0	7340032	54	6293
2026-01-19 01:44:17.31	338.09	16.26	-41.2	-46.1	10.3	6.58e-03	0	60	0	9437184	54	6176
2026-01-19 01:44:18.32	337.89	16.31	-41.2	-45.9	10.6	4.54e-03	0	60	0	11534336	54	6024
2026-01-19 01:44:19.33	337.69	16.36	-41.6	-46.6	10.1	5.08e-03	0	60	0	13631488	54	6526
2026-01-19 01:44:20.34	337.49	16.41	-41.6	-46.6	10.1	7.50e-03	0	60	0	14680064	54	6525
2026-01-19 01:44:21.35	337.28	16.45	-41.2	-45.5	11.3	3.35e-03	0	60	0	16777216	54	5765
2026-01-19 01:44:22.36	337.08	16.50	-41.2	-45.4	11.6	6.55e-04	0	60	0	18874368	54	5715
2026-01-19 01:44:23.37	336.87	16.55	-41.5	-46.0	11.0	1.25e-03	0	60	0	20971520	54	6128
2026-01-19 01:44:24.38	336.67	16.60	-41.6	-46.0	11.0	1.38e-03	0	60	0	23068672	54	6127
2026-01-19 01:44:25.39	336.46	16.65	-41.6	-46.1	11.0	1.62e-03	0	60	0	24117248	54	6197
2026-01-19 01:44:26.40	336.26	16.69	-41.8	-46.5	10.7	2.69e-03	0	60	0	26214400	54	6453
2026-01-19 01:44:27.41	336.05	16.74	-41.8	-46.6	10.6	3.33e-03	0	60	0	28311552	54	6495
2026-01-19 01:44:28.42	335.84	16.79	-41.7	-46.3	11.0	2.31e-03	0	61	0	30408704	54	6287
2026-01-19 01:44:29.43	335.64	16.83	-41.7	-46.1	11.2	1.62e-03	0	60	0	32505856	54	6157
2026-01-19 01:44:30.44	335.43	16.88	-41.5	-45.8	11.6	7.04e-04	0	60	0	33554432	54	5932
2026-01-19 01:44:31.45	335.22	16.92	-41.5	-45.6	11.8	4.99e-04	0	60	0	35651584	54	5791
2026-01-19 01:44:32.46	335.01	16.97	-41.4	-45.5	12.0	3.52e-04	0	60	0	37748736	54	5725
2026-01-19 01:44:33.47	334.80	17.01	-41.4	-45.4	12.0	3.43e-04	0	61	0	39845888	54	5700
2026-01-19 01:44:34.48	334.59	17.06	-41.6	-45.7	11.8	3.87e-04	0	60	0	41943040	54	5861
2026-01-19 01:44:35.49	334.37	17.10	-41.5	-45.5	12.0	3.22e-04	0	61	0	42991616	54	5734
2026-01-19 01:44:36.49	334.16	17.15	-41.5	-45.4	12.1	2.66e-04	0	60	0	45088768	54	5711
2026-01-19 01:44:37.50	333.95	17.19	-41.5	-45.5	12.0	2.70e-04	0	60	0	47185920	54	5763
2026-01-19 01:44:38.51	333.74	17.23	-41.3	-45.0	12.5	1.25e-04	0	60	0	49283072	54	5458
2026-01-19 01:44:39.52	333.52	17.28	-41.1	-44.7	12.9	7.17e-05	0	61	0	51380224	54	5248
2026-01-19 01:44:40.53	333.31	17.32	-41.1	-44.6	13.0	4.11e-05	0	60	0	52428800	54	5189
2026-01-19 01:44:41.54	333.09	17.36	-41.1	-44.6	13.1	2.82e-05	0	60	0	54525952	54	5175
2026-01-19 01:44:42.55	332.87	17.40	-41.1	-44.5	13.1	2.89e-05	0	61	0	56623104	54	5132
2026-01-19 01:44:43.56	332.66	17.45	-41.2	-44.7	12.9	4.19e-05	0	60	0	58720256	54	5258
2026-01-19 01:44:44.57	332.44	17.49	-41.3	-44.9	12.8	4.34e-05	0	60	0	60817408	54	5367
2026-01-19 01:44:45.58	332.22	17.53	-41.5	-45.3	12.4	9.84e-05	0	60	0	61865984	54	5612
2026-01-19 01:44:46.59	332.00	17.57	-41.5	-45.4	12.3	1.53e-04	0	60	0	63963136	54	5688
2026-01-19 01:44:47.60	331.78	17.61	-41.6	-45.5	12.2	1.70e-04	0	60	0	66060288	54	5729
2026-01-19 01:44:48.61	331.56	17.65	-41.5	-45.4	12.3	2.20e-04	0	60	0	68157440	54	5662
2026-01-19 01:44:49.62	331.34	17.69	-41.4	-45.2	12.5	1.74e-04	0	60	0	70254592	54	5544
2026-01-19 01:44:50.63	331.12	17.73	-41.6	-45.5	12.2	1.48e-04	0	60	0	72351744	54	5726
2026-01-19 01:44:51.63	330.90	17.77	-41.6	-45.5	12.2	1.88e-04	0	60	0	73400320	54	5763
2026-01-19 01:44:52.64	330.68	17.80	-41.7	-45.6	12.1	2.42e-04	0	60	0	75497472	54	5829
2026-01-19 01:44:53.65	330.46	17.84	-41.9	-46.1	11.6	4.04e-04	0	61	0	77594624	54	6187
2026-01-19 01:44:54.66	330.23	17.88	-42.0	-46.4	11.4	1.07e-03	0	61	0	79691776	54	6353
2026-01-19 01:44:55.67	330.01	17.92	-41.9	-46.1	11.6	1.04e-03	0	60	0	80740352	54	6152
2026-01-19 01:44:56.68	329.78	17.95	-41.8	-46.0	11.7	6.72e-04	0	60	0	82837504	54	6080
2026-01-19 01:44:57.69	329.56	17.99	-41.7	-45.6	12.1	2.82e-04	0	61	0	84934656	54	5812
2026-01-19 01:44:58.70	329.33	18.03	-41.4	-45.1	12.8	1.34e-04	0	61	0	87031808	54	5468
2026-01-19 01:44:59.71	329.11	18.06	-41.3	-44.8	13.0	7.01e-05	0	60	0	89128960	54	5285
2026-01-19 01:45:00.72	328.88	18.10	-41.2	-44.7	13.1	3.28e-05	0	60	0	90177536	54	5236
2026-01-19 01:45:01.73	328.65	18.13	-41.2	-44.6	13.2	2.82e-05	0	60	0	92274688	54	5186
2026-01-19 01:45:02.74	328.43	18.17	-41.1	-44.6	13.2	1.90e-05	0	61	0	94371840	54	5161
2026-01-19 01:45:03.75	328.20	18.20	-41.2	-44.7	13.1	2.13e-05	0	60	0	96468992	54	5232
2026-01-19 01:45:04.76	327.97	18.23	-41.1	-44.5	13.3	1.52e-05	0	60	0	98566144	54	5130
2026-01-19 01:45:05.77	327.74	18.27	-41.1	-44.5	13.3	2.51e-05	0	61	0	100663296	54	5114
2026-01-19 01:45:06.78	327.51	18.30	-41.2	-44.6	13.2	2.36e-05	0	61	0	101711872	54	5176
2026-01-19 01:45:07.79	327.28	18.33	-41.1	-44.5	13.3	1.60e-05	0	61	0	103809024	54	5110
2026-01-19 01:45:08.79	327.05	18.36	-41.0	-44.3	13.5	1.22e-05	0	61	0	105906176	54	5025
2026-01-19 01:45:09.80	326.82	18.39	-41.0	-44.3	13.5	1.06e-05	0	61	0	108003328	53	5299
2026-01-19 01:45:10.81	326.59	18.43	-41.1	-44.4	13.4	1.14e-05	0	61	0	110100480	53	5379
2026-01-19 01:45:11.82	326.36	18.46	-41.0	-44.3	13.5	1.75e-05	0	61	0	111149056	53	5295
2026-01-19 01:45:12.83	326.12	18.49	-41.2	-44.6	13.2	1.67e-05	0	60	0	113246208	53	5502
2026-01-19 01:45:13.84	325.89	18.52	-41.3	-44.9	12.9	2.21e-05	0	61	0	115343360	53	5665
2026-01-19 01:45:14.85	325.66	18.54	-41.4	-45.0	12.7	3.43e-05	0	61	0	117440512	53	5780
2026-01-19 01:45:15.86	325.42	18.57	-41.5	-45.2	12.6	7.55e-05	0	61	0	119537664	53	5860
2026-01-19 01:45:16.87	325.19	18.60	-41.5	-45.1	12.7	9.38e-05	0	61	0	120586240	53	5823
2026-01-19 01:45:17.88	324.95	18.63	-41.5	-45.3	12.5	9.46e-05	0	61	0	122683392	53	5924
2026-01-19 01:45:18.89	324.72	18.66	-41.6	-45.3	12.5	1.08e-04	0	61	0	124780544	53	5967
2026-01-19 01:45:19.90	324.48	18.68	-41.5	-45.3	12.5	1.17e-04	0	61	0	126877696	53	5932
2026-01-19 01:45:20.91	324.24	18.71	-41.5	-45.1	12.7	7.09e-05	0	61	0	128974848	53	5811
2026-01-19 01:45:21.91	324.01	18.73	-41.5	-45.3	12.6	7.32e-05	0	61	0	130023424	53	5924
2026-01-19 01:45:22.92	323.77	18.76	-41.6	-45.3	12.5	1.24e-04	0	61	0	132120576	53	5938
2026-01-19 01:45:23.93	323.54	18.79	-41.7	-45.5	12.2	1.58e-04	0	61	0	134217728	53	6131
2026-01-19 01:45:24.95	323.30	18.81	-41.9	-45.9	11.8	3.54e-04	0	61	0	136314880	54	6026
2026-01-19 01:45:25.95	323.06	18.83	-42.0	-46.2	11.6	4.28e-04	0	61	0	138412032	54	6239
2026-01-19 01:45:26.96	322.82	18.86	-42.1	-46.3	11.4	8.18e-04	0	61	0	139460608	54	6318
2026-01-19 01:45:27.97	322.58	18.88	-42.1	-46.4	11.4	8.23e-04	0	61	0	141557760	54	6349
2026-01-19 01:45:28.98	322.34	18.90	-42.0	-46.2	11.6	6.18e-04	0	61	0	143654912	54	6204
2026-01-19 01:45:29.99	322.10	18.92	-41.9	-46.0	11.8	7.08e-04	0	61	0	145752064	54	6074
2026-01-19 01:45:31.00	321.86	18.95	-41.9	-46.0	11.8	5.23e-04	0	61	0	147849216	54	6085
2026-01-19 01:45:32.01	321.62	18.97	-41.8	-45.8	12.0	3.85e-04	0	61	0	148897792	54	5965
2026-01-19 01:45:33.02	321.38	18.99	-41.8	-45.7	12.1	2.80e-04	0	61	0	150994944	54	5901
2026-01-19 01:45:34.03	321.14	19.01	-41.7	-45.6	12.2	2.36e-04	0	61	0	153092096	54	5807
2026-01-19 01:45:35.04	320.90	19.03	-41.8	-45.7	12.1	2.58e-04	0	61	0	155189248	54	5893
2026-01-19 01:45:36.05	320.66	19.04	-41.7	-45.6	12.2	2.34e-04	0	61	0	157286400	54	5839
2026-01-19 01:45:37.06	320.41	19.06	-41.9	-45.9	11.8	3.75e-04	0	61	0	158334976	54	6055
2026-01-19 01:45:38.07	320.17	19.08	-42.0	-46.1	11.7	5.10e-04	0	61	0	160432128	54	6191
2026-01-19 01:45:39.08	319.93	19.10	-42.0	-46.3	11.5	5.90e-04	0	61	0	162529280	54	6290
2026-01-19 01:45:40.09	319.69	19.11	-42.0	-46.2	11.6	6.12e-04	0	61	0	164626432	54	6217
2026-01-19 01:45:41.10	319.44	19.13	-41.8	-45.9	11.9	7.09e-04	0	61	0	166723584	54	5999
2026-01-19 01:45:42.11	319.20	19.15	-41.9	-46.0	11.8	4.40e-04	0	61	0	168820736	54	6066
2026-01-19 01:45:43.12	318.96	19.16	-41.8	-45.8	12.0	4.18e-04	0	61	0	169869312	54	5947
2026-01-19 01:45:44.13	318.71	19.18	-41.9	-46.0	11.8	4.07e-04	0	61	0	171966464	54	6118
2026-01-19 01:45:45.14	318.47	19.19	-41.9	-46.0	11.7	4.96e-04	0	61	0	174063616	54	6128
2026-01-19 01:45:46.15	318.22	19.20	-42.1	-46.5	11.2	8.63e-04	0	61	0	176160768	54	6443
2026-01-19 01:45:47.15	317.98	19.22	-42.3	-46.9	10.9	2.47e-03	0	61	0	178257920	55	6371
2026-01-19 01:45:48.16	317.74	19.23	-42.4	-47.3	10.4	3.37e-03	0	61	0	179306496	55	6659
2026-01-19 01:45:49.17	317.49	19.24	-42.5	-47.5	10.1	4.23e-03	0	61	0	181403648	55	6870
2026-01-19 01:45:50.18	317.25	19.25	-42.5	-47.6	10.2	5.17e-03	0	61	0	183500800	55	6897
2026-01-19 01:45:51.19	317.00	19.26	-42.4	-47.3	10.5	4.63e-03	0	61	0	185597952	55	6670
2026-01-19 01:45:52.20	316.76	19.27	-42.3	-47.0	10.7	3.31e-03	0	61	0	187695104	55	6449
2026-01-19 01:45:53.21	316.51	19.28	-42.1	-46.7	11.1	1.76e-03	0	61	0	188743680	55	6204
2026-01-19 01:45:54.22	316.26	19.29	-42.0	-46.4	11.2	1.21e-03	0	61	0	190840832	55	6027
2026-01-19 01:45:55.23	316.02	19.30	-42.0	-46.4	11.4	8.24e-04	0	61	0	192937984	55	6020
2026-01-19 01:45:56.24	315.77	19.31	-42.0	-46.3	11.5	8.94e-04	0	61	0	195035136	55	5958
2026-01-19 01:45:57.25	315.53	19.32	-42.1	-46.5	11.3	9.76e-04	0	61	0	197132288	55	6088
2026-01-19 01:45:58.26	315.28	19.32	-42.1	-46.7	11.0	1.49e-03	0	61	0	198180864	55	6229
2026-01-19 01:45:59.27	315.03	19.33	-42.2	-46.9	10.8	2.07e-03	0	61	0	200278016	55	6376
2026-01-19 01:46:00.28	314.79	19.34	-42.2	-46.8	10.9	3.15e-03	0	61	0	202375168	55	6321
2026-01-19 01:46:01.29	314.54	19.34	-42.2	-46.8	10.9	2.30e-03	0	61	0	204472320	55	6289
2026-01-19 01:46:02.30	314.29	19.35	-42.2	-46.8	11.0	1.70e-03	0	61	0	206569472	55	6319
2026-01-19 01:46:03.31	314.05	19.35	-42.1	-46.4	11.3	1.19e-03	0	61	0	207618048	55	6060
2026-01-19 01:46:04.32	313.80	19.36	-42.0	-46.3	11.5	1.08e-03	0	61	0	209715200	55	5927
2026-01-19 01:46:05.33	313.55	19.36	-41.8	-45.9	11.8	8.62e-04	0	61	0	211812352	55	5713
2026-01-19 01:46:06.34	313.30	19.36	-41.8	-45.9	11.9	5.06e-04	0	61	0	213909504	55	5691
2026-01-19 01:46:07.35	313.06	19.36	-41.7	-45.8	12.0	3.51e-04	0	61	0	216006656	55	5616
2026-01-19 01:46:08.36	312.81	19.37	-41.9	-46.0	11.8	2.98e-04	0	61	0	217055232	55	5771
2026-01-19 01:46:09.37	312.56	19.37	-41.8	-45.9	11.9	3.50e-04	0	61	0	219152384	55	5669
2026-01-19 01:46:10.38	312.32	19.37	-41.8	-45.9	11.9	5.00e-04	0	61	0	221249536	55	5666
2026-01-19 01:46:11.39	312.07	19.37	-41.9	-46.2	11.5	6.48e-04	0	61	0	223346688	55	5888
2026-01-19 01:46:12.40	311.82	19.37	-42.1	-46.5	11.3	9.40e-04	0	61	0	225443840	55	6079
2026-01-19 01:46:13.41	311.57	19.36	-42.0	-46.4	11.4	9.75e-04	0	61	0	226492416	55	6018
2026-01-19 01:46:14.42	311.33	19.36	-41.9	-46.1	11.6	8.00e-04	0	61	0	228589568	55	5845
2026-01-19 01:46:15.43	311.08	19.36	-41.9	-46.1	11.7	6.97e-04	0	61	0	230686720	55	5800
2026-01-19 01:46:16.43	310.84	19.36	-41.8	-46.0	11.8	5.15e-04	0	61	0	232783872	55	5726
2026-01-19 01:46:17.44	310.59	19.35	-41.8	-45.9	11.9	4.86e-04	0	61	0	234881024	55	5674
2026-01-19 01:46:18.45	310.34	19.35	-41.7	-45.7	12.0	3.57e-04	0	61	0	236978176	55	5576
2026-01-19 01:46:19.46	310.09	19.35	-41.7	-45.7	12.0	2.76e-04	0	61	0	238026752	55	5560
2026-01-19 01:46:20.47	309.85	19.34	-41.7	-45.7	12.0	2.95e-04	0	61	0	240123904	55	5559
2026-01-19 01:46:21.48	309.60	19.33	-41.8	-45.9	12.0	3.17e-04	0	61	0	242221056	55	5674
2026-01-19 01:46:22.49	309.35	19.33	-41.9	-46.1	11.6	6.09e-04	0	61	0	244318208	55	5841
2026-01-19 01:46:23.50	309.11	19.32	-42.0	-46.3	11.4	8.32e-04	0	61	0	246415360	55	5955
2026-01-19 01:46:24.51	308.86	19.31	-42.1	-46.5	11.3	1.18e-03	0	61	0	247463936	55	6086
2026-01-19 01:46:25.52	308.61	19.31	-42.2	-46.8	10.9	1.93e-03	0	61	0	249561088	55	6325
2026-01-19 01:46:26.53	308.37	19.30	-42.3	-47.1	10.7	3.33e-03	0	61	0	251658240	55	6509
2026-01-19 01:46:27.54	308.12	19.29	-42.5	-47.4	10.3	4.83e-03	0	61	0	253755392	55	6792
2026-01-19 01:46:28.55	307.88	19.28	-42.6	-47.7	9.9	7.57e-03	0	61	0	255852544	55	7039
2026-01-19 01:46:29.56	307.63	19.27	-42.5	-47.7	10.0	8.57e-03	0	61	0	256901120	55	6990
2026-01-19 01:46:30.57	307.38	19.26	-42.6	-47.7	10.0	8.78e-03	0	61	0	258998272	55	7027
2026-01-19 01:46:31.58	307.14	19.25	-42.4	-47.2	10.5	6.69e-03	0	61	0	261095424	55	6608
2026-01-19 01:46:32.59	306.89	19.24	-42.2	-46.8	10.9	2.83e-03	0	61	0	263192576	55	6283
2026-01-19 01:46:33.59	306.65	19.22	-41.9	-46.1	11.6	1.12e-03	0	61	0	265289728	55	5836
2026-01-19 01:46:34.60	306.41	19.21	-41.7	-45.6	12.2	4.55e-04	0	61	0	266338304	55	5492
2026-01-19 01:46:35.61	306.16	19.20	-41.4	-45.1	12.7	1.08e-04	0	61	0	268435456	54	5470
2026-01-19 01:46:36.62	305.92	19.18	-41.2	-44.7	13.0	3.96e-05	0	61	0	270532608	54	5277
2026-01-19 01:46:37.63	305.67	19.17	-41.2	-44.7	13.2	4.27e-05	0	61	0	272629760	54	5226
2026-01-19 01:46:38.64	305.43	19.15	-41.3	-44.8	13.0	2.74e-05	0	61	0	274726912	54	5288
2026-01-19 01:46:39.65	305.19	19.14	-41.4	-45.0	12.8	3.58e-05	0	61	0	275775488	54	5432
2026-01-19 01:46:40.66	304.94	19.12	-41.4	-45.0	12.8	4.27e-05	0	61	0	277872640	54	5427
2026-01-19 01:46:41.67	304.70	19.11	-41.4	-45.1	12.7	9.76e-05	0	61	0	279969792	54	5517
2026-01-19 01:46:42.68	304.46	19.09	-41.4	-45.1	12.6	6.86e-05	0	61	0	282066944	54	5496
2026-01-19 01:46:43.69	304.21	19.07	-41.4	-45.1	12.7	8.54e-05	0	61	0	284164096	54	5482
2026-01-19 01:46:44.70	303.97	19.05	-41.4	-45.0	12.8	7.32e-05	0	61	0	285212672	54	5425
2026-01-19 01:46:45.71	303.73	19.04	-41.3	-44.9	12.9	5.95e-05	0	61	0	287309824	54	5354
2026-01-19 01:46:46.72	303.49	19.02	-41.4	-45.0	12.8	4.88e-05	0	61	0	289406976	54	5445
2026-01-19 01:46:47.73	303.24	19.00	-41.6	-45.4	12.4	8.01e-05	0	61	0	291504128	54	5666
2026-01-19 01:46:48.74	303.00	18.98	-41.4	-45.1	12.7	7.09e-05	0	61	0	293601280	54	5488
2026-01-19 01:46:49.75	302.76	18.96	-41.3	-44.9	12.8	6.94e-05	0	61	0	294649856	54	5401
2026-01-19 01:46:50.76	302.52	18.93	-41.2	-44.7	13.1	4.65e-05	0	61	0	296747008	54	5249
2026-01-19 01:46:51.77	302.28	18.91	-41.2	-44.6	13.2	2.28e-05	0	61	0	298844160	54	5183
2026-01-19 01:46:52.78	302.04	18.89	-41.1	-44.4	13.4	1.90e-05	0	61	0	300941312	54	5058
2026-01-19 01:46:53.79	301.80	18.87	-41.0	-44.2	13.5	8.30e-06	0	61	0	303038464	53	5270
2026-01-19 01:46:54.80	301.56	18.85	-40.9	-44.1	13.6	5.30e-06	0	61	0	305135616	53	5216
2026-01-19 01:46:55.80	301.33	18.82	-40.9	-44.0	13.8	6.80e-06	0	61	0	306184192	53	5135
2026-01-19 01:46:56.81	301.09	18.80	-40.9	-44.1	13.7	5.30e-06	0	61	0	308281344	53	5166
2026-01-19 01:46:57.83	300.85	18.77	-40.9	-44.1	13.7	3.80e-06	0	61	0	310378496	53	5207
2026-01-19 01:46:58.84	300.61	18.75	-41.1	-44.4	13.4	8.30e-06	0	61	0	312475648	53	5348
2026-01-19 01:46:59.84	300.37	18.72	-41.2	-44.7	13.2	1.37e-05	0	61	0	314572800	53	5530
2026-01-19 01:47:00.85	300.14	18.70	-41.3	-44.7	13.0	3.35e-05	0	61	0	315621376	53	5590
2026-01-19 01:47:01.86	299.90	18.67	-41.3	-44.9	12.9	4.34e-05	0	61	0	317718528	53	5673
2026-01-19 01:47:02.87	299.67	18.64	-41.3	-44.9	12.9	4.88e-05	0	61	0	319815680	53	5688
2026-01-19 01:47:03.88	299.43	18.62	-41.5	-45.3	12.5	5.56e-05	0	61	0	321912832	53	5930
2026-01-19 01:47:04.89	299.19	18.59	-41.6	-45.3	12.4	1.31e-04	0	61	0	324009984	53	5983
2026-01-19 01:47:05.90	298.96	18.56	-41.6	-45.5	12.3	1.68e-04	0	61	0	325058560	53	6062
2026-01-19 01:47:06.91	298.73	18.53	-41.5	-45.3	12.4	2.04e-04	0	61	0	327155712	53	5963
2026-01-19 01:47:07.92	298.49	18.50	-41.6	-45.5	12.2	2.29e-04	0	61	0	329252864	53	6093
2026-01-19 01:47:08.93	298.26	18.47	-41.5	-45.3	12.4	1.94e-04	0	61	0	331350016	53	5953
2026-01-19 01:47:09.94	298.02	18.44	-41.7	-45.6	12.2	2.36e-04	0	61	0	333447168	53	6171
2026-01-19 01:47:10.95	297.79	18.41	-41.7	-45.6	12.1	2.53e-04	0	61	0	334495744	53	6166
2026-01-19 01:47:11.96	297.56	18.38	-41.7	-45.7	12.0	2.53e-04	0	61	0	336592896	53	6231
2026-01-19 01:47:12.96	297.33	18.35	-41.8	-45.9	11.8	4.58e-04	0	61	0	338690048	54	6051
2026-01-19 01:47:13.98	297.10	18.31	-42.0	-46.2	11.5	6.44e-04	0	61	0	340787200	54	6252
2026-01-19 01:47:14.98	296.87	18.28	-42.2	-46.8	10.9	1.52e-03	0	61	0	342884352	54	6674
2026-01-19 01:47:15.99	296.64	18.25	-42.2	-46.8	10.9	2.07e-03	0	61	0	343932928	55	6319
2026-01-19 01:47:17.00	296.41	18.22	-42.4	-47.2	10.5	2.67e-03	0	61	0	346030080	55	6586
2026-01-19 01:47:18.01	296.18	18.18	-42.4	-47.3	10.4	4.41e-03	0	61	0	348127232	55	6677
2026-01-19 01:47:19.02	295.95	18.15	-42.3	-47.0	10.7	3.42e-03	0	61	0	350224384	55	6454
2026-01-19 01:47:20.03	295.72	18.11	-42.2	-46.7	10.9	2.47e-03	0	61	0	352321536	55	6269
2026-01-19 01:47:21.04	295.50	18.08	-42.2	-46.8	10.9	2.29e-03	0	61	0	353370112	55	6302
2026-01-19 01:47:22.05	295.27	18.04	-42.2	-46.7	11.0	1.88e-03	0	61	0	355467264	55	6223
2026-01-19 01:47:23.06	295.04	18.01	-42.1	-46.5	11.1	1.42e-03	0	61	0	357564416	55	6103
2026-01-19 01:47:24.07	294.82	17.97	-42.1	-46.6	11.0	1.68e-03	0	61	0	359661568	55	6194
2026-01-19 01:47:25.08	294.59	17.93	-42.1	-46.5	11.1	1.52e-03	0	61	0	361758720	55	6128
2026-01-19 01:47:26.09	294.37	17.90	-42.1	-46.4	11.2	1.56e-03	0	61	0	362807296	55	6037
2026-01-19 01:47:27.10	294.14	17.86	-42.0	-46.3	11.4	7.90e-04	0	61	0	364904448	55	5957
2026-01-19 01:47:28.11	293.92	17.82	-42.0	-46.3	11.3	1.14e-03	0	61	0	367001600	55	5987
2026-01-19 01:47:29.12	293.70	17.78	-42.0	-46.3	11.3	7.49e-04	0	61	0	369098752	55	5976
2026-01-19 01:47:30.13	293.47	17.75	-42.0	-46.4	11.3	9.57e-04	0	61	0	371195904	55	6014
2026-01-19 01:47:31.14	293.25	17.71	-42.1	-46.5	11.1	1.29e-03	0	61	0	373293056	55	6089
2026-01-19 01:47:32.15	293.03	17.67	-42.1	-46.6	11.0	1.70e-03	0	61	0	374341632	55	6180
2026-01-19 01:47:33.16	292.81	17.63	-42.2	-46.7	11.0	1.68e-03	0	61	0	376438784	55	6222
2026-01-19 01:47:34.17	292.59	17.59	-42.1	-46.5	11.1	1.64e-03	0	61	0	378535936	55	6124
2026-01-19 01:47:35.17	292.37	17.55	-42.0	-46.4	11.2	1.28e-03	0	61	0	380633088	55	6043
2026-01-19 01:47:36.18	292.15	17.51	-41.9	-46.1	11.6	7.51e-04	0	61	0	382730240	55	5797
2026-01-19 01:47:37.19	291.93	17.46	-41.9	-46.1	11.6	6.93e-04	0	61	0	383778816	55	5800
2026-01-19 01:47:38.20	291.72	17.42	-42.0	-46.4	11.3	7.54e-04	0	61	0	385875968	55	6006
2026-01-19 01:47:39.21	291.50	17.38	-41.9	-46.1	11.6	8.12e-04	0	61	0	387973120	55	5830
2026-01-19 01:47:40.22	291.28	17.34	-41.9	-46.1	11.6	7.07e-04	0	61	0	390070272	55	5793
2026-01-19 01:47:41.23	291.07	17.30	-41.9	-46.2	11.4	7.49e-04	0	61	0	392167424	55	5898
2026-01-19 01:47:42.24	290.85	17.25	-41.8	-46.0	11.6	5.21e-04	0	61	0	393216000	55	5761
2026-01-19 01:47:43.25	290.64	17.21	-41.8	-45.8	11.8	5.77e-04	0	61	0	395313152	55	5656
2026-01-19 01:47:44.26	290.42	17.17	-41.7	-45.8	11.8	5.15e-04	0	61	0	397410304	55	5647
2026-01-19 01:47:45.27	290.21	17.12	-41.8	-45.9	11.7	5.19e-04	0	61	0	399507456	55	5713
2026-01-19 01:47:46.28	289.99	17.08	-41.7	-45.8	11.8	5.19e-04	0	61	0	401604608	55	5613
2026-01-19 01:47:47.29	289.78	17.03	-41.6	-45.5	12.1	3.21e-04	0	62	0	402653184	55	5456
2026-01-19 01:47:48.30	289.57	16.99	-41.6	-45.5	12.1	2.75e-04	0	61	0	404750336	55	5429
2026-01-19 01:47:49.31	289.36	16.94	-41.5	-45.3	12.4	1.91e-04	0	61	0	406847488	54	5616
2026-01-19 01:47:50.32	289.15	16.90	-41.4	-45.1	12.5	1.28e-04	0	61	0	408944640	54	5497
2026-01-19 01:47:51.32	288.94	16.85	-41.3	-44.9	12.7	8.01e-05	0	61	0	411041792	54	5393
2026-01-19 01:47:52.33	288.73	16.81	-41.3	-44.9	12.8	5.03e-05	0	61	0	412090368	54	5349
2026-01-19 01:47:53.34	288.52	16.76	-41.3	-44.9	12.7	1.06e-04	0	61	0	414187520	54	5389
2026-01-19 01:47:54.35	288.32	16.71	-41.2	-44.8	12.8	8.92e-05	0	61	0	416284672	54	5323
2026-01-19 01:47:55.36	288.11	16.67	-41.2	-44.9	12.7	8.54e-05	0	61	0	418381824	54	5351
2026-01-19 01:47:56.37	287.90	16.62	-41.2	-44.9	12.7	6.56e-05	0	61	0	420478976	54	5372
2026-01-19 01:47:57.38	287.70	16.57	-41.4	-45.2	12.4	1.53e-04	0	61	0	421527552	54	5541
2026-01-19 01:47:58.39	287.49	16.52	-41.4	-45.3	12.3	1.50e-04	0	61	0	423624704	54	5621
2026-01-19 01:47:59.40	287.29	16.47	-41.7	-45.8	11.8	3.10e-04	0	61	0	425721856	54	5943
2026-01-19 01:48:00.41	287.08	16.43	-42.0	-46.4	11.2	1.18e-03	0	61	0	427819008	54	6415
2026-01-19 01:48:01.42	286.88	16.38	-42.1	-46.8	10.7	2.68e-03	0	61	0	429916160	54	6713
2026-01-19 01:48:02.43	286.68	16.33	-42.3	-47.2	10.3	4.21e-03	0	61	0	430964736	55	6605
2026-01-19 01:48:03.44	286.47	16.28	-42.3	-47.4	10.1	6.37e-03	0	61	0	433061888	55	6751
2026-01-19 01:48:04.45	286.27	16.23	-42.2	-47.1	10.3	5.53e-03	0	61	0	435159040	55	6564
2026-01-19 01:48:05.46	286.07	16.18	-42.2	-47.1	10.3	4.04e-03	0	61	0	437256192	55	6500
2026-01-19 01:48:06.46	285.87	16.13	-42.1	-46.9	10.5	3.79e-03	0	61	0	439353344	55	6380
2026-01-19 01:48:07.47	285.68	16.08	-42.1	-46.8	10.8	2.97e-03	0	61	0	440401920	55	6309
2026-01-19 01:48:08.48	285.48	16.03	-42.1	-46.9	10.6	4.20e-03	0	61	0	442499072	55	6366
2026-01-19 01:48:09.49	285.28	15.98	-42.1	-46.8	10.7	3.16e-03	0	61	0	444596224	55	6295
2026-01-19 01:48:10.50	285.08	15.93	-42.2	-47.1	10.3	4.55e-03	0	62	0	446693376	55	6553
2026-01-19 01:48:11.52	284.88	15.88	-42.2	-47.0	10.4	5.12e-03	0	61	0	448790528	55	6486
2026-01-19 01:48:12.53	284.69	15.82	-42.3	-47.4	10.1	5.42e-03	0	61	0	450887680	55	6731
2026-01-19 01:48:13.53	284.49	15.77	-42.3	-47.5	9.9	7.48e-03	0	61	0	451936256	55	6869
2026-01-19 01:48:14.54	284.30	15.72	-42.2	-47.3	10.1	7.97e-03	0	61	0	454033408	55	6684
2026-01-19 01:48:15.56	284.10	15.67	-42.2	-47.1	10.5	6.59e-03	0	61	0	456130560	55	6525
2026-01-19 01:48:16.56	283.91	15.62	-42.2	-47.1	10.4	4.50e-03	0	62	0	458227712	55	6498
2026-01-19 01:48:17.58	283.72	15.56	-42.1	-46.9	10.5	4.22e-03	0	61	0	460324864	55	6381
2026-01-19 01:48:18.58	283.53	15.51	-41.9	-46.4	11.1	2.90e-03	0	62	0	461373440	55	6010
2026-01-19 01:48:19.59	283.34	15.46	-42.0	-46.5	10.9	1.66e-03	0	61	0	463470592	55	6119
2026-01-19 01:48:20.60	283.15	15.40	-41.9	-46.4	11.1	1.65e-03	0	61	0	465567744	55	6041
2026-01-19 01:48:21.61	282.96	15.35	-41.8	-46.3	11.0	1.88e-03	0	61	0	467664896	55	5975
2026-01-19 01:48:22.62	282.77	15.30	-41.8	-46.3	11.1	1.59e-03	0	61	0	469762048	55	5960
2026-01-19 01:48:23.63	282.58	15.24	-41.9	-46.4	10.9	1.31e-03	0	61	0	470810624	55	6060
2026-01-19 01:48:24.64	282.39	15.19	-41.7	-46.1	11.3	1.39e-03	0	61	0	472907776	55	5801
2026-01-19 01:48:25.65	282.20	15.14	-41.7	-46.0	11.4	8.95e-04	0	62	0	475004928	55	5774
2026-01-19 01:48:26.66	282.02	15.08	-41.7	-46.1	11.3	1.28e-03	0	61	0	477102080	55	5801
2026-01-19 01:48:27.67	281.83	15.03	-41.8	-46.3	11.1	1.38e-03	0	61	0	479199232	55	5954
2026-01-19 01:48:28.68	281.65	14.97	-42.0	-46.7	10.7	2.48e-03	0	61	0	480247808	55	6233
2026-01-19 01:48:29.69	281.46	14.92	-42.1	-46.9	10.5	2.89e-03	0	61	0	482344960	55	6353
2026-01-19 01:48:30.70	281.28	14.86	-42.1	-47.1	10.2	5.35e-03	0	61	0	484442112	55	6538
2026-01-19 01:48:31.71	281.10	14.81	-42.0	-46.9	10.5	5.47e-03	0	62	0	486539264	55	6350
2026-01-19 01:48:32.72	280.91	14.75	-42.0	-46.8	10.5	4.39e-03	0	61	0	488636416	55	6313
2026-01-19 01:48:33.73	280.73	14.70	-42.0	-46.7	10.7	3.32e-03	0	61	0	489684992	55	6227
2026-01-19 01:48:34.74	280.55	14.64	-41.8	-46.3	11.0	1.76e-03	0	62	0	491782144	55	5992
2026-01-19 01:48:35.75	280.37	14.58	-41.8	-46.2	11.2	1.23e-03	0	61	0	493879296	55	5875
2026-01-19 01:48:36.76	280.19	14.53	-41.8	-46.1	11.2	1.32e-03	0	61	0	495976448	55	5850
2026-01-19 01:48:37.77	280.01	14.47	-41.9	-46.3	11.1	2.09e-03	0	62	0	498073600	55	5982
2026-01-19 01:48:38.78	279.84	14.42	-41.8	-46.2	11.2	1.48e-03	0	61	0	499122176	55	5858
2026-01-19 01:48:39.79	279.66	14.36	-41.9	-46.6	10.7	2.12e-03	0	61	0	501219328	55	6161
2026-01-19 01:48:40.80	279.48	14.30	-42.0	-46.8	10.6	2.32e-03	0	61	0	503316480	55	6303
2026-01-19 01:48:41.81	279.31	14.25	-42.1	-47.0	10.3	3.46e-03	0	61	0	505413632	55	6488
2026-01-19 01:48:42.82	279.13	14.19	-42.2	-47.3	9.9	7.33e-03	0	61	0	507510784	55	6718
2026-01-19 01:48:43.82	278.96	14.13	-42.4	-47.9	9.4	1.29e-02	0	61	0	508559360	55	7132
2026-01-19 01:48:44.83	278.78	14.08	-42.5	-48.2	9.1	2.21e-02	0	62	0	510656512	55	7435
2026-01-19 01:48:45.84	278.61	14.02	-42.6	-48.7	8.6	3.52e-02	0	61	0	512753664	55	7833
2026-01-19 01:48:46.85	278.44	13.96	-42.7	-48.8	8.4	4.40e-02	0	61	0	514850816	55	7972
2026-01-19 01:48:47.86	278.26	13.90	-42.9	-49.2	8.2	5.04e-02	0	61	0	516947968	56	7853
2026-01-19 01:48:48.87	278.09	13.85	-42.8	-49.0	8.4	4.55e-02	0	61	0	519045120	56	7658
2026-01-19 01:48:49.88	277.92	13.79	-42.8	-48.7	8.7	3.72e-02	0	61	0	520093696	56	7417
2026-01-19 01:48:50.89	277.75	13.73	-42.8	-48.8	8.6	4.33e-02	0	61	0	522190848	56	7516
2026-01-19 01:48:51.90	277.58	13.67	-42.7	-48.6	8.8	3.36e-02	0	61	0	524288000	56	7347
2026-01-19 01:48:52.91	277.41	13.61	-42.7	-48.7	8.6	2.80e-02	0	61	0	526385152	56	7451
2026-01-19 01:48:53.92	277.25	13.56	-42.6	-48.4	8.9	2.83e-02	0	61	0	527433728	56	7170
2026-01-19 01:48:54.93	277.08	13.50	-42.6	-48.3	9.0	2.56e-02	0	62	0	529530880	56	7110
2026-01-19 01:48:55.94	276.91	13.44	-42.5	-48.1	9.3	2.12e-02	0	62	0	531628032	56	6906
2026-01-19 01:48:56.94	276.75	13.38	-42.6	-48.1	9.2	1.96e-02	0	62	0	533725184	56	6950
2026-01-19 01:48:57.95	276.58	13.32	-42.5	-48.0	9.3	1.86e-02	0	61	0	535822336	56	6861
2026-01-19 01:48:58.97	276.42	13.26	-42.5	-47.8	9.6	1.38e-02	0	61	0	536870912	56	6655
2026-01-19 01:48:59.98	276.25	13.20	-42.3	-47.4	10.0	9.01e-03	0	62	0	538968064	56	6356
2026-01-19 01:49:00.98	276.09	13.15	-42.3	-47.4	10.0	7.64e-03	0	62	0	541065216	56	6364
2026-01-19 01:49:01.99	275.93	13.09	-42.3	-47.6	9.7	9.79e-03	0	62	0	543162368	56	6518
2026-01-19 01:49:03.00	275.77	13.03	-42.5	-48.1	9.3	1.47e-02	0	61	0	545259520	56	6889
2026-01-19 01:49:04.01	275.60	12.97	-42.6	-48.4	8.9	2.04e-02	0	62	0	547356672	56	7133
2026-01-19 01:49:05.02	275.44	12.91	-42.5	-48.1	9.2	2.20e-02	0	61	0	548405248	56	6900
2026-01-19 01:49:06.03	275.28	12.85	-42.5	-48.0	9.2	2.26e-02	0	61	0	550502400	56	6878
2026-01-19 01:49:07.04	275.12	12.79	-42.5	-48.0	9.3	2.14e-02	0	62	0	552599552	56	6861
2026-01-19 01:49:08.05	274.97	12.73	-42.4	-47.9	9.4	1.55e-02	0	61	0	554696704	56	6729
2026-01-19 01:49:09.06	274.81	12.67	-42.3	-47.5	9.8	1.21e-02	0	62	0	556793856	56	6483
2026-01-19 01:49:10.07	274.65	12.61	-42.2	-47.1	10.1	8.46e-03	0	61	0	557842432	56	6187
2026-01-19 01:49:11.08	274.49	12.55	-42.0	-46.8	10.5	4.97e-03	0	62	0	559939584	56	5971
2026-01-19 01:49:12.09	274.34	12.49	-42.0	-46.8	10.5	4.46e-03	0	61	0	562036736	56	5929
2026-01-19 01:49:13.10	274.18	12.43	-41.8	-46.4	10.6	3.90e-03	0	62	0	564133888	55	6057
2026-01-19 01:49:14.11	274.03	12.37	-41.8	-46.5	10.5	3.51e-03	0	62	0	566231040	55	6115
2026-01-19 01:49:15.11	273.87	12.31	-41.8	-46.6	10.5	3.56e-03	0	61	0	567279616	55	6132
2026-01-19 01:49:16.12	273.72	12.25	-41.8	-46.5	10.5	3.68e-03	0	62	0	569376768	55	6114
2026-01-19 01:49:17.13	273.57	12.19	-41.8	-46.6	10.4	4.32e-03	0	61	0	571473920	55	6180
2026-01-19 01:49:18.14	273.41	12.13	-41.9	-46.8	10.2	5.41e-03	0	61	0	573571072	55	6290
2026-01-19 01:49:19.15	273.26	12.07	-41.9	-47.0	10.0	7.01e-03	0	61	0	575668224	55	6446
2026-01-19 01:49:20.16	273.11	12.01	-42.0	-47.1	9.9	9.31e-03	0	62	0	576716800	55	6521
2026-01-19 01:49:21.17	272.96	11.95	-42.0	-47.2	9.8	9.98e-03	0	62	0	578813952	55	6579
2026-01-19 01:49:22.18	272.81	11.89	-42.1	-47.5	9.5	1.20e-02	0	62	0	580911104	55	6813
2026-01-19 01:49:23.19	272.66	11.83	-42.0	-47.3	9.6	1.18e-02	0	62	0	583008256	55	6671
2026-01-19 01:49:24.20	272.51	11.77	-42.0	-47.3	9.6	1.39e-02	0	61	0	585105408	55	6693
2026-01-19 01:49:25.21	272.36	11.71	-42.0	-47.3	9.6	1.32e-02	0	62	0	586153984	55	6651
2026-01-19 01:49:26.22	272.22	11.65	-42.0	-47.3	9.5	1.42e-02	0	62	0	588251136	55	6663
2026-01-19 01:49:27.23	272.07	11.59	-41.9	-47.1	9.7	1.39e-02	0	62	0	590348288	55	6544
2026-01-19 01:49:28.24	271.92	11.53	-41.9	-47.0	9.8	9.13e-03	0	61	0	592445440	55	6454
2026-01-19 01:49:29.25	271.78	11.47	-41.8	-46.9	9.9	1.05e-02	0	62	0	594542592	55	6349
2026-01-19 01:49:30.26	271.63	11.41	-41.7	-46.6	10.2	8.11e-03	0	62	0	595591168	55	6173
2026-01-19 01:49:31.27	271.49	11.35	-41.7	-46.6	10.2	6.24e-03	0	62	0	597688320	55	6174
2026-01-19 01:49:32.28	271.35	11.29	-41.6	-46.5	10.3	5.80e-03	0	62	0	599785472	55	6079
2026-01-19 01:49:33.29	271.20	11.23	-41.6	-46.4	10.4	4.53e-03	0	62	0	601882624	55	6020
2026-01-19 01:49:34.30	271.06	11.17	-41.4	-46.1	10.6	3.38e-03	0	62	0	603979776	54	6157
2026-01-19 01:49:35.31	270.92	11.11	-41.4	-45.9	10.8	3.17e-03	0	62	0	605028352	54	6042
2026-01-19 01:49:36.32	270.78	11.05	-41.3	-45.7	11.0	2.35e-03	0	61	0	607125504	54	5906
2026-01-19 01:49:37.33	270.64	10.99	-41.2	-45.5	11.3	1.28e-03	0	62	0	609222656	54	5729
2026-01-19 01:49:38.34	270.50	10.92	-41.1	-45.2	11.5	7.91e-04	0	62	0	611319808	54	5564
2026-01-19 01:49:39.35	270.36	10.86	-40.9	-44.9	11.8	6.11e-04	0	62	0	613416960	53	5679
2026-01-19 01:49:40.36	270.22	10.80	-40.9	-45.0	11.7	4.55e-04	0	62	0	615514112	53	5728
2026-01-19 01:49:41.37	270.08	10.74	-41.0	-45.2	11.5	6.42e-04	0	61	0	616562688	53	5867
2026-01-19 01:49:42.37	269.94	10.68	-41.1	-45.3	11.4	8.30e-04	0	62	0	618659840	53	5948
2026-01-19 01:49:43.39	269.80	10.62	-41.1	-45.3	11.4	9.87e-04	0	62	0	620756992	53	5934
2026-01-19 01:49:44.39	269.67	10.56	-41.2	-45.7	10.9	1.82e-03	0	61	0	622854144	53	6219
2026-01-19 01:49:45.40	269.53	10.50	-41.3	-45.8	10.8	2.39e-03	0	62	0	624951296	53	6286
2026-01-19 01:49:46.41	269.40	10.44	-41.3	-45.9	10.6	2.92e-03	0	61	0	625999872	53	6400
2026-01-19 01:49:47.42	269.26	10.38	-41.3	-46.0	10.6	3.44e-03	0	62	0	628097024	53	6433
2026-01-19 01:49:48.43	269.13	10.32	-41.4	-46.0	10.5	3.88e-03	0	62	0	630194176	53	6484
2026-01-19 01:49:49.44	268.99	10.26	-41.2	-45.7	10.8	3.18e-03	0	62	0	632291328	53	6265
2026-01-19 01:49:50.45	268.86	10.20	-41.3	-45.9	10.6	3.41e-03	0	61	0	634388480	53	6405
2026-01-19 01:49:51.46	268.73	10.14	-41.3	-45.9	10.6	3.56e-03	0	62	0	635437056	53	6403
2026-01-19 01:49:52.47	268.59	10.07	-41.2	-45.8	10.7	2.95e-03	0	61	0	637534208	53	6315
2026-01-19 01:49:53.48	268.46	10.01	-41.1	-45.6	10.8	2.73e-03	0	61	0	639631360	53	6202
2026-01-19 01:49:54.49	268.33	9.95	-41.2	-45.8	10.6	3.38e-03	0	62	0	641728512	53	6294
2026-01-19 01:49:55.50	268.20	9.89	-41.2	-45.9	10.4	4.07e-03	0	62	0	643825664	53	6393
2026-01-19 01:49:56.51	268.07	9.83	-41.2	-46.1	10.2	4.88e-03	0	62	0	644874240	53	6497
2026-01-19 01:49:57.51	267.94	9.77	-41.3	-46.2	10.1	6.22e-03	0	62	0	646971392	53	6618
2026-01-19 01:49:58.52	267.81	9.71	-41.3	-46.2	10.0	7.46e-03	0	62	0	649068544	53	6629
2026-01-19 01:49:59.53	267.69	9.65	-41.3	-46.5	9.7	7.79e-03	0	61	0	651165696	53	6837
2026-01-19 01:50:00.54	267.56	9.59	-41.4	-46.7	9.4	1.41e-02	0	61	0	653262848	53	7014
2026-01-19 01:50:01.55	267.43	9.53	-41.4	-46.8	9.3	1.54e-02	0	61	0	654311424	53	7099
2026-01-19 01:50:02.56	267.30	9.47	-41.5	-47.0	9.0	1.85e-02	0	62	0	656408576	53	7275
2026-01-19 01:50:03.57	267.18	9.41	-41.4	-47.0	9.1	2.43e-02	0	62	0	658505728	53	7221
2026-01-19 01:50:04.58	267.05	9.35	-41.4	-47.1	8.8	2.66e-02	0	62	0	660602880	53	7324
2026-01-19 01:50:05.59	266.93	9.29	-41.4	-47.1	8.8	3.34e-02	0	62	0	662700032	53	7333
2026-01-19 01:50:06.60	266.80	9.22	-41.4	-47.2	8.7	3.56e-02	0	62	0	663748608	53	7433
2026-01-19 01:50:07.61	266.68	9.16	-41.5	-47.4	8.5	4.38e-02	0	62	0	665845760	53	7557
2026-01-19 01:50:08.62	266.55	9.10	-41.5	-47.5	8.4	4.34e-02	0	62	0	667942912	53	7682
2026-01-19 01:50:09.63	266.43	9.04	-41.6	-47.8	8.0	6.07e-02	0	62	0	670040064	53	7978
2026-01-19 01:50:10.64	266.31	8.98	-41.5	-47.7	8.1	5.95e-02	0	62	0	672137216	53	7881
2026-01-19 01:50:11.65	266.19	8.92	-41.6	-48.0	7.8	7.64e-02	0	62	0	673185792	53	8127
2026-01-19 01:50:12.66	266.07	8.86	-41.6	-48.1	7.7	8.59e-02	0	62	0	675282944	53	8268
2026-01-19 01:50:13.66	265.95	8.80	-41.6	-48.4	7.4	1.02e-01	0	62	0	677380096	53	8465
2026-01-19 01:50:14.67	265.83	8.74	-41.7	-48.5	7.3	1.17e-01	0	62	0	679477248	53	8620
2026-01-19 01:50:15.68	265.71	8.68	-41.7	-48.7	7.1	1.35e-01	0	61	0	681574400	53	8805
2026-01-19 01:50:16.69	265.59	8.62	-41.7	-48.8	7.0	1.51e-01	0	62	0	683671552	54	8408
2026-01-19 01:50:17.70	265.47	8.56	-42.3	-49.9	6.4	1.48e-01	0	62	0	684720128	55	9042
2026-01-19 01:50:18.71	265.35	8.50	-42.6	-51.2	5.5	2.94e-01	0	62	0	686817280	55	10474
2026-01-19 01:50:19.72	265.23	8.44	-41.3	-52.7	4.2	5.50e-01	0	61	0	688914432	54	13242
2026-01-19 01:50:20.73	265.11	8.38	-42.3	-53.6	4.2	1.40e+00	0	61	0	688914432	55	13785
2026-01-19 01:50:21.74	265.00	8.32	-41.8	-48.5	7.3	1.19e+00	0	62	0	688914432	55	7713
2026-01-19 01:50:22.75	264.88	8.26	-41.8	-48.7	7.2	1.96e-01	0	62	0	691011584	55	7883
2026-01-19 01:50:23.76	264.76	8.20	-41.8	-49.0	6.9	1.64e-01	0	61	0	693108736	55	8151
2026-01-19 01:50:24.77	264.65	8.14	-41.9	-49.2	6.8	1.70e-01	0	62	0	694157312	55	8284
2026-01-19 01:50:25.78	264.53	8.08	-41.9	-49.3	6.6	2.20e-01	0	62	0	696254464	55	8427
2026-01-19 01:50:26.79	264.42	8.02	-41.9	-49.4	6.5	1.99e-01	0	62	0	698351616	55	8507
2026-01-19 01:50:27.80	264.30	7.96	-43.9	-57.2	3.8	3.47e-01	0	61	104	699400192	58	17552
2026-01-19 01:50:28.81	264.19	7.90	-44.7	-59.0	3.8	1.49e+00	0	62	104	699400192	59	20453
2026-01-19 01:50:29.82	264.08	7.84	-44.8	-59.4	3.8	1.49e+00	0	62	104	699400192	60	20262
2026-01-19 01:50:30.83	263.96	7.78	-45.0	-59.6	3.8	1.49e+00	0	62	104	699400192	60	20719
2026-01-19 01:50:31.84	263.85	7.72	-45.1	-59.7	3.8	1.49e+00	0	61	104	699400192	60	20905
2026-01-19 01:50:32.85	263.74	7.66	-45.2	-59.7	3.8	1.49e+00	0	62	104	699400192	60	20974
2026-01-19 01:50:33.86	263.63	7.60	-45.2	-59.8	3.8	1.49e+00	0	62	104	699400192	60	21188
2026-01-19 01:50:34.87	263.52	7.54	-45.3	-59.9	3.8	1.49e+00	0	62	104	699400192	61	20101
2026-01-19 01:50:35.89	263.41	7.48	-45.2	-59.8	3.8	1.49e+00	0	62	104	699400192	61	19996
2026-01-19 01:50:36.90	263.30	7.42	-45.2	-59.8	3.8	1.49e+00	0	62	104	699400192	61	19983
2026-01-19 01:50:37.91	263.19	7.36	-45.2	-59.8	3.8	1.49e+00	0	62	104	699400192	61	19856
2026-01-19 01:50:38.92	263.08	7.30	-45.2	-59.8	3.8	1.49e+00	0	62	104	699400192	61	19919
2026-01-19 01:50:39.93	262.97	7.24	-45.2	-59.8	3.8	1.49e+00	0	62	104	699400192	61	19902
2026-01-19 01:50:40.94	262.86	7.18	-45.2	-59.8	3.8	1.49e+00	0	62	104	699400192	61	19924
2026-01-19 01:50:41.95	262.76	7.12	-45.2	-59.8	3.8	1.49e+00	0	61	104	699400192	61	19906
2026-01-19 01:50:42.96	262.65	7.06	-45.3	-59.8	3.8	1.49e+00	0	62	104	699400192	61	20026
2026-01-19 01:50:43.97	262.54	7.00	-45.3	-59.8	3.8	1.49e+00	0	62	104	699400192	61	20013
2026-01-19 01:50:44.98	262.44	6.94	-45.2	-59.8	3.8	1.49e+00	0	62	104	699400192	61	20013
2026-01-19 01:50:45.99	262.33	6.88	-45.2	-59.8	3.8	1.49e+00	0	62	104	699400192	61	19926
2026-01-19 01:50:47.00	262.22	6.82	-45.2	-59.8	3.8	1.49e+00	0	62	104	699400192	61	19890
2026-01-19 01:50:48.01	262.12	6.76	-45.2	-59.8	3.8	1.49e+00	0	62	104	699400192	61	19876
2026-01-19 01:50:49.02	262.02	6.70	-45.2	-59.8	3.8	1.49e+00	0	62	104	699400192	61	19907
2026-01-19 01:50:50.03	261.91	6.65	-45.3	-59.8	3.8	1.49e+00	0	62	104	699400192	61	19954
2026-01-19 01:50:51.04	261.81	6.59	-45.2	-59.7	3.8	1.49e+00	0	62	104	699400192	61	19776
2026-01-19 01:50:52.06	261.70	6.53	-45.2	-59.7	3.8	1.49e+00	0	62	104	699400192	61	19675
2026-01-19 01:50:53.07	261.60	6.47	-45.2	-59.7	3.8	1.49e+00	0	62	104	699400192	61	19759
2026-01-19 01:50:54.08	261.50	6.41	-45.2	-59.7	3.8	1.49e+00	0	62	104	699400192	61	19728
2026-01-19 01:50:55.09	261.40	6.35	-45.2	-59.7	3.8	1.49e+00	0	62	104	699400192	61	19732
2026-01-19 01:50:56.10	261.29	6.29	-45.2	-59.7	3.8	1.49e+00	0	62	104	699400192	61	19784
2026-01-19 01:50:57.11	261.19	6.23	-45.2	-59.7	3.8	1.49e+00	0	62	104	699400192	61	19643
2026-01-19 01:50:58.12	261.09	6.17	-45.2	-59.7	3.8	1.49e+00	0	62	104	699400192	61	19769
2026-01-19 01:50:59.13	260.99	6.11	-45.2	-59.7	3.8	1.49e+00	0	62	104	699400192	61	19810
2026-01-19 01:51:00.14	260.89	6.06	-45.2	-59.7	3.8	1.49e+00	0	62	104	699400192	61	19734
2026-01-19 01:51:01.15	260.79	6.00	-45.2	-59.7	3.8	1.49e+00	0	62	104	699400192	61	19733
2026-01-19 01:51:02.16	260.69	5.94	-45.2	-59.7	3.8	1.49e+00	0	62	104	699400192	61	19761
2026-01-19 01:51:03.17	260.60	5.88	-45.2	-59.7	3.8	1.49e+00	0	62	104	699400192	61	19777
2026-01-19 01:51:04.18	260.50	5.82	-45.2	-59.7	3.8	1.49e+00	0	62	104	699400192	61	19740
2026-01-19 01:51:05.19	260.40	5.76	-45.2	-59.7	3.8	1.49e+00	0	62	104	699400192	61	19748
2026-01-19 01:51:06.20	260.30	5.70	-45.2	-59.7	3.8	1.49e+00	0	62	104	699400192	61	19744
2026-01-19 01:51:07.21	260.21	5.65	-45.2	-59.7	3.8	1.49e+00	0	62	104	699400192	61	19752
2026-01-19 01:51:08.22	260.11	5.59	-45.2	-59.7	3.8	1.49e+00	0	62	104	699400192	61	19692
2026-01-19 01:51:09.23	260.01	5.53	-45.2	-59.7	3.8	1.49e+00	0	62	104	699400192	61	19742
2026-01-19 01:51:10.24	259.92	5.47	-45.2	-59.7	3.8	1.49e+00	0	62	104	699400192	61	19700
2026-01-19 01:51:11.25	259.82	5.41	-45.2	-59.7	3.8	1.49e+00	0	62	104	699400192	61	19619
2026-01-19 01:51:12.26	259.73	5.36	-45.2	-59.7	3.8	1.49e+00	0	62	104	699400192	61	19675
2026-01-19 01:51:13.28	259.63	5.30	-45.2	-59.7	3.8	1.49e+00	0	62	104	699400192	61	19769
2026-01-19 01:51:14.29	259.54	5.24	-45.2	-59.7	3.8	1.49e+00	0	62	104	699400192	61	19678
2026-01-19 01:51:15.30	259.44	5.18	-45.2	-59.6	3.8	1.49e+00	0	62	104	699400192	61	19605
2026-01-19 01:51:16.31	259.35	5.12	-45.2	-59.7	3.8	1.49e+00	0	62	104	699400192	61	19690
2026-01-19 01:51:17.32	259.26	5.07	-45.2	-59.7	3.8	1.49e+00	0	62	104	699400192	61	19660
2026-01-19 01:51:18.33	259.16	5.01	-45.2	-59.7	3.8	1.49e+00	0	62	104	699400192	61	19698
2026-01-19 01:51:19.34	259.07	4.95	-45.2	-59.7	3.8	1.49e+00	0	61	104	699400192	61	19642
2026-01-19 01:51:20.35	258.98	4.89	-45.2	-59.7	3.8	1.49e+00	0	62	104	699400192	61	19640
2026-01-19 01:51:21.36	258.89	4.84	-45.2	-59.7	3.8	1.49e+00	0	62	104	699400192	61	19627
2026-01-19 01:51:22.37	258.80	4.78	-45.2	-59.7	3.8	1.49e+00	0	62	104	699400192	61	19688
2026-01-19 01:51:23.38	258.71	4.72	-45.2	-59.7	3.8	1.49e+00	0	62	104	699400192	61	19705
2026-01-19 01:51:24.39	258.61	4.66	-45.2	-59.7	3.8	1.49e+00	0	61	104	699400192	61	19665
2026-01-19 01:51:25.40	258.52	4.61	-45.2	-59.7	3.8	1.49e+00	0	62	104	699400192	61	19684
2026-01-19 01:51:26.41	258.44	4.55	-45.1	-59.7	3.8	1.49e+00	0	62	104	699400192	61	19700
2026-01-19 01:51:27.43	258.34	4.49	-45.2	-59.7	3.8	1.49e+00	0	62	104	699400192	61	19668
2026-01-19 01:51:28.43	258.26	4.43	-45.2	-59.7	3.8	1.49e+00	0	62	104	699400192	61	19637
2026-01-19 01:51:29.45	258.17	4.38	-45.1	-59.7	3.8	1.49e+00	0	62	104	699400192	61	19674
2026-01-19 01:51:30.46	258.08	4.32	-45.1	-59.7	3.8	1.49e+00	0	62	104	699400192	61	19671
2026-01-19 01:51:31.47	257.99	4.26	-45.1	-59.7	3.8	1.49e+00	0	62	104	699400192	61	19661
2026-01-19 01:51:32.48	257.90	4.21	-45.2	-59.7	3.8	1.49e+00	0	62	104	699400192	61	19685
2026-01-19 01:51:33.49	257.82	4.15	-45.2	-59.7	3.8	1.49e+00	0	62	104	699400192	61	19697
2026-01-19 01:51:34.50	257.73	4.09	-45.1	-59.7	3.8	1.49e+00	0	62	104	699400192	61	19706
2026-01-19 01:51:35.51	257.64	4.04	-45.1	-59.7	3.8	1.49e+00	0	62	104	699400192	61	19667
2026-01-19 01:51:36.52	257.56	3.98	-45.1	-59.7	3.8	1.49e+00	0	62	104	699400192	61	19696
2026-01-19 01:51:37.53	257.47	3.92	-45.2	-59.7	3.8	1.49e+00	0	62	104	699400192	61	19646
2026-01-19 01:51:38.54	257.38	3.87	-45.1	-59.7	3.8	1.49e+00	0	62	104	699400192	61	19629
2026-01-19 01:51:39.55	257.30	3.81	-45.1	-59.6	3.8	1.49e+00	0	62	104	699400192	61	19608
2026-01-19 01:51:40.56	257.21	3.75	-45.1	-59.6	3.8	1.49e+00	0	62	104	699400192	61	19542
2026-01-19 01:51:41.57	257.13	3.70	-45.1	-59.7	3.8	1.49e+00	0	62	104	699400192	61	19616
2026-01-19 01:51:42.58	257.05	3.64	-45.1	-59.7	3.8	1.49e+00	0	62	104	699400192	61	19616
2026-01-19 01:51:43.59	256.96	3.58	-45.2	-59.7	3.8	1.49e+00	0	62	104	699400192	61	19636
2026-01-19 01:51:44.61	256.88	3.53	-45.1	-59.7	3.8	1.49e+00	0	62	104	699400192	61	19652
2026-01-19 01:51:45.62	256.79	3.47	-45.1	-59.7	3.8	1.49e+00	0	62	104	699400192	61	19641
2026-01-19 01:51:46.63	256.71	3.41	-45.2	-59.7	3.8	1.49e+00	0	62	104	699400192	61	19671
2026-01-19 01:51:47.64	256.63	3.36	-45.1	-59.7	3.8	1.49e+00	0	62	104	699400192	61	19646
2026-01-19 01:51:48.65	256.55	3.30	-45.1	-59.6	3.8	1.49e+00	0	62	104	699400192	61	19599
2026-01-19 01:51:49.66	256.46	3.25	-45.1	-59.7	3.8	1.49e+00	0	62	104	699400192	61	19624
2026-01-19 01:51:50.67	256.38	3.19	-45.1	-59.7	3.8	1.49e+00	0	62	104	699400192	61	19615
2026-01-19 01:51:51.68	256.30	3.13	-45.2	-59.7	3.8	1.49e+00	0	62	104	699400192	61	19681
2026-01-19 01:51:52.69	256.22	3.08	-45.1	-59.7	3.8	1.49e+00	0	62	104	699400192	61	19615
2026-01-19 01:51:53.70	256.14	3.02	-45.1	-59.7	3.8	1.49e+00	0	62	104	699400192	61	19676
2026-01-19 01:51:54.71	256.06	2.97	-45.1	-59.7	3.8	1.49e+00	0	62	104	699400192	61	19662
2026-01-19 01:51:55.72	255.98	2.91	-45.1	-59.7	3.8	1.49e+00	0	62	104	699400192	61	19649
2026-01-19 01:51:56.73	255.90	2.86	-45.1	-59.7	3.8	1.49e+00	0	62	104	699400192	61	19639
2026-01-19 01:51:57.74	255.82	2.80	-45.1	-59.7	3.8	1.49e+00	0	62	104	699400192	61	19651
2026-01-19 01:51:58.75	255.74	2.75	-45.1	-59.7	3.8	1.49e+00	0	62	104	699400192	61	19683
2026-01-19 01:51:59.77	255.66	2.69	-45.1	-59.7	3.8	1.49e+00	0	62	104	699400192	61	19725
