passes_logs/2026/01/19/R2.0S_Moscow/R2.0S_Moscow__20260119_101044_NOAA_20_JPSS-1_rec.log

#Pass ID: 20260119_101044_NOAA 20 (JPSS-1)
#Satellite: NOAA 20 (JPSS-1)
#Configuration: NOAA 20
#almurnet v.1.7.20251203
#Start time: 2026-01-19 10:10:45

#Version: 2.2.20231116
#Station: R2.0S_Moscow
#Location: 37.707566 lon 55.798166 lat
#TLE: 1 43013U 17073A   26017.93796159  .00000077  00000+0  57252-4 0  9992
#TLE: 2 43013  98.7639 318.8464 0001390  34.9771 325.1496 14.19536703423157

#Time	Az	El	Level	Level2	SNR	BER	BlckErr	Temp	State	Recorded	gain1	gain2
2026-01-19 10:10:45.75	168.12	2.11	-43.9	-58.3	3.8	1.49e+00	0	54	0	0	59	18916
2026-01-19 10:10:46.75	168.13	2.17	-43.9	-58.3	3.8	1.49e+00	0	54	104	0	59	18877
2026-01-19 10:10:47.76	168.15	2.24	-43.9	-58.4	3.8	1.49e+00	0	54	104	0	59	18951
2026-01-19 10:10:48.77	168.16	2.30	-43.9	-58.3	3.8	1.49e+00	0	54	104	0	59	18892
2026-01-19 10:10:49.78	168.17	2.37	-43.9	-58.4	3.8	1.49e+00	0	54	104	0	59	18965
2026-01-19 10:10:50.79	168.19	2.43	-43.9	-58.3	3.8	1.49e+00	0	54	104	0	59	18899
2026-01-19 10:10:51.80	168.20	2.50	-43.9	-58.3	3.8	1.49e+00	0	55	104	0	59	18913
2026-01-19 10:10:52.81	168.22	2.56	-43.9	-58.3	3.8	1.49e+00	0	55	104	0	59	18938
2026-01-19 10:10:53.81	168.23	2.63	-43.9	-58.3	3.8	1.49e+00	0	55	104	0	59	18925
2026-01-19 10:10:54.82	168.25	2.70	-43.9	-58.3	3.8	1.49e+00	0	55	104	0	59	18854
2026-01-19 10:10:55.83	168.26	2.76	-43.9	-58.3	3.8	1.49e+00	0	55	104	0	59	18893
2026-01-19 10:10:56.84	168.28	2.83	-43.9	-58.3	3.8	1.49e+00	0	55	104	0	59	18917
2026-01-19 10:10:57.85	168.29	2.89	-43.9	-58.3	3.8	1.49e+00	0	55	104	0	59	18896
2026-01-19 10:10:58.86	168.31	2.96	-43.9	-58.3	3.8	1.49e+00	0	55	104	0	59	18888
2026-01-19 10:10:59.87	168.32	3.03	-43.9	-58.4	3.8	1.49e+00	0	55	104	0	59	18964
2026-01-19 10:11:00.88	168.34	3.10	-43.9	-58.4	3.8	1.49e+00	0	55	104	0	59	18956
2026-01-19 10:11:01.89	168.35	3.16	-43.9	-58.3	3.8	1.49e+00	0	55	104	0	59	18889
2026-01-19 10:11:02.90	168.37	3.23	-43.9	-58.3	3.8	1.49e+00	0	55	104	0	59	18904
2026-01-19 10:11:03.91	168.38	3.30	-43.9	-58.3	3.8	1.49e+00	0	55	104	0	59	18846
2026-01-19 10:11:04.92	168.40	3.37	-43.9	-58.3	3.8	1.49e+00	0	55	104	0	59	18892
2026-01-19 10:11:05.93	168.41	3.43	-43.9	-58.3	3.8	1.49e+00	0	55	104	0	59	18845
2026-01-19 10:11:06.95	168.43	3.50	-43.9	-58.3	3.8	1.49e+00	0	56	104	0	59	18848
2026-01-19 10:11:07.96	168.44	3.57	-43.9	-58.3	3.8	1.49e+00	0	55	104	0	59	18884
2026-01-19 10:11:08.97	168.46	3.64	-43.9	-58.4	3.8	1.49e+00	0	56	104	0	59	18967
2026-01-19 10:11:09.98	168.47	3.71	-43.9	-58.3	3.8	1.49e+00	0	56	104	0	59	18901
2026-01-19 10:11:10.99	168.49	3.78	-43.9	-58.3	3.8	1.49e+00	0	56	104	0	59	18814
2026-01-19 10:11:12.00	168.50	3.85	-43.9	-58.3	3.8	1.49e+00	0	56	104	0	59	18843
2026-01-19 10:11:13.01	168.52	3.92	-43.9	-58.3	3.8	1.49e+00	0	56	104	0	59	18904
2026-01-19 10:11:14.02	168.54	3.99	-43.9	-58.3	3.8	1.49e+00	0	56	104	0	59	18921
2026-01-19 10:11:15.03	168.55	4.05	-43.9	-58.3	3.8	1.49e+00	0	56	104	0	59	18742
2026-01-19 10:11:16.04	168.57	4.12	-43.9	-58.3	3.8	1.49e+00	0	56	104	0	59	18801
2026-01-19 10:11:17.05	168.58	4.19	-43.9	-58.2	3.8	1.49e+00	0	56	104	0	59	18613
2026-01-19 10:11:18.06	168.60	4.26	-43.9	-58.2	3.8	1.49e+00	0	56	104	0	59	18570
2026-01-19 10:11:19.07	168.62	4.33	-43.9	-58.1	3.8	1.49e+00	0	56	104	0	59	18420
2026-01-19 10:11:20.08	168.63	4.41	-43.9	-58.1	3.8	1.49e+00	0	56	104	0	59	18310
2026-01-19 10:11:21.09	168.65	4.48	-43.8	-57.9	3.8	1.49e+00	0	56	104	0	59	17890
2026-01-19 10:11:22.10	168.66	4.55	-43.9	-57.8	3.8	1.49e+00	0	56	104	0	59	17797
2026-01-19 10:11:23.11	168.68	4.62	-43.8	-57.6	3.8	1.49e+00	0	56	104	0	59	17325
2026-01-19 10:11:24.12	168.70	4.69	-43.8	-57.4	3.8	1.49e+00	0	57	104	0	59	16948
2026-01-19 10:11:25.13	168.71	4.76	-43.8	-57.3	3.8	1.49e+00	0	57	104	0	59	16707
2026-01-19 10:11:26.15	168.73	4.83	-43.8	-57.1	3.8	1.49e+00	0	57	104	0	59	16344
2026-01-19 10:11:27.16	168.75	4.90	-43.8	-56.9	3.8	1.49e+00	0	57	104	0	59	16050
2026-01-19 10:11:28.17	168.76	4.98	-43.8	-56.8	3.8	1.49e+00	0	57	104	0	59	15846
2026-01-19 10:11:29.18	168.78	5.05	-43.8	-56.6	3.8	1.49e+00	0	57	104	0	58	16383
2026-01-19 10:11:30.19	168.80	5.12	-43.8	-56.5	3.8	1.49e+00	0	57	104	0	58	16314
2026-01-19 10:11:31.20	168.81	5.19	-43.8	-56.4	3.8	1.49e+00	0	57	104	0	58	16044
2026-01-19 10:11:32.21	168.83	5.27	-43.8	-56.5	3.8	1.49e+00	0	57	104	0	58	16141
2026-01-19 10:11:33.22	168.85	5.34	-43.8	-56.2	3.8	1.49e+00	0	57	104	0	58	15679
2026-01-19 10:11:34.23	168.86	5.41	-43.7	-55.9	3.9	1.48e+00	0	57	104	0	58	15121
2026-01-19 10:11:35.24	168.88	5.49	-43.7	-55.7	4.0	1.47e+00	0	57	0	0	58	14739
2026-01-19 10:11:36.25	168.90	5.56	-43.7	-55.7	4.0	1.47e+00	0	57	104	0	58	14792
2026-01-19 10:11:37.26	168.92	5.63	-43.7	-55.8	4.0	1.47e+00	0	57	104	0	58	14928
2026-01-19 10:11:38.27	168.93	5.71	-43.7	-55.7	3.9	1.47e+00	0	57	104	0	58	14742
2026-01-19 10:11:39.29	168.95	5.78	-43.7	-55.5	4.0	1.48e+00	0	57	104	0	58	14411
2026-01-19 10:11:40.30	168.97	5.86	-43.7	-55.3	4.1	1.48e+00	0	57	0	0	58	14152
2026-01-19 10:11:41.31	168.99	5.93	-43.7	-55.5	3.9	1.44e+00	0	57	104	0	58	14501
2026-01-19 10:11:42.31	169.00	6.01	-43.7	-55.5	4.0	1.48e+00	0	57	104	0	58	14421
2026-01-19 10:11:43.33	169.02	6.08	-43.7	-55.4	4.0	1.47e+00	0	57	104	0	58	14287
2026-01-19 10:11:44.34	169.04	6.16	-43.7	-55.6	3.9	1.48e+00	0	58	104	0	58	14667
2026-01-19 10:11:45.35	169.06	6.23	-43.7	-55.6	4.0	1.48e+00	0	58	104	0	58	14623
2026-01-19 10:11:46.36	169.08	6.31	-43.7	-55.8	3.9	1.48e+00	0	58	104	0	58	14925
2026-01-19 10:11:47.37	169.09	6.38	-43.7	-56.0	3.8	1.48e+00	0	57	104	0	58	15262
2026-01-19 10:11:48.38	169.11	6.46	-43.7	-55.9	3.8	1.48e+00	0	58	104	0	58	15180
2026-01-19 10:11:49.39	169.13	6.54	-43.7	-56.1	3.8	1.48e+00	0	58	104	0	58	15434
2026-01-19 10:11:50.40	169.15	6.61	-43.8	-56.3	3.8	1.48e+00	0	58	104	0	58	15935
2026-01-19 10:11:51.41	169.17	6.69	-43.8	-56.3	3.8	1.49e+00	0	58	104	0	58	15904
2026-01-19 10:11:52.42	169.19	6.77	-43.8	-56.2	3.9	1.49e+00	0	58	104	0	58	15693
2026-01-19 10:11:53.43	169.20	6.84	-43.7	-55.8	4.0	1.48e+00	0	58	104	0	58	15045
2026-01-19 10:11:54.44	169.22	6.92	-43.7	-55.6	4.0	1.47e+00	0	58	104	0	58	14570
2026-01-19 10:11:55.45	169.24	7.00	-43.7	-55.3	3.9	1.46e+00	0	58	104	0	58	14077
2026-01-19 10:11:56.46	169.26	7.08	-43.6	-54.6	4.3	1.39e+00	0	58	0	0	58	12960
2026-01-19 10:11:57.47	169.28	7.16	-43.5	-53.8	4.5	1.31e+00	2	58	0	1048576	58	11887
2026-01-19 10:11:58.48	169.30	7.23	-43.5	-53.2	4.8	8.99e-01	0	58	0	2097152	58	11049
2026-01-19 10:11:59.49	169.32	7.31	-43.4	-52.3	5.3	6.60e-01	0	58	0	4194304	58	10032
2026-01-19 10:12:00.50	169.34	7.39	-43.3	-51.6	5.7	4.72e-01	0	58	0	6291456	58	9265
2026-01-19 10:12:01.51	169.36	7.47	-43.1	-50.8	6.3	3.05e-01	0	58	0	8388608	58	8425
2026-01-19 10:12:02.52	169.37	7.55	-43.0	-50.2	6.8	2.02e-01	0	58	0	10485760	58	7860
2026-01-19 10:12:03.53	169.39	7.63	-42.9	-49.9	7.1	1.47e-01	0	58	0	11534336	57	8015
2026-01-19 10:12:04.54	169.41	7.71	-42.7	-49.2	7.8	8.00e-02	0	58	0	13631488	57	7395
2026-01-19 10:12:05.55	169.43	7.79	-42.7	-49.0	7.9	7.38e-02	0	59	0	15728640	57	7286
2026-01-19 10:12:06.56	169.45	7.87	-42.6	-48.9	8.1	5.83e-02	0	59	0	17825792	57	7126
2026-01-19 10:12:07.58	169.47	7.95	-42.6	-48.7	8.3	6.16e-02	0	58	0	19922944	57	7024
2026-01-19 10:12:08.59	169.49	8.03	-42.6	-48.8	8.2	5.46e-02	0	58	0	20971520	57	7044
2026-01-19 10:12:09.60	169.51	8.11	-43.7	-53.3	5.0	5.57e-02	0	59	0	23068672	57	11915
2026-01-19 10:12:10.61	169.53	8.20	-44.0	-55.3	4.1	1.49e+00	0	59	104	23068672	58	14200
2026-01-19 10:12:11.62	169.55	8.28	-42.9	-50.0	7.5	3.17e-01	0	59	0	24117248	57	8153
2026-01-19 10:12:12.63	169.57	8.36	-43.4	-53.4	4.1	1.49e+00	0	59	104	24117248	57	11986
2026-01-19 10:12:13.64	169.59	8.44	-42.7	-48.4	8.9	1.18e+00	0	59	0	25165824	57	6737
2026-01-19 10:12:14.65	169.61	8.52	-42.7	-48.5	8.8	6.26e-02	0	59	0	26214400	57	6834
2026-01-19 10:12:15.66	169.63	8.61	-42.6	-48.2	9.0	2.60e-02	0	59	0	28311552	57	6591
2026-01-19 10:12:16.67	169.66	8.69	-42.6	-48.2	9.1	2.30e-02	0	59	0	30408704	57	6573
2026-01-19 10:12:17.68	169.68	8.77	-42.5	-48.0	9.2	2.00e-02	0	59	0	32505856	57	6490
2026-01-19 10:12:18.69	169.70	8.86	-42.5	-47.9	9.4	1.85e-02	0	59	0	34603008	57	6395
2026-01-19 10:12:19.70	169.72	8.94	-42.5	-47.9	9.4	1.70e-02	0	59	0	35651584	57	6397
2026-01-19 10:12:20.70	169.74	9.02	-42.5	-47.8	9.5	1.58e-02	0	59	0	37748736	56	6656
2026-01-19 10:12:21.71	169.76	9.11	-42.5	-47.8	9.5	1.44e-02	0	59	0	39845888	56	6649
2026-01-19 10:12:22.72	169.78	9.19	-42.5	-47.7	9.5	1.28e-02	0	59	0	41943040	56	6644
2026-01-19 10:12:23.73	169.80	9.28	-42.4	-47.6	9.7	1.17e-02	0	59	0	44040192	56	6564
2026-01-19 10:12:24.74	169.82	9.36	-42.5	-47.8	9.5	1.36e-02	0	59	0	45088768	56	6677
2026-01-19 10:12:25.75	169.85	9.45	-42.4	-47.6	9.8	1.17e-02	0	59	0	47185920	56	6543
2026-01-19 10:12:26.76	169.87	9.53	-42.5	-47.6	9.8	1.10e-02	0	59	0	49283072	56	6561
2026-01-19 10:12:27.77	169.89	9.62	-42.4	-47.6	9.8	9.67e-03	0	59	0	51380224	56	6519
2026-01-19 10:12:28.78	169.91	9.71	-42.4	-47.6	9.8	9.12e-03	0	59	0	53477376	56	6503
2026-01-19 10:12:29.79	169.93	9.79	-42.4	-47.5	9.9	9.42e-03	0	59	0	54525952	56	6472
2026-01-19 10:12:30.79	169.96	9.88	-42.4	-47.3	10.1	6.94e-03	0	59	0	56623104	56	6329
2026-01-19 10:12:31.80	169.98	9.97	-42.4	-47.5	9.9	8.36e-03	0	59	0	58720256	56	6482
2026-01-19 10:12:32.81	170.00	10.06	-42.4	-47.3	10.1	8.34e-03	0	59	0	60817408	56	6347
2026-01-19 10:12:33.82	170.02	10.14	-42.4	-47.3	10.2	6.73e-03	0	59	0	62914560	56	6296
2026-01-19 10:12:34.83	170.05	10.23	-42.4	-47.3	10.1	6.77e-03	0	59	0	63963136	56	6337
2026-01-19 10:12:35.84	170.07	10.32	-42.4	-47.2	10.3	6.43e-03	0	59	0	66060288	56	6242
2026-01-19 10:12:36.85	170.09	10.41	-42.4	-47.3	10.2	5.39e-03	0	59	0	68157440	56	6322
2026-01-19 10:12:37.86	170.11	10.50	-42.3	-47.1	10.4	5.82e-03	0	59	0	70254592	56	6189
2026-01-19 10:12:38.87	170.14	10.59	-42.3	-47.1	10.4	4.69e-03	0	60	0	72351744	56	6140
2026-01-19 10:12:39.88	170.16	10.68	-42.3	-47.1	10.4	5.00e-03	0	60	0	73400320	56	6176
2026-01-19 10:12:40.89	170.18	10.77	-42.4	-47.1	10.4	4.37e-03	0	59	0	75497472	56	6186
2026-01-19 10:12:41.90	170.21	10.86	-42.4	-47.1	10.4	4.27e-03	0	60	0	77594624	56	6175
2026-01-19 10:12:42.91	170.23	10.95	-42.3	-47.0	10.6	3.74e-03	0	60	0	79691776	56	6104
2026-01-19 10:12:43.92	170.26	11.04	-42.3	-47.0	10.6	3.38e-03	0	60	0	81788928	56	6068
2026-01-19 10:12:44.93	170.28	11.13	-42.3	-47.1	10.5	3.89e-03	0	60	0	82837504	56	6138
2026-01-19 10:12:45.94	170.30	11.23	-42.3	-47.1	10.5	3.74e-03	0	59	0	84934656	56	6136
2026-01-19 10:12:46.95	170.33	11.32	-42.3	-46.9	10.7	3.18e-03	0	59	0	87031808	56	6002
2026-01-19 10:12:47.95	170.35	11.41	-42.3	-46.9	10.7	2.63e-03	0	60	0	89128960	56	6050
2026-01-19 10:12:48.96	170.38	11.50	-42.3	-47.0	10.6	3.17e-03	0	60	0	91226112	56	6087
2026-01-19 10:12:49.98	170.40	11.60	-42.3	-46.9	10.7	2.82e-03	0	60	0	93323264	56	6005
2026-01-19 10:12:50.98	170.43	11.69	-42.3	-46.9	10.7	2.59e-03	0	60	0	94371840	56	6032
2026-01-19 10:12:51.99	170.45	11.78	-42.3	-46.9	10.7	2.88e-03	0	60	0	96468992	56	6039
2026-01-19 10:12:53.00	170.48	11.88	-42.3	-46.9	10.8	2.90e-03	0	60	0	98566144	56	6001
2026-01-19 10:12:54.01	170.50	11.97	-42.2	-46.7	11.0	2.50e-03	0	60	0	100663296	56	5874
2026-01-19 10:12:55.02	170.53	12.07	-42.3	-46.9	10.8	2.41e-03	0	60	0	102760448	56	5996
2026-01-19 10:12:56.03	170.55	12.16	-42.2	-46.7	11.0	2.28e-03	0	59	0	103809024	56	5879
2026-01-19 10:12:57.04	170.58	12.26	-42.2	-46.7	11.0	1.85e-03	0	60	0	105906176	56	5860
2026-01-19 10:12:58.05	170.60	12.35	-42.2	-46.6	11.1	1.77e-03	0	60	0	108003328	56	5838
2026-01-19 10:12:59.06	170.63	12.45	-42.2	-46.7	11.0	1.65e-03	0	60	0	110100480	56	5877
2026-01-19 10:13:00.07	170.66	12.55	-42.2	-46.6	11.1	1.71e-03	0	60	0	112197632	56	5841
2026-01-19 10:13:01.07	170.68	12.65	-42.2	-46.6	11.1	1.59e-03	0	60	0	113246208	56	5811
2026-01-19 10:13:02.08	170.71	12.74	-42.2	-46.5	11.2	1.57e-03	0	60	0	115343360	56	5751
2026-01-19 10:13:03.09	170.73	12.84	-42.2	-46.6	11.1	1.42e-03	0	60	0	117440512	56	5819
2026-01-19 10:13:04.10	170.76	12.94	-42.2	-46.6	11.1	1.58e-03	0	60	0	119537664	56	5846
2026-01-19 10:13:05.11	170.79	13.04	-42.3	-46.7	11.1	1.44e-03	0	60	0	121634816	56	5874
2026-01-19 10:13:06.12	170.81	13.14	-42.3	-46.7	11.0	1.63e-03	0	60	0	122683392	56	5906
2026-01-19 10:13:07.13	170.84	13.24	-42.2	-46.6	11.2	1.47e-03	0	60	0	124780544	56	5822
2026-01-19 10:13:08.14	170.87	13.34	-42.2	-46.6	11.2	1.35e-03	0	60	0	126877696	56	5807
2026-01-19 10:13:09.15	170.90	13.44	-42.1	-46.4	11.4	1.20e-03	0	60	0	128974848	56	5664
2026-01-19 10:13:10.16	170.92	13.54	-42.2	-46.4	11.4	9.62e-04	0	60	0	131072000	56	5681
2026-01-19 10:13:11.17	170.95	13.64	-42.2	-46.4	11.4	9.92e-04	0	60	0	132120576	56	5687
2026-01-19 10:13:12.18	170.98	13.74	-42.2	-46.4	11.4	9.33e-04	0	60	0	134217728	56	5719
2026-01-19 10:13:13.19	171.01	13.84	-42.2	-46.5	11.4	9.00e-04	0	60	0	136314880	56	5724
2026-01-19 10:13:14.20	171.04	13.95	-42.1	-46.3	11.5	8.83e-04	0	60	0	138412032	56	5628
2026-01-19 10:13:15.21	171.07	14.05	-42.2	-46.4	11.5	9.10e-04	0	60	0	140509184	56	5667
2026-01-19 10:13:16.22	171.09	14.15	-42.2	-46.3	11.5	7.45e-04	0	60	0	141557760	56	5648
2026-01-19 10:13:17.23	171.12	14.26	-42.1	-46.3	11.6	8.35e-04	0	60	0	143654912	56	5613
2026-01-19 10:13:18.24	171.15	14.36	-42.1	-46.2	11.7	6.75e-04	0	60	0	145752064	56	5558
2026-01-19 10:13:19.24	171.18	14.47	-42.1	-46.2	11.6	6.44e-04	0	60	0	147849216	56	5586
2026-01-19 10:13:20.25	171.21	14.57	-42.1	-46.2	11.6	6.97e-04	0	60	0	149946368	56	5574
2026-01-19 10:13:21.26	171.24	14.68	-42.1	-46.2	11.7	7.00e-04	0	60	0	150994944	56	5558
2026-01-19 10:13:22.27	171.27	14.78	-42.1	-46.2	11.7	6.04e-04	0	60	0	153092096	56	5564
2026-01-19 10:13:23.28	171.30	14.89	-42.1	-46.3	11.6	5.45e-04	0	60	0	155189248	56	5598
2026-01-19 10:13:24.29	171.33	15.00	-42.1	-46.2	11.7	5.95e-04	0	61	0	157286400	56	5558
2026-01-19 10:13:25.30	171.36	15.11	-42.1	-46.1	11.8	5.63e-04	0	60	0	159383552	56	5514
2026-01-19 10:13:26.31	171.39	15.21	-42.1	-46.1	11.8	5.00e-04	0	61	0	161480704	56	5522
2026-01-19 10:13:27.32	171.42	15.32	-42.1	-46.1	11.8	4.45e-04	0	60	0	162529280	56	5483
2026-01-19 10:13:28.33	171.45	15.43	-42.1	-46.1	11.8	4.49e-04	0	60	0	164626432	56	5528
2026-01-19 10:13:29.34	171.48	15.54	-42.1	-46.1	11.8	4.68e-04	0	60	0	166723584	56	5484
2026-01-19 10:13:30.35	171.52	15.65	-42.1	-46.1	11.8	4.00e-04	0	60	0	168820736	56	5489
2026-01-19 10:13:31.36	171.55	15.76	-42.1	-46.1	11.9	3.88e-04	0	60	0	170917888	56	5495
2026-01-19 10:13:32.37	171.58	15.87	-42.1	-46.2	11.8	4.32e-04	0	60	0	171966464	56	5529
2026-01-19 10:13:33.38	171.61	15.98	-42.1	-46.1	11.9	4.66e-04	0	61	0	174063616	56	5494
2026-01-19 10:13:34.39	171.64	16.10	-42.1	-46.1	11.8	4.44e-04	0	61	0	176160768	56	5514
2026-01-19 10:13:35.39	171.68	16.21	-42.1	-46.1	11.9	4.26e-04	0	60	0	178257920	56	5492
2026-01-19 10:13:36.40	171.71	16.32	-42.1	-46.1	11.9	4.43e-04	0	60	0	180355072	56	5489
2026-01-19 10:13:37.41	171.74	16.43	-42.1	-46.1	11.8	4.54e-04	0	61	0	181403648	56	5505
2026-01-19 10:13:38.42	171.77	16.55	-42.2	-46.2	11.7	5.52e-04	0	61	0	183500800	56	5591
2026-01-19 10:13:39.43	171.81	16.66	-42.1	-46.2	11.8	3.78e-04	0	60	0	185597952	56	5539
2026-01-19 10:13:40.44	171.84	16.78	-42.2	-46.3	11.7	5.34e-04	0	61	0	187695104	56	5625
2026-01-19 10:13:41.45	171.88	16.89	-42.2	-46.2	11.7	5.09e-04	0	60	0	189792256	56	5574
2026-01-19 10:13:42.46	171.91	17.01	-42.2	-46.2	11.8	4.86e-04	0	61	0	190840832	56	5573
2026-01-19 10:13:43.47	171.94	17.13	-42.2	-46.3	11.7	5.57e-04	0	61	0	192937984	56	5607
2026-01-19 10:13:44.48	171.98	17.24	-42.2	-46.2	11.8	5.90e-04	0	61	0	195035136	56	5574
2026-01-19 10:13:45.49	172.01	17.36	-42.2	-46.3	11.7	5.72e-04	0	61	0	197132288	56	5633
2026-01-19 10:13:46.50	172.05	17.48	-42.2	-46.3	11.7	6.48e-04	0	60	0	199229440	56	5641
2026-01-19 10:13:47.51	172.08	17.60	-42.2	-46.2	11.8	4.88e-04	0	61	0	200278016	56	5551
2026-01-19 10:13:48.52	172.12	17.72	-42.2	-46.2	11.8	5.35e-04	0	61	0	202375168	56	5592
2026-01-19 10:13:49.53	172.15	17.84	-42.3	-46.4	11.6	6.20e-04	0	61	0	204472320	56	5674
2026-01-19 10:13:50.54	172.19	17.96	-42.2	-46.3	11.7	5.93e-04	0	61	0	206569472	56	5637
2026-01-19 10:13:51.55	172.23	18.08	-42.3	-46.4	11.6	6.96e-04	0	61	0	208666624	56	5678
2026-01-19 10:13:52.56	172.26	18.20	-42.3	-46.4	11.6	6.57e-04	0	61	0	209715200	56	5669
2026-01-19 10:13:53.57	172.30	18.33	-42.3	-46.4	11.6	7.01e-04	0	61	0	211812352	56	5716
2026-01-19 10:13:54.58	172.34	18.45	-42.3	-46.4	11.6	7.38e-04	0	61	0	213909504	56	5709
2026-01-19 10:13:55.59	172.38	18.57	-42.3	-46.5	11.5	6.77e-04	0	61	0	216006656	56	5765
2026-01-19 10:13:56.60	172.41	18.70	-42.4	-46.5	11.5	7.29e-04	0	61	0	218103808	56	5786
2026-01-19 10:13:57.61	172.45	18.82	-42.4	-46.6	11.5	8.38e-04	0	61	0	219152384	56	5802
2026-01-19 10:13:58.62	172.49	18.95	-42.4	-46.6	11.4	9.75e-04	0	61	0	221249536	56	5832
2026-01-19 10:13:59.63	172.53	19.07	-42.4	-46.7	11.3	1.14e-03	0	61	0	223346688	56	5906
2026-01-19 10:14:00.64	172.57	19.20	-42.4	-46.7	11.3	1.26e-03	0	61	0	225443840	56	5912
2026-01-19 10:14:01.64	172.61	19.33	-42.4	-46.7	11.3	1.21e-03	0	61	0	227540992	56	5910
2026-01-19 10:14:02.65	172.65	19.45	-42.4	-46.7	11.3	1.12e-03	0	61	0	229638144	56	5887
2026-01-19 10:14:03.66	172.69	19.58	-42.4	-46.7	11.3	1.10e-03	0	61	0	230686720	56	5906
2026-01-19 10:14:04.67	172.73	19.71	-42.5	-46.8	11.3	1.19e-03	0	61	0	232783872	56	5942
2026-01-19 10:14:05.68	172.77	19.84	-42.5	-46.8	11.2	1.17e-03	0	61	0	234881024	56	5970
2026-01-19 10:14:06.69	172.81	19.97	-42.5	-46.9	11.2	1.44e-03	0	61	0	236978176	56	6006
2026-01-19 10:14:07.70	172.85	20.11	-42.5	-46.9	11.1	1.51e-03	0	61	0	239075328	56	6053
2026-01-19 10:14:08.71	172.89	20.24	-42.5	-46.9	11.1	1.57e-03	0	61	0	240123904	56	6033
2026-01-19 10:14:09.72	172.93	20.37	-42.6	-47.0	11.1	1.52e-03	0	61	0	242221056	56	6077
2026-01-19 10:14:10.73	172.97	20.50	-42.6	-47.1	10.9	1.87e-03	0	61	0	244318208	56	6154
2026-01-19 10:14:11.74	173.02	20.64	-42.6	-47.1	10.9	2.20e-03	0	61	0	246415360	56	6200
2026-01-19 10:14:12.75	173.06	20.77	-42.6	-47.0	11.0	1.85e-03	0	61	0	248512512	56	6121
2026-01-19 10:14:13.76	173.10	20.91	-42.7	-47.3	10.8	2.24e-03	0	61	0	249561088	56	6277
2026-01-19 10:14:14.77	173.14	21.05	-42.7	-47.3	10.7	2.92e-03	0	61	0	251658240	56	6346
2026-01-19 10:14:15.78	173.19	21.18	-42.7	-47.3	10.7	3.00e-03	0	61	0	253755392	56	6345
2026-01-19 10:14:16.79	173.23	21.32	-42.8	-47.4	10.6	3.06e-03	0	61	0	255852544	56	6418
2026-01-19 10:14:17.80	173.28	21.46	-42.8	-47.5	10.6	3.55e-03	0	61	0	257949696	56	6427
2026-01-19 10:14:18.81	173.32	21.60	-42.8	-47.5	10.6	3.46e-03	0	61	0	258998272	56	6439
2026-01-19 10:14:19.81	173.37	21.74	-42.8	-47.5	10.6	3.78e-03	0	61	0	261095424	56	6446
2026-01-19 10:14:20.82	173.41	21.88	-42.9	-47.6	10.4	3.64e-03	0	61	0	263192576	56	6552
2026-01-19 10:14:21.83	173.46	22.02	-42.8	-47.5	10.6	3.93e-03	0	61	0	265289728	56	6468
2026-01-19 10:14:22.84	173.51	22.16	-42.9	-47.7	10.4	3.99e-03	0	61	0	267386880	56	6595
2026-01-19 10:14:23.85	173.55	22.30	-42.8	-47.5	10.5	4.30e-03	0	61	0	268435456	56	6488
2026-01-19 10:14:24.86	173.60	22.45	-42.8	-47.4	10.7	3.16e-03	0	61	0	270532608	56	6413
2026-01-19 10:14:25.87	173.65	22.59	-42.8	-47.4	10.7	3.46e-03	0	61	0	272629760	56	6402
2026-01-19 10:14:26.88	173.69	22.74	-42.8	-47.4	10.7	3.20e-03	0	61	0	274726912	56	6416
2026-01-19 10:14:27.89	173.74	22.89	-42.8	-47.4	10.7	2.98e-03	0	61	0	276824064	56	6411
2026-01-19 10:14:28.90	173.79	23.03	-42.8	-47.4	10.7	2.84e-03	0	61	0	277872640	56	6372
2026-01-19 10:14:29.91	173.84	23.18	-42.7	-47.2	10.9	2.55e-03	0	61	0	279969792	56	6264
2026-01-19 10:14:30.92	173.89	23.33	-42.7	-47.3	10.8	2.49e-03	0	61	0	282066944	56	6340
2026-01-19 10:14:31.93	173.94	23.48	-42.7	-47.3	10.8	2.46e-03	0	61	0	284164096	56	6299
2026-01-19 10:14:32.94	173.99	23.63	-42.7	-47.3	10.9	2.64e-03	0	61	0	286261248	56	6285
2026-01-19 10:14:33.95	174.04	23.78	-42.7	-47.2	11.0	1.99e-03	0	61	0	287309824	56	6203
2026-01-19 10:14:34.96	174.10	23.93	-42.7	-47.2	10.9	1.73e-03	0	61	0	289406976	56	6226
2026-01-19 10:14:35.97	174.15	24.09	-42.7	-47.2	10.9	2.19e-03	0	61	0	291504128	56	6257
2026-01-19 10:14:36.98	174.20	24.24	-42.6	-47.0	11.2	1.73e-03	0	61	0	293601280	56	6069
2026-01-19 10:14:37.99	174.25	24.40	-42.6	-46.9	11.3	1.18e-03	0	61	0	295698432	56	6022
2026-01-19 10:14:39.00	174.31	24.55	-42.6	-46.8	11.3	1.12e-03	0	61	0	297795584	56	5972
2026-01-19 10:14:40.01	174.36	24.71	-42.5	-46.7	11.5	9.01e-04	0	61	0	298844160	56	5869
2026-01-19 10:14:41.02	174.42	24.87	-42.5	-46.7	11.5	9.61e-04	0	61	0	300941312	56	5900
2026-01-19 10:14:42.03	174.47	25.03	-42.4	-46.6	11.6	6.52e-04	0	61	0	303038464	56	5798
2026-01-19 10:14:43.04	174.53	25.18	-42.4	-46.5	11.7	5.62e-04	0	61	0	305135616	56	5780
2026-01-19 10:14:44.05	174.58	25.35	-42.4	-46.5	11.7	5.61e-04	0	61	0	307232768	56	5760
2026-01-19 10:14:45.06	174.64	25.51	-42.4	-46.4	11.7	4.78e-04	0	61	0	308281344	56	5719
2026-01-19 10:14:46.06	174.70	25.67	-42.4	-46.5	11.7	4.60e-04	0	61	0	310378496	56	5744
2026-01-19 10:14:47.07	174.75	25.83	-42.4	-46.6	11.7	5.52e-04	0	61	0	312475648	56	5792
2026-01-19 10:14:48.08	174.81	26.00	-42.4	-46.5	11.8	5.19e-04	0	61	0	314572800	56	5727
2026-01-19 10:14:49.09	174.87	26.16	-42.5	-46.6	11.6	6.15e-04	0	61	0	316669952	56	5849
2026-01-19 10:14:50.10	174.93	26.33	-42.4	-46.5	11.7	6.00e-04	0	61	0	317718528	56	5753
2026-01-19 10:14:51.11	174.99	26.49	-42.5	-46.7	11.6	5.94e-04	0	61	0	319815680	56	5856
2026-01-19 10:14:52.12	175.05	26.66	-42.5	-46.6	11.6	7.26e-04	0	62	0	321912832	56	5850
2026-01-19 10:14:53.13	175.11	26.83	-42.4	-46.6	11.6	7.27e-04	0	61	0	324009984	56	5838
2026-01-19 10:14:54.14	175.17	27.00	-42.4	-46.6	11.7	6.48e-04	0	61	0	326107136	56	5805
2026-01-19 10:14:55.15	175.24	27.17	-42.5	-46.8	11.4	8.65e-04	0	61	0	327155712	56	5976
2026-01-19 10:14:56.16	175.30	27.35	-42.6	-46.9	11.3	1.01e-03	0	61	0	329252864	56	6040
2026-01-19 10:14:57.17	175.36	27.52	-42.6	-47.1	11.1	1.26e-03	0	61	0	331350016	56	6148
2026-01-19 10:14:58.18	175.43	27.69	-42.7	-47.3	10.9	1.90e-03	0	61	0	333447168	56	6296
2026-01-19 10:14:59.19	175.49	27.87	-42.8	-47.4	10.8	2.09e-03	0	61	0	335544320	56	6415
2026-01-19 10:15:00.20	175.56	28.05	-42.9	-47.6	10.6	3.13e-03	0	62	0	336592896	56	6517
2026-01-19 10:15:01.21	175.63	28.22	-42.9	-47.6	10.6	3.51e-03	0	61	0	338690048	56	6567
2026-01-19 10:15:02.22	175.69	28.40	-42.9	-47.7	10.6	3.56e-03	0	61	0	340787200	56	6593
2026-01-19 10:15:03.22	175.76	28.58	-42.9	-47.7	10.5	4.33e-03	0	61	0	342884352	56	6628
2026-01-19 10:15:04.23	175.83	28.76	-43.0	-47.8	10.4	4.88e-03	0	61	0	344981504	56	6679
2026-01-19 10:15:05.24	175.90	28.95	-43.0	-48.0	10.3	5.19e-03	0	61	0	346030080	56	6802
2026-01-19 10:15:06.25	175.97	29.13	-43.1	-48.0	10.2	6.26e-03	0	62	0	348127232	56	6862
2026-01-19 10:15:07.26	176.04	29.31	-43.2	-48.3	9.9	7.69e-03	0	61	0	350224384	56	7096
2026-01-19 10:15:08.27	176.11	29.50	-43.2	-48.3	9.9	8.55e-03	0	61	0	352321536	56	7083
2026-01-19 10:15:09.28	176.18	29.69	-43.2	-48.4	9.8	9.25e-03	0	61	0	354418688	57	6730
2026-01-19 10:15:10.29	176.26	29.87	-43.2	-48.4	9.8	9.59e-03	0	62	0	355467264	57	6747
2026-01-19 10:15:11.30	176.33	30.06	-43.3	-48.5	9.7	1.10e-02	0	61	0	357564416	57	6802
2026-01-19 10:15:12.31	176.41	30.25	-43.3	-48.6	9.6	1.20e-02	0	61	0	359661568	57	6885
2026-01-19 10:15:13.31	176.48	30.44	-43.3	-48.6	9.6	1.39e-02	0	62	0	361758720	57	6933
2026-01-19 10:15:14.32	176.56	30.64	-43.3	-48.5	9.7	1.23e-02	0	61	0	363855872	57	6834
2026-01-19 10:15:15.33	176.64	30.83	-43.4	-48.7	9.5	1.23e-02	0	61	0	364904448	57	7009
2026-01-19 10:15:16.34	176.71	31.03	-43.4	-48.7	9.5	1.31e-02	0	62	0	367001600	57	6980
2026-01-19 10:15:17.35	176.79	31.22	-43.3	-48.6	9.6	1.37e-02	0	61	0	369098752	57	6940
2026-01-19 10:15:18.36	176.87	31.42	-43.3	-48.6	9.5	1.32e-02	0	62	0	371195904	57	6949
2026-01-19 10:15:19.37	176.96	31.62	-43.3	-48.6	9.5	1.39e-02	0	62	0	373293056	57	6935
2026-01-19 10:15:20.38	177.04	31.82	-43.3	-48.6	9.5	1.39e-02	0	61	0	374341632	57	6927
2026-01-19 10:15:21.39	177.12	32.03	-43.3	-48.5	9.7	1.17e-02	0	61	0	376438784	57	6868
2026-01-19 10:15:22.40	177.20	32.23	-43.3	-48.5	9.7	1.28e-02	0	61	0	378535936	57	6815
2026-01-19 10:15:23.41	177.29	32.43	-43.3	-48.4	9.8	1.14e-02	0	61	0	380633088	57	6746
2026-01-19 10:15:24.42	177.38	32.64	-43.2	-48.4	9.9	9.59e-03	0	61	0	382730240	57	6727
2026-01-19 10:15:25.43	177.46	32.85	-43.2	-48.3	9.9	8.85e-03	0	62	0	383778816	57	6648
2026-01-19 10:15:26.44	177.55	33.06	-43.2	-48.1	10.1	6.02e-03	0	62	0	385875968	57	6531
2026-01-19 10:15:27.45	177.64	33.27	-43.1	-48.0	10.3	6.27e-03	0	61	0	387973120	57	6442
2026-01-19 10:15:28.45	177.73	33.47	-43.0	-47.8	10.4	5.37e-03	0	61	0	390070272	57	6319
2026-01-19 10:15:29.47	177.82	33.69	-42.9	-47.6	10.7	3.34e-03	0	61	0	392167424	57	6137
2026-01-19 10:15:30.47	177.92	33.90	-42.8	-47.2	11.1	1.93e-03	0	62	0	394264576	57	5890
2026-01-19 10:15:31.49	178.01	34.12	-42.7	-47.0	11.3	1.41e-03	0	62	0	395313152	57	5760
2026-01-19 10:15:32.50	178.11	34.34	-42.7	-47.0	11.3	1.14e-03	0	62	0	397410304	57	5740
2026-01-19 10:15:33.51	178.20	34.56	-42.6	-46.8	11.6	7.91e-04	0	62	0	399507456	57	5619
2026-01-19 10:15:34.52	178.30	34.78	-42.6	-46.7	11.6	5.59e-04	0	62	0	401604608	57	5581
2026-01-19 10:15:35.53	178.40	35.00	-42.6	-46.7	11.6	7.56e-04	0	61	0	403701760	57	5572
2026-01-19 10:15:36.53	178.50	35.22	-42.6	-46.8	11.5	7.90e-04	0	62	0	404750336	57	5633
2026-01-19 10:15:37.54	178.60	35.44	-42.7	-46.9	11.4	9.46e-04	0	62	0	406847488	57	5680
2026-01-19 10:15:38.55	178.70	35.67	-42.6	-46.8	11.5	8.92e-04	0	62	0	408944640	57	5643
2026-01-19 10:15:39.56	178.81	35.90	-42.7	-46.9	11.4	9.66e-04	0	61	0	411041792	57	5704
2026-01-19 10:15:40.57	178.92	36.12	-42.6	-46.8	11.5	8.67e-04	0	62	0	413138944	57	5617
2026-01-19 10:15:41.58	179.02	36.36	-42.5	-46.6	11.7	7.17e-04	0	62	0	414187520	57	5525
2026-01-19 10:15:42.59	179.13	36.59	-42.5	-46.6	11.8	5.13e-04	0	62	0	416284672	57	5480
2026-01-19 10:15:43.60	179.24	36.82	-42.5	-46.6	11.8	4.50e-04	0	62	0	418381824	56	5796
2026-01-19 10:15:44.61	179.35	37.06	-42.6	-46.7	11.7	4.49e-04	0	61	0	420478976	56	5868
2026-01-19 10:15:45.62	179.47	37.29	-42.6	-46.7	11.6	6.29e-04	0	62	0	422576128	56	5918
2026-01-19 10:15:46.63	179.58	37.53	-42.6	-46.8	11.5	6.34e-04	0	61	0	423624704	56	5944
2026-01-19 10:15:47.63	179.70	37.77	-42.7	-46.9	11.4	8.15e-04	0	62	0	425721856	56	6022
2026-01-19 10:15:48.64	179.82	38.01	-42.8	-47.1	11.2	1.28e-03	0	62	0	427819008	56	6162
2026-01-19 10:15:49.65	179.94	38.25	-42.8	-47.1	11.2	1.52e-03	0	62	0	429916160	56	6148
2026-01-19 10:15:50.66	180.06	38.50	-42.8	-47.2	11.1	1.12e-03	0	62	0	432013312	56	6219
2026-01-19 10:15:51.67	180.18	38.74	-42.8	-47.1	11.2	1.44e-03	0	62	0	433061888	56	6171
2026-01-19 10:15:52.69	180.31	38.99	-42.7	-47.0	11.3	1.25e-03	0	62	0	435159040	56	6110
2026-01-19 10:15:53.70	180.44	39.24	-42.7	-47.0	11.3	1.43e-03	0	62	0	437256192	56	6121
2026-01-19 10:15:54.71	180.57	39.50	-42.8	-47.2	11.2	1.15e-03	0	62	0	439353344	56	6209
2026-01-19 10:15:55.71	180.70	39.75	-42.9	-47.3	11.0	1.66e-03	0	62	0	441450496	56	6327
2026-01-19 10:15:56.72	180.83	40.00	-43.0	-47.6	10.7	2.42e-03	0	62	0	442499072	56	6497
2026-01-19 10:15:57.73	180.96	40.26	-43.1	-47.7	10.5	3.54e-03	0	62	0	444596224	56	6646
2026-01-19 10:15:58.74	181.10	40.52	-43.2	-48.1	10.2	5.74e-03	0	62	0	446693376	57	6517
2026-01-19 10:15:59.75	181.24	40.78	-43.3	-48.3	10.0	7.13e-03	0	61	0	448790528	57	6679
2026-01-19 10:16:00.76	181.38	41.04	-43.2	-48.2	10.1	7.45e-03	0	62	0	450887680	57	6622
2026-01-19 10:16:01.77	181.53	41.30	-43.1	-47.9	10.4	4.71e-03	0	62	0	451936256	57	6389
2026-01-19 10:16:02.78	181.67	41.56	-43.0	-47.7	10.6	3.54e-03	0	62	0	454033408	57	6222
2026-01-19 10:16:03.79	181.82	41.83	-42.9	-47.4	10.9	2.66e-03	0	62	0	456130560	57	6027
2026-01-19 10:16:04.80	181.97	42.10	-43.0	-47.6	10.8	2.42e-03	0	62	0	458227712	57	6163
2026-01-19 10:16:05.81	182.13	42.37	-43.0	-47.7	10.6	3.48e-03	0	62	0	460324864	57	6250
2026-01-19 10:16:06.82	182.28	42.64	-43.2	-48.0	10.3	3.92e-03	0	62	0	462422016	57	6467
2026-01-19 10:16:07.83	182.44	42.92	-43.2	-48.2	10.1	5.70e-03	0	62	0	463470592	57	6584
2026-01-19 10:16:08.84	182.60	43.19	-43.3	-48.3	9.9	9.09e-03	0	62	0	465567744	57	6707
2026-01-19 10:16:09.85	182.77	43.47	-43.3	-48.4	10.0	8.68e-03	0	62	0	467664896	57	6747
2026-01-19 10:16:10.86	182.94	43.75	-43.3	-48.2	10.0	8.67e-03	0	62	0	469762048	57	6643
2026-01-19 10:16:11.87	183.11	44.03	-43.2	-48.2	10.1	7.89e-03	0	62	0	471859200	57	6596
2026-01-19 10:16:12.87	183.28	44.31	-43.2	-48.2	10.0	6.72e-03	0	62	0	472907776	57	6613
2026-01-19 10:16:13.88	183.45	44.59	-43.2	-48.1	10.2	7.28e-03	0	62	0	475004928	57	6553
2026-01-19 10:16:14.89	183.63	44.88	-43.4	-48.5	9.7	9.76e-03	0	62	0	477102080	57	6872
2026-01-19 10:16:15.90	183.81	45.16	-43.5	-48.9	9.4	1.20e-02	0	62	0	479199232	57	7134
2026-01-19 10:16:16.91	184.00	45.45	-43.6	-49.1	9.1	1.97e-02	0	62	0	481296384	57	7359
2026-01-19 10:16:17.92	184.19	45.75	-43.6	-49.1	9.2	2.43e-02	0	62	0	482344960	57	7346
2026-01-19 10:16:18.93	184.38	46.04	-43.5	-49.0	9.3	2.03e-02	0	62	0	484442112	57	7208
2026-01-19 10:16:19.94	184.58	46.33	-43.6	-49.2	9.1	1.88e-02	0	62	0	486539264	57	7402
2026-01-19 10:16:20.95	184.77	46.63	-43.6	-49.2	9.0	2.21e-02	0	62	0	488636416	57	7419
2026-01-19 10:16:21.96	184.98	46.93	-43.7	-49.4	8.9	2.81e-02	0	62	0	490733568	57	7552
2026-01-19 10:16:22.97	185.19	47.23	-43.8	-49.7	8.6	3.71e-02	0	62	0	491782144	58	7414
2026-01-19 10:16:23.98	185.40	47.53	-43.7	-49.6	8.6	3.84e-02	0	62	0	493879296	58	7346
2026-01-19 10:16:24.99	185.61	47.83	-43.7	-49.3	8.9	3.17e-02	0	62	0	495976448	58	7107
2026-01-19 10:16:26.00	185.83	48.14	-43.5	-49.0	9.3	2.48e-02	0	62	0	498073600	58	6826
2026-01-19 10:16:27.01	186.05	48.45	-43.2	-48.3	9.9	1.31e-02	0	62	0	500170752	58	6342
2026-01-19 10:16:28.02	186.28	48.75	-43.2	-48.0	10.3	6.61e-03	0	62	0	501219328	58	6063
2026-01-19 10:16:29.03	186.51	49.06	-43.1	-47.9	10.5	3.81e-03	0	62	0	503316480	58	6011
2026-01-19 10:16:30.04	186.75	49.38	-43.2	-47.9	10.5	3.69e-03	0	62	0	505413632	58	6023
2026-01-19 10:16:31.04	186.99	49.69	-43.2	-47.9	10.4	4.06e-03	0	62	0	507510784	58	6054
2026-01-19 10:16:32.05	187.24	50.00	-43.0	-47.6	10.8	3.23e-03	0	62	0	509607936	58	5809
2026-01-19 10:16:33.06	187.49	50.32	-42.8	-47.1	11.2	1.69e-03	0	62	0	510656512	57	5829
2026-01-19 10:16:34.07	187.75	50.64	-42.7	-46.9	11.6	1.06e-03	0	62	0	512753664	56	5996
2026-01-19 10:16:35.08	188.01	50.96	-42.4	-46.1	12.3	3.24e-04	0	62	0	514850816	56	5513
2026-01-19 10:16:36.09	188.28	51.28	-42.1	-45.7	12.7	1.23e-04	0	62	0	516947968	56	5270
2026-01-19 10:16:37.10	188.55	51.60	-41.7	-45.1	13.2	4.42e-05	0	62	0	519045120	55	5193
2026-01-19 10:16:38.11	188.83	51.93	-41.7	-45.0	13.3	1.60e-05	0	62	0	520093696	55	5119
2026-01-19 10:16:39.12	189.12	52.25	-41.5	-44.8	13.6	1.37e-05	0	62	0	522190848	55	4987
2026-01-19 10:16:40.13	189.41	52.58	-41.3	-44.5	13.8	6.80e-06	0	62	0	524288000	54	5102
2026-01-19 10:16:41.14	189.71	52.91	-41.2	-44.2	14.1	2.20e-06	0	62	0	526385152	54	4975
2026-01-19 10:16:42.15	190.01	53.24	-41.2	-44.1	14.3	0.00e+00	0	62	0	528482304	54	4894
2026-01-19 10:16:43.16	190.33	53.57	-41.0	-43.9	14.4	2.20e-06	0	62	0	530579456	54	4799
2026-01-19 10:16:44.17	190.65	53.91	-41.0	-43.9	14.5	0.00e+00	0	62	0	531628032	54	4783
2026-01-19 10:16:45.18	190.97	54.24	-40.8	-43.7	14.7	0.00e+00	0	62	0	533725184	53	4937
2026-01-19 10:16:46.19	191.31	54.58	-40.8	-43.6	14.7	0.00e+00	0	62	0	535822336	53	4888
2026-01-19 10:16:47.20	191.65	54.91	-40.9	-43.8	14.6	2.20e-06	0	62	0	537919488	53	4997
2026-01-19 10:16:48.21	192.00	55.25	-41.1	-44.0	14.4	7.00e-07	0	62	0	540016640	53	5106
2026-01-19 10:16:49.21	192.36	55.59	-41.1	-44.1	14.3	0.00e+00	0	62	0	541065216	53	5174
2026-01-19 10:16:50.22	192.73	55.93	-41.3	-44.3	14.0	7.00e-07	0	62	0	543162368	53	5339
2026-01-19 10:16:51.23	193.10	56.27	-41.4	-44.6	13.8	2.20e-06	0	62	0	545259520	53	5466
2026-01-19 10:16:52.24	193.49	56.61	-41.5	-44.7	13.6	3.00e-06	0	62	0	547356672	53	5547
2026-01-19 10:16:53.25	193.88	56.95	-41.6	-44.9	13.4	7.60e-06	0	62	0	549453824	53	5693
2026-01-19 10:16:54.26	194.29	57.30	-41.5	-44.7	13.6	5.30e-06	0	62	0	550502400	53	5538
2026-01-19 10:16:55.27	194.70	57.64	-41.5	-44.7	13.6	7.60e-06	0	62	0	552599552	53	5551
2026-01-19 10:16:56.28	195.13	57.99	-41.5	-44.7	13.6	9.10e-06	0	62	0	554696704	53	5579
2026-01-19 10:16:57.28	195.56	58.33	-41.5	-44.6	13.6	6.10e-06	0	62	0	556793856	53	5527
2026-01-19 10:16:58.29	196.01	58.67	-41.4	-44.5	13.8	6.80e-06	0	62	0	558891008	53	5419
2026-01-19 10:16:59.30	196.47	59.02	-41.3	-44.4	13.9	6.80e-06	0	62	0	559939584	53	5383
2026-01-19 10:17:00.31	196.95	59.37	-41.2	-44.2	14.1	0.00e+00	0	62	0	562036736	53	5242
2026-01-19 10:17:01.32	197.43	59.71	-41.1	-43.9	14.4	0.00e+00	0	62	0	564133888	53	5084
2026-01-19 10:17:02.33	197.93	60.06	-40.8	-43.5	15.0	0.00e+00	0	62	0	566231040	53	4815
2026-01-19 10:17:03.34	198.44	60.41	-40.5	-43.1	15.3	0.00e+00	0	62	0	568328192	52	4891
2026-01-19 10:17:04.35	198.97	60.75	-40.5	-43.0	15.4	0.00e+00	0	62	0	569376768	52	4848
2026-01-19 10:17:05.36	199.51	61.10	-40.6	-43.1	15.4	0.00e+00	0	62	0	571473920	51	5181
2026-01-19 10:17:06.37	200.06	61.45	-40.4	-42.9	15.6	0.00e+00	0	62	0	573571072	51	5061
2026-01-19 10:17:07.38	200.63	61.79	-40.4	-42.9	15.6	0.00e+00	0	62	0	575668224	51	5043
2026-01-19 10:17:08.39	201.22	62.14	-40.5	-43.0	15.5	0.00e+00	0	62	0	577765376	51	5107
2026-01-19 10:17:09.40	201.82	62.48	-40.5	-43.0	15.5	0.00e+00	0	62	0	578813952	51	5127
2026-01-19 10:17:10.41	202.44	62.82	-40.5	-43.0	15.4	0.00e+00	0	62	0	580911104	51	5119
2026-01-19 10:17:11.42	203.08	63.16	-40.4	-42.9	15.6	0.00e+00	0	62	0	583008256	51	5050
2026-01-19 10:17:12.43	203.74	63.50	-40.5	-43.0	15.4	0.00e+00	0	62	0	585105408	51	5123
2026-01-19 10:17:13.44	204.41	63.84	-40.7	-43.3	15.1	0.00e+00	0	62	0	587202560	51	5338
2026-01-19 10:17:14.45	205.11	64.18	-41.1	-44.1	14.2	7.00e-07	0	62	0	588251136	52	5512
2026-01-19 10:17:15.46	205.83	64.51	-41.6	-45.2	13.1	5.30e-06	0	62	0	590348288	54	5550
2026-01-19 10:17:16.47	206.56	64.85	-42.0	-45.6	12.7	7.47e-05	0	62	0	592445440	54	5846
2026-01-19 10:17:17.48	207.32	65.18	-42.0	-45.6	12.6	7.78e-05	0	62	0	594542592	54	5834
2026-01-19 10:17:18.49	208.10	65.50	-42.1	-45.8	12.4	1.28e-04	0	62	0	596639744	54	5981
2026-01-19 10:17:19.50	208.91	65.83	-42.4	-46.3	12.0	2.02e-04	0	62	0	598736896	55	5947
2026-01-19 10:17:20.51	209.74	66.15	-42.5	-46.7	11.6	5.54e-04	0	62	0	599785472	55	6220
2026-01-19 10:17:21.52	210.59	66.47	-42.7	-47.0	11.2	8.54e-04	0	62	0	601882624	55	6463
2026-01-19 10:17:22.53	211.47	66.78	-43.0	-47.6	10.8	2.00e-03	0	62	0	603979776	56	6499
2026-01-19 10:17:23.54	212.38	67.09	-43.0	-47.5	10.9	2.41e-03	0	62	0	606076928	56	6425
2026-01-19 10:17:24.55	213.31	67.40	-42.8	-47.4	10.9	2.47e-03	0	62	0	608174080	56	6415
2026-01-19 10:17:25.56	214.27	67.70	-42.7	-46.9	11.4	1.39e-03	0	62	0	609222656	56	6034
2026-01-19 10:17:26.57	215.26	68.00	-42.6	-46.5	11.9	4.76e-04	0	62	0	611319808	56	5764
2026-01-19 10:17:27.58	216.27	68.29	-42.7	-46.7	11.7	5.00e-04	0	62	0	613416960	56	5917
2026-01-19 10:17:28.59	217.32	68.58	-42.7	-47.1	11.3	6.75e-04	0	62	0	615514112	56	6162
2026-01-19 10:17:29.60	218.40	68.86	-43.0	-47.8	10.6	3.02e-03	0	62	0	617611264	56	6668
2026-01-19 10:17:30.61	219.51	69.13	-42.4	-47.6	10.5	3.20e-03	0	62	0	618659840	55	6945
2026-01-19 10:17:31.62	220.65	69.40	-43.1	-47.9	10.5	4.93e-03	0	62	0	620756992	57	6357
2026-01-19 10:17:32.63	221.82	69.66	-43.2	-48.0	10.3	4.20e-03	0	62	0	622854144	57	6466
2026-01-19 10:17:33.64	223.02	69.92	-43.1	-47.7	10.6	3.78e-03	0	62	0	624951296	57	6269
2026-01-19 10:17:34.65	224.26	70.16	-43.1	-47.8	10.5	3.15e-03	0	62	0	627048448	56	6682
2026-01-19 10:17:35.66	225.52	70.40	-43.2	-48.1	10.3	3.67e-03	0	62	0	628097024	56	6897
2026-01-19 10:17:36.67	226.82	70.63	-43.1	-48.0	10.3	6.51e-03	0	62	0	630194176	57	6438
2026-01-19 10:17:37.68	228.16	70.85	-43.2	-48.2	10.1	5.65e-03	0	62	0	632291328	57	6608
2026-01-19 10:17:38.69	229.52	71.06	-43.4	-48.7	9.6	9.82e-03	0	62	0	634388480	57	6988
2026-01-19 10:17:39.69	230.90	71.26	-43.3	-48.4	9.9	1.25e-02	0	62	0	636485632	57	6776
2026-01-19 10:17:40.70	232.33	71.45	-43.2	-48.1	10.2	7.57e-03	0	62	0	637534208	57	6519
2026-01-19 10:17:41.71	233.79	71.63	-43.0	-47.5	10.9	3.60e-03	0	62	0	639631360	57	6070
2026-01-19 10:17:42.72	235.28	71.80	-42.9	-47.3	11.0	2.25e-03	0	62	0	641728512	57	5978
2026-01-19 10:17:43.73	236.79	71.95	-42.8	-47.2	11.0	1.57e-03	0	62	0	643825664	57	5911
2026-01-19 10:17:44.74	238.33	72.10	-42.9	-47.4	11.0	2.02e-03	0	62	0	645922816	56	6374
2026-01-19 10:17:45.75	239.90	72.23	-43.0	-47.6	10.7	3.29e-03	0	62	0	646971392	56	6557
2026-01-19 10:17:46.76	241.49	72.35	-42.7	-46.8	11.4	2.26e-03	0	62	0	649068544	56	5960
2026-01-19 10:17:47.77	243.11	72.46	-42.5	-46.4	11.9	4.10e-04	0	62	0	651165696	56	5710
2026-01-19 10:17:48.78	244.74	72.55	-42.3	-46.3	11.9	2.46e-04	0	62	0	653262848	55	5991
2026-01-19 10:17:49.79	246.39	72.63	-42.4	-46.5	11.7	5.27e-04	0	62	0	655360000	55	6112
2026-01-19 10:17:50.80	248.05	72.70	-42.1	-45.8	12.5	2.90e-04	0	62	0	656408576	55	5596
2026-01-19 10:17:51.81	249.73	72.75	-41.8	-45.3	13.0	8.92e-05	0	62	0	658505728	54	5600
2026-01-19 10:17:52.82	251.42	72.79	-41.8	-45.2	13.1	1.75e-04	0	62	0	660602880	54	5541
2026-01-19 10:17:53.83	253.11	72.82	-41.8	-45.3	13.0	5.26e-05	0	62	0	662700032	54	5609
2026-01-19 10:17:54.84	254.80	72.83	-41.6	-44.8	13.4	2.28e-05	0	62	0	664797184	54	5337
2026-01-19 10:17:55.85	256.50	72.83	-41.2	-44.3	13.9	7.60e-06	0	62	0	666894336	53	5286
2026-01-19 10:17:56.85	258.18	72.81	-41.2	-44.2	14.0	7.00e-07	0	62	0	667942912	53	5254
2026-01-19 10:17:57.86	259.87	72.78	-41.7	-45.0	13.3	5.30e-06	0	62	0	670040064	53	5772
2026-01-19 10:17:58.87	261.55	72.73	-42.4	-46.4	11.9	2.59e-04	0	62	0	672137216	55	5994
2026-01-19 10:17:59.88	263.22	72.67	-42.2	-46.1	12.1	4.33e-04	0	62	0	674234368	55	5800
2026-01-19 10:18:00.89	264.88	72.60	-41.8	-45.3	12.9	1.06e-04	0	62	0	676331520	54	5612
2026-01-19 10:18:01.90	266.52	72.51	-41.5	-45.4	12.8	4.42e-05	0	62	0	677380096	54	5720
2026-01-19 10:18:02.91	268.14	72.41	-42.5	-46.6	11.7	2.06e-04	0	62	0	679477248	55	6171
2026-01-19 10:18:03.92	269.74	72.29	-42.8	-47.5	10.6	2.18e-03	0	62	0	681574400	55	6856
2026-01-19 10:18:04.93	271.32	72.17	-43.0	-47.8	10.5	5.78e-03	0	62	0	683671552	56	6684
2026-01-19 10:18:05.94	272.88	72.03	-42.8	-47.0	11.3	1.59e-03	0	62	0	685768704	56	6100
2026-01-19 10:18:06.95	274.41	71.88	-42.7	-46.9	11.4	1.19e-03	0	62	0	686817280	56	6010
2026-01-19 10:18:07.96	275.91	71.72	-42.7	-46.8	11.6	9.27e-04	0	62	0	688914432	56	5931
2026-01-19 10:18:08.97	277.38	71.54	-42.4	-46.5	11.7	6.55e-04	0	62	0	691011584	55	6069
2026-01-19 10:18:09.98	278.82	71.36	-42.5	-46.7	11.5	7.87e-04	0	62	0	693108736	55	6256
2026-01-19 10:18:10.99	280.23	71.16	-42.5	-46.7	11.5	9.30e-04	0	62	0	695205888	55	6230
2026-01-19 10:18:12.00	281.61	70.96	-42.9	-47.7	10.7	2.16e-03	0	62	0	696254464	56	6590
2026-01-19 10:18:13.01	282.96	70.74	-42.5	-47.9	10.4	5.12e-03	0	62	0	698351616	56	6776
2026-01-19 10:18:14.02	284.27	70.52	-42.7	-46.7	11.6	2.07e-03	0	62	0	700448768	56	5919
2026-01-19 10:18:15.02	285.54	70.29	-42.2	-46.6	11.6	6.00e-04	0	62	0	702545920	55	6153
2026-01-19 10:18:16.03	286.80	70.05	-43.3	-48.3	10.0	3.38e-03	0	62	0	704643072	57	6716
2026-01-19 10:18:17.04	288.01	69.80	-43.5	-48.7	9.6	1.34e-02	0	62	0	705691648	57	7023
2026-01-19 10:18:18.05	289.20	69.54	-43.1	-47.8	10.5	5.61e-03	0	62	0	707788800	57	6313
2026-01-19 10:18:19.06	290.35	69.28	-43.0	-47.5	10.8	2.52e-03	0	62	0	709885952	56	6439
2026-01-19 10:18:20.07	291.48	69.01	-42.7	-47.0	11.4	2.00e-03	0	62	0	711983104	56	6081
2026-01-19 10:18:21.08	292.57	68.73	-42.3	-46.8	11.4	6.55e-04	0	62	0	714080256	55	6308
2026-01-19 10:18:22.09	293.63	68.45	-43.4	-48.5	9.8	5.54e-03	0	62	0	715128832	57	6848
2026-01-19 10:18:23.10	294.66	68.16	-43.6	-49.1	9.2	1.63e-02	0	62	0	717225984	57	7302
2026-01-19 10:18:24.11	295.66	67.86	-43.6	-49.2	9.0	2.42e-02	0	62	0	719323136	57	7395
2026-01-19 10:18:25.12	296.64	67.57	-43.9	-49.9	8.3	4.10e-02	0	62	0	721420288	58	7618
2026-01-19 10:18:26.13	297.58	67.26	-43.6	-49.4	8.8	3.85e-02	0	62	0	723517440	58	7187
2026-01-19 10:18:27.14	298.50	66.95	-43.7	-49.5	8.8	2.88e-02	0	62	0	724566016	58	7215
2026-01-19 10:18:28.15	299.39	66.64	-43.8	-49.8	8.4	3.66e-02	0	62	0	726663168	58	7478
2026-01-19 10:18:29.16	300.26	66.33	-44.1	-50.6	7.6	8.27e-02	0	62	0	728760320	58	8244
2026-01-19 10:18:30.17	301.10	66.01	-43.7	-49.2	9.0	5.61e-02	0	62	0	730857472	58	7028
2026-01-19 10:18:31.17	301.91	65.69	-43.1	-47.9	10.4	1.26e-02	0	62	0	732954624	58	6000
2026-01-19 10:18:32.19	302.71	65.36	-43.0	-47.5	10.8	2.55e-03	0	62	0	734003200	57	6128
2026-01-19 10:18:33.19	303.47	65.03	-42.9	-47.4	10.9	2.73e-03	0	62	0	736100352	57	6048
2026-01-19 10:18:34.20	304.22	64.70	-42.7	-46.8	11.6	1.58e-03	0	62	0	738197504	57	5599
2026-01-19 10:18:35.21	304.95	64.37	-42.2	-45.8	12.6	2.23e-04	0	62	0	740294656	56	5302
2026-01-19 10:18:36.22	305.65	64.04	-41.3	-44.5	13.9	1.14e-05	0	62	0	742391808	54	5155
2026-01-19 10:18:37.23	306.34	63.70	-40.9	-43.7	14.6	1.50e-06	0	62	0	743440384	53	4932
2026-01-19 10:18:38.25	307.01	63.36	-40.9	-43.7	14.6	0.00e+00	0	62	0	745537536	53	4963
2026-01-19 10:18:39.26	307.66	63.02	-41.0	-43.9	14.4	7.00e-07	0	62	0	747634688	53	5070
2026-01-19 10:18:40.26	308.28	62.68	-40.4	-42.9	15.5	0.00e+00	0	62	0	749731840	52	4766
2026-01-19 10:18:41.27	308.89	62.34	-39.6	-41.7	16.7	0.00e+00	0	62	0	751828992	51	4403
2026-01-19 10:18:42.28	309.49	62.00	-39.3	-41.3	17.1	0.00e+00	0	62	0	752877568	50	4468
2026-01-19 10:18:43.29	310.06	61.65	-39.6	-41.7	16.7	0.00e+00	0	62	0	754974720	50	4693
2026-01-19 10:18:44.30	310.63	61.31	-40.2	-42.6	15.8	0.00e+00	0	62	0	757071872	50	5208
2026-01-19 10:18:45.31	311.17	60.96	-40.6	-43.2	15.3	0.00e+00	0	62	0	759169024	51	5226
2026-01-19 10:18:46.32	311.71	60.62	-40.4	-42.9	15.5	0.00e+00	0	62	0	761266176	51	5095
2026-01-19 10:18:47.33	312.23	60.27	-40.3	-42.7	15.8	0.00e+00	0	62	0	763363328	51	4962
2026-01-19 10:18:48.34	312.73	59.93	-40.5	-42.9	15.5	0.00e+00	0	62	0	764411904	51	5083
2026-01-19 10:18:49.35	313.22	59.58	-41.5	-44.6	13.7	0.00e+00	0	62	0	766509056	53	5510
2026-01-19 10:18:50.35	313.70	59.24	-42.2	-46.0	12.3	3.43e-05	0	62	0	768606208	54	6063
2026-01-19 10:18:51.36	314.16	58.89	-42.1	-45.7	12.5	1.81e-04	0	62	0	770703360	55	5575
2026-01-19 10:18:52.37	314.62	58.55	-41.6	-44.8	13.5	2.74e-05	0	62	0	772800512	55	5001
2026-01-19 10:18:53.38	315.06	58.21	-41.6	-44.9	13.4	9.10e-06	0	62	0	773849088	55	5051
2026-01-19 10:18:54.39	315.49	57.86	-42.1	-45.9	12.3	7.62e-05	0	62	0	775946240	55	5661
2026-01-19 10:18:55.41	315.92	57.51	-42.9	-47.5	10.8	8.82e-04	0	62	0	778043392	56	6478
2026-01-19 10:18:56.42	316.33	57.17	-43.1	-48.2	10.1	6.23e-03	0	62	0	780140544	56	7009
2026-01-19 10:18:57.42	316.72	56.83	-42.2	-46.0	12.3	7.25e-04	0	62	0	782237696	56	5450
2026-01-19 10:18:58.43	317.11	56.49	-40.6	-43.3	14.9	3.00e-06	0	62	0	783286272	53	4735
2026-01-19 10:18:59.44	317.50	56.15	-40.2	-42.5	15.8	0.00e+00	0	62	0	785383424	52	4590
2026-01-19 10:19:00.44	317.86	55.82	-40.3	-42.8	15.6	0.00e+00	0	62	0	787480576	52	4717
2026-01-19 10:19:01.45	318.23	55.48	-41.3	-44.3	14.1	0.00e+00	0	62	0	789577728	53	5324
2026-01-19 10:19:02.46	318.58	55.14	-41.8	-45.2	13.1	1.37e-05	0	62	0	791674880	54	5556
2026-01-19 10:19:03.47	318.93	54.80	-41.4	-44.5	13.8	2.97e-05	0	62	0	792723456	54	5120
2026-01-19 10:19:04.48	319.27	54.47	-40.2	-42.6	15.7	0.00e+00	0	62	0	794820608	52	4618
2026-01-19 10:19:05.49	319.60	54.14	-39.6	-41.7	16.7	0.00e+00	0	62	0	796917760	51	4406
2026-01-19 10:19:06.50	319.92	53.80	-39.5	-41.6	16.8	0.00e+00	0	62	0	799014912	51	4369
2026-01-19 10:19:07.51	320.24	53.47	-39.8	-42.0	16.5	0.00e+00	0	62	0	801112064	50	4838
2026-01-19 10:19:08.52	320.55	53.14	-40.5	-43.1	15.4	0.00e+00	0	62	0	802160640	51	5169
2026-01-19 10:19:09.53	320.85	52.81	-41.2	-44.1	14.3	0.00e+00	0	62	0	804257792	52	5519
2026-01-19 10:19:10.54	321.15	52.49	-41.1	-44.0	14.4	2.20e-06	0	62	0	806354944	53	5118
2026-01-19 10:19:11.55	321.44	52.16	-40.5	-43.0	15.3	0.00e+00	0	62	0	808452096	53	4584
2026-01-19 10:19:12.56	321.72	51.84	-40.1	-42.4	16.0	0.00e+00	0	62	0	810549248	52	4518
2026-01-19 10:19:13.57	322.00	51.51	-40.3	-42.7	15.6	0.00e+00	0	62	0	811597824	52	4695
2026-01-19 10:19:14.58	322.27	51.19	-41.0	-43.8	14.6	0.00e+00	0	62	0	813694976	52	5326
2026-01-19 10:19:15.59	322.53	50.87	-41.9	-45.4	12.9	6.80e-06	0	62	0	815792128	54	5698
2026-01-19 10:19:16.60	322.79	50.55	-42.7	-46.9	11.4	6.15e-04	0	62	0	817889280	55	6368
2026-01-19 10:19:17.60	323.04	50.24	-43.1	-47.8	10.5	2.62e-03	0	62	0	819986432	56	6668
2026-01-19 10:19:18.61	323.29	49.93	-43.2	-47.9	10.5	4.60e-03	0	62	0	821035008	56	6737
2026-01-19 10:19:19.62	323.54	49.61	-42.9	-47.1	11.3	2.67e-03	0	62	0	823132160	56	6183
2026-01-19 10:19:20.63	323.78	49.30	-42.6	-46.5	11.9	4.27e-04	0	62	0	825229312	56	5767
2026-01-19 10:19:21.64	324.01	48.99	-42.7	-46.7	11.8	4.28e-04	0	62	0	827326464	56	5857
2026-01-19 10:19:22.65	324.24	48.68	-43.0	-47.5	10.9	7.63e-04	0	62	0	829423616	56	6467
2026-01-19 10:19:23.66	324.47	48.38	-43.7	-49.2	9.2	1.21e-02	0	62	0	831520768	57	7417
2026-01-19 10:19:24.67	324.69	48.07	-44.1	-50.5	7.7	5.93e-02	0	62	0	832569344	58	8165
2026-01-19 10:19:25.68	324.91	47.77	-44.0	-50.4	7.9	1.02e-01	0	62	0	834666496	58	8038
2026-01-19 10:19:26.69	325.12	47.47	-43.5	-48.8	9.4	2.26e-02	0	62	0	836763648	58	6703
2026-01-19 10:19:27.70	325.33	47.17	-43.1	-47.7	10.7	5.21e-03	0	62	0	838860800	58	5897
2026-01-19 10:19:28.71	325.54	46.87	-43.0	-47.4	11.0	2.46e-03	0	62	0	840957952	58	5689
2026-01-19 10:19:29.72	325.74	46.57	-42.8	-47.1	11.3	1.74e-03	0	62	0	842006528	57	5813
2026-01-19 10:19:30.73	325.94	46.28	-42.6	-46.4	11.9	5.32e-04	0	62	0	844103680	57	5397
2026-01-19 10:19:31.74	326.13	45.99	-42.5	-46.3	12.2	1.89e-04	0	62	0	846200832	56	5622
2026-01-19 10:19:32.75	326.32	45.70	-42.6	-46.6	11.9	3.11e-04	0	62	0	848297984	56	5799
2026-01-19 10:19:33.76	326.51	45.41	-43.2	-47.9	10.5	1.94e-03	0	62	0	850395136	56	6732
2026-01-19 10:19:34.76	326.69	45.12	-43.4	-48.6	9.6	7.60e-03	0	62	0	851443712	57	6952
2026-01-19 10:19:35.77	326.87	44.84	-43.3	-48.4	10.0	1.16e-02	0	62	0	853540864	57	6730
2026-01-19 10:19:36.78	327.05	44.55	-42.9	-47.2	11.1	3.34e-03	0	62	0	855638016	57	5893
2026-01-19 10:19:37.79	327.22	44.27	-42.2	-45.9	12.6	3.16e-04	0	62	0	857735168	56	5360
2026-01-19 10:19:38.80	327.40	43.99	-41.7	-45.0	13.3	3.96e-05	0	62	0	859832320	55	5128
2026-01-19 10:19:39.81	327.56	43.71	-41.6	-44.7	13.6	1.44e-05	0	62	0	860880896	55	4968
2026-01-19 10:19:40.82	327.73	43.43	-41.3	-44.3	14.0	3.00e-06	0	62	0	862978048	54	5022
2026-01-19 10:19:41.83	327.89	43.16	-41.4	-44.4	13.9	5.30e-06	0	62	0	865075200	54	5085
2026-01-19 10:19:42.84	328.05	42.89	-42.0	-45.5	12.8	3.50e-05	0	62	0	867172352	54	5739
2026-01-19 10:19:43.85	328.21	42.61	-42.6	-46.9	11.3	4.47e-04	0	62	0	869269504	55	6378
2026-01-19 10:19:44.86	328.37	42.34	-43.3	-48.2	10.1	3.31e-03	0	62	0	870318080	57	6608
2026-01-19 10:19:45.87	328.52	42.08	-43.2	-48.1	10.2	7.69e-03	0	62	0	872415232	57	6506
2026-01-19 10:19:46.88	328.67	41.81	-42.9	-47.3	11.1	2.45e-03	0	62	0	874512384	57	5924
2026-01-19 10:19:47.89	328.82	41.54	-42.4	-46.2	12.2	7.02e-04	0	62	0	876609536	56	5553
2026-01-19 10:19:48.90	328.96	41.28	-41.7	-45.0	13.3	9.76e-05	0	62	0	878706688	55	5108
2026-01-19 10:19:49.91	329.11	41.02	-41.6	-44.8	13.5	6.80e-06	0	62	0	879755264	55	5023
2026-01-19 10:19:50.92	329.25	40.76	-41.6	-44.8	13.5	6.80e-06	0	62	0	881852416	55	5007
2026-01-19 10:19:51.93	329.39	40.50	-41.8	-45.2	13.1	1.06e-05	0	62	0	883949568	55	5254
2026-01-19 10:19:52.93	329.52	40.25	-42.1	-45.7	12.5	7.93e-05	0	62	0	886046720	55	5556
2026-01-19 10:19:53.94	329.66	40.00	-42.5	-46.5	11.7	2.73e-04	0	62	0	888143872	55	6116
2026-01-19 10:19:54.95	329.79	39.74	-42.9	-47.4	11.0	1.27e-03	0	62	0	889192448	56	6349
2026-01-19 10:19:55.96	329.92	39.49	-43.1	-47.8	10.5	3.53e-03	0	62	0	891289600	56	6677
2026-01-19 10:19:56.97	330.05	39.24	-43.2	-48.2	10.0	7.80e-03	0	62	0	893386752	57	6627
2026-01-19 10:19:57.98	330.18	38.99	-42.9	-47.4	10.9	4.43e-03	0	62	0	895483904	57	6025
2026-01-19 10:19:58.99	330.30	38.75	-42.7	-46.8	11.5	1.10e-03	0	62	0	897581056	57	5617
2026-01-19 10:20:00.00	330.42	38.50	-42.4	-46.3	12.0	4.34e-04	0	62	0	899678208	56	5627
2026-01-19 10:20:01.01	330.55	38.26	-42.1	-45.7	12.6	2.20e-04	0	62	0	900726784	56	5267
2026-01-19 10:20:02.02	330.66	38.02	-41.7	-45.1	13.2	6.71e-05	0	62	0	902823936	55	5168
2026-01-19 10:20:03.03	330.78	37.78	-41.7	-45.1	13.2	2.13e-05	0	62	0	904921088	55	5168
2026-01-19 10:20:04.04	330.90	37.54	-41.7	-45.0	13.2	2.21e-05	0	62	0	907018240	55	5115
2026-01-19 10:20:05.05	331.01	37.30	-41.8	-45.3	12.9	2.44e-05	0	62	0	909115392	55	5306
2026-01-19 10:20:06.06	331.13	37.07	-42.1	-45.9	12.3	1.29e-04	0	62	0	910163968	55	5672
2026-01-19 10:20:07.07	331.24	36.84	-42.4	-46.4	11.8	3.09e-04	0	62	0	912261120	55	6001
2026-01-19 10:20:08.08	331.35	36.60	-42.6	-46.8	11.3	7.39e-04	0	62	0	914358272	55	6324
2026-01-19 10:20:09.09	331.46	36.37	-42.7	-47.1	11.0	1.55e-03	0	62	0	916455424	55	6537
2026-01-19 10:20:10.10	331.56	36.14	-42.9	-47.5	10.8	1.98e-03	0	62	0	918552576	56	6436
2026-01-19 10:20:11.11	331.67	35.92	-42.9	-47.4	11.0	2.55e-03	0	62	0	919601152	56	6358
2026-01-19 10:20:12.12	331.77	35.69	-42.9	-47.4	10.9	2.16e-03	0	62	0	921698304	56	6348
2026-01-19 10:20:13.12	331.88	35.47	-42.8	-47.2	11.1	1.91e-03	0	62	0	923795456	56	6229
2026-01-19 10:20:14.13	331.98	35.25	-42.7	-46.9	11.4	1.23e-03	0	62	0	925892608	56	6045
2026-01-19 10:20:15.14	332.08	35.03	-42.7	-46.9	11.5	8.53e-04	0	62	0	927989760	56	6002
2026-01-19 10:20:16.15	332.18	34.81	-42.6	-46.6	11.7	5.61e-04	0	62	0	929038336	56	5804
2026-01-19 10:20:17.17	332.28	34.58	-42.4	-46.2	12.1	3.42e-04	0	62	0	931135488	56	5565
2026-01-19 10:20:18.17	332.37	34.37	-42.3	-46.0	12.3	1.98e-04	0	62	0	933232640	56	5464
2026-01-19 10:20:19.18	332.47	34.15	-42.3	-46.1	12.2	1.59e-04	0	62	0	935329792	56	5501
2026-01-19 10:20:20.19	332.56	33.94	-42.3	-46.0	12.3	1.66e-04	0	62	0	937426944	56	5454
2026-01-19 10:20:21.20	332.65	33.73	-42.4	-46.2	12.1	1.46e-04	0	62	0	938475520	56	5565
2026-01-19 10:20:22.21	332.74	33.52	-42.7	-46.9	11.5	6.84e-04	0	62	0	940572672	56	5993
2026-01-19 10:20:23.22	332.83	33.31	-42.8	-47.2	11.0	1.38e-03	0	62	0	942669824	56	6258
2026-01-19 10:20:24.23	332.92	33.10	-43.0	-47.8	10.5	2.68e-03	0	62	0	944766976	56	6661
2026-01-19 10:20:25.24	333.01	32.89	-43.3	-48.3	9.9	7.11e-03	0	62	0	946864128	57	6673
2026-01-19 10:20:26.25	333.10	32.68	-43.3	-48.5	9.7	1.08e-02	0	62	0	947912704	57	6853
2026-01-19 10:20:27.25	333.19	32.48	-43.4	-48.8	9.4	1.40e-02	0	62	0	950009856	57	7073
2026-01-19 10:20:28.26	333.27	32.28	-43.4	-48.7	9.4	1.59e-02	0	62	0	952107008	57	7040
2026-01-19 10:20:29.27	333.35	32.08	-43.4	-48.9	9.3	1.80e-02	0	62	0	954204160	57	7130
2026-01-19 10:20:30.28	333.44	31.88	-43.4	-48.7	9.4	1.36e-02	0	62	0	956301312	57	7005
2026-01-19 10:20:31.29	333.52	31.68	-43.4	-48.8	9.4	1.50e-02	0	62	0	957349888	57	7066
2026-01-19 10:20:32.30	333.60	31.48	-43.4	-48.8	9.4	1.69e-02	0	62	0	959447040	57	7071
2026-01-19 10:20:33.31	333.68	31.28	-43.4	-48.8	9.4	1.66e-02	0	62	0	961544192	57	7049
2026-01-19 10:20:34.32	333.76	31.09	-43.2	-48.3	9.9	1.36e-02	0	62	0	963641344	57	6664
2026-01-19 10:20:35.33	333.84	30.89	-43.0	-47.8	10.4	5.73e-03	0	62	0	965738496	57	6278
2026-01-19 10:20:36.34	333.92	30.70	-42.9	-47.5	10.7	3.50e-03	0	62	0	967835648	57	6099
2026-01-19 10:20:37.35	333.99	30.51	-42.9	-47.4	10.8	2.75e-03	0	62	0	968884224	57	6050
2026-01-19 10:20:38.36	334.07	30.32	-42.8	-47.3	10.9	2.59e-03	0	62	0	970981376	57	5986
2026-01-19 10:20:39.37	334.15	30.13	-42.8	-47.3	10.9	2.28e-03	0	62	0	973078528	57	5951
2026-01-19 10:20:40.38	334.22	29.94	-42.8	-47.3	10.9	2.34e-03	0	62	0	975175680	57	5986
2026-01-19 10:20:41.39	334.29	29.75	-42.7	-47.1	11.1	1.70e-03	0	62	0	977272832	57	5800
2026-01-19 10:20:42.40	334.37	29.57	-42.6	-46.7	11.5	9.41e-04	0	62	0	978321408	57	5572
2026-01-19 10:20:43.41	334.44	29.38	-42.6	-46.8	11.4	8.84e-04	0	62	0	980418560	57	5620
2026-01-19 10:20:44.42	334.51	29.20	-42.6	-46.8	11.4	1.05e-03	0	62	0	982515712	57	5655
2026-01-19 10:20:45.42	334.58	29.02	-42.5	-46.7	11.5	8.99e-04	0	62	0	984612864	57	5549
2026-01-19 10:20:46.43	334.65	28.84	-42.6	-46.7	11.5	8.99e-04	0	62	0	985661440	57	5582
2026-01-19 10:20:47.44	334.72	28.66	-42.6	-46.9	11.3	8.32e-04	0	62	0	987758592	57	5679
2026-01-19 10:20:48.45	334.78	28.48	-42.6	-46.8	11.3	1.01e-03	0	62	0	989855744	57	5647
2026-01-19 10:20:49.46	334.85	28.30	-42.7	-47.0	11.2	1.28e-03	0	62	0	991952896	57	5757
2026-01-19 10:20:50.47	334.92	28.12	-42.6	-47.0	11.2	1.63e-03	0	62	0	994050048	57	5753
2026-01-19 10:20:51.48	334.99	27.95	-42.6	-46.8	11.3	1.17e-03	0	62	0	996147200	57	5648
2026-01-19 10:20:52.49	335.05	27.77	-42.5	-46.6	11.5	9.23e-04	0	62	0	997195776	57	5526
2026-01-19 10:20:53.50	335.12	27.60	-42.3	-46.3	11.8	6.57e-04	0	62	0	999292928	56	5641
2026-01-19 10:20:54.51	335.18	27.43	-42.2	-46.1	12.1	3.33e-04	0	62	0	1001390080	56	5514
2026-01-19 10:20:55.52	335.24	27.26	-42.2	-46.0	12.2	2.51e-04	0	62	0	1003487232	56	5447
2026-01-19 10:20:56.53	335.31	27.09	-42.1	-45.9	12.3	2.04e-04	0	62	0	1005584384	56	5375
2026-01-19 10:20:57.54	335.37	26.92	-42.0	-45.6	12.5	1.88e-04	0	62	0	1006632960	56	5186
2026-01-19 10:20:58.55	335.43	26.75	-41.6	-45.1	12.9	7.24e-05	0	62	0	1008730112	55	5195
2026-01-19 10:20:59.55	335.49	26.58	-41.4	-44.7	13.3	2.21e-05	0	62	0	1010827264	54	5276
2026-01-19 10:21:00.56	335.55	26.42	-41.4	-44.6	13.5	1.60e-05	0	62	0	1012924416	54	5180
2026-01-19 10:21:01.57	335.61	26.25	-41.3	-44.5	13.5	9.90e-06	0	62	0	1015021568	54	5127
2026-01-19 10:21:02.58	335.67	26.09	-41.3	-44.5	13.5	9.90e-06	0	62	0	1016070144	54	5129
2026-01-19 10:21:03.59	335.73	25.92	-41.2	-44.4	13.6	8.30e-06	0	62	0	1018167296	54	5094
2026-01-19 10:21:04.60	335.79	25.76	-41.2	-44.4	13.6	7.60e-06	0	62	0	1020264448	54	5082
2026-01-19 10:21:05.61	335.84	25.60	-41.2	-44.4	13.6	9.10e-06	0	62	0	1022361600	54	5089
2026-01-19 10:21:06.62	335.90	25.44	-41.3	-44.5	13.5	9.10e-06	0	62	0	1024458752	54	5157
2026-01-19 10:21:07.63	335.96	25.28	-41.4	-44.7	13.3	1.44e-05	0	62	0	1025507328	54	5237
2026-01-19 10:21:08.64	336.01	25.12	-41.4	-44.8	13.1	2.82e-05	0	62	0	1027604480	54	5325
2026-01-19 10:21:09.65	336.07	24.97	-41.5	-45.0	13.0	2.67e-05	0	62	0	1029701632	54	5445
2026-01-19 10:21:10.66	336.12	24.81	-41.6	-45.1	12.9	4.95e-05	0	62	0	1031798784	54	5465
2026-01-19 10:21:11.67	336.18	24.65	-41.6	-45.1	12.8	6.17e-05	0	62	0	1033895936	54	5499
2026-01-19 10:21:12.68	336.23	24.50	-41.6	-45.2	12.7	6.10e-05	0	62	0	1034944512	54	5538
2026-01-19 10:21:13.69	336.28	24.34	-41.7	-45.3	12.6	7.93e-05	0	62	0	1037041664	54	5619
2026-01-19 10:21:14.70	336.34	24.19	-41.6	-45.2	12.7	7.55e-05	0	62	0	1039138816	54	5551
2026-01-19 10:21:15.71	336.39	24.04	-41.6	-45.3	12.6	8.39e-05	0	62	0	1041235968	54	5599
2026-01-19 10:21:16.72	336.44	23.89	-41.5	-45.1	12.7	8.08e-05	0	62	0	1043333120	54	5505
2026-01-19 10:21:17.73	336.49	23.74	-41.6	-45.1	12.7	6.94e-05	0	62	0	1044381696	54	5525
2026-01-19 10:21:18.74	336.55	23.59	-41.5	-45.0	12.8	7.17e-05	0	62	0	1046478848	54	5432
2026-01-19 10:21:19.75	336.60	23.44	-41.5	-45.1	12.7	6.56e-05	0	62	0	1048576000	54	5480
2026-01-19 10:21:20.76	336.65	23.29	-41.5	-45.1	12.6	8.23e-05	0	62	0	1050673152	54	5515
2026-01-19 10:21:21.77	336.70	23.14	-41.4	-44.9	12.9	4.88e-05	0	62	0	1052770304	54	5364
2026-01-19 10:21:22.78	336.75	23.00	-41.3	-44.8	13.0	5.11e-05	0	62	0	1053818880	54	5283
2026-01-19 10:21:23.79	336.79	22.85	-41.3	-44.7	13.0	4.04e-05	0	62	0	1055916032	54	5256
2026-01-19 10:21:24.80	336.84	22.71	-41.3	-44.7	13.1	3.73e-05	0	62	0	1058013184	54	5236
2026-01-19 10:21:25.81	336.89	22.56	-41.2	-44.7	13.0	2.51e-05	0	62	0	1060110336	54	5232
2026-01-19 10:21:26.82	336.94	22.42	-41.2	-44.6	13.1	2.59e-05	0	62	0	1062207488	54	5162
2026-01-19 10:21:27.82	336.99	22.28	-41.2	-44.6	13.1	3.35e-05	0	62	0	1064304640	54	5185
2026-01-19 10:21:28.83	337.03	22.14	-41.2	-44.6	13.1	4.04e-05	0	62	0	1065353216	54	5166
2026-01-19 10:21:29.84	337.08	22.00	-41.2	-44.7	12.9	3.66e-05	0	62	0	1067450368	54	5253
2026-01-19 10:21:30.85	337.12	21.86	-41.2	-44.7	12.9	5.41e-05	0	62	0	1069547520	54	5228
2026-01-19 10:21:31.86	337.17	21.72	-41.2	-44.6	12.9	5.41e-05	0	62	0	1071644672	54	5199
2026-01-19 10:21:32.87	337.22	21.58	-41.2	-44.7	12.8	4.73e-05	0	62	0	1073741824	54	5243
2026-01-19 10:21:33.88	337.26	21.44	-41.2	-44.8	12.7	7.01e-05	0	62	0	1074790400	54	5305
2026-01-19 10:21:34.89	337.31	21.30	-41.2	-44.9	12.5	1.03e-04	0	62	0	1076887552	54	5347
2026-01-19 10:21:35.90	337.35	21.17	-41.2	-44.9	12.5	9.23e-05	0	62	0	1078984704	54	5364
2026-01-19 10:21:36.91	337.39	21.03	-41.2	-44.9	12.4	1.68e-04	0	62	0	1081081856	54	5401
2026-01-19 10:21:37.92	337.44	20.90	-41.2	-44.8	12.5	1.25e-04	0	62	0	1083179008	54	5317
2026-01-19 10:21:38.93	337.48	20.76	-41.2	-45.0	12.3	1.49e-04	0	62	0	1084227584	54	5440
2026-01-19 10:21:39.94	337.52	20.63	-41.2	-45.0	12.2	2.27e-04	0	62	0	1086324736	54	5429
2026-01-19 10:21:40.94	337.57	20.50	-41.2	-45.0	12.2	2.31e-04	0	62	0	1088421888	54	5456
2026-01-19 10:21:41.95	337.61	20.37	-41.3	-45.1	12.0	2.42e-04	0	62	0	1090519040	54	5519
2026-01-19 10:21:42.96	337.65	20.23	-41.2	-45.1	11.9	3.68e-04	0	62	0	1092616192	54	5500
2026-01-19 10:21:43.97	337.69	20.10	-41.1	-45.0	11.9	3.84e-04	0	62	0	1093664768	54	5462
2026-01-19 10:21:44.98	337.73	19.97	-41.0	-44.9	12.1	3.66e-04	0	62	0	1095761920	54	5357
2026-01-19 10:21:45.99	337.77	19.84	-40.9	-44.7	12.2	2.38e-04	0	62	0	1097859072	53	5549
2026-01-19 10:21:47.00	337.82	19.72	-40.8	-44.4	12.5	1.36e-04	0	62	0	1099956224	53	5395
2026-01-19 10:21:48.01	337.86	19.59	-40.7	-44.3	12.5	1.17e-04	0	62	0	1102053376	53	5337
2026-01-19 10:21:49.02	337.90	19.46	-40.6	-44.3	12.5	1.27e-04	0	62	0	1103101952	53	5292
2026-01-19 10:21:50.03	337.94	19.33	-40.6	-44.2	12.6	8.62e-05	0	62	0	1105199104	53	5263
2026-01-19 10:21:51.04	337.97	19.21	-40.5	-44.0	12.7	8.31e-05	0	62	0	1107296256	53	5159
2026-01-19 10:21:52.05	338.01	19.08	-40.5	-44.0	12.8	7.24e-05	0	62	0	1109393408	52	5441
2026-01-19 10:21:53.06	338.05	18.96	-40.5	-44.1	12.6	7.62e-05	0	62	0	1111490560	52	5497
2026-01-19 10:21:54.07	338.09	18.83	-40.4	-44.1	12.6	8.16e-05	0	62	0	1112539136	52	5468
2026-01-19 10:21:55.08	338.13	18.71	-40.4	-44.0	12.6	9.84e-05	0	62	0	1114636288	52	5410
2026-01-19 10:21:56.08	338.17	18.59	-40.4	-44.0	12.6	7.01e-05	0	62	0	1116733440	52	5424
2026-01-19 10:21:57.09	338.21	18.46	-40.4	-44.2	12.4	1.07e-04	0	62	0	1118830592	52	5533
2026-01-19 10:21:58.10	338.24	18.34	-40.4	-44.2	12.3	1.44e-04	0	62	0	1120927744	52	5549
2026-01-19 10:21:59.12	338.28	18.22	-40.4	-44.2	12.4	1.85e-04	0	62	0	1121976320	52	5537
2026-01-19 10:22:00.12	338.32	18.10	-40.5	-44.3	12.2	1.87e-04	0	62	0	1124073472	52	5600
2026-01-19 10:22:01.14	338.35	17.98	-40.5	-44.4	12.0	2.27e-04	0	62	0	1126170624	52	5688
2026-01-19 10:22:02.15	338.39	17.86	-40.4	-44.3	12.0	2.57e-04	0	62	0	1128267776	52	5644
2026-01-19 10:22:03.16	338.43	17.74	-40.5	-44.5	11.8	4.45e-04	0	62	0	1130364928	52	5787
2026-01-19 10:22:04.16	338.46	17.62	-40.6	-44.7	11.6	6.62e-04	0	62	0	1132462080	52	5899
2026-01-19 10:22:05.17	338.50	17.51	-40.7	-44.9	11.4	7.61e-04	0	62	0	1133510656	52	6022
2026-01-19 10:22:06.18	338.53	17.39	-40.7	-45.1	11.2	1.21e-03	0	62	0	1135607808	52	6134
2026-01-19 10:22:07.19	338.57	17.27	-40.8	-45.3	11.0	1.56e-03	0	62	0	1137704960	52	6295
2026-01-19 10:22:08.20	338.60	17.16	-40.8	-45.4	10.7	2.30e-03	0	62	0	1139802112	52	6417
2026-01-19 10:22:09.21	338.64	17.04	-40.9	-45.7	10.3	4.53e-03	0	62	0	1141899264	52	6632
2026-01-19 10:22:10.22	338.67	16.93	-41.0	-46.0	10.1	6.22e-03	0	62	0	1142947840	52	6810
2026-01-19 10:22:11.23	338.71	16.81	-41.0	-46.2	9.8	8.09e-03	0	62	0	1145044992	52	6982
2026-01-19 10:22:12.24	338.74	16.70	-41.1	-46.4	9.5	1.38e-02	0	62	0	1147142144	52	7178
2026-01-19 10:22:13.25	338.78	16.58	-41.1	-46.6	9.3	1.84e-02	0	62	0	1149239296	52	7364
2026-01-19 10:22:14.26	338.81	16.47	-41.2	-47.0	8.8	2.51e-02	0	62	0	1151336448	52	7678
2026-01-19 10:22:15.27	338.84	16.36	-41.3	-47.3	8.5	3.45e-02	0	62	0	1152385024	53	7485
2026-01-19 10:22:16.28	338.88	16.25	-41.3	-47.5	8.3	4.98e-02	0	62	0	1154482176	53	7636
2026-01-19 10:22:17.29	338.91	16.13	-41.4	-47.8	7.9	6.53e-02	0	62	0	1156579328	53	7971
2026-01-19 10:22:18.30	338.94	16.02	-41.5	-48.1	7.6	7.98e-02	0	62	0	1158676480	53	8263
2026-01-19 10:22:19.31	338.97	15.91	-41.5	-48.4	7.3	1.17e-01	0	62	0	1160773632	53	8534
2026-01-19 10:22:20.32	339.01	15.80	-41.6	-48.7	7.0	1.44e-01	0	62	0	1161822208	53	8825
2026-01-19 10:22:21.32	339.04	15.69	-41.6	-49.0	6.7	1.77e-01	0	62	0	1163919360	53	9110
2026-01-19 10:22:22.33	339.07	15.59	-41.6	-49.3	6.4	2.24e-01	0	62	0	1166016512	53	9403
