passes_logs/2026/01/19/R2.0S_Moscow/R2.0S_Moscow__20260119_104913_FENGYUN_3D_rec.log

#Pass ID: 20260119_104913_FENGYUN 3D
#Satellite: FENGYUN 3D
#Configuration: FENGYUN 3D
#almurnet v.1.7.20251203
#Start time: 2026-01-19 10:49:14

#Version: 2.2.20231116
#Station: R2.0S_Moscow
#Location: 37.707566 lon 55.798166 lat
#TLE: 1 43010U 17072A   26017.96359538  .00000271  00000+0  15011-3 0  9999
#TLE: 2 43010  98.9936 349.8252 0002386 103.8840 256.2601 14.19697057423673

#Time	Az	El	Level	Level2	SNR	BER	BlckErr	Temp	State	Recorded	gain1	gain2
2026-01-19 10:49:14.66	126.81	2.06	-27.0	-38.4	3.6	8.38e-01	0	53	0	0	24	14317
2026-01-19 10:49:15.67	126.77	2.12	-22.4	-39.2	3.9	8.26e-01	0	53	104	0	16	24848
2026-01-19 10:49:16.68	126.72	2.18	-21.4	-36.5	4.0	8.36e-01	0	53	104	0	23	12203
2026-01-19 10:49:17.69	126.67	2.24	-28.5	-43.4	4.0	8.34e-01	0	53	104	0	29	18976
2026-01-19 10:49:18.70	126.62	2.31	-25.4	-38.3	3.7	8.36e-01	0	53	104	0	24	14171
2026-01-19 10:49:19.71	126.58	2.37	-25.3	-39.0	4.2	8.38e-01	0	53	104	0	27	12920
2026-01-19 10:49:20.72	126.53	2.43	-26.5	-39.9	3.6	8.36e-01	0	53	104	0	26	15059
2026-01-19 10:49:21.73	126.48	2.49	-28.2	-42.8	4.2	8.35e-01	0	53	104	0	30	16696
2026-01-19 10:49:22.74	126.43	2.55	-26.4	-40.5	3.8	8.36e-01	0	53	104	0	26	16186
2026-01-19 10:49:23.75	126.38	2.62	-18.7	-35.7	3.6	8.38e-01	0	53	0	0	17	15588
2026-01-19 10:49:24.76	126.33	2.68	-25.2	-37.6	4.1	8.39e-01	0	54	104	0	28	10412
2026-01-19 10:49:25.77	126.28	2.74	-31.3	-44.3	4.1	8.37e-01	0	54	104	0	28	22293
2026-01-19 10:49:26.78	126.23	2.80	-24.1	-39.1	3.8	8.40e-01	0	54	104	0	25	14546
2026-01-19 10:49:27.79	126.18	2.87	-25.6	-38.9	3.8	8.40e-01	0	54	0	0	22	17014
2026-01-19 10:49:28.80	126.13	2.93	-28.6	-45.4	3.7	8.38e-01	0	54	104	0	32	20258
2026-01-19 10:49:29.81	126.08	2.99	-29.7	-45.5	4.1	8.38e-01	0	54	104	0	28	25800
2026-01-19 10:49:30.82	126.03	3.06	-23.2	-38.4	3.7	8.37e-01	0	54	104	0	21	16917
2026-01-19 10:49:31.83	125.98	3.12	-23.8	-38.6	3.7	8.38e-01	0	54	104	0	25	13735
2026-01-19 10:49:32.84	125.93	3.18	-35.4	-49.4	4.5	8.37e-01	0	54	104	0	40	20085
2026-01-19 10:49:33.85	125.88	3.25	-28.4	-45.5	3.9	8.37e-01	0	54	104	0	26	28861
2026-01-19 10:49:34.86	125.83	3.31	-26.4	-40.4	3.9	8.37e-01	0	54	104	0	30	12670
2026-01-19 10:49:35.86	125.78	3.37	-24.2	-39.3	3.8	8.38e-01	0	54	104	0	24	15840
2026-01-19 10:49:36.87	125.72	3.44	-33.4	-46.0	4.5	8.37e-01	0	54	104	0	32	21609
2026-01-19 10:49:37.89	125.67	3.50	-28.3	-43.7	4.0	8.36e-01	0	55	104	0	26	23454
2026-01-19 10:49:38.90	125.62	3.56	-30.4	-46.8	4.1	8.30e-01	0	55	0	0	34	21043
2026-01-19 10:49:39.91	125.57	3.63	-33.1	-45.7	3.8	8.33e-01	0	54	104	0	30	23466
2026-01-19 10:49:40.92	125.51	3.69	-28.5	-42.6	3.8	8.37e-01	0	55	104	0	26	20552
2026-01-19 10:49:41.92	125.46	3.76	-28.8	-41.8	3.7	8.29e-01	0	55	104	0	25	19955
2026-01-19 10:49:42.93	125.41	3.82	-26.7	-39.5	3.7	8.35e-01	0	55	104	0	24	16313
2026-01-19 10:49:43.95	125.35	3.89	-22.0	-35.1	3.8	8.38e-01	0	55	104	0	15	16403
2026-01-19 10:49:44.95	125.30	3.95	-20.4	-36.2	3.6	8.41e-01	0	55	104	0	9	26172
2026-01-19 10:49:45.96	125.25	4.02	-27.0	-40.7	3.9	8.42e-01	0	55	104	0	25	17491
2026-01-19 10:49:46.97	125.19	4.08	-23.5	-38.2	3.6	8.42e-01	0	55	104	0	20	17631
2026-01-19 10:49:47.98	125.14	4.15	-21.6	-35.2	3.5	8.41e-01	0	55	104	0	11	20846
2026-01-19 10:49:49.00	125.08	4.21	-19.2	-34.8	4.0	8.36e-01	0	55	104	0	12	18750
2026-01-19 10:49:50.01	125.03	4.28	-24.7	-39.7	3.5	8.45e-01	0	55	104	0	14	29656
2026-01-19 10:49:51.02	124.97	4.34	-29.2	-42.2	3.8	8.36e-01	0	55	104	0	28	17667
2026-01-19 10:49:52.03	124.92	4.41	-35.0	-51.0	4.5	8.35e-01	0	56	104	0	41	22950
2026-01-19 10:49:53.04	124.86	4.48	-28.6	-44.8	3.9	8.28e-01	0	55	0	0	27	25206
2026-01-19 10:49:54.05	124.81	4.54	-35.8	-51.0	4.0	8.41e-01	0	55	104	0	41	22856
2026-01-19 10:49:55.06	124.75	4.61	-26.6	-38.3	3.7	8.33e-01	0	55	104	0	24	14141
2026-01-19 10:49:56.07	124.69	4.67	-29.4	-45.2	4.3	8.36e-01	0	56	104	0	30	22053
2026-01-19 10:49:57.08	124.64	4.74	-35.1	-51.2	4.3	8.36e-01	0	56	104	0	36	31227
2026-01-19 10:49:58.09	124.58	4.81	-34.0	-49.4	3.8	8.36e-01	0	56	104	0	37	24117
2026-01-19 10:49:59.10	124.52	4.87	-26.7	-41.6	3.7	8.35e-01	0	56	104	0	25	19460
2026-01-19 10:50:00.11	124.46	4.94	-34.3	-49.2	4.3	8.40e-01	0	56	104	0	40	19759
2026-01-19 10:50:01.12	124.40	5.01	-27.5	-40.9	3.7	8.31e-01	0	56	0	0	27	16071
2026-01-19 10:50:02.13	124.35	5.08	-20.8	-40.1	3.4	8.36e-01	0	56	104	0	6	48832
2026-01-19 10:50:03.14	124.29	5.14	-28.6	-41.9	3.8	8.36e-01	0	56	104	0	28	17070
2026-01-19 10:50:04.15	124.23	5.21	-30.7	-47.2	4.0	8.36e-01	0	56	104	0	30	27834
2026-01-19 10:50:05.16	124.17	5.28	-30.5	-48.3	3.9	8.34e-01	0	56	104	0	29	33641
2026-01-19 10:50:06.17	124.11	5.35	-25.9	-39.5	3.9	8.32e-01	0	56	0	0	27	13613
2026-01-19 10:50:07.18	124.05	5.41	-25.6	-44.1	4.0	8.34e-01	0	56	104	0	26	24672
2026-01-19 10:50:08.19	123.99	5.48	-20.8	-40.7	3.8	8.37e-01	0	56	104	0	22	20821
2026-01-19 10:50:09.20	123.93	5.55	-26.7	-40.4	3.8	8.38e-01	0	56	0	0	23	19052
2026-01-19 10:50:10.21	123.87	5.62	-24.3	-40.2	4.5	8.39e-01	0	56	104	0	30	12394
2026-01-19 10:50:11.22	123.81	5.69	-28.9	-45.1	3.9	8.35e-01	0	56	104	0	33	18347
2026-01-19 10:50:12.23	123.75	5.76	-28.8	-41.3	3.8	8.35e-01	0	56	104	0	25	18890
2026-01-19 10:50:13.24	123.69	5.82	-31.7	-45.8	3.9	8.36e-01	0	56	104	0	25	31566
2026-01-19 10:50:14.25	123.62	5.89	-27.6	-40.3	3.8	8.35e-01	0	57	104	0	28	14177
2026-01-19 10:50:15.26	123.56	5.96	-29.9	-42.6	3.5	8.39e-01	0	57	104	0	14	41405
2026-01-19 10:50:16.27	123.50	6.03	-27.4	-41.6	3.6	8.38e-01	0	57	104	0	27	17392
2026-01-19 10:50:17.28	123.44	6.10	-29.2	-46.1	4.4	8.33e-01	0	57	104	0	31	23230
2026-01-19 10:50:18.29	123.37	6.17	-26.4	-40.3	3.6	8.34e-01	0	57	104	0	28	14117
2026-01-19 10:50:19.30	123.31	6.24	-35.3	-51.9	4.2	8.37e-01	0	57	104	0	41	25471
2026-01-19 10:50:20.31	123.25	6.31	-24.5	-40.8	3.7	8.35e-01	0	57	104	0	21	22393
2026-01-19 10:50:21.32	123.18	6.38	-30.2	-45.8	4.1	8.37e-01	0	57	0	0	31	22269
2026-01-19 10:50:22.33	123.12	6.45	-27.4	-41.2	3.8	8.37e-01	0	57	104	0	27	16556
2026-01-19 10:50:23.34	123.05	6.52	-29.8	-46.8	3.8	8.34e-01	0	57	104	0	33	22460
2026-01-19 10:50:24.34	122.99	6.59	-25.9	-42.7	4.0	8.35e-01	0	57	104	0	37	11038
2026-01-19 10:50:25.35	122.93	6.66	-34.0	-48.0	4.3	8.34e-01	0	57	104	0	40	17272
2026-01-19 10:50:26.36	122.86	6.73	-29.7	-45.1	4.0	8.40e-01	0	57	104	0	31	20773
2026-01-19 10:50:27.37	122.79	6.80	-32.3	-49.4	4.2	8.36e-01	0	57	104	0	37	23991
2026-01-19 10:50:28.38	122.73	6.87	-34.5	-49.2	4.3	8.38e-01	0	57	104	0	33	29484
2026-01-19 10:50:29.39	122.66	6.94	-30.1	-48.0	4.0	8.39e-01	0	57	104	0	33	25583
2026-01-19 10:50:30.40	122.59	7.02	-33.3	-45.4	4.5	8.38e-01	0	57	104	0	37	15185
2026-01-19 10:50:31.41	122.53	7.09	-30.8	-47.3	4.2	8.36e-01	0	57	104	0	41	14924
2026-01-19 10:50:32.42	122.46	7.16	-34.5	-49.1	4.2	8.39e-01	0	57	104	0	39	20686
2026-01-19 10:50:33.43	122.39	7.23	-30.6	-45.8	4.2	8.39e-01	0	57	104	0	32	21023
2026-01-19 10:50:34.44	122.32	7.30	-29.7	-45.1	4.0	8.39e-01	0	57	104	0	30	22000
2026-01-19 10:50:35.45	122.25	7.38	-24.7	-40.2	4.0	8.39e-01	0	57	104	0	26	15632
2026-01-19 10:50:36.46	122.19	7.45	-31.1	-45.4	4.3	8.40e-01	0	57	104	0	34	17976
2026-01-19 10:50:37.47	122.12	7.52	-33.6	-47.7	4.4	8.39e-01	0	57	104	0	39	17616
2026-01-19 10:50:38.48	122.05	7.59	-33.4	-45.8	4.4	8.40e-01	0	57	104	0	33	20017
2026-01-19 10:50:39.49	121.98	7.67	-34.3	-45.4	4.7	8.30e-01	0	58	104	0	38	14363
2026-01-19 10:50:40.50	121.91	7.74	-28.4	-41.6	5.9	8.10e-01	0	58	104	0	36	10377
2026-01-19 10:50:41.51	121.84	7.81	-27.2	-39.1	4.9	7.91e-01	0	58	0	0	28	12261
2026-01-19 10:50:42.52	121.76	7.89	-28.3	-38.8	6.1	6.66e-01	0	58	0	0	31	10053
2026-01-19 10:50:43.53	121.69	7.96	-30.4	-40.4	5.0	8.23e-01	0	58	104	1048576	32	11381
2026-01-19 10:50:44.54	121.62	8.03	-32.1	-41.2	7.1	6.33e-01	0	58	0	1048576	35	10431
2026-01-19 10:50:45.55	121.55	8.11	-25.2	-38.6	3.9	8.11e-01	0	58	104	2097152	28	11593
2026-01-19 10:50:46.56	121.48	8.18	-28.9	-41.5	4.0	8.37e-01	0	58	104	2097152	28	16274
2026-01-19 10:50:47.57	121.40	8.26	-25.8	-38.4	4.0	8.31e-01	0	58	104	2097152	24	14315
2026-01-19 10:50:48.58	121.33	8.33	-34.9	-43.5	4.4	8.31e-01	0	58	104	2097152	35	13610
2026-01-19 10:50:49.59	121.26	8.41	-18.1	-33.6	3.8	8.35e-01	0	58	0	2097152	10	18462
2026-01-19 10:50:50.60	121.18	8.48	-21.9	-39.2	4.4	8.34e-01	0	58	104	2097152	15	26160
2026-01-19 10:50:51.61	121.11	8.56	-23.0	-39.7	4.0	8.32e-01	0	58	104	2097152	15	27907
2026-01-19 10:50:52.62	121.03	8.63	-18.6	-36.4	3.7	8.33e-01	0	58	104	2097152	10	25418
2026-01-19 10:50:53.63	120.96	8.71	-21.9	-39.2	4.1	8.31e-01	0	58	104	2097152	11	33174
2026-01-19 10:50:54.64	120.88	8.78	-20.9	-37.4	4.2	8.38e-01	0	58	104	2097152	11	27028
2026-01-19 10:50:55.65	120.80	8.86	-30.0	-42.6	4.7	8.30e-01	0	58	104	2097152	29	17420
2026-01-19 10:50:56.66	120.73	8.93	-25.4	-43.4	4.6	8.32e-01	0	58	0	2097152	20	32061
2026-01-19 10:50:57.66	120.65	9.01	-25.8	-42.3	4.2	8.15e-01	0	58	104	2097152	19	29774
2026-01-19 10:50:58.67	120.57	9.08	-24.3	-40.3	4.0	8.23e-01	0	58	104	2097152	20	22440
2026-01-19 10:50:59.68	120.50	9.16	-18.1	-36.1	3.7	8.25e-01	0	58	104	2097152	11	23230
2026-01-19 10:51:00.69	120.42	9.24	-20.0	-38.2	4.1	8.21e-01	0	58	104	2097152	13	26332
2026-01-19 10:51:01.70	120.34	9.31	-16.2	-34.4	3.9	8.18e-01	0	58	104	2097152	1	33952
2026-01-19 10:51:02.71	120.26	9.39	-21.1	-40.4	3.8	8.22e-01	0	58	104	2097152	16	28447
2026-01-19 10:51:03.72	120.18	9.47	-29.2	-43.3	4.0	8.27e-01	0	58	104	2097152	28	19846
2026-01-19 10:51:04.73	120.10	9.55	-22.6	-39.3	3.9	8.35e-01	0	58	104	2097152	19	21213
2026-01-19 10:51:05.74	120.02	9.62	-21.9	-36.8	5.6	8.34e-01	0	59	104	2097152	4	37782
2026-01-19 10:51:06.75	119.94	9.70	-19.1	-34.3	3.6	8.22e-01	0	58	104	2097152	11	18890
2026-01-19 10:51:07.76	119.86	9.78	-21.6	-36.8	4.1	8.32e-01	0	58	104	2097152	14	21082
2026-01-19 10:51:08.76	119.78	9.86	-13.5	-30.9	3.9	8.25e-01	0	59	104	2097152	4	19121
2026-01-19 10:51:09.77	119.69	9.93	-18.6	-34.7	3.6	8.35e-01	0	59	104	2097152	5	27956
2026-01-19 10:51:10.78	119.61	10.01	-22.2	-38.5	4.1	8.33e-01	0	59	104	2097152	17	21619
2026-01-19 10:51:11.79	119.53	10.09	-28.2	-42.2	4.2	8.32e-01	0	59	104	2097152	28	17530
2026-01-19 10:51:12.80	119.44	10.17	-23.9	-39.0	3.9	8.36e-01	0	59	104	2097152	20	19330
2026-01-19 10:51:13.81	119.36	10.25	-23.0	-36.6	3.7	8.25e-01	0	59	104	2097152	12	23269
2026-01-19 10:51:14.82	119.28	10.33	-15.3	-31.7	3.8	8.19e-01	0	59	104	2097152	8	16577
2026-01-19 10:51:15.83	119.19	10.41	-18.7	-33.4	3.8	8.10e-01	0	59	104	2097152	14	14313
2026-01-19 10:51:16.84	119.11	10.49	-22.4	-37.3	3.8	8.18e-01	0	59	104	2097152	14	22308
2026-01-19 10:51:17.85	119.02	10.57	-21.4	-36.0	3.9	8.19e-01	0	59	104	2097152	13	20410
2026-01-19 10:51:18.86	118.93	10.65	-20.0	-33.1	3.6	8.25e-01	0	59	104	2097152	16	12318
2026-01-19 10:51:19.87	118.85	10.73	-32.9	-46.2	4.3	8.32e-01	0	59	104	2097152	37	16549
2026-01-19 10:51:20.88	118.76	10.81	-25.7	-38.5	3.8	8.40e-01	0	59	104	2097152	10	32236
2026-01-19 10:51:21.89	118.67	10.89	-21.3	-36.2	3.7	8.33e-01	0	59	104	2097152	18	15712
2026-01-19 10:51:22.90	118.58	10.97	-24.0	-38.3	3.9	8.33e-01	0	59	104	2097152	18	20009
2026-01-19 10:51:23.91	118.49	11.05	-21.9	-35.4	3.9	8.38e-01	0	59	104	2097152	15	17054
2026-01-19 10:51:24.92	118.40	11.13	-21.6	-36.5	4.0	8.35e-01	0	59	0	2097152	20	14508
2026-01-19 10:51:25.93	118.31	11.21	-26.0	-37.0	4.1	8.35e-01	0	59	104	2097152	22	13609
2026-01-19 10:51:26.94	118.22	11.30	-24.9	-37.7	4.1	8.36e-01	0	59	104	2097152	19	17577
2026-01-19 10:51:27.95	118.13	11.38	-33.5	-45.3	4.4	8.33e-01	0	59	104	2097152	34	17730
2026-01-19 10:51:28.96	118.04	11.46	-27.1	-39.8	3.8	8.40e-01	0	59	104	2097152	25	15801
2026-01-19 10:51:29.97	117.95	11.54	-23.5	-38.8	3.8	8.34e-01	0	59	104	2097152	20	18854
2026-01-19 10:51:30.97	117.86	11.62	-28.0	-40.5	4.5	8.33e-01	0	59	104	2097152	27	15285
2026-01-19 10:51:31.98	117.76	11.71	-23.9	-36.4	4.6	8.32e-01	0	59	104	2097152	28	9021
2026-01-19 10:51:32.99	117.67	11.79	-28.7	-38.1	4.2	8.41e-01	0	59	104	2097152	25	13059
2026-01-19 10:51:34.00	117.58	11.87	-28.7	-41.3	4.6	8.35e-01	0	59	104	2097152	29	14964
2026-01-19 10:51:35.01	117.48	11.96	-29.8	-40.4	4.4	8.35e-01	0	59	104	2097152	30	12691
2026-01-19 10:51:36.02	117.39	12.04	-35.3	-48.8	4.6	7.58e-01	0	59	104	2097152	39	19860
2026-01-19 10:51:37.03	117.29	12.12	-31.7	-43.1	4.7	7.78e-01	0	59	104	2097152	30	17372
2026-01-19 10:51:38.04	117.19	12.21	-22.9	-39.7	4.1	8.38e-01	0	59	104	2097152	19	22258
2026-01-19 10:51:39.05	117.10	12.29	-27.6	-41.5	3.8	8.31e-01	0	59	104	2097152	27	17138
2026-01-19 10:51:40.06	117.00	12.37	-29.1	-44.7	4.0	8.36e-01	0	59	104	2097152	27	24900
2026-01-19 10:51:41.07	116.90	12.46	-25.2	-37.3	3.8	8.43e-01	0	59	104	2097152	12	25090
2026-01-19 10:51:42.08	116.80	12.54	-26.8	-42.8	3.8	8.38e-01	0	59	104	2097152	28	18809
2026-01-19 10:51:43.09	116.70	12.63	-31.9	-45.4	4.1	8.38e-01	0	59	104	2097152	30	22731
2026-01-19 10:51:44.10	116.60	12.71	-34.5	-47.5	5.5	4.37e-01	0	59	0	2097152	40	16243
2026-01-19 10:51:45.11	116.50	12.80	-34.1	-48.4	4.1	8.42e-01	0	59	104	3145728	41	16980
2026-01-19 10:51:46.12	116.40	12.89	-33.6	-44.9	6.2	6.01e-01	0	59	0	3145728	38	13458
2026-01-19 10:51:47.13	116.30	12.97	-34.0	-41.6	10.3	3.72e-01	0	60	0	4194304	39	8690
2026-01-19 10:51:48.14	116.20	13.06	-31.6	-41.4	7.9	3.73e-01	0	59	0	7340032	36	10082
2026-01-19 10:51:49.15	116.09	13.14	-32.2	-41.8	8.8	6.48e-01	0	60	0	10485760	22	23728
2026-01-19 10:51:50.16	115.99	13.23	-34.7	-42.3	7.8	2.16e-01	0	60	0	15728640	37	10571
2026-01-19 10:51:51.17	115.89	13.32	-30.3	-41.4	8.6	4.90e-01	0	59	0	18874368	35	10714
2026-01-19 10:51:52.17	115.78	13.40	-32.5	-42.6	9.5	2.52e-01	0	60	0	23068672	38	10302
2026-01-19 10:51:53.18	115.68	13.49	-34.9	-42.3	9.7	2.50e-01	0	60	0	27262976	41	8378
2026-01-19 10:51:54.19	115.57	13.58	-35.1	-41.8	8.4	3.87e-01	0	60	0	31457280	35	11207
2026-01-19 10:51:55.20	115.47	13.66	-35.4	-42.3	10.6	2.37e-01	0	60	0	36700160	44	7079
2026-01-19 10:51:56.21	115.36	13.75	-36.8	-42.5	10.8	1.70e-01	0	60	0	41943040	44	7274
2026-01-19 10:51:57.22	115.25	13.84	-36.1	-42.5	10.6	1.28e-01	0	60	0	47185920	45	6814
2026-01-19 10:51:58.23	115.14	13.93	-36.4	-42.5	9.4	7.21e-02	0	60	0	52428800	45	6830
2026-01-19 10:51:59.24	115.03	14.02	-36.7	-42.4	10.8	6.65e-02	0	60	0	57671680	44	7136
2026-01-19 10:52:00.24	114.92	14.10	-35.1	-42.1	11.0	9.88e-02	0	60	0	62914560	44	6914
2026-01-19 10:52:01.26	114.81	14.19	-36.9	-42.0	11.8	5.24e-01	0	60	0	67108864	41	8174
2026-01-19 10:52:02.26	114.70	14.28	-38.7	-41.6	12.7	1.21e-02	0	60	0	72351744	47	5480
2026-01-19 10:52:03.27	114.59	14.37	-39.0	-41.7	12.7	3.61e-03	0	60	0	78643200	48	5251
2026-01-19 10:52:04.28	114.48	14.46	-38.7	-41.7	12.2	4.07e-03	0	60	0	83886080	48	5265
2026-01-19 10:52:05.29	114.36	14.55	-39.0	-41.7	12.6	7.57e-03	0	60	0	89128960	48	5255
2026-01-19 10:52:06.30	114.25	14.64	-39.0	-41.8	12.5	1.49e-03	0	60	0	95420416	49	4984
2026-01-19 10:52:07.31	114.14	14.73	-38.1	-41.2	12.7	5.90e-04	0	60	0	100663296	48	4959
2026-01-19 10:52:08.32	114.02	14.82	-38.5	-40.8	13.7	4.26e-03	0	60	0	106954752	47	5031
2026-01-19 10:52:09.33	113.90	14.91	-38.2	-40.6	13.9	4.71e-03	0	60	0	112197632	47	4875
2026-01-19 10:52:10.34	113.79	15.00	-38.2	-40.7	13.7	5.97e-04	0	60	0	118489088	47	4937
2026-01-19 10:52:11.35	113.67	15.09	-38.3	-40.6	13.9	1.97e-04	0	60	0	123731968	47	4876
2026-01-19 10:52:12.36	113.55	15.18	-37.9	-40.4	13.7	4.85e-04	0	60	0	130023424	46	5091
2026-01-19 10:52:13.37	113.43	15.28	-38.0	-40.5	13.8	6.68e-04	0	60	0	135266304	47	4822
2026-01-19 10:52:14.38	113.31	15.37	-37.9	-40.5	13.6	7.41e-04	0	60	0	140509184	47	4825
2026-01-19 10:52:15.39	113.19	15.46	-38.4	-40.6	13.8	3.31e-03	0	60	0	146800640	47	4908
2026-01-19 10:52:16.40	113.07	15.55	-37.9	-40.5	13.7	3.33e-03	0	60	0	152043520	46	5101
2026-01-19 10:52:17.41	112.95	15.64	-37.0	-40.4	13.0	1.06e-03	0	60	0	158334976	45	5359
2026-01-19 10:52:18.41	112.83	15.73	-37.7	-40.4	13.7	2.28e-03	0	60	0	163577856	46	5048
2026-01-19 10:52:19.42	112.70	15.83	-38.2	-40.4	14.3	4.92e-05	0	60	0	168820736	47	4770
2026-01-19 10:52:20.43	112.58	15.92	-38.2	-40.4	13.9	1.50e-04	0	60	0	175112192	47	4795
2026-01-19 10:52:21.44	112.45	16.01	-38.1	-40.3	14.4	7.55e-05	0	60	0	180355072	47	4710
2026-01-19 10:52:22.45	112.33	16.11	-38.0	-40.2	14.2	6.26e-04	0	60	0	186646528	46	4956
2026-01-19 10:52:23.46	112.20	16.20	-38.1	-40.2	14.6	4.57e-05	0	60	0	191889408	46	4933
2026-01-19 10:52:24.47	112.07	16.29	-38.0	-40.0	14.7	4.57e-05	0	60	0	197132288	46	4866
2026-01-19 10:52:25.48	111.94	16.39	-37.8	-39.9	14.8	9.15e-05	0	60	0	203423744	46	4789
2026-01-19 10:52:26.49	111.82	16.48	-38.0	-40.0	14.8	1.48e-05	0	60	0	208666624	46	4840
2026-01-19 10:52:27.50	111.69	16.58	-38.0	-40.1	14.7	2.20e-06	0	60	0	214958080	46	4879
2026-01-19 10:52:28.51	111.55	16.67	-38.1	-40.2	14.6	3.40e-06	0	60	0	220200960	46	4975
2026-01-19 10:52:29.52	111.42	16.77	-38.1	-40.2	14.6	1.10e-06	0	60	0	226492416	46	4967
2026-01-19 10:52:30.53	111.29	16.86	-38.1	-40.3	14.5	4.50e-06	0	60	0	231735296	46	4991
2026-01-19 10:52:31.54	111.16	16.96	-38.1	-40.2	14.6	0.00e+00	0	60	0	236978176	46	4950
2026-01-19 10:52:32.55	111.02	17.05	-38.0	-40.1	14.7	0.00e+00	0	60	0	243269632	46	4893
2026-01-19 10:52:33.56	110.89	17.15	-38.1	-40.2	14.6	0.00e+00	0	60	0	248512512	46	4944
2026-01-19 10:52:34.57	110.75	17.24	-38.1	-40.1	14.7	1.10e-06	0	60	0	254803968	46	4913
2026-01-19 10:52:35.58	110.61	17.34	-38.0	-40.0	14.9	3.40e-06	0	60	0	260046848	46	4845
2026-01-19 10:52:36.59	110.48	17.44	-37.9	-40.0	14.8	0.00e+00	0	60	0	265289728	46	4841
2026-01-19 10:52:37.59	110.34	17.53	-37.9	-39.9	14.9	0.00e+00	0	60	0	271581184	46	4814
2026-01-19 10:52:38.61	110.20	17.63	-37.8	-39.8	15.1	0.00e+00	0	60	0	276824064	46	4725
2026-01-19 10:52:39.61	110.06	17.73	-37.7	-39.6	15.2	0.00e+00	0	60	0	283115520	46	4642
2026-01-19 10:52:40.63	109.92	17.82	-37.7	-39.6	15.3	0.00e+00	0	60	0	288358400	46	4645
2026-01-19 10:52:41.64	109.77	17.92	-37.7	-39.7	15.2	0.00e+00	0	60	0	293601280	46	4662
2026-01-19 10:52:42.65	109.63	18.02	-37.7	-39.6	15.2	0.00e+00	0	60	0	299892736	46	4637
2026-01-19 10:52:43.66	109.49	18.12	-37.6	-39.5	15.4	0.00e+00	0	60	0	305135616	46	4595
2026-01-19 10:52:44.67	109.34	18.21	-37.6	-39.5	15.4	0.00e+00	0	60	0	311427072	46	4598
2026-01-19 10:52:45.68	109.19	18.31	-37.7	-39.6	15.3	0.00e+00	0	60	0	316669952	46	4615
2026-01-19 10:52:46.69	109.05	18.41	-37.7	-39.7	15.2	0.00e+00	0	60	0	322961408	46	4672
2026-01-19 10:52:47.70	108.90	18.51	-37.8	-39.7	15.2	0.00e+00	0	60	0	328204288	46	4684
2026-01-19 10:52:48.71	108.75	18.61	-37.9	-39.9	15.0	1.10e-06	0	60	0	334495744	46	4760
2026-01-19 10:52:49.72	108.60	18.71	-37.8	-39.7	15.1	0.00e+00	0	61	0	339738624	46	4690
2026-01-19 10:52:50.73	108.45	18.81	-37.7	-39.7	15.2	0.00e+00	0	60	0	344981504	46	4684
2026-01-19 10:52:51.74	108.30	18.91	-37.8	-39.8	15.2	0.00e+00	0	61	0	351272960	46	4709
2026-01-19 10:52:52.75	108.14	19.01	-37.6	-39.6	15.3	0.00e+00	0	60	0	356515840	46	4611
2026-01-19 10:52:53.76	107.99	19.11	-37.6	-39.5	15.4	0.00e+00	0	61	0	362807296	46	4562
2026-01-19 10:52:54.77	107.84	19.20	-37.5	-39.4	15.4	0.00e+00	0	60	0	368050176	46	4538
2026-01-19 10:52:55.78	107.68	19.30	-37.5	-39.4	15.5	0.00e+00	0	61	0	373293056	46	4507
2026-01-19 10:52:56.79	107.52	19.41	-37.5	-39.3	15.6	0.00e+00	0	61	0	379584512	46	4474
2026-01-19 10:52:57.80	107.36	19.51	-37.5	-39.4	15.5	0.00e+00	0	61	0	384827392	46	4497
2026-01-19 10:52:58.81	107.20	19.61	-37.5	-39.3	15.6	1.10e-06	0	60	0	391118848	46	4486
2026-01-19 10:52:59.81	107.05	19.71	-37.5	-39.4	15.5	0.00e+00	0	61	0	396361728	46	4506
2026-01-19 10:53:00.82	106.88	19.81	-37.3	-39.2	15.8	0.00e+00	0	61	0	401604608	46	4397
2026-01-19 10:53:01.83	106.72	19.91	-37.3	-39.1	15.8	0.00e+00	0	61	0	407896064	46	4366
2026-01-19 10:53:02.84	106.56	20.01	-37.3	-39.2	15.8	0.00e+00	0	60	0	413138944	46	4401
2026-01-19 10:53:03.85	106.39	20.11	-37.4	-39.3	15.7	0.00e+00	0	61	0	419430400	46	4454
2026-01-19 10:53:04.86	106.23	20.21	-37.5	-39.4	15.5	0.00e+00	0	61	0	424673280	46	4501
2026-01-19 10:53:05.87	106.06	20.31	-37.5	-39.4	15.5	0.00e+00	0	61	0	430964736	46	4517
2026-01-19 10:53:06.88	105.89	20.42	-37.6	-39.5	15.5	0.00e+00	0	61	0	436207616	46	4558
2026-01-19 10:53:07.89	105.72	20.52	-37.5	-39.4	15.5	0.00e+00	0	60	0	441450496	46	4543
2026-01-19 10:53:08.90	105.55	20.62	-37.5	-39.4	15.5	0.00e+00	0	61	0	447741952	46	4536
2026-01-19 10:53:09.91	105.38	20.72	-37.5	-39.4	15.6	0.00e+00	0	61	0	452984832	46	4504
2026-01-19 10:53:10.93	105.21	20.83	-37.4	-39.3	15.7	0.00e+00	0	60	0	459276288	46	4452
2026-01-19 10:53:11.93	105.04	20.93	-37.3	-39.1	15.9	0.00e+00	0	61	0	464519168	46	4358
2026-01-19 10:53:12.94	104.86	21.03	-37.3	-39.1	15.8	0.00e+00	0	61	0	469762048	46	4381
2026-01-19 10:53:13.96	104.68	21.13	-37.2	-39.0	15.9	0.00e+00	0	61	0	476053504	46	4337
2026-01-19 10:53:14.97	104.51	21.24	-37.2	-39.0	16.0	0.00e+00	0	61	0	481296384	46	4295
2026-01-19 10:53:15.97	104.33	21.34	-37.1	-38.9	16.0	0.00e+00	0	61	0	487587840	46	4278
2026-01-19 10:53:16.98	104.15	21.44	-37.1	-38.9	16.1	0.00e+00	0	61	0	492830720	46	4248
2026-01-19 10:53:17.99	103.97	21.55	-37.1	-38.8	16.1	0.00e+00	0	61	0	498073600	46	4239
2026-01-19 10:53:19.00	103.79	21.65	-37.1	-38.9	16.1	0.00e+00	0	61	0	504365056	46	4254
2026-01-19 10:53:20.01	103.60	21.75	-37.1	-38.9	16.0	0.00e+00	0	61	0	509607936	46	4266
2026-01-19 10:53:21.02	103.42	21.86	-37.1	-38.9	16.0	0.00e+00	0	61	0	515899392	46	4284
2026-01-19 10:53:22.03	103.23	21.96	-37.2	-39.0	15.9	0.00e+00	0	61	0	521142272	46	4330
2026-01-19 10:53:23.04	103.05	22.07	-37.2	-39.0	16.0	0.00e+00	0	61	0	527433728	46	4302
2026-01-19 10:53:24.05	102.86	22.17	-37.1	-38.9	16.0	0.00e+00	0	61	0	532676608	46	4288
2026-01-19 10:53:25.06	102.67	22.27	-37.2	-39.0	15.9	0.00e+00	0	61	0	538968064	46	4322
2026-01-19 10:53:26.06	102.48	22.38	-37.2	-39.0	15.9	0.00e+00	0	61	0	544210944	46	4326
2026-01-19 10:53:27.08	102.28	22.48	-37.1	-38.9	16.0	0.00e+00	0	61	0	549453824	46	4283
2026-01-19 10:53:28.09	102.09	22.59	-37.0	-38.8	16.2	0.00e+00	0	61	0	555745280	46	4198
2026-01-19 10:53:29.10	101.90	22.69	-37.0	-38.7	16.2	0.00e+00	0	61	0	560988160	45	4435
2026-01-19 10:53:30.11	101.70	22.80	-36.9	-38.7	16.3	0.00e+00	0	61	0	567279616	45	4410
2026-01-19 10:53:31.12	101.50	22.90	-36.9	-38.7	16.3	0.00e+00	0	61	0	572522496	45	4393
2026-01-19 10:53:32.13	101.30	23.00	-36.9	-38.6	16.3	0.00e+00	0	61	0	577765376	45	4380
2026-01-19 10:53:33.14	101.10	23.11	-37.0	-38.7	16.2	0.00e+00	0	61	0	584056832	45	4430
2026-01-19 10:53:34.15	100.90	23.21	-37.0	-38.7	16.2	0.00e+00	0	61	0	589299712	45	4438
2026-01-19 10:53:35.16	100.70	23.32	-37.0	-38.8	16.1	0.00e+00	0	61	0	595591168	45	4475
2026-01-19 10:53:36.17	100.50	23.42	-37.1	-38.9	16.1	0.00e+00	0	61	0	600834048	45	4503
2026-01-19 10:53:37.18	100.29	23.53	-37.1	-38.9	16.1	0.00e+00	0	61	0	606076928	45	4513
2026-01-19 10:53:38.19	100.08	23.63	-37.1	-38.9	16.1	0.00e+00	0	61	0	612368384	45	4511
2026-01-19 10:53:39.20	99.87	23.74	-37.1	-38.9	16.1	0.00e+00	0	61	0	617611264	45	4517
2026-01-19 10:53:40.21	99.66	23.84	-37.1	-38.8	16.1	0.00e+00	0	61	0	623902720	45	4492
2026-01-19 10:53:41.22	99.45	23.95	-36.9	-38.7	16.3	0.00e+00	0	61	0	629145600	45	4430
2026-01-19 10:53:42.23	99.24	24.05	-37.0	-38.7	16.3	0.00e+00	0	61	0	635437056	45	4431
2026-01-19 10:53:43.24	99.03	24.16	-36.9	-38.6	16.4	0.00e+00	0	61	0	640679936	45	4384
2026-01-19 10:53:44.25	98.81	24.26	-36.8	-38.5	16.5	0.00e+00	0	61	0	646971392	45	4300
2026-01-19 10:53:45.26	98.59	24.37	-36.7	-38.4	16.6	0.00e+00	0	61	0	652214272	45	4265
2026-01-19 10:53:46.27	98.37	24.47	-36.6	-38.3	16.7	0.00e+00	0	61	0	657457152	45	4236
2026-01-19 10:53:47.28	98.15	24.58	-36.6	-38.3	16.7	0.00e+00	0	61	0	663748608	45	4220
2026-01-19 10:53:48.29	97.93	24.68	-36.7	-38.4	16.6	0.00e+00	0	61	0	668991488	45	4256
2026-01-19 10:53:49.30	97.71	24.79	-36.6	-38.3	16.8	0.00e+00	0	61	0	675282944	45	4200
2026-01-19 10:53:50.32	97.48	24.89	-36.7	-38.3	16.7	0.00e+00	0	61	0	680525824	45	4238
2026-01-19 10:53:51.33	97.26	25.00	-36.6	-38.2	16.8	0.00e+00	0	61	0	685768704	45	4185
2026-01-19 10:53:52.34	97.03	25.10	-36.6	-38.2	16.8	0.00e+00	0	61	0	692060160	45	4186
2026-01-19 10:53:53.35	96.80	25.21	-36.6	-38.2	16.8	0.00e+00	0	61	0	697303040	45	4176
2026-01-19 10:53:54.36	96.57	25.31	-36.5	-38.2	16.9	0.00e+00	0	61	0	703594496	45	4154
2026-01-19 10:53:55.37	96.34	25.41	-36.5	-38.1	16.9	0.00e+00	0	61	0	708837376	44	4388
2026-01-19 10:53:56.37	96.11	25.52	-36.5	-38.1	16.9	0.00e+00	0	61	0	714080256	44	4382
2026-01-19 10:53:57.38	95.87	25.62	-36.5	-38.2	16.9	0.00e+00	0	61	0	720371712	44	4397
2026-01-19 10:53:58.39	95.64	25.72	-36.5	-38.2	16.9	0.00e+00	0	61	0	725614592	44	4396
2026-01-19 10:53:59.40	95.40	25.83	-36.3	-37.9	17.1	0.00e+00	0	61	0	731906048	44	4269
2026-01-19 10:54:00.41	95.16	25.93	-36.3	-37.9	17.1	0.00e+00	0	61	0	737148928	44	4270
2026-01-19 10:54:01.42	94.92	26.04	-36.4	-38.0	17.1	0.00e+00	0	61	0	743440384	44	4319
2026-01-19 10:54:02.43	94.67	26.14	-36.4	-38.0	17.0	0.00e+00	0	61	0	748683264	44	4337
2026-01-19 10:54:03.44	94.43	26.24	-36.4	-38.0	17.1	0.00e+00	0	61	0	753926144	44	4306
2026-01-19 10:54:04.45	94.18	26.34	-36.4	-38.0	17.0	0.00e+00	0	61	0	760217600	44	4316
2026-01-19 10:54:05.46	93.93	26.45	-36.5	-38.1	16.9	0.00e+00	0	61	0	765460480	44	4378
2026-01-19 10:54:06.47	93.68	26.55	-36.5	-38.1	16.9	0.00e+00	0	61	0	771751936	44	4391
2026-01-19 10:54:07.48	93.43	26.65	-36.6	-38.3	16.8	0.00e+00	0	61	0	776994816	44	4450
2026-01-19 10:54:08.49	93.18	26.75	-36.6	-38.3	16.8	0.00e+00	0	61	0	782237696	44	4467
2026-01-19 10:54:09.51	92.92	26.86	-36.5	-38.1	17.0	0.00e+00	0	61	0	788529152	44	4370
2026-01-19 10:54:10.52	92.67	26.96	-36.4	-38.1	17.0	0.00e+00	0	61	0	793772032	44	4366
2026-01-19 10:54:11.53	92.41	27.06	-36.5	-38.1	17.0	0.00e+00	0	61	0	800063488	44	4376
2026-01-19 10:54:12.54	92.15	27.16	-36.5	-38.1	16.9	0.00e+00	0	61	0	805306368	44	4385
2026-01-19 10:54:13.55	91.89	27.26	-36.4	-38.0	17.1	0.00e+00	0	61	0	810549248	44	4311
2026-01-19 10:54:14.56	91.63	27.36	-36.3	-37.9	17.2	0.00e+00	0	61	0	816840704	44	4273
2026-01-19 10:54:15.57	91.36	27.46	-36.3	-37.9	17.1	0.00e+00	0	61	0	822083584	44	4290
2026-01-19 10:54:16.58	91.10	27.56	-36.3	-37.9	17.1	0.00e+00	0	61	0	828375040	44	4291
2026-01-19 10:54:17.59	90.83	27.66	-36.4	-38.0	17.1	0.00e+00	0	61	0	833617920	44	4311
2026-01-19 10:54:18.60	90.56	27.76	-36.4	-38.0	17.1	0.00e+00	0	61	0	839909376	44	4307
2026-01-19 10:54:19.61	90.29	27.86	-36.3	-38.0	17.1	0.00e+00	0	61	0	845152256	44	4298
2026-01-19 10:54:20.62	90.02	27.96	-36.4	-38.0	17.1	0.00e+00	0	61	0	851443712	44	4301
2026-01-19 10:54:21.63	89.74	28.05	-36.4	-38.1	17.0	0.00e+00	0	61	0	856686592	44	4359
2026-01-19 10:54:22.64	89.47	28.15	-36.3	-38.0	17.1	0.00e+00	0	61	0	861929472	44	4300
2026-01-19 10:54:23.65	89.19	28.25	-36.2	-37.8	17.3	0.00e+00	0	61	0	868220928	44	4239
2026-01-19 10:54:24.66	88.91	28.35	-36.3	-37.9	17.2	0.00e+00	0	61	0	873463808	44	4243
2026-01-19 10:54:25.67	88.63	28.44	-36.1	-37.6	17.5	0.00e+00	0	61	0	879755264	44	4117
2026-01-19 10:54:26.67	88.35	28.54	-35.7	-37.2	17.7	0.00e+00	0	61	0	884998144	43	4190
2026-01-19 10:54:27.68	88.07	28.63	-35.8	-37.3	17.6	0.00e+00	0	61	0	890241024	43	4239
2026-01-19 10:54:28.70	87.78	28.73	-35.9	-37.4	17.5	0.00e+00	0	61	0	896532480	43	4281
2026-01-19 10:54:29.71	87.49	28.82	-35.9	-37.5	17.5	0.00e+00	0	61	0	901775360	43	4304
2026-01-19 10:54:30.71	87.20	28.92	-36.0	-37.6	17.4	0.00e+00	0	61	0	908066816	43	4342
2026-01-19 10:54:31.72	86.91	29.01	-35.9	-37.5	17.4	0.00e+00	0	61	0	913309696	43	4315
2026-01-19 10:54:32.73	86.62	29.10	-36.0	-37.6	17.4	0.00e+00	0	61	0	918552576	43	4342
2026-01-19 10:54:33.74	86.32	29.20	-36.1	-37.6	17.3	0.00e+00	0	61	0	924844032	43	4387
2026-01-19 10:54:34.75	86.03	29.29	-36.1	-37.7	17.3	0.00e+00	0	61	0	930086912	43	4397
2026-01-19 10:54:35.76	85.73	29.38	-36.0	-37.6	17.3	0.00e+00	0	61	0	936378368	43	4378
2026-01-19 10:54:36.77	85.43	29.47	-36.1	-37.6	17.3	0.00e+00	0	61	0	941621248	43	4389
2026-01-19 10:54:37.78	85.13	29.56	-36.0	-37.6	17.4	0.00e+00	0	61	0	947912704	43	4374
2026-01-19 10:54:38.79	84.82	29.65	-35.9	-37.5	17.5	0.00e+00	0	62	0	953155584	43	4293
2026-01-19 10:54:39.80	84.52	29.74	-35.9	-37.4	17.5	0.00e+00	0	61	0	958398464	43	4287
2026-01-19 10:54:40.81	84.21	29.83	-35.9	-37.4	17.5	0.00e+00	0	61	0	964689920	43	4271
2026-01-19 10:54:41.82	83.90	29.92	-35.8	-37.4	17.6	0.00e+00	0	61	0	969932800	43	4267
2026-01-19 10:54:42.83	83.60	30.00	-35.9	-37.5	17.5	0.00e+00	0	61	0	976224256	43	4296
2026-01-19 10:54:43.84	83.28	30.09	-36.0	-37.5	17.4	0.00e+00	0	61	0	981467136	43	4337
2026-01-19 10:54:44.84	82.97	30.17	-35.9	-37.5	17.5	0.00e+00	0	61	0	986710016	43	4293
2026-01-19 10:54:45.85	82.66	30.26	-36.0	-37.6	17.4	0.00e+00	0	61	0	993001472	43	4364
2026-01-19 10:54:46.86	82.34	30.34	-36.0	-37.6	17.4	0.00e+00	0	61	0	998244352	43	4367
2026-01-19 10:54:47.87	82.02	30.43	-35.9	-37.4	17.5	0.00e+00	0	61	0	1004535808	43	4288
2026-01-19 10:54:48.89	81.70	30.51	-35.8	-37.3	17.7	0.00e+00	0	61	0	1009778688	43	4198
2026-01-19 10:54:49.90	81.38	30.59	-35.8	-37.3	17.6	0.00e+00	0	62	0	1015021568	43	4238
2026-01-19 10:54:50.91	81.06	30.67	-35.7	-37.2	17.8	0.00e+00	0	62	0	1021313024	43	4155
2026-01-19 10:54:51.92	80.73	30.75	-35.6	-37.1	17.9	0.00e+00	0	61	0	1026555904	43	4113
2026-01-19 10:54:52.93	80.41	30.83	-35.5	-37.0	18.0	0.00e+00	0	61	0	1032847360	43	4089
2026-01-19 10:54:53.94	80.08	30.91	-35.5	-37.0	18.0	0.00e+00	0	62	0	1038090240	43	4071
2026-01-19 10:54:54.95	79.75	30.99	-35.5	-36.9	18.1	0.00e+00	0	61	0	1044381696	42	4276
2026-01-19 10:54:55.96	79.42	31.07	-35.6	-37.1	17.9	0.00e+00	0	61	0	1049624576	42	4351
2026-01-19 10:54:56.97	79.08	31.14	-35.7	-37.2	17.8	0.00e+00	0	62	0	1055916032	42	4429
2026-01-19 10:54:57.98	78.75	31.22	-35.7	-37.2	17.8	0.00e+00	0	61	0	1061158912	42	4427
2026-01-19 10:54:58.99	78.41	31.29	-35.7	-37.2	17.8	0.00e+00	0	62	0	1066401792	42	4424
2026-01-19 10:54:59.99	78.08	31.36	-35.5	-37.0	18.0	0.00e+00	0	61	0	1072693248	42	4319
2026-01-19 10:55:01.00	77.74	31.44	-35.5	-37.0	18.0	0.00e+00	0	61	0	1077936128	42	4307
2026-01-19 10:55:02.01	77.40	31.51	-35.4	-36.8	18.2	0.00e+00	0	61	0	1084227584	42	4241
2026-01-19 10:55:03.02	77.06	31.58	-35.4	-36.8	18.2	0.00e+00	0	61	0	1089470464	42	4223
2026-01-19 10:55:04.03	76.72	31.65	-35.4	-36.9	18.1	0.00e+00	0	61	0	1094713344	42	4275
2026-01-19 10:55:05.04	76.37	31.72	-35.5	-37.0	18.0	0.00e+00	0	61	0	1101004800	42	4335
2026-01-19 10:55:06.05	76.03	31.78	-35.7	-37.2	17.9	0.00e+00	0	62	0	1106247680	42	4396
2026-01-19 10:55:07.06	75.68	31.85	-35.7	-37.2	17.8	0.00e+00	0	61	0	1112539136	42	4424
2026-01-19 10:55:08.07	75.33	31.92	-35.7	-37.2	17.9	0.00e+00	0	62	0	1117782016	42	4410
2026-01-19 10:55:09.08	74.98	31.98	-35.6	-37.1	18.0	0.00e+00	0	62	0	1123024896	42	4361
2026-01-19 10:55:10.09	74.63	32.04	-35.7	-37.1	17.9	0.00e+00	0	62	0	1129316352	42	4391
2026-01-19 10:55:11.10	74.27	32.10	-35.6	-37.1	18.0	0.00e+00	0	62	0	1134559232	42	4344
2026-01-19 10:55:12.11	73.92	32.17	-35.4	-36.9	18.1	0.00e+00	0	62	0	1140850688	42	4270
2026-01-19 10:55:13.12	73.56	32.23	-35.3	-36.8	18.2	0.00e+00	0	62	0	1146093568	42	4201
2026-01-19 10:55:14.13	73.21	32.28	-35.2	-36.7	18.4	0.00e+00	0	62	0	1152385024	42	4153
2026-01-19 10:55:15.14	72.85	32.34	-35.3	-36.8	18.3	0.00e+00	0	62	0	1157627904	42	4211
2026-01-19 10:55:16.15	72.49	32.40	-35.4	-36.8	18.2	0.00e+00	0	61	0	1162870784	42	4223
2026-01-19 10:55:17.16	72.13	32.45	-35.4	-36.9	18.2	0.00e+00	0	62	0	1169162240	42	4247
2026-01-19 10:55:18.17	71.77	32.51	-35.5	-36.9	18.1	0.00e+00	0	62	0	1174405120	42	4291
2026-01-19 10:55:19.18	71.40	32.56	-35.5	-37.0	18.0	0.00e+00	0	62	0	1180696576	42	4333
2026-01-19 10:55:20.19	71.04	32.61	-35.5	-37.0	18.1	0.00e+00	0	62	0	1185939456	42	4312
2026-01-19 10:55:21.20	70.67	32.66	-35.5	-37.0	18.1	0.00e+00	0	61	0	1191182336	42	4316
2026-01-19 10:55:22.21	70.31	32.71	-35.5	-37.0	18.1	0.00e+00	0	62	0	1197473792	42	4320
2026-01-19 10:55:23.22	69.94	32.76	-35.5	-37.0	18.1	0.00e+00	0	62	0	1202716672	42	4328
2026-01-19 10:55:24.23	69.57	32.81	-35.5	-36.9	18.1	0.00e+00	0	62	0	1209008128	42	4280
2026-01-19 10:55:25.24	69.20	32.85	-35.5	-36.9	18.2	0.00e+00	0	62	0	1214251008	42	4279
2026-01-19 10:55:26.25	68.83	32.90	-35.4	-36.9	18.2	0.00e+00	0	61	0	1219493888	42	4254
2026-01-19 10:55:27.26	68.46	32.94	-35.4	-36.9	18.2	0.00e+00	0	62	0	1225785344	42	4267
2026-01-19 10:55:28.27	68.08	32.98	-35.5	-36.9	18.1	0.00e+00	0	62	0	1231028224	42	4280
2026-01-19 10:55:29.28	67.71	33.02	-35.4	-36.9	18.1	0.00e+00	0	62	0	1237319680	42	4263
2026-01-19 10:55:30.29	67.33	33.06	-35.5	-36.9	18.1	0.00e+00	0	62	0	1242562560	42	4290
2026-01-19 10:55:31.30	66.96	33.10	-35.6	-37.1	18.0	0.00e+00	0	62	0	1248854016	42	4348
2026-01-19 10:55:32.31	66.58	33.13	-35.6	-37.1	18.0	0.00e+00	0	62	0	1254096896	42	4374
2026-01-19 10:55:33.32	66.20	33.17	-35.6	-37.1	17.9	0.00e+00	0	62	0	1260388352	42	4388
2026-01-19 10:55:34.33	65.83	33.20	-35.5	-37.0	18.1	0.00e+00	0	62	0	1265631232	42	4316
2026-01-19 10:55:35.34	65.45	33.23	-35.5	-37.0	18.1	0.00e+00	0	62	0	1270874112	42	4299
2026-01-19 10:55:36.35	65.07	33.26	-35.4	-36.8	18.3	0.00e+00	0	61	0	1277165568	42	4222
2026-01-19 10:55:37.36	64.69	33.29	-35.4	-36.9	18.2	0.00e+00	0	62	0	1282408448	42	4260
2026-01-19 10:55:38.37	64.31	33.32	-35.5	-37.0	18.1	0.00e+00	0	62	0	1288699904	42	4309
2026-01-19 10:55:39.38	63.93	33.35	-35.6	-37.1	18.0	0.00e+00	0	62	0	1293942784	42	4353
2026-01-19 10:55:40.39	63.54	33.37	-35.6	-37.0	18.1	0.00e+00	0	62	0	1299185664	42	4333
2026-01-19 10:55:41.40	63.16	33.40	-35.6	-37.1	18.0	0.00e+00	0	62	0	1305477120	42	4347
2026-01-19 10:55:42.41	62.78	33.42	-35.5	-37.0	18.1	0.00e+00	0	61	0	1310720000	42	4317
2026-01-19 10:55:43.42	62.39	33.44	-35.5	-36.9	18.2	0.00e+00	0	62	0	1317011456	42	4288
2026-01-19 10:55:44.43	62.01	33.46	-35.4	-36.9	18.2	0.00e+00	0	61	0	1322254336	42	4247
2026-01-19 10:55:45.44	61.62	33.47	-35.4	-36.9	18.2	0.00e+00	0	62	0	1327497216	42	4266
2026-01-19 10:55:46.45	61.24	33.49	-35.4	-36.9	18.2	0.00e+00	0	62	0	1333788672	42	4279
2026-01-19 10:55:47.46	60.85	33.51	-35.5	-37.0	18.1	0.00e+00	0	62	0	1339031552	42	4303
2026-01-19 10:55:48.46	60.47	33.52	-35.7	-37.2	18.0	0.00e+00	0	62	0	1345323008	42	4393
2026-01-19 10:55:49.48	60.08	33.53	-35.5	-36.9	18.2	0.00e+00	0	62	0	1350565888	42	4277
2026-01-19 10:55:50.49	59.70	33.54	-35.2	-36.7	18.4	0.00e+00	0	62	0	1356857344	42	4153
2026-01-19 10:55:51.50	59.31	33.55	-35.2	-36.6	18.5	0.00e+00	0	62	0	1362100224	42	4130
2026-01-19 10:55:52.51	58.92	33.56	-35.2	-36.6	18.5	0.00e+00	0	62	0	1368391680	42	4138
2026-01-19 10:55:53.52	58.54	33.56	-35.1	-36.6	18.5	0.00e+00	0	61	0	1373634560	42	4099
2026-01-19 10:55:54.52	58.15	33.57	-35.1	-36.4	18.6	0.00e+00	0	62	0	1378877440	42	4045
2026-01-19 10:55:55.53	57.77	33.57	-35.2	-36.6	18.5	0.00e+00	0	62	0	1385168896	42	4126
2026-01-19 10:55:56.54	57.38	33.57	-35.3	-36.8	18.4	0.00e+00	0	62	0	1390411776	42	4197
2026-01-19 10:55:57.55	56.99	33.57	-35.3	-36.8	18.3	0.00e+00	0	62	0	1396703232	42	4216
2026-01-19 10:55:58.56	56.60	33.57	-35.3	-36.7	18.4	0.00e+00	0	62	0	1401946112	42	4171
2026-01-19 10:55:59.57	56.22	33.57	-35.3	-36.7	18.4	0.00e+00	0	61	0	1407188992	42	4193
2026-01-19 10:56:00.58	55.83	33.56	-35.4	-36.9	18.2	0.00e+00	0	62	0	1413480448	42	4244
2026-01-19 10:56:01.59	55.44	33.56	-35.6	-37.1	18.1	0.00e+00	0	62	0	1418723328	42	4351
2026-01-19 10:56:02.60	55.06	33.55	-35.6	-37.1	18.0	0.00e+00	0	62	0	1423966208	42	4385
2026-01-19 10:56:03.61	54.67	33.54	-35.5	-37.0	18.1	0.00e+00	0	62	0	1430257664	42	4307
2026-01-19 10:56:04.62	54.28	33.53	-35.6	-37.1	18.1	0.00e+00	0	62	0	1435500544	42	4354
2026-01-19 10:56:05.63	53.90	33.52	-35.5	-37.0	18.1	0.00e+00	0	62	0	1441792000	42	4302
2026-01-19 10:56:06.63	53.52	33.51	-35.5	-37.0	18.2	0.00e+00	0	62	0	1447034880	42	4295
2026-01-19 10:56:07.64	53.13	33.49	-35.6	-37.0	18.1	0.00e+00	0	62	0	1453326336	42	4335
2026-01-19 10:56:08.65	52.75	33.48	-35.5	-36.9	18.2	0.00e+00	0	62	0	1458569216	42	4291
2026-01-19 10:56:09.66	52.36	33.46	-35.4	-36.9	18.3	0.00e+00	0	62	0	1464860672	42	4253
2026-01-19 10:56:10.67	51.98	33.44	-35.5	-36.9	18.2	0.00e+00	0	61	0	1470103552	42	4271
2026-01-19 10:56:11.68	51.60	33.42	-35.5	-36.9	18.2	0.00e+00	0	62	0	1475346432	42	4263
2026-01-19 10:56:12.69	51.21	33.40	-35.4	-36.9	18.3	0.00e+00	0	62	0	1481637888	42	4256
2026-01-19 10:56:13.70	50.83	33.37	-35.4	-36.9	18.3	0.00e+00	0	62	0	1486880768	42	4244
2026-01-19 10:56:14.71	50.45	33.35	-35.4	-36.9	18.2	0.00e+00	0	62	0	1493172224	42	4271
2026-01-19 10:56:15.72	50.07	33.32	-35.5	-36.9	18.2	0.00e+00	0	62	0	1498415104	42	4290
2026-01-19 10:56:16.73	49.69	33.30	-35.4	-36.8	18.3	0.00e+00	0	62	0	1503657984	42	4233
2026-01-19 10:56:17.74	49.31	33.27	-35.4	-36.9	18.3	0.00e+00	0	62	0	1509949440	42	4248
2026-01-19 10:56:18.75	48.93	33.24	-35.6	-37.1	18.1	0.00e+00	0	62	0	1515192320	42	4358
2026-01-19 10:56:19.76	48.55	33.20	-35.7	-37.2	18.0	0.00e+00	0	62	0	1521483776	42	4398
2026-01-19 10:56:20.77	48.17	33.17	-35.7	-37.2	18.0	0.00e+00	0	62	0	1526726656	42	4402
2026-01-19 10:56:21.78	47.79	33.14	-35.6	-37.0	18.1	0.00e+00	0	62	0	1531969536	42	4336
2026-01-19 10:56:22.79	47.42	33.10	-35.6	-37.0	18.1	0.00e+00	0	62	0	1538260992	42	4330
2026-01-19 10:56:23.80	47.04	33.06	-35.6	-37.0	18.1	0.00e+00	0	62	0	1543503872	42	4330
2026-01-19 10:56:24.81	46.67	33.03	-35.5	-37.0	18.2	0.00e+00	0	62	0	1549795328	42	4321
2026-01-19 10:56:25.82	46.29	32.99	-35.6	-37.0	18.1	0.00e+00	0	62	0	1555038208	42	4335
2026-01-19 10:56:26.83	45.92	32.94	-35.6	-37.1	18.1	0.00e+00	0	62	0	1561329664	42	4348
2026-01-19 10:56:27.84	45.55	32.90	-35.5	-37.0	18.1	0.00e+00	0	62	0	1566572544	42	4324
2026-01-19 10:56:28.85	45.18	32.86	-35.6	-37.1	18.1	0.00e+00	0	62	0	1571815424	42	4367
2026-01-19 10:56:29.86	44.81	32.81	-35.6	-37.1	18.0	0.00e+00	0	62	0	1578106880	42	4377
2026-01-19 10:56:30.87	44.44	32.77	-35.7	-37.2	18.0	0.00e+00	0	62	0	1583349760	42	4393
2026-01-19 10:56:31.88	44.07	32.72	-35.6	-37.0	18.1	0.00e+00	0	62	0	1589641216	42	4329
2026-01-19 10:56:32.89	43.71	32.67	-35.6	-37.0	18.1	0.00e+00	0	62	0	1594884096	42	4327
2026-01-19 10:56:33.90	43.34	32.62	-35.5	-37.0	18.2	0.00e+00	0	62	0	1601175552	42	4298
2026-01-19 10:56:34.91	42.98	32.57	-35.5	-37.0	18.2	0.00e+00	0	62	0	1606418432	42	4317
2026-01-19 10:56:35.93	42.61	32.51	-35.6	-37.0	18.1	0.00e+00	0	62	0	1611661312	42	4320
2026-01-19 10:56:36.93	42.25	32.46	-35.6	-37.0	18.1	0.00e+00	0	62	0	1617952768	42	4339
2026-01-19 10:56:37.95	41.89	32.41	-35.5	-37.0	18.2	0.00e+00	0	62	0	1623195648	42	4311
2026-01-19 10:56:38.96	41.53	32.35	-35.7	-37.2	18.0	0.00e+00	0	62	0	1629487104	42	4410
2026-01-19 10:56:39.97	41.17	32.29	-35.7	-37.2	17.9	0.00e+00	0	62	0	1634729984	42	4430
2026-01-19 10:56:40.98	40.82	32.23	-35.9	-37.3	18.2	0.00e+00	0	62	0	1639972864	42	4468
2026-01-19 10:56:41.98	40.46	32.17	-35.9	-37.3	18.2	0.00e+00	0	62	0	1646264320	42	4462
2026-01-19 10:56:42.99	40.11	32.11	-36.0	-37.4	18.1	0.00e+00	0	62	0	1651507200	42	4502
2026-01-19 10:56:44.00	39.76	32.05	-35.9	-37.3	18.2	0.00e+00	0	62	0	1657798656	42	4457
2026-01-19 10:56:45.01	39.41	31.99	-35.9	-37.3	18.2	0.00e+00	0	62	0	1663041536	42	4448
2026-01-19 10:56:46.02	39.06	31.93	-35.8	-37.2	18.3	0.00e+00	0	62	0	1669332992	42	4410
2026-01-19 10:56:47.03	38.71	31.86	-35.8	-37.2	18.3	0.00e+00	0	62	0	1674575872	42	4408
2026-01-19 10:56:48.04	38.36	31.79	-35.8	-37.1	18.3	0.00e+00	0	62	0	1679818752	42	4386
2026-01-19 10:56:49.05	38.02	31.73	-35.7	-37.0	18.4	0.00e+00	0	62	0	1686110208	42	4323
2026-01-19 10:56:50.06	37.67	31.66	-35.7	-37.1	18.4	0.00e+00	0	62	0	1691353088	42	4348
2026-01-19 10:56:51.07	37.33	31.59	-35.8	-37.1	18.3	0.00e+00	0	62	0	1697644544	42	4383
2026-01-19 10:56:52.08	36.99	31.52	-35.8	-37.2	18.3	0.00e+00	0	62	0	1702887424	42	4397
2026-01-19 10:56:53.09	36.65	31.45	-35.9	-37.3	18.2	0.00e+00	0	62	0	1708130304	42	4444
2026-01-19 10:56:54.10	36.31	31.38	-36.0	-37.3	18.1	0.00e+00	0	62	0	1714421760	42	4488
2026-01-19 10:56:55.11	35.97	31.30	-36.0	-37.4	18.0	0.00e+00	0	62	0	1719664640	42	4513
2026-01-19 10:56:56.12	35.64	31.23	-35.9	-37.3	18.1	0.00e+00	0	62	0	1725956096	42	4472
2026-01-19 10:56:57.13	35.30	31.15	-36.0	-37.4	18.0	0.00e+00	0	62	0	1731198976	42	4519
2026-01-19 10:56:58.14	34.97	31.08	-36.2	-37.6	17.9	0.00e+00	0	62	0	1736441856	42	4614
2026-01-19 10:56:59.16	34.64	31.00	-36.3	-37.7	17.7	0.00e+00	0	62	0	1742733312	43	4424
2026-01-19 10:57:00.17	34.31	30.92	-36.2	-37.7	17.8	0.00e+00	0	62	0	1747976192	43	4394
2026-01-19 10:57:01.17	33.99	30.85	-36.0	-37.4	18.0	0.00e+00	0	62	0	1754267648	43	4262
2026-01-19 10:57:02.18	33.66	30.77	-36.0	-37.4	18.1	0.00e+00	0	62	0	1759510528	43	4245
2026-01-19 10:57:03.19	33.34	30.69	-35.9	-37.2	18.2	0.00e+00	0	62	0	1765801984	43	4176
2026-01-19 10:57:04.20	33.01	30.61	-35.9	-37.2	18.2	0.00e+00	0	62	0	1771044864	43	4192
2026-01-19 10:57:05.21	32.69	30.52	-36.0	-37.4	18.1	0.00e+00	0	62	0	1777336320	43	4251
2026-01-19 10:57:06.22	32.37	30.44	-35.9	-37.3	18.1	0.00e+00	0	62	0	1782579200	43	4196
2026-01-19 10:57:07.23	32.06	30.36	-35.9	-37.2	18.2	0.00e+00	0	62	0	1787822080	43	4189
2026-01-19 10:57:08.24	31.74	30.28	-35.9	-37.3	18.1	0.00e+00	0	62	0	1794113536	43	4222
2026-01-19 10:57:09.24	31.43	30.19	-36.0	-37.3	18.1	0.00e+00	0	62	0	1799356416	43	4232
2026-01-19 10:57:10.26	31.11	30.11	-35.9	-37.3	18.1	0.00e+00	0	62	0	1805647872	43	4214
2026-01-19 10:57:11.26	30.81	30.02	-36.0	-37.3	18.0	0.00e+00	0	62	0	1810890752	43	4235
2026-01-19 10:57:12.27	30.50	29.93	-36.0	-37.4	18.0	0.00e+00	0	62	0	1816133632	43	4276
2026-01-19 10:57:13.28	30.19	29.85	-36.1	-37.5	17.9	0.00e+00	0	62	0	1822425088	43	4317
2026-01-19 10:57:14.29	29.88	29.76	-36.1	-37.5	17.9	0.00e+00	0	62	0	1827667968	43	4329
2026-01-19 10:57:15.30	29.58	29.67	-36.1	-37.5	17.8	0.00e+00	0	62	0	1833959424	43	4335
2026-01-19 10:57:16.32	29.28	29.58	-36.0	-37.4	18.0	0.00e+00	0	62	0	1839202304	43	4279
2026-01-19 10:57:17.33	28.97	29.49	-35.9	-37.3	18.1	0.00e+00	0	62	0	1844445184	43	4211
2026-01-19 10:57:18.34	28.68	29.40	-35.9	-37.3	18.1	0.00e+00	0	62	0	1850736640	43	4195
2026-01-19 10:57:19.35	28.38	29.31	-35.9	-37.3	18.1	0.00e+00	0	62	0	1855979520	43	4196
2026-01-19 10:57:20.36	28.08	29.22	-36.0	-37.3	18.1	0.00e+00	0	62	0	1862270976	43	4225
2026-01-19 10:57:21.37	27.79	29.12	-36.0	-37.3	18.0	0.00e+00	0	62	0	1867513856	43	4239
2026-01-19 10:57:22.38	27.50	29.03	-35.9	-37.3	18.1	0.00e+00	0	62	0	1873805312	43	4229
2026-01-19 10:57:23.39	27.21	28.94	-35.9	-37.3	18.0	0.00e+00	0	62	0	1879048192	43	4225
2026-01-19 10:57:24.40	26.92	28.85	-35.9	-37.3	18.1	0.00e+00	0	62	0	1884291072	43	4227
2026-01-19 10:57:25.40	26.63	28.75	-35.9	-37.3	18.1	0.00e+00	0	62	0	1890582528	43	4216
2026-01-19 10:57:26.41	26.35	28.66	-35.9	-37.3	18.1	0.00e+00	0	62	0	1895825408	43	4206
2026-01-19 10:57:27.42	26.06	28.56	-36.0	-37.4	18.0	0.00e+00	0	62	0	1902116864	43	4249
2026-01-19 10:57:28.43	25.78	28.47	-36.0	-37.4	18.0	0.00e+00	0	62	0	1907359744	43	4251
2026-01-19 10:57:29.44	25.50	28.37	-36.2	-37.6	17.8	0.00e+00	0	62	0	1912602624	43	4366
2026-01-19 10:57:30.45	25.22	28.27	-36.2	-37.6	17.7	0.00e+00	0	62	0	1918894080	43	4389
2026-01-19 10:57:31.46	24.95	28.18	-36.3	-37.7	17.7	0.00e+00	0	62	0	1924136960	43	4415
2026-01-19 10:57:32.47	24.67	28.08	-36.3	-37.8	17.6	0.00e+00	0	62	0	1930428416	43	4447
2026-01-19 10:57:33.48	24.40	27.98	-36.2	-37.7	17.7	0.00e+00	0	62	0	1935671296	43	4398
2026-01-19 10:57:34.49	24.13	27.88	-36.3	-37.7	17.7	0.00e+00	0	62	0	1940914176	43	4414
2026-01-19 10:57:35.50	23.86	27.79	-36.3	-37.8	17.6	0.00e+00	0	62	0	1947205632	43	4445
2026-01-19 10:57:36.51	23.59	27.69	-36.2	-37.7	17.7	0.00e+00	0	62	0	1952448512	43	4396
2026-01-19 10:57:37.52	23.32	27.59	-36.2	-37.6	17.7	0.00e+00	0	62	0	1958739968	43	4390
2026-01-19 10:57:38.53	23.06	27.49	-36.2	-37.7	17.7	0.00e+00	0	62	0	1963982848	43	4403
2026-01-19 10:57:39.54	22.79	27.39	-36.2	-37.6	17.7	0.00e+00	0	62	0	1970274304	43	4367
2026-01-19 10:57:40.55	22.53	27.29	-36.2	-37.6	17.7	0.00e+00	0	62	0	1975517184	43	4369
2026-01-19 10:57:41.56	22.27	27.19	-36.2	-37.7	17.6	0.00e+00	0	62	0	1981808640	43	4399
2026-01-19 10:57:42.57	22.01	27.09	-36.3	-37.8	17.6	0.00e+00	0	62	0	1987051520	43	4451
2026-01-19 10:57:43.58	21.76	26.99	-36.4	-37.9	17.5	0.00e+00	0	62	0	1992294400	43	4513
2026-01-19 10:57:44.58	21.50	26.89	-36.5	-38.0	17.3	0.00e+00	0	62	0	1998585856	43	4564
2026-01-19 10:57:45.59	21.25	26.79	-36.5	-38.0	17.3	0.00e+00	0	62	0	2003828736	43	4586
2026-01-19 10:57:46.60	21.00	26.68	-36.5	-38.0	17.3	0.00e+00	0	62	0	2010120192	43	4586
2026-01-19 10:57:47.61	20.75	26.58	-36.6	-38.1	17.3	0.00e+00	0	62	0	2015363072	43	4601
2026-01-19 10:57:48.62	20.50	26.48	-36.6	-38.1	17.2	0.00e+00	0	62	0	2020605952	43	4634
2026-01-19 10:57:49.63	20.25	26.38	-36.6	-38.1	17.2	0.00e+00	0	62	0	2026897408	43	4625
2026-01-19 10:57:50.64	20.01	26.28	-36.6	-38.1	17.2	0.00e+00	0	62	0	2032140288	43	4627
2026-01-19 10:57:51.65	19.76	26.17	-36.6	-38.1	17.2	0.00e+00	0	62	0	2037383168	43	4614
2026-01-19 10:57:52.66	19.52	26.07	-36.6	-38.0	17.3	0.00e+00	0	62	0	2043674624	43	4586
2026-01-19 10:57:53.67	19.28	25.97	-36.6	-38.1	17.2	0.00e+00	0	62	0	2048917504	43	4600
2026-01-19 10:57:54.68	19.04	25.86	-36.7	-38.2	17.1	0.00e+00	0	62	0	2055208960	43	4666
2026-01-19 10:57:55.69	18.80	25.76	-37.0	-38.5	17.0	0.00e+00	0	62	0	2060451840	44	4572
2026-01-19 10:57:56.70	18.57	25.66	-37.0	-38.6	16.9	0.00e+00	0	62	0	2066743296	44	4601
2026-01-19 10:57:57.71	18.33	25.55	-37.0	-38.6	16.9	0.00e+00	0	62	0	2071986176	44	4615
2026-01-19 10:57:58.72	18.10	25.45	-37.1	-38.6	16.8	0.00e+00	0	62	0	2078277632	44	4650
2026-01-19 10:57:59.73	17.87	25.35	-37.1	-38.6	16.9	0.00e+00	0	62	0	2083520512	44	4628
2026-01-19 10:58:00.74	17.64	25.24	-37.0	-38.5	17.0	0.00e+00	0	62	0	2088763392	44	4579
2026-01-19 10:58:01.75	17.41	25.14	-36.9	-38.4	17.1	0.00e+00	0	62	0	2095054848	44	4508
2026-01-19 10:58:02.76	17.18	25.04	-36.7	-38.2	17.3	0.00e+00	0	62	0	2100297728	44	4418
2026-01-19 10:58:03.77	16.96	24.93	-36.7	-38.2	17.3	0.00e+00	0	62	0	2106589184	44	4401
2026-01-19 10:58:04.78	16.74	24.83	-36.8	-38.3	17.2	0.00e+00	0	62	0	2111832064	44	4468
2026-01-19 10:58:05.78	16.52	24.72	-36.9	-38.4	17.1	0.00e+00	0	62	0	2117074944	44	4497
2026-01-19 10:58:06.79	16.30	24.62	-36.9	-38.5	17.0	0.00e+00	0	62	0	2123366400	44	4549
2026-01-19 10:58:07.80	16.08	24.52	-37.0	-38.5	16.9	0.00e+00	0	62	0	2128609280	44	4598
2026-01-19 10:58:08.81	15.86	24.41	-37.0	-38.6	16.8	0.00e+00	0	62	0	2134900736	44	4624
2026-01-19 10:58:09.82	15.64	24.31	-37.1	-38.7	16.7	0.00e+00	0	62	0	2140143616	44	4678
2026-01-19 10:58:10.83	15.43	24.20	-37.2	-38.7	16.7	0.00e+00	0	62	0	2145386496	44	4697
2026-01-19 10:58:11.84	15.21	24.10	-37.1	-38.8	16.7	0.00e+00	0	62	0	2151677952	44	4708
2026-01-19 10:58:12.85	15.00	23.99	-37.1	-38.7	16.7	0.00e+00	0	62	0	2156920832	44	4677
2026-01-19 10:58:13.86	14.79	23.89	-37.2	-38.7	16.7	0.00e+00	0	62	0	2163212288	44	4693
2026-01-19 10:58:14.87	14.58	23.78	-37.2	-38.8	16.6	0.00e+00	0	62	0	2168455168	44	4707
2026-01-19 10:58:15.88	14.37	23.68	-37.3	-38.9	16.5	0.00e+00	0	62	0	2174746624	45	4495
2026-01-19 10:58:16.89	14.17	23.58	-37.3	-38.9	16.5	0.00e+00	0	62	0	2179989504	45	4542
2026-01-19 10:58:17.90	13.96	23.47	-37.3	-38.9	16.5	0.00e+00	0	62	0	2186280960	45	4511
2026-01-19 10:58:18.91	13.76	23.37	-37.3	-38.9	16.5	0.00e+00	0	62	0	2191523840	45	4507
2026-01-19 10:58:19.93	13.56	23.26	-37.3	-38.9	16.5	0.00e+00	0	62	0	2196766720	45	4506
2026-01-19 10:58:20.94	13.35	23.16	-37.2	-38.8	16.6	0.00e+00	0	62	0	2203058176	45	4452
2026-01-19 10:58:21.94	13.16	23.05	-37.3	-38.9	16.5	0.00e+00	0	62	0	2208301056	45	4498
2026-01-19 10:58:22.96	12.96	22.95	-37.2	-38.7	16.6	0.00e+00	0	62	0	2214592512	45	4423
2026-01-19 10:58:23.97	12.76	22.84	-37.1	-38.6	16.7	0.00e+00	0	62	0	2219835392	45	4376
2026-01-19 10:58:24.97	12.57	22.74	-36.9	-38.5	16.9	0.00e+00	0	62	0	2225078272	45	4300
2026-01-19 10:58:25.98	12.37	22.64	-36.9	-38.5	16.9	0.00e+00	0	62	0	2231369728	45	4305
2026-01-19 10:58:26.99	12.18	22.53	-37.0	-38.6	16.8	0.00e+00	0	62	0	2236612608	45	4349
2026-01-19 10:58:28.00	11.99	22.43	-37.1	-38.7	16.7	0.00e+00	0	62	0	2241855488	45	4415
2026-01-19 10:58:29.01	11.80	22.33	-37.0	-38.6	16.8	0.00e+00	0	62	0	2248146944	45	4349
2026-01-19 10:58:30.02	11.61	22.22	-37.0	-38.5	16.8	0.00e+00	0	62	0	2253389824	45	4328
2026-01-19 10:58:31.03	11.42	22.12	-37.0	-38.5	16.8	0.00e+00	0	62	0	2259681280	45	4325
2026-01-19 10:58:32.04	11.24	22.02	-37.0	-38.6	16.8	0.00e+00	0	62	0	2264924160	45	4350
2026-01-19 10:58:33.05	11.05	21.91	-37.1	-38.6	16.7	0.00e+00	0	62	0	2271215616	45	4384
2026-01-19 10:58:34.05	10.87	21.81	-37.1	-38.7	16.6	0.00e+00	0	62	0	2276458496	45	4403
2026-01-19 10:58:35.06	10.69	21.71	-37.0	-38.6	16.7	0.00e+00	0	62	0	2282749952	45	4348
2026-01-19 10:58:36.08	10.50	21.60	-37.1	-38.7	16.6	0.00e+00	0	62	0	2287992832	45	4395
2026-01-19 10:58:37.09	10.32	21.50	-37.0	-38.6	16.7	0.00e+00	0	62	0	2293235712	45	4367
2026-01-19 10:58:38.10	10.14	21.40	-37.1	-38.6	16.7	0.00e+00	0	62	0	2299527168	45	4369
2026-01-19 10:58:39.11	9.97	21.29	-37.1	-38.7	16.6	0.00e+00	0	62	0	2304770048	45	4432
2026-01-19 10:58:40.12	9.79	21.19	-37.2	-38.7	16.5	0.00e+00	0	62	0	2311061504	45	4440
2026-01-19 10:58:41.13	9.62	21.09	-37.1	-38.7	16.5	0.00e+00	0	62	0	2316304384	45	4429
2026-01-19 10:58:42.14	9.44	20.99	-37.1	-38.7	16.6	0.00e+00	0	62	0	2321547264	45	4419
2026-01-19 10:58:43.15	9.27	20.88	-37.1	-38.7	16.5	0.00e+00	0	62	0	2327838720	45	4432
2026-01-19 10:58:44.16	9.10	20.78	-37.2	-38.8	16.5	0.00e+00	0	62	0	2333081600	45	4462
2026-01-19 10:58:45.17	8.93	20.68	-37.2	-38.8	16.4	0.00e+00	0	62	0	2339373056	45	4492
2026-01-19 10:58:46.18	8.76	20.58	-37.3	-38.9	16.3	0.00e+00	0	62	0	2344615936	45	4515
2026-01-19 10:58:47.19	8.59	20.48	-37.3	-39.0	16.2	0.00e+00	0	62	0	2349858816	45	4549
2026-01-19 10:58:48.20	8.42	20.37	-37.2	-38.8	16.4	0.00e+00	0	62	0	2356150272	45	4480
2026-01-19 10:58:49.21	8.25	20.27	-37.3	-38.9	16.4	0.00e+00	0	62	0	2361393152	45	4500
2026-01-19 10:58:50.22	8.09	20.17	-37.2	-38.9	16.3	0.00e+00	0	62	0	2367684608	45	4497
2026-01-19 10:58:51.22	7.93	20.07	-37.2	-38.9	16.3	0.00e+00	0	62	0	2372927488	45	4498
2026-01-19 10:58:52.23	7.77	19.97	-37.3	-39.0	16.2	0.00e+00	0	62	0	2379218944	45	4554
2026-01-19 10:58:53.24	7.60	19.87	-37.3	-38.9	16.2	0.00e+00	0	62	0	2384461824	45	4533
2026-01-19 10:58:54.25	7.44	19.77	-37.4	-39.0	16.1	0.00e+00	0	62	0	2389704704	45	4587
2026-01-19 10:58:55.26	7.28	19.67	-37.4	-39.1	16.1	0.00e+00	0	62	0	2395996160	45	4602
2026-01-19 10:58:56.27	7.12	19.57	-37.3	-38.9	16.1	0.00e+00	0	62	0	2401239040	45	4529
2026-01-19 10:58:57.28	6.97	19.47	-37.4	-39.0	16.1	0.00e+00	0	62	0	2407530496	45	4577
2026-01-19 10:58:58.29	6.81	19.37	-37.4	-39.1	16.0	0.00e+00	0	62	0	2412773376	45	4632
2026-01-19 10:58:59.30	6.66	19.27	-37.5	-39.1	15.9	0.00e+00	0	62	0	2419064832	45	4642
2026-01-19 10:59:00.31	6.50	19.17	-37.5	-39.2	15.9	0.00e+00	0	62	0	2424307712	45	4673
2026-01-19 10:59:01.32	6.35	19.07	-37.5	-39.2	15.8	0.00e+00	0	62	0	2429550592	45	4704
2026-01-19 10:59:02.33	6.20	18.97	-37.5	-39.3	15.8	0.00e+00	0	62	0	2435842048	45	4716
2026-01-19 10:59:03.34	6.04	18.87	-37.5	-39.2	15.8	0.00e+00	0	62	0	2441084928	45	4691
2026-01-19 10:59:04.35	5.89	18.77	-37.5	-39.2	15.9	0.00e+00	0	62	0	2446327808	45	4664
2026-01-19 10:59:05.36	5.75	18.68	-37.5	-39.2	15.9	0.00e+00	0	62	0	2452619264	45	4670
2026-01-19 10:59:06.36	5.60	18.58	-37.5	-39.2	15.9	0.00e+00	0	62	0	2457862144	45	4663
2026-01-19 10:59:07.38	5.45	18.48	-37.4	-39.1	15.9	0.00e+00	0	62	0	2464153600	45	4645
2026-01-19 10:59:08.38	5.31	18.38	-37.5	-39.2	15.8	0.00e+00	0	62	0	2469396480	45	4661
2026-01-19 10:59:09.39	5.16	18.28	-37.5	-39.3	15.7	0.00e+00	0	62	0	2475687936	45	4709
2026-01-19 10:59:10.40	5.02	18.19	-37.6	-39.3	15.7	0.00e+00	0	62	0	2480930816	45	4738
2026-01-19 10:59:11.41	4.87	18.09	-37.6	-39.4	15.6	0.00e+00	0	62	0	2487222272	45	4776
2026-01-19 10:59:12.42	4.73	17.99	-37.7	-39.4	15.5	0.00e+00	0	62	0	2492465152	45	4812
2026-01-19 10:59:13.43	4.59	17.89	-37.8	-39.6	15.4	0.00e+00	0	62	0	2497708032	46	4607
2026-01-19 10:59:14.44	4.45	17.80	-37.8	-39.7	15.2	0.00e+00	0	62	0	2503999488	46	4657
2026-01-19 10:59:15.45	4.31	17.70	-37.9	-39.7	15.1	0.00e+00	0	62	0	2509242368	46	4696
2026-01-19 10:59:16.46	4.17	17.60	-37.9	-39.8	15.1	0.00e+00	0	62	0	2515533824	46	4733
2026-01-19 10:59:17.47	4.03	17.51	-38.0	-39.9	14.9	0.00e+00	0	62	0	2520776704	46	4769
2026-01-19 10:59:18.48	3.89	17.41	-38.0	-39.8	14.9	0.00e+00	0	62	0	2526019584	46	4759
2026-01-19 10:59:19.49	3.76	17.32	-37.9	-39.8	15.0	0.00e+00	0	62	0	2532311040	46	4719
2026-01-19 10:59:20.51	3.62	17.22	-38.0	-39.8	14.9	0.00e+00	0	62	0	2537553920	46	4754
2026-01-19 10:59:21.52	3.49	17.12	-38.1	-40.0	14.7	2.20e-06	0	62	0	2543845376	46	4840
2026-01-19 10:59:22.53	3.35	17.03	-38.0	-39.9	14.8	0.00e+00	0	62	0	2549088256	46	4779
2026-01-19 10:59:23.54	3.22	16.93	-38.2	-40.2	14.5	0.00e+00	0	62	0	2554331136	46	4930
2026-01-19 10:59:24.55	3.09	16.84	-38.1	-40.1	14.5	1.10e-06	0	62	0	2560622592	46	4901
2026-01-19 10:59:25.56	2.96	16.75	-38.3	-40.3	14.2	2.20e-06	0	62	0	2565865472	47	4747
2026-01-19 10:59:26.57	2.83	16.65	-38.1	-40.0	14.5	1.10e-06	0	62	0	2572156928	47	4581
2026-01-19 10:59:27.58	2.70	16.56	-38.2	-40.2	14.3	1.10e-06	0	62	0	2577399808	47	4688
2026-01-19 10:59:28.59	2.57	16.46	-38.1	-40.1	14.4	2.20e-06	0	62	0	2583691264	47	4609
2026-01-19 10:59:29.60	2.44	16.37	-38.1	-40.0	14.4	1.10e-06	0	62	0	2588934144	47	4593
2026-01-19 10:59:30.61	2.32	16.28	-38.1	-40.1	14.4	1.10e-06	0	62	0	2595225600	47	4617
2026-01-19 10:59:31.62	2.19	16.18	-38.0	-40.0	14.4	1.10e-06	0	62	0	2600468480	47	4573
2026-01-19 10:59:32.63	2.06	16.09	-38.2	-40.2	14.3	1.10e-06	0	62	0	2605711360	47	4661
2026-01-19 10:59:33.64	1.94	16.00	-38.1	-40.1	14.3	0.00e+00	0	62	0	2612002816	47	4641
2026-01-19 10:59:34.65	1.82	15.90	-38.1	-40.1	14.2	1.10e-06	0	62	0	2617245696	47	4643
2026-01-19 10:59:35.66	1.69	15.81	-38.1	-40.2	14.2	1.10e-06	0	62	0	2623537152	47	4658
2026-01-19 10:59:36.67	1.57	15.72	-38.2	-40.3	14.1	5.70e-06	0	62	0	2628780032	47	4711
2026-01-19 10:59:37.68	1.45	15.63	-38.2	-40.2	14.0	4.50e-06	0	62	0	2634022912	47	4704
2026-01-19 10:59:38.69	1.33	15.54	-38.1	-40.2	13.9	5.70e-06	0	62	0	2640314368	47	4697
2026-01-19 10:59:39.70	1.21	15.44	-38.2	-40.4	13.8	8.00e-06	0	62	0	2645557248	47	4767
2026-01-19 10:59:40.71	1.09	15.35	-38.4	-40.6	13.4	2.63e-05	0	62	0	2651848704	47	4911
2026-01-19 10:59:41.72	0.97	15.26	-38.2	-40.5	13.4	2.51e-05	0	62	0	2657091584	47	4834
2026-01-19 10:59:42.73	0.86	15.17	-38.3	-40.6	13.2	4.34e-05	0	62	0	2662334464	47	4873
2026-01-19 10:59:43.74	0.74	15.08	-38.4	-40.8	12.8	5.95e-05	0	62	0	2668625920	47	5018
2026-01-19 10:59:44.75	0.62	14.99	-38.6	-41.1	12.4	2.20e-04	0	62	0	2673868800	47	5218
2026-01-19 10:59:45.76	0.51	14.90	-38.3	-40.7	12.8	1.66e-04	0	62	0	2680160256	47	4955
2026-01-19 10:59:46.77	0.39	14.81	-38.1	-40.5	13.0	5.72e-05	0	62	0	2685403136	47	4839
2026-01-19 10:59:47.78	0.28	14.72	-38.1	-40.5	13.0	7.78e-05	0	62	0	2691694592	47	4826
2026-01-19 10:59:48.79	0.17	14.63	-38.2	-40.7	12.8	5.72e-05	0	62	0	2696937472	47	4936
2026-01-19 10:59:49.80	0.05	14.54	-38.3	-40.8	12.6	1.38e-04	0	62	0	2702180352	47	5020
2026-01-19 10:59:50.81	359.94	14.45	-38.4	-40.9	12.5	1.70e-04	0	62	0	2708471808	47	5060
2026-01-19 10:59:51.82	359.83	14.36	-38.2	-40.6	12.6	1.48e-04	0	62	0	2713714688	47	4922
2026-01-19 10:59:52.83	359.72	14.27	-38.1	-40.6	12.6	1.45e-04	0	62	0	2720006144	47	4915
2026-01-19 10:59:53.84	359.61	14.19	-38.0	-40.4	12.8	9.49e-05	0	62	0	2725249024	47	4785
2026-01-19 10:59:54.85	359.50	14.10	-37.8	-40.2	13.0	7.55e-05	0	62	0	2730491904	47	4658
2026-01-19 10:59:55.85	359.39	14.01	-37.9	-40.3	12.9	8.35e-05	0	62	0	2736783360	47	4730
2026-01-19 10:59:56.86	359.29	13.92	-37.9	-40.4	12.7	9.38e-05	0	62	0	2742026240	47	4801
2026-01-19 10:59:57.87	359.18	13.83	-37.9	-40.4	12.6	1.43e-04	0	62	0	2748317696	47	4804
2026-01-19 10:59:58.89	359.07	13.75	-38.2	-40.9	12.0	3.84e-04	0	62	0	2753560576	47	5070
2026-01-19 10:59:59.89	358.97	13.66	-38.5	-41.6	11.2	1.46e-03	0	62	0	2758803456	47	5468
2026-01-19 11:00:00.90	358.86	13.57	-39.1	-42.4	10.3	5.95e-03	0	62	0	2765094912	48	5711
2026-01-19 11:00:01.91	358.76	13.49	-39.1	-42.6	10.0	9.82e-03	0	62	0	2770337792	48	5824
2026-01-19 11:00:02.92	358.65	13.40	-39.4	-43.2	9.4	1.44e-02	0	62	0	2776629248	49	5862
2026-01-19 11:00:03.93	358.55	13.31	-39.9	-44.2	8.2	4.50e-02	0	62	0	2781872128	50	6242
2026-01-19 11:00:04.95	358.45	13.23	-40.0	-44.5	7.8	8.34e-02	0	62	0	2788163584	50	6471
2026-01-19 11:00:05.96	358.35	13.14	-40.2	-45.2	7.2	1.45e-01	0	62	0	2793406464	50	6960
2026-01-19 11:00:06.97	358.24	13.05	-40.2	-45.0	7.3	1.61e-01	0	62	0	2799697920	51	6493
2026-01-19 11:00:07.98	358.14	12.97	-40.2	-45.1	7.2	1.37e-01	0	62	0	2804940800	51	6534
2026-01-19 11:00:08.99	358.04	12.88	-40.2	-45.2	7.1	1.72e-01	0	62	0	2810183680	51	6578
2026-01-19 11:00:10.00	357.94	12.80	-40.3	-45.5	6.8	1.77e-01	0	62	0	2816475136	51	6807
2026-01-19 11:00:11.00	357.85	12.71	-40.7	-46.6	5.9	3.48e-01	0	62	0	2821718016	51	7790
2026-01-19 11:00:12.01	357.75	12.63	-41.0	-47.6	5.3	7.04e-01	0	62	0	2824863744	52	8181
2026-01-19 11:00:13.02	357.65	12.55	-40.3	-52.1	3.8	8.46e-01	0	62	104	2826960896	52	13862
2026-01-19 11:00:14.03	357.55	12.46	-40.2	-49.3	4.2	8.43e-01	0	62	104	2826960896	52	10045
2026-01-19 11:00:15.04	357.46	12.38	-41.6	-52.4	3.8	8.29e-01	0	62	104	2828009472	53	13471
2026-01-19 11:00:16.05	357.36	12.29	-39.9	-45.9	6.1	4.61e-01	0	62	0	2829058048	51	7155
2026-01-19 11:00:17.06	357.26	12.21	-39.9	-46.1	5.9	3.88e-01	0	62	0	2835349504	51	7302
2026-01-19 11:00:18.07	357.17	12.13	-40.0	-46.9	5.3	6.63e-01	0	62	0	2839543808	51	8025
2026-01-19 11:00:19.08	357.07	12.04	-40.2	-47.9	4.7	7.82e-01	0	62	0	2839543808	51	9017
2026-01-19 11:00:20.09	356.98	11.96	-40.2	-48.7	4.3	8.25e-01	0	62	0	2839543808	51	9918
2026-01-19 11:00:21.10	356.89	11.88	-40.2	-49.3	4.2	8.36e-01	0	62	0	2839543808	51	10560
2026-01-19 11:00:22.11	356.79	11.79	-40.3	-51.3	3.8	8.46e-01	0	62	104	2839543808	51	13298
2026-01-19 11:00:23.12	356.70	11.71	-40.7	-50.4	4.0	8.45e-01	0	62	104	2839543808	52	11376
2026-01-19 11:00:24.13	356.61	11.63	-40.2	-51.9	3.8	8.46e-01	0	62	104	2839543808	52	13444
2026-01-19 11:00:25.14	356.52	11.55	-40.3	-52.0	3.8	8.47e-01	0	62	104	2839543808	52	13722
2026-01-19 11:00:26.15	356.43	11.47	-40.9	-52.0	3.8	8.46e-01	0	62	104	2839543808	52	13637
2026-01-19 11:00:27.16	356.34	11.38	-40.5	-51.6	3.8	8.45e-01	0	62	104	2839543808	52	13046
2026-01-19 11:00:28.17	356.25	11.30	-40.4	-51.8	3.8	8.46e-01	0	62	104	2839543808	52	13281
2026-01-19 11:00:29.18	356.16	11.22	-40.3	-51.7	3.8	8.46e-01	0	62	104	2839543808	52	13214
2026-01-19 11:00:30.19	356.07	11.14	-40.3	-51.9	3.8	8.46e-01	0	62	104	2839543808	52	13531
2026-01-19 11:00:31.20	355.98	11.06	-40.3	-52.2	3.8	8.46e-01	0	62	104	2839543808	52	13963
2026-01-19 11:00:32.21	355.90	10.98	-39.7	-51.9	3.8	8.47e-01	0	62	104	2839543808	51	14231
2026-01-19 11:00:33.22	355.81	10.90	-40.3	-52.0	3.8	8.46e-01	0	62	104	2839543808	51	14499
2026-01-19 11:00:34.23	355.72	10.82	-40.3	-52.2	3.8	8.46e-01	0	62	104	2839543808	51	14788
2026-01-19 11:00:35.24	355.64	10.74	-40.4	-52.3	3.8	8.46e-01	0	62	104	2839543808	51	15028
2026-01-19 11:00:36.25	355.55	10.66	-39.8	-51.9	3.8	8.46e-01	0	62	104	2839543808	51	14289
2026-01-19 11:00:37.26	355.47	10.58	-40.3	-52.0	3.8	8.46e-01	0	62	104	2839543808	51	14530
2026-01-19 11:00:38.27	355.38	10.50	-40.3	-52.2	3.8	8.46e-01	0	62	104	2839543808	51	14781
2026-01-19 11:00:39.28	355.30	10.42	-40.4	-52.2	3.8	8.47e-01	0	62	104	2839543808	51	14775
2026-01-19 11:00:40.28	355.21	10.34	-40.0	-51.9	3.8	8.46e-01	0	62	104	2839543808	51	14274
2026-01-19 11:00:41.29	355.13	10.26	-40.3	-52.0	3.8	8.46e-01	0	62	104	2839543808	51	14445
2026-01-19 11:00:42.30	355.05	10.18	-40.3	-52.1	3.8	8.47e-01	0	62	104	2839543808	51	14608
2026-01-19 11:00:43.31	354.97	10.11	-40.4	-52.1	3.8	8.46e-01	0	62	104	2839543808	51	14665
2026-01-19 11:00:44.32	354.88	10.03	-40.1	-51.9	3.8	8.45e-01	0	62	104	2839543808	51	14302
2026-01-19 11:00:45.33	354.80	9.95	-40.2	-52.0	3.8	8.46e-01	0	62	104	2839543808	51	14475
2026-01-19 11:00:46.34	354.72	9.87	-40.3	-52.1	3.8	8.47e-01	0	62	104	2839543808	51	14570
2026-01-19 11:00:47.35	354.64	9.79	-40.3	-52.1	3.8	8.45e-01	0	62	104	2839543808	51	14620
2026-01-19 11:00:48.36	354.56	9.72	-40.1	-51.9	3.8	8.46e-01	0	62	104	2839543808	51	14285
2026-01-19 11:00:49.37	354.48	9.64	-40.2	-51.9	3.8	8.46e-01	0	62	104	2839543808	51	14355
2026-01-19 11:00:50.38	354.40	9.56	-40.3	-52.1	3.8	8.47e-01	0	62	104	2839543808	51	14564
2026-01-19 11:00:51.39	354.33	9.48	-40.3	-52.1	3.8	8.47e-01	0	62	104	2839543808	51	14573
2026-01-19 11:00:52.40	354.25	9.41	-40.2	-52.0	3.8	8.45e-01	0	62	104	2839543808	51	14375
