passes_logs/2026/01/19/R2.0S_Moscow/R2.0S_Moscow__20260119_222111_NOAA_20_JPSS-1_rec.log

#Pass ID: 20260119_222111_NOAA 20 (JPSS-1)
#Satellite: NOAA 20 (JPSS-1)
#Configuration: NOAA 20
#almurnet v.1.7.20251203
#Start time: 2026-01-19 22:21:13

#Version: 2.2.20231116
#Station: R2.0S_Moscow
#Location: 37.707566 lon 55.798166 lat
#TLE: 1 43013U 17073A   26019.27717929  .00000087  00000+0  62288-4 0  9995
#TLE: 2 43013  98.7641 320.1715 0001339  33.1986 326.9274 14.19537047423343

#Time	Az	El	Level	Level2	SNR	BER	BlckErr	Temp	State	Recorded	gain1	gain2
2026-01-19 22:21:13.96	23.91	2.11	-41.7	-57.1	3.8	1.49e+00	0	53	0	0	55	20769
2026-01-19 22:21:14.96	23.97	2.17	-41.7	-57.2	3.8	1.49e+00	0	53	104	0	54	22046
2026-01-19 22:21:15.97	24.03	2.23	-41.7	-57.2	3.8	1.49e+00	0	53	104	0	54	22094
2026-01-19 22:21:16.99	24.10	2.29	-41.7	-57.2	3.8	1.49e+00	0	54	104	0	54	22099
2026-01-19 22:21:17.99	24.16	2.34	-41.7	-57.2	3.8	1.49e+00	0	54	104	0	54	22010
2026-01-19 22:21:19.01	24.23	2.40	-41.7	-57.2	3.8	1.49e+00	0	54	104	0	54	22036
2026-01-19 22:21:20.02	24.30	2.46	-41.7	-57.2	3.8	1.49e+00	0	54	104	0	54	22026
2026-01-19 22:21:21.03	24.36	2.52	-41.7	-57.2	3.8	1.49e+00	0	54	104	0	54	22014
2026-01-19 22:21:22.04	24.43	2.58	-41.8	-57.2	3.8	1.49e+00	0	54	104	0	54	22088
2026-01-19 22:21:23.05	24.49	2.63	-41.7	-57.2	3.8	1.49e+00	0	54	104	0	54	22069
2026-01-19 22:21:24.06	24.56	2.69	-41.7	-57.2	3.8	1.49e+00	0	54	104	0	54	22081
2026-01-19 22:21:25.07	24.63	2.75	-41.8	-57.2	3.8	1.49e+00	0	54	104	0	54	22043
2026-01-19 22:21:26.08	24.69	2.81	-41.8	-57.2	3.8	1.49e+00	0	54	104	0	54	22036
2026-01-19 22:21:27.09	24.76	2.87	-41.8	-57.2	3.8	1.49e+00	0	54	104	0	54	22088
2026-01-19 22:21:28.10	24.83	2.92	-41.8	-57.2	3.8	1.49e+00	0	54	104	0	54	22038
2026-01-19 22:21:29.11	24.89	2.98	-41.8	-57.2	3.8	1.49e+00	0	54	104	0	54	22024
2026-01-19 22:21:30.12	24.96	3.04	-41.7	-57.2	3.8	1.49e+00	0	54	104	0	54	22089
2026-01-19 22:21:31.13	25.03	3.10	-41.7	-57.2	3.8	1.49e+00	0	54	104	0	54	22011
2026-01-19 22:21:32.14	25.10	3.16	-41.7	-57.2	3.8	1.49e+00	0	55	104	0	54	22023
2026-01-19 22:21:33.15	25.17	3.22	-41.8	-57.2	3.8	1.49e+00	0	55	104	0	54	22018
2026-01-19 22:21:34.16	25.24	3.28	-41.8	-57.2	3.8	1.49e+00	0	55	104	0	54	22049
2026-01-19 22:21:35.17	25.30	3.34	-41.8	-57.2	3.8	1.49e+00	0	55	104	0	54	22025
2026-01-19 22:21:36.18	25.37	3.40	-41.8	-57.2	3.8	1.49e+00	0	55	104	0	54	22019
2026-01-19 22:21:37.20	25.44	3.46	-41.7	-57.2	3.8	1.49e+00	0	55	104	0	54	22041
2026-01-19 22:21:38.20	25.51	3.51	-41.8	-57.2	3.8	1.49e+00	0	55	104	0	54	22056
2026-01-19 22:21:39.21	25.58	3.57	-41.7	-57.1	3.8	1.49e+00	0	55	104	0	54	21992
2026-01-19 22:21:40.22	25.65	3.63	-41.7	-57.2	3.8	1.49e+00	0	55	104	0	54	22029
2026-01-19 22:21:41.23	25.72	3.69	-41.7	-57.2	3.8	1.49e+00	0	55	104	0	54	22024
2026-01-19 22:21:42.24	25.79	3.75	-41.7	-57.1	3.8	1.49e+00	0	55	104	0	54	22006
2026-01-19 22:21:43.25	25.87	3.81	-41.7	-57.1	3.8	1.49e+00	0	55	104	0	54	21987
2026-01-19 22:21:44.26	25.94	3.87	-41.7	-57.2	3.8	1.49e+00	0	55	104	0	54	22054
2026-01-19 22:21:45.28	26.01	3.93	-41.7	-57.1	3.8	1.49e+00	0	55	104	0	54	22006
2026-01-19 22:21:46.29	26.08	3.99	-41.7	-57.1	3.8	1.49e+00	0	55	104	0	54	21910
2026-01-19 22:21:47.30	26.15	4.05	-41.7	-57.2	3.8	1.49e+00	0	56	104	0	54	22013
2026-01-19 22:21:48.31	26.23	4.12	-41.7	-57.1	3.8	1.49e+00	0	55	104	0	54	22007
2026-01-19 22:21:49.31	26.30	4.18	-41.7	-57.2	3.8	1.49e+00	0	56	104	0	54	22019
2026-01-19 22:21:50.32	26.37	4.24	-41.7	-57.1	3.8	1.49e+00	0	56	104	0	54	21984
2026-01-19 22:21:51.33	26.44	4.30	-41.7	-57.1	3.8	1.49e+00	0	56	104	0	54	22005
2026-01-19 22:21:52.35	26.52	4.36	-41.7	-57.1	3.8	1.49e+00	0	56	104	0	54	21979
2026-01-19 22:21:53.36	26.59	4.42	-41.7	-57.2	3.8	1.49e+00	0	56	104	0	54	22043
2026-01-19 22:21:54.36	26.67	4.48	-41.7	-57.2	3.8	1.49e+00	0	56	104	0	54	22013
2026-01-19 22:21:55.38	26.74	4.54	-41.7	-57.1	3.8	1.49e+00	0	56	104	0	54	21974
2026-01-19 22:21:56.39	26.82	4.60	-41.8	-57.2	3.8	1.49e+00	0	56	104	0	54	22073
2026-01-19 22:21:57.40	26.89	4.66	-41.7	-57.1	3.8	1.49e+00	0	56	104	0	54	21973
2026-01-19 22:21:58.41	26.97	4.72	-41.7	-57.2	3.8	1.49e+00	0	56	104	0	54	22036
2026-01-19 22:21:59.42	27.04	4.79	-41.7	-57.1	3.8	1.49e+00	0	56	104	0	54	22001
2026-01-19 22:22:00.42	27.12	4.85	-41.7	-57.2	3.8	1.49e+00	0	56	104	0	54	22043
2026-01-19 22:22:01.43	27.19	4.91	-41.7	-57.2	3.8	1.49e+00	0	56	104	0	54	22018
2026-01-19 22:22:02.44	27.27	4.97	-41.7	-57.1	3.8	1.49e+00	0	56	104	0	54	21952
2026-01-19 22:22:03.45	27.35	5.03	-41.7	-57.2	3.8	1.49e+00	0	56	104	0	54	22010
2026-01-19 22:22:04.46	27.43	5.10	-41.7	-57.1	3.8	1.49e+00	0	57	104	0	54	21997
2026-01-19 22:22:05.47	27.50	5.16	-41.7	-57.1	3.8	1.49e+00	0	56	104	0	54	22002
2026-01-19 22:22:06.48	27.58	5.22	-41.7	-57.1	3.8	1.49e+00	0	56	104	0	54	21980
2026-01-19 22:22:07.49	27.66	5.28	-41.7	-57.1	3.8	1.49e+00	0	57	104	0	54	21967
2026-01-19 22:22:08.50	27.74	5.34	-41.7	-57.1	3.8	1.49e+00	0	56	104	0	54	21966
2026-01-19 22:22:09.51	27.82	5.41	-41.7	-57.1	3.8	1.49e+00	0	57	104	0	54	21906
2026-01-19 22:22:10.52	27.89	5.47	-41.7	-57.1	3.8	1.49e+00	0	56	104	0	54	21976
2026-01-19 22:22:11.53	27.97	5.53	-41.7	-57.1	3.8	1.49e+00	0	57	104	0	54	21982
2026-01-19 22:22:12.54	28.05	5.60	-41.7	-57.1	3.8	1.49e+00	0	57	104	0	54	21900
2026-01-19 22:22:13.55	28.13	5.66	-41.7	-57.1	3.8	1.49e+00	0	57	104	0	54	21934
2026-01-19 22:22:14.56	28.21	5.72	-41.7	-57.2	3.8	1.49e+00	0	56	104	0	54	22011
2026-01-19 22:22:15.57	28.30	5.78	-41.7	-57.1	3.8	1.49e+00	0	57	104	0	54	21952
2026-01-19 22:22:16.58	28.38	5.85	-41.7	-57.1	3.8	1.49e+00	0	57	104	0	54	21952
2026-01-19 22:22:17.59	28.46	5.91	-41.7	-57.1	3.8	1.49e+00	0	57	104	0	54	21966
2026-01-19 22:22:18.60	28.54	5.98	-41.7	-57.1	3.8	1.49e+00	0	57	104	0	54	21988
2026-01-19 22:22:19.61	28.62	6.04	-41.7	-57.1	3.8	1.49e+00	0	57	104	0	54	21958
2026-01-19 22:22:20.63	28.70	6.10	-41.7	-57.1	3.8	1.49e+00	0	57	104	0	54	21888
2026-01-19 22:22:21.63	28.79	6.17	-41.7	-57.1	3.8	1.49e+00	0	57	104	0	54	21855
2026-01-19 22:22:22.64	28.87	6.23	-41.7	-57.1	3.8	1.49e+00	0	57	104	0	54	21935
2026-01-19 22:22:23.66	28.95	6.30	-41.7	-57.1	3.8	1.49e+00	0	57	104	0	54	21831
2026-01-19 22:22:24.67	29.04	6.36	-41.7	-57.0	3.8	1.49e+00	0	57	104	0	54	21651
2026-01-19 22:22:25.68	29.12	6.42	-41.7	-57.0	3.8	1.49e+00	0	57	104	0	54	21682
2026-01-19 22:22:26.69	29.21	6.49	-41.7	-57.0	3.8	1.49e+00	0	57	104	0	54	21600
2026-01-19 22:22:27.70	29.29	6.55	-41.7	-57.0	3.8	1.49e+00	0	57	104	0	54	21683
2026-01-19 22:22:28.71	29.38	6.62	-41.7	-56.9	3.8	1.49e+00	0	57	104	0	54	21400
2026-01-19 22:22:29.72	29.46	6.68	-41.7	-56.7	3.8	1.49e+00	0	57	104	0	54	20914
2026-01-19 22:22:30.73	29.55	6.75	-41.7	-57.0	3.8	1.49e+00	0	57	104	0	54	21523
2026-01-19 22:22:31.74	29.63	6.81	-41.7	-56.5	3.8	1.49e+00	0	58	104	0	54	20400
2026-01-19 22:22:32.75	29.72	6.88	-41.7	-56.5	3.8	1.49e+00	0	57	104	0	54	20342
2026-01-19 22:22:33.76	29.81	6.94	-41.7	-55.9	3.8	1.49e+00	0	57	104	0	54	19000
2026-01-19 22:22:34.77	29.89	7.01	-41.6	-55.9	3.8	1.49e+00	0	58	104	0	54	19011
2026-01-19 22:22:35.78	29.98	7.07	-41.6	-54.9	3.8	1.49e+00	0	58	104	0	54	17033
2026-01-19 22:22:36.79	30.07	7.14	-41.7	-55.7	3.8	1.48e+00	0	57	104	0	54	18648
2026-01-19 22:22:37.80	30.16	7.20	-41.7	-56.1	3.8	1.49e+00	0	58	104	0	54	19426
2026-01-19 22:22:38.81	30.25	7.27	-41.7	-56.2	3.8	1.49e+00	0	58	104	0	54	19631
2026-01-19 22:22:39.82	30.34	7.34	-41.6	-55.6	3.8	1.49e+00	0	58	104	0	54	18368
2026-01-19 22:22:40.83	30.43	7.40	-41.5	-53.2	4.3	1.45e+00	0	58	0	0	54	13997
2026-01-19 22:22:41.84	30.52	7.47	-41.4	-52.0	4.8	9.62e-01	0	58	0	1048576	54	12140
2026-01-19 22:22:42.85	30.61	7.54	-41.5	-52.4	4.6	9.26e-01	0	58	0	3145728	54	12786
2026-01-19 22:22:43.86	30.70	7.60	-41.4	-52.2	4.7	9.19e-01	0	58	0	5242880	54	12446
2026-01-19 22:22:44.87	30.79	7.67	-41.4	-51.4	5.1	8.26e-01	0	58	0	7340032	54	11395
2026-01-19 22:22:45.88	30.88	7.73	-41.2	-50.3	5.8	4.59e-01	0	58	0	8388608	54	10055
2026-01-19 22:22:46.89	30.97	7.80	-41.1	-49.4	6.5	2.71e-01	0	58	0	10485760	54	9030
2026-01-19 22:22:47.90	31.06	7.87	-40.9	-48.7	7.1	1.71e-01	0	58	0	12582912	53	8790
2026-01-19 22:22:48.91	31.16	7.94	-40.9	-48.6	7.2	1.42e-01	0	58	0	14680064	53	8704
2026-01-19 22:22:49.92	31.25	8.00	-41.0	-49.3	6.6	1.79e-01	0	58	0	16777216	53	9465
2026-01-19 22:22:50.93	31.34	8.07	-43.4	-56.8	3.8	1.06e-01	0	58	104	17825792	57	17784
2026-01-19 22:22:51.94	31.44	8.14	-40.9	-56.1	3.8	6.24e-01	0	58	104	17825792	53	20572
2026-01-19 22:22:52.95	31.53	8.20	-41.9	-49.1	7.6	3.60e-01	0	58	0	17825792	54	8718
2026-01-19 22:22:53.96	31.63	8.27	-42.4	-51.5	5.5	1.67e-01	0	58	0	19922944	55	10881
2026-01-19 22:22:54.97	31.72	8.34	-41.7	-50.7	5.8	1.11e-01	0	58	0	22020096	54	10483
2026-01-19 22:22:55.98	31.82	8.41	-41.4	-47.9	8.5	7.74e-02	0	58	0	23068672	54	7591
2026-01-19 22:22:56.99	31.91	8.48	-41.5	-48.1	8.4	4.32e-02	0	58	0	25165824	54	7726
2026-01-19 22:22:58.00	32.01	8.54	-41.6	-48.2	8.2	5.85e-02	0	59	0	27262976	54	7887
2026-01-19 22:22:59.01	32.11	8.61	-41.5	-48.0	8.5	4.27e-02	0	59	0	29360128	54	7653
2026-01-19 22:23:00.02	32.21	8.68	-41.5	-47.8	8.7	4.01e-02	0	58	0	31457280	54	7524
2026-01-19 22:23:01.03	32.30	8.75	-41.4	-47.8	8.7	3.87e-02	0	59	0	32505856	54	7478
2026-01-19 22:23:02.04	32.40	8.82	-41.5	-47.8	8.7	3.18e-02	0	59	0	34603008	54	7476
2026-01-19 22:23:03.05	32.50	8.89	-41.6	-47.7	8.9	2.86e-02	0	58	0	36700160	54	7386
2026-01-19 22:23:04.06	32.60	8.95	-41.5	-47.5	9.1	2.50e-02	0	59	0	38797312	54	7264
2026-01-19 22:23:05.07	32.70	9.02	-41.5	-47.2	9.4	1.46e-02	0	59	0	40894464	54	6987
2026-01-19 22:23:06.08	32.80	9.09	-41.5	-47.2	9.4	1.48e-02	0	59	0	41943040	54	7033
2026-01-19 22:23:07.09	32.90	9.16	-41.6	-47.2	9.5	1.49e-02	0	58	0	44040192	54	7022
2026-01-19 22:23:08.10	33.00	9.23	-41.5	-47.0	9.7	1.50e-02	0	59	0	46137344	54	6876
2026-01-19 22:23:09.11	33.10	9.30	-41.6	-47.1	9.7	1.10e-02	0	59	0	48234496	54	6908
2026-01-19 22:23:10.12	33.20	9.37	-41.8	-47.4	9.4	1.64e-02	0	59	0	50331648	54	7180
2026-01-19 22:23:11.13	33.31	9.44	-41.8	-47.3	9.5	1.40e-02	0	59	0	51380224	54	7118
2026-01-19 22:23:12.14	33.41	9.51	-41.8	-47.4	9.5	1.52e-02	0	59	0	53477376	54	7150
2026-01-19 22:23:13.15	33.51	9.58	-41.9	-47.3	9.7	1.30e-02	0	59	0	55574528	54	7047
2026-01-19 22:23:14.16	33.62	9.65	-41.9	-47.3	9.8	1.10e-02	0	59	0	57671680	54	7063
2026-01-19 22:23:15.17	33.72	9.72	-41.9	-47.2	9.8	8.74e-03	0	59	0	59768832	54	6985
2026-01-19 22:23:16.18	33.82	9.79	-41.9	-47.1	9.9	9.46e-03	0	59	0	60817408	54	6927
2026-01-19 22:23:17.19	33.93	9.86	-41.9	-47.1	10.0	8.44e-03	0	59	0	62914560	54	6910
2026-01-19 22:23:18.20	34.04	9.93	-41.9	-47.2	9.9	9.22e-03	0	59	0	65011712	54	6964
2026-01-19 22:23:19.21	34.14	10.00	-42.0	-47.2	9.8	9.04e-03	0	59	0	67108864	54	7013
2026-01-19 22:23:20.22	34.25	10.07	-42.0	-47.2	9.8	9.07e-03	0	59	0	69206016	54	7005
2026-01-19 22:23:21.23	34.36	10.14	-41.9	-47.0	10.1	8.36e-03	0	59	0	70254592	54	6846
2026-01-19 22:23:22.24	34.46	10.21	-42.0	-47.1	10.0	7.93e-03	0	59	0	72351744	54	6946
2026-01-19 22:23:23.25	34.57	10.28	-42.0	-47.2	9.9	8.97e-03	0	59	0	74448896	54	7022
2026-01-19 22:23:24.26	34.68	10.35	-42.0	-47.2	9.9	8.02e-03	0	59	0	76546048	54	7031
2026-01-19 22:23:25.26	34.79	10.42	-42.1	-47.2	10.0	7.47e-03	0	59	0	78643200	54	7023
2026-01-19 22:23:26.27	34.90	10.50	-42.0	-47.1	10.1	7.37e-03	0	59	0	79691776	54	6943
2026-01-19 22:23:27.29	35.01	10.57	-42.1	-47.3	10.0	7.47e-03	0	59	0	81788928	54	7055
2026-01-19 22:23:28.30	35.12	10.64	-42.1	-47.4	9.9	9.29e-03	0	59	0	83886080	54	7133
2026-01-19 22:23:29.30	35.23	10.71	-42.1	-47.1	10.2	6.52e-03	0	59	0	85983232	54	6919
2026-01-19 22:23:30.31	35.34	10.78	-42.1	-47.1	10.2	5.94e-03	0	59	0	88080384	54	6910
2026-01-19 22:23:31.32	35.45	10.85	-42.1	-47.2	10.1	6.57e-03	0	59	0	90177536	54	6968
2026-01-19 22:23:32.33	35.57	10.93	-42.1	-47.1	10.2	5.71e-03	0	59	0	91226112	54	6926
2026-01-19 22:23:33.34	35.68	11.00	-42.1	-47.1	10.3	5.49e-03	0	59	0	93323264	54	6896
2026-01-19 22:23:34.35	35.79	11.07	-42.1	-47.1	10.2	5.38e-03	0	59	0	95420416	54	6905
2026-01-19 22:23:35.36	35.91	11.14	-42.1	-47.1	10.3	4.82e-03	0	59	0	97517568	54	6911
2026-01-19 22:23:36.37	36.02	11.22	-42.1	-47.0	10.4	4.47e-03	0	59	0	99614720	54	6806
2026-01-19 22:23:37.38	36.14	11.29	-42.1	-47.0	10.4	4.29e-03	0	59	0	100663296	54	6806
2026-01-19 22:23:38.39	36.25	11.36	-42.0	-46.8	10.6	3.62e-03	0	60	0	102760448	54	6677
2026-01-19 22:23:39.40	36.37	11.43	-42.0	-46.8	10.6	3.41e-03	0	59	0	104857600	54	6705
2026-01-19 22:23:40.41	36.49	11.51	-42.0	-46.7	10.7	3.27e-03	0	60	0	106954752	54	6620
2026-01-19 22:23:41.42	36.61	11.58	-42.0	-46.7	10.8	2.67e-03	0	60	0	109051904	54	6594
2026-01-19 22:23:42.43	36.72	11.65	-42.0	-46.6	10.8	2.66e-03	0	59	0	110100480	54	6563
2026-01-19 22:23:43.43	36.84	11.73	-42.0	-46.6	10.9	2.38e-03	0	59	0	112197632	54	6531
2026-01-19 22:23:44.44	36.96	11.80	-42.0	-46.6	10.9	2.38e-03	0	60	0	114294784	54	6558
2026-01-19 22:23:45.45	37.08	11.87	-42.0	-46.6	10.9	2.23e-03	0	59	0	116391936	54	6542
2026-01-19 22:23:46.46	37.20	11.95	-42.0	-46.5	11.0	1.96e-03	0	60	0	118489088	54	6457
2026-01-19 22:23:47.47	37.32	12.02	-42.0	-46.5	11.0	1.73e-03	0	59	0	119537664	54	6456
2026-01-19 22:23:48.48	37.44	12.09	-42.0	-46.5	11.0	1.82e-03	0	60	0	121634816	54	6464
2026-01-19 22:23:49.49	37.57	12.17	-42.0	-46.4	11.1	1.69e-03	0	60	0	123731968	54	6406
2026-01-19 22:23:50.50	37.69	12.24	-42.0	-46.5	11.0	1.54e-03	0	60	0	125829120	54	6481
2026-01-19 22:23:51.51	37.81	12.32	-42.0	-46.5	11.1	1.61e-03	0	59	0	127926272	54	6449
2026-01-19 22:23:52.52	37.94	12.39	-42.0	-46.5	11.1	1.63e-03	0	60	0	128974848	54	6445
2026-01-19 22:23:53.53	38.06	12.46	-42.0	-46.5	11.1	1.54e-03	0	60	0	131072000	54	6474
2026-01-19 22:23:54.54	38.19	12.54	-42.0	-46.3	11.3	1.24e-03	0	60	0	133169152	54	6347
2026-01-19 22:23:55.55	38.31	12.61	-41.9	-46.2	11.4	1.15e-03	0	60	0	135266304	54	6257
2026-01-19 22:23:56.56	38.44	12.69	-41.9	-46.3	11.4	1.05e-03	0	60	0	137363456	54	6275
2026-01-19 22:23:57.57	38.57	12.76	-41.9	-46.3	11.3	1.06e-03	0	60	0	138412032	54	6315
2026-01-19 22:23:58.58	38.69	12.84	-41.9	-46.3	11.4	1.01e-03	0	60	0	140509184	54	6287
2026-01-19 22:23:59.59	38.82	12.91	-41.9	-46.3	11.3	1.06e-03	0	60	0	142606336	54	6341
2026-01-19 22:24:00.60	38.95	12.99	-42.0	-46.3	11.3	1.19e-03	0	60	0	144703488	54	6340
2026-01-19 22:24:01.61	39.08	13.06	-42.0	-46.4	11.2	1.19e-03	0	60	0	146800640	54	6387
2026-01-19 22:24:02.62	39.21	13.14	-42.0	-46.5	11.2	1.38e-03	0	60	0	147849216	54	6450
2026-01-19 22:24:03.63	39.34	13.21	-42.1	-46.5	11.1	1.53e-03	0	60	0	149946368	54	6485
2026-01-19 22:24:04.64	39.47	13.29	-42.1	-46.5	11.1	1.58e-03	0	60	0	152043520	54	6494
2026-01-19 22:24:05.65	39.61	13.37	-42.1	-46.6	11.1	1.61e-03	0	60	0	154140672	54	6498
2026-01-19 22:24:06.66	39.74	13.44	-42.1	-46.7	11.0	1.68e-03	0	60	0	156237824	54	6588
2026-01-19 22:24:07.67	39.87	13.52	-42.1	-46.6	11.0	1.67e-03	0	60	0	158334976	54	6544
2026-01-19 22:24:08.67	40.01	13.59	-42.1	-46.6	11.1	1.62e-03	0	60	0	159383552	54	6498
2026-01-19 22:24:09.68	40.14	13.67	-42.1	-46.5	11.2	1.47e-03	0	60	0	161480704	54	6425
2026-01-19 22:24:10.69	40.28	13.75	-42.0	-46.4	11.3	1.21e-03	0	60	0	163577856	54	6395
2026-01-19 22:24:11.70	40.41	13.82	-42.0	-46.4	11.3	1.13e-03	0	60	0	165675008	54	6395
2026-01-19 22:24:12.71	40.55	13.90	-42.1	-46.4	11.3	1.14e-03	0	60	0	166723584	54	6414
2026-01-19 22:24:13.72	40.69	13.97	-42.1	-46.4	11.3	1.21e-03	0	60	0	168820736	54	6396
2026-01-19 22:24:14.73	40.83	14.05	-42.0	-46.3	11.4	1.04e-03	0	60	0	170917888	54	6334
2026-01-19 22:24:15.74	40.96	14.13	-42.1	-46.4	11.3	1.10e-03	0	60	0	173015040	54	6402
2026-01-19 22:24:16.75	41.10	14.20	-42.0	-46.3	11.4	1.04e-03	0	60	0	175112192	54	6338
2026-01-19 22:24:17.76	41.24	14.28	-42.0	-46.3	11.4	9.25e-04	0	60	0	176160768	54	6341
2026-01-19 22:24:18.77	41.39	14.36	-42.0	-46.4	11.4	8.99e-04	0	60	0	178257920	54	6366
2026-01-19 22:24:19.78	41.53	14.43	-42.0	-46.3	11.5	8.76e-04	0	60	0	180355072	54	6296
2026-01-19 22:24:20.79	41.67	14.51	-42.0	-46.3	11.5	7.69e-04	0	60	0	182452224	54	6294
2026-01-19 22:24:21.79	41.81	14.59	-42.0	-46.2	11.6	8.02e-04	0	60	0	184549376	54	6247
2026-01-19 22:24:22.80	41.96	14.67	-42.0	-46.2	11.5	6.71e-04	0	60	0	186646528	54	6259
2026-01-19 22:24:23.81	42.10	14.74	-42.0	-46.3	11.5	7.12e-04	0	60	0	187695104	54	6305
2026-01-19 22:24:24.82	42.25	14.82	-42.0	-46.2	11.6	7.36e-04	0	60	0	189792256	54	6235
2026-01-19 22:24:25.83	42.39	14.90	-41.9	-46.1	11.7	5.77e-04	0	60	0	191889408	54	6186
2026-01-19 22:24:26.84	42.54	14.98	-41.9	-46.1	11.6	6.05e-04	0	60	0	193986560	54	6202
2026-01-19 22:24:27.85	42.69	15.05	-41.9	-46.1	11.8	6.23e-04	0	60	0	196083712	54	6149
2026-01-19 22:24:28.86	42.84	15.13	-42.0	-46.2	11.6	5.77e-04	0	60	0	197132288	54	6254
2026-01-19 22:24:29.87	42.98	15.21	-42.0	-46.3	11.5	8.03e-04	0	60	0	199229440	54	6286
2026-01-19 22:24:30.88	43.13	15.29	-42.0	-46.2	11.6	6.61e-04	0	60	0	201326592	54	6252
2026-01-19 22:24:31.89	43.29	15.36	-41.9	-46.1	11.7	6.32e-04	0	60	0	203423744	54	6180
2026-01-19 22:24:32.90	43.44	15.44	-41.9	-46.0	11.8	4.84e-04	0	60	0	205520896	54	6124
2026-01-19 22:24:33.91	43.59	15.52	-41.9	-46.0	11.8	5.07e-04	0	60	0	206569472	54	6105
2026-01-19 22:24:34.92	43.74	15.60	-41.8	-45.9	12.0	4.20e-04	0	60	0	208666624	54	6010
2026-01-19 22:24:35.93	43.90	15.68	-41.9	-45.9	11.9	3.13e-04	0	60	0	210763776	54	6054
2026-01-19 22:24:36.94	44.05	15.76	-41.8	-45.8	12.1	2.55e-04	0	61	0	212860928	54	5936
2026-01-19 22:24:37.95	44.21	15.83	-41.8	-45.7	12.2	2.54e-04	0	60	0	214958080	54	5920
2026-01-19 22:24:38.96	44.36	15.91	-41.8	-45.7	12.2	2.39e-04	0	60	0	216006656	54	5890
2026-01-19 22:24:39.97	44.52	15.99	-41.8	-45.7	12.2	2.32e-04	0	60	0	218103808	54	5879
2026-01-19 22:24:40.98	44.68	16.07	-41.8	-45.7	12.2	2.22e-04	0	60	0	220200960	54	5882
2026-01-19 22:24:41.99	44.83	16.15	-41.7	-45.6	12.3	1.98e-04	0	60	0	222298112	54	5818
2026-01-19 22:24:42.99	44.99	16.23	-41.8	-45.7	12.3	1.99e-04	0	60	0	224395264	54	5858
2026-01-19 22:24:44.00	45.15	16.30	-41.7	-45.6	12.3	1.63e-04	0	60	0	225443840	54	5810
2026-01-19 22:24:45.01	45.31	16.38	-41.8	-45.6	12.3	1.97e-04	0	61	0	227540992	54	5849
2026-01-19 22:24:46.02	45.47	16.46	-41.7	-45.6	12.4	1.50e-04	0	61	0	229638144	54	5798
2026-01-19 22:24:47.03	45.64	16.54	-41.8	-45.7	12.3	1.57e-04	0	60	0	231735296	54	5886
2026-01-19 22:24:48.04	45.80	16.62	-41.8	-45.7	12.2	2.00e-04	0	61	0	233832448	54	5868
2026-01-19 22:24:49.05	45.97	16.70	-41.8	-45.7	12.3	1.95e-04	0	60	0	234881024	54	5857
2026-01-19 22:24:50.06	46.13	16.78	-41.8	-45.7	12.2	2.63e-04	0	60	0	236978176	54	5922
2026-01-19 22:24:51.07	46.30	16.86	-41.8	-45.7	12.3	2.13e-04	0	60	0	239075328	54	5860
2026-01-19 22:24:52.08	46.46	16.93	-41.9	-45.8	12.2	2.43e-04	0	61	0	241172480	54	5983
2026-01-19 22:24:53.09	46.63	17.01	-41.9	-45.9	12.1	2.68e-04	0	61	0	243269632	54	6024
2026-01-19 22:24:54.09	46.80	17.09	-41.9	-45.9	12.0	2.94e-04	0	60	0	244318208	54	6058
2026-01-19 22:24:55.11	46.97	17.17	-42.0	-46.0	12.0	3.45e-04	0	61	0	246415360	54	6068
2026-01-19 22:24:56.11	47.14	17.25	-42.0	-46.1	11.9	3.44e-04	0	60	0	248512512	54	6140
2026-01-19 22:24:57.13	47.31	17.33	-41.9	-46.0	12.0	3.50e-04	0	60	0	250609664	54	6066
2026-01-19 22:24:58.13	47.48	17.41	-42.0	-46.0	11.9	3.88e-04	0	61	0	252706816	54	6126
2026-01-19 22:24:59.14	47.65	17.49	-42.0	-46.1	11.8	4.59e-04	0	61	0	254803968	54	6196
2026-01-19 22:25:00.15	47.83	17.57	-42.1	-46.2	11.8	4.42e-04	0	61	0	255852544	54	6250
2026-01-19 22:25:01.16	48.00	17.64	-42.1	-46.2	11.8	5.10e-04	0	61	0	257949696	54	6212
2026-01-19 22:25:02.17	48.18	17.72	-42.0	-46.1	11.9	4.01e-04	0	61	0	260046848	54	6148
2026-01-19 22:25:03.18	48.35	17.80	-42.0	-46.1	11.9	3.95e-04	0	61	0	262144000	54	6174
2026-01-19 22:25:04.19	48.53	17.88	-42.0	-45.9	12.1	3.68e-04	0	61	0	264241152	54	6056
2026-01-19 22:25:05.20	48.71	17.96	-41.9	-45.8	12.2	2.89e-04	0	61	0	265289728	54	5985
2026-01-19 22:25:06.21	48.89	18.04	-41.9	-45.8	12.2	2.26e-04	0	61	0	267386880	54	5931
2026-01-19 22:25:07.22	49.07	18.12	-41.8	-45.6	12.4	1.43e-04	0	61	0	269484032	54	5833
2026-01-19 22:25:08.23	49.25	18.20	-41.8	-45.5	12.5	1.27e-04	0	61	0	271581184	54	5768
2026-01-19 22:25:09.24	49.43	18.28	-41.8	-45.5	12.5	1.14e-04	0	61	0	273678336	54	5762
2026-01-19 22:25:10.25	49.61	18.36	-41.8	-45.5	12.5	1.07e-04	0	61	0	274726912	54	5759
2026-01-19 22:25:11.25	49.80	18.43	-41.8	-45.6	12.4	1.33e-04	0	61	0	276824064	54	5819
2026-01-19 22:25:12.26	49.98	18.51	-41.7	-45.5	12.6	9.84e-05	0	61	0	278921216	54	5728
2026-01-19 22:25:13.28	50.17	18.59	-41.7	-45.4	12.6	9.53e-05	0	61	0	281018368	54	5684
2026-01-19 22:25:14.28	50.35	18.67	-41.7	-45.3	12.7	9.00e-05	0	61	0	283115520	54	5629
2026-01-19 22:25:15.29	50.54	18.75	-41.6	-45.3	12.8	6.25e-05	0	61	0	284164096	54	5596
2026-01-19 22:25:16.30	50.73	18.83	-41.6	-45.1	12.9	3.81e-05	0	61	0	286261248	54	5513
2026-01-19 22:25:17.31	50.92	18.91	-41.4	-44.9	13.2	2.13e-05	0	61	0	288358400	54	5372
2026-01-19 22:25:18.32	51.11	18.99	-41.4	-44.8	13.3	1.29e-05	0	61	0	290455552	54	5303
2026-01-19 22:25:19.33	51.30	19.07	-41.4	-44.8	13.3	1.52e-05	0	61	0	292552704	54	5312
2026-01-19 22:25:20.34	51.49	19.14	-41.4	-44.7	13.4	1.98e-05	0	61	0	293601280	54	5264
2026-01-19 22:25:21.35	51.68	19.22	-41.4	-44.7	13.4	1.22e-05	0	61	0	295698432	54	5251
2026-01-19 22:25:22.36	51.88	19.30	-41.2	-44.5	13.6	7.60e-06	0	61	0	297795584	54	5133
2026-01-19 22:25:23.37	52.07	19.38	-41.3	-44.6	13.5	6.80e-06	0	61	0	299892736	54	5191
2026-01-19 22:25:24.38	52.27	19.46	-41.3	-44.6	13.5	7.60e-06	0	61	0	301989888	54	5183
2026-01-19 22:25:25.39	52.47	19.54	-41.3	-44.6	13.4	1.29e-05	0	61	0	303038464	54	5212
2026-01-19 22:25:26.40	52.67	19.61	-41.3	-44.6	13.5	1.06e-05	0	61	0	305135616	54	5212
2026-01-19 22:25:27.41	52.86	19.69	-41.3	-44.6	13.4	1.06e-05	0	61	0	307232768	54	5217
2026-01-19 22:25:28.42	53.06	19.77	-41.3	-44.6	13.5	1.22e-05	0	61	0	309329920	54	5164
2026-01-19 22:25:29.42	53.26	19.85	-41.3	-44.6	13.5	9.10e-06	0	61	0	311427072	54	5207
2026-01-19 22:25:30.43	53.47	19.92	-41.2	-44.4	13.7	7.60e-06	0	61	0	312475648	54	5095
2026-01-19 22:25:31.44	53.67	20.00	-41.1	-44.3	13.8	3.00e-06	0	61	0	314572800	54	5018
2026-01-19 22:25:32.45	53.87	20.08	-41.2	-44.4	13.7	6.10e-06	0	61	0	316669952	54	5057
2026-01-19 22:25:33.46	54.08	20.16	-41.2	-44.5	13.6	5.30e-06	0	61	0	318767104	54	5123
2026-01-19 22:25:34.47	54.28	20.23	-41.2	-44.5	13.6	7.60e-06	0	61	0	320864256	54	5144
2026-01-19 22:25:35.48	54.49	20.31	-41.2	-44.5	13.6	7.60e-06	0	61	0	322961408	54	5153
2026-01-19 22:25:36.49	54.70	20.39	-41.3	-44.7	13.5	1.14e-05	0	61	0	324009984	54	5232
2026-01-19 22:25:37.50	54.91	20.47	-41.4	-44.7	13.4	1.22e-05	0	61	0	326107136	54	5270
2026-01-19 22:25:38.51	55.12	20.54	-41.3	-44.7	13.4	1.06e-05	0	61	0	328204288	54	5245
2026-01-19 22:25:39.51	55.33	20.62	-41.4	-44.7	13.4	1.14e-05	0	61	0	330301440	54	5275
2026-01-19 22:25:40.52	55.54	20.69	-41.4	-44.8	13.3	1.29e-05	0	61	0	332398592	54	5284
2026-01-19 22:25:41.53	55.75	20.77	-41.4	-44.7	13.4	2.36e-05	0	61	0	333447168	54	5261
2026-01-19 22:25:42.54	55.97	20.85	-41.3	-44.6	13.5	1.06e-05	0	61	0	335544320	54	5197
2026-01-19 22:25:43.55	56.18	20.92	-41.3	-44.6	13.4	1.06e-05	0	61	0	337641472	54	5203
2026-01-19 22:25:44.56	56.40	21.00	-41.3	-44.7	13.4	1.22e-05	0	61	0	339738624	54	5235
2026-01-19 22:25:45.57	56.62	21.07	-41.3	-44.7	13.4	1.52e-05	0	61	0	341835776	54	5230
2026-01-19 22:25:46.58	56.84	21.15	-41.5	-44.9	13.2	1.98e-05	0	61	0	342884352	54	5378
2026-01-19 22:25:47.59	57.06	21.23	-41.5	-45.0	13.1	2.05e-05	0	61	0	344981504	54	5432
2026-01-19 22:25:48.60	57.28	21.30	-41.4	-44.9	13.2	2.67e-05	0	61	0	347078656	54	5346
2026-01-19 22:25:49.61	57.50	21.38	-41.5	-44.9	13.1	2.21e-05	0	61	0	349175808	54	5382
2026-01-19 22:25:50.62	57.72	21.45	-41.5	-45.0	13.1	2.44e-05	0	61	0	351272960	54	5454
2026-01-19 22:25:51.63	57.95	21.52	-41.5	-45.0	13.1	2.97e-05	0	61	0	352321536	54	5439
2026-01-19 22:25:52.64	58.17	21.60	-41.6	-45.1	12.9	3.28e-05	0	61	0	354418688	54	5501
2026-01-19 22:25:53.65	58.40	21.67	-41.6	-45.2	12.9	3.35e-05	0	61	0	356515840	54	5543
2026-01-19 22:25:54.66	58.62	21.75	-41.6	-45.2	12.9	4.88e-05	0	61	0	358612992	54	5581
2026-01-19 22:25:55.67	58.85	21.82	-41.7	-45.4	12.7	6.86e-05	0	61	0	360710144	54	5674
2026-01-19 22:25:56.67	59.08	21.89	-41.7	-45.4	12.7	7.17e-05	0	61	0	361758720	54	5703
2026-01-19 22:25:57.69	59.31	21.97	-41.8	-45.5	12.5	1.16e-04	0	61	0	363855872	54	5776
2026-01-19 22:25:58.69	59.54	22.04	-41.8	-45.5	12.5	1.14e-04	0	61	0	365953024	54	5785
2026-01-19 22:25:59.71	59.77	22.11	-41.8	-45.6	12.5	1.25e-04	0	61	0	368050176	54	5802
2026-01-19 22:26:00.71	60.01	22.18	-41.9	-45.6	12.4	1.49e-04	0	61	0	370147328	54	5846
2026-01-19 22:26:01.73	60.24	22.26	-41.8	-45.6	12.5	9.68e-05	0	61	0	371195904	54	5803
2026-01-19 22:26:02.74	60.48	22.33	-41.8	-45.4	12.6	1.01e-04	0	61	0	373293056	54	5721
2026-01-19 22:26:03.75	60.71	22.40	-41.8	-45.5	12.7	9.23e-05	0	61	0	375390208	54	5730
2026-01-19 22:26:04.76	60.95	22.47	-41.7	-45.3	12.8	6.94e-05	0	61	0	377487360	54	5600
2026-01-19 22:26:05.77	61.19	22.54	-41.7	-45.3	12.8	5.56e-05	0	61	0	379584512	54	5635
2026-01-19 22:26:06.78	61.43	22.61	-41.8	-45.5	12.7	7.17e-05	0	61	0	380633088	54	5731
2026-01-19 22:26:07.78	61.67	22.68	-41.8	-45.5	12.6	8.23e-05	0	61	0	382730240	54	5753
2026-01-19 22:26:08.80	61.91	22.75	-41.8	-45.6	12.5	1.21e-04	0	61	0	384827392	54	5824
2026-01-19 22:26:09.81	62.16	22.82	-41.8	-45.6	12.5	1.22e-04	0	61	0	386924544	54	5811
2026-01-19 22:26:10.82	62.40	22.89	-41.8	-45.6	12.5	9.38e-05	0	61	0	389021696	54	5789
2026-01-19 22:26:11.82	62.64	22.96	-41.8	-45.5	12.6	1.01e-04	0	61	0	391118848	54	5758
2026-01-19 22:26:12.83	62.89	23.03	-41.7	-45.4	12.7	8.69e-05	0	61	0	392167424	54	5671
2026-01-19 22:26:13.84	63.14	23.10	-41.8	-45.5	12.6	8.62e-05	0	61	0	394264576	54	5730
2026-01-19 22:26:14.85	63.38	23.16	-41.8	-45.4	12.8	8.16e-05	0	61	0	396361728	54	5705
2026-01-19 22:26:15.86	63.63	23.23	-41.8	-45.5	12.7	8.23e-05	0	61	0	398458880	54	5742
2026-01-19 22:26:16.87	63.88	23.30	-41.9	-45.6	12.5	9.07e-05	0	61	0	400556032	54	5840
2026-01-19 22:26:17.88	64.14	23.36	-41.9	-45.7	12.4	1.22e-04	0	61	0	401604608	54	5902
2026-01-19 22:26:18.89	64.39	23.43	-42.0	-45.9	12.2	1.46e-04	0	61	0	403701760	54	5998
2026-01-19 22:26:19.90	64.64	23.50	-42.1	-46.1	12.0	2.50e-04	0	61	0	405798912	54	6168
2026-01-19 22:26:20.91	64.90	23.56	-42.2	-46.3	11.9	3.87e-04	0	61	0	407896064	54	6304
2026-01-19 22:26:21.92	65.15	23.63	-42.3	-46.4	11.7	4.71e-04	0	61	0	409993216	55	6044
2026-01-19 22:26:22.93	65.41	23.69	-42.3	-46.5	11.6	6.20e-04	0	61	0	411041792	55	6106
2026-01-19 22:26:23.94	65.67	23.76	-42.4	-46.7	11.4	8.49e-04	0	61	0	413138944	55	6241
2026-01-19 22:26:24.95	65.93	23.82	-42.4	-46.7	11.4	8.80e-04	0	61	0	415236096	55	6235
2026-01-19 22:26:25.96	66.19	23.88	-42.4	-46.7	11.4	1.03e-03	0	61	0	417333248	55	6243
2026-01-19 22:26:26.97	66.45	23.95	-42.4	-46.8	11.2	1.16e-03	0	61	0	419430400	55	6340
2026-01-19 22:26:27.98	66.71	24.01	-42.4	-46.8	11.3	1.28e-03	0	61	0	420478976	55	6287
2026-01-19 22:26:28.99	66.97	24.07	-42.5	-46.9	11.3	1.21e-03	0	61	0	422576128	55	6357
2026-01-19 22:26:30.00	67.24	24.13	-42.5	-46.9	11.2	1.33e-03	0	61	0	424673280	55	6356
2026-01-19 22:26:31.01	67.50	24.19	-42.5	-47.0	11.1	1.58e-03	0	61	0	426770432	55	6449
2026-01-19 22:26:32.02	67.77	24.25	-42.6	-47.1	10.9	1.91e-03	0	61	0	428867584	55	6549
2026-01-19 22:26:33.03	68.03	24.31	-42.7	-47.3	10.7	2.28e-03	0	61	0	429916160	55	6707
2026-01-19 22:26:34.04	68.30	24.37	-42.9	-47.7	10.6	3.19e-03	0	61	0	432013312	56	6580
2026-01-19 22:26:35.05	68.57	24.43	-43.0	-48.0	10.3	4.24e-03	0	61	0	434110464	56	6810
2026-01-19 22:26:36.06	68.84	24.49	-43.0	-47.9	10.3	5.66e-03	0	61	0	436207616	56	6775
2026-01-19 22:26:37.07	69.11	24.55	-42.9	-47.7	10.4	4.33e-03	0	61	0	438304768	56	6637
2026-01-19 22:26:38.08	69.38	24.61	-42.8	-47.5	10.7	3.87e-03	0	61	0	439353344	56	6443
2026-01-19 22:26:39.09	69.66	24.66	-42.8	-47.3	10.9	2.60e-03	0	61	0	441450496	56	6346
2026-01-19 22:26:40.10	69.93	24.72	-42.7	-47.2	11.1	1.81e-03	0	61	0	443547648	56	6215
2026-01-19 22:26:41.10	70.20	24.78	-42.6	-47.0	11.2	1.36e-03	0	61	0	445644800	56	6077
2026-01-19 22:26:42.12	70.48	24.83	-42.6	-47.1	11.2	1.37e-03	0	62	0	447741952	56	6148
2026-01-19 22:26:43.13	70.76	24.89	-42.8	-47.5	10.8	2.05e-03	0	61	0	448790528	56	6427
2026-01-19 22:26:44.13	71.03	24.94	-42.9	-47.8	10.5	3.71e-03	0	62	0	450887680	56	6663
2026-01-19 22:26:45.14	71.31	24.99	-43.1	-48.2	10.0	5.93e-03	0	61	0	452984832	56	6971
2026-01-19 22:26:46.15	71.59	25.05	-43.3	-48.7	9.5	1.09e-02	0	62	0	455081984	57	6983
2026-01-19 22:26:47.16	71.87	25.10	-43.4	-49.1	9.1	2.08e-02	0	61	0	457179136	57	7291
2026-01-19 22:26:48.18	72.16	25.15	-43.4	-49.1	9.0	2.50e-02	0	61	0	459276288	57	7367
2026-01-19 22:26:49.19	72.44	25.20	-43.3	-48.9	9.2	2.45e-02	0	61	0	460324864	57	7177
2026-01-19 22:26:50.20	72.72	25.25	-43.3	-48.8	9.4	1.80e-02	0	61	0	462422016	57	7088
2026-01-19 22:26:51.21	73.01	25.30	-43.2	-48.6	9.5	1.37e-02	0	62	0	464519168	57	6930
2026-01-19 22:26:52.21	73.29	25.35	-43.1	-48.2	10.1	1.09e-02	0	61	0	466616320	57	6590
2026-01-19 22:26:53.22	73.57	25.40	-43.1	-48.3	9.9	7.91e-03	0	62	0	468713472	57	6676
2026-01-19 22:26:54.23	73.86	25.45	-43.1	-48.2	10.0	7.78e-03	0	62	0	469762048	57	6610
2026-01-19 22:26:55.24	74.15	25.49	-43.1	-48.4	9.8	8.49e-03	0	62	0	471859200	57	6736
2026-01-19 22:26:56.25	74.44	25.54	-43.1	-48.3	9.9	8.74e-03	0	61	0	473956352	57	6721
2026-01-19 22:26:57.26	74.73	25.59	-43.2	-48.5	9.7	1.08e-02	0	62	0	476053504	57	6821
2026-01-19 22:26:58.27	75.02	25.63	-43.2	-48.5	9.6	1.15e-02	0	61	0	478150656	57	6842
2026-01-19 22:26:59.28	75.31	25.68	-43.2	-48.7	9.5	1.41e-02	0	62	0	479199232	57	6986
2026-01-19 22:27:00.29	75.60	25.72	-43.2	-48.5	9.6	1.27e-02	0	61	0	481296384	57	6866
2026-01-19 22:27:01.30	75.89	25.76	-43.2	-48.5	9.6	1.24e-02	0	62	0	483393536	57	6841
2026-01-19 22:27:02.31	76.19	25.81	-43.1	-48.3	9.9	1.15e-02	0	61	0	485490688	57	6666
2026-01-19 22:27:03.32	76.48	25.85	-43.1	-48.3	9.9	7.99e-03	0	61	0	487587840	57	6661
2026-01-19 22:27:04.33	76.78	25.89	-43.1	-48.3	10.0	8.16e-03	0	62	0	488636416	57	6655
2026-01-19 22:27:05.34	77.07	25.93	-43.1	-48.2	10.0	7.65e-03	0	61	0	490733568	57	6616
2026-01-19 22:27:06.35	77.37	25.97	-43.0	-48.1	10.1	6.81e-03	0	61	0	492830720	57	6501
2026-01-19 22:27:07.36	77.66	26.01	-43.1	-48.2	10.0	7.43e-03	0	61	0	494927872	57	6628
2026-01-19 22:27:08.37	77.96	26.04	-43.1	-48.2	10.0	8.14e-03	0	61	0	497025024	57	6620
2026-01-19 22:27:09.38	78.26	26.08	-43.1	-48.1	10.1	7.11e-03	0	62	0	498073600	57	6562
2026-01-19 22:27:10.39	78.56	26.12	-42.9	-47.8	10.4	5.95e-03	0	61	0	500170752	57	6334
2026-01-19 22:27:11.40	78.86	26.15	-42.9	-47.6	10.5	4.03e-03	0	61	0	502267904	57	6201
2026-01-19 22:27:12.41	79.16	26.19	-42.8	-47.6	10.6	3.51e-03	0	61	0	504365056	57	6154
2026-01-19 22:27:13.42	79.46	26.22	-42.7	-47.3	10.8	2.95e-03	0	61	0	506462208	57	5966
2026-01-19 22:27:14.43	79.76	26.26	-42.6	-47.1	11.1	2.20e-03	0	62	0	507510784	57	5842
2026-01-19 22:27:15.44	80.07	26.29	-42.7	-47.3	11.0	1.86e-03	0	62	0	509607936	57	5936
2026-01-19 22:27:16.45	80.37	26.32	-42.6	-47.1	11.1	1.70e-03	0	62	0	511705088	57	5827
2026-01-19 22:27:17.46	80.67	26.35	-42.7	-47.2	11.1	1.49e-03	0	62	0	513802240	57	5893
2026-01-19 22:27:18.46	80.97	26.38	-42.7	-47.3	11.0	1.75e-03	0	62	0	515899392	57	5971
2026-01-19 22:27:19.47	81.28	26.41	-42.7	-47.3	11.0	2.13e-03	0	62	0	516947968	57	5966
2026-01-19 22:27:20.48	81.58	26.44	-42.8	-47.5	10.7	2.24e-03	0	62	0	519045120	57	6097
2026-01-19 22:27:21.49	81.89	26.47	-42.9	-47.6	10.7	2.72e-03	0	62	0	521142272	57	6136
2026-01-19 22:27:22.50	82.20	26.49	-42.9	-47.7	10.6	3.26e-03	0	62	0	523239424	57	6217
2026-01-19 22:27:23.51	82.50	26.52	-42.9	-47.7	10.5	3.49e-03	0	62	0	525336576	57	6267
2026-01-19 22:27:24.52	82.81	26.55	-43.0	-47.8	10.5	3.77e-03	0	62	0	527433728	57	6317
2026-01-19 22:27:25.53	83.12	26.57	-43.0	-47.9	10.4	4.90e-03	0	62	0	528482304	57	6402
2026-01-19 22:27:26.54	83.43	26.59	-43.1	-48.0	10.3	4.77e-03	0	61	0	530579456	57	6462
2026-01-19 22:27:27.55	83.74	26.62	-43.0	-47.9	10.4	5.23e-03	0	62	0	532676608	57	6360
2026-01-19 22:27:28.56	84.05	26.64	-43.0	-47.7	10.6	3.74e-03	0	62	0	534773760	57	6267
2026-01-19 22:27:29.57	84.36	26.66	-42.9	-47.5	10.8	3.30e-03	0	62	0	536870912	57	6113
2026-01-19 22:27:30.58	84.67	26.68	-42.8	-47.4	10.9	2.16e-03	0	62	0	537919488	57	6006
2026-01-19 22:27:31.58	84.97	26.70	-42.8	-47.3	11.0	1.97e-03	0	62	0	540016640	57	5987
2026-01-19 22:27:32.60	85.29	26.72	-42.7	-47.2	11.1	1.50e-03	0	62	0	542113792	57	5901
2026-01-19 22:27:33.61	85.60	26.73	-42.7	-47.2	11.1	1.60e-03	0	62	0	544210944	57	5893
2026-01-19 22:27:34.62	85.91	26.75	-42.7	-47.0	11.3	1.37e-03	0	62	0	546308096	57	5774
2026-01-19 22:27:35.62	86.22	26.77	-42.6	-46.8	11.6	8.51e-04	0	62	0	547356672	57	5626
2026-01-19 22:27:36.63	86.53	26.78	-42.6	-46.8	11.5	6.87e-04	0	62	0	549453824	57	5652
2026-01-19 22:27:37.64	86.84	26.79	-42.6	-46.9	11.5	8.20e-04	0	62	0	551550976	57	5695
2026-01-19 22:27:38.65	87.16	26.81	-42.6	-46.9	11.5	7.57e-04	0	62	0	553648128	57	5702
2026-01-19 22:27:39.66	87.47	26.82	-42.6	-46.9	11.4	9.10e-04	0	62	0	555745280	57	5719
2026-01-19 22:27:40.67	87.78	26.83	-42.7	-47.2	11.2	1.17e-03	0	62	0	556793856	57	5901
2026-01-19 22:27:41.68	88.09	26.84	-42.7	-47.2	11.2	1.33e-03	0	62	0	558891008	57	5858
2026-01-19 22:27:42.69	88.41	26.85	-42.7	-47.1	11.3	1.17e-03	0	62	0	560988160	57	5804
2026-01-19 22:27:43.70	88.72	26.86	-42.6	-47.0	11.4	1.07e-03	0	62	0	563085312	57	5747
2026-01-19 22:27:44.71	89.04	26.87	-42.6	-46.8	11.6	7.97e-04	0	62	0	565182464	57	5629
2026-01-19 22:27:45.72	89.35	26.87	-42.5	-46.5	11.9	4.88e-04	0	62	0	566231040	56	5787
2026-01-19 22:27:46.73	89.66	26.88	-42.3	-46.3	12.2	3.41e-04	0	62	0	568328192	56	5614
2026-01-19 22:27:47.74	89.98	26.88	-42.3	-46.2	12.3	1.84e-04	0	62	0	570425344	56	5537
2026-01-19 22:27:48.75	90.29	26.89	-42.3	-46.1	12.3	1.81e-04	0	62	0	572522496	56	5513
2026-01-19 22:27:49.75	90.60	26.89	-42.4	-46.4	12.1	2.19e-04	0	62	0	574619648	56	5671
2026-01-19 22:27:50.76	90.92	26.89	-42.5	-46.6	11.9	4.07e-04	0	62	0	575668224	56	5807
2026-01-19 22:27:51.77	91.23	26.90	-42.6	-46.9	11.5	6.89e-04	0	62	0	577765376	56	6030
2026-01-19 22:27:52.78	91.55	26.90	-42.6	-47.0	11.4	9.52e-04	0	62	0	579862528	56	6072
2026-01-19 22:27:53.79	91.86	26.89	-42.6	-46.8	11.5	8.71e-04	0	62	0	581959680	56	5991
2026-01-19 22:27:54.80	92.18	26.89	-42.5	-46.6	11.8	5.92e-04	0	62	0	584056832	56	5846
2026-01-19 22:27:55.81	92.49	26.89	-42.5	-46.5	11.9	4.15e-04	0	62	0	585105408	56	5785
2026-01-19 22:27:56.82	92.81	26.89	-42.4	-46.5	11.9	3.58e-04	0	62	0	587202560	56	5776
2026-01-19 22:27:57.83	93.12	26.88	-42.5	-46.6	11.8	4.44e-04	0	62	0	589299712	56	5810
2026-01-19 22:27:58.84	93.44	26.88	-42.6	-46.8	11.6	5.35e-04	0	62	0	591396864	56	5952
2026-01-19 22:27:59.85	93.75	26.87	-42.8	-47.3	11.2	9.71e-04	0	62	0	593494016	56	6286
2026-01-19 22:28:00.86	94.06	26.87	-43.0	-47.7	10.6	2.24e-03	0	62	0	594542592	56	6639
2026-01-19 22:28:01.87	94.38	26.86	-43.1	-48.1	10.2	5.20e-03	0	62	0	596639744	56	6944
2026-01-19 22:28:02.88	94.69	26.85	-43.2	-48.2	10.1	6.52e-03	0	62	0	598736896	56	7007
2026-01-19 22:28:03.89	95.01	26.84	-43.1	-48.0	10.3	5.96e-03	0	62	0	600834048	56	6876
2026-01-19 22:28:04.90	95.32	26.83	-43.1	-48.0	10.4	4.51e-03	0	62	0	602931200	56	6827
2026-01-19 22:28:05.91	95.63	26.82	-43.0	-47.9	10.5	4.29e-03	0	62	0	603979776	56	6733
2026-01-19 22:28:06.91	95.94	26.81	-42.9	-47.6	10.8	3.74e-03	0	62	0	606076928	56	6544
2026-01-19 22:28:07.92	96.26	26.79	-42.8	-47.2	11.2	1.63e-03	0	62	0	608174080	56	6241
2026-01-19 22:28:08.93	96.57	26.78	-42.6	-46.9	11.6	8.57e-04	0	62	0	610271232	56	6028
2026-01-19 22:28:09.94	96.88	26.76	-42.6	-46.8	11.6	5.91e-04	0	62	0	612368384	56	5961
2026-01-19 22:28:10.95	97.19	26.75	-42.6	-46.8	11.6	6.29e-04	0	62	0	613416960	56	5975
2026-01-19 22:28:11.96	97.51	26.73	-42.7	-46.9	11.5	7.07e-04	0	62	0	615514112	56	6041
2026-01-19 22:28:12.97	97.82	26.71	-42.8	-47.2	11.3	1.17e-03	0	62	0	617611264	56	6203
2026-01-19 22:28:13.98	98.13	26.69	-42.8	-47.2	11.2	1.25e-03	0	62	0	619708416	56	6248
2026-01-19 22:28:14.99	98.44	26.68	-42.8	-47.2	11.3	1.39e-03	0	62	0	621805568	56	6209
2026-01-19 22:28:16.00	98.75	26.66	-42.7	-47.0	11.4	1.10e-03	0	62	0	623902720	56	6105
2026-01-19 22:28:17.01	99.06	26.63	-42.7	-46.9	11.5	9.49e-04	0	62	0	624951296	56	6043
2026-01-19 22:28:18.02	99.37	26.61	-42.6	-46.7	11.7	6.39e-04	0	62	0	627048448	56	5919
2026-01-19 22:28:19.03	99.68	26.59	-42.6	-46.8	11.6	6.37e-04	0	62	0	629145600	56	5983
2026-01-19 22:28:20.04	99.99	26.57	-42.6	-46.8	11.7	6.32e-04	0	62	0	631242752	56	5953
2026-01-19 22:28:21.04	100.29	26.54	-42.6	-46.8	11.6	6.51e-04	0	62	0	633339904	56	5969
2026-01-19 22:28:22.05	100.60	26.52	-42.7	-46.9	11.5	7.11e-04	0	62	0	634388480	56	6061
2026-01-19 22:28:23.06	100.91	26.49	-42.7	-47.1	11.4	8.77e-04	0	62	0	636485632	56	6140
2026-01-19 22:28:24.07	101.21	26.46	-42.8	-47.2	11.3	1.10e-03	0	62	0	638582784	56	6210
2026-01-19 22:28:25.08	101.52	26.44	-42.7	-47.0	11.5	1.16e-03	0	62	0	640679936	56	6074
2026-01-19 22:28:26.09	101.83	26.41	-42.7	-47.0	11.5	8.96e-04	0	62	0	642777088	56	6100
2026-01-19 22:28:27.10	102.13	26.38	-42.7	-47.0	11.4	9.77e-04	0	62	0	643825664	56	6117
2026-01-19 22:28:28.11	102.44	26.35	-42.7	-47.0	11.5	9.99e-04	0	62	0	645922816	56	6100
2026-01-19 22:28:29.12	102.74	26.32	-42.6	-46.9	11.6	7.57e-04	0	62	0	648019968	56	5996
2026-01-19 22:28:30.13	103.04	26.28	-42.6	-46.7	11.8	5.51e-04	0	62	0	650117120	56	5884
2026-01-19 22:28:31.14	103.35	26.25	-42.5	-46.5	12.0	4.42e-04	0	62	0	652214272	56	5785
2026-01-19 22:28:32.15	103.65	26.22	-42.5	-46.5	12.0	3.09e-04	0	62	0	653262848	56	5765
2026-01-19 22:28:33.16	103.95	26.18	-42.5	-46.6	11.9	3.68e-04	0	62	0	655360000	56	5833
2026-01-19 22:28:34.17	104.25	26.15	-42.5	-46.6	11.9	4.78e-04	0	62	0	657457152	56	5833
2026-01-19 22:28:35.18	104.55	26.11	-42.5	-46.5	12.0	3.69e-04	0	62	0	659554304	56	5747
2026-01-19 22:28:36.19	104.85	26.07	-42.3	-46.1	12.4	2.14e-04	0	62	0	661651456	56	5505
2026-01-19 22:28:37.20	105.15	26.04	-42.2	-45.9	12.7	1.05e-04	0	62	0	662700032	56	5354
2026-01-19 22:28:38.21	105.45	26.00	-42.1	-45.8	12.7	8.23e-05	0	62	0	664797184	56	5336
2026-01-19 22:28:39.22	105.75	25.96	-42.1	-45.8	12.7	7.01e-05	0	62	0	666894336	56	5313
2026-01-19 22:28:40.23	106.04	25.92	-42.1	-45.9	12.7	6.94e-05	0	62	0	668991488	56	5352
2026-01-19 22:28:41.24	106.34	25.88	-42.1	-45.7	12.8	8.01e-05	0	62	0	671088640	56	5278
2026-01-19 22:28:42.25	106.64	25.84	-42.1	-45.8	12.7	5.95e-05	0	62	0	672137216	56	5297
2026-01-19 22:28:43.26	106.93	25.80	-41.8	-45.4	13.0	5.95e-05	0	62	0	674234368	55	5360
2026-01-19 22:28:44.27	107.22	25.75	-41.8	-45.3	13.1	2.89e-05	0	62	0	676331520	55	5298
2026-01-19 22:28:45.27	107.52	25.71	-41.8	-45.4	12.9	2.97e-05	0	62	0	678428672	55	5389
2026-01-19 22:28:46.28	107.81	25.67	-41.8	-45.4	13.0	3.81e-05	0	62	0	680525824	55	5357
2026-01-19 22:28:47.29	108.10	25.62	-41.9	-45.5	12.8	4.73e-05	0	62	0	681574400	55	5446
2026-01-19 22:28:48.30	108.39	25.58	-41.9	-45.6	12.8	6.63e-05	0	62	0	683671552	55	5495
2026-01-19 22:28:49.31	108.68	25.53	-41.9	-45.6	12.7	7.24e-05	0	62	0	685768704	55	5495
2026-01-19 22:28:50.32	108.97	25.48	-41.8	-45.3	13.1	4.19e-05	0	62	0	687865856	55	5317
2026-01-19 22:28:51.33	109.26	25.44	-41.8	-45.3	13.1	2.59e-05	0	62	0	689963008	55	5282
2026-01-19 22:28:52.34	109.54	25.39	-41.6	-45.1	13.3	2.74e-05	0	62	0	692060160	55	5160
2026-01-19 22:28:53.35	109.83	25.34	-41.7	-45.1	13.3	1.52e-05	0	62	0	693108736	55	5187
2026-01-19 22:28:54.36	110.12	25.29	-41.9	-45.4	12.9	4.42e-05	0	62	0	695205888	55	5396
2026-01-19 22:28:55.37	110.40	25.24	-42.0	-45.8	12.5	5.95e-05	0	62	0	697303040	55	5621
2026-01-19 22:28:56.38	110.69	25.19	-42.1	-45.9	12.5	1.26e-04	0	62	0	699400192	55	5671
2026-01-19 22:28:57.39	110.97	25.14	-42.0	-45.8	12.6	1.01e-04	0	62	0	701497344	55	5618
2026-01-19 22:28:58.40	111.25	25.09	-42.0	-45.8	12.6	8.77e-05	0	62	0	702545920	55	5621
2026-01-19 22:28:59.41	111.53	25.03	-42.0	-45.7	12.7	1.04e-04	0	62	0	704643072	55	5552
2026-01-19 22:29:00.42	111.81	24.98	-41.8	-45.4	13.0	5.41e-05	0	62	0	706740224	55	5344
2026-01-19 22:29:01.43	112.09	24.93	-41.7	-45.2	13.1	4.88e-05	0	62	0	708837376	55	5273
2026-01-19 22:29:02.44	112.37	24.87	-41.7	-45.1	13.2	2.59e-05	0	62	0	710934528	55	5186
2026-01-19 22:29:03.45	112.65	24.82	-41.7	-45.2	13.2	2.67e-05	0	62	0	711983104	55	5231
2026-01-19 22:29:04.46	112.93	24.76	-41.8	-45.4	13.0	1.98e-05	0	62	0	714080256	55	5349
2026-01-19 22:29:05.47	113.20	24.70	-41.9	-45.6	12.8	4.34e-05	0	62	0	716177408	55	5474
2026-01-19 22:29:06.48	113.48	24.65	-42.0	-45.7	12.6	6.63e-05	0	62	0	718274560	55	5559
2026-01-19 22:29:07.48	113.75	24.59	-42.1	-46.0	12.4	1.20e-04	0	62	0	720371712	55	5738
2026-01-19 22:29:08.49	114.02	24.53	-42.2	-46.1	12.2	1.74e-04	0	62	0	721420288	55	5850
2026-01-19 22:29:09.50	114.29	24.47	-42.3	-46.3	12.0	2.77e-04	0	62	0	723517440	55	5986
2026-01-19 22:29:10.51	114.56	24.42	-42.3	-46.4	11.9	4.20e-04	0	62	0	725614592	55	6039
2026-01-19 22:29:11.52	114.83	24.36	-42.3	-46.4	11.9	4.29e-04	0	62	0	727711744	55	6047
2026-01-19 22:29:12.53	115.10	24.30	-42.3	-46.3	12.0	3.50e-04	0	62	0	729808896	55	5957
2026-01-19 22:29:13.54	115.37	24.24	-42.2	-46.1	12.2	2.78e-04	0	62	0	730857472	55	5844
2026-01-19 22:29:14.55	115.63	24.17	-42.1	-45.9	12.4	1.94e-04	0	62	0	732954624	55	5676
2026-01-19 22:29:15.56	115.90	24.11	-42.0	-45.7	12.6	1.32e-04	0	62	0	735051776	55	5591
2026-01-19 22:29:16.57	116.17	24.05	-42.0	-45.8	12.5	1.17e-04	0	62	0	737148928	55	5641
2026-01-19 22:29:17.58	116.43	23.99	-42.1	-46.0	12.3	1.50e-04	0	62	0	739246080	55	5734
2026-01-19 22:29:18.59	116.69	23.93	-42.2	-46.1	12.2	1.98e-04	0	62	0	740294656	55	5830
2026-01-19 22:29:19.60	116.95	23.86	-42.2	-46.1	12.2	2.59e-04	0	62	0	742391808	55	5854
2026-01-19 22:29:20.61	117.21	23.80	-42.2	-46.3	12.0	2.62e-04	0	62	0	744488960	55	5937
2026-01-19 22:29:21.62	117.47	23.73	-42.3	-46.3	12.0	3.02e-04	0	62	0	746586112	55	5946
2026-01-19 22:29:22.63	117.73	23.67	-42.3	-46.4	11.9	3.86e-04	0	62	0	748683264	55	6042
2026-01-19 22:29:23.64	117.99	23.60	-42.3	-46.5	11.8	4.61e-04	0	62	0	749731840	55	6091
2026-01-19 22:29:24.65	118.25	23.54	-42.4	-46.5	11.8	5.33e-04	0	62	0	751828992	55	6088
2026-01-19 22:29:25.66	118.50	23.47	-42.3	-46.3	12.0	3.97e-04	0	62	0	753926144	55	5962
2026-01-19 22:29:26.67	118.76	23.41	-42.1	-46.0	12.3	2.33e-04	0	62	0	756023296	55	5745
2026-01-19 22:29:27.68	119.01	23.34	-42.0	-45.8	12.6	1.11e-04	0	62	0	758120448	55	5620
2026-01-19 22:29:28.69	119.26	23.27	-42.0	-45.7	12.6	1.03e-04	0	62	0	760217600	55	5552
2026-01-19 22:29:29.69	119.51	23.20	-42.0	-45.7	12.6	8.46e-05	0	62	0	761266176	55	5573
2026-01-19 22:29:30.70	119.76	23.14	-42.0	-45.7	12.6	7.55e-05	0	62	0	763363328	55	5560
2026-01-19 22:29:31.71	120.01	23.07	-42.0	-45.8	12.5	9.23e-05	0	62	0	765460480	55	5609
2026-01-19 22:29:32.72	120.26	23.00	-42.0	-45.9	12.4	1.37e-04	0	62	0	767557632	55	5661
2026-01-19 22:29:33.73	120.50	22.93	-42.0	-45.9	12.4	1.58e-04	0	62	0	769654784	55	5663
2026-01-19 22:29:34.74	120.75	22.86	-42.1	-46.0	12.3	1.38e-04	0	62	0	770703360	55	5744
2026-01-19 22:29:35.75	121.00	22.79	-42.1	-46.0	12.4	1.72e-04	0	62	0	772800512	55	5725
2026-01-19 22:29:36.76	121.24	22.72	-42.1	-46.1	12.2	2.39e-04	0	62	0	774897664	55	5808
2026-01-19 22:29:37.77	121.48	22.65	-42.2	-46.2	12.1	2.12e-04	0	62	0	776994816	55	5887
2026-01-19 22:29:38.78	121.72	22.58	-42.2	-46.2	12.1	2.80e-04	0	62	0	779091968	55	5903
2026-01-19 22:29:39.79	121.96	22.51	-42.2	-46.2	12.0	2.95e-04	0	62	0	780140544	55	5920
2026-01-19 22:29:40.80	122.20	22.44	-42.2	-46.1	12.1	3.33e-04	0	62	0	782237696	55	5840
2026-01-19 22:29:41.81	122.44	22.37	-42.1	-46.1	12.2	2.01e-04	0	62	0	784334848	55	5798
2026-01-19 22:29:42.82	122.68	22.29	-42.1	-45.9	12.4	1.85e-04	0	62	0	786432000	55	5699
2026-01-19 22:29:43.83	122.92	22.22	-42.0	-45.8	12.5	1.21e-04	0	62	0	788529152	55	5595
2026-01-19 22:29:44.84	123.15	22.15	-42.0	-45.9	12.4	1.24e-04	0	62	0	789577728	55	5677
2026-01-19 22:29:45.85	123.38	22.08	-42.1	-46.1	12.2	2.14e-04	0	62	0	791674880	55	5801
2026-01-19 22:29:46.85	123.62	22.00	-42.1	-45.9	12.3	1.98e-04	0	62	0	793772032	55	5717
2026-01-19 22:29:47.86	123.85	21.93	-42.1	-46.1	12.2	2.04e-04	0	62	0	795869184	55	5809
2026-01-19 22:29:48.87	124.08	21.86	-42.1	-45.9	12.4	1.94e-04	0	62	0	797966336	55	5697
2026-01-19 22:29:49.88	124.31	21.78	-42.1	-45.9	12.3	1.79e-04	0	62	0	799014912	55	5722
2026-01-19 22:29:50.89	124.54	21.71	-42.1	-46.0	12.3	1.39e-04	0	62	0	801112064	55	5755
2026-01-19 22:29:51.91	124.77	21.63	-42.3	-46.4	11.9	2.94e-04	0	62	0	803209216	55	6008
2026-01-19 22:29:52.92	124.99	21.56	-42.5	-46.8	11.4	7.80e-04	0	62	0	805306368	55	6313
2026-01-19 22:29:53.93	125.22	21.48	-42.7	-47.4	10.8	1.43e-03	0	62	0	807403520	55	6734
2026-01-19 22:29:54.94	125.44	21.41	-43.0	-48.0	10.3	4.29e-03	0	62	0	808452096	56	6804
2026-01-19 22:29:55.95	125.67	21.33	-43.0	-47.9	10.5	4.54e-03	0	62	0	810549248	56	6750
2026-01-19 22:29:56.95	125.89	21.26	-43.0	-47.9	10.4	4.37e-03	0	62	0	812646400	56	6786
2026-01-19 22:29:57.96	126.11	21.18	-43.0	-47.9	10.4	4.56e-03	0	62	0	814743552	56	6761
2026-01-19 22:29:58.97	126.33	21.11	-42.9	-47.7	10.6	3.74e-03	0	62	0	816840704	56	6618
2026-01-19 22:29:59.98	126.55	21.03	-42.9	-47.6	10.8	3.42e-03	0	62	0	817889280	56	6521
2026-01-19 22:30:00.99	126.77	20.95	-42.8	-47.5	10.8	2.66e-03	0	62	0	819986432	56	6476
2026-01-19 22:30:02.00	126.98	20.88	-43.0	-47.8	10.5	3.99e-03	0	62	0	822083584	56	6689
2026-01-19 22:30:03.01	127.20	20.80	-43.0	-48.1	10.2	5.49e-03	0	62	0	824180736	56	6884
2026-01-19 22:30:04.02	127.41	20.73	-42.9	-47.7	10.6	4.81e-03	0	62	0	826277888	56	6644
2026-01-19 22:30:05.03	127.63	20.65	-42.7	-47.3	11.0	2.15e-03	0	62	0	828375040	56	6298
2026-01-19 22:30:06.04	127.84	20.57	-42.6	-46.9	11.5	1.11e-03	0	62	0	829423616	56	6031
2026-01-19 22:30:07.05	128.05	20.49	-42.5	-46.7	11.7	7.74e-04	0	62	0	831520768	56	5863
2026-01-19 22:30:08.06	128.26	20.42	-42.5	-46.7	11.7	5.26e-04	0	62	0	833617920	56	5873
2026-01-19 22:30:09.07	128.47	20.34	-42.6	-46.9	11.5	5.71e-04	0	62	0	835715072	56	6021
2026-01-19 22:30:10.08	128.68	20.26	-42.7	-47.1	11.2	9.41e-04	0	62	0	837812224	56	6189
2026-01-19 22:30:11.08	128.89	20.18	-42.7	-47.3	11.1	1.71e-03	0	62	0	838860800	56	6282
2026-01-19 22:30:12.09	129.10	20.11	-42.7	-47.2	11.1	1.86e-03	0	62	0	840957952	56	6265
2026-01-19 22:30:13.10	129.30	20.03	-42.6	-46.9	11.5	1.22e-03	0	62	0	843055104	56	6007
2026-01-19 22:30:14.11	129.51	19.95	-42.4	-46.5	11.8	7.35e-04	0	62	0	845152256	56	5762
2026-01-19 22:30:15.12	129.71	19.87	-42.2	-46.1	12.2	2.79e-04	0	62	0	847249408	56	5503
2026-01-19 22:30:16.13	129.91	19.79	-42.1	-46.0	12.4	1.88e-04	0	62	0	848297984	56	5431
2026-01-19 22:30:17.14	130.11	19.71	-42.3	-46.3	12.0	2.31e-04	0	62	0	850395136	56	5623
2026-01-19 22:30:18.15	130.31	19.64	-42.3	-46.5	11.6	4.92e-04	0	62	0	852492288	55	6090
2026-01-19 22:30:19.16	130.51	19.56	-42.5	-47.0	11.1	1.07e-03	0	62	0	854589440	55	6474
2026-01-19 22:30:20.17	130.71	19.48	-42.7	-47.4	10.3	6.12e-03	0	62	0	856686592	55	6780
2026-01-19 22:30:21.17	130.91	19.40	-42.6	-47.3	10.8	2.91e-03	0	62	0	857735168	55	6647
2026-01-19 22:30:22.18	131.11	19.32	-42.5	-47.0	11.1	2.04e-03	0	62	0	859832320	55	6452
2026-01-19 22:30:23.19	131.30	19.24	-42.3	-46.7	11.4	1.37e-03	0	62	0	861929472	55	6208
2026-01-19 22:30:24.20	131.50	19.16	-42.2	-46.3	11.8	5.83e-04	0	62	0	864026624	55	5975
2026-01-19 22:30:25.21	131.69	19.08	-42.2	-46.3	11.8	6.35e-04	0	62	0	866123776	54	6333
2026-01-19 22:30:26.22	131.88	19.00	-42.3	-46.6	11.6	4.95e-03	0	62	0	867172352	55	6142
2026-01-19 22:30:27.23	132.07	18.93	-42.3	-46.6	11.5	1.03e-03	0	62	0	869269504	55	6133
2026-01-19 22:30:28.24	132.26	18.85	-42.5	-47.0	11.1	1.66e-03	0	62	0	871366656	55	6427
2026-01-19 22:30:29.25	132.45	18.77	-42.6	-47.3	10.7	2.79e-03	0	62	0	873463808	55	6683
2026-01-19 22:30:30.26	132.64	18.69	-42.6	-47.4	10.6	1.09e-01	0	62	0	875560960	55	6747
2026-01-19 22:30:31.26	132.83	18.61	-42.6	-47.3	10.7	4.47e-03	0	62	0	876609536	55	6684
2026-01-19 22:30:32.27	133.02	18.53	-42.5	-47.1	11.0	4.41e-03	0	62	0	878706688	55	6499
2026-01-19 22:30:33.28	133.20	18.45	-40.9	-46.6	11.1	1.22e-02	0	62	0	880803840	54	6504
2026-01-19 22:30:34.29	133.39	18.37	-42.2	-46.4	11.6	4.21e-02	0	62	0	882900992	54	6399
2026-01-19 22:30:35.30	133.57	18.29	-42.1	-46.2	11.7	3.20e-02	0	62	0	884998144	54	6271
2026-01-19 22:30:36.31	133.76	18.21	-42.1	-46.4	11.6	1.07e-03	0	62	0	886046720	54	6382
2026-01-19 22:30:37.32	133.94	18.13	-42.2	-46.5	11.5	4.51e-03	0	62	0	888143872	55	6108
2026-01-19 22:30:38.33	134.12	18.05	-42.2	-46.5	11.5	1.55e-03	0	62	0	890241024	55	6113
2026-01-19 22:30:39.34	134.30	17.97	-42.2	-46.5	11.5	1.44e-03	0	62	0	892338176	55	6098
2026-01-19 22:30:40.35	134.48	17.89	-42.2	-46.5	11.5	1.70e-03	0	62	0	894435328	55	6068
2026-01-19 22:30:41.36	134.66	17.81	-42.2	-46.4	11.6	2.07e-03	0	62	0	895483904	55	6015
2026-01-19 22:30:42.36	134.83	17.73	-42.1	-46.2	11.8	5.23e-02	0	62	0	897581056	54	6219
2026-01-19 22:30:43.38	135.01	17.65	-42.0	-45.9	12.0	8.26e-04	0	62	0	899678208	54	6005
2026-01-19 22:30:44.39	135.19	17.57	-42.0	-46.1	11.9	1.72e-03	0	62	0	901775360	54	6152
2026-01-19 22:30:45.40	135.36	17.49	-41.8	-46.1	11.8	1.37e-03	0	62	0	903872512	54	6200
2026-01-19 22:30:46.41	135.54	17.41	-42.0	-46.3	11.6	9.17e-04	0	62	0	904921088	54	6332
2026-01-19 22:30:47.41	135.71	17.33	-42.1	-46.6	11.4	1.21e-03	0	62	0	907018240	54	6501
2026-01-19 22:30:48.42	135.88	17.25	-42.3	-46.7	11.3	1.85e-03	0	62	0	909115392	55	6213
2026-01-19 22:30:49.43	136.05	17.17	-42.3	-46.7	10.4	1.46e-03	0	62	0	911212544	54	6603
2026-01-19 22:30:50.44	136.22	17.09	-42.2	-46.6	11.4	1.50e-03	0	62	0	913309696	55	6171
2026-01-19 22:30:51.45	136.39	17.01	-41.6	-46.4	10.2	1.67e-03	0	62	0	914358272	54	6380
2026-01-19 22:30:52.46	136.56	16.93	-42.0	-46.1	11.8	1.85e-03	0	62	0	916455424	54	6187
2026-01-19 22:30:53.47	136.73	16.85	-41.9	-46.0	12.0	3.97e-02	0	62	0	918552576	54	6094
2026-01-19 22:30:54.48	136.90	16.78	-41.9	-45.9	12.0	1.45e-02	0	62	0	920649728	54	6055
2026-01-19 22:30:55.49	137.06	16.70	-41.9	-45.8	12.1	4.55e-03	0	62	0	922746880	54	5985
2026-01-19 22:30:56.50	137.23	16.62	-41.9	-46.0	12.0	3.93e-04	0	62	0	924844032	54	6081
2026-01-19 22:30:57.51	137.39	16.54	-42.0	-46.1	11.9	6.48e-04	0	62	0	925892608	54	6153
2026-01-19 22:30:58.52	137.56	16.46	-42.0	-46.2	11.8	2.80e-03	0	62	0	927989760	54	6206
2026-01-19 22:30:59.52	137.72	16.38	-42.0	-46.2	11.8	4.97e-04	0	62	0	930086912	54	6227
2026-01-19 22:31:00.53	137.88	16.30	-42.0	-46.2	11.8	5.61e-04	0	62	0	932184064	54	6238
2026-01-19 22:31:01.54	138.04	16.22	-41.9	-46.1	11.7	1.16e-03	0	62	0	934281216	54	6159
2026-01-19 22:31:02.55	138.20	16.14	-42.0	-46.2	11.8	1.33e-03	0	62	0	935329792	54	6203
2026-01-19 22:31:03.56	138.36	16.06	-41.9	-46.0	12.0	3.94e-04	0	62	0	937426944	54	6083
2026-01-19 22:31:04.57	138.52	15.98	-41.9	-45.9	12.0	3.29e-04	0	62	0	939524096	54	6028
2026-01-19 22:31:05.58	138.68	15.90	-41.9	-45.9	12.1	3.58e-04	0	62	0	941621248	54	6018
2026-01-19 22:31:06.59	138.83	15.82	-41.9	-45.9	12.0	3.29e-04	0	62	0	943718400	54	6055
2026-01-19 22:31:07.60	138.99	15.74	-41.9	-45.9	12.0	3.42e-04	0	62	0	944766976	54	6059
2026-01-19 22:31:08.61	139.14	15.67	-41.8	-45.7	12.2	2.92e-04	0	62	0	946864128	54	5886
2026-01-19 22:31:09.62	139.30	15.59	-41.9	-45.9	12.1	2.85e-04	0	62	0	948961280	54	6012
2026-01-19 22:31:10.63	139.45	15.51	-41.9	-46.0	12.0	2.90e-04	0	62	0	951058432	54	6086
2026-01-19 22:31:11.64	139.61	15.43	-41.9	-46.0	11.9	3.64e-04	0	62	0	953155584	54	6079
2026-01-19 22:31:12.65	139.76	15.35	-42.0	-46.2	11.7	5.07e-04	0	62	0	954204160	54	6237
2026-01-19 22:31:13.66	139.91	15.27	-42.1	-46.3	11.6	6.40e-04	0	62	0	956301312	54	6298
2026-01-19 22:31:14.66	140.06	15.19	-42.1	-46.4	11.5	8.21e-04	0	62	0	958398464	54	6386
2026-01-19 22:31:15.67	140.21	15.11	-42.2	-46.6	11.2	9.63e-04	0	62	0	960495616	54	6541
2026-01-19 22:31:16.68	140.36	15.04	-42.2	-46.6	11.2	1.30e-03	0	62	0	962592768	54	6568
2026-01-19 22:31:17.69	140.51	14.96	-42.2	-46.7	11.1	1.37e-03	0	62	0	963641344	55	6252
2026-01-19 22:31:18.70	140.66	14.88	-42.3	-46.8	11.0	1.69e-03	0	62	0	965738496	55	6319
2026-01-19 22:31:19.71	140.80	14.80	-42.2	-46.7	11.1	1.88e-03	0	62	0	967835648	55	6264
2026-01-19 22:31:20.72	140.95	14.72	-42.2	-46.6	11.2	1.40e-03	0	62	0	969932800	55	6170
2026-01-19 22:31:21.73	141.09	14.64	-42.2	-46.6	11.2	1.35e-03	0	62	0	972029952	55	6182
2026-01-19 22:31:22.74	141.24	14.57	-42.2	-46.6	11.2	1.45e-03	0	62	0	973078528	55	6184
2026-01-19 22:31:23.75	141.38	14.49	-42.1	-46.5	11.2	1.76e-03	0	62	0	975175680	54	6480
2026-01-19 22:31:24.76	141.53	14.41	-42.1	-46.5	11.3	1.72e-03	0	62	0	977272832	54	6450
2026-01-19 22:31:25.77	141.67	14.33	-42.1	-46.5	11.3	1.58e-03	0	62	0	979369984	54	6444
2026-01-19 22:31:26.77	141.81	14.26	-42.0	-46.5	11.3	1.12e-03	0	62	0	981467136	54	6461
2026-01-19 22:31:27.78	141.95	14.18	-42.1	-46.6	11.2	1.58e-03	0	62	0	982515712	54	6497
2026-01-19 22:31:28.79	142.09	14.10	-42.0	-46.4	11.4	1.24e-03	0	62	0	984612864	54	6359
2026-01-19 22:31:29.80	142.23	14.02	-42.0	-46.4	11.3	9.33e-04	0	62	0	986710016	54	6363
2026-01-19 22:31:30.81	142.37	13.95	-42.1	-46.5	11.3	2.88e-03	0	62	0	988807168	54	6426
2026-01-19 22:31:31.82	142.51	13.87	-42.0	-46.3	11.4	1.14e-03	0	62	0	990904320	54	6339
2026-01-19 22:31:32.84	142.65	13.79	-42.0	-46.5	11.3	1.80e-03	0	62	0	993001472	54	6431
2026-01-19 22:31:33.85	142.78	13.71	-42.1	-46.5	11.3	1.21e-03	0	62	0	994050048	54	6431
2026-01-19 22:31:34.85	142.92	13.64	-42.1	-46.5	11.3	1.31e-03	0	62	0	996147200	54	6464
2026-01-19 22:31:35.86	143.05	13.56	-42.2	-46.8	10.9	2.04e-03	0	62	0	998244352	55	6306
2026-01-19 22:31:36.87	143.19	13.48	-42.3	-46.9	10.8	2.29e-03	0	62	0	1000341504	55	6392
2026-01-19 22:31:37.88	143.32	13.41	-42.3	-47.1	10.5	3.33e-03	0	62	0	1002438656	55	6554
2026-01-19 22:31:38.89	143.46	13.33	-42.4	-47.3	10.3	4.77e-03	0	62	0	1003487232	55	6692
2026-01-19 22:31:39.90	143.59	13.25	-42.4	-47.4	10.2	5.31e-03	0	62	0	1005584384	55	6773
2026-01-19 22:31:40.91	143.72	13.18	-42.5	-47.6	10.0	6.58e-03	0	62	0	1007681536	55	6945
2026-01-19 22:31:41.92	143.85	13.10	-42.5	-47.6	10.0	8.65e-03	0	62	0	1009778688	55	6934
2026-01-19 22:31:42.93	143.98	13.03	-42.5	-47.6	10.0	7.61e-03	0	62	0	1011875840	55	6917
2026-01-19 22:31:43.94	144.11	12.95	-42.6	-47.8	9.8	9.79e-03	0	62	0	1012924416	55	7067
2026-01-19 22:31:44.94	144.24	12.87	-42.5	-47.8	9.8	9.41e-03	0	62	0	1015021568	55	7072
2026-01-19 22:31:45.95	144.37	12.80	-42.4	-47.6	9.9	8.47e-03	0	62	0	1017118720	55	6925
2026-01-19 22:31:46.96	144.50	12.72	-42.5	-47.6	10.0	8.65e-03	0	62	0	1019215872	55	6951
2026-01-19 22:31:47.97	144.63	12.65	-42.5	-47.6	10.0	8.04e-03	0	62	0	1021313024	55	6951
2026-01-19 22:31:48.99	144.76	12.57	-42.4	-47.6	9.8	8.12e-03	0	62	0	1022361600	55	6944
2026-01-19 22:31:50.00	144.88	12.50	-42.4	-47.5	10.1	8.04e-03	0	62	0	1024458752	55	6814
2026-01-19 22:31:51.00	145.01	12.42	-42.4	-47.5	10.0	7.41e-03	0	62	0	1026555904	55	6870
2026-01-19 22:31:52.02	145.13	12.35	-42.5	-47.8	9.8	9.13e-03	0	62	0	1028653056	55	7061
2026-01-19 22:31:53.02	145.26	12.27	-42.5	-47.8	9.8	9.99e-03	0	62	0	1030750208	55	7086
2026-01-19 22:31:54.03	145.38	12.20	-42.6	-47.9	9.7	1.00e-02	0	62	0	1031798784	55	7172
2026-01-19 22:31:55.04	145.50	12.12	-42.6	-47.9	9.6	1.30e-02	0	62	0	1033895936	55	7142
2026-01-19 22:31:56.05	145.63	12.05	-42.6	-48.0	9.6	1.28e-02	0	62	0	1035993088	55	7205
2026-01-19 22:31:57.06	145.75	11.97	-42.7	-48.2	9.4	1.53e-02	0	62	0	1038090240	55	7405
2026-01-19 22:31:58.07	145.87	11.90	-42.6	-48.1	9.4	1.72e-02	0	62	0	1040187392	55	7292
2026-01-19 22:31:59.08	145.99	11.82	-42.6	-48.1	9.4	1.65e-02	0	62	0	1041235968	55	7363
2026-01-19 22:32:00.09	146.11	11.75	-42.6	-48.1	9.4	1.77e-02	0	62	0	1043333120	55	7324
2026-01-19 22:32:01.10	146.23	11.67	-42.6	-48.1	9.4	1.50e-02	0	62	0	1045430272	55	7315
2026-01-19 22:32:02.11	146.35	11.60	-42.5	-47.9	9.6	1.32e-02	0	62	0	1047527424	55	7148
2026-01-19 22:32:03.12	146.47	11.53	-42.4	-47.8	9.5	1.39e-02	0	62	0	1049624576	55	7103
2026-01-19 22:32:04.13	146.59	11.45	-42.5	-47.7	9.7	1.13e-02	0	62	0	1050673152	55	7013
2026-01-19 22:32:05.13	146.70	11.38	-42.5	-47.9	9.6	1.32e-02	0	62	0	1052770304	55	7127
2026-01-19 22:32:06.14	146.82	11.31	-42.5	-47.7	9.7	1.17e-02	0	62	0	1054867456	55	7024
2026-01-19 22:32:07.15	146.94	11.23	-42.5	-47.7	9.7	1.10e-02	0	62	0	1056964608	55	7038
2026-01-19 22:32:08.16	147.05	11.16	-42.1	-47.8	9.4	1.21e-02	0	62	0	1059061760	55	7105
2026-01-19 22:32:09.17	147.17	11.09	-42.4	-47.9	9.4	1.27e-02	0	62	0	1061158912	55	7177
2026-01-19 22:32:10.18	147.28	11.01	-42.5	-48.0	9.4	1.43e-02	0	62	0	1062207488	55	7241
2026-01-19 22:32:11.19	147.40	10.94	-42.5	-48.0	9.4	1.59e-02	0	62	0	1064304640	55	7217
2026-01-19 22:32:12.20	147.51	10.87	-42.5	-47.9	9.5	1.55e-02	0	62	0	1066401792	55	7158
2026-01-19 22:32:13.21	147.62	10.79	-42.5	-48.1	9.3	1.63e-02	0	62	0	1068498944	55	7306
2026-01-19 22:32:14.22	147.73	10.72	-42.4	-47.8	9.6	1.56e-02	0	62	0	1070596096	55	7105
2026-01-19 22:32:15.23	147.85	10.65	-42.4	-47.9	9.5	1.43e-02	0	62	0	1071644672	55	7153
2026-01-19 22:32:16.24	147.96	10.58	-42.4	-47.7	9.7	1.31e-02	0	62	0	1073741824	55	6983
2026-01-19 22:32:17.25	148.07	10.50	-42.3	-47.5	9.9	9.91e-03	0	62	0	1075838976	55	6825
2026-01-19 22:32:18.26	148.18	10.43	-42.3	-47.4	9.9	9.21e-03	0	62	0	1077936128	55	6781
2026-01-19 22:32:19.27	148.29	10.36	-42.2	-47.2	10.2	7.53e-03	0	62	0	1080033280	55	6589
2026-01-19 22:32:20.27	148.40	10.29	-42.1	-47.1	10.2	6.00e-03	0	62	0	1081081856	55	6552
2026-01-19 22:32:21.28	148.51	10.22	-42.1	-47.0	10.3	5.38e-03	0	62	0	1083179008	55	6480
2026-01-19 22:32:22.29	148.61	10.15	-42.0	-46.9	10.4	4.83e-03	0	62	0	1085276160	55	6397
2026-01-19 22:32:23.30	148.72	10.07	-42.1	-47.0	10.3	4.70e-03	0	62	0	1087373312	55	6430
2026-01-19 22:32:24.31	148.83	10.00	-42.0	-46.8	10.4	4.26e-03	0	62	0	1089470464	55	6311
2026-01-19 22:32:25.33	148.94	9.93	-42.0	-46.7	10.6	3.60e-03	0	62	0	1090519040	55	6234
2026-01-19 22:32:26.33	149.04	9.86	-42.0	-46.8	10.4	4.19e-03	0	62	0	1092616192	55	6335
2026-01-19 22:32:27.35	149.15	9.79	-41.9	-46.7	10.5	4.11e-03	0	62	0	1094713344	55	6256
2026-01-19 22:32:28.35	149.25	9.72	-42.0	-46.9	10.3	5.18e-03	0	62	0	1096810496	55	6397
2026-01-19 22:32:29.36	149.36	9.65	-42.1	-47.1	10.1	5.96e-03	0	62	0	1098907648	55	6510
2026-01-19 22:32:30.37	149.46	9.58	-42.1	-47.3	9.9	7.18e-03	0	62	0	1099956224	55	6665
2026-01-19 22:32:31.38	149.57	9.51	-42.1	-47.3	9.8	8.92e-03	0	62	0	1102053376	55	6697
2026-01-19 22:32:32.39	149.67	9.43	-42.1	-47.3	9.8	1.02e-02	0	62	0	1104150528	55	6723
2026-01-19 22:32:33.40	149.77	9.36	-42.2	-47.5	9.7	1.12e-02	0	62	0	1106247680	55	6817
2026-01-19 22:32:34.41	149.87	9.29	-42.2	-47.6	9.5	1.31e-02	0	62	0	1108344832	55	6936
2026-01-19 22:32:35.42	149.98	9.22	-42.1	-47.4	9.7	1.41e-02	0	62	0	1109393408	55	6742
2026-01-19 22:32:36.43	150.08	9.15	-42.2	-47.6	9.5	1.33e-02	0	62	0	1111490560	55	6921
2026-01-19 22:32:37.44	150.18	9.08	-42.2	-47.6	9.5	1.35e-02	0	62	0	1113587712	55	6912
2026-01-19 22:32:38.45	150.28	9.01	-42.1	-47.5	9.6	1.32e-02	0	62	0	1115684864	55	6861
2026-01-19 22:32:39.46	150.38	8.94	-42.1	-47.5	9.5	1.31e-02	0	62	0	1117782016	55	6865
2026-01-19 22:32:40.47	150.48	8.87	-42.1	-47.5	9.6	1.35e-02	0	62	0	1118830592	55	6808
2026-01-19 22:32:41.48	150.58	8.81	-42.1	-47.4	9.6	1.23e-02	0	62	0	1120927744	55	6747
2026-01-19 22:32:42.48	150.68	8.74	-42.1	-47.5	9.5	1.53e-02	0	62	0	1123024896	55	6873
2026-01-19 22:32:43.49	150.77	8.67	-42.1	-47.3	9.7	1.34e-02	0	62	0	1125122048	55	6723
2026-01-19 22:32:44.50	150.87	8.60	-42.1	-47.5	9.5	1.30e-02	0	62	0	1127219200	55	6809
2026-01-19 22:32:45.51	150.97	8.53	-42.1	-47.5	9.5	1.47e-02	0	62	0	1128267776	55	6832
2026-01-19 22:32:46.52	151.07	8.46	-42.1	-47.5	9.4	1.53e-02	0	62	0	1130364928	55	6841
2026-01-19 22:32:47.53	151.16	8.39	-42.0	-47.5	9.4	1.54e-02	0	62	0	1132462080	55	6830
2026-01-19 22:32:48.54	151.26	8.32	-42.0	-47.5	9.4	1.62e-02	0	62	0	1134559232	55	6832
2026-01-19 22:32:49.55	151.35	8.25	-42.1	-47.7	9.2	1.92e-02	0	62	0	1136656384	55	6973
2026-01-19 22:32:50.56	151.45	8.19	-42.1	-47.8	9.1	2.51e-02	0	62	0	1137704960	55	7066
2026-01-19 22:32:51.57	151.54	8.12	-42.1	-47.7	9.2	1.96e-02	0	62	0	1139802112	55	7007
2026-01-19 22:32:52.58	151.64	8.05	-42.1	-47.8	9.0	2.18e-02	0	62	0	1141899264	55	7097
2026-01-19 22:32:53.59	151.73	7.98	-43.3	-52.2	6.1	2.57e-02	0	62	0	1143996416	57	10434
2026-01-19 22:32:54.60	151.82	7.91	-44.5	-58.6	3.8	1.49e+00	0	62	104	1143996416	59	19492
2026-01-19 22:32:55.61	151.92	7.85	-44.8	-59.5	3.8	1.49e+00	0	62	104	1143996416	60	20509
2026-01-19 22:32:56.62	152.01	7.78	-45.1	-59.9	3.8	1.49e+00	0	62	104	1143996416	60	21261
