passes_logs/2026/01/19/R2.0S_Moscow/R2.0S_Moscow__20260119_005756_FENGYUN_3D_rec.log

#Pass ID: 20260119_005756_FENGYUN 3D
#Satellite: FENGYUN 3D
#Configuration: FENGYUN 3D
#almurnet v.1.7.20251203
#Start time: 2026-01-19 00:57:59

#Version: 2.2.20231116
#Station: R2.0S_Moscow
#Location: 37.707566 lon 55.798166 lat
#TLE: 1 43010U 17072A   26017.96359538  .00000271  00000+0  15011-3 0  9999
#TLE: 2 43010  98.9936 349.8252 0002386 103.8840 256.2601 14.19697057423673

#Time	Az	El	Level	Level2	SNR	BER	BlckErr	Temp	State	Recorded	gain1	gain2
2026-01-19 00:57:59.07	20.76	2.13	-42.2	-54.1	3.8	8.46e-01	0	52	0	0	56	13736
2026-01-19 00:58:00.07	20.80	2.20	-42.0	-53.9	3.8	8.45e-01	0	52	104	0	55	14300
2026-01-19 00:58:01.09	20.84	2.26	-42.0	-53.9	3.8	8.46e-01	0	52	104	0	55	14267
2026-01-19 00:58:02.10	20.88	2.32	-42.0	-53.9	3.8	8.45e-01	0	53	104	0	55	14297
2026-01-19 00:58:03.11	20.92	2.38	-42.0	-53.9	3.8	8.46e-01	0	53	104	0	55	14259
2026-01-19 00:58:04.12	20.96	2.45	-42.0	-53.9	3.8	8.47e-01	0	53	104	0	55	14332
2026-01-19 00:58:05.13	21.00	2.51	-42.0	-53.9	3.8	8.46e-01	0	53	104	0	55	14272
2026-01-19 00:58:06.14	21.04	2.57	-42.0	-53.9	3.8	8.47e-01	0	53	104	0	55	14325
2026-01-19 00:58:07.15	21.09	2.63	-42.0	-53.9	3.8	8.47e-01	0	53	104	0	55	14316
2026-01-19 00:58:08.16	21.13	2.70	-42.0	-53.9	3.8	8.46e-01	0	53	104	0	55	14317
2026-01-19 00:58:09.17	21.17	2.76	-42.0	-53.9	3.8	8.46e-01	0	53	104	0	55	14307
2026-01-19 00:58:10.18	21.21	2.82	-42.0	-53.9	3.8	8.47e-01	0	53	104	0	55	14274
2026-01-19 00:58:11.19	21.25	2.89	-42.0	-53.9	3.8	8.47e-01	0	53	104	0	55	14297
2026-01-19 00:58:12.20	21.29	2.95	-42.0	-53.9	3.8	8.46e-01	0	53	104	0	55	14306
2026-01-19 00:58:13.21	21.34	3.01	-42.0	-53.9	3.8	8.47e-01	0	53	104	0	55	14276
2026-01-19 00:58:14.22	21.38	3.08	-42.0	-53.9	3.8	8.46e-01	0	54	104	0	55	14252
2026-01-19 00:58:15.24	21.42	3.14	-42.0	-53.9	3.8	8.46e-01	0	54	104	0	55	14308
2026-01-19 00:58:16.25	21.47	3.21	-42.0	-53.9	3.8	8.46e-01	0	54	104	0	55	14269
2026-01-19 00:58:17.26	21.51	3.27	-42.0	-53.9	3.8	8.46e-01	0	54	104	0	55	14258
2026-01-19 00:58:18.27	21.55	3.34	-42.0	-53.9	3.8	8.46e-01	0	54	104	0	55	14256
2026-01-19 00:58:19.28	21.60	3.40	-42.0	-53.9	3.8	8.46e-01	0	54	104	0	55	14262
2026-01-19 00:58:20.28	21.64	3.46	-42.0	-53.9	3.8	8.46e-01	0	54	104	0	55	14339
2026-01-19 00:58:21.29	21.68	3.53	-42.0	-53.9	3.8	8.46e-01	0	54	104	0	55	14280
2026-01-19 00:58:22.31	21.73	3.59	-42.0	-53.9	3.8	8.47e-01	0	54	104	0	55	14300
2026-01-19 00:58:23.32	21.77	3.66	-42.0	-53.9	3.8	8.47e-01	0	54	104	0	55	14253
2026-01-19 00:58:24.33	21.81	3.72	-42.0	-53.9	3.8	8.46e-01	0	54	104	0	55	14297
2026-01-19 00:58:25.34	21.86	3.79	-42.0	-53.9	3.8	8.47e-01	0	54	104	0	55	14273
2026-01-19 00:58:26.35	21.90	3.86	-42.0	-53.9	3.8	8.47e-01	0	54	104	0	55	14320
2026-01-19 00:58:27.36	21.95	3.92	-42.0	-53.9	3.8	8.46e-01	0	54	104	0	55	14315
2026-01-19 00:58:28.37	21.99	3.99	-42.0	-53.9	3.8	8.45e-01	0	55	104	0	55	14235
2026-01-19 00:58:29.38	22.04	4.05	-42.0	-53.9	3.8	8.45e-01	0	54	104	0	55	14370
2026-01-19 00:58:30.39	22.08	4.12	-42.0	-53.9	3.8	8.46e-01	0	55	104	0	55	14273
2026-01-19 00:58:31.40	22.13	4.19	-42.0	-53.9	3.8	8.46e-01	0	55	104	0	55	14294
2026-01-19 00:58:32.41	22.17	4.25	-42.0	-53.9	3.8	8.46e-01	0	55	104	0	55	14265
2026-01-19 00:58:33.42	22.22	4.32	-42.0	-53.9	3.8	8.46e-01	0	55	104	0	55	14297
2026-01-19 00:58:34.43	22.27	4.39	-42.0	-53.9	3.8	8.46e-01	0	55	104	0	55	14264
2026-01-19 00:58:35.44	22.31	4.45	-42.0	-53.9	3.8	8.47e-01	0	55	104	0	55	14303
2026-01-19 00:58:36.45	22.36	4.52	-42.0	-53.9	3.8	8.45e-01	0	55	104	0	55	14323
2026-01-19 00:58:37.46	22.41	4.59	-42.0	-53.9	3.8	8.48e-01	0	55	104	0	55	14303
2026-01-19 00:58:38.47	22.45	4.65	-42.0	-53.9	3.8	8.47e-01	0	55	104	0	55	14282
2026-01-19 00:58:39.48	22.50	4.72	-42.0	-53.9	3.8	8.45e-01	0	55	104	0	55	14290
2026-01-19 00:58:40.49	22.55	4.79	-42.0	-53.9	3.8	8.45e-01	0	55	104	0	55	14289
2026-01-19 00:58:41.50	22.59	4.86	-42.0	-53.9	3.8	8.46e-01	0	55	104	0	55	14286
2026-01-19 00:58:42.51	22.64	4.92	-42.0	-53.9	3.8	8.46e-01	0	55	104	0	55	14313
2026-01-19 00:58:43.52	22.69	4.99	-42.0	-53.9	3.8	8.47e-01	0	56	104	0	55	14298
2026-01-19 00:58:44.53	22.74	5.06	-42.0	-53.9	3.8	8.45e-01	0	55	104	0	55	14251
2026-01-19 00:58:45.54	22.79	5.13	-42.0	-53.9	3.8	8.47e-01	0	55	104	0	55	14294
2026-01-19 00:58:46.55	22.83	5.20	-42.0	-53.9	3.8	8.46e-01	0	56	104	0	55	14286
2026-01-19 00:58:47.56	22.88	5.27	-42.0	-53.9	3.8	8.47e-01	0	55	104	0	55	14252
2026-01-19 00:58:48.57	22.93	5.34	-42.0	-53.9	3.8	8.46e-01	0	55	104	0	55	14272
2026-01-19 00:58:49.58	22.98	5.40	-42.0	-53.9	3.8	8.47e-01	0	56	104	0	55	14233
2026-01-19 00:58:50.59	23.03	5.47	-42.0	-53.9	3.8	8.46e-01	0	56	104	0	55	14273
2026-01-19 00:58:51.60	23.08	5.54	-42.0	-53.9	3.8	8.47e-01	0	56	104	0	55	14275
2026-01-19 00:58:52.61	23.13	5.61	-42.0	-53.9	3.8	8.46e-01	0	56	104	0	55	14254
2026-01-19 00:58:53.62	23.18	5.68	-42.0	-53.9	3.8	8.46e-01	0	56	104	0	55	14275
2026-01-19 00:58:54.63	23.23	5.75	-42.0	-53.9	3.8	8.46e-01	0	56	104	0	55	14231
2026-01-19 00:58:55.64	23.28	5.82	-42.0	-53.9	3.8	8.46e-01	0	56	104	0	55	14279
2026-01-19 00:58:56.65	23.33	5.89	-42.0	-53.9	3.8	8.46e-01	0	56	104	0	55	14244
2026-01-19 00:58:57.66	23.38	5.96	-42.0	-53.9	3.8	8.45e-01	0	56	104	0	55	14276
2026-01-19 00:58:58.67	23.43	6.03	-42.0	-53.9	3.8	8.46e-01	0	56	104	0	55	14292
2026-01-19 00:58:59.68	23.48	6.10	-42.0	-53.9	3.8	8.46e-01	0	56	104	0	55	14276
2026-01-19 00:59:00.69	23.53	6.18	-42.0	-53.9	3.8	8.46e-01	0	56	104	0	55	14292
2026-01-19 00:59:01.70	23.59	6.25	-42.0	-53.9	3.8	8.46e-01	0	56	104	0	55	14266
2026-01-19 00:59:02.71	23.64	6.32	-42.0	-53.9	3.8	8.47e-01	0	56	104	0	55	14272
2026-01-19 00:59:03.72	23.69	6.39	-42.0	-53.9	3.8	8.45e-01	0	56	104	0	55	14309
2026-01-19 00:59:04.73	23.74	6.46	-42.0	-53.9	3.8	8.45e-01	0	56	104	0	55	14298
2026-01-19 00:59:05.74	23.79	6.53	-42.0	-53.9	3.8	8.46e-01	0	56	104	0	55	14249
2026-01-19 00:59:06.75	23.85	6.61	-42.0	-53.9	3.8	8.46e-01	0	56	104	0	55	14230
2026-01-19 00:59:07.76	23.90	6.68	-42.0	-53.9	3.8	8.46e-01	0	57	104	0	55	14235
2026-01-19 00:59:08.77	23.95	6.75	-42.0	-53.9	3.8	8.45e-01	0	56	104	0	55	14248
2026-01-19 00:59:09.78	24.01	6.82	-42.0	-53.9	3.8	8.46e-01	0	57	104	0	55	14220
2026-01-19 00:59:10.79	24.06	6.90	-42.0	-53.9	3.8	8.45e-01	0	57	104	0	55	14255
2026-01-19 00:59:11.80	24.11	6.97	-42.0	-53.8	3.8	8.47e-01	0	57	104	0	55	14209
2026-01-19 00:59:12.81	24.17	7.04	-42.0	-53.8	3.8	8.46e-01	0	57	104	0	55	14117
2026-01-19 00:59:13.82	24.22	7.12	-42.0	-53.8	3.8	8.46e-01	0	57	104	0	55	14062
2026-01-19 00:59:14.83	24.28	7.19	-42.0	-53.6	3.8	8.46e-01	0	57	104	0	55	13754
2026-01-19 00:59:15.85	24.33	7.26	-41.9	-53.2	3.8	8.47e-01	0	57	104	0	55	13216
2026-01-19 00:59:16.86	24.39	7.34	-41.9	-52.8	3.8	8.46e-01	0	57	104	0	55	12557
2026-01-19 00:59:17.87	24.44	7.41	-41.8	-52.2	3.8	8.45e-01	0	57	104	0	55	11732
2026-01-19 00:59:18.88	24.50	7.49	-41.7	-51.3	4.0	8.45e-01	0	57	104	0	55	10579
2026-01-19 00:59:19.89	24.56	7.56	-41.6	-50.3	4.2	8.38e-01	0	57	0	0	55	9427
2026-01-19 00:59:20.90	24.61	7.64	-41.5	-49.4	4.5	8.31e-01	0	57	0	0	54	9051
2026-01-19 00:59:21.91	24.67	7.71	-41.2	-48.3	5.0	7.82e-01	0	57	0	0	54	7929
2026-01-19 00:59:22.92	24.73	7.79	-40.9	-47.0	5.9	6.55e-01	0	57	0	1048576	53	7224
2026-01-19 00:59:23.93	24.78	7.86	-40.4	-45.6	7.0	2.02e-01	0	57	0	6291456	52	6518
2026-01-19 00:59:24.94	24.84	7.94	-39.9	-44.2	8.4	7.82e-02	0	57	0	12582912	51	5899
2026-01-19 00:59:25.95	24.90	8.01	-39.6	-43.5	9.2	2.50e-02	0	57	0	17825792	51	5416
2026-01-19 00:59:26.96	24.96	8.09	-40.2	-44.1	9.2	1.52e-02	0	57	0	23068672	50	6145
2026-01-19 00:59:27.97	25.01	8.16	-41.4	-46.5	6.9	7.10e-02	0	57	0	29360128	53	6874
2026-01-19 00:59:28.98	25.07	8.24	-40.4	-46.5	6.0	4.01e-02	0	57	0	34603008	51	7654
2026-01-19 00:59:29.99	25.13	8.32	-41.3	-52.6	3.8	8.26e-01	0	57	104	36700160	53	13813
2026-01-19 00:59:31.00	25.19	8.39	-40.1	-43.6	10.0	1.95e-03	0	57	0	37748736	50	5824
2026-01-19 00:59:32.01	25.25	8.47	-39.4	-42.5	10.9	3.61e-03	0	57	0	44040192	50	5130
2026-01-19 00:59:33.02	25.31	8.55	-39.5	-42.7	10.7	3.94e-03	0	57	0	49283072	50	5256
2026-01-19 00:59:34.03	25.37	8.63	-39.5	-42.6	10.9	3.30e-03	0	58	0	55574528	50	5171
2026-01-19 00:59:35.04	25.43	8.70	-39.3	-42.3	11.2	2.31e-03	0	58	0	60817408	50	5018
2026-01-19 00:59:36.05	25.49	8.78	-39.3	-42.3	11.3	1.66e-03	0	58	0	66060288	50	4984
2026-01-19 00:59:37.06	25.55	8.86	-39.3	-42.2	11.5	1.30e-03	0	58	0	72351744	50	4930
2026-01-19 00:59:38.07	25.61	8.94	-39.5	-42.5	11.1	2.03e-03	0	58	0	77594624	50	5144
2026-01-19 00:59:39.08	25.67	9.02	-39.4	-42.2	11.5	1.31e-03	0	58	0	83886080	50	4957
2026-01-19 00:59:40.08	25.74	9.09	-39.4	-42.2	11.5	1.27e-03	0	58	0	89128960	50	4981
2026-01-19 00:59:41.09	25.80	9.17	-39.2	-41.9	11.8	6.28e-04	0	58	0	95420416	50	4798
2026-01-19 00:59:42.10	25.86	9.25	-39.3	-42.1	11.7	7.64e-04	0	58	0	100663296	50	4888
2026-01-19 00:59:43.11	25.92	9.33	-39.4	-42.1	11.7	9.38e-04	0	58	0	105906176	50	4921
2026-01-19 00:59:44.12	25.99	9.41	-39.3	-42.0	11.8	6.18e-04	0	58	0	112197632	50	4850
2026-01-19 00:59:45.13	26.05	9.49	-39.5	-42.4	11.5	9.30e-04	0	58	0	117440512	50	5066
2026-01-19 00:59:46.14	26.11	9.57	-39.3	-41.9	12.1	4.23e-04	0	58	0	123731968	50	4812
2026-01-19 00:59:47.15	26.18	9.65	-39.4	-42.2	11.9	5.41e-04	0	58	0	128974848	50	4929
2026-01-19 00:59:48.16	26.24	9.73	-39.4	-42.1	11.9	7.71e-04	0	58	0	134217728	50	4910
2026-01-19 00:59:49.17	26.31	9.81	-39.3	-41.9	12.2	3.18e-04	0	58	0	140509184	50	4782
2026-01-19 00:59:50.18	26.37	9.89	-39.4	-42.0	12.2	4.65e-04	0	58	0	145752064	50	4830
2026-01-19 00:59:51.20	26.44	9.98	-39.3	-41.9	12.4	1.45e-04	0	58	0	152043520	50	4779
2026-01-19 00:59:52.21	26.50	10.06	-39.3	-41.8	12.5	1.90e-04	0	58	0	157286400	50	4718
2026-01-19 00:59:53.22	26.57	10.14	-39.2	-41.7	12.6	1.85e-04	0	58	0	162529280	50	4681
2026-01-19 00:59:54.23	26.64	10.22	-39.3	-41.8	12.5	1.77e-04	0	58	0	168820736	50	4730
2026-01-19 00:59:55.23	26.70	10.30	-39.4	-41.9	12.5	1.57e-04	0	58	0	174063616	50	4791
2026-01-19 00:59:56.24	26.77	10.39	-39.3	-41.8	12.6	1.85e-04	0	58	0	180355072	50	4708
2026-01-19 00:59:57.25	26.84	10.47	-39.4	-42.0	12.4	2.14e-04	0	58	0	185597952	50	4820
2026-01-19 00:59:58.26	26.90	10.55	-39.4	-41.9	12.5	2.39e-04	0	58	0	191889408	50	4781
2026-01-19 00:59:59.27	26.97	10.64	-39.4	-41.9	12.5	1.98e-04	0	58	0	197132288	50	4791
2026-01-19 01:00:00.28	27.04	10.72	-39.4	-42.0	12.5	2.13e-04	0	58	0	203423744	50	4823
2026-01-19 01:00:01.29	27.11	10.80	-39.4	-41.9	12.6	1.58e-04	0	58	0	208666624	50	4776
2026-01-19 01:00:02.30	27.18	10.89	-39.4	-41.9	12.6	1.94e-04	0	58	0	213909504	50	4786
2026-01-19 01:00:03.31	27.25	10.97	-39.4	-41.9	12.7	1.40e-04	0	58	0	220200960	50	4762
2026-01-19 01:00:04.32	27.32	11.06	-39.3	-41.7	12.8	1.06e-04	0	58	0	225443840	50	4659
2026-01-19 01:00:05.33	27.39	11.14	-39.2	-41.5	13.1	5.26e-05	0	58	0	231735296	50	4578
2026-01-19 01:00:06.34	27.46	11.23	-39.1	-41.4	13.2	3.31e-05	0	58	0	236978176	50	4522
2026-01-19 01:00:07.35	27.53	11.31	-39.2	-41.5	13.1	3.54e-05	0	58	0	242221056	50	4593
2026-01-19 01:00:08.36	27.60	11.40	-39.1	-41.4	13.2	5.14e-05	0	59	0	248512512	50	4517
2026-01-19 01:00:09.38	27.67	11.48	-39.1	-41.4	13.2	3.08e-05	0	58	0	253755392	50	4543
2026-01-19 01:00:10.38	27.75	11.57	-39.1	-41.4	13.3	2.86e-05	0	59	0	260046848	50	4498
2026-01-19 01:00:11.39	27.82	11.65	-39.0	-41.3	13.4	2.51e-05	0	59	0	265289728	50	4456
2026-01-19 01:00:12.40	27.89	11.74	-39.0	-41.3	13.4	2.86e-05	0	59	0	270532608	49	4733
2026-01-19 01:00:13.41	27.97	11.83	-39.0	-41.3	13.4	2.17e-05	0	59	0	276824064	49	4723
2026-01-19 01:00:14.42	28.04	11.92	-39.0	-41.2	13.5	1.94e-05	0	59	0	282066944	49	4687
2026-01-19 01:00:15.43	28.11	12.00	-38.9	-41.1	13.6	1.94e-05	0	59	0	288358400	49	4640
2026-01-19 01:00:16.44	28.19	12.09	-38.9	-41.1	13.6	1.25e-05	0	59	0	293601280	49	4613
2026-01-19 01:00:17.45	28.26	12.18	-38.9	-41.0	13.7	5.70e-06	0	59	0	299892736	49	4596
2026-01-19 01:00:18.46	28.34	12.27	-39.0	-41.3	13.5	1.71e-05	0	59	0	305135616	49	4706
2026-01-19 01:00:19.47	28.42	12.36	-38.8	-41.0	13.8	4.50e-06	0	59	0	310378496	49	4562
2026-01-19 01:00:20.48	28.49	12.44	-38.9	-41.0	13.8	1.37e-05	0	59	0	316669952	49	4586
2026-01-19 01:00:21.49	28.57	12.53	-38.8	-40.9	13.9	1.14e-05	0	59	0	321912832	49	4523
2026-01-19 01:00:22.49	28.65	12.62	-38.7	-40.8	14.0	2.20e-06	0	59	0	328204288	49	4484
2026-01-19 01:00:23.51	28.72	12.71	-38.7	-40.8	14.0	4.50e-06	0	59	0	333447168	49	4473
2026-01-19 01:00:24.51	28.80	12.80	-38.7	-40.9	13.9	8.00e-06	0	59	0	338690048	49	4498
2026-01-19 01:00:25.52	28.88	12.89	-38.6	-40.7	14.1	2.20e-06	0	59	0	344981504	49	4415
2026-01-19 01:00:26.53	28.96	12.98	-38.6	-40.7	14.2	1.10e-06	0	59	0	350224384	49	4397
2026-01-19 01:00:27.54	29.04	13.07	-38.5	-40.5	14.3	4.50e-06	0	59	0	356515840	49	4333
2026-01-19 01:00:28.55	29.12	13.17	-38.5	-40.5	14.4	4.50e-06	0	59	0	361758720	49	4317
2026-01-19 01:00:29.56	29.20	13.26	-38.6	-40.6	14.2	1.10e-06	0	59	0	367001600	49	4378
2026-01-19 01:00:30.57	29.28	13.35	-38.5	-40.5	14.3	0.00e+00	0	59	0	373293056	49	4320
2026-01-19 01:00:31.58	29.36	13.44	-38.6	-40.6	14.3	2.20e-06	0	59	0	378535936	48	4627
2026-01-19 01:00:32.59	29.44	13.53	-38.6	-40.6	14.3	1.10e-06	0	59	0	384827392	48	4640
2026-01-19 01:00:33.60	29.53	13.63	-38.5	-40.5	14.4	1.10e-06	0	59	0	390070272	48	4569
2026-01-19 01:00:34.61	29.61	13.72	-38.6	-40.6	14.3	2.20e-06	0	59	0	396361728	48	4646
2026-01-19 01:00:35.62	29.69	13.81	-38.6	-40.7	14.3	0.00e+00	0	59	0	401604608	48	4663
2026-01-19 01:00:36.63	29.78	13.91	-38.6	-40.6	14.3	3.40e-06	0	59	0	407896064	48	4614
2026-01-19 01:00:37.64	29.86	14.00	-38.6	-40.6	14.3	0.00e+00	0	59	0	413138944	48	4627
2026-01-19 01:00:38.64	29.95	14.09	-38.5	-40.5	14.4	0.00e+00	0	59	0	418381824	48	4590
2026-01-19 01:00:39.66	30.03	14.19	-38.6	-40.7	14.3	2.20e-06	0	59	0	424673280	48	4661
2026-01-19 01:00:40.67	30.12	14.28	-38.6	-40.6	14.5	0.00e+00	0	59	0	429916160	48	4603
2026-01-19 01:00:41.67	30.20	14.38	-38.6	-40.6	14.4	1.10e-06	0	59	0	436207616	48	4609
2026-01-19 01:00:42.68	30.29	14.47	-38.6	-40.7	14.4	1.10e-06	0	59	0	441450496	48	4660
2026-01-19 01:00:43.69	30.38	14.57	-38.5	-40.5	14.5	1.10e-06	0	59	0	446693376	48	4562
2026-01-19 01:00:44.70	30.47	14.66	-38.5	-40.5	14.5	1.10e-06	0	59	0	452984832	48	4585
2026-01-19 01:00:45.71	30.56	14.76	-38.5	-40.5	14.5	2.20e-06	0	59	0	458227712	48	4575
2026-01-19 01:00:46.72	30.65	14.86	-38.5	-40.5	14.5	1.10e-06	0	59	0	463470592	48	4597
2026-01-19 01:00:47.73	30.73	14.95	-38.5	-40.5	14.5	0.00e+00	0	59	0	469762048	48	4566
2026-01-19 01:00:48.74	30.83	15.05	-38.4	-40.4	14.7	0.00e+00	0	59	0	475004928	48	4514
2026-01-19 01:00:49.75	30.92	15.15	-38.4	-40.3	14.7	0.00e+00	0	59	0	481296384	48	4490
2026-01-19 01:00:50.76	31.01	15.25	-38.4	-40.4	14.7	1.10e-06	0	59	0	486539264	48	4498
2026-01-19 01:00:51.77	31.10	15.35	-38.3	-40.2	14.8	0.00e+00	0	59	0	492830720	48	4436
2026-01-19 01:00:52.78	31.19	15.45	-38.3	-40.2	14.8	0.00e+00	0	59	0	498073600	48	4440
2026-01-19 01:00:53.79	31.29	15.54	-38.5	-40.4	14.7	0.00e+00	0	60	0	504365056	48	4524
2026-01-19 01:00:54.80	31.38	15.64	-38.5	-40.4	14.6	3.40e-06	0	60	0	509607936	48	4535
2026-01-19 01:00:55.81	31.47	15.74	-38.4	-40.3	14.8	0.00e+00	0	60	0	514850816	48	4492
2026-01-19 01:00:56.82	31.57	15.84	-38.5	-40.4	14.7	1.10e-06	0	60	0	521142272	48	4522
2026-01-19 01:00:57.83	31.66	15.94	-38.4	-40.4	14.7	1.10e-06	0	60	0	526385152	48	4499
2026-01-19 01:00:58.84	31.76	16.04	-38.3	-40.2	14.9	0.00e+00	0	60	0	532676608	48	4426
2026-01-19 01:00:59.85	31.86	16.15	-38.2	-40.1	15.0	1.10e-06	0	60	0	537919488	48	4358
2026-01-19 01:01:00.86	31.96	16.25	-38.2	-40.1	15.0	0.00e+00	0	60	0	543162368	48	4369
2026-01-19 01:01:01.87	32.05	16.35	-38.2	-40.0	15.1	0.00e+00	0	60	0	549453824	48	4338
2026-01-19 01:01:02.88	32.15	16.45	-38.2	-40.1	15.1	0.00e+00	0	60	0	554696704	48	4365
2026-01-19 01:01:03.89	32.25	16.55	-38.2	-40.1	15.0	0.00e+00	0	60	0	560988160	48	4365
2026-01-19 01:01:04.90	32.35	16.66	-38.3	-40.1	15.0	0.00e+00	0	60	0	566231040	48	4391
2026-01-19 01:01:05.91	32.45	16.76	-38.3	-40.2	14.9	1.10e-06	0	60	0	571473920	48	4406
2026-01-19 01:01:06.92	32.55	16.86	-38.1	-40.0	15.2	0.00e+00	0	60	0	577765376	48	4317
2026-01-19 01:01:07.93	32.66	16.97	-38.2	-40.1	15.1	0.00e+00	0	60	0	583008256	48	4349
2026-01-19 01:01:08.94	32.76	17.07	-38.1	-39.9	15.3	0.00e+00	0	60	0	589299712	48	4257
2026-01-19 01:01:09.95	32.86	17.18	-38.0	-39.8	15.4	0.00e+00	0	60	0	594542592	48	4215
2026-01-19 01:01:10.96	32.97	17.28	-37.8	-39.5	15.5	0.00e+00	0	60	0	600834048	47	4337
2026-01-19 01:01:11.97	33.07	17.39	-37.7	-39.4	15.7	0.00e+00	0	60	0	606076928	47	4278
2026-01-19 01:01:12.98	33.18	17.49	-37.6	-39.4	15.7	0.00e+00	0	60	0	612368384	47	4268
2026-01-19 01:01:13.99	33.28	17.60	-37.6	-39.4	15.7	0.00e+00	0	60	0	617611264	47	4259
2026-01-19 01:01:15.00	33.39	17.71	-37.6	-39.4	15.7	0.00e+00	0	60	0	622854144	47	4247
2026-01-19 01:01:16.01	33.50	17.81	-37.5	-39.3	15.8	0.00e+00	0	60	0	629145600	46	4471
2026-01-19 01:01:17.02	33.61	17.92	-37.4	-39.3	15.8	0.00e+00	0	60	0	634388480	46	4464
2026-01-19 01:01:18.03	33.71	18.03	-37.4	-39.3	15.8	0.00e+00	0	60	0	640679936	46	4468
2026-01-19 01:01:19.03	33.82	18.14	-37.3	-39.3	15.7	0.00e+00	0	60	0	645922816	46	4466
2026-01-19 01:01:20.04	33.93	18.24	-37.2	-39.3	15.7	0.00e+00	0	60	0	651165696	46	4473
2026-01-19 01:01:21.05	34.05	18.35	-37.2	-39.3	15.7	0.00e+00	0	60	0	657457152	46	4480
2026-01-19 01:01:22.06	34.16	18.46	-37.2	-39.2	15.9	0.00e+00	0	60	0	662700032	46	4423
2026-01-19 01:01:23.07	34.27	18.57	-37.3	-39.3	15.8	0.00e+00	0	60	0	667942912	46	4445
2026-01-19 01:01:24.08	34.38	18.68	-37.3	-39.3	15.8	0.00e+00	0	60	0	674234368	46	4475
2026-01-19 01:01:25.09	34.50	18.79	-37.1	-39.4	15.6	0.00e+00	0	60	0	679477248	46	4531
2026-01-19 01:01:26.10	34.61	18.90	-37.2	-39.5	15.5	0.00e+00	0	60	0	685768704	46	4562
2026-01-19 01:01:27.11	34.73	19.01	-37.5	-39.5	15.6	0.00e+00	0	60	0	691011584	46	4581
2026-01-19 01:01:28.12	34.85	19.13	-37.6	-39.6	15.5	0.00e+00	0	60	0	697303040	46	4620
2026-01-19 01:01:29.13	34.97	19.24	-37.4	-39.6	15.5	0.00e+00	0	60	0	702545920	46	4602
2026-01-19 01:01:30.14	35.08	19.35	-37.5	-39.5	15.6	0.00e+00	0	60	0	708837376	46	4574
2026-01-19 01:01:31.15	35.20	19.46	-37.7	-39.5	15.6	0.00e+00	0	60	0	714080256	46	4581
2026-01-19 01:01:32.16	35.32	19.58	-37.6	-39.4	15.8	0.00e+00	0	60	0	719323136	46	4497
2026-01-19 01:01:33.17	35.44	19.69	-37.5	-39.3	15.9	0.00e+00	0	60	0	725614592	46	4469
2026-01-19 01:01:34.18	35.57	19.80	-37.6	-39.4	15.8	0.00e+00	0	60	0	730857472	46	4522
2026-01-19 01:01:35.19	35.69	19.92	-37.5	-39.2	16.0	0.00e+00	0	60	0	737148928	46	4403
2026-01-19 01:01:36.20	35.81	20.03	-37.3	-39.0	16.2	0.00e+00	0	60	0	742391808	46	4304
2026-01-19 01:01:37.20	35.94	20.15	-37.1	-38.8	16.4	0.00e+00	0	60	0	747634688	46	4218
2026-01-19 01:01:38.21	36.06	20.26	-37.2	-38.8	16.4	0.00e+00	0	60	0	753926144	46	4233
2026-01-19 01:01:39.22	36.19	20.38	-37.1	-38.7	16.5	0.00e+00	0	60	0	759169024	46	4168
2026-01-19 01:01:40.23	36.32	20.49	-37.1	-38.7	16.5	0.00e+00	0	60	0	765460480	46	4190
2026-01-19 01:01:41.24	36.45	20.61	-37.0	-38.6	16.6	0.00e+00	0	60	0	770703360	46	4131
2026-01-19 01:01:42.25	36.57	20.73	-37.0	-38.6	16.7	0.00e+00	0	60	0	775946240	46	4117
2026-01-19 01:01:43.26	36.70	20.85	-37.1	-38.7	16.6	0.00e+00	0	60	0	782237696	46	4148
2026-01-19 01:01:44.27	36.84	20.96	-37.0	-38.6	16.6	0.00e+00	0	60	0	787480576	46	4125
2026-01-19 01:01:45.28	36.97	21.08	-37.0	-38.6	16.7	0.00e+00	0	60	0	793772032	46	4118
2026-01-19 01:01:46.29	37.10	21.20	-37.1	-38.7	16.5	0.00e+00	0	60	0	799014912	46	4169
2026-01-19 01:01:47.30	37.24	21.32	-37.1	-38.7	16.5	0.00e+00	0	60	0	805306368	46	4188
2026-01-19 01:01:48.31	37.37	21.44	-37.2	-38.8	16.4	0.00e+00	0	60	0	810549248	46	4235
2026-01-19 01:01:49.32	37.51	21.56	-37.3	-39.0	16.3	0.00e+00	0	60	0	815792128	46	4298
2026-01-19 01:01:50.33	37.64	21.68	-37.3	-39.0	16.3	0.00e+00	0	60	0	822083584	46	4299
2026-01-19 01:01:51.34	37.78	21.80	-37.4	-39.1	16.2	0.00e+00	0	60	0	827326464	46	4355
2026-01-19 01:01:52.35	37.92	21.92	-37.4	-39.1	16.2	0.00e+00	0	60	0	833617920	46	4369
2026-01-19 01:01:53.36	38.06	22.04	-37.5	-39.1	16.2	0.00e+00	0	60	0	838860800	46	4376
2026-01-19 01:01:54.37	38.20	22.17	-37.4	-39.1	16.2	0.00e+00	0	60	0	844103680	46	4360
2026-01-19 01:01:55.37	38.35	22.29	-37.4	-39.0	16.3	0.00e+00	0	60	0	850395136	46	4321
2026-01-19 01:01:56.38	38.49	22.41	-37.3	-38.9	16.4	0.00e+00	0	60	0	855638016	46	4266
2026-01-19 01:01:57.39	38.63	22.53	-37.1	-38.7	16.6	0.00e+00	0	60	0	861929472	46	4187
2026-01-19 01:01:58.40	38.78	22.66	-37.1	-38.7	16.6	0.00e+00	0	60	0	867172352	46	4147
2026-01-19 01:01:59.41	38.93	22.78	-37.0	-38.6	16.7	0.00e+00	0	60	0	872415232	46	4125
2026-01-19 01:02:00.42	39.08	22.91	-37.1	-38.6	16.7	0.00e+00	0	60	0	878706688	46	4136
2026-01-19 01:02:01.43	39.23	23.03	-36.9	-38.4	16.9	0.00e+00	0	60	0	883949568	45	4277
2026-01-19 01:02:02.44	39.38	23.16	-36.8	-38.3	17.0	0.00e+00	0	60	0	890241024	45	4235
2026-01-19 01:02:03.45	39.53	23.28	-36.8	-38.4	16.9	0.00e+00	0	60	0	895483904	45	4248
2026-01-19 01:02:04.46	39.68	23.41	-36.9	-38.4	16.9	0.00e+00	0	60	0	901775360	45	4258
2026-01-19 01:02:05.47	39.83	23.54	-36.9	-38.5	16.8	0.00e+00	0	60	0	907018240	45	4311
2026-01-19 01:02:06.48	39.99	23.66	-36.8	-38.4	17.0	0.00e+00	0	61	0	913309696	45	4249
2026-01-19 01:02:07.49	40.15	23.79	-36.7	-38.2	17.1	0.00e+00	0	60	0	918552576	45	4179
2026-01-19 01:02:08.50	40.30	23.92	-36.6	-38.1	17.2	0.00e+00	0	60	0	923795456	45	4121
2026-01-19 01:02:09.51	40.46	24.05	-36.7	-38.2	17.2	0.00e+00	0	60	0	930086912	45	4152
2026-01-19 01:02:10.52	40.62	24.18	-36.7	-38.2	17.2	0.00e+00	0	60	0	935329792	45	4151
2026-01-19 01:02:11.53	40.79	24.31	-36.7	-38.3	17.1	0.00e+00	0	61	0	941621248	45	4199
2026-01-19 01:02:12.54	40.95	24.44	-36.8	-38.3	17.1	0.00e+00	0	60	0	946864128	45	4211
2026-01-19 01:02:13.56	41.11	24.57	-36.7	-38.2	17.1	0.00e+00	0	60	0	952107008	45	4191
2026-01-19 01:02:14.57	41.28	24.70	-36.7	-38.1	17.2	0.00e+00	0	61	0	958398464	45	4142
2026-01-19 01:02:15.58	41.45	24.83	-36.7	-38.2	17.2	0.00e+00	0	60	0	963641344	45	4160
2026-01-19 01:02:16.59	41.62	24.96	-36.8	-38.3	17.1	0.00e+00	0	61	0	969932800	45	4211
2026-01-19 01:02:17.60	41.78	25.09	-36.8	-38.4	17.0	0.00e+00	0	60	0	975175680	45	4249
2026-01-19 01:02:18.61	41.96	25.22	-36.9	-38.4	16.9	0.00e+00	0	60	0	980418560	45	4282
2026-01-19 01:02:19.62	42.13	25.36	-36.8	-38.3	17.1	0.00e+00	0	60	0	986710016	45	4204
2026-01-19 01:02:20.63	42.30	25.49	-36.7	-38.1	17.2	0.00e+00	0	60	0	991952896	45	4142
2026-01-19 01:02:21.64	42.48	25.62	-36.7	-38.1	17.2	0.00e+00	0	60	0	998244352	45	4144
2026-01-19 01:02:22.65	42.65	25.76	-36.6	-38.0	17.3	0.00e+00	0	61	0	1003487232	45	4078
2026-01-19 01:02:23.66	42.83	25.89	-36.6	-38.0	17.3	0.00e+00	0	61	0	1009778688	45	4085
2026-01-19 01:02:24.67	43.01	26.03	-36.5	-37.9	17.5	0.00e+00	0	60	0	1015021568	45	4047
2026-01-19 01:02:25.68	43.19	26.16	-36.4	-37.8	17.6	0.00e+00	0	61	0	1021313024	44	4223
2026-01-19 01:02:26.69	43.38	26.30	-36.3	-37.8	17.6	0.00e+00	0	60	0	1026555904	44	4205
2026-01-19 01:02:27.70	43.56	26.43	-36.3	-37.7	17.7	0.00e+00	0	60	0	1031798784	44	4184
2026-01-19 01:02:28.71	43.75	26.57	-36.3	-37.8	17.6	0.00e+00	0	61	0	1038090240	44	4199
2026-01-19 01:02:29.72	43.93	26.70	-36.4	-37.9	17.5	0.00e+00	0	61	0	1043333120	44	4251
2026-01-19 01:02:30.73	44.12	26.84	-36.5	-37.9	17.5	0.00e+00	0	61	0	1049624576	44	4280
2026-01-19 01:02:31.74	44.31	26.98	-36.5	-37.9	17.5	0.00e+00	0	61	0	1054867456	44	4280
2026-01-19 01:02:32.75	44.51	27.12	-36.5	-37.9	17.5	0.00e+00	0	61	0	1060110336	44	4281
2026-01-19 01:02:33.76	44.70	27.25	-36.4	-37.9	17.6	0.00e+00	0	60	0	1066401792	44	4246
2026-01-19 01:02:34.77	44.90	27.39	-36.4	-37.9	17.5	0.00e+00	0	61	0	1071644672	44	4248
2026-01-19 01:02:35.78	45.09	27.53	-36.5	-37.9	17.5	0.00e+00	0	61	0	1077936128	44	4291
2026-01-19 01:02:36.79	45.29	27.67	-36.4	-37.8	17.6	0.00e+00	0	60	0	1083179008	44	4234
2026-01-19 01:02:37.79	45.49	27.81	-36.2	-37.6	17.8	0.00e+00	0	61	0	1088421888	44	4130
2026-01-19 01:02:38.81	45.69	27.95	-36.1	-37.5	17.9	0.00e+00	0	61	0	1094713344	44	4086
2026-01-19 01:02:39.82	45.90	28.09	-36.2	-37.6	17.9	0.00e+00	0	61	0	1099956224	44	4107
2026-01-19 01:02:40.83	46.10	28.23	-36.2	-37.6	17.8	0.00e+00	0	61	0	1106247680	44	4132
2026-01-19 01:02:41.83	46.31	28.37	-36.3	-37.7	17.7	0.00e+00	0	61	0	1111490560	44	4191
2026-01-19 01:02:42.84	46.52	28.51	-36.2	-37.6	17.8	0.00e+00	0	60	0	1117782016	44	4140
2026-01-19 01:02:43.85	46.73	28.65	-36.2	-37.6	17.8	0.00e+00	0	61	0	1123024896	44	4145
2026-01-19 01:02:44.86	46.94	28.79	-36.2	-37.6	17.8	0.00e+00	0	61	0	1128267776	44	4125
2026-01-19 01:02:45.87	47.16	28.94	-36.3	-37.7	17.8	0.00e+00	0	61	0	1134559232	44	4163
2026-01-19 01:02:46.88	47.37	29.08	-36.3	-37.7	17.7	0.00e+00	0	61	0	1139802112	44	4190
2026-01-19 01:02:47.89	47.59	29.22	-36.3	-37.7	17.7	0.00e+00	0	61	0	1146093568	44	4191
2026-01-19 01:02:48.90	47.81	29.36	-36.3	-37.7	17.8	0.00e+00	0	61	0	1151336448	44	4149
2026-01-19 01:02:49.92	48.04	29.51	-35.8	-37.3	17.7	0.00e+00	0	61	0	1156579328	43	4213
2026-01-19 01:02:50.93	48.26	29.65	-35.8	-37.3	17.7	0.00e+00	0	61	0	1162870784	43	4223
2026-01-19 01:02:51.94	48.49	29.79	-35.8	-37.3	17.7	0.00e+00	0	61	0	1168113664	43	4237
2026-01-19 01:02:52.95	48.72	29.94	-35.8	-37.3	17.7	0.00e+00	0	61	0	1174405120	43	4226
2026-01-19 01:02:53.96	48.95	30.08	-35.8	-37.3	17.7	0.00e+00	0	61	0	1179648000	43	4207
2026-01-19 01:02:54.97	49.18	30.23	-35.8	-37.3	17.7	0.00e+00	0	61	0	1184890880	43	4233
2026-01-19 01:02:55.98	49.41	30.37	-35.9	-37.4	17.6	0.00e+00	0	61	0	1191182336	43	4262
2026-01-19 01:02:56.98	49.65	30.51	-35.9	-37.4	17.6	0.00e+00	0	61	0	1196425216	43	4276
2026-01-19 01:02:57.99	49.89	30.66	-35.8	-37.3	17.7	0.00e+00	0	61	0	1202716672	43	4232
2026-01-19 01:02:59.00	50.13	30.81	-35.8	-37.4	17.6	0.00e+00	0	61	0	1207959552	43	4251
2026-01-19 01:03:00.01	50.37	30.95	-35.8	-37.3	17.7	0.00e+00	0	61	0	1214251008	43	4226
2026-01-19 01:03:01.02	50.61	31.10	-35.8	-37.4	17.6	0.00e+00	0	61	0	1219493888	43	4258
2026-01-19 01:03:02.03	50.86	31.24	-35.9	-37.4	17.6	0.00e+00	0	61	0	1225785344	43	4261
2026-01-19 01:03:03.04	51.11	31.39	-35.9	-37.4	17.6	0.00e+00	0	61	0	1231028224	43	4277
2026-01-19 01:03:04.05	51.36	31.53	-35.9	-37.4	17.6	0.00e+00	0	61	0	1236271104	43	4279
2026-01-19 01:03:05.06	51.62	31.68	-35.7	-37.2	17.7	0.00e+00	0	61	0	1242562560	43	4192
2026-01-19 01:03:06.07	51.87	31.83	-35.7	-37.2	17.8	0.00e+00	0	61	0	1247805440	43	4160
2026-01-19 01:03:07.08	52.13	31.97	-35.7	-37.2	17.8	0.00e+00	0	61	0	1254096896	43	4188
2026-01-19 01:03:08.09	52.39	32.12	-35.7	-37.2	17.8	0.00e+00	0	61	0	1259339776	43	4175
2026-01-19 01:03:09.10	52.66	32.27	-35.8	-37.3	17.7	0.00e+00	0	61	0	1264582656	43	4216
2026-01-19 01:03:10.11	52.92	32.41	-35.7	-37.2	17.9	0.00e+00	0	61	0	1270874112	43	4147
2026-01-19 01:03:11.12	53.19	32.56	-35.5	-37.0	18.0	0.00e+00	0	61	0	1276116992	43	4076
2026-01-19 01:03:12.13	53.46	32.71	-35.6	-37.1	18.0	0.00e+00	0	61	0	1282408448	43	4111
2026-01-19 01:03:13.14	53.73	32.85	-35.6	-37.1	17.9	0.00e+00	0	61	0	1287651328	43	4135
2026-01-19 01:03:14.15	54.01	33.00	-35.7	-37.2	17.9	0.00e+00	0	61	0	1292894208	43	4154
2026-01-19 01:03:15.16	54.28	33.15	-35.8	-37.3	17.8	0.00e+00	0	61	0	1299185664	43	4212
2026-01-19 01:03:16.17	54.56	33.29	-35.8	-37.3	17.7	0.00e+00	0	61	0	1304428544	43	4231
2026-01-19 01:03:17.18	54.85	33.44	-35.7	-37.2	17.8	0.00e+00	0	61	0	1310720000	43	4192
2026-01-19 01:03:18.19	55.13	33.59	-35.7	-37.2	17.8	0.00e+00	0	61	0	1315962880	43	4167
2026-01-19 01:03:19.20	55.42	33.73	-35.7	-37.2	17.8	0.00e+00	0	61	0	1322254336	43	4165
2026-01-19 01:03:20.21	55.71	33.88	-35.8	-37.3	17.7	0.00e+00	0	61	0	1327497216	43	4206
2026-01-19 01:03:21.22	56.00	34.03	-35.8	-37.3	17.7	0.00e+00	0	61	0	1332740096	43	4234
2026-01-19 01:03:22.23	56.30	34.17	-35.7	-37.2	17.8	0.00e+00	0	61	0	1339031552	43	4183
2026-01-19 01:03:23.24	56.59	34.32	-35.7	-37.2	17.8	0.00e+00	0	61	0	1344274432	43	4161
2026-01-19 01:03:24.25	56.89	34.47	-35.7	-37.2	17.8	0.00e+00	0	61	0	1350565888	43	4170
2026-01-19 01:03:25.26	57.20	34.61	-35.7	-37.2	17.8	0.00e+00	0	61	0	1355808768	43	4173
2026-01-19 01:03:26.27	57.50	34.76	-35.7	-37.2	17.8	0.00e+00	0	61	0	1361051648	43	4188
2026-01-19 01:03:27.28	57.81	34.90	-35.9	-37.4	17.6	0.00e+00	0	61	0	1367343104	43	4284
2026-01-19 01:03:28.28	58.12	35.05	-35.8	-37.4	17.7	0.00e+00	0	61	0	1372585984	43	4253
2026-01-19 01:03:29.30	58.44	35.19	-35.7	-37.2	17.8	0.00e+00	0	61	0	1378877440	43	4171
2026-01-19 01:03:30.31	58.75	35.34	-35.6	-37.1	17.9	0.00e+00	0	61	0	1384120320	43	4131
2026-01-19 01:03:31.32	59.07	35.48	-35.6	-37.1	17.9	0.00e+00	0	61	0	1389363200	43	4113
2026-01-19 01:03:32.33	59.40	35.63	-35.5	-37.0	18.0	0.00e+00	0	61	0	1395654656	43	4083
2026-01-19 01:03:33.34	59.72	35.77	-35.6	-37.1	18.0	0.00e+00	0	61	0	1400897536	43	4110
2026-01-19 01:03:34.35	60.05	35.91	-35.6	-37.0	18.1	0.00e+00	0	61	0	1407188992	43	4086
2026-01-19 01:03:35.36	60.38	36.06	-35.6	-37.0	18.1	0.00e+00	0	61	0	1412431872	43	4092
2026-01-19 01:03:36.36	60.71	36.20	-35.5	-37.0	18.1	0.00e+00	0	61	0	1418723328	43	4072
2026-01-19 01:03:37.38	61.05	36.34	-35.5	-37.0	18.1	0.00e+00	0	61	0	1423966208	43	4074
2026-01-19 01:03:38.39	61.39	36.48	-35.6	-37.1	18.0	0.00e+00	0	61	0	1430257664	43	4108
2026-01-19 01:03:39.40	61.73	36.62	-35.7	-37.1	18.0	0.00e+00	0	61	0	1435500544	43	4143
2026-01-19 01:03:40.41	62.08	36.76	-35.6	-37.0	18.1	0.00e+00	0	61	0	1440743424	43	4082
2026-01-19 01:03:41.42	62.43	36.90	-35.6	-37.0	18.1	0.00e+00	0	61	0	1447034880	43	4092
2026-01-19 01:03:42.43	62.78	37.04	-35.5	-37.0	18.1	0.00e+00	0	61	0	1452277760	43	4077
2026-01-19 01:03:43.44	63.13	37.18	-35.5	-37.0	18.2	0.00e+00	0	61	0	1458569216	43	4069
2026-01-19 01:03:44.45	63.49	37.32	-35.5	-37.0	18.2	0.00e+00	0	61	0	1463812096	43	4062
2026-01-19 01:03:45.45	63.85	37.46	-35.4	-36.9	18.2	0.00e+00	0	61	0	1469054976	42	4266
2026-01-19 01:03:46.46	64.21	37.59	-35.5	-36.9	18.2	0.00e+00	0	61	0	1475346432	42	4282
2026-01-19 01:03:47.48	64.58	37.73	-35.5	-37.0	18.2	0.00e+00	0	61	0	1480589312	42	4303
2026-01-19 01:03:48.49	64.95	37.87	-35.7	-37.1	18.0	0.00e+00	0	61	0	1486880768	42	4390
2026-01-19 01:03:49.49	65.32	38.00	-35.8	-37.3	17.9	0.00e+00	0	61	0	1492123648	42	4464
2026-01-19 01:03:50.50	65.69	38.13	-35.9	-37.4	17.7	0.00e+00	0	61	0	1497366528	42	4518
2026-01-19 01:03:51.51	66.07	38.27	-35.7	-37.2	18.0	0.00e+00	0	61	0	1503657984	42	4397
2026-01-19 01:03:52.52	66.45	38.40	-35.6	-37.1	18.1	0.00e+00	0	61	0	1508900864	42	4352
2026-01-19 01:03:53.53	66.84	38.53	-35.7	-37.1	18.0	0.00e+00	0	61	0	1515192320	42	4390
2026-01-19 01:03:54.54	67.23	38.66	-35.7	-37.1	18.0	0.00e+00	0	61	0	1520435200	42	4381
2026-01-19 01:03:55.55	67.62	38.79	-35.6	-37.1	18.1	0.00e+00	0	61	0	1526726656	42	4372
2026-01-19 01:03:56.56	68.01	38.92	-35.5	-37.0	18.2	0.00e+00	0	61	0	1531969536	42	4308
2026-01-19 01:03:57.57	68.41	39.05	-35.6	-37.0	18.1	0.00e+00	0	61	0	1537212416	42	4332
2026-01-19 01:03:58.58	68.81	39.17	-35.8	-37.3	17.9	0.00e+00	0	61	0	1543503872	42	4461
2026-01-19 01:03:59.59	69.21	39.30	-35.7	-37.3	17.9	0.00e+00	0	61	0	1548746752	42	4445
2026-01-19 01:04:00.60	69.62	39.42	-35.7	-37.2	18.0	0.00e+00	0	61	0	1555038208	42	4428
2026-01-19 01:04:01.61	70.03	39.55	-35.8	-37.3	17.9	0.00e+00	0	61	0	1560281088	42	4443
2026-01-19 01:04:02.62	70.44	39.67	-35.7	-37.1	18.0	0.00e+00	0	61	0	1565523968	42	4391
2026-01-19 01:04:03.62	70.85	39.79	-35.6	-37.1	18.1	0.00e+00	0	61	0	1571815424	42	4344
2026-01-19 01:04:04.63	71.27	39.91	-35.6	-37.1	18.1	0.00e+00	0	61	0	1577058304	42	4354
2026-01-19 01:04:05.64	71.69	40.02	-35.8	-37.3	17.8	0.00e+00	0	61	0	1583349760	42	4472
2026-01-19 01:04:06.65	72.12	40.14	-35.9	-37.4	17.8	0.00e+00	0	61	0	1588592640	42	4504
2026-01-19 01:04:07.66	72.54	40.26	-35.9	-37.4	17.8	0.00e+00	0	61	0	1593835520	42	4518
2026-01-19 01:04:08.67	72.98	40.37	-35.9	-37.4	17.8	0.00e+00	0	61	0	1600126976	42	4523
2026-01-19 01:04:09.68	73.41	40.48	-35.8	-37.3	17.9	0.00e+00	0	61	0	1605369856	42	4476
2026-01-19 01:04:10.69	73.85	40.59	-35.7	-37.2	18.0	0.00e+00	0	61	0	1611661312	42	4409
2026-01-19 01:04:11.70	74.29	40.70	-35.9	-37.3	17.9	0.00e+00	0	61	0	1616904192	42	4483
2026-01-19 01:04:12.71	74.73	40.81	-35.7	-37.1	18.0	0.00e+00	0	61	0	1623195648	42	4387
2026-01-19 01:04:13.72	75.17	40.92	-35.6	-37.1	18.1	0.00e+00	0	61	0	1628438528	42	4369
2026-01-19 01:04:14.73	75.62	41.02	-35.9	-37.4	17.8	0.00e+00	0	61	0	1634729984	42	4510
2026-01-19 01:04:15.74	76.07	41.13	-35.8	-37.3	17.9	0.00e+00	0	61	0	1639972864	42	4458
2026-01-19 01:04:16.75	76.53	41.23	-35.8	-37.3	17.9	0.00e+00	0	61	0	1645215744	42	4477
2026-01-19 01:04:17.76	76.98	41.33	-35.9	-37.4	17.8	0.00e+00	0	61	0	1651507200	42	4508
2026-01-19 01:04:18.77	77.44	41.43	-35.9	-37.4	17.7	0.00e+00	0	61	0	1656750080	42	4536
2026-01-19 01:04:19.78	77.91	41.52	-35.9	-37.4	17.7	0.00e+00	0	61	0	1663041536	42	4544
2026-01-19 01:04:20.79	78.37	41.62	-35.7	-37.2	18.0	0.00e+00	0	61	0	1668284416	42	4406
2026-01-19 01:04:21.79	78.84	41.71	-35.6	-37.1	18.1	0.00e+00	0	61	0	1673527296	42	4371
2026-01-19 01:04:22.80	79.31	41.80	-35.7	-37.2	18.0	0.00e+00	0	61	0	1679818752	42	4406
2026-01-19 01:04:23.81	79.78	41.89	-35.7	-37.1	18.0	0.00e+00	0	61	0	1685061632	42	4370
2026-01-19 01:04:24.82	80.25	41.98	-35.7	-37.2	18.0	0.00e+00	0	61	0	1690304512	42	4399
2026-01-19 01:04:25.83	80.73	42.06	-35.8	-37.2	17.9	0.00e+00	0	61	0	1696595968	42	4437
2026-01-19 01:04:26.84	81.21	42.15	-35.7	-37.1	18.0	0.00e+00	0	61	0	1701838848	42	4391
2026-01-19 01:04:27.85	81.70	42.23	-35.7	-37.2	18.0	0.00e+00	0	61	0	1708130304	42	4400
2026-01-19 01:04:28.86	82.18	42.31	-35.8	-37.3	17.9	0.00e+00	0	61	0	1713373184	42	4457
2026-01-19 01:04:29.87	82.67	42.38	-35.8	-37.3	17.8	0.00e+00	0	61	0	1719664640	42	4493
2026-01-19 01:04:30.88	83.16	42.46	-35.7	-37.2	18.0	0.00e+00	0	61	0	1724907520	42	4411
2026-01-19 01:04:31.89	83.65	42.53	-35.7	-37.1	18.1	0.00e+00	0	61	0	1731198976	42	4372
2026-01-19 01:04:32.90	84.15	42.60	-35.8	-37.2	18.0	0.00e+00	0	61	0	1736441856	42	4422
2026-01-19 01:04:33.91	84.65	42.67	-36.1	-37.6	17.6	0.00e+00	0	61	0	1741684736	42	4630
2026-01-19 01:04:34.92	85.14	42.73	-36.3	-37.9	17.3	0.00e+00	0	61	0	1747976192	43	4507
2026-01-19 01:04:35.93	85.65	42.80	-36.3	-37.9	17.3	0.00e+00	0	61	0	1753219072	43	4515
2026-01-19 01:04:36.94	86.15	42.86	-36.3	-37.9	17.3	0.00e+00	0	61	0	1759510528	43	4511
2026-01-19 01:04:37.95	86.65	42.92	-36.2	-37.7	17.5	0.00e+00	0	61	0	1764753408	43	4440
2026-01-19 01:04:38.96	87.16	42.98	-36.1	-37.6	17.6	0.00e+00	0	61	0	1769996288	43	4361
2026-01-19 01:04:39.97	87.67	43.03	-35.9	-37.4	17.8	0.00e+00	0	61	0	1776287744	43	4274
2026-01-19 01:04:40.98	88.18	43.08	-36.0	-37.5	17.7	0.00e+00	0	61	0	1781530624	43	4312
2026-01-19 01:04:41.99	88.69	43.13	-36.0	-37.6	17.7	0.00e+00	0	61	0	1787822080	43	4346
2026-01-19 01:04:43.00	89.20	43.18	-36.0	-37.4	17.8	0.00e+00	0	61	0	1793064960	43	4284
2026-01-19 01:04:44.01	89.72	43.22	-35.8	-37.3	17.9	0.00e+00	0	61	0	1798307840	43	4223
2026-01-19 01:04:45.02	90.23	43.27	-35.8	-37.3	18.0	0.00e+00	0	61	0	1804599296	43	4197
2026-01-19 01:04:46.03	90.75	43.30	-35.8	-37.3	17.9	0.00e+00	0	61	0	1809842176	43	4242
2026-01-19 01:04:47.04	91.27	43.34	-35.8	-37.3	17.9	0.00e+00	0	61	0	1816133632	43	4218
2026-01-19 01:04:48.05	91.79	43.38	-35.9	-37.5	17.7	0.00e+00	0	61	0	1821376512	43	4302
2026-01-19 01:04:49.06	92.31	43.41	-36.0	-37.6	17.6	0.00e+00	0	61	0	1827667968	43	4344
2026-01-19 01:04:50.07	92.83	43.44	-36.0	-37.6	17.6	0.00e+00	0	61	0	1832910848	43	4362
2026-01-19 01:04:51.08	93.36	43.47	-36.0	-37.5	17.7	0.00e+00	0	61	0	1839202304	43	4327
2026-01-19 01:04:52.09	93.88	43.49	-36.1	-37.6	17.6	0.00e+00	0	61	0	1844445184	43	4385
2026-01-19 01:04:53.10	94.40	43.51	-36.1	-37.6	17.6	0.00e+00	0	61	0	1849688064	43	4361
2026-01-19 01:04:54.11	94.93	43.53	-35.9	-37.4	17.8	0.00e+00	0	61	0	1855979520	43	4251
2026-01-19 01:04:55.12	95.45	43.55	-35.8	-37.3	17.9	0.00e+00	0	61	0	1861222400	43	4197
2026-01-19 01:04:56.13	95.98	43.56	-35.8	-37.3	17.9	0.00e+00	0	61	0	1867513856	43	4224
2026-01-19 01:04:57.14	96.51	43.57	-35.8	-37.3	17.9	0.00e+00	0	61	0	1872756736	43	4211
2026-01-19 01:04:58.15	97.03	43.58	-36.0	-37.5	17.7	0.00e+00	0	62	0	1877999616	43	4323
2026-01-19 01:04:59.16	97.56	43.59	-36.0	-37.6	17.7	0.00e+00	0	61	0	1884291072	43	4345
2026-01-19 01:05:00.17	98.09	43.59	-35.9	-37.4	17.8	0.00e+00	0	61	0	1889533952	43	4265
2026-01-19 01:05:01.18	98.62	43.59	-36.0	-37.5	17.8	0.00e+00	0	61	0	1895825408	43	4293
2026-01-19 01:05:02.19	99.14	43.59	-36.0	-37.5	17.7	0.00e+00	0	61	0	1901068288	43	4335
2026-01-19 01:05:03.20	99.67	43.58	-35.9	-37.4	17.8	0.00e+00	0	61	0	1906311168	43	4277
2026-01-19 01:05:04.21	100.20	43.58	-36.0	-37.5	17.7	0.00e+00	0	61	0	1912602624	43	4311
2026-01-19 01:05:05.22	100.73	43.57	-36.0	-37.6	17.6	0.00e+00	0	61	0	1917845504	43	4359
2026-01-19 01:05:06.23	101.25	43.55	-36.1	-37.6	17.6	0.00e+00	0	61	0	1924136960	43	4374
2026-01-19 01:05:07.24	101.78	43.54	-36.1	-37.6	17.6	0.00e+00	0	61	0	1929379840	43	4372
2026-01-19 01:05:08.25	102.30	43.52	-36.1	-37.6	17.6	0.00e+00	0	61	0	1935671296	43	4391
2026-01-19 01:05:09.26	102.83	43.50	-36.0	-37.6	17.7	0.00e+00	0	61	0	1940914176	43	4344
2026-01-19 01:05:10.26	103.35	43.48	-36.2	-37.7	17.5	0.00e+00	0	61	0	1946157056	43	4441
2026-01-19 01:05:11.27	103.87	43.45	-36.1	-37.7	17.5	0.00e+00	0	61	0	1952448512	43	4413
2026-01-19 01:05:12.28	104.40	43.42	-36.1	-37.6	17.6	0.00e+00	0	61	0	1957691392	43	4366
2026-01-19 01:05:13.29	104.92	43.39	-36.1	-37.7	17.6	0.00e+00	0	61	0	1963982848	43	4405
2026-01-19 01:05:14.30	105.44	43.36	-36.2	-37.8	17.5	0.00e+00	0	61	0	1969225728	43	4456
2026-01-19 01:05:15.31	105.96	43.32	-36.1	-37.7	17.5	0.00e+00	0	61	0	1974468608	43	4420
2026-01-19 01:05:16.32	106.48	43.29	-36.2	-37.8	17.5	0.00e+00	0	61	0	1980760064	43	4448
2026-01-19 01:05:17.33	106.99	43.25	-36.3	-37.9	17.4	0.00e+00	0	61	0	1986002944	43	4509
2026-01-19 01:05:18.34	107.51	43.20	-36.1	-37.7	17.5	0.00e+00	0	61	0	1992294400	43	4421
2026-01-19 01:05:19.35	108.02	43.16	-36.0	-37.5	17.7	0.00e+00	0	61	0	1997537280	43	4335
2026-01-19 01:05:20.36	108.54	43.11	-36.0	-37.5	17.7	0.00e+00	0	61	0	2002780160	43	4327
2026-01-19 01:05:21.37	109.05	43.06	-36.0	-37.6	17.7	0.00e+00	0	62	0	2009071616	43	4341
2026-01-19 01:05:22.38	109.56	43.00	-36.1	-37.7	17.6	0.00e+00	0	61	0	2014314496	43	4406
2026-01-19 01:05:23.38	110.06	42.95	-36.2	-37.7	17.5	0.00e+00	0	62	0	2020605952	43	4434
2026-01-19 01:05:24.39	110.57	42.89	-35.9	-37.5	17.8	0.00e+00	0	61	0	2025848832	43	4292
2026-01-19 01:05:25.40	111.07	42.83	-35.9	-37.4	17.9	0.00e+00	0	61	0	2032140288	43	4252
2026-01-19 01:05:26.42	111.58	42.77	-35.8	-37.3	17.9	0.00e+00	0	61	0	2037383168	43	4208
2026-01-19 01:05:27.42	112.08	42.70	-35.9	-37.4	17.8	0.00e+00	0	62	0	2043674624	43	4271
2026-01-19 01:05:28.43	112.57	42.64	-36.0	-37.6	17.6	0.00e+00	0	61	0	2048917504	43	4347
2026-01-19 01:05:29.44	113.07	42.57	-36.0	-37.5	17.7	0.00e+00	0	61	0	2054160384	43	4336
2026-01-19 01:05:30.45	113.57	42.49	-35.9	-37.5	17.8	0.00e+00	0	61	0	2060451840	43	4300
2026-01-19 01:05:31.46	114.06	42.42	-36.0	-37.5	17.7	0.00e+00	0	61	0	2065694720	43	4330
2026-01-19 01:05:32.47	114.55	42.34	-36.0	-37.5	17.7	0.00e+00	0	61	0	2070937600	43	4334
2026-01-19 01:05:33.48	115.04	42.27	-35.8	-37.3	17.9	0.00e+00	0	61	0	2077229056	43	4220
2026-01-19 01:05:34.49	115.52	42.19	-35.7	-37.2	17.9	0.00e+00	0	61	0	2082471936	43	4174
2026-01-19 01:05:35.50	116.00	42.10	-35.8	-37.3	17.9	0.00e+00	0	62	0	2088763392	43	4201
2026-01-19 01:05:36.51	116.48	42.02	-36.0	-37.5	17.7	0.00e+00	0	61	0	2094006272	43	4309
2026-01-19 01:05:37.52	116.96	41.93	-36.1	-37.7	17.5	0.00e+00	0	61	0	2099249152	43	4413
2026-01-19 01:05:38.53	117.44	41.84	-36.1	-37.7	17.5	0.00e+00	0	61	0	2105540608	43	4424
2026-01-19 01:05:39.54	117.91	41.75	-36.1	-37.7	17.5	0.00e+00	0	61	0	2110783488	43	4407
2026-01-19 01:05:40.55	118.38	41.66	-36.0	-37.5	17.7	0.00e+00	0	61	0	2117074944	43	4321
2026-01-19 01:05:41.56	118.85	41.57	-36.0	-37.5	17.7	0.00e+00	0	61	0	2122317824	43	4338
2026-01-19 01:05:42.57	119.31	41.47	-36.1	-37.7	17.5	0.00e+00	0	61	0	2128609280	43	4439
2026-01-19 01:05:43.58	119.78	41.37	-36.1	-37.7	17.5	0.00e+00	0	61	0	2133852160	43	4399
2026-01-19 01:05:44.58	120.23	41.28	-36.1	-37.6	17.6	0.00e+00	0	61	0	2140143616	43	4375
2026-01-19 01:05:45.59	120.69	41.18	-36.1	-37.6	17.6	0.00e+00	0	62	0	2145386496	43	4378
2026-01-19 01:05:46.60	121.14	41.07	-36.0	-37.5	17.7	0.00e+00	0	61	0	2150629376	43	4315
2026-01-19 01:05:47.61	121.59	40.97	-35.9	-37.4	17.8	0.00e+00	0	62	0	2156920832	43	4286
2026-01-19 01:05:48.62	122.04	40.86	-35.8	-37.3	17.9	0.00e+00	0	61	0	2162163712	43	4215
2026-01-19 01:05:49.63	122.49	40.75	-35.8	-37.3	17.9	0.00e+00	0	61	0	2168455168	43	4200
2026-01-19 01:05:50.64	122.93	40.64	-35.8	-37.3	17.9	0.00e+00	0	62	0	2173698048	43	4230
2026-01-19 01:05:51.65	123.37	40.53	-35.8	-37.3	17.9	0.00e+00	0	61	0	2178940928	43	4206
2026-01-19 01:05:52.66	123.80	40.42	-35.7	-37.2	18.0	0.00e+00	0	61	0	2185232384	43	4155
2026-01-19 01:05:53.67	124.24	40.31	-35.8	-37.2	18.0	0.00e+00	0	61	0	2190475264	43	4188
2026-01-19 01:05:54.68	124.67	40.19	-35.9	-37.3	17.9	0.00e+00	0	61	0	2196766720	43	4234
2026-01-19 01:05:55.69	125.09	40.08	-35.7	-37.2	18.0	0.00e+00	0	61	0	2202009600	43	4178
2026-01-19 01:05:56.70	125.52	39.96	-35.7	-37.2	18.0	0.00e+00	0	61	0	2207252480	43	4169
2026-01-19 01:05:57.71	125.94	39.84	-35.7	-37.2	18.1	0.00e+00	0	61	0	2213543936	43	4151
2026-01-19 01:05:58.72	126.36	39.72	-35.6	-37.0	18.2	0.00e+00	0	61	0	2218786816	43	4094
2026-01-19 01:05:59.73	126.77	39.60	-35.6	-37.0	18.2	0.00e+00	0	62	0	2225078272	43	4081
2026-01-19 01:06:00.74	127.19	39.47	-35.7	-37.2	18.1	0.00e+00	0	61	0	2230321152	43	4170
2026-01-19 01:06:01.75	127.59	39.35	-35.8	-37.3	17.9	0.00e+00	0	62	0	2236612608	43	4235
2026-01-19 01:06:02.76	128.00	39.22	-35.8	-37.3	17.9	0.00e+00	0	61	0	2241855488	43	4227
2026-01-19 01:06:03.77	128.40	39.10	-35.8	-37.3	17.9	0.00e+00	0	61	0	2247098368	43	4209
2026-01-19 01:06:04.78	128.80	38.97	-35.7	-37.2	18.0	0.00e+00	0	61	0	2253389824	43	4164
2026-01-19 01:06:05.79	129.20	38.84	-35.8	-37.3	18.0	0.00e+00	0	61	0	2258632704	43	4214
2026-01-19 01:06:06.80	129.59	38.71	-35.7	-37.1	18.1	0.00e+00	0	61	0	2264924160	43	4139
2026-01-19 01:06:07.81	129.98	38.58	-35.7	-37.1	18.1	0.00e+00	0	62	0	2270167040	43	4144
2026-01-19 01:06:08.82	130.37	38.45	-35.6	-37.0	18.2	0.00e+00	0	61	0	2275409920	43	4095
2026-01-19 01:06:09.83	130.75	38.32	-35.7	-37.1	18.1	0.00e+00	0	62	0	2281701376	43	4144
2026-01-19 01:06:10.84	131.14	38.18	-35.6	-37.1	18.1	0.00e+00	0	62	0	2286944256	43	4112
2026-01-19 01:06:11.85	131.51	38.05	-35.6	-37.1	18.1	0.00e+00	0	62	0	2293235712	43	4132
2026-01-19 01:06:12.86	131.89	37.91	-35.8	-37.3	18.0	0.00e+00	0	62	0	2298478592	43	4205
2026-01-19 01:06:13.87	132.26	37.78	-35.7	-37.2	18.0	0.00e+00	0	62	0	2303721472	43	4179
2026-01-19 01:06:14.88	132.63	37.64	-35.7	-37.2	18.0	0.00e+00	0	61	0	2310012928	43	4181
2026-01-19 01:06:15.89	133.00	37.50	-35.7	-37.2	18.0	0.00e+00	0	62	0	2315255808	43	4189
2026-01-19 01:06:16.90	133.36	37.37	-35.7	-37.2	18.0	0.00e+00	0	61	0	2321547264	43	4173
2026-01-19 01:06:17.91	133.72	37.23	-35.8	-37.3	18.0	0.00e+00	0	61	0	2326790144	43	4196
2026-01-19 01:06:18.92	134.08	37.09	-35.7	-37.2	18.0	0.00e+00	0	61	0	2333081600	43	4184
2026-01-19 01:06:19.93	134.43	36.95	-35.7	-37.2	18.0	0.00e+00	0	62	0	2338324480	43	4176
2026-01-19 01:06:20.94	134.78	36.81	-35.7	-37.2	18.0	0.00e+00	0	61	0	2344615936	43	4170
2026-01-19 01:06:21.95	135.13	36.67	-35.6	-37.1	18.1	0.00e+00	0	62	0	2349858816	43	4128
2026-01-19 01:06:22.96	135.47	36.53	-35.7	-37.2	18.1	0.00e+00	0	62	0	2355101696	43	4147
2026-01-19 01:06:23.97	135.82	36.38	-35.7	-37.2	18.0	0.00e+00	0	61	0	2361393152	43	4184
2026-01-19 01:06:24.98	136.15	36.24	-35.8	-37.3	17.9	0.00e+00	0	61	0	2366636032	43	4207
2026-01-19 01:06:25.99	136.49	36.10	-35.8	-37.3	17.9	0.00e+00	0	62	0	2372927488	43	4228
2026-01-19 01:06:27.00	136.82	35.95	-35.9	-37.4	17.8	0.00e+00	0	61	0	2378170368	43	4256
2026-01-19 01:06:28.01	137.15	35.81	-35.9	-37.4	17.8	0.00e+00	0	62	0	2383413248	43	4257
2026-01-19 01:06:29.02	137.48	35.67	-35.8	-37.3	17.9	0.00e+00	0	62	0	2389704704	43	4233
2026-01-19 01:06:30.03	137.81	35.52	-35.9	-37.4	17.7	0.00e+00	0	62	0	2394947584	43	4291
2026-01-19 01:06:31.04	138.13	35.38	-36.0	-37.6	17.6	0.00e+00	0	62	0	2401239040	43	4368
2026-01-19 01:06:32.05	138.45	35.23	-36.1	-37.6	17.5	0.00e+00	0	62	0	2406481920	43	4389
2026-01-19 01:06:33.06	138.76	35.08	-36.0	-37.6	17.6	0.00e+00	0	61	0	2411724800	43	4359
2026-01-19 01:06:34.06	139.07	34.94	-36.0	-37.5	17.7	0.00e+00	0	62	0	2418016256	43	4322
2026-01-19 01:06:35.07	139.39	34.79	-35.9	-37.4	17.8	0.00e+00	0	62	0	2423259136	43	4248
2026-01-19 01:06:36.08	139.69	34.65	-35.7	-37.2	17.9	0.00e+00	0	61	0	2429550592	43	4173
2026-01-19 01:06:37.09	140.00	34.50	-35.7	-37.2	17.9	0.00e+00	0	61	0	2434793472	43	4166
2026-01-19 01:06:38.10	140.30	34.35	-35.7	-37.2	17.9	0.00e+00	0	62	0	2440036352	43	4192
2026-01-19 01:06:39.11	140.60	34.21	-35.7	-37.2	17.9	0.00e+00	0	62	0	2446327808	43	4184
2026-01-19 01:06:40.12	140.90	34.06	-35.7	-37.2	17.9	0.00e+00	0	61	0	2451570688	43	4166
2026-01-19 01:06:41.13	141.19	33.91	-35.7	-37.2	17.9	0.00e+00	0	62	0	2457862144	43	4181
2026-01-19 01:06:42.14	141.49	33.77	-35.7	-37.2	17.9	0.00e+00	0	62	0	2463105024	43	4183
2026-01-19 01:06:43.15	141.77	33.62	-35.7	-37.2	17.9	0.00e+00	0	61	0	2469396480	43	4163
2026-01-19 01:06:44.16	142.06	33.47	-35.8	-37.3	17.8	0.00e+00	0	62	0	2474639360	43	4206
2026-01-19 01:06:45.17	142.35	33.32	-35.8	-37.4	17.7	0.00e+00	0	62	0	2479882240	43	4249
2026-01-19 01:06:46.18	142.63	33.17	-35.9	-37.5	17.6	0.00e+00	0	61	0	2486173696	43	4326
2026-01-19 01:06:47.19	142.91	33.03	-35.9	-37.5	17.6	0.00e+00	0	61	0	2491416576	43	4318
2026-01-19 01:06:48.20	143.18	32.88	-36.0	-37.5	17.6	0.00e+00	0	61	0	2497708032	43	4323
2026-01-19 01:06:49.21	143.46	32.73	-35.9	-37.5	17.6	0.00e+00	0	62	0	2502950912	43	4309
2026-01-19 01:06:50.22	143.73	32.58	-35.9	-37.4	17.7	0.00e+00	0	62	0	2508193792	43	4273
2026-01-19 01:06:51.23	144.00	32.44	-35.8	-37.3	17.8	0.00e+00	0	62	0	2514485248	43	4200
2026-01-19 01:06:52.23	144.26	32.29	-35.7	-37.2	17.9	0.00e+00	0	62	0	2519728128	43	4148
2026-01-19 01:06:53.24	144.53	32.14	-35.8	-37.3	17.7	0.00e+00	0	62	0	2526019584	43	4228
2026-01-19 01:06:54.25	144.79	31.99	-35.9	-37.5	17.6	0.00e+00	0	62	0	2531262464	43	4299
2026-01-19 01:06:55.26	145.05	31.85	-35.9	-37.5	17.5	0.00e+00	0	62	0	2537553920	43	4332
2026-01-19 01:06:56.27	145.31	31.70	-36.0	-37.6	17.5	0.00e+00	0	61	0	2542796800	43	4365
2026-01-19 01:06:57.28	145.57	31.55	-36.0	-37.6	17.5	0.00e+00	0	61	0	2548039680	43	4350
2026-01-19 01:06:58.29	145.82	31.41	-36.0	-37.6	17.5	0.00e+00	0	61	0	2554331136	43	4343
2026-01-19 01:06:59.30	146.07	31.26	-35.9	-37.4	17.6	0.00e+00	0	62	0	2559574016	43	4288
2026-01-19 01:07:00.31	146.32	31.11	-35.9	-37.4	17.6	0.00e+00	0	62	0	2565865472	43	4262
2026-01-19 01:07:01.32	146.57	30.97	-36.0	-37.5	17.5	0.00e+00	0	62	0	2571108352	43	4335
2026-01-19 01:07:02.33	146.81	30.82	-36.1	-37.6	17.4	0.00e+00	0	62	0	2577399808	43	4377
2026-01-19 01:07:03.34	147.05	30.67	-36.1	-37.7	17.4	0.00e+00	0	62	0	2582642688	43	4411
2026-01-19 01:07:04.35	147.29	30.53	-36.2	-37.8	17.3	0.00e+00	0	62	0	2587885568	43	4447
2026-01-19 01:07:05.36	147.53	30.38	-36.2	-37.8	17.3	0.00e+00	0	62	0	2594177024	43	4482
2026-01-19 01:07:06.37	147.77	30.24	-36.3	-37.9	17.2	0.00e+00	0	62	0	2599419904	43	4513
2026-01-19 01:07:07.38	148.00	30.09	-36.3	-37.9	17.1	0.00e+00	0	62	0	2605711360	43	4535
2026-01-19 01:07:08.39	148.23	29.94	-36.2	-37.8	17.3	0.00e+00	0	62	0	2610954240	43	4447
2026-01-19 01:07:09.39	148.46	29.80	-36.1	-37.6	17.4	0.00e+00	0	62	0	2616197120	43	4385
2026-01-19 01:07:10.40	148.69	29.66	-36.0	-37.6	17.5	0.00e+00	0	62	0	2622488576	43	4356
2026-01-19 01:07:11.41	148.91	29.51	-35.9	-37.5	17.6	0.00e+00	0	61	0	2627731456	43	4305
2026-01-19 01:07:12.42	149.14	29.37	-36.0	-37.5	17.5	0.00e+00	0	62	0	2632974336	43	4320
2026-01-19 01:07:13.43	149.36	29.22	-35.9	-37.4	17.6	0.00e+00	0	61	0	2639265792	43	4281
2026-01-19 01:07:14.44	149.58	29.08	-35.9	-37.4	17.6	0.00e+00	0	62	0	2644508672	43	4269
2026-01-19 01:07:15.45	149.80	28.94	-35.9	-37.5	17.6	0.00e+00	0	61	0	2650800128	43	4303
2026-01-19 01:07:16.46	150.01	28.79	-36.0	-37.5	17.5	0.00e+00	0	62	0	2656043008	43	4321
2026-01-19 01:07:17.47	150.23	28.65	-36.0	-37.5	17.5	0.00e+00	0	61	0	2662334464	43	4319
2026-01-19 01:07:18.48	150.44	28.51	-36.0	-37.5	17.5	0.00e+00	0	62	0	2667577344	43	4333
2026-01-19 01:07:19.49	150.65	28.37	-36.0	-37.5	17.5	0.00e+00	0	62	0	2673868800	43	4327
2026-01-19 01:07:20.50	150.86	28.22	-36.0	-37.5	17.5	0.00e+00	0	61	0	2679111680	43	4325
2026-01-19 01:07:21.51	151.07	28.08	-35.9	-37.4	17.6	0.00e+00	0	61	0	2684354560	43	4290
2026-01-19 01:07:22.52	151.27	27.94	-36.0	-37.6	17.5	0.00e+00	0	61	0	2690646016	43	4355
2026-01-19 01:07:23.53	151.47	27.80	-36.1	-37.6	17.4	0.00e+00	0	62	0	2695888896	43	4380
2026-01-19 01:07:24.54	151.68	27.66	-36.2	-37.8	17.3	0.00e+00	0	61	0	2702180352	43	4456
2026-01-19 01:07:25.55	151.88	27.52	-36.2	-37.8	17.3	0.00e+00	0	62	0	2707423232	43	4450
2026-01-19 01:07:26.56	152.07	27.38	-36.3	-37.9	17.1	0.00e+00	0	62	0	2712666112	43	4523
2026-01-19 01:07:27.57	152.27	27.24	-36.3	-37.9	17.1	0.00e+00	0	61	0	2718957568	43	4543
2026-01-19 01:07:28.58	152.47	27.10	-36.3	-37.9	17.1	0.00e+00	0	62	0	2724200448	43	4531
2026-01-19 01:07:29.59	152.66	26.96	-36.4	-38.0	17.0	0.00e+00	0	61	0	2730491904	43	4572
2026-01-19 01:07:30.60	152.85	26.83	-36.4	-38.0	17.0	0.00e+00	0	62	0	2735734784	43	4580
2026-01-19 01:07:31.61	153.04	26.69	-36.3	-38.0	17.1	0.00e+00	0	62	0	2740977664	43	4550
2026-01-19 01:07:32.62	153.23	26.55	-36.4	-38.0	17.0	0.00e+00	0	62	0	2747269120	43	4563
2026-01-19 01:07:33.63	153.42	26.41	-36.2	-37.8	17.2	0.00e+00	0	62	0	2752512000	43	4454
2026-01-19 01:07:34.64	153.60	26.28	-36.1	-37.6	17.3	0.00e+00	0	62	0	2758803456	43	4389
2026-01-19 01:07:35.65	153.78	26.14	-36.2	-37.8	17.2	0.00e+00	0	62	0	2764046336	43	4453
2026-01-19 01:07:36.66	153.97	26.00	-36.2	-37.8	17.2	0.00e+00	0	62	0	2770337792	43	4449
2026-01-19 01:07:37.67	154.15	25.87	-36.1	-37.7	17.3	0.00e+00	0	62	0	2775580672	43	4405
2026-01-19 01:07:38.68	154.33	25.73	-36.2	-37.8	17.2	0.00e+00	0	62	0	2781872128	43	4458
2026-01-19 01:07:39.69	154.50	25.60	-36.3	-37.9	17.1	0.00e+00	0	62	0	2787115008	43	4504
2026-01-19 01:07:40.70	154.68	25.46	-36.4	-38.0	17.0	0.00e+00	0	62	0	2792357888	43	4568
2026-01-19 01:07:41.71	154.85	25.33	-36.4	-38.1	16.9	0.00e+00	0	62	0	2798649344	43	4614
2026-01-19 01:07:42.72	155.03	25.20	-36.5	-38.2	16.8	0.00e+00	0	62	0	2803892224	43	4667
2026-01-19 01:07:43.73	155.20	25.06	-36.6	-38.3	16.7	0.00e+00	0	62	0	2810183680	43	4718
2026-01-19 01:07:44.74	155.37	24.93	-36.5	-38.2	16.9	0.00e+00	0	62	0	2815426560	43	4653
2026-01-19 01:07:45.75	155.54	24.80	-36.3	-38.0	17.0	0.00e+00	0	62	0	2820669440	43	4577
2026-01-19 01:07:46.76	155.71	24.66	-36.3	-38.0	17.0	0.00e+00	0	62	0	2826960896	43	4569
2026-01-19 01:07:47.77	155.87	24.53	-36.4	-38.0	16.9	0.00e+00	0	62	0	2832203776	43	4584
2026-01-19 01:07:48.78	156.04	24.40	-36.4	-38.0	17.0	0.00e+00	0	62	0	2838495232	43	4571
2026-01-19 01:07:49.79	156.20	24.27	-36.4	-38.0	16.9	0.00e+00	0	62	0	2843738112	43	4589
2026-01-19 01:07:50.79	156.36	24.14	-36.3	-37.9	17.0	0.00e+00	0	62	0	2848980992	43	4527
2026-01-19 01:07:51.80	156.52	24.01	-36.4	-38.0	16.9	0.00e+00	0	62	0	2855272448	43	4575
2026-01-19 01:07:52.81	156.68	23.88	-36.5	-38.1	16.9	0.00e+00	0	62	0	2860515328	43	4620
2026-01-19 01:07:53.82	156.84	23.75	-36.6	-38.2	16.8	0.00e+00	0	62	0	2866806784	43	4678
2026-01-19 01:07:54.83	157.00	23.63	-36.5	-38.1	16.8	0.00e+00	0	62	0	2872049664	43	4626
2026-01-19 01:07:55.84	157.16	23.50	-36.5	-38.1	16.8	0.00e+00	0	62	0	2878341120	43	4642
2026-01-19 01:07:56.85	157.31	23.37	-36.6	-38.3	16.6	0.00e+00	0	62	0	2883584000	43	4725
2026-01-19 01:07:57.86	157.46	23.24	-36.6	-38.2	16.7	0.00e+00	0	62	0	2888826880	43	4687
2026-01-19 01:07:58.87	157.62	23.11	-36.6	-38.3	16.6	0.00e+00	0	62	0	2895118336	43	4721
2026-01-19 01:07:59.88	157.77	22.99	-36.5	-38.2	16.7	0.00e+00	0	62	0	2900361216	43	4660
2026-01-19 01:08:00.89	157.92	22.86	-36.6	-38.3	16.7	0.00e+00	0	61	0	2906652672	43	4709
2026-01-19 01:08:01.90	158.07	22.74	-36.6	-38.2	16.7	0.00e+00	0	62	0	2911895552	43	4691
2026-01-19 01:08:02.91	158.21	22.61	-36.6	-38.3	16.6	0.00e+00	0	62	0	2917138432	43	4744
2026-01-19 01:08:03.92	158.36	22.49	-36.9	-38.6	16.4	0.00e+00	0	62	0	2923429888	44	4642
2026-01-19 01:08:04.93	158.51	22.36	-37.0	-38.8	16.3	0.00e+00	0	62	0	2928672768	44	4707
2026-01-19 01:08:05.94	158.65	22.24	-37.1	-38.9	16.2	0.00e+00	0	62	0	2934964224	44	4780
2026-01-19 01:08:06.95	158.79	22.11	-37.2	-39.0	16.1	0.00e+00	0	62	0	2940207104	44	4833
2026-01-19 01:08:07.96	158.93	21.99	-37.2	-39.0	16.0	0.00e+00	0	62	0	2945449984	44	4853
2026-01-19 01:08:08.97	159.08	21.87	-37.2	-39.0	16.0	0.00e+00	0	62	0	2951741440	45	4586
2026-01-19 01:08:09.98	159.22	21.75	-37.2	-39.0	16.0	0.00e+00	0	62	0	2956984320	45	4588
2026-01-19 01:08:10.99	159.35	21.62	-37.2	-38.9	16.1	0.00e+00	0	62	0	2963275776	45	4541
2026-01-19 01:08:11.99	159.49	21.50	-37.2	-38.9	16.1	0.00e+00	0	62	0	2968518656	45	4539
2026-01-19 01:08:13.01	159.63	21.38	-37.1	-38.9	16.2	0.00e+00	0	62	0	2974810112	45	4512
2026-01-19 01:08:14.02	159.76	21.26	-37.1	-38.9	16.2	0.00e+00	0	62	0	2980052992	45	4507
2026-01-19 01:08:15.03	159.90	21.14	-37.1	-38.8	16.2	0.00e+00	0	62	0	2986344448	45	4475
2026-01-19 01:08:16.03	160.03	21.02	-37.1	-38.9	16.2	0.00e+00	0	62	0	2991587328	45	4506
2026-01-19 01:08:17.04	160.16	20.90	-37.1	-38.8	16.3	0.00e+00	0	62	0	2996830208	45	4449
2026-01-19 01:08:18.05	160.29	20.78	-37.0	-38.7	16.3	0.00e+00	0	62	0	3003121664	45	4421
2026-01-19 01:08:19.06	160.43	20.66	-37.0	-38.7	16.3	0.00e+00	0	62	0	3008364544	45	4404
2026-01-19 01:08:20.07	160.55	20.55	-37.1	-38.8	16.2	0.00e+00	0	61	0	3013607424	45	4479
2026-01-19 01:08:21.08	160.68	20.43	-37.1	-38.9	16.1	0.00e+00	0	62	0	3019898880	45	4508
2026-01-19 01:08:22.09	160.81	20.31	-37.2	-39.0	16.1	0.00e+00	0	62	0	3025141760	45	4550
2026-01-19 01:08:23.10	160.94	20.19	-37.2	-39.0	16.1	0.00e+00	0	62	0	3031433216	45	4547
2026-01-19 01:08:24.11	161.06	20.08	-37.2	-39.0	16.0	0.00e+00	0	62	0	3036676096	45	4559
2026-01-19 01:08:25.12	161.19	19.96	-37.3	-39.1	15.9	0.00e+00	0	62	0	3041918976	45	4602
2026-01-19 01:08:26.13	161.31	19.85	-37.3	-39.1	15.9	0.00e+00	0	62	0	3048210432	45	4631
2026-01-19 01:08:27.14	161.44	19.73	-37.3	-39.1	15.9	0.00e+00	0	62	0	3053453312	45	4615
2026-01-19 01:08:28.15	161.56	19.62	-37.3	-39.1	15.9	0.00e+00	0	62	0	3059744768	45	4609
2026-01-19 01:08:29.15	161.68	19.50	-37.2	-38.9	16.0	0.00e+00	0	62	0	3064987648	45	4536
2026-01-19 01:08:30.16	161.80	19.39	-37.2	-39.0	16.0	0.00e+00	0	62	0	3071279104	45	4546
2026-01-19 01:08:31.17	161.92	19.28	-37.2	-39.0	16.0	0.00e+00	0	62	0	3076521984	45	4569
2026-01-19 01:08:32.18	162.04	19.16	-37.3	-39.1	15.9	0.00e+00	0	62	0	3082813440	45	4601
2026-01-19 01:08:33.20	162.16	19.05	-37.3	-39.1	15.8	0.00e+00	0	62	0	3088056320	45	4631
2026-01-19 01:08:34.20	162.27	18.94	-37.4	-39.2	15.7	0.00e+00	0	62	0	3093299200	45	4679
2026-01-19 01:08:35.22	162.39	18.82	-37.5	-39.3	15.7	0.00e+00	0	62	0	3099590656	45	4724
2026-01-19 01:08:36.22	162.50	18.71	-37.6	-39.4	15.5	0.00e+00	0	62	0	3104833536	45	4798
2026-01-19 01:08:37.23	162.62	18.60	-37.6	-39.4	15.5	0.00e+00	0	62	0	3111124992	45	4811
2026-01-19 01:08:38.24	162.73	18.49	-37.6	-39.6	15.4	0.00e+00	0	62	0	3116367872	45	4871
2026-01-19 01:08:39.25	162.85	18.38	-37.7	-39.6	15.3	0.00e+00	0	62	0	3121610752	45	4900
2026-01-19 01:08:40.26	162.96	18.27	-37.7	-39.7	15.3	0.00e+00	0	62	0	3127902208	46	4667
2026-01-19 01:08:41.27	163.07	18.16	-37.8	-39.8	15.2	0.00e+00	0	62	0	3133145088	46	4718
2026-01-19 01:08:42.28	163.18	18.05	-37.9	-39.8	15.1	0.00e+00	0	62	0	3139436544	46	4743
2026-01-19 01:08:43.29	163.29	17.94	-37.9	-39.8	15.1	0.00e+00	0	62	0	3144679424	46	4742
2026-01-19 01:08:44.30	163.40	17.83	-37.8	-39.7	15.2	0.00e+00	0	62	0	3149922304	46	4679
2026-01-19 01:08:45.31	163.51	17.73	-37.8	-39.7	15.2	0.00e+00	0	62	0	3156213760	46	4675
2026-01-19 01:08:46.32	163.61	17.62	-37.7	-39.6	15.2	0.00e+00	0	62	0	3161456640	46	4645
2026-01-19 01:08:47.33	163.72	17.51	-37.7	-39.6	15.3	0.00e+00	0	62	0	3167748096	46	4621
2026-01-19 01:08:48.34	163.83	17.40	-37.8	-39.7	15.2	0.00e+00	0	62	0	3172990976	46	4666
2026-01-19 01:08:49.35	163.93	17.30	-37.7	-39.5	15.3	0.00e+00	0	62	0	3179282432	46	4596
2026-01-19 01:08:50.35	164.04	17.19	-37.7	-39.5	15.3	0.00e+00	0	62	0	3184525312	46	4594
2026-01-19 01:08:51.36	164.14	17.09	-37.7	-39.6	15.2	0.00e+00	0	61	0	3189768192	46	4647
2026-01-19 01:08:52.37	164.24	16.98	-37.8	-39.7	15.2	0.00e+00	0	62	0	3196059648	46	4676
2026-01-19 01:08:53.38	164.35	16.87	-37.9	-39.8	15.1	0.00e+00	0	62	0	3201302528	46	4741
2026-01-19 01:08:54.39	164.45	16.77	-37.8	-39.7	15.1	0.00e+00	0	62	0	3207593984	46	4688
2026-01-19 01:08:55.40	164.55	16.67	-37.8	-39.7	15.1	0.00e+00	0	61	0	3212836864	46	4700
2026-01-19 01:08:56.41	164.65	16.56	-37.9	-39.9	15.0	0.00e+00	0	62	0	3218079744	46	4760
2026-01-19 01:08:57.42	164.75	16.46	-37.9	-39.9	15.0	0.00e+00	0	62	0	3224371200	46	4772
2026-01-19 01:08:58.43	164.85	16.35	-38.0	-39.9	14.9	0.00e+00	0	62	0	3229614080	46	4813
2026-01-19 01:08:59.44	164.95	16.25	-38.0	-40.0	14.9	0.00e+00	0	62	0	3235905536	46	4833
2026-01-19 01:09:00.45	165.05	16.15	-38.0	-40.0	14.8	0.00e+00	0	62	0	3241148416	46	4864
2026-01-19 01:09:01.45	165.14	16.05	-38.1	-40.1	14.7	0.00e+00	0	62	0	3246391296	46	4912
2026-01-19 01:09:02.46	165.24	15.95	-38.2	-40.2	14.6	0.00e+00	0	62	0	3252682752	46	4946
2026-01-19 01:09:03.47	165.34	15.84	-38.2	-40.3	14.6	0.00e+00	0	62	0	3257925632	47	4716
2026-01-19 01:09:04.48	165.43	15.74	-38.2	-40.2	14.6	0.00e+00	0	62	0	3264217088	47	4679
2026-01-19 01:09:05.49	165.53	15.64	-38.2	-40.2	14.6	0.00e+00	0	62	0	3269459968	47	4683
2026-01-19 01:09:06.50	165.62	15.54	-38.3	-40.3	14.5	0.00e+00	0	62	0	3275751424	47	4745
2026-01-19 01:09:07.51	165.71	15.44	-38.2	-40.3	14.5	1.10e-06	0	62	0	3280994304	47	4729
2026-01-19 01:09:08.52	165.81	15.34	-38.3	-40.3	14.5	0.00e+00	0	62	0	3286237184	47	4741
2026-01-19 01:09:09.53	165.90	15.24	-38.2	-40.3	14.5	2.20e-06	0	62	0	3292528640	47	4706
2026-01-19 01:09:10.54	165.99	15.14	-38.2	-40.2	14.5	1.10e-06	0	62	0	3297771520	47	4703
2026-01-19 01:09:11.55	166.08	15.04	-38.2	-40.3	14.5	0.00e+00	0	62	0	3304062976	47	4712
2026-01-19 01:09:12.56	166.17	14.95	-38.2	-40.3	14.5	1.10e-06	0	62	0	3309305856	47	4722
2026-01-19 01:09:13.57	166.26	14.85	-38.4	-40.5	14.3	1.10e-06	0	62	0	3314548736	47	4816
2026-01-19 01:09:14.58	166.35	14.75	-38.3	-40.4	14.4	0.00e+00	0	62	0	3320840192	47	4764
2026-01-19 01:09:15.59	166.44	14.65	-38.4	-40.4	14.3	1.10e-06	0	62	0	3326083072	47	4806
2026-01-19 01:09:16.60	166.53	14.55	-38.4	-40.5	14.3	1.10e-06	0	62	0	3332374528	47	4821
2026-01-19 01:09:17.61	166.62	14.46	-38.4	-40.5	14.2	0.00e+00	0	62	0	3337617408	47	4822
2026-01-19 01:09:18.62	166.70	14.36	-38.5	-40.6	14.1	5.70e-06	0	62	0	3342860288	47	4917
2026-01-19 01:09:19.62	166.79	14.27	-38.5	-40.6	14.1	1.10e-06	0	62	0	3349151744	47	4893
2026-01-19 01:09:20.63	166.88	14.17	-38.5	-40.7	14.0	1.10e-06	0	62	0	3354394624	47	4929
2026-01-19 01:09:21.64	166.96	14.07	-38.5	-40.6	14.1	4.50e-06	0	62	0	3360686080	47	4902
2026-01-19 01:09:22.65	167.05	13.98	-38.5	-40.6	14.1	3.40e-06	0	62	0	3365928960	47	4919
2026-01-19 01:09:23.66	167.13	13.88	-38.5	-40.7	14.0	5.70e-06	0	62	0	3372220416	47	4954
2026-01-19 01:09:24.67	167.22	13.79	-38.6	-40.8	13.9	9.10e-06	0	62	0	3377463296	47	5002
2026-01-19 01:09:25.68	167.30	13.70	-38.6	-40.7	13.9	1.02e-05	0	62	0	3383754752	47	4981
2026-01-19 01:09:26.69	167.38	13.60	-38.6	-40.7	13.9	5.70e-06	0	62	0	3388997632	47	4979
2026-01-19 01:09:27.70	167.47	13.51	-38.5	-40.7	13.9	6.80e-06	0	62	0	3394240512	47	4971
2026-01-19 01:09:28.71	167.55	13.41	-38.5	-40.7	13.9	4.50e-06	0	62	0	3400531968	47	4960
2026-01-19 01:09:29.72	167.63	13.32	-38.5	-40.7	13.9	2.20e-06	0	62	0	3405774848	47	4962
2026-01-19 01:09:30.73	167.71	13.23	-38.6	-40.8	13.8	9.10e-06	0	62	0	3412066304	47	5031
2026-01-19 01:09:31.74	167.79	13.14	-38.5	-40.7	13.9	5.70e-06	0	62	0	3417309184	47	4960
2026-01-19 01:09:32.75	167.87	13.04	-38.6	-40.8	13.8	6.80e-06	0	62	0	3422552064	47	4985
2026-01-19 01:09:33.76	167.95	12.95	-38.6	-40.8	13.8	5.70e-06	0	62	0	3428843520	47	5005
2026-01-19 01:09:34.77	168.03	12.86	-38.6	-40.8	13.8	6.80e-06	0	62	0	3434086400	47	4985
2026-01-19 01:09:35.78	168.11	12.77	-38.6	-40.8	13.7	1.60e-05	0	62	0	3440377856	47	5036
