passes_logs/2026/01/19/R2.0S_Moscow/R2.0S_Moscow__20260119_081141_SUOMI_NPP_rec.log

#Pass ID: 20260119_081141_SUOMI NPP
#Satellite: SUOMI NPP
#Configuration: NPP
#almurnet v.1.7.20251203
#Start time: 2026-01-19 08:11:42

#Version: 2.2.20231116
#Station: R2.0S_Moscow
#Location: 37.707566 lon 55.798166 lat
#TLE: 1 37849U 11061A   26017.92342359  .00000077  00000+0  57567-4 0  9990
#TLE: 2 37849  98.7814 319.9468 0002389  58.5705 301.5704 14.19525998737125

#Time	Az	El	Level	Level2	SNR	BER	BlckErr	Temp	State	Recorded	gain1	gain2
2026-01-19 08:11:42.44	107.52	2.07	-22.8	-41.3	3.8	1.50e+00	0	52	0	0	13	37413
2026-01-19 08:11:43.44	107.45	2.13	-32.3	-47.4	3.4	1.50e+00	0	52	104	0	18	57169
2026-01-19 08:11:44.45	107.38	2.18	-31.3	-48.1	4.1	1.50e+00	0	52	104	0	33	26026
2026-01-19 08:11:45.46	107.30	2.24	-28.3	-45.9	4.2	1.50e+00	0	53	104	0	35	17961
2026-01-19 08:11:46.47	107.23	2.29	-32.3	-48.5	4.0	1.50e+00	0	52	104	0	28	36345
2026-01-19 08:11:47.48	107.16	2.35	-21.2	-38.2	3.7	1.50e+00	0	52	104	0	17	20921
2026-01-19 08:11:48.49	107.08	2.41	-29.4	-47.1	3.9	1.51e+00	0	53	104	0	26	34667
2026-01-19 08:11:49.50	107.01	2.46	-26.8	-45.1	4.0	1.50e+00	0	53	104	0	26	27432
2026-01-19 08:11:50.51	106.93	2.52	-28.2	-48.2	4.3	1.50e+00	0	53	104	0	38	19754
2026-01-19 08:11:51.52	106.86	2.57	-26.8	-48.2	4.2	1.50e+00	0	53	104	0	37	21001
2026-01-19 08:11:52.53	106.78	2.63	-32.1	-49.5	4.0	1.50e+00	0	53	104	0	36	25642
2026-01-19 08:11:53.54	106.71	2.69	-34.0	-51.3	4.4	1.50e+00	0	53	104	0	38	28280
2026-01-19 08:11:54.55	106.63	2.74	-25.7	-46.8	3.9	1.50e+00	0	53	104	0	33	22385
2026-01-19 08:11:55.56	106.55	2.80	-26.8	-43.3	3.6	1.50e+00	0	53	104	0	25	23745
2026-01-19 08:11:56.57	106.48	2.86	-31.4	-46.1	3.9	1.50e+00	0	53	104	0	32	21858
2026-01-19 08:11:57.58	106.40	2.91	-32.3	-45.8	3.8	1.50e+00	0	53	104	0	25	31608
2026-01-19 08:11:58.59	106.32	2.97	-19.9	-40.8	3.8	1.51e+00	0	53	104	0	11	39980
2026-01-19 08:11:59.60	106.24	3.03	-32.5	-47.7	3.7	1.50e+00	0	53	104	0	29	31124
2026-01-19 08:12:00.61	106.17	3.08	-18.8	-39.2	4.2	1.50e+00	0	54	104	0	14	27984
2026-01-19 08:12:01.62	106.09	3.14	-19.6	-40.1	3.9	1.50e+00	0	53	104	0	13	32859
2026-01-19 08:12:02.64	106.01	3.20	-17.2	-38.6	3.6	1.50e+00	0	54	104	0	9	34810
2026-01-19 08:12:03.64	105.93	3.25	-20.3	-43.8	3.7	1.50e+00	0	54	104	0	13	50113
2026-01-19 08:12:04.65	105.85	3.31	-16.8	-38.8	3.7	1.51e+00	0	54	104	0	7	39790
2026-01-19 08:12:05.66	105.77	3.37	-23.5	-39.4	3.7	1.50e+00	0	54	104	0	8	40490
2026-01-19 08:12:06.67	105.69	3.42	-18.7	-38.4	3.8	1.50e+00	0	54	104	0	5	42696
2026-01-19 08:12:07.68	105.61	3.48	-31.9	-45.7	3.9	1.50e+00	0	54	104	0	29	24838
2026-01-19 08:12:08.70	105.53	3.54	-16.4	-38.5	4.0	1.50e+00	0	54	104	0	7	38286
2026-01-19 08:12:09.71	105.45	3.60	-18.8	-38.9	3.6	1.50e+00	0	54	104	0	19	20225
2026-01-19 08:12:10.72	105.37	3.65	-20.3	-38.7	3.6	1.50e+00	0	54	104	0	10	33306
2026-01-19 08:12:11.73	105.29	3.71	-25.3	-45.1	3.9	1.50e+00	0	54	104	0	33	18311
2026-01-19 08:12:12.74	105.21	3.77	-27.0	-47.0	4.3	1.50e+00	0	54	104	0	32	24176
2026-01-19 08:12:13.75	105.12	3.82	-34.8	-50.1	4.3	1.50e+00	0	54	104	0	36	27654
2026-01-19 08:12:14.76	105.04	3.88	-34.6	-49.8	3.8	1.50e+00	0	54	104	0	35	28306
2026-01-19 08:12:15.77	104.96	3.94	-30.6	-45.9	4.3	1.50e+00	0	54	104	0	30	23981
2026-01-19 08:12:16.78	104.88	4.00	-23.4	-40.9	4.0	1.50e+00	0	54	104	0	19	25410
2026-01-19 08:12:17.79	104.79	4.06	-34.2	-49.7	4.1	1.50e+00	0	54	104	0	34	29508
2026-01-19 08:12:18.80	104.71	4.11	-32.2	-47.5	3.9	1.50e+00	0	55	104	0	31	27237
2026-01-19 08:12:19.81	104.63	4.17	-31.0	-46.6	3.6	1.50e+00	0	54	104	0	25	34546
2026-01-19 08:12:20.82	104.54	4.23	-18.4	-39.0	3.9	1.50e+00	0	55	104	0	15	25772
2026-01-19 08:12:21.83	104.46	4.29	-28.2	-42.1	4.3	1.50e+00	0	54	104	0	26	19602
2026-01-19 08:12:22.84	104.37	4.35	-23.5	-40.3	3.7	1.50e+00	0	55	0	0	14	31773
2026-01-19 08:12:23.85	104.29	4.40	-33.3	-47.3	3.8	1.50e+00	0	55	104	0	35	21195
2026-01-19 08:12:24.86	104.20	4.46	-24.8	-41.1	3.7	1.50e+00	0	55	104	0	28	15495
2026-01-19 08:12:25.87	104.11	4.52	-31.2	-47.3	3.8	1.50e+00	0	55	104	0	26	35459
2026-01-19 08:12:26.88	104.03	4.58	-30.8	-47.5	3.8	1.50e+00	0	55	104	0	27	34449
2026-01-19 08:12:27.89	103.94	4.64	-26.2	-45.2	4.2	1.50e+00	0	55	104	0	32	19811
2026-01-19 08:12:28.90	103.85	4.70	-28.8	-44.8	3.9	1.50e+00	0	55	104	0	24	29714
2026-01-19 08:12:29.91	103.77	4.75	-20.7	-42.3	3.7	1.50e+00	0	55	104	0	23	23676
2026-01-19 08:12:30.92	103.68	4.81	-31.9	-45.6	3.7	1.50e+00	0	55	104	0	21	38961
2026-01-19 08:12:31.93	103.59	4.87	-30.1	-47.7	4.1	1.50e+00	0	55	104	0	33	24797
2026-01-19 08:12:32.94	103.50	4.93	-26.7	-43.5	3.7	1.50e+00	0	55	104	0	20	32402
2026-01-19 08:12:33.95	103.41	4.99	-27.7	-40.8	3.8	1.50e+00	0	55	104	0	25	17711
2026-01-19 08:12:34.97	103.32	5.05	-25.3	-44.8	3.7	1.50e+00	0	55	104	0	29	22468
2026-01-19 08:12:35.98	103.23	5.11	-21.6	-40.1	3.5	1.50e+00	0	55	104	0	15	29238
2026-01-19 08:12:36.99	103.14	5.17	-26.2	-43.5	3.9	1.51e+00	0	55	104	0	23	27229
2026-01-19 08:12:38.00	103.05	5.23	-25.7	-41.0	3.7	1.50e+00	0	55	104	0	19	25658
2026-01-19 08:12:39.01	102.96	5.29	-20.7	-39.9	3.9	1.50e+00	0	55	104	0	20	21328
2026-01-19 08:12:40.02	102.87	5.34	-23.1	-42.3	3.8	1.50e+00	0	55	104	0	20	28043
2026-01-19 08:12:41.03	102.78	5.40	-17.1	-42.1	3.7	1.50e+00	0	55	104	0	24	21845
2026-01-19 08:12:42.04	102.69	5.46	-20.0	-41.1	4.0	1.50e+00	0	56	104	0	12	39011
2026-01-19 08:12:43.05	102.59	5.52	-19.9	-40.1	3.7	1.50e+00	0	56	104	0	17	26120
2026-01-19 08:12:44.06	102.50	5.58	-30.9	-48.5	3.7	1.50e+00	0	56	104	0	30	32516
2026-01-19 08:12:45.07	102.41	5.64	-24.6	-45.2	3.8	1.50e+00	0	56	104	0	29	23460
2026-01-19 08:12:46.08	102.31	5.70	-30.5	-42.7	3.9	1.50e+00	0	56	0	0	27	19709
2026-01-19 08:12:47.09	102.22	5.76	-29.7	-47.5	4.0	1.50e+00	0	56	104	0	28	32209
2026-01-19 08:12:48.10	102.12	5.82	-30.7	-46.9	4.2	1.50e+00	0	56	104	0	26	33697
2026-01-19 08:12:49.11	102.03	5.88	-29.7	-44.6	3.7	1.50e+00	0	56	104	0	22	32611
2026-01-19 08:12:50.12	101.93	5.94	-29.0	-46.4	4.0	1.50e+00	0	56	104	0	28	28526
2026-01-19 08:12:51.13	101.84	6.00	-23.2	-40.6	3.9	1.50e+00	0	56	104	0	12	36608
2026-01-19 08:12:52.14	101.74	6.06	-23.6	-43.0	4.1	1.50e+00	0	56	104	0	23	25787
2026-01-19 08:12:53.15	101.65	6.12	-27.1	-49.2	3.9	1.50e+00	0	56	104	0	33	29495
2026-01-19 08:12:54.16	101.55	6.18	-25.1	-42.6	3.8	1.50e+00	0	56	104	0	22	25872
2026-01-19 08:12:55.17	101.45	6.24	-22.0	-41.8	3.9	1.50e+00	0	56	104	0	21	25091
2026-01-19 08:12:56.18	101.36	6.30	-28.5	-46.6	3.6	1.50e+00	0	56	104	0	25	34681
2026-01-19 08:12:57.20	101.26	6.36	-23.8	-41.2	3.7	1.50e+00	0	56	104	0	18	27812
2026-01-19 08:12:58.21	101.16	6.42	-24.3	-46.2	3.9	1.50e+00	0	56	104	0	31	23557
2026-01-19 08:12:59.22	101.06	6.48	-18.5	-39.8	4.2	1.50e+00	0	56	104	0	24	16869
2026-01-19 08:13:00.23	100.96	6.54	-25.2	-42.7	4.0	1.50e+00	0	56	104	0	24	23484
2026-01-19 08:13:01.24	100.86	6.60	-24.3	-42.3	3.9	1.51e+00	0	57	104	0	18	31482
2026-01-19 08:13:02.25	100.76	6.66	-27.3	-42.8	4.0	1.50e+00	0	57	104	0	22	26531
2026-01-19 08:13:03.26	100.66	6.73	-20.2	-38.3	4.1	1.50e+00	0	57	104	0	10	31754
2026-01-19 08:13:04.27	100.56	6.79	-21.7	-38.6	4.0	1.50e+00	0	57	104	0	10	32859
2026-01-19 08:13:05.28	100.46	6.85	-24.3	-40.8	3.8	1.50e+00	0	57	104	0	18	26699
2026-01-19 08:13:06.29	100.35	6.91	-22.2	-41.1	3.7	1.50e+00	0	57	104	0	13	36593
2026-01-19 08:13:07.30	100.25	6.97	-17.4	-40.3	3.9	1.50e+00	0	57	104	0	13	33477
2026-01-19 08:13:08.31	100.15	7.03	-19.2	-38.9	4.0	1.50e+00	0	57	104	0	12	30176
2026-01-19 08:13:09.32	100.05	7.09	-20.3	-40.4	3.7	1.50e+00	0	57	104	0	13	33753
2026-01-19 08:13:10.33	99.94	7.15	-20.5	-39.5	4.1	1.50e+00	0	57	104	0	15	27211
2026-01-19 08:13:11.34	99.84	7.21	-23.0	-40.2	3.9	1.50e+00	0	57	104	0	15	29652
2026-01-19 08:13:12.35	99.73	7.27	-21.2	-39.8	3.9	1.51e+00	0	57	104	0	12	33318
2026-01-19 08:13:13.36	99.63	7.34	-19.5	-38.9	3.9	1.50e+00	0	57	104	0	10	33873
2026-01-19 08:13:14.37	99.52	7.40	-19.3	-40.7	3.6	1.51e+00	0	57	104	0	18	26407
2026-01-19 08:13:15.38	99.42	7.46	-19.9	-39.1	3.7	1.50e+00	0	57	104	0	13	29293
2026-01-19 08:13:16.39	99.31	7.52	-20.7	-39.0	3.6	1.50e+00	0	57	104	0	12	30728
2026-01-19 08:13:17.40	99.20	7.58	-19.8	-38.6	3.7	1.50e+00	0	57	104	0	11	30935
2026-01-19 08:13:18.41	99.10	7.64	-29.8	-45.5	3.8	1.50e+00	0	57	104	0	25	30566
2026-01-19 08:13:19.42	98.99	7.70	-19.8	-37.4	3.5	1.50e+00	0	57	104	0	13	24084
2026-01-19 08:13:20.43	98.88	7.77	-24.2	-38.9	3.8	1.50e+00	0	57	104	0	9	35938
2026-01-19 08:13:21.44	98.77	7.83	-17.4	-38.4	3.9	1.50e+00	0	57	104	0	8	36090
2026-01-19 08:13:22.45	98.66	7.89	-23.5	-40.8	3.9	1.50e+00	0	57	104	0	17	28044
2026-01-19 08:13:23.46	98.55	7.95	-25.1	-40.9	3.8	1.50e+00	0	57	104	0	19	25534
2026-01-19 08:13:24.47	98.44	8.01	-24.9	-42.6	3.8	1.50e+00	0	57	104	0	23	24535
2026-01-19 08:13:25.48	98.33	8.08	-22.1	-40.4	3.7	1.50e+00	0	57	104	0	20	22719
2026-01-19 08:13:26.49	98.22	8.14	-26.6	-44.0	3.9	1.50e+00	0	57	104	0	21	32533
2026-01-19 08:13:27.50	98.11	8.20	-22.1	-41.0	3.8	1.50e+00	0	57	104	0	16	30510
2026-01-19 08:13:28.51	98.00	8.26	-23.9	-44.4	3.7	1.50e+00	0	58	104	0	20	35974
2026-01-19 08:13:29.52	97.89	8.32	-31.4	-45.0	3.9	1.50e+00	0	57	104	0	22	34453
2026-01-19 08:13:30.53	97.77	8.39	-22.6	-40.6	3.9	1.50e+00	0	58	104	0	17	27648
2026-01-19 08:13:31.54	97.66	8.45	-23.8	-42.2	3.9	1.50e+00	0	58	104	0	20	27973
2026-01-19 08:13:32.55	97.55	8.51	-30.9	-46.5	3.6	1.50e+00	0	58	104	0	29	27331
2026-01-19 08:13:33.56	97.43	8.57	-26.0	-43.8	4.2	1.50e+00	0	58	104	0	27	22408
2026-01-19 08:13:34.57	97.32	8.63	-28.1	-44.4	4.0	1.50e+00	0	58	104	0	26	25458
2026-01-19 08:13:35.58	97.20	8.70	-24.1	-41.1	3.9	1.50e+00	0	58	104	0	21	23061
2026-01-19 08:13:36.59	97.09	8.76	-26.4	-44.5	3.9	1.50e+00	0	58	104	0	24	28701
2026-01-19 08:13:37.60	96.97	8.82	-25.4	-43.0	4.1	1.50e+00	0	58	104	0	21	28943
2026-01-19 08:13:38.61	96.85	8.88	-23.2	-41.9	4.0	1.50e+00	0	58	104	0	18	30157
2026-01-19 08:13:39.61	96.74	8.95	-24.7	-41.0	4.0	1.50e+00	0	58	104	0	20	24393
2026-01-19 08:13:40.62	96.62	9.01	-24.3	-44.2	4.1	1.50e+00	0	58	104	0	23	29583
2026-01-19 08:13:41.63	96.50	9.07	-28.8	-45.0	3.8	1.50e+00	0	58	104	0	24	30655
2026-01-19 08:13:42.64	96.38	9.13	-27.1	-45.7	3.6	1.50e+00	0	58	104	0	26	29682
2026-01-19 08:13:43.65	96.26	9.20	-29.7	-47.1	3.7	1.50e+00	0	58	104	0	30	27499
2026-01-19 08:13:44.66	96.14	9.26	-30.7	-49.0	4.1	1.50e+00	0	58	104	0	30	34419
2026-01-19 08:13:45.67	96.02	9.32	-34.3	-49.2	4.0	1.50e+00	0	58	104	0	36	24803
2026-01-19 08:13:46.68	95.90	9.39	-34.6	-50.3	4.0	1.50e+00	0	58	104	0	35	29784
2026-01-19 08:13:47.69	95.78	9.45	-34.6	-50.3	3.9	1.50e+00	0	58	104	0	39	23829
2026-01-19 08:13:48.70	95.65	9.51	-32.1	-49.8	3.9	1.50e+00	0	58	104	0	37	25047
2026-01-19 08:13:49.71	95.53	9.57	-35.6	-52.0	3.9	1.50e+00	0	58	104	0	43	22844
2026-01-19 08:13:50.72	95.41	9.64	-35.7	-50.8	4.0	1.49e+00	0	58	104	0	40	23789
2026-01-19 08:13:51.73	95.28	9.70	-32.4	-50.5	4.0	1.49e+00	0	58	104	0	37	27302
2026-01-19 08:13:52.74	95.16	9.76	-39.0	-54.6	3.9	1.49e+00	0	58	104	0	46	26094
2026-01-19 08:13:53.74	95.04	9.83	-33.9	-52.1	3.8	1.49e+00	0	58	104	0	39	29165
2026-01-19 08:13:54.76	94.91	9.89	-34.9	-51.7	3.9	1.49e+00	0	58	104	0	41	24848
2026-01-19 08:13:55.77	94.78	9.95	-39.2	-54.3	4.0	1.49e+00	0	58	104	0	47	23681
2026-01-19 08:13:56.77	94.66	10.02	-40.0	-54.9	3.7	1.49e+00	0	58	104	0	50	21395
2026-01-19 08:13:57.78	94.53	10.08	-35.9	-52.8	3.9	1.49e+00	0	58	104	0	43	25139
2026-01-19 08:13:58.79	94.40	10.14	-39.2	-55.0	3.8	1.49e+00	0	58	104	0	49	23012
2026-01-19 08:13:59.80	94.28	10.21	-40.1	-52.8	4.2	1.48e+00	0	58	104	0	51	15870
2026-01-19 08:14:00.81	94.15	10.27	-40.4	-54.8	3.8	1.45e+00	0	58	104	0	52	18919
2026-01-19 08:14:01.82	94.02	10.33	-40.1	-53.8	3.9	1.48e+00	0	58	104	0	51	17806
2026-01-19 08:14:02.83	93.89	10.40	-38.3	-51.2	4.3	1.49e+00	0	58	104	0	51	13239
2026-01-19 08:14:03.84	93.76	10.46	-39.4	-50.7	4.8	9.91e-01	0	58	0	0	50	13211
2026-01-19 08:14:04.85	93.63	10.52	-40.6	-50.2	5.1	9.15e-01	0	58	0	2097152	51	11786
2026-01-19 08:14:05.86	93.49	10.59	-39.9	-50.7	4.9	6.92e-01	0	58	0	4194304	51	12405
2026-01-19 08:14:06.87	93.36	10.65	-41.1	-51.4	4.6	7.79e-01	0	58	0	6291456	52	12761
2026-01-19 08:14:07.88	93.23	10.71	-40.4	-51.2	4.7	1.05e+00	0	59	0	7340032	53	11797
2026-01-19 08:14:08.89	93.10	10.78	-41.7	-50.4	5.6	7.41e-01	0	58	0	9437184	53	10718
2026-01-19 08:14:09.90	92.96	10.84	-40.7	-53.0	4.0	6.09e-01	0	58	0	11534336	52	15258
2026-01-19 08:14:10.91	92.83	10.90	-42.3	-52.4	4.7	4.27e-01	0	59	0	11534336	55	12024
2026-01-19 08:14:11.92	92.69	10.97	-41.7	-53.2	4.2	1.21e+00	0	59	0	12582912	54	13912
2026-01-19 08:14:12.93	92.56	11.03	-40.7	-53.1	4.3	3.86e-01	0	59	0	14680064	54	13791
2026-01-19 08:14:13.94	92.42	11.09	-41.2	-50.2	5.5	8.48e-01	0	59	0	14680064	53	10497
2026-01-19 08:14:14.95	92.28	11.16	-41.4	-49.6	6.0	4.11e-01	0	58	0	16777216	53	9755
2026-01-19 08:14:15.96	92.14	11.22	-40.9	-50.1	5.7	4.05e-01	0	59	0	18874368	53	10355
2026-01-19 08:14:16.97	92.01	11.28	-41.1	-50.1	5.7	4.48e-01	0	59	0	19922944	53	10315
2026-01-19 08:14:17.98	91.87	11.35	-41.3	-49.1	6.5	2.93e-01	0	59	0	22020096	53	9200
2026-01-19 08:14:18.99	91.73	11.41	-41.4	-49.6	6.0	3.02e-01	0	59	0	24117248	53	9830
2026-01-19 08:14:20.00	91.59	11.47	-41.7	-49.9	6.0	2.50e-01	0	59	0	26214400	53	10107
2026-01-19 08:14:21.01	91.45	11.54	-41.6	-53.3	4.1	3.02e-01	0	59	0	28311552	53	14988
2026-01-19 08:14:22.02	91.31	11.60	-41.3	-50.6	5.3	4.79e-01	0	59	0	29360128	53	11007
2026-01-19 08:14:23.03	91.16	11.66	-42.5	-55.7	3.8	1.09e+00	0	59	104	30408704	55	17583
2026-01-19 08:14:24.03	91.02	11.73	-41.3	-52.5	4.3	1.74e-01	0	59	0	30408704	53	13659
2026-01-19 08:14:25.04	90.88	11.79	-40.7	-48.5	6.9	7.51e-01	0	59	0	32505856	52	9096
2026-01-19 08:14:26.05	90.74	11.85	-40.8	-50.4	5.3	3.97e-01	0	59	0	34603008	52	11338
2026-01-19 08:14:27.06	90.59	11.92	-41.2	-51.8	4.5	8.11e-01	0	59	0	35651584	52	13268
2026-01-19 08:14:28.07	90.45	11.98	-41.2	-53.9	3.8	1.37e+00	0	59	104	36700160	53	16075
2026-01-19 08:14:29.08	90.30	12.04	-40.6	-54.3	3.8	1.49e+00	0	59	104	36700160	52	17871
2026-01-19 08:14:30.09	90.15	12.11	-41.2	-55.5	3.8	1.49e+00	0	59	104	36700160	53	19194
2026-01-19 08:14:31.10	90.01	12.17	-40.7	-55.6	3.8	1.49e+00	0	59	104	36700160	52	20720
2026-01-19 08:14:32.11	89.86	12.23	-41.4	-56.2	3.8	1.49e+00	0	59	104	36700160	53	20956
2026-01-19 08:14:33.12	89.71	12.30	-41.6	-56.3	3.8	1.49e+00	0	59	104	36700160	53	21084
2026-01-19 08:14:34.13	89.56	12.36	-42.0	-56.8	3.8	1.49e+00	0	59	104	36700160	54	21060
2026-01-19 08:14:35.14	89.41	12.42	-40.7	-55.7	3.8	1.49e+00	0	59	104	36700160	52	20855
2026-01-19 08:14:36.15	89.26	12.49	-41.0	-55.8	3.8	1.49e+00	0	59	104	36700160	52	21077
2026-01-19 08:14:37.16	89.11	12.55	-40.3	-55.7	3.8	1.49e+00	0	59	104	36700160	52	20923
2026-01-19 08:14:38.17	88.96	12.61	-41.1	-55.5	3.8	1.49e+00	0	59	104	36700160	51	21588
2026-01-19 08:14:39.18	88.81	12.68	-41.3	-56.2	3.9	1.49e+00	0	59	104	36700160	52	22162
2026-01-19 08:14:40.19	88.66	12.74	-40.8	-55.8	3.8	1.49e+00	0	59	104	36700160	52	21165
2026-01-19 08:14:41.20	88.50	12.80	-42.0	-56.4	3.8	1.49e+00	0	59	104	36700160	54	20134
2026-01-19 08:14:42.21	88.35	12.87	-40.8	-55.6	3.8	1.49e+00	0	59	104	36700160	53	19567
2026-01-19 08:14:43.22	88.19	12.93	-39.7	-55.4	3.9	1.49e+00	0	59	104	36700160	52	20074
2026-01-19 08:14:44.23	88.04	12.99	-41.0	-55.7	3.8	1.49e+00	0	59	104	36700160	52	20965
2026-01-19 08:14:45.24	87.88	13.05	-40.9	-55.6	3.8	1.49e+00	0	59	104	36700160	52	20769
2026-01-19 08:14:46.25	87.73	13.12	-40.9	-55.7	3.8	1.49e+00	0	59	104	36700160	52	20838
2026-01-19 08:14:47.26	87.57	13.18	-40.8	-55.7	3.8	1.49e+00	0	59	104	36700160	52	20779
2026-01-19 08:14:48.27	87.41	13.24	-40.7	-55.7	3.8	1.49e+00	0	59	104	36700160	52	20810
2026-01-19 08:14:49.28	87.25	13.31	-42.0	-56.2	3.8	1.49e+00	0	59	104	36700160	55	18623
2026-01-19 08:14:50.29	87.09	13.37	-40.9	-55.6	3.8	1.49e+00	0	59	104	36700160	53	19550
2026-01-19 08:14:51.30	86.93	13.43	-40.9	-55.6	3.8	1.49e+00	0	59	104	36700160	52	20680
2026-01-19 08:14:52.31	86.77	13.49	-40.8	-55.6	3.8	1.49e+00	0	59	104	36700160	52	20771
2026-01-19 08:14:53.31	86.61	13.56	-40.8	-55.6	3.8	1.49e+00	0	59	104	36700160	52	20764
2026-01-19 08:14:54.32	86.45	13.62	-40.8	-55.6	3.8	1.49e+00	0	59	104	36700160	52	20596
2026-01-19 08:14:55.33	86.28	13.68	-40.6	-55.5	3.8	1.49e+00	0	59	104	36700160	52	20311
2026-01-19 08:14:56.34	86.12	13.74	-40.8	-55.6	3.8	1.49e+00	0	59	104	36700160	52	20619
2026-01-19 08:14:57.35	85.96	13.80	-41.7	-55.7	3.8	1.49e+00	0	59	104	36700160	54	18635
2026-01-19 08:14:58.36	85.79	13.87	-41.4	-55.0	3.8	1.49e+00	0	59	104	36700160	54	17280
2026-01-19 08:14:59.37	85.63	13.93	-41.6	-55.2	3.8	1.49e+00	0	59	104	36700160	54	17595
2026-01-19 08:15:00.38	85.46	13.99	-41.4	-53.9	3.8	1.49e+00	0	59	104	36700160	54	15111
2026-01-19 08:15:01.39	85.29	14.05	-41.4	-53.8	4.0	1.48e+00	0	59	104	36700160	54	14911
2026-01-19 08:15:02.40	85.12	14.11	-41.3	-53.0	4.1	1.48e+00	0	60	104	36700160	54	13648
2026-01-19 08:15:03.41	84.96	14.18	-41.2	-52.6	4.2	1.40e+00	0	59	0	36700160	54	13029
2026-01-19 08:15:04.42	84.79	14.24	-41.1	-51.9	4.4	1.34e+00	0	59	0	36700160	54	12053
2026-01-19 08:15:05.42	84.62	14.30	-41.1	-51.5	4.6	9.90e-01	0	60	0	38797312	54	11429
2026-01-19 08:15:06.43	84.45	14.36	-41.1	-50.7	5.0	8.28e-01	0	60	0	40894464	54	10497
2026-01-19 08:15:07.44	84.28	14.42	-41.3	-51.3	4.8	6.71e-01	0	59	0	42991616	54	11220
2026-01-19 08:15:08.45	84.10	14.48	-40.9	-49.0	4.6	1.46e+00	0	60	104	42991616	53	9110
2026-01-19 08:15:09.46	83.93	14.54	-40.9	-51.5	4.5	1.48e+00	0	59	104	42991616	53	12100
2026-01-19 08:15:10.47	83.76	14.60	-40.8	-49.2	5.9	7.39e-01	0	60	0	44040192	53	9318
2026-01-19 08:15:11.48	83.58	14.66	-41.1	-52.2	4.0	1.49e+00	0	59	104	45088768	53	13185
2026-01-19 08:15:12.49	83.41	14.73	-41.0	-50.2	5.2	5.84e-01	0	60	0	46137344	53	10504
2026-01-19 08:15:13.50	83.23	14.79	-41.0	-50.1	5.3	6.22e-01	0	60	0	47185920	53	10330
2026-01-19 08:15:14.51	83.06	14.85	-41.0	-49.4	5.8	4.05e-01	0	60	0	49283072	53	9519
2026-01-19 08:15:15.52	82.88	14.91	-41.0	-49.1	6.0	3.45e-01	0	60	0	51380224	53	9223
2026-01-19 08:15:16.52	82.70	14.97	-41.0	-48.9	6.3	2.90e-01	0	60	0	53477376	53	9026
2026-01-19 08:15:17.54	82.52	15.03	-41.3	-49.7	5.9	2.87e-01	0	59	0	55574528	53	9841
2026-01-19 08:15:18.55	82.34	15.09	-41.6	-51.3	4.9	8.33e-01	0	60	0	56623104	53	11932
2026-01-19 08:15:19.55	82.17	15.15	-41.1	-49.0	6.4	5.79e-01	0	60	0	58720256	53	9132
2026-01-19 08:15:20.56	81.98	15.21	-41.7	-51.2	4.9	1.30e+00	0	60	104	59768832	53	11785
2026-01-19 08:15:21.58	81.80	15.27	-41.2	-49.0	6.6	1.11e+00	0	60	104	59768832	54	8590
2026-01-19 08:15:22.58	81.62	15.33	-41.4	-51.6	4.1	1.49e+00	0	60	104	59768832	54	11659
2026-01-19 08:15:23.59	81.44	15.38	-41.2	-48.6	6.8	1.81e-01	0	60	0	60817408	54	8228
2026-01-19 08:15:24.60	81.25	15.44	-41.2	-48.6	6.9	1.79e-01	0	60	0	62914560	54	8189
2026-01-19 08:15:25.61	81.07	15.50	-41.3	-48.8	6.7	1.85e-01	0	60	0	63963136	54	8376
2026-01-19 08:15:26.63	80.88	15.56	-41.3	-49.0	6.5	2.29e-01	0	60	0	66060288	54	8586
2026-01-19 08:15:27.63	80.70	15.62	-41.3	-49.2	6.2	2.93e-01	0	60	0	68157440	54	8768
2026-01-19 08:15:28.65	80.51	15.68	-41.5	-52.5	4.4	3.00e-01	0	60	0	70254592	54	12910
2026-01-19 08:15:29.66	80.32	15.74	-41.7	-53.4	4.1	1.48e+00	0	60	104	70254592	54	14360
2026-01-19 08:15:30.67	80.13	15.80	-41.3	-49.1	6.5	6.35e-01	0	60	0	70254592	54	8745
2026-01-19 08:15:31.67	79.95	15.85	-42.0	-53.8	4.1	9.50e-01	0	60	0	72351744	54	15013
2026-01-19 08:15:32.69	79.76	15.91	-41.5	-49.8	6.1	1.46e+00	0	60	104	72351744	54	9393
2026-01-19 08:15:33.70	79.57	15.97	-41.5	-49.6	6.1	7.28e-01	0	60	0	73400320	54	9269
2026-01-19 08:15:34.70	79.38	16.03	-41.4	-48.9	6.8	2.06e-01	0	60	0	75497472	54	8468
2026-01-19 08:15:35.71	79.18	16.08	-41.4	-48.6	7.0	1.62e-01	0	60	0	76546048	54	8233
2026-01-19 08:15:36.72	78.99	16.14	-41.4	-48.8	6.9	1.81e-01	0	60	0	78643200	54	8385
2026-01-19 08:15:37.73	78.80	16.20	-41.3	-48.6	6.9	1.68e-01	0	60	0	80740352	54	8219
2026-01-19 08:15:38.74	78.61	16.25	-41.2	-48.7	6.7	1.83e-01	0	60	0	82837504	54	8352
2026-01-19 08:15:39.75	78.41	16.31	-41.4	-50.0	5.8	1.93e-01	0	60	0	84934656	54	9609
2026-01-19 08:15:40.76	78.21	16.37	-41.5	-51.7	4.6	6.64e-01	0	60	0	85983232	54	11778
2026-01-19 08:15:41.77	78.02	16.42	-41.6	-50.2	5.8	3.71e-01	0	60	0	88080384	54	9888
2026-01-19 08:15:42.78	77.82	16.48	-41.7	-51.4	5.0	1.12e+00	0	60	0	90177536	54	11388
2026-01-19 08:15:43.79	77.62	16.53	-41.5	-52.5	4.4	4.60e-01	0	60	0	90177536	54	12876
2026-01-19 08:15:44.80	77.43	16.59	-41.0	-48.7	6.4	1.32e+00	0	60	104	90177536	54	8334
2026-01-19 08:15:45.81	77.23	16.64	-41.0	-48.7	6.5	2.17e-01	0	60	0	91226112	54	8357
2026-01-19 08:15:46.82	77.03	16.70	-41.0	-48.8	6.4	2.50e-01	0	60	0	93323264	53	8872
2026-01-19 08:15:47.83	76.83	16.75	-41.0	-48.9	6.4	2.38e-01	0	60	0	95420416	53	8970
2026-01-19 08:15:48.83	76.63	16.81	-41.0	-48.5	6.7	2.26e-01	0	60	0	97517568	53	8630
2026-01-19 08:15:49.84	76.42	16.86	-40.9	-48.1	7.1	1.67e-01	0	60	0	99614720	53	8243
2026-01-19 08:15:50.85	76.22	16.92	-41.6	-53.3	4.1	5.36e-01	0	60	0	100663296	53	15026
2026-01-19 08:15:51.86	76.02	16.97	-41.6	-52.7	4.3	1.33e+00	0	60	0	100663296	53	13947
2026-01-19 08:15:52.87	75.81	17.02	-41.3	-50.0	5.8	7.47e-01	0	60	0	101711872	53	10269
2026-01-19 08:15:53.88	75.61	17.08	-42.0	-54.4	3.8	8.35e-01	0	60	104	103809024	54	16039
2026-01-19 08:15:54.89	75.40	17.13	-41.5	-53.9	4.0	3.61e-01	0	60	0	103809024	53	15949
2026-01-19 08:15:55.90	75.20	17.18	-41.0	-49.0	6.2	1.33e+00	0	60	0	103809024	53	9076
2026-01-19 08:15:56.91	74.99	17.23	-41.0	-49.0	6.3	2.68e-01	0	60	0	105906176	53	9094
2026-01-19 08:15:57.92	74.78	17.29	-41.1	-49.2	6.1	3.02e-01	0	60	0	108003328	53	9313
2026-01-19 08:15:58.93	74.57	17.34	-41.0	-49.3	6.0	3.36e-01	0	60	0	110100480	53	9470
2026-01-19 08:15:59.94	74.36	17.39	-41.0	-49.0	6.2	2.92e-01	0	60	0	111149056	53	9145
2026-01-19 08:16:00.95	74.15	17.44	-40.9	-48.8	6.4	2.45e-01	0	60	0	113246208	53	8867
2026-01-19 08:16:01.96	73.94	17.49	-41.4	-52.3	4.3	4.13e-01	0	60	0	115343360	53	13413
2026-01-19 08:16:02.97	73.73	17.54	-41.5	-51.6	4.6	8.39e-01	0	60	0	117440512	53	12360
2026-01-19 08:16:03.98	73.52	17.59	-41.6	-53.4	4.1	3.44e-01	0	60	0	118489088	53	15099
2026-01-19 08:16:04.99	73.31	17.64	-42.2	-53.8	4.1	7.58e-01	0	60	0	118489088	54	14883
2026-01-19 08:16:06.00	73.09	17.69	-41.7	-55.7	3.8	2.92e-01	0	61	104	119537664	53	19730
2026-01-19 08:16:07.01	72.88	17.74	-40.9	-47.9	7.3	5.78e-01	0	60	0	119537664	53	8065
2026-01-19 08:16:08.02	72.66	17.79	-40.9	-48.0	7.2	1.37e-01	0	60	0	121634816	53	8149
2026-01-19 08:16:09.03	72.45	17.84	-40.9	-47.8	7.5	1.10e-01	0	60	0	122683392	53	7930
2026-01-19 08:16:10.04	72.23	17.89	-40.9	-47.7	7.7	8.70e-02	0	60	0	124780544	53	7891
2026-01-19 08:16:11.05	72.01	17.94	-40.9	-47.7	7.7	9.72e-02	0	60	0	126877696	53	7875
2026-01-19 08:16:12.06	71.80	17.99	-41.1	-48.1	7.4	1.01e-01	0	60	0	128974848	53	8207
2026-01-19 08:16:13.07	71.58	18.03	-41.2	-48.2	7.3	1.31e-01	0	60	0	131072000	53	8362
2026-01-19 08:16:14.07	71.36	18.08	-41.2	-47.9	7.7	9.57e-02	0	60	0	132120576	53	8054
2026-01-19 08:16:15.08	71.14	18.13	-41.2	-47.8	7.8	8.61e-02	0	60	0	134217728	53	7989
2026-01-19 08:16:16.09	70.92	18.17	-41.3	-48.2	7.6	8.59e-02	0	60	0	136314880	53	8278
2026-01-19 08:16:17.10	70.70	18.22	-41.3	-47.9	8.0	7.93e-02	0	60	0	138412032	53	8060
2026-01-19 08:16:18.11	70.48	18.27	-41.3	-47.5	8.5	5.25e-02	0	60	0	140509184	53	7718
2026-01-19 08:16:19.12	70.25	18.31	-41.3	-47.2	9.0	3.03e-02	0	60	0	141557760	53	7397
2026-01-19 08:16:20.13	70.03	18.36	-41.3	-47.0	9.3	2.14e-02	0	60	0	143654912	53	7227
2026-01-19 08:16:21.14	69.81	18.40	-41.3	-46.7	9.7	1.34e-02	0	60	0	145752064	53	7009
2026-01-19 08:16:22.15	69.58	18.44	-41.3	-46.5	10.0	1.03e-02	0	60	0	147849216	53	6820
2026-01-19 08:16:23.16	69.36	18.49	-41.2	-46.1	10.6	3.71e-03	0	60	0	149946368	53	6521
2026-01-19 08:16:24.17	69.13	18.53	-41.2	-45.8	10.9	2.58e-03	0	60	0	152043520	53	6322
2026-01-19 08:16:25.18	68.90	18.58	-41.0	-45.3	11.6	1.28e-03	0	60	0	153092096	53	5939
2026-01-19 08:16:26.19	68.68	18.62	-41.0	-45.1	12.0	3.37e-04	0	60	0	155189248	53	5832
2026-01-19 08:16:27.20	68.45	18.66	-40.8	-44.7	12.4	2.22e-04	0	60	0	157286400	53	5571
2026-01-19 08:16:28.21	68.22	18.70	-40.8	-44.7	12.5	1.35e-04	0	60	0	159383552	53	5538
2026-01-19 08:16:29.22	67.99	18.74	-40.8	-44.6	12.6	1.28e-04	0	60	0	161480704	53	5492
2026-01-19 08:16:30.23	67.76	18.79	-40.9	-44.6	12.7	9.61e-05	0	60	0	162529280	53	5505
2026-01-19 08:16:31.23	67.53	18.83	-40.9	-44.5	12.9	5.79e-05	0	60	0	164626432	53	5438
2026-01-19 08:16:32.24	67.30	18.87	-40.9	-44.5	12.9	4.34e-05	0	60	0	166723584	53	5433
2026-01-19 08:16:33.25	67.07	18.91	-41.0	-44.6	12.8	5.03e-05	0	60	0	168820736	53	5512
2026-01-19 08:16:34.26	66.84	18.95	-40.8	-44.3	13.2	6.94e-05	0	60	0	170917888	53	5290
2026-01-19 08:16:35.27	66.61	18.98	-41.0	-44.6	13.0	1.98e-05	0	60	0	171966464	53	5481
2026-01-19 08:16:36.28	66.37	19.02	-41.0	-44.6	12.9	4.27e-05	0	60	0	174063616	53	5515
2026-01-19 08:16:37.29	66.14	19.06	-41.0	-44.6	13.1	3.58e-05	0	60	0	176160768	53	5483
2026-01-19 08:16:38.30	65.91	19.10	-41.2	-44.8	12.9	4.80e-05	0	61	0	178257920	53	5640
2026-01-19 08:16:39.31	65.67	19.14	-41.1	-44.7	13.0	4.50e-05	0	61	0	180355072	53	5533
2026-01-19 08:16:40.32	65.43	19.17	-41.3	-45.0	12.7	4.34e-05	0	60	0	181403648	53	5739
2026-01-19 08:16:41.33	65.20	19.21	-41.3	-45.1	12.6	5.49e-05	0	60	0	183500800	53	5840
2026-01-19 08:16:42.34	64.96	19.25	-41.5	-45.4	12.4	1.14e-04	0	60	0	185597952	53	5997
2026-01-19 08:16:43.35	64.72	19.28	-41.4	-45.3	12.5	1.45e-04	0	60	0	187695104	53	5969
2026-01-19 08:16:44.36	64.49	19.32	-41.5	-45.4	12.4	1.56e-04	0	60	0	189792256	53	6006
2026-01-19 08:16:45.36	64.25	19.35	-41.4	-45.3	12.5	1.70e-04	0	61	0	190840832	53	5938
2026-01-19 08:16:46.37	64.01	19.39	-41.4	-45.2	12.6	1.56e-04	0	60	0	192937984	53	5873
2026-01-19 08:16:47.38	63.77	19.42	-41.5	-45.4	12.4	1.46e-04	0	61	0	195035136	53	6000
2026-01-19 08:16:48.39	63.53	19.45	-41.6	-45.5	12.2	2.10e-04	0	60	0	197132288	53	6130
2026-01-19 08:16:49.40	63.29	19.49	-41.7	-45.8	12.0	3.29e-04	0	61	0	199229440	53	6333
2026-01-19 08:16:50.41	63.05	19.52	-41.8	-46.0	11.8	4.31e-04	0	60	0	200278016	54	6081
2026-01-19 08:16:51.42	62.81	19.55	-41.9	-46.2	11.6	5.36e-04	0	60	0	202375168	54	6244
2026-01-19 08:16:52.43	62.57	19.58	-42.0	-46.4	11.4	8.91e-04	0	60	0	204472320	54	6383
2026-01-19 08:16:53.44	62.32	19.61	-42.0	-46.4	11.4	9.95e-04	0	61	0	206569472	54	6396
2026-01-19 08:16:54.45	62.08	19.64	-41.9	-46.3	11.6	1.00e-03	0	61	0	208666624	54	6277
2026-01-19 08:16:55.46	61.84	19.67	-41.9	-46.1	11.7	7.37e-04	0	60	0	209715200	54	6183
2026-01-19 08:16:56.47	61.59	19.70	-41.8	-45.9	11.9	6.58e-04	0	60	0	211812352	54	6041
2026-01-19 08:16:57.48	61.35	19.73	-41.9	-46.1	11.8	5.63e-04	0	60	0	213909504	54	6147
2026-01-19 08:16:58.49	61.10	19.76	-41.7	-45.7	12.1	3.11e-04	0	60	0	216006656	54	5899
2026-01-19 08:16:59.50	60.86	19.79	-41.6	-45.5	12.4	2.27e-04	0	60	0	218103808	54	5746
2026-01-19 08:17:00.51	60.61	19.81	-41.6	-45.5	12.4	1.45e-04	0	61	0	220200960	54	5766
2026-01-19 08:17:01.52	60.37	19.84	-41.8	-45.9	11.9	2.13e-04	0	61	0	221249536	54	6024
2026-01-19 08:17:02.53	60.12	19.87	-41.9	-46.3	11.6	6.23e-04	0	60	0	223346688	54	6306
2026-01-19 08:17:03.54	59.87	19.89	-42.1	-46.7	11.0	1.20e-03	0	60	0	225443840	54	6644
2026-01-19 08:17:04.55	59.63	19.92	-42.2	-46.9	10.9	1.36e-03	0	60	0	227540992	54	6763
2026-01-19 08:17:05.56	59.38	19.94	-42.2	-46.9	10.9	2.13e-03	0	60	0	229638144	54	6789
2026-01-19 08:17:06.57	59.13	19.96	-42.2	-46.9	10.9	2.49e-03	0	61	0	230686720	55	6352
2026-01-19 08:17:07.58	58.88	19.99	-42.0	-46.5	11.3	1.33e-03	0	60	0	232783872	55	6130
2026-01-19 08:17:08.59	58.63	20.01	-42.0	-46.5	11.3	8.99e-04	0	61	0	234881024	55	6100
2026-01-19 08:17:09.60	58.38	20.03	-42.0	-46.4	11.4	9.97e-04	0	61	0	236978176	55	6009
2026-01-19 08:17:10.61	58.13	20.05	-42.2	-46.8	11.1	1.06e-03	0	61	0	239075328	55	6304
2026-01-19 08:17:11.62	57.88	20.08	-42.3	-47.1	10.7	2.20e-03	0	60	0	240123904	55	6570
2026-01-19 08:17:12.63	57.63	20.10	-42.4	-47.4	10.5	4.70e-03	0	61	0	242221056	55	6728
2026-01-19 08:17:13.64	57.38	20.12	-42.4	-47.4	10.4	4.50e-03	0	60	0	244318208	55	6738
2026-01-19 08:17:14.65	57.13	20.14	-42.3	-47.2	10.6	3.66e-03	0	60	0	246415360	55	6582
2026-01-19 08:17:15.65	56.88	20.16	-42.2	-46.9	10.9	1.94e-03	0	60	0	248512512	55	6404
2026-01-19 08:17:16.66	56.63	20.17	-42.1	-46.7	11.1	1.54e-03	0	61	0	249561088	55	6262
2026-01-19 08:17:17.67	56.38	20.19	-42.1	-46.6	11.3	9.49e-04	0	61	0	251658240	55	6156
2026-01-19 08:17:18.69	56.12	20.21	-41.9	-46.3	11.6	6.76e-04	0	60	0	253755392	55	5956
2026-01-19 08:17:19.69	55.87	20.23	-41.9	-46.3	11.6	6.20e-04	0	61	0	255852544	55	5939
2026-01-19 08:17:20.70	55.62	20.24	-41.8	-46.1	11.8	7.02e-04	0	61	0	257949696	55	5817
2026-01-19 08:17:21.71	55.37	20.26	-42.0	-46.6	11.3	9.74e-04	0	61	0	258998272	55	6146
2026-01-19 08:17:22.72	55.11	20.27	-42.2	-46.9	10.9	1.67e-03	0	61	0	261095424	55	6386
2026-01-19 08:17:23.73	54.86	20.29	-42.1	-46.9	11.0	1.45e-03	0	61	0	263192576	55	6350
2026-01-19 08:17:24.74	54.61	20.30	-42.2	-47.1	10.8	2.18e-03	0	61	0	265289728	55	6530
2026-01-19 08:17:25.75	54.35	20.31	-42.1	-46.8	11.0	2.42e-03	0	61	0	267386880	55	6341
2026-01-19 08:17:26.76	54.10	20.33	-42.1	-46.8	11.0	2.34e-03	0	61	0	268435456	55	6334
2026-01-19 08:17:27.77	53.84	20.34	-42.1	-46.8	11.0	1.71e-03	0	61	0	270532608	55	6318
2026-01-19 08:17:28.78	53.59	20.35	-42.2	-46.9	10.9	1.76e-03	0	61	0	272629760	55	6406
2026-01-19 08:17:29.79	53.33	20.36	-42.1	-46.7	11.1	1.50e-03	0	61	0	274726912	55	6257
2026-01-19 08:17:30.80	53.08	20.37	-41.9	-46.4	11.4	8.95e-04	0	61	0	276824064	55	6060
2026-01-19 08:17:31.81	52.82	20.38	-42.0	-46.4	11.5	8.96e-04	0	61	0	277872640	55	6037
2026-01-19 08:17:32.82	52.57	20.39	-41.9	-46.3	11.4	8.39e-04	0	61	0	279969792	55	5972
2026-01-19 08:17:33.83	52.31	20.40	-41.9	-46.3	11.6	7.64e-04	0	61	0	282066944	55	5935
2026-01-19 08:17:34.84	52.06	20.41	-41.9	-46.3	11.6	6.30e-04	0	61	0	284164096	55	5933
2026-01-19 08:17:35.85	51.80	20.42	-41.8	-46.0	11.9	4.82e-04	0	61	0	286261248	55	5758
2026-01-19 08:17:36.86	51.55	20.42	-41.8	-45.9	11.9	3.54e-04	0	61	0	288358400	55	5698
2026-01-19 08:17:37.87	51.29	20.43	-41.7	-45.7	12.2	2.64e-04	0	61	0	289406976	55	5546
2026-01-19 08:17:38.88	51.03	20.43	-41.7	-45.8	12.1	2.76e-04	0	61	0	291504128	55	5604
2026-01-19 08:17:39.89	50.78	20.44	-41.8	-45.9	12.0	2.24e-04	0	61	0	293601280	55	5681
2026-01-19 08:17:40.89	50.52	20.44	-41.5	-45.4	12.4	2.15e-04	0	61	0	295698432	55	5400
2026-01-19 08:17:41.90	50.27	20.45	-41.6	-45.6	12.3	1.50e-04	0	61	0	297795584	55	5519
2026-01-19 08:17:42.91	50.01	20.45	-41.7	-45.7	12.2	1.89e-04	0	61	0	298844160	55	5561
2026-01-19 08:17:43.92	49.76	20.45	-41.8	-45.9	12.0	2.40e-04	0	61	0	300941312	55	5692
2026-01-19 08:17:44.93	49.50	20.45	-41.8	-45.9	12.0	2.90e-04	0	61	0	303038464	55	5702
2026-01-19 08:17:45.94	49.24	20.46	-41.9	-46.3	11.6	4.74e-04	0	61	0	305135616	55	5947
2026-01-19 08:17:46.95	48.99	20.46	-42.0	-46.5	11.4	1.08e-03	0	61	0	307232768	55	6119
2026-01-19 08:17:47.96	48.73	20.46	-42.2	-46.8	11.1	1.49e-03	0	61	0	308281344	55	6318
2026-01-19 08:17:48.97	48.47	20.46	-42.2	-46.8	11.0	1.83e-03	0	61	0	310378496	55	6327
2026-01-19 08:17:49.98	48.22	20.46	-42.2	-46.9	11.0	1.84e-03	0	61	0	312475648	55	6372
2026-01-19 08:17:50.99	47.96	20.45	-42.2	-46.9	11.0	2.20e-03	0	61	0	314572800	55	6379
2026-01-19 08:17:52.00	47.71	20.45	-42.2	-47.0	10.9	2.45e-03	0	61	0	316669952	55	6459
2026-01-19 08:17:53.01	47.45	20.45	-42.3	-47.0	10.9	2.33e-03	0	61	0	317718528	55	6454
2026-01-19 08:17:54.02	47.19	20.45	-42.1	-46.6	11.3	1.34e-03	0	61	0	319815680	55	6135
2026-01-19 08:17:55.03	46.94	20.44	-41.8	-46.0	11.9	6.68e-04	0	61	0	321912832	55	5749
2026-01-19 08:17:56.04	46.68	20.44	-41.5	-45.3	12.6	1.63e-04	0	61	0	324009984	55	5323
2026-01-19 08:17:57.05	46.42	20.43	-41.5	-45.2	12.7	5.49e-05	0	61	0	326107136	54	5591
2026-01-19 08:17:58.05	46.17	20.43	-41.2	-44.7	13.2	2.89e-05	0	61	0	327155712	54	5277
2026-01-19 08:17:59.06	45.92	20.42	-41.2	-44.7	13.2	2.74e-05	0	61	0	329252864	54	5266
2026-01-19 08:18:00.07	45.66	20.41	-41.2	-44.7	13.3	3.28e-05	0	61	0	331350016	54	5236
2026-01-19 08:18:01.08	45.40	20.40	-41.2	-44.7	13.3	1.44e-05	0	61	0	333447168	54	5262
2026-01-19 08:18:02.09	45.15	20.40	-41.3	-44.8	13.1	1.67e-05	0	61	0	335544320	54	5321
2026-01-19 08:18:03.10	44.89	20.39	-41.2	-44.6	13.4	1.44e-05	0	61	0	336592896	54	5206
2026-01-19 08:18:04.11	44.64	20.38	-41.2	-44.7	13.3	1.29e-05	0	61	0	338690048	54	5221
2026-01-19 08:18:05.12	44.38	20.37	-41.2	-44.6	13.4	1.29e-05	0	61	0	340787200	54	5212
2026-01-19 08:18:06.13	44.13	20.36	-41.1	-44.5	13.5	1.52e-05	0	61	0	342884352	54	5125
2026-01-19 08:18:07.14	43.87	20.35	-41.2	-44.6	13.4	6.10e-06	0	61	0	344981504	54	5208
2026-01-19 08:18:08.15	43.62	20.33	-41.3	-44.9	13.1	2.67e-05	0	61	0	346030080	54	5372
2026-01-19 08:18:09.16	43.37	20.32	-41.3	-44.9	13.1	2.67e-05	0	61	0	348127232	54	5387
2026-01-19 08:18:10.17	43.11	20.31	-41.3	-44.9	13.1	2.51e-05	0	61	0	350224384	54	5360
2026-01-19 08:18:11.18	42.86	20.30	-41.4	-45.0	13.0	2.59e-05	0	61	0	352321536	54	5411
2026-01-19 08:18:12.19	42.61	20.28	-41.2	-44.7	13.3	2.82e-05	0	61	0	354418688	54	5242
2026-01-19 08:18:13.19	42.35	20.27	-41.2	-44.6	13.4	1.75e-05	0	61	0	356515840	54	5197
2026-01-19 08:18:14.20	42.10	20.25	-41.1	-44.5	13.5	1.22e-05	0	61	0	357564416	54	5124
2026-01-19 08:18:15.21	41.85	20.24	-41.2	-44.7	13.4	1.75e-05	0	61	0	359661568	54	5251
2026-01-19 08:18:16.22	41.60	20.22	-41.1	-44.4	13.6	1.22e-05	0	61	0	361758720	54	5095
2026-01-19 08:18:17.24	41.34	20.20	-41.2	-44.6	13.4	6.80e-06	0	61	0	363855872	54	5193
2026-01-19 08:18:18.24	41.09	20.18	-41.2	-44.6	13.4	1.52e-05	0	61	0	365953024	54	5187
2026-01-19 08:18:19.25	40.84	20.17	-41.2	-44.6	13.5	9.90e-06	0	61	0	367001600	54	5165
2026-01-19 08:18:20.26	40.59	20.15	-41.2	-44.6	13.4	1.37e-05	0	61	0	369098752	54	5189
2026-01-19 08:18:21.27	40.34	20.13	-41.3	-44.9	13.1	2.28e-05	0	61	0	371195904	54	5343
2026-01-19 08:18:22.28	40.09	20.11	-41.4	-44.9	13.1	2.82e-05	0	61	0	373293056	54	5381
2026-01-19 08:18:23.29	39.84	20.09	-41.4	-45.0	13.0	4.11e-05	0	61	0	375390208	54	5414
2026-01-19 08:18:24.30	39.59	20.07	-41.5	-45.1	13.0	4.50e-05	0	61	0	376438784	54	5483
2026-01-19 08:18:25.31	39.34	20.05	-41.3	-44.8	13.2	2.74e-05	0	61	0	378535936	54	5309
2026-01-19 08:18:26.31	39.09	20.02	-41.3	-44.8	13.2	2.28e-05	0	61	0	380633088	54	5293
2026-01-19 08:18:27.32	38.84	20.00	-41.4	-45.0	13.0	3.35e-05	0	61	0	382730240	54	5418
2026-01-19 08:18:28.33	38.59	19.98	-41.3	-44.9	13.1	4.19e-05	0	61	0	384827392	54	5366
2026-01-19 08:18:29.34	38.35	19.96	-41.2	-44.7	13.3	3.50e-05	0	61	0	385875968	54	5241
2026-01-19 08:18:30.35	38.10	19.93	-41.4	-44.9	13.1	4.19e-05	0	61	0	387973120	54	5395
2026-01-19 08:18:31.36	37.85	19.91	-41.5	-45.1	12.9	4.95e-05	0	61	0	390070272	54	5508
2026-01-19 08:18:32.37	37.60	19.88	-41.7	-45.7	12.3	1.03e-04	0	61	0	392167424	54	5860
2026-01-19 08:18:33.38	37.36	19.86	-41.9	-46.0	12.0	2.55e-04	0	61	0	394264576	54	6082
2026-01-19 08:18:34.39	37.11	19.83	-42.2	-46.7	11.2	4.67e-04	0	61	0	395313152	54	6639
2026-01-19 08:18:35.40	36.87	19.80	-42.2	-46.6	11.3	1.11e-03	0	61	0	397410304	55	6201
2026-01-19 08:18:36.41	36.62	19.77	-42.2	-46.8	11.1	1.90e-03	0	61	0	399507456	55	6339
2026-01-19 08:18:37.42	36.38	19.75	-42.3	-47.0	10.9	3.05e-03	0	61	0	401604608	55	6448
2026-01-19 08:18:38.43	36.13	19.72	-42.4	-47.2	10.8	3.32e-03	0	61	0	403701760	55	6579
2026-01-19 08:18:39.43	35.89	19.69	-42.3	-46.9	11.0	2.40e-03	0	61	0	404750336	55	6409
2026-01-19 08:18:40.44	35.65	19.66	-42.3	-46.9	11.1	1.47e-03	0	61	0	406847488	55	6351
2026-01-19 08:18:41.45	35.41	19.63	-42.2	-46.8	11.1	1.51e-03	0	61	0	408944640	55	6301
2026-01-19 08:18:42.46	35.16	19.60	-42.2	-46.6	11.2	1.36e-03	0	61	0	411041792	55	6201
2026-01-19 08:18:43.47	34.92	19.57	-42.3	-47.0	11.0	1.60e-03	0	61	0	413138944	55	6476
2026-01-19 08:18:44.48	34.68	19.54	-42.2	-46.6	11.3	1.77e-03	0	61	0	414187520	55	6187
2026-01-19 08:18:45.49	34.44	19.51	-42.3	-47.0	10.9	1.69e-03	0	61	0	416284672	55	6460
2026-01-19 08:18:46.50	34.20	19.47	-42.2	-46.7	11.2	1.37e-03	0	61	0	418381824	55	6263
2026-01-19 08:18:47.51	33.96	19.44	-42.3	-47.0	11.0	1.50e-03	0	61	0	420478976	55	6441
2026-01-19 08:18:48.52	33.72	19.41	-42.4	-47.1	10.8	2.32e-03	0	61	0	422576128	55	6546
2026-01-19 08:18:49.53	33.48	19.37	-42.4	-47.2	10.8	2.79e-03	0	61	0	423624704	55	6598
2026-01-19 08:18:50.54	33.24	19.34	-42.5	-47.4	10.5	2.92e-03	0	61	0	425721856	55	6744
2026-01-19 08:18:51.54	33.01	19.30	-42.4	-47.2	10.7	3.76e-03	0	61	0	427819008	55	6642
2026-01-19 08:18:52.55	32.77	19.27	-42.3	-47.0	10.9	2.39e-03	0	61	0	429916160	55	6462
2026-01-19 08:18:53.56	32.53	19.23	-42.2	-46.6	11.3	1.31e-03	0	61	0	432013312	55	6201
2026-01-19 08:18:54.57	32.30	19.20	-42.0	-46.3	11.6	8.15e-04	0	61	0	433061888	55	5947
2026-01-19 08:18:55.58	32.06	19.16	-42.1	-46.4	11.6	4.39e-04	0	61	0	435159040	55	6006
2026-01-19 08:18:56.59	31.83	19.12	-41.9	-46.1	11.9	3.89e-04	0	61	0	437256192	55	5836
2026-01-19 08:18:57.60	31.59	19.09	-41.9	-46.0	11.9	3.61e-04	0	61	0	439353344	55	5761
2026-01-19 08:18:58.61	31.36	19.05	-42.0	-46.3	11.6	5.69e-04	0	61	0	441450496	55	5989
2026-01-19 08:18:59.61	31.13	19.01	-42.1	-46.5	11.4	7.22e-04	0	61	0	442499072	55	6118
2026-01-19 08:19:00.60	30.90	18.97	-42.1	-46.6	11.3	8.86e-04	0	61	0	444596224	55	6148
2026-01-19 08:19:01.61	30.67	18.93	-42.2	-46.6	11.4	9.18e-04	0	61	0	446693376	55	6166
2026-01-19 08:19:02.62	30.44	18.89	-42.1	-46.4	11.6	6.23e-04	0	61	0	448790528	55	6007
2026-01-19 08:19:03.63	30.21	18.85	-42.0	-46.2	11.7	4.47e-04	0	61	0	450887680	55	5915
2026-01-19 08:19:04.64	29.98	18.81	-41.9	-46.0	12.0	4.55e-04	0	61	0	452984832	55	5743
2026-01-19 08:19:05.65	29.75	18.77	-41.8	-45.8	12.2	2.65e-04	0	61	0	454033408	55	5595
2026-01-19 08:19:06.66	29.52	18.73	-41.7	-45.5	12.5	1.14e-04	0	61	0	456130560	55	5424
2026-01-19 08:19:07.67	29.29	18.69	-41.6	-45.4	12.6	8.46e-05	0	61	0	458227712	54	5708
2026-01-19 08:19:08.68	29.06	18.65	-41.6	-45.3	12.6	9.07e-05	0	61	0	460324864	54	5652
2026-01-19 08:19:09.69	28.84	18.61	-41.5	-45.2	12.8	5.03e-05	0	61	0	462422016	54	5550
2026-01-19 08:19:10.70	28.61	18.56	-41.5	-45.2	12.8	5.18e-05	0	61	0	463470592	54	5554
2026-01-19 08:19:11.71	28.39	18.52	-41.6	-45.3	12.6	9.07e-05	0	61	0	465567744	54	5646
2026-01-19 08:19:12.72	28.16	18.48	-41.6	-45.3	12.7	1.04e-04	0	61	0	467664896	54	5639
2026-01-19 08:19:13.73	27.94	18.43	-41.5	-45.3	12.6	1.20e-04	0	61	0	469762048	54	5648
2026-01-19 08:19:14.74	27.71	18.39	-41.6	-45.4	12.5	1.22e-04	0	61	0	470810624	54	5716
2026-01-19 08:19:15.74	27.49	18.34	-41.7	-45.7	12.3	1.62e-04	0	61	0	472907776	54	5877
2026-01-19 08:19:16.75	27.27	18.30	-42.0	-46.2	11.7	3.76e-04	0	61	0	475004928	54	6273
2026-01-19 08:19:17.76	27.05	18.25	-42.2	-46.8	11.1	7.48e-04	0	61	0	477102080	54	6672
2026-01-19 08:19:18.77	26.83	18.21	-42.5	-47.5	10.4	3.72e-03	0	61	0	479199232	55	6858
2026-01-19 08:19:19.78	26.61	18.16	-42.5	-47.5	10.3	6.90e-03	0	61	0	481296384	55	6865
2026-01-19 08:19:20.79	26.39	18.11	-42.6	-47.8	10.0	7.17e-03	0	61	0	482344960	55	7120
2026-01-19 08:19:21.80	26.17	18.07	-42.5	-47.7	10.1	8.01e-03	0	61	0	484442112	55	6998
2026-01-19 08:19:22.81	25.95	18.02	-42.6	-47.8	10.0	7.57e-03	0	61	0	486539264	55	7042
2026-01-19 08:19:23.82	25.73	17.97	-42.5	-47.6	10.2	6.22e-03	0	61	0	488636416	55	6958
2026-01-19 08:19:24.82	25.52	17.93	-42.6	-47.9	9.9	7.02e-03	0	61	0	490733568	55	7199
2026-01-19 08:19:25.83	25.30	17.88	-42.8	-48.2	9.7	1.25e-02	0	61	0	491782144	56	7034
2026-01-19 08:19:26.84	25.09	17.83	-42.9	-48.5	9.5	1.41e-02	0	61	0	493879296	56	7231
2026-01-19 08:19:27.85	24.87	17.78	-43.1	-48.9	9.0	1.72e-02	0	61	0	495976448	56	7600
2026-01-19 08:19:28.86	24.66	17.73	-43.0	-48.9	9.0	2.68e-02	0	61	0	498073600	56	7589
2026-01-19 08:19:29.87	24.45	17.68	-43.1	-49.0	8.9	2.40e-02	0	61	0	500170752	56	7715
2026-01-19 08:19:30.88	24.23	17.63	-42.9	-48.6	9.4	1.72e-02	0	61	0	501219328	56	7299
2026-01-19 08:19:31.89	24.02	17.58	-42.8	-48.2	9.7	1.40e-02	0	61	0	503316480	56	7031
2026-01-19 08:19:32.90	23.81	17.53	-42.6	-47.6	10.4	8.07e-03	0	61	0	505413632	56	6504
2026-01-19 08:19:33.91	23.60	17.48	-42.4	-47.0	11.0	3.84e-03	0	61	0	507510784	56	6108
2026-01-19 08:19:34.92	23.39	17.43	-42.1	-46.4	11.6	9.29e-04	0	61	0	509607936	56	5696
2026-01-19 08:19:35.93	23.18	17.38	-41.9	-46.2	11.7	6.05e-04	0	61	0	510656512	55	5882
2026-01-19 08:19:36.94	22.97	17.33	-41.6	-45.6	12.2	3.67e-04	0	61	0	512753664	55	5524
2026-01-19 08:19:37.95	22.77	17.27	-41.6	-45.6	12.3	1.67e-04	0	61	0	514850816	55	5487
2026-01-19 08:19:38.96	22.56	17.22	-41.6	-45.6	12.3	2.30e-04	0	61	0	516947968	55	5503
2026-01-19 08:19:39.96	22.36	17.17	-41.6	-45.5	12.3	1.62e-04	0	61	0	519045120	55	5450
2026-01-19 08:19:40.97	22.15	17.12	-41.6	-45.6	12.3	2.18e-04	0	61	0	520093696	55	5480
2026-01-19 08:19:41.98	21.95	17.07	-41.8	-46.0	11.8	3.19e-04	0	61	0	522190848	55	5754
2026-01-19 08:19:42.99	21.74	17.01	-42.0	-46.4	11.5	6.15e-04	0	61	0	524288000	55	6010
2026-01-19 08:19:44.00	21.54	16.96	-42.1	-46.7	11.1	1.05e-03	0	61	0	526385152	55	6213
2026-01-19 08:19:45.01	21.34	16.91	-42.2	-46.9	10.9	2.21e-03	0	61	0	528482304	55	6367
2026-01-19 08:19:46.02	21.13	16.85	-42.2	-46.9	10.9	2.41e-03	0	61	0	529530880	55	6416
2026-01-19 08:19:47.03	20.93	16.80	-42.1	-46.7	11.0	1.96e-03	0	61	0	531628032	55	6273
2026-01-19 08:19:48.04	20.73	16.74	-41.9	-46.3	11.6	9.89e-04	0	61	0	533725184	55	5926
2026-01-19 08:19:49.04	20.54	16.69	-41.7	-45.9	11.9	5.04e-04	0	61	0	535822336	55	5707
2026-01-19 08:19:50.05	20.34	16.63	-41.6	-45.6	12.2	4.39e-04	0	61	0	537919488	55	5514
2026-01-19 08:19:51.06	20.14	16.58	-41.5	-45.5	12.4	1.59e-04	0	61	0	538968064	54	5744
2026-01-19 08:19:52.07	19.94	16.52	-41.9	-46.2	11.6	4.82e-04	0	61	0	541065216	54	6244
2026-01-19 08:19:53.08	19.75	16.47	-41.9	-46.4	11.4	7.06e-04	0	61	0	543162368	54	6382
2026-01-19 08:19:54.09	19.55	16.41	-42.2	-46.9	10.9	1.50e-03	0	61	0	545259520	54	6780
2026-01-19 08:19:55.10	19.35	16.36	-42.3	-47.3	10.4	2.85e-03	0	61	0	547356672	55	6654
2026-01-19 08:19:56.11	19.16	16.30	-42.5	-48.0	9.7	8.76e-03	0	61	0	549453824	55	7218
2026-01-19 08:19:57.12	18.97	16.24	-42.6	-48.1	9.6	1.49e-02	0	61	0	550502400	55	7291
2026-01-19 08:19:58.13	18.77	16.19	-42.7	-48.4	9.3	1.92e-02	0	61	0	552599552	55	7551
2026-01-19 08:19:59.13	18.58	16.13	-42.6	-48.3	9.4	1.72e-02	0	61	0	554696704	55	7479
2026-01-19 08:20:00.14	18.39	16.07	-42.6	-48.0	9.6	1.68e-02	0	61	0	556793856	55	7278
2026-01-19 08:20:01.15	18.20	16.02	-42.5	-47.9	9.7	9.80e-03	0	61	0	558891008	55	7203
2026-01-19 08:20:02.16	18.01	15.96	-42.4	-47.7	10.0	8.24e-03	0	61	0	559939584	55	6972
2026-01-19 08:20:03.17	17.82	15.90	-42.3	-47.2	10.4	5.71e-03	0	61	0	562036736	55	6638
2026-01-19 08:20:04.18	17.63	15.85	-42.2	-47.0	10.7	3.63e-03	0	61	0	564133888	55	6451
2026-01-19 08:20:05.19	17.45	15.79	-42.1	-46.8	10.8	2.82e-03	0	61	0	566231040	55	6339
2026-01-19 08:20:06.20	17.26	15.73	-42.1	-46.8	10.8	2.07e-03	0	61	0	568328192	55	6346
2026-01-19 08:20:07.21	17.07	15.67	-42.1	-46.8	10.8	2.44e-03	0	61	0	569376768	55	6330
2026-01-19 08:20:08.21	16.89	15.61	-42.1	-46.8	10.9	2.11e-03	0	61	0	571473920	55	6296
2026-01-19 08:20:09.22	16.71	15.56	-42.1	-46.7	10.9	1.98e-03	0	61	0	573571072	55	6260
2026-01-19 08:20:10.23	16.52	15.50	-42.0	-46.5	11.2	1.96e-03	0	61	0	575668224	55	6091
2026-01-19 08:20:11.25	16.34	15.44	-42.0	-46.7	11.0	1.87e-03	0	61	0	577765376	55	6223
2026-01-19 08:20:12.25	16.16	15.38	-42.1	-46.9	10.8	1.92e-03	0	61	0	578813952	55	6365
2026-01-19 08:20:13.26	15.97	15.32	-42.2	-47.2	10.4	2.27e-03	0	61	0	580911104	55	6624
2026-01-19 08:20:14.27	15.79	15.26	-42.2	-47.1	10.5	4.17e-03	0	61	0	583008256	55	6556
2026-01-19 08:20:15.28	15.61	15.20	-42.4	-47.6	10.0	5.29e-03	0	61	0	585105408	55	6924
2026-01-19 08:20:16.29	15.43	15.14	-42.4	-47.9	9.7	9.94e-03	0	61	0	587202560	55	7135
2026-01-19 08:20:17.30	15.25	15.08	-42.4	-47.7	9.8	1.07e-02	0	61	0	588251136	55	7031
2026-01-19 08:20:18.31	15.08	15.02	-42.4	-47.7	9.9	1.21e-02	0	61	0	590348288	55	6980
2026-01-19 08:20:19.32	14.90	14.96	-42.2	-47.4	10.2	8.67e-03	0	61	0	592445440	55	6732
2026-01-19 08:20:20.33	14.72	14.90	-42.1	-47.0	10.6	5.62e-03	0	61	0	594542592	55	6437
2026-01-19 08:20:21.34	14.55	14.84	-42.0	-46.8	10.8	3.18e-03	0	61	0	596639744	55	6305
2026-01-19 08:20:22.35	14.37	14.78	-41.9	-46.6	11.0	2.36e-03	0	61	0	597688320	55	6132
2026-01-19 08:20:23.36	14.20	14.72	-41.9	-46.7	10.9	1.88e-03	0	61	0	599785472	55	6209
2026-01-19 08:20:24.37	14.02	14.66	-41.9	-46.7	10.8	2.02e-03	0	61	0	601882624	55	6236
2026-01-19 08:20:25.38	13.85	14.60	-42.0	-46.9	10.6	2.81e-03	0	61	0	603979776	55	6361
2026-01-19 08:20:26.39	13.68	14.54	-42.0	-46.9	10.6	3.38e-03	0	61	0	606076928	55	6369
2026-01-19 08:20:27.40	13.51	14.48	-42.1	-47.1	10.4	4.43e-03	0	61	0	607125504	55	6555
2026-01-19 08:20:28.41	13.34	14.42	-42.1	-47.1	10.3	5.74e-03	0	61	0	609222656	55	6540
2026-01-19 08:20:29.41	13.17	14.36	-42.1	-47.3	10.1	7.55e-03	0	61	0	611319808	55	6689
2026-01-19 08:20:30.42	13.00	14.30	-42.2	-47.4	10.0	8.32e-03	0	61	0	613416960	55	6760
2026-01-19 08:20:31.43	12.83	14.23	-42.1	-47.2	10.2	6.04e-03	0	61	0	615514112	55	6579
2026-01-19 08:20:32.44	12.66	14.17	-42.0	-47.2	10.2	6.64e-03	0	61	0	616562688	55	6575
2026-01-19 08:20:33.45	12.49	14.11	-41.9	-46.9	10.4	5.32e-03	0	61	0	618659840	55	6386
2026-01-19 08:20:34.46	12.33	14.05	-41.8	-46.6	10.7	3.41e-03	0	61	0	620756992	55	6164
2026-01-19 08:20:35.47	12.16	13.99	-41.7	-46.3	11.0	2.47e-03	0	61	0	622854144	55	5964
2026-01-19 08:20:36.48	12.00	13.93	-41.6	-46.2	11.1	1.68e-03	0	61	0	624951296	55	5907
2026-01-19 08:20:37.49	11.83	13.86	-41.6	-46.2	11.1	1.60e-03	0	61	0	625999872	55	5894
2026-01-19 08:20:38.49	11.67	13.80	-41.6	-46.1	11.1	1.48e-03	0	61	0	628097024	55	5822
2026-01-19 08:20:39.50	11.51	13.74	-41.6	-46.0	11.1	1.61e-03	0	61	0	630194176	55	5788
2026-01-19 08:20:40.51	11.34	13.68	-41.4	-45.7	11.4	1.19e-03	0	61	0	632291328	54	5921
2026-01-19 08:20:41.52	11.18	13.62	-41.4	-45.7	11.4	1.06e-03	0	61	0	634388480	54	5902
2026-01-19 08:20:42.53	11.02	13.56	-41.3	-45.5	11.6	7.78e-04	0	61	0	635437056	54	5724
2026-01-19 08:20:43.54	10.86	13.49	-41.2	-45.4	11.8	5.53e-04	0	61	0	637534208	54	5661
2026-01-19 08:20:44.55	10.70	13.43	-41.2	-45.2	11.9	4.82e-04	0	61	0	639631360	54	5572
2026-01-19 08:20:45.56	10.54	13.37	-41.1	-45.1	11.9	4.05e-04	0	61	0	641728512	54	5524
2026-01-19 08:20:46.57	10.38	13.31	-40.8	-44.6	12.4	1.53e-04	0	61	0	643825664	53	5510
2026-01-19 08:20:47.57	10.23	13.24	-40.8	-44.6	12.4	1.14e-04	0	61	0	645922816	53	5487
2026-01-19 08:20:48.58	10.07	13.18	-40.7	-44.5	12.5	1.32e-04	0	61	0	646971392	53	5403
2026-01-19 08:20:49.59	9.91	13.12	-40.8	-44.7	12.1	1.92e-04	0	61	0	649068544	53	5574
2026-01-19 08:20:50.60	9.76	13.06	-40.9	-45.1	11.6	5.19e-04	0	62	0	651165696	53	5844
2026-01-19 08:20:51.61	9.60	12.99	-41.0	-45.4	11.3	8.51e-04	0	61	0	653262848	53	6027
2026-01-19 08:20:52.62	9.45	12.93	-41.2	-45.9	10.7	1.84e-03	0	61	0	655360000	53	6389
2026-01-19 08:20:53.63	9.30	12.87	-41.3	-46.1	10.4	4.00e-03	0	61	0	656408576	53	6524
2026-01-19 08:20:54.64	9.14	12.81	-41.3	-46.3	10.0	5.87e-03	0	61	0	658505728	53	6717
2026-01-19 08:20:55.65	8.99	12.74	-41.1	-46.0	10.4	6.64e-03	0	61	0	660602880	53	6421
2026-01-19 08:20:56.66	8.84	12.68	-41.1	-46.0	10.3	4.76e-03	0	61	0	662700032	53	6467
2026-01-19 08:20:57.67	8.69	12.62	-40.9	-45.6	10.6	5.98e-03	0	61	0	664797184	53	6188
2026-01-19 08:20:58.68	8.54	12.55	-40.7	-45.4	10.8	2.93e-03	0	61	0	665845760	53	6023
2026-01-19 08:20:59.68	8.39	12.49	-40.8	-45.7	10.4	4.09e-03	0	61	0	667942912	53	6213
2026-01-19 08:21:00.68	8.24	12.43	-40.6	-45.2	10.8	2.38e-03	0	61	0	670040064	53	5881
2026-01-19 08:21:01.69	8.09	12.37	-40.3	-44.8	11.2	1.63e-03	0	61	0	672137216	52	5943
2026-01-19 08:21:02.70	7.95	12.30	-40.3	-44.6	11.3	1.28e-03	0	61	0	674234368	52	5843
2026-01-19 08:21:03.71	7.80	12.24	-40.3	-44.7	11.2	1.02e-03	0	61	0	675282944	52	5913
2026-01-19 08:21:04.72	7.65	12.18	-40.1	-44.4	11.4	9.85e-04	0	61	0	677380096	52	5708
2026-01-19 08:21:05.73	7.51	12.11	-40.2	-44.7	11.0	1.29e-03	0	61	0	679477248	52	5916
2026-01-19 08:21:06.74	7.36	12.05	-40.5	-45.5	10.1	4.25e-03	0	61	0	681574400	52	6463
2026-01-19 08:21:07.75	7.22	11.99	-40.7	-46.4	9.0	1.46e-02	0	61	0	683671552	52	7201
2026-01-19 08:21:08.76	7.07	11.92	-41.0	-47.8	7.6	3.86e-02	0	61	0	684720128	52	8381
2026-01-19 08:21:09.77	6.93	11.86	-41.2	-48.8	6.6	1.62e-01	0	61	0	686817280	52	9410
2026-01-19 08:21:10.78	6.79	11.80	-41.3	-49.6	5.9	2.81e-01	0	61	0	688914432	53	9810
2026-01-19 08:21:11.79	6.65	11.74	-41.3	-50.5	5.2	4.88e-01	0	61	0	691011584	53	10791
2026-01-19 08:21:12.80	6.51	11.67	-41.4	-51.8	4.5	8.73e-01	0	61	0	693108736	53	12593
2026-01-19 08:21:13.81	6.37	11.61	-41.4	-53.2	4.1	1.38e+00	0	61	0	693108736	53	14802
2026-01-19 08:21:14.82	6.23	11.55	-41.8	-53.5	4.1	1.47e+00	0	61	0	693108736	54	14457
2026-01-19 08:21:15.83	6.09	11.48	-40.8	-55.4	3.8	1.49e+00	0	61	104	693108736	53	19149
2026-01-19 08:21:16.84	5.95	11.42	-41.1	-55.0	3.8	1.49e+00	0	61	104	693108736	53	18116
2026-01-19 08:21:17.85	5.81	11.36	-42.0	-55.8	3.8	1.49e+00	0	61	104	693108736	54	18903
2026-01-19 08:21:18.85	5.67	11.29	-41.6	-54.7	3.8	1.49e+00	0	61	104	693108736	54	16541
2026-01-19 08:21:19.86	5.54	11.23	-41.5	-54.8	3.8	1.49e+00	0	61	104	693108736	54	16850
2026-01-19 08:21:20.87	5.40	11.17	-41.4	-55.1	3.8	1.49e+00	0	61	104	693108736	54	17290
2026-01-19 08:21:21.88	5.26	11.10	-41.4	-55.1	3.8	1.49e+00	0	61	104	693108736	54	17439
2026-01-19 08:21:22.89	5.13	11.04	-41.3	-55.0	3.8	1.49e+00	0	61	104	693108736	54	17122
2026-01-19 08:21:23.90	4.99	10.98	-40.4	-55.0	3.8	1.49e+00	0	61	104	693108736	52	19184
2026-01-19 08:21:24.91	4.86	10.91	-40.4	-55.1	3.8	1.49e+00	0	61	104	693108736	52	19391
2026-01-19 08:21:25.92	4.73	10.85	-40.8	-55.5	3.8	1.49e+00	0	61	104	693108736	52	20326
2026-01-19 08:21:26.93	4.59	10.79	-41.0	-55.5	3.8	1.49e+00	0	61	104	693108736	52	20473
2026-01-19 08:21:27.94	4.46	10.72	-40.2	-54.9	3.8	1.49e+00	0	61	104	693108736	52	19003
2026-01-19 08:21:28.95	4.33	10.66	-40.1	-54.8	3.8	1.49e+00	0	61	104	693108736	52	18797
2026-01-19 08:21:29.96	4.20	10.60	-40.2	-54.9	3.8	1.49e+00	0	61	104	693108736	52	19152
2026-01-19 08:21:30.97	4.07	10.54	-40.1	-54.8	3.8	1.49e+00	0	61	104	693108736	52	18773
2026-01-19 08:21:31.97	3.94	10.47	-40.1	-54.8	3.8	1.49e+00	0	61	104	693108736	52	18799
2026-01-19 08:21:32.99	3.81	10.41	-40.1	-54.8	3.8	1.49e+00	0	61	104	693108736	52	18774
2026-01-19 08:21:34.00	3.68	10.35	-40.0	-54.8	3.8	1.49e+00	0	61	104	693108736	51	19867
2026-01-19 08:21:35.01	3.55	10.28	-40.1	-54.9	3.8	1.49e+00	0	61	104	693108736	51	20118
2026-01-19 08:21:36.01	3.43	10.22	-40.6	-55.4	3.8	1.49e+00	0	61	104	693108736	51	21286
2026-01-19 08:21:37.02	3.30	10.16	-40.0	-54.8	3.8	1.49e+00	0	61	104	693108736	51	19846
2026-01-19 08:21:38.03	3.17	10.09	-40.2	-54.9	3.8	1.49e+00	0	61	104	693108736	51	20231
2026-01-19 08:21:39.04	3.05	10.03	-40.0	-54.8	3.8	1.49e+00	0	61	104	693108736	51	19947
2026-01-19 08:21:40.05	2.92	9.97	-40.0	-54.7	3.8	1.49e+00	0	61	104	693108736	51	19841
2026-01-19 08:21:41.06	2.80	9.91	-39.9	-54.8	3.8	1.49e+00	0	61	104	693108736	51	19866
2026-01-19 08:21:42.07	2.67	9.84	-40.0	-54.7	3.8	1.49e+00	0	61	104	693108736	51	19813
2026-01-19 08:21:43.08	2.55	9.78	-39.9	-54.7	3.8	1.49e+00	0	62	104	693108736	51	19702
2026-01-19 08:21:44.09	2.42	9.72	-40.4	-55.1	3.8	1.49e+00	0	61	104	693108736	51	20570
2026-01-19 08:21:45.10	2.30	9.65	-40.1	-54.9	3.8	1.49e+00	0	61	104	693108736	51	20128
2026-01-19 08:21:46.10	2.18	9.59	-40.2	-54.9	3.8	1.49e+00	0	61	104	693108736	51	20228
2026-01-19 08:21:47.11	2.06	9.53	-40.2	-55.0	3.8	1.49e+00	0	62	104	693108736	51	20391
2026-01-19 08:21:48.12	1.94	9.47	-40.1	-54.8	3.8	1.49e+00	0	61	104	693108736	51	19987
2026-01-19 08:21:49.13	1.82	9.40	-40.0	-54.8	3.8	1.49e+00	0	61	104	693108736	51	19895
2026-01-19 08:21:50.14	1.70	9.34	-40.1	-54.8	3.8	1.49e+00	0	61	104	693108736	51	20040
2026-01-19 08:21:51.15	1.58	9.28	-40.1	-54.9	3.8	1.49e+00	0	61	104	693108736	51	20185
2026-01-19 08:21:52.16	1.46	9.22	-40.0	-54.8	3.8	1.49e+00	0	61	104	693108736	51	20002
2026-01-19 08:21:53.17	1.34	9.15	-39.9	-54.7	3.8	1.49e+00	0	61	104	693108736	51	19833
2026-01-19 08:21:54.18	1.22	9.09	-40.1	-54.9	3.8	1.49e+00	0	61	104	693108736	51	20088
2026-01-19 08:21:55.19	1.11	9.03	-40.0	-54.8	3.8	1.49e+00	0	61	104	693108736	51	20048
2026-01-19 08:21:56.19	0.99	8.97	-39.9	-54.7	3.8	1.49e+00	0	61	104	693108736	51	19824
2026-01-19 08:21:57.20	0.87	8.90	-39.8	-54.7	3.8	1.49e+00	0	61	104	693108736	51	19816
2026-01-19 08:21:58.21	0.76	8.84	-40.0	-54.8	3.8	1.49e+00	0	61	104	693108736	51	19892
2026-01-19 08:21:59.22	0.64	8.78	-40.0	-54.8	3.8	1.49e+00	0	61	104	693108736	51	19983
2026-01-19 08:22:00.23	0.53	8.72	-39.9	-54.7	3.8	1.49e+00	0	62	104	693108736	51	19684
2026-01-19 08:22:01.24	0.41	8.66	-39.7	-54.8	3.8	1.49e+00	0	61	104	693108736	51	19882
2026-01-19 08:22:02.25	0.30	8.59	-39.9	-54.8	3.8	1.49e+00	0	62	104	693108736	51	19871
2026-01-19 08:22:03.26	0.19	8.53	-39.8	-54.8	3.8	1.49e+00	0	61	104	693108736	51	19969
2026-01-19 08:22:04.27	0.07	8.47	-39.9	-54.7	3.8	1.49e+00	0	62	104	693108736	51	19746
2026-01-19 08:22:05.28	359.96	8.41	-39.6	-54.7	3.8	1.49e+00	0	61	104	693108736	51	19838
2026-01-19 08:22:06.28	359.85	8.35	-39.8	-54.7	3.8	1.49e+00	0	61	104	693108736	51	19744
2026-01-19 08:22:07.29	359.74	8.28	-39.6	-54.8	3.8	1.49e+00	0	61	104	693108736	51	19901
2026-01-19 08:22:08.30	359.63	8.22	-39.7	-54.7	3.8	1.49e+00	0	61	104	693108736	51	19786
2026-01-19 08:22:09.32	359.52	8.16	-39.6	-54.7	3.8	1.49e+00	0	61	104	693108736	51	19727
2026-01-19 08:22:10.32	359.41	8.10	-39.7	-54.7	3.8	1.49e+00	0	62	104	693108736	51	19839
2026-01-19 08:22:11.33	359.30	8.04	-39.6	-54.8	3.8	1.49e+00	0	61	104	693108736	51	19865
2026-01-19 08:22:12.34	359.19	7.98	-41.2	-55.9	3.8	1.49e+00	0	61	104	693108736	52	21395
2026-01-19 08:22:13.35	359.08	7.91	-44.6	-59.1	3.8	1.49e+00	0	61	104	693108736	59	20750
2026-01-19 08:22:14.36	358.98	7.85	-45.0	-59.7	3.8	1.49e+00	0	61	104	693108736	60	20987
2026-01-19 08:22:15.37	358.87	7.79	-45.2	-59.9	3.8	1.49e+00	0	61	104	693108736	60	21416
2026-01-19 08:22:16.39	358.76	7.73	-45.3	-60.0	3.8	1.49e+00	0	61	104	693108736	61	20502
2026-01-19 08:22:17.40	358.65	7.67	-45.5	-60.2	3.8	1.49e+00	0	61	104	693108736	61	20822
2026-01-19 08:22:18.41	358.55	7.61	-45.4	-60.1	3.8	1.49e+00	0	62	104	693108736	61	20770
2026-01-19 08:22:19.42	358.44	7.54	-45.5	-60.1	3.8	1.49e+00	0	61	104	693108736	61	20738
2026-01-19 08:22:20.43	358.34	7.48	-45.5	-60.2	3.8	1.49e+00	0	61	104	693108736	61	20849
2026-01-19 08:22:21.44	358.23	7.42	-45.5	-60.2	3.8	1.49e+00	0	61	104	693108736	61	20846
2026-01-19 08:22:22.45	358.13	7.36	-45.4	-60.1	3.8	1.49e+00	0	61	104	693108736	61	20552
2026-01-19 08:22:23.46	358.02	7.30	-45.3	-60.0	3.8	1.49e+00	0	61	104	693108736	61	20510
2026-01-19 08:22:24.47	357.92	7.24	-45.4	-60.0	3.8	1.49e+00	0	61	104	693108736	61	20366
2026-01-19 08:22:25.48	357.82	7.18	-45.4	-60.0	3.8	1.49e+00	0	62	104	693108736	61	20367
2026-01-19 08:22:26.49	357.71	7.12	-45.4	-60.0	3.8	1.49e+00	0	61	104	693108736	61	20312
2026-01-19 08:22:27.50	357.61	7.06	-45.3	-59.8	3.8	1.49e+00	0	61	104	693108736	61	20069
2026-01-19 08:22:28.51	357.51	7.00	-45.3	-59.9	3.8	1.49e+00	0	61	104	693108736	61	20139
2026-01-19 08:22:29.52	357.41	6.94	-45.1	-59.9	3.8	1.49e+00	0	61	104	693108736	61	20165
2026-01-19 08:22:30.53	357.31	6.87	-45.2	-59.6	3.8	1.49e+00	0	62	104	693108736	60	20606
2026-01-19 08:22:31.54	357.21	6.81	-45.3	-59.8	3.8	1.49e+00	0	61	104	693108736	61	20046
2026-01-19 08:22:32.55	357.11	6.75	-45.3	-59.8	3.8	1.49e+00	0	62	104	693108736	61	20049
2026-01-19 08:22:33.56	357.01	6.69	-45.3	-59.9	3.8	1.49e+00	0	61	104	693108736	61	20073
2026-01-19 08:22:34.57	356.91	6.63	-45.3	-59.8	3.8	1.49e+00	0	61	104	693108736	61	20023
2026-01-19 08:22:35.58	356.81	6.57	-44.9	-59.9	3.8	1.49e+00	0	61	104	693108736	61	20091
2026-01-19 08:22:36.59	356.71	6.51	-45.3	-59.8	3.8	1.49e+00	0	62	104	693108736	61	20018
2026-01-19 08:22:37.60	356.62	6.45	-45.3	-59.8	3.8	1.49e+00	0	62	104	693108736	61	20032
2026-01-19 08:22:38.61	356.52	6.39	-45.3	-59.8	3.8	1.49e+00	0	61	104	693108736	61	20047
2026-01-19 08:22:39.62	356.42	6.33	-45.3	-59.8	3.8	1.49e+00	0	61	104	693108736	61	20043
2026-01-19 08:22:40.63	356.33	6.27	-45.2	-59.8	3.8	1.49e+00	0	61	104	693108736	61	20064
2026-01-19 08:22:41.64	356.23	6.21	-45.3	-59.8	3.8	1.49e+00	0	61	104	693108736	61	19966
2026-01-19 08:22:42.65	356.13	6.15	-45.3	-59.8	3.8	1.49e+00	0	62	104	693108736	61	19990
2026-01-19 08:22:43.66	356.04	6.09	-45.3	-59.8	3.8	1.49e+00	0	61	104	693108736	61	20016
2026-01-19 08:22:44.68	355.94	6.03	-45.2	-59.8	3.8	1.49e+00	0	61	104	693108736	61	20019
2026-01-19 08:22:45.69	355.85	5.97	-45.3	-59.8	3.8	1.49e+00	0	62	104	693108736	61	19974
2026-01-19 08:22:46.70	355.76	5.91	-45.2	-59.8	3.8	1.49e+00	0	61	104	693108736	61	20010
2026-01-19 08:22:47.71	355.66	5.85	-45.3	-59.8	3.8	1.49e+00	0	61	104	693108736	61	20035
2026-01-19 08:22:48.72	355.57	5.79	-45.3	-59.8	3.8	1.49e+00	0	61	104	693108736	61	20029
2026-01-19 08:22:49.73	355.48	5.73	-44.8	-59.8	3.8	1.49e+00	0	61	104	693108736	61	19955
2026-01-19 08:22:50.74	355.38	5.67	-43.9	-59.4	3.8	1.49e+00	0	62	104	693108736	60	20109
2026-01-19 08:22:51.75	355.29	5.61	-45.3	-59.8	3.8	1.49e+00	0	61	104	693108736	61	19894
2026-01-19 08:22:52.76	355.20	5.55	-45.3	-59.8	3.8	1.49e+00	0	61	104	693108736	61	19981
2026-01-19 08:22:53.77	355.11	5.50	-45.3	-59.8	3.8	1.49e+00	0	61	104	693108736	61	19993
2026-01-19 08:22:54.78	355.02	5.44	-45.2	-59.8	3.8	1.49e+00	0	61	104	693108736	61	20034
2026-01-19 08:22:55.79	354.93	5.38	-45.3	-59.8	3.8	1.49e+00	0	62	104	693108736	61	19956
2026-01-19 08:22:56.79	354.84	5.32	-45.1	-59.8	3.8	1.49e+00	0	61	104	693108736	61	19960
2026-01-19 08:22:57.80	354.75	5.26	-45.2	-59.8	3.8	1.49e+00	0	61	104	693108736	61	19914
2026-01-19 08:22:58.81	354.66	5.20	-45.3	-59.8	3.8	1.49e+00	0	61	104	693108736	61	20003
2026-01-19 08:22:59.82	354.57	5.14	-45.3	-59.8	3.8	1.49e+00	0	61	104	693108736	61	19932
2026-01-19 08:23:00.83	354.48	5.08	-45.3	-59.8	3.8	1.49e+00	0	61	104	693108736	61	19998
2026-01-19 08:23:01.84	354.39	5.02	-45.3	-59.8	3.8	1.49e+00	0	61	104	693108736	61	19917
2026-01-19 08:23:02.85	354.31	4.97	-45.3	-59.8	3.8	1.49e+00	0	61	104	693108736	61	19874
2026-01-19 08:23:03.86	354.22	4.91	-45.2	-59.8	3.8	1.49e+00	0	61	104	693108736	61	19926
2026-01-19 08:23:04.87	354.13	4.85	-45.2	-59.8	3.8	1.49e+00	0	61	104	693108736	61	19912
2026-01-19 08:23:05.88	354.04	4.79	-45.2	-59.8	3.8	1.49e+00	0	61	104	693108736	61	19860
2026-01-19 08:23:06.89	353.96	4.73	-45.2	-59.8	3.8	1.49e+00	0	61	104	693108736	61	19896
2026-01-19 08:23:07.90	353.87	4.67	-45.2	-59.7	3.8	1.49e+00	0	62	104	693108736	61	19829
2026-01-19 08:23:08.91	353.79	4.62	-45.2	-59.8	3.8	1.49e+00	0	62	104	693108736	61	19892
2026-01-19 08:23:09.92	353.70	4.56	-45.2	-59.8	3.8	1.49e+00	0	62	104	693108736	61	19847
2026-01-19 08:23:10.94	353.62	4.50	-45.2	-59.7	3.8	1.49e+00	0	62	104	693108736	61	19754
2026-01-19 08:23:11.95	353.53	4.44	-45.2	-59.7	3.8	1.49e+00	0	61	104	693108736	61	19838
2026-01-19 08:23:12.96	353.45	4.38	-45.2	-59.7	3.8	1.49e+00	0	61	104	693108736	61	19722
2026-01-19 08:23:13.97	353.36	4.32	-45.2	-59.7	3.8	1.49e+00	0	61	104	693108736	61	19788
2026-01-19 08:23:14.97	353.28	4.27	-45.2	-59.7	3.8	1.49e+00	0	61	104	693108736	60	20985
2026-01-19 08:23:15.99	353.20	4.21	-45.1	-59.7	3.8	1.49e+00	0	61	104	693108736	61	19808
2026-01-19 08:23:17.00	353.11	4.15	-45.2	-59.7	3.8	1.49e+00	0	61	104	693108736	61	19801
2026-01-19 08:23:18.01	353.03	4.09	-45.2	-59.8	3.8	1.49e+00	0	61	104	693108736	60	21036
2026-01-19 08:23:19.02	352.95	4.04	-45.2	-59.7	3.8	1.49e+00	0	62	104	693108736	60	20985
2026-01-19 08:23:20.03	352.87	3.98	-45.2	-59.8	3.8	1.49e+00	0	61	104	693108736	60	21054
2026-01-19 08:23:21.04	352.79	3.92	-45.2	-59.7	3.8	1.49e+00	0	62	104	693108736	60	20973
2026-01-19 08:23:22.05	352.70	3.86	-45.2	-59.8	3.8	1.49e+00	0	62	104	693108736	60	21054
2026-01-19 08:23:23.06	352.62	3.81	-45.2	-59.8	3.8	1.49e+00	0	62	104	693108736	61	19857
2026-01-19 08:23:24.07	352.54	3.75	-45.2	-59.8	3.8	1.49e+00	0	62	104	693108736	61	19845
2026-01-19 08:23:25.08	352.46	3.69	-45.2	-59.7	3.8	1.49e+00	0	61	104	693108736	61	19766
2026-01-19 08:23:26.09	352.38	3.63	-45.1	-59.7	3.8	1.49e+00	0	62	104	693108736	61	19803
2026-01-19 08:23:27.10	352.30	3.58	-45.2	-59.7	3.8	1.49e+00	0	62	104	693108736	61	19773
2026-01-19 08:23:28.11	352.22	3.52	-45.2	-59.7	3.8	1.49e+00	0	62	104	693108736	61	19797
2026-01-19 08:23:29.12	352.15	3.46	-45.2	-59.7	3.8	1.49e+00	0	62	104	693108736	60	20992
2026-01-19 08:23:30.13	352.07	3.41	-45.2	-59.7	3.8	1.49e+00	0	61	104	693108736	60	20944
