passes_logs/2026/01/19/R2.0S_Moscow/R2.0S_Moscow__20260119_122848_FENGYUN_3D_rec.log

#Pass ID: 20260119_122848_FENGYUN 3D
#Satellite: FENGYUN 3D
#Configuration: FENGYUN 3D
#almurnet v.1.7.20251203
#Start time: 2026-01-19 12:28:50

#Version: 2.2.20231116
#Station: R2.0S_Moscow
#Location: 37.707566 lon 55.798166 lat
#TLE: 1 43010U 17072A   26017.96359538  .00000271  00000+0  15011-3 0  9999
#TLE: 2 43010  98.9936 349.8252 0002386 103.8840 256.2601 14.19697057423673

#Time	Az	El	Level	Level2	SNR	BER	BlckErr	Temp	State	Recorded	gain1	gain2
2026-01-19 12:28:50.47	175.33	2.12	-43.3	-54.9	3.8	8.46e-01	0	53	0	0	58	13558
2026-01-19 12:28:51.49	175.36	2.19	-43.3	-54.9	3.8	8.46e-01	0	53	104	0	58	13561
2026-01-19 12:28:52.50	175.39	2.25	-43.4	-54.9	3.8	8.46e-01	0	53	104	0	58	13493
2026-01-19 12:28:53.51	175.41	2.32	-43.3	-54.9	3.8	8.47e-01	0	53	104	0	58	13535
2026-01-19 12:28:54.52	175.44	2.38	-43.3	-54.9	3.8	8.47e-01	0	53	104	0	58	13530
2026-01-19 12:28:55.53	175.47	2.44	-43.3	-54.9	3.8	8.45e-01	0	54	104	0	58	13532
2026-01-19 12:28:56.54	175.49	2.51	-43.4	-54.9	3.8	8.46e-01	0	54	104	0	58	13529
2026-01-19 12:28:57.55	175.52	2.58	-43.3	-54.9	3.8	8.46e-01	0	54	104	0	58	13480
2026-01-19 12:28:58.56	175.55	2.64	-43.3	-54.9	3.8	8.47e-01	0	54	104	0	58	13521
2026-01-19 12:28:59.57	175.57	2.71	-43.3	-55.0	3.8	8.46e-01	0	54	104	0	58	13608
2026-01-19 12:29:00.58	175.60	2.77	-43.3	-54.9	3.8	8.46e-01	0	54	104	0	58	13539
2026-01-19 12:29:01.59	175.63	2.84	-43.3	-54.9	3.8	8.45e-01	0	54	104	0	58	13486
2026-01-19 12:29:02.60	175.65	2.90	-43.3	-54.9	3.8	8.46e-01	0	54	104	0	58	13551
2026-01-19 12:29:03.61	175.68	2.97	-43.4	-54.9	3.8	8.44e-01	0	54	104	0	58	13561
2026-01-19 12:29:04.62	175.71	3.03	-43.3	-54.9	3.8	8.46e-01	0	54	104	0	58	13535
2026-01-19 12:29:05.63	175.74	3.10	-43.3	-54.9	3.8	8.47e-01	0	54	104	0	58	13557
2026-01-19 12:29:06.64	175.76	3.17	-43.3	-54.9	3.8	8.48e-01	0	54	104	0	58	13535
2026-01-19 12:29:07.65	175.79	3.23	-43.3	-54.9	3.8	8.47e-01	0	54	104	0	58	13481
2026-01-19 12:29:08.66	175.82	3.30	-43.3	-54.9	3.8	8.45e-01	0	54	104	0	58	13523
2026-01-19 12:29:09.67	175.85	3.37	-43.3	-54.9	3.8	8.46e-01	0	55	104	0	58	13564
2026-01-19 12:29:10.69	175.88	3.44	-43.3	-54.9	3.8	8.46e-01	0	55	104	0	58	13513
2026-01-19 12:29:11.70	175.91	3.50	-43.3	-54.9	3.8	8.47e-01	0	55	104	0	58	13504
2026-01-19 12:29:12.70	175.93	3.57	-43.3	-54.9	3.8	8.47e-01	0	55	104	0	58	13535
2026-01-19 12:29:13.72	175.96	3.64	-43.3	-54.9	3.8	8.46e-01	0	55	104	0	58	13488
2026-01-19 12:29:14.72	175.99	3.71	-43.3	-54.9	3.8	8.45e-01	0	55	104	0	58	13421
2026-01-19 12:29:15.74	176.02	3.77	-43.3	-54.9	3.8	8.47e-01	0	55	104	0	58	13529
2026-01-19 12:29:16.75	176.05	3.84	-43.3	-54.9	3.8	8.46e-01	0	55	104	0	58	13521
2026-01-19 12:29:17.76	176.08	3.91	-43.3	-54.9	3.8	8.47e-01	0	55	104	0	58	13480
2026-01-19 12:29:18.77	176.11	3.98	-43.3	-54.9	3.8	8.46e-01	0	55	104	0	58	13478
2026-01-19 12:29:19.78	176.14	4.05	-43.3	-54.9	3.8	8.46e-01	0	55	104	0	58	13502
2026-01-19 12:29:20.79	176.17	4.12	-43.3	-54.9	3.8	8.45e-01	0	55	104	0	58	13520
2026-01-19 12:29:21.80	176.20	4.18	-43.3	-54.9	3.8	8.46e-01	0	55	104	0	58	13465
2026-01-19 12:29:22.81	176.22	4.25	-43.3	-54.9	3.8	8.47e-01	0	55	104	0	58	13484
2026-01-19 12:29:23.82	176.25	4.32	-43.3	-54.9	3.8	8.47e-01	0	55	104	0	58	13423
2026-01-19 12:29:24.83	176.28	4.39	-43.3	-54.9	3.8	8.46e-01	0	56	104	0	58	13470
2026-01-19 12:29:25.84	176.31	4.46	-43.3	-54.9	3.8	8.46e-01	0	56	104	0	58	13489
2026-01-19 12:29:26.85	176.34	4.53	-43.3	-54.9	3.8	8.47e-01	0	56	104	0	58	13455
2026-01-19 12:29:27.86	176.37	4.60	-43.3	-54.9	3.8	8.47e-01	0	56	104	0	58	13420
2026-01-19 12:29:28.87	176.41	4.67	-43.3	-54.9	3.8	8.45e-01	0	56	104	0	58	13480
2026-01-19 12:29:29.88	176.44	4.74	-43.3	-54.8	3.8	8.45e-01	0	56	104	0	58	13364
2026-01-19 12:29:30.89	176.47	4.81	-43.3	-54.7	3.8	8.46e-01	0	56	104	0	58	13233
2026-01-19 12:29:31.90	176.50	4.88	-43.3	-54.7	3.8	8.46e-01	0	56	104	0	58	13238
2026-01-19 12:29:32.91	176.53	4.95	-43.3	-54.6	3.8	8.46e-01	0	56	104	0	58	13107
2026-01-19 12:29:33.92	176.56	5.03	-43.3	-54.5	3.8	8.48e-01	0	56	104	0	58	12857
2026-01-19 12:29:34.93	176.59	5.10	-43.3	-54.2	3.8	8.46e-01	0	56	104	0	58	12396
2026-01-19 12:29:35.95	176.62	5.17	-43.2	-53.8	3.8	8.46e-01	0	56	104	0	58	11874
2026-01-19 12:29:36.95	176.65	5.24	-43.2	-53.5	3.8	8.44e-01	0	56	104	0	58	11547
2026-01-19 12:29:37.97	176.69	5.31	-43.1	-53.2	3.8	8.45e-01	0	56	104	0	58	11119
2026-01-19 12:29:38.98	176.72	5.38	-43.1	-53.0	3.9	8.46e-01	0	56	104	0	58	10836
2026-01-19 12:29:39.99	176.75	5.46	-43.1	-52.8	3.8	8.46e-01	0	56	104	0	58	10645
2026-01-19 12:29:41.00	176.78	5.53	-43.1	-52.5	4.0	8.45e-01	0	56	104	0	58	10290
2026-01-19 12:29:42.01	176.81	5.60	-43.0	-52.5	3.8	8.44e-01	0	56	104	0	58	10230
2026-01-19 12:29:43.02	176.85	5.67	-43.0	-52.2	4.0	8.43e-01	0	57	104	0	58	9832
2026-01-19 12:29:44.03	176.88	5.75	-42.9	-51.7	4.1	8.42e-01	0	56	0	0	57	9887
2026-01-19 12:29:45.04	176.91	5.82	-42.8	-51.2	4.2	8.36e-01	0	57	0	0	57	9314
2026-01-19 12:29:46.05	176.94	5.89	-42.7	-50.7	4.4	8.30e-01	0	57	0	0	57	8771
2026-01-19 12:29:47.06	176.98	5.97	-42.7	-50.3	4.5	8.20e-01	0	57	0	0	57	8453
2026-01-19 12:29:48.07	177.01	6.04	-42.7	-50.2	4.6	8.17e-01	0	57	0	0	57	8342
2026-01-19 12:29:49.08	177.04	6.11	-42.5	-49.8	4.7	8.05e-01	0	57	0	0	57	7959
2026-01-19 12:29:50.09	177.08	6.19	-42.5	-49.7	4.8	7.89e-01	0	57	0	0	57	7824
2026-01-19 12:29:51.10	177.11	6.26	-42.5	-49.6	4.9	7.84e-01	0	57	0	0	57	7760
2026-01-19 12:29:52.11	177.15	6.34	-42.6	-49.9	4.7	8.00e-01	0	57	0	0	57	7999
2026-01-19 12:29:53.12	177.18	6.41	-42.5	-49.6	4.8	8.03e-01	0	57	0	0	57	7767
2026-01-19 12:29:54.13	177.21	6.49	-42.5	-49.4	4.9	7.77e-01	0	57	0	0	56	8061
2026-01-19 12:29:55.15	177.25	6.56	-42.5	-49.4	4.9	7.71e-01	0	57	0	0	56	8048
2026-01-19 12:29:56.16	177.28	6.64	-42.4	-49.1	5.1	7.61e-01	0	57	0	0	56	7761
2026-01-19 12:29:57.17	177.32	6.71	-42.2	-48.4	5.6	7.21e-01	0	57	0	0	56	7185
2026-01-19 12:29:58.18	177.35	6.79	-42.2	-48.4	5.6	6.72e-01	0	57	0	3145728	56	7161
2026-01-19 12:29:59.19	177.39	6.87	-42.0	-47.9	6.0	4.02e-01	0	57	0	8388608	56	6726
2026-01-19 12:30:00.20	177.42	6.94	-41.7	-47.1	6.5	2.67e-01	0	57	0	13631488	55	6503
2026-01-19 12:30:01.21	177.46	7.02	-41.5	-46.5	6.9	2.11e-01	0	57	0	18874368	54	6469
2026-01-19 12:30:02.22	177.49	7.10	-41.3	-46.0	7.4	1.40e-01	0	57	0	25165824	54	6083
2026-01-19 12:30:03.23	177.53	7.17	-40.8	-45.1	8.3	7.47e-02	0	57	0	30408704	53	5794
2026-01-19 12:30:04.24	177.56	7.25	-40.6	-44.6	8.8	4.05e-02	0	58	0	36700160	53	5510
2026-01-19 12:30:05.25	177.60	7.33	-40.2	-43.8	9.7	2.06e-02	0	58	0	41943040	52	5281
2026-01-19 12:30:06.26	177.64	7.40	-40.0	-43.4	10.2	9.99e-03	0	58	0	47185920	51	5341
2026-01-19 12:30:07.27	177.67	7.48	-39.7	-42.8	10.7	4.47e-03	0	57	0	53477376	51	5015
2026-01-19 12:30:08.28	177.71	7.56	-39.5	-42.5	11.1	2.70e-03	0	57	0	58720256	50	5108
2026-01-19 12:30:09.29	177.75	7.64	-39.3	-42.2	11.4	1.76e-03	0	58	0	65011712	50	4973
2026-01-19 12:30:10.31	177.78	7.72	-39.2	-42.0	11.6	1.16e-03	0	58	0	70254592	50	4867
2026-01-19 12:30:11.32	177.82	7.80	-39.2	-42.1	11.5	1.17e-03	0	58	0	75497472	50	4910
2026-01-19 12:30:12.33	177.86	7.88	-39.3	-42.2	11.4	1.14e-03	0	58	0	81788928	50	4960
2026-01-19 12:30:13.34	177.89	7.96	-39.2	-42.0	11.6	1.08e-03	0	58	0	87031808	50	4834
2026-01-19 12:30:14.35	177.93	8.04	-39.4	-42.2	11.4	1.59e-03	0	58	0	93323264	50	4978
2026-01-19 12:30:15.36	177.97	8.11	-40.3	-43.5	10.5	5.63e-03	0	58	0	98566144	51	5446
2026-01-19 12:30:16.37	178.01	8.19	-39.6	-42.5	11.5	2.16e-02	0	58	0	104857600	51	4819
2026-01-19 12:30:17.38	178.05	8.28	-41.8	-48.1	5.4	8.16e-01	0	58	0	106954752	54	7771
2026-01-19 12:30:18.39	178.08	8.36	-40.2	-43.6	9.8	7.54e-01	0	58	0	110100480	52	5213
2026-01-19 12:30:19.40	178.12	8.44	-40.4	-43.8	10.0	2.92e-02	0	58	0	116391936	52	5294
2026-01-19 12:30:20.40	178.16	8.52	-39.1	-41.8	12.2	3.02e-04	0	58	0	121634816	50	4710
2026-01-19 12:30:21.41	178.20	8.60	-39.2	-41.8	12.2	4.04e-04	0	58	0	127926272	50	4734
2026-01-19 12:30:22.42	178.24	8.68	-39.2	-41.8	12.2	4.00e-04	0	58	0	133169152	50	4754
2026-01-19 12:30:23.43	178.28	8.76	-39.2	-41.8	12.3	3.09e-04	0	58	0	139460608	50	4721
2026-01-19 12:30:24.44	178.32	8.84	-39.2	-41.8	12.2	2.80e-04	0	58	0	144703488	50	4753
2026-01-19 12:30:25.45	178.36	8.93	-39.1	-41.7	12.4	2.78e-04	0	58	0	149946368	50	4669
2026-01-19 12:30:26.46	178.40	9.01	-39.1	-41.6	12.6	1.68e-04	0	58	0	156237824	50	4622
2026-01-19 12:30:27.47	178.44	9.09	-39.0	-41.5	12.8	1.11e-04	0	58	0	161480704	50	4551
2026-01-19 12:30:28.48	178.48	9.17	-39.1	-41.5	12.7	1.09e-04	0	58	0	167772160	50	4584
2026-01-19 12:30:29.48	178.52	9.26	-39.1	-41.6	12.7	9.72e-05	0	58	0	173015040	50	4620
2026-01-19 12:30:30.49	178.56	9.34	-39.1	-41.6	12.7	1.05e-04	0	58	0	178257920	50	4632
2026-01-19 12:30:31.50	178.60	9.42	-39.1	-41.6	12.8	1.32e-04	0	58	0	184549376	50	4610
2026-01-19 12:30:32.52	178.64	9.51	-39.1	-41.6	12.8	1.09e-04	0	59	0	189792256	50	4609
2026-01-19 12:30:33.53	178.68	9.59	-39.1	-41.5	12.9	5.37e-05	0	59	0	196083712	50	4554
2026-01-19 12:30:34.54	178.73	9.68	-39.0	-41.4	13.0	6.52e-05	0	58	0	201326592	50	4515
2026-01-19 12:30:35.55	178.77	9.76	-39.1	-41.4	13.0	6.17e-05	0	59	0	206569472	50	4544
2026-01-19 12:30:36.56	178.81	9.85	-39.0	-41.4	13.1	4.80e-05	0	59	0	212860928	50	4500
2026-01-19 12:30:37.57	178.85	9.93	-39.1	-41.4	13.0	6.17e-05	0	59	0	218103808	50	4537
2026-01-19 12:30:38.58	178.90	10.02	-39.0	-41.4	13.2	3.54e-05	0	59	0	224395264	50	4498
2026-01-19 12:30:39.59	178.94	10.11	-39.0	-41.4	13.2	4.23e-05	0	59	0	229638144	50	4500
2026-01-19 12:30:40.60	178.98	10.19	-39.0	-41.3	13.2	4.46e-05	0	59	0	235929600	50	4469
2026-01-19 12:30:41.61	179.02	10.28	-39.1	-41.4	13.2	3.89e-05	0	59	0	241172480	50	4516
2026-01-19 12:30:42.62	179.07	10.37	-39.1	-41.4	13.2	3.54e-05	0	59	0	246415360	50	4543
2026-01-19 12:30:43.63	179.11	10.45	-39.0	-41.3	13.3	3.31e-05	0	59	0	252706816	50	4472
2026-01-19 12:30:44.64	179.16	10.54	-39.0	-41.3	13.3	2.74e-05	0	59	0	257949696	50	4470
2026-01-19 12:30:45.65	179.20	10.63	-38.9	-41.2	13.4	2.86e-05	0	59	0	264241152	49	4661
2026-01-19 12:30:46.66	179.25	10.72	-38.9	-41.2	13.4	2.86e-05	0	59	0	269484032	49	4689
2026-01-19 12:30:47.67	179.29	10.80	-38.9	-41.2	13.4	1.14e-05	0	59	0	274726912	49	4668
2026-01-19 12:30:48.68	179.34	10.89	-38.9	-41.2	13.4	3.20e-05	0	59	0	281018368	49	4702
2026-01-19 12:30:49.69	179.38	10.98	-39.0	-41.3	13.4	2.28e-05	0	59	0	286261248	49	4710
2026-01-19 12:30:50.70	179.43	11.07	-38.9	-41.1	13.5	1.60e-05	0	59	0	292552704	49	4639
2026-01-19 12:30:51.71	179.47	11.16	-38.9	-41.2	13.5	1.60e-05	0	59	0	297795584	49	4656
2026-01-19 12:30:52.71	179.52	11.25	-38.9	-41.1	13.5	1.83e-05	0	59	0	303038464	49	4645
2026-01-19 12:30:53.72	179.56	11.34	-38.9	-41.2	13.5	1.37e-05	0	59	0	309329920	49	4660
2026-01-19 12:30:54.73	179.61	11.43	-39.0	-41.3	13.4	1.94e-05	0	59	0	314572800	49	4721
2026-01-19 12:30:55.74	179.66	11.52	-39.0	-41.3	13.4	2.40e-05	0	59	0	320864256	49	4733
2026-01-19 12:30:56.75	179.70	11.61	-39.0	-41.3	13.4	3.43e-05	0	59	0	326107136	49	4716
2026-01-19 12:30:57.76	179.75	11.71	-38.9	-41.2	13.5	1.37e-05	0	59	0	332398592	49	4688
2026-01-19 12:30:58.77	179.80	11.80	-38.9	-41.1	13.5	2.28e-05	0	59	0	337641472	49	4648
2026-01-19 12:30:59.78	179.85	11.89	-38.9	-41.2	13.5	1.94e-05	0	59	0	343932928	49	4677
2026-01-19 12:31:00.79	179.90	11.98	-39.0	-41.3	13.4	2.17e-05	0	59	0	349175808	49	4724
2026-01-19 12:31:01.80	179.95	12.08	-39.0	-41.4	13.4	3.31e-05	0	59	0	354418688	49	4762
2026-01-19 12:31:02.81	179.99	12.17	-39.0	-41.3	13.4	2.97e-05	0	59	0	360710144	49	4715
2026-01-19 12:31:03.82	180.04	12.26	-38.9	-41.1	13.6	1.25e-05	0	59	0	365953024	49	4638
2026-01-19 12:31:04.83	180.09	12.36	-38.9	-41.2	13.6	1.94e-05	0	59	0	372244480	49	4659
2026-01-19 12:31:05.84	180.14	12.45	-38.9	-41.2	13.5	1.37e-05	0	59	0	377487360	49	4678
2026-01-19 12:31:06.85	180.19	12.55	-38.9	-41.2	13.6	1.60e-05	0	59	0	382730240	49	4671
2026-01-19 12:31:07.86	180.24	12.64	-38.8	-41.1	13.7	1.25e-05	0	60	0	389021696	49	4603
2026-01-19 12:31:08.87	180.29	12.74	-38.9	-41.1	13.7	1.60e-05	0	59	0	394264576	49	4622
2026-01-19 12:31:09.88	180.34	12.83	-38.9	-41.1	13.6	8.00e-06	0	59	0	400556032	49	4631
2026-01-19 12:31:10.89	180.40	12.93	-38.8	-41.0	13.8	3.40e-06	0	60	0	405798912	49	4563
2026-01-19 12:31:11.90	180.45	13.02	-38.8	-41.0	13.8	1.02e-05	0	60	0	411041792	49	4558
2026-01-19 12:31:12.91	180.50	13.12	-38.8	-41.0	13.8	6.80e-06	0	59	0	417333248	49	4576
2026-01-19 12:31:13.92	180.55	13.22	-38.8	-41.0	13.8	1.25e-05	0	60	0	422576128	49	4575
2026-01-19 12:31:14.92	180.60	13.32	-38.7	-40.9	13.9	1.14e-05	0	59	0	428867584	49	4517
2026-01-19 12:31:15.93	180.66	13.41	-38.6	-40.8	14.0	3.40e-06	0	60	0	434110464	49	4451
2026-01-19 12:31:16.94	180.71	13.51	-38.6	-40.7	14.1	2.20e-06	0	59	0	440401920	49	4412
2026-01-19 12:31:17.95	180.76	13.61	-38.6	-40.8	14.0	4.50e-06	0	60	0	445644800	49	4442
2026-01-19 12:31:18.96	180.82	13.71	-38.5	-40.6	14.2	2.20e-06	0	60	0	450887680	49	4379
2026-01-19 12:31:19.98	180.87	13.81	-38.5	-40.5	14.3	3.40e-06	0	60	0	457179136	48	4588
2026-01-19 12:31:20.99	180.93	13.91	-38.4	-40.5	14.4	0.00e+00	0	59	0	462422016	48	4555
2026-01-19 12:31:21.99	180.98	14.01	-38.5	-40.6	14.3	0.00e+00	0	60	0	468713472	48	4610
2026-01-19 12:31:23.00	181.04	14.11	-38.4	-40.4	14.4	2.20e-06	0	60	0	473956352	48	4543
2026-01-19 12:31:24.02	181.09	14.21	-38.3	-40.3	14.5	2.20e-06	0	60	0	479199232	48	4474
2026-01-19 12:31:25.03	181.15	14.31	-38.3	-40.3	14.5	0.00e+00	0	60	0	485490688	48	4483
2026-01-19 12:31:26.03	181.21	14.41	-38.2	-40.2	14.6	0.00e+00	0	60	0	490733568	48	4418
2026-01-19 12:31:27.04	181.26	14.52	-38.2	-40.2	14.7	0.00e+00	0	60	0	497025024	48	4414
2026-01-19 12:31:28.05	181.32	14.62	-38.2	-40.1	14.7	0.00e+00	0	60	0	502267904	48	4380
2026-01-19 12:31:29.06	181.38	14.72	-38.1	-40.1	14.8	0.00e+00	0	60	0	507510784	48	4350
2026-01-19 12:31:30.07	181.43	14.83	-38.2	-40.2	14.7	0.00e+00	0	60	0	513802240	48	4395
2026-01-19 12:31:31.08	181.49	14.93	-38.1	-40.1	14.8	0.00e+00	0	60	0	519045120	48	4367
2026-01-19 12:31:32.09	181.55	15.03	-38.1	-40.1	14.8	0.00e+00	0	60	0	525336576	48	4367
2026-01-19 12:31:33.10	181.61	15.14	-38.1	-40.1	14.8	0.00e+00	0	60	0	530579456	48	4342
2026-01-19 12:31:34.11	181.67	15.24	-38.1	-40.1	14.8	0.00e+00	0	60	0	536870912	48	4372
2026-01-19 12:31:35.12	181.73	15.35	-38.1	-40.1	14.8	0.00e+00	0	60	0	542113792	48	4351
2026-01-19 12:31:36.13	181.79	15.46	-38.1	-40.1	14.9	1.10e-06	0	60	0	548405248	48	4353
2026-01-19 12:31:37.14	181.85	15.56	-38.1	-40.0	14.9	0.00e+00	0	60	0	553648128	48	4321
2026-01-19 12:31:38.15	181.91	15.67	-38.1	-40.0	14.9	0.00e+00	0	60	0	558891008	48	4332
2026-01-19 12:31:39.16	181.97	15.78	-38.1	-40.0	14.9	0.00e+00	0	60	0	565182464	48	4338
2026-01-19 12:31:40.17	182.04	15.88	-38.1	-40.0	14.9	0.00e+00	0	60	0	570425344	48	4316
2026-01-19 12:31:41.18	182.10	15.99	-38.0	-40.0	14.9	1.10e-06	0	60	0	576716800	48	4315
2026-01-19 12:31:42.20	182.16	16.10	-38.0	-39.9	15.0	1.10e-06	0	60	0	581959680	48	4288
2026-01-19 12:31:43.20	182.22	16.21	-37.9	-39.8	15.0	0.00e+00	0	60	0	587202560	47	4465
2026-01-19 12:31:44.21	182.29	16.32	-37.9	-39.8	15.0	0.00e+00	0	60	0	593494016	47	4473
2026-01-19 12:31:45.22	182.35	16.43	-37.9	-39.8	15.0	0.00e+00	0	60	0	598736896	47	4488
2026-01-19 12:31:46.23	182.42	16.54	-37.8	-39.7	15.2	0.00e+00	0	60	0	605028352	47	4397
2026-01-19 12:31:47.24	182.48	16.65	-37.7	-39.6	15.2	0.00e+00	0	60	0	610271232	47	4367
2026-01-19 12:31:48.25	182.55	16.76	-37.7	-39.6	15.3	0.00e+00	0	60	0	615514112	47	4357
2026-01-19 12:31:49.26	182.61	16.88	-37.8	-39.7	15.2	1.10e-06	0	60	0	621805568	47	4396
2026-01-19 12:31:50.27	182.68	16.99	-37.6	-39.5	15.4	0.00e+00	0	60	0	627048448	47	4313
2026-01-19 12:31:51.28	182.75	17.10	-37.5	-39.3	15.5	0.00e+00	0	60	0	633339904	47	4225
2026-01-19 12:31:52.29	182.81	17.21	-37.4	-39.2	15.6	0.00e+00	0	60	0	638582784	46	4427
2026-01-19 12:31:53.30	182.88	17.33	-37.4	-39.2	15.6	1.10e-06	0	60	0	644874240	46	4436
2026-01-19 12:31:54.31	182.95	17.44	-37.4	-39.2	15.6	0.00e+00	0	60	0	650117120	46	4441
2026-01-19 12:31:55.32	183.02	17.56	-37.5	-39.3	15.5	0.00e+00	0	60	0	655360000	46	4482
2026-01-19 12:31:56.33	183.09	17.67	-37.6	-39.5	15.4	0.00e+00	0	60	0	661651456	46	4549
2026-01-19 12:31:57.34	183.16	17.79	-37.6	-39.4	15.5	0.00e+00	0	60	0	666894336	46	4538
2026-01-19 12:31:58.34	183.23	17.90	-37.5	-39.4	15.5	0.00e+00	0	60	0	673185792	46	4496
2026-01-19 12:31:59.35	183.30	18.02	-37.5	-39.4	15.5	0.00e+00	0	60	0	678428672	46	4505
2026-01-19 12:32:00.36	183.37	18.14	-37.5	-39.4	15.5	0.00e+00	0	60	0	683671552	46	4500
2026-01-19 12:32:01.37	183.44	18.26	-37.5	-39.3	15.6	0.00e+00	0	60	0	689963008	46	4462
2026-01-19 12:32:02.38	183.51	18.38	-37.4	-39.2	15.7	0.00e+00	0	60	0	695205888	46	4407
2026-01-19 12:32:03.39	183.59	18.49	-37.4	-39.2	15.7	0.00e+00	0	61	0	701497344	46	4415
2026-01-19 12:32:04.40	183.66	18.61	-37.4	-39.2	15.7	0.00e+00	0	60	0	706740224	46	4437
2026-01-19 12:32:05.41	183.73	18.73	-37.3	-39.1	15.8	0.00e+00	0	61	0	711983104	46	4373
2026-01-19 12:32:06.42	183.81	18.85	-37.2	-38.9	16.0	0.00e+00	0	60	0	718274560	46	4288
2026-01-19 12:32:07.43	183.88	18.98	-37.1	-38.8	16.1	0.00e+00	0	60	0	723517440	46	4211
2026-01-19 12:32:08.44	183.96	19.10	-37.1	-38.8	16.2	0.00e+00	0	60	0	729808896	46	4200
2026-01-19 12:32:09.45	184.04	19.22	-37.1	-38.9	16.1	0.00e+00	0	60	0	735051776	46	4245
2026-01-19 12:32:10.46	184.11	19.34	-37.1	-38.8	16.1	0.00e+00	0	60	0	741343232	46	4203
2026-01-19 12:32:11.47	184.19	19.47	-37.0	-38.7	16.2	0.00e+00	0	60	0	746586112	46	4172
2026-01-19 12:32:12.48	184.27	19.59	-37.1	-38.8	16.1	0.00e+00	0	60	0	752877568	46	4232
2026-01-19 12:32:13.49	184.35	19.72	-37.1	-38.9	16.1	0.00e+00	0	61	0	758120448	46	4255
2026-01-19 12:32:14.50	184.43	19.84	-37.2	-39.0	16.0	0.00e+00	0	61	0	763363328	46	4292
2026-01-19 12:32:15.51	184.51	19.97	-37.2	-38.9	16.0	0.00e+00	0	61	0	769654784	46	4273
2026-01-19 12:32:16.52	184.59	20.09	-37.2	-38.9	16.0	0.00e+00	0	60	0	774897664	46	4278
2026-01-19 12:32:17.53	184.67	20.22	-37.2	-38.9	16.1	0.00e+00	0	61	0	781189120	46	4261
2026-01-19 12:32:18.54	184.75	20.35	-37.1	-38.8	16.1	0.00e+00	0	61	0	786432000	46	4234
2026-01-19 12:32:19.55	184.83	20.48	-37.1	-38.9	16.1	0.00e+00	0	61	0	791674880	46	4256
2026-01-19 12:32:20.56	184.92	20.60	-37.2	-39.0	16.0	0.00e+00	0	60	0	797966336	46	4304
2026-01-19 12:32:21.57	185.00	20.73	-37.2	-38.9	16.0	0.00e+00	0	61	0	803209216	46	4285
2026-01-19 12:32:22.58	185.08	20.86	-37.0	-38.8	16.2	0.00e+00	0	61	0	809500672	46	4206
2026-01-19 12:32:23.59	185.17	20.99	-37.1	-38.8	16.2	0.00e+00	0	61	0	814743552	46	4208
2026-01-19 12:32:24.60	185.25	21.13	-37.0	-38.8	16.2	0.00e+00	0	61	0	819986432	46	4194
2026-01-19 12:32:25.61	185.34	21.26	-37.1	-38.9	16.1	0.00e+00	0	61	0	826277888	46	4260
2026-01-19 12:32:26.62	185.43	21.39	-37.1	-38.9	16.1	0.00e+00	0	60	0	831520768	46	4248
2026-01-19 12:32:27.63	185.52	21.52	-37.1	-38.9	16.1	0.00e+00	0	61	0	837812224	46	4253
2026-01-19 12:32:28.64	185.61	21.66	-37.2	-38.9	16.0	0.00e+00	0	61	0	843055104	46	4279
2026-01-19 12:32:29.65	185.70	21.79	-37.2	-39.0	16.0	0.00e+00	0	61	0	849346560	46	4304
2026-01-19 12:32:30.66	185.79	21.93	-37.2	-39.0	16.0	0.00e+00	0	61	0	854589440	46	4314
2026-01-19 12:32:31.67	185.88	22.06	-37.1	-38.8	16.2	0.00e+00	0	61	0	859832320	46	4230
2026-01-19 12:32:32.68	185.97	22.20	-36.8	-38.5	16.5	0.00e+00	0	61	0	866123776	45	4308
2026-01-19 12:32:33.69	186.06	22.33	-36.6	-38.3	16.7	0.00e+00	0	61	0	871366656	45	4208
2026-01-19 12:32:34.70	186.15	22.47	-36.6	-38.2	16.8	0.00e+00	0	61	0	877658112	45	4159
2026-01-19 12:32:35.71	186.25	22.61	-36.6	-38.2	16.8	0.00e+00	0	61	0	882900992	45	4170
2026-01-19 12:32:36.71	186.34	22.75	-36.6	-38.3	16.7	0.00e+00	0	61	0	888143872	45	4198
2026-01-19 12:32:37.72	186.44	22.89	-36.4	-38.0	17.0	0.00e+00	0	61	0	894435328	44	4318
2026-01-19 12:32:38.73	186.54	23.03	-36.4	-37.9	17.1	0.00e+00	0	61	0	899678208	44	4280
2026-01-19 12:32:39.74	186.63	23.17	-36.4	-38.0	17.0	0.00e+00	0	61	0	905969664	44	4293
2026-01-19 12:32:40.75	186.73	23.31	-36.3	-37.9	17.1	0.00e+00	0	61	0	911212544	44	4262
2026-01-19 12:32:41.77	186.83	23.46	-36.4	-38.0	17.0	0.00e+00	0	61	0	916455424	44	4305
2026-01-19 12:32:42.78	186.93	23.60	-36.4	-38.0	17.0	0.00e+00	0	61	0	922746880	44	4338
2026-01-19 12:32:43.79	187.03	23.74	-36.5	-38.1	16.9	0.00e+00	0	61	0	927989760	44	4389
2026-01-19 12:32:44.79	187.13	23.89	-36.6	-38.2	16.8	0.00e+00	0	61	0	934281216	44	4399
2026-01-19 12:32:45.80	187.24	24.03	-36.5	-38.1	16.9	0.00e+00	0	61	0	939524096	44	4379
2026-01-19 12:32:46.81	187.34	24.18	-36.5	-38.1	16.9	0.00e+00	0	61	0	945815552	44	4360
2026-01-19 12:32:47.82	187.44	24.32	-36.5	-38.2	16.8	0.00e+00	0	61	0	951058432	44	4395
2026-01-19 12:32:48.83	187.55	24.47	-36.5	-38.1	16.9	0.00e+00	0	61	0	957349888	44	4362
2026-01-19 12:32:49.84	187.66	24.62	-36.5	-38.1	16.9	0.00e+00	0	61	0	962592768	44	4361
2026-01-19 12:32:50.85	187.76	24.77	-36.4	-37.9	17.1	0.00e+00	0	61	0	967835648	44	4283
2026-01-19 12:32:51.86	187.87	24.92	-36.4	-37.9	17.1	0.00e+00	0	61	0	974127104	44	4288
2026-01-19 12:32:52.87	187.98	25.07	-36.3	-37.9	17.2	0.00e+00	0	61	0	979369984	44	4244
2026-01-19 12:32:53.88	188.09	25.22	-36.3	-37.9	17.2	0.00e+00	0	61	0	985661440	44	4246
2026-01-19 12:32:54.89	188.20	25.37	-36.3	-37.8	17.2	0.00e+00	0	61	0	990904320	44	4241
2026-01-19 12:32:55.90	188.32	25.52	-36.3	-37.9	17.1	0.00e+00	0	61	0	996147200	44	4264
2026-01-19 12:32:56.91	188.43	25.68	-36.4	-38.0	17.0	0.00e+00	0	61	0	1002438656	44	4338
2026-01-19 12:32:57.92	188.55	25.83	-36.5	-38.1	16.9	0.00e+00	0	61	0	1007681536	44	4385
2026-01-19 12:32:58.93	188.66	25.99	-36.5	-38.2	16.9	0.00e+00	0	61	0	1013972992	44	4395
2026-01-19 12:32:59.94	188.78	26.14	-36.7	-38.3	16.7	0.00e+00	0	61	0	1019215872	44	4460
2026-01-19 12:33:00.95	188.90	26.30	-36.6	-38.2	16.8	0.00e+00	0	61	0	1024458752	44	4416
2026-01-19 12:33:01.96	189.02	26.46	-36.5	-38.1	17.0	0.00e+00	0	61	0	1030750208	44	4346
2026-01-19 12:33:02.97	189.14	26.62	-36.4	-38.0	17.0	0.00e+00	0	61	0	1035993088	44	4320
2026-01-19 12:33:03.98	189.26	26.77	-36.5	-38.1	17.0	0.00e+00	0	61	0	1042284544	44	4344
2026-01-19 12:33:04.99	189.38	26.93	-36.4	-38.0	17.0	0.00e+00	0	61	0	1047527424	44	4304
2026-01-19 12:33:06.00	189.50	27.10	-36.4	-38.0	17.1	0.00e+00	0	61	0	1053818880	44	4305
2026-01-19 12:33:07.00	189.63	27.26	-36.4	-38.0	17.0	0.00e+00	0	61	0	1059061760	44	4329
2026-01-19 12:33:08.01	189.75	27.42	-36.4	-38.0	17.0	0.00e+00	0	61	0	1064304640	44	4322
2026-01-19 12:33:09.02	189.88	27.58	-36.4	-38.0	17.1	0.00e+00	0	61	0	1070596096	44	4304
2026-01-19 12:33:10.03	190.01	27.74	-36.3	-37.9	17.1	0.00e+00	0	61	0	1075838976	44	4249
2026-01-19 12:33:11.04	190.14	27.91	-36.3	-37.9	17.2	0.00e+00	0	61	0	1082130432	44	4259
2026-01-19 12:33:12.05	190.27	28.07	-36.3	-37.9	17.2	0.00e+00	0	61	0	1087373312	44	4262
2026-01-19 12:33:13.06	190.40	28.24	-36.3	-37.8	17.2	0.00e+00	0	61	0	1092616192	44	4237
2026-01-19 12:33:14.07	190.54	28.41	-36.2	-37.8	17.3	0.00e+00	0	61	0	1098907648	44	4195
2026-01-19 12:33:15.08	190.67	28.58	-36.3	-37.8	17.2	0.00e+00	0	61	0	1104150528	44	4236
2026-01-19 12:33:16.09	190.81	28.75	-36.3	-37.9	17.1	0.00e+00	0	61	0	1110441984	44	4275
2026-01-19 12:33:17.10	190.95	28.92	-36.3	-37.9	17.1	0.00e+00	0	61	0	1115684864	44	4267
2026-01-19 12:33:18.11	191.09	29.09	-36.4	-37.9	17.2	0.00e+00	0	61	0	1120927744	44	4273
2026-01-19 12:33:19.12	191.23	29.26	-36.3	-37.9	17.2	0.00e+00	0	61	0	1127219200	44	4269
2026-01-19 12:33:20.13	191.37	29.43	-36.3	-37.8	17.2	0.00e+00	0	61	0	1132462080	44	4229
2026-01-19 12:33:21.14	191.52	29.60	-36.3	-37.8	17.3	0.00e+00	0	61	0	1138753536	44	4225
2026-01-19 12:33:22.15	191.66	29.78	-36.3	-37.8	17.3	0.00e+00	0	61	0	1143996416	44	4226
2026-01-19 12:33:23.16	191.81	29.95	-36.3	-37.8	17.3	0.00e+00	0	61	0	1150287872	44	4218
2026-01-19 12:33:24.17	191.96	30.13	-36.3	-37.9	17.2	0.00e+00	0	61	0	1155530752	44	4252
2026-01-19 12:33:25.18	192.11	30.31	-36.3	-37.9	17.2	0.00e+00	0	61	0	1161822208	44	4256
2026-01-19 12:33:26.19	192.26	30.48	-36.4	-38.0	17.1	0.00e+00	0	61	0	1167065088	44	4327
2026-01-19 12:33:27.20	192.42	30.66	-36.4	-38.0	17.1	0.00e+00	0	61	0	1172307968	44	4323
2026-01-19 12:33:28.21	192.57	30.84	-36.4	-38.0	17.1	0.00e+00	0	61	0	1178599424	44	4306
2026-01-19 12:33:29.22	192.73	31.02	-36.2	-37.8	17.3	0.00e+00	0	61	0	1183842304	44	4215
2026-01-19 12:33:30.23	192.89	31.20	-36.1	-37.6	17.5	0.00e+00	0	61	0	1190133760	44	4145
2026-01-19 12:33:31.24	193.05	31.38	-36.0	-37.5	17.6	0.00e+00	0	61	0	1195376640	44	4097
2026-01-19 12:33:32.25	193.21	31.57	-36.1	-37.6	17.5	0.00e+00	0	61	0	1200619520	44	4125
2026-01-19 12:33:33.26	193.37	31.75	-36.2	-37.7	17.4	0.00e+00	0	61	0	1206910976	44	4182
2026-01-19 12:33:34.27	193.54	31.94	-36.2	-37.8	17.3	0.00e+00	0	61	0	1212153856	44	4202
2026-01-19 12:33:35.28	193.71	32.12	-36.2	-37.8	17.3	0.00e+00	0	61	0	1218445312	44	4218
2026-01-19 12:33:36.29	193.88	32.31	-36.3	-37.9	17.2	0.00e+00	0	62	0	1223688192	44	4259
2026-01-19 12:33:37.30	194.05	32.50	-36.3	-37.9	17.2	0.00e+00	0	61	0	1228931072	44	4244
2026-01-19 12:33:38.31	194.22	32.68	-36.2	-37.8	17.3	0.00e+00	0	61	0	1235222528	44	4202
2026-01-19 12:33:39.32	194.40	32.87	-36.2	-37.8	17.3	0.00e+00	0	61	0	1240465408	44	4209
2026-01-19 12:33:40.33	194.57	33.06	-36.3	-37.9	17.2	0.00e+00	0	61	0	1246756864	44	4246
2026-01-19 12:33:41.34	194.75	33.26	-36.2	-37.8	17.3	0.00e+00	0	61	0	1251999744	44	4204
2026-01-19 12:33:42.35	194.94	33.45	-36.3	-37.8	17.3	0.00e+00	0	62	0	1258291200	44	4229
2026-01-19 12:33:43.36	195.12	33.64	-36.2	-37.8	17.4	0.00e+00	0	61	0	1263534080	44	4202
2026-01-19 12:33:44.36	195.30	33.83	-36.1	-37.7	17.4	0.00e+00	0	62	0	1268776960	44	4151
2026-01-19 12:33:45.37	195.49	34.03	-36.2	-37.7	17.4	0.00e+00	0	61	0	1275068416	44	4180
2026-01-19 12:33:46.39	195.68	34.22	-36.1	-37.6	17.5	0.00e+00	0	62	0	1280311296	44	4126
2026-01-19 12:33:47.40	195.88	34.42	-35.7	-37.2	17.7	0.00e+00	0	61	0	1286602752	43	4176
2026-01-19 12:33:48.41	196.07	34.62	-35.7	-37.2	17.7	0.00e+00	0	62	0	1291845632	43	4171
2026-01-19 12:33:49.42	196.27	34.82	-35.8	-37.3	17.7	0.00e+00	0	61	0	1297088512	43	4202
2026-01-19 12:33:50.43	196.47	35.02	-35.8	-37.3	17.6	0.00e+00	0	61	0	1303379968	43	4241
2026-01-19 12:33:51.44	196.67	35.22	-35.7	-37.2	17.7	0.00e+00	0	62	0	1308622848	43	4192
2026-01-19 12:33:52.45	196.87	35.42	-35.7	-37.3	17.7	0.00e+00	0	61	0	1314914304	43	4199
2026-01-19 12:33:53.46	197.08	35.62	-35.8	-37.4	17.6	0.00e+00	0	61	0	1320157184	43	4250
2026-01-19 12:33:54.47	197.29	35.82	-35.8	-37.3	17.7	0.00e+00	0	61	0	1325400064	43	4206
2026-01-19 12:33:55.47	197.50	36.02	-35.7	-37.2	17.7	0.00e+00	0	62	0	1331691520	43	4186
2026-01-19 12:33:56.48	197.71	36.23	-35.6	-37.1	17.8	0.00e+00	0	61	0	1336934400	43	4136
2026-01-19 12:33:57.49	197.93	36.43	-35.6	-37.1	17.9	0.00e+00	0	61	0	1343225856	43	4110
2026-01-19 12:33:58.50	198.15	36.64	-35.7	-37.1	17.8	0.00e+00	0	61	0	1348468736	43	4139
2026-01-19 12:33:59.51	198.37	36.85	-35.5	-36.9	18.0	0.00e+00	0	61	0	1354760192	43	4043
2026-01-19 12:34:00.52	198.60	37.05	-35.6	-37.1	17.8	0.00e+00	0	61	0	1360003072	43	4139
2026-01-19 12:34:01.53	198.83	37.26	-35.7	-37.2	17.8	0.00e+00	0	61	0	1366294528	43	4167
2026-01-19 12:34:02.54	199.06	37.47	-35.8	-37.3	17.7	0.00e+00	0	61	0	1371537408	43	4210
2026-01-19 12:34:03.55	199.29	37.68	-35.7	-37.2	17.7	0.00e+00	0	62	0	1376780288	43	4188
2026-01-19 12:34:04.56	199.53	37.89	-35.7	-37.2	17.8	0.00e+00	0	61	0	1383071744	43	4153
2026-01-19 12:34:05.57	199.77	38.10	-35.5	-37.0	18.0	0.00e+00	0	61	0	1388314624	43	4060
2026-01-19 12:34:06.58	200.01	38.32	-35.5	-36.9	18.1	0.00e+00	0	62	0	1394606080	42	4281
2026-01-19 12:34:07.59	200.26	38.53	-35.5	-36.9	18.2	0.00e+00	0	62	0	1399848960	42	4254
2026-01-19 12:34:08.60	200.51	38.74	-35.6	-37.0	18.1	0.00e+00	0	61	0	1405091840	42	4304
2026-01-19 12:34:09.61	200.76	38.96	-35.8	-37.2	17.8	0.00e+00	0	62	0	1411383296	42	4425
2026-01-19 12:34:10.62	201.02	39.18	-35.8	-37.3	17.8	0.00e+00	0	61	0	1416626176	42	4456
2026-01-19 12:34:11.63	201.28	39.39	-35.8	-37.3	17.8	0.00e+00	0	61	0	1422917632	42	4451
2026-01-19 12:34:12.64	201.54	39.61	-35.9	-37.4	17.7	0.00e+00	0	62	0	1428160512	42	4510
2026-01-19 12:34:13.64	201.80	39.82	-35.9	-37.4	17.7	0.00e+00	0	62	0	1433403392	42	4517
2026-01-19 12:34:14.65	202.07	40.04	-35.8	-37.3	17.8	0.00e+00	0	61	0	1439694848	42	4461
2026-01-19 12:34:15.66	202.35	40.26	-35.8	-37.2	17.8	0.00e+00	0	62	0	1444937728	42	4430
2026-01-19 12:34:16.67	202.62	40.48	-35.8	-37.3	17.8	0.00e+00	0	62	0	1451229184	42	4476
2026-01-19 12:34:17.68	202.90	40.70	-35.8	-37.3	17.7	0.00e+00	0	61	0	1456472064	42	4474
2026-01-19 12:34:18.69	203.19	40.92	-35.8	-37.3	17.8	0.00e+00	0	62	0	1462763520	42	4458
2026-01-19 12:34:19.70	203.48	41.14	-35.7	-37.2	17.9	0.00e+00	0	62	0	1468006400	42	4397
2026-01-19 12:34:20.71	203.77	41.37	-35.8	-37.3	17.8	0.00e+00	0	62	0	1473249280	42	4468
2026-01-19 12:34:21.72	204.07	41.59	-36.0	-37.5	17.6	0.00e+00	0	62	0	1479540736	42	4559
2026-01-19 12:34:22.74	204.37	41.81	-36.0	-37.5	17.5	0.00e+00	0	62	0	1484783616	42	4596
2026-01-19 12:34:23.75	204.68	42.04	-36.0	-37.5	17.6	0.00e+00	0	62	0	1491075072	42	4554
2026-01-19 12:34:24.75	204.98	42.26	-35.9	-37.4	17.6	0.00e+00	0	61	0	1496317952	42	4533
2026-01-19 12:34:25.77	205.30	42.49	-35.9	-37.4	17.6	0.00e+00	0	62	0	1501560832	42	4543
2026-01-19 12:34:26.78	205.61	42.71	-36.1	-37.6	17.4	0.00e+00	0	62	0	1507852288	42	4648
2026-01-19 12:34:27.78	205.93	42.93	-36.0	-37.5	17.5	0.00e+00	0	62	0	1513095168	42	4598
2026-01-19 12:34:28.79	206.26	43.16	-36.0	-37.5	17.5	0.00e+00	0	62	0	1519386624	42	4580
2026-01-19 12:34:29.80	206.59	43.39	-36.1	-37.6	17.5	0.00e+00	0	62	0	1524629504	42	4642
2026-01-19 12:34:30.81	206.93	43.61	-36.1	-37.7	17.4	0.00e+00	0	62	0	1529872384	42	4663
2026-01-19 12:34:31.82	207.27	43.84	-36.2	-37.7	17.4	0.00e+00	0	61	0	1536163840	43	4426
2026-01-19 12:34:32.83	207.61	44.06	-36.1	-37.7	17.4	0.00e+00	0	61	0	1541406720	43	4398
2026-01-19 12:34:33.84	207.96	44.29	-36.2	-37.7	17.3	0.00e+00	0	62	0	1547698176	43	4440
2026-01-19 12:34:34.85	208.32	44.52	-36.2	-37.7	17.3	0.00e+00	0	61	0	1552941056	43	4429
2026-01-19 12:34:35.86	208.68	44.75	-36.5	-38.1	17.1	0.00e+00	0	62	0	1559232512	43	4599
2026-01-19 12:34:36.87	209.04	44.97	-36.5	-38.2	16.9	0.00e+00	0	61	0	1564475392	43	4663
2026-01-19 12:34:37.88	209.41	45.20	-36.6	-38.2	16.9	0.00e+00	0	62	0	1570766848	43	4663
2026-01-19 12:34:38.89	209.79	45.43	-36.5	-38.1	17.0	0.00e+00	0	62	0	1576009728	43	4637
2026-01-19 12:34:39.90	210.17	45.65	-36.6	-38.2	16.9	0.00e+00	0	62	0	1581252608	43	4670
2026-01-19 12:34:40.91	210.55	45.88	-36.6	-38.1	16.9	0.00e+00	0	62	0	1587544064	43	4647
2026-01-19 12:34:41.92	210.94	46.11	-36.3	-37.9	17.2	0.00e+00	0	62	0	1592786944	43	4501
2026-01-19 12:34:42.93	211.34	46.33	-36.2	-37.8	17.3	0.00e+00	0	62	0	1599078400	43	4450
2026-01-19 12:34:43.94	211.74	46.56	-36.2	-37.7	17.4	0.00e+00	0	62	0	1604321280	43	4409
2026-01-19 12:34:44.95	212.15	46.79	-36.4	-38.0	17.1	0.00e+00	0	62	0	1609564160	43	4566
2026-01-19 12:34:45.96	212.57	47.01	-36.4	-38.0	17.1	0.00e+00	0	62	0	1615855616	43	4552
2026-01-19 12:34:46.97	212.99	47.24	-36.3	-37.9	17.2	0.00e+00	0	62	0	1621098496	43	4522
2026-01-19 12:34:47.98	213.42	47.46	-36.4	-37.9	17.2	0.00e+00	0	62	0	1627389952	43	4530
2026-01-19 12:34:48.99	213.85	47.69	-36.4	-37.9	17.2	0.00e+00	0	62	0	1632632832	43	4537
2026-01-19 12:34:50.00	214.29	47.91	-36.3	-37.8	17.3	0.00e+00	0	62	0	1637875712	43	4482
2026-01-19 12:34:51.01	214.73	48.13	-36.3	-37.9	17.3	0.00e+00	0	61	0	1644167168	43	4497
2026-01-19 12:34:52.02	215.18	48.36	-36.4	-37.9	17.3	0.00e+00	0	62	0	1649410048	43	4518
2026-01-19 12:34:53.03	215.64	48.58	-36.6	-38.1	17.0	0.00e+00	0	62	0	1655701504	43	4647
2026-01-19 12:34:54.04	216.11	48.80	-36.6	-38.1	17.0	0.00e+00	0	62	0	1660944384	43	4645
2026-01-19 12:34:55.05	216.58	49.02	-36.5	-38.1	17.0	0.00e+00	0	62	0	1667235840	43	4637
2026-01-19 12:34:56.06	217.06	49.24	-36.4	-38.0	17.1	0.00e+00	0	62	0	1672478720	43	4590
2026-01-19 12:34:57.07	217.54	49.45	-36.4	-38.0	17.2	0.00e+00	0	62	0	1677721600	43	4578
2026-01-19 12:34:58.08	218.03	49.67	-36.5	-38.1	17.0	0.00e+00	0	62	0	1684013056	43	4620
2026-01-19 12:34:59.09	218.53	49.89	-36.3	-37.9	17.2	0.00e+00	0	62	0	1689255936	43	4523
2026-01-19 12:35:00.10	219.04	50.10	-36.2	-37.7	17.4	0.00e+00	0	62	0	1695547392	43	4413
2026-01-19 12:35:01.11	219.55	50.31	-36.3	-37.8	17.3	0.00e+00	0	62	0	1700790272	43	4458
2026-01-19 12:35:02.12	220.07	50.53	-36.5	-38.1	17.0	0.00e+00	0	62	0	1706033152	43	4621
2026-01-19 12:35:03.13	220.60	50.74	-36.6	-38.1	17.0	0.00e+00	0	62	0	1712324608	43	4632
2026-01-19 12:35:04.14	221.13	50.94	-36.5	-38.1	17.0	0.00e+00	0	62	0	1717567488	43	4606
2026-01-19 12:35:05.15	221.67	51.15	-36.3	-37.8	17.3	0.00e+00	0	62	0	1723858944	43	4488
2026-01-19 12:35:06.15	222.22	51.35	-36.3	-37.9	17.3	0.00e+00	0	62	0	1729101824	43	4500
2026-01-19 12:35:07.16	222.77	51.56	-36.4	-37.9	17.2	0.00e+00	0	62	0	1734344704	43	4527
2026-01-19 12:35:08.17	223.34	51.76	-36.3	-37.8	17.3	0.00e+00	0	62	0	1740636160	43	4476
2026-01-19 12:35:09.18	223.91	51.96	-36.4	-37.9	17.2	0.00e+00	0	62	0	1745879040	43	4529
2026-01-19 12:35:10.19	224.49	52.15	-36.9	-38.6	16.7	0.00e+00	0	62	0	1752170496	44	4600
2026-01-19 12:35:11.20	225.08	52.35	-36.9	-38.5	16.8	0.00e+00	0	62	0	1757413376	44	4575
2026-01-19 12:35:12.21	225.67	52.54	-37.0	-38.6	16.7	0.00e+00	0	62	0	1763704832	44	4621
2026-01-19 12:35:13.22	226.27	52.73	-37.0	-38.6	16.6	0.00e+00	0	62	0	1768947712	44	4642
2026-01-19 12:35:14.23	226.88	52.92	-36.7	-38.3	17.0	0.00e+00	0	62	0	1775239168	44	4454
2026-01-19 12:35:15.24	227.50	53.10	-36.7	-38.3	17.0	0.00e+00	0	62	0	1780482048	44	4460
2026-01-19 12:35:16.25	228.13	53.28	-36.9	-38.5	16.8	0.00e+00	0	62	0	1785724928	44	4550
2026-01-19 12:35:17.26	228.76	53.46	-37.0	-38.7	16.6	0.00e+00	0	61	0	1792016384	44	4655
2026-01-19 12:35:18.26	229.39	53.64	-36.8	-38.4	16.8	0.00e+00	0	62	0	1797259264	44	4523
2026-01-19 12:35:19.27	230.04	53.81	-36.8	-38.3	16.9	0.00e+00	0	62	0	1803550720	44	4480
2026-01-19 12:35:20.28	230.70	53.98	-37.0	-38.7	16.6	0.00e+00	0	62	0	1808793600	44	4662
2026-01-19 12:35:21.30	231.37	54.15	-37.3	-39.0	16.3	0.00e+00	0	62	0	1814036480	45	4562
2026-01-19 12:35:22.31	232.04	54.31	-37.0	-38.7	16.5	0.00e+00	0	62	0	1820327936	45	4402
2026-01-19 12:35:23.32	232.72	54.47	-36.8	-38.3	16.9	0.00e+00	0	62	0	1825570816	45	4241
2026-01-19 12:35:24.33	233.41	54.63	-36.9	-38.5	16.8	0.00e+00	0	62	0	1831862272	45	4318
2026-01-19 12:35:25.34	234.10	54.78	-37.1	-38.8	16.4	0.00e+00	0	62	0	1837105152	45	4462
2026-01-19 12:35:26.34	234.79	54.93	-37.1	-38.8	16.5	0.00e+00	0	62	0	1842348032	45	4451
2026-01-19 12:35:27.35	235.50	55.08	-37.1	-38.8	16.5	0.00e+00	0	62	0	1848639488	45	4449
2026-01-19 12:35:28.36	236.22	55.22	-37.1	-38.7	16.6	0.00e+00	0	62	0	1853882368	45	4424
2026-01-19 12:35:29.37	236.94	55.36	-37.0	-38.6	16.6	0.00e+00	0	62	0	1860173824	45	4375
2026-01-19 12:35:30.38	237.67	55.49	-36.6	-38.2	17.1	0.00e+00	0	62	0	1865416704	45	4157
2026-01-19 12:35:31.39	238.41	55.62	-36.7	-38.2	17.1	0.00e+00	0	62	0	1871708160	45	4171
2026-01-19 12:35:32.40	239.15	55.74	-36.9	-38.5	16.8	0.00e+00	0	62	0	1876951040	45	4297
2026-01-19 12:35:33.41	239.90	55.86	-37.0	-38.6	16.7	0.00e+00	0	62	0	1882193920	45	4370
2026-01-19 12:35:34.42	240.66	55.98	-37.0	-38.7	16.6	0.00e+00	0	62	0	1888485376	45	4392
2026-01-19 12:35:35.43	241.42	56.09	-36.9	-38.5	16.8	0.00e+00	0	62	0	1893728256	45	4307
2026-01-19 12:35:36.44	242.19	56.20	-36.8	-38.4	16.9	0.00e+00	0	62	0	1900019712	45	4260
2026-01-19 12:35:37.44	242.95	56.30	-36.9	-38.5	16.8	0.00e+00	0	62	0	1905262592	45	4311
2026-01-19 12:35:38.45	243.73	56.40	-36.9	-38.5	16.8	0.00e+00	0	62	0	1910505472	45	4309
2026-01-19 12:35:39.46	244.52	56.49	-36.8	-38.4	16.9	0.00e+00	0	62	0	1916796928	45	4254
2026-01-19 12:35:40.47	245.31	56.58	-36.8	-38.5	16.7	0.00e+00	0	62	0	1922039808	45	4300
2026-01-19 12:35:41.48	246.10	56.66	-36.9	-38.5	16.8	0.00e+00	0	62	0	1928331264	45	4310
2026-01-19 12:35:42.49	246.90	56.74	-37.0	-38.6	16.7	0.00e+00	0	62	0	1933574144	45	4359
2026-01-19 12:35:43.50	247.70	56.81	-37.1	-38.7	16.5	0.00e+00	0	62	0	1938817024	45	4425
2026-01-19 12:35:44.51	248.51	56.87	-37.1	-38.8	16.5	0.00e+00	0	62	0	1945108480	45	4459
2026-01-19 12:35:45.52	249.32	56.94	-36.8	-38.5	16.8	0.00e+00	0	62	0	1950351360	45	4292
2026-01-19 12:35:46.54	250.14	56.99	-36.9	-38.5	16.7	0.00e+00	0	62	0	1956642816	45	4314
2026-01-19 12:35:47.54	250.95	57.04	-37.1	-38.8	16.4	0.00e+00	0	62	0	1961885696	45	4479
2026-01-19 12:35:48.56	251.78	57.09	-37.2	-38.9	16.4	0.00e+00	0	62	0	1968177152	45	4512
2026-01-19 12:35:49.57	252.60	57.13	-36.9	-38.5	16.7	0.00e+00	0	62	0	1973420032	45	4335
2026-01-19 12:35:50.58	253.43	57.16	-36.9	-38.6	16.7	0.00e+00	0	62	0	1979711488	45	4348
2026-01-19 12:35:51.59	254.26	57.19	-37.0	-38.7	16.5	0.00e+00	0	62	0	1984954368	45	4406
2026-01-19 12:35:52.59	255.08	57.21	-36.9	-38.6	16.6	0.00e+00	0	62	0	1990197248	45	4362
2026-01-19 12:35:53.60	255.90	57.23	-37.0	-38.6	16.6	0.00e+00	0	62	0	1996488704	45	4383
2026-01-19 12:35:54.61	256.74	57.24	-36.9	-38.5	16.7	0.00e+00	0	62	0	2001731584	45	4329
2026-01-19 12:35:55.62	257.57	57.24	-37.0	-38.6	16.6	0.00e+00	0	62	0	2006974464	45	4362
2026-01-19 12:35:56.63	258.40	57.24	-36.9	-38.6	16.7	0.00e+00	0	62	0	2013265920	45	4346
2026-01-19 12:35:57.64	259.23	57.24	-36.9	-38.5	16.7	0.00e+00	0	62	0	2018508800	45	4318
2026-01-19 12:35:58.65	260.06	57.23	-36.9	-38.6	16.7	0.00e+00	0	62	0	2024800256	45	4344
2026-01-19 12:35:59.66	260.89	57.21	-36.9	-38.6	16.7	0.00e+00	0	62	0	2030043136	45	4349
2026-01-19 12:36:00.67	261.72	57.19	-36.9	-38.6	16.6	0.00e+00	0	62	0	2035286016	45	4360
2026-01-19 12:36:01.68	262.54	57.16	-37.0	-38.7	16.6	0.00e+00	0	62	0	2041577472	45	4397
2026-01-19 12:36:02.69	263.37	57.13	-36.8	-38.5	16.8	0.00e+00	0	62	0	2046820352	45	4294
2026-01-19 12:36:03.70	264.19	57.09	-36.8	-38.4	16.8	0.00e+00	0	62	0	2053111808	45	4268
2026-01-19 12:36:04.71	265.01	57.04	-36.8	-38.4	16.9	0.00e+00	0	62	0	2058354688	45	4245
2026-01-19 12:36:05.72	265.83	56.99	-36.7	-38.3	16.9	0.00e+00	0	62	0	2064646144	45	4231
2026-01-19 12:36:06.73	266.64	56.93	-36.7	-38.3	16.9	0.00e+00	0	62	0	2069889024	45	4223
2026-01-19 12:36:07.75	267.46	56.87	-36.8	-38.4	16.8	0.00e+00	0	62	0	2076180480	45	4270
2026-01-19 12:36:08.76	268.26	56.81	-36.7	-38.3	16.9	0.00e+00	0	62	0	2081423360	45	4235
2026-01-19 12:36:09.77	269.07	56.73	-36.6	-38.2	17.0	0.00e+00	0	62	0	2086666240	45	4176
2026-01-19 12:36:10.78	269.86	56.66	-36.8	-38.4	16.9	0.00e+00	0	62	0	2092957696	45	4247
2026-01-19 12:36:11.79	270.66	56.58	-36.9	-38.6	16.7	0.00e+00	0	62	0	2098200576	45	4342
2026-01-19 12:36:12.80	271.45	56.49	-36.8	-38.4	16.8	0.00e+00	0	62	0	2104492032	45	4278
2026-01-19 12:36:13.81	272.23	56.40	-36.9	-38.5	16.8	0.00e+00	0	62	0	2109734912	45	4306
2026-01-19 12:36:14.82	273.01	56.30	-36.9	-38.5	16.8	0.00e+00	0	62	0	2114977792	45	4300
2026-01-19 12:36:15.82	273.77	56.20	-36.9	-38.5	16.7	0.00e+00	0	62	0	2121269248	45	4317
2026-01-19 12:36:16.83	274.54	56.09	-36.7	-38.3	16.9	0.00e+00	0	62	0	2126512128	45	4222
2026-01-19 12:36:17.84	275.30	55.98	-36.8	-38.4	16.9	0.00e+00	0	62	0	2132803584	45	4249
2026-01-19 12:36:18.85	276.06	55.86	-36.8	-38.4	16.8	0.00e+00	0	62	0	2138046464	45	4249
2026-01-19 12:36:19.86	276.81	55.74	-37.0	-38.6	16.6	0.00e+00	0	62	0	2143289344	45	4386
2026-01-19 12:36:20.87	277.55	55.62	-37.3	-39.0	16.2	0.00e+00	0	62	0	2149580800	45	4555
2026-01-19 12:36:21.88	278.28	55.49	-37.4	-39.1	16.1	0.00e+00	0	62	0	2154823680	45	4643
2026-01-19 12:36:22.89	279.01	55.36	-37.2	-38.9	16.3	0.00e+00	0	62	0	2161115136	45	4532
2026-01-19 12:36:23.90	279.73	55.22	-37.1	-38.8	16.4	0.00e+00	0	62	0	2166358016	45	4478
2026-01-19 12:36:24.91	280.45	55.08	-37.1	-38.8	16.4	0.00e+00	0	62	0	2172649472	45	4442
2026-01-19 12:36:25.92	281.16	54.93	-37.0	-38.6	16.5	0.00e+00	0	62	0	2177892352	45	4382
2026-01-19 12:36:26.93	281.86	54.78	-37.1	-38.8	16.4	0.00e+00	0	62	0	2184183808	45	4465
2026-01-19 12:36:27.94	282.55	54.63	-37.1	-38.8	16.4	0.00e+00	0	62	0	2189426688	45	4456
2026-01-19 12:36:28.95	283.23	54.47	-36.9	-38.6	16.6	0.00e+00	0	62	0	2194669568	45	4353
2026-01-19 12:36:29.96	283.91	54.31	-36.7	-38.3	16.9	0.00e+00	0	62	0	2200961024	45	4230
2026-01-19 12:36:30.97	284.58	54.15	-36.7	-38.2	17.0	0.00e+00	0	62	0	2206203904	45	4191
2026-01-19 12:36:31.98	285.25	53.98	-36.8	-38.3	16.9	0.00e+00	0	62	0	2212495360	45	4242
2026-01-19 12:36:32.99	285.90	53.81	-36.9	-38.6	16.7	0.00e+00	0	62	0	2217738240	45	4350
2026-01-19 12:36:34.00	286.55	53.64	-36.8	-38.4	16.8	0.00e+00	0	62	0	2222981120	45	4260
2026-01-19 12:36:35.01	287.19	53.47	-36.8	-38.4	16.8	0.00e+00	0	62	0	2229272576	45	4252
2026-01-19 12:36:36.02	287.82	53.29	-36.8	-38.4	16.8	0.00e+00	0	62	0	2234515456	45	4259
2026-01-19 12:36:37.03	288.44	53.11	-37.0	-38.7	16.5	0.00e+00	0	62	0	2240806912	45	4422
2026-01-19 12:36:38.04	289.06	52.92	-36.9	-38.5	16.6	0.00e+00	0	62	0	2246049792	45	4330
2026-01-19 12:36:39.05	289.67	52.73	-36.7	-38.3	16.8	0.00e+00	0	62	0	2251292672	45	4232
2026-01-19 12:36:40.06	290.27	52.55	-36.6	-38.2	17.0	0.00e+00	0	62	0	2257584128	45	4178
2026-01-19 12:36:41.06	290.86	52.36	-36.7	-38.2	16.9	0.00e+00	0	62	0	2262827008	45	4190
2026-01-19 12:36:42.08	291.45	52.16	-36.5	-38.1	17.1	0.00e+00	0	62	0	2269118464	45	4119
2026-01-19 12:36:43.09	292.03	51.96	-36.4	-37.9	17.3	0.00e+00	0	62	0	2274361344	44	4287
2026-01-19 12:36:44.10	292.60	51.76	-36.4	-37.9	17.3	0.00e+00	0	62	0	2280652800	44	4274
2026-01-19 12:36:45.10	293.16	51.57	-36.3	-37.8	17.4	0.00e+00	0	62	0	2285895680	44	4226
2026-01-19 12:36:46.11	293.71	51.36	-36.3	-37.9	17.4	0.00e+00	0	62	0	2291138560	44	4248
2026-01-19 12:36:47.12	294.26	51.16	-36.4	-37.9	17.3	0.00e+00	0	62	0	2297430016	44	4283
2026-01-19 12:36:48.13	294.80	50.95	-36.5	-38.1	17.1	0.00e+00	0	62	0	2302672896	44	4353
2026-01-19 12:36:49.14	295.33	50.75	-36.5	-38.1	17.1	0.00e+00	0	62	0	2308964352	44	4363
2026-01-19 12:36:50.15	295.86	50.54	-36.5	-38.1	17.1	0.00e+00	0	62	0	2314207232	44	4375
2026-01-19 12:36:51.16	296.38	50.33	-36.7	-38.2	17.2	0.00e+00	0	62	0	2319450112	44	4411
2026-01-19 12:36:52.17	296.89	50.11	-36.5	-37.9	17.5	0.00e+00	0	62	0	2325741568	44	4272
2026-01-19 12:36:53.18	297.39	49.90	-36.3	-37.7	17.7	0.00e+00	0	62	0	2330984448	44	4185
2026-01-19 12:36:54.19	297.89	49.69	-36.4	-37.8	17.6	0.00e+00	0	62	0	2337275904	44	4238
2026-01-19 12:36:55.20	298.38	49.47	-36.5	-37.9	17.5	0.00e+00	0	62	0	2342518784	44	4261
2026-01-19 12:36:56.21	298.87	49.25	-36.5	-37.9	17.5	0.00e+00	0	62	0	2347761664	44	4279
2026-01-19 12:36:57.22	299.34	49.04	-36.5	-37.9	17.6	0.00e+00	0	62	0	2354053120	44	4253
2026-01-19 12:36:58.23	299.81	48.82	-36.5	-38.0	17.5	0.00e+00	0	62	0	2359296000	44	4292
2026-01-19 12:36:59.23	300.27	48.60	-36.4	-37.8	17.6	0.00e+00	0	62	0	2365587456	44	4225
2026-01-19 12:37:00.24	300.73	48.38	-36.4	-37.7	17.7	0.00e+00	0	62	0	2370830336	44	4192
2026-01-19 12:37:01.25	301.18	48.16	-36.4	-37.7	17.7	0.00e+00	0	62	0	2377121792	44	4192
2026-01-19 12:37:02.26	301.63	47.94	-36.3	-37.6	17.8	0.00e+00	0	62	0	2382364672	44	4145
2026-01-19 12:37:03.27	302.06	47.71	-36.3	-37.7	17.7	0.00e+00	0	62	0	2387607552	44	4179
2026-01-19 12:37:04.28	302.50	47.49	-36.4	-37.9	17.6	0.00e+00	0	62	0	2393899008	44	4249
2026-01-19 12:37:05.29	302.92	47.27	-36.4	-37.8	17.6	0.00e+00	0	62	0	2399141888	44	4211
2026-01-19 12:37:06.30	303.34	47.04	-36.4	-37.8	17.6	0.00e+00	0	62	0	2405433344	44	4201
2026-01-19 12:37:07.31	303.76	46.82	-36.4	-37.8	17.5	0.00e+00	0	62	0	2410676224	44	4241
2026-01-19 12:37:08.32	304.16	46.59	-36.5	-37.9	17.6	0.00e+00	0	62	0	2415919104	44	4249
2026-01-19 12:37:09.33	304.57	46.37	-36.4	-37.8	17.7	0.00e+00	0	62	0	2422210560	44	4200
2026-01-19 12:37:10.34	304.96	46.14	-36.5	-37.9	17.5	0.00e+00	0	62	0	2427453440	44	4291
2026-01-19 12:37:11.35	305.35	45.91	-36.3	-37.7	17.8	0.00e+00	0	62	0	2433744896	44	4158
2026-01-19 12:37:12.36	305.74	45.69	-36.1	-37.5	17.9	0.00e+00	0	62	0	2438987776	44	4063
2026-01-19 12:37:13.37	306.12	45.46	-36.1	-37.5	17.9	0.00e+00	0	62	0	2445279232	44	4052
2026-01-19 12:37:14.39	306.50	45.23	-36.0	-37.3	18.1	0.00e+00	0	62	0	2450522112	44	3994
2026-01-19 12:37:15.39	306.86	45.01	-36.2	-37.5	17.9	0.00e+00	0	62	0	2455764992	44	4097
2026-01-19 12:37:16.40	307.23	44.78	-36.3	-37.6	17.8	0.00e+00	0	62	0	2462056448	44	4133
2026-01-19 12:37:17.41	307.59	44.56	-36.3	-37.7	17.8	0.00e+00	0	62	0	2467299328	44	4146
2026-01-19 12:37:18.42	307.94	44.33	-36.3	-37.7	17.7	0.00e+00	0	62	0	2473590784	44	4167
2026-01-19 12:37:19.43	308.29	44.11	-36.3	-37.7	17.7	0.00e+00	0	62	0	2478833664	44	4182
2026-01-19 12:37:20.44	308.63	43.88	-36.2	-37.5	17.9	0.00e+00	0	62	0	2485125120	44	4098
2026-01-19 12:37:21.45	308.97	43.65	-36.2	-37.5	17.9	0.00e+00	0	62	0	2490368000	44	4083
2026-01-19 12:37:22.46	309.31	43.43	-36.1	-37.5	17.9	0.00e+00	0	62	0	2495610880	44	4076
2026-01-19 12:37:23.47	309.64	43.20	-36.1	-37.4	18.0	0.00e+00	0	62	0	2501902336	44	4037
2026-01-19 12:37:24.48	309.97	42.98	-36.0	-37.3	18.1	0.00e+00	0	62	0	2507145216	44	3992
2026-01-19 12:37:25.49	310.29	42.76	-35.8	-37.1	18.1	0.00e+00	0	62	0	2513436672	43	4142
2026-01-19 12:37:26.50	310.60	42.53	-35.6	-37.0	18.3	0.00e+00	0	62	0	2518679552	43	4058
2026-01-19 12:37:27.51	310.92	42.31	-35.8	-37.1	18.2	0.00e+00	0	62	0	2523922432	43	4110
2026-01-19 12:37:28.52	311.22	42.09	-35.8	-37.2	18.1	0.00e+00	0	62	0	2530213888	43	4154
2026-01-19 12:37:29.54	311.53	41.86	-36.0	-37.4	17.9	0.00e+00	0	62	0	2535456768	43	4262
2026-01-19 12:37:30.55	311.83	41.64	-36.0	-37.3	17.9	0.00e+00	0	62	0	2541748224	43	4233
2026-01-19 12:37:31.56	312.13	41.42	-35.9	-37.3	18.0	0.00e+00	0	62	0	2546991104	43	4202
2026-01-19 12:37:32.57	312.42	41.20	-36.0	-37.4	17.9	0.00e+00	0	62	0	2552233984	43	4249
2026-01-19 12:37:33.58	312.71	40.98	-36.0	-37.4	17.9	0.00e+00	0	62	0	2558525440	43	4262
2026-01-19 12:37:34.59	312.99	40.76	-35.9	-37.2	18.0	0.00e+00	0	62	0	2563768320	43	4182
2026-01-19 12:37:35.60	313.27	40.54	-35.8	-37.2	18.1	0.00e+00	0	62	0	2570059776	43	4154
2026-01-19 12:37:36.61	313.55	40.32	-35.8	-37.1	18.1	0.00e+00	0	62	0	2575302656	43	4132
2026-01-19 12:37:37.62	313.82	40.10	-35.7	-37.1	18.1	0.00e+00	0	62	0	2581594112	43	4127
2026-01-19 12:37:38.63	314.09	39.88	-35.7	-37.1	18.1	0.00e+00	0	62	0	2586836992	43	4111
2026-01-19 12:37:39.64	314.36	39.67	-35.8	-37.2	18.1	0.00e+00	0	62	0	2593128448	43	4146
2026-01-19 12:37:40.65	314.62	39.45	-35.8	-37.2	18.0	0.00e+00	0	62	0	2598371328	43	4171
2026-01-19 12:37:41.66	314.88	39.24	-35.8	-37.1	18.1	0.00e+00	0	62	0	2603614208	43	4142
2026-01-19 12:37:42.67	315.14	39.02	-35.8	-37.1	18.1	0.00e+00	0	62	0	2609905664	43	4120
2026-01-19 12:37:43.68	315.39	38.81	-35.8	-37.2	18.1	0.00e+00	0	62	0	2615148544	43	4154
2026-01-19 12:37:44.69	315.64	38.59	-35.8	-37.2	18.0	0.00e+00	0	62	0	2621440000	43	4178
2026-01-19 12:37:45.70	315.88	38.38	-35.8	-37.2	18.1	0.00e+00	0	62	0	2626682880	43	4149
2026-01-19 12:37:46.71	316.13	38.17	-35.7	-37.1	18.1	0.00e+00	0	62	0	2631925760	43	4107
2026-01-19 12:37:47.72	316.37	37.96	-35.8	-37.2	18.1	0.00e+00	0	62	0	2638217216	43	4150
2026-01-19 12:37:48.73	316.60	37.75	-35.8	-37.2	18.0	0.00e+00	0	62	0	2643460096	43	4148
2026-01-19 12:37:49.74	316.84	37.54	-35.7	-37.0	18.2	0.00e+00	0	62	0	2649751552	43	4064
2026-01-19 12:37:50.75	317.07	37.33	-35.6	-37.0	18.2	0.00e+00	0	62	0	2654994432	43	4054
2026-01-19 12:37:51.76	317.30	37.12	-35.6	-36.9	18.3	0.00e+00	0	62	0	2660237312	43	4042
2026-01-19 12:37:52.77	317.52	36.92	-35.6	-36.9	18.3	0.00e+00	0	62	0	2666528768	43	4044
2026-01-19 12:37:53.78	317.74	36.71	-35.6	-36.9	18.3	0.00e+00	0	62	0	2671771648	43	4030
2026-01-19 12:37:54.79	317.96	36.51	-35.6	-36.9	18.3	0.00e+00	0	62	0	2678063104	43	4037
2026-01-19 12:37:55.80	318.18	36.30	-35.6	-36.9	18.3	0.00e+00	0	62	0	2683305984	43	4042
2026-01-19 12:37:56.81	318.40	36.10	-35.5	-36.9	18.3	0.00e+00	0	62	0	2689597440	43	4015
2026-01-19 12:37:57.82	318.61	35.90	-35.4	-36.7	18.4	0.00e+00	0	62	0	2694840320	42	4191
2026-01-19 12:37:58.83	318.82	35.70	-35.5	-36.8	18.4	0.00e+00	0	62	0	2701131776	42	4229
2026-01-19 12:37:59.84	319.02	35.49	-35.6	-36.9	18.3	0.00e+00	0	62	0	2706374656	42	4252
2026-01-19 12:38:00.85	319.23	35.29	-35.6	-37.0	18.2	0.00e+00	0	62	0	2711617536	42	4294
2026-01-19 12:38:01.85	319.43	35.10	-35.6	-37.0	18.2	0.00e+00	0	62	0	2717908992	42	4292
2026-01-19 12:38:02.86	319.63	34.90	-35.6	-36.9	18.3	0.00e+00	0	62	0	2723151872	42	4273
2026-01-19 12:38:03.87	319.82	34.70	-35.7	-37.0	18.2	0.00e+00	0	62	0	2729443328	42	4333
2026-01-19 12:38:04.89	320.02	34.50	-35.7	-37.1	18.1	0.00e+00	0	62	0	2734686208	42	4357
2026-01-19 12:38:05.90	320.21	34.31	-35.8	-37.1	18.0	0.00e+00	0	62	0	2739929088	42	4386
2026-01-19 12:38:06.91	320.40	34.11	-35.8	-37.1	18.0	0.00e+00	0	62	0	2746220544	42	4383
2026-01-19 12:38:07.92	320.59	33.92	-35.6	-36.9	18.2	0.00e+00	0	62	0	2751463424	42	4284
2026-01-19 12:38:08.93	320.78	33.73	-35.6	-36.9	18.3	0.00e+00	0	62	0	2757754880	42	4255
2026-01-19 12:38:09.94	320.96	33.53	-35.6	-37.0	18.2	0.00e+00	0	62	0	2762997760	42	4297
2026-01-19 12:38:10.95	321.14	33.34	-35.6	-36.9	18.3	0.00e+00	0	62	0	2768240640	42	4256
2026-01-19 12:38:11.96	321.32	33.15	-35.6	-36.9	18.3	0.00e+00	0	62	0	2774532096	42	4266
2026-01-19 12:38:12.97	321.50	32.96	-35.7	-37.1	18.1	0.00e+00	0	62	0	2779774976	42	4354
2026-01-19 12:38:13.98	321.67	32.78	-35.7	-37.0	18.1	0.00e+00	0	62	0	2786066432	42	4326
2026-01-19 12:38:14.99	321.85	32.59	-35.7	-37.1	18.1	0.00e+00	0	62	0	2791309312	42	4362
2026-01-19 12:38:15.99	322.02	32.40	-35.8	-37.2	18.0	0.00e+00	0	62	0	2797600768	42	4392
2026-01-19 12:38:17.00	322.19	32.22	-35.9	-37.2	17.9	0.00e+00	0	62	0	2802843648	42	4427
2026-01-19 12:38:18.01	322.36	32.03	-36.0	-37.4	17.8	0.00e+00	0	62	0	2808086528	42	4510
2026-01-19 12:38:19.02	322.52	31.85	-36.1	-37.5	17.7	0.00e+00	0	62	0	2814377984	42	4549
2026-01-19 12:38:20.03	322.69	31.67	-36.1	-37.5	17.6	0.00e+00	0	62	0	2819620864	42	4575
2026-01-19 12:38:21.04	322.85	31.48	-36.1	-37.5	17.6	0.00e+00	0	62	0	2825912320	42	4597
2026-01-19 12:38:22.05	323.01	31.30	-36.1	-37.5	17.6	0.00e+00	0	62	0	2831155200	42	4583
2026-01-19 12:38:23.06	323.17	31.12	-36.1	-37.5	17.7	0.00e+00	0	62	0	2836398080	42	4551
2026-01-19 12:38:24.07	323.32	30.94	-36.0	-37.4	17.7	0.00e+00	0	62	0	2842689536	42	4531
2026-01-19 12:38:25.08	323.48	30.76	-35.9	-37.3	17.9	0.00e+00	0	62	0	2847932416	42	4452
2026-01-19 12:38:26.08	323.63	30.59	-35.8	-37.2	18.0	0.00e+00	0	62	0	2854223872	42	4404
2026-01-19 12:38:27.09	323.78	30.41	-35.9	-37.2	18.0	0.00e+00	0	62	0	2859466752	42	4412
2026-01-19 12:38:28.10	323.94	30.24	-35.8	-37.2	18.0	0.00e+00	0	62	0	2864709632	42	4403
2026-01-19 12:38:29.11	324.08	30.06	-35.9	-37.3	17.9	0.00e+00	0	62	0	2871001088	42	4460
2026-01-19 12:38:30.13	324.23	29.89	-36.0	-37.4	17.7	0.00e+00	0	62	0	2876243968	42	4508
2026-01-19 12:38:31.13	324.38	29.71	-36.0	-37.4	17.8	0.00e+00	0	62	0	2882535424	42	4496
2026-01-19 12:38:32.15	324.52	29.54	-36.1	-37.5	17.7	0.00e+00	0	62	0	2887778304	42	4561
2026-01-19 12:38:33.16	324.67	29.37	-36.1	-37.5	17.6	0.00e+00	0	62	0	2894069760	42	4566
2026-01-19 12:38:34.17	324.81	29.20	-36.0	-37.4	17.7	0.00e+00	0	62	0	2899312640	42	4543
2026-01-19 12:38:35.17	324.95	29.03	-36.0	-37.5	17.7	0.00e+00	0	62	0	2905604096	42	4546
2026-01-19 12:38:36.18	325.09	28.86	-36.0	-37.4	17.7	0.00e+00	0	62	0	2910846976	42	4543
2026-01-19 12:38:37.19	325.22	28.69	-36.0	-37.4	17.7	0.00e+00	0	62	0	2916089856	42	4525
2026-01-19 12:38:38.20	325.36	28.52	-36.0	-37.4	17.7	0.00e+00	0	62	0	2922381312	42	4520
2026-01-19 12:38:39.21	325.49	28.36	-35.9	-37.3	17.8	0.00e+00	0	62	0	2927624192	42	4486
2026-01-19 12:38:40.22	325.63	28.19	-35.9	-37.3	17.8	0.00e+00	0	62	0	2932867072	42	4475
2026-01-19 12:38:41.23	325.76	28.03	-36.0	-37.3	17.7	0.00e+00	0	62	0	2939158528	42	4490
2026-01-19 12:38:42.24	325.89	27.86	-35.9	-37.3	17.9	0.00e+00	0	62	0	2944401408	42	4444
2026-01-19 12:38:43.25	326.02	27.70	-35.9	-37.2	17.9	0.00e+00	0	62	0	2950692864	42	4432
2026-01-19 12:38:44.25	326.14	27.54	-35.9	-37.3	17.8	0.00e+00	0	62	0	2955935744	42	4453
2026-01-19 12:38:45.26	326.27	27.38	-35.9	-37.3	17.8	0.00e+00	0	62	0	2961178624	42	4481
2026-01-19 12:38:46.27	326.40	27.22	-35.9	-37.2	17.8	0.00e+00	0	62	0	2967470080	42	4440
2026-01-19 12:38:47.28	326.52	27.06	-35.9	-37.2	17.8	0.00e+00	0	62	0	2972712960	42	4441
2026-01-19 12:38:48.29	326.64	26.90	-35.9	-37.3	17.8	0.00e+00	0	62	0	2979004416	42	4468
2026-01-19 12:38:49.30	326.76	26.74	-36.0	-37.3	17.7	0.00e+00	0	62	0	2984247296	42	4493
2026-01-19 12:38:50.31	326.89	26.58	-35.9	-37.3	17.8	0.00e+00	0	62	0	2990538752	42	4463
2026-01-19 12:38:51.32	327.01	26.43	-35.9	-37.3	17.8	0.00e+00	0	62	0	2995781632	42	4486
2026-01-19 12:38:52.33	327.12	26.27	-36.1	-37.5	17.6	0.00e+00	0	62	0	3002073088	42	4556
2026-01-19 12:38:53.34	327.24	26.11	-35.9	-37.3	17.8	0.00e+00	0	62	0	3007315968	42	4466
2026-01-19 12:38:54.35	327.36	25.96	-35.9	-37.3	17.7	0.00e+00	0	62	0	3012558848	42	4483
2026-01-19 12:38:55.36	327.47	25.81	-36.0	-37.3	17.7	0.00e+00	0	62	0	3018850304	42	4490
2026-01-19 12:38:56.37	327.59	25.65	-36.0	-37.4	17.6	0.00e+00	0	62	0	3024093184	42	4532
2026-01-19 12:38:57.38	327.70	25.50	-36.1	-37.6	17.5	0.00e+00	0	62	0	3030384640	42	4600
2026-01-19 12:38:58.39	327.81	25.35	-36.1	-37.5	17.5	0.00e+00	0	62	0	3035627520	42	4595
2026-01-19 12:38:59.40	327.92	25.20	-36.2	-37.6	17.4	0.00e+00	0	62	0	3040870400	42	4632
2026-01-19 12:39:00.41	328.03	25.05	-36.3	-37.7	17.3	0.00e+00	0	62	0	3047161856	43	4437
2026-01-19 12:39:01.42	328.14	24.90	-36.3	-37.7	17.3	0.00e+00	0	62	0	3052404736	43	4420
2026-01-19 12:39:02.43	328.25	24.75	-36.3	-37.8	17.3	0.00e+00	0	62	0	3058696192	43	4444
2026-01-19 12:39:03.44	328.36	24.61	-36.4	-37.9	17.2	0.00e+00	0	62	0	3063939072	43	4507
2026-01-19 12:39:04.45	328.46	24.46	-36.5	-37.9	17.1	0.00e+00	0	62	0	3069181952	43	4538
2026-01-19 12:39:05.46	328.57	24.31	-36.5	-37.9	17.1	0.00e+00	0	62	0	3075473408	43	4535
2026-01-19 12:39:06.47	328.67	24.17	-36.4	-37.9	17.2	0.00e+00	0	62	0	3080716288	43	4500
2026-01-19 12:39:07.48	328.77	24.02	-36.5	-38.0	17.1	0.00e+00	0	62	0	3087007744	43	4548
2026-01-19 12:39:08.49	328.88	23.88	-36.5	-38.0	17.0	0.00e+00	0	62	0	3092250624	43	4591
2026-01-19 12:39:09.50	328.98	23.74	-36.5	-38.0	17.0	0.00e+00	0	62	0	3098542080	43	4591
2026-01-19 12:39:10.51	329.08	23.59	-36.6	-38.1	16.9	0.00e+00	0	62	0	3103784960	43	4604
2026-01-19 12:39:11.51	329.18	23.45	-36.5	-38.0	17.0	0.00e+00	0	62	0	3109027840	43	4591
2026-01-19 12:39:12.52	329.28	23.31	-36.4	-37.9	17.1	0.00e+00	0	62	0	3115319296	43	4531
2026-01-19 12:39:13.53	329.37	23.17	-36.5	-38.0	17.0	0.00e+00	0	62	0	3120562176	43	4548
2026-01-19 12:39:14.54	329.47	23.03	-36.5	-38.0	17.0	0.00e+00	0	62	0	3126853632	43	4551
2026-01-19 12:39:15.56	329.57	22.89	-36.4	-37.9	17.0	0.00e+00	0	62	0	3132096512	43	4533
2026-01-19 12:39:16.56	329.66	22.75	-36.5	-38.0	16.9	0.00e+00	0	62	0	3137339392	43	4586
2026-01-19 12:39:17.57	329.76	22.62	-36.6	-38.0	16.9	0.00e+00	0	62	0	3143630848	43	4595
2026-01-19 12:39:18.58	329.85	22.48	-36.5	-38.0	16.9	0.00e+00	0	62	0	3148873728	43	4580
2026-01-19 12:39:19.59	329.95	22.34	-36.6	-38.1	16.9	0.00e+00	0	62	0	3155165184	43	4606
2026-01-19 12:39:20.60	330.04	22.21	-36.6	-38.1	16.8	0.00e+00	0	62	0	3160408064	43	4648
2026-01-19 12:39:21.61	330.13	22.07	-36.6	-38.1	16.8	0.00e+00	0	62	0	3165650944	43	4646
2026-01-19 12:39:22.62	330.22	21.94	-36.6	-38.1	16.8	0.00e+00	0	62	0	3171942400	43	4643
2026-01-19 12:39:23.63	330.31	21.80	-36.7	-38.2	16.7	0.00e+00	0	62	0	3177185280	43	4667
2026-01-19 12:39:24.64	330.40	21.67	-36.7	-38.2	16.7	0.00e+00	0	62	0	3183476736	43	4683
2026-01-19 12:39:25.65	330.49	21.54	-36.9	-38.4	16.7	0.00e+00	0	62	0	3188719616	44	4535
2026-01-19 12:39:26.66	330.58	21.41	-36.9	-38.4	16.6	0.00e+00	0	62	0	3195011072	44	4532
2026-01-19 12:39:27.67	330.66	21.27	-36.9	-38.5	16.6	0.00e+00	0	62	0	3200253952	44	4553
2026-01-19 12:39:28.68	330.75	21.14	-36.9	-38.5	16.6	0.00e+00	0	62	0	3206545408	44	4555
2026-01-19 12:39:29.69	330.84	21.01	-37.0	-38.5	16.5	0.00e+00	0	62	0	3211788288	44	4594
2026-01-19 12:39:30.70	330.92	20.88	-37.0	-38.5	16.5	0.00e+00	0	62	0	3217031168	44	4595
2026-01-19 12:39:31.71	331.00	20.76	-36.9	-38.5	16.6	0.00e+00	0	62	0	3223322624	44	4561
2026-01-19 12:39:32.72	331.09	20.63	-37.0	-38.6	16.4	0.00e+00	0	62	0	3228565504	44	4625
2026-01-19 12:39:33.73	331.17	20.50	-37.0	-38.6	16.4	0.00e+00	0	62	0	3234856960	44	4634
2026-01-19 12:39:34.74	331.25	20.37	-37.1	-38.7	16.3	0.00e+00	0	62	0	3240099840	44	4677
2026-01-19 12:39:35.75	331.34	20.25	-37.1	-38.7	16.3	0.00e+00	0	62	0	3245342720	44	4695
2026-01-19 12:39:36.76	331.42	20.12	-37.2	-38.8	16.3	0.00e+00	0	62	0	3251634176	44	4713
2026-01-19 12:39:37.77	331.50	19.99	-37.2	-38.8	16.2	0.00e+00	0	62	0	3256877056	44	4742
2026-01-19 12:39:38.78	331.58	19.87	-37.3	-38.9	16.1	0.00e+00	0	62	0	3263168512	45	4542
2026-01-19 12:39:39.79	331.66	19.75	-37.2	-38.9	16.1	0.00e+00	0	62	0	3268411392	45	4504
2026-01-19 12:39:40.80	331.74	19.62	-37.3	-38.9	16.1	0.00e+00	0	62	0	3273654272	45	4516
2026-01-19 12:39:41.81	331.81	19.50	-37.3	-39.0	16.0	0.00e+00	0	62	0	3279945728	45	4571
2026-01-19 12:39:42.82	331.89	19.38	-37.3	-39.0	16.0	0.00e+00	0	62	0	3285188608	45	4563
2026-01-19 12:39:43.82	331.97	19.26	-37.4	-39.0	16.0	0.00e+00	0	62	0	3291480064	45	4574
2026-01-19 12:39:44.83	332.04	19.14	-37.4	-39.1	15.8	0.00e+00	0	62	0	3296722944	45	4629
2026-01-19 12:39:45.84	332.12	19.01	-37.4	-39.0	15.9	0.00e+00	0	62	0	3303014400	45	4582
2026-01-19 12:39:46.85	332.20	18.89	-37.3	-39.0	15.9	0.00e+00	0	62	0	3308257280	45	4576
2026-01-19 12:39:47.86	332.27	18.77	-37.4	-39.1	15.9	0.00e+00	0	62	0	3313500160	45	4607
2026-01-19 12:39:48.87	332.34	18.66	-37.5	-39.2	15.7	0.00e+00	0	62	0	3319791616	45	4669
2026-01-19 12:39:49.88	332.42	18.54	-37.3	-39.0	15.9	0.00e+00	0	62	0	3325034496	45	4573
2026-01-19 12:39:50.89	332.49	18.42	-37.4	-39.0	15.9	0.00e+00	0	62	0	3331325952	45	4584
2026-01-19 12:39:51.90	332.56	18.30	-37.3	-39.0	15.9	0.00e+00	0	62	0	3336568832	45	4559
2026-01-19 12:39:52.91	332.64	18.18	-37.3	-39.0	15.9	0.00e+00	0	62	0	3341811712	45	4565
2026-01-19 12:39:53.92	332.71	18.07	-37.4	-39.1	15.8	0.00e+00	0	62	0	3348103168	45	4624
2026-01-19 12:39:54.93	332.78	17.95	-37.4	-39.1	15.8	0.00e+00	0	62	0	3353346048	45	4627
2026-01-19 12:39:55.94	332.85	17.84	-37.5	-39.2	15.7	0.00e+00	0	62	0	3359637504	45	4670
2026-01-19 12:39:56.95	332.92	17.72	-37.5	-39.2	15.7	0.00e+00	0	62	0	3364880384	45	4671
2026-01-19 12:39:57.96	332.99	17.61	-37.6	-39.3	15.6	0.00e+00	0	62	0	3370123264	45	4708
2026-01-19 12:39:58.98	333.06	17.49	-37.7	-39.4	15.5	0.00e+00	0	62	0	3376414720	45	4777
2026-01-19 12:39:59.98	333.13	17.38	-37.7	-39.5	15.4	0.00e+00	0	62	0	3381657600	45	4815
2026-01-19 12:40:00.99	333.19	17.27	-37.7	-39.4	15.4	0.00e+00	0	62	0	3387949056	45	4811
2026-01-19 12:40:02.00	333.26	17.15	-37.8	-39.5	15.3	0.00e+00	0	62	0	3393191936	46	4592
2026-01-19 12:40:03.01	333.33	17.04	-37.8	-39.5	15.3	0.00e+00	0	62	0	3399483392	46	4592
2026-01-19 12:40:04.02	333.39	16.93	-37.9	-39.7	15.1	0.00e+00	0	62	0	3404726272	46	4685
2026-01-19 12:40:05.03	333.46	16.82	-38.0	-39.9	14.9	0.00e+00	0	62	0	3411017728	46	4768
2026-01-19 12:40:06.04	333.53	16.71	-38.1	-39.9	14.9	0.00e+00	0	62	0	3416260608	46	4807
2026-01-19 12:40:07.05	333.59	16.60	-38.1	-39.9	14.9	1.10e-06	0	62	0	3421503488	46	4807
2026-01-19 12:40:08.06	333.66	16.49	-38.2	-40.1	14.7	0.00e+00	0	62	0	3427794944	46	4876
2026-01-19 12:40:09.07	333.72	16.38	-38.2	-40.2	14.6	0.00e+00	0	62	0	3433037824	47	4660
2026-01-19 12:40:10.08	333.78	16.27	-38.2	-40.1	14.7	0.00e+00	0	62	0	3439329280	47	4624
2026-01-19 12:40:11.09	333.85	16.16	-38.3	-40.2	14.5	0.00e+00	0	62	0	3444572160	47	4694
2026-01-19 12:40:12.10	333.91	16.05	-38.3	-40.3	14.4	0.00e+00	0	62	0	3449815040	47	4727
2026-01-19 12:40:13.11	333.97	15.95	-38.3	-40.2	14.5	0.00e+00	0	62	0	3456106496	47	4698
2026-01-19 12:40:14.12	334.04	15.84	-38.3	-40.3	14.4	0.00e+00	0	62	0	3461349376	47	4720
2026-01-19 12:40:15.13	334.10	15.73	-38.4	-40.4	14.3	0.00e+00	0	62	0	3467640832	47	4762
2026-01-19 12:40:16.14	334.16	15.63	-38.4	-40.4	14.3	2.20e-06	0	62	0	3472883712	47	4774
2026-01-19 12:40:17.15	334.22	15.52	-38.4	-40.4	14.2	3.40e-06	0	62	0	3478126592	47	4810
2026-01-19 12:40:18.16	334.28	15.42	-38.4	-40.4	14.2	1.10e-06	0	62	0	3484418048	47	4793
2026-01-19 12:40:19.16	334.34	15.31	-38.4	-40.4	14.3	3.40e-06	0	62	0	3489660928	47	4761
2026-01-19 12:40:20.17	334.40	15.21	-38.4	-40.5	14.1	1.10e-06	0	62	0	3495952384	47	4841
2026-01-19 12:40:21.18	334.46	15.10	-38.4	-40.5	14.1	2.20e-06	0	62	0	3501195264	47	4820
2026-01-19 12:40:22.20	334.52	15.00	-38.3	-40.4	14.2	3.40e-06	0	62	0	3507486720	47	4787
