passes_logs/2026/01/19/R2.0S_Moscow/R2.0S_Moscow__20260119_023816_FENGYUN_3D_rec.log

#Pass ID: 20260119_023816_FENGYUN 3D
#Satellite: FENGYUN 3D
#Configuration: FENGYUN 3D
#almurnet v.1.7.20251203
#Start time: 2026-01-19 02:38:17

#Version: 2.2.20231116
#Station: R2.0S_Moscow
#Location: 37.707566 lon 55.798166 lat
#TLE: 1 43010U 17072A   26017.96359538  .00000271  00000+0  15011-3 0  9999
#TLE: 2 43010  98.9936 349.8252 0002386 103.8840 256.2601 14.19697057423673

#Time	Az	El	Level	Level2	SNR	BER	BlckErr	Temp	State	Recorded	gain1	gain2
2026-01-19 02:38:17.46	13.16	2.03	-40.4	-52.1	3.8	8.46e-01	0	52	0	0	52	13881
2026-01-19 02:38:18.46	13.13	2.10	-40.4	-52.2	3.8	8.46e-01	0	52	104	0	52	13937
2026-01-19 02:38:19.47	13.10	2.16	-40.4	-52.2	3.8	8.47e-01	0	52	104	0	52	13921
2026-01-19 02:38:20.48	13.06	2.22	-40.4	-52.2	3.8	8.46e-01	0	52	104	0	52	13922
2026-01-19 02:38:21.49	13.03	2.28	-40.4	-52.2	3.8	8.47e-01	0	52	104	0	52	13940
2026-01-19 02:38:22.50	12.99	2.35	-40.4	-52.2	3.8	8.45e-01	0	53	104	0	52	13928
2026-01-19 02:38:23.51	12.96	2.41	-40.4	-52.2	3.8	8.47e-01	0	52	104	0	52	13915
2026-01-19 02:38:24.52	12.92	2.47	-40.4	-52.2	3.8	8.46e-01	0	53	104	0	52	13908
2026-01-19 02:38:25.53	12.89	2.54	-40.4	-52.2	3.8	8.46e-01	0	53	104	0	52	13939
2026-01-19 02:38:26.55	12.85	2.60	-40.4	-52.2	3.8	8.46e-01	0	53	104	0	52	13966
2026-01-19 02:38:27.55	12.82	2.66	-40.4	-52.1	3.8	8.47e-01	0	53	104	0	52	13867
2026-01-19 02:38:28.56	12.78	2.73	-40.4	-52.2	3.8	8.47e-01	0	53	104	0	52	13913
2026-01-19 02:38:29.57	12.75	2.79	-40.4	-52.2	3.8	8.46e-01	0	53	104	0	52	13923
2026-01-19 02:38:30.58	12.71	2.86	-40.4	-52.2	3.8	8.45e-01	0	53	104	0	52	13908
2026-01-19 02:38:31.59	12.67	2.92	-40.4	-52.2	3.8	8.46e-01	0	53	104	0	52	13902
2026-01-19 02:38:32.60	12.64	2.99	-40.4	-52.2	3.8	8.46e-01	0	53	104	0	52	13888
2026-01-19 02:38:33.61	12.60	3.05	-40.4	-52.1	3.8	8.45e-01	0	53	104	0	52	13875
2026-01-19 02:38:34.63	12.56	3.12	-40.4	-52.1	3.8	8.46e-01	0	53	104	0	52	13877
2026-01-19 02:38:35.64	12.53	3.18	-40.4	-52.1	3.8	8.46e-01	0	53	104	0	52	13870
2026-01-19 02:38:36.65	12.49	3.25	-40.4	-52.2	3.8	8.45e-01	0	53	104	0	52	13904
2026-01-19 02:38:37.66	12.45	3.31	-40.4	-52.2	3.8	8.46e-01	0	53	104	0	52	13889
2026-01-19 02:38:38.67	12.42	3.38	-40.4	-52.1	3.8	8.46e-01	0	54	104	0	52	13866
2026-01-19 02:38:39.68	12.38	3.44	-40.4	-52.1	3.8	8.47e-01	0	54	104	0	52	13876
2026-01-19 02:38:40.69	12.34	3.51	-40.4	-52.1	3.8	8.46e-01	0	54	104	0	52	13846
2026-01-19 02:38:41.70	12.30	3.57	-40.4	-52.1	3.8	8.46e-01	0	54	104	0	52	13882
2026-01-19 02:38:42.71	12.26	3.64	-40.4	-52.1	3.8	8.47e-01	0	54	104	0	52	13880
2026-01-19 02:38:43.72	12.23	3.70	-40.4	-52.1	3.8	8.44e-01	0	54	104	0	52	13848
2026-01-19 02:38:44.73	12.19	3.77	-40.4	-52.1	3.8	8.47e-01	0	54	104	0	52	13859
2026-01-19 02:38:45.74	12.15	3.84	-40.4	-52.1	3.8	8.45e-01	0	54	104	0	52	13872
2026-01-19 02:38:46.76	12.11	3.90	-40.4	-52.1	3.8	8.45e-01	0	54	104	0	52	13883
2026-01-19 02:38:47.77	12.07	3.97	-40.4	-52.1	3.8	8.46e-01	0	54	104	0	52	13841
2026-01-19 02:38:48.78	12.03	4.04	-40.4	-52.1	3.8	8.47e-01	0	54	104	0	52	13841
2026-01-19 02:38:49.79	11.99	4.10	-40.4	-52.0	3.8	8.45e-01	0	54	104	0	52	13721
2026-01-19 02:38:50.80	11.95	4.17	-40.4	-52.0	3.8	8.46e-01	0	54	104	0	52	13714
2026-01-19 02:38:51.81	11.91	4.24	-40.4	-51.9	3.8	8.47e-01	0	55	104	0	52	13554
2026-01-19 02:38:52.82	11.87	4.31	-40.4	-51.8	3.8	8.46e-01	0	55	104	0	52	13396
2026-01-19 02:38:53.83	11.83	4.37	-40.4	-51.8	3.8	8.46e-01	0	55	104	0	52	13341
2026-01-19 02:38:54.84	11.79	4.44	-40.4	-51.8	3.8	8.46e-01	0	55	104	0	52	13284
2026-01-19 02:38:55.85	11.75	4.51	-40.4	-51.7	3.8	8.47e-01	0	55	104	0	52	13140
2026-01-19 02:38:56.86	11.71	4.58	-40.3	-51.6	3.8	8.46e-01	0	55	104	0	52	13071
2026-01-19 02:38:57.87	11.67	4.64	-40.3	-51.6	3.8	8.46e-01	0	55	104	0	52	13044
2026-01-19 02:38:58.88	11.63	4.71	-40.3	-51.6	3.8	8.45e-01	0	55	104	0	52	13020
2026-01-19 02:38:59.89	11.58	4.78	-40.4	-51.7	3.8	8.45e-01	0	55	104	0	52	13170
2026-01-19 02:39:00.90	11.54	4.85	-40.4	-51.7	3.8	8.47e-01	0	55	104	0	52	13223
2026-01-19 02:39:01.91	11.50	4.92	-40.4	-51.9	3.8	8.47e-01	0	55	104	0	52	13461
2026-01-19 02:39:02.92	11.46	4.99	-40.4	-51.9	3.8	8.47e-01	0	55	104	0	52	13508
2026-01-19 02:39:03.93	11.42	5.06	-40.4	-52.0	3.8	8.45e-01	0	55	104	0	52	13676
2026-01-19 02:39:04.94	11.37	5.13	-40.4	-52.1	3.8	8.46e-01	0	55	104	0	52	13773
2026-01-19 02:39:05.96	11.33	5.20	-40.4	-52.1	3.8	8.47e-01	0	55	104	0	52	13763
2026-01-19 02:39:06.97	11.29	5.27	-40.4	-52.1	3.8	8.47e-01	0	55	104	0	52	13785
2026-01-19 02:39:07.98	11.24	5.34	-40.4	-52.1	3.8	8.46e-01	0	55	104	0	52	13810
2026-01-19 02:39:08.99	11.20	5.41	-40.4	-52.1	3.8	8.45e-01	0	56	104	0	52	13771
2026-01-19 02:39:10.00	11.16	5.48	-40.4	-52.0	3.8	8.45e-01	0	56	104	0	52	13650
2026-01-19 02:39:11.01	11.11	5.55	-40.4	-52.0	3.8	8.47e-01	0	56	104	0	52	13574
2026-01-19 02:39:12.02	11.07	5.62	-40.4	-52.0	3.8	8.46e-01	0	56	104	0	52	13572
2026-01-19 02:39:13.03	11.02	5.69	-40.4	-51.9	3.8	8.47e-01	0	56	104	0	52	13528
2026-01-19 02:39:14.04	10.98	5.76	-40.4	-51.8	3.8	8.47e-01	0	56	104	0	52	13368
2026-01-19 02:39:15.05	10.93	5.83	-40.4	-51.8	3.8	8.44e-01	0	56	104	0	52	13392
2026-01-19 02:39:16.06	10.89	5.90	-40.4	-51.9	3.8	8.45e-01	0	56	104	0	52	13423
2026-01-19 02:39:17.07	10.84	5.97	-40.4	-51.9	3.8	8.46e-01	0	56	104	0	52	13439
2026-01-19 02:39:18.08	10.80	6.04	-40.4	-51.8	3.8	8.46e-01	0	56	104	0	52	13398
2026-01-19 02:39:19.09	10.75	6.11	-40.4	-51.8	3.8	8.45e-01	0	56	104	0	52	13299
2026-01-19 02:39:20.10	10.71	6.19	-40.4	-51.8	3.8	8.46e-01	0	56	104	0	52	13409
2026-01-19 02:39:21.11	10.66	6.26	-40.4	-51.9	3.8	8.45e-01	0	56	104	0	52	13508
2026-01-19 02:39:22.12	10.61	6.33	-40.4	-51.9	3.8	8.46e-01	0	56	104	0	52	13461
2026-01-19 02:39:23.13	10.57	6.40	-40.4	-51.8	3.8	8.47e-01	0	56	104	0	52	13413
2026-01-19 02:39:24.14	10.52	6.48	-40.4	-51.9	3.8	8.46e-01	0	56	104	0	52	13493
2026-01-19 02:39:25.15	10.47	6.55	-40.4	-52.0	3.8	8.47e-01	0	57	104	0	52	13602
2026-01-19 02:39:26.16	10.42	6.62	-40.4	-52.0	3.8	8.45e-01	0	56	104	0	52	13637
2026-01-19 02:39:27.17	10.38	6.69	-40.4	-52.0	3.8	8.46e-01	0	56	104	0	52	13705
2026-01-19 02:39:28.18	10.33	6.77	-40.4	-52.0	3.8	8.46e-01	0	57	104	0	52	13674
2026-01-19 02:39:29.19	10.28	6.84	-40.4	-52.0	3.8	8.47e-01	0	57	104	0	52	13716
2026-01-19 02:39:30.20	10.23	6.91	-40.4	-52.1	3.8	8.45e-01	0	57	104	0	52	13804
2026-01-19 02:39:31.21	10.18	6.99	-40.4	-52.1	3.8	8.46e-01	0	57	104	0	52	13849
2026-01-19 02:39:32.22	10.13	7.06	-40.4	-52.1	3.8	8.46e-01	0	57	104	0	52	13821
2026-01-19 02:39:33.23	10.08	7.14	-40.4	-52.1	3.8	8.46e-01	0	57	104	0	52	13810
2026-01-19 02:39:34.25	10.03	7.21	-40.4	-52.1	3.8	8.46e-01	0	57	104	0	52	13787
2026-01-19 02:39:35.25	9.98	7.29	-40.4	-52.1	3.8	8.45e-01	0	57	104	0	52	13840
2026-01-19 02:39:36.26	9.93	7.36	-40.4	-52.1	3.8	8.46e-01	0	57	104	0	52	13866
2026-01-19 02:39:37.27	9.88	7.44	-40.4	-52.1	3.8	8.46e-01	0	57	104	0	52	13864
2026-01-19 02:39:38.29	9.83	7.51	-40.4	-52.2	3.8	8.46e-01	0	57	104	0	52	13900
2026-01-19 02:39:39.30	9.78	7.59	-40.4	-52.2	3.8	8.47e-01	0	57	104	0	52	13901
2026-01-19 02:39:40.31	9.73	7.66	-40.4	-52.1	3.8	8.47e-01	0	57	104	0	52	13849
2026-01-19 02:39:41.32	9.67	7.74	-40.4	-52.1	3.8	8.45e-01	0	57	104	0	52	13880
2026-01-19 02:39:42.33	9.62	7.81	-40.4	-52.1	3.8	8.48e-01	0	57	104	0	52	13807
2026-01-19 02:39:43.34	9.57	7.89	-40.4	-52.1	3.8	8.46e-01	0	57	104	0	52	13799
2026-01-19 02:39:44.35	9.52	7.97	-40.4	-52.1	3.8	8.46e-01	0	57	104	0	52	13862
2026-01-19 02:39:45.36	9.46	8.04	-40.4	-52.1	3.8	8.45e-01	0	57	104	0	52	13871
2026-01-19 02:39:46.37	9.41	8.12	-40.4	-52.1	3.8	8.47e-01	0	57	104	0	52	13798
2026-01-19 02:39:47.38	9.36	8.20	-40.4	-52.1	3.8	8.45e-01	0	57	104	0	52	13854
2026-01-19 02:39:48.39	9.30	8.28	-40.6	-52.3	3.8	8.45e-01	0	57	104	0	52	14131
2026-01-19 02:39:49.40	9.25	8.35	-40.6	-52.3	3.8	8.45e-01	0	58	104	0	52	14089
2026-01-19 02:39:50.41	9.19	8.43	-40.3	-51.9	3.8	8.46e-01	0	58	104	0	52	13510
2026-01-19 02:39:51.42	9.14	8.51	-40.4	-52.1	3.8	8.46e-01	0	57	104	0	52	13780
2026-01-19 02:39:52.43	9.08	8.59	-40.6	-52.3	3.8	8.47e-01	0	58	104	0	52	14065
2026-01-19 02:39:53.44	9.03	8.67	-40.5	-52.1	3.8	8.48e-01	0	58	104	0	52	13859
2026-01-19 02:39:54.45	8.97	8.74	-40.2	-51.9	3.8	8.47e-01	0	58	104	0	52	13421
2026-01-19 02:39:55.46	8.92	8.82	-40.2	-51.8	3.8	8.46e-01	0	57	104	0	52	13395
2026-01-19 02:39:56.46	8.86	8.90	-40.1	-51.8	3.8	8.47e-01	0	58	104	0	52	13339
2026-01-19 02:39:57.47	8.80	8.98	-40.1	-51.8	3.8	8.45e-01	0	58	104	0	52	13354
2026-01-19 02:39:58.48	8.75	9.06	-40.1	-51.8	3.8	8.46e-01	0	58	104	0	52	13298
2026-01-19 02:39:59.49	8.69	9.14	-40.3	-52.0	3.8	8.46e-01	0	58	104	0	52	13584
2026-01-19 02:40:00.50	8.63	9.22	-40.5	-52.2	3.8	8.46e-01	0	58	104	0	52	13944
2026-01-19 02:40:01.51	8.57	9.30	-40.2	-51.9	3.8	8.47e-01	0	58	104	0	52	13436
2026-01-19 02:40:02.52	8.52	9.38	-40.2	-51.9	3.8	8.45e-01	0	58	104	0	52	13512
2026-01-19 02:40:03.53	8.46	9.46	-40.1	-51.8	3.8	8.45e-01	0	58	104	0	52	13391
2026-01-19 02:40:04.54	8.40	9.54	-40.1	-51.8	3.8	8.45e-01	0	58	104	0	52	13303
2026-01-19 02:40:05.55	8.34	9.62	-40.2	-51.8	3.8	8.47e-01	0	58	104	0	52	13397
2026-01-19 02:40:06.56	8.28	9.70	-40.2	-51.8	3.8	8.47e-01	0	58	104	0	52	13333
2026-01-19 02:40:07.57	8.22	9.78	-40.4	-52.1	3.8	8.47e-01	0	58	104	0	52	13868
2026-01-19 02:40:08.58	8.16	9.87	-40.5	-52.2	3.8	8.47e-01	0	58	104	0	52	13891
2026-01-19 02:40:09.59	8.10	9.95	-40.1	-51.7	3.8	8.47e-01	0	58	104	0	52	13248
2026-01-19 02:40:10.60	8.03	10.03	-40.1	-51.8	3.8	8.47e-01	0	58	104	0	52	13284
2026-01-19 02:40:11.61	7.97	10.11	-40.2	-51.8	3.8	8.46e-01	0	58	104	0	52	13389
2026-01-19 02:40:12.62	7.91	10.20	-40.1	-51.8	3.8	8.46e-01	0	58	104	0	52	13280
2026-01-19 02:40:13.62	7.85	10.28	-40.2	-51.8	3.8	8.47e-01	0	58	104	0	52	13376
2026-01-19 02:40:14.63	7.79	10.36	-40.2	-51.8	3.8	8.46e-01	0	58	104	0	52	13315
2026-01-19 02:40:15.64	7.72	10.45	-40.7	-52.3	3.8	8.46e-01	0	58	104	0	52	14139
2026-01-19 02:40:16.65	7.66	10.53	-40.7	-52.2	3.8	8.46e-01	0	58	104	0	52	13901
2026-01-19 02:40:17.66	7.60	10.61	-40.2	-51.7	3.8	8.47e-01	0	58	104	0	52	13260
2026-01-19 02:40:18.67	7.53	10.70	-40.3	-51.9	3.8	8.46e-01	0	59	104	0	52	13460
2026-01-19 02:40:19.68	7.47	10.78	-40.4	-52.0	3.8	8.46e-01	0	58	104	0	52	13677
2026-01-19 02:40:20.69	7.40	10.87	-40.4	-52.0	3.8	8.47e-01	0	58	104	0	52	13609
2026-01-19 02:40:21.70	7.34	10.95	-40.6	-52.2	3.8	8.46e-01	0	58	104	0	52	13907
2026-01-19 02:40:22.71	7.27	11.04	-40.4	-52.0	3.8	8.45e-01	0	59	104	0	52	13603
2026-01-19 02:40:23.72	7.20	11.12	-41.1	-51.1	3.8	8.45e-01	0	58	104	0	52	12374
2026-01-19 02:40:24.73	7.14	11.21	-42.1	-51.5	3.8	8.42e-01	0	59	104	0	54	11465
2026-01-19 02:40:25.74	7.07	11.29	-41.3	-52.2	3.8	8.42e-01	0	59	104	0	54	12470
2026-01-19 02:40:26.75	7.00	11.38	-41.6	-50.9	3.8	8.47e-01	0	59	104	0	54	10704
2026-01-19 02:40:27.76	6.93	11.47	-41.7	-50.0	4.3	8.37e-01	0	59	0	0	54	9617
2026-01-19 02:40:28.77	6.87	11.55	-41.7	-49.3	4.5	8.24e-01	0	59	0	0	54	8870
2026-01-19 02:40:29.78	6.80	11.64	-41.6	-48.7	4.9	7.93e-01	0	59	0	0	54	8299
2026-01-19 02:40:30.79	6.73	11.73	-41.6	-48.3	5.1	7.64e-01	0	59	0	0	54	7940
2026-01-19 02:40:31.79	6.66	11.81	-41.6	-48.2	5.2	7.45e-01	0	59	0	0	54	7884
2026-01-19 02:40:32.80	6.59	11.90	-42.7	-53.0	3.8	8.18e-01	0	59	104	0	55	12908
2026-01-19 02:40:33.81	6.52	11.99	-41.7	-48.2	5.3	8.18e-01	0	59	0	0	55	7399
2026-01-19 02:40:34.82	6.45	12.08	-40.8	-50.6	3.8	5.36e-01	0	59	104	1048576	52	11557
2026-01-19 02:40:35.83	6.37	12.17	-40.2	-44.7	7.9	6.97e-01	0	59	0	1048576	51	6225
2026-01-19 02:40:36.84	6.30	12.26	-41.3	-52.1	3.8	4.32e-01	0	59	104	5242880	53	13014
2026-01-19 02:40:37.85	6.23	12.35	-38.7	-41.8	10.6	5.89e-01	0	59	0	5242880	49	5035
2026-01-19 02:40:38.86	6.16	12.44	-38.1	-40.8	11.9	6.71e-04	0	59	0	10485760	48	4746
2026-01-19 02:40:39.87	6.08	12.53	-38.1	-40.7	12.1	3.82e-04	0	59	0	16777216	48	4703
2026-01-19 02:40:40.87	6.01	12.61	-38.2	-40.9	12.0	4.46e-04	0	59	0	22020096	48	4785
2026-01-19 02:40:41.88	5.94	12.70	-38.3	-41.1	11.8	5.69e-04	0	59	0	27262976	48	4873
2026-01-19 02:40:42.89	5.86	12.80	-38.3	-41.1	11.8	7.60e-04	0	59	0	33554432	48	4894
2026-01-19 02:40:43.90	5.79	12.89	-38.4	-41.2	11.8	7.45e-04	0	59	0	38797312	48	4950
2026-01-19 02:40:44.91	5.71	12.98	-38.5	-41.2	11.8	6.71e-04	0	59	0	45088768	48	4970
2026-01-19 02:40:45.92	5.63	13.07	-38.7	-41.4	11.7	7.07e-04	0	59	0	50331648	48	5092
2026-01-19 02:40:46.93	5.56	13.16	-38.9	-41.7	11.4	1.22e-03	0	59	0	56623104	48	5260
2026-01-19 02:40:47.94	5.48	13.25	-38.9	-41.8	11.3	1.45e-03	0	59	0	61865984	48	5323
2026-01-19 02:40:48.95	5.40	13.35	-38.8	-41.6	11.7	1.26e-03	0	59	0	67108864	48	5163
2026-01-19 02:40:49.96	5.32	13.44	-38.8	-41.4	12.0	5.12e-04	0	59	0	73400320	48	5068
2026-01-19 02:40:50.97	5.24	13.53	-38.7	-41.3	12.2	3.84e-04	0	59	0	78643200	48	5019
2026-01-19 02:40:51.98	5.17	13.62	-38.7	-41.2	12.5	2.16e-04	0	59	0	84934656	48	4939
2026-01-19 02:40:52.99	5.09	13.72	-38.6	-41.1	12.6	1.43e-04	0	59	0	90177536	48	4888
2026-01-19 02:40:53.99	5.01	13.81	-38.9	-41.5	12.2	3.12e-04	0	59	0	95420416	48	5137
2026-01-19 02:40:55.00	4.92	13.91	-39.0	-41.6	12.2	3.84e-04	0	59	0	101711872	48	5161
2026-01-19 02:40:56.01	4.84	14.00	-39.0	-41.5	12.3	2.56e-04	0	59	0	106954752	48	5136
2026-01-19 02:40:57.02	4.76	14.10	-38.9	-41.3	12.5	2.12e-04	0	59	0	113246208	48	5040
2026-01-19 02:40:58.03	4.68	14.19	-38.8	-41.2	12.6	1.23e-04	0	59	0	118489088	48	4968
2026-01-19 02:40:59.04	4.60	14.29	-39.0	-41.5	12.3	1.85e-04	0	59	0	123731968	48	5150
2026-01-19 02:41:00.05	4.51	14.38	-38.8	-41.3	12.5	2.49e-04	0	59	0	130023424	48	5015
2026-01-19 02:41:01.06	4.43	14.48	-38.6	-40.9	12.9	1.07e-04	0	59	0	135266304	48	4790
2026-01-19 02:41:02.07	4.34	14.57	-38.4	-40.7	13.1	6.17e-05	0	59	0	141557760	48	4691
2026-01-19 02:41:03.08	4.26	14.67	-38.5	-40.8	13.0	5.72e-05	0	59	0	146800640	48	4722
2026-01-19 02:41:04.09	4.17	14.77	-38.7	-41.1	12.8	7.20e-05	0	59	0	153092096	48	4888
2026-01-19 02:41:05.10	4.08	14.87	-38.8	-41.2	12.7	1.45e-04	0	59	0	158334976	48	4975
2026-01-19 02:41:06.11	4.00	14.96	-38.5	-40.8	13.3	5.95e-05	0	59	0	164626432	48	4726
2026-01-19 02:41:07.12	3.91	15.06	-38.3	-40.4	13.8	9.10e-06	0	59	0	169869312	48	4510
2026-01-19 02:41:08.13	3.82	15.16	-38.5	-40.7	13.6	1.37e-05	0	60	0	175112192	48	4672
2026-01-19 02:41:09.14	3.73	15.26	-38.8	-41.1	13.1	3.66e-05	0	60	0	181403648	48	4905
2026-01-19 02:41:10.15	3.64	15.36	-38.6	-40.8	13.5	3.08e-05	0	60	0	186646528	48	4721
2026-01-19 02:41:11.16	3.55	15.46	-38.4	-40.5	13.8	8.00e-06	0	59	0	192937984	48	4598
2026-01-19 02:41:12.17	3.46	15.56	-38.6	-40.9	13.5	1.37e-05	0	59	0	198180864	48	4766
2026-01-19 02:41:13.18	3.37	15.66	-38.8	-41.0	13.4	3.20e-05	0	60	0	203423744	48	4836
2026-01-19 02:41:14.18	3.28	15.76	-38.8	-41.0	13.4	2.63e-05	0	59	0	209715200	48	4832
2026-01-19 02:41:15.19	3.19	15.86	-38.6	-40.8	13.6	1.71e-05	0	60	0	214958080	48	4731
2026-01-19 02:41:16.20	3.09	15.96	-38.7	-40.8	13.6	1.25e-05	0	59	0	221249536	48	4751
2026-01-19 02:41:17.21	3.00	16.06	-38.5	-40.6	13.9	2.20e-06	0	60	0	226492416	48	4610
2026-01-19 02:41:18.22	2.90	16.16	-38.2	-40.2	14.2	2.20e-06	0	60	0	231735296	48	4423
2026-01-19 02:41:19.23	2.81	16.26	-38.2	-40.3	14.2	1.10e-06	0	59	0	238026752	48	4448
2026-01-19 02:41:20.24	2.71	16.36	-38.2	-40.2	14.3	2.20e-06	0	60	0	243269632	48	4421
2026-01-19 02:41:21.25	2.62	16.47	-38.2	-40.2	14.4	1.10e-06	0	60	0	249561088	48	4398
2026-01-19 02:41:22.26	2.52	16.57	-38.4	-40.4	14.2	4.50e-06	0	60	0	254803968	48	4515
2026-01-19 02:41:23.27	2.42	16.67	-38.1	-40.1	14.4	2.20e-06	0	60	0	261095424	48	4373
2026-01-19 02:41:24.28	2.32	16.78	-38.4	-40.4	14.2	1.10e-06	0	60	0	266338304	48	4511
2026-01-19 02:41:25.29	2.22	16.88	-38.1	-40.1	14.5	1.10e-06	0	60	0	271581184	48	4354
2026-01-19 02:41:26.30	2.12	16.99	-38.2	-40.2	14.5	1.10e-06	0	60	0	277872640	48	4395
2026-01-19 02:41:27.30	2.02	17.09	-38.2	-40.1	14.6	0.00e+00	0	59	0	283115520	48	4375
2026-01-19 02:41:28.32	1.92	17.20	-38.2	-40.1	14.5	0.00e+00	0	60	0	289406976	48	4387
2026-01-19 02:41:29.32	1.82	17.30	-38.2	-40.1	14.6	1.10e-06	0	60	0	294649856	48	4369
2026-01-19 02:41:30.33	1.71	17.41	-38.3	-40.2	14.5	1.10e-06	0	60	0	299892736	48	4416
2026-01-19 02:41:31.35	1.61	17.51	-38.2	-40.1	14.6	2.20e-06	0	60	0	306184192	48	4375
2026-01-19 02:41:32.35	1.50	17.62	-38.1	-40.0	14.7	1.10e-06	0	60	0	311427072	48	4314
2026-01-19 02:41:33.36	1.40	17.73	-38.0	-39.9	14.8	1.10e-06	0	60	0	317718528	48	4290
2026-01-19 02:41:34.37	1.29	17.83	-38.0	-39.9	14.9	1.10e-06	0	60	0	322961408	48	4274
2026-01-19 02:41:35.38	1.19	17.94	-38.0	-39.9	14.9	1.10e-06	0	60	0	328204288	48	4248
2026-01-19 02:41:36.39	1.08	18.05	-37.9	-39.8	14.8	0.00e+00	0	60	0	334495744	47	4482
2026-01-19 02:41:37.40	0.97	18.16	-37.9	-39.8	14.9	0.00e+00	0	60	0	339738624	47	4442
2026-01-19 02:41:38.41	0.86	18.27	-37.8	-39.6	15.1	0.00e+00	0	60	0	346030080	47	4373
2026-01-19 02:41:39.42	0.75	18.38	-37.8	-39.7	15.0	0.00e+00	0	60	0	351272960	47	4422
2026-01-19 02:41:40.43	0.64	18.49	-37.8	-39.7	15.0	0.00e+00	0	60	0	357564416	47	4401
2026-01-19 02:41:41.44	0.53	18.60	-37.7	-39.6	15.2	0.00e+00	0	60	0	362807296	47	4341
2026-01-19 02:41:42.44	0.41	18.71	-37.8	-39.6	15.1	0.00e+00	0	60	0	368050176	47	4388
2026-01-19 02:41:43.45	0.30	18.82	-37.7	-39.5	15.2	0.00e+00	0	60	0	374341632	47	4338
2026-01-19 02:41:44.46	0.19	18.93	-37.8	-39.6	15.1	0.00e+00	0	60	0	379584512	47	4376
2026-01-19 02:41:45.48	0.07	19.04	-37.8	-39.7	15.0	0.00e+00	0	60	0	385875968	47	4425
2026-01-19 02:41:46.48	359.95	19.15	-37.8	-39.6	15.2	1.10e-06	0	60	0	391118848	47	4349
2026-01-19 02:41:47.49	359.84	19.26	-37.9	-39.7	15.0	0.00e+00	0	60	0	396361728	47	4423
2026-01-19 02:41:48.50	359.72	19.38	-37.8	-39.7	15.1	1.10e-06	0	60	0	402653184	47	4408
2026-01-19 02:41:49.51	359.60	19.49	-37.7	-39.6	15.2	0.00e+00	0	60	0	407896064	47	4350
2026-01-19 02:41:50.52	359.48	19.60	-37.8	-39.6	15.1	0.00e+00	0	60	0	414187520	47	4349
2026-01-19 02:41:51.53	359.36	19.72	-37.6	-39.4	15.3	0.00e+00	0	60	0	419430400	47	4257
2026-01-19 02:41:52.54	359.24	19.83	-37.5	-39.3	15.4	0.00e+00	0	60	0	424673280	47	4228
2026-01-19 02:41:53.55	359.11	19.95	-37.5	-39.3	15.4	0.00e+00	0	60	0	430964736	47	4211
2026-01-19 02:41:54.56	358.99	20.06	-37.5	-39.2	15.5	0.00e+00	0	60	0	436207616	46	4424
2026-01-19 02:41:55.57	358.87	20.18	-37.4	-39.2	15.5	0.00e+00	0	60	0	442499072	46	4398
2026-01-19 02:41:56.58	358.74	20.29	-37.3	-39.0	15.6	0.00e+00	0	60	0	447741952	46	4333
2026-01-19 02:41:57.59	358.61	20.41	-37.4	-39.1	15.6	0.00e+00	0	60	0	454033408	46	4357
2026-01-19 02:41:58.60	358.49	20.52	-37.4	-39.2	15.4	0.00e+00	0	60	0	459276288	46	4431
2026-01-19 02:41:59.60	358.36	20.64	-37.4	-39.2	15.5	0.00e+00	0	60	0	465567744	46	4417
2026-01-19 02:42:00.61	358.23	20.76	-37.5	-39.3	15.4	0.00e+00	0	60	0	470810624	46	4445
2026-01-19 02:42:01.62	358.10	20.87	-37.5	-39.3	15.3	0.00e+00	0	60	0	476053504	46	4473
2026-01-19 02:42:02.63	357.97	20.99	-37.5	-39.2	15.4	0.00e+00	0	60	0	482344960	46	4439
2026-01-19 02:42:03.64	357.84	21.11	-37.4	-39.2	15.4	0.00e+00	0	60	0	487587840	46	4408
2026-01-19 02:42:04.65	357.70	21.23	-37.4	-39.2	15.4	0.00e+00	0	60	0	493879296	46	4404
2026-01-19 02:42:05.66	357.57	21.35	-37.4	-39.2	15.3	0.00e+00	0	60	0	499122176	46	4412
2026-01-19 02:42:06.67	357.43	21.47	-37.4	-39.2	15.3	0.00e+00	0	60	0	504365056	46	4417
2026-01-19 02:42:07.68	357.29	21.59	-37.3	-39.0	15.5	0.00e+00	0	60	0	510656512	46	4337
2026-01-19 02:42:08.69	357.16	21.71	-37.2	-38.9	15.6	0.00e+00	0	60	0	515899392	46	4288
2026-01-19 02:42:09.70	357.02	21.83	-37.1	-38.8	15.7	0.00e+00	0	60	0	521142272	46	4236
2026-01-19 02:42:10.71	356.88	21.95	-37.1	-38.8	15.8	0.00e+00	0	60	0	527433728	46	4224
2026-01-19 02:42:11.72	356.74	22.07	-37.1	-38.8	15.8	0.00e+00	0	60	0	532676608	46	4237
2026-01-19 02:42:12.73	356.59	22.20	-37.1	-38.8	15.8	0.00e+00	0	60	0	538968064	46	4237
2026-01-19 02:42:13.74	356.45	22.32	-37.2	-39.0	15.7	0.00e+00	0	60	0	544210944	46	4293
2026-01-19 02:42:14.75	356.31	22.44	-37.4	-39.1	15.6	0.00e+00	0	60	0	550502400	46	4372
2026-01-19 02:42:15.76	356.16	22.56	-37.4	-39.2	15.5	0.00e+00	0	60	0	555745280	46	4416
2026-01-19 02:42:16.77	356.01	22.69	-37.5	-39.2	15.5	0.00e+00	0	60	0	562036736	46	4430
2026-01-19 02:42:17.78	355.86	22.81	-37.4	-39.2	15.5	0.00e+00	0	60	0	567279616	46	4414
2026-01-19 02:42:18.79	355.71	22.94	-37.4	-39.2	15.5	0.00e+00	0	60	0	572522496	46	4419
2026-01-19 02:42:19.80	355.56	23.06	-37.4	-39.1	15.6	0.00e+00	0	60	0	578813952	46	4387
2026-01-19 02:42:20.81	355.41	23.19	-37.3	-39.0	15.7	0.00e+00	0	60	0	584056832	46	4317
2026-01-19 02:42:21.82	355.26	23.31	-37.1	-38.8	15.9	0.00e+00	0	60	0	590348288	46	4234
2026-01-19 02:42:22.84	355.10	23.44	-37.0	-38.7	16.1	0.00e+00	0	60	0	595591168	46	4157
2026-01-19 02:42:23.84	354.95	23.56	-36.9	-38.5	16.2	0.00e+00	0	60	0	600834048	45	4336
2026-01-19 02:42:24.85	354.79	23.69	-36.8	-38.4	16.4	0.00e+00	0	60	0	607125504	45	4275
2026-01-19 02:42:25.87	354.63	23.82	-36.8	-38.4	16.4	0.00e+00	0	60	0	612368384	45	4261
2026-01-19 02:42:26.87	354.47	23.94	-36.7	-38.3	16.5	0.00e+00	0	60	0	618659840	45	4219
2026-01-19 02:42:27.89	354.31	24.07	-36.8	-38.4	16.4	0.00e+00	0	60	0	623902720	45	4254
2026-01-19 02:42:28.89	354.15	24.20	-36.7	-38.3	16.5	0.00e+00	0	60	0	629145600	45	4225
2026-01-19 02:42:29.90	353.99	24.33	-36.8	-38.4	16.5	0.00e+00	0	60	0	635437056	45	4246
2026-01-19 02:42:30.91	353.82	24.46	-36.9	-38.5	16.3	0.00e+00	0	60	0	640679936	45	4312
2026-01-19 02:42:31.92	353.65	24.59	-36.9	-38.6	16.3	0.00e+00	0	61	0	646971392	45	4342
2026-01-19 02:42:32.93	353.49	24.72	-37.0	-38.7	16.2	0.00e+00	0	60	0	652214272	45	4396
2026-01-19 02:42:33.94	353.32	24.85	-37.0	-38.7	16.2	0.00e+00	0	60	0	658505728	45	4405
2026-01-19 02:42:34.95	353.15	24.98	-36.9	-38.5	16.3	0.00e+00	0	60	0	663748608	45	4331
2026-01-19 02:42:35.96	352.97	25.11	-36.9	-38.5	16.4	0.00e+00	0	60	0	670040064	45	4313
2026-01-19 02:42:36.97	352.80	25.24	-36.8	-38.4	16.5	0.00e+00	0	60	0	675282944	45	4257
2026-01-19 02:42:37.98	352.63	25.37	-36.9	-38.5	16.4	0.00e+00	0	61	0	680525824	45	4311
2026-01-19 02:42:38.99	352.45	25.50	-36.8	-38.4	16.5	0.00e+00	0	61	0	686817280	45	4282
2026-01-19 02:42:40.00	352.27	25.64	-36.8	-38.4	16.5	0.00e+00	0	60	0	692060160	45	4244
2026-01-19 02:42:41.01	352.09	25.77	-36.7	-38.3	16.6	0.00e+00	0	61	0	698351616	45	4203
2026-01-19 02:42:42.02	351.91	25.90	-36.7	-38.3	16.6	0.00e+00	0	61	0	703594496	45	4216
2026-01-19 02:42:43.03	351.73	26.03	-36.6	-38.2	16.7	0.00e+00	0	60	0	708837376	45	4164
2026-01-19 02:42:44.04	351.54	26.17	-36.6	-38.2	16.7	0.00e+00	0	60	0	715128832	45	4176
2026-01-19 02:42:45.05	351.36	26.30	-36.6	-38.1	16.9	0.00e+00	0	60	0	720371712	45	4111
2026-01-19 02:42:46.06	351.17	26.44	-36.7	-38.2	16.8	0.00e+00	0	61	0	726663168	45	4170
2026-01-19 02:42:47.07	350.98	26.57	-36.6	-38.1	16.9	0.00e+00	0	60	0	731906048	45	4144
2026-01-19 02:42:48.07	350.79	26.70	-36.6	-38.1	16.9	0.00e+00	0	61	0	737148928	45	4128
2026-01-19 02:42:49.08	350.60	26.84	-36.6	-38.2	16.9	0.00e+00	0	61	0	743440384	45	4158
2026-01-19 02:42:50.09	350.40	26.98	-36.7	-38.2	16.9	0.00e+00	0	61	0	748683264	45	4165
2026-01-19 02:42:51.11	350.21	27.11	-36.6	-38.1	17.0	0.00e+00	0	61	0	754974720	45	4116
2026-01-19 02:42:52.12	350.01	27.25	-36.5	-38.0	17.1	0.00e+00	0	61	0	760217600	45	4054
2026-01-19 02:42:53.13	349.81	27.39	-36.5	-38.0	17.1	0.00e+00	0	61	0	766509056	45	4078
2026-01-19 02:42:54.14	349.61	27.52	-36.6	-38.1	17.0	0.00e+00	0	60	0	771751936	45	4107
2026-01-19 02:42:55.15	349.41	27.66	-36.5	-38.0	17.1	0.00e+00	0	61	0	776994816	45	4083
2026-01-19 02:42:56.15	349.20	27.80	-36.6	-38.1	17.0	0.00e+00	0	61	0	783286272	45	4109
2026-01-19 02:42:57.16	349.00	27.93	-36.6	-38.1	17.0	0.00e+00	0	60	0	788529152	45	4115
2026-01-19 02:42:58.17	348.79	28.07	-36.6	-38.1	17.0	0.00e+00	0	61	0	794820608	45	4114
2026-01-19 02:42:59.18	348.58	28.21	-36.6	-38.1	17.0	0.00e+00	0	61	0	800063488	45	4123
2026-01-19 02:43:00.19	348.37	28.35	-36.6	-38.1	17.1	0.00e+00	0	61	0	805306368	45	4103
2026-01-19 02:43:01.20	348.15	28.49	-36.4	-37.9	17.3	0.00e+00	0	61	0	811597824	44	4251
2026-01-19 02:43:02.21	347.94	28.63	-36.5	-37.9	17.2	0.00e+00	0	61	0	816840704	44	4280
2026-01-19 02:43:03.22	347.72	28.76	-36.5	-38.0	17.2	0.00e+00	0	61	0	823132160	44	4314
2026-01-19 02:43:04.23	347.50	28.90	-36.6	-38.1	17.1	0.00e+00	0	61	0	828375040	44	4346
2026-01-19 02:43:05.24	347.28	29.04	-36.6	-38.1	17.1	0.00e+00	0	61	0	833617920	44	4357
2026-01-19 02:43:06.25	347.06	29.18	-36.6	-38.1	17.1	0.00e+00	0	61	0	839909376	44	4382
2026-01-19 02:43:07.26	346.83	29.32	-36.6	-38.1	17.2	0.00e+00	0	61	0	845152256	44	4342
2026-01-19 02:43:08.27	346.60	29.46	-36.5	-37.9	17.3	0.00e+00	0	61	0	851443712	44	4280
2026-01-19 02:43:09.28	346.37	29.60	-36.3	-37.7	17.5	0.00e+00	0	61	0	856686592	44	4180
2026-01-19 02:43:10.29	346.14	29.74	-36.2	-37.6	17.6	0.00e+00	0	61	0	862978048	44	4122
2026-01-19 02:43:11.30	345.91	29.89	-36.2	-37.7	17.6	0.00e+00	0	61	0	868220928	44	4153
2026-01-19 02:43:12.31	345.67	30.03	-36.2	-37.7	17.6	0.00e+00	0	61	0	874512384	44	4147
2026-01-19 02:43:13.32	345.44	30.17	-36.3	-37.7	17.6	0.00e+00	0	61	0	879755264	44	4161
2026-01-19 02:43:14.33	345.20	30.31	-36.4	-37.8	17.5	0.00e+00	0	61	0	884998144	44	4209
2026-01-19 02:43:15.35	344.95	30.45	-36.4	-37.9	17.4	0.00e+00	0	61	0	891289600	44	4263
2026-01-19 02:43:16.36	344.71	30.59	-36.5	-38.0	17.3	0.00e+00	0	61	0	896532480	44	4301
2026-01-19 02:43:17.37	344.46	30.73	-36.4	-37.8	17.4	0.00e+00	0	61	0	902823936	44	4227
2026-01-19 02:43:18.38	344.21	30.88	-36.4	-37.8	17.4	0.00e+00	0	61	0	908066816	44	4233
2026-01-19 02:43:19.39	343.96	31.02	-36.3	-37.7	17.5	0.00e+00	0	61	0	913309696	44	4181
2026-01-19 02:43:20.39	343.71	31.16	-36.3	-37.7	17.6	0.00e+00	0	61	0	919601152	44	4170
2026-01-19 02:43:21.40	343.46	31.30	-36.3	-37.7	17.6	0.00e+00	0	61	0	924844032	44	4184
2026-01-19 02:43:22.41	343.20	31.44	-36.3	-37.7	17.6	0.00e+00	0	61	0	931135488	44	4157
2026-01-19 02:43:23.42	342.94	31.58	-36.2	-37.6	17.7	0.00e+00	0	61	0	936378368	44	4129
2026-01-19 02:43:24.43	342.68	31.72	-36.2	-37.6	17.7	0.00e+00	0	61	0	941621248	44	4118
2026-01-19 02:43:25.44	342.41	31.87	-36.3	-37.7	17.6	0.00e+00	0	61	0	947912704	44	4166
2026-01-19 02:43:26.45	342.15	32.01	-36.3	-37.7	17.6	0.00e+00	0	61	0	953155584	44	4179
2026-01-19 02:43:27.46	341.88	32.15	-36.1	-37.5	17.7	0.00e+00	0	61	0	959447040	44	4098
2026-01-19 02:43:28.47	341.61	32.29	-36.1	-37.5	17.8	0.00e+00	0	61	0	964689920	44	4074
2026-01-19 02:43:29.48	341.33	32.43	-36.1	-37.4	17.9	0.00e+00	0	61	0	970981376	44	4032
2026-01-19 02:43:30.49	341.06	32.58	-36.0	-37.4	17.9	0.00e+00	0	61	0	976224256	44	4038
2026-01-19 02:43:31.50	340.78	32.72	-36.0	-37.4	17.9	0.00e+00	0	61	0	981467136	44	4033
2026-01-19 02:43:32.51	340.50	32.86	-36.1	-37.5	17.8	0.00e+00	0	61	0	987758592	44	4068
2026-01-19 02:43:33.52	340.21	33.00	-36.3	-37.7	17.6	0.00e+00	0	61	0	993001472	44	4161
2026-01-19 02:43:34.53	339.93	33.14	-36.3	-37.7	17.6	0.00e+00	0	61	0	999292928	44	4190
2026-01-19 02:43:35.54	339.64	33.28	-36.3	-37.7	17.6	0.00e+00	0	61	0	1004535808	44	4169
2026-01-19 02:43:36.55	339.35	33.42	-36.3	-37.7	17.7	0.00e+00	0	61	0	1009778688	44	4155
2026-01-19 02:43:37.56	339.05	33.56	-36.3	-37.7	17.6	0.00e+00	0	61	0	1016070144	44	4185
2026-01-19 02:43:38.57	338.76	33.70	-36.3	-37.7	17.6	0.00e+00	0	61	0	1021313024	44	4185
2026-01-19 02:43:39.58	338.46	33.84	-36.2	-37.6	17.8	0.00e+00	0	61	0	1027604480	44	4109
2026-01-19 02:43:40.59	338.16	33.98	-36.1	-37.5	17.9	0.00e+00	0	61	0	1032847360	44	4059
2026-01-19 02:43:41.60	337.85	34.12	-36.0	-37.3	18.0	0.00e+00	0	61	0	1038090240	44	4002
2026-01-19 02:43:42.61	337.55	34.26	-35.8	-37.2	18.0	0.00e+00	0	61	0	1044381696	43	4149
2026-01-19 02:43:43.62	337.24	34.40	-35.8	-37.1	18.1	0.00e+00	0	61	0	1049624576	43	4135
2026-01-19 02:43:44.63	336.92	34.54	-35.7	-37.0	18.2	0.00e+00	0	61	0	1055916032	43	4090
2026-01-19 02:43:45.64	336.61	34.68	-35.7	-37.0	18.2	0.00e+00	0	61	0	1061158912	43	4069
2026-01-19 02:43:46.65	336.29	34.82	-35.7	-37.0	18.2	0.00e+00	0	61	0	1067450368	43	4073
2026-01-19 02:43:47.66	335.97	34.95	-35.7	-37.0	18.2	0.00e+00	0	61	0	1072693248	43	4066
2026-01-19 02:43:48.67	335.65	35.09	-35.7	-37.1	18.1	0.00e+00	0	61	0	1078984704	43	4109
2026-01-19 02:43:49.68	335.32	35.23	-35.8	-37.2	18.0	0.00e+00	0	61	0	1084227584	43	4169
2026-01-19 02:43:50.69	334.99	35.36	-35.8	-37.2	18.0	0.00e+00	0	61	0	1089470464	43	4176
2026-01-19 02:43:51.70	334.66	35.50	-35.8	-37.2	18.0	0.00e+00	0	61	0	1095761920	43	4148
2026-01-19 02:43:52.71	334.33	35.64	-35.7	-37.0	18.1	0.00e+00	0	61	0	1101004800	43	4095
2026-01-19 02:43:53.72	333.99	35.77	-35.6	-37.0	18.2	0.00e+00	0	61	0	1107296256	43	4055
2026-01-19 02:43:54.73	333.65	35.90	-35.7	-37.1	18.2	0.00e+00	0	61	0	1112539136	43	4104
2026-01-19 02:43:55.74	333.31	36.04	-35.8	-37.2	18.1	0.00e+00	0	61	0	1117782016	43	4146
2026-01-19 02:43:56.75	332.96	36.17	-35.7	-37.0	18.2	0.00e+00	0	61	0	1124073472	43	4092
2026-01-19 02:43:57.76	332.62	36.30	-35.7	-37.0	18.2	0.00e+00	0	61	0	1129316352	43	4093
2026-01-19 02:43:58.77	332.27	36.43	-35.6	-37.0	18.2	0.00e+00	0	61	0	1135607808	43	4065
2026-01-19 02:43:59.78	331.91	36.57	-35.7	-37.0	18.2	0.00e+00	0	61	0	1140850688	43	4098
2026-01-19 02:44:00.79	331.55	36.70	-35.7	-37.0	18.2	0.00e+00	0	61	0	1146093568	43	4086
2026-01-19 02:44:01.81	331.19	36.83	-35.7	-37.0	18.2	0.00e+00	0	61	0	1152385024	43	4095
2026-01-19 02:44:02.82	330.83	36.95	-35.8	-37.2	18.1	0.00e+00	0	61	0	1157627904	43	4150
2026-01-19 02:44:03.83	330.46	37.08	-35.9	-37.3	17.9	0.00e+00	0	61	0	1163919360	43	4230
2026-01-19 02:44:04.84	330.09	37.21	-36.0	-37.4	17.8	0.00e+00	0	61	0	1169162240	43	4272
2026-01-19 02:44:05.85	329.72	37.33	-36.1	-37.5	17.7	0.00e+00	0	61	0	1175453696	43	4314
2026-01-19 02:44:06.86	329.35	37.46	-36.2	-37.6	17.6	0.00e+00	0	61	0	1180696576	43	4382
2026-01-19 02:44:07.87	328.97	37.58	-36.2	-37.6	17.6	0.00e+00	0	61	0	1186988032	43	4369
2026-01-19 02:44:08.88	328.59	37.71	-36.1	-37.5	17.8	0.00e+00	0	61	0	1192230912	43	4304
2026-01-19 02:44:09.89	328.21	37.83	-36.0	-37.4	17.8	0.00e+00	0	61	0	1197473792	43	4260
2026-01-19 02:44:10.90	327.82	37.95	-36.1	-37.5	17.8	0.00e+00	0	61	0	1203765248	43	4311
2026-01-19 02:44:11.91	327.43	38.07	-36.2	-37.6	17.7	0.00e+00	0	61	0	1209008128	43	4351
2026-01-19 02:44:12.92	327.04	38.19	-36.2	-37.6	17.6	0.00e+00	0	61	0	1215299584	43	4378
2026-01-19 02:44:13.93	326.65	38.31	-36.1	-37.5	17.8	0.00e+00	0	61	0	1220542464	43	4307
2026-01-19 02:44:14.94	326.25	38.42	-35.8	-37.2	18.0	0.00e+00	0	61	0	1225785344	43	4171
2026-01-19 02:44:15.95	325.85	38.54	-35.8	-37.1	18.1	0.00e+00	0	61	0	1232076800	43	4123
2026-01-19 02:44:16.96	325.45	38.65	-35.8	-37.2	18.1	0.00e+00	0	61	0	1237319680	43	4161
2026-01-19 02:44:17.97	325.04	38.77	-36.0	-37.3	17.9	0.00e+00	0	61	0	1243611136	43	4234
2026-01-19 02:44:18.98	324.63	38.88	-36.1	-37.5	17.7	0.00e+00	0	61	0	1248854016	43	4315
2026-01-19 02:44:19.99	324.22	38.99	-36.1	-37.5	17.7	0.00e+00	0	61	0	1254096896	43	4331
2026-01-19 02:44:21.00	323.81	39.10	-36.0	-37.4	17.8	0.00e+00	0	61	0	1260388352	43	4275
2026-01-19 02:44:22.01	323.39	39.21	-35.9	-37.3	18.0	0.00e+00	0	61	0	1265631232	43	4198
2026-01-19 02:44:23.01	322.97	39.31	-35.9	-37.3	18.0	0.00e+00	0	61	0	1271922688	43	4194
2026-01-19 02:44:24.02	322.55	39.42	-35.9	-37.3	17.9	0.00e+00	0	61	0	1277165568	43	4218
2026-01-19 02:44:25.03	322.13	39.52	-35.9	-37.2	18.0	0.00e+00	0	61	0	1283457024	43	4193
2026-01-19 02:44:26.04	321.70	39.62	-35.8	-37.2	18.0	0.00e+00	0	61	0	1288699904	43	4153
2026-01-19 02:44:27.05	321.27	39.72	-35.9	-37.3	18.0	0.00e+00	0	61	0	1293942784	43	4198
2026-01-19 02:44:28.06	320.83	39.82	-35.8	-37.2	18.0	0.00e+00	0	61	0	1300234240	43	4167
2026-01-19 02:44:29.07	320.40	39.92	-35.9	-37.3	18.0	0.00e+00	0	61	0	1305477120	43	4194
2026-01-19 02:44:30.08	319.96	40.01	-36.0	-37.4	17.8	0.00e+00	0	61	0	1311768576	43	4270
2026-01-19 02:44:31.09	319.52	40.11	-36.0	-37.4	17.9	0.00e+00	0	61	0	1317011456	43	4245
2026-01-19 02:44:32.10	319.07	40.20	-35.9	-37.2	18.0	0.00e+00	0	61	0	1322254336	43	4178
2026-01-19 02:44:33.11	318.63	40.29	-35.9	-37.2	18.0	0.00e+00	0	61	0	1328545792	43	4169
2026-01-19 02:44:34.12	318.18	40.38	-35.8	-37.1	18.1	0.00e+00	0	61	0	1333788672	43	4143
2026-01-19 02:44:35.13	317.72	40.47	-35.6	-37.0	18.3	0.00e+00	0	61	0	1340080128	43	4056
2026-01-19 02:44:36.14	317.27	40.55	-35.6	-36.9	18.3	0.00e+00	0	61	0	1345323008	43	4022
2026-01-19 02:44:37.15	316.81	40.63	-35.5	-36.8	18.4	0.00e+00	0	61	0	1350565888	43	3999
2026-01-19 02:44:38.16	316.36	40.72	-35.5	-36.8	18.4	0.00e+00	0	61	0	1356857344	43	4003
2026-01-19 02:44:39.17	315.89	40.79	-35.6	-37.0	18.2	0.00e+00	0	61	0	1362100224	43	4055
2026-01-19 02:44:40.17	315.44	40.87	-35.7	-37.1	18.1	0.00e+00	0	61	0	1368391680	43	4114
2026-01-19 02:44:41.18	314.97	40.95	-35.8	-37.1	18.1	0.00e+00	0	61	0	1373634560	43	4129
2026-01-19 02:44:42.19	314.50	41.02	-35.8	-37.1	18.1	0.00e+00	0	61	0	1379926016	43	4134
2026-01-19 02:44:43.20	314.03	41.09	-35.8	-37.1	18.1	0.00e+00	0	61	0	1385168896	43	4126
2026-01-19 02:44:44.21	313.56	41.16	-35.8	-37.2	18.1	0.00e+00	0	61	0	1391460352	43	4151
2026-01-19 02:44:45.22	313.09	41.23	-35.8	-37.2	18.1	0.00e+00	0	61	0	1396703232	43	4156
2026-01-19 02:44:46.23	312.61	41.29	-35.8	-37.2	18.0	0.00e+00	0	61	0	1401946112	43	4169
2026-01-19 02:44:47.24	312.13	41.36	-35.7	-37.1	18.2	0.00e+00	0	61	0	1408237568	43	4107
2026-01-19 02:44:48.25	311.65	41.42	-35.7	-37.0	18.2	0.00e+00	0	61	0	1413480448	43	4067
2026-01-19 02:44:49.26	311.17	41.48	-35.7	-37.0	18.2	0.00e+00	0	61	0	1419771904	43	4063
2026-01-19 02:44:50.27	310.69	41.53	-35.5	-36.8	18.4	0.00e+00	0	61	0	1425014784	43	3992
2026-01-19 02:44:51.28	310.21	41.59	-35.4	-36.8	18.5	0.00e+00	0	61	0	1430257664	42	4199
2026-01-19 02:44:52.29	309.72	41.64	-35.4	-36.7	18.5	0.00e+00	0	61	0	1436549120	42	4186
2026-01-19 02:44:53.29	309.24	41.69	-35.4	-36.7	18.5	0.00e+00	0	61	0	1441792000	42	4168
2026-01-19 02:44:54.30	308.75	41.74	-35.5	-36.8	18.4	0.00e+00	0	61	0	1448083456	42	4208
2026-01-19 02:44:55.31	308.26	41.78	-35.5	-36.8	18.4	0.00e+00	0	61	0	1453326336	42	4242
2026-01-19 02:44:56.32	307.76	41.83	-35.8	-37.1	18.1	0.00e+00	0	61	0	1458569216	42	4380
2026-01-19 02:44:57.33	307.27	41.87	-35.7	-37.1	18.1	0.00e+00	0	61	0	1464860672	42	4360
2026-01-19 02:44:58.34	306.77	41.91	-35.7	-37.1	18.1	0.00e+00	0	61	0	1470103552	42	4346
2026-01-19 02:44:59.35	306.28	41.94	-35.7	-37.0	18.2	0.00e+00	0	61	0	1476395008	42	4333
2026-01-19 02:45:00.36	305.78	41.98	-35.8	-37.2	18.1	0.00e+00	0	61	0	1481637888	42	4392
2026-01-19 02:45:01.37	305.28	42.01	-35.6	-37.0	18.2	0.00e+00	0	61	0	1487929344	42	4305
2026-01-19 02:45:02.38	304.78	42.03	-35.5	-36.8	18.4	0.00e+00	0	61	0	1493172224	42	4237
2026-01-19 02:45:03.39	304.28	42.06	-35.6	-36.9	18.3	0.00e+00	0	61	0	1498415104	42	4273
2026-01-19 02:45:04.40	303.78	42.09	-35.6	-36.9	18.3	0.00e+00	0	61	0	1504706560	42	4245
2026-01-19 02:45:05.41	303.28	42.11	-35.6	-36.9	18.2	0.00e+00	0	61	0	1509949440	42	4280
2026-01-19 02:45:06.42	302.78	42.13	-35.8	-37.2	18.0	0.00e+00	0	61	0	1516240896	42	4413
2026-01-19 02:45:07.43	302.28	42.14	-35.7	-37.0	18.2	0.00e+00	0	61	0	1521483776	42	4327
2026-01-19 02:45:08.44	301.77	42.16	-35.5	-36.8	18.4	0.00e+00	0	61	0	1526726656	42	4238
2026-01-19 02:45:09.45	301.27	42.17	-35.5	-36.8	18.4	0.00e+00	0	61	0	1533018112	42	4223
2026-01-19 02:45:10.46	300.77	42.18	-35.6	-36.9	18.3	0.00e+00	0	61	0	1538260992	42	4277
2026-01-19 02:45:11.47	300.26	42.18	-35.5	-36.8	18.3	0.00e+00	0	61	0	1544552448	42	4242
2026-01-19 02:45:12.48	299.76	42.19	-35.4	-36.7	18.5	0.00e+00	0	61	0	1549795328	42	4150
2026-01-19 02:45:13.49	299.25	42.19	-35.4	-36.7	18.5	0.00e+00	0	61	0	1555038208	42	4166
2026-01-19 02:45:14.50	298.75	42.19	-35.7	-37.1	18.1	0.00e+00	0	61	0	1561329664	42	4367
2026-01-19 02:45:15.51	298.25	42.18	-35.8	-37.1	18.1	0.00e+00	0	61	0	1566572544	42	4386
2026-01-19 02:45:16.52	297.74	42.18	-35.6	-36.9	18.3	0.00e+00	0	61	0	1572864000	42	4256
2026-01-19 02:45:17.53	297.24	42.17	-35.7	-37.0	18.2	0.00e+00	0	61	0	1578106880	42	4317
2026-01-19 02:45:18.54	296.73	42.16	-35.8	-37.1	18.1	0.00e+00	0	61	0	1584398336	42	4362
2026-01-19 02:45:19.55	296.23	42.14	-35.6	-36.9	18.3	0.00e+00	0	61	0	1589641216	42	4279
2026-01-19 02:45:20.56	295.73	42.13	-35.4	-36.7	18.5	0.00e+00	0	61	0	1595932672	42	4182
2026-01-19 02:45:21.57	295.22	42.11	-35.4	-36.6	18.5	0.00e+00	0	61	0	1601175552	42	4141
2026-01-19 02:45:22.58	294.72	42.09	-35.3	-36.5	18.7	0.00e+00	0	61	0	1606418432	42	4094
2026-01-19 02:45:23.59	294.22	42.07	-35.3	-36.5	18.7	0.00e+00	0	61	0	1612709888	42	4095
2026-01-19 02:45:24.60	293.72	42.04	-35.5	-36.8	18.5	0.00e+00	0	61	0	1617952768	42	4205
2026-01-19 02:45:25.61	293.22	42.01	-35.5	-36.9	18.4	0.00e+00	0	61	0	1624244224	42	4249
2026-01-19 02:45:26.62	292.72	41.98	-35.6	-36.9	18.3	0.00e+00	0	61	0	1629487104	42	4264
2026-01-19 02:45:27.63	292.23	41.95	-35.6	-37.0	18.3	0.00e+00	0	61	0	1634729984	42	4297
2026-01-19 02:45:28.64	291.73	41.91	-35.4	-36.7	18.5	0.00e+00	0	61	0	1641021440	42	4167
2026-01-19 02:45:29.65	291.23	41.87	-35.4	-36.7	18.5	0.00e+00	0	61	0	1646264320	42	4160
2026-01-19 02:45:30.65	290.74	41.83	-35.4	-36.7	18.5	0.00e+00	0	61	0	1652555776	42	4168
2026-01-19 02:45:31.66	290.25	41.79	-35.3	-36.6	18.6	0.00e+00	0	61	0	1657798656	42	4135
2026-01-19 02:45:32.67	289.76	41.75	-35.4	-36.8	18.5	0.00e+00	0	61	0	1663041536	42	4194
2026-01-19 02:45:33.69	289.26	41.70	-35.4	-36.7	18.5	0.00e+00	0	61	0	1669332992	42	4164
2026-01-19 02:45:34.70	288.78	41.65	-35.3	-36.6	18.6	0.00e+00	0	61	0	1674575872	42	4119
2026-01-19 02:45:35.70	288.29	41.60	-35.2	-36.5	18.7	0.00e+00	0	61	0	1680867328	42	4052
2026-01-19 02:45:36.72	287.80	41.54	-35.1	-36.4	18.8	0.00e+00	0	61	0	1686110208	42	4030
2026-01-19 02:45:37.73	287.32	41.49	-35.1	-36.4	18.8	0.00e+00	0	61	0	1692401664	42	4022
2026-01-19 02:45:38.74	286.84	41.43	-35.2	-36.5	18.7	0.00e+00	0	61	0	1697644544	42	4083
2026-01-19 02:45:39.75	286.36	41.37	-35.4	-36.7	18.4	0.00e+00	0	61	0	1702887424	42	4189
2026-01-19 02:45:40.76	285.88	41.30	-35.4	-36.8	18.4	0.00e+00	0	61	0	1709178880	42	4195
2026-01-19 02:45:41.77	285.40	41.24	-35.5	-36.9	18.3	0.00e+00	0	61	0	1714421760	42	4244
2026-01-19 02:45:42.77	284.93	41.17	-35.5	-36.8	18.4	0.00e+00	0	62	0	1720713216	42	4203
2026-01-19 02:45:43.79	284.45	41.10	-35.5	-36.7	18.4	0.00e+00	0	61	0	1725956096	42	4193
2026-01-19 02:45:44.80	283.98	41.03	-35.5	-36.8	18.4	0.00e+00	0	61	0	1731198976	42	4239
2026-01-19 02:45:45.81	283.51	40.96	-35.6	-36.9	18.3	0.00e+00	0	61	0	1737490432	42	4283
2026-01-19 02:45:46.81	283.05	40.88	-35.6	-36.9	18.3	0.00e+00	0	61	0	1742733312	42	4273
2026-01-19 02:45:47.82	282.59	40.81	-35.6	-36.9	18.3	0.00e+00	0	61	0	1749024768	42	4281
2026-01-19 02:45:48.83	282.12	40.73	-35.5	-36.8	18.4	0.00e+00	0	61	0	1754267648	42	4221
2026-01-19 02:45:49.84	281.66	40.64	-35.4	-36.7	18.5	0.00e+00	0	61	0	1759510528	42	4187
2026-01-19 02:45:50.85	281.21	40.56	-35.4	-36.7	18.6	0.00e+00	0	61	0	1765801984	42	4146
2026-01-19 02:45:51.86	280.75	40.48	-35.4	-36.8	18.4	0.00e+00	0	61	0	1771044864	42	4197
2026-01-19 02:45:52.87	280.30	40.39	-35.2	-36.5	18.7	0.00e+00	0	61	0	1777336320	42	4075
2026-01-19 02:45:53.88	279.85	40.30	-35.2	-36.4	18.7	0.00e+00	0	61	0	1782579200	42	4046
2026-01-19 02:45:54.89	279.40	40.21	-35.2	-36.4	18.8	0.00e+00	0	61	0	1788870656	42	4030
2026-01-19 02:45:55.90	278.96	40.12	-35.3	-36.6	18.6	0.00e+00	0	61	0	1794113536	42	4100
2026-01-19 02:45:56.91	278.51	40.02	-35.4	-36.7	18.5	0.00e+00	0	61	0	1800404992	42	4191
2026-01-19 02:45:57.92	278.07	39.93	-35.4	-36.7	18.5	0.00e+00	0	61	0	1805647872	42	4180
2026-01-19 02:45:58.93	277.64	39.83	-35.4	-36.7	18.5	0.00e+00	0	62	0	1810890752	42	4178
2026-01-19 02:45:59.95	277.20	39.73	-35.4	-36.7	18.5	0.00e+00	0	61	0	1817182208	42	4192
2026-01-19 02:46:00.96	276.76	39.63	-35.4	-36.7	18.6	0.00e+00	0	61	0	1822425088	42	4146
2026-01-19 02:46:01.97	276.33	39.53	-35.4	-36.7	18.5	0.00e+00	0	61	0	1828716544	42	4185
2026-01-19 02:46:02.97	275.91	39.43	-35.4	-36.7	18.4	0.00e+00	0	61	0	1833959424	42	4189
2026-01-19 02:46:03.98	275.49	39.32	-35.4	-36.7	18.5	0.00e+00	0	61	0	1839202304	42	4148
2026-01-19 02:46:04.99	275.07	39.22	-35.5	-36.8	18.4	0.00e+00	0	61	0	1845493760	42	4195
2026-01-19 02:46:06.00	274.65	39.11	-35.5	-36.8	18.4	0.00e+00	0	61	0	1850736640	42	4213
2026-01-19 02:46:07.01	274.23	39.00	-35.5	-36.8	18.3	0.00e+00	0	61	0	1857028096	42	4229
2026-01-19 02:46:08.02	273.82	38.89	-35.4	-36.6	18.5	0.00e+00	0	61	0	1862270976	42	4143
2026-01-19 02:46:09.02	273.41	38.78	-35.3	-36.6	18.6	0.00e+00	0	62	0	1867513856	42	4122
2026-01-19 02:46:10.04	273.00	38.66	-35.3	-36.6	18.6	0.00e+00	0	61	0	1873805312	42	4109
2026-01-19 02:46:11.05	272.60	38.55	-35.3	-36.6	18.6	0.00e+00	0	62	0	1879048192	42	4125
2026-01-19 02:46:12.06	272.19	38.43	-35.3	-36.6	18.6	0.00e+00	0	61	0	1885339648	42	4135
2026-01-19 02:46:13.07	271.80	38.32	-35.2	-36.5	18.7	0.00e+00	0	62	0	1890582528	42	4080
2026-01-19 02:46:14.08	271.40	38.20	-35.3	-36.6	18.6	0.00e+00	0	61	0	1896873984	42	4120
2026-01-19 02:46:15.09	271.01	38.08	-35.4	-36.6	18.5	0.00e+00	0	62	0	1902116864	42	4145
2026-01-19 02:46:16.10	270.62	37.96	-35.3	-36.6	18.6	0.00e+00	0	61	0	1907359744	42	4103
2026-01-19 02:46:17.11	270.23	37.84	-35.4	-36.6	18.5	0.00e+00	0	61	0	1913651200	42	4140
2026-01-19 02:46:18.12	269.84	37.72	-35.3	-36.6	18.6	0.00e+00	0	61	0	1918894080	42	4133
2026-01-19 02:46:19.13	269.46	37.59	-35.3	-36.6	18.6	0.00e+00	0	61	0	1925185536	42	4115
2026-01-19 02:46:20.14	269.08	37.47	-35.2	-36.5	18.7	0.00e+00	0	62	0	1930428416	42	4064
2026-01-19 02:46:21.15	268.71	37.34	-35.3	-36.6	18.6	0.00e+00	0	61	0	1935671296	42	4104
2026-01-19 02:46:22.16	268.34	37.22	-35.4	-36.7	18.5	0.00e+00	0	61	0	1941962752	42	4150
2026-01-19 02:46:23.17	267.97	37.09	-35.6	-36.9	18.3	0.00e+00	0	61	0	1947205632	42	4248
2026-01-19 02:46:24.18	267.60	36.96	-35.4	-36.8	18.4	0.00e+00	0	61	0	1953497088	42	4195
2026-01-19 02:46:25.19	267.23	36.83	-35.4	-36.7	18.5	0.00e+00	0	61	0	1958739968	42	4161
2026-01-19 02:46:26.20	266.87	36.70	-35.3	-36.6	18.6	0.00e+00	0	61	0	1963982848	42	4124
2026-01-19 02:46:27.20	266.52	36.57	-35.4	-36.7	18.5	0.00e+00	0	61	0	1970274304	42	4148
2026-01-19 02:46:28.21	266.16	36.44	-35.5	-36.8	18.4	0.00e+00	0	61	0	1975517184	42	4217
2026-01-19 02:46:29.22	265.81	36.31	-35.4	-36.7	18.5	0.00e+00	0	61	0	1981808640	42	4152
2026-01-19 02:46:30.23	265.46	36.18	-35.4	-36.6	18.5	0.00e+00	0	61	0	1987051520	42	4143
2026-01-19 02:46:31.24	265.11	36.04	-35.5	-36.8	18.4	0.00e+00	0	61	0	1993342976	42	4204
2026-01-19 02:46:32.25	264.77	35.91	-35.6	-36.9	18.3	0.00e+00	0	62	0	1998585856	42	4263
2026-01-19 02:46:33.26	264.43	35.78	-35.5	-36.8	18.3	0.00e+00	0	61	0	2004877312	42	4241
2026-01-19 02:46:34.27	264.09	35.64	-35.4	-36.7	18.4	0.00e+00	0	61	0	2010120192	42	4187
2026-01-19 02:46:35.28	263.75	35.51	-35.3	-36.6	18.5	0.00e+00	0	61	0	2015363072	42	4126
2026-01-19 02:46:36.29	263.42	35.37	-35.4	-36.6	18.5	0.00e+00	0	61	0	2021654528	42	4127
2026-01-19 02:46:37.30	263.09	35.23	-35.3	-36.6	18.6	0.00e+00	0	61	0	2026897408	42	4099
2026-01-19 02:46:38.31	262.76	35.10	-35.3	-36.6	18.6	0.00e+00	0	61	0	2033188864	42	4104
2026-01-19 02:46:39.32	262.44	34.96	-35.2	-36.5	18.7	0.00e+00	0	61	0	2038431744	42	4072
2026-01-19 02:46:40.33	262.12	34.82	-35.3	-36.6	18.6	0.00e+00	0	61	0	2043674624	42	4104
2026-01-19 02:46:41.34	261.80	34.68	-35.2	-36.5	18.6	0.00e+00	0	61	0	2049966080	42	4076
2026-01-19 02:46:42.35	261.48	34.54	-35.3	-36.6	18.6	0.00e+00	0	61	0	2055208960	42	4113
2026-01-19 02:46:43.36	261.17	34.40	-35.3	-36.6	18.5	0.00e+00	0	62	0	2061500416	42	4124
2026-01-19 02:46:44.37	260.86	34.26	-35.3	-36.6	18.5	0.00e+00	0	61	0	2066743296	42	4139
2026-01-19 02:46:45.38	260.55	34.12	-35.2	-36.5	18.7	0.00e+00	0	62	0	2071986176	42	4067
2026-01-19 02:46:46.39	260.24	33.98	-35.3	-36.5	18.6	0.00e+00	0	61	0	2078277632	42	4096
2026-01-19 02:46:47.40	259.94	33.84	-35.3	-36.5	18.6	0.00e+00	0	61	0	2083520512	42	4089
2026-01-19 02:46:48.41	259.64	33.70	-35.3	-36.5	18.6	0.00e+00	0	62	0	2089811968	42	4098
2026-01-19 02:46:49.42	259.34	33.56	-35.3	-36.6	18.5	0.00e+00	0	62	0	2095054848	42	4138
2026-01-19 02:46:50.43	259.05	33.42	-35.2	-36.5	18.7	0.00e+00	0	61	0	2101346304	42	4060
2026-01-19 02:46:51.44	258.75	33.28	-35.2	-36.4	18.7	0.00e+00	0	61	0	2106589184	42	4050
2026-01-19 02:46:52.45	258.46	33.14	-35.2	-36.5	18.6	0.00e+00	0	62	0	2111832064	42	4073
2026-01-19 02:46:53.46	258.18	33.00	-35.3	-36.6	18.6	0.00e+00	0	62	0	2118123520	42	4103
2026-01-19 02:46:54.47	257.89	32.85	-35.3	-36.6	18.5	0.00e+00	0	61	0	2123366400	42	4141
2026-01-19 02:46:55.48	257.61	32.71	-35.4	-36.7	18.5	0.00e+00	0	61	0	2129657856	42	4155
2026-01-19 02:46:56.49	257.33	32.57	-35.4	-36.7	18.4	0.00e+00	0	61	0	2134900736	42	4187
2026-01-19 02:46:57.49	257.05	32.43	-35.4	-36.7	18.4	0.00e+00	0	61	0	2140143616	42	4182
2026-01-19 02:46:58.51	256.77	32.29	-35.6	-37.0	18.2	0.00e+00	0	61	0	2146435072	42	4300
2026-01-19 02:46:59.51	256.50	32.14	-35.6	-36.9	18.2	0.00e+00	0	62	0	2151677952	42	4275
2026-01-19 02:47:00.52	256.23	32.00	-35.6	-36.9	18.2	0.00e+00	0	61	0	2157969408	42	4269
2026-01-19 02:47:01.53	255.97	31.86	-35.5	-36.8	18.3	0.00e+00	0	62	0	2163212288	42	4217
2026-01-19 02:47:02.54	255.70	31.72	-35.4	-36.7	18.5	0.00e+00	0	62	0	2168455168	42	4160
2026-01-19 02:47:03.55	255.44	31.57	-35.3	-36.6	18.6	0.00e+00	0	61	0	2174746624	42	4101
2026-01-19 02:47:04.56	255.18	31.43	-35.3	-36.6	18.5	0.00e+00	0	62	0	2179989504	42	4110
2026-01-19 02:47:05.57	254.92	31.29	-35.4	-36.7	18.4	0.00e+00	0	62	0	2186280960	42	4159
2026-01-19 02:47:06.58	254.66	31.15	-35.5	-36.8	18.4	0.00e+00	0	62	0	2191523840	42	4202
2026-01-19 02:47:07.59	254.41	31.00	-35.5	-36.8	18.3	0.00e+00	0	61	0	2197815296	42	4238
2026-01-19 02:47:08.60	254.15	30.86	-35.6	-36.9	18.2	0.00e+00	0	62	0	2203058176	42	4283
2026-01-19 02:47:09.61	253.90	30.72	-35.7	-37.0	18.1	0.00e+00	0	61	0	2209349632	42	4315
2026-01-19 02:47:10.62	253.66	30.58	-35.7	-37.1	18.0	0.00e+00	0	62	0	2214592512	42	4366
2026-01-19 02:47:11.62	253.41	30.44	-35.8	-37.2	18.0	0.00e+00	0	61	0	2219835392	42	4396
2026-01-19 02:47:12.63	253.17	30.29	-35.9	-37.3	17.8	0.00e+00	0	61	0	2226126848	42	4457
2026-01-19 02:47:13.64	252.93	30.15	-36.0	-37.4	17.7	0.00e+00	0	62	0	2231369728	42	4515
2026-01-19 02:47:14.65	252.69	30.01	-36.0	-37.4	17.7	0.00e+00	0	61	0	2236612608	42	4542
2026-01-19 02:47:15.66	252.45	29.87	-35.9	-37.3	17.8	0.00e+00	0	61	0	2242904064	42	4466
2026-01-19 02:47:16.67	252.22	29.73	-35.8	-37.2	17.9	0.00e+00	0	61	0	2248146944	42	4415
2026-01-19 02:47:17.68	251.99	29.59	-35.8	-37.2	17.9	0.00e+00	0	62	0	2254438400	42	4405
2026-01-19 02:47:18.69	251.76	29.45	-35.7	-37.1	18.0	0.00e+00	0	61	0	2259681280	42	4369
2026-01-19 02:47:19.70	251.53	29.31	-35.8	-37.1	18.0	0.00e+00	0	62	0	2265972736	42	4372
2026-01-19 02:47:20.71	251.30	29.16	-35.8	-37.1	18.0	0.00e+00	0	62	0	2271215616	42	4391
2026-01-19 02:47:21.72	251.08	29.02	-35.7	-37.0	18.1	0.00e+00	0	62	0	2276458496	42	4323
2026-01-19 02:47:22.73	250.85	28.88	-35.7	-37.0	18.1	0.00e+00	0	62	0	2282749952	42	4340
2026-01-19 02:47:23.74	250.63	28.74	-35.7	-37.0	18.1	0.00e+00	0	61	0	2287992832	42	4313
2026-01-19 02:47:24.75	250.41	28.60	-35.7	-37.0	18.1	0.00e+00	0	61	0	2294284288	42	4318
2026-01-19 02:47:25.76	250.20	28.46	-35.7	-37.1	18.0	0.00e+00	0	62	0	2299527168	42	4353
2026-01-19 02:47:26.77	249.98	28.32	-35.7	-37.1	18.0	0.00e+00	0	62	0	2305818624	42	4366
2026-01-19 02:47:27.78	249.77	28.19	-35.7	-37.1	18.0	0.00e+00	0	62	0	2311061504	42	4347
2026-01-19 02:47:28.79	249.56	28.05	-35.7	-37.0	18.1	0.00e+00	0	62	0	2316304384	42	4329
2026-01-19 02:47:29.79	249.35	27.91	-35.6	-36.9	18.2	0.00e+00	0	62	0	2322595840	42	4277
2026-01-19 02:47:30.80	249.14	27.77	-35.7	-37.1	18.0	0.00e+00	0	62	0	2327838720	42	4360
2026-01-19 02:47:31.81	248.94	27.63	-35.8	-37.2	17.9	0.00e+00	0	61	0	2334130176	42	4406
2026-01-19 02:47:32.82	248.73	27.50	-35.9	-37.3	17.8	0.00e+00	0	62	0	2339373056	42	4452
2026-01-19 02:47:33.83	248.53	27.36	-36.0	-37.3	17.7	0.00e+00	0	62	0	2344615936	42	4491
2026-01-19 02:47:34.85	248.33	27.22	-35.9	-37.3	17.8	0.00e+00	0	62	0	2350907392	42	4477
2026-01-19 02:47:35.85	248.13	27.08	-35.9	-37.3	17.8	0.00e+00	0	61	0	2356150272	42	4480
2026-01-19 02:47:36.86	247.93	26.95	-35.9	-37.3	17.8	0.00e+00	0	62	0	2362441728	42	4483
2026-01-19 02:47:37.87	247.74	26.81	-36.0	-37.3	17.8	0.00e+00	0	61	0	2367684608	42	4487
2026-01-19 02:47:38.88	247.54	26.68	-35.9	-37.3	17.8	0.00e+00	0	62	0	2372927488	42	4468
2026-01-19 02:47:39.89	247.35	26.54	-36.0	-37.4	17.7	0.00e+00	0	61	0	2379218944	42	4508
2026-01-19 02:47:40.90	247.16	26.40	-36.0	-37.4	17.7	0.00e+00	0	62	0	2384461824	42	4497
2026-01-19 02:47:41.91	246.97	26.27	-36.0	-37.4	17.7	0.00e+00	0	62	0	2390753280	42	4504
2026-01-19 02:47:42.92	246.79	26.13	-36.1	-37.5	17.6	0.00e+00	0	62	0	2395996160	42	4555
2026-01-19 02:47:43.93	246.60	26.00	-36.0	-37.4	17.7	0.00e+00	0	62	0	2402287616	42	4501
2026-01-19 02:47:44.94	246.42	25.87	-36.0	-37.4	17.7	0.00e+00	0	62	0	2407530496	42	4508
2026-01-19 02:47:45.95	246.23	25.73	-36.1	-37.5	17.6	0.00e+00	0	61	0	2413821952	42	4560
2026-01-19 02:47:46.96	246.05	25.60	-36.2	-37.6	17.5	0.00e+00	0	62	0	2419064832	42	4619
2026-01-19 02:47:47.97	245.87	25.47	-36.2	-37.6	17.5	0.00e+00	0	62	0	2424307712	42	4622
2026-01-19 02:47:48.98	245.70	25.33	-36.2	-37.6	17.5	0.00e+00	0	61	0	2430599168	42	4628
2026-01-19 02:47:49.99	245.52	25.20	-36.2	-37.7	17.4	0.00e+00	0	61	0	2435842048	43	4402
2026-01-19 02:47:51.00	245.34	25.07	-36.2	-37.7	17.4	0.00e+00	0	61	0	2442133504	43	4410
2026-01-19 02:47:52.02	245.17	24.94	-36.2	-37.6	17.4	0.00e+00	0	61	0	2447376384	43	4381
2026-01-19 02:47:53.02	245.00	24.81	-36.2	-37.6	17.4	0.00e+00	0	61	0	2452619264	43	4365
2026-01-19 02:47:54.03	244.83	24.68	-36.2	-37.7	17.4	0.00e+00	0	62	0	2458910720	43	4398
2026-01-19 02:47:55.04	244.66	24.55	-36.2	-37.6	17.4	0.00e+00	0	61	0	2464153600	43	4365
2026-01-19 02:47:56.05	244.49	24.42	-36.2	-37.7	17.4	0.00e+00	0	62	0	2469396480	43	4402
2026-01-19 02:47:57.06	244.33	24.29	-36.3	-37.8	17.3	0.00e+00	0	61	0	2475687936	43	4461
2026-01-19 02:47:58.07	244.16	24.16	-36.4	-37.8	17.2	0.00e+00	0	61	0	2480930816	43	4477
2026-01-19 02:47:59.08	244.00	24.03	-36.3	-37.7	17.3	0.00e+00	0	62	0	2487222272	43	4427
2026-01-19 02:48:00.09	243.83	23.90	-36.3	-37.7	17.3	0.00e+00	0	62	0	2492465152	43	4426
2026-01-19 02:48:01.10	243.67	23.77	-36.3	-37.7	17.3	0.00e+00	0	62	0	2498756608	43	4434
2026-01-19 02:48:02.11	243.51	23.64	-36.2	-37.7	17.4	0.00e+00	0	62	0	2503999488	43	4405
2026-01-19 02:48:03.12	243.36	23.52	-36.3	-37.7	17.4	0.00e+00	0	61	0	2510290944	43	4404
2026-01-19 02:48:04.13	243.20	23.39	-36.3	-37.7	17.3	0.00e+00	0	62	0	2515533824	43	4433
2026-01-19 02:48:05.14	243.04	23.26	-36.2	-37.6	17.4	0.00e+00	0	62	0	2520776704	43	4391
2026-01-19 02:48:06.15	242.89	23.14	-36.2	-37.7	17.4	0.00e+00	0	62	0	2527068160	43	4399
2026-01-19 02:48:07.16	242.74	23.01	-36.3	-37.7	17.3	0.00e+00	0	62	0	2532311040	43	4441
2026-01-19 02:48:08.17	242.58	22.89	-36.2	-37.7	17.4	0.00e+00	0	62	0	2538602496	43	4403
2026-01-19 02:48:09.17	242.44	22.76	-36.3	-37.7	17.3	0.00e+00	0	62	0	2543845376	43	4412
2026-01-19 02:48:10.18	242.29	22.64	-36.3	-37.7	17.3	0.00e+00	0	62	0	2549088256	43	4422
2026-01-19 02:48:11.19	242.14	22.51	-36.4	-37.8	17.2	0.00e+00	0	62	0	2555379712	43	4469
2026-01-19 02:48:12.20	241.99	22.39	-36.3	-37.8	17.3	0.00e+00	0	62	0	2560622592	43	4457
2026-01-19 02:48:13.21	241.84	22.27	-36.4	-37.8	17.2	0.00e+00	0	62	0	2566914048	43	4475
2026-01-19 02:48:14.22	241.70	22.14	-36.4	-37.9	17.2	0.00e+00	0	61	0	2572156928	43	4497
2026-01-19 02:48:15.23	241.56	22.02	-36.5	-37.9	17.1	0.00e+00	0	62	0	2577399808	43	4540
2026-01-19 02:48:16.24	241.41	21.90	-36.5	-38.0	17.0	0.00e+00	0	62	0	2583691264	43	4590
2026-01-19 02:48:17.25	241.27	21.78	-36.5	-38.0	17.0	0.00e+00	0	61	0	2588934144	43	4590
2026-01-19 02:48:18.26	241.13	21.66	-36.5	-38.0	17.0	0.00e+00	0	62	0	2595225600	43	4584
2026-01-19 02:48:19.27	240.99	21.53	-36.6	-38.1	16.9	0.00e+00	0	62	0	2600468480	43	4619
2026-01-19 02:48:20.28	240.86	21.41	-36.7	-38.2	16.9	0.00e+00	0	62	0	2606759936	43	4660
2026-01-19 02:48:21.29	240.72	21.29	-36.7	-38.2	16.7	0.00e+00	0	62	0	2612002816	43	4703
2026-01-19 02:48:22.30	240.58	21.17	-36.9	-38.4	16.8	0.00e+00	0	62	0	2617245696	44	4517
2026-01-19 02:48:23.31	240.45	21.05	-36.8	-38.3	16.9	0.00e+00	0	62	0	2623537152	44	4468
2026-01-19 02:48:24.32	240.31	20.94	-36.9	-38.4	16.8	0.00e+00	0	62	0	2628780032	44	4502
2026-01-19 02:48:25.33	240.18	20.82	-36.8	-38.3	16.9	0.00e+00	0	62	0	2635071488	44	4456
2026-01-19 02:48:26.34	240.05	20.70	-36.8	-38.3	16.9	0.00e+00	0	62	0	2640314368	44	4447
2026-01-19 02:48:27.35	239.92	20.58	-36.8	-38.4	16.8	0.00e+00	0	62	0	2645557248	44	4500
2026-01-19 02:48:28.36	239.79	20.46	-36.8	-38.3	16.9	0.00e+00	0	62	0	2651848704	44	4483
2026-01-19 02:48:29.37	239.66	20.35	-36.8	-38.3	16.8	0.00e+00	0	62	0	2657091584	44	4490
2026-01-19 02:48:30.38	239.53	20.23	-36.8	-38.3	16.8	0.00e+00	0	62	0	2663383040	44	4481
2026-01-19 02:48:31.39	239.41	20.11	-36.8	-38.4	16.8	0.00e+00	0	62	0	2668625920	44	4503
2026-01-19 02:48:32.40	239.28	20.00	-36.9	-38.4	16.7	0.00e+00	0	62	0	2673868800	44	4544
2026-01-19 02:48:33.41	239.16	19.88	-36.9	-38.5	16.7	0.00e+00	0	62	0	2680160256	44	4548
2026-01-19 02:48:34.42	239.03	19.77	-36.9	-38.5	16.7	0.00e+00	0	62	0	2685403136	44	4552
2026-01-19 02:48:35.43	238.91	19.65	-37.0	-38.5	16.6	0.00e+00	0	62	0	2691694592	44	4595
2026-01-19 02:48:36.44	238.79	19.54	-37.0	-38.6	16.5	0.00e+00	0	62	0	2696937472	44	4633
2026-01-19 02:48:37.45	238.67	19.42	-37.0	-38.6	16.6	0.00e+00	0	61	0	2703228928	44	4623
2026-01-19 02:48:38.45	238.55	19.31	-37.1	-38.6	16.5	0.00e+00	0	61	0	2708471808	44	4637
2026-01-19 02:48:39.46	238.43	19.20	-37.1	-38.7	16.4	0.00e+00	0	62	0	2714763264	44	4697
2026-01-19 02:48:40.47	238.31	19.09	-37.1	-38.7	16.4	0.00e+00	0	62	0	2720006144	44	4684
2026-01-19 02:48:41.49	238.19	18.97	-37.1	-38.7	16.4	0.00e+00	0	62	0	2725249024	44	4673
2026-01-19 02:48:42.49	238.08	18.86	-37.1	-38.7	16.4	0.00e+00	0	62	0	2731540480	44	4675
2026-01-19 02:48:43.50	237.96	18.75	-37.1	-38.7	16.4	0.00e+00	0	62	0	2736783360	44	4682
2026-01-19 02:48:44.51	237.85	18.64	-37.2	-38.7	16.4	0.00e+00	0	62	0	2743074816	44	4698
2026-01-19 02:48:45.53	237.73	18.53	-37.1	-38.6	16.5	0.00e+00	0	62	0	2748317696	44	4641
2026-01-19 02:48:46.54	237.62	18.42	-37.0	-38.6	16.5	0.00e+00	0	62	0	2753560576	44	4610
2026-01-19 02:48:47.55	237.51	18.31	-37.0	-38.5	16.5	0.00e+00	0	62	0	2759852032	44	4593
2026-01-19 02:48:48.56	237.40	18.20	-37.0	-38.6	16.5	0.00e+00	0	62	0	2765094912	44	4611
2026-01-19 02:48:49.57	237.29	18.09	-37.1	-38.7	16.4	0.00e+00	0	62	0	2771386368	44	4662
2026-01-19 02:48:50.58	237.18	17.98	-37.2	-38.8	16.3	0.00e+00	0	62	0	2776629248	44	4714
2026-01-19 02:48:51.59	237.07	17.87	-37.2	-38.7	16.3	0.00e+00	0	62	0	2781872128	44	4703
2026-01-19 02:48:52.59	236.96	17.76	-37.2	-38.8	16.3	0.00e+00	0	62	0	2788163584	44	4712
2026-01-19 02:48:53.60	236.85	17.65	-37.2	-38.8	16.3	0.00e+00	0	62	0	2793406464	45	4485
2026-01-19 02:48:54.61	236.75	17.55	-37.3	-39.0	16.1	0.00e+00	0	62	0	2799697920	45	4554
2026-01-19 02:48:55.62	236.64	17.44	-37.4	-39.0	16.0	0.00e+00	0	62	0	2804940800	45	4579
2026-01-19 02:48:56.63	236.54	17.33	-37.5	-39.1	15.9	0.00e+00	0	62	0	2811232256	45	4637
2026-01-19 02:48:57.64	236.43	17.23	-37.5	-39.1	15.9	0.00e+00	0	62	0	2816475136	45	4644
2026-01-19 02:48:58.65	236.33	17.12	-37.5	-39.2	15.8	0.00e+00	0	62	0	2822766592	45	4685
2026-01-19 02:48:59.66	236.23	17.01	-37.6	-39.3	15.7	0.00e+00	0	62	0	2828009472	45	4743
2026-01-19 02:49:00.68	236.12	16.91	-37.6	-39.3	15.7	0.00e+00	0	62	0	2833252352	45	4737
2026-01-19 02:49:01.69	236.02	16.80	-37.6	-39.3	15.7	0.00e+00	0	62	0	2839543808	45	4752
2026-01-19 02:49:02.69	235.92	16.70	-37.6	-39.3	15.7	0.00e+00	0	62	0	2844786688	45	4753
2026-01-19 02:49:03.71	235.82	16.59	-37.6	-39.3	15.7	0.00e+00	0	62	0	2851078144	45	4754
2026-01-19 02:49:04.72	235.72	16.49	-37.7	-39.4	15.7	0.00e+00	0	62	0	2856321024	45	4769
2026-01-19 02:49:05.73	235.62	16.39	-37.7	-39.4	15.6	0.00e+00	0	62	0	2861563904	45	4795
2026-01-19 02:49:06.74	235.52	16.28	-37.7	-39.4	15.6	0.00e+00	0	62	0	2867855360	46	4524
2026-01-19 02:49:07.75	235.43	16.18	-37.7	-39.4	15.6	0.00e+00	0	62	0	2873098240	46	4529
2026-01-19 02:49:08.76	235.33	16.08	-37.7	-39.4	15.6	0.00e+00	0	62	0	2879389696	46	4537
2026-01-19 02:49:09.77	235.24	15.98	-37.7	-39.4	15.6	0.00e+00	0	62	0	2884632576	46	4525
2026-01-19 02:49:10.78	235.14	15.87	-37.7	-39.4	15.6	0.00e+00	0	62	0	2889875456	46	4497
2026-01-19 02:49:11.79	235.05	15.77	-37.8	-39.5	15.5	0.00e+00	0	62	0	2896166912	46	4558
2026-01-19 02:49:12.80	234.95	15.67	-37.8	-39.6	15.4	0.00e+00	0	62	0	2901409792	46	4600
2026-01-19 02:49:13.80	234.86	15.57	-37.8	-39.5	15.5	0.00e+00	0	62	0	2907701248	46	4577
2026-01-19 02:49:14.81	234.77	15.47	-37.8	-39.6	15.4	0.00e+00	0	62	0	2912944128	46	4622
2026-01-19 02:49:15.82	234.68	15.37	-37.9	-39.6	15.4	0.00e+00	0	62	0	2918187008	46	4637
2026-01-19 02:49:16.83	234.58	15.27	-38.0	-39.8	15.2	0.00e+00	0	62	0	2924478464	46	4710
2026-01-19 02:49:17.84	234.49	15.17	-38.0	-39.7	15.3	0.00e+00	0	62	0	2929721344	46	4695
2026-01-19 02:49:18.85	234.40	15.07	-37.9	-39.7	15.3	0.00e+00	0	62	0	2936012800	46	4664
2026-01-19 02:49:19.86	234.31	14.97	-38.0	-39.8	15.2	0.00e+00	0	62	0	2941255680	46	4713
2026-01-19 02:49:20.87	234.23	14.88	-38.0	-39.9	15.1	0.00e+00	0	62	0	2947547136	46	4769
2026-01-19 02:49:21.88	234.14	14.78	-38.0	-39.9	15.1	0.00e+00	0	62	0	2952790016	46	4767
2026-01-19 02:49:22.89	234.05	14.68	-38.1	-39.9	15.0	0.00e+00	0	62	0	2958032896	46	4794
2026-01-19 02:49:23.90	233.96	14.58	-38.2	-40.1	14.9	0.00e+00	0	62	0	2964324352	46	4887
2026-01-19 02:49:24.91	233.88	14.49	-38.2	-40.0	14.9	0.00e+00	0	62	0	2969567232	46	4850
2026-01-19 02:49:25.92	233.79	14.39	-38.1	-40.0	15.0	0.00e+00	0	62	0	2975858688	47	4551
2026-01-19 02:49:26.93	233.70	14.29	-38.2	-40.1	14.8	0.00e+00	0	62	0	2981101568	47	4625
2026-01-19 02:49:27.94	233.62	14.20	-38.2	-40.1	14.8	0.00e+00	0	62	0	2986344448	47	4635
2026-01-19 02:49:28.95	233.54	14.10	-38.2	-40.1	14.8	0.00e+00	0	62	0	2992635904	47	4612
2026-01-19 02:49:29.96	233.45	14.01	-38.3	-40.2	14.8	1.10e-06	0	62	0	2997878784	47	4652
2026-01-19 02:49:30.97	233.37	13.91	-38.2	-40.2	14.8	1.10e-06	0	62	0	3004170240	47	4652
2026-01-19 02:49:31.98	233.29	13.81	-38.3	-40.2	14.7	0.00e+00	0	62	0	3009413120	47	4665
2026-01-19 02:49:32.99	233.20	13.72	-38.3	-40.2	14.7	0.00e+00	0	62	0	3014656000	47	4676
2026-01-19 02:49:34.00	233.12	13.63	-38.3	-40.3	14.6	0.00e+00	0	62	0	3020947456	47	4708
2026-01-19 02:49:35.01	233.04	13.53	-38.3	-40.2	14.7	0.00e+00	0	62	0	3026190336	47	4660
2026-01-19 02:49:36.02	232.96	13.44	-38.3	-40.2	14.7	0.00e+00	0	62	0	3032481792	47	4688
2026-01-19 02:49:37.03	232.88	13.34	-38.4	-40.3	14.6	2.20e-06	0	62	0	3037724672	47	4740
2026-01-19 02:49:38.04	232.80	13.25	-38.3	-40.2	14.6	0.00e+00	0	62	0	3044016128	47	4686
2026-01-19 02:49:39.05	232.72	13.16	-38.2	-40.1	14.7	0.00e+00	0	62	0	3049259008	47	4641
2026-01-19 02:49:40.06	232.65	13.07	-38.3	-40.2	14.7	0.00e+00	0	62	0	3055550464	47	4680
2026-01-19 02:49:41.06	232.57	12.98	-38.4	-40.3	14.6	0.00e+00	0	62	0	3060793344	47	4719
2026-01-19 02:49:42.07	232.49	12.88	-38.3	-40.2	14.6	1.10e-06	0	62	0	3066036224	47	4688
2026-01-19 02:49:43.08	232.41	12.79	-38.3	-40.3	14.6	1.10e-06	0	62	0	3072327680	47	4708
2026-01-19 02:49:44.09	232.34	12.70	-38.4	-40.3	14.5	1.10e-06	0	62	0	3077570560	47	4747
2026-01-19 02:49:45.10	232.26	12.61	-38.3	-40.3	14.6	1.10e-06	0	62	0	3083862016	47	4712
2026-01-19 02:49:46.12	232.19	12.52	-38.3	-40.3	14.6	0.00e+00	0	62	0	3089104896	47	4710
2026-01-19 02:49:47.13	232.11	12.43	-38.5	-40.4	14.4	5.70e-06	0	62	0	3094347776	47	4809
2026-01-19 02:49:48.14	232.04	12.34	-38.5	-40.4	14.4	1.10e-06	0	62	0	3100639232	47	4796
2026-01-19 02:49:49.15	231.96	12.25	-38.5	-40.4	14.4	3.40e-06	0	62	0	3105882112	47	4811
2026-01-19 02:49:50.16	231.89	12.16	-38.6	-40.6	14.2	3.40e-06	0	62	0	3112173568	47	4897
2026-01-19 02:49:51.17	231.82	12.07	-38.5	-40.4	14.3	2.20e-06	0	62	0	3117416448	47	4806
2026-01-19 02:49:52.18	231.74	11.98	-38.6	-40.6	14.2	4.50e-06	0	62	0	3122659328	47	4877
2026-01-19 02:49:53.19	231.67	11.89	-38.6	-40.7	14.1	3.40e-06	0	62	0	3128950784	47	4928
2026-01-19 02:49:54.20	231.60	11.80	-38.6	-40.6	14.2	6.80e-06	0	62	0	3134193664	47	4889
2026-01-19 02:49:55.21	231.53	11.71	-38.6	-40.7	14.1	2.20e-06	0	62	0	3140485120	47	4955
2026-01-19 02:49:56.21	231.46	11.63	-38.9	-40.9	13.9	3.40e-06	0	62	0	3145728000	48	4809
2026-01-19 02:49:57.22	231.39	11.54	-38.9	-40.9	13.9	4.50e-06	0	62	0	3152019456	48	4805
2026-01-19 02:49:58.23	231.32	11.45	-38.9	-41.1	13.8	9.10e-06	0	62	0	3157262336	48	4872
