passes_logs/2026/01/19/R2.0S_Moscow/R2.0S_Moscow__20260119_193908_FENGYUN_3G_rec.log

#Pass ID: 20260119_193908_FENGYUN 3G
#Satellite: FENGYUN 3G
#Configuration: FENGYUN 3G
#almurnet v.1.7.20251203
#Start time: 2026-01-19 19:39:08

#Version: 2.2.20231116
#Station: R2.0S_Moscow
#Location: 37.707566 lon 55.798166 lat
#TLE: 1 56232U 23055A   26018.90814638  .00029420  00000+0  45610-3 0  9994
#TLE: 2 56232  49.9939  35.7665 0004119  46.9747 313.1565 15.53706339156803

#Time	Az	El	Level	Level2	SNR	BER	BlckErr	Temp	State	Recorded	gain1	gain2
2026-01-19 19:39:08.14	219.13	1.99	-44.0	-62.0	3.8	8.46e-01	0	52	0	0	59	28788
2026-01-19 19:39:09.14	219.04	2.05	-44.0	-62.0	3.8	8.44e-01	0	52	104	0	59	28841
2026-01-19 19:39:10.15	218.94	2.11	-44.0	-62.0	3.8	8.46e-01	0	52	104	0	59	28916
2026-01-19 19:39:11.16	218.84	2.17	-44.0	-62.0	3.8	8.47e-01	0	53	104	0	59	28829
2026-01-19 19:39:12.17	218.75	2.23	-44.0	-62.0	3.8	8.47e-01	0	52	104	0	59	28859
2026-01-19 19:39:13.18	218.65	2.29	-44.0	-62.0	3.8	8.46e-01	0	52	104	0	59	28784
2026-01-19 19:39:14.19	218.55	2.36	-44.0	-62.0	3.8	8.47e-01	0	53	104	0	59	28864
2026-01-19 19:39:15.21	218.45	2.42	-44.0	-62.0	3.8	8.47e-01	0	52	104	0	59	28824
2026-01-19 19:39:16.22	218.35	2.48	-44.0	-62.0	3.8	8.45e-01	0	53	104	0	59	28884
2026-01-19 19:39:17.23	218.25	2.54	-44.0	-62.0	3.8	8.45e-01	0	53	104	0	59	28764
2026-01-19 19:39:18.24	218.15	2.61	-44.0	-62.0	3.8	8.45e-01	0	53	104	0	59	28766
2026-01-19 19:39:19.25	218.04	2.67	-44.0	-62.0	3.8	8.46e-01	0	53	104	0	59	28813
2026-01-19 19:39:20.26	217.94	2.73	-44.0	-62.0	3.8	8.46e-01	0	53	104	0	59	28835
2026-01-19 19:39:21.27	217.84	2.79	-44.0	-62.0	3.8	8.46e-01	0	53	104	0	59	28785
2026-01-19 19:39:22.28	217.73	2.86	-44.0	-62.0	3.8	8.46e-01	0	53	104	0	59	28839
2026-01-19 19:39:23.29	217.63	2.92	-44.0	-62.0	3.8	8.46e-01	0	53	104	0	59	28789
2026-01-19 19:39:24.30	217.52	2.98	-44.0	-62.0	3.8	8.46e-01	0	53	104	0	59	28805
2026-01-19 19:39:25.31	217.42	3.05	-44.0	-62.0	3.8	8.46e-01	0	53	104	0	59	28726
2026-01-19 19:39:26.32	217.31	3.11	-44.0	-62.0	3.8	8.46e-01	0	53	104	0	59	28765
2026-01-19 19:39:27.33	217.20	3.18	-44.0	-62.0	3.8	8.47e-01	0	53	104	0	59	28801
2026-01-19 19:39:28.34	217.09	3.24	-44.0	-62.0	3.8	8.47e-01	0	54	104	0	59	28733
2026-01-19 19:39:29.35	216.98	3.30	-44.0	-62.0	3.8	8.46e-01	0	54	104	0	59	28745
2026-01-19 19:39:30.36	216.88	3.37	-44.0	-62.0	3.8	8.46e-01	0	54	104	0	59	28730
2026-01-19 19:39:31.37	216.76	3.43	-44.0	-62.0	3.8	8.46e-01	0	54	104	0	59	28727
2026-01-19 19:39:32.38	216.65	3.50	-44.0	-62.0	3.8	8.46e-01	0	54	104	0	59	28789
2026-01-19 19:39:33.39	216.54	3.56	-44.0	-62.0	3.8	8.46e-01	0	54	104	0	59	28771
2026-01-19 19:39:34.40	216.43	3.63	-44.0	-62.0	3.8	8.45e-01	0	54	104	0	59	28819
2026-01-19 19:39:35.41	216.32	3.69	-44.0	-62.0	3.8	8.45e-01	0	54	104	0	59	28714
2026-01-19 19:39:36.42	216.20	3.76	-44.0	-62.0	3.8	8.45e-01	0	54	104	0	59	28749
2026-01-19 19:39:37.43	216.09	3.83	-44.0	-62.0	3.8	8.46e-01	0	54	104	0	59	28755
2026-01-19 19:39:38.44	215.97	3.89	-44.0	-61.9	3.8	8.46e-01	0	54	104	0	59	28671
2026-01-19 19:39:39.45	215.86	3.96	-44.0	-62.0	3.8	8.45e-01	0	54	104	0	59	28715
2026-01-19 19:39:40.46	215.74	4.02	-44.0	-62.0	3.8	8.46e-01	0	54	104	0	59	28716
2026-01-19 19:39:41.47	215.62	4.09	-44.0	-62.0	3.8	8.46e-01	0	54	104	0	59	28725
2026-01-19 19:39:42.48	215.50	4.16	-44.0	-62.0	3.8	8.46e-01	0	54	104	0	59	28749
2026-01-19 19:39:43.49	215.38	4.22	-44.0	-62.0	3.8	8.47e-01	0	54	104	0	59	28779
2026-01-19 19:39:44.50	215.26	4.29	-44.0	-62.0	3.8	8.47e-01	0	54	104	0	59	28768
2026-01-19 19:39:45.51	215.14	4.36	-44.0	-61.9	3.8	8.47e-01	0	55	104	0	59	28679
2026-01-19 19:39:46.52	215.02	4.42	-44.0	-61.9	3.8	8.45e-01	0	55	104	0	59	28514
2026-01-19 19:39:47.53	214.90	4.49	-44.0	-62.0	3.8	8.46e-01	0	55	104	0	59	28706
2026-01-19 19:39:48.54	214.78	4.56	-44.0	-61.9	3.8	8.46e-01	0	55	104	0	59	28674
2026-01-19 19:39:49.55	214.65	4.63	-44.0	-61.9	3.8	8.47e-01	0	55	104	0	59	28629
2026-01-19 19:39:50.56	214.53	4.69	-44.0	-61.9	3.8	8.47e-01	0	55	104	0	59	28650
2026-01-19 19:39:51.57	214.40	4.76	-44.0	-61.9	3.8	8.47e-01	0	55	104	0	59	28557
2026-01-19 19:39:52.58	214.28	4.83	-44.0	-61.9	3.8	8.46e-01	0	55	104	0	59	28651
2026-01-19 19:39:53.59	214.15	4.90	-44.0	-61.9	3.8	8.47e-01	0	55	104	0	59	28635
2026-01-19 19:39:54.60	214.02	4.97	-44.0	-62.0	3.8	8.47e-01	0	55	104	0	59	28737
2026-01-19 19:39:55.61	213.89	5.03	-44.0	-61.9	3.8	8.46e-01	0	55	104	0	59	28614
2026-01-19 19:39:56.62	213.76	5.10	-44.0	-62.0	3.8	8.45e-01	0	55	104	0	59	28759
2026-01-19 19:39:57.63	213.63	5.17	-44.0	-62.0	3.8	8.45e-01	0	55	104	0	59	28698
2026-01-19 19:39:58.64	213.50	5.24	-44.0	-61.9	3.8	8.47e-01	0	55	104	0	59	28563
2026-01-19 19:39:59.65	213.37	5.31	-44.0	-62.0	3.8	8.46e-01	0	55	104	0	59	28691
2026-01-19 19:40:00.66	213.23	5.38	-44.0	-62.0	3.8	8.46e-01	0	56	104	0	59	28757
2026-01-19 19:40:01.67	213.10	5.45	-44.0	-61.8	3.8	8.46e-01	0	56	104	0	59	28305
2026-01-19 19:40:02.69	212.96	5.52	-44.0	-61.5	3.8	8.46e-01	0	55	104	0	59	27377
2026-01-19 19:40:03.70	212.82	5.59	-44.0	-61.2	3.8	8.46e-01	0	55	104	0	59	26425
2026-01-19 19:40:04.71	212.69	5.66	-43.9	-60.7	3.8	8.46e-01	0	56	104	0	59	24967
2026-01-19 19:40:05.72	212.55	5.73	-43.9	-60.6	3.8	8.46e-01	0	56	104	0	59	24514
2026-01-19 19:40:06.73	212.41	5.80	-43.9	-60.9	3.8	8.46e-01	0	56	104	0	59	25372
2026-01-19 19:40:07.74	212.27	5.87	-44.0	-61.0	3.8	8.46e-01	0	56	104	0	59	25836
2026-01-19 19:40:08.75	212.13	5.94	-44.0	-61.2	3.8	8.46e-01	0	56	104	0	59	26263
2026-01-19 19:40:09.76	211.99	6.01	-44.0	-61.4	3.8	8.45e-01	0	56	104	0	59	27036
2026-01-19 19:40:10.77	211.84	6.08	-44.0	-61.8	3.8	8.45e-01	0	56	104	0	59	28313
2026-01-19 19:40:11.78	211.70	6.15	-43.9	-61.2	3.8	8.46e-01	0	56	104	0	59	26217
2026-01-19 19:40:12.79	211.55	6.23	-43.9	-60.6	3.8	8.45e-01	0	56	104	0	59	24576
2026-01-19 19:40:13.80	211.41	6.30	-43.9	-60.5	3.8	8.45e-01	0	56	104	0	59	24282
2026-01-19 19:40:14.81	211.26	6.37	-43.9	-59.9	3.8	8.45e-01	0	56	104	0	59	22651
2026-01-19 19:40:15.82	211.11	6.44	-43.9	-59.2	4.0	8.46e-01	0	56	0	0	59	20987
2026-01-19 19:40:16.83	210.96	6.51	-43.9	-58.8	4.1	8.43e-01	0	56	0	0	59	19893
2026-01-19 19:40:17.84	210.81	6.59	-43.9	-58.1	4.3	8.43e-01	0	56	0	0	59	18477
2026-01-19 19:40:18.85	210.66	6.66	-43.9	-58.2	4.3	8.36e-01	0	56	0	0	59	18523
2026-01-19 19:40:19.86	210.51	6.73	-43.9	-57.9	4.3	8.35e-01	0	56	0	0	59	18018
2026-01-19 19:40:20.87	210.36	6.80	-43.8	-57.6	4.4	8.35e-01	0	56	0	0	59	17410
2026-01-19 19:40:21.88	210.20	6.88	-43.8	-57.0	4.6	8.31e-01	0	57	0	0	59	16312
2026-01-19 19:40:22.89	210.05	6.95	-43.7	-55.4	5.5	7.97e-01	0	56	0	0	59	13556
2026-01-19 19:40:23.90	209.89	7.02	-43.5	-53.8	6.8	7.97e-01	0	56	0	524288	59	11252
2026-01-19 19:40:24.91	209.73	7.10	-43.4	-52.6	8.0	4.59e-01	0	57	0	2097152	58	10325
2026-01-19 19:40:25.92	209.57	7.17	-43.2	-51.6	9.1	1.11e-01	0	57	0	3145728	58	9253
2026-01-19 19:40:26.93	209.41	7.24	-43.1	-51.3	9.4	2.83e-02	0	56	0	4194304	58	8913
2026-01-19 19:40:27.94	209.25	7.32	-43.2	-51.3	9.4	2.83e-02	0	57	0	5242880	58	8939
2026-01-19 19:40:28.95	209.09	7.39	-43.3	-52.3	8.5	2.01e-02	0	57	0	6291456	58	9951
2026-01-19 19:40:29.96	208.93	7.47	-43.6	-54.3	6.6	6.84e-02	0	57	0	7340032	58	12604
2026-01-19 19:40:30.97	208.76	7.54	-43.9	-57.9	4.4	6.84e-02	0	57	0	7864320	58	19136
2026-01-19 19:40:31.98	208.60	7.61	-43.9	-60.6	3.8	5.75e-01	0	57	104	7864320	58	25935
2026-01-19 19:40:32.99	208.43	7.69	-43.7	-55.2	5.6	8.42e-01	0	57	0	7864320	58	13936
2026-01-19 19:40:34.00	208.26	7.76	-43.1	-50.9	9.8	8.42e-01	0	57	0	8912896	58	8472
2026-01-19 19:40:35.01	208.09	7.84	-42.3	-48.2	12.7	2.51e-01	0	57	0	9961472	56	6970
2026-01-19 19:40:36.02	207.92	7.91	-41.6	-46.5	14.2	7.91e-04	0	57	0	11010048	55	6075
2026-01-19 19:40:37.03	207.75	7.99	-41.2	-45.7	15.1	7.91e-04	0	57	0	12058624	54	5885
2026-01-19 19:40:38.04	207.58	8.06	-41.3	-45.8	15.0	0.00e+00	0	57	0	13107200	54	5930
2026-01-19 19:40:39.05	207.40	8.14	-42.3	-48.4	12.2	0.00e+00	0	57	0	14155776	55	7606
2026-01-19 19:40:40.06	207.23	8.22	-43.0	-50.2	10.5	9.10e-04	0	57	0	15728640	56	8827
2026-01-19 19:40:41.07	207.05	8.29	-43.3	-52.5	8.5	9.10e-04	0	57	0	16777216	57	10838
2026-01-19 19:40:42.08	206.87	8.37	-42.4	-48.1	13.1	8.34e-03	0	57	0	17825792	55	7321
2026-01-19 19:40:43.09	206.69	8.44	-43.6	-58.3	4.3	5.63e-02	0	57	0	18350080	57	21226
2026-01-19 19:40:44.10	206.51	8.52	-41.4	-45.8	15.0	5.63e-02	0	57	0	18350080	54	5933
2026-01-19 19:40:45.11	206.33	8.60	-41.2	-45.6	15.3	3.77e-01	0	57	0	19398656	54	5792
2026-01-19 19:40:46.12	206.15	8.67	-41.4	-45.8	15.1	0.00e+00	0	57	0	20971520	54	5958
2026-01-19 19:40:47.13	205.96	8.75	-41.3	-45.6	15.3	0.00e+00	0	57	0	22020096	54	5853
2026-01-19 19:40:48.14	205.78	8.83	-41.2	-45.4	15.5	0.00e+00	0	57	0	23068672	54	5722
2026-01-19 19:40:49.15	205.59	8.91	-41.2	-45.5	15.5	1.10e-06	0	57	0	24117248	54	5733
2026-01-19 19:40:50.16	205.40	8.98	-41.2	-45.5	15.5	0.00e+00	0	57	0	25165824	54	5728
2026-01-19 19:40:51.17	205.21	9.06	-41.1	-45.2	15.8	0.00e+00	0	57	0	26214400	54	5546
2026-01-19 19:40:52.19	205.02	9.14	-41.1	-45.2	15.8	0.00e+00	0	57	0	27787264	54	5538
2026-01-19 19:40:53.19	204.83	9.21	-41.0	-45.0	16.1	0.00e+00	0	57	0	28835840	54	5433
2026-01-19 19:40:54.19	204.63	9.29	-40.9	-44.7	16.3	0.00e+00	0	58	0	29884416	53	5572
2026-01-19 19:40:55.20	204.44	9.37	-40.8	-44.6	16.5	0.00e+00	0	58	0	30932992	53	5487
2026-01-19 19:40:56.21	204.24	9.45	-40.6	-44.2	16.9	0.00e+00	0	57	0	31981568	53	5233
2026-01-19 19:40:57.22	204.04	9.53	-40.6	-44.1	17.0	0.00e+00	0	58	0	33030144	53	5194
2026-01-19 19:40:58.23	203.84	9.60	-40.6	-44.2	16.9	0.00e+00	0	58	0	34603008	53	5262
2026-01-19 19:40:59.24	203.64	9.68	-40.6	-44.1	17.0	0.00e+00	0	58	0	35651584	53	5187
2026-01-19 19:41:00.25	203.44	9.76	-40.5	-44.0	17.1	0.00e+00	0	58	0	36700160	53	5135
2026-01-19 19:41:01.26	203.23	9.84	-40.6	-44.2	17.0	0.00e+00	0	58	0	37748736	53	5234
2026-01-19 19:41:02.27	203.03	9.92	-40.7	-44.3	16.9	0.00e+00	0	58	0	38797312	53	5289
2026-01-19 19:41:03.28	202.82	10.00	-40.6	-44.1	17.0	0.00e+00	0	58	0	39845888	53	5216
2026-01-19 19:41:04.29	202.61	10.08	-40.7	-44.3	16.8	0.00e+00	0	58	0	41418752	53	5332
2026-01-19 19:41:05.30	202.40	10.15	-40.7	-44.4	16.8	0.00e+00	0	58	0	42467328	53	5353
2026-01-19 19:41:06.31	202.19	10.23	-40.8	-44.4	16.8	0.00e+00	0	58	0	43515904	53	5356
2026-01-19 19:41:07.32	201.97	10.31	-40.7	-44.3	16.9	0.00e+00	0	58	0	44564480	53	5281
2026-01-19 19:41:08.33	201.76	10.39	-40.5	-43.9	17.3	0.00e+00	0	58	0	45613056	53	5043
2026-01-19 19:41:09.34	201.54	10.47	-40.3	-43.6	17.6	0.00e+00	0	58	0	46661632	52	5189
2026-01-19 19:41:10.35	201.32	10.55	-40.5	-43.8	17.4	0.00e+00	0	58	0	48234496	52	5333
2026-01-19 19:41:11.36	201.10	10.63	-40.5	-43.9	17.4	0.00e+00	0	58	0	49283072	52	5372
2026-01-19 19:41:12.38	200.88	10.71	-40.6	-44.1	17.2	0.00e+00	0	58	0	50331648	52	5515
2026-01-19 19:41:13.39	200.66	10.79	-40.6	-44.1	17.2	0.00e+00	0	58	0	51380224	52	5470
2026-01-19 19:41:14.39	200.43	10.87	-40.7	-44.2	17.0	0.00e+00	0	58	0	52428800	52	5590
2026-01-19 19:41:15.40	200.21	10.95	-40.6	-44.0	17.2	0.00e+00	0	58	0	53477376	52	5454
2026-01-19 19:41:16.41	199.98	11.03	-40.6	-44.0	17.3	0.00e+00	0	58	0	55050240	52	5438
2026-01-19 19:41:17.42	199.75	11.11	-40.6	-44.0	17.3	0.00e+00	0	58	0	56098816	52	5425
2026-01-19 19:41:18.43	199.52	11.19	-40.6	-44.1	17.3	0.00e+00	0	58	0	57147392	52	5479
2026-01-19 19:41:19.44	199.29	11.27	-40.5	-43.8	17.5	0.00e+00	0	58	0	58195968	52	5293
2026-01-19 19:41:20.45	199.05	11.35	-40.3	-43.5	17.8	0.00e+00	0	58	0	59244544	52	5133
2026-01-19 19:41:21.46	198.82	11.43	-40.3	-43.5	17.8	0.00e+00	0	58	0	60293120	52	5138
2026-01-19 19:41:22.47	198.58	11.51	-40.3	-43.4	17.9	0.00e+00	0	58	0	61865984	52	5100
2026-01-19 19:41:23.48	198.34	11.59	-40.1	-43.2	18.2	0.00e+00	0	58	0	62914560	52	4950
2026-01-19 19:41:24.49	198.10	11.67	-40.2	-43.3	18.1	0.00e+00	0	58	0	63963136	52	4999
2026-01-19 19:41:25.50	197.85	11.75	-40.3	-43.4	17.9	0.00e+00	0	58	0	65011712	52	5099
2026-01-19 19:41:26.51	197.61	11.82	-40.3	-43.5	17.9	0.00e+00	0	58	0	66060288	52	5105
2026-01-19 19:41:27.52	197.36	11.90	-40.4	-43.6	17.8	0.00e+00	0	58	0	67108864	52	5164
2026-01-19 19:41:28.53	197.11	11.98	-40.4	-43.7	17.7	0.00e+00	0	59	0	68681728	52	5240
2026-01-19 19:41:29.54	196.86	12.06	-40.5	-43.8	17.6	0.00e+00	0	58	0	69730304	52	5286
2026-01-19 19:41:30.55	196.61	12.14	-40.4	-43.6	17.8	0.00e+00	0	59	0	70778880	52	5199
2026-01-19 19:41:31.56	196.35	12.22	-40.2	-43.3	18.1	0.00e+00	0	58	0	71827456	52	5033
2026-01-19 19:41:32.57	196.10	12.30	-40.2	-43.2	18.2	0.00e+00	0	58	0	72876032	52	4963
2026-01-19 19:41:33.58	195.84	12.38	-40.1	-43.1	18.4	0.00e+00	0	58	0	73924608	52	4880
2026-01-19 19:41:34.59	195.58	12.46	-40.0	-42.8	18.6	0.00e+00	0	58	0	75497472	51	5041
2026-01-19 19:41:35.60	195.32	12.54	-40.0	-42.9	18.7	0.00e+00	0	59	0	76546048	51	5043
2026-01-19 19:41:36.61	195.06	12.62	-40.1	-43.0	18.5	0.00e+00	0	58	0	77594624	51	5149
2026-01-19 19:41:37.62	194.79	12.70	-40.2	-43.2	18.4	0.00e+00	0	59	0	78643200	51	5246
2026-01-19 19:41:38.63	194.52	12.78	-40.3	-43.4	18.2	0.00e+00	0	59	0	79691776	51	5344
2026-01-19 19:41:39.64	194.26	12.86	-40.3	-43.3	18.2	0.00e+00	0	59	0	80740352	51	5305
2026-01-19 19:41:40.65	193.98	12.94	-40.4	-43.5	18.0	0.00e+00	0	59	0	82313216	51	5446
2026-01-19 19:41:41.66	193.71	13.02	-40.4	-43.5	18.0	0.00e+00	0	59	0	83361792	51	5445
2026-01-19 19:41:42.67	193.44	13.09	-40.2	-43.2	18.3	0.00e+00	0	58	0	84410368	51	5239
2026-01-19 19:41:43.68	193.16	13.17	-40.0	-42.9	18.6	0.00e+00	0	59	0	85458944	51	5066
2026-01-19 19:41:44.69	192.88	13.25	-40.0	-42.9	18.7	0.00e+00	0	59	0	86507520	51	5042
2026-01-19 19:41:45.70	192.60	13.33	-39.8	-42.6	18.9	0.00e+00	0	59	0	87556096	51	4925
2026-01-19 19:41:46.71	192.32	13.41	-39.7	-42.5	19.1	0.00e+00	0	59	0	89128960	51	4822
2026-01-19 19:41:47.72	192.04	13.48	-39.8	-42.6	18.9	0.00e+00	0	59	0	90177536	51	4919
2026-01-19 19:41:48.73	191.75	13.56	-39.8	-42.6	19.0	0.00e+00	0	59	0	91226112	51	4919
2026-01-19 19:41:49.74	191.46	13.64	-39.7	-42.5	19.0	0.00e+00	0	59	0	92274688	51	4853
2026-01-19 19:41:50.75	191.17	13.72	-39.7	-42.5	19.1	0.00e+00	0	59	0	93323264	51	4851
2026-01-19 19:41:51.76	190.88	13.79	-39.7	-42.4	19.1	0.00e+00	0	59	0	94371840	51	4804
2026-01-19 19:41:52.77	190.59	13.87	-39.8	-42.5	19.1	0.00e+00	0	59	0	95944704	51	4853
2026-01-19 19:41:53.77	190.29	13.95	-39.9	-42.7	18.9	0.00e+00	0	59	0	96993280	51	4961
2026-01-19 19:41:54.79	189.99	14.02	-40.0	-42.9	18.7	0.00e+00	0	59	0	98041856	51	5071
2026-01-19 19:41:55.79	189.70	14.10	-40.1	-43.0	18.6	0.00e+00	0	59	0	99090432	51	5103
2026-01-19 19:41:56.80	189.39	14.17	-40.0	-42.9	18.7	0.00e+00	0	59	0	100139008	51	5085
2026-01-19 19:41:57.81	189.09	14.25	-40.2	-43.2	18.4	0.00e+00	0	59	0	101187584	51	5238
2026-01-19 19:41:58.82	188.78	14.32	-40.1	-43.1	18.5	0.00e+00	0	59	0	102760448	51	5197
2026-01-19 19:41:59.83	188.48	14.40	-40.1	-43.1	18.5	0.00e+00	0	59	0	103809024	51	5191
2026-01-19 19:42:00.84	188.17	14.47	-40.1	-43.0	18.6	0.00e+00	0	59	0	104857600	51	5152
2026-01-19 19:42:01.85	187.86	14.55	-40.1	-43.0	18.6	0.00e+00	0	59	0	105906176	51	5138
2026-01-19 19:42:02.86	187.54	14.62	-39.9	-42.8	18.8	0.00e+00	0	59	0	106954752	51	4985
2026-01-19 19:42:03.87	187.23	14.69	-39.8	-42.5	19.1	0.00e+00	0	59	0	108003328	51	4853
2026-01-19 19:42:04.88	186.91	14.77	-39.7	-42.5	19.1	0.00e+00	0	59	0	109576192	51	4838
2026-01-19 19:42:05.89	186.59	14.84	-39.6	-42.3	19.2	0.00e+00	0	59	0	110624768	51	4759
2026-01-19 19:42:06.90	186.27	14.91	-39.3	-41.9	19.7	0.00e+00	0	59	0	111673344	50	4784
2026-01-19 19:42:07.91	185.94	14.98	-39.3	-41.8	19.8	0.00e+00	0	59	0	112721920	50	4722
2026-01-19 19:42:08.91	185.62	15.05	-39.1	-41.6	20.0	0.00e+00	0	59	0	113770496	50	4636
2026-01-19 19:42:09.92	185.29	15.12	-39.2	-41.7	20.0	0.00e+00	0	59	0	114819072	50	4652
2026-01-19 19:42:10.93	184.97	15.19	-39.4	-42.0	19.6	0.00e+00	0	59	0	116391936	50	4865
2026-01-19 19:42:11.94	184.63	15.26	-39.6	-42.3	19.4	0.00e+00	0	59	0	117440512	50	4999
2026-01-19 19:42:12.95	184.30	15.33	-39.6	-42.3	19.3	0.00e+00	0	59	0	118489088	50	5023
2026-01-19 19:42:13.96	183.97	15.40	-39.7	-42.4	19.2	0.00e+00	0	59	0	119537664	50	5064
2026-01-19 19:42:14.97	183.63	15.47	-39.5	-42.2	19.4	0.00e+00	0	59	0	120586240	50	4933
2026-01-19 19:42:15.98	183.29	15.54	-39.4	-42.0	19.6	0.00e+00	0	59	0	121634816	50	4846
2026-01-19 19:42:16.99	182.95	15.60	-39.4	-42.0	19.6	0.00e+00	0	59	0	123207680	50	4834
2026-01-19 19:42:18.00	182.60	15.67	-39.3	-41.8	19.8	0.00e+00	0	59	0	124256256	50	4740
2026-01-19 19:42:19.01	182.26	15.74	-39.1	-41.6	20.0	0.00e+00	0	59	0	125304832	50	4627
2026-01-19 19:42:20.02	181.91	15.80	-39.0	-41.4	20.1	0.00e+00	0	59	0	126353408	50	4531
2026-01-19 19:42:21.03	181.56	15.87	-39.0	-41.5	20.2	0.00e+00	0	59	0	127401984	49	4837
2026-01-19 19:42:22.04	181.21	15.93	-38.8	-41.1	20.4	0.00e+00	0	59	0	128450560	49	4637
2026-01-19 19:42:23.04	180.86	15.99	-38.9	-41.3	20.3	0.00e+00	0	59	0	130023424	49	4714
2026-01-19 19:42:24.05	180.51	16.06	-38.9	-41.3	20.3	0.00e+00	0	59	0	131072000	49	4711
2026-01-19 19:42:25.06	180.15	16.12	-38.9	-41.3	20.3	0.00e+00	0	60	0	132120576	49	4707
2026-01-19 19:42:26.08	179.79	16.18	-38.8	-41.1	20.5	0.00e+00	0	59	0	133169152	49	4624
2026-01-19 19:42:27.08	179.44	16.24	-38.7	-41.1	20.5	0.00e+00	0	59	0	134217728	49	4623
2026-01-19 19:42:28.09	179.07	16.30	-38.7	-41.0	20.6	0.00e+00	0	59	0	135266304	49	4585
2026-01-19 19:42:29.10	178.71	16.36	-38.8	-41.1	20.5	0.00e+00	0	60	0	136839168	49	4635
2026-01-19 19:42:30.11	178.34	16.42	-38.7	-41.0	20.6	0.00e+00	0	59	0	137887744	49	4587
2026-01-19 19:42:31.12	177.98	16.47	-38.7	-41.0	20.5	0.00e+00	0	59	0	138936320	49	4591
2026-01-19 19:42:32.13	177.61	16.53	-38.7	-41.0	20.6	0.00e+00	0	59	0	139984896	49	4591
2026-01-19 19:42:33.14	177.24	16.59	-38.7	-41.0	20.6	0.00e+00	0	59	0	141033472	49	4555
2026-01-19 19:42:34.15	176.87	16.64	-38.7	-41.1	20.5	0.00e+00	0	59	0	142082048	49	4606
2026-01-19 19:42:35.16	176.49	16.70	-38.8	-41.2	20.4	0.00e+00	0	60	0	143654912	49	4664
2026-01-19 19:42:36.17	176.12	16.75	-38.8	-41.1	20.5	0.00e+00	0	59	0	144703488	49	4645
2026-01-19 19:42:37.18	175.74	16.80	-38.7	-41.0	20.7	0.00e+00	0	59	0	145752064	49	4546
2026-01-19 19:42:38.19	175.36	16.85	-38.8	-41.1	20.5	0.00e+00	0	60	0	146800640	49	4635
2026-01-19 19:42:39.20	174.98	16.90	-38.9	-41.3	20.4	0.00e+00	0	60	0	147849216	49	4737
2026-01-19 19:42:40.20	174.60	16.95	-39.0	-41.3	20.3	0.00e+00	0	60	0	148897792	49	4756
2026-01-19 19:42:41.21	174.22	17.00	-39.3	-41.7	20.4	0.00e+00	0	59	0	150470656	49	4930
2026-01-19 19:42:42.23	173.83	17.05	-39.1	-41.5	20.2	0.00e+00	0	59	0	151519232	49	4868
2026-01-19 19:42:43.24	173.44	17.10	-39.0	-41.4	20.4	0.00e+00	0	59	0	152567808	49	4795
2026-01-19 19:42:44.24	173.06	17.14	-38.8	-41.1	20.7	0.00e+00	0	59	0	153616384	49	4608
2026-01-19 19:42:45.25	172.67	17.19	-38.7	-41.0	20.8	0.00e+00	0	59	0	154664960	49	4558
2026-01-19 19:42:46.26	172.28	17.23	-38.8	-41.1	20.6	0.00e+00	0	60	0	155713536	49	4641
2026-01-19 19:42:47.27	171.88	17.28	-39.0	-41.4	20.4	0.00e+00	0	60	0	156762112	49	4778
2026-01-19 19:42:48.28	171.49	17.32	-39.0	-41.4	20.3	0.00e+00	0	60	0	158334976	49	4802
2026-01-19 19:42:49.29	171.09	17.36	-39.1	-41.5	20.2	0.00e+00	0	60	0	159383552	49	4828
2026-01-19 19:42:50.30	170.70	17.40	-39.0	-41.3	20.4	0.00e+00	0	60	0	160432128	49	4750
2026-01-19 19:42:51.31	170.30	17.44	-39.0	-41.4	20.4	0.00e+00	0	60	0	161480704	49	4773
2026-01-19 19:42:52.32	169.90	17.48	-38.9	-41.2	20.6	0.00e+00	0	60	0	162529280	49	4673
2026-01-19 19:42:53.33	169.50	17.51	-38.9	-41.2	20.6	0.00e+00	0	60	0	163577856	49	4687
2026-01-19 19:42:54.34	169.10	17.55	-38.6	-40.8	21.0	0.00e+00	0	60	0	165150720	49	4492
2026-01-19 19:42:55.35	168.70	17.58	-38.5	-40.7	21.2	0.00e+00	0	60	0	166199296	49	4399
2026-01-19 19:42:56.36	168.29	17.61	-38.3	-40.4	21.4	0.00e+00	0	59	0	167247872	48	4545
2026-01-19 19:42:57.37	167.89	17.65	-38.3	-40.4	21.5	0.00e+00	0	60	0	168296448	48	4538
2026-01-19 19:42:58.38	167.48	17.68	-38.4	-40.5	21.4	0.00e+00	0	60	0	169345024	48	4565
2026-01-19 19:42:59.39	167.08	17.71	-38.3	-40.4	21.5	0.00e+00	0	60	0	170917888	48	4515
2026-01-19 19:43:00.40	166.67	17.74	-38.3	-40.4	21.5	0.00e+00	0	60	0	171966464	48	4523
2026-01-19 19:43:01.41	166.26	17.76	-38.3	-40.4	21.5	0.00e+00	0	60	0	173015040	48	4514
2026-01-19 19:43:02.42	165.85	17.79	-38.4	-40.5	21.4	0.00e+00	0	60	0	174063616	48	4564
2026-01-19 19:43:03.43	165.44	17.81	-38.5	-40.7	21.2	0.00e+00	0	60	0	175112192	48	4688
2026-01-19 19:43:04.44	165.03	17.84	-38.5	-40.7	21.2	0.00e+00	0	60	0	176160768	48	4671
2026-01-19 19:43:05.44	164.62	17.86	-38.6	-40.7	21.2	0.00e+00	0	60	0	177733632	48	4696
2026-01-19 19:43:06.45	164.21	17.88	-38.7	-40.9	21.0	0.00e+00	0	60	0	178782208	48	4807
2026-01-19 19:43:07.46	163.79	17.90	-38.5	-40.7	21.2	0.00e+00	0	60	0	179830784	48	4686
2026-01-19 19:43:08.48	163.38	17.92	-38.6	-40.7	21.2	0.00e+00	0	60	0	180879360	48	4705
2026-01-19 19:43:09.48	162.97	17.94	-38.6	-40.8	21.2	0.00e+00	0	60	0	181927936	48	4736
2026-01-19 19:43:10.50	162.55	17.95	-38.8	-41.1	20.9	0.00e+00	0	60	0	182976512	48	4873
2026-01-19 19:43:11.50	162.13	17.97	-38.8	-41.1	20.8	0.00e+00	0	60	0	184549376	48	4890
2026-01-19 19:43:12.51	161.72	17.98	-38.9	-41.1	20.9	0.00e+00	0	60	0	185597952	48	4911
2026-01-19 19:43:13.53	161.30	17.99	-38.9	-41.2	20.8	0.00e+00	0	60	0	186646528	48	4937
2026-01-19 19:43:14.53	160.88	18.01	-38.8	-41.1	20.8	0.00e+00	0	60	0	187695104	48	4906
2026-01-19 19:43:15.54	160.47	18.02	-38.8	-41.1	20.9	0.00e+00	0	60	0	188743680	48	4872
2026-01-19 19:43:16.55	160.05	18.02	-38.7	-41.0	21.0	0.00e+00	0	60	0	189792256	48	4829
2026-01-19 19:43:17.56	159.63	18.03	-38.9	-41.2	20.8	0.00e+00	0	60	0	191365120	48	4972
2026-01-19 19:43:18.57	159.21	18.04	-38.8	-41.1	20.8	0.00e+00	0	60	0	192413696	48	4925
2026-01-19 19:43:19.58	158.80	18.04	-38.9	-41.2	20.8	0.00e+00	0	60	0	193462272	48	4974
2026-01-19 19:43:20.59	158.38	18.04	-38.8	-41.0	20.9	0.00e+00	0	60	0	194510848	48	4867
2026-01-19 19:43:21.60	157.96	18.05	-38.7	-40.9	21.1	0.00e+00	0	60	0	195559424	48	4794
2026-01-19 19:43:22.61	157.54	18.05	-38.6	-40.8	21.2	0.00e+00	0	60	0	196608000	48	4735
2026-01-19 19:43:23.62	157.12	18.05	-38.6	-40.8	21.2	0.00e+00	0	60	0	197656576	48	4757
2026-01-19 19:43:24.63	156.70	18.04	-38.5	-40.7	21.3	0.00e+00	0	60	0	199229440	48	4691
2026-01-19 19:43:25.64	156.29	18.04	-38.7	-40.9	21.1	0.00e+00	0	60	0	200278016	48	4810
2026-01-19 19:43:26.65	155.87	18.04	-38.8	-41.1	20.9	0.00e+00	0	60	0	201326592	48	4899
2026-01-19 19:43:27.66	155.45	18.03	-39.0	-41.3	20.7	0.00e+00	0	60	0	202375168	48	5036
2026-01-19 19:43:28.67	155.03	18.02	-39.2	-41.6	20.5	0.00e+00	0	60	0	203423744	48	5189
2026-01-19 19:43:29.68	154.61	18.02	-39.2	-41.6	20.4	0.00e+00	0	60	0	204472320	48	5215
2026-01-19 19:43:30.68	154.20	18.01	-39.1	-41.5	20.6	0.00e+00	0	60	0	206045184	48	5123
2026-01-19 19:43:31.69	153.78	17.99	-39.1	-41.4	20.6	0.00e+00	0	60	0	207093760	48	5089
2026-01-19 19:43:32.70	153.37	17.98	-39.0	-41.4	20.7	0.00e+00	0	60	0	208142336	48	5049
2026-01-19 19:43:33.72	152.95	17.97	-38.8	-41.1	20.9	0.00e+00	0	60	0	209190912	48	4925
2026-01-19 19:43:34.73	152.53	17.95	-38.5	-40.7	21.3	0.00e+00	0	60	0	210239488	48	4671
2026-01-19 19:43:35.73	152.12	17.94	-38.4	-40.6	21.5	0.00e+00	0	60	0	211812352	48	4607
2026-01-19 19:43:36.75	151.70	17.92	-38.4	-40.5	21.5	0.00e+00	0	60	0	212860928	48	4579
2026-01-19 19:43:37.76	151.29	17.90	-38.5	-40.7	21.4	0.00e+00	0	60	0	213909504	48	4677
2026-01-19 19:43:38.76	150.88	17.88	-38.6	-40.8	21.3	0.00e+00	0	60	0	214958080	48	4723
2026-01-19 19:43:39.77	150.47	17.86	-38.6	-40.9	21.2	0.00e+00	0	60	0	216006656	48	4780
2026-01-19 19:43:40.78	150.06	17.84	-38.8	-41.1	21.0	0.00e+00	0	60	0	217055232	48	4893
2026-01-19 19:43:41.79	149.65	17.81	-38.8	-41.1	20.9	0.00e+00	0	60	0	218628096	48	4905
2026-01-19 19:43:42.80	149.24	17.79	-38.7	-41.0	21.1	0.00e+00	0	60	0	219676672	48	4821
2026-01-19 19:43:43.81	148.83	17.76	-38.6	-40.9	21.1	0.00e+00	0	60	0	220725248	48	4770
2026-01-19 19:43:44.82	148.42	17.74	-38.6	-40.9	21.2	0.00e+00	0	60	0	221773824	48	4761
2026-01-19 19:43:45.83	148.01	17.71	-38.4	-40.6	21.4	0.00e+00	0	60	0	222822400	48	4620
2026-01-19 19:43:46.84	147.61	17.68	-38.5	-40.7	21.3	0.00e+00	0	60	0	223870976	48	4665
2026-01-19 19:43:47.85	147.20	17.65	-38.3	-40.4	21.6	0.00e+00	0	60	0	225443840	48	4522
2026-01-19 19:43:48.86	146.80	17.61	-38.4	-40.6	21.3	0.00e+00	0	60	0	226492416	48	4634
2026-01-19 19:43:49.87	146.39	17.58	-38.7	-40.9	21.1	0.00e+00	0	60	0	227540992	48	4811
2026-01-19 19:43:50.88	145.99	17.55	-38.8	-41.1	21.0	0.00e+00	0	60	0	228589568	48	4885
2026-01-19 19:43:51.89	145.59	17.51	-38.9	-41.3	20.8	0.00e+00	0	60	0	229638144	48	5000
2026-01-19 19:43:52.89	145.19	17.48	-39.0	-41.4	20.6	0.00e+00	0	60	0	230686720	48	5100
2026-01-19 19:43:53.90	144.80	17.44	-39.0	-41.4	20.6	0.00e+00	0	60	0	231735296	48	5070
2026-01-19 19:43:54.91	144.40	17.40	-39.0	-41.4	20.6	0.00e+00	0	60	0	233308160	48	5063
2026-01-19 19:43:55.92	144.00	17.36	-39.0	-41.3	20.7	0.00e+00	0	60	0	234356736	48	5036
2026-01-19 19:43:56.93	143.61	17.32	-38.9	-41.3	20.7	0.00e+00	0	60	0	235405312	48	4997
2026-01-19 19:43:57.94	143.22	17.28	-38.9	-41.2	20.8	0.00e+00	0	60	0	236453888	48	4952
2026-01-19 19:43:58.95	142.82	17.23	-37.4	-41.1	19.7	1.10e-06	0	60	0	237502464	46	5499
2026-01-19 19:43:59.96	142.43	17.19	-38.7	-41.0	20.2	6.80e-06	0	60	0	238551040	47	5110
2026-01-19 19:44:00.97	142.04	17.14	-38.8	-41.1	20.8	1.10e-06	0	60	0	240123904	48	4901
2026-01-19 19:44:01.98	141.66	17.10	-38.6	-41.3	20.5	1.10e-06	0	60	0	241172480	48	5005
2026-01-19 19:44:02.99	141.27	17.05	-39.2	-41.7	20.2	0.00e+00	0	60	0	242221056	49	4950
2026-01-19 19:44:04.00	140.89	17.00	-39.3	-41.8	19.3	1.10e-06	0	60	0	243269632	49	5014
2026-01-19 19:44:05.01	140.50	16.96	-38.9	-41.8	20.1	1.10e-06	0	60	0	244318208	49	4986
2026-01-19 19:44:06.02	140.12	16.91	-39.1	-41.6	20.4	1.10e-06	0	60	0	245366784	49	4874
2026-01-19 19:44:07.02	139.75	16.86	-38.9	-41.3	20.7	0.00e+00	0	60	0	246939648	49	4720
2026-01-19 19:44:08.03	139.37	16.80	-38.9	-41.3	20.6	0.00e+00	0	60	0	247988224	49	4741
2026-01-19 19:44:09.04	138.99	16.75	-39.1	-41.6	20.4	0.00e+00	0	60	0	249036800	49	4887
2026-01-19 19:44:10.05	138.62	16.70	-39.2	-41.7	20.2	0.00e+00	0	60	0	250085376	49	4961
2026-01-19 19:44:11.06	138.24	16.64	-39.2	-41.7	20.2	0.00e+00	0	60	0	251133952	49	4959
2026-01-19 19:44:12.07	137.87	16.59	-39.1	-41.7	20.2	0.00e+00	0	60	0	252182528	49	4935
2026-01-19 19:44:13.08	137.50	16.53	-38.2	-41.5	20.1	0.00e+00	0	60	0	253755392	48	5152
2026-01-19 19:44:14.09	137.13	16.48	-38.9	-41.3	20.2	0.00e+00	0	60	0	254803968	48	4995
2026-01-19 19:44:15.10	136.77	16.42	-36.1	-41.1	18.1	0.00e+00	0	60	0	255852544	43	6502
2026-01-19 19:44:16.11	136.40	16.36	-39.0	-41.4	16.1	3.77e-05	0	60	0	256901120	48	5085
2026-01-19 19:44:17.12	136.04	16.30	-33.2	-41.7	17.2	3.42e-04	0	60	0	257949696	44	6629
2026-01-19 19:44:18.13	135.68	16.24	-39.2	-41.7	17.0	3.42e-04	0	60	0	258998272	48	5239
2026-01-19 19:44:19.14	135.32	16.18	-38.8	-41.8	13.3	2.42e-03	0	60	0	260571136	41	7943
2026-01-19 19:44:20.15	134.96	16.12	-39.4	-42.3	16.8	1.40e-01	0	60	0	261619712	48	5615
2026-01-19 19:44:21.16	134.61	16.06	-39.2	-42.3	14.2	1.40e-01	0	60	0	262668288	44	7118
2026-01-19 19:44:22.17	134.26	16.00	-28.8	-40.9	8.0	2.50e-02	0	60	0	263716864	30	13465
2026-01-19 19:44:23.18	133.90	15.93	-36.2	-41.6	11.1	8.52e-02	0	60	0	264765440	32	13039
2026-01-19 19:44:24.19	133.55	15.87	-28.2	-41.4	10.3	8.52e-02	0	60	0	265814016	28	16013
2026-01-19 19:44:25.19	133.21	15.81	-37.4	-42.6	13.2	8.09e-02	0	60	0	266862592	39	9751
2026-01-19 19:44:26.20	132.86	15.74	-32.6	-42.6	16.5	1.41e-01	0	60	0	267911168	47	6154
2026-01-19 19:44:27.21	132.52	15.68	-32.0	-42.4	10.9	7.43e-02	0	60	0	268959744	37	10688
2026-01-19 19:44:28.22	132.18	15.61	-29.6	-42.4	12.8	7.43e-02	0	60	0	270008320	42	8000
2026-01-19 19:44:29.23	131.84	15.54	-38.5	-42.2	10.7	2.34e-02	0	60	0	271581184	35	11804
2026-01-19 19:44:30.24	131.50	15.47	-38.6	-42.2	17.1	5.80e-02	0	60	0	272629760	48	5572
2026-01-19 19:44:31.25	131.16	15.41	-38.1	-41.9	17.1	5.80e-02	0	60	0	273678336	48	5370
2026-01-19 19:44:32.26	130.83	15.34	-35.3	-41.5	12.9	3.85e-02	0	60	0	274726912	39	8562
2026-01-19 19:44:33.26	130.50	15.27	-37.4	-42.0	16.1	4.53e-03	0	60	0	275775488	46	6093
2026-01-19 19:44:34.27	130.17	15.20	-38.8	-42.2	14.6	4.53e-03	0	60	0	276824064	47	5880
2026-01-19 19:44:35.28	129.84	15.13	-29.9	-41.0	11.6	1.82e-02	0	60	0	278396928	30	13701
2026-01-19 19:44:36.29	129.52	15.06	-39.0	-42.0	16.9	4.56e-02	0	60	0	279445504	47	5781
2026-01-19 19:44:37.31	129.19	14.99	-39.1	-42.3	14.5	4.56e-02	0	60	0	280494080	47	5981
2026-01-19 19:44:38.31	128.87	14.92	-39.0	-42.5	15.4	1.05e-02	0	61	0	281542656	49	5421
2026-01-19 19:44:39.32	128.55	14.85	-37.9	-42.3	14.6	7.49e-02	0	61	0	282591232	47	5934
2026-01-19 19:44:40.33	128.23	14.77	-37.5	-42.3	15.1	8.82e-02	0	61	0	283639808	48	5626
2026-01-19 19:44:41.34	127.91	14.70	-33.7	-42.3	16.2	8.82e-02	0	60	0	284688384	47	5951
2026-01-19 19:44:42.35	127.60	14.63	-35.7	-41.6	11.0	2.49e-02	0	60	0	285736960	43	6953
2026-01-19 19:44:43.36	127.29	14.56	-37.8	-42.1	13.5	8.72e-02	0	61	0	286785536	46	6173
2026-01-19 19:44:44.37	126.98	14.48	-37.1	-42.7	14.1	8.72e-02	0	61	0	287834112	47	6232
2026-01-19 19:44:45.38	126.67	14.41	-37.0	-42.4	14.5	4.41e-02	0	61	0	289406976	47	5997
2026-01-19 19:44:46.39	126.36	14.33	-31.2	-43.4	13.8	1.34e-01	0	60	0	289931264	47	6758
2026-01-19 19:44:47.40	126.06	14.26	-37.9	-43.1	13.3	1.34e-01	0	60	0	291504128	44	7720
2026-01-19 19:44:48.41	125.75	14.18	-34.6	-43.0	14.2	5.28e-02	0	61	0	292552704	48	6080
2026-01-19 19:44:49.42	125.45	14.11	-39.0	-43.1	13.9	7.19e-02	0	60	0	293601280	47	6508
2026-01-19 19:44:50.43	125.15	14.03	-35.2	-43.0	14.7	7.19e-02	0	60	0	294649856	45	7227
2026-01-19 19:44:51.44	124.86	13.96	-39.1	-43.0	14.0	3.03e-02	0	60	0	295698432	46	6877
2026-01-19 19:44:52.44	124.57	13.88	-39.2	-43.0	15.5	2.60e-02	0	61	0	296747008	49	5785
2026-01-19 19:44:53.46	124.27	13.81	-37.3	-42.6	16.6	2.97e-02	0	61	0	297795584	46	6550
2026-01-19 19:44:54.47	123.98	13.73	-37.2	-42.5	14.6	2.97e-02	0	60	0	298844160	43	7690
2026-01-19 19:44:55.48	123.69	13.65	-35.1	-42.4	15.7	3.01e-02	0	61	0	299892736	45	6733
2026-01-19 19:44:56.48	123.41	13.58	-37.4	-42.9	15.5	7.01e-02	0	61	0	301465600	47	6396
2026-01-19 19:44:57.49	123.12	13.50	-39.1	-42.9	10.6	7.01e-02	0	60	0	302514176	39	10067
2026-01-19 19:44:58.50	122.84	13.42	-37.6	-43.4	13.1	3.40e-02	0	61	0	303562752	46	7144
2026-01-19 19:44:59.51	122.56	13.34	-34.2	-42.5	11.2	8.35e-02	0	60	0	304611328	38	10205
2026-01-19 19:45:00.52	122.28	13.27	-34.9	-43.1	12.1	8.35e-02	0	61	0	305659904	43	8178
2026-01-19 19:45:01.53	122.00	13.19	-34.7	-42.7	12.4	2.63e-02	0	61	0	306708480	39	9922
2026-01-19 19:45:02.54	121.73	13.11	-30.5	-42.3	11.5	3.81e-02	0	61	0	307757056	38	10042
2026-01-19 19:45:03.55	121.45	13.03	-37.8	-43.2	11.5	7.40e-02	0	60	0	308805632	42	8818
2026-01-19 19:45:04.56	121.18	12.95	-33.7	-42.9	12.5	7.40e-02	0	61	0	309854208	40	9502
2026-01-19 19:45:05.56	120.91	12.87	-32.1	-42.5	9.9	6.07e-02	0	61	0	310902784	35	12170
2026-01-19 19:45:06.58	120.64	12.80	-32.4	-42.6	6.7	2.32e-01	0	60	0	311951360	28	18329
2026-01-19 19:45:07.59	120.38	12.72	-24.8	-42.7	9.8	2.32e-01	0	61	0	312999936	39	9832
2026-01-19 19:45:08.60	120.11	12.64	-35.0	-42.7	10.0	2.47e-01	0	60	0	314048512	37	11044
2026-01-19 19:45:09.61	119.85	12.56	-29.4	-41.5	9.2	1.60e-01	0	61	0	315097088	32	12930
2026-01-19 19:45:10.62	119.59	12.48	-35.8	-43.6	10.6	1.60e-01	0	61	0	316145664	39	10954
2026-01-19 19:45:11.63	119.33	12.40	-36.0	-43.0	10.8	1.29e-01	0	61	0	317194240	39	10244
2026-01-19 19:45:12.63	119.08	12.32	-37.9	-43.9	11.0	1.00e-01	0	61	0	318242816	40	10676
2026-01-19 19:45:13.65	118.82	12.24	-36.7	-43.3	11.7	1.00e-01	0	61	0	319291392	43	8404
2026-01-19 19:45:14.65	118.57	12.16	-35.8	-43.2	12.3	7.89e-02	0	61	0	320339968	42	8805
2026-01-19 19:45:15.66	118.32	12.08	-32.6	-43.4	11.9	4.23e-02	0	61	0	321388544	41	9573
2026-01-19 19:45:16.67	118.07	12.01	-33.2	-43.7	11.8	7.84e-02	0	61	0	322437120	42	9372
2026-01-19 19:45:17.68	117.82	11.93	-30.7	-43.2	10.6	7.84e-02	0	61	0	323485696	39	10514
2026-01-19 19:45:18.69	117.58	11.85	-34.9	-43.4	11.5	1.25e-01	0	61	0	324534272	39	10731
2026-01-19 19:45:19.70	117.33	11.77	-33.8	-43.3	10.7	1.31e-01	0	61	0	325582848	40	9951
2026-01-19 19:45:20.71	117.09	11.69	-36.5	-43.9	10.3	1.31e-01	0	61	0	326631424	41	10155
2026-01-19 19:45:21.72	116.85	11.61	-34.1	-43.6	10.4	1.59e-01	0	61	0	327680000	37	12330
2026-01-19 19:45:22.73	116.61	11.53	-31.0	-43.1	10.4	1.61e-01	0	61	0	328728576	38	10989
2026-01-19 19:45:23.74	116.37	11.45	-33.8	-43.2	7.5	1.61e-01	0	61	0	329777152	30	17586
2026-01-19 19:45:24.75	116.14	11.37	-31.5	-43.7	9.4	1.89e-01	0	61	0	330825728	38	11739
2026-01-19 19:45:25.76	115.90	11.29	-32.6	-43.2	8.5	2.56e-01	0	61	0	331874304	34	13901
2026-01-19 19:45:26.77	115.67	11.21	-33.8	-44.2	8.7	2.56e-01	0	61	0	332922880	37	13162
2026-01-19 19:45:27.77	115.44	11.13	-32.6	-43.8	8.0	2.62e-01	0	61	0	333447168	35	14125
2026-01-19 19:45:28.78	115.22	11.05	-28.5	-41.9	7.6	4.47e-01	0	61	0	333971456	28	16938
2026-01-19 19:45:29.79	114.99	10.97	-26.2	-41.7	5.1	4.31e-01	0	61	0	334495744	22	23486
2026-01-19 19:45:30.80	114.76	10.89	-29.7	-42.8	7.0	4.31e-01	0	61	0	335020032	30	16780
2026-01-19 19:45:31.81	114.54	10.81	-30.2	-42.3	8.3	5.70e-01	0	61	0	335544320	30	15872
2026-01-19 19:45:32.82	114.32	10.74	-30.1	-40.8	8.2	3.85e-01	0	61	0	336592896	27	15923
2026-01-19 19:45:33.83	114.10	10.66	-30.9	-42.1	7.9	3.85e-01	0	61	0	337641472	30	15404
2026-01-19 19:45:34.84	113.88	10.58	-24.1	-41.3	7.8	2.77e-01	0	61	0	338690048	28	15822
2026-01-19 19:45:35.84	113.66	10.50	-23.2	-41.3	5.4	3.53e-01	0	61	0	339214336	21	23827
2026-01-19 19:45:36.85	113.45	10.42	-30.9	-42.5	7.3	3.53e-01	0	61	0	339214336	27	19200
2026-01-19 19:45:37.86	113.23	10.34	-30.6	-44.1	7.6	6.20e-01	0	61	0	339738624	32	17354
2026-01-19 19:45:38.87	113.02	10.26	-27.8	-42.5	6.8	4.88e-01	0	61	0	340262912	27	19254
2026-01-19 19:45:39.88	112.81	10.18	-31.9	-45.8	7.0	4.88e-01	0	61	0	340787200	33	19951
2026-01-19 19:45:40.89	112.60	10.11	-31.9	-46.6	6.5	5.31e-01	0	61	0	341311488	34	20628
2026-01-19 19:45:41.90	112.39	10.03	-26.0	-44.4	5.6	5.02e-01	0	61	0	341835776	26	25362
2026-01-19 19:45:42.91	112.18	9.95	-30.6	-44.9	6.6	5.89e-01	0	61	0	342360064	30	21398
2026-01-19 19:45:43.92	111.98	9.87	-32.5	-45.6	5.7	5.89e-01	0	61	0	342884352	32	20744
2026-01-19 19:45:44.93	111.78	9.79	-32.3	-45.1	8.3	4.66e-01	0	61	0	343932928	34	17413
2026-01-19 19:45:45.94	111.57	9.71	-35.0	-47.1	7.7	3.80e-01	0	61	0	344457216	39	16375
2026-01-19 19:45:46.95	111.37	9.64	-33.6	-45.8	7.9	3.80e-01	0	61	0	345505792	37	15909
2026-01-19 19:45:47.96	111.17	9.56	-31.7	-46.4	5.5	3.79e-01	0	61	0	346030080	34	20272
2026-01-19 19:45:48.97	110.98	9.48	-28.6	-44.6	8.1	4.47e-01	0	61	0	346554368	35	15443
2026-01-19 19:45:49.98	110.78	9.40	-34.4	-46.0	7.9	4.47e-01	0	61	0	347602944	39	14451
2026-01-19 19:45:50.98	110.59	9.33	-34.7	-45.4	10.5	3.19e-01	0	61	0	348651520	41	12013
2026-01-19 19:45:51.99	110.39	9.25	-32.4	-43.6	8.9	1.47e-01	0	61	0	349700096	32	16320
2026-01-19 19:45:53.00	110.20	9.17	-35.3	-44.9	10.8	1.47e-01	0	61	0	350748672	41	11362
2026-01-19 19:45:54.01	110.01	9.09	-35.1	-45.0	8.9	1.40e-01	0	61	0	351797248	39	12829
2026-01-19 19:45:55.02	109.82	9.02	-35.8	-44.1	11.2	1.45e-01	0	61	0	352845824	40	11018
2026-01-19 19:45:56.03	109.63	8.94	-32.6	-44.6	8.1	9.10e-02	0	61	0	354418688	32	18359
2026-01-19 19:45:57.04	109.45	8.86	-34.7	-44.4	10.4	9.10e-02	0	61	0	355467264	39	12021
2026-01-19 19:45:58.05	109.26	8.79	-32.0	-44.1	10.8	9.81e-02	0	61	0	356515840	39	11563
2026-01-19 19:45:59.06	109.08	8.71	-36.6	-44.5	11.5	8.49e-02	0	61	0	357564416	42	10246
2026-01-19 19:46:00.07	108.90	8.63	-35.0	-45.6	6.1	8.49e-02	0	61	0	358612992	33	19435
2026-01-19 19:46:01.08	108.72	8.56	-34.5	-45.4	11.3	1.09e-01	0	61	0	359661568	43	10764
2026-01-19 19:46:02.09	108.54	8.48	-35.2	-45.8	10.4	8.20e-02	0	61	0	360710144	41	12584
2026-01-19 19:46:03.10	108.36	8.41	-37.3	-46.2	10.8	8.20e-02	0	61	0	361758720	46	9899
2026-01-19 19:46:04.11	108.18	8.33	-37.6	-45.5	10.6	5.70e-02	0	61	0	363331584	45	9663
2026-01-19 19:46:05.12	108.00	8.25	-29.0	-45.8	11.9	3.25e-02	0	61	0	364380160	44	10576
2026-01-19 19:46:06.13	107.83	8.18	-38.0	-45.7	10.8	3.25e-02	0	61	0	365428736	43	11073
2026-01-19 19:46:07.14	107.66	8.10	-37.8	-46.7	11.0	3.70e-02	0	61	0	366477312	46	10471
2026-01-19 19:46:08.15	107.48	8.03	-35.1	-45.3	11.8	2.18e-02	0	61	0	367525888	44	10018
2026-01-19 19:46:09.16	107.31	7.95	-30.2	-53.0	3.9	2.47e-01	0	61	104	368574464	37	36183
2026-01-19 19:46:10.17	107.14	7.88	-44.6	-62.7	3.8	2.47e-01	0	61	104	368574464	59	31347
2026-01-19 19:46:11.18	106.97	7.80	-44.8	-63.0	3.8	8.42e-01	0	61	104	368574464	60	30687
2026-01-19 19:46:12.19	106.81	7.73	-45.1	-63.3	3.8	8.46e-01	0	61	104	368574464	60	31767
2026-01-19 19:46:13.20	106.64	7.65	-45.3	-63.5	3.8	8.46e-01	0	61	104	368574464	61	30608
2026-01-19 19:46:14.21	106.48	7.58	-45.5	-63.7	3.8	8.46e-01	0	61	104	368574464	61	31139
2026-01-19 19:46:15.22	106.31	7.51	-45.6	-63.8	3.8	8.47e-01	0	61	104	368574464	61	31495
2026-01-19 19:46:16.23	106.15	7.43	-45.8	-64.0	3.8	8.47e-01	0	61	104	368574464	62	30383
2026-01-19 19:46:17.24	105.99	7.36	-45.8	-64.0	3.8	8.47e-01	0	61	104	368574464	62	30523
2026-01-19 19:46:18.25	105.83	7.28	-45.8	-64.0	3.8	8.48e-01	0	61	104	368574464	62	30498
2026-01-19 19:46:19.26	105.67	7.21	-45.7	-63.9	3.8	8.48e-01	0	61	104	368574464	62	30270
2026-01-19 19:46:20.27	105.51	7.14	-45.6	-63.8	3.8	8.46e-01	0	61	104	368574464	62	29926
2026-01-19 19:46:21.28	105.35	7.06	-45.5	-63.7	3.8	8.47e-01	0	61	104	368574464	62	29613
2026-01-19 19:46:22.29	105.20	6.99	-45.5	-63.6	3.8	8.46e-01	0	61	104	368574464	62	29304
2026-01-19 19:46:23.30	105.04	6.92	-45.4	-63.6	3.8	8.46e-01	0	61	104	368574464	62	29110
2026-01-19 19:46:24.31	104.89	6.85	-45.4	-63.5	3.8	8.46e-01	0	61	104	368574464	62	29003
2026-01-19 19:46:25.32	104.74	6.77	-45.3	-63.4	3.8	8.46e-01	0	61	104	368574464	62	28638
2026-01-19 19:46:26.33	104.58	6.70	-45.3	-63.4	3.8	8.46e-01	0	61	104	368574464	62	28659
2026-01-19 19:46:27.34	104.43	6.63	-45.3	-63.4	3.8	8.47e-01	0	61	104	368574464	62	28629
2026-01-19 19:46:28.35	104.28	6.56	-45.3	-63.4	3.8	8.46e-01	0	61	104	368574464	62	28623
2026-01-19 19:46:29.36	104.14	6.49	-45.3	-63.4	3.8	8.46e-01	0	61	104	368574464	62	28596
2026-01-19 19:46:30.37	103.99	6.41	-45.3	-63.4	3.8	8.46e-01	0	61	104	368574464	62	28601
2026-01-19 19:46:31.38	103.84	6.34	-45.3	-63.4	3.8	8.46e-01	0	61	104	368574464	62	28614
2026-01-19 19:46:32.39	103.70	6.27	-45.3	-63.4	3.8	8.48e-01	0	61	104	368574464	62	28605
2026-01-19 19:46:33.40	103.55	6.20	-45.3	-63.4	3.8	8.48e-01	0	61	104	368574464	62	28571
2026-01-19 19:46:34.41	103.41	6.13	-45.3	-63.4	3.8	8.47e-01	0	61	104	368574464	62	28598
2026-01-19 19:46:35.42	103.27	6.06	-45.3	-63.4	3.8	8.46e-01	0	61	104	368574464	61	30237
2026-01-19 19:46:36.43	103.13	5.99	-45.3	-63.4	3.8	8.46e-01	0	61	104	368574464	61	30185
2026-01-19 19:46:37.44	102.99	5.92	-45.3	-63.4	3.8	8.45e-01	0	61	104	368574464	61	30185
2026-01-19 19:46:38.45	102.85	5.85	-45.3	-63.4	3.8	8.46e-01	0	61	104	368574464	61	30196
2026-01-19 19:46:39.46	102.71	5.78	-45.3	-63.4	3.8	8.46e-01	0	61	104	368574464	61	30137
2026-01-19 19:46:40.47	102.57	5.71	-45.3	-63.4	3.8	8.46e-01	0	61	104	368574464	61	30123
2026-01-19 19:46:41.48	102.43	5.64	-45.3	-63.4	3.8	8.46e-01	0	61	104	368574464	61	30127
2026-01-19 19:46:42.50	102.30	5.57	-45.3	-63.4	3.8	8.46e-01	0	61	104	368574464	61	30144
2026-01-19 19:46:43.51	102.16	5.50	-45.3	-63.4	3.8	8.45e-01	0	61	104	368574464	61	30149
2026-01-19 19:46:44.52	102.03	5.43	-45.3	-63.4	3.8	8.46e-01	0	61	104	368574464	61	30128
2026-01-19 19:46:45.53	101.90	5.36	-45.3	-63.3	3.8	8.47e-01	0	61	104	368574464	61	30016
2026-01-19 19:46:46.54	101.76	5.29	-45.3	-63.3	3.8	8.47e-01	0	61	104	368574464	61	30006
2026-01-19 19:46:47.55	101.63	5.22	-45.3	-63.4	3.8	8.46e-01	0	61	104	368574464	61	30074
2026-01-19 19:46:48.56	101.50	5.15	-45.2	-63.4	3.8	8.46e-01	0	61	104	368574464	61	30039
2026-01-19 19:46:49.57	101.37	5.08	-45.0	-63.3	3.8	8.46e-01	0	61	104	368574464	61	30019
2026-01-19 19:46:50.58	101.24	5.01	-45.2	-63.3	3.8	8.46e-01	0	61	104	368574464	61	29894
2026-01-19 19:46:51.59	101.12	4.95	-45.2	-63.3	3.8	8.45e-01	0	61	104	368574464	61	29963
2026-01-19 19:46:52.60	100.99	4.88	-45.2	-63.4	3.8	8.45e-01	0	61	104	368574464	61	30057
2026-01-19 19:46:53.61	100.86	4.81	-45.2	-63.3	3.8	8.46e-01	0	61	104	368574464	61	29962
2026-01-19 19:46:54.62	100.74	4.74	-45.2	-63.3	3.8	8.45e-01	0	61	104	368574464	61	30020
2026-01-19 19:46:55.63	100.62	4.68	-45.2	-63.3	3.8	8.45e-01	0	61	104	368574464	61	30026
2026-01-19 19:46:56.64	100.49	4.61	-45.2	-63.3	3.8	8.44e-01	0	61	104	368574464	61	29960
2026-01-19 19:46:57.65	100.37	4.54	-45.2	-63.3	3.8	8.45e-01	0	61	104	368574464	61	29984
2026-01-19 19:46:58.66	100.25	4.47	-45.2	-63.4	3.8	8.45e-01	0	61	104	368574464	61	30049
2026-01-19 19:46:59.67	100.13	4.41	-45.2	-63.4	3.8	8.45e-01	0	61	104	368574464	61	30040
2026-01-19 19:47:00.68	100.01	4.34	-45.2	-63.3	3.8	8.46e-01	0	61	104	368574464	61	29959
2026-01-19 19:47:01.69	99.89	4.27	-45.2	-63.3	3.8	8.47e-01	0	61	104	368574464	61	29946
2026-01-19 19:47:02.70	99.77	4.21	-45.2	-63.3	3.8	8.47e-01	0	61	104	368574464	61	29933
2026-01-19 19:47:03.71	99.65	4.14	-45.2	-63.3	3.8	8.45e-01	0	61	104	368574464	61	29932
2026-01-19 19:47:04.72	99.53	4.08	-45.2	-63.3	3.8	8.46e-01	0	61	104	368574464	61	29924
2026-01-19 19:47:05.74	99.42	4.01	-45.2	-63.3	3.8	8.46e-01	0	61	104	368574464	61	29893
2026-01-19 19:47:06.75	99.30	3.94	-45.2	-63.3	3.8	8.47e-01	0	61	104	368574464	61	30004
2026-01-19 19:47:07.76	99.19	3.88	-45.2	-63.3	3.8	8.46e-01	0	61	104	368574464	61	29951
2026-01-19 19:47:08.77	99.07	3.81	-45.2	-63.3	3.8	8.46e-01	0	61	104	368574464	61	29935
2026-01-19 19:47:09.78	98.96	3.75	-45.2	-63.3	3.8	8.46e-01	0	61	104	368574464	61	29988
2026-01-19 19:47:10.79	98.85	3.68	-45.2	-63.3	3.8	8.46e-01	0	61	104	368574464	61	29951
2026-01-19 19:47:11.80	98.74	3.62	-45.2	-63.3	3.8	8.46e-01	0	61	104	368574464	61	29907
2026-01-19 19:47:12.81	98.62	3.55	-44.9	-63.3	3.8	8.46e-01	0	61	104	368574464	61	29878
2026-01-19 19:47:13.82	98.51	3.49	-45.2	-63.3	3.8	8.47e-01	0	61	104	368574464	61	29968
2026-01-19 19:47:14.83	98.40	3.42	-45.2	-63.3	3.8	8.45e-01	0	61	104	368574464	61	29881
2026-01-19 19:47:15.84	98.30	3.36	-45.2	-63.3	3.8	8.45e-01	0	61	104	368574464	61	29914
2026-01-19 19:47:16.85	98.19	3.29	-45.1	-63.3	3.8	8.46e-01	0	61	104	368574464	61	29996
2026-01-19 19:47:17.86	98.08	3.23	-45.2	-63.3	3.8	8.46e-01	0	61	104	368574464	61	29958
2026-01-19 19:47:18.87	97.97	3.17	-45.2	-63.3	3.8	8.46e-01	0	61	104	368574464	61	29842
2026-01-19 19:47:19.88	97.87	3.10	-45.2	-63.3	3.8	8.47e-01	0	61	104	368574464	61	29871
2026-01-19 19:47:20.89	97.76	3.04	-45.2	-63.3	3.8	8.46e-01	0	61	104	368574464	61	29892
2026-01-19 19:47:21.90	97.66	2.98	-45.2	-63.3	3.8	8.45e-01	0	61	104	368574464	61	29905
2026-01-19 19:47:22.91	97.55	2.91	-45.2	-63.3	3.8	8.45e-01	0	61	104	368574464	61	29971
2026-01-19 19:47:23.92	97.45	2.85	-45.2	-63.3	3.8	8.47e-01	0	61	104	368574464	61	29848
2026-01-19 19:47:24.93	97.35	2.79	-45.2	-63.3	3.8	8.46e-01	0	61	104	368574464	61	29863
2026-01-19 19:47:25.95	97.24	2.72	-45.2	-63.3	3.8	8.46e-01	0	61	104	368574464	61	29900
2026-01-19 19:47:26.96	97.14	2.66	-45.2	-63.3	3.8	8.47e-01	0	61	104	368574464	61	29834
2026-01-19 19:47:27.97	97.04	2.60	-45.2	-63.3	3.8	8.46e-01	0	61	104	368574464	61	29794
2026-01-19 19:47:28.98	96.94	2.54	-45.2	-63.3	3.8	8.46e-01	0	61	104	368574464	61	29945
2026-01-19 19:47:29.99	96.84	2.47	-45.2	-63.3	3.8	8.47e-01	0	61	104	368574464	61	29965
2026-01-19 19:47:31.00	96.74	2.41	-45.2	-63.3	3.8	8.46e-01	0	61	104	368574464	61	29862
2026-01-19 19:47:32.01	96.64	2.35	-45.2	-63.3	3.8	8.46e-01	0	61	104	368574464	61	29801
2026-01-19 19:47:33.02	96.54	2.29	-45.2	-63.3	3.8	8.46e-01	0	61	104	368574464	61	29914
2026-01-19 19:47:34.03	96.45	2.23	-45.2	-63.3	3.8	8.46e-01	0	61	104	368574464	61	29914
2026-01-19 19:47:35.04	96.35	2.17	-45.2	-63.3	3.8	8.46e-01	0	61	104	368574464	61	29823
2026-01-19 19:47:36.05	96.25	2.10	-45.2	-63.3	3.8	8.46e-01	0	61	104	368574464	61	29873
2026-01-19 19:47:37.06	96.16	2.04	-45.2	-63.3	3.8	8.46e-01	0	61	104	368574464	61	29919
2026-01-19 19:47:38.08	96.06	1.98	-45.2	-63.3	3.8	8.45e-01	0	61	104	368574464	61	29886
2026-01-19 19:47:39.09	95.97	1.92	-45.2	-63.3	3.8	8.45e-01	0	61	104	368574464	61	29796

#Closed at: 2026-01-19 19:47:39
#Recorded file [368 MB]: D:/lorett/data/31039_260119_223907.dat