passes_logs/2026/01/19/R2.0S_Moscow/R2.0S_Moscow__20260119_111422_AQUA_rec.log

#Pass ID: 20260119_111422_AQUA
#Satellite: AQUA
#Configuration: AQUA
#almurnet v.1.7.20251203
#Start time: 2026-01-19 11:15:13

#Version: 2.2.20231116
#Station: R2.0S_Moscow
#Location: 37.707566 lon 55.798166 lat
#TLE: 1 27424U 02022A   26017.96925465  .00000866  00000+0  18326-3 0  9999
#TLE: 2 27424  98.4087 344.4465 0002004  74.6027 356.0068 14.61826972261327

#Time	Az	El	Level	Level2	SNR	BER	BlckErr	Temp	State	Recorded	gain1	gain2
2026-01-19 11:15:13.86	146.54	5.61	-43.6	-57.4	3.8	1.49e+00	0	62	0	0	60	16077
2026-01-19 11:15:14.86	146.51	5.69	-46.7	-65.2	3.8	7.46e-01	0	62	104	0	63	33257
2026-01-19 11:15:15.87	146.48	5.77	-46.7	-65.3	3.8	7.44e-01	0	62	104	0	63	33322
2026-01-19 11:15:16.88	146.45	5.84	-46.7	-65.2	3.8	7.41e-01	0	62	104	0	63	33293
2026-01-19 11:15:17.89	146.42	5.92	-46.6	-65.2	3.8	7.46e-01	0	62	104	0	64	31283
2026-01-19 11:15:18.90	146.39	6.00	-46.5	-65.1	3.8	7.42e-01	0	62	104	0	64	30742
2026-01-19 11:15:19.91	146.36	6.08	-46.3	-64.9	3.8	7.46e-01	0	62	104	0	64	30216
2026-01-19 11:15:20.93	146.33	6.16	-46.1	-64.5	3.8	7.45e-01	0	62	104	0	64	28967
2026-01-19 11:15:21.93	146.30	6.24	-41.7	-61.7	3.9	7.47e-01	0	62	104	0	60	26377
2026-01-19 11:15:22.95	146.27	6.32	-45.4	-63.8	3.8	7.46e-01	0	62	104	0	61	31769
2026-01-19 11:15:23.96	146.24	6.39	-45.2	-62.0	3.8	7.45e-01	0	62	104	0	61	25793
2026-01-19 11:15:24.97	146.21	6.47	-45.0	-61.8	3.8	7.46e-01	0	62	104	0	60	26752
2026-01-19 11:15:25.98	146.18	6.55	-44.8	-61.3	3.9	7.47e-01	0	62	104	0	60	25070
2026-01-19 11:15:26.99	146.15	6.63	-45.1	-61.8	3.8	7.43e-01	0	62	104	0	60	26622
2026-01-19 11:15:28.00	146.12	6.72	-44.9	-62.1	3.8	7.47e-01	0	62	104	0	60	27424
2026-01-19 11:15:29.01	146.09	6.80	-44.9	-62.2	3.7	7.41e-01	0	62	104	0	60	28000
2026-01-19 11:15:30.02	146.05	6.88	-45.0	-62.5	3.9	7.49e-01	0	62	104	0	60	28703
2026-01-19 11:15:31.03	146.02	6.96	-45.2	-62.5	3.8	7.42e-01	0	62	104	0	60	28896
2026-01-19 11:15:32.04	145.99	7.04	-45.2	-63.0	3.8	7.48e-01	0	62	104	0	60	30472
2026-01-19 11:15:33.05	145.96	7.12	-44.0	-63.0	3.8	7.46e-01	0	62	104	0	60	30429
2026-01-19 11:15:34.06	145.92	7.20	-45.0	-63.2	3.8	7.42e-01	0	63	104	0	60	31168
2026-01-19 11:15:35.07	145.89	7.29	-45.3	-62.9	3.9	7.45e-01	0	62	104	0	59	31905
2026-01-19 11:15:36.08	145.86	7.37	-45.4	-63.0	3.8	7.44e-01	0	62	104	0	59	32441
2026-01-19 11:15:37.09	145.82	7.45	-45.2	-63.5	3.9	7.49e-01	0	63	104	0	60	32194
2026-01-19 11:15:38.10	145.79	7.54	-43.9	-62.6	3.9	7.49e-01	0	62	104	0	60	29182
2026-01-19 11:15:39.11	145.75	7.62	-45.2	-63.2	3.8	7.42e-01	0	62	104	0	60	31423
2026-01-19 11:15:40.12	145.72	7.70	-45.1	-62.2	3.9	7.38e-01	0	62	104	0	60	27946
2026-01-19 11:15:41.13	145.69	7.79	-45.0	-62.4	3.8	7.47e-01	0	62	104	0	60	28425
2026-01-19 11:15:42.14	145.65	7.87	-42.0	-59.0	3.9	7.45e-01	0	63	104	0	55	25766
2026-01-19 11:15:43.15	145.62	7.96	-45.1	-60.1	4.2	7.35e-01	0	62	104	0	60	21990
2026-01-19 11:15:44.16	145.58	8.04	-45.0	-59.7	4.3	7.46e-01	0	62	104	0	60	20957
2026-01-19 11:15:45.17	145.55	8.13	-45.0	-58.0	5.1	7.04e-01	0	62	0	0	60	17238
2026-01-19 11:15:46.18	145.51	8.21	-44.8	-57.2	5.5	6.95e-01	29	62	0	0	60	15660
2026-01-19 11:15:47.19	145.47	8.30	-44.5	-56.4	5.8	6.85e-01	51	62	104	0	60	14242
2026-01-19 11:15:48.20	145.44	8.39	-44.8	-56.0	6.4	6.76e-01	92	62	0	524288	60	13692
2026-01-19 11:15:49.21	145.40	8.47	-44.4	-55.5	6.6	6.76e-01	92	62	0	2097152	60	12940
2026-01-19 11:15:50.22	145.37	8.56	-44.7	-55.5	6.3	6.73e-01	92	62	104	2621440	60	12959
2026-01-19 11:15:51.24	145.33	8.65	-44.8	-55.4	7.1	6.64e-01	90	62	0	4194304	60	12725
2026-01-19 11:15:52.25	145.29	8.74	-44.8	-56.5	4.3	7.28e-01	0	62	104	5242880	60	14427
2026-01-19 11:15:53.26	145.25	8.83	-44.9	-56.2	6.4	6.76e-01	90	62	0	6291456	60	13969
2026-01-19 11:15:54.27	145.22	8.91	-44.9	-56.9	5.8	6.89e-01	0	62	0	7864320	60	15150
2026-01-19 11:15:55.28	145.18	9.00	-43.9	-57.8	5.0	7.15e-01	0	62	104	7864320	59	17804
2026-01-19 11:15:56.29	145.14	9.09	-45.0	-59.4	4.0	7.38e-01	0	62	104	7864320	60	20300
2026-01-19 11:15:57.30	145.10	9.18	-43.5	-59.6	4.3	7.30e-01	0	62	104	7864320	60	20621
2026-01-19 11:15:58.31	145.06	9.27	-44.8	-59.8	3.9	7.42e-01	0	62	104	7864320	59	22425
2026-01-19 11:15:59.32	145.02	9.36	-44.4	-58.2	4.1	7.39e-01	0	62	104	7864320	60	17619
2026-01-19 11:16:00.33	144.98	9.45	-44.6	-55.4	6.9	6.65e-01	92	62	0	8388608	60	12725
2026-01-19 11:16:01.34	144.94	9.54	-44.4	-53.3	8.3	6.36e-01	15	62	0	10485760	60	10032
2026-01-19 11:16:02.35	144.90	9.63	-44.4	-51.8	11.0	6.15e-01	0	62	0	12058624	59	8956
2026-01-19 11:16:03.36	144.86	9.73	-44.1	-50.6	12.3	6.08e-01	0	62	0	14155776	58	8223
2026-01-19 11:16:04.37	144.82	9.82	-43.6	-49.3	13.2	6.13e-01	1	62	0	15728640	57	7525
2026-01-19 11:16:05.38	144.78	9.91	-43.0	-48.2	13.8	6.10e-01	1	62	0	17825792	56	6993
2026-01-19 11:16:06.39	144.74	10.00	-43.0	-47.7	15.3	6.08e-01	0	62	0	19922944	56	6607
2026-01-19 11:16:07.41	144.70	10.10	-42.9	-47.3	15.7	6.05e-01	0	62	0	21495808	56	6311
2026-01-19 11:16:08.42	144.66	10.19	-42.9	-47.5	15.7	6.06e-01	0	62	0	23592960	56	6430
2026-01-19 11:16:09.43	144.62	10.28	-43.9	-50.2	12.2	6.16e-01	0	62	0	25690112	58	7859
2026-01-19 11:16:10.44	144.57	10.38	-43.5	-49.1	11.7	6.16e-01	4	62	0	27262976	57	7297
2026-01-19 11:16:11.45	144.53	10.47	-43.2	-48.3	10.3	6.13e-01	39	62	0	29360128	56	7085
2026-01-19 11:16:12.46	144.49	10.57	-42.5	-47.0	15.0	6.05e-01	0	62	0	30932992	56	6131
2026-01-19 11:16:13.47	144.44	10.66	-44.1	-51.1	10.8	6.17e-01	1	62	104	31981568	59	8213
2026-01-19 11:16:14.48	144.40	10.76	-42.4	-46.5	15.5	6.07e-01	0	62	0	33554432	55	6105
2026-01-19 11:16:15.48	144.36	10.85	-42.3	-46.5	15.9	6.07e-01	1	62	0	35127296	54	6441
2026-01-19 11:16:16.49	144.31	10.95	-42.4	-46.5	15.0	6.07e-01	3	62	0	37224448	55	6101
2026-01-19 11:16:17.50	144.27	11.05	-40.9	-46.2	15.2	6.11e-01	1	62	0	39321600	54	6208
2026-01-19 11:16:18.51	144.22	11.15	-41.2	-46.2	13.3	6.07e-01	0	62	0	40894464	54	6221
2026-01-19 11:16:19.52	144.18	11.24	-41.8	-46.0	14.6	6.06e-01	3	62	0	42991616	54	6109
2026-01-19 11:16:20.53	144.13	11.34	-42.0	-46.0	16.7	6.07e-01	0	62	0	44564480	54	6070
2026-01-19 11:16:21.54	144.09	11.44	-41.6	-45.9	13.4	6.12e-01	6	62	0	46661632	54	6033
2026-01-19 11:16:22.55	144.04	11.54	-42.1	-46.0	16.5	6.07e-01	0	62	0	48758784	55	5785
2026-01-19 11:16:23.56	143.99	11.64	-41.8	-46.0	15.9	6.08e-01	3	62	0	50331648	54	6082
2026-01-19 11:16:24.57	143.95	11.74	-42.1	-45.9	16.9	6.08e-01	0	62	0	52428800	54	6020
2026-01-19 11:16:25.58	143.90	11.84	-41.7	-45.8	16.7	6.05e-01	0	62	0	54001664	54	5980
2026-01-19 11:16:26.60	143.85	11.94	-41.9	-45.8	14.7	6.13e-01	4	62	0	56098816	54	5950
2026-01-19 11:16:27.61	143.80	12.04	-41.7	-45.7	11.9	6.18e-01	19	62	0	58195968	53	6271
2026-01-19 11:16:28.62	143.75	12.14	-41.9	-45.5	16.8	6.06e-01	0	62	0	59768832	53	6062
2026-01-19 11:16:29.63	143.71	12.25	-41.9	-45.7	16.6	6.07e-01	0	62	0	61865984	54	5877
2026-01-19 11:16:30.64	143.66	12.35	-41.9	-45.5	17.3	6.04e-01	0	62	0	63438848	54	5773
2026-01-19 11:16:31.65	143.61	12.45	-41.8	-45.5	16.5	6.05e-01	2	62	0	65536000	54	5746
2026-01-19 11:16:32.66	143.56	12.56	-41.9	-45.4	17.2	6.06e-01	0	62	0	67633152	54	5684
2026-01-19 11:16:33.66	143.51	12.66	-41.9	-45.4	17.0	6.07e-01	0	62	0	69206016	54	5670
2026-01-19 11:16:34.67	143.46	12.76	-41.8	-45.4	17.0	6.10e-01	1	62	0	71303168	54	5666
2026-01-19 11:16:35.68	143.40	12.87	-42.0	-45.6	14.2	6.17e-01	11	62	0	73400320	54	5797
2026-01-19 11:16:36.69	143.35	12.97	-42.0	-45.4	17.2	6.04e-01	0	62	0	74973184	54	5685
2026-01-19 11:16:37.70	143.30	13.08	-41.7	-45.4	16.6	6.07e-01	0	62	0	77070336	54	5677
2026-01-19 11:16:38.71	143.25	13.19	-41.9	-45.3	17.3	6.04e-01	0	62	0	78643200	54	5639
2026-01-19 11:16:39.72	143.20	13.29	-41.9	-45.3	16.4	6.08e-01	1	62	0	80740352	54	5617
2026-01-19 11:16:40.73	143.14	13.40	-42.0	-45.5	16.6	6.07e-01	0	62	0	82837504	54	5777
2026-01-19 11:16:41.74	143.09	13.51	-39.8	-45.0	15.3	6.09e-01	1	62	0	84410368	52	6117
2026-01-19 11:16:42.75	143.03	13.62	-42.0	-45.3	16.5	6.07e-01	0	62	0	86507520	53	5973
2026-01-19 11:16:43.76	142.98	13.73	-42.0	-45.5	16.9	6.06e-01	0	62	0	88080384	54	5736
2026-01-19 11:16:44.77	142.92	13.84	-40.9	-45.4	15.0	6.06e-01	2	62	0	90177536	51	6725
2026-01-19 11:16:45.78	142.87	13.95	-40.7	-45.4	14.1	6.08e-01	11	62	0	92274688	53	5999
2026-01-19 11:16:46.79	142.81	14.06	-42.0	-45.6	17.2	6.07e-01	0	62	0	93847552	54	5833
2026-01-19 11:16:47.80	142.76	14.17	-42.0	-45.5	16.5	6.08e-01	2	62	0	95944704	54	5776
2026-01-19 11:16:48.81	142.70	14.28	-42.0	-45.6	13.3	6.09e-01	7	62	0	98041856	53	6158
2026-01-19 11:16:49.82	142.64	14.39	-42.0	-45.5	15.4	6.07e-01	3	62	0	99614720	54	5746
2026-01-19 11:16:50.83	142.58	14.51	-41.5	-45.5	17.2	6.07e-01	0	62	0	101711872	54	5748
2026-01-19 11:16:51.83	142.52	14.62	-41.9	-45.4	16.3	6.05e-01	0	62	0	103284736	54	5665
2026-01-19 11:16:52.84	142.47	14.73	-42.0	-45.4	17.6	6.06e-01	0	62	0	105381888	54	5688
2026-01-19 11:16:53.85	142.41	14.85	-41.3	-45.3	16.7	6.10e-01	0	62	0	107479040	54	5636
2026-01-19 11:16:54.86	142.35	14.96	-39.7	-45.3	15.9	6.07e-01	0	62	0	109051904	54	5623
2026-01-19 11:16:55.87	142.29	15.08	-37.6	-45.1	13.1	6.22e-01	21	62	0	111149056	50	6905
2026-01-19 11:16:56.88	142.22	15.19	-41.3	-45.2	14.5	6.06e-01	3	62	0	112721920	54	5578
2026-01-19 11:16:57.89	142.16	15.31	-41.4	-45.1	14.8	6.10e-01	1	62	0	114819072	53	5830
2026-01-19 11:16:58.90	142.10	15.43	-40.2	-44.6	16.2	6.08e-01	3	62	0	116391936	53	5477
2026-01-19 11:16:59.91	142.04	15.54	-41.6	-45.3	15.0	6.08e-01	4	62	0	118489088	54	5610
2026-01-19 11:17:00.92	141.97	15.66	-41.6	-45.2	15.1	6.10e-01	5	62	0	120586240	54	5532
2026-01-19 11:17:01.93	141.91	15.78	-37.2	-44.5	10.5	6.22e-01	34	62	0	122159104	46	8167
2026-01-19 11:17:02.94	141.85	15.90	-41.5	-45.1	14.1	6.12e-01	11	62	0	124256256	54	5468
2026-01-19 11:17:03.95	141.78	16.02	-41.6	-44.8	16.4	6.07e-01	0	62	0	125829120	53	5606
2026-01-19 11:17:04.96	141.72	16.14	-41.8	-45.0	18.0	6.07e-01	0	62	0	127926272	54	5458
2026-01-19 11:17:05.97	141.65	16.26	-36.1	-44.9	9.0	6.24e-01	69	62	0	130023424	45	9056
2026-01-19 11:17:06.98	141.58	16.39	-41.4	-44.7	17.9	6.07e-01	2	62	0	131596288	53	5567
2026-01-19 11:17:07.99	141.52	16.51	-41.9	-45.2	17.6	6.05e-01	0	62	0	133693440	54	5543
2026-01-19 11:17:09.00	141.45	16.63	-41.9	-45.1	17.7	6.06e-01	0	62	0	135790592	54	5491
2026-01-19 11:17:10.00	141.38	16.76	-40.9	-45.0	16.1	6.08e-01	1	62	0	137363456	53	5734
2026-01-19 11:17:11.01	141.31	16.88	-41.9	-45.1	16.8	6.08e-01	2	62	0	139460608	54	5483
2026-01-19 11:17:12.02	141.24	17.01	-40.2	-45.0	14.7	6.13e-01	9	62	0	141033472	54	5460
2026-01-19 11:17:13.03	141.17	17.13	-41.6	-45.1	15.3	6.10e-01	5	62	0	143130624	53	5802
2026-01-19 11:17:14.04	141.10	17.26	-41.5	-45.1	16.4	6.05e-01	2	62	0	145227776	54	5516
2026-01-19 11:17:15.05	141.03	17.39	-38.6	-44.8	14.9	6.07e-01	15	62	0	146800640	53	5640
2026-01-19 11:17:16.06	140.96	17.52	-41.8	-45.1	17.0	6.06e-01	4	62	0	148897792	53	5801
2026-01-19 11:17:17.07	140.88	17.64	-41.9	-45.2	16.3	6.07e-01	4	62	0	150470656	54	5554
2026-01-19 11:17:18.08	140.81	17.77	-41.6	-45.1	15.7	6.08e-01	5	62	0	152567808	54	5524
2026-01-19 11:17:19.09	140.73	17.90	-41.9	-45.4	15.7	6.09e-01	5	62	0	154664960	54	5668
2026-01-19 11:17:20.10	140.66	18.04	-41.4	-45.4	16.7	6.08e-01	0	62	0	156237824	54	5689
2026-01-19 11:17:21.11	140.58	18.17	-42.1	-45.5	17.0	6.08e-01	2	63	0	158334976	54	5742
2026-01-19 11:17:22.12	140.51	18.30	-42.2	-45.6	17.3	6.07e-01	0	62	0	160432128	54	5810
2026-01-19 11:17:23.13	140.43	18.43	-41.4	-45.5	17.1	6.08e-01	2	62	0	162004992	54	5751
2026-01-19 11:17:24.14	140.35	18.57	-42.1	-45.2	16.0	6.06e-01	4	62	0	164102144	53	5898
2026-01-19 11:17:25.15	140.27	18.70	-41.9	-45.8	13.1	6.27e-01	20	62	0	165675008	54	5979
2026-01-19 11:17:26.16	140.19	18.84	-42.2	-45.6	16.6	6.09e-01	2	62	0	167772160	55	5499
2026-01-19 11:17:27.17	140.11	18.97	-42.2	-45.5	17.6	6.09e-01	0	62	0	169869312	54	5775
2026-01-19 11:17:28.18	140.03	19.11	-42.1	-45.5	17.5	6.06e-01	1	62	0	171442176	54	5746
2026-01-19 11:17:29.19	139.95	19.25	-42.2	-45.5	17.3	6.04e-01	0	62	0	173539328	54	5783
2026-01-19 11:17:30.20	139.87	19.39	-42.2	-45.5	18.2	6.07e-01	0	62	0	175112192	54	5752
2026-01-19 11:17:31.21	139.78	19.53	-42.2	-45.4	18.1	6.07e-01	0	62	0	177209344	54	5718
2026-01-19 11:17:32.22	139.70	19.67	-42.1	-45.4	18.0	6.07e-01	0	62	0	179306496	54	5672
2026-01-19 11:17:33.23	139.61	19.81	-42.0	-45.2	18.4	6.05e-01	0	62	0	180879360	54	5553
2026-01-19 11:17:34.24	139.53	19.95	-42.1	-45.3	18.4	6.07e-01	0	62	0	182976512	54	5609
2026-01-19 11:17:35.25	139.44	20.09	-42.0	-45.2	18.5	6.07e-01	0	62	0	184549376	54	5559
2026-01-19 11:17:36.26	139.35	20.23	-41.9	-45.2	17.5	6.08e-01	0	62	0	186646528	54	5563
2026-01-19 11:17:37.26	139.26	20.38	-41.8	-45.3	18.4	6.06e-01	0	62	0	188743680	54	5625
2026-01-19 11:17:38.27	139.17	20.52	-42.2	-45.4	17.9	6.08e-01	0	62	0	190316544	54	5700
2026-01-19 11:17:39.28	139.08	20.67	-42.0	-45.5	17.1	6.07e-01	0	62	0	192413696	55	5431
2026-01-19 11:17:40.29	138.99	20.82	-42.3	-45.6	18.2	6.06e-01	0	62	0	193986560	55	5482
2026-01-19 11:17:41.30	138.90	20.96	-42.3	-45.7	18.1	6.06e-01	0	62	0	196083712	55	5539
2026-01-19 11:17:42.31	138.80	21.11	-42.4	-45.7	17.9	6.07e-01	0	62	0	198180864	55	5584
2026-01-19 11:17:43.32	138.71	21.26	-42.4	-45.8	18.0	6.08e-01	0	62	0	199753728	55	5620
2026-01-19 11:17:44.33	138.61	21.41	-42.4	-45.7	18.1	6.09e-01	0	62	0	201850880	55	5572
2026-01-19 11:17:45.34	138.52	21.56	-42.3	-45.7	18.0	6.07e-01	0	62	0	203423744	55	5542
2026-01-19 11:17:46.35	138.42	21.71	-42.3	-45.6	18.2	6.07e-01	0	62	0	205520896	55	5514
2026-01-19 11:17:47.36	138.32	21.87	-42.3	-45.6	18.3	6.05e-01	0	62	0	207618048	55	5467
2026-01-19 11:17:48.37	138.22	22.02	-42.3	-45.5	18.3	6.06e-01	0	62	0	209190912	55	5449
2026-01-19 11:17:49.38	138.12	22.18	-42.3	-45.6	18.3	6.07e-01	0	62	0	211288064	55	5472
2026-01-19 11:17:50.39	138.02	22.33	-42.3	-45.6	18.3	6.07e-01	0	62	0	213385216	55	5506
2026-01-19 11:17:51.40	137.92	22.49	-42.4	-45.7	18.2	6.02e-01	0	62	0	214958080	55	5541
2026-01-19 11:17:52.41	137.81	22.65	-42.4	-45.7	18.1	6.06e-01	0	62	0	217055232	55	5536
2026-01-19 11:17:53.42	137.71	22.81	-42.4	-45.8	18.1	6.07e-01	0	62	0	218628096	55	5605
2026-01-19 11:17:54.43	137.60	22.97	-42.4	-45.8	18.1	6.08e-01	0	62	0	220725248	55	5596
2026-01-19 11:17:55.44	137.49	23.13	-42.5	-45.9	18.0	6.04e-01	0	62	0	222822400	55	5675
2026-01-19 11:17:56.45	137.39	23.29	-42.5	-45.9	18.0	6.08e-01	0	62	0	224395264	55	5708
2026-01-19 11:17:57.45	137.28	23.45	-42.5	-45.9	17.9	6.07e-01	0	62	0	226492416	55	5713
2026-01-19 11:17:58.46	137.17	23.61	-42.5	-45.8	18.1	6.06e-01	0	62	0	228589568	55	5647
2026-01-19 11:17:59.47	137.05	23.78	-42.5	-45.9	18.0	6.07e-01	0	62	0	230162432	55	5704
2026-01-19 11:18:00.48	136.94	23.94	-42.5	-45.9	17.9	6.05e-01	0	62	0	232259584	55	5721
2026-01-19 11:18:01.49	136.82	24.11	-42.5	-45.9	18.0	6.05e-01	0	62	0	233832448	55	5703
2026-01-19 11:18:02.50	136.71	24.28	-42.5	-45.9	18.0	6.06e-01	0	62	0	235929600	55	5693
2026-01-19 11:18:03.51	136.59	24.45	-42.5	-45.8	18.0	6.07e-01	0	62	0	238026752	55	5649
2026-01-19 11:18:04.52	136.47	24.61	-42.4	-45.7	18.2	6.06e-01	0	62	0	239599616	55	5555
2026-01-19 11:18:05.53	136.35	24.79	-42.3	-45.6	18.2	6.07e-01	0	62	0	241696768	55	5485
2026-01-19 11:18:06.54	136.23	24.96	-42.4	-45.7	18.2	6.06e-01	0	62	0	243269632	55	5558
2026-01-19 11:18:07.55	136.11	25.13	-42.5	-45.8	18.0	6.07e-01	0	62	0	245366784	55	5653
2026-01-19 11:18:08.56	135.98	25.30	-42.5	-45.9	17.8	6.08e-01	0	62	0	247463936	55	5708
2026-01-19 11:18:09.57	135.86	25.48	-42.6	-46.0	17.8	6.04e-01	0	62	0	249036800	55	5772
2026-01-19 11:18:10.58	135.73	25.66	-42.6	-46.0	17.8	6.07e-01	0	62	0	251133952	55	5777
2026-01-19 11:18:11.59	135.60	25.83	-42.5	-45.9	17.6	6.08e-01	0	62	0	252706816	55	5703
2026-01-19 11:18:12.60	135.47	26.01	-42.5	-45.9	17.5	6.04e-01	0	62	0	254803968	55	5693
2026-01-19 11:18:13.61	135.34	26.19	-42.6	-45.9	18.0	6.07e-01	0	62	0	256901120	55	5713
2026-01-19 11:18:14.62	135.20	26.37	-42.4	-45.6	18.1	6.05e-01	0	62	0	258473984	55	5505
2026-01-19 11:18:15.63	135.07	26.55	-42.1	-45.2	18.7	6.08e-01	0	62	0	260571136	55	5246
2026-01-19 11:18:16.64	134.93	26.74	-42.1	-45.1	18.8	6.06e-01	0	62	0	262144000	55	5214
2026-01-19 11:18:17.64	134.79	26.92	-42.1	-45.2	18.8	6.05e-01	0	62	0	264241152	55	5257
2026-01-19 11:18:18.65	134.65	27.11	-42.2	-45.4	18.6	6.05e-01	0	62	0	266338304	55	5349
2026-01-19 11:18:19.66	134.51	27.29	-42.3	-45.5	18.3	6.05e-01	0	62	0	267911168	55	5412
2026-01-19 11:18:20.67	134.37	27.48	-42.3	-45.4	18.3	6.08e-01	0	62	0	270008320	55	5393
2026-01-19 11:18:21.68	134.22	27.67	-42.3	-45.4	18.1	6.09e-01	0	62	0	271581184	55	5392
2026-01-19 11:18:22.69	134.07	27.86	-42.2	-45.3	18.5	6.05e-01	0	62	0	273678336	55	5298
2026-01-19 11:18:23.70	133.93	28.05	-42.2	-45.2	18.8	6.08e-01	0	62	0	275775488	55	5269
2026-01-19 11:18:24.71	133.77	28.24	-42.1	-45.2	17.8	6.08e-01	0	62	0	277348352	55	5275
2026-01-19 11:18:25.72	133.62	28.44	-42.1	-45.2	18.8	6.05e-01	0	62	0	279445504	55	5222
2026-01-19 11:18:26.73	133.47	28.63	-42.1	-45.1	18.8	6.06e-01	0	62	0	281542656	55	5215
2026-01-19 11:18:27.74	133.31	28.83	-42.1	-45.1	18.8	6.08e-01	0	62	0	283115520	55	5209
2026-01-19 11:18:28.75	133.15	29.03	-42.1	-45.1	18.8	6.08e-01	0	62	0	285212672	55	5207
2026-01-19 11:18:29.76	132.99	29.22	-42.1	-45.1	18.9	6.07e-01	0	62	0	286785536	55	5217
2026-01-19 11:18:30.77	132.82	29.42	-42.0	-45.0	19.0	6.05e-01	0	62	0	288882688	55	5140
2026-01-19 11:18:31.77	132.66	29.62	-42.0	-45.1	19.0	6.06e-01	0	62	0	290979840	55	5164
2026-01-19 11:18:32.78	132.49	29.83	-42.0	-45.0	18.9	6.04e-01	0	62	0	292552704	55	5130
2026-01-19 11:18:33.80	132.32	30.03	-42.0	-45.0	19.1	6.07e-01	0	62	0	294649856	55	5113
2026-01-19 11:18:34.81	132.15	30.24	-42.0	-45.0	19.1	6.07e-01	0	62	0	296747008	55	5110
2026-01-19 11:18:35.81	131.98	30.44	-42.1	-45.1	19.0	6.04e-01	0	62	0	298319872	55	5189
2026-01-19 11:18:36.82	131.80	30.65	-42.0	-45.0	18.9	6.07e-01	0	62	0	300417024	55	5147
2026-01-19 11:18:37.83	131.62	30.86	-42.0	-45.0	19.1	6.06e-01	0	62	0	301989888	55	5102
2026-01-19 11:18:38.84	131.44	31.07	-42.0	-45.0	19.1	6.08e-01	0	62	0	304087040	55	5143
2026-01-19 11:18:39.85	131.25	31.28	-42.0	-45.1	19.0	6.05e-01	0	62	0	306184192	55	5168
2026-01-19 11:18:40.86	131.07	31.49	-41.9	-44.9	19.1	6.03e-01	0	62	0	307757056	55	5045
2026-01-19 11:18:41.87	130.88	31.71	-41.9	-44.8	19.3	6.07e-01	0	62	0	309854208	55	5012
2026-01-19 11:18:42.88	130.69	31.92	-41.9	-44.9	19.2	6.05e-01	0	62	0	311427072	55	5059
2026-01-19 11:18:43.89	130.49	32.14	-41.9	-44.9	19.2	6.07e-01	0	62	0	313524224	55	5054
2026-01-19 11:18:44.90	130.29	32.36	-42.0	-45.0	18.9	6.07e-01	0	62	0	315621376	55	5118
2026-01-19 11:18:45.91	130.09	32.58	-42.1	-45.0	19.1	6.05e-01	0	62	0	317194240	55	5153
2026-01-19 11:18:46.92	129.89	32.80	-42.0	-45.0	19.1	6.06e-01	0	62	0	319291392	55	5112
2026-01-19 11:18:47.93	129.69	33.02	-42.1	-45.1	19.0	6.07e-01	0	62	0	320864256	55	5213
2026-01-19 11:18:48.94	129.48	33.24	-42.3	-45.4	18.7	6.08e-01	0	62	0	322961408	55	5345
2026-01-19 11:18:49.95	129.27	33.47	-42.5	-45.7	18.4	6.05e-01	0	62	0	325058560	55	5540
2026-01-19 11:18:50.96	129.05	33.69	-42.4	-45.6	18.5	6.04e-01	0	62	0	326631424	55	5473
2026-01-19 11:18:51.97	128.83	33.92	-42.3	-45.4	18.7	6.03e-01	0	62	0	328728576	55	5380
2026-01-19 11:18:52.98	128.61	34.15	-42.3	-45.4	18.7	6.08e-01	0	62	0	330301440	55	5367
2026-01-19 11:18:53.99	128.39	34.38	-42.3	-45.4	18.6	6.06e-01	0	62	0	332398592	55	5402
2026-01-19 11:18:55.00	128.16	34.61	-42.5	-45.7	18.4	6.07e-01	0	62	0	334495744	55	5575
2026-01-19 11:18:56.01	127.93	34.84	-42.7	-46.1	18.1	6.06e-01	0	62	0	336068608	55	5804
2026-01-19 11:18:57.02	127.69	35.08	-43.0	-46.5	17.8	6.05e-01	0	62	0	338165760	56	5746
2026-01-19 11:18:58.03	127.46	35.31	-43.0	-46.5	17.7	6.05e-01	0	62	0	339738624	56	5759
2026-01-19 11:18:59.04	127.21	35.55	-42.9	-46.4	17.8	6.07e-01	0	62	0	341835776	56	5677
2026-01-19 11:19:00.05	126.97	35.79	-42.9	-46.3	18.0	6.07e-01	0	62	0	343932928	56	5609
2026-01-19 11:19:01.05	126.72	36.02	-42.8	-46.2	18.1	6.08e-01	0	62	0	345505792	56	5531
2026-01-19 11:19:02.06	126.47	36.26	-42.9	-46.3	17.9	6.09e-01	0	62	0	347602944	56	5638
2026-01-19 11:19:03.07	126.21	36.51	-43.2	-46.9	17.3	6.08e-01	0	62	0	349700096	56	6014
2026-01-19 11:19:04.08	125.95	36.75	-43.2	-47.0	17.3	6.07e-01	0	62	0	351272960	57	5727
2026-01-19 11:19:05.09	125.69	36.99	-43.2	-46.9	17.3	6.04e-01	0	62	0	353370112	57	5691
2026-01-19 11:19:06.10	125.42	37.24	-43.3	-47.0	17.3	6.06e-01	0	62	0	354942976	57	5748
2026-01-19 11:19:07.11	125.14	37.49	-43.2	-46.8	17.4	6.07e-01	0	62	0	357040128	57	5640
2026-01-19 11:19:08.12	124.87	37.73	-43.3	-47.0	17.2	6.04e-01	0	62	0	359137280	57	5736
2026-01-19 11:19:09.13	124.59	37.98	-43.4	-47.2	17.0	6.08e-01	0	62	0	360710144	57	5916
2026-01-19 11:19:10.14	124.30	38.23	-43.4	-47.2	17.0	6.07e-01	0	62	0	362807296	57	5856
2026-01-19 11:19:11.15	124.01	38.48	-43.3	-47.1	17.2	6.05e-01	0	62	0	364904448	57	5795
2026-01-19 11:19:12.16	123.71	38.74	-43.3	-47.0	17.2	6.05e-01	0	62	0	366477312	57	5748
2026-01-19 11:19:13.17	123.41	38.99	-43.4	-47.3	17.0	6.05e-01	0	62	0	368574464	57	5924
2026-01-19 11:19:14.18	123.11	39.24	-43.5	-47.4	16.8	6.07e-01	0	62	0	370147328	57	6053
2026-01-19 11:19:15.19	122.80	39.50	-43.4	-47.2	17.0	6.07e-01	0	62	0	372244480	57	5860
2026-01-19 11:19:16.20	122.48	39.76	-43.3	-47.0	17.2	6.07e-01	0	62	0	373817344	57	5781
2026-01-19 11:19:17.21	122.16	40.01	-43.6	-47.5	16.7	6.06e-01	0	62	0	375914496	57	6128
2026-01-19 11:19:18.22	121.84	40.27	-43.2	-46.9	17.3	6.08e-01	0	62	0	378011648	57	5695
2026-01-19 11:19:19.22	121.51	40.53	-43.1	-46.7	17.5	6.07e-01	0	62	0	379584512	57	5588
2026-01-19 11:19:20.23	121.17	40.79	-43.3	-47.0	17.2	6.04e-01	0	62	0	381681664	57	5786
2026-01-19 11:19:21.24	120.83	41.05	-43.4	-47.3	16.7	6.05e-01	0	62	0	383254528	57	5961
2026-01-19 11:19:22.25	120.48	41.31	-43.2	-46.9	17.4	6.07e-01	0	62	0	385351680	57	5677
2026-01-19 11:19:23.26	120.13	41.58	-43.2	-46.8	17.4	6.07e-01	0	62	0	387448832	57	5632
2026-01-19 11:19:24.27	119.77	41.84	-43.2	-46.9	17.4	6.04e-01	0	62	0	389021696	57	5687
2026-01-19 11:19:25.28	119.41	42.11	-43.1	-46.6	17.7	6.07e-01	0	62	0	391118848	57	5483
2026-01-19 11:19:26.29	119.03	42.37	-43.0	-46.5	17.8	6.06e-01	0	62	0	393216000	57	5433
2026-01-19 11:19:27.30	118.66	42.64	-43.1	-46.7	17.5	6.08e-01	0	62	0	394788864	57	5581
2026-01-19 11:19:28.31	118.27	42.90	-43.2	-46.9	17.4	6.07e-01	0	62	0	396886016	57	5664
2026-01-19 11:19:29.32	117.88	43.17	-43.0	-46.5	17.8	6.08e-01	0	62	0	398458880	57	5419
2026-01-19 11:19:30.32	117.49	43.43	-43.0	-46.4	17.9	6.06e-01	0	62	0	400556032	57	5388
2026-01-19 11:19:31.33	117.08	43.70	-42.9	-46.4	17.9	6.07e-01	0	62	0	402653184	57	5353
2026-01-19 11:19:32.34	116.67	43.97	-43.2	-46.8	17.5	6.06e-01	0	62	0	404226048	57	5613
2026-01-19 11:19:33.35	116.25	44.24	-43.0	-46.5	17.7	6.08e-01	0	62	0	406323200	57	5453
2026-01-19 11:19:34.36	115.83	44.51	-42.9	-46.3	18.0	6.05e-01	0	62	0	407896064	57	5305
2026-01-19 11:19:35.37	115.39	44.78	-42.9	-46.3	18.0	6.05e-01	0	62	0	409993216	57	5306
2026-01-19 11:19:36.38	114.95	45.04	-43.0	-46.5	17.8	6.08e-01	0	62	0	412090368	57	5419
2026-01-19 11:19:37.39	114.51	45.31	-43.1	-46.7	17.6	6.07e-01	0	62	0	413663232	57	5563
2026-01-19 11:19:38.40	114.05	45.58	-43.1	-46.6	17.6	6.07e-01	0	62	0	415760384	57	5503
2026-01-19 11:19:39.41	113.59	45.85	-43.0	-46.5	17.8	6.07e-01	0	62	0	417857536	57	5443
2026-01-19 11:19:40.42	113.11	46.12	-43.0	-46.4	17.9	6.06e-01	0	62	0	419430400	57	5374
2026-01-19 11:19:41.43	112.63	46.39	-43.1	-46.7	17.7	6.04e-01	0	62	0	421527552	57	5529
2026-01-19 11:19:42.44	112.14	46.65	-43.2	-46.9	17.4	6.07e-01	0	62	0	423100416	57	5666
2026-01-19 11:19:43.45	111.65	46.92	-43.0	-46.4	17.8	6.07e-01	0	62	0	425197568	57	5394
2026-01-19 11:19:44.46	111.14	47.19	-43.0	-46.4	17.9	6.05e-01	0	62	0	427294720	57	5366
2026-01-19 11:19:45.47	110.63	47.45	-43.3	-47.1	17.2	6.07e-01	0	62	0	428867584	57	5797
2026-01-19 11:19:46.48	110.10	47.72	-43.2	-46.8	17.5	6.05e-01	0	62	0	430964736	57	5641
2026-01-19 11:19:47.49	109.57	47.98	-43.1	-46.6	17.7	6.07e-01	0	62	0	432537600	57	5489
2026-01-19 11:19:48.50	109.03	48.25	-43.2	-46.9	17.5	6.08e-01	0	62	0	434634752	57	5659
2026-01-19 11:19:49.50	108.48	48.50	-43.4	-47.1	17.2	6.08e-01	0	62	0	436731904	57	5835
2026-01-19 11:19:50.51	107.92	48.76	-43.2	-46.8	17.4	6.04e-01	0	62	0	438304768	57	5650
2026-01-19 11:19:51.52	107.35	49.02	-43.2	-46.9	17.5	6.08e-01	0	62	0	440401920	57	5663
2026-01-19 11:19:52.53	106.77	49.28	-43.4	-47.1	17.2	6.08e-01	0	62	0	441974784	57	5806
2026-01-19 11:19:53.54	106.18	49.54	-43.4	-47.2	17.1	6.08e-01	0	62	0	444071936	57	5871
2026-01-19 11:19:54.55	105.58	49.79	-42.9	-46.3	18.0	6.06e-01	0	62	0	446169088	57	5312
2026-01-19 11:19:55.56	104.97	50.04	-42.9	-46.3	18.0	6.06e-01	0	62	0	447741952	57	5329
2026-01-19 11:19:56.57	104.35	50.29	-43.2	-46.7	17.6	6.07e-01	0	62	0	449839104	57	5589
2026-01-19 11:19:57.58	103.71	50.54	-43.2	-46.8	17.5	6.07e-01	0	62	0	451411968	57	5629
2026-01-19 11:19:58.59	103.07	50.79	-43.1	-46.6	17.7	6.03e-01	0	62	0	453509120	57	5501
2026-01-19 11:19:59.60	102.42	51.03	-43.2	-46.8	17.5	6.08e-01	0	62	0	455606272	57	5647
2026-01-19 11:20:00.59	101.77	51.27	-43.1	-46.5	17.9	6.07e-01	0	62	0	457179136	57	5444
2026-01-19 11:20:01.60	101.09	51.50	-43.2	-46.7	17.7	6.07e-01	0	62	0	459276288	57	5543
2026-01-19 11:20:02.61	100.41	51.74	-42.7	-45.9	18.5	6.07e-01	0	62	0	461373440	57	5061
2026-01-19 11:20:03.62	99.71	51.97	-42.9	-46.2	18.2	6.07e-01	0	62	0	462946304	57	5238
2026-01-19 11:20:04.63	99.01	52.20	-43.1	-46.6	17.8	6.08e-01	0	62	0	465043456	57	5470
2026-01-19 11:20:05.64	98.29	52.42	-42.9	-46.2	18.2	6.08e-01	0	62	0	466616320	57	5255
2026-01-19 11:20:06.65	97.56	52.64	-42.8	-46.1	18.3	6.07e-01	0	62	0	468713472	57	5192
2026-01-19 11:20:07.66	96.82	52.86	-43.1	-46.6	17.8	6.06e-01	0	62	0	470810624	57	5495
2026-01-19 11:20:08.67	96.07	53.08	-42.8	-46.0	18.3	6.06e-01	0	62	0	472383488	57	5154
2026-01-19 11:20:09.68	95.31	53.29	-42.7	-45.9	18.5	6.09e-01	0	62	0	474480640	57	5069
2026-01-19 11:20:10.69	94.53	53.49	-42.9	-46.2	18.3	6.06e-01	0	62	0	476053504	57	5232
2026-01-19 11:20:11.70	93.75	53.69	-42.7	-45.9	18.5	6.07e-01	0	62	0	478150656	57	5055
2026-01-19 11:20:12.71	92.96	53.89	-42.7	-45.9	18.6	6.05e-01	0	62	0	480247808	57	5046
2026-01-19 11:20:13.72	92.15	54.08	-42.8	-45.9	18.5	6.05e-01	0	62	0	481820672	57	5094
2026-01-19 11:20:14.73	91.33	54.26	-42.7	-45.9	18.6	6.04e-01	0	62	0	483917824	57	5049
2026-01-19 11:20:15.74	90.51	54.44	-42.8	-46.0	18.5	6.07e-01	0	62	0	485490688	57	5104
2026-01-19 11:20:16.75	89.67	54.62	-42.8	-46.0	18.4	6.08e-01	0	62	0	487587840	57	5121
2026-01-19 11:20:17.76	88.82	54.79	-42.8	-45.9	18.5	6.04e-01	0	62	0	489684992	57	5083
2026-01-19 11:20:18.77	87.96	54.95	-43.1	-46.4	18.1	6.07e-01	0	62	0	491257856	57	5395
2026-01-19 11:20:19.78	87.10	55.11	-42.9	-46.1	18.3	6.08e-01	0	62	0	493355008	57	5198
2026-01-19 11:20:20.79	86.22	55.26	-43.0	-46.4	18.1	6.06e-01	0	62	0	494927872	57	5349
2026-01-19 11:20:21.80	85.33	55.41	-43.2	-46.6	17.9	6.05e-01	0	62	0	497025024	57	5501
2026-01-19 11:20:22.80	84.44	55.55	-43.1	-46.4	18.0	6.07e-01	0	62	0	499122176	57	5401
2026-01-19 11:20:23.81	83.54	55.68	-43.2	-46.7	17.8	6.06e-01	0	62	0	500695040	57	5546
2026-01-19 11:20:24.82	82.63	55.81	-43.0	-46.4	18.0	6.06e-01	0	62	0	502792192	57	5372
2026-01-19 11:20:25.83	81.71	55.92	-43.2	-46.7	17.8	6.05e-01	0	62	0	504365056	57	5549
2026-01-19 11:20:26.84	80.78	56.04	-43.1	-46.5	17.9	6.05e-01	0	62	0	506462208	57	5445
2026-01-19 11:20:27.85	79.84	56.14	-43.1	-46.5	18.0	6.05e-01	0	62	0	508559360	57	5445
2026-01-19 11:20:28.86	78.90	56.24	-43.0	-46.3	18.2	6.04e-01	0	62	0	510132224	57	5286
2026-01-19 11:20:29.87	77.95	56.33	-43.1	-46.5	18.0	6.07e-01	0	62	0	512229376	57	5423
2026-01-19 11:20:30.88	76.99	56.41	-43.3	-46.8	17.6	6.06e-01	0	62	0	514326528	57	5645
2026-01-19 11:20:31.89	76.03	56.49	-43.0	-46.4	18.1	6.05e-01	0	62	0	515899392	57	5345
2026-01-19 11:20:32.90	75.07	56.56	-43.4	-47.0	17.5	6.08e-01	0	62	0	517996544	57	5755
2026-01-19 11:20:33.91	74.10	56.62	-43.2	-46.6	17.8	6.06e-01	0	62	0	519569408	57	5496
2026-01-19 11:20:34.92	73.12	56.67	-43.3	-46.8	17.7	6.06e-01	0	62	0	521666560	57	5632
2026-01-19 11:20:35.93	72.15	56.71	-43.3	-47.0	17.5	6.06e-01	0	62	0	523763712	57	5727
2026-01-19 11:20:36.94	71.17	56.75	-43.4	-47.0	17.5	6.07e-01	0	62	0	525336576	57	5747
2026-01-19 11:20:37.95	70.18	56.78	-43.3	-46.8	17.6	6.06e-01	0	62	0	527433728	57	5633
2026-01-19 11:20:38.96	69.20	56.80	-43.1	-46.5	17.9	6.06e-01	0	62	0	529530880	57	5438
2026-01-19 11:20:39.97	68.21	56.81	-43.5	-47.2	17.2	6.07e-01	0	62	0	531103744	57	5875
2026-01-19 11:20:40.98	67.23	56.81	-43.2	-46.7	17.8	6.07e-01	0	62	0	533200896	57	5529
2026-01-19 11:20:41.99	66.24	56.81	-43.2	-46.6	17.8	6.07e-01	0	62	0	534773760	57	5505
2026-01-19 11:20:43.00	65.26	56.79	-43.2	-46.7	17.7	6.05e-01	0	62	0	536870912	57	5552
2026-01-19 11:20:44.01	64.27	56.77	-43.3	-46.9	17.5	6.05e-01	0	62	0	538968064	57	5715
2026-01-19 11:20:45.02	63.29	56.74	-43.0	-46.3	18.1	6.07e-01	0	62	0	540540928	57	5332
2026-01-19 11:20:46.03	62.31	56.71	-43.2	-46.6	17.8	6.05e-01	0	62	0	542638080	57	5495
2026-01-19 11:20:47.04	61.33	56.66	-43.4	-47.1	17.3	6.07e-01	0	62	0	544210944	57	5826
2026-01-19 11:20:48.05	60.36	56.61	-43.4	-47.0	17.4	6.07e-01	0	62	0	546308096	57	5744
2026-01-19 11:20:49.05	59.40	56.55	-42.8	-46.0	18.4	6.05e-01	0	62	0	548405248	57	5136
2026-01-19 11:20:50.06	58.43	56.48	-43.4	-47.0	17.4	6.06e-01	0	62	0	549978112	57	5775
2026-01-19 11:20:51.07	57.47	56.41	-43.2	-46.7	17.7	6.04e-01	0	62	0	552075264	57	5532
2026-01-19 11:20:52.08	56.52	56.32	-42.8	-46.0	18.4	6.04e-01	0	62	0	553648128	57	5122
2026-01-19 11:20:53.09	55.57	56.23	-43.2	-46.6	17.8	6.08e-01	0	62	0	555745280	57	5526
2026-01-19 11:20:54.10	54.63	56.13	-43.4	-47.2	17.2	6.05e-01	0	62	0	557842432	57	5862
2026-01-19 11:20:55.11	53.70	56.03	-42.8	-46.0	18.4	6.06e-01	0	62	0	559415296	57	5135
2026-01-19 11:20:56.12	52.77	55.92	-43.0	-46.4	18.0	6.07e-01	0	62	0	561512448	57	5391
2026-01-19 11:20:57.13	51.85	55.80	-43.4	-47.1	17.3	6.07e-01	0	62	0	563085312	57	5795
2026-01-19 11:20:58.14	50.94	55.67	-42.5	-45.6	18.8	6.07e-01	0	62	0	565182464	57	4874
2026-01-19 11:20:59.15	50.04	55.54	-42.6	-45.6	18.8	6.07e-01	0	62	0	567279616	56	5211
2026-01-19 11:21:00.16	49.14	55.40	-42.9	-46.2	18.2	6.07e-01	0	62	0	568852480	56	5540
2026-01-19 11:21:01.17	48.26	55.25	-42.8	-46.1	18.3	6.05e-01	0	62	0	570949632	56	5490
2026-01-19 11:21:02.18	47.38	55.10	-42.6	-45.7	18.7	6.07e-01	0	62	0	572522496	56	5265
2026-01-19 11:21:03.19	46.52	54.94	-42.8	-46.1	18.3	6.08e-01	0	62	0	574619648	56	5492
2026-01-19 11:21:04.20	45.66	54.78	-42.9	-46.3	18.0	6.06e-01	0	62	0	576716800	56	5651
2026-01-19 11:21:05.21	44.82	54.61	-43.0	-46.3	18.0	6.06e-01	0	62	0	578289664	56	5655
2026-01-19 11:21:06.22	43.98	54.43	-42.6	-45.8	18.5	6.06e-01	0	62	0	580386816	56	5309
2026-01-19 11:21:07.23	43.16	54.25	-42.5	-45.6	18.8	6.06e-01	0	62	0	582483968	56	5164
2026-01-19 11:21:08.24	42.34	54.06	-42.7	-45.9	18.5	6.08e-01	0	62	0	584056832	56	5362
2026-01-19 11:21:09.25	41.54	53.87	-42.6	-45.7	18.6	6.09e-01	0	62	0	586153984	56	5273
2026-01-19 11:21:10.26	40.75	53.68	-42.3	-45.2	19.1	6.07e-01	0	62	0	587726848	56	4961
2026-01-19 11:21:11.27	39.96	53.48	-42.6	-45.7	18.7	6.07e-01	0	62	0	589824000	56	5269
2026-01-19 11:21:12.28	39.19	53.27	-42.3	-45.2	19.1	6.08e-01	0	62	0	591921152	56	4975
2026-01-19 11:21:13.29	38.43	53.06	-42.2	-45.1	19.3	6.07e-01	0	62	0	593494016	56	4887
2026-01-19 11:21:14.30	37.68	52.85	-42.1	-44.9	19.5	6.06e-01	0	62	0	595591168	56	4800
2026-01-19 11:21:15.31	36.95	52.63	-42.5	-45.5	18.9	6.07e-01	0	62	0	597688320	56	5130
2026-01-19 11:21:16.32	36.22	52.41	-42.5	-45.6	18.8	6.07e-01	0	62	0	599261184	56	5173
2026-01-19 11:21:17.33	35.50	52.19	-42.1	-45.0	19.4	6.08e-01	0	62	0	601358336	56	4817
2026-01-19 11:21:18.34	34.80	51.96	-42.5	-45.5	18.8	6.07e-01	0	62	0	602931200	56	5158
2026-01-19 11:21:19.34	34.11	51.73	-42.5	-45.6	18.8	6.07e-01	0	62	0	605028352	56	5173
2026-01-19 11:21:20.35	33.43	51.50	-42.5	-45.5	18.9	6.09e-01	0	62	0	607125504	56	5141
2026-01-19 11:21:21.36	32.76	51.26	-42.4	-45.4	19.0	6.06e-01	0	62	0	608698368	56	5093
2026-01-19 11:21:22.37	32.10	51.02	-42.4	-45.5	18.9	6.05e-01	0	62	0	610795520	56	5102
2026-01-19 11:21:23.38	31.45	50.78	-42.6	-45.7	18.7	6.07e-01	0	62	0	612368384	56	5224
2026-01-19 11:21:24.39	30.81	50.53	-42.6	-45.8	18.6	6.09e-01	0	62	0	614465536	56	5299
2026-01-19 11:21:25.40	30.18	50.28	-42.4	-45.4	19.0	6.07e-01	0	62	0	616562688	56	5050
2026-01-19 11:21:26.41	29.56	50.04	-42.2	-45.0	19.3	6.04e-01	0	62	0	618135552	56	4870
2026-01-19 11:21:27.42	28.95	49.78	-42.6	-45.8	18.5	6.05e-01	0	62	0	620232704	56	5325
2026-01-19 11:21:28.43	28.35	49.53	-42.4	-45.4	18.9	6.07e-01	0	62	0	621805568	56	5093
2026-01-19 11:21:29.44	27.77	49.28	-42.3	-45.3	19.1	6.08e-01	0	62	0	623902720	56	5002
2026-01-19 11:21:30.45	27.19	49.02	-42.5	-45.6	18.8	6.06e-01	0	62	0	625999872	56	5209
2026-01-19 11:21:31.45	26.62	48.76	-42.4	-45.5	18.8	6.07e-01	0	62	0	627572736	56	5152
2026-01-19 11:21:32.46	26.07	48.50	-42.6	-45.8	18.5	6.06e-01	0	62	0	629669888	56	5320
2026-01-19 11:21:33.48	25.51	48.24	-42.6	-45.8	18.5	6.03e-01	0	62	0	631242752	56	5330
2026-01-19 11:21:34.49	24.97	47.98	-42.4	-45.5	18.8	6.07e-01	0	62	0	633339904	56	5117
2026-01-19 11:21:35.50	24.44	47.71	-42.3	-45.2	19.0	6.05e-01	0	62	0	635437056	56	4966
2026-01-19 11:21:36.51	23.92	47.45	-42.4	-45.6	18.6	6.06e-01	0	62	0	637009920	56	5164
2026-01-19 11:21:37.52	23.41	47.19	-42.4	-45.4	18.8	6.04e-01	0	62	0	639107072	56	5098
2026-01-19 11:21:38.53	22.90	46.92	-42.4	-45.5	18.9	6.07e-01	0	62	0	640679936	56	5132
2026-01-19 11:21:39.54	22.41	46.65	-42.4	-45.4	18.9	6.06e-01	0	62	0	642777088	56	5081
2026-01-19 11:21:40.54	21.92	46.39	-42.2	-45.2	19.0	6.06e-01	0	62	0	644874240	56	4956
2026-01-19 11:21:41.55	21.45	46.12	-42.2	-45.2	18.9	6.07e-01	0	62	0	646447104	55	5273
2026-01-19 11:21:42.56	20.98	45.86	-42.5	-45.7	18.5	6.06e-01	0	62	0	648544256	55	5582
2026-01-19 11:21:43.57	20.51	45.59	-42.5	-45.8	18.4	6.07e-01	0	62	0	650641408	55	5616
2026-01-19 11:21:44.58	20.06	45.32	-42.1	-45.3	18.1	6.06e-01	0	62	0	652214272	55	5323
2026-01-19 11:21:45.59	19.61	45.05	-42.1	-45.1	18.6	6.08e-01	0	62	0	654311424	55	5194
2026-01-19 11:21:46.60	19.17	44.79	-42.2	-45.2	19.0	6.05e-01	0	62	0	655884288	55	5241
2026-01-19 11:21:47.61	18.74	44.52	-42.3	-45.5	18.7	6.07e-01	0	62	0	657981440	55	5413
2026-01-19 11:21:48.62	18.32	44.25	-42.4	-45.8	18.0	6.06e-01	0	62	0	660078592	55	5597
2026-01-19 11:21:49.62	17.91	43.99	-42.5	-45.8	18.4	6.05e-01	0	62	0	661651456	55	5605
2026-01-19 11:21:50.63	17.50	43.72	-42.5	-45.7	18.4	6.06e-01	0	62	0	663748608	55	5546
2026-01-19 11:21:51.64	17.09	43.45	-42.5	-45.7	18.5	6.06e-01	0	62	0	665321472	55	5529
2026-01-19 11:21:52.65	16.70	43.19	-42.5	-45.8	18.3	6.06e-01	0	62	0	667418624	55	5624
2026-01-19 11:21:53.66	16.31	42.92	-43.0	-46.6	17.6	6.05e-01	0	62	0	669515776	56	5836
2026-01-19 11:21:54.67	15.93	42.66	-43.0	-46.6	17.7	6.05e-01	0	62	0	671088640	56	5790
2026-01-19 11:21:55.68	15.55	42.39	-42.9	-46.2	18.0	6.06e-01	0	62	0	673185792	56	5571
2026-01-19 11:21:56.69	15.18	42.13	-43.0	-46.5	17.5	6.07e-01	0	62	0	674758656	56	5754
2026-01-19 11:21:57.70	14.82	41.86	-43.2	-46.8	17.4	6.06e-01	0	62	0	676855808	56	5947
2026-01-19 11:21:58.70	14.46	41.60	-43.1	-46.7	17.5	6.05e-01	0	62	0	678952960	56	5917
2026-01-19 11:21:59.71	14.11	41.34	-42.9	-46.4	17.9	6.07e-01	0	62	0	680525824	56	5660
2026-01-19 11:22:00.72	13.76	41.08	-43.2	-46.9	17.0	6.09e-01	0	62	0	682622976	56	6060
2026-01-19 11:22:01.73	13.42	40.82	-43.5	-47.6	16.6	6.06e-01	0	62	0	684195840	57	6148
2026-01-19 11:22:02.74	13.09	40.56	-43.3	-47.1	17.0	6.08e-01	0	62	0	686292992	57	5826
2026-01-19 11:22:03.75	12.76	40.30	-43.3	-47.1	17.1	6.05e-01	0	62	0	688390144	57	5839
2026-01-19 11:22:04.75	12.44	40.05	-43.4	-47.5	16.6	6.07e-01	0	62	0	689963008	57	6067
2026-01-19 11:22:05.77	12.12	39.79	-43.6	-47.7	16.5	6.07e-01	0	62	0	692060160	57	6217
2026-01-19 11:22:06.78	11.80	39.53	-43.7	-47.8	16.4	6.05e-01	0	62	0	694157312	57	6296
2026-01-19 11:22:07.79	11.49	39.28	-43.6	-47.7	16.5	6.05e-01	0	62	0	695730176	57	6259
2026-01-19 11:22:08.80	11.19	39.03	-43.8	-48.0	16.1	6.08e-01	0	62	0	697827328	58	6129
2026-01-19 11:22:09.80	10.89	38.78	-43.8	-48.1	16.0	6.05e-01	0	62	0	699400192	58	6175
2026-01-19 11:22:10.81	10.60	38.53	-43.5	-47.6	16.3	6.04e-01	0	62	0	701497344	58	5849
2026-01-19 11:22:11.82	10.31	38.28	-43.5	-47.4	16.8	6.06e-01	0	62	0	703594496	58	5676
2026-01-19 11:22:12.83	10.03	38.03	-43.5	-47.5	16.6	6.07e-01	0	62	0	705167360	58	5732
2026-01-19 11:22:13.84	9.74	37.78	-43.3	-47.4	16.6	6.07e-01	0	62	0	707264512	58	5705
2026-01-19 11:22:14.85	9.47	37.53	-43.7	-47.9	16.3	6.07e-01	0	62	0	708837376	58	5994
2026-01-19 11:22:15.86	9.20	37.29	-43.8	-48.3	15.5	6.07e-01	0	62	0	710934528	58	6302
2026-01-19 11:22:16.87	8.93	37.04	-43.7	-47.9	16.1	6.05e-01	0	62	0	713031680	58	6011
2026-01-19 11:22:17.88	8.67	36.80	-43.3	-47.1	17.1	6.07e-01	0	62	0	714604544	58	5498
2026-01-19 11:22:18.89	8.41	36.56	-43.2	-46.9	17.2	6.07e-01	0	62	0	716701696	58	5400
2026-01-19 11:22:19.90	8.15	36.32	-43.3	-47.4	16.0	6.04e-01	0	62	0	718274560	57	5997
2026-01-19 11:22:20.91	7.90	36.08	-43.4	-47.6	16.2	6.06e-01	0	62	0	720371712	57	6200
2026-01-19 11:22:21.92	7.65	35.84	-43.4	-47.4	16.6	6.07e-01	0	62	0	722468864	57	6059
2026-01-19 11:22:22.93	7.41	35.60	-43.2	-47.0	17.1	6.04e-01	0	62	0	724041728	57	5778
2026-01-19 11:22:23.94	7.17	35.37	-43.1	-46.8	17.4	6.07e-01	0	62	0	726138880	57	5619
2026-01-19 11:22:24.95	6.93	35.13	-43.2	-46.9	17.3	6.05e-01	0	62	0	727711744	57	5665
2026-01-19 11:22:25.95	6.70	34.90	-43.1	-46.8	17.4	6.06e-01	0	62	0	729808896	57	5593
2026-01-19 11:22:26.96	6.47	34.67	-43.1	-46.8	17.4	6.04e-01	0	62	0	731906048	57	5617
2026-01-19 11:22:27.98	6.24	34.44	-43.1	-46.7	17.4	6.06e-01	0	62	0	733478912	57	5576
2026-01-19 11:22:28.99	6.02	34.21	-43.0	-46.6	17.4	6.07e-01	0	62	0	735576064	57	5504
2026-01-19 11:22:29.99	5.80	33.98	-42.9	-46.5	17.6	6.08e-01	0	62	0	737148928	57	5461
2026-01-19 11:22:31.00	5.58	33.76	-42.7	-46.2	18.0	6.08e-01	0	62	0	739246080	57	5219
2026-01-19 11:22:32.01	5.37	33.53	-42.5	-45.8	18.3	6.07e-01	0	62	0	741343232	57	5009
2026-01-19 11:22:33.02	5.16	33.31	-42.4	-45.6	18.4	6.08e-01	0	62	0	742916096	56	5207
2026-01-19 11:22:34.03	4.95	33.09	-42.4	-45.6	18.4	6.06e-01	0	62	0	745013248	56	5170
2026-01-19 11:22:35.04	4.74	32.87	-42.4	-45.5	18.6	6.07e-01	0	62	0	747110400	56	5154
2026-01-19 11:22:36.05	4.54	32.65	-42.4	-45.6	18.5	6.03e-01	0	62	0	748683264	56	5170
2026-01-19 11:22:37.06	4.34	32.43	-42.4	-45.7	18.3	6.06e-01	0	62	0	750780416	56	5250
2026-01-19 11:22:38.07	4.15	32.21	-42.5	-45.7	18.4	6.10e-01	0	62	0	752353280	56	5242
2026-01-19 11:22:39.08	3.95	32.00	-42.3	-45.5	18.6	6.07e-01	0	62	0	754450432	56	5120
2026-01-19 11:22:40.09	3.76	31.78	-42.2	-45.3	18.8	6.06e-01	0	62	0	756547584	56	5005
2026-01-19 11:22:41.10	3.57	31.57	-42.2	-45.3	18.8	6.06e-01	0	62	0	758120448	56	4989
2026-01-19 11:22:42.11	3.39	31.36	-42.0	-45.0	19.1	6.07e-01	0	62	0	760217600	56	4831
2026-01-19 11:22:43.12	3.20	31.14	-42.1	-45.1	19.0	6.08e-01	0	62	0	762314752	56	4884
2026-01-19 11:22:44.12	3.02	30.94	-42.1	-45.2	19.0	6.06e-01	0	62	0	763887616	56	4934
2026-01-19 11:22:45.13	2.85	30.73	-42.2	-45.4	18.7	6.07e-01	0	62	0	765984768	56	5049
2026-01-19 11:22:46.14	2.67	30.52	-42.3	-45.4	18.7	6.06e-01	0	62	0	767557632	56	5091
2026-01-19 11:22:47.15	2.50	30.32	-42.2	-45.4	18.7	6.07e-01	0	62	0	769654784	56	5058
2026-01-19 11:22:48.16	2.32	30.11	-42.2	-45.3	18.8	6.06e-01	0	62	0	771751936	56	4994
2026-01-19 11:22:49.17	2.16	29.91	-42.2	-45.3	18.8	6.05e-01	0	62	0	773324800	56	5027
2026-01-19 11:22:50.18	1.99	29.71	-42.1	-45.2	18.9	6.06e-01	0	62	0	775421952	56	4940
2026-01-19 11:22:51.19	1.82	29.51	-42.2	-45.3	18.7	6.06e-01	0	62	0	776994816	56	4986
2026-01-19 11:22:52.20	1.66	29.31	-42.1	-45.1	18.9	6.06e-01	0	62	0	779091968	56	4924
2026-01-19 11:22:53.21	1.50	29.11	-42.1	-45.1	18.9	6.06e-01	0	62	0	781189120	56	4914
2026-01-19 11:22:54.22	1.34	28.92	-42.1	-45.1	18.9	6.04e-01	0	62	0	782761984	56	4923
2026-01-19 11:22:55.23	1.19	28.72	-42.2	-45.3	18.8	6.06e-01	0	62	0	784859136	56	4989
2026-01-19 11:22:56.24	1.03	28.53	-42.1	-45.2	18.8	6.07e-01	0	62	0	786432000	56	4976
2026-01-19 11:22:57.25	0.88	28.33	-42.1	-45.2	18.4	6.06e-01	0	62	0	788529152	55	5248
2026-01-19 11:22:58.26	0.73	28.14	-42.1	-45.2	18.7	6.08e-01	0	62	0	790626304	55	5263
2026-01-19 11:22:59.27	0.58	27.95	-42.1	-45.2	18.7	6.08e-01	0	62	0	792199168	55	5279
2026-01-19 11:23:00.28	0.43	27.76	-42.1	-45.2	18.7	6.07e-01	0	62	0	794296320	55	5241
2026-01-19 11:23:01.28	0.29	27.58	-42.1	-45.3	18.6	6.06e-01	0	62	0	795869184	55	5296
2026-01-19 11:23:02.29	0.15	27.39	-42.2	-45.4	18.5	6.08e-01	0	62	0	797966336	55	5380
2026-01-19 11:23:03.30	0.01	27.20	-42.3	-45.5	18.3	6.07e-01	0	62	0	800063488	55	5463
2026-01-19 11:23:04.31	359.87	27.02	-42.3	-45.7	18.2	6.06e-01	0	62	0	801636352	55	5530
2026-01-19 11:23:05.32	359.73	26.83	-42.4	-45.8	18.1	6.04e-01	0	62	0	803733504	55	5595
2026-01-19 11:23:06.33	359.59	26.65	-42.3	-45.7	18.1	6.06e-01	0	62	0	805306368	55	5551
2026-01-19 11:23:07.34	359.46	26.47	-42.3	-45.7	18.1	6.05e-01	0	62	0	807403520	55	5579
2026-01-19 11:23:08.35	359.33	26.29	-42.4	-45.7	18.1	6.07e-01	0	62	0	809500672	55	5589
2026-01-19 11:23:09.36	359.19	26.11	-42.3	-45.7	18.1	6.05e-01	0	62	0	811073536	55	5536
2026-01-19 11:23:10.37	359.06	25.93	-42.3	-45.6	18.2	6.03e-01	0	62	0	813170688	55	5517
2026-01-19 11:23:11.38	358.94	25.76	-42.3	-45.7	18.1	6.06e-01	0	62	0	815267840	55	5531
2026-01-19 11:23:12.38	358.81	25.58	-42.4	-45.9	17.9	6.05e-01	0	62	0	816840704	55	5664
2026-01-19 11:23:13.39	358.69	25.41	-42.3	-45.7	18.1	6.08e-01	0	62	0	818937856	55	5531
2026-01-19 11:23:14.40	358.56	25.24	-42.2	-45.6	18.1	6.06e-01	0	62	0	820510720	55	5505
2026-01-19 11:23:15.41	358.44	25.06	-42.2	-45.6	18.1	6.07e-01	0	62	0	822607872	55	5510
2026-01-19 11:23:16.42	358.32	24.89	-42.2	-45.6	18.1	6.08e-01	0	62	0	824705024	55	5512
2026-01-19 11:23:17.43	358.20	24.72	-42.2	-45.6	18.1	6.07e-01	0	62	0	826277888	55	5497
2026-01-19 11:23:18.44	358.08	24.55	-42.3	-45.7	18.0	6.06e-01	0	62	0	828375040	55	5568
2026-01-19 11:23:19.45	357.96	24.39	-42.3	-45.8	17.9	6.05e-01	0	62	0	830472192	55	5604
2026-01-19 11:23:20.46	357.85	24.22	-42.3	-45.8	17.8	6.06e-01	0	62	0	832045056	55	5654
2026-01-19 11:23:21.47	357.73	24.05	-42.3	-45.9	17.6	6.06e-01	0	62	0	834142208	55	5711
2026-01-19 11:23:22.48	357.62	23.89	-42.4	-46.0	17.5	6.06e-01	0	62	0	835715072	55	5775
2026-01-19 11:23:23.49	357.51	23.72	-42.4	-46.0	17.6	6.06e-01	0	62	0	837812224	55	5764
2026-01-19 11:23:24.50	357.40	23.56	-42.3	-46.0	17.5	6.08e-01	0	62	0	839385088	55	5756
2026-01-19 11:23:25.50	357.29	23.40	-42.3	-46.0	17.5	6.05e-01	0	62	0	841482240	55	5743
2026-01-19 11:23:26.51	357.18	23.24	-42.4	-46.1	17.4	6.04e-01	0	62	0	843579392	55	5808
2026-01-19 11:23:27.52	357.08	23.08	-42.3	-45.9	17.6	6.06e-01	0	62	0	845152256	55	5718
2026-01-19 11:23:28.53	356.97	22.92	-42.2	-45.8	17.6	6.06e-01	0	62	0	847249408	55	5624
2026-01-19 11:23:29.54	356.87	22.76	-42.1	-45.7	17.7	6.04e-01	0	62	0	848822272	55	5564
2026-01-19 11:23:30.55	356.76	22.61	-42.1	-45.7	17.7	6.05e-01	0	62	0	850919424	55	5592
2026-01-19 11:23:31.56	356.66	22.45	-42.1	-45.7	17.6	6.08e-01	0	62	0	853016576	55	5591
2026-01-19 11:23:32.57	356.56	22.30	-42.2	-45.9	17.5	6.09e-01	0	62	0	854589440	55	5700
2026-01-19 11:23:33.58	356.46	22.14	-42.1	-45.9	17.5	6.07e-01	0	62	0	856686592	55	5665
2026-01-19 11:23:34.59	356.36	21.99	-42.1	-45.9	17.4	6.05e-01	0	62	0	858783744	55	5661
2026-01-19 11:23:35.60	356.26	21.84	-42.2	-46.2	17.0	6.06e-01	0	62	0	860356608	55	5862
2026-01-19 11:23:36.61	356.17	21.68	-42.0	-46.0	17.0	6.09e-01	0	62	0	862453760	55	5750
2026-01-19 11:23:37.62	356.07	21.53	-41.8	-45.8	17.0	6.06e-01	0	62	0	864026624	55	5613
2026-01-19 11:23:38.63	355.98	21.38	-41.8	-45.8	16.9	6.08e-01	0	62	0	866123776	55	5625
2026-01-19 11:23:39.64	355.88	21.23	-41.7	-45.8	16.8	6.05e-01	0	62	0	868220928	55	5617
2026-01-19 11:23:40.65	355.79	21.09	-41.7	-45.8	16.7	6.06e-01	0	62	0	869793792	55	5638
2026-01-19 11:23:41.66	355.70	20.94	-41.7	-45.8	16.7	6.07e-01	0	62	0	871890944	55	5647
2026-01-19 11:23:42.67	355.61	20.79	-41.8	-46.2	16.2	6.08e-01	0	62	0	873463808	55	5885
2026-01-19 11:23:43.68	355.52	20.65	-42.1	-47.0	15.3	6.06e-01	0	62	0	875560960	55	6473
2026-01-19 11:23:44.69	355.43	20.50	-42.4	-48.2	14.0	6.09e-01	0	62	0	877658112	55	7394
2026-01-19 11:23:45.70	355.34	20.36	-42.7	-49.6	12.3	6.13e-01	0	62	0	879230976	55	8687
2026-01-19 11:23:46.70	355.25	20.22	-43.0	-51.2	10.5	6.18e-01	0	62	0	881328128	56	9870
2026-01-19 11:23:47.71	355.17	20.08	-43.1	-52.7	8.8	6.36e-01	1	62	0	883425280	56	11733
2026-01-19 11:23:48.73	355.08	19.93	-43.0	-54.5	6.7	6.69e-01	92	62	0	884998144	56	14532
2026-01-19 11:23:49.74	355.00	19.79	-42.9	-56.0	5.4	6.97e-01	90	62	0	886571008	56	17261
2026-01-19 11:23:50.75	354.91	19.65	-42.8	-58.1	4.0	7.38e-01	0	62	104	886571008	56	21842
2026-01-19 11:23:51.76	354.83	19.51	-42.7	-58.7	4.2	7.35e-01	0	62	104	886571008	56	23316
2026-01-19 11:23:52.76	354.75	19.38	-42.6	-59.9	4.0	7.44e-01	0	62	104	886571008	56	26846
2026-01-19 11:23:53.78	354.67	19.24	-42.6	-59.8	4.0	7.40e-01	0	62	104	886571008	56	26691
2026-01-19 11:23:54.78	354.59	19.10	-42.6	-60.0	3.9	7.44e-01	0	62	104	886571008	56	27329
2026-01-19 11:23:55.79	354.51	18.97	-42.1	-60.9	3.8	7.45e-01	0	62	104	886571008	56	30033
2026-01-19 11:23:56.80	354.43	18.83	-43.0	-60.5	3.9	7.45e-01	0	62	104	886571008	56	28996
2026-01-19 11:23:57.81	354.35	18.70	-42.4	-61.1	3.8	7.45e-01	0	62	104	886571008	56	30852
2026-01-19 11:23:58.82	354.27	18.57	-42.3	-61.2	3.8	7.46e-01	0	62	104	886571008	56	31345
2026-01-19 11:23:59.83	354.20	18.43	-42.1	-61.2	3.8	7.47e-01	0	62	104	886571008	56	31432
2026-01-19 11:24:00.84	354.12	18.30	-41.4	-60.9	3.7	7.46e-01	0	62	104	886571008	54	33771
2026-01-19 11:24:01.85	354.05	18.17	-41.8	-61.3	3.8	7.45e-01	0	62	104	886571008	54	35292
2026-01-19 11:24:02.86	353.97	18.04	-42.0	-61.0	3.8	7.44e-01	0	62	104	886571008	54	34456
2026-01-19 11:24:03.87	353.90	17.91	-41.8	-60.9	3.8	7.43e-01	0	62	104	886571008	54	33907
2026-01-19 11:24:04.88	353.82	17.78	-42.0	-61.3	3.8	7.46e-01	0	62	104	886571008	54	35669
2026-01-19 11:24:05.89	353.75	17.65	-41.7	-61.0	3.8	7.43e-01	0	62	104	886571008	54	34457
2026-01-19 11:24:06.90	353.68	17.52	-41.4	-61.0	3.8	7.48e-01	0	62	104	886571008	54	34244
2026-01-19 11:24:07.91	353.61	17.40	-41.2	-60.9	3.8	7.46e-01	0	62	104	886571008	54	33763
2026-01-19 11:24:08.92	353.54	17.27	-41.9	-61.1	3.8	7.46e-01	0	62	104	886571008	54	34751
2026-01-19 11:24:09.93	353.47	17.14	-41.4	-61.0	3.8	7.45e-01	0	62	104	886571008	54	34421
2026-01-19 11:24:10.94	353.40	17.02	-41.5	-60.9	3.8	7.46e-01	0	62	104	886571008	54	33861
2026-01-19 11:24:11.95	353.33	16.90	-40.4	-60.9	3.8	7.46e-01	0	62	104	886571008	52	38121
2026-01-19 11:24:12.96	353.26	16.77	-41.7	-60.9	3.8	7.43e-01	0	62	104	886571008	53	35953
2026-01-19 11:24:13.96	353.20	16.65	-41.4	-61.1	3.8	7.46e-01	0	62	104	886571008	53	36564
2026-01-19 11:24:14.97	353.13	16.53	-41.0	-60.9	3.8	7.45e-01	0	62	104	886571008	53	35825
2026-01-19 11:24:15.98	353.06	16.41	-41.0	-61.0	3.8	7.46e-01	0	62	104	886571008	53	36381
2026-01-19 11:24:16.99	353.00	16.28	-41.7	-60.8	3.8	7.45e-01	0	62	104	886571008	53	35620
2026-01-19 11:24:18.00	352.93	16.16	-41.5	-61.0	3.8	7.44e-01	0	62	104	886571008	53	36277
2026-01-19 11:24:19.01	352.87	16.04	-40.8	-60.8	3.8	7.46e-01	0	62	104	886571008	52	37606
2026-01-19 11:24:20.02	352.81	15.92	-41.6	-61.0	3.8	7.45e-01	0	62	104	886571008	53	36302
2026-01-19 11:24:21.03	352.74	15.81	-41.1	-60.9	3.8	7.46e-01	0	62	104	886571008	52	37813
2026-01-19 11:24:22.03	352.68	15.69	-41.5	-61.0	3.8	7.42e-01	0	62	104	886571008	53	36352
2026-01-19 11:24:23.04	352.62	15.57	-41.3	-60.8	3.8	7.43e-01	0	62	104	886571008	53	35411
2026-01-19 11:24:24.06	352.56	15.45	-41.5	-60.9	3.8	7.43e-01	0	62	104	886571008	53	36043
2026-01-19 11:24:25.07	352.50	15.34	-40.5	-60.9	3.8	7.45e-01	0	62	104	886571008	52	37888
2026-01-19 11:24:26.07	352.44	15.22	-40.9	-61.0	3.8	7.43e-01	0	62	104	886571008	53	36258
2026-01-19 11:24:27.08	352.38	15.11	-41.7	-60.8	3.8	7.44e-01	0	62	104	886571008	53	35530
2026-01-19 11:24:28.09	352.32	14.99	-41.5	-60.9	3.8	7.47e-01	0	62	104	886571008	54	34060
2026-01-19 11:24:29.10	352.26	14.88	-40.9	-61.0	3.8	7.45e-01	0	62	104	886571008	53	36241
2026-01-19 11:24:30.11	352.20	14.76	-40.6	-61.0	3.8	7.50e-01	0	62	104	886571008	53	36209
2026-01-19 11:24:31.12	352.14	14.65	-41.8	-60.9	3.8	7.47e-01	0	62	104	886571008	54	33826
2026-01-19 11:24:32.13	352.09	14.54	-41.6	-60.9	3.8	7.44e-01	0	62	104	886571008	54	33895
2026-01-19 11:24:33.14	352.03	14.43	-41.5	-61.0	3.8	7.44e-01	0	62	104	886571008	54	34337
2026-01-19 11:24:34.15	351.97	14.32	-40.7	-61.0	3.8	7.39e-01	0	62	104	886571008	53	36143
2026-01-19 11:24:35.16	351.92	14.21	-41.9	-61.0	3.8	7.44e-01	0	62	104	886571008	54	34223
2026-01-19 11:24:36.17	351.86	14.10	-41.6	-60.9	3.8	7.43e-01	0	62	104	886571008	54	33830
2026-01-19 11:24:37.18	351.81	13.99	-41.5	-60.9	3.8	7.46e-01	0	62	104	886571008	54	34029
2026-01-19 11:24:38.19	351.75	13.88	-41.0	-60.9	3.8	7.44e-01	0	62	104	886571008	53	36095
2026-01-19 11:24:39.20	351.70	13.77	-41.8	-60.9	3.8	7.47e-01	0	62	104	886571008	54	34057
2026-01-19 11:24:40.20	351.65	13.66	-41.5	-60.9	3.8	7.44e-01	0	62	104	886571008	54	33831
2026-01-19 11:24:41.21	351.59	13.55	-41.4	-60.9	3.8	7.46e-01	0	62	104	886571008	54	33957
2026-01-19 11:24:42.22	351.54	13.45	-41.6	-61.0	3.8	7.46e-01	0	62	104	886571008	54	34238
2026-01-19 11:24:43.23	351.49	13.34	-41.7	-60.8	3.8	7.47e-01	0	62	104	886571008	54	33686
2026-01-19 11:24:44.24	351.44	13.23	-41.6	-60.9	3.8	7.42e-01	0	62	104	886571008	54	33760
2026-01-19 11:24:45.25	351.39	13.13	-41.5	-60.9	3.8	7.47e-01	0	62	104	886571008	54	33749
2026-01-19 11:24:46.26	351.34	13.02	-42.0	-61.1	3.8	7.45e-01	0	62	104	886571008	54	34756
2026-01-19 11:24:47.27	351.28	12.92	-41.6	-60.8	3.8	7.46e-01	0	62	104	886571008	54	33530
2026-01-19 11:24:48.28	351.23	12.81	-41.6	-60.8	3.8	7.48e-01	0	62	104	886571008	54	33685
2026-01-19 11:24:49.28	351.19	12.71	-41.6	-60.9	3.8	7.44e-01	0	62	104	886571008	54	33785
2026-01-19 11:24:50.29	351.14	12.61	-41.9	-61.1	3.8	7.47e-01	0	62	104	886571008	54	34747
2026-01-19 11:24:51.30	351.09	12.50	-41.5	-60.7	3.8	7.47e-01	0	62	104	886571008	54	33308
2026-01-19 11:24:52.32	351.04	12.40	-41.8	-60.9	3.8	7.42e-01	0	62	104	886571008	54	34052
2026-01-19 11:24:53.33	350.99	12.30	-41.2	-60.9	3.8	7.50e-01	0	62	104	886571008	54	33994
2026-01-19 11:24:54.34	350.94	12.20	-41.3	-60.9	3.8	7.44e-01	0	62	104	886571008	54	34054
2026-01-19 11:24:55.35	350.90	12.10	-41.1	-60.8	3.8	7.47e-01	0	62	104	886571008	54	33522
2026-01-19 11:24:56.36	350.85	12.00	-41.4	-61.0	3.8	7.46e-01	0	62	104	886571008	54	34338
2026-01-19 11:24:57.37	350.80	11.90	-41.2	-60.9	3.8	7.47e-01	0	62	104	886571008	54	34006
2026-01-19 11:24:58.38	350.76	11.80	-41.8	-60.9	3.8	7.46e-01	0	62	104	886571008	54	33875
2026-01-19 11:24:59.39	350.71	11.70	-41.4	-60.9	3.8	7.43e-01	0	62	104	886571008	54	33724
2026-01-19 11:25:00.40	350.66	11.60	-41.7	-60.9	3.8	7.46e-01	0	62	104	886571008	54	34041
2026-01-19 11:25:01.40	350.62	11.50	-41.7	-60.9	3.8	7.43e-01	0	62	104	886571008	54	33723
2026-01-19 11:25:02.42	350.58	11.40	-41.9	-61.0	3.8	7.47e-01	0	62	104	886571008	54	34279
2026-01-19 11:25:03.42	350.53	11.30	-41.3	-60.8	3.8	7.47e-01	0	63	104	886571008	54	33387
2026-01-19 11:25:04.43	350.49	11.21	-41.6	-60.8	3.8	7.46e-01	0	62	104	886571008	54	33676
2026-01-19 11:25:05.44	350.44	11.11	-41.9	-61.0	3.8	7.47e-01	0	62	104	886571008	54	34090
2026-01-19 11:25:06.45	350.40	11.01	-41.8	-61.0	3.8	7.42e-01	0	62	104	886571008	54	34152
2026-01-19 11:25:07.46	350.36	10.92	-41.6	-60.8	3.8	7.47e-01	0	63	104	886571008	54	33336
2026-01-19 11:25:08.47	350.31	10.82	-41.6	-60.8	3.8	7.43e-01	0	62	104	886571008	54	33327
2026-01-19 11:25:09.48	350.27	10.73	-41.9	-61.0	3.8	7.44e-01	0	62	104	886571008	54	34302
2026-01-19 11:25:10.49	350.23	10.63	-41.6	-60.8	3.8	7.47e-01	0	62	104	886571008	54	33530
2026-01-19 11:25:11.50	350.19	10.54	-41.8	-60.9	3.8	7.46e-01	0	62	104	886571008	54	33855
2026-01-19 11:25:12.51	350.15	10.44	-41.6	-60.7	3.8	7.48e-01	0	62	104	886571008	54	33308
2026-01-19 11:25:13.52	350.11	10.35	-41.6	-60.9	3.8	7.46e-01	0	62	104	886571008	54	33779
2026-01-19 11:25:14.53	350.06	10.26	-41.6	-60.7	3.8	7.46e-01	0	62	104	886571008	54	33307
2026-01-19 11:25:15.54	350.02	10.16	-41.8	-61.0	3.8	7.44e-01	0	62	104	886571008	54	34109
2026-01-19 11:25:16.55	349.98	10.07	-41.7	-60.8	3.8	7.50e-01	0	62	104	886571008	54	33321
2026-01-19 11:25:17.55	349.94	9.98	-41.4	-60.8	3.8	7.44e-01	0	62	104	886571008	54	33371
2026-01-19 11:25:18.56	349.91	9.89	-41.8	-60.8	3.8	7.48e-01	0	62	104	886571008	54	33509
2026-01-19 11:25:19.57	349.87	9.80	-41.6	-60.8	3.8	7.44e-01	0	62	104	886571008	54	33606
2026-01-19 11:25:20.58	349.83	9.71	-41.7	-60.8	3.8	7.42e-01	0	63	104	886571008	54	33568
2026-01-19 11:25:21.59	349.79	9.62	-41.5	-60.7	3.8	7.43e-01	0	62	104	886571008	54	33258
2026-01-19 11:25:22.60	349.75	9.53	-41.8	-60.9	3.8	7.42e-01	0	62	104	886571008	54	33797
2026-01-19 11:25:23.61	349.71	9.44	-41.6	-60.8	3.8	7.48e-01	0	62	104	886571008	54	33315
2026-01-19 11:25:24.62	349.67	9.35	-41.7	-60.8	3.8	7.48e-01	0	62	104	886571008	54	33491
2026-01-19 11:25:25.63	349.64	9.26	-41.6	-60.8	3.8	7.44e-01	0	62	104	886571008	54	33452
2026-01-19 11:25:26.64	349.60	9.17	-41.6	-60.8	3.8	7.46e-01	0	62	104	886571008	54	33574
2026-01-19 11:25:27.65	349.56	9.08	-41.7	-60.8	3.8	7.44e-01	0	62	104	886571008	54	33371
2026-01-19 11:25:28.66	349.53	8.99	-41.7	-60.8	3.8	7.45e-01	0	62	104	886571008	54	33622
2026-01-19 11:25:29.67	349.49	8.90	-41.8	-61.0	3.8	7.45e-01	0	62	104	886571008	54	34131
2026-01-19 11:25:30.68	349.45	8.82	-41.5	-60.7	3.8	7.45e-01	0	62	104	886571008	54	33217
2026-01-19 11:25:31.69	349.42	8.73	-41.7	-60.8	3.8	7.45e-01	0	62	104	886571008	54	33640
2026-01-19 11:25:32.70	349.38	8.64	-41.7	-60.8	3.8	7.45e-01	0	62	104	886571008	54	33585
2026-01-19 11:25:33.71	349.35	8.56	-41.8	-61.0	3.8	7.46e-01	0	62	104	886571008	54	34423
2026-01-19 11:25:34.72	349.31	8.47	-41.5	-60.7	3.8	7.45e-01	0	62	104	886571008	54	33128
2026-01-19 11:25:35.73	349.28	8.38	-41.8	-61.0	3.8	7.45e-01	0	62	104	886571008	54	34091
2026-01-19 11:25:36.73	349.24	8.30	-41.7	-60.9	3.8	7.46e-01	0	62	104	886571008	54	33697
2026-01-19 11:25:37.74	349.21	8.21	-41.9	-61.1	3.8	7.44e-01	0	62	104	886571008	54	34528
2026-01-19 11:25:38.75	349.17	8.13	-41.6	-60.8	3.8	7.44e-01	0	63	104	886571008	54	33333
2026-01-19 11:25:39.77	349.14	8.04	-41.9	-61.0	3.8	7.43e-01	0	62	104	886571008	54	34468
2026-01-19 11:25:40.78	349.10	7.96	-41.9	-61.0	3.8	7.48e-01	0	62	104	886571008	54	34429
2026-01-19 11:25:41.79	349.07	7.87	-41.9	-61.1	3.8	7.44e-01	0	62	104	886571008	54	34681
2026-01-19 11:25:42.80	349.04	7.79	-41.9	-61.2	3.8	7.45e-01	0	62	104	886571008	54	34975
2026-01-19 11:25:43.81	349.00	7.71	-45.2	-63.9	3.8	7.45e-01	0	62	104	886571008	60	33702
2026-01-19 11:25:44.82	348.97	7.62	-45.9	-64.5	3.8	7.44e-01	0	62	104	886571008	62	32384
2026-01-19 11:25:45.82	348.94	7.54	-46.1	-64.7	3.8	7.44e-01	0	62	104	886571008	62	33226
2026-01-19 11:25:46.83	348.91	7.46	-46.2	-64.8	3.8	7.47e-01	0	62	104	886571008	62	33637
2026-01-19 11:25:47.84	348.87	7.38	-46.2	-64.9	3.8	7.46e-01	0	63	104	886571008	63	31853
2026-01-19 11:25:48.85	348.84	7.29	-46.3	-64.8	3.8	7.44e-01	0	62	104	886571008	63	31505
2026-01-19 11:25:49.86	348.81	7.21	-46.3	-64.9	3.8	7.43e-01	0	62	104	886571008	63	32036
2026-01-19 11:25:50.87	348.78	7.13	-45.8	-64.8	3.8	7.47e-01	0	62	104	886571008	63	31725
2026-01-19 11:25:51.88	348.75	7.05	-46.0	-64.6	3.8	7.44e-01	0	62	104	886571008	63	30928
2026-01-19 11:25:52.89	348.72	6.97	-44.5	-64.2	3.6	7.44e-01	0	62	104	886571008	63	29445
2026-01-19 11:25:53.90	348.69	6.89	-46.2	-64.8	3.8	7.42e-01	0	62	104	886571008	63	31488
2026-01-19 11:25:54.91	348.66	6.81	-46.2	-64.8	3.9	7.50e-01	0	62	104	886571008	63	31557
2026-01-19 11:25:55.92	348.63	6.73	-46.3	-64.9	3.8	7.44e-01	0	62	104	886571008	63	32025
2026-01-19 11:25:56.93	348.60	6.65	-46.3	-64.9	3.8	7.45e-01	0	62	104	886571008	63	32076
2026-01-19 11:25:57.95	348.56	6.57	-46.3	-64.9	3.8	7.44e-01	0	62	104	886571008	63	31834
2026-01-19 11:25:58.96	348.54	6.49	-46.3	-64.9	3.8	7.45e-01	0	63	104	886571008	63	31971
2026-01-19 11:25:59.97	348.51	6.41	-46.3	-64.9	3.8	7.46e-01	0	63	104	886571008	63	31869
2026-01-19 11:26:00.98	348.48	6.33	-46.2	-64.8	3.8	7.45e-01	0	63	104	886571008	63	31657
2026-01-19 11:26:01.99	348.45	6.25	-46.2	-64.8	3.8	7.43e-01	0	62	104	886571008	63	31591
2026-01-19 11:26:03.00	348.42	6.17	-46.3	-64.9	3.8	7.43e-01	0	62	104	886571008	63	31833
2026-01-19 11:26:04.01	348.39	6.10	-46.3	-64.9	3.8	7.48e-01	0	62	104	886571008	63	31820
2026-01-19 11:26:05.02	348.36	6.02	-46.2	-64.8	3.8	7.47e-01	0	62	104	886571008	63	31709
2026-01-19 11:26:06.03	348.33	5.94	-46.2	-64.9	3.8	7.49e-01	0	63	104	886571008	63	31820
2026-01-19 11:26:07.04	348.30	5.86	-46.3	-64.9	3.8	7.48e-01	0	62	104	886571008	63	31882
2026-01-19 11:26:08.05	348.28	5.79	-45.7	-64.6	3.8	7.45e-01	0	62	104	886571008	62	32882
2026-01-19 11:26:09.06	348.25	5.71	-46.3	-64.8	3.8	7.43e-01	0	62	104	886571008	63	31803
2026-01-19 11:26:10.07	348.22	5.63	-46.2	-64.9	3.8	7.46e-01	0	62	104	886571008	63	31823
2026-01-19 11:26:11.08	348.19	5.56	-46.2	-64.8	3.8	7.45e-01	0	62	104	886571008	63	31658
2026-01-19 11:26:12.09	348.17	5.48	-46.3	-64.8	3.8	7.46e-01	0	62	104	886571008	63	31659
2026-01-19 11:26:13.10	348.14	5.40	-46.2	-64.8	3.8	7.45e-01	0	62	104	886571008	63	31676
2026-01-19 11:26:14.11	348.11	5.33	-46.2	-64.8	3.8	7.46e-01	0	62	104	886571008	63	31770
2026-01-19 11:26:15.12	348.08	5.25	-46.2	-64.8	3.8	7.42e-01	0	62	104	886571008	63	31774
2026-01-19 11:26:16.13	348.06	5.18	-46.2	-64.8	3.8	7.43e-01	0	62	104	886571008	63	31731
2026-01-19 11:26:17.14	348.03	5.10	-46.2	-64.8	3.8	7.47e-01	0	62	104	886571008	63	31700
2026-01-19 11:26:18.15	348.01	5.03	-46.2	-64.8	3.8	7.44e-01	0	62	104	886571008	63	31759
2026-01-19 11:26:19.16	347.98	4.95	-46.2	-64.8	3.8	7.47e-01	0	63	104	886571008	63	31722
2026-01-19 11:26:20.17	347.95	4.88	-46.2	-64.8	3.8	7.48e-01	0	63	104	886571008	63	31806
2026-01-19 11:26:21.18	347.93	4.81	-46.2	-64.8	3.8	7.47e-01	0	62	104	886571008	63	31700
2026-01-19 11:26:22.19	347.90	4.73	-46.1	-64.8	3.8	7.45e-01	0	62	104	886571008	63	31761
2026-01-19 11:26:23.20	347.88	4.66	-46.2	-64.8	3.8	7.44e-01	0	62	104	886571008	63	31710
2026-01-19 11:26:24.21	347.85	4.59	-46.2	-64.8	3.8	7.42e-01	0	63	104	886571008	63	31696
2026-01-19 11:26:25.23	347.83	4.51	-46.2	-64.8	3.8	7.45e-01	0	62	104	886571008	62	33411
2026-01-19 11:26:26.24	347.80	4.44	-46.2	-64.8	3.8	7.48e-01	0	62	104	886571008	63	31678
2026-01-19 11:26:27.25	347.78	4.37	-46.2	-64.8	3.8	7.45e-01	0	62	104	886571008	63	31636
2026-01-19 11:26:28.26	347.75	4.29	-46.2	-64.8	3.8	7.46e-01	0	62	104	886571008	63	31710
2026-01-19 11:26:29.27	347.73	4.22	-46.2	-64.8	3.8	7.42e-01	0	62	104	886571008	63	31595
2026-01-19 11:26:30.28	347.70	4.15	-46.2	-64.8	3.8	7.46e-01	0	62	104	886571008	63	31639
2026-01-19 11:26:31.29	347.68	4.08	-46.2	-64.8	3.8	7.51e-01	0	62	104	886571008	63	31648
2026-01-19 11:26:32.30	347.65	4.01	-46.2	-64.8	3.8	7.44e-01	0	63	104	886571008	62	33498
2026-01-19 11:26:33.31	347.63	3.93	-46.2	-64.8	3.8	7.47e-01	0	62	104	886571008	63	31562
2026-01-19 11:26:34.32	347.61	3.86	-46.2	-64.8	3.8	7.45e-01	0	62	104	886571008	63	31694
2026-01-19 11:26:35.33	347.58	3.79	-46.1	-64.6	3.8	7.45e-01	0	62	104	886571008	62	32622
2026-01-19 11:26:36.34	347.56	3.72	-46.1	-64.8	3.8	7.43e-01	0	62	104	886571008	63	31542
2026-01-19 11:26:37.35	347.54	3.65	-45.9	-64.7	3.8	7.46e-01	0	63	104	886571008	63	31171
2026-01-19 11:26:38.36	347.51	3.58	-46.2	-64.8	3.8	7.43e-01	0	62	104	886571008	63	31616
2026-01-19 11:26:39.37	347.49	3.51	-46.2	-64.7	3.8	7.45e-01	0	62	104	886571008	62	33230
2026-01-19 11:26:40.38	347.47	3.44	-46.2	-64.8	3.9	7.45e-01	0	62	104	886571008	63	31621
2026-01-19 11:26:41.39	347.44	3.37	-46.2	-64.8	3.8	7.47e-01	0	62	104	886571008	63	31496
2026-01-19 11:26:42.40	347.42	3.30	-46.1	-64.8	3.8	7.45e-01	0	62	104	886571008	63	31606
2026-01-19 11:26:43.41	347.40	3.23	-46.2	-64.8	3.8	7.46e-01	0	62	104	886571008	63	31642
2026-01-19 11:26:44.42	347.38	3.16	-45.2	-64.3	3.8	7.45e-01	0	62	104	886571008	61	33469
2026-01-19 11:26:45.43	347.36	3.09	-46.2	-64.8	3.8	7.44e-01	0	62	104	886571008	62	33413
2026-01-19 11:26:46.44	347.33	3.02	-46.2	-64.8	3.8	7.48e-01	0	62	104	886571008	62	33533
