passes_logs/2026/01/19/R2.0S_Moscow/R2.0S_Moscow__20260119_011021_NOAA_21_JPSS-2_rec.log

#Pass ID: 20260119_011021_NOAA 21 (JPSS-2)
#Satellite: NOAA 21 (JPSS-2)
#Configuration: NOAA-21
#almurnet v.1.7.20251203
#Start time: 2026-01-19 01:12:08

#Version: 2.2.20231116
#Station: R2.0S_Moscow
#Location: 37.707566 lon 55.798166 lat
#TLE: 1 54234U 22150A   26017.90260625  .00000050  00000+0  44518-4 0  9994
#TLE: 2 54234  98.7502 318.7672 0000612 269.1755  90.9351 14.19535344165221

#Time	Az	El	Level	Level2	SNR	BER	BlckErr	Temp	State	Recorded	gain1	gain2
2026-01-19 01:12:08.93	2.75	8.76	-45.1	-56.8	3.8	8.46e-01	0	62	0	0	61	14095
2026-01-19 01:12:09.93	2.66	8.83	-45.6	-58.0	3.8	1.49e+00	0	62	104	0	63	14419
2026-01-19 01:12:10.94	2.56	8.90	-45.5	-57.9	3.8	1.49e+00	0	62	104	0	63	14323
2026-01-19 01:12:11.95	2.46	8.97	-45.5	-57.9	3.8	1.49e+00	0	62	104	0	62	15151
2026-01-19 01:12:12.96	2.37	9.04	-45.4	-57.9	3.8	1.49e+00	0	62	104	0	62	15110
2026-01-19 01:12:13.97	2.27	9.11	-45.3	-57.8	3.8	1.49e+00	0	62	104	0	62	14934
2026-01-19 01:12:14.98	2.17	9.18	-45.3	-57.7	3.8	1.49e+00	0	62	104	0	62	14790
2026-01-19 01:12:15.99	2.07	9.25	-45.2	-57.6	3.8	1.49e+00	0	62	104	0	62	14620
2026-01-19 01:12:17.00	1.97	9.32	-44.9	-57.4	3.8	1.49e+00	0	62	104	0	61	15091
2026-01-19 01:12:18.01	1.87	9.39	-44.4	-57.0	3.8	1.49e+00	0	62	104	0	60	15262
2026-01-19 01:12:19.03	1.77	9.46	-42.7	-55.1	3.8	1.49e+00	0	62	104	0	57	14565
2026-01-19 01:12:20.04	1.67	9.53	-41.3	-54.0	3.8	1.49e+00	0	62	104	0	54	15263
2026-01-19 01:12:21.05	1.57	9.60	-41.4	-54.0	3.8	1.49e+00	0	62	104	0	54	15251
2026-01-19 01:12:22.06	1.47	9.67	-41.3	-54.0	3.8	1.49e+00	0	62	104	0	54	15271
2026-01-19 01:12:23.07	1.37	9.74	-41.3	-54.0	3.8	1.49e+00	0	62	104	0	54	15272
2026-01-19 01:12:24.08	1.27	9.81	-41.4	-54.0	3.8	1.49e+00	0	62	104	0	54	15267
2026-01-19 01:12:25.09	1.16	9.88	-41.3	-54.0	3.8	1.49e+00	0	62	104	0	54	15287
2026-01-19 01:12:26.10	1.06	9.96	-41.3	-54.0	3.8	1.49e+00	0	62	104	0	54	15230
2026-01-19 01:12:27.11	0.96	10.03	-41.3	-53.9	3.8	1.49e+00	0	62	104	0	54	15192
2026-01-19 01:12:28.12	0.85	10.10	-41.3	-53.9	3.8	1.49e+00	0	62	104	0	54	15224
2026-01-19 01:12:29.13	0.75	10.17	-41.3	-54.0	3.8	1.49e+00	0	62	104	0	54	15235
2026-01-19 01:12:30.14	0.64	10.24	-41.3	-54.0	3.8	1.49e+00	0	62	104	0	54	15248
2026-01-19 01:12:31.15	0.54	10.31	-41.3	-53.9	3.8	1.49e+00	0	62	104	0	54	15188
2026-01-19 01:12:32.16	0.43	10.39	-41.3	-53.9	3.8	1.49e+00	0	62	104	0	54	15189
2026-01-19 01:12:33.17	0.32	10.46	-41.3	-53.9	3.8	1.49e+00	0	62	104	0	54	15219
2026-01-19 01:12:34.18	0.21	10.53	-41.3	-53.9	3.8	1.49e+00	0	62	104	0	54	15191
2026-01-19 01:12:35.19	0.11	10.60	-41.3	-53.9	3.8	1.49e+00	0	62	104	0	54	15225
2026-01-19 01:12:36.20	360.00	10.67	-41.3	-53.9	3.8	1.49e+00	0	62	104	0	54	15204
2026-01-19 01:12:37.21	359.89	10.75	-41.3	-53.9	3.8	1.49e+00	0	62	104	0	54	15192
2026-01-19 01:12:38.22	359.78	10.82	-41.3	-53.9	3.8	1.49e+00	0	62	104	0	54	15162
2026-01-19 01:12:39.23	359.67	10.89	-41.3	-53.9	3.8	1.49e+00	0	62	104	0	54	15182
2026-01-19 01:12:40.24	359.56	10.96	-41.3	-53.9	3.8	1.49e+00	0	62	104	0	54	15147
2026-01-19 01:12:41.26	359.44	11.04	-41.3	-53.9	3.8	1.49e+00	0	62	104	0	54	15161
2026-01-19 01:12:42.27	359.33	11.11	-41.3	-53.8	3.8	1.49e+00	0	62	104	0	54	14975
2026-01-19 01:12:43.28	359.22	11.18	-41.3	-53.8	3.8	1.49e+00	0	62	104	0	54	14882
2026-01-19 01:12:44.29	359.11	11.26	-41.3	-53.8	3.8	1.49e+00	0	62	104	0	54	14988
2026-01-19 01:12:45.30	358.99	11.33	-41.3	-53.9	3.8	1.49e+00	0	62	104	0	54	15091
2026-01-19 01:12:46.31	358.88	11.40	-41.3	-53.8	3.8	1.49e+00	0	62	104	0	54	15002
2026-01-19 01:12:47.32	358.76	11.48	-41.3	-53.7	3.8	1.49e+00	0	62	104	0	54	14818
2026-01-19 01:12:48.33	358.65	11.55	-41.3	-53.7	3.8	1.49e+00	0	62	104	0	54	14730
2026-01-19 01:12:49.34	358.53	11.63	-41.3	-53.6	3.8	1.49e+00	0	62	104	0	54	14608
2026-01-19 01:12:50.35	358.41	11.70	-41.3	-53.6	3.8	1.49e+00	0	62	104	0	54	14654
2026-01-19 01:12:51.36	358.30	11.77	-41.3	-53.7	3.8	1.49e+00	0	62	104	0	54	14767
2026-01-19 01:12:52.37	358.18	11.85	-41.3	-53.7	3.8	1.49e+00	0	62	104	0	54	14748
2026-01-19 01:12:53.38	358.06	11.92	-41.3	-53.6	3.8	1.49e+00	0	62	104	0	54	14590
2026-01-19 01:12:54.39	357.94	12.00	-41.3	-53.3	3.8	1.49e+00	0	62	104	0	54	14168
2026-01-19 01:12:55.40	357.82	12.07	-41.2	-52.7	3.8	1.49e+00	0	62	104	0	54	13230
2026-01-19 01:12:56.41	357.70	12.14	-41.1	-51.6	3.8	1.49e+00	0	62	104	0	54	11633
2026-01-19 01:12:57.42	357.58	12.22	-40.9	-49.9	4.3	1.47e+00	0	62	104	0	53	10117
2026-01-19 01:12:58.43	357.46	12.29	-40.6	-48.0	5.2	7.38e-01	0	62	0	0	53	8130
2026-01-19 01:12:59.44	357.33	12.37	-40.1	-46.2	6.5	3.06e-01	0	62	0	3145728	52	7016
2026-01-19 01:13:00.45	357.21	12.44	-39.6	-44.6	8.0	8.39e-02	0	62	0	6291456	51	6182
2026-01-19 01:13:01.46	357.09	12.52	-39.2	-43.4	9.3	2.23e-02	0	62	0	9437184	50	5703
2026-01-19 01:13:02.47	356.96	12.59	-38.9	-42.8	9.8	1.18e-02	0	62	0	12582912	49	5644
2026-01-19 01:13:03.48	356.84	12.67	-39.1	-43.0	9.7	9.72e-03	0	62	0	15728640	49	5772
2026-01-19 01:13:04.49	356.71	12.74	-38.7	-41.9	11.2	1.32e-02	0	62	0	18874368	49	5082
2026-01-19 01:13:05.51	356.58	12.82	-39.2	-43.0	10.1	3.54e-03	0	62	0	22020096	49	5743
2026-01-19 01:13:06.51	356.46	12.89	-40.7	-46.8	6.2	1.33e+00	0	62	0	23068672	52	7482
2026-01-19 01:13:07.52	356.33	12.97	-39.9	-44.3	8.6	7.98e-01	0	62	104	24117248	51	5985
2026-01-19 01:13:08.53	356.20	13.04	-40.5	-48.4	4.1	1.10e+00	0	62	104	24117248	51	9535
2026-01-19 01:13:09.54	356.07	13.12	-40.4	-46.3	6.6	1.61e-01	0	62	0	25165824	51	7469
2026-01-19 01:13:10.55	355.94	13.20	-40.7	-47.8	5.3	4.26e-01	0	62	0	28311552	52	8439
2026-01-19 01:13:11.56	355.81	13.27	-40.8	-49.7	4.0	1.01e+00	0	62	104	30408704	52	10415
2026-01-19 01:13:12.57	355.68	13.35	-40.9	-50.1	4.2	1.46e+00	0	62	104	30408704	52	10990
2026-01-19 01:13:13.58	355.55	13.42	-40.9	-52.1	3.8	1.48e+00	0	62	104	30408704	52	13770
2026-01-19 01:13:14.59	355.42	13.50	-40.9	-52.9	3.8	1.49e+00	0	62	104	30408704	52	15172
2026-01-19 01:13:15.60	355.28	13.58	-41.1	-52.3	3.8	1.49e+00	0	62	104	30408704	52	14148
2026-01-19 01:13:16.61	355.15	13.65	-41.6	-52.5	3.8	1.49e+00	0	62	104	30408704	53	13642
2026-01-19 01:13:17.62	355.01	13.73	-41.0	-53.0	3.8	1.49e+00	0	62	104	30408704	53	14437
2026-01-19 01:13:18.63	354.88	13.81	-41.0	-53.2	3.8	1.49e+00	0	62	104	30408704	53	14844
2026-01-19 01:13:19.64	354.74	13.88	-41.1	-53.1	3.8	1.49e+00	0	62	104	30408704	53	14648
2026-01-19 01:13:20.65	354.61	13.96	-41.0	-53.3	3.8	1.49e+00	0	62	104	30408704	53	15001
2026-01-19 01:13:21.66	354.47	14.04	-41.0	-53.4	3.8	1.49e+00	0	62	104	30408704	53	15070
2026-01-19 01:13:22.67	354.33	14.11	-41.0	-53.4	3.8	1.49e+00	0	62	104	30408704	53	15167
2026-01-19 01:13:23.68	354.19	14.19	-40.8	-53.2	3.8	1.49e+00	0	62	104	30408704	53	14798
2026-01-19 01:13:24.69	354.05	14.27	-40.7	-53.2	3.8	1.49e+00	0	62	104	30408704	53	14798
2026-01-19 01:13:25.70	353.91	14.34	-40.7	-53.2	3.8	1.49e+00	0	62	104	30408704	53	14728
2026-01-19 01:13:26.71	353.77	14.42	-40.7	-53.1	3.8	1.49e+00	0	62	104	30408704	53	14683
2026-01-19 01:13:27.72	353.63	14.50	-40.8	-53.3	3.8	1.49e+00	0	62	104	30408704	53	14899
2026-01-19 01:13:28.73	353.48	14.57	-40.5	-53.2	3.8	1.49e+00	0	62	104	30408704	53	14724
2026-01-19 01:13:29.74	353.34	14.65	-40.7	-53.1	3.8	1.49e+00	0	62	104	30408704	52	15567
2026-01-19 01:13:30.75	353.20	14.73	-40.8	-53.3	3.8	1.49e+00	0	62	104	30408704	52	15831
2026-01-19 01:13:31.76	353.05	14.81	-40.7	-53.1	3.8	1.49e+00	0	62	104	30408704	52	15568
2026-01-19 01:13:32.77	352.91	14.88	-40.3	-53.2	3.8	1.49e+00	0	62	104	30408704	52	15620
2026-01-19 01:13:33.78	352.76	14.96	-40.8	-53.3	3.8	1.49e+00	0	62	104	30408704	52	15763
2026-01-19 01:13:34.79	352.61	15.04	-40.6	-53.3	3.8	1.49e+00	0	62	104	30408704	52	15933
2026-01-19 01:13:35.80	352.46	15.12	-40.7	-53.2	3.8	1.49e+00	0	62	104	30408704	52	15627
2026-01-19 01:13:36.81	352.31	15.19	-40.4	-53.3	3.8	1.49e+00	0	62	104	30408704	52	15917
2026-01-19 01:13:37.81	352.17	15.27	-40.6	-53.2	3.8	1.49e+00	0	62	104	30408704	52	15731
2026-01-19 01:13:38.82	352.02	15.35	-40.1	-53.4	3.8	1.49e+00	0	62	104	30408704	52	16000
2026-01-19 01:13:39.83	351.86	15.43	-40.8	-53.4	3.8	1.49e+00	0	62	104	30408704	52	15950
2026-01-19 01:13:40.84	351.71	15.50	-40.7	-53.3	3.8	1.49e+00	0	62	104	30408704	52	15835
2026-01-19 01:13:41.85	351.56	15.58	-40.3	-53.3	3.8	1.49e+00	0	62	104	30408704	52	15854
2026-01-19 01:13:42.86	351.41	15.66	-40.1	-53.5	3.8	1.49e+00	0	62	104	30408704	52	16216
2026-01-19 01:13:43.87	351.25	15.74	-40.5	-53.4	3.8	1.49e+00	0	62	104	30408704	51	16960
2026-01-19 01:13:44.88	351.10	15.82	-40.4	-53.4	3.8	1.49e+00	0	62	104	30408704	51	16921
2026-01-19 01:13:45.89	350.94	15.89	-40.6	-53.6	3.9	1.49e+00	0	62	104	30408704	52	16344
2026-01-19 01:13:46.90	350.78	15.97	-40.3	-53.4	3.8	1.49e+00	0	62	104	30408704	52	15973
2026-01-19 01:13:47.91	350.62	16.05	-40.0	-53.4	3.8	1.49e+00	0	62	104	30408704	51	16990
2026-01-19 01:13:48.92	350.46	16.13	-40.2	-53.6	3.8	1.49e+00	0	62	104	30408704	51	17340
2026-01-19 01:13:49.93	350.31	16.21	-40.9	-53.6	3.8	1.49e+00	0	62	104	30408704	52	16334
2026-01-19 01:13:50.94	350.14	16.28	-41.0	-53.5	3.8	1.49e+00	0	62	104	30408704	52	16197
2026-01-19 01:13:51.95	349.98	16.36	-40.0	-53.5	3.8	1.49e+00	0	62	104	30408704	51	17235
2026-01-19 01:13:52.96	349.82	16.44	-40.7	-53.5	3.8	1.49e+00	0	62	104	30408704	52	16235
2026-01-19 01:13:53.97	349.66	16.52	-41.0	-53.6	3.8	1.49e+00	0	62	104	30408704	52	16330
2026-01-19 01:13:54.98	349.49	16.60	-41.5	-53.8	3.8	1.49e+00	0	62	104	30408704	53	15844
2026-01-19 01:13:55.99	349.33	16.67	-40.3	-53.3	3.8	1.49e+00	0	62	104	30408704	52	15864
2026-01-19 01:13:57.00	349.16	16.75	-41.1	-53.4	3.8	1.49e+00	0	62	104	30408704	52	16102
2026-01-19 01:13:58.01	349.00	16.83	-41.2	-53.8	3.8	1.49e+00	0	62	104	30408704	53	15798
2026-01-19 01:13:59.02	348.83	16.91	-41.5	-53.8	3.8	1.49e+00	0	62	104	30408704	53	15927
2026-01-19 01:14:00.03	348.66	16.99	-41.1	-53.5	3.8	1.49e+00	0	62	104	30408704	53	15284
2026-01-19 01:14:01.04	348.49	17.07	-40.9	-53.5	3.8	1.49e+00	0	62	104	30408704	53	15278
2026-01-19 01:14:02.05	348.32	17.14	-41.5	-53.8	3.8	1.49e+00	0	62	104	30408704	53	15853
2026-01-19 01:14:03.06	348.15	17.22	-41.4	-53.7	3.8	1.49e+00	0	62	104	30408704	53	15741
2026-01-19 01:14:04.06	347.98	17.30	-41.4	-53.8	3.8	1.49e+00	0	62	104	30408704	53	15879
2026-01-19 01:14:05.07	347.81	17.38	-41.0	-53.5	3.8	1.49e+00	0	62	104	30408704	53	15232
2026-01-19 01:14:06.08	347.63	17.46	-41.5	-53.9	3.8	1.49e+00	0	62	104	30408704	53	16015
2026-01-19 01:14:07.09	347.46	17.53	-41.1	-53.6	3.8	1.49e+00	0	62	104	30408704	53	15489
2026-01-19 01:14:08.10	347.28	17.61	-41.5	-53.8	3.8	1.49e+00	0	62	104	30408704	53	15801
2026-01-19 01:14:09.11	347.11	17.69	-40.9	-53.5	3.8	1.49e+00	0	62	104	30408704	53	15334
2026-01-19 01:14:10.12	346.93	17.77	-41.5	-53.8	3.8	1.49e+00	0	62	104	30408704	53	15920
2026-01-19 01:14:11.13	346.75	17.85	-41.0	-53.5	3.8	1.49e+00	0	62	104	30408704	53	15272
2026-01-19 01:14:12.14	346.57	17.92	-41.3	-53.7	3.8	1.49e+00	0	62	104	30408704	53	15640
2026-01-19 01:14:13.14	346.39	18.00	-41.1	-53.6	3.8	1.49e+00	0	62	104	30408704	53	15450
2026-01-19 01:14:14.15	346.21	18.08	-41.2	-53.6	3.8	1.49e+00	0	62	104	30408704	53	15488
2026-01-19 01:14:15.16	346.03	18.16	-41.0	-53.4	3.8	1.49e+00	0	62	104	30408704	53	15131
2026-01-19 01:14:16.17	345.85	18.23	-41.1	-53.5	3.8	1.49e+00	0	62	104	30408704	53	15325
2026-01-19 01:14:17.18	345.66	18.31	-41.1	-53.5	3.8	1.49e+00	0	62	104	30408704	53	15369
2026-01-19 01:14:18.19	345.48	18.39	-41.0	-53.5	3.8	1.49e+00	0	62	104	30408704	53	15259
2026-01-19 01:14:19.20	345.29	18.47	-40.9	-53.4	3.8	1.49e+00	0	62	104	30408704	53	15151
2026-01-19 01:14:20.21	345.10	18.54	-41.0	-53.4	3.8	1.49e+00	0	62	104	30408704	53	15166
2026-01-19 01:14:21.22	344.92	18.62	-41.1	-53.7	3.8	1.49e+00	0	62	104	30408704	53	15661
2026-01-19 01:14:22.22	344.73	18.70	-41.0	-53.4	3.8	1.49e+00	0	62	104	30408704	53	15144
2026-01-19 01:14:23.23	344.54	18.77	-41.0	-53.5	3.8	1.49e+00	0	62	104	30408704	53	15312
2026-01-19 01:14:24.24	344.35	18.85	-40.9	-53.4	3.8	1.49e+00	0	62	104	30408704	53	15170
2026-01-19 01:14:25.25	344.16	18.93	-41.2	-53.7	3.8	1.49e+00	0	62	104	30408704	53	15709
2026-01-19 01:14:26.26	343.96	19.01	-40.8	-53.3	3.8	1.49e+00	0	62	104	30408704	53	14893
2026-01-19 01:14:27.27	343.77	19.08	-41.3	-53.6	3.8	1.49e+00	0	62	104	30408704	53	15569
2026-01-19 01:14:28.28	343.58	19.16	-40.9	-53.4	3.8	1.49e+00	0	62	104	30408704	53	15121
2026-01-19 01:14:29.29	343.38	19.24	-41.3	-53.7	3.8	1.49e+00	0	62	104	30408704	53	15676
2026-01-19 01:14:30.29	343.19	19.31	-40.9	-53.4	3.8	1.49e+00	0	62	104	30408704	53	15077
2026-01-19 01:14:31.31	342.99	19.39	-41.2	-53.8	3.8	1.49e+00	0	62	104	30408704	53	15769
2026-01-19 01:14:32.31	342.79	19.46	-41.2	-53.6	3.8	1.49e+00	0	62	104	30408704	53	15459
2026-01-19 01:14:33.32	342.59	19.54	-41.4	-53.7	3.8	1.49e+00	0	62	104	30408704	53	15750
2026-01-19 01:14:34.33	342.39	19.62	-40.7	-53.2	3.8	1.49e+00	0	62	104	30408704	53	14788
2026-01-19 01:14:35.34	342.19	19.69	-40.5	-53.3	3.8	1.49e+00	0	62	104	30408704	53	14895
2026-01-19 01:14:36.35	341.98	19.77	-40.5	-53.3	3.8	1.49e+00	0	62	104	30408704	53	14924
2026-01-19 01:14:37.36	341.78	19.84	-40.6	-53.5	3.8	1.49e+00	0	62	104	30408704	53	15235
2026-01-19 01:14:38.37	341.57	19.92	-40.9	-53.7	3.8	1.49e+00	0	62	104	30408704	53	15669
2026-01-19 01:14:39.38	341.37	19.99	-41.1	-53.8	3.8	1.49e+00	0	62	104	30408704	53	15907
2026-01-19 01:14:40.39	341.16	20.07	-42.3	-53.2	3.8	1.49e+00	0	62	104	30408704	55	13175
2026-01-19 01:14:41.40	340.95	20.14	-41.9	-50.2	4.6	1.44e+00	0	62	104	30408704	55	9297
2026-01-19 01:14:42.41	340.74	20.22	-41.7	-51.9	3.9	1.49e+00	0	62	104	30408704	55	11307
2026-01-19 01:14:43.42	340.53	20.29	-41.2	-47.5	6.2	4.17e-01	0	62	0	31457280	54	7263
2026-01-19 01:14:44.43	340.32	20.37	-41.0	-46.4	7.3	1.58e-01	0	62	0	34603008	54	6409
2026-01-19 01:14:45.43	340.11	20.44	-40.9	-45.7	8.2	7.09e-02	0	62	0	37748736	53	6207
2026-01-19 01:14:46.44	339.90	20.51	-40.9	-45.4	8.7	3.87e-02	0	62	0	40894464	53	6001
2026-01-19 01:14:47.45	339.69	20.59	-40.7	-44.6	9.5	1.81e-02	0	62	0	44040192	53	5523
2026-01-19 01:14:48.46	339.47	20.66	-40.4	-43.9	10.3	6.86e-03	0	62	0	47185920	52	5358
2026-01-19 01:14:49.47	339.25	20.74	-39.9	-42.9	11.6	1.04e-03	0	62	0	50331648	51	5075
2026-01-19 01:14:50.48	339.04	20.81	-39.5	-42.1	12.5	1.37e-04	0	62	0	53477376	50	4888
2026-01-19 01:14:51.49	338.82	20.88	-39.3	-41.9	12.9	6.02e-05	0	62	0	56623104	50	4765
2026-01-19 01:14:52.50	338.60	20.95	-39.2	-41.6	13.2	2.28e-05	0	62	0	59768832	50	4630
2026-01-19 01:14:53.51	338.38	21.03	-39.3	-41.7	13.3	1.67e-05	0	62	0	62914560	50	4653
2026-01-19 01:14:54.52	338.16	21.10	-39.2	-41.5	13.4	1.14e-05	0	62	0	66060288	50	4598
2026-01-19 01:14:55.53	337.93	21.17	-39.3	-41.6	13.4	1.52e-05	0	62	0	69206016	50	4610
2026-01-19 01:14:56.54	337.71	21.24	-39.3	-41.5	13.6	6.10e-06	0	62	0	72351744	50	4593
2026-01-19 01:14:57.55	337.49	21.31	-39.3	-41.5	13.7	6.10e-06	0	62	0	75497472	50	4590
2026-01-19 01:14:58.56	337.26	21.38	-39.5	-41.7	13.6	6.10e-06	0	62	0	78643200	50	4684
2026-01-19 01:14:59.57	337.03	21.46	-39.4	-41.6	13.8	6.80e-06	0	62	0	81788928	50	4624
2026-01-19 01:15:00.58	336.81	21.53	-39.4	-41.6	13.9	3.00e-06	0	62	0	84934656	50	4602
2026-01-19 01:15:01.59	336.58	21.60	-39.5	-41.7	13.8	3.80e-06	0	62	0	88080384	50	4688
2026-01-19 01:15:02.60	336.35	21.67	-39.5	-41.7	13.8	3.00e-06	0	62	0	91226112	50	4672
2026-01-19 01:15:03.61	336.12	21.74	-39.6	-41.8	13.7	5.30e-06	0	62	0	94371840	50	4738
2026-01-19 01:15:04.62	335.88	21.80	-39.6	-41.8	13.7	3.80e-06	0	62	0	97517568	50	4734
2026-01-19 01:15:05.63	335.65	21.87	-39.6	-41.9	13.7	6.80e-06	0	62	0	100663296	50	4792
2026-01-19 01:15:06.64	335.42	21.94	-39.7	-42.0	13.7	5.30e-06	0	62	0	103809024	50	4832
2026-01-19 01:15:07.65	335.18	22.01	-39.8	-42.1	13.6	6.10e-06	0	62	0	106954752	50	4899
2026-01-19 01:15:08.66	334.94	22.08	-39.8	-42.1	13.6	9.10e-06	0	62	0	110100480	50	4906
2026-01-19 01:15:09.67	334.71	22.15	-40.0	-42.3	13.4	1.52e-05	0	62	0	113246208	50	5020
2026-01-19 01:15:10.68	334.47	22.21	-39.9	-42.2	13.6	6.10e-06	0	62	0	116391936	50	4942
2026-01-19 01:15:11.69	334.23	22.28	-40.0	-42.3	13.4	9.10e-06	0	62	0	119537664	50	5034
2026-01-19 01:15:12.71	333.99	22.35	-39.9	-42.3	13.5	1.60e-05	0	62	0	122683392	50	4994
2026-01-19 01:15:13.72	333.75	22.41	-39.9	-42.2	13.6	1.14e-05	0	62	0	125829120	50	4929
2026-01-19 01:15:14.73	333.50	22.48	-39.8	-42.0	13.7	9.10e-06	0	62	0	128974848	50	4867
2026-01-19 01:15:15.74	333.26	22.55	-39.7	-42.0	13.8	3.80e-06	0	62	0	132120576	50	4824
2026-01-19 01:15:16.75	333.01	22.61	-39.8	-42.1	13.8	3.00e-06	0	62	0	135266304	50	4879
2026-01-19 01:15:17.76	332.77	22.68	-39.8	-42.1	13.7	7.60e-06	0	62	0	138412032	50	4895
2026-01-19 01:15:18.77	332.52	22.74	-40.0	-42.2	13.6	6.10e-06	0	62	0	141557760	50	4982
2026-01-19 01:15:19.78	332.27	22.80	-40.0	-42.4	13.5	8.30e-06	0	62	0	144703488	50	5046
2026-01-19 01:15:20.78	332.03	22.87	-39.9	-42.2	13.7	7.60e-06	0	62	0	147849216	50	4938
2026-01-19 01:15:21.79	331.78	22.93	-39.9	-42.1	13.7	6.80e-06	0	62	0	150994944	50	4904
2026-01-19 01:15:22.80	331.53	22.99	-39.9	-42.2	13.6	5.30e-06	0	62	0	154140672	50	4968
2026-01-19 01:15:23.81	331.28	23.05	-39.8	-42.0	13.8	7.60e-06	0	62	0	157286400	50	4858
2026-01-19 01:15:24.82	331.02	23.12	-39.9	-42.2	13.6	7.60e-06	0	62	0	160432128	50	4963
2026-01-19 01:15:25.83	330.77	23.18	-40.0	-42.3	13.5	1.37e-05	0	62	0	163577856	50	5029
2026-01-19 01:15:26.84	330.51	23.24	-40.0	-42.3	13.6	1.14e-05	0	62	0	166723584	50	5009
2026-01-19 01:15:27.85	330.26	23.30	-40.0	-42.3	13.5	8.30e-06	0	62	0	169869312	50	5023
2026-01-19 01:15:28.86	330.00	23.36	-40.1	-42.5	13.4	1.44e-05	0	62	0	173015040	50	5107
2026-01-19 01:15:29.87	329.74	23.42	-40.1	-42.4	13.5	1.22e-05	0	62	0	176160768	50	5081
2026-01-19 01:15:30.89	329.48	23.48	-40.1	-42.5	13.5	1.37e-05	0	62	0	179306496	50	5101
2026-01-19 01:15:31.90	329.22	23.54	-40.1	-42.4	13.5	1.06e-05	0	62	0	182452224	50	5064
2026-01-19 01:15:32.90	328.96	23.59	-40.0	-42.3	13.6	9.90e-06	0	62	0	185597952	50	4998
2026-01-19 01:15:33.91	328.70	23.65	-40.0	-42.2	13.7	3.00e-06	0	62	0	188743680	50	4961
2026-01-19 01:15:34.92	328.44	23.71	-40.0	-42.2	13.6	3.80e-06	0	62	0	191889408	50	4968
2026-01-19 01:15:35.93	328.17	23.76	-40.0	-42.3	13.6	1.06e-05	0	62	0	195035136	50	4997
2026-01-19 01:15:36.94	327.91	23.82	-40.0	-42.3	13.6	9.90e-06	0	62	0	198180864	50	5007
2026-01-19 01:15:37.95	327.64	23.87	-39.9	-42.2	13.7	8.30e-06	0	62	0	201326592	50	4943
2026-01-19 01:15:38.96	327.38	23.93	-39.8	-42.0	13.9	6.80e-06	0	62	0	204472320	50	4834
2026-01-19 01:15:39.97	327.11	23.98	-39.8	-41.9	14.0	3.00e-06	0	62	0	207618048	50	4810
2026-01-19 01:15:40.98	326.84	24.04	-39.7	-41.9	14.0	1.50e-06	0	62	0	210763776	50	4771
2026-01-19 01:15:41.99	326.57	24.09	-39.8	-42.0	13.9	2.20e-06	0	62	0	213909504	50	4825
2026-01-19 01:15:43.00	326.30	24.14	-39.8	-42.0	13.8	3.80e-06	0	62	0	217055232	50	4863
2026-01-19 01:15:44.01	326.03	24.19	-39.9	-42.2	13.7	9.90e-06	0	62	0	220200960	50	4946
2026-01-19 01:15:45.02	325.76	24.25	-40.0	-42.2	13.6	8.30e-06	0	62	0	223346688	50	4975
2026-01-19 01:15:46.03	325.49	24.30	-40.1	-42.4	13.5	8.30e-06	0	62	0	226492416	50	5065
2026-01-19 01:15:47.03	325.21	24.35	-40.2	-42.5	13.4	2.13e-05	0	62	0	230686720	50	5137
2026-01-19 01:15:48.04	324.94	24.39	-40.1	-42.5	13.5	9.10e-06	0	62	0	232783872	50	5103
2026-01-19 01:15:49.05	324.66	24.44	-40.0	-42.3	13.7	9.90e-06	0	62	0	235929600	50	4988
2026-01-19 01:15:50.06	324.39	24.49	-39.9	-42.2	13.8	2.20e-06	0	62	0	239075328	50	4927
2026-01-19 01:15:51.07	324.11	24.54	-39.9	-42.2	13.8	9.90e-06	0	62	0	242221056	50	4933
2026-01-19 01:15:52.08	323.83	24.59	-39.9	-42.1	13.9	1.50e-06	0	62	0	246415360	50	4879
2026-01-19 01:15:53.09	323.55	24.63	-39.9	-42.0	13.9	1.50e-06	0	62	0	249561088	50	4867
2026-01-19 01:15:54.10	323.27	24.68	-39.8	-42.0	13.9	1.50e-06	0	62	0	252706816	50	4859
2026-01-19 01:15:55.11	322.99	24.72	-39.7	-41.9	14.0	1.50e-06	0	62	0	255852544	50	4776
2026-01-19 01:15:56.12	322.71	24.77	-39.7	-41.8	14.1	7.00e-07	0	62	0	257949696	50	4725
2026-01-19 01:15:57.13	322.43	24.81	-39.7	-41.9	14.1	2.20e-06	0	62	0	261095424	50	4763
2026-01-19 01:15:58.14	322.15	24.85	-39.6	-41.7	14.1	0.00e+00	0	62	0	265289728	50	4695
2026-01-19 01:15:59.15	321.86	24.89	-39.7	-41.8	14.1	1.50e-06	0	62	0	268435456	50	4730
2026-01-19 01:16:00.16	321.58	24.94	-39.7	-41.8	14.1	3.00e-06	0	62	0	271581184	50	4745
2026-01-19 01:16:01.17	321.29	24.98	-39.7	-41.8	14.1	7.00e-07	0	62	0	274726912	50	4744
2026-01-19 01:16:02.18	321.01	25.02	-39.6	-41.8	14.1	7.00e-07	0	62	0	277872640	50	4713
2026-01-19 01:16:03.19	320.72	25.06	-39.7	-41.8	14.1	2.20e-06	0	62	0	281018368	50	4720
2026-01-19 01:16:04.20	320.43	25.09	-39.7	-41.8	14.0	7.00e-07	0	62	0	284164096	50	4758
2026-01-19 01:16:05.21	320.14	25.13	-39.7	-41.8	14.0	1.50e-06	0	62	0	287309824	50	4755
2026-01-19 01:16:06.22	319.85	25.17	-39.8	-42.0	13.9	2.20e-06	0	62	0	290455552	50	4824
2026-01-19 01:16:07.23	319.56	25.21	-39.8	-41.9	14.0	4.50e-06	0	62	0	293601280	50	4805
2026-01-19 01:16:08.24	319.27	25.24	-39.8	-41.9	14.0	2.20e-06	0	62	0	296747008	50	4809
2026-01-19 01:16:09.26	318.98	25.28	-39.7	-41.9	14.0	1.50e-06	0	62	0	299892736	50	4783
2026-01-19 01:16:10.26	318.69	25.31	-39.7	-41.8	14.1	1.50e-06	0	62	0	303038464	50	4719
2026-01-19 01:16:11.27	318.40	25.34	-39.6	-41.7	14.2	7.00e-07	0	62	0	306184192	50	4652
2026-01-19 01:16:12.28	318.11	25.38	-39.6	-41.6	14.3	7.00e-07	0	62	0	309329920	50	4651
2026-01-19 01:16:13.29	317.81	25.41	-39.5	-41.5	14.4	1.50e-06	0	62	0	312475648	50	4576
2026-01-19 01:16:14.30	317.52	25.44	-39.4	-41.4	14.5	7.00e-07	0	62	0	315621376	50	4512
2026-01-19 01:16:15.31	317.22	25.47	-39.4	-41.4	14.5	7.00e-07	0	62	0	318767104	50	4538
2026-01-19 01:16:16.32	316.93	25.50	-39.5	-41.6	14.3	1.50e-06	0	62	0	321912832	50	4621
2026-01-19 01:16:17.33	316.63	25.53	-39.5	-41.6	14.3	7.00e-07	0	62	0	325058560	50	4600
2026-01-19 01:16:18.34	316.34	25.55	-39.5	-41.6	14.3	1.50e-06	0	62	0	328204288	50	4599
2026-01-19 01:16:19.35	316.04	25.58	-39.6	-41.6	14.2	7.00e-07	0	62	0	331350016	50	4651
2026-01-19 01:16:20.36	315.74	25.61	-39.7	-41.8	14.0	4.50e-06	0	62	0	334495744	50	4748
2026-01-19 01:16:21.37	315.44	25.63	-39.7	-41.9	13.9	3.00e-06	0	62	0	337641472	50	4797
2026-01-19 01:16:22.38	315.15	25.66	-39.8	-42.1	13.8	1.50e-06	0	62	0	340787200	50	4871
2026-01-19 01:16:23.39	314.85	25.68	-39.8	-42.0	13.9	3.80e-06	0	62	0	343932928	50	4830
2026-01-19 01:16:24.40	314.55	25.70	-39.8	-42.0	13.8	3.80e-06	0	62	0	347078656	50	4857
2026-01-19 01:16:25.41	314.25	25.72	-39.6	-41.7	14.1	7.00e-07	0	62	0	350224384	50	4684
2026-01-19 01:16:26.41	313.95	25.75	-39.6	-41.7	14.2	7.00e-07	0	62	0	353370112	50	4685
2026-01-19 01:16:27.42	313.65	25.77	-39.6	-41.8	14.1	1.50e-06	0	62	0	356515840	50	4708
2026-01-19 01:16:28.43	313.35	25.79	-39.6	-41.7	14.1	2.20e-06	0	62	0	359661568	50	4687
2026-01-19 01:16:29.44	313.05	25.80	-39.7	-41.8	14.0	1.50e-06	0	62	0	362807296	50	4745
2026-01-19 01:16:30.45	312.75	25.82	-39.6	-41.8	14.1	4.50e-06	0	62	0	365953024	50	4711
2026-01-19 01:16:31.46	312.45	25.84	-39.5	-41.6	14.3	1.50e-06	0	62	0	369098752	50	4629
2026-01-19 01:16:32.47	312.14	25.85	-39.5	-41.5	14.4	7.00e-07	0	62	0	372244480	50	4589
2026-01-19 01:16:33.48	311.84	25.87	-39.5	-41.6	14.2	0.00e+00	0	62	0	375390208	50	4615
2026-01-19 01:16:34.49	311.54	25.88	-39.5	-41.6	14.3	7.00e-07	0	62	0	378535936	50	4636
2026-01-19 01:16:35.50	311.23	25.90	-39.6	-41.7	14.2	4.50e-06	0	62	0	381681664	50	4670
2026-01-19 01:16:36.51	310.93	25.91	-39.7	-41.8	14.1	7.00e-07	0	62	0	384827392	50	4753
2026-01-19 01:16:37.52	310.63	25.92	-39.8	-42.0	13.9	3.00e-06	0	62	0	387973120	50	4824
2026-01-19 01:16:38.53	310.32	25.93	-39.9	-42.1	13.8	5.30e-06	0	62	0	391118848	50	4917
2026-01-19 01:16:39.54	310.02	25.94	-39.9	-42.2	13.7	4.50e-06	0	62	0	394264576	50	4939
2026-01-19 01:16:40.55	309.72	25.95	-40.0	-42.2	13.7	3.80e-06	0	62	0	397410304	50	4967
2026-01-19 01:16:41.57	309.41	25.96	-40.0	-42.3	13.6	5.30e-06	0	62	0	400556032	50	5004
2026-01-19 01:16:42.58	309.10	25.97	-40.1	-42.4	13.5	4.50e-06	0	62	0	403701760	50	5062
2026-01-19 01:16:43.58	308.80	25.97	-40.1	-42.5	13.5	6.80e-06	0	62	0	406847488	50	5105
2026-01-19 01:16:44.59	308.50	25.98	-39.9	-42.1	13.8	4.50e-06	0	62	0	409993216	50	4902
2026-01-19 01:16:45.60	308.19	25.98	-39.7	-41.9	14.0	1.50e-06	0	62	0	413138944	50	4791
2026-01-19 01:16:46.61	307.89	25.99	-39.8	-41.9	14.0	5.30e-06	0	62	0	416284672	50	4802
2026-01-19 01:16:47.62	307.58	25.99	-39.7	-41.8	14.1	7.00e-07	0	62	0	419430400	50	4759
2026-01-19 01:16:48.63	307.28	25.99	-39.8	-42.0	13.9	1.50e-06	0	62	0	422576128	50	4842
2026-01-19 01:16:49.64	306.97	25.99	-39.8	-42.0	13.9	5.30e-06	0	62	0	425721856	50	4856
2026-01-19 01:16:50.65	306.67	25.99	-39.8	-42.1	13.8	2.20e-06	0	62	0	428867584	50	4887
2026-01-19 01:16:51.66	306.36	25.99	-39.9	-42.1	13.8	2.20e-06	0	62	0	432013312	50	4900
2026-01-19 01:16:52.66	306.06	25.99	-39.8	-42.0	13.9	3.00e-06	0	62	0	435159040	50	4862
2026-01-19 01:16:53.68	305.75	25.99	-39.7	-41.8	14.0	1.50e-06	0	62	0	438304768	50	4758
2026-01-19 01:16:54.69	305.45	25.98	-39.7	-41.8	14.1	2.20e-06	0	62	0	441450496	50	4747
2026-01-19 01:16:55.70	305.14	25.98	-39.7	-41.9	14.0	0.00e+00	0	62	0	444596224	50	4775
2026-01-19 01:16:56.71	304.84	25.97	-39.7	-41.9	14.0	3.00e-06	0	62	0	447741952	50	4797
2026-01-19 01:16:57.72	304.53	25.97	-39.8	-41.9	14.0	1.50e-06	0	62	0	450887680	50	4797
2026-01-19 01:16:58.73	304.23	25.96	-39.8	-42.0	13.9	3.80e-06	0	62	0	454033408	50	4842
2026-01-19 01:16:59.73	303.93	25.95	-39.9	-42.1	13.9	7.00e-07	0	62	0	457179136	50	4903
2026-01-19 01:17:00.74	303.62	25.94	-39.9	-42.1	13.8	3.80e-06	0	62	0	460324864	50	4901
2026-01-19 01:17:01.75	303.32	25.93	-39.9	-42.1	13.8	6.80e-06	0	62	0	463470592	50	4922
2026-01-19 01:17:02.76	303.01	25.92	-39.9	-42.1	13.8	5.30e-06	0	62	0	466616320	50	4919
2026-01-19 01:17:03.77	302.71	25.91	-39.9	-42.2	13.7	4.50e-06	0	62	0	469762048	50	4947
2026-01-19 01:17:04.78	302.41	25.90	-40.0	-42.3	13.6	9.10e-06	0	62	0	472907776	50	5006
2026-01-19 01:17:05.79	302.10	25.89	-39.9	-42.1	13.8	3.80e-06	0	62	0	476053504	50	4880
2026-01-19 01:17:06.80	301.80	25.87	-39.9	-42.1	13.8	5.30e-06	0	62	0	479199232	50	4899
2026-01-19 01:17:07.81	301.50	25.86	-39.7	-41.8	14.0	4.50e-06	0	62	0	482344960	50	4744
2026-01-19 01:17:08.82	301.19	25.84	-39.7	-41.8	14.1	0.00e+00	0	62	0	485490688	50	4741
2026-01-19 01:17:09.83	300.89	25.82	-39.7	-41.8	14.1	6.80e-06	0	62	0	488636416	50	4739
2026-01-19 01:17:10.84	300.59	25.81	-39.5	-41.6	14.3	0.00e+00	0	62	0	491782144	50	4634
2026-01-19 01:17:11.85	300.29	25.79	-39.6	-41.7	14.2	0.00e+00	0	62	0	494927872	50	4654
2026-01-19 01:17:12.86	299.99	25.77	-39.5	-41.6	14.3	7.00e-07	0	62	0	498073600	50	4642
2026-01-19 01:17:13.87	299.69	25.75	-39.6	-41.7	14.2	1.50e-06	0	62	0	501219328	50	4692
2026-01-19 01:17:14.88	299.38	25.73	-39.7	-41.8	14.1	1.50e-06	0	62	0	504365056	50	4736
2026-01-19 01:17:15.89	299.08	25.71	-39.8	-42.0	13.9	3.00e-06	0	62	0	507510784	50	4828
2026-01-19 01:17:16.90	298.79	25.68	-39.9	-42.1	13.8	9.10e-06	0	62	0	510656512	50	4885
2026-01-19 01:17:17.91	298.49	25.66	-39.8	-42.1	13.8	3.80e-06	0	62	0	513802240	50	4884
2026-01-19 01:17:18.92	298.19	25.64	-39.9	-42.1	13.8	3.00e-06	0	62	0	516947968	50	4926
2026-01-19 01:17:19.93	297.89	25.61	-39.9	-42.1	13.8	5.30e-06	0	62	0	520093696	50	4881
2026-01-19 01:17:20.94	297.59	25.58	-39.9	-42.1	13.8	7.60e-06	0	62	0	523239424	50	4925
2026-01-19 01:17:21.95	297.29	25.56	-39.8	-42.0	13.9	3.00e-06	0	62	0	526385152	50	4844
2026-01-19 01:17:22.96	297.00	25.53	-39.8	-42.0	13.9	2.20e-06	0	62	0	529530880	50	4869
2026-01-19 01:17:23.97	296.70	25.50	-39.9	-42.1	13.8	3.80e-06	0	62	0	532676608	50	4910
2026-01-19 01:17:24.98	296.40	25.47	-40.0	-42.2	13.7	6.10e-06	0	62	0	535822336	50	4970
2026-01-19 01:17:25.99	296.11	25.44	-39.8	-42.0	13.9	5.30e-06	0	62	0	538968064	50	4869
2026-01-19 01:17:27.00	295.81	25.41	-39.8	-42.0	13.9	1.50e-06	0	62	0	542113792	50	4860
2026-01-19 01:17:28.01	295.52	25.38	-39.8	-42.0	13.9	3.00e-06	0	62	0	545259520	50	4835
2026-01-19 01:17:29.02	295.23	25.35	-39.7	-41.8	14.1	7.00e-07	0	62	0	548405248	50	4747
2026-01-19 01:17:30.03	294.93	25.32	-39.6	-41.7	14.2	1.50e-06	0	62	0	551550976	50	4694
2026-01-19 01:17:31.04	294.64	25.28	-39.6	-41.7	14.2	4.50e-06	0	62	0	554696704	50	4695
2026-01-19 01:17:32.05	294.35	25.25	-39.6	-41.7	14.2	0.00e+00	0	62	0	557842432	50	4693
2026-01-19 01:17:33.06	294.06	25.21	-39.6	-41.7	14.2	1.50e-06	0	62	0	560988160	50	4683
2026-01-19 01:17:34.07	293.77	25.17	-39.6	-41.7	14.2	7.00e-07	0	62	0	564133888	50	4701
2026-01-19 01:17:35.08	293.48	25.14	-39.7	-41.9	14.0	7.00e-07	0	62	0	568328192	50	4761
2026-01-19 01:17:36.09	293.19	25.10	-39.7	-41.8	14.1	7.00e-07	0	62	0	571473920	50	4746
2026-01-19 01:17:37.10	292.90	25.06	-39.7	-41.9	14.0	1.50e-06	0	62	0	573571072	50	4764
2026-01-19 01:17:38.11	292.61	25.02	-39.8	-42.0	13.9	4.50e-06	0	62	0	576716800	50	4843
2026-01-19 01:17:39.12	292.33	24.98	-39.9	-42.2	13.7	8.30e-06	0	62	0	579862528	50	4930
2026-01-19 01:17:40.13	292.04	24.94	-40.0	-42.3	13.5	9.90e-06	0	62	0	584056832	50	5003
2026-01-19 01:17:41.14	291.76	24.90	-40.0	-42.3	13.4	1.14e-05	0	62	0	587202560	50	5038
2026-01-19 01:17:42.15	291.47	24.86	-40.0	-42.3	13.5	1.22e-05	0	62	0	590348288	50	5017
2026-01-19 01:17:43.16	291.19	24.82	-40.0	-42.2	13.6	9.90e-06	0	62	0	593494016	50	4970
2026-01-19 01:17:44.17	290.90	24.77	-39.8	-42.0	13.8	4.50e-06	0	62	0	595591168	50	4852
2026-01-19 01:17:45.18	290.62	24.73	-39.8	-42.1	13.8	2.20e-06	0	62	0	599785472	50	4873
2026-01-19 01:17:46.19	290.34	24.68	-39.7	-41.9	14.0	5.30e-06	0	62	0	602931200	50	4785
2026-01-19 01:17:47.20	290.06	24.64	-39.7	-41.9	14.0	3.00e-06	0	62	0	606076928	50	4777
2026-01-19 01:17:48.21	289.78	24.59	-39.7	-41.9	13.9	4.50e-06	0	62	0	609222656	50	4803
2026-01-19 01:17:49.22	289.50	24.54	-39.7	-41.8	14.1	3.80e-06	0	62	0	612368384	50	4727
2026-01-19 01:17:50.23	289.22	24.50	-39.6	-41.7	14.1	7.00e-07	0	62	0	615514112	50	4704
2026-01-19 01:17:51.24	288.94	24.45	-39.6	-41.7	14.1	1.50e-06	0	62	0	618659840	50	4698
2026-01-19 01:17:52.25	288.67	24.40	-39.6	-41.7	14.1	2.20e-06	0	62	0	621805568	50	4685
2026-01-19 01:17:53.26	288.39	24.35	-39.6	-41.7	14.1	3.00e-06	0	62	0	624951296	50	4703
2026-01-19 01:17:54.27	288.12	24.30	-39.6	-41.7	14.2	6.10e-06	0	62	0	628097024	50	4671
2026-01-19 01:17:55.28	287.84	24.25	-39.6	-41.7	14.2	7.00e-07	0	62	0	631242752	50	4692
2026-01-19 01:17:56.29	287.57	24.20	-39.6	-41.7	14.2	2.20e-06	0	62	0	634388480	50	4677
2026-01-19 01:17:57.30	287.30	24.15	-39.6	-41.8	14.1	3.00e-06	0	62	0	637534208	50	4712
2026-01-19 01:17:58.31	287.03	24.10	-39.7	-41.8	14.0	1.50e-06	0	62	0	640679936	50	4733
2026-01-19 01:17:59.32	286.76	24.04	-39.7	-41.8	14.1	2.20e-06	0	62	0	643825664	50	4729
2026-01-19 01:18:00.31	286.49	23.99	-39.6	-41.8	14.1	7.00e-07	0	62	0	646971392	50	4721
2026-01-19 01:18:01.32	286.22	23.94	-39.6	-41.7	14.2	7.00e-07	0	62	0	650117120	50	4678
2026-01-19 01:18:02.33	285.96	23.88	-39.6	-41.7	14.2	1.50e-06	0	62	0	653262848	50	4656
2026-01-19 01:18:03.34	285.69	23.83	-39.6	-41.7	14.2	7.00e-07	0	62	0	656408576	50	4656
2026-01-19 01:18:04.35	285.42	23.77	-39.6	-41.7	14.2	3.00e-06	0	62	0	659554304	50	4652
2026-01-19 01:18:05.36	285.16	23.71	-39.7	-41.8	14.0	3.00e-06	0	62	0	662700032	50	4730
2026-01-19 01:18:06.37	284.90	23.66	-39.7	-41.9	14.0	0.00e+00	0	62	0	665845760	50	4774
2026-01-19 01:18:07.38	284.63	23.60	-39.7	-41.9	14.0	3.00e-06	0	62	0	668991488	50	4780
2026-01-19 01:18:08.38	284.37	23.54	-39.8	-42.0	13.9	4.50e-06	0	62	0	672137216	50	4827
2026-01-19 01:18:09.39	284.11	23.48	-39.6	-41.7	14.1	0.00e+00	0	62	0	675282944	50	4698
2026-01-19 01:18:10.40	283.85	23.42	-39.6	-41.7	14.2	1.50e-06	0	62	0	678428672	50	4673
2026-01-19 01:18:11.41	283.59	23.36	-39.6	-41.8	14.0	1.50e-06	0	62	0	681574400	50	4731
2026-01-19 01:18:12.42	283.33	23.30	-39.6	-41.7	14.1	1.50e-06	0	62	0	684720128	50	4674
2026-01-19 01:18:13.43	283.08	23.24	-39.5	-41.6	14.2	3.00e-06	0	62	0	687865856	50	4640
2026-01-19 01:18:14.44	282.82	23.18	-39.3	-41.3	14.5	0.00e+00	0	62	0	691011584	50	4493
2026-01-19 01:18:15.45	282.57	23.12	-39.3	-41.3	14.5	7.00e-07	0	62	0	694157312	50	4482
2026-01-19 01:18:16.46	282.31	23.06	-39.4	-41.5	14.4	0.00e+00	0	62	0	697303040	50	4563
2026-01-19 01:18:17.47	282.06	23.00	-39.5	-41.6	14.3	7.00e-07	0	62	0	700448768	50	4619
2026-01-19 01:18:18.48	281.81	22.94	-39.5	-41.6	14.2	7.00e-07	0	62	0	703594496	50	4644
2026-01-19 01:18:19.49	281.56	22.87	-39.5	-41.6	14.2	7.00e-07	0	62	0	706740224	50	4633
2026-01-19 01:18:20.50	281.31	22.81	-39.5	-41.6	14.2	7.00e-07	0	62	0	709885952	50	4610
2026-01-19 01:18:21.51	281.06	22.74	-39.4	-41.5	14.3	1.50e-06	0	62	0	713031680	50	4568
2026-01-19 01:18:22.52	280.81	22.68	-39.3	-41.4	14.4	0.00e+00	0	62	0	716177408	50	4517
2026-01-19 01:18:23.54	280.56	22.61	-39.4	-41.4	14.4	0.00e+00	0	62	0	719323136	50	4519
2026-01-19 01:18:24.54	280.32	22.55	-39.4	-41.4	14.4	7.00e-07	0	62	0	722468864	50	4542
2026-01-19 01:18:25.55	280.07	22.48	-39.4	-41.4	14.4	0.00e+00	0	62	0	725614592	50	4532
2026-01-19 01:18:26.56	279.83	22.42	-39.5	-41.6	14.2	3.00e-06	0	62	0	728760320	50	4648
2026-01-19 01:18:27.57	279.59	22.35	-39.7	-41.9	13.9	2.20e-06	0	62	0	731906048	50	4782
2026-01-19 01:18:28.58	279.34	22.28	-39.9	-42.1	13.7	5.30e-06	0	62	0	735051776	50	4920
2026-01-19 01:18:29.59	279.10	22.22	-39.9	-42.2	13.6	1.14e-05	0	62	0	738197504	50	4957
2026-01-19 01:18:30.60	278.86	22.15	-40.0	-42.3	13.5	6.80e-06	0	62	0	741343232	50	5005
2026-01-19 01:18:31.61	278.63	22.08	-40.0	-42.4	13.4	5.30e-06	0	62	0	744488960	50	5054
2026-01-19 01:18:32.62	278.39	22.01	-40.1	-42.4	13.4	1.60e-05	0	62	0	747634688	50	5093
2026-01-19 01:18:33.63	278.15	21.95	-40.0	-42.3	13.5	1.29e-05	0	62	0	750780416	50	4991
2026-01-19 01:18:34.64	277.92	21.88	-39.9	-42.2	13.6	1.14e-05	0	62	0	753926144	50	4962
2026-01-19 01:18:35.65	277.68	21.81	-40.0	-42.2	13.6	1.14e-05	0	62	0	757071872	50	4981
2026-01-19 01:18:36.66	277.45	21.74	-40.0	-42.3	13.5	7.60e-06	0	62	0	760217600	50	5036
2026-01-19 01:18:37.67	277.22	21.67	-40.1	-42.4	13.4	1.98e-05	0	62	0	763363328	50	5070
2026-01-19 01:18:38.68	276.99	21.60	-40.1	-42.5	13.4	1.37e-05	0	62	0	766509056	50	5114
2026-01-19 01:18:39.69	276.76	21.53	-39.9	-42.2	13.6	9.10e-06	0	62	0	769654784	50	4932
2026-01-19 01:18:40.70	276.53	21.46	-39.7	-41.9	13.9	6.80e-06	0	62	0	772800512	50	4795
2026-01-19 01:18:41.71	276.30	21.39	-39.6	-41.8	14.0	3.00e-06	0	62	0	775946240	50	4716
2026-01-19 01:18:42.72	276.07	21.31	-39.6	-41.7	14.0	2.20e-06	0	62	0	779091968	50	4676
2026-01-19 01:18:43.73	275.85	21.24	-39.6	-41.7	14.0	2.20e-06	0	62	0	782237696	50	4689
2026-01-19 01:18:44.74	275.62	21.17	-39.6	-41.7	14.0	4.50e-06	0	62	0	785383424	50	4694
2026-01-19 01:18:45.75	275.40	21.10	-39.7	-41.9	13.9	3.00e-06	0	62	0	788529152	50	4777
2026-01-19 01:18:46.76	275.17	21.03	-39.9	-42.3	13.5	7.60e-06	0	62	0	791674880	50	4984
2026-01-19 01:18:47.77	274.95	20.95	-40.1	-42.6	13.2	2.44e-05	0	62	0	794820608	50	5167
2026-01-19 01:18:48.78	274.73	20.88	-40.3	-42.8	12.9	5.03e-05	0	62	0	797966336	51	4991
2026-01-19 01:18:49.79	274.51	20.81	-40.3	-42.7	12.9	4.19e-05	0	62	0	801112064	51	4979
2026-01-19 01:18:50.80	274.29	20.73	-40.2	-42.6	13.1	3.58e-05	0	62	0	804257792	51	4887
2026-01-19 01:18:51.81	274.08	20.66	-40.0	-42.3	13.4	1.44e-05	0	62	0	807403520	51	4718
2026-01-19 01:18:52.82	273.86	20.59	-39.9	-42.2	13.5	1.06e-05	0	62	0	810549248	51	4688
2026-01-19 01:18:53.83	273.64	20.51	-39.8	-42.1	13.6	6.10e-06	0	62	0	813694976	51	4619
2026-01-19 01:18:54.84	273.43	20.44	-39.7	-42.0	13.8	6.10e-06	0	62	0	816840704	51	4550
2026-01-19 01:18:55.85	273.22	20.36	-39.7	-42.0	13.8	3.80e-06	0	62	0	819986432	51	4547
2026-01-19 01:18:56.86	273.00	20.29	-39.6	-41.8	13.9	2.20e-06	0	62	0	823132160	51	4465
2026-01-19 01:18:57.87	272.79	20.21	-39.7	-41.9	13.9	7.00e-07	0	62	0	826277888	51	4497
2026-01-19 01:18:58.88	272.58	20.14	-39.7	-41.9	13.8	3.80e-06	0	62	0	829423616	51	4523
2026-01-19 01:18:59.89	272.37	20.06	-39.7	-41.9	13.8	3.00e-06	0	62	0	832569344	51	4517
2026-01-19 01:19:00.90	272.16	19.99	-39.7	-41.8	13.8	2.20e-06	0	62	0	835715072	51	4491
2026-01-19 01:19:01.91	271.96	19.91	-39.6	-41.7	13.9	2.20e-06	0	62	0	838860800	51	4413
2026-01-19 01:19:02.92	271.75	19.84	-39.5	-41.6	14.0	5.30e-06	0	62	0	842006528	51	4381
2026-01-19 01:19:03.93	271.55	19.76	-39.5	-41.6	14.1	2.20e-06	0	62	0	845152256	50	4617
2026-01-19 01:19:04.94	271.34	19.69	-39.5	-41.6	14.0	2.20e-06	0	62	0	848297984	50	4642
2026-01-19 01:19:05.94	271.14	19.61	-39.6	-41.7	13.9	1.50e-06	0	62	0	851443712	50	4698
2026-01-19 01:19:06.95	270.94	19.53	-39.7	-42.0	13.7	1.50e-06	0	62	0	854589440	50	4821
2026-01-19 01:19:07.96	270.74	19.46	-39.9	-42.2	13.5	6.10e-06	0	62	0	857735168	50	4939
2026-01-19 01:19:08.97	270.54	19.38	-40.0	-42.3	13.4	1.06e-05	0	62	0	860880896	50	5023
2026-01-19 01:19:09.98	270.34	19.30	-40.1	-42.4	13.3	1.44e-05	0	62	0	864026624	50	5094
2026-01-19 01:19:10.99	270.14	19.23	-40.0	-42.4	13.3	1.37e-05	0	62	0	867172352	50	5071
2026-01-19 01:19:12.00	269.94	19.15	-40.1	-42.5	13.2	2.51e-05	0	62	0	870318080	50	5101
2026-01-19 01:19:13.01	269.75	19.07	-40.0	-42.3	13.4	1.14e-05	0	62	0	873463808	50	5015
2026-01-19 01:19:14.02	269.55	19.00	-39.9	-42.2	13.5	1.06e-05	0	62	0	876609536	50	4960
2026-01-19 01:19:15.03	269.36	18.92	-39.8	-42.2	13.5	1.06e-05	0	62	0	879755264	50	4931
2026-01-19 01:19:16.03	269.17	18.84	-39.9	-42.2	13.5	8.30e-06	0	62	0	882900992	50	4932
2026-01-19 01:19:17.04	268.97	18.77	-39.7	-41.9	13.8	5.30e-06	0	62	0	886046720	50	4763
2026-01-19 01:19:18.05	268.78	18.69	-39.6	-41.8	13.9	4.50e-06	0	62	0	889192448	50	4717
2026-01-19 01:19:19.06	268.59	18.61	-39.4	-41.6	14.1	2.20e-06	0	62	0	892338176	50	4600
2026-01-19 01:19:20.07	268.40	18.53	-39.5	-41.6	14.0	3.00e-06	0	62	0	895483904	50	4650
2026-01-19 01:19:21.08	268.22	18.45	-39.7	-41.9	13.8	5.30e-06	0	62	0	898629632	50	4775
2026-01-19 01:19:22.09	268.03	18.38	-39.9	-42.1	13.5	1.06e-05	0	62	0	901775360	50	4924
2026-01-19 01:19:23.10	267.84	18.30	-40.0	-42.4	13.3	1.44e-05	0	62	0	904921088	50	5061
2026-01-19 01:19:24.11	267.66	18.22	-40.1	-42.5	13.1	3.66e-05	0	62	0	908066816	50	5123
2026-01-19 01:19:25.12	267.47	18.14	-40.1	-42.5	13.2	2.44e-05	0	62	0	911212544	50	5112
2026-01-19 01:19:26.13	267.29	18.07	-40.1	-42.5	13.1	2.67e-05	0	62	0	914358272	50	5150
2026-01-19 01:19:27.14	267.11	17.99	-40.2	-42.6	13.0	3.35e-05	0	62	0	917504000	50	5190
2026-01-19 01:19:28.15	266.93	17.91	-40.1	-42.5	13.1	2.67e-05	0	62	0	920649728	50	5151
2026-01-19 01:19:29.16	266.74	17.83	-40.0	-42.4	13.3	1.98e-05	0	62	0	923795456	50	5078
2026-01-19 01:19:30.17	266.57	17.75	-40.0	-42.4	13.3	1.90e-05	0	62	0	926941184	50	5044
2026-01-19 01:19:31.18	266.39	17.67	-39.9	-42.2	13.4	1.14e-05	0	62	0	931135488	50	4974
2026-01-19 01:19:32.19	266.21	17.60	-39.9	-42.1	13.6	9.10e-06	0	62	0	934281216	50	4922
2026-01-19 01:19:33.20	266.03	17.52	-39.8	-42.1	13.6	7.60e-06	0	62	0	936378368	50	4876
2026-01-19 01:19:34.21	265.86	17.44	-39.8	-42.0	13.7	5.30e-06	0	62	0	939524096	50	4863
2026-01-19 01:19:35.22	265.68	17.36	-39.8	-42.1	13.5	7.60e-06	0	62	0	942669824	50	4906
2026-01-19 01:19:36.23	265.51	17.28	-39.8	-42.1	13.6	1.06e-05	0	62	0	946864128	50	4906
2026-01-19 01:19:37.24	265.33	17.20	-39.8	-42.0	13.6	8.30e-06	0	62	0	950009856	50	4864
2026-01-19 01:19:38.25	265.16	17.12	-39.8	-42.0	13.6	9.10e-06	0	62	0	953155584	50	4861
2026-01-19 01:19:39.26	264.99	17.05	-39.9	-42.2	13.5	9.10e-06	0	62	0	956301312	50	4937
2026-01-19 01:19:40.27	264.82	16.97	-40.0	-42.3	13.3	2.13e-05	0	62	0	958398464	50	5039
2026-01-19 01:19:41.28	264.65	16.89	-40.1	-42.6	13.0	4.80e-05	0	62	0	962592768	50	5181
2026-01-19 01:19:42.29	264.48	16.81	-40.3	-42.8	12.8	6.71e-05	0	62	0	965738496	51	5026
2026-01-19 01:19:43.30	264.31	16.73	-40.4	-43.1	12.6	9.46e-05	0	62	0	968884224	51	5167
2026-01-19 01:19:44.31	264.15	16.65	-40.6	-43.2	12.4	1.77e-04	0	62	0	972029952	51	5275
2026-01-19 01:19:45.32	263.98	16.57	-40.6	-43.3	12.4	1.62e-04	0	62	0	975175680	51	5288
2026-01-19 01:19:46.33	263.82	16.50	-40.5	-43.2	12.5	1.36e-04	0	62	0	978321408	51	5224
2026-01-19 01:19:47.34	263.65	16.42	-40.4	-43.0	12.6	9.76e-05	0	62	0	981467136	51	5121
2026-01-19 01:19:48.34	263.49	16.34	-40.3	-42.9	12.8	7.85e-05	0	62	0	984612864	51	5063
2026-01-19 01:19:49.35	263.33	16.26	-40.3	-42.8	12.9	4.50e-05	0	62	0	987758592	51	4997
2026-01-19 01:19:50.36	263.17	16.18	-40.3	-42.9	12.7	5.41e-05	0	62	0	990904320	51	5051
2026-01-19 01:19:51.37	263.00	16.10	-40.4	-43.0	12.6	6.25e-05	0	62	0	994050048	51	5117
2026-01-19 01:19:52.38	262.84	16.03	-40.2	-42.7	12.9	5.03e-05	0	62	0	997195776	51	4973
2026-01-19 01:19:53.39	262.69	15.95	-40.3	-42.8	12.8	6.17e-05	0	62	0	1000341504	51	5032
2026-01-19 01:19:54.40	262.53	15.87	-40.4	-43.0	12.6	1.23e-04	0	62	0	1003487232	51	5149
2026-01-19 01:19:55.41	262.37	15.79	-40.5	-43.2	12.4	1.68e-04	0	62	0	1006632960	51	5260
2026-01-19 01:19:56.42	262.21	15.71	-40.7	-43.5	12.1	2.09e-04	0	62	0	1009778688	51	5452
2026-01-19 01:19:57.43	262.06	15.63	-40.6	-43.4	12.0	3.78e-04	0	62	0	1012924416	52	5093
2026-01-19 01:19:58.44	261.90	15.56	-40.6	-43.4	12.1	2.77e-04	0	62	0	1016070144	52	5050
2026-01-19 01:19:59.45	261.75	15.48	-40.5	-43.2	12.4	1.88e-04	0	62	0	1019215872	52	4936
2026-01-19 01:20:00.45	261.60	15.40	-40.3	-43.0	12.6	1.04e-04	0	62	0	1022361600	52	4825
2026-01-19 01:20:01.46	261.44	15.32	-40.1	-42.6	12.9	4.34e-05	0	62	0	1025507328	52	4621
2026-01-19 01:20:02.48	261.29	15.24	-40.0	-42.4	13.2	3.28e-05	0	62	0	1028653056	51	4811
2026-01-19 01:20:03.48	261.14	15.17	-39.9	-42.2	13.4	2.36e-05	0	62	0	1031798784	51	4683
2026-01-19 01:20:04.49	260.99	15.09	-39.8	-42.2	13.4	1.06e-05	0	62	0	1034944512	51	4661
2026-01-19 01:20:05.50	260.84	15.01	-39.8	-42.2	13.4	1.52e-05	0	62	0	1038090240	51	4674
2026-01-19 01:20:06.51	260.69	14.93	-39.9	-42.3	13.3	1.44e-05	0	62	0	1041235968	51	4711
2026-01-19 01:20:07.52	260.54	14.85	-40.1	-42.5	13.0	2.28e-05	0	62	0	1044381696	51	4852
2026-01-19 01:20:08.53	260.40	14.78	-40.3	-42.9	12.7	7.93e-05	0	62	0	1047527424	51	5073
2026-01-19 01:20:09.54	260.25	14.70	-40.5	-43.2	12.3	1.62e-04	0	62	0	1050673152	51	5260
2026-01-19 01:20:10.55	260.11	14.62	-40.6	-43.4	12.2	2.10e-04	0	62	0	1053818880	51	5357
2026-01-19 01:20:11.56	259.96	14.54	-40.7	-43.5	12.0	3.29e-04	0	62	0	1056964608	51	5440
2026-01-19 01:20:12.57	259.82	14.47	-40.6	-43.4	12.0	3.47e-04	0	62	0	1060110336	52	5090
2026-01-19 01:20:13.58	259.67	14.39	-40.6	-43.3	12.1	3.21e-04	0	62	0	1063256064	52	5040
2026-01-19 01:20:14.59	259.53	14.31	-40.4	-43.1	12.4	1.73e-04	0	62	0	1066401792	52	4882
2026-01-19 01:20:15.60	259.39	14.23	-40.3	-42.9	12.4	1.41e-04	0	62	0	1069547520	52	4809
2026-01-19 01:20:16.60	259.25	14.16	-40.2	-42.7	12.7	7.78e-05	0	62	0	1072693248	52	4691
2026-01-19 01:20:17.61	259.11	14.08	-40.1	-42.7	12.7	8.92e-05	0	62	0	1075838976	52	4674
2026-01-19 01:20:18.62	258.97	14.00	-40.1	-42.6	12.8	5.64e-05	0	62	0	1078984704	52	4643
2026-01-19 01:20:19.63	258.83	13.93	-40.0	-42.5	12.9	5.95e-05	0	62	0	1082130432	52	4573
2026-01-19 01:20:20.64	258.69	13.85	-40.1	-42.6	13.0	3.73e-05	0	62	0	1085276160	51	4873
2026-01-19 01:20:21.65	258.56	13.77	-40.2	-42.7	12.8	4.80e-05	0	62	0	1088421888	51	4963
2026-01-19 01:20:22.66	258.42	13.70	-40.3	-42.9	12.6	9.61e-05	0	62	0	1091567616	51	5060
2026-01-19 01:20:23.67	258.28	13.62	-40.4	-43.1	12.4	1.25e-04	0	62	0	1094713344	51	5202
2026-01-19 01:20:24.68	258.15	13.54	-40.6	-43.5	12.0	2.65e-04	0	62	0	1097859072	51	5410
2026-01-19 01:20:25.69	258.01	13.47	-40.8	-43.7	11.7	5.71e-04	0	62	0	1101004800	52	5243
2026-01-19 01:20:26.70	257.88	13.39	-40.9	-43.9	11.5	8.06e-04	0	62	0	1104150528	52	5349
2026-01-19 01:20:27.71	257.75	13.31	-40.9	-44.0	11.3	1.00e-03	0	62	0	1107296256	52	5441
2026-01-19 01:20:28.71	257.62	13.24	-40.9	-44.0	11.3	1.21e-03	0	62	0	1110441984	52	5456
2026-01-19 01:20:29.73	257.48	13.16	-40.9	-43.9	11.4	1.00e-03	0	62	0	1113587712	52	5380
2026-01-19 01:20:30.73	257.35	13.09	-40.8	-43.8	11.5	7.81e-04	0	62	0	1116733440	52	5332
2026-01-19 01:20:31.75	257.22	13.01	-40.7	-43.6	11.7	7.46e-04	0	62	0	1119879168	52	5198
2026-01-19 01:20:32.75	257.09	12.93	-40.5	-43.3	12.0	4.29e-04	0	62	0	1123024896	52	5030
2026-01-19 01:20:33.76	256.96	12.86	-40.4	-43.1	12.3	2.08e-04	0	62	0	1126170624	52	4876
2026-01-19 01:20:34.77	256.84	12.78	-40.3	-42.9	12.4	1.37e-04	0	62	0	1129316352	52	4786
2026-01-19 01:20:35.78	256.71	12.71	-40.2	-42.8	12.6	1.20e-04	0	62	0	1132462080	52	4716
2026-01-19 01:20:36.79	256.58	12.63	-40.2	-42.8	12.6	1.20e-04	0	62	0	1135607808	52	4727
2026-01-19 01:20:37.80	256.46	12.56	-40.2	-42.9	12.5	1.23e-04	0	62	0	1138753536	52	4760
2026-01-19 01:20:38.81	256.33	12.48	-40.2	-42.9	12.5	1.30e-04	0	62	0	1141899264	52	4765
2026-01-19 01:20:39.82	256.20	12.41	-40.3	-43.0	12.3	1.67e-04	0	62	0	1145044992	52	4853
2026-01-19 01:20:40.83	256.08	12.33	-40.4	-43.1	12.2	2.04e-04	0	62	0	1148190720	52	4918
2026-01-19 01:20:41.84	255.96	12.25	-40.6	-43.4	11.9	3.17e-04	0	62	0	1151336448	52	5068
2026-01-19 01:20:42.85	255.83	12.18	-40.6	-43.5	11.8	5.29e-04	0	62	0	1154482176	52	5151
2026-01-19 01:20:43.86	255.71	12.10	-40.7	-43.7	11.6	5.37e-04	0	62	0	1157627904	52	5248
2026-01-19 01:20:44.87	255.59	12.03	-40.7	-43.7	11.6	7.52e-04	0	62	0	1160773632	52	5265
2026-01-19 01:20:45.88	255.47	11.96	-40.8	-43.8	11.5	7.50e-04	0	62	0	1163919360	52	5286
2026-01-19 01:20:46.89	255.35	11.88	-40.8	-43.9	11.4	9.35e-04	0	63	0	1167065088	52	5361
2026-01-19 01:20:47.89	255.23	11.81	-40.8	-43.8	11.5	8.67e-04	0	62	0	1170210816	52	5293
2026-01-19 01:20:48.90	255.11	11.73	-40.7	-43.7	11.6	7.04e-04	0	62	0	1173356544	52	5240
2026-01-19 01:20:49.91	254.99	11.66	-40.7	-43.6	11.6	6.45e-04	0	62	0	1176502272	52	5199
2026-01-19 01:20:50.92	254.87	11.58	-40.6	-43.5	11.7	6.70e-04	0	62	0	1179648000	52	5157
2026-01-19 01:20:51.93	254.76	11.51	-40.6	-43.4	11.8	5.70e-04	0	62	0	1182793728	52	5094
2026-01-19 01:20:52.94	254.64	11.44	-40.4	-43.2	12.1	3.03e-04	0	62	0	1185939456	52	4955
2026-01-19 01:20:53.95	254.52	11.36	-40.5	-43.3	12.0	3.11e-04	0	62	0	1189085184	52	5004
2026-01-19 01:20:54.96	254.41	11.29	-40.4	-43.1	12.2	2.30e-04	0	62	0	1192230912	52	4918
2026-01-19 01:20:55.97	254.29	11.22	-40.3	-43.1	12.2	2.35e-04	0	62	0	1195376640	52	4883
2026-01-19 01:20:56.98	254.18	11.14	-40.4	-43.3	12.0	3.01e-04	0	62	0	1198522368	52	4989
2026-01-19 01:20:57.99	254.06	11.07	-40.5	-43.4	11.9	3.83e-04	0	62	0	1201668096	52	5069
2026-01-19 01:20:59.01	253.95	10.99	-40.6	-43.5	11.8	4.52e-04	0	62	0	1204813824	52	5133
2026-01-19 01:21:00.02	253.84	10.92	-40.6	-43.5	11.7	5.74e-04	0	62	0	1207959552	52	5157
2026-01-19 01:21:01.03	253.72	10.85	-40.7	-43.7	11.5	7.44e-04	0	62	0	1211105280	52	5246
2026-01-19 01:21:02.04	253.61	10.78	-40.8	-43.8	11.5	9.31e-04	0	62	0	1214251008	52	5290
2026-01-19 01:21:03.04	253.50	10.70	-40.9	-44.0	11.3	1.27e-03	0	62	0	1217396736	52	5418
2026-01-19 01:21:04.05	253.39	10.63	-40.9	-44.1	11.1	1.43e-03	0	62	0	1220542464	52	5485
2026-01-19 01:21:05.06	253.28	10.56	-40.9	-44.0	11.2	1.28e-03	0	62	0	1223688192	52	5425
2026-01-19 01:21:06.07	253.17	10.49	-40.8	-43.8	11.3	1.31e-03	0	62	0	1226833920	52	5331
2026-01-19 01:21:07.08	253.06	10.41	-40.8	-43.8	11.3	1.14e-03	0	62	0	1229979648	52	5326
2026-01-19 01:21:08.09	252.95	10.34	-40.8	-43.9	11.3	1.14e-03	0	62	0	1233125376	52	5342
2026-01-19 01:21:09.11	252.85	10.27	-40.6	-43.6	11.5	8.77e-04	0	62	0	1236271104	52	5183
2026-01-19 01:21:10.12	252.74	10.20	-40.7	-43.7	11.5	8.67e-04	0	62	0	1239416832	52	5231
2026-01-19 01:21:11.13	252.63	10.12	-40.6	-43.5	11.6	6.16e-04	0	62	0	1242562560	52	5118
2026-01-19 01:21:12.14	252.53	10.05	-40.6	-43.6	11.5	8.54e-04	0	62	0	1245708288	52	5167
2026-01-19 01:21:13.15	252.42	9.98	-40.6	-43.6	11.5	7.26e-04	0	62	0	1248854016	52	5175
2026-01-19 01:21:14.16	252.31	9.91	-40.5	-43.5	11.6	6.29e-04	0	62	0	1251999744	52	5107
2026-01-19 01:21:15.17	252.21	9.84	-40.4	-43.3	11.8	5.29e-04	0	62	0	1255145472	52	4999
2026-01-19 01:21:16.17	252.11	9.77	-40.5	-43.5	11.6	5.90e-04	0	62	0	1258291200	52	5106
2026-01-19 01:21:17.18	252.00	9.69	-40.6	-43.6	11.6	7.45e-04	0	62	0	1261436928	52	5166
2026-01-19 01:21:18.19	251.90	9.62	-40.6	-43.6	11.5	7.10e-04	0	62	0	1264582656	52	5195
2026-01-19 01:21:19.20	251.80	9.55	-40.7	-43.7	11.4	9.51e-04	0	62	0	1267728384	52	5275
2026-01-19 01:21:20.21	251.70	9.48	-40.8	-44.0	11.2	1.29e-03	0	62	0	1270874112	52	5404
2026-01-19 01:21:21.22	251.59	9.41	-40.9	-44.0	11.1	1.37e-03	0	62	0	1274019840	52	5456
2026-01-19 01:21:22.23	251.49	9.34	-40.9	-44.1	11.0	1.75e-03	0	62	0	1277165568	52	5483
2026-01-19 01:21:23.24	251.39	9.27	-41.0	-44.3	10.8	2.39e-03	0	62	0	1280311296	52	5629
2026-01-19 01:21:24.25	251.29	9.20	-41.0	-44.3	10.8	2.56e-03	0	62	0	1283457024	52	5656
2026-01-19 01:21:25.25	251.19	9.13	-41.1	-44.4	10.7	3.01e-03	0	62	0	1286602752	52	5679
2026-01-19 01:21:26.26	251.10	9.06	-41.1	-44.5	10.6	3.42e-03	0	62	0	1289748480	52	5750
2026-01-19 01:21:27.27	251.00	8.99	-41.1	-44.5	10.5	3.69e-03	0	62	0	1292894208	52	5773
2026-01-19 01:21:28.28	250.90	8.92	-41.1	-44.5	10.5	4.09e-03	0	62	0	1297088512	52	5746
2026-01-19 01:21:29.29	250.80	8.85	-41.0	-44.4	10.6	3.59e-03	0	62	0	1299185664	52	5688
2026-01-19 01:21:30.30	250.70	8.78	-41.0	-44.3	10.7	3.19e-03	0	62	0	1302331392	52	5651
2026-01-19 01:21:31.31	250.61	8.71	-41.0	-44.3	10.7	3.18e-03	0	62	0	1305477120	52	5626
2026-01-19 01:21:32.32	250.51	8.64	-40.9	-44.2	10.8	2.98e-03	0	62	0	1308622848	52	5560
2026-01-19 01:21:33.33	250.42	8.57	-41.0	-44.2	10.7	2.94e-03	0	62	0	1312817152	52	5587
2026-01-19 01:21:34.34	250.32	8.50	-40.8	-43.9	11.0	2.07e-03	0	62	0	1315962880	52	5387
2026-01-19 01:21:35.35	250.23	8.43	-40.8	-43.9	11.0	1.91e-03	0	62	0	1319108608	52	5393
2026-01-19 01:21:36.36	250.13	8.36	-40.7	-43.8	11.2	1.32e-03	0	62	0	1321205760	52	5280
2026-01-19 01:21:37.37	250.04	8.29	-40.6	-43.7	11.3	1.17e-03	0	62	0	1324351488	52	5225
2026-01-19 01:21:38.38	249.94	8.23	-40.7	-43.8	11.2	1.47e-03	0	62	0	1327497216	52	5296
2026-01-19 01:21:39.39	249.85	8.16	-40.6	-43.7	11.3	1.38e-03	0	62	0	1331691520	52	5229
2026-01-19 01:21:40.40	249.76	8.09	-40.7	-43.8	11.2	1.42e-03	0	62	0	1334837248	52	5286
2026-01-19 01:21:41.41	249.67	8.02	-41.1	-44.6	10.4	1.65e-03	0	62	0	1337982976	52	5831
2026-01-19 01:21:42.42	249.57	7.95	-44.6	-56.7	3.8	1.49e+00	0	62	104	1337982976	59	15669
2026-01-19 01:21:43.43	249.48	7.88	-44.8	-57.1	3.8	1.49e+00	0	63	104	1337982976	60	15552
2026-01-19 01:21:44.44	249.39	7.81	-45.0	-57.3	3.8	1.49e+00	0	62	104	1337982976	60	15904
2026-01-19 01:21:45.45	249.30	7.75	-45.1	-57.5	3.8	1.49e+00	0	62	104	1337982976	60	16202
2026-01-19 01:21:46.46	249.21	7.68	-45.2	-57.6	3.8	1.49e+00	0	62	104	1337982976	60	16350
2026-01-19 01:21:47.47	249.12	7.61	-45.3	-57.6	3.8	1.49e+00	0	63	104	1337982976	61	15529
2026-01-19 01:21:48.48	249.03	7.54	-45.3	-57.6	3.8	1.49e+00	0	62	104	1337982976	61	15535
2026-01-19 01:21:49.49	248.95	7.48	-45.4	-57.7	3.8	1.49e+00	0	62	104	1337982976	61	15680
2026-01-19 01:21:50.51	248.86	7.41	-45.3	-57.7	3.8	1.49e+00	0	62	104	1337982976	61	15698
2026-01-19 01:21:51.52	248.77	7.34	-45.3	-57.6	3.8	1.49e+00	0	62	104	1337982976	61	15571
2026-01-19 01:21:52.53	248.68	7.27	-45.3	-57.6	3.8	1.49e+00	0	62	104	1337982976	61	15494
2026-01-19 01:21:53.54	248.59	7.21	-45.3	-57.6	3.8	1.49e+00	0	63	104	1337982976	61	15499
2026-01-19 01:21:54.55	248.51	7.14	-45.3	-57.6	3.8	1.49e+00	0	63	104	1337982976	61	15433
2026-01-19 01:21:55.56	248.42	7.07	-45.3	-57.6	3.8	1.49e+00	0	63	104	1337982976	61	15480
2026-01-19 01:21:56.57	248.34	7.00	-45.3	-57.6	3.8	1.49e+00	0	62	104	1337982976	61	15424
2026-01-19 01:21:57.58	248.25	6.94	-45.3	-57.7	3.8	1.49e+00	0	62	104	1337982976	61	15609
2026-01-19 01:21:58.59	248.17	6.87	-45.2	-57.6	3.8	1.49e+00	0	62	104	1337982976	61	15420
2026-01-19 01:21:59.60	248.08	6.80	-45.3	-57.5	3.8	1.49e+00	0	62	104	1337982976	61	15392
2026-01-19 01:22:00.62	248.00	6.74	-45.3	-57.5	3.8	1.49e+00	0	62	104	1337982976	61	15354
2026-01-19 01:22:01.63	247.91	6.67	-45.3	-57.5	3.8	1.49e+00	0	62	104	1337982976	61	15351
2026-01-19 01:22:02.64	247.83	6.61	-45.2	-57.5	3.8	1.49e+00	0	63	104	1337982976	61	15400
2026-01-19 01:22:03.65	247.75	6.54	-45.2	-57.5	3.8	1.49e+00	0	62	104	1337982976	61	15287
2026-01-19 01:22:04.66	247.66	6.47	-45.2	-57.6	3.8	1.49e+00	0	62	104	1337982976	61	15417
2026-01-19 01:22:05.67	247.58	6.41	-45.2	-57.5	3.8	1.49e+00	0	63	104	1337982976	61	15337
2026-01-19 01:22:06.68	247.50	6.34	-45.2	-57.5	3.8	1.49e+00	0	62	104	1337982976	61	15376
2026-01-19 01:22:07.69	247.42	6.28	-45.2	-57.5	3.8	1.49e+00	0	63	104	1337982976	61	15346
2026-01-19 01:22:08.70	247.34	6.21	-45.2	-57.5	3.8	1.49e+00	0	62	104	1337982976	61	15359
2026-01-19 01:22:09.71	247.26	6.15	-45.2	-57.5	3.8	1.49e+00	0	63	104	1337982976	61	15314
2026-01-19 01:22:10.72	247.18	6.08	-45.2	-57.5	3.8	1.49e+00	0	63	104	1337982976	61	15253
2026-01-19 01:22:11.73	247.10	6.02	-45.2	-57.5	3.8	1.49e+00	0	62	104	1337982976	61	15331
2026-01-19 01:22:12.74	247.02	5.95	-45.2	-57.5	3.8	1.49e+00	0	62	104	1337982976	61	15320
2026-01-19 01:22:13.75	246.94	5.89	-45.2	-57.5	3.8	1.49e+00	0	62	104	1337982976	61	15343
2026-01-19 01:22:14.76	246.86	5.82	-45.2	-57.5	3.8	1.49e+00	0	62	104	1337982976	61	15325
2026-01-19 01:22:15.77	246.78	5.76	-45.2	-57.5	3.8	1.49e+00	0	62	104	1337982976	61	15315
2026-01-19 01:22:16.78	246.70	5.69	-45.2	-57.5	3.8	1.49e+00	0	63	104	1337982976	61	15284
2026-01-19 01:22:17.79	246.62	5.63	-45.2	-57.5	3.8	1.49e+00	0	62	104	1337982976	61	15397
2026-01-19 01:22:18.80	246.55	5.56	-45.2	-57.5	3.8	1.49e+00	0	63	104	1337982976	61	15365
2026-01-19 01:22:19.81	246.47	5.50	-45.2	-57.5	3.8	1.49e+00	0	63	104	1337982976	61	15333
2026-01-19 01:22:20.82	246.39	5.43	-45.2	-57.5	3.8	1.49e+00	0	63	104	1337982976	61	15330
2026-01-19 01:22:21.83	246.32	5.37	-45.2	-57.5	3.8	1.49e+00	0	62	104	1337982976	61	15342
2026-01-19 01:22:22.84	246.24	5.31	-45.2	-57.5	3.8	1.49e+00	0	63	104	1337982976	61	15351
2026-01-19 01:22:23.85	246.16	5.24	-45.2	-57.5	3.8	1.49e+00	0	62	104	1337982976	61	15369
2026-01-19 01:22:24.87	246.09	5.18	-45.2	-57.5	3.8	1.49e+00	0	63	104	1337982976	61	15320
2026-01-19 01:22:25.88	246.01	5.11	-45.2	-57.5	3.8	1.49e+00	0	62	104	1337982976	61	15311
2026-01-19 01:22:26.89	245.94	5.05	-45.2	-57.5	3.8	1.49e+00	0	63	104	1337982976	61	15292
2026-01-19 01:22:27.90	245.86	4.99	-45.2	-57.5	3.8	1.49e+00	0	63	104	1337982976	61	15300
2026-01-19 01:22:28.91	245.79	4.92	-45.2	-57.5	3.8	1.49e+00	0	62	104	1337982976	61	15250
2026-01-19 01:22:29.92	245.72	4.86	-45.2	-57.5	3.8	1.49e+00	0	63	104	1337982976	61	15304
2026-01-19 01:22:30.93	245.64	4.80	-45.2	-57.5	3.8	1.49e+00	0	63	104	1337982976	61	15274
2026-01-19 01:22:31.94	245.57	4.74	-45.2	-57.5	3.8	1.49e+00	0	62	104	1337982976	61	15259
2026-01-19 01:22:32.96	245.50	4.67	-45.2	-57.5	3.8	1.49e+00	0	62	104	1337982976	61	15242
2026-01-19 01:22:33.97	245.42	4.61	-45.2	-57.5	3.8	1.49e+00	0	63	104	1337982976	61	15246
2026-01-19 01:22:34.98	245.35	4.55	-45.2	-57.5	3.8	1.49e+00	0	62	104	1337982976	61	15246
2026-01-19 01:22:35.99	245.28	4.48	-45.2	-57.5	3.8	1.49e+00	0	62	104	1337982976	61	15262
2026-01-19 01:22:37.00	245.21	4.42	-45.2	-57.5	3.8	1.49e+00	0	63	104	1337982976	61	15289
2026-01-19 01:22:38.01	245.14	4.36	-45.2	-57.5	3.8	1.49e+00	0	63	104	1337982976	61	15257
2026-01-19 01:22:39.02	245.07	4.30	-45.2	-57.5	3.8	1.49e+00	0	63	104	1337982976	61	15288
2026-01-19 01:22:40.03	245.00	4.23	-45.2	-57.5	3.8	1.49e+00	0	63	104	1337982976	61	15250
2026-01-19 01:22:41.04	244.93	4.17	-45.2	-57.5	3.8	1.49e+00	0	63	104	1337982976	61	15288
2026-01-19 01:22:42.05	244.86	4.11	-45.2	-57.5	3.8	1.49e+00	0	62	104	1337982976	61	15312
2026-01-19 01:22:43.06	244.79	4.05	-45.2	-57.5	3.8	1.49e+00	0	62	104	1337982976	61	15271
2026-01-19 01:22:44.07	244.72	3.99	-45.2	-57.5	3.8	1.49e+00	0	63	104	1337982976	61	15287
2026-01-19 01:22:45.08	244.65	3.93	-45.2	-57.5	3.8	1.49e+00	0	63	104	1337982976	61	15299
2026-01-19 01:22:46.09	244.58	3.86	-45.2	-57.5	3.8	1.49e+00	0	63	104	1337982976	61	15283
2026-01-19 01:22:47.10	244.51	3.80	-45.2	-57.5	3.8	1.49e+00	0	63	104	1337982976	61	15256
2026-01-19 01:22:48.11	244.44	3.74	-45.2	-57.5	3.8	1.49e+00	0	63	104	1337982976	61	15302
2026-01-19 01:22:49.12	244.38	3.68	-45.2	-57.4	3.8	1.49e+00	0	63	104	1337982976	61	15196
2026-01-19 01:22:50.14	244.31	3.62	-45.2	-57.5	3.8	1.49e+00	0	63	104	1337982976	61	15293
2026-01-19 01:22:51.15	244.24	3.56	-45.2	-57.5	3.8	1.49e+00	0	63	104	1337982976	61	15267
2026-01-19 01:22:52.16	244.17	3.50	-45.2	-57.5	3.8	1.49e+00	0	62	104	1337982976	61	15277
2026-01-19 01:22:53.17	244.11	3.44	-45.2	-57.5	3.8	1.49e+00	0	63	104	1337982976	61	15238
2026-01-19 01:22:54.18	244.04	3.37	-45.2	-57.5	3.8	1.49e+00	0	63	104	1337982976	61	15315
2026-01-19 01:22:55.19	243.97	3.31	-45.2	-57.5	3.8	1.49e+00	0	63	104	1337982976	61	15294
2026-01-19 01:22:56.20	243.91	3.25	-45.2	-57.5	3.8	1.49e+00	0	62	104	1337982976	61	15272
2026-01-19 01:22:57.21	243.84	3.19	-45.2	-57.5	3.8	1.49e+00	0	63	104	1337982976	61	15283
2026-01-19 01:22:58.22	243.78	3.13	-45.2	-57.4	3.8	1.49e+00	0	63	104	1337982976	61	15224
2026-01-19 01:22:59.24	243.71	3.07	-45.2	-57.5	3.8	1.49e+00	0	63	104	1337982976	61	15276
2026-01-19 01:23:00.24	243.65	3.01	-45.2	-57.5	3.8	1.49e+00	0	63	104	1337982976	61	15236
2026-01-19 01:23:01.25	243.58	2.95	-45.2	-57.5	3.8	1.49e+00	0	63	104	1337982976	61	15256
2026-01-19 01:23:02.26	243.52	2.89	-45.2	-57.5	3.8	1.49e+00	0	63	104	1337982976	61	15262
2026-01-19 01:23:03.27	243.46	2.83	-45.2	-57.5	3.8	1.49e+00	0	63	104	1337982976	61	15262
2026-01-19 01:23:04.28	243.39	2.77	-45.2	-57.5	3.8	1.49e+00	0	63	104	1337982976	61	15286
2026-01-19 01:23:05.29	243.33	2.71	-45.2	-57.5	3.8	1.49e+00	0	63	104	1337982976	61	15232
2026-01-19 01:23:06.30	243.27	2.65	-45.2	-57.5	3.8	1.49e+00	0	63	104	1337982976	61	15297
2026-01-19 01:23:07.32	243.20	2.59	-45.2	-57.5	3.8	1.49e+00	0	63	104	1337982976	61	15281
2026-01-19 01:23:08.33	243.14	2.53	-45.2	-57.4	3.8	1.49e+00	0	63	104	1337982976	61	15216
2026-01-19 01:23:09.34	243.08	2.47	-45.2	-57.5	3.8	1.49e+00	0	63	104	1337982976	61	15256
2026-01-19 01:23:10.35	243.02	2.42	-45.2	-57.5	3.8	1.49e+00	0	63	104	1337982976	61	15254
2026-01-19 01:23:11.36	242.95	2.36	-45.2	-57.4	3.8	1.49e+00	0	63	104	1337982976	61	15211
2026-01-19 01:23:12.37	242.89	2.30	-45.2	-57.4	3.8	1.49e+00	0	63	104	1337982976	61	15219
2026-01-19 01:23:13.38	242.83	2.24	-45.2	-57.5	3.8	1.49e+00	0	63	104	1337982976	61	15257
2026-01-19 01:23:14.39	242.77	2.18	-45.2	-57.5	3.8	1.49e+00	0	63	104	1337982976	61	15272
2026-01-19 01:23:15.40	242.71	2.12	-45.2	-57.5	3.8	1.49e+00	0	63	104	1337982976	61	15241
2026-01-19 01:23:16.41	242.65	2.06	-45.2	-57.5	3.8	1.49e+00	0	63	104	1337982976	61	15244
2026-01-19 01:23:17.42	242.59	2.00	-45.1	-57.4	3.8	1.49e+00	0	63	104	1337982976	61	15198

#Closed at: 2026-01-19 01:23:17
#Recorded file [1337 MB]: D:/lorett/data/31039_260119_041208.dat