passes_logs/2026/01/19/R2.0S_Moscow/R2.0S_Moscow__20260119_031829_AQUA_rec.log

#Pass ID: 20260119_031829_AQUA
#Satellite: AQUA
#Configuration: AQUA
#almurnet v.1.7.20251203
#Start time: 2026-01-19 03:18:30

#Version: 2.2.20231116
#Station: R2.0S_Moscow
#Location: 37.707566 lon 55.798166 lat
#TLE: 1 27424U 02022A   26017.96925465  .00000866  00000+0  18326-3 0  9999
#TLE: 2 27424  98.4087 344.4465 0002004  74.6027 356.0068 14.61826972261327

#Time	Az	El	Level	Level2	SNR	BER	BlckErr	Temp	State	Recorded	gain1	gain2
2026-01-19 03:18:30.54	4.82	2.05	-41.4	-60.7	3.8	7.41e-01	0	52	0	0	53	35178
2026-01-19 03:18:31.54	4.73	2.11	-41.4	-60.7	3.8	7.50e-01	0	53	104	0	53	35197
2026-01-19 03:18:32.55	4.64	2.16	-41.4	-60.7	3.8	7.44e-01	0	53	104	0	53	35191
2026-01-19 03:18:33.56	4.54	2.21	-41.4	-60.7	3.8	7.42e-01	0	53	104	0	53	35159
2026-01-19 03:18:34.57	4.45	2.27	-41.4	-60.7	3.8	7.44e-01	0	53	104	0	53	35152
2026-01-19 03:18:35.58	4.35	2.32	-41.4	-60.7	3.8	7.47e-01	0	53	104	0	53	35104
2026-01-19 03:18:36.59	4.26	2.37	-41.5	-60.7	3.8	7.44e-01	0	53	104	0	53	35143
2026-01-19 03:18:37.60	4.16	2.43	-41.4	-60.7	3.8	7.44e-01	0	53	104	0	53	35174
2026-01-19 03:18:38.61	4.07	2.48	-41.4	-60.7	3.8	7.45e-01	0	53	104	0	53	35103
2026-01-19 03:18:39.62	3.97	2.53	-41.4	-60.7	3.8	7.44e-01	0	53	104	0	53	35050
2026-01-19 03:18:40.63	3.88	2.59	-41.4	-60.7	3.8	7.43e-01	0	53	104	0	53	35107
2026-01-19 03:18:41.64	3.78	2.64	-41.4	-60.7	3.8	7.43e-01	0	53	104	0	53	35070
2026-01-19 03:18:42.66	3.68	2.70	-41.4	-60.7	3.8	7.42e-01	0	53	104	0	53	35104
2026-01-19 03:18:43.67	3.58	2.75	-41.4	-60.7	3.8	7.44e-01	0	54	104	0	53	35050
2026-01-19 03:18:44.68	3.49	2.81	-41.4	-60.7	3.8	7.41e-01	0	53	104	0	53	35090
2026-01-19 03:18:45.69	3.39	2.86	-41.4	-60.7	3.8	7.45e-01	0	54	104	0	53	34994
2026-01-19 03:18:46.70	3.29	2.91	-41.4	-60.7	3.8	7.48e-01	0	54	104	0	53	35143
2026-01-19 03:18:47.71	3.19	2.97	-41.4	-60.7	3.8	7.43e-01	0	54	104	0	53	35036
2026-01-19 03:18:48.72	3.09	3.02	-41.4	-60.7	3.8	7.43e-01	0	54	104	0	53	35074
2026-01-19 03:18:49.73	2.99	3.08	-41.4	-60.7	3.8	7.45e-01	0	54	104	0	53	35139
2026-01-19 03:18:50.74	2.89	3.13	-41.4	-60.7	3.8	7.46e-01	0	54	104	0	53	35090
2026-01-19 03:18:51.75	2.79	3.18	-41.4	-60.7	3.8	7.46e-01	0	54	104	0	53	35066
2026-01-19 03:18:52.76	2.69	3.24	-41.4	-60.7	3.8	7.42e-01	0	54	104	0	53	35106
2026-01-19 03:18:53.77	2.58	3.29	-41.4	-60.7	3.8	7.47e-01	0	54	104	0	53	35073
2026-01-19 03:18:54.78	2.48	3.35	-41.4	-60.7	3.8	7.45e-01	0	54	104	0	53	35088
2026-01-19 03:18:55.79	2.38	3.40	-41.4	-60.7	3.8	7.46e-01	0	54	104	0	53	35116
2026-01-19 03:18:56.80	2.28	3.46	-41.4	-60.7	3.8	7.47e-01	0	54	104	0	53	35062
2026-01-19 03:18:57.81	2.17	3.51	-41.4	-60.7	3.8	7.44e-01	0	54	104	0	53	35031
2026-01-19 03:18:58.82	2.07	3.57	-41.4	-60.7	3.8	7.48e-01	0	54	104	0	53	34946
2026-01-19 03:18:59.83	1.96	3.62	-41.4	-60.7	3.8	7.47e-01	0	55	104	0	53	35015
2026-01-19 03:19:00.84	1.86	3.67	-41.4	-60.7	3.8	7.44e-01	0	55	104	0	53	34950
2026-01-19 03:19:01.85	1.75	3.73	-41.4	-60.7	3.8	7.47e-01	0	55	104	0	53	34999
2026-01-19 03:19:02.86	1.65	3.78	-41.4	-60.7	3.8	7.46e-01	0	55	104	0	53	35080
2026-01-19 03:19:03.87	1.54	3.84	-41.4	-60.7	3.8	7.43e-01	0	55	104	0	53	35077
2026-01-19 03:19:04.88	1.43	3.89	-41.4	-60.7	3.8	7.43e-01	0	55	104	0	53	35069
2026-01-19 03:19:05.89	1.33	3.95	-41.4	-60.7	3.8	7.44e-01	0	55	104	0	53	35043
2026-01-19 03:19:06.90	1.22	4.00	-41.4	-60.7	3.8	7.45e-01	0	55	104	0	53	35131
2026-01-19 03:19:07.91	1.11	4.06	-41.4	-60.7	3.8	7.45e-01	0	55	104	0	53	35047
2026-01-19 03:19:08.92	1.00	4.11	-41.4	-60.7	3.8	7.44e-01	0	55	104	0	53	35044
2026-01-19 03:19:09.93	0.89	4.17	-41.4	-60.7	3.8	7.46e-01	0	55	104	0	53	35049
2026-01-19 03:19:10.94	0.78	4.22	-41.4	-60.7	3.8	7.45e-01	0	55	104	0	53	35048
2026-01-19 03:19:11.95	0.67	4.28	-41.4	-60.7	3.8	7.45e-01	0	55	104	0	53	35061
2026-01-19 03:19:12.96	0.56	4.33	-41.4	-60.7	3.8	7.46e-01	0	55	104	0	53	35028
2026-01-19 03:19:13.97	0.45	4.39	-41.4	-60.7	3.8	7.44e-01	0	55	104	0	53	35017
2026-01-19 03:19:14.98	0.34	4.44	-41.4	-60.7	3.8	7.43e-01	0	55	104	0	53	35064
2026-01-19 03:19:15.99	0.23	4.50	-41.4	-60.7	3.8	7.44e-01	0	56	104	0	53	34981
2026-01-19 03:19:17.00	0.12	4.55	-41.4	-60.7	3.8	7.45e-01	0	55	104	0	53	35013
2026-01-19 03:19:18.01	0.00	4.61	-41.4	-60.7	3.8	7.44e-01	0	56	104	0	53	35008
2026-01-19 03:19:19.03	359.89	4.67	-41.4	-60.7	3.8	7.42e-01	0	56	104	0	53	34964
2026-01-19 03:19:20.03	359.78	4.72	-41.4	-60.7	3.8	7.47e-01	0	55	104	0	53	35090
2026-01-19 03:19:21.05	359.66	4.78	-41.4	-60.7	3.8	7.44e-01	0	56	104	0	53	34989
2026-01-19 03:19:22.06	359.55	4.83	-41.4	-60.7	3.8	7.45e-01	0	55	104	0	53	35030
2026-01-19 03:19:23.07	359.43	4.89	-41.4	-60.7	3.8	7.46e-01	0	56	104	0	53	35037
2026-01-19 03:19:24.08	359.32	4.94	-41.4	-60.7	3.8	7.43e-01	0	56	104	0	53	34982
2026-01-19 03:19:25.09	359.20	5.00	-41.4	-60.7	3.8	7.48e-01	0	56	104	0	53	35077
2026-01-19 03:19:26.10	359.08	5.05	-41.4	-60.7	3.8	7.43e-01	0	56	104	0	53	35010
2026-01-19 03:19:27.11	358.97	5.11	-41.4	-60.7	3.8	7.48e-01	0	56	104	0	53	35072
2026-01-19 03:19:28.12	358.85	5.16	-41.4	-60.7	3.8	7.44e-01	0	56	104	0	53	35018
2026-01-19 03:19:29.13	358.73	5.22	-41.4	-60.7	3.8	7.41e-01	0	56	104	0	53	34977
2026-01-19 03:19:30.14	358.61	5.27	-41.4	-60.7	3.8	7.47e-01	0	56	104	0	53	35045
2026-01-19 03:19:31.15	358.49	5.33	-41.4	-60.7	3.8	7.42e-01	0	56	104	0	53	35056
2026-01-19 03:19:32.16	358.37	5.39	-41.4	-60.7	3.8	7.43e-01	0	56	104	0	53	35094
2026-01-19 03:19:33.18	358.25	5.44	-41.4	-60.7	3.8	7.46e-01	0	56	104	0	53	34978
2026-01-19 03:19:34.19	358.13	5.50	-41.4	-60.7	3.8	7.42e-01	0	56	104	0	53	35061
2026-01-19 03:19:35.20	358.01	5.55	-41.4	-60.7	3.8	7.45e-01	0	56	104	0	53	34962
2026-01-19 03:19:36.21	357.89	5.61	-41.4	-60.7	3.8	7.42e-01	0	56	104	0	53	34942
2026-01-19 03:19:37.22	357.76	5.66	-41.4	-60.7	3.8	7.46e-01	0	56	104	0	53	35005
2026-01-19 03:19:38.23	357.64	5.72	-41.4	-60.7	3.8	7.46e-01	0	56	104	0	53	34919
2026-01-19 03:19:39.24	357.52	5.78	-41.4	-60.7	3.8	7.48e-01	0	57	104	0	53	35064
2026-01-19 03:19:40.25	357.39	5.83	-41.4	-60.7	3.8	7.45e-01	0	56	104	0	53	35062
2026-01-19 03:19:41.26	357.27	5.89	-41.4	-60.7	3.8	7.45e-01	0	57	104	0	53	34944
2026-01-19 03:19:42.27	357.14	5.94	-41.4	-60.7	3.8	7.44e-01	0	57	104	0	53	35018
2026-01-19 03:19:43.28	357.02	6.00	-41.4	-60.7	3.8	7.45e-01	0	57	104	0	53	34916
2026-01-19 03:19:44.29	356.89	6.05	-41.4	-60.7	3.8	7.46e-01	0	57	104	0	53	34986
2026-01-19 03:19:45.30	356.77	6.11	-41.4	-60.7	3.8	7.45e-01	0	57	104	0	53	35045
2026-01-19 03:19:46.31	356.64	6.17	-41.4	-60.7	3.8	7.49e-01	0	57	104	0	53	35031
2026-01-19 03:19:47.32	356.51	6.22	-41.4	-60.7	3.8	7.45e-01	0	57	104	0	53	34963
2026-01-19 03:19:48.34	356.38	6.28	-41.4	-60.7	3.8	7.45e-01	0	57	104	0	53	35015
2026-01-19 03:19:49.34	356.25	6.33	-41.4	-60.7	3.8	7.46e-01	0	57	104	0	53	34989
2026-01-19 03:19:50.36	356.12	6.39	-41.4	-60.7	3.8	7.46e-01	0	57	104	0	53	35041
2026-01-19 03:19:51.37	355.99	6.45	-41.4	-60.7	3.8	7.45e-01	0	57	104	0	53	34995
2026-01-19 03:19:52.38	355.86	6.50	-41.4	-60.7	3.8	7.46e-01	0	57	104	0	53	34973
2026-01-19 03:19:53.39	355.73	6.56	-41.4	-60.7	3.8	7.46e-01	0	57	104	0	53	34965
2026-01-19 03:19:54.40	355.60	6.61	-41.4	-60.7	3.8	7.43e-01	0	57	104	0	53	34978
2026-01-19 03:19:55.41	355.47	6.67	-41.4	-60.7	3.8	7.44e-01	0	57	104	0	53	34914
2026-01-19 03:19:56.42	355.34	6.72	-41.4	-60.7	3.8	7.45e-01	0	57	104	0	53	35047
2026-01-19 03:19:57.43	355.20	6.78	-41.4	-60.7	3.8	7.44e-01	0	57	104	0	53	34980
2026-01-19 03:19:58.44	355.07	6.84	-41.4	-60.7	3.8	7.43e-01	0	57	104	0	53	34932
2026-01-19 03:19:59.45	354.93	6.89	-41.4	-60.7	3.8	7.46e-01	0	57	104	0	53	34933
2026-01-19 03:20:00.46	354.80	6.95	-41.4	-60.7	3.8	7.45e-01	0	57	104	0	53	34969
2026-01-19 03:20:01.46	354.66	7.00	-41.4	-60.7	3.8	7.47e-01	0	57	104	0	53	34954
2026-01-19 03:20:02.47	354.53	7.06	-41.4	-60.7	3.8	7.46e-01	0	57	104	0	53	34947
2026-01-19 03:20:03.48	354.39	7.11	-41.4	-60.7	3.8	7.41e-01	0	57	104	0	53	34979
2026-01-19 03:20:04.49	354.25	7.17	-41.4	-60.7	3.8	7.46e-01	0	58	104	0	53	34941
2026-01-19 03:20:05.50	354.12	7.23	-41.4	-60.7	3.8	7.48e-01	0	58	104	0	53	35030
2026-01-19 03:20:06.51	353.98	7.28	-41.4	-60.7	3.8	7.47e-01	0	57	104	0	53	34933
2026-01-19 03:20:07.52	353.84	7.34	-41.4	-60.7	3.8	7.45e-01	0	58	104	0	53	34972
2026-01-19 03:20:08.53	353.70	7.39	-41.4	-60.7	3.8	7.48e-01	0	58	104	0	53	34917
2026-01-19 03:20:09.54	353.56	7.45	-41.4	-60.7	3.8	7.46e-01	0	58	104	0	53	34997
2026-01-19 03:20:10.55	353.42	7.50	-41.4	-60.7	3.8	7.47e-01	0	58	104	0	53	34981
2026-01-19 03:20:11.56	353.28	7.56	-41.4	-60.7	3.8	7.43e-01	0	58	104	0	53	35004
2026-01-19 03:20:12.57	353.13	7.62	-41.4	-60.7	3.8	7.44e-01	0	58	104	0	53	34918
2026-01-19 03:20:13.58	352.99	7.67	-41.4	-60.7	3.8	7.44e-01	0	58	104	0	53	34931
2026-01-19 03:20:14.59	352.85	7.73	-41.4	-60.7	3.8	7.43e-01	0	58	104	0	53	34948
2026-01-19 03:20:15.60	352.70	7.78	-41.4	-60.7	3.8	7.44e-01	0	58	104	0	53	34935
2026-01-19 03:20:16.62	352.56	7.84	-41.4	-60.7	3.8	7.45e-01	0	58	104	0	53	34970
2026-01-19 03:20:17.63	352.41	7.89	-41.4	-60.7	3.8	7.46e-01	0	58	104	0	53	34969
2026-01-19 03:20:18.64	352.27	7.95	-41.4	-60.7	3.8	7.42e-01	0	58	104	0	53	34909
2026-01-19 03:20:19.65	352.12	8.01	-41.4	-60.7	3.8	7.48e-01	0	58	104	0	53	34973
2026-01-19 03:20:20.66	351.97	8.06	-41.4	-60.7	3.8	7.48e-01	0	58	104	0	53	35047
2026-01-19 03:20:21.67	351.82	8.12	-41.4	-60.7	3.8	7.45e-01	0	58	104	0	53	35184
2026-01-19 03:20:22.68	351.68	8.17	-41.5	-60.7	3.8	7.44e-01	0	58	104	0	53	35023
2026-01-19 03:20:23.69	351.53	8.23	-41.8	-60.9	3.8	7.43e-01	0	58	104	0	54	33714
2026-01-19 03:20:24.69	351.38	8.28	-41.5	-60.7	3.8	7.42e-01	0	58	104	0	54	33301
2026-01-19 03:20:25.70	351.23	8.34	-41.6	-60.8	3.8	7.44e-01	0	58	104	0	54	33384
2026-01-19 03:20:26.71	351.08	8.39	-41.8	-60.8	3.8	7.44e-01	0	58	104	0	54	33588
2026-01-19 03:20:27.72	350.93	8.45	-41.5	-60.9	3.8	7.47e-01	0	58	104	0	54	33723
2026-01-19 03:20:28.73	350.77	8.50	-41.7	-60.8	3.8	7.45e-01	0	58	104	0	54	33417
2026-01-19 03:20:29.74	350.62	8.56	-41.7	-61.0	3.8	7.47e-01	0	58	104	0	54	34258
2026-01-19 03:20:30.75	350.47	8.61	-41.6	-60.9	3.8	7.43e-01	0	58	104	0	54	33788
2026-01-19 03:20:31.76	350.31	8.67	-41.6	-60.8	3.8	7.45e-01	0	59	104	0	54	33626
2026-01-19 03:20:32.77	350.16	8.72	-41.5	-60.9	3.8	7.43e-01	0	58	104	0	54	33861
2026-01-19 03:20:33.78	350.00	8.78	-41.8	-61.1	3.8	7.47e-01	0	58	104	0	54	34575
2026-01-19 03:20:34.79	349.85	8.83	-41.6	-60.8	3.8	7.44e-01	0	58	104	0	54	33358
2026-01-19 03:20:35.80	349.69	8.89	-41.9	-61.1	3.8	7.47e-01	0	59	104	0	54	34652
2026-01-19 03:20:36.81	349.53	8.94	-41.5	-60.8	3.8	7.47e-01	0	58	104	0	54	33665
2026-01-19 03:20:37.82	349.38	9.00	-41.7	-60.9	3.8	7.45e-01	0	58	104	0	54	33733
2026-01-19 03:20:38.83	349.22	9.05	-41.9	-61.0	3.8	7.44e-01	0	58	104	0	54	34372
2026-01-19 03:20:39.84	349.06	9.10	-42.0	-61.2	3.8	7.43e-01	0	59	104	0	54	34978
2026-01-19 03:20:40.84	348.90	9.16	-41.8	-61.0	3.8	7.45e-01	0	58	104	0	54	34088
2026-01-19 03:20:41.86	348.74	9.21	-41.8	-61.1	3.8	7.47e-01	0	59	104	0	54	34571
2026-01-19 03:20:42.86	348.58	9.27	-42.0	-61.1	3.8	7.46e-01	0	59	104	0	54	34796
2026-01-19 03:20:43.87	348.42	9.32	-42.1	-61.2	3.8	7.47e-01	0	59	104	0	54	35017
2026-01-19 03:20:44.88	348.25	9.38	-41.9	-61.2	3.8	7.45e-01	0	59	104	0	54	34911
2026-01-19 03:20:45.89	348.09	9.43	-41.8	-61.1	3.8	7.45e-01	0	59	104	0	54	34875
2026-01-19 03:20:46.90	347.93	9.48	-42.1	-61.1	3.8	7.48e-01	0	59	104	0	54	34776
2026-01-19 03:20:47.91	347.76	9.54	-42.1	-61.2	3.8	7.42e-01	0	59	104	0	54	35189
2026-01-19 03:20:48.92	347.60	9.59	-42.0	-61.2	3.8	7.45e-01	0	59	104	0	54	35037
2026-01-19 03:20:49.93	347.43	9.64	-42.0	-61.1	3.8	7.46e-01	0	59	104	0	54	34669
2026-01-19 03:20:50.94	347.26	9.70	-42.1	-61.2	3.8	7.45e-01	0	59	104	0	54	34968
2026-01-19 03:20:51.95	347.10	9.75	-41.9	-61.1	3.8	7.46e-01	0	59	104	0	54	34684
2026-01-19 03:20:52.96	346.93	9.81	-42.1	-61.2	3.8	7.43e-01	0	59	104	0	54	35095
2026-01-19 03:20:53.97	346.76	9.86	-42.1	-61.1	3.8	7.45e-01	0	59	104	0	54	34825
2026-01-19 03:20:54.98	346.59	9.91	-41.9	-61.1	3.8	7.45e-01	0	59	104	0	54	34761
2026-01-19 03:20:55.99	346.42	9.97	-41.6	-60.9	3.8	7.46e-01	0	59	104	0	54	33770
2026-01-19 03:20:57.00	346.25	10.02	-42.0	-61.2	3.8	7.47e-01	0	59	104	0	54	35001
2026-01-19 03:20:58.01	346.08	10.07	-41.8	-61.1	3.8	7.43e-01	0	59	104	0	54	34513
2026-01-19 03:20:59.02	345.91	10.12	-41.8	-60.9	3.8	7.44e-01	0	59	104	0	54	33871
2026-01-19 03:21:00.03	345.73	10.18	-41.6	-60.8	3.8	7.48e-01	0	59	104	0	54	33553
2026-01-19 03:21:01.04	345.56	10.23	-41.8	-61.0	3.8	7.47e-01	0	59	104	0	54	34396
2026-01-19 03:21:02.05	345.39	10.28	-41.6	-60.9	3.8	7.45e-01	0	59	104	0	54	34061
2026-01-19 03:21:03.05	345.21	10.33	-41.8	-61.0	3.8	7.45e-01	0	59	104	0	54	34148
2026-01-19 03:21:04.06	345.04	10.39	-41.7	-60.8	3.8	7.47e-01	0	59	104	0	54	33488
2026-01-19 03:21:05.07	344.86	10.44	-41.6	-60.8	3.8	7.45e-01	0	59	104	0	54	33577
2026-01-19 03:21:06.08	344.69	10.49	-41.8	-61.0	3.8	7.47e-01	0	59	104	0	54	34461
2026-01-19 03:21:07.09	344.51	10.54	-41.8	-61.0	3.8	7.45e-01	0	59	104	0	54	34121
2026-01-19 03:21:08.10	344.33	10.59	-41.6	-60.7	3.8	7.45e-01	0	59	104	0	54	33130
2026-01-19 03:21:09.11	344.15	10.65	-41.6	-60.8	3.8	7.45e-01	0	59	104	0	54	33596
2026-01-19 03:21:10.12	343.97	10.70	-41.8	-61.0	3.8	7.43e-01	0	59	104	0	54	34217
2026-01-19 03:21:11.13	343.79	10.75	-41.5	-60.7	3.8	7.43e-01	0	59	104	0	54	33013
2026-01-19 03:21:12.14	343.61	10.80	-41.7	-60.9	3.8	7.44e-01	0	59	104	0	54	33716
2026-01-19 03:21:13.15	343.43	10.85	-41.7	-60.8	3.8	7.45e-01	0	59	104	0	54	33371
2026-01-19 03:21:14.16	343.25	10.90	-41.6	-60.8	3.8	7.44e-01	0	59	104	0	54	33494
2026-01-19 03:21:15.17	343.06	10.95	-41.5	-60.7	3.8	7.48e-01	0	59	104	0	54	32998
2026-01-19 03:21:16.18	342.88	11.00	-41.6	-60.8	3.8	7.48e-01	0	59	104	0	54	33444
2026-01-19 03:21:17.19	342.69	11.05	-41.6	-60.7	3.8	7.44e-01	0	59	104	0	54	33236
2026-01-19 03:21:18.20	342.51	11.10	-41.5	-60.8	3.8	7.46e-01	0	59	104	0	54	33576
2026-01-19 03:21:19.21	342.32	11.15	-41.4	-60.6	3.8	7.42e-01	0	59	104	0	54	32586
2026-01-19 03:21:20.22	342.14	11.20	-41.4	-60.7	3.8	7.45e-01	0	59	104	0	54	33097
2026-01-19 03:21:21.23	341.95	11.25	-41.7	-60.9	3.8	7.45e-01	0	59	104	0	54	33826
2026-01-19 03:21:22.24	341.76	11.30	-41.4	-60.7	3.8	7.46e-01	0	59	104	0	54	33249
2026-01-19 03:21:23.25	341.57	11.35	-41.3	-60.6	3.8	7.46e-01	0	59	104	0	54	32826
2026-01-19 03:21:24.26	341.38	11.40	-41.6	-61.0	3.8	7.46e-01	0	59	104	0	54	34174
2026-01-19 03:21:25.26	341.19	11.45	-41.5	-60.6	3.8	7.47e-01	0	59	104	0	54	32904
2026-01-19 03:21:26.28	341.00	11.50	-41.8	-60.9	3.8	7.45e-01	0	60	104	0	54	33799
2026-01-19 03:21:27.29	340.81	11.55	-41.7	-60.7	3.8	7.46e-01	0	60	104	0	54	33299
2026-01-19 03:21:28.30	340.62	11.60	-42.1	-61.1	3.8	7.45e-01	0	59	104	0	55	32586
2026-01-19 03:21:29.30	340.43	11.64	-41.4	-60.5	3.8	7.46e-01	0	59	104	0	54	32217
2026-01-19 03:21:30.31	340.23	11.69	-41.5	-60.5	3.8	7.46e-01	0	59	104	0	54	32337
2026-01-19 03:21:31.32	340.04	11.74	-41.6	-60.2	3.8	7.46e-01	0	59	104	0	54	31356
2026-01-19 03:21:32.33	339.84	11.79	-41.6	-59.9	3.8	7.44e-01	0	60	104	0	54	30370
2026-01-19 03:21:33.34	339.65	11.84	-41.7	-60.1	3.8	7.44e-01	0	59	104	0	54	30997
2026-01-19 03:21:34.35	339.45	11.88	-42.2	-58.4	4.0	7.40e-01	0	59	104	0	54	25313
2026-01-19 03:21:35.36	339.25	11.93	-43.2	-53.2	8.5	6.40e-01	19	60	0	524288	57	11736
2026-01-19 03:21:36.37	339.06	11.98	-43.3	-55.3	4.3	7.27e-01	0	60	104	1048576	57	14962
2026-01-19 03:21:37.38	338.86	12.02	-43.9	-60.0	3.9	7.40e-01	0	60	104	1048576	58	24270
2026-01-19 03:21:38.39	338.66	12.07	-42.8	-49.8	12.1	6.09e-01	0	60	0	2097152	57	7985
2026-01-19 03:21:39.40	338.46	12.12	-42.4	-48.2	13.8	6.05e-01	0	60	0	3670016	56	6989
2026-01-19 03:21:40.41	338.26	12.16	-42.0	-46.9	15.2	6.04e-01	0	60	0	5767168	56	6045
2026-01-19 03:21:41.42	338.06	12.21	-41.7	-46.2	16.0	6.04e-01	0	60	0	7340032	55	5862
2026-01-19 03:21:42.43	337.86	12.25	-41.8	-46.2	16.1	6.01e-01	0	60	0	9437184	55	5896
2026-01-19 03:21:43.44	337.65	12.30	-42.3	-47.1	15.3	6.04e-01	0	60	0	11534336	55	6554
2026-01-19 03:21:44.45	337.45	12.34	-42.2	-46.8	15.7	6.02e-01	0	60	0	13107200	55	6291
2026-01-19 03:21:45.46	337.25	12.39	-41.9	-46.0	16.5	6.03e-01	0	60	0	15204352	55	5733
2026-01-19 03:21:46.47	337.04	12.43	-42.0	-46.3	16.4	6.03e-01	0	60	0	16777216	55	5927
2026-01-19 03:21:47.48	336.84	12.48	-42.1	-46.4	16.2	6.01e-01	0	60	0	18874368	55	6041
2026-01-19 03:21:48.49	336.63	12.52	-42.0	-46.0	16.7	6.04e-01	0	60	0	20971520	55	5763
2026-01-19 03:21:49.50	336.42	12.57	-42.0	-46.1	16.6	6.03e-01	0	60	0	22544384	55	5795
2026-01-19 03:21:50.50	336.22	12.61	-41.9	-45.9	16.8	6.02e-01	0	60	0	24641536	55	5670
2026-01-19 03:21:51.51	336.01	12.65	-41.8	-45.7	17.1	6.05e-01	0	60	0	26214400	55	5530
2026-01-19 03:21:52.52	335.80	12.70	-42.0	-45.9	16.9	6.03e-01	0	60	0	28311552	55	5711
2026-01-19 03:21:53.53	335.59	12.74	-41.9	-45.8	17.1	6.04e-01	0	60	0	30408704	55	5616
2026-01-19 03:21:54.54	335.38	12.78	-42.0	-46.0	16.9	6.01e-01	0	60	0	31981568	55	5728
2026-01-19 03:21:55.55	335.17	12.82	-42.0	-45.8	17.1	6.01e-01	0	60	0	34078720	55	5649
2026-01-19 03:21:56.56	334.96	12.87	-42.0	-45.8	17.2	6.06e-01	0	60	0	36175872	55	5597
2026-01-19 03:21:57.57	334.75	12.91	-42.1	-45.9	17.1	6.04e-01	0	60	0	37748736	55	5671
2026-01-19 03:21:58.58	334.54	12.95	-42.1	-45.9	17.1	6.00e-01	0	60	0	39845888	55	5709
2026-01-19 03:21:59.59	334.32	12.99	-42.1	-45.9	17.2	6.04e-01	0	60	0	41418752	55	5665
2026-01-19 03:22:00.59	334.11	13.03	-42.1	-46.0	17.1	6.03e-01	0	60	0	43515904	55	5731
2026-01-19 03:22:01.60	333.90	13.07	-42.1	-45.8	17.2	6.04e-01	0	60	0	45613056	55	5641
2026-01-19 03:22:02.61	333.68	13.11	-42.0	-45.8	17.3	6.04e-01	0	60	0	47185920	55	5604
2026-01-19 03:22:03.62	333.47	13.15	-42.0	-45.7	17.4	6.03e-01	0	60	0	49283072	55	5548
2026-01-19 03:22:04.63	333.25	13.19	-42.0	-45.7	17.4	6.04e-01	0	60	0	50855936	55	5577
2026-01-19 03:22:05.64	333.03	13.23	-42.1	-45.8	17.4	6.03e-01	0	60	0	52953088	55	5606
2026-01-19 03:22:06.65	332.81	13.27	-42.1	-45.9	17.3	6.03e-01	0	60	0	55050240	55	5702
2026-01-19 03:22:07.66	332.60	13.31	-42.1	-45.8	17.3	6.04e-01	0	60	0	56623104	55	5635
2026-01-19 03:22:08.67	332.38	13.35	-42.1	-45.8	17.4	6.02e-01	0	60	0	58720256	55	5617
2026-01-19 03:22:09.67	332.16	13.38	-42.1	-45.9	17.4	6.02e-01	0	60	0	60293120	55	5665
2026-01-19 03:22:10.68	331.94	13.42	-42.2	-45.9	17.3	6.04e-01	0	60	0	62390272	55	5714
2026-01-19 03:22:11.69	331.72	13.46	-42.1	-45.8	17.4	6.02e-01	0	60	0	64487424	55	5629
2026-01-19 03:22:12.71	331.49	13.50	-42.1	-45.7	17.6	6.03e-01	0	60	0	66060288	55	5545
2026-01-19 03:22:13.71	331.27	13.53	-42.2	-45.9	17.4	6.05e-01	0	60	0	68157440	55	5670
2026-01-19 03:22:14.72	331.05	13.57	-42.1	-45.8	17.5	6.04e-01	0	60	0	69730304	55	5607
2026-01-19 03:22:15.73	330.83	13.60	-42.2	-45.8	17.5	6.05e-01	0	60	0	71827456	55	5653
2026-01-19 03:22:16.74	330.60	13.64	-42.2	-45.9	17.4	6.03e-01	0	60	0	73924608	55	5716
2026-01-19 03:22:17.75	330.38	13.68	-42.2	-45.9	17.4	6.05e-01	0	60	0	75497472	55	5706
2026-01-19 03:22:18.76	330.16	13.71	-42.2	-45.9	17.4	6.02e-01	0	60	0	77594624	55	5717
2026-01-19 03:22:19.77	329.93	13.75	-42.2	-45.9	17.4	6.04e-01	0	60	0	79167488	55	5715
2026-01-19 03:22:20.78	329.70	13.78	-42.2	-45.9	17.4	6.01e-01	0	60	0	81264640	55	5709
2026-01-19 03:22:21.79	329.48	13.81	-42.2	-45.9	17.5	6.01e-01	0	60	0	83361792	55	5672
2026-01-19 03:22:22.80	329.25	13.85	-42.2	-45.9	17.4	6.04e-01	0	60	0	84934656	55	5701
2026-01-19 03:22:23.81	329.02	13.88	-42.3	-46.0	17.3	6.02e-01	0	60	0	87031808	55	5768
2026-01-19 03:22:24.82	328.79	13.91	-42.2	-45.9	17.4	6.03e-01	0	60	0	89128960	55	5685
2026-01-19 03:22:25.83	328.56	13.94	-42.2	-45.9	17.5	6.02e-01	0	60	0	90701824	55	5660
2026-01-19 03:22:26.84	328.34	13.98	-42.2	-45.8	17.6	6.05e-01	0	60	0	92798976	55	5608
2026-01-19 03:22:27.85	328.11	14.01	-42.2	-45.8	17.6	6.04e-01	0	60	0	94371840	55	5643
2026-01-19 03:22:28.86	327.87	14.04	-42.2	-45.8	17.6	6.01e-01	0	60	0	96468992	55	5621
2026-01-19 03:22:29.87	327.64	14.07	-42.2	-45.9	17.5	6.01e-01	0	60	0	98566144	55	5669
2026-01-19 03:22:30.88	327.41	14.10	-42.2	-45.8	17.6	6.04e-01	0	60	0	100139008	55	5617
2026-01-19 03:22:31.89	327.18	14.13	-42.2	-45.9	17.5	6.02e-01	0	60	0	102236160	55	5683
2026-01-19 03:22:32.90	326.95	14.16	-42.3	-45.9	17.5	6.04e-01	0	60	0	104333312	55	5712
2026-01-19 03:22:33.91	326.71	14.19	-42.2	-45.7	17.7	6.02e-01	0	60	0	105906176	55	5576
2026-01-19 03:22:34.92	326.48	14.22	-42.2	-45.8	17.6	6.04e-01	0	60	0	108003328	55	5655
2026-01-19 03:22:35.93	326.25	14.25	-42.2	-45.8	17.6	6.03e-01	0	60	0	109576192	55	5655
2026-01-19 03:22:36.94	326.01	14.27	-42.2	-45.9	17.6	6.03e-01	0	60	0	111673344	55	5663
2026-01-19 03:22:37.95	325.78	14.30	-42.2	-45.9	17.6	6.05e-01	0	60	0	113770496	55	5685
2026-01-19 03:22:38.96	325.54	14.33	-42.3	-45.9	17.6	6.04e-01	0	60	0	115343360	55	5690
2026-01-19 03:22:39.97	325.31	14.36	-42.3	-45.9	17.5	6.02e-01	0	60	0	117440512	55	5700
2026-01-19 03:22:40.98	325.07	14.38	-42.2	-45.9	17.6	6.01e-01	0	60	0	119013376	55	5673
2026-01-19 03:22:41.99	324.83	14.41	-42.2	-45.8	17.6	6.04e-01	0	60	0	121110528	55	5624
2026-01-19 03:22:42.99	324.60	14.43	-42.2	-45.8	17.6	6.04e-01	0	61	0	123207680	55	5643
2026-01-19 03:22:44.00	324.36	14.46	-42.3	-45.9	17.5	6.02e-01	0	60	0	124780544	55	5715
2026-01-19 03:22:45.01	324.12	14.48	-42.2	-45.7	17.8	6.04e-01	0	60	0	126877696	55	5558
2026-01-19 03:22:46.02	323.88	14.51	-42.2	-45.8	17.6	6.03e-01	0	60	0	128450560	55	5649
2026-01-19 03:22:47.03	323.64	14.53	-42.3	-45.9	17.6	6.02e-01	0	60	0	130547712	55	5664
2026-01-19 03:22:48.04	323.40	14.55	-42.2	-45.9	17.6	6.02e-01	0	60	0	132644864	55	5660
2026-01-19 03:22:49.05	323.16	14.58	-42.3	-45.9	17.6	6.01e-01	0	61	0	134217728	55	5689
2026-01-19 03:22:50.06	322.92	14.60	-42.3	-45.9	17.5	6.01e-01	0	60	0	136314880	55	5716
2026-01-19 03:22:51.07	322.68	14.62	-42.3	-45.9	17.5	6.01e-01	0	60	0	137887744	55	5719
2026-01-19 03:22:52.08	322.44	14.64	-42.2	-45.8	17.7	6.03e-01	0	60	0	139984896	55	5604
2026-01-19 03:22:53.09	322.20	14.66	-42.2	-45.8	17.7	6.03e-01	0	60	0	142082048	55	5614
2026-01-19 03:22:54.10	321.96	14.68	-42.3	-45.9	17.6	6.03e-01	0	60	0	143654912	55	5679
2026-01-19 03:22:55.11	321.72	14.70	-42.3	-45.9	17.6	6.03e-01	0	60	0	145752064	55	5688
2026-01-19 03:22:56.12	321.47	14.72	-42.3	-46.0	17.4	6.02e-01	0	60	0	147324928	55	5787
2026-01-19 03:22:57.13	321.23	14.74	-42.3	-45.9	17.5	6.01e-01	0	60	0	149422080	55	5718
2026-01-19 03:22:58.14	320.99	14.76	-42.3	-46.0	17.5	6.03e-01	0	60	0	151519232	55	5725
2026-01-19 03:22:59.15	320.75	14.78	-42.2	-45.8	17.7	6.05e-01	0	60	0	153092096	55	5618
2026-01-19 03:23:00.16	320.50	14.80	-42.3	-46.0	17.5	6.03e-01	0	60	0	155189248	55	5730
2026-01-19 03:23:01.17	320.26	14.81	-42.4	-46.2	17.3	6.03e-01	0	60	0	157286400	55	5883
2026-01-19 03:23:02.18	320.01	14.83	-42.5	-46.3	17.2	6.03e-01	0	60	0	158859264	55	5941
2026-01-19 03:23:03.19	319.77	14.85	-42.5	-46.4	17.1	6.05e-01	0	60	0	160956416	55	6024
2026-01-19 03:23:04.20	319.52	14.86	-42.5	-46.3	17.1	6.05e-01	0	60	0	162529280	55	5988
2026-01-19 03:23:05.21	319.28	14.88	-42.5	-46.3	17.2	6.03e-01	0	60	0	164626432	55	5927
2026-01-19 03:23:06.22	319.03	14.89	-42.2	-45.8	17.6	6.01e-01	0	60	0	166723584	55	5643
2026-01-19 03:23:07.23	318.79	14.91	-42.3	-46.0	17.5	6.02e-01	0	60	0	168296448	55	5739
2026-01-19 03:23:08.23	318.54	14.92	-42.3	-46.0	17.5	6.03e-01	0	60	0	170393600	55	5743
2026-01-19 03:23:09.24	318.30	14.93	-42.3	-46.0	17.5	6.03e-01	0	60	0	172490752	55	5742
2026-01-19 03:23:10.25	318.05	14.95	-42.4	-46.0	17.5	6.03e-01	0	60	0	174063616	55	5750
2026-01-19 03:23:11.26	317.80	14.96	-42.3	-46.0	17.5	6.01e-01	0	60	0	176160768	55	5766
2026-01-19 03:23:12.27	317.56	14.97	-42.3	-46.0	17.5	6.04e-01	0	60	0	177733632	55	5745
2026-01-19 03:23:13.28	317.31	14.98	-42.3	-45.9	17.6	6.01e-01	0	61	0	179830784	55	5703
2026-01-19 03:23:14.29	317.06	14.99	-42.3	-46.0	17.5	6.06e-01	0	60	0	181927936	55	5725
2026-01-19 03:23:15.30	316.81	15.00	-42.4	-46.0	17.4	6.05e-01	0	60	0	183500800	55	5787
2026-01-19 03:23:16.31	316.57	15.01	-42.2	-45.8	17.7	6.03e-01	0	60	0	185597952	55	5611
2026-01-19 03:23:17.32	316.32	15.02	-42.2	-45.7	17.8	6.05e-01	0	61	0	187170816	55	5590
2026-01-19 03:23:18.33	316.07	15.03	-42.3	-46.0	17.5	6.07e-01	0	61	0	189267968	55	5769
2026-01-19 03:23:19.34	315.82	15.04	-42.4	-46.0	17.5	6.06e-01	0	61	0	191365120	55	5771
2026-01-19 03:23:20.35	315.57	15.05	-42.3	-45.9	17.6	6.03e-01	0	61	0	192937984	55	5679
2026-01-19 03:23:21.36	315.32	15.05	-42.1	-45.7	17.9	6.03e-01	0	61	0	195035136	55	5529
2026-01-19 03:23:22.37	315.08	15.06	-42.3	-45.9	17.6	6.02e-01	0	61	0	196608000	55	5696
2026-01-19 03:23:23.38	314.83	15.07	-42.3	-45.9	17.6	6.04e-01	0	61	0	198705152	55	5695
2026-01-19 03:23:24.39	314.58	15.07	-42.6	-46.6	16.9	6.03e-01	0	60	0	200802304	55	6148
2026-01-19 03:23:25.40	314.33	15.08	-42.4	-46.2	17.3	6.03e-01	0	60	0	202375168	55	5878
2026-01-19 03:23:26.41	314.08	15.08	-42.6	-46.5	16.9	6.04e-01	0	60	0	204472320	55	6107
2026-01-19 03:23:27.42	313.83	15.09	-42.1	-45.6	17.9	6.03e-01	0	61	0	206045184	55	5522
2026-01-19 03:23:28.43	313.58	15.09	-42.4	-46.2	17.3	6.02e-01	0	61	0	208142336	55	5879
2026-01-19 03:23:29.44	313.33	15.09	-42.2	-45.7	17.8	6.03e-01	0	60	0	210239488	55	5572
2026-01-19 03:23:30.45	313.08	15.09	-42.4	-46.2	17.3	6.03e-01	0	60	0	211812352	55	5879
2026-01-19 03:23:31.46	312.83	15.10	-42.1	-45.5	18.0	6.06e-01	0	61	0	213909504	55	5441
2026-01-19 03:23:32.47	312.58	15.10	-42.5	-46.3	17.2	6.02e-01	0	61	0	215482368	55	5948
2026-01-19 03:23:33.48	312.33	15.10	-42.3	-45.9	17.6	6.02e-01	0	61	0	217579520	55	5663
2026-01-19 03:23:34.49	312.08	15.10	-42.6	-46.4	17.1	6.03e-01	0	61	0	219676672	55	6046
2026-01-19 03:23:35.50	311.84	15.10	-42.2	-45.7	17.8	6.04e-01	0	61	0	221249536	55	5568
2026-01-19 03:23:36.51	311.59	15.10	-42.5	-46.3	17.2	6.03e-01	0	60	0	223346688	55	5930
2026-01-19 03:23:37.51	311.34	15.10	-42.2	-45.8	17.7	6.03e-01	0	60	0	225443840	55	5641
2026-01-19 03:23:38.52	311.09	15.10	-42.5	-46.3	17.1	6.02e-01	0	61	0	227016704	55	5986
2026-01-19 03:23:39.53	310.84	15.09	-42.1	-45.5	18.0	6.03e-01	0	61	0	229113856	55	5422
2026-01-19 03:23:40.54	310.59	15.09	-42.5	-46.3	17.2	6.03e-01	0	61	0	230686720	55	5924
2026-01-19 03:23:41.55	310.34	15.09	-42.1	-45.6	17.9	6.05e-01	0	61	0	232783872	55	5503
2026-01-19 03:23:42.56	310.09	15.09	-42.4	-46.2	17.2	6.06e-01	0	61	0	234881024	55	5921
2026-01-19 03:23:43.57	309.84	15.08	-42.1	-45.6	17.8	6.05e-01	0	61	0	236453888	55	5527
2026-01-19 03:23:44.58	309.59	15.08	-42.4	-46.0	17.4	6.01e-01	0	61	0	238551040	55	5788
2026-01-19 03:23:45.59	309.34	15.07	-42.2	-45.8	17.7	6.03e-01	0	61	0	240648192	55	5638
2026-01-19 03:23:46.60	309.09	15.07	-42.4	-46.1	17.3	6.02e-01	0	61	0	242221056	55	5843
2026-01-19 03:23:47.61	308.85	15.06	-42.3	-46.0	17.5	6.03e-01	0	61	0	244318208	55	5743
2026-01-19 03:23:48.62	308.60	15.05	-42.6	-46.5	17.0	6.04e-01	0	61	0	245891072	55	6098
2026-01-19 03:23:49.63	308.35	15.05	-42.2	-45.8	17.7	6.04e-01	0	61	0	247988224	55	5598
2026-01-19 03:23:50.64	308.10	15.04	-42.5	-46.4	17.1	6.02e-01	0	61	0	250085376	55	6029
2026-01-19 03:23:51.65	307.85	15.03	-42.0	-45.4	18.1	6.02e-01	0	61	0	251658240	55	5343
2026-01-19 03:23:52.66	307.60	15.02	-42.5	-46.4	17.1	6.03e-01	0	61	0	253755392	55	6040
2026-01-19 03:23:53.67	307.35	15.01	-42.0	-45.4	18.0	6.04e-01	0	61	0	255328256	55	5402
2026-01-19 03:23:54.67	307.11	15.00	-42.4	-46.2	17.2	6.03e-01	0	61	0	257425408	55	5906
2026-01-19 03:23:55.68	306.86	14.99	-42.3	-45.9	17.6	6.02e-01	0	61	0	258998272	55	5674
2026-01-19 03:23:56.69	306.61	14.98	-42.1	-45.7	17.7	6.01e-01	0	61	0	261095424	55	5539
2026-01-19 03:23:57.70	306.37	14.97	-42.4	-46.2	17.3	6.02e-01	0	61	0	263192576	55	5861
2026-01-19 03:23:58.71	306.12	14.96	-42.1	-45.5	17.9	6.02e-01	0	61	0	264765440	55	5462
2026-01-19 03:23:59.72	305.87	14.95	-42.4	-46.1	17.2	6.04e-01	0	61	0	266862592	55	5849
2026-01-19 03:24:00.73	305.62	14.93	-42.2	-45.8	17.7	6.02e-01	0	61	0	268959744	55	5608
2026-01-19 03:24:01.74	305.38	14.92	-42.2	-45.7	17.6	6.03e-01	0	61	0	270532608	55	5587
2026-01-19 03:24:02.75	305.13	14.91	-42.2	-45.9	17.6	6.04e-01	0	61	0	272629760	55	5671
2026-01-19 03:24:03.76	304.89	14.89	-42.2	-45.9	17.6	6.02e-01	0	61	0	274202624	55	5668
2026-01-19 03:24:04.77	304.64	14.88	-42.3	-45.9	17.5	6.05e-01	0	61	0	276299776	55	5708
2026-01-19 03:24:05.78	304.39	14.86	-42.3	-46.0	17.4	6.04e-01	0	61	0	278396928	55	5761
2026-01-19 03:24:06.79	304.15	14.85	-42.4	-46.2	17.2	6.03e-01	0	61	0	279969792	55	5857
2026-01-19 03:24:07.80	303.90	14.83	-42.0	-45.5	17.9	6.04e-01	0	61	0	282066944	55	5424
2026-01-19 03:24:08.80	303.66	14.81	-42.5	-46.3	17.1	6.02e-01	0	61	0	283639808	55	5984
2026-01-19 03:24:09.81	303.42	14.80	-42.2	-45.8	17.7	6.02e-01	0	61	0	285736960	55	5593
2026-01-19 03:24:10.82	303.17	14.78	-42.3	-45.9	17.4	6.04e-01	0	61	0	287834112	55	5722
2026-01-19 03:24:11.83	302.93	14.76	-42.4	-46.3	17.1	6.05e-01	0	61	0	289406976	55	5957
2026-01-19 03:24:12.84	302.68	14.74	-42.1	-45.7	17.6	6.01e-01	0	61	0	291504128	55	5562
2026-01-19 03:24:13.85	302.44	14.72	-42.6	-46.6	16.8	6.04e-01	0	61	0	293601280	55	6138
2026-01-19 03:24:14.86	302.20	14.70	-42.3	-46.1	17.3	6.01e-01	0	61	0	295174144	55	5800
2026-01-19 03:24:15.87	301.96	14.68	-42.5	-46.4	17.0	6.04e-01	0	61	0	297271296	55	6036
2026-01-19 03:24:16.88	301.71	14.66	-42.3	-45.9	17.4	6.04e-01	0	61	0	298844160	55	5703
2026-01-19 03:24:17.89	301.47	14.64	-42.3	-46.0	17.3	6.04e-01	0	61	0	300941312	55	5758
2026-01-19 03:24:18.90	301.23	14.62	-42.3	-46.0	17.4	6.02e-01	0	61	0	303038464	55	5751
2026-01-19 03:24:19.91	300.99	14.60	-42.6	-46.7	16.6	6.04e-01	0	61	0	304611328	55	6272
2026-01-19 03:24:20.92	300.75	14.58	-42.0	-45.5	17.9	6.03e-01	0	61	0	306708480	55	5403
2026-01-19 03:24:21.92	300.51	14.56	-42.5	-46.5	16.6	6.03e-01	0	61	0	308281344	55	6070
2026-01-19 03:24:22.93	300.27	14.53	-42.3	-46.0	17.3	6.02e-01	0	61	0	310378496	55	5725
2026-01-19 03:24:23.94	300.03	14.51	-42.2	-45.8	17.6	6.02e-01	0	61	0	312475648	55	5602
2026-01-19 03:24:24.95	299.79	14.48	-42.6	-46.8	16.5	6.04e-01	0	61	0	314048512	55	6278
2026-01-19 03:24:25.97	299.55	14.46	-41.9	-45.3	18.0	6.03e-01	0	61	0	316145664	55	5292
2026-01-19 03:24:26.98	299.31	14.43	-42.4	-46.2	17.1	6.04e-01	0	61	0	317718528	55	5888
2026-01-19 03:24:27.98	299.08	14.41	-42.3	-46.0	17.2	6.03e-01	0	61	0	319815680	55	5780
2026-01-19 03:24:28.99	298.84	14.38	-42.0	-45.4	17.8	6.04e-01	0	61	0	321912832	55	5398
2026-01-19 03:24:30.00	298.60	14.36	-42.2	-45.8	17.5	6.02e-01	0	61	0	323485696	55	5655
2026-01-19 03:24:31.01	298.37	14.33	-42.6	-46.8	16.4	6.01e-01	0	61	0	325582848	55	6306
2026-01-19 03:24:32.02	298.13	14.30	-41.8	-45.1	18.1	6.04e-01	0	61	0	327155712	55	5195
2026-01-19 03:24:33.03	297.89	14.28	-42.6	-46.7	16.5	6.03e-01	0	61	0	329252864	55	6254
2026-01-19 03:24:34.04	297.66	14.25	-42.3	-46.2	16.9	6.04e-01	0	61	0	331350016	55	5877
2026-01-19 03:24:35.05	297.42	14.22	-42.2	-46.0	17.2	6.03e-01	0	61	0	332922880	55	5728
2026-01-19 03:24:36.06	297.19	14.19	-42.6	-46.8	16.3	6.04e-01	0	61	0	335020032	55	6302
2026-01-19 03:24:37.06	296.96	14.16	-42.2	-46.1	17.1	6.01e-01	0	61	0	337117184	55	5799
2026-01-19 03:24:38.07	296.73	14.13	-42.2	-45.9	16.8	6.03e-01	0	61	0	338690048	55	5721
2026-01-19 03:24:39.08	296.49	14.10	-42.1	-45.8	17.3	6.04e-01	0	61	0	340787200	55	5620
2026-01-19 03:24:40.09	296.26	14.07	-42.4	-46.6	16.4	6.04e-01	0	61	0	342360064	55	6178
2026-01-19 03:24:41.10	296.03	14.04	-41.7	-45.1	18.0	6.02e-01	0	61	0	344457216	55	5181
2026-01-19 03:24:42.11	295.80	14.01	-42.1	-46.0	17.0	6.06e-01	0	61	0	346554368	55	5777
2026-01-19 03:24:43.12	295.57	13.98	-42.2	-46.2	16.7	6.03e-01	0	61	0	348127232	55	5879
2026-01-19 03:24:44.13	295.34	13.95	-41.7	-45.1	17.9	6.02e-01	0	61	0	350224384	55	5208
2026-01-19 03:24:45.14	295.11	13.91	-42.3	-46.4	16.7	6.04e-01	0	61	0	351797248	55	6021
2026-01-19 03:24:46.15	294.88	13.88	-42.0	-45.7	17.1	6.02e-01	0	61	0	353894400	55	5586
2026-01-19 03:24:47.16	294.65	13.85	-41.8	-45.4	17.5	6.05e-01	0	61	0	355991552	55	5387
2026-01-19 03:24:48.17	294.42	13.81	-41.9	-45.7	17.1	6.03e-01	0	61	0	357564416	55	5589
2026-01-19 03:24:49.18	294.19	13.78	-42.0	-46.0	16.8	6.03e-01	0	61	0	359661568	55	5758
2026-01-19 03:24:50.19	293.97	13.75	-42.0	-46.0	16.8	6.01e-01	0	61	0	361234432	55	5750
2026-01-19 03:24:51.20	293.74	13.71	-41.9	-45.9	16.9	6.03e-01	0	61	0	363331584	55	5676
2026-01-19 03:24:52.21	293.52	13.68	-42.3	-46.8	15.9	6.04e-01	0	61	0	365428736	55	6278
2026-01-19 03:24:53.22	293.29	13.64	-41.9	-45.8	16.8	6.04e-01	0	61	0	367001600	55	5631
2026-01-19 03:24:54.23	293.07	13.61	-41.9	-45.8	16.9	6.04e-01	0	61	0	369098752	55	5614
2026-01-19 03:24:55.23	292.84	13.57	-42.1	-46.3	16.4	6.05e-01	0	61	0	370671616	55	5971
2026-01-19 03:24:56.24	292.62	13.53	-42.0	-46.2	16.5	6.03e-01	0	61	0	372768768	55	5869
2026-01-19 03:24:57.25	292.40	13.50	-42.2	-46.7	16.0	6.01e-01	0	61	0	374865920	55	6228
2026-01-19 03:24:58.26	292.18	13.46	-42.0	-46.2	16.3	6.04e-01	0	61	0	376438784	55	5900
2026-01-19 03:24:59.27	291.95	13.42	-41.9	-46.1	16.3	6.02e-01	0	61	0	378535936	55	5854
2026-01-19 03:25:00.28	291.73	13.38	-42.3	-47.1	15.4	6.06e-01	0	61	0	380108800	55	6496
2026-01-19 03:25:01.29	291.51	13.35	-41.9	-46.2	16.2	6.03e-01	0	61	0	382205952	55	5906
2026-01-19 03:25:02.30	291.29	13.31	-41.9	-46.1	16.3	6.02e-01	0	61	0	384303104	55	5847
2026-01-19 03:25:03.30	291.08	13.27	-42.1	-46.6	15.8	6.03e-01	0	61	0	385875968	55	6168
2026-01-19 03:25:04.31	290.86	13.23	-41.9	-46.1	16.3	6.02e-01	0	61	0	387973120	55	5829
2026-01-19 03:25:05.32	290.64	13.19	-41.9	-46.1	16.4	6.05e-01	0	61	0	390070272	55	5809
2026-01-19 03:25:06.33	290.42	13.15	-41.8	-46.1	16.3	6.07e-01	0	61	0	391643136	55	5812
2026-01-19 03:25:07.34	290.21	13.11	-41.9	-46.2	16.1	6.05e-01	0	61	0	393740288	55	5913
2026-01-19 03:25:08.35	289.99	13.07	-41.9	-46.3	16.0	6.03e-01	0	61	0	395313152	55	5968
2026-01-19 03:25:09.36	289.77	13.03	-41.9	-46.2	16.1	6.04e-01	0	61	0	397410304	55	5910
2026-01-19 03:25:10.37	289.56	12.99	-41.7	-46.0	16.3	6.02e-01	0	61	0	399507456	55	5775
2026-01-19 03:25:11.38	289.34	12.95	-41.7	-46.1	16.2	6.02e-01	0	61	0	401080320	55	5797
2026-01-19 03:25:12.39	289.13	12.91	-41.8	-46.2	16.0	6.04e-01	0	61	0	403177472	55	5904
2026-01-19 03:25:13.40	288.92	12.87	-41.7	-46.1	16.1	6.01e-01	0	61	0	405274624	55	5835
2026-01-19 03:25:14.41	288.71	12.82	-41.6	-45.9	16.3	6.05e-01	0	61	0	406847488	55	5683
2026-01-19 03:25:15.42	288.49	12.78	-41.7	-46.2	15.9	6.02e-01	0	61	0	408944640	55	5884
2026-01-19 03:25:16.43	288.28	12.74	-42.0	-46.9	15.2	6.03e-01	0	61	0	410517504	55	6392
2026-01-19 03:25:17.44	288.07	12.70	-41.8	-46.6	15.4	6.06e-01	0	61	0	412614656	55	6154
2026-01-19 03:25:18.45	287.86	12.65	-41.6	-46.1	15.9	6.04e-01	0	61	0	414711808	55	5820
2026-01-19 03:25:19.46	287.66	12.61	-41.8	-46.5	15.5	6.02e-01	0	61	0	416284672	55	6126
2026-01-19 03:25:20.47	287.45	12.57	-42.1	-47.5	14.5	6.03e-01	0	61	0	418381824	55	6829
2026-01-19 03:25:21.47	287.24	12.52	-42.0	-47.0	14.9	6.02e-01	0	61	0	419954688	55	6474
2026-01-19 03:25:22.48	287.03	12.48	-41.9	-46.7	15.4	6.05e-01	0	61	0	422051840	55	6217
2026-01-19 03:25:23.49	286.83	12.43	-42.2	-47.5	14.6	6.04e-01	0	61	0	424148992	55	6849
2026-01-19 03:25:24.51	286.62	12.39	-42.3	-48.1	13.9	6.04e-01	0	61	0	425721856	55	7293
2026-01-19 03:25:25.52	286.42	12.34	-42.2	-47.6	14.4	6.03e-01	0	61	0	427819008	55	6921
2026-01-19 03:25:26.53	286.21	12.30	-42.2	-47.6	14.4	6.05e-01	0	61	0	429391872	55	6915
2026-01-19 03:25:27.54	286.01	12.25	-42.4	-48.4	13.6	6.05e-01	0	61	0	431489024	55	7573
2026-01-19 03:25:28.55	285.81	12.21	-42.5	-48.6	13.3	6.02e-01	0	61	0	433586176	55	7762
2026-01-19 03:25:29.56	285.60	12.16	-42.4	-48.0	14.0	6.03e-01	0	61	0	435159040	55	7259
2026-01-19 03:25:30.57	285.40	12.11	-42.4	-48.0	14.1	6.06e-01	0	61	0	437256192	55	7229
2026-01-19 03:25:31.58	285.20	12.07	-42.5	-48.4	13.7	6.05e-01	0	61	0	438829056	55	7549
2026-01-19 03:25:32.59	285.00	12.02	-42.5	-48.4	13.7	6.04e-01	0	61	0	440926208	55	7569
2026-01-19 03:25:33.60	284.80	11.97	-42.2	-47.8	14.2	6.06e-01	0	61	0	443023360	55	7041
2026-01-19 03:25:34.61	284.60	11.93	-42.1	-47.6	14.4	6.03e-01	0	61	0	444596224	55	6881
2026-01-19 03:25:35.62	284.40	11.88	-42.2	-47.7	14.3	6.06e-01	0	61	0	446693376	55	7011
2026-01-19 03:25:36.62	284.21	11.83	-42.3	-48.0	13.9	6.05e-01	0	61	0	448266240	55	7278
2026-01-19 03:25:37.63	284.01	11.79	-42.2	-47.7	14.3	6.04e-01	0	61	0	450363392	55	6969
2026-01-19 03:25:38.64	283.82	11.74	-42.1	-47.2	14.8	6.05e-01	0	61	0	452460544	55	6619
2026-01-19 03:25:39.65	283.62	11.69	-42.1	-47.2	14.9	6.04e-01	0	61	0	454033408	55	6593
2026-01-19 03:25:40.66	283.43	11.64	-42.1	-47.1	15.0	6.04e-01	0	61	0	456130560	55	6531
2026-01-19 03:25:41.67	283.23	11.59	-42.0	-46.9	15.2	6.05e-01	0	61	0	458227712	55	6416
2026-01-19 03:25:42.68	283.04	11.54	-41.8	-46.5	15.6	6.03e-01	0	61	0	459800576	55	6067
2026-01-19 03:25:43.69	282.85	11.50	-41.7	-46.2	15.8	6.03e-01	0	61	0	461897728	55	5894
2026-01-19 03:25:44.70	282.65	11.45	-41.7	-46.1	16.0	6.04e-01	0	61	0	463470592	55	5827
2026-01-19 03:25:45.71	282.46	11.40	-41.7	-46.1	16.1	6.03e-01	0	61	0	465567744	55	5838
2026-01-19 03:25:46.72	282.27	11.35	-41.5	-45.7	16.5	6.01e-01	0	61	0	467664896	55	5568
2026-01-19 03:25:47.73	282.08	11.30	-41.4	-45.3	17.0	6.02e-01	0	61	0	469237760	54	5641
2026-01-19 03:25:48.74	281.89	11.25	-41.4	-45.3	16.9	6.05e-01	0	61	0	471334912	54	5643
2026-01-19 03:25:49.74	281.71	11.20	-41.5	-45.5	16.8	6.03e-01	0	61	0	473432064	54	5775
2026-01-19 03:25:50.75	281.52	11.15	-41.6	-45.7	16.6	6.01e-01	0	61	0	475004928	54	5922
2026-01-19 03:25:51.76	281.33	11.10	-41.6	-45.7	16.6	6.04e-01	0	61	0	477102080	54	5913
2026-01-19 03:25:52.77	281.15	11.05	-41.6	-45.8	16.6	6.04e-01	0	61	0	478674944	54	5948
2026-01-19 03:25:53.78	280.96	11.00	-41.6	-45.8	16.6	6.05e-01	0	61	0	480772096	54	5935
2026-01-19 03:25:54.79	280.78	10.95	-41.8	-46.1	16.2	6.00e-01	0	61	0	482869248	54	6201
2026-01-19 03:25:55.80	280.59	10.90	-41.9	-46.3	16.0	6.00e-01	0	61	0	484442112	54	6343
2026-01-19 03:25:56.81	280.41	10.84	-41.9	-46.3	16.0	6.04e-01	0	61	0	486539264	54	6323
2026-01-19 03:25:57.82	280.23	10.79	-41.8	-46.3	16.0	6.03e-01	0	61	0	488112128	54	6301
2026-01-19 03:25:58.83	280.04	10.74	-41.8	-46.2	15.9	6.03e-01	0	61	0	490209280	54	6273
2026-01-19 03:25:59.84	279.86	10.69	-41.9	-46.6	15.6	6.02e-01	0	61	0	492306432	54	6514
2026-01-19 03:26:00.85	279.68	10.64	-41.9	-46.5	15.6	6.04e-01	0	61	0	493879296	54	6494
2026-01-19 03:26:01.86	279.50	10.59	-41.9	-46.7	15.4	6.03e-01	0	61	0	495976448	54	6574
2026-01-19 03:26:02.87	279.32	10.54	-42.0	-46.8	15.2	6.02e-01	0	61	0	497549312	54	6702
2026-01-19 03:26:03.88	279.14	10.48	-42.0	-47.0	15.0	6.03e-01	0	61	0	499646464	54	6804
2026-01-19 03:26:04.88	278.97	10.43	-41.9	-46.9	15.0	6.03e-01	0	61	0	501743616	54	6751
2026-01-19 03:26:05.89	278.79	10.38	-41.9	-47.0	14.9	6.05e-01	0	61	0	503316480	54	6847
2026-01-19 03:26:06.90	278.61	10.33	-41.9	-47.1	14.8	6.04e-01	0	61	0	505413632	54	6889
2026-01-19 03:26:07.92	278.44	10.27	-41.9	-47.1	14.8	6.02e-01	0	61	0	506986496	54	6903
2026-01-19 03:26:08.92	278.26	10.22	-41.9	-47.2	14.6	6.04e-01	0	61	0	509083648	54	7039
2026-01-19 03:26:09.93	278.09	10.17	-41.9	-47.3	14.4	6.03e-01	0	61	0	511180800	54	7109
2026-01-19 03:26:10.94	277.92	10.12	-42.0	-47.4	14.4	6.05e-01	0	61	0	512753664	54	7189
2026-01-19 03:26:11.95	277.74	10.06	-41.9	-47.5	14.2	6.02e-01	0	61	0	514850816	54	7259
2026-01-19 03:26:12.96	277.57	10.01	-41.9	-47.7	14.0	6.05e-01	0	61	0	516423680	54	7391
2026-01-19 03:26:13.97	277.40	9.96	-42.0	-47.9	13.7	6.06e-01	0	61	0	518520832	54	7619
2026-01-19 03:26:14.98	277.23	9.90	-42.0	-48.1	13.4	6.04e-01	0	61	0	520617984	54	7806
2026-01-19 03:26:15.99	277.06	9.85	-42.0	-48.5	13.0	6.07e-01	0	61	0	522190848	54	8095
2026-01-19 03:26:17.00	276.89	9.80	-42.1	-48.7	12.7	6.07e-01	0	61	0	524288000	54	8289
2026-01-19 03:26:18.01	276.72	9.74	-42.1	-49.0	12.2	6.09e-01	0	61	0	526385152	54	8653
2026-01-19 03:26:19.02	276.55	9.69	-42.1	-49.4	11.8	6.11e-01	0	61	0	527958016	54	9027
2026-01-19 03:26:20.03	276.38	9.64	-42.1	-49.8	11.3	6.12e-01	0	61	0	530055168	54	9474
2026-01-19 03:26:21.04	276.21	9.58	-42.1	-50.2	10.8	6.13e-01	0	61	0	531628032	54	9863
2026-01-19 03:26:22.04	276.05	9.53	-42.1	-50.4	10.5	6.16e-01	0	61	0	533725184	54	10134
2026-01-19 03:26:23.05	275.88	9.47	-42.1	-50.6	10.3	6.16e-01	0	61	0	535822336	54	10299
2026-01-19 03:26:24.06	275.72	9.42	-42.1	-51.1	9.7	6.26e-01	0	61	0	537395200	54	10927
2026-01-19 03:26:25.07	275.55	9.37	-42.2	-51.4	9.4	6.27e-01	0	61	0	539492352	54	11302
2026-01-19 03:26:26.08	275.39	9.31	-42.2	-51.8	8.8	6.36e-01	3	61	0	541065216	55	11256
2026-01-19 03:26:27.09	275.23	9.26	-42.2	-52.1	8.4	6.41e-01	20	61	0	543162368	55	11657
2026-01-19 03:26:28.10	275.07	9.20	-42.2	-52.6	7.9	6.49e-01	88	61	0	545259520	55	12338
2026-01-19 03:26:29.11	274.90	9.15	-42.2	-53.1	7.4	6.57e-01	92	61	0	546832384	55	13026
2026-01-19 03:26:30.12	274.74	9.09	-42.2	-53.4	7.1	6.60e-01	90	61	0	548929536	55	13442
2026-01-19 03:26:31.13	274.58	9.04	-42.2	-53.6	6.9	6.69e-01	92	61	0	550502400	55	13754
2026-01-19 03:26:32.14	274.42	8.98	-42.1	-53.9	6.6	6.73e-01	82	61	0	552599552	55	14274
2026-01-19 03:26:33.15	274.26	8.93	-42.1	-54.3	6.2	6.75e-01	92	61	0	554696704	55	14936
2026-01-19 03:26:34.16	274.11	8.87	-42.2	-54.5	6.1	6.84e-01	90	61	0	556269568	55	15285
2026-01-19 03:26:35.17	273.95	8.82	-42.7	-55.4	5.7	6.92e-01	92	62	0	557842432	56	16057
2026-01-19 03:26:36.18	273.79	8.76	-41.2	-59.4	3.8	7.44e-01	0	62	104	558366720	54	28368
2026-01-19 03:26:37.19	273.63	8.71	-41.8	-57.0	4.4	7.28e-01	0	61	104	558366720	54	21568
2026-01-19 03:26:38.19	273.48	8.66	-42.2	-59.2	3.8	7.44e-01	0	61	104	558366720	55	26459
2026-01-19 03:26:39.20	273.33	8.60	-41.9	-57.4	4.3	7.32e-01	0	62	104	558366720	55	21387
2026-01-19 03:26:40.21	273.17	8.54	-41.9	-58.3	3.8	7.43e-01	0	61	104	558366720	55	23675
2026-01-19 03:26:41.22	273.02	8.49	-41.8	-57.9	4.1	7.37e-01	0	61	104	558366720	55	22739
2026-01-19 03:26:42.23	272.86	8.43	-41.8	-58.1	3.8	7.44e-01	0	62	104	558366720	55	23056
2026-01-19 03:26:43.24	272.71	8.38	-42.1	-57.4	4.4	7.30e-01	0	61	104	558366720	55	21331
2026-01-19 03:26:44.25	272.56	8.32	-41.2	-59.7	3.8	7.45e-01	0	61	104	558366720	54	29515
2026-01-19 03:26:45.26	272.41	8.27	-42.2	-59.1	3.8	7.45e-01	0	61	104	558366720	55	25884
2026-01-19 03:26:46.27	272.26	8.21	-42.3	-59.8	3.8	7.43e-01	0	62	104	558366720	55	28335
2026-01-19 03:26:47.28	272.11	8.16	-42.2	-58.6	4.0	7.40e-01	0	62	104	558366720	55	24601
2026-01-19 03:26:48.29	271.96	8.10	-42.3	-58.7	3.9	7.40e-01	0	62	104	558366720	55	24818
2026-01-19 03:26:49.30	271.81	8.05	-42.2	-58.1	4.1	7.35e-01	0	61	104	558366720	55	23109
2026-01-19 03:26:50.31	271.66	7.99	-42.1	-58.0	3.9	7.40e-01	0	61	104	558366720	55	22977
2026-01-19 03:26:51.32	271.51	7.94	-45.3	-64.0	3.9	7.49e-01	0	62	104	558366720	61	32256
2026-01-19 03:26:52.33	271.37	7.88	-45.8	-64.4	3.9	7.45e-01	0	62	104	558366720	62	32041
2026-01-19 03:26:53.34	271.22	7.82	-46.0	-64.6	3.8	7.48e-01	0	62	104	558366720	62	32835
2026-01-19 03:26:54.35	271.07	7.77	-46.2	-64.8	3.8	7.45e-01	0	61	104	558366720	62	33524
2026-01-19 03:26:55.36	270.93	7.71	-46.2	-64.9	3.8	7.46e-01	0	61	104	558366720	63	31884
2026-01-19 03:26:56.37	270.78	7.66	-46.3	-64.9	3.8	7.46e-01	0	61	104	558366720	63	32152
2026-01-19 03:26:57.38	270.64	7.60	-46.3	-65.0	3.8	7.46e-01	0	62	104	558366720	63	32241
2026-01-19 03:26:58.39	270.50	7.54	-46.4	-65.0	3.8	7.44e-01	0	62	104	558366720	63	32366
2026-01-19 03:26:59.40	270.35	7.49	-46.4	-65.0	3.8	7.45e-01	0	62	104	558366720	63	32419
2026-01-19 03:27:00.41	270.21	7.43	-46.4	-65.0	3.8	7.46e-01	0	62	104	558366720	63	32394
2026-01-19 03:27:01.42	270.07	7.38	-46.3	-64.9	3.8	7.45e-01	0	62	104	558366720	63	32173
2026-01-19 03:27:02.43	269.93	7.32	-46.3	-64.9	3.8	7.45e-01	0	62	104	558366720	63	32092
2026-01-19 03:27:03.44	269.79	7.27	-46.3	-64.9	3.8	7.43e-01	0	61	104	558366720	63	32009
2026-01-19 03:27:04.45	269.65	7.21	-46.3	-64.9	3.8	7.43e-01	0	62	104	558366720	63	31975
2026-01-19 03:27:05.46	269.51	7.15	-46.3	-64.9	3.8	7.46e-01	0	61	104	558366720	63	32005
2026-01-19 03:27:06.47	269.37	7.10	-46.4	-64.9	3.8	7.47e-01	0	61	104	558366720	63	32082
2026-01-19 03:27:07.48	269.23	7.04	-46.3	-64.9	3.8	7.47e-01	0	62	104	558366720	63	31812
2026-01-19 03:27:08.49	269.10	6.99	-46.3	-64.8	3.8	7.42e-01	0	61	104	558366720	63	31784
2026-01-19 03:27:09.50	268.96	6.93	-46.3	-64.8	3.8	7.44e-01	0	62	104	558366720	63	31798
2026-01-19 03:27:10.51	268.82	6.87	-46.3	-64.8	3.8	7.47e-01	0	62	104	558366720	63	31810
2026-01-19 03:27:11.52	268.69	6.82	-46.3	-64.9	3.8	7.47e-01	0	61	104	558366720	63	31857
2026-01-19 03:27:12.53	268.55	6.76	-46.3	-64.8	3.8	7.46e-01	0	62	104	558366720	63	31755
2026-01-19 03:27:13.54	268.42	6.71	-46.3	-64.8	3.8	7.47e-01	0	62	104	558366720	63	31744
2026-01-19 03:27:14.55	268.29	6.65	-46.2	-64.9	3.8	7.44e-01	0	61	104	558366720	63	31824
2026-01-19 03:27:15.56	268.15	6.59	-46.3	-64.8	3.8	7.44e-01	0	62	104	558366720	63	31707
2026-01-19 03:27:16.58	268.02	6.54	-46.3	-64.8	3.8	7.44e-01	0	62	104	558366720	63	31739
2026-01-19 03:27:17.59	267.89	6.48	-46.3	-64.8	3.8	7.43e-01	0	62	104	558366720	63	31786
2026-01-19 03:27:18.60	267.75	6.43	-46.3	-64.8	3.8	7.47e-01	0	62	104	558366720	63	31747
2026-01-19 03:27:19.61	267.62	6.37	-46.2	-64.8	3.8	7.46e-01	0	62	104	558366720	63	31749
2026-01-19 03:27:20.62	267.49	6.31	-46.3	-64.8	3.8	7.50e-01	0	62	104	558366720	63	31768
2026-01-19 03:27:21.63	267.36	6.26	-46.3	-64.8	3.8	7.45e-01	0	62	104	558366720	63	31784
2026-01-19 03:27:22.64	267.23	6.20	-46.3	-64.8	3.8	7.46e-01	0	62	104	558366720	63	31716
2026-01-19 03:27:23.65	267.10	6.15	-46.3	-64.8	3.8	7.44e-01	0	62	104	558366720	63	31713
2026-01-19 03:27:24.66	266.98	6.09	-46.3	-64.8	3.8	7.44e-01	0	62	104	558366720	63	31688
2026-01-19 03:27:25.67	266.85	6.03	-46.3	-64.8	3.8	7.43e-01	0	62	104	558366720	63	31774
2026-01-19 03:27:26.68	266.72	5.98	-46.3	-64.8	3.8	7.44e-01	0	62	104	558366720	63	31744
2026-01-19 03:27:27.69	266.59	5.92	-46.2	-64.8	3.8	7.47e-01	0	62	104	558366720	63	31747
2026-01-19 03:27:28.70	266.47	5.87	-46.2	-64.8	3.8	7.44e-01	0	62	104	558366720	63	31708
2026-01-19 03:27:29.71	266.34	5.81	-46.2	-64.8	3.8	7.45e-01	0	62	104	558366720	63	31673
2026-01-19 03:27:30.72	266.22	5.75	-46.2	-64.8	3.8	7.43e-01	0	62	104	558366720	63	31718
2026-01-19 03:27:31.73	266.09	5.70	-46.2	-64.8	3.8	7.44e-01	0	62	104	558366720	63	31757
2026-01-19 03:27:32.74	265.97	5.64	-46.2	-64.8	3.8	7.47e-01	0	62	104	558366720	63	31691
2026-01-19 03:27:33.75	265.85	5.59	-46.2	-64.8	3.8	7.41e-01	0	62	104	558366720	63	31718
2026-01-19 03:27:34.76	265.72	5.53	-46.2	-64.8	3.8	7.44e-01	0	62	104	558366720	63	31686
2026-01-19 03:27:35.77	265.60	5.47	-46.2	-64.8	3.8	7.45e-01	0	62	104	558366720	63	31657
2026-01-19 03:27:36.78	265.48	5.42	-46.2	-64.8	3.8	7.42e-01	0	62	104	558366720	63	31653
2026-01-19 03:27:37.79	265.36	5.36	-46.2	-64.8	3.8	7.44e-01	0	62	104	558366720	63	31664
2026-01-19 03:27:38.80	265.24	5.31	-46.2	-64.8	3.8	7.47e-01	0	62	104	558366720	63	31730
2026-01-19 03:27:39.81	265.12	5.25	-46.2	-64.8	3.8	7.46e-01	0	62	104	558366720	63	31745
2026-01-19 03:27:40.82	265.00	5.20	-46.2	-64.8	3.8	7.43e-01	0	62	104	558366720	63	31641
2026-01-19 03:27:41.83	264.88	5.14	-46.2	-64.8	3.8	7.44e-01	0	62	104	558366720	63	31665
2026-01-19 03:27:42.84	264.76	5.08	-46.2	-64.8	3.8	7.47e-01	0	62	104	558366720	63	31630
2026-01-19 03:27:43.85	264.64	5.03	-46.2	-64.8	3.8	7.46e-01	0	62	104	558366720	63	31629
2026-01-19 03:27:44.86	264.52	4.97	-46.2	-64.8	3.8	7.44e-01	0	62	104	558366720	63	31680
2026-01-19 03:27:45.87	264.40	4.92	-46.2	-64.8	3.8	7.47e-01	0	62	104	558366720	63	31619
2026-01-19 03:27:46.88	264.29	4.86	-46.2	-64.8	3.8	7.46e-01	0	62	104	558366720	63	31594
2026-01-19 03:27:47.89	264.17	4.81	-46.2	-64.8	3.8	7.48e-01	0	62	104	558366720	63	31626
2026-01-19 03:27:48.91	264.05	4.75	-46.2	-64.8	3.8	7.44e-01	0	62	104	558366720	63	31626
2026-01-19 03:27:49.92	263.94	4.70	-46.2	-64.8	3.8	7.45e-01	0	62	104	558366720	63	31631
2026-01-19 03:27:50.93	263.82	4.64	-46.2	-64.8	3.8	7.44e-01	0	62	104	558366720	63	31539
2026-01-19 03:27:51.94	263.71	4.58	-46.2	-64.8	3.8	7.46e-01	0	62	104	558366720	63	31628
2026-01-19 03:27:52.95	263.60	4.53	-46.2	-64.8	3.8	7.45e-01	0	62	104	558366720	63	31567
2026-01-19 03:27:53.96	263.48	4.47	-46.2	-64.8	3.8	7.46e-01	0	62	104	558366720	63	31553
2026-01-19 03:27:54.97	263.37	4.42	-46.2	-64.8	3.8	7.49e-01	0	62	104	558366720	63	31590
2026-01-19 03:27:55.98	263.26	4.36	-46.2	-64.8	3.8	7.45e-01	0	62	104	558366720	63	31576
2026-01-19 03:27:56.99	263.14	4.31	-46.2	-64.8	3.8	7.42e-01	0	62	104	558366720	63	31584
2026-01-19 03:27:58.00	263.03	4.25	-46.2	-64.8	3.8	7.45e-01	0	62	104	558366720	63	31585
2026-01-19 03:27:59.01	262.92	4.20	-46.2	-64.8	3.8	7.46e-01	0	62	104	558366720	63	31633
2026-01-19 03:28:00.02	262.81	4.14	-46.2	-64.8	3.8	7.50e-01	0	62	104	558366720	63	31523
2026-01-19 03:28:01.03	262.70	4.09	-46.2	-64.8	3.8	7.45e-01	0	62	104	558366720	63	31582
2026-01-19 03:28:02.04	262.59	4.03	-46.2	-64.8	3.8	7.47e-01	0	62	104	558366720	63	31529
2026-01-19 03:28:03.05	262.48	3.98	-46.2	-64.8	3.8	7.47e-01	0	62	104	558366720	63	31574
2026-01-19 03:28:04.06	262.37	3.92	-46.2	-64.8	3.8	7.42e-01	0	62	104	558366720	63	31525
2026-01-19 03:28:05.07	262.27	3.87	-46.2	-64.8	3.8	7.46e-01	0	62	104	558366720	63	31559
2026-01-19 03:28:06.08	262.16	3.81	-46.2	-64.8	3.8	7.43e-01	0	62	104	558366720	63	31475
2026-01-19 03:28:07.09	262.05	3.76	-46.2	-64.8	3.8	7.45e-01	0	62	104	558366720	63	31508
2026-01-19 03:28:08.11	261.94	3.70	-46.2	-64.8	3.8	7.46e-01	0	62	104	558366720	63	31532
2026-01-19 03:28:09.12	261.84	3.65	-46.2	-64.8	3.8	7.46e-01	0	62	104	558366720	63	31477
2026-01-19 03:28:10.13	261.73	3.59	-46.2	-64.8	3.8	7.45e-01	0	62	104	558366720	63	31549
2026-01-19 03:28:11.14	261.62	3.54	-46.2	-64.8	3.8	7.43e-01	0	62	104	558366720	63	31554
2026-01-19 03:28:12.15	261.52	3.48	-46.2	-64.8	3.8	7.47e-01	0	62	104	558366720	63	31498
2026-01-19 03:28:13.16	261.41	3.43	-46.2	-64.8	3.8	7.45e-01	0	62	104	558366720	63	31517
2026-01-19 03:28:14.17	261.31	3.37	-46.2	-64.8	3.8	7.45e-01	0	62	104	558366720	63	31554
2026-01-19 03:28:15.18	261.21	3.32	-46.2	-64.8	3.8	7.46e-01	0	62	104	558366720	63	31517
2026-01-19 03:28:16.19	261.10	3.26	-46.2	-64.8	3.8	7.44e-01	0	62	104	558366720	63	31461
2026-01-19 03:28:17.20	261.00	3.21	-46.2	-64.8	3.8	7.45e-01	0	62	104	558366720	63	31464
2026-01-19 03:28:18.21	260.90	3.15	-46.2	-64.8	3.8	7.46e-01	0	62	104	558366720	63	31508
2026-01-19 03:28:19.22	260.79	3.10	-46.2	-64.8	3.8	7.45e-01	0	62	104	558366720	63	31495
2026-01-19 03:28:20.23	260.69	3.05	-46.2	-64.8	3.8	7.49e-01	0	62	104	558366720	63	31527
2026-01-19 03:28:21.24	260.59	2.99	-46.2	-64.8	3.8	7.46e-01	0	62	104	558366720	63	31504
2026-01-19 03:28:22.25	260.49	2.94	-46.2	-64.8	3.8	7.46e-01	0	61	104	558366720	63	31504
2026-01-19 03:28:23.26	260.39	2.88	-46.2	-64.8	3.8	7.46e-01	0	62	104	558366720	63	31474
2026-01-19 03:28:24.27	260.29	2.83	-46.2	-64.7	3.8	7.44e-01	0	62	104	558366720	63	31438
2026-01-19 03:28:25.28	260.19	2.77	-46.2	-64.8	3.8	7.48e-01	0	62	104	558366720	63	31534
2026-01-19 03:28:26.29	260.09	2.72	-46.2	-64.8	3.8	7.43e-01	0	62	104	558366720	63	31475
2026-01-19 03:28:27.30	259.99	2.67	-46.2	-64.8	3.8	7.46e-01	0	62	104	558366720	63	31508
2026-01-19 03:28:28.32	259.89	2.61	-46.2	-64.8	3.8	7.47e-01	0	62	104	558366720	63	31494
2026-01-19 03:28:29.33	259.79	2.56	-46.2	-64.8	3.8	7.45e-01	0	62	104	558366720	63	31473
2026-01-19 03:28:30.34	259.70	2.50	-46.2	-64.8	3.8	7.45e-01	0	62	104	558366720	63	31476
2026-01-19 03:28:31.35	259.60	2.45	-46.2	-64.7	3.8	7.46e-01	0	62	104	558366720	63	31440
2026-01-19 03:28:32.36	259.50	2.40	-46.2	-64.8	3.8	7.43e-01	0	62	104	558366720	63	31531
2026-01-19 03:28:33.37	259.41	2.34	-46.2	-64.7	3.8	7.45e-01	0	62	104	558366720	63	31416
2026-01-19 03:28:34.38	259.31	2.29	-46.2	-64.8	3.8	7.45e-01	0	62	104	558366720	63	31515
2026-01-19 03:28:35.39	259.22	2.23	-46.2	-64.8	3.8	7.45e-01	0	62	104	558366720	63	31484
2026-01-19 03:28:36.40	259.12	2.18	-46.2	-64.8	3.8	7.46e-01	0	62	104	558366720	63	31527
2026-01-19 03:28:37.41	259.02	2.13	-46.2	-64.8	3.8	7.42e-01	0	62	104	558366720	63	31502
2026-01-19 03:28:38.42	258.93	2.07	-46.2	-64.7	3.8	7.46e-01	0	62	104	558366720	63	31429
2026-01-19 03:28:39.43	258.84	2.02	-46.2	-64.8	3.8	7.47e-01	0	62	104	558366720	63	31471
2026-01-19 03:28:40.44	258.74	1.97	-46.2	-64.8	3.8	7.43e-01	0	61	104	558366720	63	31499

#Closed at: 2026-01-19 03:28:41
#Recorded file [558 MB]: D:/lorett/data/31039_260119_061830.dat