passes_logs/2026/01/19/R2.0S_Moscow/R2.0S_Moscow__20260119_141245_FENGYUN_3E_rec.log

#Pass ID: 20260119_141245_FENGYUN 3E
#Satellite: FENGYUN 3E
#Configuration: FENGYUN 3E
#almurnet v.1.7.20251203
#Start time: 2026-01-19 14:12:46

#Version: 2.2.20231116
#Station: R2.0S_Moscow
#Location: 37.707566 lon 55.798166 lat
#TLE: 1 49008U 21062A   26018.95190407 -.00000301  00000+0 -12097-3 0  9991
#TLE: 2 49008  98.7482  24.0337 0002210 129.7386 230.3985 14.19884646235406

#Time	Az	El	Level	Level2	SNR	BER	BlckErr	Temp	State	Recorded	gain1	gain2
2026-01-19 14:12:46.68	160.91	2.06	-44.6	-55.5	3.8	8.45e-01	0	53	0	0	59	12871
2026-01-19 14:12:47.70	160.92	2.13	-44.5	-55.5	3.8	8.46e-01	0	53	104	0	59	12845
2026-01-19 14:12:48.71	160.92	2.19	-44.5	-55.4	3.8	8.45e-01	0	53	104	0	59	12796
2026-01-19 14:12:49.72	160.92	2.26	-44.5	-55.4	3.8	8.46e-01	0	53	104	0	59	12784
2026-01-19 14:12:50.73	160.92	2.32	-44.5	-55.5	3.8	8.45e-01	0	53	104	0	59	12859
2026-01-19 14:12:51.74	160.93	2.39	-44.5	-55.5	3.8	8.46e-01	0	53	104	0	59	12872
2026-01-19 14:12:52.75	160.93	2.45	-44.5	-55.5	3.8	8.46e-01	0	53	104	0	59	12852
2026-01-19 14:12:53.76	160.93	2.52	-44.5	-55.5	3.8	8.46e-01	0	54	104	0	59	12839
2026-01-19 14:12:54.77	160.94	2.59	-44.5	-55.5	3.8	8.46e-01	0	54	104	0	59	12862
2026-01-19 14:12:55.78	160.94	2.65	-44.5	-55.5	3.8	8.46e-01	0	54	104	0	59	12820
2026-01-19 14:12:56.79	160.94	2.72	-44.5	-55.4	3.8	8.47e-01	0	54	104	0	59	12803
2026-01-19 14:12:57.80	160.94	2.79	-44.5	-55.4	3.8	8.47e-01	0	54	104	0	59	12786
2026-01-19 14:12:58.81	160.95	2.85	-44.5	-55.5	3.8	8.45e-01	0	54	104	0	59	12829
2026-01-19 14:12:59.82	160.95	2.92	-44.5	-55.4	3.8	8.47e-01	0	54	104	0	59	12806
2026-01-19 14:13:00.83	160.95	2.99	-44.5	-55.4	3.8	8.47e-01	0	54	104	0	59	12781
2026-01-19 14:13:01.84	160.96	3.05	-44.5	-55.4	3.8	8.47e-01	0	54	104	0	59	12738
2026-01-19 14:13:02.85	160.96	3.12	-44.5	-55.4	3.8	8.46e-01	0	55	104	0	59	12799
2026-01-19 14:13:03.86	160.96	3.19	-44.5	-55.4	3.8	8.45e-01	0	55	104	0	59	12762
2026-01-19 14:13:04.87	160.97	3.26	-44.5	-55.4	3.8	8.46e-01	0	55	104	0	59	12786
2026-01-19 14:13:05.88	160.97	3.33	-44.5	-55.4	3.8	8.47e-01	0	55	104	0	59	12748
2026-01-19 14:13:06.89	160.97	3.39	-44.5	-55.4	3.8	8.47e-01	0	55	104	0	59	12755
2026-01-19 14:13:07.90	160.97	3.46	-44.5	-55.4	3.8	8.47e-01	0	55	104	0	59	12776
2026-01-19 14:13:08.91	160.98	3.53	-44.5	-55.4	3.8	8.47e-01	0	55	104	0	59	12755
2026-01-19 14:13:09.92	160.98	3.60	-44.5	-55.4	3.8	8.45e-01	0	55	104	0	59	12803
2026-01-19 14:13:10.93	160.98	3.67	-44.5	-55.4	3.8	8.46e-01	0	55	104	0	59	12751
2026-01-19 14:13:11.94	160.99	3.74	-44.5	-55.4	3.8	8.47e-01	0	55	104	0	59	12775
2026-01-19 14:13:12.95	160.99	3.81	-44.5	-55.4	3.8	8.45e-01	0	55	104	0	59	12777
2026-01-19 14:13:13.96	160.99	3.88	-44.5	-55.4	3.8	8.46e-01	0	55	104	0	59	12779
2026-01-19 14:13:14.97	160.99	3.95	-44.5	-55.4	3.8	8.46e-01	0	55	104	0	59	12798
2026-01-19 14:13:15.99	161.00	4.02	-44.5	-55.4	3.8	8.45e-01	0	55	104	0	59	12750
2026-01-19 14:13:17.00	161.00	4.09	-44.5	-55.4	3.8	8.46e-01	0	55	104	0	59	12764
2026-01-19 14:13:18.01	161.00	4.16	-44.5	-55.4	3.8	8.46e-01	0	56	104	0	59	12749
2026-01-19 14:13:19.02	161.01	4.23	-44.5	-55.4	3.8	8.46e-01	0	55	104	0	59	12795
2026-01-19 14:13:20.03	161.01	4.30	-44.5	-55.4	3.8	8.47e-01	0	56	104	0	59	12756
2026-01-19 14:13:21.04	161.01	4.37	-44.5	-55.5	3.8	8.45e-01	0	56	104	0	59	12825
2026-01-19 14:13:22.05	161.02	4.44	-44.5	-55.4	3.8	8.46e-01	0	56	104	0	59	12800
2026-01-19 14:13:23.06	161.02	4.51	-44.5	-55.4	3.8	8.47e-01	0	56	104	0	59	12772
2026-01-19 14:13:24.07	161.02	4.58	-44.5	-55.4	3.8	8.45e-01	0	56	104	0	59	12740
2026-01-19 14:13:25.08	161.02	4.65	-44.5	-55.3	3.8	8.46e-01	0	56	104	0	59	12650
2026-01-19 14:13:26.09	161.03	4.72	-44.5	-55.3	3.8	8.46e-01	0	56	104	0	59	12564
2026-01-19 14:13:27.10	161.03	4.80	-44.4	-55.3	3.8	8.46e-01	0	56	104	0	59	12540
2026-01-19 14:13:28.11	161.03	4.87	-44.4	-55.2	3.8	8.47e-01	0	56	104	0	59	12427
2026-01-19 14:13:29.12	161.04	4.94	-44.4	-55.1	3.8	8.46e-01	0	56	104	0	59	12309
2026-01-19 14:13:30.13	161.04	5.01	-44.4	-54.8	3.8	8.46e-01	0	56	104	0	59	11952
2026-01-19 14:13:31.14	161.04	5.09	-44.4	-54.7	3.8	8.46e-01	0	56	104	0	59	11773
2026-01-19 14:13:32.15	161.05	5.16	-44.3	-54.6	3.8	8.45e-01	0	56	104	0	59	11639
2026-01-19 14:13:33.16	161.05	5.23	-44.3	-54.3	3.8	8.47e-01	0	56	104	0	59	11271
2026-01-19 14:13:34.17	161.05	5.30	-44.3	-54.1	3.8	8.45e-01	0	57	104	0	59	11004
2026-01-19 14:13:35.18	161.05	5.38	-44.3	-54.0	3.8	8.47e-01	0	56	104	0	59	10807
2026-01-19 14:13:36.19	161.06	5.45	-44.3	-54.0	3.8	8.46e-01	0	56	104	0	59	10835
2026-01-19 14:13:37.20	161.06	5.53	-44.2	-53.6	3.8	8.45e-01	0	56	104	0	59	10312
2026-01-19 14:13:38.21	161.06	5.60	-44.1	-53.0	3.8	8.43e-01	0	56	104	0	59	9638
2026-01-19 14:13:39.22	161.07	5.67	-44.0	-52.5	3.9	8.42e-01	0	57	104	0	59	9113
2026-01-19 14:13:40.23	161.07	5.75	-44.0	-52.3	4.1	8.41e-01	0	57	0	0	58	9390
2026-01-19 14:13:41.24	161.07	5.82	-43.9	-52.1	4.1	8.39e-01	0	56	0	0	58	9230
2026-01-19 14:13:42.25	161.08	5.90	-43.8	-51.4	4.3	8.34e-01	0	57	0	0	58	8497
2026-01-19 14:13:43.26	161.08	5.97	-43.7	-51.0	4.5	8.26e-01	0	57	0	0	58	8137
2026-01-19 14:13:44.27	161.08	6.05	-43.7	-51.1	4.4	8.23e-01	0	57	0	0	58	8201
2026-01-19 14:13:45.28	161.08	6.12	-43.6	-50.7	4.6	8.24e-01	0	57	0	0	58	7860
2026-01-19 14:13:46.29	161.09	6.20	-43.6	-50.6	4.6	8.20e-01	0	57	0	0	58	7752
2026-01-19 14:13:47.30	161.09	6.28	-43.6	-50.8	4.6	8.13e-01	0	57	0	0	58	7907
2026-01-19 14:13:48.31	161.09	6.35	-43.7	-51.2	4.4	8.30e-01	0	57	0	0	58	8323
2026-01-19 14:13:49.33	161.10	6.43	-43.6	-50.8	4.5	8.25e-01	0	57	0	0	58	7962
2026-01-19 14:13:50.34	161.10	6.51	-43.8	-51.9	4.2	8.35e-01	0	57	0	0	58	9014
2026-01-19 14:13:51.35	161.10	6.58	-43.9	-52.1	4.1	8.39e-01	0	57	0	0	58	9221
2026-01-19 14:13:52.36	161.11	6.66	-44.0	-53.0	3.9	8.44e-01	0	57	104	0	58	10243
2026-01-19 14:13:53.37	161.11	6.74	-44.1	-53.4	3.8	8.44e-01	0	57	104	0	58	10704
2026-01-19 14:13:54.38	161.11	6.82	-44.2	-54.2	3.8	8.46e-01	0	57	104	0	58	11697
2026-01-19 14:13:55.39	161.11	6.89	-44.2	-54.1	3.8	8.46e-01	0	57	104	0	58	11679
2026-01-19 14:13:56.40	161.12	6.97	-44.1	-53.6	3.8	8.46e-01	0	57	104	0	58	10904
2026-01-19 14:13:57.41	161.12	7.05	-44.0	-52.7	4.0	8.44e-01	0	57	104	0	58	9930
2026-01-19 14:13:58.42	161.12	7.13	-43.7	-51.2	4.4	8.32e-01	0	58	0	0	58	8292
2026-01-19 14:13:59.43	161.13	7.21	-43.2	-49.3	5.3	7.66e-01	0	57	0	0	57	7058
2026-01-19 14:14:00.45	161.13	7.29	-42.9	-48.4	5.9	4.22e-01	0	58	0	2097152	56	6746
2026-01-19 14:14:01.46	161.13	7.37	-42.1	-46.8	7.1	1.77e-01	0	57	0	8388608	55	5927
2026-01-19 14:14:02.47	161.14	7.45	-41.8	-46.0	7.9	9.50e-02	0	58	0	15728640	54	5746
2026-01-19 14:14:03.48	161.14	7.53	-41.1	-44.8	9.1	2.98e-02	0	58	0	23068672	53	5313
2026-01-19 14:14:04.49	161.14	7.61	-40.5	-43.9	10.0	1.18e-02	0	57	0	30408704	52	5062
2026-01-19 14:14:05.50	161.15	7.69	-40.1	-43.2	10.8	3.80e-03	0	58	0	37748736	51	4941
2026-01-19 14:14:06.51	161.15	7.77	-39.9	-42.8	11.2	1.76e-03	0	58	0	45088768	50	5018
2026-01-19 14:14:07.52	161.15	7.85	-39.4	-42.2	11.9	6.09e-04	0	58	0	52428800	49	4937
2026-01-19 14:14:08.53	161.15	7.93	-39.5	-42.4	11.6	5.33e-04	0	58	0	59768832	49	5087
2026-01-19 14:14:09.54	161.16	8.01	-39.1	-41.7	12.3	1.62e-04	0	58	0	67108864	49	4669
2026-01-19 14:14:10.56	161.16	8.09	-39.3	-42.1	12.1	1.51e-04	0	58	0	74448896	48	5160
2026-01-19 14:14:11.57	161.16	8.17	-42.1	-46.5	7.8	3.65e-03	0	58	0	81788928	53	6434
2026-01-19 14:14:12.58	161.17	8.26	-38.9	-41.4	12.8	4.19e-02	0	58	0	84934656	48	4777
2026-01-19 14:14:13.59	161.17	8.34	-42.6	-47.6	6.6	3.15e-01	0	58	0	90177536	56	6177
2026-01-19 14:14:14.59	161.17	8.42	-39.1	-41.8	12.3	1.62e-02	0	58	0	96468992	49	4725
2026-01-19 14:14:15.60	161.18	8.50	-39.2	-41.9	12.2	3.26e-04	0	58	0	103809024	48	5068
2026-01-19 14:14:16.61	161.18	8.59	-39.1	-41.7	12.4	1.21e-04	0	58	0	111149056	48	4974
2026-01-19 14:14:17.62	161.18	8.67	-39.1	-41.8	12.2	1.32e-04	0	58	0	118489088	48	5023
2026-01-19 14:14:18.63	161.19	8.75	-38.9	-41.5	12.6	8.92e-05	0	58	0	125829120	48	4833
2026-01-19 14:14:19.64	161.19	8.84	-39.0	-41.7	12.4	1.23e-04	0	58	0	133169152	48	4937
2026-01-19 14:14:20.65	161.19	8.92	-39.0	-41.5	12.6	5.95e-05	0	58	0	140509184	48	4868
2026-01-19 14:14:21.66	161.19	9.01	-38.9	-41.4	12.7	7.55e-05	0	58	0	146800640	48	4789
2026-01-19 14:14:22.67	161.20	9.09	-38.7	-41.1	13.0	3.89e-05	0	58	0	154140672	48	4635
2026-01-19 14:14:23.68	161.20	9.18	-38.7	-41.1	13.1	2.28e-05	0	59	0	162529280	48	4633
2026-01-19 14:14:24.70	161.20	9.26	-38.6	-41.0	13.2	3.43e-05	0	58	0	168820736	48	4562
2026-01-19 14:14:25.70	161.21	9.35	-38.3	-40.7	13.3	2.05e-05	0	58	0	176160768	47	4705
2026-01-19 14:14:26.71	161.21	9.44	-38.2	-40.6	13.4	1.25e-05	0	59	0	183500800	47	4641
2026-01-19 14:14:27.73	161.21	9.52	-38.5	-41.0	13.1	4.11e-05	0	59	0	190840832	47	4816
2026-01-19 14:14:28.74	161.22	9.61	-38.3	-40.7	13.4	1.48e-05	0	59	0	198180864	47	4684
2026-01-19 14:14:29.75	161.22	9.70	-38.2	-40.6	13.5	1.25e-05	0	59	0	205520896	47	4604
2026-01-19 14:14:30.76	161.22	9.78	-38.1	-40.4	13.7	6.80e-06	0	59	0	212860928	47	4536
2026-01-19 14:14:31.77	161.23	9.87	-38.3	-40.7	13.4	1.02e-05	0	59	0	220200960	47	4680
2026-01-19 14:14:32.78	161.23	9.96	-38.1	-40.4	13.7	1.10e-06	0	59	0	227540992	47	4535
2026-01-19 14:14:33.79	161.23	10.05	-38.1	-40.4	13.8	4.50e-06	0	59	0	234881024	47	4502
2026-01-19 14:14:34.80	161.24	10.14	-38.0	-40.3	13.8	4.50e-06	0	59	0	242221056	47	4487
2026-01-19 14:14:35.81	161.24	10.23	-38.0	-40.3	13.9	3.40e-06	0	59	0	249561088	47	4471
2026-01-19 14:14:36.82	161.24	10.31	-38.1	-40.5	13.7	6.80e-06	0	59	0	256901120	46	4839
2026-01-19 14:14:37.82	161.24	10.40	-38.0	-40.2	14.0	3.40e-06	0	59	0	264241152	46	4696
2026-01-19 14:14:38.83	161.25	10.49	-38.1	-40.4	13.8	2.20e-06	0	59	0	271581184	46	4808
2026-01-19 14:14:39.84	161.25	10.58	-38.0	-40.3	13.9	2.20e-06	0	59	0	278921216	46	4758
2026-01-19 14:14:40.85	161.25	10.67	-37.9	-40.2	14.0	1.10e-06	0	59	0	286261248	46	4675
2026-01-19 14:14:41.86	161.26	10.77	-37.8	-40.0	14.2	1.10e-06	0	59	0	293601280	46	4573
2026-01-19 14:14:42.87	161.26	10.86	-38.0	-40.3	14.0	1.10e-06	0	59	0	299892736	46	4736
2026-01-19 14:14:43.88	161.26	10.95	-38.0	-40.3	14.0	4.50e-06	0	59	0	308281344	46	4716
2026-01-19 14:14:44.89	161.27	11.04	-37.9	-40.2	14.1	3.40e-06	0	59	0	315621376	46	4653
2026-01-19 14:14:45.90	161.27	11.13	-38.0	-40.3	14.0	2.20e-06	0	59	0	321912832	46	4719
2026-01-19 14:14:46.91	161.27	11.22	-37.9	-40.2	14.0	2.20e-06	0	59	0	329252864	46	4700
2026-01-19 14:14:47.92	161.28	11.32	-38.1	-40.5	13.9	4.50e-06	0	59	0	336592896	46	4815
2026-01-19 14:14:48.93	161.28	11.41	-38.1	-40.4	13.9	1.10e-06	0	59	0	343932928	46	4788
2026-01-19 14:14:49.94	161.28	11.50	-38.2	-40.5	13.8	5.70e-06	0	59	0	351272960	46	4858
2026-01-19 14:14:50.95	161.29	11.60	-38.3	-40.6	13.7	8.00e-06	0	59	0	358612992	46	4897
2026-01-19 14:14:51.96	161.29	11.69	-38.3	-40.6	13.7	8.00e-06	0	59	0	365953024	46	4904
2026-01-19 14:14:52.97	161.29	11.79	-38.0	-40.2	14.1	4.50e-06	0	59	0	373293056	46	4694
2026-01-19 14:14:53.98	161.30	11.88	-38.1	-40.4	13.9	0.00e+00	0	59	0	380633088	46	4788
2026-01-19 14:14:54.99	161.30	11.98	-38.1	-40.4	14.0	4.50e-06	0	59	0	387973120	46	4800
2026-01-19 14:14:56.00	161.30	12.07	-38.0	-40.2	14.1	5.70e-06	0	59	0	395313152	46	4688
2026-01-19 14:14:57.00	161.30	12.17	-37.9	-40.1	14.3	0.00e+00	0	60	0	402653184	46	4635
2026-01-19 14:14:58.01	161.31	12.27	-37.9	-40.1	14.3	0.00e+00	0	59	0	409993216	46	4604
2026-01-19 14:14:59.02	161.31	12.36	-37.8	-40.0	14.4	0.00e+00	0	59	0	417333248	46	4557
2026-01-19 14:15:00.03	161.31	12.46	-38.0	-40.2	14.2	0.00e+00	0	59	0	424673280	46	4681
2026-01-19 14:15:01.04	161.32	12.56	-38.1	-40.3	14.1	1.10e-06	0	60	0	432013312	46	4723
2026-01-19 14:15:02.05	161.32	12.66	-38.0	-40.3	14.1	1.10e-06	0	59	0	439353344	46	4715
2026-01-19 14:15:03.06	161.32	12.76	-38.1	-40.4	14.0	1.10e-06	0	59	0	446693376	46	4771
2026-01-19 14:15:04.07	161.33	12.85	-38.0	-40.2	14.2	0.00e+00	0	60	0	452984832	46	4659
2026-01-19 14:15:05.07	161.33	12.95	-37.8	-39.9	14.5	1.10e-06	0	60	0	460324864	46	4540
2026-01-19 14:15:06.08	161.33	13.05	-37.8	-39.9	14.5	0.00e+00	0	60	0	468713472	46	4504
2026-01-19 14:15:07.09	161.34	13.15	-37.6	-39.7	14.7	1.10e-06	0	59	0	475004928	46	4410
2026-01-19 14:15:08.10	161.34	13.25	-37.6	-39.7	14.7	0.00e+00	0	60	0	482344960	46	4433
2026-01-19 14:15:09.11	161.34	13.35	-37.4	-39.4	15.0	0.00e+00	0	60	0	489684992	45	4515
2026-01-19 14:15:10.12	161.35	13.46	-37.5	-39.6	14.8	0.00e+00	0	60	0	497025024	45	4610
2026-01-19 14:15:11.14	161.35	13.56	-37.3	-39.3	15.1	0.00e+00	0	60	0	504365056	45	4487
2026-01-19 14:15:12.15	161.35	13.66	-37.2	-39.2	15.2	0.00e+00	0	60	0	511705088	45	4426
2026-01-19 14:15:13.15	161.36	13.76	-37.1	-39.1	15.3	0.00e+00	0	60	0	519045120	45	4371
2026-01-19 14:15:14.16	161.36	13.87	-37.2	-39.2	15.2	0.00e+00	0	60	0	526385152	45	4437
2026-01-19 14:15:15.17	161.36	13.97	-37.1	-39.0	15.4	0.00e+00	0	60	0	533725184	45	4335
2026-01-19 14:15:16.18	161.37	14.07	-37.0	-38.9	15.5	0.00e+00	0	60	0	541065216	45	4277
2026-01-19 14:15:17.19	161.37	14.18	-37.0	-39.0	15.5	0.00e+00	0	60	0	548405248	44	4550
2026-01-19 14:15:18.20	161.37	14.28	-36.9	-38.9	15.6	0.00e+00	0	60	0	555745280	44	4509
2026-01-19 14:15:19.21	161.38	14.39	-37.0	-39.0	15.5	0.00e+00	0	60	0	563085312	44	4560
2026-01-19 14:15:20.22	161.38	14.50	-36.9	-38.9	15.6	0.00e+00	0	60	0	570425344	44	4500
2026-01-19 14:15:21.23	161.38	14.60	-36.8	-38.7	15.7	0.00e+00	0	60	0	576716800	44	4427
2026-01-19 14:15:22.24	161.39	14.71	-36.9	-38.8	15.7	0.00e+00	0	60	0	585105408	44	4456
2026-01-19 14:15:23.25	161.39	14.82	-36.9	-38.8	15.7	0.00e+00	0	60	0	592445440	44	4483
2026-01-19 14:15:24.26	161.39	14.92	-36.7	-38.5	15.9	0.00e+00	0	60	0	598736896	44	4338
2026-01-19 14:15:25.27	161.40	15.03	-36.8	-38.7	15.8	0.00e+00	0	60	0	606076928	44	4403
2026-01-19 14:15:26.28	161.40	15.14	-36.7	-38.5	16.0	0.00e+00	0	60	0	613416960	44	4339
2026-01-19 14:15:27.29	161.40	15.25	-36.6	-38.4	16.1	0.00e+00	0	60	0	620756992	44	4280
2026-01-19 14:15:28.30	161.41	15.36	-36.7	-38.6	16.0	0.00e+00	0	60	0	628097024	44	4355
2026-01-19 14:15:29.31	161.41	15.47	-36.7	-38.6	16.0	0.00e+00	0	60	0	635437056	44	4342
2026-01-19 14:15:30.32	161.41	15.58	-36.7	-38.6	15.9	0.00e+00	0	60	0	642777088	44	4362
2026-01-19 14:15:31.33	161.42	15.69	-36.6	-38.4	16.2	0.00e+00	0	60	0	650117120	44	4258
2026-01-19 14:15:32.34	161.42	15.80	-36.8	-38.7	15.9	0.00e+00	0	60	0	657457152	44	4411
2026-01-19 14:15:33.35	161.42	15.92	-36.7	-38.6	16.0	0.00e+00	0	60	0	664797184	44	4343
2026-01-19 14:15:34.36	161.43	16.03	-36.7	-38.5	16.0	0.00e+00	0	60	0	672137216	44	4339
2026-01-19 14:15:35.37	161.43	16.14	-36.5	-38.4	16.2	0.00e+00	0	60	0	679477248	44	4251
2026-01-19 14:15:36.38	161.43	16.26	-36.5	-38.3	16.3	0.00e+00	0	60	0	686817280	44	4202
2026-01-19 14:15:37.39	161.44	16.37	-36.4	-38.2	16.2	0.00e+00	0	60	0	694157312	43	4397
2026-01-19 14:15:38.40	161.44	16.49	-36.3	-38.1	16.3	0.00e+00	0	60	0	701497344	43	4376
2026-01-19 14:15:39.41	161.44	16.60	-36.3	-38.1	16.3	0.00e+00	0	60	0	708837376	43	4346
2026-01-19 14:15:40.42	161.45	16.72	-36.3	-38.0	16.4	0.00e+00	0	60	0	716177408	43	4335
2026-01-19 14:15:41.43	161.45	16.83	-36.2	-38.0	16.5	0.00e+00	0	61	0	723517440	43	4299
2026-01-19 14:15:42.44	161.45	16.95	-36.2	-38.0	16.4	0.00e+00	0	60	0	730857472	43	4304
2026-01-19 14:15:43.45	161.46	17.07	-36.3	-38.1	16.4	0.00e+00	0	60	0	738197504	43	4353
2026-01-19 14:15:44.46	161.46	17.19	-36.2	-38.0	16.4	0.00e+00	0	60	0	745537536	43	4303
2026-01-19 14:15:45.47	161.46	17.31	-36.2	-37.9	16.5	0.00e+00	0	60	0	751828992	43	4272
2026-01-19 14:15:46.48	161.47	17.43	-36.2	-37.9	16.5	0.00e+00	0	60	0	759169024	43	4269
2026-01-19 14:15:47.49	161.47	17.55	-36.2	-38.0	16.5	0.00e+00	0	60	0	767557632	43	4305
2026-01-19 14:15:48.50	161.47	17.67	-36.2	-38.0	16.5	0.00e+00	0	60	0	773849088	43	4314
2026-01-19 14:15:49.51	161.48	17.79	-36.3	-38.1	16.4	0.00e+00	0	60	0	781189120	43	4351
2026-01-19 14:15:50.52	161.48	17.91	-36.1	-37.8	16.6	0.00e+00	0	60	0	788529152	43	4213
2026-01-19 14:15:51.53	161.48	18.03	-36.1	-37.8	16.7	0.00e+00	0	60	0	795869184	43	4215
2026-01-19 14:15:52.54	161.49	18.16	-36.1	-37.8	16.6	0.00e+00	0	60	0	803209216	42	4478
2026-01-19 14:15:53.55	161.49	18.28	-36.0	-37.7	16.7	0.00e+00	0	61	0	810549248	42	4415
2026-01-19 14:15:54.56	161.49	18.40	-36.0	-37.7	16.8	0.00e+00	0	60	0	817889280	42	4409
2026-01-19 14:15:55.57	161.50	18.53	-36.0	-37.8	16.7	0.00e+00	0	61	0	825229312	42	4458
2026-01-19 14:15:56.58	161.50	18.65	-36.0	-37.8	16.7	0.00e+00	0	61	0	832569344	42	4446
2026-01-19 14:15:57.59	161.50	18.78	-36.1	-37.8	16.6	0.00e+00	0	61	0	839909376	42	4488
2026-01-19 14:15:58.60	161.51	18.91	-36.1	-37.9	16.6	0.00e+00	0	61	0	847249408	42	4507
2026-01-19 14:15:59.61	161.51	19.03	-36.1	-37.9	16.6	0.00e+00	0	61	0	854589440	42	4510
2026-01-19 14:16:00.62	161.51	19.16	-36.1	-37.8	16.6	0.00e+00	0	60	0	861929472	42	4480
2026-01-19 14:16:01.62	161.52	19.29	-36.1	-37.8	16.7	0.00e+00	0	61	0	869269504	42	4478
2026-01-19 14:16:02.63	161.52	19.42	-36.2	-38.0	16.5	0.00e+00	0	61	0	876609536	42	4580
2026-01-19 14:16:03.64	161.52	19.55	-36.1	-37.9	16.6	0.00e+00	0	60	0	883949568	42	4494
2026-01-19 14:16:04.65	161.53	19.68	-36.1	-37.9	16.5	0.00e+00	0	61	0	891289600	42	4530
2026-01-19 14:16:05.66	161.53	19.81	-36.0	-37.7	16.7	0.00e+00	0	61	0	897581056	42	4437
2026-01-19 14:16:06.67	161.53	19.95	-35.9	-37.7	16.7	0.00e+00	0	61	0	904921088	42	4431
2026-01-19 14:16:07.68	161.54	20.08	-36.0	-37.7	16.7	0.00e+00	0	61	0	912261120	42	4440
2026-01-19 14:16:08.69	161.54	20.21	-35.9	-37.7	16.8	0.00e+00	0	61	0	919601152	42	4427
2026-01-19 14:16:09.70	161.54	20.35	-36.0	-37.8	16.7	0.00e+00	0	61	0	926941184	42	4466
2026-01-19 14:16:10.71	161.55	20.48	-35.9	-37.6	16.9	0.00e+00	0	61	0	934281216	42	4370
2026-01-19 14:16:11.72	161.55	20.62	-35.8	-37.5	16.9	0.00e+00	0	60	0	941621248	42	4324
2026-01-19 14:16:12.73	161.55	20.75	-35.9	-37.7	16.8	0.00e+00	0	61	0	948961280	42	4429
2026-01-19 14:16:13.74	161.56	20.89	-35.8	-37.6	16.9	0.00e+00	0	61	0	956301312	42	4362
2026-01-19 14:16:14.75	161.56	21.03	-35.8	-37.6	16.9	0.00e+00	0	61	0	963641344	42	4366
2026-01-19 14:16:15.76	161.56	21.17	-35.9	-37.7	16.8	0.00e+00	0	61	0	970981376	42	4400
2026-01-19 14:16:16.77	161.57	21.31	-35.9	-37.6	16.8	0.00e+00	0	61	0	978321408	42	4389
2026-01-19 14:16:17.78	161.57	21.45	-35.7	-37.4	17.0	0.00e+00	0	61	0	985661440	42	4277
2026-01-19 14:16:18.79	161.57	21.59	-35.7	-37.4	17.1	0.00e+00	0	61	0	993001472	42	4262
2026-01-19 14:16:19.80	161.58	21.73	-35.7	-37.4	17.1	0.00e+00	0	61	0	1000341504	42	4261
2026-01-19 14:16:20.81	161.58	21.88	-35.5	-37.3	17.2	0.00e+00	0	61	0	1007681536	42	4209
2026-01-19 14:16:21.82	161.59	22.02	-35.5	-37.2	17.2	0.00e+00	0	61	0	1015021568	42	4172
2026-01-19 14:16:22.83	161.59	22.16	-35.5	-37.2	17.3	0.00e+00	0	61	0	1022361600	41	4398
2026-01-19 14:16:23.84	161.59	22.31	-35.4	-37.1	17.4	0.00e+00	0	61	0	1029701632	41	4357
2026-01-19 14:16:24.85	161.60	22.45	-35.4	-37.1	17.3	0.00e+00	0	61	0	1037041664	41	4383
2026-01-19 14:16:25.86	161.60	22.60	-35.3	-37.0	17.4	0.00e+00	0	61	0	1044381696	41	4320
2026-01-19 14:16:26.86	161.60	22.75	-35.4	-37.1	17.3	0.00e+00	0	61	0	1050673152	41	4390
2026-01-19 14:16:27.87	161.61	22.90	-35.2	-36.8	17.6	0.00e+00	0	61	0	1058013184	41	4240
2026-01-19 14:16:28.88	161.61	23.05	-35.2	-36.9	17.6	0.00e+00	0	61	0	1066401792	41	4253
2026-01-19 14:16:29.89	161.61	23.20	-35.1	-36.8	17.6	0.00e+00	0	61	0	1072693248	41	4222
2026-01-19 14:16:30.90	161.62	23.35	-35.2	-36.8	17.6	0.00e+00	0	61	0	1080033280	41	4236
2026-01-19 14:16:31.91	161.62	23.50	-35.1	-36.8	17.6	0.00e+00	0	61	0	1087373312	41	4197
2026-01-19 14:16:32.92	161.62	23.65	-35.2	-36.8	17.6	0.00e+00	0	61	0	1094713344	41	4236
2026-01-19 14:16:33.93	161.63	23.81	-35.0	-36.7	17.7	0.00e+00	0	61	0	1102053376	40	4415
2026-01-19 14:16:34.94	161.63	23.96	-35.0	-36.7	17.7	0.00e+00	0	61	0	1109393408	40	4413
2026-01-19 14:16:35.95	161.63	24.12	-35.0	-36.7	17.7	0.00e+00	0	61	0	1116733440	40	4422
2026-01-19 14:16:36.96	161.64	24.28	-34.9	-36.5	17.9	0.00e+00	0	61	0	1124073472	40	4320
2026-01-19 14:16:37.97	161.64	24.43	-35.1	-36.7	17.7	0.00e+00	0	61	0	1131413504	40	4435
2026-01-19 14:16:38.98	161.65	24.59	-35.1	-36.8	17.6	0.00e+00	0	61	0	1138753536	40	4464
2026-01-19 14:16:39.99	161.65	24.75	-35.1	-36.8	17.6	0.00e+00	0	61	0	1146093568	40	4485
2026-01-19 14:16:41.00	161.65	24.91	-35.2	-36.9	17.5	0.00e+00	0	61	0	1153433600	40	4521
2026-01-19 14:16:42.00	161.66	25.07	-35.3	-37.0	17.4	0.00e+00	0	61	0	1160773632	40	4573
2026-01-19 14:16:43.01	161.66	25.23	-35.3	-37.1	17.3	0.00e+00	0	61	0	1168113664	40	4605
2026-01-19 14:16:44.02	161.66	25.40	-35.3	-37.0	17.4	0.00e+00	0	61	0	1174405120	40	4584
2026-01-19 14:16:45.03	161.67	25.56	-35.3	-37.1	17.3	0.00e+00	0	61	0	1182793728	40	4642
2026-01-19 14:16:46.04	161.67	25.73	-35.1	-36.9	17.5	0.00e+00	0	61	0	1190133760	40	4519
2026-01-19 14:16:47.05	161.67	25.90	-35.3	-37.0	17.3	0.00e+00	0	61	0	1196425216	40	4595
2026-01-19 14:16:48.06	161.68	26.06	-35.4	-37.2	17.2	0.00e+00	0	61	0	1203765248	40	4664
2026-01-19 14:16:49.07	161.68	26.23	-35.2	-37.0	17.4	0.00e+00	0	61	0	1211105280	40	4564
2026-01-19 14:16:50.08	161.69	26.40	-35.2	-37.0	17.4	0.00e+00	0	61	0	1218445312	40	4585
2026-01-19 14:16:51.09	161.69	26.57	-35.2	-37.0	17.4	0.00e+00	0	61	0	1225785344	40	4573
2026-01-19 14:16:52.10	161.69	26.74	-35.2	-37.1	17.3	0.00e+00	0	61	0	1233125376	40	4602
2026-01-19 14:16:53.11	161.70	26.92	-35.2	-37.0	17.4	0.00e+00	0	61	0	1240465408	40	4578
2026-01-19 14:16:54.13	161.70	27.09	-35.2	-37.1	17.4	0.00e+00	0	61	0	1247805440	40	4606
2026-01-19 14:16:55.14	161.70	27.27	-35.1	-36.9	17.5	0.00e+00	0	61	0	1255145472	40	4543
2026-01-19 14:16:56.15	161.71	27.45	-35.2	-37.0	17.4	0.00e+00	0	61	0	1262485504	40	4594
2026-01-19 14:16:57.16	161.71	27.62	-35.2	-37.0	17.5	0.00e+00	0	61	0	1269825536	40	4560
2026-01-19 14:16:58.17	161.72	27.80	-35.1	-36.8	17.6	0.00e+00	0	61	0	1277165568	40	4489
2026-01-19 14:16:59.18	161.72	27.98	-35.0	-36.7	17.7	0.00e+00	0	61	0	1284505600	40	4432
2026-01-19 14:17:00.18	161.72	28.16	-35.0	-36.7	17.8	0.00e+00	0	61	0	1291845632	40	4410
2026-01-19 14:17:01.19	161.73	28.34	-35.0	-36.7	17.8	0.00e+00	0	61	0	1299185664	40	4399
2026-01-19 14:17:02.20	161.73	28.53	-34.9	-36.5	18.0	0.00e+00	0	61	0	1306525696	40	4317
2026-01-19 14:17:03.21	161.73	28.71	-34.8	-36.4	18.0	0.00e+00	0	61	0	1313865728	40	4274
2026-01-19 14:17:04.22	161.74	28.90	-34.8	-36.4	18.1	0.00e+00	0	61	0	1321205760	40	4268
2026-01-19 14:17:05.23	161.74	29.09	-34.7	-36.3	18.2	0.00e+00	0	61	0	1327497216	40	4209
2026-01-19 14:17:06.24	161.75	29.27	-34.8	-36.4	18.1	0.00e+00	0	61	0	1335885824	40	4274
2026-01-19 14:17:07.25	161.75	29.46	-34.9	-36.5	17.9	0.00e+00	0	61	0	1343225856	40	4338
2026-01-19 14:17:08.26	161.75	29.66	-34.9	-36.6	17.9	0.00e+00	0	61	0	1349517312	40	4350
2026-01-19 14:17:09.27	161.76	29.85	-35.0	-36.6	17.9	0.00e+00	0	61	0	1356857344	40	4370
2026-01-19 14:17:10.28	161.76	30.04	-35.1	-36.7	17.8	0.00e+00	0	61	0	1364197376	40	4414
2026-01-19 14:17:11.29	161.76	30.24	-35.1	-36.8	17.8	0.00e+00	0	61	0	1371537408	40	4445
2026-01-19 14:17:12.30	161.77	30.43	-35.0	-36.6	17.9	0.00e+00	0	61	0	1378877440	40	4391
2026-01-19 14:17:13.31	161.77	30.63	-35.0	-36.6	17.9	0.00e+00	0	61	0	1386217472	40	4362
2026-01-19 14:17:14.31	161.78	30.83	-34.9	-36.5	18.1	0.00e+00	0	61	0	1393557504	40	4298
2026-01-19 14:17:15.32	161.78	31.03	-34.9	-36.5	18.1	0.00e+00	0	61	0	1400897536	40	4297
2026-01-19 14:17:16.33	161.78	31.23	-35.0	-36.7	17.9	0.00e+00	0	61	0	1408237568	40	4393
2026-01-19 14:17:17.34	161.79	31.43	-35.0	-36.7	17.9	0.00e+00	0	62	0	1415577600	40	4402
2026-01-19 14:17:18.35	161.79	31.64	-35.0	-36.7	17.9	0.00e+00	0	61	0	1422917632	40	4404
2026-01-19 14:17:19.36	161.80	31.84	-35.1	-36.8	17.8	0.00e+00	0	61	0	1430257664	40	4448
2026-01-19 14:17:20.37	161.80	32.05	-35.0	-36.6	18.0	0.00e+00	0	61	0	1437597696	40	4357
2026-01-19 14:17:21.38	161.80	32.26	-35.0	-36.6	18.0	0.00e+00	0	61	0	1444937728	40	4365
2026-01-19 14:17:22.39	161.81	32.47	-34.9	-36.5	18.0	0.00e+00	0	62	0	1452277760	40	4333
2026-01-19 14:17:23.40	161.81	32.68	-34.9	-36.5	18.0	0.00e+00	0	61	0	1459617792	40	4335
2026-01-19 14:17:24.41	161.81	32.90	-34.8	-36.4	18.1	0.00e+00	0	61	0	1466957824	40	4281
2026-01-19 14:17:25.42	161.82	33.11	-34.9	-36.6	18.0	0.00e+00	0	61	0	1473249280	40	4360
2026-01-19 14:17:26.43	161.82	33.33	-34.8	-36.5	18.1	0.00e+00	0	62	0	1480589312	40	4305
2026-01-19 14:17:27.44	161.83	33.55	-34.9	-36.5	18.0	0.00e+00	0	62	0	1488977920	40	4335
2026-01-19 14:17:28.44	161.83	33.76	-35.0	-36.7	17.9	0.00e+00	0	61	0	1495269376	40	4421
2026-01-19 14:17:29.45	161.83	33.98	-35.1	-36.8	17.8	0.00e+00	0	61	0	1502609408	40	4468
2026-01-19 14:17:30.46	161.84	34.21	-35.0	-36.7	17.9	0.00e+00	0	62	0	1509949440	40	4399
2026-01-19 14:17:31.47	161.84	34.43	-35.0	-36.7	17.9	0.00e+00	0	61	0	1517289472	40	4408
2026-01-19 14:17:32.48	161.85	34.66	-35.0	-36.7	17.8	0.00e+00	0	61	0	1524629504	40	4441
2026-01-19 14:17:33.49	161.85	34.88	-35.0	-36.7	17.9	0.00e+00	0	62	0	1531969536	40	4418
2026-01-19 14:17:34.50	161.86	35.11	-35.1	-36.8	17.8	0.00e+00	0	62	0	1539309568	40	4455
2026-01-19 14:17:35.51	161.86	35.35	-35.0	-36.7	17.8	0.00e+00	0	62	0	1546649600	40	4431
2026-01-19 14:17:36.52	161.86	35.58	-35.0	-36.7	17.9	0.00e+00	0	62	0	1553989632	40	4423
2026-01-19 14:17:37.53	161.87	35.81	-35.0	-36.8	17.8	0.00e+00	0	62	0	1561329664	40	4447
2026-01-19 14:17:38.54	161.87	36.05	-35.0	-36.7	17.9	0.00e+00	0	61	0	1568669696	40	4431
2026-01-19 14:17:39.55	161.88	36.29	-34.9	-36.6	18.0	0.00e+00	0	62	0	1576009728	40	4359
2026-01-19 14:17:40.56	161.88	36.53	-34.8	-36.4	18.2	0.00e+00	0	62	0	1583349760	40	4277
2026-01-19 14:17:41.57	161.88	36.77	-34.7	-36.4	18.2	0.00e+00	0	61	0	1590689792	40	4258
2026-01-19 14:17:42.58	161.89	37.01	-34.8	-36.5	18.1	0.00e+00	0	62	0	1598029824	40	4314
2026-01-19 14:17:43.59	161.89	37.26	-34.8	-36.5	18.1	0.00e+00	0	62	0	1605369856	40	4300
2026-01-19 14:17:44.60	161.90	37.50	-34.8	-36.5	18.1	0.00e+00	0	62	0	1612709888	40	4316
2026-01-19 14:17:45.60	161.90	37.75	-35.0	-36.7	18.0	0.00e+00	0	61	0	1620049920	40	4421
2026-01-19 14:17:46.61	161.90	38.00	-35.2	-36.9	17.7	0.00e+00	0	62	0	1626341376	40	4537
2026-01-19 14:17:47.62	161.91	38.25	-35.2	-36.9	17.8	0.00e+00	0	62	0	1633681408	40	4517
2026-01-19 14:17:48.63	161.91	38.51	-35.2	-36.9	17.7	0.00e+00	0	62	0	1642070016	40	4535
2026-01-19 14:17:49.64	161.92	38.76	-35.3	-37.0	17.7	0.00e+00	0	61	0	1648361472	40	4554
2026-01-19 14:17:50.65	161.92	39.02	-35.2	-36.9	17.7	0.00e+00	0	62	0	1655701504	40	4522
2026-01-19 14:17:51.66	161.93	39.28	-35.3	-37.0	17.6	0.00e+00	0	61	0	1663041536	40	4576
2026-01-19 14:17:52.67	161.93	39.54	-35.3	-37.1	17.6	0.00e+00	0	62	0	1670381568	40	4599
2026-01-19 14:17:53.68	161.94	39.81	-35.4	-37.2	17.5	0.00e+00	0	62	0	1677721600	40	4667
2026-01-19 14:17:54.69	161.94	40.07	-35.5	-37.3	17.4	0.00e+00	0	62	0	1685061632	40	4711
2026-01-19 14:17:55.70	161.94	40.34	-35.5	-37.2	17.4	0.00e+00	0	62	0	1692401664	40	4694
2026-01-19 14:17:56.71	161.95	40.61	-35.4	-37.1	17.5	0.00e+00	0	62	0	1699741696	40	4626
2026-01-19 14:17:57.72	161.95	40.88	-35.4	-37.1	17.5	0.00e+00	0	62	0	1707081728	40	4640
2026-01-19 14:17:58.73	161.96	41.16	-35.5	-37.2	17.4	0.00e+00	0	62	0	1714421760	40	4693
2026-01-19 14:17:59.74	161.96	41.43	-35.4	-37.1	17.5	0.00e+00	0	62	0	1721761792	40	4620
2026-01-19 14:18:00.75	161.97	41.71	-35.3	-37.0	17.6	0.00e+00	0	62	0	1729101824	40	4583
2026-01-19 14:18:01.76	161.97	41.99	-35.2	-36.9	17.8	0.00e+00	0	62	0	1736441856	40	4500
2026-01-19 14:18:02.77	161.98	42.28	-35.2	-36.8	17.9	0.00e+00	0	62	0	1743781888	40	4469
2026-01-19 14:18:03.78	161.98	42.56	-35.1	-36.7	18.0	0.00e+00	0	62	0	1751121920	40	4423
2026-01-19 14:18:04.79	161.98	42.85	-35.1	-36.7	18.0	0.00e+00	0	62	0	1758461952	40	4396
2026-01-19 14:18:05.80	161.99	43.14	-35.1	-36.6	18.1	0.00e+00	0	62	0	1765801984	40	4382
2026-01-19 14:18:06.81	161.99	43.43	-35.1	-36.6	18.1	0.00e+00	0	62	0	1773142016	40	4391
2026-01-19 14:18:07.82	162.00	43.72	-35.6	-36.8	18.3	0.00e+00	0	62	0	1779433472	40	4461
2026-01-19 14:18:08.83	162.00	44.02	-35.6	-36.8	18.4	0.00e+00	0	62	0	1786773504	41	4204
2026-01-19 14:18:09.84	162.01	44.32	-35.8	-36.9	18.2	0.00e+00	0	62	0	1795162112	41	4271
2026-01-19 14:18:10.84	162.01	44.61	-35.8	-37.0	18.2	0.00e+00	0	62	0	1801453568	41	4308
2026-01-19 14:18:11.85	162.02	44.92	-36.2	-37.5	17.7	0.00e+00	0	62	0	1808793600	41	4555
2026-01-19 14:18:12.86	162.02	45.22	-36.1	-37.3	17.8	0.00e+00	0	62	0	1816133632	42	4235
2026-01-19 14:18:13.87	162.03	45.53	-36.1	-37.4	17.8	0.00e+00	0	62	0	1823473664	42	4245
2026-01-19 14:18:14.88	162.03	45.84	-36.2	-37.5	17.7	0.00e+00	0	62	0	1830813696	42	4300
2026-01-19 14:18:15.89	162.04	46.15	-36.2	-37.4	17.7	0.00e+00	0	62	0	1838153728	42	4279
2026-01-19 14:18:16.90	162.04	46.47	-36.5	-37.8	17.4	0.00e+00	0	62	0	1845493760	42	4459
2026-01-19 14:18:17.91	162.05	46.78	-36.5	-37.8	17.4	0.00e+00	0	62	0	1852833792	43	4201
2026-01-19 14:18:18.92	162.05	47.10	-36.8	-38.2	17.0	0.00e+00	0	62	0	1860173824	43	4393
2026-01-19 14:18:19.93	162.06	47.43	-36.8	-38.1	17.0	0.00e+00	0	62	0	1867513856	43	4359
2026-01-19 14:18:20.94	162.06	47.75	-36.8	-38.1	17.1	0.00e+00	0	62	0	1874853888	43	4379
2026-01-19 14:18:21.96	162.07	48.08	-36.9	-38.2	17.1	0.00e+00	0	62	0	1882193920	43	4401
2026-01-19 14:18:22.97	162.07	48.41	-36.8	-38.1	17.1	0.00e+00	0	62	0	1889533952	43	4356
2026-01-19 14:18:23.98	162.08	48.74	-36.8	-38.1	17.1	0.00e+00	0	62	0	1896873984	43	4350
2026-01-19 14:18:24.99	162.08	49.08	-36.8	-38.2	17.0	0.00e+00	0	62	0	1904214016	43	4395
2026-01-19 14:18:26.00	162.09	49.41	-36.7	-38.0	17.2	0.00e+00	0	62	0	1911554048	43	4329
2026-01-19 14:18:27.00	162.09	49.75	-36.8	-38.1	17.1	0.00e+00	0	62	0	1918894080	43	4364
2026-01-19 14:18:28.01	162.10	50.09	-37.4	-38.7	16.6	0.00e+00	0	62	0	1925185536	44	4440
2026-01-19 14:18:29.02	162.10	50.44	-37.3	-38.7	16.7	0.00e+00	0	62	0	1932525568	44	4427
2026-01-19 14:18:30.03	162.11	50.78	-37.4	-38.8	16.6	0.00e+00	0	62	0	1939865600	44	4462
2026-01-19 14:18:31.04	162.12	51.13	-37.5	-38.9	16.5	0.00e+00	0	62	0	1947205632	44	4497
2026-01-19 14:18:32.05	162.12	51.49	-37.5	-38.9	16.5	0.00e+00	0	62	0	1954545664	44	4513
2026-01-19 14:18:33.06	162.13	51.84	-37.3	-38.7	16.7	0.00e+00	0	62	0	1961885696	44	4403
2026-01-19 14:18:34.07	162.13	52.20	-36.9	-38.2	17.2	0.00e+00	0	62	0	1969225728	44	4176
2026-01-19 14:18:35.08	162.14	52.56	-36.6	-37.9	17.5	0.00e+00	0	62	0	1976565760	44	4022
2026-01-19 14:18:36.09	162.14	52.92	-36.6	-37.8	17.5	0.00e+00	0	62	0	1983905792	44	4001
2026-01-19 14:18:37.10	162.15	53.29	-36.8	-38.1	17.3	0.00e+00	0	62	0	1991245824	44	4114
2026-01-19 14:18:38.11	162.16	53.66	-37.3	-38.6	16.7	0.00e+00	0	62	0	1998585856	44	4375
2026-01-19 14:18:39.12	162.16	54.03	-37.4	-38.8	16.6	0.00e+00	0	62	0	2005925888	44	4469
2026-01-19 14:18:40.13	162.17	54.40	-37.3	-38.7	16.7	0.00e+00	0	62	0	2013265920	44	4393
2026-01-19 14:18:41.14	162.17	54.78	-37.3	-38.6	16.7	0.00e+00	0	62	0	2020605952	44	4390
2026-01-19 14:18:42.15	162.18	55.16	-37.1	-38.5	16.9	0.00e+00	0	62	0	2027945984	44	4301
2026-01-19 14:18:43.16	162.19	55.54	-37.1	-38.4	17.0	0.00e+00	0	62	0	2035286016	44	4255
2026-01-19 14:18:44.17	162.19	55.92	-37.5	-38.9	16.4	0.00e+00	0	62	0	2042626048	44	4524
2026-01-19 14:18:45.18	162.20	56.31	-37.1	-38.4	17.0	0.00e+00	0	62	0	2049966080	44	4267
2026-01-19 14:18:46.19	162.21	56.70	-37.1	-38.4	17.0	0.00e+00	0	62	0	2057306112	44	4252
2026-01-19 14:18:47.20	162.21	57.09	-37.0	-38.3	17.1	0.00e+00	0	62	0	2064646144	44	4209
2026-01-19 14:18:48.21	162.22	57.49	-37.2	-38.5	16.8	0.00e+00	0	62	0	2071986176	44	4335
2026-01-19 14:18:49.22	162.23	57.89	-37.5	-39.0	16.5	0.00e+00	0	62	0	2078277632	44	4559
2026-01-19 14:18:50.23	162.23	58.29	-37.6	-39.1	16.3	0.00e+00	0	62	0	2085617664	45	4346
2026-01-19 14:18:51.24	162.24	58.69	-37.8	-39.3	16.1	0.00e+00	0	62	0	2094006272	45	4469
2026-01-19 14:18:52.24	162.25	59.09	-37.6	-39.1	16.3	0.00e+00	0	62	0	2100297728	45	4344
2026-01-19 14:18:53.25	162.26	59.50	-37.4	-38.7	16.7	0.00e+00	0	62	0	2107637760	45	4188
2026-01-19 14:18:54.26	162.26	59.92	-37.0	-38.3	17.1	0.00e+00	0	62	0	2114977792	44	4202
2026-01-19 14:18:55.27	162.27	60.33	-36.7	-37.9	17.3	0.00e+00	0	62	0	2122317824	43	4290
2026-01-19 14:18:56.28	162.28	60.75	-36.6	-37.9	17.3	0.00e+00	0	62	0	2129657856	43	4265
2026-01-19 14:18:57.29	162.29	61.17	-36.9	-38.2	17.0	0.00e+00	0	62	0	2136997888	43	4428
2026-01-19 14:18:58.30	162.30	61.59	-36.9	-38.2	17.1	0.00e+00	0	62	0	2144337920	43	4411
2026-01-19 14:18:59.31	162.30	62.02	-36.6	-37.8	17.3	0.00e+00	0	62	0	2151677952	43	4240
2026-01-19 14:19:00.32	162.31	62.44	-36.2	-37.4	17.8	0.00e+00	0	62	0	2159017984	43	4033
2026-01-19 14:19:01.33	162.32	62.87	-35.9	-37.1	18.1	0.00e+00	0	62	0	2166358016	42	4114
2026-01-19 14:19:02.34	162.33	63.31	-35.9	-37.0	18.2	0.00e+00	0	62	0	2173698048	42	4088
2026-01-19 14:19:03.35	162.34	63.74	-36.0	-37.2	18.0	0.00e+00	0	62	0	2181038080	42	4186
2026-01-19 14:19:04.36	162.35	64.18	-36.2	-37.5	17.8	0.00e+00	0	62	0	2188378112	42	4295
2026-01-19 14:19:05.37	162.36	64.62	-35.9	-37.1	18.1	0.00e+00	0	62	0	2195718144	42	4134
2026-01-19 14:19:06.38	162.37	65.07	-35.7	-36.9	18.3	0.00e+00	0	62	0	2202009600	42	4015
2026-01-19 14:19:07.39	162.38	65.51	-35.6	-36.7	18.4	0.00e+00	0	62	0	2210398208	42	3956
2026-01-19 14:19:08.40	162.39	65.96	-35.4	-36.5	18.6	0.00e+00	0	62	0	2217738240	41	4097
2026-01-19 14:19:09.41	162.40	66.41	-35.6	-36.7	18.5	0.00e+00	0	62	0	2224029696	41	4190
2026-01-19 14:19:10.41	162.41	66.86	-35.5	-36.6	18.5	0.00e+00	0	62	0	2231369728	40	4390
2026-01-19 14:19:11.42	162.42	67.32	-35.1	-36.2	19.0	0.00e+00	0	62	0	2238709760	40	4178
2026-01-19 14:19:12.43	162.43	67.78	-35.3	-36.4	18.8	0.00e+00	0	62	0	2246049792	40	4266
2026-01-19 14:19:13.44	162.44	68.24	-35.5	-36.7	18.5	0.00e+00	0	62	0	2253389824	40	4392
2026-01-19 14:19:14.45	162.46	68.71	-35.7	-36.8	18.4	0.00e+00	0	62	0	2260729856	40	4486
2026-01-19 14:19:15.46	162.47	69.17	-34.8	-35.9	19.2	0.00e+00	0	62	0	2268069888	40	4010
2026-01-19 14:19:16.47	162.48	69.64	-35.6	-36.8	18.4	0.00e+00	0	62	0	2275409920	41	4217
2026-01-19 14:19:17.48	162.50	70.11	-35.6	-36.8	18.4	0.00e+00	0	62	0	2282749952	41	4205
2026-01-19 14:19:18.49	162.51	70.58	-35.5	-36.7	18.5	0.00e+00	0	62	0	2290089984	41	4162
2026-01-19 14:19:19.50	162.52	71.06	-35.8	-36.9	18.2	0.00e+00	0	62	0	2297430016	41	4288
2026-01-19 14:19:20.51	162.54	71.54	-36.2	-37.4	17.8	0.00e+00	0	62	0	2304770048	42	4267
2026-01-19 14:19:21.52	162.56	72.02	-36.3	-37.5	17.7	0.00e+00	0	62	0	2312110080	42	4332
2026-01-19 14:19:22.53	162.57	72.50	-35.9	-37.1	18.1	0.00e+00	0	62	0	2319450112	42	4134
2026-01-19 14:19:23.54	162.59	72.98	-36.0	-37.2	18.0	0.00e+00	0	62	0	2326790144	42	4170
2026-01-19 14:19:24.55	162.61	73.47	-35.6	-36.8	18.4	0.00e+00	0	62	0	2334130176	42	3968
2026-01-19 14:19:25.56	162.63	73.96	-35.5	-36.7	18.4	0.00e+00	0	62	0	2341470208	41	4158
2026-01-19 14:19:26.57	162.65	74.45	-35.4	-36.5	18.6	0.00e+00	0	62	0	2348810240	41	4077
2026-01-19 14:19:27.58	162.67	74.94	-35.3	-36.5	18.7	0.00e+00	0	62	0	2356150272	41	4061
2026-01-19 14:19:28.59	162.69	75.43	-35.4	-36.5	18.6	0.00e+00	0	62	0	2363490304	41	4086
2026-01-19 14:19:29.60	162.72	75.93	-35.1	-36.2	19.0	0.00e+00	0	62	0	2370830336	41	3938
2026-01-19 14:19:30.61	162.74	76.43	-34.5	-35.5	19.6	0.00e+00	0	62	0	2377121792	40	3842
2026-01-19 14:19:31.62	162.77	76.93	-34.6	-35.6	19.5	0.00e+00	0	62	0	2384461824	39	4123
2026-01-19 14:19:32.63	162.80	77.43	-34.7	-35.8	19.4	0.00e+00	0	62	0	2392850432	39	4196
2026-01-19 14:19:33.64	162.83	77.93	-34.8	-35.9	19.3	0.00e+00	0	62	0	2399141888	39	4255
2026-01-19 14:19:34.65	162.87	78.43	-34.5	-35.6	19.6	0.00e+00	0	62	0	2406481920	39	4106
2026-01-19 14:19:35.66	162.91	78.94	-34.2	-35.2	20.0	0.00e+00	0	62	0	2413821952	39	3946
2026-01-19 14:19:36.67	162.95	79.45	-34.0	-35.0	20.2	0.00e+00	0	62	0	2421161984	38	4075
2026-01-19 14:19:37.68	162.99	79.95	-34.0	-35.0	20.2	0.00e+00	0	62	0	2428502016	38	4075
2026-01-19 14:19:38.69	163.04	80.46	-34.1	-35.1	20.1	0.00e+00	0	62	0	2435842048	38	4102
2026-01-19 14:19:39.70	163.09	80.97	-34.1	-35.1	20.1	0.00e+00	0	62	0	2443182080	38	4134
2026-01-19 14:19:40.71	163.16	81.49	-34.1	-35.1	20.0	0.00e+00	0	62	0	2450522112	38	4127
2026-01-19 14:19:41.72	163.22	82.00	-34.1	-35.1	20.0	0.00e+00	0	62	0	2457862144	38	4142
2026-01-19 14:19:42.73	163.30	82.51	-34.2	-35.2	20.0	0.00e+00	0	62	0	2465202176	38	4162
2026-01-19 14:19:43.74	163.39	83.03	-34.3	-35.4	19.8	0.00e+00	0	62	0	2472542208	38	4264
2026-01-19 14:19:44.75	163.49	83.54	-34.6	-35.7	19.6	0.00e+00	0	62	0	2479882240	38	4397
2026-01-19 14:19:45.76	163.61	84.06	-34.7	-35.7	19.5	0.00e+00	0	62	0	2487222272	39	4191
2026-01-19 14:19:46.77	163.75	84.58	-34.7	-35.8	19.4	0.00e+00	0	62	0	2494562304	39	4232
2026-01-19 14:19:47.78	163.92	85.10	-34.5	-35.5	19.7	0.00e+00	0	62	0	2500853760	39	4073
2026-01-19 14:19:48.79	164.13	85.62	-34.6	-35.6	19.6	0.00e+00	0	62	0	2509242368	39	4129
2026-01-19 14:19:49.80	164.40	86.14	-34.8	-35.9	19.3	0.00e+00	0	62	0	2516582400	39	4270
2026-01-19 14:19:50.80	164.74	86.65	-34.9	-36.0	19.2	0.00e+00	0	62	0	2522873856	39	4318
2026-01-19 14:19:51.81	165.21	87.17	-34.9	-36.0	19.2	0.00e+00	0	62	0	2530213888	39	4301
2026-01-19 14:19:52.82	165.90	87.69	-34.8	-35.9	19.3	0.00e+00	0	62	0	2537553920	39	4265
2026-01-19 14:19:53.83	166.98	88.21	-34.9	-35.9	19.2	0.00e+00	0	62	0	2544893952	39	4287
2026-01-19 14:19:54.84	168.94	88.73	-34.9	-36.0	19.2	0.00e+00	0	62	0	2552233984	39	4294
2026-01-19 14:19:55.85	173.60	89.25	-34.6	-35.7	19.5	0.00e+00	0	62	0	2559574016	39	4160
2026-01-19 14:19:56.86	196.64	89.74	-34.4	-35.5	19.6	0.00e+00	0	62	0	2566914048	39	4069
2026-01-19 14:19:57.87	316.17	89.66	-34.7	-35.7	19.3	1.10e-06	0	62	0	2574254080	39	4192
2026-01-19 14:19:58.88	332.01	89.16	-34.6	-35.7	19.5	0.00e+00	0	62	0	2581594112	39	4173
2026-01-19 14:19:59.89	335.92	88.64	-34.8	-35.9	19.2	2.20e-06	0	62	0	2588934144	39	4271
2026-01-19 14:20:00.88	337.65	88.13	-35.1	-36.2	19.0	0.00e+00	0	62	0	2596274176	39	4413
2026-01-19 14:20:01.89	338.66	87.61	-35.0	-36.1	19.1	0.00e+00	0	62	0	2603614208	40	4119
2026-01-19 14:20:02.90	339.30	87.09	-34.6	-35.7	19.4	0.00e+00	0	62	0	2610954240	40	3931
2026-01-19 14:20:03.92	339.75	86.57	-34.6	-35.7	19.5	0.00e+00	0	62	0	2618294272	39	4148
2026-01-19 14:20:04.93	340.09	86.05	-34.8	-35.9	19.4	0.00e+00	0	62	0	2625634304	39	4244
2026-01-19 14:20:05.93	340.34	85.54	-35.1	-36.2	19.0	1.10e-06	0	62	0	2632974336	39	4440
2026-01-19 14:20:06.94	340.54	85.02	-35.0	-36.1	19.1	0.00e+00	0	62	0	2640314368	39	4381
2026-01-19 14:20:07.95	340.71	84.50	-34.6	-35.7	19.5	0.00e+00	0	62	0	2647654400	39	4162
2026-01-19 14:20:08.96	340.84	83.98	-34.3	-35.3	19.9	0.00e+00	0	62	0	2653945856	39	3984
2026-01-19 14:20:09.97	340.96	83.47	-34.1	-35.1	20.1	0.00e+00	0	62	0	2661285888	39	3906
2026-01-19 14:20:10.98	341.06	82.95	-34.0	-35.0	20.3	0.00e+00	0	62	0	2668625920	38	4052
2026-01-19 14:20:11.98	341.14	82.44	-33.9	-34.9	20.2	0.00e+00	0	62	0	2675965952	38	4046
2026-01-19 14:20:12.99	341.22	81.93	-34.1	-35.0	20.0	0.00e+00	0	62	0	2683305984	38	4096
2026-01-19 14:20:14.00	341.29	81.41	-34.3	-35.4	19.9	0.00e+00	0	62	0	2690646016	38	4253
2026-01-19 14:20:15.01	341.35	80.90	-34.3	-35.3	20.0	0.00e+00	0	62	0	2697986048	38	4214
2026-01-19 14:20:16.02	341.40	80.39	-33.9	-34.9	20.3	0.00e+00	0	62	0	2705326080	38	4030
2026-01-19 14:20:17.03	341.45	79.88	-34.0	-35.0	20.3	0.00e+00	0	62	0	2712666112	38	4064
2026-01-19 14:20:18.04	341.49	79.38	-34.3	-35.4	19.8	0.00e+00	0	62	0	2720006144	38	4263
2026-01-19 14:20:19.05	341.53	78.87	-34.4	-35.5	19.8	0.00e+00	0	62	0	2727346176	38	4295
2026-01-19 14:20:20.06	341.57	78.37	-34.4	-35.4	19.8	0.00e+00	0	62	0	2734686208	38	4276
2026-01-19 14:20:21.07	341.61	77.86	-34.3	-35.3	19.9	0.00e+00	0	62	0	2742026240	38	4242
2026-01-19 14:20:22.08	341.64	77.36	-34.6	-35.7	19.6	0.00e+00	0	62	0	2749366272	38	4408
2026-01-19 14:20:23.09	341.67	76.86	-34.8	-35.9	19.4	0.00e+00	0	62	0	2756706304	39	4271
2026-01-19 14:20:24.10	341.69	76.36	-35.1	-36.2	19.0	0.00e+00	0	62	0	2764046336	39	4404
2026-01-19 14:20:25.11	341.72	75.87	-35.4	-36.6	18.5	0.00e+00	0	62	0	2771386368	40	4345
2026-01-19 14:20:26.12	341.74	75.37	-35.8	-37.0	18.2	0.00e+00	0	62	0	2777677824	41	4330
2026-01-19 14:20:27.13	341.77	74.88	-35.9	-37.1	18.1	0.00e+00	0	62	0	2785017856	41	4372
2026-01-19 14:20:28.14	341.79	74.39	-35.7	-36.9	18.3	0.00e+00	0	62	0	2793406464	41	4269
2026-01-19 14:20:29.15	341.81	73.90	-35.6	-37.1	17.2	1.60e-04	0	62	0	2799697920	41	4341
2026-01-19 14:20:30.16	341.83	73.41	-36.2	-37.4	17.6	2.20e-06	0	62	0	2807037952	41	4521
2026-01-19 14:20:31.17	341.85	72.93	-36.7	-37.5	17.7	0.00e+00	0	62	0	2814377984	42	4328
2026-01-19 14:20:32.18	341.86	72.44	-36.2	-37.4	17.8	3.35e-04	0	62	0	2821718016	42	4273
2026-01-19 14:20:33.19	341.88	71.96	-36.0	-37.2	18.0	0.00e+00	0	62	0	2829058048	42	4166
2026-01-19 14:20:34.20	341.90	71.48	-36.1	-37.3	17.9	1.10e-06	0	62	0	2836398080	42	4231
2026-01-19 14:20:35.21	341.91	71.01	-36.2	-37.4	17.8	6.80e-06	0	62	0	2843738112	42	4268
2026-01-19 14:20:36.22	341.93	70.53	-36.1	-37.4	17.8	0.00e+00	0	62	0	2851078144	42	4253
2026-01-19 14:20:37.23	341.94	70.06	-35.8	-37.2	18.0	1.13e-04	0	62	0	2858418176	41	4396
2026-01-19 14:20:38.24	341.96	69.59	-35.9	-37.1	18.1	6.06e-05	0	62	0	2865758208	41	4377
2026-01-19 14:20:39.25	341.97	69.12	-35.8	-37.0	18.2	0.00e+00	0	62	0	2873098240	41	4302
2026-01-19 14:20:40.26	341.98	68.66	-35.4	-36.7	17.5	6.40e-05	0	62	0	2880438272	40	4421
2026-01-19 14:20:41.27	341.99	68.20	-35.5	-36.7	18.6	1.10e-06	0	62	0	2887778304	40	4400
2026-01-19 14:20:42.28	342.01	67.74	-35.4	-36.6	18.5	1.10e-06	0	62	0	2895118336	40	4387
2026-01-19 14:20:43.29	342.02	67.28	-35.5	-36.7	18.5	9.72e-05	0	62	0	2902458368	40	4416
2026-01-19 14:20:44.29	342.03	66.83	-35.3	-36.7	18.6	3.66e-05	0	62	0	2909798400	40	4392
2026-01-19 14:20:45.31	342.04	66.37	-35.6	-36.7	18.5	0.00e+00	0	62	0	2917138432	40	4440
2026-01-19 14:20:46.31	342.05	65.93	-35.8	-37.0	18.3	0.00e+00	0	62	0	2924478464	41	4309
2026-01-19 14:20:47.32	342.06	65.48	-36.0	-37.2	18.1	0.00e+00	0	62	0	2930769920	41	4415
2026-01-19 14:20:48.33	342.07	65.03	-36.0	-37.3	18.0	3.40e-06	0	62	0	2939158528	41	4445
2026-01-19 14:20:49.34	342.08	64.59	-36.1	-37.3	17.9	0.00e+00	0	62	0	2946498560	41	4477
2026-01-19 14:20:50.35	342.09	64.15	-36.1	-37.3	17.9	9.10e-06	0	62	0	2952790016	41	4491
2026-01-19 14:20:51.36	342.10	63.71	-36.2	-37.5	17.8	0.00e+00	0	62	0	2960130048	41	4552
2026-01-19 14:20:52.37	342.11	63.28	-36.2	-37.4	17.8	0.00e+00	0	62	0	2967470080	42	4279
2026-01-19 14:20:53.38	342.12	62.85	-36.3	-37.5	17.7	0.00e+00	0	62	0	2974810112	42	4319
2026-01-19 14:20:54.39	342.13	62.42	-36.3	-37.6	17.7	3.52e-04	0	62	0	2982150144	42	4356
2026-01-19 14:20:55.40	342.14	61.99	-36.3	-37.5	17.8	0.00e+00	0	62	0	2989490176	42	4300
2026-01-19 14:20:56.41	342.14	61.57	-36.4	-37.6	17.7	1.10e-06	0	62	0	2996830208	42	4355
2026-01-19 14:20:57.42	342.15	61.15	-36.7	-38.0	17.3	4.50e-06	0	62	0	3004170240	42	4566
2026-01-19 14:20:58.43	342.16	60.73	-37.0	-38.4	16.5	1.83e-05	0	62	0	3011510272	43	4511
2026-01-19 14:20:59.44	342.17	60.31	-37.5	-38.9	16.6	3.31e-05	0	62	0	3018850304	44	4512
2026-01-19 14:21:00.45	342.18	59.90	-37.8	-39.2	16.2	0.00e+00	0	62	0	3026190336	45	4429
2026-01-19 14:21:01.46	342.18	59.49	-37.8	-39.3	16.2	3.08e-05	0	62	0	3033530368	45	4462
2026-01-19 14:21:02.47	342.19	59.08	-37.8	-39.2	16.3	6.98e-05	0	62	0	3040870400	45	4408
2026-01-19 14:21:03.48	342.20	58.68	-37.6	-39.0	16.5	0.00e+00	0	62	0	3048210432	45	4313
2026-01-19 14:21:04.49	342.21	58.27	-37.6	-39.0	16.4	5.26e-05	0	62	0	3055550464	45	4315
2026-01-19 14:21:05.50	342.21	57.87	-37.5	-38.9	16.5	6.75e-05	0	62	0	3062890496	45	4282
2026-01-19 14:21:06.51	342.22	57.48	-37.4	-38.8	16.6	1.42e-04	0	62	0	3070230528	45	4235
2026-01-19 14:21:07.52	342.23	57.08	-37.4	-38.7	16.7	6.80e-06	0	62	0	3076521984	45	4186
2026-01-19 14:21:08.53	342.23	56.69	-37.4	-38.7	16.7	5.70e-06	0	62	0	3083862016	45	4177
2026-01-19 14:21:09.53	342.24	56.31	-37.5	-38.9	16.6	0.00e+00	0	62	0	3092250624	45	4279
2026-01-19 14:21:10.54	342.25	55.92	-37.6	-39.0	16.1	0.00e+00	0	62	0	3098542080	45	4319
2026-01-19 14:21:11.55	342.25	55.54	-37.7	-39.1	16.4	0.00e+00	0	62	0	3105882112	45	4353
2026-01-19 14:21:12.56	342.26	55.16	-37.6	-39.0	16.5	0.00e+00	0	62	0	3113222144	45	4310
2026-01-19 14:21:13.57	342.27	54.78	-37.4	-38.7	16.7	0.00e+00	0	62	0	3120562176	45	4177
2026-01-19 14:21:14.58	342.27	54.41	-37.2	-38.5	17.0	0.00e+00	0	62	0	3127902208	45	4070
2026-01-19 14:21:15.59	342.28	54.03	-37.1	-38.4	17.0	0.00e+00	0	62	0	3135242240	44	4257
2026-01-19 14:21:16.60	342.29	53.66	-37.0	-38.3	17.1	0.00e+00	0	62	0	3142582272	44	4232
2026-01-19 14:21:17.61	342.29	53.30	-37.2	-38.5	16.9	0.00e+00	0	62	0	3149922304	44	4310
2026-01-19 14:21:18.62	342.30	52.93	-37.3	-38.7	16.8	0.00e+00	0	62	0	3157262336	44	4393
2026-01-19 14:21:19.63	342.31	52.57	-37.3	-38.7	16.8	0.00e+00	0	62	0	3164602368	44	4411
2026-01-19 14:21:20.64	342.31	52.21	-37.3	-38.7	16.7	0.00e+00	0	62	0	3171942400	44	4411
2026-01-19 14:21:21.64	342.32	51.86	-37.2	-38.5	16.9	0.00e+00	0	62	0	3179282432	44	4325
2026-01-19 14:21:22.65	342.32	51.51	-37.2	-38.5	16.9	0.00e+00	0	62	0	3186622464	44	4301
2026-01-19 14:21:23.66	342.33	51.15	-37.1	-38.4	17.0	0.00e+00	0	62	0	3193962496	44	4245
2026-01-19 14:21:24.67	342.34	50.81	-37.2	-38.5	16.9	0.00e+00	0	62	0	3201302528	44	4335
2026-01-19 14:21:25.68	342.34	50.46	-37.2	-38.6	16.8	0.00e+00	0	62	0	3208642560	44	4356
2026-01-19 14:21:26.69	342.35	50.12	-37.3	-38.7	16.8	0.00e+00	0	62	0	3215982592	44	4394
2026-01-19 14:21:27.70	342.35	49.78	-37.1	-38.4	17.1	0.00e+00	0	62	0	3223322624	44	4262
2026-01-19 14:21:28.71	342.36	49.44	-37.0	-38.3	17.1	0.00e+00	0	62	0	3229614080	44	4225
2026-01-19 14:21:29.72	342.36	49.10	-36.9	-38.2	17.2	0.00e+00	0	62	0	3236954112	44	4163
2026-01-19 14:21:30.74	342.37	48.77	-36.8	-38.1	17.4	0.00e+00	0	62	0	3245342720	44	4099
2026-01-19 14:21:31.74	342.37	48.44	-36.8	-38.0	17.4	0.00e+00	0	62	0	3251634176	44	4089
2026-01-19 14:21:32.75	342.38	48.11	-36.6	-37.8	17.5	0.00e+00	0	62	0	3258974208	44	3991
2026-01-19 14:21:33.77	342.39	47.78	-36.5	-37.7	17.6	0.00e+00	0	62	0	3266314240	44	3946
2026-01-19 14:21:34.78	342.39	47.46	-36.2	-37.4	17.9	0.00e+00	0	62	0	3273654272	43	4027
2026-01-19 14:21:35.79	342.40	47.14	-36.1	-37.3	17.9	0.00e+00	0	62	0	3280994304	43	3991
2026-01-19 14:21:36.79	342.40	46.82	-36.0	-37.2	17.6	0.00e+00	0	62	0	3288334336	42	4156
2026-01-19 14:21:37.80	342.41	46.51	-36.1	-37.3	17.9	0.00e+00	0	62	0	3295674368	42	4203
2026-01-19 14:21:38.81	342.41	46.19	-36.3	-37.5	17.8	0.00e+00	0	62	0	3303014400	42	4297
2026-01-19 14:21:39.82	342.42	45.88	-36.4	-37.6	17.7	0.00e+00	0	62	0	3310354432	42	4358
2026-01-19 14:21:40.83	342.42	45.57	-36.3	-37.6	17.7	0.00e+00	0	62	0	3317694464	42	4355
2026-01-19 14:21:41.85	342.43	45.26	-36.4	-37.6	17.6	0.00e+00	0	62	0	3325034496	42	4378
2026-01-19 14:21:42.86	342.43	44.96	-36.3	-37.6	17.7	0.00e+00	0	62	0	3332374528	42	4354
2026-01-19 14:21:43.87	342.44	44.66	-36.0	-37.2	18.0	0.00e+00	0	62	0	3339714560	42	4187
2026-01-19 14:21:44.87	342.44	44.36	-35.7	-36.8	18.3	0.00e+00	0	62	0	3347054592	42	4004
2026-01-19 14:21:45.89	342.45	44.06	-35.6	-36.7	18.5	0.00e+00	0	62	0	3354394624	42	3932
2026-01-19 14:21:46.90	342.45	43.77	-35.5	-36.6	18.4	0.00e+00	0	62	0	3361734656	42	3893
2026-01-19 14:21:47.91	342.46	43.48	-35.5	-36.7	18.5	0.00e+00	0	62	0	3369074688	41	4153
2026-01-19 14:21:48.92	342.46	43.19	-35.6	-36.7	18.5	0.00e+00	0	62	0	3376414720	41	4177
2026-01-19 14:21:49.93	342.47	42.90	-35.7	-36.9	18.3	0.00e+00	0	62	0	3382706176	41	4255
2026-01-19 14:21:50.94	342.47	42.61	-35.8	-37.0	18.2	0.00e+00	0	62	0	3391094784	41	4322
2026-01-19 14:21:51.95	342.48	42.33	-35.8	-37.0	18.2	0.00e+00	0	62	0	3397386240	41	4330
2026-01-19 14:21:52.96	342.48	42.05	-35.9	-37.1	18.1	0.00e+00	0	62	0	3404726272	41	4379
2026-01-19 14:21:53.97	342.49	41.77	-35.9	-37.1	18.1	0.00e+00	0	62	0	3412066304	41	4379
2026-01-19 14:21:54.98	342.49	41.49	-35.8	-37.0	18.2	0.00e+00	0	62	0	3419406336	41	4315
2026-01-19 14:21:55.99	342.50	41.21	-35.7	-36.9	18.3	0.00e+00	0	62	0	3426746368	41	4261
2026-01-19 14:21:57.00	342.50	40.94	-35.8	-37.0	18.0	0.00e+00	0	62	0	3434086400	41	4330
2026-01-19 14:21:58.01	342.51	40.67	-35.8	-37.0	18.0	0.00e+00	0	62	0	3441426432	41	4316
2026-01-19 14:21:59.02	342.51	40.40	-35.7	-36.9	18.2	0.00e+00	0	62	0	3448766464	41	4270
2026-01-19 14:22:00.03	342.52	40.13	-35.8	-36.9	18.2	0.00e+00	0	62	0	3456106496	41	4283
2026-01-19 14:22:01.03	342.52	39.87	-35.9	-37.0	18.1	0.00e+00	0	62	0	3463446528	41	4330
2026-01-19 14:22:02.04	342.53	39.61	-35.9	-37.1	18.1	0.00e+00	0	62	0	3470786560	41	4346
2026-01-19 14:22:03.05	342.53	39.35	-35.9	-37.0	18.1	0.00e+00	0	62	0	3478126592	41	4332
2026-01-19 14:22:04.06	342.54	39.09	-35.9	-37.1	18.1	0.00e+00	0	62	0	3485466624	41	4342
2026-01-19 14:22:05.07	342.54	38.83	-35.8	-37.0	18.1	0.00e+00	0	62	0	3492806656	41	4313
2026-01-19 14:22:06.08	342.55	38.58	-35.8	-37.0	18.1	0.00e+00	0	62	0	3500146688	41	4315
2026-01-19 14:22:07.09	342.55	38.32	-35.7	-36.8	18.2	0.00e+00	0	62	0	3507486720	41	4226
2026-01-19 14:22:08.10	342.55	38.07	-35.6	-36.8	18.4	0.00e+00	0	62	0	3514826752	41	4194
2026-01-19 14:22:09.11	342.56	37.82	-35.7	-36.8	18.3	0.00e+00	0	62	0	3522166784	41	4227
2026-01-19 14:22:10.12	342.56	37.58	-35.5	-36.6	18.5	0.00e+00	0	62	0	3528458240	41	4115
2026-01-19 14:22:11.13	342.57	37.33	-35.5	-36.7	18.4	0.00e+00	0	62	0	3536846848	41	4146
2026-01-19 14:22:12.14	342.57	37.09	-35.5	-36.6	18.5	0.00e+00	0	62	0	3544186880	41	4128
2026-01-19 14:22:13.15	342.58	36.84	-35.5	-36.6	18.5	0.00e+00	0	62	0	3550478336	41	4123
2026-01-19 14:22:14.16	342.58	36.60	-35.4	-36.6	18.6	0.00e+00	0	62	0	3557818368	41	4104
2026-01-19 14:22:15.17	342.59	36.36	-35.5	-36.6	18.5	0.00e+00	0	62	0	3565158400	41	4134
2026-01-19 14:22:16.18	342.59	36.13	-35.5	-36.6	18.5	0.00e+00	0	62	0	3572498432	41	4115
2026-01-19 14:22:17.19	342.60	35.89	-35.6	-36.7	18.4	0.00e+00	0	62	0	3579838464	41	4178
2026-01-19 14:22:18.20	342.60	35.66	-35.4	-36.6	18.5	0.00e+00	0	62	0	3587178496	41	4105
2026-01-19 14:22:19.21	342.61	35.43	-35.4	-36.5	18.5	0.00e+00	0	62	0	3594518528	41	4070
2026-01-19 14:22:20.22	342.61	35.20	-35.4	-36.5	18.5	0.00e+00	0	62	0	3601858560	41	4082
2026-01-19 14:22:21.23	342.61	34.97	-35.4	-36.5	18.4	0.00e+00	0	62	0	3609198592	41	4081
2026-01-19 14:22:22.24	342.62	34.74	-35.2	-36.3	18.7	0.00e+00	0	62	0	3616538624	41	4004
2026-01-19 14:22:23.25	342.62	34.52	-35.2	-36.4	18.7	0.00e+00	0	62	0	3623878656	41	4011
2026-01-19 14:22:24.26	342.63	34.29	-35.0	-36.1	18.9	0.00e+00	0	62	0	3631218688	41	3908
2026-01-19 14:22:25.27	342.63	34.07	-35.0	-36.1	18.9	0.00e+00	0	62	0	3638558720	41	3895
2026-01-19 14:22:26.28	342.64	33.85	-35.0	-36.1	18.9	0.00e+00	0	62	0	3645898752	41	3887
2026-01-19 14:22:27.29	342.64	33.63	-35.0	-36.1	18.9	0.00e+00	0	62	0	3653238784	41	3898
2026-01-19 14:22:28.30	342.65	33.42	-35.0	-36.1	18.9	0.00e+00	0	62	0	3660578816	40	4112
2026-01-19 14:22:29.31	342.65	33.20	-35.0	-36.1	18.9	0.00e+00	0	62	0	3667918848	40	4141
2026-01-19 14:22:30.32	342.65	32.99	-35.1	-36.2	18.8	0.00e+00	0	62	0	3675258880	40	4172
2026-01-19 14:22:31.33	342.66	32.77	-35.2	-36.3	18.7	0.00e+00	0	62	0	3681550336	40	4237
2026-01-19 14:22:32.34	342.66	32.56	-35.2	-36.3	18.7	0.00e+00	0	62	0	3689938944	40	4230
2026-01-19 14:22:33.35	342.67	32.35	-35.2	-36.3	18.7	0.00e+00	0	62	0	3697278976	40	4232
2026-01-19 14:22:34.36	342.67	32.14	-35.3	-36.4	18.6	0.00e+00	0	62	0	3703570432	40	4268
2026-01-19 14:22:35.37	342.68	31.94	-35.3	-36.4	18.6	0.00e+00	0	62	0	3710910464	40	4281
2026-01-19 14:22:36.38	342.68	31.73	-35.3	-36.4	18.6	0.00e+00	0	62	0	3718250496	40	4268
2026-01-19 14:22:37.39	342.69	31.53	-35.3	-36.5	18.4	0.00e+00	0	62	0	3725590528	40	4305
2026-01-19 14:22:38.40	342.69	31.33	-35.4	-36.5	18.4	0.00e+00	0	62	0	3732930560	40	4332
2026-01-19 14:22:39.41	342.69	31.13	-35.3	-36.4	18.4	0.00e+00	0	62	0	3740270592	40	4286
2026-01-19 14:22:40.42	342.70	30.93	-35.3	-36.4	18.5	0.00e+00	0	62	0	3747610624	40	4272
2026-01-19 14:22:41.42	342.70	30.73	-35.3	-36.4	18.5	0.00e+00	0	62	0	3754950656	40	4263
2026-01-19 14:22:42.43	342.71	30.53	-35.3	-36.4	18.5	0.00e+00	0	62	0	3762290688	40	4272
2026-01-19 14:22:43.44	342.71	30.34	-35.3	-36.5	18.5	0.00e+00	0	62	0	3769630720	40	4292
2026-01-19 14:22:44.45	342.72	30.14	-35.4	-36.5	18.4	0.00e+00	0	62	0	3776970752	40	4323
2026-01-19 14:22:45.46	342.72	29.95	-35.3	-36.5	18.5	0.00e+00	0	62	0	3784310784	40	4296
2026-01-19 14:22:46.47	342.72	29.76	-35.4	-36.5	18.4	0.00e+00	0	62	0	3791650816	40	4319
2026-01-19 14:22:47.48	342.73	29.57	-35.4	-36.5	18.3	0.00e+00	0	62	0	3798990848	40	4330
2026-01-19 14:22:48.49	342.73	29.38	-35.4	-36.6	18.3	0.00e+00	0	62	0	3806330880	40	4357
2026-01-19 14:22:49.50	342.74	29.19	-35.5	-36.7	18.2	0.00e+00	0	62	0	3813670912	40	4393
2026-01-19 14:22:50.51	342.74	29.00	-35.5	-36.7	18.2	0.00e+00	0	62	0	3821010944	40	4407
2026-01-19 14:22:51.52	342.75	28.82	-35.6	-36.7	18.1	0.00e+00	0	62	0	3827302400	40	4429
2026-01-19 14:22:52.53	342.75	28.64	-35.6	-36.8	18.1	0.00e+00	0	62	0	3835691008	40	4456
2026-01-19 14:22:53.54	342.76	28.45	-35.6	-36.8	18.0	0.00e+00	0	62	0	3843031040	40	4478
2026-01-19 14:22:54.55	342.76	28.27	-35.7	-36.9	17.9	0.00e+00	0	62	0	3849322496	41	4252
2026-01-19 14:22:55.56	342.76	28.09	-35.8	-37.0	17.8	0.00e+00	0	62	0	3856662528	41	4309
2026-01-19 14:22:56.57	342.77	27.91	-35.9	-37.1	17.8	0.00e+00	0	62	0	3864002560	41	4348
2026-01-19 14:22:57.58	342.77	27.73	-35.9	-37.2	17.7	0.00e+00	0	62	0	3871342592	41	4393
2026-01-19 14:22:58.59	342.78	27.56	-35.9	-37.1	17.7	0.00e+00	0	62	0	3878682624	41	4381
2026-01-19 14:22:59.60	342.78	27.38	-36.0	-37.3	17.4	0.00e+00	0	62	0	3886022656	41	4444
2026-01-19 14:23:00.61	342.79	27.21	-36.0	-37.3	17.5	0.00e+00	0	62	0	3893362688	41	4447
2026-01-19 14:23:01.62	342.79	27.03	-36.0	-37.2	17.5	0.00e+00	0	62	0	3900702720	41	4441
2026-01-19 14:23:02.63	342.79	26.86	-36.1	-37.4	17.4	0.00e+00	0	62	0	3908042752	41	4517
2026-01-19 14:23:03.64	342.80	26.69	-36.1	-37.3	17.4	0.00e+00	0	62	0	3915382784	41	4487
2026-01-19 14:23:04.65	342.80	26.52	-36.0	-37.3	17.5	0.00e+00	0	62	0	3922722816	41	4459
2026-01-19 14:23:05.66	342.81	26.35	-36.0	-37.3	17.4	0.00e+00	0	62	0	3930062848	41	4454
2026-01-19 14:23:06.67	342.81	26.18	-36.0	-37.3	17.2	0.00e+00	0	62	0	3937402880	41	4486
2026-01-19 14:23:07.68	342.81	26.01	-35.9	-37.2	17.4	0.00e+00	0	62	0	3944742912	41	4422
2026-01-19 14:23:08.69	342.82	25.85	-35.9	-37.2	17.4	0.00e+00	0	62	0	3952082944	41	4422
2026-01-19 14:23:09.70	342.82	25.68	-36.0	-37.3	17.2	0.00e+00	0	62	0	3959422976	41	4472
2026-01-19 14:23:10.71	342.83	25.52	-35.9	-37.2	17.4	0.00e+00	0	62	0	3966763008	41	4397
2026-01-19 14:23:11.72	342.83	25.35	-35.9	-37.2	17.3	0.00e+00	0	62	0	3974103040	41	4423
2026-01-19 14:23:12.73	342.84	25.19	-35.9	-37.2	17.3	0.00e+00	0	62	0	3980394496	41	4395
2026-01-19 14:23:13.74	342.84	25.03	-35.9	-37.2	17.3	0.00e+00	0	62	0	3988783104	41	4398
2026-01-19 14:23:14.74	342.84	24.87	-36.0	-37.3	17.2	0.00e+00	0	62	0	3996123136	41	4456
2026-01-19 14:23:15.75	342.85	24.71	-36.0	-37.3	17.1	0.00e+00	0	62	0	4002414592	41	4491
2026-01-19 14:23:16.76	342.85	24.56	-36.0	-37.3	17.1	0.00e+00	0	62	0	4009754624	41	4485
2026-01-19 14:23:17.77	342.86	24.40	-35.9	-37.1	17.3	0.00e+00	0	62	0	4017094656	41	4384
2026-01-19 14:23:18.78	342.86	24.24	-35.8	-37.1	17.2	0.00e+00	0	62	0	4024434688	41	4361
2026-01-19 14:23:19.79	342.87	24.09	-35.7	-37.0	17.4	0.00e+00	0	62	0	4031774720	41	4307
2026-01-19 14:23:20.80	342.87	23.93	-35.8	-37.1	17.2	0.00e+00	0	62	0	4039114752	41	4348
2026-01-19 14:23:21.81	342.87	23.78	-35.9	-37.1	17.1	0.00e+00	0	62	0	4046454784	41	4389
2026-01-19 14:23:22.82	342.88	23.63	-35.7	-36.9	17.2	0.00e+00	0	62	0	4053794816	41	4288
2026-01-19 14:23:23.83	342.88	23.48	-35.9	-37.2	16.9	0.00e+00	0	62	0	4061134848	41	4404
2026-01-19 14:23:24.84	342.89	23.32	-35.9	-37.3	16.8	0.00e+00	0	62	0	4068474880	41	4453
2026-01-19 14:23:25.85	342.89	23.17	-35.5	-36.7	17.3	0.00e+00	0	62	0	4075814912	41	4191
2026-01-19 14:23:26.86	342.90	23.03	-35.5	-36.7	17.2	0.00e+00	0	62	0	4083154944	41	4189
2026-01-19 14:23:27.87	342.90	22.88	-35.9	-37.3	16.6	0.00e+00	0	62	0	4090494976	41	4446
2026-01-19 14:23:28.88	342.90	22.73	-36.0	-37.4	16.3	0.00e+00	0	62	0	4097835008	41	4527
2026-01-19 14:23:29.89	342.91	22.58	-35.6	-36.9	16.5	0.00e+00	0	62	0	4105175040	41	4277
2026-01-19 14:23:30.90	342.91	22.44	-35.4	-36.7	16.4	0.00e+00	0	62	0	4112515072	41	4187
2026-01-19 14:23:31.91	342.92	22.29	-35.3	-36.7	16.5	0.00e+00	0	62	0	4119855104	41	4161
2026-01-19 14:23:32.92	342.92	22.15	-35.3	-36.7	16.5	0.00e+00	0	62	0	4126146560	41	4162
2026-01-19 14:23:33.93	342.92	22.01	-35.2	-36.6	16.5	0.00e+00	0	62	0	4133486592	41	4128
2026-01-19 14:23:34.94	342.93	21.86	-35.1	-36.5	16.5	0.00e+00	0	62	0	4141875200	41	4069
2026-01-19 14:23:35.95	342.93	21.72	-35.3	-36.7	16.2	0.00e+00	0	62	0	4148166656	41	4174
2026-01-19 14:23:36.96	342.94	21.58	-35.7	-37.2	15.5	0.00e+00	0	62	0	4155506688	41	4432
2026-01-19 14:23:37.97	342.94	21.44	-36.4	-38.1	14.5	1.10e-06	0	62	0	4162846720	42	4638
2026-01-19 14:23:38.98	342.95	21.30	-37.5	-39.5	13.0	1.37e-05	0	62	0	4170186752	44	4831
2026-01-19 14:23:39.99	342.95	21.16	-38.4	-40.9	11.3	5.83e-04	0	62	0	4177526784	46	5098
2026-01-19 14:23:41.00	342.95	21.03	-39.5	-42.7	9.3	8.00e-03	0	62	0	4184866816	48	5588
2026-01-19 14:23:42.01	342.96	20.89	-40.3	-44.5	7.4	9.17e-02	0	62	0	4192206848	50	6085
2026-01-19 14:23:43.02	342.96	20.75	-40.8	-46.3	5.7	3.14e-01	0	62	0	4199546880	51	7100
2026-01-19 14:23:44.03	342.97	20.62	-41.2	-48.0	4.6	8.05e-01	0	62	0	4200595456	52	8110
2026-01-19 14:23:45.04	342.97	20.48	-41.4	-49.8	4.0	8.38e-01	0	62	0	4200595456	52	9956
2026-01-19 14:23:46.05	342.97	20.35	-41.5	-50.6	3.8	8.45e-01	0	62	104	4200595456	52	11029
2026-01-19 14:23:47.05	342.98	20.22	-41.6	-51.5	3.8	8.46e-01	0	62	104	4200595456	52	12140
2026-01-19 14:23:48.06	342.98	20.08	-41.7	-52.0	3.8	8.47e-01	0	62	104	4200595456	52	12864
2026-01-19 14:23:49.08	342.99	19.95	-41.7	-52.5	3.8	8.46e-01	0	62	104	4200595456	53	12956
2026-01-19 14:23:50.09	342.99	19.82	-41.7	-52.4	3.8	8.47e-01	0	62	104	4200595456	53	12796
2026-01-19 14:23:51.10	343.00	19.69	-41.3	-52.1	3.8	8.46e-01	0	62	104	4200595456	53	12239
2026-01-19 14:23:52.11	343.00	19.56	-41.8	-51.8	3.8	8.46e-01	0	62	104	4200595456	53	11916
2026-01-19 14:23:53.12	343.00	19.43	-41.7	-52.1	3.8	8.45e-01	0	62	104	4200595456	53	12291
2026-01-19 14:23:54.13	343.01	19.30	-41.8	-52.0	3.8	8.45e-01	0	62	104	4200595456	53	12229
2026-01-19 14:23:55.14	343.01	19.17	-41.8	-52.1	3.8	8.46e-01	0	62	104	4200595456	53	12273
2026-01-19 14:23:56.15	343.02	19.05	-41.9	-52.1	3.8	8.46e-01	0	62	104	4200595456	53	12276
2026-01-19 14:23:57.16	343.02	18.92	-41.7	-52.5	3.8	8.46e-01	0	62	104	4200595456	53	12912
2026-01-19 14:23:58.17	343.02	18.79	-40.8	-52.2	3.8	8.45e-01	0	62	104	4200595456	52	13131
2026-01-19 14:23:59.18	343.03	18.67	-41.2	-52.1	3.8	8.45e-01	0	62	104	4200595456	52	13012
2026-01-19 14:24:00.19	343.03	18.54	-41.2	-52.1	3.8	8.46e-01	0	62	104	4200595456	52	12979
2026-01-19 14:24:01.20	343.04	18.42	-40.8	-52.2	3.8	8.47e-01	0	62	104	4200595456	52	13191
2026-01-19 14:24:02.20	343.04	18.30	-41.5	-52.4	3.8	8.46e-01	0	62	104	4200595456	52	13427
2026-01-19 14:24:03.21	343.05	18.18	-41.2	-52.2	3.8	8.47e-01	0	62	104	4200595456	52	13114
2026-01-19 14:24:04.22	343.05	18.05	-41.1	-52.2	3.8	8.47e-01	0	62	104	4200595456	52	13122
2026-01-19 14:24:05.23	343.05	17.93	-40.7	-52.2	3.8	8.46e-01	0	62	104	4200595456	52	13131
2026-01-19 14:24:06.24	343.06	17.81	-41.3	-52.1	3.8	8.46e-01	0	62	104	4200595456	52	13075
2026-01-19 14:24:07.25	343.06	17.69	-41.0	-52.3	3.8	8.46e-01	0	62	104	4200595456	52	13263
2026-01-19 14:24:08.26	343.07	17.57	-40.9	-52.2	3.8	8.44e-01	0	62	104	4200595456	52	13185
2026-01-19 14:24:09.27	343.07	17.45	-40.8	-52.1	3.8	8.47e-01	0	62	104	4200595456	52	13079
2026-01-19 14:24:10.28	343.07	17.33	-41.0	-52.1	3.8	8.46e-01	0	62	104	4200595456	52	13066
2026-01-19 14:24:11.29	343.08	17.22	-40.9	-52.2	3.8	8.46e-01	0	62	104	4200595456	52	13260
2026-01-19 14:24:12.30	343.08	17.10	-40.7	-52.1	3.8	8.47e-01	0	62	104	4200595456	52	13076
2026-01-19 14:24:13.31	343.09	16.98	-40.9	-52.1	3.8	8.46e-01	0	62	104	4200595456	52	13000
2026-01-19 14:24:14.32	343.09	16.87	-40.8	-52.2	3.8	8.46e-01	0	62	104	4200595456	52	13165
2026-01-19 14:24:15.33	343.09	16.75	-41.0	-52.1	3.8	8.46e-01	0	62	104	4200595456	52	13095
2026-01-19 14:24:16.34	343.10	16.63	-40.7	-52.0	3.8	8.46e-01	0	62	104	4200595456	52	12954
2026-01-19 14:24:17.35	343.10	16.52	-41.1	-52.1	3.8	8.47e-01	0	62	104	4200595456	52	13091
