passes_logs/2026/01/19/R2.0S_Moscow/R2.0S_Moscow__20260119_234043_SUOMI_NPP_rec.log

#Pass ID: 20260119_234043_SUOMI NPP
#Satellite: SUOMI NPP
#Configuration: NPP
#almurnet v.1.7.20251203
#Start time: 2026-01-19 23:40:45

#Version: 2.2.20231116
#Station: R2.0S_Moscow
#Location: 37.707566 lon 55.798166 lat
#TLE: 1 37849U 11061A   26019.26265094  .00000081  00000+0  59609-4 0  9993
#TLE: 2 37849  98.7817 321.2746 0002356  56.2510 303.8890 14.19526363737315

#Time	Az	El	Level	Level2	SNR	BER	BlckErr	Temp	State	Recorded	gain1	gain2
2026-01-19 23:40:45.50	16.53	2.15	-42.1	-57.1	3.8	1.49e+00	0	53	0	0	56	19493
2026-01-19 23:40:46.50	16.54	2.21	-41.9	-56.9	3.8	1.49e+00	0	53	104	0	55	20241
2026-01-19 23:40:47.51	16.55	2.28	-41.9	-56.9	3.8	1.49e+00	0	53	104	0	55	20224
2026-01-19 23:40:48.52	16.56	2.34	-41.9	-56.9	3.8	1.49e+00	0	53	104	0	55	20199
2026-01-19 23:40:49.53	16.56	2.41	-41.9	-56.9	3.8	1.49e+00	0	53	104	0	55	20174
2026-01-19 23:40:50.54	16.57	2.47	-41.9	-56.9	3.8	1.49e+00	0	53	104	0	55	20215
2026-01-19 23:40:51.55	16.58	2.54	-41.9	-56.9	3.8	1.49e+00	0	53	104	0	55	20180
2026-01-19 23:40:52.56	16.58	2.60	-42.0	-57.0	3.8	1.49e+00	0	53	104	0	55	20344
2026-01-19 23:40:53.57	16.59	2.67	-41.9	-56.9	3.8	1.49e+00	0	53	104	0	55	20227
2026-01-19 23:40:54.57	16.60	2.73	-41.9	-56.9	3.8	1.49e+00	0	53	104	0	55	20168
2026-01-19 23:40:55.58	16.61	2.80	-41.9	-56.9	3.8	1.49e+00	0	54	104	0	55	20240
2026-01-19 23:40:56.59	16.61	2.87	-41.9	-56.9	3.8	1.49e+00	0	54	104	0	55	20250
2026-01-19 23:40:57.61	16.62	2.93	-41.9	-56.9	3.8	1.49e+00	0	54	104	0	55	20191
2026-01-19 23:40:58.62	16.63	3.00	-41.9	-56.9	3.8	1.49e+00	0	54	104	0	55	20182
2026-01-19 23:40:59.63	16.64	3.07	-41.9	-56.9	3.8	1.49e+00	0	54	104	0	55	20170
2026-01-19 23:41:00.64	16.64	3.13	-41.9	-56.9	3.8	1.49e+00	0	54	104	0	55	20225
2026-01-19 23:41:01.65	16.65	3.20	-41.9	-56.9	3.8	1.49e+00	0	54	104	0	55	20211
2026-01-19 23:41:02.65	16.66	3.27	-41.9	-56.9	3.8	1.49e+00	0	54	104	0	55	20230
2026-01-19 23:41:03.67	16.66	3.34	-41.9	-56.9	3.8	1.49e+00	0	54	104	0	55	20128
2026-01-19 23:41:04.68	16.67	3.40	-41.9	-56.9	3.8	1.49e+00	0	54	104	0	55	20196
2026-01-19 23:41:05.69	16.68	3.47	-41.9	-56.9	3.8	1.49e+00	0	54	104	0	55	20181
2026-01-19 23:41:06.70	16.69	3.54	-41.9	-56.9	3.8	1.49e+00	0	54	104	0	55	20187
2026-01-19 23:41:07.71	16.69	3.61	-41.9	-56.9	3.8	1.49e+00	0	54	104	0	55	20111
2026-01-19 23:41:08.72	16.70	3.67	-41.9	-56.9	3.8	1.49e+00	0	54	104	0	55	20181
2026-01-19 23:41:09.73	16.71	3.74	-41.9	-56.9	3.8	1.49e+00	0	55	104	0	55	20184
2026-01-19 23:41:10.74	16.72	3.81	-41.9	-56.9	3.8	1.49e+00	0	55	104	0	55	20241
2026-01-19 23:41:11.75	16.72	3.88	-41.9	-56.9	3.8	1.49e+00	0	55	104	0	55	20156
2026-01-19 23:41:12.76	16.73	3.95	-41.9	-56.9	3.8	1.49e+00	0	55	104	0	55	20137
2026-01-19 23:41:13.77	16.74	4.02	-41.9	-56.9	3.8	1.49e+00	0	55	104	0	55	20156
2026-01-19 23:41:14.78	16.75	4.09	-41.9	-56.9	3.8	1.49e+00	0	55	104	0	55	20165
2026-01-19 23:41:15.79	16.75	4.16	-41.9	-56.9	3.8	1.49e+00	0	55	104	0	55	20165
2026-01-19 23:41:16.80	16.76	4.23	-41.9	-56.9	3.8	1.49e+00	0	55	104	0	55	20140
2026-01-19 23:41:17.81	16.77	4.30	-41.9	-56.9	3.8	1.49e+00	0	55	104	0	55	20201
2026-01-19 23:41:18.82	16.78	4.37	-41.9	-56.9	3.8	1.49e+00	0	55	104	0	55	20237
2026-01-19 23:41:19.83	16.78	4.44	-41.9	-56.9	3.8	1.49e+00	0	55	104	0	55	20122
2026-01-19 23:41:20.84	16.79	4.51	-41.9	-56.9	3.8	1.49e+00	0	55	104	0	55	20191
2026-01-19 23:41:21.85	16.80	4.58	-41.9	-56.9	3.8	1.49e+00	0	55	104	0	55	20161
2026-01-19 23:41:22.86	16.81	4.65	-41.9	-56.9	3.8	1.49e+00	0	55	104	0	55	20189
2026-01-19 23:41:23.87	16.81	4.72	-41.9	-56.9	3.8	1.49e+00	0	55	104	0	55	20264
2026-01-19 23:41:24.89	16.82	4.79	-41.9	-56.9	3.8	1.49e+00	0	55	104	0	55	20147
2026-01-19 23:41:25.90	16.83	4.86	-41.9	-56.9	3.8	1.49e+00	0	55	104	0	55	20164
2026-01-19 23:41:26.91	16.84	4.93	-41.9	-56.9	3.8	1.49e+00	0	55	104	0	55	20174
2026-01-19 23:41:27.92	16.85	5.01	-41.9	-56.9	3.8	1.49e+00	0	56	104	0	55	20100
2026-01-19 23:41:28.93	16.85	5.08	-41.9	-56.9	3.8	1.49e+00	0	56	104	0	55	20224
2026-01-19 23:41:29.94	16.86	5.15	-41.9	-56.9	3.8	1.49e+00	0	55	104	0	55	20144
2026-01-19 23:41:30.95	16.87	5.22	-41.9	-56.9	3.8	1.49e+00	0	56	104	0	55	20192
2026-01-19 23:41:31.96	16.88	5.29	-41.9	-56.9	3.8	1.49e+00	0	56	104	0	55	20179
2026-01-19 23:41:32.97	16.88	5.37	-41.9	-56.9	3.8	1.49e+00	0	56	104	0	55	20174
2026-01-19 23:41:33.98	16.89	5.44	-41.9	-56.9	3.8	1.49e+00	0	56	104	0	55	20132
2026-01-19 23:41:34.99	16.90	5.51	-41.9	-56.9	3.8	1.49e+00	0	56	104	0	55	20164
2026-01-19 23:41:36.00	16.91	5.59	-41.9	-56.9	3.8	1.49e+00	0	56	104	0	55	20146
2026-01-19 23:41:37.01	16.92	5.66	-41.9	-56.9	3.8	1.49e+00	0	56	104	0	55	20140
2026-01-19 23:41:38.02	16.92	5.73	-41.9	-56.9	3.8	1.49e+00	0	56	104	0	55	20135
2026-01-19 23:41:39.03	16.93	5.81	-41.9	-56.9	3.8	1.49e+00	0	56	104	0	55	20089
2026-01-19 23:41:40.05	16.94	5.88	-41.9	-56.9	3.8	1.49e+00	0	56	104	0	55	20152
2026-01-19 23:41:41.06	16.95	5.96	-41.9	-56.9	3.8	1.49e+00	0	56	104	0	55	20164
2026-01-19 23:41:42.07	16.95	6.03	-41.9	-56.9	3.8	1.49e+00	0	56	104	0	55	20142
2026-01-19 23:41:43.08	16.96	6.11	-41.9	-56.9	3.8	1.49e+00	0	56	104	0	55	20154
2026-01-19 23:41:44.09	16.97	6.18	-41.9	-56.9	3.8	1.49e+00	0	56	104	0	55	20149
2026-01-19 23:41:45.10	16.98	6.26	-41.9	-56.9	3.8	1.49e+00	0	56	104	0	55	20164
2026-01-19 23:41:46.11	16.99	6.33	-41.9	-56.9	3.8	1.49e+00	0	56	104	0	55	20140
2026-01-19 23:41:47.12	16.99	6.41	-41.9	-56.9	3.8	1.49e+00	0	56	104	0	55	20115
2026-01-19 23:41:48.13	17.00	6.48	-41.9	-56.9	3.8	1.49e+00	0	56	104	0	55	20085
2026-01-19 23:41:49.14	17.01	6.56	-41.9	-56.8	3.8	1.49e+00	0	57	104	0	55	19971
2026-01-19 23:41:50.15	17.02	6.63	-41.9	-56.8	3.8	1.49e+00	0	57	104	0	55	19900
2026-01-19 23:41:51.16	17.03	6.71	-41.9	-56.8	3.8	1.49e+00	0	57	104	0	55	19925
2026-01-19 23:41:52.17	17.04	6.79	-41.9	-56.8	3.8	1.49e+00	0	57	104	0	55	19868
2026-01-19 23:41:53.18	17.04	6.86	-41.9	-56.8	3.8	1.49e+00	0	57	104	0	55	19920
2026-01-19 23:41:54.19	17.05	6.94	-41.9	-56.8	3.8	1.49e+00	0	57	104	0	55	19950
2026-01-19 23:41:55.20	17.06	7.02	-41.9	-56.7	3.8	1.49e+00	0	57	104	0	55	19712
2026-01-19 23:41:56.21	17.07	7.10	-41.9	-56.4	3.8	1.49e+00	0	57	104	0	55	19141
2026-01-19 23:41:57.22	17.08	7.17	-41.9	-56.1	3.8	1.49e+00	0	57	104	0	55	18482
2026-01-19 23:41:58.23	17.08	7.25	-41.9	-55.8	3.8	1.49e+00	0	57	104	0	55	17711
2026-01-19 23:41:59.24	17.09	7.33	-41.8	-55.4	3.8	1.49e+00	0	57	104	0	55	17019
2026-01-19 23:42:00.25	17.10	7.41	-41.8	-55.0	3.8	1.49e+00	0	57	104	0	55	16276
2026-01-19 23:42:01.26	17.11	7.49	-41.7	-54.2	3.9	1.48e+00	0	57	104	0	55	14739
2026-01-19 23:42:02.27	17.12	7.57	-41.7	-53.2	4.2	1.42e+00	0	57	0	0	55	13158
2026-01-19 23:42:03.28	17.13	7.65	-41.6	-52.1	4.6	1.28e+00	0	57	0	0	55	11610
2026-01-19 23:42:04.29	17.13	7.73	-41.4	-50.9	5.2	6.57e-01	0	57	0	2097152	54	10752
2026-01-19 23:42:05.30	17.14	7.81	-41.3	-50.1	5.8	4.40e-01	0	57	0	4194304	54	9757
2026-01-19 23:42:06.31	17.15	7.89	-41.2	-49.1	6.6	2.71e-01	0	57	0	6291456	54	8703
2026-01-19 23:42:07.32	17.16	7.97	-41.0	-48.6	7.0	1.93e-01	0	58	0	8388608	54	8213
2026-01-19 23:42:08.33	17.17	8.05	-41.1	-48.1	7.4	1.50e-01	0	57	0	10485760	54	7796
2026-01-19 23:42:09.34	17.18	8.13	-41.8	-49.3	6.9	9.02e-02	0	57	0	11534336	54	8945
2026-01-19 23:42:10.35	17.18	8.21	-41.6	-51.7	4.7	1.14e+00	0	57	104	12582912	54	11785
2026-01-19 23:42:11.37	17.19	8.29	-42.1	-50.0	6.2	3.86e-01	0	58	0	13631488	54	9685
2026-01-19 23:42:12.37	17.20	8.37	-42.1	-48.9	7.6	2.59e-01	0	58	0	15728640	55	8009
2026-01-19 23:42:13.38	17.21	8.45	-41.7	-55.7	3.8	1.42e+00	0	58	104	15728640	55	17568
2026-01-19 23:42:14.39	17.22	8.54	-41.9	-48.3	8.1	7.19e-02	0	58	0	15728640	55	7470
2026-01-19 23:42:15.41	17.23	8.62	-41.8	-48.0	8.3	5.46e-02	0	58	0	17825792	55	7274
2026-01-19 23:42:16.41	17.24	8.70	-41.9	-48.0	8.4	4.86e-02	0	58	0	19922944	55	7243
2026-01-19 23:42:17.42	17.24	8.79	-41.9	-48.2	8.2	4.91e-02	0	58	0	20971520	55	7447
2026-01-19 23:42:18.43	17.25	8.87	-41.9	-48.1	8.4	5.09e-02	0	58	0	23068672	55	7352
2026-01-19 23:42:19.45	17.26	8.95	-41.9	-47.9	8.6	4.32e-02	0	58	0	25165824	55	7183
2026-01-19 23:42:20.46	17.27	9.04	-41.9	-47.9	8.6	3.67e-02	0	58	0	27262976	55	7145
2026-01-19 23:42:21.47	17.28	9.12	-42.0	-48.1	8.5	3.50e-02	0	58	0	29360128	55	7306
2026-01-19 23:42:22.47	17.29	9.20	-41.9	-47.8	8.8	3.92e-02	0	58	0	30408704	55	7053
2026-01-19 23:42:23.48	17.30	9.29	-41.8	-47.4	9.4	2.25e-02	0	58	0	32505856	55	6728
2026-01-19 23:42:24.49	17.31	9.37	-41.9	-47.7	9.0	2.51e-02	0	58	0	34603008	55	7015
2026-01-19 23:42:25.50	17.31	9.46	-41.9	-47.7	9.1	2.96e-02	0	58	0	36700160	55	6962
2026-01-19 23:42:26.51	17.32	9.54	-41.9	-47.6	9.2	1.95e-02	0	58	0	38797312	55	6890
2026-01-19 23:42:27.52	17.33	9.63	-41.9	-47.7	9.1	2.23e-02	0	58	0	39845888	55	6967
2026-01-19 23:42:28.53	17.34	9.72	-41.9	-47.5	9.4	1.95e-02	0	58	0	41943040	55	6818
2026-01-19 23:42:29.54	17.35	9.80	-42.0	-47.6	9.2	1.54e-02	0	58	0	44040192	55	6898
2026-01-19 23:42:30.55	17.36	9.89	-41.9	-47.3	9.7	1.29e-02	0	58	0	46137344	55	6660
2026-01-19 23:42:31.56	17.37	9.98	-41.9	-47.3	9.7	1.25e-02	0	58	0	48234496	55	6666
2026-01-19 23:42:32.57	17.38	10.06	-42.0	-47.4	9.6	1.27e-02	0	58	0	49283072	55	6747
2026-01-19 23:42:33.58	17.39	10.15	-42.0	-47.4	9.6	1.18e-02	0	58	0	51380224	55	6724
2026-01-19 23:42:34.59	17.40	10.24	-42.1	-47.4	9.6	1.14e-02	0	58	0	53477376	55	6791
2026-01-19 23:42:35.60	17.40	10.33	-42.0	-47.3	9.7	1.01e-02	0	58	0	55574528	55	6715
2026-01-19 23:42:36.61	17.41	10.42	-42.0	-47.1	10.0	8.09e-03	0	58	0	57671680	55	6502
2026-01-19 23:42:37.62	17.42	10.51	-42.0	-47.2	9.9	9.38e-03	0	58	0	59768832	55	6593
2026-01-19 23:42:38.63	17.43	10.60	-42.0	-47.1	10.0	8.19e-03	0	58	0	60817408	55	6551
2026-01-19 23:42:39.64	17.44	10.69	-42.0	-47.1	10.0	8.56e-03	0	58	0	62914560	55	6541
2026-01-19 23:42:40.64	17.45	10.77	-42.0	-47.0	10.1	9.10e-03	0	58	0	65011712	55	6477
2026-01-19 23:42:41.65	17.46	10.86	-42.1	-47.1	10.0	7.21e-03	0	58	0	67108864	55	6569
2026-01-19 23:42:42.66	17.47	10.96	-42.0	-47.0	10.2	7.52e-03	0	58	0	69206016	55	6460
2026-01-19 23:42:43.67	17.48	11.05	-42.0	-46.9	10.3	5.99e-03	0	58	0	70254592	55	6412
2026-01-19 23:42:44.68	17.49	11.14	-42.0	-47.0	10.2	5.35e-03	0	58	0	72351744	55	6441
2026-01-19 23:42:45.69	17.50	11.23	-42.1	-47.0	10.2	5.48e-03	0	59	0	74448896	55	6483
2026-01-19 23:42:46.70	17.51	11.32	-42.0	-47.0	10.3	6.13e-03	0	59	0	76546048	55	6445
2026-01-19 23:42:47.71	17.52	11.41	-42.1	-47.0	10.3	4.99e-03	0	58	0	78643200	55	6480
2026-01-19 23:42:48.72	17.53	11.51	-42.0	-46.9	10.4	4.69e-03	0	59	0	79691776	55	6375
2026-01-19 23:42:49.73	17.54	11.60	-42.0	-46.7	10.6	3.47e-03	0	59	0	81788928	55	6265
2026-01-19 23:42:50.74	17.55	11.69	-42.0	-46.8	10.6	3.97e-03	0	59	0	83886080	55	6279
2026-01-19 23:42:51.75	17.56	11.79	-42.0	-46.7	10.6	3.49e-03	0	59	0	85983232	55	6260
2026-01-19 23:42:52.76	17.56	11.88	-42.0	-46.7	10.6	3.26e-03	0	59	0	88080384	55	6263
2026-01-19 23:42:53.77	17.57	11.97	-41.9	-46.6	10.8	2.86e-03	0	59	0	89128960	55	6162
2026-01-19 23:42:54.78	17.58	12.07	-41.9	-46.6	10.8	2.78e-03	0	59	0	91226112	55	6147
2026-01-19 23:42:55.79	17.59	12.16	-41.9	-46.5	10.9	2.05e-03	0	59	0	93323264	55	6079
2026-01-19 23:42:56.80	17.60	12.26	-41.9	-46.4	11.0	1.99e-03	0	59	0	95420416	55	6034
2026-01-19 23:42:57.80	17.61	12.36	-41.9	-46.5	10.9	2.09e-03	0	59	0	97517568	55	6080
2026-01-19 23:42:58.81	17.62	12.45	-41.9	-46.5	11.0	1.99e-03	0	59	0	98566144	55	6065
2026-01-19 23:42:59.82	17.63	12.55	-41.9	-46.4	11.0	1.95e-03	0	59	0	100663296	55	6051
2026-01-19 23:43:00.83	17.64	12.65	-41.9	-46.4	11.0	1.59e-03	0	59	0	102760448	55	6057
2026-01-19 23:43:01.84	17.65	12.74	-41.9	-46.3	11.1	1.51e-03	0	59	0	104857600	55	5961
2026-01-19 23:43:02.85	17.66	12.84	-41.8	-46.1	11.3	1.13e-03	0	59	0	106954752	55	5845
2026-01-19 23:43:03.86	17.67	12.94	-41.8	-46.2	11.2	1.25e-03	0	59	0	108003328	55	5911
2026-01-19 23:43:04.87	17.68	13.04	-41.8	-46.2	11.3	1.12e-03	0	59	0	110100480	55	5885
2026-01-19 23:43:05.88	17.69	13.14	-41.8	-46.2	11.3	1.14e-03	0	59	0	112197632	55	5886
2026-01-19 23:43:06.89	17.70	13.24	-41.7	-46.0	11.5	9.45e-04	0	59	0	114294784	55	5760
2026-01-19 23:43:07.90	17.71	13.34	-41.8	-46.1	11.4	1.01e-03	0	59	0	116391936	55	5853
2026-01-19 23:43:08.90	17.72	13.44	-41.7	-46.0	11.5	8.19e-04	0	59	0	117440512	55	5751
2026-01-19 23:43:09.92	17.73	13.54	-41.7	-46.0	11.6	8.58e-04	0	59	0	119537664	55	5723
2026-01-19 23:43:10.93	17.75	13.64	-41.8	-46.0	11.5	8.73e-04	0	59	0	121634816	55	5765
2026-01-19 23:43:11.93	17.76	13.74	-41.7	-45.9	11.6	8.07e-04	0	59	0	123731968	55	5705
2026-01-19 23:43:12.94	17.77	13.84	-41.8	-46.0	11.6	6.99e-04	0	59	0	125829120	55	5748
2026-01-19 23:43:13.95	17.78	13.94	-41.8	-45.9	11.7	5.71e-04	0	59	0	127926272	55	5711
2026-01-19 23:43:14.96	17.79	14.05	-41.7	-45.9	11.8	5.54e-04	0	59	0	128974848	55	5661
2026-01-19 23:43:15.97	17.80	14.15	-41.8	-45.9	11.7	5.68e-04	0	59	0	131072000	55	5697
2026-01-19 23:43:16.98	17.81	14.25	-41.8	-46.0	11.7	4.63e-04	0	59	0	133169152	55	5726
2026-01-19 23:43:17.99	17.82	14.36	-41.8	-45.8	11.9	3.87e-04	0	59	0	135266304	55	5638
2026-01-19 23:43:19.00	17.83	14.46	-41.8	-45.9	11.8	4.62e-04	0	59	0	137363456	55	5661
2026-01-19 23:43:20.01	17.84	14.57	-41.7	-45.7	12.0	5.09e-04	0	59	0	138412032	55	5553
2026-01-19 23:43:21.02	17.85	14.67	-41.8	-45.8	11.9	4.37e-04	0	59	0	140509184	55	5650
2026-01-19 23:43:22.03	17.86	14.78	-41.8	-45.8	11.9	4.08e-04	0	59	0	142606336	55	5631
2026-01-19 23:43:23.04	17.87	14.89	-41.8	-45.8	11.9	3.64e-04	0	60	0	144703488	55	5631
2026-01-19 23:43:24.05	17.88	14.99	-41.7	-45.7	12.1	4.19e-04	0	59	0	146800640	55	5544
2026-01-19 23:43:25.06	17.90	15.10	-41.8	-45.8	11.9	3.42e-04	0	60	0	147849216	55	5638
2026-01-19 23:43:26.07	17.91	15.21	-41.7	-45.7	12.0	3.30e-04	0	59	0	149946368	55	5579
2026-01-19 23:43:27.08	17.92	15.32	-41.8	-45.8	12.0	3.26e-04	0	60	0	152043520	55	5614
2026-01-19 23:43:28.09	17.93	15.42	-41.7	-45.6	12.2	3.77e-04	0	59	0	154140672	55	5492
2026-01-19 23:43:29.10	17.94	15.53	-41.8	-45.9	11.9	3.79e-04	0	60	0	156237824	55	5677
2026-01-19 23:43:30.11	17.95	15.64	-41.8	-45.8	11.9	3.13e-04	0	60	0	157286400	55	5654
2026-01-19 23:43:31.12	17.96	15.75	-41.7	-45.6	12.1	2.25e-04	0	60	0	159383552	55	5503
2026-01-19 23:43:32.13	17.97	15.87	-41.7	-45.6	12.1	2.37e-04	0	60	0	161480704	55	5516
2026-01-19 23:43:33.14	17.98	15.98	-41.7	-45.7	12.1	2.65e-04	0	60	0	163577856	55	5530
2026-01-19 23:43:34.15	18.00	16.09	-41.7	-45.6	12.1	2.27e-04	0	60	0	165675008	55	5527
2026-01-19 23:43:35.16	18.01	16.20	-41.7	-45.6	12.2	2.27e-04	0	60	0	166723584	55	5496
2026-01-19 23:43:36.17	18.02	16.31	-41.7	-45.6	12.2	2.48e-04	0	60	0	168820736	55	5506
2026-01-19 23:43:37.18	18.03	16.43	-41.7	-45.5	12.3	2.55e-04	0	60	0	170917888	55	5443
2026-01-19 23:43:38.19	18.04	16.54	-41.7	-45.6	12.2	2.35e-04	0	60	0	173015040	55	5466
2026-01-19 23:43:39.20	18.05	16.66	-41.7	-45.5	12.3	1.82e-04	0	60	0	175112192	55	5439
2026-01-19 23:43:40.20	18.07	16.77	-41.7	-45.6	12.2	1.78e-04	0	60	0	176160768	55	5492
2026-01-19 23:43:41.21	18.08	16.88	-41.6	-45.5	12.4	1.75e-04	0	60	0	178257920	55	5405
2026-01-19 23:43:42.22	18.09	17.00	-41.8	-45.7	12.2	2.27e-04	0	60	0	180355072	55	5555
2026-01-19 23:43:43.23	18.10	17.12	-41.7	-45.6	12.3	1.98e-04	0	60	0	182452224	55	5504
2026-01-19 23:43:44.24	18.11	17.23	-41.7	-45.6	12.2	2.12e-04	0	60	0	184549376	55	5509
2026-01-19 23:43:45.25	18.13	17.35	-41.8	-45.6	12.3	2.08e-04	0	60	0	185597952	55	5518
2026-01-19 23:43:46.26	18.14	17.47	-41.8	-45.7	12.2	2.12e-04	0	60	0	187695104	55	5588
2026-01-19 23:43:47.27	18.15	17.59	-41.9	-45.8	12.1	2.43e-04	0	60	0	189792256	55	5636
2026-01-19 23:43:48.28	18.16	17.71	-41.9	-45.9	12.0	2.94e-04	0	60	0	191889408	55	5698
2026-01-19 23:43:49.29	18.18	17.83	-42.0	-45.9	12.0	3.23e-04	0	60	0	193986560	55	5719
2026-01-19 23:43:50.30	18.19	17.95	-42.0	-46.1	11.9	4.28e-04	0	60	0	196083712	55	5806
2026-01-19 23:43:51.31	18.20	18.07	-42.1	-46.2	11.7	4.52e-04	0	60	0	197132288	55	5903
2026-01-19 23:43:52.32	18.21	18.19	-42.0	-46.2	11.8	5.00e-04	0	60	0	199229440	55	5863
2026-01-19 23:43:53.33	18.23	18.32	-42.1	-46.1	11.8	4.71e-04	0	60	0	201326592	55	5854
2026-01-19 23:43:54.34	18.24	18.44	-42.1	-46.2	11.8	5.28e-04	0	60	0	203423744	55	5889
2026-01-19 23:43:55.35	18.25	18.56	-42.2	-46.4	11.6	6.08e-04	0	60	0	205520896	55	6000
2026-01-19 23:43:56.36	18.26	18.69	-42.1	-46.3	11.6	6.43e-04	0	60	0	206569472	55	5988
2026-01-19 23:43:57.37	18.28	18.81	-42.2	-46.5	11.4	6.70e-04	0	60	0	208666624	55	6106
2026-01-19 23:43:58.38	18.29	18.94	-42.1	-46.3	11.7	7.12e-04	0	60	0	210763776	55	5925
2026-01-19 23:43:59.39	18.30	19.06	-42.2	-46.3	11.6	5.52e-04	0	60	0	212860928	55	5980
2026-01-19 23:44:00.40	18.32	19.19	-42.1	-46.3	11.7	6.90e-04	0	60	0	214958080	55	5935
2026-01-19 23:44:01.41	18.33	19.32	-42.2	-46.3	11.6	8.03e-04	0	60	0	216006656	55	5992
2026-01-19 23:44:02.42	18.34	19.45	-42.2	-46.4	11.5	8.73e-04	0	60	0	218103808	55	6045
2026-01-19 23:44:03.43	18.36	19.58	-42.3	-46.7	11.3	1.04e-03	0	60	0	220200960	55	6205
2026-01-19 23:44:04.43	18.37	19.70	-42.4	-46.7	11.3	1.05e-03	0	60	0	222298112	55	6245
2026-01-19 23:44:05.44	18.38	19.84	-42.3	-46.7	11.3	9.96e-04	0	60	0	224395264	55	6236
2026-01-19 23:44:06.45	18.40	19.97	-42.4	-46.8	11.1	1.20e-03	0	60	0	225443840	55	6333
2026-01-19 23:44:07.46	18.41	20.10	-42.4	-46.8	11.2	1.33e-03	0	60	0	227540992	55	6275
2026-01-19 23:44:08.48	18.42	20.23	-42.5	-47.1	10.9	2.01e-03	0	60	0	229638144	55	6532
2026-01-19 23:44:09.49	18.44	20.36	-42.6	-47.2	10.8	2.36e-03	0	60	0	231735296	55	6610
2026-01-19 23:44:10.50	18.45	20.50	-42.6	-47.2	10.8	2.57e-03	0	60	0	233832448	55	6622
2026-01-19 23:44:11.50	18.47	20.63	-42.6	-47.4	10.6	3.45e-03	0	60	0	234881024	55	6764
2026-01-19 23:44:12.51	18.48	20.77	-42.7	-47.5	10.5	3.56e-03	0	60	0	236978176	55	6838
2026-01-19 23:44:13.52	18.49	20.90	-42.8	-47.7	10.5	3.91e-03	0	60	0	239075328	56	6601
2026-01-19 23:44:14.53	18.51	21.04	-42.9	-47.8	10.4	5.86e-03	0	60	0	241172480	56	6676
2026-01-19 23:44:15.54	18.52	21.18	-43.0	-48.0	10.3	5.53e-03	0	60	0	243269632	56	6808
2026-01-19 23:44:16.55	18.54	21.32	-42.9	-47.9	10.3	5.49e-03	0	60	0	244318208	56	6767
2026-01-19 23:44:17.56	18.55	21.45	-42.9	-47.9	10.3	6.07e-03	0	60	0	246415360	56	6735
2026-01-19 23:44:18.57	18.57	21.59	-42.9	-47.8	10.4	5.21e-03	0	60	0	248512512	56	6701
2026-01-19 23:44:19.58	18.58	21.73	-43.0	-47.9	10.3	4.94e-03	0	60	0	250609664	56	6787
2026-01-19 23:44:20.59	18.60	21.88	-43.0	-47.9	10.3	4.55e-03	0	60	0	252706816	56	6761
2026-01-19 23:44:21.60	18.61	22.02	-42.9	-47.8	10.4	4.31e-03	0	60	0	253755392	56	6696
2026-01-19 23:44:22.60	18.63	22.16	-42.9	-47.8	10.4	4.62e-03	0	60	0	255852544	56	6687
2026-01-19 23:44:23.61	18.64	22.30	-42.9	-47.8	10.4	4.29e-03	0	60	0	257949696	56	6677
2026-01-19 23:44:24.62	18.66	22.45	-43.0	-48.0	10.2	4.26e-03	0	60	0	260046848	56	6820
2026-01-19 23:44:25.63	18.67	22.59	-43.0	-47.8	10.4	4.77e-03	0	60	0	262144000	56	6719
2026-01-19 23:44:26.64	18.69	22.74	-43.0	-48.0	10.3	5.62e-03	0	61	0	264241152	56	6816
2026-01-19 23:44:27.65	18.70	22.89	-43.0	-47.9	10.3	6.42e-03	0	61	0	265289728	56	6796
2026-01-19 23:44:28.66	18.72	23.03	-43.0	-47.9	10.3	5.36e-03	0	60	0	267386880	56	6782
2026-01-19 23:44:29.67	18.73	23.18	-43.0	-48.0	10.2	5.91e-03	0	61	0	269484032	56	6838
2026-01-19 23:44:30.68	18.75	23.33	-43.1	-48.1	10.1	6.29e-03	0	60	0	271581184	56	6927
2026-01-19 23:44:31.69	18.77	23.48	-43.1	-48.1	10.2	6.11e-03	0	60	0	273678336	56	6887
2026-01-19 23:44:32.70	18.78	23.63	-43.0	-48.0	10.3	5.25e-03	0	61	0	274726912	56	6806
2026-01-19 23:44:33.71	18.80	23.79	-42.9	-47.6	10.6	4.47e-03	0	61	0	276824064	56	6564
2026-01-19 23:44:34.72	18.82	23.94	-42.9	-47.6	10.6	4.16e-03	0	61	0	278921216	56	6537
2026-01-19 23:44:35.73	18.83	24.09	-42.9	-47.5	10.8	2.65e-03	0	60	0	281018368	56	6461
2026-01-19 23:44:36.74	18.85	24.25	-43.0	-47.7	10.6	2.54e-03	0	61	0	283115520	56	6602
2026-01-19 23:44:37.75	18.86	24.40	-42.8	-47.4	11.0	2.58e-03	0	61	0	284164096	56	6362
2026-01-19 23:44:38.76	18.88	24.56	-42.8	-47.3	11.0	1.83e-03	0	61	0	286261248	56	6329
2026-01-19 23:44:39.77	18.90	24.72	-42.9	-47.4	10.9	2.07e-03	0	60	0	288358400	56	6395
2026-01-19 23:44:40.78	18.92	24.88	-42.8	-47.2	11.1	2.15e-03	0	60	0	290455552	56	6239
2026-01-19 23:44:41.78	18.93	25.04	-42.8	-47.2	11.1	1.57e-03	0	61	0	292552704	56	6254
2026-01-19 23:44:42.79	18.95	25.20	-42.9	-47.6	10.7	2.07e-03	0	60	0	293601280	56	6531
2026-01-19 23:44:43.80	18.97	25.36	-42.9	-47.4	10.9	1.77e-03	0	61	0	295698432	56	6410
2026-01-19 23:44:44.81	18.99	25.52	-42.9	-47.4	10.9	1.56e-03	0	61	0	297795584	56	6420
2026-01-19 23:44:45.82	19.00	25.68	-42.8	-47.2	11.2	2.22e-03	0	61	0	299892736	56	6210
2026-01-19 23:44:46.83	19.02	25.85	-42.6	-46.9	11.5	1.17e-03	0	61	0	301989888	56	6003
2026-01-19 23:44:47.84	19.04	26.01	-42.7	-46.9	11.4	1.04e-03	0	61	0	303038464	56	6060
2026-01-19 23:44:48.85	19.06	26.18	-42.5	-46.5	11.8	7.00e-04	0	61	0	305135616	56	5775
2026-01-19 23:44:49.86	19.08	26.35	-42.5	-46.4	12.0	3.74e-04	0	61	0	307232768	56	5717
2026-01-19 23:44:50.87	19.10	26.52	-42.5	-46.6	11.8	6.13e-04	0	61	0	309329920	56	5791
2026-01-19 23:44:51.88	19.11	26.69	-42.4	-46.4	11.9	3.91e-04	0	61	0	311427072	56	5713
2026-01-19 23:44:52.89	19.13	26.86	-42.4	-46.3	12.1	3.49e-04	0	61	0	312475648	56	5637
2026-01-19 23:44:53.90	19.15	27.03	-42.4	-46.3	12.1	3.93e-04	0	61	0	314572800	56	5654
2026-01-19 23:44:54.91	19.17	27.20	-42.5	-46.6	11.7	3.69e-04	0	61	0	316669952	56	5854
2026-01-19 23:44:55.92	19.19	27.38	-42.6	-46.7	11.7	3.78e-04	0	61	0	318767104	56	5877
2026-01-19 23:44:56.93	19.21	27.55	-42.5	-46.5	11.9	3.62e-04	0	61	0	320864256	56	5733
2026-01-19 23:44:57.94	19.23	27.73	-42.5	-46.6	11.8	4.20e-04	0	61	0	321912832	56	5811
2026-01-19 23:44:58.95	19.25	27.91	-42.6	-46.7	11.7	4.21e-04	0	61	0	324009984	56	5876
2026-01-19 23:44:59.96	19.27	28.09	-42.5	-46.6	11.8	5.66e-04	0	61	0	326107136	56	5819
2026-01-19 23:45:00.97	19.29	28.27	-42.5	-46.4	12.0	4.75e-04	0	61	0	328204288	56	5704
2026-01-19 23:45:01.98	19.31	28.45	-42.5	-46.5	12.0	3.95e-04	0	61	0	330301440	56	5723
2026-01-19 23:45:02.99	19.33	28.63	-42.4	-46.3	12.1	3.71e-04	0	61	0	332398592	56	5614
2026-01-19 23:45:04.00	19.35	28.81	-42.3	-46.1	12.4	2.04e-04	0	61	0	333447168	56	5491
2026-01-19 23:45:05.01	19.37	29.00	-42.5	-46.6	11.8	3.03e-04	0	61	0	335544320	56	5813
2026-01-19 23:45:06.02	19.39	29.18	-42.5	-46.5	12.0	4.17e-04	0	61	0	337641472	56	5740
2026-01-19 23:45:07.03	19.42	29.37	-42.5	-46.5	12.0	2.08e-04	0	61	0	339738624	56	5739
2026-01-19 23:45:08.04	19.44	29.56	-42.7	-46.9	11.6	5.48e-04	0	61	0	340787200	56	6002
2026-01-19 23:45:09.05	19.46	29.75	-42.6	-46.6	11.8	8.50e-04	0	61	0	342884352	56	5840
2026-01-19 23:45:10.06	19.48	29.94	-42.8	-47.1	11.3	7.92e-04	0	61	0	344981504	56	6146
2026-01-19 23:45:11.07	19.50	30.13	-42.9	-47.3	11.1	1.28e-03	0	61	0	347078656	56	6309
2026-01-19 23:45:12.08	19.53	30.33	-42.8	-47.1	11.3	1.49e-03	0	61	0	349175808	56	6199
2026-01-19 23:45:13.09	19.55	30.52	-43.0	-47.6	10.9	1.85e-03	0	61	0	350224384	56	6496
2026-01-19 23:45:14.10	19.57	30.72	-42.9	-47.5	11.0	2.49e-03	0	61	0	352321536	56	6438
2026-01-19 23:45:15.10	19.59	30.91	-42.8	-47.2	11.3	1.57e-03	0	61	0	354418688	56	6232
2026-01-19 23:45:16.11	19.62	31.11	-43.1	-47.7	10.6	1.97e-03	0	61	0	356515840	56	6630
2026-01-19 23:45:17.12	19.64	31.31	-43.0	-47.5	10.9	2.43e-03	0	61	0	358612992	56	6459
2026-01-19 23:45:18.14	19.67	31.52	-43.1	-47.8	10.6	2.29e-03	0	61	0	360710144	56	6660
2026-01-19 23:45:19.14	19.69	31.72	-43.2	-48.0	10.5	3.78e-03	0	61	0	361758720	56	6824
2026-01-19 23:45:20.15	19.71	31.92	-43.4	-48.6	9.8	6.57e-03	0	61	0	363855872	57	6894
2026-01-19 23:45:21.16	19.74	32.13	-43.4	-48.5	9.8	8.38e-03	0	61	0	365953024	57	6869
2026-01-19 23:45:22.17	19.76	32.33	-43.6	-49.1	9.3	9.15e-03	0	61	0	368050176	57	7337
2026-01-19 23:45:23.18	19.79	32.54	-43.6	-49.2	9.2	2.57e-02	0	61	0	370147328	57	7412
2026-01-19 23:45:24.19	19.81	32.75	-43.6	-49.1	9.3	2.04e-02	0	61	0	371195904	57	7288
2026-01-19 23:45:25.20	19.84	32.97	-43.7	-49.5	8.9	2.08e-02	0	61	0	373293056	57	7641
2026-01-19 23:45:26.21	19.87	33.18	-43.6	-49.3	9.0	2.24e-02	0	61	0	375390208	57	7493
2026-01-19 23:45:27.22	19.89	33.39	-43.6	-49.1	9.2	2.44e-02	0	61	0	377487360	57	7339
2026-01-19 23:45:28.23	19.92	33.61	-43.6	-49.2	9.1	2.23e-02	0	61	0	379584512	57	7421
2026-01-19 23:45:29.24	19.95	33.83	-43.6	-49.3	9.2	2.01e-02	0	61	0	380633088	57	7483
2026-01-19 23:45:30.25	19.97	34.05	-43.6	-49.1	9.3	1.88e-02	0	61	0	382730240	57	7352
2026-01-19 23:45:31.26	20.00	34.27	-43.5	-48.9	9.5	2.45e-02	0	61	0	384827392	58	6783
2026-01-19 23:45:32.26	20.03	34.49	-43.4	-48.6	9.8	1.08e-02	0	61	0	386924544	58	6554
2026-01-19 23:45:33.27	20.06	34.71	-43.5	-48.8	9.7	7.42e-03	0	61	0	389021696	58	6666
2026-01-19 23:45:34.28	20.09	34.94	-43.1	-47.7	10.7	5.41e-03	0	61	0	390070272	58	5885
2026-01-19 23:45:35.29	20.11	35.16	-42.9	-47.3	11.1	1.81e-03	0	61	0	392167424	57	5985
2026-01-19 23:45:36.30	20.14	35.39	-42.8	-47.2	11.2	2.02e-03	0	61	0	394264576	57	5885
2026-01-19 23:45:37.31	20.17	35.62	-42.7	-46.9	11.5	9.28e-04	0	61	0	396361728	57	5684
2026-01-19 23:45:38.32	20.20	35.86	-42.5	-46.5	11.9	4.68e-04	0	61	0	398458880	56	5781
2026-01-19 23:45:39.33	20.23	36.09	-42.5	-46.4	12.1	3.95e-04	0	61	0	399507456	56	5675
2026-01-19 23:45:40.34	20.26	36.33	-42.5	-46.5	12.0	2.18e-04	0	61	0	401604608	56	5741
2026-01-19 23:45:41.35	20.30	36.56	-42.4	-46.2	12.4	1.74e-04	0	61	0	403701760	56	5545
2026-01-19 23:45:42.35	20.33	36.80	-42.3	-46.0	12.5	1.09e-04	0	61	0	405798912	56	5420
2026-01-19 23:45:43.36	20.36	37.04	-42.2	-45.8	12.8	6.79e-05	0	61	0	407896064	56	5323
2026-01-19 23:45:44.37	20.39	37.28	-41.8	-45.3	13.1	2.97e-05	0	61	0	408944640	55	5319
2026-01-19 23:45:45.38	20.42	37.53	-41.6	-44.9	13.5	1.14e-05	0	61	0	411041792	55	5093
2026-01-19 23:45:46.39	20.46	37.78	-41.5	-44.7	13.8	1.29e-05	0	61	0	413138944	55	4940
2026-01-19 23:45:47.40	20.49	38.02	-41.6	-44.8	13.6	6.80e-06	0	61	0	415236096	54	5301
2026-01-19 23:45:48.41	20.53	38.27	-41.6	-44.7	13.7	3.00e-06	0	61	0	417333248	54	5277
2026-01-19 23:45:49.42	20.56	38.53	-41.3	-44.4	14.1	5.30e-06	0	61	0	418381824	54	5053
2026-01-19 23:45:50.43	20.60	38.78	-41.5	-44.7	13.7	4.50e-06	0	61	0	420478976	54	5233
2026-01-19 23:45:51.44	20.63	39.03	-41.7	-45.0	13.5	9.10e-06	0	61	0	422576128	54	5421
2026-01-19 23:45:52.44	20.67	39.29	-41.5	-44.7	13.8	2.20e-06	0	61	0	424673280	54	5246
2026-01-19 23:45:53.45	20.70	39.55	-41.6	-44.9	13.6	8.30e-06	0	61	0	426770432	54	5369
2026-01-19 23:45:54.46	20.74	39.81	-41.7	-44.9	13.5	9.90e-06	0	61	0	428867584	54	5394
2026-01-19 23:45:55.47	20.78	40.07	-42.0	-45.6	12.8	3.58e-05	0	62	0	429916160	54	5817
2026-01-19 23:45:56.48	20.82	40.34	-42.2	-45.8	12.5	8.92e-05	0	61	0	432013312	55	5653
2026-01-19 23:45:57.49	20.86	40.61	-42.4	-46.4	12.0	1.45e-04	0	61	0	434110464	55	6012
2026-01-19 23:45:58.50	20.89	40.88	-42.5	-46.6	11.8	3.87e-04	0	61	0	436207616	55	6153
2026-01-19 23:45:59.51	20.93	41.15	-42.5	-46.6	12.0	6.19e-04	0	61	0	438304768	55	6147
2026-01-19 23:46:00.52	20.98	41.42	-42.8	-46.9	11.7	9.45e-04	0	61	0	439353344	56	6004
2026-01-19 23:46:01.53	21.02	41.70	-42.8	-46.9	11.6	7.23e-04	0	61	0	441450496	56	6041
2026-01-19 23:46:02.54	21.06	41.97	-43.0	-47.4	11.1	9.50e-04	0	62	0	443547648	56	6388
2026-01-19 23:46:03.55	21.10	42.25	-42.9	-47.3	11.3	1.20e-03	0	61	0	445644800	56	6290
2026-01-19 23:46:04.56	21.14	42.53	-42.8	-46.9	11.6	8.49e-04	0	61	0	447741952	56	6046
2026-01-19 23:46:05.57	21.19	42.82	-43.0	-47.4	11.2	1.36e-03	0	61	0	448790528	56	6365
2026-01-19 23:46:06.58	21.23	43.10	-42.8	-46.9	11.6	4.98e-04	0	61	0	450887680	56	6032
2026-01-19 23:46:07.59	21.28	43.39	-42.7	-46.9	11.7	5.14e-04	0	61	0	452984832	56	6003
2026-01-19 23:46:08.60	21.32	43.68	-42.4	-46.1	12.4	3.12e-04	0	61	0	455081984	56	5506
2026-01-19 23:46:09.61	21.37	43.98	-42.3	-46.0	12.7	1.81e-04	0	61	0	457179136	56	5412
2026-01-19 23:46:10.62	21.42	44.27	-42.4	-46.1	12.5	1.16e-04	0	61	0	458227712	56	5493
2026-01-19 23:46:11.63	21.47	44.57	-42.4	-46.1	12.5	1.03e-04	0	61	0	460324864	56	5492
2026-01-19 23:46:12.64	21.52	44.87	-42.6	-46.7	11.9	1.24e-04	0	61	0	462422016	56	5860
2026-01-19 23:46:13.64	21.57	45.17	-42.6	-46.6	12.1	2.05e-04	0	61	0	464519168	56	5815
2026-01-19 23:46:14.65	21.62	45.47	-42.8	-46.9	11.7	4.44e-04	0	61	0	466616320	56	6012
2026-01-19 23:46:15.66	21.67	45.78	-43.0	-47.4	11.2	7.21e-04	0	61	0	467664896	56	6363
2026-01-19 23:46:16.68	21.72	46.09	-43.2	-47.8	10.7	1.60e-03	0	61	0	469762048	56	6709
2026-01-19 23:46:17.68	21.78	46.40	-43.3	-48.0	10.5	3.03e-03	0	61	0	471859200	57	6470
2026-01-19 23:46:18.69	21.83	46.71	-43.2	-47.8	10.7	3.31e-03	0	61	0	473956352	57	6308
2026-01-19 23:46:19.70	21.89	47.02	-43.4	-48.5	10.0	5.64e-03	0	61	0	476053504	57	6803
2026-01-19 23:46:20.71	21.95	47.34	-43.5	-48.5	10.1	8.74e-03	0	61	0	477102080	57	6845
2026-01-19 23:46:21.72	22.00	47.66	-43.7	-49.2	9.3	1.58e-02	0	61	0	479199232	58	7000
2026-01-19 23:46:22.73	22.06	47.98	-43.7	-49.0	9.5	1.99e-02	0	61	0	481296384	58	6850
2026-01-19 23:46:23.74	22.12	48.31	-43.7	-49.1	9.4	1.95e-02	0	61	0	483393536	58	6889
2026-01-19 23:46:24.75	22.19	48.64	-43.6	-48.8	9.7	1.41e-02	0	61	0	485490688	58	6661
2026-01-19 23:46:25.76	22.25	48.97	-43.3	-48.1	10.6	9.09e-03	0	61	0	486539264	58	6141
2026-01-19 23:46:26.77	22.31	49.30	-43.4	-48.1	10.3	4.50e-03	0	61	0	488636416	58	6202
2026-01-19 23:46:27.78	22.38	49.63	-42.9	-47.2	11.4	1.38e-03	0	61	0	490733568	57	5881
2026-01-19 23:46:28.79	22.45	49.97	-42.7	-46.7	11.9	8.23e-04	0	62	0	492830720	57	5580
2026-01-19 23:46:29.80	22.51	50.31	-42.6	-46.4	12.2	4.65e-04	0	61	0	494927872	57	5398
2026-01-19 23:46:30.81	22.58	50.65	-42.4	-46.2	12.5	1.41e-04	0	62	0	497025024	56	5536
2026-01-19 23:46:31.82	22.66	51.00	-42.1	-45.6	13.0	7.85e-05	0	61	0	498073600	56	5188
2026-01-19 23:46:32.83	22.73	51.35	-41.6	-44.8	13.6	6.80e-06	0	61	0	500170752	55	5020
2026-01-19 23:46:33.84	22.80	51.70	-41.5	-44.6	13.9	1.14e-05	0	61	0	502267904	55	4898
2026-01-19 23:46:34.85	22.88	52.05	-41.6	-44.8	13.7	5.30e-06	0	61	0	504365056	54	5294
2026-01-19 23:46:35.85	22.96	52.40	-41.9	-45.3	13.2	1.14e-05	0	61	0	506462208	54	5624
2026-01-19 23:46:36.86	23.04	52.76	-42.0	-45.5	12.9	2.36e-05	0	61	0	507510784	54	5751
2026-01-19 23:46:37.87	23.12	53.12	-42.2	-45.8	12.6	1.48e-04	0	61	0	509607936	55	5635
2026-01-19 23:46:38.88	23.20	53.48	-41.9	-45.4	13.1	7.55e-05	0	61	0	511705088	55	5353
2026-01-19 23:46:39.89	23.29	53.85	-42.0	-45.5	13.0	3.12e-05	0	61	0	513802240	55	5452
2026-01-19 23:46:40.90	23.38	54.21	-42.0	-45.5	13.0	2.59e-05	0	61	0	515899392	55	5426
2026-01-19 23:46:41.91	23.47	54.58	-41.9	-45.3	13.2	2.97e-05	0	61	0	516947968	55	5302
2026-01-19 23:46:42.92	23.56	54.96	-41.6	-44.7	13.7	9.90e-06	0	61	0	519045120	55	4978
2026-01-19 23:46:43.93	23.65	55.33	-41.4	-44.3	14.1	1.50e-06	0	61	0	521142272	54	5035
2026-01-19 23:46:44.94	23.75	55.71	-41.2	-44.0	14.5	7.00e-07	0	62	0	523239424	54	4860
2026-01-19 23:46:45.95	23.85	56.09	-41.1	-43.9	14.6	0.00e+00	0	62	0	525336576	54	4790
2026-01-19 23:46:46.96	23.95	56.47	-41.1	-43.9	14.6	2.20e-06	0	61	0	526385152	53	5061
2026-01-19 23:46:47.97	24.06	56.86	-41.3	-44.3	14.2	0.00e+00	0	61	0	528482304	53	5305
2026-01-19 23:46:48.98	24.17	57.25	-41.5	-44.6	13.8	4.50e-06	0	62	0	530579456	53	5509
2026-01-19 23:46:49.99	24.28	57.64	-41.5	-44.6	13.9	1.50e-06	0	62	0	532676608	53	5478
2026-01-19 23:46:51.00	24.39	58.03	-41.5	-44.5	13.9	3.00e-06	0	61	0	534773760	53	5461
2026-01-19 23:46:52.01	24.51	58.43	-41.1	-44.0	14.5	1.50e-06	0	61	0	535822336	53	5107
2026-01-19 23:46:53.01	24.63	58.83	-41.1	-43.9	14.6	7.00e-07	0	61	0	537919488	53	5050
2026-01-19 23:46:54.02	24.76	59.23	-41.2	-44.1	14.3	1.50e-06	0	61	0	540016640	53	5194
2026-01-19 23:46:55.03	24.88	59.63	-41.1	-44.0	14.4	1.50e-06	0	62	0	542113792	53	5116
2026-01-19 23:46:56.04	25.02	60.04	-40.8	-43.5	14.9	7.00e-07	0	61	0	544210944	53	4857
2026-01-19 23:46:57.05	25.15	60.45	-40.8	-43.5	15.0	0.00e+00	0	61	0	545259520	53	4826
2026-01-19 23:46:58.06	25.29	60.86	-41.1	-43.9	14.6	7.00e-07	0	62	0	547356672	53	5073
2026-01-19 23:46:59.07	25.44	61.27	-41.5	-44.6	13.9	4.50e-06	0	62	0	549453824	53	5488
2026-01-19 23:47:00.08	25.59	61.69	-41.5	-44.7	13.8	6.80e-06	0	62	0	551550976	53	5541
2026-01-19 23:47:01.09	25.75	62.11	-41.4	-44.5	13.9	6.80e-06	0	62	0	553648128	53	5446
2026-01-19 23:47:02.10	25.91	62.53	-41.1	-44.0	14.4	3.80e-06	0	62	0	554696704	53	5150
2026-01-19 23:47:03.11	26.07	62.95	-40.7	-43.3	15.1	0.00e+00	0	61	0	556793856	53	4724
2026-01-19 23:47:04.12	26.25	63.38	-40.5	-43.1	15.4	0.00e+00	0	62	0	558891008	52	4875
2026-01-19 23:47:05.13	26.42	63.81	-40.4	-42.9	15.6	0.00e+00	0	61	0	560988160	52	4778
2026-01-19 23:47:06.14	26.61	64.24	-40.8	-43.5	14.9	0.00e+00	0	62	0	563085312	52	5123
2026-01-19 23:47:07.15	26.80	64.67	-41.3	-44.3	14.2	0.00e+00	0	61	0	565182464	53	5289
2026-01-19 23:47:08.16	27.00	65.11	-42.0	-45.6	12.8	1.75e-05	0	62	0	566231040	54	5816
2026-01-19 23:47:09.17	27.21	65.54	-42.4	-46.3	12.1	1.27e-04	0	62	0	568328192	55	5983
2026-01-19 23:47:10.18	27.42	65.98	-42.4	-46.3	12.0	4.04e-04	0	61	0	570425344	55	5990
2026-01-19 23:47:11.18	27.64	66.42	-42.5	-46.4	11.9	2.94e-04	0	61	0	572522496	55	6015
2026-01-19 23:47:12.19	27.88	66.87	-42.8	-47.0	11.6	5.71e-04	0	61	0	574619648	56	6082
2026-01-19 23:47:13.20	28.12	67.31	-43.1	-47.7	10.8	1.41e-03	0	61	0	575668224	56	6638
2026-01-19 23:47:14.21	28.37	67.76	-43.6	-48.9	9.7	6.80e-03	0	62	0	577765376	57	7131
2026-01-19 23:47:15.22	28.64	68.21	-43.9	-49.9	8.5	2.23e-02	0	62	0	579862528	58	7576
2026-01-19 23:47:16.23	28.92	68.66	-44.1	-50.6	7.8	4.77e-02	0	61	0	581959680	58	8219
2026-01-19 23:47:17.24	29.21	69.11	-43.7	-49.3	9.1	3.47e-02	0	62	0	584056832	58	7041
2026-01-19 23:47:18.25	29.51	69.57	-43.6	-49.0	9.4	1.78e-02	0	62	0	585105408	58	6834
2026-01-19 23:47:19.26	29.83	70.03	-43.5	-48.7	9.8	1.27e-02	0	62	0	587202560	58	6574
2026-01-19 23:47:20.27	30.16	70.49	-43.7	-49.2	9.2	1.84e-02	0	61	0	589299712	58	6978
2026-01-19 23:47:21.28	30.51	70.95	-43.3	-48.1	10.3	7.18e-03	0	62	0	591396864	58	6174
2026-01-19 23:47:22.29	30.88	71.41	-43.0	-47.4	11.1	4.72e-03	0	62	0	593494016	57	6060
2026-01-19 23:47:23.30	31.27	71.87	-42.9	-47.3	11.0	1.26e-03	0	62	0	594542592	57	5949
2026-01-19 23:47:24.31	31.68	72.34	-42.6	-46.5	11.9	7.54e-04	0	62	0	596639744	57	5464
2026-01-19 23:47:25.32	32.12	72.80	-42.4	-46.1	12.4	2.88e-04	0	62	0	598736896	56	5504
2026-01-19 23:47:26.33	32.58	73.27	-42.0	-45.5	13.0	4.27e-05	0	62	0	600834048	56	5105
2026-01-19 23:47:27.34	33.06	73.73	-41.7	-44.9	13.4	1.90e-05	0	62	0	602931200	55	5079
2026-01-19 23:47:28.35	33.58	74.20	-42.1	-45.7	12.5	2.21e-05	0	61	0	603979776	55	5579
2026-01-19 23:47:29.36	34.13	74.67	-42.3	-46.2	12.0	4.02e-04	0	62	0	606076928	55	5894
2026-01-19 23:47:30.37	34.71	75.14	-42.1	-45.8	12.5	2.29e-04	0	62	0	608174080	55	5605
2026-01-19 23:47:31.38	35.34	75.61	-41.5	-44.7	13.5	2.28e-05	0	62	0	610271232	55	4964
2026-01-19 23:47:32.39	36.01	76.08	-41.7	-45.1	13.2	1.90e-05	0	61	0	612368384	55	5187
2026-01-19 23:47:33.40	36.72	76.54	-42.3	-46.1	12.2	1.88e-04	0	62	0	613416960	55	5823
2026-01-19 23:47:34.41	37.49	77.01	-42.5	-46.5	11.7	3.25e-04	0	62	0	615514112	55	6114
2026-01-19 23:47:35.42	38.32	77.48	-43.3	-48.1	10.2	1.90e-03	0	62	0	617611264	57	6560
2026-01-19 23:47:36.42	39.20	77.94	-43.8	-49.6	8.7	3.19e-02	0	62	0	619708416	58	7351
2026-01-19 23:47:37.43	40.17	78.40	-43.5	-48.7	9.6	1.92e-02	0	62	0	621805568	58	6572
2026-01-19 23:47:38.44	41.21	78.86	-43.7	-49.4	8.9	1.50e-02	0	62	0	622854144	58	7154
2026-01-19 23:47:39.45	42.35	79.32	-43.8	-49.7	8.6	3.21e-02	0	61	0	624951296	58	7383
2026-01-19 23:47:40.46	43.60	79.78	-43.1	-47.6	10.7	1.14e-02	0	62	0	627048448	58	5847
2026-01-19 23:47:41.47	44.96	80.23	-43.3	-48.2	10.0	2.33e-03	0	62	0	629145600	57	6644
2026-01-19 23:47:42.48	46.45	80.67	-43.6	-49.1	9.1	2.17e-02	0	62	0	631242752	57	7356
2026-01-19 23:47:43.49	48.09	81.11	-43.6	-48.9	9.5	1.79e-02	0	62	0	632291328	57	7178
2026-01-19 23:47:44.50	49.91	81.55	-42.8	-47.1	11.2	4.78e-03	0	62	0	634388480	57	5800
2026-01-19 23:47:45.51	51.92	81.97	-42.7	-46.9	11.5	7.69e-04	0	62	0	636485632	57	5674
2026-01-19 23:47:46.51	54.13	82.38	-42.5	-46.4	12.2	7.16e-04	0	62	0	638582784	56	5679
2026-01-19 23:47:47.53	56.65	82.79	-41.8	-45.2	13.1	6.48e-05	0	62	0	640679936	55	5276
2026-01-19 23:47:48.53	59.40	83.17	-41.8	-45.2	13.0	2.13e-05	0	62	0	641728512	55	5274
2026-01-19 23:47:49.55	62.55	83.55	-42.1	-45.7	12.5	7.78e-05	0	62	0	643825664	55	5580
2026-01-19 23:47:50.56	66.03	83.90	-41.3	-44.3	13.9	2.59e-05	0	62	0	645922816	54	5028
2026-01-19 23:47:51.57	69.93	84.23	-40.8	-43.5	14.6	3.00e-06	0	62	0	648019968	53	4826
2026-01-19 23:47:52.57	74.22	84.52	-41.0	-43.9	14.4	7.00e-07	0	62	0	650117120	53	5067
2026-01-19 23:47:53.58	79.03	84.78	-41.5	-44.8	13.4	0.00e+00	0	62	0	651165696	53	5616
2026-01-19 23:47:54.59	84.30	85.00	-42.0	-45.5	12.7	5.87e-05	0	62	0	653262848	54	5783
2026-01-19 23:47:55.60	90.01	85.18	-42.0	-45.6	12.5	1.65e-04	0	62	0	655360000	55	5510
2026-01-19 23:47:56.61	96.09	85.30	-41.9	-45.3	12.9	5.64e-05	0	62	0	657457152	55	5331
2026-01-19 23:47:57.62	102.43	85.37	-41.3	-44.3	13.8	1.98e-05	0	62	0	659554304	54	5041
2026-01-19 23:47:58.63	108.89	85.39	-40.3	-42.7	15.5	0.00e+00	0	62	0	661651456	52	4679
2026-01-19 23:47:59.64	115.30	85.34	-40.0	-42.3	16.0	0.00e+00	0	61	0	662700032	51	4712
2026-01-19 23:48:00.65	121.51	85.24	-41.2	-44.1	14.1	0.00e+00	0	62	0	664797184	52	5515
2026-01-19 23:48:01.66	127.39	85.09	-42.0	-45.6	12.6	7.62e-05	0	62	0	666894336	54	5816
2026-01-19 23:48:02.67	132.86	84.88	-41.8	-45.1	13.1	3.43e-05	0	62	0	668991488	54	5497
2026-01-19 23:48:03.68	137.87	84.64	-41.9	-45.2	13.0	3.20e-05	0	62	0	671088640	54	5589
2026-01-19 23:48:04.69	142.41	84.35	-41.9	-45.4	12.8	9.30e-05	0	62	0	672137216	54	5698
2026-01-19 23:48:05.70	146.49	84.04	-41.8	-45.2	13.0	6.79e-05	0	62	0	674234368	54	5539
2026-01-19 23:48:06.70	150.11	83.70	-41.9	-45.4	12.8	4.27e-05	0	62	0	676331520	54	5714
2026-01-19 23:48:07.71	153.39	83.34	-42.2	-46.1	12.2	1.69e-04	0	62	0	678428672	55	5800
2026-01-19 23:48:08.72	156.31	82.96	-42.6	-46.8	11.5	1.34e-03	0	62	0	680525824	55	6276
2026-01-19 23:48:09.73	158.92	82.56	-42.6	-46.9	11.4	1.07e-03	0	62	0	681574400	55	6372
2026-01-19 23:48:10.74	161.27	82.15	-43.4	-48.4	10.0	3.21e-03	0	62	0	683671552	57	6769
2026-01-19 23:48:11.75	163.37	81.73	-43.9	-50.1	8.3	3.01e-02	0	62	0	685768704	58	7724
2026-01-19 23:48:12.76	165.27	81.30	-43.6	-49.1	9.0	5.43e-02	0	62	0	687865856	58	6955
2026-01-19 23:48:13.77	166.99	80.86	-43.2	-48.0	10.4	8.91e-03	0	62	0	689963008	58	6074
2026-01-19 23:48:14.78	168.54	80.42	-42.8	-46.9	11.4	1.05e-03	0	62	0	691011584	57	5700
2026-01-19 23:48:15.79	169.96	79.97	-42.9	-47.2	11.0	1.71e-03	0	62	0	693108736	57	5861
2026-01-19 23:48:16.80	171.25	79.52	-43.0	-47.5	10.8	3.23e-03	0	62	0	695205888	57	6115
2026-01-19 23:48:17.80	172.42	79.06	-43.3	-48.4	10.0	2.53e-03	0	62	0	697303040	57	6743
2026-01-19 23:48:18.81	173.51	78.60	-44.0	-50.5	7.7	7.90e-02	0	62	0	699400192	58	8093
2026-01-19 23:48:19.82	174.51	78.14	-43.6	-49.0	9.1	5.36e-02	0	62	0	700448768	58	6873
2026-01-19 23:48:20.83	175.44	77.67	-43.0	-47.5	10.8	6.20e-03	0	62	0	702545920	57	6066
2026-01-19 23:48:21.84	176.29	77.21	-43.6	-49.1	9.1	1.39e-02	0	62	0	704643072	57	7305
2026-01-19 23:48:22.85	177.08	76.74	-43.3	-48.2	10.1	1.15e-02	0	62	0	706740224	57	6592
2026-01-19 23:48:23.86	177.82	76.27	-43.2	-48.0	10.3	3.36e-03	0	62	0	708837376	57	6450
2026-01-19 23:48:24.87	178.51	75.80	-43.3	-48.1	10.3	5.19e-03	0	62	0	709885952	57	6550
2026-01-19 23:48:25.88	179.15	75.33	-43.5	-48.7	9.5	1.22e-02	0	62	0	711983104	57	7011
2026-01-19 23:48:26.89	179.76	74.86	-43.4	-48.4	9.8	5.62e-03	0	62	0	714080256	57	6751
2026-01-19 23:48:27.90	180.32	74.39	-44.1	-50.9	7.5	9.36e-02	0	62	0	716177408	58	8543
2026-01-19 23:48:28.91	180.85	73.93	-43.9	-49.9	8.2	1.11e-01	0	62	0	718274560	59	7167
2026-01-19 23:48:29.92	181.35	73.46	-43.5	-48.9	9.3	2.64e-02	0	62	0	719323136	59	6417
2026-01-19 23:48:30.93	181.82	72.99	-44.5	-52.8	5.8	5.31e-02	0	62	0	721420288	59	9993
2026-01-19 23:48:31.94	182.27	72.52	-44.5	-53.2	5.5	6.93e-01	0	62	0	723517440	60	9911
2026-01-19 23:48:32.95	182.69	72.06	-44.3	-51.9	6.5	3.94e-01	0	62	0	725614592	60	8482
2026-01-19 23:48:33.96	183.08	71.59	-44.2	-51.6	6.8	2.20e-01	0	62	0	727711744	60	8246
2026-01-19 23:48:34.97	183.46	71.13	-44.3	-51.9	6.4	1.85e-01	0	62	0	729808896	60	8559
2026-01-19 23:48:35.98	183.82	70.67	-44.3	-51.8	6.6	2.46e-01	0	62	0	730857472	60	8386
2026-01-19 23:48:36.99	184.16	70.21	-45.0	-57.5	3.8	3.61e-01	0	62	104	732954624	60	16153
2026-01-19 23:48:37.99	184.48	69.75	-45.1	-59.2	3.8	1.07e+00	0	62	104	732954624	60	19803
2026-01-19 23:48:39.00	184.79	69.30	-44.8	-54.9	4.6	9.68e-01	0	62	0	732954624	60	12061
2026-01-19 23:48:40.01	185.09	68.84	-44.3	-51.3	7.0	1.54e-02	0	62	0	735051776	59	8451
2026-01-19 23:48:41.02	185.37	68.39	-43.2	-48.1	10.2	9.49e-03	0	62	0	737148928	58	6145
2026-01-19 23:48:42.03	185.64	67.94	-43.4	-48.4	9.8	8.24e-03	0	62	0	738197504	58	6415
2026-01-19 23:48:43.04	185.90	67.49	-43.2	-48.0	10.2	6.24e-03	0	62	0	740294656	58	6123
2026-01-19 23:48:44.05	186.15	67.04	-43.6	-49.2	9.1	1.53e-02	0	62	0	742391808	58	6965
2026-01-19 23:48:45.06	186.39	66.59	-43.3	-48.2	10.1	1.25e-02	0	62	0	744488960	58	6217
2026-01-19 23:48:46.07	186.61	66.15	-43.0	-47.5	10.8	3.70e-03	0	62	0	746586112	57	6065
2026-01-19 23:48:47.08	186.83	65.71	-42.9	-47.4	11.0	1.62e-03	0	62	0	747634688	57	6024
2026-01-19 23:48:48.09	187.04	65.27	-42.6	-46.7	11.6	1.79e-03	0	62	0	749731840	57	5572
2026-01-19 23:48:49.10	187.25	64.83	-41.5	-44.7	13.6	1.03e-04	0	62	0	751828992	55	4932
2026-01-19 23:48:50.11	187.44	64.39	-41.2	-44.1	14.2	0.00e+00	0	62	0	753926144	54	4922
2026-01-19 23:48:51.12	187.63	63.96	-41.8	-45.2	13.1	1.22e-05	0	62	0	756023296	54	5534
2026-01-19 23:48:52.12	187.81	63.53	-42.6	-46.8	11.3	9.15e-04	0	62	0	757071872	55	6324
2026-01-19 23:48:53.13	187.98	63.11	-42.0	-45.6	12.5	8.43e-04	0	62	0	759169024	55	5496
2026-01-19 23:48:54.14	188.15	62.68	-41.4	-44.5	13.7	5.30e-06	0	62	0	761266176	54	5136
2026-01-19 23:48:55.15	188.31	62.26	-41.1	-44.0	14.2	1.50e-06	0	62	0	763363328	54	4866
2026-01-19 23:48:56.16	188.47	61.84	-41.0	-43.8	14.5	7.00e-07	0	62	0	765460480	53	5010
2026-01-19 23:48:57.17	188.62	61.42	-41.7	-44.9	13.3	6.80e-06	0	62	0	766509056	53	5713
2026-01-19 23:48:58.18	188.77	61.00	-43.3	-48.2	10.1	7.59e-04	0	62	0	768606208	57	6609
2026-01-19 23:48:59.19	188.91	60.59	-43.6	-49.2	9.0	1.29e-02	0	62	0	770703360	57	7445
2026-01-19 23:49:00.20	189.05	60.18	-43.5	-48.8	9.5	2.29e-02	0	62	0	772800512	58	6662
2026-01-19 23:49:01.21	189.19	59.77	-42.7	-46.8	11.5	1.91e-03	0	62	0	774897664	57	5628
2026-01-19 23:49:02.22	189.32	59.36	-42.4	-46.3	12.1	2.46e-04	0	62	0	775946240	56	5599
2026-01-19 23:49:03.23	189.44	58.96	-42.7	-46.9	11.5	2.91e-04	0	62	0	778043392	56	6030
2026-01-19 23:49:04.24	189.57	58.56	-42.5	-46.4	12.0	3.57e-04	0	62	0	780140544	56	5675
2026-01-19 23:49:05.25	189.68	58.16	-42.2	-45.9	12.5	1.23e-04	0	62	0	782237696	56	5344
2026-01-19 23:49:06.25	189.80	57.77	-42.7	-46.8	11.6	2.30e-04	0	62	0	784334848	56	5982
2026-01-19 23:49:07.26	189.91	57.37	-43.0	-47.4	10.9	2.53e-03	0	62	0	785383424	56	6372
2026-01-19 23:49:08.27	190.02	56.98	-41.7	-45.0	13.2	2.24e-04	0	62	0	787480576	55	5127
2026-01-19 23:49:09.28	190.13	56.59	-41.0	-43.8	14.5	2.20e-06	0	62	0	789577728	54	4751
2026-01-19 23:49:10.29	190.23	56.21	-41.6	-44.9	13.5	2.20e-06	0	62	0	791674880	53	5687
2026-01-19 23:49:11.30	190.33	55.83	-42.4	-46.2	12.0	2.45e-04	0	62	0	793772032	55	5913
2026-01-19 23:49:12.31	190.43	55.44	-42.1	-45.6	12.5	5.45e-04	0	62	0	794820608	55	5527
2026-01-19 23:49:13.32	190.53	55.07	-41.3	-44.3	13.9	4.27e-05	0	62	0	796917760	54	5040
2026-01-19 23:49:14.33	190.62	54.69	-42.0	-45.4	12.9	1.37e-05	0	62	0	799014912	54	5715
2026-01-19 23:49:15.34	190.71	54.32	-43.1	-47.7	10.7	5.19e-04	0	62	0	801112064	56	6575
2026-01-19 23:49:16.35	190.80	53.95	-43.4	-48.5	9.8	7.71e-03	0	62	0	803209216	57	6834
2026-01-19 23:49:17.36	190.88	53.58	-42.8	-46.9	11.4	2.61e-03	0	62	0	805306368	57	5721
2026-01-19 23:49:18.37	190.97	53.22	-41.6	-44.9	13.3	1.06e-04	0	62	0	806354944	55	5068
2026-01-19 23:49:19.38	191.05	52.85	-41.8	-45.1	13.1	1.98e-05	0	62	0	808452096	55	5171
2026-01-19 23:49:20.39	191.13	52.49	-42.5	-46.5	11.8	2.43e-04	0	62	0	810549248	55	6063
2026-01-19 23:49:21.40	191.21	52.14	-43.3	-48.1	10.3	3.06e-03	0	62	0	812646400	57	6512
2026-01-19 23:49:22.40	191.29	51.79	-43.5	-48.9	9.4	9.54e-03	0	62	0	814743552	57	7179
2026-01-19 23:49:23.41	191.36	51.43	-43.4	-48.6	9.7	1.76e-02	0	62	0	815792128	57	6934
2026-01-19 23:49:24.42	191.44	51.08	-43.1	-47.9	10.4	8.49e-03	0	62	0	817889280	57	6399
2026-01-19 23:49:25.43	191.51	50.74	-43.1	-47.8	10.4	4.87e-03	0	62	0	819986432	57	6333
2026-01-19 23:49:26.44	191.58	50.39	-42.5	-46.5	11.9	7.84e-04	0	62	0	822083584	57	5408
2026-01-19 23:49:27.45	191.65	50.05	-42.2	-45.8	12.7	1.72e-04	0	62	0	824180736	56	5307
2026-01-19 23:49:28.46	191.71	49.71	-42.4	-46.1	12.4	8.62e-05	0	62	0	825229312	56	5504
2026-01-19 23:49:29.47	191.78	49.37	-42.9	-47.2	11.1	3.80e-04	0	62	0	827326464	56	6253
2026-01-19 23:49:30.48	191.84	49.04	-43.4	-48.5	9.9	3.82e-03	0	62	0	829423616	57	6872
2026-01-19 23:49:31.49	191.91	48.71	-44.4	-52.1	6.3	6.56e-02	0	62	0	831520768	59	9240
2026-01-19 23:49:32.50	191.97	48.38	-44.6	-53.2	5.3	3.83e-01	0	62	0	833617920	59	10455
2026-01-19 23:49:33.51	192.03	48.05	-43.9	-50.0	8.1	1.96e-01	0	62	0	834666496	59	7268
2026-01-19 23:49:34.52	192.09	47.73	-42.5	-46.5	11.8	1.25e-02	0	62	0	836763648	57	5416
2026-01-19 23:49:35.53	192.15	47.40	-41.3	-44.3	14.1	4.88e-05	0	62	0	838860800	54	5023
2026-01-19 23:49:36.53	192.21	47.09	-40.9	-43.7	14.6	1.50e-06	0	62	0	840957952	53	4941
2026-01-19 23:49:37.54	192.26	46.77	-41.3	-44.3	14.0	0.00e+00	0	62	0	843055104	53	5333
2026-01-19 23:49:38.55	192.32	46.45	-41.8	-45.1	13.2	1.60e-05	0	62	0	844103680	54	5523
2026-01-19 23:49:39.56	192.37	46.14	-42.2	-46.0	12.3	1.59e-04	0	62	0	846200832	55	5724
2026-01-19 23:49:40.57	192.42	45.83	-43.0	-47.4	10.9	1.11e-03	0	62	0	848297984	56	6401
2026-01-19 23:49:41.58	192.48	45.52	-43.1	-47.7	10.6	2.48e-03	0	62	0	850395136	56	6605
2026-01-19 23:49:42.59	192.53	45.22	-43.3	-48.3	10.0	7.67e-03	0	62	0	852492288	57	6666
2026-01-19 23:49:43.60	192.58	44.91	-42.8	-47.2	11.0	3.81e-03	0	62	0	853540864	57	5898
2026-01-19 23:49:44.61	192.63	44.61	-42.5	-46.5	11.7	1.47e-03	0	62	0	855638016	57	5460
2026-01-19 23:49:45.62	192.68	44.31	-41.7	-45.0	13.1	1.25e-04	0	62	0	857735168	55	5151
2026-01-19 23:49:46.63	192.72	44.02	-40.9	-43.7	14.4	2.20e-06	0	62	0	859832320	53	4953
2026-01-19 23:49:47.64	192.77	43.72	-40.4	-42.9	15.3	0.00e+00	0	62	0	861929472	52	4769
2026-01-19 23:49:48.65	192.82	43.43	-40.6	-43.1	15.1	0.00e+00	0	62	0	862978048	52	4925
2026-01-19 23:49:49.66	192.86	43.14	-41.0	-43.8	14.4	7.00e-07	0	62	0	865075200	52	5322
2026-01-19 23:49:50.67	192.91	42.85	-41.6	-44.9	13.3	5.30e-06	0	62	0	867172352	53	5699
2026-01-19 23:49:51.68	192.95	42.57	-42.3	-46.1	12.1	1.31e-04	0	62	0	869269504	55	5837
2026-01-19 23:49:52.69	192.99	42.28	-43.2	-48.1	10.3	2.62e-03	0	62	0	871366656	56	6900
2026-01-19 23:49:53.70	193.04	42.00	-43.8	-49.7	8.6	2.40e-02	0	62	0	873463808	58	7430
2026-01-19 23:49:54.71	193.08	41.72	-43.7	-49.4	8.7	3.95e-02	0	62	0	874512384	58	7170
2026-01-19 23:49:55.71	193.12	41.45	-43.5	-49.0	9.2	2.69e-02	0	62	0	876609536	58	6815
2026-01-19 23:49:56.72	193.16	41.17	-42.6	-46.7	11.5	3.37e-03	0	62	0	878706688	57	5568
2026-01-19 23:49:57.73	193.20	40.90	-42.0	-45.5	12.8	3.24e-04	0	62	0	880803840	56	5127
2026-01-19 23:49:58.74	193.24	40.63	-41.3	-44.2	14.0	7.00e-07	0	62	0	882900992	54	4968
2026-01-19 23:49:59.75	193.28	40.36	-41.5	-44.7	13.5	3.00e-06	0	62	0	883949568	54	5271
2026-01-19 23:50:00.76	193.32	40.09	-41.7	-45.0	13.3	2.44e-05	0	62	0	886046720	54	5411
2026-01-19 23:50:01.77	193.35	39.83	-42.3	-46.0	12.1	4.42e-05	0	62	0	888143872	55	5784
2026-01-19 23:50:02.78	193.39	39.56	-43.2	-47.9	10.5	1.86e-03	0	62	0	890241024	56	6740
2026-01-19 23:50:03.79	193.43	39.30	-43.8	-49.7	8.4	1.53e-02	0	62	0	892338176	58	7453
2026-01-19 23:50:04.80	193.46	39.04	-44.3	-51.8	6.6	7.21e-02	0	62	0	893386752	59	8876
2026-01-19 23:50:05.81	193.50	38.78	-44.5	-53.0	5.6	3.12e-01	0	62	0	895483904	59	10278
2026-01-19 23:50:06.82	193.53	38.53	-44.7	-55.6	4.4	8.60e-01	0	62	0	897581056	60	13027
2026-01-19 23:50:07.83	193.57	38.28	-44.7	-55.4	4.4	1.38e+00	0	62	0	898629632	60	12718
2026-01-19 23:50:08.83	193.60	38.03	-44.7	-54.9	4.5	8.91e-01	0	62	0	900726784	60	11993
2026-01-19 23:50:09.84	193.64	37.78	-44.6	-54.1	4.9	9.00e-01	0	62	0	902823936	60	10938
2026-01-19 23:50:10.85	193.67	37.53	-44.6	-54.3	4.9	4.32e-01	0	62	0	903872512	60	11197
2026-01-19 23:50:11.86	193.70	37.28	-44.8	-56.1	4.2	5.11e-01	0	62	0	905969664	60	13812
2026-01-19 23:50:12.87	193.73	37.04	-44.5	-53.5	5.4	4.41e-01	0	62	0	907018240	60	10272
2026-01-19 23:50:13.88	193.77	36.80	-44.6	-53.1	5.8	3.75e-02	0	62	0	909115392	59	10407
2026-01-19 23:50:14.89	193.80	36.56	-42.2	-45.9	12.4	5.11e-01	0	62	0	911212544	56	5363
2026-01-19 23:50:15.90	193.83	36.32	-42.3	-46.1	12.2	2.78e-04	0	62	0	913309696	56	5517
2026-01-19 23:50:16.91	193.86	36.08	-42.5	-46.6	11.7	5.06e-04	0	62	0	915406848	56	5814
2026-01-19 23:50:17.92	193.89	35.84	-43.0	-47.6	10.7	1.46e-03	0	62	0	916455424	56	6524
2026-01-19 23:50:18.93	193.92	35.61	-43.7	-49.6	8.6	2.50e-02	0	62	0	918552576	57	7789
2026-01-19 23:50:19.94	193.95	35.38	-44.3	-51.8	6.6	1.11e-01	0	62	0	920649728	59	8909
2026-01-19 23:50:20.95	193.98	35.15	-44.4	-52.5	6.0	3.25e-01	0	62	0	922746880	59	9610
2026-01-19 23:50:21.96	194.01	34.92	-44.6	-53.9	5.1	6.24e-01	0	62	0	924844032	59	11325
2026-01-19 23:50:22.97	194.03	34.69	-44.7	-55.1	4.5	1.10e+00	0	62	0	925892608	60	12332
2026-01-19 23:50:23.98	194.06	34.47	-44.7	-55.3	4.5	1.21e+00	0	62	0	926941184	60	12565
2026-01-19 23:50:24.99	194.09	34.24	-44.7	-55.8	4.3	1.28e+00	0	62	0	927989760	60	13329
2026-01-19 23:50:26.00	194.12	34.02	-44.8	-56.9	3.9	1.42e+00	0	62	104	929038336	60	15188
2026-01-19 23:50:27.00	194.14	33.80	-44.9	-58.4	3.8	7.10e-01	0	62	104	929038336	60	17940
2026-01-19 23:50:28.01	194.17	33.58	-44.8	-56.8	4.0	1.46e+00	0	62	0	929038336	60	14964
2026-01-19 23:50:29.02	194.20	33.36	-44.9	-57.5	3.8	6.36e-01	0	62	104	929038336	60	16269
2026-01-19 23:50:30.03	194.22	33.15	-43.9	-50.6	7.5	3.63e-01	0	62	0	929038336	59	7756
2026-01-19 23:50:31.04	194.25	32.93	-43.8	-50.1	8.1	5.26e-02	0	62	0	931135488	59	7328
2026-01-19 23:50:32.05	194.27	32.72	-43.7	-49.7	8.4	3.93e-02	0	62	0	933232640	59	6973
2026-01-19 23:50:33.06	194.30	32.51	-43.5	-48.9	9.2	2.81e-02	0	62	0	935329792	58	6785
2026-01-19 23:50:34.07	194.32	32.30	-43.3	-48.5	9.8	1.47e-02	0	62	0	937426944	58	6425
2026-01-19 23:50:35.08	194.35	32.09	-43.4	-48.7	9.5	1.45e-02	0	62	0	938475520	58	6587
2026-01-19 23:50:36.09	194.37	31.88	-43.3	-48.5	9.7	9.84e-03	0	62	0	940572672	58	6458
2026-01-19 23:50:37.10	194.40	31.68	-43.3	-48.4	9.8	7.31e-03	0	62	0	942669824	58	6357
2026-01-19 23:50:38.11	194.42	31.47	-43.2	-48.2	9.9	5.02e-03	0	62	0	944766976	58	6260
2026-01-19 23:50:39.12	194.44	31.27	-43.1	-47.8	10.4	4.84e-03	0	62	0	946864128	58	5929
2026-01-19 23:50:40.13	194.47	31.07	-43.2	-48.1	10.2	5.65e-03	0	62	0	947912704	58	6133
2026-01-19 23:50:41.14	194.49	30.87	-43.0	-47.7	10.5	4.01e-03	0	62	0	950009856	57	6253
2026-01-19 23:50:42.15	194.51	30.67	-42.9	-47.3	10.7	2.95e-03	0	62	0	952107008	57	5965
2026-01-19 23:50:43.16	194.53	30.47	-42.9	-47.5	10.6	3.14e-03	0	62	0	954204160	57	6111
2026-01-19 23:50:44.16	194.56	30.28	-43.1	-47.9	10.2	4.49e-03	0	62	0	956301312	57	6418
2026-01-19 23:50:45.17	194.58	30.08	-43.1	-48.1	10.2	6.97e-03	0	62	0	957349888	57	6501
2026-01-19 23:50:46.18	194.60	29.89	-43.4	-48.8	9.3	1.50e-02	0	62	0	959447040	57	7097
2026-01-19 23:50:47.19	194.62	29.70	-43.7	-49.7	8.5	3.03e-02	0	62	0	961544192	57	7829
2026-01-19 23:50:48.20	194.64	29.51	-43.8	-49.9	8.2	5.31e-02	0	62	0	963641344	58	7616
2026-01-19 23:50:49.21	194.67	29.32	-43.9	-50.6	7.5	8.78e-02	0	62	0	965738496	58	8178
2026-01-19 23:50:50.22	194.69	29.13	-43.9	-50.5	7.8	1.14e-01	0	62	0	966787072	58	8141
2026-01-19 23:50:51.23	194.71	28.94	-44.0	-51.1	7.1	1.21e-01	0	62	0	968884224	58	8691
2026-01-19 23:50:52.24	194.73	28.76	-43.9	-50.6	7.4	1.10e-01	0	62	0	970981376	58	8269
2026-01-19 23:50:53.25	194.75	28.57	-43.8	-50.0	8.2	7.35e-02	0	62	0	973078528	58	7646
2026-01-19 23:50:54.27	194.77	28.39	-43.4	-49.0	9.2	2.65e-02	0	62	0	975175680	58	6827
2026-01-19 23:50:55.27	194.79	28.21	-43.2	-48.4	9.8	1.27e-02	0	62	0	977272832	58	6350
2026-01-19 23:50:56.28	194.81	28.03	-42.8	-47.3	10.8	6.39e-03	0	62	0	978321408	57	5983
2026-01-19 23:50:57.29	194.83	27.85	-42.6	-46.9	11.3	1.23e-03	0	62	0	980418560	57	5692
2026-01-19 23:50:58.30	194.85	27.67	-42.4	-46.4	11.9	5.34e-04	0	62	0	982515712	56	5668
2026-01-19 23:50:59.31	194.87	27.49	-42.3	-46.1	12.2	3.35e-04	0	62	0	984612864	56	5485
2026-01-19 23:51:00.32	194.89	27.31	-42.3	-46.2	12.0	2.14e-04	0	62	0	986710016	56	5556
2026-01-19 23:51:01.33	194.90	27.14	-42.3	-46.1	12.1	2.94e-04	0	62	0	987758592	56	5489
2026-01-19 23:51:02.34	194.92	26.96	-42.3	-46.3	12.0	2.45e-04	0	62	0	989855744	56	5598
2026-01-19 23:51:03.35	194.94	26.79	-42.6	-46.8	11.4	4.39e-04	0	62	0	991952896	56	5938
2026-01-19 23:51:04.36	194.96	26.62	-42.5	-46.5	11.7	6.37e-04	0	62	0	994050048	56	5779
2026-01-19 23:51:05.37	194.98	26.45	-42.5	-46.5	11.7	7.29e-04	0	62	0	996147200	56	5788
2026-01-19 23:51:06.38	195.00	26.28	-42.5	-46.6	11.7	9.03e-04	0	62	0	997195776	56	5796
2026-01-19 23:51:07.39	195.01	26.11	-42.6	-46.9	11.3	1.04e-03	0	62	0	999292928	56	5998
2026-01-19 23:51:08.39	195.03	25.94	-42.6	-46.9	11.2	1.23e-03	0	62	0	1001390080	56	6012
2026-01-19 23:51:09.40	195.05	25.78	-42.5	-46.6	11.6	1.01e-03	0	62	0	1003487232	56	5840
2026-01-19 23:51:10.41	195.07	25.61	-42.4	-46.5	11.7	6.94e-04	0	62	0	1005584384	56	5749
2026-01-19 23:51:11.42	195.08	25.45	-42.4	-46.4	11.8	4.97e-04	0	62	0	1006632960	56	5700
2026-01-19 23:51:12.43	195.10	25.28	-42.4	-46.5	11.7	4.05e-04	0	62	0	1008730112	56	5780
2026-01-19 23:51:13.44	195.12	25.12	-42.4	-46.5	11.7	5.45e-04	0	62	0	1010827264	56	5756
2026-01-19 23:51:14.45	195.13	24.96	-42.3	-46.3	11.9	3.49e-04	0	62	0	1012924416	56	5611
2026-01-19 23:51:15.46	195.15	24.80	-42.3	-46.3	11.9	4.13e-04	0	62	0	1015021568	56	5610
2026-01-19 23:51:16.47	195.17	24.64	-42.2	-46.0	12.1	2.55e-04	0	62	0	1016070144	56	5460
2026-01-19 23:51:17.48	195.18	24.48	-42.2	-46.0	12.2	2.05e-04	0	62	0	1018167296	56	5420
2026-01-19 23:51:18.49	195.20	24.32	-42.0	-45.6	12.5	2.26e-04	0	62	0	1020264448	56	5215
2026-01-19 23:51:19.50	195.22	24.17	-41.8	-45.4	12.5	8.69e-05	0	62	0	1022361600	55	5373
2026-01-19 23:51:20.51	195.23	24.01	-41.7	-45.3	12.7	7.47e-05	0	62	0	1024458752	55	5311
2026-01-19 23:51:21.52	195.25	23.86	-41.7	-45.2	12.9	4.57e-05	0	62	0	1025507328	55	5237
2026-01-19 23:51:22.53	195.27	23.70	-41.7	-45.2	12.8	5.56e-05	0	62	0	1027604480	55	5273
2026-01-19 23:51:23.54	195.28	23.55	-41.7	-45.2	12.8	6.71e-05	0	62	0	1029701632	55	5269
2026-01-19 23:51:24.55	195.30	23.40	-41.8	-45.3	12.7	5.34e-05	0	62	0	1031798784	55	5326
2026-01-19 23:51:25.56	195.31	23.25	-41.8	-45.4	12.6	8.08e-05	0	62	0	1033895936	55	5379
2026-01-19 23:51:26.57	195.33	23.10	-41.8	-45.4	12.7	6.79e-05	0	62	0	1034944512	55	5355
2026-01-19 23:51:27.57	195.34	22.95	-41.7	-45.3	12.7	9.84e-05	0	62	0	1037041664	55	5310
2026-01-19 23:51:28.58	195.36	22.80	-41.7	-45.2	12.9	6.48e-05	0	62	0	1039138816	55	5226
2026-01-19 23:51:29.59	195.37	22.65	-41.5	-44.9	13.1	4.19e-05	0	62	0	1041235968	55	5097
2026-01-19 23:51:30.60	195.39	22.50	-41.5	-44.9	13.1	2.82e-05	0	62	0	1043333120	55	5092
2026-01-19 23:51:31.61	195.40	22.36	-41.5	-44.9	13.1	1.22e-05	0	62	0	1045430272	54	5372
2026-01-19 23:51:32.62	195.42	22.21	-41.4	-44.7	13.4	2.13e-05	0	62	0	1046478848	54	5251
2026-01-19 23:51:33.63	195.43	22.07	-41.2	-44.4	13.7	6.80e-06	0	62	0	1048576000	54	5042
2026-01-19 23:51:34.64	195.45	21.92	-41.2	-44.4	13.7	3.00e-06	0	62	0	1050673152	54	5069
2026-01-19 23:51:35.65	195.46	21.78	-41.1	-44.2	13.9	4.50e-06	0	62	0	1052770304	54	4932
2026-01-19 23:51:36.66	195.47	21.64	-41.1	-44.1	13.9	5.30e-06	0	62	0	1054867456	54	4923
2026-01-19 23:51:37.67	195.49	21.50	-41.2	-44.4	13.6	6.10e-06	0	62	0	1055916032	54	5072
2026-01-19 23:51:38.68	195.50	21.36	-41.2	-44.4	13.6	8.30e-06	0	62	0	1058013184	54	5053
2026-01-19 23:51:39.69	195.52	21.22	-41.3	-44.5	13.5	7.60e-06	0	62	0	1060110336	54	5159
2026-01-19 23:51:40.70	195.53	21.08	-41.5	-44.9	13.1	1.52e-05	0	62	0	1062207488	54	5362
2026-01-19 23:51:41.71	195.54	20.94	-41.5	-44.9	13.1	2.67e-05	0	62	0	1064304640	54	5352
2026-01-19 23:51:42.72	195.56	20.80	-41.6	-45.2	12.8	3.35e-05	0	62	0	1065353216	54	5554
2026-01-19 23:51:43.73	195.57	20.67	-41.9	-45.6	12.4	1.20e-04	0	62	0	1067450368	54	5851
2026-01-19 23:51:44.74	195.58	20.53	-41.9	-45.7	12.3	1.16e-04	0	62	0	1069547520	54	5902
2026-01-19 23:51:45.75	195.60	20.40	-42.0	-45.9	12.1	1.79e-04	0	62	0	1071644672	54	5993
2026-01-19 23:51:46.76	195.61	20.26	-42.0	-46.0	12.0	3.47e-04	0	62	0	1073741824	54	6090
2026-01-19 23:51:47.77	195.62	20.13	-42.0	-46.0	11.9	3.39e-04	0	62	0	1074790400	54	6105
2026-01-19 23:51:48.78	195.64	19.99	-42.2	-46.3	11.6	5.07e-04	0	62	0	1076887552	54	6297
2026-01-19 23:51:49.79	195.65	19.86	-42.2	-46.3	11.6	8.13e-04	0	62	0	1078984704	55	5970
2026-01-19 23:51:50.80	195.66	19.73	-42.2	-46.4	11.5	8.90e-04	0	62	0	1081081856	55	6051
2026-01-19 23:51:51.81	195.68	19.60	-42.4	-46.8	11.1	1.15e-03	0	62	0	1083179008	55	6332
2026-01-19 23:51:52.81	195.69	19.47	-42.3	-46.7	11.2	1.24e-03	0	62	0	1084227584	55	6219
2026-01-19 23:51:53.82	195.70	19.34	-42.4	-46.7	11.1	1.48e-03	0	62	0	1086324736	55	6269
2026-01-19 23:51:54.84	195.71	19.21	-42.4	-46.9	11.0	1.66e-03	0	62	0	1088421888	55	6364
2026-01-19 23:51:55.84	195.73	19.08	-42.4	-46.8	11.1	1.79e-03	0	62	0	1090519040	55	6284
2026-01-19 23:51:56.85	195.74	18.96	-42.4	-46.9	11.0	1.97e-03	0	62	0	1092616192	55	6357
2026-01-19 23:51:57.86	195.75	18.83	-42.5	-47.1	10.7	2.77e-03	0	62	0	1093664768	55	6569
2026-01-19 23:51:58.87	195.76	18.70	-42.6	-47.3	10.6	2.23e-03	0	62	0	1095761920	55	6655
2026-01-19 23:51:59.88	195.78	18.58	-42.5	-47.2	10.6	3.03e-03	0	62	0	1097859072	55	6586
2026-01-19 23:52:00.89	195.79	18.45	-42.5	-47.1	10.8	3.06e-03	0	62	0	1099956224	55	6502
2026-01-19 23:52:01.90	195.80	18.33	-42.5	-47.1	10.8	2.49e-03	0	62	0	1102053376	55	6517
2026-01-19 23:52:02.91	195.81	18.21	-42.5	-47.2	10.7	3.00e-03	0	62	0	1103101952	55	6579
2026-01-19 23:52:03.93	195.82	18.08	-42.5	-47.1	10.6	2.22e-03	0	62	0	1105199104	55	6568
2026-01-19 23:52:04.94	195.84	17.96	-42.4	-46.9	11.0	2.22e-03	0	62	0	1107296256	55	6375
2026-01-19 23:52:05.95	195.85	17.84	-42.5	-47.0	10.8	2.47e-03	0	62	0	1109393408	55	6476
2026-01-19 23:52:06.96	195.86	17.72	-42.3	-46.6	11.3	1.38e-03	0	62	0	1111490560	55	6171
2026-01-19 23:52:07.96	195.87	17.60	-42.3	-46.5	11.3	1.10e-03	0	62	0	1113587712	55	6120
2026-01-19 23:52:08.97	195.88	17.48	-42.3	-46.5	11.3	1.34e-03	0	62	0	1114636288	55	6104
2026-01-19 23:52:09.98	195.89	17.36	-42.2	-46.4	11.4	1.12e-03	0	62	0	1116733440	55	6042
2026-01-19 23:52:10.99	195.90	17.24	-42.3	-46.5	11.3	1.05e-03	0	62	0	1118830592	55	6101
2026-01-19 23:52:12.00	195.92	17.12	-42.2	-46.4	11.5	9.41e-04	0	62	0	1120927744	55	6032
2026-01-19 23:52:13.01	195.93	17.00	-42.3	-46.5	11.4	8.76e-04	0	62	0	1123024896	55	6096
2026-01-19 23:52:14.03	195.94	16.88	-42.2	-46.5	11.4	1.12e-03	0	62	0	1124073472	55	6078
2026-01-19 23:52:15.04	195.95	16.77	-42.2	-46.5	11.3	9.17e-04	0	62	0	1126170624	55	6106
2026-01-19 23:52:16.04	195.96	16.65	-42.3	-46.6	11.3	9.28e-04	0	62	0	1128267776	55	6179
2026-01-19 23:52:17.05	195.97	16.54	-42.2	-46.3	11.6	8.73e-04	0	62	0	1130364928	55	5988
2026-01-19 23:52:18.06	195.98	16.42	-42.2	-46.4	11.4	9.22e-04	0	62	0	1132462080	55	6051
2026-01-19 23:52:19.08	195.99	16.30	-42.3	-46.6	11.2	1.16e-03	0	62	0	1133510656	55	6152
2026-01-19 23:52:20.08	196.00	16.19	-42.3	-46.7	11.1	1.53e-03	0	62	0	1135607808	55	6206
2026-01-19 23:52:21.10	196.02	16.08	-42.3	-46.7	11.1	1.55e-03	0	62	0	1137704960	55	6234
2026-01-19 23:52:22.11	196.03	15.96	-42.3	-46.7	11.1	1.80e-03	0	62	0	1139802112	55	6264
2026-01-19 23:52:23.11	196.04	15.85	-42.4	-46.9	10.9	2.36e-03	0	62	0	1141899264	55	6355
2026-01-19 23:52:24.12	196.05	15.74	-42.4	-46.8	11.0	1.67e-03	0	62	0	1142947840	55	6297
2026-01-19 23:52:25.13	196.06	15.63	-42.5	-47.2	10.6	2.34e-03	0	62	0	1145044992	55	6603
2026-01-19 23:52:26.14	196.07	15.52	-42.6	-47.3	10.5	3.03e-03	0	62	0	1147142144	55	6722
2026-01-19 23:52:27.15	196.08	15.41	-42.5	-47.2	10.5	4.24e-03	0	62	0	1149239296	55	6636
2026-01-19 23:52:28.16	196.09	15.30	-42.6	-47.5	10.3	5.25e-03	0	62	0	1151336448	55	6807
