passes_logs/2026/01/19/R2.0S_Moscow/R2.0S_Moscow__20260119_083134_NOAA_20_JPSS-1_rec.log

#Pass ID: 20260119_083134_NOAA 20 (JPSS-1)
#Satellite: NOAA 20 (JPSS-1)
#Configuration: NOAA 20
#almurnet v.1.7.20251203
#Start time: 2026-01-19 08:31:35

#Version: 2.2.20231116
#Station: R2.0S_Moscow
#Location: 37.707566 lon 55.798166 lat
#TLE: 1 43013U 17073A   26017.93796159  .00000077  00000+0  57252-4 0  9992
#TLE: 2 43013  98.7639 318.8464 0001390  34.9771 325.1496 14.19536703423157

#Time	Az	El	Level	Level2	SNR	BER	BlckErr	Temp	State	Recorded	gain1	gain2
2026-01-19 08:31:35.68	119.72	2.05	-20.9	-36.4	3.9	1.50e+00	0	53	0	0	14	20147
2026-01-19 08:31:36.68	119.66	2.11	-20.4	-37.3	4.1	1.50e+00	0	53	104	0	11	26512
2026-01-19 08:31:37.69	119.61	2.17	-20.7	-38.5	3.7	1.50e+00	0	53	104	0	16	23005
2026-01-19 08:31:38.70	119.55	2.23	-21.2	-36.3	3.8	1.50e+00	0	53	104	0	12	22501
2026-01-19 08:31:39.71	119.49	2.29	-22.9	-38.2	3.9	1.50e+00	0	53	104	0	14	24720
2026-01-19 08:31:40.72	119.43	2.35	-17.5	-34.9	3.4	1.50e+00	0	53	104	0	7	25290
2026-01-19 08:31:41.73	119.37	2.41	-20.7	-34.4	3.9	1.50e+00	0	53	104	0	9	21299
2026-01-19 08:31:42.74	119.31	2.47	-19.4	-36.0	3.4	1.50e+00	0	54	104	0	9	25685
2026-01-19 08:31:43.75	119.26	2.53	-17.1	-35.5	3.6	1.50e+00	0	53	104	0	9	24269
2026-01-19 08:31:44.76	119.20	2.59	-17.7	-35.1	3.7	1.50e+00	0	54	104	0	8	24600
2026-01-19 08:31:45.78	119.14	2.65	-17.0	-33.2	3.4	1.50e+00	0	54	104	0	8	19698
2026-01-19 08:31:46.78	119.08	2.71	-19.1	-35.3	3.7	1.50e+00	0	54	104	0	9	23853
2026-01-19 08:31:47.80	119.02	2.77	-23.2	-40.9	3.9	1.50e+00	0	54	104	0	18	26820
2026-01-19 08:31:48.81	118.96	2.83	-15.5	-31.2	3.6	1.50e+00	0	54	104	0	0	24824
2026-01-19 08:31:49.82	118.89	2.89	-18.4	-35.9	3.8	1.50e+00	0	54	104	0	14	19094
2026-01-19 08:31:50.83	118.83	2.95	-19.4	-36.8	3.7	1.50e+00	0	54	104	0	13	22331
2026-01-19 08:31:51.84	118.77	3.01	-20.1	-35.5	3.9	1.50e+00	0	54	104	0	11	21625
2026-01-19 08:31:52.85	118.71	3.08	-17.0	-35.2	3.8	1.50e+00	0	54	104	0	7	26347
2026-01-19 08:31:53.85	118.65	3.14	-18.7	-37.4	3.7	1.50e+00	0	54	104	0	16	20298
2026-01-19 08:31:54.86	118.59	3.20	-17.5	-35.9	3.9	1.50e+00	0	54	104	0	13	20080
2026-01-19 08:31:55.88	118.53	3.26	-23.2	-39.1	4.0	1.50e+00	0	54	104	0	14	27562
2026-01-19 08:31:56.89	118.46	3.32	-19.1	-38.7	4.1	1.50e+00	0	54	104	0	17	22087
2026-01-19 08:31:57.90	118.40	3.38	-20.9	-37.2	3.6	1.50e+00	0	54	104	0	16	19819
2026-01-19 08:31:58.91	118.34	3.44	-22.2	-36.8	3.9	1.50e+00	0	54	104	0	11	25079
2026-01-19 08:31:59.92	118.27	3.50	-23.5	-39.7	3.8	1.49e+00	0	54	104	0	16	26345
2026-01-19 08:32:00.93	118.21	3.57	-15.8	-34.0	4.1	1.50e+00	0	55	104	0	10	19191
2026-01-19 08:32:01.94	118.15	3.63	-18.1	-36.2	3.8	1.50e+00	0	55	104	0	6	31163
2026-01-19 08:32:02.95	118.08	3.69	-15.6	-33.1	3.7	1.50e+00	0	55	104	0	5	23158
2026-01-19 08:32:03.96	118.02	3.75	-18.4	-35.2	3.8	1.50e+00	0	55	104	0	9	23499
2026-01-19 08:32:04.97	117.95	3.81	-18.0	-37.1	3.6	1.50e+00	0	55	104	0	13	23060
2026-01-19 08:32:05.98	117.89	3.88	-20.7	-36.0	4.0	1.50e+00	0	55	104	0	10	24160
2026-01-19 08:32:06.99	117.82	3.94	-15.3	-35.9	3.6	1.50e+00	0	55	104	0	8	26952
2026-01-19 08:32:08.00	117.76	4.00	-23.4	-37.3	3.8	1.50e+00	0	55	104	0	11	26550
2026-01-19 08:32:09.01	117.69	4.06	-16.8	-32.7	4.0	1.50e+00	0	55	104	0	9	17572
2026-01-19 08:32:10.02	117.62	4.13	-16.2	-33.2	3.6	1.50e+00	0	55	104	0	4	24824
2026-01-19 08:32:11.03	117.56	4.19	-17.4	-33.8	3.8	1.50e+00	0	55	104	0	6	23769
2026-01-19 08:32:12.04	117.49	4.25	-17.8	-36.2	3.9	1.50e+00	0	55	104	0	11	23579
2026-01-19 08:32:13.05	117.42	4.32	-16.2	-32.9	4.0	1.50e+00	0	55	104	0	2	26920
2026-01-19 08:32:14.06	117.36	4.38	-17.9	-37.0	3.9	1.50e+00	0	55	104	0	15	20335
2026-01-19 08:32:15.07	117.29	4.44	-17.3	-35.1	4.0	1.50e+00	0	55	104	0	5	29193
2026-01-19 08:32:16.08	117.22	4.51	-16.4	-31.6	3.8	1.50e+00	0	55	104	0	3	21798
2026-01-19 08:32:17.09	117.15	4.57	-16.6	-33.3	4.0	1.50e+00	0	55	104	0	6	22427
2026-01-19 08:32:18.10	117.08	4.63	-17.2	-33.2	3.9	1.50e+00	0	56	104	0	4	24822
2026-01-19 08:32:19.11	117.02	4.70	-17.6	-34.2	3.8	1.50e+00	0	56	104	0	7	23479
2026-01-19 08:32:20.12	116.95	4.76	-18.7	-34.2	3.8	1.50e+00	0	55	104	0	6	24745
2026-01-19 08:32:21.13	116.88	4.82	-18.3	-34.3	4.0	1.50e+00	0	56	104	0	7	23812
2026-01-19 08:32:22.13	116.81	4.89	-20.1	-35.5	3.7	1.50e+00	0	56	104	0	7	27383
2026-01-19 08:32:23.14	116.74	4.95	-20.8	-37.1	3.8	1.50e+00	0	56	104	0	8	30918
2026-01-19 08:32:24.15	116.67	5.02	-19.0	-34.6	3.8	1.50e+00	0	56	104	0	14	16416
2026-01-19 08:32:25.17	116.60	5.08	-15.1	-33.7	3.9	1.50e+00	0	56	104	0	2	29491
2026-01-19 08:32:26.18	116.52	5.15	-19.3	-36.5	3.9	1.50e+00	0	56	104	0	9	27311
2026-01-19 08:32:27.18	116.45	5.21	-18.2	-35.6	3.7	1.50e+00	0	56	104	0	8	26039
2026-01-19 08:32:28.19	116.38	5.28	-19.2	-35.0	3.9	1.50e+00	0	56	104	0	10	21613
2026-01-19 08:32:29.20	116.31	5.34	-18.8	-35.9	4.1	1.50e+00	0	56	104	0	11	22717
2026-01-19 08:32:30.21	116.24	5.41	-17.8	-35.0	3.9	1.50e+00	0	56	104	0	9	22801
2026-01-19 08:32:31.22	116.16	5.47	-15.7	-32.9	3.8	1.50e+00	0	56	104	0	10	16938
2026-01-19 08:32:32.23	116.09	5.54	-18.5	-35.1	3.6	1.50e+00	0	56	104	0	9	23103
2026-01-19 08:32:33.24	116.02	5.60	-20.8	-36.2	3.6	1.50e+00	0	56	104	0	12	22111
2026-01-19 08:32:34.25	115.94	5.67	-23.6	-39.9	3.8	1.50e+00	0	57	104	0	13	32048
2026-01-19 08:32:35.26	115.87	5.73	-20.6	-35.5	3.9	1.50e+00	0	56	104	0	12	20378
2026-01-19 08:32:36.27	115.80	5.80	-18.5	-35.2	3.9	1.50e+00	0	56	104	0	12	19791
2026-01-19 08:32:37.28	115.72	5.86	-15.9	-31.8	3.8	1.50e+00	0	56	104	0	3	22311
2026-01-19 08:32:38.29	115.65	5.93	-16.2	-32.2	3.9	1.50e+00	0	56	0	0	6	19726
2026-01-19 08:32:39.30	115.57	6.00	-21.4	-37.2	3.6	1.50e+00	0	56	104	0	14	22221
2026-01-19 08:32:40.31	115.49	6.06	-18.0	-35.1	3.9	1.50e+00	0	57	104	0	13	18362
2026-01-19 08:32:41.32	115.42	6.13	-19.1	-33.4	3.9	1.50e+00	0	57	104	0	10	17947
2026-01-19 08:32:42.33	115.34	6.19	-17.4	-33.9	4.0	1.50e+00	0	57	104	0	5	25538
2026-01-19 08:32:43.34	115.26	6.26	-21.0	-36.4	3.8	1.50e+00	0	57	104	0	5	34047
2026-01-19 08:32:44.35	115.19	6.33	-20.5	-35.9	3.7	1.50e+00	0	57	104	0	11	22695
2026-01-19 08:32:45.36	115.11	6.39	-21.9	-35.2	3.9	1.50e+00	0	57	104	0	13	18526
2026-01-19 08:32:46.37	115.03	6.46	-17.4	-34.7	3.9	1.50e+00	0	57	104	0	12	18692
2026-01-19 08:32:47.38	114.95	6.53	-14.0	-33.7	3.8	1.50e+00	0	57	104	0	6	23374
2026-01-19 08:32:48.39	114.87	6.60	-16.2	-33.0	4.2	1.50e+00	0	57	104	0	7	20398
2026-01-19 08:32:49.40	114.80	6.66	-18.0	-36.3	3.7	1.50e+00	0	57	104	0	8	28099
2026-01-19 08:32:50.41	114.72	6.73	-18.6	-34.1	3.7	1.50e+00	0	57	104	0	8	21967
2026-01-19 08:32:51.42	114.64	6.80	-20.7	-38.0	3.4	1.50e+00	0	57	104	0	12	27315
2026-01-19 08:32:52.43	114.56	6.87	-15.4	-32.8	3.9	1.50e+00	0	57	104	0	11	15831
2026-01-19 08:32:53.44	114.47	6.93	-21.0	-37.3	4.1	1.50e+00	0	57	104	0	10	28190
2026-01-19 08:32:54.45	114.39	7.00	-19.1	-35.9	3.8	1.50e+00	0	57	104	0	10	24057
2026-01-19 08:32:55.46	114.31	7.07	-22.9	-39.0	4.1	1.50e+00	0	57	104	0	13	28880
2026-01-19 08:32:56.47	114.23	7.14	-23.2	-37.2	3.9	1.50e+00	0	57	104	0	14	22074
2026-01-19 08:32:57.48	114.15	7.21	-17.9	-36.0	3.7	1.50e+00	0	57	104	0	11	22924
2026-01-19 08:32:58.49	114.07	7.27	-23.5	-37.0	4.0	1.50e+00	0	57	104	0	12	24364
2026-01-19 08:32:59.50	113.98	7.34	-21.3	-36.6	3.7	1.50e+00	0	57	104	0	7	30819
2026-01-19 08:33:00.51	113.90	7.41	-24.0	-40.1	4.1	1.50e+00	0	57	104	0	14	30753
2026-01-19 08:33:01.52	113.82	7.48	-17.5	-34.7	3.9	1.50e+00	0	57	104	0	7	24806
2026-01-19 08:33:02.53	113.73	7.55	-18.8	-33.9	3.8	1.50e+00	0	57	104	0	7	22622
2026-01-19 08:33:03.54	113.65	7.62	-19.7	-34.7	4.0	1.50e+00	0	57	104	0	7	24909
2026-01-19 08:33:04.55	113.56	7.69	-20.1	-36.5	4.1	1.50e+00	0	57	104	0	9	27359
2026-01-19 08:33:05.56	113.48	7.76	-19.9	-37.9	3.8	1.50e+00	0	57	104	0	11	28671
2026-01-19 08:33:06.57	113.39	7.83	-21.7	-36.0	4.1	1.50e+00	0	58	104	0	9	25775
2026-01-19 08:33:07.58	113.30	7.90	-19.0	-34.6	4.1	1.50e+00	0	57	104	0	7	24561
2026-01-19 08:33:08.59	113.22	7.97	-20.0	-37.6	3.6	1.50e+00	0	58	104	0	9	30832
2026-01-19 08:33:09.60	113.13	8.04	-16.8	-32.8	4.0	1.50e+00	0	58	104	0	9	17718
2026-01-19 08:33:10.61	113.04	8.11	-24.9	-36.5	3.8	1.50e+00	0	58	104	0	8	28987
2026-01-19 08:33:11.62	112.95	8.18	-22.9	-37.9	3.9	1.50e+00	0	58	104	0	18	18972
2026-01-19 08:33:12.63	112.87	8.25	-18.4	-34.7	3.8	1.50e+00	0	58	104	0	8	23555
2026-01-19 08:33:13.64	112.78	8.32	-21.9	-36.4	4.0	1.50e+00	0	58	104	0	14	20236
2026-01-19 08:33:14.65	112.69	8.39	-20.5	-36.7	3.8	1.50e+00	0	58	104	0	11	24714
2026-01-19 08:33:15.66	112.60	8.46	-19.4	-34.9	3.8	1.50e+00	0	58	104	0	10	21493
2026-01-19 08:33:16.67	112.51	8.53	-21.0	-36.2	3.8	1.50e+00	0	58	104	0	11	23383
2026-01-19 08:33:17.68	112.42	8.60	-16.8	-34.8	3.8	1.50e+00	0	58	104	0	8	23850
2026-01-19 08:33:18.69	112.32	8.67	-21.1	-35.6	3.7	1.50e+00	0	58	104	0	15	17436
2026-01-19 08:33:19.70	112.23	8.74	-20.8	-37.0	4.1	1.50e+00	0	58	104	0	14	21542
2026-01-19 08:33:20.71	112.14	8.81	-27.7	-40.0	3.9	1.50e+00	0	58	104	0	20	21718
2026-01-19 08:33:21.72	112.05	8.88	-26.8	-43.8	3.7	1.50e+00	0	58	104	0	23	28285
2026-01-19 08:33:22.73	111.96	8.96	-22.4	-37.8	3.8	1.50e+00	0	58	104	0	10	29829
2026-01-19 08:33:23.74	111.86	9.03	-21.6	-37.0	3.9	1.50e+00	0	58	104	0	14	21574
2026-01-19 08:33:24.75	111.77	9.10	-21.0	-35.4	3.8	1.50e+00	0	58	104	0	12	20200
2026-01-19 08:33:25.76	111.67	9.17	-23.6	-38.3	4.0	1.50e+00	0	58	104	0	14	25064
2026-01-19 08:33:26.77	111.58	9.24	-28.4	-40.6	3.9	1.50e+00	0	58	104	0	15	30758
2026-01-19 08:33:27.78	111.48	9.32	-22.2	-39.1	3.7	1.50e+00	0	58	104	0	16	24452
2026-01-19 08:33:28.79	111.39	9.39	-27.2	-44.8	4.0	1.50e+00	0	58	104	0	30	21178
2026-01-19 08:33:29.80	111.29	9.46	-29.6	-48.7	3.9	1.50e+00	0	58	104	0	38	20789
2026-01-19 08:33:30.81	111.19	9.53	-25.9	-41.3	3.8	1.50e+00	0	58	104	0	22	22342
2026-01-19 08:33:31.82	111.10	9.61	-31.1	-45.3	3.8	1.50e+00	0	58	104	0	24	31710
2026-01-19 08:33:32.83	111.00	9.68	-27.0	-45.3	3.7	1.50e+00	0	58	104	0	25	29738
2026-01-19 08:33:33.84	110.90	9.75	-32.2	-49.8	3.8	1.50e+00	0	58	104	0	30	37668
2026-01-19 08:33:34.85	110.80	9.83	-25.6	-46.7	4.1	1.50e+00	0	58	104	0	32	23531
2026-01-19 08:33:35.86	110.70	9.90	-22.9	-40.0	3.7	1.50e+00	0	58	104	0	18	24382
2026-01-19 08:33:36.87	110.60	9.97	-24.7	-47.5	3.6	1.47e+00	0	58	104	0	27	34464
2026-01-19 08:33:37.88	110.50	10.05	-33.1	-50.8	3.8	1.49e+00	0	59	104	0	31	39879
2026-01-19 08:33:38.89	110.40	10.12	-27.3	-47.2	3.8	1.50e+00	0	58	104	0	28	31253
2026-01-19 08:33:39.90	110.30	10.19	-28.7	-45.9	4.0	1.50e+00	0	58	104	0	23	35939
2026-01-19 08:33:40.91	110.20	10.27	-29.0	-46.4	4.1	1.50e+00	0	59	104	0	26	32117
2026-01-19 08:33:41.92	110.10	10.34	-25.5	-43.8	4.1	1.50e+00	0	59	104	0	21	31728
2026-01-19 08:33:42.93	109.99	10.42	-22.5	-42.5	3.7	1.50e+00	0	59	0	0	16	36519
2026-01-19 08:33:43.94	109.89	10.49	-23.2	-43.0	4.5	1.50e+00	0	59	104	0	24	24228
2026-01-19 08:33:44.95	109.78	10.56	-31.3	-48.2	4.5	1.43e+00	0	59	104	0	33	26289
2026-01-19 08:33:45.96	109.68	10.64	-29.2	-53.4	4.1	9.58e-01	0	59	104	0	43	26848
2026-01-19 08:33:46.97	109.57	10.71	-34.0	-51.0	3.7	1.50e+00	0	59	104	0	31	40647
2026-01-19 08:33:47.97	109.47	10.79	-30.9	-48.4	3.8	1.50e+00	0	59	104	0	35	23897
2026-01-19 08:33:48.98	109.36	10.86	-25.6	-44.6	3.6	1.50e+00	0	59	104	0	19	39125
2026-01-19 08:33:49.99	109.26	10.94	-31.9	-49.6	3.9	1.50e+00	0	59	104	0	30	36875
2026-01-19 08:33:51.00	109.15	11.01	-36.8	-53.1	4.2	1.50e+00	0	59	104	0	36	39087
2026-01-19 08:33:52.01	109.04	11.09	-29.4	-51.6	3.8	1.50e+00	0	59	104	0	37	30886
2026-01-19 08:33:53.02	108.93	11.16	-35.4	-52.3	4.5	1.10e+00	31	59	0	0	49	16759
2026-01-19 08:33:54.03	108.82	11.24	-37.0	-56.3	3.9	1.49e+00	0	59	104	0	48	28151
2026-01-19 08:33:55.04	108.71	11.32	-33.6	-49.9	4.6	1.37e+00	0	59	104	0	42	19012
2026-01-19 08:33:56.05	108.60	11.39	-37.0	-47.9	5.8	1.37e+00	14	59	0	0	45	12754
2026-01-19 08:33:57.06	108.49	11.47	-36.7	-47.7	5.6	4.52e-01	27	59	0	1048576	42	14732
2026-01-19 08:33:58.07	108.38	11.54	-37.9	-48.4	6.1	4.87e-01	5	59	0	3145728	47	11992
2026-01-19 08:33:59.08	108.27	11.62	-33.8	-47.7	5.4	7.48e-01	28	59	0	5242880	42	14797
2026-01-19 08:34:00.09	108.16	11.70	-37.6	-48.1	6.3	3.14e-01	3	59	0	7340032	46	12293
2026-01-19 08:34:01.10	108.04	11.77	-33.8	-47.0	5.6	6.30e-01	19	59	0	8388608	43	12892
2026-01-19 08:34:02.11	107.93	11.85	-36.9	-48.6	5.5	5.41e-01	16	59	0	10485760	46	12994
2026-01-19 08:34:03.12	107.82	11.93	-34.1	-51.1	4.0	1.35e+00	0	59	104	11534336	43	20738
2026-01-19 08:34:04.13	107.70	12.00	-36.1	-54.0	4.3	1.08e+00	0	59	104	11534336	45	25742
2026-01-19 08:34:05.14	107.58	12.08	-39.6	-51.9	3.9	1.49e+00	0	59	104	11534336	39	28651
2026-01-19 08:34:06.15	107.47	12.16	-39.5	-53.0	4.2	1.49e+00	0	59	104	11534336	43	25855
2026-01-19 08:34:07.16	107.35	12.24	-38.5	-50.8	5.5	1.33e+00	16	59	0	11534336	51	12534
2026-01-19 08:34:08.16	107.24	12.31	-36.4	-49.9	4.8	1.01e+00	41	59	0	12582912	44	17052
2026-01-19 08:34:09.17	107.12	12.39	-40.8	-51.1	5.2	1.26e+00	25	59	0	13631488	52	12302
2026-01-19 08:34:10.18	107.00	12.47	-42.3	-51.0	5.1	7.03e-01	21	59	0	14680064	49	14451
2026-01-19 08:34:11.19	106.88	12.55	-37.0	-49.9	5.1	6.77e-01	39	59	0	16777216	46	15147
2026-01-19 08:34:12.20	106.76	12.62	-34.8	-49.7	5.2	6.25e-01	30	59	0	18874368	45	15631
2026-01-19 08:34:13.21	106.64	12.70	-38.0	-48.9	6.2	6.99e-01	5	59	0	19922944	47	12772
2026-01-19 08:34:14.22	106.52	12.78	-40.7	-53.7	3.8	1.28e+00	0	59	104	20971520	49	19782
2026-01-19 08:34:15.23	106.39	12.86	-38.3	-51.3	4.3	7.25e-01	21	59	0	20971520	45	18741
2026-01-19 08:34:16.24	106.27	12.94	-35.7	-53.0	4.1	1.50e+00	0	59	104	20971520	42	27351
2026-01-19 08:34:17.25	106.15	13.02	-29.5	-48.2	3.9	1.23e+00	0	60	104	20971520	35	23451
2026-01-19 08:34:18.26	106.02	13.09	-32.8	-46.6	6.1	1.14e+00	24	59	0	20971520	40	14606
2026-01-19 08:34:19.27	105.90	13.17	-38.4	-47.9	6.8	6.27e-01	13	60	0	23068672	47	11411
2026-01-19 08:34:20.28	105.77	13.25	-41.5	-48.1	6.8	2.33e-01	1	59	0	24117248	51	9271
2026-01-19 08:34:21.29	105.65	13.33	-36.1	-47.7	6.0	4.12e-01	9	59	0	26214400	45	12481
2026-01-19 08:34:22.30	105.52	13.41	-38.5	-48.4	7.0	2.06e-01	0	59	0	28311552	51	9559
2026-01-19 08:34:23.31	105.39	13.49	-35.9	-47.4	5.9	3.90e-01	22	60	0	30408704	37	19121
2026-01-19 08:34:24.32	105.27	13.57	-35.5	-47.8	6.5	2.96e-01	4	59	0	31457280	46	11875
2026-01-19 08:34:25.33	105.14	13.65	-37.3	-47.5	6.5	1.78e-01	2	60	0	33554432	43	13701
2026-01-19 08:34:26.33	105.01	13.73	-39.9	-48.0	7.8	3.37e-01	0	59	0	35651584	51	9102
2026-01-19 08:34:27.34	104.88	13.81	-34.7	-47.5	6.6	1.46e-01	5	60	0	37748736	45	12176
2026-01-19 08:34:28.36	104.75	13.89	-40.3	-48.1	7.6	3.04e-01	0	60	0	39845888	51	9279
2026-01-19 08:34:29.36	104.62	13.97	-37.8	-48.0	7.5	1.15e-01	0	60	0	40894464	47	11481
2026-01-19 08:34:30.37	104.48	14.05	-42.2	-47.6	9.0	8.57e-02	0	60	0	42991616	55	6936
2026-01-19 08:34:31.38	104.35	14.13	-40.7	-47.5	8.2	1.20e-01	0	60	0	45088768	48	10237
2026-01-19 08:34:32.39	104.22	14.21	-41.9	-47.6	8.8	1.48e-01	0	60	0	47185920	53	7787
2026-01-19 08:34:33.40	104.08	14.29	-42.1	-47.4	9.7	9.95e-02	0	60	0	49283072	55	6785
2026-01-19 08:34:34.41	103.95	14.37	-41.4	-47.3	8.8	3.50e-02	0	60	0	51380224	52	7912
2026-01-19 08:34:35.42	103.81	14.45	-41.6	-47.3	9.5	4.50e-02	0	59	0	52428800	53	7484
2026-01-19 08:34:36.43	103.67	14.53	-42.0	-48.0	9.2	5.90e-02	0	59	0	54525952	55	7245
2026-01-19 08:34:37.44	103.54	14.61	-42.5	-47.9	8.2	8.05e-02	0	60	0	56623104	49	10124
2026-01-19 08:34:38.44	103.40	14.69	-40.9	-47.1	9.7	3.17e-02	0	60	0	58720256	52	7753
2026-01-19 08:34:39.45	103.26	14.77	-42.3	-47.5	9.9	2.37e-02	0	60	0	60817408	55	6869
2026-01-19 08:34:40.46	103.12	14.85	-42.3	-47.6	9.5	1.92e-02	0	60	0	61865984	54	7317
2026-01-19 08:34:41.47	102.98	14.94	-42.5	-47.7	9.5	5.06e-02	0	60	0	63963136	54	7411
2026-01-19 08:34:42.48	102.84	15.02	-41.1	-47.4	9.1	1.34e-02	0	60	0	66060288	53	7565
2026-01-19 08:34:43.49	102.70	15.10	-42.3	-47.6	9.8	2.20e-02	0	60	0	68157440	55	6920
2026-01-19 08:34:44.50	102.55	15.18	-39.0	-47.8	8.5	2.05e-02	0	60	0	70254592	50	9394
2026-01-19 08:34:45.51	102.41	15.26	-41.7	-47.6	9.8	1.74e-02	0	60	0	71303168	55	6894
2026-01-19 08:34:46.52	102.26	15.34	-41.6	-47.4	9.3	3.83e-02	0	60	0	73400320	54	7190
2026-01-19 08:34:47.53	102.12	15.43	-42.3	-47.7	9.7	2.31e-02	0	60	0	75497472	55	6978
2026-01-19 08:34:48.54	101.97	15.51	-42.3	-47.4	10.1	8.08e-03	0	60	0	77594624	55	6768
2026-01-19 08:34:49.55	101.83	15.59	-42.2	-47.2	10.1	2.50e-02	0	60	0	79691776	54	6985
2026-01-19 08:34:50.56	101.68	15.67	-41.1	-46.9	10.4	7.32e-03	0	60	0	80740352	54	6725
2026-01-19 08:34:51.57	101.53	15.75	-41.9	-46.6	10.9	4.36e-03	0	60	0	82837504	54	6560
2026-01-19 08:34:52.58	101.38	15.84	-42.1	-46.9	10.6	6.62e-03	0	60	0	84934656	54	6741
2026-01-19 08:34:53.59	101.23	15.92	-42.2	-47.1	10.5	5.68e-03	0	60	0	87031808	54	6914
2026-01-19 08:34:54.60	101.08	16.00	-42.1	-47.0	10.6	4.37e-03	0	60	0	89128960	55	6437
2026-01-19 08:34:55.61	100.93	16.08	-41.7	-46.9	10.6	9.10e-03	0	60	0	90177536	54	6752
2026-01-19 08:34:56.61	100.78	16.17	-41.8	-46.5	10.6	3.56e-03	0	60	0	92274688	53	6864
2026-01-19 08:34:57.62	100.62	16.25	-42.1	-46.6	11.1	5.15e-03	0	60	0	94371840	54	6537
2026-01-19 08:34:58.63	100.47	16.33	-41.5	-46.6	10.6	1.04e-02	0	60	0	96468992	53	6958
2026-01-19 08:34:59.64	100.31	16.41	-40.3	-47.0	10.5	1.08e-02	0	60	0	98566144	55	6475
2026-01-19 08:35:00.65	100.15	16.50	-39.5	-46.9	10.2	7.23e-03	0	60	0	99614720	51	8068
2026-01-19 08:35:01.66	100.00	16.58	-41.2	-46.6	10.5	1.17e-02	0	60	0	101711872	52	7360
2026-01-19 08:35:02.67	99.84	16.66	-41.5	-46.9	10.0	9.39e-03	0	60	0	103809024	53	7157
2026-01-19 08:35:03.68	99.68	16.75	-41.9	-47.1	10.1	7.35e-03	0	60	0	105906176	55	6538
2026-01-19 08:35:04.69	99.52	16.83	-40.6	-47.1	10.1	8.66e-03	0	60	0	108003328	51	8213
2026-01-19 08:35:05.70	99.36	16.91	-41.6	-47.3	10.2	3.78e-02	0	60	0	109051904	54	7070
2026-01-19 08:35:06.71	99.20	16.99	-41.0	-47.1	9.9	2.17e-02	0	60	0	111149056	52	7724
2026-01-19 08:35:07.72	99.04	17.08	-41.8	-47.0	10.5	1.92e-02	0	60	0	113246208	54	6855
2026-01-19 08:35:08.73	98.87	17.16	-42.0	-47.1	10.6	6.64e-03	0	60	0	115343360	54	6889
2026-01-19 08:35:09.74	98.71	17.24	-41.9	-47.2	10.2	1.47e-02	0	60	0	117440512	53	7401
2026-01-19 08:35:10.75	98.54	17.33	-42.0	-47.5	10.1	7.33e-03	0	60	0	119537664	55	6817
2026-01-19 08:35:11.76	98.38	17.41	-42.2	-47.4	10.4	1.13e-02	0	60	0	120586240	55	6744
2026-01-19 08:35:12.77	98.21	17.49	-41.9	-47.1	10.2	5.99e-03	0	60	0	122683392	53	7359
2026-01-19 08:35:13.78	98.04	17.58	-41.5	-47.0	10.2	1.54e-02	0	60	0	124780544	53	7273
2026-01-19 08:35:14.79	97.87	17.66	-42.2	-47.4	10.4	5.96e-03	0	60	0	126877696	55	6735
2026-01-19 08:35:15.79	97.70	17.74	-41.7	-47.2	10.3	5.75e-03	0	60	0	128974848	54	6980
2026-01-19 08:35:16.80	97.53	17.83	-42.3	-47.5	10.3	9.04e-03	0	60	0	130023424	55	6857
2026-01-19 08:35:17.81	97.36	17.91	-42.2	-47.4	10.3	6.22e-03	0	60	0	132120576	55	6755
2026-01-19 08:35:18.82	97.19	17.99	-40.9	-47.2	10.4	3.40e-03	0	60	0	134217728	54	7036
2026-01-19 08:35:19.83	97.01	18.08	-42.4	-47.2	10.6	3.87e-03	0	60	0	136314880	55	6634
2026-01-19 08:35:20.84	96.84	18.16	-42.3	-47.0	10.8	2.80e-03	0	60	0	138412032	55	6433
2026-01-19 08:35:21.85	96.66	18.25	-42.5	-47.2	10.6	2.95e-03	0	60	0	139460608	55	6640
2026-01-19 08:35:22.86	96.49	18.33	-42.4	-47.1	10.8	3.58e-03	0	60	0	141557760	55	6528
2026-01-19 08:35:23.87	96.31	18.41	-42.4	-47.1	10.8	2.36e-03	0	60	0	143654912	55	6510
2026-01-19 08:35:24.88	96.13	18.50	-42.4	-47.0	10.8	2.49e-03	0	60	0	145752064	55	6469
2026-01-19 08:35:25.89	95.95	18.58	-42.3	-47.2	10.7	2.89e-03	0	60	0	147849216	55	6591
2026-01-19 08:35:26.89	95.77	18.66	-42.5	-47.4	10.5	3.41e-03	0	60	0	148897792	55	6726
2026-01-19 08:35:27.91	95.59	18.75	-42.5	-47.4	10.5	4.28e-03	0	60	0	150994944	55	6741
2026-01-19 08:35:28.91	95.41	18.83	-42.5	-47.3	10.5	3.81e-03	0	60	0	153092096	55	6700
2026-01-19 08:35:29.92	95.22	18.91	-42.5	-47.3	10.5	4.65e-03	0	60	0	155189248	55	6702
2026-01-19 08:35:30.93	95.04	19.00	-42.5	-47.4	10.4	4.27e-03	0	60	0	157286400	55	6737
2026-01-19 08:35:31.94	94.85	19.08	-42.6	-47.5	10.3	5.06e-03	0	60	0	158334976	55	6853
2026-01-19 08:35:32.95	94.67	19.16	-42.5	-47.4	10.4	4.65e-03	0	60	0	160432128	55	6738
2026-01-19 08:35:33.96	94.48	19.25	-42.4	-47.2	10.6	3.36e-03	0	60	0	162529280	55	6622
2026-01-19 08:35:34.97	94.29	19.33	-42.3	-47.0	10.9	2.42e-03	0	60	0	164626432	55	6426
2026-01-19 08:35:35.98	94.10	19.41	-42.3	-46.8	11.0	1.60e-03	0	60	0	166723584	55	6334
2026-01-19 08:35:36.99	93.91	19.50	-42.3	-46.9	10.9	2.18e-03	0	60	0	167772160	55	6398
2026-01-19 08:35:38.00	93.72	19.58	-42.3	-47.0	10.9	2.09e-03	0	60	0	169869312	55	6423
2026-01-19 08:35:39.01	93.53	19.66	-42.2	-46.7	11.1	1.71e-03	0	60	0	171966464	55	6253
2026-01-19 08:35:40.02	93.33	19.75	-42.2	-46.7	11.1	1.98e-03	0	60	0	174063616	55	6212
2026-01-19 08:35:41.03	93.14	19.83	-42.2	-46.8	11.0	1.94e-03	0	60	0	176160768	55	6321
2026-01-19 08:35:42.04	92.94	19.91	-42.3	-46.9	10.9	2.23e-03	0	60	0	177209344	55	6377
2026-01-19 08:35:43.04	92.74	19.99	-42.3	-47.0	10.8	2.33e-03	0	60	0	179306496	55	6429
2026-01-19 08:35:44.05	92.55	20.08	-42.3	-46.9	10.8	2.32e-03	0	60	0	181403648	55	6368
2026-01-19 08:35:45.06	92.35	20.16	-42.2	-46.8	10.9	1.88e-03	0	61	0	183500800	55	6288
2026-01-19 08:35:46.07	92.15	20.24	-42.1	-46.6	11.1	1.79e-03	0	60	0	185597952	55	6194
2026-01-19 08:35:47.08	91.94	20.32	-42.2	-46.8	10.9	2.06e-03	0	60	0	187695104	55	6289
2026-01-19 08:35:48.09	91.74	20.41	-42.1	-46.6	11.1	1.78e-03	0	61	0	188743680	55	6167
2026-01-19 08:35:49.10	91.54	20.49	-42.0	-46.4	11.2	1.57e-03	0	61	0	190840832	55	6060
2026-01-19 08:35:50.11	91.33	20.57	-41.9	-46.4	11.2	1.27e-03	0	60	0	192937984	55	5998
2026-01-19 08:35:51.12	91.13	20.65	-41.9	-46.3	11.3	1.29e-03	0	61	0	195035136	55	5958
2026-01-19 08:35:52.13	90.92	20.74	-41.9	-46.4	11.2	8.53e-04	0	61	0	197132288	55	6009
2026-01-19 08:35:53.14	90.71	20.82	-41.9	-46.2	11.3	1.21e-03	0	61	0	198180864	55	5921
2026-01-19 08:35:54.15	90.50	20.90	-41.8	-46.2	11.3	1.12e-03	0	60	0	200278016	55	5907
2026-01-19 08:35:55.16	90.29	20.98	-41.9	-46.4	11.1	1.43e-03	0	61	0	202375168	55	6023
2026-01-19 08:35:56.17	90.08	21.06	-41.8	-46.3	11.2	1.33e-03	0	60	0	204472320	55	5929
2026-01-19 08:35:57.18	89.87	21.14	-41.7	-46.1	11.4	1.33e-03	0	60	0	206569472	55	5839
2026-01-19 08:35:58.19	89.65	21.22	-41.7	-46.2	11.2	1.18e-03	0	61	0	207618048	55	5884
2026-01-19 08:35:59.20	89.44	21.30	-41.7	-46.0	11.4	1.19e-03	0	60	0	209715200	55	5767
2026-01-19 08:36:00.21	89.22	21.39	-41.6	-45.8	11.6	6.66e-04	0	61	0	211812352	55	5650
2026-01-19 08:36:01.22	89.01	21.47	-41.5	-45.6	11.8	6.06e-04	0	60	0	213909504	55	5524
2026-01-19 08:36:02.23	88.79	21.55	-41.5	-45.6	11.9	4.33e-04	0	60	0	216006656	55	5494
2026-01-19 08:36:03.24	88.57	21.63	-41.5	-45.6	11.9	4.14e-04	0	61	0	217055232	55	5516
2026-01-19 08:36:04.25	88.35	21.71	-41.5	-45.6	12.0	3.06e-04	0	61	0	219152384	55	5481
2026-01-19 08:36:05.26	88.13	21.79	-41.6	-45.6	11.9	4.35e-04	0	61	0	221249536	55	5516
2026-01-19 08:36:06.27	87.90	21.87	-41.7	-45.9	11.6	4.94e-04	0	60	0	223346688	55	5716
2026-01-19 08:36:07.27	87.68	21.94	-41.6	-45.7	11.8	4.79e-04	0	61	0	225443840	55	5568
2026-01-19 08:36:08.28	87.46	22.02	-41.5	-45.7	11.9	4.57e-04	0	61	0	226492416	55	5530
2026-01-19 08:36:09.29	87.23	22.10	-41.6	-45.7	11.8	4.82e-04	0	60	0	228589568	55	5585
2026-01-19 08:36:10.30	87.00	22.18	-41.6	-45.8	11.7	5.65e-04	0	61	0	230686720	55	5624
2026-01-19 08:36:11.31	86.77	22.26	-41.6	-45.7	11.8	6.05e-04	0	60	0	232783872	55	5573
2026-01-19 08:36:12.32	86.54	22.34	-41.6	-45.7	11.9	4.59e-04	0	60	0	234881024	55	5540
2026-01-19 08:36:13.33	86.31	22.41	-41.6	-45.6	12.1	2.43e-04	0	61	0	235929600	55	5506
2026-01-19 08:36:14.34	86.08	22.49	-41.5	-45.5	12.2	2.44e-04	0	61	0	238026752	55	5433
2026-01-19 08:36:15.35	85.85	22.57	-41.6	-45.6	12.2	2.41e-04	0	60	0	240123904	55	5466
2026-01-19 08:36:16.36	85.61	22.65	-41.6	-45.6	12.2	1.84e-04	0	61	0	242221056	55	5470
2026-01-19 08:36:17.37	85.38	22.72	-41.6	-45.6	12.1	2.74e-04	0	61	0	244318208	55	5522
2026-01-19 08:36:18.38	85.14	22.80	-41.5	-45.4	12.3	1.63e-04	0	61	0	245366784	55	5370
2026-01-19 08:36:19.39	84.90	22.88	-41.6	-45.4	12.4	1.38e-04	0	60	0	247463936	54	5701
2026-01-19 08:36:20.40	84.66	22.95	-41.5	-45.3	12.5	1.38e-04	0	61	0	249561088	54	5630
2026-01-19 08:36:21.41	84.42	23.03	-41.5	-45.3	12.5	1.22e-04	0	61	0	251658240	54	5655
2026-01-19 08:36:22.42	84.18	23.10	-41.4	-45.2	12.7	9.84e-05	0	60	0	253755392	54	5531
2026-01-19 08:36:23.43	83.94	23.18	-41.4	-44.9	12.9	5.64e-05	0	61	0	254803968	54	5394
2026-01-19 08:36:24.44	83.70	23.25	-41.4	-45.0	12.8	5.03e-05	0	61	0	256901120	54	5444
2026-01-19 08:36:25.45	83.45	23.33	-41.5	-45.1	12.7	6.48e-05	0	61	0	258998272	54	5522
2026-01-19 08:36:26.46	83.20	23.40	-41.4	-45.0	13.0	5.11e-05	0	61	0	261095424	54	5412
2026-01-19 08:36:27.47	82.96	23.47	-41.5	-45.1	12.8	4.57e-05	0	61	0	263192576	54	5488
2026-01-19 08:36:28.48	82.71	23.55	-41.5	-45.1	12.8	5.72e-05	0	61	0	265289728	54	5512
2026-01-19 08:36:29.49	82.46	23.62	-41.6	-45.3	12.7	7.40e-05	0	61	0	266338304	54	5610
2026-01-19 08:36:30.50	82.21	23.69	-41.6	-45.3	12.7	6.63e-05	0	61	0	268435456	54	5616
2026-01-19 08:36:31.51	81.96	23.76	-41.6	-45.3	12.7	6.86e-05	0	61	0	270532608	54	5610
2026-01-19 08:36:32.52	81.70	23.83	-41.6	-45.2	12.7	6.33e-05	0	61	0	272629760	54	5586
2026-01-19 08:36:33.53	81.45	23.91	-41.7	-45.5	12.5	8.08e-05	0	61	0	274726912	54	5780
2026-01-19 08:36:34.54	81.19	23.98	-41.7	-45.6	12.5	1.35e-04	0	61	0	275775488	54	5790
2026-01-19 08:36:35.55	80.94	24.05	-41.8	-45.7	12.4	1.52e-04	0	61	0	277872640	54	5862
2026-01-19 08:36:36.56	80.68	24.12	-41.7	-45.5	12.6	9.76e-05	0	61	0	279969792	54	5728
2026-01-19 08:36:37.57	80.42	24.19	-41.7	-45.4	12.7	9.99e-05	0	61	0	282066944	54	5690
2026-01-19 08:36:38.58	80.16	24.25	-41.7	-45.4	12.6	1.19e-04	0	61	0	284164096	54	5689
2026-01-19 08:36:39.59	79.90	24.32	-41.6	-45.2	12.9	6.71e-05	0	60	0	285212672	54	5534
2026-01-19 08:36:40.60	79.64	24.39	-41.6	-45.3	12.7	4.95e-05	0	61	0	287309824	54	5625
2026-01-19 08:36:41.61	79.37	24.46	-41.5	-45.1	13.0	7.32e-05	0	61	0	289406976	54	5485
2026-01-19 08:36:42.62	79.11	24.53	-41.6	-45.1	12.8	4.11e-05	0	61	0	291504128	54	5520
2026-01-19 08:36:43.63	78.84	24.59	-41.6	-45.2	12.9	5.49e-05	0	61	0	293601280	54	5545
2026-01-19 08:36:44.64	78.58	24.66	-41.6	-45.2	12.9	4.73e-05	0	61	0	294649856	54	5554
2026-01-19 08:36:45.65	78.31	24.72	-41.5	-45.1	13.0	2.97e-05	0	61	0	296747008	54	5476
2026-01-19 08:36:46.66	78.04	24.79	-41.6	-45.3	12.8	5.41e-05	0	61	0	298844160	54	5603
2026-01-19 08:36:47.66	77.77	24.85	-41.7	-45.4	12.7	6.10e-05	0	60	0	300941312	54	5698
2026-01-19 08:36:48.67	77.50	24.92	-41.6	-45.2	12.8	7.55e-05	0	61	0	303038464	54	5576
2026-01-19 08:36:49.68	77.23	24.98	-41.6	-45.2	12.9	4.73e-05	0	61	0	304087040	54	5571
2026-01-19 08:36:50.69	76.95	25.04	-41.7	-45.4	12.8	5.64e-05	0	61	0	306184192	54	5660
2026-01-19 08:36:51.70	76.68	25.10	-41.7	-45.4	12.7	6.56e-05	0	61	0	308281344	54	5713
2026-01-19 08:36:52.71	76.40	25.17	-41.7	-45.4	12.7	8.62e-05	0	61	0	310378496	54	5706
2026-01-19 08:36:53.72	76.13	25.23	-41.6	-45.2	12.9	5.64e-05	0	61	0	312475648	54	5566
2026-01-19 08:36:54.73	75.85	25.29	-41.7	-45.3	12.8	4.27e-05	0	61	0	313524224	54	5612
2026-01-19 08:36:55.74	75.57	25.35	-41.6	-45.2	12.9	4.95e-05	0	61	0	315621376	54	5544
2026-01-19 08:36:56.75	75.29	25.41	-41.5	-45.0	13.2	3.50e-05	0	61	0	317718528	54	5438
2026-01-19 08:36:57.76	75.01	25.47	-41.5	-45.0	13.2	2.44e-05	0	61	0	319815680	54	5426
2026-01-19 08:36:58.77	74.73	25.52	-41.6	-45.1	13.0	3.50e-05	0	61	0	321912832	54	5509
2026-01-19 08:36:59.78	74.45	25.58	-41.6	-45.1	13.1	3.96e-05	0	61	0	322961408	54	5474
2026-01-19 08:37:00.79	74.16	25.64	-41.6	-45.2	13.0	3.58e-05	0	61	0	325058560	54	5539
2026-01-19 08:37:01.80	73.88	25.69	-41.6	-45.2	13.0	3.28e-05	0	61	0	327155712	54	5538
2026-01-19 08:37:02.81	73.59	25.75	-41.7	-45.4	12.8	5.41e-05	0	61	0	329252864	54	5681
2026-01-19 08:37:03.82	73.30	25.80	-41.7	-45.4	12.8	5.79e-05	0	61	0	331350016	54	5659
2026-01-19 08:37:04.83	73.02	25.86	-41.8	-45.5	12.6	8.23e-05	0	61	0	332398592	54	5768
2026-01-19 08:37:05.84	72.73	25.91	-41.9	-45.7	12.5	1.04e-04	0	61	0	334495744	54	5867
2026-01-19 08:37:06.85	72.44	25.96	-41.9	-45.7	12.5	1.13e-04	0	61	0	336592896	54	5866
2026-01-19 08:37:07.86	72.15	26.02	-41.9	-45.7	12.5	1.20e-04	0	61	0	338690048	54	5918
2026-01-19 08:37:08.87	71.85	26.07	-41.9	-45.8	12.4	1.65e-04	0	61	0	340787200	54	5943
2026-01-19 08:37:09.87	71.56	26.12	-42.0	-45.9	12.3	2.18e-04	0	61	0	341835776	54	6011
2026-01-19 08:37:10.88	71.27	26.17	-42.0	-46.0	12.2	2.52e-04	0	61	0	343932928	54	6118
2026-01-19 08:37:11.89	70.98	26.22	-42.1	-46.1	12.1	3.13e-04	0	61	0	346030080	54	6138
2026-01-19 08:37:12.90	70.68	26.26	-42.1	-46.1	12.1	2.65e-04	0	61	0	348127232	54	6170
2026-01-19 08:37:13.91	70.38	26.31	-42.1	-46.1	12.1	3.42e-04	0	61	0	350224384	54	6151
2026-01-19 08:37:14.92	70.09	26.36	-42.2	-46.3	11.9	3.61e-04	0	61	0	352321536	54	6312
2026-01-19 08:37:15.93	69.79	26.41	-42.4	-46.6	11.5	7.63e-04	0	61	0	353370112	55	6181
2026-01-19 08:37:16.94	69.49	26.45	-42.3	-46.5	11.6	5.60e-04	0	61	0	355467264	55	6123
2026-01-19 08:37:17.95	69.19	26.49	-42.3	-46.5	11.7	7.06e-04	0	61	0	357564416	55	6107
2026-01-19 08:37:18.96	68.89	26.54	-42.2	-46.3	11.9	3.95e-04	0	61	0	359661568	55	5949
2026-01-19 08:37:19.97	68.59	26.58	-42.3	-46.4	11.8	4.52e-04	0	61	0	361758720	55	6030
2026-01-19 08:37:20.98	68.28	26.62	-42.3	-46.5	11.7	5.57e-04	0	61	0	362807296	55	6087
2026-01-19 08:37:21.99	67.98	26.66	-42.4	-46.7	11.5	7.29e-04	0	61	0	364904448	55	6230
2026-01-19 08:37:23.00	67.68	26.71	-42.5	-46.9	11.3	8.32e-04	0	61	0	367001600	55	6378
2026-01-19 08:37:24.00	67.38	26.74	-42.5	-46.8	11.4	9.41e-04	0	61	0	369098752	55	6332
2026-01-19 08:37:25.01	67.07	26.78	-42.5	-46.9	11.3	9.79e-04	0	61	0	371195904	55	6357
2026-01-19 08:37:26.02	66.76	26.82	-42.6	-47.0	11.2	1.30e-03	0	61	0	372244480	55	6443
2026-01-19 08:37:27.03	66.46	26.86	-42.6	-47.0	11.2	1.35e-03	0	61	0	374341632	55	6440
2026-01-19 08:37:28.04	66.15	26.89	-42.5	-46.8	11.4	1.08e-03	0	61	0	376438784	55	6334
2026-01-19 08:37:29.05	65.84	26.93	-42.5	-46.8	11.5	8.94e-04	0	61	0	378535936	55	6280
2026-01-19 08:37:30.06	65.53	26.96	-42.5	-46.8	11.4	1.01e-03	0	61	0	380633088	55	6344
2026-01-19 08:37:31.07	65.22	27.00	-42.5	-46.8	11.5	9.01e-04	0	61	0	381681664	55	6284
2026-01-19 08:37:32.08	64.91	27.03	-42.6	-47.0	11.3	1.01e-03	0	61	0	383778816	55	6456
2026-01-19 08:37:33.09	64.60	27.06	-42.6	-47.0	11.2	1.15e-03	0	61	0	385875968	55	6459
2026-01-19 08:37:34.10	64.29	27.09	-42.6	-46.9	11.3	1.24e-03	0	61	0	387973120	55	6420
2026-01-19 08:37:35.11	63.98	27.12	-42.6	-47.1	11.2	1.24e-03	0	61	0	390070272	55	6510
2026-01-19 08:37:36.12	63.67	27.15	-42.6	-47.0	11.2	1.62e-03	0	61	0	391118848	55	6455
2026-01-19 08:37:37.13	63.35	27.18	-42.6	-47.1	11.2	1.44e-03	0	61	0	393216000	55	6531
2026-01-19 08:37:38.14	63.04	27.21	-42.7	-47.3	11.0	1.91e-03	0	61	0	395313152	55	6652
2026-01-19 08:37:39.15	62.73	27.23	-42.9	-47.5	11.0	2.35e-03	0	61	0	397410304	56	6446
2026-01-19 08:37:40.16	62.41	27.26	-42.9	-47.5	10.9	2.34e-03	0	61	0	399507456	56	6466
2026-01-19 08:37:41.17	62.10	27.28	-42.8	-47.4	11.0	2.00e-03	0	61	0	400556032	56	6390
2026-01-19 08:37:42.18	61.78	27.31	-42.8	-47.4	11.0	1.60e-03	0	61	0	402653184	56	6407
2026-01-19 08:37:43.19	61.46	27.33	-42.9	-47.5	10.9	2.04e-03	0	61	0	404750336	56	6437
2026-01-19 08:37:44.20	61.15	27.35	-42.9	-47.5	10.9	2.11e-03	0	61	0	406847488	56	6466
2026-01-19 08:37:45.21	60.83	27.37	-42.8	-47.4	11.0	1.92e-03	0	61	0	408944640	56	6370
2026-01-19 08:37:46.22	60.51	27.39	-42.8	-47.4	11.1	1.55e-03	0	61	0	409993216	56	6356
2026-01-19 08:37:47.23	60.20	27.41	-42.9	-47.6	10.9	1.81e-03	0	61	0	412090368	56	6503
2026-01-19 08:37:48.24	59.88	27.43	-43.0	-47.8	10.7	2.87e-03	0	61	0	414187520	56	6652
2026-01-19 08:37:49.25	59.56	27.45	-43.0	-47.8	10.6	3.61e-03	0	61	0	416284672	56	6665
2026-01-19 08:37:50.26	59.24	27.46	-43.0	-47.8	10.6	3.48e-03	0	61	0	418381824	56	6694
2026-01-19 08:37:51.27	58.92	27.48	-42.9	-47.6	10.8	2.66e-03	0	61	0	420478976	56	6501
2026-01-19 08:37:52.28	58.60	27.49	-42.9	-47.4	11.1	1.89e-03	0	61	0	421527552	56	6396
2026-01-19 08:37:53.29	58.28	27.50	-42.8	-47.3	11.1	1.58e-03	0	61	0	423624704	56	6298
2026-01-19 08:37:54.30	57.96	27.52	-42.7	-47.1	11.3	1.20e-03	0	61	0	425721856	56	6173
2026-01-19 08:37:55.31	57.64	27.53	-42.7	-47.1	11.4	1.07e-03	0	61	0	427819008	56	6137
2026-01-19 08:37:56.32	57.32	27.54	-42.7	-46.9	11.5	8.56e-04	0	61	0	429916160	56	6057
2026-01-19 08:37:57.33	57.00	27.55	-42.7	-47.1	11.4	8.73e-04	0	61	0	430964736	56	6159
2026-01-19 08:37:58.34	56.68	27.55	-42.8	-47.2	11.3	9.51e-04	0	61	0	433061888	56	6203
2026-01-19 08:37:59.35	56.36	27.56	-42.7	-47.1	11.5	1.01e-03	0	61	0	435159040	56	6132
2026-01-19 08:38:00.36	56.04	27.57	-42.7	-47.0	11.6	7.02e-04	0	61	0	437256192	56	6078
2026-01-19 08:38:01.37	55.72	27.57	-42.6	-46.7	11.8	5.44e-04	0	61	0	439353344	56	5898
2026-01-19 08:38:02.38	55.40	27.58	-42.6	-46.7	11.8	5.55e-04	0	61	0	440401920	56	5916
2026-01-19 08:38:03.39	55.08	27.58	-42.6	-46.8	11.7	5.13e-04	0	61	0	442499072	56	5957
2026-01-19 08:38:04.39	54.76	27.58	-42.6	-46.8	11.7	5.07e-04	0	61	0	444596224	56	5956
2026-01-19 08:38:05.40	54.44	27.58	-42.6	-46.7	11.8	5.00e-04	0	61	0	446693376	56	5907
2026-01-19 08:38:06.41	54.12	27.58	-42.6	-46.7	11.8	4.64e-04	0	61	0	448790528	56	5914
2026-01-19 08:38:07.42	53.79	27.58	-42.5	-46.6	11.9	3.59e-04	0	61	0	449839104	56	5823
2026-01-19 08:38:08.43	53.47	27.58	-42.6	-46.7	11.9	4.52e-04	0	61	0	451936256	56	5870
2026-01-19 08:38:09.44	53.15	27.58	-42.5	-46.6	11.9	4.10e-04	0	61	0	454033408	56	5846
2026-01-19 08:38:10.45	52.83	27.57	-42.5	-46.5	12.0	3.49e-04	0	61	0	456130560	56	5766
2026-01-19 08:38:11.46	52.51	27.57	-42.5	-46.5	12.0	4.81e-04	0	61	0	458227712	56	5784
2026-01-19 08:38:12.47	52.19	27.56	-42.5	-46.5	12.0	3.67e-04	0	61	0	459276288	56	5783
2026-01-19 08:38:13.48	51.87	27.55	-42.4	-46.4	12.1	3.12e-04	0	61	0	461373440	56	5711
2026-01-19 08:38:14.49	51.55	27.55	-42.4	-46.3	12.2	3.14e-04	0	61	0	463470592	56	5655
2026-01-19 08:38:15.50	51.23	27.54	-42.3	-46.2	12.3	1.75e-04	0	61	0	465567744	56	5558
2026-01-19 08:38:16.51	50.91	27.53	-42.3	-46.1	12.5	1.09e-04	0	61	0	467664896	56	5484
2026-01-19 08:38:17.52	50.59	27.52	-42.1	-45.8	12.7	8.69e-05	0	61	0	468713472	56	5325
2026-01-19 08:38:18.52	50.27	27.51	-42.1	-45.8	12.8	5.95e-05	0	61	0	470810624	56	5303
2026-01-19 08:38:19.54	49.95	27.49	-42.2	-45.8	12.8	8.85e-05	0	61	0	472907776	56	5330
2026-01-19 08:38:20.55	49.63	27.48	-42.2	-45.9	12.7	7.78e-05	0	61	0	475004928	56	5345
2026-01-19 08:38:21.55	49.31	27.46	-41.8	-45.3	13.1	4.65e-05	0	61	0	477102080	55	5326
2026-01-19 08:38:22.56	48.99	27.45	-41.8	-45.3	13.1	3.89e-05	0	61	0	478150656	55	5295
2026-01-19 08:38:23.57	48.68	27.43	-41.8	-45.3	13.1	3.20e-05	0	61	0	480247808	55	5313
2026-01-19 08:38:24.58	48.36	27.41	-41.8	-45.3	13.1	2.36e-05	0	61	0	482344960	55	5327
2026-01-19 08:38:25.59	48.04	27.40	-41.8	-45.3	13.1	4.19e-05	0	61	0	484442112	55	5315
2026-01-19 08:38:26.60	47.72	27.38	-41.8	-45.2	13.2	3.20e-05	0	61	0	486539264	55	5257
2026-01-19 08:38:27.61	47.41	27.35	-41.8	-45.2	13.2	2.51e-05	0	61	0	488636416	55	5257
2026-01-19 08:38:28.62	47.09	27.33	-41.7	-45.1	13.3	2.05e-05	0	61	0	489684992	55	5201
2026-01-19 08:38:29.63	46.78	27.31	-41.7	-45.2	13.3	1.90e-05	0	61	0	491782144	55	5226
2026-01-19 08:38:30.64	46.46	27.29	-41.8	-45.2	13.2	2.89e-05	0	61	0	493879296	55	5259
2026-01-19 08:38:31.64	46.15	27.26	-41.8	-45.3	13.1	2.74e-05	0	61	0	495976448	55	5284
2026-01-19 08:38:32.65	45.83	27.24	-41.9	-45.5	12.9	3.28e-05	0	61	0	498073600	55	5429
2026-01-19 08:38:33.66	45.52	27.21	-41.9	-45.5	13.0	3.43e-05	0	61	0	499122176	55	5404
2026-01-19 08:38:34.67	45.21	27.19	-41.9	-45.5	12.9	4.11e-05	0	61	0	501219328	55	5435
2026-01-19 08:38:35.68	44.89	27.16	-41.9	-45.5	13.0	6.25e-05	0	61	0	503316480	55	5423
2026-01-19 08:38:36.69	44.58	27.13	-41.9	-45.5	12.9	5.49e-05	0	61	0	505413632	55	5438
2026-01-19 08:38:37.70	44.27	27.10	-42.0	-45.6	12.8	4.80e-05	0	62	0	507510784	55	5484
2026-01-19 08:38:38.71	43.96	27.07	-41.9	-45.4	13.0	3.96e-05	0	61	0	508559360	55	5372
2026-01-19 08:38:39.72	43.65	27.04	-41.9	-45.4	13.0	4.57e-05	0	61	0	510656512	55	5376
2026-01-19 08:38:40.73	43.34	27.00	-41.9	-45.4	13.0	4.80e-05	0	61	0	512753664	55	5391
2026-01-19 08:38:41.74	43.03	26.97	-42.0	-45.6	12.8	4.95e-05	0	61	0	514850816	55	5519
2026-01-19 08:38:42.75	42.72	26.94	-42.0	-45.8	12.6	6.63e-05	0	61	0	516947968	55	5596
2026-01-19 08:38:43.76	42.41	26.90	-42.1	-45.8	12.6	1.08e-04	0	61	0	517996544	55	5624
2026-01-19 08:38:44.77	42.11	26.86	-42.1	-45.9	12.5	1.33e-04	0	61	0	520093696	55	5703
2026-01-19 08:38:45.78	41.80	26.83	-42.2	-46.0	12.4	1.40e-04	0	61	0	522190848	55	5777
2026-01-19 08:38:46.79	41.49	26.79	-42.2	-46.1	12.3	1.65e-04	0	61	0	524288000	55	5810
2026-01-19 08:38:47.80	41.19	26.75	-42.3	-46.2	12.3	1.89e-04	0	61	0	526385152	55	5860
2026-01-19 08:38:48.81	40.89	26.71	-42.3	-46.3	12.1	2.46e-04	0	61	0	527433728	55	5972
2026-01-19 08:38:49.81	40.58	26.67	-42.4	-46.4	11.9	3.00e-04	0	61	0	529530880	55	6044
2026-01-19 08:38:50.82	40.28	26.63	-42.4	-46.5	11.9	3.53e-04	0	61	0	531628032	55	6083
2026-01-19 08:38:51.83	39.98	26.59	-42.4	-46.5	11.8	4.34e-04	0	61	0	533725184	55	6129
2026-01-19 08:38:52.84	39.68	26.55	-42.5	-46.6	11.8	4.97e-04	0	61	0	535822336	55	6170
2026-01-19 08:38:53.85	39.38	26.50	-42.5	-46.6	11.8	5.91e-04	0	61	0	536870912	55	6171
2026-01-19 08:38:54.86	39.08	26.46	-42.5	-46.6	11.7	4.52e-04	0	61	0	538968064	55	6175
2026-01-19 08:38:55.87	38.78	26.41	-42.5	-46.7	11.6	5.57e-04	0	61	0	541065216	55	6268
2026-01-19 08:38:56.88	38.48	26.37	-42.6	-47.0	11.4	6.89e-04	0	61	0	543162368	55	6424
2026-01-19 08:38:57.89	38.19	26.32	-42.7	-47.0	11.3	9.90e-04	0	61	0	545259520	55	6489
2026-01-19 08:38:58.90	37.89	26.27	-42.9	-47.5	11.0	1.68e-03	0	61	0	546308096	56	6425
2026-01-19 08:38:59.91	37.60	26.23	-42.9	-47.4	11.1	1.83e-03	0	61	0	548405248	56	6355
2026-01-19 08:39:00.92	37.30	26.18	-42.9	-47.5	11.1	2.21e-03	0	61	0	550502400	56	6424
2026-01-19 08:39:01.93	37.01	26.13	-42.9	-47.4	11.1	1.64e-03	0	61	0	552599552	56	6364
2026-01-19 08:39:02.94	36.72	26.08	-42.9	-47.3	11.2	1.68e-03	0	61	0	554696704	56	6314
2026-01-19 08:39:03.95	36.43	26.03	-42.9	-47.4	11.2	1.25e-03	0	61	0	556793856	56	6363
2026-01-19 08:39:04.96	36.14	25.98	-42.9	-47.3	11.2	1.41e-03	0	61	0	557842432	56	6309
2026-01-19 08:39:05.97	35.85	25.92	-42.9	-47.4	11.1	1.58e-03	0	61	0	559939584	56	6400
2026-01-19 08:39:06.97	35.56	25.87	-43.0	-47.6	10.9	2.09e-03	0	61	0	562036736	56	6509
2026-01-19 08:39:07.98	35.27	25.82	-43.1	-47.8	10.7	2.71e-03	0	61	0	564133888	56	6679
2026-01-19 08:39:08.99	34.99	25.76	-43.1	-47.9	10.6	3.81e-03	0	61	0	566231040	56	6792
2026-01-19 08:39:10.00	34.70	25.71	-43.0	-47.8	10.6	3.29e-03	0	61	0	567279616	56	6718
2026-01-19 08:39:11.01	34.42	25.65	-43.0	-47.7	10.8	3.11e-03	0	61	0	569376768	56	6627
2026-01-19 08:39:12.02	34.13	25.59	-43.0	-47.6	10.9	2.01e-03	0	61	0	571473920	56	6533
2026-01-19 08:39:13.03	33.85	25.54	-43.0	-47.7	10.8	2.20e-03	0	61	0	573571072	56	6616
2026-01-19 08:39:14.04	33.57	25.48	-43.0	-47.7	10.8	2.08e-03	0	61	0	575668224	56	6584
2026-01-19 08:39:15.05	33.29	25.42	-43.0	-47.7	10.8	2.73e-03	0	61	0	576716800	56	6598
2026-01-19 08:39:16.06	33.01	25.36	-43.1	-47.8	10.7	2.64e-03	0	61	0	578813952	56	6666
2026-01-19 08:39:17.06	32.74	25.30	-43.0	-47.6	10.8	2.35e-03	0	61	0	580911104	56	6569
2026-01-19 08:39:18.07	32.46	25.24	-42.9	-47.5	11.0	2.31e-03	0	61	0	583008256	56	6429
2026-01-19 08:39:19.08	32.18	25.18	-42.9	-47.4	11.1	1.52e-03	0	62	0	585105408	56	6402
2026-01-19 08:39:20.09	31.91	25.12	-42.9	-47.4	11.1	1.41e-03	0	61	0	586153984	56	6370
2026-01-19 08:39:21.10	31.63	25.06	-42.8	-47.2	11.3	1.56e-03	0	61	0	588251136	56	6249
2026-01-19 08:39:22.11	31.36	25.00	-42.8	-47.3	11.2	1.19e-03	0	61	0	590348288	56	6281
2026-01-19 08:39:23.12	31.09	24.93	-42.8	-47.1	11.4	1.02e-03	0	61	0	592445440	56	6173
2026-01-19 08:39:24.13	30.82	24.87	-42.8	-47.1	11.4	9.18e-04	0	61	0	594542592	56	6152
2026-01-19 08:39:25.14	30.55	24.81	-42.8	-47.1	11.4	1.01e-03	0	61	0	595591168	56	6190
2026-01-19 08:39:26.15	30.28	24.74	-42.8	-47.2	11.3	1.14e-03	0	61	0	597688320	56	6245
2026-01-19 08:39:27.16	30.02	24.68	-42.8	-47.3	11.2	1.27e-03	0	61	0	599785472	56	6291
2026-01-19 08:39:28.17	29.75	24.61	-42.9	-47.3	11.1	1.55e-03	0	61	0	601882624	56	6331
2026-01-19 08:39:29.18	29.48	24.54	-42.8	-47.1	11.3	1.26e-03	0	61	0	603979776	56	6165
2026-01-19 08:39:30.19	29.22	24.48	-42.7	-47.1	11.4	9.16e-04	0	61	0	605028352	56	6155
2026-01-19 08:39:31.20	28.96	24.41	-42.7	-46.9	11.6	7.83e-04	0	61	0	607125504	56	6023
2026-01-19 08:39:32.21	28.70	24.34	-42.5	-46.7	11.7	6.22e-04	0	61	0	609222656	56	5893
2026-01-19 08:39:33.21	28.44	24.28	-42.6	-46.9	11.6	5.74e-04	0	61	0	611319808	56	5994
2026-01-19 08:39:34.22	28.18	24.21	-42.5	-46.5	11.9	5.04e-04	0	61	0	613416960	56	5779
2026-01-19 08:39:35.23	27.92	24.14	-42.4	-46.6	11.9	3.92e-04	0	61	0	614465536	56	5799
2026-01-19 08:39:36.24	27.66	24.07	-42.4	-46.5	12.0	3.75e-04	0	61	0	616562688	56	5724
2026-01-19 08:39:37.25	27.41	24.00	-42.5	-46.6	11.9	3.71e-04	0	62	0	618659840	56	5831
2026-01-19 08:39:38.26	27.15	23.93	-42.5	-46.5	12.0	3.95e-04	0	61	0	620756992	56	5758
2026-01-19 08:39:39.27	26.90	23.86	-42.4	-46.4	12.1	3.17e-04	0	61	0	622854144	56	5704
2026-01-19 08:39:40.28	26.65	23.79	-42.3	-46.1	12.4	1.97e-04	0	62	0	624951296	56	5472
2026-01-19 08:39:41.29	26.40	23.71	-42.2	-45.9	12.6	1.04e-04	0	61	0	625999872	56	5364
2026-01-19 08:39:42.30	26.15	23.64	-42.2	-46.0	12.5	9.00e-05	0	61	0	628097024	56	5405
2026-01-19 08:39:43.31	25.90	23.57	-42.2	-46.0	12.5	1.16e-04	0	61	0	630194176	56	5450
2026-01-19 08:39:44.32	25.65	23.50	-42.3	-46.1	12.4	1.56e-04	0	61	0	632291328	56	5479
2026-01-19 08:39:45.33	25.40	23.42	-42.3	-46.2	12.3	1.52e-04	0	62	0	633339904	56	5571
2026-01-19 08:39:46.34	25.16	23.35	-42.3	-46.0	12.4	1.48e-04	0	61	0	635437056	56	5464
2026-01-19 08:39:47.35	24.91	23.28	-42.2	-45.9	12.6	1.17e-04	0	61	0	637534208	56	5371
2026-01-19 08:39:48.35	24.67	23.20	-42.1	-45.8	12.7	7.93e-05	0	61	0	639631360	56	5306
2026-01-19 08:39:49.36	24.43	23.13	-42.1	-45.8	12.7	7.78e-05	0	62	0	641728512	56	5327
2026-01-19 08:39:50.38	24.19	23.05	-42.1	-45.8	12.7	7.55e-05	0	61	0	642777088	56	5293
2026-01-19 08:39:51.39	23.95	22.98	-42.0	-45.6	12.9	5.41e-05	0	61	0	644874240	56	5193
2026-01-19 08:39:52.40	23.71	22.90	-42.0	-45.7	12.8	4.50e-05	0	61	0	646971392	56	5230
2026-01-19 08:39:53.40	23.48	22.83	-41.9	-45.4	12.9	4.34e-05	0	61	0	649068544	55	5398
2026-01-19 08:39:54.41	23.24	22.75	-41.9	-45.6	12.7	5.95e-05	0	61	0	651165696	55	5498
2026-01-19 08:39:55.42	23.01	22.68	-42.0	-45.6	12.7	6.86e-05	0	61	0	653262848	55	5521
2026-01-19 08:39:56.43	22.77	22.60	-42.0	-45.7	12.6	8.39e-05	0	62	0	654311424	55	5578
2026-01-19 08:39:57.44	22.54	22.52	-42.0	-45.7	12.6	7.93e-05	0	61	0	656408576	55	5550
2026-01-19 08:39:58.45	22.31	22.45	-41.9	-45.5	12.8	6.17e-05	0	61	0	658505728	55	5432
2026-01-19 08:39:59.46	22.08	22.37	-41.8	-45.3	13.0	3.43e-05	0	61	0	660602880	55	5331
2026-01-19 08:40:00.47	21.85	22.29	-41.7	-45.3	13.0	4.04e-05	0	62	0	662700032	55	5312
2026-01-19 08:40:01.48	21.62	22.21	-41.8	-45.4	12.9	3.66e-05	0	61	0	663748608	55	5376
2026-01-19 08:40:02.49	21.40	22.13	-41.8	-45.3	13.0	2.82e-05	0	61	0	665845760	55	5306
2026-01-19 08:40:03.50	21.17	22.06	-41.7	-45.1	13.2	3.50e-05	0	61	0	667942912	55	5212
2026-01-19 08:40:04.51	20.95	21.98	-41.7	-45.1	13.2	2.28e-05	0	61	0	670040064	55	5183
2026-01-19 08:40:05.52	20.72	21.90	-41.6	-45.0	13.3	2.74e-05	0	61	0	672137216	55	5131
2026-01-19 08:40:06.53	20.50	21.82	-41.5	-44.9	13.4	2.05e-05	0	61	0	673185792	55	5066
2026-01-19 08:40:07.54	20.28	21.74	-41.6	-44.9	13.4	5.30e-06	0	61	0	675282944	54	5382
2026-01-19 08:40:08.55	20.06	21.66	-41.5	-44.8	13.5	7.60e-06	0	61	0	677380096	54	5301
2026-01-19 08:40:09.56	19.84	21.58	-41.4	-44.7	13.7	1.06e-05	0	61	0	679477248	54	5224
2026-01-19 08:40:10.56	19.63	21.50	-41.5	-44.9	13.5	7.60e-06	0	61	0	681574400	54	5343
2026-01-19 08:40:11.57	19.41	21.42	-41.5	-44.7	13.6	9.90e-06	0	62	0	682622976	54	5274
2026-01-19 08:40:12.58	19.19	21.34	-41.5	-44.8	13.5	9.90e-06	0	61	0	684720128	54	5307
2026-01-19 08:40:13.59	18.98	21.26	-41.4	-44.6	13.7	6.80e-06	0	61	0	686817280	54	5216
2026-01-19 08:40:14.60	18.77	21.18	-41.4	-44.6	13.7	9.90e-06	0	61	0	688914432	54	5176
2026-01-19 08:40:15.62	18.55	21.10	-41.4	-44.6	13.7	2.20e-06	0	61	0	691011584	54	5175
2026-01-19 08:40:16.63	18.34	21.02	-41.4	-44.7	13.6	9.10e-06	0	61	0	692060160	54	5225
2026-01-19 08:40:17.63	18.14	20.94	-41.3	-44.5	13.8	6.80e-06	0	61	0	694157312	54	5143
2026-01-19 08:40:18.64	17.93	20.86	-41.2	-44.3	14.0	4.50e-06	0	61	0	696254464	54	5002
2026-01-19 08:40:19.65	17.72	20.77	-41.2	-44.3	14.0	3.80e-06	0	61	0	698351616	54	5010
2026-01-19 08:40:20.66	17.51	20.69	-41.1	-44.1	14.2	0.00e+00	0	61	0	700448768	54	4906
2026-01-19 08:40:21.67	17.31	20.61	-41.1	-44.1	14.1	1.50e-06	0	61	0	701497344	54	4921
2026-01-19 08:40:22.68	17.10	20.53	-41.2	-44.3	14.0	3.80e-06	0	62	0	703594496	54	5014
2026-01-19 08:40:23.69	16.90	20.45	-41.2	-44.4	13.9	1.50e-06	0	61	0	705691648	54	5059
2026-01-19 08:40:24.70	16.70	20.37	-41.2	-44.3	14.0	3.80e-06	0	61	0	707788800	54	5015
2026-01-19 08:40:25.71	16.50	20.28	-41.2	-44.4	13.9	6.80e-06	0	61	0	709885952	54	5045
2026-01-19 08:40:26.72	16.30	20.20	-41.2	-44.3	14.0	1.50e-06	0	61	0	710934528	54	5017
2026-01-19 08:40:27.73	16.10	20.12	-41.2	-44.3	14.0	0.00e+00	0	62	0	713031680	54	5018
2026-01-19 08:40:28.74	15.90	20.04	-41.2	-44.5	13.8	4.50e-06	0	62	0	715128832	54	5116
2026-01-19 08:40:29.75	15.71	19.95	-41.2	-44.3	14.0	1.50e-06	0	61	0	717225984	54	5002
2026-01-19 08:40:30.76	15.51	19.87	-41.2	-44.3	13.9	2.20e-06	0	61	0	719323136	54	5017
2026-01-19 08:40:31.77	15.32	19.79	-41.2	-44.4	13.8	4.50e-06	0	61	0	721420288	54	5064
2026-01-19 08:40:32.78	15.12	19.71	-41.2	-44.3	13.9	3.80e-06	0	62	0	722468864	54	5031
2026-01-19 08:40:33.79	14.93	19.62	-41.2	-44.4	13.8	3.00e-06	0	61	0	724566016	54	5055
2026-01-19 08:40:34.80	14.74	19.54	-41.2	-44.4	13.8	2.20e-06	0	61	0	726663168	54	5075
2026-01-19 08:40:35.81	14.55	19.46	-41.2	-44.4	13.9	5.30e-06	0	62	0	728760320	54	5047
2026-01-19 08:40:36.82	14.36	19.38	-41.2	-44.4	13.8	5.30e-06	0	61	0	730857472	54	5063
2026-01-19 08:40:37.83	14.17	19.29	-41.2	-44.4	13.8	1.50e-06	0	61	0	731906048	54	5049
2026-01-19 08:40:38.84	13.99	19.21	-41.2	-44.3	13.8	3.80e-06	0	61	0	734003200	54	5037
2026-01-19 08:40:39.85	13.80	19.13	-41.2	-44.4	13.8	2.20e-06	0	62	0	736100352	54	5051
2026-01-19 08:40:40.86	13.62	19.04	-41.3	-44.5	13.7	3.00e-06	0	62	0	738197504	54	5132
2026-01-19 08:40:41.87	13.43	18.96	-41.3	-44.5	13.7	3.00e-06	0	61	0	740294656	54	5137
2026-01-19 08:40:42.88	13.25	18.88	-41.3	-44.5	13.7	7.60e-06	0	62	0	741343232	54	5121
2026-01-19 08:40:43.89	13.07	18.79	-41.4	-44.7	13.5	4.50e-06	0	62	0	743440384	54	5244
2026-01-19 08:40:44.90	12.89	18.71	-41.4	-44.7	13.5	1.22e-05	0	61	0	745537536	54	5231
2026-01-19 08:40:45.91	12.71	18.63	-41.4	-44.7	13.4	1.06e-05	0	61	0	747634688	54	5256
2026-01-19 08:40:46.92	12.53	18.54	-41.4	-44.8	13.3	7.60e-06	0	62	0	749731840	54	5332
2026-01-19 08:40:47.93	12.35	18.46	-41.4	-44.7	13.4	1.90e-05	0	61	0	750780416	54	5244
2026-01-19 08:40:48.94	12.18	18.38	-41.4	-44.7	13.5	9.90e-06	0	61	0	752877568	54	5231
2026-01-19 08:40:49.95	12.00	18.29	-41.4	-44.9	13.2	1.90e-05	0	61	0	754974720	54	5345
2026-01-19 08:40:50.96	11.82	18.21	-41.5	-44.9	13.2	2.21e-05	0	61	0	757071872	54	5386
2026-01-19 08:40:51.97	11.65	18.13	-41.5	-44.9	13.2	2.05e-05	0	62	0	759169024	54	5396
2026-01-19 08:40:52.98	11.48	18.05	-41.6	-45.1	13.0	3.66e-05	0	61	0	761266176	54	5489
2026-01-19 08:40:53.98	11.31	17.96	-41.7	-45.4	12.7	5.56e-05	0	62	0	762314752	54	5666
2026-01-19 08:40:54.99	11.14	17.88	-41.7	-45.4	12.6	7.70e-05	0	62	0	764411904	54	5682
2026-01-19 08:40:56.00	10.97	17.80	-41.7	-45.3	12.7	7.01e-05	0	62	0	766509056	54	5655
2026-01-19 08:40:57.01	10.80	17.71	-41.8	-45.5	12.4	1.01e-04	0	61	0	768606208	54	5768
2026-01-19 08:40:58.02	10.63	17.63	-41.7	-45.5	12.5	1.25e-04	0	61	0	769654784	54	5744
2026-01-19 08:40:59.02	10.46	17.55	-41.8	-45.6	12.4	1.62e-04	0	61	0	771751936	54	5810
2026-01-19 08:41:00.03	10.30	17.47	-41.8	-45.7	12.3	1.56e-04	0	61	0	773849088	54	5881
2026-01-19 08:41:01.04	10.13	17.38	-41.8	-45.7	12.2	2.23e-04	0	62	0	775946240	54	5923
2026-01-19 08:41:02.05	9.97	17.30	-41.8	-45.7	12.2	2.15e-04	0	61	0	778043392	54	5892
2026-01-19 08:41:03.06	9.81	17.22	-41.8	-45.8	12.1	2.48e-04	0	62	0	779091968	54	5975
2026-01-19 08:41:04.07	9.64	17.13	-41.8	-45.7	12.2	3.21e-04	0	61	0	781189120	54	5896
2026-01-19 08:41:05.08	9.48	17.05	-41.8	-45.7	12.2	2.27e-04	0	61	0	783286272	54	5893
2026-01-19 08:41:06.09	9.32	16.97	-41.7	-45.5	12.3	1.94e-04	0	61	0	785383424	54	5788
2026-01-19 08:41:07.10	9.16	16.88	-41.7	-45.5	12.3	1.62e-04	0	61	0	787480576	54	5765
2026-01-19 08:41:08.11	9.00	16.80	-41.8	-45.7	12.2	2.38e-04	0	61	0	789577728	54	5859
2026-01-19 08:41:09.12	8.84	16.72	-41.7	-45.6	12.2	1.85e-04	0	61	0	790626304	54	5828
2026-01-19 08:41:10.13	8.69	16.64	-41.8	-45.7	12.1	2.66e-04	0	61	0	792723456	54	5918
2026-01-19 08:41:11.14	8.53	16.55	-41.7	-45.6	12.2	2.88e-04	0	62	0	794820608	54	5816
2026-01-19 08:41:12.15	8.37	16.47	-41.8	-45.9	11.8	4.03e-04	0	61	0	796917760	54	6019
2026-01-19 08:41:13.16	8.22	16.39	-41.8	-46.0	11.7	4.81e-04	0	61	0	799014912	54	6088
2026-01-19 08:41:14.17	8.07	16.31	-41.8	-46.0	11.6	5.95e-04	0	62	0	800063488	54	6113
2026-01-19 08:41:15.18	7.91	16.22	-41.8	-46.0	11.6	5.89e-04	0	61	0	802160640	54	6117
2026-01-19 08:41:16.19	7.76	16.14	-41.9	-46.1	11.5	8.82e-04	0	62	0	804257792	54	6187
2026-01-19 08:41:17.19	7.61	16.06	-41.8	-46.1	11.5	8.11e-04	0	62	0	806354944	54	6161
2026-01-19 08:41:18.20	7.46	15.98	-41.8	-46.0	11.6	7.00e-04	0	62	0	808452096	54	6099
2026-01-19 08:41:19.21	7.31	15.90	-41.8	-46.0	11.5	7.67e-04	0	62	0	809500672	54	6119
2026-01-19 08:41:20.22	7.16	15.82	-41.8	-46.2	11.4	8.20e-04	0	61	0	811597824	54	6204
2026-01-19 08:41:21.23	7.02	15.73	-41.8	-46.1	11.4	9.02e-04	0	61	0	813694976	54	6171
2026-01-19 08:41:22.24	6.87	15.65	-41.9	-46.3	11.2	1.11e-03	0	62	0	815792128	54	6285
2026-01-19 08:41:23.25	6.72	15.57	-41.8	-46.2	11.3	1.03e-03	0	61	0	817889280	54	6204
2026-01-19 08:41:24.26	6.58	15.49	-41.8	-46.2	11.2	1.36e-03	0	61	0	818937856	54	6204
2026-01-19 08:41:25.27	6.43	15.41	-41.8	-46.2	11.1	1.69e-03	0	62	0	821035008	54	6254
2026-01-19 08:41:26.27	6.29	15.33	-41.8	-46.2	11.1	1.54e-03	0	61	0	823132160	54	6245
2026-01-19 08:41:27.28	6.15	15.25	-41.8	-46.4	10.9	2.02e-03	0	62	0	825229312	54	6401
2026-01-19 08:41:28.29	6.01	15.16	-41.8	-46.4	10.8	2.66e-03	0	61	0	827326464	54	6364
2026-01-19 08:41:29.31	5.86	15.08	-41.8	-46.4	10.7	2.68e-03	0	61	0	828375040	54	6386
2026-01-19 08:41:30.31	5.72	15.00	-41.7	-46.4	10.8	2.96e-03	0	61	0	830472192	54	6368
2026-01-19 08:41:31.33	5.58	14.92	-41.8	-46.5	10.5	3.73e-03	0	62	0	832569344	54	6467
2026-01-19 08:41:32.33	5.45	14.84	-41.7	-46.4	10.6	3.21e-03	0	61	0	834666496	54	6402
2026-01-19 08:41:33.34	5.31	14.76	-41.7	-46.5	10.5	3.84e-03	0	61	0	836763648	54	6433
2026-01-19 08:41:34.35	5.17	14.68	-41.7	-46.6	10.3	4.04e-03	0	61	0	837812224	54	6548
2026-01-19 08:41:35.36	5.03	14.60	-41.7	-46.6	10.2	6.77e-03	0	61	0	839909376	54	6550
2026-01-19 08:41:36.37	4.90	14.52	-41.6	-46.4	10.4	4.99e-03	0	61	0	842006528	54	6351
2026-01-19 08:41:37.38	4.76	14.44	-41.5	-46.3	10.4	3.87e-03	0	61	0	844103680	54	6327
2026-01-19 08:41:38.39	4.63	14.36	-41.6	-46.7	10.0	8.03e-03	0	61	0	846200832	54	6620
2026-01-19 08:41:39.40	4.49	14.28	-41.7	-47.1	9.5	1.36e-02	0	61	0	847249408	54	6923
2026-01-19 08:41:40.41	4.36	14.20	-41.6	-47.0	9.5	1.50e-02	0	62	0	849346560	54	6813
2026-01-19 08:41:41.42	4.23	14.12	-41.5	-46.8	9.5	1.67e-02	0	61	0	851443712	54	6713
2026-01-19 08:41:42.43	4.10	14.04	-41.3	-46.3	10.1	8.14e-03	0	61	0	853540864	54	6341
2026-01-19 08:41:43.43	3.97	13.96	-41.2	-46.2	10.1	8.02e-03	0	61	0	855638016	54	6263
2026-01-19 08:41:44.44	3.84	13.88	-40.9	-45.8	10.4	5.36e-03	0	62	0	857735168	53	6311
2026-01-19 08:41:45.45	3.71	13.80	-41.0	-46.1	10.0	7.50e-03	0	62	0	858783744	53	6516
2026-01-19 08:41:46.46	3.58	13.72	-41.0	-46.2	9.8	8.33e-03	0	62	0	860880896	53	6584
2026-01-19 08:41:47.47	3.45	13.64	-41.0	-46.7	9.2	1.62e-02	0	62	0	862978048	53	6991
2026-01-19 08:41:48.48	3.33	13.56	-41.2	-47.3	8.5	3.49e-02	0	61	0	865075200	53	7504
2026-01-19 08:41:49.49	3.20	13.48	-41.2	-47.9	7.8	5.31e-02	0	61	0	867172352	53	8013
2026-01-19 08:41:50.50	3.07	13.40	-41.3	-48.5	7.1	1.02e-01	0	61	0	868220928	53	8582
2026-01-19 08:41:51.51	2.95	13.32	-41.5	-49.9	5.9	2.98e-01	0	61	0	870318080	53	10066
2026-01-19 08:41:52.52	2.82	13.25	-41.5	-50.5	5.4	4.57e-01	0	62	0	872415232	53	10888
2026-01-19 08:41:53.53	2.70	13.17	-41.5	-51.5	4.8	6.56e-01	0	61	0	874512384	53	12199
2026-01-19 08:41:54.54	2.58	13.09	-41.5	-52.4	4.3	1.19e+00	92	62	0	876609536	53	13555
2026-01-19 08:41:55.55	2.45	13.01	-41.8	-52.8	4.3	1.38e+00	14	62	0	876609536	54	13410
2026-01-19 08:41:56.56	2.33	12.93	-41.2	-55.3	3.8	1.41e+00	0	61	104	876609536	54	17746
2026-01-19 08:41:57.57	2.21	12.85	-41.1	-55.6	3.8	1.49e+00	0	61	104	876609536	53	19426
2026-01-19 08:41:58.58	2.09	12.78	-41.7	-54.8	3.8	1.49e+00	0	62	104	876609536	53	17807
2026-01-19 08:41:59.59	1.97	12.70	-41.9	-55.4	3.8	1.49e+00	0	62	104	876609536	55	17029
2026-01-19 08:42:00.60	1.85	12.62	-41.6	-55.6	3.8	1.49e+00	0	62	104	876609536	55	17429
2026-01-19 08:42:01.60	1.73	12.54	-41.4	-55.6	3.8	1.49e+00	0	61	104	876609536	54	18435
2026-01-19 08:42:02.61	1.62	12.47	-41.2	-55.6	3.8	1.49e+00	0	62	104	876609536	54	18390
2026-01-19 08:42:03.62	1.50	12.39	-41.3	-55.7	3.8	1.49e+00	0	61	104	876609536	54	18731
2026-01-19 08:42:04.63	1.38	12.31	-40.7	-55.5	3.8	1.49e+00	0	61	104	876609536	53	19241
2026-01-19 08:42:05.64	1.27	12.24	-40.2	-55.0	3.8	1.49e+00	0	61	104	876609536	52	19231
2026-01-19 08:42:06.65	1.15	12.16	-40.4	-55.2	3.8	1.49e+00	0	61	104	876609536	52	19663
2026-01-19 08:42:07.66	1.04	12.08	-40.4	-55.1	3.8	1.49e+00	0	62	104	876609536	52	19558
2026-01-19 08:42:08.67	0.92	12.00	-40.3	-55.0	3.8	1.49e+00	0	61	104	876609536	52	19302
2026-01-19 08:42:09.68	0.81	11.93	-40.2	-55.0	3.8	1.49e+00	0	62	104	876609536	52	19258
2026-01-19 08:42:10.69	0.70	11.85	-40.2	-54.9	3.8	1.49e+00	0	62	104	876609536	52	19119
2026-01-19 08:42:11.70	0.58	11.78	-40.2	-54.9	3.8	1.49e+00	0	61	104	876609536	52	19081
2026-01-19 08:42:12.71	0.47	11.70	-40.8	-55.6	3.8	1.49e+00	0	61	104	876609536	52	20565
2026-01-19 08:42:13.72	0.36	11.62	-40.2	-55.0	3.8	1.49e+00	0	62	104	876609536	52	19346
2026-01-19 08:42:14.73	0.25	11.55	-40.3	-55.0	3.8	1.49e+00	0	62	104	876609536	52	19316
2026-01-19 08:42:15.74	0.14	11.47	-40.2	-55.0	3.8	1.49e+00	0	61	104	876609536	52	19190
2026-01-19 08:42:16.75	0.03	11.40	-40.1	-54.9	3.8	1.49e+00	0	61	104	876609536	52	19060
2026-01-19 08:42:17.76	359.92	11.32	-40.1	-54.9	3.8	1.49e+00	0	61	104	876609536	52	19058
2026-01-19 08:42:18.77	359.82	11.25	-39.9	-54.9	3.8	1.49e+00	0	62	104	876609536	51	20238
2026-01-19 08:42:19.78	359.71	11.17	-40.0	-54.9	3.8	1.49e+00	0	62	104	876609536	51	20261
2026-01-19 08:42:20.79	359.60	11.09	-40.5	-55.4	3.8	1.49e+00	0	62	104	876609536	51	21489
2026-01-19 08:42:21.80	359.49	11.02	-39.6	-54.9	3.8	1.49e+00	0	62	104	876609536	51	20208
2026-01-19 08:42:22.81	359.39	10.94	-40.1	-55.0	3.8	1.49e+00	0	62	104	876609536	51	20438
2026-01-19 08:42:23.81	359.28	10.87	-39.8	-54.9	3.8	1.49e+00	0	62	104	876609536	51	20165
2026-01-19 08:42:24.82	359.18	10.80	-39.7	-54.9	3.8	1.49e+00	0	62	104	876609536	51	20101
2026-01-19 08:42:25.83	359.08	10.72	-39.6	-54.9	3.8	1.49e+00	0	62	104	876609536	51	20120
2026-01-19 08:42:26.84	358.97	10.65	-39.7	-54.8	3.8	1.49e+00	0	62	104	876609536	51	19978
2026-01-19 08:42:27.85	358.87	10.57	-39.6	-54.8	3.8	1.49e+00	0	62	104	876609536	51	19936
2026-01-19 08:42:28.86	358.77	10.50	-40.2	-55.2	3.8	1.49e+00	0	62	104	876609536	51	20937
2026-01-19 08:42:29.87	358.66	10.43	-39.8	-54.9	3.8	1.49e+00	0	62	104	876609536	51	20158
2026-01-19 08:42:30.88	358.56	10.35	-39.9	-55.0	3.8	1.49e+00	0	61	104	876609536	51	20420
2026-01-19 08:42:31.89	358.46	10.28	-40.2	-55.2	3.8	1.49e+00	0	62	104	876609536	51	20814
2026-01-19 08:42:32.90	358.36	10.20	-39.8	-54.8	3.8	1.49e+00	0	62	104	876609536	51	20041
2026-01-19 08:42:33.91	358.26	10.13	-39.4	-54.9	3.8	1.49e+00	0	62	104	876609536	50	21262
2026-01-19 08:42:34.92	358.16	10.06	-39.8	-54.9	3.8	1.49e+00	0	62	104	876609536	50	21487
2026-01-19 08:42:35.93	358.06	9.98	-40.1	-55.1	3.8	1.49e+00	0	62	104	876609536	50	21966
2026-01-19 08:42:36.93	357.97	9.91	-39.9	-54.8	3.8	1.49e+00	0	62	104	876609536	50	21191
2026-01-19 08:42:37.95	357.87	9.84	-39.4	-54.8	3.8	1.49e+00	0	62	104	876609536	50	21141
2026-01-19 08:42:38.96	357.77	9.77	-39.8	-54.9	3.8	1.49e+00	0	61	104	876609536	50	21363
2026-01-19 08:42:39.97	357.67	9.69	-40.0	-55.0	3.8	1.49e+00	0	62	104	876609536	50	21734
2026-01-19 08:42:40.97	357.58	9.62	-39.7	-54.8	3.8	1.49e+00	0	62	104	876609536	50	21203
2026-01-19 08:42:41.98	357.48	9.55	-39.6	-54.8	3.8	1.49e+00	0	61	104	876609536	50	21080
2026-01-19 08:42:42.99	357.39	9.48	-39.7	-54.9	3.8	1.49e+00	0	62	104	876609536	50	21277
2026-01-19 08:42:44.00	357.29	9.40	-39.7	-54.9	3.8	1.49e+00	0	62	104	876609536	50	21487
2026-01-19 08:42:45.01	357.20	9.33	-39.7	-54.8	3.8	1.49e+00	0	62	104	876609536	50	21127
2026-01-19 08:42:46.02	357.10	9.26	-39.7	-54.8	3.8	1.49e+00	0	62	104	876609536	50	21051
2026-01-19 08:42:47.03	357.01	9.19	-39.4	-54.8	3.8	1.49e+00	0	62	104	876609536	50	21185
2026-01-19 08:42:48.04	356.92	9.12	-39.6	-54.9	3.8	1.49e+00	0	62	104	876609536	50	21285
2026-01-19 08:42:49.05	356.82	9.05	-39.6	-54.8	3.8	1.49e+00	0	62	104	876609536	50	21067
2026-01-19 08:42:50.06	356.73	8.97	-39.6	-54.8	3.8	1.49e+00	0	61	104	876609536	50	21062
2026-01-19 08:42:51.07	356.64	8.90	-39.4	-54.8	3.8	1.49e+00	0	62	104	876609536	50	21134
2026-01-19 08:42:52.08	356.55	8.83	-39.7	-54.9	3.8	1.49e+00	0	62	104	876609536	50	21274
2026-01-19 08:42:53.09	356.46	8.76	-39.6	-54.7	3.8	1.49e+00	0	62	104	876609536	50	20925
2026-01-19 08:42:54.09	356.37	8.69	-39.7	-54.8	3.8	1.49e+00	0	62	104	876609536	50	21126
2026-01-19 08:42:55.11	356.28	8.62	-39.6	-54.8	3.8	1.49e+00	0	62	104	876609536	50	21074
2026-01-19 08:42:56.11	356.19	8.55	-39.8	-54.8	3.8	1.49e+00	0	62	104	876609536	50	21200
2026-01-19 08:42:57.12	356.10	8.48	-39.6	-54.7	3.8	1.49e+00	0	62	104	876609536	50	20892
2026-01-19 08:42:58.13	356.01	8.41	-39.8	-54.8	3.8	1.49e+00	0	62	104	876609536	50	21149
2026-01-19 08:42:59.14	355.92	8.34	-39.7	-54.7	3.8	1.49e+00	0	62	104	876609536	50	20984
2026-01-19 08:43:00.15	355.84	8.27	-39.9	-54.9	3.8	1.49e+00	0	62	104	876609536	50	21306
2026-01-19 08:43:01.16	355.75	8.20	-39.8	-54.7	3.8	1.49e+00	0	62	104	876609536	50	20967
2026-01-19 08:43:02.17	355.66	8.13	-40.0	-54.8	3.8	1.49e+00	0	62	104	876609536	50	21199
2026-01-19 08:43:03.18	355.58	8.06	-39.7	-54.8	3.8	1.49e+00	0	62	104	876609536	50	21019
2026-01-19 08:43:04.19	355.49	7.99	-40.0	-54.9	3.8	1.49e+00	0	62	104	876609536	50	21381
2026-01-19 08:43:05.20	355.41	7.92	-41.1	-56.1	3.8	1.49e+00	0	62	104	876609536	52	21783
2026-01-19 08:43:06.21	355.32	7.85	-43.8	-58.3	3.8	1.49e+00	0	62	104	876609536	58	19956
2026-01-19 08:43:07.22	355.24	7.78	-44.7	-59.4	3.8	1.49e+00	0	62	104	876609536	60	20272
2026-01-19 08:43:08.23	355.15	7.71	-45.1	-59.8	3.8	1.49e+00	0	62	104	876609536	60	21172
2026-01-19 08:43:09.24	355.07	7.64	-45.3	-60.0	3.8	1.49e+00	0	62	104	876609536	61	20429
2026-01-19 08:43:10.25	354.99	7.58	-45.4	-60.1	3.8	1.49e+00	0	62	104	876609536	61	20627
2026-01-19 08:43:11.26	354.90	7.51	-45.5	-60.1	3.8	1.49e+00	0	62	104	876609536	61	20718
2026-01-19 08:43:12.27	354.82	7.44	-45.5	-60.2	3.8	1.49e+00	0	62	104	876609536	61	20782
2026-01-19 08:43:13.28	354.74	7.37	-45.5	-60.1	3.8	1.49e+00	0	62	104	876609536	61	20766
2026-01-19 08:43:14.29	354.66	7.30	-45.4	-60.1	3.8	1.49e+00	0	62	104	876609536	61	20648
2026-01-19 08:43:15.30	354.58	7.23	-45.3	-60.1	3.8	1.49e+00	0	62	104	876609536	61	20600
2026-01-19 08:43:16.30	354.50	7.17	-45.2	-60.0	3.8	1.49e+00	0	62	104	876609536	61	20486
2026-01-19 08:43:17.31	354.41	7.10	-45.0	-60.0	3.8	1.49e+00	0	62	104	876609536	61	20400
2026-01-19 08:43:18.32	354.33	7.03	-45.4	-60.0	3.8	1.49e+00	0	62	104	876609536	61	20306
2026-01-19 08:43:19.34	354.25	6.96	-45.4	-59.9	3.8	1.49e+00	0	62	104	876609536	61	20282
2026-01-19 08:43:20.34	354.18	6.90	-45.4	-59.9	3.8	1.49e+00	0	62	104	876609536	61	20222
2026-01-19 08:43:21.35	354.10	6.83	-45.3	-59.8	3.8	1.49e+00	0	62	104	876609536	61	20068
2026-01-19 08:43:22.36	354.02	6.76	-45.2	-59.8	3.8	1.49e+00	0	62	104	876609536	61	20070
