passes_logs/2026/01/19/R2.0S_Moscow/R2.0S_Moscow__20260119_095007_SUOMI_NPP_rec.log

#Pass ID: 20260119_095007_SUOMI NPP
#Satellite: SUOMI NPP
#Configuration: NPP
#almurnet v.1.7.20251203
#Start time: 2026-01-19 09:50:09

#Version: 2.2.20231116
#Station: R2.0S_Moscow
#Location: 37.707566 lon 55.798166 lat
#TLE: 1 37849U 11061A   26017.92342359  .00000077  00000+0  57567-4 0  9990
#TLE: 2 37849  98.7814 319.9468 0002389  58.5705 301.5704 14.19525998737125

#Time	Az	El	Level	Level2	SNR	BER	BlckErr	Temp	State	Recorded	gain1	gain2
2026-01-19 09:50:09.60	155.90	2.14	-44.0	-58.5	3.8	1.49e+00	0	53	0	0	59	19356
2026-01-19 09:50:10.60	155.90	2.21	-44.0	-58.6	3.8	1.49e+00	0	53	104	0	59	19472
2026-01-19 09:50:11.61	155.89	2.27	-44.0	-58.5	3.8	1.49e+00	0	53	104	0	59	19380
2026-01-19 09:50:12.62	155.89	2.34	-44.0	-58.6	3.8	1.49e+00	0	53	104	0	59	19421
2026-01-19 09:50:13.64	155.88	2.41	-44.0	-58.6	3.8	1.49e+00	0	53	104	0	59	19416
2026-01-19 09:50:14.65	155.88	2.47	-44.0	-58.5	3.8	1.49e+00	0	53	104	0	59	19363
2026-01-19 09:50:15.66	155.87	2.54	-44.0	-58.6	3.8	1.49e+00	0	54	104	0	59	19484
2026-01-19 09:50:16.67	155.87	2.61	-44.0	-58.6	3.8	1.49e+00	0	54	104	0	59	19410
2026-01-19 09:50:17.68	155.86	2.67	-44.0	-58.6	3.8	1.49e+00	0	54	104	0	59	19457
2026-01-19 09:50:18.69	155.86	2.74	-44.0	-58.6	3.8	1.49e+00	0	54	104	0	59	19469
2026-01-19 09:50:19.70	155.85	2.81	-44.0	-58.6	3.8	1.49e+00	0	54	104	0	59	19471
2026-01-19 09:50:20.71	155.85	2.87	-44.0	-58.6	3.8	1.49e+00	0	54	104	0	59	19451
2026-01-19 09:50:21.72	155.84	2.94	-44.0	-58.6	3.8	1.49e+00	0	54	104	0	59	19415
2026-01-19 09:50:22.73	155.84	3.01	-44.0	-58.6	3.8	1.49e+00	0	54	104	0	59	19390
2026-01-19 09:50:23.74	155.83	3.07	-44.0	-58.6	3.8	1.49e+00	0	54	104	0	59	19443
2026-01-19 09:50:24.75	155.83	3.14	-44.0	-58.5	3.8	1.49e+00	0	54	104	0	59	19380
2026-01-19 09:50:25.76	155.82	3.21	-44.0	-58.6	3.8	1.49e+00	0	54	104	0	59	19438
2026-01-19 09:50:26.77	155.82	3.28	-44.0	-58.5	3.8	1.49e+00	0	54	104	0	59	19365
2026-01-19 09:50:27.78	155.81	3.35	-44.0	-58.6	3.8	1.49e+00	0	54	104	0	59	19410
2026-01-19 09:50:28.79	155.81	3.41	-44.0	-58.6	3.8	1.49e+00	0	54	104	0	59	19412
2026-01-19 09:50:29.80	155.80	3.48	-44.0	-58.5	3.8	1.49e+00	0	54	104	0	59	19373
2026-01-19 09:50:30.81	155.80	3.55	-44.0	-58.6	3.8	1.49e+00	0	55	104	0	59	19432
2026-01-19 09:50:31.82	155.79	3.62	-44.0	-58.5	3.8	1.49e+00	0	55	104	0	59	19380
2026-01-19 09:50:32.84	155.78	3.69	-44.0	-58.6	3.8	1.49e+00	0	55	104	0	59	19420
2026-01-19 09:50:33.85	155.78	3.76	-44.0	-58.5	3.8	1.49e+00	0	55	104	0	59	19354
2026-01-19 09:50:34.86	155.77	3.83	-44.0	-58.5	3.8	1.49e+00	0	55	104	0	59	19367
2026-01-19 09:50:35.87	155.77	3.90	-44.0	-58.6	3.8	1.49e+00	0	55	104	0	59	19407
2026-01-19 09:50:36.88	155.76	3.97	-44.0	-58.6	3.8	1.49e+00	0	55	104	0	59	19405
2026-01-19 09:50:37.89	155.76	4.04	-44.0	-58.6	3.8	1.49e+00	0	55	104	0	59	19405
2026-01-19 09:50:38.90	155.75	4.11	-44.0	-58.6	3.8	1.49e+00	0	55	104	0	59	19423
2026-01-19 09:50:39.91	155.74	4.18	-44.0	-58.6	3.8	1.49e+00	0	55	104	0	59	19414
2026-01-19 09:50:40.92	155.74	4.25	-44.0	-58.6	3.8	1.49e+00	0	55	104	0	59	19415
2026-01-19 09:50:41.93	155.73	4.32	-44.0	-58.5	3.8	1.49e+00	0	55	104	0	59	19338
2026-01-19 09:50:42.94	155.73	4.39	-44.0	-58.6	3.8	1.49e+00	0	55	104	0	59	19411
2026-01-19 09:50:43.95	155.72	4.46	-44.0	-58.6	3.8	1.49e+00	0	55	104	0	59	19411
2026-01-19 09:50:44.96	155.71	4.53	-43.8	-58.5	3.8	1.49e+00	0	55	104	0	59	19266
2026-01-19 09:50:45.97	155.71	4.60	-43.9	-58.5	3.8	1.49e+00	0	56	104	0	59	19307
2026-01-19 09:50:46.98	155.70	4.67	-43.9	-58.5	3.8	1.49e+00	0	55	104	0	59	19311
2026-01-19 09:50:47.99	155.70	4.75	-44.0	-58.5	3.8	1.49e+00	0	56	104	0	59	19346
2026-01-19 09:50:49.00	155.69	4.82	-43.9	-58.5	3.8	1.49e+00	0	56	104	0	59	19189
2026-01-19 09:50:50.01	155.68	4.89	-43.9	-58.4	3.8	1.49e+00	0	56	104	0	59	19164
2026-01-19 09:50:51.02	155.68	4.96	-44.0	-58.5	3.8	1.49e+00	0	56	104	0	59	19307
2026-01-19 09:50:52.03	155.67	5.03	-44.0	-58.5	3.8	1.49e+00	0	56	104	0	59	19281
2026-01-19 09:50:53.04	155.66	5.11	-44.0	-58.5	3.8	1.49e+00	0	56	104	0	59	19265
2026-01-19 09:50:54.05	155.66	5.18	-44.0	-58.5	3.8	1.49e+00	0	56	104	0	59	19191
2026-01-19 09:50:55.06	155.65	5.25	-44.0	-58.5	3.8	1.49e+00	0	56	104	0	58	20350
2026-01-19 09:50:56.07	155.64	5.33	-44.0	-58.4	3.8	1.49e+00	0	56	104	0	58	20290
2026-01-19 09:50:57.08	155.64	5.40	-44.0	-58.4	3.8	1.49e+00	0	56	104	0	58	20213
2026-01-19 09:50:58.09	155.63	5.47	-44.0	-58.4	3.8	1.49e+00	0	56	104	0	58	20153
2026-01-19 09:50:59.10	155.62	5.55	-44.0	-58.4	3.8	1.49e+00	0	56	104	0	58	20077
2026-01-19 09:51:00.11	155.62	5.62	-44.0	-58.3	3.8	1.49e+00	0	56	104	0	58	19882
2026-01-19 09:51:01.13	155.61	5.70	-44.0	-58.1	3.8	1.49e+00	0	56	104	0	58	19609
2026-01-19 09:51:02.14	155.60	5.77	-44.0	-57.8	3.8	1.49e+00	0	56	104	0	58	18929
2026-01-19 09:51:03.15	155.60	5.85	-44.0	-57.6	3.8	1.49e+00	0	56	104	0	58	18362
2026-01-19 09:51:04.16	155.59	5.92	-43.9	-57.2	3.8	1.49e+00	0	56	104	0	58	17563
2026-01-19 09:51:05.17	155.58	6.00	-43.9	-56.7	3.8	1.49e+00	0	57	104	0	58	16594
2026-01-19 09:51:06.18	155.58	6.07	-43.8	-56.1	3.9	1.48e+00	0	57	104	0	58	15426
2026-01-19 09:51:07.19	155.57	6.15	-43.8	-55.7	3.9	1.47e+00	0	57	104	0	58	14789
2026-01-19 09:51:08.20	155.56	6.22	-43.8	-55.2	4.1	1.43e+00	0	56	0	0	58	13979
2026-01-19 09:51:09.21	155.55	6.30	-43.8	-55.0	4.2	1.38e+00	0	57	0	0	58	13637
2026-01-19 09:51:10.22	155.55	6.37	-43.7	-54.7	4.3	1.36e+00	0	57	0	0	58	13222
2026-01-19 09:51:11.23	155.54	6.45	-43.8	-55.2	4.1	1.38e+00	0	57	0	0	58	13920
2026-01-19 09:51:12.24	155.53	6.53	-43.8	-55.8	4.0	1.48e+00	0	57	104	0	58	14882
2026-01-19 09:51:13.25	155.53	6.61	-43.9	-56.3	3.8	1.48e+00	0	57	104	0	58	15778
2026-01-19 09:51:14.26	155.52	6.68	-43.8	-56.4	3.9	1.48e+00	0	57	104	0	58	16096
2026-01-19 09:51:15.27	155.51	6.76	-43.9	-57.0	3.8	1.49e+00	0	57	104	0	58	17101
2026-01-19 09:51:16.28	155.50	6.84	-44.0	-57.5	3.8	1.49e+00	0	57	104	0	58	18200
2026-01-19 09:51:17.29	155.50	6.92	-44.0	-58.2	3.8	1.49e+00	0	57	104	0	58	19672
2026-01-19 09:51:18.30	155.49	6.99	-44.0	-58.3	3.8	1.49e+00	0	57	104	0	58	19958
2026-01-19 09:51:19.31	155.48	7.07	-44.0	-58.3	3.8	1.49e+00	0	57	104	0	58	19886
2026-01-19 09:51:20.32	155.47	7.15	-44.0	-57.9	3.8	1.49e+00	0	57	104	0	58	19026
2026-01-19 09:51:21.33	155.46	7.23	-43.9	-56.9	3.8	1.49e+00	0	57	104	0	58	16992
2026-01-19 09:51:22.34	155.46	7.31	-43.8	-55.7	4.0	1.48e+00	0	57	104	0	58	14832
2026-01-19 09:51:23.35	155.45	7.39	-43.7	-54.5	4.4	1.40e+00	0	57	0	0	58	12861
2026-01-19 09:51:24.37	155.44	7.47	-43.6	-53.0	5.0	9.60e-01	0	57	0	1048576	58	10877
2026-01-19 09:51:25.38	155.43	7.55	-43.5	-52.3	5.4	5.67e-01	0	57	0	3145728	58	10053
2026-01-19 09:51:26.39	155.42	7.63	-43.3	-51.2	6.2	3.74e-01	0	57	0	5242880	58	8834
2026-01-19 09:51:27.40	155.42	7.71	-43.1	-50.4	6.8	2.42e-01	0	57	0	7340032	58	8077
2026-01-19 09:51:28.41	155.41	7.79	-42.9	-49.7	7.5	1.21e-01	0	58	0	9437184	57	7886
2026-01-19 09:51:29.42	155.40	7.87	-42.8	-49.1	8.1	7.45e-02	0	58	0	10485760	57	7343
2026-01-19 09:51:30.43	155.39	7.95	-42.2	-48.6	8.5	5.03e-02	0	58	0	12582912	57	6951
2026-01-19 09:51:31.44	155.38	8.03	-42.6	-48.5	8.7	3.88e-02	0	58	0	14680064	56	7217
2026-01-19 09:51:32.45	155.37	8.11	-43.5	-51.3	6.7	2.72e-02	0	58	0	16777216	57	9410
2026-01-19 09:51:33.46	155.37	8.20	-44.3	-58.8	3.8	1.40e+00	0	58	104	16777216	59	19967
2026-01-19 09:51:34.46	155.36	8.28	-42.8	-48.8	8.3	1.44e+00	0	58	0	16777216	57	7118
2026-01-19 09:51:35.48	155.35	8.36	-43.1	-49.7	7.8	4.48e-02	0	58	0	18874368	56	8326
2026-01-19 09:51:36.49	155.34	8.44	-42.7	-48.4	8.8	1.46e+00	0	58	104	18874368	57	6747
2026-01-19 09:51:37.50	155.33	8.53	-43.2	-51.4	5.8	9.68e-01	0	58	104	18874368	57	9588
2026-01-19 09:51:38.51	155.32	8.61	-42.4	-47.9	9.4	1.80e-02	0	58	0	19922944	56	6795
2026-01-19 09:51:39.52	155.31	8.69	-42.4	-47.7	9.6	1.60e-02	0	58	0	22020096	56	6619
2026-01-19 09:51:40.53	155.30	8.78	-42.4	-47.6	9.8	1.17e-02	0	58	0	24117248	56	6560
2026-01-19 09:51:41.53	155.30	8.86	-42.4	-47.8	9.6	1.22e-02	0	58	0	25165824	56	6670
2026-01-19 09:51:42.54	155.29	8.94	-42.3	-47.6	9.7	1.20e-02	0	58	0	27262976	56	6558
2026-01-19 09:51:43.55	155.28	9.03	-42.3	-47.6	9.8	1.11e-02	0	58	0	29360128	56	6498
2026-01-19 09:51:44.56	155.27	9.11	-42.4	-47.6	9.9	9.55e-03	0	58	0	31457280	56	6495
2026-01-19 09:51:45.57	155.26	9.20	-42.3	-47.5	9.9	9.95e-03	0	58	0	33554432	56	6433
2026-01-19 09:51:46.58	155.25	9.29	-42.4	-47.7	9.7	8.92e-03	0	58	0	34603008	56	6611
2026-01-19 09:51:47.59	155.24	9.37	-42.4	-47.6	9.8	9.30e-03	0	58	0	36700160	56	6522
2026-01-19 09:51:48.60	155.23	9.46	-42.3	-47.4	10.1	8.65e-03	0	58	0	38797312	56	6369
2026-01-19 09:51:49.61	155.22	9.54	-42.3	-47.3	10.2	8.17e-03	0	58	0	40894464	56	6311
2026-01-19 09:51:50.62	155.21	9.63	-42.1	-47.0	10.4	5.62e-03	0	58	0	42991616	55	6443
2026-01-19 09:51:51.63	155.20	9.72	-42.1	-47.1	10.3	6.32e-03	0	58	0	45088768	55	6524
2026-01-19 09:51:52.64	155.19	9.81	-42.0	-46.8	10.5	5.25e-03	0	58	0	46137344	55	6334
2026-01-19 09:51:53.65	155.18	9.89	-42.1	-46.8	10.5	3.91e-03	0	58	0	48234496	55	6341
2026-01-19 09:51:54.66	155.17	9.98	-42.1	-46.8	10.6	3.66e-03	0	58	0	50331648	55	6344
2026-01-19 09:51:55.66	155.16	10.07	-42.0	-46.6	10.8	2.69e-03	0	58	0	52428800	55	6186
2026-01-19 09:51:56.67	155.15	10.16	-42.0	-46.7	10.8	3.30e-03	0	59	0	54525952	55	6214
2026-01-19 09:51:57.68	155.14	10.25	-42.0	-46.6	10.9	2.30e-03	0	58	0	55574528	55	6192
2026-01-19 09:51:58.70	155.13	10.34	-41.9	-46.7	10.7	2.22e-03	0	59	0	57671680	55	6219
2026-01-19 09:51:59.71	155.12	10.43	-42.1	-46.9	10.7	2.37e-03	0	58	0	59768832	55	6355
2026-01-19 09:52:00.72	155.11	10.52	-42.0	-46.7	10.9	2.33e-03	0	59	0	61865984	55	6209
2026-01-19 09:52:01.73	155.10	10.61	-42.1	-46.7	10.9	2.27e-03	0	59	0	63963136	55	6212
2026-01-19 09:52:02.73	155.09	10.70	-42.1	-46.9	10.6	2.31e-03	0	59	0	65011712	55	6363
2026-01-19 09:52:03.74	155.08	10.79	-42.1	-46.6	10.9	2.21e-03	0	58	0	67108864	55	6201
2026-01-19 09:52:04.76	155.07	10.88	-42.1	-46.7	10.9	2.25e-03	0	59	0	69206016	55	6222
2026-01-19 09:52:05.77	155.06	10.97	-42.1	-46.7	10.9	2.77e-03	0	59	0	71303168	55	6228
2026-01-19 09:52:06.78	155.05	11.06	-42.1	-46.7	10.9	1.94e-03	0	58	0	73400320	55	6229
2026-01-19 09:52:07.79	155.03	11.15	-42.1	-46.6	11.0	1.74e-03	0	59	0	74448896	55	6199
2026-01-19 09:52:08.80	155.02	11.25	-42.0	-46.4	11.2	1.60e-03	0	59	0	76546048	55	6051
2026-01-19 09:52:09.81	155.01	11.34	-42.1	-46.6	11.1	1.55e-03	0	59	0	78643200	55	6177
2026-01-19 09:52:10.81	155.00	11.43	-42.1	-46.6	11.1	1.79e-03	0	59	0	80740352	55	6181
2026-01-19 09:52:11.82	154.99	11.53	-42.1	-46.5	11.2	1.40e-03	0	59	0	82837504	55	6124
2026-01-19 09:52:12.83	154.98	11.62	-42.1	-46.5	11.2	1.42e-03	0	59	0	83886080	55	6121
2026-01-19 09:52:13.84	154.97	11.71	-42.0	-46.6	11.1	1.49e-03	0	59	0	85983232	55	6182
2026-01-19 09:52:14.85	154.96	11.81	-42.1	-46.6	11.2	1.26e-03	0	59	0	88080384	55	6137
2026-01-19 09:52:15.86	154.94	11.90	-42.2	-46.8	10.9	1.50e-03	0	59	0	90177536	55	6301
2026-01-19 09:52:16.87	154.93	12.00	-42.1	-46.6	11.1	1.46e-03	0	59	0	92274688	55	6166
2026-01-19 09:52:17.88	154.92	12.10	-42.2	-46.7	11.0	1.71e-03	0	59	0	93323264	55	6253
2026-01-19 09:52:18.89	154.91	12.19	-42.1	-46.9	10.8	2.08e-03	0	59	0	95420416	55	6379
2026-01-19 09:52:19.90	154.90	12.29	-42.2	-46.8	11.0	2.27e-03	0	59	0	97517568	55	6282
2026-01-19 09:52:20.91	154.88	12.39	-42.2	-46.7	11.1	1.86e-03	0	59	0	99614720	55	6242
2026-01-19 09:52:21.92	154.87	12.48	-42.2	-47.0	10.8	2.17e-03	0	59	0	101711872	55	6432
2026-01-19 09:52:22.93	154.86	12.58	-42.3	-46.9	10.9	2.48e-03	0	59	0	102760448	55	6410
2026-01-19 09:52:23.94	154.85	12.68	-42.4	-47.0	10.8	1.85e-03	0	59	0	104857600	55	6490
2026-01-19 09:52:24.95	154.83	12.78	-42.3	-47.0	10.8	2.29e-03	0	59	0	106954752	55	6446
2026-01-19 09:52:25.96	154.82	12.88	-42.2	-46.9	10.9	2.08e-03	0	59	0	109051904	55	6391
2026-01-19 09:52:26.97	154.81	12.98	-42.4	-47.1	10.7	3.07e-03	0	59	0	111149056	55	6524
2026-01-19 09:52:27.98	154.79	13.08	-42.3	-47.0	10.8	2.27e-03	0	59	0	113246208	55	6460
2026-01-19 09:52:28.99	154.78	13.18	-42.3	-46.9	11.0	2.12e-03	0	59	0	114294784	55	6374
2026-01-19 09:52:30.00	154.77	13.28	-42.3	-46.9	10.9	2.59e-03	0	59	0	116391936	55	6417
2026-01-19 09:52:31.01	154.76	13.38	-42.2	-47.0	10.9	1.95e-03	0	59	0	118489088	55	6421
2026-01-19 09:52:32.02	154.74	13.48	-42.4	-47.1	10.8	1.92e-03	0	59	0	120586240	55	6539
2026-01-19 09:52:33.03	154.73	13.58	-42.3	-46.9	11.0	1.56e-03	0	59	0	122683392	55	6382
2026-01-19 09:52:34.04	154.72	13.68	-42.3	-46.8	11.1	1.68e-03	0	60	0	123731968	55	6338
2026-01-19 09:52:35.05	154.70	13.79	-42.2	-46.8	11.1	1.86e-03	0	59	0	125829120	55	6296
2026-01-19 09:52:36.06	154.69	13.89	-42.3	-46.7	11.3	1.29e-03	0	59	0	127926272	55	6245
2026-01-19 09:52:37.07	154.67	13.99	-42.3	-46.8	11.2	1.19e-03	0	59	0	130023424	55	6335
2026-01-19 09:52:38.08	154.66	14.10	-42.3	-46.7	11.2	1.29e-03	0	59	0	132120576	55	6270
2026-01-19 09:52:39.09	154.65	14.20	-42.2	-46.6	11.3	9.78e-04	0	60	0	133169152	55	6171
2026-01-19 09:52:40.10	154.63	14.31	-42.3	-46.7	11.3	9.94e-04	0	60	0	135266304	55	6213
2026-01-19 09:52:41.10	154.62	14.41	-42.3	-46.8	11.2	1.02e-03	0	60	0	137363456	55	6306
2026-01-19 09:52:42.12	154.60	14.52	-42.3	-46.6	11.4	1.04e-03	0	60	0	139460608	55	6188
2026-01-19 09:52:43.12	154.59	14.62	-42.2	-46.5	11.5	7.98e-04	0	60	0	141557760	55	6066
2026-01-19 09:52:44.13	154.57	14.73	-42.2	-46.5	11.6	6.75e-04	0	60	0	142606336	55	6084
2026-01-19 09:52:45.14	154.56	14.84	-42.3	-46.6	11.5	6.66e-04	0	60	0	144703488	55	6173
2026-01-19 09:52:46.15	154.54	14.94	-42.2	-46.4	11.7	6.53e-04	0	60	0	146800640	55	6021
2026-01-19 09:52:47.16	154.53	15.05	-42.2	-46.4	11.6	6.94e-04	0	60	0	148897792	55	6047
2026-01-19 09:52:48.17	154.51	15.16	-42.2	-46.4	11.6	6.05e-04	0	60	0	150994944	55	6053
2026-01-19 09:52:49.18	154.50	15.27	-42.1	-46.2	11.9	4.51e-04	0	60	0	152043520	55	5907
2026-01-19 09:52:50.19	154.48	15.38	-42.2	-46.3	11.8	4.52e-04	0	60	0	154140672	55	5944
2026-01-19 09:52:51.20	154.47	15.49	-42.1	-46.3	11.8	5.73e-04	0	60	0	156237824	55	5932
2026-01-19 09:52:52.21	154.45	15.60	-42.2	-46.3	11.8	5.23e-04	0	60	0	158334976	55	5976
2026-01-19 09:52:53.22	154.43	15.71	-42.2	-46.4	11.7	4.74e-04	0	60	0	160432128	55	6058
2026-01-19 09:52:54.23	154.42	15.82	-42.2	-46.3	11.8	6.41e-04	0	60	0	161480704	55	5965
2026-01-19 09:52:55.24	154.40	15.94	-42.2	-46.5	11.7	5.32e-04	0	60	0	163577856	55	6076
2026-01-19 09:52:56.25	154.39	16.05	-42.3	-46.5	11.6	7.37e-04	0	60	0	165675008	55	6089
2026-01-19 09:52:57.26	154.37	16.16	-42.2	-46.4	11.7	5.92e-04	0	60	0	167772160	55	6048
2026-01-19 09:52:58.27	154.35	16.27	-42.2	-46.4	11.8	5.19e-04	0	60	0	169869312	55	6001
2026-01-19 09:52:59.28	154.34	16.39	-42.2	-46.4	11.7	5.70e-04	0	60	0	170917888	55	6035
2026-01-19 09:53:00.28	154.32	16.50	-42.2	-46.2	11.9	4.32e-04	0	60	0	173015040	55	5910
2026-01-19 09:53:01.29	154.30	16.62	-42.1	-46.1	12.1	2.65e-04	0	60	0	175112192	55	5809
2026-01-19 09:53:02.30	154.28	16.73	-42.0	-45.8	12.3	1.70e-04	0	60	0	177209344	55	5651
2026-01-19 09:53:03.31	154.27	16.85	-42.0	-45.8	12.4	1.50e-04	0	60	0	179306496	55	5620
2026-01-19 09:53:04.33	154.25	16.97	-41.8	-45.5	12.7	1.20e-04	0	60	0	181403648	55	5436
2026-01-19 09:53:05.34	154.23	17.09	-41.8	-45.5	12.7	6.94e-05	0	60	0	182452224	55	5437
2026-01-19 09:53:06.35	154.21	17.20	-41.7	-45.3	12.9	4.34e-05	0	60	0	184549376	55	5306
2026-01-19 09:53:07.36	154.20	17.32	-41.7	-45.2	13.0	4.42e-05	0	60	0	186646528	55	5248
2026-01-19 09:53:08.37	154.18	17.44	-41.8	-45.4	12.8	5.87e-05	0	60	0	188743680	55	5349
2026-01-19 09:53:09.37	154.16	17.56	-41.9	-45.6	12.6	6.40e-05	0	60	0	190840832	55	5487
2026-01-19 09:53:10.38	154.14	17.68	-41.8	-45.5	12.7	8.62e-05	0	60	0	191889408	55	5426
2026-01-19 09:53:11.39	154.12	17.80	-41.9	-45.6	12.6	9.68e-05	0	60	0	193986560	55	5521
2026-01-19 09:53:12.40	154.10	17.92	-42.0	-45.7	12.5	1.76e-04	0	60	0	196083712	55	5589
2026-01-19 09:53:13.41	154.08	18.05	-42.1	-46.0	12.2	1.91e-04	0	60	0	198180864	55	5759
2026-01-19 09:53:14.42	154.06	18.17	-42.2	-46.3	11.9	2.54e-04	0	60	0	200278016	55	5937
2026-01-19 09:53:15.43	154.04	18.29	-42.2	-46.3	11.9	3.73e-04	0	60	0	201326592	55	5965
2026-01-19 09:53:16.44	154.03	18.42	-42.2	-46.4	11.9	4.84e-04	0	60	0	203423744	55	5996
2026-01-19 09:53:17.45	154.01	18.54	-42.3	-46.5	11.7	3.75e-04	0	60	0	205520896	55	6096
2026-01-19 09:53:18.46	153.99	18.67	-42.2	-46.2	12.1	3.84e-04	0	60	0	207618048	55	5892
2026-01-19 09:53:19.47	153.97	18.79	-42.0	-45.8	12.5	1.98e-04	0	60	0	209715200	55	5611
2026-01-19 09:53:20.48	153.94	18.92	-42.0	-45.8	12.5	1.38e-04	0	60	0	210763776	55	5627
2026-01-19 09:53:21.49	153.92	19.05	-41.9	-45.6	12.7	1.02e-04	0	60	0	212860928	55	5481
2026-01-19 09:53:22.50	153.90	19.17	-41.8	-45.4	12.9	3.73e-05	0	60	0	214958080	55	5393
2026-01-19 09:53:23.51	153.88	19.30	-41.7	-45.1	13.1	3.58e-05	0	60	0	217055232	55	5213
2026-01-19 09:53:24.52	153.86	19.43	-41.7	-45.1	13.2	2.97e-05	0	60	0	219152384	55	5214
2026-01-19 09:53:25.53	153.84	19.56	-41.7	-45.1	13.1	3.96e-05	0	60	0	220200960	55	5216
2026-01-19 09:53:26.54	153.82	19.69	-41.7	-45.2	13.0	4.11e-05	0	60	0	222298112	55	5277
2026-01-19 09:53:27.55	153.80	19.82	-41.9	-45.5	12.8	6.63e-05	0	60	0	224395264	55	5451
2026-01-19 09:53:28.57	153.77	19.96	-42.0	-45.7	12.5	8.77e-05	0	60	0	226492416	55	5583
2026-01-19 09:53:29.58	153.75	20.09	-42.1	-46.0	12.3	1.39e-04	0	60	0	228589568	55	5724
2026-01-19 09:53:30.59	153.73	20.22	-42.2	-46.3	12.0	1.79e-04	0	60	0	229638144	55	5953
2026-01-19 09:53:31.60	153.71	20.36	-42.2	-46.3	12.0	2.55e-04	0	61	0	231735296	55	5933
2026-01-19 09:53:32.60	153.68	20.49	-42.2	-46.3	12.0	2.59e-04	0	60	0	233832448	55	5943
2026-01-19 09:53:33.61	153.66	20.63	-42.2	-46.2	12.1	2.68e-04	0	60	0	235929600	55	5896
2026-01-19 09:53:34.62	153.64	20.76	-42.1	-45.9	12.4	2.05e-04	0	60	0	238026752	55	5687
2026-01-19 09:53:35.63	153.61	20.90	-41.9	-45.6	12.7	9.91e-05	0	61	0	239075328	55	5514
2026-01-19 09:53:36.64	153.59	21.04	-41.9	-45.5	12.8	7.24e-05	0	61	0	241172480	55	5443
2026-01-19 09:53:37.65	153.57	21.18	-41.7	-45.1	13.2	5.41e-05	0	60	0	243269632	55	5205
2026-01-19 09:53:38.66	153.54	21.31	-41.6	-45.1	13.2	2.05e-05	0	60	0	245366784	55	5178
2026-01-19 09:53:39.67	153.52	21.45	-41.6	-44.9	13.4	1.75e-05	0	61	0	247463936	55	5081
2026-01-19 09:53:40.68	153.49	21.60	-41.5	-44.8	13.5	1.29e-05	0	61	0	249561088	55	5034
2026-01-19 09:53:41.69	153.47	21.74	-41.6	-44.9	13.4	1.44e-05	0	60	0	250609664	55	5046
2026-01-19 09:53:42.69	153.44	21.88	-41.6	-45.0	13.3	1.52e-05	0	60	0	252706816	55	5139
2026-01-19 09:53:43.71	153.42	22.02	-41.7	-45.1	13.2	1.06e-05	0	61	0	254803968	55	5205
2026-01-19 09:53:44.72	153.39	22.17	-41.8	-45.3	13.0	2.36e-05	0	60	0	256901120	55	5319
2026-01-19 09:53:45.72	153.37	22.31	-41.8	-45.4	13.0	4.34e-05	0	60	0	258998272	55	5349
2026-01-19 09:53:46.74	153.34	22.46	-41.9	-45.5	12.8	3.96e-05	0	61	0	260046848	55	5458
2026-01-19 09:53:47.75	153.31	22.60	-41.8	-45.4	13.0	5.34e-05	0	60	0	262144000	55	5375
2026-01-19 09:53:48.76	153.29	22.75	-41.8	-45.3	13.0	6.40e-05	0	61	0	264241152	55	5303
2026-01-19 09:53:49.77	153.26	22.90	-41.8	-45.2	13.1	6.40e-05	0	60	0	266338304	55	5260
2026-01-19 09:53:50.77	153.23	23.05	-41.7	-45.2	13.2	3.12e-05	0	61	0	268435456	55	5237
2026-01-19 09:53:51.78	153.20	23.20	-41.6	-44.9	13.4	1.29e-05	0	61	0	269484032	55	5074
2026-01-19 09:53:52.79	153.17	23.35	-41.4	-44.6	13.8	3.80e-06	0	61	0	271581184	54	5160
2026-01-19 09:53:53.80	153.15	23.50	-41.3	-44.4	13.9	1.50e-06	0	61	0	273678336	54	5078
2026-01-19 09:53:54.81	153.12	23.65	-41.4	-44.6	13.7	9.10e-06	0	61	0	275775488	54	5195
2026-01-19 09:53:55.82	153.09	23.80	-41.4	-44.6	13.8	2.20e-06	0	61	0	277872640	54	5160
2026-01-19 09:53:56.83	153.06	23.96	-41.4	-44.6	13.8	5.30e-06	0	61	0	278921216	54	5180
2026-01-19 09:53:57.84	153.03	24.11	-41.5	-44.8	13.6	9.10e-06	0	60	0	281018368	54	5312
2026-01-19 09:53:58.85	153.00	24.27	-41.7	-45.1	13.3	6.80e-06	0	61	0	283115520	54	5482
2026-01-19 09:53:59.86	152.97	24.43	-41.9	-45.4	13.0	2.28e-05	0	61	0	285212672	54	5707
2026-01-19 09:54:00.87	152.94	24.58	-41.8	-45.4	13.0	3.28e-05	0	60	0	287309824	54	5665
2026-01-19 09:54:01.88	152.91	24.74	-41.9	-45.5	12.8	5.79e-05	0	61	0	288358400	54	5770
2026-01-19 09:54:02.89	152.88	24.90	-42.1	-45.8	12.6	8.77e-05	0	61	0	290455552	54	5950
2026-01-19 09:54:03.90	152.85	25.06	-42.1	-45.9	12.5	8.16e-05	0	61	0	292552704	54	5994
2026-01-19 09:54:04.91	152.81	25.22	-42.1	-45.9	12.5	1.03e-04	0	61	0	294649856	54	6024
2026-01-19 09:54:05.92	152.78	25.39	-42.1	-45.8	12.5	1.48e-04	0	61	0	296747008	55	5647
2026-01-19 09:54:06.93	152.75	25.55	-42.1	-45.8	12.6	9.76e-05	0	61	0	297795584	55	5619
2026-01-19 09:54:07.94	152.72	25.72	-42.2	-46.0	12.4	1.09e-04	0	61	0	299892736	55	5745
2026-01-19 09:54:08.95	152.68	25.88	-42.0	-45.6	12.8	9.61e-05	0	61	0	301989888	55	5526
2026-01-19 09:54:09.96	152.65	26.05	-42.0	-45.7	12.7	8.39e-05	0	61	0	304087040	55	5543
2026-01-19 09:54:10.97	152.61	26.22	-42.0	-45.7	12.7	1.17e-04	0	61	0	306184192	55	5562
2026-01-19 09:54:11.98	152.58	26.39	-42.0	-45.7	12.7	5.64e-05	0	61	0	307232768	55	5558
2026-01-19 09:54:12.99	152.54	26.56	-42.1	-45.8	12.5	5.41e-05	0	61	0	309329920	55	5644
2026-01-19 09:54:14.00	152.51	26.73	-42.1	-45.7	12.7	7.09e-05	0	61	0	311427072	55	5570
2026-01-19 09:54:15.00	152.47	26.90	-42.0	-45.6	12.8	5.87e-05	0	61	0	313524224	55	5498
2026-01-19 09:54:16.01	152.44	27.07	-42.1	-45.8	12.6	7.40e-05	0	61	0	315621376	55	5616
2026-01-19 09:54:17.02	152.40	27.24	-42.1	-45.7	12.7	6.25e-05	0	61	0	317718528	55	5592
2026-01-19 09:54:18.03	152.36	27.42	-42.1	-45.7	12.7	6.25e-05	0	61	0	318767104	55	5586
2026-01-19 09:54:19.04	152.33	27.60	-42.1	-45.8	12.6	1.33e-04	0	61	0	320864256	55	5597
2026-01-19 09:54:20.05	152.29	27.77	-42.2	-45.9	12.5	1.45e-04	0	61	0	322961408	55	5676
2026-01-19 09:54:21.06	152.25	27.95	-42.3	-46.3	12.1	2.15e-04	0	61	0	325058560	55	5947
2026-01-19 09:54:22.07	152.21	28.13	-42.3	-46.1	12.2	2.00e-04	0	61	0	327155712	55	5848
2026-01-19 09:54:23.08	152.17	28.31	-42.3	-46.2	12.2	2.53e-04	0	61	0	328204288	55	5888
2026-01-19 09:54:24.09	152.13	28.49	-42.4	-46.4	12.0	3.11e-04	0	61	0	330301440	55	6010
2026-01-19 09:54:25.10	152.09	28.68	-42.4	-46.3	12.1	2.82e-04	0	61	0	332398592	55	5980
2026-01-19 09:54:26.11	152.05	28.86	-42.5	-46.6	11.8	2.20e-04	0	61	0	334495744	55	6172
2026-01-19 09:54:27.12	152.01	29.05	-42.3	-46.2	12.3	3.02e-04	0	61	0	336592896	55	5857
2026-01-19 09:54:28.13	151.97	29.23	-42.3	-46.2	12.2	3.81e-04	0	61	0	337641472	55	5902
2026-01-19 09:54:29.14	151.92	29.42	-42.4	-46.3	12.0	3.69e-04	0	61	0	339738624	55	5979
2026-01-19 09:54:30.14	151.88	29.61	-42.6	-46.7	11.7	3.11e-04	0	61	0	341835776	55	6239
2026-01-19 09:54:31.16	151.84	29.80	-42.9	-47.3	11.3	6.83e-04	0	61	0	343932928	56	6305
2026-01-19 09:54:32.17	151.79	29.99	-42.9	-47.2	11.4	7.99e-04	0	61	0	346030080	56	6217
2026-01-19 09:54:33.17	151.75	30.19	-43.0	-47.4	11.0	9.51e-04	0	61	0	347078656	56	6394
2026-01-19 09:54:34.18	151.70	30.38	-43.0	-47.5	10.9	1.69e-03	0	61	0	349175808	56	6452
2026-01-19 09:54:35.19	151.66	30.58	-42.9	-47.3	11.2	1.34e-03	0	61	0	351272960	56	6322
2026-01-19 09:54:36.20	151.61	30.77	-43.0	-47.5	11.0	1.68e-03	0	61	0	353370112	56	6455
2026-01-19 09:54:37.21	151.57	30.97	-43.0	-47.4	11.1	1.61e-03	0	61	0	355467264	56	6393
2026-01-19 09:54:38.22	151.52	31.17	-43.0	-47.4	11.2	2.08e-03	0	61	0	356515840	56	6387
2026-01-19 09:54:39.23	151.47	31.37	-43.0	-47.6	11.0	2.23e-03	0	61	0	358612992	56	6522
2026-01-19 09:54:40.24	151.42	31.57	-43.3	-48.1	10.4	2.80e-03	0	61	0	360710144	57	6558
2026-01-19 09:54:41.25	151.37	31.78	-43.4	-48.4	10.1	4.04e-03	0	61	0	362807296	57	6764
2026-01-19 09:54:42.26	151.32	31.98	-43.4	-48.4	10.1	5.63e-03	0	61	0	364904448	57	6730
2026-01-19 09:54:43.26	151.27	32.19	-43.6	-49.0	9.5	1.45e-02	0	61	0	365953024	57	7278
2026-01-19 09:54:44.28	151.22	32.40	-43.8	-49.5	8.9	1.93e-02	0	61	0	368050176	58	7282
2026-01-19 09:54:45.29	151.17	32.61	-43.6	-48.8	9.6	1.39e-02	0	61	0	370147328	58	6699
2026-01-19 09:54:46.30	151.11	32.82	-43.6	-49.0	9.4	1.35e-02	0	61	0	372244480	58	6867
2026-01-19 09:54:47.30	151.06	33.03	-43.6	-48.8	9.7	1.23e-02	0	61	0	374341632	58	6687
2026-01-19 09:54:48.31	151.01	33.24	-43.6	-48.9	9.6	1.02e-02	0	61	0	375390208	58	6787
2026-01-19 09:54:49.32	150.95	33.46	-43.7	-49.3	9.1	1.12e-02	0	61	0	377487360	58	7088
2026-01-19 09:54:50.33	150.90	33.68	-43.8	-49.6	8.9	1.91e-02	0	61	0	379584512	58	7346
2026-01-19 09:54:51.34	150.84	33.89	-43.9	-50.1	8.5	3.19e-02	0	61	0	381681664	58	7748
2026-01-19 09:54:52.35	150.78	34.11	-44.1	-50.7	7.9	5.77e-02	0	61	0	383778816	58	8292
2026-01-19 09:54:53.36	150.72	34.33	-44.1	-50.5	8.1	8.32e-02	0	61	0	385875968	58	8144
2026-01-19 09:54:54.37	150.66	34.56	-44.1	-50.8	7.7	8.45e-02	0	61	0	386924544	59	7920
2026-01-19 09:54:55.38	150.60	34.78	-44.0	-50.3	8.2	7.39e-02	0	61	0	389021696	59	7521
2026-01-19 09:54:56.39	150.54	35.01	-43.8	-49.5	8.9	2.31e-02	0	62	0	391118848	59	6873
2026-01-19 09:54:57.40	150.48	35.24	-43.5	-48.8	9.7	1.73e-02	0	61	0	393216000	59	6319
2026-01-19 09:54:58.41	150.42	35.46	-43.3	-48.1	10.4	8.38e-03	0	61	0	395313152	58	6183
2026-01-19 09:54:59.42	150.36	35.70	-43.2	-47.9	10.7	3.91e-03	0	61	0	396361728	58	5994
2026-01-19 09:55:00.43	150.29	35.93	-43.2	-48.0	10.5	4.08e-03	0	61	0	398458880	58	6130
2026-01-19 09:55:01.44	150.23	36.16	-43.2	-48.0	10.6	4.48e-03	0	61	0	400556032	58	6082
2026-01-19 09:55:02.45	150.16	36.40	-43.4	-48.6	9.9	7.89e-03	0	61	0	402653184	58	6504
2026-01-19 09:55:03.46	150.09	36.64	-43.5	-48.9	9.6	1.04e-02	0	62	0	404750336	58	6738
2026-01-19 09:55:04.47	150.02	36.87	-43.5	-48.8	9.7	5.15e-03	0	61	0	405798912	58	6704
2026-01-19 09:55:05.48	149.95	37.12	-43.3	-48.2	10.3	6.92e-03	0	61	0	407896064	58	6253
2026-01-19 09:55:06.49	149.88	37.36	-43.1	-47.7	10.8	2.70e-03	0	61	0	409993216	58	5888
2026-01-19 09:55:07.50	149.81	37.60	-42.9	-47.3	11.3	2.02e-03	0	61	0	412090368	57	5926
2026-01-19 09:55:08.51	149.74	37.85	-42.8	-46.9	11.7	8.14e-04	0	61	0	414187520	57	5666
2026-01-19 09:55:09.52	149.66	38.10	-42.7	-46.9	11.7	6.04e-04	0	61	0	415236096	57	5664
2026-01-19 09:55:10.53	149.59	38.35	-42.6	-46.6	12.0	4.10e-04	0	61	0	417333248	57	5502
2026-01-19 09:55:11.54	149.51	38.60	-42.9	-47.2	11.5	4.97e-04	0	62	0	419430400	57	5871
2026-01-19 09:55:12.55	149.43	38.85	-43.1	-47.7	10.9	1.29e-03	0	61	0	421527552	57	6203
2026-01-19 09:55:13.56	149.35	39.11	-43.2	-47.9	10.7	2.07e-03	0	61	0	423624704	57	6367
2026-01-19 09:55:14.57	149.27	39.36	-43.6	-48.9	9.7	4.27e-03	0	61	0	424673280	57	7159
2026-01-19 09:55:15.58	149.19	39.62	-43.5	-48.7	9.9	8.74e-03	0	61	0	426770432	57	7037
2026-01-19 09:55:16.59	149.11	39.88	-43.6	-49.1	9.5	1.63e-02	0	61	0	428867584	57	7296
2026-01-19 09:55:17.60	149.02	40.14	-43.7	-49.3	9.2	3.11e-02	0	61	0	430964736	58	7069
2026-01-19 09:55:18.61	148.94	40.41	-43.7	-49.4	9.2	2.80e-02	0	61	0	433061888	58	7126
2026-01-19 09:55:19.62	148.85	40.67	-43.5	-48.7	9.8	2.00e-02	0	61	0	434110464	58	6617
2026-01-19 09:55:20.63	148.76	40.94	-43.5	-48.6	9.9	1.36e-02	0	61	0	436207616	58	6547
2026-01-19 09:55:21.64	148.67	41.21	-43.5	-48.7	9.8	1.16e-02	0	62	0	438304768	58	6615
2026-01-19 09:55:22.65	148.58	41.49	-43.5	-48.7	9.8	9.83e-03	0	61	0	440401920	58	6623
2026-01-19 09:55:23.66	148.49	41.76	-43.7	-49.2	9.3	1.02e-02	0	62	0	442499072	58	7034
2026-01-19 09:55:24.66	148.39	42.03	-43.8	-49.5	9.0	1.59e-02	0	62	0	443547648	58	7225
2026-01-19 09:55:25.68	148.29	42.31	-43.7	-49.2	9.3	2.00e-02	0	61	0	445644800	58	6986
2026-01-19 09:55:26.69	148.20	42.59	-43.8	-49.5	8.9	2.12e-02	0	62	0	447741952	58	7266
2026-01-19 09:55:27.70	148.10	42.87	-44.0	-50.1	8.4	2.28e-02	0	61	0	449839104	58	7754
2026-01-19 09:55:28.70	147.99	43.16	-43.9	-49.7	8.8	3.04e-02	0	62	0	451936256	58	7402
2026-01-19 09:55:29.71	147.89	43.44	-43.8	-49.5	9.0	2.12e-02	0	62	0	454033408	58	7232
2026-01-19 09:55:30.72	147.78	43.73	-43.6	-49.0	9.5	2.12e-02	0	61	0	455081984	58	6848
2026-01-19 09:55:31.73	147.68	44.02	-43.6	-48.9	9.6	2.03e-02	0	62	0	457179136	58	6786
2026-01-19 09:55:32.74	147.57	44.31	-43.6	-48.8	9.7	1.74e-02	0	61	0	459276288	58	6705
2026-01-19 09:55:33.75	147.45	44.61	-43.7	-49.3	9.3	1.30e-02	0	61	0	461373440	58	7054
2026-01-19 09:55:34.76	147.34	44.90	-43.5	-48.5	10.0	1.19e-02	0	62	0	463470592	58	6493
2026-01-19 09:55:35.77	147.22	45.20	-43.2	-47.8	10.7	3.81e-03	0	62	0	464519168	58	5971
2026-01-19 09:55:36.78	147.10	45.50	-42.8	-46.8	11.8	1.34e-03	0	61	0	466616320	57	5643
2026-01-19 09:55:37.79	146.98	45.80	-42.6	-46.5	12.1	4.23e-04	0	61	0	468713472	57	5424
2026-01-19 09:55:38.80	146.86	46.11	-42.7	-46.6	12.1	2.08e-04	0	61	0	470810624	57	5482
2026-01-19 09:55:39.81	146.73	46.42	-43.0	-47.5	11.1	8.78e-04	0	62	0	472907776	57	6062
2026-01-19 09:55:40.82	146.60	46.72	-43.5	-48.6	10.0	3.18e-03	0	62	0	473956352	57	6893
2026-01-19 09:55:41.82	146.48	47.03	-43.9	-49.6	8.9	2.11e-02	0	61	0	476053504	58	7351
2026-01-19 09:55:42.83	146.34	47.34	-43.8	-49.6	8.9	2.35e-02	0	61	0	478150656	58	7359
2026-01-19 09:55:43.84	146.20	47.66	-43.8	-49.4	9.2	2.62e-02	0	61	0	480247808	58	7190
2026-01-19 09:55:44.85	146.06	47.98	-43.5	-48.5	10.0	2.38e-02	0	62	0	482344960	58	6443
2026-01-19 09:55:45.86	145.92	48.30	-43.4	-48.2	10.3	5.66e-03	0	62	0	483393536	58	6253
2026-01-19 09:55:46.87	145.78	48.62	-43.4	-48.3	10.3	6.09e-03	0	62	0	485490688	58	6289
2026-01-19 09:55:47.88	145.63	48.94	-43.2	-47.8	10.8	2.71e-03	0	62	0	487587840	58	5938
2026-01-19 09:55:48.89	145.48	49.27	-43.0	-47.3	11.1	2.17e-03	0	62	0	489684992	58	5628
2026-01-19 09:55:49.90	145.32	49.60	-42.9	-47.2	11.4	1.44e-03	0	62	0	491782144	57	5873
2026-01-19 09:55:50.91	145.16	49.93	-42.6	-46.4	12.2	5.82e-04	0	62	0	492830720	57	5396
2026-01-19 09:55:51.92	145.00	50.26	-42.0	-45.4	13.3	6.48e-05	0	62	0	494927872	56	5054
2026-01-19 09:55:52.93	144.83	50.60	-42.0	-45.4	13.3	2.13e-05	0	61	0	497025024	56	5062
2026-01-19 09:55:53.94	144.66	50.93	-42.2	-45.7	13.0	2.05e-05	0	62	0	499122176	56	5267
2026-01-19 09:55:54.95	144.49	51.27	-42.3	-45.9	12.7	5.26e-05	0	61	0	501219328	56	5396
2026-01-19 09:55:55.96	144.31	51.61	-42.5	-46.4	12.3	1.86e-04	0	61	0	502267904	56	5661
2026-01-19 09:55:56.97	144.13	51.96	-42.3	-46.0	12.6	1.27e-04	0	61	0	504365056	56	5430
2026-01-19 09:55:57.98	143.94	52.30	-42.5	-46.2	12.4	1.47e-04	0	62	0	506462208	56	5589
2026-01-19 09:55:58.98	143.76	52.65	-42.8	-46.9	11.8	2.31e-04	0	62	0	508559360	56	6021
2026-01-19 09:55:59.99	143.56	53.00	-43.3	-48.1	10.4	7.20e-04	0	62	0	510656512	57	6533
2026-01-19 09:56:01.00	143.36	53.35	-43.4	-48.4	10.2	3.87e-03	0	62	0	511705088	57	6740
2026-01-19 09:56:02.01	143.15	53.70	-43.0	-47.5	11.0	4.33e-03	0	62	0	513802240	57	6086
2026-01-19 09:56:03.02	142.94	54.06	-42.4	-46.1	12.5	4.19e-04	0	62	0	515899392	56	5516
2026-01-19 09:56:04.03	142.73	54.42	-42.3	-45.8	12.9	6.33e-05	0	62	0	517996544	56	5304
2026-01-19 09:56:05.04	142.51	54.78	-42.6	-46.5	12.1	1.01e-04	0	62	0	520093696	56	5735
2026-01-19 09:56:06.05	142.28	55.14	-42.5	-46.5	12.2	1.07e-04	0	62	0	521142272	56	5735
2026-01-19 09:56:07.06	142.05	55.50	-42.5	-46.4	12.2	1.87e-04	0	62	0	523239424	56	5718
2026-01-19 09:56:08.07	141.81	55.87	-42.4	-46.2	12.4	2.82e-04	0	62	0	525336576	56	5578
2026-01-19 09:56:09.08	141.56	56.24	-42.2	-45.7	13.0	1.41e-04	0	61	0	527433728	56	5236
2026-01-19 09:56:10.09	141.31	56.61	-42.1	-45.6	13.0	4.19e-05	0	62	0	529530880	56	5164
2026-01-19 09:56:11.10	141.05	56.98	-42.1	-45.6	12.8	2.67e-05	0	62	0	530579456	55	5519
2026-01-19 09:56:12.11	140.79	57.35	-42.4	-46.2	12.2	5.18e-05	0	62	0	532676608	55	5917
2026-01-19 09:56:13.12	140.51	57.73	-42.4	-46.2	12.2	2.01e-04	0	62	0	534773760	55	5884
2026-01-19 09:56:14.13	140.23	58.10	-42.4	-46.3	12.2	2.55e-04	0	62	0	536870912	55	5946
2026-01-19 09:56:15.14	139.94	58.48	-42.6	-46.7	11.7	2.64e-04	0	62	0	538968064	55	6252
2026-01-19 09:56:16.15	139.64	58.86	-43.0	-47.3	11.3	1.00e-03	0	62	0	540016640	56	6340
2026-01-19 09:56:17.16	139.33	59.25	-43.1	-47.6	11.0	2.48e-03	0	62	0	542113792	57	6186
2026-01-19 09:56:18.17	139.02	59.63	-43.0	-47.4	11.4	1.44e-03	0	62	0	544210944	57	6017
2026-01-19 09:56:19.18	138.69	60.02	-42.6	-46.7	12.0	3.42e-04	0	61	0	546308096	57	5531
2026-01-19 09:56:20.19	138.36	60.40	-42.5	-46.4	12.1	3.07e-04	0	62	0	548405248	57	5376
2026-01-19 09:56:21.20	138.01	60.79	-42.6	-46.6	12.0	4.75e-04	0	62	0	550502400	57	5485
2026-01-19 09:56:22.21	137.65	61.18	-42.3	-46.1	12.6	2.51e-04	0	62	0	551550976	56	5466
2026-01-19 09:56:23.22	137.28	61.57	-42.2	-45.7	12.8	8.31e-05	0	62	0	553648128	56	5270
2026-01-19 09:56:24.23	136.90	61.97	-42.0	-45.5	12.9	4.19e-05	0	62	0	555745280	55	5457
2026-01-19 09:56:25.24	136.51	62.36	-42.3	-46.2	12.3	1.23e-04	0	62	0	557842432	55	5870
2026-01-19 09:56:26.25	136.10	62.75	-42.4	-46.3	12.1	2.10e-04	0	62	0	559939584	55	5937
2026-01-19 09:56:27.26	135.68	63.15	-41.9	-45.4	13.1	6.79e-05	0	62	0	560988160	55	5344
2026-01-19 09:56:28.27	135.25	63.55	-42.1	-45.7	12.6	3.66e-05	0	62	0	563085312	55	5571
2026-01-19 09:56:29.27	134.80	63.94	-42.4	-46.3	12.1	1.43e-04	0	62	0	565182464	55	5944
2026-01-19 09:56:30.28	134.34	64.34	-41.9	-45.3	13.0	1.40e-04	0	62	0	567279616	55	5340
2026-01-19 09:56:31.29	133.85	64.74	-41.4	-44.5	13.9	5.30e-06	0	62	0	569376768	54	5122
2026-01-19 09:56:32.30	133.36	65.14	-41.4	-44.4	13.9	3.00e-06	0	62	0	570425344	54	5089
2026-01-19 09:56:33.31	132.84	65.53	-41.8	-45.1	13.3	1.14e-05	0	62	0	572522496	54	5527
2026-01-19 09:56:34.32	132.30	65.93	-42.0	-45.5	12.9	3.66e-05	0	62	0	574619648	54	5745
2026-01-19 09:56:35.33	131.75	66.33	-42.2	-45.9	12.4	1.28e-04	0	62	0	576716800	55	5705
2026-01-19 09:56:36.34	131.17	66.73	-42.4	-46.3	12.0	1.82e-04	0	62	0	578813952	55	5940
2026-01-19 09:56:37.35	130.57	67.13	-42.5	-46.6	11.7	8.18e-04	0	62	0	579862528	55	6174
2026-01-19 09:56:38.36	129.94	67.53	-42.6	-46.8	11.5	7.56e-04	0	62	0	581959680	55	6282
2026-01-19 09:56:39.37	129.30	67.93	-42.9	-47.2	11.3	1.12e-03	0	62	0	584056832	56	6218
2026-01-19 09:56:40.38	128.62	68.32	-42.9	-47.2	11.3	1.38e-03	0	62	0	586153984	56	6218
2026-01-19 09:56:41.39	127.92	68.72	-42.9	-47.2	11.1	1.71e-03	0	62	0	588251136	56	6267
2026-01-19 09:56:42.40	127.19	69.11	-43.1	-47.9	10.4	1.87e-03	0	62	0	589299712	56	6736
2026-01-19 09:56:43.41	126.43	69.51	-43.5	-48.8	9.6	1.25e-02	0	62	0	591396864	57	7051
2026-01-19 09:56:44.42	125.64	69.90	-43.3	-48.3	10.0	1.03e-02	0	62	0	593494016	57	6687
2026-01-19 09:56:45.43	124.81	70.29	-42.8	-47.0	11.4	4.23e-03	0	62	0	595591168	57	5788
2026-01-19 09:56:46.43	123.96	70.67	-42.6	-46.6	11.8	1.07e-03	0	62	0	597688320	57	5498
2026-01-19 09:56:47.45	123.05	71.05	-42.4	-46.1	12.3	1.39e-04	0	62	0	598736896	56	5498
2026-01-19 09:56:48.46	122.11	71.43	-42.2	-45.8	12.6	8.39e-05	0	62	0	600834048	56	5331
2026-01-19 09:56:49.47	121.14	71.81	-42.3	-45.9	12.6	5.64e-05	0	62	0	602931200	56	5368
2026-01-19 09:56:50.47	120.12	72.18	-42.7	-46.7	11.7	2.84e-04	0	62	0	605028352	56	5890
2026-01-19 09:56:51.48	119.05	72.55	-43.4	-48.5	9.9	3.72e-03	0	62	0	607125504	57	6853
2026-01-19 09:56:52.49	117.94	72.91	-43.7	-49.4	9.1	2.03e-02	0	62	0	608174080	58	7187
2026-01-19 09:56:53.51	116.76	73.27	-43.4	-48.6	9.8	1.56e-02	0	62	0	610271232	58	6497
2026-01-19 09:56:54.52	115.53	73.62	-42.8	-47.0	11.4	2.99e-03	0	62	0	612368384	57	5774
2026-01-19 09:56:55.53	114.26	73.97	-42.2	-45.7	12.4	4.66e-04	0	62	0	614465536	56	5255
2026-01-19 09:56:56.54	112.92	74.31	-41.6	-44.9	13.5	1.98e-05	0	62	0	616562688	55	5050
2026-01-19 09:56:57.54	111.54	74.63	-42.5	-46.5	11.8	1.11e-04	0	62	0	618659840	55	6096
2026-01-19 09:56:58.55	110.08	74.96	-43.3	-48.2	10.1	2.56e-03	0	62	0	619708416	57	6576
2026-01-19 09:56:59.56	108.56	75.27	-43.1	-47.8	10.5	3.14e-03	0	62	0	621805568	57	6311
2026-01-19 09:57:00.57	106.96	75.57	-43.1	-47.8	10.5	3.01e-03	0	62	0	623902720	57	6343
2026-01-19 09:57:01.58	105.30	75.86	-43.4	-48.5	9.8	8.76e-03	0	62	0	625999872	57	6848
2026-01-19 09:57:02.59	103.57	76.15	-43.3	-48.1	10.2	7.23e-03	0	62	0	628097024	57	6565
2026-01-19 09:57:03.60	101.76	76.41	-43.5	-48.8	9.3	1.09e-02	0	62	0	629145600	57	7107
2026-01-19 09:57:04.61	99.88	76.67	-43.5	-48.7	9.6	1.78e-02	0	62	0	631242752	57	6968
2026-01-19 09:57:05.62	97.93	76.91	-43.2	-47.9	10.4	1.02e-02	0	62	0	633339904	57	6371
2026-01-19 09:57:06.63	95.90	77.14	-43.6	-49.3	9.1	9.70e-03	0	62	0	635437056	57	7510
2026-01-19 09:57:07.63	93.82	77.35	-43.7	-49.4	8.9	4.21e-02	0	62	0	637534208	58	7159
2026-01-19 09:57:08.64	91.66	77.54	-43.7	-49.3	9.1	3.36e-02	0	62	0	638582784	58	7093
2026-01-19 09:57:09.65	89.42	77.72	-43.9	-49.9	8.6	3.02e-02	0	62	0	640679936	58	7547
2026-01-19 09:57:10.66	87.12	77.88	-44.2	-50.9	7.5	1.09e-01	0	62	0	642777088	58	8534
2026-01-19 09:57:11.67	84.77	78.01	-44.0	-50.3	7.8	8.54e-02	0	62	0	644874240	58	7971
2026-01-19 09:57:12.68	82.36	78.13	-43.9	-49.7	8.4	3.90e-02	0	62	0	646971392	58	7440
2026-01-19 09:57:13.69	79.90	78.23	-43.2	-47.9	10.4	6.41e-03	0	62	0	648019968	58	6043
2026-01-19 09:57:14.70	77.41	78.30	-43.4	-48.5	9.8	4.12e-03	0	62	0	650117120	58	6472
2026-01-19 09:57:15.71	74.89	78.36	-43.9	-49.8	8.4	5.02e-02	0	62	0	652214272	58	7504
2026-01-19 09:57:16.72	72.35	78.39	-43.6	-48.8	9.6	1.75e-02	0	62	0	654311424	58	6673
2026-01-19 09:57:17.73	69.81	78.40	-43.8	-49.7	8.7	1.38e-02	0	62	0	656408576	58	7390
2026-01-19 09:57:18.74	67.26	78.38	-44.4	-51.9	6.6	9.99e-02	0	62	0	657457152	59	8985
2026-01-19 09:57:19.75	64.73	78.35	-43.4	-48.5	9.9	5.08e-02	0	62	0	659554304	58	6441
2026-01-19 09:57:20.76	62.21	78.29	-43.0	-47.4	11.0	1.82e-03	0	62	0	661651456	57	6038
2026-01-19 09:57:21.77	59.73	78.21	-43.3	-48.3	10.0	3.05e-03	0	62	0	663748608	57	6685
2026-01-19 09:57:22.78	57.28	78.11	-43.1	-47.8	10.8	5.32e-03	0	62	0	665845760	57	6279
2026-01-19 09:57:23.79	54.88	77.99	-43.2	-47.8	10.6	2.29e-03	0	62	0	666894336	57	6344
2026-01-19 09:57:24.79	52.56	77.85	-43.7	-49.3	9.1	1.43e-02	0	62	0	668991488	58	7093
2026-01-19 09:57:25.80	50.28	77.69	-43.6	-49.0	9.3	1.34e-02	0	62	0	671088640	58	6830
2026-01-19 09:57:26.81	48.05	77.51	-43.3	-48.0	10.4	5.01e-03	0	62	0	673185792	58	6104
2026-01-19 09:57:27.82	45.90	77.31	-43.3	-48.3	10.1	4.99e-03	0	62	0	675282944	58	6316
2026-01-19 09:57:28.83	43.82	77.10	-43.8	-49.4	9.0	1.86e-02	0	62	0	676331520	58	7125
2026-01-19 09:57:29.84	41.80	76.87	-44.3	-51.4	7.0	1.01e-01	0	62	0	678428672	59	8468
2026-01-19 09:57:30.85	39.87	76.62	-44.2	-50.7	7.5	2.00e-01	0	62	0	680525824	59	7888
2026-01-19 09:57:31.86	38.00	76.37	-43.8	-49.4	8.9	5.08e-02	0	62	0	682622976	59	6762
2026-01-19 09:57:32.87	36.21	76.09	-44.2	-51.1	7.3	1.11e-01	0	62	0	684720128	59	8251
2026-01-19 09:57:33.88	34.49	75.81	-44.0	-51.0	7.3	1.75e-01	0	62	0	686817280	59	8144
2026-01-19 09:57:34.89	32.85	75.52	-43.7	-49.4	8.9	6.36e-02	0	62	0	687865856	59	6758
2026-01-19 09:57:35.90	31.27	75.21	-44.5	-52.4	6.2	9.03e-02	0	62	0	689963008	59	9565
2026-01-19 09:57:36.92	29.74	74.89	-44.6	-52.6	5.9	4.09e-01	0	62	0	692060160	59	9736
2026-01-19 09:57:37.93	28.30	74.57	-43.6	-48.8	9.5	9.89e-02	0	62	0	694157312	59	6336
2026-01-19 09:57:38.94	26.92	74.24	-43.5	-48.6	9.9	6.47e-03	0	62	0	696254464	58	6518
2026-01-19 09:57:39.95	25.59	73.90	-43.0	-47.3	11.1	5.25e-03	0	62	0	697303040	58	5604
2026-01-19 09:57:40.96	24.33	73.55	-42.5	-46.3	12.2	2.06e-04	0	62	0	699400192	56	5625
2026-01-19 09:57:41.96	23.13	73.20	-43.3	-48.0	10.4	3.80e-03	0	62	0	701497344	57	6494
2026-01-19 09:57:42.97	21.97	72.85	-43.6	-48.8	9.6	2.38e-02	0	62	0	703594496	58	6653
2026-01-19 09:57:43.98	20.87	72.48	-42.9	-47.0	11.4	4.11e-03	0	62	0	705691648	57	5773
2026-01-19 09:57:44.99	19.81	72.12	-42.9	-47.2	11.3	7.16e-04	0	62	0	706740224	57	5876
2026-01-19 09:57:46.00	18.80	71.74	-43.2	-47.8	10.6	1.33e-03	0	62	0	708837376	57	6334
2026-01-19 09:57:47.02	17.82	71.36	-43.4	-48.2	10.2	5.11e-03	0	62	0	710934528	57	6632
2026-01-19 09:57:48.03	16.89	70.98	-43.5	-48.5	9.8	5.41e-03	0	62	0	713031680	57	6867
2026-01-19 09:57:49.03	16.01	70.60	-43.1	-47.6	10.8	6.07e-03	0	62	0	715128832	57	6196
2026-01-19 09:57:50.04	15.15	70.22	-42.4	-46.0	12.5	3.60e-04	0	62	0	716177408	56	5444
2026-01-19 09:57:51.05	14.33	69.83	-42.9	-47.2	11.3	2.19e-04	0	62	0	718274560	56	6210
2026-01-19 09:57:52.06	13.55	69.44	-43.3	-48.1	10.2	9.22e-03	0	62	0	720371712	57	6553
2026-01-19 09:57:53.07	12.80	69.05	-42.8	-46.8	11.6	2.08e-03	0	62	0	722468864	57	5655
2026-01-19 09:57:54.08	12.07	68.65	-42.8	-47.0	11.5	4.41e-04	0	62	0	724566016	57	5728
2026-01-19 09:57:55.09	11.38	68.26	-43.0	-47.3	11.2	1.66e-03	0	62	0	725614592	57	5978
2026-01-19 09:57:56.10	10.71	67.86	-43.4	-48.2	10.2	6.23e-03	0	62	0	727711744	57	6645
2026-01-19 09:57:57.11	10.07	67.47	-43.6	-48.8	9.6	9.71e-03	0	62	0	729808896	57	7106
2026-01-19 09:57:58.12	9.45	67.07	-42.9	-47.0	11.4	1.96e-03	0	62	0	731906048	57	5784
2026-01-19 09:57:59.13	8.85	66.67	-42.1	-45.6	13.0	1.15e-04	0	62	0	734003200	56	5194
2026-01-19 09:58:00.14	8.28	66.27	-41.9	-45.4	13.0	1.67e-05	0	62	0	735051776	55	5367
2026-01-19 09:58:01.15	7.73	65.88	-42.4	-46.1	12.3	5.41e-05	0	62	0	737148928	55	5852
2026-01-19 09:58:02.16	7.20	65.48	-43.3	-48.0	10.7	8.94e-04	0	62	0	739246080	57	6457
2026-01-19 09:58:03.17	6.68	65.08	-43.0	-47.4	11.1	1.26e-03	0	62	0	741343232	57	6013
2026-01-19 09:58:04.18	6.19	64.68	-43.5	-48.7	9.8	2.60e-03	0	62	0	743440384	57	7015
2026-01-19 09:58:05.19	5.71	64.28	-43.2	-48.1	10.3	8.27e-03	0	62	0	744488960	57	6552
2026-01-19 09:58:06.19	5.25	63.89	-43.1	-47.4	11.1	2.18e-03	0	62	0	746586112	56	6387
2026-01-19 09:58:07.20	4.81	63.50	-43.8	-49.5	9.0	4.65e-03	0	62	0	748683264	58	7228
2026-01-19 09:58:08.21	4.38	63.10	-44.2	-51.6	6.9	1.75e-01	0	62	0	750780416	59	8686
2026-01-19 09:58:09.22	3.96	62.71	-43.9	-50.0	8.5	9.68e-02	0	62	0	752877568	59	7243
2026-01-19 09:58:10.23	3.56	62.31	-44.0	-50.3	8.0	5.03e-02	0	62	0	754974720	59	7481
2026-01-19 09:58:11.24	3.17	61.92	-44.2	-50.8	7.4	1.82e-01	0	62	0	756023296	59	7970
2026-01-19 09:58:12.25	2.79	61.53	-42.8	-47.6	10.8	1.10e-02	0	62	0	758120448	57	6187
2026-01-19 09:58:13.26	2.42	61.14	-42.8	-46.8	11.7	1.02e-03	0	62	0	760217600	56	5962
2026-01-19 09:58:14.27	2.07	60.75	-41.8	-45.3	13.1	7.17e-05	0	62	0	762314752	55	5281
2026-01-19 09:58:15.28	1.72	60.36	-41.2	-44.1	14.3	6.80e-06	0	62	0	764411904	53	5189
2026-01-19 09:58:16.28	1.39	59.98	-41.2	-44.1	14.3	1.50e-06	0	62	0	765460480	53	5170
2026-01-19 09:58:17.29	1.07	59.60	-40.1	-44.6	13.5	3.00e-06	0	62	0	767557632	52	5798
2026-01-19 09:58:18.30	0.75	59.21	-41.5	-44.6	13.9	3.00e-06	0	62	0	769654784	53	5470
2026-01-19 09:58:19.31	0.45	58.83	-41.8	-45.3	13.1	2.67e-05	0	62	0	771751936	54	5635
2026-01-19 09:58:20.32	0.15	58.45	-42.3	-46.0	12.4	5.34e-05	0	62	0	773849088	55	5756
2026-01-19 09:58:21.33	359.86	58.08	-42.1	-45.7	12.6	1.56e-04	0	62	0	774897664	55	5547
2026-01-19 09:58:22.34	359.58	57.70	-41.7	-44.9	13.5	2.28e-05	0	62	0	776994816	54	5387
2026-01-19 09:58:23.35	359.31	57.33	-41.5	-44.6	13.8	6.10e-06	0	62	0	779091968	54	5194
2026-01-19 09:58:24.36	359.05	56.95	-42.1	-45.5	13.0	1.37e-05	0	62	0	781189120	54	5776
2026-01-19 09:58:25.37	358.79	56.58	-42.7	-46.9	11.5	2.89e-04	0	62	0	783286272	55	6390
2026-01-19 09:58:26.38	358.54	56.22	-42.9	-47.6	10.9	1.15e-03	0	62	0	784334848	56	6524
2026-01-19 09:58:27.39	358.30	55.85	-43.3	-48.3	10.1	5.48e-03	0	62	0	786432000	57	6664
2026-01-19 09:58:28.40	358.06	55.48	-43.4	-48.2	10.3	6.58e-03	0	62	0	788529152	57	6641
2026-01-19 09:58:29.41	357.83	55.12	-42.5	-46.3	12.2	1.29e-03	0	62	0	790626304	56	5641
2026-01-19 09:58:30.42	357.60	54.76	-41.9	-45.3	13.1	5.34e-05	0	62	0	792723456	55	5281
2026-01-19 09:58:31.43	357.38	54.40	-42.2	-45.9	12.5	5.79e-05	0	62	0	793772032	55	5717
2026-01-19 09:58:32.44	357.17	54.05	-42.2	-45.8	12.6	1.42e-04	0	62	0	795869184	55	5636
2026-01-19 09:58:33.44	356.96	53.70	-41.7	-44.9	13.5	3.28e-05	0	62	0	797966336	54	5388
2026-01-19 09:58:34.45	356.76	53.34	-41.4	-44.4	14.0	6.80e-06	0	62	0	800063488	54	5094
2026-01-19 09:58:35.46	356.56	52.99	-41.8	-45.2	13.2	1.14e-05	0	62	0	802160640	54	5571
2026-01-19 09:58:36.48	356.36	52.64	-41.8	-45.1	13.2	4.88e-05	0	62	0	803209216	54	5522
2026-01-19 09:58:37.49	356.17	52.30	-41.5	-44.7	13.7	2.67e-05	0	62	0	805306368	54	5234
2026-01-19 09:58:38.50	355.99	51.95	-41.8	-45.4	13.0	3.96e-05	0	62	0	807403520	54	5665
2026-01-19 09:58:39.51	355.81	51.61	-43.0	-47.6	10.7	1.68e-04	0	62	0	809500672	56	6540
2026-01-19 09:58:40.52	355.63	51.27	-43.4	-48.3	10.1	7.41e-03	0	62	0	811597824	57	6701
2026-01-19 09:58:41.53	355.46	50.93	-43.6	-48.9	9.5	1.15e-02	0	62	0	812646400	57	7161
2026-01-19 09:58:42.54	355.29	50.60	-43.3	-48.1	10.3	7.78e-03	0	62	0	814743552	57	6510
2026-01-19 09:58:43.55	355.12	50.26	-43.7	-49.1	9.4	4.87e-03	0	62	0	816840704	57	7306
2026-01-19 09:58:44.56	354.96	49.93	-43.4	-48.3	10.1	8.64e-03	0	62	0	818937856	57	6692
2026-01-19 09:58:45.57	354.80	49.60	-43.3	-48.3	10.1	8.34e-03	0	62	0	821035008	57	6654
2026-01-19 09:58:46.58	354.65	49.28	-43.2	-47.7	10.7	3.65e-03	0	62	0	823132160	57	6252
2026-01-19 09:58:47.59	354.50	48.95	-43.5	-48.5	10.0	5.82e-03	0	62	0	824180736	57	6820
2026-01-19 09:58:48.60	354.35	48.63	-43.6	-48.9	9.5	8.48e-03	0	62	0	826277888	57	7178
2026-01-19 09:58:49.61	354.21	48.31	-44.1	-50.2	8.2	2.49e-02	0	62	0	828375040	58	7875
2026-01-19 09:58:50.61	354.07	48.00	-43.8	-49.4	9.0	2.68e-02	0	62	0	830472192	58	7192
2026-01-19 09:58:51.62	353.93	47.68	-43.4	-48.3	10.2	1.66e-02	0	62	0	832569344	58	6276
2026-01-19 09:58:52.63	353.79	47.37	-43.2	-47.9	10.6	4.12e-03	0	62	0	833617920	58	6024
2026-01-19 09:58:53.64	353.66	47.05	-43.4	-48.3	10.2	6.02e-03	0	62	0	835715072	58	6284
2026-01-19 09:58:54.65	353.53	46.75	-43.4	-48.2	10.3	5.25e-03	0	62	0	837812224	58	6268
2026-01-19 09:58:55.66	353.40	46.44	-43.4	-48.5	9.9	6.11e-03	0	62	0	839909376	58	6428
2026-01-19 09:58:56.67	353.28	46.13	-43.4	-48.2	10.2	5.21e-03	0	62	0	842006528	58	6256
2026-01-19 09:58:57.68	353.15	45.83	-43.1	-47.6	10.8	3.37e-03	0	62	0	843055104	57	6163
2026-01-19 09:58:58.69	353.03	45.53	-42.8	-46.9	11.5	2.09e-03	0	62	0	845152256	57	5717
2026-01-19 09:58:59.70	352.91	45.23	-43.1	-47.6	10.9	8.22e-04	0	62	0	847249408	57	6137
2026-01-19 09:59:00.71	352.80	44.93	-43.6	-49.0	9.4	1.05e-02	0	62	0	849346560	57	7243
2026-01-19 09:59:01.72	352.69	44.64	-44.1	-50.6	7.9	2.49e-02	0	62	0	851443712	58	8178
2026-01-19 09:59:02.73	352.57	44.35	-44.3	-51.3	7.1	1.03e-01	0	62	0	852492288	59	8426
2026-01-19 09:59:03.74	352.46	44.05	-44.6	-52.8	5.8	1.95e-01	0	62	0	854589440	59	9961
2026-01-19 09:59:04.75	352.36	43.77	-44.6	-53.0	5.7	4.19e-01	0	62	0	856686592	59	10201
2026-01-19 09:59:05.76	352.25	43.48	-44.7	-53.8	5.2	3.94e-01	0	62	0	858783744	59	11182
2026-01-19 09:59:06.77	352.15	43.20	-44.9	-55.8	4.3	1.26e+00	0	62	0	859832320	60	13383
2026-01-19 09:59:07.78	352.05	42.91	-45.1	-58.7	3.8	1.35e+00	0	62	104	860880896	60	18519
2026-01-19 09:59:08.79	351.95	42.63	-44.6	-53.1	6.0	1.31e+00	0	62	0	860880896	60	9741
2026-01-19 09:59:09.80	351.85	42.35	-45.0	-56.2	4.2	8.30e-01	0	62	0	862978048	60	14044
2026-01-19 09:59:10.81	351.75	42.08	-44.1	-50.4	8.1	2.45e-01	0	62	0	864026624	58	8076
2026-01-19 09:59:11.82	351.66	41.80	-43.4	-48.4	10.0	4.76e-01	0	62	0	866123776	58	6417
2026-01-19 09:59:12.83	351.57	41.53	-43.4	-48.5	9.8	1.18e-02	0	62	0	867172352	58	6477
2026-01-19 09:59:13.83	351.48	41.26	-43.5	-48.6	9.7	9.06e-03	0	62	0	869269504	58	6541
2026-01-19 09:59:14.84	351.39	40.99	-43.8	-49.5	8.9	1.87e-02	0	62	0	871366656	58	7208
2026-01-19 09:59:15.85	351.30	40.73	-43.8	-49.6	8.7	3.01e-02	0	62	0	873463808	58	7326
2026-01-19 09:59:16.86	351.21	40.46	-44.1	-50.8	7.8	6.84e-02	0	62	0	875560960	58	8458
2026-01-19 09:59:17.87	351.13	40.20	-44.5	-52.3	6.3	1.82e-01	0	62	0	876609536	59	9409
2026-01-19 09:59:18.88	351.04	39.94	-44.4	-52.0	6.5	3.09e-01	0	62	0	878706688	59	9081
2026-01-19 09:59:19.89	350.96	39.68	-43.7	-49.4	8.9	8.32e-02	0	62	0	880803840	59	6758
2026-01-19 09:59:20.90	350.88	39.42	-43.3	-48.2	10.1	8.54e-03	0	62	0	882900992	58	6215
2026-01-19 09:59:21.91	350.80	39.17	-42.5	-46.3	12.1	1.66e-03	0	62	0	884998144	57	5305
2026-01-19 09:59:22.92	350.72	38.91	-42.0	-45.4	13.1	8.23e-05	0	62	0	886046720	56	5052
2026-01-19 09:59:23.93	350.64	38.66	-42.3	-45.9	12.5	6.25e-05	0	62	0	888143872	56	5385
2026-01-19 09:59:24.94	350.57	38.41	-42.9	-47.3	11.2	2.49e-04	0	62	0	890241024	56	6319
2026-01-19 09:59:25.95	350.49	38.16	-43.4	-48.6	9.7	1.01e-02	0	62	0	892338176	57	6931
2026-01-19 09:59:26.96	350.42	37.91	-43.8	-49.6	8.7	2.46e-02	0	62	0	894435328	58	7312
2026-01-19 09:59:27.97	350.35	37.67	-44.1	-50.5	7.8	5.40e-02	0	62	0	895483904	58	8133
2026-01-19 09:59:28.98	350.28	37.43	-44.0	-50.5	7.8	8.61e-02	0	62	0	897581056	58	8133
2026-01-19 09:59:29.99	350.21	37.19	-43.9	-49.8	8.4	7.12e-02	0	62	0	899678208	58	7522
2026-01-19 09:59:31.00	350.14	36.95	-43.6	-49.0	9.3	1.63e-02	0	62	0	901775360	58	6841
2026-01-19 09:59:32.00	350.07	36.71	-43.6	-49.0	9.3	2.14e-02	0	62	0	903872512	58	6856
2026-01-19 09:59:33.01	350.00	36.47	-43.6	-49.1	9.2	2.24e-02	0	62	0	905969664	58	6927
2026-01-19 09:59:34.02	349.94	36.24	-43.8	-49.6	8.7	2.23e-02	0	62	0	907018240	58	7370
2026-01-19 09:59:35.03	349.87	36.01	-43.8	-49.7	8.7	3.65e-02	0	62	0	909115392	58	7373
2026-01-19 09:59:36.04	349.81	35.77	-43.7	-49.6	8.7	4.18e-02	0	62	0	911212544	58	7308
2026-01-19 09:59:37.05	349.75	35.54	-43.6	-49.1	9.1	2.61e-02	0	62	0	913309696	58	6953
2026-01-19 09:59:38.06	349.68	35.32	-43.4	-48.5	9.7	1.61e-02	0	62	0	915406848	58	6494
2026-01-19 09:59:39.07	349.62	35.09	-43.3	-48.4	9.9	9.59e-03	0	62	0	916455424	58	6365
2026-01-19 09:59:40.08	349.56	34.87	-43.1	-47.8	10.5	5.23e-03	0	62	0	918552576	58	5954
2026-01-19 09:59:41.09	349.50	34.64	-43.0	-47.5	10.8	2.83e-03	0	62	0	920649728	57	6110
2026-01-19 09:59:42.10	349.44	34.42	-42.9	-47.3	11.2	2.48e-03	0	62	0	922746880	57	5969
2026-01-19 09:59:43.11	349.39	34.20	-42.9	-47.3	11.0	1.59e-03	0	62	0	924844032	57	5977
2026-01-19 09:59:44.12	349.33	33.98	-43.1	-47.8	10.5	1.96e-03	0	62	0	925892608	57	6287
2026-01-19 09:59:45.13	349.27	33.76	-43.4	-48.5	9.8	4.44e-03	0	62	0	927989760	57	6855
2026-01-19 09:59:46.14	349.22	33.55	-43.6	-49.2	9.0	2.22e-02	0	62	0	930086912	57	7446
2026-01-19 09:59:47.15	349.16	33.33	-43.9	-50.1	8.2	3.13e-02	0	62	0	932184064	58	7777
2026-01-19 09:59:48.16	349.11	33.12	-44.2	-51.4	7.0	9.07e-02	0	62	0	934281216	58	9055
2026-01-19 09:59:49.17	349.06	32.91	-44.3	-51.9	6.4	1.83e-01	0	62	0	935329792	59	9040
2026-01-19 09:59:50.18	349.00	32.70	-44.2	-51.5	6.8	2.41e-01	0	62	0	937426944	59	8627
2026-01-19 09:59:51.19	348.95	32.49	-44.2	-51.3	6.9	1.82e-01	0	62	0	939524096	59	8438
2026-01-19 09:59:52.20	348.90	32.28	-44.0	-50.6	7.6	1.35e-01	0	62	0	941621248	59	7739
2026-01-19 09:59:53.21	348.85	32.08	-43.8	-50.0	8.2	6.19e-02	0	62	0	943718400	59	7274
2026-01-19 09:59:54.22	348.80	31.87	-44.1	-51.2	7.0	1.57e-01	0	62	0	944766976	59	8273
2026-01-19 09:59:55.23	348.75	31.67	-44.7	-55.6	4.4	1.25e+00	0	62	0	946864128	60	13024
2026-01-19 09:59:56.24	348.70	31.47	-44.5	-53.7	5.0	1.02e+00	0	62	0	947912704	60	10465
2026-01-19 09:59:57.25	348.66	31.27	-44.7	-55.1	4.4	1.67e-01	0	62	0	950009856	60	12321
2026-01-19 09:59:58.26	348.61	31.07	-43.3	-48.5	9.7	1.19e-02	0	62	0	952107008	58	6451
2026-01-19 09:59:59.27	348.56	30.87	-43.3	-48.3	9.9	9.89e-03	0	62	0	954204160	58	6334
2026-01-19 10:00:00.28	348.52	30.68	-43.2	-48.3	9.9	8.45e-03	0	62	0	955252736	58	6318
2026-01-19 10:00:01.29	348.47	30.48	-43.2	-48.3	9.9	1.03e-02	0	62	0	957349888	58	6281
2026-01-19 10:00:02.30	348.43	30.29	-43.3	-48.4	9.6	1.14e-02	0	62	0	959447040	58	6394
2026-01-19 10:00:03.31	348.38	30.10	-43.3	-48.5	9.7	6.70e-03	0	62	0	961544192	58	6435
2026-01-19 10:00:04.32	348.34	29.91	-43.2	-48.3	9.9	8.62e-03	0	62	0	963641344	58	6293
2026-01-19 10:00:05.32	348.30	29.72	-43.2	-48.3	9.8	9.17e-03	0	62	0	964689920	58	6310
2026-01-19 10:00:06.33	348.26	29.53	-43.1	-48.1	10.0	9.87e-03	0	62	0	966787072	58	6184
2026-01-19 10:00:07.34	348.22	29.34	-43.1	-47.9	10.2	6.11e-03	0	62	0	968884224	58	6061
2026-01-19 10:00:08.35	348.17	29.16	-43.1	-48.2	10.0	5.94e-03	0	62	0	970981376	58	6211
2026-01-19 10:00:09.36	348.13	28.97	-43.3	-48.6	9.5	1.15e-02	0	62	0	973078528	58	6541
2026-01-19 10:00:10.37	348.09	28.79	-43.3	-48.8	9.3	1.78e-02	0	62	0	974127104	58	6707
2026-01-19 10:00:11.38	348.05	28.61	-43.5	-49.5	8.6	2.87e-02	0	62	0	976224256	58	7205
2026-01-19 10:00:12.39	348.01	28.42	-43.6	-49.8	8.2	5.17e-02	0	62	0	978321408	58	7528
2026-01-19 10:00:13.40	347.98	28.24	-43.6	-49.8	8.3	5.11e-02	0	62	0	980418560	58	7491
2026-01-19 10:00:14.41	347.94	28.06	-43.6	-49.9	8.2	5.75e-02	0	62	0	982515712	58	7548
2026-01-19 10:00:15.41	347.90	27.89	-43.5	-49.5	8.4	5.72e-02	0	62	0	983564288	58	7285
2026-01-19 10:00:16.42	347.86	27.71	-43.5	-49.3	8.7	5.57e-02	0	62	0	985661440	58	7105
2026-01-19 10:00:17.43	347.83	27.54	-43.2	-48.7	9.3	2.87e-02	0	62	0	987758592	58	6592
2026-01-19 10:00:18.44	347.79	27.36	-43.0	-48.1	9.8	1.03e-02	0	62	0	989855744	57	6533
2026-01-19 10:00:19.45	347.75	27.19	-42.7	-47.3	10.6	4.58e-03	0	62	0	991952896	57	5980
2026-01-19 10:00:20.46	347.72	27.02	-42.5	-46.9	11.2	2.01e-03	0	62	0	993001472	56	6009
2026-01-19 10:00:21.47	347.68	26.84	-42.3	-46.5	11.5	9.78e-04	0	62	0	995098624	56	5764
2026-01-19 10:00:22.48	347.65	26.67	-42.1	-45.9	12.0	4.32e-04	0	62	0	997195776	56	5398
2026-01-19 10:00:23.49	347.61	26.51	-41.8	-45.6	12.2	2.14e-04	0	62	0	999292928	55	5523
2026-01-19 10:00:24.50	347.58	26.34	-41.6	-45.3	12.5	1.21e-04	0	62	0	1001390080	55	5322
2026-01-19 10:00:25.50	347.55	26.17	-41.6	-45.3	12.4	1.18e-04	0	62	0	1002438656	55	5330
2026-01-19 10:00:26.51	347.51	26.01	-41.8	-45.7	12.0	2.37e-04	0	62	0	1004535808	55	5589
2026-01-19 10:00:27.52	347.48	25.84	-42.1	-46.3	11.3	7.58e-04	0	62	0	1006632960	55	5945
2026-01-19 10:00:28.54	347.45	25.68	-42.1	-46.6	11.0	1.53e-03	0	62	0	1008730112	55	6149
2026-01-19 10:00:29.54	347.42	25.51	-42.4	-47.2	10.3	3.44e-03	0	62	0	1010827264	55	6627
2026-01-19 10:00:30.55	347.38	25.35	-42.9	-48.4	9.2	8.52e-03	0	62	0	1011875840	56	7198
2026-01-19 10:00:31.56	347.35	25.19	-43.1	-48.9	8.8	2.95e-02	0	62	0	1013972992	56	7566
2026-01-19 10:00:32.57	347.32	25.03	-43.2	-49.3	8.3	4.15e-02	0	62	0	1016070144	56	7985
2026-01-19 10:00:33.58	347.29	24.87	-43.3	-49.8	7.8	7.59e-02	0	62	0	1018167296	57	7925
2026-01-19 10:00:34.59	347.26	24.71	-43.2	-49.3	8.3	6.10e-02	0	62	0	1020264448	57	7486
2026-01-19 10:00:35.60	347.23	24.56	-43.0	-48.8	8.7	5.47e-02	0	62	0	1021313024	57	7115
2026-01-19 10:00:36.61	347.20	24.40	-42.8	-48.4	9.1	2.73e-02	0	62	0	1023410176	57	6737
2026-01-19 10:00:37.62	347.17	24.24	-42.6	-47.9	9.7	1.72e-02	0	62	0	1025507328	57	6351
2026-01-19 10:00:38.63	347.14	24.09	-42.4	-47.3	10.2	8.42e-03	0	62	0	1027604480	56	6326
2026-01-19 10:00:39.64	347.11	23.94	-42.4	-47.3	10.1	5.66e-03	0	62	0	1029701632	56	6309
2026-01-19 10:00:40.65	347.09	23.78	-42.2	-46.9	10.4	6.01e-03	0	62	0	1030750208	56	6058
2026-01-19 10:00:41.66	347.06	23.63	-42.0	-46.6	10.7	2.51e-03	0	62	0	1032847360	56	5831
2026-01-19 10:00:42.67	347.03	23.48	-41.8	-46.5	10.6	2.11e-03	0	62	0	1034944512	55	6111
2026-01-19 10:00:43.68	347.00	23.33	-41.9	-46.8	10.1	5.08e-03	0	62	0	1037041664	55	6333
2026-01-19 10:00:44.69	346.98	23.18	-41.6	-46.4	10.5	4.73e-03	0	62	0	1039138816	55	6020
2026-01-19 10:00:45.70	346.95	23.03	-41.6	-46.4	10.4	4.02e-03	0	62	0	1040187392	55	6034
2026-01-19 10:00:46.70	346.92	22.89	-41.5	-46.3	10.4	4.47e-03	0	62	0	1042284544	54	6303
2026-01-19 10:00:47.71	346.90	22.74	-41.6	-46.7	9.8	7.77e-03	0	62	0	1044381696	54	6612
2026-01-19 10:00:48.72	346.87	22.60	-41.6	-46.9	9.5	1.44e-02	0	62	0	1046478848	54	6779
2026-01-19 10:00:49.73	346.85	22.45	-41.6	-47.0	9.4	1.47e-02	0	62	0	1048576000	54	6826
2026-01-19 10:00:50.74	346.82	22.31	-41.5	-47.0	9.4	1.41e-02	0	62	0	1050673152	54	6802
2026-01-19 10:00:51.75	346.80	22.16	-41.5	-47.0	9.3	1.92e-02	0	62	0	1051721728	54	6804
2026-01-19 10:00:52.76	346.77	22.02	-41.5	-47.1	9.0	2.07e-02	0	62	0	1053818880	54	6937
2026-01-19 10:00:53.77	346.75	21.88	-41.6	-47.6	8.4	3.97e-02	0	62	0	1055916032	54	7341
2026-01-19 10:00:54.78	346.72	21.74	-41.7	-48.1	7.8	7.81e-02	0	62	0	1058013184	54	7779
2026-01-19 10:00:55.79	346.70	21.60	-41.7	-48.9	7.0	1.25e-01	0	62	0	1060110336	54	8468
2026-01-19 10:00:56.80	346.67	21.46	-41.8	-49.6	6.3	1.92e-01	0	62	0	1061158912	54	9213
2026-01-19 10:00:57.81	346.65	21.32	-41.8	-50.6	5.4	4.29e-01	0	62	0	1063256064	54	10387
2026-01-19 10:00:58.82	346.63	21.18	-41.8	-51.6	4.8	6.68e-01	0	62	0	1065353216	54	11595
2026-01-19 10:00:59.83	346.60	21.04	-41.8	-52.9	4.3	9.67e-01	0	62	0	1067450368	54	13435
2026-01-19 10:01:00.83	346.58	20.91	-42.4	-54.0	4.1	1.39e+00	0	62	0	1067450368	55	14457
2026-01-19 10:01:01.84	346.56	20.77	-41.3	-55.9	3.8	1.48e+00	0	62	104	1067450368	54	19075
2026-01-19 10:01:02.86	346.54	20.64	-42.1	-55.4	3.8	1.49e+00	0	62	104	1067450368	54	17890
2026-01-19 10:01:03.87	346.51	20.50	-41.6	-56.1	3.8	1.49e+00	0	62	104	1067450368	55	18308
2026-01-19 10:01:04.87	346.49	20.37	-41.8	-55.7	3.8	1.49e+00	0	62	104	1067450368	55	17499
2026-01-19 10:01:05.88	346.47	20.24	-41.6	-55.9	3.8	1.49e+00	0	62	104	1067450368	55	18050
2026-01-19 10:01:06.89	346.45	20.11	-41.6	-56.0	3.8	1.49e+00	0	62	104	1067450368	55	18226
2026-01-19 10:01:07.90	346.43	19.97	-41.5	-56.1	3.8	1.49e+00	0	62	104	1067450368	54	19437
2026-01-19 10:01:08.91	346.41	19.84	-41.5	-56.2	3.8	1.49e+00	0	62	104	1067450368	54	19618
2026-01-19 10:01:09.92	346.39	19.71	-41.1	-55.7	3.8	1.49e+00	0	62	104	1067450368	54	18626
2026-01-19 10:01:10.93	346.37	19.58	-41.2	-56.0	3.8	1.49e+00	0	62	104	1067450368	54	19237
2026-01-19 10:01:11.94	346.34	19.45	-41.2	-56.0	3.8	1.49e+00	0	62	104	1067450368	54	19172
2026-01-19 10:01:12.95	346.32	19.33	-41.0	-55.6	3.8	1.49e+00	0	62	104	1067450368	54	18496
2026-01-19 10:01:13.96	346.30	19.20	-41.3	-56.0	3.8	1.49e+00	0	62	104	1067450368	54	19191
2026-01-19 10:01:14.97	346.28	19.07	-41.1	-55.8	3.8	1.49e+00	0	62	104	1067450368	54	18943
2026-01-19 10:01:15.98	346.27	18.95	-40.9	-55.8	3.8	1.49e+00	0	62	104	1067450368	53	19853
2026-01-19 10:01:16.99	346.25	18.82	-41.1	-55.7	3.8	1.49e+00	0	62	104	1067450368	53	19826
2026-01-19 10:01:18.00	346.23	18.70	-41.3	-56.0	3.8	1.49e+00	0	62	104	1067450368	53	20331
2026-01-19 10:01:19.01	346.21	18.57	-41.0	-55.6	3.8	1.49e+00	0	62	104	1067450368	53	19588
2026-01-19 10:01:20.02	346.19	18.45	-40.9	-55.7	3.8	1.49e+00	0	62	104	1067450368	53	19697
2026-01-19 10:01:21.03	346.17	18.33	-41.2	-55.8	3.8	1.49e+00	0	62	104	1067450368	53	20037
2026-01-19 10:01:22.03	346.15	18.20	-41.2	-55.8	3.8	1.49e+00	0	62	104	1067450368	53	19976
2026-01-19 10:01:23.04	346.13	18.08	-40.9	-55.6	3.8	1.49e+00	0	62	104	1067450368	53	19513
2026-01-19 10:01:24.05	346.12	17.96	-41.2	-55.8	3.8	1.49e+00	0	62	104	1067450368	53	20026
2026-01-19 10:01:25.06	346.10	17.84	-41.2	-55.8	3.8	1.49e+00	0	62	104	1067450368	53	19943
2026-01-19 10:01:26.07	346.08	17.72	-40.9	-55.6	3.8	1.49e+00	0	62	104	1067450368	53	19477
2026-01-19 10:01:27.08	346.06	17.60	-40.9	-55.7	3.8	1.49e+00	0	62	104	1067450368	53	19647
2026-01-19 10:01:28.09	346.04	17.48	-41.5	-56.0	3.8	1.49e+00	0	62	104	1067450368	53	20486
2026-01-19 10:01:29.10	346.03	17.36	-41.1	-55.7	3.8	1.49e+00	0	62	104	1067450368	53	19657
2026-01-19 10:01:30.10	346.01	17.25	-40.9	-55.6	3.8	1.49e+00	0	62	104	1067450368	53	19516
2026-01-19 10:01:31.12	345.99	17.13	-41.0	-55.7	3.8	1.49e+00	0	62	104	1067450368	53	19627
2026-01-19 10:01:32.12	345.98	17.01	-41.5	-56.0	3.8	1.49e+00	0	62	104	1067450368	53	20516
2026-01-19 10:01:33.13	345.96	16.90	-41.0	-55.6	3.8	1.49e+00	0	62	104	1067450368	53	19488
2026-01-19 10:01:34.14	345.94	16.78	-41.0	-55.7	3.8	1.49e+00	0	62	104	1067450368	53	19789
2026-01-19 10:01:35.15	345.93	16.67	-41.0	-55.6	3.8	1.49e+00	0	62	104	1067450368	53	19572
2026-01-19 10:01:36.16	345.91	16.55	-41.4	-55.9	3.8	1.49e+00	0	62	104	1067450368	53	20276
2026-01-19 10:01:37.17	345.90	16.44	-41.0	-55.6	3.8	1.49e+00	0	62	104	1067450368	53	19536
2026-01-19 10:01:38.18	345.88	16.33	-41.1	-55.8	3.8	1.49e+00	0	62	104	1067450368	53	19980
2026-01-19 10:01:39.19	345.86	16.21	-40.8	-55.5	3.8	1.49e+00	0	62	104	1067450368	53	19303
2026-01-19 10:01:40.20	345.85	16.10	-41.3	-55.9	3.8	1.49e+00	0	62	104	1067450368	53	20074
2026-01-19 10:01:41.21	345.83	15.99	-41.0	-55.7	3.8	1.49e+00	0	62	104	1067450368	53	19700
2026-01-19 10:01:42.22	345.82	15.88	-41.1	-55.7	3.8	1.49e+00	0	62	104	1067450368	53	19805
2026-01-19 10:01:43.23	345.80	15.77	-40.9	-55.5	3.8	1.49e+00	0	62	104	1067450368	53	19363
2026-01-19 10:01:44.24	345.79	15.66	-41.2	-55.9	3.8	1.49e+00	0	62	104	1067450368	53	20139
2026-01-19 10:01:45.24	345.77	15.55	-41.0	-55.6	3.8	1.49e+00	0	62	104	1067450368	53	19610
2026-01-19 10:01:46.25	345.76	15.44	-41.0	-55.6	3.8	1.49e+00	0	62	104	1067450368	53	19497
2026-01-19 10:01:47.26	345.74	15.33	-41.0	-55.7	3.8	1.49e+00	0	62	104	1067450368	53	19665
