passes_logs/2026/01/19/R2.0S_Moscow/R2.0S_Moscow__20260119_060259_FENGYUN_3E_rec.log

#Pass ID: 20260119_060259_FENGYUN 3E
#Satellite: FENGYUN 3E
#Configuration: FENGYUN 3E
#almurnet v.1.7.20251203
#Start time: 2026-01-19 06:03:01

#Version: 2.2.20231116
#Station: R2.0S_Moscow
#Location: 37.707566 lon 55.798166 lat
#TLE: 1 49008U 21062A   26017.96535346 -.00000182  00000+0 -64922-4 0  9998
#TLE: 2 49008  98.7483  23.0589 0002171 131.9722 228.1640 14.19885139235265

#Time	Az	El	Level	Level2	SNR	BER	BlckErr	Temp	State	Recorded	gain1	gain2
2026-01-19 06:03:01.36	8.83	2.11	-39.9	-51.3	3.8	8.46e-01	0	51	0	0	50	13270
2026-01-19 06:03:02.36	8.75	2.17	-39.9	-51.2	3.8	8.46e-01	0	51	104	0	49	13975
2026-01-19 06:03:03.37	8.67	2.22	-39.9	-51.2	3.8	8.45e-01	0	51	104	0	49	13983
2026-01-19 06:03:04.38	8.59	2.27	-39.8	-51.2	3.8	8.46e-01	0	51	104	0	49	14026
2026-01-19 06:03:05.39	8.51	2.32	-39.9	-51.2	3.8	8.46e-01	0	51	104	0	49	13992
2026-01-19 06:03:06.40	8.43	2.38	-39.9	-51.2	3.8	8.46e-01	0	51	104	0	49	13985
2026-01-19 06:03:07.41	8.34	2.43	-39.9	-51.2	3.8	8.47e-01	0	51	104	0	49	13999
2026-01-19 06:03:08.42	8.26	2.48	-39.9	-51.2	3.8	8.47e-01	0	52	104	0	49	13971
2026-01-19 06:03:09.43	8.18	2.54	-39.8	-51.2	3.8	8.46e-01	0	52	104	0	49	13959
2026-01-19 06:03:10.44	8.10	2.59	-39.9	-51.2	3.8	8.46e-01	0	52	104	0	49	14041
2026-01-19 06:03:11.45	8.01	2.64	-39.8	-51.2	3.8	8.46e-01	0	52	104	0	49	13982
2026-01-19 06:03:12.46	7.93	2.69	-39.9	-51.2	3.8	8.45e-01	0	52	104	0	49	14039
2026-01-19 06:03:13.47	7.84	2.75	-39.9	-51.2	3.8	8.46e-01	0	52	104	0	49	13985
2026-01-19 06:03:14.48	7.76	2.80	-39.9	-51.2	3.8	8.47e-01	0	52	104	0	49	13975
2026-01-19 06:03:15.49	7.68	2.85	-39.9	-51.2	3.8	8.47e-01	0	52	104	0	49	14033
2026-01-19 06:03:16.50	7.59	2.91	-39.9	-51.2	3.8	8.46e-01	0	52	104	0	49	14002
2026-01-19 06:03:17.51	7.50	2.96	-39.8	-51.2	3.8	8.45e-01	0	52	104	0	49	13992
2026-01-19 06:03:18.53	7.42	3.01	-39.8	-51.2	3.8	8.46e-01	0	52	104	0	49	13951
2026-01-19 06:03:19.54	7.33	3.07	-39.9	-51.2	3.8	8.46e-01	0	52	104	0	49	13975
2026-01-19 06:03:20.54	7.25	3.12	-39.8	-51.2	3.8	8.46e-01	0	52	104	0	49	14004
2026-01-19 06:03:21.56	7.16	3.17	-39.8	-51.2	3.8	8.45e-01	0	53	104	0	49	14017
2026-01-19 06:03:22.57	7.07	3.23	-39.9	-51.2	3.8	8.46e-01	0	53	104	0	49	13977
2026-01-19 06:03:23.57	6.99	3.28	-39.9	-51.2	3.8	8.46e-01	0	53	104	0	49	13986
2026-01-19 06:03:24.58	6.90	3.33	-39.8	-51.2	3.8	8.47e-01	0	53	104	0	49	14012
2026-01-19 06:03:25.60	6.81	3.39	-39.8	-51.2	3.8	8.47e-01	0	53	104	0	49	13964
2026-01-19 06:03:26.61	6.72	3.44	-39.8	-51.2	3.8	8.47e-01	0	53	104	0	49	14026
2026-01-19 06:03:27.61	6.63	3.49	-39.9	-51.2	3.8	8.46e-01	0	53	104	0	49	13989
2026-01-19 06:03:28.63	6.54	3.55	-39.8	-51.2	3.8	8.46e-01	0	53	104	0	49	13975
2026-01-19 06:03:29.64	6.45	3.60	-39.8	-51.2	3.8	8.46e-01	0	53	104	0	49	14003
2026-01-19 06:03:30.65	6.36	3.66	-39.9	-51.2	3.8	8.46e-01	0	53	104	0	49	13996
2026-01-19 06:03:31.66	6.27	3.71	-39.8	-51.2	3.8	8.46e-01	0	53	104	0	49	13959
2026-01-19 06:03:32.67	6.18	3.76	-39.9	-51.2	3.8	8.46e-01	0	53	104	0	49	13904
2026-01-19 06:03:33.68	6.09	3.82	-39.9	-51.2	3.8	8.46e-01	0	53	104	0	49	14012
2026-01-19 06:03:34.69	6.00	3.87	-39.9	-51.2	3.8	8.45e-01	0	53	104	0	49	13974
2026-01-19 06:03:35.70	5.91	3.93	-39.8	-51.2	3.8	8.46e-01	0	54	104	0	49	13956
2026-01-19 06:03:36.71	5.82	3.98	-39.8	-51.2	3.8	8.46e-01	0	53	104	0	49	13953
2026-01-19 06:03:37.72	5.72	4.03	-39.8	-51.2	3.8	8.47e-01	0	54	104	0	49	13937
2026-01-19 06:03:38.73	5.63	4.09	-39.8	-51.2	3.8	8.46e-01	0	53	104	0	49	13991
2026-01-19 06:03:39.74	5.54	4.14	-39.8	-51.2	3.8	8.47e-01	0	54	104	0	49	13984
2026-01-19 06:03:40.75	5.45	4.20	-39.9	-51.2	3.8	8.45e-01	0	54	104	0	49	13983
2026-01-19 06:03:41.76	5.35	4.25	-39.8	-51.2	3.8	8.46e-01	0	54	104	0	49	13928
2026-01-19 06:03:42.77	5.26	4.30	-39.8	-51.2	3.8	8.47e-01	0	54	104	0	49	13968
2026-01-19 06:03:43.78	5.16	4.36	-39.8	-51.2	3.8	8.45e-01	0	54	104	0	49	13984
2026-01-19 06:03:44.79	5.07	4.41	-39.8	-51.2	3.8	8.46e-01	0	54	104	0	49	13990
2026-01-19 06:03:45.80	4.97	4.47	-39.8	-51.2	3.8	8.46e-01	0	54	104	0	49	13946
2026-01-19 06:03:46.81	4.88	4.52	-39.8	-51.2	3.8	8.46e-01	0	54	104	0	49	13974
2026-01-19 06:03:47.82	4.78	4.58	-39.8	-51.2	3.8	8.46e-01	0	54	104	0	49	14022
2026-01-19 06:03:48.83	4.69	4.63	-39.8	-51.2	3.8	8.46e-01	0	54	104	0	49	13948
2026-01-19 06:03:49.85	4.59	4.68	-39.8	-51.2	3.8	8.45e-01	0	54	104	0	49	13923
2026-01-19 06:03:50.86	4.49	4.74	-39.8	-51.2	3.8	8.46e-01	0	54	104	0	49	13993
2026-01-19 06:03:51.86	4.40	4.79	-39.8	-51.2	3.8	8.46e-01	0	54	104	0	49	13969
2026-01-19 06:03:52.88	4.30	4.85	-39.8	-51.2	3.8	8.46e-01	0	54	104	0	49	13999
2026-01-19 06:03:53.89	4.20	4.90	-39.8	-51.2	3.8	8.46e-01	0	55	104	0	49	13994
2026-01-19 06:03:54.90	4.10	4.96	-39.8	-51.2	3.8	8.47e-01	0	55	104	0	49	13954
2026-01-19 06:03:55.91	4.00	5.01	-39.9	-51.2	3.8	8.44e-01	0	55	104	0	49	13958
2026-01-19 06:03:56.92	3.90	5.07	-39.8	-51.2	3.8	8.46e-01	0	54	104	0	49	13952
2026-01-19 06:03:57.93	3.80	5.12	-39.9	-51.2	3.8	8.45e-01	0	55	104	0	49	13966
2026-01-19 06:03:58.94	3.70	5.18	-39.8	-51.2	3.8	8.46e-01	0	55	104	0	49	13949
2026-01-19 06:03:59.95	3.60	5.23	-39.8	-51.2	3.8	8.46e-01	0	55	104	0	49	13973
2026-01-19 06:04:00.96	3.50	5.29	-39.8	-51.2	3.8	8.46e-01	0	55	104	0	49	13959
2026-01-19 06:04:01.97	3.40	5.34	-39.8	-51.2	3.8	8.46e-01	0	55	104	0	49	14012
2026-01-19 06:04:02.98	3.30	5.40	-39.9	-51.2	3.8	8.46e-01	0	55	104	0	49	13954
2026-01-19 06:04:03.99	3.20	5.45	-39.8	-51.2	3.8	8.48e-01	0	55	104	0	49	13964
2026-01-19 06:04:05.00	3.09	5.51	-39.8	-51.2	3.8	8.46e-01	0	55	104	0	49	13951
2026-01-19 06:04:06.01	2.99	5.56	-39.8	-51.2	3.8	8.46e-01	0	55	104	0	49	13963
2026-01-19 06:04:07.02	2.89	5.62	-39.9	-51.2	3.8	8.45e-01	0	55	104	0	49	13939
2026-01-19 06:04:08.03	2.78	5.67	-39.8	-51.2	3.8	8.46e-01	0	55	104	0	49	13975
2026-01-19 06:04:09.04	2.68	5.72	-39.8	-51.2	3.8	8.47e-01	0	55	104	0	49	13950
2026-01-19 06:04:10.05	2.58	5.78	-39.9	-51.2	3.8	8.45e-01	0	55	104	0	49	13990
2026-01-19 06:04:11.06	2.47	5.84	-39.8	-51.2	3.8	8.45e-01	0	55	104	0	49	13914
2026-01-19 06:04:12.07	2.37	5.89	-39.8	-51.2	3.8	8.46e-01	0	55	104	0	49	14014
2026-01-19 06:04:13.08	2.26	5.95	-39.8	-51.2	3.8	8.46e-01	0	56	104	0	49	13991
2026-01-19 06:04:14.09	2.15	6.00	-39.8	-51.2	3.8	8.46e-01	0	56	104	0	49	13985
2026-01-19 06:04:15.10	2.05	6.06	-39.9	-51.2	3.8	8.46e-01	0	56	104	0	49	13943
2026-01-19 06:04:16.11	1.94	6.11	-39.8	-51.2	3.8	8.46e-01	0	56	104	0	49	13909
2026-01-19 06:04:17.12	1.83	6.17	-39.8	-51.2	3.8	8.46e-01	0	55	104	0	49	13960
2026-01-19 06:04:18.13	1.73	6.22	-39.8	-51.2	3.8	8.46e-01	0	56	104	0	49	13939
2026-01-19 06:04:19.14	1.62	6.28	-39.8	-51.2	3.8	8.46e-01	0	56	104	0	49	13952
2026-01-19 06:04:20.15	1.51	6.33	-39.8	-51.2	3.8	8.46e-01	0	56	104	0	49	13955
2026-01-19 06:04:21.16	1.40	6.39	-39.8	-51.2	3.8	8.46e-01	0	56	104	0	49	13959
2026-01-19 06:04:22.17	1.29	6.44	-39.8	-51.2	3.8	8.47e-01	0	56	104	0	49	13936
2026-01-19 06:04:23.18	1.18	6.50	-39.9	-51.2	3.8	8.45e-01	0	56	104	0	49	13950
2026-01-19 06:04:24.19	1.07	6.55	-39.8	-51.2	3.8	8.46e-01	0	56	104	0	49	13983
2026-01-19 06:04:25.20	0.96	6.61	-39.8	-51.2	3.8	8.45e-01	0	56	104	0	49	13897
2026-01-19 06:04:26.21	0.85	6.66	-39.8	-51.2	3.8	8.47e-01	0	56	104	0	49	13959
2026-01-19 06:04:27.22	0.74	6.72	-39.8	-51.2	3.8	8.47e-01	0	56	104	0	49	13908
2026-01-19 06:04:28.24	0.62	6.77	-39.8	-51.2	3.8	8.45e-01	0	56	104	0	49	13950
2026-01-19 06:04:29.25	0.51	6.83	-39.9	-51.2	3.8	8.46e-01	0	56	104	0	49	13943
2026-01-19 06:04:30.26	0.40	6.89	-39.8	-51.2	3.8	8.46e-01	0	56	104	0	49	13951
2026-01-19 06:04:31.27	0.28	6.94	-39.8	-51.2	3.8	8.47e-01	0	56	104	0	49	13919
2026-01-19 06:04:32.28	0.17	7.00	-39.8	-51.2	3.8	8.45e-01	0	56	104	0	49	13970
2026-01-19 06:04:33.29	0.06	7.05	-39.8	-51.2	3.8	8.46e-01	0	56	104	0	49	13958
2026-01-19 06:04:34.30	359.94	7.11	-39.8	-51.2	3.8	8.46e-01	0	56	104	0	49	13932
2026-01-19 06:04:35.31	359.83	7.16	-39.8	-51.2	3.8	8.47e-01	0	56	104	0	49	13943
2026-01-19 06:04:36.32	359.71	7.22	-39.8	-51.2	3.8	8.47e-01	0	56	104	0	49	13923
2026-01-19 06:04:37.33	359.59	7.27	-39.8	-51.2	3.8	8.45e-01	0	57	104	0	49	13913
2026-01-19 06:04:38.34	359.48	7.33	-39.8	-51.2	3.8	8.46e-01	0	56	104	0	49	13982
2026-01-19 06:04:39.35	359.36	7.39	-39.8	-51.2	3.8	8.45e-01	0	56	104	0	49	13929
2026-01-19 06:04:40.36	359.24	7.44	-39.8	-51.2	3.8	8.46e-01	0	56	104	0	49	13924
2026-01-19 06:04:41.37	359.13	7.50	-39.9	-51.2	3.8	8.46e-01	0	57	104	0	49	13948
2026-01-19 06:04:42.38	359.01	7.55	-39.9	-51.2	3.8	8.46e-01	0	57	104	0	49	13937
2026-01-19 06:04:43.39	358.89	7.61	-39.8	-51.2	3.8	8.46e-01	0	57	104	0	49	13959
2026-01-19 06:04:44.40	358.77	7.66	-39.9	-51.2	3.8	8.44e-01	0	57	104	0	49	13956
2026-01-19 06:04:45.41	358.65	7.72	-39.8	-51.2	3.8	8.46e-01	0	56	104	0	49	13974
2026-01-19 06:04:46.42	358.53	7.77	-39.9	-51.2	3.8	8.47e-01	0	57	104	0	49	13936
2026-01-19 06:04:47.43	358.41	7.83	-39.8	-51.2	3.8	8.46e-01	0	57	104	0	49	13948
2026-01-19 06:04:48.44	358.29	7.89	-39.8	-51.2	3.8	8.46e-01	0	57	104	0	49	13966
2026-01-19 06:04:49.45	358.17	7.94	-39.8	-51.2	3.8	8.46e-01	0	57	104	0	49	13983
2026-01-19 06:04:50.47	358.04	8.00	-39.8	-51.2	3.8	8.47e-01	0	57	104	0	49	13962
2026-01-19 06:04:51.47	357.92	8.05	-39.8	-51.2	3.8	8.45e-01	0	57	104	0	49	13949
2026-01-19 06:04:52.49	357.80	8.11	-39.8	-51.3	3.8	8.46e-01	0	57	104	0	49	14167
2026-01-19 06:04:53.49	357.67	8.16	-39.9	-51.3	3.8	8.46e-01	0	57	104	0	49	14204
2026-01-19 06:04:54.51	357.55	8.22	-40.1	-51.4	3.8	8.46e-01	0	57	104	0	49	14212
2026-01-19 06:04:55.52	357.42	8.27	-39.9	-51.4	3.8	8.45e-01	0	57	104	0	49	14237
2026-01-19 06:04:56.53	357.30	8.33	-39.8	-51.3	3.8	8.45e-01	0	57	104	0	49	14163
2026-01-19 06:04:57.54	357.17	8.39	-39.9	-51.4	3.8	8.47e-01	0	57	104	0	49	14318
2026-01-19 06:04:58.55	357.05	8.44	-40.0	-51.4	3.8	8.45e-01	0	57	104	0	49	14313
2026-01-19 06:04:59.56	356.92	8.50	-40.0	-51.3	3.8	8.46e-01	0	57	104	0	49	14187
2026-01-19 06:05:00.57	356.79	8.55	-39.9	-51.3	3.8	8.46e-01	0	57	104	0	49	14169
2026-01-19 06:05:01.57	356.67	8.61	-40.0	-51.3	3.8	8.46e-01	0	57	104	0	49	14208
2026-01-19 06:05:02.58	356.54	8.66	-40.0	-51.3	3.8	8.46e-01	0	57	104	0	49	14190
2026-01-19 06:05:03.59	356.41	8.72	-39.9	-51.3	3.8	8.46e-01	0	57	104	0	49	14156
2026-01-19 06:05:04.60	356.28	8.77	-40.0	-51.4	3.8	8.45e-01	0	57	104	0	49	14224
2026-01-19 06:05:05.61	356.15	8.83	-40.0	-51.3	3.8	8.47e-01	0	57	104	0	49	14192
2026-01-19 06:05:06.62	356.02	8.88	-39.9	-51.4	3.8	8.46e-01	0	57	104	0	49	14217
2026-01-19 06:05:07.63	355.89	8.94	-40.0	-51.4	3.8	8.46e-01	0	57	104	0	49	14232
2026-01-19 06:05:08.64	355.76	8.99	-40.3	-51.4	3.8	8.47e-01	0	57	104	0	50	13557
2026-01-19 06:05:09.65	355.63	9.05	-40.1	-51.3	3.8	8.46e-01	0	57	104	0	50	13400
2026-01-19 06:05:10.66	355.50	9.11	-40.1	-51.4	3.8	8.45e-01	0	58	104	0	50	13539
2026-01-19 06:05:11.67	355.36	9.16	-40.2	-51.4	3.8	8.47e-01	0	57	104	0	50	13519
2026-01-19 06:05:12.68	355.23	9.22	-40.5	-51.5	3.8	8.46e-01	0	58	104	0	50	13582
2026-01-19 06:05:13.69	355.10	9.27	-40.3	-51.4	3.8	8.46e-01	0	58	104	0	50	13536
2026-01-19 06:05:14.70	354.96	9.33	-40.6	-51.5	3.8	8.46e-01	0	57	104	0	50	13674
2026-01-19 06:05:15.71	354.83	9.38	-40.4	-51.5	3.8	8.46e-01	0	57	104	0	50	13625
2026-01-19 06:05:16.72	354.69	9.44	-40.6	-51.6	3.8	8.46e-01	0	58	104	0	50	13729
2026-01-19 06:05:17.73	354.56	9.49	-40.5	-51.5	3.8	8.46e-01	0	58	104	0	50	13616
2026-01-19 06:05:18.74	354.42	9.55	-40.7	-51.6	3.8	8.46e-01	0	58	104	0	50	13858
2026-01-19 06:05:19.75	354.28	9.60	-40.5	-51.5	3.8	8.45e-01	0	58	104	0	51	12831
2026-01-19 06:05:20.76	354.14	9.66	-40.7	-51.6	3.8	8.47e-01	0	57	104	0	51	13076
2026-01-19 06:05:21.77	354.01	9.71	-40.6	-51.5	3.8	8.46e-01	0	57	104	0	51	12916
2026-01-19 06:05:22.78	353.87	9.77	-40.7	-51.7	3.8	8.45e-01	0	58	104	0	51	13148
2026-01-19 06:05:23.79	353.73	9.82	-40.7	-51.6	3.8	8.47e-01	0	57	104	0	51	12979
2026-01-19 06:05:24.80	353.59	9.88	-40.8	-51.8	3.8	8.47e-01	0	58	104	0	51	13316
2026-01-19 06:05:25.81	353.45	9.93	-40.7	-51.6	3.8	8.47e-01	0	58	104	0	51	12978
2026-01-19 06:05:26.81	353.31	9.99	-40.7	-51.6	3.8	8.46e-01	0	58	104	0	51	13060
2026-01-19 06:05:27.82	353.17	10.04	-40.8	-51.7	3.8	8.46e-01	0	58	104	0	51	13188
2026-01-19 06:05:28.83	353.03	10.09	-40.8	-51.9	3.8	8.46e-01	0	58	104	0	51	13450
2026-01-19 06:05:29.84	352.89	10.15	-40.8	-51.7	3.8	8.45e-01	0	58	104	0	51	13149
2026-01-19 06:05:30.85	352.74	10.20	-40.5	-51.8	3.8	8.46e-01	0	58	104	0	51	13302
2026-01-19 06:05:31.86	352.60	10.26	-40.9	-51.9	3.8	8.46e-01	0	58	104	0	51	13536
2026-01-19 06:05:32.87	352.46	10.31	-40.7	-51.8	3.8	8.47e-01	0	58	104	0	51	13381
2026-01-19 06:05:33.88	352.31	10.37	-40.8	-51.8	3.8	8.47e-01	0	58	104	0	51	13302
2026-01-19 06:05:34.89	352.17	10.42	-41.0	-52.1	3.8	8.46e-01	0	58	104	0	51	13756
2026-01-19 06:05:35.90	352.02	10.48	-40.7	-51.9	3.8	8.45e-01	0	58	104	0	51	13497
2026-01-19 06:05:36.91	351.87	10.53	-40.9	-51.9	3.8	8.46e-01	0	58	104	0	51	13489
2026-01-19 06:05:37.92	351.73	10.58	-40.8	-51.9	3.8	8.46e-01	0	58	104	0	51	13448
2026-01-19 06:05:38.93	351.58	10.64	-41.2	-52.1	3.8	8.46e-01	0	58	104	0	51	13768
2026-01-19 06:05:39.94	351.43	10.69	-40.8	-51.9	3.8	8.46e-01	0	58	104	0	51	13495
2026-01-19 06:05:40.95	351.28	10.75	-41.2	-52.2	3.8	8.45e-01	0	58	104	0	51	13889
2026-01-19 06:05:41.96	351.14	10.80	-40.7	-51.8	3.8	8.46e-01	0	58	104	0	52	12559
2026-01-19 06:05:42.97	350.99	10.85	-41.1	-52.0	3.8	8.46e-01	0	58	104	0	52	12896
2026-01-19 06:05:43.98	350.84	10.91	-41.0	-52.0	3.8	8.47e-01	0	58	104	0	52	12871
2026-01-19 06:05:44.99	350.69	10.96	-41.2	-52.1	3.8	8.46e-01	0	58	104	0	52	13067
2026-01-19 06:05:46.00	350.53	11.01	-40.8	-51.9	3.8	8.46e-01	0	58	104	0	52	12666
2026-01-19 06:05:47.01	350.38	11.07	-41.2	-52.1	3.8	8.47e-01	0	58	104	0	52	13026
2026-01-19 06:05:48.02	350.23	11.12	-41.0	-51.9	3.8	8.46e-01	0	58	104	0	52	12671
2026-01-19 06:05:49.03	350.08	11.17	-41.3	-52.2	3.8	8.45e-01	0	58	104	0	52	13145
2026-01-19 06:05:50.04	349.92	11.23	-41.1	-52.1	3.8	8.46e-01	0	58	104	0	52	13058
2026-01-19 06:05:51.05	349.77	11.28	-41.0	-52.0	3.8	8.46e-01	0	58	104	0	52	12827
2026-01-19 06:05:52.05	349.62	11.33	-40.9	-51.9	3.8	8.46e-01	0	58	104	0	52	12759
2026-01-19 06:05:53.06	349.46	11.39	-41.3	-52.3	3.8	8.47e-01	0	58	104	0	52	13359
2026-01-19 06:05:54.07	349.31	11.44	-41.2	-52.1	3.8	8.46e-01	0	58	104	0	52	13062
2026-01-19 06:05:55.08	349.15	11.49	-41.1	-52.1	3.8	8.46e-01	0	58	104	0	52	13067
2026-01-19 06:05:56.09	348.99	11.55	-41.2	-52.3	3.8	8.46e-01	0	58	104	0	52	13263
2026-01-19 06:05:57.10	348.84	11.60	-41.2	-52.3	3.8	8.47e-01	0	58	104	0	52	13387
2026-01-19 06:05:58.11	348.68	11.65	-41.3	-52.2	3.8	8.46e-01	0	58	104	0	52	13118
2026-01-19 06:05:59.12	348.52	11.70	-41.4	-52.5	3.8	8.47e-01	0	58	104	0	52	13578
2026-01-19 06:06:00.13	348.36	11.76	-41.2	-52.3	3.8	8.45e-01	0	58	104	0	52	13373
2026-01-19 06:06:01.14	348.20	11.81	-41.4	-52.5	3.8	8.45e-01	0	58	104	0	52	13575
2026-01-19 06:06:02.15	348.04	11.86	-41.2	-52.3	3.8	8.46e-01	0	58	104	0	52	13347
2026-01-19 06:06:03.16	347.88	11.91	-41.5	-52.5	3.8	8.45e-01	0	58	104	0	52	13689
2026-01-19 06:06:04.17	347.72	11.96	-41.4	-52.4	3.8	8.46e-01	0	58	104	0	52	13443
2026-01-19 06:06:05.18	347.55	12.02	-41.5	-52.4	3.8	8.45e-01	0	58	104	0	52	13522
2026-01-19 06:06:06.19	347.39	12.07	-41.2	-52.3	3.8	8.46e-01	0	59	104	0	52	13414
2026-01-19 06:06:07.20	347.23	12.12	-41.5	-52.6	3.8	8.47e-01	0	58	104	0	52	13746
2026-01-19 06:06:08.21	347.06	12.17	-41.5	-52.5	3.8	8.46e-01	0	59	104	0	52	13593
2026-01-19 06:06:09.21	346.90	12.22	-41.4	-52.3	3.8	8.46e-01	0	59	104	0	52	13357
2026-01-19 06:06:10.22	346.74	12.27	-41.4	-52.4	3.8	8.46e-01	0	58	104	0	52	13533
2026-01-19 06:06:11.23	346.57	12.32	-41.6	-52.5	3.8	8.46e-01	0	58	104	0	52	13667
2026-01-19 06:06:12.24	346.41	12.37	-41.3	-52.3	3.8	8.46e-01	0	59	104	0	52	13410
2026-01-19 06:06:13.25	346.24	12.42	-41.2	-52.1	3.8	8.47e-01	0	58	104	0	52	13081
2026-01-19 06:06:14.26	346.07	12.48	-41.5	-52.4	3.8	8.45e-01	0	59	104	0	52	13480
2026-01-19 06:06:15.27	345.90	12.53	-41.4	-52.3	3.8	8.45e-01	0	59	104	0	52	13390
2026-01-19 06:06:16.28	345.73	12.58	-41.1	-52.0	3.8	8.46e-01	0	58	104	0	52	12959
2026-01-19 06:06:17.29	345.57	12.63	-41.1	-52.2	3.8	8.46e-01	0	59	104	0	52	13116
2026-01-19 06:06:18.30	345.40	12.68	-41.3	-52.2	3.8	8.46e-01	0	59	104	0	52	13213
2026-01-19 06:06:19.31	345.23	12.73	-41.3	-52.2	3.8	8.46e-01	0	59	104	0	52	13205
2026-01-19 06:06:20.32	345.05	12.78	-41.0	-52.0	3.8	8.46e-01	0	59	104	0	52	12894
2026-01-19 06:06:21.33	344.88	12.83	-41.1	-52.3	3.8	8.46e-01	0	59	104	0	52	13263
2026-01-19 06:06:22.34	344.71	12.88	-41.2	-52.2	3.8	8.46e-01	0	59	104	0	52	13135
2026-01-19 06:06:23.35	344.54	12.92	-41.3	-52.3	3.8	8.45e-01	0	59	104	0	52	13403
2026-01-19 06:06:24.36	344.36	12.97	-40.9	-52.0	3.8	8.47e-01	0	59	104	0	52	12814
2026-01-19 06:06:25.37	344.19	13.02	-41.1	-52.1	3.8	8.46e-01	0	59	104	0	52	13044
2026-01-19 06:06:26.38	344.02	13.07	-41.2	-52.3	3.8	8.46e-01	0	59	104	0	52	13380
2026-01-19 06:06:27.38	343.84	13.12	-41.2	-52.1	3.8	8.46e-01	0	59	104	0	52	13109
2026-01-19 06:06:28.39	343.67	13.17	-40.9	-51.8	3.8	8.46e-01	0	59	104	0	52	12659
2026-01-19 06:06:29.40	343.49	13.22	-41.2	-52.1	3.8	8.47e-01	0	59	104	0	52	13017
2026-01-19 06:06:30.41	343.31	13.26	-41.2	-52.2	3.8	8.47e-01	0	59	104	0	52	13154
2026-01-19 06:06:31.42	343.14	13.31	-41.2	-52.1	3.8	8.46e-01	0	59	104	0	52	13005
2026-01-19 06:06:32.43	342.96	13.36	-40.9	-52.0	3.8	8.45e-01	0	59	104	0	52	12854
2026-01-19 06:06:33.44	342.78	13.41	-41.1	-52.1	3.8	8.46e-01	0	59	104	0	52	13031
2026-01-19 06:06:34.45	342.60	13.46	-41.2	-52.1	3.8	8.46e-01	0	59	104	0	52	13021
2026-01-19 06:06:35.46	342.42	13.50	-41.1	-52.1	3.8	8.45e-01	0	59	104	0	52	13025
2026-01-19 06:06:36.47	342.24	13.55	-40.7	-51.8	3.8	8.47e-01	0	59	104	0	52	12553
2026-01-19 06:06:37.48	342.06	13.60	-41.0	-52.0	3.8	8.46e-01	0	59	104	0	52	12857
2026-01-19 06:06:38.49	341.88	13.64	-41.1	-52.1	3.8	8.46e-01	0	59	104	0	52	12960
2026-01-19 06:06:39.50	341.70	13.69	-41.0	-51.9	3.8	8.45e-01	0	59	104	0	52	12775
2026-01-19 06:06:40.51	341.51	13.74	-41.0	-51.9	3.8	8.46e-01	0	59	104	0	52	12723
2026-01-19 06:06:41.52	341.33	13.78	-41.1	-52.0	3.8	8.46e-01	0	59	104	0	52	12866
2026-01-19 06:06:42.53	341.15	13.83	-41.0	-51.9	3.8	8.45e-01	0	59	104	0	52	12773
2026-01-19 06:06:43.54	340.96	13.87	-41.2	-52.1	3.8	8.45e-01	0	59	104	0	52	13045
2026-01-19 06:06:44.55	340.78	13.92	-41.3	-52.1	3.8	8.46e-01	0	59	104	0	52	13071
2026-01-19 06:06:45.56	340.59	13.96	-41.3	-52.2	3.8	8.45e-01	0	59	104	0	52	13205
2026-01-19 06:06:46.57	340.41	14.01	-41.2	-52.1	3.8	8.46e-01	0	59	104	0	52	13013
2026-01-19 06:06:47.58	340.22	14.05	-41.5	-51.9	3.8	8.46e-01	0	59	104	0	52	12769
2026-01-19 06:06:48.59	340.03	14.10	-41.7	-50.9	3.9	8.46e-01	0	59	104	0	53	10777
2026-01-19 06:06:49.60	339.84	14.14	-41.4	-50.9	3.8	8.38e-01	0	59	104	0	53	10729
2026-01-19 06:06:50.61	339.66	14.19	-41.4	-50.7	3.8	8.46e-01	0	59	104	0	53	10442
2026-01-19 06:06:51.62	339.47	14.23	-41.2	-46.2	6.3	7.81e-01	0	59	104	0	53	6269
2026-01-19 06:06:52.63	339.28	14.28	-41.2	-45.9	6.6	5.26e-01	0	59	0	0	53	6053
2026-01-19 06:06:53.64	339.09	14.32	-40.3	-43.7	9.0	2.54e-02	0	59	0	7340032	51	5269
2026-01-19 06:06:54.65	338.90	14.36	-39.9	-43.0	9.9	1.24e-02	0	59	0	14680064	50	5127
2026-01-19 06:06:55.66	338.71	14.41	-39.2	-41.8	11.3	1.61e-03	0	59	0	22020096	49	4732
2026-01-19 06:06:56.67	338.51	14.45	-38.6	-40.8	12.4	2.77e-04	0	59	0	29360128	48	4492
2026-01-19 06:06:57.68	338.32	14.49	-38.1	-40.1	13.0	4.23e-05	0	59	0	36700160	47	4386
2026-01-19 06:06:58.69	338.13	14.53	-37.8	-39.8	13.5	1.60e-05	0	59	0	42991616	46	4455
2026-01-19 06:06:59.70	337.93	14.57	-37.8	-39.7	13.7	6.80e-06	0	59	0	50331648	46	4407
2026-01-19 06:07:00.71	337.74	14.62	-38.1	-40.1	13.5	6.80e-06	0	59	0	58720256	46	4608
2026-01-19 06:07:01.72	337.55	14.66	-38.5	-40.5	13.1	1.48e-05	0	59	0	65011712	46	4849
2026-01-19 06:07:02.73	337.35	14.70	-38.0	-39.9	13.9	2.20e-06	0	59	0	72351744	46	4507
2026-01-19 06:07:03.74	337.15	14.74	-37.7	-39.5	14.3	1.10e-06	0	60	0	79691776	46	4321
2026-01-19 06:07:04.75	336.96	14.78	-38.0	-39.9	14.1	3.40e-06	0	59	0	87031808	46	4501
2026-01-19 06:07:05.76	336.76	14.82	-37.8	-39.5	14.5	0.00e+00	0	59	0	94371840	46	4335
2026-01-19 06:07:06.77	336.56	14.86	-37.7	-39.4	14.8	0.00e+00	0	59	0	101711872	46	4251
2026-01-19 06:07:07.78	336.37	14.90	-37.8	-39.5	14.7	0.00e+00	0	59	0	109051904	46	4303
2026-01-19 06:07:08.78	336.17	14.94	-37.7	-39.4	14.8	0.00e+00	0	59	0	116391936	46	4266
2026-01-19 06:07:09.79	335.97	14.98	-37.7	-39.4	14.8	0.00e+00	0	59	0	123731968	46	4274
2026-01-19 06:07:10.80	335.77	15.02	-37.8	-39.5	14.8	1.10e-06	0	59	0	131072000	46	4321
2026-01-19 06:07:11.81	335.57	15.06	-37.6	-39.2	15.1	0.00e+00	0	60	0	138412032	46	4171
2026-01-19 06:07:12.82	335.37	15.10	-37.8	-39.4	14.9	0.00e+00	0	59	0	145752064	46	4275
2026-01-19 06:07:13.83	335.17	15.13	-37.6	-39.3	15.2	0.00e+00	0	59	0	153092096	46	4201
2026-01-19 06:07:14.84	334.97	15.17	-37.7	-39.3	15.1	0.00e+00	0	59	0	160432128	46	4241
2026-01-19 06:07:15.85	334.77	15.21	-37.7	-39.4	15.1	0.00e+00	0	59	0	167772160	46	4243
2026-01-19 06:07:16.86	334.56	15.25	-37.5	-39.1	15.4	0.00e+00	0	59	0	174063616	46	4113
2026-01-19 06:07:17.87	334.36	15.28	-37.5	-39.0	15.5	0.00e+00	0	59	0	182452224	46	4091
2026-01-19 06:07:18.87	334.16	15.32	-37.5	-39.0	15.5	0.00e+00	0	60	0	189792256	45	4328
2026-01-19 06:07:19.89	333.95	15.36	-37.4	-38.9	15.6	0.00e+00	0	59	0	196083712	45	4282
2026-01-19 06:07:20.90	333.75	15.39	-37.4	-39.0	15.6	0.00e+00	0	59	0	203423744	45	4298
2026-01-19 06:07:21.91	333.54	15.43	-37.4	-38.9	15.6	0.00e+00	0	59	0	210763776	45	4269
2026-01-19 06:07:22.92	333.34	15.46	-37.4	-38.9	15.6	0.00e+00	0	59	0	218103808	45	4273
2026-01-19 06:07:23.93	333.13	15.50	-37.4	-38.9	15.7	0.00e+00	0	59	0	225443840	45	4274
2026-01-19 06:07:24.94	332.92	15.53	-37.4	-38.9	15.7	0.00e+00	0	59	0	232783872	45	4287
2026-01-19 06:07:25.95	332.72	15.57	-37.5	-39.0	15.6	0.00e+00	0	59	0	240123904	45	4308
2026-01-19 06:07:26.96	332.51	15.60	-37.5	-39.0	15.6	0.00e+00	0	59	0	247463936	45	4333
2026-01-19 06:07:27.97	332.30	15.64	-37.5	-39.0	15.6	0.00e+00	0	60	0	254803968	45	4334
2026-01-19 06:07:28.98	332.09	15.67	-37.6	-39.1	15.5	0.00e+00	0	59	0	262144000	45	4372
2026-01-19 06:07:29.99	331.88	15.70	-37.6	-39.2	15.4	0.00e+00	0	60	0	269484032	45	4400
2026-01-19 06:07:31.00	331.67	15.73	-37.5	-39.1	15.6	0.00e+00	0	59	0	276824064	45	4360
2026-01-19 06:07:32.01	331.46	15.77	-37.5	-39.1	15.6	0.00e+00	0	59	0	284164096	45	4350
2026-01-19 06:07:33.02	331.25	15.80	-37.5	-39.1	15.6	0.00e+00	0	60	0	291504128	45	4350
2026-01-19 06:07:34.03	331.04	15.83	-37.6	-39.1	15.5	0.00e+00	0	60	0	298844160	45	4385
2026-01-19 06:07:35.03	330.83	15.86	-37.6	-39.1	15.5	0.00e+00	0	59	0	306184192	45	4372
2026-01-19 06:07:36.04	330.62	15.89	-37.5	-39.0	15.6	0.00e+00	0	59	0	313524224	45	4337
2026-01-19 06:07:37.05	330.41	15.92	-37.6	-39.1	15.6	0.00e+00	0	59	0	319815680	45	4365
2026-01-19 06:07:38.06	330.20	15.95	-37.6	-39.2	15.5	0.00e+00	0	60	0	328204288	45	4405
2026-01-19 06:07:39.07	329.98	15.98	-37.7	-39.2	15.5	0.00e+00	0	59	0	335544320	45	4425
2026-01-19 06:07:40.08	329.77	16.01	-37.7	-39.2	15.5	0.00e+00	0	59	0	341835776	45	4426
2026-01-19 06:07:41.09	329.55	16.04	-37.7	-39.2	15.5	0.00e+00	0	59	0	349175808	45	4412
2026-01-19 06:07:42.10	329.34	16.07	-37.7	-39.2	15.5	0.00e+00	0	59	0	356515840	45	4434
2026-01-19 06:07:43.11	329.13	16.10	-37.6	-39.1	15.6	0.00e+00	0	59	0	363855872	45	4367
2026-01-19 06:07:44.12	328.91	16.13	-37.5	-39.0	15.7	0.00e+00	0	60	0	371195904	45	4329
2026-01-19 06:07:45.13	328.69	16.15	-37.5	-39.0	15.7	0.00e+00	0	59	0	378535936	45	4320
2026-01-19 06:07:46.14	328.48	16.18	-37.5	-39.0	15.8	0.00e+00	0	60	0	385875968	45	4296
2026-01-19 06:07:47.15	328.26	16.21	-37.4	-38.9	15.8	0.00e+00	0	59	0	393216000	45	4276
2026-01-19 06:07:48.16	328.05	16.24	-37.4	-38.9	15.9	0.00e+00	0	59	0	400556032	45	4255
2026-01-19 06:07:49.17	327.83	16.26	-37.3	-38.8	15.9	0.00e+00	0	59	0	407896064	45	4225
2026-01-19 06:07:50.18	327.61	16.29	-37.3	-38.8	15.9	0.00e+00	0	60	0	415236096	45	4230
2026-01-19 06:07:51.19	327.39	16.31	-37.3	-38.8	16.0	0.00e+00	0	59	0	422576128	45	4200
2026-01-19 06:07:52.20	327.17	16.34	-37.2	-38.7	16.0	0.00e+00	0	60	0	429916160	45	4167
2026-01-19 06:07:53.21	326.95	16.36	-37.3	-38.7	16.0	0.00e+00	0	59	0	437256192	45	4192
2026-01-19 06:07:54.22	326.74	16.39	-37.3	-38.7	16.0	0.00e+00	0	60	0	444596224	45	4189
2026-01-19 06:07:55.23	326.52	16.41	-37.3	-38.8	16.0	0.00e+00	0	60	0	451936256	45	4194
2026-01-19 06:07:56.25	326.29	16.43	-37.2	-38.7	16.1	0.00e+00	0	59	0	459276288	45	4166
2026-01-19 06:07:57.25	326.08	16.46	-37.3	-38.7	16.0	0.00e+00	0	59	0	466616320	45	4181
2026-01-19 06:07:58.26	325.86	16.48	-37.3	-38.8	16.0	0.00e+00	0	60	0	473956352	45	4204
2026-01-19 06:07:59.27	325.63	16.50	-37.2	-38.7	16.0	0.00e+00	0	59	0	481296384	45	4167
2026-01-19 06:08:00.28	325.41	16.52	-37.3	-38.7	16.0	0.00e+00	0	60	0	488636416	45	4184
2026-01-19 06:08:01.29	325.19	16.54	-37.2	-38.7	16.0	0.00e+00	0	60	0	494927872	45	4157
2026-01-19 06:08:02.30	324.97	16.56	-37.2	-38.6	16.1	0.00e+00	0	59	0	502267904	45	4142
2026-01-19 06:08:03.31	324.75	16.59	-37.1	-38.5	16.2	0.00e+00	0	60	0	510656512	45	4083
2026-01-19 06:08:04.32	324.53	16.61	-37.1	-38.6	16.2	0.00e+00	0	59	0	516947968	45	4112
2026-01-19 06:08:05.33	324.30	16.62	-37.2	-38.7	16.1	0.00e+00	0	59	0	524288000	45	4146
2026-01-19 06:08:06.34	324.08	16.64	-37.1	-38.5	16.2	0.00e+00	0	60	0	531628032	45	4096
2026-01-19 06:08:07.35	323.86	16.66	-37.1	-38.5	16.3	0.00e+00	0	60	0	538968064	45	4062
2026-01-19 06:08:08.36	323.63	16.68	-36.9	-38.3	16.5	0.00e+00	0	60	0	546308096	44	4197
2026-01-19 06:08:09.38	323.41	16.70	-36.9	-38.3	16.5	0.00e+00	0	59	0	553648128	44	4213
2026-01-19 06:08:10.39	323.18	16.72	-36.9	-38.3	16.5	0.00e+00	0	60	0	560988160	44	4211
2026-01-19 06:08:11.40	322.96	16.73	-36.9	-38.3	16.5	0.00e+00	0	59	0	568328192	44	4200
2026-01-19 06:08:12.40	322.74	16.75	-36.8	-38.2	16.6	0.00e+00	0	60	0	575668224	44	4165
2026-01-19 06:08:13.41	322.51	16.77	-36.9	-38.3	16.6	0.00e+00	0	59	0	583008256	44	4199
2026-01-19 06:08:14.42	322.28	16.78	-36.8	-38.2	16.6	0.00e+00	0	60	0	590348288	44	4166
2026-01-19 06:08:15.43	322.06	16.80	-36.8	-38.2	16.6	0.00e+00	0	59	0	597688320	44	4173
2026-01-19 06:08:16.44	321.83	16.81	-36.9	-38.2	16.6	0.00e+00	0	60	0	605028352	44	4187
2026-01-19 06:08:17.45	321.61	16.83	-37.0	-38.4	16.4	0.00e+00	0	60	0	612368384	44	4248
2026-01-19 06:08:18.46	321.38	16.84	-37.1	-38.5	16.4	0.00e+00	0	59	0	619708416	44	4308
2026-01-19 06:08:19.47	321.16	16.85	-37.1	-38.5	16.3	0.00e+00	0	59	0	627048448	44	4319
2026-01-19 06:08:20.48	320.93	16.87	-37.2	-38.7	16.2	0.00e+00	0	60	0	634388480	44	4400
2026-01-19 06:08:21.49	320.70	16.88	-37.2	-38.6	16.2	0.00e+00	0	59	0	640679936	44	4388
2026-01-19 06:08:22.50	320.48	16.89	-37.2	-38.6	16.2	0.00e+00	0	60	0	648019968	44	4375
2026-01-19 06:08:23.51	320.25	16.90	-37.2	-38.7	16.1	0.00e+00	0	60	0	656408576	44	4402
2026-01-19 06:08:24.52	320.02	16.91	-37.1	-38.5	16.3	0.00e+00	0	59	0	662700032	44	4321
2026-01-19 06:08:25.53	319.79	16.92	-37.0	-38.4	16.4	0.00e+00	0	60	0	670040064	44	4266
2026-01-19 06:08:26.54	319.57	16.94	-37.1	-38.5	16.4	0.00e+00	0	60	0	677380096	44	4296
2026-01-19 06:08:27.55	319.34	16.95	-37.0	-38.3	16.5	0.00e+00	0	60	0	684720128	44	4242
2026-01-19 06:08:28.56	319.11	16.95	-36.9	-38.3	16.6	0.00e+00	0	60	0	692060160	44	4207
2026-01-19 06:08:29.57	318.88	16.96	-37.0	-38.3	16.5	0.00e+00	0	60	0	699400192	44	4232
2026-01-19 06:08:30.57	318.66	16.97	-36.9	-38.3	16.6	0.00e+00	0	60	0	706740224	44	4200
2026-01-19 06:08:31.58	318.43	16.98	-36.9	-38.3	16.5	0.00e+00	0	60	0	714080256	44	4231
2026-01-19 06:08:32.59	318.20	16.99	-36.9	-38.3	16.5	0.00e+00	0	60	0	721420288	44	4208
2026-01-19 06:08:33.60	317.97	16.99	-37.0	-38.3	16.5	0.00e+00	0	59	0	728760320	44	4240
2026-01-19 06:08:34.61	317.74	17.00	-36.9	-38.3	16.6	0.00e+00	0	60	0	736100352	44	4196
2026-01-19 06:08:35.62	317.51	17.01	-36.8	-38.2	16.7	0.00e+00	0	60	0	743440384	44	4161
2026-01-19 06:08:36.63	317.28	17.01	-36.8	-38.2	16.7	0.00e+00	0	60	0	750780416	44	4149
2026-01-19 06:08:37.64	317.05	17.02	-36.7	-38.1	16.8	0.00e+00	0	60	0	758120448	44	4110
2026-01-19 06:08:38.65	316.83	17.02	-36.8	-38.1	16.8	0.00e+00	0	60	0	765460480	44	4116
2026-01-19 06:08:39.66	316.60	17.03	-36.7	-38.0	16.8	0.00e+00	0	60	0	771751936	44	4090
2026-01-19 06:08:40.66	316.37	17.03	-36.7	-38.1	16.8	0.00e+00	0	60	0	780140544	44	4106
2026-01-19 06:08:41.68	316.14	17.03	-36.7	-38.1	16.8	0.00e+00	0	59	0	787480576	44	4112
2026-01-19 06:08:42.69	315.91	17.04	-36.8	-38.2	16.7	0.00e+00	0	60	0	793772032	44	4161
2026-01-19 06:08:43.70	315.68	17.04	-36.9	-38.2	16.6	0.00e+00	0	60	0	801112064	44	4186
2026-01-19 06:08:44.71	315.45	17.04	-36.9	-38.3	16.6	0.00e+00	0	60	0	808452096	44	4203
2026-01-19 06:08:45.72	315.22	17.04	-37.0	-38.4	16.5	0.00e+00	0	60	0	815792128	44	4249
2026-01-19 06:08:46.73	314.99	17.04	-37.0	-38.4	16.4	0.00e+00	0	60	0	823132160	44	4273
2026-01-19 06:08:47.74	314.76	17.04	-37.1	-38.5	16.4	0.00e+00	0	60	0	830472192	44	4304
2026-01-19 06:08:48.75	314.53	17.05	-37.1	-38.5	16.3	0.00e+00	0	60	0	837812224	44	4339
2026-01-19 06:08:49.76	314.30	17.04	-37.1	-38.5	16.4	0.00e+00	0	60	0	845152256	44	4308
2026-01-19 06:08:50.77	314.07	17.04	-37.1	-38.5	16.4	0.00e+00	0	60	0	852492288	44	4300
2026-01-19 06:08:51.78	313.84	17.04	-37.1	-38.5	16.3	0.00e+00	0	60	0	859832320	44	4337
2026-01-19 06:08:52.79	313.61	17.04	-37.2	-38.6	16.2	0.00e+00	0	60	0	867172352	44	4384
2026-01-19 06:08:53.80	313.38	17.04	-37.2	-38.6	16.3	0.00e+00	0	60	0	874512384	44	4375
2026-01-19 06:08:54.81	313.15	17.04	-37.2	-38.7	16.2	0.00e+00	0	60	0	881852416	44	4408
2026-01-19 06:08:55.81	312.93	17.03	-37.2	-38.7	16.2	0.00e+00	0	60	0	889192448	44	4403
2026-01-19 06:08:56.82	312.70	17.03	-37.3	-38.7	16.1	0.00e+00	0	60	0	896532480	44	4434
2026-01-19 06:08:57.83	312.47	17.02	-37.3	-38.7	16.2	0.00e+00	0	60	0	903872512	44	4417
2026-01-19 06:08:58.84	312.24	17.02	-37.2	-38.7	16.2	0.00e+00	0	60	0	911212544	44	4404
2026-01-19 06:08:59.85	312.01	17.02	-37.2	-38.7	16.2	0.00e+00	0	60	0	917504000	44	4399
2026-01-19 06:09:00.86	311.78	17.01	-37.2	-38.6	16.3	0.00e+00	0	60	0	925892608	44	4352
2026-01-19 06:09:01.87	311.55	17.00	-36.9	-38.3	16.5	0.00e+00	0	60	0	933232640	44	4236
2026-01-19 06:09:02.88	311.32	17.00	-36.9	-38.2	16.6	0.00e+00	0	60	0	939524096	44	4185
2026-01-19 06:09:03.89	311.10	16.99	-36.9	-38.3	16.5	0.00e+00	0	60	0	946864128	44	4232
2026-01-19 06:09:04.90	310.87	16.98	-36.9	-38.3	16.5	0.00e+00	0	60	0	954204160	44	4226
2026-01-19 06:09:05.91	310.64	16.98	-37.0	-38.4	16.4	0.00e+00	0	60	0	961544192	44	4279
2026-01-19 06:09:06.92	310.41	16.97	-37.0	-38.4	16.5	0.00e+00	0	60	0	968884224	44	4257
2026-01-19 06:09:07.93	310.18	16.96	-37.0	-38.4	16.5	0.00e+00	0	60	0	976224256	44	4271
2026-01-19 06:09:08.94	309.95	16.95	-37.0	-38.4	16.4	0.00e+00	0	60	0	983564288	44	4273
2026-01-19 06:09:09.95	309.72	16.94	-37.2	-38.6	16.3	0.00e+00	0	60	0	990904320	44	4350
2026-01-19 06:09:10.96	309.50	16.93	-37.1	-38.5	16.4	0.00e+00	0	60	0	998244352	44	4297
2026-01-19 06:09:11.97	309.27	16.92	-37.0	-38.4	16.5	0.00e+00	0	60	0	1005584384	44	4254
2026-01-19 06:09:12.98	309.04	16.91	-37.0	-38.4	16.4	0.00e+00	0	60	0	1012924416	44	4267
2026-01-19 06:09:13.99	308.81	16.90	-37.0	-38.3	16.5	0.00e+00	0	60	0	1020264448	44	4236
2026-01-19 06:09:15.00	308.59	16.88	-36.8	-38.1	16.7	0.00e+00	0	60	0	1027604480	44	4134
2026-01-19 06:09:16.01	308.36	16.87	-36.7	-38.1	16.7	0.00e+00	0	60	0	1034944512	44	4125
2026-01-19 06:09:17.02	308.13	16.86	-36.8	-38.1	16.7	0.00e+00	0	60	0	1042284544	44	4123
2026-01-19 06:09:18.03	307.91	16.85	-36.8	-38.1	16.7	0.00e+00	0	60	0	1049624576	44	4136
2026-01-19 06:09:19.04	307.68	16.83	-36.8	-38.1	16.7	0.00e+00	0	60	0	1056964608	44	4126
2026-01-19 06:09:20.05	307.45	16.82	-36.8	-38.1	16.7	0.00e+00	0	60	0	1064304640	44	4138
2026-01-19 06:09:21.05	307.23	16.80	-36.8	-38.2	16.6	0.00e+00	0	60	0	1070596096	44	4176
2026-01-19 06:09:22.06	307.00	16.79	-36.8	-38.2	16.6	0.00e+00	0	60	0	1078984704	44	4176
2026-01-19 06:09:23.07	306.78	16.77	-37.0	-38.4	16.4	0.00e+00	0	60	0	1086324736	44	4246
2026-01-19 06:09:24.08	306.55	16.76	-37.0	-38.4	16.5	0.00e+00	0	60	0	1092616192	44	4247
2026-01-19 06:09:25.09	306.33	16.74	-37.0	-38.4	16.4	0.00e+00	0	60	0	1099956224	44	4281
2026-01-19 06:09:26.10	306.10	16.72	-37.1	-38.5	16.3	0.00e+00	0	60	0	1107296256	44	4323
2026-01-19 06:09:27.11	305.88	16.71	-37.0	-38.4	16.4	0.00e+00	0	60	0	1114636288	44	4287
2026-01-19 06:09:28.12	305.65	16.69	-37.1	-38.6	16.3	0.00e+00	0	60	0	1121976320	44	4345
2026-01-19 06:09:29.13	305.43	16.67	-37.1	-38.5	16.3	0.00e+00	0	60	0	1129316352	44	4334
2026-01-19 06:09:30.14	305.21	16.65	-37.1	-38.5	16.3	0.00e+00	0	60	0	1136656384	44	4327
2026-01-19 06:09:31.15	304.98	16.63	-37.1	-38.6	16.2	0.00e+00	0	60	0	1143996416	44	4356
2026-01-19 06:09:32.16	304.76	16.61	-37.0	-38.4	16.3	0.00e+00	0	60	0	1151336448	44	4291
2026-01-19 06:09:33.17	304.54	16.59	-37.2	-38.6	16.2	0.00e+00	0	60	0	1158676480	44	4359
2026-01-19 06:09:34.18	304.31	16.57	-37.3	-38.7	16.1	0.00e+00	0	60	0	1166016512	44	4416
2026-01-19 06:09:35.20	304.09	16.55	-37.1	-38.5	16.3	0.00e+00	0	60	0	1173356544	44	4340
2026-01-19 06:09:36.20	303.87	16.53	-37.1	-38.5	16.3	0.00e+00	0	60	0	1180696576	44	4316
2026-01-19 06:09:37.21	303.65	16.51	-37.1	-38.5	16.2	0.00e+00	0	60	0	1188036608	44	4338
2026-01-19 06:09:38.22	303.43	16.49	-37.0	-38.5	16.3	0.00e+00	0	60	0	1195376640	44	4293
2026-01-19 06:09:39.23	303.20	16.47	-37.1	-38.5	16.3	0.00e+00	0	60	0	1202716672	44	4330
2026-01-19 06:09:40.24	302.98	16.44	-37.1	-38.6	16.2	0.00e+00	0	60	0	1210056704	44	4357
2026-01-19 06:09:41.25	302.76	16.42	-37.1	-38.6	16.2	0.00e+00	0	60	0	1216348160	44	4345
2026-01-19 06:09:42.26	302.54	16.40	-37.1	-38.5	16.3	0.00e+00	0	60	0	1224736768	44	4315
2026-01-19 06:09:43.27	302.32	16.37	-37.2	-38.6	16.2	0.00e+00	0	60	0	1232076800	44	4360
2026-01-19 06:09:44.28	302.10	16.35	-37.2	-38.6	16.2	0.00e+00	0	60	0	1238368256	44	4374
2026-01-19 06:09:45.29	301.88	16.32	-37.2	-38.7	16.1	0.00e+00	0	60	0	1245708288	44	4416
2026-01-19 06:09:46.30	301.67	16.30	-37.2	-38.7	16.1	0.00e+00	0	60	0	1253048320	44	4410
2026-01-19 06:09:47.31	301.45	16.27	-37.3	-38.7	16.1	0.00e+00	0	60	0	1260388352	44	4409
2026-01-19 06:09:48.32	301.23	16.25	-37.3	-38.7	16.0	0.00e+00	0	60	0	1267728384	44	4428
2026-01-19 06:09:49.33	301.01	16.22	-37.3	-38.7	16.0	0.00e+00	0	60	0	1275068416	44	4435
2026-01-19 06:09:50.34	300.80	16.19	-37.3	-38.7	16.1	0.00e+00	0	60	0	1282408448	44	4420
2026-01-19 06:09:51.35	300.58	16.17	-37.3	-38.8	16.0	0.00e+00	0	60	0	1289748480	44	4447
2026-01-19 06:09:52.36	300.36	16.14	-37.3	-38.8	16.0	0.00e+00	0	60	0	1297088512	44	4472
2026-01-19 06:09:53.37	300.15	16.11	-37.1	-38.6	16.2	0.00e+00	0	60	0	1304428544	44	4351
2026-01-19 06:09:54.38	299.93	16.08	-37.2	-38.6	16.2	0.00e+00	0	60	0	1311768576	44	4369
2026-01-19 06:09:55.39	299.72	16.05	-37.3	-38.7	16.0	0.00e+00	0	60	0	1319108608	44	4432
2026-01-19 06:09:56.40	299.50	16.02	-37.3	-38.7	16.0	0.00e+00	0	60	0	1326448640	44	4432
2026-01-19 06:09:57.41	299.29	15.99	-37.2	-38.6	16.1	0.00e+00	0	60	0	1333788672	44	4369
2026-01-19 06:09:58.42	299.07	15.96	-37.2	-38.7	16.1	0.00e+00	0	60	0	1341128704	44	4405
2026-01-19 06:09:59.43	298.86	15.93	-37.2	-38.7	16.1	0.00e+00	0	60	0	1348468736	44	4398
2026-01-19 06:10:00.44	298.65	15.90	-37.1	-38.6	16.1	0.00e+00	0	60	0	1355808768	44	4352
2026-01-19 06:10:01.45	298.43	15.87	-37.1	-38.6	16.1	0.00e+00	0	60	0	1363148800	44	4351
2026-01-19 06:10:02.45	298.22	15.84	-37.2	-38.7	16.1	0.00e+00	0	60	0	1369440256	44	4398
2026-01-19 06:10:03.47	298.01	15.81	-37.4	-38.9	15.8	0.00e+00	0	60	0	1377828864	44	4508
2026-01-19 06:10:04.48	297.80	15.78	-37.2	-38.7	16.0	0.00e+00	0	60	0	1385168896	44	4423
2026-01-19 06:10:05.49	297.59	15.75	-37.2	-38.7	16.0	0.00e+00	0	60	0	1391460352	44	4413
2026-01-19 06:10:06.50	297.38	15.71	-37.3	-38.8	15.9	0.00e+00	0	60	0	1398800384	44	4464
2026-01-19 06:10:07.51	297.17	15.68	-37.4	-38.9	15.8	0.00e+00	0	60	0	1406140416	44	4509
2026-01-19 06:10:08.52	296.96	15.65	-37.4	-38.9	15.8	0.00e+00	0	60	0	1413480448	44	4504
2026-01-19 06:10:09.53	296.75	15.61	-37.4	-38.9	15.7	0.00e+00	0	60	0	1420820480	44	4536
2026-01-19 06:10:10.54	296.54	15.58	-37.4	-39.0	15.7	0.00e+00	0	60	0	1428160512	44	4547
2026-01-19 06:10:11.55	296.33	15.54	-37.4	-38.9	15.7	0.00e+00	0	60	0	1435500544	44	4517
2026-01-19 06:10:12.56	296.12	15.51	-37.3	-38.8	15.8	0.00e+00	0	60	0	1442840576	44	4487
2026-01-19 06:10:13.57	295.92	15.48	-37.2	-38.7	16.0	0.00e+00	0	60	0	1450180608	44	4394
2026-01-19 06:10:14.58	295.71	15.44	-37.2	-38.6	16.0	0.00e+00	0	60	0	1457520640	44	4387
2026-01-19 06:10:15.59	295.50	15.40	-37.2	-38.7	15.9	0.00e+00	0	60	0	1464860672	44	4423
2026-01-19 06:10:16.60	295.30	15.37	-37.3	-38.8	15.8	0.00e+00	0	60	0	1472200704	44	4443
2026-01-19 06:10:17.60	295.10	15.33	-37.3	-38.8	15.7	0.00e+00	0	60	0	1479540736	44	4491
2026-01-19 06:10:18.61	294.89	15.30	-37.3	-38.8	15.7	0.00e+00	0	60	0	1486880768	44	4490
2026-01-19 06:10:19.62	294.69	15.26	-37.4	-39.0	15.6	0.00e+00	0	60	0	1494220800	44	4559
2026-01-19 06:10:20.63	294.48	15.22	-37.5	-39.0	15.5	0.00e+00	0	60	0	1501560832	44	4597
2026-01-19 06:10:21.64	294.28	15.18	-37.5	-39.0	15.5	0.00e+00	0	60	0	1508900864	44	4569
2026-01-19 06:10:22.65	294.08	15.15	-37.5	-39.1	15.5	0.00e+00	0	60	0	1515192320	44	4609
2026-01-19 06:10:23.66	293.88	15.11	-37.6	-39.1	15.4	0.00e+00	0	60	0	1523580928	44	4635
2026-01-19 06:10:24.67	293.67	15.07	-37.5	-39.1	15.5	0.00e+00	0	60	0	1530920960	44	4601
2026-01-19 06:10:25.68	293.47	15.03	-37.6	-39.2	15.3	0.00e+00	0	60	0	1537212416	44	4677
2026-01-19 06:10:26.69	293.27	14.99	-37.6	-39.1	15.3	0.00e+00	0	60	0	1544552448	44	4650
2026-01-19 06:10:27.70	293.07	14.95	-37.6	-39.2	15.3	0.00e+00	0	60	0	1551892480	44	4656
2026-01-19 06:10:28.71	292.87	14.91	-37.4	-39.0	15.5	0.00e+00	0	60	0	1559232512	44	4556
2026-01-19 06:10:29.72	292.67	14.87	-37.4	-39.0	15.5	0.00e+00	0	60	0	1566572544	44	4550
2026-01-19 06:10:30.73	292.48	14.83	-37.4	-39.0	15.5	0.00e+00	0	60	0	1573912576	44	4561
2026-01-19 06:10:31.74	292.28	14.79	-37.4	-38.9	15.5	0.00e+00	0	60	0	1581252608	44	4522
2026-01-19 06:10:32.75	292.08	14.75	-37.4	-39.0	15.5	0.00e+00	0	60	0	1588592640	44	4548
2026-01-19 06:10:33.76	291.88	14.71	-37.6	-39.2	15.2	0.00e+00	0	60	0	1595932672	44	4656
2026-01-19 06:10:34.77	291.69	14.67	-37.6	-39.2	15.1	0.00e+00	0	60	0	1603272704	44	4663
2026-01-19 06:10:35.78	291.49	14.63	-37.6	-39.3	15.1	0.00e+00	0	60	0	1610612736	44	4719
2026-01-19 06:10:36.79	291.30	14.59	-37.6	-39.2	15.1	0.00e+00	0	60	0	1617952768	44	4690
2026-01-19 06:10:37.80	291.10	14.54	-37.7	-39.3	15.1	0.00e+00	0	60	0	1625292800	44	4725
2026-01-19 06:10:38.82	290.91	14.50	-37.7	-39.4	15.0	0.00e+00	0	60	0	1632632832	44	4762
2026-01-19 06:10:39.83	290.71	14.46	-37.7	-39.4	14.9	0.00e+00	0	60	0	1639972864	45	4507
2026-01-19 06:10:40.84	290.52	14.42	-37.7	-39.4	15.0	0.00e+00	0	60	0	1647312896	45	4509
2026-01-19 06:10:41.84	290.33	14.37	-37.7	-39.3	14.9	0.00e+00	0	60	0	1654652928	45	4492
2026-01-19 06:10:42.85	290.14	14.33	-37.8	-39.4	14.9	0.00e+00	0	60	0	1661992960	45	4524
2026-01-19 06:10:43.86	289.95	14.29	-37.8	-39.5	14.8	0.00e+00	0	60	0	1669332992	45	4571
2026-01-19 06:10:44.87	289.76	14.24	-37.8	-39.5	14.8	0.00e+00	0	60	0	1676673024	45	4552
2026-01-19 06:10:45.88	289.57	14.20	-37.8	-39.5	14.7	0.00e+00	0	60	0	1684013056	45	4563
2026-01-19 06:10:46.89	289.38	14.16	-37.7	-39.4	14.8	0.00e+00	0	60	0	1690304512	45	4518
2026-01-19 06:10:47.90	289.19	14.11	-37.8	-39.4	14.8	0.00e+00	0	60	0	1697644544	45	4529
2026-01-19 06:10:48.91	289.00	14.07	-37.7	-39.3	14.9	0.00e+00	0	60	0	1706033152	45	4481
2026-01-19 06:10:49.92	288.81	14.02	-37.5	-39.2	15.0	1.10e-06	0	60	0	1712324608	45	4406
2026-01-19 06:10:50.93	288.63	13.98	-37.5	-39.1	15.0	0.00e+00	0	60	0	1719664640	45	4385
2026-01-19 06:10:51.95	288.44	13.93	-37.5	-39.1	15.1	0.00e+00	0	60	0	1727004672	45	4354
2026-01-19 06:10:52.96	288.25	13.89	-37.6	-39.3	14.8	0.00e+00	0	60	0	1734344704	45	4443
2026-01-19 06:10:53.96	288.07	13.84	-37.6	-39.3	14.8	0.00e+00	0	60	0	1741684736	45	4464
2026-01-19 06:10:54.97	287.88	13.79	-37.6	-39.3	14.8	1.10e-06	0	60	0	1749024768	45	4465
2026-01-19 06:10:55.98	287.70	13.75	-37.6	-39.3	14.7	0.00e+00	0	60	0	1756364800	45	4488
2026-01-19 06:10:56.98	287.52	13.70	-37.7	-39.4	14.7	0.00e+00	0	60	0	1763704832	45	4511
2026-01-19 06:10:57.99	287.33	13.66	-37.7	-39.4	14.6	0.00e+00	0	60	0	1771044864	45	4517
2026-01-19 06:10:59.00	287.15	13.61	-37.8	-39.5	14.5	1.10e-06	0	60	0	1778384896	45	4595
2026-01-19 06:11:00.01	286.97	13.56	-37.8	-39.5	14.5	0.00e+00	0	60	0	1785724928	45	4576
2026-01-19 06:11:01.02	286.79	13.51	-37.8	-39.5	14.5	2.20e-06	0	60	0	1793064960	45	4587
2026-01-19 06:11:02.03	286.61	13.47	-37.8	-39.5	14.4	0.00e+00	0	60	0	1800404992	45	4588
2026-01-19 06:11:03.05	286.42	13.42	-37.7	-39.5	14.4	1.10e-06	0	60	0	1807745024	45	4569
2026-01-19 06:11:04.06	286.24	13.37	-37.8	-39.5	14.3	0.00e+00	0	60	0	1815085056	45	4583
2026-01-19 06:11:05.07	286.07	13.32	-37.8	-39.6	14.2	0.00e+00	0	60	0	1822425088	45	4640
2026-01-19 06:11:06.08	285.89	13.28	-37.8	-39.6	14.2	1.10e-06	0	60	0	1829765120	45	4635
2026-01-19 06:11:07.09	285.71	13.23	-37.9	-39.7	14.0	0.00e+00	0	60	0	1836056576	45	4692
2026-01-19 06:11:08.10	285.53	13.18	-37.8	-39.6	14.0	1.10e-06	0	60	0	1843396608	45	4646
2026-01-19 06:11:09.11	285.36	13.13	-37.8	-39.7	14.0	4.50e-06	0	60	0	1851785216	45	4675
2026-01-19 06:11:10.12	285.18	13.08	-37.8	-39.6	14.0	2.20e-06	0	60	0	1858076672	45	4647
2026-01-19 06:11:11.13	285.00	13.03	-37.7	-39.5	14.2	1.10e-06	0	60	0	1865416704	45	4586
2026-01-19 06:11:12.14	284.83	12.98	-37.7	-39.5	14.2	2.20e-06	0	60	0	1872756736	45	4573
2026-01-19 06:11:13.15	284.65	12.93	-37.7	-39.5	14.1	0.00e+00	0	60	0	1880096768	45	4566
2026-01-19 06:11:14.16	284.48	12.88	-37.7	-39.5	14.2	0.00e+00	0	60	0	1887436800	45	4548
2026-01-19 06:11:15.17	284.31	12.84	-37.7	-39.4	14.2	1.10e-06	0	60	0	1894776832	45	4540
2026-01-19 06:11:16.18	284.13	12.79	-37.6	-39.4	14.2	2.20e-06	0	60	0	1902116864	45	4532
2026-01-19 06:11:17.19	283.96	12.74	-37.7	-39.6	14.0	1.10e-06	0	60	0	1909456896	45	4600
2026-01-19 06:11:18.20	283.79	12.69	-37.7	-39.5	14.1	0.00e+00	0	60	0	1916796928	45	4580
2026-01-19 06:11:19.21	283.62	12.64	-37.9	-39.7	14.0	0.00e+00	0	60	0	1924136960	45	4680
2026-01-19 06:11:20.22	283.45	12.59	-37.9	-39.7	14.0	2.20e-06	0	60	0	1931476992	45	4670
2026-01-19 06:11:21.23	283.28	12.53	-38.0	-39.8	13.9	3.40e-06	0	60	0	1938817024	45	4744
2026-01-19 06:11:22.23	283.11	12.48	-37.9	-39.8	13.9	5.70e-06	0	60	0	1946157056	45	4732
2026-01-19 06:11:23.24	282.94	12.43	-37.9	-39.8	13.9	3.40e-06	0	60	0	1953497088	45	4714
2026-01-19 06:11:24.25	282.78	12.38	-38.0	-39.8	13.9	4.50e-06	0	60	0	1960837120	45	4738
2026-01-19 06:11:25.26	282.61	12.33	-37.9	-39.8	14.0	1.10e-06	0	60	0	1968177152	45	4719
2026-01-19 06:11:26.27	282.44	12.28	-37.9	-39.8	14.1	0.00e+00	0	60	0	1975517184	45	4708
2026-01-19 06:11:27.28	282.28	12.23	-37.9	-39.6	14.2	0.00e+00	0	60	0	1982857216	45	4645
2026-01-19 06:11:28.29	282.11	12.18	-37.9	-39.7	14.2	0.00e+00	0	60	0	1989148672	45	4692
2026-01-19 06:11:29.30	281.95	12.13	-38.1	-39.9	14.0	2.20e-06	0	60	0	1997537280	45	4796
2026-01-19 06:11:30.31	281.78	12.07	-38.1	-40.0	14.0	2.20e-06	0	60	0	2004877312	45	4824
2026-01-19 06:11:31.33	281.62	12.02	-38.2	-40.1	13.9	2.20e-06	0	60	0	2011168768	45	4872
2026-01-19 06:11:32.34	281.45	11.97	-38.3	-40.1	13.8	5.70e-06	0	60	0	2018508800	46	4651
2026-01-19 06:11:33.35	281.29	11.92	-38.2	-40.1	13.9	3.40e-06	0	60	0	2025848832	46	4616
2026-01-19 06:11:34.36	281.13	11.87	-38.1	-40.0	13.9	2.20e-06	0	60	0	2033188864	46	4551
2026-01-19 06:11:35.37	280.97	11.81	-38.1	-40.0	13.9	1.10e-06	0	60	0	2040528896	46	4566
2026-01-19 06:11:36.38	280.81	11.76	-38.1	-40.0	13.9	1.10e-06	0	60	0	2047868928	46	4558
2026-01-19 06:11:37.39	280.64	11.71	-38.0	-39.9	14.0	6.80e-06	0	60	0	2055208960	46	4504
2026-01-19 06:11:38.39	280.49	11.66	-37.9	-39.7	14.2	0.00e+00	0	60	0	2062548992	46	4435
2026-01-19 06:11:39.40	280.33	11.60	-38.0	-39.9	14.0	3.40e-06	0	60	0	2069889024	46	4508
2026-01-19 06:11:40.41	280.17	11.55	-38.0	-39.9	14.0	4.50e-06	0	60	0	2077229056	46	4505
2026-01-19 06:11:41.42	280.01	11.50	-38.0	-39.8	14.0	1.10e-06	0	60	0	2084569088	46	4489
2026-01-19 06:11:42.43	279.85	11.45	-38.0	-39.8	14.0	1.10e-06	0	60	0	2091909120	46	4482
2026-01-19 06:11:43.44	279.70	11.39	-38.0	-39.8	14.1	0.00e+00	0	60	0	2099249152	46	4470
2026-01-19 06:11:44.45	279.54	11.34	-38.0	-39.8	14.0	2.20e-06	0	60	0	2106589184	46	4479
2026-01-19 06:11:45.46	279.38	11.29	-38.1	-39.9	13.9	2.20e-06	0	60	0	2113929216	46	4533
2026-01-19 06:11:46.48	279.23	11.23	-38.1	-40.0	13.8	4.50e-06	0	60	0	2121269248	46	4554
2026-01-19 06:11:47.49	279.07	11.18	-38.1	-40.0	13.8	2.20e-06	0	60	0	2128609280	46	4558
2026-01-19 06:11:48.49	278.92	11.13	-38.2	-40.1	13.7	8.00e-06	0	60	0	2134900736	46	4612
2026-01-19 06:11:49.50	278.77	11.07	-38.2	-40.1	13.7	0.00e+00	0	60	0	2143289344	46	4633
2026-01-19 06:11:50.51	278.61	11.02	-38.1	-40.0	13.7	3.40e-06	0	60	0	2150629376	46	4597
2026-01-19 06:11:51.53	278.46	10.96	-38.2	-40.1	13.6	2.20e-06	0	60	0	2156920832	46	4637
2026-01-19 06:11:52.54	278.31	10.91	-38.2	-40.2	13.5	5.70e-06	0	60	0	2164260864	46	4666
2026-01-19 06:11:53.55	278.16	10.86	-38.3	-40.3	13.3	1.48e-05	0	60	0	2171600896	46	4718
2026-01-19 06:11:54.56	278.01	10.80	-38.3	-40.3	13.2	1.48e-05	0	60	0	2178940928	46	4758
2026-01-19 06:11:55.57	277.86	10.75	-38.3	-40.4	13.1	1.60e-05	0	60	0	2186280960	46	4777
2026-01-19 06:11:56.58	277.71	10.70	-38.4	-40.5	12.9	3.20e-05	0	60	0	2193620992	46	4861
2026-01-19 06:11:57.59	277.56	10.64	-38.4	-40.6	12.9	3.89e-05	0	60	0	2200961024	46	4876
2026-01-19 06:11:58.60	277.41	10.59	-38.6	-40.8	12.7	4.80e-05	0	60	0	2208301056	46	4991
2026-01-19 06:11:59.61	277.26	10.53	-38.6	-40.8	12.5	1.01e-04	0	60	0	2215641088	46	5020
2026-01-19 06:12:00.62	277.11	10.48	-38.6	-40.9	12.3	1.15e-04	0	60	0	2222981120	46	5070
2026-01-19 06:12:01.63	276.97	10.42	-38.7	-41.1	12.0	2.48e-04	0	60	0	2230321152	47	4880
2026-01-19 06:12:02.64	276.82	10.37	-38.7	-41.0	12.0	2.51e-04	0	60	0	2237661184	47	4860
2026-01-19 06:12:03.65	276.68	10.31	-38.8	-41.1	11.9	3.28e-04	0	60	0	2245001216	47	4916
2026-01-19 06:12:04.66	276.53	10.26	-38.8	-41.3	11.7	4.61e-04	0	60	0	2252341248	47	5000
2026-01-19 06:12:05.67	276.39	10.21	-38.9	-41.4	11.6	6.52e-04	0	60	0	2259681280	47	5091
2026-01-19 06:12:06.68	276.24	10.15	-39.0	-41.6	11.4	8.57e-04	0	60	0	2267021312	47	5181
2026-01-19 06:12:07.69	276.10	10.10	-39.1	-41.7	11.2	1.25e-03	0	60	0	2274361344	47	5259
2026-01-19 06:12:08.70	275.96	10.04	-39.2	-42.0	10.8	2.04e-03	0	60	0	2281701376	47	5408
2026-01-19 06:12:09.71	275.81	9.99	-39.4	-42.3	10.7	2.46e-03	0	60	0	2289041408	48	5299
2026-01-19 06:12:10.72	275.67	9.93	-39.5	-42.4	10.4	3.74e-03	0	60	0	2296381440	48	5384
2026-01-19 06:12:11.73	275.53	9.88	-39.7	-42.8	9.9	5.96e-03	0	60	0	2303721472	48	5619
2026-01-19 06:12:12.74	275.39	9.82	-39.9	-43.1	9.5	1.16e-02	0	60	0	2310012928	49	5517
2026-01-19 06:12:13.75	275.25	9.77	-40.0	-43.5	9.1	1.82e-02	0	60	0	2318401536	49	5745
2026-01-19 06:12:14.76	275.11	9.71	-40.1	-43.7	8.8	2.72e-02	0	60	0	2325741568	49	5921
2026-01-19 06:12:15.77	274.97	9.66	-40.3	-44.2	8.2	4.17e-02	0	60	0	2332033024	50	5861
2026-01-19 06:12:16.78	274.83	9.60	-40.4	-44.5	7.9	6.97e-02	0	60	0	2339373056	50	6123
2026-01-19 06:12:17.79	274.69	9.55	-40.5	-44.8	7.5	9.25e-02	0	60	0	2346713088	50	6312
2026-01-19 06:12:18.80	274.56	9.49	-40.6	-45.1	7.1	1.31e-01	0	60	0	2354053120	50	6559
2026-01-19 06:12:19.81	274.42	9.44	-40.7	-45.5	6.7	1.84e-01	0	60	0	2361393152	51	6488
2026-01-19 06:12:20.82	274.28	9.38	-40.8	-45.9	6.3	2.48e-01	0	61	0	2368733184	51	6789
2026-01-19 06:12:21.83	274.15	9.32	-40.9	-46.1	6.1	2.81e-01	0	60	0	2376073216	51	6894
2026-01-19 06:12:22.84	274.01	9.27	-42.5	-49.2	4.8	3.31e-01	0	61	0	2382364672	54	8333
2026-01-19 06:12:23.84	273.88	9.21	-42.0	-48.1	5.2	7.58e-01	0	60	0	2382364672	55	6915
2026-01-19 06:12:24.85	273.74	9.16	-40.6	-49.7	3.8	8.21e-01	0	61	104	2383413248	52	9919
2026-01-19 06:12:25.87	273.61	9.10	-41.2	-49.8	4.0	8.38e-01	0	60	0	2383413248	52	10058
2026-01-19 06:12:26.88	273.48	9.05	-41.5	-48.6	4.5	8.03e-01	0	60	0	2383413248	52	8738
2026-01-19 06:12:27.89	273.34	8.99	-41.4	-48.5	4.5	8.21e-01	0	60	0	2383413248	52	8638
2026-01-19 06:12:28.90	273.21	8.94	-41.3	-48.9	4.3	8.26e-01	0	60	0	2383413248	52	8966
2026-01-19 06:12:29.91	273.08	8.88	-41.4	-49.2	4.2	8.34e-01	0	61	0	2383413248	52	9283
2026-01-19 06:12:30.92	272.95	8.83	-41.4	-49.3	4.2	8.35e-01	0	60	0	2383413248	52	9409
2026-01-19 06:12:31.93	272.82	8.77	-41.4	-49.2	4.2	8.36e-01	0	60	0	2383413248	52	9363
2026-01-19 06:12:32.94	272.69	8.71	-41.5	-49.2	4.3	8.34e-01	0	60	0	2383413248	52	9330
2026-01-19 06:12:33.95	272.56	8.66	-41.3	-49.3	4.2	8.35e-01	0	60	0	2383413248	52	9439
2026-01-19 06:12:34.96	272.43	8.60	-41.7	-49.0	4.4	8.26e-01	0	60	0	2383413248	52	9163
2026-01-19 06:12:35.97	272.30	8.55	-40.6	-50.8	3.8	8.45e-01	0	61	104	2383413248	52	11268
2026-01-19 06:12:36.98	272.17	8.49	-41.7	-51.6	3.8	8.46e-01	0	60	104	2383413248	52	12295
2026-01-19 06:12:37.99	272.04	8.44	-41.9	-50.5	3.8	8.38e-01	0	60	104	2383413248	53	10284
2026-01-19 06:12:39.00	271.91	8.38	-41.5	-49.3	4.2	8.39e-01	0	60	0	2383413248	53	8920
2026-01-19 06:12:40.00	271.79	8.33	-41.5	-49.1	4.3	8.35e-01	0	60	0	2383413248	53	8758
2026-01-19 06:12:41.01	271.66	8.27	-41.6	-49.2	4.3	8.33e-01	0	61	0	2383413248	53	8831
2026-01-19 06:12:42.02	271.54	8.21	-41.5	-49.3	4.2	8.35e-01	0	61	0	2383413248	53	8888
2026-01-19 06:12:43.03	271.41	8.16	-41.4	-49.1	4.3	8.34e-01	0	61	0	2383413248	53	8696
2026-01-19 06:12:44.04	271.29	8.10	-41.4	-49.0	4.3	8.35e-01	0	61	0	2383413248	53	8643
2026-01-19 06:12:45.05	271.16	8.05	-41.9	-49.7	4.2	8.33e-01	0	61	0	2383413248	53	9330
2026-01-19 06:12:46.06	271.04	7.99	-44.7	-55.7	3.8	8.47e-01	0	60	104	2383413248	58	13983
2026-01-19 06:12:47.07	270.92	7.94	-45.2	-56.2	3.8	8.47e-01	0	60	104	2383413248	59	13986
2026-01-19 06:12:48.08	270.79	7.88	-45.3	-56.7	3.8	8.47e-01	0	61	104	2383413248	60	13941
2026-01-19 06:12:49.09	270.67	7.82	-45.4	-56.8	3.8	8.47e-01	0	61	104	2383413248	60	14154
2026-01-19 06:12:50.10	270.55	7.77	-45.5	-56.9	3.8	8.47e-01	0	60	104	2383413248	60	14332
2026-01-19 06:12:51.11	270.43	7.71	-45.6	-56.9	3.8	8.46e-01	0	61	104	2383413248	60	14365
2026-01-19 06:12:52.12	270.31	7.66	-45.6	-57.0	3.8	8.47e-01	0	60	104	2383413248	60	14494
2026-01-19 06:12:53.13	270.18	7.60	-45.7	-57.0	3.8	8.46e-01	0	60	104	2383413248	60	14468
2026-01-19 06:12:54.14	270.06	7.54	-45.7	-57.0	3.8	8.46e-01	0	61	104	2383413248	60	14529
2026-01-19 06:12:55.15	269.94	7.49	-45.7	-57.0	3.8	8.46e-01	0	60	104	2383413248	60	14540
2026-01-19 06:12:56.16	269.83	7.43	-45.7	-57.1	3.8	8.45e-01	0	61	104	2383413248	60	14562
2026-01-19 06:12:57.17	269.71	7.38	-45.6	-57.0	3.8	8.46e-01	0	61	104	2383413248	60	14437
2026-01-19 06:12:58.18	269.59	7.32	-45.6	-57.0	3.8	8.45e-01	0	61	104	2383413248	60	14402
2026-01-19 06:12:59.19	269.47	7.27	-45.6	-57.0	3.8	8.45e-01	0	60	104	2383413248	60	14404
2026-01-19 06:13:00.20	269.35	7.21	-45.6	-56.9	3.8	8.46e-01	0	61	104	2383413248	60	14285
2026-01-19 06:13:01.21	269.24	7.15	-45.6	-57.0	3.8	8.46e-01	0	61	104	2383413248	60	14424
2026-01-19 06:13:02.22	269.12	7.10	-45.6	-56.9	3.8	8.47e-01	0	61	104	2383413248	60	14356
2026-01-19 06:13:03.23	269.00	7.04	-45.6	-56.9	3.8	8.46e-01	0	61	104	2383413248	60	14282
2026-01-19 06:13:04.24	268.89	6.99	-45.6	-57.0	3.8	8.45e-01	0	61	104	2383413248	60	14374
2026-01-19 06:13:05.25	268.77	6.93	-45.6	-56.9	3.8	8.46e-01	0	61	104	2383413248	60	14290
2026-01-19 06:13:06.26	268.66	6.88	-45.6	-56.9	3.8	8.48e-01	0	61	104	2383413248	60	14251
2026-01-19 06:13:07.27	268.55	6.82	-45.6	-56.9	3.8	8.46e-01	0	61	104	2383413248	60	14289
2026-01-19 06:13:08.28	268.43	6.77	-45.6	-56.9	3.8	8.47e-01	0	61	104	2383413248	60	14326
2026-01-19 06:13:09.29	268.32	6.71	-45.6	-56.9	3.8	8.45e-01	0	61	104	2383413248	60	14277
2026-01-19 06:13:10.30	268.21	6.65	-45.6	-56.9	3.8	8.47e-01	0	61	104	2383413248	60	14256
2026-01-19 06:13:11.31	268.09	6.60	-45.4	-56.8	3.8	8.45e-01	0	60	104	2383413248	60	14204
2026-01-19 06:13:12.32	267.98	6.54	-45.6	-56.9	3.8	8.46e-01	0	61	104	2383413248	60	14263
2026-01-19 06:13:13.33	267.87	6.49	-45.5	-56.9	3.8	8.46e-01	0	60	104	2383413248	60	14305
2026-01-19 06:13:14.34	267.76	6.43	-45.5	-56.9	3.8	8.47e-01	0	61	104	2383413248	60	14295
2026-01-19 06:13:15.35	267.65	6.38	-45.5	-56.8	3.8	8.47e-01	0	61	104	2383413248	60	14194
2026-01-19 06:13:16.36	267.54	6.32	-45.6	-56.9	3.8	8.46e-01	0	61	104	2383413248	60	14218
2026-01-19 06:13:17.37	267.43	6.27	-45.5	-56.9	3.8	8.46e-01	0	61	104	2383413248	60	14239
2026-01-19 06:13:18.38	267.32	6.21	-45.5	-56.9	3.8	8.46e-01	0	61	104	2383413248	60	14297
2026-01-19 06:13:19.40	267.21	6.15	-45.5	-56.9	3.8	8.46e-01	0	60	104	2383413248	60	14253
2026-01-19 06:13:20.41	267.10	6.10	-45.2	-56.8	3.8	8.47e-01	0	60	104	2383413248	60	14175
2026-01-19 06:13:21.41	266.99	6.04	-45.5	-56.9	3.8	8.46e-01	0	61	104	2383413248	60	14210
2026-01-19 06:13:22.42	266.89	5.99	-45.5	-56.9	3.8	8.45e-01	0	61	104	2383413248	60	14302
2026-01-19 06:13:23.43	266.78	5.93	-45.5	-56.9	3.8	8.46e-01	0	60	104	2383413248	60	14293
2026-01-19 06:13:24.44	266.67	5.88	-45.5	-56.9	3.8	8.46e-01	0	60	104	2383413248	60	14227
2026-01-19 06:13:25.45	266.56	5.82	-45.5	-56.9	3.8	8.46e-01	0	61	104	2383413248	60	14217
2026-01-19 06:13:26.46	266.46	5.77	-45.5	-56.8	3.8	8.48e-01	0	61	104	2383413248	60	14194
2026-01-19 06:13:27.47	266.35	5.71	-45.5	-56.9	3.8	8.47e-01	0	61	104	2383413248	60	14252
2026-01-19 06:13:28.48	266.25	5.66	-45.5	-56.9	3.8	8.47e-01	0	61	104	2383413248	60	14211
2026-01-19 06:13:29.50	266.14	5.60	-45.5	-56.9	3.8	8.47e-01	0	61	104	2383413248	60	14232
2026-01-19 06:13:30.50	266.04	5.55	-45.5	-56.8	3.8	8.46e-01	0	61	104	2383413248	60	14204
2026-01-19 06:13:31.51	265.93	5.49	-45.5	-56.9	3.8	8.47e-01	0	61	104	2383413248	60	14255
2026-01-19 06:13:32.53	265.83	5.44	-45.4	-56.8	3.8	8.47e-01	0	61	104	2383413248	60	14203
2026-01-19 06:13:33.54	265.73	5.38	-45.5	-56.8	3.8	8.46e-01	0	61	104	2383413248	60	14165
2026-01-19 06:13:34.55	265.62	5.33	-45.4	-56.9	3.8	8.47e-01	0	61	104	2383413248	60	14215
2026-01-19 06:13:35.56	265.52	5.27	-45.5	-56.9	3.8	8.45e-01	0	61	104	2383413248	60	14219
2026-01-19 06:13:36.57	265.42	5.22	-45.5	-56.9	3.8	8.45e-01	0	61	104	2383413248	60	14225
2026-01-19 06:13:37.58	265.32	5.16	-45.5	-56.9	3.8	8.47e-01	0	61	104	2383413248	60	14266
2026-01-19 06:13:38.59	265.22	5.11	-45.5	-56.9	3.8	8.46e-01	0	61	104	2383413248	60	14216
2026-01-19 06:13:39.60	265.12	5.05	-45.5	-56.9	3.8	8.48e-01	0	61	104	2383413248	60	14216
2026-01-19 06:13:40.61	265.02	5.00	-45.5	-56.9	3.8	8.47e-01	0	61	104	2383413248	60	14215
2026-01-19 06:13:41.62	264.92	4.94	-45.5	-56.9	3.8	8.46e-01	0	61	104	2383413248	60	14217
2026-01-19 06:13:42.63	264.82	4.89	-45.5	-56.9	3.8	8.46e-01	0	61	104	2383413248	60	14244
2026-01-19 06:13:43.64	264.72	4.83	-45.5	-56.8	3.8	8.47e-01	0	61	104	2383413248	60	14187
2026-01-19 06:13:44.65	264.62	4.78	-45.5	-56.8	3.8	8.46e-01	0	61	104	2383413248	60	14180
2026-01-19 06:13:45.66	264.52	4.72	-45.5	-56.8	3.8	8.47e-01	0	61	104	2383413248	60	14194
2026-01-19 06:13:46.67	264.42	4.67	-45.5	-56.8	3.8	8.46e-01	0	60	104	2383413248	60	14200
2026-01-19 06:13:47.68	264.32	4.61	-45.5	-56.8	3.8	8.47e-01	0	61	104	2383413248	60	14209
2026-01-19 06:13:48.69	264.23	4.56	-45.5	-56.8	3.8	8.46e-01	0	61	104	2383413248	60	14117
2026-01-19 06:13:49.70	264.13	4.51	-45.5	-56.8	3.8	8.46e-01	0	61	104	2383413248	60	14209
2026-01-19 06:13:50.71	264.03	4.45	-45.5	-56.8	3.8	8.46e-01	0	61	104	2383413248	60	14180
2026-01-19 06:13:51.72	263.94	4.40	-45.5	-56.8	3.8	8.45e-01	0	61	104	2383413248	60	14162
2026-01-19 06:13:52.73	263.84	4.34	-45.5	-56.8	3.8	8.46e-01	0	60	104	2383413248	60	14205
2026-01-19 06:13:53.74	263.74	4.29	-45.5	-56.9	3.8	8.46e-01	0	60	104	2383413248	60	14216
2026-01-19 06:13:54.75	263.65	4.23	-45.5	-56.8	3.8	8.47e-01	0	60	104	2383413248	60	14160
2026-01-19 06:13:55.75	263.55	4.18	-45.5	-56.8	3.8	8.47e-01	0	61	104	2383413248	60	14172
2026-01-19 06:13:56.76	263.46	4.13	-45.5	-56.9	3.8	8.46e-01	0	61	104	2383413248	60	14235
2026-01-19 06:13:57.77	263.37	4.07	-45.5	-56.8	3.8	8.47e-01	0	61	104	2383413248	60	14182
2026-01-19 06:13:58.78	263.27	4.02	-45.5	-56.8	3.8	8.47e-01	0	60	104	2383413248	60	14164
2026-01-19 06:13:59.79	263.18	3.96	-45.5	-56.8	3.8	8.46e-01	0	61	104	2383413248	60	14174
2026-01-19 06:14:00.80	263.09	3.91	-45.5	-56.8	3.8	8.46e-01	0	60	104	2383413248	60	14205
2026-01-19 06:14:01.81	262.99	3.85	-45.5	-56.8	3.8	8.47e-01	0	61	104	2383413248	60	14192
2026-01-19 06:14:02.82	262.90	3.80	-45.5	-56.8	3.8	8.46e-01	0	61	104	2383413248	60	14148
2026-01-19 06:14:03.83	262.81	3.75	-45.5	-56.8	3.8	8.47e-01	0	60	104	2383413248	60	14208
2026-01-19 06:14:04.85	262.72	3.69	-45.5	-56.9	3.8	8.46e-01	0	61	104	2383413248	60	14212
2026-01-19 06:14:05.85	262.63	3.64	-45.4	-56.8	3.8	8.45e-01	0	61	104	2383413248	60	14193
2026-01-19 06:14:06.86	262.53	3.58	-45.5	-56.8	3.8	8.46e-01	0	61	104	2383413248	60	14117
2026-01-19 06:14:07.87	262.44	3.53	-45.5	-56.8	3.8	8.47e-01	0	61	104	2383413248	60	14206
2026-01-19 06:14:08.88	262.35	3.48	-45.4	-56.8	3.8	8.46e-01	0	61	104	2383413248	60	14209
2026-01-19 06:14:09.89	262.26	3.42	-45.5	-56.9	3.8	8.47e-01	0	61	104	2383413248	60	14211
2026-01-19 06:14:10.90	262.17	3.37	-45.5	-56.8	3.8	8.47e-01	0	61	104	2383413248	60	14152
2026-01-19 06:14:11.91	262.08	3.32	-45.5	-56.8	3.8	8.46e-01	0	61	104	2383413248	60	14158
2026-01-19 06:14:12.92	262.00	3.26	-45.5	-56.8	3.8	8.47e-01	0	61	104	2383413248	60	14209
2026-01-19 06:14:13.93	261.91	3.21	-45.5	-56.8	3.8	8.47e-01	0	61	104	2383413248	60	14162
2026-01-19 06:14:14.94	261.82	3.15	-45.4	-56.8	3.8	8.45e-01	0	61	104	2383413248	60	14185
2026-01-19 06:14:15.95	261.73	3.10	-45.5	-56.8	3.8	8.45e-01	0	61	104	2383413248	60	14178
2026-01-19 06:14:16.96	261.64	3.05	-45.5	-56.8	3.8	8.47e-01	0	61	104	2383413248	60	14185
2026-01-19 06:14:17.97	261.56	2.99	-45.5	-56.8	3.8	8.46e-01	0	61	104	2383413248	60	14148
2026-01-19 06:14:18.98	261.47	2.94	-45.5	-56.8	3.8	8.46e-01	0	61	104	2383413248	60	14174
2026-01-19 06:14:19.99	261.38	2.89	-45.3	-56.8	3.8	8.46e-01	0	61	104	2383413248	60	14162
2026-01-19 06:14:21.00	261.30	2.83	-45.3	-56.8	3.8	8.47e-01	0	61	104	2383413248	60	14128
2026-01-19 06:14:22.01	261.21	2.78	-45.5	-56.8	3.8	8.43e-01	0	61	104	2383413248	60	14111
2026-01-19 06:14:23.02	261.12	2.73	-45.5	-56.8	3.8	8.45e-01	0	61	104	2383413248	60	14190
2026-01-19 06:14:24.03	261.04	2.67	-45.5	-56.8	3.8	8.45e-01	0	61	104	2383413248	60	14176
2026-01-19 06:14:25.04	260.95	2.62	-45.5	-56.8	3.8	8.46e-01	0	61	104	2383413248	60	14193
2026-01-19 06:14:26.05	260.87	2.57	-45.4	-56.8	3.8	8.46e-01	0	61	104	2383413248	60	14048
2026-01-19 06:14:27.06	260.78	2.52	-45.5	-56.8	3.8	8.46e-01	0	61	104	2383413248	60	14201
2026-01-19 06:14:28.07	260.70	2.46	-45.5	-56.8	3.8	8.47e-01	0	61	104	2383413248	60	14165
2026-01-19 06:14:29.08	260.62	2.41	-45.5	-56.8	3.8	8.45e-01	0	61	104	2383413248	60	14150
2026-01-19 06:14:30.09	260.53	2.36	-45.5	-56.8	3.8	8.46e-01	0	61	104	2383413248	60	14132
2026-01-19 06:14:31.10	260.45	2.30	-45.5	-56.8	3.8	8.46e-01	0	61	104	2383413248	60	14187
2026-01-19 06:14:32.11	260.37	2.25	-45.5	-56.8	3.8	8.47e-01	0	61	104	2383413248	60	14181
2026-01-19 06:14:33.12	260.28	2.20	-45.5	-56.8	3.8	8.47e-01	0	61	104	2383413248	60	14208
2026-01-19 06:14:34.13	260.20	2.15	-45.5	-56.8	3.8	8.46e-01	0	61	104	2383413248	60	14136
2026-01-19 06:14:35.14	260.12	2.09	-45.5	-56.8	3.8	8.47e-01	0	61	104	2383413248	60	14191
2026-01-19 06:14:36.15	260.04	2.04	-45.5	-56.8	3.8	8.46e-01	0	61	104	2383413248	60	14157
2026-01-19 06:14:37.16	259.96	1.99	-45.3	-56.8	3.8	8.46e-01	0	61	104	2383413248	60	14197
2026-01-19 06:14:38.17	259.88	1.93	-45.5	-56.8	3.8	8.47e-01	0	61	104	2383413248	60	14207
2026-01-19 06:14:39.18	259.80	1.88	-45.5	-56.9	3.8	8.45e-01	0	61	104	2383413248	60	14213

#Closed at: 2026-01-19 06:14:39
#Recorded file [2383 MB]: D:/lorett/data/31039_260119_090301.dat