passes_logs/2026/01/19/R2.0S_Moscow/R2.0S_Moscow__20260119_113143_SUOMI_NPP_rec.log

#Pass ID: 20260119_113143_SUOMI NPP
#Satellite: SUOMI NPP
#Configuration: NPP
#almurnet v.1.7.20251203
#Start time: 2026-01-19 11:31:43

#Version: 2.2.20231116
#Station: R2.0S_Moscow
#Location: 37.707566 lon 55.798166 lat
#TLE: 1 37849U 11061A   26017.92342359  .00000077  00000+0  57567-4 0  9990
#TLE: 2 37849  98.7814 319.9468 0002389  58.5705 301.5704 14.19525998737125

#Time	Az	El	Level	Level2	SNR	BER	BlckErr	Temp	State	Recorded	gain1	gain2
2026-01-19 11:31:43.20	207.07	1.97	-43.9	-58.4	3.8	1.49e+00	0	54	0	0	59	19063
2026-01-19 11:31:44.22	207.14	2.03	-43.9	-58.4	3.8	1.49e+00	0	55	104	0	59	19107
2026-01-19 11:31:45.22	207.21	2.08	-44.0	-58.4	3.8	1.49e+00	0	55	104	0	59	19101
2026-01-19 11:31:46.24	207.28	2.14	-44.0	-58.4	3.8	1.49e+00	0	55	104	0	59	19100
2026-01-19 11:31:47.25	207.36	2.19	-44.0	-58.4	3.8	1.49e+00	0	55	104	0	59	19080
2026-01-19 11:31:48.26	207.43	2.25	-43.9	-58.4	3.8	1.49e+00	0	55	104	0	59	19063
2026-01-19 11:31:49.27	207.50	2.31	-44.0	-58.4	3.8	1.49e+00	0	55	104	0	59	19078
2026-01-19 11:31:50.28	207.58	2.36	-44.0	-58.4	3.8	1.49e+00	0	55	104	0	59	19001
2026-01-19 11:31:51.29	207.65	2.42	-44.0	-58.4	3.8	1.49e+00	0	55	104	0	59	18960
2026-01-19 11:31:52.30	207.72	2.48	-43.9	-58.4	3.8	1.49e+00	0	55	104	0	59	19083
2026-01-19 11:31:53.31	207.80	2.53	-43.9	-58.4	3.8	1.49e+00	0	55	104	0	59	19023
2026-01-19 11:31:54.32	207.87	2.59	-44.0	-58.4	3.8	1.49e+00	0	55	104	0	59	19026
2026-01-19 11:31:55.33	207.95	2.64	-44.0	-58.4	3.8	1.49e+00	0	55	104	0	59	18952
2026-01-19 11:31:56.34	208.02	2.70	-44.0	-58.4	3.8	1.49e+00	0	55	104	0	59	19022
2026-01-19 11:31:57.35	208.10	2.76	-44.0	-58.4	3.8	1.49e+00	0	55	104	0	59	18960
2026-01-19 11:31:58.36	208.17	2.81	-44.0	-58.4	3.8	1.49e+00	0	55	104	0	59	19036
2026-01-19 11:31:59.37	208.25	2.87	-44.0	-58.4	3.8	1.49e+00	0	56	104	0	59	19032
2026-01-19 11:32:00.38	208.33	2.93	-44.0	-58.4	3.8	1.49e+00	0	56	104	0	59	19055
2026-01-19 11:32:01.39	208.40	2.98	-43.9	-58.4	3.8	1.49e+00	0	56	104	0	59	19006
2026-01-19 11:32:02.40	208.48	3.04	-43.9	-58.4	3.8	1.49e+00	0	56	104	0	59	19027
2026-01-19 11:32:03.41	208.56	3.10	-43.9	-58.4	3.8	1.49e+00	0	56	104	0	59	19053
2026-01-19 11:32:04.42	208.64	3.16	-43.9	-58.4	3.8	1.49e+00	0	56	104	0	59	19005
2026-01-19 11:32:05.43	208.71	3.21	-43.9	-58.4	3.8	1.49e+00	0	56	104	0	59	19005
2026-01-19 11:32:06.44	208.79	3.27	-43.9	-58.4	3.8	1.49e+00	0	56	104	0	59	19033
2026-01-19 11:32:07.45	208.87	3.33	-43.9	-58.4	3.8	1.49e+00	0	56	104	0	59	19003
2026-01-19 11:32:08.46	208.95	3.39	-43.9	-58.4	3.8	1.49e+00	0	56	104	0	59	18974
2026-01-19 11:32:09.47	209.03	3.44	-43.9	-58.4	3.8	1.49e+00	0	56	104	0	59	19026
2026-01-19 11:32:10.48	209.11	3.50	-43.9	-58.3	3.8	1.49e+00	0	56	104	0	59	18948
2026-01-19 11:32:11.49	209.19	3.56	-43.9	-58.3	3.8	1.49e+00	0	56	104	0	59	18939
2026-01-19 11:32:12.50	209.27	3.62	-43.9	-58.4	3.8	1.49e+00	0	56	104	0	59	18981
2026-01-19 11:32:13.51	209.35	3.67	-43.9	-58.3	3.8	1.49e+00	0	56	104	0	59	18948
2026-01-19 11:32:14.52	209.43	3.73	-43.9	-58.4	3.8	1.49e+00	0	56	104	0	59	18962
2026-01-19 11:32:15.53	209.51	3.79	-43.9	-58.3	3.8	1.49e+00	0	56	104	0	59	18946
2026-01-19 11:32:16.54	209.59	3.85	-43.9	-58.4	3.8	1.49e+00	0	57	104	0	59	18972
2026-01-19 11:32:17.56	209.67	3.91	-43.9	-58.4	3.8	1.49e+00	0	57	104	0	59	18975
2026-01-19 11:32:18.57	209.75	3.96	-43.9	-58.4	3.8	1.49e+00	0	56	104	0	59	18972
2026-01-19 11:32:19.58	209.83	4.02	-43.9	-58.3	3.8	1.49e+00	0	57	104	0	59	18928
2026-01-19 11:32:20.59	209.92	4.08	-43.9	-58.3	3.8	1.49e+00	0	57	104	0	59	18867
2026-01-19 11:32:21.60	210.00	4.14	-43.9	-58.4	3.8	1.49e+00	0	57	104	0	59	18972
2026-01-19 11:32:22.61	210.08	4.20	-43.9	-58.4	3.8	1.49e+00	0	57	104	0	59	18962
2026-01-19 11:32:23.62	210.16	4.26	-43.9	-58.3	3.8	1.49e+00	0	57	104	0	59	18923
2026-01-19 11:32:24.63	210.25	4.32	-43.9	-58.4	3.8	1.49e+00	0	57	104	0	59	18979
2026-01-19 11:32:25.64	210.33	4.37	-43.9	-58.3	3.8	1.49e+00	0	57	104	0	59	18921
2026-01-19 11:32:26.65	210.42	4.43	-43.9	-58.4	3.8	1.49e+00	0	57	104	0	59	18968
2026-01-19 11:32:27.66	210.50	4.49	-43.9	-58.3	3.8	1.49e+00	0	57	104	0	59	18925
2026-01-19 11:32:28.67	210.59	4.55	-43.9	-58.3	3.8	1.49e+00	0	57	104	0	59	18835
2026-01-19 11:32:29.69	210.67	4.61	-43.9	-58.3	3.8	1.49e+00	0	57	104	0	59	18897
2026-01-19 11:32:30.70	210.76	4.67	-43.9	-58.4	3.8	1.49e+00	0	57	104	0	59	19022
2026-01-19 11:32:31.71	210.84	4.73	-43.9	-58.3	3.8	1.49e+00	0	57	104	0	59	18922
2026-01-19 11:32:32.72	210.93	4.79	-43.9	-58.3	3.8	1.49e+00	0	57	104	0	59	18858
2026-01-19 11:32:33.73	211.02	4.85	-43.9	-58.3	3.8	1.49e+00	0	57	104	0	59	18940
2026-01-19 11:32:34.74	211.10	4.91	-43.9	-58.4	3.8	1.49e+00	0	57	104	0	59	18972
2026-01-19 11:32:35.75	211.19	4.97	-43.9	-58.4	3.8	1.49e+00	0	58	104	0	59	18953
2026-01-19 11:32:36.76	211.28	5.03	-43.9	-58.3	3.8	1.49e+00	0	57	104	0	59	18839
2026-01-19 11:32:37.77	211.37	5.09	-43.9	-58.3	3.8	1.49e+00	0	57	104	0	59	18877
2026-01-19 11:32:38.78	211.45	5.15	-43.9	-58.3	3.8	1.49e+00	0	58	104	0	59	18756
2026-01-19 11:32:39.79	211.54	5.21	-43.9	-58.2	3.8	1.49e+00	0	58	104	0	59	18719
2026-01-19 11:32:40.80	211.63	5.27	-43.9	-58.3	3.8	1.49e+00	0	58	104	0	59	18793
2026-01-19 11:32:41.81	211.72	5.33	-43.9	-58.2	3.8	1.49e+00	0	58	104	0	59	18615
2026-01-19 11:32:42.82	211.81	5.39	-43.9	-58.2	3.8	1.49e+00	0	58	104	0	59	18588
2026-01-19 11:32:43.83	211.90	5.45	-43.9	-58.2	3.8	1.49e+00	0	58	104	0	59	18528
2026-01-19 11:32:44.84	211.99	5.51	-43.9	-58.1	3.8	1.49e+00	0	58	104	0	59	18470
2026-01-19 11:32:45.85	212.08	5.57	-43.9	-58.0	3.8	1.49e+00	0	58	104	0	59	18268
2026-01-19 11:32:46.86	212.17	5.63	-43.9	-58.0	3.8	1.49e+00	0	58	104	0	59	18261
2026-01-19 11:32:47.87	212.26	5.69	-43.9	-58.0	3.8	1.49e+00	0	58	104	0	59	18243
2026-01-19 11:32:48.88	212.36	5.75	-43.9	-58.0	3.8	1.49e+00	0	58	104	0	59	18198
2026-01-19 11:32:49.89	212.45	5.81	-43.9	-57.9	3.8	1.49e+00	0	58	104	0	59	17993
2026-01-19 11:32:50.91	212.54	5.87	-43.9	-57.8	3.8	1.49e+00	0	58	104	0	59	17697
2026-01-19 11:32:51.92	212.63	5.93	-43.9	-57.6	3.8	1.49e+00	0	58	104	0	59	17424
2026-01-19 11:32:52.93	212.73	5.99	-43.9	-57.4	3.8	1.49e+00	0	58	104	0	59	17069
2026-01-19 11:32:53.94	212.82	6.05	-43.9	-57.4	3.8	1.49e+00	0	58	104	0	59	16987
2026-01-19 11:32:54.95	212.92	6.12	-43.8	-57.2	3.8	1.49e+00	0	58	104	0	59	16529
2026-01-19 11:32:55.96	213.01	6.18	-43.8	-57.0	3.8	1.49e+00	0	58	104	0	59	16227
2026-01-19 11:32:56.97	213.11	6.24	-43.8	-56.7	3.8	1.49e+00	0	59	104	0	59	15661
2026-01-19 11:32:57.98	213.20	6.30	-43.7	-56.1	3.8	1.49e+00	0	59	104	0	59	14611
2026-01-19 11:32:58.99	213.30	6.36	-43.8	-55.9	3.9	1.48e+00	0	59	104	0	59	14246
2026-01-19 11:33:00.00	213.39	6.42	-43.7	-55.4	3.9	1.48e+00	0	59	104	0	59	13498
2026-01-19 11:33:01.01	213.49	6.48	-43.7	-54.8	4.2	1.43e+00	0	58	0	0	59	12529
2026-01-19 11:33:02.02	213.59	6.55	-43.6	-54.4	4.3	1.34e+00	0	58	0	0	59	12013
2026-01-19 11:33:03.03	213.68	6.61	-43.6	-54.0	4.4	1.20e+00	0	58	0	1048576	59	11477
2026-01-19 11:33:04.04	213.78	6.67	-43.6	-53.6	4.6	1.01e+00	0	59	0	3145728	58	11561
2026-01-19 11:33:05.05	213.88	6.73	-43.5	-53.3	4.8	8.36e-01	0	59	0	5242880	58	11166
2026-01-19 11:33:06.06	213.98	6.79	-43.5	-53.0	4.9	7.47e-01	0	59	0	7340032	58	10902
2026-01-19 11:33:07.07	214.08	6.86	-43.5	-52.8	5.0	7.52e-01	0	59	0	9437184	58	10605
2026-01-19 11:33:08.08	214.17	6.92	-43.4	-52.7	5.0	7.19e-01	0	59	0	10485760	58	10463
2026-01-19 11:33:09.09	214.27	6.98	-43.5	-52.8	5.0	7.19e-01	0	59	0	12582912	58	10628
2026-01-19 11:33:10.10	214.37	7.04	-43.5	-53.0	4.9	6.91e-01	0	59	0	14680064	58	10832
2026-01-19 11:33:11.11	214.47	7.10	-43.5	-53.4	4.7	8.16e-01	0	59	0	16777216	58	11303
2026-01-19 11:33:12.12	214.58	7.17	-43.5	-53.4	4.7	9.68e-01	0	59	0	18874368	58	11365
2026-01-19 11:33:13.13	214.68	7.23	-43.5	-53.6	4.6	9.38e-01	0	59	0	19922944	58	11630
2026-01-19 11:33:14.14	214.78	7.29	-43.6	-53.6	4.6	9.79e-01	0	59	0	22020096	58	11573
2026-01-19 11:33:15.16	214.88	7.36	-43.5	-53.2	4.8	8.67e-01	0	59	0	24117248	58	11143
2026-01-19 11:33:16.17	214.98	7.42	-43.4	-52.5	5.2	7.06e-01	0	59	0	26214400	58	10241
2026-01-19 11:33:17.18	215.09	7.48	-43.3	-51.9	5.5	5.35e-01	0	59	0	28311552	58	9538
2026-01-19 11:33:18.19	215.19	7.54	-43.2	-51.1	6.1	3.44e-01	0	59	0	29360128	58	8709
2026-01-19 11:33:19.20	215.29	7.61	-43.0	-50.4	6.7	2.41e-01	0	59	0	31457280	58	8050
2026-01-19 11:33:20.21	215.40	7.67	-42.8	-49.4	7.5	1.46e-01	0	59	0	33554432	57	7599
2026-01-19 11:33:21.22	215.50	7.73	-42.7	-49.0	8.0	7.50e-02	0	59	0	35651584	57	7240
2026-01-19 11:33:22.23	215.61	7.80	-42.6	-48.6	8.3	5.66e-02	0	59	0	37748736	57	6915
2026-01-19 11:33:23.24	215.71	7.86	-42.5	-48.4	8.5	4.06e-02	0	59	0	38797312	57	6796
2026-01-19 11:33:24.25	215.82	7.92	-42.5	-48.3	8.7	3.27e-02	0	59	0	40894464	56	7049
2026-01-19 11:33:25.26	215.93	7.99	-42.5	-48.3	8.7	3.10e-02	0	59	0	42991616	56	7094
2026-01-19 11:33:26.27	216.03	8.05	-42.5	-48.1	9.0	4.44e-02	0	59	0	45088768	56	6900
2026-01-19 11:33:27.28	216.14	8.11	-44.4	-56.5	3.8	1.48e+00	0	59	104	45088768	59	15265
2026-01-19 11:33:28.29	216.25	8.18	-42.7	-48.7	8.4	1.11e-01	0	59	0	45088768	57	7009
2026-01-19 11:33:29.30	216.36	8.24	-43.5	-53.3	4.7	5.52e-01	0	59	0	47185920	57	11886
2026-01-19 11:33:30.31	216.47	8.31	-43.6	-54.6	3.9	1.45e+00	0	59	104	48234496	58	13043
2026-01-19 11:33:31.32	216.57	8.37	-43.2	-50.5	6.7	3.24e-01	0	59	0	49283072	57	8632
2026-01-19 11:33:32.33	216.68	8.43	-42.3	-47.4	9.9	1.18e-02	0	60	0	50331648	56	6355
2026-01-19 11:33:33.34	216.79	8.50	-42.2	-47.3	10.0	9.84e-03	0	59	0	52428800	56	6276
2026-01-19 11:33:34.35	216.91	8.56	-42.3	-47.4	10.0	7.91e-03	0	59	0	54525952	56	6369
2026-01-19 11:33:35.36	217.02	8.63	-42.3	-47.3	10.0	7.59e-03	0	60	0	56623104	56	6304
2026-01-19 11:33:36.37	217.13	8.69	-42.2	-47.2	10.2	6.76e-03	0	60	0	58720256	56	6207
2026-01-19 11:33:37.38	217.24	8.75	-42.2	-47.0	10.3	5.85e-03	0	60	0	59768832	56	6114
2026-01-19 11:33:38.39	217.35	8.82	-42.2	-47.2	10.2	5.57e-03	0	60	0	61865984	56	6232
2026-01-19 11:33:39.40	217.47	8.88	-42.2	-47.1	10.3	6.40e-03	0	60	0	63963136	56	6182
2026-01-19 11:33:40.41	217.58	8.95	-42.2	-47.1	10.3	5.26e-03	0	60	0	66060288	56	6142
2026-01-19 11:33:41.42	217.69	9.01	-42.3	-47.2	10.2	6.63e-03	0	60	0	68157440	56	6273
2026-01-19 11:33:42.43	217.81	9.08	-42.3	-47.3	10.2	6.14e-03	0	60	0	69206016	56	6290
2026-01-19 11:33:43.44	217.92	9.14	-42.3	-47.2	10.2	7.00e-03	0	60	0	71303168	56	6246
2026-01-19 11:33:44.45	218.04	9.21	-42.4	-47.4	10.1	7.14e-03	0	60	0	73400320	56	6375
2026-01-19 11:33:45.45	218.15	9.27	-42.4	-47.3	10.2	5.80e-03	0	60	0	75497472	56	6311
2026-01-19 11:33:46.46	218.27	9.34	-42.3	-47.2	10.3	6.00e-03	0	60	0	77594624	56	6273
2026-01-19 11:33:47.48	218.39	9.40	-42.4	-47.5	10.0	6.68e-03	0	60	0	79691776	56	6457
2026-01-19 11:33:48.49	218.50	9.47	-42.5	-47.5	10.0	7.89e-03	0	60	0	80740352	56	6465
2026-01-19 11:33:49.50	218.62	9.53	-42.4	-47.5	10.1	7.32e-03	0	60	0	82837504	56	6440
2026-01-19 11:33:50.50	218.74	9.60	-42.5	-47.6	9.9	9.24e-03	0	60	0	84934656	56	6536
2026-01-19 11:33:51.51	218.86	9.66	-42.5	-47.6	9.8	1.01e-02	0	60	0	87031808	56	6565
2026-01-19 11:33:52.52	218.98	9.73	-42.5	-47.5	10.1	7.40e-03	0	60	0	89128960	56	6483
2026-01-19 11:33:53.53	219.10	9.79	-42.6	-47.7	9.9	7.83e-03	0	60	0	90177536	56	6597
2026-01-19 11:33:54.54	219.22	9.86	-42.5	-47.5	10.0	8.83e-03	0	60	0	92274688	56	6490
2026-01-19 11:33:55.55	219.34	9.92	-42.5	-47.6	10.0	6.89e-03	0	60	0	94371840	56	6521
2026-01-19 11:33:56.56	219.46	9.99	-42.6	-47.6	9.9	6.72e-03	0	60	0	96468992	56	6565
2026-01-19 11:33:57.57	219.58	10.06	-42.5	-47.4	10.2	6.51e-03	0	60	0	98566144	56	6413
2026-01-19 11:33:58.58	219.71	10.12	-42.6	-47.5	10.1	7.27e-03	0	60	0	99614720	56	6485
2026-01-19 11:33:59.59	219.83	10.19	-42.5	-47.4	10.2	8.51e-03	0	60	0	101711872	56	6408
2026-01-19 11:34:00.60	219.95	10.25	-42.6	-47.6	10.0	7.89e-03	0	60	0	103809024	56	6533
2026-01-19 11:34:01.61	220.08	10.32	-42.6	-47.7	9.9	7.34e-03	0	60	0	105906176	56	6588
2026-01-19 11:34:02.62	220.20	10.39	-42.7	-47.8	9.9	9.17e-03	0	60	0	108003328	56	6649
2026-01-19 11:34:03.62	220.33	10.45	-42.7	-47.8	9.8	9.59e-03	0	60	0	109051904	56	6704
2026-01-19 11:34:04.63	220.45	10.52	-42.7	-47.7	9.9	8.51e-03	0	60	0	111149056	56	6637
2026-01-19 11:34:05.64	220.58	10.58	-42.6	-47.7	9.9	9.35e-03	0	60	0	113246208	56	6627
2026-01-19 11:34:06.65	220.71	10.65	-42.6	-47.5	10.1	7.75e-03	0	60	0	115343360	56	6474
2026-01-19 11:34:07.66	220.83	10.72	-42.6	-47.5	10.2	5.85e-03	0	60	0	117440512	56	6463
2026-01-19 11:34:08.67	220.96	10.78	-42.6	-47.4	10.2	6.02e-03	0	60	0	118489088	56	6400
2026-01-19 11:34:09.68	221.09	10.85	-42.5	-47.3	10.4	6.06e-03	0	60	0	120586240	56	6321
2026-01-19 11:34:10.69	221.22	10.92	-42.4	-47.1	10.6	3.70e-03	0	60	0	122683392	56	6180
2026-01-19 11:34:11.70	221.35	10.98	-42.4	-47.0	10.7	2.81e-03	0	60	0	124780544	56	6071
2026-01-19 11:34:12.70	221.48	11.05	-42.4	-46.9	10.8	2.58e-03	0	60	0	126877696	56	6041
2026-01-19 11:34:13.71	221.61	11.11	-42.4	-46.9	10.8	2.15e-03	0	61	0	127926272	56	5996
2026-01-19 11:34:14.73	221.74	11.18	-42.2	-46.6	11.2	1.94e-03	0	61	0	130023424	56	5815
2026-01-19 11:34:15.74	221.87	11.25	-42.3	-46.6	11.1	1.24e-03	0	60	0	132120576	56	5840
2026-01-19 11:34:16.74	222.01	11.31	-42.2	-46.5	11.2	1.37e-03	0	60	0	134217728	56	5767
2026-01-19 11:34:17.75	222.14	11.38	-42.2	-46.4	11.4	1.13e-03	0	61	0	136314880	56	5682
2026-01-19 11:34:18.76	222.27	11.45	-42.2	-46.4	11.4	1.05e-03	0	61	0	137363456	56	5699
2026-01-19 11:34:19.77	222.41	11.51	-42.2	-46.4	11.4	9.55e-04	0	60	0	139460608	56	5690
2026-01-19 11:34:20.78	222.54	11.58	-42.1	-46.3	11.5	1.03e-03	0	60	0	141557760	56	5639
2026-01-19 11:34:21.79	222.68	11.65	-42.1	-46.3	11.5	7.84e-04	0	61	0	143654912	56	5608
2026-01-19 11:34:22.80	222.81	11.72	-42.0	-46.1	11.7	6.23e-04	0	61	0	145752064	56	5490
2026-01-19 11:34:23.81	222.95	11.78	-42.0	-46.1	11.7	6.09e-04	0	60	0	147849216	56	5485
2026-01-19 11:34:24.82	223.09	11.85	-42.0	-46.1	11.8	5.68e-04	0	61	0	148897792	56	5482
2026-01-19 11:34:25.83	223.23	11.92	-42.0	-46.0	11.8	5.82e-04	0	61	0	150994944	56	5449
2026-01-19 11:34:26.84	223.36	11.98	-42.0	-46.0	11.9	4.72e-04	0	61	0	153092096	56	5433
2026-01-19 11:34:27.85	223.50	12.05	-41.8	-46.0	11.7	4.57e-04	0	61	0	155189248	55	5766
2026-01-19 11:34:28.86	223.64	12.12	-41.9	-45.9	11.8	6.26e-04	0	61	0	157286400	55	5701
2026-01-19 11:34:29.87	223.78	12.19	-42.0	-46.1	11.6	6.42e-04	0	61	0	158334976	55	5829
2026-01-19 11:34:30.88	223.93	12.25	-42.0	-46.1	11.5	7.64e-04	0	61	0	160432128	55	5853
2026-01-19 11:34:31.89	224.07	12.32	-42.0	-46.2	11.5	8.01e-04	0	60	0	162529280	55	5890
2026-01-19 11:34:32.90	224.21	12.39	-42.1	-46.3	11.4	7.51e-04	0	61	0	164626432	55	5947
2026-01-19 11:34:33.91	224.35	12.46	-42.0	-46.2	11.5	8.64e-04	0	60	0	166723584	55	5914
2026-01-19 11:34:34.92	224.50	12.52	-42.1	-46.4	11.3	1.06e-03	0	61	0	167772160	55	6015
2026-01-19 11:34:35.93	224.64	12.59	-42.1	-46.4	11.3	1.09e-03	0	61	0	169869312	55	6012
2026-01-19 11:34:36.94	224.79	12.66	-42.2	-46.5	11.1	1.37e-03	0	61	0	171966464	55	6088
2026-01-19 11:34:37.95	224.93	12.72	-42.3	-46.7	11.0	1.62e-03	0	61	0	174063616	55	6256
2026-01-19 11:34:38.95	225.08	12.79	-42.2	-46.5	11.2	1.33e-03	0	61	0	176160768	55	6119
2026-01-19 11:34:39.96	225.22	12.86	-42.2	-46.6	11.0	1.42e-03	0	61	0	177209344	55	6198
2026-01-19 11:34:40.97	225.37	12.93	-42.3	-46.7	11.0	1.86e-03	0	61	0	179306496	55	6245
2026-01-19 11:34:41.98	225.52	12.99	-42.4	-46.9	10.9	1.94e-03	0	61	0	181403648	55	6363
2026-01-19 11:34:42.99	225.67	13.06	-42.2	-46.5	11.2	1.47e-03	0	61	0	183500800	55	6109
2026-01-19 11:34:44.00	225.82	13.13	-42.2	-46.6	11.2	1.47e-03	0	61	0	185597952	55	6140
2026-01-19 11:34:45.01	225.97	13.20	-42.2	-46.5	11.2	1.27e-03	0	61	0	186646528	55	6113
2026-01-19 11:34:46.02	226.12	13.26	-42.1	-46.3	11.4	1.01e-03	0	61	0	188743680	55	5971
2026-01-19 11:34:47.03	226.27	13.33	-42.1	-46.2	11.6	8.70e-04	0	61	0	190840832	55	5897
2026-01-19 11:34:48.04	226.42	13.40	-42.1	-46.2	11.6	6.82e-04	0	61	0	192937984	55	5866
2026-01-19 11:34:49.05	226.57	13.47	-41.9	-45.9	11.9	5.75e-04	0	61	0	195035136	55	5720
2026-01-19 11:34:50.06	226.73	13.53	-41.9	-45.9	11.9	3.94e-04	0	61	0	196083712	55	5674
2026-01-19 11:34:51.07	226.88	13.60	-41.9	-45.8	12.0	3.40e-04	0	61	0	198180864	55	5594
2026-01-19 11:34:52.08	227.04	13.67	-41.8	-45.7	12.1	2.46e-04	0	61	0	200278016	55	5573
2026-01-19 11:34:53.08	227.19	13.74	-41.6	-45.4	12.3	1.99e-04	0	61	0	202375168	55	5397
2026-01-19 11:34:54.09	227.35	13.80	-41.7	-45.5	12.3	1.91e-04	0	61	0	204472320	55	5404
2026-01-19 11:34:55.10	227.51	13.87	-41.7	-45.4	12.4	1.52e-04	0	61	0	205520896	55	5356
2026-01-19 11:34:56.11	227.66	13.94	-41.7	-45.4	12.4	1.74e-04	0	61	0	207618048	55	5377
2026-01-19 11:34:57.12	227.82	14.01	-41.8	-45.6	12.2	1.92e-04	0	61	0	209715200	55	5490
2026-01-19 11:34:58.13	227.98	14.07	-41.8	-45.5	12.2	1.65e-04	0	61	0	211812352	55	5459
2026-01-19 11:34:59.14	228.14	14.14	-41.8	-45.7	12.1	2.29e-04	0	61	0	213909504	55	5569
2026-01-19 11:35:00.15	228.30	14.21	-41.8	-45.6	12.2	2.49e-04	0	61	0	216006656	55	5499
2026-01-19 11:35:01.16	228.46	14.28	-41.8	-45.7	12.2	2.22e-04	0	61	0	217055232	55	5532
2026-01-19 11:35:02.17	228.62	14.34	-41.8	-45.7	12.1	2.03e-04	0	61	0	219152384	55	5563
2026-01-19 11:35:03.18	228.79	14.41	-41.9	-45.8	12.0	2.63e-04	0	61	0	221249536	55	5636
2026-01-19 11:35:04.19	228.95	14.48	-41.8	-45.6	12.2	2.66e-04	0	61	0	223346688	55	5514
2026-01-19 11:35:05.20	229.11	14.55	-41.8	-45.7	12.1	2.23e-04	0	61	0	224395264	54	5885
2026-01-19 11:35:06.20	229.28	14.61	-41.9	-45.8	12.0	2.69e-04	0	61	0	226492416	54	5975
2026-01-19 11:35:07.21	229.44	14.68	-41.9	-45.9	11.9	2.64e-04	0	61	0	228589568	54	6049
2026-01-19 11:35:08.22	229.61	14.75	-42.0	-46.0	11.8	4.62e-04	0	61	0	230686720	54	6089
2026-01-19 11:35:09.23	229.78	14.82	-42.0	-46.0	11.8	3.36e-04	0	61	0	232783872	54	6110
2026-01-19 11:35:10.24	229.94	14.88	-42.1	-46.2	11.7	5.49e-04	0	61	0	233832448	54	6209
2026-01-19 11:35:11.25	230.11	14.95	-42.0	-46.1	11.7	5.26e-04	0	61	0	235929600	54	6159
2026-01-19 11:35:12.26	230.28	15.02	-42.0	-46.0	11.8	4.86e-04	0	61	0	238026752	54	6127
2026-01-19 11:35:13.27	230.45	15.08	-41.9	-45.8	12.1	4.94e-04	0	61	0	240123904	54	5961
2026-01-19 11:35:14.28	230.62	15.15	-41.9	-45.9	12.0	3.52e-04	0	61	0	242221056	54	6004
2026-01-19 11:35:15.29	230.79	15.22	-41.9	-45.8	12.1	3.50e-04	0	61	0	244318208	54	5935
2026-01-19 11:35:16.30	230.97	15.29	-41.8	-45.7	12.2	2.62e-04	0	61	0	245366784	54	5859
2026-01-19 11:35:17.31	231.14	15.35	-41.9	-45.7	12.2	3.17e-04	0	61	0	247463936	54	5908
2026-01-19 11:35:18.32	231.31	15.42	-41.8	-45.6	12.3	1.88e-04	0	61	0	249561088	54	5820
2026-01-19 11:35:19.33	231.49	15.49	-41.8	-45.6	12.2	1.98e-04	0	61	0	251658240	54	5844
2026-01-19 11:35:20.34	231.66	15.55	-41.8	-45.5	12.3	2.27e-04	0	61	0	253755392	54	5779
2026-01-19 11:35:21.35	231.84	15.62	-41.8	-45.5	12.4	1.81e-04	0	61	0	254803968	54	5753
2026-01-19 11:35:22.36	232.01	15.69	-41.7	-45.5	12.4	1.76e-04	0	61	0	256901120	54	5726
2026-01-19 11:35:23.37	232.19	15.75	-41.8	-45.6	12.3	1.66e-04	0	61	0	258998272	54	5800
2026-01-19 11:35:24.37	232.37	15.82	-41.7	-45.3	12.6	1.41e-04	0	61	0	261095424	54	5626
2026-01-19 11:35:25.38	232.55	15.88	-41.7	-45.3	12.6	1.16e-04	0	61	0	263192576	54	5632
2026-01-19 11:35:26.39	232.73	15.95	-41.7	-45.3	12.6	1.07e-04	0	62	0	264241152	54	5655
2026-01-19 11:35:27.40	232.91	16.02	-41.6	-45.3	12.7	7.47e-05	0	61	0	266338304	54	5596
2026-01-19 11:35:28.41	233.09	16.08	-41.7	-45.3	12.6	6.56e-05	0	61	0	268435456	54	5604
2026-01-19 11:35:29.42	233.27	16.15	-41.6	-45.2	12.6	5.64e-05	0	61	0	270532608	54	5582
2026-01-19 11:35:30.43	233.45	16.21	-41.6	-45.2	12.7	6.56e-05	0	61	0	272629760	54	5550
2026-01-19 11:35:31.44	233.64	16.28	-41.6	-45.2	12.8	4.65e-05	0	61	0	273678336	54	5549
2026-01-19 11:35:32.45	233.82	16.34	-41.6	-45.2	12.8	6.48e-05	0	61	0	275775488	54	5541
2026-01-19 11:35:33.46	234.01	16.41	-41.7	-45.3	12.6	5.79e-05	0	61	0	277872640	54	5642
2026-01-19 11:35:34.46	234.19	16.48	-41.7	-45.4	12.6	8.77e-05	0	61	0	279969792	54	5668
2026-01-19 11:35:35.47	234.38	16.54	-41.7	-45.4	12.5	1.07e-04	0	62	0	282066944	54	5698
2026-01-19 11:35:36.48	234.57	16.61	-41.8	-45.6	12.3	1.45e-04	0	61	0	283115520	54	5848
2026-01-19 11:35:37.49	234.75	16.67	-41.9	-45.7	12.2	2.43e-04	0	62	0	285212672	54	5905
2026-01-19 11:35:38.50	234.94	16.74	-42.0	-45.9	12.1	2.36e-04	0	61	0	287309824	54	6005
2026-01-19 11:35:39.51	235.13	16.80	-42.0	-45.8	12.1	2.61e-04	0	62	0	289406976	54	5970
2026-01-19 11:35:40.52	235.32	16.87	-41.9	-45.6	12.3	2.45e-04	0	62	0	291504128	54	5832
2026-01-19 11:35:41.53	235.52	16.93	-41.8	-45.6	12.4	1.45e-04	0	61	0	292552704	54	5801
2026-01-19 11:35:42.54	235.71	16.99	-41.8	-45.5	12.4	1.56e-04	0	62	0	294649856	54	5746
2026-01-19 11:35:43.55	235.90	17.06	-41.9	-45.7	12.2	1.31e-04	0	61	0	296747008	54	5859
2026-01-19 11:35:44.56	236.10	17.12	-41.9	-45.6	12.3	1.44e-04	0	61	0	298844160	54	5835
2026-01-19 11:35:45.57	236.29	17.19	-41.9	-45.6	12.3	2.09e-04	0	61	0	300941312	54	5853
2026-01-19 11:35:46.58	236.49	17.25	-42.0	-45.8	12.1	2.76e-04	0	62	0	301989888	54	5978
2026-01-19 11:35:47.59	236.68	17.31	-42.0	-45.9	12.1	2.61e-04	0	61	0	304087040	54	6019
2026-01-19 11:35:48.60	236.88	17.38	-42.1	-46.1	11.9	5.39e-04	0	62	0	306184192	54	6137
2026-01-19 11:35:49.61	237.08	17.44	-42.0	-46.0	12.0	4.68e-04	0	62	0	308281344	54	6081
2026-01-19 11:35:50.62	237.28	17.50	-42.1	-46.0	11.9	3.96e-04	0	62	0	310378496	54	6107
2026-01-19 11:35:51.62	237.47	17.57	-42.0	-45.9	12.0	3.65e-04	0	62	0	312475648	54	6049
2026-01-19 11:35:52.63	237.67	17.63	-42.0	-45.8	12.1	2.77e-04	0	62	0	313524224	54	5960
2026-01-19 11:35:53.64	237.88	17.69	-41.9	-45.6	12.3	2.17e-04	0	62	0	315621376	54	5847
2026-01-19 11:35:54.65	238.08	17.75	-41.9	-45.6	12.3	1.92e-04	0	61	0	317718528	54	5842
2026-01-19 11:35:55.66	238.28	17.82	-41.9	-45.7	12.2	1.42e-04	0	62	0	319815680	54	5892
2026-01-19 11:35:56.67	238.48	17.88	-41.9	-45.7	12.2	1.33e-04	0	62	0	321912832	54	5875
2026-01-19 11:35:57.68	238.69	17.94	-41.9	-45.7	12.3	1.98e-04	0	62	0	322961408	54	5879
2026-01-19 11:35:58.69	238.89	18.00	-41.9	-45.7	12.3	1.89e-04	0	62	0	325058560	54	5863
2026-01-19 11:35:59.70	239.10	18.06	-41.9	-45.6	12.3	2.16e-04	0	62	0	327155712	54	5843
2026-01-19 11:36:00.71	239.31	18.13	-41.9	-45.6	12.3	1.89e-04	0	62	0	329252864	54	5830
2026-01-19 11:36:01.72	239.51	18.19	-41.9	-45.7	12.2	1.78e-04	0	62	0	331350016	54	5907
2026-01-19 11:36:02.73	239.72	18.25	-42.0	-45.8	12.1	1.59e-04	0	62	0	332398592	54	5951
2026-01-19 11:36:03.74	239.93	18.31	-41.8	-45.5	12.5	1.64e-04	0	62	0	334495744	54	5760
2026-01-19 11:36:04.75	240.14	18.37	-41.9	-45.7	12.3	1.78e-04	0	62	0	336592896	54	5917
2026-01-19 11:36:05.76	240.35	18.43	-42.1	-46.0	11.9	2.52e-04	0	62	0	338690048	54	6120
2026-01-19 11:36:06.77	240.57	18.49	-42.1	-46.1	11.8	4.90e-04	0	62	0	340787200	54	6169
2026-01-19 11:36:07.78	240.78	18.55	-42.1	-46.1	11.9	4.33e-04	0	62	0	341835776	54	6137
2026-01-19 11:36:08.78	240.99	18.61	-42.1	-46.1	11.8	4.56e-04	0	62	0	343932928	54	6162
2026-01-19 11:36:09.79	241.20	18.67	-42.0	-45.8	12.2	3.75e-04	0	62	0	346030080	54	5973
2026-01-19 11:36:10.80	241.42	18.73	-41.9	-45.7	12.3	2.28e-04	0	62	0	348127232	54	5861
2026-01-19 11:36:11.81	241.63	18.78	-41.9	-45.6	12.4	1.46e-04	0	62	0	350224384	54	5808
2026-01-19 11:36:12.82	241.85	18.84	-41.8	-45.5	12.5	1.40e-04	0	62	0	351272960	54	5731
2026-01-19 11:36:13.83	242.07	18.90	-42.0	-45.9	12.1	2.37e-04	0	62	0	353370112	54	6031
2026-01-19 11:36:14.84	242.29	18.96	-42.0	-46.0	12.0	4.10e-04	0	62	0	355467264	54	6073
2026-01-19 11:36:15.85	242.51	19.02	-42.2	-46.3	11.6	5.83e-04	0	62	0	357564416	54	6328
2026-01-19 11:36:16.86	242.73	19.07	-42.3	-46.4	11.5	9.69e-04	0	61	0	359661568	55	6041
2026-01-19 11:36:17.86	242.94	19.13	-42.2	-46.2	11.7	8.37e-04	0	62	0	360710144	55	5898
2026-01-19 11:36:18.87	243.17	19.19	-42.2	-46.2	11.7	5.37e-04	0	62	0	362807296	55	5917
2026-01-19 11:36:19.88	243.39	19.24	-42.1	-46.1	11.9	4.46e-04	0	62	0	364904448	55	5789
2026-01-19 11:36:20.90	243.61	19.30	-42.2	-46.2	11.7	4.33e-04	0	62	0	367001600	55	5879
2026-01-19 11:36:21.90	243.84	19.36	-42.2	-46.3	11.6	6.34e-04	0	62	0	369098752	55	5979
2026-01-19 11:36:22.91	244.06	19.41	-42.3	-46.5	11.4	8.99e-04	0	62	0	370147328	55	6118
2026-01-19 11:36:23.92	244.29	19.47	-42.5	-46.9	11.0	1.64e-03	0	62	0	372244480	55	6369
2026-01-19 11:36:24.93	244.51	19.52	-42.5	-47.1	10.9	2.30e-03	0	62	0	374341632	55	6519
2026-01-19 11:36:25.94	244.74	19.58	-42.6	-47.2	10.8	2.48e-03	0	62	0	376438784	55	6578
2026-01-19 11:36:26.95	244.97	19.63	-42.5	-46.8	11.1	1.78e-03	0	62	0	378535936	55	6346
2026-01-19 11:36:27.96	245.20	19.69	-42.4	-46.6	11.3	1.48e-03	0	62	0	380633088	55	6146
2026-01-19 11:36:28.97	245.42	19.74	-42.4	-46.6	11.3	1.05e-03	0	62	0	381681664	55	6158
2026-01-19 11:36:29.98	245.65	19.79	-42.4	-46.7	11.3	1.11e-03	0	62	0	383778816	55	6217
2026-01-19 11:36:30.99	245.89	19.85	-42.5	-46.8	11.1	1.36e-03	0	62	0	385875968	55	6324
2026-01-19 11:36:31.99	246.12	19.90	-42.5	-46.9	11.1	1.48e-03	0	62	0	387973120	55	6358
2026-01-19 11:36:33.00	246.35	19.95	-42.6	-47.2	10.7	2.50e-03	0	62	0	390070272	55	6596
2026-01-19 11:36:34.01	246.58	20.00	-42.6	-47.2	10.7	2.74e-03	0	62	0	391118848	55	6598
2026-01-19 11:36:35.02	246.82	20.05	-42.5	-47.0	10.9	1.95e-03	0	62	0	393216000	55	6453
2026-01-19 11:36:36.03	247.05	20.11	-42.5	-46.9	11.0	1.91e-03	0	62	0	395313152	55	6394
2026-01-19 11:36:37.04	247.29	20.16	-42.6	-47.0	10.9	2.25e-03	0	62	0	397410304	55	6487
2026-01-19 11:36:38.05	247.52	20.21	-42.7	-47.3	10.5	2.66e-03	0	62	0	399507456	55	6701
2026-01-19 11:36:39.06	247.76	20.26	-43.0	-47.9	10.2	4.47e-03	0	62	0	400556032	56	6772
2026-01-19 11:36:40.07	248.00	20.31	-42.9	-47.7	10.3	5.05e-03	0	62	0	402653184	56	6630
2026-01-19 11:36:41.08	248.24	20.36	-43.0	-47.9	10.1	5.30e-03	0	62	0	404750336	56	6788
2026-01-19 11:36:42.09	248.48	20.41	-42.9	-47.6	10.4	4.94e-03	0	62	0	406847488	56	6564
2026-01-19 11:36:43.10	248.72	20.45	-42.7	-47.2	10.8	2.44e-03	0	62	0	408944640	56	6240
2026-01-19 11:36:44.11	248.96	20.50	-42.6	-46.9	11.2	1.61e-03	0	62	0	409993216	56	6041
2026-01-19 11:36:45.12	249.20	20.55	-42.5	-46.7	11.3	1.27e-03	0	62	0	412090368	56	5920
2026-01-19 11:36:46.13	249.44	20.60	-42.5	-46.8	11.4	9.22e-04	0	62	0	414187520	56	5924
2026-01-19 11:36:47.14	249.68	20.64	-42.5	-46.7	11.4	8.79e-04	0	62	0	416284672	56	5866
2026-01-19 11:36:48.15	249.93	20.69	-42.4	-46.5	11.6	7.67e-04	0	62	0	418381824	56	5731
2026-01-19 11:36:49.16	250.17	20.74	-42.5	-46.7	11.5	7.00e-04	0	62	0	419430400	56	5867
2026-01-19 11:36:50.17	250.42	20.78	-42.4	-46.5	11.5	7.63e-04	0	62	0	421527552	56	5787
2026-01-19 11:36:51.18	250.66	20.83	-42.5	-46.8	11.3	8.57e-04	0	62	0	423624704	56	5946
2026-01-19 11:36:52.19	250.91	20.87	-42.6	-47.0	11.1	1.21e-03	0	62	0	425721856	56	6092
2026-01-19 11:36:53.19	251.15	20.92	-42.8	-47.5	10.6	2.89e-03	0	62	0	427819008	56	6431
2026-01-19 11:36:54.20	251.40	20.96	-42.9	-47.6	10.5	4.47e-03	0	62	0	428867584	56	6528
2026-01-19 11:36:55.21	251.65	21.00	-42.9	-47.5	10.5	3.93e-03	0	62	0	430964736	56	6471
2026-01-19 11:36:56.22	251.90	21.05	-42.7	-47.1	11.0	2.11e-03	0	62	0	433061888	56	6154
2026-01-19 11:36:57.23	252.15	21.09	-42.5	-46.7	11.4	1.30e-03	0	62	0	435159040	56	5905
2026-01-19 11:36:58.24	252.40	21.13	-42.4	-46.4	11.8	9.25e-04	0	62	0	437256192	56	5689
2026-01-19 11:36:59.25	252.65	21.17	-42.4	-46.5	11.6	6.32e-04	0	62	0	438304768	56	5787
2026-01-19 11:37:00.26	252.90	21.21	-42.4	-46.5	11.7	5.36e-04	0	62	0	440401920	56	5737
2026-01-19 11:37:01.27	253.16	21.25	-42.5	-46.7	11.4	8.60e-04	0	62	0	442499072	56	5917
2026-01-19 11:37:02.28	253.41	21.29	-42.5	-46.8	11.4	9.00e-04	0	62	0	444596224	56	5930
2026-01-19 11:37:03.28	253.66	21.33	-42.5	-46.6	11.5	1.01e-03	0	62	0	446693376	56	5838
2026-01-19 11:37:04.29	253.92	21.37	-42.5	-46.6	11.5	8.02e-04	0	62	0	447741952	56	5821
2026-01-19 11:37:05.30	254.17	21.41	-42.4	-46.5	11.6	6.31e-04	0	62	0	449839104	56	5780
2026-01-19 11:37:06.31	254.43	21.45	-42.4	-46.5	11.6	6.87e-04	0	62	0	451936256	56	5787
2026-01-19 11:37:07.32	254.68	21.49	-42.4	-46.6	11.6	9.96e-04	0	62	0	454033408	56	5816
2026-01-19 11:37:08.33	254.94	21.52	-42.7	-47.1	11.0	1.43e-03	0	62	0	456130560	56	6167
2026-01-19 11:37:09.34	255.20	21.56	-42.7	-47.2	10.9	1.97e-03	0	62	0	457179136	56	6250
2026-01-19 11:37:10.35	255.46	21.59	-42.7	-47.1	11.0	1.81e-03	0	62	0	459276288	56	6151
2026-01-19 11:37:11.36	255.71	21.63	-42.5	-46.8	11.3	1.26e-03	0	62	0	461373440	56	5943
2026-01-19 11:37:12.37	255.97	21.66	-42.2	-46.2	12.0	4.87e-04	0	62	0	463470592	56	5531
2026-01-19 11:37:13.38	256.23	21.70	-42.0	-45.7	12.5	1.37e-04	0	62	0	465567744	56	5220
2026-01-19 11:37:14.39	256.49	21.73	-41.9	-45.5	12.5	1.29e-04	0	62	0	466616320	55	5456
2026-01-19 11:37:15.40	256.75	21.77	-42.0	-45.8	12.2	1.93e-04	0	62	0	468713472	55	5627
2026-01-19 11:37:16.41	257.02	21.80	-42.1	-46.0	12.0	2.73e-04	0	62	0	470810624	55	5745
2026-01-19 11:37:17.42	257.28	21.83	-42.2	-46.2	11.8	3.81e-04	0	62	0	472907776	55	5901
2026-01-19 11:37:18.43	257.54	21.86	-42.1	-45.9	12.0	3.30e-04	0	62	0	475004928	55	5712
2026-01-19 11:37:19.44	257.80	21.89	-42.1	-46.1	11.9	4.19e-04	0	62	0	477102080	55	5793
2026-01-19 11:37:20.45	258.07	21.92	-42.0	-45.8	12.1	3.37e-04	0	62	0	478150656	55	5647
2026-01-19 11:37:21.46	258.33	21.95	-42.1	-45.9	12.1	2.39e-04	0	62	0	480247808	55	5714
2026-01-19 11:37:22.47	258.59	21.98	-42.0	-45.7	12.2	1.98e-04	0	62	0	482344960	55	5580
2026-01-19 11:37:23.48	258.86	22.01	-41.9	-45.7	12.3	2.07e-04	0	62	0	484442112	55	5553
2026-01-19 11:37:24.49	259.13	22.04	-41.9	-45.7	12.4	1.65e-04	0	62	0	486539264	55	5541
2026-01-19 11:37:25.50	259.39	22.07	-41.8	-45.4	12.6	1.36e-04	0	62	0	487587840	55	5359
2026-01-19 11:37:26.51	259.66	22.09	-41.8	-45.5	12.5	1.23e-04	0	62	0	489684992	55	5408
2026-01-19 11:37:27.52	259.92	22.12	-41.9	-45.7	12.3	9.84e-05	0	62	0	491782144	55	5560
2026-01-19 11:37:28.53	260.19	22.14	-42.0	-45.8	12.2	1.78e-04	0	62	0	493879296	55	5602
2026-01-19 11:37:29.54	260.46	22.17	-42.0	-45.9	12.2	2.41e-04	0	62	0	495976448	55	5659
2026-01-19 11:37:30.55	260.73	22.19	-42.0	-45.9	12.1	2.64e-04	0	62	0	497025024	55	5707
2026-01-19 11:37:31.56	261.00	22.22	-41.9	-45.7	12.3	1.71e-04	0	62	0	499122176	55	5541
2026-01-19 11:37:32.57	261.26	22.24	-42.0	-45.8	12.2	2.36e-04	0	62	0	501219328	55	5640
2026-01-19 11:37:33.58	261.53	22.26	-42.1	-46.0	12.0	2.75e-04	0	62	0	503316480	55	5776
2026-01-19 11:37:34.59	261.80	22.28	-42.2	-46.2	11.8	3.54e-04	0	62	0	505413632	55	5887
2026-01-19 11:37:35.60	262.07	22.31	-42.4	-46.6	11.4	7.68e-04	0	62	0	506462208	55	6169
2026-01-19 11:37:36.61	262.34	22.33	-42.4	-46.7	11.2	1.04e-03	0	62	0	508559360	55	6265
2026-01-19 11:37:37.62	262.61	22.35	-42.3	-46.5	11.5	1.10e-03	0	62	0	510656512	55	6113
2026-01-19 11:37:38.63	262.88	22.37	-42.2	-46.3	11.6	8.49e-04	0	62	0	512753664	55	5931
2026-01-19 11:37:39.64	263.16	22.38	-42.1	-46.0	12.0	3.81e-04	0	62	0	514850816	55	5730
2026-01-19 11:37:40.65	263.43	22.40	-42.2	-46.2	11.8	3.62e-04	0	62	0	515899392	55	5885
2026-01-19 11:37:41.66	263.70	22.42	-42.3	-46.5	11.5	7.08e-04	0	62	0	517996544	55	6074
2026-01-19 11:37:42.67	263.97	22.44	-42.4	-46.6	11.4	8.83e-04	0	62	0	520093696	55	6156
2026-01-19 11:37:43.68	264.24	22.45	-42.4	-46.6	11.3	1.12e-03	0	62	0	522190848	55	6162
2026-01-19 11:37:44.69	264.52	22.47	-42.2	-46.1	11.8	4.84e-04	0	62	0	524288000	55	5839
2026-01-19 11:37:45.70	264.79	22.48	-41.9	-45.6	12.4	2.72e-04	0	62	0	525336576	55	5505
2026-01-19 11:37:46.71	265.06	22.50	-41.8	-45.4	12.6	1.46e-04	0	62	0	527433728	55	5398
2026-01-19 11:37:47.71	265.33	22.51	-41.9	-45.5	12.5	1.29e-04	0	62	0	529530880	55	5460
2026-01-19 11:37:48.72	265.61	22.52	-42.1	-46.0	12.0	2.16e-04	0	62	0	531628032	55	5783
2026-01-19 11:37:49.73	265.88	22.54	-42.2	-46.4	11.6	4.75e-04	0	62	0	533725184	55	5996
2026-01-19 11:37:50.74	266.16	22.55	-42.4	-46.7	11.2	8.11e-04	0	62	0	534773760	55	6222
2026-01-19 11:37:51.75	266.43	22.56	-42.3	-46.5	11.4	1.00e-03	0	62	0	536870912	55	6107
2026-01-19 11:37:52.76	266.70	22.57	-42.1	-46.1	11.9	5.80e-04	0	62	0	538968064	55	5805
2026-01-19 11:37:53.77	266.98	22.58	-42.1	-46.0	12.0	3.11e-04	0	62	0	541065216	55	5785
2026-01-19 11:37:54.78	267.25	22.59	-42.0	-45.8	12.2	2.13e-04	0	62	0	543162368	55	5601
2026-01-19 11:37:55.79	267.53	22.60	-42.0	-45.9	12.1	2.59e-04	0	62	0	545259520	55	5671
2026-01-19 11:37:56.80	267.80	22.60	-42.2	-46.2	11.8	3.55e-04	0	62	0	546308096	55	5897
2026-01-19 11:37:57.81	268.08	22.61	-42.2	-46.2	11.7	4.78e-04	0	62	0	548405248	55	5911
2026-01-19 11:37:58.82	268.35	22.62	-42.1	-46.0	12.0	5.31e-04	0	62	0	550502400	55	5729
2026-01-19 11:37:59.83	268.63	22.62	-42.0	-45.8	12.2	2.65e-04	0	62	0	552599552	55	5611
2026-01-19 11:38:00.84	268.90	22.63	-42.0	-45.7	12.2	1.58e-04	0	62	0	554696704	55	5564
2026-01-19 11:38:01.84	269.18	22.63	-42.0	-45.8	12.3	2.27e-04	0	62	0	555745280	55	5597
2026-01-19 11:38:02.85	269.45	22.64	-42.1	-46.1	12.0	3.11e-04	0	62	0	557842432	55	5804
2026-01-19 11:38:03.86	269.73	22.64	-42.2	-46.3	11.7	4.11e-04	0	62	0	559939584	55	5941
2026-01-19 11:38:04.87	270.00	22.64	-42.2	-46.2	11.8	4.54e-04	0	62	0	562036736	55	5903
2026-01-19 11:38:05.88	270.28	22.64	-42.1	-46.0	12.0	4.01e-04	0	62	0	564133888	55	5770
2026-01-19 11:38:06.89	270.56	22.64	-42.0	-45.8	12.2	2.94e-04	0	62	0	565182464	55	5630
2026-01-19 11:38:07.90	270.83	22.64	-42.0	-45.9	12.1	2.24e-04	0	62	0	567279616	55	5667
2026-01-19 11:38:08.91	271.11	22.64	-42.2	-46.3	11.6	4.42e-04	0	62	0	569376768	55	5978
2026-01-19 11:38:09.92	271.38	22.64	-42.4	-46.6	11.3	8.90e-04	0	62	0	571473920	55	6195
2026-01-19 11:38:10.93	271.66	22.64	-42.5	-46.9	11.1	1.42e-03	0	62	0	573571072	55	6351
2026-01-19 11:38:11.94	271.93	22.64	-42.6	-47.0	10.9	1.81e-03	0	62	0	574619648	55	6472
2026-01-19 11:38:12.95	272.21	22.64	-42.5	-46.9	11.0	1.49e-03	0	62	0	576716800	55	6406
2026-01-19 11:38:13.96	272.48	22.63	-42.4	-46.8	11.2	1.14e-03	0	62	0	578813952	55	6293
2026-01-19 11:38:14.97	272.76	22.63	-42.4	-46.6	11.3	1.34e-03	0	62	0	580911104	55	6200
2026-01-19 11:38:15.98	273.04	22.62	-42.3	-46.5	11.4	1.33e-03	0	62	0	583008256	55	6079
2026-01-19 11:38:16.99	273.31	22.62	-42.2	-46.3	11.7	6.98e-04	0	62	0	584056832	55	5963
2026-01-19 11:38:18.00	273.59	22.61	-42.2	-46.1	11.9	4.63e-04	0	62	0	586153984	55	5828
2026-01-19 11:38:19.00	273.86	22.60	-42.0	-45.9	12.1	3.33e-04	0	62	0	588251136	55	5676
2026-01-19 11:38:20.01	274.13	22.60	-42.0	-45.9	12.1	3.45e-04	0	62	0	590348288	55	5690
2026-01-19 11:38:21.02	274.41	22.59	-42.1	-46.0	12.0	3.57e-04	0	62	0	592445440	55	5738
2026-01-19 11:38:22.03	274.68	22.58	-42.2	-46.2	11.7	4.99e-04	0	62	0	593494016	55	5883
2026-01-19 11:38:23.04	274.96	22.57	-42.1	-46.1	11.9	5.48e-04	0	62	0	595591168	55	5819
2026-01-19 11:38:24.05	275.23	22.56	-42.2	-46.2	11.8	5.11e-04	0	62	0	597688320	55	5886
2026-01-19 11:38:25.06	275.50	22.55	-42.1	-46.1	11.9	4.55e-04	0	62	0	599785472	55	5810
2026-01-19 11:38:26.07	275.78	22.53	-42.1	-45.9	12.0	4.24e-04	0	62	0	601882624	55	5699
2026-01-19 11:38:27.08	276.05	22.52	-42.1	-45.9	12.0	2.74e-04	0	62	0	602931200	55	5720
2026-01-19 11:38:28.09	276.32	22.51	-42.0	-45.7	12.3	2.11e-04	0	62	0	605028352	55	5582
2026-01-19 11:38:29.10	276.60	22.50	-41.9	-45.6	12.3	2.09e-04	0	62	0	607125504	55	5528
2026-01-19 11:38:30.11	276.87	22.48	-41.8	-45.5	12.5	1.02e-04	0	62	0	609222656	55	5405
2026-01-19 11:38:31.12	277.14	22.47	-41.7	-45.3	12.7	9.07e-05	0	62	0	611319808	55	5317
2026-01-19 11:38:32.13	277.42	22.45	-41.7	-45.3	12.7	8.01e-05	0	62	0	613416960	55	5306
2026-01-19 11:38:33.14	277.69	22.43	-41.8	-45.4	12.6	9.68e-05	0	62	0	614465536	55	5349
2026-01-19 11:38:34.15	277.96	22.42	-41.7	-45.2	12.8	7.47e-05	0	62	0	616562688	55	5221
2026-01-19 11:38:35.16	278.23	22.40	-41.8	-45.4	12.6	8.16e-05	0	62	0	618659840	55	5371
2026-01-19 11:38:36.17	278.50	22.38	-41.8	-45.4	12.6	1.01e-04	0	62	0	620756992	55	5391
2026-01-19 11:38:37.18	278.77	22.36	-41.8	-45.5	12.5	1.05e-04	0	62	0	622854144	55	5447
2026-01-19 11:38:38.19	279.04	22.34	-41.9	-45.7	12.3	1.40e-04	0	62	0	623902720	55	5529
2026-01-19 11:38:39.20	279.31	22.32	-42.0	-45.7	12.2	2.02e-04	0	62	0	625999872	55	5586
2026-01-19 11:38:40.21	279.58	22.30	-41.9	-45.6	12.4	1.89e-04	0	62	0	628097024	55	5489
2026-01-19 11:38:41.22	279.85	22.28	-41.8	-45.5	12.5	1.31e-04	0	62	0	630194176	55	5409
2026-01-19 11:38:42.23	280.12	22.26	-41.7	-45.3	12.6	1.16e-04	0	62	0	632291328	55	5315
2026-01-19 11:38:43.24	280.39	22.24	-41.7	-45.3	12.6	6.94e-05	0	62	0	633339904	55	5335
2026-01-19 11:38:44.25	280.66	22.21	-41.9	-45.6	12.4	1.20e-04	0	62	0	635437056	55	5500
2026-01-19 11:38:45.25	280.92	22.19	-42.0	-45.9	12.1	1.85e-04	0	62	0	637534208	55	5667
2026-01-19 11:38:46.26	281.19	22.17	-42.1	-46.0	11.9	3.03e-04	0	62	0	639631360	55	5785
2026-01-19 11:38:47.27	281.46	22.14	-42.0	-45.9	12.0	3.08e-04	0	62	0	641728512	55	5679
2026-01-19 11:38:48.28	281.72	22.11	-41.9	-45.7	12.2	2.33e-04	0	62	0	642777088	55	5567
2026-01-19 11:38:49.29	281.99	22.09	-41.9	-45.6	12.4	1.93e-04	0	62	0	644874240	55	5468
2026-01-19 11:38:50.30	282.26	22.06	-41.8	-45.4	12.6	1.68e-04	0	62	0	646971392	55	5351
2026-01-19 11:38:51.31	282.52	22.03	-42.0	-45.8	12.2	1.96e-04	0	62	0	649068544	55	5610
2026-01-19 11:38:52.32	282.79	22.01	-42.1	-46.0	11.9	2.99e-04	0	62	0	651165696	55	5775
2026-01-19 11:38:53.33	283.05	21.98	-42.2	-46.4	11.6	5.67e-04	0	62	0	652214272	55	5999
2026-01-19 11:38:54.34	283.31	21.95	-42.2	-46.3	11.6	8.25e-04	0	62	0	654311424	55	5992
2026-01-19 11:38:55.35	283.58	21.92	-42.2	-46.3	11.6	8.49e-04	0	62	0	656408576	55	5946
2026-01-19 11:38:56.36	283.84	21.89	-42.0	-45.9	12.0	4.49e-04	0	62	0	658505728	55	5721
2026-01-19 11:38:57.37	284.10	21.86	-41.9	-45.6	12.4	2.72e-04	0	62	0	660602880	55	5491
2026-01-19 11:38:58.38	284.36	21.83	-41.7	-45.2	12.8	1.19e-04	0	62	0	661651456	55	5258
2026-01-19 11:38:59.39	284.63	21.79	-41.7	-45.2	12.7	7.24e-05	0	62	0	663748608	55	5269
2026-01-19 11:39:00.39	284.88	21.76	-41.8	-45.4	12.5	9.91e-05	0	62	0	665845760	55	5371
2026-01-19 11:39:01.40	285.14	21.73	-41.8	-45.4	12.5	1.25e-04	0	62	0	667942912	55	5395
2026-01-19 11:39:02.41	285.40	21.70	-41.9	-45.6	12.3	1.16e-04	0	62	0	670040064	55	5502
2026-01-19 11:39:03.42	285.66	21.66	-41.8	-45.4	12.6	1.60e-04	0	62	0	671088640	55	5362
2026-01-19 11:39:04.43	285.92	21.63	-41.7	-45.3	12.7	9.68e-05	0	62	0	673185792	55	5284
2026-01-19 11:39:05.44	286.18	21.59	-41.7	-45.2	12.8	7.85e-05	0	62	0	675282944	55	5243
2026-01-19 11:39:06.45	286.44	21.56	-41.5	-45.0	13.0	4.73e-05	0	62	0	677380096	55	5104
2026-01-19 11:39:07.46	286.69	21.52	-41.5	-44.9	13.1	3.35e-05	0	62	0	679477248	55	5077
2026-01-19 11:39:08.47	286.95	21.48	-41.5	-45.0	13.0	4.65e-05	0	62	0	681574400	55	5114
2026-01-19 11:39:09.48	287.20	21.44	-41.6	-45.1	12.8	5.72e-05	0	62	0	682622976	55	5186
2026-01-19 11:39:10.49	287.46	21.41	-41.7	-45.2	12.7	1.01e-04	0	62	0	684720128	55	5278
2026-01-19 11:39:11.50	287.71	21.37	-41.8	-45.5	12.5	9.99e-05	0	62	0	686817280	55	5408
2026-01-19 11:39:12.51	287.97	21.33	-41.7	-45.4	12.6	1.23e-04	0	62	0	688914432	55	5346
2026-01-19 11:39:13.52	288.22	21.29	-41.7	-45.4	12.7	1.33e-04	0	62	0	691011584	55	5342
2026-01-19 11:39:14.53	288.47	21.25	-41.6	-45.1	12.8	7.24e-05	0	62	0	692060160	55	5206
2026-01-19 11:39:15.54	288.72	21.21	-41.7	-45.2	12.7	6.86e-05	0	62	0	694157312	55	5262
2026-01-19 11:39:16.55	288.97	21.17	-41.6	-45.1	12.9	5.56e-05	0	62	0	696254464	55	5171
2026-01-19 11:39:17.56	289.22	21.13	-41.7	-45.4	12.6	7.32e-05	0	62	0	698351616	55	5346
2026-01-19 11:39:18.57	289.47	21.09	-41.8	-45.5	12.4	1.13e-04	0	62	0	700448768	55	5420
2026-01-19 11:39:19.58	289.72	21.04	-41.9	-45.6	12.2	1.85e-04	0	62	0	701497344	55	5527
2026-01-19 11:39:20.59	289.97	21.00	-41.9	-45.8	12.2	2.46e-04	0	62	0	703594496	55	5597
2026-01-19 11:39:21.60	290.22	20.96	-42.0	-45.8	12.1	2.84e-04	0	62	0	705691648	55	5649
2026-01-19 11:39:22.61	290.47	20.91	-41.9	-45.7	12.2	2.13e-04	0	62	0	707788800	55	5554
2026-01-19 11:39:23.62	290.71	20.87	-41.8	-45.6	12.3	1.66e-04	0	62	0	709885952	55	5493
2026-01-19 11:39:24.63	290.96	20.83	-41.8	-45.5	12.4	1.20e-04	0	62	0	710934528	55	5433
2026-01-19 11:39:25.64	291.20	20.78	-41.7	-45.3	12.7	8.77e-05	0	62	0	713031680	55	5281
2026-01-19 11:39:26.65	291.45	20.74	-41.6	-45.1	12.8	7.78e-05	0	62	0	715128832	55	5218
2026-01-19 11:39:27.66	291.69	20.69	-41.6	-45.1	12.9	6.48e-05	0	62	0	717225984	55	5178
2026-01-19 11:39:28.66	291.93	20.64	-41.6	-45.2	12.8	6.17e-05	0	62	0	719323136	55	5224
2026-01-19 11:39:29.67	292.17	20.60	-41.5	-44.8	13.1	2.97e-05	0	62	0	720371712	54	5338
2026-01-19 11:39:30.68	292.41	20.55	-41.5	-45.0	12.9	2.13e-05	0	62	0	722468864	54	5444
2026-01-19 11:39:31.69	292.65	20.50	-41.5	-44.9	13.1	3.73e-05	0	62	0	724566016	54	5357
2026-01-19 11:39:32.70	292.89	20.45	-41.6	-45.1	12.8	3.73e-05	0	62	0	726663168	54	5489
2026-01-19 11:39:33.71	293.13	20.41	-41.6	-45.1	12.8	5.11e-05	0	62	0	728760320	54	5523
2026-01-19 11:39:34.72	293.37	20.36	-41.6	-45.2	12.8	7.78e-05	0	62	0	729808896	54	5549
2026-01-19 11:39:35.73	293.61	20.31	-41.7	-45.2	12.7	8.31e-05	0	62	0	731906048	54	5585
2026-01-19 11:39:36.74	293.85	20.26	-41.7	-45.3	12.7	7.70e-05	0	62	0	734003200	54	5622
2026-01-19 11:39:37.75	294.08	20.21	-41.7	-45.3	12.6	7.09e-05	0	62	0	736100352	54	5647
2026-01-19 11:39:38.76	294.32	20.16	-41.7	-45.3	12.6	9.99e-05	0	62	0	738197504	54	5626
2026-01-19 11:39:39.77	294.55	20.11	-41.7	-45.3	12.6	7.01e-05	0	62	0	739246080	54	5645
2026-01-19 11:39:40.78	294.79	20.06	-41.8	-45.5	12.4	1.20e-04	0	62	0	741343232	54	5775
2026-01-19 11:39:41.79	295.02	20.01	-41.8	-45.5	12.4	1.26e-04	0	62	0	743440384	54	5782
2026-01-19 11:39:42.80	295.25	19.95	-41.9	-45.8	12.1	2.17e-04	0	62	0	745537536	54	5978
2026-01-19 11:39:43.81	295.48	19.90	-42.1	-46.1	11.7	3.75e-04	0	62	0	747634688	54	6167
2026-01-19 11:39:44.81	295.71	19.85	-42.1	-46.1	11.8	5.71e-04	0	62	0	749731840	54	6153
2026-01-19 11:39:45.82	295.94	19.80	-42.0	-46.0	11.9	3.96e-04	0	62	0	750780416	54	6086
2026-01-19 11:39:46.83	296.17	19.74	-41.9	-45.7	12.2	2.15e-04	0	62	0	752877568	54	5897
2026-01-19 11:39:47.84	296.40	19.69	-41.8	-45.6	12.2	1.92e-04	0	62	0	754974720	54	5846
2026-01-19 11:39:48.85	296.63	19.64	-41.7	-45.3	12.6	1.11e-04	0	62	0	757071872	54	5622
2026-01-19 11:39:49.86	296.85	19.58	-41.6	-45.2	12.7	5.64e-05	0	62	0	759169024	54	5532
2026-01-19 11:39:50.87	297.08	19.53	-41.6	-45.1	12.7	7.24e-05	0	62	0	760217600	54	5509
2026-01-19 11:39:51.88	297.30	19.47	-41.6	-45.2	12.6	6.79e-05	0	62	0	762314752	54	5577
2026-01-19 11:39:52.89	297.53	19.42	-41.7	-45.3	12.6	7.93e-05	0	62	0	764411904	54	5622
2026-01-19 11:39:53.90	297.75	19.36	-41.8	-45.7	12.2	1.30e-04	0	62	0	766509056	54	5860
2026-01-19 11:39:54.91	297.97	19.31	-41.9	-45.7	12.1	2.43e-04	0	62	0	768606208	54	5919
2026-01-19 11:39:55.92	298.20	19.25	-42.1	-46.2	11.6	4.62e-04	0	62	0	769654784	54	6241
2026-01-19 11:39:56.93	298.42	19.20	-42.3	-46.7	11.2	9.67e-04	0	62	0	771751936	55	6208
2026-01-19 11:39:57.94	298.64	19.14	-42.6	-47.2	10.6	3.27e-03	0	62	0	773849088	55	6638
2026-01-19 11:39:58.95	298.86	19.08	-42.7	-47.6	10.1	5.83e-03	0	62	0	775946240	55	6956
2026-01-19 11:39:59.96	299.08	19.03	-42.9	-47.9	10.0	7.95e-03	0	62	0	778043392	56	6797
2026-01-19 11:40:00.97	299.30	18.97	-42.8	-47.6	10.3	7.65e-03	0	62	0	779091968	56	6539
2026-01-19 11:40:01.98	299.51	18.91	-42.8	-47.5	10.4	5.05e-03	0	62	0	781189120	56	6494
2026-01-19 11:40:02.99	299.73	18.85	-42.7	-47.4	10.5	3.56e-03	0	62	0	783286272	56	6374
2026-01-19 11:40:04.00	299.94	18.80	-42.6	-47.2	10.8	3.21e-03	0	62	0	785383424	56	6211
2026-01-19 11:40:05.01	300.16	18.74	-42.6	-47.2	10.8	2.54e-03	0	62	0	787480576	56	6219
2026-01-19 11:40:06.02	300.37	18.68	-42.7	-47.3	10.6	3.20e-03	0	62	0	788529152	56	6321
2026-01-19 11:40:07.03	300.59	18.62	-42.7	-47.3	10.7	3.19e-03	0	62	0	790626304	56	6281
2026-01-19 11:40:08.03	300.80	18.56	-42.7	-47.4	10.5	4.42e-03	0	62	0	792723456	56	6398
2026-01-19 11:40:09.05	301.01	18.50	-42.6	-47.2	10.8	3.86e-03	0	62	0	794820608	56	6215
2026-01-19 11:40:10.05	301.22	18.44	-42.5	-46.8	11.1	2.45e-03	0	62	0	796917760	56	5987
2026-01-19 11:40:11.06	301.43	18.38	-42.4	-46.8	11.2	1.42e-03	0	62	0	797966336	56	5932
2026-01-19 11:40:12.07	301.64	18.32	-42.5	-46.8	11.1	1.35e-03	0	62	0	800063488	56	5964
2026-01-19 11:40:13.08	301.85	18.26	-42.4	-46.7	11.2	9.90e-04	0	62	0	802160640	56	5892
2026-01-19 11:40:14.09	302.05	18.20	-42.3	-46.6	11.3	1.00e-03	0	62	0	804257792	56	5799
2026-01-19 11:40:15.10	302.26	18.14	-42.3	-46.5	11.5	9.86e-04	0	62	0	806354944	56	5762
2026-01-19 11:40:16.11	302.47	18.08	-42.4	-46.7	11.3	1.34e-03	0	62	0	807403520	56	5864
2026-01-19 11:40:17.12	302.67	18.02	-42.4	-46.7	11.2	1.45e-03	0	62	0	809500672	56	5918
2026-01-19 11:40:18.13	302.88	17.96	-42.5	-47.0	10.9	1.75e-03	0	62	0	811597824	56	6113
2026-01-19 11:40:19.14	303.08	17.90	-42.6	-47.3	10.7	2.81e-03	0	62	0	813694976	56	6287
2026-01-19 11:40:20.14	303.28	17.84	-42.8	-47.7	10.2	4.74e-03	0	62	0	815792128	56	6607
2026-01-19 11:40:21.15	303.48	17.77	-42.9	-48.0	10.0	7.76e-03	0	62	0	817889280	56	6822
2026-01-19 11:40:22.16	303.68	17.71	-42.9	-48.0	9.8	1.06e-02	0	62	0	818937856	56	6858
2026-01-19 11:40:23.17	303.88	17.65	-43.1	-48.5	9.4	1.32e-02	0	62	0	821035008	56	7275
2026-01-19 11:40:24.18	304.08	17.59	-43.1	-48.4	9.4	1.42e-02	0	62	0	823132160	56	7177
2026-01-19 11:40:25.19	304.28	17.53	-43.0	-48.2	9.7	1.40e-02	0	62	0	825229312	56	6977
2026-01-19 11:40:26.20	304.48	17.46	-43.0	-48.2	9.7	1.50e-02	0	62	0	826277888	56	6979
2026-01-19 11:40:27.21	304.68	17.40	-42.9	-47.9	9.9	8.57e-03	0	62	0	828375040	56	6796
2026-01-19 11:40:28.22	304.87	17.34	-42.9	-47.9	10.0	8.40e-03	0	62	0	830472192	56	6757
2026-01-19 11:40:29.23	305.07	17.27	-42.7	-47.5	10.4	5.26e-03	0	62	0	832569344	56	6475
2026-01-19 11:40:30.24	305.26	17.21	-42.8	-47.6	10.3	4.01e-03	0	62	0	834666496	56	6523
2026-01-19 11:40:31.24	305.45	17.15	-42.7	-47.5	10.4	4.56e-03	0	62	0	835715072	56	6477
2026-01-19 11:40:32.26	305.65	17.08	-42.8	-47.7	10.2	5.14e-03	0	62	0	837812224	56	6590
2026-01-19 11:40:33.27	305.84	17.02	-42.8	-47.7	10.1	5.90e-03	0	62	0	839909376	56	6600
2026-01-19 11:40:34.28	306.03	16.96	-42.8	-47.7	10.2	7.91e-03	0	62	0	842006528	56	6607
2026-01-19 11:40:35.29	306.22	16.89	-42.9	-48.0	9.8	7.93e-03	0	62	0	844103680	56	6857
2026-01-19 11:40:36.30	306.41	16.83	-42.8	-47.7	10.1	7.04e-03	0	62	0	846200832	56	6601
2026-01-19 11:40:37.31	306.60	16.76	-42.8	-47.6	10.3	5.58e-03	0	62	0	847249408	56	6517
2026-01-19 11:40:38.32	306.79	16.70	-42.7	-47.4	10.5	4.93e-03	0	62	0	849346560	56	6356
2026-01-19 11:40:39.33	306.98	16.64	-42.5	-47.0	10.8	2.73e-03	0	62	0	851443712	56	6114
2026-01-19 11:40:40.34	307.16	16.57	-42.4	-46.9	11.0	2.09e-03	0	62	0	853540864	56	5999
2026-01-19 11:40:41.34	307.35	16.51	-42.4	-46.7	11.2	1.46e-03	0	62	0	855638016	56	5903
2026-01-19 11:40:42.35	307.53	16.44	-42.4	-46.7	11.2	1.25e-03	0	62	0	856686592	56	5881
2026-01-19 11:40:43.37	307.72	16.38	-42.5	-46.9	10.9	2.11e-03	0	62	0	858783744	56	6046
2026-01-19 11:40:44.37	307.90	16.31	-42.4	-46.8	11.1	1.73e-03	0	62	0	860880896	56	5956
2026-01-19 11:40:45.39	308.09	16.25	-42.5	-46.9	11.0	1.84e-03	0	62	0	862978048	56	6027
2026-01-19 11:40:46.39	308.27	16.18	-42.4	-46.8	11.1	2.31e-03	0	62	0	865075200	56	5951
2026-01-19 11:40:47.40	308.45	16.12	-42.4	-46.8	11.1	1.48e-03	0	62	0	866123776	56	5937
2026-01-19 11:40:48.41	308.63	16.05	-42.4	-46.8	11.1	1.65e-03	0	62	0	868220928	56	5942
2026-01-19 11:40:49.42	308.81	15.99	-42.4	-46.8	11.1	1.77e-03	0	62	0	870318080	56	5928
2026-01-19 11:40:50.43	308.99	15.92	-42.5	-47.0	10.9	1.98e-03	0	62	0	872415232	56	6085
2026-01-19 11:40:51.44	309.16	15.85	-42.6	-47.2	10.6	2.82e-03	0	62	0	874512384	56	6238
2026-01-19 11:40:52.45	309.34	15.79	-42.6	-47.4	10.4	4.22e-03	0	62	0	875560960	56	6373
2026-01-19 11:40:53.46	309.52	15.72	-42.8	-47.8	10.1	6.29e-03	0	62	0	877658112	56	6675
2026-01-19 11:40:54.46	309.69	15.66	-42.9	-48.0	9.8	7.08e-03	0	62	0	879755264	56	6812
2026-01-19 11:40:55.47	309.87	15.59	-42.8	-47.9	9.9	8.21e-03	0	62	0	881852416	56	6728
2026-01-19 11:40:56.48	310.04	15.53	-42.6	-47.4	10.4	4.04e-03	0	62	0	883949568	56	6374
2026-01-19 11:40:57.49	310.22	15.46	-42.6	-47.2	10.6	3.39e-03	0	62	0	886046720	56	6270
2026-01-19 11:40:58.50	310.39	15.39	-42.4	-46.8	11.0	2.60e-03	0	62	0	887095296	56	5983
2026-01-19 11:40:59.51	310.56	15.33	-42.3	-46.5	11.3	1.14e-03	0	62	0	889192448	56	5774
2026-01-19 11:41:00.52	310.73	15.26	-42.3	-46.6	11.3	1.36e-03	0	62	0	891289600	56	5806
2026-01-19 11:41:01.53	310.90	15.19	-42.3	-46.7	11.2	1.30e-03	0	62	0	893386752	56	5884
2026-01-19 11:41:02.54	311.07	15.13	-42.4	-46.9	11.0	1.32e-03	0	62	0	894435328	56	6007
2026-01-19 11:41:03.55	311.24	15.06	-42.6	-47.2	10.6	2.86e-03	0	62	0	896532480	56	6213
2026-01-19 11:41:04.56	311.41	15.00	-42.5	-47.1	10.7	3.08e-03	0	62	0	898629632	56	6178
2026-01-19 11:41:05.56	311.58	14.93	-42.6	-47.3	10.5	3.93e-03	0	62	0	900726784	56	6335
2026-01-19 11:41:06.57	311.74	14.86	-42.6	-47.4	10.4	4.34e-03	0	62	0	902823936	56	6406
2026-01-19 11:41:07.59	311.91	14.80	-42.5	-47.0	10.8	2.56e-03	0	62	0	903872512	56	6114
2026-01-19 11:41:08.59	312.08	14.73	-42.4	-46.9	10.9	2.37e-03	0	62	0	905969664	56	6010
2026-01-19 11:41:09.60	312.24	14.66	-42.3	-46.5	11.2	1.58e-03	0	62	0	908066816	56	5781
2026-01-19 11:41:10.61	312.40	14.60	-42.2	-46.4	11.4	1.16e-03	0	62	0	910163968	56	5722
2026-01-19 11:41:11.62	312.57	14.53	-42.2	-46.4	11.4	1.05e-03	0	62	0	912261120	56	5722
2026-01-19 11:41:12.63	312.73	14.46	-42.3	-46.7	11.2	1.36e-03	0	62	0	914358272	56	5870
2026-01-19 11:41:13.64	312.89	14.40	-42.4	-46.9	11.0	1.63e-03	0	62	0	915406848	56	6013
2026-01-19 11:41:14.65	313.05	14.33	-42.6	-47.3	10.5	2.74e-03	0	62	0	917504000	56	6288
2026-01-19 11:41:15.66	313.21	14.26	-42.7	-47.6	10.1	5.16e-03	0	62	0	919601152	56	6567
2026-01-19 11:41:16.67	313.37	14.20	-42.7	-47.7	10.0	6.92e-03	0	62	0	921698304	56	6635
2026-01-19 11:41:17.68	313.53	14.13	-42.8	-47.9	9.9	9.10e-03	0	62	0	923795456	56	6733
2026-01-19 11:41:18.69	313.69	14.06	-42.7	-47.7	10.1	8.10e-03	0	62	0	924844032	56	6596
2026-01-19 11:41:19.70	313.85	14.00	-42.6	-47.3	10.5	4.63e-03	0	62	0	926941184	56	6290
2026-01-19 11:41:20.71	314.01	13.93	-42.5	-47.1	10.7	3.41e-03	0	62	0	929038336	56	6156
2026-01-19 11:41:21.72	314.16	13.86	-42.2	-46.5	11.3	1.74e-03	0	62	0	931135488	56	5752
2026-01-19 11:41:22.73	314.32	13.79	-42.2	-46.4	11.4	9.48e-04	0	62	0	933232640	56	5689
2026-01-19 11:41:23.74	314.47	13.73	-42.1	-46.1	11.6	7.25e-04	0	62	0	934281216	56	5515
2026-01-19 11:41:24.74	314.63	13.66	-41.8	-45.7	12.0	4.23e-04	0	62	0	936378368	55	5537
2026-01-19 11:41:25.75	314.78	13.59	-41.8	-45.7	11.9	3.98e-04	0	62	0	938475520	55	5581
2026-01-19 11:41:26.76	314.93	13.53	-41.7	-45.6	12.0	3.59e-04	0	62	0	940572672	55	5501
2026-01-19 11:41:27.77	315.09	13.46	-41.8	-45.7	11.9	3.49e-04	0	62	0	942669824	55	5551
2026-01-19 11:41:28.78	315.24	13.39	-41.9	-45.8	11.8	4.54e-04	0	62	0	943718400	55	5649
2026-01-19 11:41:29.79	315.39	13.33	-41.7	-45.6	12.0	3.24e-04	0	62	0	945815552	55	5514
2026-01-19 11:41:30.80	315.54	13.26	-41.7	-45.7	12.0	3.30e-04	0	62	0	947912704	55	5540
2026-01-19 11:41:31.81	315.69	13.19	-41.6	-45.4	12.2	3.33e-04	0	62	0	950009856	55	5347
2026-01-19 11:41:32.82	315.84	13.13	-41.6	-45.4	12.2	1.96e-04	0	62	0	952107008	55	5353
2026-01-19 11:41:33.83	315.99	13.06	-41.6	-45.4	12.2	2.29e-04	0	62	0	953155584	55	5400
2026-01-19 11:41:34.84	316.13	12.99	-41.7	-45.5	12.1	2.90e-04	0	62	0	955252736	55	5453
2026-01-19 11:41:35.85	316.28	12.93	-41.7	-45.7	11.9	3.60e-04	0	62	0	957349888	55	5549
2026-01-19 11:41:36.86	316.43	12.86	-41.9	-46.0	11.6	6.35e-04	0	62	0	959447040	55	5774
2026-01-19 11:41:37.87	316.57	12.79	-42.0	-46.3	11.2	7.99e-04	0	62	0	961544192	55	5984
2026-01-19 11:41:38.88	316.72	12.73	-42.2	-46.7	10.8	2.09e-03	0	62	0	962592768	55	6258
2026-01-19 11:41:39.89	316.86	12.66	-42.3	-46.9	10.6	3.23e-03	0	62	0	964689920	55	6383
2026-01-19 11:41:40.90	317.01	12.59	-42.4	-47.2	10.3	3.54e-03	0	62	0	966787072	55	6580
2026-01-19 11:41:41.91	317.15	12.53	-42.3	-47.1	10.4	4.55e-03	0	62	0	968884224	55	6500
2026-01-19 11:41:42.92	317.29	12.46	-42.3	-47.0	10.5	3.61e-03	0	62	0	970981376	55	6482
2026-01-19 11:41:43.92	317.43	12.39	-42.3	-46.9	10.6	3.46e-03	0	62	0	972029952	55	6413
2026-01-19 11:41:44.93	317.57	12.33	-42.3	-46.9	10.6	3.79e-03	0	62	0	974127104	55	6396
2026-01-19 11:41:45.94	317.71	12.26	-42.2	-46.8	10.6	3.07e-03	0	62	0	976224256	55	6329
2026-01-19 11:41:46.95	317.85	12.19	-42.3	-46.9	10.6	2.95e-03	0	62	0	978321408	55	6371
2026-01-19 11:41:47.96	317.99	12.13	-42.3	-47.0	10.5	3.45e-03	0	62	0	980418560	55	6431
2026-01-19 11:41:48.97	318.13	12.06	-42.4	-47.2	10.3	3.79e-03	0	62	0	982515712	55	6574
2026-01-19 11:41:49.98	318.27	11.99	-42.4	-47.1	10.3	3.76e-03	0	62	0	983564288	55	6555
2026-01-19 11:41:50.99	318.41	11.93	-42.4	-47.1	10.3	4.80e-03	0	62	0	985661440	55	6564
2026-01-19 11:41:52.00	318.55	11.86	-42.4	-47.3	10.2	6.66e-03	0	62	0	987758592	55	6666
2026-01-19 11:41:53.01	318.68	11.79	-42.3	-47.0	10.4	6.89e-03	0	62	0	989855744	55	6485
2026-01-19 11:41:54.02	318.82	11.73	-42.3	-47.1	10.3	5.82e-03	0	62	0	991952896	55	6550
2026-01-19 11:41:55.03	318.95	11.66	-42.3	-47.0	10.5	4.40e-03	0	62	0	993001472	55	6437
2026-01-19 11:41:56.04	319.09	11.60	-42.2	-46.8	10.6	3.50e-03	0	62	0	995098624	55	6318
2026-01-19 11:41:57.04	319.22	11.53	-42.1	-46.6	10.9	3.34e-03	0	62	0	997195776	55	6133
2026-01-19 11:41:58.06	319.36	11.46	-41.9	-46.3	11.2	1.43e-03	0	62	0	999292928	55	5944
2026-01-19 11:41:59.07	319.49	11.40	-41.8	-46.0	11.5	1.02e-03	0	62	0	1001390080	55	5749
2026-01-19 11:42:00.08	319.62	11.33	-41.8	-46.0	11.5	7.76e-04	0	62	0	1002438656	55	5732
2026-01-19 11:42:01.09	319.75	11.26	-41.8	-45.9	11.6	7.46e-04	0	62	0	1004535808	55	5705
2026-01-19 11:42:02.10	319.88	11.20	-41.9	-46.0	11.5	8.92e-04	0	62	0	1006632960	55	5775
2026-01-19 11:42:03.11	320.02	11.13	-41.9	-46.1	11.4	8.66e-04	0	62	0	1008730112	55	5821
2026-01-19 11:42:04.12	320.15	11.07	-41.9	-46.2	11.2	1.04e-03	0	62	0	1010827264	55	5895
2026-01-19 11:42:05.13	320.28	11.00	-42.0	-46.4	11.1	1.36e-03	0	62	0	1011875840	55	6011
2026-01-19 11:42:06.14	320.40	10.94	-42.0	-46.5	11.0	1.79e-03	0	62	0	1013972992	55	6077
2026-01-19 11:42:07.15	320.53	10.87	-41.9	-46.4	11.1	1.90e-03	0	62	0	1016070144	55	6026
2026-01-19 11:42:08.16	320.66	10.80	-41.8	-46.5	10.9	1.85e-03	0	62	0	1018167296	55	6118
2026-01-19 11:42:09.17	320.79	10.74	-41.7	-46.5	10.9	2.19e-03	0	62	0	1020264448	55	6121
2026-01-19 11:42:10.18	320.91	10.67	-41.6	-46.6	10.8	2.56e-03	0	62	0	1021313024	55	6184
2026-01-19 11:42:11.19	321.04	10.61	-41.7	-46.7	10.7	2.88e-03	0	62	0	1023410176	55	6228
2026-01-19 11:42:12.19	321.17	10.54	-41.8	-46.7	10.7	3.08e-03	0	62	0	1025507328	55	6221
2026-01-19 11:42:13.20	321.29	10.48	-42.0	-46.7	10.7	3.62e-03	0	62	0	1027604480	55	6254
2026-01-19 11:42:14.21	321.42	10.41	-42.1	-46.9	10.5	3.51e-03	0	62	0	1029701632	55	6383
2026-01-19 11:42:15.22	321.54	10.35	-42.2	-47.1	10.3	4.78e-03	0	62	0	1030750208	55	6504
2026-01-19 11:42:16.23	321.66	10.28	-42.2	-47.2	10.1	5.93e-03	0	62	0	1032847360	55	6601
2026-01-19 11:42:17.24	321.79	10.22	-42.3	-47.4	9.9	6.86e-03	0	62	0	1034944512	55	6767
2026-01-19 11:42:18.25	321.91	10.15	-42.3	-47.7	9.6	1.05e-02	0	62	0	1037041664	55	7026
2026-01-19 11:42:19.26	322.03	10.09	-42.3	-47.8	9.5	1.42e-02	0	62	0	1039138816	55	7067
2026-01-19 11:42:20.27	322.15	10.02	-42.3	-47.8	9.5	1.50e-02	0	62	0	1040187392	55	7065
2026-01-19 11:42:21.28	322.27	9.96	-42.3	-47.7	9.6	1.47e-02	0	62	0	1042284544	55	7008
2026-01-19 11:42:22.29	322.39	9.89	-42.3	-47.5	9.8	1.26e-02	0	62	0	1044381696	55	6808
2026-01-19 11:42:23.30	322.51	9.83	-42.3	-47.3	10.0	1.05e-02	0	62	0	1046478848	55	6683
2026-01-19 11:42:24.31	322.63	9.76	-42.2	-47.1	10.2	6.59e-03	0	62	0	1048576000	55	6500
2026-01-19 11:42:25.32	322.75	9.70	-42.1	-46.9	10.3	5.18e-03	0	62	0	1050673152	55	6409
2026-01-19 11:42:26.33	322.87	9.63	-42.0	-46.5	10.8	3.76e-03	0	62	0	1051721728	55	6121
2026-01-19 11:42:27.34	322.99	9.57	-41.9	-46.2	11.1	2.34e-03	0	62	0	1053818880	55	5897
2026-01-19 11:42:28.34	323.10	9.50	-41.9	-46.2	11.1	1.53e-03	0	62	0	1055916032	55	5888
2026-01-19 11:42:29.35	323.22	9.44	-41.9	-46.2	11.1	1.42e-03	0	62	0	1058013184	55	5913
2026-01-19 11:42:30.36	323.34	9.38	-41.8	-46.1	11.2	1.47e-03	0	62	0	1060110336	55	5814
2026-01-19 11:42:31.37	323.45	9.31	-41.8	-46.2	11.1	1.12e-03	0	62	0	1061158912	55	5857
2026-01-19 11:42:32.38	323.57	9.25	-41.9	-46.3	11.0	1.64e-03	0	62	0	1063256064	55	5969
2026-01-19 11:42:33.39	323.68	9.18	-42.0	-46.6	10.7	2.21e-03	0	62	0	1065353216	55	6157
2026-01-19 11:42:34.40	323.80	9.12	-42.0	-46.7	10.5	3.33e-03	0	62	0	1067450368	55	6245
2026-01-19 11:42:35.41	323.91	9.06	-42.2	-47.0	10.2	5.11e-03	0	62	0	1069547520	55	6481
2026-01-19 11:42:36.42	324.03	8.99	-42.2	-47.2	10.0	7.08e-03	0	62	0	1070596096	55	6614
2026-01-19 11:42:37.43	324.14	8.93	-42.3	-47.4	9.8	9.52e-03	0	62	0	1072693248	55	6794
2026-01-19 11:42:38.44	324.25	8.86	-42.3	-47.5	9.7	1.20e-02	0	62	0	1074790400	55	6849
2026-01-19 11:42:39.44	324.36	8.80	-42.4	-47.7	9.5	1.39e-02	0	62	0	1076887552	55	6963
2026-01-19 11:42:40.45	324.47	8.74	-42.4	-47.7	9.5	1.59e-02	0	62	0	1078984704	55	6971
2026-01-19 11:42:41.46	324.58	8.67	-42.5	-48.0	9.2	1.86e-02	0	62	0	1080033280	55	7210
2026-01-19 11:42:42.47	324.70	8.61	-42.4	-47.8	9.3	1.80e-02	0	62	0	1082130432	55	7115
2026-01-19 11:42:43.48	324.81	8.55	-42.5	-48.0	9.1	2.23e-02	0	62	0	1084227584	55	7272
2026-01-19 11:42:44.49	324.92	8.48	-42.5	-48.2	8.9	2.62e-02	0	62	0	1086324736	55	7422
2026-01-19 11:42:45.50	325.02	8.42	-42.6	-48.3	8.8	2.60e-02	0	62	0	1088421888	55	7511
2026-01-19 11:42:46.52	325.13	8.36	-42.7	-48.6	8.5	3.31e-02	0	62	0	1089470464	55	7749
2026-01-19 11:42:47.53	325.24	8.29	-42.7	-48.7	8.4	4.75e-02	0	62	0	1091567616	55	7816
2026-01-19 11:42:48.54	325.35	8.23	-43.0	-49.3	7.9	6.06e-02	0	62	0	1093664768	56	7933
2026-01-19 11:42:49.55	325.46	8.17	-42.9	-49.1	8.1	6.90e-02	0	62	0	1095761920	56	7773
2026-01-19 11:42:50.56	325.57	8.10	-42.9	-49.3	7.9	6.67e-02	0	62	0	1097859072	56	7980
2026-01-19 11:42:51.57	325.67	8.04	-43.0	-49.6	7.6	8.74e-02	0	62	0	1098907648	56	8220
2026-01-19 11:42:52.58	325.78	7.98	-44.1	-56.7	4.1	8.21e-02	0	62	0	1101004800	58	16544
2026-01-19 11:42:53.59	325.88	7.92	-44.6	-58.9	3.8	1.49e+00	0	62	104	1101004800	59	20214
2026-01-19 11:42:54.60	325.99	7.85	-44.7	-59.3	3.8	1.49e+00	0	62	104	1101004800	60	19917
2026-01-19 11:42:55.61	326.09	7.79	-44.9	-59.5	3.8	1.49e+00	0	62	104	1101004800	60	20437
2026-01-19 11:42:56.62	326.20	7.73	-45.1	-59.6	3.8	1.49e+00	0	62	104	1101004800	60	20766
2026-01-19 11:42:57.63	326.30	7.67	-45.2	-59.8	3.8	1.49e+00	0	62	104	1101004800	60	21049
2026-01-19 11:42:58.64	326.41	7.60	-45.3	-59.8	3.8	1.49e+00	0	62	104	1101004800	61	20052
2026-01-19 11:42:59.65	326.51	7.54	-45.3	-59.9	3.8	1.49e+00	0	62	104	1101004800	61	20110
2026-01-19 11:43:00.66	326.61	7.48	-45.3	-59.9	3.8	1.49e+00	0	62	104	1101004800	61	20094
2026-01-19 11:43:01.67	326.71	7.42	-45.3	-59.9	3.8	1.49e+00	0	62	104	1101004800	61	20164
2026-01-19 11:43:02.69	326.82	7.35	-45.3	-59.8	3.8	1.49e+00	0	62	104	1101004800	61	20067
2026-01-19 11:43:03.70	326.92	7.29	-45.3	-59.8	3.8	1.49e+00	0	62	104	1101004800	61	19994
2026-01-19 11:43:04.71	327.02	7.23	-45.3	-59.8	3.8	1.49e+00	0	62	104	1101004800	61	19937
2026-01-19 11:43:05.72	327.12	7.17	-45.3	-59.8	3.8	1.49e+00	0	62	104	1101004800	61	19992
2026-01-19 11:43:06.73	327.22	7.11	-45.3	-59.8	3.8	1.49e+00	0	62	104	1101004800	61	20057
2026-01-19 11:43:07.74	327.32	7.05	-45.2	-59.8	3.8	1.49e+00	0	62	104	1101004800	61	19842
2026-01-19 11:43:08.75	327.42	6.98	-45.2	-59.7	3.8	1.49e+00	0	62	104	1101004800	61	19840
2026-01-19 11:43:09.76	327.52	6.92	-45.2	-59.8	3.8	1.49e+00	0	62	104	1101004800	61	19929
2026-01-19 11:43:10.77	327.62	6.86	-45.2	-59.8	3.8	1.49e+00	0	62	104	1101004800	61	19889
2026-01-19 11:43:11.78	327.72	6.80	-45.2	-59.7	3.8	1.49e+00	0	62	104	1101004800	61	19833
2026-01-19 11:43:12.79	327.81	6.74	-45.2	-59.8	3.8	1.49e+00	0	62	104	1101004800	61	19925
2026-01-19 11:43:13.80	327.91	6.68	-45.2	-59.8	3.8	1.49e+00	0	62	104	1101004800	61	19848
2026-01-19 11:43:14.81	328.01	6.62	-45.2	-59.7	3.8	1.49e+00	0	62	104	1101004800	61	19813
2026-01-19 11:43:15.82	328.11	6.56	-45.2	-59.7	3.8	1.49e+00	0	62	104	1101004800	61	19803
2026-01-19 11:43:16.83	328.20	6.50	-45.2	-59.8	3.8	1.49e+00	0	62	104	1101004800	61	19883
2026-01-19 11:43:17.84	328.30	6.43	-45.2	-59.7	3.8	1.49e+00	0	62	104	1101004800	61	19828
2026-01-19 11:43:18.85	328.39	6.37	-45.2	-59.7	3.8	1.49e+00	0	62	104	1101004800	60	20998
2026-01-19 11:43:19.86	328.49	6.31	-45.2	-59.7	3.8	1.49e+00	0	62	104	1101004800	60	21000
