passes_logs/2026/01/19/R2.0S_Moscow/R2.0S_Moscow__20260119_220047_SUOMI_NPP_rec.log

#Pass ID: 20260119_220047_SUOMI NPP
#Satellite: SUOMI NPP
#Configuration: NPP
#almurnet v.1.7.20251203
#Start time: 2026-01-19 22:00:48

#Version: 2.2.20231116
#Station: R2.0S_Moscow
#Location: 37.707566 lon 55.798166 lat
#TLE: 1 37849U 11061A   26019.26265094  .00000081  00000+0  59609-4 0  9993
#TLE: 2 37849  98.7817 321.2746 0002356  56.2510 303.8890 14.19526363737315

#Time	Az	El	Level	Level2	SNR	BER	BlckErr	Temp	State	Recorded	gain1	gain2
2026-01-19 22:00:48.46	27.49	2.04	-42.3	-57.4	3.8	1.49e+00	0	52	0	0	56	20089
2026-01-19 22:00:49.47	27.57	2.09	-42.2	-57.2	3.8	1.49e+00	0	53	104	0	55	20822
2026-01-19 22:00:50.48	27.65	2.14	-42.2	-57.2	3.8	1.49e+00	0	53	104	0	55	20822
2026-01-19 22:00:51.49	27.74	2.19	-42.2	-57.2	3.8	1.49e+00	0	53	104	0	55	20838
2026-01-19 22:00:52.50	27.82	2.24	-42.1	-57.2	3.8	1.49e+00	0	53	104	0	55	20809
2026-01-19 22:00:53.51	27.90	2.29	-42.2	-57.2	3.8	1.49e+00	0	53	104	0	55	20855
2026-01-19 22:00:54.52	27.99	2.35	-42.2	-57.2	3.8	1.49e+00	0	53	104	0	55	20856
2026-01-19 22:00:55.53	28.07	2.40	-42.1	-57.2	3.8	1.49e+00	0	53	104	0	55	20877
2026-01-19 22:00:56.54	28.16	2.45	-42.2	-57.2	3.8	1.49e+00	0	53	104	0	55	20828
2026-01-19 22:00:57.55	28.24	2.50	-42.2	-57.2	3.8	1.49e+00	0	53	104	0	55	20876
2026-01-19 22:00:58.56	28.33	2.55	-42.2	-57.2	3.8	1.49e+00	0	53	104	0	55	20844
2026-01-19 22:00:59.57	28.41	2.61	-42.1	-57.2	3.8	1.49e+00	0	53	104	0	55	20873
2026-01-19 22:01:00.58	28.50	2.66	-42.2	-57.2	3.8	1.49e+00	0	53	104	0	55	20938
2026-01-19 22:01:01.59	28.58	2.71	-42.2	-57.2	3.8	1.49e+00	0	54	104	0	55	20842
2026-01-19 22:01:02.60	28.67	2.76	-42.1	-57.2	3.8	1.49e+00	0	53	104	0	55	20858
2026-01-19 22:01:03.62	28.76	2.82	-42.1	-57.2	3.8	1.49e+00	0	54	104	0	55	20869
2026-01-19 22:01:04.63	28.84	2.87	-42.1	-57.2	3.8	1.49e+00	0	54	104	0	55	20885
2026-01-19 22:01:05.64	28.93	2.92	-42.1	-57.2	3.8	1.49e+00	0	54	104	0	55	20832
2026-01-19 22:01:06.65	29.02	2.97	-42.2	-57.2	3.8	1.49e+00	0	54	104	0	55	20811
2026-01-19 22:01:07.66	29.11	3.03	-42.2	-57.2	3.8	1.49e+00	0	54	104	0	55	20863
2026-01-19 22:01:08.67	29.19	3.08	-42.2	-57.2	3.8	1.49e+00	0	54	104	0	55	20818
2026-01-19 22:01:09.68	29.28	3.13	-42.1	-57.2	3.8	1.49e+00	0	54	104	0	55	20856
2026-01-19 22:01:10.68	29.37	3.18	-42.1	-57.2	3.8	1.49e+00	0	54	104	0	55	20854
2026-01-19 22:01:11.70	29.46	3.24	-42.2	-57.2	3.8	1.49e+00	0	54	104	0	55	20839
2026-01-19 22:01:12.71	29.55	3.29	-42.1	-57.2	3.8	1.49e+00	0	54	104	0	55	20838
2026-01-19 22:01:13.72	29.64	3.34	-42.2	-57.2	3.8	1.49e+00	0	54	104	0	55	20821
2026-01-19 22:01:14.72	29.73	3.40	-42.1	-57.2	3.8	1.49e+00	0	54	104	0	55	20850
2026-01-19 22:01:15.74	29.82	3.45	-42.1	-57.2	3.8	1.49e+00	0	54	104	0	55	20878
2026-01-19 22:01:16.75	29.91	3.50	-42.2	-57.2	3.8	1.49e+00	0	55	104	0	55	20860
2026-01-19 22:01:17.76	30.00	3.55	-42.1	-57.2	3.8	1.49e+00	0	54	104	0	55	20841
2026-01-19 22:01:18.77	30.09	3.61	-42.2	-57.2	3.8	1.49e+00	0	55	104	0	55	20858
2026-01-19 22:01:19.78	30.18	3.66	-42.1	-57.2	3.8	1.49e+00	0	54	104	0	55	20890
2026-01-19 22:01:20.79	30.27	3.71	-42.1	-57.2	3.8	1.49e+00	0	55	104	0	55	20887
2026-01-19 22:01:21.80	30.37	3.77	-42.1	-57.2	3.8	1.49e+00	0	55	104	0	55	20876
2026-01-19 22:01:22.81	30.46	3.82	-42.2	-57.2	3.8	1.49e+00	0	55	104	0	55	20819
2026-01-19 22:01:23.82	30.55	3.87	-42.1	-57.2	3.8	1.49e+00	0	55	104	0	55	20890
2026-01-19 22:01:24.83	30.64	3.93	-42.1	-57.2	3.8	1.49e+00	0	55	104	0	55	20821
2026-01-19 22:01:25.84	30.74	3.98	-42.1	-57.2	3.8	1.49e+00	0	55	104	0	55	20836
2026-01-19 22:01:26.85	30.83	4.03	-42.1	-57.2	3.8	1.49e+00	0	55	104	0	55	20879
2026-01-19 22:01:27.86	30.92	4.09	-42.2	-57.2	3.8	1.49e+00	0	55	104	0	55	20846
2026-01-19 22:01:28.87	31.02	4.14	-42.2	-57.1	3.8	1.49e+00	0	55	104	0	55	20727
2026-01-19 22:01:29.88	31.11	4.19	-42.1	-57.2	3.8	1.49e+00	0	55	104	0	55	20832
2026-01-19 22:01:30.89	31.21	4.25	-42.2	-57.2	3.8	1.49e+00	0	55	104	0	55	20840
2026-01-19 22:01:31.90	31.30	4.30	-42.2	-57.2	3.8	1.49e+00	0	55	104	0	55	20839
2026-01-19 22:01:32.91	31.40	4.36	-42.2	-57.2	3.8	1.49e+00	0	55	104	0	55	20843
2026-01-19 22:01:33.92	31.49	4.41	-42.2	-57.2	3.8	1.49e+00	0	55	104	0	55	20852
2026-01-19 22:01:34.93	31.59	4.46	-42.1	-57.2	3.8	1.49e+00	0	55	104	0	55	20854
2026-01-19 22:01:35.94	31.69	4.52	-42.1	-57.2	3.8	1.49e+00	0	56	104	0	55	20872
2026-01-19 22:01:36.95	31.78	4.57	-42.1	-57.2	3.8	1.49e+00	0	56	104	0	55	20902
2026-01-19 22:01:37.96	31.88	4.62	-42.2	-57.2	3.8	1.49e+00	0	56	104	0	55	20851
2026-01-19 22:01:38.97	31.98	4.68	-42.2	-57.2	3.8	1.49e+00	0	56	104	0	55	20819
2026-01-19 22:01:39.98	32.08	4.73	-42.2	-57.2	3.8	1.49e+00	0	56	104	0	55	20837
2026-01-19 22:01:41.00	32.18	4.79	-42.1	-57.2	3.8	1.49e+00	0	56	104	0	55	20872
2026-01-19 22:01:42.01	32.27	4.84	-42.2	-57.2	3.8	1.49e+00	0	56	104	0	55	20837
2026-01-19 22:01:43.02	32.37	4.90	-42.1	-57.2	3.8	1.49e+00	0	56	104	0	55	20817
2026-01-19 22:01:44.02	32.47	4.95	-42.1	-57.2	3.8	1.49e+00	0	56	104	0	55	20823
2026-01-19 22:01:45.03	32.57	5.00	-42.1	-57.2	3.8	1.49e+00	0	56	104	0	55	20781
2026-01-19 22:01:46.04	32.67	5.06	-42.1	-57.2	3.8	1.49e+00	0	56	104	0	55	20839
2026-01-19 22:01:47.05	32.77	5.11	-42.1	-57.2	3.8	1.49e+00	0	56	104	0	55	20798
2026-01-19 22:01:48.06	32.87	5.17	-42.1	-57.2	3.8	1.49e+00	0	56	104	0	55	20802
2026-01-19 22:01:49.07	32.97	5.22	-42.1	-57.2	3.8	1.49e+00	0	56	104	0	55	20786
2026-01-19 22:01:50.08	33.08	5.28	-42.2	-57.2	3.8	1.49e+00	0	56	104	0	55	20793
2026-01-19 22:01:51.09	33.18	5.33	-42.2	-57.2	3.8	1.49e+00	0	56	104	0	55	20782
2026-01-19 22:01:52.10	33.28	5.38	-42.1	-57.2	3.8	1.49e+00	0	56	104	0	55	20841
2026-01-19 22:01:53.11	33.38	5.44	-42.1	-57.2	3.8	1.49e+00	0	56	104	0	55	20886
2026-01-19 22:01:54.12	33.48	5.49	-42.2	-57.2	3.8	1.49e+00	0	56	104	0	55	20781
2026-01-19 22:01:55.13	33.59	5.55	-42.2	-57.2	3.8	1.49e+00	0	56	104	0	55	20785
2026-01-19 22:01:56.14	33.69	5.60	-42.1	-57.1	3.8	1.49e+00	0	57	104	0	55	20765
2026-01-19 22:01:57.15	33.80	5.66	-42.1	-57.2	3.8	1.49e+00	0	56	104	0	55	20804
2026-01-19 22:01:58.16	33.90	5.71	-42.2	-57.2	3.8	1.49e+00	0	56	104	0	55	20856
2026-01-19 22:01:59.17	34.00	5.77	-42.1	-57.2	3.8	1.49e+00	0	57	104	0	55	20823
2026-01-19 22:02:00.19	34.11	5.82	-42.1	-57.2	3.8	1.49e+00	0	56	104	0	55	20850
2026-01-19 22:02:01.20	34.22	5.88	-42.2	-57.1	3.8	1.49e+00	0	57	104	0	55	20757
2026-01-19 22:02:02.21	34.32	5.93	-42.2	-57.2	3.8	1.49e+00	0	57	104	0	55	20838
2026-01-19 22:02:03.22	34.43	5.99	-42.1	-57.2	3.8	1.49e+00	0	57	104	0	55	20853
2026-01-19 22:02:04.23	34.53	6.04	-42.2	-57.2	3.8	1.49e+00	0	57	104	0	55	20912
2026-01-19 22:02:05.24	34.64	6.10	-42.2	-57.2	3.8	1.49e+00	0	57	104	0	55	20870
2026-01-19 22:02:06.25	34.75	6.15	-42.2	-57.2	3.8	1.49e+00	0	57	104	0	55	20861
2026-01-19 22:02:07.26	34.86	6.21	-42.2	-57.2	3.8	1.49e+00	0	57	104	0	55	20851
2026-01-19 22:02:08.27	34.97	6.26	-42.1	-57.2	3.8	1.49e+00	0	57	104	0	55	20838
2026-01-19 22:02:09.28	35.07	6.32	-42.2	-57.2	3.8	1.49e+00	0	57	104	0	55	20803
2026-01-19 22:02:10.29	35.18	6.37	-42.1	-57.2	3.8	1.49e+00	0	57	104	0	55	20817
2026-01-19 22:02:11.30	35.29	6.43	-42.1	-57.2	3.8	1.49e+00	0	57	104	0	55	20856
2026-01-19 22:02:12.31	35.40	6.48	-42.1	-57.2	3.8	1.49e+00	0	57	104	0	55	20819
2026-01-19 22:02:13.32	35.51	6.54	-42.1	-57.2	3.8	1.49e+00	0	57	104	0	55	20798
2026-01-19 22:02:14.33	35.62	6.59	-42.2	-57.2	3.8	1.49e+00	0	57	104	0	55	20870
2026-01-19 22:02:15.34	35.73	6.65	-42.1	-57.2	3.8	1.49e+00	0	57	104	0	55	20809
2026-01-19 22:02:16.35	35.85	6.71	-42.2	-57.2	3.8	1.49e+00	0	57	104	0	55	20827
2026-01-19 22:02:17.36	35.96	6.76	-42.1	-57.2	3.8	1.49e+00	0	57	104	0	55	20830
2026-01-19 22:02:18.37	36.07	6.82	-42.2	-57.1	3.8	1.49e+00	0	57	104	0	55	20676
2026-01-19 22:02:19.38	36.18	6.87	-42.2	-57.0	3.8	1.49e+00	0	58	104	0	55	20529
2026-01-19 22:02:20.40	36.30	6.93	-42.1	-57.1	3.8	1.49e+00	0	57	104	0	55	20713
2026-01-19 22:02:21.41	36.41	6.98	-42.1	-57.2	3.8	1.49e+00	0	58	104	0	55	20801
2026-01-19 22:02:22.42	36.52	7.04	-42.1	-57.2	3.8	1.49e+00	0	58	104	0	55	20839
2026-01-19 22:02:23.43	36.64	7.09	-42.2	-57.2	3.8	1.49e+00	0	58	104	0	55	20783
2026-01-19 22:02:24.44	36.75	7.15	-42.1	-57.1	3.8	1.49e+00	0	58	104	0	55	20727
2026-01-19 22:02:25.45	36.87	7.21	-42.1	-57.1	3.8	1.49e+00	0	57	104	0	55	20699
2026-01-19 22:02:26.46	36.98	7.26	-42.1	-57.1	3.8	1.49e+00	0	58	104	0	55	20555
2026-01-19 22:02:27.47	37.10	7.32	-42.1	-56.9	3.8	1.49e+00	0	58	104	0	55	20166
2026-01-19 22:02:28.48	37.22	7.37	-42.2	-57.0	3.8	1.49e+00	0	57	104	0	55	20389
2026-01-19 22:02:29.49	37.33	7.43	-42.1	-57.1	3.8	1.49e+00	0	58	104	0	55	20659
2026-01-19 22:02:30.50	37.45	7.48	-42.1	-57.2	3.8	1.49e+00	0	58	104	0	55	20881
2026-01-19 22:02:31.51	37.57	7.54	-42.1	-57.2	3.8	1.49e+00	0	58	104	0	55	20781
2026-01-19 22:02:32.52	37.68	7.60	-42.2	-56.9	3.8	1.49e+00	0	58	104	0	55	20196
2026-01-19 22:02:33.53	37.80	7.65	-42.1	-55.8	3.8	1.49e+00	0	58	104	0	55	17815
2026-01-19 22:02:34.54	37.92	7.71	-41.9	-53.8	4.1	1.47e+00	0	58	0	0	55	14048
2026-01-19 22:02:35.55	38.04	7.76	-41.8	-52.1	4.8	1.25e+00	0	58	0	0	55	11575
2026-01-19 22:02:36.56	38.16	7.82	-41.5	-49.8	6.2	3.72e-01	0	58	0	2097152	55	8885
2026-01-19 22:02:37.57	38.28	7.88	-41.1	-48.2	7.7	1.37e-01	0	58	0	4194304	54	7815
2026-01-19 22:02:38.58	38.40	7.93	-40.9	-47.4	8.3	5.55e-02	0	58	0	6291456	53	7588
2026-01-19 22:02:39.59	38.52	7.99	-41.0	-47.7	8.2	5.40e-02	0	58	0	8388608	53	7841
2026-01-19 22:02:40.60	38.65	8.04	-41.3	-48.4	7.6	7.36e-02	0	58	0	9437184	53	8517
2026-01-19 22:02:41.61	38.77	8.10	-41.8	-54.8	3.9	1.60e-01	0	58	0	11534336	54	16710
2026-01-19 22:02:42.62	38.89	8.16	-41.4	-47.5	5.2	1.49e+00	0	58	104	11534336	54	7250
2026-01-19 22:02:43.63	39.01	8.21	-42.3	-49.6	7.1	1.69e-01	0	58	0	12582912	55	8711
2026-01-19 22:02:44.64	39.14	8.27	-41.4	-47.0	9.5	2.08e-01	0	58	0	13631488	54	6862
2026-01-19 22:02:45.65	39.26	8.32	-41.7	-48.2	8.2	1.92e-01	0	58	0	15728640	54	7814
2026-01-19 22:02:46.66	39.38	8.38	-41.7	-47.7	8.7	3.40e-02	0	58	0	17825792	54	7444
2026-01-19 22:02:47.67	39.51	8.44	-41.6	-47.5	9.0	3.39e-02	0	58	0	19922944	54	7234
2026-01-19 22:02:48.68	39.63	8.49	-41.6	-47.5	9.0	2.31e-02	0	58	0	22020096	54	7212
2026-01-19 22:02:49.69	39.76	8.55	-41.7	-47.7	8.8	2.90e-02	0	58	0	23068672	54	7419
2026-01-19 22:02:50.70	39.89	8.60	-41.7	-47.5	9.0	3.33e-02	0	58	0	25165824	54	7239
2026-01-19 22:02:51.71	40.01	8.66	-41.8	-47.6	8.9	2.59e-02	0	58	0	27262976	54	7358
2026-01-19 22:02:52.72	40.14	8.72	-41.8	-47.5	9.1	2.33e-02	0	58	0	29360128	54	7232
2026-01-19 22:02:53.73	40.27	8.77	-41.9	-47.8	8.8	2.97e-02	0	59	0	31457280	54	7505
2026-01-19 22:02:54.74	40.40	8.83	-41.8	-47.4	9.2	2.35e-02	0	59	0	32505856	54	7177
2026-01-19 22:02:55.75	40.53	8.88	-41.9	-47.6	9.2	1.96e-02	0	58	0	34603008	54	7306
2026-01-19 22:02:56.76	40.65	8.94	-41.9	-47.6	9.4	1.83e-02	0	59	0	36700160	54	7300
2026-01-19 22:02:57.77	40.78	9.00	-42.1	-47.9	9.0	2.46e-02	0	59	0	38797312	54	7608
2026-01-19 22:02:58.78	40.91	9.05	-42.1	-47.8	9.1	2.28e-02	0	59	0	40894464	54	7543
2026-01-19 22:02:59.79	41.04	9.11	-42.2	-48.1	8.8	2.50e-02	0	59	0	42991616	54	7726
2026-01-19 22:03:00.80	41.18	9.17	-42.2	-48.1	8.8	3.56e-02	0	59	0	44040192	55	7361
2026-01-19 22:03:01.81	41.31	9.22	-42.1	-47.9	8.9	2.77e-02	0	59	0	46137344	55	7200
2026-01-19 22:03:02.81	41.44	9.28	-42.2	-48.1	8.8	3.30e-02	0	59	0	48234496	55	7301
2026-01-19 22:03:03.82	41.57	9.33	-42.2	-48.1	8.7	3.41e-02	0	59	0	50331648	55	7356
2026-01-19 22:03:04.83	41.70	9.39	-42.3	-48.4	8.6	3.56e-02	0	59	0	52428800	55	7546
2026-01-19 22:03:05.84	41.84	9.45	-42.3	-48.4	8.4	4.58e-02	0	59	0	53477376	55	7596
2026-01-19 22:03:06.85	41.97	9.50	-42.3	-48.3	8.6	3.69e-02	0	59	0	55574528	55	7510
2026-01-19 22:03:07.86	42.10	9.56	-42.3	-48.4	8.5	3.95e-02	0	59	0	57671680	55	7580
2026-01-19 22:03:08.87	42.24	9.61	-42.3	-48.2	8.7	3.45e-02	0	59	0	59768832	55	7440
2026-01-19 22:03:09.88	42.38	9.67	-42.3	-48.2	8.8	3.35e-02	0	59	0	61865984	55	7382
2026-01-19 22:03:10.89	42.51	9.73	-42.3	-48.1	9.0	2.62e-02	0	59	0	62914560	55	7324
2026-01-19 22:03:11.90	42.65	9.78	-42.3	-48.3	8.8	2.67e-02	0	59	0	65011712	55	7480
2026-01-19 22:03:12.91	42.78	9.84	-42.3	-48.0	9.0	2.53e-02	0	59	0	67108864	55	7241
2026-01-19 22:03:13.92	42.92	9.89	-42.3	-47.9	9.2	2.47e-02	0	59	0	69206016	55	7167
2026-01-19 22:03:14.93	43.06	9.95	-42.2	-47.7	9.3	2.07e-02	0	59	0	71303168	55	7029
2026-01-19 22:03:15.94	43.20	10.01	-42.2	-47.6	9.5	1.44e-02	0	59	0	72351744	55	6932
2026-01-19 22:03:16.95	43.34	10.06	-42.2	-47.6	9.5	1.44e-02	0	59	0	74448896	55	6924
2026-01-19 22:03:17.96	43.48	10.12	-42.1	-47.4	9.8	1.29e-02	0	59	0	76546048	55	6755
2026-01-19 22:03:18.97	43.62	10.17	-42.1	-47.4	9.7	1.14e-02	0	59	0	78643200	55	6747
2026-01-19 22:03:19.98	43.76	10.23	-42.0	-47.0	10.1	7.27e-03	0	59	0	80740352	55	6491
2026-01-19 22:03:20.99	43.90	10.29	-42.0	-46.9	10.3	6.00e-03	0	59	0	81788928	55	6366
2026-01-19 22:03:22.00	44.04	10.34	-41.9	-46.7	10.6	3.49e-03	0	59	0	83886080	55	6227
2026-01-19 22:03:23.01	44.18	10.40	-41.8	-46.5	10.7	3.14e-03	0	59	0	85983232	55	6130
2026-01-19 22:03:24.02	44.33	10.45	-41.8	-46.6	10.7	3.26e-03	0	59	0	88080384	55	6160
2026-01-19 22:03:25.03	44.47	10.51	-41.8	-46.4	10.9	2.45e-03	0	59	0	90177536	55	6037
2026-01-19 22:03:26.04	44.61	10.57	-41.9	-46.7	10.6	2.55e-03	0	59	0	91226112	55	6236
2026-01-19 22:03:27.05	44.76	10.62	-41.9	-46.5	10.9	2.71e-03	0	59	0	93323264	55	6096
2026-01-19 22:03:28.05	44.90	10.68	-41.8	-46.5	10.9	2.39e-03	0	59	0	95420416	55	6066
2026-01-19 22:03:29.06	45.04	10.73	-41.8	-46.3	11.2	1.75e-03	0	59	0	97517568	55	5934
2026-01-19 22:03:30.07	45.19	10.79	-41.7	-46.1	11.2	1.22e-03	0	59	0	99614720	55	5833
2026-01-19 22:03:31.08	45.34	10.84	-41.7	-46.0	11.4	1.08e-03	0	59	0	100663296	55	5756
2026-01-19 22:03:32.09	45.48	10.90	-41.5	-45.7	11.7	7.86e-04	0	59	0	102760448	55	5562
2026-01-19 22:03:33.10	45.63	10.95	-41.5	-45.5	11.8	4.99e-04	0	59	0	104857600	55	5458
2026-01-19 22:03:34.11	45.78	11.01	-41.4	-45.4	12.0	3.71e-04	0	59	0	106954752	54	5689
2026-01-19 22:03:35.12	45.93	11.07	-41.4	-45.4	12.1	2.74e-04	0	59	0	109051904	54	5670
2026-01-19 22:03:36.13	46.08	11.12	-41.4	-45.4	12.1	2.52e-04	0	59	0	111149056	54	5675
2026-01-19 22:03:37.14	46.23	11.18	-41.5	-45.6	11.9	2.62e-04	0	59	0	112197632	54	5813
2026-01-19 22:03:38.15	46.38	11.23	-41.5	-45.6	11.9	4.39e-04	0	59	0	114294784	54	5826
2026-01-19 22:03:39.16	46.53	11.29	-41.6	-45.8	11.7	6.10e-04	0	59	0	116391936	54	5924
2026-01-19 22:03:40.17	46.68	11.34	-41.6	-45.9	11.6	6.40e-04	0	60	0	118489088	54	5993
2026-01-19 22:03:41.18	46.83	11.40	-41.8	-46.1	11.4	9.09e-04	0	60	0	120586240	54	6152
2026-01-19 22:03:42.19	46.98	11.45	-41.8	-46.2	11.3	1.17e-03	0	59	0	121634816	54	6209
2026-01-19 22:03:43.20	47.14	11.51	-41.7	-46.0	11.4	9.01e-04	0	59	0	123731968	54	6115
2026-01-19 22:03:44.20	47.29	11.56	-41.8	-46.1	11.4	1.02e-03	0	59	0	125829120	54	6153
2026-01-19 22:03:45.21	47.44	11.62	-41.7	-46.0	11.5	8.67e-04	0	60	0	127926272	54	6093
2026-01-19 22:03:46.22	47.60	11.67	-41.6	-45.8	11.7	7.37e-04	0	60	0	130023424	54	5977
2026-01-19 22:03:47.23	47.75	11.73	-41.6	-45.8	11.7	6.03e-04	0	60	0	131072000	54	5953
2026-01-19 22:03:48.24	47.91	11.78	-41.6	-45.8	11.7	5.12e-04	0	60	0	133169152	54	5963
2026-01-19 22:03:49.25	48.06	11.84	-41.6	-45.8	11.8	6.29e-04	0	60	0	135266304	54	5935
2026-01-19 22:03:50.26	48.22	11.89	-41.6	-45.8	11.7	5.45e-04	0	60	0	137363456	54	5968
2026-01-19 22:03:51.27	48.38	11.95	-41.7	-45.9	11.7	5.76e-04	0	60	0	139460608	54	6005
2026-01-19 22:03:52.28	48.54	12.00	-41.6	-45.8	11.8	4.32e-04	0	60	0	140509184	54	5932
2026-01-19 22:03:53.29	48.70	12.05	-41.6	-45.8	11.8	4.74e-04	0	60	0	142606336	54	5931
2026-01-19 22:03:54.30	48.85	12.11	-41.6	-45.8	11.8	4.56e-04	0	60	0	144703488	54	5927
2026-01-19 22:03:55.31	49.01	12.16	-41.7	-45.8	11.8	4.78e-04	0	60	0	146800640	54	5959
2026-01-19 22:03:56.32	49.17	12.22	-41.6	-45.7	11.8	5.29e-04	0	60	0	148897792	54	5919
2026-01-19 22:03:57.33	49.34	12.27	-41.7	-45.8	11.8	5.26e-04	0	60	0	149946368	54	5939
2026-01-19 22:03:58.34	49.50	12.33	-41.7	-45.8	11.8	5.03e-04	0	60	0	152043520	54	5992
2026-01-19 22:03:59.35	49.66	12.38	-41.7	-45.9	11.7	5.67e-04	0	60	0	154140672	54	6049
2026-01-19 22:04:00.36	49.82	12.43	-41.7	-45.9	11.6	6.26e-04	0	60	0	156237824	54	6024
2026-01-19 22:04:01.37	49.98	12.49	-41.8	-46.0	11.6	6.63e-04	0	60	0	158334976	54	6084
2026-01-19 22:04:02.38	50.15	12.54	-41.8	-46.1	11.5	7.40e-04	0	60	0	159383552	54	6159
2026-01-19 22:04:03.39	50.31	12.59	-41.8	-46.1	11.5	6.47e-04	0	60	0	161480704	54	6144
2026-01-19 22:04:04.40	50.48	12.65	-41.9	-46.2	11.4	9.34e-04	0	60	0	163577856	54	6262
2026-01-19 22:04:05.41	50.64	12.70	-41.9	-46.2	11.3	9.22e-04	0	60	0	165675008	54	6267
2026-01-19 22:04:06.42	50.81	12.76	-41.9	-46.1	11.5	7.17e-04	0	60	0	167772160	54	6186
2026-01-19 22:04:07.43	50.98	12.81	-41.9	-46.1	11.5	9.31e-04	0	60	0	168820736	54	6198
2026-01-19 22:04:08.44	51.14	12.86	-41.8	-46.0	11.6	1.02e-03	0	60	0	170917888	54	6127
2026-01-19 22:04:09.45	51.31	12.91	-41.8	-45.9	11.7	5.52e-04	0	60	0	173015040	54	6017
2026-01-19 22:04:10.45	51.48	12.97	-41.8	-46.0	11.6	6.02e-04	0	60	0	175112192	54	6102
2026-01-19 22:04:11.46	51.65	13.02	-41.8	-45.9	11.7	6.52e-04	0	60	0	177209344	54	6049
2026-01-19 22:04:12.47	51.82	13.07	-41.8	-46.0	11.6	7.99e-04	0	60	0	179306496	54	6128
2026-01-19 22:04:13.48	51.99	13.13	-41.9	-46.2	11.4	7.59e-04	0	60	0	180355072	54	6243
2026-01-19 22:04:14.49	52.16	13.18	-42.0	-46.4	11.2	1.13e-03	0	60	0	182452224	54	6383
2026-01-19 22:04:15.50	52.33	13.23	-42.0	-46.4	11.2	1.29e-03	0	60	0	184549376	54	6408
2026-01-19 22:04:16.51	52.50	13.28	-42.1	-46.6	10.9	1.58e-03	0	60	0	186646528	54	6552
2026-01-19 22:04:17.52	52.67	13.33	-42.1	-46.5	11.1	1.85e-03	0	60	0	188743680	54	6468
2026-01-19 22:04:18.53	52.85	13.39	-42.0	-46.4	11.3	1.53e-03	0	60	0	189792256	54	6399
2026-01-19 22:04:19.54	53.02	13.44	-42.0	-46.4	11.1	1.53e-03	0	60	0	191889408	54	6404
2026-01-19 22:04:20.55	53.20	13.49	-42.0	-46.4	11.3	1.25e-03	0	60	0	193986560	54	6358
2026-01-19 22:04:21.56	53.37	13.54	-42.0	-46.5	11.2	1.37e-03	0	60	0	196083712	54	6425
2026-01-19 22:04:22.57	53.55	13.59	-42.0	-46.5	11.2	1.27e-03	0	60	0	198180864	54	6425
2026-01-19 22:04:23.58	53.72	13.64	-42.1	-46.6	11.0	2.01e-03	0	60	0	199229440	54	6514
2026-01-19 22:04:24.59	53.90	13.70	-42.2	-46.8	10.8	2.18e-03	0	60	0	201326592	54	6706
2026-01-19 22:04:25.60	54.08	13.75	-42.2	-47.0	10.7	2.46e-03	0	60	0	203423744	55	6424
2026-01-19 22:04:26.61	54.25	13.80	-42.3	-47.1	10.5	3.37e-03	0	60	0	205520896	55	6563
2026-01-19 22:04:27.62	54.43	13.85	-42.4	-47.3	10.4	5.13e-03	0	60	0	207618048	55	6660
2026-01-19 22:04:28.63	54.61	13.90	-42.2	-46.9	10.7	4.79e-03	0	60	0	208666624	55	6418
2026-01-19 22:04:29.64	54.79	13.95	-42.2	-46.9	10.6	2.87e-03	0	60	0	210763776	55	6402
2026-01-19 22:04:30.65	54.97	14.00	-42.2	-46.9	10.7	3.10e-03	0	60	0	212860928	55	6412
2026-01-19 22:04:31.66	55.15	14.05	-42.2	-46.9	10.7	2.54e-03	0	60	0	214958080	55	6412
2026-01-19 22:04:32.67	55.34	14.10	-42.1	-46.7	10.9	2.32e-03	0	60	0	217055232	55	6237
2026-01-19 22:04:33.68	55.52	14.15	-42.2	-46.7	10.9	2.25e-03	0	60	0	218103808	55	6271
2026-01-19 22:04:34.69	55.70	14.20	-42.1	-46.6	11.0	2.16e-03	0	60	0	220200960	55	6179
2026-01-19 22:04:35.69	55.88	14.25	-42.1	-46.7	11.0	1.98e-03	0	60	0	222298112	55	6220
2026-01-19 22:04:36.70	56.07	14.30	-42.2	-46.8	10.9	2.03e-03	0	60	0	224395264	55	6297
2026-01-19 22:04:37.71	56.25	14.35	-42.1	-46.6	11.1	2.11e-03	0	60	0	226492416	55	6142
2026-01-19 22:04:38.72	56.44	14.40	-42.1	-46.7	11.0	1.54e-03	0	60	0	227540992	55	6205
2026-01-19 22:04:39.73	56.62	14.45	-42.2	-46.8	10.8	2.35e-03	0	60	0	229638144	55	6292
2026-01-19 22:04:40.74	56.81	14.49	-42.2	-46.8	10.8	2.08e-03	0	60	0	231735296	55	6330
2026-01-19 22:04:41.75	56.99	14.54	-42.3	-47.0	10.7	2.69e-03	0	60	0	233832448	55	6443
2026-01-19 22:04:42.76	57.18	14.59	-42.3	-47.1	10.5	3.75e-03	0	61	0	235929600	55	6511
2026-01-19 22:04:43.77	57.37	14.64	-42.4	-47.3	10.3	4.36e-03	0	60	0	236978176	55	6650
2026-01-19 22:04:44.78	57.56	14.69	-42.4	-47.3	10.2	5.48e-03	0	60	0	239075328	55	6715
2026-01-19 22:04:45.79	57.75	14.73	-42.4	-47.4	10.2	5.70e-03	0	61	0	241172480	55	6754
2026-01-19 22:04:46.80	57.94	14.78	-42.4	-47.3	10.2	4.70e-03	0	61	0	243269632	55	6716
2026-01-19 22:04:47.81	58.13	14.83	-42.3	-47.1	10.5	4.39e-03	0	60	0	245366784	55	6495
2026-01-19 22:04:48.82	58.32	14.88	-42.2	-46.9	10.7	3.18e-03	0	61	0	247463936	55	6403
2026-01-19 22:04:49.83	58.51	14.92	-42.2	-46.8	10.8	2.76e-03	0	60	0	248512512	55	6285
2026-01-19 22:04:50.84	58.70	14.97	-42.3	-47.0	10.5	3.15e-03	0	60	0	250609664	55	6481
2026-01-19 22:04:51.85	58.90	15.02	-42.2	-46.9	10.7	3.61e-03	0	60	0	252706816	55	6419
2026-01-19 22:04:52.86	59.09	15.06	-42.3	-47.1	10.5	4.05e-03	0	60	0	254803968	55	6537
2026-01-19 22:04:53.86	59.28	15.11	-42.4	-47.3	10.3	5.81e-03	0	61	0	255852544	55	6654
2026-01-19 22:04:54.87	59.48	15.15	-42.5	-47.6	10.0	6.00e-03	0	60	0	257949696	55	6896
2026-01-19 22:04:55.88	59.67	15.20	-42.5	-47.5	10.1	6.47e-03	0	61	0	260046848	55	6833
2026-01-19 22:04:56.89	59.87	15.25	-42.4	-47.3	10.3	7.46e-03	0	61	0	262144000	55	6650
2026-01-19 22:04:57.90	60.06	15.29	-42.4	-47.4	10.1	6.11e-03	0	61	0	264241152	55	6771
2026-01-19 22:04:58.91	60.26	15.34	-42.5	-47.5	9.9	7.32e-03	0	61	0	265289728	55	6843
2026-01-19 22:04:59.92	60.46	15.38	-42.4	-47.5	10.0	9.82e-03	0	61	0	267386880	55	6812
2026-01-19 22:05:00.93	60.66	15.42	-42.6	-47.8	9.8	8.46e-03	0	61	0	269484032	55	7051
2026-01-19 22:05:01.94	60.86	15.47	-42.6	-47.9	9.6	1.08e-02	0	61	0	271581184	55	7191
2026-01-19 22:05:02.95	61.05	15.51	-42.6	-47.8	9.7	1.16e-02	0	61	0	273678336	55	7092
2026-01-19 22:05:03.96	61.25	15.56	-42.5	-47.7	9.8	9.04e-03	0	61	0	275775488	55	7020
2026-01-19 22:05:04.97	61.45	15.60	-42.4	-47.3	10.2	7.44e-03	0	60	0	276824064	55	6698
2026-01-19 22:05:05.98	61.66	15.64	-42.3	-47.2	10.3	5.05e-03	0	60	0	278921216	55	6606
2026-01-19 22:05:06.99	61.86	15.69	-42.2	-46.9	10.7	3.71e-03	0	60	0	281018368	55	6369
2026-01-19 22:05:08.00	62.06	15.73	-42.2	-46.8	10.7	2.93e-03	0	61	0	283115520	55	6340
2026-01-19 22:05:09.01	62.26	15.77	-42.2	-46.8	10.6	3.15e-03	0	60	0	285212672	55	6336
2026-01-19 22:05:10.02	62.47	15.81	-42.3	-47.3	10.2	3.46e-03	0	61	0	286261248	55	6691
2026-01-19 22:05:11.02	62.67	15.86	-42.3	-47.2	10.3	4.38e-03	0	61	0	288358400	55	6620
2026-01-19 22:05:12.03	62.87	15.90	-42.3	-47.2	10.2	6.49e-03	0	60	0	290455552	55	6611
2026-01-19 22:05:13.04	63.08	15.94	-42.4	-47.5	10.0	6.56e-03	0	61	0	292552704	55	6855
2026-01-19 22:05:14.05	63.28	15.98	-42.3	-47.2	10.3	6.53e-03	0	61	0	294649856	55	6628
2026-01-19 22:05:15.06	63.49	16.02	-42.3	-47.2	10.4	4.80e-03	0	61	0	295698432	55	6582
2026-01-19 22:05:16.07	63.69	16.06	-42.2	-46.9	10.5	3.71e-03	0	61	0	297795584	55	6403
2026-01-19 22:05:17.08	63.90	16.10	-42.0	-46.7	10.9	2.59e-03	0	61	0	299892736	55	6208
2026-01-19 22:05:18.09	64.11	16.14	-42.1	-46.7	10.7	2.14e-03	0	61	0	301989888	55	6251
2026-01-19 22:05:19.10	64.32	16.18	-42.0	-46.6	10.8	2.55e-03	0	60	0	304087040	55	6174
2026-01-19 22:05:20.11	64.53	16.22	-42.0	-46.6	10.9	2.51e-03	0	61	0	305135616	55	6143
2026-01-19 22:05:21.12	64.74	16.26	-42.0	-46.5	11.0	2.09e-03	0	61	0	307232768	55	6100
2026-01-19 22:05:22.13	64.95	16.30	-41.9	-46.4	11.0	1.93e-03	0	61	0	309329920	55	6031
2026-01-19 22:05:23.14	65.16	16.34	-42.0	-46.6	10.9	2.17e-03	0	61	0	311427072	55	6146
2026-01-19 22:05:24.15	65.37	16.38	-41.9	-46.4	11.0	2.21e-03	0	61	0	313524224	55	6009
2026-01-19 22:05:25.16	65.58	16.41	-41.8	-46.3	11.0	1.96e-03	0	61	0	314572800	55	5969
2026-01-19 22:05:26.17	65.79	16.45	-41.8	-46.3	11.0	2.17e-03	0	61	0	316669952	55	5957
2026-01-19 22:05:27.18	66.00	16.49	-41.8	-46.4	10.8	2.35e-03	0	61	0	318767104	55	6052
2026-01-19 22:05:28.19	66.22	16.53	-41.9	-46.7	10.5	3.31e-03	0	61	0	320864256	55	6203
2026-01-19 22:05:29.20	66.43	16.56	-41.8	-46.6	10.6	3.57e-03	0	61	0	322961408	55	6148
2026-01-19 22:05:30.21	66.64	16.60	-41.8	-46.5	10.6	3.56e-03	0	61	0	324009984	55	6074
2026-01-19 22:05:31.22	66.86	16.63	-41.8	-46.5	10.5	3.53e-03	0	61	0	326107136	55	6098
2026-01-19 22:05:32.23	67.07	16.67	-41.7	-46.4	10.6	3.35e-03	0	61	0	328204288	55	6049
2026-01-19 22:05:33.24	67.29	16.71	-41.7	-46.4	10.5	4.14e-03	0	61	0	330301440	55	6040
2026-01-19 22:05:34.25	67.50	16.74	-41.7	-46.5	10.4	3.98e-03	0	61	0	332398592	55	6073
2026-01-19 22:05:35.26	67.72	16.78	-41.7	-46.7	10.1	6.84e-03	0	61	0	333447168	55	6219
2026-01-19 22:05:36.27	67.94	16.81	-41.7	-46.8	9.9	8.91e-03	0	61	0	335544320	55	6340
2026-01-19 22:05:37.27	68.15	16.84	-41.8	-47.1	9.5	1.17e-02	0	61	0	337641472	55	6544
2026-01-19 22:05:38.28	68.37	16.88	-41.8	-47.5	9.1	2.15e-02	0	61	0	339738624	55	6802
2026-01-19 22:05:39.29	68.59	16.91	-41.9	-47.7	8.8	3.21e-02	0	61	0	341835776	55	7022
2026-01-19 22:05:40.30	68.81	16.94	-41.8	-47.8	8.6	3.56e-02	0	61	0	343932928	55	7081
2026-01-19 22:05:41.31	69.03	16.98	-41.8	-47.9	8.4	4.26e-02	0	61	0	344981504	55	7200
2026-01-19 22:05:42.32	69.25	17.01	-41.8	-48.1	8.1	5.69e-02	0	61	0	347078656	55	7331
2026-01-19 22:05:43.33	69.47	17.04	-41.7	-48.2	8.0	6.58e-02	0	61	0	349175808	55	7378
2026-01-19 22:05:44.34	69.69	17.07	-41.7	-48.3	7.7	8.45e-02	0	61	0	351272960	55	7511
2026-01-19 22:05:45.35	69.91	17.10	-41.6	-48.2	7.7	8.48e-02	0	61	0	353370112	55	7419
2026-01-19 22:05:46.36	70.13	17.13	-41.5	-48.3	7.6	8.91e-02	0	61	0	354418688	55	7534
2026-01-19 22:05:47.37	70.36	17.16	-41.3	-48.0	7.7	8.67e-02	0	61	0	356515840	54	7707
2026-01-19 22:05:48.38	70.58	17.19	-41.2	-48.0	7.7	8.86e-02	0	61	0	358612992	54	7690
2026-01-19 22:05:49.39	70.80	17.22	-41.1	-47.9	7.7	8.80e-02	0	61	0	360710144	54	7551
2026-01-19 22:05:50.40	71.02	17.25	-41.1	-48.0	7.5	9.68e-02	0	61	0	362807296	54	7705
2026-01-19 22:05:51.41	71.25	17.28	-41.1	-48.2	7.3	1.26e-01	0	61	0	363855872	54	7855
2026-01-19 22:05:52.42	71.47	17.31	-41.2	-48.7	6.8	1.53e-01	0	61	0	365953024	54	8361
2026-01-19 22:05:53.42	71.69	17.34	-41.3	-49.1	6.4	2.19e-01	0	61	0	368050176	54	8696
2026-01-19 22:05:54.43	71.92	17.37	-41.4	-49.7	6.0	2.89e-01	0	61	0	370147328	54	9310
2026-01-19 22:05:55.44	72.15	17.39	-41.5	-50.1	5.7	3.55e-01	0	61	0	372244480	54	9829
2026-01-19 22:05:56.45	72.37	17.42	-41.4	-49.7	5.9	1.40e+00	0	61	104	372244480	54	9342
2026-01-19 22:05:57.46	72.60	17.45	-41.7	-54.6	3.8	1.41e+00	0	61	104	372244480	54	16408
2026-01-19 22:05:58.47	72.82	17.47	-41.2	-49.4	6.0	1.02e+00	0	61	0	372244480	54	9003
2026-01-19 22:05:59.48	73.05	17.50	-41.5	-51.2	4.9	1.23e+00	0	61	0	373293056	54	11127
2026-01-19 22:06:00.49	73.28	17.52	-41.2	-49.6	5.9	3.73e-01	0	61	0	375390208	54	9200
2026-01-19 22:06:01.49	73.50	17.55	-41.3	-49.9	5.6	4.31e-01	0	61	0	377487360	54	9562
2026-01-19 22:06:02.51	73.74	17.57	-41.3	-50.1	5.5	4.84e-01	0	61	0	379584512	54	9739
2026-01-19 22:06:03.51	73.96	17.60	-41.3	-50.2	5.5	4.79e-01	0	61	0	381681664	54	9838
2026-01-19 22:06:04.52	74.19	17.62	-41.3	-49.8	5.8	4.27e-01	0	61	0	382730240	54	9466
2026-01-19 22:06:05.53	74.42	17.65	-41.4	-49.6	6.1	3.31e-01	0	61	0	384827392	54	9211
2026-01-19 22:06:06.54	74.65	17.67	-41.8	-50.9	5.4	5.57e-01	0	61	0	386924544	54	10712
2026-01-19 22:06:07.55	74.88	17.69	-41.3	-49.1	4.7	1.43e+00	0	61	104	386924544	54	8746
2026-01-19 22:06:08.56	75.11	17.71	-41.8	-53.6	3.9	1.49e+00	0	61	104	386924544	54	14551
2026-01-19 22:06:09.57	75.34	17.73	-41.4	-49.1	6.5	1.22e+00	0	61	0	386924544	54	8715
2026-01-19 22:06:10.58	75.57	17.76	-41.5	-50.0	5.7	7.61e-01	0	61	0	389021696	54	9714
2026-01-19 22:06:11.59	75.80	17.78	-41.3	-49.0	6.5	2.49e-01	0	61	0	391118848	54	8594
2026-01-19 22:06:12.60	76.03	17.80	-41.3	-48.7	6.8	2.01e-01	0	61	0	393216000	54	8284
2026-01-19 22:06:13.60	76.26	17.82	-41.2	-48.4	7.1	1.64e-01	0	61	0	394264576	54	8044
2026-01-19 22:06:14.61	76.50	17.84	-41.2	-48.3	7.2	1.40e-01	0	61	0	396361728	54	7927
2026-01-19 22:06:15.62	76.73	17.85	-41.3	-48.7	6.8	1.48e-01	0	61	0	398458880	54	8291
2026-01-19 22:06:16.63	76.96	17.87	-41.5	-49.2	6.5	2.04e-01	0	61	0	400556032	54	8833
2026-01-19 22:06:17.64	77.20	17.89	-41.6	-50.3	5.7	2.66e-01	0	61	0	402653184	54	10020
2026-01-19 22:06:18.65	77.43	17.91	-41.6	-49.9	6.0	7.96e-01	0	61	0	403701760	54	9584
2026-01-19 22:06:19.66	77.66	17.93	-42.0	-55.4	3.8	1.39e+00	0	61	104	404750336	54	17957
2026-01-19 22:06:20.67	77.90	17.94	-42.0	-50.8	5.6	1.34e+00	0	61	104	404750336	54	10556
2026-01-19 22:06:21.68	78.13	17.96	-42.2	-51.2	5.2	1.38e+00	0	61	0	404750336	56	9913
2026-01-19 22:06:22.69	78.36	17.98	-41.7	-50.1	5.8	3.83e-01	0	61	0	406847488	55	9260
2026-01-19 22:06:23.70	78.60	17.99	-41.7	-50.2	5.8	3.85e-01	0	61	0	407896064	55	9363
2026-01-19 22:06:24.71	78.83	18.01	-41.8	-50.6	5.5	4.57e-01	0	61	0	409993216	55	9725
2026-01-19 22:06:25.72	79.07	18.02	-41.8	-50.8	5.4	4.64e-01	0	61	0	412090368	55	10057
2026-01-19 22:06:26.73	79.30	18.03	-41.8	-50.8	5.4	5.18e-01	0	61	0	414187520	55	9967
2026-01-19 22:06:27.73	79.54	18.05	-42.3	-53.6	4.2	7.38e-01	0	61	0	415236096	55	13807
2026-01-19 22:06:28.74	79.77	18.06	-42.6	-56.0	3.8	1.49e+00	0	61	104	415236096	55	18121
2026-01-19 22:06:29.75	80.01	18.07	-42.0	-52.9	4.5	1.41e+00	0	61	0	415236096	55	12780
2026-01-19 22:06:30.76	80.25	18.09	-42.4	-51.9	4.8	1.28e+00	0	61	104	415236096	55	11406
2026-01-19 22:06:31.77	80.48	18.10	-41.8	-50.9	5.5	2.27e-01	0	61	0	416284672	55	10061
2026-01-19 22:06:32.78	80.72	18.11	-41.6	-48.4	7.5	9.38e-01	0	61	0	418381824	55	7609
2026-01-19 22:06:33.79	80.96	18.12	-41.6	-48.1	8.1	6.28e-02	0	61	0	420478976	55	7298
2026-01-19 22:06:34.80	81.19	18.13	-41.6	-47.7	8.5	5.33e-02	0	61	0	422576128	55	7019
2026-01-19 22:06:35.81	81.43	18.14	-41.7	-47.7	8.5	4.04e-02	0	61	0	423624704	55	6961
2026-01-19 22:06:36.82	81.67	18.15	-41.7	-47.8	8.5	4.03e-02	0	61	0	425721856	55	7058
2026-01-19 22:06:37.83	81.90	18.16	-41.7	-47.7	8.6	4.10e-02	0	61	0	427819008	55	6970
2026-01-19 22:06:38.84	82.14	18.17	-41.7	-47.7	8.6	3.48e-02	0	61	0	429916160	55	7001
2026-01-19 22:06:39.85	82.38	18.17	-41.8	-47.7	8.6	3.62e-02	0	61	0	432013312	55	7027
2026-01-19 22:06:40.86	82.62	18.18	-41.8	-47.8	8.5	4.08e-02	0	61	0	433061888	55	7114
2026-01-19 22:06:41.87	82.85	18.19	-41.9	-47.9	8.6	3.97e-02	0	61	0	435159040	55	7127
2026-01-19 22:06:42.88	83.09	18.20	-41.9	-47.9	8.6	3.86e-02	0	61	0	437256192	55	7122
2026-01-19 22:06:43.89	83.33	18.20	-42.0	-48.1	8.4	4.17e-02	0	61	0	439353344	55	7327
2026-01-19 22:06:44.90	83.57	18.21	-41.9	-48.0	8.4	4.42e-02	0	61	0	441450496	55	7237
2026-01-19 22:06:45.91	83.81	18.21	-41.9	-48.1	8.3	4.69e-02	0	61	0	442499072	55	7335
2026-01-19 22:06:46.92	84.05	18.22	-41.9	-48.3	8.1	6.18e-02	0	61	0	444596224	55	7472
2026-01-19 22:06:47.93	84.28	18.22	-41.9	-48.6	7.6	8.01e-02	0	61	0	446693376	55	7753
2026-01-19 22:06:48.93	84.52	18.23	-41.8	-48.6	7.6	9.81e-02	0	61	0	448790528	55	7729
2026-01-19 22:06:49.94	84.76	18.23	-41.7	-48.6	7.6	9.66e-02	0	61	0	450887680	55	7751
2026-01-19 22:06:50.95	85.00	18.23	-41.7	-48.4	7.7	9.34e-02	0	61	0	452984832	55	7582
2026-01-19 22:06:51.96	85.24	18.23	-41.7	-48.1	8.0	7.92e-02	0	61	0	454033408	55	7340
2026-01-19 22:06:52.97	85.47	18.24	-41.6	-48.0	8.2	5.82e-02	0	61	0	456130560	55	7216
2026-01-19 22:06:53.98	85.71	18.24	-41.7	-48.0	8.2	5.21e-02	0	61	0	458227712	55	7254
2026-01-19 22:06:54.99	85.95	18.24	-41.7	-48.1	8.2	5.18e-02	0	61	0	460324864	55	7315
2026-01-19 22:06:56.00	86.19	18.24	-41.7	-48.0	8.2	4.90e-02	0	62	0	462422016	55	7221
2026-01-19 22:06:57.01	86.43	18.24	-41.6	-48.0	8.2	5.29e-02	0	61	0	463470592	55	7220
2026-01-19 22:06:58.02	86.67	18.24	-41.7	-48.1	8.1	5.47e-02	0	61	0	465567744	55	7334
2026-01-19 22:06:59.03	86.91	18.24	-41.8	-48.5	7.7	7.89e-02	0	61	0	467664896	55	7688
2026-01-19 22:07:00.04	87.15	18.23	-41.8	-48.6	7.5	9.26e-02	0	61	0	469762048	55	7783
2026-01-19 22:07:01.05	87.38	18.23	-41.9	-48.6	7.6	8.89e-02	0	61	0	471859200	55	7770
2026-01-19 22:07:02.06	87.62	18.23	-42.0	-48.5	7.8	8.58e-02	0	62	0	472907776	55	7681
2026-01-19 22:07:03.07	87.86	18.23	-42.1	-48.7	7.8	7.74e-02	0	61	0	475004928	55	7839
2026-01-19 22:07:04.08	88.10	18.22	-42.1	-48.5	8.0	7.30e-02	0	61	0	477102080	55	7708
2026-01-19 22:07:05.09	88.34	18.22	-42.2	-48.5	8.2	5.43e-02	0	61	0	479199232	55	7642
2026-01-19 22:07:06.09	88.57	18.22	-42.2	-48.3	8.4	4.73e-02	0	62	0	481296384	55	7482
2026-01-19 22:07:07.10	88.81	18.21	-42.2	-48.2	8.5	4.86e-02	0	62	0	482344960	55	7433
2026-01-19 22:07:08.12	89.05	18.20	-42.1	-48.0	8.6	4.16e-02	0	61	0	484442112	55	7260
2026-01-19 22:07:09.13	89.29	18.20	-42.1	-48.1	8.6	4.13e-02	0	61	0	486539264	55	7302
2026-01-19 22:07:10.13	89.53	18.19	-42.1	-47.9	8.7	3.50e-02	0	62	0	488636416	55	7191
2026-01-19 22:07:11.14	89.77	18.19	-42.1	-47.9	8.9	2.94e-02	0	62	0	490733568	55	7148
2026-01-19 22:07:12.15	90.00	18.18	-42.2	-47.9	9.0	2.59e-02	0	61	0	491782144	55	7154
2026-01-19 22:07:13.16	90.24	18.17	-42.2	-47.8	9.1	2.52e-02	0	61	0	493879296	55	7088
2026-01-19 22:07:14.17	90.48	18.16	-42.2	-47.7	9.3	1.98e-02	0	61	0	495976448	55	7023
2026-01-19 22:07:15.18	90.72	18.15	-42.2	-47.4	9.8	1.52e-02	0	61	0	498073600	55	6743
2026-01-19 22:07:16.19	90.95	18.14	-42.1	-47.0	10.2	6.66e-03	0	62	0	500170752	55	6486
2026-01-19 22:07:17.20	91.19	18.13	-41.9	-46.6	10.7	3.97e-03	0	61	0	501219328	55	6134
2026-01-19 22:07:18.21	91.43	18.12	-41.7	-46.2	11.1	2.10e-03	0	61	0	503316480	55	5861
2026-01-19 22:07:19.22	91.67	18.11	-41.6	-45.8	11.6	8.88e-04	0	61	0	505413632	55	5600
2026-01-19 22:07:20.23	91.90	18.10	-41.5	-45.4	12.0	5.29e-04	0	62	0	507510784	54	5721
2026-01-19 22:07:21.24	92.14	18.09	-41.5	-45.5	12.0	3.17e-04	0	61	0	509607936	54	5726
2026-01-19 22:07:22.25	92.38	18.08	-41.6	-45.6	11.9	3.50e-04	0	61	0	510656512	54	5842
2026-01-19 22:07:23.26	92.61	18.07	-41.7	-45.7	11.9	4.93e-04	0	61	0	512753664	54	5909
2026-01-19 22:07:24.26	92.85	18.05	-41.8	-46.0	11.6	6.98e-04	0	62	0	514850816	54	6113
2026-01-19 22:07:25.27	93.08	18.04	-42.0	-46.3	11.3	9.57e-04	0	61	0	516947968	54	6345
2026-01-19 22:07:26.28	93.32	18.03	-42.1	-46.7	11.0	1.54e-03	0	62	0	519045120	54	6590
2026-01-19 22:07:27.29	93.55	18.01	-42.2	-46.9	10.7	2.45e-03	0	62	0	521142272	55	6401
2026-01-19 22:07:28.30	93.79	18.00	-42.3	-47.1	10.5	2.95e-03	0	61	0	522190848	55	6545
2026-01-19 22:07:29.31	94.02	17.98	-42.3	-47.0	10.6	3.80e-03	0	61	0	524288000	55	6447
2026-01-19 22:07:30.33	94.26	17.97	-42.3	-47.0	10.7	3.94e-03	0	61	0	526385152	55	6435
2026-01-19 22:07:31.33	94.49	17.95	-42.3	-47.1	10.5	3.51e-03	0	62	0	528482304	55	6547
2026-01-19 22:07:32.35	94.73	17.93	-42.3	-47.1	10.6	3.43e-03	0	62	0	530579456	55	6502
2026-01-19 22:07:33.36	94.96	17.92	-42.3	-46.9	10.7	3.58e-03	0	62	0	531628032	55	6417
2026-01-19 22:07:34.37	95.20	17.90	-42.3	-47.0	10.8	3.01e-03	0	62	0	533725184	55	6427
2026-01-19 22:07:35.37	95.43	17.88	-42.2	-46.8	10.9	2.76e-03	0	61	0	535822336	55	6331
2026-01-19 22:07:36.39	95.67	17.86	-42.0	-46.3	11.4	1.35e-03	0	62	0	537919488	55	5987
2026-01-19 22:07:37.40	95.90	17.84	-42.0	-46.3	11.5	9.19e-04	0	61	0	540016640	55	5948
2026-01-19 22:07:38.41	96.13	17.82	-41.9	-45.9	11.8	8.13e-04	0	61	0	541065216	55	5722
2026-01-19 22:07:39.41	96.36	17.80	-41.9	-46.2	11.6	6.36e-04	0	62	0	543162368	55	5867
2026-01-19 22:07:40.42	96.59	17.78	-42.1	-46.4	11.4	9.56e-04	0	62	0	545259520	55	6004
2026-01-19 22:07:41.43	96.83	17.76	-42.2	-46.7	11.0	1.21e-03	0	62	0	547356672	55	6252
2026-01-19 22:07:42.44	97.06	17.74	-42.3	-46.8	10.9	2.13e-03	0	61	0	549453824	55	6332
2026-01-19 22:07:43.45	97.29	17.72	-42.3	-46.9	10.9	2.20e-03	0	61	0	550502400	55	6351
2026-01-19 22:07:44.46	97.52	17.70	-42.2	-46.7	11.0	2.11e-03	0	61	0	552599552	55	6257
2026-01-19 22:07:45.47	97.75	17.68	-42.1	-46.5	11.2	1.54e-03	0	62	0	554696704	55	6107
2026-01-19 22:07:46.48	97.98	17.65	-42.0	-46.2	11.5	1.19e-03	0	62	0	556793856	55	5913
2026-01-19 22:07:47.49	98.21	17.63	-41.9	-46.1	11.6	9.38e-04	0	62	0	558891008	55	5834
2026-01-19 22:07:48.50	98.44	17.61	-41.9	-46.1	11.7	5.36e-04	0	62	0	559939584	55	5804
2026-01-19 22:07:49.51	98.67	17.58	-41.9	-46.0	11.7	5.62e-04	0	62	0	562036736	55	5768
2026-01-19 22:07:50.52	98.90	17.56	-41.9	-46.0	11.8	4.81e-04	0	62	0	564133888	55	5736
2026-01-19 22:07:51.53	99.13	17.53	-42.0	-46.1	11.7	6.38e-04	0	62	0	566231040	55	5837
2026-01-19 22:07:52.54	99.36	17.51	-42.0	-46.2	11.6	7.07e-04	0	62	0	568328192	55	5868
2026-01-19 22:07:53.55	99.58	17.48	-41.9	-46.1	11.7	6.92e-04	0	61	0	569376768	55	5839
2026-01-19 22:07:54.56	99.81	17.46	-41.8	-45.9	11.9	4.43e-04	0	61	0	571473920	55	5669
2026-01-19 22:07:55.57	100.04	17.43	-41.8	-45.8	11.9	3.10e-04	0	61	0	573571072	55	5649
2026-01-19 22:07:56.58	100.26	17.40	-41.7	-45.6	12.2	2.01e-04	0	62	0	575668224	55	5506
2026-01-19 22:07:57.59	100.49	17.38	-41.6	-45.5	12.3	1.85e-04	0	62	0	577765376	54	5758
2026-01-19 22:07:58.60	100.72	17.35	-41.6	-45.4	12.4	1.40e-04	0	62	0	578813952	54	5713
2026-01-19 22:07:59.61	100.94	17.32	-41.6	-45.5	12.3	1.33e-04	0	61	0	580911104	53	6101
2026-01-19 22:08:00.62	101.17	17.29	-41.7	-45.6	12.2	1.99e-04	0	62	0	583008256	54	5828
2026-01-19 22:08:01.63	101.39	17.26	-41.7	-45.6	12.2	2.05e-04	0	62	0	585105408	54	5846
2026-01-19 22:08:02.65	101.62	17.23	-41.9	-45.9	11.9	2.74e-04	0	61	0	587202560	54	6039
2026-01-19 22:08:03.65	101.84	17.20	-41.8	-45.7	12.2	2.82e-04	0	62	0	589299712	54	5900
2026-01-19 22:08:04.66	102.06	17.17	-41.8	-45.8	12.0	2.62e-04	0	62	0	590348288	54	5969
2026-01-19 22:08:05.67	102.29	17.14	-41.8	-45.8	12.0	2.76e-04	0	62	0	592445440	54	5970
2026-01-19 22:08:06.68	102.51	17.11	-41.8	-45.8	12.1	2.22e-04	0	62	0	594542592	54	5935
2026-01-19 22:08:07.69	102.73	17.08	-41.8	-45.8	12.0	2.65e-04	0	62	0	596639744	54	5953
2026-01-19 22:08:08.70	102.95	17.05	-41.7	-45.6	12.2	1.95e-04	0	62	0	598736896	54	5813
2026-01-19 22:08:09.71	103.17	17.02	-41.7	-45.6	12.2	2.20e-04	0	62	0	599785472	54	5854
2026-01-19 22:08:10.72	103.39	16.98	-41.7	-45.7	12.1	2.39e-04	0	61	0	601882624	54	5879
2026-01-19 22:08:11.73	103.61	16.95	-41.8	-45.8	12.1	2.68e-04	0	61	0	603979776	54	5934
2026-01-19 22:08:12.74	103.83	16.92	-41.8	-45.9	12.0	2.53e-04	0	62	0	606076928	54	6012
2026-01-19 22:08:13.75	104.05	16.89	-41.8	-45.8	12.0	2.61e-04	0	62	0	608174080	54	5970
2026-01-19 22:08:14.76	104.27	16.85	-41.8	-45.7	12.1	2.32e-04	0	62	0	609222656	54	5920
2026-01-19 22:08:15.77	104.49	16.82	-41.8	-45.7	12.1	2.94e-04	0	62	0	611319808	54	5922
2026-01-19 22:08:16.78	104.71	16.78	-41.8	-45.9	11.9	2.97e-04	0	62	0	613416960	54	6022
2026-01-19 22:08:17.79	104.93	16.75	-41.9	-46.0	11.8	5.21e-04	0	62	0	615514112	54	6081
2026-01-19 22:08:18.80	105.14	16.71	-41.9	-46.0	11.8	4.93e-04	0	62	0	617611264	54	6109
2026-01-19 22:08:19.81	105.36	16.68	-41.9	-46.0	11.8	4.78e-04	0	62	0	618659840	54	6101
2026-01-19 22:08:20.82	105.58	16.64	-41.8	-45.8	12.0	3.49e-04	0	62	0	620756992	54	5933
2026-01-19 22:08:21.82	105.79	16.61	-41.7	-45.6	12.2	2.27e-04	0	62	0	622854144	54	5819
2026-01-19 22:08:22.83	106.00	16.57	-41.7	-45.5	12.3	2.23e-04	0	61	0	624951296	54	5782
2026-01-19 22:08:23.84	106.22	16.53	-41.7	-45.6	12.2	1.62e-04	0	61	0	627048448	54	5805
2026-01-19 22:08:24.85	106.43	16.50	-41.8	-45.9	12.0	2.75e-04	0	62	0	628097024	54	5996
2026-01-19 22:08:25.86	106.65	16.46	-41.9	-46.0	11.8	3.84e-04	0	62	0	630194176	54	6070
2026-01-19 22:08:26.87	106.86	16.42	-41.9	-46.1	11.7	5.92e-04	0	62	0	632291328	54	6184
2026-01-19 22:08:27.88	107.07	16.38	-42.0	-46.2	11.6	6.44e-04	0	62	0	634388480	54	6204
2026-01-19 22:08:28.89	107.28	16.34	-41.8	-45.9	12.0	3.90e-04	0	61	0	636485632	54	6002
2026-01-19 22:08:29.90	107.49	16.31	-41.8	-45.8	12.0	3.43e-04	0	62	0	637534208	54	5934
2026-01-19 22:08:30.91	107.71	16.27	-41.9	-46.0	11.8	2.73e-04	0	62	0	639631360	54	6067
2026-01-19 22:08:31.92	107.92	16.23	-41.8	-46.1	11.7	3.40e-04	0	62	0	641728512	54	6145
2026-01-19 22:08:32.93	108.13	16.19	-42.0	-46.2	11.6	6.87e-04	0	62	0	643825664	54	6208
2026-01-19 22:08:33.94	108.33	16.15	-42.2	-46.7	11.1	1.43e-03	0	62	0	645922816	54	6577
2026-01-19 22:08:34.95	108.54	16.11	-42.3	-47.0	10.8	2.55e-03	0	62	0	646971392	55	6438
2026-01-19 22:08:35.96	108.75	16.07	-42.4	-47.2	10.5	4.04e-03	0	62	0	649068544	55	6634
2026-01-19 22:08:36.96	108.96	16.03	-42.5	-47.4	10.4	4.80e-03	0	62	0	651165696	55	6741
2026-01-19 22:08:37.98	109.17	15.99	-42.4	-47.2	10.5	4.54e-03	0	62	0	653262848	55	6645
2026-01-19 22:08:38.98	109.37	15.94	-42.3	-47.0	10.7	3.92e-03	0	62	0	655360000	55	6445
2026-01-19 22:08:39.99	109.58	15.90	-42.2	-46.7	11.1	1.87e-03	0	62	0	657457152	55	6208
2026-01-19 22:08:41.00	109.78	15.86	-42.1	-46.4	11.4	1.37e-03	0	62	0	658505728	55	6038
2026-01-19 22:08:42.01	109.99	15.82	-41.9	-46.1	11.7	9.98e-04	0	62	0	660602880	55	5825
2026-01-19 22:08:43.02	110.19	15.78	-41.9	-45.9	11.9	6.51e-04	0	62	0	662700032	55	5711
2026-01-19 22:08:44.03	110.39	15.73	-41.8	-45.8	11.9	4.03e-04	0	62	0	664797184	55	5655
2026-01-19 22:08:45.04	110.60	15.69	-41.8	-45.8	12.0	3.89e-04	0	62	0	666894336	55	5610
2026-01-19 22:08:46.05	110.80	15.65	-41.9	-46.0	11.8	3.83e-04	0	62	0	667942912	55	5724
2026-01-19 22:08:47.06	111.00	15.60	-41.8	-45.9	11.9	3.57e-04	0	62	0	670040064	55	5695
2026-01-19 22:08:48.07	111.20	15.56	-41.9	-45.9	11.9	4.40e-04	0	62	0	672137216	55	5698
2026-01-19 22:08:49.08	111.40	15.52	-41.9	-46.1	11.6	4.69e-04	0	62	0	674234368	55	5839
2026-01-19 22:08:50.09	111.60	15.47	-42.0	-46.3	11.4	7.67e-04	0	62	0	676331520	55	5988
2026-01-19 22:08:51.10	111.80	15.43	-42.1	-46.4	11.3	1.15e-03	0	62	0	677380096	55	6054
2026-01-19 22:08:52.11	112.00	15.38	-42.3	-46.9	10.8	1.86e-03	0	62	0	679477248	55	6410
2026-01-19 22:08:53.12	112.20	15.34	-42.4	-47.3	10.4	4.70e-03	0	62	0	681574400	55	6676
2026-01-19 22:08:54.12	112.40	15.29	-42.7	-48.1	9.7	8.62e-03	0	62	0	683671552	55	7310
2026-01-19 22:08:55.13	112.59	15.25	-43.1	-48.8	9.0	1.37e-02	0	62	0	685768704	56	7461
2026-01-19 22:08:56.14	112.79	15.20	-43.0	-48.7	9.1	1.89e-02	0	62	0	686817280	56	7412
2026-01-19 22:08:57.15	112.99	15.16	-43.0	-48.5	9.3	1.91e-02	0	62	0	688914432	56	7270
2026-01-19 22:08:58.16	113.18	15.11	-43.0	-48.5	9.3	1.87e-02	0	62	0	691011584	56	7229
2026-01-19 22:08:59.17	113.38	15.06	-42.7	-47.8	10.0	1.19e-02	0	62	0	693108736	56	6710
2026-01-19 22:09:00.18	113.57	15.02	-42.6	-47.6	10.4	5.79e-03	0	62	0	695205888	56	6515
2026-01-19 22:09:01.19	113.77	14.97	-42.6	-47.4	10.4	4.84e-03	0	62	0	696254464	56	6391
2026-01-19 22:09:02.20	113.96	14.92	-42.4	-47.1	10.7	3.82e-03	0	62	0	698351616	56	6181
2026-01-19 22:09:03.21	114.15	14.88	-42.3	-46.8	11.0	2.02e-03	0	62	0	700448768	56	5989
2026-01-19 22:09:04.22	114.34	14.83	-42.3	-46.8	11.0	1.65e-03	0	62	0	702545920	56	5970
2026-01-19 22:09:05.23	114.54	14.78	-42.3	-46.7	11.1	1.26e-03	0	62	0	704643072	56	5905
2026-01-19 22:09:06.24	114.73	14.73	-42.2	-46.5	11.4	8.92e-04	0	62	0	705691648	56	5774
2026-01-19 22:09:07.25	114.92	14.69	-42.2	-46.6	11.3	1.33e-03	0	62	0	707788800	56	5821
2026-01-19 22:09:08.26	115.11	14.64	-42.0	-46.3	11.3	1.24e-03	0	62	0	709885952	55	5961
2026-01-19 22:09:09.27	115.30	14.59	-42.2	-46.7	10.9	1.59e-03	0	62	0	711983104	55	6249
2026-01-19 22:09:10.27	115.48	14.54	-42.3	-47.0	10.6	3.65e-03	0	62	0	714080256	55	6482
2026-01-19 22:09:11.28	115.67	14.49	-42.3	-47.2	10.4	5.22e-03	0	62	0	715128832	55	6625
2026-01-19 22:09:12.29	115.86	14.44	-42.5	-47.7	9.9	7.35e-03	0	62	0	717225984	55	7006
2026-01-19 22:09:13.30	116.04	14.39	-42.5	-47.6	10.0	7.67e-03	0	62	0	719323136	55	6897
2026-01-19 22:09:14.31	116.23	14.34	-42.4	-47.4	10.2	1.34e-02	0	62	0	721420288	55	6724
2026-01-19 22:09:15.32	116.42	14.29	-42.3	-47.3	10.3	1.13e-02	0	62	0	723517440	55	6698
2026-01-19 22:09:16.33	116.60	14.24	-42.3	-47.1	10.5	4.05e-03	0	62	0	725614592	55	6510
2026-01-19 22:09:17.34	116.79	14.19	-42.2	-47.1	10.3	5.11e-03	0	62	0	726663168	54	6899
2026-01-19 22:09:18.35	116.97	14.14	-42.2	-47.0	10.6	6.20e-03	0	62	0	728760320	54	6810
2026-01-19 22:09:19.36	117.15	14.09	-42.0	-47.0	10.2	5.01e-02	0	62	0	730857472	54	6830
2026-01-19 22:09:20.37	117.34	14.04	-42.1	-46.9	10.4	6.67e-03	0	62	0	732954624	55	6389
2026-01-19 22:09:21.38	117.52	13.99	-42.2	-47.1	10.5	2.61e-02	0	62	0	735051776	55	6509
2026-01-19 22:09:22.39	117.70	13.94	-42.0	-47.0	10.5	6.06e-02	0	62	0	736100352	55	6431
2026-01-19 22:09:23.40	117.88	13.89	-42.1	-46.7	10.8	5.28e-03	0	62	0	738197504	54	6572
2026-01-19 22:09:24.41	118.06	13.84	-42.5	-47.0	9.1	6.34e-03	0	62	0	740294656	54	6874
2026-01-19 22:09:25.42	118.24	13.79	-38.0	-46.4	10.4	2.83e-02	0	62	0	742391808	54	6413
2026-01-19 22:09:26.43	118.42	13.74	-40.0	-46.3	10.2	5.78e-02	0	62	0	744488960	53	6713
2026-01-19 22:09:27.44	118.60	13.69	-37.0	-46.7	10.0	4.78e-02	0	62	0	745537536	54	6625
2026-01-19 22:09:28.45	118.77	13.64	-39.8	-46.8	9.2	6.99e-02	0	62	0	747634688	53	7073
2026-01-19 22:09:29.45	118.95	13.58	-42.4	-47.7	9.3	1.12e-01	0	62	0	749731840	53	7857
2026-01-19 22:09:30.47	119.13	13.53	-41.5	-47.3	9.0	7.53e-02	0	62	0	751828992	52	7953
2026-01-19 22:09:31.47	119.30	13.48	-40.1	-47.3	9.0	5.56e-02	0	62	0	753926144	53	7495
2026-01-19 22:09:32.48	119.48	13.43	-42.0	-47.5	8.9	4.52e-02	0	62	0	754974720	53	7715
2026-01-19 22:09:33.49	119.65	13.38	-41.3	-47.1	9.5	7.51e-02	0	62	0	757071872	54	6920
2026-01-19 22:09:34.50	119.83	13.32	-40.8	-46.8	9.4	5.14e-02	0	62	0	759169024	53	7103
2026-01-19 22:09:35.51	120.00	13.27	-40.8	-46.6	8.6	5.91e-02	0	62	0	761266176	50	8182
2026-01-19 22:09:36.52	120.17	13.22	-41.5	-46.7	9.4	9.88e-02	0	62	0	763363328	52	7451
2026-01-19 22:09:37.53	120.34	13.17	-40.5	-46.2	9.4	6.97e-02	0	62	0	764411904	51	7412
2026-01-19 22:09:38.54	120.52	13.11	-41.0	-46.2	9.5	8.17e-02	0	62	0	766509056	51	7386
2026-01-19 22:09:39.55	120.69	13.06	-40.8	-46.7	9.9	1.00e-01	0	62	0	768606208	52	7421
2026-01-19 22:09:40.56	120.86	13.01	-41.3	-46.3	9.4	6.02e-02	0	62	0	770703360	51	7516
2026-01-19 22:09:41.57	121.03	12.95	-40.5	-47.0	8.3	1.29e-01	0	62	0	772800512	51	8098
2026-01-19 22:09:42.58	121.20	12.90	-40.6	-46.3	8.8	1.32e-01	0	62	0	773849088	50	7943
2026-01-19 22:09:43.59	121.37	12.85	-34.3	-45.1	7.6	2.00e-01	0	62	0	775946240	47	8259
2026-01-19 22:09:44.60	121.53	12.79	-41.5	-46.8	9.2	1.34e-01	0	62	0	778043392	52	7480
2026-01-19 22:09:45.61	121.70	12.74	-34.3	-44.8	7.1	1.24e-01	0	62	0	780140544	46	8455
2026-01-19 22:09:46.62	121.87	12.68	-40.9	-47.0	8.5	9.12e-02	0	62	0	782237696	51	8130
2026-01-19 22:09:47.63	122.03	12.63	-40.4	-46.6	8.4	1.49e-01	0	62	0	783286272	52	7319
2026-01-19 22:09:48.63	122.20	12.58	-41.3	-46.7	8.7	1.70e-01	0	62	0	785383424	51	7845
2026-01-19 22:09:49.64	122.36	12.52	-39.0	-46.8	7.3	8.81e-02	0	62	0	787480576	47	9962
2026-01-19 22:09:50.65	122.53	12.47	-38.8	-46.8	8.4	2.31e-01	0	62	0	789577728	49	8873
2026-01-19 22:09:51.66	122.69	12.41	-31.7	-45.5	7.6	1.71e-01	0	62	0	790626304	48	8111
2026-01-19 22:09:52.67	122.86	12.36	-41.8	-47.1	7.3	2.71e-01	0	62	0	792723456	46	10973
2026-01-19 22:09:53.68	123.02	12.31	-37.3	-46.0	6.6	3.27e-01	0	62	0	794820608	42	12154
2026-01-19 22:09:54.69	123.18	12.25	-39.9	-46.3	8.0	3.69e-01	0	62	0	796917760	51	7533
2026-01-19 22:09:55.70	123.34	12.20	-36.0	-45.8	8.5	3.43e-01	0	62	0	797966336	45	9996
2026-01-19 22:09:56.71	123.50	12.14	-38.8	-45.5	9.0	2.20e-01	0	62	0	800063488	47	8622
2026-01-19 22:09:57.72	123.66	12.09	-35.2	-45.0	8.2	4.08e-01	0	62	0	802160640	42	10877
2026-01-19 22:09:58.73	123.82	12.03	-36.8	-45.0	6.8	3.23e-01	0	62	0	803209216	45	9167
2026-01-19 22:09:59.74	123.98	11.98	-39.8	-45.8	9.5	2.17e-01	0	62	0	805306368	49	7935
2026-01-19 22:10:00.75	124.14	11.92	-38.0	-45.9	8.6	4.04e-01	0	62	0	807403520	47	8971
2026-01-19 22:10:01.76	124.30	11.87	-39.6	-45.9	8.4	2.83e-01	0	62	0	808452096	46	9577
2026-01-19 22:10:02.77	124.46	11.81	-39.8	-46.4	6.0	3.07e-01	0	62	0	810549248	50	8024
2026-01-19 22:10:03.78	124.62	11.76	-34.7	-46.0	7.9	2.66e-01	0	62	0	812646400	50	7703
2026-01-19 22:10:04.79	124.77	11.70	-38.3	-46.9	7.3	4.11e-01	0	62	0	813694976	45	11339
2026-01-19 22:10:05.80	124.93	11.65	-33.4	-45.5	5.0	5.17e-01	0	62	104	815792128	38	14534
2026-01-19 22:10:06.80	125.08	11.59	-35.3	-45.4	7.2	2.24e-01	0	62	0	815792128	40	12788
2026-01-19 22:10:07.81	125.24	11.54	-35.7	-45.3	8.0	2.87e-01	0	62	0	817889280	41	11864
2026-01-19 22:10:08.82	125.39	11.48	-33.2	-46.0	7.5	3.98e-01	0	62	0	819986432	39	14394
2026-01-19 22:10:09.83	125.54	11.42	-26.7	-42.0	4.7	1.37e+00	0	62	104	819986432	25	20452
2026-01-19 22:10:10.84	125.70	11.37	-21.9	-37.5	4.1	1.35e+00	0	62	104	819986432	16	20523
2026-01-19 22:10:11.85	125.85	11.31	-19.5	-35.8	4.0	1.36e+00	0	62	104	819986432	18	14926
2026-01-19 22:10:12.86	126.00	11.26	-21.0	-37.2	4.4	1.40e+00	0	62	104	819986432	24	12455
2026-01-19 22:10:13.87	126.15	11.20	-33.6	-50.8	5.6	1.41e+00	0	62	104	819986432	27	50380
2026-01-19 22:10:14.88	126.30	11.15	-21.7	-36.0	3.8	1.47e+00	0	62	104	819986432	15	18185
2026-01-19 22:10:15.88	126.45	11.09	-24.7	-37.2	3.3	1.50e+00	0	62	104	819986432	17	18718
2026-01-19 22:10:16.89	126.60	11.03	-21.5	-33.9	3.6	1.51e+00	0	62	104	819986432	12	17003
2026-01-19 22:10:17.90	126.75	10.98	-24.3	-37.0	3.7	1.50e+00	0	62	104	819986432	16	19249
2026-01-19 22:10:18.92	126.90	10.92	-22.5	-35.5	3.5	1.49e+00	0	62	0	819986432	13	19215
2026-01-19 22:10:19.92	127.05	10.87	-21.6	-37.2	3.8	1.49e+00	0	62	104	819986432	16	19678
2026-01-19 22:10:20.93	127.20	10.81	-20.7	-36.5	3.3	1.49e+00	0	62	104	819986432	12	22876
2026-01-19 22:10:21.94	127.34	10.75	-25.7	-39.0	4.1	1.49e+00	0	62	104	819986432	17	22856
2026-01-19 22:10:22.95	127.49	10.70	-28.8	-44.6	4.0	1.41e+00	0	62	104	819986432	26	25911
2026-01-19 22:10:23.96	127.64	10.64	-24.2	-36.8	3.1	1.46e+00	0	62	104	819986432	13	22294
2026-01-19 22:10:24.97	127.78	10.58	-22.4	-40.3	3.9	1.49e+00	0	62	104	819986432	19	23819
2026-01-19 22:10:25.98	127.93	10.53	-17.1	-32.5	3.4	1.49e+00	0	62	104	819986432	6	20427
2026-01-19 22:10:26.99	128.07	10.47	-20.2	-36.4	3.4	1.49e+00	0	62	104	819986432	14	20180
2026-01-19 22:10:28.00	128.21	10.42	-15.7	-32.2	3.3	1.49e+00	0	62	104	819986432	7	18625
2026-01-19 22:10:29.01	128.36	10.36	-23.0	-37.0	3.2	1.49e+00	0	62	104	819986432	14	21746
2026-01-19 22:10:30.02	128.50	10.30	-16.7	-29.9	3.4	1.49e+00	0	62	104	819986432	8	13463
2026-01-19 22:10:31.03	128.64	10.25	-22.6	-40.5	3.5	1.48e+00	0	62	104	819986432	20	22827
2026-01-19 22:10:32.04	128.78	10.19	-24.3	-38.4	3.3	1.48e+00	0	62	104	819986432	17	21485
2026-01-19 22:10:33.04	128.92	10.13	-20.7	-35.7	3.4	1.48e+00	0	62	0	819986432	14	18553
2026-01-19 22:10:34.05	129.06	10.08	-20.3	-37.6	3.1	1.48e+00	0	62	104	819986432	16	20761
2026-01-19 22:10:35.06	129.20	10.02	-24.6	-39.1	3.0	1.48e+00	0	62	104	819986432	13	29167
2026-01-19 22:10:36.07	129.34	9.96	-22.2	-39.3	3.4	1.47e+00	0	62	0	819986432	17	23694
2026-01-19 22:10:37.08	129.48	9.91	-23.7	-40.0	3.2	1.48e+00	0	62	104	819986432	18	24206
2026-01-19 22:10:38.09	129.62	9.85	-24.0	-39.6	3.2	1.48e+00	0	62	104	819986432	17	24470
2026-01-19 22:10:39.10	129.76	9.79	-22.8	-37.3	3.4	1.48e+00	0	62	0	819986432	17	18945
2026-01-19 22:10:40.11	129.90	9.74	-19.4	-37.2	3.4	1.49e+00	0	62	104	819986432	13	23349
2026-01-19 22:10:41.12	130.03	9.68	-24.8	-39.8	3.3	1.48e+00	0	62	104	819986432	17	25243
2026-01-19 22:10:42.13	130.17	9.62	-25.3	-38.8	3.4	1.48e+00	0	62	104	819986432	16	23588
2026-01-19 22:10:43.14	130.30	9.57	-24.7	-38.6	3.5	1.48e+00	0	62	104	819986432	18	20591
2026-01-19 22:10:44.15	130.44	9.51	-24.8	-37.6	3.3	1.48e+00	0	62	104	819986432	16	20745
2026-01-19 22:10:45.16	130.58	9.45	-24.5	-35.2	3.2	1.48e+00	0	62	104	819986432	12	19755
2026-01-19 22:10:46.17	130.71	9.40	-20.6	-36.2	3.2	1.49e+00	0	62	104	819986432	14	19817
2026-01-19 22:10:47.18	130.84	9.34	-23.5	-31.7	3.5	1.49e+00	0	62	104	819986432	6	18693
2026-01-19 22:10:48.19	130.98	9.28	-20.4	-35.9	3.3	1.48e+00	0	62	104	819986432	13	20131
2026-01-19 22:10:49.20	131.11	9.23	-25.1	-40.6	3.1	1.48e+00	0	62	104	819986432	19	24673
2026-01-19 22:10:50.21	131.24	9.17	-16.2	-33.3	3.7	1.50e+00	0	62	104	819986432	12	15808
2026-01-19 22:10:51.21	131.37	9.11	-22.1	-35.5	3.3	1.50e+00	0	62	104	819986432	11	21695
2026-01-19 22:10:52.22	131.50	9.06	-22.7	-36.4	3.2	1.49e+00	0	62	104	819986432	12	22678
2026-01-19 22:10:53.23	131.63	9.00	-21.8	-36.4	3.4	1.49e+00	0	62	104	819986432	12	22656
2026-01-19 22:10:54.23	131.76	8.94	-20.6	-37.4	3.3	1.48e+00	0	62	104	819986432	10	28416
2026-01-19 22:10:55.24	131.89	8.89	-26.1	-38.9	3.4	1.48e+00	0	62	104	819986432	17	22539
2026-01-19 22:10:56.25	132.02	8.83	-15.9	-36.1	3.6	1.49e+00	0	62	104	819986432	10	24541
2026-01-19 22:10:57.26	132.15	8.77	-17.0	-36.6	3.2	1.49e+00	0	62	104	819986432	10	26076
2026-01-19 22:10:58.27	132.28	8.72	-16.4	-36.4	3.3	1.49e+00	0	62	104	819986432	7	30316
2026-01-19 22:10:59.28	132.41	8.66	-18.4	-35.5	3.4	1.50e+00	0	62	104	819986432	7	27159
2026-01-19 22:11:00.29	132.54	8.60	-18.2	-34.6	3.6	1.50e+00	0	62	104	819986432	4	29077
2026-01-19 22:11:01.30	132.66	8.55	-24.6	-38.0	3.2	1.50e+00	0	62	104	819986432	10	30540
2026-01-19 22:11:02.31	132.79	8.49	-16.8	-36.6	3.9	1.50e+00	0	62	104	819986432	5	34655
2026-01-19 22:11:03.32	132.92	8.43	-25.6	-38.9	3.3	1.50e+00	0	62	104	819986432	4	48129
2026-01-19 22:11:04.33	133.04	8.38	-20.3	-36.2	3.4	1.50e+00	0	62	104	819986432	2	39307
2026-01-19 22:11:05.34	133.17	8.32	-20.1	-37.2	3.5	1.50e+00	0	62	104	819986432	9	29569
2026-01-19 22:11:06.35	133.29	8.26	-17.7	-38.7	3.5	1.50e+00	0	62	104	819986432	14	26264
2026-01-19 22:11:07.36	133.42	8.21	-17.6	-35.5	3.7	1.50e+00	0	62	104	819986432	5	30482
2026-01-19 22:11:08.36	133.54	8.15	-17.4	-31.5	3.9	1.50e+00	0	62	104	819986432	5	19315
2026-01-19 22:11:09.37	133.66	8.09	-17.0	-34.5	3.7	1.51e+00	0	62	104	819986432	4	28838
2026-01-19 22:11:10.38	133.78	8.04	-15.4	-36.9	3.6	1.51e+00	0	62	104	819986432	8	30188
2026-01-19 22:11:11.39	133.91	7.98	-14.2	-29.0	3.7	1.50e+00	0	62	104	819986432	0	19186
2026-01-19 22:11:12.40	134.03	7.92	-24.8	-39.3	3.4	1.50e+00	0	62	104	819986432	11	33358
2026-01-19 22:11:13.41	134.15	7.87	-40.4	-56.0	3.9	1.50e+00	0	62	104	819986432	53	20513
2026-01-19 22:11:14.42	134.27	7.81	-45.0	-59.7	3.8	1.49e+00	0	62	104	819986432	60	20988
2026-01-19 22:11:15.44	134.39	7.75	-45.2	-60.0	3.8	1.49e+00	0	62	104	819986432	60	21600
2026-01-19 22:11:16.44	134.51	7.70	-45.3	-60.1	3.8	1.49e+00	0	62	104	819986432	61	20665
2026-01-19 22:11:17.46	134.63	7.64	-45.4	-60.2	3.8	1.49e+00	0	62	104	819986432	61	20885
2026-01-19 22:11:18.46	134.75	7.59	-45.5	-60.3	3.8	1.49e+00	0	62	104	819986432	61	21136
2026-01-19 22:11:19.47	134.87	7.53	-45.6	-60.4	3.8	1.49e+00	0	62	104	819986432	61	21441
2026-01-19 22:11:20.48	134.99	7.47	-45.6	-60.4	3.8	1.49e+00	0	62	104	819986432	61	21411
2026-01-19 22:11:21.50	135.11	7.42	-45.6	-60.3	3.8	1.49e+00	0	62	104	819986432	61	21245
2026-01-19 22:11:22.51	135.22	7.36	-45.5	-60.2	3.8	1.49e+00	0	62	104	819986432	61	20992
2026-01-19 22:11:23.52	135.34	7.30	-45.4	-60.1	3.8	1.49e+00	0	62	104	819986432	61	20668
2026-01-19 22:11:24.53	135.46	7.25	-45.4	-60.0	3.8	1.49e+00	0	62	104	819986432	61	20535
2026-01-19 22:11:25.54	135.57	7.19	-45.4	-60.0	3.8	1.49e+00	0	62	104	819986432	61	20338
2026-01-19 22:11:26.55	135.69	7.13	-45.3	-59.9	3.8	1.49e+00	0	62	104	819986432	61	20240
2026-01-19 22:11:27.56	135.80	7.08	-45.2	-59.8	3.8	1.49e+00	0	62	104	819986432	61	19889
2026-01-19 22:11:28.57	135.92	7.02	-45.2	-59.8	3.8	1.49e+00	0	62	104	819986432	61	19945
2026-01-19 22:11:29.57	136.03	6.97	-45.2	-59.8	3.8	1.49e+00	0	62	104	819986432	61	19858
2026-01-19 22:11:30.59	136.15	6.91	-45.2	-59.8	3.8	1.49e+00	0	62	104	819986432	61	19857
2026-01-19 22:11:31.60	136.26	6.85	-45.2	-59.8	3.8	1.49e+00	0	62	104	819986432	61	19866
2026-01-19 22:11:32.61	136.37	6.80	-45.2	-59.8	3.8	1.49e+00	0	62	104	819986432	61	19882
2026-01-19 22:11:33.62	136.49	6.74	-45.2	-59.7	3.8	1.49e+00	0	62	104	819986432	61	19824
2026-01-19 22:11:34.63	136.60	6.68	-45.2	-59.7	3.8	1.49e+00	0	62	104	819986432	61	19822
2026-01-19 22:11:35.64	136.71	6.63	-45.2	-59.7	3.8	1.49e+00	0	62	104	819986432	61	19807
2026-01-19 22:11:36.65	136.82	6.57	-45.2	-59.8	3.8	1.49e+00	0	62	104	819986432	61	19899
2026-01-19 22:11:37.66	136.93	6.52	-45.2	-59.8	3.8	1.49e+00	0	62	104	819986432	61	19874
2026-01-19 22:11:38.67	137.04	6.46	-45.2	-59.7	3.8	1.49e+00	0	62	104	819986432	61	19833
2026-01-19 22:11:39.68	137.15	6.40	-45.2	-59.7	3.8	1.49e+00	0	62	104	819986432	61	19807
2026-01-19 22:11:40.69	137.26	6.35	-45.2	-59.7	3.8	1.49e+00	0	62	104	819986432	61	19774
2026-01-19 22:11:41.70	137.37	6.29	-45.2	-59.7	3.8	1.49e+00	0	62	104	819986432	61	19833
2026-01-19 22:11:42.71	137.48	6.24	-45.2	-59.8	3.8	1.49e+00	0	62	104	819986432	61	19846
2026-01-19 22:11:43.72	137.59	6.18	-45.2	-59.7	3.8	1.49e+00	0	62	104	819986432	61	19835
2026-01-19 22:11:44.73	137.70	6.13	-45.2	-59.8	3.8	1.49e+00	0	62	104	819986432	61	19844
2026-01-19 22:11:45.74	137.81	6.07	-45.2	-59.7	3.8	1.49e+00	0	62	104	819986432	61	19803
2026-01-19 22:11:46.75	137.91	6.01	-45.1	-59.7	3.8	1.49e+00	0	62	104	819986432	61	19794
2026-01-19 22:11:47.76	138.02	5.96	-45.2	-59.7	3.8	1.49e+00	0	62	104	819986432	61	19754
2026-01-19 22:11:48.77	138.13	5.90	-45.1	-59.7	3.8	1.49e+00	0	62	104	819986432	61	19682
2026-01-19 22:11:49.78	138.23	5.85	-45.1	-59.7	3.8	1.49e+00	0	62	104	819986432	61	19648
2026-01-19 22:11:50.79	138.34	5.79	-45.2	-59.7	3.8	1.49e+00	0	62	104	819986432	61	19760
2026-01-19 22:11:51.80	138.44	5.74	-45.2	-59.7	3.8	1.49e+00	0	62	104	819986432	61	19756
2026-01-19 22:11:52.81	138.55	5.68	-45.1	-59.7	3.8	1.49e+00	0	62	104	819986432	61	19735
2026-01-19 22:11:53.82	138.65	5.63	-45.1	-59.7	3.8	1.49e+00	0	62	104	819986432	61	19680
2026-01-19 22:11:54.83	138.76	5.57	-45.2	-59.7	3.8	1.49e+00	0	62	104	819986432	61	19737
2026-01-19 22:11:55.84	138.86	5.52	-45.1	-59.7	3.8	1.49e+00	0	62	104	819986432	61	19650
2026-01-19 22:11:56.85	138.97	5.46	-45.1	-59.7	3.8	1.49e+00	0	62	104	819986432	61	19718
2026-01-19 22:11:57.86	139.07	5.40	-45.1	-59.7	3.8	1.49e+00	0	62	104	819986432	61	19699
2026-01-19 22:11:58.88	139.17	5.35	-45.1	-59.7	3.8	1.49e+00	0	62	104	819986432	61	19683
2026-01-19 22:11:59.89	139.27	5.29	-45.1	-59.7	3.8	1.49e+00	0	62	104	819986432	61	19723
2026-01-19 22:12:00.90	139.38	5.24	-45.1	-59.7	3.8	1.49e+00	0	62	104	819986432	61	19693
2026-01-19 22:12:01.91	139.48	5.18	-45.1	-59.7	3.8	1.49e+00	0	62	104	819986432	61	19757
2026-01-19 22:12:02.92	139.58	5.13	-45.1	-59.7	3.8	1.49e+00	0	62	104	819986432	61	19659
2026-01-19 22:12:03.93	139.68	5.07	-45.1	-59.7	3.8	1.49e+00	0	62	104	819986432	61	19728
2026-01-19 22:12:04.94	139.78	5.02	-45.1	-59.7	3.8	1.49e+00	0	62	104	819986432	61	19683
2026-01-19 22:12:05.95	139.88	4.96	-45.1	-59.7	3.8	1.49e+00	0	62	104	819986432	61	19670
2026-01-19 22:12:06.96	139.98	4.91	-45.1	-59.7	3.8	1.49e+00	0	62	104	819986432	61	19697
2026-01-19 22:12:07.97	140.08	4.85	-45.1	-59.7	3.8	1.49e+00	0	62	104	819986432	61	19662
2026-01-19 22:12:08.98	140.18	4.80	-45.1	-59.7	3.8	1.49e+00	0	62	104	819986432	61	19650
2026-01-19 22:12:09.99	140.28	4.74	-45.1	-59.7	3.8	1.49e+00	0	62	104	819986432	61	19662
2026-01-19 22:12:11.00	140.38	4.69	-45.1	-59.7	3.8	1.49e+00	0	62	104	819986432	61	19718
2026-01-19 22:12:12.01	140.47	4.63	-45.1	-59.7	3.8	1.49e+00	0	62	104	819986432	61	19720
2026-01-19 22:12:13.02	140.57	4.58	-45.1	-59.7	3.8	1.49e+00	0	62	104	819986432	61	19666
2026-01-19 22:12:14.03	140.67	4.53	-45.1	-59.7	3.8	1.49e+00	0	62	104	819986432	61	19678
2026-01-19 22:12:15.04	140.77	4.47	-45.1	-59.7	3.8	1.49e+00	0	62	104	819986432	61	19635
2026-01-19 22:12:16.05	140.86	4.42	-45.1	-59.7	3.8	1.49e+00	0	62	104	819986432	61	19709
2026-01-19 22:12:17.06	140.96	4.36	-45.1	-59.7	3.8	1.49e+00	0	62	104	819986432	61	19665
2026-01-19 22:12:18.08	141.06	4.31	-45.1	-59.7	3.8	1.49e+00	0	62	104	819986432	61	19687
2026-01-19 22:12:19.09	141.15	4.25	-45.1	-59.7	3.8	1.49e+00	0	62	104	819986432	61	19637
2026-01-19 22:12:20.10	141.25	4.20	-45.1	-59.7	3.8	1.49e+00	0	62	104	819986432	61	19691
2026-01-19 22:12:21.11	141.34	4.14	-45.1	-59.7	3.8	1.49e+00	0	62	104	819986432	61	19680
2026-01-19 22:12:22.12	141.44	4.09	-45.1	-59.7	3.8	1.49e+00	0	62	104	819986432	61	19654
2026-01-19 22:12:23.13	141.53	4.04	-45.1	-59.7	3.8	1.49e+00	0	62	104	819986432	61	19719
2026-01-19 22:12:24.14	141.63	3.98	-45.1	-59.7	3.8	1.49e+00	0	62	104	819986432	61	19677
2026-01-19 22:12:25.15	141.72	3.93	-45.1	-59.7	3.8	1.49e+00	0	62	104	819986432	61	19684
2026-01-19 22:12:26.16	141.81	3.87	-45.1	-59.7	3.8	1.49e+00	0	62	104	819986432	61	19638
2026-01-19 22:12:27.17	141.90	3.82	-45.1	-59.7	3.8	1.49e+00	0	62	104	819986432	61	19628
2026-01-19 22:12:28.18	142.00	3.77	-45.1	-59.7	3.8	1.49e+00	0	62	104	819986432	61	19655
2026-01-19 22:12:29.19	142.09	3.71	-45.1	-59.7	3.8	1.49e+00	0	62	104	819986432	61	19681
2026-01-19 22:12:30.20	142.18	3.66	-45.1	-59.6	3.8	1.49e+00	0	62	104	819986432	61	19602
2026-01-19 22:12:31.21	142.27	3.60	-45.1	-59.6	3.8	1.49e+00	0	62	104	819986432	61	19610
2026-01-19 22:12:32.22	142.36	3.55	-45.1	-59.6	3.8	1.49e+00	0	62	104	819986432	61	19608
2026-01-19 22:12:33.23	142.46	3.50	-45.1	-59.7	3.8	1.49e+00	0	62	104	819986432	61	19653
