passes_logs/2026/01/19/R2.0S_Moscow/R2.0S_Moscow__20260119_155444_FENGYUN_3E_rec.log

#Pass ID: 20260119_155444_FENGYUN 3E
#Satellite: FENGYUN 3E
#Configuration: FENGYUN 3E
#almurnet v.1.7.20251203
#Start time: 2026-01-19 15:54:43

#Version: 2.2.20231116
#Station: R2.0S_Moscow
#Location: 37.707566 lon 55.798166 lat
#TLE: 1 49008U 21062A   26018.95190407 -.00000301  00000+0 -12097-3 0  9991
#TLE: 2 49008  98.7482  24.0337 0002210 129.7386 230.3985 14.19884646235406

#Time	Az	El	Level	Level2	SNR	BER	BlckErr	Temp	State	Recorded	gain1	gain2
2026-01-19 15:54:43.79	212.94	1.98	-44.5	-55.6	3.8	8.47e-01	0	52	0	0	59	12978
2026-01-19 15:54:44.80	213.02	2.04	-44.5	-55.5	3.8	8.45e-01	0	53	104	0	59	12951
2026-01-19 15:54:45.81	213.10	2.09	-44.5	-55.6	3.8	8.46e-01	0	53	104	0	59	13006
2026-01-19 15:54:46.82	213.18	2.14	-44.5	-55.6	3.8	8.46e-01	0	53	104	0	59	13049
2026-01-19 15:54:47.83	213.26	2.20	-44.5	-55.6	3.8	8.46e-01	0	53	104	0	59	12969
2026-01-19 15:54:48.84	213.34	2.25	-44.5	-55.6	3.8	8.46e-01	0	53	104	0	59	13029
2026-01-19 15:54:49.85	213.42	2.30	-44.4	-55.6	3.8	8.47e-01	0	53	104	0	59	12970
2026-01-19 15:54:50.86	213.50	2.36	-44.5	-55.6	3.8	8.47e-01	0	53	104	0	59	12994
2026-01-19 15:54:51.87	213.58	2.41	-44.5	-55.6	3.8	8.46e-01	0	53	104	0	59	12982
2026-01-19 15:54:52.88	213.67	2.47	-44.5	-55.6	3.8	8.47e-01	0	53	104	0	59	13012
2026-01-19 15:54:53.89	213.75	2.52	-44.5	-55.6	3.8	8.45e-01	0	53	104	0	59	13031
2026-01-19 15:54:54.90	213.83	2.57	-44.5	-55.6	3.8	8.46e-01	0	53	104	0	59	12961
2026-01-19 15:54:55.91	213.91	2.63	-44.5	-55.6	3.8	8.46e-01	0	54	104	0	59	12997
2026-01-19 15:54:56.93	214.00	2.68	-44.4	-55.6	3.8	8.46e-01	0	54	104	0	59	13027
2026-01-19 15:54:57.94	214.08	2.74	-44.5	-55.6	3.8	8.46e-01	0	54	104	0	59	13021
2026-01-19 15:54:58.95	214.16	2.79	-44.4	-55.6	3.8	8.45e-01	0	54	104	0	59	13033
2026-01-19 15:54:59.96	214.25	2.84	-44.5	-55.6	3.8	8.46e-01	0	54	104	0	59	12991
2026-01-19 15:55:00.97	214.33	2.90	-44.5	-55.6	3.8	8.47e-01	0	54	104	0	59	12996
2026-01-19 15:55:01.98	214.42	2.95	-44.5	-55.6	3.8	8.47e-01	0	54	104	0	59	12974
2026-01-19 15:55:02.99	214.50	3.01	-44.4	-55.6	3.8	8.46e-01	0	54	104	0	59	13019
2026-01-19 15:55:04.00	214.59	3.06	-44.5	-55.6	3.8	8.47e-01	0	54	104	0	59	12982
2026-01-19 15:55:05.01	214.67	3.12	-44.4	-55.6	3.8	8.45e-01	0	54	104	0	59	12973
2026-01-19 15:55:06.02	214.76	3.17	-44.5	-55.5	3.8	8.47e-01	0	54	104	0	59	12926
2026-01-19 15:55:07.03	214.84	3.22	-44.5	-55.6	3.8	8.46e-01	0	54	104	0	59	12983
2026-01-19 15:55:08.05	214.93	3.28	-44.4	-55.6	3.8	8.46e-01	0	54	104	0	59	12975
2026-01-19 15:55:09.06	215.02	3.33	-44.5	-55.6	3.8	8.45e-01	0	54	104	0	59	12981
2026-01-19 15:55:10.07	215.11	3.39	-44.5	-55.5	3.8	8.44e-01	0	55	104	0	59	12943
2026-01-19 15:55:11.08	215.19	3.44	-44.5	-55.6	3.8	8.46e-01	0	55	104	0	59	13005
2026-01-19 15:55:12.09	215.28	3.50	-44.4	-55.6	3.8	8.46e-01	0	55	104	0	59	13016
2026-01-19 15:55:13.10	215.37	3.55	-44.4	-55.6	3.8	8.46e-01	0	55	104	0	59	12980
2026-01-19 15:55:14.11	215.46	3.61	-44.5	-55.6	3.8	8.46e-01	0	55	104	0	59	12989
2026-01-19 15:55:15.12	215.55	3.66	-44.5	-55.6	3.8	8.45e-01	0	55	104	0	59	12968
2026-01-19 15:55:16.13	215.63	3.72	-44.5	-55.6	3.8	8.46e-01	0	55	104	0	59	12988
2026-01-19 15:55:17.14	215.72	3.77	-44.5	-55.5	3.8	8.46e-01	0	55	104	0	59	12914
2026-01-19 15:55:18.15	215.81	3.83	-44.4	-55.5	3.8	8.46e-01	0	55	104	0	59	12956
2026-01-19 15:55:19.16	215.90	3.88	-44.4	-55.5	3.8	8.45e-01	0	55	104	0	59	12958
2026-01-19 15:55:20.17	215.99	3.94	-44.5	-55.5	3.8	8.45e-01	0	55	104	0	59	12942
2026-01-19 15:55:21.18	216.08	3.99	-44.4	-55.6	3.8	8.47e-01	0	55	104	0	59	12995
2026-01-19 15:55:22.19	216.17	4.05	-44.4	-55.5	3.8	8.46e-01	0	55	104	0	59	12922
2026-01-19 15:55:23.20	216.27	4.10	-44.4	-55.5	3.8	8.46e-01	0	55	104	0	59	12950
2026-01-19 15:55:24.21	216.36	4.16	-44.4	-55.5	3.8	8.45e-01	0	55	104	0	59	12929
2026-01-19 15:55:25.22	216.45	4.22	-44.4	-55.5	3.8	8.46e-01	0	55	104	0	59	12940
2026-01-19 15:55:26.23	216.54	4.27	-44.4	-55.5	3.8	8.47e-01	0	56	104	0	59	12934
2026-01-19 15:55:27.25	216.63	4.33	-44.4	-55.5	3.8	8.47e-01	0	56	104	0	59	12916
2026-01-19 15:55:28.26	216.73	4.38	-44.4	-55.5	3.8	8.47e-01	0	56	104	0	59	12955
2026-01-19 15:55:29.27	216.82	4.44	-44.4	-55.5	3.8	8.47e-01	0	55	104	0	59	12953
2026-01-19 15:55:30.28	216.91	4.49	-44.4	-55.5	3.8	8.46e-01	0	56	104	0	59	12926
2026-01-19 15:55:31.29	217.01	4.55	-44.4	-55.5	3.8	8.45e-01	0	56	104	0	59	12923
2026-01-19 15:55:32.30	217.10	4.61	-44.4	-55.5	3.8	8.46e-01	0	56	104	0	59	12916
2026-01-19 15:55:33.31	217.20	4.66	-44.4	-55.5	3.8	8.46e-01	0	56	104	0	59	12928
2026-01-19 15:55:34.32	217.29	4.72	-44.4	-55.5	3.8	8.45e-01	0	56	104	0	59	12926
2026-01-19 15:55:35.33	217.39	4.77	-44.4	-55.5	3.8	8.46e-01	0	56	104	0	59	12953
2026-01-19 15:55:36.34	217.48	4.83	-44.4	-55.5	3.8	8.45e-01	0	56	104	0	59	12894
2026-01-19 15:55:37.35	217.58	4.89	-44.4	-55.5	3.8	8.46e-01	0	56	104	0	59	12931
2026-01-19 15:55:38.36	217.68	4.94	-44.4	-55.5	3.8	8.46e-01	0	56	104	0	59	12904
2026-01-19 15:55:39.37	217.77	5.00	-44.4	-55.5	3.8	8.46e-01	0	56	104	0	59	12868
2026-01-19 15:55:40.38	217.87	5.06	-44.4	-55.5	3.8	8.46e-01	0	56	104	0	59	12937
2026-01-19 15:55:41.40	217.97	5.11	-44.4	-55.5	3.8	8.46e-01	0	57	104	0	59	12894
2026-01-19 15:55:42.41	218.07	5.17	-44.4	-55.5	3.8	8.46e-01	0	56	104	0	59	12867
2026-01-19 15:55:43.41	218.16	5.23	-44.4	-55.5	3.8	8.46e-01	0	57	104	0	59	12874
2026-01-19 15:55:44.43	218.26	5.28	-44.4	-55.5	3.8	8.46e-01	0	57	104	0	59	12901
2026-01-19 15:55:45.44	218.36	5.34	-44.4	-55.5	3.8	8.46e-01	0	57	104	0	59	12914
2026-01-19 15:55:46.45	218.46	5.40	-44.4	-55.5	3.8	8.47e-01	0	57	104	0	59	12904
2026-01-19 15:55:47.46	218.56	5.45	-44.4	-55.5	3.8	8.46e-01	0	57	104	0	59	12941
2026-01-19 15:55:48.47	218.66	5.51	-44.4	-55.5	3.8	8.46e-01	0	57	104	0	59	12850
2026-01-19 15:55:49.48	218.76	5.57	-44.4	-55.5	3.8	8.47e-01	0	57	104	0	59	12858
2026-01-19 15:55:50.49	218.86	5.62	-44.4	-55.5	3.8	8.46e-01	0	57	104	0	59	12880
2026-01-19 15:55:51.50	218.96	5.68	-44.4	-55.4	3.8	8.46e-01	0	57	104	0	59	12725
2026-01-19 15:55:52.51	219.06	5.74	-44.4	-55.4	3.8	8.46e-01	0	57	104	0	59	12773
2026-01-19 15:55:53.52	219.17	5.79	-44.4	-55.3	3.8	8.45e-01	0	57	104	0	59	12625
2026-01-19 15:55:54.53	219.27	5.85	-44.4	-55.3	3.8	8.46e-01	0	57	104	0	59	12555
2026-01-19 15:55:55.54	219.37	5.91	-44.4	-55.2	3.8	8.46e-01	0	57	104	0	59	12468
2026-01-19 15:55:56.55	219.47	5.96	-44.4	-55.1	3.8	8.46e-01	0	57	104	0	59	12337
2026-01-19 15:55:57.56	219.58	6.02	-44.4	-54.9	3.8	8.46e-01	0	57	104	0	59	12078
2026-01-19 15:55:58.57	219.68	6.08	-44.4	-54.9	3.8	8.46e-01	0	57	104	0	59	12033
2026-01-19 15:55:59.58	219.79	6.14	-44.3	-54.7	3.8	8.45e-01	0	57	104	0	59	11818
2026-01-19 15:56:00.59	219.89	6.19	-44.3	-54.4	3.8	8.46e-01	0	57	104	0	59	11407
2026-01-19 15:56:01.60	219.99	6.25	-44.3	-54.2	3.8	8.46e-01	0	58	104	0	59	11062
2026-01-19 15:56:02.61	220.10	6.31	-44.2	-53.9	3.8	8.46e-01	0	57	104	0	59	10680
2026-01-19 15:56:03.62	220.21	6.37	-44.2	-53.6	3.8	8.46e-01	0	58	104	0	59	10317
2026-01-19 15:56:04.63	220.31	6.42	-44.1	-53.1	3.8	8.45e-01	0	58	104	0	59	9796
2026-01-19 15:56:05.64	220.42	6.48	-44.1	-52.7	4.0	8.42e-01	0	58	0	0	59	9381
2026-01-19 15:56:06.65	220.53	6.54	-43.9	-52.0	4.2	8.39e-01	0	58	0	0	58	9083
2026-01-19 15:56:07.66	220.63	6.60	-43.8	-51.4	4.4	8.32e-01	0	58	0	0	58	8487
2026-01-19 15:56:08.67	220.74	6.65	-43.8	-51.0	4.5	8.25e-01	0	58	0	0	58	8170
2026-01-19 15:56:09.68	220.85	6.71	-43.6	-50.3	4.8	7.96e-01	0	58	0	0	58	7526
2026-01-19 15:56:10.69	220.96	6.77	-43.4	-49.5	5.3	7.38e-01	0	58	0	0	57	7227
2026-01-19 15:56:11.70	221.07	6.83	-43.2	-48.9	5.7	6.99e-01	0	58	0	0	57	6747
2026-01-19 15:56:12.71	221.18	6.89	-43.1	-48.6	5.9	4.47e-01	0	58	0	6291456	57	6550
2026-01-19 15:56:13.72	221.29	6.94	-43.0	-48.2	6.2	2.93e-01	0	58	0	12582912	56	6597
2026-01-19 15:56:14.73	221.40	7.00	-42.9	-48.0	6.4	2.51e-01	0	58	0	19922944	56	6468
2026-01-19 15:56:15.74	221.51	7.06	-42.9	-47.9	6.5	2.53e-01	0	58	0	28311552	56	6353
2026-01-19 15:56:16.75	221.62	7.12	-43.0	-48.1	6.2	2.78e-01	0	58	0	34603008	56	6569
2026-01-19 15:56:17.76	221.73	7.18	-43.0	-48.4	6.1	3.22e-01	0	58	0	41943040	56	6740
2026-01-19 15:56:18.77	221.84	7.23	-43.1	-48.5	6.0	3.28e-01	0	58	0	49283072	56	6874
2026-01-19 15:56:19.78	221.96	7.29	-43.1	-48.7	5.9	3.91e-01	0	58	0	56623104	56	7003
2026-01-19 15:56:20.79	222.07	7.35	-43.2	-48.8	5.7	4.24e-01	0	58	0	63963136	56	7095
2026-01-19 15:56:21.80	222.18	7.41	-43.0	-48.5	6.0	3.37e-01	0	58	0	70254592	56	6817
2026-01-19 15:56:22.81	222.30	7.47	-42.7	-47.4	6.9	1.93e-01	0	58	0	77594624	56	5999
2026-01-19 15:56:23.83	222.41	7.53	-42.1	-46.2	7.8	1.17e-01	0	58	0	84934656	55	5585
2026-01-19 15:56:24.83	222.53	7.58	-41.7	-45.5	8.6	4.34e-02	0	58	0	92274688	54	5413
2026-01-19 15:56:25.85	222.64	7.64	-41.2	-44.5	9.6	1.65e-02	0	58	0	99614720	53	5109
2026-01-19 15:56:26.86	222.76	7.70	-40.6	-43.4	10.8	2.99e-03	0	58	0	106954752	52	4776
2026-01-19 15:56:27.87	222.87	7.76	-40.3	-42.9	11.4	1.59e-03	0	58	0	114294784	51	4789
2026-01-19 15:56:28.88	222.99	7.82	-39.7	-42.0	12.3	2.77e-04	0	58	0	121634816	50	4590
2026-01-19 15:56:29.89	223.11	7.88	-39.5	-41.7	12.7	1.14e-04	0	58	0	128974848	50	4409
2026-01-19 15:56:30.90	223.22	7.94	-39.2	-41.4	13.0	4.23e-05	0	59	0	136314880	49	4495
2026-01-19 15:56:31.91	223.34	7.99	-39.3	-41.4	13.0	6.29e-05	0	58	0	143654912	49	4516
2026-01-19 15:56:32.92	223.46	8.05	-39.4	-41.6	12.8	6.17e-05	0	59	0	150994944	49	4599
2026-01-19 15:56:33.93	223.58	8.11	-44.4	-52.3	4.3	8.40e-01	0	59	104	155189248	58	9395
2026-01-19 15:56:34.94	223.70	8.17	-43.8	-53.5	4.0	7.42e-01	0	59	104	155189248	57	11492
2026-01-19 15:56:35.95	223.82	8.23	-41.3	-44.5	9.9	7.37e-04	0	58	0	156237824	52	5404
2026-01-19 15:56:36.97	223.94	8.29	-40.9	-43.7	10.8	1.34e-03	0	59	0	163577856	51	5226
2026-01-19 15:56:37.98	224.06	8.35	-42.9	-48.3	6.1	7.02e-02	0	59	0	170917888	55	7099
2026-01-19 15:56:38.99	224.18	8.41	-39.6	-41.8	12.7	2.15e-04	0	59	0	177209344	50	4450
2026-01-19 15:56:40.00	224.30	8.46	-39.8	-42.0	12.5	1.28e-04	0	59	0	184549376	50	4578
2026-01-19 15:56:41.01	224.43	8.52	-39.5	-41.6	12.9	1.06e-04	0	59	0	191889408	50	4390
2026-01-19 15:56:42.01	224.55	8.58	-39.1	-41.1	13.4	2.74e-05	0	59	0	199229440	49	4356
2026-01-19 15:56:43.02	224.67	8.64	-39.3	-41.4	13.2	1.60e-05	0	59	0	206569472	49	4494
2026-01-19 15:56:44.03	224.79	8.70	-39.4	-41.5	13.1	4.23e-05	0	59	0	213909504	49	4552
2026-01-19 15:56:45.04	224.92	8.76	-39.3	-41.3	13.2	2.51e-05	0	59	0	221249536	49	4490
2026-01-19 15:56:46.05	225.04	8.82	-39.4	-41.5	13.1	3.31e-05	0	59	0	228589568	49	4550
2026-01-19 15:56:47.06	225.17	8.88	-39.5	-41.6	13.0	5.37e-05	0	59	0	235929600	49	4637
2026-01-19 15:56:48.07	225.29	8.94	-39.4	-41.5	13.0	4.92e-05	0	59	0	243269632	49	4573
2026-01-19 15:56:49.08	225.42	8.99	-39.3	-41.3	13.2	1.71e-05	0	59	0	250609664	49	4482
2026-01-19 15:56:50.09	225.55	9.05	-39.2	-41.2	13.3	2.05e-05	0	59	0	257949696	49	4438
2026-01-19 15:56:51.09	225.67	9.11	-39.1	-41.1	13.5	8.00e-06	0	59	0	265289728	49	4352
2026-01-19 15:56:52.10	225.80	9.17	-39.1	-41.1	13.5	2.17e-05	0	59	0	272629760	49	4362
2026-01-19 15:56:53.11	225.93	9.23	-39.1	-41.1	13.5	1.14e-05	0	59	0	278921216	49	4341
2026-01-19 15:56:54.12	226.06	9.29	-39.0	-41.0	13.6	1.14e-05	0	59	0	286261248	48	4561
2026-01-19 15:56:55.13	226.18	9.35	-39.0	-40.9	13.7	9.10e-06	0	59	0	294649856	48	4535
2026-01-19 15:56:56.14	226.31	9.41	-38.9	-40.7	13.9	3.40e-06	0	59	0	300941312	48	4440
2026-01-19 15:56:57.15	226.44	9.47	-38.9	-40.8	13.8	9.10e-06	0	59	0	308281344	48	4472
2026-01-19 15:56:58.16	226.57	9.53	-38.9	-40.7	13.9	4.50e-06	0	59	0	315621376	48	4440
2026-01-19 15:56:59.17	226.71	9.59	-39.0	-40.9	13.8	6.80e-06	0	59	0	322961408	48	4517
2026-01-19 15:57:00.18	226.84	9.64	-38.9	-40.7	13.9	2.20e-06	0	59	0	330301440	48	4438
2026-01-19 15:57:01.19	226.97	9.70	-38.9	-40.7	13.9	9.10e-06	0	59	0	337641472	48	4438
2026-01-19 15:57:02.20	227.10	9.76	-38.9	-40.7	13.9	2.20e-06	0	59	0	344981504	48	4427
2026-01-19 15:57:03.21	227.23	9.82	-38.7	-40.5	14.2	1.10e-06	0	59	0	352321536	48	4306
2026-01-19 15:57:04.22	227.37	9.88	-38.9	-40.7	13.9	2.20e-06	0	59	0	359661568	48	4440
2026-01-19 15:57:05.23	227.50	9.94	-38.7	-40.5	14.1	3.40e-06	0	59	0	367001600	48	4325
2026-01-19 15:57:06.24	227.64	10.00	-38.6	-40.4	14.2	1.10e-06	0	59	0	374341632	48	4270
2026-01-19 15:57:07.25	227.77	10.06	-38.7	-40.6	14.1	4.50e-06	0	60	0	381681664	48	4342
2026-01-19 15:57:08.26	227.91	10.12	-38.7	-40.5	14.1	2.20e-06	0	59	0	389021696	48	4333
2026-01-19 15:57:09.27	228.04	10.18	-38.9	-40.7	14.0	4.50e-06	0	59	0	396361728	48	4431
2026-01-19 15:57:10.28	228.18	10.24	-38.7	-40.6	14.1	6.80e-06	0	60	0	402653184	48	4344
2026-01-19 15:57:11.29	228.32	10.30	-38.7	-40.6	14.1	1.10e-06	0	60	0	411041792	48	4341
2026-01-19 15:57:12.30	228.46	10.36	-38.8	-40.7	14.0	3.40e-06	0	60	0	418381824	48	4403
2026-01-19 15:57:13.31	228.59	10.42	-38.8	-40.6	14.1	3.40e-06	0	60	0	424673280	48	4355
2026-01-19 15:57:14.32	228.73	10.47	-38.7	-40.6	14.1	3.40e-06	0	60	0	432013312	48	4344
2026-01-19 15:57:15.33	228.87	10.53	-38.8	-40.7	14.1	1.10e-06	0	60	0	439353344	48	4394
2026-01-19 15:57:16.34	229.01	10.59	-38.7	-40.5	14.2	2.20e-06	0	59	0	446693376	48	4323
2026-01-19 15:57:17.35	229.15	10.65	-38.7	-40.4	14.3	2.20e-06	0	60	0	454033408	48	4288
2026-01-19 15:57:18.36	229.30	10.71	-38.6	-40.4	14.3	1.10e-06	0	60	0	461373440	48	4280
2026-01-19 15:57:19.37	229.44	10.77	-38.6	-40.4	14.3	0.00e+00	0	60	0	468713472	48	4277
2026-01-19 15:57:20.38	229.58	10.83	-38.7	-40.5	14.3	2.20e-06	0	60	0	476053504	48	4294
2026-01-19 15:57:21.39	229.72	10.89	-38.6	-40.4	14.3	2.20e-06	0	59	0	483393536	48	4278
2026-01-19 15:57:22.40	229.87	10.95	-38.6	-40.3	14.4	0.00e+00	0	60	0	490733568	48	4240
2026-01-19 15:57:23.41	230.01	11.01	-38.7	-40.5	14.2	0.00e+00	0	60	0	498073600	48	4315
2026-01-19 15:57:24.42	230.15	11.07	-38.6	-40.3	14.4	1.10e-06	0	60	0	505413632	48	4232
2026-01-19 15:57:25.43	230.30	11.13	-38.7	-40.6	14.2	3.40e-06	0	60	0	512753664	48	4344
2026-01-19 15:57:26.44	230.44	11.19	-38.4	-40.2	14.3	0.00e+00	0	60	0	520093696	47	4405
2026-01-19 15:57:27.45	230.59	11.24	-38.5	-40.3	14.3	1.10e-06	0	60	0	527433728	47	4467
2026-01-19 15:57:28.46	230.74	11.30	-38.4	-40.1	14.4	0.00e+00	0	60	0	534773760	47	4378
2026-01-19 15:57:29.47	230.89	11.36	-38.6	-40.4	14.2	1.10e-06	0	60	0	542113792	47	4506
2026-01-19 15:57:30.48	231.03	11.42	-38.7	-40.5	14.0	0.00e+00	0	60	0	549453824	47	4572
2026-01-19 15:57:31.49	231.18	11.48	-38.4	-40.1	14.4	1.10e-06	0	60	0	556793856	47	4371
2026-01-19 15:57:32.50	231.33	11.54	-38.3	-40.1	14.5	0.00e+00	0	60	0	564133888	47	4345
2026-01-19 15:57:33.51	231.48	11.60	-38.4	-40.1	14.4	0.00e+00	0	60	0	571473920	47	4381
2026-01-19 15:57:34.52	231.63	11.66	-38.2	-39.9	14.6	1.10e-06	0	60	0	577765376	47	4283
2026-01-19 15:57:35.53	231.78	11.72	-38.2	-39.9	14.7	0.00e+00	0	60	0	585105408	47	4263
2026-01-19 15:57:36.54	231.93	11.78	-38.2	-40.0	14.6	0.00e+00	0	60	0	593494016	47	4300
2026-01-19 15:57:37.55	232.09	11.83	-38.2	-39.8	14.8	0.00e+00	0	60	0	599785472	47	4235
2026-01-19 15:57:38.56	232.24	11.89	-38.3	-40.0	14.6	0.00e+00	0	60	0	607125504	47	4309
2026-01-19 15:57:39.56	232.39	11.95	-38.2	-39.9	14.7	1.10e-06	0	60	0	614465536	47	4264
2026-01-19 15:57:40.57	232.54	12.01	-38.1	-39.8	14.8	0.00e+00	0	60	0	621805568	47	4204
2026-01-19 15:57:41.58	232.70	12.07	-38.1	-39.8	14.8	0.00e+00	0	60	0	629145600	47	4223
2026-01-19 15:57:42.59	232.85	12.13	-38.2	-39.9	14.8	0.00e+00	0	60	0	636485632	47	4253
2026-01-19 15:57:43.60	233.01	12.19	-38.0	-39.6	15.0	0.00e+00	0	60	0	643825664	46	4362
2026-01-19 15:57:44.61	233.16	12.24	-38.0	-39.6	15.0	1.10e-06	0	60	0	651165696	46	4382
2026-01-19 15:57:45.62	233.32	12.30	-37.9	-39.4	15.2	0.00e+00	0	60	0	658505728	46	4283
2026-01-19 15:57:46.63	233.48	12.36	-37.9	-39.6	15.1	0.00e+00	0	60	0	665845760	46	4342
2026-01-19 15:57:47.63	233.64	12.42	-37.9	-39.5	15.1	0.00e+00	0	60	0	673185792	46	4319
2026-01-19 15:57:48.64	233.79	12.48	-37.9	-39.5	15.2	0.00e+00	0	60	0	680525824	46	4294
2026-01-19 15:57:49.65	233.95	12.53	-37.9	-39.4	15.2	0.00e+00	0	60	0	687865856	46	4286
2026-01-19 15:57:50.66	234.11	12.59	-37.9	-39.5	15.1	0.00e+00	0	60	0	695205888	46	4337
2026-01-19 15:57:51.67	234.27	12.65	-38.0	-39.7	15.0	0.00e+00	0	60	0	702545920	46	4405
2026-01-19 15:57:52.68	234.44	12.71	-37.9	-39.5	15.1	0.00e+00	0	60	0	709885952	46	4336
2026-01-19 15:57:53.69	234.60	12.77	-38.0	-39.6	15.1	0.00e+00	0	60	0	717225984	46	4371
2026-01-19 15:57:54.70	234.76	12.83	-37.9	-39.5	15.1	0.00e+00	0	60	0	724566016	46	4337
2026-01-19 15:57:55.71	234.92	12.88	-37.9	-39.5	15.2	0.00e+00	0	60	0	730857472	46	4293
2026-01-19 15:57:56.72	235.09	12.94	-37.9	-39.5	15.2	0.00e+00	0	60	0	738197504	46	4337
2026-01-19 15:57:57.73	235.25	13.00	-37.8	-39.4	15.3	0.00e+00	0	60	0	745537536	46	4268
2026-01-19 15:57:58.74	235.41	13.06	-37.8	-39.4	15.3	1.10e-06	0	61	0	752877568	46	4246
2026-01-19 15:57:59.76	235.58	13.11	-37.8	-39.4	15.3	0.00e+00	0	60	0	760217600	46	4245
2026-01-19 15:58:00.76	235.75	13.17	-37.8	-39.3	15.4	0.00e+00	0	61	0	767557632	46	4221
2026-01-19 15:58:01.77	235.91	13.23	-37.6	-39.2	15.5	0.00e+00	0	60	0	774897664	46	4165
2026-01-19 15:58:02.78	236.08	13.29	-37.7	-39.2	15.5	0.00e+00	0	60	0	782237696	46	4178
2026-01-19 15:58:03.80	236.25	13.34	-37.7	-39.2	15.5	0.00e+00	0	60	0	789577728	46	4182
2026-01-19 15:58:04.80	236.42	13.40	-37.7	-39.3	15.5	0.00e+00	0	61	0	796917760	46	4197
2026-01-19 15:58:05.81	236.59	13.46	-37.8	-39.3	15.4	0.00e+00	0	60	0	804257792	46	4225
2026-01-19 15:58:06.82	236.76	13.51	-37.7	-39.2	15.5	0.00e+00	0	60	0	811597824	46	4183
2026-01-19 15:58:07.83	236.93	13.57	-37.6	-39.2	15.6	0.00e+00	0	61	0	818937856	46	4150
2026-01-19 15:58:08.84	237.10	13.63	-37.7	-39.2	15.5	0.00e+00	0	61	0	826277888	46	4187
2026-01-19 15:58:09.85	237.27	13.68	-37.5	-39.0	15.7	0.00e+00	0	61	0	833617920	46	4077
2026-01-19 15:58:10.86	237.44	13.74	-37.5	-39.0	15.7	0.00e+00	0	61	0	840957952	45	4313
2026-01-19 15:58:11.87	237.61	13.80	-37.5	-39.0	15.8	0.00e+00	0	61	0	848297984	45	4303
2026-01-19 15:58:12.88	237.79	13.85	-37.5	-39.1	15.7	0.00e+00	0	61	0	854589440	45	4347
2026-01-19 15:58:13.89	237.96	13.91	-37.5	-39.0	15.7	0.00e+00	0	61	0	862978048	45	4329
2026-01-19 15:58:14.90	238.14	13.96	-37.5	-39.0	15.7	0.00e+00	0	60	0	870318080	45	4335
2026-01-19 15:58:15.91	238.31	14.02	-37.6	-39.1	15.6	0.00e+00	0	61	0	876609536	45	4363
2026-01-19 15:58:16.92	238.49	14.08	-37.5	-39.0	15.7	0.00e+00	0	61	0	883949568	45	4324
2026-01-19 15:58:17.93	238.67	14.13	-37.5	-39.0	15.7	0.00e+00	0	61	0	892338176	45	4334
2026-01-19 15:58:18.95	238.85	14.19	-37.4	-38.9	15.8	0.00e+00	0	61	0	898629632	45	4272
2026-01-19 15:58:19.96	239.02	14.24	-37.5	-39.0	15.7	0.00e+00	0	61	0	905969664	45	4328
2026-01-19 15:58:20.96	239.20	14.30	-37.7	-39.3	15.4	0.00e+00	0	61	0	913309696	45	4467
2026-01-19 15:58:21.97	239.38	14.35	-37.6	-39.2	15.6	0.00e+00	0	61	0	920649728	45	4408
2026-01-19 15:58:22.98	239.56	14.41	-37.5	-39.0	15.8	0.00e+00	0	61	0	927989760	45	4303
2026-01-19 15:58:23.99	239.74	14.46	-37.5	-39.0	15.7	0.00e+00	0	61	0	935329792	45	4336
2026-01-19 15:58:25.00	239.92	14.52	-37.5	-39.0	15.8	0.00e+00	0	61	0	942669824	45	4309
2026-01-19 15:58:26.01	240.10	14.57	-37.5	-39.0	15.8	0.00e+00	0	61	0	950009856	45	4302
2026-01-19 15:58:27.02	240.29	14.63	-37.5	-39.0	15.7	0.00e+00	0	61	0	957349888	45	4321
2026-01-19 15:58:28.03	240.47	14.68	-37.5	-39.0	15.7	0.00e+00	0	61	0	964689920	45	4317
2026-01-19 15:58:29.04	240.65	14.74	-37.6	-39.1	15.7	0.00e+00	0	61	0	972029952	45	4361
2026-01-19 15:58:30.05	240.84	14.79	-37.6	-39.2	15.6	0.00e+00	0	61	0	979369984	45	4404
2026-01-19 15:58:31.06	241.02	14.84	-37.7	-39.2	15.6	0.00e+00	0	61	0	986710016	45	4415
2026-01-19 15:58:32.07	241.21	14.90	-37.6	-39.1	15.7	0.00e+00	0	61	0	994050048	45	4367
2026-01-19 15:58:33.08	241.40	14.95	-37.5	-39.1	15.7	0.00e+00	0	61	0	1001390080	45	4341
2026-01-19 15:58:34.09	241.58	15.00	-37.4	-38.9	15.8	0.00e+00	0	61	0	1008730112	45	4283
2026-01-19 15:58:35.10	241.77	15.06	-37.4	-38.9	15.8	0.00e+00	0	61	0	1016070144	45	4276
2026-01-19 15:58:36.12	241.96	15.11	-37.3	-38.7	16.0	0.00e+00	0	61	0	1023410176	45	4184
2026-01-19 15:58:37.13	242.15	15.16	-37.3	-38.8	16.0	0.00e+00	0	61	0	1029701632	45	4208
2026-01-19 15:58:38.14	242.34	15.22	-37.4	-38.9	15.9	0.00e+00	0	61	0	1038090240	45	4259
2026-01-19 15:58:39.15	242.53	15.27	-37.6	-39.1	15.6	0.00e+00	0	61	0	1045430272	45	4369
2026-01-19 15:58:40.16	242.72	15.32	-37.6	-39.1	15.7	0.00e+00	0	61	0	1051721728	45	4378
2026-01-19 15:58:41.17	242.91	15.37	-37.4	-38.9	15.8	0.00e+00	0	61	0	1059061760	45	4281
2026-01-19 15:58:42.18	243.11	15.42	-37.4	-38.9	15.9	0.00e+00	0	61	0	1066401792	45	4280
2026-01-19 15:58:43.19	243.30	15.48	-37.4	-38.9	15.9	0.00e+00	0	61	0	1073741824	45	4275
2026-01-19 15:58:44.20	243.49	15.53	-37.3	-38.7	16.0	0.00e+00	0	61	0	1081081856	45	4183
2026-01-19 15:58:45.21	243.69	15.58	-37.2	-38.6	16.1	0.00e+00	0	61	0	1088421888	45	4122
2026-01-19 15:58:46.22	243.88	15.63	-37.0	-38.4	16.3	0.00e+00	0	61	0	1095761920	45	4036
2026-01-19 15:58:47.23	244.08	15.68	-37.2	-38.6	16.2	0.00e+00	0	61	0	1103101952	45	4114
2026-01-19 15:58:48.24	244.28	15.73	-37.0	-38.4	16.4	0.00e+00	0	61	0	1110441984	44	4243
2026-01-19 15:58:49.25	244.47	15.78	-37.0	-38.4	16.4	0.00e+00	0	61	0	1117782016	44	4263
2026-01-19 15:58:50.26	244.67	15.83	-37.1	-38.6	16.2	0.00e+00	0	61	0	1125122048	44	4362
2026-01-19 15:58:51.27	244.87	15.88	-37.0	-38.4	16.4	0.00e+00	0	61	0	1132462080	44	4264
2026-01-19 15:58:52.28	245.07	15.93	-37.2	-38.6	16.2	0.00e+00	0	61	0	1139802112	44	4382
2026-01-19 15:58:53.29	245.27	15.98	-37.3	-38.7	16.1	0.00e+00	0	61	0	1147142144	44	4424
2026-01-19 15:58:54.30	245.47	16.03	-37.3	-38.7	16.1	0.00e+00	0	61	0	1154482176	44	4429
2026-01-19 15:58:55.31	245.67	16.08	-37.3	-38.8	16.0	0.00e+00	0	61	0	1161822208	44	4451
2026-01-19 15:58:56.32	245.87	16.13	-37.2	-38.7	16.1	0.00e+00	0	61	0	1169162240	44	4415
2026-01-19 15:58:57.33	246.07	16.18	-37.2	-38.6	16.2	0.00e+00	0	61	0	1175453696	44	4381
2026-01-19 15:58:58.34	246.27	16.23	-37.1	-38.6	16.2	0.00e+00	0	61	0	1183842304	44	4356
2026-01-19 15:58:59.35	246.48	16.27	-37.2	-38.7	16.1	0.00e+00	0	61	0	1191182336	44	4401
2026-01-19 15:59:00.36	246.68	16.32	-37.1	-38.6	16.2	0.00e+00	0	61	0	1197473792	44	4352
2026-01-19 15:59:01.37	246.89	16.37	-37.1	-38.6	16.2	0.00e+00	0	61	0	1204813824	44	4347
2026-01-19 15:59:02.38	247.09	16.42	-37.2	-38.7	16.2	0.00e+00	0	61	0	1212153856	44	4401
2026-01-19 15:59:03.39	247.30	16.46	-37.3	-38.8	16.0	0.00e+00	0	61	0	1219493888	44	4448
2026-01-19 15:59:04.40	247.50	16.51	-37.3	-38.8	16.0	0.00e+00	0	61	0	1226833920	44	4463
2026-01-19 15:59:05.41	247.71	16.56	-37.2	-38.7	16.1	0.00e+00	0	61	0	1234173952	44	4401
2026-01-19 15:59:06.42	247.92	16.60	-37.1	-38.5	16.3	0.00e+00	0	61	0	1241513984	44	4307
2026-01-19 15:59:07.42	248.13	16.65	-37.0	-38.4	16.4	0.00e+00	0	61	0	1248854016	44	4259
2026-01-19 15:59:08.43	248.33	16.70	-37.0	-38.4	16.4	0.00e+00	0	61	0	1256194048	44	4249
2026-01-19 15:59:09.44	248.54	16.74	-37.0	-38.4	16.4	0.00e+00	0	61	0	1263534080	44	4245
2026-01-19 15:59:10.45	248.75	16.79	-37.0	-38.4	16.3	0.00e+00	0	61	0	1270874112	44	4289
2026-01-19 15:59:11.46	248.97	16.83	-37.0	-38.5	16.3	0.00e+00	0	61	0	1278214144	44	4297
2026-01-19 15:59:12.47	249.18	16.88	-37.1	-38.5	16.3	0.00e+00	0	61	0	1285554176	44	4314
2026-01-19 15:59:13.48	249.39	16.92	-37.0	-38.4	16.4	0.00e+00	0	61	0	1292894208	44	4245
2026-01-19 15:59:14.49	249.60	16.96	-37.1	-38.5	16.3	0.00e+00	0	61	0	1300234240	44	4329
2026-01-19 15:59:15.50	249.82	17.01	-37.0	-38.4	16.4	0.00e+00	0	61	0	1307574272	44	4258
2026-01-19 15:59:16.51	250.03	17.05	-37.0	-38.4	16.3	0.00e+00	0	61	0	1314914304	44	4288
2026-01-19 15:59:17.52	250.24	17.09	-37.1	-38.5	16.3	0.00e+00	0	61	0	1322254336	44	4328
2026-01-19 15:59:18.53	250.46	17.14	-37.0	-38.4	16.4	0.00e+00	0	61	0	1329594368	44	4265
2026-01-19 15:59:19.54	250.67	17.18	-37.0	-38.4	16.4	0.00e+00	0	61	0	1336934400	44	4261
2026-01-19 15:59:20.55	250.89	17.22	-37.0	-38.4	16.4	0.00e+00	0	61	0	1344274432	44	4286
2026-01-19 15:59:21.56	251.11	17.26	-37.1	-38.5	16.3	0.00e+00	0	61	0	1350565888	44	4339
2026-01-19 15:59:22.57	251.32	17.31	-37.1	-38.5	16.3	0.00e+00	0	61	0	1357905920	44	4315
2026-01-19 15:59:23.58	251.54	17.35	-37.2	-38.6	16.2	0.00e+00	0	61	0	1366294528	44	4389
2026-01-19 15:59:24.59	251.76	17.39	-37.1	-38.6	16.3	0.00e+00	0	61	0	1372585984	44	4347
2026-01-19 15:59:25.60	251.98	17.43	-37.0	-38.4	16.4	0.00e+00	0	61	0	1379926016	44	4283
2026-01-19 15:59:26.61	252.20	17.47	-37.1	-38.5	16.4	0.00e+00	0	61	0	1387266048	44	4299
2026-01-19 15:59:27.62	252.42	17.51	-37.0	-38.4	16.4	0.00e+00	0	61	0	1394606080	44	4290
2026-01-19 15:59:28.63	252.64	17.55	-36.9	-38.3	16.5	0.00e+00	0	61	0	1401946112	44	4203
2026-01-19 15:59:29.64	252.86	17.59	-37.0	-38.4	16.5	0.00e+00	0	61	0	1409286144	44	4259
2026-01-19 15:59:30.65	253.09	17.63	-37.0	-38.3	16.5	0.00e+00	0	61	0	1416626176	44	4240
2026-01-19 15:59:31.66	253.31	17.66	-37.0	-38.4	16.5	0.00e+00	0	61	0	1423966208	44	4251
2026-01-19 15:59:32.66	253.53	17.70	-36.9	-38.3	16.5	0.00e+00	0	61	0	1431306240	44	4216
2026-01-19 15:59:33.67	253.75	17.74	-36.9	-38.3	16.5	0.00e+00	0	61	0	1438646272	44	4235
2026-01-19 15:59:34.69	253.98	17.78	-37.0	-38.4	16.4	0.00e+00	0	61	0	1445986304	44	4261
2026-01-19 15:59:35.70	254.20	17.82	-36.9	-38.3	16.5	0.00e+00	0	61	0	1453326336	44	4227
2026-01-19 15:59:36.70	254.43	17.85	-36.8	-38.2	16.6	0.00e+00	0	61	0	1460666368	44	4165
2026-01-19 15:59:37.71	254.65	17.89	-36.8	-38.2	16.6	0.00e+00	0	61	0	1468006400	44	4161
2026-01-19 15:59:38.72	254.88	17.92	-36.9	-38.2	16.6	0.00e+00	0	61	0	1474297856	44	4189
2026-01-19 15:59:39.73	255.11	17.96	-36.8	-38.1	16.7	0.00e+00	0	62	0	1482686464	44	4141
2026-01-19 15:59:40.74	255.33	17.99	-36.7	-38.0	16.8	0.00e+00	0	61	0	1490026496	44	4075
2026-01-19 15:59:41.75	255.56	18.03	-36.7	-38.0	16.8	0.00e+00	0	61	0	1496317952	44	4088
2026-01-19 15:59:42.76	255.79	18.06	-36.7	-38.1	16.7	0.00e+00	0	62	0	1503657984	44	4111
2026-01-19 15:59:43.77	256.02	18.10	-36.8	-38.2	16.6	0.00e+00	0	62	0	1510998016	44	4172
2026-01-19 15:59:44.78	256.25	18.13	-36.8	-38.2	16.6	0.00e+00	0	61	0	1518338048	44	4166
2026-01-19 15:59:45.79	256.48	18.16	-36.8	-38.2	16.7	0.00e+00	0	62	0	1525678080	44	4153
2026-01-19 15:59:46.80	256.71	18.20	-36.8	-38.2	16.7	0.00e+00	0	62	0	1533018112	44	4164
2026-01-19 15:59:47.81	256.94	18.23	-36.8	-38.1	16.7	0.00e+00	0	61	0	1540358144	44	4137
2026-01-19 15:59:48.82	257.17	18.26	-36.7	-38.1	16.7	0.00e+00	0	61	0	1547698176	44	4123
2026-01-19 15:59:49.83	257.40	18.29	-36.7	-38.0	16.8	0.00e+00	0	62	0	1555038208	44	4098
2026-01-19 15:59:50.84	257.63	18.32	-36.8	-38.1	16.7	0.00e+00	0	62	0	1562378240	44	4122
2026-01-19 15:59:51.85	257.87	18.36	-36.7	-38.0	16.8	0.00e+00	0	62	0	1569718272	44	4096
2026-01-19 15:59:52.86	258.10	18.39	-36.7	-38.1	16.8	0.00e+00	0	61	0	1577058304	44	4106
2026-01-19 15:59:53.87	258.33	18.42	-36.8	-38.1	16.7	0.00e+00	0	62	0	1584398336	44	4145
2026-01-19 15:59:54.88	258.57	18.44	-36.7	-38.0	16.8	0.00e+00	0	61	0	1591738368	44	4080
2026-01-19 15:59:55.89	258.80	18.47	-36.8	-38.2	16.7	0.00e+00	0	62	0	1599078400	44	4164
2026-01-19 15:59:56.90	259.04	18.50	-37.0	-38.4	16.5	0.00e+00	0	62	0	1606418432	44	4278
2026-01-19 15:59:57.91	259.27	18.53	-36.8	-38.1	16.7	0.00e+00	0	62	0	1613758464	44	4136
2026-01-19 15:59:58.92	259.51	18.56	-36.8	-38.1	16.8	0.00e+00	0	62	0	1621098496	44	4125
2026-01-19 15:59:59.93	259.74	18.59	-36.8	-38.2	16.6	0.00e+00	0	61	0	1628438528	44	4175
2026-01-19 16:00:00.94	259.98	18.61	-36.8	-38.1	16.7	0.00e+00	0	62	0	1635778560	44	4134
2026-01-19 16:00:01.95	260.22	18.64	-36.8	-38.2	16.7	0.00e+00	0	61	0	1643118592	44	4157
2026-01-19 16:00:02.96	260.45	18.66	-36.8	-38.2	16.7	0.00e+00	0	61	0	1649410048	44	4158
2026-01-19 16:00:03.97	260.69	18.69	-37.1	-38.5	16.3	0.00e+00	0	61	0	1656750080	44	4322
2026-01-19 16:00:04.98	260.93	18.72	-36.9	-38.3	16.6	0.00e+00	0	62	0	1665138688	44	4218
2026-01-19 16:00:05.99	261.17	18.74	-37.0	-38.5	16.4	0.00e+00	0	61	0	1671430144	44	4297
2026-01-19 16:00:07.00	261.41	18.76	-36.9	-38.3	16.5	0.00e+00	0	61	0	1678770176	44	4221
2026-01-19 16:00:08.01	261.65	18.79	-37.1	-38.5	16.3	0.00e+00	0	62	0	1686110208	44	4317
2026-01-19 16:00:09.02	261.89	18.81	-37.0	-38.5	16.4	0.00e+00	0	61	0	1693450240	44	4292
2026-01-19 16:00:10.03	262.13	18.83	-36.9	-38.3	16.6	0.00e+00	0	62	0	1700790272	44	4198
2026-01-19 16:00:11.04	262.37	18.86	-37.1	-38.5	16.4	0.00e+00	0	61	0	1708130304	44	4305
2026-01-19 16:00:12.05	262.61	18.88	-37.1	-38.5	16.4	0.00e+00	0	62	0	1715470336	44	4304
2026-01-19 16:00:13.06	262.85	18.90	-37.1	-38.5	16.3	0.00e+00	0	62	0	1722810368	44	4330
2026-01-19 16:00:14.07	263.09	18.92	-37.0	-38.5	16.4	0.00e+00	0	62	0	1730150400	44	4292
2026-01-19 16:00:15.07	263.33	18.94	-37.0	-38.5	16.4	0.00e+00	0	62	0	1737490432	44	4294
2026-01-19 16:00:16.08	263.57	18.96	-37.0	-38.4	16.4	0.00e+00	0	61	0	1744830464	44	4283
2026-01-19 16:00:17.09	263.81	18.98	-36.9	-38.3	16.6	0.00e+00	0	62	0	1752170496	44	4201
2026-01-19 16:00:18.11	264.06	19.00	-36.9	-38.3	16.6	0.00e+00	0	62	0	1759510528	44	4219
2026-01-19 16:00:19.11	264.30	19.02	-36.8	-38.1	16.7	0.00e+00	0	62	0	1766850560	44	4143
2026-01-19 16:00:20.12	264.54	19.03	-36.7	-38.0	16.8	0.00e+00	0	62	0	1773142016	44	4084
2026-01-19 16:00:21.13	264.78	19.05	-36.6	-37.9	17.0	0.00e+00	0	62	0	1781530624	44	4017
2026-01-19 16:00:22.14	265.03	19.07	-36.3	-37.6	17.1	0.00e+00	0	62	0	1788870656	43	4137
2026-01-19 16:00:23.15	265.27	19.09	-36.4	-37.7	17.0	0.00e+00	0	61	0	1795162112	43	4179
2026-01-19 16:00:24.16	265.51	19.10	-36.4	-37.7	17.0	0.00e+00	0	62	0	1802502144	43	4158
2026-01-19 16:00:25.17	265.76	19.12	-36.4	-37.7	17.0	0.00e+00	0	61	0	1809842176	43	4183
2026-01-19 16:00:26.18	266.00	19.13	-36.4	-37.7	17.0	0.00e+00	0	62	0	1817182208	43	4182
2026-01-19 16:00:27.19	266.25	19.15	-36.4	-37.8	16.9	0.00e+00	0	62	0	1824522240	43	4208
2026-01-19 16:00:28.20	266.49	19.16	-36.5	-37.9	16.8	0.00e+00	0	62	0	1831862272	43	4261
2026-01-19 16:00:29.21	266.74	19.17	-36.6	-37.9	16.8	0.00e+00	0	61	0	1839202304	43	4278
2026-01-19 16:00:30.22	266.98	19.19	-36.6	-38.0	16.7	0.00e+00	0	62	0	1846542336	43	4308
2026-01-19 16:00:31.23	267.23	19.20	-36.6	-37.9	16.8	0.00e+00	0	61	0	1853882368	43	4273
2026-01-19 16:00:32.23	267.47	19.21	-36.5	-37.8	16.8	0.00e+00	0	62	0	1861222400	43	4240
2026-01-19 16:00:33.24	267.72	19.22	-36.6	-37.9	16.8	0.00e+00	0	62	0	1868562432	43	4271
2026-01-19 16:00:34.25	267.96	19.23	-36.6	-37.9	16.8	0.00e+00	0	62	0	1875902464	43	4276
2026-01-19 16:00:35.26	268.21	19.24	-36.7	-38.0	16.7	0.00e+00	0	62	0	1883242496	43	4326
2026-01-19 16:00:36.27	268.46	19.25	-36.6	-38.0	16.7	0.00e+00	0	62	0	1890582528	43	4323
2026-01-19 16:00:37.28	268.70	19.26	-36.5	-37.8	16.9	0.00e+00	0	62	0	1897922560	43	4231
2026-01-19 16:00:38.29	268.95	19.27	-36.5	-37.8	16.9	0.00e+00	0	62	0	1905262592	43	4214
2026-01-19 16:00:39.30	269.20	19.28	-36.4	-37.8	16.9	0.00e+00	0	62	0	1912602624	43	4196
2026-01-19 16:00:40.31	269.44	19.29	-36.5	-37.8	16.9	0.00e+00	0	62	0	1919942656	43	4236
2026-01-19 16:00:41.32	269.69	19.29	-36.6	-37.9	16.8	0.00e+00	0	62	0	1926234112	43	4272
2026-01-19 16:00:42.33	269.94	19.30	-36.6	-38.0	16.7	0.00e+00	0	61	0	1933574144	43	4312
2026-01-19 16:00:43.34	270.19	19.31	-36.7	-38.0	16.7	0.00e+00	0	61	0	1941962752	43	4338
2026-01-19 16:00:44.35	270.43	19.31	-36.7	-38.0	16.7	0.00e+00	0	62	0	1948254208	43	4333
2026-01-19 16:00:45.36	270.68	19.32	-36.7	-38.1	16.7	0.00e+00	0	62	0	1955594240	43	4341
2026-01-19 16:00:46.37	270.93	19.32	-36.7	-38.1	16.6	0.00e+00	0	62	0	1962934272	43	4355
2026-01-19 16:00:47.38	271.18	19.33	-36.5	-37.8	16.9	0.00e+00	0	62	0	1970274304	43	4234
2026-01-19 16:00:48.38	271.42	19.33	-36.4	-37.8	16.9	0.00e+00	0	62	0	1977614336	43	4201
2026-01-19 16:00:49.39	271.67	19.33	-36.5	-37.9	16.8	0.00e+00	0	62	0	1984954368	43	4259
2026-01-19 16:00:50.40	271.92	19.34	-36.4	-37.8	16.9	0.00e+00	0	62	0	1992294400	43	4196
2026-01-19 16:00:51.41	272.16	19.34	-36.5	-37.9	16.8	0.00e+00	0	62	0	1999634432	43	4258
2026-01-19 16:00:52.42	272.41	19.34	-36.5	-37.8	16.9	0.00e+00	0	62	0	2006974464	43	4241
2026-01-19 16:00:53.43	272.66	19.34	-36.5	-37.9	16.8	0.00e+00	0	62	0	2014314496	43	4253
2026-01-19 16:00:54.44	272.91	19.34	-36.5	-37.8	16.9	0.00e+00	0	62	0	2021654528	43	4218
2026-01-19 16:00:55.45	273.15	19.34	-36.4	-37.8	16.9	0.00e+00	0	62	0	2028994560	43	4206
2026-01-19 16:00:56.46	273.40	19.34	-36.3	-37.6	17.1	0.00e+00	0	62	0	2036334592	43	4129
2026-01-19 16:00:57.47	273.65	19.34	-36.3	-37.6	17.1	0.00e+00	0	62	0	2043674624	43	4101
2026-01-19 16:00:58.48	273.90	19.34	-36.3	-37.6	17.1	0.00e+00	0	62	0	2051014656	43	4115
2026-01-19 16:00:59.49	274.15	19.34	-36.3	-37.6	17.1	0.00e+00	0	62	0	2058354688	43	4132
2026-01-19 16:01:00.50	274.39	19.33	-36.2	-37.5	17.2	0.00e+00	0	62	0	2065694720	43	4067
2026-01-19 16:01:01.51	274.64	19.33	-36.3	-37.6	17.0	0.00e+00	0	62	0	2071986176	43	4138
2026-01-19 16:01:02.52	274.89	19.33	-36.3	-37.6	17.0	0.00e+00	0	62	0	2079326208	43	4143
2026-01-19 16:01:03.53	275.14	19.32	-36.3	-37.6	17.0	0.00e+00	0	62	0	2086666240	43	4137
2026-01-19 16:01:04.54	275.38	19.32	-36.4	-37.7	16.9	0.00e+00	0	62	0	2094006272	43	4179
2026-01-19 16:01:05.55	275.63	19.31	-36.4	-37.8	16.9	0.00e+00	0	62	0	2101346304	43	4195
2026-01-19 16:01:06.56	275.88	19.31	-36.4	-37.8	16.9	0.00e+00	0	62	0	2108686336	43	4198
2026-01-19 16:01:07.57	276.12	19.30	-36.6	-38.0	16.7	0.00e+00	0	62	0	2116026368	43	4316
2026-01-19 16:01:08.58	276.37	19.29	-36.6	-38.0	16.7	0.00e+00	0	62	0	2123366400	43	4321
2026-01-19 16:01:09.59	276.62	19.29	-36.7	-38.1	16.6	0.00e+00	0	62	0	2130706432	43	4355
2026-01-19 16:01:10.60	276.87	19.28	-36.9	-38.3	16.3	0.00e+00	0	62	0	2138046464	43	4484
2026-01-19 16:01:11.61	277.11	19.27	-36.9	-38.4	16.3	0.00e+00	0	62	0	2145386496	43	4496
2026-01-19 16:01:12.62	277.36	19.26	-36.8	-38.2	16.4	0.00e+00	0	62	0	2152726528	43	4434
2026-01-19 16:01:13.63	277.60	19.25	-36.8	-38.1	16.5	0.00e+00	0	62	0	2160066560	43	4389
2026-01-19 16:01:14.63	277.85	19.24	-36.7	-38.1	16.5	0.00e+00	0	62	0	2167406592	43	4378
2026-01-19 16:01:15.64	278.09	19.23	-36.7	-38.1	16.6	0.00e+00	0	62	0	2174746624	43	4355
2026-01-19 16:01:16.65	278.34	19.22	-36.7	-38.1	16.6	0.00e+00	0	62	0	2182086656	43	4351
2026-01-19 16:01:17.66	278.59	19.21	-36.6	-37.9	16.7	0.00e+00	0	62	0	2189426688	43	4286
2026-01-19 16:01:18.67	278.83	19.20	-36.6	-38.0	16.7	0.00e+00	0	62	0	2196766720	43	4299
2026-01-19 16:01:19.68	279.08	19.18	-36.6	-38.0	16.6	0.00e+00	0	62	0	2203058176	43	4327
2026-01-19 16:01:20.69	279.32	19.17	-36.6	-37.9	16.7	0.00e+00	0	62	0	2211446784	43	4269
2026-01-19 16:01:21.70	279.57	19.16	-36.7	-38.1	16.6	0.00e+00	0	62	0	2218786816	43	4356
2026-01-19 16:01:22.71	279.81	19.14	-36.7	-38.1	16.5	0.00e+00	0	62	0	2225078272	43	4376
2026-01-19 16:01:23.72	280.06	19.13	-36.8	-38.1	16.5	0.00e+00	0	62	0	2232418304	43	4390
2026-01-19 16:01:24.73	280.30	19.11	-36.9	-38.3	16.3	0.00e+00	0	62	0	2239758336	43	4473
2026-01-19 16:01:25.74	280.54	19.10	-36.8	-38.2	16.5	0.00e+00	0	62	0	2247098368	43	4411
2026-01-19 16:01:26.75	280.79	19.08	-36.7	-38.1	16.5	0.00e+00	0	62	0	2254438400	43	4351
2026-01-19 16:01:27.76	281.03	19.07	-36.6	-37.9	16.7	0.00e+00	0	62	0	2261778432	43	4288
2026-01-19 16:01:28.77	281.27	19.05	-36.6	-38.0	16.6	0.00e+00	0	62	0	2269118464	43	4300
2026-01-19 16:01:29.78	281.52	19.03	-36.5	-37.8	16.8	0.00e+00	0	62	0	2276458496	43	4221
2026-01-19 16:01:30.79	281.76	19.01	-36.5	-37.9	16.7	0.00e+00	0	62	0	2283798528	43	4258
2026-01-19 16:01:31.79	282.00	19.00	-36.5	-37.8	16.8	0.00e+00	0	62	0	2291138560	43	4235
2026-01-19 16:01:32.80	282.24	18.98	-36.5	-37.8	16.8	0.00e+00	0	62	0	2298478592	43	4232
2026-01-19 16:01:33.81	282.48	18.96	-36.6	-37.9	16.7	0.00e+00	0	62	0	2305818624	43	4289
2026-01-19 16:01:34.82	282.72	18.94	-36.6	-37.9	16.7	0.00e+00	0	62	0	2313158656	43	4269
2026-01-19 16:01:35.83	282.96	18.92	-36.6	-38.0	16.6	0.00e+00	0	62	0	2320498688	43	4317
2026-01-19 16:01:36.84	283.21	18.90	-36.7	-38.0	16.6	0.00e+00	0	62	0	2327838720	43	4331
2026-01-19 16:01:37.85	283.45	18.87	-36.8	-38.2	16.4	0.00e+00	0	62	0	2335178752	43	4411
2026-01-19 16:01:38.86	283.69	18.85	-36.9	-38.3	16.3	0.00e+00	0	62	0	2342518784	43	4457
2026-01-19 16:01:39.87	283.93	18.83	-36.9	-38.3	16.3	0.00e+00	0	62	0	2348810240	43	4473
2026-01-19 16:01:40.88	284.16	18.81	-36.8	-38.2	16.4	0.00e+00	0	62	0	2356150272	43	4441
2026-01-19 16:01:41.89	284.40	18.78	-36.8	-38.2	16.4	0.00e+00	0	62	0	2364538880	43	4429
2026-01-19 16:01:42.90	284.64	18.76	-36.9	-38.3	16.4	0.00e+00	0	62	0	2370830336	43	4447
2026-01-19 16:01:43.91	284.88	18.74	-36.7	-38.1	16.6	0.00e+00	0	62	0	2378170368	43	4348
2026-01-19 16:01:44.92	285.12	18.71	-36.6	-38.0	16.6	0.00e+00	0	62	0	2385510400	43	4315
2026-01-19 16:01:45.93	285.36	18.69	-36.6	-38.0	16.7	0.00e+00	0	62	0	2392850432	43	4297
2026-01-19 16:01:46.94	285.59	18.66	-36.7	-38.1	16.5	0.00e+00	0	62	0	2400190464	43	4380
2026-01-19 16:01:47.95	285.83	18.64	-36.6	-37.9	16.6	0.00e+00	0	62	0	2407530496	43	4282
2026-01-19 16:01:48.96	286.07	18.61	-36.6	-38.0	16.7	0.00e+00	0	62	0	2414870528	43	4303
2026-01-19 16:01:49.97	286.30	18.58	-36.7	-38.1	16.5	0.00e+00	0	62	0	2422210560	43	4374
2026-01-19 16:01:50.98	286.54	18.55	-36.8	-38.2	16.4	0.00e+00	0	62	0	2429550592	43	4412
2026-01-19 16:01:51.99	286.77	18.53	-36.8	-38.2	16.4	0.00e+00	0	62	0	2436890624	43	4416
2026-01-19 16:01:53.00	287.01	18.50	-36.7	-38.0	16.6	0.00e+00	0	62	0	2444230656	43	4337
2026-01-19 16:01:54.01	287.24	18.47	-36.6	-38.0	16.6	0.00e+00	0	62	0	2451570688	43	4324
2026-01-19 16:01:55.02	287.48	18.44	-36.7	-38.1	16.5	0.00e+00	0	62	0	2458910720	43	4357
2026-01-19 16:01:56.03	287.71	18.41	-36.6	-38.0	16.6	0.00e+00	0	62	0	2466250752	43	4320
2026-01-19 16:01:57.04	287.94	18.38	-36.7	-38.1	16.5	0.00e+00	0	62	0	2473590784	43	4375
2026-01-19 16:01:58.04	288.17	18.35	-36.6	-38.0	16.6	0.00e+00	0	62	0	2480930816	43	4292
2026-01-19 16:01:59.05	288.40	18.32	-36.7	-38.1	16.5	0.00e+00	0	62	0	2488270848	43	4353
2026-01-19 16:02:00.06	288.63	18.29	-36.6	-38.0	16.6	0.00e+00	0	62	0	2495610880	43	4327
2026-01-19 16:02:01.07	288.87	18.26	-36.7	-38.1	16.5	0.00e+00	0	62	0	2501902336	43	4389
2026-01-19 16:02:02.08	289.10	18.23	-36.7	-38.1	16.5	0.00e+00	0	62	0	2510290944	43	4355
2026-01-19 16:02:03.09	289.33	18.19	-36.8	-38.1	16.5	0.00e+00	0	62	0	2517630976	43	4387
2026-01-19 16:02:04.10	289.56	18.16	-36.5	-37.9	16.7	0.00e+00	0	62	0	2523922432	43	4265
2026-01-19 16:02:05.11	289.78	18.13	-36.7	-38.1	16.5	0.00e+00	0	62	0	2531262464	43	4364
2026-01-19 16:02:06.12	290.01	18.10	-36.7	-38.1	16.5	0.00e+00	0	62	0	2538602496	43	4370
2026-01-19 16:02:07.13	290.24	18.06	-36.8	-38.2	16.4	0.00e+00	0	62	0	2545942528	43	4428
2026-01-19 16:02:08.14	290.47	18.03	-36.9	-38.4	16.3	0.00e+00	0	62	0	2553282560	43	4502
2026-01-19 16:02:09.15	290.70	17.99	-37.0	-38.4	16.2	0.00e+00	0	62	0	2560622592	43	4523
2026-01-19 16:02:10.16	290.92	17.96	-36.9	-38.3	16.2	0.00e+00	0	62	0	2567962624	43	4493
2026-01-19 16:02:11.17	291.15	17.92	-36.9	-38.3	16.3	0.00e+00	0	62	0	2575302656	43	4493
2026-01-19 16:02:12.18	291.37	17.89	-36.8	-38.2	16.4	0.00e+00	0	62	0	2582642688	43	4440
2026-01-19 16:02:13.19	291.60	17.85	-36.9	-38.3	16.4	0.00e+00	0	62	0	2589982720	43	4451
2026-01-19 16:02:14.20	291.82	17.81	-36.8	-38.2	16.4	0.00e+00	0	62	0	2597322752	43	4420
2026-01-19 16:02:15.20	292.05	17.78	-36.8	-38.2	16.4	0.00e+00	0	62	0	2604662784	43	4408
2026-01-19 16:02:16.21	292.27	17.74	-36.9	-38.3	16.4	0.00e+00	0	62	0	2612002816	43	4445
2026-01-19 16:02:17.22	292.49	17.70	-36.9	-38.3	16.3	0.00e+00	0	62	0	2619342848	43	4464
2026-01-19 16:02:18.24	292.72	17.66	-36.8	-38.3	16.4	0.00e+00	0	62	0	2626682880	43	4449
2026-01-19 16:02:19.25	292.94	17.62	-36.7	-38.0	16.5	0.00e+00	0	62	0	2634022912	43	4338
2026-01-19 16:02:20.26	293.16	17.59	-36.8	-38.2	16.4	0.00e+00	0	62	0	2641362944	43	4420
2026-01-19 16:02:21.27	293.38	17.55	-36.8	-38.2	16.4	0.00e+00	0	62	0	2648702976	43	4436
2026-01-19 16:02:22.28	293.60	17.51	-36.8	-38.2	16.4	0.00e+00	0	62	0	2654994432	43	4438
2026-01-19 16:02:23.29	293.82	17.47	-36.9	-38.3	16.3	0.00e+00	0	62	0	2663383040	43	4476
2026-01-19 16:02:24.30	294.04	17.43	-37.0	-38.5	16.1	0.00e+00	0	62	0	2669674496	43	4552
2026-01-19 16:02:25.31	294.26	17.39	-37.0	-38.4	16.1	0.00e+00	0	62	0	2677014528	43	4535
2026-01-19 16:02:26.32	294.47	17.35	-36.9	-38.4	16.2	0.00e+00	0	62	0	2684354560	43	4498
2026-01-19 16:02:27.33	294.69	17.31	-37.0	-38.4	16.2	0.00e+00	0	62	0	2691694592	43	4515
2026-01-19 16:02:28.34	294.91	17.26	-36.9	-38.3	16.3	0.00e+00	0	62	0	2699034624	43	4465
2026-01-19 16:02:29.35	295.12	17.22	-36.8	-38.2	16.4	0.00e+00	0	62	0	2706374656	43	4404
2026-01-19 16:02:30.36	295.34	17.18	-36.7	-38.1	16.5	0.00e+00	0	62	0	2713714688	43	4373
2026-01-19 16:02:31.36	295.55	17.14	-36.8	-38.2	16.4	0.00e+00	0	62	0	2721054720	43	4429
2026-01-19 16:02:32.37	295.77	17.10	-36.7	-38.1	16.5	0.00e+00	0	62	0	2728394752	43	4391
2026-01-19 16:02:33.38	295.98	17.05	-36.8	-38.2	16.3	0.00e+00	0	62	0	2735734784	43	4434
2026-01-19 16:02:34.39	296.19	17.01	-36.9	-38.3	16.2	0.00e+00	0	62	0	2743074816	43	4480
2026-01-19 16:02:35.40	296.40	16.97	-36.9	-38.4	16.2	0.00e+00	0	62	0	2750414848	43	4501
2026-01-19 16:02:36.42	296.62	16.92	-37.0	-38.4	16.1	0.00e+00	0	62	0	2757754880	43	4519
2026-01-19 16:02:37.43	296.83	16.88	-37.1	-38.5	16.0	0.00e+00	0	62	0	2765094912	43	4583
2026-01-19 16:02:38.43	297.04	16.83	-37.1	-38.6	15.9	0.00e+00	0	62	0	2772434944	43	4632
2026-01-19 16:02:39.44	297.25	16.79	-37.3	-38.7	16.0	0.00e+00	0	62	0	2779774976	44	4437
2026-01-19 16:02:40.45	297.46	16.74	-37.2	-38.7	16.0	0.00e+00	0	62	0	2787115008	44	4412
2026-01-19 16:02:41.46	297.67	16.70	-37.3	-38.8	15.9	0.00e+00	0	62	0	2794455040	44	4464
2026-01-19 16:02:42.47	297.87	16.65	-37.4	-38.9	15.9	0.00e+00	0	62	0	2800746496	44	4503
2026-01-19 16:02:43.48	298.08	16.61	-37.4	-38.9	15.8	0.00e+00	0	62	0	2809135104	44	4536
2026-01-19 16:02:44.50	298.29	16.56	-37.4	-39.0	15.8	0.00e+00	0	62	0	2816475136	44	4549
2026-01-19 16:02:45.51	298.50	16.52	-37.4	-38.9	15.8	0.00e+00	0	62	0	2822766592	44	4534
2026-01-19 16:02:46.52	298.70	16.47	-37.4	-38.9	15.9	0.00e+00	0	62	0	2830106624	44	4506
2026-01-19 16:02:47.53	298.91	16.42	-37.4	-38.9	15.8	0.00e+00	0	62	0	2837446656	44	4520
2026-01-19 16:02:48.54	299.11	16.37	-37.3	-38.8	16.0	0.00e+00	0	62	0	2844786688	44	4446
2026-01-19 16:02:49.55	299.32	16.33	-37.3	-38.7	16.0	0.00e+00	0	62	0	2852126720	44	4440
2026-01-19 16:02:50.56	299.52	16.28	-37.3	-38.7	16.0	0.00e+00	0	62	0	2859466752	44	4437
2026-01-19 16:02:51.57	299.72	16.23	-37.3	-38.7	15.9	0.00e+00	0	62	0	2866806784	44	4431
2026-01-19 16:02:52.58	299.92	16.18	-37.4	-38.8	15.9	0.00e+00	0	62	0	2874146816	44	4486
2026-01-19 16:02:53.59	300.12	16.14	-37.4	-38.9	15.8	0.00e+00	0	62	0	2881486848	44	4503
2026-01-19 16:02:54.59	300.32	16.09	-37.4	-38.9	15.8	0.00e+00	0	62	0	2888826880	44	4540
2026-01-19 16:02:55.60	300.52	16.04	-37.5	-39.0	15.7	0.00e+00	0	62	0	2896166912	44	4561
2026-01-19 16:02:56.61	300.72	15.99	-37.5	-39.0	15.7	0.00e+00	0	62	0	2903506944	44	4587
2026-01-19 16:02:57.62	300.92	15.94	-37.4	-38.9	15.8	0.00e+00	0	62	0	2910846976	44	4535
2026-01-19 16:02:58.63	301.12	15.89	-37.5	-39.0	15.7	0.00e+00	0	62	0	2918187008	44	4580
2026-01-19 16:02:59.64	301.32	15.84	-37.4	-38.9	15.8	0.00e+00	0	62	0	2925527040	44	4515
2026-01-19 16:03:00.65	301.51	15.79	-37.5	-39.0	15.6	0.00e+00	0	62	0	2932867072	44	4592
2026-01-19 16:03:01.66	301.71	15.74	-37.4	-38.9	15.8	0.00e+00	0	62	0	2940207104	44	4512
2026-01-19 16:03:02.67	301.91	15.69	-37.4	-39.0	15.8	0.00e+00	0	62	0	2947547136	44	4552
2026-01-19 16:03:03.68	302.10	15.64	-37.5	-39.0	15.7	0.00e+00	0	62	0	2953838592	44	4549
2026-01-19 16:03:04.69	302.29	15.59	-37.5	-39.0	15.7	0.00e+00	0	62	0	2962227200	44	4558
2026-01-19 16:03:05.70	302.49	15.54	-37.5	-39.0	15.7	0.00e+00	0	62	0	2969567232	44	4558
2026-01-19 16:03:06.71	302.68	15.49	-37.5	-39.1	15.6	0.00e+00	0	62	0	2975858688	44	4610
2026-01-19 16:03:07.71	302.87	15.44	-37.6	-39.1	15.6	0.00e+00	0	62	0	2983198720	44	4637
2026-01-19 16:03:08.73	303.06	15.39	-37.6	-39.1	15.6	0.00e+00	0	62	0	2990538752	44	4615
2026-01-19 16:03:09.74	303.26	15.33	-37.6	-39.1	15.6	0.00e+00	0	62	0	2997878784	44	4630
2026-01-19 16:03:10.75	303.45	15.28	-37.6	-39.1	15.5	0.00e+00	0	62	0	3005218816	44	4627
2026-01-19 16:03:11.76	303.64	15.23	-37.5	-39.1	15.6	0.00e+00	0	62	0	3012558848	44	4600
2026-01-19 16:03:12.77	303.82	15.18	-37.5	-39.1	15.6	0.00e+00	0	62	0	3019898880	44	4599
2026-01-19 16:03:13.78	304.01	15.12	-37.6	-39.2	15.5	0.00e+00	0	62	0	3027238912	44	4657
2026-01-19 16:03:14.79	304.20	15.07	-37.5	-39.0	15.6	0.00e+00	0	62	0	3034578944	44	4597
2026-01-19 16:03:15.80	304.39	15.02	-37.3	-38.8	15.9	0.00e+00	0	62	0	3041918976	44	4451
2026-01-19 16:03:16.81	304.57	14.97	-37.4	-38.8	15.8	0.00e+00	0	62	0	3049259008	44	4493
2026-01-19 16:03:17.82	304.76	14.91	-37.2	-38.7	16.0	0.00e+00	0	62	0	3056599040	44	4417
2026-01-19 16:03:18.83	304.94	14.86	-37.4	-38.9	15.8	0.00e+00	0	62	0	3063939072	44	4501
2026-01-19 16:03:19.84	305.13	14.81	-37.4	-38.9	15.7	0.00e+00	0	62	0	3071279104	44	4526
2026-01-19 16:03:20.84	305.31	14.75	-37.5	-39.0	15.7	0.00e+00	0	62	0	3078619136	44	4582
2026-01-19 16:03:21.85	305.49	14.70	-37.5	-39.0	15.6	0.00e+00	0	62	0	3085959168	44	4596
2026-01-19 16:03:22.86	305.68	14.65	-37.6	-39.2	15.5	0.00e+00	0	62	0	3093299200	44	4676
2026-01-19 16:03:23.87	305.86	14.59	-37.7	-39.3	15.3	0.00e+00	0	62	0	3099590656	45	4469
2026-01-19 16:03:24.89	306.04	14.54	-37.8	-39.4	15.3	0.00e+00	0	62	0	3107979264	45	4497
2026-01-19 16:03:25.90	306.22	14.48	-37.8	-39.4	15.2	0.00e+00	0	62	0	3115319296	45	4537
2026-01-19 16:03:26.91	306.40	14.43	-37.8	-39.5	15.2	0.00e+00	0	62	0	3121610752	45	4548
2026-01-19 16:03:27.92	306.58	14.37	-37.9	-39.5	15.1	0.00e+00	0	62	0	3128950784	45	4555
2026-01-19 16:03:28.93	306.76	14.32	-37.9	-39.5	15.1	0.00e+00	0	62	0	3136290816	45	4585
2026-01-19 16:03:29.94	306.94	14.27	-37.9	-39.5	15.1	0.00e+00	0	62	0	3143630848	45	4570
2026-01-19 16:03:30.95	307.12	14.21	-37.9	-39.5	15.1	0.00e+00	0	62	0	3150970880	45	4593
2026-01-19 16:03:31.96	307.29	14.16	-38.0	-39.6	15.0	0.00e+00	0	62	0	3158310912	45	4622
2026-01-19 16:03:32.97	307.47	14.10	-38.0	-39.7	15.0	0.00e+00	0	62	0	3165650944	45	4660
2026-01-19 16:03:33.98	307.64	14.04	-38.0	-39.6	15.0	0.00e+00	0	62	0	3172990976	45	4640
2026-01-19 16:03:34.99	307.82	13.99	-38.0	-39.6	15.0	0.00e+00	0	62	0	3180331008	45	4633
2026-01-19 16:03:36.00	307.99	13.93	-37.9	-39.5	15.1	1.10e-06	0	62	0	3187671040	45	4584
2026-01-19 16:03:37.00	308.16	13.88	-37.9	-39.5	15.1	0.00e+00	0	62	0	3195011072	45	4590
2026-01-19 16:03:38.01	308.34	13.82	-37.9	-39.6	15.0	0.00e+00	0	62	0	3202351104	45	4626
2026-01-19 16:03:39.02	308.51	13.77	-37.9	-39.5	15.1	0.00e+00	0	62	0	3209691136	45	4567
2026-01-19 16:03:40.03	308.68	13.71	-37.9	-39.6	15.0	0.00e+00	0	62	0	3217031168	45	4601
2026-01-19 16:03:41.04	308.85	13.66	-37.9	-39.5	15.1	0.00e+00	0	62	0	3224371200	45	4571
2026-01-19 16:03:42.05	309.02	13.60	-38.0	-39.6	15.0	0.00e+00	0	62	0	3231711232	45	4633
2026-01-19 16:03:43.06	309.19	13.54	-38.0	-39.6	15.0	1.10e-06	0	62	0	3239051264	45	4630
2026-01-19 16:03:44.07	309.36	13.49	-37.8	-39.5	15.1	0.00e+00	0	62	0	3246391296	45	4563
2026-01-19 16:03:45.08	309.53	13.43	-38.0	-39.6	14.9	0.00e+00	0	62	0	3253731328	45	4647
2026-01-19 16:03:46.09	309.70	13.37	-38.0	-39.6	15.0	0.00e+00	0	62	0	3261071360	45	4642
2026-01-19 16:03:47.10	309.87	13.32	-38.0	-39.7	14.9	1.10e-06	0	62	0	3268411392	45	4690
2026-01-19 16:03:48.11	310.03	13.26	-38.0	-39.7	14.9	0.00e+00	0	62	0	3274702848	45	4686
2026-01-19 16:03:49.12	310.20	13.20	-38.1	-39.8	14.8	0.00e+00	0	62	0	3282042880	45	4723
2026-01-19 16:03:50.13	310.36	13.15	-38.2	-39.9	14.7	1.10e-06	0	62	0	3289382912	46	4545
2026-01-19 16:03:51.14	310.53	13.09	-38.3	-40.0	14.6	1.10e-06	0	62	0	3296722944	46	4575
2026-01-19 16:03:52.15	310.69	13.03	-38.3	-40.0	14.5	0.00e+00	0	62	0	3304062976	46	4593
2026-01-19 16:03:53.16	310.86	12.98	-38.2	-40.0	14.6	0.00e+00	0	62	0	3311403008	46	4562
2026-01-19 16:03:54.17	311.02	12.92	-38.4	-40.1	14.4	0.00e+00	0	62	0	3318743040	46	4635
2026-01-19 16:03:55.18	311.18	12.86	-38.3	-40.0	14.5	1.10e-06	0	62	0	3326083072	46	4598
2026-01-19 16:03:56.19	311.34	12.80	-38.3	-40.1	14.5	1.10e-06	0	62	0	3333423104	46	4607
2026-01-19 16:03:57.20	311.50	12.75	-38.3	-40.0	14.5	0.00e+00	0	62	0	3340763136	46	4593
2026-01-19 16:03:58.21	311.66	12.69	-38.3	-40.0	14.5	0.00e+00	0	62	0	3348103168	46	4597
2026-01-19 16:03:59.22	311.82	12.63	-38.3	-40.0	14.6	0.00e+00	0	62	0	3355443200	46	4566
2026-01-19 16:04:00.22	311.98	12.57	-38.3	-40.1	14.5	1.10e-06	0	62	0	3362783232	46	4600
2026-01-19 16:04:01.23	312.14	12.52	-38.2	-40.0	14.6	0.00e+00	0	62	0	3370123264	46	4546
2026-01-19 16:04:02.24	312.30	12.46	-38.1	-39.8	14.7	1.10e-06	0	62	0	3377463296	46	4477
2026-01-19 16:04:03.25	312.46	12.40	-38.1	-39.8	14.7	1.10e-06	0	62	0	3384803328	46	4465
2026-01-19 16:04:04.26	312.61	12.34	-38.0	-39.6	14.9	0.00e+00	0	62	0	3392143360	46	4382
2026-01-19 16:04:05.27	312.77	12.29	-38.0	-39.7	14.9	0.00e+00	0	62	0	3398434816	46	4400
2026-01-19 16:04:06.28	312.92	12.23	-37.9	-39.5	15.0	0.00e+00	0	62	0	3406823424	46	4331
2026-01-19 16:04:07.29	313.08	12.17	-37.8	-39.4	15.2	0.00e+00	0	62	0	3414163456	46	4265
2026-01-19 16:04:08.30	313.23	12.11	-37.9	-39.5	15.0	0.00e+00	0	62	0	3420454912	46	4326
2026-01-19 16:04:09.31	313.39	12.05	-37.9	-39.6	15.0	0.00e+00	0	62	0	3427794944	46	4341
2026-01-19 16:04:10.32	313.54	12.00	-38.1	-39.7	14.8	0.00e+00	0	62	0	3435134976	46	4427
2026-01-19 16:04:11.33	313.69	11.94	-38.0	-39.7	14.9	0.00e+00	0	62	0	3442475008	46	4415
2026-01-19 16:04:12.34	313.85	11.88	-38.1	-39.8	14.7	0.00e+00	0	62	0	3449815040	46	4476
2026-01-19 16:04:13.35	314.00	11.82	-38.3	-40.0	14.5	0.00e+00	0	62	0	3457155072	46	4572
2026-01-19 16:04:14.36	314.15	11.76	-38.4	-40.1	14.4	0.00e+00	0	62	0	3464495104	46	4642
2026-01-19 16:04:15.37	314.30	11.70	-38.4	-40.2	14.3	1.10e-06	0	62	0	3471835136	46	4687
2026-01-19 16:04:16.38	314.45	11.65	-38.5	-40.3	14.2	1.10e-06	0	62	0	3479175168	46	4742
2026-01-19 16:04:17.39	314.60	11.59	-38.6	-40.4	14.0	0.00e+00	0	62	0	3486515200	46	4808
2026-01-19 16:04:18.39	314.75	11.53	-38.7	-40.5	14.0	0.00e+00	0	62	0	3493855232	46	4846
2026-01-19 16:04:19.41	314.90	11.47	-38.7	-40.6	13.9	3.40e-06	0	62	0	3501195264	46	4883
2026-01-19 16:04:20.42	315.04	11.41	-38.7	-40.5	13.9	5.70e-06	0	62	0	3508535296	47	4596
2026-01-19 16:04:21.43	315.19	11.35	-38.8	-40.7	13.8	4.50e-06	0	62	0	3515875328	47	4662
2026-01-19 16:04:22.44	315.34	11.30	-38.7	-40.6	13.9	4.50e-06	0	62	0	3523215360	47	4616
2026-01-19 16:04:23.45	315.48	11.24	-38.7	-40.6	13.8	2.20e-06	0	62	0	3530555392	47	4616
2026-01-19 16:04:24.46	315.63	11.18	-38.7	-40.6	13.8	6.80e-06	0	62	0	3537895424	47	4606
2026-01-19 16:04:25.47	315.77	11.12	-38.7	-40.6	13.9	4.50e-06	0	62	0	3545235456	47	4599
2026-01-19 16:04:26.48	315.92	11.06	-38.5	-40.3	14.1	2.20e-06	0	62	0	3551526912	47	4483
2026-01-19 16:04:27.49	316.06	11.00	-38.6	-40.4	14.0	5.70e-06	0	62	0	3559915520	47	4522
2026-01-19 16:04:28.50	316.20	10.94	-38.4	-40.2	14.3	3.40e-06	0	62	0	3567255552	47	4395
2026-01-19 16:04:29.51	316.34	10.89	-38.3	-40.0	14.4	1.10e-06	0	62	0	3573547008	47	4331
2026-01-19 16:04:30.52	316.49	10.83	-38.3	-40.0	14.4	0.00e+00	0	62	0	3580887040	47	4320
2026-01-19 16:04:31.53	316.63	10.77	-38.3	-40.0	14.4	0.00e+00	0	62	0	3588227072	47	4334
2026-01-19 16:04:32.54	316.77	10.71	-38.3	-40.1	14.3	0.00e+00	0	62	0	3595567104	47	4360
2026-01-19 16:04:33.55	316.91	10.65	-38.3	-40.0	14.4	0.00e+00	0	62	0	3602907136	47	4331
2026-01-19 16:04:34.56	317.05	10.59	-38.3	-40.0	14.4	0.00e+00	0	62	0	3610247168	47	4327
2026-01-19 16:04:35.57	317.19	10.53	-38.2	-40.0	14.4	0.00e+00	0	62	0	3617587200	47	4300
2026-01-19 16:04:36.58	317.33	10.47	-38.4	-40.2	14.2	0.00e+00	0	62	0	3624927232	47	4404
2026-01-19 16:04:37.59	317.46	10.42	-38.3	-40.1	14.3	1.10e-06	0	62	0	3632267264	47	4374
2026-01-19 16:04:38.60	317.60	10.36	-38.4	-40.2	14.2	1.10e-06	0	62	0	3639607296	47	4407
2026-01-19 16:04:39.61	317.74	10.30	-38.5	-40.3	14.1	2.20e-06	0	62	0	3646947328	47	4474
2026-01-19 16:04:40.62	317.88	10.24	-38.5	-40.4	14.0	4.50e-06	0	62	0	3654287360	47	4519
2026-01-19 16:04:41.62	318.01	10.18	-38.5	-40.4	14.0	3.40e-06	0	62	0	3661627392	47	4504
2026-01-19 16:04:42.63	318.15	10.12	-38.6	-40.5	13.8	4.50e-06	0	62	0	3668967424	47	4588
2026-01-19 16:04:43.64	318.28	10.06	-38.7	-40.6	13.7	6.80e-06	0	62	0	3676307456	47	4642
2026-01-19 16:04:44.65	318.42	10.01	-38.8	-40.7	13.6	6.80e-06	0	62	0	3683647488	47	4682
2026-01-19 16:04:45.66	318.55	9.95	-38.9	-40.8	13.5	1.83e-05	0	62	0	3690987520	47	4756
2026-01-19 16:04:46.67	318.68	9.89	-38.9	-40.9	13.4	1.60e-05	0	62	0	3697278976	47	4773
2026-01-19 16:04:47.68	318.82	9.83	-39.0	-41.0	13.3	2.28e-05	0	62	0	3704619008	47	4840
2026-01-19 16:04:48.69	318.95	9.77	-38.9	-40.9	13.4	1.94e-05	0	62	0	3713007616	47	4781
2026-01-19 16:04:49.70	319.08	9.71	-39.0	-41.1	13.2	3.54e-05	0	62	0	3719299072	47	4881
2026-01-19 16:04:50.71	319.21	9.65	-38.8	-40.8	13.5	1.02e-05	0	62	0	3726639104	47	4743
2026-01-19 16:04:51.72	319.34	9.60	-38.9	-40.9	13.4	1.25e-05	0	62	0	3733979136	47	4805
2026-01-19 16:04:52.73	319.47	9.54	-39.1	-41.1	13.2	2.86e-05	0	62	0	3741319168	47	4909
2026-01-19 16:04:53.74	319.60	9.48	-38.9	-40.9	13.4	1.37e-05	0	62	0	3748659200	47	4762
2026-01-19 16:04:54.75	319.73	9.42	-39.0	-41.0	13.3	2.74e-05	0	62	0	3755999232	47	4827
2026-01-19 16:04:55.76	319.86	9.36	-39.0	-41.0	13.3	2.86e-05	0	62	0	3763339264	47	4845
2026-01-19 16:04:56.76	319.99	9.30	-38.9	-41.0	13.3	1.60e-05	0	62	0	3770679296	47	4818
2026-01-19 16:04:57.78	320.12	9.24	-38.8	-40.8	13.5	1.25e-05	0	62	0	3778019328	47	4720
2026-01-19 16:04:58.79	320.24	9.19	-38.9	-41.0	13.3	2.28e-05	0	62	0	3785359360	47	4831
2026-01-19 16:04:59.80	320.37	9.13	-38.9	-40.9	13.3	2.51e-05	0	62	0	3792699392	47	4810
2026-01-19 16:05:00.81	320.50	9.07	-38.7	-40.7	13.5	1.25e-05	0	62	0	3800039424	47	4681
2026-01-19 16:05:01.82	320.62	9.01	-38.8	-40.8	13.4	1.14e-05	0	62	0	3807379456	47	4758
2026-01-19 16:05:02.83	320.75	8.95	-39.0	-41.1	13.1	2.28e-05	0	62	0	3814719488	47	4881
2026-01-19 16:05:03.84	320.87	8.89	-38.9	-40.9	13.3	1.71e-05	0	62	0	3822059520	47	4801
2026-01-19 16:05:04.85	321.00	8.83	-39.1	-41.2	13.0	2.86e-05	0	62	0	3829399552	47	4935
2026-01-19 16:05:05.86	321.12	8.78	-38.9	-41.0	13.2	1.48e-05	0	62	0	3836739584	47	4819
2026-01-19 16:05:06.87	321.24	8.72	-39.0	-41.0	13.1	2.63e-05	0	62	0	3844079616	47	4854
2026-01-19 16:05:07.88	321.37	8.66	-39.0	-41.1	13.1	3.08e-05	0	62	0	3850371072	47	4901
2026-01-19 16:05:08.89	321.49	8.60	-39.0	-41.1	13.1	3.08e-05	0	62	0	3858759680	47	4884
2026-01-19 16:05:09.90	321.61	8.54	-39.1	-41.3	12.9	4.69e-05	0	62	0	3866099712	47	4992
2026-01-19 16:05:10.91	321.73	8.48	-39.2	-41.3	12.8	7.43e-05	0	62	0	3872391168	47	5004
2026-01-19 16:05:11.92	321.85	8.43	-39.0	-41.1	13.0	3.77e-05	0	62	0	3879731200	47	4901
2026-01-19 16:05:12.93	321.97	8.37	-39.0	-41.1	13.0	5.49e-05	0	62	0	3888119808	47	4901
2026-01-19 16:05:13.94	322.09	8.31	-39.0	-41.1	13.0	3.08e-05	0	62	0	3894411264	47	4915
2026-01-19 16:05:14.95	322.21	8.25	-39.2	-41.3	12.8	5.49e-05	0	62	0	3901751296	47	5028
2026-01-19 16:05:15.96	322.33	8.19	-39.0	-41.1	13.0	6.98e-05	0	62	0	3909091328	47	4921
2026-01-19 16:05:16.97	322.45	8.14	-39.0	-41.1	13.0	4.23e-05	0	62	0	3916431360	47	4882
2026-01-19 16:05:17.98	322.57	8.08	-39.0	-41.1	13.0	6.52e-05	0	62	0	3923771392	47	4907
2026-01-19 16:05:18.99	322.69	8.02	-39.1	-41.3	12.8	6.52e-05	0	62	0	3931111424	47	5005
2026-01-19 16:05:20.00	322.81	7.96	-44.4	-53.5	3.9	8.11e-01	0	62	104	3935305728	58	10791
2026-01-19 16:05:21.02	322.92	7.90	-45.0	-56.0	3.8	8.47e-01	0	62	104	3935305728	59	13629
2026-01-19 16:05:22.03	323.04	7.85	-45.2	-56.2	3.8	8.46e-01	0	62	104	3935305728	59	14009
2026-01-19 16:05:23.04	323.16	7.79	-45.3	-56.6	3.8	8.46e-01	0	62	104	3935305728	60	13815
2026-01-19 16:05:24.05	323.27	7.73	-45.4	-56.8	3.8	8.47e-01	0	62	104	3935305728	60	14117
2026-01-19 16:05:25.06	323.39	7.67	-45.5	-56.9	3.8	8.45e-01	0	62	104	3935305728	60	14232
2026-01-19 16:05:26.07	323.50	7.61	-45.6	-56.9	3.8	8.46e-01	0	62	104	3935305728	60	14319
2026-01-19 16:05:27.08	323.62	7.56	-45.6	-57.0	3.8	8.46e-01	0	62	104	3935305728	60	14382
2026-01-19 16:05:28.09	323.73	7.50	-45.6	-57.0	3.8	8.45e-01	0	62	104	3935305728	60	14437
2026-01-19 16:05:29.10	323.84	7.44	-45.6	-56.9	3.8	8.46e-01	0	62	104	3935305728	60	14362
2026-01-19 16:05:30.11	323.96	7.38	-45.5	-56.9	3.8	8.46e-01	0	62	104	3935305728	60	14270
2026-01-19 16:05:31.12	324.07	7.33	-45.5	-56.9	3.8	8.45e-01	0	62	104	3935305728	60	14243
2026-01-19 16:05:32.13	324.18	7.27	-45.6	-56.9	3.8	8.46e-01	0	62	104	3935305728	60	14276
2026-01-19 16:05:33.15	324.29	7.21	-45.5	-56.9	3.8	8.46e-01	0	62	104	3935305728	60	14282
2026-01-19 16:05:34.16	324.41	7.15	-45.5	-56.9	3.8	8.47e-01	0	62	104	3935305728	60	14255
2026-01-19 16:05:35.17	324.52	7.10	-45.5	-56.8	3.8	8.46e-01	0	62	104	3935305728	60	14111
2026-01-19 16:05:36.18	324.63	7.04	-45.5	-56.9	3.8	8.45e-01	0	62	104	3935305728	60	14231
2026-01-19 16:05:37.19	324.74	6.98	-45.5	-56.8	3.8	8.47e-01	0	62	104	3935305728	60	14151
2026-01-19 16:05:38.20	324.85	6.92	-45.5	-56.8	3.8	8.47e-01	0	62	104	3935305728	60	14164
2026-01-19 16:05:39.21	324.96	6.87	-45.5	-56.9	3.8	8.46e-01	0	62	104	3935305728	60	14243
2026-01-19 16:05:40.22	325.07	6.81	-45.5	-56.8	3.8	8.46e-01	0	62	104	3935305728	60	14163
2026-01-19 16:05:41.23	325.17	6.75	-45.5	-56.8	3.8	8.47e-01	0	62	104	3935305728	60	14142
2026-01-19 16:05:42.24	325.28	6.69	-45.4	-56.7	3.8	8.46e-01	0	62	104	3935305728	60	14011
2026-01-19 16:05:43.25	325.39	6.64	-45.4	-56.8	3.8	8.48e-01	0	62	104	3935305728	60	14078
2026-01-19 16:05:44.26	325.50	6.58	-45.4	-56.8	3.8	8.45e-01	0	62	104	3935305728	60	14080
2026-01-19 16:05:45.27	325.60	6.52	-45.5	-56.8	3.8	8.47e-01	0	62	104	3935305728	60	14055
2026-01-19 16:05:46.28	325.71	6.47	-45.5	-56.8	3.8	8.47e-01	0	62	104	3935305728	60	14094
2026-01-19 16:05:47.29	325.82	6.41	-45.5	-56.8	3.8	8.47e-01	0	62	104	3935305728	60	14112
2026-01-19 16:05:48.30	325.92	6.35	-45.4	-56.8	3.8	8.47e-01	0	62	104	3935305728	60	14161
2026-01-19 16:05:49.31	326.03	6.30	-45.4	-56.8	3.8	8.47e-01	0	62	104	3935305728	60	14141
2026-01-19 16:05:50.32	326.13	6.24	-45.4	-56.8	3.8	8.45e-01	0	62	104	3935305728	60	14095
2026-01-19 16:05:51.33	326.24	6.18	-45.4	-56.8	3.8	8.46e-01	0	62	104	3935305728	60	14149
2026-01-19 16:05:52.34	326.34	6.13	-45.5	-56.8	3.8	8.46e-01	0	62	104	3935305728	60	14117
2026-01-19 16:05:53.35	326.44	6.07	-45.4	-56.8	3.8	8.45e-01	0	62	104	3935305728	60	14118
2026-01-19 16:05:54.36	326.55	6.01	-45.4	-56.8	3.8	8.46e-01	0	62	104	3935305728	60	14067
2026-01-19 16:05:55.38	326.65	5.96	-45.4	-56.8	3.8	8.47e-01	0	62	104	3935305728	60	14061
2026-01-19 16:05:56.39	326.75	5.90	-45.4	-56.8	3.8	8.46e-01	0	62	104	3935305728	60	14082
2026-01-19 16:05:57.40	326.86	5.84	-45.4	-56.8	3.8	8.45e-01	0	62	104	3935305728	60	14089
2026-01-19 16:05:58.41	326.96	5.79	-45.4	-56.8	3.8	8.47e-01	0	62	104	3935305728	60	14083
2026-01-19 16:05:59.42	327.06	5.73	-45.0	-56.8	3.8	8.45e-01	0	62	104	3935305728	60	14087
2026-01-19 16:06:00.43	327.16	5.67	-45.3	-56.8	3.8	8.46e-01	0	62	104	3935305728	60	14072
2026-01-19 16:06:01.44	327.26	5.62	-45.4	-56.8	3.8	8.46e-01	0	62	104	3935305728	60	14073
2026-01-19 16:06:02.45	327.36	5.56	-45.2	-56.8	3.8	8.46e-01	0	62	104	3935305728	60	14114
2026-01-19 16:06:03.46	327.46	5.51	-45.4	-56.8	3.8	8.46e-01	0	62	104	3935305728	60	14094
2026-01-19 16:06:04.47	327.56	5.45	-45.4	-56.7	3.8	8.46e-01	0	62	104	3935305728	60	14023
2026-01-19 16:06:05.48	327.66	5.39	-45.4	-56.8	3.8	8.45e-01	0	62	104	3935305728	60	14064
2026-01-19 16:06:06.49	327.76	5.34	-45.4	-56.8	3.8	8.47e-01	0	62	104	3935305728	60	14091
2026-01-19 16:06:07.50	327.86	5.28	-45.4	-56.8	3.8	8.46e-01	0	62	104	3935305728	60	14130
2026-01-19 16:06:08.51	327.95	5.23	-45.4	-56.8	3.8	8.47e-01	0	62	104	3935305728	60	14134
2026-01-19 16:06:09.52	328.05	5.17	-45.4	-56.8	3.8	8.48e-01	0	62	104	3935305728	60	14087
2026-01-19 16:06:10.54	328.15	5.11	-45.4	-56.8	3.8	8.46e-01	0	62	104	3935305728	60	14060
2026-01-19 16:06:11.55	328.25	5.06	-45.4	-56.8	3.8	8.46e-01	0	62	104	3935305728	60	14092
2026-01-19 16:06:12.56	328.34	5.00	-45.4	-56.8	3.8	8.46e-01	0	62	104	3935305728	60	14096
2026-01-19 16:06:13.57	328.44	4.95	-45.4	-56.8	3.8	8.46e-01	0	62	104	3935305728	60	14135
2026-01-19 16:06:14.58	328.54	4.89	-45.4	-56.7	3.8	8.45e-01	0	62	104	3935305728	60	14042
2026-01-19 16:06:15.59	328.63	4.84	-45.4	-56.8	3.8	8.46e-01	0	62	104	3935305728	60	14094
2026-01-19 16:06:16.60	328.73	4.78	-45.4	-56.7	3.8	8.47e-01	0	62	104	3935305728	60	14021
