passes_logs/2026/01/19/R2.0S_Moscow/R2.0S_Moscow__20260119_211450_FENGYUN_3G_rec.log

#Pass ID: 20260119_211450_FENGYUN 3G
#Satellite: FENGYUN 3G
#Configuration: FENGYUN 3G
#almurnet v.1.7.20251203
#Start time: 2026-01-19 21:14:51

#Version: 2.2.20231116
#Station: R2.0S_Moscow
#Location: 37.707566 lon 55.798166 lat
#TLE: 1 56232U 23055A   26019.29402138  .00031930  00000+0  49376-3 0  9997
#TLE: 2 56232  49.9940  33.7754 0004164  48.8313 311.3013 15.53733440156869

#Time	Az	El	Level	Level2	SNR	BER	BlckErr	Temp	State	Recorded	gain1	gain2
2026-01-19 21:14:51.90	248.07	2.14	-44.2	-62.2	3.8	8.46e-01	0	53	0	0	60	28025
2026-01-19 21:14:52.91	248.01	2.21	-44.2	-62.3	3.8	8.44e-01	0	53	104	0	60	28107
2026-01-19 21:14:53.92	247.95	2.28	-44.2	-62.3	3.8	8.46e-01	0	53	104	0	60	28090
2026-01-19 21:14:54.93	247.88	2.35	-44.2	-62.2	3.8	8.46e-01	0	53	104	0	60	28003
2026-01-19 21:14:55.94	247.82	2.41	-44.2	-62.2	3.8	8.46e-01	0	53	104	0	60	27995
2026-01-19 21:14:56.95	247.75	2.48	-44.2	-62.3	3.8	8.45e-01	0	53	104	0	60	28113
2026-01-19 21:14:57.96	247.69	2.55	-44.2	-62.2	3.8	8.46e-01	0	53	104	0	60	27956
2026-01-19 21:14:58.97	247.62	2.62	-44.2	-62.2	3.8	8.46e-01	0	53	104	0	60	27967
2026-01-19 21:14:59.98	247.56	2.68	-44.2	-62.2	3.8	8.44e-01	0	53	104	0	60	27785
2026-01-19 21:15:00.99	247.49	2.75	-44.2	-62.2	3.8	8.46e-01	0	53	104	0	60	27779
2026-01-19 21:15:02.00	247.42	2.82	-44.2	-62.2	3.8	8.46e-01	0	53	104	0	60	27834
2026-01-19 21:15:03.01	247.35	2.89	-44.2	-62.2	3.8	8.45e-01	0	53	104	0	60	27845
2026-01-19 21:15:04.02	247.29	2.96	-44.2	-62.2	3.8	8.46e-01	0	53	104	0	60	27776
2026-01-19 21:15:05.03	247.22	3.03	-44.2	-62.2	3.8	8.46e-01	0	53	104	0	60	27846
2026-01-19 21:15:06.04	247.15	3.10	-44.1	-62.2	3.8	8.46e-01	0	53	104	0	60	27878
2026-01-19 21:15:07.06	247.08	3.17	-44.1	-62.2	3.8	8.46e-01	0	54	104	0	60	27950
2026-01-19 21:15:08.06	247.01	3.24	-44.2	-62.2	3.8	8.46e-01	0	53	104	0	60	27928
2026-01-19 21:15:09.07	246.94	3.31	-44.1	-62.2	3.8	8.46e-01	0	54	104	0	60	27898
2026-01-19 21:15:10.09	246.87	3.38	-44.2	-62.2	3.8	8.46e-01	0	54	104	0	60	27829
2026-01-19 21:15:11.10	246.80	3.45	-44.1	-62.2	3.8	8.47e-01	0	54	104	0	60	27797
2026-01-19 21:15:12.11	246.72	3.52	-44.1	-62.2	3.8	8.47e-01	0	54	104	0	60	27811
2026-01-19 21:15:13.12	246.65	3.59	-44.1	-62.2	3.8	8.47e-01	0	54	104	0	60	27821
2026-01-19 21:15:14.13	246.58	3.66	-44.1	-62.2	3.8	8.46e-01	0	54	104	0	60	27895
2026-01-19 21:15:15.14	246.51	3.73	-44.2	-62.2	3.8	8.46e-01	0	54	104	0	60	27884
2026-01-19 21:15:16.15	246.43	3.81	-44.2	-62.3	3.8	8.47e-01	0	54	104	0	60	28057
2026-01-19 21:15:17.16	246.36	3.88	-44.2	-62.2	3.8	8.46e-01	0	54	104	0	60	27968
2026-01-19 21:15:18.17	246.28	3.95	-44.2	-62.2	3.8	8.46e-01	0	54	104	0	60	27928
2026-01-19 21:15:19.18	246.21	4.02	-44.2	-62.2	3.8	8.47e-01	0	54	104	0	60	27757
2026-01-19 21:15:20.19	246.13	4.10	-44.2	-62.1	3.8	8.46e-01	0	54	104	0	60	27405
2026-01-19 21:15:21.20	246.05	4.17	-44.2	-61.9	3.8	8.47e-01	0	54	104	0	60	26964
2026-01-19 21:15:22.21	245.98	4.24	-44.1	-61.7	3.8	8.47e-01	0	54	104	0	60	26359
2026-01-19 21:15:23.22	245.90	4.32	-44.1	-61.6	3.8	8.47e-01	0	55	104	0	60	26010
2026-01-19 21:15:24.23	245.82	4.39	-44.1	-61.4	3.8	8.45e-01	0	54	104	0	60	25397
2026-01-19 21:15:25.24	245.74	4.47	-44.1	-61.2	3.8	8.45e-01	0	55	104	0	60	24903
2026-01-19 21:15:26.26	245.66	4.54	-44.1	-61.3	3.8	8.46e-01	0	55	104	0	60	25027
2026-01-19 21:15:27.27	245.58	4.62	-44.1	-61.3	3.8	8.46e-01	0	55	104	0	60	25191
2026-01-19 21:15:28.28	245.50	4.69	-44.1	-61.3	3.8	8.46e-01	0	55	104	0	60	25043
2026-01-19 21:15:29.29	245.42	4.77	-44.1	-61.4	3.8	8.45e-01	0	55	104	0	60	25552
2026-01-19 21:15:30.30	245.33	4.84	-44.1	-61.8	3.8	8.47e-01	0	55	104	0	60	26560
2026-01-19 21:15:31.31	245.25	4.92	-44.1	-61.8	3.8	8.47e-01	0	55	104	0	60	26668
2026-01-19 21:15:32.32	245.17	5.00	-44.1	-61.8	3.8	8.47e-01	0	55	104	0	60	26469
2026-01-19 21:15:33.33	245.08	5.07	-44.1	-61.7	3.8	8.47e-01	0	55	104	0	60	26164
2026-01-19 21:15:34.34	245.00	5.15	-44.1	-61.3	3.8	8.47e-01	0	55	104	0	60	25212
2026-01-19 21:15:35.35	244.91	5.23	-44.1	-60.7	3.8	8.47e-01	0	55	104	0	60	23447
2026-01-19 21:15:36.36	244.83	5.30	-44.1	-60.0	3.8	8.46e-01	0	55	104	0	60	21755
2026-01-19 21:15:37.37	244.74	5.38	-44.1	-59.7	3.8	8.45e-01	0	55	104	0	60	21006
2026-01-19 21:15:38.38	244.65	5.46	-44.1	-59.1	4.1	8.45e-01	0	55	0	0	60	19577
2026-01-19 21:15:39.39	244.57	5.54	-44.0	-58.9	4.1	8.43e-01	0	56	0	0	60	19069
2026-01-19 21:15:40.40	244.48	5.62	-44.0	-58.6	4.2	8.37e-01	0	55	0	0	60	18327
2026-01-19 21:15:41.41	244.39	5.70	-44.0	-58.2	4.3	8.37e-01	0	55	0	0	60	17662
2026-01-19 21:15:42.42	244.30	5.77	-44.0	-58.0	4.4	8.34e-01	0	56	0	0	60	17218
2026-01-19 21:15:43.43	244.21	5.85	-44.0	-58.1	4.4	8.30e-01	0	56	0	0	60	17334
2026-01-19 21:15:44.45	244.11	5.94	-44.0	-58.0	4.4	8.28e-01	0	56	0	0	60	17207
2026-01-19 21:15:45.46	244.02	6.02	-44.0	-58.0	4.4	8.28e-01	0	56	0	0	60	17212
2026-01-19 21:15:46.47	243.93	6.10	-44.0	-57.8	4.5	8.25e-01	0	56	0	0	60	16783
2026-01-19 21:15:47.48	243.84	6.18	-44.0	-57.3	4.7	8.19e-01	0	56	0	0	60	15839
2026-01-19 21:15:48.49	243.74	6.26	-44.0	-56.4	5.1	8.19e-01	0	56	0	0	59	15195
2026-01-19 21:15:49.50	243.65	6.34	-43.9	-55.6	5.7	7.77e-01	0	56	0	0	59	13732
2026-01-19 21:15:50.51	243.55	6.42	-43.8	-54.4	6.6	5.14e-01	0	56	0	1048576	59	11991
2026-01-19 21:15:51.52	243.45	6.50	-43.7	-53.3	7.6	5.14e-01	0	56	0	2097152	59	10562
2026-01-19 21:15:52.53	243.36	6.59	-43.5	-52.3	8.6	1.69e-01	0	56	0	3145728	59	9440
2026-01-19 21:15:53.54	243.26	6.67	-43.4	-51.5	9.4	5.17e-02	0	56	0	4194304	58	9125
2026-01-19 21:15:54.55	243.16	6.75	-43.3	-50.9	10.1	5.17e-02	0	56	0	5242880	58	8465
2026-01-19 21:15:55.56	243.06	6.84	-43.2	-50.5	10.5	1.52e-02	0	56	0	6815744	58	8152
2026-01-19 21:15:56.57	242.96	6.92	-43.2	-50.6	10.5	5.96e-03	0	56	0	7864320	58	8201
2026-01-19 21:15:57.58	242.86	7.00	-43.3	-51.2	9.9	7.08e-03	0	56	0	8912896	58	8803
2026-01-19 21:15:58.59	242.75	7.09	-43.5	-52.3	8.7	7.08e-03	0	56	0	9961472	58	10024
2026-01-19 21:15:59.60	242.65	7.17	-43.8	-54.3	6.9	3.24e-02	0	56	0	11010048	58	12554
2026-01-19 21:16:00.61	242.55	7.26	-44.1	-57.2	4.8	3.10e-01	0	56	0	12058624	58	17520
2026-01-19 21:16:01.63	242.44	7.35	-44.2	-59.7	4.0	3.10e-01	0	56	0	12058624	58	23350
2026-01-19 21:16:02.64	242.33	7.43	-44.1	-57.6	4.5	8.28e-01	0	56	0	12058624	58	18459
2026-01-19 21:16:03.65	242.23	7.52	-43.7	-53.7	7.2	7.31e-01	0	56	0	12582912	58	11699
2026-01-19 21:16:04.66	242.12	7.61	-43.3	-51.0	10.0	7.31e-01	0	56	0	13631488	58	8566
2026-01-19 21:16:05.67	242.01	7.69	-42.7	-48.8	12.2	8.23e-02	0	57	0	14680064	57	7080
2026-01-19 21:16:06.68	241.90	7.78	-42.2	-47.4	13.7	1.12e-03	0	57	0	15728640	56	6370
2026-01-19 21:16:07.69	241.79	7.87	-41.6	-46.2	14.8	1.12e-03	0	57	0	16777216	55	5919
2026-01-19 21:16:08.70	241.68	7.96	-41.4	-45.8	15.3	8.00e-06	0	57	0	18350080	54	5925
2026-01-19 21:16:09.71	241.57	8.05	-41.4	-45.8	15.3	0.00e+00	0	57	0	19398656	54	5931
2026-01-19 21:16:10.72	241.45	8.14	-42.7	-49.0	12.8	0.00e+00	0	57	0	20447232	55	8133
2026-01-19 21:16:11.73	241.34	8.23	-42.8	-48.8	12.3	0.00e+00	0	57	0	21495808	57	7075
2026-01-19 21:16:12.74	241.22	8.32	-43.2	-50.8	11.4	2.20e-02	0	57	0	22544384	56	9421
2026-01-19 21:16:13.75	241.11	8.41	-42.8	-49.1	12.4	2.29e-01	0	57	0	23592960	57	7306
2026-01-19 21:16:14.76	240.99	8.50	-42.7	-49.0	12.8	2.29e-01	0	57	0	24641536	55	8131
2026-01-19 21:16:15.77	240.87	8.59	-41.2	-45.3	15.5	5.44e-03	0	57	0	25690112	54	5638
2026-01-19 21:16:16.78	240.75	8.68	-41.0	-44.9	16.2	1.84e-02	0	57	0	26738688	54	5398
2026-01-19 21:16:17.78	240.63	8.77	-40.9	-44.7	16.4	1.84e-02	0	57	0	27787264	53	5546
2026-01-19 21:16:18.79	240.51	8.86	-40.8	-44.5	16.6	0.00e+00	0	57	0	28835840	53	5424
2026-01-19 21:16:19.80	240.39	8.96	-40.8	-44.4	16.7	0.00e+00	0	57	0	30408704	53	5398
2026-01-19 21:16:20.81	240.27	9.05	-40.8	-44.5	16.7	0.00e+00	0	57	0	31457280	53	5403
2026-01-19 21:16:21.82	240.14	9.14	-40.6	-44.2	17.0	0.00e+00	0	57	0	32505856	53	5232
2026-01-19 21:16:22.83	240.01	9.24	-40.7	-44.2	17.0	0.00e+00	0	57	0	33554432	53	5237
2026-01-19 21:16:23.84	239.89	9.33	-40.7	-44.2	17.0	0.00e+00	0	57	0	34603008	53	5235
2026-01-19 21:16:24.85	239.76	9.43	-40.6	-44.0	17.2	0.00e+00	0	57	0	36175872	53	5155
2026-01-19 21:16:25.86	239.63	9.52	-40.5	-43.9	17.3	0.00e+00	0	57	0	37224448	53	5059
2026-01-19 21:16:26.87	239.50	9.62	-40.5	-43.8	17.4	0.00e+00	0	57	0	38273024	53	5035
2026-01-19 21:16:27.88	239.37	9.72	-40.6	-44.0	17.3	0.00e+00	0	57	0	39321600	53	5111
2026-01-19 21:16:28.89	239.23	9.81	-40.6	-44.1	17.2	0.00e+00	0	57	0	40370176	53	5179
2026-01-19 21:16:29.90	239.10	9.91	-40.6	-44.1	17.2	0.00e+00	0	57	0	41418752	53	5176
2026-01-19 21:16:30.91	238.97	10.01	-40.5	-43.9	17.4	0.00e+00	0	57	0	42991616	53	5091
2026-01-19 21:16:31.92	238.83	10.11	-40.6	-44.0	17.3	0.00e+00	0	58	0	44040192	53	5112
2026-01-19 21:16:32.93	238.69	10.21	-40.4	-43.7	17.6	0.00e+00	0	57	0	45088768	52	5245
2026-01-19 21:16:33.94	238.55	10.30	-40.3	-43.5	17.7	0.00e+00	0	57	0	46137344	52	5158
2026-01-19 21:16:34.95	238.41	10.40	-40.3	-43.6	17.7	0.00e+00	0	58	0	47185920	52	5163
2026-01-19 21:16:35.96	238.27	10.50	-40.2	-43.4	17.9	0.00e+00	0	58	0	48234496	52	5078
2026-01-19 21:16:36.96	238.13	10.60	-40.3	-43.4	17.9	0.00e+00	0	58	0	49283072	52	5085
2026-01-19 21:16:37.97	237.98	10.70	-40.3	-43.5	17.8	0.00e+00	0	58	0	50855936	52	5123
2026-01-19 21:16:38.98	237.84	10.81	-40.3	-43.4	17.9	0.00e+00	0	58	0	51904512	52	5089
2026-01-19 21:16:39.99	237.69	10.91	-40.4	-43.6	17.8	0.00e+00	0	58	0	52953088	52	5170
2026-01-19 21:16:41.00	237.54	11.01	-40.4	-43.6	17.8	0.00e+00	0	58	0	54001664	52	5196
2026-01-19 21:16:42.01	237.39	11.11	-40.4	-43.7	17.7	0.00e+00	0	58	0	55050240	52	5227
2026-01-19 21:16:43.02	237.24	11.22	-40.5	-43.8	17.5	0.00e+00	0	58	0	56098816	52	5311
2026-01-19 21:16:44.03	237.09	11.32	-40.4	-43.6	17.7	0.00e+00	0	58	0	57671680	52	5208
2026-01-19 21:16:45.04	236.93	11.43	-40.4	-43.6	17.8	0.00e+00	0	58	0	58720256	52	5179
2026-01-19 21:16:46.05	236.78	11.53	-40.4	-43.7	17.7	0.00e+00	0	58	0	59768832	52	5219
2026-01-19 21:16:47.06	236.62	11.64	-40.2	-43.2	18.1	0.00e+00	0	58	0	60817408	52	4959
2026-01-19 21:16:48.07	236.46	11.74	-40.1	-43.1	18.3	0.00e+00	0	58	0	61865984	52	4879
2026-01-19 21:16:49.08	236.30	11.85	-40.0	-42.9	18.5	0.00e+00	0	58	0	62914560	51	5084
2026-01-19 21:16:50.09	236.14	11.96	-39.9	-42.8	18.7	0.00e+00	0	58	0	64487424	51	5034
2026-01-19 21:16:51.10	235.98	12.06	-39.9	-42.8	18.7	0.00e+00	0	58	0	65536000	51	5025
2026-01-19 21:16:52.11	235.81	12.17	-39.9	-42.8	18.7	0.00e+00	0	58	0	66584576	51	5018
2026-01-19 21:16:53.12	235.64	12.28	-40.0	-42.9	18.6	0.00e+00	0	58	0	67633152	51	5050
2026-01-19 21:16:54.13	235.48	12.39	-39.9	-42.7	18.8	0.00e+00	0	58	0	68681728	51	4972
2026-01-19 21:16:55.14	235.31	12.50	-39.9	-42.8	18.8	0.00e+00	0	58	0	69730304	51	4987
2026-01-19 21:16:56.15	235.13	12.61	-39.9	-42.8	18.7	0.00e+00	0	58	0	71303168	51	5030
2026-01-19 21:16:57.16	234.96	12.72	-40.0	-42.9	18.7	0.00e+00	0	58	0	72351744	51	5064
2026-01-19 21:16:58.16	234.79	12.83	-40.0	-42.9	18.6	0.00e+00	0	58	0	73400320	51	5077
2026-01-19 21:16:59.17	234.61	12.94	-40.1	-43.0	18.6	0.00e+00	0	58	0	74448896	51	5120
2026-01-19 21:17:00.18	234.43	13.06	-40.1	-43.0	18.6	0.00e+00	0	58	0	75497472	51	5125
2026-01-19 21:17:01.19	234.25	13.17	-40.1	-43.1	18.5	0.00e+00	0	58	0	76546048	51	5177
2026-01-19 21:17:02.20	234.07	13.28	-40.1	-43.0	18.6	0.00e+00	0	58	0	78118912	51	5150
2026-01-19 21:17:03.21	233.88	13.40	-40.1	-43.0	18.5	0.00e+00	0	58	0	79167488	51	5136
2026-01-19 21:17:04.22	233.70	13.51	-39.9	-42.7	18.9	0.00e+00	0	58	0	80216064	51	4967
2026-01-19 21:17:05.23	233.51	13.63	-39.7	-42.4	19.2	0.00e+00	0	58	0	81264640	51	4783
2026-01-19 21:17:06.24	233.32	13.74	-39.7	-42.4	19.2	0.00e+00	0	58	0	82313216	51	4804
2026-01-19 21:17:07.24	233.13	13.86	-39.7	-42.5	19.1	0.00e+00	0	58	0	83361792	51	4821
2026-01-19 21:17:08.25	232.94	13.98	-39.8	-42.5	19.1	0.00e+00	0	58	0	84934656	51	4830
2026-01-19 21:17:09.26	232.74	14.09	-39.7	-42.5	19.2	0.00e+00	0	58	0	85983232	51	4819
2026-01-19 21:17:10.27	232.54	14.21	-39.7	-42.4	19.2	0.00e+00	0	58	0	87031808	51	4786
2026-01-19 21:17:11.28	232.34	14.33	-39.8	-42.5	19.1	0.00e+00	0	58	0	88080384	51	4868
2026-01-19 21:17:12.29	232.14	14.45	-39.8	-42.5	19.1	0.00e+00	0	58	0	89128960	51	4838
2026-01-19 21:17:13.30	231.94	14.57	-39.7	-42.4	19.2	0.00e+00	0	58	0	90177536	51	4804
2026-01-19 21:17:14.31	231.73	14.69	-39.7	-42.4	19.2	0.00e+00	0	59	0	91750400	51	4793
2026-01-19 21:17:15.32	231.52	14.81	-39.6	-42.2	19.4	0.00e+00	0	58	0	92798976	51	4699
2026-01-19 21:17:16.33	231.31	14.93	-39.5	-42.1	19.6	0.00e+00	0	59	0	93847552	51	4615
2026-01-19 21:17:17.34	231.10	15.05	-39.5	-42.1	19.6	0.00e+00	0	59	0	94896128	50	4871
2026-01-19 21:17:18.35	230.88	15.18	-39.4	-41.9	19.7	0.00e+00	0	59	0	95944704	50	4802
2026-01-19 21:17:19.36	230.67	15.30	-39.3	-41.8	19.9	0.00e+00	0	59	0	96993280	50	4752
2026-01-19 21:17:20.37	230.45	15.42	-39.3	-41.7	20.0	0.00e+00	0	59	0	98566144	50	4696
2026-01-19 21:17:21.38	230.23	15.55	-39.4	-41.9	19.8	0.00e+00	0	59	0	99614720	50	4800
2026-01-19 21:17:22.39	230.00	15.67	-39.3	-41.9	19.9	0.00e+00	0	59	0	100663296	50	4764
2026-01-19 21:17:23.40	229.77	15.80	-39.3	-41.8	19.9	0.00e+00	0	59	0	101711872	50	4747
2026-01-19 21:17:24.41	229.55	15.92	-39.3	-41.8	19.9	0.00e+00	0	59	0	102760448	50	4734
2026-01-19 21:17:25.41	229.32	16.05	-39.4	-41.9	19.8	0.00e+00	0	59	0	103809024	50	4774
2026-01-19 21:17:26.42	229.08	16.17	-39.2	-41.7	20.0	0.00e+00	0	59	0	105381888	50	4672
2026-01-19 21:17:27.43	228.85	16.30	-39.1	-41.4	20.3	0.00e+00	0	59	0	106430464	50	4543
2026-01-19 21:17:28.44	228.61	16.43	-38.9	-41.3	20.4	0.00e+00	0	59	0	107479040	49	4729
2026-01-19 21:17:29.45	228.36	16.56	-38.8	-41.1	20.7	0.00e+00	0	59	0	108527616	49	4619
2026-01-19 21:17:30.46	228.12	16.69	-38.7	-41.0	20.7	0.00e+00	0	59	0	109576192	49	4573
2026-01-19 21:17:31.47	227.87	16.82	-38.8	-41.1	20.7	0.00e+00	0	59	0	110624768	49	4610
2026-01-19 21:17:32.48	227.62	16.95	-38.9	-41.3	20.4	0.00e+00	0	59	0	112197632	49	4737
2026-01-19 21:17:33.49	227.37	17.08	-39.0	-41.4	20.4	0.00e+00	0	59	0	113246208	49	4781
2026-01-19 21:17:34.50	227.12	17.21	-39.1	-41.5	20.3	0.00e+00	0	59	0	114294784	49	4836
2026-01-19 21:17:35.51	226.86	17.34	-39.0	-41.4	20.4	0.00e+00	0	59	0	115343360	49	4781
2026-01-19 21:17:36.52	226.60	17.47	-39.0	-41.4	20.4	0.00e+00	0	59	0	116391936	49	4781
2026-01-19 21:17:37.53	226.33	17.61	-39.0	-41.4	20.4	0.00e+00	0	59	0	117440512	49	4786
2026-01-19 21:17:38.54	226.07	17.74	-39.0	-41.4	20.3	0.00e+00	0	59	0	119013376	49	4805
2026-01-19 21:17:39.54	225.80	17.87	-38.9	-41.2	20.6	0.00e+00	0	59	0	120061952	49	4672
2026-01-19 21:17:40.55	225.53	18.01	-38.8	-41.0	20.8	0.00e+00	0	59	0	121110528	49	4581
2026-01-19 21:17:41.56	225.25	18.14	-38.8	-41.1	20.6	0.00e+00	0	59	0	122159104	49	4604
2026-01-19 21:17:42.57	224.97	18.28	-38.6	-40.8	21.0	0.00e+00	0	59	0	123207680	49	4483
2026-01-19 21:17:43.58	224.69	18.41	-38.7	-40.9	20.9	0.00e+00	0	59	0	124256256	49	4517
2026-01-19 21:17:44.59	224.41	18.55	-38.7	-41.0	20.8	0.00e+00	0	59	0	125829120	49	4569
2026-01-19 21:17:45.60	224.12	18.68	-38.7	-40.9	20.9	0.00e+00	0	59	0	126877696	49	4520
2026-01-19 21:17:46.61	223.83	18.82	-38.5	-40.7	21.1	0.00e+00	0	59	0	127926272	49	4425
2026-01-19 21:17:47.62	223.53	18.96	-38.6	-40.8	21.0	0.00e+00	0	59	0	128974848	49	4472
2026-01-19 21:17:48.63	223.24	19.09	-38.7	-40.9	20.9	0.00e+00	0	59	0	130023424	49	4528
2026-01-19 21:17:49.64	222.94	19.23	-38.6	-40.9	21.0	0.00e+00	0	59	0	131072000	49	4497
2026-01-19 21:17:50.65	222.63	19.37	-38.5	-40.8	21.1	0.00e+00	0	59	0	132644864	49	4446
2026-01-19 21:17:51.66	222.32	19.51	-38.5	-40.7	21.1	0.00e+00	0	59	0	133693440	49	4421
2026-01-19 21:17:52.66	222.02	19.65	-38.5	-40.7	21.2	0.00e+00	0	59	0	134742016	49	4408
2026-01-19 21:17:53.68	221.70	19.79	-38.5	-40.7	21.1	0.00e+00	0	59	0	135790592	49	4430
2026-01-19 21:17:54.69	221.38	19.93	-38.3	-40.4	21.4	0.00e+00	0	59	0	136839168	48	4539
2026-01-19 21:17:55.70	221.06	20.07	-38.1	-40.2	21.7	0.00e+00	0	59	0	137887744	48	4408
2026-01-19 21:17:56.70	220.74	20.21	-38.0	-40.1	21.8	0.00e+00	0	59	0	139460608	48	4354
2026-01-19 21:17:57.71	220.41	20.35	-38.1	-40.2	21.7	0.00e+00	0	59	0	140509184	48	4423
2026-01-19 21:17:58.72	220.07	20.49	-38.2	-40.3	21.6	0.00e+00	0	59	0	141557760	48	4456
2026-01-19 21:17:59.73	219.74	20.63	-38.3	-40.4	21.5	0.00e+00	0	59	0	142606336	48	4522
2026-01-19 21:18:00.74	219.40	20.77	-38.5	-40.6	21.3	0.00e+00	0	59	0	143654912	48	4642
2026-01-19 21:18:01.75	219.06	20.91	-38.3	-40.4	21.5	0.00e+00	0	59	0	144703488	48	4538
2026-01-19 21:18:02.76	218.71	21.05	-38.3	-40.4	21.5	0.00e+00	0	59	0	146276352	48	4513
2026-01-19 21:18:03.77	218.36	21.19	-38.2	-40.2	21.7	0.00e+00	0	59	0	147324928	48	4428
2026-01-19 21:18:04.78	218.00	21.34	-38.1	-40.2	21.7	0.00e+00	0	59	0	148373504	48	4392
2026-01-19 21:18:05.79	217.64	21.48	-37.9	-39.9	22.0	0.00e+00	0	59	0	149422080	47	4501
2026-01-19 21:18:06.80	217.28	21.62	-37.8	-39.8	22.1	0.00e+00	0	59	0	150470656	47	4463
2026-01-19 21:18:07.81	216.91	21.76	-37.7	-39.7	22.2	0.00e+00	0	59	0	151519232	47	4411
2026-01-19 21:18:08.82	216.54	21.90	-37.7	-39.7	22.2	0.00e+00	0	59	0	153092096	47	4425
2026-01-19 21:18:09.83	216.17	22.04	-37.8	-39.8	22.1	0.00e+00	0	59	0	154140672	47	4490
2026-01-19 21:18:10.83	215.79	22.19	-38.0	-40.1	21.9	0.00e+00	0	59	0	155189248	47	4602
2026-01-19 21:18:11.84	215.41	22.33	-38.0	-40.1	21.9	0.00e+00	0	59	0	156237824	47	4611
2026-01-19 21:18:12.85	215.02	22.47	-38.0	-40.1	21.8	0.00e+00	0	60	0	157286400	47	4617
2026-01-19 21:18:13.86	214.63	22.61	-38.1	-40.2	21.7	0.00e+00	0	59	0	158334976	47	4663
2026-01-19 21:18:14.87	214.23	22.75	-37.8	-39.8	22.0	0.00e+00	0	60	0	159907840	47	4476
2026-01-19 21:18:15.88	213.83	22.89	-37.8	-39.7	22.1	0.00e+00	0	60	0	160956416	47	4441
2026-01-19 21:18:16.89	213.43	23.03	-37.6	-39.5	22.3	0.00e+00	0	59	0	162004992	47	4336
2026-01-19 21:18:17.90	213.02	23.17	-37.4	-39.3	22.5	0.00e+00	0	59	0	163053568	46	4482
2026-01-19 21:18:18.91	212.61	23.31	-37.5	-39.5	22.4	0.00e+00	0	59	0	164102144	46	4560
2026-01-19 21:18:19.92	212.19	23.45	-37.4	-39.4	22.5	0.00e+00	0	59	0	165150720	46	4501
2026-01-19 21:18:20.93	211.77	23.59	-37.6	-39.5	22.3	0.00e+00	0	59	0	166723584	46	4595
2026-01-19 21:18:21.94	211.34	23.73	-37.6	-39.6	22.3	0.00e+00	0	60	0	167772160	46	4605
2026-01-19 21:18:22.95	210.91	23.87	-37.6	-39.5	22.3	0.00e+00	0	60	0	168820736	46	4571
2026-01-19 21:18:23.96	210.48	24.00	-37.5	-39.5	22.4	0.00e+00	0	60	0	169869312	46	4569
2026-01-19 21:18:24.97	210.04	24.14	-37.7	-39.6	22.3	0.00e+00	0	60	0	170917888	46	4633
2026-01-19 21:18:25.98	209.59	24.28	-37.7	-39.7	22.2	0.00e+00	0	60	0	171966464	46	4661
2026-01-19 21:18:26.99	209.14	24.41	-37.6	-39.6	22.3	0.00e+00	0	59	0	173539328	46	4612
2026-01-19 21:18:27.99	208.69	24.55	-37.6	-39.5	22.4	0.00e+00	0	60	0	174587904	46	4583
2026-01-19 21:18:29.00	208.24	24.68	-37.6	-39.5	22.4	0.00e+00	0	60	0	175636480	46	4583
2026-01-19 21:18:30.01	207.78	24.81	-37.6	-39.6	22.3	0.00e+00	0	60	0	176685056	46	4620
2026-01-19 21:18:31.02	207.31	24.94	-37.3	-39.2	22.7	0.00e+00	0	60	0	177733632	46	4420
2026-01-19 21:18:32.03	206.84	25.08	-37.2	-39.1	22.8	0.00e+00	0	60	0	178782208	46	4381
2026-01-19 21:18:33.04	206.36	25.21	-37.2	-39.1	22.9	0.00e+00	0	60	0	180355072	46	4364
2026-01-19 21:18:34.05	205.88	25.34	-37.3	-39.2	22.7	0.00e+00	0	60	0	181403648	46	4428
2026-01-19 21:18:35.06	205.40	25.46	-37.5	-39.4	22.6	0.00e+00	0	60	0	182452224	46	4513
2026-01-19 21:18:36.07	204.91	25.59	-37.5	-39.4	22.5	0.00e+00	0	60	0	183500800	46	4537
2026-01-19 21:18:37.08	204.41	25.72	-37.3	-39.2	22.6	0.00e+00	0	60	0	184549376	46	4427
2026-01-19 21:18:38.08	203.92	25.84	-37.3	-39.2	22.7	0.00e+00	0	60	0	185597952	46	4406
2026-01-19 21:18:39.09	203.42	25.96	-37.2	-39.1	22.8	0.00e+00	0	60	0	186646528	46	4344
2026-01-19 21:18:40.10	202.91	26.08	-37.0	-38.8	23.0	0.00e+00	0	60	0	188219392	46	4234
2026-01-19 21:18:41.11	202.40	26.20	-37.1	-39.0	22.9	0.00e+00	0	60	0	189267968	46	4299
2026-01-19 21:18:42.12	201.88	26.32	-37.2	-39.1	22.8	0.00e+00	0	60	0	190316544	46	4358
2026-01-19 21:18:43.13	201.36	26.44	-37.3	-39.2	22.7	0.00e+00	0	60	0	191365120	46	4416
2026-01-19 21:18:44.15	200.83	26.55	-37.2	-39.0	22.8	0.00e+00	0	60	0	192413696	46	4339
2026-01-19 21:18:45.15	200.31	26.67	-37.1	-38.9	23.0	0.00e+00	0	60	0	193986560	46	4262
2026-01-19 21:18:46.16	199.78	26.78	-37.1	-38.9	23.0	0.00e+00	0	60	0	195035136	46	4285
2026-01-19 21:18:47.17	199.24	26.89	-37.2	-39.0	22.9	0.00e+00	0	60	0	196083712	46	4327
2026-01-19 21:18:48.18	198.70	26.99	-36.8	-38.6	23.2	0.00e+00	0	60	0	197132288	45	4388
2026-01-19 21:18:49.19	198.15	27.10	-37.1	-38.9	22.9	0.00e+00	0	60	0	198180864	45	4530
2026-01-19 21:18:50.20	197.60	27.20	-37.1	-38.9	22.9	0.00e+00	0	60	0	199229440	45	4542
2026-01-19 21:18:51.21	197.05	27.30	-37.2	-39.0	22.9	0.00e+00	0	60	0	200802304	45	4580
2026-01-19 21:18:52.22	196.49	27.40	-36.8	-38.6	23.2	0.00e+00	0	60	0	201850880	45	4380
2026-01-19 21:18:53.23	195.93	27.50	-36.6	-38.4	23.5	0.00e+00	0	60	0	202899456	45	4258
2026-01-19 21:18:54.23	195.37	27.60	-36.8	-38.6	23.3	0.00e+00	0	60	0	203948032	45	4349
2026-01-19 21:18:55.25	194.79	27.69	-37.0	-38.8	23.1	0.00e+00	0	60	0	204996608	45	4460
2026-01-19 21:18:56.26	194.22	27.78	-37.1	-38.9	23.0	0.00e+00	0	60	0	206045184	45	4520
2026-01-19 21:18:57.26	193.65	27.87	-37.2	-39.0	22.9	0.00e+00	0	60	0	207618048	45	4591
2026-01-19 21:18:58.27	193.07	27.95	-36.8	-38.6	23.2	0.00e+00	0	60	0	208666624	45	4388
2026-01-19 21:18:59.28	192.48	28.03	-36.8	-38.6	23.2	0.00e+00	0	60	0	209715200	45	4377
2026-01-19 21:19:00.29	191.90	28.11	-36.5	-38.3	23.5	0.00e+00	0	60	0	210763776	45	4209
2026-01-19 21:19:01.30	191.31	28.19	-36.9	-38.7	23.1	0.00e+00	0	60	0	211812352	45	4434
2026-01-19 21:19:02.31	190.71	28.26	-36.6	-38.4	23.4	0.00e+00	0	60	0	212860928	45	4265
2026-01-19 21:19:03.32	190.12	28.34	-36.7	-38.5	23.3	0.00e+00	0	60	0	214433792	45	4340
2026-01-19 21:19:04.33	189.52	28.40	-36.7	-38.5	23.4	0.00e+00	0	60	0	215482368	45	4316
2026-01-19 21:19:05.34	188.91	28.47	-36.6	-38.4	23.4	0.00e+00	0	60	0	216530944	45	4249
2026-01-19 21:19:06.35	188.31	28.53	-37.0	-38.8	23.1	0.00e+00	0	60	0	217579520	45	4469
2026-01-19 21:19:07.36	187.70	28.59	-37.0	-38.9	23.0	0.00e+00	0	60	0	218628096	45	4498
2026-01-19 21:19:08.37	187.09	28.65	-37.3	-39.2	22.7	0.00e+00	0	60	0	219676672	45	4658
2026-01-19 21:19:09.38	186.48	28.70	-37.4	-39.3	22.5	0.00e+00	0	60	0	221249536	45	4730
2026-01-19 21:19:10.39	185.86	28.75	-37.5	-39.4	22.4	0.00e+00	0	60	0	222298112	45	4803
2026-01-19 21:19:11.39	185.25	28.80	-37.4	-39.3	22.5	0.00e+00	0	60	0	223346688	45	4730
2026-01-19 21:19:12.40	184.63	28.84	-37.4	-39.3	22.6	0.00e+00	0	60	0	224395264	45	4720
2026-01-19 21:19:13.41	184.01	28.88	-37.5	-39.5	22.3	0.00e+00	0	60	0	225443840	45	4837
2026-01-19 21:19:14.42	183.39	28.92	-37.5	-39.4	22.4	0.00e+00	0	60	0	226492416	45	4806
2026-01-19 21:19:15.43	182.77	28.95	-37.3	-39.2	22.7	0.00e+00	0	60	0	227540992	45	4655
2026-01-19 21:19:16.44	182.14	28.98	-37.0	-38.9	23.0	0.00e+00	0	60	0	229113856	45	4503
2026-01-19 21:19:17.45	181.51	29.01	-37.0	-38.8	23.0	0.00e+00	0	60	0	230162432	45	4473
2026-01-19 21:19:18.46	180.89	29.04	-36.9	-38.7	23.1	0.00e+00	0	60	0	231211008	45	4434
2026-01-19 21:19:19.47	180.26	29.06	-37.2	-39.0	22.8	0.00e+00	0	60	0	232259584	45	4591
2026-01-19 21:19:20.48	179.63	29.07	-37.3	-39.2	22.7	0.00e+00	0	60	0	233308160	45	4672
2026-01-19 21:19:21.49	179.00	29.09	-37.4	-39.4	22.6	0.00e+00	0	60	0	234356736	45	4760
2026-01-19 21:19:22.50	178.37	29.10	-37.2	-39.1	22.8	0.00e+00	0	60	0	235929600	45	4609
2026-01-19 21:19:23.51	177.74	29.10	-37.2	-39.0	22.8	0.00e+00	0	60	0	236978176	45	4590
2026-01-19 21:19:24.52	177.10	29.11	-37.1	-39.0	22.9	0.00e+00	0	60	0	238026752	45	4553
2026-01-19 21:19:25.53	176.47	29.10	-37.2	-39.1	22.8	0.00e+00	0	60	0	239075328	45	4616
2026-01-19 21:19:26.54	175.84	29.10	-37.5	-39.4	22.7	0.00e+00	0	60	0	240123904	45	4785
2026-01-19 21:19:27.55	175.21	29.09	-37.4	-39.3	22.7	0.00e+00	0	60	0	241696768	45	4712
2026-01-19 21:19:28.56	174.58	29.08	-37.5	-39.4	22.6	0.00e+00	0	60	0	242745344	45	4777
2026-01-19 21:19:29.57	173.95	29.07	-37.4	-39.3	22.7	0.00e+00	0	60	0	243793920	45	4726
2026-01-19 21:19:30.57	173.33	29.05	-37.3	-39.2	22.7	0.00e+00	0	60	0	244842496	45	4693
2026-01-19 21:19:31.58	172.70	29.03	-37.3	-39.2	22.7	0.00e+00	0	60	0	245891072	45	4691
2026-01-19 21:19:32.59	172.07	29.00	-37.3	-39.2	22.7	0.00e+00	0	60	0	246939648	45	4670
2026-01-19 21:19:33.60	171.45	28.98	-37.3	-39.2	22.7	0.00e+00	0	60	0	248512512	45	4670
2026-01-19 21:19:34.61	170.82	28.94	-37.3	-39.2	22.7	0.00e+00	0	60	0	249561088	45	4691
2026-01-19 21:19:35.62	170.20	28.91	-37.4	-39.3	22.6	0.00e+00	0	60	0	250609664	45	4746
2026-01-19 21:19:36.63	169.58	28.87	-37.3	-39.3	22.6	0.00e+00	0	60	0	251658240	45	4711
2026-01-19 21:19:37.64	168.96	28.83	-37.4	-39.3	22.7	0.00e+00	0	60	0	252706816	45	4741
2026-01-19 21:19:38.64	168.34	28.79	-37.3	-39.1	22.8	0.00e+00	0	60	0	253755392	45	4648
2026-01-19 21:19:39.65	167.73	28.74	-36.9	-38.8	23.2	0.00e+00	0	60	0	255328256	45	4452
2026-01-19 21:19:40.66	167.11	28.69	-37.1	-38.9	23.1	0.00e+00	0	60	0	256376832	45	4515
2026-01-19 21:19:41.67	166.50	28.63	-37.1	-39.0	23.0	0.00e+00	0	60	0	257425408	45	4577
2026-01-19 21:19:42.67	165.90	28.58	-37.2	-39.1	22.9	0.00e+00	0	60	0	258473984	45	4607
2026-01-19 21:19:43.68	165.29	28.52	-37.3	-39.3	22.8	0.00e+00	0	60	0	259522560	45	4707
2026-01-19 21:19:44.69	164.69	28.45	-37.4	-39.3	22.7	0.00e+00	0	60	0	260571136	45	4724
2026-01-19 21:19:45.70	164.09	28.39	-37.3	-39.2	22.7	0.00e+00	0	60	0	262144000	45	4703
2026-01-19 21:19:46.72	163.48	28.32	-37.1	-39.0	23.0	0.00e+00	0	60	0	263192576	45	4564
2026-01-19 21:19:47.73	162.89	28.24	-37.0	-38.9	23.1	0.00e+00	0	60	0	264241152	45	4507
2026-01-19 21:19:48.74	162.29	28.17	-37.0	-38.9	23.1	0.00e+00	0	60	0	265289728	45	4512
2026-01-19 21:19:49.75	161.70	28.09	-37.1	-38.9	23.1	0.00e+00	0	60	0	266338304	45	4537
2026-01-19 21:19:50.75	161.12	28.01	-37.1	-39.0	23.1	0.00e+00	0	60	0	267386880	45	4556
2026-01-19 21:19:51.76	160.54	27.93	-37.2	-39.0	22.9	0.00e+00	0	61	0	268435456	45	4583
2026-01-19 21:19:52.77	159.96	27.84	-37.0	-38.9	23.2	0.00e+00	0	60	0	270008320	45	4518
2026-01-19 21:19:53.78	159.39	27.75	-36.9	-38.8	23.2	0.00e+00	0	60	0	271056896	45	4444
2026-01-19 21:19:54.79	158.82	27.66	-36.8	-38.7	23.4	0.00e+00	0	60	0	272105472	45	4401
2026-01-19 21:19:55.80	158.25	27.57	-36.9	-38.7	23.3	0.00e+00	0	60	0	273154048	45	4421
2026-01-19 21:19:56.81	157.68	27.48	-36.8	-38.6	23.4	0.00e+00	0	60	0	274202624	45	4349
2026-01-19 21:19:57.82	157.12	27.38	-36.7	-38.5	23.5	0.00e+00	0	60	0	275251200	45	4321
2026-01-19 21:19:58.83	156.57	27.28	-36.9	-38.7	23.4	0.00e+00	0	60	0	276824064	45	4397
2026-01-19 21:19:59.84	156.01	27.18	-37.1	-39.0	23.1	0.00e+00	0	60	0	277872640	45	4568
2026-01-19 21:20:00.82	155.48	27.07	-37.6	-39.5	22.5	0.00e+00	0	60	0	278921216	45	4868
2026-01-19 21:20:01.83	154.94	26.97	-37.8	-39.8	22.4	0.00e+00	0	60	0	279969792	46	4723
2026-01-19 21:20:02.84	154.40	26.86	-37.8	-39.7	22.3	0.00e+00	0	60	0	281018368	46	4703
2026-01-19 21:20:03.85	153.86	26.75	-37.5	-39.5	22.6	0.00e+00	0	60	0	282066944	46	4556
2026-01-19 21:20:04.85	153.33	26.64	-37.4	-39.3	22.7	0.00e+00	0	61	0	283639808	46	4492
2026-01-19 21:20:05.86	152.81	26.53	-37.2	-39.1	23.0	0.00e+00	0	60	0	284688384	46	4355
2026-01-19 21:20:06.87	152.28	26.41	-37.1	-38.9	23.2	0.00e+00	0	60	0	285736960	46	4280
2026-01-19 21:20:07.88	151.76	26.29	-37.3	-39.2	22.9	0.00e+00	0	60	0	286785536	46	4430
2026-01-19 21:20:08.89	151.25	26.18	-37.4	-39.3	22.8	0.00e+00	0	60	0	287834112	46	4480
2026-01-19 21:20:09.90	150.74	26.06	-37.6	-39.5	22.7	0.00e+00	0	60	0	288882688	46	4583
2026-01-19 21:20:10.91	150.23	25.93	-37.9	-39.9	22.2	0.00e+00	0	60	0	290455552	46	4800
2026-01-19 21:20:11.92	149.73	25.81	-37.9	-40.0	22.2	0.00e+00	0	60	0	291504128	46	4828
2026-01-19 21:20:12.93	149.24	25.69	-38.0	-40.0	22.1	0.00e+00	0	60	0	292552704	46	4862
2026-01-19 21:20:13.94	148.74	25.56	-37.9	-39.9	22.2	0.00e+00	0	61	0	293601280	46	4810
2026-01-19 21:20:14.95	148.26	25.43	-37.7	-39.7	22.4	0.00e+00	0	60	0	294649856	46	4703
2026-01-19 21:20:15.96	147.77	25.31	-37.5	-39.4	22.7	0.00e+00	0	61	0	295698432	46	4545
2026-01-19 21:20:16.97	147.29	25.18	-37.5	-39.5	22.7	0.00e+00	0	61	0	297271296	46	4567
2026-01-19 21:20:17.97	146.83	25.05	-37.7	-39.6	22.5	0.00e+00	0	61	0	298319872	46	4645
2026-01-19 21:20:18.98	146.36	24.92	-37.7	-39.7	22.4	0.00e+00	0	60	0	299368448	46	4691
2026-01-19 21:20:19.99	145.89	24.79	-37.7	-39.7	22.4	0.00e+00	0	60	0	300417024	46	4683
2026-01-19 21:20:21.00	145.43	24.65	-37.7	-39.7	22.4	0.00e+00	0	60	0	301465600	46	4683
2026-01-19 21:20:22.01	144.97	24.52	-37.8	-39.8	22.3	0.00e+00	0	60	0	302514176	46	4739
2026-01-19 21:20:23.02	144.52	24.38	-37.8	-39.8	22.4	0.00e+00	0	60	0	304087040	46	4722
2026-01-19 21:20:24.03	144.08	24.25	-37.6	-39.6	22.6	0.00e+00	0	60	0	305135616	46	4627
2026-01-19 21:20:25.04	143.63	24.11	-37.6	-39.6	22.6	0.00e+00	0	60	0	306184192	46	4607
2026-01-19 21:20:26.05	143.20	23.98	-37.6	-39.6	22.6	0.00e+00	0	61	0	307232768	46	4616
2026-01-19 21:20:27.06	142.76	23.84	-38.0	-40.0	22.2	0.00e+00	0	60	0	308281344	46	4839
2026-01-19 21:20:28.07	142.33	23.70	-38.1	-40.2	22.0	0.00e+00	0	60	0	309329920	46	4954
2026-01-19 21:20:29.07	141.91	23.56	-37.9	-40.0	22.2	0.00e+00	0	61	0	310902784	46	4839
2026-01-19 21:20:30.08	141.49	23.42	-37.8	-39.8	22.4	0.00e+00	0	61	0	311951360	46	4741
2026-01-19 21:20:31.09	141.08	23.28	-37.7	-39.7	22.5	0.00e+00	0	60	0	312999936	46	4664
2026-01-19 21:20:32.10	140.67	23.14	-37.8	-39.8	22.3	0.00e+00	0	61	0	314048512	46	4724
2026-01-19 21:20:33.11	140.26	23.00	-37.9	-39.9	22.2	0.00e+00	0	61	0	315097088	46	4781
2026-01-19 21:20:34.12	139.86	22.86	-38.0	-40.1	22.1	0.00e+00	0	60	0	316145664	46	4882
2026-01-19 21:20:35.13	139.46	22.72	-37.9	-39.9	22.2	0.00e+00	0	61	0	317718528	46	4793
2026-01-19 21:20:36.14	139.06	22.58	-37.9	-39.9	22.2	0.00e+00	0	60	0	318767104	46	4797
2026-01-19 21:20:37.15	138.67	22.44	-38.0	-40.1	22.1	0.00e+00	0	61	0	319815680	46	4893
2026-01-19 21:20:38.16	138.29	22.30	-38.0	-40.1	22.0	0.00e+00	0	61	0	320864256	46	4893
2026-01-19 21:20:39.17	137.90	22.16	-38.1	-40.2	22.0	0.00e+00	0	61	0	321912832	46	4935
2026-01-19 21:20:40.18	137.53	22.02	-38.0	-40.1	22.0	0.00e+00	0	61	0	322961408	46	4904
2026-01-19 21:20:41.18	137.16	21.88	-38.1	-40.2	21.9	0.00e+00	0	60	0	324009984	46	4943
2026-01-19 21:20:42.19	136.79	21.74	-38.1	-40.3	21.9	0.00e+00	0	60	0	325582848	46	4986
2026-01-19 21:20:43.20	136.42	21.59	-38.0	-40.1	22.0	0.00e+00	0	61	0	326631424	46	4909
2026-01-19 21:20:44.21	136.06	21.45	-38.2	-40.4	21.7	0.00e+00	0	61	0	327680000	47	4768
2026-01-19 21:20:45.22	135.70	21.31	-38.3	-40.5	21.6	0.00e+00	0	61	0	328728576	47	4835
2026-01-19 21:20:46.23	135.35	21.17	-38.4	-40.6	21.5	0.00e+00	0	61	0	329777152	47	4886
2026-01-19 21:20:47.24	135.00	21.03	-38.5	-40.7	21.4	0.00e+00	0	61	0	330825728	47	4944
2026-01-19 21:20:48.25	134.65	20.89	-38.4	-40.6	21.5	0.00e+00	0	61	0	332398592	47	4872
2026-01-19 21:20:49.26	134.31	20.75	-38.1	-40.3	21.8	0.00e+00	0	61	0	333447168	47	4709
2026-01-19 21:20:50.27	133.97	20.61	-38.1	-40.3	21.8	0.00e+00	0	61	0	334495744	47	4713
2026-01-19 21:20:51.28	133.64	20.46	-38.2	-40.3	21.7	0.00e+00	0	61	0	335544320	47	4743
2026-01-19 21:20:52.29	133.31	20.32	-38.3	-40.5	21.6	0.00e+00	0	61	0	336592896	47	4840
2026-01-19 21:20:53.30	132.98	20.18	-38.3	-40.5	21.5	0.00e+00	0	61	0	338165760	47	4846
2026-01-19 21:20:54.31	132.65	20.04	-38.3	-40.4	21.6	0.00e+00	0	61	0	339214336	47	4800
2026-01-19 21:20:55.32	132.33	19.90	-38.2	-40.4	21.6	0.00e+00	0	61	0	340262912	47	4760
2026-01-19 21:20:56.32	132.02	19.77	-38.3	-40.5	21.6	0.00e+00	0	61	0	341311488	47	4822
2026-01-19 21:20:57.33	131.71	19.63	-38.4	-40.7	21.3	0.00e+00	0	61	0	342360064	47	4927
2026-01-19 21:20:58.34	131.40	19.49	-38.5	-40.8	21.3	0.00e+00	0	61	0	343408640	47	4992
2026-01-19 21:20:59.35	131.09	19.35	-38.6	-40.9	21.1	0.00e+00	0	61	0	344981504	47	5089
2026-01-19 21:21:00.36	130.79	19.21	-38.6	-40.9	21.1	0.00e+00	0	61	0	346030080	47	5087
2026-01-19 21:21:01.37	130.49	19.07	-38.5	-40.8	20.8	0.00e+00	0	61	0	347078656	47	5003
2026-01-19 21:21:02.38	130.19	18.94	-38.4	-40.6	21.3	0.00e+00	0	61	0	348127232	47	4901
2026-01-19 21:21:03.39	129.90	18.80	-38.5	-40.7	21.2	0.00e+00	0	61	0	349175808	47	4970
2026-01-19 21:21:04.40	129.61	18.66	-38.6	-41.0	21.0	0.00e+00	0	61	0	350224384	47	5108
2026-01-19 21:21:05.41	129.32	18.53	-38.7	-41.0	20.9	0.00e+00	0	61	0	351797248	48	4867
2026-01-19 21:21:06.42	129.04	18.39	-38.7	-41.1	20.8	1.12e-04	0	61	0	352845824	47	5178
2026-01-19 21:21:07.43	128.76	18.26	-38.8	-41.1	20.8	1.12e-04	0	61	0	353894400	48	4890
2026-01-19 21:21:08.44	128.48	18.12	-38.8	-41.1	20.9	8.81e-05	0	60	0	354942976	48	4888
2026-01-19 21:21:09.45	128.20	17.99	-38.8	-41.1	20.8	2.51e-05	0	61	0	355991552	48	4921
2026-01-19 21:21:10.46	127.93	17.85	-38.9	-41.3	20.6	2.51e-05	0	61	0	357040128	48	5012
2026-01-19 21:21:11.47	127.66	17.72	-38.9	-41.3	20.6	1.10e-06	0	60	0	358612992	48	5020
2026-01-19 21:21:12.48	127.40	17.59	-38.9	-41.3	20.6	1.10e-06	0	61	0	359661568	48	4990
2026-01-19 21:21:13.49	127.14	17.46	-38.8	-41.2	20.7	1.10e-06	0	61	0	360710144	48	4961
2026-01-19 21:21:14.50	126.88	17.32	-38.8	-41.2	20.7	0.00e+00	0	61	0	361758720	48	4948
2026-01-19 21:21:15.51	126.62	17.19	-38.8	-41.2	20.7	0.00e+00	0	61	0	362807296	48	4963
2026-01-19 21:21:16.52	126.37	17.06	-38.9	-41.4	20.5	0.00e+00	0	60	0	363855872	48	5045
2026-01-19 21:21:17.53	126.11	16.93	-39.1	-41.5	19.3	0.00e+00	0	61	0	364904448	48	5157
2026-01-19 21:21:18.54	125.87	16.80	-39.1	-41.6	20.2	0.00e+00	0	61	0	366477312	48	5169
2026-01-19 21:21:19.55	125.62	16.67	-39.1	-41.7	20.1	1.10e-06	0	60	0	367525888	48	5223
2026-01-19 21:21:20.56	125.38	16.54	-39.1	-41.6	20.0	1.10e-06	0	61	0	368574464	48	5215
2026-01-19 21:21:21.57	125.14	16.41	-39.0	-41.6	20.2	0.00e+00	0	61	0	369623040	48	5161
2026-01-19 21:21:22.58	124.90	16.29	-38.9	-41.5	20.2	1.10e-06	0	61	0	370671616	48	5144
2026-01-19 21:21:23.59	124.66	16.16	-39.1	-41.6	20.2	1.10e-06	0	61	0	371720192	48	5181
2026-01-19 21:21:24.60	124.43	16.03	-39.2	-41.7	20.1	0.00e+00	0	61	0	373293056	48	5251
2026-01-19 21:21:25.61	124.20	15.91	-39.1	-41.7	20.0	0.00e+00	0	61	0	374341632	48	5248
2026-01-19 21:21:26.62	123.97	15.78	-39.1	-41.7	20.0	0.00e+00	0	61	0	375390208	48	5248
2026-01-19 21:21:27.63	123.74	15.66	-39.3	-41.9	19.8	0.00e+00	0	61	0	376438784	49	5070
2026-01-19 21:21:28.64	123.52	15.53	-39.4	-42.1	19.6	0.00e+00	0	61	0	377487360	49	5170
2026-01-19 21:21:29.64	123.30	15.41	-39.3	-42.2	19.5	0.00e+00	0	61	0	378535936	49	5258
2026-01-19 21:21:30.65	123.08	15.29	-38.4	-42.2	15.6	0.00e+00	0	61	0	380108800	42	7864
2026-01-19 21:21:31.66	122.87	15.16	-39.4	-42.6	18.5	9.49e-05	0	61	0	381157376	49	5521
2026-01-19 21:21:32.67	122.65	15.04	-39.3	-42.6	18.2	5.95e-05	0	61	0	382205952	49	5527
2026-01-19 21:21:33.68	122.44	14.92	-39.1	-42.5	18.6	5.95e-05	0	61	0	383254528	49	5428
2026-01-19 21:21:34.69	122.23	14.80	-38.7	-42.6	18.4	3.20e-05	0	61	0	384303104	49	5516
2026-01-19 21:21:35.70	122.02	14.68	-38.5	-42.2	18.1	1.68e-04	0	61	0	385875968	48	5561
2026-01-19 21:21:36.71	121.82	14.56	-38.1	-42.3	16.9	1.68e-04	0	61	0	386924544	47	5924
2026-01-19 21:21:37.72	121.61	14.44	-36.2	-42.4	14.3	1.92e-04	0	61	0	387973120	41	8471
2026-01-19 21:21:38.73	121.41	14.32	-38.1	-42.6	16.8	1.50e-03	0	61	0	389021696	48	5852
2026-01-19 21:21:39.74	121.21	14.20	-39.2	-43.2	16.8	1.50e-03	0	61	0	390070272	49	5866
2026-01-19 21:21:40.75	121.02	14.08	-38.6	-42.9	17.1	1.14e-03	0	61	0	391118848	48	5999
2026-01-19 21:21:41.76	120.82	13.97	-39.1	-43.0	14.6	3.41e-03	0	61	0	392691712	47	6421
2026-01-19 21:21:42.77	120.63	13.85	-38.3	-42.7	16.0	6.50e-03	0	61	0	393740288	46	6646
2026-01-19 21:21:43.78	120.44	13.73	-38.2	-42.7	16.8	6.50e-03	0	61	0	394788864	48	5922
2026-01-19 21:21:44.79	120.25	13.62	-38.2	-42.7	14.6	2.29e-03	0	61	0	395837440	43	7841
2026-01-19 21:21:45.80	120.06	13.50	-38.8	-42.7	16.4	6.49e-03	0	61	0	396886016	47	6220
2026-01-19 21:21:46.81	119.88	13.39	-38.0	-42.5	16.5	6.49e-03	0	61	0	397934592	46	6480
2026-01-19 21:21:47.82	119.69	13.28	-36.3	-42.9	14.6	4.18e-03	0	61	0	399507456	46	6772
2026-01-19 21:21:48.83	119.51	13.16	-37.8	-43.1	14.5	5.67e-03	0	61	0	400556032	44	7761
2026-01-19 21:21:49.84	119.33	13.05	-36.9	-43.0	12.9	5.67e-03	0	61	0	401604608	42	8624
2026-01-19 21:21:50.85	119.15	12.94	-38.0	-43.3	15.9	1.40e-02	0	61	0	402653184	47	6682
2026-01-19 21:21:51.85	118.98	12.83	-36.6	-42.8	14.0	6.06e-03	0	61	0	403701760	42	8423
2026-01-19 21:21:52.86	118.80	12.72	-38.2	-43.4	15.3	1.04e-02	0	61	0	404750336	45	7584
2026-01-19 21:21:53.87	118.63	12.61	-37.3	-43.4	14.6	1.04e-02	0	61	0	405798912	46	7146
2026-01-19 21:21:54.88	118.46	12.50	-36.6	-42.8	15.4	1.32e-02	0	61	0	407371776	42	8438
2026-01-19 21:21:55.89	118.29	12.39	-34.0	-43.5	13.6	2.46e-02	0	61	0	408420352	44	8157
2026-01-19 21:21:56.90	118.12	12.28	-34.4	-43.0	15.2	2.46e-02	0	61	0	409468928	42	8611
2026-01-19 21:21:57.91	117.96	12.17	-33.3	-43.6	14.6	3.67e-02	0	61	0	410517504	43	8710
2026-01-19 21:21:58.92	117.79	12.06	-30.5	-42.6	8.5	2.82e-02	0	61	0	411566080	35	12312
2026-01-19 21:21:59.93	117.63	11.95	-38.0	-44.2	11.5	2.82e-02	0	61	0	412614656	45	8347
2026-01-19 21:22:00.93	117.47	11.85	-38.3	-44.1	11.8	5.15e-02	0	61	0	413663232	45	8190
2026-01-19 21:22:01.94	117.31	11.74	-36.6	-43.7	13.2	4.06e-02	0	61	0	415236096	42	9291
2026-01-19 21:22:02.95	117.15	11.63	-37.2	-43.4	13.4	4.06e-02	0	61	0	416284672	43	8543
2026-01-19 21:22:03.96	116.99	11.53	-36.6	-43.6	14.1	3.46e-02	0	61	0	417333248	45	7775
2026-01-19 21:22:04.97	116.84	11.42	-30.4	-43.5	12.6	4.81e-02	0	61	0	418381824	41	9622
2026-01-19 21:22:05.98	116.69	11.32	-34.1	-44.2	9.2	4.81e-02	0	61	0	419430400	39	11747
2026-01-19 21:22:06.99	116.53	11.22	-34.1	-42.8	10.8	3.52e-02	0	61	0	420478976	38	10573
2026-01-19 21:22:08.00	116.38	11.11	-34.6	-44.1	11.1	1.70e-01	0	61	0	421527552	40	10939
2026-01-19 21:22:09.01	116.23	11.01	-30.9	-44.5	9.3	1.27e-01	0	61	0	422576128	39	12140
2026-01-19 21:22:10.01	116.09	10.91	-33.8	-43.8	10.3	1.27e-01	0	61	0	423624704	39	11263
2026-01-19 21:22:11.02	115.94	10.81	-30.4	-42.8	8.9	1.29e-01	0	61	0	424673280	33	14158
2026-01-19 21:22:12.03	115.79	10.71	-23.6	-40.9	5.6	4.13e-01	0	61	0	425197568	19	25421
2026-01-19 21:22:13.04	115.65	10.60	-21.1	-39.8	4.4	4.13e-01	0	61	104	425197568	14	29909
2026-01-19 21:22:14.05	115.51	10.50	-27.2	-43.4	5.7	8.01e-01	0	61	104	425197568	23	26836
2026-01-19 21:22:15.06	115.37	10.40	-28.2	-43.4	3.5	7.58e-01	0	61	104	425197568	15	42658
2026-01-19 21:22:16.07	115.23	10.30	-28.1	-45.1	4.9	7.58e-01	0	61	104	425197568	27	26099
2026-01-19 21:22:17.08	115.09	10.21	-27.5	-46.3	4.5	8.35e-01	0	61	104	425197568	25	33639
2026-01-19 21:22:18.09	114.95	10.11	-26.8	-47.0	4.0	8.14e-01	0	61	104	425197568	24	38481
2026-01-19 21:22:19.10	114.81	10.01	-25.1	-49.1	4.0	8.21e-01	0	61	104	425197568	31	32602
2026-01-19 21:22:20.11	114.68	9.91	-24.1	-45.9	3.9	8.21e-01	0	61	104	425197568	18	47951
2026-01-19 21:22:21.12	114.55	9.81	-25.5	-44.6	4.2	8.30e-01	0	61	104	425197568	19	38749
2026-01-19 21:22:22.13	114.41	9.72	-24.3	-44.1	4.3	8.36e-01	0	61	104	425197568	20	34561
2026-01-19 21:22:23.14	114.28	9.62	-24.9	-44.4	4.2	8.36e-01	0	61	104	425197568	19	37822
2026-01-19 21:22:24.15	114.15	9.53	-24.7	-43.7	4.1	8.35e-01	0	61	104	425197568	16	41560
2026-01-19 21:22:25.16	114.02	9.43	-21.7	-44.5	3.9	8.35e-01	0	61	104	425197568	14	51508
2026-01-19 21:22:26.17	113.90	9.34	-31.9	-51.0	3.9	8.35e-01	0	61	104	425197568	31	40717
2026-01-19 21:22:27.17	113.77	9.24	-26.9	-46.1	4.1	8.34e-01	0	61	104	425197568	20	43724
2026-01-19 21:22:28.18	113.64	9.15	-25.9	-46.2	4.0	8.19e-01	0	61	104	425197568	20	44309
2026-01-19 21:22:29.19	113.52	9.05	-17.3	-39.7	4.2	8.19e-01	0	61	104	425197568	5	49705
2026-01-19 21:22:30.20	113.40	8.96	-15.2	-37.7	3.8	8.32e-01	0	61	104	425197568	1	49702
2026-01-19 21:22:31.21	113.27	8.87	-26.5	-45.6	4.3	8.28e-01	0	61	104	425197568	22	36543
2026-01-19 21:22:32.22	113.15	8.78	-26.2	-45.8	4.4	8.32e-01	0	61	0	425197568	19	44820
2026-01-19 21:22:33.23	113.03	8.68	-27.0	-45.6	4.4	8.32e-01	0	61	104	425197568	24	32778
2026-01-19 21:22:34.24	112.91	8.59	-23.1	-44.6	6.0	8.30e-01	0	61	0	425197568	26	26038
2026-01-19 21:22:35.25	112.80	8.50	-28.9	-48.1	5.6	6.69e-01	0	61	0	425197568	29	32868
2026-01-19 21:22:36.26	112.68	8.41	-26.1	-47.6	3.8	6.69e-01	0	61	104	425197568	20	52070
2026-01-19 21:22:37.27	112.56	8.32	-24.6	-47.5	4.0	7.68e-01	0	61	104	425197568	21	48341
2026-01-19 21:22:38.28	112.45	8.23	-26.4	-47.8	3.9	8.32e-01	0	61	104	425197568	21	50291
2026-01-19 21:22:39.29	112.33	8.14	-26.0	-48.6	4.2	8.32e-01	0	61	104	425197568	23	49092
2026-01-19 21:22:40.30	112.22	8.05	-29.2	-46.6	4.1	8.31e-01	0	61	104	425197568	23	38747
2026-01-19 21:22:41.31	112.11	7.96	-41.2	-62.1	4.0	8.16e-01	0	61	104	425197568	56	34612
2026-01-19 21:22:42.32	112.00	7.88	-44.7	-63.2	3.8	8.16e-01	0	61	104	425197568	60	31108
2026-01-19 21:22:43.33	111.89	7.79	-44.9	-63.0	3.8	8.44e-01	0	61	104	425197568	60	30605
2026-01-19 21:22:44.34	111.78	7.70	-45.1	-63.2	3.8	8.46e-01	0	61	104	425197568	60	31373
2026-01-19 21:22:45.35	111.67	7.61	-45.3	-63.5	3.8	8.46e-01	0	61	104	425197568	61	30619
2026-01-19 21:22:46.36	111.56	7.53	-45.5	-63.6	3.8	8.46e-01	0	61	104	425197568	61	30798
2026-01-19 21:22:47.37	111.46	7.44	-45.6	-63.7	3.8	8.46e-01	0	61	104	425197568	61	31356
2026-01-19 21:22:48.38	111.35	7.35	-45.6	-63.9	3.8	8.46e-01	0	61	104	425197568	61	31863
2026-01-19 21:22:49.39	111.25	7.27	-45.8	-64.0	3.8	8.46e-01	0	61	104	425197568	62	30608
2026-01-19 21:22:50.40	111.14	7.18	-45.8	-64.0	3.8	8.47e-01	0	61	104	425197568	62	30625
2026-01-19 21:22:51.41	111.04	7.10	-45.7	-63.9	3.8	8.46e-01	0	61	104	425197568	62	30233
2026-01-19 21:22:52.42	110.94	7.01	-45.6	-63.8	3.8	8.46e-01	0	61	104	425197568	62	29875
2026-01-19 21:22:53.43	110.84	6.93	-45.5	-63.7	3.8	8.46e-01	0	61	104	425197568	62	29614
2026-01-19 21:22:54.45	110.73	6.85	-45.4	-63.6	3.8	8.45e-01	0	61	104	425197568	62	29270
2026-01-19 21:22:55.46	110.64	6.76	-45.4	-63.6	3.8	8.45e-01	0	61	104	425197568	62	29080
2026-01-19 21:22:56.47	110.54	6.68	-45.4	-63.5	3.8	8.47e-01	0	61	104	425197568	62	28918
2026-01-19 21:22:57.48	110.44	6.60	-45.3	-63.4	3.8	8.47e-01	0	61	104	425197568	62	28656
2026-01-19 21:22:58.49	110.34	6.51	-45.3	-63.4	3.8	8.46e-01	0	61	104	425197568	61	30323
2026-01-19 21:22:59.50	110.24	6.43	-45.3	-63.5	3.7	8.46e-01	0	61	104	425197568	61	30578
2026-01-19 21:23:00.51	110.15	6.35	-45.3	-63.4	3.8	8.47e-01	0	61	104	425197568	61	30193
2026-01-19 21:23:01.52	110.05	6.27	-45.3	-63.4	3.8	8.47e-01	0	61	104	425197568	61	30071
2026-01-19 21:23:02.53	109.96	6.19	-45.3	-63.4	3.8	8.47e-01	0	61	104	425197568	61	30087
2026-01-19 21:23:03.54	109.87	6.11	-45.3	-63.4	3.8	8.47e-01	0	61	104	425197568	61	30064
2026-01-19 21:23:04.56	109.77	6.02	-45.3	-63.4	3.8	8.45e-01	0	61	104	425197568	61	30112
2026-01-19 21:23:05.57	109.68	5.94	-44.7	-63.4	3.8	8.45e-01	0	61	104	425197568	61	30169
2026-01-19 21:23:06.58	109.59	5.86	-45.3	-63.4	3.8	8.46e-01	0	61	104	425197568	61	30142
2026-01-19 21:23:07.59	109.50	5.79	-44.8	-63.4	3.8	8.46e-01	0	61	104	425197568	61	30032
2026-01-19 21:23:08.60	109.41	5.71	-45.3	-63.4	3.8	8.45e-01	0	61	104	425197568	61	30091
2026-01-19 21:23:09.61	109.32	5.63	-45.3	-63.3	3.8	8.45e-01	0	61	104	425197568	61	30025
2026-01-19 21:23:10.62	109.23	5.55	-45.3	-63.4	3.8	8.45e-01	0	61	104	425197568	61	30061
2026-01-19 21:23:11.63	109.14	5.47	-45.2	-63.4	3.8	8.46e-01	0	61	104	425197568	61	30066
2026-01-19 21:23:12.64	109.06	5.39	-45.3	-63.3	3.8	8.46e-01	0	61	104	425197568	61	29957
2026-01-19 21:23:13.65	108.97	5.31	-45.2	-63.4	3.8	8.47e-01	0	61	104	425197568	61	30057
2026-01-19 21:23:14.66	108.89	5.24	-45.2	-63.3	3.8	8.45e-01	0	61	104	425197568	61	29988
2026-01-19 21:23:15.67	108.80	5.16	-45.2	-63.4	3.8	8.45e-01	0	61	104	425197568	61	30046
2026-01-19 21:23:16.68	108.72	5.08	-45.2	-63.3	3.8	8.46e-01	0	61	104	425197568	61	29994
2026-01-19 21:23:17.69	108.63	5.01	-45.2	-63.3	3.8	8.45e-01	0	61	104	425197568	61	29908
2026-01-19 21:23:18.71	108.55	4.93	-45.2	-63.3	3.8	8.45e-01	0	61	104	425197568	61	29915
2026-01-19 21:23:19.72	108.47	4.85	-45.2	-63.3	3.8	8.46e-01	0	61	104	425197568	61	29998
2026-01-19 21:23:20.73	108.38	4.78	-45.2	-63.3	3.8	8.46e-01	0	61	104	425197568	61	29920
2026-01-19 21:23:21.74	108.30	4.70	-45.2	-63.3	3.8	8.47e-01	0	61	104	425197568	60	31685
2026-01-19 21:23:22.75	108.22	4.63	-45.2	-63.3	3.8	8.47e-01	0	61	104	425197568	61	29919
2026-01-19 21:23:23.76	108.14	4.55	-45.0	-63.3	3.8	8.48e-01	0	61	104	425197568	61	29885
2026-01-19 21:23:24.77	108.06	4.48	-45.2	-63.3	3.8	8.45e-01	0	61	104	425197568	61	29864
2026-01-19 21:23:25.78	107.98	4.41	-44.9	-63.3	3.8	8.45e-01	0	61	104	425197568	61	29850
2026-01-19 21:23:26.79	107.91	4.33	-45.1	-63.3	3.8	8.45e-01	0	61	104	425197568	61	29957
2026-01-19 21:23:27.80	107.83	4.26	-45.2	-63.3	3.8	8.47e-01	0	61	104	425197568	61	29951
2026-01-19 21:23:28.81	107.75	4.18	-45.2	-63.3	3.8	8.47e-01	0	61	104	425197568	61	29886
2026-01-19 21:23:29.82	107.67	4.11	-45.2	-63.3	3.8	8.44e-01	0	61	104	425197568	61	29857
2026-01-19 21:23:30.83	107.60	4.04	-45.2	-63.3	3.8	8.46e-01	0	61	104	425197568	61	29901
2026-01-19 21:23:31.84	107.52	3.97	-45.2	-63.3	3.8	8.46e-01	0	61	104	425197568	60	31701
2026-01-19 21:23:32.85	107.45	3.89	-44.8	-63.3	3.8	8.46e-01	0	61	104	425197568	60	31677
2026-01-19 21:23:33.86	107.37	3.82	-45.1	-63.3	3.8	8.46e-01	0	61	104	425197568	60	31609
2026-01-19 21:23:34.87	107.30	3.75	-45.2	-63.3	3.8	8.46e-01	0	61	104	425197568	60	31647
2026-01-19 21:23:35.88	107.23	3.68	-45.2	-63.3	3.8	8.46e-01	0	61	104	425197568	60	31648
2026-01-19 21:23:36.89	107.15	3.61	-45.2	-63.3	3.8	8.45e-01	0	61	104	425197568	60	31717
2026-01-19 21:23:37.90	107.08	3.54	-45.2	-63.3	3.8	8.46e-01	0	61	104	425197568	60	31725
2026-01-19 21:23:38.91	107.01	3.46	-45.2	-63.3	3.8	8.46e-01	0	61	104	425197568	60	31661
2026-01-19 21:23:39.92	106.94	3.39	-45.2	-63.3	3.8	8.45e-01	0	61	104	425197568	60	31633
2026-01-19 21:23:40.94	106.87	3.32	-45.2	-63.3	3.8	8.47e-01	0	61	104	425197568	60	31659
2026-01-19 21:23:41.95	106.80	3.25	-45.2	-63.3	3.8	8.47e-01	0	61	104	425197568	60	31632
2026-01-19 21:23:42.96	106.73	3.18	-45.2	-63.3	3.8	8.46e-01	0	61	104	425197568	60	31660
2026-01-19 21:23:43.97	106.66	3.11	-45.2	-63.3	3.8	8.47e-01	0	61	104	425197568	60	31601
2026-01-19 21:23:44.98	106.59	3.04	-45.2	-63.3	3.8	8.47e-01	0	61	104	425197568	60	31600
2026-01-19 21:23:45.99	106.52	2.97	-45.2	-63.3	3.8	8.45e-01	0	61	104	425197568	60	31647
2026-01-19 21:23:47.00	106.45	2.91	-45.2	-63.3	3.8	8.46e-01	0	61	104	425197568	60	31631
2026-01-19 21:23:48.01	106.39	2.84	-45.2	-63.3	3.8	8.46e-01	0	61	104	425197568	60	31638
2026-01-19 21:23:49.02	106.32	2.77	-45.2	-63.3	3.8	8.46e-01	0	61	104	425197568	60	31615
2026-01-19 21:23:50.03	106.25	2.70	-45.2	-63.3	3.8	8.46e-01	0	61	104	425197568	60	31650
2026-01-19 21:23:51.04	106.19	2.63	-45.2	-63.3	3.8	8.46e-01	0	61	104	425197568	60	31594
2026-01-19 21:23:52.05	106.12	2.56	-45.2	-63.3	3.8	8.46e-01	0	62	104	425197568	60	31674
2026-01-19 21:23:53.06	106.06	2.50	-45.2	-63.3	3.8	8.48e-01	0	61	104	425197568	60	31700
2026-01-19 21:23:54.07	105.99	2.43	-45.2	-63.3	3.8	8.46e-01	0	61	104	425197568	60	31619
2026-01-19 21:23:55.08	105.93	2.36	-45.2	-63.3	3.8	8.46e-01	0	61	104	425197568	60	31636
2026-01-19 21:23:56.10	105.86	2.29	-45.2	-63.3	3.8	8.46e-01	0	61	104	425197568	60	31618
2026-01-19 21:23:57.10	105.80	2.23	-45.2	-63.3	3.8	8.45e-01	0	61	104	425197568	60	31604
2026-01-19 21:23:58.12	105.74	2.16	-45.2	-63.3	3.8	8.45e-01	0	61	104	425197568	60	31603
2026-01-19 21:23:59.13	105.67	2.09	-45.2	-63.3	3.8	8.46e-01	0	61	104	425197568	60	31607
2026-01-19 21:24:00.13	105.61	2.03	-45.2	-63.3	3.8	8.47e-01	0	61	104	425197568	60	31620
2026-01-19 21:24:01.15	105.55	1.96	-45.2	-63.3	3.8	8.45e-01	0	61	104	425197568	60	31653
2026-01-19 21:24:02.16	105.49	1.90	-45.2	-63.3	3.8	8.45e-01	0	61	104	425197568	60	31654

#Closed at: 2026-01-19 21:24:02
#Recorded file [425 MB]: D:/lorett/data/31039_260120_001451.dat