passes_logs/2026/01/19/R2.0S_Moscow/R2.0S_Moscow__20260119_092037_NOAA_21_JPSS-2_rec.log

#Pass ID: 20260119_092037_NOAA 21 (JPSS-2)
#Satellite: NOAA 21 (JPSS-2)
#Configuration: NOAA-21
#almurnet v.1.7.20251203
#Start time: 2026-01-19 09:20:38

#Version: 2.2.20231116
#Station: R2.0S_Moscow
#Location: 37.707566 lon 55.798166 lat
#TLE: 1 54234U 22150A   26017.90260625  .00000050  00000+0  44518-4 0  9994
#TLE: 2 54234  98.7502 318.7672 0000612 269.1755  90.9351 14.19535344165221

#Time	Az	El	Level	Level2	SNR	BER	BlckErr	Temp	State	Recorded	gain1	gain2
2026-01-19 09:20:38.95	143.82	2.08	-43.7	-56.1	3.8	1.49e+00	0	53	0	0	58	15477
2026-01-19 09:20:39.95	143.80	2.15	-43.7	-56.1	3.8	1.49e+00	0	53	104	0	58	15561
2026-01-19 09:20:40.96	143.78	2.21	-43.8	-56.2	3.8	1.49e+00	0	53	104	0	58	15596
2026-01-19 09:20:41.97	143.75	2.27	-43.8	-56.1	3.8	1.49e+00	0	53	104	0	58	15527
2026-01-19 09:20:42.98	143.73	2.34	-43.8	-56.2	3.8	1.49e+00	0	53	104	0	58	15584
2026-01-19 09:20:43.99	143.71	2.40	-43.7	-56.1	3.8	1.49e+00	0	53	104	0	58	15526
2026-01-19 09:20:45.00	143.68	2.47	-43.7	-56.1	3.8	1.49e+00	0	53	104	0	58	15536
2026-01-19 09:20:46.01	143.66	2.53	-43.8	-56.1	3.8	1.49e+00	0	53	104	0	58	15530
2026-01-19 09:20:47.02	143.63	2.60	-43.8	-56.2	3.8	1.49e+00	0	54	104	0	58	15632
2026-01-19 09:20:48.03	143.61	2.67	-43.5	-56.1	3.9	1.49e+00	0	53	104	0	58	15485
2026-01-19 09:20:49.04	143.59	2.73	-43.8	-56.1	3.8	1.49e+00	0	54	104	0	58	15556
2026-01-19 09:20:50.05	143.56	2.80	-43.8	-56.1	3.8	1.49e+00	0	54	104	0	58	15556
2026-01-19 09:20:51.06	143.54	2.86	-43.8	-56.2	3.8	1.49e+00	0	54	104	0	58	15595
2026-01-19 09:20:52.07	143.51	2.93	-43.7	-56.1	3.8	1.49e+00	0	54	104	0	58	15562
2026-01-19 09:20:53.08	143.49	3.00	-43.8	-56.1	3.8	1.49e+00	0	54	104	0	58	15556
2026-01-19 09:20:54.09	143.46	3.06	-43.8	-56.1	3.8	1.49e+00	0	54	104	0	58	15523
2026-01-19 09:20:55.10	143.44	3.13	-43.6	-56.1	3.8	1.49e+00	0	54	104	0	58	15520
2026-01-19 09:20:56.12	143.41	3.20	-43.3	-56.1	3.8	1.49e+00	0	54	104	0	58	15469
2026-01-19 09:20:57.13	143.39	3.26	-43.8	-56.1	3.8	1.49e+00	0	54	104	0	58	15566
2026-01-19 09:20:58.14	143.36	3.33	-43.7	-56.1	3.8	1.49e+00	0	54	104	0	58	15555
2026-01-19 09:20:59.15	143.33	3.40	-43.7	-56.1	3.8	1.49e+00	0	54	104	0	58	15523
2026-01-19 09:21:00.16	143.31	3.46	-43.8	-56.1	3.8	1.49e+00	0	54	104	0	58	15542
2026-01-19 09:21:01.16	143.28	3.53	-43.8	-56.1	3.8	1.49e+00	0	55	104	0	58	15531
2026-01-19 09:21:02.17	143.26	3.60	-43.8	-56.1	3.8	1.49e+00	0	54	104	0	58	15566
2026-01-19 09:21:03.18	143.23	3.67	-43.7	-56.1	3.8	1.49e+00	0	54	104	0	58	15528
2026-01-19 09:21:04.19	143.21	3.73	-43.1	-56.1	3.8	1.49e+00	0	55	104	0	57	16369
2026-01-19 09:21:05.20	143.18	3.80	-43.7	-56.1	3.8	1.49e+00	0	55	104	0	58	15523
2026-01-19 09:21:06.21	143.15	3.87	-43.8	-56.2	3.8	1.49e+00	0	55	104	0	58	15584
2026-01-19 09:21:07.22	143.13	3.94	-43.8	-56.1	3.8	1.49e+00	0	55	104	0	58	15552
2026-01-19 09:21:08.23	143.10	4.01	-43.8	-56.1	3.8	1.49e+00	0	55	104	0	58	15508
2026-01-19 09:21:09.24	143.07	4.08	-43.8	-56.1	3.8	1.49e+00	0	55	104	0	58	15534
2026-01-19 09:21:10.25	143.04	4.15	-43.8	-56.1	3.8	1.49e+00	0	55	104	0	58	15547
2026-01-19 09:21:11.26	143.02	4.21	-43.8	-56.1	3.8	1.49e+00	0	55	104	0	58	15494
2026-01-19 09:21:12.27	142.99	4.28	-43.7	-56.1	3.8	1.49e+00	0	55	104	0	58	15488
2026-01-19 09:21:13.28	142.96	4.35	-43.8	-56.1	3.8	1.49e+00	0	55	104	0	58	15531
2026-01-19 09:21:14.29	142.94	4.42	-43.8	-56.1	3.8	1.49e+00	0	55	104	0	58	15523
2026-01-19 09:21:15.30	142.91	4.49	-43.8	-56.1	3.8	1.49e+00	0	55	104	0	58	15491
2026-01-19 09:21:16.31	142.88	4.56	-43.5	-56.1	3.8	1.49e+00	0	55	104	0	58	15422
2026-01-19 09:21:17.32	142.85	4.63	-43.8	-56.1	3.8	1.49e+00	0	55	104	0	58	15533
2026-01-19 09:21:18.33	142.82	4.70	-43.8	-56.1	3.8	1.49e+00	0	55	104	0	58	15495
2026-01-19 09:21:19.34	142.80	4.77	-43.5	-56.1	3.8	1.49e+00	0	56	104	0	58	15441
2026-01-19 09:21:20.35	142.77	4.84	-43.7	-56.0	3.8	1.49e+00	0	56	104	0	58	15376
2026-01-19 09:21:21.36	142.74	4.92	-43.8	-56.1	3.8	1.49e+00	0	56	104	0	58	15441
2026-01-19 09:21:22.37	142.71	4.99	-43.7	-56.0	3.8	1.49e+00	0	56	104	0	58	15339
2026-01-19 09:21:23.38	142.68	5.06	-43.5	-55.9	3.8	1.49e+00	0	56	104	0	57	16098
2026-01-19 09:21:24.39	142.65	5.13	-43.7	-55.9	3.8	1.49e+00	0	56	104	0	57	16014
2026-01-19 09:21:25.40	142.62	5.20	-43.7	-55.8	3.8	1.49e+00	0	56	104	0	58	15040
2026-01-19 09:21:26.41	142.59	5.27	-43.8	-55.8	3.8	1.49e+00	0	56	104	0	58	14940
2026-01-19 09:21:27.42	142.56	5.34	-43.7	-55.7	3.8	1.49e+00	0	56	104	0	58	14765
2026-01-19 09:21:28.44	142.53	5.42	-43.6	-55.7	3.8	1.49e+00	0	56	104	0	58	14720
2026-01-19 09:21:29.45	142.50	5.49	-43.7	-55.6	3.8	1.49e+00	0	56	104	0	58	14564
2026-01-19 09:21:30.46	142.47	5.56	-43.7	-55.6	3.8	1.49e+00	0	56	104	0	58	14570
2026-01-19 09:21:31.47	142.44	5.64	-43.6	-55.4	3.8	1.49e+00	0	56	104	0	58	14324
2026-01-19 09:21:32.48	142.41	5.71	-43.5	-55.1	3.8	1.49e+00	0	56	104	0	57	14645
2026-01-19 09:21:33.49	142.38	5.78	-43.6	-54.8	3.8	1.49e+00	0	56	104	0	57	14163
2026-01-19 09:21:34.50	142.35	5.85	-43.6	-54.3	3.8	1.49e+00	0	56	104	0	57	13397
2026-01-19 09:21:35.51	142.32	5.93	-43.3	-53.9	3.9	1.49e+00	0	56	104	0	57	12727
2026-01-19 09:21:36.52	142.29	6.00	-43.4	-53.8	3.8	1.48e+00	0	57	104	0	57	12579
2026-01-19 09:21:37.53	142.26	6.08	-43.5	-53.1	4.1	1.48e+00	0	57	104	0	57	11649
2026-01-19 09:21:38.54	142.23	6.15	-43.4	-53.3	3.9	1.46e+00	0	56	104	0	57	11820
2026-01-19 09:21:39.55	142.20	6.22	-43.2	-52.9	4.1	1.47e+00	0	56	104	0	57	11321
2026-01-19 09:21:40.56	142.16	6.30	-43.4	-52.5	3.9	1.47e+00	0	57	104	0	57	10884
2026-01-19 09:21:41.57	142.13	6.37	-43.4	-52.5	4.2	1.47e+00	0	57	104	0	57	10860
2026-01-19 09:21:42.58	142.10	6.45	-43.4	-52.3	3.9	1.44e+00	0	57	104	0	57	10639
2026-01-19 09:21:43.59	142.07	6.52	-43.0	-52.4	4.2	1.46e+00	0	57	104	0	57	10747
2026-01-19 09:21:44.60	142.04	6.60	-43.4	-53.0	3.9	1.47e+00	0	57	104	0	57	11439
2026-01-19 09:21:45.61	142.00	6.68	-43.4	-52.9	4.1	1.46e+00	0	57	104	0	57	11330
2026-01-19 09:21:46.62	141.97	6.75	-43.4	-53.7	3.9	1.48e+00	0	57	104	0	57	12519
2026-01-19 09:21:47.63	141.94	6.83	-43.5	-54.4	3.8	1.49e+00	0	57	104	0	57	13504
2026-01-19 09:21:48.64	141.90	6.90	-43.5	-54.9	3.8	1.49e+00	0	57	104	0	57	14232
2026-01-19 09:21:49.65	141.87	6.98	-43.7	-55.3	3.8	1.49e+00	0	57	104	0	57	14968
2026-01-19 09:21:50.66	141.84	7.06	-43.7	-55.5	3.8	1.49e+00	0	57	104	0	57	15241
2026-01-19 09:21:51.67	141.80	7.13	-43.6	-55.0	3.8	1.49e+00	0	57	104	0	57	14479
2026-01-19 09:21:52.68	141.77	7.21	-43.5	-54.6	3.8	1.49e+00	0	57	104	0	57	13731
2026-01-19 09:21:53.69	141.73	7.29	-43.4	-53.4	3.9	1.48e+00	0	57	104	0	57	12072
2026-01-19 09:21:54.70	141.70	7.37	-43.2	-51.4	4.6	1.43e+00	3	57	104	0	57	9507
2026-01-19 09:21:55.71	141.67	7.44	-42.6	-49.9	5.4	5.79e-01	0	58	0	1048576	56	8485
2026-01-19 09:21:56.72	141.63	7.52	-42.7	-49.0	6.0	4.21e-01	0	57	0	4194304	56	7714
2026-01-19 09:21:57.73	141.60	7.60	-42.4	-47.9	6.9	1.84e-01	0	57	0	7340032	56	6794
2026-01-19 09:21:58.74	141.56	7.68	-42.0	-47.0	7.8	9.25e-02	0	58	0	10485760	56	6079
2026-01-19 09:21:59.75	141.53	7.76	-41.4	-46.1	8.4	4.58e-02	0	57	0	13631488	54	6200
2026-01-19 09:22:00.76	141.49	7.84	-41.4	-45.7	8.9	3.12e-02	0	57	0	16777216	54	5888
2026-01-19 09:22:01.77	141.46	7.91	-41.1	-45.0	9.6	1.51e-02	0	57	0	19922944	54	5445
2026-01-19 09:22:02.78	141.42	7.99	-41.0	-44.9	9.8	1.14e-02	0	57	0	23068672	53	5673
2026-01-19 09:22:03.79	141.38	8.07	-43.8	-53.9	3.9	1.20e+00	0	58	104	25165824	58	12014
2026-01-19 09:22:04.80	141.35	8.15	-43.7	-53.8	3.9	1.49e+00	0	58	104	25165824	58	11913
2026-01-19 09:22:05.81	141.31	8.23	-41.3	-45.5	9.1	7.94e-03	0	58	0	26214400	53	6086
2026-01-19 09:22:06.82	141.27	8.31	-42.9	-50.0	5.5	2.14e-01	0	58	0	29360128	56	8596
2026-01-19 09:22:07.83	141.24	8.40	-42.4	-48.8	6.1	1.68e-02	0	58	0	30408704	55	7931
2026-01-19 09:22:08.84	141.20	8.48	-41.2	-45.2	9.2	2.30e-01	0	58	0	31457280	53	5922
2026-01-19 09:22:09.85	141.16	8.56	-41.0	-44.8	9.8	1.10e-02	0	58	0	34603008	52	5929
2026-01-19 09:22:10.86	141.12	8.64	-40.9	-44.6	10.0	7.55e-03	0	58	0	37748736	52	5797
2026-01-19 09:22:11.87	141.09	8.72	-40.6	-44.5	10.0	8.07e-03	0	58	0	40894464	52	5762
2026-01-19 09:22:12.88	141.05	8.80	-40.8	-44.5	10.2	6.55e-03	0	58	0	44040192	52	5723
2026-01-19 09:22:13.89	141.01	8.88	-40.7	-44.2	10.4	4.49e-03	0	58	0	47185920	52	5569
2026-01-19 09:22:14.90	140.97	8.97	-40.7	-44.2	10.5	4.07e-03	0	58	0	50331648	52	5540
2026-01-19 09:22:15.91	140.93	9.05	-40.6	-44.4	10.1	1.03e-02	0	58	0	54525952	52	5687
2026-01-19 09:22:16.91	140.89	9.13	-40.5	-44.3	10.3	6.31e-03	0	58	0	57671680	52	5609
2026-01-19 09:22:17.92	140.85	9.21	-40.5	-43.8	10.8	2.81e-03	0	58	0	59768832	52	5320
2026-01-19 09:22:18.93	140.82	9.30	-40.6	-44.2	10.4	4.32e-03	0	58	0	62914560	52	5533
2026-01-19 09:22:19.94	140.78	9.38	-40.3	-44.1	10.3	1.81e-02	0	58	0	66060288	52	5514
2026-01-19 09:22:20.95	140.74	9.47	-40.6	-44.0	10.8	8.88e-03	0	58	0	70254592	51	5766
2026-01-19 09:22:21.96	140.70	9.55	-40.6	-44.0	10.8	3.12e-03	0	58	0	73400320	51	5734
2026-01-19 09:22:22.97	140.65	9.63	-40.3	-43.9	10.9	2.40e-03	0	58	0	76546048	51	5691
2026-01-19 09:22:23.98	140.61	9.72	-40.4	-44.0	10.7	5.58e-03	0	58	0	79691776	51	5763
2026-01-19 09:22:24.99	140.57	9.80	-40.6	-44.0	10.8	4.05e-03	0	58	0	81788928	51	5747
2026-01-19 09:22:26.00	140.53	9.89	-40.3	-43.7	10.9	3.84e-03	0	58	0	84934656	51	5565
2026-01-19 09:22:27.01	140.49	9.98	-40.1	-44.0	10.6	3.24e-03	0	58	0	89128960	51	5750
2026-01-19 09:22:28.02	140.45	10.06	-40.4	-44.0	10.3	7.42e-03	0	59	0	92274688	52	5463
2026-01-19 09:22:29.03	140.41	10.15	-40.6	-44.0	10.8	5.19e-03	0	58	0	95420416	51	5751
2026-01-19 09:22:30.03	140.36	10.23	-40.6	-44.0	10.5	3.78e-03	0	59	0	98566144	51	5730
2026-01-19 09:22:31.04	140.32	10.32	-40.6	-43.9	10.8	9.16e-03	0	58	0	101711872	51	5702
2026-01-19 09:22:32.06	140.28	10.41	-40.4	-43.7	10.3	8.26e-03	0	59	0	104857600	51	5548
2026-01-19 09:22:33.07	140.24	10.50	-40.9	-43.9	10.4	8.60e-03	0	59	0	108003328	51	5662
2026-01-19 09:22:34.08	140.19	10.58	-39.9	-43.8	9.2	2.64e-02	0	59	0	111149056	49	6306
2026-01-19 09:22:35.09	140.15	10.67	-39.9	-43.6	10.7	3.61e-02	0	58	0	114294784	51	5524
2026-01-19 09:22:36.10	140.10	10.76	-38.8	-43.6	9.8	3.21e-02	0	59	0	117440512	49	6133
2026-01-19 09:22:37.11	140.06	10.85	-38.6	-43.4	10.0	9.37e-02	0	59	0	120586240	49	6024
2026-01-19 09:22:38.12	140.02	10.94	-38.5	-43.3	9.0	1.02e-01	0	59	0	123731968	48	6322
2026-01-19 09:22:39.13	139.97	11.03	-39.6	-43.5	10.7	5.78e-03	0	59	0	126877696	51	5415
2026-01-19 09:22:40.14	139.93	11.12	-39.6	-43.6	10.5	3.33e-02	0	59	0	130023424	50	5826
2026-01-19 09:22:41.15	139.88	11.21	-39.1	-43.3	9.8	8.37e-02	0	59	0	133169152	49	5960
2026-01-19 09:22:42.16	139.84	11.30	-39.2	-43.4	10.2	1.43e-01	0	59	0	136314880	49	5998
2026-01-19 09:22:43.17	139.79	11.39	-40.2	-43.3	11.4	8.18e-02	0	59	0	139460608	51	5324
2026-01-19 09:22:44.18	139.74	11.48	-40.1	-43.2	10.9	1.32e-01	0	59	0	142606336	50	5553
2026-01-19 09:22:45.19	139.70	11.57	-37.8	-42.9	9.2	1.01e-01	0	59	0	145752064	47	6394
2026-01-19 09:22:46.21	139.65	11.66	-36.5	-42.7	9.4	7.12e-02	0	59	0	148897792	48	5870
2026-01-19 09:22:47.22	139.60	11.75	-34.8	-42.4	9.3	1.01e-01	0	59	0	152043520	45	6753
2026-01-19 09:22:48.23	139.56	11.84	-39.6	-43.0	11.4	2.92e-01	0	59	0	155189248	49	5763
2026-01-19 09:22:49.24	139.51	11.94	-38.3	-42.9	8.1	6.16e-02	7	59	0	158334976	47	6355
2026-01-19 09:22:50.25	139.46	12.03	-39.9	-42.9	11.8	5.66e-02	0	59	0	161480704	50	5397
2026-01-19 09:22:51.26	139.41	12.12	-38.4	-43.0	11.8	4.69e-02	0	59	0	164626432	49	5770
2026-01-19 09:22:52.27	139.36	12.22	-36.2	-42.5	8.8	4.03e-02	0	59	0	167772160	46	6428
2026-01-19 09:22:53.28	139.31	12.31	-39.7	-42.8	11.2	4.05e-02	0	59	0	170917888	47	6327
2026-01-19 09:22:54.28	139.26	12.40	-37.4	-42.3	9.3	8.66e-02	0	59	0	174063616	46	6330
2026-01-19 09:22:55.30	139.21	12.50	-38.2	-42.5	9.6	2.32e-01	0	59	0	177209344	42	8111
2026-01-19 09:22:56.31	139.16	12.59	-37.3	-42.4	9.8	1.41e-02	0	59	0	180355072	45	6789
2026-01-19 09:22:57.32	139.11	12.69	-39.6	-42.8	11.9	6.86e-03	0	59	0	183500800	50	5312
2026-01-19 09:22:58.33	139.06	12.78	-39.9	-42.8	11.8	2.55e-02	0	59	0	186646528	48	5974
2026-01-19 09:22:59.34	139.01	12.88	-37.9	-42.7	11.5	6.12e-02	0	59	0	189792256	48	5898
2026-01-19 09:23:00.35	138.96	12.97	-36.5	-42.5	11.8	1.18e-01	0	59	0	192937984	49	5439
2026-01-19 09:23:01.36	138.91	13.07	-36.7	-42.7	12.0	6.40e-02	0	59	0	196083712	50	5230
2026-01-19 09:23:02.36	138.86	13.17	-38.3	-42.2	9.0	9.93e-02	0	59	0	199229440	40	8803
2026-01-19 09:23:03.38	138.80	13.26	-32.9	-41.8	8.4	9.75e-02	0	59	0	202375168	41	7957
2026-01-19 09:23:04.39	138.75	13.36	-39.3	-42.6	10.2	1.59e-01	0	59	0	205520896	45	6930
2026-01-19 09:23:05.40	138.70	13.46	-38.7	-42.7	12.3	2.15e-02	0	59	0	208666624	50	5257
2026-01-19 09:23:06.41	138.64	13.56	-39.7	-42.9	11.3	1.21e-02	0	59	0	211812352	48	5996
2026-01-19 09:23:07.42	138.59	13.66	-34.4	-41.9	8.0	1.82e-01	0	59	0	214958080	39	9020
2026-01-19 09:23:08.43	138.54	13.76	-39.7	-42.5	11.5	6.37e-01	40	59	0	218103808	36	11446
2026-01-19 09:23:09.44	138.48	13.86	-30.2	-40.9	6.4	6.98e-01	30	59	0	221249536	33	11336
2026-01-19 09:23:10.45	138.43	13.96	-39.6	-42.7	12.0	6.46e-03	0	59	0	224395264	49	5568
2026-01-19 09:23:11.46	138.37	14.06	-37.2	-42.8	6.8	3.68e-01	36	59	0	227540992	37	11242
2026-01-19 09:23:12.47	138.31	14.16	-39.5	-42.8	12.3	4.26e-01	0	59	0	230686720	50	5291
2026-01-19 09:23:13.48	138.26	14.26	-39.7	-42.8	12.4	3.17e-02	0	60	0	233832448	50	5324
2026-01-19 09:23:14.49	138.20	14.36	-37.6	-42.6	10.9	7.28e-02	0	60	0	236978176	45	6934
2026-01-19 09:23:15.50	138.14	14.46	-32.1	-41.6	8.0	4.64e-02	23	59	0	240123904	38	9276
2026-01-19 09:23:16.51	138.09	14.56	-40.0	-42.8	11.6	3.14e-01	0	60	0	243269632	49	5607
2026-01-19 09:23:17.52	138.03	14.67	-39.8	-42.7	11.6	7.86e-02	0	60	0	246415360	49	5571
2026-01-19 09:23:18.53	137.97	14.77	-37.4	-42.7	9.5	1.44e-01	0	60	0	249561088	46	6604
2026-01-19 09:23:19.54	137.91	14.87	-34.4	-42.0	7.7	2.81e-01	0	59	0	252706816	40	8651
2026-01-19 09:23:20.55	137.85	14.98	-37.0	-42.6	8.6	3.26e-01	13	60	0	254803968	49	5492
2026-01-19 09:23:21.56	137.79	15.08	-33.2	-41.9	9.0	1.71e-01	39	59	0	257949696	44	6751
2026-01-19 09:23:22.57	137.73	15.18	-37.4	-42.6	7.5	2.12e-01	8	60	0	261095424	37	11013
2026-01-19 09:23:23.58	137.67	15.29	-36.9	-42.5	8.9	3.18e-01	3	60	0	264241152	45	6831
2026-01-19 09:23:24.59	137.61	15.39	-33.5	-42.1	7.7	4.20e-01	25	60	0	267386880	40	8664
2026-01-19 09:23:25.60	137.55	15.50	-40.3	-43.1	11.6	9.36e-02	0	60	0	271581184	51	5179
2026-01-19 09:23:26.61	137.49	15.61	-40.6	-43.4	11.5	2.59e-02	0	60	0	274726912	51	5392
2026-01-19 09:23:27.62	137.43	15.71	-40.2	-43.0	11.2	1.30e-01	0	60	0	276824064	50	5439
2026-01-19 09:23:28.63	137.36	15.82	-35.0	-42.4	9.1	1.57e-01	0	60	0	279969792	45	6754
2026-01-19 09:23:29.64	137.30	15.93	-40.0	-43.1	11.6	5.94e-02	0	60	0	283115520	50	5488
2026-01-19 09:23:30.66	137.24	16.04	-40.4	-43.2	12.4	1.30e-02	0	60	0	287309824	51	5263
2026-01-19 09:23:31.67	137.17	16.15	-34.9	-42.3	9.3	1.21e-01	0	60	0	290455552	45	6706
2026-01-19 09:23:32.68	137.11	16.25	-40.4	-43.0	12.6	1.05e-01	0	60	0	293601280	51	5128
2026-01-19 09:23:33.69	137.04	16.36	-40.3	-43.0	11.6	7.56e-03	0	60	0	296747008	49	5755
2026-01-19 09:23:34.70	136.98	16.47	-40.2	-42.8	12.9	1.23e-02	0	60	0	298844160	51	5006
2026-01-19 09:23:35.71	136.91	16.58	-39.3	-42.7	9.9	9.14e-02	0	60	0	303038464	46	6638
2026-01-19 09:23:36.72	136.84	16.69	-37.7	-42.7	10.3	8.53e-02	0	60	0	306184192	47	6238
2026-01-19 09:23:37.73	136.78	16.81	-40.1	-42.9	12.8	5.98e-04	0	60	0	309329920	51	5083
2026-01-19 09:23:38.74	136.71	16.92	-40.3	-43.1	12.8	3.11e-03	0	60	0	312475648	51	5171
2026-01-19 09:23:39.75	136.64	17.03	-40.6	-43.3	11.3	7.57e-02	0	60	0	315621376	49	5982
2026-01-19 09:23:40.76	136.57	17.14	-40.2	-43.0	12.9	2.32e-04	0	60	0	318767104	51	5102
2026-01-19 09:23:41.77	136.50	17.26	-40.4	-43.1	12.7	1.27e-04	0	60	0	321912832	51	5183
2026-01-19 09:23:42.78	136.43	17.37	-40.5	-43.2	12.7	9.61e-05	0	60	0	325058560	51	5250
2026-01-19 09:23:43.79	136.36	17.48	-40.2	-43.1	11.8	2.62e-02	0	60	0	328204288	50	5522
2026-01-19 09:23:44.80	136.29	17.60	-40.6	-43.3	11.8	1.26e-02	0	60	0	331350016	51	5336
2026-01-19 09:23:45.81	136.22	17.71	-40.4	-43.2	12.6	9.32e-04	0	60	0	334495744	51	5253
2026-01-19 09:23:46.83	136.15	17.83	-40.6	-43.3	12.6	2.74e-03	0	60	0	337641472	51	5336
2026-01-19 09:23:47.84	136.07	17.95	-39.0	-43.1	11.1	1.63e-02	0	60	0	340787200	49	5790
2026-01-19 09:23:48.85	136.00	18.06	-39.9	-43.1	11.8	1.29e-02	0	60	0	343932928	50	5522
2026-01-19 09:23:49.85	135.93	18.18	-40.6	-43.2	12.7	9.99e-05	0	60	0	347078656	51	5276
2026-01-19 09:23:50.86	135.85	18.30	-40.5	-43.3	12.6	5.43e-03	0	60	0	350224384	51	5288
2026-01-19 09:23:51.87	135.78	18.41	-40.5	-43.4	12.1	6.84e-03	0	60	0	353370112	51	5359
2026-01-19 09:23:52.88	135.70	18.53	-40.2	-43.5	12.4	2.97e-03	0	60	0	356515840	51	5404
2026-01-19 09:23:53.89	135.63	18.65	-40.7	-43.4	12.5	3.11e-04	0	60	0	359661568	52	5058
2026-01-19 09:23:54.90	135.55	18.77	-40.8	-43.5	12.4	2.02e-04	0	60	0	362807296	52	5145
2026-01-19 09:23:55.91	135.47	18.89	-40.2	-43.3	12.5	1.21e-03	0	60	0	365953024	51	5300
2026-01-19 09:23:56.92	135.40	19.01	-40.7	-43.4	12.6	1.30e-04	0	60	0	369098752	51	5375
2026-01-19 09:23:57.93	135.32	19.13	-40.7	-43.4	12.6	1.14e-04	0	60	0	372244480	51	5375
2026-01-19 09:23:58.94	135.24	19.25	-40.7	-43.4	12.6	9.46e-05	0	60	0	375390208	51	5371
2026-01-19 09:23:59.95	135.16	19.38	-40.6	-43.3	12.7	1.14e-04	0	60	0	378535936	51	5310
2026-01-19 09:24:00.96	135.08	19.50	-40.6	-43.1	12.9	5.87e-05	0	60	0	381681664	51	5216
2026-01-19 09:24:01.98	134.99	19.62	-40.5	-43.0	13.0	1.04e-04	0	60	0	384827392	51	5142
2026-01-19 09:24:02.99	134.91	19.75	-40.4	-43.0	13.1	3.43e-05	0	60	0	387973120	51	5123
2026-01-19 09:24:04.00	134.83	19.87	-40.3	-42.9	13.1	3.66e-05	0	60	0	391118848	51	5052
2026-01-19 09:24:05.01	134.75	20.00	-40.4	-43.0	13.1	2.89e-05	0	60	0	394264576	51	5122
2026-01-19 09:24:06.02	134.66	20.12	-40.5	-43.0	13.1	3.89e-05	0	60	0	397410304	51	5132
2026-01-19 09:24:07.03	134.58	20.25	-40.5	-43.0	13.1	3.43e-05	0	60	0	400556032	51	5121
2026-01-19 09:24:08.04	134.49	20.38	-40.3	-42.8	13.2	2.13e-05	0	60	0	403701760	51	5024
2026-01-19 09:24:09.05	134.41	20.50	-40.3	-42.8	13.3	1.75e-05	0	60	0	406847488	51	5000
2026-01-19 09:24:10.06	134.32	20.63	-40.3	-42.7	13.4	1.22e-05	0	61	0	409993216	51	4935
2026-01-19 09:24:11.07	134.23	20.76	-40.3	-42.7	13.4	1.52e-05	0	60	0	413138944	51	4941
2026-01-19 09:24:12.08	134.14	20.89	-40.2	-42.6	13.5	9.90e-06	0	60	0	416284672	51	4911
2026-01-19 09:24:13.09	134.05	21.02	-40.1	-42.4	13.7	8.30e-06	0	60	0	419430400	51	4791
2026-01-19 09:24:14.10	133.96	21.15	-40.1	-42.4	13.7	7.60e-06	0	60	0	422576128	51	4775
2026-01-19 09:24:15.11	133.87	21.28	-39.9	-42.2	13.9	6.80e-06	0	60	0	425721856	51	4683
2026-01-19 09:24:16.12	133.78	21.41	-39.9	-42.2	13.9	7.00e-07	0	60	0	428867584	51	4680
2026-01-19 09:24:17.13	133.69	21.54	-40.0	-42.2	13.9	6.10e-06	0	60	0	432013312	51	4696
2026-01-19 09:24:18.14	133.60	21.67	-39.8	-42.1	14.1	7.00e-07	0	60	0	435159040	51	4608
2026-01-19 09:24:19.15	133.50	21.81	-39.7	-41.9	14.2	2.20e-06	0	61	0	438304768	51	4517
2026-01-19 09:24:20.16	133.41	21.94	-39.7	-41.8	14.3	1.50e-06	0	60	0	441450496	51	4477
2026-01-19 09:24:21.17	133.31	22.08	-39.7	-41.9	14.3	7.00e-07	0	60	0	444596224	50	4770
2026-01-19 09:24:22.18	133.21	22.21	-39.6	-41.7	14.4	0.00e+00	0	61	0	447741952	50	4696
2026-01-19 09:24:23.19	133.12	22.35	-39.6	-41.7	14.4	0.00e+00	0	61	0	450887680	50	4702
2026-01-19 09:24:24.20	133.02	22.48	-39.5	-41.6	14.6	0.00e+00	0	60	0	454033408	50	4625
2026-01-19 09:24:25.21	132.92	22.62	-39.5	-41.5	14.6	0.00e+00	0	60	0	457179136	50	4587
2026-01-19 09:24:26.22	132.82	22.76	-39.4	-41.5	14.7	1.50e-06	0	61	0	460324864	50	4570
2026-01-19 09:24:27.23	132.72	22.90	-39.4	-41.5	14.6	0.00e+00	0	60	0	463470592	50	4561
2026-01-19 09:24:28.23	132.62	23.03	-39.5	-41.5	14.6	0.00e+00	0	61	0	466616320	50	4595
2026-01-19 09:24:29.24	132.51	23.17	-39.6	-41.6	14.5	0.00e+00	0	60	0	469762048	50	4651
2026-01-19 09:24:30.25	132.41	23.31	-39.4	-41.5	14.7	0.00e+00	0	60	0	472907776	50	4561
2026-01-19 09:24:31.26	132.31	23.45	-39.5	-41.6	14.6	0.00e+00	0	61	0	476053504	50	4605
2026-01-19 09:24:32.27	132.20	23.60	-39.5	-41.6	14.5	1.50e-06	0	60	0	479199232	50	4626
2026-01-19 09:24:33.28	132.09	23.74	-39.6	-41.7	14.4	0.00e+00	0	61	0	482344960	50	4703
2026-01-19 09:24:34.29	131.99	23.88	-39.7	-41.8	14.4	0.00e+00	0	61	0	485490688	50	4731
2026-01-19 09:24:35.30	131.88	24.02	-39.7	-41.9	14.3	7.00e-07	0	61	0	488636416	50	4794
2026-01-19 09:24:36.31	131.77	24.17	-39.8	-42.0	14.2	2.20e-06	0	61	0	491782144	50	4839
2026-01-19 09:24:37.32	131.66	24.31	-39.9	-42.1	14.1	2.20e-06	0	60	0	494927872	50	4924
2026-01-19 09:24:38.33	131.54	24.46	-39.9	-42.1	14.1	7.00e-07	0	61	0	498073600	50	4918
2026-01-19 09:24:39.34	131.43	24.61	-39.8	-42.2	14.0	2.20e-06	0	61	0	501219328	50	4928
2026-01-19 09:24:40.35	131.32	24.75	-39.9	-42.2	14.1	1.06e-05	0	61	0	504365056	50	4931
2026-01-19 09:24:41.36	131.20	24.90	-39.9	-42.1	14.1	1.06e-05	0	61	0	507510784	50	4906
2026-01-19 09:24:42.37	131.09	25.05	-39.9	-42.1	14.1	1.50e-06	0	61	0	510656512	50	4902
2026-01-19 09:24:43.38	130.97	25.20	-39.9	-42.1	14.2	7.00e-07	0	61	0	513802240	50	4881
2026-01-19 09:24:44.39	130.85	25.35	-39.8	-42.0	14.2	7.00e-07	0	61	0	516947968	50	4853
2026-01-19 09:24:45.40	130.73	25.50	-39.9	-42.1	14.2	1.50e-06	0	61	0	520093696	50	4897
2026-01-19 09:24:46.41	130.61	25.65	-39.9	-42.1	14.2	2.20e-06	0	61	0	523239424	50	4886
2026-01-19 09:24:47.41	130.49	25.80	-39.9	-42.2	14.0	3.00e-06	0	61	0	526385152	50	4940
2026-01-19 09:24:48.42	130.37	25.95	-40.0	-42.3	14.0	1.75e-05	0	61	0	529530880	50	5010
2026-01-19 09:24:49.43	130.24	26.11	-40.0	-42.3	14.0	5.30e-06	0	61	0	532676608	50	5003
2026-01-19 09:24:50.44	130.12	26.26	-40.1	-42.3	13.9	4.50e-06	0	61	0	535822336	50	5034
2026-01-19 09:24:51.45	129.99	26.42	-40.1	-42.4	13.6	4.11e-05	0	61	0	538968064	50	5100
2026-01-19 09:24:52.46	129.86	26.57	-40.2	-42.6	13.7	3.58e-05	0	61	0	542113792	51	4872
2026-01-19 09:24:53.47	129.73	26.73	-40.3	-42.7	13.6	8.30e-06	0	61	0	545259520	51	4941
2026-01-19 09:24:54.49	129.60	26.89	-40.4	-42.8	13.4	1.14e-05	0	61	0	548405248	51	5012
2026-01-19 09:24:55.49	129.47	27.04	-40.3	-42.9	13.3	2.59e-05	0	61	0	551550976	51	5051
2026-01-19 09:24:56.51	129.34	27.20	-40.5	-43.0	13.3	2.05e-05	0	61	0	554696704	51	5113
2026-01-19 09:24:57.52	129.20	27.36	-40.5	-43.0	13.3	1.98e-05	0	61	0	557842432	51	5109
2026-01-19 09:24:58.53	129.07	27.52	-40.6	-43.1	13.2	2.36e-05	0	61	0	560988160	51	5202
2026-01-19 09:24:59.54	128.93	27.68	-40.5	-43.0	13.2	3.20e-05	0	61	0	564133888	51	5159
2026-01-19 09:25:00.55	128.79	27.84	-40.6	-43.0	13.2	3.43e-05	0	61	0	567279616	51	5146
2026-01-19 09:25:01.55	128.65	28.00	-40.5	-43.0	13.2	2.97e-05	0	61	0	570425344	51	5156
2026-01-19 09:25:02.56	128.51	28.17	-40.5	-42.9	13.4	1.22e-05	0	61	0	573571072	51	5070
2026-01-19 09:25:03.57	128.37	28.33	-40.4	-42.8	13.4	1.52e-05	0	61	0	576716800	51	5024
2026-01-19 09:25:04.58	128.22	28.50	-40.4	-42.8	13.4	1.83e-05	0	61	0	579862528	51	5040
2026-01-19 09:25:05.59	128.07	28.66	-40.4	-42.8	13.4	1.67e-05	0	61	0	583008256	51	5003
2026-01-19 09:25:06.60	127.93	28.83	-40.5	-42.9	13.4	1.29e-05	0	61	0	587202560	51	5076
2026-01-19 09:25:07.61	127.78	28.99	-40.4	-42.8	13.4	1.75e-05	0	61	0	590348288	51	5022
2026-01-19 09:25:08.62	127.63	29.16	-40.5	-42.9	13.3	1.60e-05	0	61	0	592445440	51	5061
2026-01-19 09:25:09.63	127.47	29.33	-40.6	-43.0	13.2	2.36e-05	0	61	0	595591168	51	5159
2026-01-19 09:25:10.64	127.32	29.50	-40.5	-42.9	13.3	1.14e-05	0	61	0	598736896	51	5076
2026-01-19 09:25:11.65	127.16	29.67	-40.5	-42.9	13.4	8.30e-06	0	61	0	602931200	51	5060
2026-01-19 09:25:12.66	127.01	29.84	-40.5	-42.9	13.4	1.44e-05	0	61	0	606076928	51	5081
2026-01-19 09:25:13.67	126.85	30.01	-40.4	-42.8	13.5	1.67e-05	0	61	0	609222656	51	5004
2026-01-19 09:25:14.68	126.69	30.18	-40.4	-42.8	13.5	6.10e-06	0	61	0	612368384	51	5005
2026-01-19 09:25:15.69	126.52	30.36	-40.3	-42.7	13.6	5.30e-06	0	61	0	615514112	51	4931
2026-01-19 09:25:16.70	126.36	30.53	-40.4	-42.8	13.5	1.06e-05	0	61	0	618659840	51	5001
2026-01-19 09:25:17.71	126.19	30.71	-40.2	-42.5	13.9	3.80e-06	0	61	0	621805568	51	4815
2026-01-19 09:25:18.72	126.03	30.88	-40.0	-42.2	14.1	3.00e-06	0	61	0	624951296	51	4674
2026-01-19 09:25:19.73	125.86	31.06	-40.0	-42.2	14.1	3.80e-06	0	61	0	628097024	51	4689
2026-01-19 09:25:20.75	125.68	31.24	-40.1	-42.3	14.1	3.80e-06	0	61	0	631242752	51	4710
2026-01-19 09:25:21.75	125.51	31.41	-40.1	-42.3	14.0	2.20e-06	0	61	0	634388480	51	4728
2026-01-19 09:25:22.76	125.33	31.59	-40.2	-42.5	13.8	3.80e-06	0	61	0	637534208	51	4817
2026-01-19 09:25:23.77	125.16	31.77	-40.3	-42.6	13.6	3.80e-06	0	61	0	640679936	51	4916
2026-01-19 09:25:24.78	124.98	31.95	-40.4	-42.7	13.6	1.60e-05	0	61	0	643825664	51	4973
2026-01-19 09:25:25.79	124.80	32.13	-40.5	-42.9	13.4	1.29e-05	0	61	0	646971392	51	5052
2026-01-19 09:25:26.80	124.61	32.31	-40.5	-43.0	13.4	8.30e-06	0	61	0	650117120	51	5103
2026-01-19 09:25:27.81	124.43	32.49	-40.5	-42.9	13.5	1.37e-05	0	61	0	653262848	51	5050
2026-01-19 09:25:28.82	124.24	32.68	-40.5	-42.9	13.5	9.90e-06	0	61	0	656408576	51	5053
2026-01-19 09:25:29.83	124.05	32.86	-40.5	-43.0	13.4	2.13e-05	0	61	0	659554304	51	5109
2026-01-19 09:25:30.84	123.86	33.05	-40.3	-42.7	13.7	4.50e-06	0	61	0	662700032	51	4948
2026-01-19 09:25:31.85	123.66	33.23	-40.4	-42.8	13.6	5.30e-06	0	61	0	665845760	51	4994
2026-01-19 09:25:32.86	123.46	33.42	-40.4	-42.8	13.6	1.22e-05	0	61	0	668991488	51	5019
2026-01-19 09:25:33.87	123.26	33.60	-40.5	-42.9	13.4	1.06e-05	0	61	0	672137216	51	5075
2026-01-19 09:25:34.88	123.06	33.79	-40.6	-43.0	13.3	1.29e-05	0	61	0	675282944	51	5141
2026-01-19 09:25:35.89	122.86	33.98	-40.7	-43.3	13.0	2.97e-05	0	61	0	678428672	52	4984
2026-01-19 09:25:36.90	122.65	34.17	-40.8	-43.4	12.9	4.95e-05	0	61	0	681574400	52	5043
2026-01-19 09:25:37.91	122.45	34.36	-41.0	-43.8	12.5	1.10e-04	0	61	0	684720128	52	5291
2026-01-19 09:25:38.92	122.23	34.55	-41.1	-43.9	12.4	1.36e-04	0	61	0	687865856	52	5347
2026-01-19 09:25:39.93	122.02	34.74	-41.2	-44.0	12.2	2.00e-04	0	61	0	691011584	53	5156
2026-01-19 09:25:40.94	121.80	34.93	-41.2	-43.9	12.4	1.85e-04	0	61	0	694157312	53	5099
2026-01-19 09:25:41.95	121.59	35.13	-41.2	-44.0	12.3	1.46e-04	0	61	0	697303040	53	5111
2026-01-19 09:25:42.96	121.36	35.32	-41.1	-43.9	12.4	1.70e-04	0	61	0	700448768	53	5047
2026-01-19 09:25:43.96	121.14	35.51	-41.0	-43.7	12.6	9.84e-05	0	61	0	703594496	53	4945
2026-01-19 09:25:44.97	120.92	35.71	-41.0	-43.7	12.6	1.04e-04	0	61	0	706740224	53	4943
2026-01-19 09:25:45.98	120.69	35.90	-41.0	-43.7	12.6	9.53e-05	0	61	0	709885952	53	4956
2026-01-19 09:25:46.99	120.45	36.10	-41.1	-43.8	12.5	1.15e-04	0	61	0	713031680	53	5023
2026-01-19 09:25:48.00	120.22	36.29	-41.2	-44.0	12.2	1.85e-04	0	61	0	716177408	53	5143
2026-01-19 09:25:49.01	119.98	36.49	-41.3	-44.2	12.1	2.20e-04	0	61	0	719323136	53	5222
2026-01-19 09:25:50.02	119.74	36.69	-41.4	-44.4	11.9	3.07e-04	0	61	0	722468864	53	5355
2026-01-19 09:25:51.03	119.50	36.89	-41.5	-44.5	11.8	5.65e-04	0	61	0	725614592	53	5461
2026-01-19 09:25:52.04	119.25	37.09	-41.6	-44.7	11.6	6.64e-04	0	61	0	728760320	53	5578
2026-01-19 09:25:53.05	119.00	37.29	-41.8	-44.9	11.3	7.49e-04	0	61	0	731906048	54	5402
2026-01-19 09:25:54.05	118.75	37.48	-41.7	-44.8	11.5	7.26e-04	0	61	0	735051776	54	5336
2026-01-19 09:25:55.06	118.49	37.69	-41.7	-44.8	11.4	9.34e-04	0	61	0	738197504	54	5337
2026-01-19 09:25:56.07	118.23	37.89	-41.9	-45.1	11.2	1.26e-03	0	61	0	741343232	54	5480
2026-01-19 09:25:57.08	117.97	38.09	-41.8	-45.0	11.2	1.18e-03	0	61	0	744488960	54	5450
2026-01-19 09:25:58.09	117.71	38.29	-41.7	-44.8	11.5	9.24e-04	0	61	0	747634688	54	5297
2026-01-19 09:25:59.10	117.44	38.49	-41.7	-44.8	11.5	7.47e-04	0	61	0	750780416	54	5293
2026-01-19 09:26:00.11	117.16	38.70	-41.7	-44.9	11.4	9.19e-04	0	61	0	753926144	54	5346
2026-01-19 09:26:01.13	116.88	38.90	-41.8	-45.0	11.3	1.00e-03	0	61	0	757071872	54	5407
2026-01-19 09:26:02.14	116.61	39.11	-41.7	-44.8	11.5	8.48e-04	0	61	0	760217600	54	5326
2026-01-19 09:26:03.15	116.32	39.31	-41.6	-44.7	11.6	7.51e-04	0	61	0	763363328	54	5227
2026-01-19 09:26:04.16	116.04	39.52	-41.7	-44.8	11.4	8.65e-04	0	61	0	766509056	54	5330
2026-01-19 09:26:05.17	115.74	39.72	-41.9	-45.1	11.2	1.22e-03	0	62	0	769654784	54	5496
2026-01-19 09:26:06.18	115.45	39.93	-41.9	-45.2	11.1	1.67e-03	0	61	0	772800512	54	5531
2026-01-19 09:26:07.19	115.15	40.14	-41.9	-45.1	11.2	1.59e-03	0	61	0	775946240	54	5495
2026-01-19 09:26:08.20	114.85	40.34	-41.7	-44.8	11.4	1.03e-03	0	61	0	779091968	54	5336
2026-01-19 09:26:09.21	114.55	40.55	-41.6	-44.6	11.7	5.58e-04	0	61	0	782237696	54	5188
2026-01-19 09:26:10.21	114.24	40.75	-41.6	-44.6	11.7	6.28e-04	0	62	0	785383424	54	5205
2026-01-19 09:26:11.22	113.92	40.96	-41.7	-44.7	11.6	7.51e-04	0	61	0	788529152	54	5252
2026-01-19 09:26:12.23	113.61	41.17	-41.8	-44.9	11.5	7.58e-04	0	61	0	791674880	54	5357
2026-01-19 09:26:13.24	113.29	41.38	-41.9	-45.1	11.2	1.15e-03	0	61	0	794820608	54	5496
2026-01-19 09:26:14.25	112.96	41.58	-41.9	-45.1	11.3	1.39e-03	0	61	0	797966336	54	5498
2026-01-19 09:26:15.26	112.63	41.79	-41.8	-45.0	11.4	1.20e-03	0	61	0	801112064	54	5417
2026-01-19 09:26:16.27	112.29	42.00	-41.8	-44.9	11.4	1.10e-03	0	62	0	804257792	54	5368
2026-01-19 09:26:17.28	111.96	42.21	-41.7	-44.8	11.5	6.90e-04	0	61	0	807403520	54	5294
2026-01-19 09:26:18.29	111.61	42.42	-41.7	-44.7	11.6	7.69e-04	0	62	0	810549248	54	5257
2026-01-19 09:26:19.30	111.26	42.62	-41.8	-45.0	11.2	1.29e-03	0	61	0	813694976	54	5426
2026-01-19 09:26:20.31	110.91	42.83	-42.0	-45.4	10.8	2.16e-03	0	62	0	816840704	54	5657
2026-01-19 09:26:21.32	110.56	43.04	-42.2	-45.6	10.6	3.37e-03	0	61	0	819986432	54	5849
2026-01-19 09:26:22.33	110.19	43.25	-42.3	-45.9	10.4	4.59e-03	0	61	0	823132160	55	5657
2026-01-19 09:26:23.34	109.83	43.45	-42.3	-45.8	10.5	4.23e-03	0	61	0	826277888	55	5605
2026-01-19 09:26:24.35	109.46	43.66	-42.3	-45.8	10.4	4.41e-03	0	62	0	829423616	55	5652
2026-01-19 09:26:25.36	109.08	43.87	-42.2	-45.7	10.6	4.05e-03	0	61	0	832569344	55	5566
2026-01-19 09:26:26.36	108.70	44.07	-42.0	-45.3	11.1	1.90e-03	0	61	0	835715072	55	5300
2026-01-19 09:26:27.37	108.32	44.28	-42.0	-45.3	11.0	1.59e-03	0	61	0	838860800	55	5285
2026-01-19 09:26:28.38	107.93	44.49	-42.0	-45.3	10.9	2.03e-03	0	62	0	842006528	55	5325
2026-01-19 09:26:29.39	107.53	44.69	-42.1	-45.4	10.9	1.93e-03	0	61	0	845152256	55	5350
2026-01-19 09:26:30.40	107.13	44.90	-42.0	-45.3	11.0	1.94e-03	0	61	0	848297984	55	5315
2026-01-19 09:26:31.41	106.72	45.10	-42.0	-45.2	11.2	1.46e-03	0	61	0	851443712	55	5225
2026-01-19 09:26:32.42	106.31	45.30	-41.9	-45.0	11.3	1.13e-03	0	61	0	854589440	55	5143
2026-01-19 09:26:33.43	105.89	45.51	-41.8	-44.9	11.4	1.06e-03	0	62	0	857735168	55	5083
2026-01-19 09:26:34.44	105.47	45.71	-41.7	-44.7	11.7	6.41e-04	0	61	0	860880896	55	4944
2026-01-19 09:26:35.45	105.04	45.91	-41.6	-44.6	11.8	4.71e-04	0	62	0	864026624	55	4890
2026-01-19 09:26:36.46	104.61	46.11	-41.6	-44.6	11.7	5.57e-04	0	61	0	867172352	55	4914
2026-01-19 09:26:37.47	104.17	46.31	-41.6	-44.5	11.8	4.84e-04	0	61	0	870318080	55	4860
2026-01-19 09:26:38.48	103.73	46.51	-41.5	-44.4	11.9	4.37e-04	0	61	0	873463808	55	4811
2026-01-19 09:26:39.49	103.28	46.71	-41.5	-44.4	11.9	3.94e-04	0	62	0	876609536	55	4804
2026-01-19 09:26:40.50	102.82	46.91	-41.5	-44.4	12.0	3.60e-04	0	62	0	879755264	55	4807
2026-01-19 09:26:41.51	102.36	47.11	-41.5	-44.4	12.0	2.51e-04	0	62	0	882900992	54	5056
2026-01-19 09:26:42.52	101.89	47.30	-41.5	-44.4	12.0	3.67e-04	0	62	0	886046720	54	5077
2026-01-19 09:26:43.53	101.42	47.49	-41.6	-44.5	11.9	3.45e-04	0	61	0	889192448	54	5144
2026-01-19 09:26:44.54	100.94	47.69	-41.6	-44.6	11.8	4.85e-04	0	62	0	892338176	54	5202
2026-01-19 09:26:45.55	100.45	47.88	-41.7	-44.7	11.7	5.06e-04	0	62	0	895483904	54	5248
2026-01-19 09:26:46.56	99.96	48.07	-41.7	-44.8	11.6	5.92e-04	0	62	0	898629632	54	5296
2026-01-19 09:26:47.57	99.46	48.26	-41.8	-44.9	11.5	7.25e-04	0	62	0	901775360	54	5367
2026-01-19 09:26:48.58	98.96	48.44	-41.7	-44.7	11.7	6.48e-04	0	62	0	904921088	54	5273
2026-01-19 09:26:49.59	98.45	48.63	-41.8	-44.8	11.7	5.98e-04	0	62	0	908066816	54	5309
2026-01-19 09:26:50.60	97.93	48.81	-41.9	-45.0	11.4	8.77e-04	0	62	0	911212544	54	5448
2026-01-19 09:26:51.61	97.41	48.99	-42.1	-45.3	11.1	1.42e-03	0	62	0	914358272	54	5636
2026-01-19 09:26:52.62	96.88	49.17	-42.0	-45.2	11.3	1.19e-03	0	62	0	917504000	54	5540
2026-01-19 09:26:53.63	96.35	49.35	-41.7	-44.8	11.7	7.41e-04	0	62	0	920649728	54	5285
2026-01-19 09:26:54.64	95.81	49.52	-41.5	-44.4	12.0	4.08e-04	0	62	0	923795456	54	5095
2026-01-19 09:26:55.65	95.26	49.70	-41.4	-44.1	12.3	1.57e-04	0	62	0	927989760	54	4920
2026-01-19 09:26:56.66	94.71	49.87	-41.4	-44.3	12.2	1.68e-04	0	62	0	931135488	54	4994
2026-01-19 09:26:57.67	94.15	50.04	-41.6	-44.5	11.9	3.38e-04	0	62	0	933232640	54	5131
2026-01-19 09:26:58.68	93.58	50.21	-41.8	-44.9	11.5	5.81e-04	0	62	0	936378368	54	5396
2026-01-19 09:26:59.69	93.01	50.37	-41.9	-45.0	11.5	7.02e-04	0	62	0	939524096	54	5407
2026-01-19 09:27:00.70	92.43	50.53	-41.9	-45.0	11.5	9.00e-04	0	62	0	942669824	54	5425
2026-01-19 09:27:01.71	91.85	50.69	-41.8	-44.8	11.7	6.38e-04	0	62	0	946864128	54	5305
2026-01-19 09:27:02.72	91.26	50.85	-41.6	-44.6	12.0	4.17e-04	0	62	0	950009856	54	5166
2026-01-19 09:27:03.73	90.66	51.00	-41.5	-44.4	12.2	2.66e-04	0	62	0	953155584	54	5063
2026-01-19 09:27:04.74	90.06	51.15	-41.4	-44.2	12.4	1.31e-04	0	62	0	956301312	54	4967
2026-01-19 09:27:05.75	89.45	51.30	-41.3	-43.9	12.6	1.32e-04	0	62	0	959447040	54	4811
2026-01-19 09:27:06.76	88.84	51.45	-41.1	-43.7	12.9	5.41e-05	0	62	0	962592768	54	4652
2026-01-19 09:27:07.77	88.21	51.59	-41.2	-43.9	12.7	6.86e-05	0	62	0	965738496	54	4765
2026-01-19 09:27:08.78	87.59	51.73	-41.2	-43.8	12.8	7.17e-05	0	62	0	968884224	54	4741
2026-01-19 09:27:09.79	86.96	51.86	-41.2	-43.8	12.8	6.63e-05	0	62	0	972029952	54	4717
2026-01-19 09:27:10.80	86.32	52.00	-41.2	-43.8	12.7	6.56e-05	0	62	0	975175680	54	4742
2026-01-19 09:27:11.81	85.67	52.13	-41.1	-43.8	12.8	6.86e-05	0	61	0	978321408	54	4709
2026-01-19 09:27:12.82	85.02	52.25	-41.2	-43.8	12.7	7.78e-05	0	62	0	981467136	54	4754
2026-01-19 09:27:13.83	84.37	52.37	-41.2	-43.9	12.6	7.78e-05	0	62	0	984612864	54	4769
2026-01-19 09:27:14.84	83.71	52.49	-41.3	-44.1	12.5	1.28e-04	0	62	0	987758592	54	4875
2026-01-19 09:27:15.84	83.05	52.61	-41.4	-44.1	12.4	1.33e-04	0	62	0	990904320	54	4892
2026-01-19 09:27:16.85	82.38	52.72	-41.3	-44.0	12.5	1.54e-04	0	62	0	994050048	54	4846
2026-01-19 09:27:17.86	81.70	52.83	-41.1	-43.7	12.8	6.02e-05	0	62	0	997195776	54	4701
2026-01-19 09:27:18.87	81.02	52.93	-41.0	-43.5	13.0	4.42e-05	0	62	0	1000341504	54	4588
2026-01-19 09:27:19.88	80.34	53.03	-40.9	-43.4	13.0	2.67e-05	0	62	0	1003487232	53	4800
2026-01-19 09:27:20.89	79.65	53.12	-41.0	-43.5	13.0	4.27e-05	0	62	0	1006632960	53	4837
2026-01-19 09:27:21.90	78.96	53.22	-41.1	-43.8	12.7	5.72e-05	0	62	0	1009778688	53	5000
2026-01-19 09:27:22.91	78.26	53.30	-41.0	-43.6	12.9	4.19e-05	0	62	0	1012924416	53	4898
2026-01-19 09:27:23.92	77.55	53.39	-41.1	-43.7	12.7	4.27e-05	0	62	0	1016070144	53	4971
2026-01-19 09:27:24.93	76.85	53.46	-41.1	-43.7	12.8	7.32e-05	0	62	0	1019215872	53	4971
2026-01-19 09:27:25.94	76.14	53.54	-41.0	-43.5	13.0	4.11e-05	0	62	0	1022361600	53	4864
2026-01-19 09:27:26.95	75.42	53.61	-40.8	-43.2	13.3	1.75e-05	0	62	0	1025507328	53	4667
2026-01-19 09:27:27.97	74.70	53.67	-40.7	-43.1	13.5	1.06e-05	0	62	0	1028653056	53	4603
2026-01-19 09:27:28.97	73.99	53.73	-40.7	-43.1	13.4	9.10e-06	0	62	0	1031798784	53	4637
2026-01-19 09:27:29.98	73.26	53.79	-40.9	-43.4	13.1	1.37e-05	0	62	0	1034944512	53	4771
2026-01-19 09:27:30.99	72.54	53.84	-40.7	-43.1	13.4	1.44e-05	0	62	0	1038090240	53	4616
2026-01-19 09:27:32.00	71.81	53.89	-40.6	-43.0	13.4	6.10e-06	0	62	0	1041235968	53	4575
2026-01-19 09:27:33.01	71.08	53.93	-40.6	-42.9	13.5	9.10e-06	0	62	0	1044381696	53	4543
2026-01-19 09:27:34.02	70.35	53.97	-40.7	-43.1	13.4	1.37e-05	0	62	0	1047527424	53	4613
2026-01-19 09:27:35.03	69.61	54.00	-40.9	-43.4	13.1	2.67e-05	0	62	0	1050673152	53	4767
2026-01-19 09:27:36.04	68.88	54.03	-41.0	-43.5	13.0	3.73e-05	0	62	0	1053818880	53	4854
2026-01-19 09:27:37.05	68.14	54.06	-41.1	-43.8	12.7	5.49e-05	0	62	0	1056964608	53	4999
2026-01-19 09:27:38.07	67.40	54.07	-41.2	-43.9	12.6	8.46e-05	0	62	0	1060110336	53	5043
2026-01-19 09:27:39.07	66.66	54.09	-41.2	-43.9	12.6	1.14e-04	0	62	0	1063256064	53	5068
2026-01-19 09:27:40.08	65.92	54.10	-40.9	-43.4	13.1	4.34e-05	0	62	0	1066401792	53	4804
2026-01-19 09:27:41.09	65.18	54.10	-40.9	-43.4	13.1	2.67e-05	0	62	0	1069547520	53	4794
2026-01-19 09:27:42.11	64.44	54.10	-41.0	-43.6	13.0	3.58e-05	0	62	0	1072693248	53	4873
2026-01-19 09:27:43.11	63.70	54.10	-41.0	-43.6	12.9	4.88e-05	0	62	0	1075838976	53	4885
2026-01-19 09:27:44.12	62.96	54.09	-41.2	-44.0	12.5	1.04e-04	0	62	0	1078984704	53	5103
2026-01-19 09:27:45.14	62.22	54.07	-41.1	-43.8	12.7	9.61e-05	0	62	0	1082130432	53	5000
2026-01-19 09:27:46.15	61.48	54.05	-41.0	-43.6	12.9	4.95e-05	0	62	0	1085276160	53	4876
2026-01-19 09:27:47.16	60.74	54.03	-41.2	-43.8	12.7	7.62e-05	0	62	0	1088421888	53	5012
2026-01-19 09:27:48.17	60.01	54.00	-41.2	-43.9	12.5	9.38e-05	0	62	0	1091567616	53	5099
2026-01-19 09:27:49.18	59.28	53.96	-41.5	-44.3	12.1	2.10e-04	0	62	0	1094713344	53	5325
2026-01-19 09:27:50.19	58.54	53.93	-41.5	-44.4	12.0	3.49e-04	0	62	0	1097859072	53	5375
2026-01-19 09:27:51.20	57.81	53.88	-41.6	-44.6	11.9	3.72e-04	0	62	0	1101004800	53	5468
2026-01-19 09:27:52.21	57.09	53.83	-41.5	-44.3	12.1	3.55e-04	0	62	0	1104150528	53	5333
2026-01-19 09:27:53.22	56.36	53.78	-41.0	-43.6	12.9	6.40e-05	0	62	0	1107296256	53	4912
2026-01-19 09:27:54.23	55.64	53.72	-41.1	-43.8	12.7	5.72e-05	0	62	0	1110441984	53	4985
2026-01-19 09:27:55.24	54.92	53.66	-41.1	-43.8	12.7	5.18e-05	0	62	0	1113587712	53	5000
2026-01-19 09:27:56.25	54.21	53.60	-41.1	-43.7	12.8	5.95e-05	0	62	0	1116733440	53	4928
2026-01-19 09:27:57.26	53.49	53.53	-41.2	-43.9	12.5	1.07e-04	0	62	0	1119879168	53	5064
2026-01-19 09:27:58.27	52.78	53.45	-41.2	-43.9	12.5	1.28e-04	0	62	0	1123024896	53	5060
2026-01-19 09:27:59.28	52.08	53.37	-41.1	-43.7	12.6	9.38e-05	0	62	0	1126170624	53	4958
2026-01-19 09:28:00.29	51.38	53.29	-41.1	-43.7	12.7	6.86e-05	0	62	0	1129316352	53	4953
2026-01-19 09:28:01.30	50.68	53.20	-41.0	-43.6	12.8	4.57e-05	0	62	0	1132462080	53	4887
2026-01-19 09:28:02.31	49.99	53.11	-41.2	-43.9	12.5	1.09e-04	0	62	0	1135607808	53	5043
2026-01-19 09:28:03.32	49.30	53.01	-41.0	-43.6	12.8	8.54e-05	0	62	0	1138753536	53	4899
2026-01-19 09:28:04.33	48.62	52.91	-40.7	-43.2	13.2	3.35e-05	0	62	0	1141899264	53	4672
2026-01-19 09:28:05.34	47.94	52.81	-40.6	-42.9	13.6	1.06e-05	0	62	0	1145044992	53	4512
2026-01-19 09:28:06.35	47.27	52.70	-40.6	-43.0	13.5	5.30e-06	0	62	0	1148190720	53	4551
2026-01-19 09:28:07.36	46.60	52.59	-40.8	-43.3	13.1	2.82e-05	0	62	0	1151336448	53	4710
2026-01-19 09:28:08.37	45.93	52.47	-40.9	-43.4	13.0	3.35e-05	0	62	0	1154482176	53	4761
2026-01-19 09:28:09.38	45.27	52.35	-40.8	-43.3	13.1	2.89e-05	0	62	0	1157627904	53	4735
2026-01-19 09:28:10.39	44.62	52.23	-40.6	-42.9	13.4	1.83e-05	0	62	0	1160773632	53	4545
2026-01-19 09:28:11.40	43.97	52.10	-40.5	-42.8	13.5	1.22e-05	0	62	0	1163919360	53	4487
2026-01-19 09:28:12.41	43.33	51.97	-40.6	-42.9	13.5	6.80e-06	0	62	0	1167065088	53	4517
2026-01-19 09:28:13.42	42.70	51.84	-40.6	-42.9	13.5	1.22e-05	0	62	0	1170210816	53	4528
2026-01-19 09:28:14.43	42.07	51.71	-41.0	-43.6	12.8	2.13e-05	0	62	0	1173356544	53	4882
2026-01-19 09:28:15.44	41.44	51.57	-41.3	-44.0	12.3	1.79e-04	0	62	0	1176502272	53	5144
2026-01-19 09:28:16.45	40.82	51.42	-41.3	-44.1	12.1	2.52e-04	0	62	0	1179648000	53	5184
2026-01-19 09:28:17.46	40.21	51.28	-41.1	-43.7	12.6	1.64e-04	0	62	0	1182793728	53	4936
2026-01-19 09:28:18.47	39.61	51.13	-41.0	-43.5	12.8	8.31e-05	0	62	0	1185939456	53	4857
2026-01-19 09:28:19.48	39.01	50.98	-41.0	-43.6	12.8	6.17e-05	0	62	0	1189085184	53	4872
2026-01-19 09:28:20.49	38.41	50.82	-41.0	-43.6	12.8	4.19e-05	0	62	0	1192230912	53	4879
2026-01-19 09:28:21.50	37.82	50.67	-41.5	-44.3	12.0	2.92e-04	0	62	0	1195376640	53	5316
2026-01-19 09:28:22.51	37.24	50.51	-41.9	-45.0	11.1	1.48e-03	0	62	0	1198522368	54	5424
2026-01-19 09:28:23.52	36.67	50.35	-41.6	-44.6	11.6	8.45e-04	0	62	0	1201668096	54	5204
2026-01-19 09:28:24.53	36.10	50.18	-41.3	-44.1	12.2	2.81e-04	0	62	0	1204813824	54	4889
2026-01-19 09:28:25.54	35.53	50.01	-41.3	-44.0	12.3	1.87e-04	0	62	0	1207959552	54	4851
2026-01-19 09:28:26.55	34.98	49.85	-41.4	-44.3	12.0	2.11e-04	0	62	0	1211105280	54	4990
2026-01-19 09:28:27.56	34.42	49.67	-41.7	-44.8	11.6	6.83e-04	0	62	0	1214251008	54	5283
2026-01-19 09:28:28.57	33.88	49.50	-41.9	-45.0	11.3	1.19e-03	0	62	0	1217396736	54	5421
2026-01-19 09:28:29.58	33.34	49.33	-41.7	-44.6	11.6	6.66e-04	0	62	0	1220542464	54	5218
2026-01-19 09:28:30.59	32.81	49.15	-41.3	-44.1	12.2	3.23e-04	0	62	0	1223688192	54	4895
2026-01-19 09:28:31.60	32.28	48.97	-41.3	-44.0	12.3	1.67e-04	0	62	0	1226833920	54	4859
2026-01-19 09:28:32.61	31.76	48.79	-41.4	-44.2	12.1	2.29e-04	0	62	0	1229979648	54	4958
2026-01-19 09:28:33.62	31.25	48.60	-41.8	-45.0	11.3	7.91e-04	0	62	0	1233125376	54	5428
2026-01-19 09:28:34.62	30.75	48.42	-42.2	-45.7	10.6	2.97e-03	0	62	0	1236271104	54	5868
2026-01-19 09:28:35.63	30.25	48.23	-42.4	-46.0	10.2	5.89e-03	0	62	0	1239416832	55	5768
2026-01-19 09:28:36.64	29.75	48.05	-42.2	-45.7	10.4	4.82e-03	0	62	0	1242562560	55	5563
2026-01-19 09:28:37.65	29.26	47.86	-41.7	-44.8	11.3	1.22e-03	0	62	0	1246756864	55	4987
2026-01-19 09:28:38.66	28.78	47.67	-41.3	-44.0	12.3	3.61e-04	0	62	0	1248854016	54	4831
2026-01-19 09:28:39.67	28.30	47.47	-41.1	-43.7	12.7	9.84e-05	0	62	0	1251999744	54	4680
2026-01-19 09:28:40.68	27.83	47.28	-41.1	-43.8	12.6	9.00e-05	0	62	0	1255145472	54	4712
2026-01-19 09:28:41.69	27.37	47.09	-41.6	-44.5	11.9	3.17e-04	0	62	0	1258291200	54	5102
2026-01-19 09:28:42.70	26.91	46.89	-42.1	-45.5	10.8	2.17e-03	0	62	0	1261436928	54	5754
2026-01-19 09:28:43.71	26.45	46.69	-42.6	-46.3	9.9	7.59e-03	0	62	0	1265631232	55	5964
2026-01-19 09:28:44.72	26.00	46.50	-42.5	-46.2	10.0	8.78e-03	0	62	0	1268776960	55	5893
2026-01-19 09:28:45.73	25.56	46.30	-42.1	-45.6	10.5	4.98e-03	0	62	0	1271922688	55	5469
2026-01-19 09:28:46.74	25.12	46.10	-41.8	-45.0	11.1	2.06e-03	0	62	0	1274019840	55	5102
2026-01-19 09:28:47.75	24.69	45.90	-41.4	-44.3	12.0	4.87e-04	0	62	0	1278214144	54	4984
2026-01-19 09:28:48.76	24.27	45.70	-41.4	-44.3	12.0	3.04e-04	0	62	0	1281359872	54	4988
2026-01-19 09:28:49.77	23.85	45.49	-41.8	-44.8	11.4	7.64e-04	0	62	0	1284505600	54	5333
2026-01-19 09:28:50.78	23.43	45.29	-42.4	-45.9	10.3	2.56e-03	0	62	0	1287651328	55	5701
2026-01-19 09:28:51.79	23.02	45.09	-42.9	-47.0	9.4	1.21e-02	0	62	0	1290797056	56	6116
2026-01-19 09:28:52.80	22.62	44.89	-43.0	-47.1	9.3	1.94e-02	0	62	0	1293942784	56	6144
2026-01-19 09:28:53.81	22.22	44.68	-42.8	-46.7	9.6	1.32e-02	0	62	0	1297088512	56	5857
2026-01-19 09:28:54.82	21.82	44.48	-42.7	-46.5	9.9	8.87e-03	0	62	0	1300234240	56	5726
2026-01-19 09:28:55.83	21.44	44.27	-42.5	-46.1	10.2	6.99e-03	0	62	0	1303379968	56	5515
2026-01-19 09:28:56.84	21.05	44.07	-42.1	-45.4	11.1	2.09e-03	0	62	0	1306525696	56	5060
2026-01-19 09:28:57.85	20.67	43.86	-41.5	-44.4	11.9	4.60e-04	0	62	0	1309671424	55	4773
2026-01-19 09:28:58.86	20.30	43.65	-41.5	-44.4	11.9	3.31e-04	0	62	0	1312817152	54	5065
2026-01-19 09:28:59.87	19.93	43.45	-42.0	-45.1	11.1	1.02e-03	0	62	0	1315962880	54	5522
2026-01-19 09:29:00.88	19.57	43.24	-42.5	-46.2	10.1	5.26e-03	0	62	0	1319108608	55	5860
2026-01-19 09:29:01.89	19.21	43.03	-42.6	-46.3	9.7	1.17e-02	0	62	0	1322254336	55	5990
2026-01-19 09:29:02.90	18.85	42.83	-42.1	-45.4	10.6	4.53e-03	0	62	0	1325400064	55	5400
2026-01-19 09:29:03.91	18.50	42.62	-41.5	-44.5	11.6	8.53e-04	0	62	0	1328545792	55	4820
2026-01-19 09:29:04.92	18.15	42.41	-41.2	-43.9	12.3	3.53e-04	0	62	0	1331691520	54	4784
2026-01-19 09:29:05.93	17.81	42.20	-41.3	-44.0	12.2	1.90e-04	0	62	0	1334837248	54	4855
2026-01-19 09:29:06.94	17.48	42.00	-41.7	-44.7	11.5	4.56e-04	0	62	0	1337982976	54	5221
2026-01-19 09:29:07.95	17.14	41.79	-41.9	-45.1	11.0	1.22e-03	0	62	0	1341128704	54	5524
2026-01-19 09:29:08.96	16.81	41.58	-41.9	-45.0	11.1	1.83e-03	0	62	0	1344274432	54	5460
2026-01-19 09:29:09.97	16.49	41.38	-42.1	-45.4	10.8	2.41e-03	0	62	0	1347420160	54	5692
2026-01-19 09:29:10.98	16.17	41.17	-42.3	-45.9	10.2	4.96e-03	0	62	0	1350565888	55	5694
2026-01-19 09:29:11.99	15.85	40.96	-42.6	-46.6	9.6	9.82e-03	0	62	0	1353711616	55	6162
2026-01-19 09:29:13.00	15.54	40.76	-42.7	-46.7	9.5	1.54e-02	0	62	0	1356857344	55	6207
2026-01-19 09:29:14.01	15.23	40.55	-42.3	-45.8	10.3	7.99e-03	0	62	0	1360003072	55	5647
2026-01-19 09:29:15.02	14.93	40.35	-41.8	-44.9	11.3	1.73e-03	0	62	0	1363148800	55	5053
2026-01-19 09:29:16.03	14.63	40.14	-41.5	-44.4	11.8	5.79e-04	0	62	0	1366294528	54	5084
2026-01-19 09:29:17.04	14.33	39.93	-41.5	-44.4	11.9	4.57e-04	0	62	0	1369440256	54	5059
2026-01-19 09:29:18.05	14.04	39.73	-41.3	-44.1	12.1	3.19e-04	0	62	0	1372585984	54	4918
2026-01-19 09:29:19.06	13.75	39.53	-41.6	-44.7	11.5	5.61e-04	0	62	0	1375731712	54	5246
2026-01-19 09:29:20.07	13.47	39.32	-41.9	-45.2	11.1	1.36e-03	0	62	0	1378877440	54	5534
2026-01-19 09:29:21.08	13.19	39.12	-41.9	-45.1	11.0	1.93e-03	0	62	0	1382023168	54	5518
2026-01-19 09:29:22.09	12.91	38.91	-41.6	-44.7	11.3	1.38e-03	0	62	0	1385168896	54	5236
2026-01-19 09:29:23.10	12.63	38.71	-41.5	-44.4	11.5	8.40e-04	0	62	0	1388314624	54	5100
2026-01-19 09:29:24.11	12.36	38.51	-41.6	-44.6	11.4	8.23e-04	0	62	0	1391460352	54	5185
2026-01-19 09:29:25.12	12.09	38.31	-41.6	-44.6	11.5	8.56e-04	0	62	0	1394606080	54	5195
2026-01-19 09:29:26.13	11.83	38.11	-41.8	-44.9	11.1	1.29e-03	0	62	0	1397751808	54	5399
2026-01-19 09:29:27.14	11.57	37.90	-41.8	-45.0	11.1	1.64e-03	0	62	0	1400897536	54	5416
2026-01-19 09:29:28.15	11.31	37.70	-41.8	-45.0	11.1	1.68e-03	0	62	0	1404043264	54	5433
2026-01-19 09:29:29.16	11.06	37.50	-41.8	-45.0	11.1	1.75e-03	0	62	0	1407188992	54	5406
2026-01-19 09:29:30.17	10.80	37.30	-41.7	-44.7	11.4	1.31e-03	0	62	0	1410334720	54	5270
2026-01-19 09:29:31.18	10.56	37.11	-41.5	-44.5	11.7	6.13e-04	0	62	0	1413480448	54	5116
2026-01-19 09:29:32.19	10.31	36.91	-41.7	-44.8	11.3	9.04e-04	0	62	0	1416626176	54	5336
2026-01-19 09:29:33.20	10.07	36.71	-41.9	-45.2	10.9	1.92e-03	0	62	0	1419771904	54	5568
2026-01-19 09:29:34.21	9.83	36.51	-41.8	-45.0	11.1	1.68e-03	0	62	0	1422917632	54	5416
2026-01-19 09:29:35.22	9.59	36.32	-41.4	-44.3	11.7	6.26e-04	0	62	0	1426063360	54	5030
2026-01-19 09:29:36.23	9.36	36.12	-40.9	-43.6	12.5	1.56e-04	0	62	0	1429209088	53	4882
2026-01-19 09:29:37.24	9.13	35.93	-40.8	-43.3	12.8	5.49e-05	0	62	0	1432354816	53	4736
2026-01-19 09:29:38.25	8.90	35.73	-40.8	-43.3	12.8	4.73e-05	0	62	0	1435500544	53	4731
2026-01-19 09:29:39.25	8.68	35.54	-40.8	-43.3	12.8	7.17e-05	0	62	0	1438646272	53	4754
2026-01-19 09:29:40.26	8.45	35.35	-41.0	-43.7	12.5	9.53e-05	0	62	0	1441792000	53	4957
2026-01-19 09:29:41.27	8.23	35.16	-41.1	-43.8	12.4	1.29e-04	0	62	0	1444937728	53	5003
2026-01-19 09:29:42.28	8.02	34.96	-41.2	-44.0	12.2	2.02e-04	0	62	0	1448083456	53	5110
2026-01-19 09:29:43.29	7.80	34.77	-41.4	-44.3	11.9	3.04e-04	0	62	0	1451229184	53	5291
2026-01-19 09:29:44.30	7.59	34.58	-41.3	-44.2	11.9	4.07e-04	0	62	0	1454374912	53	5266
2026-01-19 09:29:45.32	7.38	34.39	-41.4	-44.3	11.8	4.73e-04	0	62	0	1457520640	53	5340
2026-01-19 09:29:46.33	7.17	34.20	-41.3	-44.2	12.0	3.51e-04	0	62	0	1460666368	53	5222
2026-01-19 09:29:47.34	6.97	34.01	-41.1	-43.9	12.3	2.45e-04	0	62	0	1463812096	53	5076
2026-01-19 09:29:48.35	6.76	33.83	-41.1	-43.9	12.3	1.73e-04	0	62	0	1466957824	53	5070
2026-01-19 09:29:49.36	6.56	33.64	-41.0	-43.7	12.4	1.43e-04	0	62	0	1470103552	53	4980
2026-01-19 09:29:50.37	6.37	33.45	-41.0	-43.6	12.5	1.14e-04	0	62	0	1473249280	53	4907
2026-01-19 09:29:51.38	6.17	33.27	-41.0	-43.7	12.4	1.10e-04	0	62	0	1476395008	53	4959
2026-01-19 09:29:52.39	5.98	33.08	-41.0	-43.7	12.4	1.52e-04	0	62	0	1479540736	53	4977
2026-01-19 09:29:53.40	5.79	32.90	-40.9	-43.5	12.7	9.61e-05	0	62	0	1482686464	53	4826
2026-01-19 09:29:54.40	5.60	32.72	-40.8	-43.4	12.8	6.02e-05	0	62	0	1485832192	53	4768
2026-01-19 09:29:55.41	5.41	32.54	-40.8	-43.4	12.8	7.40e-05	0	62	0	1488977920	53	4777
2026-01-19 09:29:56.42	5.23	32.36	-40.8	-43.5	12.7	6.94e-05	0	62	0	1492123648	53	4821
2026-01-19 09:29:57.43	5.05	32.18	-40.8	-43.4	12.7	8.23e-05	0	62	0	1495269376	53	4808
2026-01-19 09:29:58.44	4.86	32.00	-40.7	-43.3	12.9	5.72e-05	0	62	0	1498415104	53	4718
2026-01-19 09:29:59.45	4.69	31.82	-40.6	-43.1	13.0	5.64e-05	0	62	0	1501560832	53	4643
2026-01-19 09:30:00.46	4.51	31.64	-40.6	-43.0	13.0	4.80e-05	0	62	0	1504706560	53	4594
2026-01-19 09:30:01.47	4.34	31.46	-40.4	-42.7	13.3	2.13e-05	0	62	0	1507852288	52	4698
2026-01-19 09:30:02.48	4.16	31.28	-40.1	-42.4	13.6	6.80e-06	0	62	0	1510998016	52	4531
2026-01-19 09:30:03.49	3.99	31.11	-40.1	-42.4	13.6	6.10e-06	0	62	0	1514143744	52	4522
2026-01-19 09:30:04.50	3.82	30.93	-40.0	-42.2	13.9	4.50e-06	0	62	0	1517289472	51	4682
2026-01-19 09:30:05.51	3.66	30.76	-39.9	-42.0	14.1	7.00e-07	0	62	0	1520435200	51	4583
2026-01-19 09:30:06.52	3.49	30.58	-39.8	-42.0	14.2	7.00e-07	0	62	0	1523580928	51	4552
2026-01-19 09:30:07.53	3.33	30.41	-40.0	-42.2	13.9	3.80e-06	0	62	0	1526726656	51	4663
2026-01-19 09:30:08.54	3.17	30.24	-40.2	-42.4	13.7	6.10e-06	0	62	0	1529872384	51	4807
2026-01-19 09:30:09.55	3.01	30.07	-40.3	-42.7	13.4	9.90e-06	0	62	0	1533018112	51	4957
2026-01-19 09:30:10.56	2.85	29.90	-40.5	-43.0	13.1	2.74e-05	0	62	0	1536163840	51	5120
2026-01-19 09:30:11.57	2.69	29.73	-40.7	-43.2	12.9	4.50e-05	0	62	0	1539309568	51	5272
2026-01-19 09:30:12.58	2.54	29.56	-40.6	-43.2	12.8	5.41e-05	0	62	0	1542455296	52	4951
2026-01-19 09:30:13.59	2.38	29.39	-40.7	-43.3	12.7	7.70e-05	0	62	0	1545601024	52	5023
2026-01-19 09:30:14.60	2.23	29.22	-40.8	-43.4	12.6	1.16e-04	0	62	0	1548746752	52	5079
2026-01-19 09:30:15.61	2.08	29.06	-40.7	-43.4	12.7	8.08e-05	0	62	0	1551892480	52	5048
2026-01-19 09:30:16.62	1.93	28.89	-40.7	-43.3	12.8	6.79e-05	0	62	0	1555038208	52	4988
2026-01-19 09:30:17.63	1.79	28.72	-40.7	-43.2	12.8	5.72e-05	0	62	0	1558183936	52	4966
2026-01-19 09:30:18.64	1.64	28.56	-40.5	-43.0	13.0	2.82e-05	0	62	0	1561329664	52	4828
2026-01-19 09:30:19.65	1.50	28.40	-40.4	-42.8	13.1	3.50e-05	0	62	0	1564475392	52	4759
2026-01-19 09:30:20.66	1.36	28.23	-40.1	-42.5	13.5	1.29e-05	0	62	0	1567621120	52	4556
2026-01-19 09:30:21.67	1.22	28.07	-40.0	-42.3	13.8	6.10e-06	0	62	0	1570766848	51	4717
2026-01-19 09:30:22.68	1.08	27.91	-40.1	-42.4	13.7	4.50e-06	0	62	0	1573912576	51	4772
2026-01-19 09:30:23.68	0.94	27.75	-39.9	-42.1	14.0	3.00e-06	0	62	0	1577058304	51	4606
2026-01-19 09:30:24.70	0.80	27.59	-39.7	-41.9	14.2	3.00e-06	0	62	0	1580204032	51	4505
2026-01-19 09:30:25.71	0.67	27.43	-39.8	-41.9	14.2	2.20e-06	0	62	0	1584398336	51	4526
2026-01-19 09:30:26.71	0.54	27.27	-39.7	-41.8	14.2	7.00e-07	0	62	0	1587544064	51	4489
2026-01-19 09:30:27.72	0.40	27.11	-39.9	-42.0	14.1	2.20e-06	0	62	0	1589641216	51	4586
2026-01-19 09:30:28.73	0.27	26.96	-39.8	-42.0	14.1	0.00e+00	0	62	0	1592786944	51	4578
2026-01-19 09:30:29.74	0.14	26.80	-39.7	-41.9	14.2	1.50e-06	0	62	0	1595932672	51	4507
2026-01-19 09:30:30.75	0.01	26.65	-39.8	-41.9	14.2	1.50e-06	0	62	0	1600126976	51	4523
2026-01-19 09:30:31.76	359.89	26.49	-39.6	-41.8	14.3	1.50e-06	0	62	0	1603272704	51	4448
2026-01-19 09:30:32.77	359.76	26.34	-39.8	-42.0	14.1	1.50e-06	0	62	0	1606418432	51	4549
2026-01-19 09:30:33.78	359.64	26.18	-39.9	-42.1	14.0	7.00e-07	0	62	0	1609564160	51	4627
2026-01-19 09:30:34.79	359.51	26.03	-39.9	-42.2	13.8	5.30e-06	0	62	0	1611661312	51	4664
2026-01-19 09:30:35.80	359.39	25.88	-39.9	-42.2	13.8	5.30e-06	0	62	0	1614807040	51	4671
2026-01-19 09:30:36.81	359.27	25.73	-39.9	-42.2	13.8	6.10e-06	0	62	0	1619001344	51	4680
2026-01-19 09:30:37.82	359.15	25.58	-40.1	-42.4	13.6	1.06e-05	0	62	0	1622147072	51	4769
2026-01-19 09:30:38.83	359.03	25.43	-40.0	-42.2	13.8	1.50e-06	0	62	0	1625292800	51	4693
2026-01-19 09:30:39.84	358.91	25.28	-40.0	-42.3	13.7	4.50e-06	0	62	0	1628438528	51	4726
2026-01-19 09:30:40.85	358.80	25.13	-40.1	-42.5	13.5	1.37e-05	0	62	0	1631584256	51	4817
2026-01-19 09:30:41.86	358.68	24.98	-40.1	-42.5	13.5	1.52e-05	0	62	0	1634729984	51	4815
2026-01-19 09:30:42.87	358.57	24.84	-40.2	-42.7	13.3	1.90e-05	0	62	0	1637875712	51	4939
2026-01-19 09:30:43.88	358.46	24.69	-40.2	-42.7	13.2	9.10e-06	0	62	0	1641021440	51	4954
2026-01-19 09:30:44.89	358.34	24.54	-40.2	-42.6	13.2	2.44e-05	0	62	0	1644167168	51	4915
2026-01-19 09:30:45.90	358.23	24.40	-40.2	-42.6	13.2	1.52e-05	0	62	0	1647312896	51	4901
2026-01-19 09:30:46.91	358.12	24.25	-40.2	-42.7	13.1	2.28e-05	0	62	0	1650458624	51	4939
2026-01-19 09:30:47.92	358.01	24.11	-40.2	-42.6	13.1	1.83e-05	0	62	0	1653604352	51	4900
2026-01-19 09:30:48.93	357.91	23.97	-40.1	-42.5	13.2	2.82e-05	0	62	0	1656750080	51	4868
2026-01-19 09:30:49.94	357.80	23.83	-40.0	-42.4	13.3	1.98e-05	0	62	0	1659895808	51	4778
2026-01-19 09:30:50.95	357.69	23.68	-40.0	-42.4	13.3	1.06e-05	0	62	0	1663041536	51	4790
2026-01-19 09:30:51.96	357.59	23.54	-39.9	-42.2	13.4	1.60e-05	0	62	0	1666187264	51	4700
2026-01-19 09:30:52.97	357.49	23.40	-39.8	-42.2	13.5	1.37e-05	0	62	0	1669332992	51	4661
2026-01-19 09:30:53.98	357.38	23.26	-39.8	-42.2	13.4	9.90e-06	0	62	0	1672478720	51	4668
2026-01-19 09:30:54.99	357.28	23.13	-39.8	-42.2	13.4	1.52e-05	0	62	0	1675624448	51	4668
2026-01-19 09:30:56.00	357.18	22.99	-39.7	-42.1	13.5	1.29e-05	0	62	0	1678770176	51	4600
2026-01-19 09:30:57.01	357.08	22.85	-39.8	-42.1	13.5	9.90e-06	0	62	0	1681915904	51	4626
2026-01-19 09:30:58.02	356.98	22.71	-39.8	-42.1	13.4	1.67e-05	0	62	0	1685061632	51	4637
2026-01-19 09:30:59.03	356.88	22.58	-39.7	-42.1	13.4	9.90e-06	0	62	0	1688207360	51	4624
2026-01-19 09:31:00.04	356.78	22.44	-39.9	-42.3	13.2	1.67e-05	0	62	0	1691353088	51	4740
2026-01-19 09:31:01.04	356.69	22.31	-39.9	-42.3	13.1	2.67e-05	0	62	0	1694498816	51	4758
2026-01-19 09:31:02.05	356.59	22.17	-39.8	-42.2	13.2	2.51e-05	0	62	0	1697644544	51	4674
2026-01-19 09:31:03.06	356.50	22.04	-39.8	-42.3	12.9	4.50e-05	0	62	0	1700790272	51	4759
2026-01-19 09:31:04.07	356.40	21.90	-39.9	-42.5	12.7	6.86e-05	0	62	0	1703936000	51	4856
2026-01-19 09:31:05.08	356.31	21.77	-40.0	-42.7	12.5	1.21e-04	0	62	0	1707081728	51	4928
2026-01-19 09:31:06.09	356.22	21.64	-39.8	-42.4	12.8	9.00e-05	0	62	0	1710227456	51	4761
2026-01-19 09:31:07.10	356.13	21.51	-39.7	-42.3	12.8	6.33e-05	0	62	0	1713373184	51	4723
2026-01-19 09:31:08.11	356.04	21.38	-39.6	-42.2	12.7	5.79e-05	0	62	0	1716518912	51	4699
2026-01-19 09:31:09.12	355.95	21.25	-39.7	-42.4	12.4	9.61e-05	0	62	0	1719664640	51	4796
2026-01-19 09:31:10.13	355.86	21.12	-39.8	-42.6	12.1	2.85e-04	0	62	0	1722810368	51	4926
2026-01-19 09:31:11.15	355.77	20.99	-39.8	-42.6	12.1	3.01e-04	0	62	0	1725956096	51	4878
2026-01-19 09:31:12.16	355.68	20.86	-39.8	-42.7	12.0	3.50e-04	0	62	0	1729101824	51	4929
2026-01-19 09:31:13.16	355.60	20.73	-40.0	-43.1	11.4	8.70e-04	0	62	0	1732247552	51	5206
2026-01-19 09:31:14.18	355.51	20.60	-40.3	-43.7	10.7	2.80e-03	0	62	0	1735393280	51	5567
2026-01-19 09:31:15.19	355.42	20.48	-40.7	-44.5	9.7	6.73e-03	0	62	0	1738539008	51	6099
2026-01-19 09:31:16.20	355.34	20.35	-41.0	-45.5	8.5	2.92e-02	0	62	0	1741684736	52	6484
2026-01-19 09:31:17.20	355.26	20.23	-41.3	-46.5	7.3	9.99e-02	0	62	0	1744830464	53	6877
2026-01-19 09:31:18.21	355.17	20.10	-41.5	-47.8	6.0	2.57e-01	0	62	0	1747976192	53	7987
2026-01-19 09:31:19.22	355.09	19.98	-41.6	-48.9	5.2	5.15e-01	0	62	0	1751121920	53	9026
2026-01-19 09:31:20.23	355.01	19.85	-41.7	-49.9	4.6	1.40e+00	2	62	104	1753219072	53	10145
2026-01-19 09:31:21.24	354.93	19.73	-41.7	-50.8	4.2	1.40e+00	0	62	104	1753219072	53	11235
2026-01-19 09:31:22.25	354.85	19.61	-41.7	-51.5	4.0	1.47e+00	0	62	104	1753219072	53	12165
2026-01-19 09:31:23.26	354.77	19.49	-41.6	-52.4	3.8	1.48e+00	0	62	104	1753219072	53	13513
2026-01-19 09:31:24.27	354.69	19.36	-41.6	-53.4	3.8	1.49e+00	0	62	104	1753219072	54	14245
2026-01-19 09:31:25.28	354.61	19.24	-41.4	-53.9	3.8	1.49e+00	0	62	104	1753219072	54	15180
2026-01-19 09:31:26.29	354.53	19.12	-42.2	-52.1	4.0	1.48e+00	0	62	104	1753219072	55	11613
2026-01-19 09:31:27.30	354.45	19.00	-42.0	-52.8	3.8	1.49e+00	0	62	104	1753219072	55	12603
2026-01-19 09:31:28.31	354.38	18.88	-41.9	-53.2	3.8	1.49e+00	0	62	104	1753219072	55	13247
2026-01-19 09:31:29.32	354.30	18.76	-41.7	-53.6	3.8	1.49e+00	0	62	104	1753219072	55	13770
2026-01-19 09:31:30.33	354.23	18.64	-41.6	-54.0	3.8	1.49e+00	0	62	104	1753219072	55	14507
2026-01-19 09:31:31.34	354.15	18.53	-41.4	-54.0	3.8	1.49e+00	0	62	104	1753219072	54	15361
2026-01-19 09:31:32.35	354.08	18.41	-40.9	-53.3	3.8	1.49e+00	0	62	104	1753219072	53	14880
2026-01-19 09:31:33.36	354.00	18.29	-40.8	-53.2	3.8	1.49e+00	0	62	104	1753219072	53	14869
2026-01-19 09:31:34.37	353.93	18.18	-40.7	-53.3	3.8	1.49e+00	0	62	104	1753219072	53	14887
2026-01-19 09:31:35.38	353.86	18.06	-40.8	-53.2	3.8	1.49e+00	0	62	104	1753219072	53	14798
2026-01-19 09:31:36.39	353.79	17.94	-40.8	-53.2	3.8	1.49e+00	0	62	104	1753219072	53	14782
2026-01-19 09:31:37.40	353.72	17.83	-40.7	-53.2	3.8	1.49e+00	0	62	104	1753219072	53	14789
2026-01-19 09:31:38.41	353.65	17.71	-40.6	-53.2	3.8	1.49e+00	0	62	104	1753219072	53	14810
2026-01-19 09:31:39.42	353.58	17.60	-40.8	-53.2	3.8	1.49e+00	0	62	104	1753219072	53	14821
2026-01-19 09:31:40.43	353.51	17.49	-41.0	-53.5	3.8	1.49e+00	0	62	104	1753219072	53	15241
2026-01-19 09:31:41.44	353.44	17.37	-40.8	-53.3	3.8	1.49e+00	0	62	104	1753219072	53	14951
2026-01-19 09:31:42.45	353.37	17.26	-40.6	-53.2	3.8	1.49e+00	0	62	104	1753219072	53	14823
2026-01-19 09:31:43.46	353.30	17.15	-40.7	-53.2	3.8	1.49e+00	0	62	104	1753219072	52	15705
2026-01-19 09:31:44.47	353.23	17.04	-40.8	-53.3	3.8	1.49e+00	0	62	104	1753219072	52	15938
2026-01-19 09:31:45.48	353.17	16.93	-40.7	-53.3	3.8	1.49e+00	0	62	104	1753219072	52	15783
2026-01-19 09:31:46.49	353.10	16.82	-40.4	-53.2	3.8	1.49e+00	0	62	104	1753219072	52	15730
2026-01-19 09:31:47.50	353.04	16.70	-40.5	-53.2	3.8	1.49e+00	0	62	104	1753219072	52	15746
2026-01-19 09:31:48.51	352.97	16.60	-40.8	-53.3	3.8	1.49e+00	0	62	104	1753219072	52	15885
2026-01-19 09:31:49.51	352.91	16.49	-40.5	-53.2	3.8	1.49e+00	0	62	104	1753219072	52	15749
2026-01-19 09:31:50.52	352.84	16.38	-40.4	-53.2	3.8	1.49e+00	0	62	104	1753219072	52	15740
2026-01-19 09:31:51.53	352.78	16.27	-40.4	-53.3	3.8	1.49e+00	0	62	104	1753219072	52	15834
2026-01-19 09:31:52.54	352.71	16.16	-40.7	-53.3	3.8	1.49e+00	0	62	104	1753219072	52	15827
2026-01-19 09:31:53.55	352.65	16.05	-40.4	-53.3	3.8	1.49e+00	0	62	104	1753219072	52	15861
2026-01-19 09:31:54.56	352.59	15.95	-40.7	-53.3	3.8	1.49e+00	0	62	104	1753219072	52	15890
2026-01-19 09:31:55.57	352.53	15.84	-40.6	-53.4	3.8	1.49e+00	0	62	104	1753219072	52	15963
2026-01-19 09:31:56.58	352.47	15.73	-40.7	-53.3	3.8	1.49e+00	0	62	104	1753219072	52	15895
2026-01-19 09:31:57.59	352.41	15.63	-40.7	-53.4	3.8	1.49e+00	0	62	104	1753219072	52	16000
2026-01-19 09:31:58.60	352.35	15.52	-40.8	-53.3	3.8	1.49e+00	0	62	104	1753219072	52	15827
2026-01-19 09:31:59.60	352.29	15.42	-40.8	-53.4	3.8	1.49e+00	0	62	104	1753219072	52	15979
2026-01-19 09:32:00.61	352.23	15.31	-40.6	-53.3	3.8	1.49e+00	0	62	104	1753219072	52	15909
2026-01-19 09:32:01.62	352.17	15.21	-40.8	-53.3	3.8	1.49e+00	0	62	104	1753219072	52	15844
2026-01-19 09:32:02.63	352.11	15.11	-40.7	-53.3	3.8	1.49e+00	0	62	104	1753219072	52	15761
2026-01-19 09:32:03.64	352.05	15.00	-40.7	-53.3	3.8	1.49e+00	0	62	104	1753219072	52	15904
2026-01-19 09:32:04.65	351.99	14.90	-40.3	-53.3	3.8	1.49e+00	0	62	104	1753219072	52	15841
2026-01-19 09:32:05.66	351.94	14.80	-40.8	-53.3	3.8	1.49e+00	0	62	104	1753219072	52	15860
2026-01-19 09:32:06.67	351.88	14.69	-40.7	-53.3	3.8	1.49e+00	0	62	104	1753219072	52	15790
2026-01-19 09:32:07.68	351.82	14.59	-40.6	-53.3	3.8	1.49e+00	0	62	104	1753219072	52	15829
2026-01-19 09:32:08.69	351.77	14.49	-40.2	-53.3	3.8	1.49e+00	0	62	104	1753219072	52	15852
2026-01-19 09:32:09.70	351.71	14.39	-40.8	-53.3	3.8	1.49e+00	0	62	104	1753219072	52	15879
2026-01-19 09:32:10.71	351.65	14.29	-40.7	-53.2	3.8	1.49e+00	0	62	104	1753219072	52	15587
2026-01-19 09:32:11.72	351.60	14.19	-40.6	-53.2	3.8	1.49e+00	0	62	104	1753219072	52	15735
2026-01-19 09:32:12.73	351.54	14.09	-40.5	-53.3	3.8	1.49e+00	0	62	104	1753219072	52	15875
2026-01-19 09:32:13.74	351.49	13.99	-40.8	-53.3	3.8	1.49e+00	0	62	104	1753219072	52	15824
2026-01-19 09:32:14.75	351.44	13.89	-40.8	-53.3	3.8	1.49e+00	0	62	104	1753219072	52	15852
