passes_logs/2026/01/08/R3.2S_Murmansk/R3.2S_Murmansk__20260108_204318_NOAA_20_JPSS-1_rec.log

#Pass ID: 20260108_204318_NOAA 20 (JPSS-1)
#Satellite: NOAA 20 (JPSS-1)
#Configuration: NOAA 20
#almurnet v.1.7.20251203
#Start time: 2026-01-08 20:43:18

#Version: 2.2.20231116
#Station: R3.2S_Murmansk
#Location: 33.079688 lon 68.888172 lat
#TLE: 1 43013U 17073A   26008.56343035  .00000133  00000+0  84205-4 0  9993
#TLE: 2 43013  98.7630 309.5710 0001731  48.5146 311.6178 14.19534569421822

#Time	Az	El	Level	Level2	SNR	BER	BlckErr	Temp	State	Recorded	gain1	gain2
2026-01-08 20:43:18.18	19.22	2.00	-57.4	-73.3	3.8	1.49e+00	0	22	0	0	81	22000
2026-01-08 20:43:19.15	19.33	2.04	-57.3	-73.3	3.8	1.49e+00	0	22	104	0	79	24649
2026-01-08 20:43:20.12	19.44	2.08	-57.3	-73.3	3.8	1.49e+00	0	23	104	0	79	24660
2026-01-08 20:43:21.09	19.55	2.11	-57.3	-73.3	3.8	1.49e+00	0	22	104	0	79	24568
2026-01-08 20:43:22.05	19.65	2.15	-57.3	-73.3	3.8	1.49e+00	0	22	104	0	79	24577
2026-01-08 20:43:23.02	19.76	2.18	-57.3	-73.3	3.8	1.49e+00	0	22	104	0	79	24615
2026-01-08 20:43:23.99	19.87	2.22	-57.3	-73.3	3.8	1.49e+00	0	23	104	0	79	24587
2026-01-08 20:43:24.95	19.98	2.25	-57.3	-73.3	3.8	1.49e+00	0	23	104	0	79	24557
2026-01-08 20:43:25.91	20.09	2.29	-57.3	-73.3	3.8	1.49e+00	0	23	104	0	79	24617
2026-01-08 20:43:26.88	20.20	2.32	-57.3	-73.3	3.8	1.49e+00	0	23	104	0	79	24610
2026-01-08 20:43:27.85	20.31	2.36	-57.3	-73.3	3.8	1.49e+00	0	23	104	0	79	24583
2026-01-08 20:43:28.81	20.42	2.39	-57.3	-73.3	3.8	1.49e+00	0	23	104	0	79	24546
2026-01-08 20:43:29.78	20.53	2.43	-57.3	-73.3	3.8	1.49e+00	0	23	104	0	79	24463
2026-01-08 20:43:30.75	20.64	2.46	-57.3	-73.3	3.8	1.49e+00	0	23	104	0	79	24598
2026-01-08 20:43:31.72	20.75	2.50	-57.3	-73.3	3.8	1.49e+00	0	23	104	0	79	24569
2026-01-08 20:43:32.69	20.86	2.53	-57.3	-73.3	3.8	1.49e+00	0	23	104	0	79	24474
2026-01-08 20:43:33.65	20.97	2.57	-57.3	-73.3	3.8	1.49e+00	0	23	104	0	79	24488
2026-01-08 20:43:34.61	21.09	2.60	-57.3	-73.2	3.8	1.49e+00	0	23	104	0	79	24376
2026-01-08 20:43:35.58	21.20	2.64	-57.3	-73.3	3.8	1.49e+00	0	23	104	0	79	24448
2026-01-08 20:43:36.55	21.31	2.67	-57.3	-73.2	3.8	1.49e+00	0	23	104	0	79	24356
2026-01-08 20:43:37.52	21.42	2.71	-57.3	-73.2	3.8	1.49e+00	0	23	104	0	79	24316
2026-01-08 20:43:38.48	21.54	2.74	-57.3	-73.2	3.8	1.49e+00	0	23	104	0	79	24142
2026-01-08 20:43:39.45	21.65	2.78	-57.3	-73.2	3.8	1.49e+00	0	23	104	0	79	24261
2026-01-08 20:43:40.42	21.76	2.81	-57.3	-73.2	3.8	1.49e+00	0	23	104	0	79	24319
2026-01-08 20:43:41.39	21.88	2.84	-57.3	-73.2	3.8	1.49e+00	0	23	104	0	79	24392
2026-01-08 20:43:42.35	21.99	2.88	-57.3	-73.2	3.8	1.49e+00	0	23	104	0	79	24361
2026-01-08 20:43:43.32	22.10	2.91	-57.3	-73.2	3.8	1.49e+00	0	23	104	0	79	24389
2026-01-08 20:43:44.29	22.22	2.95	-57.3	-73.2	3.8	1.49e+00	0	23	104	0	79	24354
2026-01-08 20:43:45.26	22.33	2.98	-57.3	-73.2	3.8	1.49e+00	0	23	104	0	79	24283
2026-01-08 20:43:46.23	22.45	3.02	-57.3	-73.2	3.8	1.49e+00	0	23	104	0	79	24280
2026-01-08 20:43:47.19	22.56	3.05	-57.3	-73.1	3.8	1.49e+00	0	23	104	0	79	24098
2026-01-08 20:43:48.16	22.68	3.09	-57.3	-73.2	3.8	1.49e+00	0	23	104	0	79	24173
2026-01-08 20:43:49.12	22.79	3.12	-57.3	-73.1	3.8	1.49e+00	0	23	104	0	79	23989
2026-01-08 20:43:50.08	22.91	3.15	-57.3	-73.2	3.8	1.49e+00	0	23	104	0	79	24197
2026-01-08 20:43:51.05	23.03	3.19	-57.3	-73.2	3.8	1.49e+00	0	23	104	0	79	24156
2026-01-08 20:43:52.02	23.14	3.22	-57.3	-73.2	3.8	1.49e+00	0	23	104	0	79	24408
2026-01-08 20:43:52.99	23.26	3.26	-57.3	-73.2	3.8	1.49e+00	0	23	104	0	79	24410
2026-01-08 20:43:53.96	23.38	3.29	-57.3	-73.3	3.8	1.49e+00	0	23	104	0	79	24428
2026-01-08 20:43:54.93	23.49	3.32	-57.3	-73.3	3.8	1.49e+00	0	23	104	0	79	24494
2026-01-08 20:43:55.89	23.61	3.36	-57.3	-73.3	3.8	1.49e+00	0	23	104	0	79	24622
2026-01-08 20:43:56.86	23.73	3.39	-57.3	-73.3	3.8	1.49e+00	0	23	104	0	79	24525
2026-01-08 20:43:57.83	23.85	3.42	-57.3	-73.3	3.8	1.49e+00	0	23	104	0	79	24555
2026-01-08 20:43:58.79	23.96	3.46	-57.3	-73.2	3.8	1.49e+00	0	23	104	0	79	24402
2026-01-08 20:43:59.76	24.08	3.49	-57.3	-73.3	3.8	1.49e+00	0	23	104	0	79	24500
2026-01-08 20:44:00.73	24.20	3.52	-57.3	-73.3	3.8	1.49e+00	0	23	104	0	79	24459
2026-01-08 20:44:01.70	24.32	3.56	-57.3	-73.3	3.8	1.49e+00	0	24	104	0	79	24605
2026-01-08 20:44:02.66	24.44	3.59	-57.3	-73.3	3.8	1.49e+00	0	23	104	0	79	24643
2026-01-08 20:44:03.63	24.56	3.62	-57.3	-73.3	3.8	1.49e+00	0	24	104	0	79	24609
2026-01-08 20:44:04.60	24.68	3.66	-57.3	-73.3	3.8	1.49e+00	0	24	104	0	79	24613
2026-01-08 20:44:05.57	24.80	3.69	-57.3	-73.3	3.8	1.49e+00	0	24	104	0	79	24597
2026-01-08 20:44:06.53	24.92	3.72	-57.3	-73.3	3.8	1.49e+00	0	24	104	0	79	24542
2026-01-08 20:44:07.50	25.04	3.76	-57.3	-73.3	3.8	1.49e+00	0	24	104	0	79	24525
2026-01-08 20:44:08.47	25.16	3.79	-57.3	-73.2	3.8	1.49e+00	0	24	104	0	79	24403
2026-01-08 20:44:09.43	25.28	3.82	-57.3	-73.2	3.8	1.49e+00	0	24	104	0	79	24305
2026-01-08 20:44:10.40	25.40	3.86	-57.3	-73.2	3.8	1.49e+00	0	24	104	0	79	24346
2026-01-08 20:44:11.37	25.53	3.89	-57.3	-73.2	3.8	1.49e+00	0	23	104	0	79	24332
2026-01-08 20:44:12.34	25.65	3.92	-57.3	-73.1	3.8	1.49e+00	0	24	104	0	79	24117
2026-01-08 20:44:13.30	25.77	3.95	-57.3	-73.1	3.8	1.49e+00	0	24	104	0	79	24029
2026-01-08 20:44:14.27	25.89	3.99	-57.3	-73.2	3.8	1.49e+00	0	24	104	0	79	24351
2026-01-08 20:44:15.23	26.01	4.02	-57.3	-73.3	3.8	1.49e+00	0	24	104	0	79	24629
2026-01-08 20:44:16.20	26.14	4.05	-57.3	-73.3	3.8	1.49e+00	0	24	104	0	79	24661
2026-01-08 20:44:17.16	26.26	4.08	-57.3	-73.3	3.8	1.49e+00	0	24	104	0	79	24558
2026-01-08 20:44:18.13	26.38	4.12	-57.3	-73.1	3.8	1.49e+00	0	24	104	0	79	24109
2026-01-08 20:44:19.09	26.51	4.15	-57.3	-73.2	3.8	1.49e+00	0	24	104	0	79	24394
2026-01-08 20:44:20.06	26.63	4.18	-57.3	-73.3	3.8	1.49e+00	0	24	104	0	79	24461
2026-01-08 20:44:21.02	26.75	4.21	-57.3	-73.3	3.8	1.49e+00	0	24	104	0	79	24532
2026-01-08 20:44:21.99	26.88	4.25	-57.3	-73.3	3.8	1.49e+00	0	24	104	0	79	24565
2026-01-08 20:44:22.97	27.00	4.28	-57.3	-73.3	3.8	1.49e+00	0	24	104	0	79	24527
2026-01-08 20:44:23.93	27.13	4.31	-57.3	-73.2	3.8	1.49e+00	0	24	104	0	79	24319
2026-01-08 20:44:24.90	27.25	4.34	-57.3	-73.3	3.8	1.49e+00	0	24	104	0	79	24483
2026-01-08 20:44:25.87	27.38	4.37	-57.3	-73.2	3.8	1.49e+00	0	24	104	0	79	24336
2026-01-08 20:44:26.83	27.51	4.41	-57.3	-73.3	3.8	1.49e+00	0	24	104	0	79	24619
2026-01-08 20:44:27.80	27.63	4.44	-57.3	-73.3	3.8	1.49e+00	0	24	104	0	79	24479
2026-01-08 20:44:28.76	27.76	4.47	-57.3	-73.0	3.8	1.49e+00	0	24	104	0	79	23817
2026-01-08 20:44:29.73	27.88	4.50	-57.3	-72.5	3.8	1.49e+00	0	24	104	0	79	22355
2026-01-08 20:44:30.69	28.01	4.53	-57.3	-71.9	3.8	1.49e+00	0	24	104	0	79	20796
2026-01-08 20:44:31.66	28.14	4.56	-57.3	-71.9	3.8	1.49e+00	0	24	104	0	79	20954
2026-01-08 20:44:32.63	28.27	4.59	-57.3	-72.2	3.8	1.49e+00	0	24	104	0	79	21554
2026-01-08 20:44:33.59	28.39	4.62	-57.3	-72.1	3.8	1.49e+00	0	24	104	0	79	21386
2026-01-08 20:44:34.56	28.52	4.66	-57.2	-70.8	3.9	1.49e+00	0	24	104	0	79	18317
2026-01-08 20:44:35.53	28.65	4.69	-57.0	-67.5	5.0	1.21e+00	0	24	0	0	79	12567
2026-01-08 20:44:36.49	28.78	4.72	-56.6	-64.4	7.2	3.08e-01	0	24	0	2097152	79	8780
2026-01-08 20:44:37.46	28.90	4.75	-56.1	-62.4	9.0	1.76e-02	0	24	0	4194304	78	7386
2026-01-08 20:44:38.42	29.03	4.78	-55.7	-61.0	10.2	2.40e-03	0	24	0	6291456	78	6302
2026-01-08 20:44:39.39	29.16	4.81	-55.4	-60.2	10.8	6.32e-04	0	24	0	7340032	77	6111
2026-01-08 20:44:40.35	29.29	4.84	-55.2	-59.6	11.2	1.91e-04	0	24	0	9437184	77	5715
2026-01-08 20:44:41.32	29.42	4.87	-55.2	-59.8	11.0	1.17e-04	0	24	0	11534336	76	6186
2026-01-08 20:44:42.28	29.55	4.90	-55.5	-60.4	10.6	4.58e-04	0	24	0	12582912	76	6629
2026-01-08 20:44:43.25	29.68	4.93	-55.6	-60.9	10.2	8.50e-04	0	24	0	14680064	76	7028
2026-01-08 20:44:44.22	29.81	4.96	-56.0	-62.2	9.1	4.33e-03	0	24	0	16777216	77	7638
2026-01-08 20:44:45.18	29.94	4.99	-56.3	-63.4	8.0	1.98e-02	0	24	0	18874368	77	8785
2026-01-08 20:44:46.15	30.07	5.02	-56.6	-64.7	6.9	5.61e-02	0	24	0	19922944	78	9687
2026-01-08 20:44:47.12	30.20	5.05	-57.1	-65.7	6.3	1.36e-01	0	24	0	22020096	79	10239
2026-01-08 20:44:48.09	30.34	5.08	-56.8	-69.7	4.1	5.98e-01	0	24	0	23068672	79	16205
2026-01-08 20:44:49.06	30.47	5.11	-57.1	-66.4	6.0	1.45e-01	0	24	0	25165824	79	11053
2026-01-08 20:44:50.02	30.60	5.14	-54.9	-58.7	12.1	2.88e-02	0	24	0	27262976	76	5455
2026-01-08 20:44:50.99	30.73	5.17	-57.3	-69.1	4.5	7.21e-01	13	24	0	29360128	79	15178
2026-01-08 20:44:51.95	30.86	5.20	-55.0	-58.9	11.9	4.38e-02	0	24	0	30408704	76	5556
2026-01-08 20:44:52.92	31.00	5.23	-54.3	-57.7	12.7	0.00e+00	0	24	0	32505856	75	5116
2026-01-08 20:44:53.89	31.13	5.26	-53.7	-56.7	13.3	0.00e+00	0	24	0	34603008	74	4827
2026-01-08 20:44:54.85	31.26	5.29	-53.5	-56.4	13.4	0.00e+00	0	24	0	35651584	73	4954
2026-01-08 20:44:55.82	31.40	5.32	-53.6	-56.6	13.3	0.00e+00	0	24	0	37748736	73	5054
2026-01-08 20:44:56.79	31.53	5.35	-53.7	-56.7	13.2	7.00e-07	0	24	0	39845888	73	5138
2026-01-08 20:44:57.76	31.67	5.38	-53.7	-56.6	13.2	0.00e+00	0	24	0	41943040	73	5082
2026-01-08 20:44:58.72	31.80	5.41	-53.8	-56.8	13.1	0.00e+00	0	24	0	42991616	73	5187
2026-01-08 20:44:59.69	31.93	5.44	-53.7	-56.6	13.2	0.00e+00	0	24	0	45088768	73	5070
2026-01-08 20:45:00.65	32.07	5.46	-53.7	-56.7	13.2	0.00e+00	0	24	0	47185920	73	5151
2026-01-08 20:45:01.62	32.20	5.49	-53.7	-56.7	13.2	0.00e+00	0	24	0	49283072	73	5138
2026-01-08 20:45:02.59	32.34	5.52	-53.7	-56.7	13.2	0.00e+00	0	24	0	50331648	73	5103
2026-01-08 20:45:03.55	32.47	5.55	-53.7	-56.6	13.2	0.00e+00	0	24	0	52428800	73	5092
2026-01-08 20:45:04.52	32.61	5.58	-53.7	-56.6	13.3	0.00e+00	0	24	0	54525952	73	5093
2026-01-08 20:45:05.49	32.75	5.61	-53.8	-56.8	13.2	0.00e+00	0	24	0	56623104	73	5178
2026-01-08 20:45:06.45	32.88	5.63	-53.7	-56.6	13.3	0.00e+00	0	24	0	57671680	73	5064
2026-01-08 20:45:07.42	33.02	5.66	-53.7	-56.6	13.3	0.00e+00	0	24	0	59768832	73	5090
2026-01-08 20:45:08.39	33.16	5.69	-53.8	-56.7	13.2	0.00e+00	0	24	0	61865984	73	5128
2026-01-08 20:45:09.35	33.29	5.72	-53.8	-56.7	13.2	0.00e+00	0	24	0	62914560	73	5154
2026-01-08 20:45:10.32	33.43	5.75	-53.8	-56.7	13.2	0.00e+00	0	24	0	65011712	73	5157
2026-01-08 20:45:11.28	33.57	5.77	-53.8	-56.7	13.3	0.00e+00	0	24	0	67108864	73	5137
2026-01-08 20:45:12.25	33.71	5.80	-53.8	-56.8	13.2	0.00e+00	0	24	0	69206016	73	5200
2026-01-08 20:45:13.21	33.84	5.83	-53.8	-56.8	13.1	0.00e+00	0	24	0	70254592	73	5206
2026-01-08 20:45:14.18	33.98	5.86	-53.9	-57.0	13.0	0.00e+00	0	24	0	72351744	73	5321
2026-01-08 20:45:15.15	34.12	5.88	-53.9	-57.0	13.0	0.00e+00	0	24	0	74448896	73	5297
2026-01-08 20:45:16.11	34.26	5.91	-53.9	-56.9	13.1	0.00e+00	0	24	0	75497472	73	5256
2026-01-08 20:45:17.08	34.40	5.94	-53.9	-56.9	13.1	0.00e+00	0	24	0	77594624	73	5230
2026-01-08 20:45:18.05	34.54	5.96	-53.9	-57.0	13.0	0.00e+00	0	24	0	79691776	73	5304
2026-01-08 20:45:19.01	34.68	5.99	-53.9	-57.0	13.1	0.00e+00	0	24	0	81788928	73	5292
2026-01-08 20:45:19.97	34.81	6.02	-53.8	-56.8	13.2	0.00e+00	0	24	0	82837504	73	5171
2026-01-08 20:45:20.94	34.96	6.04	-54.0	-57.0	13.0	0.00e+00	0	24	0	84934656	73	5298
2026-01-08 20:45:21.91	35.10	6.07	-53.8	-56.8	13.2	0.00e+00	0	24	0	87031808	73	5197
2026-01-08 20:45:22.87	35.24	6.10	-53.9	-56.9	13.1	0.00e+00	0	24	0	89128960	73	5267
2026-01-08 20:45:23.84	35.38	6.12	-53.9	-56.9	13.1	0.00e+00	0	24	0	90177536	73	5249
2026-01-08 20:45:24.81	35.52	6.15	-53.9	-57.0	13.1	0.00e+00	0	24	0	92274688	73	5304
2026-01-08 20:45:25.77	35.66	6.17	-53.9	-56.8	13.2	0.00e+00	0	24	0	94371840	73	5200
2026-01-08 20:45:26.74	35.80	6.20	-53.8	-56.7	13.3	0.00e+00	0	24	0	96468992	73	5126
2026-01-08 20:45:27.71	35.94	6.23	-53.9	-56.8	13.2	0.00e+00	0	24	0	97517568	73	5196
2026-01-08 20:45:28.68	36.09	6.25	-53.9	-56.9	13.1	0.00e+00	0	24	0	99614720	73	5249
2026-01-08 20:45:29.65	36.23	6.28	-53.9	-56.9	13.2	0.00e+00	0	24	0	101711872	73	5230
2026-01-08 20:45:30.61	36.37	6.30	-53.8	-56.7	13.2	0.00e+00	0	24	0	102760448	73	5137
2026-01-08 20:45:31.58	36.51	6.33	-53.9	-56.8	13.2	0.00e+00	0	24	0	104857600	73	5176
2026-01-08 20:45:32.54	36.66	6.35	-53.9	-56.8	13.2	0.00e+00	0	24	0	106954752	73	5216
2026-01-08 20:45:33.51	36.80	6.38	-53.7	-56.5	13.4	0.00e+00	0	24	0	109051904	73	5035
2026-01-08 20:45:34.47	36.94	6.40	-53.8	-56.7	13.3	0.00e+00	0	24	0	110100480	73	5157
2026-01-08 20:45:35.44	37.09	6.43	-53.8	-56.7	13.3	0.00e+00	0	24	0	112197632	73	5136
2026-01-08 20:45:36.41	37.23	6.45	-53.8	-56.6	13.3	0.00e+00	0	24	0	114294784	73	5091
2026-01-08 20:45:37.37	37.37	6.47	-53.8	-56.8	13.2	0.00e+00	0	24	0	115343360	73	5175
2026-01-08 20:45:38.34	37.52	6.50	-53.9	-57.0	13.1	0.00e+00	0	24	0	117440512	73	5282
2026-01-08 20:45:39.31	37.66	6.52	-54.0	-57.1	13.1	0.00e+00	0	24	0	119537664	73	5351
2026-01-08 20:45:40.27	37.81	6.55	-54.0	-57.0	13.1	0.00e+00	0	24	0	121634816	73	5299
2026-01-08 20:45:41.24	37.95	6.57	-54.1	-57.2	13.0	0.00e+00	0	24	0	122683392	73	5437
2026-01-08 20:45:42.20	38.10	6.60	-54.0	-57.1	13.1	0.00e+00	0	24	0	124780544	73	5353
2026-01-08 20:45:43.17	38.24	6.62	-54.0	-57.0	13.1	0.00e+00	0	24	0	126877696	73	5296
2026-01-08 20:45:44.14	38.39	6.64	-54.0	-57.0	13.1	0.00e+00	0	24	0	128974848	73	5284
2026-01-08 20:45:45.10	38.53	6.67	-53.9	-56.9	13.2	0.00e+00	0	24	0	130023424	73	5271
2026-01-08 20:45:46.07	38.68	6.69	-53.7	-56.6	13.4	0.00e+00	0	24	0	132120576	73	5043
2026-01-08 20:45:47.03	38.83	6.71	-53.7	-56.5	13.4	0.00e+00	0	24	0	134217728	73	5009
2026-01-08 20:45:48.00	38.97	6.74	-53.6	-56.4	13.5	0.00e+00	0	24	0	135266304	73	4966
2026-01-08 20:45:48.97	39.12	6.76	-53.6	-56.4	13.5	0.00e+00	0	24	0	137363456	73	4928
2026-01-08 20:45:49.93	39.27	6.78	-53.6	-56.4	13.5	0.00e+00	0	24	0	139460608	73	4944
2026-01-08 20:45:50.90	39.41	6.80	-53.6	-56.3	13.5	0.00e+00	0	24	0	141557760	73	4905
2026-01-08 20:45:51.87	39.56	6.83	-53.6	-56.4	13.5	0.00e+00	0	24	0	142606336	73	4936
2026-01-08 20:45:52.83	39.71	6.85	-53.5	-56.2	13.6	0.00e+00	0	24	0	144703488	73	4856
2026-01-08 20:45:53.79	39.86	6.87	-53.6	-56.3	13.6	0.00e+00	0	24	0	146800640	73	4909
2026-01-08 20:45:54.76	40.01	6.89	-53.7	-56.4	13.5	0.00e+00	0	24	0	148897792	73	4968
2026-01-08 20:45:55.72	40.15	6.91	-53.7	-56.5	13.4	0.00e+00	0	24	0	149946368	73	4992
2026-01-08 20:45:56.69	40.30	6.94	-53.8	-56.6	13.3	0.00e+00	0	24	0	152043520	73	5081
2026-01-08 20:45:57.66	40.45	6.96	-53.9	-56.7	13.3	0.00e+00	0	24	0	154140672	73	5159
2026-01-08 20:45:58.64	40.60	6.98	-53.9	-56.8	13.2	0.00e+00	0	24	0	156237824	73	5190
2026-01-08 20:45:59.60	40.75	7.00	-54.0	-56.9	13.2	0.00e+00	0	24	0	157286400	73	5269
2026-01-08 20:46:00.57	40.90	7.02	-54.0	-56.9	13.2	0.00e+00	0	24	0	159383552	73	5270
2026-01-08 20:46:01.54	41.05	7.04	-53.8	-56.6	13.3	0.00e+00	0	24	0	161480704	73	5082
2026-01-08 20:46:02.51	41.20	7.06	-53.8	-56.7	13.3	0.00e+00	0	24	0	162529280	73	5108
2026-01-08 20:46:03.47	41.35	7.08	-53.8	-56.7	13.3	0.00e+00	0	24	0	164626432	73	5101
2026-01-08 20:46:04.43	41.50	7.10	-53.8	-56.6	13.4	0.00e+00	0	24	0	166723584	73	5063
2026-01-08 20:46:05.40	41.65	7.12	-53.8	-56.7	13.3	0.00e+00	0	24	0	168820736	73	5106
2026-01-08 20:46:06.37	41.80	7.15	-53.8	-56.7	13.3	0.00e+00	0	24	0	169869312	73	5110
2026-01-08 20:46:07.33	41.95	7.17	-53.8	-56.7	13.3	0.00e+00	0	24	0	171966464	73	5153
2026-01-08 20:46:08.30	42.10	7.19	-53.9	-56.8	13.3	0.00e+00	0	24	0	174063616	73	5167
2026-01-08 20:46:09.27	42.26	7.21	-53.9	-56.7	13.3	0.00e+00	0	24	0	175112192	73	5150
2026-01-08 20:46:10.24	42.41	7.22	-53.8	-56.7	13.3	0.00e+00	0	24	0	177209344	73	5107
2026-01-08 20:46:11.21	42.56	7.24	-53.8	-56.7	13.3	0.00e+00	0	24	0	179306496	73	5106
2026-01-08 20:46:12.17	42.71	7.26	-53.8	-56.6	13.3	0.00e+00	0	24	0	181403648	73	5095
2026-01-08 20:46:13.14	42.86	7.28	-53.8	-56.6	13.4	0.00e+00	0	24	0	182452224	73	5077
2026-01-08 20:46:14.11	43.02	7.30	-53.8	-56.6	13.3	0.00e+00	0	24	0	184549376	73	5079
2026-01-08 20:46:15.08	43.17	7.32	-53.9	-56.8	13.2	0.00e+00	0	24	0	186646528	73	5208
2026-01-08 20:46:16.04	43.32	7.34	-53.9	-56.8	13.2	0.00e+00	0	24	0	188743680	73	5212
2026-01-08 20:46:17.01	43.47	7.36	-54.0	-57.0	13.1	0.00e+00	0	24	0	189792256	73	5290
2026-01-08 20:46:17.98	43.63	7.38	-54.1	-57.1	13.0	0.00e+00	0	24	0	191889408	73	5371
2026-01-08 20:46:18.94	43.78	7.39	-54.0	-56.9	13.2	0.00e+00	0	24	0	193986560	73	5278
2026-01-08 20:46:19.91	43.93	7.41	-53.9	-56.8	13.2	0.00e+00	0	24	0	196083712	73	5202
2026-01-08 20:46:20.87	44.09	7.43	-53.9	-56.7	13.3	0.00e+00	0	24	0	197132288	73	5159
2026-01-08 20:46:21.84	44.24	7.45	-54.0	-56.9	13.1	0.00e+00	0	24	0	199229440	73	5263
2026-01-08 20:46:22.81	44.40	7.47	-53.8	-56.7	13.3	0.00e+00	0	24	0	201326592	73	5153
2026-01-08 20:46:23.78	44.55	7.48	-53.8	-56.7	13.3	0.00e+00	0	24	0	202375168	73	5105
2026-01-08 20:46:24.74	44.70	7.50	-53.8	-56.7	13.3	0.00e+00	0	24	0	204472320	73	5112
2026-01-08 20:46:25.71	44.86	7.52	-53.8	-56.7	13.3	7.00e-07	0	24	0	206569472	73	5126
2026-01-08 20:46:26.68	45.01	7.54	-53.8	-56.7	13.3	0.00e+00	0	24	0	208666624	73	5105
2026-01-08 20:46:27.64	45.17	7.55	-53.7	-56.5	13.4	0.00e+00	0	24	0	209715200	73	5012
2026-01-08 20:46:28.61	45.32	7.57	-53.7	-56.4	13.5	0.00e+00	0	24	0	211812352	73	4973
2026-01-08 20:46:29.58	45.48	7.59	-53.8	-56.6	13.4	0.00e+00	0	24	0	213909504	73	5057
2026-01-08 20:46:30.55	45.64	7.60	-53.9	-56.8	13.3	0.00e+00	0	24	0	216006656	73	5179
2026-01-08 20:46:31.51	45.79	7.62	-53.9	-56.7	13.3	0.00e+00	0	24	0	217055232	73	5155
2026-01-08 20:46:32.48	45.95	7.63	-53.9	-56.8	13.3	0.00e+00	0	24	0	219152384	73	5171
2026-01-08 20:46:33.45	46.10	7.65	-53.8	-56.7	13.3	0.00e+00	0	24	0	221249536	73	5134
2026-01-08 20:46:34.42	46.26	7.67	-53.9	-56.8	13.3	0.00e+00	0	24	0	222298112	73	5168
2026-01-08 20:46:35.39	46.42	7.68	-53.9	-56.8	13.2	0.00e+00	0	24	0	224395264	73	5187
2026-01-08 20:46:36.35	46.57	7.70	-53.9	-56.9	13.2	0.00e+00	0	24	0	226492416	73	5223
2026-01-08 20:46:37.32	46.73	7.71	-53.9	-56.8	13.2	0.00e+00	0	24	0	228589568	73	5212
2026-01-08 20:46:38.29	46.89	7.73	-53.9	-56.7	13.3	0.00e+00	0	24	0	229638144	73	5158
2026-01-08 20:46:39.25	47.04	7.74	-53.8	-56.6	13.4	0.00e+00	0	24	0	231735296	73	5051
2026-01-08 20:46:40.22	47.20	7.76	-53.6	-56.3	13.6	0.00e+00	0	24	0	233832448	73	4907
2026-01-08 20:46:41.18	47.36	7.77	-53.6	-56.3	13.6	0.00e+00	0	24	0	235929600	73	4885
2026-01-08 20:46:42.15	47.51	7.78	-53.6	-56.3	13.6	0.00e+00	0	24	0	236978176	73	4874
2026-01-08 20:46:43.12	47.67	7.80	-53.6	-56.3	13.6	0.00e+00	0	24	0	239075328	73	4893
2026-01-08 20:46:44.08	47.83	7.81	-53.6	-56.3	13.6	0.00e+00	0	24	0	241172480	73	4877
2026-01-08 20:46:45.05	47.99	7.83	-53.6	-56.3	13.6	0.00e+00	0	24	0	243269632	73	4871
2026-01-08 20:46:46.01	48.14	7.84	-53.6	-56.3	13.6	0.00e+00	0	24	0	244318208	73	4873
2026-01-08 20:46:46.98	48.30	7.85	-53.6	-56.4	13.5	0.00e+00	0	24	0	246415360	73	4941
2026-01-08 20:46:47.95	48.46	7.87	-53.7	-56.5	13.5	0.00e+00	0	24	0	248512512	73	4998
2026-01-08 20:46:48.91	48.62	7.88	-53.7	-56.4	13.5	0.00e+00	0	24	0	249561088	73	4974
2026-01-08 20:46:49.88	48.78	7.89	-53.8	-56.7	13.3	0.00e+00	0	24	0	251658240	73	5136
2026-01-08 20:46:50.85	48.94	7.90	-53.8	-56.6	13.4	0.00e+00	0	24	0	253755392	73	5061
2026-01-08 20:46:51.82	49.09	7.92	-53.8	-56.6	13.3	0.00e+00	0	24	0	255852544	73	5081
2026-01-08 20:46:52.79	49.25	7.93	-53.8	-56.7	13.3	0.00e+00	0	24	0	256901120	73	5131
2026-01-08 20:46:53.75	49.41	7.94	-53.9	-56.8	13.2	0.00e+00	0	24	0	258998272	73	5206
2026-01-08 20:46:54.72	49.57	7.95	-54.0	-56.9	13.2	0.00e+00	0	24	0	261095424	73	5275
2026-01-08 20:46:55.69	49.73	7.96	-54.0	-57.0	13.1	0.00e+00	0	24	0	263192576	73	5339
2026-01-08 20:46:56.65	49.89	7.98	-54.0	-57.0	13.1	0.00e+00	0	24	0	264241152	73	5336
2026-01-08 20:46:57.62	50.05	7.99	-54.1	-57.2	13.0	0.00e+00	0	24	0	266338304	73	5450
2026-01-08 20:46:58.59	50.21	8.00	-54.2	-57.3	12.9	0.00e+00	0	24	0	268435456	73	5517
2026-01-08 20:46:59.55	50.37	8.01	-54.2	-57.4	12.9	0.00e+00	0	24	0	269484032	73	5531
2026-01-08 20:47:00.52	50.53	8.02	-54.1	-57.1	13.0	0.00e+00	0	24	0	271581184	73	5389
2026-01-08 20:47:01.48	50.69	8.03	-54.1	-57.2	13.0	0.00e+00	0	24	0	273678336	73	5443
2026-01-08 20:47:02.45	50.85	8.04	-54.1	-57.2	13.0	0.00e+00	0	24	0	275775488	73	5451
2026-01-08 20:47:03.42	51.01	8.05	-54.2	-57.3	12.9	0.00e+00	0	24	0	276824064	73	5498
2026-01-08 20:47:04.38	51.17	8.06	-54.1	-57.2	13.0	0.00e+00	0	24	0	278921216	73	5420
2026-01-08 20:47:05.35	51.33	8.07	-54.1	-57.1	13.0	0.00e+00	0	24	0	281018368	73	5378
2026-01-08 20:47:06.32	51.49	8.08	-54.0	-57.0	13.1	0.00e+00	0	24	0	283115520	73	5288
2026-01-08 20:47:07.28	51.65	8.09	-54.0	-57.0	13.1	0.00e+00	0	24	0	284164096	73	5299
2026-01-08 20:47:08.24	51.81	8.10	-54.0	-57.0	13.1	0.00e+00	0	24	0	286261248	73	5327
2026-01-08 20:47:09.21	51.97	8.11	-53.9	-56.8	13.2	0.00e+00	0	24	0	288358400	73	5196
2026-01-08 20:47:10.17	52.13	8.12	-54.0	-56.9	13.2	0.00e+00	0	24	0	289406976	73	5277
2026-01-08 20:47:11.14	52.29	8.13	-54.1	-57.1	13.1	0.00e+00	0	24	0	291504128	73	5356
2026-01-08 20:47:12.11	52.45	8.14	-54.1	-57.2	13.0	0.00e+00	0	24	0	293601280	73	5424
2026-01-08 20:47:13.07	52.61	8.14	-54.2	-57.3	12.9	0.00e+00	0	24	0	295698432	73	5492
2026-01-08 20:47:14.04	52.78	8.15	-54.2	-57.3	12.9	0.00e+00	0	24	0	296747008	73	5528
2026-01-08 20:47:15.01	52.94	8.16	-54.3	-57.5	12.8	0.00e+00	0	24	0	298844160	73	5594
2026-01-08 20:47:15.97	53.10	8.17	-54.3	-57.5	12.8	0.00e+00	0	24	0	300941312	73	5644
2026-01-08 20:47:16.94	53.26	8.18	-54.5	-57.8	12.7	0.00e+00	0	24	0	303038464	74	5470
2026-01-08 20:47:17.91	53.42	8.18	-54.5	-57.8	12.7	0.00e+00	0	24	0	304087040	74	5501
2026-01-08 20:47:18.87	53.58	8.19	-54.5	-57.8	12.7	0.00e+00	0	24	0	306184192	74	5514
2026-01-08 20:47:19.83	53.74	8.20	-54.5	-57.7	12.8	0.00e+00	0	24	0	308281344	74	5433
2026-01-08 20:47:20.80	53.91	8.20	-54.3	-57.3	13.0	0.00e+00	0	24	0	309329920	74	5215
2026-01-08 20:47:21.77	54.07	8.21	-54.3	-57.3	13.0	0.00e+00	0	24	0	311427072	74	5218
2026-01-08 20:47:22.74	54.23	8.22	-54.3	-57.3	13.0	0.00e+00	0	24	0	313524224	74	5218
2026-01-08 20:47:23.71	54.39	8.22	-54.2	-57.2	13.1	0.00e+00	0	24	0	315621376	74	5144
2026-01-08 20:47:24.67	54.56	8.23	-54.2	-57.2	13.1	0.00e+00	0	24	0	316669952	74	5119
2026-01-08 20:47:25.64	54.72	8.24	-54.1	-57.1	13.2	0.00e+00	0	24	0	318767104	74	5049
2026-01-08 20:47:26.61	54.88	8.24	-54.1	-57.1	13.2	0.00e+00	0	24	0	320864256	74	5087
2026-01-08 20:47:27.57	55.04	8.25	-54.0	-57.0	13.2	0.00e+00	0	24	0	322961408	74	5005
2026-01-08 20:47:28.54	55.21	8.25	-54.1	-57.0	13.2	0.00e+00	0	24	0	324009984	74	5034
2026-01-08 20:47:29.51	55.37	8.26	-54.0	-57.0	13.3	0.00e+00	0	24	0	326107136	74	5015
2026-01-08 20:47:30.47	55.53	8.26	-53.9	-56.8	13.4	0.00e+00	0	24	0	328204288	74	4903
2026-01-08 20:47:31.44	55.69	8.27	-54.0	-57.0	13.3	0.00e+00	0	24	0	329252864	74	4985
2026-01-08 20:47:32.40	55.85	8.27	-53.9	-56.7	13.4	0.00e+00	0	24	0	331350016	74	4850
2026-01-08 20:47:33.37	56.02	8.28	-53.9	-56.8	13.4	0.00e+00	0	24	0	333447168	74	4880
2026-01-08 20:47:34.34	56.18	8.28	-53.9	-56.8	13.3	0.00e+00	0	24	0	335544320	74	4924
2026-01-08 20:47:35.31	56.34	8.28	-54.0	-56.9	13.3	0.00e+00	0	24	0	336592896	74	4953
2026-01-08 20:47:36.28	56.51	8.29	-53.9	-56.8	13.4	0.00e+00	0	24	0	338690048	74	4914
2026-01-08 20:47:37.25	56.67	8.29	-53.9	-56.8	13.4	0.00e+00	0	24	0	340787200	74	4875
2026-01-08 20:47:38.21	56.83	8.29	-53.9	-56.7	13.4	0.00e+00	0	24	0	342884352	74	4848
2026-01-08 20:47:39.18	57.00	8.30	-53.9	-56.7	13.5	0.00e+00	0	24	0	343932928	74	4829
2026-01-08 20:47:40.14	57.16	8.30	-53.9	-56.8	13.4	0.00e+00	0	24	0	346030080	74	4889
2026-01-08 20:47:41.11	57.32	8.30	-53.8	-56.6	13.5	0.00e+00	0	24	0	348127232	74	4803
2026-01-08 20:47:42.07	57.48	8.31	-53.8	-56.6	13.5	0.00e+00	0	24	0	349175808	74	4782
2026-01-08 20:47:43.04	57.65	8.31	-53.8	-56.6	13.5	0.00e+00	0	24	0	351272960	74	4770
2026-01-08 20:47:44.01	57.81	8.31	-53.7	-56.4	13.6	0.00e+00	0	24	0	353370112	74	4694
2026-01-08 20:47:44.98	57.98	8.31	-53.7	-56.4	13.6	0.00e+00	0	24	0	355467264	74	4697
2026-01-08 20:47:45.95	58.14	8.31	-53.8	-56.5	13.6	0.00e+00	0	24	0	356515840	74	4743
2026-01-08 20:47:46.91	58.30	8.31	-53.6	-56.3	13.5	0.00e+00	0	24	0	358612992	73	4917
2026-01-08 20:47:47.88	58.46	8.32	-53.6	-56.3	13.6	0.00e+00	0	24	0	360710144	73	4882
2026-01-08 20:47:48.84	58.63	8.32	-53.5	-56.2	13.6	0.00e+00	0	25	0	362807296	73	4831
2026-01-08 20:47:49.81	58.79	8.32	-53.5	-56.2	13.7	0.00e+00	0	24	0	363855872	73	4842
2026-01-08 20:47:50.77	58.95	8.32	-53.6	-56.2	13.6	0.00e+00	0	24	0	365953024	73	4860
2026-01-08 20:47:51.74	59.12	8.32	-53.6	-56.2	13.6	0.00e+00	0	24	0	368050176	73	4865
2026-01-08 20:47:52.71	59.28	8.32	-53.5	-56.2	13.7	0.00e+00	0	24	0	369098752	73	4822
2026-01-08 20:47:53.68	59.44	8.32	-53.6	-56.3	13.6	0.00e+00	0	24	0	371195904	73	4880
2026-01-08 20:47:54.64	59.61	8.32	-53.5	-56.1	13.7	0.00e+00	0	24	0	373293056	73	4802
2026-01-08 20:47:55.61	59.77	8.32	-53.4	-56.0	13.7	0.00e+00	0	25	0	375390208	73	4757
2026-01-08 20:47:56.57	59.93	8.32	-53.4	-56.0	13.8	0.00e+00	0	24	0	376438784	73	4747
2026-01-08 20:47:57.54	60.10	8.32	-53.3	-55.9	13.8	0.00e+00	0	24	0	378535936	73	4678
2026-01-08 20:47:58.50	60.26	8.32	-53.4	-56.0	13.8	0.00e+00	0	24	0	380633088	73	4708
2026-01-08 20:47:59.47	60.42	8.32	-53.1	-55.5	13.9	0.00e+00	0	25	0	382730240	72	4730
2026-01-08 20:48:00.44	60.59	8.32	-53.0	-55.5	14.0	0.00e+00	0	24	0	383778816	72	4717
2026-01-08 20:48:01.40	60.75	8.31	-53.0	-55.4	14.0	0.00e+00	0	25	0	385875968	72	4679
2026-01-08 20:48:02.37	60.91	8.31	-52.9	-55.3	14.0	0.00e+00	0	24	0	387973120	72	4632
2026-01-08 20:48:03.33	61.07	8.31	-52.9	-55.2	14.1	0.00e+00	0	24	0	389021696	72	4582
2026-01-08 20:48:04.30	61.24	8.31	-52.9	-55.3	14.1	0.00e+00	0	24	0	391118848	72	4615
2026-01-08 20:48:05.26	61.40	8.31	-52.9	-55.2	14.1	0.00e+00	0	24	0	393216000	72	4571
2026-01-08 20:48:06.22	61.56	8.30	-52.9	-55.3	14.0	0.00e+00	0	24	0	395313152	72	4628
2026-01-08 20:48:07.19	61.72	8.30	-53.1	-55.5	13.9	0.00e+00	0	24	0	396361728	72	4731
2026-01-08 20:48:08.16	61.89	8.30	-53.1	-55.6	13.9	0.00e+00	0	24	0	398458880	72	4762
2026-01-08 20:48:09.12	62.05	8.30	-53.1	-55.6	13.9	0.00e+00	0	24	0	400556032	72	4775
2026-01-08 20:48:10.09	62.21	8.29	-53.2	-55.7	13.8	0.00e+00	0	25	0	402653184	72	4856
2026-01-08 20:48:11.06	62.38	8.29	-53.1	-55.6	13.9	0.00e+00	0	25	0	403701760	72	4797
2026-01-08 20:48:12.03	62.54	8.29	-53.2	-55.7	13.8	0.00e+00	0	24	0	405798912	72	4821
2026-01-08 20:48:12.99	62.70	8.28	-53.2	-55.7	13.8	0.00e+00	0	24	0	407896064	72	4847
2026-01-08 20:48:13.95	62.86	8.28	-53.2	-55.7	13.8	0.00e+00	0	25	0	408944640	72	4864
2026-01-08 20:48:14.92	63.03	8.27	-53.1	-55.5	13.9	0.00e+00	0	24	0	411041792	72	4743
2026-01-08 20:48:15.89	63.19	8.27	-53.1	-55.6	13.9	0.00e+00	0	24	0	413138944	72	4769
2026-01-08 20:48:16.86	63.35	8.26	-53.0	-55.4	14.0	0.00e+00	0	24	0	415236096	72	4686
2026-01-08 20:48:17.82	63.52	8.26	-52.9	-55.3	14.0	0.00e+00	0	24	0	416284672	72	4641
2026-01-08 20:48:18.79	63.68	8.25	-52.9	-55.3	14.1	0.00e+00	0	24	0	418381824	72	4618
2026-01-08 20:48:19.75	63.84	8.25	-52.8	-55.1	14.1	0.00e+00	0	24	0	420478976	72	4545
2026-01-08 20:48:20.72	64.00	8.24	-52.8	-55.1	14.2	0.00e+00	0	24	0	422576128	72	4528
2026-01-08 20:48:21.69	64.17	8.24	-52.8	-55.2	14.1	0.00e+00	0	24	0	423624704	72	4567
2026-01-08 20:48:22.66	64.33	8.23	-52.9	-55.3	14.0	0.00e+00	0	25	0	425721856	72	4606
2026-01-08 20:48:23.62	64.49	8.23	-53.0	-55.4	14.0	0.00e+00	0	24	0	427819008	72	4660
2026-01-08 20:48:24.59	64.65	8.22	-53.0	-55.3	14.0	0.00e+00	0	24	0	429916160	72	4646
2026-01-08 20:48:25.56	64.82	8.21	-53.0	-55.4	14.0	0.00e+00	0	24	0	430964736	72	4667
2026-01-08 20:48:26.52	64.98	8.21	-52.9	-55.3	14.0	0.00e+00	0	25	0	433061888	72	4640
2026-01-08 20:48:27.49	65.14	8.20	-52.9	-55.2	14.1	0.00e+00	0	24	0	435159040	72	4590
2026-01-08 20:48:28.45	65.30	8.19	-52.9	-55.3	14.1	0.00e+00	0	25	0	436207616	72	4600
2026-01-08 20:48:29.42	65.46	8.19	-52.8	-55.2	14.1	0.00e+00	0	24	0	438304768	72	4555
2026-01-08 20:48:30.39	65.63	8.18	-52.9	-55.3	14.1	0.00e+00	0	24	0	440401920	72	4628
2026-01-08 20:48:31.35	65.79	8.17	-52.9	-55.3	14.1	0.00e+00	0	24	0	442499072	72	4603
2026-01-08 20:48:32.32	65.95	8.16	-52.9	-55.3	14.1	0.00e+00	0	24	0	443547648	72	4620
2026-01-08 20:48:33.29	66.11	8.16	-52.9	-55.3	14.0	0.00e+00	0	25	0	445644800	72	4643
2026-01-08 20:48:34.25	66.27	8.15	-52.9	-55.3	14.0	0.00e+00	0	24	0	447741952	72	4644
2026-01-08 20:48:35.22	66.43	8.14	-53.0	-55.5	13.9	0.00e+00	0	24	0	448790528	72	4724
2026-01-08 20:48:36.19	66.59	8.13	-53.1	-55.5	13.9	0.00e+00	0	24	0	450887680	72	4725
2026-01-08 20:48:37.15	66.75	8.12	-53.1	-55.6	13.9	0.00e+00	0	24	0	452984832	72	4771
2026-01-08 20:48:38.12	66.92	8.11	-53.2	-55.7	13.8	0.00e+00	0	25	0	455081984	72	4824
2026-01-08 20:48:39.09	67.08	8.10	-53.2	-55.8	13.8	0.00e+00	0	25	0	456130560	72	4879
2026-01-08 20:48:40.05	67.24	8.10	-53.2	-55.7	13.7	0.00e+00	0	24	0	458227712	72	4868
2026-01-08 20:48:41.02	67.40	8.09	-53.2	-55.7	13.8	0.00e+00	0	24	0	460324864	72	4840
2026-01-08 20:48:41.99	67.56	8.08	-53.2	-55.8	13.8	0.00e+00	0	25	0	462422016	72	4871
2026-01-08 20:48:42.96	67.72	8.07	-53.2	-55.8	13.8	0.00e+00	0	25	0	463470592	72	4879
2026-01-08 20:48:43.92	67.88	8.06	-53.2	-55.8	13.8	0.00e+00	0	25	0	465567744	72	4876
2026-01-08 20:48:44.89	68.04	8.05	-53.3	-55.9	13.7	0.00e+00	0	24	0	467664896	72	4949
2026-01-08 20:48:45.86	68.20	8.04	-53.2	-55.8	13.7	0.00e+00	0	24	0	469762048	72	4886
2026-01-08 20:48:46.82	68.36	8.03	-53.2	-55.7	13.8	0.00e+00	0	24	0	470810624	72	4858
2026-01-08 20:48:47.79	68.52	8.01	-53.2	-55.8	13.8	0.00e+00	0	24	0	472907776	72	4871
2026-01-08 20:48:48.75	68.68	8.00	-53.2	-55.7	13.8	0.00e+00	0	24	0	475004928	72	4830
2026-01-08 20:48:49.72	68.84	7.99	-53.2	-55.7	13.8	0.00e+00	0	25	0	476053504	72	4832
2026-01-08 20:48:50.68	69.00	7.98	-53.2	-55.7	13.8	0.00e+00	0	24	0	478150656	72	4821
2026-01-08 20:48:51.65	69.16	7.97	-53.0	-55.4	13.9	0.00e+00	0	24	0	480247808	72	4705
2026-01-08 20:48:52.62	69.32	7.96	-52.9	-55.3	14.0	0.00e+00	0	24	0	482344960	72	4647
2026-01-08 20:48:53.59	69.48	7.95	-52.9	-55.3	14.0	0.00e+00	0	24	0	483393536	72	4629
2026-01-08 20:48:54.55	69.64	7.93	-52.9	-55.3	14.0	0.00e+00	0	24	0	485490688	72	4606
2026-01-08 20:48:55.51	69.80	7.92	-52.9	-55.3	14.0	0.00e+00	0	24	0	487587840	72	4602
2026-01-08 20:48:56.48	69.96	7.91	-52.9	-55.3	14.0	0.00e+00	0	24	0	488636416	72	4604
2026-01-08 20:48:57.44	70.12	7.90	-52.7	-55.1	14.2	0.00e+00	0	24	0	490733568	72	4495
2026-01-08 20:48:58.41	70.27	7.88	-52.8	-55.2	14.1	0.00e+00	0	24	0	492830720	72	4573
2026-01-08 20:48:59.38	70.43	7.87	-52.8	-55.1	14.1	0.00e+00	0	24	0	494927872	72	4531
2026-01-08 20:49:00.34	70.59	7.86	-52.8	-55.1	14.1	0.00e+00	0	24	0	495976448	72	4541
2026-01-08 20:49:01.31	70.75	7.84	-53.0	-55.4	14.0	0.00e+00	0	24	0	498073600	72	4670
2026-01-08 20:49:02.28	70.91	7.83	-53.0	-55.5	13.9	0.00e+00	0	24	0	500170752	72	4728
2026-01-08 20:49:03.24	71.07	7.82	-53.1	-55.7	13.8	0.00e+00	0	24	0	502267904	72	4816
2026-01-08 20:49:04.21	71.22	7.80	-53.2	-55.8	13.7	0.00e+00	0	25	0	503316480	72	4885
2026-01-08 20:49:05.18	71.38	7.79	-53.3	-55.9	13.6	0.00e+00	0	24	0	505413632	72	4963
2026-01-08 20:49:06.14	71.54	7.78	-53.4	-56.0	13.6	0.00e+00	0	24	0	507510784	72	5028
2026-01-08 20:49:07.11	71.70	7.76	-53.5	-56.2	13.5	0.00e+00	0	24	0	509607936	72	5112
2026-01-08 20:49:08.07	71.85	7.75	-53.5	-56.2	13.5	0.00e+00	0	25	0	510656512	72	5128
2026-01-08 20:49:09.04	72.01	7.73	-53.4	-56.1	13.5	0.00e+00	0	24	0	512753664	72	5085
2026-01-08 20:49:10.01	72.17	7.72	-53.4	-56.1	13.6	0.00e+00	0	24	0	514850816	72	5048
2026-01-08 20:49:10.98	72.33	7.70	-53.3	-56.0	13.6	0.00e+00	0	24	0	515899392	72	5001
2026-01-08 20:49:11.95	72.48	7.69	-53.2	-55.8	13.8	0.00e+00	0	24	0	517996544	72	4883
2026-01-08 20:49:12.91	72.64	7.67	-53.2	-55.7	13.8	0.00e+00	0	25	0	520093696	72	4847
2026-01-08 20:49:13.88	72.80	7.66	-52.9	-55.3	14.0	0.00e+00	0	24	0	522190848	72	4603
2026-01-08 20:49:14.85	72.95	7.64	-52.9	-55.3	14.0	0.00e+00	0	24	0	523239424	72	4621
2026-01-08 20:49:15.81	73.11	7.62	-52.9	-55.3	14.1	0.00e+00	0	24	0	525336576	72	4609
2026-01-08 20:49:16.78	73.26	7.61	-52.8	-55.2	14.1	0.00e+00	0	25	0	527433728	72	4585
2026-01-08 20:49:17.75	73.42	7.59	-52.8	-55.1	14.1	0.00e+00	0	24	0	529530880	72	4529
2026-01-08 20:49:18.72	73.58	7.58	-52.8	-55.2	14.0	0.00e+00	0	24	0	530579456	72	4588
2026-01-08 20:49:19.68	73.73	7.56	-52.7	-55.1	14.2	0.00e+00	0	24	0	532676608	72	4497
2026-01-08 20:49:20.65	73.89	7.54	-52.6	-54.9	14.1	0.00e+00	0	24	0	534773760	71	4672
2026-01-08 20:49:21.61	74.04	7.53	-52.6	-54.8	14.1	0.00e+00	0	24	0	535822336	71	4651
2026-01-08 20:49:22.58	74.20	7.51	-52.5	-54.8	14.2	0.00e+00	0	25	0	537919488	71	4623
2026-01-08 20:49:23.54	74.35	7.49	-52.5	-54.8	14.2	0.00e+00	0	24	0	540016640	71	4632
2026-01-08 20:49:24.51	74.51	7.47	-52.5	-54.7	14.2	0.00e+00	0	24	0	542113792	71	4578
2026-01-08 20:49:25.47	74.66	7.46	-52.5	-54.8	14.2	0.00e+00	0	24	0	543162368	71	4602
2026-01-08 20:49:26.44	74.81	7.44	-52.5	-54.7	14.2	0.00e+00	0	24	0	545259520	71	4593
2026-01-08 20:49:27.40	74.97	7.42	-52.4	-54.6	14.3	0.00e+00	0	24	0	547356672	71	4508
2026-01-08 20:49:28.37	75.12	7.40	-52.5	-54.7	14.2	0.00e+00	0	24	0	549453824	71	4573
2026-01-08 20:49:29.34	75.28	7.38	-52.6	-54.8	14.1	0.00e+00	0	24	0	550502400	71	4647
2026-01-08 20:49:30.31	75.43	7.37	-52.6	-55.0	14.1	0.00e+00	0	24	0	552599552	71	4713
2026-01-08 20:49:31.27	75.58	7.35	-52.6	-54.9	14.1	0.00e+00	0	24	0	554696704	71	4694
2026-01-08 20:49:32.23	75.73	7.33	-52.7	-55.0	14.0	0.00e+00	0	24	0	555745280	71	4750
2026-01-08 20:49:33.20	75.89	7.31	-52.7	-55.1	14.0	0.00e+00	0	24	0	557842432	71	4760
2026-01-08 20:49:34.17	76.04	7.29	-52.6	-55.0	14.1	0.00e+00	0	24	0	559939584	71	4718
2026-01-08 20:49:35.14	76.19	7.27	-52.6	-54.9	14.1	0.00e+00	0	24	0	562036736	71	4658
2026-01-08 20:49:36.10	76.35	7.25	-52.7	-55.1	14.0	0.00e+00	0	24	0	563085312	71	4792
2026-01-08 20:49:37.07	76.50	7.23	-52.7	-55.1	14.0	0.00e+00	0	24	0	565182464	71	4771
2026-01-08 20:49:38.03	76.65	7.21	-52.8	-55.2	13.9	0.00e+00	0	24	0	567279616	71	4859
2026-01-08 20:49:39.00	76.80	7.19	-52.8	-55.2	13.9	0.00e+00	0	24	0	569376768	71	4866
2026-01-08 20:49:39.97	76.95	7.17	-52.8	-55.2	13.9	0.00e+00	0	24	0	570425344	71	4861
2026-01-08 20:49:40.94	77.11	7.15	-52.8	-55.2	14.0	0.00e+00	0	24	0	572522496	71	4832
2026-01-08 20:49:41.90	77.26	7.13	-52.7	-55.1	14.0	0.00e+00	0	24	0	574619648	71	4799
2026-01-08 20:49:42.87	77.41	7.11	-52.7	-55.1	14.0	0.00e+00	0	24	0	575668224	71	4778
2026-01-08 20:49:43.83	77.56	7.09	-52.7	-55.1	14.0	0.00e+00	0	24	0	577765376	71	4793
2026-01-08 20:49:44.80	77.71	7.07	-52.7	-55.1	14.0	0.00e+00	0	24	0	579862528	71	4798
2026-01-08 20:49:45.77	77.86	7.05	-52.6	-54.9	14.1	0.00e+00	0	24	0	581959680	71	4665
2026-01-08 20:49:46.74	78.01	7.03	-52.6	-55.0	14.1	0.00e+00	0	24	0	583008256	71	4715
2026-01-08 20:49:47.71	78.16	7.01	-52.6	-54.9	14.1	0.00e+00	0	24	0	585105408	71	4693
2026-01-08 20:49:48.67	78.31	6.99	-52.6	-55.0	14.1	0.00e+00	0	24	0	587202560	71	4711
2026-01-08 20:49:49.64	78.46	6.96	-52.7	-55.2	14.0	0.00e+00	0	24	0	589299712	71	4816
2026-01-08 20:49:50.60	78.61	6.94	-52.8	-55.3	13.8	0.00e+00	0	25	0	590348288	71	4903
2026-01-08 20:49:51.57	78.76	6.92	-52.9	-55.3	13.8	0.00e+00	0	24	0	592445440	71	4925
2026-01-08 20:49:52.54	78.91	6.90	-53.0	-55.6	13.7	0.00e+00	0	24	0	594542592	71	5055
2026-01-08 20:49:53.50	79.05	6.88	-53.0	-55.6	13.7	0.00e+00	0	24	0	595591168	71	5075
2026-01-08 20:49:54.47	79.20	6.85	-53.1	-55.7	13.6	0.00e+00	0	24	0	597688320	71	5119
2026-01-08 20:49:55.44	79.35	6.83	-53.2	-55.8	13.5	0.00e+00	0	24	0	599785472	71	5196
2026-01-08 20:49:56.40	79.50	6.81	-53.3	-56.0	13.5	0.00e+00	0	24	0	601882624	71	5289
2026-01-08 20:49:57.37	79.65	6.79	-53.3	-56.0	13.4	0.00e+00	0	24	0	602931200	71	5338
2026-01-08 20:49:58.34	79.79	6.76	-53.5	-56.3	13.3	0.00e+00	0	24	0	605028352	72	5188
2026-01-08 20:49:59.30	79.94	6.74	-53.5	-56.3	13.4	0.00e+00	0	24	0	607125504	72	5164
2026-01-08 20:50:00.27	80.09	6.72	-53.4	-56.1	13.5	0.00e+00	0	24	0	609222656	72	5064
2026-01-08 20:50:01.24	80.24	6.70	-53.3	-55.9	13.6	0.00e+00	0	24	0	610271232	72	4964
2026-01-08 20:50:02.20	80.38	6.67	-53.3	-56.0	13.6	0.00e+00	0	24	0	612368384	72	5020
2026-01-08 20:50:03.17	80.53	6.65	-53.1	-55.7	13.7	0.00e+00	0	24	0	614465536	72	4862
2026-01-08 20:50:04.14	80.68	6.63	-53.1	-55.7	13.7	0.00e+00	0	24	0	616562688	72	4842
2026-01-08 20:50:05.10	80.82	6.60	-53.2	-55.8	13.7	0.00e+00	0	24	0	617611264	72	4890
2026-01-08 20:50:06.07	80.97	6.58	-53.1	-55.7	13.7	0.00e+00	0	24	0	619708416	72	4852
2026-01-08 20:50:07.04	81.11	6.55	-53.0	-55.6	13.8	0.00e+00	0	24	0	621805568	72	4795
2026-01-08 20:50:08.00	81.26	6.53	-53.2	-55.8	13.7	0.00e+00	0	24	0	622854144	72	4881
2026-01-08 20:50:08.97	81.40	6.51	-53.2	-55.8	13.6	0.00e+00	0	24	0	624951296	72	4916
2026-01-08 20:50:09.94	81.55	6.48	-53.3	-55.9	13.6	0.00e+00	0	24	0	627048448	72	4974
2026-01-08 20:50:10.91	81.69	6.46	-53.3	-56.0	13.5	0.00e+00	0	24	0	629145600	72	5015
2026-01-08 20:50:11.88	81.84	6.43	-53.3	-56.0	13.5	0.00e+00	0	24	0	630194176	72	5019
2026-01-08 20:50:12.84	81.98	6.41	-53.3	-55.9	13.6	0.00e+00	0	24	0	632291328	72	4977
2026-01-08 20:50:13.81	82.13	6.38	-53.3	-56.0	13.5	0.00e+00	0	24	0	634388480	72	4997
2026-01-08 20:50:14.77	82.27	6.36	-53.3	-56.0	13.6	0.00e+00	0	24	0	635437056	72	5003
2026-01-08 20:50:15.74	82.41	6.33	-53.5	-56.3	13.3	0.00e+00	0	24	0	637534208	72	5193
2026-01-08 20:50:16.70	82.55	6.31	-53.7	-56.6	13.2	0.00e+00	0	24	0	639631360	72	5353
2026-01-08 20:50:17.68	82.70	6.28	-53.8	-56.8	13.0	0.00e+00	0	24	0	641728512	72	5470
2026-01-08 20:50:18.64	82.84	6.26	-54.0	-57.1	13.0	0.00e+00	0	24	0	642777088	73	5361
2026-01-08 20:50:19.61	82.98	6.23	-54.1	-57.4	12.7	0.00e+00	0	24	0	644874240	73	5580
2026-01-08 20:50:20.57	83.13	6.20	-54.3	-57.7	12.5	0.00e+00	0	24	0	646971392	73	5764
2026-01-08 20:50:21.54	83.27	6.18	-54.4	-57.9	12.5	0.00e+00	0	24	0	649068544	74	5592
2026-01-08 20:50:22.50	83.41	6.15	-54.5	-58.2	12.3	1.50e-06	0	24	0	650117120	74	5729
2026-01-08 20:50:23.47	83.55	6.13	-54.6	-58.3	12.2	3.00e-06	0	24	0	652214272	74	5809
2026-01-08 20:50:24.43	83.69	6.10	-54.5	-58.1	12.3	0.00e+00	0	24	0	654311424	74	5721
2026-01-08 20:50:25.40	83.83	6.07	-54.4	-57.8	12.5	1.50e-06	0	24	0	656408576	74	5514
2026-01-08 20:50:26.36	83.97	6.05	-54.4	-57.9	12.4	1.50e-06	0	24	0	657457152	74	5581
2026-01-08 20:50:27.33	84.11	6.02	-54.4	-57.9	12.4	7.00e-07	0	24	0	659554304	74	5581
2026-01-08 20:50:28.30	84.25	5.99	-54.3	-57.8	12.5	7.00e-07	0	24	0	661651456	74	5483
2026-01-08 20:50:29.27	84.39	5.97	-54.2	-57.5	12.7	0.00e+00	0	24	0	662700032	74	5314
2026-01-08 20:50:30.24	84.54	5.94	-54.2	-57.6	12.7	0.00e+00	0	24	0	664797184	74	5345
2026-01-08 20:50:31.20	84.67	5.91	-54.3	-57.6	12.7	0.00e+00	0	24	0	666894336	74	5396
2026-01-08 20:50:32.17	84.81	5.89	-54.2	-57.6	12.7	0.00e+00	0	24	0	668991488	74	5373
2026-01-08 20:50:33.13	84.95	5.86	-54.3	-57.6	12.6	0.00e+00	0	24	0	670040064	74	5398
2026-01-08 20:50:34.10	85.09	5.83	-54.1	-57.4	12.8	0.00e+00	0	24	0	672137216	74	5236
2026-01-08 20:50:35.06	85.23	5.80	-54.0	-57.3	12.9	0.00e+00	0	24	0	674234368	74	5168
2026-01-08 20:50:36.03	85.37	5.78	-53.9	-57.0	13.0	0.00e+00	0	24	0	675282944	74	5028
2026-01-08 20:50:37.00	85.51	5.75	-53.9	-57.0	13.1	0.00e+00	0	24	0	677380096	74	4993
2026-01-08 20:50:37.96	85.64	5.72	-53.9	-57.1	13.0	0.00e+00	0	24	0	679477248	74	5045
2026-01-08 20:50:38.93	85.78	5.69	-54.0	-57.2	12.9	0.00e+00	0	24	0	681574400	74	5134
2026-01-08 20:50:39.89	85.92	5.67	-54.0	-57.3	12.9	0.00e+00	0	24	0	682622976	74	5182
2026-01-08 20:50:40.85	86.05	5.64	-54.2	-57.6	12.6	0.00e+00	0	24	0	684720128	74	5383
2026-01-08 20:50:41.82	86.19	5.61	-54.3	-57.9	12.5	0.00e+00	0	24	0	686817280	74	5539
2026-01-08 20:50:42.79	86.33	5.58	-54.5	-58.1	12.2	0.00e+00	0	24	0	688914432	74	5701
2026-01-08 20:50:43.76	86.46	5.55	-54.6	-58.4	12.0	3.00e-06	0	25	0	689963008	74	5880
2026-01-08 20:50:44.72	86.60	5.52	-54.7	-58.7	11.8	6.10e-06	0	24	0	692060160	74	6094
2026-01-08 20:50:45.68	86.73	5.49	-54.9	-59.0	11.6	9.90e-06	0	24	0	694157312	74	6276
2026-01-08 20:50:46.65	86.87	5.47	-54.8	-58.9	11.7	1.37e-05	0	24	0	696254464	74	6215
2026-01-08 20:50:47.61	87.01	5.44	-55.0	-59.2	11.5	2.21e-05	0	24	0	697303040	75	6121
2026-01-08 20:50:48.58	87.14	5.41	-55.2	-59.7	11.1	7.93e-05	0	24	0	699400192	75	6486
2026-01-08 20:50:49.55	87.28	5.38	-55.2	-59.8	11.1	1.08e-04	0	24	0	701497344	75	6502
2026-01-08 20:50:50.52	87.41	5.35	-55.2	-59.7	11.1	1.07e-04	0	24	0	702545920	75	6480
2026-01-08 20:50:51.48	87.54	5.32	-55.2	-59.7	11.1	1.20e-04	0	24	0	704643072	75	6439
2026-01-08 20:50:52.45	87.68	5.29	-55.1	-59.5	11.2	1.11e-04	0	24	0	706740224	75	6314
2026-01-08 20:50:53.41	87.81	5.26	-55.1	-59.5	11.2	7.32e-05	0	24	0	708837376	75	6300
2026-01-08 20:50:54.38	87.95	5.23	-55.0	-59.4	11.3	7.85e-05	0	25	0	709885952	75	6205
2026-01-08 20:50:55.35	88.08	5.20	-55.0	-59.3	11.4	4.27e-05	0	24	0	711983104	75	6179
2026-01-08 20:50:56.31	88.21	5.17	-55.0	-59.3	11.4	4.42e-05	0	24	0	714080256	75	6151
2026-01-08 20:50:57.27	88.34	5.14	-54.8	-58.8	11.8	1.83e-05	0	24	0	715128832	75	5851
2026-01-08 20:50:58.24	88.48	5.11	-54.9	-59.0	11.6	2.44e-05	0	24	0	717225984	75	5960
2026-01-08 20:50:59.21	88.61	5.08	-54.9	-59.1	11.6	3.35e-05	0	25	0	719323136	75	5995
2026-01-08 20:51:00.17	88.74	5.05	-54.8	-58.9	11.7	2.21e-05	0	24	0	721420288	75	5918
2026-01-08 20:51:01.14	88.87	5.02	-54.8	-58.9	11.7	1.44e-05	0	24	0	722468864	75	5863
2026-01-08 20:51:02.11	89.00	4.99	-57.7	-73.6	3.8	6.67e-01	0	24	104	724566016	80	23974
2026-01-08 20:51:03.08	89.14	4.96	-58.0	-74.1	3.8	1.49e+00	0	24	104	724566016	81	23968
2026-01-08 20:51:04.05	89.27	4.93	-58.3	-74.3	3.8	1.49e+00	0	24	104	724566016	81	24656
2026-01-08 20:51:05.01	89.40	4.90	-58.5	-74.6	3.8	1.49e+00	0	24	104	724566016	82	24009
2026-01-08 20:51:05.98	89.53	4.87	-58.7	-74.8	3.8	1.49e+00	0	25	104	724566016	82	24421
2026-01-08 20:51:06.95	89.66	4.84	-58.8	-74.9	3.8	1.49e+00	0	25	104	724566016	82	24816
2026-01-08 20:51:07.92	89.79	4.81	-59.0	-75.0	3.8	1.49e+00	0	24	104	724566016	83	23832
2026-01-08 20:51:08.88	89.92	4.78	-59.1	-75.2	3.8	1.49e+00	0	24	104	724566016	83	24177
2026-01-08 20:51:09.85	90.05	4.75	-59.2	-75.3	3.8	1.49e+00	0	25	104	724566016	83	24484
2026-01-08 20:51:10.82	90.18	4.72	-59.3	-75.4	3.8	1.49e+00	0	25	104	724566016	83	24718
2026-01-08 20:51:11.78	90.30	4.69	-59.4	-75.4	3.8	1.49e+00	0	24	104	724566016	83	24938
2026-01-08 20:51:12.75	90.43	4.65	-59.6	-75.7	3.8	1.49e+00	0	24	104	724566016	84	24309
2026-01-08 20:51:13.71	90.56	4.62	-59.7	-75.8	3.8	1.49e+00	0	24	104	724566016	84	24463
2026-01-08 20:51:14.68	90.69	4.59	-59.8	-75.8	3.8	1.49e+00	0	24	104	724566016	84	24598
2026-01-08 20:51:15.65	90.82	4.56	-59.8	-75.9	3.8	1.49e+00	0	24	104	724566016	84	24767
2026-01-08 20:51:16.61	90.94	4.53	-59.9	-76.0	3.8	1.49e+00	0	24	104	724566016	84	25032
2026-01-08 20:51:17.58	91.07	4.50	-59.9	-76.0	3.8	1.49e+00	0	24	104	724566016	85	23776
2026-01-08 20:51:18.55	91.20	4.47	-60.0	-76.1	3.8	1.49e+00	0	25	104	724566016	85	23958
2026-01-08 20:51:19.51	91.32	4.43	-60.0	-76.1	3.8	1.49e+00	0	25	104	724566016	85	24047
2026-01-08 20:51:20.48	91.45	4.40	-60.1	-76.2	3.8	1.49e+00	0	24	104	724566016	85	24160
2026-01-08 20:51:21.45	91.58	4.37	-60.1	-76.2	3.8	1.49e+00	0	24	104	724566016	85	24257
2026-01-08 20:51:22.42	91.70	4.34	-60.1	-76.2	3.8	1.49e+00	0	25	104	724566016	85	24301
2026-01-08 20:51:23.38	91.83	4.31	-60.2	-76.3	3.8	1.49e+00	0	24	104	724566016	85	24522
2026-01-08 20:51:24.35	91.95	4.27	-60.2	-76.3	3.8	1.49e+00	0	24	104	724566016	85	24558
2026-01-08 20:51:25.32	92.08	4.24	-60.2	-76.4	3.8	1.49e+00	0	24	104	724566016	85	24700
2026-01-08 20:51:26.28	92.20	4.21	-60.2	-76.3	3.8	1.49e+00	0	24	104	724566016	85	24644
2026-01-08 20:51:27.25	92.33	4.18	-60.2	-76.3	3.8	1.49e+00	0	25	104	724566016	85	24419
2026-01-08 20:51:28.22	92.45	4.14	-60.2	-76.3	3.8	1.49e+00	0	24	104	724566016	85	24488
2026-01-08 20:51:29.18	92.58	4.11	-60.1	-76.2	3.8	1.49e+00	0	24	104	724566016	85	24382
2026-01-08 20:51:30.15	92.70	4.08	-60.1	-76.2	3.8	1.49e+00	0	24	104	724566016	85	24292
2026-01-08 20:51:31.11	92.82	4.05	-60.1	-76.2	3.8	1.49e+00	0	24	104	724566016	85	24295
2026-01-08 20:51:32.08	92.95	4.01	-60.1	-76.2	3.8	1.49e+00	0	24	104	724566016	85	24261
2026-01-08 20:51:33.05	93.07	3.98	-60.1	-76.2	3.8	1.49e+00	0	24	104	724566016	85	24248
2026-01-08 20:51:34.02	93.19	3.95	-60.1	-76.2	3.8	1.49e+00	0	25	104	724566016	85	24227
2026-01-08 20:51:34.98	93.32	3.92	-60.1	-76.2	3.8	1.49e+00	0	25	104	724566016	85	24220
2026-01-08 20:51:35.95	93.44	3.88	-60.1	-76.2	3.8	1.49e+00	0	24	104	724566016	85	24172
2026-01-08 20:51:36.92	93.56	3.85	-60.1	-76.2	3.8	1.49e+00	0	24	104	724566016	85	24143
2026-01-08 20:51:37.88	93.68	3.82	-60.0	-76.1	3.8	1.49e+00	0	24	104	724566016	85	24103
2026-01-08 20:51:38.85	93.80	3.78	-60.0	-76.1	3.8	1.49e+00	0	25	104	724566016	85	24096
2026-01-08 20:51:39.82	93.93	3.75	-60.0	-76.1	3.8	1.49e+00	0	25	104	724566016	85	24115
2026-01-08 20:51:40.79	94.05	3.72	-60.0	-76.1	3.8	1.49e+00	0	24	104	724566016	85	24040
2026-01-08 20:51:41.76	94.17	3.68	-60.0	-76.1	3.8	1.49e+00	0	25	104	724566016	85	24056
2026-01-08 20:51:42.72	94.29	3.65	-60.0	-76.1	3.8	1.49e+00	0	25	104	724566016	85	24024
2026-01-08 20:51:43.69	94.41	3.62	-60.0	-76.1	3.8	1.49e+00	0	25	104	724566016	85	24006
2026-01-08 20:51:44.66	94.53	3.58	-60.0	-76.1	3.8	1.49e+00	0	24	104	724566016	85	24009
2026-01-08 20:51:45.62	94.65	3.55	-60.0	-76.1	3.8	1.49e+00	0	24	104	724566016	85	23947
2026-01-08 20:51:46.59	94.77	3.52	-60.0	-76.1	3.8	1.49e+00	0	25	104	724566016	85	24029
2026-01-08 20:51:47.55	94.88	3.48	-60.0	-76.1	3.8	1.49e+00	0	25	104	724566016	85	23918
2026-01-08 20:51:48.52	95.00	3.45	-60.0	-76.1	3.8	1.49e+00	0	25	104	724566016	85	23915
2026-01-08 20:51:49.49	95.12	3.41	-60.0	-76.1	3.8	1.49e+00	0	25	104	724566016	85	23934
2026-01-08 20:51:50.46	95.24	3.38	-60.0	-76.1	3.8	1.49e+00	0	24	104	724566016	85	23920
2026-01-08 20:51:51.42	95.36	3.35	-60.0	-76.1	3.8	1.49e+00	0	24	104	724566016	85	23886
2026-01-08 20:51:52.38	95.48	3.31	-60.0	-76.1	3.8	1.49e+00	0	25	104	724566016	85	23915
2026-01-08 20:51:53.35	95.59	3.28	-60.0	-76.1	3.8	1.49e+00	0	25	104	724566016	85	23895
2026-01-08 20:51:54.32	95.71	3.24	-60.0	-76.0	3.8	1.49e+00	0	24	104	724566016	85	23801
2026-01-08 20:51:55.28	95.83	3.21	-60.0	-76.1	3.8	1.49e+00	0	25	104	724566016	85	23891
2026-01-08 20:51:56.25	95.94	3.18	-60.0	-76.1	3.8	1.49e+00	0	25	104	724566016	85	23866
2026-01-08 20:51:57.22	96.06	3.14	-60.0	-76.0	3.8	1.49e+00	0	25	104	724566016	85	23840
2026-01-08 20:51:58.18	96.18	3.11	-60.0	-76.1	3.8	1.49e+00	0	25	104	724566016	85	23874
2026-01-08 20:51:59.15	96.29	3.07	-59.9	-76.1	3.8	1.49e+00	0	25	104	724566016	85	23863
2026-01-08 20:52:00.12	96.41	3.04	-59.9	-76.0	3.8	1.49e+00	0	25	104	724566016	85	23822
2026-01-08 20:52:01.08	96.52	3.00	-59.9	-76.0	3.8	1.49e+00	0	24	104	724566016	85	23798
2026-01-08 20:52:02.05	96.64	2.97	-59.9	-76.0	3.8	1.49e+00	0	25	104	724566016	85	23813
2026-01-08 20:52:03.01	96.75	2.93	-59.9	-76.0	3.8	1.49e+00	0	25	104	724566016	85	23811
2026-01-08 20:52:03.98	96.87	2.90	-59.9	-76.0	3.8	1.49e+00	0	25	104	724566016	85	23726
2026-01-08 20:52:04.94	96.98	2.87	-59.9	-76.0	3.8	1.49e+00	0	25	104	724566016	85	23781
2026-01-08 20:52:05.91	97.10	2.83	-59.9	-76.0	3.8	1.49e+00	0	25	104	724566016	85	23786
2026-01-08 20:52:06.88	97.21	2.80	-59.9	-76.0	3.8	1.49e+00	0	25	104	724566016	85	23710
2026-01-08 20:52:07.85	97.33	2.76	-59.9	-76.0	3.8	1.49e+00	0	24	104	724566016	85	23740
2026-01-08 20:52:08.81	97.44	2.73	-59.9	-76.0	3.8	1.49e+00	0	25	104	724566016	85	23610
2026-01-08 20:52:09.78	97.55	2.69	-59.9	-76.0	3.8	1.49e+00	0	25	104	724566016	85	23654
2026-01-08 20:52:10.75	97.66	2.66	-59.9	-76.0	3.8	1.49e+00	0	25	104	724566016	85	23687
2026-01-08 20:52:11.72	97.78	2.62	-59.9	-76.0	3.8	1.49e+00	0	24	104	724566016	85	23715
2026-01-08 20:52:12.68	97.89	2.59	-59.9	-76.0	3.8	1.49e+00	0	24	104	724566016	85	23606
2026-01-08 20:52:13.65	98.00	2.55	-59.9	-76.0	3.8	1.49e+00	0	25	104	724566016	85	23687
2026-01-08 20:52:14.61	98.11	2.52	-59.9	-76.0	3.8	1.49e+00	0	25	104	724566016	85	23647
2026-01-08 20:52:15.58	98.23	2.48	-59.9	-76.0	3.8	1.49e+00	0	24	104	724566016	85	23624
2026-01-08 20:52:16.55	98.34	2.45	-59.9	-75.9	3.8	1.49e+00	0	25	104	724566016	85	23576
2026-01-08 20:52:17.52	98.45	2.41	-59.9	-75.9	3.8	1.49e+00	0	25	104	724566016	85	23574
2026-01-08 20:52:18.49	98.56	2.38	-59.9	-75.9	3.8	1.49e+00	0	24	104	724566016	85	23571
2026-01-08 20:52:19.45	98.67	2.34	-59.9	-76.0	3.8	1.49e+00	0	25	104	724566016	85	23697
2026-01-08 20:52:20.42	98.78	2.30	-59.9	-76.0	3.8	1.49e+00	0	25	104	724566016	85	23691
2026-01-08 20:52:21.38	98.89	2.27	-59.9	-76.0	3.8	1.49e+00	0	25	104	724566016	85	23634
2026-01-08 20:52:22.35	99.00	2.23	-59.9	-76.0	3.8	1.49e+00	0	24	104	724566016	85	23608
2026-01-08 20:52:23.32	99.11	2.20	-59.9	-76.0	3.8	1.49e+00	0	24	104	724566016	85	23588
2026-01-08 20:52:24.29	99.22	2.16	-59.9	-76.0	3.8	1.49e+00	0	24	104	724566016	85	23607
2026-01-08 20:52:25.25	99.33	2.13	-59.9	-75.9	3.8	1.49e+00	0	25	104	724566016	85	23557
2026-01-08 20:52:26.22	99.44	2.09	-59.9	-76.0	3.8	1.49e+00	0	25	104	724566016	85	23620
2026-01-08 20:52:27.18	99.54	2.06	-59.9	-75.9	3.8	1.49e+00	0	25	104	724566016	85	23560
2026-01-08 20:52:28.15	99.65	2.02	-59.9	-75.9	3.8	1.49e+00	0	25	104	724566016	85	23565

#Closed at: 2026-01-08 20:52:28
#Recorded file [724 MB]: D:/lorett/data/31004_260108_234318.dat