passes_logs/2026/01/08/R3.2S_Murmansk/R3.2S_Murmansk__20260108_213315_NOAA_21_JPSS-2_rec.log

#Pass ID: 20260108_213315_NOAA 21 (JPSS-2)
#Satellite: NOAA 21 (JPSS-2)
#Configuration: NOAA-21
#almurnet v.1.7.20251203
#Start time: 2026-01-08 21:33:16

#Version: 2.2.20231116
#Station: R3.2S_Murmansk
#Location: 33.079688 lon 68.888172 lat
#TLE: 1 54234U 22150A   26008.59854928  .00000127  00000+0  81204-4 0  9992
#TLE: 2 54234  98.7494 309.5759 0000887 327.7487  32.3634 14.19533414163905

#Time	Az	El	Level	Level2	SNR	BER	BlckErr	Temp	State	Recorded	gain1	gain2
2026-01-08 21:33:16.78	18.43	2.08	-57.5	-71.2	3.8	1.49e+00	0	22	0	0	81	17208
2026-01-08 21:33:17.77	18.52	2.13	-57.5	-71.1	3.8	1.49e+00	0	22	104	0	80	18059
2026-01-08 21:33:18.77	18.61	2.18	-57.5	-71.1	3.8	1.49e+00	0	22	104	0	80	17968
2026-01-08 21:33:19.77	18.71	2.22	-57.5	-71.1	3.8	1.49e+00	0	22	104	0	80	18007
2026-01-08 21:33:20.77	18.80	2.27	-57.5	-71.1	3.8	1.49e+00	0	22	104	0	80	17909
2026-01-08 21:33:21.77	18.89	2.32	-57.4	-70.9	3.8	1.49e+00	0	22	104	0	80	17567
2026-01-08 21:33:22.77	18.98	2.37	-57.5	-71.0	3.8	1.49e+00	0	22	104	0	80	17738
2026-01-08 21:33:23.77	19.08	2.41	-57.4	-71.0	3.8	1.49e+00	0	22	104	0	80	17786
2026-01-08 21:33:24.77	19.17	2.46	-57.5	-71.0	3.8	1.49e+00	0	22	104	0	80	17788
2026-01-08 21:33:25.77	19.26	2.51	-57.4	-71.0	3.8	1.49e+00	0	23	104	0	80	17844
2026-01-08 21:33:26.76	19.36	2.56	-57.4	-71.1	3.8	1.49e+00	0	22	104	0	80	17909
2026-01-08 21:33:27.76	19.45	2.61	-57.4	-71.1	3.8	1.49e+00	0	22	104	0	80	17927
2026-01-08 21:33:28.76	19.55	2.65	-57.5	-71.2	3.8	1.49e+00	0	22	104	0	80	18183
2026-01-08 21:33:29.76	19.64	2.70	-57.5	-71.2	3.8	1.49e+00	0	23	104	0	80	18137
2026-01-08 21:33:30.76	19.73	2.75	-57.5	-71.2	3.8	1.49e+00	0	22	104	0	80	18215
2026-01-08 21:33:31.76	19.83	2.80	-57.5	-71.2	3.8	1.49e+00	0	22	104	0	80	18189
2026-01-08 21:33:32.76	19.93	2.84	-57.5	-71.2	3.8	1.49e+00	0	22	104	0	80	18173
2026-01-08 21:33:33.75	20.02	2.89	-57.5	-71.1	3.8	1.49e+00	0	23	104	0	80	18085
2026-01-08 21:33:34.75	20.12	2.94	-57.5	-71.1	3.8	1.49e+00	0	23	104	0	80	18019
2026-01-08 21:33:35.75	20.21	2.99	-57.5	-71.1	3.8	1.49e+00	0	23	104	0	80	17906
2026-01-08 21:33:36.75	20.31	3.04	-57.5	-71.1	3.8	1.49e+00	0	23	104	0	80	17941
2026-01-08 21:33:37.75	20.41	3.08	-57.5	-71.0	3.8	1.49e+00	0	23	104	0	80	17867
2026-01-08 21:33:38.74	20.50	3.13	-57.5	-71.2	3.8	1.49e+00	0	23	104	0	80	18112
2026-01-08 21:33:39.74	20.60	3.18	-57.5	-71.1	3.8	1.49e+00	0	23	104	0	80	18058
2026-01-08 21:33:40.74	20.70	3.23	-57.5	-71.2	3.8	1.49e+00	0	23	104	0	80	18270
2026-01-08 21:33:41.74	20.80	3.28	-57.5	-71.2	3.8	1.49e+00	0	23	104	0	80	18283
2026-01-08 21:33:42.74	20.90	3.32	-57.5	-71.1	3.8	1.49e+00	0	23	104	0	80	18081
2026-01-08 21:33:43.74	20.99	3.37	-57.5	-71.1	3.8	1.49e+00	0	23	104	0	80	18060
2026-01-08 21:33:44.74	21.09	3.42	-57.5	-71.1	3.8	1.49e+00	0	23	104	0	80	18069
2026-01-08 21:33:45.74	21.19	3.47	-57.5	-71.2	3.8	1.49e+00	0	23	104	0	80	18104
2026-01-08 21:33:46.74	21.29	3.52	-57.5	-71.2	3.8	1.49e+00	0	23	104	0	80	18302
2026-01-08 21:33:47.74	21.39	3.56	-57.5	-71.2	3.8	1.49e+00	0	23	104	0	80	18251
2026-01-08 21:33:48.74	21.49	3.61	-57.5	-71.1	3.8	1.49e+00	0	23	104	0	80	18011
2026-01-08 21:33:49.74	21.59	3.66	-57.4	-70.8	3.8	1.49e+00	0	23	104	0	80	17348
2026-01-08 21:33:50.74	21.70	3.71	-57.4	-70.4	3.8	1.49e+00	0	23	104	0	80	16602
2026-01-08 21:33:51.74	21.80	3.76	-57.4	-70.2	3.8	1.49e+00	0	23	104	0	80	16196
2026-01-08 21:33:52.74	21.90	3.80	-57.4	-70.1	3.8	1.49e+00	0	23	104	0	80	16088
2026-01-08 21:33:53.74	22.00	3.85	-57.4	-70.1	3.8	1.49e+00	0	23	104	0	80	16040
2026-01-08 21:33:54.74	22.10	3.90	-57.4	-70.2	3.8	1.49e+00	0	23	104	0	80	16166
2026-01-08 21:33:55.74	22.21	3.95	-57.4	-70.3	3.8	1.49e+00	0	23	104	0	80	16321
2026-01-08 21:33:56.74	22.31	4.00	-57.4	-69.7	3.8	1.49e+00	0	23	104	0	80	15373
2026-01-08 21:33:57.74	22.41	4.05	-57.3	-68.6	4.0	1.48e+00	0	23	104	0	80	13533
2026-01-08 21:33:58.74	22.52	4.09	-57.2	-68.1	3.9	1.47e+00	0	23	104	0	80	12732
2026-01-08 21:33:59.74	22.62	4.14	-57.1	-66.5	4.6	1.42e+00	0	23	104	0	80	10570
2026-01-08 21:34:00.74	22.72	4.19	-57.0	-66.7	4.0	9.13e-01	2	23	104	0	80	10858
2026-01-08 21:34:01.74	22.83	4.24	-57.0	-65.6	5.0	6.83e-01	0	23	0	1048576	80	9544
2026-01-08 21:34:02.74	22.93	4.29	-56.9	-65.3	5.2	5.68e-01	0	23	0	4194304	80	9187
2026-01-08 21:34:03.74	23.04	4.34	-56.8	-64.4	5.7	4.63e-01	0	23	0	7340032	80	8279
2026-01-08 21:34:04.74	23.14	4.38	-56.4	-62.7	6.9	2.23e-01	0	23	0	10485760	79	7274
2026-01-08 21:34:05.73	23.25	4.43	-55.8	-60.8	8.6	4.30e-02	0	23	0	13631488	78	6163
2026-01-08 21:34:06.73	23.35	4.48	-54.8	-58.6	10.5	1.50e-03	0	23	0	16777216	76	5361
2026-01-08 21:34:07.74	23.46	4.53	-53.8	-56.8	11.7	7.62e-05	0	23	0	19922944	74	4914
2026-01-08 21:34:08.73	23.57	4.58	-52.5	-54.8	13.0	0.00e+00	0	23	0	23068672	71	4639
2026-01-08 21:34:09.73	23.68	4.63	-51.9	-54.0	13.4	0.00e+00	0	23	0	26214400	70	4472
2026-01-08 21:34:10.73	23.78	4.67	-51.4	-53.3	13.8	0.00e+00	0	23	0	29360128	69	4378
2026-01-08 21:34:11.74	23.89	4.72	-51.6	-53.6	13.6	0.00e+00	0	23	0	32505856	69	4504
2026-01-08 21:34:12.75	24.00	4.77	-51.7	-53.7	13.5	0.00e+00	0	23	0	35651584	69	4570
2026-01-08 21:34:13.74	24.11	4.82	-52.2	-54.4	13.0	0.00e+00	0	23	0	38797312	69	4942
2026-01-08 21:34:14.73	24.22	4.87	-53.0	-55.5	12.4	7.00e-07	0	23	0	41943040	71	5029
2026-01-08 21:34:15.73	24.33	4.92	-53.8	-56.9	11.5	1.60e-05	0	23	0	45088768	72	5586
2026-01-08 21:34:16.74	24.44	4.97	-54.6	-58.2	10.6	3.05e-04	0	23	0	48234496	74	5771
2026-01-08 21:34:17.74	24.55	5.01	-55.6	-60.3	8.9	6.79e-03	0	23	0	50331648	76	6525
2026-01-08 21:34:18.74	24.66	5.06	-52.5	-54.8	12.9	6.71e-05	0	23	0	53477376	71	4636
2026-01-08 21:34:19.73	24.77	5.11	-52.6	-54.9	12.9	0.00e+00	0	23	0	56623104	71	4671
2026-01-08 21:34:20.73	24.88	5.16	-56.6	-63.6	6.3	5.20e-03	0	23	0	59768832	78	8521
2026-01-08 21:34:21.73	24.99	5.21	-55.6	-60.5	8.8	9.45e-02	0	23	0	62914560	77	6286
2026-01-08 21:34:22.73	25.10	5.26	-53.4	-56.1	12.2	2.20e-06	0	23	0	66060288	71	5346
2026-01-08 21:34:23.73	25.21	5.30	-53.0	-55.4	12.7	5.30e-06	0	23	0	69206016	72	4687
2026-01-08 21:34:24.74	25.33	5.35	-52.6	-54.9	13.0	7.00e-07	0	24	0	72351744	71	4665
2026-01-08 21:34:25.74	25.44	5.40	-52.0	-54.1	13.4	0.00e+00	0	24	0	75497472	70	4500
2026-01-08 21:34:26.74	25.55	5.45	-51.6	-53.5	13.7	0.00e+00	0	23	0	78643200	69	4466
2026-01-08 21:34:27.74	25.67	5.50	-51.6	-53.5	13.6	0.00e+00	0	23	0	81788928	69	4480
2026-01-08 21:34:28.73	25.78	5.55	-51.7	-53.7	13.5	0.00e+00	0	23	0	84934656	69	4550
2026-01-08 21:34:29.73	25.89	5.60	-51.5	-53.4	13.8	0.00e+00	0	23	0	88080384	69	4409
2026-01-08 21:34:30.73	26.01	5.64	-51.5	-53.4	13.7	0.00e+00	0	23	0	91226112	69	4408
2026-01-08 21:34:31.73	26.12	5.69	-51.4	-53.3	13.8	0.00e+00	0	23	0	94371840	69	4381
2026-01-08 21:34:32.73	26.24	5.74	-51.1	-52.9	13.9	0.00e+00	0	23	0	97517568	68	4424
2026-01-08 21:34:33.73	26.35	5.79	-51.0	-52.8	14.0	0.00e+00	0	24	0	100663296	68	4341
2026-01-08 21:34:34.73	26.47	5.84	-51.0	-52.7	14.1	0.00e+00	0	23	0	103809024	68	4319
2026-01-08 21:34:35.72	26.58	5.89	-50.7	-52.4	14.2	0.00e+00	0	23	0	106954752	68	4175
2026-01-08 21:34:36.72	26.70	5.93	-50.4	-52.1	14.3	0.00e+00	0	23	0	110100480	67	4248
2026-01-08 21:34:37.73	26.82	5.98	-50.4	-52.1	14.3	0.00e+00	0	23	0	113246208	67	4250
2026-01-08 21:34:38.73	26.94	6.03	-50.4	-52.0	14.3	0.00e+00	0	23	0	116391936	67	4211
2026-01-08 21:34:39.73	27.05	6.08	-50.5	-52.1	14.2	0.00e+00	0	23	0	119537664	67	4273
2026-01-08 21:34:40.73	27.17	6.13	-50.6	-52.3	14.1	0.00e+00	0	24	0	122683392	67	4377
2026-01-08 21:34:41.72	27.29	6.18	-50.6	-52.3	14.1	0.00e+00	0	23	0	125829120	67	4390
2026-01-08 21:34:42.72	27.41	6.22	-51.0	-52.8	13.9	0.00e+00	0	24	0	128974848	67	4601
2026-01-08 21:34:43.71	27.53	6.27	-50.9	-52.6	13.9	0.00e+00	0	23	0	132120576	67	4533
2026-01-08 21:34:44.72	27.65	6.32	-50.9	-52.6	13.9	0.00e+00	0	24	0	135266304	67	4531
2026-01-08 21:34:45.71	27.77	6.37	-50.8	-52.6	14.0	0.00e+00	0	23	0	138412032	67	4505
2026-01-08 21:34:46.71	27.89	6.42	-50.8	-52.6	14.0	0.00e+00	0	24	0	141557760	67	4516
2026-01-08 21:34:47.72	28.01	6.47	-51.0	-52.9	13.8	0.00e+00	0	23	0	144703488	67	4652
2026-01-08 21:34:48.72	28.13	6.51	-50.7	-52.4	14.1	0.00e+00	0	24	0	147849216	67	4417
2026-01-08 21:34:49.72	28.25	6.56	-50.5	-52.1	14.2	0.00e+00	0	23	0	150994944	67	4280
2026-01-08 21:34:50.72	28.38	6.61	-50.5	-52.2	14.2	0.00e+00	0	24	0	154140672	67	4301
2026-01-08 21:34:51.72	28.50	6.66	-50.6	-52.2	14.2	0.00e+00	0	24	0	157286400	67	4336
2026-01-08 21:34:52.72	28.62	6.71	-50.4	-52.0	14.3	0.00e+00	0	23	0	160432128	67	4227
2026-01-08 21:34:53.72	28.74	6.76	-50.5	-52.1	14.2	0.00e+00	0	23	0	163577856	67	4275
2026-01-08 21:34:54.71	28.87	6.80	-50.4	-52.1	14.3	0.00e+00	0	24	0	166723584	67	4250
2026-01-08 21:34:55.72	28.99	6.85	-50.5	-52.2	14.2	0.00e+00	0	24	0	169869312	67	4320
2026-01-08 21:34:56.72	29.12	6.90	-50.6	-52.2	14.2	0.00e+00	0	24	0	173015040	67	4333
2026-01-08 21:34:57.72	29.24	6.95	-50.4	-52.1	14.3	0.00e+00	0	24	0	176160768	67	4245
2026-01-08 21:34:58.72	29.37	7.00	-50.5	-52.2	14.3	0.00e+00	0	24	0	179306496	67	4292
2026-01-08 21:34:59.71	29.49	7.04	-50.6	-52.3	14.2	0.00e+00	0	23	0	182452224	67	4353
2026-01-08 21:35:00.72	29.62	7.09	-50.6	-52.3	14.2	0.00e+00	0	23	0	185597952	67	4346
2026-01-08 21:35:01.72	29.74	7.14	-50.6	-52.3	14.1	0.00e+00	0	23	0	187695104	67	4369
2026-01-08 21:35:02.71	29.87	7.19	-50.6	-52.3	14.1	0.00e+00	0	24	0	190840832	67	4374
2026-01-08 21:35:03.71	30.00	7.24	-50.6	-52.3	14.2	0.00e+00	0	24	0	193986560	67	4384
2026-01-08 21:35:04.71	30.12	7.28	-50.6	-52.2	14.2	0.00e+00	0	24	0	197132288	67	4333
2026-01-08 21:35:05.71	30.25	7.33	-50.5	-52.1	14.3	0.00e+00	0	23	0	200278016	67	4270
2026-01-08 21:35:06.71	30.38	7.38	-50.5	-52.1	14.3	0.00e+00	0	24	0	203423744	67	4279
2026-01-08 21:35:07.71	30.51	7.43	-50.5	-52.1	14.3	0.00e+00	0	23	0	206569472	67	4277
2026-01-08 21:35:08.71	30.64	7.48	-50.5	-52.1	14.3	0.00e+00	0	23	0	209715200	67	4260
2026-01-08 21:35:09.70	30.77	7.52	-50.3	-52.0	14.4	0.00e+00	0	24	0	212860928	67	4197
2026-01-08 21:35:10.70	30.90	7.57	-50.3	-51.9	14.4	0.00e+00	0	24	0	216006656	67	4146
2026-01-08 21:35:11.70	31.03	7.62	-50.2	-51.8	14.5	0.00e+00	0	24	0	219152384	67	4130
2026-01-08 21:35:12.70	31.16	7.67	-50.1	-51.6	14.4	0.00e+00	0	23	0	222298112	66	4268
2026-01-08 21:35:13.69	31.29	7.71	-50.0	-51.5	14.5	0.00e+00	0	23	0	225443840	66	4238
2026-01-08 21:35:14.69	31.42	7.76	-50.0	-51.5	14.5	0.00e+00	0	23	0	228589568	66	4225
2026-01-08 21:35:15.68	31.55	7.81	-50.0	-51.6	14.5	0.00e+00	0	23	0	231735296	66	4256
2026-01-08 21:35:16.68	31.68	7.86	-50.0	-51.5	14.5	0.00e+00	0	24	0	234881024	66	4218
2026-01-08 21:35:17.68	31.82	7.90	-50.1	-51.7	14.4	0.00e+00	0	24	0	238026752	66	4314
2026-01-08 21:35:18.67	31.95	7.95	-50.2	-51.8	14.3	0.00e+00	0	24	0	241172480	66	4361
2026-01-08 21:35:19.68	32.08	8.00	-50.1	-51.7	14.4	0.00e+00	0	24	0	244318208	66	4300
2026-01-08 21:35:20.68	32.22	8.05	-50.2	-51.7	14.3	0.00e+00	0	24	0	247463936	66	4338
2026-01-08 21:35:21.68	32.35	8.09	-50.1	-51.7	14.4	0.00e+00	0	23	0	250609664	66	4311
2026-01-08 21:35:22.68	32.49	8.14	-50.2	-51.8	14.3	0.00e+00	0	24	0	253755392	66	4374
2026-01-08 21:35:23.68	32.62	8.19	-50.2	-51.8	14.4	0.00e+00	0	23	0	256901120	66	4344
2026-01-08 21:35:24.67	32.76	8.24	-50.0	-51.6	14.5	0.00e+00	0	24	0	260046848	66	4244
2026-01-08 21:35:25.67	32.89	8.28	-50.1	-51.7	14.4	0.00e+00	0	24	0	263192576	66	4317
2026-01-08 21:35:26.67	33.03	8.33	-50.2	-51.8	14.3	0.00e+00	0	24	0	266338304	66	4350
2026-01-08 21:35:27.66	33.17	8.38	-50.0	-51.5	14.5	0.00e+00	0	24	0	269484032	66	4215
2026-01-08 21:35:28.66	33.30	8.42	-50.0	-51.6	14.5	0.00e+00	0	24	0	272629760	66	4246
2026-01-08 21:35:29.66	33.44	8.47	-50.0	-51.5	14.5	0.00e+00	0	24	0	275775488	66	4210
2026-01-08 21:35:30.66	33.58	8.52	-50.0	-51.5	14.5	0.00e+00	0	24	0	278921216	66	4209
2026-01-08 21:35:31.65	33.72	8.56	-50.0	-51.5	14.5	0.00e+00	0	24	0	282066944	66	4209
2026-01-08 21:35:32.65	33.86	8.61	-49.9	-51.4	14.6	0.00e+00	0	24	0	285212672	66	4172
2026-01-08 21:35:33.64	33.99	8.66	-49.8	-51.3	14.6	0.00e+00	0	24	0	288358400	66	4134
2026-01-08 21:35:34.64	34.14	8.70	-49.8	-51.3	14.6	0.00e+00	0	24	0	291504128	66	4143
2026-01-08 21:35:35.63	34.27	8.75	-49.8	-51.3	14.6	0.00e+00	0	24	0	294649856	66	4107
2026-01-08 21:35:36.63	34.42	8.80	-49.6	-51.1	14.7	0.00e+00	0	24	0	297795584	65	4253
2026-01-08 21:35:37.63	34.56	8.84	-49.7	-51.2	14.5	0.00e+00	0	24	0	300941312	65	4327
2026-01-08 21:35:38.63	34.70	8.89	-49.8	-51.4	14.5	0.00e+00	0	24	0	304087040	65	4396
2026-01-08 21:35:39.63	34.84	8.94	-49.8	-51.3	14.4	0.00e+00	0	24	0	307232768	65	4366
2026-01-08 21:35:40.62	34.98	8.98	-49.7	-51.2	14.5	0.00e+00	0	24	0	309329920	65	4335
2026-01-08 21:35:41.61	35.12	9.03	-49.7	-51.2	14.5	0.00e+00	0	24	0	312475648	65	4301
2026-01-08 21:35:42.61	35.27	9.07	-49.7	-51.2	14.5	0.00e+00	0	24	0	315621376	65	4333
2026-01-08 21:35:43.61	35.41	9.12	-49.7	-51.2	14.5	0.00e+00	0	24	0	318767104	65	4300
2026-01-08 21:35:44.60	35.55	9.17	-49.7	-51.2	14.5	0.00e+00	0	24	0	321912832	65	4301
2026-01-08 21:35:45.60	35.70	9.21	-49.7	-51.2	14.5	0.00e+00	0	24	0	325058560	65	4312
2026-01-08 21:35:46.60	35.84	9.26	-49.7	-51.1	14.5	0.00e+00	0	24	0	328204288	65	4281
2026-01-08 21:35:47.60	35.99	9.30	-49.7	-51.1	14.5	0.00e+00	0	24	0	331350016	65	4277
2026-01-08 21:35:48.60	36.14	9.35	-49.5	-51.0	14.7	0.00e+00	0	24	0	334495744	65	4200
2026-01-08 21:35:49.60	36.28	9.39	-49.6	-51.1	14.6	0.00e+00	0	24	0	337641472	65	4247
2026-01-08 21:35:50.60	36.43	9.44	-49.6	-51.0	14.6	0.00e+00	0	24	0	340787200	65	4212
2026-01-08 21:35:51.59	36.58	9.49	-49.5	-50.9	14.7	0.00e+00	0	24	0	343932928	65	4174
2026-01-08 21:35:52.58	36.72	9.53	-49.5	-51.0	14.6	0.00e+00	0	24	0	347078656	65	4195
2026-01-08 21:35:53.58	36.87	9.58	-49.5	-51.0	14.7	0.00e+00	0	24	0	350224384	65	4200
2026-01-08 21:35:54.57	37.02	9.62	-49.6	-51.0	14.6	0.00e+00	0	24	0	353370112	65	4216
2026-01-08 21:35:55.57	37.17	9.67	-49.7	-51.1	14.6	0.00e+00	0	24	0	356515840	65	4274
2026-01-08 21:35:56.57	37.32	9.71	-49.7	-51.2	14.5	0.00e+00	0	24	0	359661568	65	4309
2026-01-08 21:35:57.56	37.47	9.76	-49.6	-51.1	14.6	0.00e+00	0	24	0	362807296	65	4250
2026-01-08 21:35:58.56	37.62	9.80	-49.6	-51.1	14.6	0.00e+00	0	24	0	365953024	65	4263
2026-01-08 21:35:59.57	37.77	9.85	-49.5	-51.0	14.6	0.00e+00	0	24	0	369098752	65	4213
2026-01-08 21:36:00.56	37.92	9.89	-49.5	-51.0	14.6	0.00e+00	0	24	0	372244480	65	4207
2026-01-08 21:36:01.56	38.07	9.93	-49.5	-51.0	14.7	0.00e+00	0	24	0	375390208	65	4197
2026-01-08 21:36:02.56	38.22	9.98	-49.5	-51.0	14.7	0.00e+00	0	24	0	378535936	65	4198
2026-01-08 21:36:03.55	38.38	10.02	-49.5	-50.9	14.7	0.00e+00	0	24	0	381681664	65	4164
2026-01-08 21:36:04.56	38.53	10.07	-49.4	-50.8	14.7	0.00e+00	0	24	0	384827392	65	4130
2026-01-08 21:36:05.56	38.68	10.11	-49.5	-50.9	14.7	0.00e+00	0	24	0	387973120	65	4176
2026-01-08 21:36:06.56	38.84	10.16	-49.6	-51.1	14.6	0.00e+00	0	24	0	391118848	65	4262
2026-01-08 21:36:07.56	38.99	10.20	-49.6	-51.0	14.6	0.00e+00	0	24	0	394264576	65	4228
2026-01-08 21:36:08.56	39.15	10.25	-49.6	-51.1	14.6	0.00e+00	0	24	0	397410304	65	4259
2026-01-08 21:36:09.56	39.30	10.29	-49.5	-51.0	14.6	0.00e+00	0	24	0	400556032	65	4198
2026-01-08 21:36:10.56	39.46	10.33	-49.6	-51.0	14.6	0.00e+00	0	24	0	403701760	65	4240
2026-01-08 21:36:11.56	39.62	10.38	-49.6	-51.1	14.6	0.00e+00	0	24	0	406847488	65	4279
2026-01-08 21:36:12.55	39.77	10.42	-49.7	-51.1	14.6	0.00e+00	0	24	0	409993216	65	4275
2026-01-08 21:36:13.56	39.93	10.46	-49.6	-51.1	14.6	0.00e+00	0	24	0	413138944	65	4253
2026-01-08 21:36:14.56	40.09	10.51	-49.6	-51.1	14.6	0.00e+00	0	24	0	416284672	65	4248
2026-01-08 21:36:15.56	40.25	10.55	-49.6	-51.1	14.6	0.00e+00	0	24	0	419430400	65	4262
2026-01-08 21:36:16.56	40.41	10.59	-49.5	-51.0	14.6	0.00e+00	0	24	0	422576128	65	4207
2026-01-08 21:36:17.56	40.57	10.64	-49.6	-51.0	14.6	0.00e+00	0	24	0	425721856	65	4222
2026-01-08 21:36:18.57	40.73	10.68	-49.6	-51.0	14.6	0.00e+00	0	24	0	428867584	65	4217
2026-01-08 21:36:19.57	40.89	10.72	-49.6	-51.1	14.6	0.00e+00	0	24	0	430964736	65	4249
2026-01-08 21:36:20.57	41.05	10.77	-49.6	-51.1	14.6	0.00e+00	0	24	0	434110464	65	4251
2026-01-08 21:36:21.57	41.21	10.81	-49.6	-51.0	14.6	0.00e+00	0	24	0	438304768	65	4236
2026-01-08 21:36:22.58	41.37	10.85	-49.6	-51.0	14.6	0.00e+00	0	24	0	441450496	65	4223
2026-01-08 21:36:23.58	41.53	10.89	-49.5	-50.9	14.7	0.00e+00	0	24	0	444596224	65	4189
2026-01-08 21:36:24.58	41.70	10.93	-49.5	-51.0	14.7	0.00e+00	0	24	0	447741952	65	4194
2026-01-08 21:36:25.58	41.86	10.98	-49.4	-50.8	14.7	0.00e+00	0	24	0	450887680	65	4117
2026-01-08 21:36:26.58	42.02	11.02	-49.4	-50.8	14.7	0.00e+00	0	24	0	454033408	65	4124
2026-01-08 21:36:27.57	42.19	11.06	-49.3	-50.7	14.8	0.00e+00	0	24	0	456130560	65	4089
2026-01-08 21:36:28.56	42.35	11.10	-49.3	-50.7	14.8	0.00e+00	0	24	0	459276288	65	4086
2026-01-08 21:36:29.56	42.51	11.14	-49.3	-50.7	14.8	0.00e+00	0	24	0	462422016	65	4089
2026-01-08 21:36:30.56	42.68	11.18	-49.3	-50.7	14.8	0.00e+00	0	24	0	465567744	65	4057
2026-01-08 21:36:31.56	42.84	11.23	-49.4	-50.8	14.8	0.00e+00	0	24	0	468713472	65	4102
2026-01-08 21:36:32.56	43.01	11.27	-49.4	-50.8	14.7	0.00e+00	0	24	0	471859200	65	4110
2026-01-08 21:36:33.56	43.18	11.31	-49.5	-50.9	14.7	0.00e+00	0	24	0	475004928	65	4157
2026-01-08 21:36:34.55	43.34	11.35	-49.5	-51.0	14.7	0.00e+00	0	24	0	478150656	65	4208
2026-01-08 21:36:35.55	43.51	11.39	-49.5	-50.9	14.7	0.00e+00	0	24	0	481296384	65	4168
2026-01-08 21:36:36.54	43.67	11.43	-49.5	-50.9	14.7	0.00e+00	0	24	0	484442112	65	4176
2026-01-08 21:36:37.54	43.84	11.47	-49.5	-51.0	14.6	0.00e+00	0	24	0	487587840	65	4200
2026-01-08 21:36:38.54	44.01	11.51	-49.6	-51.0	14.6	0.00e+00	0	24	0	490733568	65	4212
2026-01-08 21:36:39.54	44.18	11.55	-49.6	-51.1	14.6	0.00e+00	0	24	0	493879296	65	4246
2026-01-08 21:36:40.52	44.35	11.59	-49.6	-51.0	14.6	0.00e+00	0	24	0	497025024	65	4230
2026-01-08 21:36:41.52	44.52	11.63	-49.6	-51.1	14.6	0.00e+00	0	24	0	500170752	65	4255
2026-01-08 21:36:42.52	44.69	11.67	-49.7	-51.1	14.6	0.00e+00	0	24	0	503316480	65	4269
2026-01-08 21:36:43.51	44.86	11.71	-49.6	-51.1	14.6	0.00e+00	0	24	0	506462208	65	4253
2026-01-08 21:36:44.51	45.03	11.75	-49.5	-50.8	14.7	0.00e+00	0	24	0	509607936	65	4145
2026-01-08 21:36:45.51	45.20	11.78	-49.4	-50.8	14.7	0.00e+00	0	24	0	512753664	65	4131
2026-01-08 21:36:46.51	45.37	11.82	-49.4	-50.8	14.7	0.00e+00	0	24	0	515899392	65	4129
2026-01-08 21:36:47.51	45.54	11.86	-49.5	-50.9	14.7	0.00e+00	0	24	0	519045120	65	4155
2026-01-08 21:36:48.52	45.72	11.90	-49.4	-50.8	14.7	0.00e+00	0	24	0	522190848	65	4126
2026-01-08 21:36:49.52	45.89	11.94	-49.6	-51.0	14.6	0.00e+00	0	24	0	525336576	65	4207
2026-01-08 21:36:50.52	46.07	11.98	-49.6	-51.0	14.6	0.00e+00	0	24	0	528482304	65	4225
2026-01-08 21:36:51.52	46.24	12.02	-49.5	-50.9	14.7	0.00e+00	0	24	0	531628032	65	4189
2026-01-08 21:36:52.52	46.42	12.05	-49.5	-50.9	14.7	0.00e+00	0	24	0	534773760	65	4173
2026-01-08 21:36:53.52	46.59	12.09	-49.5	-51.0	14.7	0.00e+00	0	24	0	537919488	65	4194
2026-01-08 21:36:54.51	46.77	12.13	-49.5	-50.9	14.7	0.00e+00	0	24	0	541065216	65	4179
2026-01-08 21:36:55.52	46.94	12.17	-49.4	-50.8	14.8	0.00e+00	0	24	0	544210944	65	4110
2026-01-08 21:36:56.51	47.12	12.20	-49.4	-50.8	14.8	0.00e+00	0	24	0	547356672	65	4107
2026-01-08 21:36:57.51	47.30	12.24	-49.3	-50.7	14.8	0.00e+00	0	24	0	550502400	65	4067
2026-01-08 21:36:58.51	47.47	12.28	-49.3	-50.7	14.8	0.00e+00	0	24	0	553648128	65	4058
2026-01-08 21:36:59.51	47.65	12.31	-49.2	-50.5	14.9	0.00e+00	0	24	0	556793856	65	3987
2026-01-08 21:37:00.51	47.83	12.35	-49.2	-50.5	14.7	0.00e+00	0	24	0	559939584	64	4237
2026-01-08 21:37:01.51	48.01	12.39	-49.1	-50.4	14.8	0.00e+00	0	24	0	563085312	64	4187
2026-01-08 21:37:02.51	48.19	12.42	-49.2	-50.6	14.7	0.00e+00	0	24	0	565182464	64	4259
2026-01-08 21:37:03.50	48.37	12.46	-49.3	-50.6	14.7	0.00e+00	0	24	0	568328192	64	4289
2026-01-08 21:37:04.50	48.55	12.49	-49.3	-50.7	14.7	0.00e+00	0	24	0	571473920	64	4326
2026-01-08 21:37:05.50	48.73	12.53	-49.3	-50.7	14.6	0.00e+00	0	24	0	574619648	64	4329
2026-01-08 21:37:06.49	48.91	12.56	-49.3	-50.8	14.6	0.00e+00	0	24	0	577765376	64	4345
2026-01-08 21:37:07.49	49.09	12.60	-49.4	-50.9	14.6	0.00e+00	0	24	0	580911104	64	4396
2026-01-08 21:37:08.49	49.27	12.63	-49.4	-50.8	14.6	0.00e+00	0	24	0	584056832	64	4349
2026-01-08 21:37:09.49	49.45	12.67	-49.5	-50.9	14.6	0.00e+00	0	24	0	587202560	64	4431
2026-01-08 21:37:10.49	49.63	12.70	-49.3	-50.7	14.6	0.00e+00	0	24	0	590348288	64	4324
2026-01-08 21:37:11.49	49.82	12.74	-49.2	-50.6	14.7	0.00e+00	0	24	0	593494016	64	4245
2026-01-08 21:37:12.49	50.00	12.77	-49.1	-50.5	14.8	0.00e+00	0	24	0	596639744	64	4198
2026-01-08 21:37:13.49	50.18	12.80	-49.2	-50.5	14.7	0.00e+00	0	24	0	599785472	64	4242
2026-01-08 21:37:14.48	50.37	12.84	-49.1	-50.4	14.8	0.00e+00	0	24	0	602931200	64	4193
2026-01-08 21:37:15.49	50.55	12.87	-49.2	-50.6	14.7	0.00e+00	0	24	0	606076928	64	4264
2026-01-08 21:37:16.49	50.74	12.90	-49.2	-50.5	14.7	0.00e+00	0	24	0	609222656	64	4238
2026-01-08 21:37:17.49	50.92	12.94	-49.2	-50.6	14.7	0.00e+00	0	24	0	612368384	64	4278
2026-01-08 21:37:18.48	51.11	12.97	-49.3	-50.7	14.6	0.00e+00	0	24	0	615514112	64	4332
2026-01-08 21:37:19.48	51.29	13.00	-49.3	-50.6	14.7	0.00e+00	0	24	0	618659840	64	4286
2026-01-08 21:37:20.48	51.48	13.03	-49.3	-50.7	14.6	0.00e+00	0	24	0	621805568	64	4334
2026-01-08 21:37:21.48	51.67	13.06	-49.4	-50.8	14.6	0.00e+00	0	24	0	624951296	64	4372
2026-01-08 21:37:22.48	51.85	13.10	-49.4	-50.8	14.6	0.00e+00	0	24	0	628097024	64	4358
2026-01-08 21:37:23.48	52.04	13.13	-49.3	-50.7	14.7	0.00e+00	0	24	0	631242752	64	4304
2026-01-08 21:37:24.48	52.23	13.16	-49.3	-50.7	14.6	0.00e+00	0	24	0	634388480	64	4326
2026-01-08 21:37:25.48	52.42	13.19	-49.4	-50.8	14.6	0.00e+00	0	24	0	637534208	64	4389
2026-01-08 21:37:26.48	52.61	13.22	-49.3	-50.7	14.6	0.00e+00	0	24	0	640679936	64	4338
2026-01-08 21:37:27.48	52.80	13.25	-49.3	-50.7	14.6	0.00e+00	0	24	0	643825664	64	4339
2026-01-08 21:37:28.48	52.99	13.28	-49.3	-50.6	14.7	0.00e+00	0	24	0	646971392	64	4286
2026-01-08 21:37:29.49	53.18	13.31	-49.2	-50.5	14.7	0.00e+00	0	24	0	650117120	64	4232
2026-01-08 21:37:30.48	53.37	13.34	-49.0	-50.4	14.8	0.00e+00	0	24	0	653262848	64	4164
2026-01-08 21:37:31.47	53.56	13.37	-49.0	-50.4	14.8	0.00e+00	0	24	0	656408576	64	4164
2026-01-08 21:37:32.47	53.75	13.40	-49.0	-50.4	14.8	0.00e+00	0	24	0	659554304	64	4155
2026-01-08 21:37:33.47	53.94	13.43	-49.0	-50.3	14.8	0.00e+00	0	24	0	662700032	64	4139
2026-01-08 21:37:34.46	54.13	13.46	-49.0	-50.3	14.8	0.00e+00	0	24	0	665845760	64	4118
2026-01-08 21:37:35.46	54.32	13.48	-48.9	-50.3	14.9	0.00e+00	0	24	0	668991488	64	4112
2026-01-08 21:37:36.46	54.51	13.51	-49.0	-50.3	14.9	0.00e+00	0	24	0	672137216	64	4118
2026-01-08 21:37:37.45	54.71	13.54	-49.1	-50.4	14.8	0.00e+00	0	24	0	675282944	64	4179
2026-01-08 21:37:38.44	54.90	13.57	-49.1	-50.4	14.8	0.00e+00	0	24	0	678428672	64	4186
2026-01-08 21:37:39.44	55.09	13.59	-49.2	-50.5	14.8	0.00e+00	0	24	0	681574400	64	4228
2026-01-08 21:37:40.44	55.29	13.62	-49.3	-50.7	14.7	0.00e+00	0	24	0	684720128	64	4299
2026-01-08 21:37:41.44	55.48	13.65	-49.2	-50.6	14.7	0.00e+00	0	24	0	687865856	64	4263
2026-01-08 21:37:42.44	55.67	13.67	-49.2	-50.5	14.7	0.00e+00	0	24	0	691011584	64	4233
2026-01-08 21:37:43.44	55.87	13.70	-49.2	-50.5	14.7	0.00e+00	0	24	0	694157312	64	4237
2026-01-08 21:37:44.44	56.06	13.73	-49.1	-50.5	14.8	0.00e+00	0	24	0	697303040	64	4201
2026-01-08 21:37:45.44	56.26	13.75	-48.9	-50.3	14.9	0.00e+00	0	24	0	699400192	64	4108
2026-01-08 21:37:46.43	56.45	13.78	-49.0	-50.3	14.8	0.00e+00	0	24	0	702545920	64	4136
2026-01-08 21:37:47.43	56.65	13.80	-48.8	-50.1	15.0	0.00e+00	0	24	0	705691648	64	4031
2026-01-08 21:37:48.43	56.85	13.83	-48.8	-50.1	14.9	0.00e+00	0	24	0	708837376	64	4040
2026-01-08 21:37:49.43	57.05	13.85	-48.9	-50.2	14.9	0.00e+00	0	24	0	711983104	64	4067
2026-01-08 21:37:50.42	57.24	13.88	-48.8	-50.1	14.9	0.00e+00	0	24	0	715128832	64	4048
2026-01-08 21:37:51.42	57.44	13.90	-48.8	-50.1	14.9	0.00e+00	0	24	0	718274560	64	4037
2026-01-08 21:37:52.42	57.64	13.92	-48.8	-50.1	14.9	0.00e+00	0	24	0	721420288	64	4046
2026-01-08 21:37:53.42	57.83	13.95	-48.9	-50.2	14.9	0.00e+00	0	24	0	724566016	64	4094
2026-01-08 21:37:54.43	58.04	13.97	-48.9	-50.2	14.9	0.00e+00	0	24	0	727711744	64	4081
2026-01-08 21:37:55.43	58.23	13.99	-48.9	-50.2	14.9	0.00e+00	0	24	0	730857472	64	4072
2026-01-08 21:37:56.43	58.43	14.02	-48.9	-50.3	14.9	0.00e+00	0	24	0	734003200	64	4104
2026-01-08 21:37:57.43	58.63	14.04	-48.8	-50.1	14.9	0.00e+00	0	24	0	737148928	64	4050
2026-01-08 21:37:58.43	58.83	14.06	-48.8	-50.2	14.9	0.00e+00	0	24	0	740294656	64	4057
2026-01-08 21:37:59.43	59.03	14.08	-48.8	-50.2	14.9	0.00e+00	0	24	0	743440384	64	4055
2026-01-08 21:38:00.43	59.23	14.10	-48.9	-50.2	14.9	0.00e+00	0	24	0	746586112	64	4091
2026-01-08 21:38:01.43	59.43	14.13	-49.0	-50.3	14.8	0.00e+00	0	24	0	749731840	64	4130
2026-01-08 21:38:02.43	59.64	14.15	-49.1	-50.4	14.8	0.00e+00	0	24	0	752877568	64	4177
2026-01-08 21:38:03.43	59.84	14.17	-49.0	-50.4	14.8	0.00e+00	0	24	0	756023296	64	4158
2026-01-08 21:38:04.43	60.04	14.19	-48.9	-50.3	14.9	0.00e+00	0	24	0	759169024	64	4102
2026-01-08 21:38:05.43	60.24	14.21	-48.9	-50.2	14.9	0.00e+00	0	24	0	762314752	64	4083
2026-01-08 21:38:06.42	60.44	14.23	-48.8	-50.1	15.0	0.00e+00	0	24	0	765460480	64	4025
2026-01-08 21:38:07.42	60.64	14.24	-48.8	-50.1	15.0	0.00e+00	0	24	0	768606208	64	4012
2026-01-08 21:38:08.42	60.84	14.26	-48.7	-50.0	15.0	0.00e+00	0	24	0	771751936	64	4003
2026-01-08 21:38:09.42	61.05	14.28	-48.8	-50.1	14.9	0.00e+00	0	24	0	774897664	64	4015
2026-01-08 21:38:10.41	61.25	14.30	-48.8	-50.1	15.0	0.00e+00	0	24	0	778043392	64	4022
2026-01-08 21:38:11.41	61.45	14.32	-48.8	-50.1	15.0	0.00e+00	0	24	0	781189120	64	4005
2026-01-08 21:38:12.40	61.65	14.34	-48.9	-50.2	14.9	0.00e+00	0	24	0	784334848	64	4058
2026-01-08 21:38:13.40	61.86	14.35	-48.8	-50.1	14.9	0.00e+00	0	24	0	787480576	64	4029
2026-01-08 21:38:14.40	62.06	14.37	-48.8	-50.1	14.9	0.00e+00	0	24	0	790626304	64	4040
2026-01-08 21:38:15.40	62.27	14.39	-48.7	-50.0	15.0	0.00e+00	0	24	0	793772032	64	3991
2026-01-08 21:38:16.38	62.47	14.40	-48.8	-50.0	15.0	0.00e+00	0	24	0	796917760	64	4003
2026-01-08 21:38:17.38	62.67	14.42	-48.8	-50.1	15.0	0.00e+00	0	24	0	800063488	64	4009
2026-01-08 21:38:18.38	62.88	14.43	-48.7	-50.0	15.0	0.00e+00	0	24	0	803209216	64	3990
2026-01-08 21:38:19.38	63.08	14.45	-48.7	-50.0	14.8	0.00e+00	0	24	0	806354944	63	4237
2026-01-08 21:38:20.38	63.29	14.47	-48.9	-50.2	14.8	0.00e+00	0	24	0	809500672	63	4314
2026-01-08 21:38:21.38	63.49	14.48	-48.9	-50.2	14.8	0.00e+00	0	24	0	812646400	63	4338
2026-01-08 21:38:22.36	63.69	14.49	-48.8	-50.1	14.8	0.00e+00	0	24	0	814743552	63	4287
2026-01-08 21:38:23.37	63.90	14.51	-49.0	-50.3	14.7	0.00e+00	0	24	0	817889280	63	4362
2026-01-08 21:38:24.37	64.11	14.52	-48.9	-50.2	14.8	0.00e+00	0	24	0	822083584	63	4337
2026-01-08 21:38:25.36	64.31	14.54	-48.9	-50.3	14.7	0.00e+00	0	24	0	824180736	63	4347
2026-01-08 21:38:26.36	64.52	14.55	-49.0	-50.3	14.7	0.00e+00	0	24	0	827326464	63	4373
2026-01-08 21:38:27.36	64.72	14.56	-49.0	-50.4	14.7	0.00e+00	0	24	0	830472192	63	4417
2026-01-08 21:38:28.36	64.93	14.57	-49.1	-50.5	14.7	0.00e+00	0	24	0	833617920	63	4443
2026-01-08 21:38:29.36	65.14	14.59	-49.4	-50.8	14.5	0.00e+00	0	24	0	836763648	63	4613
2026-01-08 21:38:30.36	65.35	14.60	-49.3	-50.7	14.6	0.00e+00	0	24	0	839909376	63	4580
2026-01-08 21:38:31.36	65.55	14.61	-49.3	-50.7	14.5	0.00e+00	0	24	0	843055104	63	4565
2026-01-08 21:38:32.36	65.76	14.62	-49.4	-50.8	14.5	0.00e+00	0	24	0	846200832	63	4611
2026-01-08 21:38:33.37	65.97	14.63	-49.4	-50.8	14.6	0.00e+00	0	24	0	849346560	64	4345
2026-01-08 21:38:34.37	66.18	14.64	-49.1	-50.4	14.8	0.00e+00	0	24	0	852492288	64	4189
2026-01-08 21:38:35.37	66.39	14.65	-49.0	-50.3	14.8	0.00e+00	0	24	0	855638016	64	4138
2026-01-08 21:38:36.36	66.59	14.66	-48.9	-50.2	14.9	0.00e+00	0	24	0	858783744	64	4076
2026-01-08 21:38:37.36	66.80	14.67	-48.9	-50.2	14.9	0.00e+00	0	24	0	861929472	64	4076
2026-01-08 21:38:38.36	67.01	14.68	-48.9	-50.2	14.9	0.00e+00	0	24	0	865075200	64	4093
2026-01-08 21:38:39.36	67.22	14.69	-48.9	-50.2	14.9	0.00e+00	0	24	0	868220928	64	4094
2026-01-08 21:38:40.36	67.42	14.70	-49.0	-50.3	14.8	0.00e+00	0	24	0	871366656	64	4134
2026-01-08 21:38:41.35	67.63	14.70	-49.0	-50.3	14.8	0.00e+00	0	24	0	874512384	64	4131
2026-01-08 21:38:42.34	67.84	14.71	-49.0	-50.4	14.8	0.00e+00	0	24	0	877658112	64	4156
2026-01-08 21:38:43.34	68.05	14.72	-49.1	-50.5	14.8	0.00e+00	0	24	0	880803840	64	4202
2026-01-08 21:38:44.34	68.26	14.72	-49.1	-50.4	14.8	0.00e+00	0	24	0	883949568	64	4180
2026-01-08 21:38:45.33	68.46	14.73	-49.1	-50.4	14.8	0.00e+00	0	24	0	887095296	64	4191
2026-01-08 21:38:46.33	68.67	14.74	-49.0	-50.4	14.9	0.00e+00	0	24	0	890241024	64	4156
2026-01-08 21:38:47.33	68.88	14.74	-48.9	-50.3	14.9	0.00e+00	0	24	0	893386752	64	4106
2026-01-08 21:38:48.33	69.09	14.75	-49.0	-50.3	14.9	0.00e+00	0	24	0	896532480	64	4126
2026-01-08 21:38:49.33	69.30	14.75	-49.0	-50.3	14.9	0.00e+00	0	24	0	899678208	64	4132
2026-01-08 21:38:50.33	69.51	14.76	-49.0	-50.3	14.9	0.00e+00	0	24	0	902823936	64	4116
2026-01-08 21:38:51.32	69.72	14.76	-49.0	-50.4	14.8	0.00e+00	0	24	0	905969664	64	4150
2026-01-08 21:38:52.32	69.93	14.77	-49.1	-50.4	14.8	0.00e+00	0	24	0	909115392	64	4178
2026-01-08 21:38:53.33	70.14	14.77	-49.0	-50.3	14.8	0.00e+00	0	24	0	912261120	64	4130
2026-01-08 21:38:54.33	70.35	14.77	-49.0	-50.4	14.8	0.00e+00	0	24	0	915406848	64	4158
2026-01-08 21:38:55.33	70.56	14.78	-49.1	-50.5	14.8	0.00e+00	0	24	0	918552576	64	4220
2026-01-08 21:38:56.32	70.76	14.78	-49.2	-50.5	14.7	0.00e+00	0	24	0	921698304	64	4240
2026-01-08 21:38:57.32	70.97	14.78	-49.2	-50.6	14.7	0.00e+00	0	24	0	924844032	64	4254
2026-01-08 21:38:58.32	71.18	14.78	-49.2	-50.6	14.7	0.00e+00	0	24	0	927989760	64	4278
2026-01-08 21:38:59.31	71.39	14.78	-49.2	-50.6	14.8	0.00e+00	0	24	0	931135488	64	4251
2026-01-08 21:39:00.31	71.60	14.79	-49.0	-50.3	14.8	0.00e+00	0	24	0	934281216	64	4133
2026-01-08 21:39:01.31	71.81	14.79	-49.0	-50.3	14.8	0.00e+00	0	24	0	937426944	64	4130
2026-01-08 21:39:02.30	72.02	14.79	-49.1	-50.5	14.8	0.00e+00	0	24	0	940572672	64	4195
2026-01-08 21:39:03.30	72.23	14.79	-49.0	-50.4	14.8	0.00e+00	0	24	0	943718400	64	4163
2026-01-08 21:39:04.29	72.44	14.79	-49.1	-50.5	14.8	0.00e+00	0	24	0	945815552	64	4218
2026-01-08 21:39:05.29	72.65	14.79	-48.9	-50.3	14.9	0.00e+00	0	24	0	948961280	64	4110
2026-01-08 21:39:06.29	72.86	14.79	-48.9	-50.2	14.9	0.00e+00	0	24	0	952107008	64	4069
2026-01-08 21:39:07.29	73.07	14.78	-48.7	-50.0	15.0	0.00e+00	0	24	0	955252736	64	3987
2026-01-08 21:39:08.29	73.28	14.78	-48.8	-50.1	14.9	0.00e+00	0	24	0	958398464	63	4253
2026-01-08 21:39:09.29	73.49	14.78	-48.8	-50.1	14.8	0.00e+00	0	24	0	961544192	63	4257
2026-01-08 21:39:10.28	73.70	14.78	-48.9	-50.2	14.8	0.00e+00	0	24	0	964689920	63	4301
2026-01-08 21:39:11.28	73.90	14.78	-48.8	-50.2	14.8	0.00e+00	0	24	0	967835648	63	4301
2026-01-08 21:39:12.28	74.11	14.77	-48.8	-50.1	14.8	0.00e+00	0	24	0	970981376	63	4276
2026-01-08 21:39:13.27	74.32	14.77	-48.8	-50.1	14.8	0.00e+00	0	24	0	974127104	63	4260
2026-01-08 21:39:14.28	74.53	14.77	-48.7	-50.0	14.8	0.00e+00	0	24	0	977272832	63	4242
2026-01-08 21:39:15.28	74.74	14.76	-48.9	-50.2	14.8	0.00e+00	0	24	0	980418560	63	4317
2026-01-08 21:39:16.27	74.95	14.76	-48.8	-50.1	14.8	0.00e+00	0	24	0	983564288	63	4280
2026-01-08 21:39:17.27	75.16	14.75	-48.9	-50.2	14.8	0.00e+00	0	24	0	986710016	63	4321
2026-01-08 21:39:18.28	75.37	14.75	-48.9	-50.2	14.8	0.00e+00	0	24	0	989855744	63	4314
2026-01-08 21:39:19.28	75.58	14.74	-48.8	-50.1	14.8	0.00e+00	0	24	0	993001472	63	4269
2026-01-08 21:39:20.28	75.79	14.74	-48.9	-50.2	14.8	0.00e+00	0	24	0	996147200	63	4310
2026-01-08 21:39:21.28	76.00	14.73	-49.0	-50.4	14.7	0.00e+00	0	24	0	999292928	63	4397
2026-01-08 21:39:22.28	76.21	14.72	-48.9	-50.3	14.7	0.00e+00	0	24	0	1002438656	63	4346
2026-01-08 21:39:23.28	76.42	14.72	-49.1	-50.5	14.7	0.00e+00	0	24	0	1005584384	63	4448
2026-01-08 21:39:24.28	76.63	14.71	-49.1	-50.4	14.7	0.00e+00	0	24	0	1008730112	63	4438
2026-01-08 21:39:25.28	76.84	14.70	-49.0	-50.4	14.7	0.00e+00	0	24	0	1011875840	63	4401
2026-01-08 21:39:26.28	77.05	14.69	-49.0	-50.4	14.7	0.00e+00	0	24	0	1015021568	63	4408
2026-01-08 21:39:27.28	77.25	14.68	-49.1	-50.5	14.7	0.00e+00	0	24	0	1018167296	63	4459
2026-01-08 21:39:28.28	77.46	14.68	-48.9	-50.3	14.7	0.00e+00	0	24	0	1021313024	63	4365
2026-01-08 21:39:29.28	77.67	14.67	-48.9	-50.3	14.7	0.00e+00	0	24	0	1024458752	63	4360
2026-01-08 21:39:30.27	77.88	14.66	-49.0	-50.4	14.7	0.00e+00	0	24	0	1027604480	63	4395
2026-01-08 21:39:31.27	78.09	14.65	-49.0	-50.3	14.7	0.00e+00	0	24	0	1030750208	63	4381
2026-01-08 21:39:32.26	78.29	14.64	-49.0	-50.3	14.7	0.00e+00	0	24	0	1033895936	63	4387
2026-01-08 21:39:33.27	78.50	14.63	-49.0	-50.4	14.7	0.00e+00	0	24	0	1037041664	63	4421
2026-01-08 21:39:34.27	78.71	14.62	-49.1	-50.5	14.6	0.00e+00	0	24	0	1040187392	63	4470
2026-01-08 21:39:35.26	78.91	14.61	-49.1	-50.4	14.6	0.00e+00	0	24	0	1043333120	63	4434
2026-01-08 21:39:36.27	79.12	14.59	-49.0	-50.4	14.7	0.00e+00	0	24	0	1046478848	63	4400
2026-01-08 21:39:37.27	79.33	14.58	-48.9	-50.2	14.8	0.00e+00	0	24	0	1049624576	63	4328
2026-01-08 21:39:38.27	79.54	14.57	-48.8	-50.2	14.8	0.00e+00	0	24	0	1052770304	63	4298
2026-01-08 21:39:39.27	79.75	14.56	-48.8	-50.0	14.8	0.00e+00	0	24	0	1055916032	63	4242
2026-01-08 21:39:40.27	79.95	14.54	-48.9	-50.2	14.8	0.00e+00	0	24	0	1059061760	63	4328
2026-01-08 21:39:41.27	80.16	14.53	-49.0	-50.3	14.7	0.00e+00	0	24	0	1062207488	63	4364
2026-01-08 21:39:42.27	80.37	14.52	-49.0	-50.4	14.7	0.00e+00	0	24	0	1065353216	63	4416
2026-01-08 21:39:43.27	80.57	14.50	-49.0	-50.3	14.7	0.00e+00	0	24	0	1068498944	63	4384
2026-01-08 21:39:44.27	80.78	14.49	-49.0	-50.3	14.7	0.00e+00	0	24	0	1071644672	63	4361
2026-01-08 21:39:45.27	80.98	14.48	-48.9	-50.2	14.8	0.00e+00	0	24	0	1074790400	63	4311
2026-01-08 21:39:46.26	81.19	14.46	-48.9	-50.3	14.8	0.00e+00	0	24	0	1077936128	63	4348
2026-01-08 21:39:47.25	81.39	14.45	-49.1	-50.5	14.7	0.00e+00	0	24	0	1080033280	63	4450
2026-01-08 21:39:48.24	81.59	14.43	-49.0	-50.4	14.7	0.00e+00	0	24	0	1083179008	63	4424
2026-01-08 21:39:49.24	81.80	14.41	-49.1	-50.5	14.6	0.00e+00	0	24	0	1086324736	63	4465
2026-01-08 21:39:50.24	82.00	14.40	-49.1	-50.5	14.6	0.00e+00	0	24	0	1089470464	63	4477
2026-01-08 21:39:51.23	82.21	14.38	-49.2	-50.6	14.6	0.00e+00	0	24	0	1092616192	63	4496
2026-01-08 21:39:52.22	82.41	14.37	-49.2	-50.6	14.6	0.00e+00	0	24	0	1095761920	63	4510
2026-01-08 21:39:53.21	82.61	14.35	-49.0	-50.4	14.7	0.00e+00	0	24	0	1098907648	63	4397
2026-01-08 21:39:54.20	82.81	14.33	-48.9	-50.3	14.7	0.00e+00	0	24	0	1102053376	63	4353
2026-01-08 21:39:55.20	83.02	14.31	-48.9	-50.3	14.8	0.00e+00	0	24	0	1105199104	63	4341
2026-01-08 21:39:56.19	83.22	14.30	-49.0	-50.3	14.7	0.00e+00	0	24	0	1108344832	63	4379
2026-01-08 21:39:57.19	83.42	14.28	-49.1	-50.4	14.7	0.00e+00	0	24	0	1111490560	63	4419
2026-01-08 21:39:58.19	83.63	14.26	-49.0	-50.3	14.7	0.00e+00	0	24	0	1114636288	63	4385
2026-01-08 21:39:59.19	83.83	14.24	-48.8	-50.1	14.8	0.00e+00	0	24	0	1117782016	63	4283
2026-01-08 21:40:00.18	84.03	14.22	-48.9	-50.2	14.7	0.00e+00	0	24	0	1120927744	63	4328
2026-01-08 21:40:01.18	84.23	14.20	-48.8	-50.1	14.8	0.00e+00	0	24	0	1124073472	63	4285
2026-01-08 21:40:02.18	84.43	14.18	-48.8	-50.2	14.8	0.00e+00	0	24	0	1127219200	63	4304
2026-01-08 21:40:03.19	84.64	14.16	-48.8	-50.1	14.8	0.00e+00	0	24	0	1130364928	63	4285
2026-01-08 21:40:04.20	84.84	14.14	-49.0	-50.4	14.7	0.00e+00	0	24	0	1133510656	63	4400
2026-01-08 21:40:05.19	85.04	14.12	-48.9	-50.3	14.7	0.00e+00	0	24	0	1136656384	63	4343
2026-01-08 21:40:06.19	85.24	14.10	-49.0	-50.4	14.7	0.00e+00	0	24	0	1139802112	63	4406
2026-01-08 21:40:07.19	85.44	14.08	-49.0	-50.4	14.7	0.00e+00	0	24	0	1142947840	63	4400
2026-01-08 21:40:08.19	85.64	14.05	-48.9	-50.3	14.7	0.00e+00	0	24	0	1146093568	63	4364
2026-01-08 21:40:09.19	85.84	14.03	-49.0	-50.3	14.7	0.00e+00	0	24	0	1149239296	63	4391
2026-01-08 21:40:10.18	86.04	14.01	-48.8	-50.1	14.8	0.00e+00	0	24	0	1152385024	63	4291
2026-01-08 21:40:11.18	86.24	13.99	-48.9	-50.2	14.7	0.00e+00	0	24	0	1155530752	63	4339
2026-01-08 21:40:12.18	86.44	13.96	-49.0	-50.3	14.7	0.00e+00	0	24	0	1158676480	63	4378
2026-01-08 21:40:13.18	86.64	13.94	-48.9	-50.3	14.7	0.00e+00	0	24	0	1161822208	63	4367
2026-01-08 21:40:14.17	86.84	13.92	-48.8	-50.1	14.8	0.00e+00	0	24	0	1164967936	63	4282
2026-01-08 21:40:15.17	87.03	13.89	-48.8	-50.1	14.8	0.00e+00	0	24	0	1168113664	63	4290
2026-01-08 21:40:16.17	87.23	13.87	-48.9	-50.2	14.8	0.00e+00	0	24	0	1171259392	63	4328
2026-01-08 21:40:17.17	87.43	13.84	-48.9	-50.3	14.7	0.00e+00	0	24	0	1174405120	63	4368
2026-01-08 21:40:18.16	87.63	13.82	-49.0	-50.4	14.7	0.00e+00	0	24	0	1177550848	63	4400
2026-01-08 21:40:19.17	87.82	13.79	-48.9	-50.3	14.7	0.00e+00	0	24	0	1180696576	63	4355
2026-01-08 21:40:20.17	88.02	13.77	-49.0	-50.4	14.7	0.00e+00	0	24	0	1183842304	63	4412
2026-01-08 21:40:21.17	88.22	13.74	-49.1	-50.4	14.7	0.00e+00	0	24	0	1186988032	63	4441
2026-01-08 21:40:22.17	88.41	13.72	-49.0	-50.3	14.7	0.00e+00	0	24	0	1189085184	63	4378
2026-01-08 21:40:23.17	88.61	13.69	-49.0	-50.4	14.7	0.00e+00	0	24	0	1192230912	63	4400
2026-01-08 21:40:24.16	88.80	13.67	-49.0	-50.4	14.7	0.00e+00	0	24	0	1195376640	63	4394
2026-01-08 21:40:25.17	89.00	13.64	-49.0	-50.3	14.7	0.00e+00	0	24	0	1198522368	63	4365
2026-01-08 21:40:26.17	89.20	13.61	-49.0	-50.4	14.7	0.00e+00	0	24	0	1201668096	63	4405
2026-01-08 21:40:27.17	89.39	13.58	-49.0	-50.4	14.7	0.00e+00	0	24	0	1204813824	63	4406
2026-01-08 21:40:28.17	89.58	13.56	-49.1	-50.5	14.6	0.00e+00	0	24	0	1207959552	63	4455
2026-01-08 21:40:29.17	89.78	13.53	-49.2	-50.6	14.6	0.00e+00	0	24	0	1212153856	63	4506
2026-01-08 21:40:30.17	89.97	13.50	-49.2	-50.6	14.6	0.00e+00	0	24	0	1214251008	63	4508
2026-01-08 21:40:31.17	90.16	13.47	-49.3	-50.7	14.5	0.00e+00	0	24	0	1217396736	63	4563
2026-01-08 21:40:32.17	90.36	13.44	-49.4	-50.8	14.5	0.00e+00	0	24	0	1220542464	63	4611
2026-01-08 21:40:33.17	90.55	13.42	-49.2	-50.7	14.6	0.00e+00	0	24	0	1223688192	63	4547
2026-01-08 21:40:34.17	90.74	13.39	-49.0	-50.4	14.7	0.00e+00	0	24	0	1226833920	63	4417
2026-01-08 21:40:35.17	90.93	13.36	-49.0	-50.4	14.7	0.00e+00	0	24	0	1229979648	63	4423
2026-01-08 21:40:36.16	91.12	13.33	-49.0	-50.4	14.7	0.00e+00	0	24	0	1233125376	63	4409
2026-01-08 21:40:37.16	91.31	13.30	-49.1	-50.5	14.6	0.00e+00	0	24	0	1236271104	63	4454
2026-01-08 21:40:38.16	91.50	13.27	-49.1	-50.4	14.6	0.00e+00	0	24	0	1239416832	63	4433
2026-01-08 21:40:39.15	91.69	13.24	-49.0	-50.4	14.6	0.00e+00	0	24	0	1242562560	63	4421
2026-01-08 21:40:40.15	91.88	13.21	-49.1	-50.4	14.6	0.00e+00	0	24	0	1245708288	63	4432
2026-01-08 21:40:41.15	92.07	13.18	-48.9	-50.3	14.7	0.00e+00	0	24	0	1248854016	63	4348
2026-01-08 21:40:42.14	92.26	13.14	-48.9	-50.2	14.7	0.00e+00	0	24	0	1251999744	63	4336
2026-01-08 21:40:43.13	92.45	13.11	-49.0	-50.4	14.7	0.00e+00	0	24	0	1255145472	63	4410
2026-01-08 21:40:44.13	92.63	13.08	-49.0	-50.4	14.6	0.00e+00	0	24	0	1258291200	63	4424
2026-01-08 21:40:45.13	92.82	13.05	-49.0	-50.4	14.7	0.00e+00	0	24	0	1261436928	63	4415
2026-01-08 21:40:46.13	93.01	13.02	-49.0	-50.4	14.6	0.00e+00	0	24	0	1264582656	63	4404
2026-01-08 21:40:47.13	93.20	12.99	-49.1	-50.5	14.6	0.00e+00	0	24	0	1267728384	63	4455
2026-01-08 21:40:48.12	93.38	12.95	-49.0	-50.4	14.7	0.00e+00	0	24	0	1270874112	63	4392
2026-01-08 21:40:49.12	93.57	12.92	-48.8	-50.2	14.7	0.00e+00	0	24	0	1274019840	63	4295
2026-01-08 21:40:50.12	93.75	12.89	-48.9	-50.2	14.7	0.00e+00	0	24	0	1277165568	63	4316
2026-01-08 21:40:51.12	93.94	12.85	-48.9	-50.2	14.7	0.00e+00	0	24	0	1280311296	63	4314
2026-01-08 21:40:52.11	94.12	12.82	-48.8	-50.1	14.8	0.00e+00	0	24	0	1283457024	63	4280
2026-01-08 21:40:53.11	94.31	12.79	-48.8	-50.2	14.8	0.00e+00	0	24	0	1286602752	63	4305
2026-01-08 21:40:54.10	94.49	12.75	-48.8	-50.2	14.7	0.00e+00	0	24	0	1289748480	63	4315
2026-01-08 21:40:55.10	94.67	12.72	-48.8	-50.2	14.8	0.00e+00	0	24	0	1292894208	63	4311
2026-01-08 21:40:56.10	94.86	12.69	-48.9	-50.2	14.7	0.00e+00	0	24	0	1296039936	63	4337
2026-01-08 21:40:57.10	95.04	12.65	-48.9	-50.2	14.7	0.00e+00	0	24	0	1299185664	63	4340
2026-01-08 21:40:58.10	95.22	12.62	-48.9	-50.2	14.7	0.00e+00	0	24	0	1302331392	63	4333
2026-01-08 21:40:59.11	95.41	12.58	-48.9	-50.2	14.7	0.00e+00	0	24	0	1305477120	63	4340
2026-01-08 21:41:00.11	95.59	12.55	-49.0	-50.4	14.6	0.00e+00	0	24	0	1308622848	63	4425
2026-01-08 21:41:01.10	95.77	12.51	-49.2	-50.6	14.6	0.00e+00	0	24	0	1311768576	63	4499
2026-01-08 21:41:02.10	95.95	12.47	-49.1	-50.4	14.6	0.00e+00	0	24	0	1314914304	63	4433
2026-01-08 21:41:03.11	96.13	12.44	-48.9	-50.3	14.7	0.00e+00	0	24	0	1318060032	63	4363
2026-01-08 21:41:04.10	96.31	12.40	-49.0	-50.4	14.7	0.00e+00	0	24	0	1321205760	63	4405
2026-01-08 21:41:05.10	96.49	12.37	-49.1	-50.4	14.6	0.00e+00	0	24	0	1323302912	63	4434
2026-01-08 21:41:06.10	96.67	12.33	-49.1	-50.4	14.6	0.00e+00	0	24	0	1326448640	63	4439
2026-01-08 21:41:07.10	96.85	12.29	-49.0	-50.4	14.6	0.00e+00	0	24	0	1329594368	63	4426
2026-01-08 21:41:08.10	97.02	12.26	-49.1	-50.4	14.6	0.00e+00	0	24	0	1332740096	63	4436
2026-01-08 21:41:09.09	97.20	12.22	-49.0	-50.4	14.6	0.00e+00	0	24	0	1335885824	63	4421
2026-01-08 21:41:10.09	97.38	12.18	-48.9	-50.3	14.7	0.00e+00	0	24	0	1339031552	63	4355
2026-01-08 21:41:11.09	97.56	12.15	-49.0	-50.3	14.7	0.00e+00	0	24	0	1342177280	63	4388
2026-01-08 21:41:12.09	97.73	12.11	-49.0	-50.4	14.6	0.00e+00	0	24	0	1345323008	63	4411
2026-01-08 21:41:13.08	97.91	12.07	-49.1	-50.5	14.6	0.00e+00	0	24	0	1348468736	63	4479
2026-01-08 21:41:14.09	98.08	12.03	-49.2	-50.6	14.5	0.00e+00	0	24	0	1351614464	63	4533
2026-01-08 21:41:15.09	98.26	11.99	-49.2	-50.6	14.6	0.00e+00	0	24	0	1354760192	63	4530
2026-01-08 21:41:16.09	98.43	11.96	-49.3	-50.7	14.5	0.00e+00	0	24	0	1357905920	63	4559
2026-01-08 21:41:17.09	98.61	11.92	-49.3	-50.7	14.5	0.00e+00	0	24	0	1361051648	63	4586
2026-01-08 21:41:18.08	98.78	11.88	-49.3	-50.8	14.5	0.00e+00	0	24	0	1364197376	63	4601
2026-01-08 21:41:19.08	98.96	11.84	-49.5	-50.9	14.5	0.00e+00	0	24	0	1367343104	64	4413
2026-01-08 21:41:20.07	99.13	11.80	-49.4	-50.8	14.5	0.00e+00	0	24	0	1370488832	64	4368
2026-01-08 21:41:21.08	99.30	11.76	-49.4	-50.8	14.5	0.00e+00	0	24	0	1373634560	64	4386
2026-01-08 21:41:22.08	99.47	11.72	-49.4	-50.8	14.6	0.00e+00	0	24	0	1376780288	64	4358
2026-01-08 21:41:23.07	99.64	11.68	-49.4	-50.9	14.5	0.00e+00	0	24	0	1379926016	64	4400
2026-01-08 21:41:24.07	99.81	11.64	-49.3	-50.7	14.6	0.00e+00	0	24	0	1383071744	64	4324
2026-01-08 21:41:25.07	99.99	11.60	-49.3	-50.7	14.6	0.00e+00	0	24	0	1386217472	64	4334
2026-01-08 21:41:26.07	100.16	11.56	-49.3	-50.7	14.6	0.00e+00	0	24	0	1389363200	64	4308
2026-01-08 21:41:27.07	100.33	11.52	-49.4	-50.8	14.6	0.00e+00	0	24	0	1392508928	64	4360
2026-01-08 21:41:28.06	100.49	11.48	-49.4	-50.9	14.5	0.00e+00	0	24	0	1395654656	64	4399
2026-01-08 21:41:29.06	100.66	11.44	-49.3	-50.7	14.6	0.00e+00	0	24	0	1398800384	64	4334
2026-01-08 21:41:30.07	100.83	11.40	-49.4	-50.8	14.6	0.00e+00	0	24	0	1401946112	64	4368
2026-01-08 21:41:31.06	101.00	11.36	-49.4	-50.8	14.6	0.00e+00	0	24	0	1405091840	64	4367
2026-01-08 21:41:32.06	101.17	11.32	-49.4	-50.8	14.5	0.00e+00	0	24	0	1408237568	64	4375
2026-01-08 21:41:33.06	101.34	11.28	-49.4	-50.9	14.5	0.00e+00	0	24	0	1411383296	64	4396
2026-01-08 21:41:34.06	101.50	11.24	-49.5	-51.0	14.4	0.00e+00	0	24	0	1414529024	64	4475
2026-01-08 21:41:35.06	101.67	11.20	-49.6	-51.1	14.4	0.00e+00	0	24	0	1417674752	64	4495
2026-01-08 21:41:36.05	101.83	11.16	-49.6	-51.1	14.4	0.00e+00	0	24	0	1420820480	64	4513
2026-01-08 21:41:37.05	102.00	11.11	-49.6	-51.1	14.4	0.00e+00	0	24	0	1423966208	64	4534
2026-01-08 21:41:38.05	102.16	11.07	-49.6	-51.1	14.4	0.00e+00	0	24	0	1427111936	64	4531
2026-01-08 21:41:39.05	102.33	11.03	-49.7	-51.2	14.4	0.00e+00	0	24	0	1430257664	64	4555
2026-01-08 21:41:40.05	102.49	10.99	-49.6	-51.1	14.4	0.00e+00	0	24	0	1433403392	64	4521
2026-01-08 21:41:41.04	102.65	10.95	-49.6	-51.1	14.4	0.00e+00	0	24	0	1436549120	64	4505
2026-01-08 21:41:42.04	102.82	10.91	-49.7	-51.2	14.3	0.00e+00	0	24	0	1439694848	64	4578
2026-01-08 21:41:43.04	102.98	10.86	-49.8	-51.3	14.3	0.00e+00	0	24	0	1442840576	64	4618
2026-01-08 21:41:44.04	103.14	10.82	-49.7	-51.2	14.3	0.00e+00	0	24	0	1445986304	64	4587
2026-01-08 21:41:45.03	103.30	10.78	-49.6	-51.1	14.4	0.00e+00	0	24	0	1449132032	64	4509
2026-01-08 21:41:46.03	103.47	10.73	-49.7	-51.2	14.3	0.00e+00	0	24	0	1452277760	64	4576
2026-01-08 21:41:47.03	103.63	10.69	-49.8	-51.3	14.3	0.00e+00	0	24	0	1455423488	64	4602
2026-01-08 21:41:48.02	103.79	10.65	-49.8	-51.3	14.3	0.00e+00	0	24	0	1457520640	64	4605
2026-01-08 21:41:49.03	103.95	10.61	-49.8	-51.3	14.3	0.00e+00	0	24	0	1460666368	64	4615
2026-01-08 21:41:50.02	104.10	10.56	-49.8	-51.3	14.3	0.00e+00	0	24	0	1463812096	64	4609
2026-01-08 21:41:51.02	104.26	10.52	-49.8	-51.3	14.3	0.00e+00	0	24	0	1466957824	64	4623
2026-01-08 21:41:52.03	104.42	10.48	-49.8	-51.4	14.3	0.00e+00	0	24	0	1470103552	64	4654
2026-01-08 21:41:53.02	104.58	10.43	-50.0	-51.5	14.3	0.00e+00	0	24	0	1473249280	65	4487
2026-01-08 21:41:54.03	104.74	10.39	-49.9	-51.5	14.3	0.00e+00	0	24	0	1476395008	65	4449
2026-01-08 21:41:55.02	104.90	10.34	-49.9	-51.5	14.3	0.00e+00	0	24	0	1479540736	65	4451
2026-01-08 21:41:56.02	105.05	10.30	-49.9	-51.5	14.3	0.00e+00	0	24	0	1482686464	65	4455
2026-01-08 21:41:57.02	105.21	10.26	-50.0	-51.6	14.3	0.00e+00	0	24	0	1485832192	65	4498
2026-01-08 21:41:58.02	105.37	10.21	-50.0	-51.5	14.3	0.00e+00	0	24	0	1488977920	65	4483
2026-01-08 21:41:59.01	105.52	10.17	-49.9	-51.4	14.4	0.00e+00	0	24	0	1492123648	65	4411
2026-01-08 21:42:00.01	105.67	10.12	-49.8	-51.3	14.4	0.00e+00	0	24	0	1495269376	65	4363
2026-01-08 21:42:01.01	105.83	10.08	-49.9	-51.4	14.4	0.00e+00	0	24	0	1498415104	65	4408
2026-01-08 21:42:02.01	105.98	10.03	-49.9	-51.4	14.4	0.00e+00	0	24	0	1501560832	65	4406
2026-01-08 21:42:03.01	106.14	9.99	-49.8	-51.3	14.4	0.00e+00	0	24	0	1504706560	65	4388
2026-01-08 21:42:04.01	106.29	9.94	-49.9	-51.4	14.4	0.00e+00	0	24	0	1507852288	65	4424
2026-01-08 21:42:05.01	106.44	9.90	-49.9	-51.5	14.3	0.00e+00	0	24	0	1510998016	65	4443
2026-01-08 21:42:06.00	106.59	9.85	-49.9	-51.5	14.3	0.00e+00	0	24	0	1514143744	65	4452
2026-01-08 21:42:07.00	106.75	9.81	-50.0	-51.6	14.3	0.00e+00	0	24	0	1517289472	65	4494
2026-01-08 21:42:08.00	106.90	9.76	-49.9	-51.4	14.4	0.00e+00	0	24	0	1520435200	65	4421
2026-01-08 21:42:09.00	107.05	9.72	-49.9	-51.4	14.4	0.00e+00	0	24	0	1523580928	65	4431
2026-01-08 21:42:09.99	107.20	9.67	-50.0	-51.5	14.3	0.00e+00	0	24	0	1526726656	65	4466
2026-01-08 21:42:10.98	107.35	9.63	-50.0	-51.6	14.3	0.00e+00	0	24	0	1529872384	65	4517
2026-01-08 21:42:11.98	107.50	9.58	-50.2	-51.8	14.2	0.00e+00	0	24	0	1533018112	65	4612
2026-01-08 21:42:12.98	107.65	9.54	-50.1	-51.7	14.2	0.00e+00	0	24	0	1536163840	65	4552
2026-01-08 21:42:13.98	107.79	9.49	-50.1	-51.6	14.2	0.00e+00	0	24	0	1539309568	65	4543
2026-01-08 21:42:14.98	107.94	9.45	-50.1	-51.7	14.2	0.00e+00	0	24	0	1542455296	65	4585
2026-01-08 21:42:15.98	108.09	9.40	-50.3	-51.9	14.1	0.00e+00	0	24	0	1545601024	65	4672
2026-01-08 21:42:16.99	108.24	9.35	-50.2	-51.8	14.2	0.00e+00	0	24	0	1548746752	65	4617
2026-01-08 21:42:17.99	108.39	9.31	-50.2	-51.8	14.1	0.00e+00	0	24	0	1551892480	65	4642
2026-01-08 21:42:18.99	108.53	9.26	-50.3	-51.9	14.1	0.00e+00	0	24	0	1555038208	65	4694
2026-01-08 21:42:19.98	108.68	9.22	-50.3	-51.9	14.1	0.00e+00	0	24	0	1558183936	65	4659
2026-01-08 21:42:20.98	108.82	9.17	-50.2	-51.8	14.1	0.00e+00	0	24	0	1561329664	65	4640
2026-01-08 21:42:21.98	108.97	9.12	-50.2	-51.8	14.2	0.00e+00	0	24	0	1564475392	65	4630
2026-01-08 21:42:22.98	109.11	9.08	-50.2	-51.8	14.2	0.00e+00	0	24	0	1567621120	65	4601
2026-01-08 21:42:23.98	109.26	9.03	-50.3	-51.9	14.1	0.00e+00	0	24	0	1570766848	65	4672
2026-01-08 21:42:24.98	109.40	8.98	-50.2	-51.8	14.2	0.00e+00	0	24	0	1573912576	65	4602
2026-01-08 21:42:25.98	109.55	8.94	-50.2	-51.8	14.2	0.00e+00	0	24	0	1577058304	65	4607
2026-01-08 21:42:26.98	109.69	8.89	-50.2	-51.8	14.2	0.00e+00	0	24	0	1580204032	65	4621
2026-01-08 21:42:27.98	109.83	8.84	-50.2	-51.8	14.2	0.00e+00	0	24	0	1583349760	65	4612
2026-01-08 21:42:28.98	109.97	8.80	-50.2	-51.7	14.2	0.00e+00	0	24	0	1586495488	65	4596
2026-01-08 21:42:29.98	110.12	8.75	-50.3	-51.9	14.1	0.00e+00	0	24	0	1589641216	65	4659
2026-01-08 21:42:30.98	110.26	8.70	-50.3	-51.9	14.1	0.00e+00	0	24	0	1591738368	65	4694
2026-01-08 21:42:31.98	110.40	8.66	-50.4	-52.0	14.0	0.00e+00	0	24	0	1594884096	65	4732
2026-01-08 21:42:32.98	110.54	8.61	-50.3	-51.9	14.1	0.00e+00	0	24	0	1598029824	65	4655
2026-01-08 21:42:33.97	110.68	8.56	-50.2	-51.8	14.1	0.00e+00	0	24	0	1601175552	65	4612
2026-01-08 21:42:34.97	110.82	8.51	-50.2	-51.8	14.1	0.00e+00	0	24	0	1604321280	65	4645
2026-01-08 21:42:35.97	110.96	8.47	-50.3	-51.9	14.1	0.00e+00	0	24	0	1607467008	65	4659
2026-01-08 21:42:36.98	111.10	8.42	-50.3	-52.0	14.1	0.00e+00	0	24	0	1610612736	65	4706
2026-01-08 21:42:37.97	111.23	8.37	-50.2	-51.8	14.1	0.00e+00	0	24	0	1613758464	65	4649
2026-01-08 21:42:38.97	111.37	8.33	-50.2	-51.9	14.1	0.00e+00	0	24	0	1616904192	65	4653
2026-01-08 21:42:39.96	111.51	8.28	-50.3	-51.9	14.1	0.00e+00	0	24	0	1620049920	65	4679
2026-01-08 21:42:40.95	111.64	8.23	-50.3	-51.9	14.1	0.00e+00	0	24	0	1623195648	65	4674
2026-01-08 21:42:41.95	111.78	8.18	-50.2	-51.8	14.1	0.00e+00	0	24	0	1626341376	65	4637
2026-01-08 21:42:42.95	111.91	8.14	-50.1	-51.7	14.2	0.00e+00	0	24	0	1629487104	65	4567
2026-01-08 21:42:43.95	112.05	8.09	-50.1	-51.7	14.1	0.00e+00	0	24	0	1632632832	65	4597
2026-01-08 21:42:44.95	112.18	8.04	-50.2	-51.8	14.1	0.00e+00	0	24	0	1635778560	65	4604
2026-01-08 21:42:45.95	112.32	7.99	-50.2	-51.8	14.1	0.00e+00	0	24	0	1638924288	65	4636
2026-01-08 21:42:46.94	112.45	7.95	-50.3	-51.9	14.1	0.00e+00	0	24	0	1642070016	65	4683
2026-01-08 21:42:47.95	112.59	7.90	-50.3	-52.0	14.0	0.00e+00	0	24	0	1645215744	65	4726
2026-01-08 21:42:48.95	112.72	7.85	-50.4	-52.0	14.2	0.00e+00	0	24	0	1648361472	66	4474
2026-01-08 21:42:49.95	112.85	7.80	-50.4	-52.1	14.1	0.00e+00	0	24	0	1651507200	66	4501
2026-01-08 21:42:50.95	112.99	7.75	-50.3	-51.9	14.2	0.00e+00	0	24	0	1654652928	66	4416
2026-01-08 21:42:51.95	113.12	7.71	-50.3	-51.9	14.2	0.00e+00	0	24	0	1657798656	66	4435
2026-01-08 21:42:52.95	113.25	7.66	-50.3	-52.0	14.1	0.00e+00	0	24	0	1660944384	66	4450
2026-01-08 21:42:53.94	113.38	7.61	-50.3	-52.0	14.1	0.00e+00	0	24	0	1664090112	66	4448
2026-01-08 21:42:54.94	113.51	7.56	-50.5	-52.1	14.0	0.00e+00	0	24	0	1667235840	66	4543
2026-01-08 21:42:55.94	113.64	7.51	-50.4	-52.1	14.0	0.00e+00	0	24	0	1670381568	66	4511
2026-01-08 21:42:56.94	113.77	7.47	-50.4	-52.0	14.1	0.00e+00	0	24	0	1673527296	66	4477
2026-01-08 21:42:57.93	113.90	7.42	-50.4	-52.1	14.1	0.00e+00	0	24	0	1676673024	66	4513
2026-01-08 21:42:58.93	114.03	7.37	-50.4	-52.0	14.1	0.00e+00	0	24	0	1679818752	66	4472
2026-01-08 21:42:59.92	114.16	7.32	-50.4	-52.1	14.0	0.00e+00	0	24	0	1682964480	66	4526
2026-01-08 21:43:00.92	114.29	7.27	-50.5	-52.2	14.0	0.00e+00	0	24	0	1686110208	66	4555
2026-01-08 21:43:01.92	114.42	7.22	-50.5	-52.2	14.0	0.00e+00	0	24	0	1689255936	66	4572
2026-01-08 21:43:02.92	114.54	7.18	-50.6	-52.3	13.9	0.00e+00	0	24	0	1692401664	66	4618
2026-01-08 21:43:03.92	114.67	7.13	-50.6	-52.2	13.9	0.00e+00	0	24	0	1695547392	66	4596
2026-01-08 21:43:04.92	114.80	7.08	-50.6	-52.3	13.9	0.00e+00	0	24	0	1698693120	66	4629
2026-01-08 21:43:05.93	114.93	7.03	-50.5	-52.3	13.9	0.00e+00	0	24	0	1701838848	66	4603
2026-01-08 21:43:06.92	115.05	6.98	-50.6	-52.3	13.9	0.00e+00	0	24	0	1703936000	66	4651
2026-01-08 21:43:07.92	115.18	6.93	-50.8	-52.6	13.7	0.00e+00	0	24	0	1707081728	66	4777
2026-01-08 21:43:08.92	115.30	6.89	-50.6	-52.3	13.9	0.00e+00	0	24	0	1710227456	66	4613
2026-01-08 21:43:09.92	115.43	6.84	-50.6	-52.4	13.9	0.00e+00	0	24	0	1713373184	66	4667
2026-01-08 21:43:10.93	115.55	6.79	-50.6	-52.3	13.9	0.00e+00	0	24	0	1717567488	66	4608
2026-01-08 21:43:11.92	115.68	6.74	-50.8	-52.6	13.7	0.00e+00	0	24	0	1720713216	66	4782
2026-01-08 21:43:12.92	115.80	6.69	-50.9	-52.7	13.8	0.00e+00	0	24	0	1722810368	67	4558
2026-01-08 21:43:13.91	115.92	6.64	-50.8	-52.6	13.8	0.00e+00	0	24	0	1725956096	67	4520
2026-01-08 21:43:14.91	116.04	6.59	-51.0	-52.8	13.7	0.00e+00	0	24	0	1729101824	67	4632
2026-01-08 21:43:15.91	116.17	6.55	-50.9	-52.8	13.7	0.00e+00	0	24	0	1732247552	67	4616
2026-01-08 21:43:16.90	116.29	6.50	-51.0	-52.8	13.7	0.00e+00	0	24	0	1735393280	67	4624
2026-01-08 21:43:17.90	116.41	6.45	-50.9	-52.7	13.7	0.00e+00	0	24	0	1738539008	67	4587
2026-01-08 21:43:18.90	116.53	6.40	-50.8	-52.7	13.8	0.00e+00	0	24	0	1741684736	67	4546
2026-01-08 21:43:19.90	116.65	6.35	-51.0	-52.8	13.7	0.00e+00	0	24	0	1744830464	67	4629
2026-01-08 21:43:20.89	116.77	6.30	-50.9	-52.7	13.7	0.00e+00	0	24	0	1747976192	67	4596
2026-01-08 21:43:21.89	116.89	6.25	-50.9	-52.7	13.7	0.00e+00	0	24	0	1751121920	67	4573
2026-01-08 21:43:22.89	117.01	6.21	-50.8	-52.6	13.8	0.00e+00	0	24	0	1754267648	67	4510
2026-01-08 21:43:23.89	117.13	6.16	-50.9	-52.8	13.7	0.00e+00	0	24	0	1757413376	67	4616
2026-01-08 21:43:24.90	117.25	6.11	-51.0	-52.8	13.6	0.00e+00	0	24	0	1760559104	67	4646
2026-01-08 21:43:25.89	117.37	6.06	-50.9	-52.7	13.7	0.00e+00	0	24	0	1763704832	67	4595
2026-01-08 21:43:26.89	117.49	6.01	-50.9	-52.7	13.7	0.00e+00	0	24	0	1766850560	67	4579
2026-01-08 21:43:27.88	117.60	5.96	-50.8	-52.6	13.7	0.00e+00	0	24	0	1769996288	67	4539
2026-01-08 21:43:28.88	117.72	5.91	-50.8	-52.7	13.7	0.00e+00	0	24	0	1773142016	67	4564
2026-01-08 21:43:29.88	117.84	5.86	-51.0	-52.9	13.6	0.00e+00	0	24	0	1776287744	67	4660
2026-01-08 21:43:30.87	117.96	5.82	-51.0	-53.0	13.5	0.00e+00	0	24	0	1779433472	67	4711
2026-01-08 21:43:31.87	118.07	5.77	-51.1	-53.0	13.5	0.00e+00	0	24	0	1782579200	67	4729
2026-01-08 21:43:32.88	118.19	5.72	-51.7	-53.8	13.2	0.00e+00	0	24	0	1785724928	68	4889
2026-01-08 21:43:33.88	118.30	5.67	-51.6	-53.6	13.3	0.00e+00	0	24	0	1788870656	68	4799
2026-01-08 21:43:34.87	118.42	5.62	-51.3	-53.2	13.5	0.00e+00	0	24	0	1792016384	68	4577
2026-01-08 21:43:35.87	118.53	5.57	-51.1	-53.0	13.7	0.00e+00	0	24	0	1795162112	68	4464
2026-01-08 21:43:36.87	118.65	5.52	-51.0	-52.9	13.7	0.00e+00	0	24	0	1798307840	68	4407
2026-01-08 21:43:37.87	118.76	5.47	-51.1	-53.0	13.6	0.00e+00	0	24	0	1801453568	68	4474
2026-01-08 21:43:38.88	118.88	5.42	-51.2	-53.1	13.6	0.00e+00	0	24	0	1804599296	68	4532
2026-01-08 21:43:39.88	118.99	5.38	-51.1	-53.0	13.6	0.00e+00	0	24	0	1807745024	68	4473
2026-01-08 21:43:40.87	119.10	5.33	-51.2	-53.1	13.6	0.00e+00	0	24	0	1810890752	68	4509
2026-01-08 21:43:41.86	119.21	5.28	-51.0	-52.8	13.7	0.00e+00	0	24	0	1814036480	68	4386
2026-01-08 21:43:42.86	119.33	5.23	-51.1	-53.0	13.7	0.00e+00	0	24	0	1817182208	68	4447
2026-01-08 21:43:43.87	119.44	5.18	-50.9	-52.8	13.8	0.00e+00	0	24	0	1820327936	68	4360
2026-01-08 21:43:44.85	119.55	5.13	-51.1	-53.0	13.6	0.00e+00	0	24	0	1823473664	68	4459
2026-01-08 21:43:45.85	119.66	5.08	-51.2	-53.2	13.5	0.00e+00	0	24	0	1826619392	68	4572
2026-01-08 21:43:46.85	119.77	5.03	-51.2	-53.2	13.5	0.00e+00	0	24	0	1829765120	68	4581
2026-01-08 21:43:47.84	119.88	4.99	-56.1	-62.3	7.5	4.74e-03	0	24	0	1832910848	77	7736
2026-01-08 21:43:48.85	119.99	4.94	-57.8	-71.4	3.8	1.49e+00	0	25	104	1832910848	80	18589
2026-01-08 21:43:49.83	120.10	4.89	-58.1	-71.8	3.8	1.49e+00	0	24	104	1832910848	81	18393
2026-01-08 21:43:50.82	120.21	4.84	-58.3	-72.0	3.8	1.49e+00	0	24	104	1832910848	81	18945
2026-01-08 21:43:51.82	120.32	4.79	-58.5	-72.3	3.8	1.49e+00	0	24	104	1832910848	82	18381
2026-01-08 21:43:52.82	120.43	4.74	-58.7	-72.4	3.8	1.49e+00	0	25	104	1832910848	82	18656
2026-01-08 21:43:53.82	120.54	4.69	-58.8	-72.6	3.8	1.49e+00	0	25	104	1832910848	82	19120
2026-01-08 21:43:54.81	120.64	4.65	-59.0	-72.7	3.8	1.49e+00	0	24	104	1832910848	83	18287
2026-01-08 21:43:55.81	120.75	4.60	-59.0	-72.9	3.8	1.49e+00	0	24	104	1832910848	83	18523
2026-01-08 21:43:56.81	120.86	4.55	-59.2	-73.0	3.8	1.49e+00	0	25	104	1832910848	83	18878
2026-01-08 21:43:57.81	120.97	4.50	-59.2	-73.0	3.8	1.49e+00	0	24	104	1832910848	83	18891
2026-01-08 21:43:58.80	121.07	4.45	-59.3	-73.1	3.8	1.49e+00	0	25	104	1832910848	83	19062
2026-01-08 21:43:59.80	121.18	4.40	-59.3	-73.2	3.8	1.49e+00	0	24	104	1832910848	83	19191
2026-01-08 21:44:00.80	121.28	4.35	-59.4	-73.2	3.8	1.49e+00	0	24	104	1832910848	83	19335
2026-01-08 21:44:01.80	121.39	4.30	-59.4	-73.3	3.8	1.49e+00	0	25	104	1832910848	83	19410
2026-01-08 21:44:02.79	121.50	4.26	-59.7	-73.5	3.8	1.49e+00	0	25	104	1832910848	84	18857
2026-01-08 21:44:03.80	121.60	4.21	-59.7	-73.6	3.8	1.49e+00	0	24	104	1832910848	84	19037
2026-01-08 21:44:04.79	121.71	4.16	-59.8	-73.6	3.8	1.49e+00	0	25	104	1832910848	84	19071
2026-01-08 21:44:05.79	121.81	4.11	-59.8	-73.6	3.8	1.49e+00	0	25	104	1832910848	84	19129
2026-01-08 21:44:06.80	121.91	4.06	-59.8	-73.7	3.8	1.49e+00	0	25	104	1832910848	84	19245
2026-01-08 21:44:07.80	122.02	4.01	-59.9	-73.7	3.8	1.49e+00	0	25	104	1832910848	84	19282
2026-01-08 21:44:08.80	122.12	3.96	-59.9	-73.7	3.8	1.49e+00	0	25	104	1832910848	84	19291
2026-01-08 21:44:09.80	122.23	3.91	-59.9	-73.7	3.8	1.49e+00	0	25	104	1832910848	84	19341
2026-01-08 21:44:10.80	122.33	3.87	-59.9	-73.8	3.8	1.49e+00	0	25	104	1832910848	85	18404
2026-01-08 21:44:11.79	122.43	3.82	-59.9	-73.8	3.8	1.49e+00	0	25	104	1832910848	85	18402
2026-01-08 21:44:12.80	122.53	3.77	-60.0	-73.8	3.8	1.49e+00	0	25	104	1832910848	85	18383
2026-01-08 21:44:13.80	122.63	3.72	-60.0	-73.9	3.8	1.49e+00	0	25	104	1832910848	85	18519
2026-01-08 21:44:14.79	122.74	3.67	-60.0	-73.9	3.8	1.49e+00	0	25	104	1832910848	85	18572
2026-01-08 21:44:15.79	122.84	3.62	-60.1	-73.9	3.8	1.49e+00	0	25	104	1832910848	85	18682
2026-01-08 21:44:16.79	122.94	3.57	-60.0	-73.8	3.8	1.49e+00	0	24	104	1832910848	85	18461
2026-01-08 21:44:17.80	123.04	3.53	-60.0	-73.8	3.8	1.49e+00	0	25	104	1832910848	85	18409
2026-01-08 21:44:18.80	123.14	3.48	-59.9	-73.8	3.8	1.49e+00	0	25	104	1832910848	85	18415
2026-01-08 21:44:19.80	123.24	3.43	-59.9	-73.8	3.8	1.49e+00	0	25	104	1832910848	85	18385
2026-01-08 21:44:20.80	123.34	3.38	-59.9	-73.8	3.8	1.49e+00	0	25	104	1832910848	85	18369
2026-01-08 21:44:21.80	123.44	3.33	-59.9	-73.8	3.8	1.49e+00	0	25	104	1832910848	85	18409
2026-01-08 21:44:22.79	123.54	3.28	-59.9	-73.8	3.8	1.49e+00	0	25	104	1832910848	85	18359
2026-01-08 21:44:23.79	123.64	3.23	-59.9	-73.8	3.8	1.49e+00	0	25	104	1832910848	85	18345
2026-01-08 21:44:24.79	123.73	3.19	-59.9	-73.8	3.8	1.49e+00	0	25	104	1832910848	85	18336
2026-01-08 21:44:25.79	123.83	3.14	-59.9	-73.7	3.8	1.49e+00	0	25	104	1832910848	85	18279
2026-01-08 21:44:26.79	123.93	3.09	-59.9	-73.7	3.8	1.49e+00	0	25	104	1832910848	85	18202
2026-01-08 21:44:27.79	124.03	3.04	-59.9	-73.7	3.8	1.49e+00	0	25	104	1832910848	85	18224
2026-01-08 21:44:28.79	124.12	2.99	-59.9	-73.7	3.8	1.49e+00	0	24	104	1832910848	85	18202
2026-01-08 21:44:29.78	124.22	2.94	-59.9	-73.7	3.8	1.49e+00	0	25	104	1832910848	85	18274
2026-01-08 21:44:30.79	124.32	2.90	-59.9	-73.7	3.8	1.49e+00	0	25	104	1832910848	85	18242
2026-01-08 21:44:31.79	124.41	2.85	-59.8	-73.7	3.8	1.49e+00	0	25	104	1832910848	85	18141
2026-01-08 21:44:32.79	124.51	2.80	-59.8	-73.7	3.8	1.49e+00	0	25	104	1832910848	85	18198
2026-01-08 21:44:33.78	124.61	2.75	-59.8	-73.7	3.8	1.49e+00	0	25	104	1832910848	85	18133
2026-01-08 21:44:34.78	124.70	2.70	-59.8	-73.7	3.8	1.49e+00	0	24	104	1832910848	85	18127
2026-01-08 21:44:35.79	124.80	2.65	-59.8	-73.7	3.8	1.49e+00	0	25	104	1832910848	85	18212
2026-01-08 21:44:36.78	124.89	2.61	-59.9	-73.7	3.8	1.49e+00	0	25	104	1832910848	85	18218
2026-01-08 21:44:37.78	124.98	2.56	-59.8	-73.7	3.8	1.49e+00	0	25	104	1832910848	85	18192
2026-01-08 21:44:38.78	125.08	2.51	-59.8	-73.7	3.8	1.49e+00	0	25	104	1832910848	85	18190
2026-01-08 21:44:39.78	125.17	2.46	-59.8	-73.7	3.8	1.49e+00	0	25	104	1832910848	85	18112
2026-01-08 21:44:40.78	125.27	2.41	-59.8	-73.7	3.8	1.49e+00	0	25	104	1832910848	85	18097
2026-01-08 21:44:41.79	125.36	2.37	-59.8	-73.6	3.8	1.49e+00	0	25	104	1832910848	85	18086
2026-01-08 21:44:42.78	125.45	2.32	-59.8	-73.7	3.8	1.49e+00	0	25	104	1832910848	85	18109
2026-01-08 21:44:43.78	125.55	2.27	-59.8	-73.6	3.8	1.49e+00	0	25	104	1832910848	85	18038
2026-01-08 21:44:44.78	125.64	2.22	-59.8	-73.7	3.8	1.49e+00	0	24	104	1832910848	85	18167
2026-01-08 21:44:45.77	125.73	2.17	-59.8	-73.7	3.8	1.49e+00	0	25	104	1832910848	85	18137
2026-01-08 21:44:46.77	125.82	2.13	-59.8	-73.7	3.8	1.49e+00	0	25	104	1832910848	85	18119
